passes_logs/2026/01/25/R2.0S_Moscow/R2.0S_Moscow__20260125_090819_NOAA_21_JPSS-2_rec.log

#Pass ID: 20260125_090819_NOAA 21 (JPSS-2)
#Satellite: NOAA 21 (JPSS-2)
#Configuration: NOAA-21
#almurnet v.1.7.20251203
#Start time: 2026-01-25 09:08:20

#Version: 2.2.20231116
#Station: R2.0S_Moscow
#Location: 37.707566 lon 55.798166 lat
#TLE: 1 54234U 22150A   26024.45772595  .00000201  00000+0  11607-3 0  9996
#TLE: 2 54234  98.7508 325.2435 0000728 220.7365 139.3757 14.19538765166156

#Time	Az	El	Level	Level2	SNR	BER	BlckErr	Temp	State	Recorded	gain1	gain2
2026-01-25 09:08:20.50	137.82	2.06	-33.4	-47.7	4.3	1.51e+00	0	52	0	0	31	27879
2026-01-25 09:08:21.52	137.79	2.13	-26.7	-42.6	3.7	1.52e+00	0	53	104	0	11	48870
2026-01-25 09:08:22.53	137.76	2.19	-32.4	-47.7	4.0	1.51e+00	0	53	104	0	19	55915
2026-01-25 09:08:23.54	137.73	2.25	-27.1	-46.3	3.9	1.51e+00	0	53	104	0	29	26662
2026-01-25 09:08:24.55	137.69	2.32	-31.9	-45.2	3.6	1.52e+00	0	53	104	0	19	41840
2026-01-25 09:08:25.56	137.66	2.38	-27.1	-41.1	3.8	1.51e+00	0	53	104	0	35	10397
2026-01-25 09:08:26.57	137.63	2.45	-32.1	-46.2	4.2	1.51e+00	0	53	104	0	34	19640
2026-01-25 09:08:27.58	137.60	2.51	-21.8	-35.4	4.2	1.51e+00	0	53	104	0	25	9549
2026-01-25 09:08:28.59	137.56	2.57	-32.1	-47.6	4.1	1.51e+00	0	53	104	0	34	23181
2026-01-25 09:08:29.60	137.53	2.64	-30.1	-39.1	3.3	1.51e+00	0	53	104	0	17	23209
2026-01-25 09:08:30.61	137.50	2.70	-27.4	-43.5	3.7	1.51e+00	0	53	104	0	30	18106
2026-01-25 09:08:31.62	137.46	2.77	-22.1	-36.2	3.4	1.51e+00	0	53	104	0	22	12496
2026-01-25 09:08:32.63	137.43	2.83	-28.1	-45.8	3.9	1.52e+00	0	53	104	0	27	28149
2026-01-25 09:08:33.64	137.39	2.90	-28.4	-44.3	3.9	1.51e+00	0	53	104	0	25	26476
2026-01-25 09:08:34.65	137.36	2.96	-28.1	-43.0	3.5	1.51e+00	0	54	104	0	17	36311
2026-01-25 09:08:35.66	137.33	3.03	-29.1	-42.8	3.3	1.52e+00	0	54	104	0	14	42017
2026-01-25 09:08:36.67	137.29	3.09	-30.9	-44.0	4.1	1.52e+00	0	54	104	0	29	20414
2026-01-25 09:08:37.68	137.26	3.16	-24.6	-41.0	3.9	1.51e+00	0	54	104	0	21	22785
2026-01-25 09:08:38.69	137.22	3.23	-29.2	-46.6	4.3	1.52e+00	0	54	104	0	30	25945
2026-01-25 09:08:39.70	137.19	3.29	-21.1	-34.6	3.6	1.52e+00	0	54	104	0	15	15437
2026-01-25 09:08:40.71	137.15	3.36	-31.5	-45.5	4.2	1.51e+00	0	54	104	0	29	24302
2026-01-25 09:08:41.72	137.12	3.42	-29.7	-41.4	4.4	1.51e+00	0	54	104	0	20	25394
2026-01-25 09:08:42.73	137.08	3.49	-17.9	-31.0	3.5	1.51e+00	0	54	104	0	23	6451
2026-01-25 09:08:43.74	137.04	3.56	-32.0	-44.9	3.6	1.51e+00	0	54	104	0	24	30340
2026-01-25 09:08:44.75	137.01	3.62	-30.4	-44.7	4.2	1.52e+00	0	54	104	0	29	22232
2026-01-25 09:08:45.76	136.97	3.69	-24.9	-42.4	3.5	1.51e+00	0	54	104	0	16	35964
2026-01-25 09:08:46.77	136.94	3.76	-20.3	-40.3	4.2	1.52e+00	0	54	104	0	22	19920
2026-01-25 09:08:47.78	136.90	3.82	-26.7	-42.7	3.7	1.51e+00	0	54	104	0	20	29466
2026-01-25 09:08:48.79	136.86	3.89	-29.2	-43.3	3.8	1.52e+00	0	54	104	0	22	28197
2026-01-25 09:08:49.80	136.83	3.96	-30.2	-45.1	4.0	1.51e+00	0	54	104	0	24	31063
2026-01-25 09:08:50.81	136.79	4.03	-28.0	-44.4	4.3	1.52e+00	0	55	104	0	27	23868
2026-01-25 09:08:51.82	136.75	4.09	-28.4	-42.5	4.0	1.52e+00	0	55	104	0	23	24144
2026-01-25 09:08:52.83	136.72	4.16	-18.8	-38.6	4.5	1.51e+00	0	55	104	0	13	27398
2026-01-25 09:08:53.84	136.68	4.23	-33.9	-46.5	4.2	1.51e+00	0	55	104	0	19	48551
2026-01-25 09:08:54.85	136.64	4.30	-25.1	-41.3	3.7	1.52e+00	0	55	104	0	22	22346
2026-01-25 09:08:55.86	136.60	4.37	-19.3	-32.6	3.7	1.51e+00	0	55	104	0	11	15525
2026-01-25 09:08:56.87	136.56	4.44	-20.3	-40.7	3.4	1.52e+00	0	55	104	0	11	39297
2026-01-25 09:08:57.88	136.53	4.50	-20.1	-37.4	3.6	1.51e+00	0	55	104	0	10	28371
2026-01-25 09:08:58.89	136.49	4.57	-21.9	-34.6	3.8	1.52e+00	0	55	104	0	15	15434
2026-01-25 09:08:59.90	136.45	4.64	-25.4	-42.0	4.4	1.52e+00	0	55	104	0	29	16137
2026-01-25 09:09:00.91	136.41	4.71	-23.5	-38.4	4.0	1.51e+00	0	55	104	0	23	15079
2026-01-25 09:09:01.92	136.37	4.78	-20.7	-32.9	3.5	1.51e+00	0	55	104	0	16	12060
2026-01-25 09:09:02.93	136.33	4.85	-19.8	-38.6	3.9	1.51e+00	0	55	104	0	17	21901
2026-01-25 09:09:03.94	136.29	4.92	-26.4	-41.0	3.9	1.52e+00	0	55	104	0	20	24209
2026-01-25 09:09:04.95	136.25	4.99	-20.2	-36.0	3.7	1.52e+00	0	55	104	0	11	22897
2026-01-25 09:09:05.96	136.21	5.06	-32.0	-46.6	4.2	1.51e+00	0	55	104	0	31	24535
2026-01-25 09:09:06.97	136.17	5.13	-29.2	-44.7	4.2	1.52e+00	0	55	104	0	26	26392
2026-01-25 09:09:07.99	136.13	5.20	-28.4	-43.4	3.9	1.52e+00	0	56	104	0	27	21300
2026-01-25 09:09:08.99	136.09	5.27	-28.5	-44.9	4.0	1.51e+00	0	55	104	0	27	25390
2026-01-25 09:09:10.01	136.05	5.34	-32.7	-48.2	4.2	1.52e+00	0	56	104	0	32	27899
2026-01-25 09:09:11.02	136.01	5.41	-33.2	-46.7	4.3	1.51e+00	0	56	104	0	31	24744
2026-01-25 09:09:12.02	135.97	5.48	-19.3	-32.2	4.0	1.52e+00	0	56	104	0	9	16528
2026-01-25 09:09:13.04	135.93	5.56	-31.6	-45.4	4.1	1.52e+00	0	56	104	0	29	23938
2026-01-25 09:09:14.05	135.89	5.63	-30.9	-46.3	4.2	1.52e+00	0	56	104	0	33	21154
2026-01-25 09:09:15.06	135.85	5.70	-30.3	-45.0	3.9	1.52e+00	0	56	104	0	27	25644
2026-01-25 09:09:16.07	135.80	5.77	-31.1	-42.5	3.4	1.52e+00	0	56	104	0	14	40767
2026-01-25 09:09:17.08	135.76	5.84	-20.8	-38.1	4.1	1.51e+00	0	56	104	0	29	10330
2026-01-25 09:09:18.09	135.72	5.92	-27.5	-43.8	4.0	1.51e+00	0	56	104	0	29	19883
2026-01-25 09:09:19.10	135.68	5.99	-27.8	-45.9	4.2	1.52e+00	0	56	104	0	36	16966
2026-01-25 09:09:20.11	135.63	6.06	-24.2	-40.5	3.8	1.52e+00	0	56	104	0	24	18171
2026-01-25 09:09:21.11	135.59	6.13	-28.9	-43.5	3.9	1.52e+00	0	56	104	0	28	20454
2026-01-25 09:09:22.13	135.55	6.21	-32.8	-48.9	4.0	1.51e+00	0	56	104	0	30	33727
2026-01-25 09:09:23.14	135.50	6.28	-29.8	-47.8	4.2	1.51e+00	0	56	104	0	34	23756
2026-01-25 09:09:24.15	135.46	6.35	-32.6	-47.3	4.2	1.51e+00	0	56	104	0	34	22469
2026-01-25 09:09:25.16	135.42	6.43	-29.8	-44.6	4.0	1.51e+00	0	57	104	0	31	19390
2026-01-25 09:09:26.17	135.37	6.50	-31.2	-45.5	3.7	1.52e+00	0	56	104	0	23	34258
2026-01-25 09:09:27.18	135.33	6.57	-17.8	-28.4	3.6	1.53e+00	0	56	104	0	8	11291
2026-01-25 09:09:28.19	135.28	6.65	-30.3	-44.5	4.2	1.53e+00	0	57	104	0	26	25775
2026-01-25 09:09:29.20	135.24	6.72	-27.6	-44.1	3.8	1.51e+00	0	57	104	0	28	21937
2026-01-25 09:09:30.21	135.19	6.80	-22.2	-34.9	3.8	1.51e+00	0	57	104	0	15	16019
2026-01-25 09:09:31.22	135.15	6.87	-32.2	-45.5	4.2	1.51e+00	0	57	104	0	31	21733
2026-01-25 09:09:32.22	135.10	6.95	-31.1	-45.4	4.2	1.51e+00	0	57	104	0	30	22755
2026-01-25 09:09:33.24	135.06	7.02	-32.9	-48.1	4.2	1.51e+00	0	57	104	0	34	24497
2026-01-25 09:09:34.25	135.01	7.10	-31.7	-45.5	4.1	1.51e+00	0	57	104	0	26	28831
2026-01-25 09:09:35.26	134.97	7.17	-29.1	-44.4	4.0	1.52e+00	0	57	104	0	30	20140
2026-01-25 09:09:36.27	134.92	7.25	-28.9	-42.0	3.9	1.51e+00	0	57	104	0	27	18190
2026-01-25 09:09:37.28	134.87	7.32	-28.5	-45.1	4.1	1.51e+00	0	57	104	0	31	20613
2026-01-25 09:09:38.29	134.82	7.40	-27.3	-44.6	4.3	1.51e+00	0	57	104	0	31	19607
2026-01-25 09:09:39.30	134.78	7.48	-31.5	-44.3	4.0	1.51e+00	0	57	104	0	30	19852
2026-01-25 09:09:40.31	134.73	7.55	-32.5	-48.4	4.1	1.51e+00	0	57	104	0	31	30202
2026-01-25 09:09:41.32	134.68	7.63	-16.9	-38.3	3.4	1.53e+00	0	57	104	0	12	28154
2026-01-25 09:09:42.33	134.63	7.71	-24.7	-38.3	3.8	1.53e+00	0	57	104	0	15	23833
2026-01-25 09:09:43.34	134.59	7.78	-20.2	-34.3	3.7	1.52e+00	0	57	104	0	10	19893
2026-01-25 09:09:44.35	134.54	7.86	-23.0	-35.7	3.6	1.52e+00	0	57	104	0	18	14748
2026-01-25 09:09:45.36	134.49	7.94	-22.6	-37.0	4.4	1.52e+00	0	57	104	0	29	9142
2026-01-25 09:09:46.37	134.44	8.02	-24.5	-37.5	3.7	1.52e+00	0	57	104	0	22	14529
2026-01-25 09:09:47.38	134.39	8.09	-30.4	-42.2	4.3	1.52e+00	0	57	104	0	28	17633
2026-01-25 09:09:48.39	134.34	8.17	-26.0	-41.2	4.0	1.51e+00	0	57	104	0	29	14833
2026-01-25 09:09:49.40	134.29	8.25	-26.3	-37.9	3.2	1.51e+00	0	57	104	0	11	28551
2026-01-25 09:09:50.41	134.24	8.33	-20.7	-38.4	3.4	1.52e+00	0	58	104	0	13	26819
2026-01-25 09:09:51.42	134.19	8.41	-19.5	-35.2	3.5	1.52e+00	0	57	104	0	12	19712
2026-01-25 09:09:52.43	134.14	8.49	-25.5	-40.7	4.0	1.51e+00	0	57	104	0	24	18728
2026-01-25 09:09:53.44	134.09	8.57	-26.0	-41.1	4.0	1.51e+00	0	57	104	0	27	16424
2026-01-25 09:09:54.45	134.03	8.65	-27.8	-41.8	3.8	1.51e+00	0	58	104	0	20	26460
2026-01-25 09:09:55.46	133.98	8.73	-24.9	-39.2	3.5	1.51e+00	0	57	104	0	18	22094
2026-01-25 09:09:56.47	133.93	8.81	-27.5	-40.6	3.9	1.51e+00	0	57	104	0	24	18351
2026-01-25 09:09:57.48	133.88	8.89	-26.4	-38.5	3.9	1.52e+00	0	58	104	0	25	13672
2026-01-25 09:09:58.49	133.83	8.97	-26.2	-37.9	3.7	1.52e+00	0	58	104	0	18	19066
2026-01-25 09:09:59.50	133.77	9.05	-21.1	-36.3	3.6	1.52e+00	0	58	104	0	15	18773
2026-01-25 09:10:00.51	133.72	9.13	-20.4	-32.9	3.5	1.52e+00	0	58	104	0	14	13421
2026-01-25 09:10:01.52	133.67	9.21	-17.1	-28.4	3.8	1.51e+00	0	58	104	0	5	13469
2026-01-25 09:10:02.53	133.61	9.29	-25.2	-37.5	3.4	1.51e+00	0	58	104	0	17	19356
2026-01-25 09:10:03.54	133.56	9.37	-21.2	-35.6	3.7	1.52e+00	0	58	104	0	18	14658
2026-01-25 09:10:04.55	133.50	9.46	-18.6	-30.1	3.6	1.52e+00	0	58	104	0	12	10970
2026-01-25 09:10:05.56	133.45	9.54	-19.0	-30.3	3.7	1.52e+00	0	58	104	0	6	15866
2026-01-25 09:10:06.57	133.39	9.62	-17.3	-29.6	3.9	1.52e+00	0	58	104	0	9	12287
2026-01-25 09:10:07.58	133.34	9.70	-17.6	-29.4	3.6	1.52e+00	0	58	104	0	18	7176
2026-01-25 09:10:08.59	133.28	9.79	-21.5	-34.7	3.4	1.51e+00	0	58	104	0	15	15663
2026-01-25 09:10:09.60	133.22	9.87	-17.9	-31.1	3.7	1.52e+00	0	58	104	0	8	15550
2026-01-25 09:10:10.61	133.17	9.95	-25.1	-39.0	3.6	1.52e+00	0	58	104	0	21	18144
2026-01-25 09:10:11.62	133.11	10.04	-19.4	-31.7	3.6	1.52e+00	0	58	104	0	10	14791
2026-01-25 09:10:12.63	133.05	10.12	-22.0	-36.7	3.6	1.52e+00	0	58	104	0	15	19744
2026-01-25 09:10:13.64	133.00	10.21	-21.2	-35.6	3.8	1.52e+00	0	58	104	0	16	16319
2026-01-25 09:10:14.65	132.94	10.29	-24.7	-37.7	3.7	1.52e+00	0	58	104	0	20	16659
2026-01-25 09:10:15.65	132.88	10.37	-23.4	-34.9	3.7	1.52e+00	0	58	104	0	15	16114
2026-01-25 09:10:16.66	132.82	10.46	-19.5	-32.8	3.5	1.51e+00	0	58	104	0	12	14970
2026-01-25 09:10:17.67	132.76	10.54	-21.5	-35.0	3.9	1.51e+00	0	58	104	0	18	13634
2026-01-25 09:10:18.69	132.70	10.63	-25.1	-36.2	3.9	1.51e+00	0	58	104	0	16	17483
2026-01-25 09:10:19.69	132.64	10.72	-23.8	-36.0	3.8	1.51e+00	0	58	104	0	7	28968
2026-01-25 09:10:20.70	132.58	10.80	-17.8	-34.9	3.4	1.51e+00	0	58	104	0	7	25519
2026-01-25 09:10:21.71	132.52	10.89	-16.9	-30.0	4.0	1.50e+00	0	58	104	0	15	9167
2026-01-25 09:10:22.72	132.46	10.97	-27.0	-38.9	4.1	1.51e+00	0	58	104	0	20	19136
2026-01-25 09:10:23.73	132.40	11.06	-20.9	-32.9	3.9	1.49e+00	0	58	104	0	10	16968
2026-01-25 09:10:24.74	132.34	11.15	-24.0	-35.9	4.2	1.48e+00	0	58	104	0	14	19020
2026-01-25 09:10:25.75	132.28	11.24	-20.7	-35.4	4.1	1.51e+00	0	58	104	0	19	13439
2026-01-25 09:10:26.76	132.22	11.32	-21.6	-35.8	3.8	1.49e+00	0	58	104	0	17	15869
2026-01-25 09:10:27.77	132.15	11.41	-22.0	-36.0	4.4	1.49e+00	0	58	104	0	18	15267
2026-01-25 09:10:28.78	132.09	11.50	-17.8	-32.3	4.0	1.48e+00	0	58	104	0	17	10537
2026-01-25 09:10:29.79	132.03	11.59	-29.2	-42.2	4.9	1.47e+00	0	59	104	0	28	17681
2026-01-25 09:10:30.80	131.96	11.68	-26.7	-43.5	4.2	1.51e+00	0	58	104	0	29	19288
2026-01-25 09:10:31.81	131.90	11.77	-24.9	-36.5	4.2	1.47e+00	0	59	104	0	19	15315
2026-01-25 09:10:32.82	131.83	11.86	-25.5	-40.6	4.5	1.50e+00	0	58	104	0	25	17404
2026-01-25 09:10:33.83	131.77	11.95	-27.4	-42.2	4.6	1.50e+00	0	59	104	0	24	22125
2026-01-25 09:10:34.84	131.70	12.04	-25.1	-40.3	3.8	1.50e+00	0	59	104	0	23	18749
2026-01-25 09:10:35.85	131.64	12.13	-27.8	-41.5	4.5	1.49e+00	0	59	104	0	24	20491
2026-01-25 09:10:36.86	131.57	12.22	-19.5	-36.1	3.8	1.48e+00	0	59	104	0	10	24605
2026-01-25 09:10:37.87	131.50	12.31	-28.2	-42.8	4.5	1.46e+00	0	58	104	0	27	19851
2026-01-25 09:10:38.88	131.44	12.40	-34.0	-48.9	4.0	1.51e+00	0	58	104	0	38	21404
2026-01-25 09:10:39.88	131.37	12.49	-19.2	-33.7	3.8	1.48e+00	0	58	104	0	12	16541
2026-01-25 09:10:40.89	131.30	12.58	-26.3	-39.4	4.7	1.48e+00	0	59	104	0	25	15105
2026-01-25 09:10:41.90	131.23	12.67	-22.8	-33.9	4.3	1.47e+00	0	59	104	0	18	12019
2026-01-25 09:10:42.91	131.16	12.77	-27.1	-39.7	4.8	1.48e+00	0	58	104	0	25	15671
2026-01-25 09:10:43.92	131.09	12.86	-28.1	-39.0	4.9	1.48e+00	0	59	104	0	24	15295
2026-01-25 09:10:44.93	131.03	12.95	-26.3	-40.5	4.9	1.47e+00	0	59	104	0	23	19193
2026-01-25 09:10:45.94	130.95	13.05	-23.3	-35.5	4.1	1.47e+00	0	59	104	0	21	12130
2026-01-25 09:10:46.95	130.88	13.14	-38.3	-52.0	3.9	1.50e+00	0	59	104	0	45	20472
2026-01-25 09:10:47.96	130.81	13.23	-33.6	-46.2	4.4	1.46e+00	0	59	104	0	39	14865
2026-01-25 09:10:48.97	130.74	13.33	-34.8	-46.4	4.6	1.45e+00	0	59	104	0	43	11998
2026-01-25 09:10:49.98	130.67	13.42	-20.9	-33.4	3.9	1.48e+00	0	59	104	0	24	8030
2026-01-25 09:10:50.99	130.60	13.52	-33.1	-45.8	4.5	1.46e+00	0	59	104	0	40	13293
2026-01-25 09:10:52.00	130.52	13.61	-41.6	-49.4	4.2	1.32e+00	0	59	104	0	50	11338
2026-01-25 09:10:53.01	130.45	13.71	-38.7	-50.8	3.9	1.49e+00	0	59	104	0	49	14093
2026-01-25 09:10:54.02	130.38	13.80	-31.3	-43.0	5.2	1.43e+00	0	59	104	0	32	15355
2026-01-25 09:10:55.03	130.30	13.90	-40.0	-48.1	5.9	8.95e-01	9	59	104	0	52	8692
2026-01-25 09:10:56.04	130.23	14.00	-31.8	-45.0	4.4	1.03e+00	0	59	104	0	28	24219
2026-01-25 09:10:57.05	130.15	14.09	-34.4	-43.6	4.9	1.45e+00	0	59	104	0	36	13069
2026-01-25 09:10:58.06	130.07	14.19	-33.2	-42.9	7.4	1.15e+00	6	59	0	0	40	9507
2026-01-25 09:10:59.06	130.00	14.29	-32.9	-42.7	7.5	5.82e-01	17	59	0	0	40	9336
2026-01-25 09:11:00.07	129.92	14.39	-34.1	-42.6	4.6	1.16e+00	0	59	104	0	20	29054
2026-01-25 09:11:01.08	129.84	14.48	-29.7	-42.7	4.8	1.45e+00	0	59	104	0	37	11154
2026-01-25 09:11:02.10	129.76	14.58	-33.5	-44.0	4.5	1.43e+00	0	59	104	0	38	12152
2026-01-25 09:11:03.10	129.69	14.68	-36.8	-47.1	4.5	1.47e+00	0	59	104	0	41	14603
2026-01-25 09:11:04.11	129.61	14.78	-41.0	-51.6	4.1	1.37e-01	0	59	104	0	57	9764
2026-01-25 09:11:05.12	129.53	14.88	-43.3	-54.6	3.8	1.49e+00	0	59	104	0	57	13838
2026-01-25 09:11:06.13	129.45	14.98	-39.8	-44.6	8.4	1.19e+00	14	59	104	0	49	6927
2026-01-25 09:11:07.14	129.36	15.08	-34.2	-42.6	8.9	1.19e-01	33	59	0	2097152	47	6156
2026-01-25 09:11:08.15	129.28	15.18	-39.8	-43.5	10.2	4.68e-01	1	59	104	3145728	50	5770
2026-01-25 09:11:09.16	129.20	15.28	-38.7	-43.5	10.1	1.96e-01	5	59	0	5242880	50	5743
2026-01-25 09:11:10.17	129.12	15.38	-40.4	-44.6	4.9	1.41e+00	0	59	104	6291456	47	7722
2026-01-25 09:11:11.18	129.04	15.49	-35.8	-43.2	7.8	3.59e-01	9	59	0	6291456	42	8850
2026-01-25 09:11:12.19	128.95	15.59	-33.5	-42.7	9.4	8.23e-01	15	59	104	7340032	49	5534
2026-01-25 09:11:13.20	128.87	15.69	-37.9	-43.7	10.2	1.30e-01	5	60	0	9437184	46	7441
2026-01-25 09:11:14.21	128.78	15.79	-39.8	-43.7	11.3	3.12e-03	0	59	0	12582912	51	5562
2026-01-25 09:11:15.22	128.70	15.90	-37.1	-43.0	10.3	4.15e-02	0	60	0	15728640	49	5779
2026-01-25 09:11:16.22	128.61	16.00	-38.3	-42.9	10.6	2.94e-02	0	60	0	18874368	49	5699
2026-01-25 09:11:17.23	128.52	16.10	-40.3	-43.2	11.9	3.88e-02	0	60	0	22020096	51	5268
2026-01-25 09:11:18.24	128.44	16.21	-37.2	-42.8	8.9	4.54e-02	0	59	0	25165824	47	6290
2026-01-25 09:11:19.25	128.35	16.31	-40.4	-43.2	12.1	3.20e-03	0	59	0	28311552	51	5263
2026-01-25 09:11:20.26	128.26	16.42	-40.3	-43.0	12.4	7.52e-04	0	60	0	31457280	51	5108
2026-01-25 09:11:21.27	128.17	16.52	-40.0	-42.8	11.6	1.08e-03	0	59	0	34603008	50	5297
2026-01-25 09:11:22.28	128.08	16.63	-40.0	-42.7	12.7	2.30e-03	0	60	0	37748736	50	5260
2026-01-25 09:11:23.29	127.99	16.74	-40.1	-42.7	12.9	1.04e-04	0	60	0	40894464	50	5228
2026-01-25 09:11:24.30	127.90	16.84	-40.1	-42.7	12.9	7.40e-05	0	60	0	44040192	50	5248
2026-01-25 09:11:25.31	127.81	16.95	-39.3	-42.6	12.8	5.26e-05	0	60	0	47185920	50	5204
2026-01-25 09:11:26.32	127.71	17.06	-39.3	-42.5	13.1	6.48e-05	0	60	0	50331648	50	5113
2026-01-25 09:11:27.33	127.62	17.17	-40.0	-42.5	13.1	2.74e-05	0	59	0	53477376	50	5131
2026-01-25 09:11:28.34	127.53	17.27	-40.1	-42.6	13.1	4.04e-05	0	60	0	56623104	50	5180
2026-01-25 09:11:29.35	127.43	17.38	-40.1	-42.6	12.9	4.04e-05	0	60	0	59768832	50	5210
2026-01-25 09:11:30.36	127.34	17.49	-40.0	-42.5	13.1	1.22e-04	0	60	0	62914560	50	5149
2026-01-25 09:11:31.37	127.24	17.60	-39.9	-42.5	13.1	4.65e-05	0	60	0	66060288	50	5116
2026-01-25 09:11:32.38	127.14	17.71	-40.0	-42.5	13.1	4.80e-05	0	59	0	69206016	50	5153
2026-01-25 09:11:33.39	127.05	17.82	-40.1	-42.6	13.1	3.05e-05	0	60	0	72351744	50	5201
2026-01-25 09:11:34.39	126.95	17.93	-40.0	-42.5	13.2	2.97e-05	0	60	0	75497472	50	5153
2026-01-25 09:11:35.40	126.85	18.04	-40.0	-42.5	13.3	2.28e-05	0	60	0	78643200	50	5120
2026-01-25 09:11:36.41	126.75	18.15	-40.1	-42.6	13.2	7.62e-05	0	60	0	81788928	50	5162
2026-01-25 09:11:37.43	126.65	18.27	-40.0	-42.4	13.3	1.98e-05	0	60	0	84934656	50	5089
2026-01-25 09:11:38.44	126.55	18.38	-40.0	-42.4	13.3	2.05e-05	0	60	0	88080384	50	5076
2026-01-25 09:11:39.45	126.44	18.49	-40.0	-42.4	13.3	1.37e-05	0	60	0	91226112	50	5065
2026-01-25 09:11:40.45	126.34	18.61	-39.9	-42.4	13.3	5.03e-05	0	60	0	94371840	50	5076
2026-01-25 09:11:41.46	126.24	18.72	-40.0	-42.4	13.4	1.06e-05	0	60	0	97517568	50	5084
2026-01-25 09:11:42.47	126.13	18.83	-39.9	-42.4	13.3	2.21e-05	0	60	0	100663296	50	5077
2026-01-25 09:11:43.48	126.03	18.95	-40.0	-42.4	13.4	4.73e-05	0	60	0	103809024	50	5061
2026-01-25 09:11:44.49	125.92	19.06	-40.0	-42.3	13.5	1.14e-05	0	60	0	106954752	50	5034
2026-01-25 09:11:45.50	125.82	19.18	-39.8	-42.1	13.7	8.30e-06	0	60	0	110100480	50	4920
2026-01-25 09:11:46.51	125.71	19.29	-39.8	-42.1	13.7	3.00e-06	0	60	0	113246208	50	4874
2026-01-25 09:11:47.52	125.60	19.41	-39.5	-42.0	13.7	3.80e-06	0	60	0	116391936	50	4868
2026-01-25 09:11:48.53	125.49	19.53	-39.7	-42.0	13.8	1.22e-05	0	60	0	119537664	50	4827
2026-01-25 09:11:49.54	125.38	19.64	-39.7	-41.9	13.9	2.20e-06	0	60	0	122683392	50	4790
2026-01-25 09:11:50.55	125.27	19.76	-39.7	-41.9	13.9	6.80e-06	0	60	0	125829120	50	4812
2026-01-25 09:11:51.56	125.16	19.88	-39.6	-41.9	13.9	4.50e-06	0	60	0	128974848	50	4788
2026-01-25 09:11:52.57	125.04	20.00	-39.7	-41.9	13.9	4.50e-06	0	60	0	132120576	50	4793
2026-01-25 09:11:53.59	124.93	20.12	-39.6	-41.9	14.0	3.80e-06	0	60	0	135266304	50	4766
2026-01-25 09:11:54.60	124.81	20.24	-39.6	-41.8	14.1	3.80e-06	0	60	0	138412032	50	4723
2026-01-25 09:11:55.61	124.70	20.36	-39.6	-41.8	14.0	2.20e-06	0	60	0	141557760	50	4723
2026-01-25 09:11:56.61	124.58	20.48	-39.6	-41.8	14.1	2.20e-06	0	60	0	144703488	50	4715
2026-01-25 09:11:57.62	124.47	20.60	-39.4	-41.5	14.3	2.20e-06	0	60	0	147849216	50	4596
2026-01-25 09:11:58.63	124.35	20.72	-39.3	-41.4	14.5	1.50e-06	0	60	0	150994944	50	4515
2026-01-25 09:11:59.64	124.23	20.84	-39.3	-41.4	14.5	0.00e+00	0	60	0	154140672	50	4522
2026-01-25 09:12:00.65	124.11	20.96	-39.3	-41.4	14.5	0.00e+00	0	60	0	157286400	50	4538
2026-01-25 09:12:01.66	123.99	21.08	-39.3	-41.5	14.5	7.00e-07	0	60	0	160432128	50	4548
2026-01-25 09:12:02.67	123.86	21.21	-39.0	-41.0	14.9	0.00e+00	0	60	0	163577856	50	4329
2026-01-25 09:12:03.68	123.74	21.33	-38.8	-40.8	15.1	0.00e+00	0	60	0	166723584	49	4459
2026-01-25 09:12:04.69	123.62	21.45	-38.8	-40.7	15.2	0.00e+00	0	60	0	169869312	49	4421
2026-01-25 09:12:05.70	123.49	21.58	-38.8	-40.7	15.2	0.00e+00	0	60	0	173015040	49	4425
2026-01-25 09:12:06.71	123.36	21.70	-38.8	-40.7	15.2	0.00e+00	0	60	0	176160768	49	4417
2026-01-25 09:12:07.72	123.24	21.83	-38.7	-40.6	15.3	0.00e+00	0	60	0	179306496	49	4382
2026-01-25 09:12:08.73	123.11	21.95	-38.8	-40.7	15.2	0.00e+00	0	60	0	182452224	49	4398
2026-01-25 09:12:09.73	122.98	22.08	-38.7	-40.6	15.3	0.00e+00	0	60	0	185597952	49	4364
2026-01-25 09:12:10.74	122.85	22.21	-38.7	-40.6	15.3	0.00e+00	0	60	0	188743680	49	4351
2026-01-25 09:12:11.75	122.72	22.33	-38.8	-40.7	15.2	0.00e+00	0	60	0	191889408	49	4405
2026-01-25 09:12:12.76	122.59	22.46	-38.7	-40.7	15.3	0.00e+00	0	60	0	195035136	49	4394
2026-01-25 09:12:13.78	122.45	22.59	-38.8	-40.7	15.2	0.00e+00	0	60	0	198180864	49	4423
2026-01-25 09:12:14.78	122.32	22.72	-38.8	-40.8	15.2	0.00e+00	0	60	0	201326592	49	4457
2026-01-25 09:12:15.79	122.18	22.85	-38.9	-40.8	15.1	0.00e+00	0	60	0	204472320	49	4489
2026-01-25 09:12:16.80	122.04	22.97	-38.8	-40.7	15.2	0.00e+00	0	60	0	207618048	49	4423
2026-01-25 09:12:17.81	121.91	23.10	-38.8	-40.7	15.3	0.00e+00	0	60	0	210763776	49	4428
2026-01-25 09:12:18.82	121.77	23.24	-38.7	-40.6	15.4	0.00e+00	0	60	0	213909504	49	4350
2026-01-25 09:12:19.83	121.62	23.37	-38.8	-40.7	15.2	0.00e+00	0	60	0	217055232	49	4428
2026-01-25 09:12:20.84	121.48	23.50	-38.8	-40.7	15.3	0.00e+00	0	60	0	220200960	49	4423
2026-01-25 09:12:21.85	121.34	23.63	-38.8	-40.7	15.3	0.00e+00	0	60	0	223346688	49	4427
2026-01-25 09:12:22.86	121.20	23.76	-38.8	-40.7	15.3	0.00e+00	0	60	0	226492416	49	4407
2026-01-25 09:12:23.87	121.05	23.89	-38.8	-40.6	15.3	0.00e+00	0	60	0	229638144	49	4390
2026-01-25 09:12:24.88	120.90	24.03	-38.7	-40.6	15.4	0.00e+00	0	60	0	232783872	49	4379
2026-01-25 09:12:25.89	120.75	24.16	-38.7	-40.6	15.4	0.00e+00	0	60	0	235929600	49	4373
2026-01-25 09:12:26.90	120.60	24.30	-38.8	-40.7	15.4	0.00e+00	0	60	0	239075328	49	4399
2026-01-25 09:12:27.91	120.45	24.43	-38.7	-40.6	15.4	0.00e+00	0	60	0	243269632	49	4345
2026-01-25 09:12:28.92	120.30	24.57	-38.7	-40.6	15.4	0.00e+00	0	60	0	246415360	49	4354
2026-01-25 09:12:29.93	120.15	24.70	-38.8	-40.6	15.3	0.00e+00	0	60	0	248512512	49	4390
2026-01-25 09:12:30.94	119.99	24.84	-38.8	-40.7	15.2	0.00e+00	0	60	0	251658240	49	4427
2026-01-25 09:12:31.95	119.84	24.97	-38.9	-40.9	15.1	0.00e+00	0	60	0	254803968	49	4498
2026-01-25 09:12:32.96	119.68	25.11	-39.0	-40.9	15.0	0.00e+00	0	60	0	258998272	49	4521
2026-01-25 09:12:33.97	119.52	25.25	-39.0	-41.0	15.0	0.00e+00	0	60	0	262144000	49	4553
2026-01-25 09:12:34.98	119.36	25.39	-39.1	-41.0	14.9	7.00e-07	0	60	0	265289728	49	4594
2026-01-25 09:12:35.99	119.20	25.52	-39.1	-41.1	14.8	0.00e+00	0	60	0	268435456	49	4628
2026-01-25 09:12:37.00	119.04	25.66	-39.1	-41.1	14.8	0.00e+00	0	60	0	271581184	49	4651
2026-01-25 09:12:38.01	118.87	25.80	-39.2	-41.2	14.8	7.00e-07	0	60	0	274726912	49	4687
2026-01-25 09:12:39.02	118.71	25.94	-39.2	-41.3	14.7	0.00e+00	0	60	0	277872640	49	4730
2026-01-25 09:12:40.03	118.54	26.08	-39.3	-41.4	14.6	0.00e+00	0	60	0	281018368	49	4791
2026-01-25 09:12:41.04	118.37	26.22	-39.4	-41.5	14.5	7.00e-07	0	60	0	284164096	49	4853
2026-01-25 09:12:42.05	118.20	26.36	-39.3	-41.5	14.5	7.00e-07	0	60	0	287309824	49	4846
2026-01-25 09:12:43.06	118.03	26.51	-39.5	-41.6	14.4	1.50e-06	0	60	0	290455552	49	4896
2026-01-25 09:12:44.07	117.85	26.65	-39.5	-41.6	14.4	0.00e+00	0	60	0	293601280	49	4881
2026-01-25 09:12:45.08	117.68	26.79	-39.5	-41.6	14.4	0.00e+00	0	60	0	296747008	49	4875
2026-01-25 09:12:46.09	117.50	26.93	-39.6	-41.7	14.3	0.00e+00	0	60	0	299892736	49	4955
2026-01-25 09:12:47.10	117.32	27.08	-39.7	-41.8	14.1	3.80e-06	0	61	0	303038464	49	5039
2026-01-25 09:12:48.11	117.14	27.22	-39.8	-42.1	13.9	3.80e-06	0	60	0	306184192	50	4887
2026-01-25 09:12:49.12	116.96	27.37	-40.0	-42.3	13.7	6.10e-06	0	60	0	309329920	50	4995
2026-01-25 09:12:50.13	116.78	27.51	-40.0	-42.4	13.6	3.00e-06	0	60	0	312475648	50	5056
2026-01-25 09:12:51.14	116.59	27.66	-40.0	-42.3	13.7	3.80e-06	0	60	0	315621376	50	5025
2026-01-25 09:12:52.15	116.40	27.80	-39.9	-42.2	13.8	1.50e-06	0	60	0	318767104	50	4970
2026-01-25 09:12:53.16	116.22	27.95	-39.8	-42.0	14.1	6.80e-06	0	61	0	321912832	50	4843
2026-01-25 09:12:54.16	116.03	28.09	-39.7	-41.8	14.2	2.20e-06	0	61	0	325058560	50	4756
2026-01-25 09:12:55.18	115.83	28.24	-39.6	-41.8	14.3	0.00e+00	0	60	0	328204288	50	4723
2026-01-25 09:12:56.18	115.64	28.39	-39.7	-41.9	14.2	3.80e-06	0	60	0	331350016	50	4781
2026-01-25 09:12:57.19	115.45	28.53	-39.6	-41.8	14.3	1.50e-06	0	60	0	334495744	50	4720
2026-01-25 09:12:58.20	115.25	28.68	-39.8	-42.0	14.1	1.50e-06	0	60	0	337641472	50	4839
2026-01-25 09:12:59.21	115.05	28.83	-39.7	-41.9	14.1	7.00e-07	0	60	0	340787200	50	4800
2026-01-25 09:13:00.22	114.85	28.98	-39.8	-42.1	14.0	5.30e-06	0	61	0	343932928	50	4876
2026-01-25 09:13:01.23	114.64	29.13	-39.9	-42.2	13.8	3.80e-06	0	60	0	347078656	50	4940
2026-01-25 09:13:02.24	114.44	29.28	-39.9	-42.1	13.9	5.30e-06	0	61	0	350224384	50	4915
2026-01-25 09:13:03.25	114.23	29.43	-39.9	-42.1	13.9	1.50e-06	0	60	0	353370112	50	4909
2026-01-25 09:13:04.26	114.02	29.58	-39.9	-42.1	13.9	3.80e-06	0	61	0	356515840	50	4915
2026-01-25 09:13:05.26	113.81	29.73	-39.7	-41.8	14.2	2.20e-06	0	60	0	359661568	50	4753
2026-01-25 09:13:06.27	113.60	29.88	-39.6	-41.7	14.3	1.50e-06	0	60	0	362807296	50	4691
2026-01-25 09:13:07.28	113.39	30.03	-39.6	-41.7	14.4	1.50e-06	0	61	0	365953024	50	4662
2026-01-25 09:13:08.29	113.17	30.18	-39.6	-41.8	14.3	1.50e-06	0	61	0	369098752	50	4724
2026-01-25 09:13:09.30	112.95	30.34	-39.7	-41.9	14.2	1.50e-06	0	60	0	372244480	50	4765
2026-01-25 09:13:10.31	112.73	30.49	-39.8	-42.0	14.1	1.50e-06	0	61	0	375390208	50	4837
2026-01-25 09:13:11.32	112.51	30.64	-39.8	-42.0	14.1	7.00e-07	0	61	0	378535936	50	4832
2026-01-25 09:13:12.33	112.28	30.79	-39.8	-42.0	14.0	7.00e-07	0	61	0	381681664	50	4858
2026-01-25 09:13:13.34	112.05	30.95	-39.7	-41.9	14.1	7.00e-07	0	61	0	384827392	50	4792
2026-01-25 09:13:14.35	111.82	31.10	-39.6	-41.7	14.3	1.50e-06	0	61	0	387973120	50	4698
2026-01-25 09:13:15.36	111.59	31.26	-39.6	-41.7	14.4	2.20e-06	0	60	0	391118848	50	4681
2026-01-25 09:13:16.37	111.36	31.41	-39.6	-41.8	14.3	0.00e+00	0	61	0	394264576	50	4708
2026-01-25 09:13:17.38	111.12	31.56	-39.7	-41.8	14.3	0.00e+00	0	61	0	397410304	50	4749
2026-01-25 09:13:18.39	110.88	31.72	-39.6	-41.8	14.3	7.00e-07	0	61	0	400556032	50	4707
2026-01-25 09:13:19.40	110.64	31.87	-39.6	-41.7	14.4	0.00e+00	0	60	0	403701760	50	4659
2026-01-25 09:13:20.41	110.40	32.03	-39.6	-41.7	14.4	7.00e-07	0	61	0	406847488	50	4664
2026-01-25 09:13:21.42	110.15	32.18	-39.6	-41.7	14.3	7.00e-07	0	61	0	409993216	50	4689
2026-01-25 09:13:22.43	109.90	32.34	-39.6	-41.7	14.3	1.50e-06	0	61	0	413138944	50	4704
2026-01-25 09:13:23.44	109.65	32.50	-39.6	-41.7	14.3	0.00e+00	0	61	0	416284672	50	4691
2026-01-25 09:13:24.45	109.40	32.65	-39.6	-41.6	14.4	7.00e-07	0	61	0	419430400	50	4649
2026-01-25 09:13:25.46	109.15	32.81	-39.7	-41.8	14.3	7.00e-07	0	61	0	422576128	50	4733
2026-01-25 09:13:26.47	108.89	32.97	-39.7	-41.8	14.3	7.00e-07	0	61	0	425721856	50	4753
2026-01-25 09:13:27.48	108.63	33.12	-39.8	-42.0	14.1	0.00e+00	0	61	0	428867584	50	4827
2026-01-25 09:13:28.49	108.36	33.28	-39.8	-42.0	14.1	1.50e-06	0	61	0	432013312	50	4836
2026-01-25 09:13:29.50	108.10	33.44	-39.8	-42.0	14.1	4.50e-06	0	61	0	435159040	50	4853
2026-01-25 09:13:30.51	107.83	33.59	-39.8	-42.0	14.0	1.50e-06	0	61	0	438304768	50	4849
2026-01-25 09:13:31.52	107.56	33.75	-39.9	-42.1	14.0	3.80e-06	0	61	0	441450496	50	4926
2026-01-25 09:13:32.53	107.29	33.91	-39.9	-42.2	13.9	2.20e-06	0	61	0	444596224	50	4945
2026-01-25 09:13:33.54	107.01	34.06	-40.1	-42.4	13.7	2.20e-06	0	61	0	447741952	50	5057
2026-01-25 09:13:34.55	106.73	34.22	-40.2	-42.5	13.6	9.90e-06	0	61	0	450887680	50	5147
2026-01-25 09:13:35.56	106.45	34.38	-40.3	-42.7	13.4	1.22e-05	0	61	0	454033408	51	4962
2026-01-25 09:13:36.57	106.17	34.53	-40.4	-42.9	13.2	1.83e-05	0	61	0	457179136	51	5070
2026-01-25 09:13:37.58	105.88	34.69	-40.6	-43.1	13.0	2.36e-05	0	61	0	460324864	51	5189
2026-01-25 09:13:38.59	105.59	34.85	-40.6	-43.2	12.9	4.27e-05	0	60	0	463470592	51	5253
2026-01-25 09:13:39.60	105.30	35.01	-40.6	-43.1	13.1	4.19e-05	0	61	0	466616320	51	5168
2026-01-25 09:13:40.61	105.00	35.16	-40.5	-43.0	13.1	2.51e-05	0	61	0	469762048	51	5149
2026-01-25 09:13:41.62	104.70	35.32	-40.7	-43.2	12.9	4.50e-05	0	61	0	472907776	51	5262
2026-01-25 09:13:42.63	104.40	35.48	-40.7	-43.3	12.7	4.88e-05	0	61	0	476053504	52	5027
2026-01-25 09:13:43.64	104.10	35.63	-40.7	-43.4	12.7	7.62e-05	0	61	0	479199232	52	5047
2026-01-25 09:13:44.65	103.79	35.79	-40.7	-43.4	12.7	7.78e-05	0	61	0	482344960	52	5056
2026-01-25 09:13:45.66	103.48	35.94	-40.8	-43.5	12.6	1.08e-04	0	61	0	485490688	52	5101
2026-01-25 09:13:46.67	103.17	36.10	-40.8	-43.6	12.5	1.28e-04	0	61	0	488636416	52	5172
2026-01-25 09:13:47.68	102.85	36.26	-40.9	-43.6	12.5	1.03e-04	0	61	0	491782144	52	5179
2026-01-25 09:13:48.69	102.53	36.41	-41.0	-43.7	12.3	1.59e-04	0	61	0	494927872	52	5277
2026-01-25 09:13:49.70	102.21	36.57	-41.1	-43.9	12.1	2.41e-04	0	61	0	498073600	52	5394
2026-01-25 09:13:50.70	101.89	36.72	-41.1	-43.9	12.2	1.93e-04	0	61	0	501219328	52	5361
2026-01-25 09:13:51.72	101.56	36.88	-41.0	-43.8	12.3	2.14e-04	0	61	0	504365056	52	5316
2026-01-25 09:13:52.73	101.23	37.03	-41.0	-43.9	12.2	2.05e-04	0	61	0	507510784	52	5344
2026-01-25 09:13:53.74	100.89	37.18	-41.0	-43.7	12.4	1.50e-04	0	61	0	510656512	52	5278
2026-01-25 09:13:54.75	100.56	37.34	-41.0	-43.8	12.2	1.69e-04	0	61	0	513802240	52	5327
2026-01-25 09:13:55.76	100.21	37.49	-41.1	-44.0	12.0	2.83e-04	0	61	0	516947968	52	5454
2026-01-25 09:13:56.77	99.87	37.64	-41.0	-43.9	12.2	2.65e-04	0	61	0	520093696	52	5341
2026-01-25 09:13:57.78	99.52	37.80	-40.9	-43.6	12.5	1.33e-04	0	61	0	523239424	52	5210
2026-01-25 09:13:58.79	99.17	37.95	-40.9	-43.7	12.4	1.33e-04	0	61	0	526385152	52	5229
2026-01-25 09:13:59.80	98.82	38.10	-40.9	-43.6	12.5	1.07e-04	0	61	0	529530880	52	5187
2026-01-25 09:14:00.81	98.46	38.25	-40.8	-43.5	12.7	9.61e-05	0	61	0	532676608	52	5113
2026-01-25 09:14:01.81	98.11	38.40	-40.9	-43.6	12.5	1.01e-04	0	61	0	535822336	52	5210
2026-01-25 09:14:02.82	97.74	38.54	-40.9	-43.6	12.5	1.02e-04	0	61	0	538968064	52	5195
2026-01-25 09:14:03.83	97.37	38.69	-40.9	-43.6	12.5	1.20e-04	0	61	0	542113792	52	5181
2026-01-25 09:14:04.84	97.00	38.84	-40.8	-43.5	12.6	1.03e-04	0	61	0	545259520	52	5135
2026-01-25 09:14:05.85	96.63	38.99	-40.8	-43.5	12.5	8.62e-05	0	61	0	548405248	52	5155
2026-01-25 09:14:06.86	96.25	39.13	-40.9	-43.6	12.5	1.27e-04	0	61	0	551550976	52	5185
2026-01-25 09:14:07.87	95.87	39.28	-41.0	-43.8	12.3	1.50e-04	0	61	0	554696704	52	5290
2026-01-25 09:14:08.88	95.49	39.42	-41.7	-44.4	11.9	3.16e-04	0	61	0	557842432	53	5396
2026-01-25 09:14:09.89	95.10	39.57	-41.4	-44.6	11.5	7.93e-04	0	61	0	560988160	53	5474
2026-01-25 09:14:10.90	94.71	39.71	-41.5	-44.7	11.4	1.06e-03	0	61	0	564133888	53	5541
2026-01-25 09:14:11.91	94.31	39.85	-41.5	-44.6	11.5	9.81e-04	0	61	0	567279616	53	5492
2026-01-25 09:14:12.92	93.92	39.99	-41.4	-44.4	11.6	5.81e-04	0	61	0	570425344	53	5366
2026-01-25 09:14:13.93	93.52	40.13	-41.4	-44.5	11.5	7.63e-04	0	61	0	573571072	53	5429
2026-01-25 09:14:14.94	93.11	40.27	-41.5	-44.6	11.4	9.68e-04	0	61	0	576716800	53	5527
2026-01-25 09:14:15.95	92.70	40.41	-41.5	-44.6	11.5	1.00e-03	0	61	0	579862528	53	5492
2026-01-25 09:14:16.96	92.29	40.54	-41.3	-44.3	11.8	6.60e-04	0	61	0	584056832	53	5333
2026-01-25 09:14:17.97	91.88	40.68	-41.2	-44.0	12.1	2.97e-04	0	61	0	587202560	53	5142
2026-01-25 09:14:18.98	91.46	40.81	-41.1	-43.9	12.3	2.04e-04	0	61	0	589299712	53	5055
2026-01-25 09:14:19.99	91.04	40.95	-41.0	-43.7	12.4	1.56e-04	0	61	0	592445440	53	4965
2026-01-25 09:14:21.00	90.61	41.08	-41.0	-43.8	12.3	1.43e-04	0	61	0	595591168	53	4995
2026-01-25 09:14:22.01	90.18	41.21	-41.0	-43.8	12.3	1.88e-04	0	61	0	599785472	53	5023
2026-01-25 09:14:23.02	89.75	41.34	-41.0	-43.8	12.3	1.62e-04	0	61	0	602931200	53	5014
2026-01-25 09:14:24.03	89.31	41.46	-41.0	-43.7	12.5	1.38e-04	0	61	0	606076928	53	4935
2026-01-25 09:14:25.04	88.87	41.59	-40.9	-43.6	12.5	1.43e-04	0	61	0	609222656	53	4923
2026-01-25 09:14:26.05	88.43	41.71	-41.1	-43.9	12.3	1.91e-04	0	61	0	612368384	53	5050
2026-01-25 09:14:27.05	87.99	41.83	-41.2	-44.1	12.0	3.03e-04	0	61	0	615514112	53	5183
2026-01-25 09:14:28.06	87.54	41.96	-41.3	-44.3	11.8	3.86e-04	0	61	0	618659840	53	5280
2026-01-25 09:14:29.07	87.09	42.08	-41.4	-44.4	11.7	6.24e-04	0	61	0	621805568	53	5350
2026-01-25 09:14:30.08	86.63	42.19	-41.4	-44.3	11.8	5.45e-04	0	61	0	624951296	53	5317
2026-01-25 09:14:31.09	86.17	42.31	-41.3	-44.2	11.9	3.52e-04	0	61	0	628097024	53	5240
2026-01-25 09:14:32.10	85.71	42.42	-41.3	-44.3	11.8	4.40e-04	0	61	0	631242752	53	5292
2026-01-25 09:14:33.11	85.24	42.54	-41.5	-44.5	11.6	5.42e-04	0	61	0	634388480	53	5427
2026-01-25 09:14:34.12	84.77	42.65	-41.6	-44.7	11.5	8.53e-04	0	61	0	637534208	53	5546
2026-01-25 09:14:35.13	84.30	42.76	-41.6	-44.8	11.4	1.02e-03	0	61	0	640679936	53	5624
2026-01-25 09:14:36.14	83.82	42.86	-41.6	-44.7	11.4	9.50e-04	0	61	0	643825664	53	5577
2026-01-25 09:14:37.15	83.34	42.97	-41.6	-44.7	11.4	8.34e-04	0	61	0	646971392	53	5563
2026-01-25 09:14:38.16	82.86	43.07	-41.5	-44.5	11.6	7.07e-04	0	61	0	650117120	53	5439
2026-01-25 09:14:39.17	82.38	43.17	-41.3	-44.3	11.9	4.10e-04	0	61	0	653262848	53	5300
2026-01-25 09:14:40.18	81.89	43.27	-41.3	-44.2	12.0	3.39e-04	0	61	0	656408576	53	5225
2026-01-25 09:14:41.19	81.40	43.37	-41.4	-44.4	11.8	3.82e-04	0	61	0	659554304	53	5355
2026-01-25 09:14:42.20	80.90	43.46	-41.8	-45.0	11.4	6.06e-04	0	61	0	662700032	54	5413
2026-01-25 09:14:43.20	80.41	43.56	-41.7	-44.8	11.4	7.90e-04	0	61	0	665845760	54	5329
2026-01-25 09:14:44.21	79.91	43.65	-41.9	-45.1	11.1	1.26e-03	0	61	0	668991488	54	5527
2026-01-25 09:14:45.22	79.41	43.73	-41.9	-45.1	11.1	1.89e-03	0	61	0	672137216	54	5506
2026-01-25 09:14:46.23	78.90	43.82	-41.7	-44.9	11.4	1.03e-03	0	61	0	675282944	54	5342
2026-01-25 09:14:47.24	78.40	43.90	-41.5	-44.5	11.8	6.45e-04	0	61	0	678428672	54	5142
2026-01-25 09:14:48.25	77.88	43.99	-41.6	-44.7	11.5	6.31e-04	0	61	0	681574400	54	5247
2026-01-25 09:14:49.26	77.37	44.06	-41.7	-44.8	11.5	7.46e-04	0	61	0	684720128	54	5336
2026-01-25 09:14:50.27	76.86	44.14	-41.7	-44.9	11.3	1.15e-03	0	61	0	687865856	54	5379
2026-01-25 09:14:51.28	76.34	44.21	-41.7	-44.8	11.5	9.15e-04	0	61	0	691011584	54	5291
2026-01-25 09:14:52.29	75.82	44.29	-41.6	-44.6	11.6	6.38e-04	0	61	0	694157312	54	5177
2026-01-25 09:14:53.30	75.29	44.36	-41.6	-44.6	11.6	6.58e-04	0	61	0	697303040	54	5218
2026-01-25 09:14:54.31	74.77	44.42	-41.5	-44.4	11.9	4.20e-04	0	61	0	700448768	54	5056
2026-01-25 09:14:55.32	74.24	44.49	-41.5	-44.4	11.9	4.44e-04	0	61	0	703594496	54	5079
2026-01-25 09:14:56.33	73.71	44.55	-41.4	-44.3	12.0	4.27e-04	0	61	0	706740224	54	4998
2026-01-25 09:14:57.34	73.18	44.61	-41.2	-43.9	12.4	1.84e-04	0	61	0	709885952	54	4777
2026-01-25 09:14:58.35	72.65	44.66	-41.2	-43.9	12.4	1.23e-04	0	61	0	713031680	54	4781
2026-01-25 09:14:59.36	72.11	44.71	-41.3	-44.1	12.2	1.88e-04	0	61	0	716177408	54	4891
2026-01-25 09:15:00.36	71.58	44.76	-41.2	-44.0	12.3	1.91e-04	0	61	0	719323136	54	4825
2026-01-25 09:15:01.37	71.04	44.81	-41.2	-43.9	12.3	1.75e-04	0	61	0	722468864	54	4798
2026-01-25 09:15:02.38	70.50	44.86	-41.1	-43.8	12.5	1.49e-04	0	61	0	725614592	54	4752
2026-01-25 09:15:03.39	69.96	44.90	-40.9	-43.5	12.8	6.86e-05	0	61	0	728760320	53	4816
2026-01-25 09:15:04.40	69.42	44.94	-41.0	-43.7	12.6	8.23e-05	0	61	0	731906048	53	4945
2026-01-25 09:15:05.41	68.87	44.98	-41.0	-43.7	12.6	9.07e-05	0	61	0	735051776	53	4943
2026-01-25 09:15:06.42	68.33	45.01	-41.2	-44.0	12.3	1.46e-04	0	61	0	738197504	53	5114
2026-01-25 09:15:07.43	67.78	45.04	-41.6	-44.6	11.7	4.76e-04	0	61	0	741343232	53	5488
2026-01-25 09:15:08.44	67.23	45.07	-41.6	-44.6	11.7	7.03e-04	0	61	0	744488960	53	5486
2026-01-25 09:15:09.45	66.69	45.09	-41.5	-44.4	11.8	5.41e-04	0	61	0	747634688	53	5372
2026-01-25 09:15:10.46	66.14	45.11	-41.4	-44.3	11.9	3.49e-04	0	61	0	750780416	53	5312
2026-01-25 09:15:11.47	65.59	45.13	-41.4	-44.2	12.0	3.13e-04	0	61	0	753926144	53	5278
2026-01-25 09:15:12.48	65.04	45.15	-41.6	-44.6	11.7	4.89e-04	0	61	0	757071872	53	5505
2026-01-25 09:15:13.49	64.49	45.16	-41.6	-44.7	11.5	6.96e-04	0	61	0	760217600	53	5548
2026-01-25 09:15:14.50	63.93	45.17	-41.7	-44.8	11.4	9.38e-04	0	61	0	763363328	54	5335
2026-01-25 09:15:15.51	63.38	45.18	-41.7	-44.9	11.4	1.01e-03	0	61	0	766509056	54	5368
2026-01-25 09:15:16.52	62.83	45.19	-41.6	-44.6	11.6	7.38e-04	0	61	0	769654784	54	5201
2026-01-25 09:15:17.53	62.28	45.19	-41.4	-44.4	11.8	4.45e-04	0	61	0	772800512	54	5072
2026-01-25 09:15:18.54	61.73	45.19	-41.4	-44.4	11.9	4.95e-04	0	61	0	775946240	54	5061
2026-01-25 09:15:19.55	61.17	45.18	-41.3	-44.2	12.1	3.00e-04	0	61	0	779091968	54	4950
2026-01-25 09:15:20.56	60.62	45.17	-41.2	-43.9	12.4	1.72e-04	0	61	0	782237696	54	4804
2026-01-25 09:15:21.57	60.07	45.16	-41.3	-44.1	12.1	1.83e-04	0	61	0	785383424	54	4901
2026-01-25 09:15:22.58	59.52	45.15	-41.5	-44.5	11.7	4.50e-04	0	61	0	788529152	54	5133
2026-01-25 09:15:23.59	58.97	45.14	-41.7	-44.8	11.2	1.19e-03	0	61	0	791674880	54	5338
2026-01-25 09:15:24.60	58.42	45.12	-41.9	-45.1	11.0	1.91e-03	0	61	0	794820608	54	5513
2026-01-25 09:15:25.61	57.87	45.09	-41.7	-44.8	11.3	1.33e-03	0	61	0	797966336	54	5322
2026-01-25 09:15:26.62	57.32	45.07	-41.6	-44.6	11.5	6.52e-04	0	61	0	801112064	54	5196
2026-01-25 09:15:27.63	56.78	45.04	-41.6	-44.6	11.5	8.48e-04	0	61	0	804257792	54	5217
2026-01-25 09:15:28.64	56.23	45.01	-41.6	-44.6	11.5	8.37e-04	0	61	0	807403520	54	5195
2026-01-25 09:15:29.65	55.69	44.98	-41.6	-44.7	11.5	8.90e-04	0	61	0	810549248	54	5248
2026-01-25 09:15:30.66	55.14	44.94	-41.6	-44.6	11.6	8.62e-04	0	61	0	813694976	54	5180
2026-01-25 09:15:31.67	54.60	44.90	-41.5	-44.5	11.7	5.26e-04	0	61	0	816840704	54	5142
2026-01-25 09:15:32.68	54.06	44.86	-41.6	-44.6	11.5	8.06e-04	0	61	0	819986432	54	5201
2026-01-25 09:15:33.69	53.52	44.82	-41.8	-45.0	11.1	1.35e-03	0	61	0	823132160	54	5410
2026-01-25 09:15:34.70	52.98	44.77	-41.9	-45.2	10.9	1.78e-03	0	61	0	826277888	54	5549
2026-01-25 09:15:35.71	52.44	44.72	-41.9	-45.2	11.0	2.14e-03	0	61	0	829423616	54	5550
2026-01-25 09:15:36.72	51.91	44.66	-41.7	-44.9	11.3	1.37e-03	0	61	0	832569344	54	5366
2026-01-25 09:15:37.73	51.38	44.61	-41.7	-44.8	11.5	8.23e-04	0	61	0	835715072	54	5281
2026-01-25 09:15:38.73	50.85	44.55	-41.7	-44.8	11.4	9.32e-04	0	61	0	838860800	54	5303
2026-01-25 09:15:39.74	50.32	44.49	-41.6	-44.6	11.6	6.38e-04	0	61	0	842006528	54	5201
2026-01-25 09:15:40.75	49.80	44.43	-41.4	-44.3	11.9	4.50e-04	0	61	0	845152256	54	5039
2026-01-25 09:15:41.76	49.27	44.36	-41.4	-44.2	12.0	3.09e-04	0	61	0	848297984	54	4976
2026-01-25 09:15:42.77	48.75	44.29	-41.3	-44.2	12.0	2.96e-04	0	61	0	851443712	54	4963
2026-01-25 09:15:43.78	48.23	44.22	-41.4	-44.2	12.0	3.36e-04	0	61	0	854589440	54	4973
2026-01-25 09:15:44.79	47.71	44.15	-41.4	-44.3	11.8	4.13e-04	0	61	0	857735168	54	5037
2026-01-25 09:15:45.80	47.20	44.07	-41.5	-44.4	11.7	5.80e-04	0	61	0	860880896	54	5099
2026-01-25 09:15:46.81	46.68	43.99	-41.6	-44.7	11.5	7.39e-04	0	61	0	864026624	54	5237
2026-01-25 09:15:47.82	46.17	43.91	-41.7	-44.8	11.4	9.22e-04	0	61	0	867172352	54	5307
2026-01-25 09:15:48.83	45.66	43.83	-41.9	-45.2	11.0	1.32e-03	0	61	0	870318080	54	5542
2026-01-25 09:15:49.84	45.16	43.74	-42.0	-45.5	10.6	3.15e-03	0	61	0	873463808	54	5735
2026-01-25 09:15:50.85	44.66	43.65	-41.9	-45.3	10.8	2.95e-03	0	61	0	876609536	54	5609
2026-01-25 09:15:51.86	44.16	43.56	-41.6	-44.6	11.5	1.23e-03	0	61	0	879755264	54	5212
2026-01-25 09:15:52.87	43.66	43.47	-41.4	-44.3	11.8	4.71e-04	0	61	0	882900992	54	5028
2026-01-25 09:15:53.88	43.17	43.38	-41.5	-44.6	11.6	5.74e-04	0	61	0	886046720	54	5168
2026-01-25 09:15:54.89	42.68	43.28	-42.0	-45.4	10.7	1.31e-03	0	61	0	889192448	54	5662
2026-01-25 09:15:55.90	42.19	43.18	-42.7	-46.8	9.2	9.97e-03	0	61	0	892338176	55	6344
2026-01-25 09:15:56.91	41.71	43.08	-43.2	-47.8	8.4	4.31e-02	0	61	0	895483904	56	6702
2026-01-25 09:15:57.92	41.23	42.98	-43.1	-47.5	8.7	4.35e-02	0	61	0	898629632	56	6491
2026-01-25 09:15:58.93	40.75	42.87	-42.6	-46.5	9.7	1.51e-02	0	61	0	901775360	56	5766
2026-01-25 09:15:59.94	40.27	42.77	-42.2	-45.7	10.5	4.55e-03	0	61	0	904921088	56	5249
2026-01-25 09:16:00.95	39.80	42.66	-42.2	-45.6	10.5	3.17e-03	0	61	0	908066816	56	5218
2026-01-25 09:16:01.96	39.33	42.55	-42.3	-45.7	10.5	3.77e-03	0	61	0	911212544	56	5268
2026-01-25 09:16:02.97	38.87	42.43	-42.7	-46.6	9.7	7.97e-03	0	61	0	914358272	56	5791
2026-01-25 09:16:03.98	38.40	42.32	-42.9	-47.0	9.2	1.93e-02	0	61	0	917504000	56	6073
2026-01-25 09:16:04.99	37.95	42.21	-42.7	-46.7	9.5	1.56e-02	0	61	0	920649728	56	5882
2026-01-25 09:16:06.00	37.49	42.09	-42.3	-45.8	10.4	5.97e-03	0	61	0	924844032	56	5338
2026-01-25 09:16:07.00	37.04	41.97	-41.8	-45.0	11.2	1.70e-03	0	61	0	927989760	55	5108
2026-01-25 09:16:08.01	36.59	41.85	-41.6	-44.7	11.4	8.48e-04	0	61	0	930086912	55	4976
2026-01-25 09:16:09.02	36.15	41.73	-41.7	-44.9	11.3	1.04e-03	0	61	0	933232640	55	5058
2026-01-25 09:16:10.03	35.71	41.60	-42.0	-45.5	10.7	2.33e-03	0	61	0	936378368	55	5426
2026-01-25 09:16:11.04	35.27	41.48	-42.3	-45.9	10.2	5.57e-03	0	61	0	940572672	55	5680
2026-01-25 09:16:12.05	34.83	41.35	-42.3	-45.9	10.0	9.08e-03	0	61	0	943718400	55	5720
2026-01-25 09:16:13.06	34.40	41.22	-41.9	-45.2	10.8	3.50e-03	0	61	0	946864128	55	5255
2026-01-25 09:16:14.07	33.97	41.09	-41.4	-44.4	11.7	7.84e-04	0	61	0	950009856	54	5066
2026-01-25 09:16:15.08	33.55	40.96	-41.1	-43.9	12.2	2.45e-04	0	61	0	952107008	54	4803
2026-01-25 09:16:16.09	33.13	40.83	-41.3	-44.1	12.0	2.39e-04	0	62	0	955252736	54	4916
2026-01-25 09:16:17.10	32.71	40.70	-41.8	-45.1	11.0	1.02e-03	0	61	0	959447040	54	5486
2026-01-25 09:16:18.11	32.30	40.56	-42.4	-46.2	9.7	7.56e-03	0	61	0	962592768	55	5906
2026-01-25 09:16:19.12	31.89	40.43	-43.0	-47.4	8.7	2.98e-02	0	61	0	965738496	56	6384
2026-01-25 09:16:20.13	31.48	40.29	-42.8	-47.1	9.0	3.03e-02	0	61	0	968884224	56	6158
2026-01-25 09:16:21.14	31.07	40.15	-42.4	-46.1	10.0	1.13e-02	0	61	0	972029952	56	5468
2026-01-25 09:16:22.15	30.67	40.01	-42.0	-45.3	10.9	2.72e-03	0	61	0	975175680	56	5008
2026-01-25 09:16:23.16	30.28	39.87	-41.8	-45.1	10.9	1.85e-03	0	61	0	978321408	55	5196
2026-01-25 09:16:24.17	29.88	39.73	-41.5	-44.6	11.5	9.37e-04	0	61	0	981467136	55	4881
2026-01-25 09:16:25.18	29.49	39.59	-41.6	-44.8	11.3	7.51e-04	0	61	0	984612864	55	4989
2026-01-25 09:16:26.19	29.11	39.45	-42.1	-45.7	10.4	3.98e-03	0	61	0	987758592	55	5535
2026-01-25 09:16:27.20	28.72	39.30	-42.1	-45.6	10.5	4.73e-03	0	61	0	990904320	55	5485
2026-01-25 09:16:28.21	28.34	39.16	-42.1	-45.6	10.4	5.07e-03	0	61	0	994050048	55	5465
2026-01-25 09:16:29.22	27.97	39.01	-41.6	-44.8	11.2	1.70e-03	0	61	0	997195776	55	5006
2026-01-25 09:16:30.23	27.59	38.87	-41.3	-44.3	11.7	6.85e-04	0	61	0	1000341504	54	4996
2026-01-25 09:16:31.24	27.23	38.72	-41.2	-44.1	11.9	5.33e-04	0	61	0	1003487232	54	4907
2026-01-25 09:16:32.25	26.86	38.57	-41.0	-43.8	12.3	1.79e-04	0	61	0	1006632960	54	4729
2026-01-25 09:16:33.26	26.50	38.42	-41.3	-44.2	11.8	4.05e-04	0	61	0	1009778688	54	4981
2026-01-25 09:16:34.27	26.14	38.27	-41.7	-44.9	11.1	1.28e-03	0	62	0	1012924416	54	5386
2026-01-25 09:16:35.28	25.78	38.12	-41.7	-44.9	11.1	1.72e-03	0	61	0	1016070144	54	5383
2026-01-25 09:16:36.29	25.43	37.97	-41.4	-44.4	11.5	9.74e-04	0	61	0	1019215872	54	5050
2026-01-25 09:16:37.30	25.08	37.82	-41.1	-43.8	12.0	4.39e-04	0	61	0	1022361600	54	4751
2026-01-25 09:16:38.31	24.73	37.67	-40.7	-43.3	12.7	1.20e-04	0	61	0	1025507328	53	4728
2026-01-25 09:16:39.32	24.39	37.52	-40.4	-42.8	13.2	4.42e-05	0	61	0	1028653056	52	4751
2026-01-25 09:16:40.33	24.05	37.37	-40.2	-42.6	13.5	1.14e-05	0	62	0	1031798784	52	4613
2026-01-25 09:16:41.34	23.71	37.21	-40.5	-42.9	13.2	1.60e-05	0	61	0	1034944512	52	4795
2026-01-25 09:16:42.36	23.38	37.06	-40.8	-43.4	12.6	7.62e-05	0	61	0	1038090240	52	5097
2026-01-25 09:16:43.37	23.04	36.91	-41.0	-43.7	12.3	1.16e-04	0	62	0	1041235968	52	5275
2026-01-25 09:16:44.38	22.72	36.75	-41.2	-44.2	11.9	3.46e-04	0	62	0	1044381696	53	5224
2026-01-25 09:16:45.39	22.39	36.60	-41.2	-44.2	11.7	5.45e-04	0	61	0	1047527424	53	5250
2026-01-25 09:16:46.39	22.08	36.45	-41.1	-43.9	12.0	4.78e-04	0	61	0	1050673152	53	5056
2026-01-25 09:16:47.41	21.75	36.29	-40.7	-43.4	12.5	1.23e-04	0	61	0	1053818880	53	4770
2026-01-25 09:16:48.42	21.44	36.13	-40.5	-43.0	12.9	4.73e-05	0	62	0	1056964608	53	4594
2026-01-25 09:16:49.43	21.13	35.98	-40.6	-43.1	12.9	4.42e-05	0	62	0	1060110336	52	4883
2026-01-25 09:16:50.44	20.82	35.82	-40.6	-43.1	12.9	4.04e-05	0	61	0	1063256064	52	4911
2026-01-25 09:16:51.45	20.51	35.67	-40.9	-43.6	12.4	5.79e-05	0	62	0	1066401792	52	5171
2026-01-25 09:16:52.46	20.21	35.51	-41.0	-43.8	12.2	1.81e-04	0	62	0	1069547520	52	5320
2026-01-25 09:16:53.47	19.91	35.36	-40.9	-43.7	12.3	2.46e-04	0	61	0	1072693248	52	5229
2026-01-25 09:16:54.48	19.61	35.20	-40.6	-43.2	12.7	8.31e-05	0	61	0	1075838976	52	4958
2026-01-25 09:16:55.49	19.32	35.04	-40.3	-42.7	13.2	2.13e-05	0	62	0	1078984704	52	4689
2026-01-25 09:16:56.50	19.03	34.89	-40.2	-42.6	13.4	1.90e-05	0	61	0	1082130432	52	4612
2026-01-25 09:16:57.51	18.74	34.73	-40.3	-42.7	13.3	1.60e-05	0	61	0	1085276160	52	4696
2026-01-25 09:16:58.52	18.45	34.57	-40.4	-42.8	13.2	1.75e-05	0	61	0	1088421888	52	4733
2026-01-25 09:16:59.53	18.17	34.42	-40.4	-42.9	13.1	3.35e-05	0	61	0	1091567616	52	4784
2026-01-25 09:17:00.54	17.89	34.26	-40.4	-42.9	13.1	2.67e-05	0	62	0	1094713344	52	4813
2026-01-25 09:17:01.55	17.61	34.11	-40.5	-43.0	13.0	2.74e-05	0	61	0	1097859072	52	4824
2026-01-25 09:17:02.56	17.34	33.95	-40.5	-43.0	13.0	3.81e-05	0	61	0	1101004800	52	4825
2026-01-25 09:17:03.57	17.06	33.79	-40.5	-43.1	12.9	4.73e-05	0	61	0	1104150528	52	4888
2026-01-25 09:17:04.58	16.79	33.64	-40.4	-42.9	13.0	4.19e-05	0	62	0	1107296256	52	4776
2026-01-25 09:17:05.59	16.53	33.48	-40.2	-42.5	13.4	1.83e-05	0	61	0	1110441984	52	4585
2026-01-25 09:17:06.60	16.26	33.32	-40.0	-42.3	13.7	9.10e-06	0	62	0	1113587712	51	4728
2026-01-25 09:17:07.61	16.00	33.17	-39.9	-42.1	13.9	6.10e-06	0	61	0	1116733440	51	4631
2026-01-25 09:17:08.62	15.74	33.01	-39.7	-41.8	14.3	0.00e+00	0	61	0	1119879168	51	4458
2026-01-25 09:17:09.62	15.49	32.86	-39.7	-41.8	14.3	7.00e-07	0	61	0	1123024896	51	4478
2026-01-25 09:17:10.63	15.23	32.70	-39.9	-42.1	14.0	0.00e+00	0	61	0	1126170624	51	4636
2026-01-25 09:17:11.64	14.98	32.55	-40.2	-42.5	13.6	3.80e-06	0	61	0	1129316352	51	4861
2026-01-25 09:17:12.65	14.73	32.39	-40.4	-42.9	13.1	1.29e-05	0	61	0	1132462080	51	5085
2026-01-25 09:17:13.66	14.48	32.24	-40.5	-43.0	13.0	3.12e-05	0	61	0	1135607808	51	5133
2026-01-25 09:17:14.67	14.24	32.08	-40.3	-42.8	13.2	2.51e-05	0	62	0	1138753536	51	5016
2026-01-25 09:17:15.68	14.00	31.93	-40.3	-42.7	13.3	2.67e-05	0	61	0	1141899264	51	4968
2026-01-25 09:17:16.69	13.76	31.77	-40.3	-42.6	13.3	2.21e-05	0	62	0	1145044992	51	4924
2026-01-25 09:17:17.70	13.52	31.62	-40.2	-42.5	13.5	1.22e-05	0	61	0	1148190720	51	4854
2026-01-25 09:17:18.71	13.28	31.47	-40.2	-42.5	13.5	1.06e-05	0	61	0	1151336448	51	4844
2026-01-25 09:17:19.72	13.05	31.31	-40.0	-42.3	13.7	6.10e-06	0	61	0	1154482176	51	4714
2026-01-25 09:17:20.73	12.82	31.16	-40.0	-42.2	13.8	2.20e-06	0	62	0	1157627904	51	4679
2026-01-25 09:17:21.74	12.59	31.01	-40.0	-42.2	13.7	3.80e-06	0	62	0	1160773632	51	4687
2026-01-25 09:17:22.75	12.36	30.85	-39.9	-42.2	13.7	5.30e-06	0	61	0	1163919360	51	4698
2026-01-25 09:17:23.76	12.14	30.70	-39.9	-42.2	13.8	6.10e-06	0	61	0	1167065088	51	4660
2026-01-25 09:17:24.76	11.92	30.55	-39.8	-42.1	13.9	6.10e-06	0	62	0	1170210816	51	4603
2026-01-25 09:17:25.77	11.70	30.40	-39.8	-42.0	13.9	7.00e-07	0	61	0	1173356544	51	4582
2026-01-25 09:17:26.79	11.48	30.25	-39.9	-42.1	13.8	5.30e-06	0	61	0	1176502272	51	4641
2026-01-25 09:17:27.79	11.26	30.10	-39.8	-42.1	13.9	3.80e-06	0	61	0	1179648000	51	4611
2026-01-25 09:17:28.80	11.05	29.94	-39.8	-42.0	14.0	3.80e-06	0	61	0	1182793728	51	4562
2026-01-25 09:17:29.81	10.84	29.79	-39.7	-42.0	14.0	3.00e-06	0	62	0	1185939456	51	4546
2026-01-25 09:17:30.82	10.63	29.64	-39.7	-42.0	14.0	1.50e-06	0	61	0	1189085184	51	4547
2026-01-25 09:17:31.83	10.42	29.49	-39.7	-41.9	14.0	1.50e-06	0	61	0	1192230912	51	4516
2026-01-25 09:17:32.84	10.21	29.34	-39.7	-41.9	14.1	7.00e-07	0	61	0	1195376640	51	4498
2026-01-25 09:17:33.85	10.01	29.20	-39.6	-41.8	14.0	7.00e-07	0	62	0	1198522368	51	4484
2026-01-25 09:17:34.86	9.81	29.05	-39.6	-41.8	14.1	1.50e-06	0	62	0	1201668096	51	4446
2026-01-25 09:17:35.87	9.61	28.90	-39.6	-41.8	14.1	7.00e-07	0	61	0	1204813824	51	4450
2026-01-25 09:17:36.88	9.41	28.75	-39.6	-41.8	14.1	0.00e+00	0	61	0	1207959552	51	4451
2026-01-25 09:17:37.89	9.21	28.60	-39.5	-41.6	14.2	2.20e-06	0	61	0	1211105280	50	4608
2026-01-25 09:17:38.90	9.02	28.46	-39.4	-41.5	14.4	0.00e+00	0	61	0	1214251008	50	4554
2026-01-25 09:17:39.91	8.82	28.31	-39.5	-41.6	14.3	7.00e-07	0	62	0	1217396736	50	4627
2026-01-25 09:17:40.91	8.63	28.16	-39.6	-41.7	14.2	0.00e+00	0	62	0	1220542464	50	4670
2026-01-25 09:17:41.93	8.44	28.02	-39.6	-41.7	14.2	7.00e-07	0	62	0	1223688192	50	4691
2026-01-25 09:17:42.93	8.26	27.87	-39.6	-41.7	14.1	0.00e+00	0	61	0	1226833920	50	4694
2026-01-25 09:17:43.94	8.07	27.73	-39.6	-41.8	14.1	1.50e-06	0	61	0	1229979648	50	4743
2026-01-25 09:17:44.95	7.88	27.58	-39.8	-42.0	13.9	3.00e-06	0	61	0	1233125376	50	4849
2026-01-25 09:17:45.96	7.70	27.44	-39.8	-42.0	13.9	2.20e-06	0	61	0	1236271104	50	4862
2026-01-25 09:17:46.97	7.52	27.30	-39.8	-42.0	13.8	3.80e-06	0	62	0	1239416832	50	4870
2026-01-25 09:17:47.98	7.34	27.15	-39.6	-41.9	14.0	2.20e-06	0	61	0	1242562560	50	4762
2026-01-25 09:17:48.99	7.16	27.01	-39.6	-41.7	14.1	7.00e-07	0	62	0	1245708288	50	4705
2026-01-25 09:17:50.00	6.99	26.87	-39.6	-41.7	14.1	2.20e-06	0	61	0	1248854016	50	4689
2026-01-25 09:17:51.01	6.81	26.73	-39.5	-41.7	14.1	7.00e-07	0	62	0	1251999744	50	4662
2026-01-25 09:17:52.02	6.64	26.58	-39.5	-41.7	14.1	2.20e-06	0	62	0	1255145472	50	4671
2026-01-25 09:17:53.03	6.47	26.44	-39.5	-41.6	14.2	2.20e-06	0	61	0	1258291200	50	4630
2026-01-25 09:17:54.04	6.30	26.30	-39.4	-41.6	14.3	0.00e+00	0	62	0	1262485504	50	4615
2026-01-25 09:17:55.05	6.13	26.16	-39.5	-41.7	14.2	7.00e-07	0	62	0	1265631232	50	4670
2026-01-25 09:17:56.06	5.96	26.02	-39.6	-41.7	14.1	1.50e-06	0	61	0	1267728384	50	4696
2026-01-25 09:17:57.07	5.80	25.88	-39.5	-41.7	14.2	3.00e-06	0	62	0	1270874112	50	4679
2026-01-25 09:17:58.08	5.64	25.74	-39.6	-41.8	14.1	4.50e-06	0	61	0	1274019840	50	4732
2026-01-25 09:17:59.09	5.47	25.61	-39.6	-41.8	14.0	1.50e-06	0	61	0	1278214144	50	4744
2026-01-25 09:18:00.10	5.31	25.47	-39.5	-41.7	14.1	2.20e-06	0	62	0	1281359872	50	4688
2026-01-25 09:18:01.11	5.15	25.33	-39.5	-41.7	14.2	0.00e+00	0	62	0	1284505600	50	4665
2026-01-25 09:18:02.12	4.99	25.19	-39.6	-41.7	14.1	0.00e+00	0	61	0	1287651328	50	4705
2026-01-25 09:18:03.13	4.84	25.06	-39.6	-41.8	14.1	7.00e-07	0	61	0	1290797056	50	4712
2026-01-25 09:18:04.14	4.68	24.92	-39.4	-41.6	14.2	3.00e-06	0	61	0	1293942784	50	4609
2026-01-25 09:18:05.15	4.53	24.79	-39.4	-41.5	14.3	0.00e+00	0	62	0	1297088512	50	4568
2026-01-25 09:18:06.17	4.37	24.65	-39.4	-41.5	14.3	1.50e-06	0	61	0	1300234240	50	4590
2026-01-25 09:18:07.17	4.22	24.52	-39.3	-41.4	14.4	7.00e-07	0	62	0	1303379968	50	4542
2026-01-25 09:18:08.19	4.07	24.38	-39.3	-41.4	14.4	1.50e-06	0	62	0	1306525696	50	4522
2026-01-25 09:18:09.20	3.92	24.25	-39.4	-41.5	14.3	7.00e-07	0	62	0	1309671424	50	4582
2026-01-25 09:18:10.21	3.78	24.11	-39.4	-41.5	14.3	7.00e-07	0	61	0	1312817152	50	4578
2026-01-25 09:18:11.22	3.63	23.98	-39.4	-41.6	14.2	7.00e-07	0	62	0	1315962880	50	4622
2026-01-25 09:18:12.23	3.49	23.85	-39.5	-41.7	14.1	1.50e-06	0	62	0	1319108608	50	4669
2026-01-25 09:18:13.24	3.34	23.72	-39.6	-41.8	14.0	1.50e-06	0	62	0	1322254336	50	4727
2026-01-25 09:18:14.25	3.20	23.59	-39.5	-41.8	14.0	2.20e-06	0	62	0	1325400064	50	4720
2026-01-25 09:18:15.26	3.06	23.46	-39.5	-41.7	14.1	7.00e-07	0	62	0	1328545792	50	4664
2026-01-25 09:18:16.26	2.92	23.33	-39.5	-41.7	14.1	2.20e-06	0	62	0	1331691520	50	4655
2026-01-25 09:18:17.27	2.78	23.20	-39.5	-41.7	14.0	7.00e-07	0	62	0	1334837248	50	4674
2026-01-25 09:18:18.28	2.64	23.07	-39.5	-41.7	14.0	2.20e-06	0	61	0	1337982976	50	4700
2026-01-25 09:18:19.29	2.51	22.94	-39.4	-41.6	14.0	1.50e-06	0	62	0	1341128704	50	4647
2026-01-25 09:18:20.31	2.37	22.81	-39.4	-41.7	14.0	3.80e-06	0	62	0	1344274432	50	4652
2026-01-25 09:18:21.32	2.24	22.68	-39.4	-41.6	14.0	1.50e-06	0	62	0	1347420160	50	4643
2026-01-25 09:18:22.33	2.10	22.55	-39.4	-41.6	14.0	2.20e-06	0	62	0	1350565888	50	4630
2026-01-25 09:18:23.34	1.97	22.43	-39.4	-41.6	14.0	3.00e-06	0	61	0	1353711616	50	4638
2026-01-25 09:18:24.35	1.84	22.30	-39.4	-41.6	14.0	3.80e-06	0	62	0	1356857344	50	4642
2026-01-25 09:18:25.36	1.71	22.17	-39.4	-41.6	14.0	5.30e-06	0	62	0	1360003072	50	4641
2026-01-25 09:18:26.37	1.58	22.05	-39.4	-41.6	14.0	4.50e-06	0	61	0	1363148800	50	4616
2026-01-25 09:18:27.38	1.45	21.92	-39.4	-41.5	14.1	5.30e-06	0	61	0	1366294528	50	4594
2026-01-25 09:18:28.39	1.33	21.80	-39.3	-41.5	14.1	3.00e-06	0	61	0	1369440256	50	4559
2026-01-25 09:18:29.40	1.20	21.67	-39.4	-41.5	14.1	7.00e-07	0	61	0	1372585984	50	4582
2026-01-25 09:18:30.41	1.08	21.55	-39.3	-41.5	14.1	2.20e-06	0	62	0	1375731712	50	4562
2026-01-25 09:18:31.42	0.95	21.43	-39.3	-41.4	14.1	1.50e-06	0	62	0	1378877440	50	4541
2026-01-25 09:18:32.42	0.83	21.30	-39.3	-41.5	14.0	1.50e-06	0	61	0	1382023168	50	4578
2026-01-25 09:18:33.43	0.71	21.18	-39.2	-41.4	14.2	1.50e-06	0	61	0	1385168896	50	4520
2026-01-25 09:18:34.44	0.59	21.06	-39.2	-41.4	14.2	7.00e-07	0	61	0	1388314624	50	4517
2026-01-25 09:18:35.45	0.47	20.94	-39.3	-41.5	14.0	0.00e+00	0	62	0	1391460352	50	4587
2026-01-25 09:18:36.46	0.35	20.82	-39.4	-41.6	14.0	1.50e-06	0	62	0	1394606080	50	4603
2026-01-25 09:18:37.47	0.24	20.70	-39.5	-41.7	13.7	6.10e-06	0	62	0	1397751808	50	4700
2026-01-25 09:18:38.48	0.12	20.58	-39.5	-41.9	13.6	4.50e-06	0	61	0	1400897536	50	4772
2026-01-25 09:18:39.50	0.00	20.46	-39.5	-41.9	13.6	9.90e-06	0	61	0	1404043264	50	4768
2026-01-25 09:18:40.50	359.89	20.34	-39.5	-41.9	13.5	4.50e-06	0	62	0	1407188992	50	4770
2026-01-25 09:18:41.52	359.77	20.22	-39.5	-41.8	13.5	1.14e-05	0	61	0	1410334720	50	4757
2026-01-25 09:18:42.53	359.66	20.10	-39.4	-41.7	13.6	1.52e-05	0	62	0	1413480448	50	4674
2026-01-25 09:18:43.54	359.55	19.98	-39.4	-41.7	13.6	6.80e-06	0	61	0	1416626176	50	4686
2026-01-25 09:18:44.55	359.44	19.86	-39.4	-41.7	13.5	9.10e-06	0	61	0	1419771904	50	4685
2026-01-25 09:18:45.56	359.33	19.75	-39.3	-41.6	13.6	9.10e-06	0	62	0	1422917632	50	4641
2026-01-25 09:18:46.57	359.22	19.63	-39.2	-41.4	13.8	8.30e-06	0	62	0	1426063360	50	4534
2026-01-25 09:18:47.57	359.11	19.51	-39.2	-41.4	13.8	3.00e-06	0	62	0	1429209088	50	4528
2026-01-25 09:18:48.58	359.00	19.40	-39.1	-41.3	13.9	4.50e-06	0	62	0	1432354816	50	4466
2026-01-25 09:18:49.59	358.90	19.28	-39.1	-41.3	13.8	2.20e-06	0	61	0	1435500544	50	4458
2026-01-25 09:18:50.60	358.79	19.17	-39.1	-41.3	13.7	1.50e-06	0	61	0	1438646272	50	4492
2026-01-25 09:18:51.61	358.68	19.05	-39.1	-41.4	13.7	8.30e-06	0	61	0	1441792000	50	4504
2026-01-25 09:18:52.62	358.58	18.94	-39.2	-41.5	13.5	6.10e-06	0	62	0	1444937728	50	4573
2026-01-25 09:18:53.63	358.48	18.83	-39.3	-41.6	13.4	1.14e-05	0	61	0	1448083456	50	4634
2026-01-25 09:18:54.64	358.37	18.71	-39.2	-41.6	13.3	1.60e-05	0	62	0	1451229184	50	4625
2026-01-25 09:18:55.65	358.27	18.60	-39.2	-41.6	13.2	1.22e-05	0	61	0	1454374912	50	4648
2026-01-25 09:18:56.66	358.17	18.49	-39.2	-41.7	13.1	2.05e-05	0	62	0	1457520640	50	4665
2026-01-25 09:18:57.66	358.07	18.38	-39.4	-41.9	12.8	5.03e-05	0	61	0	1460666368	50	4793
2026-01-25 09:18:58.68	357.97	18.26	-39.5	-42.1	12.5	1.02e-04	0	61	0	1463812096	50	4917
2026-01-25 09:18:59.68	357.87	18.15	-39.5	-42.2	12.4	1.28e-04	0	62	0	1466957824	50	4960
2026-01-25 09:19:00.69	357.77	18.04	-39.5	-42.3	12.3	1.75e-04	0	61	0	1470103552	50	4986
2026-01-25 09:19:01.70	357.68	17.93	-39.4	-42.1	12.4	1.68e-04	0	62	0	1473249280	50	4888
2026-01-25 09:19:02.71	357.58	17.82	-39.3	-42.0	12.4	1.37e-04	0	62	0	1476395008	50	4859
2026-01-25 09:19:03.72	357.48	17.71	-39.4	-42.1	12.2	2.20e-04	0	62	0	1479540736	50	4906
2026-01-25 09:19:04.73	357.39	17.60	-39.3	-42.1	12.1	2.63e-04	0	62	0	1482686464	50	4910
2026-01-25 09:19:05.74	357.29	17.50	-39.3	-42.2	12.0	3.01e-04	0	62	0	1485832192	50	4946
2026-01-25 09:19:06.75	357.20	17.39	-39.4	-42.2	11.9	4.31e-04	0	62	0	1488977920	50	4975
2026-01-25 09:19:07.76	357.11	17.28	-39.4	-42.3	11.8	4.77e-04	0	62	0	1492123648	50	5014
2026-01-25 09:19:08.77	357.01	17.17	-39.4	-42.3	11.7	5.46e-04	0	62	0	1495269376	50	5032
2026-01-25 09:19:09.78	356.92	17.07	-39.3	-42.2	11.7	4.79e-04	0	62	0	1498415104	50	4974
2026-01-25 09:19:10.79	356.83	16.96	-39.2	-42.2	11.6	6.29e-04	0	62	0	1501560832	50	4964
2026-01-25 09:19:11.80	356.74	16.85	-39.2	-42.2	11.5	8.15e-04	0	61	0	1504706560	50	4975
2026-01-25 09:19:12.81	356.65	16.75	-39.4	-42.6	11.1	1.48e-03	0	62	0	1507852288	50	5185
2026-01-25 09:19:13.82	356.56	16.64	-39.4	-42.7	10.9	2.15e-03	0	62	0	1510998016	50	5250
2026-01-25 09:19:14.83	356.47	16.54	-39.6	-43.1	10.3	3.78e-03	0	61	0	1514143744	50	5523
2026-01-25 09:19:15.84	356.38	16.43	-39.7	-43.5	9.8	9.14e-03	0	62	0	1517289472	50	5778
2026-01-25 09:19:16.85	356.30	16.33	-40.0	-44.3	8.9	2.29e-02	0	62	0	1520435200	50	6283
2026-01-25 09:19:17.86	356.21	16.22	-40.2	-44.8	8.2	4.23e-02	0	62	0	1523580928	50	6689
2026-01-25 09:19:18.87	356.12	16.12	-40.4	-45.5	7.4	9.58e-02	0	62	0	1526726656	51	6838
2026-01-25 09:19:19.88	356.04	16.01	-40.6	-46.2	6.7	1.59e-01	0	61	0	1529872384	51	7445
2026-01-25 09:19:20.89	355.95	15.91	-40.7	-47.1	5.9	2.84e-01	0	62	0	1533018112	51	8191
2026-01-25 09:19:21.90	355.87	15.81	-40.7	-47.8	5.3	5.39e-01	0	62	0	1536163840	52	8421
2026-01-25 09:19:22.91	355.79	15.71	-40.9	-49.4	4.0	7.34e-01	0	61	104	1539309568	52	10154
2026-01-25 09:19:23.92	355.70	15.61	-40.9	-49.4	4.0	1.12e+00	0	62	104	1539309568	52	10107
2026-01-25 09:19:24.93	355.62	15.50	-40.9	-50.1	4.2	1.47e+00	0	62	104	1539309568	52	10994
2026-01-25 09:19:25.93	355.54	15.40	-40.8	-52.3	3.8	1.49e+00	0	61	104	1539309568	52	14202
2026-01-25 09:19:26.94	355.46	15.30	-41.8	-53.2	3.8	1.49e+00	0	61	104	1539309568	54	13909
2026-01-25 09:19:27.95	355.38	15.20	-40.7	-53.1	3.8	1.49e+00	0	62	104	1539309568	53	14574
2026-01-25 09:19:28.96	355.30	15.10	-41.6	-52.0	3.9	1.48e+00	0	62	104	1539309568	53	12859
2026-01-25 09:19:29.97	355.22	15.00	-41.3	-52.1	3.8	1.49e+00	0	62	104	1539309568	53	12961
2026-01-25 09:19:30.98	355.14	14.90	-41.2	-52.3	3.8	1.49e+00	0	62	104	1539309568	53	13332
2026-01-25 09:19:31.99	355.06	14.80	-41.1	-52.5	3.8	1.49e+00	0	62	104	1539309568	53	13570
2026-01-25 09:19:33.00	354.98	14.71	-41.2	-53.1	3.8	1.49e+00	0	62	104	1539309568	53	14583
2026-01-25 09:19:34.01	354.91	14.61	-41.2	-52.9	3.8	1.49e+00	0	62	104	1539309568	53	14313
2026-01-25 09:19:35.02	354.83	14.51	-40.6	-52.9	3.8	1.49e+00	0	62	104	1539309568	53	14244
2026-01-25 09:19:36.03	354.75	14.41	-40.6	-52.9	3.8	1.49e+00	0	62	104	1539309568	53	14247
2026-01-25 09:19:37.04	354.68	14.31	-40.9	-53.1	3.8	1.49e+00	0	62	104	1539309568	53	14698
2026-01-25 09:19:38.05	354.60	14.22	-40.5	-52.8	3.8	1.49e+00	0	62	104	1539309568	53	14131
2026-01-25 09:19:39.06	354.53	14.12	-40.8	-53.0	3.8	1.49e+00	0	62	104	1539309568	53	14475
2026-01-25 09:19:40.07	354.45	14.02	-40.5	-52.8	3.8	1.49e+00	0	62	104	1539309568	53	14155
2026-01-25 09:19:41.07	354.38	13.93	-40.6	-52.9	3.8	1.49e+00	0	62	104	1539309568	53	14231
2026-01-25 09:19:42.08	354.31	13.83	-40.4	-52.7	3.8	1.49e+00	0	62	104	1539309568	52	14741
2026-01-25 09:19:43.09	354.23	13.74	-40.7	-53.0	3.8	1.49e+00	0	61	104	1539309568	52	15318
2026-01-25 09:19:44.11	354.16	13.64	-40.5	-52.8	3.8	1.49e+00	0	62	104	1539309568	52	15009
2026-01-25 09:19:45.11	354.09	13.55	-40.5	-52.8	3.8	1.49e+00	0	62	104	1539309568	52	14952
2026-01-25 09:19:46.12	354.02	13.45	-40.4	-52.7	3.8	1.49e+00	0	62	104	1539309568	52	14725
2026-01-25 09:19:47.13	353.95	13.36	-40.7	-53.0	3.8	1.49e+00	0	62	104	1539309568	52	15303
2026-01-25 09:19:48.14	353.88	13.27	-40.5	-52.8	3.8	1.49e+00	0	62	104	1539309568	52	14943
2026-01-25 09:19:49.15	353.81	13.17	-40.4	-52.8	3.8	1.49e+00	0	62	104	1539309568	52	14915
2026-01-25 09:19:50.16	353.74	13.08	-40.3	-52.7	3.8	1.49e+00	0	62	104	1539309568	52	14714
2026-01-25 09:19:51.17	353.67	12.99	-40.5	-52.9	3.8	1.49e+00	0	62	104	1539309568	52	15058
2026-01-25 09:19:52.18	353.60	12.89	-40.5	-52.8	3.8	1.49e+00	0	62	104	1539309568	52	14937
2026-01-25 09:19:53.19	353.53	12.80	-40.4	-52.7	3.8	1.49e+00	0	62	104	1539309568	52	14789
2026-01-25 09:19:54.20	353.46	12.71	-40.4	-52.7	3.8	1.49e+00	0	62	104	1539309568	52	14728
2026-01-25 09:19:55.21	353.40	12.62	-40.4	-52.7	3.8	1.49e+00	0	62	104	1539309568	52	14777
2026-01-25 09:19:56.22	353.33	12.53	-40.5	-52.8	3.8	1.49e+00	0	62	104	1539309568	52	14984
2026-01-25 09:19:57.23	353.26	12.44	-40.3	-52.6	3.8	1.49e+00	0	62	104	1539309568	52	14646
2026-01-25 09:19:58.23	353.20	12.35	-40.5	-52.8	3.8	1.49e+00	0	62	104	1539309568	52	14946
2026-01-25 09:19:59.24	353.13	12.26	-40.4	-52.6	3.8	1.49e+00	0	62	104	1539309568	52	14700
2026-01-25 09:20:00.25	353.07	12.17	-40.5	-52.8	3.8	1.49e+00	0	62	104	1539309568	52	14964
2026-01-25 09:20:01.26	353.00	12.08	-40.2	-52.5	3.8	1.49e+00	0	62	104	1539309568	52	14497
2026-01-25 09:20:02.27	352.94	11.99	-40.5	-52.9	3.8	1.49e+00	0	62	104	1539309568	52	15053
2026-01-25 09:20:03.28	352.88	11.90	-40.3	-52.6	3.8	1.49e+00	0	62	104	1539309568	52	14686
2026-01-25 09:20:04.29	352.81	11.81	-40.5	-52.9	3.8	1.49e+00	0	62	104	1539309568	52	15059
