passes_logs/2026/01/25/R2.0S_Moscow/R2.0S_Moscow__20260125_153940_FENGYUN_3E_rec.log

#Pass ID: 20260125_153940_FENGYUN 3E
#Satellite: FENGYUN 3E
#Configuration: FENGYUN 3E
#almurnet v.1.7.20251203
#Start time: 2026-01-25 15:39:42

#Version: 2.2.20231116
#Station: R2.0S_Moscow
#Location: 37.707566 lon 55.798166 lat
#TLE: 1 49008U 21062A   26025.22354119 -.00000045  00000+0 -39974-6 0  9992
#TLE: 2 49008  98.7496  30.2323 0002444 117.8821 242.2603 14.19886325236299

#Time	Az	El	Level	Level2	SNR	BER	BlckErr	Temp	State	Recorded	gain1	gain2
2026-01-25 15:39:42.41	204.84	2.13	-44.4	-55.4	3.8	8.46e-01	0	52	0	0	59	12725
2026-01-25 15:39:43.41	204.91	2.19	-44.4	-55.3	3.8	8.46e-01	0	53	104	0	59	12661
2026-01-25 15:39:44.42	204.98	2.24	-44.4	-55.4	3.8	8.46e-01	0	53	104	0	59	12740
2026-01-25 15:39:45.43	205.05	2.30	-44.4	-55.4	3.8	8.47e-01	0	53	104	0	59	12738
2026-01-25 15:39:46.44	205.12	2.36	-44.4	-55.4	3.8	8.46e-01	0	53	104	0	59	12751
2026-01-25 15:39:47.46	205.19	2.41	-44.4	-55.4	3.8	8.45e-01	0	53	104	0	59	12734
2026-01-25 15:39:48.47	205.26	2.47	-44.4	-55.4	3.8	8.45e-01	0	53	104	0	59	12701
2026-01-25 15:39:49.48	205.33	2.53	-44.4	-55.4	3.8	8.45e-01	0	53	104	0	59	12696
2026-01-25 15:39:50.49	205.40	2.59	-44.4	-55.4	3.8	8.45e-01	0	53	104	0	59	12717
2026-01-25 15:39:51.50	205.47	2.64	-44.4	-55.4	3.8	8.46e-01	0	53	104	0	59	12676
2026-01-25 15:39:52.51	205.55	2.70	-44.4	-55.4	3.8	8.47e-01	0	53	104	0	59	12740
2026-01-25 15:39:53.52	205.62	2.76	-44.3	-55.4	3.8	8.45e-01	0	54	104	0	59	12697
2026-01-25 15:39:54.54	205.69	2.82	-44.4	-55.4	3.8	8.46e-01	0	53	104	0	59	12736
2026-01-25 15:39:55.55	205.76	2.87	-44.4	-55.4	3.8	8.47e-01	0	54	104	0	59	12712
2026-01-25 15:39:56.56	205.84	2.93	-44.4	-55.4	3.8	8.45e-01	0	53	104	0	59	12807
2026-01-25 15:39:57.57	205.91	2.99	-44.4	-55.4	3.8	8.46e-01	0	54	104	0	59	12729
2026-01-25 15:39:58.58	205.98	3.05	-44.3	-55.4	3.8	8.47e-01	0	54	104	0	59	12718
2026-01-25 15:39:59.59	206.06	3.11	-44.4	-55.4	3.8	8.46e-01	0	54	104	0	59	12743
2026-01-25 15:40:00.60	206.13	3.16	-44.4	-55.4	3.8	8.46e-01	0	54	104	0	59	12688
2026-01-25 15:40:01.61	206.20	3.22	-44.3	-55.4	3.8	8.47e-01	0	54	104	0	59	12784
2026-01-25 15:40:02.62	206.28	3.28	-44.4	-55.4	3.8	8.46e-01	0	54	104	0	59	12705
2026-01-25 15:40:03.63	206.35	3.34	-44.3	-55.4	3.8	8.46e-01	0	54	104	0	59	12716
2026-01-25 15:40:04.64	206.43	3.40	-44.4	-55.4	3.8	8.46e-01	0	54	104	0	59	12707
2026-01-25 15:40:05.65	206.50	3.46	-44.3	-55.4	3.8	8.47e-01	0	54	104	0	59	12710
2026-01-25 15:40:06.66	206.58	3.52	-44.4	-55.4	3.8	8.46e-01	0	54	104	0	59	12665
2026-01-25 15:40:07.67	206.65	3.57	-44.3	-55.4	3.8	8.46e-01	0	54	104	0	59	12729
2026-01-25 15:40:08.68	206.73	3.63	-44.3	-55.4	3.8	8.46e-01	0	54	104	0	59	12715
2026-01-25 15:40:09.69	206.81	3.69	-44.3	-55.4	3.8	8.46e-01	0	54	104	0	59	12703
2026-01-25 15:40:10.70	206.88	3.75	-44.3	-55.4	3.8	8.47e-01	0	55	104	0	59	12705
2026-01-25 15:40:11.71	206.96	3.81	-44.3	-55.4	3.8	8.46e-01	0	55	104	0	59	12718
2026-01-25 15:40:12.72	207.04	3.87	-44.3	-55.4	3.8	8.45e-01	0	55	104	0	59	12755
2026-01-25 15:40:13.73	207.12	3.93	-44.3	-55.3	3.8	8.47e-01	0	55	104	0	59	12664
2026-01-25 15:40:14.74	207.19	3.99	-44.3	-55.4	3.8	8.46e-01	0	55	104	0	59	12692
2026-01-25 15:40:15.75	207.27	4.05	-44.3	-55.4	3.8	8.46e-01	0	55	104	0	59	12685
2026-01-25 15:40:16.76	207.35	4.11	-44.3	-55.4	3.8	8.47e-01	0	55	104	0	59	12695
2026-01-25 15:40:17.77	207.43	4.17	-44.3	-55.4	3.8	8.46e-01	0	55	104	0	59	12691
2026-01-25 15:40:18.79	207.51	4.23	-44.3	-55.4	3.8	8.48e-01	0	55	104	0	59	12684
2026-01-25 15:40:19.80	207.59	4.29	-44.3	-55.4	3.8	8.45e-01	0	55	104	0	59	12667
2026-01-25 15:40:20.80	207.67	4.35	-44.3	-55.4	3.8	8.47e-01	0	55	104	0	59	12733
2026-01-25 15:40:21.82	207.75	4.41	-44.3	-55.4	3.8	8.46e-01	0	55	104	0	59	12700
2026-01-25 15:40:22.83	207.83	4.47	-44.3	-55.4	3.8	8.45e-01	0	55	104	0	59	12705
2026-01-25 15:40:23.84	207.91	4.53	-44.3	-55.4	3.8	8.46e-01	0	55	104	0	59	12684
2026-01-25 15:40:24.85	207.99	4.59	-44.3	-55.3	3.8	8.46e-01	0	55	104	0	59	12658
2026-01-25 15:40:25.86	208.07	4.65	-44.3	-55.3	3.8	8.47e-01	0	56	104	0	59	12644
2026-01-25 15:40:26.87	208.15	4.71	-44.3	-55.4	3.8	8.46e-01	0	56	104	0	59	12701
2026-01-25 15:40:27.88	208.24	4.77	-44.3	-55.3	3.8	8.46e-01	0	56	104	0	59	12660
2026-01-25 15:40:28.89	208.32	4.83	-44.3	-55.4	3.8	8.47e-01	0	55	104	0	59	12706
2026-01-25 15:40:29.90	208.40	4.89	-44.3	-55.4	3.8	8.46e-01	0	56	104	0	59	12736
2026-01-25 15:40:30.91	208.48	4.95	-44.3	-55.4	3.8	8.46e-01	0	56	104	0	59	12712
2026-01-25 15:40:31.92	208.57	5.01	-44.3	-55.4	3.8	8.46e-01	0	56	104	0	59	12705
2026-01-25 15:40:32.93	208.65	5.07	-44.3	-55.4	3.8	8.47e-01	0	56	104	0	59	12688
2026-01-25 15:40:33.94	208.73	5.13	-44.3	-55.4	3.8	8.47e-01	0	56	104	0	59	12689
2026-01-25 15:40:34.95	208.82	5.20	-44.3	-55.3	3.8	8.46e-01	0	56	104	0	59	12620
2026-01-25 15:40:35.96	208.90	5.26	-44.3	-55.3	3.8	8.46e-01	0	56	104	0	58	13326
2026-01-25 15:40:36.97	208.99	5.32	-44.3	-55.2	3.8	8.46e-01	0	56	104	0	58	13244
2026-01-25 15:40:37.98	209.07	5.38	-44.3	-55.2	3.8	8.45e-01	0	56	104	0	58	13246
2026-01-25 15:40:38.99	209.16	5.44	-44.3	-55.1	3.8	8.46e-01	0	56	104	0	58	13107
2026-01-25 15:40:40.00	209.25	5.50	-44.3	-55.1	3.8	8.45e-01	0	56	104	0	58	13089
2026-01-25 15:40:41.01	209.33	5.56	-44.3	-54.9	3.8	8.47e-01	0	56	104	0	58	12760
2026-01-25 15:40:42.02	209.42	5.63	-44.3	-54.9	3.8	8.45e-01	0	56	104	0	58	12720
2026-01-25 15:40:43.03	209.51	5.69	-44.3	-54.7	3.8	8.47e-01	0	56	104	0	58	12480
2026-01-25 15:40:44.05	209.59	5.75	-44.3	-54.8	3.8	8.47e-01	0	56	104	0	58	12561
2026-01-25 15:40:45.06	209.68	5.81	-44.2	-54.6	3.8	8.46e-01	0	56	104	0	58	12251
2026-01-25 15:40:46.07	209.77	5.88	-44.2	-54.3	3.8	8.46e-01	0	56	104	0	58	11897
2026-01-25 15:40:47.08	209.86	5.94	-44.2	-54.0	3.8	8.46e-01	0	56	104	0	58	11433
2026-01-25 15:40:48.09	209.95	6.00	-44.1	-53.6	3.8	8.45e-01	0	56	104	0	58	11010
2026-01-25 15:40:49.10	210.04	6.06	-44.1	-53.3	3.8	8.46e-01	0	57	104	0	58	10638
2026-01-25 15:40:50.11	210.13	6.12	-44.0	-52.8	4.0	8.45e-01	0	56	104	0	58	10027
2026-01-25 15:40:51.12	210.22	6.19	-43.9	-52.4	3.9	8.42e-01	0	57	104	0	58	9600
2026-01-25 15:40:52.13	210.31	6.25	-43.8	-51.8	4.2	8.38e-01	0	57	0	0	58	8927
2026-01-25 15:40:53.14	210.40	6.31	-43.7	-51.3	4.4	8.32e-01	0	57	0	0	58	8372
2026-01-25 15:40:54.15	210.49	6.38	-43.5	-50.3	4.7	8.05e-01	0	57	0	0	58	7515
2026-01-25 15:40:55.16	210.58	6.44	-43.4	-49.6	5.1	7.71e-01	0	57	0	0	57	7362
2026-01-25 15:40:56.17	210.67	6.50	-43.2	-49.1	5.4	7.22e-01	0	57	0	0	57	6934
2026-01-25 15:40:57.18	210.77	6.57	-43.0	-48.5	5.8	5.46e-01	0	57	0	1048576	57	6450
2026-01-25 15:40:58.19	210.86	6.63	-42.8	-47.8	6.4	2.90e-01	0	57	0	8388608	56	6310
2026-01-25 15:40:59.20	210.95	6.69	-42.6	-47.4	6.7	2.09e-01	0	57	0	15728640	56	6036
2026-01-25 15:41:00.21	211.04	6.76	-42.6	-47.3	6.8	1.85e-01	0	57	0	23068672	56	5926
2026-01-25 15:41:01.22	211.14	6.82	-42.3	-46.9	7.1	1.59e-01	0	57	0	30408704	55	6020
2026-01-25 15:41:02.23	211.23	6.88	-42.3	-46.9	7.0	1.59e-01	0	57	0	37748736	55	6028
2026-01-25 15:41:03.24	211.33	6.95	-42.4	-47.0	7.0	1.66e-01	0	57	0	45088768	55	6071
2026-01-25 15:41:04.25	211.42	7.01	-42.3	-46.9	7.0	1.71e-01	0	57	0	52428800	55	6057
2026-01-25 15:41:05.26	211.52	7.07	-42.3	-47.0	6.9	1.67e-01	0	57	0	59768832	55	6103
2026-01-25 15:41:06.27	211.61	7.14	-42.4	-47.2	6.7	1.88e-01	0	57	0	67108864	55	6263
2026-01-25 15:41:07.28	211.71	7.20	-42.3	-47.0	7.0	1.70e-01	0	57	0	74448896	55	6076
2026-01-25 15:41:08.29	211.81	7.27	-42.2	-46.8	7.1	1.52e-01	0	57	0	81788928	55	5988
2026-01-25 15:41:09.31	211.91	7.33	-42.0	-46.2	7.7	1.10e-01	0	58	0	89128960	55	5553
2026-01-25 15:41:10.32	212.00	7.40	-41.6	-45.3	8.6	4.50e-02	0	57	0	96468992	54	5301
2026-01-25 15:41:11.33	212.10	7.46	-41.2	-44.6	9.4	2.35e-02	0	57	0	103809024	53	5164
2026-01-25 15:41:12.34	212.20	7.53	-40.7	-43.6	10.4	6.41e-03	0	57	0	111149056	52	4900
2026-01-25 15:41:13.35	212.30	7.59	-40.4	-43.1	11.0	2.14e-03	0	58	0	118489088	51	4885
2026-01-25 15:41:14.36	212.40	7.66	-39.9	-42.3	11.9	5.80e-04	0	58	0	125829120	50	4715
2026-01-25 15:41:15.37	212.50	7.72	-39.5	-41.7	12.5	2.23e-04	0	58	0	133169152	50	4428
2026-01-25 15:41:16.38	212.60	7.79	-39.2	-41.3	12.8	7.09e-05	0	58	0	139460608	49	4491
2026-01-25 15:41:17.39	212.70	7.85	-39.0	-41.1	13.1	4.57e-05	0	58	0	146800640	49	4348
2026-01-25 15:41:18.40	212.80	7.92	-39.1	-41.2	13.0	3.31e-05	0	58	0	154140672	49	4403
2026-01-25 15:41:19.41	212.90	7.98	-39.2	-41.3	12.9	6.29e-05	0	58	0	161480704	49	4480
2026-01-25 15:41:20.42	213.00	8.05	-41.1	-44.1	10.7	7.78e-05	0	58	0	168820736	51	5475
2026-01-25 15:41:21.43	213.10	8.11	-44.3	-52.0	4.2	8.35e-01	0	58	0	169869312	58	9158
2026-01-25 15:41:22.44	213.21	8.18	-41.0	-44.2	9.4	8.45e-01	0	58	104	171966464	53	4929
2026-01-25 15:41:23.45	213.31	8.24	-40.5	-43.1	11.1	8.20e-03	0	58	0	177209344	52	4645
2026-01-25 15:41:24.47	213.41	8.31	-39.0	-41.0	13.4	4.15e-04	0	58	0	185597952	49	4316
2026-01-25 15:41:25.48	213.52	8.38	-40.5	-43.3	10.7	4.01e-02	0	58	0	191889408	52	4739
2026-01-25 15:41:26.49	213.62	8.44	-38.9	-40.9	13.5	8.00e-06	0	58	0	199229440	48	4508
2026-01-25 15:41:27.50	213.73	8.51	-39.0	-41.0	13.4	1.25e-05	0	58	0	206569472	48	4548
2026-01-25 15:41:28.51	213.83	8.57	-38.9	-40.9	13.5	6.80e-06	0	58	0	213909504	48	4500
2026-01-25 15:41:29.52	213.94	8.64	-38.7	-40.6	13.8	4.50e-06	0	58	0	221249536	48	4356
2026-01-25 15:41:30.53	214.05	8.71	-38.6	-40.5	13.9	5.70e-06	0	58	0	228589568	48	4320
2026-01-25 15:41:31.54	214.15	8.77	-38.7	-40.6	13.8	6.80e-06	0	58	0	235929600	48	4388
2026-01-25 15:41:32.55	214.26	8.84	-38.6	-40.5	14.0	3.40e-06	0	58	0	243269632	48	4314
2026-01-25 15:41:33.56	214.37	8.91	-38.4	-40.2	14.1	0.00e+00	0	58	0	250609664	47	4416
2026-01-25 15:41:34.57	214.48	8.97	-38.4	-40.2	14.1	1.10e-06	0	58	0	257949696	47	4409
2026-01-25 15:41:35.58	214.58	9.04	-38.3	-40.1	14.2	6.80e-06	0	58	0	265289728	47	4351
2026-01-25 15:41:36.59	214.69	9.11	-38.3	-40.2	14.1	1.10e-06	0	58	0	272629760	47	4401
2026-01-25 15:41:37.60	214.80	9.17	-38.3	-40.1	14.2	1.10e-06	0	58	0	279969792	47	4378
2026-01-25 15:41:38.61	214.91	9.24	-38.3	-40.1	14.2	2.20e-06	0	58	0	287309824	47	4379
2026-01-25 15:41:39.63	215.03	9.31	-38.3	-40.1	14.2	1.10e-06	0	59	0	294649856	47	4372
2026-01-25 15:41:40.64	215.14	9.38	-38.3	-40.1	14.3	0.00e+00	0	58	0	301989888	47	4342
2026-01-25 15:41:41.65	215.25	9.44	-38.3	-40.1	14.3	0.00e+00	0	58	0	309329920	47	4353
2026-01-25 15:41:42.66	215.36	9.51	-38.3	-40.1	14.3	1.10e-06	0	59	0	315621376	47	4341
2026-01-25 15:41:43.67	215.47	9.58	-38.3	-40.0	14.3	2.20e-06	0	59	0	324009984	47	4337
2026-01-25 15:41:44.68	215.59	9.64	-38.4	-40.2	14.1	2.20e-06	0	59	0	331350016	47	4434
2026-01-25 15:41:45.69	215.70	9.71	-38.3	-40.1	14.3	1.10e-06	0	59	0	337641472	47	4362
2026-01-25 15:41:46.70	215.81	9.78	-38.3	-40.0	14.3	1.10e-06	0	59	0	344981504	47	4337
2026-01-25 15:41:47.71	215.93	9.85	-38.3	-40.1	14.3	0.00e+00	0	59	0	352321536	47	4365
2026-01-25 15:41:48.72	216.04	9.92	-38.2	-39.9	14.5	1.10e-06	0	59	0	359661568	47	4273
2026-01-25 15:41:49.73	216.16	9.98	-38.3	-40.1	14.3	0.00e+00	0	59	0	367001600	47	4371
2026-01-25 15:41:50.74	216.28	10.05	-38.3	-40.0	14.4	1.10e-06	0	59	0	374341632	47	4308
2026-01-25 15:41:51.74	216.39	10.12	-38.2	-39.9	14.5	0.00e+00	0	59	0	381681664	47	4281
2026-01-25 15:41:52.75	216.51	10.19	-38.3	-40.1	14.4	2.20e-06	0	59	0	389021696	47	4347
2026-01-25 15:41:53.77	216.63	10.26	-38.2	-39.9	14.5	0.00e+00	0	59	0	396361728	47	4276
2026-01-25 15:41:54.78	216.75	10.33	-38.2	-40.0	14.5	1.10e-06	0	59	0	403701760	47	4303
2026-01-25 15:41:55.79	216.87	10.39	-38.2	-39.9	14.6	0.00e+00	0	59	0	411041792	47	4274
2026-01-25 15:41:56.80	216.98	10.46	-38.2	-39.9	14.5	0.00e+00	0	59	0	418381824	47	4279
2026-01-25 15:41:57.81	217.10	10.53	-38.2	-39.9	14.6	0.00e+00	0	59	0	425721856	47	4268
2026-01-25 15:41:58.82	217.23	10.60	-38.3	-40.0	14.5	1.10e-06	0	59	0	433061888	47	4320
2026-01-25 15:41:59.83	217.35	10.67	-38.4	-40.1	14.4	1.10e-06	0	59	0	440401920	47	4372
2026-01-25 15:42:00.84	217.47	10.74	-38.3	-40.1	14.4	1.10e-06	0	59	0	447741952	47	4349
2026-01-25 15:42:01.85	217.59	10.81	-38.3	-40.0	14.5	0.00e+00	0	59	0	455081984	47	4301
2026-01-25 15:42:02.86	217.71	10.88	-38.1	-39.8	14.7	0.00e+00	0	59	0	462422016	47	4200
2026-01-25 15:42:03.87	217.84	10.95	-38.1	-39.8	14.7	1.10e-06	0	59	0	469762048	47	4212
2026-01-25 15:42:04.88	217.96	11.01	-38.0	-39.7	14.8	1.10e-06	0	59	0	477102080	46	4409
2026-01-25 15:42:05.89	218.08	11.08	-38.0	-39.7	14.9	0.00e+00	0	59	0	484442112	46	4395
2026-01-25 15:42:06.90	218.21	11.15	-38.0	-39.6	14.9	0.00e+00	0	59	0	490733568	46	4378
2026-01-25 15:42:07.91	218.34	11.22	-38.0	-39.6	14.9	0.00e+00	0	59	0	499122176	46	4366
2026-01-25 15:42:08.92	218.46	11.29	-38.1	-39.7	14.8	0.00e+00	0	59	0	506462208	46	4439
2026-01-25 15:42:09.93	218.59	11.36	-38.2	-39.9	14.7	2.20e-06	0	59	0	512753664	46	4516
2026-01-25 15:42:10.94	218.72	11.43	-38.2	-39.9	14.7	0.00e+00	0	59	0	520093696	46	4498
2026-01-25 15:42:11.95	218.84	11.50	-38.1	-39.8	14.7	0.00e+00	0	59	0	527433728	46	4492
2026-01-25 15:42:12.96	218.97	11.57	-38.3	-40.0	14.6	2.20e-06	0	59	0	534773760	46	4559
2026-01-25 15:42:13.97	219.10	11.64	-38.3	-40.0	14.6	1.10e-06	0	59	0	542113792	46	4576
2026-01-25 15:42:14.99	219.23	11.71	-38.4	-40.2	14.4	1.10e-06	0	60	0	549453824	46	4666
2026-01-25 15:42:16.00	219.36	11.78	-38.4	-40.1	14.5	0.00e+00	0	59	0	556793856	46	4630
2026-01-25 15:42:17.01	219.49	11.85	-38.3	-40.1	14.5	1.10e-06	0	59	0	564133888	46	4604
2026-01-25 15:42:18.02	219.62	11.92	-38.3	-40.0	14.6	1.10e-06	0	59	0	571473920	46	4569
2026-01-25 15:42:19.03	219.76	11.99	-38.3	-40.1	14.5	0.00e+00	0	59	0	578813952	46	4604
2026-01-25 15:42:20.04	219.89	12.06	-38.4	-40.2	14.4	2.20e-06	0	59	0	586153984	46	4657
2026-01-25 15:42:21.05	220.02	12.13	-38.2	-39.9	14.7	0.00e+00	0	59	0	593494016	46	4539
2026-01-25 15:42:22.06	220.16	12.20	-38.3	-40.0	14.6	0.00e+00	0	59	0	600834048	46	4569
2026-01-25 15:42:23.07	220.29	12.27	-38.3	-40.0	14.6	1.10e-06	0	60	0	608174080	46	4558
2026-01-25 15:42:24.08	220.43	12.34	-38.1	-39.8	14.8	0.00e+00	0	59	0	615514112	46	4450
2026-01-25 15:42:25.09	220.56	12.42	-38.1	-39.7	14.9	0.00e+00	0	60	0	622854144	46	4427
2026-01-25 15:42:26.10	220.70	12.49	-38.1	-39.7	14.9	0.00e+00	0	60	0	630194176	46	4430
2026-01-25 15:42:27.12	220.84	12.56	-38.1	-39.7	14.9	0.00e+00	0	60	0	637534208	46	4438
2026-01-25 15:42:28.13	220.98	12.63	-38.0	-39.6	15.0	0.00e+00	0	60	0	644874240	46	4375
2026-01-25 15:42:29.14	221.11	12.70	-38.0	-39.6	15.1	0.00e+00	0	60	0	652214272	46	4358
2026-01-25 15:42:30.15	221.25	12.77	-38.0	-39.6	15.0	0.00e+00	0	59	0	658505728	46	4366
2026-01-25 15:42:31.16	221.39	12.84	-37.9	-39.5	15.1	0.00e+00	0	60	0	665845760	46	4320
2026-01-25 15:42:32.17	221.53	12.91	-37.7	-39.2	15.4	0.00e+00	0	60	0	674234368	46	4189
2026-01-25 15:42:33.18	221.67	12.98	-37.9	-39.5	15.2	0.00e+00	0	60	0	680525824	46	4295
2026-01-25 15:42:34.19	221.82	13.05	-37.8	-39.4	15.3	1.10e-06	0	60	0	687865856	46	4257
2026-01-25 15:42:35.20	221.96	13.13	-37.9	-39.5	15.2	0.00e+00	0	60	0	695205888	46	4312
2026-01-25 15:42:36.21	222.10	13.20	-37.8	-39.3	15.3	3.40e-06	0	60	0	702545920	46	4241
2026-01-25 15:42:37.22	222.25	13.27	-37.8	-39.3	15.4	1.10e-06	0	60	0	709885952	46	4237
2026-01-25 15:42:38.23	222.39	13.34	-37.7	-39.2	15.4	0.00e+00	0	60	0	717225984	46	4191
2026-01-25 15:42:39.24	222.53	13.41	-37.7	-39.2	15.5	1.10e-06	0	60	0	724566016	46	4181
2026-01-25 15:42:40.25	222.68	13.48	-37.7	-39.3	15.4	0.00e+00	0	60	0	731906048	46	4208
2026-01-25 15:42:41.26	222.83	13.55	-37.6	-39.1	15.5	0.00e+00	0	60	0	739246080	46	4140
2026-01-25 15:42:42.27	222.97	13.63	-37.6	-39.1	15.6	0.00e+00	0	60	0	746586112	46	4114
2026-01-25 15:42:43.28	223.12	13.70	-37.5	-39.0	15.7	0.00e+00	0	60	0	753926144	45	4320
2026-01-25 15:42:44.29	223.27	13.77	-37.4	-38.8	15.8	0.00e+00	0	60	0	761266176	45	4241
2026-01-25 15:42:45.30	223.42	13.84	-37.4	-38.9	15.9	0.00e+00	0	60	0	768606208	45	4243
2026-01-25 15:42:46.32	223.57	13.91	-37.4	-38.9	15.8	0.00e+00	0	60	0	775946240	45	4284
2026-01-25 15:42:47.33	223.72	13.98	-37.4	-38.8	15.9	0.00e+00	0	60	0	783286272	45	4236
2026-01-25 15:42:48.34	223.87	14.06	-37.4	-38.9	15.8	0.00e+00	0	60	0	790626304	45	4252
2026-01-25 15:42:49.35	224.03	14.13	-37.4	-38.9	15.9	0.00e+00	0	60	0	797966336	45	4261
2026-01-25 15:42:50.36	224.18	14.20	-37.4	-38.9	15.8	0.00e+00	0	60	0	805306368	45	4284
2026-01-25 15:42:51.37	224.33	14.27	-37.3	-38.8	16.0	0.00e+00	0	60	0	812646400	45	4198
2026-01-25 15:42:52.38	224.49	14.34	-37.4	-38.8	15.9	0.00e+00	0	60	0	819986432	45	4240
2026-01-25 15:42:53.39	224.64	14.41	-37.3	-38.8	15.9	0.00e+00	0	60	0	827326464	45	4208
2026-01-25 15:42:54.40	224.80	14.49	-37.3	-38.8	15.9	0.00e+00	0	60	0	833617920	45	4216
2026-01-25 15:42:55.41	224.95	14.56	-37.2	-38.7	16.1	0.00e+00	0	60	0	842006528	45	4163
2026-01-25 15:42:56.42	225.11	14.63	-37.2	-38.7	16.1	0.00e+00	0	60	0	849346560	45	4163
2026-01-25 15:42:57.43	225.27	14.70	-37.2	-38.6	16.1	0.00e+00	0	60	0	855638016	45	4131
2026-01-25 15:42:58.44	225.43	14.77	-37.1	-38.6	16.2	0.00e+00	0	60	0	862978048	45	4105
2026-01-25 15:42:59.45	225.59	14.85	-37.1	-38.6	16.2	0.00e+00	0	60	0	870318080	45	4111
2026-01-25 15:43:00.46	225.75	14.92	-37.1	-38.5	16.3	0.00e+00	0	60	0	877658112	45	4065
2026-01-25 15:43:01.48	225.91	14.99	-37.1	-38.5	16.2	0.00e+00	0	60	0	884998144	45	4093
2026-01-25 15:43:02.49	226.07	15.06	-37.1	-38.5	16.3	0.00e+00	0	60	0	892338176	45	4073
2026-01-25 15:43:03.50	226.23	15.13	-37.1	-38.5	16.2	0.00e+00	0	60	0	899678208	45	4095
2026-01-25 15:43:04.51	226.40	15.21	-37.1	-38.5	16.2	0.00e+00	0	60	0	907018240	45	4091
2026-01-25 15:43:05.52	226.56	15.28	-36.9	-38.3	16.5	0.00e+00	0	60	0	914358272	44	4226
2026-01-25 15:43:06.53	226.72	15.35	-37.0	-38.4	16.4	0.00e+00	0	60	0	921698304	44	4256
2026-01-25 15:43:07.54	226.89	15.42	-37.0	-38.4	16.4	0.00e+00	0	60	0	929038336	44	4255
2026-01-25 15:43:08.55	227.06	15.49	-36.9	-38.2	16.5	0.00e+00	0	60	0	936378368	44	4193
2026-01-25 15:43:09.56	227.22	15.57	-36.7	-38.1	16.7	0.00e+00	0	60	0	943718400	44	4123
2026-01-25 15:43:10.57	227.39	15.64	-36.8	-38.2	16.6	0.00e+00	0	60	0	951058432	44	4163
2026-01-25 15:43:11.58	227.56	15.71	-36.8	-38.2	16.6	0.00e+00	0	60	0	958398464	44	4155
2026-01-25 15:43:12.59	227.73	15.78	-36.9	-38.3	16.5	0.00e+00	0	60	0	965738496	44	4217
2026-01-25 15:43:13.61	227.90	15.85	-36.9	-38.3	16.5	0.00e+00	0	60	0	973078528	44	4213
2026-01-25 15:43:14.62	228.07	15.93	-36.9	-38.3	16.5	0.00e+00	0	60	0	980418560	44	4214
2026-01-25 15:43:15.63	228.24	16.00	-36.9	-38.3	16.5	0.00e+00	0	61	0	987758592	44	4215
2026-01-25 15:43:16.64	228.42	16.07	-37.0	-38.4	16.4	0.00e+00	0	60	0	995098624	44	4257
2026-01-25 15:43:17.65	228.59	16.14	-36.8	-38.2	16.5	0.00e+00	0	60	0	1001390080	44	4177
2026-01-25 15:43:18.66	228.76	16.21	-36.9	-38.3	16.5	0.00e+00	0	61	0	1008730112	44	4222
2026-01-25 15:43:19.67	228.94	16.28	-37.0	-38.4	16.5	0.00e+00	0	61	0	1017118720	44	4246
2026-01-25 15:43:20.68	229.11	16.36	-36.9	-38.2	16.6	0.00e+00	0	60	0	1023410176	44	4188
2026-01-25 15:43:21.69	229.29	16.43	-36.8	-38.2	16.7	0.00e+00	0	60	0	1030750208	44	4151
2026-01-25 15:43:22.70	229.47	16.50	-36.8	-38.1	16.7	0.00e+00	0	60	0	1038090240	44	4124
2026-01-25 15:43:23.71	229.65	16.57	-36.7	-38.0	16.8	0.00e+00	0	60	0	1045430272	44	4068
2026-01-25 15:43:24.72	229.82	16.64	-36.6	-37.9	16.9	0.00e+00	0	60	0	1052770304	44	4039
2026-01-25 15:43:25.73	230.00	16.71	-36.8	-38.1	16.7	0.00e+00	0	60	0	1060110336	44	4127
2026-01-25 15:43:26.74	230.19	16.78	-36.7	-38.1	16.7	0.00e+00	0	61	0	1067450368	44	4128
2026-01-25 15:43:27.75	230.37	16.86	-36.8	-38.2	16.7	0.00e+00	0	60	0	1074790400	44	4157
2026-01-25 15:43:28.76	230.55	16.93	-36.8	-38.2	16.7	0.00e+00	0	61	0	1082130432	44	4149
2026-01-25 15:43:29.77	230.73	17.00	-36.7	-38.1	16.8	0.00e+00	0	60	0	1089470464	44	4117
2026-01-25 15:43:30.78	230.92	17.07	-36.7	-38.1	16.8	0.00e+00	0	60	0	1096810496	44	4114
2026-01-25 15:43:31.79	231.10	17.14	-36.7	-38.0	16.9	0.00e+00	0	60	0	1104150528	44	4084
2026-01-25 15:43:32.81	231.29	17.21	-36.6	-37.9	16.9	0.00e+00	0	61	0	1111490560	44	4045
2026-01-25 15:43:33.81	231.47	17.28	-36.6	-37.9	17.0	0.00e+00	0	61	0	1118830592	44	4025
2026-01-25 15:43:34.82	231.66	17.35	-36.5	-37.8	17.1	0.00e+00	0	60	0	1126170624	44	3977
2026-01-25 15:43:35.83	231.85	17.42	-36.4	-37.7	17.0	0.00e+00	0	60	0	1133510656	43	4169
2026-01-25 15:43:36.84	232.04	17.49	-36.4	-37.8	16.9	0.00e+00	0	60	0	1140850688	43	4196
2026-01-25 15:43:37.85	232.23	17.56	-36.4	-37.8	17.0	0.00e+00	0	61	0	1148190720	43	4197
2026-01-25 15:43:38.86	232.42	17.63	-36.5	-37.8	16.9	0.00e+00	0	60	0	1155530752	43	4240
2026-01-25 15:43:39.87	232.61	17.70	-36.5	-37.9	16.8	0.00e+00	0	61	0	1162870784	43	4259
2026-01-25 15:43:40.88	232.80	17.77	-36.6	-37.9	16.8	0.00e+00	0	61	0	1170210816	43	4277
2026-01-25 15:43:41.89	233.00	17.84	-36.5	-37.9	16.8	0.00e+00	0	60	0	1176502272	43	4250
2026-01-25 15:43:42.90	233.19	17.91	-36.5	-37.8	16.9	0.00e+00	0	61	0	1183842304	43	4239
2026-01-25 15:43:43.92	233.39	17.98	-36.5	-37.8	16.9	0.00e+00	0	61	0	1192230912	43	4234
2026-01-25 15:43:44.92	233.58	18.05	-36.4	-37.8	16.9	0.00e+00	0	61	0	1198522368	43	4208
2026-01-25 15:43:45.94	233.78	18.12	-36.4	-37.7	17.0	0.00e+00	0	60	0	1205862400	43	4190
2026-01-25 15:43:46.95	233.98	18.19	-36.4	-37.8	16.9	0.00e+00	0	61	0	1213202432	43	4206
2026-01-25 15:43:47.96	234.18	18.26	-36.4	-37.7	17.0	0.00e+00	0	61	0	1220542464	43	4174
2026-01-25 15:43:48.97	234.38	18.33	-36.4	-37.7	17.0	0.00e+00	0	61	0	1227882496	43	4173
2026-01-25 15:43:49.98	234.58	18.40	-36.3	-37.6	17.1	0.00e+00	0	61	0	1235222528	43	4140
2026-01-25 15:43:50.99	234.78	18.47	-36.3	-37.6	17.1	0.00e+00	0	61	0	1242562560	43	4131
2026-01-25 15:43:51.99	234.98	18.53	-36.3	-37.6	17.1	0.00e+00	0	61	0	1249902592	43	4107
2026-01-25 15:43:53.00	235.18	18.60	-36.3	-37.5	17.1	0.00e+00	0	61	0	1257242624	43	4098
2026-01-25 15:43:54.01	235.39	18.67	-36.3	-37.6	17.1	0.00e+00	0	61	0	1264582656	43	4101
2026-01-25 15:43:55.02	235.59	18.74	-36.2	-37.5	17.2	0.00e+00	0	61	0	1271922688	43	4075
2026-01-25 15:43:56.03	235.80	18.81	-36.2	-37.5	17.3	0.00e+00	0	61	0	1279262720	43	4069
2026-01-25 15:43:57.04	236.01	18.88	-36.2	-37.5	17.2	0.00e+00	0	61	0	1286602752	43	4087
2026-01-25 15:43:58.05	236.21	18.94	-36.2	-37.5	17.2	0.00e+00	0	61	0	1293942784	43	4057
2026-01-25 15:43:59.06	236.42	19.01	-36.2	-37.4	17.3	0.00e+00	0	61	0	1301282816	43	4049
2026-01-25 15:44:00.07	236.63	19.08	-36.2	-37.5	17.2	0.00e+00	0	61	0	1308622848	43	4065
2026-01-25 15:44:01.08	236.84	19.14	-36.1	-37.3	17.4	0.00e+00	0	61	0	1315962880	43	3989
2026-01-25 15:44:02.09	237.05	19.21	-36.1	-37.4	17.4	0.00e+00	0	61	0	1322254336	43	4025
2026-01-25 15:44:03.10	237.27	19.28	-36.1	-37.4	17.4	0.00e+00	0	61	0	1329594368	43	4016
2026-01-25 15:44:04.11	237.48	19.34	-36.1	-37.4	17.4	0.00e+00	0	60	0	1337982976	43	4009
2026-01-25 15:44:05.12	237.69	19.41	-36.1	-37.4	17.3	0.00e+00	0	61	0	1344274432	43	4025
2026-01-25 15:44:06.13	237.91	19.48	-36.1	-37.4	17.3	0.00e+00	0	61	0	1351614464	43	4046
2026-01-25 15:44:07.14	238.12	19.54	-36.2	-37.5	17.2	0.00e+00	0	61	0	1358954496	43	4078
2026-01-25 15:44:08.15	238.34	19.61	-36.1	-37.4	17.3	0.00e+00	0	61	0	1366294528	43	4021
2026-01-25 15:44:09.16	238.56	19.67	-36.2	-37.4	17.3	0.00e+00	0	61	0	1373634560	43	4048
2026-01-25 15:44:10.17	238.78	19.74	-36.1	-37.4	17.3	0.00e+00	0	61	0	1380974592	43	4024
2026-01-25 15:44:11.18	239.00	19.80	-36.1	-37.4	17.3	0.00e+00	0	61	0	1388314624	43	4041
2026-01-25 15:44:12.19	239.22	19.87	-36.0	-37.3	17.4	0.00e+00	0	61	0	1395654656	43	3972
2026-01-25 15:44:13.20	239.44	19.93	-36.0	-37.2	17.5	0.00e+00	0	61	0	1402994688	42	4177
2026-01-25 15:44:14.21	239.66	19.99	-35.9	-37.1	17.6	0.00e+00	0	61	0	1410334720	42	4138
2026-01-25 15:44:15.22	239.88	20.06	-35.9	-37.2	17.5	0.00e+00	0	61	0	1417674752	42	4164
2026-01-25 15:44:16.23	240.11	20.12	-35.7	-36.9	17.7	0.00e+00	0	61	0	1425014784	42	4050
2026-01-25 15:44:17.24	240.33	20.19	-35.8	-37.0	17.7	0.00e+00	0	61	0	1432354816	42	4095
2026-01-25 15:44:18.25	240.56	20.25	-35.8	-37.1	17.6	0.00e+00	0	61	0	1439694848	42	4115
2026-01-25 15:44:19.26	240.78	20.31	-35.9	-37.1	17.6	0.00e+00	0	61	0	1447034880	42	4138
2026-01-25 15:44:20.27	241.01	20.37	-35.9	-37.2	17.5	0.00e+00	0	61	0	1454374912	42	4174
2026-01-25 15:44:21.28	241.24	20.44	-36.0	-37.3	17.5	0.00e+00	0	61	0	1461714944	42	4210
2026-01-25 15:44:22.30	241.47	20.50	-35.9	-37.1	17.6	0.00e+00	0	61	0	1469054976	42	4120
2026-01-25 15:44:23.31	241.70	20.56	-35.8	-37.0	17.7	0.00e+00	0	61	0	1475346432	42	4060
2026-01-25 15:44:24.32	241.93	20.62	-35.7	-37.0	17.8	0.00e+00	0	61	0	1483735040	42	4056
2026-01-25 15:44:25.32	242.16	20.68	-35.8	-37.0	17.7	0.00e+00	0	61	0	1491075072	42	4061
2026-01-25 15:44:26.34	242.40	20.74	-35.7	-36.9	17.8	0.00e+00	0	61	0	1497366528	42	4039
2026-01-25 15:44:27.35	242.63	20.80	-35.8	-37.0	17.8	0.00e+00	0	61	0	1504706560	42	4084
2026-01-25 15:44:28.36	242.87	20.86	-35.8	-37.0	17.7	0.00e+00	0	61	0	1512046592	42	4092
2026-01-25 15:44:29.37	243.10	20.92	-35.9	-37.1	17.6	0.00e+00	0	61	0	1519386624	42	4132
2026-01-25 15:44:30.38	243.34	20.98	-35.9	-37.1	17.6	0.00e+00	0	61	0	1526726656	42	4123
2026-01-25 15:44:31.39	243.58	21.04	-35.9	-37.2	17.6	0.00e+00	0	61	0	1534066688	42	4158
2026-01-25 15:44:32.40	243.81	21.10	-35.8	-37.0	17.7	0.00e+00	0	61	0	1541406720	42	4087
2026-01-25 15:44:33.41	244.05	21.16	-35.9	-37.1	17.6	0.00e+00	0	61	0	1548746752	42	4118
2026-01-25 15:44:34.42	244.29	21.21	-35.9	-37.2	17.6	0.00e+00	0	61	0	1556086784	42	4150
2026-01-25 15:44:35.43	244.53	21.27	-35.8	-37.1	17.7	0.00e+00	0	61	0	1563426816	42	4106
2026-01-25 15:44:36.44	244.78	21.33	-35.9	-37.1	17.6	0.00e+00	0	61	0	1570766848	42	4127
2026-01-25 15:44:37.45	245.02	21.38	-35.8	-37.1	17.6	0.00e+00	0	61	0	1578106880	42	4115
2026-01-25 15:44:38.46	245.26	21.44	-35.9	-37.2	17.6	0.00e+00	0	61	0	1585446912	42	4160
2026-01-25 15:44:39.47	245.51	21.50	-35.9	-37.2	17.5	0.00e+00	0	61	0	1592786944	42	4174
2026-01-25 15:44:40.47	245.75	21.55	-35.9	-37.2	17.5	0.00e+00	0	61	0	1600126976	42	4172
2026-01-25 15:44:41.48	246.00	21.61	-35.8	-37.0	17.7	0.00e+00	0	61	0	1607467008	42	4081
2026-01-25 15:44:42.49	246.24	21.66	-35.7	-36.9	17.8	0.00e+00	0	61	0	1614807040	42	4032
2026-01-25 15:44:43.50	246.49	21.71	-35.6	-36.8	18.0	0.00e+00	0	61	0	1621098496	42	3966
2026-01-25 15:44:44.51	246.74	21.77	-35.6	-36.8	18.0	0.00e+00	0	61	0	1629487104	42	3963
2026-01-25 15:44:45.52	246.99	21.82	-35.5	-36.7	18.0	0.00e+00	0	61	0	1636827136	41	4155
2026-01-25 15:44:46.54	247.24	21.88	-35.6	-36.8	17.9	0.00e+00	0	61	0	1644167168	41	4229
2026-01-25 15:44:47.55	247.49	21.93	-35.6	-36.8	17.9	0.00e+00	0	61	0	1650458624	41	4240
2026-01-25 15:44:48.56	247.74	21.98	-35.7	-36.9	17.8	0.00e+00	0	61	0	1657798656	41	4275
2026-01-25 15:44:49.57	248.00	22.03	-35.7	-36.9	17.8	0.00e+00	0	61	0	1665138688	41	4264
2026-01-25 15:44:50.58	248.25	22.08	-35.6	-36.8	17.8	0.00e+00	0	61	0	1672478720	41	4232
2026-01-25 15:44:51.58	248.50	22.13	-35.5	-36.7	17.9	0.00e+00	0	61	0	1679818752	41	4188
2026-01-25 15:44:52.59	248.76	22.18	-35.6	-36.8	17.9	0.00e+00	0	61	0	1687158784	41	4213
2026-01-25 15:44:53.60	249.01	22.23	-35.5	-36.7	18.0	0.00e+00	0	61	0	1694498816	41	4177
2026-01-25 15:44:54.62	249.27	22.28	-35.6	-36.8	17.9	0.00e+00	0	61	0	1701838848	41	4208
2026-01-25 15:44:55.63	249.53	22.33	-35.5	-36.7	18.0	0.00e+00	0	61	0	1709178880	41	4147
2026-01-25 15:44:56.64	249.79	22.38	-35.6	-36.8	17.9	0.00e+00	0	61	0	1716518912	41	4210
2026-01-25 15:44:57.65	250.05	22.43	-35.5	-36.7	17.9	0.00e+00	0	61	0	1723858944	41	4193
2026-01-25 15:44:58.65	250.30	22.47	-35.6	-36.8	17.9	0.00e+00	0	61	0	1731198976	41	4223
2026-01-25 15:44:59.67	250.57	22.52	-35.7	-36.9	17.8	0.00e+00	0	61	0	1738539008	41	4278
2026-01-25 15:45:00.68	250.83	22.57	-35.6	-36.8	17.9	0.00e+00	0	61	0	1745879040	41	4217
2026-01-25 15:45:01.69	251.09	22.61	-35.6	-36.8	17.9	0.00e+00	0	61	0	1753219072	41	4211
2026-01-25 15:45:02.70	251.35	22.66	-35.7	-36.9	17.8	0.00e+00	0	61	0	1760559104	41	4272
2026-01-25 15:45:03.71	251.62	22.70	-35.7	-37.0	17.7	0.00e+00	0	61	0	1767899136	41	4299
2026-01-25 15:45:04.72	251.88	22.75	-35.6	-36.8	17.9	0.00e+00	0	61	0	1775239168	41	4239
2026-01-25 15:45:05.73	252.15	22.79	-35.6	-36.8	17.9	0.00e+00	0	61	0	1782579200	41	4220
2026-01-25 15:45:06.74	252.41	22.83	-35.6	-36.9	17.9	0.00e+00	0	61	0	1789919232	41	4245
2026-01-25 15:45:07.75	252.68	22.87	-35.5	-36.7	18.0	0.00e+00	0	61	0	1796210688	41	4177
2026-01-25 15:45:08.76	252.95	22.92	-35.5	-36.7	18.0	0.00e+00	0	61	0	1803550720	41	4171
2026-01-25 15:45:09.77	253.21	22.96	-35.5	-36.7	18.1	0.00e+00	0	61	0	1811939328	41	4164
2026-01-25 15:45:10.78	253.48	23.00	-35.6	-36.8	18.0	0.00e+00	0	61	0	1818230784	41	4218
2026-01-25 15:45:11.78	253.75	23.04	-35.6	-36.8	18.0	0.00e+00	0	61	0	1825570816	41	4202
2026-01-25 15:45:12.80	254.02	23.08	-35.5	-36.7	18.0	0.00e+00	0	61	0	1832910848	41	4165
2026-01-25 15:45:13.80	254.29	23.12	-35.5	-36.7	18.0	0.00e+00	0	61	0	1840250880	41	4187
2026-01-25 15:45:14.82	254.56	23.15	-35.4	-36.6	18.2	0.00e+00	0	61	0	1847590912	41	4101
2026-01-25 15:45:15.83	254.84	23.19	-35.4	-36.5	18.2	0.00e+00	0	61	0	1854930944	41	4098
2026-01-25 15:45:16.84	255.11	23.23	-35.4	-36.6	18.1	0.00e+00	0	61	0	1862270976	41	4120
2026-01-25 15:45:17.85	255.38	23.27	-35.4	-36.5	18.2	0.00e+00	0	61	0	1869611008	41	4086
2026-01-25 15:45:18.86	255.66	23.30	-35.2	-36.4	18.3	0.00e+00	0	61	0	1876951040	41	4027
2026-01-25 15:45:19.87	255.93	23.34	-35.3	-36.5	18.3	0.00e+00	0	61	0	1884291072	41	4060
2026-01-25 15:45:20.88	256.20	23.37	-35.3	-36.4	18.3	0.00e+00	0	61	0	1891631104	41	4045
2026-01-25 15:45:21.89	256.48	23.40	-35.2	-36.4	18.4	0.00e+00	0	61	0	1898971136	41	4008
2026-01-25 15:45:22.90	256.76	23.44	-35.1	-36.2	18.5	0.00e+00	0	61	0	1906311168	41	3951
2026-01-25 15:45:23.91	257.03	23.47	-35.0	-36.1	18.6	0.00e+00	0	61	0	1913651200	41	3903
2026-01-25 15:45:24.92	257.31	23.50	-35.0	-36.1	18.6	0.00e+00	0	61	0	1920991232	40	4145
2026-01-25 15:45:25.93	257.59	23.53	-35.0	-36.2	18.5	0.00e+00	0	61	0	1928331264	40	4157
2026-01-25 15:45:26.94	257.87	23.57	-35.1	-36.2	18.5	0.00e+00	0	61	0	1935671296	40	4175
2026-01-25 15:45:27.95	258.15	23.60	-35.0	-36.1	18.6	0.00e+00	0	61	0	1943011328	40	4140
2026-01-25 15:45:28.96	258.42	23.62	-35.0	-36.2	18.6	0.00e+00	0	62	0	1949302784	40	4152
2026-01-25 15:45:29.97	258.70	23.65	-35.0	-36.2	18.6	0.00e+00	0	61	0	1957691392	40	4152
2026-01-25 15:45:30.98	258.98	23.68	-35.0	-36.1	18.6	0.00e+00	0	61	0	1965031424	40	4131
2026-01-25 15:45:31.99	259.27	23.71	-35.0	-36.1	18.6	0.00e+00	0	61	0	1971322880	40	4142
2026-01-25 15:45:33.00	259.55	23.74	-35.1	-36.2	18.5	0.00e+00	0	61	0	1978662912	40	4168
2026-01-25 15:45:34.01	259.83	23.76	-35.1	-36.3	18.5	0.00e+00	0	61	0	1986002944	40	4209
2026-01-25 15:45:35.02	260.11	23.79	-35.2	-36.4	18.4	0.00e+00	0	61	0	1993342976	40	4256
2026-01-25 15:45:36.03	260.39	23.81	-35.3	-36.5	18.2	0.00e+00	0	61	0	2000683008	40	4329
2026-01-25 15:45:37.04	260.68	23.84	-35.4	-36.6	18.2	0.00e+00	0	61	0	2008023040	40	4343
2026-01-25 15:45:38.06	260.96	23.86	-35.4	-36.6	18.1	0.00e+00	0	61	0	2015363072	40	4384
2026-01-25 15:45:39.07	261.25	23.88	-35.4	-36.6	18.1	0.00e+00	0	61	0	2022703104	40	4381
2026-01-25 15:45:40.08	261.53	23.90	-35.3	-36.5	18.3	0.00e+00	0	61	0	2030043136	40	4303
2026-01-25 15:45:41.09	261.82	23.92	-35.2	-36.3	18.4	0.00e+00	0	61	0	2037383168	40	4230
2026-01-25 15:45:42.10	262.10	23.95	-35.2	-36.3	18.4	0.00e+00	0	61	0	2044723200	40	4230
2026-01-25 15:45:43.11	262.39	23.96	-35.1	-36.2	18.5	0.00e+00	0	61	0	2052063232	40	4164
2026-01-25 15:45:44.12	262.67	23.98	-35.1	-36.2	18.5	0.00e+00	0	62	0	2059403264	40	4184
2026-01-25 15:45:45.13	262.96	24.00	-35.1	-36.2	18.5	0.00e+00	0	62	0	2066743296	40	4193
2026-01-25 15:45:46.14	263.24	24.02	-35.0	-36.2	18.6	0.00e+00	0	62	0	2074083328	40	4150
2026-01-25 15:45:47.15	263.53	24.04	-35.1	-36.3	18.4	0.00e+00	0	61	0	2081423360	40	4212
2026-01-25 15:45:48.16	263.82	24.05	-35.2	-36.3	18.4	0.00e+00	0	62	0	2088763392	40	4240
2026-01-25 15:45:49.17	264.10	24.07	-35.2	-36.3	18.4	0.00e+00	0	61	0	2096103424	40	4235
2026-01-25 15:45:50.18	264.39	24.08	-35.1	-36.2	18.5	0.00e+00	0	61	0	2103443456	40	4174
2026-01-25 15:45:51.18	264.68	24.10	-35.1	-36.2	18.5	0.00e+00	0	62	0	2110783488	40	4174
2026-01-25 15:45:52.19	264.97	24.11	-35.1	-36.3	18.5	0.00e+00	0	62	0	2117074944	40	4202
2026-01-25 15:45:53.21	265.26	24.12	-35.1	-36.2	18.5	0.00e+00	0	62	0	2124414976	40	4181
2026-01-25 15:45:54.22	265.54	24.13	-35.2	-36.3	18.4	0.00e+00	0	61	0	2132803584	40	4230
2026-01-25 15:45:55.23	265.83	24.14	-35.2	-36.4	18.4	0.00e+00	0	61	0	2139095040	40	4261
2026-01-25 15:45:56.24	266.12	24.16	-35.3	-36.5	18.3	0.00e+00	0	62	0	2146435072	40	4297
2026-01-25 15:45:57.25	266.41	24.16	-35.3	-36.5	18.3	0.00e+00	0	61	0	2153775104	40	4302
2026-01-25 15:45:58.26	266.70	24.17	-35.3	-36.5	18.3	0.00e+00	0	61	0	2161115136	40	4304
2026-01-25 15:45:59.27	266.99	24.18	-35.4	-36.6	18.2	0.00e+00	0	61	0	2168455168	40	4346
2026-01-25 15:46:00.28	267.28	24.19	-35.3	-36.5	18.3	0.00e+00	0	62	0	2175795200	40	4300
2026-01-25 15:46:01.29	267.57	24.19	-35.2	-36.4	18.4	0.00e+00	0	61	0	2183135232	40	4256
2026-01-25 15:46:02.30	267.86	24.20	-35.1	-36.3	18.5	0.00e+00	0	62	0	2190475264	40	4201
2026-01-25 15:46:03.31	268.15	24.21	-35.1	-36.3	18.5	0.00e+00	0	62	0	2197815296	40	4198
2026-01-25 15:46:04.32	268.44	24.21	-35.0	-36.1	18.6	0.00e+00	0	62	0	2205155328	40	4112
2026-01-25 15:46:05.33	268.73	24.21	-35.0	-36.1	18.6	0.00e+00	0	61	0	2212495360	40	4112
2026-01-25 15:46:06.34	269.02	24.22	-35.0	-36.1	18.6	0.00e+00	0	62	0	2219835392	40	4115
2026-01-25 15:46:07.35	269.31	24.22	-35.0	-36.2	18.5	0.00e+00	0	62	0	2227175424	40	4164
2026-01-25 15:46:08.36	269.60	24.22	-35.2	-36.3	18.4	0.00e+00	0	61	0	2234515456	40	4222
2026-01-25 15:46:09.37	269.89	24.22	-35.3	-36.4	18.3	0.00e+00	0	61	0	2241855488	40	4272
2026-01-25 15:46:10.38	270.18	24.22	-35.3	-36.5	18.3	0.00e+00	0	61	0	2249195520	40	4296
2026-01-25 15:46:11.39	270.47	24.22	-35.3	-36.5	18.3	0.00e+00	0	61	0	2256535552	40	4295
2026-01-25 15:46:12.40	270.76	24.22	-35.3	-36.5	18.3	0.00e+00	0	61	0	2263875584	40	4293
2026-01-25 15:46:13.41	271.05	24.21	-35.1	-36.2	18.5	0.00e+00	0	62	0	2271215616	40	4182
2026-01-25 15:46:14.42	271.34	24.21	-35.1	-36.2	18.5	0.00e+00	0	62	0	2278555648	40	4177
2026-01-25 15:46:15.43	271.63	24.21	-35.2	-36.4	18.3	0.00e+00	0	61	0	2285895680	40	4266
2026-01-25 15:46:16.44	271.92	24.20	-35.2	-36.4	18.3	0.00e+00	0	62	0	2292187136	40	4267
2026-01-25 15:46:17.45	272.20	24.20	-35.3	-36.5	18.3	0.00e+00	0	62	0	2299527168	40	4297
2026-01-25 15:46:18.46	272.49	24.19	-35.3	-36.5	18.3	0.00e+00	0	62	0	2307915776	40	4299
2026-01-25 15:46:19.47	272.78	24.18	-35.3	-36.4	18.3	0.00e+00	0	62	0	2314207232	40	4284
2026-01-25 15:46:20.48	273.07	24.17	-35.2	-36.4	18.4	0.00e+00	0	61	0	2321547264	40	4251
2026-01-25 15:46:21.49	273.36	24.17	-35.3	-36.4	18.3	0.00e+00	0	62	0	2328887296	40	4283
2026-01-25 15:46:22.50	273.65	24.16	-35.2	-36.4	18.3	0.00e+00	0	61	0	2336227328	40	4270
2026-01-25 15:46:23.51	273.94	24.15	-35.2	-36.4	18.4	0.00e+00	0	61	0	2343567360	40	4255
2026-01-25 15:46:24.52	274.23	24.14	-35.3	-36.4	18.3	0.00e+00	0	62	0	2350907392	40	4278
2026-01-25 15:46:25.53	274.52	24.12	-35.2	-36.4	18.3	0.00e+00	0	62	0	2358247424	40	4259
2026-01-25 15:46:26.54	274.80	24.11	-35.2	-36.4	18.3	0.00e+00	0	62	0	2365587456	40	4272
2026-01-25 15:46:27.55	275.09	24.10	-35.2	-36.3	18.4	0.00e+00	0	61	0	2372927488	40	4213
2026-01-25 15:46:28.56	275.38	24.09	-35.1	-36.2	18.5	0.00e+00	0	62	0	2380267520	40	4176
2026-01-25 15:46:29.57	275.67	24.07	-35.1	-36.2	18.5	0.00e+00	0	61	0	2387607552	40	4190
2026-01-25 15:46:30.58	275.95	24.06	-35.1	-36.2	18.5	0.00e+00	0	62	0	2394947584	40	4190
2026-01-25 15:46:31.59	276.24	24.04	-35.2	-36.3	18.4	0.00e+00	0	62	0	2402287616	40	4225
2026-01-25 15:46:32.61	276.53	24.02	-35.2	-36.4	18.3	0.00e+00	0	62	0	2409627648	40	4267
2026-01-25 15:46:33.61	276.81	24.01	-35.3	-36.4	18.3	0.00e+00	0	62	0	2416967680	40	4279
2026-01-25 15:46:34.62	277.10	23.99	-35.2	-36.4	18.3	0.00e+00	0	61	0	2424307712	40	4265
2026-01-25 15:46:35.63	277.38	23.97	-35.2	-36.3	18.4	0.00e+00	0	62	0	2431647744	40	4235
2026-01-25 15:46:36.64	277.67	23.95	-35.3	-36.5	18.2	0.00e+00	0	62	0	2437939200	40	4316
2026-01-25 15:46:37.65	277.95	23.93	-35.4	-36.6	18.2	0.00e+00	0	61	0	2445279232	40	4351
2026-01-25 15:46:38.66	278.24	23.91	-35.3	-36.5	18.2	0.00e+00	0	62	0	2453667840	40	4323
2026-01-25 15:46:39.67	278.52	23.89	-35.3	-36.5	18.2	0.00e+00	0	61	0	2459959296	40	4330
2026-01-25 15:46:40.68	278.80	23.86	-35.4	-36.6	18.1	0.00e+00	0	61	0	2467299328	40	4347
2026-01-25 15:46:41.70	279.09	23.84	-35.5	-36.6	18.1	0.00e+00	0	62	0	2474639360	40	4391
2026-01-25 15:46:42.71	279.37	23.82	-35.4	-36.6	18.1	0.00e+00	0	62	0	2481979392	40	4381
2026-01-25 15:46:43.72	279.66	23.79	-35.5	-36.7	18.0	0.00e+00	0	62	0	2489319424	40	4418
2026-01-25 15:46:44.73	279.94	23.77	-35.5	-36.7	18.0	0.00e+00	0	62	0	2496659456	40	4419
2026-01-25 15:46:45.74	280.22	23.74	-35.4	-36.5	18.2	0.00e+00	0	62	0	2503999488	40	4340
2026-01-25 15:46:46.75	280.50	23.71	-35.5	-36.7	18.1	0.00e+00	0	62	0	2511339520	40	4395
2026-01-25 15:46:47.76	280.78	23.69	-35.4	-36.5	18.2	0.00e+00	0	62	0	2518679552	40	4333
2026-01-25 15:46:48.77	281.06	23.66	-35.3	-36.5	18.2	0.00e+00	0	62	0	2526019584	40	4308
2026-01-25 15:46:49.78	281.34	23.63	-35.4	-36.6	18.2	0.00e+00	0	62	0	2533359616	40	4341
2026-01-25 15:46:50.79	281.62	23.60	-35.4	-36.6	18.1	0.00e+00	0	61	0	2540699648	40	4354
2026-01-25 15:46:51.80	281.90	23.57	-35.4	-36.6	18.1	0.00e+00	0	62	0	2548039680	40	4379
2026-01-25 15:46:52.81	282.17	23.54	-35.4	-36.5	18.2	0.00e+00	0	62	0	2555379712	40	4333
2026-01-25 15:46:53.82	282.45	23.51	-35.3	-36.5	18.2	0.00e+00	0	62	0	2562719744	40	4327
2026-01-25 15:46:54.83	282.73	23.48	-35.3	-36.5	18.2	0.00e+00	0	62	0	2570059776	40	4298
2026-01-25 15:46:55.84	283.00	23.45	-35.2	-36.3	18.4	0.00e+00	0	62	0	2577399808	40	4238
2026-01-25 15:46:56.85	283.28	23.41	-35.2	-36.3	18.4	0.00e+00	0	62	0	2584739840	40	4242
2026-01-25 15:46:57.86	283.56	23.38	-35.2	-36.4	18.3	0.00e+00	0	62	0	2592079872	40	4262
2026-01-25 15:46:58.87	283.83	23.34	-35.2	-36.4	18.3	0.00e+00	0	62	0	2599419904	40	4271
2026-01-25 15:46:59.88	284.10	23.31	-35.3	-36.4	18.0	0.00e+00	0	62	0	2606759936	40	4270
2026-01-25 15:47:00.89	284.38	23.27	-35.4	-36.6	18.2	0.00e+00	0	62	0	2613051392	40	4353
2026-01-25 15:47:01.90	284.65	23.24	-35.5	-36.7	18.0	0.00e+00	0	62	0	2620391424	40	4415
2026-01-25 15:47:02.91	284.92	23.20	-35.6	-36.8	18.0	0.00e+00	0	62	0	2628780032	40	4458
2026-01-25 15:47:03.93	285.20	23.16	-35.5	-36.7	18.0	0.00e+00	0	62	0	2635071488	40	4421
2026-01-25 15:47:04.94	285.47	23.12	-35.5	-36.7	18.0	0.00e+00	0	62	0	2642411520	40	4421
2026-01-25 15:47:05.95	285.74	23.09	-35.5	-36.7	18.0	0.00e+00	0	62	0	2649751552	40	4425
2026-01-25 15:47:06.96	286.01	23.05	-35.5	-36.7	18.0	0.00e+00	0	62	0	2657091584	40	4417
2026-01-25 15:47:07.96	286.27	23.01	-35.5	-36.7	18.0	0.00e+00	0	62	0	2664431616	40	4405
2026-01-25 15:47:08.97	286.54	22.97	-35.5	-36.7	18.1	0.00e+00	0	62	0	2671771648	40	4403
2026-01-25 15:47:09.98	286.81	22.93	-35.6	-36.8	17.9	0.00e+00	0	62	0	2679111680	40	4467
2026-01-25 15:47:10.99	287.07	22.88	-35.6	-36.8	17.9	0.00e+00	0	62	0	2686451712	41	4236
2026-01-25 15:47:12.00	287.34	22.84	-35.6	-36.8	17.9	0.00e+00	0	62	0	2693791744	41	4239
2026-01-25 15:47:13.01	287.60	22.80	-35.6	-36.8	17.9	0.00e+00	0	62	0	2701131776	41	4226
2026-01-25 15:47:14.01	287.87	22.76	-35.6	-36.8	18.0	0.00e+00	0	62	0	2708471808	41	4212
2026-01-25 15:47:15.02	288.13	22.71	-35.6	-36.8	17.9	0.00e+00	0	62	0	2715811840	41	4220
2026-01-25 15:47:16.03	288.39	22.67	-35.6	-36.8	17.9	0.00e+00	0	62	0	2723151872	41	4228
2026-01-25 15:47:17.04	288.66	22.62	-35.7	-36.9	17.8	0.00e+00	0	61	0	2730491904	41	4261
2026-01-25 15:47:18.05	288.92	22.58	-35.6	-36.8	18.0	0.00e+00	0	62	0	2737831936	41	4202
2026-01-25 15:47:19.06	289.18	22.53	-35.6	-36.8	17.9	0.00e+00	0	62	0	2745171968	41	4215
2026-01-25 15:47:20.07	289.44	22.49	-35.6	-36.8	17.9	0.00e+00	0	62	0	2752512000	41	4229
2026-01-25 15:47:21.08	289.70	22.44	-35.6	-36.8	17.9	0.00e+00	0	62	0	2758803456	41	4205
2026-01-25 15:47:22.09	289.96	22.39	-35.5	-36.7	18.0	0.00e+00	0	62	0	2766143488	41	4168
2026-01-25 15:47:23.10	290.21	22.35	-35.5	-36.7	18.0	0.00e+00	0	62	0	2774532096	41	4175
2026-01-25 15:47:24.11	290.47	22.30	-35.5	-36.7	18.0	0.00e+00	0	62	0	2780823552	41	4180
2026-01-25 15:47:25.12	290.73	22.25	-35.5	-36.7	18.0	0.00e+00	0	62	0	2788163584	41	4189
2026-01-25 15:47:26.13	290.98	22.20	-35.5	-36.7	18.0	0.00e+00	0	62	0	2795503616	41	4164
2026-01-25 15:47:27.14	291.24	22.15	-35.6	-36.8	17.9	0.00e+00	0	62	0	2802843648	41	4224
2026-01-25 15:47:28.15	291.49	22.10	-35.8	-37.0	17.7	0.00e+00	0	62	0	2810183680	41	4328
2026-01-25 15:47:29.16	291.74	22.05	-35.9	-37.1	17.6	0.00e+00	0	62	0	2817523712	41	4391
2026-01-25 15:47:30.18	292.00	22.00	-36.0	-37.3	17.4	0.00e+00	0	62	0	2824863744	41	4473
2026-01-25 15:47:31.19	292.25	21.95	-36.0	-37.3	17.4	0.00e+00	0	62	0	2832203776	41	4469
2026-01-25 15:47:32.20	292.50	21.89	-36.1	-37.4	17.3	0.00e+00	0	62	0	2839543808	41	4509
2026-01-25 15:47:33.20	292.75	21.84	-35.9	-37.1	17.5	0.00e+00	0	62	0	2846883840	41	4380
2026-01-25 15:47:34.21	292.99	21.79	-35.8	-37.0	17.7	0.00e+00	0	62	0	2854223872	41	4315
2026-01-25 15:47:35.22	293.24	21.74	-35.8	-37.0	17.7	0.00e+00	0	62	0	2861563904	41	4326
2026-01-25 15:47:36.24	293.49	21.68	-35.7	-36.9	17.8	0.00e+00	0	62	0	2868903936	41	4286
2026-01-25 15:47:37.24	293.74	21.63	-35.6	-36.8	17.9	0.00e+00	0	62	0	2876243968	41	4225
2026-01-25 15:47:38.25	293.98	21.57	-35.6	-36.8	17.9	0.00e+00	0	62	0	2883584000	41	4231
2026-01-25 15:47:39.26	294.23	21.52	-35.6	-36.8	17.9	0.00e+00	0	62	0	2890924032	41	4221
2026-01-25 15:47:40.28	294.47	21.46	-35.6	-36.8	17.8	0.00e+00	0	62	0	2898264064	41	4242
2026-01-25 15:47:41.29	294.71	21.41	-35.5	-36.7	17.9	0.00e+00	0	62	0	2905604096	41	4177
2026-01-25 15:47:42.30	294.96	21.35	-35.6	-36.8	17.8	0.00e+00	0	62	0	2911895552	41	4216
2026-01-25 15:47:43.31	295.20	21.29	-35.5	-36.7	17.9	0.00e+00	0	62	0	2920284160	41	4182
2026-01-25 15:47:44.32	295.44	21.24	-35.6	-36.8	17.8	0.00e+00	0	62	0	2927624192	41	4239
2026-01-25 15:47:45.33	295.68	21.18	-35.6	-36.9	17.8	0.00e+00	0	62	0	2933915648	41	4244
2026-01-25 15:47:46.34	295.92	21.12	-35.6	-36.8	17.8	0.00e+00	0	62	0	2941255680	41	4234
2026-01-25 15:47:47.35	296.15	21.06	-35.6	-36.8	17.8	0.00e+00	0	61	0	2949644288	41	4239
2026-01-25 15:47:48.36	296.39	21.01	-35.8	-37.0	17.7	0.00e+00	0	62	0	2955935744	41	4312
2026-01-25 15:47:49.37	296.63	20.95	-35.9	-37.1	17.5	0.00e+00	0	62	0	2963275776	41	4375
2026-01-25 15:47:50.38	296.86	20.89	-35.9	-37.2	17.4	0.00e+00	0	62	0	2970615808	41	4410
2026-01-25 15:47:51.39	297.09	20.83	-36.0	-37.3	17.3	0.00e+00	0	62	0	2977955840	41	4481
2026-01-25 15:47:52.40	297.33	20.77	-36.1	-37.4	17.2	0.00e+00	0	62	0	2985295872	41	4505
2026-01-25 15:47:53.41	297.56	20.71	-36.3	-37.6	17.1	0.00e+00	0	62	0	2992635904	42	4359
2026-01-25 15:47:54.42	297.79	20.65	-36.3	-37.6	17.0	0.00e+00	0	62	0	2999975936	42	4383
2026-01-25 15:47:55.43	298.02	20.59	-36.3	-37.6	17.0	0.00e+00	0	62	0	3007315968	42	4378
2026-01-25 15:47:56.44	298.25	20.53	-36.3	-37.6	17.0	0.00e+00	0	62	0	3014656000	42	4382
2026-01-25 15:47:57.45	298.48	20.47	-36.2	-37.6	17.1	0.00e+00	0	62	0	3021996032	42	4349
2026-01-25 15:47:58.46	298.71	20.40	-36.3	-37.6	17.0	0.00e+00	0	62	0	3029336064	42	4373
2026-01-25 15:47:59.47	298.93	20.34	-36.3	-37.6	17.0	0.00e+00	0	62	0	3036676096	42	4384
2026-01-25 15:48:00.49	299.16	20.28	-36.1	-37.4	17.2	0.00e+00	0	62	0	3044016128	42	4271
2026-01-25 15:48:01.50	299.39	20.22	-36.0	-37.3	17.4	0.00e+00	0	62	0	3051356160	42	4203
2026-01-25 15:48:02.51	299.61	20.15	-36.0	-37.2	17.4	0.00e+00	0	62	0	3058696192	42	4181
2026-01-25 15:48:03.52	299.83	20.09	-36.0	-37.3	17.4	0.00e+00	0	62	0	3066036224	42	4203
2026-01-25 15:48:04.53	300.06	20.03	-35.9	-37.2	17.4	0.00e+00	0	62	0	3073376256	42	4172
2026-01-25 15:48:05.54	300.28	19.96	-36.0	-37.3	17.3	0.00e+00	0	62	0	3079667712	42	4210
2026-01-25 15:48:06.55	300.50	19.90	-36.1	-37.3	17.3	0.00e+00	0	62	0	3088056320	42	4235
2026-01-25 15:48:07.56	300.72	19.84	-36.0	-37.3	17.3	0.00e+00	0	62	0	3095396352	42	4219
2026-01-25 15:48:08.57	300.94	19.77	-36.0	-37.3	17.4	0.00e+00	0	62	0	3101687808	42	4196
2026-01-25 15:48:09.58	301.16	19.71	-36.0	-37.3	17.3	0.00e+00	0	62	0	3109027840	42	4203
2026-01-25 15:48:10.59	301.37	19.64	-36.0	-37.2	17.4	0.00e+00	0	62	0	3116367872	42	4192
2026-01-25 15:48:11.60	301.59	19.58	-36.1	-37.4	17.2	0.00e+00	0	62	0	3123707904	42	4272
2026-01-25 15:48:12.61	301.80	19.51	-36.1	-37.4	17.2	0.00e+00	0	62	0	3131047936	42	4266
2026-01-25 15:48:13.62	302.02	19.45	-36.3	-37.6	17.0	0.00e+00	0	62	0	3138387968	42	4364
2026-01-25 15:48:14.63	302.23	19.38	-36.3	-37.6	17.0	0.00e+00	0	62	0	3145728000	42	4361
2026-01-25 15:48:15.64	302.44	19.32	-36.3	-37.6	17.0	0.00e+00	0	62	0	3153068032	42	4366
2026-01-25 15:48:16.65	302.66	19.25	-36.4	-37.8	16.8	0.00e+00	0	62	0	3160408064	42	4459
2026-01-25 15:48:17.66	302.87	19.18	-36.5	-37.8	16.8	0.00e+00	0	62	0	3167748096	42	4479
2026-01-25 15:48:18.67	303.08	19.12	-36.6	-37.9	16.7	0.00e+00	0	62	0	3175088128	42	4541
2026-01-25 15:48:19.68	303.28	19.05	-36.5	-37.9	16.7	0.00e+00	0	62	0	3182428160	42	4520
2026-01-25 15:48:20.69	303.49	18.98	-36.5	-37.8	16.8	0.00e+00	0	62	0	3189768192	42	4467
2026-01-25 15:48:21.70	303.70	18.92	-36.4	-37.7	16.9	0.00e+00	0	62	0	3197108224	42	4433
2026-01-25 15:48:22.70	303.90	18.85	-36.4	-37.7	16.8	0.00e+00	0	62	0	3204448256	42	4436
2026-01-25 15:48:23.71	304.11	18.78	-36.3	-37.7	16.9	0.00e+00	0	62	0	3211788288	42	4403
2026-01-25 15:48:24.72	304.31	18.72	-36.4	-37.7	16.9	0.00e+00	0	62	0	3219128320	42	4427
2026-01-25 15:48:25.73	304.52	18.65	-36.3	-37.7	16.9	0.00e+00	0	62	0	3226468352	42	4392
2026-01-25 15:48:26.74	304.72	18.58	-36.4	-37.7	16.9	0.00e+00	0	62	0	3232759808	42	4430
2026-01-25 15:48:27.75	304.92	18.51	-36.3	-37.6	17.0	0.00e+00	0	62	0	3241148416	42	4360
2026-01-25 15:48:28.76	305.12	18.44	-36.3	-37.6	17.0	0.00e+00	0	62	0	3248488448	42	4370
2026-01-25 15:48:29.77	305.32	18.38	-36.3	-37.6	17.0	0.00e+00	0	62	0	3254779904	42	4373
2026-01-25 15:48:30.78	305.52	18.31	-36.2	-37.6	17.0	0.00e+00	0	62	0	3262119936	42	4349
2026-01-25 15:48:31.79	305.72	18.24	-36.3	-37.6	17.0	0.00e+00	0	62	0	3269459968	42	4374
2026-01-25 15:48:32.80	305.92	18.17	-36.4	-37.7	16.9	0.00e+00	0	62	0	3276800000	42	4425
2026-01-25 15:48:33.81	306.11	18.10	-36.4	-37.7	16.8	0.00e+00	0	62	0	3284140032	42	4441
2026-01-25 15:48:34.82	306.31	18.03	-36.5	-37.9	16.7	0.00e+00	0	62	0	3291480064	42	4512
2026-01-25 15:48:35.83	306.50	17.96	-36.6	-38.0	16.6	0.00e+00	0	62	0	3298820096	42	4567
2026-01-25 15:48:36.84	306.70	17.89	-36.7	-38.1	16.5	0.00e+00	0	62	0	3306160128	42	4626
2026-01-25 15:48:37.85	306.89	17.83	-36.7	-38.1	16.5	0.00e+00	0	62	0	3313500160	42	4615
2026-01-25 15:48:38.86	307.08	17.76	-36.7	-38.1	16.5	0.00e+00	0	62	0	3320840192	42	4621
2026-01-25 15:48:39.87	307.27	17.69	-36.6	-38.0	16.6	0.00e+00	0	62	0	3328180224	43	4306
2026-01-25 15:48:40.88	307.47	17.62	-36.6	-37.9	16.6	0.00e+00	0	62	0	3335520256	43	4288
2026-01-25 15:48:41.90	307.66	17.55	-36.5	-37.9	16.6	0.00e+00	0	62	0	3342860288	43	4266
2026-01-25 15:48:42.91	307.85	17.48	-36.5	-37.9	16.6	0.00e+00	0	62	0	3350200320	43	4269
2026-01-25 15:48:43.92	308.03	17.41	-36.6	-38.0	16.5	0.00e+00	0	62	0	3357540352	43	4325
2026-01-25 15:48:44.93	308.22	17.34	-36.7	-38.1	16.5	0.00e+00	0	62	0	3364880384	43	4348
2026-01-25 15:48:45.94	308.41	17.27	-36.6	-38.0	16.5	0.00e+00	0	62	0	3372220416	43	4336
2026-01-25 15:48:46.94	308.59	17.20	-36.6	-38.0	16.5	0.00e+00	0	62	0	3378511872	43	4318
2026-01-25 15:48:47.95	308.77	17.13	-36.6	-38.0	16.6	0.00e+00	0	62	0	3386900480	43	4300
2026-01-25 15:48:48.96	308.96	17.06	-36.6	-38.0	16.6	0.00e+00	0	62	0	3394240512	43	4298
2026-01-25 15:48:49.98	309.14	16.99	-36.5	-37.9	16.6	0.00e+00	0	62	0	3400531968	43	4258
2026-01-25 15:48:50.99	309.32	16.91	-36.5	-37.9	16.7	0.00e+00	0	62	0	3407872000	43	4251
2026-01-25 15:48:52.00	309.51	16.84	-36.4	-37.8	16.7	0.00e+00	0	62	0	3415212032	43	4217
2026-01-25 15:48:53.01	309.69	16.77	-36.5	-37.9	16.6	0.00e+00	0	62	0	3422552064	43	4275
2026-01-25 15:48:54.02	309.87	16.70	-36.6	-38.0	16.6	0.00e+00	0	62	0	3429892096	43	4298
2026-01-25 15:48:55.03	310.04	16.63	-36.7	-38.1	16.4	0.00e+00	0	62	0	3437232128	43	4356
2026-01-25 15:48:56.04	310.22	16.56	-36.7	-38.2	16.3	0.00e+00	0	62	0	3444572160	43	4398
2026-01-25 15:48:57.05	310.40	16.49	-36.9	-38.3	16.2	0.00e+00	0	62	0	3451912192	43	4473
2026-01-25 15:48:58.06	310.58	16.42	-36.9	-38.4	16.1	0.00e+00	0	62	0	3459252224	43	4500
2026-01-25 15:48:59.07	310.75	16.35	-36.9	-38.4	16.1	0.00e+00	0	62	0	3466592256	43	4527
2026-01-25 15:49:00.08	310.93	16.28	-37.1	-38.6	15.9	0.00e+00	0	62	0	3473932288	43	4610
2026-01-25 15:49:01.09	311.10	16.21	-37.1	-38.6	15.9	0.00e+00	0	62	0	3481272320	43	4624
2026-01-25 15:49:02.09	311.27	16.14	-37.1	-38.7	15.8	0.00e+00	0	62	0	3488612352	43	4657
2026-01-25 15:49:03.10	311.44	16.07	-37.4	-38.9	15.7	0.00e+00	0	62	0	3495952384	44	4512
2026-01-25 15:49:04.12	311.62	15.99	-37.4	-38.9	15.7	0.00e+00	0	62	0	3503292416	44	4529
2026-01-25 15:49:05.13	311.79	15.92	-37.4	-38.9	15.8	0.00e+00	0	62	0	3510632448	44	4502
2026-01-25 15:49:06.14	311.96	15.85	-37.3	-38.8	15.9	0.00e+00	0	62	0	3517972480	44	4449
2026-01-25 15:49:07.15	312.13	15.78	-37.1	-38.6	16.1	0.00e+00	0	62	0	3525312512	44	4363
2026-01-25 15:49:08.16	312.29	15.71	-37.0	-38.4	16.3	0.00e+00	0	62	0	3532652544	44	4259
2026-01-25 15:49:09.17	312.46	15.64	-37.0	-38.4	16.2	0.00e+00	0	62	0	3539992576	44	4267
2026-01-25 15:49:10.18	312.63	15.57	-37.0	-38.5	16.2	0.00e+00	0	62	0	3547332608	44	4297
2026-01-25 15:49:11.19	312.79	15.50	-36.9	-38.3	16.3	0.00e+00	0	62	0	3553624064	44	4203
2026-01-25 15:49:12.21	312.96	15.42	-36.8	-38.2	16.5	0.00e+00	0	62	0	3562012672	44	4156
2026-01-25 15:49:13.22	313.13	15.35	-36.9	-38.3	16.4	0.00e+00	0	62	0	3569352704	44	4197
2026-01-25 15:49:14.23	313.29	15.28	-36.9	-38.3	16.3	0.00e+00	0	62	0	3575644160	44	4236
2026-01-25 15:49:15.24	313.45	15.21	-36.9	-38.4	16.3	0.00e+00	0	62	0	3582984192	44	4244
2026-01-25 15:49:16.25	313.61	15.14	-37.0	-38.4	16.1	0.00e+00	0	62	0	3590324224	44	4284
2026-01-25 15:49:17.26	313.78	15.07	-37.0	-38.4	16.2	0.00e+00	0	62	0	3597664256	44	4256
2026-01-25 15:49:18.27	313.94	15.00	-37.1	-38.5	16.0	0.00e+00	0	62	0	3605004288	44	4334
2026-01-25 15:49:19.28	314.10	14.92	-37.1	-38.6	16.0	0.00e+00	0	62	0	3612344320	44	4360
2026-01-25 15:49:20.29	314.25	14.85	-37.2	-38.7	15.9	0.00e+00	0	62	0	3619684352	44	4424
2026-01-25 15:49:21.30	314.41	14.78	-37.4	-38.9	15.7	0.00e+00	0	62	0	3627024384	44	4513
2026-01-25 15:49:22.31	314.57	14.71	-37.4	-39.0	15.6	0.00e+00	0	62	0	3634364416	44	4557
2026-01-25 15:49:23.32	314.73	14.64	-37.6	-39.1	15.4	0.00e+00	0	62	0	3641704448	44	4641
2026-01-25 15:49:24.33	314.88	14.57	-37.6	-39.2	15.4	0.00e+00	0	62	0	3649044480	44	4656
2026-01-25 15:49:25.34	315.04	14.50	-37.7	-39.3	15.3	0.00e+00	0	62	0	3656384512	44	4721
2026-01-25 15:49:26.35	315.19	14.43	-37.8	-39.4	15.2	1.10e-06	0	62	0	3663724544	45	4503
2026-01-25 15:49:27.36	315.35	14.35	-37.6	-39.1	15.4	0.00e+00	0	62	0	3671064576	45	4382
2026-01-25 15:49:28.37	315.50	14.28	-37.5	-39.1	15.5	0.00e+00	0	62	0	3678404608	45	4345
2026-01-25 15:49:29.38	315.65	14.21	-37.5	-39.0	15.5	0.00e+00	0	62	0	3685744640	45	4310
2026-01-25 15:49:30.39	315.81	14.14	-37.3	-38.8	15.7	0.00e+00	0	62	0	3693084672	45	4226
2026-01-25 15:49:31.41	315.96	14.07	-37.3	-38.8	15.7	0.00e+00	0	62	0	3700424704	45	4226
2026-01-25 15:49:32.41	316.11	14.00	-37.3	-38.8	15.7	0.00e+00	0	62	0	3707764736	45	4224
2026-01-25 15:49:33.42	316.26	13.93	-37.3	-38.8	15.7	0.00e+00	0	62	0	3715104768	45	4208
2026-01-25 15:49:34.43	316.41	13.86	-37.1	-38.6	15.9	0.00e+00	0	62	0	3721396224	45	4121
2026-01-25 15:49:35.44	316.56	13.79	-37.1	-38.6	15.9	0.00e+00	0	62	0	3728736256	45	4138
2026-01-25 15:49:36.45	316.70	13.72	-37.2	-38.6	15.8	0.00e+00	0	62	0	3737124864	45	4145
2026-01-25 15:49:37.46	316.85	13.64	-37.1	-38.5	16.0	0.00e+00	0	62	0	3743416320	45	4078
2026-01-25 15:49:38.47	317.00	13.57	-37.0	-38.4	16.1	0.00e+00	0	62	0	3750756352	44	4275
2026-01-25 15:49:39.49	317.14	13.50	-37.0	-38.5	16.0	0.00e+00	0	62	0	3758096384	44	4300
2026-01-25 15:49:40.50	317.29	13.43	-37.1	-38.6	15.9	0.00e+00	0	62	0	3765436416	44	4355
2026-01-25 15:49:41.51	317.43	13.36	-37.2	-38.7	15.8	0.00e+00	0	62	0	3772776448	44	4402
2026-01-25 15:49:42.52	317.58	13.29	-37.3	-38.8	15.7	0.00e+00	0	62	0	3780116480	44	4450
2026-01-25 15:49:43.53	317.72	13.22	-37.4	-39.0	15.5	0.00e+00	0	62	0	3787456512	44	4552
2026-01-25 15:49:44.54	317.86	13.15	-37.5	-39.0	15.4	0.00e+00	0	62	0	3794796544	44	4597
2026-01-25 15:49:45.55	318.00	13.08	-37.6	-39.1	15.4	0.00e+00	0	62	0	3802136576	44	4631
2026-01-25 15:49:46.56	318.14	13.01	-37.7	-39.3	15.2	0.00e+00	0	62	0	3809476608	44	4716
2026-01-25 15:49:47.57	318.28	12.94	-37.7	-39.3	15.2	0.00e+00	0	62	0	3816816640	44	4721
2026-01-25 15:49:48.58	318.42	12.87	-37.8	-39.5	14.9	0.00e+00	0	62	0	3824156672	45	4573
2026-01-25 15:49:49.59	318.56	12.80	-37.9	-39.6	14.8	0.00e+00	0	62	0	3831496704	45	4631
2026-01-25 15:49:50.60	318.70	12.73	-37.9	-39.6	14.8	0.00e+00	0	62	0	3838836736	45	4637
2026-01-25 15:49:51.61	318.84	12.66	-37.9	-39.6	14.8	0.00e+00	0	62	0	3846176768	45	4643
2026-01-25 15:49:52.62	318.98	12.59	-38.0	-39.7	14.8	0.00e+00	0	62	0	3853516800	45	4653
2026-01-25 15:49:53.63	319.11	12.52	-37.9	-39.5	14.9	1.10e-06	0	62	0	3860856832	45	4588
2026-01-25 15:49:54.64	319.25	12.45	-37.8	-39.4	15.0	0.00e+00	0	62	0	3868196864	45	4505
2026-01-25 15:49:55.65	319.39	12.38	-37.8	-39.4	15.0	0.00e+00	0	62	0	3875536896	45	4532
2026-01-25 15:49:56.66	319.52	12.31	-37.7	-39.3	15.2	0.00e+00	0	62	0	3882876928	45	4454
2026-01-25 15:49:57.67	319.65	12.24	-37.6	-39.2	15.2	0.00e+00	0	62	0	3890216960	45	4416
2026-01-25 15:49:58.68	319.79	12.17	-37.6	-39.2	15.2	0.00e+00	0	62	0	3896508416	45	4418
2026-01-25 15:49:59.69	319.92	12.10	-37.6	-39.2	15.2	0.00e+00	0	62	0	3903848448	45	4392
2026-01-25 15:50:00.70	320.05	12.03	-37.6	-39.2	15.2	0.00e+00	0	62	0	3912237056	45	4393
2026-01-25 15:50:01.71	320.18	11.96	-37.5	-39.1	15.3	0.00e+00	0	62	0	3918528512	45	4358
2026-01-25 15:50:02.72	320.31	11.89	-37.5	-39.0	15.4	0.00e+00	0	62	0	3925868544	45	4332
2026-01-25 15:50:03.73	320.45	11.82	-37.4	-39.0	15.4	0.00e+00	0	62	0	3933208576	45	4324
2026-01-25 15:50:04.74	320.58	11.75	-37.4	-38.9	15.5	0.00e+00	0	62	0	3940548608	45	4269
2026-01-25 15:50:05.75	320.70	11.68	-37.5	-39.0	15.3	0.00e+00	0	62	0	3947888640	45	4321
2026-01-25 15:50:06.76	320.83	11.61	-37.5	-39.1	15.3	0.00e+00	0	62	0	3955228672	45	4344
2026-01-25 15:50:07.77	320.96	11.54	-37.4	-39.0	15.4	0.00e+00	0	62	0	3962568704	45	4305
2026-01-25 15:50:08.79	321.09	11.47	-37.5	-39.1	15.2	0.00e+00	0	62	0	3969908736	45	4370
2026-01-25 15:50:09.79	321.22	11.40	-37.6	-39.2	15.2	0.00e+00	0	62	0	3977248768	45	4408
2026-01-25 15:50:10.80	321.34	11.33	-37.7	-39.3	15.0	0.00e+00	0	62	0	3984588800	45	4471
2026-01-25 15:50:11.82	321.47	11.27	-37.8	-39.4	14.9	0.00e+00	0	62	0	3991928832	45	4538
2026-01-25 15:50:12.83	321.59	11.20	-37.8	-39.5	14.8	0.00e+00	0	62	0	3999268864	45	4560
2026-01-25 15:50:13.84	321.72	11.13	-37.9	-39.6	14.7	1.10e-06	0	62	0	4006608896	45	4628
2026-01-25 15:50:14.85	321.84	11.06	-37.8	-39.5	14.8	1.10e-06	0	62	0	4013948928	45	4559
2026-01-25 15:50:15.86	321.97	10.99	-37.9	-39.6	14.8	0.00e+00	0	62	0	4021288960	45	4605
2026-01-25 15:50:16.87	322.09	10.92	-38.0	-39.7	14.6	0.00e+00	0	62	0	4028628992	45	4674
2026-01-25 15:50:17.88	322.21	10.85	-38.1	-39.8	14.5	1.10e-06	0	62	0	4035969024	45	4750
2026-01-25 15:50:18.89	322.33	10.79	-38.0	-39.7	14.6	0.00e+00	0	62	0	4042260480	45	4691
2026-01-25 15:50:19.90	322.46	10.72	-38.0	-39.6	14.6	0.00e+00	0	62	0	4050649088	45	4651
2026-01-25 15:50:20.91	322.58	10.65	-38.0	-39.7	14.6	0.00e+00	0	62	0	4057989120	45	4688
2026-01-25 15:50:21.93	322.70	10.58	-38.0	-39.7	14.6	0.00e+00	0	62	0	4064280576	45	4671
2026-01-25 15:50:22.94	322.82	10.51	-38.0	-39.8	14.5	0.00e+00	0	62	0	4071620608	45	4708
2026-01-25 15:50:23.95	322.94	10.44	-38.1	-39.9	14.4	0.00e+00	0	62	0	4078960640	45	4766
2026-01-25 15:50:24.96	323.05	10.38	-38.1	-39.8	14.5	0.00e+00	0	62	0	4086300672	45	4741
2026-01-25 15:50:25.97	323.17	10.31	-38.1	-39.8	14.5	0.00e+00	0	62	0	4093640704	45	4745
2026-01-25 15:50:26.98	323.29	10.24	-38.1	-39.9	14.4	0.00e+00	0	62	0	4100980736	45	4786
2026-01-25 15:50:27.99	323.41	10.17	-38.1	-39.9	14.4	0.00e+00	0	62	0	4108320768	45	4773
2026-01-25 15:50:29.00	323.52	10.11	-38.1	-39.9	14.3	1.10e-06	0	62	0	4115660800	45	4793
2026-01-25 15:50:30.01	323.64	10.04	-38.1	-39.9	14.4	2.20e-06	0	62	0	4123000832	45	4765
2026-01-25 15:50:31.02	323.76	9.97	-38.1	-39.9	14.4	1.10e-06	0	62	0	4130340864	45	4760
2026-01-25 15:50:32.03	323.87	9.90	-38.1	-39.9	14.4	0.00e+00	0	62	0	4137680896	45	4760
2026-01-25 15:50:33.05	323.99	9.84	-38.0	-39.8	14.5	1.10e-06	0	62	0	4145020928	45	4714
2026-01-25 15:50:34.06	324.10	9.77	-38.1	-39.8	14.4	1.10e-06	0	62	0	4152360960	45	4754
2026-01-25 15:50:35.07	324.21	9.70	-38.0	-39.8	14.4	0.00e+00	0	62	0	4159700992	45	4735
2026-01-25 15:50:36.08	324.33	9.64	-38.1	-39.8	14.4	3.40e-06	0	62	0	4167041024	45	4752
2026-01-25 15:50:37.09	324.44	9.57	-38.1	-39.9	14.3	0.00e+00	0	62	0	4174381056	45	4801
2026-01-25 15:50:38.10	324.55	9.50	-38.0	-39.8	14.4	3.40e-06	0	62	0	4181721088	45	4741
2026-01-25 15:50:39.11	324.66	9.44	-38.0	-39.7	14.5	3.40e-06	0	62	0	4189061120	45	4689
2026-01-25 15:50:40.12	324.77	9.37	-38.1	-39.8	14.3	2.20e-06	0	62	0	4196401152	45	4757
2026-01-25 15:50:41.13	324.88	9.30	-38.1	-39.9	14.2	0.00e+00	0	62	0	4203741184	45	4809
2026-01-25 15:50:42.13	324.99	9.24	-38.1	-39.9	14.3	1.10e-06	0	62	0	4211081216	45	4792
2026-01-25 15:50:43.14	325.10	9.17	-38.1	-39.9	14.3	1.10e-06	0	62	0	4217372672	45	4786
2026-01-25 15:50:44.16	325.21	9.10	-38.1	-39.9	14.2	1.10e-06	0	62	0	4225761280	45	4804
2026-01-25 15:50:45.16	325.32	9.04	-38.2	-40.0	14.2	1.10e-06	0	62	0	4233101312	45	4842
2026-01-25 15:50:46.17	325.43	8.97	-38.2	-40.0	14.1	2.20e-06	0	62	0	4239392768	46	4583
2026-01-25 15:50:47.19	325.54	8.91	-38.2	-40.0	14.2	2.20e-06	0	62	0	4246732800	46	4553
2026-01-25 15:50:48.20	325.64	8.84	-38.2	-40.1	14.1	3.40e-06	0	62	0	4254072832	46	4611
2026-01-25 15:50:49.21	325.75	8.77	-38.3	-40.1	14.0	6.80e-06	0	62	0	4261412864	46	4630
2026-01-25 15:50:50.22	325.86	8.71	-38.3	-40.2	13.9	4.50e-06	0	62	0	4268752896	46	4655
2026-01-25 15:50:51.23	325.96	8.64	-38.4	-40.2	13.8	8.00e-06	0	62	0	4276092928	46	4696
2026-01-25 15:50:52.24	326.07	8.58	-38.4	-40.3	13.8	4.50e-06	0	62	0	4283432960	46	4722
2026-01-25 15:50:53.24	326.17	8.51	-38.5	-40.4	13.7	5.70e-06	0	62	0	4290772992	46	4806
2026-01-25 15:50:54.26	326.28	8.45	-38.5	-40.4	13.6	4.50e-06	0	62	0	4298113024	46	4812
2026-01-25 15:50:55.27	326.38	8.38	-38.6	-40.5	13.5	9.10e-06	0	62	0	4305453056	46	4859
2026-01-25 15:50:56.28	326.49	8.32	-38.5	-40.4	13.7	1.02e-05	0	62	0	4312793088	46	4780
2026-01-25 15:50:57.29	326.59	8.25	-38.5	-40.4	13.6	6.80e-06	0	62	0	4320133120	46	4808
2026-01-25 15:50:58.30	326.69	8.19	-38.6	-40.5	13.5	2.05e-05	0	62	0	4327473152	46	4864
2026-01-25 15:50:59.31	326.79	8.12	-38.6	-40.5	13.5	1.14e-05	0	62	0	4334813184	46	4842
2026-01-25 15:51:00.32	326.90	8.06	-38.6	-40.6	13.4	1.48e-05	0	62	0	4342153216	46	4913
2026-01-25 15:51:01.33	327.00	7.99	-38.8	-40.9	13.1	1.94e-05	0	62	0	4349493248	47	4781
2026-01-25 15:51:02.34	327.10	7.93	-44.4	-54.6	3.8	8.43e-01	0	62	104	4350541824	58	12274
2026-01-25 15:51:03.35	327.20	7.86	-44.8	-56.0	3.8	8.47e-01	0	62	104	4350541824	59	13685
2026-01-25 15:51:04.36	327.30	7.80	-45.2	-56.2	3.8	8.47e-01	0	62	104	4350541824	59	14045
2026-01-25 15:51:05.38	327.40	7.73	-45.3	-56.7	3.8	8.46e-01	0	62	104	4350541824	60	13895
2026-01-25 15:51:06.39	327.50	7.67	-45.4	-56.8	3.8	8.46e-01	0	62	104	4350541824	60	14048
2026-01-25 15:51:07.40	327.60	7.61	-45.5	-56.8	3.8	8.46e-01	0	62	104	4350541824	60	14178
2026-01-25 15:51:08.41	327.70	7.54	-45.6	-56.9	3.8	8.46e-01	0	62	104	4350541824	60	14352
2026-01-25 15:51:09.42	327.79	7.48	-45.5	-56.9	3.8	8.45e-01	0	62	104	4350541824	60	14314
2026-01-25 15:51:10.43	327.89	7.41	-45.5	-56.9	3.8	8.47e-01	0	62	104	4350541824	60	14234
2026-01-25 15:51:11.44	327.99	7.35	-45.5	-56.9	3.8	8.47e-01	0	62	104	4350541824	60	14302
2026-01-25 15:51:12.45	328.09	7.29	-44.5	-56.4	3.8	8.46e-01	0	62	104	4350541824	59	14349
2026-01-25 15:51:13.46	328.18	7.22	-45.4	-56.8	3.8	8.46e-01	0	62	104	4350541824	60	14189
2026-01-25 15:51:14.47	328.28	7.16	-45.5	-56.8	3.8	8.46e-01	0	62	104	4350541824	60	14188
