passes_logs/2026/01/25/R2.0S_Moscow/R2.0S_Moscow__20260125_104838_NOAA_21_JPSS-2_rec.log

#Pass ID: 20260125_104838_NOAA 21 (JPSS-2)
#Satellite: NOAA 21 (JPSS-2)
#Configuration: NOAA-21
#almurnet v.1.7.20251203
#Start time: 2026-01-25 10:49:18

#Version: 2.2.20231116
#Station: R2.0S_Moscow
#Location: 37.707566 lon 55.798166 lat
#TLE: 1 54234U 22150A   26024.45772595  .00000201  00000+0  11607-3 0  9996
#TLE: 2 54234  98.7508 325.2435 0000728 220.7365 139.3757 14.19538765166156

#Time	Az	El	Level	Level2	SNR	BER	BlckErr	Temp	State	Recorded	gain1	gain2
2026-01-25 10:49:18.75	188.81	4.60	-44.9	-56.6	3.8	8.46e-01	0	62	0	0	60	14672
2026-01-25 10:49:19.75	188.86	4.66	-45.2	-57.6	3.8	1.49e+00	0	62	104	0	62	14693
2026-01-25 10:49:20.76	188.91	4.73	-45.3	-57.7	3.8	1.49e+00	0	62	104	0	62	14816
2026-01-25 10:49:21.77	188.96	4.80	-45.3	-57.7	3.8	1.49e+00	0	62	104	0	62	14765
2026-01-25 10:49:22.78	189.01	4.87	-45.2	-57.7	3.8	1.49e+00	0	62	104	0	62	14809
2026-01-25 10:49:23.79	189.06	4.93	-45.2	-57.6	3.8	1.49e+00	0	61	104	0	62	14692
2026-01-25 10:49:24.80	189.12	5.00	-45.1	-57.5	3.8	1.49e+00	0	62	104	0	62	14493
2026-01-25 10:49:25.81	189.17	5.07	-44.9	-57.4	3.8	1.49e+00	0	62	104	0	61	15113
2026-01-25 10:49:26.82	189.22	5.14	-42.2	-54.5	3.8	1.49e+00	0	62	104	0	56	14494
2026-01-25 10:49:27.83	189.27	5.21	-44.2	-56.5	3.8	1.49e+00	0	62	104	0	58	16159
2026-01-25 10:49:28.84	189.33	5.28	-44.3	-56.5	3.8	1.49e+00	0	62	104	0	59	15354
2026-01-25 10:49:29.85	189.38	5.35	-44.2	-56.3	3.8	1.49e+00	0	62	104	0	59	14918
2026-01-25 10:49:30.86	189.43	5.41	-44.2	-56.3	3.8	1.49e+00	0	62	104	0	59	14882
2026-01-25 10:49:31.87	189.49	5.48	-44.2	-56.1	3.8	1.49e+00	0	62	104	0	59	14691
2026-01-25 10:49:32.88	189.54	5.55	-44.1	-56.1	3.8	1.49e+00	0	62	104	0	59	14545
2026-01-25 10:49:33.89	189.59	5.62	-44.1	-56.0	3.8	1.49e+00	0	62	104	0	59	14380
2026-01-25 10:49:34.90	189.65	5.69	-44.1	-55.9	3.8	1.49e+00	0	62	104	0	59	14240
2026-01-25 10:49:35.92	189.70	5.76	-44.1	-55.7	3.8	1.49e+00	0	62	104	0	59	13920
2026-01-25 10:49:36.93	189.76	5.83	-44.1	-55.4	3.8	1.49e+00	0	62	104	0	59	13549
2026-01-25 10:49:37.94	189.81	5.90	-44.0	-55.0	3.8	1.49e+00	0	62	104	0	59	12902
2026-01-25 10:49:38.95	189.87	5.97	-44.0	-54.5	3.9	1.49e+00	0	62	104	0	59	12206
2026-01-25 10:49:39.96	189.92	6.04	-43.9	-54.0	4.0	1.48e+00	0	62	104	0	59	11438
2026-01-25 10:49:40.97	189.98	6.12	-43.8	-53.8	3.9	1.47e+00	0	62	104	0	59	11177
2026-01-25 10:49:41.98	190.04	6.19	-43.8	-52.9	4.2	1.47e+00	0	62	104	0	59	10121
2026-01-25 10:49:42.99	190.09	6.26	-43.7	-53.0	3.9	1.44e+00	0	62	104	0	59	10179
2026-01-25 10:49:44.00	190.15	6.33	-43.6	-51.6	4.7	1.21e+00	0	62	104	0	59	8664
2026-01-25 10:49:45.01	190.21	6.40	-43.6	-52.1	4.0	1.18e+00	0	62	104	0	59	9263
2026-01-25 10:49:46.02	190.26	6.47	-43.5	-51.0	4.9	7.83e-01	0	62	0	0	58	8602
2026-01-25 10:49:47.03	190.32	6.54	-43.3	-50.4	5.3	6.08e-01	0	62	0	3145728	58	8077
2026-01-25 10:49:48.04	190.38	6.62	-43.3	-50.4	5.3	5.67e-01	0	62	0	6291456	58	8026
2026-01-25 10:49:49.05	190.44	6.69	-43.3	-50.1	5.5	5.08e-01	0	62	0	9437184	58	7753
2026-01-25 10:49:50.06	190.49	6.76	-43.3	-50.1	5.5	4.83e-01	0	62	0	12582912	58	7774
2026-01-25 10:49:51.07	190.55	6.83	-43.2	-49.9	5.6	4.55e-01	0	62	0	15728640	58	7609
2026-01-25 10:49:52.08	190.61	6.91	-43.2	-50.0	5.5	4.60e-01	0	62	0	18874368	58	7690
2026-01-25 10:49:53.09	190.67	6.98	-43.3	-50.1	5.4	4.92e-01	0	62	0	22020096	58	7796
2026-01-25 10:49:54.10	190.73	7.05	-43.3	-50.2	5.4	5.12e-01	0	62	0	26214400	58	7873
2026-01-25 10:49:55.11	190.79	7.13	-43.4	-50.6	5.1	6.21e-01	0	62	0	28311552	58	8220
2026-01-25 10:49:56.12	190.85	7.20	-43.3	-50.4	5.3	5.76e-01	0	62	0	31457280	58	8056
2026-01-25 10:49:57.13	190.91	7.27	-43.4	-50.7	5.1	6.56e-01	0	62	0	34603008	58	8303
2026-01-25 10:49:58.14	190.97	7.35	-43.4	-50.5	5.2	5.97e-01	0	62	0	37748736	58	8150
2026-01-25 10:49:59.15	191.03	7.42	-43.2	-50.0	5.5	5.31e-01	0	62	0	40894464	58	7669
2026-01-25 10:50:00.16	191.09	7.49	-43.1	-49.5	5.8	3.93e-01	0	62	0	45088768	58	7260
2026-01-25 10:50:01.17	191.15	7.57	-42.9	-48.9	6.3	3.02e-01	0	62	0	48234496	57	7184
2026-01-25 10:50:02.18	191.21	7.64	-42.7	-48.2	6.9	1.83e-01	0	62	0	51380224	57	6606
2026-01-25 10:50:03.19	191.28	7.72	-42.4	-47.3	7.8	9.09e-02	0	62	0	53477376	56	6288
2026-01-25 10:50:04.20	191.34	7.79	-42.2	-46.8	8.2	6.75e-02	0	62	0	56623104	56	5982
2026-01-25 10:50:05.21	191.40	7.87	-41.7	-45.9	9.0	3.31e-02	0	62	0	60817408	55	5674
2026-01-25 10:50:06.22	191.46	7.94	-41.5	-45.4	9.5	1.95e-02	0	62	0	63963136	55	5350
2026-01-25 10:50:07.23	191.53	8.02	-41.2	-44.9	10.0	7.16e-03	0	62	0	67108864	54	5358
2026-01-25 10:50:08.24	191.59	8.10	-41.0	-44.4	10.5	4.33e-03	0	62	0	70254592	54	5070
2026-01-25 10:50:09.25	191.65	8.17	-40.8	-44.1	10.8	2.51e-03	0	62	0	73400320	53	5213
2026-01-25 10:50:10.26	191.72	8.25	-40.8	-44.0	10.9	2.26e-03	0	62	0	76546048	53	5139
2026-01-25 10:50:11.27	191.78	8.32	-40.7	-43.9	11.1	1.51e-03	0	62	0	79691776	53	5050
2026-01-25 10:50:12.28	191.85	8.40	-40.7	-43.9	11.1	1.87e-03	0	62	0	82837504	53	5062
2026-01-25 10:50:13.29	191.91	8.48	-40.7	-43.8	11.2	2.19e-03	0	62	0	85983232	53	5001
2026-01-25 10:50:14.30	191.98	8.55	-43.2	-50.1	4.2	1.49e+00	0	62	104	87031808	58	7747
2026-01-25 10:50:15.31	192.04	8.63	-43.0	-49.2	5.7	1.49e+00	0	62	104	87031808	58	7003
2026-01-25 10:50:16.32	192.11	8.71	-42.1	-46.7	8.3	1.29e-01	0	62	0	89128960	55	6224
2026-01-25 10:50:17.32	192.17	8.79	-41.1	-44.6	10.4	2.68e-02	0	62	0	92274688	54	5160
2026-01-25 10:50:18.33	192.24	8.86	-42.9	-48.8	6.3	4.78e-01	0	62	0	95420416	57	7063
2026-01-25 10:50:19.34	192.31	8.94	-40.5	-43.6	11.4	9.31e-04	0	62	0	98566144	53	4913
2026-01-25 10:50:20.35	192.37	9.02	-40.5	-43.5	11.5	7.95e-04	0	62	0	101711872	52	5125
2026-01-25 10:50:21.36	192.44	9.10	-40.6	-43.7	11.3	9.47e-04	0	62	0	104857600	52	5251
2026-01-25 10:50:22.37	192.51	9.18	-40.5	-43.5	11.5	9.76e-04	0	62	0	108003328	52	5142
2026-01-25 10:50:23.38	192.58	9.26	-40.5	-43.5	11.5	7.54e-04	0	62	0	111149056	52	5136
2026-01-25 10:50:24.39	192.65	9.34	-40.4	-43.5	11.4	9.17e-04	0	62	0	114294784	52	5132
2026-01-25 10:50:25.39	192.72	9.41	-40.3	-43.3	11.6	7.59e-04	0	62	0	117440512	52	5020
2026-01-25 10:50:26.40	192.79	9.49	-40.2	-43.3	11.5	8.10e-04	0	62	0	120586240	52	4994
2026-01-25 10:50:27.41	192.86	9.57	-40.3	-43.3	11.5	8.22e-04	0	62	0	123731968	52	5007
2026-01-25 10:50:28.42	192.93	9.65	-40.2	-43.2	11.6	6.75e-04	0	62	0	126877696	52	4955
2026-01-25 10:50:29.43	193.00	9.73	-40.2	-43.3	11.6	7.46e-04	0	62	0	130023424	52	4990
2026-01-25 10:50:30.44	193.07	9.81	-40.2	-43.2	11.7	6.67e-04	0	62	0	133169152	52	4929
2026-01-25 10:50:31.45	193.14	9.90	-40.1	-43.1	11.7	5.99e-04	0	62	0	136314880	52	4897
2026-01-25 10:50:32.46	193.21	9.98	-40.1	-43.1	11.7	6.77e-04	0	62	0	139460608	52	4914
2026-01-25 10:50:33.47	193.28	10.06	-40.2	-43.1	11.8	4.60e-04	0	62	0	142606336	52	4897
2026-01-25 10:50:34.48	193.35	10.14	-40.1	-42.9	12.1	3.32e-04	0	62	0	145752064	52	4807
2026-01-25 10:50:35.49	193.43	10.22	-40.2	-43.0	12.1	2.44e-04	0	62	0	148897792	52	4834
2026-01-25 10:50:36.50	193.50	10.30	-40.1	-42.9	12.2	2.23e-04	0	62	0	152043520	52	4785
2026-01-25 10:50:37.51	193.57	10.38	-40.1	-42.9	12.2	2.10e-04	0	62	0	155189248	52	4795
2026-01-25 10:50:38.52	193.65	10.47	-40.2	-42.9	12.3	1.81e-04	0	62	0	158334976	52	4788
2026-01-25 10:50:39.53	193.72	10.55	-40.1	-42.8	12.4	1.58e-04	0	62	0	161480704	52	4734
2026-01-25 10:50:40.54	193.80	10.63	-40.1	-42.9	12.1	1.91e-04	0	62	0	164626432	52	4763
2026-01-25 10:50:41.56	193.87	10.72	-40.0	-42.9	12.0	3.34e-04	0	62	0	167772160	52	4767
2026-01-25 10:50:42.57	193.95	10.80	-40.0	-42.8	11.9	4.55e-04	0	62	0	170917888	52	4740
2026-01-25 10:50:43.57	194.02	10.88	-40.0	-42.9	11.7	4.84e-04	0	62	0	174063616	51	5083
2026-01-25 10:50:44.59	194.10	10.97	-39.9	-42.9	11.7	6.24e-04	0	62	0	177209344	51	5044
2026-01-25 10:50:45.60	194.18	11.05	-39.9	-42.8	11.6	6.03e-04	0	62	0	180355072	51	5009
2026-01-25 10:50:46.61	194.26	11.13	-39.7	-42.7	11.6	6.58e-04	0	62	0	183500800	51	4951
2026-01-25 10:50:47.62	194.33	11.22	-39.7	-42.6	11.8	5.79e-04	0	62	0	186646528	51	4903
2026-01-25 10:50:48.62	194.41	11.30	-39.8	-42.7	11.8	4.77e-04	0	62	0	189792256	51	4956
2026-01-25 10:50:49.63	194.49	11.39	-39.7	-42.6	11.9	4.47e-04	0	62	0	192937984	51	4909
2026-01-25 10:50:50.64	194.57	11.47	-39.7	-42.5	12.1	3.38e-04	0	62	0	196083712	51	4861
2026-01-25 10:50:51.65	194.65	11.56	-39.7	-42.5	12.2	2.43e-04	0	62	0	199229440	51	4859
2026-01-25 10:50:52.66	194.73	11.64	-39.7	-42.5	12.3	1.95e-04	0	62	0	202375168	51	4865
2026-01-25 10:50:53.67	194.81	11.73	-39.9	-42.5	12.6	1.16e-04	0	62	0	205520896	51	4869
2026-01-25 10:50:54.68	194.89	11.82	-39.8	-42.4	12.8	5.34e-05	0	62	0	208666624	51	4804
2026-01-25 10:50:55.69	194.97	11.90	-39.8	-42.4	12.4	1.31e-04	0	62	0	211812352	51	4780
2026-01-25 10:50:56.70	195.05	11.99	-39.5	-42.4	11.5	5.31e-04	0	62	0	214958080	51	4774
2026-01-25 10:50:57.72	195.14	12.08	-39.3	-42.3	11.0	1.80e-03	0	62	0	218103808	50	5036
2026-01-25 10:50:58.73	195.22	12.16	-39.0	-42.2	10.8	2.65e-03	0	62	0	221249536	50	4928
2026-01-25 10:50:59.74	195.30	12.25	-38.6	-42.0	10.1	5.12e-03	0	62	0	224395264	49	5126
2026-01-25 10:51:00.74	195.38	12.34	-38.3	-42.0	9.4	1.31e-02	0	62	0	227540992	48	5450
2026-01-25 10:51:01.75	195.47	12.43	-38.1	-42.0	9.3	1.91e-02	0	62	0	230686720	48	5431
2026-01-25 10:51:02.76	195.55	12.51	-38.1	-41.9	9.3	1.73e-02	0	62	0	233832448	48	5392
2026-01-25 10:51:03.78	195.64	12.60	-38.2	-42.0	9.4	1.59e-02	0	62	0	236978176	48	5429
2026-01-25 10:51:04.78	195.72	12.69	-38.4	-42.0	9.8	1.06e-02	0	62	0	240123904	48	5430
2026-01-25 10:51:05.79	195.81	12.78	-38.8	-42.1	10.7	4.89e-03	0	62	0	243269632	48	5507
2026-01-25 10:51:06.80	195.90	12.87	-38.8	-42.0	11.0	1.95e-03	0	62	0	247463936	48	5427
2026-01-25 10:51:07.81	195.98	12.96	-39.1	-42.0	11.6	9.45e-04	0	62	0	249561088	48	5432
2026-01-25 10:51:08.82	196.07	13.05	-39.0	-42.0	11.3	1.02e-03	0	62	0	252706816	48	5450
2026-01-25 10:51:09.83	196.16	13.14	-38.6	-41.9	10.5	2.96e-03	0	62	0	255852544	48	5389
2026-01-25 10:51:10.84	196.25	13.23	-38.2	-41.9	9.7	1.04e-02	0	62	0	258998272	48	5364
2026-01-25 10:51:11.85	196.34	13.32	-37.7	-41.7	9.1	1.85e-02	0	62	0	262144000	47	5578
2026-01-25 10:51:12.86	196.43	13.41	-36.4	-41.5	7.4	9.57e-02	0	62	0	266338304	44	6465
2026-01-25 10:51:13.87	196.52	13.50	-35.2	-41.3	6.2	2.21e-01	0	62	0	269484032	42	7073
2026-01-25 10:51:14.88	196.61	13.60	-34.8	-41.1	5.9	3.56e-01	0	62	0	272629760	41	7369
2026-01-25 10:51:15.89	196.70	13.69	-34.6	-41.0	5.9	3.41e-01	0	62	0	274726912	41	7244
2026-01-25 10:51:16.90	196.79	13.78	-34.3	-40.9	5.8	3.66e-01	0	62	0	278921216	40	7574
2026-01-25 10:51:17.91	196.88	13.87	-34.3	-40.8	5.9	3.73e-01	0	62	0	282066944	40	7465
2026-01-25 10:51:18.92	196.97	13.96	-38.4	-45.1	5.8	3.56e-01	0	62	0	285212672	47	8259
2026-01-25 10:51:19.93	197.07	14.06	-40.4	-51.5	3.8	5.24e-01	0	62	104	287309824	51	13613
2026-01-25 10:51:20.94	197.16	14.15	-37.6	-44.3	6.1	5.96e-01	0	62	0	287309824	45	8457
2026-01-25 10:51:21.95	197.26	14.24	-36.5	-46.8	3.9	7.45e-01	0	62	104	289406976	43	12604
2026-01-25 10:51:22.96	197.35	14.34	-34.3	-41.7	5.2	8.38e-01	0	62	0	289406976	40	8293
2026-01-25 10:51:23.97	197.45	14.43	-34.6	-41.8	5.4	5.80e-01	0	62	0	292552704	40	8389
2026-01-25 10:51:24.98	197.54	14.53	-35.1	-41.8	5.9	3.86e-01	0	62	0	295698432	40	8370
2026-01-25 10:51:25.99	197.64	14.62	-35.4	-41.9	6.1	3.11e-01	0	62	0	298844160	41	8054
2026-01-25 10:51:27.00	197.74	14.72	-36.2	-41.8	7.4	1.63e-01	0	62	0	301989888	43	7093
2026-01-25 10:51:28.01	197.84	14.81	-37.0	-41.9	8.4	5.63e-02	0	62	0	305135616	44	6758
2026-01-25 10:51:29.02	197.94	14.91	-37.3	-41.9	9.1	2.75e-02	0	62	0	308281344	45	6384
2026-01-25 10:51:30.02	198.03	15.00	-37.5	-42.1	9.1	2.15e-02	0	62	0	311427072	45	6522
2026-01-25 10:51:31.03	198.13	15.10	-37.6	-42.1	9.1	2.18e-02	0	62	0	314572800	45	6557
2026-01-25 10:51:32.04	198.23	15.20	-37.5	-42.0	9.1	2.01e-02	0	62	0	317718528	45	6439
2026-01-25 10:51:33.05	198.34	15.29	-37.5	-42.1	8.9	2.59e-02	0	62	0	320864256	45	6497
2026-01-25 10:51:34.06	198.44	15.39	-37.5	-42.0	8.8	2.93e-02	0	62	0	324009984	45	6465
2026-01-25 10:51:35.07	198.54	15.49	-37.5	-41.9	8.8	2.96e-02	0	62	0	327155712	45	6417
2026-01-25 10:51:36.09	198.64	15.59	-37.6	-42.0	8.9	2.81e-02	0	62	0	330301440	45	6425
2026-01-25 10:51:37.10	198.75	15.68	-37.8	-42.1	8.9	2.86e-02	0	62	0	333447168	46	6142
2026-01-25 10:51:38.11	198.85	15.78	-38.1	-42.1	9.4	1.91e-02	0	62	0	336592896	46	6182
2026-01-25 10:51:39.12	198.96	15.88	-38.4	-42.1	10.2	7.29e-03	0	62	0	339738624	47	5795
2026-01-25 10:51:40.13	199.06	15.98	-38.9	-42.2	10.7	3.81e-03	0	62	0	342884352	48	5586
2026-01-25 10:51:41.14	199.17	16.08	-39.1	-42.3	11.0	2.28e-03	0	62	0	346030080	48	5644
2026-01-25 10:51:42.15	199.28	16.18	-39.4	-42.4	11.6	9.86e-04	0	62	0	349175808	49	5367
2026-01-25 10:51:43.16	199.38	16.28	-39.5	-42.4	11.9	4.84e-04	0	62	0	352321536	49	5393
2026-01-25 10:51:44.17	199.49	16.38	-39.6	-42.4	12.2	2.63e-04	0	62	0	355467264	49	5390
2026-01-25 10:51:45.18	199.60	16.48	-39.7	-42.5	12.4	1.58e-04	0	62	0	358612992	49	5409
2026-01-25 10:51:46.19	199.71	16.58	-39.8	-42.5	12.5	1.09e-04	0	62	0	361758720	50	5154
2026-01-25 10:51:47.19	199.82	16.68	-39.8	-42.5	12.6	8.92e-05	0	62	0	364904448	50	5119
2026-01-25 10:51:48.20	199.93	16.78	-39.8	-42.5	12.7	7.85e-05	0	62	0	368050176	50	5121
2026-01-25 10:51:49.21	200.05	16.88	-39.9	-42.6	12.6	7.40e-05	0	62	0	371195904	50	5182
2026-01-25 10:51:50.22	200.16	16.99	-40.0	-42.6	12.7	7.09e-05	0	62	0	374341632	50	5209
2026-01-25 10:51:51.23	200.27	17.09	-40.0	-42.6	12.8	5.64e-05	0	62	0	377487360	50	5186
2026-01-25 10:51:52.25	200.39	17.19	-40.1	-42.7	12.8	5.56e-05	0	62	0	380633088	50	5224
2026-01-25 10:51:53.26	200.50	17.30	-40.1	-42.6	12.9	4.95e-05	0	62	0	383778816	50	5215
2026-01-25 10:51:54.26	200.62	17.40	-40.1	-42.7	12.8	5.11e-05	0	62	0	386924544	50	5261
2026-01-25 10:51:55.27	200.73	17.50	-40.2	-42.8	12.8	6.10e-05	0	62	0	390070272	50	5296
2026-01-25 10:51:56.28	200.85	17.61	-40.2	-42.8	12.8	6.48e-05	0	62	0	393216000	51	5015
2026-01-25 10:51:57.29	200.97	17.71	-40.2	-42.8	12.8	6.25e-05	0	62	0	396361728	51	5009
2026-01-25 10:51:58.30	201.09	17.82	-40.3	-42.9	12.7	6.40e-05	0	62	0	399507456	51	5062
2026-01-25 10:51:59.31	201.21	17.92	-40.3	-42.9	12.7	5.49e-05	0	62	0	402653184	51	5067
2026-01-25 10:52:00.32	201.33	18.03	-40.3	-42.9	12.7	7.55e-05	0	62	0	405798912	51	5083
2026-01-25 10:52:01.33	201.45	18.13	-40.3	-42.9	12.7	9.00e-05	0	62	0	408944640	51	5071
2026-01-25 10:52:02.34	201.57	18.24	-40.3	-42.9	12.7	6.71e-05	0	62	0	412090368	51	5076
2026-01-25 10:52:03.35	201.70	18.34	-40.2	-42.8	12.9	5.34e-05	0	62	0	415236096	51	4986
2026-01-25 10:52:04.36	201.82	18.45	-40.0	-42.5	13.2	2.97e-05	0	62	0	418381824	51	4821
2026-01-25 10:52:05.37	201.94	18.56	-40.0	-42.5	13.2	2.36e-05	0	62	0	421527552	51	4817
2026-01-25 10:52:06.38	202.07	18.67	-40.0	-42.5	13.2	2.51e-05	0	62	0	424673280	51	4825
2026-01-25 10:52:07.39	202.20	18.77	-40.0	-42.5	13.2	2.28e-05	0	62	0	427819008	51	4823
2026-01-25 10:52:08.40	202.32	18.88	-40.0	-42.3	13.3	2.21e-05	0	62	0	432013312	51	4753
2026-01-25 10:52:09.41	202.45	18.99	-39.9	-42.2	13.5	1.29e-05	0	62	0	435159040	51	4696
2026-01-25 10:52:10.42	202.58	19.10	-39.9	-42.2	13.5	1.06e-05	0	62	0	437256192	51	4683
2026-01-25 10:52:11.43	202.71	19.21	-39.9	-42.2	13.5	9.90e-06	0	62	0	440401920	51	4698
2026-01-25 10:52:12.44	202.84	19.32	-39.9	-42.2	13.5	8.30e-06	0	62	0	443547648	51	4675
2026-01-25 10:52:13.45	202.97	19.43	-39.8	-42.2	13.5	8.30e-06	0	62	0	447741952	51	4654
2026-01-25 10:52:14.46	203.11	19.54	-39.7	-42.0	13.7	5.30e-06	0	62	0	450887680	51	4558
2026-01-25 10:52:15.48	203.24	19.65	-39.7	-42.0	13.7	4.50e-06	0	62	0	454033408	51	4562
2026-01-25 10:52:16.49	203.38	19.76	-39.7	-42.0	13.7	6.80e-06	0	62	0	457179136	51	4590
2026-01-25 10:52:17.50	203.51	19.87	-39.7	-42.0	13.7	6.80e-06	0	62	0	459276288	51	4570
2026-01-25 10:52:18.51	203.65	19.98	-39.7	-42.0	13.7	9.10e-06	0	62	0	463470592	51	4546
2026-01-25 10:52:19.52	203.79	20.09	-39.6	-41.8	13.9	5.30e-06	0	62	0	466616320	51	4446
2026-01-25 10:52:20.53	203.92	20.21	-39.5	-41.7	14.0	4.50e-06	0	62	0	469762048	51	4423
2026-01-25 10:52:21.54	204.06	20.32	-39.4	-41.6	14.2	3.00e-06	0	62	0	472907776	50	4617
2026-01-25 10:52:22.55	204.20	20.43	-39.3	-41.3	14.4	7.00e-07	0	62	0	476053504	50	4485
2026-01-25 10:52:23.56	204.35	20.55	-39.2	-41.3	14.4	1.50e-06	0	62	0	479199232	50	4465
2026-01-25 10:52:24.57	204.49	20.66	-39.2	-41.3	14.4	0.00e+00	0	62	0	482344960	50	4458
2026-01-25 10:52:25.58	204.63	20.77	-39.3	-41.3	14.4	0.00e+00	0	62	0	485490688	50	4481
2026-01-25 10:52:26.59	204.78	20.89	-39.3	-41.4	14.3	0.00e+00	0	62	0	488636416	50	4521
2026-01-25 10:52:27.60	204.92	21.00	-39.3	-41.4	14.4	7.00e-07	0	62	0	491782144	50	4495
2026-01-25 10:52:28.61	205.07	21.12	-39.2	-41.2	14.5	0.00e+00	0	62	0	494927872	50	4423
2026-01-25 10:52:29.62	205.22	21.23	-39.0	-41.0	14.7	7.00e-07	0	62	0	498073600	50	4328
2026-01-25 10:52:30.63	205.36	21.35	-38.9	-40.9	14.8	0.00e+00	0	62	0	501219328	49	4515
2026-01-25 10:52:31.63	205.51	21.46	-38.9	-40.9	14.8	0.00e+00	0	62	0	504365056	49	4497
2026-01-25 10:52:32.64	205.66	21.58	-38.9	-40.8	14.9	7.00e-07	0	62	0	507510784	49	4467
2026-01-25 10:52:33.65	205.82	21.70	-38.9	-40.8	14.9	0.00e+00	0	62	0	510656512	49	4468
2026-01-25 10:52:34.66	205.97	21.81	-38.8	-40.7	15.0	0.00e+00	0	62	0	513802240	49	4426
2026-01-25 10:52:35.67	206.12	21.93	-38.8	-40.6	15.1	0.00e+00	0	62	0	516947968	49	4388
2026-01-25 10:52:36.68	206.28	22.05	-38.8	-40.7	15.1	0.00e+00	0	62	0	520093696	49	4416
2026-01-25 10:52:37.69	206.44	22.16	-38.8	-40.8	15.0	0.00e+00	0	62	0	523239424	49	4443
2026-01-25 10:52:38.70	206.59	22.28	-38.7	-40.6	15.1	0.00e+00	0	62	0	526385152	49	4367
2026-01-25 10:52:39.71	206.75	22.40	-38.7	-40.6	15.1	0.00e+00	0	62	0	529530880	49	4371
2026-01-25 10:52:40.72	206.91	22.52	-38.8	-40.7	15.1	0.00e+00	0	62	0	532676608	49	4400
2026-01-25 10:52:41.73	207.07	22.64	-38.8	-40.7	15.1	0.00e+00	0	62	0	535822336	49	4414
2026-01-25 10:52:42.74	207.24	22.76	-38.8	-40.8	15.0	0.00e+00	0	62	0	538968064	49	4447
2026-01-25 10:52:43.74	207.40	22.88	-38.8	-40.7	15.1	7.00e-07	0	62	0	542113792	49	4420
2026-01-25 10:52:44.76	207.56	23.00	-38.8	-40.7	15.1	0.00e+00	0	62	0	545259520	49	4414
2026-01-25 10:52:45.77	207.73	23.12	-38.8	-40.7	15.2	0.00e+00	0	62	0	548405248	49	4395
2026-01-25 10:52:46.78	207.90	23.24	-38.8	-40.8	15.1	0.00e+00	0	62	0	551550976	49	4443
2026-01-25 10:52:47.79	208.07	23.36	-38.8	-40.7	15.2	0.00e+00	0	62	0	554696704	49	4408
2026-01-25 10:52:48.80	208.24	23.48	-38.8	-40.8	15.1	0.00e+00	0	62	0	557842432	49	4443
2026-01-25 10:52:49.81	208.41	23.61	-38.7	-40.5	15.3	0.00e+00	0	62	0	560988160	49	4324
2026-01-25 10:52:50.81	208.58	23.73	-38.7	-40.5	15.2	0.00e+00	0	62	0	564133888	49	4336
2026-01-25 10:52:51.82	208.75	23.85	-38.8	-40.7	15.2	0.00e+00	0	62	0	567279616	49	4400
2026-01-25 10:52:52.83	208.93	23.97	-38.7	-40.6	15.2	0.00e+00	0	62	0	570425344	49	4381
2026-01-25 10:52:53.84	209.11	24.10	-38.8	-40.7	15.2	0.00e+00	0	62	0	573571072	49	4411
2026-01-25 10:52:54.85	209.28	24.22	-38.9	-40.8	15.1	0.00e+00	0	62	0	576716800	49	4456
2026-01-25 10:52:55.86	209.46	24.34	-38.9	-40.9	15.0	0.00e+00	0	62	0	579862528	49	4502
2026-01-25 10:52:56.87	209.64	24.47	-38.9	-40.9	15.0	0.00e+00	0	62	0	583008256	49	4520
2026-01-25 10:52:57.88	209.83	24.59	-39.0	-41.0	14.9	7.00e-07	0	62	0	586153984	49	4549
2026-01-25 10:52:58.89	210.01	24.72	-39.0	-41.0	14.9	0.00e+00	0	62	0	589299712	49	4571
2026-01-25 10:52:59.90	210.19	24.84	-39.0	-41.0	14.9	7.00e-07	0	62	0	592445440	49	4591
2026-01-25 10:53:00.90	210.38	24.96	-39.1	-41.0	14.9	0.00e+00	0	62	0	595591168	49	4588
2026-01-25 10:53:01.91	210.57	25.09	-39.1	-41.0	14.9	0.00e+00	0	62	0	598736896	49	4590
2026-01-25 10:53:02.92	210.75	25.22	-39.1	-41.0	14.9	0.00e+00	0	62	0	601882624	49	4594
2026-01-25 10:53:03.93	210.95	25.34	-39.1	-41.1	14.9	0.00e+00	0	62	0	605028352	49	4605
2026-01-25 10:53:04.94	211.14	25.47	-39.1	-41.1	14.9	0.00e+00	0	62	0	608174080	49	4606
2026-01-25 10:53:05.95	211.33	25.59	-39.2	-41.1	14.8	0.00e+00	0	62	0	611319808	49	4650
2026-01-25 10:53:06.96	211.53	25.72	-39.2	-41.3	14.7	0.00e+00	0	62	0	614465536	49	4708
2026-01-25 10:53:07.97	211.72	25.85	-39.1	-41.1	14.8	0.00e+00	0	62	0	617611264	49	4626
2026-01-25 10:53:08.98	211.92	25.97	-39.2	-41.2	14.7	0.00e+00	0	62	0	620756992	49	4702
2026-01-25 10:53:09.99	212.12	26.10	-39.3	-41.4	14.6	0.00e+00	0	62	0	623902720	49	4763
2026-01-25 10:53:11.00	212.32	26.23	-39.3	-41.3	14.6	0.00e+00	0	62	0	627048448	49	4748
2026-01-25 10:53:12.01	212.53	26.36	-39.3	-41.3	14.6	7.00e-07	0	62	0	630194176	49	4740
2026-01-25 10:53:13.02	212.73	26.49	-39.4	-41.5	14.4	1.50e-06	0	62	0	633339904	49	4820
2026-01-25 10:53:14.03	212.94	26.61	-39.5	-41.6	14.3	7.00e-07	0	62	0	636485632	49	4893
2026-01-25 10:53:15.04	213.14	26.74	-39.7	-41.8	14.1	7.00e-07	0	62	0	639631360	49	5027
2026-01-25 10:53:16.05	213.35	26.87	-39.8	-42.0	13.9	2.20e-06	0	62	0	642777088	50	4829
2026-01-25 10:53:17.06	213.57	27.00	-39.9	-42.2	13.8	4.50e-06	0	62	0	645922816	50	4943
2026-01-25 10:53:18.07	213.78	27.13	-40.0	-42.3	13.6	5.30e-06	0	62	0	649068544	50	5005
2026-01-25 10:53:19.08	213.99	27.26	-40.1	-42.4	13.6	6.10e-06	0	62	0	652214272	50	5068
2026-01-25 10:53:20.09	214.21	27.39	-40.1	-42.5	13.5	1.22e-05	0	62	0	655360000	50	5112
2026-01-25 10:53:21.10	214.43	27.52	-40.0	-42.4	13.6	8.30e-06	0	62	0	658505728	50	5045
2026-01-25 10:53:22.11	214.65	27.65	-40.1	-42.4	13.6	7.60e-06	0	62	0	661651456	50	5068
2026-01-25 10:53:23.12	214.87	27.78	-40.1	-42.4	13.5	1.06e-05	0	62	0	664797184	50	5099
2026-01-25 10:53:24.13	215.09	27.91	-40.2	-42.6	13.4	1.52e-05	0	62	0	667942912	50	5181
2026-01-25 10:53:25.13	215.31	28.04	-40.2	-42.6	13.4	1.14e-05	0	62	0	671088640	50	5182
2026-01-25 10:53:26.14	215.54	28.17	-40.1	-42.5	13.5	1.52e-05	0	62	0	674234368	50	5123
2026-01-25 10:53:27.15	215.77	28.30	-40.1	-42.5	13.5	1.29e-05	0	62	0	677380096	50	5135
2026-01-25 10:53:28.16	216.00	28.43	-40.1	-42.4	13.5	6.80e-06	0	62	0	680525824	50	5095
2026-01-25 10:53:29.17	216.23	28.56	-40.0	-42.3	13.6	6.80e-06	0	62	0	683671552	50	5026
2026-01-25 10:53:30.18	216.47	28.69	-40.1	-42.4	13.5	9.90e-06	0	62	0	686817280	50	5064
2026-01-25 10:53:31.19	216.70	28.83	-40.0	-42.2	13.7	4.50e-06	0	62	0	689963008	50	4974
2026-01-25 10:53:32.20	216.94	28.96	-39.9	-42.2	13.7	6.10e-06	0	62	0	693108736	50	4967
2026-01-25 10:53:33.21	217.18	29.09	-40.0	-42.2	13.7	5.30e-06	0	62	0	696254464	50	4972
2026-01-25 10:53:34.22	217.42	29.22	-39.9	-42.1	13.9	4.50e-06	0	62	0	699400192	50	4894
2026-01-25 10:53:35.23	217.67	29.35	-39.8	-42.0	14.0	1.50e-06	0	62	0	702545920	50	4832
2026-01-25 10:53:36.24	217.91	29.48	-39.8	-42.0	14.0	3.00e-06	0	62	0	705691648	50	4829
2026-01-25 10:53:37.25	218.16	29.61	-39.7	-41.9	14.0	1.50e-06	0	62	0	708837376	50	4809
2026-01-25 10:53:38.26	218.41	29.75	-39.8	-42.0	14.0	2.20e-06	0	62	0	711983104	50	4843
2026-01-25 10:53:39.27	218.66	29.88	-39.7	-41.9	14.1	3.00e-06	0	62	0	715128832	50	4804
2026-01-25 10:53:40.28	218.92	30.01	-39.7	-41.9	14.1	1.50e-06	0	62	0	718274560	50	4766
2026-01-25 10:53:41.29	219.17	30.14	-39.5	-41.6	14.3	7.00e-07	0	62	0	721420288	50	4651
2026-01-25 10:53:42.30	219.43	30.27	-39.6	-41.7	14.3	2.20e-06	0	62	0	724566016	50	4669
2026-01-25 10:53:43.31	219.69	30.41	-39.5	-41.6	14.4	7.00e-07	0	62	0	727711744	50	4611
2026-01-25 10:53:44.32	219.95	30.54	-39.4	-41.5	14.5	0.00e+00	0	62	0	730857472	50	4562
2026-01-25 10:53:45.33	220.22	30.67	-39.5	-41.6	14.4	0.00e+00	0	62	0	734003200	50	4606
2026-01-25 10:53:46.34	220.48	30.80	-39.4	-41.5	14.4	7.00e-07	0	62	0	737148928	50	4574
2026-01-25 10:53:47.35	220.75	30.93	-39.5	-41.6	14.3	2.20e-06	0	62	0	740294656	50	4641
2026-01-25 10:53:48.36	221.02	31.06	-39.5	-41.6	14.3	7.00e-07	0	62	0	743440384	50	4647
2026-01-25 10:53:49.37	221.29	31.19	-39.5	-41.6	14.4	0.00e+00	0	62	0	746586112	50	4607
2026-01-25 10:53:50.37	221.56	31.32	-39.4	-41.5	14.5	0.00e+00	0	62	0	749731840	50	4567
2026-01-25 10:53:51.38	221.84	31.45	-39.4	-41.5	14.5	2.20e-06	0	62	0	752877568	50	4548
2026-01-25 10:53:52.39	222.12	31.59	-39.5	-41.5	14.4	7.00e-07	0	62	0	756023296	50	4595
2026-01-25 10:53:53.40	222.40	31.72	-39.6	-41.7	14.3	1.50e-06	0	62	0	759169024	50	4677
2026-01-25 10:53:54.41	222.69	31.85	-39.7	-41.9	14.1	0.00e+00	0	62	0	762314752	50	4804
2026-01-25 10:53:55.42	222.97	31.98	-39.8	-42.1	13.9	3.80e-06	0	62	0	765460480	50	4875
2026-01-25 10:53:56.43	223.26	32.11	-39.9	-42.1	13.8	4.50e-06	0	62	0	768606208	50	4923
2026-01-25 10:53:57.44	223.55	32.24	-39.9	-42.1	13.8	8.30e-06	0	62	0	771751936	50	4916
2026-01-25 10:53:58.45	223.84	32.37	-39.9	-42.1	13.8	4.50e-06	0	62	0	774897664	50	4913
2026-01-25 10:53:59.46	224.14	32.50	-39.9	-42.2	13.8	3.80e-06	0	62	0	778043392	50	4945
2026-01-25 10:54:00.46	224.43	32.62	-39.9	-42.2	13.8	2.20e-06	0	62	0	781189120	50	4927
2026-01-25 10:54:01.47	224.73	32.75	-39.9	-42.2	13.8	5.30e-06	0	62	0	784334848	50	4929
2026-01-25 10:54:02.48	225.03	32.88	-40.0	-42.3	13.7	6.80e-06	0	62	0	787480576	50	5016
2026-01-25 10:54:03.50	225.34	33.01	-40.1	-42.4	13.6	5.30e-06	0	62	0	790626304	50	5074
2026-01-25 10:54:04.51	225.65	33.14	-40.1	-42.4	13.5	8.30e-06	0	62	0	794820608	50	5083
2026-01-25 10:54:05.52	225.96	33.27	-40.0	-42.3	13.6	6.80e-06	0	62	0	797966336	50	5026
2026-01-25 10:54:06.53	226.27	33.39	-40.1	-42.5	13.4	1.52e-05	0	62	0	800063488	50	5136
2026-01-25 10:54:07.54	226.58	33.52	-40.1	-42.5	13.4	1.22e-05	0	62	0	803209216	50	5135
2026-01-25 10:54:08.55	226.90	33.65	-40.2	-42.6	13.4	1.22e-05	0	62	0	806354944	51	4890
2026-01-25 10:54:09.56	227.22	33.77	-40.2	-42.6	13.3	1.67e-05	0	62	0	810549248	51	4901
2026-01-25 10:54:10.57	227.54	33.90	-40.2	-42.6	13.4	1.44e-05	0	62	0	813694976	51	4888
2026-01-25 10:54:11.58	227.86	34.02	-40.3	-42.7	13.3	1.90e-05	0	62	0	816840704	51	4972
2026-01-25 10:54:12.58	228.18	34.15	-40.4	-42.8	13.1	2.59e-05	0	62	0	819986432	51	5039
2026-01-25 10:54:13.59	228.51	34.27	-40.4	-42.9	13.1	3.43e-05	0	62	0	823132160	51	5077
2026-01-25 10:54:14.60	228.84	34.39	-40.4	-42.9	13.1	3.12e-05	0	62	0	826277888	51	5093
2026-01-25 10:54:15.61	229.18	34.52	-40.4	-42.9	13.1	3.35e-05	0	62	0	829423616	51	5071
2026-01-25 10:54:16.62	229.51	34.64	-40.4	-42.8	13.1	3.43e-05	0	62	0	832569344	51	5023
2026-01-25 10:54:17.63	229.85	34.76	-40.4	-42.9	13.2	3.43e-05	0	62	0	835715072	51	5042
2026-01-25 10:54:18.64	230.19	34.88	-40.4	-42.9	13.1	2.74e-05	0	62	0	838860800	51	5042
2026-01-25 10:54:19.66	230.54	35.00	-40.5	-43.0	12.9	4.73e-05	0	62	0	842006528	51	5129
2026-01-25 10:54:20.66	230.88	35.12	-40.6	-43.1	12.8	5.03e-05	0	62	0	845152256	51	5179
2026-01-25 10:54:21.68	231.23	35.24	-40.6	-43.1	12.8	5.03e-05	0	62	0	848297984	51	5190
2026-01-25 10:54:22.69	231.58	35.36	-40.6	-43.2	12.7	6.79e-05	0	62	0	851443712	51	5274
2026-01-25 10:54:23.69	231.93	35.48	-40.6	-43.2	12.7	7.47e-05	0	62	0	854589440	51	5264
2026-01-25 10:54:24.70	232.29	35.59	-40.7	-43.3	12.6	7.40e-05	0	62	0	857735168	52	5014
2026-01-25 10:54:25.71	232.65	35.71	-40.7	-43.4	12.4	1.59e-04	0	62	0	860880896	52	5067
2026-01-25 10:54:26.72	233.01	35.82	-40.8	-43.6	12.3	1.85e-04	0	62	0	864026624	52	5176
2026-01-25 10:54:27.73	233.37	35.94	-40.7	-43.4	12.4	1.50e-04	0	62	0	867172352	52	5087
2026-01-25 10:54:28.74	233.74	36.05	-40.7	-43.3	12.6	1.07e-04	0	62	0	870318080	52	5032
2026-01-25 10:54:29.75	234.10	36.16	-40.6	-43.1	12.8	7.93e-05	0	62	0	873463808	52	4912
2026-01-25 10:54:30.76	234.48	36.27	-40.6	-43.2	12.7	5.95e-05	0	62	0	876609536	52	4939
2026-01-25 10:54:31.77	234.85	36.39	-40.6	-43.3	12.7	8.31e-05	0	62	0	879755264	52	4988
2026-01-25 10:54:32.78	235.22	36.49	-40.8	-43.5	12.3	1.30e-04	0	62	0	882900992	52	5149
2026-01-25 10:54:33.79	235.60	36.60	-40.9	-43.6	12.2	1.62e-04	0	62	0	886046720	52	5202
2026-01-25 10:54:34.80	235.98	36.71	-40.9	-43.6	12.3	1.80e-04	0	62	0	889192448	52	5208
2026-01-25 10:54:35.81	236.37	36.82	-40.8	-43.6	12.3	2.00e-04	0	62	0	892338176	52	5164
2026-01-25 10:54:36.82	236.75	36.92	-40.9	-43.7	12.2	2.34e-04	0	62	0	895483904	52	5227
2026-01-25 10:54:37.82	237.14	37.03	-40.9	-43.6	12.2	2.11e-04	0	62	0	898629632	52	5204
2026-01-25 10:54:38.83	237.53	37.13	-40.7	-43.4	12.5	1.43e-04	0	62	0	901775360	52	5053
2026-01-25 10:54:39.84	237.92	37.23	-40.6	-43.2	12.6	8.77e-05	0	62	0	904921088	52	4974
2026-01-25 10:54:40.85	238.31	37.33	-40.8	-43.5	12.3	1.46e-04	0	62	0	908066816	52	5153
2026-01-25 10:54:41.86	238.71	37.43	-40.8	-43.5	12.4	1.75e-04	0	62	0	911212544	52	5110
2026-01-25 10:54:42.87	239.11	37.53	-40.9	-43.6	12.2	2.51e-04	0	62	0	914358272	52	5198
2026-01-25 10:54:43.88	239.51	37.63	-40.8	-43.6	12.3	1.83e-04	0	62	0	917504000	52	5178
2026-01-25 10:54:44.89	239.92	37.72	-40.8	-43.4	12.4	1.62e-04	0	62	0	920649728	52	5082
2026-01-25 10:54:45.90	240.33	37.82	-40.7	-43.3	12.5	1.14e-04	0	62	0	923795456	52	5001
2026-01-25 10:54:46.91	240.73	37.91	-40.7	-43.3	12.5	1.09e-04	0	62	0	926941184	52	4994
2026-01-25 10:54:47.92	241.15	38.00	-40.7	-43.3	12.6	1.05e-04	0	62	0	930086912	52	4999
2026-01-25 10:54:48.93	241.56	38.09	-40.6	-43.2	12.6	9.38e-05	0	62	0	933232640	52	4968
2026-01-25 10:54:49.94	241.98	38.18	-40.7	-43.3	12.5	9.30e-05	0	62	0	936378368	52	5029
2026-01-25 10:54:50.95	242.40	38.27	-40.7	-43.3	12.5	1.29e-04	0	62	0	939524096	52	5011
2026-01-25 10:54:51.96	242.82	38.36	-40.7	-43.3	12.6	1.17e-04	0	62	0	942669824	52	5027
2026-01-25 10:54:52.97	243.24	38.44	-40.7	-43.4	12.5	1.11e-04	0	62	0	945815552	52	5055
2026-01-25 10:54:53.98	243.66	38.52	-40.9	-43.6	12.2	1.66e-04	0	62	0	948961280	52	5207
2026-01-25 10:54:54.98	244.09	38.60	-41.1	-44.0	11.8	3.82e-04	0	62	0	952107008	52	5440
2026-01-25 10:54:55.99	244.52	38.68	-41.1	-44.0	11.8	4.61e-04	0	62	0	955252736	52	5452
2026-01-25 10:54:57.00	244.95	38.76	-41.0	-43.8	12.0	3.39e-04	0	62	0	958398464	52	5326
2026-01-25 10:54:58.02	245.38	38.84	-40.8	-43.6	12.3	2.61e-04	0	62	0	961544192	52	5165
2026-01-25 10:54:59.02	245.81	38.91	-40.9	-43.6	12.3	1.79e-04	0	62	0	964689920	52	5199
2026-01-25 10:55:00.03	246.25	38.99	-41.0	-43.8	12.1	2.38e-04	0	62	0	967835648	52	5297
2026-01-25 10:55:01.04	246.69	39.06	-41.2	-44.1	11.8	4.60e-04	0	62	0	970981376	52	5491
2026-01-25 10:55:02.05	247.13	39.13	-41.3	-44.2	11.6	5.87e-04	0	62	0	974127104	53	5269
2026-01-25 10:55:03.06	247.57	39.20	-41.2	-44.2	11.6	7.04e-04	0	62	0	977272832	53	5259
2026-01-25 10:55:04.07	248.02	39.26	-41.1	-43.9	11.9	4.39e-04	0	62	0	980418560	53	5086
2026-01-25 10:55:05.08	248.47	39.33	-41.0	-43.8	12.1	2.80e-04	0	62	0	983564288	53	5014
2026-01-25 10:55:06.09	248.91	39.39	-41.0	-43.7	12.1	2.20e-04	0	62	0	986710016	53	4980
2026-01-25 10:55:07.09	249.36	39.45	-40.9	-43.7	12.1	2.12e-04	0	62	0	989855744	53	4959
2026-01-25 10:55:08.11	249.81	39.51	-41.1	-44.0	11.8	4.35e-04	0	62	0	993001472	53	5133
2026-01-25 10:55:09.11	250.26	39.57	-41.1	-44.0	11.8	4.32e-04	0	62	0	996147200	53	5139
2026-01-25 10:55:10.12	250.72	39.62	-41.1	-44.0	11.8	5.15e-04	0	62	0	999292928	53	5156
2026-01-25 10:55:11.14	251.18	39.68	-41.1	-44.0	11.8	4.95e-04	0	62	0	1002438656	53	5140
2026-01-25 10:55:12.14	251.63	39.73	-41.2	-44.2	11.6	5.74e-04	0	62	0	1005584384	53	5231
2026-01-25 10:55:13.15	252.09	39.78	-41.2	-44.1	11.8	5.37e-04	0	62	0	1008730112	53	5182
2026-01-25 10:55:14.16	252.55	39.83	-41.1	-44.0	11.9	4.69e-04	0	62	0	1011875840	53	5102
2026-01-25 10:55:15.18	253.02	39.87	-41.0	-43.7	12.1	2.89e-04	0	62	0	1015021568	53	4979
2026-01-25 10:55:16.18	253.47	39.92	-40.9	-43.7	12.2	2.37e-04	0	62	0	1018167296	53	4959
2026-01-25 10:55:17.19	253.94	39.96	-41.2	-44.1	11.7	4.27e-04	0	62	0	1021313024	53	5194
2026-01-25 10:55:18.20	254.40	40.00	-41.3	-44.3	11.5	6.50e-04	0	62	0	1024458752	53	5295
2026-01-25 10:55:19.21	254.87	40.04	-41.2	-44.2	11.6	8.06e-04	0	62	0	1027604480	53	5222
2026-01-25 10:55:20.22	255.34	40.07	-41.1	-43.9	11.9	5.01e-04	0	62	0	1030750208	53	5072
2026-01-25 10:55:21.23	255.80	40.11	-40.9	-43.6	12.2	2.78e-04	0	62	0	1033895936	53	4909
2026-01-25 10:55:22.24	256.27	40.14	-40.8	-43.5	12.4	1.67e-04	0	62	0	1037041664	53	4870
2026-01-25 10:55:23.25	256.74	40.17	-40.9	-43.7	12.1	2.04e-04	0	62	0	1040187392	53	4962
2026-01-25 10:55:24.26	257.21	40.19	-41.0	-43.8	12.0	3.47e-04	0	62	0	1043333120	53	4998
2026-01-25 10:55:25.27	257.69	40.22	-41.0	-43.8	12.1	3.10e-04	0	62	0	1046478848	53	5015
2026-01-25 10:55:26.28	258.16	40.24	-40.9	-43.7	12.2	2.53e-04	0	62	0	1049624576	53	4961
2026-01-25 10:55:27.29	258.63	40.26	-41.0	-43.7	12.1	2.03e-04	0	62	0	1052770304	53	4971
2026-01-25 10:55:28.30	259.10	40.28	-41.2	-44.1	11.8	4.42e-04	0	62	0	1055916032	53	5184
2026-01-25 10:55:29.31	259.58	40.30	-41.3	-44.3	11.5	7.64e-04	0	62	0	1059061760	53	5321
2026-01-25 10:55:30.32	260.05	40.31	-41.3	-44.3	11.5	7.51e-04	0	62	0	1062207488	53	5286
2026-01-25 10:55:31.33	260.53	40.32	-41.2	-44.2	11.6	7.41e-04	0	62	0	1065353216	53	5235
2026-01-25 10:55:32.34	261.00	40.33	-41.3	-44.2	11.6	6.23e-04	0	62	0	1068498944	53	5270
2026-01-25 10:55:33.34	261.47	40.34	-41.3	-44.4	11.4	7.81e-04	0	62	0	1071644672	53	5349
2026-01-25 10:55:34.36	261.95	40.35	-41.5	-44.6	11.2	1.27e-03	0	62	0	1074790400	53	5527
2026-01-25 10:55:35.36	262.42	40.35	-41.5	-44.7	11.1	1.68e-03	0	62	0	1077936128	53	5530
2026-01-25 10:55:36.37	262.90	40.35	-41.4	-44.4	11.4	1.01e-03	0	62	0	1081081856	53	5401
2026-01-25 10:55:37.38	263.37	40.35	-41.3	-44.2	11.6	7.00e-04	0	62	0	1084227584	53	5269
2026-01-25 10:55:38.39	263.85	40.35	-41.3	-44.2	11.6	6.32e-04	0	62	0	1087373312	53	5276
2026-01-25 10:55:39.40	264.32	40.35	-41.4	-44.5	11.3	9.34e-04	0	62	0	1090519040	53	5431
2026-01-25 10:55:40.41	264.80	40.34	-41.4	-44.5	11.3	1.04e-03	0	62	0	1093664768	53	5464
2026-01-25 10:55:41.42	265.27	40.33	-41.5	-44.7	11.2	1.35e-03	0	62	0	1096810496	53	5535
2026-01-25 10:55:42.43	265.75	40.32	-41.3	-44.4	11.4	9.83e-04	0	62	0	1099956224	53	5376
2026-01-25 10:55:43.44	266.22	40.30	-41.3	-44.4	11.5	8.27e-04	0	62	0	1103101952	53	5351
2026-01-25 10:55:44.45	266.70	40.29	-41.3	-44.4	11.5	7.69e-04	0	62	0	1106247680	53	5342
2026-01-25 10:55:45.46	267.17	40.27	-41.4	-44.6	11.2	1.13e-03	0	62	0	1109393408	53	5476
2026-01-25 10:55:46.47	267.64	40.25	-41.5	-44.7	11.1	1.42e-03	0	62	0	1112539136	53	5532
2026-01-25 10:55:47.48	268.12	40.23	-41.4	-44.4	11.4	1.02e-03	0	62	0	1115684864	53	5377
2026-01-25 10:55:48.48	268.58	40.20	-41.3	-44.2	11.6	7.08e-04	0	62	0	1118830592	53	5255
2026-01-25 10:55:49.49	269.05	40.18	-41.2	-44.1	11.7	5.90e-04	0	62	0	1121976320	53	5205
2026-01-25 10:55:50.50	269.52	40.15	-41.1	-44.0	11.8	4.71e-04	0	62	0	1125122048	53	5137
2026-01-25 10:55:51.51	269.99	40.12	-41.2	-44.2	11.6	6.77e-04	0	62	0	1128267776	53	5231
2026-01-25 10:55:52.52	270.46	40.08	-41.4	-44.5	11.3	1.11e-03	0	62	0	1131413504	53	5444
2026-01-25 10:55:53.53	270.93	40.05	-41.1	-44.0	11.9	7.12e-04	0	62	0	1134559232	53	5141
2026-01-25 10:55:54.54	271.39	40.01	-41.0	-43.8	12.1	2.61e-04	0	62	0	1137704960	53	4992
2026-01-25 10:55:55.55	271.86	39.97	-41.0	-43.8	12.0	2.86e-04	0	62	0	1140850688	53	5009
2026-01-25 10:55:56.56	272.32	39.93	-41.1	-43.9	11.8	3.84e-04	0	62	0	1143996416	53	5094
2026-01-25 10:55:57.57	272.78	39.89	-41.1	-44.0	11.8	5.19e-04	0	62	0	1147142144	53	5133
2026-01-25 10:55:58.58	273.25	39.85	-41.0	-43.9	12.0	3.77e-04	0	62	0	1150287872	53	5071
2026-01-25 10:55:59.59	273.71	39.80	-41.0	-43.8	12.0	3.36e-04	0	62	0	1153433600	53	4998
2026-01-25 10:56:00.60	274.16	39.75	-41.1	-43.9	11.9	3.19e-04	0	62	0	1156579328	53	5068
2026-01-25 10:56:01.60	274.62	39.70	-41.4	-44.5	11.4	8.28e-04	0	62	0	1160773632	53	5407
2026-01-25 10:56:02.61	275.07	39.65	-41.4	-44.5	11.4	1.23e-03	0	62	0	1163919360	53	5429
2026-01-25 10:56:03.62	275.53	39.59	-41.3	-44.2	11.6	6.92e-04	0	62	0	1166016512	53	5256
2026-01-25 10:56:04.63	275.98	39.54	-41.2	-44.2	11.6	6.12e-04	0	62	0	1169162240	53	5249
2026-01-25 10:56:05.64	276.43	39.48	-41.3	-44.4	11.5	8.00e-04	0	62	0	1172307968	53	5342
2026-01-25 10:56:06.65	276.88	39.42	-41.3	-44.3	11.6	7.79e-04	0	62	0	1175453696	53	5286
2026-01-25 10:56:07.66	277.33	39.35	-41.3	-44.3	11.5	6.15e-04	0	62	0	1179648000	53	5317
2026-01-25 10:56:08.67	277.78	39.29	-41.2	-44.2	11.7	5.65e-04	0	62	0	1182793728	53	5226
2026-01-25 10:56:09.68	278.22	39.23	-41.2	-44.1	11.7	5.66e-04	0	62	0	1185939456	53	5192
2026-01-25 10:56:10.69	278.66	39.16	-41.1	-44.0	11.9	4.37e-04	0	62	0	1188036608	53	5130
2026-01-25 10:56:11.70	279.10	39.09	-41.2	-44.1	11.8	5.85e-04	0	62	0	1191182336	53	5177
2026-01-25 10:56:12.70	279.54	39.02	-41.1	-44.0	11.8	5.25e-04	0	62	0	1195376640	53	5152
2026-01-25 10:56:13.71	279.97	38.95	-40.8	-43.5	12.3	2.63e-04	0	62	0	1198522368	53	4861
2026-01-25 10:56:14.72	280.41	38.87	-40.7	-43.3	12.6	1.11e-04	0	62	0	1201668096	53	4726
2026-01-25 10:56:15.73	280.84	38.80	-40.9	-43.6	12.2	1.45e-04	0	62	0	1204813824	53	4913
2026-01-25 10:56:16.74	281.27	38.72	-41.1	-43.9	11.9	3.02e-04	0	62	0	1207959552	53	5085
2026-01-25 10:56:17.75	281.70	38.64	-41.0	-43.8	12.1	2.53e-04	0	62	0	1211105280	53	4997
2026-01-25 10:56:18.76	282.13	38.56	-40.7	-43.3	12.6	1.59e-04	0	62	0	1214251008	53	4740
2026-01-25 10:56:19.77	282.55	38.48	-40.5	-42.9	12.9	5.11e-05	0	62	0	1217396736	53	4542
2026-01-25 10:56:20.77	282.97	38.39	-40.3	-42.7	13.2	2.36e-05	0	62	0	1220542464	52	4658
2026-01-25 10:56:21.78	283.39	38.31	-40.2	-42.6	13.2	2.05e-05	0	62	0	1223688192	52	4638
2026-01-25 10:56:22.79	283.81	38.22	-40.3	-42.7	13.1	2.59e-05	0	62	0	1226833920	52	4700
2026-01-25 10:56:23.80	284.23	38.13	-40.3	-42.7	13.2	2.59e-05	0	62	0	1229979648	52	4698
2026-01-25 10:56:24.81	284.64	38.04	-40.5	-43.0	12.9	4.65e-05	0	62	0	1233125376	52	4844
2026-01-25 10:56:25.82	285.05	37.95	-40.8	-43.5	12.4	1.43e-04	0	62	0	1236271104	52	5133
2026-01-25 10:56:26.83	285.46	37.86	-41.0	-43.9	12.0	2.93e-04	0	62	0	1239416832	52	5358
2026-01-25 10:56:27.84	285.87	37.77	-41.1	-44.0	11.8	3.88e-04	0	62	0	1242562560	52	5414
2026-01-25 10:56:28.85	286.27	37.67	-41.0	-43.9	11.9	4.71e-04	0	62	0	1245708288	52	5362
2026-01-25 10:56:29.86	286.68	37.58	-40.8	-43.4	12.4	1.91e-04	0	62	0	1248854016	52	5073
2026-01-25 10:56:30.87	287.08	37.48	-40.5	-43.1	12.8	6.02e-05	0	62	0	1251999744	52	4876
2026-01-25 10:56:31.88	287.47	37.38	-40.4	-42.8	12.9	4.95e-05	0	62	0	1255145472	52	4753
2026-01-25 10:56:32.89	287.87	37.28	-40.4	-42.9	12.9	5.26e-05	0	62	0	1258291200	52	4787
2026-01-25 10:56:33.90	288.26	37.18	-40.4	-42.9	13.0	3.66e-05	0	62	0	1261436928	52	4766
2026-01-25 10:56:34.91	288.65	37.08	-40.4	-42.9	13.0	5.26e-05	0	62	0	1264582656	52	4801
2026-01-25 10:56:35.92	289.04	36.97	-40.5	-43.0	12.9	3.43e-05	0	62	0	1267728384	52	4819
2026-01-25 10:56:36.93	289.42	36.87	-40.3	-42.8	13.1	3.28e-05	0	62	0	1270874112	52	4727
2026-01-25 10:56:37.94	289.81	36.76	-40.3	-42.7	13.1	2.97e-05	0	62	0	1274019840	52	4693
2026-01-25 10:56:38.95	290.19	36.66	-40.3	-42.7	13.1	2.82e-05	0	62	0	1277165568	52	4665
2026-01-25 10:56:39.96	290.57	36.55	-40.1	-42.4	13.4	1.67e-05	0	62	0	1280311296	52	4540
2026-01-25 10:56:40.97	290.94	36.44	-40.1	-42.5	13.3	9.90e-06	0	62	0	1283457024	52	4573
2026-01-25 10:56:41.98	291.31	36.33	-40.3	-42.7	13.0	1.37e-05	0	62	0	1286602752	52	4702
2026-01-25 10:56:42.99	291.68	36.22	-40.4	-43.0	12.9	4.73e-05	0	62	0	1289748480	52	4819
2026-01-25 10:56:44.00	292.05	36.11	-40.5	-43.1	12.7	7.01e-05	0	62	0	1292894208	52	4904
2026-01-25 10:56:45.01	292.42	36.00	-40.5	-43.1	12.8	7.17e-05	0	62	0	1296039936	52	4882
2026-01-25 10:56:46.02	292.78	35.88	-40.4	-42.9	13.0	5.03e-05	0	62	0	1299185664	52	4771
2026-01-25 10:56:47.03	293.14	35.77	-40.3	-42.8	13.0	3.81e-05	0	62	0	1302331392	52	4733
2026-01-25 10:56:48.04	293.50	35.65	-40.3	-42.8	13.0	3.66e-05	0	62	0	1305477120	52	4736
2026-01-25 10:56:49.05	293.86	35.54	-40.3	-42.7	13.1	3.05e-05	0	62	0	1308622848	52	4677
2026-01-25 10:56:50.06	294.21	35.42	-40.3	-42.7	13.1	3.35e-05	0	62	0	1311768576	52	4697
2026-01-25 10:56:51.07	294.56	35.30	-40.4	-42.9	12.9	3.89e-05	0	62	0	1314914304	52	4782
2026-01-25 10:56:52.08	294.91	35.19	-40.4	-42.9	12.9	4.73e-05	0	62	0	1318060032	52	4814
2026-01-25 10:56:53.09	295.25	35.07	-40.3	-42.8	13.1	3.50e-05	0	62	0	1321205760	52	4727
2026-01-25 10:56:54.10	295.60	34.95	-40.2	-42.6	13.3	2.05e-05	0	62	0	1324351488	52	4624
2026-01-25 10:56:55.11	295.94	34.83	-40.2	-42.5	13.3	2.21e-05	0	62	0	1327497216	52	4586
2026-01-25 10:56:56.12	296.28	34.71	-40.2	-42.6	13.2	2.28e-05	0	62	0	1330642944	52	4624
2026-01-25 10:56:57.13	296.61	34.59	-40.2	-42.6	13.2	2.21e-05	0	62	0	1333788672	52	4615
2026-01-25 10:56:58.15	296.95	34.46	-40.1	-42.5	13.3	1.67e-05	0	62	0	1336934400	52	4577
2026-01-25 10:56:59.16	297.28	34.34	-40.2	-42.6	13.3	2.05e-05	0	62	0	1340080128	52	4617
2026-01-25 10:57:00.17	297.61	34.22	-40.2	-42.6	13.3	1.44e-05	0	62	0	1343225856	52	4631
2026-01-25 10:57:01.18	297.93	34.10	-40.2	-42.6	13.3	2.21e-05	0	62	0	1346371584	52	4639
2026-01-25 10:57:02.19	298.26	33.97	-40.3	-42.8	13.1	2.28e-05	0	62	0	1349517312	52	4713
2026-01-25 10:57:03.20	298.58	33.85	-40.5	-43.1	12.8	5.34e-05	0	62	0	1352663040	52	4893
2026-01-25 10:57:04.21	298.90	33.72	-40.4	-42.9	12.9	5.34e-05	0	62	0	1355808768	52	4810
2026-01-25 10:57:05.22	299.21	33.60	-40.4	-42.9	13.0	3.89e-05	0	62	0	1358954496	52	4776
2026-01-25 10:57:06.23	299.53	33.47	-40.3	-42.8	13.1	4.34e-05	0	62	0	1362100224	52	4723
2026-01-25 10:57:07.24	299.84	33.34	-40.3	-42.7	13.1	2.21e-05	0	62	0	1365245952	52	4700
2026-01-25 10:57:08.24	300.14	33.22	-40.2	-42.6	13.2	1.98e-05	0	62	0	1368391680	52	4622
2026-01-25 10:57:09.26	300.45	33.09	-40.2	-42.7	13.2	1.98e-05	0	62	0	1371537408	52	4660
2026-01-25 10:57:10.27	300.76	32.96	-40.1	-42.4	13.4	2.21e-05	0	62	0	1374683136	52	4539
2026-01-25 10:57:11.28	301.06	32.84	-40.0	-42.3	13.6	5.30e-06	0	62	0	1377828864	52	4442
2026-01-25 10:57:12.29	301.36	32.71	-39.9	-42.1	13.8	5.30e-06	0	62	0	1380974592	51	4641
2026-01-25 10:57:13.30	301.65	32.58	-39.9	-42.1	13.9	7.00e-07	0	62	0	1384120320	51	4628
2026-01-25 10:57:14.31	301.95	32.45	-39.9	-42.1	13.8	3.80e-06	0	62	0	1387266048	51	4648
2026-01-25 10:57:15.32	302.24	32.32	-39.8	-42.0	13.9	2.20e-06	0	62	0	1390411776	51	4586
2026-01-25 10:57:16.33	302.53	32.19	-39.8	-42.1	13.8	3.00e-06	0	62	0	1393557504	51	4604
2026-01-25 10:57:17.34	302.82	32.06	-39.8	-42.0	13.9	3.00e-06	0	62	0	1396703232	51	4581
2026-01-25 10:57:18.35	303.11	31.94	-39.8	-42.0	13.9	2.20e-06	0	62	0	1399848960	51	4594
2026-01-25 10:57:19.36	303.39	31.81	-39.8	-41.9	13.9	1.50e-06	0	62	0	1402994688	51	4541
2026-01-25 10:57:20.37	303.67	31.68	-39.8	-41.9	13.9	1.50e-06	0	62	0	1406140416	51	4542
2026-01-25 10:57:21.38	303.95	31.55	-40.0	-42.2	13.7	8.30e-06	0	62	0	1409286144	51	4694
2026-01-25 10:57:22.39	304.23	31.42	-40.0	-42.2	13.7	6.80e-06	0	62	0	1412431872	51	4693
2026-01-25 10:57:23.40	304.50	31.29	-40.0	-42.3	13.6	3.80e-06	0	62	0	1415577600	51	4727
2026-01-25 10:57:24.40	304.77	31.16	-40.1	-42.5	13.4	1.14e-05	0	62	0	1418723328	51	4830
2026-01-25 10:57:25.41	305.04	31.03	-40.0	-42.3	13.5	1.29e-05	0	62	0	1421869056	51	4757
2026-01-25 10:57:26.42	305.31	30.90	-40.2	-42.5	13.4	7.60e-06	0	62	0	1425014784	51	4847
2026-01-25 10:57:27.43	305.58	30.76	-40.2	-42.5	13.3	1.67e-05	0	62	0	1428160512	51	4862
2026-01-25 10:57:28.44	305.84	30.63	-40.3	-42.7	13.2	2.13e-05	0	62	0	1431306240	51	4960
2026-01-25 10:57:29.45	306.10	30.50	-40.3	-42.8	13.1	3.50e-05	0	62	0	1434451968	51	4990
2026-01-25 10:57:30.46	306.36	30.37	-40.3	-42.7	13.2	2.28e-05	0	62	0	1437597696	51	4948
2026-01-25 10:57:31.47	306.62	30.24	-40.3	-42.7	13.2	1.90e-05	0	62	0	1440743424	51	4971
2026-01-25 10:57:32.48	306.88	30.11	-40.3	-42.7	13.2	1.98e-05	0	62	0	1443889152	51	4979
2026-01-25 10:57:33.49	307.13	29.98	-40.3	-42.7	13.2	2.97e-05	0	62	0	1447034880	51	4949
2026-01-25 10:57:34.50	307.38	29.85	-40.2	-42.7	13.2	1.83e-05	0	62	0	1450180608	51	4943
2026-01-25 10:57:35.51	307.63	29.72	-40.3	-42.8	13.1	3.12e-05	0	62	0	1453326336	51	4987
2026-01-25 10:57:36.52	307.88	29.59	-40.2	-42.6	13.2	2.67e-05	0	62	0	1456472064	51	4900
2026-01-25 10:57:37.53	308.13	29.46	-40.1	-42.5	13.4	1.83e-05	0	62	0	1459617792	51	4823
2026-01-25 10:57:38.54	308.37	29.33	-40.1	-42.4	13.5	1.22e-05	0	62	0	1462763520	51	4787
2026-01-25 10:57:39.55	308.61	29.20	-40.0	-42.2	13.6	9.10e-06	0	62	0	1465909248	51	4699
2026-01-25 10:57:40.56	308.85	29.06	-39.9	-42.1	13.8	3.80e-06	0	62	0	1469054976	51	4634
2026-01-25 10:57:41.57	309.09	28.93	-39.9	-42.1	13.7	3.00e-06	0	62	0	1472200704	51	4640
2026-01-25 10:57:42.58	309.33	28.80	-39.8	-42.0	13.8	5.30e-06	0	62	0	1475346432	51	4587
2026-01-25 10:57:43.59	309.56	28.67	-39.8	-42.0	13.9	4.50e-06	0	62	0	1478492160	51	4556
2026-01-25 10:57:44.60	309.79	28.54	-39.8	-42.1	13.8	1.50e-06	0	62	0	1481637888	51	4604
2026-01-25 10:57:45.61	310.02	28.41	-39.8	-42.0	13.9	5.30e-06	0	62	0	1484783616	51	4552
2026-01-25 10:57:46.62	310.25	28.28	-39.8	-42.0	13.9	2.20e-06	0	62	0	1487929344	51	4565
2026-01-25 10:57:47.63	310.48	28.15	-39.8	-42.0	13.9	3.00e-06	0	62	0	1491075072	51	4553
2026-01-25 10:57:48.64	310.70	28.02	-39.8	-42.0	13.8	6.10e-06	0	62	0	1494220800	51	4598
2026-01-25 10:57:49.64	310.93	27.90	-39.8	-42.0	13.9	4.50e-06	0	62	0	1497366528	51	4557
2026-01-25 10:57:50.65	311.15	27.77	-39.6	-41.8	14.1	2.20e-06	0	62	0	1501560832	51	4451
2026-01-25 10:57:51.67	311.37	27.64	-39.5	-41.6	14.2	7.00e-07	0	62	0	1503657984	50	4608
2026-01-25 10:57:52.68	311.59	27.51	-39.4	-41.5	14.3	3.00e-06	0	62	0	1506803712	50	4589
2026-01-25 10:57:53.69	311.80	27.38	-39.4	-41.4	14.4	2.20e-06	0	62	0	1509949440	50	4537
2026-01-25 10:57:54.69	312.02	27.25	-39.3	-41.3	14.5	1.50e-06	0	62	0	1513095168	50	4483
2026-01-25 10:57:55.70	312.23	27.12	-39.3	-41.3	14.5	7.00e-07	0	62	0	1517289472	50	4466
2026-01-25 10:57:56.71	312.44	26.99	-39.3	-41.4	14.5	0.00e+00	0	62	0	1520435200	50	4497
2026-01-25 10:57:57.72	312.65	26.87	-39.4	-41.5	14.3	1.50e-06	0	62	0	1523580928	50	4553
2026-01-25 10:57:58.73	312.86	26.74	-39.4	-41.5	14.3	2.20e-06	0	62	0	1526726656	50	4568
2026-01-25 10:57:59.74	313.07	26.61	-39.3	-41.4	14.5	7.00e-07	0	62	0	1528823808	50	4504
2026-01-25 10:58:00.75	313.27	26.48	-39.3	-41.3	14.5	0.00e+00	0	62	0	1533018112	50	4474
2026-01-25 10:58:01.76	313.47	26.36	-39.3	-41.3	14.5	0.00e+00	0	62	0	1536163840	50	4486
2026-01-25 10:58:02.77	313.68	26.23	-39.2	-41.3	14.6	0.00e+00	0	62	0	1539309568	50	4444
2026-01-25 10:58:03.78	313.88	26.10	-39.3	-41.4	14.4	0.00e+00	0	62	0	1542455296	50	4494
2026-01-25 10:58:04.79	314.07	25.98	-39.2	-41.2	14.6	7.00e-07	0	62	0	1545601024	50	4399
2026-01-25 10:58:05.80	314.27	25.85	-39.2	-41.2	14.6	0.00e+00	0	62	0	1548746752	50	4417
2026-01-25 10:58:06.80	314.46	25.73	-39.2	-41.2	14.5	0.00e+00	0	62	0	1551892480	50	4440
2026-01-25 10:58:07.81	314.66	25.60	-39.2	-41.3	14.5	0.00e+00	0	62	0	1555038208	50	4446
2026-01-25 10:58:08.82	314.85	25.47	-39.1	-41.1	14.7	7.00e-07	0	62	0	1558183936	50	4388
2026-01-25 10:58:09.83	315.04	25.35	-39.1	-41.1	14.7	0.00e+00	0	62	0	1561329664	50	4373
2026-01-25 10:58:10.84	315.23	25.22	-39.1	-41.1	14.7	1.50e-06	0	62	0	1564475392	50	4371
2026-01-25 10:58:11.85	315.42	25.10	-39.1	-41.1	14.7	0.00e+00	0	62	0	1567621120	50	4363
2026-01-25 10:58:12.86	315.61	24.98	-39.0	-41.0	14.8	7.00e-07	0	62	0	1570766848	50	4314
2026-01-25 10:58:13.87	315.79	24.85	-39.1	-41.1	14.7	7.00e-07	0	62	0	1573912576	50	4354
2026-01-25 10:58:14.88	315.98	24.73	-39.1	-41.1	14.7	1.50e-06	0	62	0	1577058304	50	4373
2026-01-25 10:58:15.89	316.16	24.60	-39.1	-41.0	14.7	0.00e+00	0	62	0	1580204032	50	4328
2026-01-25 10:58:16.91	316.34	24.48	-39.0	-41.0	14.8	0.00e+00	0	62	0	1583349760	50	4305
2026-01-25 10:58:17.91	316.52	24.36	-39.1	-41.1	14.7	0.00e+00	0	62	0	1586495488	50	4344
2026-01-25 10:58:18.92	316.70	24.24	-39.1	-41.1	14.6	0.00e+00	0	62	0	1589641216	50	4371
2026-01-25 10:58:19.93	316.87	24.11	-39.2	-41.2	14.5	7.00e-07	0	62	0	1592786944	50	4401
2026-01-25 10:58:20.94	317.05	23.99	-39.2	-41.3	14.4	0.00e+00	0	62	0	1595932672	50	4446
2026-01-25 10:58:21.95	317.22	23.87	-39.2	-41.3	14.5	0.00e+00	0	62	0	1599078400	50	4444
2026-01-25 10:58:22.96	317.40	23.75	-39.2	-41.3	14.5	0.00e+00	0	62	0	1602224128	50	4452
2026-01-25 10:58:23.97	317.57	23.63	-39.1	-41.2	14.6	0.00e+00	0	62	0	1605369856	50	4395
2026-01-25 10:58:24.98	317.74	23.51	-39.1	-41.1	14.6	0.00e+00	0	62	0	1608515584	50	4388
2026-01-25 10:58:25.99	317.91	23.39	-39.2	-41.2	14.6	7.00e-07	0	62	0	1611661312	50	4392
2026-01-25 10:58:27.00	318.08	23.27	-39.2	-41.2	14.5	0.00e+00	0	62	0	1614807040	50	4413
2026-01-25 10:58:28.01	318.24	23.15	-39.2	-41.3	14.4	0.00e+00	0	62	0	1617952768	50	4460
2026-01-25 10:58:29.02	318.41	23.03	-39.3	-41.4	14.3	7.00e-07	0	62	0	1621098496	50	4533
2026-01-25 10:58:30.03	318.57	22.91	-39.4	-41.5	14.2	1.50e-06	0	62	0	1624244224	50	4552
2026-01-25 10:58:31.04	318.73	22.79	-39.4	-41.6	14.1	1.50e-06	0	62	0	1627389952	50	4608
2026-01-25 10:58:32.05	318.90	22.67	-39.4	-41.6	14.2	2.20e-06	0	62	0	1630535680	50	4609
2026-01-25 10:58:33.06	319.06	22.55	-39.5	-41.6	14.1	2.20e-06	0	62	0	1633681408	50	4636
2026-01-25 10:58:34.07	319.22	22.43	-39.6	-41.7	14.0	3.80e-06	0	62	0	1636827136	50	4694
2026-01-25 10:58:35.08	319.37	22.32	-39.7	-41.9	13.8	6.80e-06	0	62	0	1639972864	50	4808
2026-01-25 10:58:36.09	319.53	22.20	-39.7	-41.9	13.8	2.20e-06	0	62	0	1643118592	50	4781
2026-01-25 10:58:37.10	319.69	22.08	-39.8	-42.1	13.7	1.50e-06	0	62	0	1646264320	50	4873
2026-01-25 10:58:38.11	319.84	21.96	-39.8	-42.1	13.6	6.10e-06	0	62	0	1649410048	50	4891
2026-01-25 10:58:39.12	319.99	21.85	-39.8	-42.1	13.6	7.60e-06	0	62	0	1652555776	50	4902
2026-01-25 10:58:40.13	320.15	21.73	-39.8	-42.1	13.6	9.10e-06	0	62	0	1655701504	50	4889
2026-01-25 10:58:41.14	320.30	21.62	-39.9	-42.2	13.5	8.30e-06	0	62	0	1658847232	50	4936
2026-01-25 10:58:42.16	320.45	21.50	-39.7	-42.0	13.7	6.80e-06	0	62	0	1661992960	50	4832
2026-01-25 10:58:43.17	320.60	21.39	-39.8	-42.0	13.6	6.10e-06	0	62	0	1665138688	50	4860
2026-01-25 10:58:44.18	320.75	21.27	-39.7	-42.0	13.7	7.60e-06	0	62	0	1668284416	50	4827
2026-01-25 10:58:45.19	320.89	21.16	-39.7	-42.0	13.7	5.30e-06	0	62	0	1671430144	50	4854
2026-01-25 10:58:46.19	321.04	21.04	-39.7	-42.0	13.7	6.80e-06	0	62	0	1674575872	50	4840
2026-01-25 10:58:47.20	321.18	20.93	-39.7	-41.9	13.7	7.60e-06	0	62	0	1677721600	50	4785
2026-01-25 10:58:48.21	321.33	20.82	-39.7	-41.9	13.7	7.60e-06	0	62	0	1680867328	50	4808
2026-01-25 10:58:49.22	321.47	20.70	-39.7	-42.0	13.7	4.50e-06	0	62	0	1684013056	50	4817
2026-01-25 10:58:50.23	321.61	20.59	-39.6	-41.8	13.9	6.80e-06	0	62	0	1687158784	50	4712
2026-01-25 10:58:51.24	321.75	20.48	-39.4	-41.6	14.2	3.80e-06	0	62	0	1690304512	50	4601
2026-01-25 10:58:52.25	321.89	20.37	-39.4	-41.5	14.1	1.50e-06	0	62	0	1693450240	50	4594
2026-01-25 10:58:53.26	322.03	20.26	-39.3	-41.4	14.2	1.50e-06	0	62	0	1696595968	50	4533
2026-01-25 10:58:54.27	322.17	20.14	-39.3	-41.3	14.3	7.00e-07	0	62	0	1699741696	50	4486
2026-01-25 10:58:55.28	322.31	20.03	-39.3	-41.4	14.3	0.00e+00	0	62	0	1702887424	50	4495
2026-01-25 10:58:56.29	322.44	19.92	-39.3	-41.3	14.3	7.00e-07	0	62	0	1706033152	50	4486
2026-01-25 10:58:57.30	322.58	19.81	-39.3	-41.4	14.2	0.00e+00	0	62	0	1709178880	50	4508
2026-01-25 10:58:58.31	322.71	19.70	-39.3	-41.4	14.2	7.00e-07	0	62	0	1712324608	50	4506
2026-01-25 10:58:59.32	322.85	19.59	-39.2	-41.3	14.3	7.00e-07	0	62	0	1715470336	50	4480
2026-01-25 10:59:00.33	322.98	19.48	-39.2	-41.3	14.2	3.80e-06	0	62	0	1718616064	50	4489
2026-01-25 10:59:01.34	323.11	19.38	-39.3	-41.4	14.3	1.50e-06	0	62	0	1721761792	50	4503
2026-01-25 10:59:02.35	323.24	19.27	-39.2	-41.3	14.3	1.50e-06	0	62	0	1724907520	50	4484
2026-01-25 10:59:03.36	323.37	19.16	-39.3	-41.4	14.3	1.50e-06	0	62	0	1728053248	50	4509
2026-01-25 10:59:04.37	323.50	19.05	-39.3	-41.4	14.2	2.20e-06	0	62	0	1731198976	50	4544
2026-01-25 10:59:05.38	323.63	18.94	-39.4	-41.5	14.1	3.00e-06	0	62	0	1734344704	50	4571
2026-01-25 10:59:06.39	323.75	18.84	-39.4	-41.6	14.0	7.00e-07	0	62	0	1737490432	50	4621
2026-01-25 10:59:07.40	323.88	18.73	-39.5	-41.7	14.0	7.00e-07	0	62	0	1740636160	50	4654
2026-01-25 10:59:08.41	324.01	18.62	-39.4	-41.5	14.1	2.20e-06	0	62	0	1743781888	50	4588
2026-01-25 10:59:09.42	324.13	18.52	-39.4	-41.6	14.0	1.50e-06	0	62	0	1746927616	50	4599
2026-01-25 10:59:10.42	324.25	18.41	-39.5	-41.7	13.9	0.00e+00	0	62	0	1750073344	50	4652
2026-01-25 10:59:11.44	324.38	18.31	-39.4	-41.6	14.0	2.20e-06	0	62	0	1753219072	50	4608
2026-01-25 10:59:12.45	324.50	18.20	-39.4	-41.6	13.9	3.00e-06	0	62	0	1756364800	50	4647
2026-01-25 10:59:13.46	324.62	18.10	-39.4	-41.6	14.0	3.00e-06	0	62	0	1759510528	50	4606
2026-01-25 10:59:14.47	324.74	17.99	-39.4	-41.5	14.0	2.20e-06	0	62	0	1762656256	50	4596
2026-01-25 10:59:15.48	324.86	17.89	-39.4	-41.5	14.0	3.80e-06	0	62	0	1765801984	50	4596
2026-01-25 10:59:16.49	324.98	17.78	-39.4	-41.5	14.0	2.20e-06	0	62	0	1768947712	50	4569
2026-01-25 10:59:17.50	325.10	17.68	-39.4	-41.6	14.0	2.20e-06	0	62	0	1772093440	50	4614
2026-01-25 10:59:18.51	325.21	17.58	-39.4	-41.6	14.0	3.80e-06	0	62	0	1775239168	50	4606
2026-01-25 10:59:19.52	325.33	17.47	-39.4	-41.5	14.0	7.00e-07	0	62	0	1778384896	50	4594
2026-01-25 10:59:20.53	325.45	17.37	-39.4	-41.6	13.9	2.20e-06	0	62	0	1781530624	50	4639
2026-01-25 10:59:21.54	325.56	17.27	-39.5	-41.7	13.8	8.30e-06	0	62	0	1784676352	50	4694
2026-01-25 10:59:22.55	325.67	17.17	-39.5	-41.7	13.8	3.00e-06	0	62	0	1787822080	50	4683
2026-01-25 10:59:23.56	325.79	17.06	-39.5	-41.8	13.7	8.30e-06	0	62	0	1790967808	50	4725
2026-01-25 10:59:24.57	325.90	16.96	-39.6	-41.8	13.7	3.80e-06	0	62	0	1794113536	50	4750
2026-01-25 10:59:25.58	326.01	16.86	-39.5	-41.8	13.7	6.80e-06	0	62	0	1797259264	50	4728
2026-01-25 10:59:26.59	326.12	16.76	-39.6	-41.9	13.6	8.30e-06	0	62	0	1800404992	50	4774
2026-01-25 10:59:27.60	326.23	16.66	-39.6	-41.9	13.6	1.06e-05	0	62	0	1803550720	50	4766
2026-01-25 10:59:28.60	326.34	16.56	-39.6	-41.8	13.6	1.06e-05	0	62	0	1806696448	50	4752
2026-01-25 10:59:29.61	326.45	16.46	-39.6	-41.9	13.6	1.37e-05	0	62	0	1809842176	50	4786
2026-01-25 10:59:30.63	326.56	16.36	-39.7	-42.0	13.5	6.10e-06	0	62	0	1812987904	50	4817
2026-01-25 10:59:31.63	326.67	16.26	-39.7	-42.0	13.5	1.29e-05	0	62	0	1816133632	50	4833
2026-01-25 10:59:32.65	326.78	16.16	-39.7	-42.1	13.4	2.05e-05	0	62	0	1819279360	50	4874
2026-01-25 10:59:33.66	326.88	16.07	-39.8	-42.2	13.3	2.21e-05	0	62	0	1822425088	50	4933
2026-01-25 10:59:34.66	326.99	15.97	-39.8	-42.3	13.2	2.36e-05	0	62	0	1825570816	50	4988
2026-01-25 10:59:35.67	327.09	15.87	-39.9	-42.4	13.0	3.58e-05	0	62	0	1828716544	50	5077
2026-01-25 10:59:36.68	327.20	15.77	-39.9	-42.4	13.0	4.65e-05	0	62	0	1831862272	50	5065
2026-01-25 10:59:37.69	327.30	15.68	-40.0	-42.4	13.0	3.43e-05	0	62	0	1835008000	50	5082
2026-01-25 10:59:38.70	327.40	15.58	-39.9	-42.4	13.0	4.73e-05	0	62	0	1839202304	50	5082
2026-01-25 10:59:39.71	327.51	15.48	-39.9	-42.4	13.0	3.66e-05	0	62	0	1842348032	50	5054
2026-01-25 10:59:40.72	327.61	15.39	-39.9	-42.3	13.0	1.90e-05	0	62	0	1844445184	50	5027
2026-01-25 10:59:41.73	327.71	15.29	-39.9	-42.4	13.0	4.34e-05	0	62	0	1847590912	50	5067
2026-01-25 10:59:42.74	327.81	15.19	-40.0	-42.5	12.9	4.65e-05	0	62	0	1850736640	50	5112
2026-01-25 10:59:43.75	327.91	15.10	-40.0	-42.5	12.9	4.80e-05	0	62	0	1854930944	50	5137
2026-01-25 10:59:44.76	328.01	15.00	-40.0	-42.5	12.9	5.34e-05	0	62	0	1858076672	50	5123
2026-01-25 10:59:45.77	328.11	14.91	-40.0	-42.5	12.8	6.63e-05	0	62	0	1861222400	50	5153
2026-01-25 10:59:46.78	328.21	14.81	-40.0	-42.5	12.9	4.73e-05	0	62	0	1864368128	50	5129
2026-01-25 10:59:47.79	328.31	14.72	-40.0	-42.6	12.8	6.02e-05	0	62	0	1866465280	50	5162
2026-01-25 10:59:48.80	328.40	14.63	-40.0	-42.5	12.9	4.11e-05	0	62	0	1870659584	50	5129
2026-01-25 10:59:49.82	328.50	14.53	-39.9	-42.4	13.0	3.20e-05	0	62	0	1873805312	50	5069
2026-01-25 10:59:50.82	328.59	14.44	-40.0	-42.5	12.9	4.04e-05	0	62	0	1876951040	50	5134
2026-01-25 10:59:51.84	328.69	14.35	-39.9	-42.3	13.0	4.57e-05	0	62	0	1880096768	50	5029
2026-01-25 10:59:52.85	328.79	14.25	-39.8	-42.3	13.1	3.81e-05	0	62	0	1883242496	50	4998
2026-01-25 10:59:53.86	328.88	14.16	-39.9	-42.4	13.0	3.35e-05	0	62	0	1886388224	50	5052
2026-01-25 10:59:54.86	328.97	14.07	-39.9	-42.3	13.0	3.96e-05	0	62	0	1889533952	50	5041
2026-01-25 10:59:55.87	329.07	13.98	-39.9	-42.4	12.9	3.96e-05	0	62	0	1892679680	50	5050
2026-01-25 10:59:56.88	329.16	13.89	-39.9	-42.5	12.9	4.65e-05	0	62	0	1895825408	50	5116
2026-01-25 10:59:57.89	329.25	13.79	-40.0	-42.6	12.8	5.41e-05	0	62	0	1898971136	50	5166
2026-01-25 10:59:58.90	329.34	13.70	-40.0	-42.5	12.8	6.48e-05	0	62	0	1902116864	50	5158
2026-01-25 10:59:59.91	329.43	13.61	-39.9	-42.4	12.9	4.95e-05	0	62	0	1905262592	50	5062
2026-01-25 11:00:00.92	329.52	13.52	-40.0	-42.5	12.8	6.17e-05	0	62	0	1908408320	50	5131
2026-01-25 11:00:01.93	329.61	13.43	-40.0	-42.6	12.7	8.16e-05	0	62	0	1911554048	50	5194
2026-01-25 11:00:02.94	329.70	13.34	-40.1	-42.7	12.6	1.17e-04	0	62	0	1914699776	50	5233
2026-01-25 11:00:03.95	329.79	13.25	-40.0	-42.6	12.6	8.08e-05	0	62	0	1917845504	50	5206
2026-01-25 11:00:04.96	329.88	13.16	-40.1	-42.7	12.5	1.01e-04	0	62	0	1920991232	50	5247
2026-01-25 11:00:05.98	329.97	13.07	-40.0	-42.6	12.7	8.69e-05	0	62	0	1924136960	50	5171
2026-01-25 11:00:06.98	330.06	12.98	-40.1	-42.7	12.5	1.08e-04	0	62	0	1927282688	50	5252
2026-01-25 11:00:07.99	330.14	12.90	-40.1	-42.7	12.4	1.46e-04	0	62	0	1930428416	50	5278
2026-01-25 11:00:09.00	330.23	12.81	-40.0	-42.6	12.6	1.18e-04	0	62	0	1933574144	50	5208
2026-01-25 11:00:10.01	330.31	12.72	-40.1	-42.7	12.5	1.14e-04	0	62	0	1936719872	50	5251
2026-01-25 11:00:11.02	330.40	12.63	-40.1	-42.7	12.4	1.56e-04	0	62	0	1939865600	50	5255
2026-01-25 11:00:12.03	330.48	12.54	-40.1	-42.8	12.4	1.28e-04	0	62	0	1943011328	50	5285
2026-01-25 11:00:13.04	330.57	12.46	-40.1	-42.8	12.3	1.50e-04	0	62	0	1946157056	50	5308
2026-01-25 11:00:14.05	330.65	12.37	-40.2	-42.9	12.3	2.08e-04	0	62	0	1949302784	50	5347
2026-01-25 11:00:15.06	330.74	12.28	-40.1	-42.8	12.4	1.54e-04	0	62	0	1952448512	50	5291
2026-01-25 11:00:16.07	330.82	12.20	-40.2	-42.9	12.2	1.92e-04	0	62	0	1955594240	50	5359
2026-01-25 11:00:17.08	330.90	12.11	-40.1	-42.9	12.3	2.09e-04	0	62	0	1958739968	51	5044
2026-01-25 11:00:18.09	330.98	12.02	-40.1	-42.7	12.3	1.64e-04	0	62	0	1961885696	51	4978
2026-01-25 11:00:19.10	331.07	11.94	-40.1	-42.8	12.3	1.86e-04	0	62	0	1965031424	51	5013
2026-01-25 11:00:20.11	331.15	11.85	-40.1	-42.8	12.3	1.85e-04	0	62	0	1968177152	51	5018
2026-01-25 11:00:21.12	331.23	11.77	-40.1	-42.7	12.4	1.75e-04	0	62	0	1971322880	51	4981
2026-01-25 11:00:22.13	331.31	11.68	-40.1	-42.8	12.3	1.69e-04	0	62	0	1974468608	51	5004
2026-01-25 11:00:23.14	331.39	11.60	-40.1	-42.8	12.3	1.73e-04	0	62	0	1977614336	51	4992
2026-01-25 11:00:24.14	331.47	11.51	-40.1	-42.8	12.3	1.62e-04	0	62	0	1980760064	51	5023
2026-01-25 11:00:25.15	331.55	11.43	-40.1	-42.9	12.2	2.04e-04	0	62	0	1983905792	51	5046
2026-01-25 11:00:26.16	331.62	11.35	-40.1	-42.8	12.3	1.81e-04	0	62	0	1987051520	51	5019
2026-01-25 11:00:27.17	331.70	11.26	-40.1	-42.8	12.3	1.98e-04	0	62	0	1990197248	51	5001
2026-01-25 11:00:28.18	331.78	11.18	-40.1	-42.8	12.2	2.43e-04	0	62	0	1993342976	51	5036
2026-01-25 11:00:29.19	331.86	11.09	-40.1	-42.8	12.2	2.05e-04	0	62	0	1996488704	51	5028
2026-01-25 11:00:30.20	331.93	11.01	-40.1	-42.8	12.3	1.94e-04	0	62	0	1999634432	51	4986
2026-01-25 11:00:31.21	332.01	10.93	-40.1	-42.9	12.2	2.25e-04	0	62	0	2002780160	51	5044
2026-01-25 11:00:32.22	332.09	10.85	-40.1	-42.8	12.3	1.98e-04	0	62	0	2005925888	51	4992
2026-01-25 11:00:33.23	332.16	10.76	-40.1	-42.9	12.2	1.82e-04	0	62	0	2009071616	51	5045
2026-01-25 11:00:34.23	332.24	10.68	-40.1	-42.9	12.2	2.27e-04	0	62	0	2012217344	51	5061
2026-01-25 11:00:35.25	332.31	10.60	-40.1	-42.9	12.1	2.49e-04	0	62	0	2015363072	51	5090
2026-01-25 11:00:36.26	332.39	10.52	-40.2	-43.0	12.1	2.57e-04	0	62	0	2018508800	51	5108
2026-01-25 11:00:37.26	332.46	10.44	-40.2	-43.0	12.0	3.45e-04	0	62	0	2021654528	51	5150
2026-01-25 11:00:38.27	332.54	10.36	-40.2	-43.1	11.9	3.54e-04	0	62	0	2024800256	51	5165
2026-01-25 11:00:39.29	332.61	10.27	-40.3	-43.2	11.8	5.21e-04	0	62	0	2027945984	51	5255
2026-01-25 11:00:40.30	332.68	10.19	-40.4	-43.3	11.6	6.19e-04	0	62	0	2031091712	51	5328
2026-01-25 11:00:41.30	332.75	10.11	-40.4	-43.4	11.6	6.15e-04	0	62	0	2034237440	51	5342
2026-01-25 11:00:42.31	332.83	10.03	-40.4	-43.4	11.5	8.15e-04	0	62	0	2037383168	51	5391
2026-01-25 11:00:43.32	332.90	9.95	-40.5	-43.6	11.3	1.06e-03	0	62	0	2040528896	51	5467
2026-01-25 11:00:44.33	332.97	9.87	-40.5	-43.7	11.2	1.19e-03	0	62	0	2043674624	51	5535
2026-01-25 11:00:45.34	333.04	9.79	-40.5	-43.7	11.2	1.47e-03	0	62	0	2046820352	51	5571
2026-01-25 11:00:46.35	333.11	9.72	-40.6	-43.8	11.1	1.75e-03	0	62	0	2049966080	51	5598
2026-01-25 11:00:47.36	333.18	9.64	-40.6	-43.8	11.0	1.67e-03	0	62	0	2053111808	51	5637
2026-01-25 11:00:48.37	333.25	9.56	-40.6	-43.9	10.9	2.12e-03	0	62	0	2056257536	51	5687
