passes_logs/2026/01/25/R2.0S_Moscow/R2.0S_Moscow__20260125_103605_FENGYUN_3D_rec.log

#Pass ID: 20260125_103605_FENGYUN 3D
#Satellite: FENGYUN 3D
#Configuration: FENGYUN 3D
#almurnet v.1.7.20251203
#Start time: 2026-01-25 10:36:06

#Version: 2.2.20231116
#Station: R2.0S_Moscow
#Location: 37.707566 lon 55.798166 lat
#TLE: 1 43010U 17072A   26024.51794477  .00000040  00000+0  40682-4 0  9990
#TLE: 2 43010  98.9961 356.4820 0002494  91.2631 268.8830 14.19699550424601

#Time	Az	El	Level	Level2	SNR	BER	BlckErr	Temp	State	Recorded	gain1	gain2
2026-01-25 10:36:06.44	120.02	2.03	-22.5	-38.8	4.2	8.10e-01	0	52	0	0	16	23606
2026-01-25 10:36:07.45	119.96	2.09	-19.6	-30.9	3.8	8.01e-01	0	52	104	0	14	10697
2026-01-25 10:36:08.46	119.90	2.15	-20.5	-35.3	4.1	8.08e-01	0	52	104	0	13	18793
2026-01-25 10:36:09.47	119.85	2.21	-17.9	-31.5	3.8	8.02e-01	0	52	104	0	10	14386
2026-01-25 10:36:10.48	119.79	2.27	-20.7	-37.1	4.0	8.05e-01	0	52	104	0	15	20644
2026-01-25 10:36:11.49	119.73	2.33	-22.0	-39.0	4.3	8.17e-01	0	53	104	0	17	22823
2026-01-25 10:36:12.50	119.68	2.39	-22.0	-40.6	4.1	8.08e-01	0	53	104	0	16	29128
2026-01-25 10:36:13.51	119.62	2.45	-22.9	-40.5	4.2	8.10e-01	0	53	104	0	15	30570
2026-01-25 10:36:14.52	119.56	2.51	-22.4	-39.9	4.0	7.95e-01	0	53	104	0	17	25420
2026-01-25 10:36:15.53	119.50	2.57	-19.0	-33.7	4.1	8.13e-01	0	53	104	0	12	16590
2026-01-25 10:36:16.54	119.44	2.63	-22.7	-37.9	3.8	7.97e-01	0	53	104	0	14	23926
2026-01-25 10:36:17.55	119.38	2.69	-14.7	-32.9	3.7	8.17e-01	0	53	104	0	8	18981
2026-01-25 10:36:18.56	119.33	2.75	-20.1	-35.0	3.8	8.14e-01	0	53	104	0	10	21547
2026-01-25 10:36:19.57	119.27	2.81	-20.9	-37.6	4.1	8.01e-01	0	53	104	0	16	20560
2026-01-25 10:36:20.58	119.21	2.88	-23.3	-38.5	4.4	7.98e-01	0	53	104	0	17	21706
2026-01-25 10:36:21.59	119.15	2.94	-17.3	-35.9	3.7	8.02e-01	0	53	104	0	10	24035
2026-01-25 10:36:22.60	119.09	3.00	-22.4	-40.0	4.1	8.05e-01	0	53	104	0	17	25646
2026-01-25 10:36:23.61	119.03	3.06	-21.3	-38.7	3.9	7.99e-01	0	53	104	0	15	24852
2026-01-25 10:36:24.62	118.97	3.12	-21.9	-39.5	4.0	7.99e-01	0	53	104	0	16	25584
2026-01-25 10:36:25.63	118.90	3.18	-22.6	-39.7	4.2	8.01e-01	0	54	104	0	16	26390
2026-01-25 10:36:26.64	118.84	3.24	-22.2	-39.6	4.0	8.01e-01	0	54	104	0	16	25962
2026-01-25 10:36:27.65	118.78	3.30	-20.8	-35.1	3.9	8.01e-01	0	54	104	0	13	18370
2026-01-25 10:36:28.66	118.72	3.37	-20.5	-33.6	3.8	7.95e-01	0	54	104	0	13	15517
2026-01-25 10:36:29.67	118.66	3.43	-24.0	-40.6	4.3	8.20e-01	0	54	104	0	17	27520
2026-01-25 10:36:30.68	118.60	3.49	-21.2	-38.5	4.1	8.25e-01	0	54	104	0	17	21709
2026-01-25 10:36:31.69	118.53	3.55	-21.8	-39.5	3.9	7.93e-01	0	54	104	0	14	28932
2026-01-25 10:36:32.71	118.47	3.61	-22.2	-38.4	4.0	8.10e-01	0	54	104	0	15	24052
2026-01-25 10:36:33.72	118.41	3.68	-22.8	-37.3	3.9	8.04e-01	0	54	104	0	10	28148
2026-01-25 10:36:34.73	118.34	3.74	-18.3	-35.2	4.1	8.22e-01	0	54	104	0	13	18599
2026-01-25 10:36:35.74	118.28	3.80	-19.5	-35.7	3.8	8.16e-01	0	54	104	0	10	23463
2026-01-25 10:36:36.75	118.22	3.86	-19.0	-35.6	3.6	8.16e-01	0	54	104	0	11	21822
2026-01-25 10:36:37.76	118.15	3.93	-21.2	-38.3	3.8	8.19e-01	0	54	104	0	14	25125
2026-01-25 10:36:38.77	118.09	3.99	-21.1	-38.1	4.0	8.01e-01	0	54	104	0	15	23164
2026-01-25 10:36:39.78	118.02	4.05	-18.3	-38.3	3.9	8.01e-01	0	55	104	0	15	23594
2026-01-25 10:36:40.79	117.96	4.12	-22.3	-37.2	4.1	8.07e-01	0	54	104	0	14	22050
2026-01-25 10:36:41.80	117.89	4.18	-22.1	-38.7	4.2	8.19e-01	0	55	104	0	13	27952
2026-01-25 10:36:42.81	117.83	4.24	-23.8	-39.9	3.8	8.03e-01	0	55	104	0	15	28521
2026-01-25 10:36:43.82	117.76	4.30	-22.1	-38.8	3.9	8.11e-01	0	55	104	0	15	25214
2026-01-25 10:36:44.83	117.69	4.37	-23.3	-40.0	3.8	8.10e-01	0	55	104	0	16	27370
2026-01-25 10:36:45.84	117.63	4.43	-22.1	-39.6	4.0	8.14e-01	0	55	104	0	14	29193
2026-01-25 10:36:46.85	117.56	4.50	-18.6	-31.7	3.3	8.16e-01	0	55	104	0	6	18699
2026-01-25 10:36:47.86	117.49	4.56	-20.3	-33.6	3.8	8.11e-01	0	55	104	0	13	15541
2026-01-25 10:36:48.87	117.43	4.62	-20.7	-35.1	3.9	8.05e-01	0	55	104	0	15	16382
2026-01-25 10:36:49.88	117.36	4.69	-20.8	-35.5	3.9	8.01e-01	0	55	104	0	14	18143
2026-01-25 10:36:50.89	117.29	4.75	-22.8	-38.6	4.1	8.03e-01	0	55	104	0	15	24614
2026-01-25 10:36:51.91	117.22	4.82	-22.2	-39.5	4.0	7.94e-01	0	55	104	0	14	28861
2026-01-25 10:36:52.92	117.15	4.88	-22.9	-37.5	3.8	8.08e-01	0	55	104	0	13	24380
2026-01-25 10:36:53.93	117.08	4.95	-22.2	-37.0	4.0	8.03e-01	0	55	104	0	14	21637
2026-01-25 10:36:54.94	117.02	5.01	-21.7	-36.7	3.6	8.05e-01	0	55	104	0	13	22202
2026-01-25 10:36:55.95	116.95	5.07	-21.4	-34.6	3.9	8.15e-01	0	55	104	0	13	17395
2026-01-25 10:36:56.96	116.88	5.14	-16.9	-35.1	3.9	8.14e-01	0	56	104	0	14	17459
2026-01-25 10:36:57.97	116.81	5.20	-21.5	-36.4	3.7	8.06e-01	0	56	104	0	14	20250
2026-01-25 10:36:58.98	116.74	5.27	-17.7	-33.6	3.8	8.03e-01	0	56	104	0	4	25954
2026-01-25 10:36:59.99	116.66	5.33	-15.0	-30.0	3.8	8.34e-01	0	56	0	0	4	17141
2026-01-25 10:37:01.00	116.59	5.40	-22.5	-36.8	3.8	8.23e-01	0	56	104	0	10	26621
2026-01-25 10:37:02.01	116.52	5.47	-21.2	-37.9	4.0	8.11e-01	0	56	104	0	16	21286
2026-01-25 10:37:03.02	116.45	5.53	-16.7	-31.2	4.0	8.10e-01	0	56	104	0	12	12387
2026-01-25 10:37:04.03	116.38	5.60	-19.4	-38.7	3.9	8.20e-01	0	56	104	0	16	23426
2026-01-25 10:37:05.04	116.30	5.66	-20.8	-37.6	3.8	8.13e-01	0	56	104	0	13	24609
2026-01-25 10:37:06.05	116.23	5.73	-21.6	-35.0	4.1	8.02e-01	0	56	104	0	14	17221
2026-01-25 10:37:07.06	116.16	5.79	-16.6	-28.4	3.9	7.99e-01	0	56	104	0	14	8050
2026-01-25 10:37:08.07	116.09	5.86	-21.1	-38.5	4.1	8.09e-01	0	56	104	0	16	22820
2026-01-25 10:37:09.09	116.01	5.93	-20.3	-35.3	3.4	7.99e-01	0	56	104	0	12	19958
2026-01-25 10:37:10.10	115.94	5.99	-21.9	-35.6	3.9	8.07e-01	0	56	104	0	15	17335
2026-01-25 10:37:11.11	115.86	6.06	-22.7	-38.7	3.9	8.02e-01	0	56	104	0	14	26289
2026-01-25 10:37:12.12	115.79	6.13	-23.0	-40.0	4.2	8.18e-01	0	56	104	0	16	27299
2026-01-25 10:37:13.13	115.71	6.19	-21.8	-37.0	3.9	8.04e-01	0	56	104	0	14	21691
2026-01-25 10:37:14.14	115.64	6.26	-22.3	-37.6	3.6	8.05e-01	0	56	0	0	14	23143
2026-01-25 10:37:15.15	115.56	6.33	-23.3	-38.1	4.3	8.12e-01	0	56	104	0	16	22001
2026-01-25 10:37:16.16	115.48	6.40	-22.2	-37.4	3.8	8.06e-01	0	56	0	0	15	21433
2026-01-25 10:37:17.17	115.41	6.46	-22.8	-39.2	4.1	8.18e-01	0	56	104	0	16	24721
2026-01-25 10:37:18.18	115.33	6.53	-22.1	-39.2	4.3	8.28e-01	0	57	104	0	17	23443
2026-01-25 10:37:19.19	115.25	6.60	-14.7	-25.2	3.7	8.42e-01	0	57	104	0	11	6636
2026-01-25 10:37:20.21	115.17	6.67	-22.0	-39.0	4.1	8.12e-01	0	57	0	0	17	22837
2026-01-25 10:37:21.22	115.09	6.73	-23.4	-39.7	4.3	8.09e-01	0	57	104	0	16	26423
2026-01-25 10:37:22.23	115.02	6.80	-18.3	-33.6	4.0	8.14e-01	0	57	104	0	12	16426
2026-01-25 10:37:23.24	114.94	6.87	-23.2	-39.4	4.1	8.25e-01	0	57	104	0	16	25545
2026-01-25 10:37:24.25	114.86	6.94	-22.9	-38.6	4.2	8.09e-01	0	57	104	0	16	23071
2026-01-25 10:37:25.26	114.78	7.01	-21.2	-35.0	4.2	8.19e-01	0	57	104	0	15	16249
2026-01-25 10:37:26.27	114.70	7.08	-17.6	-30.9	3.8	8.08e-01	0	57	104	0	9	14270
2026-01-25 10:37:27.28	114.62	7.14	-22.4	-37.0	4.1	8.21e-01	0	57	104	0	16	19363
2026-01-25 10:37:28.29	114.54	7.21	-21.7	-36.2	3.1	8.16e-01	0	57	104	0	9	26266
2026-01-25 10:37:29.30	114.45	7.28	-23.5	-39.9	4.2	8.12e-01	0	57	104	0	17	25291
2026-01-25 10:37:30.31	114.37	7.35	-19.1	-35.3	3.7	8.29e-01	0	57	0	0	8	25029
2026-01-25 10:37:31.33	114.29	7.42	-21.8	-37.4	4.0	8.11e-01	0	57	104	0	13	24036
2026-01-25 10:37:32.34	114.21	7.49	-21.0	-35.1	4.0	8.22e-01	0	57	0	0	14	17476
2026-01-25 10:37:33.35	114.12	7.56	-21.6	-37.9	4.3	8.21e-01	0	57	104	0	16	21413
2026-01-25 10:37:34.36	114.04	7.63	-13.6	-32.0	4.1	8.20e-01	0	58	104	0	10	15289
2026-01-25 10:37:35.37	113.96	7.70	-22.2	-35.3	3.8	8.29e-01	0	57	104	0	12	19954
2026-01-25 10:37:36.38	113.87	7.77	-22.9	-37.0	4.2	8.23e-01	0	57	104	0	14	21560
2026-01-25 10:37:37.39	113.79	7.84	-22.3	-36.1	4.4	8.28e-01	0	57	104	0	16	17343
2026-01-25 10:37:38.40	113.70	7.91	-21.0	-34.6	4.2	8.31e-01	0	57	104	0	6	25902
2026-01-25 10:37:39.41	113.62	7.98	-21.6	-36.7	4.3	8.28e-01	0	57	104	0	15	19718
2026-01-25 10:37:40.42	113.53	8.05	-23.6	-39.5	3.9	8.29e-01	0	57	104	0	15	27362
2026-01-25 10:37:41.43	113.45	8.12	-29.2	-45.5	4.0	8.45e-01	0	58	104	0	33	19213
2026-01-25 10:37:42.44	113.36	8.19	-23.6	-38.1	4.0	8.29e-01	0	58	104	0	16	21806
2026-01-25 10:37:43.45	113.27	8.26	-21.5	-37.3	4.3	8.25e-01	0	58	0	0	18	17714
2026-01-25 10:37:44.46	113.18	8.33	-21.1	-34.1	4.0	8.34e-01	0	58	104	0	15	14662
2026-01-25 10:37:45.47	113.10	8.40	-18.0	-31.7	3.9	8.17e-01	0	57	104	0	11	13922
2026-01-25 10:37:46.48	113.01	8.47	-11.0	-28.3	3.6	8.35e-01	0	58	104	0	0	17718
2026-01-25 10:37:47.49	112.92	8.54	-21.8	-39.6	4.3	8.28e-01	0	58	104	0	16	26116
2026-01-25 10:37:48.50	112.83	8.62	-17.3	-31.4	4.4	8.15e-01	0	58	0	0	15	10688
2026-01-25 10:37:49.51	112.74	8.69	-23.5	-38.6	4.1	8.13e-01	0	58	104	0	16	23280
2026-01-25 10:37:50.52	112.65	8.76	-23.4	-35.3	4.0	8.41e-01	0	58	104	0	17	14939
2026-01-25 10:37:51.52	112.56	8.83	-27.0	-40.6	4.8	8.25e-01	0	58	104	0	26	16387
2026-01-25 10:37:52.53	112.47	8.90	-25.2	-37.9	4.6	8.28e-01	0	58	104	0	21	16102
2026-01-25 10:37:53.55	112.38	8.97	-24.2	-38.8	4.7	8.27e-01	0	58	104	0	23	15843
2026-01-25 10:37:54.56	112.28	9.05	-23.6	-36.5	4.1	8.30e-01	0	58	104	0	22	12911
2026-01-25 10:37:55.56	112.19	9.12	-27.7	-37.8	5.0	8.14e-01	0	58	104	0	25	12570
2026-01-25 10:37:56.57	112.10	9.19	-28.5	-38.2	7.0	7.84e-01	0	58	0	0	27	11774
2026-01-25 10:37:57.58	112.01	9.26	-29.4	-38.8	7.0	6.18e-01	0	58	0	0	28	11832
2026-01-25 10:37:58.59	111.91	9.34	-25.8	-36.3	4.7	6.90e-01	0	58	0	0	22	12616
2026-01-25 10:37:59.60	111.82	9.41	-27.3	-40.5	4.9	7.23e-01	0	58	0	0	25	17232
2026-01-25 10:38:00.61	111.72	9.48	-26.7	-41.7	4.4	8.30e-01	0	58	0	0	22	23403
2026-01-25 10:38:01.62	111.63	9.56	-32.4	-44.2	4.7	8.28e-01	0	58	104	0	33	16689
2026-01-25 10:38:02.63	111.53	9.63	-24.5	-42.3	3.9	8.41e-01	0	58	104	0	23	23736
2026-01-25 10:38:03.64	111.43	9.70	-30.9	-45.9	4.6	8.35e-01	0	58	104	0	35	17933
2026-01-25 10:38:04.65	111.34	9.78	-28.5	-42.9	4.0	8.29e-01	0	58	104	0	32	15156
2026-01-25 10:38:05.66	111.24	9.85	-34.1	-49.1	4.2	8.32e-01	0	58	104	0	39	20652
2026-01-25 10:38:06.67	111.14	9.92	-29.5	-43.7	4.1	8.37e-01	0	58	104	0	25	24975
2026-01-25 10:38:07.68	111.04	10.00	-25.2	-42.0	4.0	8.38e-01	0	58	104	0	25	20476
2026-01-25 10:38:08.69	110.94	10.07	-34.6	-47.2	4.3	8.38e-01	0	58	104	0	42	13993
2026-01-25 10:38:09.70	110.84	10.15	-35.9	-44.6	7.5	8.10e-01	0	58	104	0	42	10301
2026-01-25 10:38:10.70	110.75	10.22	-35.9	-45.5	5.7	8.31e-01	0	58	104	0	28	25721
2026-01-25 10:38:11.71	110.65	10.29	-29.0	-40.2	5.2	6.17e-01	0	58	0	0	22	19838
2026-01-25 10:38:12.72	110.54	10.37	-34.7	-40.7	10.1	7.48e-01	0	58	104	0	41	7025
2026-01-25 10:38:13.73	110.44	10.44	-34.5	-40.8	10.0	1.32e-01	0	59	0	3145728	39	7970
2026-01-25 10:38:14.74	110.34	10.52	-35.1	-40.9	10.5	1.02e-01	0	58	0	9437184	41	7142
2026-01-25 10:38:15.75	110.24	10.59	-35.4	-40.8	11.2	1.06e-01	0	58	0	14680064	41	7093
2026-01-25 10:38:16.76	110.13	10.67	-33.8	-40.7	11.4	8.73e-02	0	58	0	19922944	41	6995
2026-01-25 10:38:17.77	110.03	10.75	-30.4	-39.5	7.3	1.87e-01	0	59	0	25165824	34	9151
2026-01-25 10:38:18.78	109.93	10.82	-27.4	-39.8	7.9	2.28e-01	0	59	0	30408704	32	10564
2026-01-25 10:38:19.79	109.82	10.90	-35.0	-40.9	11.2	8.38e-02	0	58	0	35651584	42	6725
2026-01-25 10:38:20.80	109.72	10.97	-36.4	-40.9	11.7	4.39e-02	0	59	0	41943040	42	6796
2026-01-25 10:38:21.81	109.61	11.05	-36.1	-40.8	11.7	6.14e-02	0	59	0	47185920	43	6313
2026-01-25 10:38:22.82	109.50	11.12	-37.0	-41.1	11.8	3.52e-02	0	58	0	52428800	45	5841
2026-01-25 10:38:23.83	109.40	11.20	-37.3	-41.1	12.0	2.10e-02	0	59	0	57671680	45	5803
2026-01-25 10:38:24.84	109.29	11.28	-36.7	-40.9	11.1	1.94e-02	0	59	0	63963136	43	6377
2026-01-25 10:38:25.85	109.18	11.35	-36.7	-41.0	12.6	7.67e-03	0	59	0	69206016	46	5432
2026-01-25 10:38:26.86	109.07	11.43	-37.3	-41.0	12.0	1.16e-02	0	59	0	75497472	46	5407
2026-01-25 10:38:27.87	108.96	11.51	-37.4	-40.9	12.0	1.36e-02	0	59	0	80740352	45	5694
2026-01-25 10:38:28.88	108.85	11.58	-37.4	-40.8	12.2	1.47e-02	0	59	0	87031808	45	5606
2026-01-25 10:38:29.89	108.74	11.66	-36.6	-40.8	11.9	1.41e-02	0	59	0	92274688	44	5982
2026-01-25 10:38:30.90	108.63	11.74	-37.8	-40.7	12.7	2.19e-02	0	59	0	98566144	45	5592
2026-01-25 10:38:31.91	108.52	11.82	-38.1	-40.7	13.1	2.56e-03	0	59	0	103809024	46	5253
2026-01-25 10:38:32.92	108.41	11.89	-38.1	-40.6	13.1	2.46e-03	0	59	0	109051904	46	5206
2026-01-25 10:38:33.93	108.29	11.97	-38.2	-40.7	12.9	2.03e-03	0	59	0	115343360	46	5233
2026-01-25 10:38:34.94	108.18	12.05	-38.1	-40.6	13.4	2.27e-03	0	59	0	120586240	46	5209
2026-01-25 10:38:35.95	108.07	12.13	-38.2	-40.7	12.7	3.21e-03	0	59	0	126877696	46	5279
2026-01-25 10:38:36.96	107.95	12.20	-35.6	-40.6	12.1	4.18e-03	0	59	0	132120576	45	5508
2026-01-25 10:38:37.97	107.84	12.28	-37.5	-40.7	12.7	1.02e-02	0	59	0	137363456	45	5565
2026-01-25 10:38:38.98	107.72	12.36	-33.4	-40.5	11.4	4.39e-03	0	59	0	143654912	45	5435
2026-01-25 10:38:39.99	107.60	12.44	-35.4	-40.2	9.5	8.67e-02	0	59	0	148897792	42	6213
2026-01-25 10:38:41.00	107.49	12.52	-35.3	-40.5	11.5	8.16e-03	0	59	0	154140672	44	5723
2026-01-25 10:38:42.01	107.37	12.60	-33.7	-40.0	10.6	3.20e-02	0	59	0	160432128	41	6462
2026-01-25 10:38:43.02	107.25	12.68	-37.0	-40.5	12.6	4.21e-02	0	59	0	165675008	46	5120
2026-01-25 10:38:44.03	107.13	12.75	-37.0	-40.5	12.4	1.92e-02	0	59	0	171966464	45	5426
2026-01-25 10:38:45.04	107.01	12.83	-37.9	-40.5	13.2	3.62e-03	0	59	0	177209344	46	5131
2026-01-25 10:38:46.05	106.89	12.91	-36.8	-40.4	12.9	2.45e-02	0	59	0	182452224	46	5060
2026-01-25 10:38:47.05	106.77	12.99	-35.4	-40.1	10.0	6.00e-03	0	59	0	188743680	41	6547
2026-01-25 10:38:48.06	106.65	13.07	-37.2	-40.2	12.9	4.70e-02	0	59	0	193986560	45	5232
2026-01-25 10:38:49.07	106.52	13.15	-37.4	-40.1	13.7	6.69e-02	0	59	0	199229440	46	4881
2026-01-25 10:38:50.08	106.40	13.23	-37.6	-40.0	14.1	1.20e-02	0	59	0	205520896	46	4815
2026-01-25 10:38:51.09	106.28	13.31	-30.9	-39.8	9.8	2.34e-02	0	59	0	210763776	40	6649
2026-01-25 10:38:52.10	106.15	13.39	-36.3	-40.1	9.2	2.52e-02	0	59	0	216006656	38	7720
2026-01-25 10:38:53.11	106.03	13.47	-34.5	-39.7	10.9	4.81e-02	0	59	0	222298112	40	6630
2026-01-25 10:38:54.12	105.90	13.55	-37.1	-39.7	11.2	1.14e-01	0	59	0	227540992	39	6971
2026-01-25 10:38:55.13	105.77	13.63	-30.8	-39.2	10.0	6.53e-02	0	59	0	232783872	42	5587
2026-01-25 10:38:56.14	105.65	13.71	-35.2	-39.6	12.0	1.78e-02	0	59	0	239075328	42	5800
2026-01-25 10:38:57.15	105.52	13.79	-36.8	-39.8	11.2	2.89e-02	0	59	0	244318208	37	7954
2026-01-25 10:38:58.17	105.39	13.87	-37.9	-40.2	12.3	1.48e-02	0	59	0	249561088	44	5545
2026-01-25 10:38:59.18	105.26	13.96	-33.2	-39.5	9.7	3.27e-02	0	59	0	255852544	36	8132
2026-01-25 10:39:00.19	105.13	14.04	-35.0	-39.4	12.5	3.55e-02	0	59	0	261095424	41	6040
2026-01-25 10:39:01.20	105.00	14.12	-35.4	-39.6	13.4	5.44e-03	0	59	0	267386880	44	5206
2026-01-25 10:39:02.20	104.87	14.20	-36.9	-40.0	13.3	1.30e-02	0	60	0	272629760	44	5447
2026-01-25 10:39:03.21	104.74	14.28	-38.0	-40.1	14.0	8.18e-03	0	59	0	277872640	46	4913
2026-01-25 10:39:04.22	104.60	14.36	-37.8	-39.9	14.4	1.31e-03	0	60	0	284164096	46	4804
2026-01-25 10:39:05.23	104.47	14.44	-37.8	-39.8	14.4	1.53e-04	0	60	0	289406976	46	4752
2026-01-25 10:39:06.24	104.33	14.52	-37.8	-39.9	14.5	1.05e-04	0	60	0	295698432	46	4794
2026-01-25 10:39:07.25	104.20	14.61	-37.9	-40.1	14.3	2.78e-03	0	60	0	300941312	46	4880
2026-01-25 10:39:08.27	104.06	14.69	-37.7	-40.0	14.1	9.92e-04	0	59	0	306184192	46	4847
2026-01-25 10:39:09.28	103.92	14.77	-37.8	-39.9	14.4	1.57e-04	0	59	0	312475648	46	4773
2026-01-25 10:39:10.29	103.79	14.85	-37.5	-39.7	14.3	4.11e-05	0	60	0	317718528	46	4677
2026-01-25 10:39:11.30	103.65	14.94	-37.5	-39.5	14.7	7.54e-04	0	60	0	324009984	45	4869
2026-01-25 10:39:12.31	103.51	15.02	-37.3	-39.6	14.7	6.52e-04	0	59	0	329252864	45	4911
2026-01-25 10:39:13.32	103.37	15.10	-37.3	-39.5	14.8	7.76e-04	0	60	0	334495744	45	4817
2026-01-25 10:39:14.33	103.23	15.18	-37.4	-39.4	15.0	5.95e-05	0	60	0	340787200	45	4787
2026-01-25 10:39:15.34	103.09	15.27	-37.5	-39.4	15.0	9.10e-06	0	60	0	346030080	45	4811
2026-01-25 10:39:16.35	102.94	15.35	-37.5	-39.5	15.0	3.54e-05	0	60	0	352321536	45	4845
2026-01-25 10:39:17.36	102.80	15.43	-37.5	-39.5	14.9	5.70e-06	0	60	0	357564416	45	4848
2026-01-25 10:39:18.37	102.66	15.52	-37.6	-39.6	14.9	2.20e-06	0	60	0	363855872	45	4884
2026-01-25 10:39:19.38	102.51	15.60	-37.6	-39.6	14.9	3.40e-06	0	60	0	369098752	45	4912
2026-01-25 10:39:20.39	102.37	15.68	-37.7	-39.7	14.8	3.40e-06	0	60	0	374341632	45	4968
2026-01-25 10:39:21.40	102.22	15.77	-37.4	-39.9	14.6	2.20e-06	0	60	0	380633088	46	4760
2026-01-25 10:39:22.41	102.07	15.85	-37.7	-39.7	14.7	2.52e-04	0	60	0	385875968	45	4959
2026-01-25 10:39:23.42	101.92	15.93	-37.7	-39.8	14.6	3.40e-06	0	60	0	392167424	45	4996
2026-01-25 10:39:24.43	101.77	16.02	-37.7	-39.8	14.6	2.20e-06	0	60	0	397410304	46	4732
2026-01-25 10:39:25.44	101.62	16.10	-37.5	-39.6	14.9	1.10e-06	0	60	0	403701760	46	4620
2026-01-25 10:39:26.46	101.47	16.18	-37.5	-39.5	14.9	4.50e-06	0	60	0	408944640	46	4578
2026-01-25 10:39:27.46	101.32	16.27	-37.1	-39.5	14.9	3.66e-05	0	60	0	414187520	45	4821
2026-01-25 10:39:28.48	101.17	16.35	-37.5	-39.5	15.1	2.20e-06	0	60	0	420478976	45	4823
2026-01-25 10:39:29.48	101.02	16.44	-37.5	-39.4	15.1	0.00e+00	0	60	0	425721856	45	4812
2026-01-25 10:39:30.49	100.86	16.52	-37.3	-39.2	15.3	4.50e-06	0	60	0	430964736	45	4687
2026-01-25 10:39:31.50	100.71	16.60	-37.1	-39.3	15.1	4.06e-04	0	60	0	437256192	45	4741
2026-01-25 10:39:32.51	100.55	16.69	-37.3	-39.2	15.4	6.80e-06	0	60	0	442499072	45	4671
2026-01-25 10:39:33.52	100.39	16.77	-37.2	-39.1	15.5	2.17e-05	0	60	0	448790528	44	4881
2026-01-25 10:39:34.53	100.24	16.86	-37.3	-39.1	15.4	3.20e-05	0	60	0	454033408	45	4650
2026-01-25 10:39:35.54	100.08	16.94	-37.2	-39.1	15.5	1.25e-05	0	60	0	460324864	45	4627
2026-01-25 10:39:36.55	99.92	17.03	-37.2	-39.1	15.5	0.00e+00	0	60	0	465567744	45	4604
2026-01-25 10:39:37.56	99.76	17.11	-37.2	-39.0	15.6	6.80e-06	0	60	0	471859200	45	4596
2026-01-25 10:39:38.57	99.60	17.20	-37.2	-39.1	15.5	2.28e-05	0	60	0	477102080	45	4633
2026-01-25 10:39:39.58	99.43	17.28	-37.1	-39.0	15.5	2.20e-06	0	60	0	482344960	45	4582
2026-01-25 10:39:40.59	99.27	17.37	-36.9	-39.0	14.9	1.60e-04	0	60	0	488636416	44	4859
2026-01-25 10:39:41.60	99.11	17.45	-37.0	-38.9	15.6	1.10e-06	0	60	0	493879296	44	4802
2026-01-25 10:39:42.61	98.94	17.54	-36.8	-38.9	15.7	7.17e-04	0	60	0	500170752	44	4774
2026-01-25 10:39:43.62	98.78	17.62	-36.9	-38.8	15.6	8.00e-06	0	60	0	505413632	44	4745
2026-01-25 10:39:44.63	98.61	17.71	-36.9	-38.7	15.9	0.00e+00	0	60	0	510656512	44	4676
2026-01-25 10:39:45.64	98.44	17.79	-37.0	-38.8	15.9	1.10e-06	0	60	0	516947968	44	4712
2026-01-25 10:39:46.65	98.27	17.88	-36.9	-38.7	15.9	2.20e-06	0	60	0	522190848	44	4680
2026-01-25 10:39:47.66	98.10	17.96	-37.0	-38.8	15.8	0.00e+00	0	60	0	528482304	44	4745
2026-01-25 10:39:48.67	97.93	18.05	-37.0	-38.8	15.8	0.00e+00	0	60	0	533725184	44	4754
2026-01-25 10:39:49.68	97.76	18.13	-37.1	-39.0	15.7	0.00e+00	0	60	0	538968064	44	4825
2026-01-25 10:39:50.69	97.59	18.22	-37.1	-39.0	15.7	1.10e-06	0	60	0	545259520	44	4818
2026-01-25 10:39:51.70	97.41	18.30	-37.2	-39.1	15.6	0.00e+00	0	60	0	550502400	45	4621
2026-01-25 10:39:52.71	97.24	18.39	-37.2	-39.1	15.6	0.00e+00	0	60	0	556793856	45	4633
2026-01-25 10:39:53.72	97.06	18.47	-37.2	-39.0	15.6	0.00e+00	0	60	0	562036736	45	4576
2026-01-25 10:39:54.73	96.89	18.56	-37.1	-39.0	15.6	0.00e+00	0	60	0	568328192	45	4583
2026-01-25 10:39:55.74	96.71	18.64	-37.1	-39.0	15.6	0.00e+00	0	60	0	573571072	45	4598
2026-01-25 10:39:56.75	96.53	18.73	-37.0	-38.8	15.8	0.00e+00	0	60	0	579862528	45	4489
2026-01-25 10:39:57.76	96.35	18.81	-37.0	-38.8	15.8	0.00e+00	0	60	0	585105408	45	4487
2026-01-25 10:39:58.77	96.17	18.90	-37.0	-38.8	15.9	0.00e+00	0	60	0	590348288	45	4444
2026-01-25 10:39:59.78	95.99	18.98	-36.9	-38.7	16.0	0.00e+00	0	60	0	596639744	45	4426
2026-01-25 10:40:00.79	95.81	19.07	-37.0	-38.8	15.9	0.00e+00	0	60	0	601882624	45	4463
2026-01-25 10:40:01.80	95.62	19.16	-36.9	-38.7	16.0	0.00e+00	0	60	0	608174080	45	4412
2026-01-25 10:40:02.82	95.43	19.24	-36.9	-38.6	16.0	0.00e+00	0	60	0	613416960	45	4384
2026-01-25 10:40:03.82	95.25	19.33	-36.9	-38.7	16.0	0.00e+00	0	60	0	618659840	45	4398
2026-01-25 10:40:04.83	95.06	19.41	-36.8	-38.6	16.1	0.00e+00	0	60	0	624951296	45	4342
2026-01-25 10:40:05.84	94.88	19.50	-36.8	-38.5	16.2	0.00e+00	0	60	0	630194176	45	4327
2026-01-25 10:40:06.85	94.69	19.58	-36.8	-38.5	16.1	0.00e+00	0	60	0	636485632	45	4335
2026-01-25 10:40:07.86	94.50	19.67	-36.7	-38.5	16.2	0.00e+00	0	60	0	641728512	45	4309
2026-01-25 10:40:08.87	94.31	19.75	-36.8	-38.6	16.1	0.00e+00	0	60	0	646971392	45	4360
2026-01-25 10:40:09.88	94.11	19.84	-36.9	-38.6	16.0	0.00e+00	0	60	0	653262848	45	4388
2026-01-25 10:40:10.89	93.92	19.92	-36.9	-38.7	16.0	0.00e+00	0	60	0	658505728	45	4396
2026-01-25 10:40:11.90	93.73	20.01	-36.8	-38.6	16.1	0.00e+00	0	60	0	664797184	45	4359
2026-01-25 10:40:12.91	93.53	20.09	-36.8	-38.6	16.1	0.00e+00	0	60	0	670040064	45	4357
2026-01-25 10:40:13.92	93.33	20.18	-36.9	-38.7	16.0	0.00e+00	0	60	0	676331520	45	4392
2026-01-25 10:40:14.93	93.14	20.26	-36.7	-38.4	16.2	0.00e+00	0	60	0	681574400	45	4267
2026-01-25 10:40:15.94	92.94	20.35	-36.7	-38.4	16.2	0.00e+00	0	60	0	686817280	45	4273
2026-01-25 10:40:16.95	92.74	20.43	-36.7	-38.5	16.1	0.00e+00	0	60	0	693108736	45	4316
2026-01-25 10:40:17.96	92.54	20.51	-36.7	-38.5	16.1	0.00e+00	0	60	0	698351616	45	4314
2026-01-25 10:40:18.97	92.33	20.60	-36.7	-38.4	16.2	0.00e+00	0	61	0	704643072	45	4274
2026-01-25 10:40:19.98	92.13	20.68	-36.7	-38.5	16.1	0.00e+00	0	60	0	709885952	45	4292
2026-01-25 10:40:20.98	91.93	20.77	-36.7	-38.5	16.1	0.00e+00	0	61	0	715128832	45	4302
2026-01-25 10:40:21.99	91.72	20.85	-36.6	-38.3	16.2	0.00e+00	0	61	0	721420288	45	4225
2026-01-25 10:40:23.00	91.52	20.94	-36.6	-38.3	16.2	0.00e+00	0	60	0	726663168	45	4240
2026-01-25 10:40:24.01	91.31	21.02	-36.7	-38.4	16.1	0.00e+00	0	61	0	732954624	45	4271
2026-01-25 10:40:25.02	91.10	21.10	-36.6	-38.4	16.0	0.00e+00	0	61	0	738197504	45	4276
2026-01-25 10:40:26.03	90.89	21.19	-36.7	-38.4	16.0	0.00e+00	0	61	0	743440384	45	4290
2026-01-25 10:40:27.04	90.68	21.27	-36.8	-38.6	15.8	0.00e+00	0	60	0	749731840	45	4348
2026-01-25 10:40:28.05	90.46	21.35	-36.7	-38.5	15.9	0.00e+00	0	60	0	754974720	45	4332
2026-01-25 10:40:29.06	90.25	21.44	-36.8	-38.6	15.8	0.00e+00	0	61	0	761266176	45	4382
2026-01-25 10:40:30.07	90.04	21.52	-36.9	-38.7	15.7	0.00e+00	0	60	0	766509056	45	4414
2026-01-25 10:40:31.08	89.82	21.60	-36.9	-38.7	15.7	0.00e+00	0	61	0	772800512	45	4407
2026-01-25 10:40:32.09	89.60	21.69	-36.8	-38.6	15.8	0.00e+00	0	60	0	778043392	45	4359
2026-01-25 10:40:33.10	89.39	21.77	-36.8	-38.6	15.8	0.00e+00	0	61	0	784334848	45	4361
2026-01-25 10:40:34.11	89.17	21.85	-36.8	-38.6	15.7	0.00e+00	0	61	0	789577728	45	4390
2026-01-25 10:40:35.12	88.95	21.93	-36.8	-38.6	15.8	0.00e+00	0	61	0	794820608	45	4341
2026-01-25 10:40:36.13	88.72	22.01	-36.7	-38.5	15.9	0.00e+00	0	60	0	801112064	45	4325
2026-01-25 10:40:37.14	88.50	22.10	-36.7	-38.5	15.9	0.00e+00	0	60	0	806354944	45	4308
2026-01-25 10:40:38.15	88.28	22.18	-36.7	-38.5	15.9	0.00e+00	0	60	0	812646400	45	4323
2026-01-25 10:40:39.16	88.05	22.26	-36.6	-38.4	15.9	0.00e+00	0	61	0	817889280	45	4287
2026-01-25 10:40:40.17	87.83	22.34	-36.6	-38.4	16.0	0.00e+00	0	61	0	823132160	45	4248
2026-01-25 10:40:41.18	87.60	22.42	-36.7	-38.4	15.9	0.00e+00	0	61	0	829423616	45	4284
2026-01-25 10:40:42.19	87.37	22.50	-36.6	-38.4	16.0	0.00e+00	0	61	0	834666496	45	4270
2026-01-25 10:40:43.20	87.14	22.58	-36.6	-38.3	16.0	0.00e+00	0	61	0	840957952	45	4240
2026-01-25 10:40:44.21	86.91	22.66	-36.6	-38.4	16.0	0.00e+00	0	61	0	846200832	45	4277
2026-01-25 10:40:45.22	86.67	22.74	-36.6	-38.4	16.0	0.00e+00	0	60	0	851443712	45	4261
2026-01-25 10:40:46.23	86.44	22.82	-36.7	-38.5	16.0	0.00e+00	0	61	0	857735168	45	4292
2026-01-25 10:40:47.23	86.21	22.90	-36.7	-38.5	16.0	0.00e+00	0	61	0	862978048	45	4293
2026-01-25 10:40:48.24	85.97	22.98	-36.6	-38.4	16.0	0.00e+00	0	61	0	869269504	45	4268
2026-01-25 10:40:49.25	85.74	23.06	-36.6	-38.4	16.0	0.00e+00	0	61	0	874512384	45	4288
2026-01-25 10:40:50.26	85.50	23.14	-36.6	-38.4	16.0	0.00e+00	0	61	0	880803840	45	4274
2026-01-25 10:40:51.27	85.26	23.22	-36.5	-38.3	16.2	0.00e+00	0	61	0	886046720	45	4206
2026-01-25 10:40:52.28	85.02	23.30	-36.5	-38.2	16.3	0.00e+00	0	61	0	891289600	44	4410
2026-01-25 10:40:53.29	84.77	23.37	-36.5	-38.2	16.3	0.00e+00	0	61	0	897581056	44	4424
2026-01-25 10:40:54.30	84.53	23.45	-36.5	-38.2	16.3	0.00e+00	0	61	0	902823936	44	4431
2026-01-25 10:40:55.31	84.29	23.53	-36.4	-38.1	16.4	0.00e+00	0	61	0	909115392	44	4382
2026-01-25 10:40:56.32	84.04	23.60	-36.4	-38.1	16.4	0.00e+00	0	61	0	914358272	44	4382
2026-01-25 10:40:57.33	83.79	23.68	-36.4	-38.1	16.5	0.00e+00	0	61	0	919601152	44	4361
2026-01-25 10:40:58.34	83.55	23.76	-36.2	-37.9	16.6	0.00e+00	0	61	0	925892608	44	4282
2026-01-25 10:40:59.35	83.30	23.83	-36.3	-37.9	16.7	0.00e+00	0	61	0	931135488	44	4281
2026-01-25 10:41:00.36	83.05	23.91	-36.3	-37.9	16.7	0.00e+00	0	61	0	937426944	44	4278
2026-01-25 10:41:01.37	82.79	23.98	-36.2	-37.8	16.8	0.00e+00	0	61	0	942669824	44	4229
2026-01-25 10:41:02.38	82.54	24.06	-36.3	-38.0	16.7	0.00e+00	0	61	0	947912704	44	4301
2026-01-25 10:41:03.39	82.29	24.13	-36.3	-38.0	16.7	0.00e+00	0	61	0	954204160	44	4327
2026-01-25 10:41:04.40	82.03	24.21	-36.3	-37.9	16.7	0.00e+00	0	61	0	959447040	44	4290
2026-01-25 10:41:05.41	81.77	24.28	-36.2	-37.9	16.8	0.00e+00	0	61	0	965738496	44	4266
2026-01-25 10:41:06.42	81.52	24.35	-36.3	-38.0	16.7	0.00e+00	0	61	0	970981376	44	4296
2026-01-25 10:41:07.43	81.26	24.42	-36.1	-37.7	17.0	0.00e+00	0	61	0	977272832	44	4174
2026-01-25 10:41:08.44	81.00	24.50	-36.0	-37.6	17.1	0.00e+00	0	61	0	982515712	44	4131
2026-01-25 10:41:09.45	80.74	24.57	-36.0	-37.6	17.1	0.00e+00	0	61	0	988807168	44	4113
2026-01-25 10:41:10.46	80.47	24.64	-36.0	-37.6	17.1	0.00e+00	0	61	0	994050048	44	4142
2026-01-25 10:41:11.47	80.21	24.71	-36.0	-37.7	17.1	0.00e+00	0	61	0	999292928	44	4148
2026-01-25 10:41:12.47	79.95	24.78	-35.6	-37.2	17.3	0.00e+00	0	61	0	1005584384	43	4162
2026-01-25 10:41:13.48	79.68	24.85	-35.6	-37.1	17.4	0.00e+00	0	61	0	1010827264	43	4145
2026-01-25 10:41:14.49	79.41	24.92	-35.6	-37.2	17.4	0.00e+00	0	61	0	1016070144	43	4147
2026-01-25 10:41:15.50	79.15	24.99	-35.7	-37.3	17.3	0.00e+00	0	61	0	1022361600	43	4206
2026-01-25 10:41:16.52	78.87	25.06	-35.7	-37.3	17.2	0.00e+00	0	61	0	1027604480	43	4233
2026-01-25 10:41:17.53	78.60	25.12	-35.7	-37.3	17.2	0.00e+00	0	61	0	1033895936	43	4225
2026-01-25 10:41:18.54	78.33	25.19	-35.8	-37.4	17.1	0.00e+00	0	61	0	1039138816	43	4259
2026-01-25 10:41:19.55	78.06	25.26	-35.8	-37.4	17.1	0.00e+00	0	61	0	1045430272	43	4279
2026-01-25 10:41:20.56	77.78	25.32	-35.8	-37.4	17.1	0.00e+00	0	61	0	1050673152	43	4281
2026-01-25 10:41:21.57	77.51	25.39	-35.8	-37.4	17.1	0.00e+00	0	61	0	1055916032	43	4286
2026-01-25 10:41:22.58	77.23	25.45	-35.9	-37.5	17.0	0.00e+00	0	61	0	1062207488	43	4333
2026-01-25 10:41:23.59	76.95	25.52	-35.9	-37.5	17.0	0.00e+00	0	61	0	1067450368	43	4321
2026-01-25 10:41:24.60	76.68	25.58	-35.8	-37.4	17.1	0.00e+00	0	61	0	1073741824	43	4279
2026-01-25 10:41:25.61	76.40	25.64	-35.8	-37.3	17.2	0.00e+00	0	61	0	1078984704	43	4230
2026-01-25 10:41:26.61	76.12	25.71	-35.7	-37.3	17.3	0.00e+00	0	61	0	1085276160	43	4194
2026-01-25 10:41:27.62	75.83	25.77	-35.8	-37.4	17.2	0.00e+00	0	61	0	1090519040	43	4256
2026-01-25 10:41:28.63	75.55	25.83	-35.7	-37.3	17.3	0.00e+00	0	61	0	1095761920	43	4225
2026-01-25 10:41:29.64	75.27	25.89	-35.7	-37.3	17.3	0.00e+00	0	61	0	1102053376	43	4215
2026-01-25 10:41:30.65	74.98	25.95	-35.7	-37.3	17.3	0.00e+00	0	61	0	1107296256	43	4215
2026-01-25 10:41:31.66	74.70	26.01	-35.8	-37.4	17.3	0.00e+00	0	61	0	1113587712	43	4250
2026-01-25 10:41:32.67	74.41	26.07	-35.6	-37.1	17.5	0.00e+00	0	61	0	1118830592	43	4114
2026-01-25 10:41:33.68	74.12	26.13	-35.6	-37.1	17.4	0.00e+00	0	61	0	1124073472	43	4140
2026-01-25 10:41:34.69	73.83	26.18	-35.7	-37.3	17.3	0.00e+00	0	61	0	1130364928	43	4219
2026-01-25 10:41:35.70	73.54	26.24	-35.7	-37.3	17.3	0.00e+00	0	61	0	1135607808	43	4223
2026-01-25 10:41:36.71	73.25	26.30	-35.7	-37.3	17.3	0.00e+00	0	61	0	1141899264	43	4233
2026-01-25 10:41:37.72	72.95	26.35	-35.7	-37.3	17.3	0.00e+00	0	61	0	1147142144	43	4217
2026-01-25 10:41:38.73	72.66	26.41	-35.7	-37.3	17.4	0.00e+00	0	61	0	1152385024	43	4208
2026-01-25 10:41:39.74	72.37	26.46	-35.8	-37.4	17.3	0.00e+00	0	61	0	1158676480	43	4243
2026-01-25 10:41:40.75	72.07	26.51	-35.6	-37.2	17.5	0.00e+00	0	61	0	1163919360	43	4153
2026-01-25 10:41:41.76	71.77	26.57	-35.8	-37.4	17.3	0.00e+00	0	61	0	1170210816	43	4258
2026-01-25 10:41:42.77	71.47	26.62	-35.8	-37.3	17.3	0.00e+00	0	61	0	1175453696	43	4233
2026-01-25 10:41:43.78	71.18	26.67	-35.7	-37.3	17.3	0.00e+00	0	61	0	1181745152	43	4210
2026-01-25 10:41:44.79	70.88	26.72	-35.7	-37.2	17.4	0.00e+00	0	61	0	1186988032	43	4193
2026-01-25 10:41:45.80	70.58	26.77	-35.6	-37.2	17.4	0.00e+00	0	61	0	1193279488	43	4173
2026-01-25 10:41:46.81	70.27	26.82	-35.7	-37.2	17.4	0.00e+00	0	61	0	1198522368	43	4185
2026-01-25 10:41:47.82	69.97	26.87	-35.6	-37.1	17.5	0.00e+00	0	61	0	1203765248	43	4142
2026-01-25 10:41:48.83	69.67	26.91	-35.4	-36.9	17.7	0.00e+00	0	61	0	1210056704	42	4281
2026-01-25 10:41:49.84	69.36	26.96	-35.3	-36.8	17.8	0.00e+00	0	61	0	1215299584	42	4225
2026-01-25 10:41:50.85	69.06	27.00	-35.4	-36.9	17.8	0.00e+00	0	61	0	1221591040	42	4255
2026-01-25 10:41:51.86	68.75	27.05	-35.4	-36.9	17.8	0.00e+00	0	61	0	1226833920	42	4282
2026-01-25 10:41:52.86	68.45	27.09	-35.4	-36.9	17.8	0.00e+00	0	61	0	1232076800	42	4268
2026-01-25 10:41:53.87	68.14	27.13	-35.4	-36.9	17.7	0.00e+00	0	61	0	1238368256	42	4287
2026-01-25 10:41:54.89	67.83	27.18	-35.4	-36.9	17.8	0.00e+00	0	61	0	1243611136	42	4291
2026-01-25 10:41:55.90	67.52	27.22	-35.4	-36.8	17.9	0.00e+00	0	61	0	1249902592	42	4237
2026-01-25 10:41:56.90	67.21	27.26	-35.3	-36.8	17.9	0.00e+00	0	61	0	1255145472	42	4226
2026-01-25 10:41:57.91	66.90	27.30	-35.4	-36.8	17.9	0.00e+00	0	61	0	1260388352	42	4237
2026-01-25 10:41:58.92	66.59	27.34	-35.4	-36.9	17.8	0.00e+00	0	61	0	1266679808	42	4257
2026-01-25 10:41:59.94	66.28	27.37	-35.5	-37.0	17.7	0.00e+00	0	61	0	1271922688	42	4308
2026-01-25 10:42:00.94	65.97	27.41	-35.5	-37.0	17.7	0.00e+00	0	61	0	1278214144	42	4313
2026-01-25 10:42:01.95	65.65	27.45	-35.4	-36.9	17.8	0.00e+00	0	61	0	1283457024	42	4256
2026-01-25 10:42:02.96	65.34	27.48	-35.4	-37.0	17.7	0.00e+00	0	61	0	1289748480	42	4295
2026-01-25 10:42:03.97	65.02	27.52	-35.5	-37.0	17.7	0.00e+00	0	61	0	1294991360	42	4309
2026-01-25 10:42:04.98	64.71	27.55	-35.5	-37.0	17.7	0.00e+00	0	61	0	1300234240	42	4331
2026-01-25 10:42:05.99	64.39	27.58	-35.5	-37.0	17.7	0.00e+00	0	61	0	1306525696	42	4323
2026-01-25 10:42:07.00	64.07	27.61	-35.5	-37.0	17.7	0.00e+00	0	61	0	1311768576	42	4328
2026-01-25 10:42:08.01	63.75	27.64	-35.4	-37.0	17.8	0.00e+00	0	61	0	1318060032	42	4303
2026-01-25 10:42:09.02	63.44	27.67	-35.4	-36.8	17.9	0.00e+00	0	61	0	1323302912	42	4236
2026-01-25 10:42:10.03	63.12	27.70	-35.3	-36.8	17.9	0.00e+00	0	61	0	1328545792	42	4217
2026-01-25 10:42:11.04	62.80	27.73	-35.3	-36.8	17.9	0.00e+00	0	61	0	1334837248	42	4232
2026-01-25 10:42:12.05	62.48	27.75	-35.3	-36.7	18.0	0.00e+00	0	61	0	1340080128	42	4190
2026-01-25 10:42:13.06	62.16	27.78	-35.3	-36.8	17.9	0.00e+00	0	61	0	1346371584	42	4226
2026-01-25 10:42:14.06	61.84	27.80	-35.2	-36.7	18.0	0.00e+00	0	61	0	1351614464	42	4178
2026-01-25 10:42:15.07	61.52	27.83	-35.2	-36.6	18.1	0.00e+00	0	61	0	1356857344	42	4127
2026-01-25 10:42:16.08	61.20	27.85	-35.2	-36.7	18.1	0.00e+00	0	61	0	1363148800	42	4155
2026-01-25 10:42:17.10	60.87	27.87	-35.1	-36.5	18.2	0.00e+00	0	61	0	1368391680	42	4070
2026-01-25 10:42:18.10	60.55	27.89	-35.1	-36.6	18.2	0.00e+00	0	61	0	1374683136	42	4109
2026-01-25 10:42:19.11	60.23	27.91	-35.2	-36.7	18.1	0.00e+00	0	61	0	1379926016	42	4161
2026-01-25 10:42:20.12	59.90	27.93	-35.3	-36.8	18.0	0.00e+00	0	61	0	1386217472	42	4200
2026-01-25 10:42:21.14	59.58	27.95	-35.3	-36.8	17.9	0.00e+00	0	61	0	1391460352	42	4226
2026-01-25 10:42:22.15	59.25	27.97	-35.3	-36.8	18.0	0.00e+00	0	61	0	1397751808	42	4214
2026-01-25 10:42:23.16	58.93	27.98	-35.4	-36.9	17.9	0.00e+00	0	61	0	1402994688	42	4249
2026-01-25 10:42:24.17	58.60	28.00	-35.2	-36.7	18.1	0.00e+00	0	61	0	1408237568	42	4167
2026-01-25 10:42:25.17	58.28	28.01	-35.2	-36.6	18.1	0.00e+00	0	61	0	1414529024	42	4145
2026-01-25 10:42:26.18	57.96	28.02	-35.2	-36.7	18.1	0.00e+00	0	61	0	1419771904	42	4148
2026-01-25 10:42:27.19	57.63	28.03	-35.2	-36.7	18.1	0.00e+00	0	61	0	1425014784	42	4176
2026-01-25 10:42:28.20	57.30	28.04	-35.3	-36.7	18.0	0.00e+00	0	61	0	1431306240	42	4193
2026-01-25 10:42:29.21	56.98	28.05	-35.3	-36.8	18.0	0.00e+00	0	61	0	1436549120	42	4200
2026-01-25 10:42:30.22	56.65	28.06	-35.3	-36.8	18.0	0.00e+00	0	61	0	1442840576	42	4209
2026-01-25 10:42:31.23	56.32	28.07	-35.4	-36.9	17.9	0.00e+00	0	61	0	1448083456	42	4259
2026-01-25 10:42:32.24	56.00	28.08	-35.3	-36.8	18.0	0.00e+00	0	61	0	1453326336	42	4214
2026-01-25 10:42:33.25	55.67	28.08	-35.3	-36.7	18.0	0.00e+00	0	61	0	1459617792	42	4186
2026-01-25 10:42:34.26	55.34	28.09	-35.2	-36.7	18.0	0.00e+00	0	61	0	1464860672	42	4170
2026-01-25 10:42:35.27	55.02	28.09	-35.3	-36.8	18.0	0.00e+00	0	61	0	1471152128	42	4194
2026-01-25 10:42:36.28	54.69	28.09	-35.1	-36.6	18.2	0.00e+00	0	61	0	1476395008	42	4124
2026-01-25 10:42:37.29	54.36	28.09	-35.1	-36.5	18.2	0.00e+00	0	61	0	1482686464	42	4090
2026-01-25 10:42:38.30	54.04	28.09	-35.1	-36.5	18.2	0.00e+00	0	61	0	1487929344	42	4095
2026-01-25 10:42:39.31	53.71	28.09	-35.1	-36.5	18.2	0.00e+00	0	61	0	1494220800	42	4078
2026-01-25 10:42:40.31	53.39	28.09	-35.1	-36.5	18.2	0.00e+00	0	61	0	1499463680	42	4093
2026-01-25 10:42:41.32	53.06	28.09	-35.1	-36.5	18.3	0.00e+00	0	61	0	1504706560	42	4080
2026-01-25 10:42:42.33	52.73	28.08	-35.1	-36.5	18.2	0.00e+00	0	61	0	1510998016	42	4090
2026-01-25 10:42:43.34	52.41	28.08	-35.1	-36.5	18.2	0.00e+00	0	61	0	1516240896	42	4088
2026-01-25 10:42:44.35	52.08	28.07	-35.2	-36.6	18.1	0.00e+00	0	61	0	1522532352	42	4144
2026-01-25 10:42:45.36	51.75	28.07	-35.3	-36.7	18.1	0.00e+00	0	61	0	1527775232	42	4187
2026-01-25 10:42:46.37	51.43	28.06	-35.3	-36.8	18.0	0.00e+00	0	61	0	1533018112	42	4209
2026-01-25 10:42:47.38	51.10	28.05	-35.4	-36.8	18.0	0.00e+00	0	61	0	1539309568	42	4239
2026-01-25 10:42:48.39	50.77	28.04	-35.3	-36.8	18.1	0.00e+00	0	61	0	1544552448	42	4198
2026-01-25 10:42:49.40	50.45	28.03	-35.2	-36.7	18.1	0.00e+00	0	61	0	1550843904	42	4154
2026-01-25 10:42:50.41	50.12	28.02	-35.3	-36.7	18.1	0.00e+00	0	61	0	1556086784	42	4177
2026-01-25 10:42:51.42	49.80	28.00	-35.3	-36.8	18.0	0.00e+00	0	61	0	1561329664	42	4210
2026-01-25 10:42:52.43	49.47	27.99	-35.4	-36.9	17.9	0.00e+00	0	61	0	1567621120	42	4246
2026-01-25 10:42:53.44	49.15	27.97	-35.4	-36.9	17.9	0.00e+00	0	61	0	1572864000	42	4280
2026-01-25 10:42:54.45	48.82	27.96	-35.4	-36.9	17.9	0.00e+00	0	61	0	1579155456	42	4274
2026-01-25 10:42:55.46	48.50	27.94	-35.3	-36.8	18.0	0.00e+00	0	61	0	1584398336	42	4217
2026-01-25 10:42:56.47	48.18	27.92	-35.4	-36.8	17.9	0.00e+00	0	61	0	1590689792	42	4237
2026-01-25 10:42:57.48	47.85	27.90	-35.3	-36.7	18.1	0.00e+00	0	61	0	1595932672	42	4182
2026-01-25 10:42:58.49	47.53	27.88	-35.4	-36.7	18.4	0.00e+00	0	61	0	1601175552	42	4193
2026-01-25 10:42:59.50	47.21	27.86	-35.4	-36.7	18.4	0.00e+00	0	61	0	1607467008	42	4167
2026-01-25 10:43:00.51	46.89	27.84	-35.4	-36.7	18.4	0.00e+00	0	61	0	1612709888	42	4185
2026-01-25 10:43:01.52	46.57	27.82	-35.5	-36.9	18.3	0.00e+00	0	61	0	1619001344	42	4251
2026-01-25 10:43:02.53	46.25	27.79	-35.5	-36.9	18.3	0.00e+00	0	61	0	1624244224	42	4250
2026-01-25 10:43:03.54	45.92	27.77	-35.4	-36.7	18.4	0.00e+00	0	61	0	1629487104	42	4176
2026-01-25 10:43:04.55	45.60	27.74	-35.3	-36.6	18.5	0.00e+00	0	61	0	1635778560	42	4127
2026-01-25 10:43:05.56	45.29	27.71	-35.3	-36.6	18.5	0.00e+00	0	61	0	1641021440	42	4131
2026-01-25 10:43:06.57	44.97	27.69	-35.3	-36.6	18.5	0.00e+00	0	61	0	1647312896	42	4142
2026-01-25 10:43:07.58	44.65	27.66	-35.4	-36.7	18.4	0.00e+00	0	61	0	1652555776	42	4183
2026-01-25 10:43:08.59	44.33	27.63	-35.5	-36.9	18.3	0.00e+00	0	61	0	1657798656	42	4243
2026-01-25 10:43:09.60	44.01	27.60	-35.4	-36.8	18.3	0.00e+00	0	61	0	1664090112	42	4209
2026-01-25 10:43:10.61	43.70	27.56	-35.5	-36.9	18.3	0.00e+00	0	61	0	1669332992	42	4243
2026-01-25 10:43:11.62	43.38	27.53	-35.4	-36.8	18.4	0.00e+00	0	61	0	1675624448	42	4204
2026-01-25 10:43:12.63	43.07	27.50	-35.5	-36.8	18.3	0.00e+00	0	61	0	1680867328	42	4211
2026-01-25 10:43:13.64	42.75	27.46	-35.5	-36.8	18.3	0.00e+00	0	61	0	1687158784	42	4223
2026-01-25 10:43:14.65	42.44	27.43	-35.5	-36.9	18.3	0.00e+00	0	61	0	1692401664	42	4253
2026-01-25 10:43:15.66	42.13	27.39	-35.5	-36.8	18.3	0.00e+00	0	61	0	1698693120	42	4242
2026-01-25 10:43:16.67	41.81	27.35	-35.4	-36.7	18.5	0.00e+00	0	61	0	1703936000	42	4157
2026-01-25 10:43:17.68	41.50	27.32	-35.3	-36.6	18.5	0.00e+00	0	61	0	1709178880	42	4140
2026-01-25 10:43:18.69	41.19	27.28	-35.3	-36.6	18.6	0.00e+00	0	61	0	1715470336	42	4114
2026-01-25 10:43:19.70	40.88	27.24	-35.3	-36.7	18.5	0.00e+00	0	62	0	1720713216	42	4158
2026-01-25 10:43:20.70	40.58	27.20	-35.4	-36.8	18.4	0.00e+00	0	61	0	1727004672	42	4206
2026-01-25 10:43:21.72	40.26	27.16	-35.4	-36.7	18.4	0.00e+00	0	62	0	1732247552	42	4186
2026-01-25 10:43:22.73	39.96	27.11	-35.5	-36.9	18.3	0.00e+00	0	61	0	1737490432	42	4258
2026-01-25 10:43:23.74	39.65	27.07	-35.6	-37.0	18.2	0.00e+00	0	61	0	1743781888	42	4307
2026-01-25 10:43:24.74	39.35	27.03	-35.7	-37.1	18.1	0.00e+00	0	61	0	1749024768	42	4343
2026-01-25 10:43:25.75	39.04	26.98	-35.7	-37.1	18.1	0.00e+00	0	61	0	1755316224	42	4353
2026-01-25 10:43:26.76	38.74	26.94	-35.8	-37.2	17.9	0.00e+00	0	61	0	1760559104	42	4412
2026-01-25 10:43:27.77	38.44	26.89	-35.8	-37.2	17.9	0.00e+00	0	61	0	1765801984	42	4415
2026-01-25 10:43:28.78	38.13	26.84	-35.7	-37.0	18.1	0.00e+00	0	62	0	1772093440	42	4334
2026-01-25 10:43:29.79	37.83	26.79	-35.7	-37.0	18.1	0.00e+00	0	61	0	1777336320	42	4315
2026-01-25 10:43:30.80	37.53	26.74	-35.6	-37.0	18.1	0.00e+00	0	61	0	1783627776	42	4314
2026-01-25 10:43:31.81	37.23	26.69	-35.6	-37.0	18.2	0.00e+00	0	61	0	1788870656	42	4292
2026-01-25 10:43:32.82	36.93	26.64	-35.5	-36.9	18.3	0.00e+00	0	61	0	1795162112	42	4258
2026-01-25 10:43:33.83	36.64	26.59	-35.5	-36.8	18.3	0.00e+00	0	61	0	1800404992	42	4241
2026-01-25 10:43:34.84	36.34	26.54	-35.5	-36.8	18.3	0.00e+00	0	61	0	1805647872	42	4226
2026-01-25 10:43:35.85	36.04	26.49	-35.5	-36.8	18.3	0.00e+00	0	61	0	1811939328	42	4222
2026-01-25 10:43:36.86	35.75	26.43	-35.5	-36.8	18.3	0.00e+00	0	61	0	1817182208	42	4217
2026-01-25 10:43:37.87	35.46	26.38	-35.5	-36.8	18.3	0.00e+00	0	61	0	1823473664	42	4225
2026-01-25 10:43:38.88	35.16	26.33	-35.6	-37.0	18.2	0.00e+00	0	61	0	1828716544	42	4292
2026-01-25 10:43:39.89	34.87	26.27	-35.6	-36.9	18.2	0.00e+00	0	62	0	1833959424	42	4269
2026-01-25 10:43:40.90	34.58	26.21	-35.5	-36.9	18.2	0.00e+00	0	61	0	1840250880	42	4256
2026-01-25 10:43:41.91	34.29	26.16	-35.6	-36.9	18.2	0.00e+00	0	61	0	1845493760	42	4266
2026-01-25 10:43:42.92	34.00	26.10	-35.5	-36.9	18.2	0.00e+00	0	61	0	1851785216	42	4267
2026-01-25 10:43:43.93	33.72	26.04	-35.4	-36.8	18.3	0.00e+00	0	61	0	1857028096	42	4208
2026-01-25 10:43:44.94	33.43	25.98	-35.4	-36.8	18.4	0.00e+00	0	61	0	1862270976	42	4197
2026-01-25 10:43:45.95	33.14	25.92	-35.5	-36.8	18.3	0.00e+00	0	61	0	1868562432	42	4234
2026-01-25 10:43:46.96	32.86	25.86	-35.6	-37.0	18.1	0.00e+00	0	62	0	1873805312	42	4304
2026-01-25 10:43:47.97	32.58	25.80	-35.7	-37.1	18.0	0.00e+00	0	61	0	1880096768	42	4343
2026-01-25 10:43:48.98	32.29	25.74	-35.7	-37.1	18.0	0.00e+00	0	61	0	1885339648	42	4352
2026-01-25 10:43:49.99	32.01	25.68	-35.8	-37.1	18.0	0.00e+00	0	62	0	1891631104	42	4388
2026-01-25 10:43:51.00	31.73	25.61	-35.8	-37.2	18.0	0.00e+00	0	62	0	1896873984	42	4402
2026-01-25 10:43:52.01	31.46	25.55	-35.9	-37.3	17.8	0.00e+00	0	61	0	1903165440	42	4462
2026-01-25 10:43:53.02	31.18	25.49	-35.9	-37.3	17.8	0.00e+00	0	61	0	1908408320	42	4477
2026-01-25 10:43:54.03	30.90	25.42	-35.9	-37.3	17.8	0.00e+00	0	61	0	1913651200	42	4486
2026-01-25 10:43:55.04	30.63	25.36	-35.9	-37.3	17.8	0.00e+00	0	61	0	1919942656	42	4448
2026-01-25 10:43:56.05	30.35	25.29	-35.8	-37.2	17.9	0.00e+00	0	61	0	1925185536	42	4393
2026-01-25 10:43:57.06	30.08	25.23	-35.9	-37.3	17.8	0.00e+00	0	61	0	1931476992	42	4463
2026-01-25 10:43:58.07	29.81	25.16	-36.0	-37.4	17.7	0.00e+00	0	62	0	1936719872	42	4503
2026-01-25 10:43:59.08	29.54	25.09	-35.8	-37.2	17.9	0.00e+00	0	61	0	1941962752	42	4414
2026-01-25 10:44:00.09	29.27	25.02	-35.8	-37.2	17.9	0.00e+00	0	62	0	1948254208	42	4427
2026-01-25 10:44:01.09	29.00	24.96	-35.8	-37.2	17.9	0.00e+00	0	61	0	1953497088	42	4410
2026-01-25 10:44:02.11	28.73	24.89	-35.9	-37.3	17.8	0.00e+00	0	62	0	1959788544	42	4444
2026-01-25 10:44:03.11	28.47	24.82	-35.9	-37.3	17.8	0.00e+00	0	61	0	1965031424	42	4469
2026-01-25 10:44:04.12	28.21	24.75	-36.0	-37.4	17.6	0.00e+00	0	61	0	1970274304	42	4535
2026-01-25 10:44:05.13	27.94	24.68	-36.0	-37.4	17.6	0.00e+00	0	62	0	1976565760	42	4522
2026-01-25 10:44:06.14	27.68	24.61	-35.9	-37.4	17.7	0.00e+00	0	61	0	1981808640	42	4500
2026-01-25 10:44:07.15	27.42	24.54	-36.0	-37.5	17.6	0.00e+00	0	61	0	1988100096	42	4555
2026-01-25 10:44:08.16	27.16	24.47	-35.9	-37.3	17.7	0.00e+00	0	62	0	1993342976	42	4480
2026-01-25 10:44:09.17	26.90	24.39	-35.9	-37.3	17.7	0.00e+00	0	61	0	1999634432	42	4480
2026-01-25 10:44:10.18	26.64	24.32	-35.8	-37.1	17.9	0.00e+00	0	61	0	2004877312	42	4376
2026-01-25 10:44:11.19	26.39	24.25	-35.6	-37.0	18.0	0.00e+00	0	61	0	2010120192	42	4300
2026-01-25 10:44:12.20	26.13	24.18	-35.5	-36.9	18.1	0.00e+00	0	62	0	2016411648	42	4265
2026-01-25 10:44:13.21	25.88	24.10	-35.6	-37.0	18.0	0.00e+00	0	61	0	2021654528	42	4303
2026-01-25 10:44:14.21	25.63	24.03	-35.8	-37.2	17.8	0.00e+00	0	61	0	2027945984	42	4403
2026-01-25 10:44:15.22	25.38	23.95	-35.9	-37.4	17.6	0.00e+00	0	61	0	2033188864	42	4497
2026-01-25 10:44:16.23	25.13	23.88	-36.0	-37.4	17.6	0.00e+00	0	61	0	2038431744	42	4540
2026-01-25 10:44:17.24	24.88	23.80	-35.9	-37.4	17.7	0.00e+00	0	61	0	2044723200	42	4505
2026-01-25 10:44:18.25	24.63	23.73	-35.9	-37.3	17.7	0.00e+00	0	62	0	2049966080	42	4470
2026-01-25 10:44:19.26	24.38	23.65	-35.9	-37.3	17.7	0.00e+00	0	62	0	2056257536	42	4479
2026-01-25 10:44:20.27	24.14	23.58	-36.0	-37.4	17.6	0.00e+00	0	62	0	2061500416	42	4501
2026-01-25 10:44:21.28	23.89	23.50	-35.9	-37.3	17.7	0.00e+00	0	62	0	2066743296	42	4475
2026-01-25 10:44:22.29	23.65	23.42	-36.0	-37.4	17.7	0.00e+00	0	62	0	2073034752	42	4525
2026-01-25 10:44:23.30	23.41	23.34	-36.0	-37.5	17.6	0.00e+00	0	62	0	2078277632	42	4561
2026-01-25 10:44:24.31	23.17	23.27	-36.1	-37.5	17.6	0.00e+00	0	61	0	2084569088	42	4559
2026-01-25 10:44:25.32	22.93	23.19	-36.0	-37.5	17.6	0.00e+00	0	61	0	2089811968	42	4549
2026-01-25 10:44:26.33	22.69	23.11	-36.1	-37.5	17.6	0.00e+00	0	62	0	2096103424	42	4575
2026-01-25 10:44:27.34	22.46	23.03	-36.2	-37.6	17.4	0.00e+00	0	62	0	2101346304	42	4639
2026-01-25 10:44:28.35	22.22	22.95	-36.1	-37.5	17.5	0.00e+00	0	62	0	2107637760	43	4335
2026-01-25 10:44:29.36	21.99	22.87	-36.0	-37.4	17.6	0.00e+00	0	62	0	2112880640	43	4291
2026-01-25 10:44:30.37	21.75	22.80	-36.0	-37.4	17.6	0.00e+00	0	62	0	2118123520	43	4284
2026-01-25 10:44:31.37	21.52	22.72	-36.0	-37.4	17.6	0.00e+00	0	62	0	2124414976	43	4263
2026-01-25 10:44:32.39	21.29	22.64	-36.1	-37.5	17.5	0.00e+00	0	62	0	2129657856	43	4318
2026-01-25 10:44:33.39	21.06	22.56	-36.2	-37.6	17.4	0.00e+00	0	62	0	2134900736	43	4371
2026-01-25 10:44:34.39	20.84	22.48	-36.3	-37.7	17.3	0.00e+00	0	62	0	2141192192	43	4436
2026-01-25 10:44:35.40	20.61	22.40	-36.3	-37.8	17.2	0.00e+00	0	62	0	2146435072	43	4453
2026-01-25 10:44:36.41	20.38	22.32	-36.3	-37.8	17.2	0.00e+00	0	62	0	2152726528	43	4487
2026-01-25 10:44:37.42	20.16	22.23	-36.4	-37.9	17.1	0.00e+00	0	62	0	2157969408	43	4501
2026-01-25 10:44:38.43	19.93	22.15	-36.5	-38.0	17.0	0.00e+00	0	61	0	2163212288	43	4583
2026-01-25 10:44:39.44	19.71	22.07	-36.5	-38.0	17.0	0.00e+00	0	61	0	2169503744	43	4569
2026-01-25 10:44:40.45	19.49	21.99	-36.4	-37.9	17.1	0.00e+00	0	61	0	2174746624	43	4502
2026-01-25 10:44:41.46	19.27	21.91	-36.4	-37.8	17.1	0.00e+00	0	62	0	2181038080	43	4487
2026-01-25 10:44:42.47	19.05	21.83	-36.4	-37.9	17.1	0.00e+00	0	61	0	2186280960	43	4520
2026-01-25 10:44:43.48	18.83	21.74	-36.5	-37.9	17.0	0.00e+00	0	62	0	2192572416	43	4538
2026-01-25 10:44:44.49	18.62	21.66	-36.4	-37.9	17.1	0.00e+00	0	62	0	2197815296	43	4525
2026-01-25 10:44:45.50	18.40	21.58	-36.5	-38.0	17.0	0.00e+00	0	61	0	2204106752	43	4557
2026-01-25 10:44:46.51	18.19	21.50	-36.5	-38.0	16.9	0.00e+00	0	62	0	2209349632	43	4596
2026-01-25 10:44:47.52	17.97	21.41	-36.5	-38.0	17.0	0.00e+00	0	62	0	2214592512	43	4571
2026-01-25 10:44:48.53	17.76	21.33	-36.4	-37.9	17.0	0.00e+00	0	61	0	2220883968	43	4543
2026-01-25 10:44:49.54	17.55	21.25	-36.4	-37.9	17.0	0.00e+00	0	62	0	2226126848	43	4531
2026-01-25 10:44:50.55	17.34	21.16	-36.4	-38.0	17.0	0.00e+00	0	61	0	2232418304	43	4547
2026-01-25 10:44:51.56	17.13	21.08	-36.6	-38.1	16.8	0.00e+00	0	61	0	2237661184	43	4647
2026-01-25 10:44:52.57	16.93	21.00	-36.5	-38.1	16.9	0.00e+00	0	62	0	2242904064	43	4601
2026-01-25 10:44:53.58	16.72	20.91	-36.5	-38.0	17.0	0.00e+00	0	61	0	2249195520	43	4577
2026-01-25 10:44:54.59	16.51	20.83	-36.5	-38.0	17.0	0.00e+00	0	62	0	2254438400	43	4565
2026-01-25 10:44:55.60	16.31	20.75	-36.5	-38.1	16.9	0.00e+00	0	61	0	2260729856	43	4599
2026-01-25 10:44:56.61	16.11	20.66	-36.5	-38.0	17.0	0.00e+00	0	62	0	2265972736	43	4566
2026-01-25 10:44:57.62	15.91	20.58	-36.5	-38.0	16.9	0.00e+00	0	62	0	2271215616	43	4572
2026-01-25 10:44:58.63	15.70	20.49	-36.5	-38.1	16.9	0.00e+00	0	62	0	2277507072	43	4601
2026-01-25 10:44:59.64	15.51	20.41	-36.5	-38.0	16.9	0.00e+00	0	61	0	2282749952	43	4598
2026-01-25 10:45:00.65	15.31	20.33	-36.4	-37.9	17.0	0.00e+00	0	62	0	2289041408	43	4520
2026-01-25 10:45:01.66	15.11	20.24	-36.3	-37.8	17.1	0.00e+00	0	62	0	2294284288	43	4457
2026-01-25 10:45:02.67	14.91	20.16	-36.3	-37.7	17.2	0.00e+00	0	62	0	2300575744	43	4424
2026-01-25 10:45:03.68	14.72	20.07	-36.3	-37.7	17.2	0.00e+00	0	62	0	2305818624	43	4435
2026-01-25 10:45:04.69	14.52	19.99	-36.3	-37.7	17.2	0.00e+00	0	62	0	2312110080	43	4431
2026-01-25 10:45:05.70	14.33	19.90	-36.4	-37.9	17.0	0.00e+00	0	62	0	2317352960	43	4507
2026-01-25 10:45:06.70	14.14	19.82	-36.3	-37.9	17.0	0.00e+00	0	61	0	2322595840	43	4498
2026-01-25 10:45:07.72	13.95	19.73	-36.4	-37.9	17.0	0.00e+00	0	62	0	2328887296	43	4523
2026-01-25 10:45:08.73	13.76	19.65	-36.5	-38.0	16.9	0.00e+00	0	62	0	2334130176	43	4570
2026-01-25 10:45:09.74	13.57	19.56	-36.5	-38.0	16.8	0.00e+00	0	61	0	2340421632	43	4596
2026-01-25 10:45:10.75	13.38	19.48	-36.5	-38.0	16.8	0.00e+00	0	62	0	2345664512	43	4595
2026-01-25 10:45:11.76	13.20	19.39	-36.6	-38.1	16.8	0.00e+00	0	61	0	2350907392	43	4617
2026-01-25 10:45:12.77	13.01	19.31	-36.7	-38.2	16.6	0.00e+00	0	62	0	2357198848	43	4701
2026-01-25 10:45:13.78	12.83	19.22	-36.7	-38.2	16.6	0.00e+00	0	62	0	2362441728	43	4686
2026-01-25 10:45:14.78	12.65	19.14	-36.7	-38.2	16.7	0.00e+00	0	62	0	2367684608	43	4680
2026-01-25 10:45:15.79	12.46	19.05	-36.9	-38.4	16.6	0.00e+00	0	62	0	2373976064	44	4545
2026-01-25 10:45:16.80	12.28	18.97	-37.0	-38.6	16.4	0.00e+00	0	62	0	2379218944	44	4618
2026-01-25 10:45:17.81	12.10	18.88	-37.1	-38.7	16.4	0.00e+00	0	62	0	2385510400	44	4653
2026-01-25 10:45:18.82	11.92	18.80	-37.0	-38.6	16.4	0.00e+00	0	62	0	2390753280	44	4618
2026-01-25 10:45:19.83	11.74	18.71	-37.1	-38.7	16.3	0.00e+00	0	62	0	2397044736	44	4657
2026-01-25 10:45:20.84	11.57	18.63	-37.1	-38.8	16.2	0.00e+00	0	62	0	2402287616	44	4721
2026-01-25 10:45:21.85	11.39	18.55	-37.2	-38.8	16.2	0.00e+00	0	62	0	2408579072	44	4749
2026-01-25 10:45:22.86	11.22	18.46	-37.1	-38.8	16.2	0.00e+00	0	62	0	2413821952	44	4720
2026-01-25 10:45:23.86	11.04	18.38	-37.2	-38.8	16.2	0.00e+00	0	62	0	2419064832	44	4744
2026-01-25 10:45:24.88	10.87	18.29	-37.2	-38.8	16.1	0.00e+00	0	62	0	2425356288	44	4736
2026-01-25 10:45:25.89	10.70	18.21	-37.1	-38.8	16.2	0.00e+00	0	62	0	2430599168	44	4712
2026-01-25 10:45:26.90	10.52	18.12	-37.2	-38.8	16.1	0.00e+00	0	62	0	2436890624	44	4759
2026-01-25 10:45:27.91	10.35	18.04	-37.2	-38.8	16.2	0.00e+00	0	62	0	2442133504	45	4453
2026-01-25 10:45:28.92	10.19	17.95	-37.1	-38.8	16.2	0.00e+00	0	62	0	2447376384	45	4453
2026-01-25 10:45:29.93	10.02	17.87	-37.0	-38.6	16.3	0.00e+00	0	62	0	2453667840	45	4384
2026-01-25 10:45:30.94	9.85	17.78	-37.1	-38.8	16.2	0.00e+00	0	62	0	2458910720	45	4449
2026-01-25 10:45:31.95	9.68	17.70	-37.2	-38.8	16.1	0.00e+00	0	62	0	2465202176	45	4492
2026-01-25 10:45:32.96	9.52	17.61	-37.2	-38.9	16.0	0.00e+00	0	62	0	2470445056	45	4500
2026-01-25 10:45:33.97	9.35	17.53	-37.2	-38.9	16.0	0.00e+00	0	62	0	2475687936	45	4520
2026-01-25 10:45:34.98	9.19	17.44	-37.3	-39.0	15.8	0.00e+00	0	62	0	2481979392	45	4591
2026-01-25 10:45:35.99	9.03	17.36	-37.3	-39.0	15.8	0.00e+00	0	62	0	2487222272	45	4586
2026-01-25 10:45:37.00	8.87	17.27	-37.3	-39.1	15.7	0.00e+00	0	62	0	2493513728	45	4600
2026-01-25 10:45:38.01	8.70	17.19	-37.4	-39.1	15.7	0.00e+00	0	62	0	2498756608	45	4618
2026-01-25 10:45:39.02	8.54	17.10	-37.5	-39.3	15.5	0.00e+00	0	62	0	2505048064	45	4719
2026-01-25 10:45:40.03	8.39	17.02	-37.4	-39.1	15.6	0.00e+00	0	62	0	2510290944	45	4647
2026-01-25 10:45:41.03	8.23	16.94	-37.4	-39.1	15.6	0.00e+00	0	62	0	2515533824	45	4615
2026-01-25 10:45:42.04	8.07	16.85	-37.3	-39.1	15.7	0.00e+00	0	62	0	2521825280	45	4600
2026-01-25 10:45:43.05	7.92	16.77	-37.4	-39.1	15.6	0.00e+00	0	61	0	2527068160	45	4638
2026-01-25 10:45:44.06	7.76	16.68	-37.4	-39.2	15.6	0.00e+00	0	62	0	2533359616	45	4655
2026-01-25 10:45:45.07	7.61	16.60	-37.4	-39.1	15.5	0.00e+00	0	62	0	2538602496	45	4650
2026-01-25 10:45:46.08	7.45	16.52	-37.4	-39.2	15.5	0.00e+00	0	62	0	2543845376	45	4658
2026-01-25 10:45:47.09	7.30	16.43	-37.5	-39.2	15.3	0.00e+00	0	62	0	2550136832	45	4697
2026-01-25 10:45:48.10	7.15	16.35	-37.4	-39.2	15.4	0.00e+00	0	62	0	2555379712	45	4683
2026-01-25 10:45:49.11	7.00	16.27	-37.5	-39.2	15.3	0.00e+00	0	62	0	2561671168	45	4701
2026-01-25 10:45:50.12	6.85	16.18	-37.4	-39.2	15.3	0.00e+00	0	62	0	2566914048	45	4696
2026-01-25 10:45:51.14	6.70	16.10	-37.5	-39.4	15.2	0.00e+00	0	62	0	2573205504	45	4767
2026-01-25 10:45:52.15	6.55	16.01	-37.6	-39.4	15.1	0.00e+00	0	62	0	2578448384	45	4810
2026-01-25 10:45:53.16	6.40	15.93	-37.7	-39.6	14.9	0.00e+00	0	61	0	2583691264	45	4890
2026-01-25 10:45:54.17	6.25	15.85	-37.7	-39.5	14.9	2.20e-06	0	62	0	2589982720	46	4589
2026-01-25 10:45:55.18	6.11	15.77	-37.7	-39.5	14.9	0.00e+00	0	62	0	2595225600	46	4580
2026-01-25 10:45:56.18	5.96	15.68	-37.6	-39.5	14.9	0.00e+00	0	62	0	2601517056	46	4562
2026-01-25 10:45:57.19	5.82	15.60	-37.5	-39.4	15.0	0.00e+00	0	62	0	2606759936	46	4501
2026-01-25 10:45:58.20	5.68	15.52	-37.5	-39.3	15.0	0.00e+00	0	62	0	2613051392	46	4481
2026-01-25 10:45:59.21	5.53	15.43	-37.5	-39.3	15.0	0.00e+00	0	62	0	2618294272	46	4464
2026-01-25 10:46:00.22	5.39	15.35	-37.5	-39.4	14.9	0.00e+00	0	62	0	2623537152	46	4512
2026-01-25 10:46:01.23	5.25	15.27	-37.6	-39.5	14.8	1.10e-06	0	62	0	2629828608	46	4566
2026-01-25 10:46:02.24	5.11	15.19	-37.6	-39.4	14.8	2.20e-06	0	62	0	2635071488	46	4542
2026-01-25 10:46:03.25	4.97	15.10	-37.7	-39.7	14.5	0.00e+00	0	62	0	2641362944	46	4652
2026-01-25 10:46:04.26	4.83	15.02	-37.6	-39.6	14.5	1.10e-06	0	62	0	2646605824	46	4625
2026-01-25 10:46:05.27	4.69	14.94	-37.6	-39.6	14.4	1.10e-06	0	62	0	2651848704	46	4619
2026-01-25 10:46:06.28	4.56	14.86	-37.8	-39.9	14.0	3.40e-06	0	62	0	2658140160	46	4775
2026-01-25 10:46:07.29	4.42	14.78	-37.8	-39.8	14.0	2.20e-06	0	62	0	2663383040	46	4743
2026-01-25 10:46:08.30	4.28	14.69	-37.6	-39.6	14.3	4.50e-06	0	62	0	2669674496	46	4616
2026-01-25 10:46:09.32	4.15	14.61	-37.6	-39.6	14.3	0.00e+00	0	62	0	2674917376	46	4605
2026-01-25 10:46:10.33	4.01	14.53	-37.5	-39.6	14.1	1.10e-06	0	62	0	2680160256	46	4608
2026-01-25 10:46:11.34	3.88	14.45	-37.8	-40.0	13.5	1.37e-05	0	62	0	2686451712	46	4853
2026-01-25 10:46:12.35	3.75	14.37	-37.9	-40.1	13.4	2.97e-05	0	62	0	2691694592	46	4889
2026-01-25 10:46:13.36	3.62	14.29	-38.0	-40.3	13.1	3.31e-05	0	62	0	2697986048	46	5026
2026-01-25 10:46:14.37	3.49	14.21	-37.8	-40.0	13.3	3.77e-05	0	62	0	2703228928	46	4860
2026-01-25 10:46:15.38	3.36	14.13	-37.8	-40.1	13.1	3.66e-05	0	62	0	2709520384	46	4909
2026-01-25 10:46:16.39	3.23	14.04	-37.4	-39.6	13.5	4.46e-05	0	62	0	2714763264	46	4645
2026-01-25 10:46:17.40	3.10	13.96	-37.0	-39.1	14.0	2.20e-06	0	61	0	2721054720	46	4357
2026-01-25 10:46:18.41	2.97	13.88	-37.2	-39.3	13.8	4.50e-06	0	62	0	2726297600	46	4457
2026-01-25 10:46:19.42	2.84	13.80	-37.1	-39.2	13.8	4.50e-06	0	62	0	2731540480	46	4409
2026-01-25 10:46:20.43	2.71	13.72	-37.1	-39.2	13.7	9.10e-06	0	62	0	2737831936	46	4416
2026-01-25 10:46:21.44	2.59	13.64	-37.4	-39.7	13.0	5.26e-05	0	62	0	2743074816	46	4670
2026-01-25 10:46:22.45	2.46	13.56	-37.8	-40.4	12.2	1.82e-04	0	62	0	2749366272	46	5077
2026-01-25 10:46:23.46	2.34	13.48	-38.2	-41.0	11.4	1.10e-03	0	62	0	2754609152	46	5460
2026-01-25 10:46:24.47	2.21	13.40	-38.9	-42.2	10.2	4.63e-03	0	62	0	2759852032	48	5575
2026-01-25 10:46:25.48	2.09	13.32	-39.6	-43.6	8.6	3.70e-02	0	62	0	2766143488	49	6157
2026-01-25 10:46:26.49	1.97	13.24	-40.7	-45.4	6.9	1.36e-01	0	62	0	2771386368	51	6773
2026-01-25 10:46:27.50	1.85	13.16	-40.5	-46.4	5.9	3.65e-01	0	62	0	2777677824	51	7549
2026-01-25 10:46:28.51	1.73	13.08	-40.6	-47.1	5.3	7.10e-01	0	62	0	2780823552	51	8201
2026-01-25 10:46:29.52	1.61	13.00	-40.7	-47.9	4.8	7.80e-01	0	62	0	2780823552	52	8513
2026-01-25 10:46:30.52	1.49	12.93	-40.8	-48.6	4.4	8.23e-01	0	62	0	2780823552	52	9265
2026-01-25 10:46:31.54	1.37	12.85	-40.7	-50.6	3.8	8.37e-01	0	62	104	2780823552	52	11676
2026-01-25 10:46:32.55	1.25	12.77	-41.0	-50.5	3.8	8.45e-01	0	62	104	2780823552	52	11474
2026-01-25 10:46:33.56	1.13	12.69	-40.7	-52.2	3.8	8.43e-01	0	62	104	2780823552	53	13207
2026-01-25 10:46:34.57	1.01	12.61	-40.7	-52.2	3.8	8.47e-01	0	62	104	2780823552	52	13988
2026-01-25 10:46:35.58	0.90	12.53	-41.2	-51.8	3.8	8.46e-01	0	62	104	2780823552	52	13367
2026-01-25 10:46:36.59	0.78	12.45	-41.3	-51.5	3.8	8.46e-01	0	62	104	2780823552	54	11518
2026-01-25 10:46:37.60	0.66	12.38	-41.1	-51.5	3.8	8.46e-01	0	62	104	2780823552	54	11421
2026-01-25 10:46:38.61	0.55	12.30	-41.1	-51.4	3.8	8.45e-01	0	62	104	2780823552	54	11379
2026-01-25 10:46:39.62	0.44	12.22	-41.0	-51.9	3.8	8.46e-01	0	62	104	2780823552	54	11979
2026-01-25 10:46:40.63	0.32	12.14	-40.9	-52.0	3.8	8.46e-01	0	62	104	2780823552	53	12859
2026-01-25 10:46:41.64	0.21	12.07	-40.4	-51.9	3.8	8.46e-01	0	62	104	2780823552	52	13465
2026-01-25 10:46:42.64	0.10	11.99	-40.2	-51.8	3.8	8.46e-01	0	62	104	2780823552	52	13291
2026-01-25 10:46:43.65	359.99	11.91	-40.5	-52.1	3.8	8.45e-01	0	62	104	2780823552	52	13735
2026-01-25 10:46:44.67	359.87	11.83	-40.7	-52.2	3.8	8.46e-01	0	62	104	2780823552	52	13946
2026-01-25 10:46:45.67	359.76	11.76	-40.2	-51.8	3.8	8.46e-01	0	62	104	2780823552	52	13296
2026-01-25 10:46:46.69	359.65	11.68	-40.1	-51.7	3.8	8.46e-01	0	62	104	2780823552	52	13119
2026-01-25 10:46:47.69	359.55	11.60	-40.3	-51.9	3.8	8.45e-01	0	62	104	2780823552	52	13516
2026-01-25 10:46:48.70	359.44	11.53	-40.6	-52.1	3.8	8.46e-01	0	62	104	2780823552	52	13778
2026-01-25 10:46:49.71	359.33	11.45	-40.1	-51.7	3.8	8.47e-01	0	62	104	2780823552	52	13119
2026-01-25 10:46:50.72	359.22	11.37	-40.1	-51.6	3.8	8.46e-01	0	62	104	2780823552	51	13857
2026-01-25 10:46:51.73	359.11	11.30	-40.3	-51.8	3.8	8.47e-01	0	62	104	2780823552	51	14071
2026-01-25 10:46:52.74	359.01	11.22	-40.5	-52.1	3.8	8.46e-01	0	62	104	2780823552	51	14598
2026-01-25 10:46:53.75	358.90	11.15	-40.0	-51.6	3.8	8.46e-01	0	62	104	2780823552	51	13807
2026-01-25 10:46:54.76	358.80	11.07	-40.0	-51.6	3.8	8.46e-01	0	62	104	2780823552	51	13786
2026-01-25 10:46:55.77	358.69	10.99	-40.2	-51.7	3.8	8.48e-01	0	62	104	2780823552	51	13966
2026-01-25 10:46:56.78	358.59	10.92	-40.4	-52.0	3.8	8.46e-01	0	62	104	2780823552	51	14391
2026-01-25 10:46:57.79	358.48	10.84	-40.0	-51.5	3.8	8.45e-01	0	62	104	2780823552	51	13675
2026-01-25 10:46:58.80	358.38	10.77	-40.0	-51.6	3.8	8.45e-01	0	62	104	2780823552	51	13732
2026-01-25 10:46:59.81	358.28	10.69	-40.1	-51.7	3.8	8.46e-01	0	62	104	2780823552	51	13890
2026-01-25 10:47:00.82	358.18	10.62	-40.3	-51.9	3.8	8.46e-01	0	62	104	2780823552	51	14222
2026-01-25 10:47:01.83	358.08	10.54	-39.9	-51.5	3.8	8.45e-01	0	62	104	2780823552	51	13690
2026-01-25 10:47:02.84	357.97	10.47	-39.9	-51.5	3.8	8.46e-01	0	62	104	2780823552	51	13653
2026-01-25 10:47:03.84	357.88	10.39	-40.0	-51.6	3.8	8.46e-01	0	62	104	2780823552	51	13793
2026-01-25 10:47:04.85	357.78	10.32	-40.2	-51.8	3.8	8.45e-01	0	62	104	2780823552	51	14122
2026-01-25 10:47:05.86	357.68	10.25	-39.9	-51.5	3.8	8.47e-01	0	62	104	2780823552	51	13605
2026-01-25 10:47:06.87	357.58	10.17	-39.9	-51.4	3.8	8.46e-01	0	62	104	2780823552	51	13542
2026-01-25 10:47:07.88	357.48	10.10	-40.0	-51.6	3.8	8.47e-01	0	62	104	2780823552	51	13745
2026-01-25 10:47:08.89	357.38	10.02	-40.2	-51.7	3.8	8.46e-01	0	62	104	2780823552	51	13988
2026-01-25 10:47:09.90	357.28	9.95	-39.9	-51.5	3.8	8.47e-01	0	62	104	2780823552	51	13692
2026-01-25 10:47:10.92	357.19	9.88	-39.9	-51.4	3.8	8.46e-01	0	62	104	2780823552	51	13527
2026-01-25 10:47:11.92	357.09	9.80	-39.9	-51.5	3.8	8.46e-01	0	62	104	2780823552	51	13669
2026-01-25 10:47:12.93	357.00	9.73	-40.1	-51.6	3.8	8.46e-01	0	62	104	2780823552	51	13821
2026-01-25 10:47:13.94	356.90	9.66	-39.9	-51.5	3.8	8.46e-01	0	62	104	2780823552	51	13635
2026-01-25 10:47:14.95	356.81	9.58	-39.9	-51.4	3.8	8.46e-01	0	62	104	2780823552	51	13539
2026-01-25 10:47:15.96	356.71	9.51	-39.9	-51.5	3.8	8.47e-01	0	62	104	2780823552	51	13597
2026-01-25 10:47:16.97	356.62	9.44	-40.0	-51.6	3.8	8.46e-01	0	62	104	2780823552	51	13754
2026-01-25 10:47:17.98	356.52	9.37	-39.9	-51.4	3.8	8.45e-01	0	62	104	2780823552	51	13532
2026-01-25 10:47:18.99	356.43	9.29	-39.9	-51.4	3.8	8.48e-01	0	62	104	2780823552	51	13559
2026-01-25 10:47:20.00	356.34	9.22	-39.9	-51.4	3.8	8.46e-01	0	62	104	2780823552	51	13498
2026-01-25 10:47:21.00	356.25	9.15	-40.0	-51.5	3.8	8.47e-01	0	62	104	2780823552	51	13718
2026-01-25 10:47:22.01	356.16	9.08	-39.9	-51.4	3.8	8.47e-01	0	62	104	2780823552	51	13523
2026-01-25 10:47:23.02	356.07	9.00	-40.0	-51.5	3.8	8.45e-01	0	62	104	2780823552	51	13653
2026-01-25 10:47:24.04	355.98	8.93	-39.8	-51.4	3.8	8.46e-01	0	62	104	2780823552	51	13497
2026-01-25 10:47:25.05	355.89	8.86	-40.0	-51.5	3.8	8.45e-01	0	62	104	2780823552	51	13702
2026-01-25 10:47:26.06	355.80	8.79	-39.9	-51.4	3.8	8.46e-01	0	62	104	2780823552	51	13532
2026-01-25 10:47:27.07	355.71	8.72	-40.0	-51.6	3.8	8.45e-01	0	62	104	2780823552	51	13797
2026-01-25 10:47:28.08	355.62	8.65	-39.8	-51.4	3.8	8.47e-01	0	62	104	2780823552	51	13523
2026-01-25 10:47:29.09	355.53	8.58	-40.0	-51.6	3.8	8.46e-01	0	62	104	2780823552	51	13773
2026-01-25 10:47:30.09	355.44	8.51	-39.9	-51.5	3.8	8.46e-01	0	62	104	2780823552	51	13570
2026-01-25 10:47:31.11	355.36	8.43	-40.0	-51.6	3.8	8.46e-01	0	62	104	2780823552	51	13745
2026-01-25 10:47:32.11	355.27	8.36	-39.9	-51.5	3.8	8.46e-01	0	62	104	2780823552	51	13574
2026-01-25 10:47:33.12	355.18	8.29	-40.0	-51.6	3.8	8.46e-01	0	62	104	2780823552	51	13743
2026-01-25 10:47:34.13	355.10	8.22	-39.9	-51.5	3.8	8.46e-01	0	62	104	2780823552	51	13605
2026-01-25 10:47:35.14	355.01	8.15	-40.0	-51.5	3.8	8.46e-01	0	62	104	2780823552	51	13679
2026-01-25 10:47:36.15	354.93	8.08	-39.9	-51.5	3.8	8.46e-01	0	62	104	2780823552	51	13630
2026-01-25 10:47:37.16	354.84	8.01	-40.1	-51.6	3.8	8.47e-01	0	62	104	2780823552	51	13800
2026-01-25 10:47:38.17	354.76	7.94	-40.8	-52.3	3.8	8.47e-01	0	62	104	2780823552	52	14148
2026-01-25 10:47:39.18	354.67	7.87	-43.0	-54.6	3.8	8.47e-01	0	62	104	2780823552	56	14560
2026-01-25 10:47:40.19	354.59	7.80	-44.5	-56.1	3.8	8.46e-01	0	62	104	2780823552	59	14608
2026-01-25 10:47:41.20	354.51	7.73	-44.9	-56.8	3.8	8.46e-01	0	62	104	2780823552	60	14880
2026-01-25 10:47:42.21	354.43	7.66	-45.1	-56.9	3.8	8.45e-01	0	62	104	2780823552	60	15202
2026-01-25 10:47:43.22	354.34	7.59	-45.2	-57.0	3.8	8.46e-01	0	62	104	2780823552	61	14479
2026-01-25 10:47:44.23	354.26	7.53	-45.2	-57.0	3.8	8.47e-01	0	62	104	2780823552	61	14512
2026-01-25 10:47:45.24	354.18	7.46	-45.3	-57.0	3.8	8.45e-01	0	62	104	2780823552	61	14532
2026-01-25 10:47:46.25	354.10	7.39	-45.3	-57.1	3.8	8.46e-01	0	62	104	2780823552	61	14589
2026-01-25 10:47:47.26	354.02	7.32	-45.1	-57.0	3.8	8.47e-01	0	62	104	2780823552	61	14507
