passes_logs/2026/01/25/R2.0S_Moscow/R2.0S_Moscow__20260125_220848_NOAA_20_JPSS-1_rec.log

#Pass ID: 20260125_220848_NOAA 20 (JPSS-1)
#Satellite: NOAA 20 (JPSS-1)
#Configuration: NOAA 20
#almurnet v.1.7.20251203
#Start time: 2026-01-25 22:08:48

#Version: 2.2.20231116
#Station: R2.0S_Moscow
#Location: 37.707566 lon 55.798166 lat
#TLE: 1 43013U 17073A   26025.47986292  .00000161  00000+0  97249-4 0  9993
#TLE: 2 43013  98.7646 326.3091 0001052  24.2709 335.8516 14.19540188424225

#Time	Az	El	Level	Level2	SNR	BER	BlckErr	Temp	State	Recorded	gain1	gain2
2026-01-25 22:08:48.10	25.44	1.98	-42.2	-56.7	3.8	1.49e+00	0	52	0	0	56	18704
2026-01-25 22:08:49.10	25.51	2.04	-42.2	-56.8	3.8	1.49e+00	0	52	104	0	56	18736
2026-01-25 22:08:50.11	25.58	2.09	-42.2	-56.7	3.8	1.49e+00	0	52	104	0	56	18680
2026-01-25 22:08:51.12	25.66	2.14	-42.2	-56.7	3.8	1.49e+00	0	52	104	0	56	18682
2026-01-25 22:08:52.13	25.73	2.20	-42.2	-56.7	3.8	1.49e+00	0	52	104	0	56	18705
2026-01-25 22:08:53.14	25.80	2.25	-42.2	-56.7	3.8	1.49e+00	0	52	104	0	56	18706
2026-01-25 22:08:54.15	25.88	2.31	-42.2	-56.7	3.8	1.49e+00	0	52	104	0	56	18678
2026-01-25 22:08:55.16	25.95	2.36	-42.2	-56.8	3.8	1.49e+00	0	53	104	0	56	18737
2026-01-25 22:08:56.17	26.03	2.42	-42.2	-56.7	3.8	1.49e+00	0	53	104	0	56	18686
2026-01-25 22:08:57.18	26.10	2.47	-42.2	-56.7	3.8	1.49e+00	0	53	104	0	56	18684
2026-01-25 22:08:58.19	26.18	2.53	-42.2	-56.7	3.8	1.49e+00	0	53	104	0	56	18671
2026-01-25 22:08:59.20	26.25	2.58	-42.2	-56.7	3.8	1.49e+00	0	53	104	0	56	18701
2026-01-25 22:09:00.21	26.33	2.64	-42.2	-56.8	3.8	1.49e+00	0	53	104	0	56	18738
2026-01-25 22:09:01.22	26.41	2.70	-42.2	-56.7	3.8	1.49e+00	0	53	104	0	56	18711
2026-01-25 22:09:02.23	26.48	2.75	-42.2	-56.8	3.8	1.49e+00	0	53	104	0	56	18734
2026-01-25 22:09:03.24	26.56	2.81	-42.2	-56.8	3.8	1.49e+00	0	53	104	0	56	18737
2026-01-25 22:09:04.25	26.64	2.86	-42.2	-56.7	3.8	1.49e+00	0	53	104	0	56	18684
2026-01-25 22:09:05.26	26.71	2.92	-42.2	-56.7	3.8	1.49e+00	0	53	104	0	56	18717
2026-01-25 22:09:06.28	26.79	2.97	-42.2	-56.7	3.8	1.49e+00	0	53	104	0	56	18679
2026-01-25 22:09:07.28	26.87	3.03	-42.2	-56.8	3.8	1.49e+00	0	53	104	0	56	18780
2026-01-25 22:09:08.29	26.95	3.09	-42.2	-56.8	3.8	1.49e+00	0	53	104	0	56	18744
2026-01-25 22:09:09.30	27.02	3.14	-42.2	-56.8	3.8	1.49e+00	0	54	104	0	56	18742
2026-01-25 22:09:10.31	27.10	3.20	-42.2	-56.7	3.8	1.49e+00	0	54	104	0	56	18693
2026-01-25 22:09:11.32	27.18	3.25	-42.2	-56.7	3.8	1.49e+00	0	54	104	0	56	18679
2026-01-25 22:09:12.33	27.26	3.31	-42.2	-56.7	3.8	1.49e+00	0	54	104	0	56	18726
2026-01-25 22:09:13.34	27.34	3.37	-42.2	-56.7	3.8	1.49e+00	0	54	104	0	56	18713
2026-01-25 22:09:14.36	27.42	3.42	-42.2	-56.7	3.8	1.49e+00	0	54	104	0	56	18711
2026-01-25 22:09:15.37	27.50	3.48	-42.2	-56.7	3.8	1.49e+00	0	54	104	0	56	18636
2026-01-25 22:09:16.38	27.58	3.54	-42.2	-56.7	3.8	1.49e+00	0	54	104	0	56	18725
2026-01-25 22:09:17.39	27.66	3.59	-42.2	-56.7	3.8	1.49e+00	0	54	104	0	56	18700
2026-01-25 22:09:18.40	27.74	3.65	-42.2	-56.7	3.8	1.49e+00	0	54	104	0	56	18654
2026-01-25 22:09:19.41	27.82	3.71	-42.2	-56.7	3.8	1.49e+00	0	54	104	0	56	18704
2026-01-25 22:09:20.42	27.90	3.76	-42.2	-56.7	3.8	1.49e+00	0	54	104	0	56	18727
2026-01-25 22:09:21.43	27.99	3.82	-42.2	-56.7	3.8	1.49e+00	0	54	104	0	56	18715
2026-01-25 22:09:22.44	28.07	3.88	-42.2	-56.7	3.8	1.49e+00	0	54	104	0	56	18675
2026-01-25 22:09:23.45	28.15	3.93	-42.2	-56.7	3.8	1.49e+00	0	54	104	0	56	18678
2026-01-25 22:09:24.46	28.23	3.99	-42.2	-56.7	3.8	1.49e+00	0	55	104	0	56	18730
2026-01-25 22:09:25.47	28.32	4.05	-42.2	-56.7	3.8	1.49e+00	0	55	104	0	56	18722
2026-01-25 22:09:26.48	28.40	4.11	-42.2	-56.7	3.8	1.49e+00	0	54	104	0	56	18648
2026-01-25 22:09:27.49	28.48	4.16	-42.2	-56.7	3.8	1.49e+00	0	55	104	0	56	18650
2026-01-25 22:09:28.50	28.57	4.22	-42.2	-56.7	3.8	1.49e+00	0	55	104	0	56	18635
2026-01-25 22:09:29.51	28.65	4.28	-42.2	-56.7	3.8	1.49e+00	0	55	104	0	56	18685
2026-01-25 22:09:30.52	28.73	4.34	-42.2	-56.7	3.8	1.49e+00	0	55	104	0	56	18650
2026-01-25 22:09:31.53	28.82	4.39	-42.2	-56.7	3.8	1.49e+00	0	55	104	0	56	18711
2026-01-25 22:09:32.54	28.90	4.45	-42.2	-56.7	3.8	1.49e+00	0	55	104	0	56	18679
2026-01-25 22:09:33.55	28.99	4.51	-42.2	-56.7	3.8	1.49e+00	0	55	104	0	56	18722
2026-01-25 22:09:34.56	29.08	4.57	-42.2	-56.7	3.8	1.49e+00	0	55	104	0	56	18697
2026-01-25 22:09:35.57	29.16	4.62	-42.2	-56.7	3.8	1.49e+00	0	55	104	0	56	18685
2026-01-25 22:09:36.58	29.25	4.68	-42.2	-56.7	3.8	1.49e+00	0	55	104	0	56	18708
2026-01-25 22:09:37.60	29.34	4.74	-42.2	-56.7	3.8	1.49e+00	0	55	104	0	56	18704
2026-01-25 22:09:38.61	29.42	4.80	-42.2	-56.7	3.8	1.49e+00	0	55	104	0	56	18649
2026-01-25 22:09:39.62	29.51	4.86	-42.2	-56.7	3.8	1.49e+00	0	55	104	0	56	18714
2026-01-25 22:09:40.63	29.60	4.92	-42.2	-56.7	3.8	1.49e+00	0	55	104	0	56	18670
2026-01-25 22:09:41.64	29.69	4.97	-42.2	-56.7	3.8	1.49e+00	0	56	104	0	56	18691
2026-01-25 22:09:42.65	29.77	5.03	-42.2	-56.7	3.8	1.49e+00	0	55	104	0	56	18643
2026-01-25 22:09:43.66	29.86	5.09	-42.2	-56.7	3.8	1.49e+00	0	55	104	0	56	18674
2026-01-25 22:09:44.67	29.95	5.15	-42.2	-56.7	3.8	1.49e+00	0	56	104	0	56	18682
2026-01-25 22:09:45.68	30.04	5.21	-42.2	-56.7	3.8	1.49e+00	0	56	104	0	56	18645
2026-01-25 22:09:46.69	30.13	5.27	-42.2	-56.7	3.8	1.49e+00	0	56	104	0	56	18652
2026-01-25 22:09:47.70	30.22	5.33	-42.2	-56.7	3.8	1.49e+00	0	56	104	0	56	18655
2026-01-25 22:09:48.71	30.31	5.38	-42.2	-56.7	3.8	1.49e+00	0	56	104	0	56	18670
2026-01-25 22:09:49.72	30.40	5.44	-42.2	-56.7	3.8	1.49e+00	0	56	104	0	56	18677
2026-01-25 22:09:50.73	30.49	5.50	-42.2	-56.7	3.8	1.49e+00	0	56	104	0	56	18694
2026-01-25 22:09:51.74	30.58	5.56	-42.2	-56.7	3.8	1.49e+00	0	56	104	0	56	18651
2026-01-25 22:09:52.75	30.68	5.62	-42.2	-56.7	3.8	1.49e+00	0	56	104	0	56	18666
2026-01-25 22:09:53.76	30.77	5.68	-42.2	-56.7	3.8	1.49e+00	0	56	104	0	56	18695
2026-01-25 22:09:54.77	30.86	5.74	-42.2	-56.7	3.8	1.49e+00	0	56	104	0	56	18716
2026-01-25 22:09:55.78	30.95	5.80	-42.2	-56.7	3.8	1.49e+00	0	56	104	0	56	18653
2026-01-25 22:09:56.79	31.05	5.86	-42.2	-56.7	3.8	1.49e+00	0	56	104	0	56	18631
2026-01-25 22:09:57.80	31.14	5.92	-42.2	-56.7	3.8	1.49e+00	0	56	104	0	56	18674
2026-01-25 22:09:58.81	31.23	5.98	-42.2	-56.7	3.8	1.49e+00	0	56	104	0	56	18709
2026-01-25 22:09:59.82	31.33	6.04	-42.2	-56.7	3.8	1.49e+00	0	56	104	0	56	18654
2026-01-25 22:10:00.83	31.42	6.10	-42.2	-56.7	3.8	1.49e+00	0	56	104	0	56	18679
2026-01-25 22:10:01.84	31.52	6.16	-42.2	-56.7	3.8	1.49e+00	0	56	104	0	56	18668
2026-01-25 22:10:02.85	31.61	6.22	-42.2	-56.7	3.8	1.49e+00	0	56	104	0	56	18608
2026-01-25 22:10:03.86	31.71	6.28	-42.2	-56.7	3.8	1.49e+00	0	56	104	0	56	18618
2026-01-25 22:10:04.88	31.81	6.34	-42.2	-56.7	3.8	1.49e+00	0	57	104	0	56	18597
2026-01-25 22:10:05.89	31.90	6.40	-42.2	-56.7	3.8	1.49e+00	0	56	104	0	56	18643
2026-01-25 22:10:06.90	32.00	6.46	-42.2	-56.7	3.8	1.49e+00	0	56	104	0	56	18635
2026-01-25 22:10:07.91	32.10	6.52	-42.2	-56.6	3.8	1.49e+00	0	57	104	0	56	18436
2026-01-25 22:10:08.92	32.19	6.58	-42.2	-56.7	3.8	1.49e+00	0	57	104	0	56	18520
2026-01-25 22:10:09.93	32.29	6.64	-42.2	-56.6	3.8	1.49e+00	0	57	104	0	56	18409
2026-01-25 22:10:10.94	32.39	6.70	-42.2	-56.6	3.8	1.49e+00	0	57	104	0	56	18455
2026-01-25 22:10:11.95	32.49	6.76	-42.2	-56.7	3.8	1.49e+00	0	57	104	0	56	18537
2026-01-25 22:10:12.96	32.59	6.82	-42.2	-56.6	3.8	1.49e+00	0	57	104	0	56	18480
2026-01-25 22:10:13.97	32.69	6.88	-42.2	-56.7	3.8	1.49e+00	0	57	104	0	56	18641
2026-01-25 22:10:14.98	32.79	6.94	-42.2	-56.6	3.8	1.49e+00	0	57	104	0	56	18408
2026-01-25 22:10:15.99	32.89	7.00	-42.2	-56.5	3.8	1.49e+00	0	57	104	0	56	18284
2026-01-25 22:10:17.00	32.99	7.07	-42.1	-56.2	3.8	1.49e+00	0	57	104	0	56	17627
2026-01-25 22:10:18.01	33.09	7.13	-42.1	-55.9	3.8	1.49e+00	0	57	104	0	56	17010
2026-01-25 22:10:19.02	33.19	7.19	-42.1	-55.7	3.8	1.49e+00	0	57	104	0	56	16571
2026-01-25 22:10:20.03	33.29	7.25	-42.1	-56.0	3.8	1.49e+00	0	57	104	0	56	17169
2026-01-25 22:10:21.04	33.40	7.31	-42.2	-56.4	3.8	1.49e+00	0	57	104	0	56	17923
2026-01-25 22:10:22.05	33.50	7.37	-42.2	-56.7	3.8	1.49e+00	0	57	104	0	56	18642
2026-01-25 22:10:23.06	33.60	7.43	-42.1	-56.0	3.8	1.49e+00	0	57	104	0	56	17220
2026-01-25 22:10:24.07	33.71	7.49	-42.0	-54.1	3.9	1.49e+00	0	57	104	0	56	13814
2026-01-25 22:10:25.08	33.81	7.56	-41.7	-51.8	4.6	1.39e+00	0	57	0	0	55	11240
2026-01-25 22:10:26.09	33.92	7.62	-41.6	-51.1	5.0	7.98e-01	0	57	0	2097152	55	10357
2026-01-25 22:10:27.10	34.02	7.68	-41.5	-50.3	5.4	6.44e-01	0	57	0	4194304	55	9484
2026-01-25 22:10:28.11	34.13	7.74	-41.4	-50.0	5.7	4.10e-01	0	57	0	5242880	54	9620
2026-01-25 22:10:29.12	34.23	7.80	-41.5	-50.3	5.4	4.42e-01	0	57	0	7340032	54	10025
2026-01-25 22:10:30.13	34.34	7.87	-41.5	-50.2	5.4	5.55e-01	0	57	0	9437184	54	9892
2026-01-25 22:10:31.14	34.44	7.93	-41.2	-48.7	6.6	3.27e-01	0	57	0	11534336	54	8339
2026-01-25 22:10:32.15	34.55	7.99	-40.8	-47.0	8.2	1.11e-01	0	57	0	13631488	53	7239
2026-01-25 22:10:33.16	34.66	8.05	-40.7	-46.9	8.3	4.89e-02	0	57	0	14680064	53	7122
2026-01-25 22:10:34.17	34.77	8.11	-41.5	-48.4	7.3	9.47e-02	0	58	0	16777216	53	8520
2026-01-25 22:10:35.18	34.88	8.18	-41.7	-49.1	6.6	2.43e-01	0	57	0	18874368	54	8751
2026-01-25 22:10:36.19	34.98	8.24	-41.3	-50.7	5.1	7.90e-02	0	58	0	20971520	53	11119
2026-01-25 22:10:37.20	35.09	8.30	-41.3	-54.8	3.8	1.49e+00	0	58	104	20971520	53	17706
2026-01-25 22:10:38.21	35.20	8.36	-42.2	-49.3	7.0	8.53e-02	0	58	0	22020096	55	8428
2026-01-25 22:10:39.22	35.31	8.43	-41.6	-47.5	8.6	5.73e-02	0	58	0	23068672	55	6869
2026-01-25 22:10:40.23	35.42	8.49	-41.6	-47.6	8.5	4.45e-02	0	58	0	25165824	55	6911
2026-01-25 22:10:41.24	35.54	8.55	-41.6	-47.6	8.6	3.63e-02	0	58	0	27262976	55	6925
2026-01-25 22:10:42.25	35.65	8.61	-41.6	-47.5	8.6	3.96e-02	0	58	0	29360128	55	6874
2026-01-25 22:10:43.26	35.76	8.68	-41.6	-47.7	8.5	4.74e-02	0	58	0	31457280	55	6983
2026-01-25 22:10:44.27	35.87	8.74	-41.7	-47.7	8.5	3.50e-02	0	58	0	32505856	55	6973
2026-01-25 22:10:45.28	35.99	8.80	-41.7	-47.8	8.4	4.41e-02	0	58	0	34603008	55	7098
2026-01-25 22:10:46.29	36.10	8.87	-41.6	-47.4	8.8	3.42e-02	0	58	0	36700160	55	6789
2026-01-25 22:10:47.30	36.21	8.93	-41.6	-47.3	8.8	2.80e-02	0	58	0	38797312	55	6721
2026-01-25 22:10:48.30	36.33	8.99	-41.6	-47.1	9.2	2.63e-02	0	58	0	40894464	55	6569
2026-01-25 22:10:49.32	36.44	9.06	-41.7	-47.4	9.0	2.23e-02	0	58	0	41943040	55	6743
2026-01-25 22:10:50.33	36.56	9.12	-41.7	-47.2	9.2	2.51e-02	0	58	0	44040192	55	6617
2026-01-25 22:10:51.34	36.67	9.18	-41.7	-47.2	9.3	1.90e-02	0	58	0	46137344	55	6588
2026-01-25 22:10:52.34	36.79	9.24	-41.6	-47.0	9.5	1.60e-02	0	58	0	48234496	55	6470
2026-01-25 22:10:53.35	36.90	9.31	-41.7	-47.1	9.4	1.46e-02	0	58	0	50331648	55	6557
2026-01-25 22:10:54.36	37.02	9.37	-41.8	-47.3	9.3	1.78e-02	0	58	0	51380224	55	6656
2026-01-25 22:10:55.38	37.14	9.44	-41.8	-47.1	9.5	1.78e-02	0	58	0	53477376	55	6565
2026-01-25 22:10:56.39	37.26	9.50	-41.7	-47.0	9.6	1.27e-02	0	58	0	55574528	55	6454
2026-01-25 22:10:57.39	37.38	9.56	-41.8	-47.2	9.6	1.15e-02	0	58	0	57671680	55	6573
2026-01-25 22:10:58.41	37.50	9.63	-41.7	-46.9	9.9	1.33e-02	0	58	0	59768832	55	6351
2026-01-25 22:10:59.41	37.62	9.69	-41.8	-47.0	9.7	8.26e-03	0	59	0	60817408	55	6490
2026-01-25 22:11:00.42	37.74	9.75	-41.7	-46.6	10.3	8.66e-03	0	58	0	62914560	55	6141
2026-01-25 22:11:01.43	37.86	9.82	-41.8	-46.8	10.1	5.96e-03	0	58	0	65011712	55	6330
2026-01-25 22:11:02.44	37.98	9.88	-41.7	-46.5	10.4	4.46e-03	0	58	0	67108864	55	6104
2026-01-25 22:11:03.45	38.10	9.95	-41.7	-46.6	10.3	5.77e-03	0	59	0	69206016	55	6180
2026-01-25 22:11:04.46	38.22	10.01	-41.8	-46.7	10.3	4.44e-03	0	59	0	70254592	55	6248
2026-01-25 22:11:05.48	38.35	10.08	-41.7	-46.5	10.5	4.55e-03	0	58	0	72351744	55	6124
2026-01-25 22:11:06.49	38.47	10.14	-41.8	-46.6	10.4	4.52e-03	0	58	0	74448896	55	6176
2026-01-25 22:11:07.49	38.59	10.20	-41.8	-46.6	10.4	3.72e-03	0	58	0	76546048	55	6151
2026-01-25 22:11:08.50	38.72	10.27	-41.7	-46.5	10.6	3.71e-03	0	59	0	78643200	55	6085
2026-01-25 22:11:09.52	38.84	10.33	-41.8	-46.5	10.6	4.03e-03	0	58	0	80740352	55	6113
2026-01-25 22:11:10.53	38.97	10.40	-41.8	-46.5	10.6	3.59e-03	0	58	0	81788928	55	6092
2026-01-25 22:11:11.54	39.09	10.46	-41.7	-46.4	10.6	3.03e-03	0	59	0	83886080	55	6051
2026-01-25 22:11:12.55	39.22	10.53	-41.7	-46.4	10.7	3.13e-03	0	59	0	85983232	55	6054
2026-01-25 22:11:13.56	39.35	10.59	-41.7	-46.3	10.9	2.57e-03	0	59	0	88080384	55	5927
2026-01-25 22:11:14.57	39.48	10.66	-41.7	-46.3	10.8	2.36e-03	0	59	0	90177536	55	5990
2026-01-25 22:11:15.58	39.60	10.72	-41.7	-46.3	10.8	2.50e-03	0	59	0	91226112	55	5959
2026-01-25 22:11:16.59	39.73	10.79	-41.7	-46.4	10.8	2.56e-03	0	59	0	93323264	55	6006
2026-01-25 22:11:17.60	39.86	10.85	-41.8	-46.4	10.8	2.59e-03	0	59	0	95420416	55	6059
2026-01-25 22:11:18.61	39.99	10.91	-41.8	-46.4	10.8	2.77e-03	0	59	0	97517568	55	6058
2026-01-25 22:11:19.62	40.12	10.98	-41.8	-46.4	10.8	2.55e-03	0	59	0	99614720	55	6056
2026-01-25 22:11:20.63	40.25	11.04	-41.8	-46.4	10.9	2.36e-03	0	59	0	100663296	55	6030
2026-01-25 22:11:21.64	40.38	11.11	-41.8	-46.5	10.8	2.68e-03	0	59	0	102760448	55	6075
2026-01-25 22:11:22.65	40.52	11.17	-41.8	-46.5	10.8	2.74e-03	0	59	0	104857600	55	6076
2026-01-25 22:11:23.66	40.65	11.24	-41.8	-46.5	10.8	2.55e-03	0	59	0	106954752	55	6074
2026-01-25 22:11:24.67	40.78	11.30	-41.8	-46.5	10.8	2.63e-03	0	59	0	109051904	55	6098
2026-01-25 22:11:25.68	40.92	11.37	-41.9	-46.5	10.8	2.73e-03	0	59	0	110100480	55	6108
2026-01-25 22:11:26.69	41.05	11.44	-41.9	-46.5	10.8	2.82e-03	0	59	0	112197632	55	6113
2026-01-25 22:11:27.69	41.18	11.50	-41.8	-46.4	10.9	2.46e-03	0	59	0	114294784	55	6031
2026-01-25 22:11:28.70	41.32	11.56	-41.8	-46.4	10.9	2.25e-03	0	59	0	116391936	55	6058
2026-01-25 22:11:29.71	41.46	11.63	-41.8	-46.4	10.9	1.94e-03	0	59	0	118489088	55	6033
2026-01-25 22:11:30.72	41.59	11.70	-41.8	-46.4	10.9	2.21e-03	0	59	0	119537664	55	6025
2026-01-25 22:11:31.73	41.73	11.76	-41.8	-46.4	10.9	2.28e-03	0	59	0	121634816	55	6016
2026-01-25 22:11:32.74	41.87	11.83	-41.8	-46.3	11.0	1.93e-03	0	59	0	123731968	55	5967
2026-01-25 22:11:33.75	42.01	11.89	-41.8	-46.3	11.1	1.90e-03	0	59	0	125829120	55	5951
2026-01-25 22:11:34.76	42.14	11.96	-41.8	-46.3	11.0	1.63e-03	0	59	0	127926272	55	5961
2026-01-25 22:11:35.77	42.28	12.02	-41.8	-46.3	11.1	1.81e-03	0	59	0	128974848	55	5944
2026-01-25 22:11:36.78	42.42	12.09	-41.8	-46.3	11.0	1.82e-03	0	59	0	131072000	55	5962
2026-01-25 22:11:37.79	42.57	12.15	-41.8	-46.2	11.2	1.59e-03	0	59	0	133169152	55	5892
2026-01-25 22:11:38.80	42.71	12.22	-41.8	-46.2	11.2	1.50e-03	0	59	0	135266304	55	5895
2026-01-25 22:11:39.81	42.85	12.28	-41.8	-46.3	11.1	1.37e-03	0	59	0	137363456	55	5959
2026-01-25 22:11:40.82	42.99	12.35	-41.8	-46.2	11.2	1.42e-03	0	59	0	138412032	55	5864
2026-01-25 22:11:41.82	43.13	12.42	-41.8	-46.2	11.2	1.33e-03	0	60	0	140509184	55	5910
2026-01-25 22:11:42.83	43.28	12.48	-41.8	-46.3	11.2	1.39e-03	0	59	0	142606336	55	5934
2026-01-25 22:11:43.84	43.42	12.55	-41.8	-46.1	11.3	1.39e-03	0	59	0	144703488	55	5841
2026-01-25 22:11:44.85	43.57	12.61	-41.8	-46.2	11.2	1.29e-03	0	59	0	146800640	55	5908
2026-01-25 22:11:45.86	43.71	12.68	-41.8	-46.2	11.2	1.38e-03	0	59	0	148897792	55	5877
2026-01-25 22:11:46.87	43.86	12.74	-41.8	-46.1	11.3	1.11e-03	0	59	0	149946368	55	5849
2026-01-25 22:11:47.88	44.01	12.81	-41.8	-46.1	11.4	1.02e-03	0	59	0	152043520	55	5822
2026-01-25 22:11:48.89	44.15	12.87	-41.8	-46.1	11.4	1.01e-03	0	59	0	154140672	55	5807
2026-01-25 22:11:49.90	44.30	12.94	-41.7	-45.9	11.5	9.22e-04	0	59	0	156237824	55	5716
2026-01-25 22:11:50.91	44.45	13.01	-41.6	-45.7	11.8	5.59e-04	0	59	0	158334976	55	5580
2026-01-25 22:11:51.92	44.60	13.07	-41.6	-45.8	11.7	5.21e-04	0	59	0	159383552	55	5596
2026-01-25 22:11:52.93	44.75	13.14	-41.7	-45.9	11.6	5.50e-04	0	59	0	161480704	55	5676
2026-01-25 22:11:53.94	44.90	13.20	-41.7	-45.8	11.7	7.52e-04	0	59	0	163577856	55	5644
2026-01-25 22:11:54.95	45.05	13.27	-41.7	-45.8	11.7	6.15e-04	0	59	0	165675008	55	5644
2026-01-25 22:11:55.96	45.21	13.33	-41.7	-45.9	11.6	6.94e-04	0	59	0	167772160	55	5684
2026-01-25 22:11:56.97	45.36	13.40	-41.8	-46.0	11.6	6.35e-04	0	59	0	168820736	55	5737
2026-01-25 22:11:57.98	45.51	13.47	-41.7	-46.0	11.6	6.29e-04	0	60	0	170917888	55	5727
2026-01-25 22:11:58.99	45.67	13.53	-41.7	-46.0	11.6	7.57e-04	0	59	0	173015040	55	5734
2026-01-25 22:12:00.00	45.82	13.60	-41.7	-45.9	11.7	6.57e-04	0	60	0	175112192	55	5658
2026-01-25 22:12:01.01	45.98	13.66	-41.7	-45.8	11.7	5.14e-04	0	60	0	177209344	55	5643
2026-01-25 22:12:02.02	46.13	13.73	-41.6	-45.8	11.8	5.06e-04	0	60	0	178257920	55	5593
2026-01-25 22:12:03.03	46.29	13.79	-41.7	-45.8	11.8	4.65e-04	0	60	0	180355072	55	5639
2026-01-25 22:12:04.04	46.45	13.86	-41.8	-46.0	11.6	6.41e-04	0	59	0	182452224	55	5733
2026-01-25 22:12:05.05	46.61	13.93	-41.8	-46.0	11.6	6.96e-04	0	60	0	184549376	55	5743
2026-01-25 22:12:06.06	46.76	13.99	-41.8	-46.0	11.5	7.23e-04	0	60	0	186646528	55	5788
2026-01-25 22:12:07.07	46.92	14.06	-41.8	-46.1	11.5	7.86e-04	0	59	0	187695104	55	5799
2026-01-25 22:12:08.08	47.08	14.12	-41.8	-46.1	11.5	7.93e-04	0	59	0	189792256	55	5807
2026-01-25 22:12:09.09	47.25	14.19	-41.8	-46.0	11.6	7.35e-04	0	60	0	191889408	55	5778
2026-01-25 22:12:10.10	47.41	14.25	-41.8	-46.1	11.5	7.61e-04	0	60	0	193986560	55	5814
2026-01-25 22:12:11.11	47.57	14.32	-41.9	-46.1	11.5	9.03e-04	0	60	0	196083712	55	5849
2026-01-25 22:12:12.12	47.73	14.38	-41.8	-46.1	11.5	8.55e-04	0	60	0	197132288	55	5806
2026-01-25 22:12:13.13	47.90	14.45	-41.8	-46.1	11.5	8.72e-04	0	60	0	199229440	55	5822
2026-01-25 22:12:14.13	48.06	14.51	-41.8	-45.9	11.6	6.36e-04	0	60	0	201326592	55	5721
2026-01-25 22:12:15.15	48.23	14.58	-41.7	-45.8	11.8	5.56e-04	0	60	0	203423744	55	5654
2026-01-25 22:12:16.16	48.39	14.65	-41.7	-45.7	11.9	4.17e-04	0	60	0	205520896	55	5592
2026-01-25 22:12:17.17	48.56	14.71	-41.7	-45.8	11.9	4.71e-04	0	60	0	206569472	55	5604
2026-01-25 22:12:18.18	48.73	14.78	-41.7	-45.8	11.8	4.83e-04	0	60	0	208666624	55	5624
2026-01-25 22:12:19.19	48.89	14.84	-41.7	-45.8	11.9	4.11e-04	0	60	0	210763776	55	5596
2026-01-25 22:12:20.19	49.06	14.90	-41.7	-45.7	11.9	3.50e-04	0	60	0	212860928	55	5561
2026-01-25 22:12:21.20	49.23	14.97	-41.6	-45.6	12.0	3.48e-04	0	60	0	214958080	55	5502
2026-01-25 22:12:22.21	49.40	15.03	-41.6	-45.5	12.2	3.00e-04	0	60	0	217055232	55	5431
2026-01-25 22:12:23.23	49.57	15.10	-41.5	-45.4	12.2	1.98e-04	0	60	0	218103808	55	5371
2026-01-25 22:12:24.24	49.74	15.17	-41.5	-45.3	12.4	1.46e-04	0	60	0	220200960	54	5606
2026-01-25 22:12:25.25	49.92	15.23	-41.4	-45.2	12.5	1.34e-04	0	60	0	222298112	54	5540
2026-01-25 22:12:26.26	50.09	15.29	-41.4	-45.0	12.7	9.99e-05	0	60	0	224395264	54	5462
2026-01-25 22:12:27.26	50.26	15.36	-41.3	-45.0	12.7	6.17e-05	0	60	0	226492416	54	5414
2026-01-25 22:12:28.27	50.44	15.42	-41.3	-44.9	12.8	6.17e-05	0	60	0	227540992	54	5385
2026-01-25 22:12:29.28	50.61	15.49	-41.3	-44.9	12.8	6.94e-05	0	60	0	229638144	54	5375
2026-01-25 22:12:30.29	50.79	15.55	-41.2	-44.8	12.9	4.73e-05	0	60	0	231735296	54	5280
2026-01-25 22:12:31.30	50.96	15.62	-41.2	-44.8	13.0	4.88e-05	0	60	0	233832448	54	5283
2026-01-25 22:12:32.31	51.14	15.68	-41.2	-44.8	13.0	4.57e-05	0	60	0	235929600	54	5281
2026-01-25 22:12:33.32	51.32	15.74	-41.2	-44.7	13.0	5.34e-05	0	60	0	236978176	54	5275
2026-01-25 22:12:34.34	51.50	15.81	-41.1	-44.6	13.1	2.89e-05	0	60	0	239075328	54	5193
2026-01-25 22:12:35.34	51.68	15.87	-41.1	-44.6	13.1	2.67e-05	0	60	0	241172480	54	5214
2026-01-25 22:12:36.35	51.86	15.94	-41.1	-44.6	13.1	2.28e-05	0	60	0	243269632	54	5182
2026-01-25 22:12:37.37	52.04	16.00	-41.2	-44.6	13.2	2.74e-05	0	60	0	245366784	54	5188
2026-01-25 22:12:38.37	52.22	16.06	-41.1	-44.6	13.2	2.89e-05	0	60	0	246415360	54	5167
2026-01-25 22:12:39.39	52.41	16.13	-41.1	-44.4	13.3	1.98e-05	0	60	0	248512512	54	5088
2026-01-25 22:12:40.40	52.59	16.19	-41.1	-44.5	13.3	1.37e-05	0	60	0	250609664	54	5106
2026-01-25 22:12:41.41	52.77	16.25	-41.1	-44.6	13.2	1.67e-05	0	60	0	252706816	54	5175
2026-01-25 22:12:42.42	52.96	16.32	-41.1	-44.5	13.3	2.13e-05	0	60	0	254803968	54	5129
2026-01-25 22:12:43.43	53.15	16.38	-41.1	-44.6	13.2	3.28e-05	0	60	0	255852544	54	5175
2026-01-25 22:12:44.44	53.33	16.44	-41.2	-44.7	13.1	2.97e-05	0	60	0	257949696	54	5221
2026-01-25 22:12:45.45	53.52	16.51	-41.1	-44.6	13.1	3.12e-05	0	60	0	260046848	54	5183
2026-01-25 22:12:46.46	53.71	16.57	-41.2	-44.6	13.1	2.89e-05	0	60	0	262144000	54	5202
2026-01-25 22:12:47.46	53.89	16.63	-41.1	-44.5	13.2	1.90e-05	0	60	0	264241152	54	5153
2026-01-25 22:12:48.47	54.08	16.69	-41.1	-44.5	13.3	2.44e-05	0	60	0	265289728	54	5146
2026-01-25 22:12:49.48	54.27	16.76	-41.1	-44.4	13.4	1.52e-05	0	60	0	267386880	54	5073
2026-01-25 22:12:50.49	54.47	16.82	-41.1	-44.4	13.3	2.05e-05	0	60	0	269484032	54	5099
2026-01-25 22:12:51.50	54.66	16.88	-41.1	-44.5	13.3	2.05e-05	0	60	0	271581184	54	5124
2026-01-25 22:12:52.51	54.85	16.94	-41.2	-44.6	13.1	2.36e-05	0	60	0	273678336	54	5216
2026-01-25 22:12:53.52	55.04	17.00	-41.2	-44.7	13.1	2.89e-05	0	60	0	274726912	54	5234
2026-01-25 22:12:54.53	55.24	17.07	-41.3	-44.9	12.9	3.43e-05	0	60	0	276824064	54	5342
2026-01-25 22:12:55.55	55.44	17.13	-41.4	-45.0	12.8	5.34e-05	0	60	0	278921216	54	5414
2026-01-25 22:12:56.55	55.63	17.19	-41.4	-45.0	12.7	7.09e-05	0	60	0	281018368	54	5452
2026-01-25 22:12:57.56	55.83	17.25	-41.4	-45.0	12.7	8.77e-05	0	60	0	283115520	54	5452
2026-01-25 22:12:58.58	56.02	17.31	-41.4	-45.1	12.7	9.30e-05	0	60	0	285212672	54	5493
2026-01-25 22:12:59.59	56.22	17.37	-41.4	-45.1	12.6	8.08e-05	0	60	0	286261248	54	5514
2026-01-25 22:13:00.60	56.42	17.43	-41.4	-45.1	12.6	9.07e-05	0	60	0	288358400	54	5505
2026-01-25 22:13:01.60	56.62	17.49	-41.4	-45.0	12.7	8.92e-05	0	60	0	290455552	54	5455
2026-01-25 22:13:02.62	56.82	17.55	-41.4	-45.1	12.7	8.16e-05	0	60	0	292552704	54	5472
2026-01-25 22:13:03.63	57.02	17.61	-41.4	-45.1	12.7	8.08e-05	0	60	0	294649856	54	5473
2026-01-25 22:13:04.64	57.23	17.67	-41.5	-45.2	12.6	8.23e-05	0	60	0	295698432	54	5544
2026-01-25 22:13:05.64	57.43	17.73	-41.5	-45.2	12.6	1.01e-04	0	60	0	297795584	54	5536
2026-01-25 22:13:06.66	57.63	17.79	-41.5	-45.3	12.4	1.21e-04	0	60	0	299892736	54	5635
2026-01-25 22:13:07.67	57.84	17.85	-41.6	-45.4	12.4	1.46e-04	0	60	0	301989888	54	5678
2026-01-25 22:13:08.68	58.04	17.91	-41.6	-45.5	12.3	1.69e-04	0	60	0	304087040	54	5728
2026-01-25 22:13:09.68	58.25	17.97	-41.6	-45.5	12.2	2.27e-04	0	60	0	305135616	54	5765
2026-01-25 22:13:10.69	58.45	18.03	-41.7	-45.6	12.2	2.37e-04	0	60	0	307232768	54	5814
2026-01-25 22:13:11.70	58.66	18.09	-41.7	-45.7	12.1	2.49e-04	0	60	0	309329920	54	5886
2026-01-25 22:13:12.72	58.87	18.15	-41.7	-45.7	12.1	2.78e-04	0	60	0	311427072	54	5874
2026-01-25 22:13:13.73	59.08	18.20	-41.8	-45.8	12.0	2.97e-04	0	60	0	313524224	54	5943
2026-01-25 22:13:14.73	59.29	18.26	-41.8	-45.9	11.9	2.90e-04	0	60	0	314572800	54	5995
2026-01-25 22:13:15.74	59.50	18.32	-41.8	-45.9	11.8	3.95e-04	0	61	0	316669952	54	6052
2026-01-25 22:13:16.75	59.71	18.38	-41.9	-46.0	11.7	4.74e-04	0	60	0	318767104	54	6123
2026-01-25 22:13:17.76	59.92	18.43	-42.0	-46.2	11.6	6.44e-04	0	60	0	320864256	54	6222
2026-01-25 22:13:18.77	60.13	18.49	-42.1	-46.3	11.5	7.75e-04	0	60	0	322961408	54	6315
2026-01-25 22:13:19.78	60.35	18.55	-42.0	-46.3	11.4	9.18e-04	0	60	0	324009984	54	6302
2026-01-25 22:13:20.79	60.56	18.60	-42.1	-46.5	11.2	1.05e-03	0	60	0	326107136	54	6446
2026-01-25 22:13:21.81	60.78	18.66	-42.1	-46.6	11.2	1.50e-03	0	60	0	328204288	54	6502
2026-01-25 22:13:22.82	61.00	18.71	-42.1	-46.6	11.2	1.51e-03	0	60	0	330301440	54	6530
2026-01-25 22:13:23.83	61.21	18.77	-42.2	-46.8	10.9	1.66e-03	0	60	0	332398592	54	6661
2026-01-25 22:13:24.84	61.43	18.82	-42.2	-46.7	11.0	1.83e-03	0	60	0	333447168	55	6239
2026-01-25 22:13:25.85	61.65	18.88	-42.2	-46.7	11.0	1.81e-03	0	61	0	335544320	55	6250
2026-01-25 22:13:26.86	61.87	18.93	-42.2	-46.8	11.0	1.99e-03	0	60	0	337641472	55	6289
2026-01-25 22:13:27.87	62.09	18.99	-42.3	-46.8	10.9	1.92e-03	0	60	0	339738624	55	6338
2026-01-25 22:13:28.88	62.31	19.04	-42.3	-47.0	10.7	2.83e-03	0	60	0	341835776	55	6445
2026-01-25 22:13:29.89	62.53	19.10	-42.3	-47.1	10.7	2.99e-03	0	61	0	342884352	55	6504
2026-01-25 22:13:30.90	62.75	19.15	-42.4	-47.2	10.5	3.49e-03	0	60	0	344981504	55	6611
2026-01-25 22:13:31.91	62.98	19.20	-42.4	-47.2	10.5	3.99e-03	0	60	0	347078656	55	6642
2026-01-25 22:13:32.92	63.20	19.26	-42.3	-47.1	10.6	3.95e-03	0	61	0	349175808	55	6525
2026-01-25 22:13:33.93	63.43	19.31	-42.3	-47.0	10.7	3.17e-03	0	60	0	351272960	55	6452
2026-01-25 22:13:34.94	63.65	19.36	-42.2	-46.9	10.8	3.08e-03	0	61	0	353370112	55	6362
2026-01-25 22:13:35.95	63.88	19.41	-42.1	-46.6	11.1	1.90e-03	0	61	0	354418688	55	6169
2026-01-25 22:13:36.96	64.10	19.46	-42.1	-46.5	11.2	1.36e-03	0	60	0	356515840	55	6086
2026-01-25 22:13:37.97	64.33	19.51	-42.0	-46.2	11.5	9.17e-04	0	60	0	358612992	55	5918
2026-01-25 22:13:38.98	64.56	19.57	-42.0	-46.3	11.5	7.96e-04	0	61	0	360710144	55	5958
2026-01-25 22:13:39.98	64.79	19.62	-42.0	-46.4	11.4	1.10e-03	0	61	0	362807296	55	6012
2026-01-25 22:13:40.99	65.02	19.67	-42.1	-46.5	11.3	1.11e-03	0	61	0	363855872	55	6072
2026-01-25 22:13:42.00	65.25	19.72	-42.1	-46.5	11.3	1.22e-03	0	61	0	365953024	55	6067
2026-01-25 22:13:43.01	65.48	19.77	-42.2	-46.6	11.1	1.30e-03	0	61	0	368050176	55	6166
2026-01-25 22:13:44.02	65.71	19.81	-42.1	-46.6	11.1	1.41e-03	0	61	0	370147328	55	6142
2026-01-25 22:13:45.03	65.94	19.86	-42.1	-46.5	11.2	1.45e-03	0	61	0	372244480	55	6125
2026-01-25 22:13:46.04	66.18	19.91	-42.1	-46.5	11.3	1.38e-03	0	61	0	373293056	55	6071
2026-01-25 22:13:47.05	66.41	19.96	-42.1	-46.5	11.2	1.25e-03	0	61	0	375390208	55	6072
2026-01-25 22:13:48.06	66.65	20.01	-42.1	-46.5	11.3	1.29e-03	0	61	0	377487360	55	6064
2026-01-25 22:13:49.07	66.88	20.05	-42.1	-46.5	11.2	1.25e-03	0	61	0	379584512	55	6082
2026-01-25 22:13:50.08	67.12	20.10	-42.1	-46.6	11.2	1.28e-03	0	61	0	381681664	55	6136
2026-01-25 22:13:51.09	67.36	20.15	-42.0	-46.3	11.3	1.04e-03	0	61	0	382730240	55	5980
2026-01-25 22:13:52.10	67.59	20.19	-41.9	-46.2	11.5	1.01e-03	0	61	0	384827392	55	5884
2026-01-25 22:13:53.11	67.83	20.24	-41.9	-46.1	11.5	8.23e-04	0	61	0	386924544	55	5807
2026-01-25 22:13:54.11	68.07	20.28	-42.0	-46.3	11.4	9.73e-04	0	61	0	389021696	55	5950
2026-01-25 22:13:55.12	68.31	20.33	-42.0	-46.4	11.2	1.15e-03	0	61	0	391118848	55	6052
2026-01-25 22:13:56.13	68.55	20.37	-42.0	-46.4	11.1	1.47e-03	0	61	0	392167424	55	6031
2026-01-25 22:13:57.14	68.79	20.42	-42.0	-46.5	11.0	1.72e-03	0	61	0	394264576	55	6077
2026-01-25 22:13:58.15	69.03	20.46	-42.0	-46.5	11.0	1.79e-03	0	61	0	396361728	55	6095
2026-01-25 22:13:59.17	69.28	20.50	-42.0	-46.5	11.0	1.97e-03	0	61	0	398458880	55	6128
2026-01-25 22:14:00.17	69.52	20.55	-41.9	-46.4	11.0	2.01e-03	0	61	0	400556032	55	6019
2026-01-25 22:14:01.18	69.76	20.59	-41.9	-46.4	11.0	2.03e-03	0	61	0	401604608	55	6031
2026-01-25 22:14:02.19	70.01	20.63	-41.9	-46.3	11.1	1.60e-03	0	61	0	403701760	55	5961
2026-01-25 22:14:03.20	70.25	20.67	-41.8	-46.4	11.0	1.74e-03	0	61	0	405798912	55	5996
2026-01-25 22:14:04.21	70.50	20.71	-41.8	-46.3	11.1	1.63e-03	0	61	0	407896064	55	5925
2026-01-25 22:14:05.22	70.75	20.75	-41.7	-46.1	11.3	1.32e-03	0	61	0	409993216	55	5847
2026-01-25 22:14:06.23	70.99	20.79	-41.7	-46.2	11.1	1.49e-03	0	61	0	411041792	55	5902
2026-01-25 22:14:07.24	71.24	20.83	-41.7	-46.3	10.9	2.12e-03	0	61	0	413138944	55	5971
2026-01-25 22:14:08.25	71.49	20.87	-41.7	-46.3	10.8	2.23e-03	0	61	0	415236096	55	5964
2026-01-25 22:14:09.26	71.74	20.91	-41.7	-46.3	10.9	2.37e-03	0	61	0	417333248	55	5960
2026-01-25 22:14:10.27	71.99	20.95	-41.7	-46.3	10.8	2.43e-03	0	61	0	419430400	55	5978
2026-01-25 22:14:11.28	72.24	20.99	-41.8	-46.4	10.8	2.48e-03	0	61	0	421527552	55	6027
2026-01-25 22:14:12.29	72.49	21.02	-41.7	-46.3	10.9	2.45e-03	0	61	0	422576128	55	5978
2026-01-25 22:14:13.30	72.74	21.06	-41.8	-46.3	11.0	2.30e-03	0	61	0	424673280	55	5950
2026-01-25 22:14:14.31	72.99	21.10	-41.7	-46.0	11.4	1.31e-03	0	61	0	426770432	55	5770
2026-01-25 22:14:15.32	73.25	21.13	-41.6	-45.8	11.6	8.33e-04	0	61	0	428867584	55	5599
2026-01-25 22:14:16.33	73.50	21.17	-41.6	-45.8	11.6	6.28e-04	0	61	0	430964736	55	5604
2026-01-25 22:14:17.34	73.75	21.20	-41.5	-45.7	11.7	6.22e-04	0	61	0	432013312	55	5535
2026-01-25 22:14:18.35	74.01	21.24	-41.5	-45.6	11.7	5.32e-04	0	61	0	434110464	55	5526
2026-01-25 22:14:19.36	74.26	21.27	-41.5	-45.7	11.6	5.57e-04	0	61	0	436207616	55	5561
2026-01-25 22:14:20.37	74.52	21.30	-41.6	-45.8	11.6	6.80e-04	0	61	0	438304768	55	5597
2026-01-25 22:14:21.38	74.77	21.33	-41.6	-45.7	11.6	6.48e-04	0	61	0	440401920	55	5589
2026-01-25 22:14:22.39	75.03	21.37	-41.5	-45.6	11.7	6.42e-04	0	61	0	441450496	55	5512
2026-01-25 22:14:23.40	75.29	21.40	-41.6	-45.8	11.6	6.74e-04	0	61	0	443547648	55	5601
2026-01-25 22:14:24.41	75.54	21.43	-41.6	-45.9	11.5	7.54e-04	0	61	0	445644800	55	5668
2026-01-25 22:14:25.42	75.80	21.46	-41.6	-45.8	11.5	7.90e-04	0	61	0	447741952	55	5633
2026-01-25 22:14:26.43	76.06	21.49	-41.6	-45.8	11.6	6.42e-04	0	61	0	449839104	55	5602
2026-01-25 22:14:27.44	76.32	21.52	-41.7	-45.9	11.5	8.49e-04	0	61	0	450887680	55	5683
2026-01-25 22:14:28.45	76.58	21.55	-41.7	-46.0	11.5	8.54e-04	0	61	0	452984832	55	5730
2026-01-25 22:14:29.46	76.84	21.58	-41.7	-45.9	11.5	8.51e-04	0	61	0	455081984	55	5721
2026-01-25 22:14:30.47	77.10	21.60	-41.7	-46.0	11.4	9.28e-04	0	61	0	457179136	55	5748
2026-01-25 22:14:31.48	77.36	21.63	-41.8	-46.3	11.2	1.27e-03	0	61	0	459276288	55	5935
2026-01-25 22:14:32.49	77.62	21.66	-41.9	-46.5	10.9	1.77e-03	0	61	0	460324864	55	6087
2026-01-25 22:14:33.50	77.88	21.68	-42.0	-46.6	10.9	2.33e-03	0	61	0	462422016	55	6155
2026-01-25 22:14:34.51	78.15	21.71	-42.1	-46.7	10.8	2.58e-03	0	61	0	464519168	55	6246
2026-01-25 22:14:35.52	78.41	21.73	-42.0	-46.7	10.7	2.85e-03	0	61	0	466616320	55	6229
2026-01-25 22:14:36.53	78.67	21.76	-42.0	-46.7	10.8	2.58e-03	0	61	0	468713472	55	6213
2026-01-25 22:14:37.54	78.94	21.78	-42.0	-46.6	10.8	2.38e-03	0	61	0	469762048	55	6169
2026-01-25 22:14:38.54	79.20	21.80	-41.9	-46.4	11.0	2.17e-03	0	61	0	471859200	55	6058
2026-01-25 22:14:39.56	79.46	21.83	-41.9	-46.3	11.2	1.50e-03	0	61	0	473956352	55	5932
2026-01-25 22:14:40.57	79.73	21.85	-41.7	-45.9	11.6	8.57e-04	0	61	0	476053504	55	5699
2026-01-25 22:14:41.58	79.99	21.87	-41.6	-45.7	11.8	5.90e-04	0	61	0	478150656	55	5557
2026-01-25 22:14:42.59	80.26	21.89	-41.6	-45.7	11.7	4.90e-04	0	61	0	479199232	55	5580
2026-01-25 22:14:43.60	80.52	21.91	-41.6	-45.7	11.8	5.17e-04	0	61	0	481296384	55	5568
2026-01-25 22:14:44.61	80.79	21.93	-41.7	-45.8	11.7	4.78e-04	0	61	0	483393536	55	5638
2026-01-25 22:14:45.62	81.06	21.95	-41.7	-46.0	11.6	6.38e-04	0	61	0	485490688	55	5725
2026-01-25 22:14:46.63	81.32	21.96	-41.8	-46.1	11.5	7.80e-04	0	61	0	487587840	55	5820
2026-01-25 22:14:47.64	81.59	21.98	-41.8	-46.1	11.4	9.51e-04	0	61	0	489684992	55	5817
2026-01-25 22:14:48.65	81.86	22.00	-41.9	-46.2	11.3	8.95e-04	0	61	0	490733568	55	5899
2026-01-25 22:14:49.66	82.13	22.02	-41.9	-46.2	11.3	1.15e-03	0	61	0	492830720	55	5891
2026-01-25 22:14:50.67	82.39	22.03	-41.9	-46.3	11.2	1.20e-03	0	61	0	494927872	55	5950
2026-01-25 22:14:51.68	82.66	22.05	-41.9	-46.4	11.2	1.29e-03	0	61	0	497025024	55	6001
2026-01-25 22:14:52.69	82.93	22.06	-41.8	-46.1	11.4	1.18e-03	0	61	0	499122176	55	5816
2026-01-25 22:14:53.70	83.20	22.07	-41.7	-45.8	11.7	6.98e-04	0	61	0	500170752	55	5615
2026-01-25 22:14:54.71	83.47	22.09	-41.6	-45.7	11.9	4.70e-04	0	61	0	502267904	55	5557
2026-01-25 22:14:55.72	83.74	22.10	-41.6	-45.6	11.9	3.57e-04	0	61	0	504365056	55	5493
2026-01-25 22:14:56.73	84.01	22.11	-41.6	-45.8	11.7	4.44e-04	0	61	0	506462208	55	5601
2026-01-25 22:14:57.74	84.28	22.12	-41.8	-46.0	11.5	6.76e-04	0	61	0	508559360	55	5776
2026-01-25 22:14:58.75	84.55	22.13	-41.9	-46.2	11.3	1.16e-03	0	61	0	509607936	55	5900
2026-01-25 22:14:59.76	84.82	22.14	-41.9	-46.3	11.2	1.26e-03	0	61	0	511705088	55	5967
2026-01-25 22:15:00.77	85.09	22.15	-42.0	-46.5	11.1	1.52e-03	0	61	0	513802240	55	6065
2026-01-25 22:15:01.78	85.36	22.16	-41.9	-46.3	11.3	1.34e-03	0	61	0	515899392	55	5971
2026-01-25 22:15:02.79	85.63	22.17	-42.0	-46.4	11.2	1.33e-03	0	61	0	517996544	55	6009
2026-01-25 22:15:03.80	85.90	22.18	-41.8	-46.1	11.4	1.25e-03	0	61	0	519045120	55	5855
2026-01-25 22:15:04.81	86.17	22.18	-41.7	-46.0	11.5	9.47e-04	0	61	0	521142272	55	5773
2026-01-25 22:15:05.82	86.44	22.19	-41.7	-45.9	11.5	9.41e-04	0	61	0	523239424	55	5717
2026-01-25 22:15:06.83	86.71	22.20	-41.6	-45.7	11.7	6.76e-04	0	61	0	525336576	55	5581
2026-01-25 22:15:07.84	86.98	22.20	-41.6	-45.6	11.9	4.69e-04	0	61	0	527433728	55	5511
2026-01-25 22:15:08.85	87.25	22.21	-41.6	-45.6	11.9	3.65e-04	0	61	0	529530880	55	5489
2026-01-25 22:15:09.87	87.53	22.21	-41.6	-45.7	11.9	3.56e-04	0	61	0	530579456	55	5554
2026-01-25 22:15:10.88	87.80	22.21	-41.7	-45.9	11.7	4.58e-04	0	61	0	532676608	55	5688
2026-01-25 22:15:11.89	88.07	22.21	-41.8	-46.1	11.4	8.57e-04	0	61	0	534773760	55	5822
2026-01-25 22:15:12.90	88.34	22.22	-41.9	-46.3	11.3	1.16e-03	0	61	0	536870912	55	5955
2026-01-25 22:15:13.90	88.61	22.22	-42.0	-46.5	11.1	1.42e-03	0	61	0	538968064	55	6071
2026-01-25 22:15:14.91	88.88	22.22	-42.1	-46.6	11.0	1.68e-03	0	61	0	540016640	55	6161
2026-01-25 22:15:15.93	89.15	22.22	-42.1	-46.6	11.0	1.95e-03	0	61	0	542113792	55	6167
2026-01-25 22:15:16.93	89.42	22.22	-42.0	-46.5	11.1	1.74e-03	0	61	0	544210944	55	6098
2026-01-25 22:15:17.94	89.69	22.21	-42.0	-46.6	11.0	1.74e-03	0	61	0	546308096	55	6135
2026-01-25 22:15:18.95	89.97	22.21	-42.0	-46.3	11.3	1.33e-03	0	61	0	548405248	55	5988
2026-01-25 22:15:19.96	90.24	22.21	-42.0	-46.3	11.3	1.46e-03	0	61	0	549453824	55	5985
2026-01-25 22:15:20.97	90.51	22.21	-41.9	-46.1	11.5	1.00e-03	0	61	0	551550976	55	5831
2026-01-25 22:15:21.98	90.78	22.20	-41.8	-46.0	11.7	5.87e-04	0	61	0	553648128	55	5730
2026-01-25 22:15:22.99	91.05	22.20	-41.8	-45.9	11.8	5.20e-04	0	61	0	555745280	55	5688
2026-01-25 22:15:24.00	91.32	22.19	-41.8	-45.8	12.0	4.49e-04	0	61	0	557842432	55	5627
2026-01-25 22:15:25.01	91.59	22.18	-41.8	-45.8	12.1	2.85e-04	0	61	0	558891008	55	5604
2026-01-25 22:15:26.03	91.87	22.18	-41.7	-45.7	12.1	2.83e-04	0	61	0	560988160	55	5538
2026-01-25 22:15:27.03	92.13	22.17	-41.7	-45.7	12.1	2.15e-04	0	61	0	563085312	55	5568
2026-01-25 22:15:28.05	92.41	22.16	-41.9	-45.9	11.9	2.81e-04	0	61	0	565182464	55	5703
2026-01-25 22:15:29.06	92.68	22.15	-42.0	-46.2	11.6	5.74e-04	0	61	0	567279616	55	5857
2026-01-25 22:15:30.07	92.95	22.14	-42.1	-46.4	11.4	7.39e-04	0	61	0	568328192	55	6034
2026-01-25 22:15:31.08	93.22	22.13	-42.1	-46.4	11.4	1.01e-03	0	61	0	570425344	55	6005
2026-01-25 22:15:32.09	93.49	22.12	-42.0	-46.2	11.7	6.92e-04	0	61	0	572522496	55	5869
2026-01-25 22:15:33.10	93.76	22.11	-42.0	-46.1	11.8	5.08e-04	0	61	0	574619648	55	5835
2026-01-25 22:15:34.11	94.03	22.10	-41.9	-45.9	12.0	3.94e-04	0	61	0	576716800	55	5712
2026-01-25 22:15:35.12	94.30	22.09	-41.9	-45.9	12.0	3.27e-04	0	61	0	577765376	55	5669
2026-01-25 22:15:36.13	94.57	22.07	-41.9	-45.8	12.1	2.59e-04	0	61	0	579862528	55	5655
2026-01-25 22:15:37.13	94.83	22.06	-41.8	-45.8	12.1	2.83e-04	0	61	0	581959680	55	5617
2026-01-25 22:15:38.15	95.10	22.05	-41.8	-45.6	12.3	2.15e-04	0	61	0	584056832	55	5514
2026-01-25 22:15:39.16	95.37	22.03	-41.7	-45.5	12.4	1.35e-04	0	61	0	586153984	55	5452
2026-01-25 22:15:40.17	95.64	22.02	-41.7	-45.4	12.5	1.43e-04	0	61	0	587202560	55	5365
2026-01-25 22:15:41.17	95.91	22.00	-41.5	-45.1	12.8	6.10e-05	0	61	0	589299712	55	5208
2026-01-25 22:15:42.19	96.18	21.98	-41.5	-45.1	12.9	5.56e-05	0	61	0	591396864	55	5195
2026-01-25 22:15:43.20	96.44	21.96	-41.6	-45.2	12.8	5.72e-05	0	61	0	593494016	55	5240
2026-01-25 22:15:44.21	96.71	21.95	-41.6	-45.3	12.7	9.07e-05	0	61	0	595591168	55	5291
2026-01-25 22:15:45.21	96.97	21.93	-41.6	-45.3	12.7	9.61e-05	0	61	0	597688320	55	5323
2026-01-25 22:15:46.23	97.24	21.91	-41.6	-45.3	12.6	7.01e-05	0	61	0	598736896	55	5318
2026-01-25 22:15:47.24	97.51	21.89	-41.6	-45.2	12.7	7.85e-05	0	61	0	600834048	55	5267
2026-01-25 22:15:48.25	97.78	21.87	-41.6	-45.2	12.8	7.09e-05	0	61	0	602931200	55	5244
2026-01-25 22:15:49.26	98.04	21.85	-41.5	-45.1	12.9	5.41e-05	0	61	0	605028352	55	5185
2026-01-25 22:15:50.27	98.31	21.82	-41.5	-45.1	12.9	3.66e-05	0	61	0	607125504	55	5161
2026-01-25 22:15:51.28	98.57	21.80	-41.5	-45.1	12.9	5.18e-05	0	61	0	608174080	54	5517
2026-01-25 22:15:52.29	98.84	21.78	-41.6	-45.3	12.7	6.94e-05	0	61	0	610271232	54	5612
2026-01-25 22:15:53.30	99.10	21.76	-41.7	-45.4	12.6	8.85e-05	0	61	0	612368384	54	5697
2026-01-25 22:15:54.30	99.36	21.73	-41.8	-45.6	12.4	1.61e-04	0	61	0	614465536	54	5826
2026-01-25 22:15:55.31	99.62	21.71	-41.8	-45.7	12.3	1.54e-04	0	61	0	616562688	54	5886
2026-01-25 22:15:56.32	99.89	21.68	-41.8	-45.7	12.3	1.64e-04	0	61	0	617611264	54	5879
2026-01-25 22:15:57.33	100.15	21.66	-41.8	-45.6	12.4	1.56e-04	0	61	0	619708416	54	5800
2026-01-25 22:15:58.34	100.41	21.63	-41.7	-45.4	12.5	9.15e-05	0	61	0	621805568	54	5713
2026-01-25 22:15:59.35	100.67	21.60	-41.6	-45.2	12.8	9.46e-05	0	61	0	623902720	54	5547
2026-01-25 22:16:00.36	100.93	21.57	-41.5	-45.1	12.8	3.81e-05	0	61	0	625999872	54	5528
2026-01-25 22:16:01.37	101.19	21.55	-41.4	-44.9	13.1	3.12e-05	0	61	0	627048448	54	5350
2026-01-25 22:16:02.38	101.45	21.52	-41.2	-44.5	13.5	1.52e-05	0	61	0	629145600	54	5151
2026-01-25 22:16:03.39	101.71	21.49	-41.1	-44.3	13.7	6.10e-06	0	61	0	631242752	54	5027
2026-01-25 22:16:04.40	101.97	21.46	-41.0	-44.2	13.9	8.30e-06	0	61	0	633339904	54	4941
2026-01-25 22:16:05.41	102.23	21.43	-40.9	-44.1	14.0	2.20e-06	0	61	0	635437056	53	5167
2026-01-25 22:16:06.42	102.49	21.40	-41.0	-44.2	13.8	2.20e-06	0	61	0	636485632	53	5259
2026-01-25 22:16:07.43	102.75	21.36	-41.1	-44.4	13.6	5.30e-06	0	61	0	638582784	53	5353
2026-01-25 22:16:08.44	103.01	21.33	-41.2	-44.6	13.4	1.29e-05	0	61	0	640679936	53	5493
2026-01-25 22:16:09.45	103.26	21.30	-41.2	-44.6	13.4	1.14e-05	0	61	0	642777088	53	5501
2026-01-25 22:16:10.46	103.52	21.27	-41.4	-44.8	13.2	1.60e-05	0	61	0	644874240	53	5645
2026-01-25 22:16:11.47	103.77	21.23	-41.4	-44.9	13.1	2.05e-05	0	61	0	645922816	53	5666
2026-01-25 22:16:12.48	104.03	21.20	-41.3	-44.7	13.3	1.98e-05	0	61	0	648019968	53	5556
2026-01-25 22:16:13.49	104.28	21.16	-41.3	-44.7	13.3	1.60e-05	0	61	0	650117120	53	5561
2026-01-25 22:16:14.50	104.54	21.13	-41.3	-44.7	13.3	1.83e-05	0	61	0	652214272	53	5573
2026-01-25 22:16:15.51	104.79	21.09	-41.3	-44.8	13.3	1.44e-05	0	61	0	654311424	53	5598
2026-01-25 22:16:16.52	105.04	21.06	-41.2	-44.5	13.5	1.06e-05	0	61	0	655360000	53	5415
2026-01-25 22:16:17.52	105.29	21.02	-41.0	-44.3	13.7	5.30e-06	0	61	0	657457152	53	5281
2026-01-25 22:16:18.53	105.54	20.98	-40.9	-44.0	14.0	3.00e-06	0	61	0	659554304	53	5129
2026-01-25 22:16:19.54	105.80	20.95	-40.8	-43.8	14.2	7.00e-07	0	61	0	661651456	53	5001
2026-01-25 22:16:20.55	106.05	20.91	-40.7	-43.8	14.3	7.00e-07	0	61	0	663748608	53	4991
2026-01-25 22:16:21.56	106.30	20.87	-40.7	-43.7	14.3	3.00e-06	0	61	0	665845760	53	4957
2026-01-25 22:16:22.57	106.55	20.83	-40.7	-43.7	14.3	1.50e-06	0	61	0	666894336	53	4963
2026-01-25 22:16:23.58	106.79	20.79	-40.7	-43.8	14.3	0.00e+00	0	61	0	668991488	53	4984
2026-01-25 22:16:24.59	107.04	20.75	-40.8	-43.8	14.3	7.00e-07	0	61	0	671088640	53	4999
2026-01-25 22:16:25.60	107.29	20.71	-40.7	-43.7	14.3	2.20e-06	0	61	0	673185792	53	4968
2026-01-25 22:16:26.61	107.54	20.67	-40.8	-43.8	14.2	1.50e-06	0	61	0	675282944	53	5016
2026-01-25 22:16:27.62	107.78	20.63	-40.8	-43.9	14.1	0.00e+00	0	61	0	676331520	53	5079
2026-01-25 22:16:28.63	108.03	20.58	-40.9	-44.0	14.0	1.50e-06	0	61	0	678428672	53	5148
2026-01-25 22:16:29.64	108.27	20.54	-41.0	-44.3	13.7	2.20e-06	0	61	0	680525824	53	5285
2026-01-25 22:16:30.65	108.52	20.50	-41.1	-44.4	13.5	9.10e-06	0	61	0	682622976	53	5399
2026-01-25 22:16:31.66	108.76	20.46	-41.2	-44.6	13.3	1.06e-05	0	61	0	684720128	53	5528
2026-01-25 22:16:32.67	109.00	20.41	-41.3	-44.8	13.2	1.67e-05	0	61	0	685768704	53	5600
2026-01-25 22:16:33.68	109.25	20.37	-41.4	-44.8	13.1	2.21e-05	0	61	0	687865856	53	5655
2026-01-25 22:16:34.69	109.49	20.32	-41.3	-44.8	13.2	2.89e-05	0	61	0	689963008	53	5610
2026-01-25 22:16:35.70	109.73	20.28	-41.3	-44.7	13.3	1.83e-05	0	61	0	692060160	53	5562
2026-01-25 22:16:36.71	109.97	20.23	-41.3	-44.7	13.3	2.21e-05	0	61	0	694157312	53	5552
2026-01-25 22:16:37.72	110.21	20.19	-41.2	-44.6	13.3	2.13e-05	0	61	0	695205888	53	5503
2026-01-25 22:16:38.73	110.45	20.14	-41.1	-44.5	13.5	1.60e-05	0	61	0	697303040	53	5434
2026-01-25 22:16:39.74	110.68	20.09	-41.1	-44.4	13.5	1.06e-05	0	61	0	699400192	53	5381
2026-01-25 22:16:40.76	110.92	20.05	-41.1	-44.3	13.7	3.00e-06	0	61	0	701497344	53	5315
2026-01-25 22:16:41.77	111.16	20.00	-41.1	-44.3	13.7	1.06e-05	0	61	0	703594496	53	5303
2026-01-25 22:16:42.77	111.39	19.95	-40.9	-44.1	13.9	1.50e-06	0	61	0	704643072	53	5172
2026-01-25 22:16:43.78	111.63	19.90	-41.0	-44.2	13.8	3.80e-06	0	61	0	706740224	53	5233
2026-01-25 22:16:44.79	111.86	19.85	-41.1	-44.4	13.6	4.50e-06	0	61	0	708837376	53	5363
2026-01-25 22:16:45.80	112.10	19.80	-41.3	-44.8	13.2	1.67e-05	0	61	0	710934528	53	5598
2026-01-25 22:16:46.81	112.33	19.75	-41.5	-45.2	12.8	4.04e-05	0	61	0	713031680	53	5894
2026-01-25 22:16:47.82	112.56	19.70	-41.7	-45.5	12.4	1.03e-04	0	61	0	714080256	53	6110
2026-01-25 22:16:48.83	112.79	19.65	-41.8	-45.7	12.2	1.75e-04	0	61	0	716177408	54	5908
2026-01-25 22:16:49.84	113.02	19.60	-41.9	-45.9	12.1	2.72e-04	0	61	0	718274560	54	5998
2026-01-25 22:16:50.85	113.25	19.55	-41.9	-45.9	11.9	3.29e-04	0	61	0	720371712	54	6057
2026-01-25 22:16:51.86	113.48	19.50	-41.9	-46.0	12.0	3.41e-04	0	61	0	722468864	54	6079
2026-01-25 22:16:52.87	113.71	19.45	-42.0	-46.1	11.8	3.94e-04	0	61	0	723517440	54	6150
2026-01-25 22:16:53.88	113.94	19.40	-42.0	-46.1	11.8	4.64e-04	0	61	0	725614592	54	6171
2026-01-25 22:16:54.89	114.17	19.35	-42.0	-46.2	11.7	5.10e-04	0	61	0	727711744	54	6208
2026-01-25 22:16:55.90	114.39	19.29	-41.9	-46.0	11.9	3.65e-04	0	61	0	729808896	54	6068
2026-01-25 22:16:56.91	114.62	19.24	-41.8	-45.8	12.2	2.71e-04	0	61	0	731906048	54	5941
2026-01-25 22:16:57.92	114.84	19.19	-41.8	-45.6	12.3	1.81e-04	0	61	0	734003200	54	5830
2026-01-25 22:16:58.93	115.07	19.13	-41.7	-45.6	12.3	1.93e-04	0	61	0	735051776	54	5820
2026-01-25 22:16:59.94	115.29	19.08	-41.7	-45.5	12.4	1.79e-04	0	62	0	737148928	54	5769
2026-01-25 22:17:00.95	115.51	19.03	-41.5	-45.2	12.7	1.11e-04	0	61	0	739246080	54	5575
2026-01-25 22:17:01.96	115.73	18.97	-41.5	-45.1	12.8	6.33e-05	0	61	0	741343232	54	5528
2026-01-25 22:17:02.97	115.96	18.92	-41.6	-45.4	12.6	8.54e-05	0	61	0	743440384	54	5658
2026-01-25 22:17:03.98	116.18	18.86	-41.6	-45.4	12.5	1.29e-04	0	61	0	744488960	54	5700
2026-01-25 22:17:05.00	116.40	18.81	-41.7	-45.6	12.3	1.36e-04	0	61	0	746586112	54	5802
2026-01-25 22:17:06.01	116.62	18.75	-41.8	-45.7	12.1	2.22e-04	0	61	0	748683264	54	5920
2026-01-25 22:17:07.02	116.83	18.69	-41.8	-45.9	12.0	3.00e-04	0	61	0	750780416	54	6014
2026-01-25 22:17:08.02	117.05	18.64	-41.9	-46.0	11.9	4.25e-04	0	61	0	752877568	54	6066
2026-01-25 22:17:09.03	117.26	18.58	-41.9	-46.0	11.9	4.07e-04	0	61	0	753926144	54	6096
2026-01-25 22:17:10.04	117.48	18.53	-42.0	-46.1	11.8	4.77e-04	0	61	0	756023296	54	6179
2026-01-25 22:17:11.05	117.69	18.47	-42.0	-46.2	11.7	5.70e-04	0	61	0	758120448	54	6210
2026-01-25 22:17:12.06	117.91	18.41	-41.8	-45.9	11.9	4.36e-04	0	61	0	760217600	54	6042
2026-01-25 22:17:13.06	118.12	18.35	-41.8	-45.7	12.2	2.82e-04	0	62	0	762314752	54	5893
2026-01-25 22:17:14.07	118.33	18.30	-41.6	-45.5	12.4	2.07e-04	0	61	0	763363328	54	5731
2026-01-25 22:17:15.08	118.54	18.24	-41.6	-45.3	12.6	9.53e-05	0	61	0	765460480	54	5605
2026-01-25 22:17:16.09	118.75	18.18	-41.3	-45.2	12.7	7.32e-05	0	61	0	767557632	54	5535
2026-01-25 22:17:17.10	118.96	18.12	-41.2	-45.0	12.8	1.17e-04	0	61	0	769654784	53	5740
2026-01-25 22:17:18.12	119.18	18.06	-41.4	-45.0	12.8	1.40e-03	0	61	0	771751936	53	5766
2026-01-25 22:17:19.13	119.38	18.00	-41.5	-45.2	12.6	7.93e-05	0	61	0	772800512	53	5905
2026-01-25 22:17:20.14	119.59	17.95	-41.5	-45.3	12.6	1.02e-04	0	61	0	774897664	53	5952
2026-01-25 22:17:21.15	119.80	17.89	-40.9	-45.4	12.1	6.95e-04	0	61	0	776994816	53	6052
2026-01-25 22:17:22.16	120.00	17.83	-41.6	-45.4	12.4	1.69e-03	0	61	0	779091968	53	6019
2026-01-25 22:17:23.17	120.21	17.77	-41.6	-45.4	12.4	1.85e-03	0	61	0	781189120	53	6054
2026-01-25 22:17:24.17	120.41	17.71	-41.6	-45.4	12.4	3.87e-03	0	61	0	782237696	53	6047
2026-01-25 22:17:25.18	120.62	17.65	-41.5	-45.2	12.6	6.59e-04	0	61	0	784334848	53	5915
2026-01-25 22:17:26.19	120.82	17.59	-41.5	-45.2	12.6	8.08e-05	0	62	0	786432000	53	5906
2026-01-25 22:17:27.21	121.02	17.53	-41.5	-45.3	12.5	1.23e-04	0	61	0	788529152	53	5970
2026-01-25 22:17:28.22	121.22	17.46	-41.6	-45.4	12.4	1.33e-04	0	61	0	790626304	53	6035
2026-01-25 22:17:29.22	121.42	17.40	-41.7	-45.7	12.1	1.04e-03	0	61	0	791674880	53	6208
2026-01-25 22:17:30.23	121.62	17.34	-41.8	-45.8	12.0	3.23e-04	0	61	0	793772032	54	5941
2026-01-25 22:17:31.25	121.82	17.28	-41.7	-45.8	12.0	8.14e-03	0	61	0	795869184	54	5927
2026-01-25 22:17:32.26	122.02	17.22	-41.6	-45.7	12.1	6.61e-03	0	61	0	797966336	53	6214
2026-01-25 22:17:33.27	122.22	17.16	-41.6	-45.6	11.9	1.07e-03	0	61	0	800063488	53	6179
2026-01-25 22:17:34.28	122.42	17.10	-41.7	-45.8	11.9	2.70e-04	0	62	0	802160640	54	5927
2026-01-25 22:17:35.29	122.61	17.03	-41.7	-45.8	12.0	3.39e-03	0	61	0	803209216	54	5942
2026-01-25 22:17:36.30	122.81	16.97	-41.8	-45.9	11.9	4.30e-04	0	61	0	805306368	54	6026
2026-01-25 22:17:37.31	123.00	16.91	-41.8	-46.0	11.8	4.89e-04	0	62	0	807403520	54	6099
2026-01-25 22:17:38.32	123.19	16.85	-41.8	-45.9	11.9	4.87e-04	0	61	0	809500672	54	6026
2026-01-25 22:17:39.33	123.39	16.78	-41.7	-45.8	12.0	4.52e-04	0	61	0	811597824	54	5926
2026-01-25 22:17:40.34	123.58	16.72	-39.8	-45.4	10.1	8.96e-04	0	62	0	812646400	50	7202
2026-01-25 22:17:41.35	123.77	16.66	-41.4	-45.2	12.6	3.30e-04	0	61	0	814743552	53	5865
2026-01-25 22:17:42.36	123.96	16.60	-41.4	-45.2	12.2	1.61e-04	0	61	0	816840704	53	5877
2026-01-25 22:17:43.37	124.15	16.53	-41.4	-45.2	12.5	6.90e-04	0	62	0	818937856	53	5906
2026-01-25 22:17:44.38	124.34	16.47	-41.4	-45.2	12.5	1.50e-04	0	62	0	821035008	53	5892
2026-01-25 22:17:45.39	124.53	16.41	-41.6	-45.5	12.2	2.38e-04	0	61	0	822083584	53	6111
2026-01-25 22:17:46.40	124.71	16.34	-41.8	-46.1	11.4	5.55e-04	0	62	0	824180736	54	6174
2026-01-25 22:17:47.41	124.90	16.28	-41.9	-46.2	11.5	9.31e-04	0	62	0	826277888	54	6252
2026-01-25 22:17:48.42	125.09	16.21	-41.9	-46.3	11.4	1.11e-03	0	62	0	828375040	54	6303
2026-01-25 22:17:49.43	125.27	16.15	-41.9	-46.2	11.4	1.33e-03	0	61	0	830472192	54	6269
2026-01-25 22:17:50.44	125.45	16.09	-41.7	-45.9	11.8	5.81e-04	0	62	0	831520768	54	6013
2026-01-25 22:17:51.45	125.64	16.02	-40.7	-45.9	10.0	8.14e-03	0	61	0	833617920	49	8024
2026-01-25 22:17:52.46	125.82	15.96	-41.5	-45.4	12.3	5.16e-03	0	61	0	835715072	53	6019
2026-01-25 22:17:53.47	126.00	15.89	-41.4	-45.3	12.4	3.10e-04	0	62	0	837812224	53	5932
2026-01-25 22:17:54.48	126.18	15.83	-41.4	-45.4	12.3	3.97e-04	0	61	0	839909376	53	5997
2026-01-25 22:17:55.49	126.36	15.77	-41.4	-45.4	12.2	3.68e-04	0	62	0	842006528	53	6054
2026-01-25 22:17:56.50	126.54	15.70	-41.6	-45.7	11.9	7.04e-03	0	61	0	843055104	53	6220
2026-01-25 22:17:57.52	126.72	15.64	-41.7	-45.8	11.8	7.92e-04	0	62	0	845152256	53	6339
2026-01-25 22:17:58.53	126.90	15.57	-41.5	-45.7	11.5	9.79e-04	0	62	0	847249408	52	6639
2026-01-25 22:17:59.54	127.08	15.51	-41.5	-45.6	11.9	1.22e-03	0	61	0	849346560	53	6188
2026-01-25 22:18:00.55	127.26	15.44	-41.4	-45.3	12.3	1.13e-03	0	61	0	851443712	53	5969
2026-01-25 22:18:01.56	127.43	15.38	-34.3	-44.1	12.2	6.96e-03	3	61	0	852492288	51	5844
2026-01-25 22:18:02.57	127.61	15.31	-40.8	-44.7	12.2	1.26e-02	0	62	0	854589440	51	6213
2026-01-25 22:18:03.58	127.78	15.24	-41.2	-45.0	12.3	9.91e-02	0	61	0	856686592	53	5776
2026-01-25 22:18:04.59	127.96	15.18	-41.3	-45.2	12.1	3.15e-03	0	62	0	858783744	53	5913
2026-01-25 22:18:05.60	128.13	15.11	-41.2	-45.4	11.5	9.14e-03	0	62	0	860880896	52	6382
2026-01-25 22:18:06.61	128.30	15.05	-41.9	-45.9	10.0	2.03e-02	0	61	0	861929472	53	6406
2026-01-25 22:18:07.62	128.47	14.98	-41.4	-46.0	11.2	1.83e-02	0	61	0	864026624	53	6458
2026-01-25 22:18:08.63	128.64	14.92	-41.4	-46.1	10.6	2.02e-02	0	61	0	866123776	52	6893
2026-01-25 22:18:09.64	128.81	14.85	-41.2	-46.0	10.9	2.51e-02	1	62	0	868220928	53	6438
2026-01-25 22:18:10.65	128.98	14.79	-39.6	-45.8	10.3	7.21e-02	6	61	0	870318080	52	6656
2026-01-25 22:18:11.66	129.15	14.72	-40.9	-45.5	9.4	6.45e-02	8	61	0	871366656	51	6831
2026-01-25 22:18:12.67	129.32	14.65	-34.2	-44.9	8.6	2.05e-01	27	62	0	873463808	48	7575
2026-01-25 22:18:13.68	129.49	14.59	-39.5	-45.5	9.9	7.11e-02	2	61	0	875560960	51	6837
2026-01-25 22:18:14.69	129.65	14.52	-38.1	-45.5	9.3	1.72e-01	8	62	0	876609536	50	7223
2026-01-25 22:18:15.70	129.82	14.46	-39.3	-45.6	10.0	1.64e-01	8	62	0	878706688	50	7338
2026-01-25 22:18:16.71	129.98	14.39	-39.6	-45.8	7.7	1.67e-01	34	62	0	880803840	46	9413
2026-01-25 22:18:17.72	130.15	14.33	-35.4	-45.7	8.9	2.21e-01	8	61	0	882900992	47	8852
2026-01-25 22:18:18.73	130.31	14.26	-39.4	-46.1	8.4	3.26e-01	11	62	0	884998144	48	8722
2026-01-25 22:18:19.74	130.47	14.19	-38.1	-46.0	8.6	2.85e-01	16	61	0	886046720	47	9079
2026-01-25 22:18:20.75	130.64	14.13	-36.5	-45.6	7.9	3.17e-01	17	61	0	888143872	46	9279
2026-01-25 22:18:21.76	130.80	14.06	-38.8	-45.6	8.4	3.35e-01	12	62	0	890241024	47	8734
2026-01-25 22:18:22.77	130.96	13.99	-37.2	-45.4	7.9	3.51e-01	21	61	0	891289600	42	11303
2026-01-25 22:18:23.78	131.12	13.93	-37.2	-45.0	7.8	6.03e-01	15	61	0	892338176	44	9653
2026-01-25 22:18:24.79	131.28	13.86	-36.3	-45.0	8.0	5.05e-01	19	62	0	892338176	45	9087
2026-01-25 22:18:25.80	131.44	13.80	-36.9	-45.4	8.7	3.65e-01	13	61	0	894435328	47	8530
2026-01-25 22:18:26.81	131.59	13.73	-37.0	-45.3	8.4	3.03e-01	19	62	0	895483904	45	9434
2026-01-25 22:18:27.81	131.75	13.66	-35.7	-45.1	7.7	3.17e-01	37	62	0	897581056	43	10321
2026-01-25 22:18:28.83	131.91	13.60	-37.0	-46.0	7.9	3.36e-01	33	62	0	899678208	44	10869
2026-01-25 22:18:29.84	132.06	13.53	-35.9	-45.9	6.9	4.76e-01	84	61	0	901775360	38	15135
2026-01-25 22:18:30.84	132.22	13.47	-36.5	-45.6	7.3	5.97e-01	61	61	0	902823936	42	11679
2026-01-25 22:18:31.85	132.37	13.40	-34.0	-45.5	7.3	1.09e+00	59	62	0	902823936	42	11461
2026-01-25 22:18:32.86	132.53	13.33	-34.5	-44.9	7.7	5.96e-01	52	62	0	902823936	42	10694
2026-01-25 22:18:33.87	132.68	13.27	-29.6	-44.0	6.5	4.98e-01	88	62	0	903872512	38	12184
2026-01-25 22:18:34.88	132.83	13.20	-34.0	-44.2	7.3	3.12e-01	43	62	0	905969664	42	9906
2026-01-25 22:18:35.89	132.98	13.13	-35.1	-45.4	7.7	4.14e-01	37	62	0	908066816	42	11413
2026-01-25 22:18:36.90	133.14	13.07	-37.4	-45.4	7.9	3.50e-01	23	61	0	910163968	43	10745
2026-01-25 22:18:37.91	133.29	13.00	-34.3	-44.8	7.0	2.67e-01	62	62	0	911212544	41	11286
2026-01-25 22:18:38.92	133.44	12.93	-37.0	-45.7	8.0	1.26e+00	19	61	0	911212544	45	9834
2026-01-25 22:18:39.93	133.59	12.87	-38.0	-45.6	7.5	2.93e-01	23	62	0	912261120	46	9274
2026-01-25 22:18:40.94	133.73	12.80	-37.9	-46.0	8.4	2.73e-01	15	62	0	914358272	48	8638
2026-01-25 22:18:41.95	133.88	12.74	-38.9	-46.6	7.7	3.25e-01	17	62	0	916455424	47	9752
2026-01-25 22:18:42.96	134.03	12.67	-38.8	-46.5	8.7	2.10e-01	5	62	0	918552576	50	8091
2026-01-25 22:18:43.97	134.18	12.60	-39.8	-46.2	7.8	1.42e-01	14	61	0	920649728	47	9317
2026-01-25 22:18:44.98	134.32	12.54	-32.6	-45.1	6.2	3.29e-01	62	62	0	921698304	39	13058
2026-01-25 22:18:45.99	134.47	12.47	-40.5	-46.1	9.7	1.26e-01	4	62	0	923795456	51	7314
2026-01-25 22:18:47.00	134.61	12.40	-39.7	-46.0	9.6	2.46e-01	6	62	0	925892608	51	7242
2026-01-25 22:18:48.01	134.76	12.34	-40.8	-46.3	9.3	1.20e-01	10	61	0	927989760	50	7983
2026-01-25 22:18:49.02	134.90	12.27	-40.1	-46.2	8.9	1.11e-01	8	61	0	929038336	50	7812
2026-01-25 22:18:50.03	135.04	12.21	-39.6	-46.3	9.0	1.35e-01	4	62	0	931135488	49	8371
2026-01-25 22:18:51.04	135.19	12.14	-40.4	-46.8	8.5	1.26e-01	2	62	0	933232640	51	7916
2026-01-25 22:18:52.05	135.33	12.07	-39.2	-46.4	8.0	1.61e-01	15	61	0	935329792	47	9514
2026-01-25 22:18:53.06	135.47	12.01	-39.6	-47.5	8.4	1.12e+00	7	62	0	935329792	49	9662
2026-01-25 22:18:54.07	135.61	11.94	-40.0	-47.0	8.9	2.16e-01	1	62	0	937426944	52	7647
2026-01-25 22:18:55.08	135.75	11.87	-41.0	-46.3	8.4	1.70e-01	12	61	0	938475520	50	7978
2026-01-25 22:18:56.09	135.89	11.81	-40.9	-47.0	8.9	1.28e-01	3	61	0	940572672	53	7254
2026-01-25 22:18:57.10	136.03	11.74	-37.2	-46.7	8.5	8.86e-02	4	61	0	942669824	48	9303
2026-01-25 22:18:58.11	136.16	11.68	-41.1	-46.5	9.7	4.34e-02	0	62	0	944766976	51	7711
2026-01-25 22:18:59.12	136.30	11.61	-41.0	-46.3	10.0	2.33e-02	0	61	0	946864128	52	7047
2026-01-25 22:19:00.13	136.44	11.54	-41.1	-46.2	10.0	3.42e-02	0	62	0	947912704	51	7381
2026-01-25 22:19:01.14	136.58	11.48	-38.5	-46.1	9.4	4.34e-02	2	62	0	950009856	51	7323
2026-01-25 22:19:02.15	136.71	11.41	-41.5	-46.4	9.8	4.86e-02	0	62	0	952107008	52	7146
2026-01-25 22:19:03.16	136.85	11.35	-33.9	-45.6	7.3	2.53e-01	42	62	0	954204160	46	9263
2026-01-25 22:19:04.17	136.98	11.28	-40.5	-46.2	9.9	2.56e-01	0	62	0	955252736	52	6965
2026-01-25 22:19:05.18	137.11	11.21	-40.9	-46.0	10.3	2.58e-02	0	61	0	957349888	52	6870
2026-01-25 22:19:06.19	137.25	11.15	-40.5	-46.1	9.9	2.11e-02	0	62	0	959447040	51	7330
2026-01-25 22:19:07.20	137.38	11.08	-40.6	-46.6	9.1	8.11e-02	0	61	0	961544192	51	7727
2026-01-25 22:19:08.21	137.51	11.02	-35.6	-45.8	6.8	1.71e-01	53	61	0	962592768	47	8943
2026-01-25 22:19:09.22	137.64	10.95	-34.2	-45.7	8.4	8.91e-02	25	62	0	964689920	51	7004
2026-01-25 22:19:10.23	137.78	10.89	-40.5	-45.6	10.5	1.29e-01	0	61	0	966787072	51	6937
2026-01-25 22:19:11.24	137.91	10.82	-40.3	-45.7	7.5	1.46e-01	18	61	0	967835648	49	7893
2026-01-25 22:19:12.25	138.04	10.76	-41.2	-47.0	9.3	1.89e-02	0	61	0	969932800	52	7641
2026-01-25 22:19:13.26	138.16	10.69	-40.7	-48.3	7.9	5.17e-02	0	62	0	972029952	53	8391
2026-01-25 22:19:14.27	138.29	10.62	-41.7	-48.8	7.5	1.02e-01	0	61	0	974127104	54	8392
2026-01-25 22:19:15.28	138.42	10.56	-41.5	-50.4	6.0	2.64e-01	0	62	0	975175680	54	10108
2026-01-25 22:19:16.30	138.55	10.49	-42.2	-51.1	5.5	4.87e-01	1	61	0	977272832	55	10318
2026-01-25 22:19:17.31	138.68	10.43	-42.2	-51.3	5.5	4.46e-01	0	62	0	979369984	55	10637
2026-01-25 22:19:18.32	138.80	10.36	-42.4	-52.4	4.8	7.53e-01	3	62	0	981467136	55	11962
2026-01-25 22:19:19.32	138.93	10.30	-42.3	-51.6	5.1	6.84e-01	0	62	0	983564288	55	11006
2026-01-25 22:19:20.34	139.06	10.23	-42.3	-52.1	4.7	1.43e+00	7	62	104	983564288	55	11634
2026-01-25 22:19:21.35	139.18	10.17	-43.6	-55.6	3.8	1.49e+00	0	62	104	983564288	57	15512
2026-01-25 22:19:22.36	139.31	10.10	-42.7	-50.2	6.6	8.66e-01	0	62	0	984612864	57	8356
2026-01-25 22:19:23.37	139.43	10.04	-42.5	-50.8	5.9	5.23e-01	0	62	0	985661440	55	9960
2026-01-25 22:19:24.38	139.55	9.97	-41.4	-46.4	10.1	5.15e-02	0	61	0	987758592	54	6408
2026-01-25 22:19:25.39	139.68	9.91	-41.4	-46.2	10.4	3.42e-03	0	62	0	989855744	54	6261
2026-01-25 22:19:26.40	139.80	9.84	-41.9	-47.8	8.9	1.43e-02	0	61	0	991952896	54	7486
2026-01-25 22:19:27.41	139.92	9.78	-41.6	-46.9	9.7	3.02e-02	0	62	0	994050048	53	7163
2026-01-25 22:19:28.42	140.04	9.71	-41.5	-46.6	10.0	6.00e-03	0	62	0	995098624	53	6948
2026-01-25 22:19:29.43	140.16	9.65	-41.8	-47.3	9.3	2.76e-02	0	62	0	997195776	54	7072
2026-01-25 22:19:30.44	140.28	9.58	-41.6	-46.7	9.9	1.20e-02	0	62	0	999292928	54	6645
2026-01-25 22:19:31.45	140.40	9.52	-41.7	-47.2	9.4	1.47e-02	0	62	0	1001390080	54	7022
2026-01-25 22:19:32.46	140.52	9.46	-41.7	-47.1	9.6	1.55e-02	0	61	0	1003487232	54	6906
2026-01-25 22:19:33.47	140.64	9.39	-41.8	-47.4	9.2	1.46e-02	0	62	0	1004535808	54	7191
2026-01-25 22:19:34.48	140.76	9.33	-41.9	-47.5	9.2	1.66e-02	0	62	0	1006632960	54	7205
2026-01-25 22:19:35.49	140.88	9.26	-41.8	-47.3	9.4	2.41e-02	0	62	0	1008730112	54	7060
2026-01-25 22:19:36.50	140.99	9.20	-42.0	-47.6	9.1	2.63e-02	0	62	0	1010827264	54	7370
2026-01-25 22:19:37.51	141.11	9.13	-42.1	-48.0	8.7	3.42e-02	0	62	0	1012924416	54	7675
2026-01-25 22:19:38.52	141.23	9.07	-42.1	-48.0	8.7	2.89e-02	0	62	0	1013972992	54	7673
2026-01-25 22:19:39.53	141.34	9.01	-42.2	-48.2	8.5	3.12e-02	0	62	0	1016070144	54	7844
2026-01-25 22:19:40.54	141.46	8.94	-42.2	-48.3	8.5	3.70e-02	0	62	0	1018167296	54	7915
2026-01-25 22:19:41.55	141.57	8.88	-42.1	-48.2	8.5	4.55e-02	0	62	0	1020264448	54	7860
2026-01-25 22:19:42.56	141.69	8.81	-42.2	-48.4	8.3	5.26e-02	0	62	0	1022361600	55	7595
2026-01-25 22:19:43.56	141.80	8.75	-42.2	-48.3	8.5	5.44e-02	0	62	0	1023410176	55	7461
2026-01-25 22:19:44.58	141.91	8.69	-42.2	-48.5	8.2	5.01e-02	0	62	0	1025507328	55	7665
2026-01-25 22:19:45.59	142.03	8.62	-42.2	-48.6	8.2	5.55e-02	0	62	0	1027604480	55	7723
2026-01-25 22:19:46.60	142.14	8.56	-42.2	-48.4	8.3	5.47e-02	0	61	0	1029701632	55	7587
2026-01-25 22:19:47.61	142.25	8.50	-42.2	-48.4	8.3	5.36e-02	0	62	0	1031798784	55	7626
2026-01-25 22:19:48.62	142.36	8.43	-42.1	-48.3	8.4	5.28e-02	0	61	0	1032847360	55	7475
2026-01-25 22:19:49.63	142.47	8.37	-42.1	-48.3	8.4	4.08e-02	0	61	0	1034944512	55	7491
2026-01-25 22:19:50.64	142.58	8.31	-42.2	-48.5	8.1	5.45e-02	0	62	0	1037041664	55	7701
2026-01-25 22:19:51.65	142.69	8.24	-42.2	-48.4	8.3	5.39e-02	0	61	0	1039138816	55	7576
2026-01-25 22:19:52.66	142.80	8.18	-42.1	-48.4	8.2	4.68e-02	0	62	0	1041235968	55	7589
2026-01-25 22:19:53.67	142.91	8.12	-42.2	-48.4	8.2	5.46e-02	0	62	0	1043333120	55	7600
2026-01-25 22:19:54.68	143.02	8.05	-42.1	-48.4	8.2	5.10e-02	0	61	0	1044381696	55	7583
2026-01-25 22:19:55.69	143.13	7.99	-43.5	-55.8	4.0	6.19e-02	0	62	0	1046478848	57	15780
2026-01-25 22:19:56.70	143.24	7.93	-44.1	-58.7	3.8	1.49e+00	0	62	104	1046478848	58	20973
2026-01-25 22:19:57.71	143.34	7.87	-42.5	-59.2	3.9	1.49e+00	0	62	104	1046478848	59	20826
2026-01-25 22:19:58.72	143.45	7.80	-45.0	-59.8	3.8	1.49e+00	0	62	104	1046478848	60	21236
2026-01-25 22:19:59.73	143.56	7.74	-45.2	-60.1	3.8	1.49e+00	0	62	104	1046478848	61	20631
2026-01-25 22:20:00.74	143.66	7.68	-45.4	-60.2	3.8	1.49e+00	0	62	104	1046478848	61	20870
2026-01-25 22:20:01.75	143.77	7.61	-45.5	-60.3	3.8	1.49e+00	0	62	104	1046478848	61	21119
2026-01-25 22:20:02.76	143.87	7.55	-45.5	-60.3	3.8	1.49e+00	0	62	104	1046478848	61	21195
2026-01-25 22:20:03.77	143.98	7.49	-45.6	-60.3	3.8	1.49e+00	0	62	104	1046478848	61	21250
2026-01-25 22:20:04.78	144.08	7.43	-45.6	-60.3	3.8	1.49e+00	0	62	104	1046478848	61	21195
2026-01-25 22:20:05.79	144.19	7.37	-45.5	-60.2	3.8	1.49e+00	0	62	104	1046478848	61	20984
2026-01-25 22:20:06.80	144.29	7.30	-45.5	-60.1	3.8	1.49e+00	0	62	104	1046478848	61	20741
2026-01-25 22:20:07.81	144.39	7.24	-45.5	-60.1	3.8	1.49e+00	0	61	104	1046478848	61	20706
2026-01-25 22:20:08.82	144.49	7.18	-45.4	-60.0	3.8	1.49e+00	0	61	104	1046478848	61	20492
2026-01-25 22:20:09.83	144.60	7.12	-45.4	-60.0	3.8	1.49e+00	0	62	104	1046478848	61	20482
2026-01-25 22:20:10.84	144.70	7.06	-45.2	-59.8	3.8	1.49e+00	0	62	104	1046478848	61	19988
2026-01-25 22:20:11.85	144.80	6.99	-45.2	-59.8	3.8	1.49e+00	0	62	104	1046478848	61	19922
2026-01-25 22:20:12.86	144.90	6.93	-45.2	-59.8	3.8	1.49e+00	0	62	104	1046478848	61	19923
2026-01-25 22:20:13.87	145.00	6.87	-45.2	-59.8	3.8	1.49e+00	0	62	104	1046478848	61	19960
2026-01-25 22:20:14.88	145.10	6.81	-45.2	-59.8	3.8	1.49e+00	0	62	104	1046478848	61	19945
2026-01-25 22:20:15.89	145.20	6.75	-45.2	-59.8	3.8	1.49e+00	0	62	104	1046478848	61	19918
2026-01-25 22:20:16.90	145.30	6.69	-45.2	-59.8	3.8	1.49e+00	0	62	104	1046478848	61	19980
2026-01-25 22:20:17.91	145.40	6.62	-45.2	-59.8	3.8	1.49e+00	0	61	104	1046478848	61	19930
2026-01-25 22:20:18.92	145.50	6.56	-45.2	-59.7	3.8	1.49e+00	0	62	104	1046478848	61	19840
2026-01-25 22:20:19.93	145.59	6.50	-45.2	-59.8	3.8	1.49e+00	0	62	104	1046478848	61	19908
2026-01-25 22:20:20.94	145.69	6.44	-45.2	-59.8	3.8	1.49e+00	0	62	104	1046478848	61	19852
2026-01-25 22:20:21.95	145.79	6.38	-45.2	-59.8	3.8	1.49e+00	0	62	104	1046478848	61	19843
2026-01-25 22:20:22.96	145.89	6.32	-45.2	-59.8	3.8	1.49e+00	0	62	104	1046478848	61	19919
2026-01-25 22:20:23.97	145.98	6.26	-45.2	-59.8	3.8	1.49e+00	0	62	104	1046478848	61	19882
2026-01-25 22:20:24.98	146.08	6.20	-45.2	-59.8	3.8	1.49e+00	0	61	104	1046478848	61	19886
2026-01-25 22:20:25.99	146.17	6.14	-45.2	-59.8	3.8	1.49e+00	0	62	104	1046478848	61	19923
2026-01-25 22:20:27.00	146.27	6.08	-45.2	-59.7	3.8	1.49e+00	0	62	104	1046478848	61	19837
2026-01-25 22:20:28.01	146.37	6.02	-45.2	-59.8	3.8	1.49e+00	0	62	104	1046478848	61	19854
2026-01-25 22:20:29.02	146.46	5.95	-45.2	-59.8	3.8	1.49e+00	0	62	104	1046478848	61	19842
2026-01-25 22:20:30.03	146.55	5.89	-45.2	-59.7	3.8	1.49e+00	0	62	104	1046478848	61	19776
2026-01-25 22:20:31.04	146.65	5.83	-45.1	-59.8	3.8	1.49e+00	0	62	104	1046478848	61	19888
2026-01-25 22:20:32.05	146.74	5.77	-45.1	-59.7	3.8	1.49e+00	0	62	104	1046478848	61	19793
