passes_logs/2026/01/25/R2.0S_Moscow/R2.0S_Moscow__20260125_114018_NOAA_20_JPSS-1_rec.log

#Pass ID: 20260125_114018_NOAA 20 (JPSS-1)
#Satellite: NOAA 20 (JPSS-1)
#Configuration: NOAA 20
#almurnet v.1.7.20251203
#Start time: 2026-01-25 11:40:20

#Version: 2.2.20231116
#Station: R2.0S_Moscow
#Location: 37.707566 lon 55.798166 lat
#TLE: 1 43013U 17073A   26024.42258823  .00000183  00000+0  10747-3 0  9990
#TLE: 2 43013  98.7646 325.2629 0001105  25.8644 334.2587 14.19539754424075

#Time	Az	El	Level	Level2	SNR	BER	BlckErr	Temp	State	Recorded	gain1	gain2
2026-01-25 11:40:20.11	214.33	2.07	-44.1	-58.6	3.8	1.49e+00	0	53	0	0	59	19517
2026-01-25 11:40:21.12	214.41	2.12	-44.0	-58.7	3.8	1.49e+00	0	54	104	0	60	18605
2026-01-25 11:40:22.13	214.49	2.17	-44.0	-58.7	3.8	1.49e+00	0	54	104	0	60	18648
2026-01-25 11:40:23.14	214.58	2.23	-44.0	-58.7	3.8	1.49e+00	0	54	104	0	60	18663
2026-01-25 11:40:24.15	214.66	2.28	-44.0	-58.7	3.8	1.49e+00	0	54	104	0	60	18587
2026-01-25 11:40:25.16	214.74	2.33	-44.1	-58.6	3.8	1.49e+00	0	54	104	0	59	19461
2026-01-25 11:40:26.17	214.83	2.38	-44.1	-58.6	3.8	1.49e+00	0	54	104	0	59	19463
2026-01-25 11:40:27.18	214.91	2.44	-44.1	-58.6	3.8	1.49e+00	0	54	104	0	59	19475
2026-01-25 11:40:28.19	214.99	2.49	-44.1	-58.6	3.8	1.49e+00	0	54	104	0	59	19420
2026-01-25 11:40:29.20	215.08	2.54	-44.1	-58.6	3.8	1.49e+00	0	54	104	0	59	19488
2026-01-25 11:40:30.21	215.16	2.60	-44.1	-58.6	3.8	1.49e+00	0	54	104	0	59	19463
2026-01-25 11:40:31.22	215.25	2.65	-44.1	-58.6	3.8	1.49e+00	0	55	104	0	59	19469
2026-01-25 11:40:32.23	215.33	2.70	-44.1	-58.5	3.8	1.49e+00	0	54	104	0	59	19378
2026-01-25 11:40:33.24	215.42	2.76	-44.1	-58.6	3.8	1.49e+00	0	54	104	0	59	19470
2026-01-25 11:40:34.25	215.50	2.81	-44.1	-58.6	3.8	1.49e+00	0	54	104	0	59	19461
2026-01-25 11:40:35.26	215.59	2.86	-44.1	-58.6	3.8	1.49e+00	0	54	104	0	59	19452
2026-01-25 11:40:36.27	215.67	2.92	-44.1	-58.6	3.8	1.49e+00	0	54	104	0	59	19405
2026-01-25 11:40:37.29	215.76	2.97	-44.1	-58.6	3.8	1.49e+00	0	54	104	0	59	19532
2026-01-25 11:40:38.30	215.85	3.03	-44.1	-58.6	3.8	1.49e+00	0	55	104	0	59	19421
2026-01-25 11:40:39.31	215.93	3.08	-44.1	-58.6	3.8	1.49e+00	0	55	104	0	59	19422
2026-01-25 11:40:40.32	216.02	3.13	-44.1	-58.6	3.8	1.49e+00	0	55	104	0	59	19448
2026-01-25 11:40:41.33	216.11	3.19	-44.1	-58.6	3.8	1.49e+00	0	55	104	0	59	19451
2026-01-25 11:40:42.34	216.20	3.24	-44.1	-58.6	3.8	1.49e+00	0	55	104	0	59	19399
2026-01-25 11:40:43.35	216.29	3.30	-44.1	-58.5	3.8	1.49e+00	0	55	104	0	59	19388
2026-01-25 11:40:44.36	216.37	3.35	-44.1	-58.6	3.8	1.49e+00	0	55	104	0	59	19468
2026-01-25 11:40:45.37	216.46	3.40	-44.1	-58.6	3.8	1.49e+00	0	55	104	0	59	19413
2026-01-25 11:40:46.38	216.55	3.46	-44.1	-58.6	3.8	1.49e+00	0	55	104	0	59	19420
2026-01-25 11:40:47.39	216.64	3.51	-44.1	-58.6	3.8	1.49e+00	0	55	104	0	59	19435
2026-01-25 11:40:48.40	216.73	3.57	-44.1	-58.6	3.8	1.49e+00	0	55	104	0	59	19407
2026-01-25 11:40:49.41	216.82	3.62	-44.1	-58.6	3.8	1.49e+00	0	56	104	0	59	19416
2026-01-25 11:40:50.42	216.91	3.68	-44.1	-58.6	3.8	1.49e+00	0	55	104	0	59	19426
2026-01-25 11:40:51.43	217.00	3.73	-44.1	-58.6	3.8	1.49e+00	0	56	104	0	59	19397
2026-01-25 11:40:52.44	217.09	3.78	-44.1	-58.6	3.8	1.49e+00	0	56	104	0	59	19410
2026-01-25 11:40:53.46	217.19	3.84	-44.1	-58.6	3.8	1.49e+00	0	55	104	0	59	19422
2026-01-25 11:40:54.46	217.28	3.89	-44.1	-58.6	3.8	1.49e+00	0	56	104	0	59	19431
2026-01-25 11:40:55.48	217.37	3.95	-44.1	-58.5	3.8	1.49e+00	0	56	104	0	59	19361
2026-01-25 11:40:56.48	217.46	4.00	-44.1	-58.6	3.8	1.49e+00	0	56	104	0	59	19444
2026-01-25 11:40:57.49	217.55	4.06	-44.1	-58.6	3.8	1.49e+00	0	56	104	0	59	19424
2026-01-25 11:40:58.50	217.65	4.11	-44.1	-58.5	3.8	1.49e+00	0	56	104	0	59	19370
2026-01-25 11:40:59.51	217.74	4.17	-44.1	-58.5	3.8	1.49e+00	0	56	104	0	59	19389
2026-01-25 11:41:00.52	217.84	4.22	-44.1	-58.6	3.8	1.49e+00	0	56	104	0	59	19393
2026-01-25 11:41:01.53	217.93	4.28	-44.1	-58.6	3.8	1.49e+00	0	56	104	0	59	19431
2026-01-25 11:41:02.55	218.02	4.33	-44.1	-58.6	3.8	1.49e+00	0	56	104	0	59	19452
2026-01-25 11:41:03.56	218.12	4.39	-44.1	-58.6	3.8	1.49e+00	0	56	104	0	59	19442
2026-01-25 11:41:04.57	218.21	4.44	-44.1	-58.5	3.8	1.49e+00	0	56	104	0	59	19380
2026-01-25 11:41:05.58	218.31	4.50	-44.1	-58.5	3.8	1.49e+00	0	56	104	0	59	19345
2026-01-25 11:41:06.59	218.41	4.55	-44.1	-58.6	3.8	1.49e+00	0	56	104	0	59	19429
2026-01-25 11:41:07.60	218.50	4.61	-44.1	-58.5	3.8	1.49e+00	0	56	104	0	59	19363
2026-01-25 11:41:08.61	218.60	4.66	-44.1	-58.5	3.8	1.49e+00	0	57	104	0	59	19368
2026-01-25 11:41:09.62	218.70	4.72	-44.1	-58.6	3.8	1.49e+00	0	57	104	0	59	19440
2026-01-25 11:41:10.63	218.79	4.77	-44.1	-58.6	3.8	1.49e+00	0	56	104	0	59	19417
2026-01-25 11:41:11.64	218.89	4.83	-44.1	-58.5	3.8	1.49e+00	0	57	104	0	59	19377
2026-01-25 11:41:12.65	218.99	4.88	-44.1	-58.5	3.8	1.49e+00	0	57	104	0	59	19382
2026-01-25 11:41:13.66	219.09	4.94	-44.1	-58.6	3.8	1.49e+00	0	57	104	0	59	19417
2026-01-25 11:41:14.67	219.19	5.00	-44.1	-58.5	3.8	1.49e+00	0	57	104	0	59	19357
2026-01-25 11:41:15.68	219.28	5.05	-44.1	-58.6	3.8	1.49e+00	0	57	104	0	59	19424
2026-01-25 11:41:16.69	219.38	5.11	-44.1	-58.6	3.8	1.49e+00	0	57	104	0	59	19395
2026-01-25 11:41:17.70	219.48	5.16	-44.1	-58.5	3.8	1.49e+00	0	57	104	0	59	19368
2026-01-25 11:41:18.71	219.58	5.22	-44.1	-58.5	3.8	1.49e+00	0	57	104	0	59	19388
2026-01-25 11:41:19.72	219.68	5.27	-44.1	-58.5	3.8	1.49e+00	0	57	104	0	59	19333
2026-01-25 11:41:20.73	219.79	5.33	-44.0	-58.5	3.8	1.49e+00	0	57	104	0	59	19245
2026-01-25 11:41:21.74	219.89	5.39	-44.1	-58.5	3.8	1.49e+00	0	57	104	0	59	19285
2026-01-25 11:41:22.75	219.99	5.44	-44.0	-58.5	3.8	1.49e+00	0	57	104	0	59	19264
2026-01-25 11:41:23.76	220.09	5.50	-44.0	-58.5	3.8	1.49e+00	0	57	104	0	59	19224
2026-01-25 11:41:24.78	220.19	5.55	-43.9	-58.4	3.8	1.49e+00	0	57	104	0	59	19166
2026-01-25 11:41:25.79	220.30	5.61	-44.0	-58.5	3.8	1.49e+00	0	57	104	0	59	19214
2026-01-25 11:41:26.80	220.40	5.67	-44.0	-58.4	3.8	1.49e+00	0	57	104	0	59	19087
2026-01-25 11:41:27.81	220.50	5.72	-44.0	-58.4	3.8	1.49e+00	0	58	104	0	59	18989
2026-01-25 11:41:28.82	220.61	5.78	-44.0	-58.4	3.8	1.49e+00	0	57	104	0	59	18987
2026-01-25 11:41:29.83	220.71	5.83	-44.0	-58.3	3.8	1.49e+00	0	57	104	0	59	18926
2026-01-25 11:41:30.84	220.82	5.89	-44.0	-58.3	3.8	1.49e+00	0	58	104	0	59	18784
2026-01-25 11:41:31.85	220.92	5.95	-44.0	-58.3	3.8	1.49e+00	0	57	104	0	59	18780
2026-01-25 11:41:32.86	221.03	6.00	-44.0	-58.2	3.8	1.49e+00	0	57	104	0	59	18706
2026-01-25 11:41:33.87	221.13	6.06	-44.0	-58.1	3.8	1.49e+00	0	57	104	0	59	18482
2026-01-25 11:41:34.88	221.24	6.12	-44.0	-58.1	3.8	1.49e+00	0	58	104	0	59	18444
2026-01-25 11:41:35.89	221.35	6.17	-44.0	-58.1	3.8	1.49e+00	0	58	104	0	59	18380
2026-01-25 11:41:36.90	221.45	6.23	-44.0	-58.0	3.8	1.49e+00	0	58	104	0	59	18146
2026-01-25 11:41:37.91	221.56	6.29	-44.0	-57.7	3.8	1.49e+00	0	58	104	0	59	17680
2026-01-25 11:41:38.92	221.67	6.34	-44.0	-57.5	3.8	1.49e+00	0	58	104	0	59	17220
2026-01-25 11:41:39.93	221.78	6.40	-44.0	-57.3	3.8	1.49e+00	0	58	104	0	59	16870
2026-01-25 11:41:40.94	221.88	6.45	-43.9	-57.1	3.8	1.49e+00	0	58	104	0	59	16481
2026-01-25 11:41:41.95	221.99	6.51	-43.9	-56.8	3.8	1.49e+00	0	58	104	0	59	15927
2026-01-25 11:41:42.97	222.10	6.57	-43.9	-56.6	3.8	1.49e+00	0	58	104	0	59	15413
2026-01-25 11:41:43.98	222.21	6.63	-43.9	-56.2	3.8	1.49e+00	0	58	104	0	59	14710
2026-01-25 11:41:44.99	222.32	6.68	-43.8	-55.4	4.1	1.47e+00	0	58	104	0	59	13514
2026-01-25 11:41:46.00	222.44	6.74	-43.8	-55.0	4.2	1.41e+00	0	58	0	0	59	12825
2026-01-25 11:41:47.01	222.55	6.80	-43.8	-54.6	4.3	1.36e+00	54	58	0	0	59	12240
2026-01-25 11:41:48.02	222.66	6.85	-43.7	-54.1	4.5	1.26e+00	26	58	0	1048576	59	11676
2026-01-25 11:41:49.03	222.77	6.91	-43.6	-53.6	4.7	9.55e-01	0	58	0	3145728	59	10972
2026-01-25 11:41:50.04	222.88	6.97	-43.6	-53.1	4.9	7.68e-01	0	58	0	5242880	59	10351
2026-01-25 11:41:51.05	223.00	7.02	-43.6	-53.1	4.9	7.22e-01	0	58	0	6291456	59	10366
2026-01-25 11:41:52.06	223.11	7.08	-43.6	-53.3	4.9	7.80e-01	0	58	0	8388608	59	10564
2026-01-25 11:41:53.07	223.22	7.14	-43.6	-53.3	4.8	8.10e-01	0	58	0	10485760	59	10563
2026-01-25 11:41:54.08	223.34	7.20	-43.6	-53.3	4.8	7.94e-01	0	58	0	12582912	59	10541
2026-01-25 11:41:55.09	223.45	7.25	-43.6	-53.5	4.7	8.51e-01	0	58	0	14680064	59	10842
2026-01-25 11:41:56.10	223.57	7.31	-43.7	-53.7	4.6	8.83e-01	0	58	0	15728640	59	11124
2026-01-25 11:41:57.11	223.68	7.37	-43.7	-53.9	4.5	9.67e-01	0	58	0	17825792	59	11408
2026-01-25 11:41:58.12	223.80	7.42	-43.7	-53.8	4.6	9.86e-01	0	59	0	19922944	59	11184
2026-01-25 11:41:59.13	223.91	7.48	-43.6	-53.3	4.8	8.77e-01	0	58	0	22020096	59	10654
2026-01-25 11:42:00.14	224.03	7.54	-43.5	-52.6	5.2	7.09e-01	0	58	0	24117248	59	9764
2026-01-25 11:42:01.15	224.15	7.60	-43.4	-52.0	5.6	5.37e-01	0	58	0	25165824	58	9646
2026-01-25 11:42:02.16	224.27	7.65	-43.3	-51.0	6.3	3.00e-01	0	59	0	27262976	58	8630
2026-01-25 11:42:03.18	224.38	7.71	-43.1	-50.3	7.0	2.04e-01	0	58	0	29360128	58	7920
2026-01-25 11:42:04.18	224.50	7.77	-42.9	-49.4	7.8	1.24e-01	0	58	0	31457280	57	7580
2026-01-25 11:42:05.19	224.62	7.83	-42.8	-49.0	8.2	6.00e-02	0	58	0	33554432	57	7251
2026-01-25 11:42:06.20	224.74	7.88	-42.6	-48.4	8.7	4.40e-02	0	58	0	35651584	57	6792
2026-01-25 11:42:07.21	224.86	7.94	-42.5	-48.2	9.0	2.58e-02	0	59	0	36700160	57	6594
2026-01-25 11:42:08.22	224.98	8.00	-42.5	-48.2	9.0	2.48e-02	0	58	0	38797312	57	6577
2026-01-25 11:42:09.24	225.10	8.06	-42.5	-48.0	9.2	2.18e-02	0	59	0	40894464	57	6435
2026-01-25 11:42:10.25	225.22	8.11	-42.8	-48.9	8.4	3.49e-02	0	59	0	42991616	56	7603
2026-01-25 11:42:11.26	225.35	8.17	-43.9	-57.3	3.9	1.49e+00	0	59	104	42991616	58	17711
2026-01-25 11:42:12.27	225.47	8.23	-43.4	-51.0	6.5	1.43e-01	0	59	0	44040192	57	9108
2026-01-25 11:42:13.28	225.59	8.29	-43.0	-49.2	8.1	1.34e-01	0	59	0	45088768	57	7405
2026-01-25 11:42:14.29	225.71	8.34	-43.6	-52.7	5.1	7.64e-02	0	59	0	47185920	58	10428
2026-01-25 11:42:15.29	225.84	8.40	-42.7	-48.5	8.8	3.66e-02	0	59	0	49283072	57	6877
2026-01-25 11:42:16.30	225.96	8.46	-42.6	-48.2	9.2	2.30e-02	0	59	0	51380224	57	6622
2026-01-25 11:42:17.31	226.08	8.52	-42.6	-48.1	9.3	2.04e-02	0	59	0	53477376	57	6522
2026-01-25 11:42:18.32	226.21	8.57	-42.6	-48.1	9.3	1.73e-02	0	59	0	54525952	57	6532
2026-01-25 11:42:19.33	226.34	8.63	-42.5	-47.8	9.6	1.59e-02	0	59	0	56623104	57	6330
2026-01-25 11:42:20.34	226.46	8.69	-42.4	-47.5	9.9	1.09e-02	0	59	0	58720256	56	6439
2026-01-25 11:42:21.35	226.59	8.75	-42.3	-47.3	10.2	6.36e-03	0	59	0	60817408	56	6282
2026-01-25 11:42:22.36	226.71	8.80	-42.3	-47.1	10.3	5.85e-03	0	59	0	62914560	56	6181
2026-01-25 11:42:23.37	226.84	8.86	-42.3	-47.1	10.3	4.87e-03	0	59	0	63963136	56	6184
2026-01-25 11:42:24.38	226.97	8.92	-42.2	-47.0	10.5	4.54e-03	0	59	0	66060288	56	6122
2026-01-25 11:42:25.39	227.10	8.98	-42.2	-46.9	10.5	4.19e-03	0	59	0	68157440	56	6045
2026-01-25 11:42:26.40	227.23	9.04	-42.2	-47.0	10.5	4.11e-03	0	59	0	70254592	56	6072
2026-01-25 11:42:27.41	227.36	9.09	-42.2	-47.0	10.6	3.35e-03	0	59	0	72351744	56	6062
2026-01-25 11:42:28.42	227.49	9.15	-42.2	-46.9	10.6	3.69e-03	0	59	0	73400320	56	6052
2026-01-25 11:42:29.43	227.62	9.21	-42.1	-46.8	10.7	2.84e-03	0	59	0	75497472	56	5945
2026-01-25 11:42:30.44	227.75	9.27	-42.1	-46.8	10.8	2.89e-03	0	59	0	77594624	56	5932
2026-01-25 11:42:31.45	227.88	9.32	-42.2	-46.8	10.7	2.76e-03	0	59	0	79691776	56	5952
2026-01-25 11:42:32.45	228.01	9.38	-42.2	-46.8	10.7	3.12e-03	0	59	0	81788928	56	5975
2026-01-25 11:42:33.46	228.14	9.44	-42.1	-46.8	10.8	3.05e-03	0	59	0	82837504	56	5929
2026-01-25 11:42:34.47	228.28	9.50	-42.1	-46.7	10.9	2.45e-03	0	59	0	84934656	56	5884
2026-01-25 11:42:35.48	228.41	9.56	-42.2	-46.8	10.7	2.55e-03	0	59	0	87031808	56	5972
2026-01-25 11:42:36.49	228.54	9.61	-42.2	-46.9	10.7	2.78e-03	0	59	0	89128960	56	6010
2026-01-25 11:42:37.50	228.68	9.67	-42.2	-46.8	10.8	2.83e-03	0	59	0	91226112	56	5966
2026-01-25 11:42:38.51	228.81	9.73	-42.2	-46.8	10.7	2.99e-03	0	59	0	92274688	56	5990
2026-01-25 11:42:39.52	228.95	9.79	-42.2	-46.8	10.8	2.65e-03	0	59	0	94371840	56	5942
2026-01-25 11:42:40.53	229.08	9.84	-42.2	-46.9	10.7	2.82e-03	0	59	0	96468992	56	6018
2026-01-25 11:42:41.54	229.22	9.90	-42.2	-46.9	10.7	3.14e-03	0	59	0	98566144	56	6028
2026-01-25 11:42:42.55	229.36	9.96	-42.2	-46.8	10.8	2.88e-03	0	60	0	100663296	56	5947
2026-01-25 11:42:43.56	229.50	10.02	-42.2	-46.9	10.7	2.76e-03	0	59	0	102760448	56	6027
2026-01-25 11:42:44.57	229.63	10.08	-42.2	-46.9	10.7	3.27e-03	0	59	0	103809024	56	6038
2026-01-25 11:42:45.58	229.77	10.13	-42.2	-46.9	10.6	3.21e-03	0	59	0	105906176	56	6056
2026-01-25 11:42:46.59	229.91	10.19	-42.2	-46.9	10.6	3.17e-03	0	60	0	108003328	56	6053
2026-01-25 11:42:47.60	230.05	10.25	-42.2	-47.0	10.6	3.42e-03	0	60	0	110100480	56	6075
2026-01-25 11:42:48.61	230.19	10.31	-42.3	-47.1	10.5	4.06e-03	0	59	0	112197632	56	6135
2026-01-25 11:42:49.61	230.33	10.36	-42.3	-47.0	10.6	3.47e-03	0	60	0	113246208	56	6103
2026-01-25 11:42:50.62	230.47	10.42	-42.3	-47.0	10.6	3.48e-03	0	59	0	115343360	56	6064
2026-01-25 11:42:51.63	230.61	10.48	-42.3	-47.0	10.6	3.72e-03	0	60	0	117440512	56	6108
2026-01-25 11:42:52.65	230.76	10.54	-42.3	-47.1	10.6	3.42e-03	0	60	0	119537664	56	6136
2026-01-25 11:42:53.66	230.90	10.59	-42.3	-47.0	10.7	3.05e-03	0	59	0	121634816	56	6067
2026-01-25 11:42:54.67	231.04	10.65	-42.2	-46.9	10.8	2.52e-03	0	60	0	122683392	56	6003
2026-01-25 11:42:55.68	231.19	10.71	-42.2	-46.9	10.8	2.68e-03	0	60	0	124780544	56	5994
2026-01-25 11:42:56.68	231.33	10.77	-42.2	-46.8	10.8	2.40e-03	0	60	0	126877696	56	5972
2026-01-25 11:42:57.69	231.48	10.82	-42.2	-46.8	10.8	2.64e-03	0	60	0	128974848	56	5992
2026-01-25 11:42:58.70	231.62	10.88	-42.2	-46.9	10.8	2.72e-03	0	60	0	131072000	56	6004
2026-01-25 11:42:59.71	231.77	10.94	-42.3	-46.9	10.7	2.63e-03	0	60	0	132120576	56	6016
2026-01-25 11:43:00.72	231.92	11.00	-42.3	-46.9	10.7	2.86e-03	0	60	0	134217728	56	6049
2026-01-25 11:43:01.73	232.06	11.05	-42.3	-46.9	10.7	2.84e-03	0	60	0	136314880	56	6041
2026-01-25 11:43:02.74	232.21	11.11	-42.3	-46.9	10.7	3.01e-03	0	60	0	138412032	56	6015
2026-01-25 11:43:03.75	232.36	11.17	-42.2	-46.8	10.8	2.45e-03	0	60	0	140509184	56	5956
2026-01-25 11:43:04.76	232.51	11.23	-42.2	-46.7	10.9	2.11e-03	0	60	0	141557760	56	5901
2026-01-25 11:43:05.77	232.66	11.28	-42.2	-46.7	11.0	1.98e-03	0	60	0	143654912	56	5860
2026-01-25 11:43:06.78	232.81	11.34	-42.2	-46.6	11.1	1.71e-03	0	60	0	145752064	56	5821
2026-01-25 11:43:07.79	232.96	11.40	-42.2	-46.6	11.1	1.57e-03	0	60	0	147849216	56	5816
2026-01-25 11:43:08.80	233.11	11.45	-42.2	-46.6	11.1	1.77e-03	0	60	0	149946368	56	5855
2026-01-25 11:43:09.81	233.26	11.51	-42.1	-46.5	11.2	1.46e-03	0	60	0	150994944	56	5782
2026-01-25 11:43:10.82	233.41	11.57	-42.1	-46.5	11.2	1.38e-03	0	60	0	153092096	56	5769
2026-01-25 11:43:11.83	233.57	11.63	-42.1	-46.5	11.2	1.39e-03	0	60	0	155189248	56	5761
2026-01-25 11:43:12.84	233.72	11.68	-42.2	-46.6	11.2	1.36e-03	0	60	0	157286400	56	5813
2026-01-25 11:43:13.85	233.88	11.74	-42.1	-46.5	11.2	1.43e-03	0	60	0	159383552	56	5779
2026-01-25 11:43:14.85	234.03	11.80	-42.1	-46.5	11.2	1.38e-03	0	60	0	160432128	56	5777
2026-01-25 11:43:15.86	234.18	11.85	-42.1	-46.5	11.2	1.39e-03	0	60	0	162529280	56	5778
2026-01-25 11:43:16.87	234.34	11.91	-42.2	-46.5	11.2	1.46e-03	0	60	0	164626432	56	5783
2026-01-25 11:43:17.88	234.50	11.97	-42.1	-46.4	11.3	1.25e-03	0	60	0	166723584	56	5703
2026-01-25 11:43:18.89	234.65	12.02	-42.1	-46.4	11.3	1.23e-03	0	60	0	168820736	56	5687
2026-01-25 11:43:19.90	234.81	12.08	-42.1	-46.4	11.3	1.04e-03	0	60	0	170917888	56	5686
2026-01-25 11:43:20.91	234.97	12.14	-42.1	-46.4	11.4	1.11e-03	0	60	0	171966464	56	5691
2026-01-25 11:43:21.92	235.13	12.19	-42.1	-46.5	11.2	1.13e-03	0	60	0	174063616	56	5768
2026-01-25 11:43:22.93	235.29	12.25	-42.1	-46.5	11.2	1.24e-03	0	60	0	176160768	56	5754
2026-01-25 11:43:23.94	235.45	12.30	-42.1	-46.5	11.3	1.31e-03	0	60	0	178257920	56	5736
2026-01-25 11:43:24.95	235.61	12.36	-42.2	-46.6	11.1	1.40e-03	0	60	0	180355072	56	5836
2026-01-25 11:43:25.96	235.77	12.42	-42.1	-46.3	11.4	1.10e-03	0	60	0	181403648	56	5641
2026-01-25 11:43:26.97	235.93	12.47	-42.1	-46.3	11.4	9.20e-04	0	60	0	183500800	56	5646
2026-01-25 11:43:27.98	236.09	12.53	-42.0	-46.1	11.6	7.91e-04	0	60	0	185597952	56	5526
2026-01-25 11:43:28.99	236.26	12.58	-41.8	-45.9	11.7	6.65e-04	0	60	0	187695104	55	5706
2026-01-25 11:43:30.00	236.42	12.64	-41.8	-45.9	11.7	5.77e-04	0	60	0	188743680	55	5698
2026-01-25 11:43:31.01	236.58	12.70	-41.8	-45.9	11.7	5.56e-04	0	60	0	190840832	55	5683
2026-01-25 11:43:32.02	236.75	12.75	-41.7	-45.8	11.8	5.53e-04	0	60	0	192937984	55	5603
2026-01-25 11:43:33.03	236.91	12.81	-41.7	-45.7	11.9	4.13e-04	0	60	0	195035136	55	5584
2026-01-25 11:43:34.04	237.08	12.86	-41.7	-45.7	11.9	4.35e-04	0	60	0	197132288	55	5582
2026-01-25 11:43:35.05	237.25	12.92	-41.7	-45.7	11.9	4.13e-04	0	60	0	199229440	55	5578
2026-01-25 11:43:36.06	237.41	12.97	-41.8	-45.8	11.8	4.04e-04	0	60	0	200278016	55	5634
2026-01-25 11:43:37.07	237.58	13.03	-41.8	-45.8	11.8	3.75e-04	0	60	0	202375168	55	5610
2026-01-25 11:43:38.08	237.75	13.08	-41.6	-45.6	12.1	3.82e-04	0	60	0	204472320	55	5475
2026-01-25 11:43:39.09	237.92	13.14	-41.6	-45.5	12.1	2.46e-04	0	60	0	206569472	55	5422
2026-01-25 11:43:40.10	238.09	13.19	-41.5	-45.3	12.3	2.23e-04	0	60	0	208666624	55	5321
2026-01-25 11:43:41.10	238.26	13.25	-41.5	-45.3	12.3	1.65e-04	0	60	0	209715200	55	5317
2026-01-25 11:43:42.11	238.43	13.30	-41.5	-45.3	12.3	1.62e-04	0	60	0	211812352	55	5321
2026-01-25 11:43:43.12	238.60	13.36	-41.5	-45.2	12.5	1.41e-04	0	60	0	213909504	54	5576
2026-01-25 11:43:44.13	238.77	13.41	-41.5	-45.3	12.4	1.66e-04	0	60	0	216006656	54	5600
2026-01-25 11:43:45.14	238.95	13.47	-41.5	-45.2	12.5	1.30e-04	0	60	0	218103808	54	5576
2026-01-25 11:43:46.15	239.12	13.52	-41.5	-45.3	12.4	1.37e-04	0	60	0	219152384	54	5598
2026-01-25 11:43:47.16	239.29	13.57	-41.5	-45.2	12.5	1.60e-04	0	60	0	221249536	54	5565
2026-01-25 11:43:48.17	239.47	13.63	-41.5	-45.3	12.4	1.35e-04	0	61	0	223346688	54	5594
2026-01-25 11:43:49.18	239.64	13.68	-41.5	-45.2	12.5	1.26e-04	0	60	0	225443840	54	5564
2026-01-25 11:43:50.19	239.82	13.74	-41.5	-45.2	12.5	1.26e-04	0	60	0	227540992	54	5558
2026-01-25 11:43:51.20	239.99	13.79	-41.5	-45.2	12.5	1.24e-04	0	60	0	228589568	54	5562
2026-01-25 11:43:52.21	240.17	13.84	-41.5	-45.2	12.4	1.26e-04	0	60	0	230686720	54	5583
2026-01-25 11:43:53.22	240.35	13.90	-41.4	-45.1	12.6	1.11e-04	0	61	0	232783872	54	5504
2026-01-25 11:43:54.23	240.53	13.95	-41.4	-45.1	12.6	9.68e-05	0	60	0	234881024	54	5470
2026-01-25 11:43:55.24	240.71	14.00	-41.3	-44.8	12.9	4.73e-05	0	60	0	236978176	54	5325
2026-01-25 11:43:56.25	240.89	14.05	-41.3	-44.8	12.9	4.65e-05	0	61	0	238026752	54	5309
2026-01-25 11:43:57.25	241.06	14.11	-41.3	-44.9	12.8	6.86e-05	0	61	0	240123904	54	5351
2026-01-25 11:43:58.27	241.25	14.16	-41.4	-44.9	12.8	5.34e-05	0	60	0	242221056	54	5400
2026-01-25 11:43:59.27	241.43	14.21	-41.3	-44.9	12.8	6.17e-05	0	60	0	244318208	54	5371
2026-01-25 11:44:00.29	241.61	14.26	-41.4	-44.9	12.8	7.40e-05	0	61	0	246415360	54	5387
2026-01-25 11:44:01.30	241.79	14.32	-41.4	-45.0	12.7	6.25e-05	0	61	0	247463936	54	5450
2026-01-25 11:44:02.30	241.97	14.37	-41.4	-45.1	12.6	8.85e-05	0	61	0	249561088	54	5472
2026-01-25 11:44:03.31	242.16	14.42	-41.4	-45.0	12.7	6.71e-05	0	61	0	251658240	54	5438
2026-01-25 11:44:04.32	242.34	14.47	-41.4	-45.0	12.7	7.62e-05	0	61	0	253755392	54	5436
2026-01-25 11:44:05.33	242.53	14.52	-41.3	-44.9	12.9	4.73e-05	0	61	0	255852544	54	5343
2026-01-25 11:44:06.34	242.71	14.57	-41.3	-44.8	13.0	4.42e-05	0	61	0	257949696	54	5300
2026-01-25 11:44:07.35	242.90	14.63	-41.3	-44.8	12.9	4.27e-05	0	61	0	258998272	54	5323
2026-01-25 11:44:08.36	243.09	14.68	-41.3	-44.9	12.9	4.65e-05	0	61	0	261095424	54	5346
2026-01-25 11:44:09.37	243.27	14.73	-41.3	-44.9	12.8	5.26e-05	0	60	0	263192576	54	5372
2026-01-25 11:44:10.38	243.46	14.78	-41.4	-45.1	12.6	7.24e-05	0	61	0	265289728	54	5469
2026-01-25 11:44:11.39	243.65	14.83	-41.5	-45.1	12.6	8.46e-05	0	61	0	267386880	54	5500
2026-01-25 11:44:12.40	243.84	14.88	-41.5	-45.1	12.6	1.08e-04	0	61	0	268435456	54	5515
2026-01-25 11:44:13.41	244.03	14.93	-41.5	-45.2	12.5	1.03e-04	0	61	0	270532608	54	5566
2026-01-25 11:44:14.42	244.22	14.98	-41.6	-45.3	12.4	1.25e-04	0	61	0	272629760	54	5642
2026-01-25 11:44:15.43	244.41	15.03	-41.5	-45.3	12.4	1.44e-04	0	61	0	274726912	54	5626
2026-01-25 11:44:16.43	244.60	15.08	-41.6	-45.4	12.4	1.48e-04	0	60	0	276824064	54	5657
2026-01-25 11:44:17.44	244.80	15.13	-41.6	-45.3	12.4	1.52e-04	0	61	0	277872640	54	5652
2026-01-25 11:44:18.45	244.99	15.17	-41.6	-45.3	12.4	1.27e-04	0	61	0	279969792	54	5632
2026-01-25 11:44:19.46	245.18	15.22	-41.6	-45.4	12.3	1.59e-04	0	61	0	282066944	54	5688
2026-01-25 11:44:20.47	245.38	15.27	-41.6	-45.4	12.3	1.67e-04	0	61	0	284164096	54	5699
2026-01-25 11:44:21.48	245.57	15.32	-41.7	-45.5	12.2	1.86e-04	0	61	0	286261248	54	5754
2026-01-25 11:44:22.49	245.77	15.37	-41.7	-45.6	12.1	2.35e-04	0	61	0	287309824	54	5847
2026-01-25 11:44:23.50	245.96	15.42	-41.8	-45.7	12.0	2.73e-04	0	61	0	289406976	54	5915
2026-01-25 11:44:24.51	246.16	15.46	-41.9	-45.9	11.8	3.94e-04	0	61	0	291504128	54	6020
2026-01-25 11:44:25.52	246.36	15.51	-41.9	-46.0	11.8	5.16e-04	0	61	0	293601280	54	6066
2026-01-25 11:44:26.53	246.56	15.56	-41.9	-46.0	11.8	5.35e-04	0	61	0	295698432	54	6070
2026-01-25 11:44:27.54	246.75	15.61	-41.9	-46.1	11.6	5.61e-04	0	61	0	296747008	54	6156
2026-01-25 11:44:28.55	246.95	15.65	-42.0	-46.2	11.5	7.00e-04	0	61	0	298844160	54	6212
2026-01-25 11:44:29.56	247.15	15.70	-41.9	-46.1	11.7	6.35e-04	0	61	0	300941312	54	6145
2026-01-25 11:44:30.57	247.35	15.75	-42.0	-46.2	11.6	6.57e-04	0	61	0	303038464	54	6215
2026-01-25 11:44:31.58	247.56	15.79	-41.9	-46.1	11.6	6.64e-04	0	61	0	305135616	54	6163
2026-01-25 11:44:32.59	247.76	15.84	-42.0	-46.1	11.6	6.70e-04	0	61	0	306184192	54	6189
2026-01-25 11:44:33.58	247.96	15.88	-42.0	-46.2	11.5	7.06e-04	0	61	0	308281344	54	6223
2026-01-25 11:44:34.60	248.16	15.93	-42.0	-46.2	11.5	7.90e-04	0	61	0	310378496	54	6229
2026-01-25 11:44:35.61	248.36	15.97	-42.0	-46.3	11.4	9.50e-04	0	61	0	312475648	54	6304
2026-01-25 11:44:36.61	248.57	16.02	-42.1	-46.3	11.4	1.05e-03	0	61	0	314572800	54	6344
2026-01-25 11:44:37.63	248.77	16.06	-42.1	-46.5	11.2	1.08e-03	0	61	0	315621376	54	6436
2026-01-25 11:44:38.64	248.98	16.11	-42.1	-46.5	11.2	1.36e-03	0	61	0	317718528	54	6458
2026-01-25 11:44:39.64	249.18	16.15	-42.2	-46.6	11.2	1.35e-03	0	61	0	319815680	54	6502
2026-01-25 11:44:40.65	249.39	16.19	-42.1	-46.5	11.1	1.50e-03	0	61	0	321912832	54	6490
2026-01-25 11:44:41.66	249.59	16.24	-42.1	-46.5	11.2	1.46e-03	0	61	0	324009984	54	6458
2026-01-25 11:44:42.67	249.80	16.28	-42.2	-46.6	11.1	1.45e-03	0	61	0	326107136	54	6520
2026-01-25 11:44:43.68	250.01	16.32	-42.2	-46.7	11.0	1.52e-03	0	61	0	327155712	55	6228
2026-01-25 11:44:44.69	250.22	16.37	-42.3	-46.8	10.9	1.88e-03	0	61	0	329252864	55	6303
2026-01-25 11:44:45.70	250.43	16.41	-42.3	-46.9	10.8	2.09e-03	0	61	0	331350016	55	6350
2026-01-25 11:44:46.71	250.64	16.45	-42.3	-47.0	10.7	3.03e-03	0	61	0	333447168	55	6426
2026-01-25 11:44:47.72	250.85	16.49	-42.4	-47.1	10.6	3.37e-03	0	61	0	335544320	55	6539
2026-01-25 11:44:48.73	251.06	16.53	-42.5	-47.2	10.4	4.02e-03	0	61	0	336592896	55	6627
2026-01-25 11:44:49.74	251.27	16.58	-42.5	-47.3	10.4	4.20e-03	0	61	0	338690048	55	6686
2026-01-25 11:44:50.75	251.48	16.62	-42.5	-47.3	10.3	4.98e-03	0	61	0	340787200	55	6701
2026-01-25 11:44:51.76	251.70	16.66	-42.5	-47.3	10.4	5.03e-03	0	61	0	342884352	55	6676
2026-01-25 11:44:52.77	251.91	16.70	-42.4	-47.2	10.4	4.60e-03	0	61	0	344981504	55	6602
2026-01-25 11:44:53.78	252.12	16.74	-42.3	-46.9	10.7	3.09e-03	0	61	0	346030080	55	6416
2026-01-25 11:44:54.79	252.34	16.78	-42.3	-46.8	10.9	2.46e-03	0	61	0	348127232	55	6314
2026-01-25 11:44:55.79	252.55	16.82	-42.2	-46.8	10.9	2.10e-03	0	61	0	350224384	55	6292
2026-01-25 11:44:56.81	252.77	16.86	-42.2	-46.7	11.0	1.96e-03	0	61	0	352321536	55	6226
2026-01-25 11:44:57.81	252.98	16.89	-42.2	-46.6	11.0	1.53e-03	0	61	0	354418688	55	6182
2026-01-25 11:44:58.82	253.20	16.93	-42.2	-46.6	11.0	1.64e-03	0	61	0	355467264	55	6194
2026-01-25 11:44:59.83	253.41	16.97	-42.2	-46.6	11.2	1.47e-03	0	61	0	357564416	55	6141
2026-01-25 11:45:00.84	253.63	17.01	-42.2	-46.7	11.1	1.81e-03	0	61	0	359661568	55	6234
2026-01-25 11:45:01.85	253.85	17.04	-42.2	-46.7	11.0	1.92e-03	0	61	0	361758720	55	6229
2026-01-25 11:45:02.86	254.07	17.08	-42.2	-46.7	11.0	1.92e-03	0	61	0	363855872	55	6241
2026-01-25 11:45:03.87	254.29	17.12	-42.2	-46.7	11.0	1.78e-03	0	61	0	364904448	55	6244
2026-01-25 11:45:04.88	254.51	17.15	-42.2	-46.6	11.2	1.57e-03	0	61	0	367001600	55	6134
2026-01-25 11:45:05.89	254.73	17.19	-42.0	-46.3	11.4	1.23e-03	0	61	0	369098752	55	5949
2026-01-25 11:45:06.90	254.95	17.23	-42.0	-46.2	11.5	8.30e-04	0	61	0	371195904	55	5867
2026-01-25 11:45:07.91	255.17	17.26	-42.0	-46.1	11.7	6.93e-04	0	61	0	373293056	55	5792
2026-01-25 11:45:08.92	255.39	17.30	-41.9	-46.0	11.8	5.17e-04	0	61	0	374341632	55	5738
2026-01-25 11:45:09.93	255.61	17.33	-41.9	-45.9	11.9	4.88e-04	0	61	0	376438784	55	5692
2026-01-25 11:45:10.94	255.84	17.36	-41.9	-45.9	11.8	4.68e-04	0	61	0	378535936	55	5671
2026-01-25 11:45:11.95	256.06	17.40	-41.8	-45.8	11.9	3.71e-04	0	61	0	380633088	55	5655
2026-01-25 11:45:12.96	256.28	17.43	-41.8	-45.7	12.0	4.26e-04	0	61	0	382730240	55	5553
2026-01-25 11:45:13.97	256.51	17.47	-41.8	-45.7	12.1	2.84e-04	0	61	0	383778816	55	5529
2026-01-25 11:45:14.98	256.73	17.50	-41.8	-45.7	12.1	2.84e-04	0	61	0	385875968	55	5531
2026-01-25 11:45:15.99	256.96	17.53	-41.8	-45.8	12.0	3.16e-04	0	61	0	387973120	55	5615
2026-01-25 11:45:17.00	257.18	17.56	-41.8	-45.7	12.1	3.01e-04	0	61	0	390070272	55	5543
2026-01-25 11:45:18.01	257.41	17.59	-41.8	-45.6	12.1	2.34e-04	0	61	0	392167424	55	5525
2026-01-25 11:45:19.02	257.63	17.62	-41.7	-45.6	12.2	2.52e-04	0	61	0	394264576	55	5489
2026-01-25 11:45:20.03	257.86	17.66	-41.7	-45.6	12.2	2.14e-04	0	61	0	395313152	55	5480
2026-01-25 11:45:21.04	258.09	17.69	-41.7	-45.6	12.2	2.23e-04	0	61	0	397410304	55	5485
2026-01-25 11:45:22.05	258.32	17.72	-41.7	-45.6	12.1	2.76e-04	0	61	0	399507456	55	5520
2026-01-25 11:45:23.06	258.54	17.74	-41.8	-45.7	12.0	3.44e-04	0	61	0	401604608	55	5579
2026-01-25 11:45:24.06	258.77	17.77	-41.9	-45.9	11.9	3.80e-04	0	61	0	403701760	55	5670
2026-01-25 11:45:25.07	259.00	17.80	-41.9	-45.9	11.8	4.23e-04	0	61	0	404750336	55	5702
2026-01-25 11:45:26.08	259.23	17.83	-41.9	-45.9	11.8	5.06e-04	0	61	0	406847488	55	5688
2026-01-25 11:45:27.09	259.46	17.86	-41.9	-45.9	11.8	4.10e-04	0	61	0	408944640	55	5706
2026-01-25 11:45:28.10	259.69	17.89	-41.9	-45.9	11.8	4.91e-04	0	61	0	411041792	55	5707
2026-01-25 11:45:29.11	259.92	17.91	-41.9	-46.0	11.8	4.72e-04	0	61	0	413138944	55	5742
2026-01-25 11:45:30.12	260.15	17.94	-41.9	-45.9	11.8	4.71e-04	0	61	0	414187520	55	5717
2026-01-25 11:45:31.13	260.38	17.97	-41.9	-45.9	11.8	5.19e-04	0	61	0	416284672	55	5713
2026-01-25 11:45:32.14	260.61	17.99	-41.9	-46.0	11.7	4.49e-04	0	61	0	418381824	55	5744
2026-01-25 11:45:33.15	260.84	18.02	-41.9	-45.8	11.9	3.67e-04	0	61	0	420478976	55	5653
2026-01-25 11:45:34.16	261.08	18.04	-41.8	-45.7	12.0	3.17e-04	0	61	0	422576128	55	5584
2026-01-25 11:45:35.17	261.31	18.07	-41.8	-45.7	12.0	3.02e-04	0	61	0	423624704	55	5583
2026-01-25 11:45:36.18	261.54	18.09	-41.8	-45.7	12.0	2.90e-04	0	61	0	425721856	55	5558
2026-01-25 11:45:37.19	261.78	18.11	-41.7	-45.6	12.1	2.68e-04	0	61	0	427819008	55	5523
2026-01-25 11:45:38.20	262.01	18.14	-41.8	-45.7	12.0	2.43e-04	0	61	0	429916160	55	5592
2026-01-25 11:45:39.21	262.25	18.16	-41.9	-45.9	11.9	3.39e-04	0	61	0	432013312	55	5663
2026-01-25 11:45:40.21	262.48	18.18	-41.9	-46.0	11.8	4.55e-04	0	61	0	433061888	55	5752
2026-01-25 11:45:41.22	262.71	18.20	-41.9	-46.0	11.8	5.35e-04	0	61	0	435159040	55	5735
2026-01-25 11:45:42.23	262.95	18.23	-41.9	-46.0	11.8	5.55e-04	0	61	0	437256192	55	5744
2026-01-25 11:45:43.24	263.18	18.25	-41.9	-46.0	11.8	5.41e-04	0	61	0	439353344	55	5724
2026-01-25 11:45:44.25	263.42	18.27	-41.8	-45.9	11.9	4.29e-04	0	61	0	441450496	55	5664
2026-01-25 11:45:45.26	263.66	18.29	-41.9	-45.9	11.8	3.63e-04	0	61	0	442499072	55	5719
2026-01-25 11:45:46.27	263.89	18.31	-41.8	-45.8	11.9	4.24e-04	0	61	0	444596224	55	5652
2026-01-25 11:45:47.28	264.13	18.33	-41.9	-45.9	11.8	3.81e-04	0	61	0	446693376	55	5696
2026-01-25 11:45:48.29	264.37	18.34	-41.9	-46.0	11.8	4.97e-04	0	61	0	448790528	55	5724
2026-01-25 11:45:49.29	264.60	18.36	-41.9	-45.9	11.8	4.44e-04	0	61	0	450887680	55	5676
2026-01-25 11:45:50.30	264.84	18.38	-41.9	-45.9	11.9	3.84e-04	0	61	0	451936256	55	5681
2026-01-25 11:45:51.31	265.08	18.40	-41.9	-45.9	11.8	4.23e-04	0	61	0	454033408	55	5718
2026-01-25 11:45:52.32	265.31	18.41	-41.9	-45.9	11.9	4.04e-04	0	61	0	456130560	55	5674
2026-01-25 11:45:53.33	265.55	18.43	-41.8	-45.8	12.0	3.35e-04	0	61	0	458227712	55	5611
2026-01-25 11:45:54.34	265.79	18.45	-41.8	-45.7	12.0	3.44e-04	0	61	0	460324864	55	5583
2026-01-25 11:45:55.35	266.03	18.46	-41.8	-45.7	12.1	2.82e-04	0	61	0	461373440	55	5541
2026-01-25 11:45:56.36	266.27	18.48	-41.8	-45.8	12.0	3.16e-04	0	61	0	463470592	55	5607
2026-01-25 11:45:57.37	266.51	18.49	-41.8	-45.7	12.1	3.17e-04	0	61	0	465567744	55	5560
2026-01-25 11:45:58.38	266.75	18.51	-41.9	-45.9	11.9	2.82e-04	0	61	0	467664896	55	5691
2026-01-25 11:45:59.39	266.99	18.52	-42.0	-46.0	11.7	5.27e-04	0	61	0	469762048	55	5779
2026-01-25 11:46:00.40	267.23	18.53	-41.9	-46.0	11.7	6.26e-04	0	61	0	471859200	55	5767
2026-01-25 11:46:01.41	267.47	18.54	-42.0	-46.1	11.7	6.07e-04	0	61	0	472907776	55	5791
2026-01-25 11:46:02.42	267.71	18.56	-42.0	-46.2	11.5	7.38e-04	0	61	0	475004928	55	5888
2026-01-25 11:46:03.43	267.95	18.57	-41.9	-46.0	11.7	5.98e-04	0	61	0	477102080	55	5779
2026-01-25 11:46:04.44	268.19	18.58	-42.0	-46.1	11.7	5.84e-04	0	61	0	479199232	55	5791
2026-01-25 11:46:05.45	268.43	18.59	-41.9	-46.0	11.7	5.90e-04	0	62	0	481296384	55	5781
2026-01-25 11:46:06.46	268.67	18.60	-41.9	-46.0	11.7	5.19e-04	0	61	0	482344960	55	5774
2026-01-25 11:46:07.47	268.91	18.61	-42.0	-46.1	11.6	5.76e-04	0	62	0	484442112	55	5832
2026-01-25 11:46:08.48	269.15	18.62	-42.0	-46.1	11.7	6.80e-04	0	62	0	486539264	55	5809
2026-01-25 11:46:09.49	269.39	18.63	-42.0	-46.2	11.6	7.19e-04	0	61	0	488636416	55	5867
2026-01-25 11:46:10.50	269.64	18.64	-42.1	-46.3	11.5	8.19e-04	0	61	0	490733568	55	5944
2026-01-25 11:46:11.51	269.88	18.64	-42.0	-46.2	11.5	8.25e-04	0	61	0	491782144	55	5876
2026-01-25 11:46:12.52	270.12	18.65	-42.1	-46.4	11.3	1.08e-03	0	61	0	493879296	55	6049
2026-01-25 11:46:13.53	270.36	18.66	-42.1	-46.4	11.3	1.13e-03	0	61	0	495976448	55	6030
2026-01-25 11:46:14.54	270.60	18.66	-42.1	-46.5	11.2	1.24e-03	0	61	0	498073600	55	6092
2026-01-25 11:46:15.55	270.84	18.67	-42.2	-46.6	11.1	1.56e-03	0	61	0	500170752	55	6134
2026-01-25 11:46:16.56	271.09	18.67	-42.2	-46.6	11.1	1.65e-03	0	61	0	501219328	55	6134
2026-01-25 11:46:17.57	271.33	18.68	-42.1	-46.5	11.1	1.45e-03	0	61	0	503316480	55	6110
2026-01-25 11:46:18.58	271.57	18.68	-42.0	-46.2	11.5	9.51e-04	0	61	0	505413632	55	5922
2026-01-25 11:46:19.59	271.81	18.69	-41.9	-46.0	11.7	6.23e-04	0	61	0	507510784	55	5762
2026-01-25 11:46:20.60	272.06	18.69	-41.9	-46.0	11.8	4.48e-04	0	61	0	509607936	55	5732
2026-01-25 11:46:21.61	272.30	18.69	-41.8	-45.9	11.9	4.10e-04	0	61	0	510656512	55	5658
2026-01-25 11:46:22.62	272.54	18.69	-41.9	-46.0	11.7	4.97e-04	0	62	0	512753664	55	5757
2026-01-25 11:46:23.62	272.78	18.70	-42.0	-46.1	11.6	5.52e-04	0	61	0	514850816	55	5853
2026-01-25 11:46:24.63	273.02	18.70	-42.1	-46.4	11.3	8.89e-04	0	62	0	516947968	55	6007
2026-01-25 11:46:25.64	273.26	18.70	-42.1	-46.5	11.2	1.16e-03	0	61	0	519045120	55	6111
2026-01-25 11:46:26.65	273.51	18.70	-42.2	-46.6	11.1	1.40e-03	0	62	0	520093696	55	6168
2026-01-25 11:46:27.66	273.75	18.70	-42.2	-46.7	11.0	1.96e-03	0	61	0	522190848	55	6234
2026-01-25 11:46:28.67	273.99	18.70	-42.2	-46.6	11.1	1.80e-03	0	61	0	524288000	55	6200
2026-01-25 11:46:29.68	274.23	18.70	-42.1	-46.5	11.2	1.39e-03	0	62	0	526385152	55	6102
2026-01-25 11:46:30.69	274.48	18.69	-42.1	-46.5	11.2	1.35e-03	0	62	0	528482304	55	6093
2026-01-25 11:46:31.70	274.72	18.69	-42.2	-46.6	11.1	1.56e-03	0	62	0	529530880	55	6170
2026-01-25 11:46:32.71	274.96	18.69	-42.1	-46.4	11.3	1.25e-03	0	61	0	531628032	55	6042
2026-01-25 11:46:33.72	275.20	18.69	-42.1	-46.4	11.4	1.06e-03	0	62	0	533725184	55	5995
2026-01-25 11:46:34.73	275.45	18.68	-42.0	-46.3	11.3	1.10e-03	0	62	0	535822336	55	5977
2026-01-25 11:46:35.74	275.69	18.68	-42.1	-46.5	11.3	1.19e-03	0	61	0	537919488	55	6064
2026-01-25 11:46:36.74	275.93	18.67	-42.0	-46.3	11.4	1.07e-03	0	62	0	540016640	55	5924
2026-01-25 11:46:37.75	276.17	18.67	-42.0	-46.3	11.4	1.00e-03	0	61	0	541065216	55	5976
2026-01-25 11:46:38.77	276.41	18.66	-42.0	-46.2	11.5	9.63e-04	0	62	0	543162368	55	5887
2026-01-25 11:46:39.77	276.65	18.65	-42.0	-46.3	11.4	8.73e-04	0	61	0	545259520	55	5928
2026-01-25 11:46:40.79	276.90	18.65	-42.0	-46.3	11.4	9.90e-04	0	62	0	547356672	55	5973
2026-01-25 11:46:41.79	277.14	18.64	-42.0	-46.3	11.5	8.82e-04	0	61	0	549453824	55	5953
2026-01-25 11:46:42.80	277.38	18.63	-42.0	-46.2	11.5	8.14e-04	0	61	0	550502400	55	5918
2026-01-25 11:46:43.81	277.62	18.62	-42.0	-46.2	11.5	8.48e-04	0	62	0	552599552	55	5893
2026-01-25 11:46:44.82	277.86	18.62	-42.0	-46.2	11.6	7.57e-04	0	62	0	554696704	55	5858
2026-01-25 11:46:45.83	278.10	18.61	-41.9	-46.0	11.7	6.30e-04	0	62	0	556793856	55	5762
2026-01-25 11:46:46.84	278.34	18.60	-41.9	-46.0	11.7	5.92e-04	0	62	0	558891008	55	5746
2026-01-25 11:46:47.85	278.58	18.59	-41.9	-45.9	11.8	5.24e-04	0	62	0	559939584	55	5706
2026-01-25 11:46:48.86	278.82	18.58	-41.9	-46.0	11.8	4.70e-04	0	62	0	562036736	55	5734
2026-01-25 11:46:49.87	279.06	18.57	-41.9	-45.9	11.8	5.32e-04	0	62	0	564133888	55	5695
2026-01-25 11:46:50.88	279.30	18.55	-41.9	-45.9	11.8	4.82e-04	0	62	0	566231040	55	5720
2026-01-25 11:46:51.89	279.54	18.54	-41.8	-45.9	11.8	4.81e-04	0	62	0	568328192	55	5683
2026-01-25 11:46:52.90	279.78	18.53	-41.9	-46.0	11.7	5.29e-04	0	62	0	569376768	55	5779
2026-01-25 11:46:53.91	280.02	18.52	-41.9	-46.0	11.7	5.98e-04	0	61	0	571473920	55	5746
2026-01-25 11:46:54.92	280.26	18.50	-41.9	-46.0	11.8	4.71e-04	0	62	0	573571072	55	5725
2026-01-25 11:46:55.93	280.50	18.49	-41.9	-46.0	11.6	5.19e-04	0	61	0	575668224	55	5784
2026-01-25 11:46:56.94	280.74	18.47	-42.0	-46.1	11.6	6.64e-04	0	62	0	577765376	55	5844
2026-01-25 11:46:57.95	280.98	18.46	-42.0	-46.1	11.6	7.23e-04	0	61	0	578813952	55	5855
2026-01-25 11:46:58.96	281.22	18.44	-42.0	-46.3	11.4	8.90e-04	0	62	0	580911104	55	5931
2026-01-25 11:46:59.97	281.45	18.43	-42.0	-46.3	11.4	8.77e-04	0	61	0	583008256	55	5934
2026-01-25 11:47:00.97	281.69	18.41	-42.0	-46.2	11.5	9.19e-04	0	62	0	585105408	55	5902
2026-01-25 11:47:01.98	281.93	18.39	-42.0	-46.2	11.5	8.35e-04	0	62	0	587202560	55	5857
2026-01-25 11:47:02.99	282.16	18.38	-41.9	-46.0	11.7	7.39e-04	0	62	0	588251136	55	5725
2026-01-25 11:47:04.00	282.40	18.36	-41.8	-45.7	11.9	3.78e-04	0	62	0	590348288	55	5588
2026-01-25 11:47:05.01	282.64	18.34	-41.7	-45.6	12.1	2.70e-04	0	61	0	592445440	55	5499
2026-01-25 11:47:06.02	282.87	18.32	-41.7	-45.5	12.2	2.88e-04	0	62	0	594542592	55	5444
2026-01-25 11:47:07.03	283.11	18.30	-41.6	-45.5	12.2	1.85e-04	0	61	0	596639744	55	5430
2026-01-25 11:47:08.04	283.35	18.28	-41.7	-45.5	12.2	2.15e-04	0	62	0	597688320	55	5456
2026-01-25 11:47:09.05	283.58	18.26	-41.7	-45.5	12.2	2.51e-04	0	62	0	599785472	55	5442
2026-01-25 11:47:10.06	283.82	18.24	-41.6	-45.5	12.2	2.10e-04	0	61	0	601882624	55	5419
2026-01-25 11:47:11.07	284.05	18.22	-41.6	-45.5	12.2	1.56e-04	0	61	0	603979776	55	5418
2026-01-25 11:47:12.08	284.29	18.20	-41.7	-45.5	12.2	2.23e-04	0	62	0	606076928	55	5449
2026-01-25 11:47:13.09	284.52	18.18	-41.7	-45.5	12.2	2.27e-04	0	62	0	608174080	55	5445
2026-01-25 11:47:14.10	284.76	18.16	-41.7	-45.6	12.1	2.33e-04	0	62	0	609222656	55	5482
2026-01-25 11:47:15.11	284.99	18.13	-41.6	-45.5	12.2	2.77e-04	0	62	0	611319808	55	5422
2026-01-25 11:47:16.12	285.22	18.11	-41.7	-45.6	12.1	2.72e-04	0	62	0	613416960	55	5476
2026-01-25 11:47:17.13	285.45	18.09	-41.7	-45.5	12.2	2.22e-04	0	61	0	615514112	55	5434
2026-01-25 11:47:18.14	285.69	18.06	-41.6	-45.5	12.2	2.10e-04	0	62	0	616562688	55	5414
2026-01-25 11:47:19.15	285.92	18.04	-41.6	-45.5	12.2	2.10e-04	0	61	0	618659840	55	5406
2026-01-25 11:47:20.16	286.15	18.01	-41.5	-45.3	12.4	1.62e-04	0	62	0	620756992	55	5307
2026-01-25 11:47:21.17	286.38	17.99	-41.5	-45.3	12.4	1.36e-04	0	62	0	622854144	55	5313
2026-01-25 11:47:22.18	286.61	17.96	-41.5	-45.3	12.4	1.68e-04	0	62	0	624951296	55	5289
2026-01-25 11:47:23.18	286.84	17.94	-41.4	-45.1	12.6	1.17e-04	0	62	0	625999872	54	5516
2026-01-25 11:47:24.19	287.07	17.91	-41.4	-45.0	12.7	9.61e-05	0	62	0	628097024	54	5418
2026-01-25 11:47:25.20	287.30	17.88	-41.3	-44.8	12.9	5.11e-05	0	62	0	630194176	54	5318
2026-01-25 11:47:26.21	287.53	17.85	-41.3	-44.8	12.9	5.11e-05	0	62	0	632291328	54	5309
2026-01-25 11:47:27.22	287.76	17.83	-41.3	-44.8	12.9	4.95e-05	0	61	0	634388480	54	5329
2026-01-25 11:47:28.23	287.99	17.80	-41.3	-44.9	12.9	4.80e-05	0	61	0	636485632	54	5358
2026-01-25 11:47:29.24	288.22	17.77	-41.3	-44.9	12.8	4.27e-05	0	62	0	637534208	54	5342
2026-01-25 11:47:30.25	288.44	17.74	-41.3	-44.8	12.9	5.56e-05	0	61	0	639631360	54	5340
2026-01-25 11:47:31.26	288.67	17.71	-41.4	-45.0	12.7	5.95e-05	0	62	0	641728512	54	5404
2026-01-25 11:47:32.27	288.90	17.68	-41.3	-44.9	12.8	7.24e-05	0	62	0	643825664	54	5397
2026-01-25 11:47:33.28	289.13	17.65	-41.5	-45.2	12.5	9.91e-05	0	61	0	645922816	54	5549
2026-01-25 11:47:34.29	289.35	17.62	-41.5	-45.3	12.4	1.32e-04	0	62	0	646971392	54	5598
2026-01-25 11:47:35.30	289.58	17.59	-41.5	-45.2	12.4	1.35e-04	0	62	0	649068544	54	5590
2026-01-25 11:47:36.31	289.80	17.56	-41.5	-45.3	12.4	1.40e-04	0	62	0	651165696	54	5607
2026-01-25 11:47:37.31	290.02	17.53	-41.5	-45.2	12.5	1.07e-04	0	62	0	653262848	54	5544
2026-01-25 11:47:38.32	290.25	17.49	-41.5	-45.3	12.4	1.13e-04	0	62	0	655360000	54	5634
2026-01-25 11:47:39.33	290.47	17.46	-41.5	-45.2	12.5	1.56e-04	0	62	0	656408576	54	5544
2026-01-25 11:47:40.34	290.69	17.43	-41.4	-45.0	12.7	8.01e-05	0	62	0	658505728	54	5452
2026-01-25 11:47:41.35	290.92	17.40	-41.4	-45.0	12.7	8.54e-05	0	62	0	660602880	54	5445
2026-01-25 11:47:42.36	291.14	17.36	-41.3	-45.0	12.7	9.07e-05	0	62	0	662700032	54	5421
2026-01-25 11:47:43.37	291.36	17.33	-41.2	-44.6	13.1	3.20e-05	0	62	0	664797184	54	5218
2026-01-25 11:47:44.38	291.58	17.29	-41.1	-44.4	13.3	2.74e-05	0	62	0	665845760	54	5087
2026-01-25 11:47:45.39	291.80	17.26	-41.1	-44.5	13.3	1.37e-05	0	62	0	667942912	54	5105
2026-01-25 11:47:46.40	292.02	17.22	-41.0	-44.3	13.4	5.30e-06	0	62	0	670040064	54	5006
2026-01-25 11:47:47.41	292.24	17.19	-40.9	-44.2	13.5	1.29e-05	0	62	0	672137216	53	5242
2026-01-25 11:47:48.42	292.46	17.15	-41.0	-44.3	13.4	1.29e-05	0	62	0	674234368	53	5283
2026-01-25 11:47:49.43	292.68	17.12	-40.9	-44.2	13.5	1.06e-05	0	62	0	675282944	53	5253
2026-01-25 11:47:50.44	292.90	17.08	-41.0	-44.3	13.4	1.44e-05	0	62	0	677380096	53	5315
2026-01-25 11:47:51.45	293.12	17.04	-41.0	-44.4	13.3	2.05e-05	0	62	0	679477248	53	5349
2026-01-25 11:47:52.46	293.33	17.01	-41.1	-44.5	13.2	1.90e-05	0	62	0	681574400	53	5404
2026-01-25 11:47:53.47	293.55	16.97	-41.1	-44.6	13.1	2.89e-05	0	62	0	683671552	53	5485
2026-01-25 11:47:54.48	293.77	16.93	-41.1	-44.6	13.0	2.97e-05	0	62	0	684720128	53	5506
2026-01-25 11:47:55.49	293.98	16.89	-41.1	-44.5	13.1	3.73e-05	0	62	0	686817280	53	5451
2026-01-25 11:47:56.50	294.20	16.85	-41.0	-44.3	13.3	1.75e-05	0	62	0	688914432	53	5332
2026-01-25 11:47:57.51	294.41	16.81	-41.0	-44.3	13.3	2.51e-05	0	62	0	691011584	53	5330
2026-01-25 11:47:58.51	294.62	16.78	-41.0	-44.3	13.4	1.83e-05	0	62	0	693108736	53	5298
2026-01-25 11:47:59.52	294.84	16.74	-40.9	-44.2	13.5	1.14e-05	0	62	0	694157312	53	5241
2026-01-25 11:48:00.53	295.05	16.70	-40.8	-44.1	13.6	5.30e-06	0	62	0	696254464	53	5170
2026-01-25 11:48:01.54	295.26	16.66	-40.7	-43.9	13.8	6.80e-06	0	62	0	698351616	53	5056
2026-01-25 11:48:02.55	295.47	16.62	-40.7	-43.8	13.9	1.50e-06	0	62	0	700448768	53	5018
2026-01-25 11:48:03.56	295.68	16.58	-40.7	-43.8	13.9	4.50e-06	0	62	0	702545920	53	4996
2026-01-25 11:48:04.57	295.89	16.54	-40.7	-43.8	13.8	1.50e-06	0	62	0	704643072	53	5009
2026-01-25 11:48:05.58	296.10	16.49	-40.7	-43.8	13.8	5.30e-06	0	62	0	705691648	53	5027
2026-01-25 11:48:06.59	296.31	16.45	-40.8	-44.0	13.7	9.10e-06	0	62	0	707788800	53	5104
2026-01-25 11:48:07.60	296.52	16.41	-40.9	-44.2	13.5	1.22e-05	0	62	0	709885952	53	5229
2026-01-25 11:48:08.61	296.73	16.37	-41.0	-44.4	13.2	1.37e-05	0	62	0	711983104	53	5374
2026-01-25 11:48:09.62	296.94	16.33	-41.1	-44.5	13.1	3.35e-05	0	62	0	714080256	53	5439
2026-01-25 11:48:10.63	297.15	16.28	-41.1	-44.5	13.1	2.67e-05	0	62	0	715128832	53	5462
2026-01-25 11:48:11.64	297.35	16.24	-41.2	-44.7	13.0	3.35e-05	0	62	0	717225984	53	5544
2026-01-25 11:48:12.65	297.56	16.20	-41.1	-44.5	13.1	2.67e-05	0	62	0	719323136	53	5444
2026-01-25 11:48:13.66	297.76	16.15	-41.1	-44.5	13.1	2.82e-05	0	62	0	721420288	53	5425
2026-01-25 11:48:14.67	297.97	16.11	-41.0	-44.4	13.3	3.28e-05	0	62	0	723517440	53	5353
2026-01-25 11:48:15.68	298.17	16.07	-41.0	-44.4	13.3	2.28e-05	0	62	0	724566016	53	5362
2026-01-25 11:48:16.69	298.38	16.02	-41.1	-44.5	13.1	1.98e-05	0	62	0	726663168	53	5418
2026-01-25 11:48:17.69	298.58	15.98	-41.1	-44.5	13.1	2.74e-05	0	62	0	728760320	53	5434
2026-01-25 11:48:18.70	298.78	15.93	-41.1	-44.5	13.1	3.35e-05	0	62	0	730857472	53	5426
2026-01-25 11:48:19.71	298.98	15.89	-41.1	-44.5	13.1	2.44e-05	0	62	0	732954624	53	5460
2026-01-25 11:48:20.72	299.18	15.84	-41.0	-44.4	13.2	2.44e-05	0	62	0	734003200	53	5399
2026-01-25 11:48:21.73	299.38	15.80	-41.0	-44.3	13.3	1.75e-05	0	62	0	736100352	53	5324
2026-01-25 11:48:22.74	299.58	15.75	-41.1	-44.5	13.1	1.67e-05	0	62	0	738197504	53	5407
2026-01-25 11:48:23.75	299.78	15.71	-41.1	-44.6	13.0	2.97e-05	0	62	0	740294656	53	5494
2026-01-25 11:48:24.76	299.98	15.66	-41.3	-44.9	12.7	3.35e-05	0	62	0	742391808	53	5670
2026-01-25 11:48:25.77	300.18	15.61	-41.4	-45.2	12.5	1.01e-04	0	62	0	743440384	53	5870
2026-01-25 11:48:26.78	300.38	15.57	-41.6	-45.5	12.1	2.11e-04	0	62	0	745537536	53	6073
2026-01-25 11:48:27.79	300.57	15.52	-41.7	-45.7	11.8	3.21e-04	0	62	0	747634688	53	6247
2026-01-25 11:48:28.80	300.77	15.47	-41.8	-46.0	11.5	6.31e-04	0	62	0	749731840	54	6117
2026-01-25 11:48:29.81	300.97	15.42	-41.9	-46.2	11.4	8.84e-04	0	62	0	751828992	54	6236
2026-01-25 11:48:30.82	301.16	15.38	-42.0	-46.3	11.2	1.28e-03	0	62	0	752877568	54	6337
2026-01-25 11:48:31.83	301.36	15.33	-42.0	-46.4	11.2	1.48e-03	0	62	0	754974720	54	6351
2026-01-25 11:48:32.84	301.55	15.28	-42.0	-46.4	11.1	1.56e-03	0	62	0	757071872	54	6413
2026-01-25 11:48:33.84	301.74	15.23	-42.0	-46.4	11.1	1.67e-03	0	62	0	759169024	54	6417
2026-01-25 11:48:34.85	301.93	15.18	-42.0	-46.5	11.0	1.71e-03	0	62	0	761266176	54	6440
2026-01-25 11:48:35.86	302.13	15.14	-42.1	-46.5	11.0	1.99e-03	0	62	0	762314752	54	6485
2026-01-25 11:48:36.87	302.32	15.09	-42.0	-46.5	11.0	1.90e-03	0	61	0	764411904	54	6478
2026-01-25 11:48:37.88	302.51	15.04	-42.0	-46.5	11.0	2.00e-03	0	62	0	766509056	54	6435
2026-01-25 11:48:38.89	302.70	14.99	-42.0	-46.4	11.1	1.53e-03	0	62	0	768606208	54	6368
2026-01-25 11:48:39.90	302.89	14.94	-41.9	-46.2	11.3	1.24e-03	0	62	0	770703360	54	6233
2026-01-25 11:48:40.91	303.08	14.89	-41.9	-46.1	11.4	9.22e-04	0	62	0	772800512	54	6171
2026-01-25 11:48:41.92	303.27	14.84	-41.9	-46.1	11.4	1.00e-03	0	62	0	773849088	54	6185
2026-01-25 11:48:42.93	303.45	14.79	-41.9	-46.1	11.4	9.86e-04	0	62	0	775946240	54	6182
2026-01-25 11:48:43.94	303.64	14.74	-41.8	-46.0	11.5	8.24e-04	0	62	0	778043392	54	6114
2026-01-25 11:48:44.95	303.83	14.69	-41.9	-46.1	11.4	8.89e-04	0	62	0	780140544	54	6196
2026-01-25 11:48:45.96	304.01	14.64	-41.9	-46.3	11.2	1.18e-03	0	62	0	782237696	54	6304
2026-01-25 11:48:46.98	304.20	14.59	-42.0	-46.4	11.1	1.50e-03	0	62	0	783286272	54	6401
2026-01-25 11:48:47.99	304.38	14.54	-42.0	-46.5	10.9	1.99e-03	0	62	0	785383424	54	6494
2026-01-25 11:48:48.99	304.57	14.49	-42.1	-46.6	10.9	2.11e-03	0	62	0	787480576	54	6559
2026-01-25 11:48:50.00	304.75	14.44	-42.1	-46.8	10.7	2.67e-03	0	62	0	789577728	54	6655
2026-01-25 11:48:51.01	304.93	14.38	-42.1	-46.8	10.7	2.94e-03	0	62	0	791674880	54	6665
2026-01-25 11:48:52.02	305.12	14.33	-42.2	-46.9	10.6	3.30e-03	0	62	0	792723456	54	6730
2026-01-25 11:48:53.03	305.30	14.28	-42.2	-47.0	10.4	3.50e-03	0	62	0	794820608	55	6424
2026-01-25 11:48:54.04	305.48	14.23	-42.2	-47.0	10.4	4.28e-03	0	62	0	796917760	55	6478
2026-01-25 11:48:55.05	305.66	14.18	-42.3	-47.1	10.4	4.86e-03	0	62	0	799014912	55	6535
2026-01-25 11:48:56.06	305.84	14.13	-42.3	-47.1	10.3	4.86e-03	0	62	0	801112064	55	6547
2026-01-25 11:48:57.07	306.02	14.07	-42.3	-47.1	10.3	5.09e-03	0	62	0	802160640	55	6555
2026-01-25 11:48:58.08	306.20	14.02	-42.2	-46.9	10.6	4.09e-03	0	62	0	804257792	55	6402
2026-01-25 11:48:59.09	306.37	13.97	-42.1	-46.8	10.6	3.14e-03	0	62	0	806354944	55	6311
2026-01-25 11:49:00.10	306.55	13.92	-42.1	-46.7	10.7	2.94e-03	0	62	0	808452096	55	6257
2026-01-25 11:49:01.11	306.73	13.86	-42.1	-46.8	10.7	2.70e-03	0	62	0	810549248	55	6279
2026-01-25 11:49:02.12	306.90	13.81	-42.1	-46.7	10.8	2.87e-03	0	62	0	811597824	55	6242
2026-01-25 11:49:03.13	307.08	13.76	-42.0	-46.5	10.9	2.29e-03	0	62	0	813694976	55	6122
2026-01-25 11:49:04.14	307.25	13.70	-42.1	-46.6	10.9	2.30e-03	0	62	0	815792128	55	6181
2026-01-25 11:49:05.15	307.43	13.65	-42.1	-46.6	10.8	2.60e-03	0	62	0	817889280	55	6202
2026-01-25 11:49:06.16	307.60	13.60	-42.0	-46.6	10.9	2.36e-03	0	62	0	819986432	55	6135
2026-01-25 11:49:07.17	307.78	13.54	-42.0	-46.5	11.0	1.90e-03	0	62	0	821035008	55	6070
2026-01-25 11:49:08.18	307.95	13.49	-41.9	-46.2	11.3	1.39e-03	0	62	0	823132160	55	5901
2026-01-25 11:49:09.19	308.12	13.44	-41.8	-46.1	11.4	1.17e-03	0	62	0	825229312	55	5828
2026-01-25 11:49:10.20	308.29	13.38	-41.8	-46.1	11.4	9.87e-04	0	62	0	827326464	55	5816
2026-01-25 11:49:11.21	308.46	13.33	-41.8	-46.1	11.4	1.10e-03	0	62	0	829423616	55	5831
2026-01-25 11:49:12.22	308.63	13.27	-41.8	-46.0	11.5	9.00e-04	0	62	0	830472192	55	5773
2026-01-25 11:49:13.23	308.80	13.22	-41.7	-45.7	11.8	7.79e-04	0	62	0	832569344	55	5568
2026-01-25 11:49:14.24	308.97	13.17	-41.7	-45.8	11.7	5.26e-04	0	61	0	834666496	55	5600
2026-01-25 11:49:15.24	309.14	13.11	-41.6	-45.7	11.6	3.01e-03	0	62	0	836763648	55	5585
2026-01-25 11:49:16.25	309.30	13.06	-41.6	-45.7	11.7	4.49e-03	0	62	0	838860800	55	5565
2026-01-25 11:49:17.26	309.47	13.00	-41.6	-45.9	11.5	6.28e-03	0	62	0	840957952	55	5664
2026-01-25 11:49:18.27	309.64	12.95	-41.7	-45.9	11.5	6.90e-03	0	62	0	842006528	55	5673
2026-01-25 11:49:19.28	309.80	12.89	-41.7	-46.0	11.3	8.04e-03	0	62	0	844103680	55	5776
2026-01-25 11:49:20.29	309.97	12.84	-41.8	-46.2	11.2	8.92e-03	0	62	0	846200832	55	5877
2026-01-25 11:49:21.30	310.13	12.78	-41.8	-46.3	11.1	8.67e-03	0	62	0	848297984	55	5925
2026-01-25 11:49:22.31	310.30	12.73	-41.9	-46.5	10.8	8.90e-03	0	62	0	850395136	55	6120
2026-01-25 11:49:23.32	310.46	12.67	-42.0	-46.7	10.6	9.10e-03	0	62	0	851443712	55	6246
2026-01-25 11:49:24.33	310.62	12.62	-42.1	-46.9	10.5	9.79e-03	0	62	0	853540864	55	6363
2026-01-25 11:49:25.34	310.78	12.56	-42.1	-46.9	10.4	1.02e-02	0	62	0	855638016	55	6381
2026-01-25 11:49:26.35	310.95	12.51	-42.1	-46.8	10.5	1.03e-02	0	62	0	857735168	55	6335
2026-01-25 11:49:27.36	311.11	12.45	-42.1	-46.8	10.6	3.23e-03	0	62	0	859832320	55	6278
2026-01-25 11:49:28.37	311.27	12.40	-42.0	-46.7	10.7	3.35e-03	0	62	0	860880896	55	6219
2026-01-25 11:49:29.38	311.43	12.34	-41.9	-46.5	10.9	2.60e-03	0	62	0	862978048	55	6069
2026-01-25 11:49:30.39	311.59	12.29	-41.9	-46.3	11.1	1.81e-03	0	62	0	865075200	55	5968
2026-01-25 11:49:31.40	311.74	12.23	-41.9	-46.3	11.1	1.65e-03	0	62	0	867172352	55	5972
2026-01-25 11:49:32.40	311.90	12.17	-41.7	-45.9	11.5	1.49e-03	0	62	0	869269504	55	5697
2026-01-25 11:49:33.41	312.06	12.12	-41.5	-45.5	11.9	4.13e-04	0	62	0	870318080	55	5429
2026-01-25 11:49:34.42	312.22	12.06	-41.5	-45.4	12.0	3.69e-04	0	62	0	872415232	55	5380
2026-01-25 11:49:35.43	312.37	12.01	-41.5	-45.4	12.1	2.82e-04	0	62	0	874512384	54	5660
2026-01-25 11:49:36.44	312.53	11.95	-41.5	-45.5	11.9	3.44e-04	0	62	0	876609536	54	5785
2026-01-25 11:49:37.45	312.68	11.89	-41.6	-45.6	11.8	4.68e-04	0	62	0	878706688	54	5848
2026-01-25 11:49:38.46	312.84	11.84	-41.5	-45.6	11.8	4.97e-04	0	62	0	879755264	54	5809
2026-01-25 11:49:39.47	312.99	11.78	-41.6	-45.7	11.8	4.57e-04	0	62	0	881852416	54	5862
2026-01-25 11:49:40.48	313.14	11.73	-41.6	-45.7	11.7	5.42e-04	0	62	0	883949568	54	5901
2026-01-25 11:49:41.49	313.30	11.67	-41.6	-45.7	11.7	6.27e-04	0	62	0	886046720	54	5913
2026-01-25 11:49:42.50	313.45	11.61	-41.6	-45.6	11.7	6.42e-04	0	62	0	888143872	54	5849
2026-01-25 11:49:43.51	313.60	11.56	-41.5	-45.5	11.9	4.42e-04	0	62	0	889192448	54	5782
2026-01-25 11:49:44.52	313.75	11.50	-41.5	-45.6	11.8	4.90e-04	0	62	0	891289600	54	5828
2026-01-25 11:49:45.53	313.90	11.44	-41.6	-45.7	11.7	5.02e-04	0	62	0	893386752	54	5866
2026-01-25 11:49:46.54	314.05	11.39	-41.6	-45.7	11.7	5.20e-04	0	62	0	895483904	54	5874
2026-01-25 11:49:47.55	314.20	11.33	-41.6	-45.8	11.6	6.77e-04	0	62	0	897581056	54	5941
2026-01-25 11:49:48.56	314.35	11.27	-41.7	-45.9	11.4	7.43e-04	0	62	0	898629632	54	6044
2026-01-25 11:49:49.57	314.50	11.22	-41.7	-45.9	11.4	9.59e-04	0	62	0	900726784	54	6053
2026-01-25 11:49:50.58	314.65	11.16	-41.7	-45.9	11.5	8.30e-04	0	62	0	902823936	54	6007
2026-01-25 11:49:51.59	314.80	11.10	-41.6	-45.8	11.5	8.43e-04	0	62	0	904921088	54	5970
2026-01-25 11:49:52.60	314.94	11.05	-41.6	-45.8	11.6	6.87e-04	0	62	0	907018240	54	5944
2026-01-25 11:49:53.61	315.09	10.99	-41.6	-45.8	11.5	7.72e-04	0	61	0	909115392	54	5989
2026-01-25 11:49:54.62	315.23	10.93	-41.6	-45.8	11.6	8.44e-04	0	62	0	910163968	54	5955
2026-01-25 11:49:55.63	315.38	10.88	-41.5	-45.6	11.8	6.27e-04	0	62	0	912261120	54	5840
2026-01-25 11:49:56.64	315.52	10.82	-41.5	-45.6	11.7	6.00e-04	0	62	0	914358272	54	5855
2026-01-25 11:49:57.65	315.67	10.76	-41.5	-45.6	11.8	5.28e-04	0	62	0	916455424	54	5792
2026-01-25 11:49:58.65	315.81	10.71	-41.5	-45.7	11.6	5.05e-04	0	62	0	918552576	54	5868
2026-01-25 11:49:59.66	315.95	10.65	-41.6	-45.8	11.5	8.03e-04	0	62	0	919601152	54	5968
2026-01-25 11:50:00.67	316.09	10.59	-41.6	-45.9	11.4	8.70e-04	0	62	0	921698304	54	6001
2026-01-25 11:50:01.68	316.24	10.54	-41.7	-46.1	11.2	1.11e-03	0	62	0	923795456	54	6163
2026-01-25 11:50:02.69	316.38	10.48	-41.7	-46.2	11.1	1.56e-03	0	62	0	925892608	54	6210
2026-01-25 11:50:03.70	316.52	10.42	-41.7	-46.1	11.1	1.35e-03	0	62	0	927989760	54	6200
2026-01-25 11:50:04.71	316.66	10.36	-41.8	-46.2	11.1	1.73e-03	0	62	0	929038336	54	6224
2026-01-25 11:50:05.72	316.80	10.31	-41.7	-46.1	11.2	1.41e-03	0	62	0	931135488	54	6148
2026-01-25 11:50:06.73	316.94	10.25	-41.6	-45.9	11.4	1.20e-03	0	62	0	933232640	54	6035
2026-01-25 11:50:07.74	317.08	10.19	-41.6	-45.8	11.5	9.58e-04	0	62	0	935329792	54	5969
2026-01-25 11:50:08.75	317.21	10.14	-41.5	-45.6	11.7	6.77e-04	0	62	0	937426944	54	5845
2026-01-25 11:50:09.76	317.35	10.08	-41.6	-45.7	11.6	6.83e-04	0	62	0	938475520	54	5890
2026-01-25 11:50:10.77	317.49	10.02	-41.6	-45.8	11.5	8.79e-04	0	62	0	940572672	54	5967
2026-01-25 11:50:11.78	317.63	9.97	-41.6	-45.8	11.5	9.02e-04	0	62	0	942669824	54	5974
2026-01-25 11:50:12.79	317.76	9.91	-41.7	-46.0	11.2	1.06e-03	0	62	0	944766976	54	6106
2026-01-25 11:50:13.80	317.90	9.85	-41.7	-46.2	11.0	1.65e-03	0	62	0	946864128	54	6228
2026-01-25 11:50:14.81	318.03	9.79	-41.8	-46.3	10.9	1.95e-03	0	62	0	947912704	54	6313
2026-01-25 11:50:15.81	318.17	9.74	-41.8	-46.4	10.8	2.45e-03	0	62	0	950009856	54	6370
2026-01-25 11:50:16.83	318.30	9.68	-41.8	-46.4	10.9	2.39e-03	0	62	0	952107008	54	6351
2026-01-25 11:50:17.84	318.43	9.62	-41.8	-46.4	10.8	2.60e-03	0	62	0	954204160	54	6374
2026-01-25 11:50:18.85	318.57	9.56	-41.8	-46.4	10.8	2.78e-03	0	62	0	956301312	54	6398
2026-01-25 11:50:19.86	318.70	9.51	-41.8	-46.3	10.8	2.47e-03	0	62	0	957349888	54	6343
2026-01-25 11:50:20.87	318.83	9.45	-41.7	-46.2	11.0	1.91e-03	0	62	0	959447040	54	6212
2026-01-25 11:50:21.88	318.96	9.39	-41.6	-45.9	11.2	1.64e-03	0	62	0	961544192	54	6054
2026-01-25 11:50:22.89	319.09	9.34	-41.6	-45.8	11.4	1.11e-03	0	62	0	963641344	54	5966
2026-01-25 11:50:23.90	319.22	9.28	-41.5	-45.8	11.4	1.08e-03	0	62	0	965738496	54	5957
2026-01-25 11:50:24.91	319.35	9.22	-41.5	-45.7	11.5	9.81e-04	0	62	0	966787072	54	5873
2026-01-25 11:50:25.92	319.48	9.17	-41.6	-45.9	11.3	1.15e-03	0	62	0	968884224	54	6028
2026-01-25 11:50:26.93	319.61	9.11	-41.6	-46.0	11.2	1.40e-03	0	62	0	970981376	54	6090
2026-01-25 11:50:27.94	319.74	9.05	-41.6	-46.1	11.1	1.53e-03	0	62	0	973078528	54	6157
2026-01-25 11:50:28.95	319.87	8.99	-41.7	-46.3	10.9	1.97e-03	0	62	0	975175680	54	6276
2026-01-25 11:50:29.96	320.00	8.94	-41.8	-46.4	10.7	2.62e-03	0	62	0	977272832	54	6382
2026-01-25 11:50:30.97	320.12	8.88	-41.8	-46.5	10.6	3.09e-03	0	62	0	978321408	54	6454
2026-01-25 11:50:31.98	320.25	8.82	-41.8	-46.5	10.6	3.36e-03	0	62	0	980418560	54	6457
2026-01-25 11:50:32.99	320.38	8.77	-41.8	-46.5	10.6	3.72e-03	0	62	0	982515712	54	6467
2026-01-25 11:50:34.00	320.50	8.71	-41.8	-46.5	10.6	3.38e-03	0	62	0	984612864	54	6481
2026-01-25 11:50:35.01	320.63	8.65	-41.8	-46.5	10.6	3.48e-03	0	62	0	986710016	54	6451
2026-01-25 11:50:36.02	320.75	8.59	-41.8	-46.5	10.5	3.67e-03	0	62	0	987758592	54	6461
2026-01-25 11:50:37.03	320.88	8.54	-41.8	-46.5	10.6	3.44e-03	0	62	0	989855744	54	6421
2026-01-25 11:50:38.04	321.00	8.48	-41.8	-46.6	10.5	3.54e-03	0	62	0	991952896	54	6534
2026-01-25 11:50:39.04	321.12	8.42	-41.9	-46.7	10.4	4.20e-03	0	62	0	994050048	54	6588
2026-01-25 11:50:40.05	321.25	8.37	-41.8	-46.6	10.4	4.32e-03	0	62	0	996147200	54	6546
2026-01-25 11:50:41.06	321.37	8.31	-41.9	-46.8	10.3	4.70e-03	0	62	0	997195776	54	6664
2026-01-25 11:50:42.07	321.49	8.25	-41.9	-46.9	10.1	6.40e-03	0	62	0	999292928	54	6761
2026-01-25 11:50:43.08	321.61	8.20	-42.0	-46.9	10.1	6.95e-03	0	62	0	1001390080	54	6790
2026-01-25 11:50:44.09	321.73	8.14	-42.0	-47.1	9.9	7.91e-03	0	62	0	1003487232	54	6957
2026-01-25 11:50:45.10	321.85	8.08	-42.0	-47.1	9.9	8.84e-03	0	62	0	1005584384	54	6928
2026-01-25 11:50:46.11	321.97	8.03	-42.1	-47.3	9.8	9.70e-03	0	62	0	1006632960	54	7052
2026-01-25 11:50:47.12	322.09	7.97	-44.3	-58.3	3.8	7.45e-01	0	62	104	1007681536	59	18944
2026-01-25 11:50:48.13	322.21	7.91	-44.6	-59.0	3.8	1.49e+00	0	62	104	1007681536	59	20359
2026-01-25 11:50:49.14	322.33	7.86	-44.7	-59.4	3.8	1.49e+00	0	62	104	1007681536	60	20074
2026-01-25 11:50:50.15	322.45	7.80	-44.8	-59.5	3.8	1.49e+00	0	62	104	1007681536	60	20403
2026-01-25 11:50:51.16	322.57	7.74	-45.0	-59.7	3.8	1.49e+00	0	62	104	1007681536	60	20846
2026-01-25 11:50:52.17	322.68	7.69	-45.1	-59.7	3.8	1.49e+00	0	62	104	1007681536	60	20947
2026-01-25 11:50:53.18	322.80	7.63	-45.2	-59.8	3.8	1.49e+00	0	62	104	1007681536	60	21189
2026-01-25 11:50:54.19	322.92	7.57	-45.2	-59.8	3.8	1.49e+00	0	62	104	1007681536	60	21182
2026-01-25 11:50:55.20	323.03	7.52	-44.9	-59.8	3.8	1.49e+00	0	62	104	1007681536	61	19892
2026-01-25 11:50:56.21	323.15	7.46	-45.1	-59.8	3.8	1.49e+00	0	62	104	1007681536	61	19850
2026-01-25 11:50:57.22	323.27	7.40	-45.1	-59.7	3.8	1.49e+00	0	62	104	1007681536	61	19797
2026-01-25 11:50:58.23	323.38	7.35	-45.1	-59.7	3.8	1.49e+00	0	62	104	1007681536	61	19813
2026-01-25 11:50:59.25	323.50	7.29	-45.1	-59.7	3.8	1.49e+00	0	62	104	1007681536	61	19751
2026-01-25 11:51:00.26	323.61	7.23	-45.1	-59.7	3.8	1.49e+00	0	62	104	1007681536	61	19764
2026-01-25 11:51:01.27	323.72	7.18	-45.1	-59.7	3.8	1.49e+00	0	62	104	1007681536	61	19735
2026-01-25 11:51:02.27	323.84	7.12	-45.0	-59.6	3.8	1.49e+00	0	62	104	1007681536	61	19542
2026-01-25 11:51:03.29	323.95	7.06	-45.0	-59.6	3.8	1.49e+00	0	62	104	1007681536	61	19543
2026-01-25 11:51:04.30	324.06	7.01	-45.0	-59.6	3.8	1.49e+00	0	62	104	1007681536	61	19612
2026-01-25 11:51:05.31	324.17	6.95	-45.0	-59.6	3.8	1.49e+00	0	62	104	1007681536	61	19602
2026-01-25 11:51:06.32	324.29	6.89	-45.0	-59.6	3.8	1.49e+00	0	62	104	1007681536	61	19611
2026-01-25 11:51:07.33	324.40	6.84	-45.0	-59.6	3.8	1.49e+00	0	62	104	1007681536	61	19563
2026-01-25 11:51:08.34	324.51	6.78	-44.8	-59.6	3.8	1.49e+00	0	62	104	1007681536	61	19524
2026-01-25 11:51:09.35	324.62	6.73	-45.0	-59.7	3.8	1.49e+00	0	62	104	1007681536	60	20807
2026-01-25 11:51:10.36	324.73	6.67	-45.0	-59.7	3.8	1.49e+00	0	62	104	1007681536	60	20811
2026-01-25 11:51:11.37	324.84	6.61	-45.0	-59.6	3.8	1.49e+00	0	62	104	1007681536	60	20730
2026-01-25 11:51:12.38	324.95	6.56	-45.0	-59.7	3.8	1.49e+00	0	62	104	1007681536	60	20780
2026-01-25 11:51:13.39	325.05	6.50	-45.0	-59.6	3.8	1.49e+00	0	62	104	1007681536	60	20642
2026-01-25 11:51:14.40	325.16	6.45	-45.0	-59.6	3.8	1.49e+00	0	62	104	1007681536	60	20664
2026-01-25 11:51:15.41	325.27	6.39	-45.0	-59.6	3.8	1.49e+00	0	62	104	1007681536	60	20690
2026-01-25 11:51:16.42	325.38	6.33	-45.0	-59.6	3.8	1.49e+00	0	62	104	1007681536	60	20731
2026-01-25 11:51:17.43	325.48	6.28	-45.0	-59.6	3.8	1.49e+00	0	62	104	1007681536	60	20717
2026-01-25 11:51:18.44	325.59	6.22	-45.0	-59.6	3.8	1.49e+00	0	62	104	1007681536	60	20698
2026-01-25 11:51:19.45	325.70	6.17	-45.0	-59.6	3.8	1.49e+00	0	62	104	1007681536	60	20700
2026-01-25 11:51:20.46	325.80	6.11	-45.0	-59.6	3.8	1.49e+00	0	62	104	1007681536	60	20719
2026-01-25 11:51:21.48	325.91	6.06	-45.0	-59.6	3.8	1.49e+00	0	62	104	1007681536	60	20586
2026-01-25 11:51:22.49	326.02	6.00	-45.0	-59.6	3.8	1.49e+00	0	62	104	1007681536	60	20713
2026-01-25 11:51:23.50	326.12	5.94	-45.0	-59.6	3.8	1.49e+00	0	62	104	1007681536	60	20755
2026-01-25 11:51:24.51	326.22	5.89	-45.0	-59.6	3.8	1.49e+00	0	62	104	1007681536	60	20689
2026-01-25 11:51:25.52	326.33	5.83	-45.0	-59.6	3.8	1.49e+00	0	62	104	1007681536	60	20680
2026-01-25 11:51:26.53	326.43	5.78	-45.0	-59.6	3.8	1.49e+00	0	62	104	1007681536	60	20734
2026-01-25 11:51:27.54	326.54	5.72	-45.0	-59.6	3.8	1.49e+00	0	62	104	1007681536	60	20694
2026-01-25 11:51:28.55	326.64	5.67	-45.0	-59.6	3.8	1.49e+00	0	62	104	1007681536	60	20671
2026-01-25 11:51:29.56	326.74	5.61	-45.0	-59.7	3.8	1.49e+00	0	62	104	1007681536	60	20783
2026-01-25 11:51:30.57	326.84	5.56	-45.0	-59.6	3.8	1.49e+00	0	62	104	1007681536	60	20626
2026-01-25 11:51:31.58	326.94	5.50	-45.0	-59.6	3.8	1.49e+00	0	62	104	1007681536	60	20650
2026-01-25 11:51:32.59	327.05	5.45	-45.0	-59.6	3.8	1.49e+00	0	62	104	1007681536	60	20616
2026-01-25 11:51:33.60	327.15	5.39	-45.0	-59.6	3.8	1.49e+00	0	62	104	1007681536	60	20693
2026-01-25 11:51:34.62	327.25	5.34	-45.0	-59.6	3.8	1.49e+00	0	62	104	1007681536	60	20658
2026-01-25 11:51:35.63	327.35	5.28	-45.0	-59.6	3.8	1.49e+00	0	62	104	1007681536	60	20648
2026-01-25 11:51:36.64	327.45	5.23	-45.0	-59.6	3.8	1.49e+00	0	62	104	1007681536	60	20704
2026-01-25 11:51:37.65	327.55	5.17	-45.0	-59.6	3.8	1.49e+00	0	62	104	1007681536	60	20664
2026-01-25 11:51:38.66	327.65	5.12	-45.0	-59.6	3.8	1.49e+00	0	62	104	1007681536	60	20660
2026-01-25 11:51:39.67	327.75	5.06	-45.0	-59.6	3.8	1.49e+00	0	62	104	1007681536	60	20612
2026-01-25 11:51:40.68	327.85	5.01	-45.0	-59.6	3.8	1.49e+00	0	62	104	1007681536	60	20581
2026-01-25 11:51:41.69	327.94	4.95	-45.0	-59.6	3.8	1.49e+00	0	62	104	1007681536	60	20658
2026-01-25 11:51:42.70	328.04	4.90	-45.0	-59.6	3.8	1.49e+00	0	62	104	1007681536	60	20611
2026-01-25 11:51:43.71	328.14	4.84	-45.0	-59.6	3.8	1.49e+00	0	62	104	1007681536	60	20651
2026-01-25 11:51:44.72	328.24	4.79	-45.0	-59.6	3.8	1.49e+00	0	62	104	1007681536	60	20641
2026-01-25 11:51:45.73	328.33	4.73	-45.0	-59.6	3.8	1.49e+00	0	62	104	1007681536	60	20625
2026-01-25 11:51:46.74	328.43	4.68	-45.0	-59.6	3.8	1.49e+00	0	62	104	1007681536	60	20672
2026-01-25 11:51:47.75	328.52	4.62	-45.0	-59.6	3.8	1.49e+00	0	62	104	1007681536	60	20639
2026-01-25 11:51:48.76	328.62	4.57	-45.0	-59.6	3.8	1.49e+00	0	62	104	1007681536	60	20641
2026-01-25 11:51:49.77	328.72	4.51	-45.0	-59.6	3.8	1.49e+00	0	62	104	1007681536	60	20689
2026-01-25 11:51:50.78	328.81	4.46	-45.0	-59.6	3.8	1.49e+00	0	62	104	1007681536	60	20629
2026-01-25 11:51:51.79	328.91	4.41	-45.0	-59.6	3.8	1.49e+00	0	62	104	1007681536	60	20686
2026-01-25 11:51:52.80	329.00	4.35	-45.0	-59.6	3.8	1.49e+00	0	62	104	1007681536	60	20661
2026-01-25 11:51:53.82	329.10	4.30	-44.8	-59.6	3.8	1.49e+00	0	62	104	1007681536	60	20590
2026-01-25 11:51:54.83	329.19	4.24	-45.0	-59.6	3.8	1.49e+00	0	62	104	1007681536	60	20616
2026-01-25 11:51:55.84	329.28	4.19	-45.0	-59.6	3.8	1.49e+00	0	62	104	1007681536	60	20656
2026-01-25 11:51:56.85	329.38	4.13	-44.9	-59.6	3.8	1.49e+00	0	62	104	1007681536	60	20627
