passes_logs/2026/01/25/R2.0S_Moscow/R2.0S_Moscow__20260125_004431_FENGYUN_3D_rec.log

#Pass ID: 20260125_004431_FENGYUN 3D
#Satellite: FENGYUN 3D
#Configuration: FENGYUN 3D
#almurnet v.1.7.20251203
#Start time: 2026-01-25 00:48:59

#Version: 2.2.20231116
#Station: R2.0S_Moscow
#Location: 37.707566 lon 55.798166 lat
#TLE: 1 43010U 17072A   26024.51794477  .00000040  00000+0  40682-4 0  9990
#TLE: 2 43010  98.9961 356.4820 0002494  91.2631 268.8830 14.19699550424601

#Time	Az	El	Level	Level2	SNR	BER	BlckErr	Temp	State	Recorded	gain1	gain2
2026-01-25 00:48:59.88	49.30	23.74	-46.1	-64.5	3.8	7.44e-01	0	61	0	0	63	30702
2026-01-25 00:49:00.90	49.50	23.85	-45.6	-57.3	3.8	8.44e-01	0	61	104	0	63	13364
2026-01-25 00:49:01.91	49.71	23.96	-45.6	-57.3	3.8	8.46e-01	0	61	104	0	63	13385
2026-01-25 00:49:02.92	49.91	24.07	-45.9	-57.6	3.8	8.47e-01	0	61	104	0	63	13818
2026-01-25 00:49:03.93	50.12	24.17	-45.7	-57.5	3.8	8.46e-01	0	61	104	0	63	13611
2026-01-25 00:49:04.94	50.33	24.28	-45.7	-57.4	3.8	8.46e-01	0	62	104	0	63	13556
2026-01-25 00:49:05.95	50.54	24.39	-45.7	-57.5	3.8	8.46e-01	0	61	104	0	63	13620
2026-01-25 00:49:06.96	50.75	24.50	-45.4	-57.2	3.8	8.45e-01	0	61	104	0	62	14027
2026-01-25 00:49:07.97	50.96	24.61	-45.3	-57.1	3.8	8.45e-01	0	61	104	0	62	13728
2026-01-25 00:49:08.98	51.18	24.71	-45.1	-56.8	3.8	8.45e-01	0	62	104	0	62	13383
2026-01-25 00:49:10.00	51.40	24.82	-45.1	-56.9	3.8	8.46e-01	0	62	104	0	62	13448
2026-01-25 00:49:11.01	51.62	24.93	-45.1	-56.9	3.8	8.46e-01	0	62	104	0	62	13427
2026-01-25 00:49:12.02	51.83	25.04	-45.1	-56.8	3.8	8.45e-01	0	62	104	0	62	13395
2026-01-25 00:49:13.03	52.06	25.15	-45.1	-56.8	3.8	8.45e-01	0	62	104	0	62	13270
2026-01-25 00:49:14.04	52.28	25.25	-45.1	-56.5	3.8	8.46e-01	0	62	104	0	62	12918
2026-01-25 00:49:15.05	52.50	25.36	-45.0	-56.4	3.8	8.46e-01	0	62	104	0	62	12674
2026-01-25 00:49:16.06	52.73	25.47	-45.0	-56.1	3.8	8.46e-01	0	61	104	0	62	12331
2026-01-25 00:49:17.07	52.95	25.58	-45.0	-56.0	3.8	8.46e-01	0	62	104	0	62	12170
2026-01-25 00:49:18.08	53.18	25.69	-45.0	-56.0	3.8	8.45e-01	0	61	104	0	62	12115
2026-01-25 00:49:19.09	53.41	25.79	-45.0	-56.0	3.8	8.44e-01	0	61	104	0	62	12100
2026-01-25 00:49:20.10	53.64	25.90	-45.0	-56.1	3.8	8.46e-01	0	61	104	0	62	12300
2026-01-25 00:49:21.11	53.87	26.01	-45.0	-56.3	3.8	8.46e-01	0	62	104	0	62	12539
2026-01-25 00:49:22.12	54.11	26.12	-45.0	-56.4	3.8	8.47e-01	0	62	104	0	62	12745
2026-01-25 00:49:23.13	54.34	26.23	-45.0	-56.5	3.8	8.46e-01	0	62	104	0	62	12953
2026-01-25 00:49:24.14	54.58	26.33	-45.0	-56.4	3.8	8.47e-01	0	61	104	0	62	12711
2026-01-25 00:49:25.15	54.82	26.44	-44.9	-56.0	3.8	8.45e-01	0	62	104	0	61	12837
2026-01-25 00:49:26.16	55.06	26.55	-44.9	-55.4	3.8	8.45e-01	0	61	104	0	61	11968
2026-01-25 00:49:27.17	55.30	26.66	-44.9	-55.2	3.8	8.45e-01	0	62	104	0	61	11801
2026-01-25 00:49:28.18	55.55	26.76	-44.9	-55.4	3.8	8.45e-01	0	62	104	0	61	12085
2026-01-25 00:49:29.19	55.79	26.87	-44.9	-55.9	3.8	8.46e-01	0	62	104	0	61	12739
2026-01-25 00:49:30.20	56.04	26.98	-44.9	-55.8	3.8	8.46e-01	0	62	104	0	61	12658
2026-01-25 00:49:31.21	56.29	27.08	-44.8	-54.8	3.8	8.46e-01	0	62	104	0	61	11196
2026-01-25 00:49:32.22	56.54	27.19	-44.6	-53.3	4.2	8.42e-01	0	62	0	0	61	9469
2026-01-25 00:49:33.23	56.79	27.30	-44.4	-52.4	4.5	8.26e-01	0	62	0	0	60	9006
2026-01-25 00:49:34.24	57.04	27.40	-44.4	-52.2	4.6	8.15e-01	0	62	0	0	60	8798
2026-01-25 00:49:35.26	57.30	27.51	-44.5	-52.8	4.3	8.28e-01	0	62	0	0	60	9462
2026-01-25 00:49:36.27	57.56	27.62	-44.6	-53.6	4.1	8.37e-01	0	62	0	0	60	10337
2026-01-25 00:49:37.27	57.82	27.72	-44.7	-54.2	3.9	8.44e-01	0	62	104	0	60	11085
2026-01-25 00:49:38.29	58.08	27.83	-44.7	-54.5	3.8	8.45e-01	0	62	104	0	60	11536
2026-01-25 00:49:39.30	58.34	27.93	-44.7	-54.4	3.8	8.44e-01	0	62	104	0	60	11357
2026-01-25 00:49:40.31	58.60	28.04	-44.7	-54.4	3.8	8.42e-01	0	62	104	0	60	11403
2026-01-25 00:49:41.32	58.87	28.15	-44.8	-54.7	3.8	8.44e-01	0	62	104	0	60	11751
2026-01-25 00:49:42.33	59.14	28.25	-44.6	-53.8	3.9	8.44e-01	0	62	104	0	60	10576
2026-01-25 00:49:43.34	59.41	28.35	-43.9	-49.8	5.8	6.79e-01	0	62	0	0	59	7121
2026-01-25 00:49:44.35	59.68	28.46	-42.5	-46.4	8.9	7.55e-02	0	62	0	5242880	57	5376
2026-01-25 00:49:45.36	59.95	28.56	-41.2	-44.1	11.2	5.76e-03	0	62	0	11534336	54	4905
2026-01-25 00:49:46.37	60.22	28.67	-40.6	-43.2	12.1	5.27e-04	0	62	0	16777216	53	4697
2026-01-25 00:49:47.38	60.50	28.77	-41.0	-43.9	11.4	6.32e-04	0	62	0	22020096	53	5043
2026-01-25 00:49:48.39	60.78	28.87	-42.6	-46.9	8.3	2.28e-02	0	62	0	28311552	55	6399
2026-01-25 00:49:49.40	61.06	28.98	-44.4	-51.7	4.7	6.43e-01	0	62	0	31457280	59	8857
2026-01-25 00:49:50.41	61.34	29.08	-42.4	-46.1	9.2	1.11e-01	0	62	0	35651584	56	5498
2026-01-25 00:49:51.42	61.62	29.18	-39.0	-41.0	14.4	9.15e-05	0	62	0	40894464	50	4316
2026-01-25 00:49:52.43	61.91	29.28	-36.6	-38.1	17.1	0.00e+00	0	62	0	46137344	45	4124
2026-01-25 00:49:53.44	62.19	29.38	-35.3	-36.7	18.2	0.00e+00	0	62	0	52428800	42	4153
2026-01-25 00:49:54.45	62.48	29.48	-35.3	-36.7	18.3	0.00e+00	0	62	0	57671680	42	4159
2026-01-25 00:49:55.46	62.77	29.58	-36.1	-37.6	17.4	0.00e+00	0	62	0	63963136	42	4650
2026-01-25 00:49:56.47	63.06	29.68	-36.0	-37.5	17.4	1.10e-06	0	61	0	69206016	44	4092
2026-01-25 00:49:57.48	63.36	29.78	-39.1	-41.2	14.3	1.10e-06	0	62	0	74448896	49	4675
2026-01-25 00:49:58.49	63.65	29.88	-36.1	-37.7	17.4	9.52e-04	0	62	0	80740352	44	4161
2026-01-25 00:49:59.50	63.95	29.98	-38.4	-40.2	15.1	1.01e-02	0	62	0	85983232	48	4432
2026-01-25 00:50:00.51	64.25	30.08	-35.5	-37.0	17.9	0.00e+00	0	62	0	92274688	43	4056
2026-01-25 00:50:01.52	64.55	30.18	-35.4	-36.9	18.0	0.00e+00	0	61	0	97517568	42	4260
2026-01-25 00:50:02.53	64.85	30.27	-35.5	-36.9	18.0	0.00e+00	0	62	0	102760448	42	4272
2026-01-25 00:50:03.54	65.16	30.37	-35.6	-37.0	17.9	0.00e+00	0	62	0	109051904	42	4335
2026-01-25 00:50:04.55	65.46	30.46	-35.6	-37.1	17.8	0.00e+00	0	62	0	114294784	42	4360
2026-01-25 00:50:05.56	65.77	30.56	-35.6	-37.1	17.8	0.00e+00	0	62	0	120586240	42	4387
2026-01-25 00:50:06.57	66.08	30.65	-35.5	-37.0	18.0	0.00e+00	0	62	0	125829120	42	4295
2026-01-25 00:50:07.58	66.39	30.75	-35.6	-37.0	17.9	0.00e+00	0	62	0	132120576	42	4340
2026-01-25 00:50:08.59	66.71	30.84	-35.5	-37.0	17.9	0.00e+00	0	62	0	137363456	42	4326
2026-01-25 00:50:09.60	67.02	30.94	-35.5	-36.9	18.0	0.00e+00	0	62	0	143654912	42	4290
2026-01-25 00:50:10.61	67.34	31.03	-35.5	-37.0	17.9	0.00e+00	0	62	0	148897792	42	4327
2026-01-25 00:50:11.62	67.66	31.12	-35.7	-37.2	17.8	0.00e+00	0	62	0	154140672	42	4399
2026-01-25 00:50:12.63	67.98	31.21	-35.5	-36.9	18.0	0.00e+00	0	62	0	160432128	42	4275
2026-01-25 00:50:13.64	68.30	31.30	-35.3	-36.8	18.2	0.00e+00	0	62	0	165675008	42	4198
2026-01-25 00:50:14.65	68.62	31.39	-35.2	-36.6	18.3	0.00e+00	0	62	0	171966464	42	4116
2026-01-25 00:50:15.66	68.95	31.48	-35.1	-36.5	18.4	0.00e+00	0	62	0	177209344	42	4065
2026-01-25 00:50:16.67	69.28	31.57	-35.1	-36.5	18.4	0.00e+00	0	62	0	182452224	42	4072
2026-01-25 00:50:17.68	69.61	31.65	-35.2	-36.6	18.3	0.00e+00	0	62	0	188743680	42	4109
2026-01-25 00:50:18.69	69.94	31.74	-35.1	-36.5	18.4	0.00e+00	0	62	0	193986560	42	4063
2026-01-25 00:50:19.70	70.27	31.83	-35.2	-36.6	18.3	0.00e+00	0	62	0	200278016	42	4116
2026-01-25 00:50:20.71	70.61	31.91	-35.1	-36.5	18.4	0.00e+00	0	62	0	205520896	42	4087
2026-01-25 00:50:21.72	70.94	32.00	-35.0	-36.4	18.5	0.00e+00	0	62	0	210763776	42	4046
2026-01-25 00:50:22.73	71.28	32.08	-34.9	-36.3	18.6	0.00e+00	0	62	0	217055232	41	4211
2026-01-25 00:50:23.74	71.62	32.16	-34.9	-36.2	18.6	0.00e+00	0	62	0	222298112	41	4191
2026-01-25 00:50:24.75	71.96	32.24	-35.1	-36.5	18.4	0.00e+00	0	62	0	228589568	41	4324
2026-01-25 00:50:25.76	72.30	32.32	-35.2	-36.7	18.2	0.00e+00	0	62	0	233832448	41	4395
2026-01-25 00:50:26.77	72.65	32.40	-35.4	-36.9	18.1	0.00e+00	0	62	0	240123904	41	4494
2026-01-25 00:50:27.77	72.99	32.48	-35.3	-36.7	18.2	0.00e+00	0	62	0	245366784	41	4423
2026-01-25 00:50:28.79	73.34	32.56	-35.2	-36.6	18.3	0.00e+00	0	62	0	251658240	41	4359
2026-01-25 00:50:29.80	73.69	32.64	-35.2	-36.7	18.2	0.00e+00	0	62	0	256901120	41	4407
2026-01-25 00:50:30.81	74.05	32.71	-35.3	-36.8	18.2	0.00e+00	0	62	0	262144000	41	4449
2026-01-25 00:50:31.81	74.40	32.79	-35.2	-36.6	18.3	0.00e+00	0	62	0	268435456	41	4366
2026-01-25 00:50:32.83	74.75	32.86	-35.1	-36.5	18.4	0.00e+00	0	62	0	273678336	41	4307
2026-01-25 00:50:33.84	75.11	32.94	-35.0	-36.4	18.5	0.00e+00	0	62	0	279969792	41	4279
2026-01-25 00:50:34.84	75.46	33.01	-35.0	-36.4	18.5	0.00e+00	0	62	0	285212672	41	4275
2026-01-25 00:50:35.85	75.82	33.08	-35.1	-36.5	18.4	0.00e+00	0	62	0	290455552	41	4337
2026-01-25 00:50:36.86	76.18	33.15	-35.2	-36.6	18.3	0.00e+00	0	62	0	296747008	41	4386
2026-01-25 00:50:37.87	76.55	33.22	-35.1	-36.5	18.4	0.00e+00	0	62	0	301989888	41	4303
2026-01-25 00:50:38.88	76.91	33.29	-35.0	-36.4	18.5	0.00e+00	0	62	0	307232768	41	4253
2026-01-25 00:50:39.89	77.28	33.35	-35.0	-36.4	18.5	0.00e+00	0	62	0	313524224	41	4259
2026-01-25 00:50:40.90	77.64	33.42	-35.1	-36.5	18.4	0.00e+00	0	62	0	318767104	41	4321
2026-01-25 00:50:41.91	78.01	33.48	-35.1	-36.5	18.3	0.00e+00	0	62	0	325058560	41	4324
2026-01-25 00:50:42.92	78.38	33.55	-35.0	-36.5	18.4	0.00e+00	0	62	0	330301440	41	4292
2026-01-25 00:50:43.93	78.75	33.61	-35.0	-36.3	18.6	0.00e+00	0	62	0	336592896	41	4241
2026-01-25 00:50:44.94	79.13	33.67	-35.0	-36.4	18.5	0.00e+00	0	62	0	341835776	41	4288
2026-01-25 00:50:45.95	79.50	33.73	-34.8	-36.2	18.7	0.00e+00	0	62	0	348127232	41	4174
2026-01-25 00:50:46.96	79.88	33.79	-34.8	-36.2	18.7	0.00e+00	0	62	0	353370112	41	4170
2026-01-25 00:50:47.97	80.25	33.84	-35.0	-36.4	18.6	0.00e+00	0	62	0	358612992	41	4263
2026-01-25 00:50:48.98	80.63	33.90	-35.1	-36.5	18.5	0.00e+00	0	62	0	364904448	41	4298
2026-01-25 00:50:49.98	81.01	33.95	-35.1	-36.5	18.4	0.00e+00	0	62	0	370147328	41	4328
2026-01-25 00:50:50.99	81.39	34.01	-35.2	-36.6	18.3	0.00e+00	0	62	0	376438784	41	4378
2026-01-25 00:50:52.00	81.77	34.06	-35.1	-36.5	18.5	0.00e+00	0	62	0	381681664	41	4301
2026-01-25 00:50:53.01	82.15	34.11	-35.0	-36.4	18.6	0.00e+00	0	62	0	386924544	41	4263
2026-01-25 00:50:54.02	82.54	34.16	-35.1	-36.4	18.5	0.00e+00	0	62	0	393216000	41	4287
2026-01-25 00:50:55.03	82.92	34.21	-35.0	-36.4	18.6	0.00e+00	0	62	0	398458880	41	4271
2026-01-25 00:50:56.04	83.31	34.25	-34.9	-36.3	18.6	0.00e+00	0	62	0	404750336	41	4218
2026-01-25 00:50:57.05	83.70	34.30	-35.1	-36.5	18.5	0.00e+00	0	62	0	409993216	41	4312
2026-01-25 00:50:58.06	84.09	34.34	-35.1	-36.6	18.4	0.00e+00	0	62	0	415236096	41	4341
2026-01-25 00:50:59.07	84.48	34.39	-35.0	-36.4	18.5	0.00e+00	0	62	0	421527552	41	4261
2026-01-25 00:51:00.08	84.87	34.43	-35.0	-36.4	18.6	0.00e+00	0	62	0	426770432	41	4250
2026-01-25 00:51:01.09	85.26	34.47	-34.9	-36.3	18.7	0.00e+00	0	62	0	433061888	41	4199
2026-01-25 00:51:02.10	85.65	34.50	-35.0	-36.3	18.6	0.00e+00	0	62	0	438304768	41	4240
2026-01-25 00:51:03.11	86.04	34.54	-34.9	-36.3	18.7	0.00e+00	0	62	0	444596224	41	4219
2026-01-25 00:51:04.12	86.44	34.58	-34.9	-36.3	18.7	0.00e+00	0	62	0	449839104	41	4206
2026-01-25 00:51:05.13	86.83	34.61	-34.9	-36.3	18.6	0.00e+00	0	62	0	455081984	41	4234
2026-01-25 00:51:06.14	87.23	34.64	-35.0	-36.4	18.6	0.00e+00	0	62	0	461373440	41	4261
2026-01-25 00:51:07.15	87.63	34.67	-35.1	-36.5	18.5	0.00e+00	0	62	0	466616320	41	4307
2026-01-25 00:51:08.16	88.02	34.70	-34.9	-36.2	18.7	0.00e+00	0	62	0	472907776	41	4189
2026-01-25 00:51:09.17	88.42	34.73	-34.7	-36.1	18.9	0.00e+00	0	62	0	478150656	41	4121
2026-01-25 00:51:10.18	88.82	34.76	-34.8	-36.2	18.8	0.00e+00	0	62	0	483393536	41	4149
2026-01-25 00:51:11.19	89.22	34.78	-34.9	-36.2	18.7	0.00e+00	0	62	0	489684992	41	4184
2026-01-25 00:51:12.20	89.62	34.81	-34.9	-36.3	18.7	0.00e+00	0	62	0	494927872	41	4220
2026-01-25 00:51:13.21	90.02	34.83	-34.9	-36.3	18.7	0.00e+00	0	62	0	501219328	41	4201
2026-01-25 00:51:14.22	90.42	34.85	-34.9	-36.3	18.7	0.00e+00	0	62	0	506462208	41	4196
2026-01-25 00:51:15.23	90.82	34.87	-34.9	-36.3	18.6	0.00e+00	0	62	0	511705088	41	4228
2026-01-25 00:51:16.24	91.23	34.89	-35.0	-36.4	18.6	0.00e+00	0	62	0	517996544	41	4272
2026-01-25 00:51:17.25	91.63	34.90	-35.1	-36.5	18.5	0.00e+00	0	62	0	523239424	41	4303
2026-01-25 00:51:18.26	92.03	34.92	-35.1	-36.6	18.4	0.00e+00	0	62	0	529530880	41	4346
2026-01-25 00:51:19.27	92.44	34.93	-35.2	-36.7	18.3	0.00e+00	0	62	0	534773760	41	4402
2026-01-25 00:51:20.28	92.84	34.94	-35.2	-36.7	18.3	0.00e+00	0	62	0	541065216	41	4403
2026-01-25 00:51:21.29	93.24	34.95	-35.3	-36.7	18.3	0.00e+00	0	62	0	546308096	41	4408
2026-01-25 00:51:22.30	93.65	34.96	-35.2	-36.6	18.4	0.00e+00	0	62	0	552599552	41	4385
2026-01-25 00:51:23.31	94.05	34.97	-35.0	-36.5	18.5	0.00e+00	0	62	0	557842432	41	4292
2026-01-25 00:51:24.32	94.46	34.97	-34.9	-36.3	18.7	0.00e+00	0	62	0	563085312	41	4217
2026-01-25 00:51:25.33	94.86	34.97	-34.8	-36.2	18.8	0.00e+00	0	62	0	569376768	41	4163
2026-01-25 00:51:26.33	95.26	34.98	-34.9	-36.3	18.7	0.00e+00	0	62	0	574619648	41	4197
2026-01-25 00:51:27.34	95.67	34.98	-35.0	-36.4	18.5	0.00e+00	0	62	0	580911104	41	4277
2026-01-25 00:51:28.35	96.07	34.98	-35.0	-36.5	18.5	0.00e+00	0	62	0	586153984	41	4292
2026-01-25 00:51:29.36	96.48	34.97	-34.9	-36.3	18.6	0.00e+00	0	62	0	591396864	41	4241
2026-01-25 00:51:30.37	96.88	34.97	-34.9	-36.3	18.7	0.00e+00	0	62	0	597688320	41	4220
2026-01-25 00:51:31.38	97.29	34.96	-34.9	-36.3	18.7	0.00e+00	0	62	0	602931200	41	4221
2026-01-25 00:51:32.39	97.69	34.96	-35.0	-36.4	18.6	0.00e+00	0	62	0	609222656	41	4267
2026-01-25 00:51:33.40	98.09	34.95	-35.2	-36.6	18.4	0.00e+00	0	62	0	614465536	41	4361
2026-01-25 00:51:34.41	98.50	34.94	-35.2	-36.6	18.4	0.00e+00	0	62	0	619708416	41	4375
2026-01-25 00:51:35.43	98.91	34.92	-35.1	-36.5	18.5	0.00e+00	0	62	0	625999872	41	4326
2026-01-25 00:51:36.44	99.31	34.91	-35.1	-36.5	18.5	0.00e+00	0	62	0	631242752	41	4311
2026-01-25 00:51:37.45	99.71	34.89	-35.0	-36.4	18.6	0.00e+00	0	62	0	637534208	41	4257
2026-01-25 00:51:38.46	100.12	34.88	-35.0	-36.4	18.6	0.00e+00	0	62	0	642777088	41	4280
2026-01-25 00:51:39.47	100.52	34.86	-35.1	-36.4	18.6	0.00e+00	0	62	0	649068544	41	4291
2026-01-25 00:51:40.48	100.92	34.84	-35.0	-36.4	18.6	0.00e+00	0	62	0	654311424	41	4285
2026-01-25 00:51:41.49	101.32	34.82	-35.0	-36.4	18.6	0.00e+00	0	62	0	660602880	41	4256
2026-01-25 00:51:42.50	101.72	34.80	-35.0	-36.3	18.6	0.00e+00	0	62	0	665845760	41	4242
2026-01-25 00:51:43.51	102.12	34.77	-35.0	-36.4	18.6	0.00e+00	0	62	0	671088640	41	4265
2026-01-25 00:51:44.52	102.52	34.74	-35.0	-36.4	18.5	0.00e+00	0	62	0	677380096	41	4281
2026-01-25 00:51:45.53	102.92	34.72	-35.1	-36.5	18.4	0.00e+00	0	62	0	682622976	41	4332
2026-01-25 00:51:46.54	103.32	34.69	-35.1	-36.5	18.4	0.00e+00	0	62	0	688914432	41	4323
2026-01-25 00:51:47.55	103.72	34.66	-35.0	-36.4	18.5	0.00e+00	0	62	0	694157312	41	4282
2026-01-25 00:51:48.56	104.11	34.63	-35.0	-36.4	18.5	0.00e+00	0	62	0	699400192	41	4278
2026-01-25 00:51:49.57	104.51	34.59	-35.0	-36.4	18.5	0.00e+00	0	62	0	705691648	41	4283
2026-01-25 00:51:50.58	104.90	34.56	-35.0	-36.4	18.5	0.00e+00	0	62	0	710934528	41	4272
2026-01-25 00:51:51.59	105.30	34.52	-35.1	-36.5	18.4	0.00e+00	0	62	0	717225984	41	4325
2026-01-25 00:51:52.60	105.69	34.48	-35.1	-36.5	18.5	0.00e+00	0	62	0	722468864	41	4307
2026-01-25 00:51:53.60	106.08	34.44	-35.0	-36.4	18.5	0.00e+00	0	62	0	727711744	41	4265
2026-01-25 00:51:54.61	106.47	34.40	-35.1	-36.5	18.5	0.00e+00	0	62	0	734003200	41	4299
2026-01-25 00:51:55.62	106.86	34.36	-35.1	-36.6	18.4	0.00e+00	0	62	0	739246080	41	4352
2026-01-25 00:51:56.64	107.26	34.32	-35.4	-36.9	18.1	0.00e+00	0	62	0	745537536	41	4496
2026-01-25 00:51:57.65	107.65	34.27	-35.4	-36.9	18.1	0.00e+00	0	62	0	750780416	41	4504
2026-01-25 00:51:58.65	108.03	34.23	-35.3	-36.8	18.1	0.00e+00	0	62	0	757071872	41	4475
2026-01-25 00:51:59.67	108.42	34.18	-35.4	-36.8	18.1	0.00e+00	0	62	0	762314752	41	4493
2026-01-25 00:52:00.68	108.81	34.13	-35.3	-36.7	18.3	0.00e+00	0	62	0	767557632	41	4401
2026-01-25 00:52:01.69	109.19	34.08	-35.1	-36.5	18.5	0.00e+00	0	62	0	773849088	41	4314
2026-01-25 00:52:02.70	109.57	34.03	-35.0	-36.4	18.6	0.00e+00	0	62	0	779091968	41	4278
2026-01-25 00:52:03.71	109.96	33.98	-35.0	-36.4	18.6	0.00e+00	0	62	0	785383424	41	4275
2026-01-25 00:52:04.72	110.34	33.92	-35.0	-36.5	18.5	0.00e+00	0	62	0	790626304	41	4294
2026-01-25 00:52:05.73	110.72	33.87	-34.9	-36.3	18.6	0.00e+00	0	62	0	795869184	41	4219
2026-01-25 00:52:06.74	111.09	33.81	-34.9	-36.3	18.6	0.00e+00	0	62	0	802160640	41	4233
2026-01-25 00:52:07.75	111.47	33.75	-35.0	-36.4	18.6	0.00e+00	0	62	0	807403520	41	4245
2026-01-25 00:52:08.75	111.84	33.69	-35.0	-36.4	18.5	0.00e+00	0	62	0	813694976	41	4268
2026-01-25 00:52:09.76	112.22	33.63	-35.1	-36.5	18.5	0.00e+00	0	62	0	818937856	41	4306
2026-01-25 00:52:10.77	112.59	33.57	-35.1	-36.5	18.5	0.00e+00	0	62	0	824180736	41	4316
2026-01-25 00:52:11.78	112.96	33.51	-35.2	-36.7	18.3	0.00e+00	0	62	0	830472192	41	4395
2026-01-25 00:52:12.79	113.33	33.44	-35.3	-36.7	18.2	0.00e+00	0	62	0	835715072	41	4433
2026-01-25 00:52:13.80	113.70	33.38	-35.2	-36.6	18.3	0.00e+00	0	62	0	842006528	41	4391
2026-01-25 00:52:14.81	114.07	33.31	-35.2	-36.6	18.3	0.00e+00	0	62	0	847249408	41	4372
2026-01-25 00:52:15.82	114.43	33.25	-35.2	-36.6	18.3	0.00e+00	0	62	0	853540864	41	4374
2026-01-25 00:52:16.83	114.80	33.18	-35.3	-36.7	18.3	0.00e+00	0	62	0	858783744	41	4417
2026-01-25 00:52:17.84	115.16	33.11	-35.3	-36.7	18.2	0.00e+00	0	62	0	865075200	41	4435
2026-01-25 00:52:18.85	115.52	33.04	-35.3	-36.7	18.2	0.00e+00	0	62	0	870318080	41	4432
2026-01-25 00:52:19.86	115.88	32.96	-35.3	-36.8	18.2	0.00e+00	0	62	0	875560960	41	4450
2026-01-25 00:52:20.87	116.24	32.89	-35.2	-36.7	18.2	0.00e+00	0	62	0	881852416	41	4401
2026-01-25 00:52:21.88	116.59	32.82	-35.3	-36.7	18.2	0.00e+00	0	62	0	887095296	41	4438
2026-01-25 00:52:22.88	116.95	32.74	-35.3	-36.7	18.2	0.00e+00	0	62	0	892338176	41	4440
2026-01-25 00:52:23.89	117.30	32.67	-35.3	-36.7	18.2	0.00e+00	0	62	0	898629632	41	4434
2026-01-25 00:52:24.90	117.65	32.59	-35.4	-36.8	18.1	0.00e+00	0	62	0	903872512	41	4477
2026-01-25 00:52:25.91	118.00	32.51	-35.3	-36.8	18.1	0.00e+00	0	62	0	910163968	41	4469
2026-01-25 00:52:26.92	118.35	32.43	-35.3	-36.8	18.1	0.00e+00	0	62	0	915406848	41	4464
2026-01-25 00:52:27.93	118.70	32.35	-35.3	-36.8	18.1	0.00e+00	0	62	0	920649728	41	4478
2026-01-25 00:52:28.95	119.04	32.27	-35.3	-36.8	18.1	0.00e+00	0	62	0	926941184	41	4472
2026-01-25 00:52:29.96	119.39	32.19	-35.3	-36.8	18.1	0.00e+00	0	62	0	932184064	41	4470
2026-01-25 00:52:30.97	119.73	32.11	-35.4	-36.8	18.1	0.00e+00	0	62	0	938475520	41	4486
2026-01-25 00:52:31.98	120.07	32.02	-35.4	-36.9	18.1	0.00e+00	0	62	0	943718400	41	4499
2026-01-25 00:52:32.99	120.41	31.94	-35.3	-36.8	18.1	0.00e+00	0	62	0	950009856	41	4453
2026-01-25 00:52:34.00	120.74	31.86	-35.4	-36.8	18.1	0.00e+00	0	62	0	955252736	41	4487
2026-01-25 00:52:35.01	121.08	31.77	-35.4	-36.9	18.0	0.00e+00	0	62	0	961544192	41	4541
2026-01-25 00:52:36.02	121.41	31.68	-35.4	-36.9	18.0	0.00e+00	0	62	0	966787072	41	4515
2026-01-25 00:52:37.03	121.74	31.60	-35.4	-36.9	18.0	0.00e+00	0	62	0	972029952	41	4507
2026-01-25 00:52:38.03	122.07	31.51	-35.4	-36.9	17.9	0.00e+00	0	62	0	978321408	41	4537
2026-01-25 00:52:39.04	122.40	31.42	-35.4	-36.9	18.0	0.00e+00	0	62	0	983564288	41	4530
2026-01-25 00:52:40.05	122.72	31.33	-35.4	-36.9	18.0	0.00e+00	0	62	0	989855744	41	4527
2026-01-25 00:52:41.06	123.05	31.24	-35.4	-36.9	18.0	0.00e+00	0	62	0	995098624	41	4514
2026-01-25 00:52:42.07	123.37	31.15	-35.4	-36.9	18.0	0.00e+00	0	62	0	1000341504	41	4503
2026-01-25 00:52:43.08	123.69	31.06	-35.5	-37.0	18.0	0.00e+00	0	62	0	1006632960	41	4554
2026-01-25 00:52:44.09	124.01	30.96	-35.6	-37.0	17.9	0.00e+00	0	62	0	1011875840	41	4591
2026-01-25 00:52:45.10	124.32	30.87	-35.4	-36.8	18.1	0.00e+00	0	62	0	1018167296	41	4475
2026-01-25 00:52:46.11	124.64	30.78	-35.2	-36.7	18.2	0.00e+00	0	62	0	1023410176	41	4403
2026-01-25 00:52:47.12	124.95	30.68	-35.2	-36.6	18.3	0.00e+00	0	62	0	1028653056	41	4360
2026-01-25 00:52:48.13	125.27	30.59	-35.2	-36.6	18.3	0.00e+00	0	62	0	1034944512	41	4365
2026-01-25 00:52:49.14	125.58	30.49	-35.3	-36.7	18.2	0.00e+00	0	62	0	1040187392	41	4405
2026-01-25 00:52:50.15	125.88	30.39	-35.3	-36.8	18.1	0.00e+00	0	62	0	1046478848	41	4459
2026-01-25 00:52:51.16	126.19	30.30	-35.5	-37.0	17.9	0.00e+00	0	62	0	1051721728	41	4590
2026-01-25 00:52:52.17	126.49	30.20	-35.4	-37.0	17.9	0.00e+00	0	62	0	1058013184	41	4548
2026-01-25 00:52:53.18	126.80	30.10	-35.4	-36.9	17.9	0.00e+00	0	62	0	1063256064	41	4527
2026-01-25 00:52:54.19	127.10	30.00	-35.4	-36.9	18.0	0.00e+00	0	62	0	1069547520	41	4522
2026-01-25 00:52:55.20	127.40	29.91	-35.4	-36.9	18.0	0.00e+00	0	62	0	1074790400	41	4531
2026-01-25 00:52:56.21	127.69	29.81	-35.4	-36.9	18.0	0.00e+00	0	62	0	1080033280	41	4532
2026-01-25 00:52:57.22	127.99	29.71	-35.3	-36.8	18.1	0.00e+00	0	62	0	1086324736	41	4464
2026-01-25 00:52:58.23	128.28	29.61	-35.3	-36.7	18.2	0.00e+00	0	62	0	1091567616	41	4440
2026-01-25 00:52:59.24	128.57	29.50	-35.4	-36.8	18.1	0.00e+00	0	62	0	1097859072	41	4473
2026-01-25 00:53:00.25	128.86	29.40	-35.4	-36.9	18.1	0.00e+00	0	62	0	1103101952	41	4508
2026-01-25 00:53:01.26	129.15	29.30	-35.4	-36.9	18.0	0.00e+00	0	62	0	1108344832	41	4524
2026-01-25 00:53:02.27	129.44	29.20	-35.4	-36.9	18.0	0.00e+00	0	62	0	1114636288	41	4519
2026-01-25 00:53:03.27	129.72	29.10	-35.4	-36.9	18.0	0.00e+00	0	62	0	1119879168	41	4521
2026-01-25 00:53:04.28	130.00	29.00	-35.4	-36.8	18.1	0.00e+00	0	62	0	1126170624	41	4489
2026-01-25 00:53:05.29	130.29	28.89	-35.4	-36.9	18.0	0.00e+00	0	62	0	1131413504	41	4518
2026-01-25 00:53:06.30	130.56	28.79	-35.5	-36.9	18.0	0.00e+00	0	62	0	1136656384	41	4528
2026-01-25 00:53:07.31	130.84	28.69	-35.5	-37.0	17.9	0.00e+00	0	62	0	1142947840	41	4554
2026-01-25 00:53:08.32	131.12	28.58	-35.5	-37.0	17.9	0.00e+00	0	62	0	1148190720	41	4561
2026-01-25 00:53:09.33	131.39	28.48	-35.5	-37.0	17.9	0.00e+00	0	62	0	1154482176	41	4582
2026-01-25 00:53:10.34	131.66	28.37	-35.6	-37.2	17.7	0.00e+00	0	62	0	1159725056	41	4657
2026-01-25 00:53:11.35	131.94	28.27	-35.7	-37.2	17.7	0.00e+00	0	62	0	1166016512	41	4702
2026-01-25 00:53:12.36	132.20	28.16	-35.7	-37.2	17.7	0.00e+00	0	62	0	1171259392	42	4438
2026-01-25 00:53:13.37	132.47	28.06	-35.6	-37.1	17.8	0.00e+00	0	62	0	1176502272	42	4383
2026-01-25 00:53:14.38	132.74	27.95	-35.5	-37.0	17.9	0.00e+00	0	62	0	1182793728	42	4295
2026-01-25 00:53:15.39	133.00	27.84	-35.4	-36.9	18.0	0.00e+00	0	62	0	1188036608	42	4256
2026-01-25 00:53:16.40	133.26	27.74	-35.5	-37.0	17.9	0.00e+00	0	62	0	1194328064	42	4305
2026-01-25 00:53:17.41	133.52	27.63	-35.6	-37.1	17.8	0.00e+00	0	62	0	1199570944	42	4344
2026-01-25 00:53:18.42	133.78	27.52	-35.6	-37.1	17.8	0.00e+00	0	62	0	1204813824	42	4358
2026-01-25 00:53:19.43	134.04	27.42	-35.7	-37.2	17.7	0.00e+00	0	62	0	1211105280	42	4417
2026-01-25 00:53:20.44	134.29	27.31	-35.8	-37.3	17.5	0.00e+00	0	62	0	1216348160	42	4492
2026-01-25 00:53:21.45	134.55	27.20	-35.9	-37.5	17.4	0.00e+00	0	62	0	1222639616	42	4546
2026-01-25 00:53:22.47	134.80	27.09	-35.8	-37.4	17.5	0.00e+00	0	62	0	1227882496	42	4525
2026-01-25 00:53:23.48	135.05	26.99	-35.9	-37.4	17.5	0.00e+00	0	62	0	1233125376	42	4530
2026-01-25 00:53:24.49	135.30	26.88	-35.8	-37.4	17.5	0.00e+00	0	62	0	1239416832	42	4512
2026-01-25 00:53:25.50	135.55	26.77	-35.8	-37.3	17.5	0.00e+00	0	62	0	1244659712	42	4474
2026-01-25 00:53:26.51	135.79	26.66	-35.8	-37.3	17.6	0.00e+00	0	62	0	1250951168	42	4459
2026-01-25 00:53:27.52	136.04	26.56	-35.8	-37.4	17.5	0.00e+00	0	62	0	1256194048	42	4510
2026-01-25 00:53:28.53	136.28	26.45	-35.7	-37.3	17.6	0.00e+00	0	62	0	1262485504	42	4451
2026-01-25 00:53:29.54	136.52	26.34	-35.8	-37.3	17.5	0.00e+00	0	61	0	1267728384	42	4488
2026-01-25 00:53:30.55	136.76	26.23	-35.9	-37.4	17.4	0.00e+00	0	62	0	1274019840	42	4535
2026-01-25 00:53:31.56	137.00	26.12	-35.8	-37.4	17.4	0.00e+00	0	62	0	1279262720	42	4521
2026-01-25 00:53:32.57	137.23	26.01	-35.9	-37.4	17.4	0.00e+00	0	62	0	1284505600	42	4539
2026-01-25 00:53:33.58	137.46	25.90	-35.7	-37.2	17.6	0.00e+00	0	62	0	1290797056	42	4429
2026-01-25 00:53:34.59	137.70	25.80	-35.5	-37.0	17.8	0.00e+00	0	62	0	1296039936	42	4338
2026-01-25 00:53:35.60	137.93	25.69	-35.5	-37.0	17.9	0.00e+00	0	62	0	1302331392	42	4295
2026-01-25 00:53:36.61	138.16	25.58	-35.4	-36.9	17.9	0.00e+00	0	62	0	1307574272	42	4264
2026-01-25 00:53:37.62	138.39	25.47	-35.5	-37.0	17.9	0.00e+00	0	62	0	1312817152	42	4299
2026-01-25 00:53:38.62	138.61	25.36	-35.6	-37.0	17.7	0.00e+00	0	62	0	1319108608	42	4340
2026-01-25 00:53:39.63	138.83	25.25	-35.6	-37.1	17.7	0.00e+00	0	62	0	1324351488	42	4390
2026-01-25 00:53:40.64	139.06	25.14	-35.7	-37.3	17.6	0.00e+00	0	62	0	1330642944	42	4446
2026-01-25 00:53:41.65	139.28	25.04	-35.8	-37.3	17.5	0.00e+00	0	62	0	1335885824	42	4470
2026-01-25 00:53:42.66	139.50	24.93	-35.8	-37.4	17.4	0.00e+00	0	62	0	1341128704	42	4506
2026-01-25 00:53:43.67	139.72	24.82	-35.9	-37.5	17.4	0.00e+00	0	62	0	1347420160	42	4552
2026-01-25 00:53:44.68	139.94	24.71	-35.8	-37.4	17.5	0.00e+00	0	62	0	1352663040	42	4510
2026-01-25 00:53:45.69	140.15	24.60	-35.9	-37.5	17.4	0.00e+00	0	62	0	1358954496	42	4548
2026-01-25 00:53:46.70	140.37	24.49	-35.8	-37.4	17.5	0.00e+00	0	62	0	1364197376	42	4500
2026-01-25 00:53:47.71	140.58	24.38	-36.0	-37.5	17.4	0.00e+00	0	62	0	1370488832	42	4567
2026-01-25 00:53:48.72	140.79	24.27	-35.8	-37.4	17.5	0.00e+00	0	62	0	1375731712	42	4503
2026-01-25 00:53:49.73	141.00	24.17	-35.9	-37.4	17.4	0.00e+00	0	62	0	1380974592	42	4514
2026-01-25 00:53:50.74	141.21	24.06	-36.0	-37.6	17.3	0.00e+00	0	62	0	1387266048	42	4607
2026-01-25 00:53:51.75	141.42	23.95	-36.0	-37.6	17.2	0.00e+00	0	62	0	1392508928	42	4613
2026-01-25 00:53:52.76	141.62	23.84	-36.2	-37.8	17.1	0.00e+00	0	62	0	1398800384	42	4717
2026-01-25 00:53:53.76	141.83	23.73	-36.1	-37.7	17.1	0.00e+00	0	62	0	1404043264	42	4702
2026-01-25 00:53:54.78	142.03	23.62	-36.1	-37.8	17.1	0.00e+00	0	62	0	1409286144	42	4707
2026-01-25 00:53:55.79	142.23	23.52	-36.2	-37.8	17.0	0.00e+00	0	62	0	1415577600	42	4731
2026-01-25 00:53:56.80	142.43	23.41	-36.2	-37.8	17.0	0.00e+00	0	62	0	1420820480	43	4488
2026-01-25 00:53:57.81	142.63	23.30	-36.2	-37.8	16.9	0.00e+00	0	62	0	1427111936	43	4486
2026-01-25 00:53:58.81	142.83	23.19	-36.2	-37.8	17.0	0.00e+00	0	62	0	1432354816	43	4447
2026-01-25 00:53:59.82	143.03	23.08	-36.1	-37.7	17.1	0.00e+00	0	62	0	1437597696	43	4410
2026-01-25 00:54:00.83	143.22	22.98	-36.1	-37.7	17.1	0.00e+00	0	62	0	1443889152	43	4410
2026-01-25 00:54:01.85	143.42	22.87	-36.2	-37.8	17.0	0.00e+00	0	62	0	1449132032	43	4493
2026-01-25 00:54:02.86	143.61	22.76	-36.1	-37.7	17.0	0.00e+00	0	62	0	1455423488	43	4430
2026-01-25 00:54:03.86	143.80	22.66	-36.1	-37.6	17.1	0.00e+00	0	62	0	1460666368	43	4389
2026-01-25 00:54:04.87	143.99	22.55	-36.1	-37.7	17.1	0.00e+00	0	62	0	1466957824	43	4420
2026-01-25 00:54:05.88	144.18	22.44	-36.2	-37.8	17.0	0.00e+00	0	62	0	1472200704	43	4462
2026-01-25 00:54:06.90	144.37	22.33	-36.2	-37.9	16.9	0.00e+00	0	62	0	1478492160	43	4495
2026-01-25 00:54:07.90	144.55	22.23	-36.3	-37.9	16.9	0.00e+00	0	62	0	1483735040	43	4513
2026-01-25 00:54:08.91	144.74	22.12	-36.3	-38.0	16.8	0.00e+00	0	62	0	1488977920	43	4559
2026-01-25 00:54:09.93	144.92	22.01	-36.4	-38.1	16.7	0.00e+00	0	62	0	1495269376	43	4609
2026-01-25 00:54:10.94	145.10	21.91	-36.3	-38.0	16.8	0.00e+00	0	62	0	1500512256	43	4565
2026-01-25 00:54:11.95	145.29	21.80	-36.2	-37.8	16.9	0.00e+00	0	62	0	1506803712	43	4485
2026-01-25 00:54:12.96	145.47	21.69	-36.2	-37.8	17.0	0.00e+00	0	62	0	1512046592	43	4458
2026-01-25 00:54:13.97	145.65	21.59	-36.2	-37.8	16.9	0.00e+00	0	62	0	1517289472	43	4485
2026-01-25 00:54:14.98	145.82	21.48	-36.3	-37.9	16.8	0.00e+00	0	62	0	1523580928	43	4521
2026-01-25 00:54:15.99	146.00	21.38	-36.2	-37.8	16.9	0.00e+00	0	62	0	1528823808	43	4472
2026-01-25 00:54:17.00	146.17	21.27	-36.2	-37.9	16.9	0.00e+00	0	62	0	1535115264	43	4502
2026-01-25 00:54:18.01	146.35	21.17	-36.3	-37.9	16.8	0.00e+00	0	62	0	1540358144	43	4542
2026-01-25 00:54:19.02	146.52	21.06	-36.3	-38.0	16.7	0.00e+00	0	62	0	1545601024	43	4550
2026-01-25 00:54:20.03	146.69	20.96	-36.4	-38.1	16.7	0.00e+00	0	62	0	1551892480	43	4599
2026-01-25 00:54:21.04	146.86	20.85	-36.5	-38.2	16.6	0.00e+00	0	62	0	1557135360	43	4667
2026-01-25 00:54:22.05	147.03	20.75	-36.6	-38.2	16.5	0.00e+00	0	62	0	1563426816	43	4691
2026-01-25 00:54:23.06	147.20	20.64	-36.5	-38.1	16.6	0.00e+00	0	62	0	1568669696	43	4650
2026-01-25 00:54:24.07	147.37	20.54	-36.5	-38.1	16.6	0.00e+00	0	62	0	1574961152	43	4639
2026-01-25 00:54:25.08	147.54	20.44	-36.5	-38.2	16.5	0.00e+00	0	62	0	1580204032	43	4655
2026-01-25 00:54:26.09	147.70	20.33	-36.5	-38.2	16.4	0.00e+00	0	62	0	1586495488	43	4674
2026-01-25 00:54:27.10	147.87	20.23	-36.6	-38.3	16.4	0.00e+00	0	62	0	1591738368	43	4723
2026-01-25 00:54:28.11	148.03	20.13	-36.6	-38.4	16.3	0.00e+00	0	62	0	1596981248	43	4767
2026-01-25 00:54:29.12	148.19	20.02	-36.9	-38.6	16.2	0.00e+00	0	62	0	1603272704	44	4648
2026-01-25 00:54:30.13	148.35	19.92	-37.0	-38.8	16.1	0.00e+00	0	62	0	1608515584	44	4729
2026-01-25 00:54:31.14	148.51	19.82	-37.0	-38.8	16.1	0.00e+00	0	62	0	1614807040	44	4731
2026-01-25 00:54:32.15	148.67	19.72	-37.1	-38.8	16.1	0.00e+00	0	62	0	1620049920	44	4755
2026-01-25 00:54:33.16	148.83	19.61	-37.1	-38.9	16.0	0.00e+00	0	62	0	1625292800	44	4808
2026-01-25 00:54:34.17	148.99	19.51	-37.2	-38.9	16.0	0.00e+00	0	62	0	1631584256	44	4813
2026-01-25 00:54:35.18	149.14	19.41	-37.2	-39.0	15.9	0.00e+00	0	62	0	1636827136	44	4825
2026-01-25 00:54:36.18	149.30	19.31	-37.2	-39.0	15.9	0.00e+00	0	62	0	1642070016	45	4578
2026-01-25 00:54:37.19	149.45	19.21	-37.1	-38.9	16.0	0.00e+00	0	62	0	1648361472	45	4515
2026-01-25 00:54:38.20	149.60	19.11	-37.1	-38.9	16.0	0.00e+00	0	62	0	1653604352	45	4515
2026-01-25 00:54:39.21	149.75	19.01	-37.2	-39.0	15.9	0.00e+00	0	62	0	1659895808	45	4551
2026-01-25 00:54:40.22	149.90	18.90	-37.1	-38.9	16.0	0.00e+00	0	62	0	1665138688	45	4528
2026-01-25 00:54:41.23	150.05	18.80	-37.1	-38.9	16.0	0.00e+00	0	62	0	1671430144	45	4526
2026-01-25 00:54:42.24	150.20	18.70	-37.2	-39.0	15.8	0.00e+00	0	62	0	1676673024	45	4594
2026-01-25 00:54:43.25	150.35	18.60	-37.2	-39.0	15.9	0.00e+00	0	62	0	1682964480	45	4582
2026-01-25 00:54:44.26	150.50	18.50	-37.3	-39.1	15.8	0.00e+00	0	62	0	1688207360	45	4635
2026-01-25 00:54:45.27	150.64	18.40	-37.3	-39.2	15.7	0.00e+00	0	62	0	1693450240	45	4662
2026-01-25 00:54:46.28	150.79	18.30	-37.3	-39.2	15.7	0.00e+00	0	62	0	1699741696	45	4667
2026-01-25 00:54:47.30	150.94	18.20	-37.4	-39.3	15.6	0.00e+00	0	62	0	1704984576	45	4708
2026-01-25 00:54:48.31	151.08	18.11	-37.3	-39.2	15.7	0.00e+00	0	62	0	1711276032	45	4671
2026-01-25 00:54:49.32	151.22	18.01	-37.3	-39.1	15.7	0.00e+00	0	62	0	1716518912	45	4639
2026-01-25 00:54:50.33	151.36	17.91	-37.3	-39.2	15.7	0.00e+00	0	62	0	1721761792	45	4672
2026-01-25 00:54:51.34	151.50	17.81	-37.4	-39.2	15.6	0.00e+00	0	62	0	1728053248	45	4680
2026-01-25 00:54:52.35	151.64	17.71	-37.2	-39.0	15.8	0.00e+00	0	62	0	1733296128	45	4594
2026-01-25 00:54:53.36	151.78	17.61	-37.2	-39.0	15.8	0.00e+00	0	62	0	1739587584	45	4592
2026-01-25 00:54:54.37	151.92	17.52	-37.2	-39.0	15.8	0.00e+00	0	62	0	1744830464	45	4585
2026-01-25 00:54:55.37	152.06	17.42	-37.3	-39.1	15.8	0.00e+00	0	62	0	1750073344	45	4611
2026-01-25 00:54:56.39	152.19	17.32	-37.3	-39.1	15.7	0.00e+00	0	62	0	1756364800	45	4607
2026-01-25 00:54:57.40	152.33	17.23	-37.3	-39.1	15.7	0.00e+00	0	62	0	1761607680	45	4651
2026-01-25 00:54:58.41	152.46	17.13	-37.3	-39.1	15.7	0.00e+00	0	62	0	1767899136	45	4640
2026-01-25 00:54:59.42	152.60	17.03	-37.3	-39.1	15.7	0.00e+00	0	62	0	1773142016	45	4651
2026-01-25 00:55:00.43	152.73	16.94	-37.4	-39.2	15.6	0.00e+00	0	62	0	1779433472	45	4679
2026-01-25 00:55:01.44	152.86	16.84	-37.5	-39.3	15.5	0.00e+00	0	62	0	1784676352	45	4746
2026-01-25 00:55:02.45	152.99	16.74	-37.4	-39.2	15.6	0.00e+00	0	62	0	1790967808	45	4682
2026-01-25 00:55:03.46	153.13	16.65	-37.3	-39.2	15.6	0.00e+00	0	62	0	1796210688	45	4662
2026-01-25 00:55:04.47	153.25	16.55	-37.4	-39.2	15.6	0.00e+00	0	62	0	1801453568	45	4685
2026-01-25 00:55:05.48	153.38	16.46	-37.4	-39.3	15.5	0.00e+00	0	62	0	1807745024	45	4714
2026-01-25 00:55:06.49	153.51	16.36	-37.4	-39.2	15.6	0.00e+00	0	62	0	1812987904	45	4684
2026-01-25 00:55:07.50	153.64	16.27	-37.4	-39.2	15.5	0.00e+00	0	62	0	1819279360	45	4703
2026-01-25 00:55:08.51	153.77	16.18	-37.4	-39.3	15.5	0.00e+00	0	62	0	1824522240	45	4721
2026-01-25 00:55:09.52	153.89	16.08	-37.5	-39.3	15.5	0.00e+00	0	62	0	1829765120	45	4746
2026-01-25 00:55:10.53	154.02	15.99	-37.5	-39.3	15.5	0.00e+00	0	62	0	1836056576	45	4745
2026-01-25 00:55:11.54	154.14	15.89	-37.5	-39.3	15.5	0.00e+00	0	62	0	1841299456	45	4744
2026-01-25 00:55:12.54	154.26	15.80	-37.5	-39.4	15.4	0.00e+00	0	62	0	1847590912	45	4782
2026-01-25 00:55:13.56	154.39	15.71	-37.6	-39.5	15.3	0.00e+00	0	62	0	1852833792	45	4828
2026-01-25 00:55:14.57	154.51	15.61	-37.6	-39.5	15.3	1.10e-06	0	62	0	1858076672	45	4841
2026-01-25 00:55:15.57	154.63	15.52	-37.6	-39.5	15.3	0.00e+00	0	62	0	1864368128	45	4840
2026-01-25 00:55:16.58	154.75	15.43	-37.6	-39.6	15.2	0.00e+00	0	62	0	1869611008	45	4881
2026-01-25 00:55:17.59	154.87	15.34	-37.7	-39.6	15.1	0.00e+00	0	62	0	1875902464	45	4925
2026-01-25 00:55:18.60	154.99	15.25	-37.7	-39.6	15.2	0.00e+00	0	62	0	1881145344	46	4609
2026-01-25 00:55:19.61	155.11	15.15	-37.6	-39.5	15.2	0.00e+00	0	62	0	1887436800	46	4596
2026-01-25 00:55:20.62	155.23	15.06	-37.7	-39.6	15.2	0.00e+00	0	62	0	1892679680	46	4627
2026-01-25 00:55:21.63	155.34	14.97	-37.7	-39.7	15.1	0.00e+00	0	62	0	1897922560	46	4660
2026-01-25 00:55:22.64	155.46	14.88	-37.7	-39.6	15.2	0.00e+00	0	62	0	1904214016	46	4602
2026-01-25 00:55:23.65	155.58	14.79	-37.7	-39.6	15.1	0.00e+00	0	62	0	1909456896	46	4650
2026-01-25 00:55:24.66	155.69	14.70	-37.7	-39.6	15.2	0.00e+00	0	62	0	1915748352	46	4628
2026-01-25 00:55:25.67	155.81	14.61	-37.7	-39.7	15.1	0.00e+00	0	62	0	1920991232	46	4656
2026-01-25 00:55:26.68	155.92	14.52	-37.8	-39.7	15.0	0.00e+00	0	62	0	1927282688	46	4691
2026-01-25 00:55:27.69	156.03	14.43	-37.8	-39.7	15.0	1.10e-06	0	62	0	1932525568	46	4694
2026-01-25 00:55:28.70	156.14	14.34	-37.8	-39.8	15.0	0.00e+00	0	62	0	1937768448	46	4708
2026-01-25 00:55:29.72	156.26	14.25	-37.9	-39.9	14.9	0.00e+00	0	62	0	1944059904	46	4764
2026-01-25 00:55:30.72	156.37	14.16	-38.0	-40.0	14.8	1.10e-06	0	62	0	1949302784	46	4838
2026-01-25 00:55:31.73	156.48	14.07	-38.0	-40.0	14.8	0.00e+00	0	62	0	1954545664	46	4836
2026-01-25 00:55:32.75	156.59	13.98	-38.0	-40.1	14.7	0.00e+00	0	62	0	1960837120	46	4873
2026-01-25 00:55:33.76	156.70	13.89	-38.0	-40.1	14.6	0.00e+00	0	62	0	1966080000	46	4903
2026-01-25 00:55:34.77	156.81	13.81	-38.1	-40.1	14.6	1.10e-06	0	62	0	1972371456	46	4920
2026-01-25 00:55:35.78	156.91	13.72	-38.1	-40.2	14.5	0.00e+00	0	62	0	1977614336	46	4944
2026-01-25 00:55:36.79	157.02	13.63	-38.2	-40.3	14.4	1.10e-06	0	62	0	1983905792	46	5007
2026-01-25 00:55:37.79	157.13	13.54	-38.2	-40.3	14.4	1.10e-06	0	62	0	1989148672	46	5013
2026-01-25 00:55:38.80	157.23	13.46	-38.2	-40.4	14.3	2.20e-06	0	62	0	1995440128	47	4761
2026-01-25 00:55:39.82	157.34	13.37	-38.3	-40.4	14.3	0.00e+00	0	62	0	2000683008	47	4772
2026-01-25 00:55:40.83	157.44	13.28	-38.3	-40.4	14.3	0.00e+00	0	62	0	2005925888	47	4783
2026-01-25 00:55:41.84	157.55	13.19	-38.3	-40.4	14.2	0.00e+00	0	62	0	2012217344	47	4804
2026-01-25 00:55:42.85	157.65	13.11	-38.3	-40.4	14.3	2.20e-06	0	62	0	2017460224	47	4780
2026-01-25 00:55:43.86	157.76	13.02	-38.3	-40.5	14.2	1.10e-06	0	62	0	2023751680	47	4816
2026-01-25 00:55:44.87	157.86	12.94	-38.3	-40.4	14.2	2.20e-06	0	62	0	2028994560	47	4787
2026-01-25 00:55:45.88	157.96	12.85	-38.3	-40.5	14.1	3.40e-06	0	62	0	2034237440	47	4831
2026-01-25 00:55:46.89	158.06	12.76	-38.4	-40.5	14.1	2.20e-06	0	62	0	2040528896	47	4853
2026-01-25 00:55:47.90	158.16	12.68	-38.3	-40.5	14.1	6.80e-06	0	62	0	2045771776	47	4823
2026-01-25 00:55:48.91	158.26	12.59	-38.4	-40.5	14.1	3.40e-06	0	62	0	2052063232	47	4855
2026-01-25 00:55:49.92	158.36	12.51	-38.4	-40.6	14.0	2.20e-06	0	62	0	2057306112	47	4891
2026-01-25 00:55:50.93	158.46	12.42	-38.4	-40.5	14.1	1.10e-06	0	62	0	2062548992	47	4854
2026-01-25 00:55:51.94	158.56	12.34	-38.4	-40.5	14.1	6.80e-06	0	62	0	2068840448	47	4856
2026-01-25 00:55:52.95	158.66	12.26	-38.3	-40.5	14.1	1.10e-06	0	62	0	2074083328	47	4824
2026-01-25 00:55:53.95	158.76	12.17	-38.3	-40.4	14.1	3.40e-06	0	62	0	2080374784	47	4806
2026-01-25 00:55:54.96	158.85	12.09	-38.4	-40.5	14.0	2.20e-06	0	62	0	2085617664	47	4847
2026-01-25 00:55:55.97	158.95	12.01	-38.4	-40.5	14.0	3.40e-06	0	62	0	2091909120	47	4865
2026-01-25 00:55:56.98	159.04	11.92	-38.4	-40.6	14.0	4.50e-06	0	62	0	2097152000	47	4886
2026-01-25 00:55:57.99	159.14	11.84	-38.3	-40.5	14.0	3.40e-06	0	62	0	2103443456	47	4850
2026-01-25 00:55:59.00	159.23	11.76	-38.4	-40.6	14.0	6.80e-06	0	62	0	2108686336	47	4881
2026-01-25 00:56:00.01	159.33	11.67	-38.4	-40.6	13.9	5.70e-06	0	62	0	2113929216	47	4908
2026-01-25 00:56:01.02	159.42	11.59	-38.4	-40.7	13.8	1.02e-05	0	62	0	2120220672	47	4931
2026-01-25 00:56:02.03	159.52	11.51	-38.4	-40.6	13.9	5.70e-06	0	62	0	2125463552	47	4896
2026-01-25 00:56:03.04	159.61	11.43	-38.4	-40.6	13.9	3.40e-06	0	62	0	2131755008	47	4912
2026-01-25 00:56:04.05	159.70	11.34	-38.4	-40.7	13.8	1.02e-05	0	62	0	2136997888	47	4946
2026-01-25 00:56:05.06	159.79	11.26	-38.5	-40.8	13.8	1.37e-05	0	62	0	2142240768	47	4985
2026-01-25 00:56:06.07	159.89	11.18	-38.4	-40.7	13.8	1.02e-05	0	62	0	2148532224	47	4956
2026-01-25 00:56:07.08	159.98	11.10	-38.4	-40.7	13.8	1.02e-05	0	62	0	2153775104	47	4951
2026-01-25 00:56:08.09	160.07	11.02	-38.5	-40.8	13.6	1.37e-05	0	62	0	2160066560	47	5030
2026-01-25 00:56:09.10	160.16	10.94	-38.5	-40.8	13.6	1.25e-05	0	62	0	2165309440	47	5022
2026-01-25 00:56:10.11	160.25	10.86	-38.4	-40.7	13.7	3.40e-06	0	62	0	2170552320	47	4968
2026-01-25 00:56:11.12	160.34	10.78	-38.4	-40.7	13.7	1.37e-05	0	62	0	2176843776	47	4943
2026-01-25 00:56:12.14	160.42	10.70	-38.5	-40.8	13.6	1.60e-05	0	62	0	2182086656	47	5027
2026-01-25 00:56:13.15	160.51	10.62	-38.5	-40.8	13.6	2.51e-05	0	62	0	2188378112	47	5022
2026-01-25 00:56:14.16	160.60	10.54	-38.5	-40.8	13.6	1.02e-05	0	62	0	2193620992	47	4994
2026-01-25 00:56:15.17	160.69	10.46	-38.5	-40.7	13.6	9.10e-06	0	62	0	2199912448	47	4979
2026-01-25 00:56:16.18	160.77	10.38	-38.5	-40.8	13.5	5.70e-06	0	62	0	2205155328	47	5021
2026-01-25 00:56:17.19	160.86	10.30	-38.6	-40.9	13.5	2.51e-05	0	62	0	2211446784	47	5054
2026-01-25 00:56:18.20	160.95	10.22	-38.5	-40.8	13.5	1.60e-05	0	62	0	2216689664	47	5031
2026-01-25 00:56:19.20	161.03	10.14	-38.5	-40.8	13.5	2.17e-05	0	62	0	2221932544	47	5018
2026-01-25 00:56:20.21	161.12	10.06	-38.6	-40.9	13.4	1.48e-05	0	62	0	2228224000	47	5071
2026-01-25 00:56:21.22	161.20	9.98	-38.6	-40.9	13.4	2.63e-05	0	62	0	2233466880	47	5085
2026-01-25 00:56:22.23	161.28	9.91	-38.6	-40.9	13.4	2.86e-05	0	62	0	2238709760	47	5079
2026-01-25 00:56:23.24	161.37	9.83	-38.6	-40.9	13.3	3.08e-05	0	62	0	2245001216	47	5097
2026-01-25 00:56:24.25	161.45	9.75	-38.6	-41.0	13.3	1.94e-05	0	62	0	2250244096	47	5119
2026-01-25 00:56:25.26	161.53	9.67	-38.6	-40.9	13.3	2.86e-05	0	62	0	2256535552	47	5081
2026-01-25 00:56:26.27	161.62	9.59	-38.6	-40.9	13.3	2.28e-05	0	62	0	2261778432	47	5092
2026-01-25 00:56:27.28	161.70	9.52	-38.6	-41.0	13.2	4.80e-05	0	62	0	2267021312	47	5109
2026-01-25 00:56:28.29	161.78	9.44	-38.7	-41.1	13.1	4.69e-05	0	62	0	2273312768	47	5187
2026-01-25 00:56:29.30	161.86	9.36	-38.7	-41.1	13.0	4.92e-05	0	62	0	2278555648	47	5203
2026-01-25 00:56:30.32	161.94	9.29	-38.7	-41.1	13.0	5.37e-05	0	62	0	2284847104	47	5204
2026-01-25 00:56:31.33	162.02	9.21	-38.8	-41.3	12.9	8.58e-05	0	62	0	2290089984	48	4997
2026-01-25 00:56:32.34	162.10	9.13	-38.9	-41.4	12.8	7.78e-05	0	62	0	2296381440	48	5083
2026-01-25 00:56:33.35	162.18	9.06	-38.9	-41.3	12.8	6.17e-05	0	62	0	2301624320	48	5037
2026-01-25 00:56:34.36	162.26	8.98	-38.9	-41.3	13.0	5.37e-05	0	62	0	2306867200	48	5006
2026-01-25 00:56:35.37	162.34	8.91	-38.9	-41.3	12.9	8.81e-05	0	62	0	2313158656	48	5023
2026-01-25 00:56:36.38	162.42	8.83	-38.8	-41.3	12.9	7.89e-05	0	62	0	2318401536	48	5007
2026-01-25 00:56:37.39	162.50	8.75	-38.9	-41.3	12.9	1.11e-04	0	62	0	2324692992	48	5036
2026-01-25 00:56:38.40	162.57	8.68	-38.7	-41.2	13.0	6.63e-05	0	62	0	2329935872	48	4933
2026-01-25 00:56:39.41	162.65	8.60	-38.9	-41.4	12.8	8.46e-05	0	62	0	2336227328	48	5056
2026-01-25 00:56:40.42	162.73	8.53	-39.0	-41.5	12.7	1.03e-04	0	62	0	2341470208	48	5126
2026-01-25 00:56:41.43	162.80	8.46	-38.8	-41.3	12.9	6.86e-05	0	62	0	2346713088	48	5015
2026-01-25 00:56:42.44	162.88	8.38	-38.9	-41.3	12.8	1.09e-04	0	62	0	2353004544	48	5032
2026-01-25 00:56:43.45	162.96	8.31	-38.8	-41.3	12.8	1.13e-04	0	62	0	2358247424	48	5008
2026-01-25 00:56:44.46	163.03	8.23	-39.0	-41.5	12.6	1.62e-04	0	62	0	2364538880	48	5109
2026-01-25 00:56:45.47	163.11	8.16	-38.9	-41.5	12.6	1.43e-04	0	62	0	2369781760	48	5117
2026-01-25 00:56:46.48	163.18	8.08	-39.0	-41.5	12.6	1.99e-04	0	62	0	2375024640	48	5119
2026-01-25 00:56:47.49	163.25	8.01	-39.8	-42.8	11.5	1.59e-04	0	62	0	2381316096	50	5286
2026-01-25 00:56:48.50	163.33	7.94	-44.5	-55.5	3.8	8.41e-01	0	62	104	2383413248	59	13576
2026-01-25 00:56:49.51	163.40	7.86	-44.8	-56.7	3.8	8.47e-01	0	62	104	2383413248	60	14744
2026-01-25 00:56:50.52	163.48	7.79	-45.0	-56.8	3.8	8.47e-01	0	62	104	2383413248	60	14953
2026-01-25 00:56:51.53	163.55	7.72	-45.1	-56.9	3.8	8.45e-01	0	62	104	2383413248	60	15184
2026-01-25 00:56:52.54	163.62	7.65	-45.2	-57.0	3.8	8.46e-01	0	62	104	2383413248	60	15236
2026-01-25 00:56:53.55	163.69	7.57	-45.2	-57.0	3.8	8.47e-01	0	62	104	2383413248	61	14504
2026-01-25 00:56:54.56	163.76	7.50	-45.3	-57.1	3.8	8.47e-01	0	62	104	2383413248	61	14626
2026-01-25 00:56:55.57	163.84	7.43	-45.3	-57.0	3.8	8.46e-01	0	62	104	2383413248	61	14516
2026-01-25 00:56:56.58	163.91	7.36	-45.3	-57.0	3.8	8.46e-01	0	62	104	2383413248	61	14525
2026-01-25 00:56:57.59	163.98	7.28	-45.3	-57.0	3.8	8.47e-01	0	62	104	2383413248	61	14494
2026-01-25 00:56:58.60	164.05	7.21	-45.3	-57.0	3.8	8.47e-01	0	62	104	2383413248	61	14519
2026-01-25 00:56:59.61	164.12	7.14	-45.3	-57.0	3.8	8.45e-01	0	62	104	2383413248	61	14456
2026-01-25 00:57:00.62	164.19	7.07	-45.3	-57.0	3.8	8.46e-01	0	62	104	2383413248	61	14482
2026-01-25 00:57:01.63	164.26	7.00	-45.3	-57.0	3.8	8.46e-01	0	62	104	2383413248	61	14384
2026-01-25 00:57:02.64	164.33	6.93	-45.3	-57.0	3.8	8.46e-01	0	62	104	2383413248	61	14484
2026-01-25 00:57:03.65	164.39	6.86	-45.3	-57.0	3.8	8.46e-01	0	62	104	2383413248	61	14462
2026-01-25 00:57:04.66	164.46	6.79	-45.2	-56.9	3.8	8.46e-01	0	62	104	2383413248	61	14278
2026-01-25 00:57:05.67	164.53	6.72	-45.2	-56.9	3.8	8.46e-01	0	62	104	2383413248	61	14238
2026-01-25 00:57:06.68	164.60	6.64	-45.2	-56.9	3.8	8.45e-01	0	62	104	2383413248	61	14218
2026-01-25 00:57:07.69	164.67	6.57	-45.2	-56.9	3.8	8.45e-01	0	62	104	2383413248	61	14287
2026-01-25 00:57:08.70	164.73	6.50	-45.2	-56.9	3.8	8.47e-01	0	62	104	2383413248	61	14261
2026-01-25 00:57:09.71	164.80	6.43	-45.2	-56.9	3.8	8.46e-01	0	62	104	2383413248	61	14268
2026-01-25 00:57:10.72	164.87	6.36	-45.2	-56.8	3.8	8.47e-01	0	62	104	2383413248	61	14172
2026-01-25 00:57:11.73	164.93	6.30	-45.2	-56.9	3.8	8.46e-01	0	62	104	2383413248	61	14237
2026-01-25 00:57:12.74	165.00	6.23	-45.1	-56.8	3.8	8.47e-01	0	62	104	2383413248	61	14185
2026-01-25 00:57:13.76	165.07	6.16	-45.1	-56.9	3.8	8.46e-01	0	62	104	2383413248	61	14218
2026-01-25 00:57:14.77	165.13	6.09	-45.1	-56.8	3.8	8.47e-01	0	62	104	2383413248	61	14190
2026-01-25 00:57:15.78	165.20	6.02	-45.1	-56.9	3.8	8.46e-01	0	62	104	2383413248	61	14231
2026-01-25 00:57:16.79	165.26	5.95	-45.1	-56.9	3.8	8.46e-01	0	62	104	2383413248	61	14278
2026-01-25 00:57:17.80	165.33	5.88	-45.1	-56.9	3.8	8.45e-01	0	62	104	2383413248	61	14260
2026-01-25 00:57:18.81	165.39	5.81	-45.1	-56.9	3.8	8.45e-01	0	62	104	2383413248	61	14233
2026-01-25 00:57:19.82	165.45	5.74	-45.1	-56.8	3.8	8.47e-01	0	62	104	2383413248	61	14206
2026-01-25 00:57:20.83	165.52	5.68	-45.1	-56.8	3.8	8.47e-01	0	62	104	2383413248	61	14164
2026-01-25 00:57:21.84	165.58	5.61	-45.1	-56.9	3.8	8.47e-01	0	62	104	2383413248	61	14264
2026-01-25 00:57:22.85	165.64	5.54	-45.1	-56.8	3.8	8.46e-01	0	62	104	2383413248	61	14166
2026-01-25 00:57:23.86	165.71	5.47	-45.1	-56.9	3.8	8.46e-01	0	62	104	2383413248	61	14237
2026-01-25 00:57:24.87	165.77	5.40	-45.1	-56.8	3.8	8.46e-01	0	62	104	2383413248	61	14188
2026-01-25 00:57:25.88	165.83	5.34	-45.1	-56.8	3.8	8.47e-01	0	62	104	2383413248	61	14179
2026-01-25 00:57:26.89	165.89	5.27	-45.1	-56.8	3.8	8.47e-01	0	62	104	2383413248	61	14154
2026-01-25 00:57:27.90	165.96	5.20	-45.1	-56.8	3.8	8.46e-01	0	62	104	2383413248	61	14176
2026-01-25 00:57:28.91	166.02	5.13	-45.1	-56.8	3.8	8.46e-01	0	62	104	2383413248	61	14142
2026-01-25 00:57:29.92	166.08	5.07	-45.1	-56.8	3.8	8.46e-01	0	62	104	2383413248	61	14182
2026-01-25 00:57:30.94	166.14	5.00	-45.1	-56.8	3.8	8.46e-01	0	62	104	2383413248	61	14118
2026-01-25 00:57:31.95	166.20	4.93	-45.1	-56.8	3.8	8.46e-01	0	62	104	2383413248	61	14164
2026-01-25 00:57:32.96	166.26	4.87	-45.1	-56.8	3.8	8.46e-01	0	62	104	2383413248	61	14200
2026-01-25 00:57:33.97	166.32	4.80	-45.1	-56.8	3.8	8.46e-01	0	62	104	2383413248	61	14208
2026-01-25 00:57:34.98	166.38	4.73	-45.1	-56.8	3.8	8.47e-01	0	62	104	2383413248	61	14136
2026-01-25 00:57:35.99	166.44	4.67	-45.1	-56.8	3.8	8.47e-01	0	62	104	2383413248	61	14188
2026-01-25 00:57:37.00	166.50	4.60	-45.1	-56.8	3.8	8.46e-01	0	62	104	2383413248	61	14123
2026-01-25 00:57:38.01	166.56	4.54	-45.1	-56.8	3.8	8.45e-01	0	62	104	2383413248	61	14163
2026-01-25 00:57:39.02	166.62	4.47	-45.1	-56.8	3.8	8.47e-01	0	62	104	2383413248	61	14131
2026-01-25 00:57:40.03	166.68	4.41	-45.1	-56.9	3.8	8.45e-01	0	62	104	2383413248	61	14215
2026-01-25 00:57:41.04	166.73	4.34	-45.1	-56.8	3.8	8.47e-01	0	62	104	2383413248	61	14134
2026-01-25 00:57:42.05	166.79	4.28	-45.1	-56.8	3.8	8.47e-01	0	62	104	2383413248	61	14189
2026-01-25 00:57:43.06	166.85	4.21	-45.1	-56.8	3.8	8.46e-01	0	62	104	2383413248	61	14179
2026-01-25 00:57:44.07	166.91	4.15	-45.1	-56.8	3.8	8.46e-01	0	62	104	2383413248	61	14156
2026-01-25 00:57:45.08	166.97	4.08	-45.1	-56.8	3.8	8.46e-01	0	62	104	2383413248	61	14129
2026-01-25 00:57:46.09	167.02	4.02	-45.1	-56.8	3.8	8.47e-01	0	62	104	2383413248	61	14146
2026-01-25 00:57:47.10	167.08	3.95	-45.1	-56.8	3.8	8.46e-01	0	62	104	2383413248	61	14105
2026-01-25 00:57:48.11	167.14	3.89	-45.1	-56.8	3.8	8.46e-01	0	62	104	2383413248	61	14122
2026-01-25 00:57:49.12	167.19	3.82	-45.1	-56.8	3.8	8.45e-01	0	62	104	2383413248	61	14144
2026-01-25 00:57:50.13	167.25	3.76	-45.1	-56.9	3.8	8.46e-01	0	62	104	2383413248	61	14221
2026-01-25 00:57:51.14	167.31	3.69	-45.1	-56.8	3.8	8.45e-01	0	62	104	2383413248	61	14138
2026-01-25 00:57:52.15	167.36	3.63	-45.1	-56.8	3.8	8.47e-01	0	62	104	2383413248	61	14139
2026-01-25 00:57:53.17	167.42	3.57	-45.1	-56.8	3.8	8.47e-01	0	62	104	2383413248	61	14162
2026-01-25 00:57:54.18	167.47	3.50	-45.1	-56.8	3.8	8.46e-01	0	62	104	2383413248	61	14151
2026-01-25 00:57:55.19	167.53	3.44	-45.1	-56.8	3.8	8.47e-01	0	62	104	2383413248	61	14164
2026-01-25 00:57:56.20	167.58	3.38	-45.1	-56.8	3.8	8.46e-01	0	62	104	2383413248	61	14131
2026-01-25 00:57:57.21	167.64	3.31	-45.1	-56.8	3.8	8.45e-01	0	62	104	2383413248	61	14108
2026-01-25 00:57:58.21	167.69	3.25	-45.1	-56.8	3.8	8.46e-01	0	62	104	2383413248	61	14114
2026-01-25 00:57:59.23	167.75	3.19	-45.1	-56.8	3.8	8.46e-01	0	62	104	2383413248	61	14090
2026-01-25 00:58:00.24	167.80	3.12	-45.1	-56.8	3.8	8.46e-01	0	62	104	2383413248	61	14129
2026-01-25 00:58:01.25	167.85	3.06	-45.1	-56.8	3.8	8.46e-01	0	62	104	2383413248	61	14116
2026-01-25 00:58:02.26	167.91	3.00	-45.1	-56.8	3.8	8.46e-01	0	62	104	2383413248	61	14108
2026-01-25 00:58:03.27	167.96	2.93	-45.1	-56.8	3.8	8.47e-01	0	62	104	2383413248	61	14120
2026-01-25 00:58:04.28	168.01	2.87	-45.1	-56.8	3.8	8.47e-01	0	62	104	2383413248	61	14071
2026-01-25 00:58:05.29	168.07	2.81	-45.1	-56.8	3.8	8.48e-01	0	62	104	2383413248	61	14120
2026-01-25 00:58:06.30	168.12	2.75	-45.1	-56.8	3.8	8.47e-01	0	62	104	2383413248	61	14061
2026-01-25 00:58:07.31	168.17	2.69	-45.1	-56.8	3.8	8.46e-01	0	62	104	2383413248	61	14105
2026-01-25 00:58:08.32	168.22	2.62	-45.1	-56.8	3.8	8.45e-01	0	62	104	2383413248	61	14123
2026-01-25 00:58:09.33	168.27	2.56	-45.1	-56.8	3.8	8.45e-01	0	62	104	2383413248	61	14070
2026-01-25 00:58:10.34	168.33	2.50	-45.1	-56.8	3.8	8.46e-01	0	62	104	2383413248	61	14101
2026-01-25 00:58:11.36	168.38	2.44	-45.1	-56.7	3.8	8.46e-01	0	62	104	2383413248	61	14032
2026-01-25 00:58:12.37	168.43	2.38	-45.1	-56.7	3.8	8.45e-01	0	62	104	2383413248	61	14036
2026-01-25 00:58:13.37	168.48	2.32	-45.1	-56.8	3.8	8.46e-01	0	62	104	2383413248	61	14097
2026-01-25 00:58:14.38	168.53	2.25	-45.1	-56.8	3.8	8.46e-01	0	62	104	2383413248	61	14108
2026-01-25 00:58:15.39	168.58	2.19	-45.1	-56.7	3.8	8.46e-01	0	62	104	2383413248	61	14004
2026-01-25 00:58:16.40	168.63	2.13	-45.1	-56.8	3.8	8.48e-01	0	62	104	2383413248	61	14117
2026-01-25 00:58:17.42	168.68	2.07	-45.1	-56.8	3.8	8.46e-01	0	62	104	2383413248	61	14103
2026-01-25 00:58:18.42	168.73	2.01	-45.1	-56.8	3.8	8.45e-01	0	62	104	2383413248	61	14102
2026-01-25 00:58:19.44	168.78	1.95	-45.1	-56.8	3.8	8.46e-01	0	62	104	2383413248	61	14069

#Closed at: 2026-01-25 00:58:20
#Recorded file [2383 MB]: D:/lorett/data/31039_260125_034859.dat