passes_logs/2026/01/25/R2.0S_Moscow/R2.0S_Moscow__20260125_021355_AQUA_rec.log

#Pass ID: 20260125_021355_AQUA
#Satellite: AQUA
#Configuration: AQUA
#almurnet v.1.7.20251203
#Start time: 2026-01-25 02:13:56

#Version: 2.2.20231116
#Station: R2.0S_Moscow
#Location: 37.707566 lon 55.798166 lat
#TLE: 1 27424U 02022A   26024.53919639  .00001970  00000+0  40397-3 0  9996
#TLE: 2 27424  98.4098 351.1277 0001915  66.8561 358.4840 14.61855303262281

#Time	Az	El	Level	Level2	SNR	BER	BlckErr	Temp	State	Recorded	gain1	gain2
2026-01-25 02:13:56.32	10.65	2.04	-40.7	-59.7	3.8	7.45e-01	0	52	0	0	53	31303
2026-01-25 02:13:57.32	10.60	2.10	-40.7	-59.7	3.8	7.46e-01	0	52	104	0	52	33090
2026-01-25 02:13:58.33	10.56	2.17	-40.7	-59.7	3.8	7.45e-01	0	52	104	0	52	33153
2026-01-25 02:13:59.34	10.52	2.23	-40.7	-59.7	3.8	7.47e-01	0	52	104	0	52	33134
2026-01-25 02:14:00.35	10.48	2.30	-40.7	-59.7	3.8	7.46e-01	0	52	104	0	52	33091
2026-01-25 02:14:01.36	10.43	2.36	-40.7	-59.7	3.8	7.45e-01	0	52	104	0	52	33131
2026-01-25 02:14:02.37	10.39	2.43	-40.7	-59.7	3.8	7.44e-01	0	52	104	0	52	33078
2026-01-25 02:14:03.38	10.35	2.49	-40.7	-59.7	3.8	7.41e-01	0	52	104	0	52	33150
2026-01-25 02:14:04.39	10.30	2.56	-40.7	-59.7	3.8	7.45e-01	0	53	104	0	52	33100
2026-01-25 02:14:05.40	10.26	2.62	-40.7	-59.7	3.8	7.47e-01	0	52	104	0	52	33109
2026-01-25 02:14:06.41	10.22	2.69	-40.7	-59.7	3.8	7.46e-01	0	53	104	0	52	33044
2026-01-25 02:14:07.42	10.17	2.76	-40.7	-59.7	3.8	7.47e-01	0	53	104	0	52	33084
2026-01-25 02:14:08.43	10.13	2.82	-40.6	-59.7	3.8	7.44e-01	0	53	104	0	52	33103
2026-01-25 02:14:09.44	10.08	2.89	-40.7	-59.7	3.8	7.47e-01	0	53	104	0	52	33072
2026-01-25 02:14:10.46	10.04	2.96	-40.7	-59.7	3.8	7.43e-01	0	53	104	0	52	33131
2026-01-25 02:14:11.47	9.99	3.02	-40.7	-59.7	3.8	7.45e-01	0	53	104	0	52	33067
2026-01-25 02:14:12.47	9.95	3.09	-40.7	-59.7	3.8	7.45e-01	0	53	104	0	52	33097
2026-01-25 02:14:13.48	9.90	3.16	-40.7	-59.7	3.8	7.44e-01	0	53	104	0	52	32988
2026-01-25 02:14:14.50	9.86	3.22	-40.7	-59.7	3.8	7.46e-01	0	53	104	0	52	33007
2026-01-25 02:14:15.50	9.81	3.29	-40.7	-59.7	3.8	7.48e-01	0	53	104	0	52	33065
2026-01-25 02:14:16.52	9.76	3.36	-40.7	-59.7	3.8	7.47e-01	0	53	104	0	52	33018
2026-01-25 02:14:17.53	9.72	3.43	-40.6	-59.7	3.8	7.45e-01	0	53	104	0	52	33033
2026-01-25 02:14:18.54	9.67	3.49	-40.6	-59.7	3.8	7.47e-01	0	54	104	0	52	32980
2026-01-25 02:14:19.55	9.62	3.56	-40.7	-59.7	3.8	7.43e-01	0	54	104	0	52	32946
2026-01-25 02:14:20.56	9.58	3.63	-40.6	-59.7	3.8	7.45e-01	0	54	104	0	52	33037
2026-01-25 02:14:21.57	9.53	3.70	-40.6	-59.7	3.8	7.44e-01	0	54	104	0	52	33042
2026-01-25 02:14:22.58	9.48	3.77	-40.6	-59.7	3.8	7.44e-01	0	54	104	0	52	33030
2026-01-25 02:14:23.59	9.43	3.83	-40.7	-59.7	3.8	7.44e-01	0	54	104	0	52	32933
2026-01-25 02:14:24.60	9.38	3.90	-40.6	-59.7	3.8	7.46e-01	0	54	104	0	52	33040
2026-01-25 02:14:25.61	9.34	3.97	-40.6	-59.7	3.8	7.46e-01	0	54	104	0	52	32950
2026-01-25 02:14:26.62	9.29	4.04	-40.6	-59.7	3.8	7.46e-01	0	54	104	0	52	32993
2026-01-25 02:14:27.63	9.24	4.11	-40.6	-59.7	3.8	7.45e-01	0	54	104	0	52	32984
2026-01-25 02:14:28.64	9.19	4.18	-40.6	-59.7	3.8	7.46e-01	0	54	104	0	52	33074
2026-01-25 02:14:29.65	9.14	4.25	-40.6	-59.7	3.8	7.43e-01	0	54	104	0	52	32963
2026-01-25 02:14:30.66	9.09	4.32	-40.6	-59.7	3.8	7.44e-01	0	54	104	0	52	33041
2026-01-25 02:14:31.68	9.04	4.39	-40.6	-59.7	3.8	7.42e-01	0	54	104	0	52	33030
2026-01-25 02:14:32.69	8.99	4.46	-40.6	-59.7	3.8	7.45e-01	0	54	104	0	52	32962
2026-01-25 02:14:33.69	8.94	4.53	-40.6	-59.7	3.8	7.45e-01	0	54	104	0	52	32946
2026-01-25 02:14:34.70	8.89	4.60	-40.6	-59.7	3.8	7.41e-01	0	54	104	0	52	32987
2026-01-25 02:14:35.71	8.83	4.67	-40.6	-59.7	3.8	7.47e-01	0	55	104	0	52	32997
2026-01-25 02:14:36.72	8.78	4.74	-40.7	-59.7	3.8	7.48e-01	0	55	104	0	52	33023
2026-01-25 02:14:37.73	8.73	4.81	-40.6	-59.7	3.8	7.44e-01	0	55	104	0	52	33048
2026-01-25 02:14:38.74	8.68	4.88	-40.6	-59.7	3.8	7.46e-01	0	55	104	0	52	32959
2026-01-25 02:14:39.75	8.62	4.95	-40.6	-59.7	3.8	7.45e-01	0	54	104	0	52	33042
2026-01-25 02:14:40.76	8.57	5.03	-40.6	-59.7	3.8	7.44e-01	0	55	104	0	52	32944
2026-01-25 02:14:41.77	8.52	5.10	-40.6	-59.7	3.8	7.44e-01	0	55	104	0	52	32974
2026-01-25 02:14:42.78	8.46	5.17	-40.6	-59.7	3.8	7.46e-01	0	55	104	0	52	32934
2026-01-25 02:14:43.79	8.41	5.24	-40.6	-59.7	3.8	7.46e-01	0	55	104	0	52	32955
2026-01-25 02:14:44.80	8.36	5.32	-40.6	-59.7	3.8	7.46e-01	0	55	104	0	52	32938
2026-01-25 02:14:45.81	8.30	5.39	-40.7	-59.7	3.8	7.43e-01	0	55	104	0	52	33006
2026-01-25 02:14:46.82	8.25	5.46	-40.6	-59.7	3.8	7.46e-01	0	55	104	0	52	32995
2026-01-25 02:14:47.84	8.19	5.53	-40.6	-59.7	3.8	7.46e-01	0	55	104	0	52	32940
2026-01-25 02:14:48.85	8.14	5.61	-40.6	-59.7	3.8	7.46e-01	0	55	104	0	52	32941
2026-01-25 02:14:49.86	8.08	5.68	-40.6	-59.7	3.8	7.46e-01	0	55	104	0	52	32951
2026-01-25 02:14:50.87	8.02	5.75	-40.6	-59.7	3.8	7.44e-01	0	55	104	0	52	32970
2026-01-25 02:14:51.88	7.97	5.83	-40.6	-59.7	3.8	7.42e-01	0	55	104	0	52	32930
2026-01-25 02:14:52.89	7.91	5.90	-40.7	-59.7	3.8	7.43e-01	0	55	104	0	52	33062
2026-01-25 02:14:53.90	7.85	5.98	-40.6	-59.7	3.8	7.44e-01	0	55	104	0	52	33013
2026-01-25 02:14:54.91	7.80	6.05	-40.7	-59.7	3.8	7.49e-01	0	55	104	0	52	32972
2026-01-25 02:14:55.92	7.74	6.13	-40.7	-59.7	3.8	7.48e-01	0	56	104	0	52	33033
2026-01-25 02:14:56.93	7.68	6.20	-40.6	-59.7	3.8	7.43e-01	0	56	104	0	52	32995
2026-01-25 02:14:57.94	7.62	6.28	-40.6	-59.7	3.8	7.45e-01	0	56	104	0	52	32982
2026-01-25 02:14:58.95	7.56	6.35	-40.6	-59.7	3.8	7.49e-01	0	56	104	0	52	32963
2026-01-25 02:14:59.97	7.50	6.43	-40.6	-59.7	3.8	7.44e-01	0	56	104	0	52	32945
2026-01-25 02:15:00.98	7.44	6.50	-40.7	-59.7	3.8	7.47e-01	0	56	104	0	52	32969
2026-01-25 02:15:01.99	7.38	6.58	-40.7	-59.7	3.8	7.45e-01	0	56	104	0	52	32975
2026-01-25 02:15:03.00	7.32	6.66	-40.7	-59.7	3.8	7.46e-01	0	56	104	0	52	32991
2026-01-25 02:15:04.01	7.26	6.73	-40.6	-59.7	3.8	7.45e-01	0	56	104	0	52	32979
2026-01-25 02:15:05.02	7.20	6.81	-40.6	-59.7	3.8	7.46e-01	0	56	104	0	52	33003
2026-01-25 02:15:06.03	7.14	6.88	-40.6	-59.7	3.8	7.46e-01	0	56	104	0	52	32994
2026-01-25 02:15:07.04	7.08	6.96	-40.6	-59.7	3.8	7.45e-01	0	56	104	0	52	33016
2026-01-25 02:15:08.05	7.01	7.04	-40.6	-59.7	3.8	7.45e-01	0	56	104	0	52	32978
2026-01-25 02:15:09.06	6.95	7.12	-40.6	-59.7	3.8	7.45e-01	0	56	104	0	52	32971
2026-01-25 02:15:10.07	6.89	7.19	-40.6	-59.7	3.8	7.43e-01	0	56	104	0	52	32956
2026-01-25 02:15:11.08	6.83	7.27	-40.6	-59.7	3.8	7.47e-01	0	56	104	0	52	32940
2026-01-25 02:15:12.09	6.76	7.35	-40.6	-59.7	3.8	7.47e-01	0	56	104	0	52	32986
2026-01-25 02:15:13.10	6.70	7.43	-40.6	-59.7	3.8	7.47e-01	0	56	104	0	52	33034
2026-01-25 02:15:14.11	6.63	7.51	-40.6	-59.7	3.8	7.46e-01	0	56	104	0	52	32993
2026-01-25 02:15:15.12	6.57	7.59	-40.6	-59.7	3.8	7.47e-01	0	56	104	0	52	32986
2026-01-25 02:15:16.13	6.50	7.67	-40.6	-59.6	3.8	7.47e-01	0	56	104	0	52	32891
2026-01-25 02:15:17.15	6.44	7.75	-40.6	-59.7	3.8	7.48e-01	0	56	104	0	52	32962
2026-01-25 02:15:18.16	6.37	7.83	-40.6	-59.7	3.8	7.44e-01	0	57	104	0	52	32968
2026-01-25 02:15:19.17	6.30	7.91	-40.6	-59.6	3.8	7.47e-01	0	56	104	0	52	32910
2026-01-25 02:15:20.18	6.24	7.99	-40.6	-59.6	3.8	7.45e-01	0	57	104	0	52	32916
2026-01-25 02:15:21.19	6.17	8.07	-40.6	-59.7	3.8	7.42e-01	0	57	104	0	52	32949
2026-01-25 02:15:22.20	6.10	8.15	-40.7	-59.7	3.8	7.45e-01	0	57	104	0	52	33103
2026-01-25 02:15:23.21	6.03	8.23	-40.8	-59.8	3.8	7.42e-01	0	57	104	0	52	33512
2026-01-25 02:15:24.22	5.96	8.31	-40.8	-59.8	3.8	7.47e-01	0	57	104	0	52	33392
2026-01-25 02:15:25.23	5.89	8.39	-40.9	-59.9	3.8	7.44e-01	0	57	104	0	52	33791
2026-01-25 02:15:26.24	5.82	8.47	-40.7	-59.7	3.8	7.44e-01	0	57	104	0	52	33299
2026-01-25 02:15:27.25	5.75	8.55	-40.8	-59.9	3.8	7.43e-01	0	57	104	0	52	33823
2026-01-25 02:15:28.26	5.68	8.64	-40.8	-59.8	3.8	7.45e-01	0	57	104	0	52	33420
2026-01-25 02:15:29.27	5.61	8.72	-40.8	-59.9	3.8	7.42e-01	0	57	104	0	52	33810
2026-01-25 02:15:30.28	5.54	8.80	-40.7	-59.7	3.8	7.45e-01	0	57	104	0	52	33305
2026-01-25 02:15:31.29	5.47	8.88	-40.9	-59.9	3.8	7.43e-01	0	57	104	0	52	33901
2026-01-25 02:15:32.30	5.40	8.97	-40.8	-59.8	3.8	7.44e-01	0	57	104	0	52	33511
2026-01-25 02:15:33.31	5.32	9.05	-40.9	-60.0	3.8	7.43e-01	0	57	104	0	52	34155
2026-01-25 02:15:34.32	5.25	9.13	-40.7	-59.7	3.8	7.44e-01	0	57	104	0	52	33252
2026-01-25 02:15:35.33	5.18	9.22	-40.9	-59.9	3.8	7.45e-01	0	57	104	0	52	34032
2026-01-25 02:15:36.34	5.10	9.30	-40.8	-59.8	3.8	7.42e-01	0	57	104	0	52	33541
2026-01-25 02:15:37.35	5.03	9.39	-41.0	-60.0	3.8	7.47e-01	0	57	104	0	52	34354
2026-01-25 02:15:38.35	4.95	9.47	-40.7	-59.7	3.8	7.45e-01	0	57	104	0	52	33262
2026-01-25 02:15:39.36	4.88	9.56	-40.9	-60.0	3.8	7.43e-01	0	57	104	0	52	34156
2026-01-25 02:15:40.37	4.80	9.64	-40.8	-59.8	3.8	7.46e-01	0	57	104	0	52	33618
2026-01-25 02:15:41.38	4.72	9.73	-41.0	-60.1	3.8	7.45e-01	0	57	104	0	53	32609
2026-01-25 02:15:42.39	4.65	9.81	-40.8	-59.8	3.8	7.47e-01	0	57	104	0	53	31682
2026-01-25 02:15:43.41	4.57	9.90	-41.1	-60.1	3.8	7.47e-01	0	57	104	0	53	32592
2026-01-25 02:15:44.42	4.49	9.99	-40.9	-59.9	3.8	7.46e-01	0	57	104	0	53	32155
2026-01-25 02:15:45.42	4.41	10.07	-41.1	-60.1	3.8	7.45e-01	0	57	104	0	53	32774
2026-01-25 02:15:46.43	4.33	10.16	-40.8	-59.8	3.8	7.44e-01	0	57	104	0	53	31676
2026-01-25 02:15:47.45	4.25	10.25	-40.7	-59.8	3.8	7.45e-01	0	57	104	0	53	31567
2026-01-25 02:15:48.46	4.17	10.34	-40.7	-59.8	3.8	7.48e-01	0	57	104	0	53	31455
2026-01-25 02:15:49.46	4.09	10.42	-40.7	-59.8	3.8	7.46e-01	0	57	104	0	53	31563
2026-01-25 02:15:50.47	4.01	10.51	-40.8	-59.8	3.8	7.44e-01	0	58	104	0	53	31676
2026-01-25 02:15:51.48	3.92	10.60	-41.1	-60.1	3.8	7.44e-01	0	57	104	0	53	32628
2026-01-25 02:15:52.50	3.84	10.69	-41.3	-60.4	3.8	7.49e-01	0	58	104	0	53	33831
2026-01-25 02:15:53.50	3.76	10.78	-41.0	-60.0	3.8	7.46e-01	0	58	104	0	53	32249
2026-01-25 02:15:54.51	3.67	10.87	-40.9	-59.9	3.8	7.45e-01	0	58	104	0	53	32090
2026-01-25 02:15:55.52	3.59	10.96	-40.9	-59.9	3.8	7.47e-01	0	58	104	0	53	32034
2026-01-25 02:15:56.53	3.50	11.05	-40.9	-59.9	3.8	7.45e-01	0	58	104	0	53	31986
2026-01-25 02:15:57.54	3.42	11.14	-41.0	-60.0	3.8	7.44e-01	0	58	104	0	53	32319
2026-01-25 02:15:58.55	3.33	11.23	-41.0	-60.0	3.8	7.45e-01	0	58	104	0	53	32416
2026-01-25 02:15:59.56	3.25	11.32	-41.5	-60.4	3.8	7.46e-01	0	58	104	0	53	33995
2026-01-25 02:16:00.57	3.16	11.41	-41.5	-60.5	3.8	7.45e-01	0	58	104	0	54	32507
2026-01-25 02:16:01.58	3.07	11.50	-41.1	-60.1	3.8	7.45e-01	0	58	104	0	54	30858
2026-01-25 02:16:02.59	2.98	11.59	-41.0	-60.0	3.8	7.48e-01	0	58	104	0	53	32362
2026-01-25 02:16:03.60	2.89	11.69	-41.0	-60.0	3.8	7.42e-01	0	58	104	0	53	32418
2026-01-25 02:16:04.61	2.80	11.78	-41.0	-60.0	3.8	7.45e-01	0	58	104	0	53	32462
2026-01-25 02:16:05.62	2.71	11.87	-41.2	-60.0	3.8	7.47e-01	0	58	104	0	53	32250
2026-01-25 02:16:06.63	2.62	11.97	-41.2	-60.1	3.8	7.44e-01	0	58	104	0	53	32557
2026-01-25 02:16:07.64	2.53	12.06	-41.8	-60.8	3.8	7.42e-01	0	58	104	0	54	33637
2026-01-25 02:16:08.65	2.43	12.15	-41.8	-60.7	3.8	7.44e-01	0	58	104	0	55	31174
2026-01-25 02:16:09.66	2.34	12.25	-41.3	-60.1	3.8	7.45e-01	0	58	104	0	54	30873
2026-01-25 02:16:10.67	2.25	12.34	-41.3	-59.9	3.8	7.45e-01	0	58	104	0	54	30347
2026-01-25 02:16:11.67	2.15	12.44	-41.4	-59.5	3.8	7.45e-01	0	58	104	0	54	28950
2026-01-25 02:16:12.68	2.06	12.53	-41.4	-60.0	3.8	7.48e-01	0	58	104	0	54	30412
2026-01-25 02:16:13.69	1.96	12.63	-41.6	-59.8	3.8	7.46e-01	0	58	104	0	54	29825
2026-01-25 02:16:14.70	1.87	12.72	-41.5	-59.8	3.8	7.46e-01	0	58	104	0	54	29730
2026-01-25 02:16:15.71	1.77	12.82	-42.4	-57.8	4.0	7.37e-01	0	58	104	0	55	22265
2026-01-25 02:16:16.72	1.67	12.91	-43.4	-55.5	5.9	6.86e-01	0	58	0	0	57	15356
2026-01-25 02:16:17.73	1.57	13.01	-42.8	-60.3	3.8	7.48e-01	0	58	104	1048576	57	26725
2026-01-25 02:16:18.74	1.47	13.11	-43.0	-54.4	4.3	7.12e-01	0	58	104	1048576	56	14366
2026-01-25 02:16:19.75	1.37	13.21	-43.0	-52.4	8.7	6.32e-01	3	59	0	2097152	56	11311
2026-01-25 02:16:20.76	1.27	13.30	-43.0	-51.7	9.5	6.23e-01	0	58	0	4194304	56	10478
2026-01-25 02:16:21.77	1.17	13.40	-42.8	-50.6	10.6	6.16e-01	0	58	0	5767168	56	9219
2026-01-25 02:16:22.78	1.07	13.50	-42.4	-49.1	12.3	6.05e-01	0	58	0	7864320	56	7737
2026-01-25 02:16:23.79	0.96	13.60	-42.0	-47.6	13.8	6.03e-01	0	58	0	9961472	56	6540
2026-01-25 02:16:24.80	0.86	13.70	-41.3	-45.9	15.5	6.00e-01	0	58	0	11534336	54	6042
2026-01-25 02:16:25.81	0.75	13.80	-40.7	-44.7	16.7	6.01e-01	0	58	0	13631488	53	5568
2026-01-25 02:16:26.82	0.65	13.90	-40.3	-44.0	17.5	6.02e-01	0	58	0	15728640	52	5420
2026-01-25 02:16:27.83	0.54	14.00	-40.2	-43.7	17.8	6.01e-01	0	58	0	17301504	52	5245
2026-01-25 02:16:28.84	0.43	14.10	-40.3	-43.8	17.7	6.01e-01	0	59	0	19398656	52	5321
2026-01-25 02:16:29.85	0.33	14.20	-40.4	-44.1	17.4	6.01e-01	0	59	0	20971520	52	5504
2026-01-25 02:16:30.86	0.22	14.30	-40.7	-44.6	17.0	6.01e-01	0	59	0	23068672	52	5817
2026-01-25 02:16:31.87	0.11	14.41	-40.7	-44.6	17.0	6.02e-01	0	59	0	25165824	52	5806
2026-01-25 02:16:32.88	360.00	14.51	-40.9	-44.7	17.1	6.03e-01	0	58	0	26738688	52	5884
2026-01-25 02:16:33.89	359.89	14.61	-40.8	-44.6	17.2	6.02e-01	0	59	0	28835840	52	5797
2026-01-25 02:16:34.90	359.77	14.71	-40.6	-44.1	17.7	6.02e-01	0	59	0	30408704	52	5509
2026-01-25 02:16:35.91	359.66	14.82	-40.7	-44.3	17.5	6.02e-01	0	58	0	32505856	52	5620
2026-01-25 02:16:36.92	359.55	14.92	-40.7	-44.3	17.7	6.02e-01	0	59	0	34603008	52	5600
2026-01-25 02:16:37.93	359.43	15.03	-40.9	-44.5	17.5	6.02e-01	0	59	0	36175872	52	5731
2026-01-25 02:16:38.94	359.32	15.13	-40.9	-44.4	17.6	6.01e-01	0	59	0	38273024	52	5705
2026-01-25 02:16:39.95	359.20	15.24	-40.8	-44.2	17.8	6.00e-01	0	59	0	39845888	52	5592
2026-01-25 02:16:40.96	359.08	15.34	-40.9	-44.4	17.7	6.04e-01	0	59	0	41943040	52	5678
2026-01-25 02:16:41.97	358.96	15.45	-40.9	-44.4	17.8	6.02e-01	0	59	0	44040192	52	5664
2026-01-25 02:16:42.98	358.84	15.55	-41.0	-44.5	17.7	6.01e-01	0	59	0	45613056	52	5776
2026-01-25 02:16:43.98	358.72	15.66	-40.9	-44.3	17.9	6.02e-01	0	59	0	47710208	52	5624
2026-01-25 02:16:44.99	358.60	15.77	-40.8	-44.2	18.0	6.01e-01	0	59	0	49283072	52	5569
2026-01-25 02:16:46.00	358.48	15.87	-40.9	-44.3	18.0	5.99e-01	0	59	0	51380224	52	5607
2026-01-25 02:16:47.02	358.36	15.98	-40.9	-44.3	17.9	5.99e-01	0	59	0	53477376	52	5640
2026-01-25 02:16:48.03	358.23	16.09	-40.8	-44.3	17.9	5.99e-01	0	59	0	55050240	52	5615
2026-01-25 02:16:49.04	358.11	16.20	-40.7	-44.1	18.1	5.99e-01	0	59	0	57147392	52	5495
2026-01-25 02:16:50.05	357.98	16.31	-40.9	-44.4	17.8	6.00e-01	0	59	0	59244544	52	5673
2026-01-25 02:16:51.06	357.85	16.42	-40.9	-44.4	17.7	6.02e-01	0	59	0	60817408	52	5714
2026-01-25 02:16:52.06	357.73	16.53	-40.8	-44.4	17.7	6.00e-01	0	59	0	62914560	52	5682
2026-01-25 02:16:53.08	357.60	16.64	-40.7	-44.1	17.9	6.02e-01	0	59	0	64487424	52	5527
2026-01-25 02:16:54.08	357.47	16.75	-40.6	-44.1	17.8	6.03e-01	0	59	0	66584576	52	5502
2026-01-25 02:16:55.09	357.34	16.86	-40.6	-44.2	17.7	6.02e-01	0	59	0	68681728	52	5556
2026-01-25 02:16:56.10	357.20	16.97	-40.5	-44.0	17.9	6.02e-01	0	59	0	70254592	52	5416
2026-01-25 02:16:57.11	357.07	17.08	-40.5	-44.1	17.7	6.04e-01	0	59	0	72351744	52	5470
2026-01-25 02:16:58.12	356.94	17.19	-40.5	-44.0	17.7	6.01e-01	0	59	0	73924608	52	5445
2026-01-25 02:16:59.13	356.80	17.30	-40.3	-43.7	17.9	6.02e-01	0	59	0	76021760	52	5279
2026-01-25 02:17:00.14	356.66	17.42	-40.3	-43.9	17.7	6.00e-01	0	59	0	78118912	52	5376
2026-01-25 02:17:01.15	356.53	17.53	-40.5	-44.4	17.1	6.01e-01	0	59	0	79691776	52	5700
2026-01-25 02:17:02.15	356.39	17.64	-40.8	-45.1	16.2	6.00e-01	0	59	0	81788928	52	6172
2026-01-25 02:17:03.16	356.25	17.76	-41.2	-46.3	14.9	6.04e-01	0	59	0	83886080	52	7100
2026-01-25 02:17:04.17	356.11	17.87	-41.6	-48.0	12.9	6.03e-01	0	59	0	85458944	53	8148
2026-01-25 02:17:05.18	355.96	17.99	-42.0	-49.9	10.8	6.11e-01	0	59	0	87556096	54	9532
2026-01-25 02:17:06.19	355.82	18.10	-42.1	-51.4	9.1	6.30e-01	0	59	0	89128960	54	11327
2026-01-25 02:17:07.20	355.68	18.22	-42.2	-52.9	7.4	6.57e-01	92	59	0	91226112	54	13519
2026-01-25 02:17:08.21	355.53	18.34	-42.3	-56.2	5.0	7.12e-01	0	59	0	92274688	55	18628
2026-01-25 02:17:09.22	355.38	18.45	-42.3	-59.3	3.9	7.44e-01	0	59	104	92274688	55	26740
2026-01-25 02:17:10.23	355.23	18.57	-42.3	-59.3	3.9	7.42e-01	0	59	104	92274688	55	26566
2026-01-25 02:17:11.24	355.08	18.69	-42.3	-60.5	3.8	7.45e-01	0	59	104	92274688	55	30431
2026-01-25 02:17:12.25	354.93	18.80	-42.4	-60.0	3.8	7.46e-01	0	59	104	92274688	55	28856
2026-01-25 02:17:13.26	354.78	18.92	-42.8	-61.7	3.8	7.45e-01	0	59	104	92274688	56	32952
2026-01-25 02:17:14.27	354.63	19.04	-42.8	-57.9	4.4	7.26e-01	0	59	104	92274688	57	20073
2026-01-25 02:17:15.28	354.47	19.16	-42.1	-60.9	3.8	7.48e-01	0	59	104	92274688	56	30277
2026-01-25 02:17:16.29	354.32	19.28	-42.9	-58.8	4.1	7.35e-01	0	59	104	92274688	56	23671
2026-01-25 02:17:17.30	354.16	19.40	-42.9	-60.6	3.8	7.48e-01	0	60	104	92274688	56	29107
2026-01-25 02:17:18.31	354.00	19.52	-43.1	-60.6	3.8	7.45e-01	0	59	104	92274688	56	29150
2026-01-25 02:17:19.31	353.84	19.64	-43.9	-62.4	3.8	7.44e-01	0	59	104	92274688	58	32028
2026-01-25 02:17:20.32	353.68	19.76	-42.5	-61.5	3.8	7.46e-01	0	60	104	92274688	57	30566
2026-01-25 02:17:21.33	353.52	19.88	-42.6	-61.4	3.8	7.45e-01	0	59	104	92274688	57	30307
2026-01-25 02:17:22.34	353.35	20.01	-42.8	-56.9	4.9	7.15e-01	0	59	0	92274688	57	17903
2026-01-25 02:17:23.35	353.19	20.13	-42.2	-59.3	3.9	7.41e-01	0	59	104	92274688	56	25264
2026-01-25 02:17:24.36	353.02	20.25	-43.1	-54.7	6.4	6.73e-01	92	60	0	92274688	56	14756
2026-01-25 02:17:25.37	352.85	20.38	-43.3	-55.3	6.1	6.85e-01	75	60	0	94371840	57	14985
2026-01-25 02:17:26.39	352.68	20.50	-43.4	-56.8	4.1	7.34e-01	0	60	104	94896128	57	17764
2026-01-25 02:17:27.40	352.51	20.63	-43.5	-55.5	5.9	6.85e-01	65	60	0	95420416	57	15352
2026-01-25 02:17:28.40	352.34	20.75	-43.3	-54.0	7.2	6.56e-01	90	60	0	96993280	57	12871
2026-01-25 02:17:29.41	352.16	20.87	-43.1	-52.1	9.2	6.30e-01	0	60	0	99090432	57	10411
2026-01-25 02:17:30.42	351.99	21.00	-42.9	-50.6	10.7	6.12e-01	0	60	0	101187584	57	8727
2026-01-25 02:17:31.43	351.81	21.12	-42.7	-49.7	11.7	6.12e-01	0	59	0	102760448	57	7891
2026-01-25 02:17:32.44	351.63	21.25	-42.2	-48.3	13.3	6.06e-01	0	60	0	104857600	56	7063
2026-01-25 02:17:33.45	351.45	21.38	-41.7	-46.9	14.6	6.03e-01	0	60	0	106430464	55	6371
2026-01-25 02:17:34.46	351.27	21.51	-41.3	-45.8	15.7	6.03e-01	0	60	0	108527616	54	5962
2026-01-25 02:17:35.47	351.08	21.63	-40.8	-44.8	16.7	6.05e-01	0	60	0	110624768	53	5634
2026-01-25 02:17:36.48	350.90	21.76	-40.5	-44.2	17.4	6.03e-01	0	60	0	112197632	53	5242
2026-01-25 02:17:37.49	350.71	21.89	-40.5	-44.1	17.4	6.03e-01	0	59	0	114294784	52	5526
2026-01-25 02:17:38.50	350.52	22.02	-40.6	-44.3	17.4	6.04e-01	0	60	0	116391936	52	5635
2026-01-25 02:17:39.51	350.33	22.15	-40.6	-44.2	17.6	6.03e-01	0	60	0	117964800	52	5576
2026-01-25 02:17:40.52	350.14	22.28	-40.6	-44.0	18.0	6.06e-01	0	60	0	120061952	52	5428
2026-01-25 02:17:41.53	349.94	22.41	-40.4	-43.7	18.3	6.05e-01	0	60	0	121634816	52	5240
2026-01-25 02:17:42.54	349.75	22.54	-40.6	-44.0	18.1	6.04e-01	0	60	0	123731968	52	5430
2026-01-25 02:17:43.55	349.55	22.67	-40.9	-44.4	17.9	6.04e-01	0	59	0	125829120	52	5685
2026-01-25 02:17:44.56	349.35	22.80	-41.1	-44.7	17.7	6.04e-01	0	60	0	127401984	52	5873
2026-01-25 02:17:45.56	349.15	22.93	-41.3	-44.8	17.7	6.05e-01	0	60	0	129499136	53	5647
2026-01-25 02:17:46.57	348.95	23.06	-41.2	-44.7	17.9	6.03e-01	0	60	0	131072000	53	5555
2026-01-25 02:17:47.58	348.74	23.19	-41.2	-44.5	18.2	6.03e-01	0	60	0	133169152	53	5429
2026-01-25 02:17:48.59	348.54	23.32	-41.4	-44.8	18.1	6.04e-01	0	59	0	135266304	53	5594
2026-01-25 02:17:49.60	348.33	23.46	-41.5	-45.1	17.7	6.03e-01	0	60	0	136839168	53	5800
2026-01-25 02:17:50.61	348.12	23.59	-41.4	-44.8	18.0	6.03e-01	0	60	0	138936320	53	5624
2026-01-25 02:17:51.62	347.91	23.72	-41.3	-44.5	18.3	6.04e-01	0	60	0	141033472	53	5460
2026-01-25 02:17:52.63	347.69	23.86	-41.4	-44.7	18.3	6.04e-01	0	60	0	142606336	53	5559
2026-01-25 02:17:53.64	347.47	23.99	-41.3	-44.6	18.5	6.04e-01	0	60	0	144703488	53	5475
2026-01-25 02:17:54.65	347.26	24.12	-41.4	-44.6	18.4	6.03e-01	0	60	0	146276352	53	5492
2026-01-25 02:17:55.66	347.04	24.26	-41.4	-44.6	18.5	6.04e-01	0	60	0	148373504	53	5486
2026-01-25 02:17:56.67	346.81	24.39	-41.3	-44.5	18.5	6.03e-01	0	60	0	150470656	53	5433
2026-01-25 02:17:57.68	346.59	24.53	-41.4	-44.6	18.5	6.05e-01	0	60	0	152043520	53	5480
2026-01-25 02:17:58.69	346.36	24.67	-41.4	-44.5	18.6	6.02e-01	0	60	0	154140672	53	5452
2026-01-25 02:17:59.70	346.14	24.80	-41.4	-44.5	18.6	6.03e-01	0	60	0	155713536	53	5436
2026-01-25 02:18:00.71	345.91	24.94	-41.4	-44.5	18.7	6.04e-01	0	60	0	157810688	53	5447
2026-01-25 02:18:01.72	345.67	25.07	-41.3	-44.4	18.8	6.01e-01	0	60	0	159907840	53	5382
2026-01-25 02:18:02.73	345.44	25.21	-41.4	-44.5	18.7	6.04e-01	0	60	0	161480704	53	5426
2026-01-25 02:18:03.74	345.20	25.35	-41.4	-44.5	18.7	6.03e-01	0	60	0	163577856	53	5460
2026-01-25 02:18:04.74	344.96	25.48	-41.4	-44.6	18.7	6.03e-01	0	60	0	165150720	53	5473
2026-01-25 02:18:05.76	344.72	25.62	-41.4	-44.6	18.7	6.04e-01	0	60	0	167247872	53	5481
2026-01-25 02:18:06.76	344.48	25.76	-41.4	-44.6	18.7	6.03e-01	0	60	0	169345024	53	5466
2026-01-25 02:18:07.77	344.23	25.90	-41.4	-44.5	18.8	6.01e-01	0	60	0	170917888	53	5464
2026-01-25 02:18:08.78	343.99	26.03	-41.4	-44.4	19.0	6.05e-01	0	60	0	173015040	53	5365
2026-01-25 02:18:09.79	343.74	26.17	-41.4	-44.5	18.9	6.04e-01	0	60	0	174587904	53	5421
2026-01-25 02:18:10.80	343.48	26.31	-41.5	-44.5	18.9	6.03e-01	0	60	0	176685056	53	5452
2026-01-25 02:18:11.81	343.23	26.45	-41.4	-44.4	19.0	6.06e-01	0	60	0	178782208	53	5398
2026-01-25 02:18:12.82	342.97	26.59	-41.4	-44.4	19.0	6.05e-01	0	60	0	180355072	53	5382
2026-01-25 02:18:13.83	342.71	26.73	-41.3	-44.3	19.2	6.04e-01	0	60	0	182452224	53	5295
2026-01-25 02:18:14.84	342.45	26.87	-41.4	-44.3	19.2	6.02e-01	0	60	0	184549376	53	5323
2026-01-25 02:18:15.85	342.19	27.01	-41.4	-44.3	19.2	6.03e-01	0	60	0	186122240	53	5306
2026-01-25 02:18:16.86	341.92	27.14	-41.4	-44.3	19.3	6.03e-01	0	60	0	188219392	53	5305
2026-01-25 02:18:17.87	341.65	27.28	-41.4	-44.4	19.2	6.05e-01	0	60	0	189792256	53	5377
2026-01-25 02:18:18.88	341.38	27.42	-41.4	-44.4	19.2	6.02e-01	0	60	0	191889408	53	5383
2026-01-25 02:18:19.89	341.10	27.56	-41.5	-44.4	19.1	6.04e-01	0	60	0	193986560	53	5389
2026-01-25 02:18:20.90	340.83	27.70	-41.4	-44.3	19.3	6.04e-01	0	60	0	195559424	53	5338
2026-01-25 02:18:21.91	340.55	27.84	-41.4	-44.3	19.3	6.05e-01	0	60	0	197656576	53	5299
2026-01-25 02:18:22.92	340.27	27.98	-41.4	-44.3	19.3	6.04e-01	0	60	0	199229440	53	5299
2026-01-25 02:18:23.93	339.98	28.12	-41.3	-44.2	19.5	6.04e-01	0	60	0	201326592	53	5228
2026-01-25 02:18:24.93	339.70	28.26	-41.2	-44.0	19.7	6.06e-01	0	60	0	203423744	53	5117
2026-01-25 02:18:25.94	339.41	28.40	-41.2	-44.0	19.6	6.05e-01	0	60	0	204996608	53	5157
2026-01-25 02:18:26.95	339.12	28.54	-41.2	-44.0	19.6	6.04e-01	0	60	0	207093760	53	5147
2026-01-25 02:18:27.96	338.82	28.68	-41.2	-44.1	19.6	6.03e-01	0	60	0	209190912	53	5170
2026-01-25 02:18:28.97	338.52	28.82	-41.2	-44.0	19.7	6.02e-01	0	60	0	210763776	53	5122
2026-01-25 02:18:29.98	338.22	28.96	-41.2	-43.9	19.8	6.03e-01	0	60	0	212860928	53	5077
2026-01-25 02:18:30.99	337.92	29.10	-41.2	-44.0	19.7	6.05e-01	0	60	0	214433792	53	5114
2026-01-25 02:18:32.00	337.61	29.24	-41.2	-44.0	19.7	6.05e-01	0	60	0	216530944	53	5123
2026-01-25 02:18:33.01	337.31	29.37	-41.2	-43.9	19.6	6.02e-01	0	60	0	218628096	53	5080
2026-01-25 02:18:34.02	336.99	29.51	-41.3	-44.1	19.5	6.05e-01	0	60	0	220200960	53	5176
2026-01-25 02:18:35.03	336.68	29.65	-41.3	-44.1	19.5	6.03e-01	0	60	0	222298112	53	5161
2026-01-25 02:18:36.04	336.36	29.79	-41.2	-44.0	19.6	6.02e-01	0	60	0	223870976	53	5123
2026-01-25 02:18:37.05	336.04	29.93	-41.2	-44.0	19.6	6.05e-01	0	60	0	225968128	53	5139
2026-01-25 02:18:38.06	335.72	30.07	-41.1	-43.8	19.8	6.03e-01	0	60	0	228065280	53	4995
2026-01-25 02:18:39.07	335.39	30.20	-41.1	-43.8	19.9	6.04e-01	0	60	0	229638144	53	5012
2026-01-25 02:18:40.08	335.07	30.34	-41.2	-43.9	19.7	6.04e-01	0	60	0	231735296	53	5088
2026-01-25 02:18:41.09	334.73	30.48	-41.1	-43.8	19.8	6.02e-01	0	60	0	233308160	53	5029
2026-01-25 02:18:42.10	334.40	30.61	-41.3	-44.0	19.6	6.05e-01	0	60	0	235405312	53	5155
2026-01-25 02:18:43.11	334.06	30.75	-41.2	-43.9	19.7	6.03e-01	0	60	0	237502464	53	5089
2026-01-25 02:18:44.12	333.72	30.88	-41.2	-44.0	19.7	6.05e-01	0	60	0	239075328	53	5116
2026-01-25 02:18:45.13	333.38	31.02	-41.1	-43.8	19.7	6.04e-01	0	60	0	241172480	53	5025
2026-01-25 02:18:46.14	333.03	31.15	-41.1	-43.7	19.9	6.02e-01	0	60	0	242745344	53	4980
2026-01-25 02:18:47.14	332.69	31.29	-41.1	-43.8	19.8	6.04e-01	0	60	0	244842496	53	5031
2026-01-25 02:18:48.15	332.33	31.42	-41.1	-43.7	19.9	6.05e-01	0	60	0	246939648	53	4968
2026-01-25 02:18:49.16	331.98	31.55	-41.2	-43.9	19.8	6.03e-01	0	60	0	248512512	53	5084
2026-01-25 02:18:50.18	331.62	31.69	-41.2	-44.0	19.7	6.01e-01	0	60	0	250609664	53	5130
2026-01-25 02:18:51.18	331.26	31.82	-41.2	-44.0	19.7	6.05e-01	0	60	0	252706816	53	5131
2026-01-25 02:18:52.19	330.89	31.95	-41.1	-43.8	19.8	6.03e-01	0	60	0	254279680	53	5031
2026-01-25 02:18:53.20	330.53	32.08	-41.2	-43.9	19.8	6.02e-01	0	60	0	256376832	53	5047
2026-01-25 02:18:54.21	330.16	32.21	-41.3	-44.1	19.7	6.03e-01	0	60	0	257949696	53	5172
2026-01-25 02:18:55.22	329.78	32.34	-41.3	-44.0	19.7	6.04e-01	0	60	0	260046848	53	5137
2026-01-25 02:18:56.23	329.40	32.47	-41.3	-44.0	19.7	6.04e-01	0	60	0	262144000	53	5129
2026-01-25 02:18:57.24	329.02	32.60	-41.2	-43.9	19.8	6.03e-01	0	60	0	263716864	53	5094
2026-01-25 02:18:58.25	328.64	32.72	-41.1	-43.8	19.9	6.04e-01	0	60	0	265814016	53	5031
2026-01-25 02:18:59.26	328.25	32.85	-41.3	-44.0	19.8	6.04e-01	0	60	0	267386880	53	5146
2026-01-25 02:19:00.27	327.87	32.97	-41.4	-44.2	19.6	6.02e-01	0	60	0	269484032	53	5229
2026-01-25 02:19:01.28	327.47	33.10	-41.5	-44.3	19.4	6.04e-01	0	60	0	271581184	53	5338
2026-01-25 02:19:02.29	327.08	33.22	-41.3	-44.1	19.7	6.04e-01	0	60	0	273154048	53	5183
2026-01-25 02:19:03.30	326.68	33.34	-41.2	-44.0	19.8	6.04e-01	0	60	0	275251200	53	5104
2026-01-25 02:19:04.31	326.28	33.46	-41.3	-44.0	19.7	6.06e-01	0	60	0	276824064	53	5158
2026-01-25 02:19:05.32	325.87	33.59	-41.4	-44.2	19.5	6.03e-01	0	60	0	278921216	53	5271
2026-01-25 02:19:06.33	325.46	33.70	-41.5	-44.4	19.4	6.03e-01	0	60	0	281018368	53	5379
2026-01-25 02:19:07.33	325.06	33.82	-41.6	-44.4	19.3	6.03e-01	0	60	0	282591232	53	5395
2026-01-25 02:19:08.34	324.64	33.94	-41.5	-44.4	19.4	6.04e-01	0	60	0	284688384	53	5343
2026-01-25 02:19:09.35	324.23	34.05	-41.5	-44.4	19.4	6.04e-01	0	60	0	286261248	53	5361
2026-01-25 02:19:10.36	323.81	34.17	-41.5	-44.4	19.3	6.04e-01	0	60	0	288358400	53	5390
2026-01-25 02:19:11.37	323.38	34.28	-41.6	-44.6	19.2	6.03e-01	0	60	0	290455552	53	5501
2026-01-25 02:19:12.38	322.96	34.39	-41.6	-44.5	19.3	6.03e-01	0	60	0	292028416	53	5410
2026-01-25 02:19:13.39	322.53	34.50	-41.5	-44.4	19.3	6.03e-01	0	60	0	294125568	53	5380
2026-01-25 02:19:14.40	322.09	34.61	-41.6	-44.5	19.2	6.05e-01	0	60	0	295698432	53	5431
2026-01-25 02:19:15.41	321.66	34.72	-41.6	-44.5	19.2	6.05e-01	0	61	0	297795584	53	5438
2026-01-25 02:19:16.42	321.22	34.82	-41.7	-44.7	19.0	6.04e-01	0	60	0	299892736	53	5556
2026-01-25 02:19:17.43	320.78	34.93	-41.7	-44.7	19.0	6.02e-01	0	60	0	301465600	53	5565
2026-01-25 02:19:18.44	320.34	35.03	-41.7	-44.6	19.2	6.06e-01	0	60	0	303562752	54	5179
2026-01-25 02:19:19.45	319.89	35.13	-41.8	-44.8	18.9	6.02e-01	0	60	0	305659904	54	5328
2026-01-25 02:19:20.46	319.44	35.23	-41.8	-44.9	18.9	6.03e-01	0	60	0	307232768	54	5359
2026-01-25 02:19:21.47	318.99	35.33	-41.9	-45.0	18.7	6.05e-01	0	60	0	309329920	54	5459
2026-01-25 02:19:22.48	318.53	35.43	-41.7	-44.7	19.0	6.04e-01	0	60	0	310902784	54	5267
2026-01-25 02:19:23.49	318.07	35.52	-41.8	-44.8	19.0	6.02e-01	0	60	0	312999936	54	5282
2026-01-25 02:19:24.50	317.61	35.62	-41.9	-44.9	18.8	6.04e-01	0	60	0	315097088	54	5401
2026-01-25 02:19:25.51	317.15	35.71	-41.9	-44.9	18.8	6.02e-01	0	60	0	316669952	54	5381
2026-01-25 02:19:26.52	316.68	35.80	-41.9	-45.0	18.7	6.03e-01	0	61	0	318767104	54	5454
2026-01-25 02:19:27.53	316.21	35.88	-41.9	-44.9	18.9	6.04e-01	0	60	0	320864256	54	5393
2026-01-25 02:19:28.53	315.74	35.97	-41.9	-45.0	18.8	6.02e-01	0	60	0	322437120	54	5438
2026-01-25 02:19:29.54	315.27	36.05	-41.9	-45.0	18.7	6.04e-01	0	60	0	324534272	54	5440
2026-01-25 02:19:30.55	314.79	36.13	-41.9	-44.9	18.8	6.03e-01	0	60	0	326107136	54	5389
2026-01-25 02:19:31.56	314.32	36.21	-42.0	-45.2	18.6	6.02e-01	0	60	0	328204288	54	5567
2026-01-25 02:19:32.57	313.83	36.29	-42.0	-45.1	18.6	6.01e-01	0	60	0	330301440	54	5513
2026-01-25 02:19:33.58	313.35	36.37	-41.9	-45.0	18.8	6.01e-01	0	61	0	331874304	54	5423
2026-01-25 02:19:34.59	312.86	36.44	-42.0	-45.1	18.6	6.03e-01	0	60	0	333971456	54	5520
2026-01-25 02:19:35.60	312.38	36.51	-42.2	-45.4	18.4	6.04e-01	0	60	0	335544320	54	5703
2026-01-25 02:19:36.61	311.89	36.58	-42.0	-45.2	18.6	6.02e-01	0	61	0	337641472	54	5561
2026-01-25 02:19:37.62	311.39	36.65	-41.9	-44.9	18.9	6.03e-01	0	60	0	339738624	54	5367
2026-01-25 02:19:38.63	310.90	36.71	-41.8	-44.8	19.0	6.05e-01	0	60	0	341311488	54	5307
2026-01-25 02:19:39.64	310.40	36.77	-42.0	-45.2	18.7	6.02e-01	0	61	0	343408640	54	5532
2026-01-25 02:19:40.65	309.90	36.84	-42.1	-45.4	18.5	6.03e-01	0	60	0	344981504	54	5666
2026-01-25 02:19:41.66	309.40	36.89	-42.1	-45.3	18.5	6.05e-01	0	60	0	347078656	54	5641
2026-01-25 02:19:42.67	308.90	36.95	-41.8	-44.9	19.0	6.03e-01	0	60	0	349175808	54	5352
2026-01-25 02:19:43.68	308.40	37.00	-41.9	-44.9	18.9	6.05e-01	0	60	0	350748672	54	5373
2026-01-25 02:19:44.69	307.89	37.05	-42.1	-45.2	18.6	6.02e-01	0	60	0	352845824	54	5568
2026-01-25 02:19:45.70	307.38	37.10	-42.1	-45.3	18.5	6.04e-01	0	60	0	354418688	55	5338
2026-01-25 02:19:46.71	306.87	37.15	-42.0	-45.2	18.6	6.03e-01	0	60	0	356515840	55	5234
2026-01-25 02:19:47.72	306.36	37.19	-42.1	-45.3	18.5	6.02e-01	0	60	0	358612992	55	5313
2026-01-25 02:19:48.73	305.85	37.23	-42.1	-45.4	18.5	6.05e-01	0	60	0	360185856	55	5351
2026-01-25 02:19:49.74	305.34	37.27	-42.0	-45.1	18.8	6.02e-01	0	60	0	362283008	55	5172
2026-01-25 02:19:50.75	304.82	37.31	-42.1	-45.2	18.7	6.03e-01	0	60	0	363855872	55	5243
2026-01-25 02:19:51.76	304.31	37.34	-42.1	-45.3	18.5	6.05e-01	0	60	0	365953024	55	5335
2026-01-25 02:19:52.77	303.79	37.37	-41.9	-44.9	19.0	6.01e-01	0	61	0	368050176	55	5063
2026-01-25 02:19:53.78	303.28	37.40	-41.9	-44.9	19.0	6.01e-01	0	60	0	369623040	55	5073
2026-01-25 02:19:54.79	302.76	37.42	-41.9	-44.9	18.8	6.06e-01	0	60	0	371720192	55	5074
2026-01-25 02:19:55.80	302.24	37.45	-42.1	-45.3	18.5	6.05e-01	0	60	0	373817344	55	5323
2026-01-25 02:19:56.81	301.72	37.47	-42.0	-45.1	18.7	6.03e-01	0	60	0	375390208	55	5200
2026-01-25 02:19:57.82	301.20	37.48	-42.0	-45.1	18.7	6.03e-01	0	60	0	377487360	55	5195
2026-01-25 02:19:58.83	300.68	37.50	-42.0	-45.1	18.7	6.05e-01	0	60	0	379060224	55	5189
2026-01-25 02:19:59.84	300.16	37.51	-41.9	-45.0	18.7	6.02e-01	0	60	0	381157376	55	5152
2026-01-25 02:20:00.85	299.63	37.52	-41.8	-44.8	19.0	6.05e-01	0	60	0	383254528	55	4988
2026-01-25 02:20:01.86	299.11	37.53	-42.1	-45.2	18.5	6.04e-01	0	60	0	384827392	55	5253
2026-01-25 02:20:02.87	298.59	37.53	-42.0	-45.2	18.5	6.04e-01	0	61	0	386924544	55	5235
2026-01-25 02:20:03.88	298.07	37.54	-42.2	-45.5	18.2	6.03e-01	0	60	0	388497408	55	5411
2026-01-25 02:20:04.89	297.54	37.54	-42.4	-45.9	17.8	6.03e-01	0	60	0	390594560	55	5674
2026-01-25 02:20:05.90	297.02	37.53	-42.6	-46.2	17.6	6.03e-01	0	60	0	392691712	55	5896
2026-01-25 02:20:06.90	296.50	37.53	-42.4	-45.9	18.0	6.05e-01	0	61	0	394264576	55	5684
2026-01-25 02:20:07.91	295.98	37.52	-42.3	-45.6	18.3	6.04e-01	0	60	0	396361728	55	5490
2026-01-25 02:20:08.92	295.46	37.51	-42.0	-45.1	18.7	6.05e-01	0	60	0	398458880	55	5201
2026-01-25 02:20:09.93	294.94	37.49	-41.8	-44.8	19.1	6.04e-01	0	61	0	400031744	55	4986
2026-01-25 02:20:10.94	294.42	37.48	-41.8	-44.8	19.0	6.05e-01	0	61	0	402128896	55	5028
2026-01-25 02:20:11.95	293.90	37.46	-41.5	-44.3	19.4	6.02e-01	0	61	0	403701760	55	4729
2026-01-25 02:20:12.96	293.38	37.43	-41.4	-44.1	19.4	6.00e-01	0	60	0	405798912	54	4907
2026-01-25 02:20:13.97	292.86	37.41	-42.0	-45.1	18.3	6.04e-01	0	60	0	407896064	55	5189
2026-01-25 02:20:14.98	292.34	37.38	-42.5	-46.1	17.4	6.03e-01	0	61	0	409468928	55	5848
2026-01-25 02:20:15.99	291.82	37.35	-42.5	-46.0	17.8	6.05e-01	0	61	0	411566080	55	5734
2026-01-25 02:20:17.00	291.31	37.32	-42.2	-45.4	18.4	6.03e-01	0	60	0	413138944	55	5382
2026-01-25 02:20:18.01	290.79	37.29	-41.8	-44.9	18.9	6.05e-01	0	61	0	415236096	55	5043
2026-01-25 02:20:19.01	290.28	37.25	-41.9	-45.0	18.8	6.04e-01	0	60	0	417333248	55	5127
2026-01-25 02:20:20.02	289.77	37.21	-41.7	-44.7	19.0	6.02e-01	0	61	0	418906112	55	4929
2026-01-25 02:20:21.03	289.26	37.17	-41.9	-44.9	18.6	6.05e-01	0	61	0	421003264	55	5072
2026-01-25 02:20:22.04	288.75	37.12	-42.4	-45.8	17.8	6.04e-01	0	61	0	422576128	55	5642
2026-01-25 02:20:23.05	288.24	37.07	-42.3	-45.8	18.1	6.03e-01	0	61	0	424673280	55	5602
2026-01-25 02:20:24.06	287.73	37.03	-41.8	-44.8	19.0	6.06e-01	0	61	0	426770432	55	5005
2026-01-25 02:20:25.07	287.23	36.97	-41.8	-44.8	18.9	6.04e-01	0	60	0	428343296	55	5025
2026-01-25 02:20:26.08	286.73	36.92	-42.0	-45.1	18.6	6.04e-01	0	60	0	430440448	55	5165
2026-01-25 02:20:27.09	286.22	36.86	-42.1	-45.4	18.4	6.01e-01	0	61	0	432013312	55	5356
2026-01-25 02:20:28.10	285.72	36.80	-42.0	-45.2	18.6	6.01e-01	0	61	0	434110464	55	5226
2026-01-25 02:20:29.11	285.23	36.74	-42.1	-45.2	18.5	6.05e-01	0	60	0	436207616	55	5272
2026-01-25 02:20:30.12	284.73	36.68	-42.2	-45.5	18.3	6.00e-01	0	61	0	437780480	55	5418
2026-01-25 02:20:31.13	284.23	36.61	-41.8	-44.8	18.9	6.02e-01	0	61	0	439877632	55	4994
2026-01-25 02:20:32.14	283.74	36.54	-42.0	-45.2	18.4	6.03e-01	0	61	0	441974784	55	5273
2026-01-25 02:20:33.15	283.25	36.47	-41.9	-45.0	18.6	6.05e-01	0	61	0	443547648	55	5155
2026-01-25 02:20:34.16	282.76	36.40	-41.8	-44.9	18.6	6.02e-01	0	61	0	445644800	55	5068
2026-01-25 02:20:35.17	282.28	36.32	-42.3	-45.7	18.0	6.06e-01	0	61	0	447217664	55	5556
2026-01-25 02:20:36.18	281.79	36.25	-41.8	-44.8	18.8	6.03e-01	0	61	0	449314816	55	5008
2026-01-25 02:20:37.19	281.31	36.17	-42.1	-45.4	18.1	6.02e-01	0	61	0	451411968	55	5357
2026-01-25 02:20:38.19	280.84	36.09	-42.1	-45.4	18.1	6.04e-01	0	60	0	452984832	55	5391
2026-01-25 02:20:39.20	280.36	36.01	-41.9	-45.0	18.5	6.03e-01	0	61	0	455081984	55	5147
2026-01-25 02:20:40.21	279.89	35.92	-42.1	-45.4	18.1	6.05e-01	0	61	0	456654848	55	5348
2026-01-25 02:20:41.22	279.42	35.83	-41.9	-45.0	18.5	6.03e-01	0	61	0	458752000	55	5140
2026-01-25 02:20:42.23	278.95	35.75	-41.9	-45.0	18.5	6.05e-01	0	61	0	460849152	55	5117
2026-01-25 02:20:43.24	278.48	35.66	-42.2	-45.5	18.1	6.05e-01	0	61	0	462422016	55	5432
2026-01-25 02:20:44.25	278.02	35.56	-42.0	-45.2	18.1	6.03e-01	0	60	0	464519168	55	5240
2026-01-25 02:20:45.26	277.56	35.47	-42.5	-46.1	17.4	6.03e-01	0	61	0	466616320	55	5821
2026-01-25 02:20:46.27	277.10	35.37	-41.9	-45.1	18.3	6.03e-01	0	60	0	468189184	55	5198
2026-01-25 02:20:47.28	276.65	35.27	-42.5	-46.2	17.3	6.03e-01	0	61	0	470286336	55	5879
2026-01-25 02:20:48.29	276.19	35.18	-42.2	-45.6	17.8	6.05e-01	0	60	0	471859200	55	5520
2026-01-25 02:20:49.30	275.75	35.07	-43.1	-47.3	16.2	6.04e-01	0	60	0	473956352	56	6288
2026-01-25 02:20:50.31	275.30	34.97	-42.3	-45.6	17.9	6.07e-01	0	61	0	476053504	56	5164
2026-01-25 02:20:51.32	274.86	34.87	-43.0	-47.0	16.4	6.03e-01	0	60	0	477626368	56	6094
2026-01-25 02:20:52.33	274.41	34.76	-42.3	-45.7	17.8	6.03e-01	0	61	0	479723520	56	5243
2026-01-25 02:20:53.34	273.98	34.66	-43.1	-47.1	16.3	6.04e-01	0	61	0	481296384	56	6185
2026-01-25 02:20:54.35	273.54	34.55	-42.4	-45.8	17.7	6.06e-01	0	61	0	483393536	56	5312
2026-01-25 02:20:55.36	273.11	34.44	-42.7	-46.4	17.1	6.04e-01	0	61	0	484966400	56	5703
2026-01-25 02:20:56.36	272.69	34.33	-41.8	-44.9	18.5	6.03e-01	0	61	0	487063552	55	5073
2026-01-25 02:20:57.37	272.26	34.21	-42.1	-45.4	18.0	6.01e-01	0	60	0	489160704	55	5377
2026-01-25 02:20:58.38	271.84	34.10	-41.9	-45.2	18.2	6.03e-01	0	61	0	490733568	55	5230
2026-01-25 02:20:59.39	271.42	33.98	-41.9	-45.0	18.4	6.04e-01	0	61	0	492830720	55	5144
2026-01-25 02:21:00.40	271.00	33.87	-42.1	-45.4	17.8	6.03e-01	0	61	0	494927872	55	5396
2026-01-25 02:21:01.41	270.59	33.75	-41.6	-44.6	18.8	6.04e-01	0	61	0	496500736	55	4914
2026-01-25 02:21:02.42	270.18	33.63	-42.2	-45.7	17.7	6.05e-01	0	61	0	498597888	55	5554
2026-01-25 02:21:03.43	269.77	33.51	-41.6	-44.6	18.6	6.02e-01	0	61	0	500170752	55	4916
2026-01-25 02:21:04.44	269.36	33.39	-41.8	-45.0	18.4	6.02e-01	0	61	0	502267904	54	5418
2026-01-25 02:21:05.45	268.96	33.27	-42.2	-45.8	17.4	6.03e-01	0	61	0	504365056	55	5646
2026-01-25 02:21:06.46	268.56	33.14	-41.5	-44.5	18.8	6.03e-01	0	61	0	505937920	55	4830
2026-01-25 02:21:07.47	268.17	33.02	-42.2	-45.7	17.6	6.03e-01	0	61	0	508035072	55	5558
2026-01-25 02:21:08.48	267.78	32.89	-42.1	-45.5	17.6	6.02e-01	0	60	0	510132224	55	5452
2026-01-25 02:21:09.49	267.39	32.77	-41.3	-44.2	19.2	6.02e-01	0	61	0	511705088	54	4932
2026-01-25 02:21:10.50	267.00	32.64	-42.0	-45.3	18.0	6.03e-01	0	61	0	513802240	54	5648
2026-01-25 02:21:11.51	266.62	32.51	-42.0	-45.4	17.8	6.03e-01	0	61	0	515375104	55	5366
2026-01-25 02:21:12.52	266.24	32.39	-41.4	-44.2	19.1	6.02e-01	0	61	0	517472256	54	4979
2026-01-25 02:21:13.53	265.86	32.26	-41.9	-45.1	18.2	6.02e-01	0	61	0	519569408	54	5480
2026-01-25 02:21:14.54	265.49	32.13	-42.2	-45.7	17.6	6.06e-01	0	61	0	521142272	55	5567
2026-01-25 02:21:15.55	265.12	32.00	-41.3	-44.2	19.0	6.05e-01	0	60	0	523239424	54	4957
2026-01-25 02:21:16.56	264.75	31.86	-41.5	-44.6	18.7	6.05e-01	0	61	0	524812288	54	5168
2026-01-25 02:21:17.57	264.39	31.73	-42.0	-45.5	17.8	6.05e-01	0	61	0	526909440	54	5749
2026-01-25 02:21:18.58	264.03	31.60	-41.4	-44.3	18.9	6.04e-01	0	61	0	529006592	54	5009
2026-01-25 02:21:19.59	263.67	31.47	-41.2	-43.9	19.4	6.02e-01	0	61	0	530579456	54	4793
2026-01-25 02:21:20.60	263.31	31.33	-41.6	-44.6	18.7	6.01e-01	0	61	0	532676608	54	5198
2026-01-25 02:21:21.61	262.96	31.20	-41.9	-45.1	18.2	6.03e-01	0	61	0	534773760	54	5524
2026-01-25 02:21:22.62	262.61	31.06	-41.9	-45.0	18.5	6.04e-01	0	61	0	536346624	54	5425
2026-01-25 02:21:23.63	262.27	30.93	-41.9	-45.0	18.7	6.03e-01	0	61	0	538443776	54	5423
2026-01-25 02:21:24.64	261.92	30.79	-41.8	-44.9	18.8	6.02e-01	0	61	0	540016640	54	5353
2026-01-25 02:21:25.65	261.58	30.65	-41.9	-45.1	18.7	6.03e-01	0	61	0	542113792	54	5485
2026-01-25 02:21:26.66	261.25	30.52	-41.8	-45.0	18.6	6.05e-01	0	61	0	543686656	54	5431
2026-01-25 02:21:27.66	260.92	30.38	-41.6	-44.6	19.1	6.04e-01	0	61	0	545783808	54	5161
2026-01-25 02:21:28.67	260.58	30.24	-41.6	-44.6	19.1	6.03e-01	0	61	0	547880960	54	5175
2026-01-25 02:21:29.68	260.26	30.11	-41.9	-45.0	18.6	6.02e-01	0	61	0	549453824	54	5449
2026-01-25 02:21:30.69	259.93	29.97	-41.9	-45.1	18.5	6.02e-01	0	61	0	551550976	54	5482
2026-01-25 02:21:31.70	259.61	29.83	-41.6	-44.7	19.0	6.04e-01	0	61	0	553123840	54	5220
2026-01-25 02:21:32.71	259.29	29.69	-41.6	-44.6	19.1	6.03e-01	0	61	0	555220992	54	5164
2026-01-25 02:21:33.72	258.97	29.55	-41.6	-44.6	19.0	6.03e-01	0	61	0	557318144	55	4891
2026-01-25 02:21:34.73	258.66	29.41	-41.6	-44.5	19.1	6.02e-01	0	61	0	558891008	55	4859
2026-01-25 02:21:35.74	258.35	29.27	-41.6	-44.5	19.1	6.04e-01	0	61	0	560988160	55	4855
2026-01-25 02:21:36.75	258.04	29.13	-41.6	-44.6	19.0	6.04e-01	0	61	0	563085312	55	4908
2026-01-25 02:21:37.76	257.73	28.99	-41.7	-44.8	18.9	6.01e-01	0	61	0	564658176	55	4984
2026-01-25 02:21:38.77	257.43	28.85	-41.7	-44.7	18.9	6.03e-01	0	61	0	566755328	55	4955
2026-01-25 02:21:39.78	257.13	28.71	-41.7	-44.7	19.0	6.05e-01	0	61	0	568328192	55	4934
2026-01-25 02:21:40.79	256.83	28.57	-41.6	-44.6	19.0	6.01e-01	0	61	0	570425344	55	4902
2026-01-25 02:21:41.80	256.54	28.43	-41.7	-44.7	19.0	6.05e-01	0	61	0	572522496	55	4935
2026-01-25 02:21:42.81	256.25	28.29	-41.6	-44.5	19.1	6.05e-01	0	61	0	574095360	55	4842
2026-01-25 02:21:43.82	255.96	28.15	-41.6	-44.6	19.0	6.06e-01	0	61	0	576192512	55	4908
2026-01-25 02:21:44.83	255.67	28.01	-41.7	-44.8	18.9	6.03e-01	0	61	0	578289664	55	4984
2026-01-25 02:21:45.84	255.39	27.87	-41.8	-44.9	18.7	6.04e-01	0	61	0	579862528	55	5098
2026-01-25 02:21:46.84	255.11	27.73	-41.8	-44.9	18.7	6.03e-01	0	61	0	581959680	55	5068
2026-01-25 02:21:47.85	254.83	27.59	-41.8	-44.8	18.8	6.06e-01	0	61	0	583532544	55	5013
2026-01-25 02:21:48.86	254.55	27.45	-41.6	-44.6	19.0	6.05e-01	0	61	0	585629696	55	4904
2026-01-25 02:21:49.87	254.28	27.31	-41.6	-44.5	19.1	6.03e-01	0	61	0	587726848	55	4865
2026-01-25 02:21:50.88	254.01	27.17	-41.7	-44.8	18.8	6.04e-01	0	61	0	589299712	55	5008
2026-01-25 02:21:51.89	253.74	27.03	-41.8	-44.9	18.7	6.02e-01	0	61	0	591396864	55	5069
2026-01-25 02:21:52.90	253.47	26.89	-41.8	-44.9	18.6	6.02e-01	0	61	0	592969728	55	5098
2026-01-25 02:21:53.92	253.20	26.75	-41.8	-44.9	18.7	6.02e-01	0	61	0	595066880	55	5082
2026-01-25 02:21:54.92	252.94	26.61	-41.8	-44.8	18.8	6.01e-01	0	61	0	597164032	55	5034
2026-01-25 02:21:55.94	252.68	26.47	-41.6	-44.6	19.0	6.04e-01	0	61	0	598736896	55	4883
2026-01-25 02:21:56.95	252.43	26.33	-41.6	-44.6	19.0	6.02e-01	0	61	0	600834048	55	4913
2026-01-25 02:21:57.95	252.17	26.19	-41.7	-44.8	18.6	6.02e-01	0	61	0	602406912	55	5014
2026-01-25 02:21:58.97	251.92	26.05	-41.8	-45.0	18.6	6.04e-01	0	61	0	604504064	55	5112
2026-01-25 02:21:59.98	251.67	25.92	-41.8	-44.9	18.7	6.06e-01	0	61	0	606601216	55	5072
2026-01-25 02:22:00.99	251.42	25.78	-41.8	-44.9	18.7	6.04e-01	0	61	0	608174080	55	5060
2026-01-25 02:22:01.99	251.18	25.64	-41.9	-45.0	18.6	6.01e-01	0	61	0	610271232	55	5126
2026-01-25 02:22:03.00	250.93	25.50	-41.8	-44.9	18.6	6.03e-01	0	61	0	611844096	55	5099
2026-01-25 02:22:04.02	250.69	25.36	-41.8	-44.9	18.7	6.04e-01	0	61	0	613941248	55	5057
2026-01-25 02:22:05.03	250.45	25.22	-41.7	-44.8	18.8	6.06e-01	0	61	0	616038400	55	5024
2026-01-25 02:22:06.04	250.22	25.09	-41.8	-44.9	18.7	6.00e-01	0	61	0	617611264	55	5055
2026-01-25 02:22:07.05	249.98	24.95	-41.8	-45.0	18.6	6.03e-01	0	61	0	619708416	55	5114
2026-01-25 02:22:08.06	249.75	24.81	-41.9	-45.1	18.5	6.03e-01	0	61	0	621805568	55	5212
2026-01-25 02:22:09.07	249.52	24.68	-41.9	-45.1	18.5	6.02e-01	0	61	0	623378432	55	5164
2026-01-25 02:22:10.08	249.29	24.54	-41.8	-45.0	18.6	6.00e-01	0	61	0	625475584	55	5115
2026-01-25 02:22:11.09	249.06	24.40	-41.8	-44.9	18.6	6.04e-01	0	61	0	627048448	55	5088
2026-01-25 02:22:12.10	248.84	24.27	-41.8	-45.0	18.6	6.03e-01	0	61	0	629145600	55	5123
2026-01-25 02:22:13.11	248.62	24.13	-41.9	-45.1	18.5	6.03e-01	0	61	0	631242752	55	5173
2026-01-25 02:22:14.12	248.40	24.00	-41.9	-45.0	18.5	6.02e-01	0	61	0	632815616	55	5156
2026-01-25 02:22:15.13	248.18	23.86	-41.8	-44.9	18.6	6.03e-01	0	61	0	634912768	55	5095
2026-01-25 02:22:16.14	247.96	23.73	-41.7	-44.9	18.7	6.06e-01	0	61	0	636485632	55	5042
2026-01-25 02:22:17.15	247.75	23.59	-41.8	-45.0	18.5	6.04e-01	0	61	0	638582784	55	5140
2026-01-25 02:22:18.16	247.54	23.46	-41.9	-45.1	18.5	6.03e-01	0	61	0	640679936	55	5161
2026-01-25 02:22:19.17	247.33	23.33	-41.8	-45.0	18.5	6.00e-01	0	61	0	642252800	55	5120
2026-01-25 02:22:20.18	247.12	23.19	-41.8	-45.0	18.5	6.04e-01	0	60	0	644349952	55	5138
2026-01-25 02:22:21.19	246.91	23.06	-41.8	-45.0	18.6	6.05e-01	0	61	0	646447104	55	5114
2026-01-25 02:22:22.20	246.71	22.93	-41.8	-45.0	18.5	6.04e-01	0	61	0	648019968	55	5134
2026-01-25 02:22:23.21	246.50	22.80	-41.9	-45.1	18.4	6.04e-01	0	61	0	650117120	55	5175
2026-01-25 02:22:24.22	246.30	22.66	-41.9	-45.2	18.3	6.04e-01	0	61	0	651689984	55	5252
2026-01-25 02:22:25.22	246.11	22.53	-41.9	-45.2	18.3	6.05e-01	0	61	0	653787136	55	5256
2026-01-25 02:22:26.23	245.91	22.40	-41.9	-45.2	18.3	6.04e-01	0	61	0	655884288	55	5233
2026-01-25 02:22:27.24	245.71	22.27	-41.9	-45.2	18.3	6.03e-01	0	61	0	657457152	55	5262
2026-01-25 02:22:28.25	245.52	22.14	-41.9	-45.2	18.3	6.04e-01	0	61	0	659554304	55	5264
2026-01-25 02:22:29.26	245.33	22.01	-42.0	-45.2	18.3	6.02e-01	0	61	0	661127168	55	5274
2026-01-25 02:22:30.27	245.13	21.88	-41.9	-45.2	18.4	6.05e-01	0	61	0	663224320	55	5220
2026-01-25 02:22:31.28	244.95	21.75	-41.8	-45.0	18.5	6.05e-01	0	61	0	665321472	55	5133
2026-01-25 02:22:32.29	244.76	21.63	-41.8	-45.0	18.5	6.03e-01	0	61	0	666894336	55	5149
2026-01-25 02:22:33.30	244.57	21.50	-42.0	-45.3	18.2	6.03e-01	0	61	0	668991488	55	5282
2026-01-25 02:22:34.30	244.39	21.37	-41.9	-45.2	18.3	6.03e-01	0	61	0	670564352	55	5223
2026-01-25 02:22:35.31	244.21	21.24	-41.9	-45.2	18.3	6.01e-01	0	61	0	672661504	55	5230
2026-01-25 02:22:36.32	244.03	21.12	-41.9	-45.1	18.3	6.03e-01	0	61	0	674758656	55	5198
2026-01-25 02:22:37.33	243.85	20.99	-41.8	-45.0	18.4	6.04e-01	0	61	0	676331520	55	5159
2026-01-25 02:22:38.34	243.67	20.86	-41.8	-45.0	18.4	6.04e-01	0	61	0	678428672	55	5158
2026-01-25 02:22:39.35	243.49	20.74	-41.7	-44.8	18.7	6.04e-01	0	61	0	680001536	55	5002
2026-01-25 02:22:40.36	243.32	20.61	-41.7	-44.7	18.7	6.06e-01	0	61	0	682098688	55	4980
2026-01-25 02:22:41.37	243.15	20.49	-41.8	-45.0	18.5	6.02e-01	0	61	0	684195840	55	5133
2026-01-25 02:22:42.38	242.97	20.36	-41.8	-45.1	18.4	6.04e-01	0	61	0	685768704	55	5175
2026-01-25 02:22:43.39	242.80	20.24	-41.8	-45.1	18.3	6.03e-01	0	61	0	687865856	55	5188
2026-01-25 02:22:44.40	242.63	20.11	-41.8	-45.0	18.4	6.04e-01	0	61	0	689438720	55	5128
2026-01-25 02:22:45.41	242.47	19.99	-41.8	-45.0	18.5	6.03e-01	0	61	0	691535872	55	5119
2026-01-25 02:22:46.42	242.30	19.87	-41.8	-44.9	18.5	6.02e-01	0	61	0	693633024	55	5097
2026-01-25 02:22:47.43	242.14	19.75	-41.7	-44.9	18.5	6.04e-01	0	61	0	695205888	55	5073
2026-01-25 02:22:48.44	241.97	19.62	-41.8	-44.9	18.5	6.04e-01	0	61	0	697303040	55	5097
2026-01-25 02:22:49.45	241.81	19.50	-41.8	-45.0	18.5	6.03e-01	0	61	0	699400192	55	5115
2026-01-25 02:22:50.46	241.65	19.38	-41.7	-44.9	18.5	6.01e-01	0	61	0	700973056	55	5083
2026-01-25 02:22:51.47	241.49	19.26	-41.7	-44.9	18.5	6.01e-01	0	61	0	703070208	55	5070
2026-01-25 02:22:52.48	241.34	19.14	-41.8	-45.0	18.5	6.03e-01	0	61	0	704643072	55	5114
2026-01-25 02:22:53.48	241.18	19.02	-41.9	-45.1	18.3	6.04e-01	0	61	0	706740224	55	5196
2026-01-25 02:22:54.49	241.03	18.90	-41.9	-45.1	18.3	6.05e-01	0	61	0	708837376	55	5199
2026-01-25 02:22:55.50	240.87	18.78	-41.8	-45.0	18.5	6.04e-01	0	61	0	710410240	55	5111
2026-01-25 02:22:56.51	240.72	18.66	-41.7	-44.9	18.6	6.04e-01	0	61	0	712507392	55	5054
2026-01-25 02:22:57.52	240.57	18.55	-41.6	-44.8	18.6	6.03e-01	0	61	0	714604544	55	4994
2026-01-25 02:22:58.53	240.42	18.43	-41.6	-44.6	18.8	6.03e-01	0	61	0	716177408	55	4923
2026-01-25 02:22:59.54	240.27	18.31	-41.5	-44.6	18.8	6.03e-01	0	61	0	718274560	55	4886
2026-01-25 02:23:00.55	240.12	18.19	-41.6	-44.6	18.8	6.03e-01	0	61	0	719847424	55	4926
2026-01-25 02:23:01.56	239.98	18.08	-41.7	-44.8	18.6	6.03e-01	0	61	0	721944576	55	5009
2026-01-25 02:23:02.57	239.83	17.96	-41.8	-45.0	18.4	6.04e-01	0	61	0	724041728	55	5117
2026-01-25 02:23:03.58	239.69	17.84	-41.8	-45.0	18.4	6.03e-01	0	61	0	725614592	55	5140
2026-01-25 02:23:04.59	239.54	17.73	-41.8	-45.1	18.3	6.06e-01	0	61	0	727711744	55	5178
2026-01-25 02:23:05.60	239.40	17.61	-41.8	-45.1	18.3	6.03e-01	0	61	0	729284608	55	5209
2026-01-25 02:23:06.61	239.26	17.50	-41.9	-45.2	18.2	6.04e-01	0	61	0	731381760	55	5225
2026-01-25 02:23:07.62	239.12	17.39	-41.8	-45.1	18.3	6.03e-01	0	61	0	733478912	55	5200
2026-01-25 02:23:08.63	238.98	17.27	-41.8	-45.0	18.4	6.04e-01	0	61	0	735051776	55	5137
2026-01-25 02:23:09.64	238.85	17.16	-41.7	-44.9	18.5	6.02e-01	0	61	0	737148928	55	5051
2026-01-25 02:23:10.64	238.71	17.05	-41.7	-45.0	18.4	6.04e-01	0	61	0	738721792	55	5101
2026-01-25 02:23:11.65	238.58	16.93	-41.9	-45.2	18.2	6.02e-01	0	61	0	740818944	55	5247
2026-01-25 02:23:12.66	238.44	16.82	-41.8	-45.0	18.3	6.04e-01	0	61	0	742916096	55	5142
2026-01-25 02:23:13.67	238.31	16.71	-41.7	-45.0	18.4	6.05e-01	0	61	0	744488960	55	5103
2026-01-25 02:23:14.68	238.18	16.60	-41.7	-44.9	18.4	6.06e-01	0	61	0	746586112	55	5093
2026-01-25 02:23:15.69	238.05	16.49	-41.7	-44.9	18.5	6.02e-01	0	61	0	748158976	55	5075
2026-01-25 02:23:16.70	237.92	16.38	-41.7	-44.9	18.5	6.05e-01	0	61	0	750256128	55	5047
2026-01-25 02:23:17.71	237.79	16.27	-41.7	-45.0	18.4	6.05e-01	0	61	0	752353280	55	5107
2026-01-25 02:23:18.72	237.66	16.16	-41.7	-44.9	18.5	6.02e-01	0	61	0	753926144	55	5077
2026-01-25 02:23:19.73	237.54	16.05	-41.7	-45.0	18.4	6.03e-01	0	61	0	756023296	55	5107
2026-01-25 02:23:20.73	237.41	15.94	-41.7	-44.9	18.5	6.03e-01	0	61	0	757596160	55	5042
2026-01-25 02:23:21.75	237.29	15.83	-41.6	-44.7	18.6	6.04e-01	0	61	0	759693312	55	4973
2026-01-25 02:23:22.75	237.16	15.73	-41.6	-44.8	18.6	6.04e-01	0	61	0	761790464	55	4994
2026-01-25 02:23:23.76	237.04	15.62	-41.7	-44.9	18.4	6.02e-01	0	61	0	763363328	55	5062
2026-01-25 02:23:24.77	236.92	15.51	-41.7	-45.0	18.4	6.05e-01	0	61	0	765460480	55	5110
2026-01-25 02:23:25.79	236.80	15.40	-41.7	-45.0	18.3	6.01e-01	0	61	0	767557632	55	5122
2026-01-25 02:23:26.80	236.68	15.30	-41.8	-45.2	18.2	6.04e-01	0	61	0	769130496	55	5225
2026-01-25 02:23:27.80	236.56	15.19	-41.9	-45.2	18.1	6.04e-01	0	61	0	771227648	55	5267
2026-01-25 02:23:28.81	236.44	15.09	-41.9	-45.2	18.1	6.01e-01	0	61	0	772800512	55	5248
2026-01-25 02:23:29.82	236.33	14.98	-41.8	-45.2	18.1	6.02e-01	0	61	0	774897664	55	5234
2026-01-25 02:23:30.83	236.21	14.88	-41.8	-45.1	18.2	6.05e-01	0	61	0	776994816	55	5202
2026-01-25 02:23:31.84	236.09	14.77	-41.8	-45.2	18.1	6.02e-01	0	61	0	778567680	55	5225
2026-01-25 02:23:32.85	235.98	14.67	-41.7	-44.9	18.3	6.03e-01	0	61	0	780664832	55	5098
2026-01-25 02:23:33.86	235.87	14.56	-41.6	-44.8	18.5	6.02e-01	0	61	0	782761984	55	5016
2026-01-25 02:23:34.87	235.75	14.46	-41.6	-44.8	18.5	6.04e-01	0	61	0	784334848	55	5001
2026-01-25 02:23:35.88	235.64	14.36	-41.7	-44.9	18.3	6.07e-01	0	61	0	786432000	55	5080
2026-01-25 02:23:36.89	235.53	14.26	-41.7	-45.0	18.2	6.03e-01	0	61	0	788004864	55	5153
2026-01-25 02:23:37.90	235.42	14.15	-41.8	-45.1	18.1	6.05e-01	0	61	0	790102016	55	5208
2026-01-25 02:23:38.91	235.31	14.05	-41.7	-45.0	18.2	6.04e-01	0	61	0	792199168	55	5154
2026-01-25 02:23:39.92	235.20	13.95	-41.8	-45.1	18.1	6.04e-01	0	61	0	793772032	55	5176
2026-01-25 02:23:40.93	235.09	13.85	-41.8	-45.1	18.1	6.05e-01	0	61	0	795869184	55	5212
2026-01-25 02:23:41.94	234.99	13.75	-41.8	-45.1	18.2	6.03e-01	0	61	0	797442048	55	5163
2026-01-25 02:23:42.95	234.88	13.65	-41.7	-44.9	18.3	6.01e-01	0	61	0	799539200	55	5092
2026-01-25 02:23:43.96	234.78	13.55	-41.7	-45.0	18.2	6.04e-01	0	61	0	801636352	55	5141
2026-01-25 02:23:44.97	234.67	13.45	-41.7	-45.0	18.2	6.02e-01	0	61	0	803209216	55	5103
2026-01-25 02:23:45.98	234.57	13.35	-41.7	-45.0	18.2	6.02e-01	0	61	0	805306368	55	5131
2026-01-25 02:23:46.99	234.46	13.25	-41.8	-45.1	18.1	6.04e-01	0	61	0	806879232	55	5171
2026-01-25 02:23:48.00	234.36	13.15	-41.8	-45.2	18.0	6.04e-01	0	61	0	808976384	55	5260
2026-01-25 02:23:49.00	234.26	13.06	-41.9	-45.3	17.9	6.03e-01	0	61	0	811073536	55	5318
2026-01-25 02:23:50.01	234.16	12.96	-41.9	-45.3	17.9	6.02e-01	0	61	0	812646400	55	5328
2026-01-25 02:23:51.02	234.06	12.86	-41.8	-45.3	17.9	6.04e-01	0	61	0	814743552	55	5292
2026-01-25 02:23:52.03	233.96	12.76	-41.9	-45.3	17.9	6.04e-01	0	61	0	816316416	55	5320
2026-01-25 02:23:53.04	233.86	12.67	-41.9	-45.3	17.9	6.02e-01	0	61	0	818413568	55	5311
2026-01-25 02:23:54.05	233.76	12.57	-41.8	-45.3	17.9	6.04e-01	0	61	0	820510720	55	5302
2026-01-25 02:23:55.06	233.67	12.47	-41.9	-45.3	17.9	6.06e-01	0	61	0	822083584	55	5310
2026-01-25 02:23:56.07	233.57	12.38	-41.8	-45.2	18.0	6.05e-01	0	61	0	824180736	55	5242
2026-01-25 02:23:57.08	233.47	12.28	-41.8	-45.3	17.9	6.03e-01	0	61	0	825753600	55	5288
2026-01-25 02:23:58.09	233.38	12.19	-41.8	-45.3	17.9	6.03e-01	0	61	0	827850752	55	5301
2026-01-25 02:23:59.10	233.28	12.09	-41.8	-45.3	17.9	6.04e-01	0	61	0	829947904	55	5301
2026-01-25 02:24:00.11	233.19	12.00	-41.9	-45.3	17.9	6.04e-01	0	61	0	831520768	55	5323
2026-01-25 02:24:01.12	233.10	11.90	-41.9	-45.4	17.7	6.05e-01	0	61	0	833617920	55	5383
2026-01-25 02:24:02.13	233.01	11.81	-41.9	-45.4	17.7	6.04e-01	0	61	0	835715072	55	5385
2026-01-25 02:24:03.14	232.91	11.72	-42.0	-45.5	17.5	6.05e-01	0	61	0	837287936	55	5448
2026-01-25 02:24:04.15	232.82	11.62	-41.9	-45.4	17.7	6.03e-01	0	61	0	839385088	55	5395
2026-01-25 02:24:05.16	232.73	11.53	-41.9	-45.5	17.7	6.03e-01	0	61	0	840957952	55	5417
2026-01-25 02:24:06.17	232.64	11.44	-42.0	-45.6	17.5	6.04e-01	0	61	0	843055104	55	5496
2026-01-25 02:24:07.18	232.55	11.35	-42.0	-45.6	17.5	6.05e-01	0	61	0	845152256	55	5493
2026-01-25 02:24:08.19	232.46	11.26	-41.9	-45.5	17.6	6.02e-01	0	61	0	846725120	55	5438
2026-01-25 02:24:09.20	232.38	11.16	-41.9	-45.4	17.6	6.03e-01	0	61	0	848822272	55	5397
2026-01-25 02:24:10.21	232.29	11.07	-42.0	-45.5	17.5	6.05e-01	0	61	0	850919424	55	5464
2026-01-25 02:24:11.22	232.20	10.98	-42.0	-45.6	17.5	6.03e-01	0	61	0	852492288	55	5505
2026-01-25 02:24:12.23	232.11	10.89	-42.0	-45.6	17.4	6.02e-01	0	61	0	854589440	55	5524
2026-01-25 02:24:13.24	232.03	10.80	-42.0	-45.7	17.3	6.03e-01	0	61	0	856162304	55	5588
2026-01-25 02:24:14.25	231.94	10.71	-42.0	-45.6	17.4	6.04e-01	0	61	0	858259456	55	5499
2026-01-25 02:24:15.26	231.86	10.62	-42.0	-45.7	17.4	6.03e-01	0	61	0	860356608	55	5544
2026-01-25 02:24:16.27	231.77	10.53	-42.0	-45.7	17.4	6.04e-01	0	61	0	861929472	55	5541
2026-01-25 02:24:17.28	231.69	10.44	-42.0	-45.7	17.3	6.03e-01	0	61	0	864026624	55	5586
2026-01-25 02:24:18.28	231.61	10.36	-42.0	-45.7	17.3	6.04e-01	0	61	0	865599488	55	5560
2026-01-25 02:24:19.29	231.53	10.27	-42.0	-45.8	17.3	6.02e-01	0	61	0	867696640	55	5603
2026-01-25 02:24:20.30	231.44	10.18	-42.1	-45.8	17.2	6.03e-01	0	61	0	869269504	55	5643
2026-01-25 02:24:21.32	231.36	10.09	-42.0	-45.7	17.3	6.05e-01	0	61	0	871366656	55	5562
2026-01-25 02:24:22.32	231.28	10.00	-41.9	-45.6	17.4	6.02e-01	0	61	0	873463808	55	5510
2026-01-25 02:24:23.33	231.20	9.92	-42.0	-45.6	17.3	6.05e-01	0	61	0	875036672	55	5526
2026-01-25 02:24:24.34	231.12	9.83	-42.0	-45.7	17.3	6.04e-01	0	61	0	877133824	55	5546
2026-01-25 02:24:25.35	231.04	9.74	-42.0	-45.7	17.3	6.03e-01	0	61	0	879230976	55	5567
2026-01-25 02:24:26.36	230.97	9.66	-42.0	-45.8	17.2	6.04e-01	0	61	0	880803840	55	5631
2026-01-25 02:24:27.37	230.89	9.57	-42.1	-45.8	17.1	6.03e-01	0	61	0	882900992	55	5645
2026-01-25 02:24:28.38	230.81	9.48	-42.0	-45.8	17.2	6.03e-01	0	61	0	884473856	55	5607
2026-01-25 02:24:29.39	230.73	9.40	-42.1	-45.9	17.0	6.04e-01	0	61	0	886571008	55	5687
2026-01-25 02:24:30.40	230.66	9.31	-42.0	-45.7	17.2	6.01e-01	0	61	0	888668160	55	5586
2026-01-25 02:24:31.41	230.58	9.23	-42.0	-45.8	17.2	6.04e-01	0	61	0	890241024	55	5607
2026-01-25 02:24:32.42	230.50	9.14	-42.0	-45.7	17.2	6.00e-01	0	61	0	892338176	55	5558
2026-01-25 02:24:33.43	230.43	9.06	-42.0	-45.8	17.1	6.03e-01	0	61	0	893911040	55	5638
2026-01-25 02:24:34.44	230.35	8.98	-42.1	-45.9	17.0	6.05e-01	0	61	0	896008192	55	5700
2026-01-25 02:24:35.44	230.28	8.89	-42.1	-45.9	17.0	6.05e-01	0	61	0	898105344	55	5694
2026-01-25 02:24:36.45	230.21	8.81	-42.1	-46.0	16.8	6.04e-01	0	61	0	899678208	55	5773
2026-01-25 02:24:37.46	230.13	8.73	-42.1	-46.0	16.9	6.04e-01	0	61	0	901775360	55	5729
2026-01-25 02:24:38.47	230.06	8.64	-42.1	-45.9	16.9	6.01e-01	0	61	0	903872512	55	5718
2026-01-25 02:24:39.48	229.99	8.56	-42.1	-46.1	16.7	6.03e-01	0	61	0	905445376	55	5833
2026-01-25 02:24:40.49	229.92	8.48	-42.1	-46.1	16.7	6.05e-01	0	61	0	907542528	55	5829
2026-01-25 02:24:41.50	229.85	8.40	-42.1	-46.1	16.7	6.02e-01	0	61	0	909115392	55	5836
2026-01-25 02:24:42.51	229.77	8.31	-42.2	-46.4	16.5	6.02e-01	0	61	0	911212544	55	6003
2026-01-25 02:24:43.52	229.70	8.23	-42.2	-46.3	16.5	6.03e-01	0	61	0	913309696	55	5982
2026-01-25 02:24:44.53	229.63	8.15	-42.2	-46.4	16.4	6.03e-01	0	61	0	914882560	55	6007
2026-01-25 02:24:45.54	229.56	8.07	-42.3	-46.4	16.4	6.01e-01	0	61	0	916979712	55	6043
2026-01-25 02:24:46.55	229.50	7.99	-44.4	-52.3	11.4	6.14e-01	0	61	0	918552576	59	9441
2026-01-25 02:24:47.56	229.43	7.91	-45.5	-63.4	3.8	7.48e-01	0	61	104	919076864	61	30117
2026-01-25 02:24:48.57	229.36	7.83	-45.8	-64.3	3.8	7.44e-01	0	61	104	919076864	62	31718
2026-01-25 02:24:49.58	229.29	7.75	-46.0	-64.5	3.8	7.45e-01	0	61	104	919076864	62	32397
2026-01-25 02:24:50.59	229.22	7.67	-46.1	-64.6	3.8	7.45e-01	0	61	104	919076864	62	32822
2026-01-25 02:24:51.60	229.16	7.59	-46.1	-64.7	3.8	7.47e-01	0	61	104	919076864	62	33023
2026-01-25 02:24:52.61	229.09	7.51	-46.2	-64.7	3.8	7.44e-01	0	61	104	919076864	62	33211
2026-01-25 02:24:53.62	229.02	7.43	-46.2	-64.8	3.8	7.44e-01	0	61	104	919076864	63	31636
2026-01-25 02:24:54.63	228.96	7.35	-46.3	-64.8	3.8	7.45e-01	0	61	104	919076864	63	31590
2026-01-25 02:24:55.64	228.89	7.27	-46.3	-64.8	3.8	7.45e-01	0	61	104	919076864	63	31687
2026-01-25 02:24:56.65	228.83	7.19	-46.3	-64.8	3.8	7.43e-01	0	61	104	919076864	63	31641
2026-01-25 02:24:57.66	228.76	7.11	-46.2	-64.7	3.8	7.44e-01	0	61	104	919076864	63	31310
2026-01-25 02:24:58.67	228.70	7.04	-46.2	-64.7	3.8	7.45e-01	0	61	104	919076864	63	31344
2026-01-25 02:24:59.68	228.63	6.96	-46.2	-64.7	3.8	7.45e-01	0	61	104	919076864	63	31172
2026-01-25 02:25:00.69	228.57	6.88	-46.1	-64.6	3.8	7.46e-01	0	61	104	919076864	63	31034
2026-01-25 02:25:01.70	228.51	6.80	-46.2	-64.7	3.8	7.48e-01	0	61	104	919076864	63	31140
2026-01-25 02:25:02.71	228.45	6.73	-46.2	-64.7	3.8	7.46e-01	0	61	104	919076864	63	31277
2026-01-25 02:25:03.72	228.38	6.65	-46.1	-64.6	3.8	7.47e-01	0	61	104	919076864	63	30957
2026-01-25 02:25:04.73	228.32	6.57	-46.1	-64.6	3.8	7.45e-01	0	61	104	919076864	63	31046
2026-01-25 02:25:05.74	228.26	6.50	-46.1	-64.6	3.8	7.46e-01	0	61	104	919076864	63	30992
2026-01-25 02:25:06.75	228.20	6.42	-46.1	-64.6	3.8	7.44e-01	0	61	104	919076864	63	31002
2026-01-25 02:25:07.76	228.14	6.34	-46.1	-64.6	3.8	7.44e-01	0	61	104	919076864	63	30995
2026-01-25 02:25:08.77	228.08	6.27	-46.1	-64.6	3.8	7.47e-01	0	61	104	919076864	63	30996
2026-01-25 02:25:09.78	228.02	6.19	-46.1	-64.6	3.8	7.44e-01	0	61	104	919076864	63	30993
2026-01-25 02:25:10.79	227.96	6.12	-46.1	-64.6	3.8	7.49e-01	0	61	104	919076864	63	30944
2026-01-25 02:25:11.80	227.90	6.04	-46.1	-64.6	3.8	7.41e-01	0	61	104	919076864	63	30946
2026-01-25 02:25:12.81	227.84	5.97	-46.1	-64.6	3.8	7.47e-01	0	61	104	919076864	63	31057
2026-01-25 02:25:13.82	227.78	5.89	-46.1	-64.6	3.8	7.43e-01	0	61	104	919076864	63	31046
2026-01-25 02:25:14.83	227.72	5.82	-46.1	-64.6	3.8	7.44e-01	0	61	104	919076864	63	31005
2026-01-25 02:25:15.84	227.66	5.74	-46.1	-64.6	3.8	7.49e-01	0	61	104	919076864	63	30995
2026-01-25 02:25:16.85	227.60	5.67	-46.1	-64.6	3.8	7.46e-01	0	61	104	919076864	63	31013
2026-01-25 02:25:17.87	227.55	5.59	-46.1	-64.6	3.8	7.42e-01	0	61	104	919076864	63	30998
2026-01-25 02:25:18.88	227.49	5.52	-46.1	-64.6	3.8	7.43e-01	0	61	104	919076864	63	30987
2026-01-25 02:25:19.89	227.43	5.45	-46.1	-64.6	3.8	7.47e-01	0	61	104	919076864	63	30967
2026-01-25 02:25:20.90	227.38	5.37	-46.1	-64.6	3.8	7.49e-01	0	61	104	919076864	63	30971
2026-01-25 02:25:21.91	227.32	5.30	-46.1	-64.6	3.8	7.40e-01	0	61	104	919076864	63	31048
2026-01-25 02:25:22.92	227.26	5.23	-46.1	-64.6	3.8	7.44e-01	0	61	104	919076864	63	30992
2026-01-25 02:25:23.93	227.21	5.15	-46.1	-64.6	3.8	7.46e-01	0	61	104	919076864	63	30940
2026-01-25 02:25:24.94	227.15	5.08	-46.1	-64.6	3.8	7.46e-01	0	61	104	919076864	63	30998
2026-01-25 02:25:25.95	227.10	5.01	-46.1	-64.6	3.8	7.46e-01	0	61	104	919076864	63	30990
2026-01-25 02:25:26.96	227.04	4.94	-46.1	-64.6	3.8	7.44e-01	0	61	104	919076864	63	30929
2026-01-25 02:25:27.97	226.99	4.87	-46.1	-64.6	3.8	7.46e-01	0	61	104	919076864	63	30955
2026-01-25 02:25:28.98	226.94	4.79	-46.1	-64.6	3.8	7.47e-01	0	61	104	919076864	63	30983
2026-01-25 02:25:29.99	226.88	4.72	-46.1	-64.6	3.8	7.41e-01	0	61	104	919076864	63	30969
2026-01-25 02:25:31.00	226.83	4.65	-46.1	-64.6	3.8	7.44e-01	0	61	104	919076864	63	30916
2026-01-25 02:25:32.01	226.78	4.58	-46.1	-64.6	3.8	7.45e-01	0	61	104	919076864	63	30992
2026-01-25 02:25:33.03	226.72	4.51	-46.1	-64.6	3.8	7.48e-01	0	61	104	919076864	63	30948
2026-01-25 02:25:34.04	226.67	4.44	-46.1	-64.6	3.8	7.44e-01	0	61	104	919076864	63	30945
2026-01-25 02:25:35.05	226.62	4.37	-46.1	-64.6	3.8	7.44e-01	0	62	104	919076864	63	30911
2026-01-25 02:25:36.06	226.57	4.30	-46.1	-64.6	3.8	7.47e-01	0	61	104	919076864	63	30933
2026-01-25 02:25:37.07	226.52	4.23	-46.1	-64.6	3.8	7.45e-01	0	61	104	919076864	63	30865
2026-01-25 02:25:38.08	226.46	4.16	-46.1	-64.6	3.8	7.47e-01	0	61	104	919076864	63	30892
2026-01-25 02:25:39.09	226.41	4.09	-46.1	-64.6	3.8	7.46e-01	0	61	104	919076864	63	30880
2026-01-25 02:25:40.10	226.36	4.02	-46.1	-64.6	3.8	7.46e-01	0	61	104	919076864	63	30974
2026-01-25 02:25:41.11	226.31	3.95	-46.1	-64.6	3.8	7.46e-01	0	61	104	919076864	63	30903
