passes_logs/2026/01/25/R2.0S_Moscow/R2.0S_Moscow__20260125_173755_FENGYUN_3G_rec.log

#Pass ID: 20260125_173755_FENGYUN 3G
#Satellite: FENGYUN 3G
#Configuration: FENGYUN 3G
#almurnet v.1.7.20251203
#Start time: 2026-01-25 17:37:57

#Version: 2.2.20231116
#Station: R2.0S_Moscow
#Location: 37.707566 lon 55.798166 lat
#TLE: 1 56232U 23055A   26025.14527328  .00046082  00000+0  69370-3 0  9997
#TLE: 2 56232  49.9948   3.5622 0004071  80.7231 279.4197 15.54300718157774

#Time	Az	El	Level	Level2	SNR	BER	BlckErr	Temp	State	Recorded	gain1	gain2
2026-01-25 17:37:57.27	227.60	2.11	-44.1	-62.2	3.8	8.47e-01	0	52	0	0	60	27834
2026-01-25 17:37:58.27	227.51	2.18	-44.1	-62.2	3.8	8.43e-01	0	52	104	0	60	27780
2026-01-25 17:37:59.28	227.43	2.24	-44.1	-62.1	3.8	8.46e-01	0	52	104	0	60	27679
2026-01-25 17:38:00.29	227.34	2.30	-44.1	-62.1	3.8	8.47e-01	0	52	104	0	60	27577
2026-01-25 17:38:01.30	227.26	2.37	-44.1	-62.1	3.8	8.47e-01	0	52	104	0	60	27438
2026-01-25 17:38:02.32	227.17	2.43	-44.1	-62.1	3.8	8.45e-01	0	52	104	0	60	27465
2026-01-25 17:38:03.33	227.08	2.50	-44.1	-62.1	3.8	8.46e-01	0	52	104	0	60	27522
2026-01-25 17:38:04.34	227.00	2.56	-44.1	-62.0	3.8	8.46e-01	0	52	104	0	60	27343
2026-01-25 17:38:05.35	226.91	2.63	-44.1	-61.9	3.8	8.46e-01	0	52	104	0	60	26967
2026-01-25 17:38:06.36	226.82	2.69	-44.1	-61.8	3.8	8.45e-01	0	53	104	0	60	26698
2026-01-25 17:38:07.37	226.73	2.76	-44.0	-61.8	3.8	8.45e-01	0	53	104	0	60	26589
2026-01-25 17:38:08.38	226.64	2.82	-44.1	-61.8	3.8	8.45e-01	0	53	104	0	60	26701
2026-01-25 17:38:09.39	226.55	2.89	-44.1	-61.9	3.8	8.46e-01	0	53	104	0	60	26811
2026-01-25 17:38:10.40	226.46	2.96	-44.1	-61.8	3.8	8.46e-01	0	53	104	0	60	26714
2026-01-25 17:38:11.41	226.37	3.02	-44.1	-61.9	3.8	8.46e-01	0	53	104	0	60	27034
2026-01-25 17:38:12.42	226.27	3.09	-44.1	-62.0	3.8	8.46e-01	0	53	104	0	60	27169
2026-01-25 17:38:13.43	226.18	3.16	-44.1	-62.1	3.8	8.46e-01	0	53	104	0	60	27459
2026-01-25 17:38:14.44	226.09	3.22	-44.1	-62.1	3.8	8.46e-01	0	53	104	0	60	27666
2026-01-25 17:38:15.45	225.99	3.29	-44.1	-62.2	3.8	8.47e-01	0	53	104	0	60	27727
2026-01-25 17:38:16.46	225.90	3.36	-44.1	-62.2	3.8	8.47e-01	0	53	104	0	60	27815
2026-01-25 17:38:17.47	225.80	3.42	-44.1	-62.2	3.8	8.47e-01	0	53	104	0	60	27826
2026-01-25 17:38:18.48	225.71	3.49	-44.1	-62.2	3.8	8.46e-01	0	53	104	0	60	27791
2026-01-25 17:38:19.49	225.61	3.56	-44.1	-62.2	3.8	8.46e-01	0	53	104	0	60	27780
2026-01-25 17:38:20.51	225.51	3.63	-44.1	-62.2	3.8	8.46e-01	0	53	104	0	60	27752
2026-01-25 17:38:21.52	225.41	3.70	-44.1	-62.2	3.8	8.46e-01	0	54	104	0	60	27756
2026-01-25 17:38:22.53	225.31	3.76	-44.1	-62.2	3.8	8.46e-01	0	54	104	0	60	27724
2026-01-25 17:38:23.54	225.21	3.83	-44.1	-62.2	3.8	8.46e-01	0	54	104	0	60	27747
2026-01-25 17:38:24.55	225.11	3.90	-44.1	-62.2	3.8	8.46e-01	0	54	104	0	60	27712
2026-01-25 17:38:25.56	225.01	3.97	-44.1	-62.1	3.8	8.46e-01	0	54	104	0	60	27677
2026-01-25 17:38:26.57	224.91	4.04	-44.1	-62.1	3.8	8.46e-01	0	54	104	0	60	27689
2026-01-25 17:38:27.58	224.81	4.11	-44.1	-62.1	3.8	8.46e-01	0	54	104	0	60	27685
2026-01-25 17:38:28.59	224.71	4.18	-44.0	-62.2	3.8	8.46e-01	0	54	104	0	60	27720
2026-01-25 17:38:29.60	224.60	4.25	-44.0	-62.2	3.8	8.46e-01	0	54	104	0	60	27758
2026-01-25 17:38:30.61	224.50	4.32	-44.1	-62.1	3.8	8.46e-01	0	54	104	0	60	27700
2026-01-25 17:38:31.62	224.39	4.39	-44.1	-62.1	3.8	8.47e-01	0	54	104	0	60	27700
2026-01-25 17:38:32.63	224.29	4.46	-44.1	-62.1	3.8	8.46e-01	0	54	104	0	59	29322
2026-01-25 17:38:33.64	224.18	4.53	-44.1	-62.0	3.8	8.46e-01	0	54	104	0	59	28890
2026-01-25 17:38:34.65	224.07	4.60	-44.1	-62.1	3.8	8.46e-01	0	54	104	0	59	29241
2026-01-25 17:38:35.66	223.97	4.67	-44.1	-62.2	3.8	8.46e-01	0	55	104	0	59	29364
2026-01-25 17:38:36.67	223.86	4.74	-44.2	-62.2	3.8	8.46e-01	0	54	104	0	59	29442
2026-01-25 17:38:37.68	223.75	4.81	-44.1	-62.2	3.8	8.46e-01	0	54	104	0	59	29447
2026-01-25 17:38:38.69	223.64	4.88	-44.1	-62.1	3.8	8.47e-01	0	55	104	0	59	29199
2026-01-25 17:38:39.71	223.52	4.96	-44.1	-62.1	3.8	8.46e-01	0	55	104	0	59	29180
2026-01-25 17:38:40.72	223.41	5.03	-44.1	-61.9	3.8	8.46e-01	0	55	104	0	59	28643
2026-01-25 17:38:41.73	223.30	5.10	-44.1	-61.6	3.8	8.46e-01	0	55	104	0	59	27640
2026-01-25 17:38:42.74	223.19	5.17	-44.1	-61.4	3.8	8.46e-01	0	54	104	0	59	26941
2026-01-25 17:38:43.75	223.07	5.25	-44.1	-61.3	3.8	8.46e-01	0	55	104	0	59	26728
2026-01-25 17:38:44.76	222.96	5.32	-44.1	-61.4	3.8	8.46e-01	0	55	104	0	59	26927
2026-01-25 17:38:45.77	222.84	5.39	-44.1	-61.2	3.8	8.47e-01	0	55	104	0	59	26266
2026-01-25 17:38:46.78	222.72	5.47	-44.1	-61.5	3.8	8.47e-01	0	55	104	0	59	27217
2026-01-25 17:38:47.79	222.61	5.54	-44.1	-61.4	3.8	8.45e-01	0	55	104	0	59	26826
2026-01-25 17:38:48.80	222.49	5.61	-44.1	-61.6	3.8	8.47e-01	0	55	104	0	59	27473
2026-01-25 17:38:49.81	222.37	5.69	-44.1	-61.8	3.8	8.45e-01	0	55	104	0	59	28107
2026-01-25 17:38:50.82	222.25	5.76	-44.1	-61.4	3.8	8.45e-01	0	55	104	0	59	26865
2026-01-25 17:38:51.83	222.13	5.84	-44.1	-60.7	3.8	8.46e-01	0	55	104	0	59	24716
2026-01-25 17:38:52.84	222.00	5.91	-44.1	-60.0	3.8	8.46e-01	0	55	104	0	59	23023
2026-01-25 17:38:53.85	221.88	5.99	-44.1	-59.6	4.0	8.46e-01	0	55	104	0	59	22001
2026-01-25 17:38:54.86	221.76	6.06	-44.1	-59.4	4.0	8.45e-01	0	55	104	0	59	21387
2026-01-25 17:38:55.87	221.63	6.14	-44.0	-59.3	4.0	8.45e-01	0	55	104	0	59	21044
2026-01-25 17:38:56.88	221.51	6.21	-44.0	-59.2	3.9	8.45e-01	0	56	104	0	59	20952
2026-01-25 17:38:57.89	221.38	6.29	-44.0	-59.0	4.1	8.43e-01	0	55	0	0	59	20407
2026-01-25 17:38:58.90	221.25	6.37	-44.0	-58.0	4.4	8.38e-01	0	56	0	0	59	18178
2026-01-25 17:38:59.91	221.12	6.44	-44.0	-57.8	4.5	8.38e-01	0	55	0	0	59	17787
2026-01-25 17:39:00.92	220.99	6.52	-44.0	-57.7	4.5	8.28e-01	0	56	0	0	59	17513
2026-01-25 17:39:01.93	220.86	6.60	-43.9	-56.8	4.9	8.22e-01	0	56	0	0	59	15869
2026-01-25 17:39:02.94	220.73	6.67	-43.8	-55.1	5.9	7.32e-01	0	56	0	0	59	13070
2026-01-25 17:39:03.95	220.60	6.75	-43.6	-53.6	7.3	7.32e-01	0	56	0	1048576	59	10931
2026-01-25 17:39:04.96	220.46	6.83	-43.5	-52.5	8.4	2.15e-01	0	56	0	2097152	59	9614
2026-01-25 17:39:05.97	220.33	6.91	-43.3	-51.6	9.3	5.30e-02	0	56	0	3145728	58	9218
2026-01-25 17:39:06.98	220.19	6.99	-43.1	-50.6	10.3	5.30e-02	0	56	0	4718592	58	8180
2026-01-25 17:39:07.99	220.06	7.06	-43.1	-50.4	10.6	1.39e-02	0	56	0	5767168	58	8044
2026-01-25 17:39:09.00	219.92	7.14	-43.2	-50.9	10.1	5.33e-03	0	56	0	6815744	58	8505
2026-01-25 17:39:10.01	219.78	7.22	-43.5	-52.3	8.7	5.33e-03	0	56	0	7864320	58	9974
2026-01-25 17:39:11.02	219.64	7.30	-43.7	-54.1	7.0	2.15e-02	0	56	0	8912896	58	12292
2026-01-25 17:39:12.03	219.50	7.38	-44.0	-58.1	4.4	2.58e-01	0	56	0	9437184	58	19515
2026-01-25 17:39:13.04	219.36	7.46	-44.1	-60.5	3.8	2.58e-01	0	56	104	9437184	58	25714
2026-01-25 17:39:14.05	219.22	7.54	-43.8	-55.5	5.5	8.32e-01	0	56	0	9437184	58	14512
2026-01-25 17:39:15.06	219.07	7.62	-43.3	-51.4	9.3	6.39e-01	0	56	0	10485760	58	9010
2026-01-25 17:39:16.07	218.93	7.70	-42.6	-48.7	12.2	2.14e-02	0	56	0	11534336	57	7018
2026-01-25 17:39:17.08	218.78	7.78	-42.0	-47.0	14.0	2.14e-02	0	56	0	12582912	56	6096
2026-01-25 17:39:18.09	218.63	7.86	-41.3	-45.7	15.2	3.43e-05	0	56	0	13631488	54	5900
2026-01-25 17:39:19.10	218.48	7.94	-41.1	-45.2	15.7	0.00e+00	0	56	0	14680064	54	5579
2026-01-25 17:39:20.11	218.33	8.03	-41.2	-45.4	15.6	0.00e+00	0	56	0	15728640	54	5690
2026-01-25 17:39:21.12	218.18	8.11	-42.2	-47.7	13.3	0.00e+00	0	56	0	16777216	55	6980
2026-01-25 17:39:22.13	218.03	8.19	-42.5	-48.2	12.1	7.32e-05	0	57	0	18350080	56	7039
2026-01-25 17:39:23.14	217.88	8.27	-43.4	-52.3	7.6	7.32e-05	0	56	0	19398656	57	10568
2026-01-25 17:39:24.16	217.72	8.36	-41.9	-46.8	13.7	1.18e-02	0	56	0	20447232	55	6324
2026-01-25 17:39:25.17	217.56	8.44	-43.9	-58.9	4.2	1.09e-03	0	56	0	20971520	58	21471
2026-01-25 17:39:26.18	217.41	8.52	-41.5	-45.9	15.0	4.88e-01	0	57	0	20971520	54	6022
2026-01-25 17:39:27.19	217.25	8.61	-41.3	-45.6	15.5	4.88e-01	0	57	0	22020096	54	5792
2026-01-25 17:39:28.20	217.09	8.69	-41.2	-45.2	15.8	0.00e+00	0	57	0	23592960	54	5584
2026-01-25 17:39:29.21	216.93	8.77	-41.1	-45.0	16.1	0.00e+00	0	57	0	24641536	54	5436
2026-01-25 17:39:30.22	216.77	8.86	-41.0	-44.9	16.2	0.00e+00	0	57	0	25690112	53	5707
2026-01-25 17:39:31.23	216.60	8.94	-40.9	-44.8	16.3	0.00e+00	0	57	0	26738688	53	5631
2026-01-25 17:39:32.23	216.44	9.02	-41.0	-45.0	16.2	0.00e+00	0	57	0	27787264	53	5728
2026-01-25 17:39:33.24	216.27	9.11	-40.7	-44.4	16.7	0.00e+00	0	57	0	28835840	53	5365
2026-01-25 17:39:34.25	216.11	9.20	-40.6	-44.2	17.0	0.00e+00	0	57	0	30408704	53	5237
2026-01-25 17:39:35.26	215.94	9.28	-40.6	-44.2	17.1	0.00e+00	0	57	0	31457280	53	5221
2026-01-25 17:39:36.28	215.76	9.37	-40.6	-44.1	17.1	0.00e+00	0	57	0	32505856	53	5181
2026-01-25 17:39:37.29	215.59	9.45	-40.6	-44.1	17.1	0.00e+00	0	57	0	33554432	53	5179
2026-01-25 17:39:38.30	215.42	9.54	-40.5	-43.9	17.3	0.00e+00	0	57	0	34603008	53	5068
2026-01-25 17:39:39.31	215.25	9.63	-40.4	-43.8	17.5	0.00e+00	0	57	0	35651584	52	5297
2026-01-25 17:39:40.32	215.07	9.71	-40.4	-43.7	17.5	0.00e+00	0	57	0	36700160	52	5265
2026-01-25 17:39:41.33	214.89	9.80	-40.4	-43.7	17.6	0.00e+00	0	57	0	38273024	52	5245
2026-01-25 17:39:42.34	214.71	9.89	-40.4	-43.7	17.6	0.00e+00	0	57	0	39321600	52	5231
2026-01-25 17:39:43.35	214.53	9.97	-40.4	-43.7	17.6	0.00e+00	0	57	0	40370176	52	5265
2026-01-25 17:39:44.36	214.35	10.06	-40.5	-43.8	17.4	0.00e+00	0	57	0	41418752	52	5338
2026-01-25 17:39:45.37	214.17	10.15	-40.5	-43.9	17.4	0.00e+00	0	57	0	42467328	52	5370
2026-01-25 17:39:46.38	213.99	10.24	-40.5	-43.9	17.4	0.00e+00	0	57	0	44040192	52	5384
2026-01-25 17:39:47.39	213.80	10.33	-40.5	-43.9	17.5	0.00e+00	0	57	0	45088768	52	5347
2026-01-25 17:39:48.40	213.61	10.42	-40.4	-43.6	17.7	0.00e+00	0	57	0	46137344	52	5204
2026-01-25 17:39:49.42	213.42	10.51	-40.3	-43.6	17.8	0.00e+00	0	57	0	47185920	52	5167
2026-01-25 17:39:50.42	213.23	10.59	-40.4	-43.6	17.7	0.00e+00	0	57	0	48234496	52	5208
2026-01-25 17:39:51.43	213.04	10.68	-40.3	-43.4	17.9	0.00e+00	0	57	0	49283072	52	5095
2026-01-25 17:39:52.44	212.84	10.77	-40.2	-43.4	18.0	0.00e+00	0	58	0	50855936	52	5069
2026-01-25 17:39:53.45	212.65	10.86	-40.3	-43.4	17.9	0.00e+00	0	57	0	51904512	52	5083
2026-01-25 17:39:54.47	212.45	10.95	-40.1	-43.1	18.3	0.00e+00	0	57	0	52953088	52	4897
2026-01-25 17:39:55.48	212.25	11.05	-40.1	-43.2	18.2	0.00e+00	0	58	0	54001664	52	4942
2026-01-25 17:39:56.49	212.05	11.14	-40.1	-43.2	18.2	0.00e+00	0	57	0	55050240	52	4956
2026-01-25 17:39:57.50	211.85	11.23	-40.1	-43.2	18.3	0.00e+00	0	58	0	56098816	52	4940
2026-01-25 17:39:58.50	211.65	11.32	-40.2	-43.3	18.1	0.00e+00	0	58	0	57671680	52	5028
2026-01-25 17:39:59.52	211.44	11.41	-40.1	-43.2	18.2	0.00e+00	0	58	0	58720256	52	4964
2026-01-25 17:40:00.52	211.23	11.50	-40.1	-43.2	18.3	0.00e+00	0	57	0	59768832	52	4934
2026-01-25 17:40:01.53	211.03	11.59	-40.1	-43.1	18.3	0.00e+00	0	57	0	60817408	52	4924
2026-01-25 17:40:02.54	210.81	11.68	-40.0	-43.0	18.4	0.00e+00	0	58	0	61865984	52	4855
2026-01-25 17:40:03.55	210.60	11.78	-40.0	-43.0	18.5	0.00e+00	0	57	0	62914560	51	5107
2026-01-25 17:40:04.56	210.39	11.87	-39.9	-42.8	18.7	0.00e+00	0	58	0	64487424	51	5040
2026-01-25 17:40:05.57	210.17	11.96	-39.9	-42.7	18.8	0.00e+00	0	58	0	65536000	51	4975
2026-01-25 17:40:06.58	209.95	12.06	-39.9	-42.7	18.8	0.00e+00	0	58	0	66584576	51	4965
2026-01-25 17:40:07.59	209.73	12.15	-39.8	-42.6	18.9	0.00e+00	0	58	0	67633152	51	4915
2026-01-25 17:40:08.60	209.51	12.24	-39.7	-42.5	19.1	0.00e+00	0	58	0	68681728	51	4820
2026-01-25 17:40:09.61	209.29	12.34	-39.9	-42.7	18.9	0.00e+00	0	58	0	69730304	51	4957
2026-01-25 17:40:10.62	209.06	12.43	-40.0	-42.9	18.6	0.00e+00	0	58	0	71303168	51	5093
2026-01-25 17:40:11.63	208.84	12.52	-40.0	-43.0	18.6	0.00e+00	0	58	0	72351744	51	5123
2026-01-25 17:40:12.64	208.61	12.62	-40.0	-43.0	18.6	0.00e+00	0	58	0	73400320	51	5120
2026-01-25 17:40:13.65	208.38	12.71	-40.0	-42.9	18.7	0.00e+00	0	58	0	74448896	51	5069
2026-01-25 17:40:14.66	208.14	12.81	-39.9	-42.8	18.8	0.00e+00	0	58	0	75497472	51	5008
2026-01-25 17:40:15.66	207.91	12.90	-39.8	-42.6	19.0	0.00e+00	0	58	0	76546048	51	4911
2026-01-25 17:40:16.67	207.67	12.99	-39.6	-42.3	19.4	0.00e+00	0	58	0	77594624	51	4707
2026-01-25 17:40:17.68	207.43	13.09	-39.4	-42.0	19.6	0.00e+00	0	58	0	79167488	50	4832
2026-01-25 17:40:18.69	207.19	13.18	-39.3	-41.8	19.8	0.00e+00	0	58	0	80216064	50	4754
2026-01-25 17:40:19.70	206.95	13.28	-39.3	-41.9	19.8	0.00e+00	0	58	0	81264640	50	4762
2026-01-25 17:40:20.71	206.70	13.38	-39.4	-41.9	19.7	0.00e+00	0	58	0	82313216	50	4804
2026-01-25 17:40:21.72	206.46	13.47	-39.5	-42.1	19.6	0.00e+00	0	58	0	83361792	50	4920
2026-01-25 17:40:22.73	206.21	13.57	-39.6	-42.2	19.4	0.00e+00	0	58	0	84934656	50	4982
2026-01-25 17:40:23.74	205.96	13.66	-39.7	-42.4	19.3	0.00e+00	0	58	0	85983232	50	5075
2026-01-25 17:40:24.75	205.70	13.76	-39.8	-42.5	19.2	0.00e+00	0	58	0	87031808	50	5159
2026-01-25 17:40:25.76	205.45	13.85	-39.8	-42.6	19.1	0.00e+00	0	58	0	88080384	50	5198
2026-01-25 17:40:26.77	205.19	13.95	-39.7	-42.4	19.3	0.00e+00	0	58	0	89128960	50	5070
2026-01-25 17:40:27.78	204.93	14.05	-39.6	-42.2	19.5	0.00e+00	0	58	0	90177536	50	4971
2026-01-25 17:40:28.79	204.67	14.14	-39.4	-42.0	19.7	0.00e+00	0	58	0	91750400	50	4828
2026-01-25 17:40:29.80	204.40	14.24	-39.1	-41.5	20.1	0.00e+00	0	58	0	92798976	50	4592
2026-01-25 17:40:30.81	204.14	14.34	-39.0	-41.4	20.3	0.00e+00	0	58	0	93847552	50	4526
2026-01-25 17:40:31.81	203.87	14.43	-39.0	-41.4	20.3	0.00e+00	0	58	0	94896128	50	4526
2026-01-25 17:40:32.83	203.60	14.53	-39.1	-41.6	20.1	0.00e+00	0	58	0	95944704	50	4620
2026-01-25 17:40:33.84	203.32	14.63	-39.2	-41.8	19.9	0.00e+00	0	58	0	96993280	50	4707
2026-01-25 17:40:34.85	203.05	14.72	-39.4	-41.9	19.8	0.00e+00	0	58	0	98566144	50	4790
2026-01-25 17:40:35.86	202.77	14.82	-39.4	-42.0	19.7	0.00e+00	0	58	0	99614720	50	4870
2026-01-25 17:40:36.86	202.49	14.91	-39.4	-42.0	19.7	0.00e+00	0	58	0	100663296	50	4832
2026-01-25 17:40:37.87	202.21	15.01	-39.2	-41.8	19.9	0.00e+00	0	58	0	101711872	50	4714
2026-01-25 17:40:38.88	201.92	15.11	-39.0	-41.4	20.3	0.00e+00	0	58	0	102760448	50	4508
2026-01-25 17:40:39.89	201.64	15.20	-38.8	-41.2	20.5	0.00e+00	0	58	0	103809024	49	4653
2026-01-25 17:40:40.90	201.35	15.30	-38.7	-40.9	20.8	0.00e+00	0	59	0	105381888	49	4534
2026-01-25 17:40:41.91	201.05	15.40	-38.6	-40.9	20.8	0.00e+00	0	59	0	106430464	49	4500
2026-01-25 17:40:42.92	200.76	15.49	-38.7	-41.0	20.8	0.00e+00	0	58	0	107479040	49	4582
2026-01-25 17:40:43.93	200.46	15.59	-38.8	-41.1	20.6	0.00e+00	0	58	0	108527616	49	4623
2026-01-25 17:40:44.94	200.16	15.69	-38.8	-41.2	20.6	0.00e+00	0	58	0	109576192	49	4657
2026-01-25 17:40:45.95	199.86	15.78	-38.8	-41.1	20.5	0.00e+00	0	58	0	110624768	49	4644
2026-01-25 17:40:46.96	199.56	15.88	-38.9	-41.3	20.3	0.00e+00	0	59	0	112197632	49	4749
2026-01-25 17:40:47.97	199.25	15.97	-38.9	-41.3	20.3	0.00e+00	0	59	0	113246208	49	4757
2026-01-25 17:40:48.98	198.94	16.07	-38.8	-41.2	20.4	0.00e+00	0	59	0	114294784	49	4685
2026-01-25 17:40:49.99	198.63	16.17	-38.9	-41.3	20.3	0.00e+00	0	59	0	115343360	49	4718
2026-01-25 17:40:50.99	198.32	16.26	-38.9	-41.3	20.4	0.00e+00	0	58	0	116391936	49	4713
2026-01-25 17:40:52.01	198.00	16.36	-39.0	-41.4	20.3	0.00e+00	0	59	0	117440512	49	4778
2026-01-25 17:40:53.02	197.68	16.45	-38.8	-41.1	20.5	0.00e+00	0	59	0	118489088	49	4622
2026-01-25 17:40:54.03	197.36	16.55	-38.7	-41.1	20.6	0.00e+00	0	59	0	120061952	49	4609
2026-01-25 17:40:55.03	197.03	16.64	-38.6	-40.9	20.7	0.00e+00	0	59	0	121110528	49	4524
2026-01-25 17:40:56.04	196.71	16.73	-38.6	-40.8	20.8	0.00e+00	0	59	0	122159104	49	4493
2026-01-25 17:40:57.05	196.38	16.83	-38.6	-40.9	20.8	0.00e+00	0	59	0	123207680	49	4504
2026-01-25 17:40:58.06	196.05	16.92	-38.6	-40.8	20.9	0.00e+00	0	59	0	124256256	49	4475
2026-01-25 17:40:59.07	195.71	17.01	-38.6	-40.8	20.8	0.00e+00	0	59	0	125304832	49	4474
2026-01-25 17:41:00.08	195.37	17.11	-38.5	-40.8	20.9	0.00e+00	0	59	0	126877696	49	4459
2026-01-25 17:41:01.09	195.03	17.20	-38.4	-40.6	21.0	0.00e+00	0	59	0	127926272	48	4650
2026-01-25 17:41:02.10	194.69	17.29	-38.4	-40.7	21.0	0.00e+00	0	58	0	128974848	48	4666
2026-01-25 17:41:03.11	194.35	17.39	-38.4	-40.6	21.1	0.00e+00	0	59	0	130023424	48	4623
2026-01-25 17:41:04.12	194.00	17.48	-38.3	-40.5	21.2	0.00e+00	0	59	0	131072000	48	4578
2026-01-25 17:41:05.13	193.65	17.57	-38.4	-40.6	21.1	0.00e+00	0	59	0	132644864	48	4615
2026-01-25 17:41:06.14	193.29	17.66	-38.5	-40.7	21.0	0.00e+00	0	59	0	133693440	48	4669
2026-01-25 17:41:07.15	192.94	17.75	-38.4	-40.7	21.0	0.00e+00	0	59	0	134742016	48	4653
2026-01-25 17:41:08.16	192.58	17.84	-38.4	-40.6	21.2	0.00e+00	0	59	0	135790592	48	4599
2026-01-25 17:41:09.17	192.22	17.93	-38.3	-40.4	21.3	0.00e+00	0	59	0	136839168	48	4540
2026-01-25 17:41:10.18	191.85	18.02	-38.0	-40.2	21.5	0.00e+00	0	59	0	137887744	48	4397
2026-01-25 17:41:11.19	191.49	18.11	-37.8	-39.8	21.8	0.00e+00	0	59	0	139460608	47	4487
2026-01-25 17:41:12.20	191.12	18.19	-37.7	-39.7	21.9	0.00e+00	0	59	0	140509184	47	4440
2026-01-25 17:41:13.21	190.75	18.28	-37.6	-39.7	22.0	0.00e+00	0	59	0	141557760	47	4393
2026-01-25 17:41:14.22	190.37	18.37	-37.7	-39.8	21.9	0.00e+00	0	59	0	142606336	47	4470
2026-01-25 17:41:15.23	190.00	18.45	-37.9	-40.0	21.6	0.00e+00	0	59	0	143654912	47	4579
2026-01-25 17:41:16.24	189.62	18.54	-37.8	-39.9	21.8	0.00e+00	0	59	0	144703488	47	4504
2026-01-25 17:41:17.25	189.24	18.62	-38.0	-40.2	21.5	0.00e+00	0	59	0	146276352	47	4654
2026-01-25 17:41:18.26	188.85	18.71	-38.1	-40.2	21.4	0.00e+00	0	59	0	147324928	47	4690
2026-01-25 17:41:19.27	188.46	18.79	-38.0	-40.2	21.5	0.00e+00	0	59	0	148373504	47	4654
2026-01-25 17:41:20.28	188.07	18.87	-38.2	-40.4	21.3	0.00e+00	0	59	0	149422080	47	4769
2026-01-25 17:41:21.29	187.68	18.95	-38.3	-40.5	21.2	0.00e+00	0	59	0	150470656	47	4834
2026-01-25 17:41:22.30	187.29	19.03	-38.2	-40.4	21.3	0.00e+00	0	59	0	151519232	47	4768
2026-01-25 17:41:23.31	186.89	19.11	-38.4	-40.6	21.1	0.00e+00	0	59	0	153092096	47	4914
2026-01-25 17:41:24.32	186.49	19.19	-38.4	-40.7	21.0	0.00e+00	0	59	0	154140672	47	4944
2026-01-25 17:41:25.33	186.09	19.27	-38.5	-40.8	20.9	0.00e+00	0	59	0	155189248	47	4986
2026-01-25 17:41:26.34	185.68	19.35	-38.6	-41.0	20.7	0.00e+00	0	59	0	156237824	47	5119
2026-01-25 17:41:27.36	185.27	19.42	-38.7	-41.0	20.7	0.00e+00	0	59	0	157286400	47	5148
2026-01-25 17:41:28.37	184.86	19.50	-38.7	-41.0	20.7	0.00e+00	0	59	0	158334976	47	5124
2026-01-25 17:41:29.38	184.45	19.57	-38.7	-40.9	20.8	0.00e+00	0	59	0	159907840	48	4801
2026-01-25 17:41:30.39	184.03	19.65	-38.5	-40.7	21.0	0.00e+00	0	59	0	160956416	48	4664
2026-01-25 17:41:31.40	183.61	19.72	-38.4	-40.6	21.1	0.00e+00	0	59	0	162004992	48	4636
2026-01-25 17:41:32.41	183.19	19.79	-38.3	-40.5	21.2	0.00e+00	0	59	0	163053568	48	4588
2026-01-25 17:41:33.42	182.77	19.86	-38.3	-40.5	21.3	0.00e+00	0	59	0	164102144	48	4567
2026-01-25 17:41:34.43	182.35	19.93	-38.2	-40.4	21.3	0.00e+00	0	59	0	165150720	48	4520
2026-01-25 17:41:35.44	181.92	20.00	-38.1	-40.1	21.5	0.00e+00	0	59	0	166723584	48	4389
2026-01-25 17:41:36.45	181.49	20.07	-38.0	-40.1	21.7	0.00e+00	0	59	0	167772160	48	4358
2026-01-25 17:41:37.46	181.06	20.13	-37.7	-39.8	21.8	0.00e+00	0	59	0	168820736	47	4466
2026-01-25 17:41:38.47	180.63	20.20	-37.8	-39.9	21.8	0.00e+00	0	59	0	169869312	47	4529
2026-01-25 17:41:39.48	180.19	20.26	-37.9	-40.1	21.6	0.00e+00	0	59	0	170917888	47	4602
2026-01-25 17:41:40.49	179.75	20.32	-38.0	-40.1	21.6	0.00e+00	0	59	0	171966464	47	4636
2026-01-25 17:41:41.50	179.31	20.38	-38.3	-40.6	21.1	0.00e+00	0	59	0	173539328	47	4885
2026-01-25 17:41:42.51	178.87	20.44	-38.3	-40.5	21.2	0.00e+00	0	59	0	174587904	47	4858
2026-01-25 17:41:43.52	178.43	20.50	-38.1	-40.3	21.4	0.00e+00	0	59	0	175636480	47	4735
2026-01-25 17:41:44.53	177.98	20.55	-38.1	-40.2	21.5	0.00e+00	0	59	0	176685056	47	4680
2026-01-25 17:41:45.54	177.54	20.61	-38.2	-40.4	21.3	0.00e+00	0	59	0	177733632	47	4781
2026-01-25 17:41:46.55	177.09	20.66	-38.0	-40.2	21.5	0.00e+00	0	59	0	178782208	47	4663
2026-01-25 17:41:47.55	176.64	20.72	-38.1	-40.2	21.6	0.00e+00	0	59	0	180355072	47	4665
2026-01-25 17:41:48.56	176.18	20.77	-38.2	-40.4	21.3	0.00e+00	0	59	0	181403648	47	4791
2026-01-25 17:41:49.57	175.73	20.82	-38.2	-40.4	21.4	0.00e+00	0	59	0	182452224	47	4773
2026-01-25 17:41:50.58	175.27	20.86	-38.3	-40.4	21.3	0.00e+00	0	60	0	183500800	47	4809
2026-01-25 17:41:51.59	174.81	20.91	-38.2	-40.4	21.4	0.00e+00	0	60	0	184549376	47	4795
2026-01-25 17:41:52.60	174.35	20.95	-38.4	-40.6	21.2	0.00e+00	0	59	0	185597952	47	4911
2026-01-25 17:41:53.61	173.89	21.00	-38.8	-41.0	21.1	0.00e+00	0	59	0	187170816	49	4583
2026-01-25 17:41:54.62	173.43	21.04	-38.7	-40.9	21.0	0.00e+00	0	59	0	188219392	49	4534
2026-01-25 17:41:55.63	172.96	21.08	-38.8	-41.1	20.8	0.00e+00	0	59	0	189267968	49	4638
2026-01-25 17:41:56.64	172.50	21.12	-38.7	-40.9	21.0	0.00e+00	0	59	0	190316544	49	4510
2026-01-25 17:41:57.65	172.03	21.15	-38.6	-40.7	21.2	0.00e+00	0	59	0	191365120	49	4441
2026-01-25 17:41:58.66	171.56	21.19	-38.5	-40.7	21.2	0.00e+00	0	59	0	192413696	48	4689
2026-01-25 17:41:59.67	171.09	21.22	-38.4	-40.5	21.4	0.00e+00	0	60	0	193986560	48	4590
2026-01-25 17:42:00.68	170.62	21.26	-38.3	-40.4	21.5	0.00e+00	0	59	0	195035136	48	4542
2026-01-25 17:42:01.69	170.15	21.29	-38.1	-40.2	21.8	0.00e+00	0	59	0	196083712	48	4425
2026-01-25 17:42:02.70	169.67	21.31	-38.2	-40.3	21.6	0.00e+00	0	59	0	197132288	48	4475
2026-01-25 17:42:03.71	169.20	21.34	-38.2	-40.3	21.7	0.00e+00	0	59	0	198180864	48	4447
2026-01-25 17:42:04.72	168.72	21.37	-38.1	-40.1	21.9	0.00e+00	0	59	0	199229440	48	4376
2026-01-25 17:42:05.73	168.25	21.39	-38.0	-40.0	22.0	0.00e+00	0	59	0	200802304	48	4314
2026-01-25 17:42:06.74	167.77	21.41	-37.5	-39.4	22.5	0.00e+00	0	59	0	201850880	47	4290
2026-01-25 17:42:07.75	167.29	21.43	-37.2	-39.0	23.0	0.00e+00	0	59	0	202899456	46	4328
2026-01-25 17:42:08.76	166.81	21.45	-37.1	-39.0	23.0	0.00e+00	0	59	0	203948032	46	4300
2026-01-25 17:42:09.77	166.33	21.46	-37.2	-39.1	22.9	0.00e+00	0	60	0	204996608	46	4342
2026-01-25 17:42:10.78	165.86	21.48	-37.2	-39.0	23.0	0.00e+00	0	59	0	206045184	46	4323
2026-01-25 17:42:11.78	165.38	21.49	-37.2	-39.1	22.9	0.00e+00	0	59	0	207618048	46	4358
2026-01-25 17:42:12.79	164.90	21.50	-37.3	-39.2	22.8	0.00e+00	0	59	0	208666624	46	4431
2026-01-25 17:42:13.80	164.42	21.51	-37.5	-39.4	22.7	0.00e+00	0	60	0	209715200	46	4496
2026-01-25 17:42:14.81	163.94	21.52	-37.6	-39.5	22.5	0.00e+00	0	60	0	210763776	46	4590
2026-01-25 17:42:15.82	163.46	21.52	-37.7	-39.7	22.3	0.00e+00	0	60	0	211812352	46	4686
2026-01-25 17:42:16.83	162.97	21.52	-37.8	-39.8	22.1	0.00e+00	0	60	0	212860928	46	4757
2026-01-25 17:42:17.84	162.49	21.53	-37.9	-40.0	22.0	0.00e+00	0	60	0	214433792	46	4821
2026-01-25 17:42:18.85	162.01	21.53	-38.0	-40.1	21.9	0.00e+00	0	59	0	215482368	46	4905
2026-01-25 17:42:19.86	161.53	21.52	-37.9	-40.0	22.0	0.00e+00	0	60	0	216530944	46	4825
2026-01-25 17:42:20.87	161.05	21.52	-37.7	-39.7	22.4	0.00e+00	0	59	0	217579520	46	4659
2026-01-25 17:42:21.88	160.57	21.51	-37.5	-39.5	22.5	0.00e+00	0	60	0	218628096	46	4548
2026-01-25 17:42:22.89	160.08	21.51	-37.4	-39.3	22.7	0.00e+00	0	60	0	219676672	45	4727
2026-01-25 17:42:23.90	159.60	21.50	-37.5	-39.4	22.6	0.00e+00	0	60	0	221249536	45	4796
2026-01-25 17:42:24.91	159.12	21.49	-37.3	-39.3	22.7	0.00e+00	0	60	0	222298112	45	4720
2026-01-25 17:42:25.92	158.64	21.47	-37.4	-39.3	22.7	0.00e+00	0	59	0	223346688	45	4757
2026-01-25 17:42:26.93	158.16	21.46	-37.5	-39.5	22.6	0.00e+00	0	60	0	224395264	45	4821
2026-01-25 17:42:27.94	157.69	21.44	-37.6	-39.6	22.5	0.00e+00	0	60	0	225443840	45	4898
2026-01-25 17:42:28.94	157.21	21.42	-37.9	-40.0	22.1	0.00e+00	0	59	0	226492416	46	4845
2026-01-25 17:42:29.95	156.73	21.40	-38.1	-40.3	21.9	0.00e+00	0	60	0	228065280	46	4986
2026-01-25 17:42:30.96	156.26	21.38	-38.0	-40.1	22.0	0.00e+00	0	59	0	229113856	46	4898
2026-01-25 17:42:31.97	155.78	21.36	-38.1	-40.2	21.9	0.00e+00	0	60	0	230162432	46	4935
2026-01-25 17:42:32.98	155.31	21.33	-38.0	-40.1	22.0	0.00e+00	0	59	0	231211008	46	4879
2026-01-25 17:42:33.99	154.83	21.30	-37.8	-39.9	22.2	0.00e+00	0	60	0	232259584	46	4777
2026-01-25 17:42:35.00	154.36	21.27	-37.8	-39.9	22.2	0.00e+00	0	59	0	233308160	46	4770
2026-01-25 17:42:36.01	153.89	21.24	-37.6	-39.5	22.5	0.00e+00	0	59	0	234356736	46	4587
2026-01-25 17:42:37.02	153.42	21.21	-37.6	-39.6	22.6	0.00e+00	0	60	0	235929600	46	4616
2026-01-25 17:42:38.03	152.95	21.18	-37.9	-40.0	22.2	0.00e+00	0	59	0	236978176	46	4833
2026-01-25 17:42:39.04	152.48	21.14	-38.2	-40.3	21.8	0.00e+00	0	60	0	238026752	46	5024
2026-01-25 17:42:40.05	152.01	21.10	-38.3	-40.4	21.6	0.00e+00	0	60	0	239075328	47	4813
2026-01-25 17:42:41.06	151.55	21.06	-38.3	-40.5	21.6	0.00e+00	0	60	0	240123904	47	4840
2026-01-25 17:42:42.07	151.09	21.02	-38.3	-40.4	21.7	0.00e+00	0	60	0	241172480	47	4792
2026-01-25 17:42:43.08	150.62	20.98	-38.2	-40.3	21.8	0.00e+00	0	60	0	242745344	47	4741
2026-01-25 17:42:44.09	150.16	20.94	-38.1	-40.2	21.8	0.00e+00	0	59	0	243793920	47	4705
2026-01-25 17:42:45.10	149.70	20.89	-37.8	-39.8	22.3	0.00e+00	0	60	0	244842496	47	4473
2026-01-25 17:42:46.11	149.25	20.84	-38.1	-40.2	21.9	0.00e+00	0	60	0	245891072	47	4683
2026-01-25 17:42:47.12	148.79	20.80	-38.1	-40.2	21.8	0.00e+00	0	59	0	246939648	47	4692
2026-01-25 17:42:48.13	148.34	20.75	-38.2	-40.4	21.7	0.00e+00	0	60	0	248512512	47	4778
2026-01-25 17:42:49.14	147.88	20.70	-38.4	-40.6	21.4	0.00e+00	0	60	0	249561088	47	4904
2026-01-25 17:42:50.15	147.43	20.64	-38.4	-40.6	21.5	0.00e+00	0	60	0	250609664	47	4891
2026-01-25 17:42:51.16	146.98	20.59	-38.5	-40.7	21.4	0.00e+00	0	60	0	251658240	47	4958
2026-01-25 17:42:52.17	146.54	20.53	-38.5	-40.7	21.3	0.00e+00	0	60	0	252706816	47	4975
2026-01-25 17:42:53.18	146.09	20.48	-38.5	-40.7	21.3	0.00e+00	0	60	0	253755392	47	4975
2026-01-25 17:42:54.19	145.65	20.42	-38.4	-40.7	21.4	0.00e+00	0	60	0	255328256	47	4927
2026-01-25 17:42:55.20	145.21	20.36	-38.3	-40.4	21.6	0.00e+00	0	60	0	256376832	47	4804
2026-01-25 17:42:56.21	144.77	20.30	-38.3	-40.5	21.5	0.00e+00	0	60	0	257425408	47	4860
2026-01-25 17:42:57.22	144.33	20.23	-38.6	-40.9	21.2	0.00e+00	0	60	0	258473984	47	5079
2026-01-25 17:42:58.23	143.90	20.17	-38.6	-40.9	21.1	0.00e+00	0	60	0	259522560	47	5064
2026-01-25 17:42:59.24	143.47	20.11	-38.4	-40.7	21.4	0.00e+00	0	60	0	260571136	47	4932
2026-01-25 17:43:00.26	143.03	20.04	-38.4	-40.6	21.4	0.00e+00	0	60	0	262144000	47	4887
2026-01-25 17:43:01.26	142.61	19.97	-38.4	-40.6	21.4	0.00e+00	0	60	0	263192576	47	4924
2026-01-25 17:43:02.27	142.19	19.90	-38.4	-40.6	21.5	0.00e+00	0	60	0	264241152	47	4889
2026-01-25 17:43:03.28	141.76	19.84	-38.4	-40.6	21.5	0.00e+00	0	60	0	265289728	47	4894
2026-01-25 17:43:04.29	141.34	19.76	-38.5	-40.7	21.3	0.00e+00	0	60	0	266338304	47	4979
2026-01-25 17:43:05.30	140.92	19.69	-38.2	-40.4	21.6	0.00e+00	0	60	0	267386880	47	4795
2026-01-25 17:43:06.31	140.51	19.62	-38.1	-40.2	21.8	0.00e+00	0	60	0	268959744	47	4669
2026-01-25 17:43:07.32	140.10	19.55	-38.2	-40.4	21.7	0.00e+00	0	60	0	270008320	47	4766
2026-01-25 17:43:08.33	139.68	19.47	-38.1	-40.3	21.7	0.00e+00	0	60	0	271056896	47	4721
2026-01-25 17:43:09.34	139.28	19.40	-38.1	-40.3	21.7	0.00e+00	0	60	0	272105472	47	4721
2026-01-25 17:43:10.35	138.87	19.32	-37.9	-40.0	22.0	0.00e+00	0	60	0	273154048	47	4586
2026-01-25 17:43:11.36	138.47	19.24	-37.9	-40.0	22.0	0.00e+00	0	60	0	274202624	47	4552
2026-01-25 17:43:12.37	138.07	19.16	-37.8	-39.9	22.1	0.00e+00	0	60	0	275251200	47	4521
2026-01-25 17:43:13.38	137.67	19.09	-37.9	-40.0	22.0	0.00e+00	0	60	0	276824064	47	4586
2026-01-25 17:43:14.39	137.27	19.01	-38.2	-40.3	21.7	0.00e+00	0	60	0	277872640	47	4755
2026-01-25 17:43:15.40	136.88	18.92	-38.4	-40.6	21.3	0.00e+00	0	60	0	278921216	47	4920
2026-01-25 17:43:16.41	136.49	18.84	-38.4	-40.7	21.3	0.00e+00	0	60	0	279969792	47	4944
2026-01-25 17:43:17.42	136.10	18.76	-38.6	-40.9	21.0	0.00e+00	0	60	0	281018368	47	5095
2026-01-25 17:43:18.43	135.71	18.68	-38.6	-40.9	21.0	0.00e+00	0	60	0	282591232	47	5094
2026-01-25 17:43:19.44	135.33	18.59	-38.5	-40.8	21.1	0.00e+00	0	60	0	283639808	47	5031
2026-01-25 17:43:20.45	134.95	18.51	-38.3	-40.5	21.4	0.00e+00	0	60	0	284688384	47	4823
2026-01-25 17:43:21.46	134.57	18.42	-38.3	-40.6	21.3	0.00e+00	0	60	0	285736960	47	4881
2026-01-25 17:43:22.47	134.20	18.34	-38.4	-40.7	20.8	0.00e+00	0	60	0	286785536	47	4938
2026-01-25 17:43:23.48	133.83	18.25	-36.6	-40.7	21.0	0.00e+00	0	60	0	287834112	47	4934
2026-01-25 17:43:24.49	133.46	18.16	-38.5	-40.8	20.2	8.00e-06	0	60	0	289406976	47	5012
2026-01-25 17:43:25.50	133.09	18.08	-38.5	-40.8	20.7	3.20e-05	0	60	0	290455552	47	5004
2026-01-25 17:43:26.50	132.73	17.99	-38.3	-40.8	20.8	1.83e-05	0	60	0	291504128	47	4989
2026-01-25 17:43:27.52	132.36	17.90	-38.3	-40.7	20.6	1.83e-05	0	60	0	292552704	47	4980
2026-01-25 17:43:28.53	132.00	17.81	-38.4	-40.7	18.5	1.19e-04	0	60	0	293601280	47	4947
2026-01-25 17:43:29.54	131.65	17.72	-38.3	-40.6	20.6	7.43e-05	0	60	0	294649856	47	4901
2026-01-25 17:43:30.55	131.29	17.63	-38.2	-40.4	20.8	7.43e-05	0	60	0	296222720	47	4802
2026-01-25 17:43:31.56	130.94	17.54	-38.2	-40.3	20.4	1.09e-04	0	60	0	297271296	45	5333
2026-01-25 17:43:32.57	130.59	17.45	-38.2	-40.4	21.0	8.46e-05	0	60	0	298319872	46	5089
2026-01-25 17:43:33.58	130.25	17.36	-38.4	-40.7	21.0	8.46e-05	0	60	0	299368448	47	4948
2026-01-25 17:43:34.58	129.91	17.26	-38.4	-40.9	20.8	6.98e-05	0	60	0	300417024	47	5050
2026-01-25 17:43:35.59	129.56	17.17	-38.6	-40.9	20.8	0.00e+00	0	60	0	301465600	47	5098
2026-01-25 17:43:36.61	129.22	17.08	-38.5	-41.0	20.7	0.00e+00	0	60	0	303038464	47	5122
2026-01-25 17:43:37.61	128.89	16.99	-38.6	-41.0	20.7	0.00e+00	0	60	0	304087040	47	5139
2026-01-25 17:43:38.62	128.56	16.89	-38.6	-41.0	20.8	0.00e+00	0	60	0	305135616	47	5156
2026-01-25 17:43:39.63	128.23	16.80	-38.5	-40.9	20.6	1.10e-06	0	60	0	306184192	47	5070
2026-01-25 17:43:40.64	127.90	16.71	-38.7	-41.1	20.7	1.10e-06	0	60	0	307232768	47	5166
2026-01-25 17:43:41.65	127.57	16.61	-38.8	-41.1	20.6	0.00e+00	0	60	0	308281344	48	4923
2026-01-25 17:43:42.66	127.25	16.52	-38.7	-41.1	20.6	3.40e-06	0	60	0	309854208	48	4899
2026-01-25 17:43:43.67	126.93	16.42	-38.8	-41.2	20.4	3.40e-06	0	60	0	310902784	48	4931
2026-01-25 17:43:44.68	126.61	16.33	-38.8	-41.2	20.4	3.40e-06	0	60	0	311951360	48	4980
2026-01-25 17:43:45.69	126.30	16.23	-38.7	-41.3	20.4	0.00e+00	0	60	0	312999936	48	4992
2026-01-25 17:43:46.70	125.98	16.14	-38.3	-41.3	20.1	0.00e+00	0	60	0	314048512	48	5039
2026-01-25 17:43:47.71	125.67	16.04	-38.9	-41.5	20.2	0.00e+00	0	60	0	315097088	48	5116
2026-01-25 17:43:48.72	125.37	15.95	-38.9	-41.6	19.3	2.20e-06	0	60	0	316145664	48	5191
2026-01-25 17:43:49.73	125.06	15.85	-39.1	-41.7	19.9	2.20e-06	0	60	0	317718528	48	5264
2026-01-25 17:43:50.74	124.76	15.75	-39.2	-41.8	19.6	1.02e-05	0	60	0	318767104	48	5332
2026-01-25 17:43:51.75	124.46	15.66	-39.0	-41.6	20.0	3.40e-06	0	60	0	319815680	48	5181
2026-01-25 17:43:52.76	124.16	15.56	-38.5	-41.4	19.9	3.40e-06	0	60	0	320864256	47	5342
2026-01-25 17:43:53.77	123.87	15.47	-38.7	-41.5	19.9	3.40e-06	0	60	0	321912832	48	5136
2026-01-25 17:43:54.78	123.57	15.37	-38.3	-41.6	19.4	3.40e-06	0	60	0	323485696	48	5176
2026-01-25 17:43:55.79	123.28	15.27	-38.6	-41.9	19.5	1.14e-05	0	60	0	324534272	48	5357
2026-01-25 17:43:56.80	122.99	15.18	-38.6	-41.9	19.3	1.14e-05	0	60	0	325582848	48	5369
2026-01-25 17:43:57.81	122.71	15.08	-37.4	-41.9	18.6	9.10e-06	0	60	0	326631424	47	5708
2026-01-25 17:43:58.82	122.42	14.98	-37.2	-41.7	18.3	8.81e-05	0	60	0	327680000	46	5910
2026-01-25 17:43:59.83	122.14	14.89	-36.0	-41.9	18.1	8.81e-05	0	60	0	328728576	44	6747
2026-01-25 17:44:00.84	121.86	14.79	-35.9	-42.1	17.0	1.88e-04	0	60	0	330301440	45	6508
2026-01-25 17:44:01.85	121.59	14.70	-37.7	-42.0	16.8	7.11e-04	0	60	0	331350016	47	5750
2026-01-25 17:44:02.86	121.31	14.60	-37.6	-42.1	17.3	7.11e-04	0	60	0	332398592	46	6174
2026-01-25 17:44:03.86	121.04	14.50	-36.0	-41.9	16.5	8.46e-04	0	60	0	333447168	43	7137
2026-01-25 17:44:04.87	120.77	14.41	-36.4	-42.4	15.8	2.49e-03	0	60	0	334495744	45	6768
2026-01-25 17:44:05.88	120.51	14.31	-32.7	-41.8	16.2	3.07e-03	0	60	0	335544320	42	7462
2026-01-25 17:44:06.89	120.24	14.22	-34.9	-42.3	15.5	3.07e-03	0	60	0	337117184	44	7102
2026-01-25 17:44:07.90	119.98	14.12	-36.6	-42.0	16.3	4.97e-03	0	60	0	338165760	44	6817
2026-01-25 17:44:08.91	119.72	14.02	-37.7	-41.9	17.3	2.28e-03	0	60	0	339214336	47	5663
2026-01-25 17:44:09.92	119.46	13.93	-37.9	-42.0	17.8	2.28e-03	0	60	0	340262912	45	6460
2026-01-25 17:44:10.93	119.20	13.83	-37.3	-42.1	16.8	1.22e-03	0	60	0	341311488	45	6546
2026-01-25 17:44:11.94	118.95	13.74	-35.4	-42.3	16.7	1.29e-03	0	60	0	342360064	44	7091
2026-01-25 17:44:12.95	118.70	13.64	-36.6	-42.7	16.8	1.29e-03	0	60	0	343932928	46	6580
2026-01-25 17:44:13.96	118.45	13.54	-35.1	-42.2	15.0	2.00e-03	0	60	0	344981504	42	7891
2026-01-25 17:44:14.97	118.20	13.45	-36.9	-42.1	17.1	5.12e-03	0	60	0	346030080	45	6553
2026-01-25 17:44:15.98	117.95	13.35	-34.4	-42.2	15.9	4.18e-03	0	60	0	347078656	42	7883
2026-01-25 17:44:16.99	117.71	13.26	-34.1	-41.9	16.4	4.18e-03	0	60	0	348127232	42	7592
2026-01-25 17:44:18.00	117.47	13.16	-35.2	-42.9	15.1	2.00e-03	0	60	0	349175808	42	8476
2026-01-25 17:44:19.01	117.23	13.07	-34.9	-42.8	14.5	5.12e-03	0	60	0	350748672	40	9456
2026-01-25 17:44:20.02	116.99	12.97	-32.5	-42.1	16.6	5.12e-03	0	60	0	351797248	41	8196
2026-01-25 17:44:21.03	116.76	12.88	-32.6	-41.9	14.3	2.65e-03	0	60	0	352845824	35	11321
2026-01-25 17:44:22.04	116.52	12.79	-26.8	-41.6	14.9	8.69e-03	0	60	0	353894400	34	11592
2026-01-25 17:44:23.05	116.29	12.69	-31.2	-42.2	15.0	8.69e-03	0	60	0	354942976	35	11735
2026-01-25 17:44:24.06	116.06	12.60	-34.3	-41.8	14.1	5.09e-03	0	60	0	355991552	33	12571
2026-01-25 17:44:25.07	115.83	12.50	-35.6	-42.5	15.8	7.09e-03	0	60	0	357040128	42	8096
2026-01-25 17:44:26.08	115.61	12.41	-34.2	-42.6	15.3	7.09e-03	0	60	0	358612992	42	8266
2026-01-25 17:44:27.09	115.38	12.32	-34.8	-42.1	15.0	3.89e-03	0	60	0	359661568	41	8246
2026-01-25 17:44:28.10	115.16	12.22	-36.9	-43.2	15.2	1.26e-02	0	60	0	360710144	44	7826
2026-01-25 17:44:29.11	114.94	12.13	-35.8	-43.0	15.2	4.00e-03	0	60	0	361758720	43	8088
2026-01-25 17:44:30.12	114.72	12.04	-36.0	-43.0	14.8	4.00e-03	0	60	0	362807296	45	7209
2026-01-25 17:44:31.13	114.50	11.94	-32.2	-43.5	12.5	3.21e-02	0	60	0	363855872	37	12131
2026-01-25 17:44:32.14	114.29	11.85	-34.4	-43.2	14.8	7.19e-02	0	60	0	364904448	44	7825
2026-01-25 17:44:33.15	114.08	11.76	-36.3	-43.6	13.6	7.19e-02	0	60	0	366477312	41	9742
2026-01-25 17:44:34.16	113.87	11.67	-36.9	-43.4	13.7	2.19e-02	0	60	0	367525888	44	8027
2026-01-25 17:44:35.17	113.66	11.58	-34.2	-42.7	12.8	3.34e-02	0	60	0	368574464	40	9319
2026-01-25 17:44:36.18	113.45	11.48	-37.0	-42.9	14.3	3.34e-02	0	60	0	369623040	44	7617
2026-01-25 17:44:37.19	113.24	11.39	-36.3	-43.3	14.5	1.94e-02	0	60	0	370671616	44	7903
2026-01-25 17:44:38.20	113.04	11.30	-36.5	-43.6	14.0	1.67e-02	0	60	0	371720192	44	8215
2026-01-25 17:44:39.21	112.84	11.21	-32.6	-43.3	12.3	1.67e-02	0	60	0	373293056	41	9431
2026-01-25 17:44:40.21	112.64	11.12	-33.5	-44.7	11.7	2.96e-02	0	60	0	374341632	40	11699
2026-01-25 17:44:41.22	112.44	11.03	-36.4	-45.6	10.8	4.09e-02	0	60	0	375390208	43	10938
2026-01-25 17:44:42.23	112.24	10.94	-33.7	-45.1	11.3	6.54e-02	0	60	0	376438784	39	12987
2026-01-25 17:44:43.24	112.04	10.85	-31.9	-45.2	10.3	6.54e-02	0	60	0	377487360	42	11122
2026-01-25 17:44:44.25	111.85	10.76	-35.0	-45.9	9.9	8.74e-02	0	60	0	378535936	41	12698
2026-01-25 17:44:45.26	111.66	10.67	-32.2	-45.6	9.2	1.74e-01	0	60	0	379584512	38	14613
2026-01-25 17:44:46.27	111.47	10.58	-30.8	-44.3	8.9	1.74e-01	0	60	0	380633088	34	15891
2026-01-25 17:44:47.28	111.28	10.49	-35.0	-43.3	12.7	1.29e-01	0	60	0	382205952	41	9474
2026-01-25 17:44:48.29	111.09	10.40	-33.4	-42.8	12.9	4.23e-02	0	60	0	383254528	39	9998
2026-01-25 17:44:49.30	110.90	10.32	-34.4	-42.9	12.8	4.23e-02	0	60	0	384303104	40	9578
2026-01-25 17:44:50.31	110.72	10.23	-32.5	-45.0	10.8	3.50e-02	0	60	0	385351680	41	11475
2026-01-25 17:44:51.32	110.53	10.14	-34.1	-46.3	9.2	8.45e-02	0	60	0	386400256	39	15025
2026-01-25 17:44:52.33	110.35	10.05	-32.0	-46.4	10.7	8.45e-02	0	60	0	387448832	40	14241
2026-01-25 17:44:53.33	110.17	9.97	-34.5	-45.8	9.3	1.19e-01	0	60	0	388497408	41	12625
2026-01-25 17:44:54.34	109.99	9.88	-35.4	-45.4	10.9	1.22e-01	0	60	0	389545984	41	12036
2026-01-25 17:44:55.36	109.81	9.79	-33.4	-45.2	11.7	6.51e-02	0	61	0	391118848	42	11118
2026-01-25 17:44:56.36	109.64	9.70	-35.8	-45.3	11.7	6.51e-02	0	60	0	392167424	41	11900
2026-01-25 17:44:57.37	109.46	9.62	-34.9	-45.6	10.6	3.81e-02	0	60	0	393216000	40	13030
2026-01-25 17:44:58.38	109.29	9.53	-34.3	-44.7	12.1	6.62e-02	0	60	0	394264576	41	11061
2026-01-25 17:44:59.39	109.12	9.45	-30.5	-44.7	10.9	6.62e-02	0	60	0	395313152	39	12505
2026-01-25 17:45:00.40	108.95	9.36	-34.3	-44.9	10.1	5.75e-02	0	60	0	396361728	42	10664
2026-01-25 17:45:01.42	108.78	9.27	-36.5	-44.6	12.2	1.26e-01	0	60	0	397410304	44	9205
2026-01-25 17:45:02.43	108.61	9.19	-26.5	-43.7	11.2	1.26e-01	0	61	0	398983168	38	11689
2026-01-25 17:45:03.44	108.44	9.10	-24.6	-41.9	8.4	3.92e-02	0	60	0	400031744	25	20264
2026-01-25 17:45:04.45	108.28	9.02	-37.5	-44.5	13.6	9.10e-02	0	60	0	401080320	46	8155
2026-01-25 17:45:05.45	108.12	8.94	-35.3	-44.6	12.8	9.10e-02	0	60	0	402128896	43	9784
2026-01-25 17:45:06.46	107.95	8.85	-35.7	-45.0	13.0	1.16e-02	0	60	0	403177472	44	9613
2026-01-25 17:45:07.47	107.79	8.77	-37.4	-44.8	13.6	1.30e-02	0	60	0	404226048	47	7918
2026-01-25 17:45:08.48	107.63	8.68	-38.1	-44.6	14.0	5.80e-03	0	60	0	405798912	47	7807
2026-01-25 17:45:09.49	107.47	8.60	-37.8	-45.7	11.8	5.80e-03	0	61	0	406847488	47	8794
2026-01-25 17:45:10.50	107.32	8.52	-37.1	-45.6	12.5	5.65e-03	0	61	0	407896064	47	8729
2026-01-25 17:45:11.51	107.16	8.43	-38.4	-45.1	13.0	5.50e-03	0	60	0	408944640	47	8263
2026-01-25 17:45:12.52	107.01	8.35	-37.4	-44.4	13.0	5.50e-03	0	61	0	409993216	43	9578
2026-01-25 17:45:13.53	106.85	8.27	-37.5	-44.2	12.8	2.53e-03	0	60	0	411041792	47	7453
2026-01-25 17:45:14.54	106.70	8.19	-35.6	-44.4	12.4	4.40e-03	0	61	0	412090368	45	8512
2026-01-25 17:45:15.55	106.55	8.11	-37.9	-45.9	11.7	4.40e-03	0	61	0	413663232	45	10093
2026-01-25 17:45:16.56	106.40	8.02	-38.0	-49.3	7.9	7.27e-03	0	61	0	414711808	42	17719
2026-01-25 17:45:17.57	106.25	7.94	-29.9	-48.9	3.6	3.74e-01	0	61	104	414711808	27	40444
2026-01-25 17:45:18.58	106.10	7.86	-44.5	-63.1	3.9	3.74e-01	0	61	104	414711808	60	31060
2026-01-25 17:45:19.59	105.95	7.78	-45.1	-63.4	3.8	8.41e-01	0	61	104	414711808	60	31868
2026-01-25 17:45:20.60	105.81	7.70	-45.3	-63.6	3.8	8.46e-01	0	60	104	414711808	61	30993
2026-01-25 17:45:21.61	105.66	7.62	-45.4	-63.8	3.8	8.46e-01	0	61	104	414711808	61	31668
2026-01-25 17:45:22.62	105.52	7.54	-45.6	-63.9	3.8	8.46e-01	0	61	104	414711808	61	32041
2026-01-25 17:45:23.63	105.38	7.46	-45.7	-64.1	3.8	8.45e-01	0	61	104	414711808	62	30800
2026-01-25 17:45:24.64	105.24	7.38	-45.9	-64.2	3.8	8.46e-01	0	61	104	414711808	62	31304
2026-01-25 17:45:25.65	105.10	7.30	-45.8	-64.2	3.8	8.46e-01	0	61	104	414711808	62	31211
2026-01-25 17:45:26.66	104.96	7.22	-45.8	-64.1	3.8	8.47e-01	0	61	104	414711808	62	30989
2026-01-25 17:45:27.67	104.82	7.14	-45.7	-64.0	3.8	8.46e-01	0	60	104	414711808	62	30486
2026-01-25 17:45:28.68	104.68	7.07	-45.6	-63.9	3.8	8.46e-01	0	60	104	414711808	62	30167
2026-01-25 17:45:29.69	104.55	6.99	-45.6	-63.8	3.8	8.46e-01	0	61	104	414711808	62	29701
2026-01-25 17:45:30.70	104.41	6.91	-45.5	-63.7	3.8	8.45e-01	0	61	104	414711808	62	29559
2026-01-25 17:45:31.72	104.28	6.83	-45.5	-63.6	3.8	8.45e-01	0	61	104	414711808	62	29167
2026-01-25 17:45:32.73	104.15	6.75	-45.5	-63.6	3.8	8.47e-01	0	61	104	414711808	62	29121
2026-01-25 17:45:33.74	104.01	6.68	-45.3	-63.4	3.8	8.46e-01	0	61	104	414711808	62	28505
2026-01-25 17:45:34.75	103.88	6.60	-45.3	-63.4	3.8	8.46e-01	0	61	104	414711808	62	28591
2026-01-25 17:45:35.76	103.75	6.52	-45.3	-63.4	3.8	8.46e-01	0	61	104	414711808	62	28589
2026-01-25 17:45:36.77	103.62	6.45	-45.3	-63.4	3.8	8.46e-01	0	61	104	414711808	62	28662
2026-01-25 17:45:37.78	103.50	6.37	-45.3	-63.4	3.8	8.46e-01	0	61	104	414711808	62	28599
2026-01-25 17:45:38.79	103.37	6.29	-45.3	-63.4	3.8	8.46e-01	0	61	104	414711808	62	28558
2026-01-25 17:45:39.80	103.24	6.22	-45.3	-63.4	3.8	8.46e-01	0	61	104	414711808	62	28619
2026-01-25 17:45:40.81	103.12	6.14	-45.3	-63.4	3.8	8.46e-01	0	61	104	414711808	62	28605
2026-01-25 17:45:41.82	102.99	6.07	-45.3	-63.4	3.8	8.46e-01	0	61	104	414711808	62	28538
2026-01-25 17:45:42.83	102.87	5.99	-45.3	-63.4	3.8	8.46e-01	0	61	104	414711808	62	28528
2026-01-25 17:45:43.84	102.75	5.92	-45.2	-63.4	3.8	8.47e-01	0	61	104	414711808	62	28573
2026-01-25 17:45:44.85	102.63	5.84	-45.3	-63.4	3.8	8.45e-01	0	60	104	414711808	62	28561
2026-01-25 17:45:45.86	102.51	5.77	-45.3	-63.4	3.8	8.45e-01	0	61	104	414711808	62	28553
2026-01-25 17:45:46.87	102.39	5.69	-45.3	-63.4	3.8	8.46e-01	0	61	104	414711808	62	28512
2026-01-25 17:45:47.88	102.27	5.62	-45.3	-63.4	3.8	8.47e-01	0	61	104	414711808	62	28500
2026-01-25 17:45:48.89	102.15	5.55	-45.3	-63.4	3.8	8.47e-01	0	60	104	414711808	62	28502
2026-01-25 17:45:49.90	102.03	5.47	-45.3	-63.4	3.8	8.45e-01	0	60	104	414711808	62	28473
2026-01-25 17:45:50.91	101.92	5.40	-45.3	-63.4	3.8	8.46e-01	0	61	104	414711808	62	28585
2026-01-25 17:45:51.92	101.80	5.33	-45.3	-63.4	3.8	8.46e-01	0	61	104	414711808	62	28418
2026-01-25 17:45:52.93	101.69	5.25	-45.3	-63.4	3.8	8.46e-01	0	61	104	414711808	62	28438
2026-01-25 17:45:53.94	101.57	5.18	-45.3	-63.4	3.8	8.46e-01	0	61	104	414711808	62	28478
2026-01-25 17:45:54.95	101.46	5.11	-45.3	-63.4	3.8	8.46e-01	0	61	104	414711808	62	28494
2026-01-25 17:45:55.96	101.35	5.04	-45.3	-63.4	3.8	8.46e-01	0	61	104	414711808	61	30142
2026-01-25 17:45:56.97	101.24	4.96	-45.2	-63.4	3.8	8.47e-01	0	61	104	414711808	61	30113
2026-01-25 17:45:57.98	101.13	4.89	-45.3	-63.4	3.8	8.45e-01	0	61	104	414711808	61	30124
2026-01-25 17:45:58.99	101.02	4.82	-45.3	-63.4	3.8	8.45e-01	0	61	104	414711808	61	30063
2026-01-25 17:46:00.01	100.91	4.75	-45.2	-63.4	3.8	8.45e-01	0	61	104	414711808	61	30067
2026-01-25 17:46:01.02	100.80	4.68	-45.3	-63.4	3.8	8.46e-01	0	61	104	414711808	61	30119
2026-01-25 17:46:02.03	100.69	4.61	-45.3	-63.4	3.8	8.46e-01	0	61	104	414711808	61	30067
2026-01-25 17:46:03.04	100.58	4.54	-45.2	-63.4	3.8	8.46e-01	0	61	104	414711808	61	30075
2026-01-25 17:46:04.05	100.48	4.47	-45.3	-63.4	3.8	8.46e-01	0	61	104	414711808	61	30034
2026-01-25 17:46:05.06	100.37	4.40	-45.2	-63.3	3.8	8.46e-01	0	61	104	414711808	61	29993
2026-01-25 17:46:06.07	100.27	4.33	-45.2	-63.3	3.8	8.46e-01	0	61	104	414711808	61	30028
2026-01-25 17:46:07.08	100.17	4.26	-45.3	-63.4	3.8	8.45e-01	0	61	104	414711808	61	30065
2026-01-25 17:46:08.09	100.06	4.19	-45.2	-63.3	3.8	8.45e-01	0	61	104	414711808	61	30011
2026-01-25 17:46:09.10	99.96	4.12	-45.3	-63.3	3.8	8.46e-01	0	61	104	414711808	61	29954
2026-01-25 17:46:10.11	99.86	4.05	-45.3	-63.4	3.8	8.45e-01	0	61	104	414711808	61	30039
2026-01-25 17:46:11.12	99.76	3.98	-45.2	-63.3	3.8	8.46e-01	0	61	104	414711808	61	30007
2026-01-25 17:46:12.13	99.66	3.91	-45.2	-63.4	3.8	8.46e-01	0	61	104	414711808	61	30068
2026-01-25 17:46:13.14	99.56	3.84	-45.2	-63.3	3.8	8.47e-01	0	61	104	414711808	61	29921
2026-01-25 17:46:14.16	99.46	3.77	-45.2	-63.4	3.8	8.45e-01	0	61	104	414711808	61	30047
2026-01-25 17:46:15.17	99.36	3.70	-45.2	-63.3	3.8	8.45e-01	0	61	104	414711808	61	29991
2026-01-25 17:46:16.18	99.26	3.64	-45.2	-63.4	3.8	8.47e-01	0	61	104	414711808	61	30084
2026-01-25 17:46:17.19	99.17	3.57	-45.2	-63.3	3.8	8.46e-01	0	61	104	414711808	61	29935
2026-01-25 17:46:18.20	99.07	3.50	-45.2	-63.3	3.8	8.46e-01	0	61	104	414711808	61	29949
2026-01-25 17:46:19.21	98.97	3.43	-45.2	-63.3	3.8	8.46e-01	0	61	104	414711808	61	29955
2026-01-25 17:46:20.22	98.88	3.37	-45.2	-63.3	3.8	8.46e-01	0	61	104	414711808	61	29977
2026-01-25 17:46:21.23	98.79	3.30	-45.2	-63.3	3.8	8.46e-01	0	61	104	414711808	61	29964
2026-01-25 17:46:22.24	98.69	3.23	-45.2	-63.3	3.8	8.46e-01	0	61	104	414711808	61	29878
2026-01-25 17:46:23.25	98.60	3.17	-45.2	-63.3	3.8	8.45e-01	0	61	104	414711808	61	29900
2026-01-25 17:46:24.26	98.51	3.10	-45.2	-63.3	3.8	8.46e-01	0	61	104	414711808	61	29973
2026-01-25 17:46:25.27	98.41	3.03	-45.2	-63.3	3.8	8.46e-01	0	61	104	414711808	61	29929
2026-01-25 17:46:26.28	98.32	2.97	-45.2	-63.3	3.8	8.47e-01	0	61	104	414711808	61	29907
2026-01-25 17:46:27.29	98.23	2.90	-45.2	-63.3	3.8	8.46e-01	0	61	104	414711808	61	29912
2026-01-25 17:46:28.31	98.14	2.84	-45.2	-63.3	3.8	8.46e-01	0	61	104	414711808	61	29852
2026-01-25 17:46:29.31	98.05	2.77	-45.2	-63.3	3.8	8.46e-01	0	61	104	414711808	61	29925
2026-01-25 17:46:30.33	97.96	2.70	-45.2	-63.3	3.8	8.46e-01	0	61	104	414711808	61	29841
2026-01-25 17:46:31.33	97.88	2.64	-45.2	-63.3	3.8	8.46e-01	0	61	104	414711808	61	29864
2026-01-25 17:46:32.35	97.79	2.57	-45.2	-63.3	3.8	8.47e-01	0	61	104	414711808	61	29848
2026-01-25 17:46:33.36	97.70	2.51	-45.2	-63.3	3.8	8.47e-01	0	61	104	414711808	61	29948
2026-01-25 17:46:34.37	97.62	2.45	-45.2	-63.3	3.8	8.46e-01	0	61	104	414711808	61	29805
2026-01-25 17:46:35.37	97.53	2.38	-45.2	-63.3	3.8	8.46e-01	0	61	104	414711808	61	29845
2026-01-25 17:46:36.39	97.44	2.32	-45.2	-63.3	3.8	8.46e-01	0	61	104	414711808	61	29889
2026-01-25 17:46:37.40	97.36	2.25	-45.2	-63.3	3.8	8.46e-01	0	61	104	414711808	61	29789
2026-01-25 17:46:38.41	97.27	2.19	-45.2	-63.3	3.8	8.46e-01	0	61	104	414711808	61	29887
2026-01-25 17:46:39.42	97.19	2.13	-45.2	-63.3	3.8	8.46e-01	0	61	104	414711808	61	29793
2026-01-25 17:46:40.43	97.11	2.06	-45.2	-63.3	3.8	8.46e-01	0	61	104	414711808	61	29889
2026-01-25 17:46:41.44	97.03	2.00	-45.2	-63.3	3.8	8.46e-01	0	61	104	414711808	61	29940
2026-01-25 17:46:42.45	96.94	1.94	-45.2	-63.3	3.8	8.46e-01	0	61	104	414711808	61	29871
2026-01-25 17:46:43.46	96.86	1.87	-45.2	-63.3	3.8	8.47e-01	0	61	104	414711808	61	29828

#Closed at: 2026-01-25 17:46:44
#Recorded file [414 MB]: D:/lorett/data/31039_260125_203757.dat