passes_logs/2026/01/25/R2.0S_Moscow/R2.0S_Moscow__20260125_003623_AQUA_rec.log

#Pass ID: 20260125_003623_AQUA
#Satellite: AQUA
#Configuration: AQUA
#almurnet v.1.7.20251203
#Start time: 2026-01-25 00:36:23

#Version: 2.2.20231116
#Station: R2.0S_Moscow
#Location: 37.707566 lon 55.798166 lat
#TLE: 1 27424U 02022A   26024.53919639  .00001970  00000+0  40397-3 0  9996
#TLE: 2 27424  98.4098 351.1277 0001915  66.8561 358.4840 14.61855303262281

#Time	Az	El	Level	Level2	SNR	BER	BlckErr	Temp	State	Recorded	gain1	gain2
2026-01-25 00:36:23.55	21.03	2.03	-43.4	-61.8	3.8	7.46e-01	0	52	0	0	58	29986
2026-01-25 00:36:24.55	21.07	2.09	-43.3	-61.7	3.8	7.46e-01	0	52	104	0	57	31294
2026-01-25 00:36:25.56	21.12	2.15	-43.3	-61.7	3.8	7.47e-01	0	52	104	0	57	31381
2026-01-25 00:36:26.57	21.17	2.22	-43.3	-61.6	3.8	7.46e-01	0	52	104	0	57	31038
2026-01-25 00:36:27.58	21.21	2.28	-43.3	-61.7	3.8	7.47e-01	0	52	104	0	57	31238
2026-01-25 00:36:28.59	21.26	2.35	-43.3	-61.8	3.8	7.45e-01	0	53	104	0	57	31582
2026-01-25 00:36:29.60	21.31	2.41	-43.3	-61.8	3.8	7.43e-01	0	53	104	0	57	31809
2026-01-25 00:36:30.62	21.35	2.48	-43.3	-61.9	3.8	7.45e-01	0	53	104	0	57	31962
2026-01-25 00:36:31.62	21.40	2.54	-43.3	-62.0	3.8	7.47e-01	0	53	104	0	57	32198
2026-01-25 00:36:32.64	21.45	2.61	-43.3	-61.9	3.8	7.46e-01	0	53	104	0	57	32173
2026-01-25 00:36:33.65	21.50	2.67	-43.3	-62.0	3.8	7.48e-01	0	53	104	0	57	32478
2026-01-25 00:36:34.66	21.55	2.74	-43.3	-62.0	3.8	7.45e-01	0	53	104	0	57	32374
2026-01-25 00:36:35.67	21.59	2.80	-43.3	-62.1	3.8	7.45e-01	0	53	104	0	57	32698
2026-01-25 00:36:36.68	21.64	2.87	-43.3	-62.0	3.8	7.45e-01	0	53	104	0	57	32488
2026-01-25 00:36:37.69	21.69	2.93	-43.3	-62.1	3.8	7.44e-01	0	53	104	0	57	32753
2026-01-25 00:36:38.70	21.74	3.00	-43.3	-62.1	3.8	7.47e-01	0	53	104	0	57	32606
2026-01-25 00:36:39.71	21.79	3.06	-43.3	-62.1	3.8	7.46e-01	0	53	104	0	57	32704
2026-01-25 00:36:40.72	21.84	3.13	-43.3	-62.1	3.8	7.44e-01	0	53	104	0	57	32585
2026-01-25 00:36:41.73	21.89	3.20	-43.3	-62.0	3.8	7.43e-01	0	54	104	0	57	32267
2026-01-25 00:36:42.75	21.94	3.26	-43.3	-62.0	3.8	7.47e-01	0	53	104	0	57	32308
2026-01-25 00:36:43.76	21.99	3.33	-43.3	-61.9	3.8	7.45e-01	0	54	104	0	57	32179
2026-01-25 00:36:44.77	22.04	3.40	-43.3	-61.8	3.8	7.44e-01	0	53	104	0	57	31713
2026-01-25 00:36:45.78	22.09	3.47	-43.3	-61.7	3.8	7.45e-01	0	54	104	0	57	31321
2026-01-25 00:36:46.79	22.14	3.53	-43.3	-61.6	3.8	7.43e-01	0	54	104	0	57	30920
2026-01-25 00:36:47.80	22.19	3.60	-43.3	-61.6	3.8	7.45e-01	0	54	104	0	57	30745
2026-01-25 00:36:48.81	22.24	3.67	-43.3	-61.4	3.8	7.41e-01	0	54	104	0	57	30286
2026-01-25 00:36:49.82	22.29	3.74	-43.3	-61.4	3.8	7.43e-01	0	54	104	0	57	30101
2026-01-25 00:36:50.83	22.34	3.80	-43.3	-61.3	3.8	7.44e-01	0	54	104	0	57	29715
2026-01-25 00:36:51.84	22.40	3.87	-43.3	-61.2	3.8	7.43e-01	0	54	104	0	57	29581
2026-01-25 00:36:52.85	22.45	3.94	-43.3	-61.3	3.8	7.45e-01	0	54	104	0	57	29723
2026-01-25 00:36:53.86	22.50	4.01	-43.3	-61.2	3.8	7.43e-01	0	54	104	0	57	29668
2026-01-25 00:36:54.87	22.55	4.08	-43.3	-61.4	3.8	7.48e-01	0	54	104	0	57	30286
2026-01-25 00:36:55.88	22.61	4.15	-43.3	-61.3	3.8	7.47e-01	0	54	104	0	57	29863
2026-01-25 00:36:56.89	22.66	4.21	-43.3	-61.3	3.8	7.41e-01	0	54	104	0	57	29939
2026-01-25 00:36:57.90	22.71	4.28	-43.3	-61.4	3.8	7.47e-01	0	54	104	0	57	30325
2026-01-25 00:36:58.92	22.77	4.35	-43.3	-61.4	3.8	7.44e-01	0	55	104	0	57	30192
2026-01-25 00:36:59.92	22.82	4.42	-43.3	-61.6	3.8	7.45e-01	0	55	104	0	57	30951
2026-01-25 00:37:00.93	22.87	4.49	-43.3	-61.7	3.8	7.47e-01	0	55	104	0	57	31266
2026-01-25 00:37:01.94	22.93	4.56	-43.3	-61.8	3.8	7.46e-01	0	55	104	0	57	31508
2026-01-25 00:37:02.96	22.98	4.63	-43.3	-61.8	3.8	7.45e-01	0	55	104	0	57	31652
2026-01-25 00:37:03.97	23.04	4.70	-43.3	-61.9	3.8	7.40e-01	0	55	104	0	57	31816
2026-01-25 00:37:04.98	23.09	4.77	-43.3	-62.0	3.8	7.47e-01	0	55	104	0	57	32185
2026-01-25 00:37:05.99	23.15	4.84	-43.3	-62.0	3.8	7.46e-01	0	55	104	0	57	32223
2026-01-25 00:37:07.00	23.21	4.92	-43.3	-61.9	3.8	7.45e-01	0	55	104	0	57	32033
2026-01-25 00:37:08.01	23.26	4.99	-43.3	-61.9	3.8	7.48e-01	0	55	104	0	57	31943
2026-01-25 00:37:09.02	23.32	5.06	-43.3	-61.9	3.8	7.47e-01	0	55	104	0	57	31873
2026-01-25 00:37:10.03	23.37	5.13	-43.3	-61.9	3.8	7.46e-01	0	55	104	0	57	31880
2026-01-25 00:37:11.04	23.43	5.20	-43.3	-61.9	3.8	7.46e-01	0	55	104	0	57	31858
2026-01-25 00:37:12.05	23.49	5.27	-43.3	-61.8	3.8	7.48e-01	0	55	104	0	57	31750
2026-01-25 00:37:13.06	23.55	5.35	-43.3	-61.9	3.8	7.44e-01	0	55	104	0	57	31976
2026-01-25 00:37:14.07	23.60	5.42	-43.3	-61.9	3.8	7.43e-01	0	55	104	0	57	31813
2026-01-25 00:37:15.08	23.66	5.49	-43.3	-61.7	3.8	7.45e-01	0	55	104	0	57	31185
2026-01-25 00:37:16.10	23.72	5.56	-43.3	-61.7	3.8	7.46e-01	0	55	104	0	57	31228
2026-01-25 00:37:17.11	23.78	5.64	-43.3	-61.7	3.8	7.44e-01	0	55	104	0	57	31260
2026-01-25 00:37:18.12	23.84	5.71	-43.3	-61.7	3.8	7.45e-01	0	55	104	0	57	31195
2026-01-25 00:37:19.13	23.90	5.78	-43.3	-61.8	3.8	7.48e-01	0	56	104	0	57	31492
2026-01-25 00:37:20.14	23.96	5.86	-43.3	-61.8	3.8	7.44e-01	0	56	104	0	57	31501
2026-01-25 00:37:21.15	24.02	5.93	-43.3	-61.8	3.8	7.45e-01	0	55	104	0	57	31640
2026-01-25 00:37:22.16	24.08	6.00	-43.3	-61.8	3.8	7.46e-01	0	56	104	0	57	31492
2026-01-25 00:37:23.17	24.14	6.08	-43.3	-61.9	3.8	7.46e-01	0	56	104	0	57	31911
2026-01-25 00:37:24.18	24.20	6.15	-43.3	-61.8	3.8	7.47e-01	0	56	104	0	57	31661
2026-01-25 00:37:25.19	24.26	6.23	-43.3	-61.8	3.8	7.44e-01	0	56	104	0	57	31776
2026-01-25 00:37:26.20	24.32	6.30	-43.3	-61.8	3.8	7.49e-01	0	56	104	0	57	31586
2026-01-25 00:37:27.21	24.38	6.38	-43.3	-61.8	3.8	7.50e-01	0	56	104	0	57	31707
2026-01-25 00:37:28.22	24.44	6.45	-43.3	-61.8	3.8	7.45e-01	0	56	104	0	57	31671
2026-01-25 00:37:29.23	24.50	6.53	-43.3	-61.9	3.8	7.47e-01	0	56	104	0	57	32008
2026-01-25 00:37:30.24	24.57	6.60	-43.3	-61.9	3.8	7.45e-01	0	56	104	0	57	31868
2026-01-25 00:37:31.25	24.63	6.68	-43.3	-61.9	3.8	7.44e-01	0	56	104	0	57	31854
2026-01-25 00:37:32.26	24.69	6.75	-43.3	-61.9	3.8	7.47e-01	0	56	104	0	57	32178
2026-01-25 00:37:33.27	24.76	6.83	-43.3	-61.9	3.8	7.45e-01	0	56	104	0	57	32138
2026-01-25 00:37:34.28	24.82	6.91	-43.3	-61.9	3.8	7.43e-01	0	56	104	0	57	32173
2026-01-25 00:37:35.29	24.88	6.98	-43.3	-61.9	3.8	7.46e-01	0	56	104	0	57	32109
2026-01-25 00:37:36.30	24.95	7.06	-43.3	-62.0	3.8	7.47e-01	0	56	104	0	57	32378
2026-01-25 00:37:37.31	25.01	7.14	-43.3	-62.0	3.8	7.43e-01	0	57	104	0	57	32429
2026-01-25 00:37:38.32	25.08	7.22	-43.3	-61.9	3.8	7.48e-01	0	56	104	0	57	32002
2026-01-25 00:37:39.33	25.15	7.29	-43.3	-61.7	3.8	7.44e-01	0	56	104	0	57	31249
2026-01-25 00:37:40.34	25.21	7.37	-43.2	-61.4	3.8	7.44e-01	0	57	104	0	57	30296
2026-01-25 00:37:41.35	25.28	7.45	-43.2	-61.2	3.8	7.46e-01	0	56	104	0	57	29488
2026-01-25 00:37:42.36	25.34	7.53	-43.1	-60.8	3.8	7.43e-01	0	57	104	0	57	28165
2026-01-25 00:37:43.37	25.41	7.61	-42.9	-60.2	3.8	7.45e-01	0	57	104	0	57	26224
2026-01-25 00:37:44.38	25.48	7.68	-42.7	-59.2	3.8	7.46e-01	0	56	104	0	57	23404
2026-01-25 00:37:45.40	25.55	7.76	-42.4	-50.3	10.5	6.16e-01	0	57	104	0	56	8903
2026-01-25 00:37:46.41	25.62	7.84	-42.1	-48.9	12.0	6.06e-01	0	57	0	1572864	56	7564
2026-01-25 00:37:47.42	25.68	7.92	-41.6	-47.5	13.3	6.03e-01	0	57	0	3670016	55	6860
2026-01-25 00:37:48.43	25.75	8.00	-41.3	-46.6	14.4	6.03e-01	0	57	0	5242880	54	6504
2026-01-25 00:37:49.44	25.82	8.08	-41.3	-46.3	14.9	6.03e-01	0	57	0	7340032	54	6307
2026-01-25 00:37:50.45	25.89	8.16	-42.1	-47.6	14.0	6.06e-01	0	57	0	8912896	54	7353
2026-01-25 00:37:51.45	25.96	8.24	-41.5	-46.5	15.0	6.02e-01	0	57	0	11010048	55	6077
2026-01-25 00:37:52.46	26.03	8.33	-42.6	-54.5	6.3	6.81e-01	92	57	0	13107200	55	15397
2026-01-25 00:37:53.47	26.10	8.41	-42.9	-50.5	9.5	6.18e-01	0	57	104	13107200	57	8566
2026-01-25 00:37:54.48	26.17	8.49	-42.9	-49.1	12.7	6.06e-01	0	57	0	14680064	57	7352
2026-01-25 00:37:55.49	26.25	8.57	-42.1	-47.0	14.9	6.05e-01	0	57	0	16252928	56	6091
2026-01-25 00:37:56.50	26.32	8.65	-41.7	-46.2	15.6	6.03e-01	0	57	0	18350080	55	5891
2026-01-25 00:37:57.51	26.39	8.73	-41.6	-45.9	15.8	6.05e-01	0	57	0	19922944	55	5722
2026-01-25 00:37:58.52	26.46	8.82	-41.8	-46.5	15.4	6.05e-01	0	57	0	22020096	55	6067
2026-01-25 00:37:59.53	26.54	8.90	-41.9	-46.5	15.4	6.04e-01	0	57	0	24117248	55	6097
2026-01-25 00:38:00.54	26.61	8.98	-41.6	-46.0	15.9	6.03e-01	0	57	0	25690112	55	5771
2026-01-25 00:38:01.55	26.69	9.06	-41.7	-46.2	15.7	6.07e-01	0	57	0	27787264	55	5865
2026-01-25 00:38:02.56	26.76	9.15	-41.8	-46.2	15.7	6.02e-01	0	57	0	29360128	55	5874
2026-01-25 00:38:03.57	26.84	9.23	-41.7	-46.0	15.9	6.04e-01	0	57	0	31457280	55	5731
2026-01-25 00:38:04.58	26.91	9.32	-41.8	-46.2	15.8	6.05e-01	0	57	0	33554432	55	5890
2026-01-25 00:38:05.59	26.99	9.40	-41.7	-45.9	16.2	6.04e-01	0	57	0	35127296	55	5674
2026-01-25 00:38:06.60	27.06	9.49	-41.8	-46.1	16.0	6.02e-01	0	58	0	37224448	55	5817
2026-01-25 00:38:07.61	27.14	9.57	-41.7	-45.7	16.4	6.04e-01	0	57	0	39321600	55	5570
2026-01-25 00:38:08.62	27.22	9.66	-41.7	-45.8	16.4	6.03e-01	0	58	0	40894464	55	5614
2026-01-25 00:38:09.63	27.30	9.74	-41.7	-45.7	16.5	6.03e-01	0	58	0	42991616	55	5555
2026-01-25 00:38:10.63	27.37	9.83	-41.8	-45.8	16.5	6.02e-01	0	58	0	44564480	55	5651
2026-01-25 00:38:11.64	27.45	9.91	-41.8	-45.8	16.5	6.02e-01	0	58	0	46661632	55	5638
2026-01-25 00:38:12.65	27.53	10.00	-41.7	-45.8	16.6	6.07e-01	0	58	0	48758784	55	5598
2026-01-25 00:38:13.66	27.61	10.09	-41.8	-45.7	16.5	6.04e-01	0	58	0	50331648	55	5588
2026-01-25 00:38:14.67	27.69	10.17	-41.8	-45.7	16.7	6.05e-01	0	58	0	52428800	55	5572
2026-01-25 00:38:15.68	27.77	10.26	-41.7	-45.7	16.6	6.03e-01	0	58	0	54001664	55	5553
2026-01-25 00:38:16.69	27.85	10.35	-41.6	-45.7	16.8	6.04e-01	0	58	0	56098816	55	5532
2026-01-25 00:38:17.70	27.93	10.44	-41.6	-45.5	16.9	6.03e-01	0	58	0	58195968	55	5452
2026-01-25 00:38:18.71	28.02	10.52	-41.5	-45.6	16.7	6.05e-01	0	58	0	59768832	55	5516
2026-01-25 00:38:19.72	28.10	10.61	-41.5	-45.7	16.8	6.03e-01	0	58	0	61865984	55	5545
2026-01-25 00:38:20.73	28.18	10.70	-41.4	-45.7	16.8	6.00e-01	0	58	0	63438848	54	5889
2026-01-25 00:38:21.74	28.27	10.79	-41.3	-45.5	17.0	6.02e-01	0	58	0	65536000	54	5763
2026-01-25 00:38:22.74	28.35	10.88	-41.1	-45.6	16.9	6.04e-01	0	58	0	67633152	54	5840
2026-01-25 00:38:23.75	28.43	10.97	-41.0	-45.6	16.8	6.04e-01	0	58	0	69206016	54	5847
2026-01-25 00:38:24.76	28.52	11.06	-41.0	-45.4	17.1	6.06e-01	0	58	0	71303168	53	6058
2026-01-25 00:38:25.77	28.61	11.15	-41.2	-45.5	17.1	6.06e-01	0	58	0	72876032	53	6130
2026-01-25 00:38:26.78	28.69	11.24	-41.3	-45.5	17.2	6.05e-01	0	58	0	74973184	53	6066
2026-01-25 00:38:27.79	28.78	11.33	-41.4	-45.5	17.2	6.05e-01	0	58	0	77070336	53	6074
2026-01-25 00:38:28.80	28.87	11.42	-41.2	-45.5	17.2	6.05e-01	0	58	0	78643200	53	6089
2026-01-25 00:38:29.81	28.96	11.51	-41.4	-45.4	17.3	6.04e-01	0	58	0	80740352	53	6022
2026-01-25 00:38:30.82	29.04	11.61	-41.6	-45.4	17.4	6.01e-01	0	58	0	82837504	53	6021
2026-01-25 00:38:31.83	29.13	11.70	-41.5	-45.4	17.4	6.06e-01	0	58	0	84410368	53	6005
2026-01-25 00:38:32.84	29.22	11.79	-41.2	-45.3	17.4	6.02e-01	0	58	0	86507520	53	5967
2026-01-25 00:38:33.85	29.31	11.88	-41.0	-45.2	17.6	6.01e-01	0	58	0	88080384	53	5890
2026-01-25 00:38:34.86	29.40	11.98	-41.2	-45.1	17.7	6.04e-01	0	58	0	90177536	53	5838
2026-01-25 00:38:35.87	29.50	12.07	-41.5	-45.1	17.7	6.04e-01	0	58	0	92274688	53	5833
2026-01-25 00:38:36.87	29.59	12.16	-41.6	-45.1	17.8	6.03e-01	0	58	0	93847552	53	5793
2026-01-25 00:38:37.88	29.68	12.26	-41.5	-45.1	17.8	6.02e-01	0	58	0	95944704	53	5819
2026-01-25 00:38:38.89	29.77	12.35	-41.4	-45.0	17.8	6.03e-01	0	58	0	97517568	53	5777
2026-01-25 00:38:39.90	29.87	12.45	-41.4	-45.1	17.8	6.04e-01	0	58	0	99614720	53	5809
2026-01-25 00:38:40.91	29.96	12.54	-41.5	-45.0	17.9	6.01e-01	0	58	0	101711872	53	5757
2026-01-25 00:38:41.92	30.06	12.64	-41.6	-45.0	17.9	6.03e-01	0	58	0	103284736	53	5771
2026-01-25 00:38:42.93	30.15	12.74	-41.6	-45.1	17.9	6.03e-01	0	58	0	105381888	53	5791
2026-01-25 00:38:43.94	30.25	12.83	-41.5	-44.9	18.0	6.04e-01	0	58	0	106954752	53	5707
2026-01-25 00:38:44.95	30.35	12.93	-41.5	-45.0	18.0	6.02e-01	0	58	0	109051904	53	5765
2026-01-25 00:38:45.96	30.44	13.03	-41.6	-45.1	17.9	6.02e-01	0	58	0	111149056	53	5826
2026-01-25 00:38:46.97	30.54	13.12	-41.6	-45.1	17.8	6.04e-01	0	59	0	112721920	53	5792
2026-01-25 00:38:47.98	30.64	13.22	-41.6	-45.0	18.0	6.02e-01	0	58	0	114819072	53	5766
2026-01-25 00:38:48.99	30.74	13.32	-41.7	-45.1	17.9	6.04e-01	0	59	0	116391936	53	5834
2026-01-25 00:38:50.00	30.84	13.42	-41.6	-45.0	18.0	6.05e-01	0	58	0	118489088	53	5753
2026-01-25 00:38:51.01	30.94	13.52	-41.5	-44.8	18.1	6.03e-01	0	58	0	120586240	53	5647
2026-01-25 00:38:52.02	31.05	13.62	-41.6	-44.9	18.1	6.03e-01	0	59	0	122159104	53	5690
2026-01-25 00:38:53.03	31.15	13.72	-41.6	-45.0	18.0	6.02e-01	0	58	0	124256256	53	5729
2026-01-25 00:38:54.04	31.25	13.82	-41.5	-44.9	18.1	6.00e-01	0	59	0	125829120	53	5666
2026-01-25 00:38:55.04	31.35	13.92	-41.4	-44.7	18.3	6.01e-01	0	59	0	127926272	53	5556
2026-01-25 00:38:56.05	31.46	14.02	-41.4	-44.7	18.3	6.04e-01	0	59	0	130023424	53	5566
2026-01-25 00:38:57.06	31.56	14.12	-41.5	-44.7	18.3	6.04e-01	0	59	0	131596288	53	5571
2026-01-25 00:38:58.07	31.67	14.22	-41.5	-44.8	18.2	6.04e-01	0	59	0	133693440	53	5615
2026-01-25 00:38:59.08	31.78	14.32	-41.5	-44.8	18.2	6.01e-01	0	59	0	135790592	53	5628
2026-01-25 00:39:00.09	31.89	14.43	-41.5	-44.8	18.3	6.00e-01	0	59	0	137363456	53	5634
2026-01-25 00:39:01.10	31.99	14.53	-41.5	-44.8	18.3	6.04e-01	0	59	0	139460608	53	5599
2026-01-25 00:39:02.11	32.10	14.63	-41.4	-44.6	18.4	6.04e-01	0	59	0	141033472	53	5508
2026-01-25 00:39:03.12	32.21	14.74	-41.4	-44.6	18.5	6.04e-01	0	59	0	143130624	53	5498
2026-01-25 00:39:04.13	32.32	14.84	-41.5	-44.7	18.4	6.03e-01	0	59	0	145227776	53	5545
2026-01-25 00:39:05.14	32.44	14.95	-41.5	-44.7	18.4	6.04e-01	0	59	0	146800640	53	5575
2026-01-25 00:39:06.15	32.55	15.05	-41.5	-44.7	18.4	6.04e-01	0	59	0	148897792	53	5579
2026-01-25 00:39:07.16	32.66	15.16	-41.5	-44.7	18.4	6.01e-01	0	59	0	150994944	53	5552
2026-01-25 00:39:08.17	32.78	15.26	-41.5	-44.7	18.4	6.00e-01	0	59	0	152567808	53	5564
2026-01-25 00:39:09.18	32.89	15.37	-41.5	-44.7	18.4	6.02e-01	0	59	0	154664960	53	5556
2026-01-25 00:39:10.19	33.01	15.47	-41.5	-44.7	18.4	6.02e-01	0	59	0	156237824	53	5557
2026-01-25 00:39:11.20	33.12	15.58	-41.5	-44.6	18.5	6.02e-01	0	59	0	158334976	53	5527
2026-01-25 00:39:12.21	33.24	15.69	-41.4	-44.6	18.6	6.05e-01	0	59	0	160432128	53	5479
2026-01-25 00:39:13.22	33.36	15.80	-41.4	-44.6	18.6	6.02e-01	0	59	0	162004992	53	5501
2026-01-25 00:39:14.23	33.48	15.90	-41.4	-44.6	18.6	6.02e-01	0	59	0	164102144	53	5469
2026-01-25 00:39:15.24	33.60	16.01	-41.4	-44.5	18.7	6.01e-01	0	59	0	165675008	53	5461
2026-01-25 00:39:16.25	33.72	16.12	-41.5	-44.6	18.6	6.03e-01	0	59	0	167772160	53	5511
2026-01-25 00:39:17.26	33.84	16.23	-41.5	-44.6	18.6	6.01e-01	0	59	0	169869312	53	5520
2026-01-25 00:39:18.27	33.97	16.34	-41.4	-44.5	18.7	6.03e-01	0	59	0	171442176	53	5455
2026-01-25 00:39:19.27	34.09	16.45	-41.4	-44.6	18.7	6.03e-01	0	59	0	173539328	53	5475
2026-01-25 00:39:20.28	34.21	16.56	-41.4	-44.5	18.8	6.04e-01	0	59	0	175112192	53	5417
2026-01-25 00:39:21.29	34.34	16.67	-41.4	-44.5	18.7	6.01e-01	0	59	0	177209344	53	5457
2026-01-25 00:39:22.31	34.47	16.79	-41.4	-44.5	18.7	6.06e-01	0	59	0	179306496	53	5451
2026-01-25 00:39:23.32	34.59	16.90	-41.5	-44.6	18.7	6.02e-01	0	59	0	180879360	53	5477
2026-01-25 00:39:24.32	34.72	17.01	-41.5	-44.7	18.6	6.02e-01	0	59	0	182976512	53	5536
2026-01-25 00:39:25.33	34.85	17.12	-41.5	-44.6	18.7	6.02e-01	0	59	0	184549376	53	5487
2026-01-25 00:39:26.34	34.98	17.24	-41.5	-44.6	18.7	6.06e-01	0	59	0	186646528	53	5491
2026-01-25 00:39:27.35	35.11	17.35	-41.4	-44.5	18.8	6.04e-01	0	59	0	188743680	53	5432
2026-01-25 00:39:28.36	35.25	17.47	-41.4	-44.5	18.8	6.04e-01	0	59	0	190316544	53	5427
2026-01-25 00:39:29.37	35.38	17.58	-41.5	-44.6	18.7	6.03e-01	0	59	0	192413696	53	5501
2026-01-25 00:39:30.38	35.51	17.70	-41.5	-44.6	18.7	6.03e-01	0	59	0	193986560	53	5474
2026-01-25 00:39:31.39	35.65	17.81	-41.4	-44.5	18.8	6.02e-01	0	59	0	196083712	53	5444
2026-01-25 00:39:32.40	35.79	17.93	-41.5	-44.6	18.8	6.04e-01	0	59	0	198180864	53	5471
2026-01-25 00:39:33.41	35.93	18.05	-41.5	-44.6	18.7	6.04e-01	0	59	0	199753728	53	5494
2026-01-25 00:39:34.42	36.06	18.16	-41.5	-44.6	18.7	6.02e-01	0	59	0	201850880	53	5522
2026-01-25 00:39:35.43	36.20	18.28	-41.5	-44.7	18.7	6.03e-01	0	59	0	203948032	53	5548
2026-01-25 00:39:36.44	36.35	18.40	-41.5	-44.6	18.8	6.04e-01	0	59	0	205520896	53	5486
2026-01-25 00:39:37.45	36.49	18.52	-41.5	-44.6	18.7	6.02e-01	0	59	0	207618048	53	5525
2026-01-25 00:39:38.46	36.63	18.64	-41.5	-44.6	18.8	6.05e-01	0	59	0	209190912	53	5481
2026-01-25 00:39:39.47	36.78	18.76	-41.5	-44.6	18.7	6.04e-01	0	59	0	211288064	53	5526
2026-01-25 00:39:40.48	36.92	18.88	-41.5	-44.6	18.7	6.02e-01	0	59	0	213385216	53	5500
2026-01-25 00:39:41.48	37.07	18.99	-41.5	-44.5	18.8	6.06e-01	0	59	0	214958080	53	5462
2026-01-25 00:39:42.50	37.22	19.12	-41.6	-44.7	18.7	6.01e-01	0	59	0	217055232	53	5550
2026-01-25 00:39:43.51	37.37	19.24	-41.5	-44.7	18.7	6.02e-01	0	60	0	219152384	53	5538
2026-01-25 00:39:44.52	37.52	19.36	-41.5	-44.6	18.7	6.04e-01	0	59	0	220725248	53	5513
2026-01-25 00:39:45.52	37.67	19.48	-41.5	-44.6	18.8	6.04e-01	0	59	0	222822400	53	5491
2026-01-25 00:39:46.53	37.82	19.60	-41.5	-44.6	18.7	6.02e-01	0	59	0	224395264	53	5516
2026-01-25 00:39:47.54	37.98	19.73	-41.5	-44.6	18.8	6.04e-01	0	60	0	226492416	53	5494
2026-01-25 00:39:48.55	38.13	19.85	-41.6	-44.6	18.7	6.02e-01	0	60	0	228589568	53	5519
2026-01-25 00:39:49.56	38.29	19.98	-41.6	-44.7	18.8	6.05e-01	0	59	0	230162432	53	5543
2026-01-25 00:39:50.57	38.45	20.10	-41.6	-44.7	18.7	6.02e-01	0	60	0	232259584	53	5578
2026-01-25 00:39:51.58	38.61	20.23	-41.6	-44.7	18.7	6.04e-01	0	59	0	233832448	53	5552
2026-01-25 00:39:52.59	38.77	20.35	-41.6	-44.7	18.8	6.03e-01	0	59	0	235929600	53	5546
2026-01-25 00:39:53.60	38.93	20.48	-41.6	-44.7	18.7	6.03e-01	0	60	0	238026752	53	5568
2026-01-25 00:39:54.61	39.10	20.61	-41.6	-44.7	18.8	6.05e-01	0	60	0	239599616	53	5534
2026-01-25 00:39:55.62	39.26	20.73	-41.6	-44.8	18.7	6.03e-01	0	60	0	241696768	53	5601
2026-01-25 00:39:56.63	39.43	20.86	-41.7	-44.8	18.7	6.02e-01	0	59	0	243269632	53	5601
2026-01-25 00:39:57.64	39.60	20.99	-41.7	-44.8	18.7	6.03e-01	0	60	0	245366784	53	5628
2026-01-25 00:39:58.65	39.76	21.12	-41.7	-44.8	18.7	6.05e-01	0	60	0	247463936	54	5286
2026-01-25 00:39:59.66	39.94	21.25	-41.6	-44.7	18.8	6.01e-01	0	60	0	249036800	54	5234
2026-01-25 00:40:00.67	40.11	21.38	-41.7	-44.8	18.7	6.04e-01	0	60	0	251133952	54	5319
2026-01-25 00:40:01.67	40.28	21.50	-41.7	-44.8	18.7	6.03e-01	0	60	0	252706816	54	5281
2026-01-25 00:40:02.69	40.46	21.64	-41.6	-44.7	18.8	6.04e-01	0	60	0	254803968	54	5221
2026-01-25 00:40:03.69	40.63	21.77	-41.6	-44.6	18.9	6.05e-01	0	60	0	256901120	54	5192
2026-01-25 00:40:04.70	40.81	21.90	-41.6	-44.6	18.9	6.03e-01	0	60	0	258473984	54	5211
2026-01-25 00:40:05.71	40.99	22.03	-41.6	-44.7	18.9	6.02e-01	0	60	0	260571136	54	5226
2026-01-25 00:40:06.72	41.17	22.16	-41.6	-44.7	18.8	6.04e-01	0	60	0	262144000	54	5235
2026-01-25 00:40:07.73	41.36	22.30	-41.7	-44.7	18.8	6.03e-01	0	60	0	264241152	54	5274
2026-01-25 00:40:08.74	41.54	22.43	-41.7	-44.8	18.8	6.04e-01	0	60	0	266338304	54	5296
2026-01-25 00:40:09.75	41.73	22.56	-41.7	-44.7	18.8	6.03e-01	0	60	0	267911168	54	5271
2026-01-25 00:40:10.76	41.92	22.70	-41.7	-44.7	18.8	6.05e-01	0	60	0	270008320	54	5270
2026-01-25 00:40:11.77	42.11	22.83	-41.6	-44.7	18.8	6.06e-01	0	60	0	272105472	54	5261
2026-01-25 00:40:12.78	42.30	22.97	-41.6	-44.7	18.8	6.05e-01	0	60	0	273678336	54	5264
2026-01-25 00:40:13.79	42.49	23.10	-41.6	-44.7	18.8	6.00e-01	0	60	0	275775488	54	5261
2026-01-25 00:40:14.80	42.68	23.24	-41.5	-44.6	19.0	6.03e-01	0	60	0	277348352	54	5165
2026-01-25 00:40:15.81	42.88	23.38	-41.6	-44.7	18.9	6.06e-01	0	60	0	279445504	54	5221
2026-01-25 00:40:16.82	43.08	23.51	-41.7	-44.8	18.8	6.04e-01	0	60	0	281542656	54	5282
2026-01-25 00:40:17.83	43.28	23.65	-41.6	-44.7	18.8	6.04e-01	0	60	0	283115520	54	5259
2026-01-25 00:40:18.84	43.48	23.79	-41.7	-44.8	18.8	6.06e-01	0	60	0	285212672	54	5285
2026-01-25 00:40:19.85	43.69	23.93	-41.7	-44.7	18.8	6.02e-01	0	60	0	286785536	54	5270
2026-01-25 00:40:20.86	43.89	24.07	-41.7	-44.8	18.7	6.07e-01	0	60	0	288882688	54	5340
2026-01-25 00:40:21.86	44.10	24.21	-41.8	-44.9	18.7	6.04e-01	0	60	0	290979840	54	5358
2026-01-25 00:40:22.87	44.31	24.35	-41.8	-45.0	18.7	6.04e-01	0	60	0	292552704	54	5404
2026-01-25 00:40:23.88	44.52	24.49	-41.8	-45.0	18.6	6.02e-01	0	60	0	294649856	54	5412
2026-01-25 00:40:24.90	44.73	24.63	-41.8	-44.9	18.7	6.03e-01	0	60	0	296222720	54	5366
2026-01-25 00:40:25.90	44.95	24.77	-41.7	-44.8	18.8	6.03e-01	0	60	0	298319872	54	5317
2026-01-25 00:40:26.91	45.16	24.91	-41.8	-44.9	18.8	6.04e-01	0	60	0	300417024	54	5343
2026-01-25 00:40:27.92	45.38	25.05	-41.8	-44.9	18.7	6.01e-01	0	60	0	301989888	54	5344
2026-01-25 00:40:28.93	45.61	25.20	-41.7	-44.8	18.9	6.02e-01	0	60	0	304087040	54	5282
2026-01-25 00:40:29.94	45.83	25.34	-41.7	-44.7	18.9	6.06e-01	0	60	0	305659904	54	5279
2026-01-25 00:40:30.95	46.05	25.48	-41.8	-44.9	18.7	6.03e-01	0	60	0	307757056	54	5386
2026-01-25 00:40:31.96	46.28	25.63	-41.8	-45.0	18.6	6.04e-01	0	60	0	309854208	54	5420
2026-01-25 00:40:32.97	46.51	25.77	-41.9	-45.1	18.6	6.05e-01	0	60	0	311427072	54	5472
2026-01-25 00:40:33.98	46.74	25.91	-41.8	-44.9	18.7	6.02e-01	0	60	0	313524224	54	5390
2026-01-25 00:40:34.99	46.98	26.06	-41.7	-44.7	18.9	6.04e-01	0	60	0	315621376	54	5257
2026-01-25 00:40:36.00	47.21	26.20	-41.7	-44.7	18.9	6.02e-01	0	60	0	317194240	54	5262
2026-01-25 00:40:37.01	47.45	26.35	-41.8	-44.8	18.8	6.02e-01	0	60	0	319291392	54	5333
2026-01-25 00:40:38.01	47.69	26.49	-41.8	-44.8	18.8	6.05e-01	0	60	0	320864256	54	5330
2026-01-25 00:40:39.02	47.93	26.64	-41.8	-44.8	18.8	6.04e-01	0	60	0	322961408	54	5314
2026-01-25 00:40:40.03	48.18	26.79	-41.8	-44.9	18.8	6.04e-01	0	60	0	325058560	54	5352
2026-01-25 00:40:41.04	48.43	26.93	-41.8	-44.8	18.8	6.03e-01	0	60	0	326631424	54	5338
2026-01-25 00:40:42.05	48.68	27.08	-41.8	-44.9	18.8	6.03e-01	0	60	0	328728576	54	5386
2026-01-25 00:40:43.06	48.93	27.23	-41.8	-44.9	18.8	6.03e-01	0	60	0	330301440	54	5344
2026-01-25 00:40:44.07	49.18	27.38	-41.7	-44.8	18.9	6.02e-01	0	60	0	332398592	54	5296
2026-01-25 00:40:45.08	49.44	27.53	-41.7	-44.8	18.9	6.03e-01	0	60	0	334495744	54	5283
2026-01-25 00:40:46.09	49.70	27.67	-41.8	-44.9	18.8	6.04e-01	0	60	0	336068608	54	5351
2026-01-25 00:40:47.10	49.96	27.82	-41.8	-44.9	18.8	6.06e-01	0	60	0	338165760	54	5383
2026-01-25 00:40:48.11	50.23	27.97	-41.8	-44.9	18.8	6.01e-01	0	60	0	340262912	54	5356
2026-01-25 00:40:49.12	50.49	28.12	-41.8	-44.9	18.8	6.02e-01	0	60	0	341835776	54	5368
2026-01-25 00:40:50.13	50.76	28.27	-41.9	-45.0	18.8	6.02e-01	0	60	0	343932928	54	5411
2026-01-25 00:40:51.14	51.04	28.42	-41.8	-44.8	18.9	6.04e-01	0	60	0	345505792	54	5319
2026-01-25 00:40:52.15	51.31	28.57	-41.7	-44.7	19.0	6.03e-01	0	60	0	347602944	54	5272
2026-01-25 00:40:53.16	51.59	28.72	-41.8	-44.8	19.0	6.02e-01	0	60	0	349700096	54	5291
2026-01-25 00:40:54.17	51.87	28.87	-41.7	-44.7	19.0	6.02e-01	0	60	0	351272960	54	5246
2026-01-25 00:40:55.18	52.15	29.02	-41.7	-44.7	19.0	6.03e-01	0	60	0	353370112	54	5224
2026-01-25 00:40:56.19	52.44	29.17	-41.7	-44.8	19.0	6.03e-01	0	60	0	354942976	54	5286
2026-01-25 00:40:57.20	52.72	29.32	-41.8	-44.9	18.9	6.03e-01	0	60	0	357040128	54	5359
2026-01-25 00:40:58.21	53.02	29.47	-41.8	-44.9	18.9	6.04e-01	0	60	0	359137280	54	5344
2026-01-25 00:40:59.22	53.31	29.62	-41.8	-44.8	18.9	6.03e-01	0	60	0	360710144	54	5314
2026-01-25 00:41:00.23	53.61	29.77	-41.8	-44.9	18.9	6.02e-01	0	60	0	362807296	54	5342
2026-01-25 00:41:01.24	53.91	29.92	-41.9	-45.0	18.8	6.04e-01	0	60	0	364380160	54	5408
2026-01-25 00:41:02.25	54.21	30.08	-41.9	-45.0	18.8	6.03e-01	0	60	0	366477312	54	5425
2026-01-25 00:41:03.26	54.51	30.23	-41.9	-45.0	18.8	6.02e-01	0	60	0	368574464	54	5416
2026-01-25 00:41:04.27	54.82	30.38	-41.9	-44.9	18.8	6.03e-01	0	60	0	370147328	54	5386
2026-01-25 00:41:05.28	55.13	30.53	-41.9	-44.9	18.8	6.02e-01	0	60	0	372244480	54	5399
2026-01-25 00:41:06.29	55.45	30.68	-41.9	-45.0	18.8	5.99e-01	0	60	0	373817344	54	5403
2026-01-25 00:41:07.30	55.76	30.83	-42.0	-45.1	18.7	6.02e-01	0	60	0	375914496	54	5472
2026-01-25 00:41:08.31	56.08	30.98	-41.7	-44.6	19.2	6.04e-01	0	60	0	378011648	54	5178
2026-01-25 00:41:09.31	56.40	31.13	-41.7	-44.7	19.1	6.01e-01	0	60	0	379584512	54	5227
2026-01-25 00:41:10.32	56.73	31.28	-41.9	-44.9	18.9	6.05e-01	0	60	0	381681664	54	5389
2026-01-25 00:41:11.33	57.06	31.43	-41.8	-44.9	18.9	6.03e-01	0	60	0	383778816	54	5344
2026-01-25 00:41:12.34	57.39	31.58	-41.9	-44.9	18.9	6.05e-01	0	60	0	385351680	54	5376
2026-01-25 00:41:13.35	57.73	31.73	-41.9	-45.0	18.8	6.05e-01	0	60	0	387448832	54	5404
2026-01-25 00:41:14.36	58.07	31.88	-41.9	-44.9	18.8	6.05e-01	0	60	0	389021696	54	5399
2026-01-25 00:41:15.37	58.41	32.03	-41.8	-44.9	18.9	6.03e-01	0	60	0	391118848	54	5342
2026-01-25 00:41:16.38	58.75	32.18	-41.8	-44.8	19.0	6.01e-01	0	60	0	393216000	54	5318
2026-01-25 00:41:17.39	59.10	32.33	-41.9	-45.0	18.8	6.04e-01	0	60	0	394788864	54	5452
2026-01-25 00:41:18.40	59.45	32.48	-42.0	-45.1	18.7	6.03e-01	0	60	0	396886016	54	5478
2026-01-25 00:41:19.41	59.81	32.63	-42.1	-45.2	18.6	6.03e-01	0	60	0	398458880	54	5565
2026-01-25 00:41:20.42	60.17	32.77	-42.0	-45.1	18.7	6.03e-01	0	60	0	400556032	54	5493
2026-01-25 00:41:21.43	60.53	32.92	-41.8	-44.8	19.0	6.04e-01	0	60	0	402653184	54	5297
2026-01-25 00:41:22.44	60.89	33.07	-41.9	-44.9	18.9	6.06e-01	0	60	0	404226048	54	5395
2026-01-25 00:41:23.45	61.26	33.21	-42.0	-45.1	18.8	6.07e-01	0	60	0	406323200	54	5486
2026-01-25 00:41:24.46	61.63	33.36	-42.0	-45.1	18.7	6.03e-01	0	60	0	408420352	54	5516
2026-01-25 00:41:25.47	62.01	33.51	-41.9	-45.0	18.9	6.03e-01	0	60	0	409993216	54	5409
2026-01-25 00:41:26.48	62.39	33.65	-41.9	-44.9	19.0	6.05e-01	0	60	0	412090368	54	5363
2026-01-25 00:41:27.49	62.77	33.79	-42.0	-45.0	18.8	6.04e-01	0	60	0	413663232	54	5440
2026-01-25 00:41:28.50	63.15	33.94	-42.0	-45.1	18.8	6.03e-01	0	61	0	415760384	54	5469
2026-01-25 00:41:29.50	63.54	34.08	-42.0	-45.0	18.8	6.02e-01	0	61	0	417857536	54	5441
2026-01-25 00:41:30.52	63.94	34.22	-42.0	-45.1	18.8	6.02e-01	0	60	0	419430400	54	5493
2026-01-25 00:41:31.53	64.33	34.36	-42.1	-45.2	18.7	6.02e-01	0	60	0	421527552	54	5554
2026-01-25 00:41:32.54	64.73	34.50	-42.0	-45.1	18.8	6.07e-01	0	60	0	423100416	54	5472
2026-01-25 00:41:33.54	65.13	34.64	-42.0	-45.0	18.9	6.01e-01	0	60	0	425197568	54	5434
2026-01-25 00:41:34.55	65.54	34.78	-42.1	-45.2	18.7	6.03e-01	0	60	0	427294720	54	5577
2026-01-25 00:41:35.56	65.95	34.92	-42.1	-45.2	18.7	6.04e-01	0	60	0	428867584	54	5587
2026-01-25 00:41:36.57	66.36	35.06	-42.1	-45.2	18.7	6.04e-01	0	60	0	430964736	54	5576
2026-01-25 00:41:37.58	66.78	35.19	-42.2	-45.4	18.5	6.03e-01	0	60	0	432537600	54	5677
2026-01-25 00:41:38.59	67.20	35.33	-42.1	-45.2	18.7	6.03e-01	0	60	0	434634752	55	5270
2026-01-25 00:41:39.60	67.62	35.46	-42.0	-45.0	18.9	6.03e-01	0	60	0	436731904	55	5147
2026-01-25 00:41:40.61	68.05	35.59	-42.2	-45.4	18.6	6.06e-01	0	60	0	438304768	55	5350
2026-01-25 00:41:41.62	68.48	35.73	-42.3	-45.4	18.4	6.01e-01	0	60	0	440401920	55	5396
2026-01-25 00:41:42.63	68.91	35.86	-42.3	-45.5	18.4	6.04e-01	0	61	0	441974784	55	5440
2026-01-25 00:41:43.64	69.35	35.99	-42.1	-45.1	18.8	6.02e-01	0	60	0	444071936	55	5205
2026-01-25 00:41:44.65	69.79	36.11	-42.1	-45.2	18.7	6.04e-01	0	60	0	446169088	55	5256
2026-01-25 00:41:45.65	70.23	36.24	-42.1	-45.2	18.7	6.03e-01	0	60	0	447741952	55	5240
2026-01-25 00:41:46.67	70.69	36.37	-42.2	-45.3	18.6	6.02e-01	0	61	0	449839104	55	5313
2026-01-25 00:41:47.67	71.13	36.49	-42.1	-45.2	18.7	6.04e-01	0	61	0	451936256	55	5260
2026-01-25 00:41:48.69	71.59	36.61	-42.1	-45.3	18.7	6.05e-01	0	60	0	453509120	55	5283
2026-01-25 00:41:49.70	72.05	36.73	-42.1	-45.2	18.7	6.03e-01	0	61	0	455606272	55	5247
2026-01-25 00:41:50.70	72.51	36.85	-42.1	-45.2	18.8	6.04e-01	0	60	0	457179136	55	5228
2026-01-25 00:41:51.71	72.98	36.97	-42.2	-45.4	18.5	6.04e-01	0	60	0	459276288	55	5365
2026-01-25 00:41:52.72	73.45	37.08	-42.2	-45.3	18.7	6.05e-01	0	61	0	461373440	55	5303
2026-01-25 00:41:53.73	73.92	37.20	-42.4	-45.7	18.3	6.02e-01	0	61	0	462946304	55	5529
2026-01-25 00:41:54.74	74.40	37.31	-42.2	-45.4	18.5	6.00e-01	0	61	0	465043456	55	5369
2026-01-25 00:41:55.75	74.88	37.42	-42.6	-46.0	18.0	6.05e-01	0	60	0	466616320	55	5745
2026-01-25 00:41:56.76	75.36	37.53	-42.4	-45.7	18.2	6.01e-01	0	60	0	468713472	55	5577
2026-01-25 00:41:57.77	75.84	37.64	-42.3	-45.5	18.5	6.04e-01	0	61	0	470810624	55	5412
2026-01-25 00:41:58.78	76.33	37.75	-42.3	-45.4	18.5	6.04e-01	0	61	0	472383488	55	5376
2026-01-25 00:41:59.79	76.83	37.85	-42.5	-45.8	18.2	6.08e-01	0	61	0	474480640	55	5595
2026-01-25 00:42:00.80	77.32	37.95	-42.2	-45.4	18.6	6.05e-01	0	60	0	476577792	55	5356
2026-01-25 00:42:01.81	77.82	38.05	-42.1	-45.1	18.8	6.04e-01	0	61	0	478150656	55	5190
2026-01-25 00:42:02.82	78.32	38.15	-42.1	-45.2	18.8	6.03e-01	0	61	0	480247808	55	5243
2026-01-25 00:42:03.83	78.83	38.24	-42.1	-45.2	18.8	6.04e-01	0	60	0	481820672	55	5227
2026-01-25 00:42:04.84	79.33	38.34	-42.2	-45.4	18.6	6.03e-01	0	60	0	483917824	55	5341
2026-01-25 00:42:05.85	79.85	38.43	-42.2	-45.3	18.6	6.03e-01	0	61	0	485490688	55	5317
2026-01-25 00:42:06.86	80.36	38.52	-41.9	-44.8	19.1	6.03e-01	0	60	0	487587840	55	5011
2026-01-25 00:42:07.86	80.87	38.60	-42.1	-45.1	18.8	6.03e-01	0	60	0	489684992	55	5209
2026-01-25 00:42:08.88	81.40	38.69	-42.0	-45.0	19.0	6.01e-01	0	60	0	491257856	55	5106
2026-01-25 00:42:09.89	81.92	38.77	-42.1	-45.2	18.8	6.04e-01	0	61	0	493355008	55	5223
2026-01-25 00:42:10.90	82.44	38.85	-42.2	-45.3	18.7	6.03e-01	0	60	0	494927872	55	5295
2026-01-25 00:42:11.91	82.97	38.93	-42.0	-45.0	18.9	6.02e-01	0	61	0	497025024	55	5142
2026-01-25 00:42:12.92	83.50	39.00	-42.1	-45.1	18.8	6.06e-01	0	61	0	499122176	55	5207
2026-01-25 00:42:13.93	84.03	39.07	-42.0	-45.0	18.9	6.02e-01	0	61	0	500695040	55	5140
2026-01-25 00:42:14.94	84.57	39.14	-41.9	-44.9	19.0	6.03e-01	0	60	0	502792192	55	5074
2026-01-25 00:42:15.94	85.10	39.21	-41.9	-44.9	19.1	6.04e-01	0	61	0	504889344	55	5055
2026-01-25 00:42:16.95	85.64	39.27	-42.2	-45.3	18.7	6.03e-01	0	61	0	506462208	55	5310
2026-01-25 00:42:17.96	86.18	39.33	-42.1	-45.1	18.8	6.00e-01	0	61	0	508559360	55	5189
2026-01-25 00:42:18.97	86.72	39.39	-41.9	-44.9	19.0	6.03e-01	0	61	0	510132224	55	5067
2026-01-25 00:42:19.98	87.27	39.45	-42.0	-45.0	18.9	6.04e-01	0	61	0	512229376	55	5143
2026-01-25 00:42:20.99	87.81	39.50	-42.0	-45.0	19.0	6.02e-01	0	61	0	514326528	55	5116
2026-01-25 00:42:22.00	88.36	39.55	-42.1	-45.1	18.9	6.01e-01	0	61	0	515899392	55	5202
2026-01-25 00:42:23.01	88.91	39.60	-42.0	-45.0	19.0	6.04e-01	0	60	0	517996544	55	5132
2026-01-25 00:42:24.02	89.46	39.65	-42.0	-45.0	19.0	6.03e-01	0	61	0	520093696	55	5131
2026-01-25 00:42:25.03	90.02	39.69	-41.9	-44.9	19.1	6.04e-01	0	61	0	521666560	55	5057
2026-01-25 00:42:26.04	90.57	39.73	-42.1	-45.1	18.9	6.04e-01	0	61	0	523763712	55	5172
2026-01-25 00:42:27.05	91.13	39.77	-42.0	-45.1	18.9	6.02e-01	0	61	0	525336576	55	5166
2026-01-25 00:42:28.06	91.69	39.80	-41.9	-44.8	19.1	6.03e-01	0	61	0	527433728	55	5038
2026-01-25 00:42:29.06	92.24	39.83	-41.9	-44.9	19.1	6.04e-01	0	60	0	529530880	55	5063
2026-01-25 00:42:30.07	92.80	39.86	-41.9	-44.9	19.1	6.04e-01	0	60	0	531103744	55	5046
2026-01-25 00:42:31.08	93.36	39.88	-42.0	-45.1	18.9	6.03e-01	0	61	0	533200896	55	5163
2026-01-25 00:42:32.09	93.92	39.91	-42.0	-44.9	19.0	6.03e-01	0	61	0	534773760	55	5093
2026-01-25 00:42:33.11	94.49	39.92	-41.9	-44.8	19.2	6.01e-01	0	61	0	536870912	55	5011
2026-01-25 00:42:34.11	95.05	39.94	-42.0	-45.0	19.0	6.05e-01	0	61	0	538968064	55	5148
2026-01-25 00:42:35.12	95.61	39.95	-42.2	-45.4	18.6	6.04e-01	0	61	0	540540928	55	5353
2026-01-25 00:42:36.13	96.18	39.96	-42.0	-45.0	18.9	6.05e-01	0	61	0	542638080	55	5148
2026-01-25 00:42:37.14	96.74	39.97	-42.1	-45.1	18.9	6.01e-01	0	61	0	544210944	55	5188
2026-01-25 00:42:38.15	97.30	39.97	-42.1	-45.2	18.8	6.03e-01	0	60	0	546308096	55	5249
2026-01-25 00:42:39.16	97.87	39.98	-42.2	-45.2	18.7	6.06e-01	0	61	0	548405248	55	5276
2026-01-25 00:42:40.17	98.43	39.97	-42.2	-45.2	18.8	6.05e-01	0	61	0	549978112	55	5270
2026-01-25 00:42:41.18	99.00	39.97	-42.1	-45.2	18.8	6.02e-01	0	61	0	552075264	55	5224
2026-01-25 00:42:42.19	99.56	39.96	-42.1	-45.1	18.9	6.01e-01	0	61	0	553648128	55	5192
2026-01-25 00:42:43.20	100.13	39.95	-42.0	-45.1	18.9	6.04e-01	0	61	0	555745280	55	5167
2026-01-25 00:42:44.21	100.69	39.93	-42.1	-45.1	18.9	6.04e-01	0	61	0	557842432	55	5188
2026-01-25 00:42:45.22	101.25	39.92	-42.1	-45.1	18.9	6.03e-01	0	61	0	559415296	55	5182
2026-01-25 00:42:46.23	101.81	39.90	-42.1	-45.2	18.8	6.03e-01	0	61	0	561512448	55	5239
2026-01-25 00:42:47.23	102.37	39.87	-42.1	-45.1	18.9	6.04e-01	0	61	0	563085312	55	5177
2026-01-25 00:42:48.24	102.93	39.85	-42.0	-44.9	19.1	6.05e-01	0	61	0	565182464	55	5077
2026-01-25 00:42:49.25	103.49	39.82	-42.2	-45.4	18.6	6.04e-01	0	61	0	567279616	55	5372
2026-01-25 00:42:50.26	104.05	39.79	-42.1	-45.1	18.8	6.01e-01	0	61	0	568852480	55	5214
2026-01-25 00:42:51.27	104.61	39.75	-42.1	-45.1	18.8	6.02e-01	0	61	0	570949632	55	5215
2026-01-25 00:42:52.28	105.16	39.71	-42.1	-45.1	18.9	6.03e-01	0	61	0	573046784	55	5184
2026-01-25 00:42:53.29	105.72	39.67	-42.1	-45.2	18.8	6.02e-01	0	61	0	574619648	55	5245
2026-01-25 00:42:54.30	106.27	39.63	-42.1	-45.2	18.8	6.04e-01	0	61	0	576716800	55	5248
2026-01-25 00:42:55.31	106.83	39.58	-42.1	-45.0	18.9	6.03e-01	0	61	0	578289664	55	5159
2026-01-25 00:42:56.32	107.38	39.53	-42.1	-45.2	18.8	6.03e-01	0	61	0	580386816	55	5234
2026-01-25 00:42:57.33	107.92	39.48	-42.2	-45.3	18.7	6.04e-01	0	61	0	582483968	55	5294
2026-01-25 00:42:58.34	108.47	39.43	-42.1	-45.1	18.8	6.03e-01	0	61	0	584056832	55	5214
2026-01-25 00:42:59.35	109.02	39.37	-42.1	-45.1	18.8	6.04e-01	0	61	0	586153984	55	5213
2026-01-25 00:43:00.35	109.55	39.31	-42.1	-45.2	18.8	6.05e-01	0	61	0	588251136	55	5220
2026-01-25 00:43:01.36	110.10	39.25	-42.1	-45.2	18.8	6.04e-01	0	61	0	589824000	55	5242
2026-01-25 00:43:02.37	110.63	39.18	-42.2	-45.3	18.7	6.04e-01	0	61	0	591921152	55	5281
2026-01-25 00:43:03.38	111.17	39.11	-42.2	-45.2	18.8	6.03e-01	0	61	0	593494016	55	5263
2026-01-25 00:43:04.39	111.71	39.04	-42.1	-45.2	18.8	6.01e-01	0	61	0	595591168	55	5228
2026-01-25 00:43:05.40	112.24	38.97	-42.1	-45.2	18.8	6.03e-01	0	61	0	597688320	55	5241
2026-01-25 00:43:06.41	112.77	38.89	-42.1	-45.1	18.8	6.03e-01	0	61	0	599261184	55	5206
2026-01-25 00:43:07.42	113.29	38.82	-42.1	-45.2	18.8	6.04e-01	0	61	0	601358336	55	5254
2026-01-25 00:43:08.43	113.82	38.74	-42.1	-45.2	18.7	6.07e-01	0	61	0	602931200	55	5261
2026-01-25 00:43:09.44	114.34	38.65	-42.0	-45.1	18.9	6.06e-01	0	61	0	605028352	55	5163
2026-01-25 00:43:10.45	114.86	38.57	-42.1	-45.2	18.8	6.03e-01	0	61	0	607125504	55	5253
2026-01-25 00:43:11.46	115.38	38.48	-42.0	-45.0	18.9	6.05e-01	0	61	0	608698368	55	5145
2026-01-25 00:43:12.47	115.89	38.39	-41.9	-44.9	19.1	6.02e-01	0	61	0	610795520	55	5072
2026-01-25 00:43:13.48	116.40	38.30	-42.2	-45.3	18.6	6.06e-01	0	61	0	612368384	55	5337
2026-01-25 00:43:14.49	116.91	38.20	-42.0	-45.0	18.9	6.05e-01	0	61	0	614465536	55	5129
2026-01-25 00:43:15.50	117.41	38.11	-41.9	-44.9	19.0	6.01e-01	0	61	0	616562688	55	5069
2026-01-25 00:43:16.51	117.92	38.01	-42.1	-45.1	18.9	6.02e-01	0	61	0	618135552	55	5198
2026-01-25 00:43:17.52	118.41	37.91	-42.2	-45.4	18.6	6.05e-01	0	61	0	620232704	55	5354
2026-01-25 00:43:18.53	118.91	37.80	-42.2	-45.3	18.6	6.00e-01	0	61	0	621805568	55	5320
2026-01-25 00:43:19.54	119.40	37.70	-42.2	-45.3	18.6	6.03e-01	0	61	0	623902720	55	5323
2026-01-25 00:43:20.55	119.89	37.59	-42.0	-45.0	19.0	6.02e-01	0	61	0	625999872	55	5106
2026-01-25 00:43:21.56	120.38	37.48	-42.0	-45.0	18.9	6.05e-01	0	61	0	627572736	55	5140
2026-01-25 00:43:22.57	120.86	37.37	-42.1	-45.2	18.8	6.03e-01	0	61	0	629669888	55	5240
2026-01-25 00:43:23.57	121.33	37.26	-42.1	-45.2	18.8	6.03e-01	0	61	0	631242752	55	5234
2026-01-25 00:43:24.58	121.81	37.15	-41.9	-44.9	19.1	6.03e-01	0	61	0	633339904	55	5066
2026-01-25 00:43:25.59	122.28	37.03	-41.9	-44.9	19.1	6.02e-01	0	61	0	635437056	55	5050
2026-01-25 00:43:26.60	122.75	36.91	-42.0	-45.0	19.0	6.02e-01	0	61	0	637009920	55	5116
2026-01-25 00:43:27.61	123.22	36.80	-42.0	-45.1	18.9	6.02e-01	0	61	0	639107072	55	5160
2026-01-25 00:43:28.62	123.68	36.68	-42.0	-45.0	19.0	6.04e-01	0	61	0	641204224	55	5108
2026-01-25 00:43:29.63	124.14	36.55	-41.9	-44.8	19.1	6.03e-01	0	61	0	642777088	55	5024
2026-01-25 00:43:30.64	124.60	36.43	-41.9	-44.8	19.2	6.03e-01	0	61	0	644874240	55	5017
2026-01-25 00:43:31.65	125.05	36.30	-41.9	-44.9	19.1	6.04e-01	0	61	0	646447104	55	5047
2026-01-25 00:43:32.66	125.50	36.18	-41.9	-44.8	19.2	6.05e-01	0	61	0	648544256	55	5011
2026-01-25 00:43:33.67	125.94	36.05	-41.8	-44.7	19.3	6.02e-01	0	61	0	650641408	55	4932
2026-01-25 00:43:34.68	126.38	35.92	-41.8	-44.7	19.2	6.03e-01	0	61	0	652214272	55	4967
2026-01-25 00:43:35.69	126.82	35.79	-41.8	-44.7	19.2	6.04e-01	0	61	0	654311424	55	4973
2026-01-25 00:43:36.70	127.25	35.66	-41.7	-44.6	19.4	6.04e-01	0	61	0	656408576	55	4895
2026-01-25 00:43:37.71	127.69	35.53	-41.7	-44.6	19.4	6.01e-01	0	61	0	657981440	55	4902
2026-01-25 00:43:38.72	128.11	35.39	-41.8	-44.7	19.3	6.03e-01	0	61	0	660078592	55	4964
2026-01-25 00:43:39.73	128.54	35.26	-41.7	-44.6	19.3	6.03e-01	0	61	0	661651456	55	4895
2026-01-25 00:43:40.74	128.96	35.12	-41.8	-44.7	19.3	6.04e-01	0	61	0	663748608	55	4952
2026-01-25 00:43:41.75	129.37	34.98	-41.6	-44.4	19.5	6.05e-01	0	61	0	665321472	55	4809
2026-01-25 00:43:42.76	129.79	34.85	-41.6	-44.4	19.6	6.02e-01	0	61	0	667418624	55	4803
2026-01-25 00:43:43.77	130.20	34.71	-41.6	-44.4	19.5	6.01e-01	0	61	0	669515776	55	4804
2026-01-25 00:43:44.78	130.60	34.57	-41.6	-44.5	19.5	6.03e-01	0	61	0	671088640	55	4815
2026-01-25 00:43:45.79	131.01	34.43	-41.7	-44.5	19.5	6.03e-01	0	61	0	673185792	55	4842
2026-01-25 00:43:46.80	131.40	34.29	-41.6	-44.4	19.5	6.04e-01	0	61	0	674758656	55	4810
2026-01-25 00:43:47.80	131.80	34.14	-41.5	-44.2	19.8	6.01e-01	0	61	0	676855808	54	4951
2026-01-25 00:43:48.81	132.19	34.00	-41.5	-44.2	19.8	6.04e-01	0	61	0	678952960	54	4949
2026-01-25 00:43:49.82	132.58	33.86	-41.3	-44.0	19.3	6.06e-01	0	61	0	680525824	54	4850
2026-01-25 00:43:50.83	132.96	33.71	-41.4	-44.1	19.9	6.03e-01	0	61	0	682622976	54	4872
2026-01-25 00:43:51.84	133.34	33.57	-41.4	-44.1	19.8	6.01e-01	0	61	0	684720128	54	4925
2026-01-25 00:43:52.85	133.72	33.42	-41.4	-44.0	19.9	6.01e-01	0	61	0	686292992	54	4864
2026-01-25 00:43:53.86	134.10	33.28	-41.4	-44.1	19.9	6.04e-01	0	61	0	688390144	54	4881
2026-01-25 00:43:54.87	134.47	33.13	-41.3	-43.9	20.0	6.06e-01	0	61	0	689963008	54	4813
2026-01-25 00:43:55.88	134.84	32.98	-41.2	-43.7	20.2	6.03e-01	0	61	0	692060160	54	4701
2026-01-25 00:43:56.89	135.20	32.83	-41.2	-43.9	20.1	6.02e-01	0	61	0	694157312	54	4775
2026-01-25 00:43:57.90	135.56	32.68	-41.3	-44.0	20.0	6.04e-01	0	61	0	695730176	54	4820
2026-01-25 00:43:58.91	135.92	32.54	-41.3	-43.9	20.0	6.02e-01	0	61	0	697827328	54	4804
2026-01-25 00:43:59.92	136.28	32.39	-41.2	-43.9	20.0	6.02e-01	0	61	0	699400192	54	4780
2026-01-25 00:44:00.93	136.63	32.24	-41.2	-43.8	20.1	6.03e-01	0	61	0	701497344	54	4751
2026-01-25 00:44:01.94	136.98	32.09	-41.2	-43.9	20.1	6.06e-01	0	61	0	703594496	54	4763
2026-01-25 00:44:02.95	137.32	31.94	-41.2	-43.8	20.1	6.01e-01	0	61	0	705167360	54	4749
2026-01-25 00:44:03.96	137.66	31.79	-41.2	-43.8	20.1	6.04e-01	0	61	0	707264512	54	4731
2026-01-25 00:44:04.96	138.00	31.64	-41.3	-44.0	19.9	6.02e-01	0	61	0	709361664	54	4846
2026-01-25 00:44:05.97	138.33	31.49	-41.3	-44.0	19.9	6.03e-01	0	61	0	710934528	54	4860
2026-01-25 00:44:06.98	138.67	31.33	-41.3	-44.0	19.8	6.03e-01	0	61	0	713031680	54	4859
2026-01-25 00:44:07.99	138.99	31.18	-41.2	-43.9	20.0	6.03e-01	0	61	0	714604544	54	4776
2026-01-25 00:44:09.00	139.32	31.03	-41.2	-43.8	20.1	6.03e-01	0	61	0	716701696	54	4734
2026-01-25 00:44:10.01	139.64	30.88	-41.2	-43.8	20.1	6.03e-01	0	61	0	718798848	54	4744
2026-01-25 00:44:11.02	139.96	30.73	-41.3	-43.9	19.9	6.04e-01	0	61	0	720371712	54	4798
2026-01-25 00:44:12.03	140.28	30.58	-41.3	-44.0	19.9	6.02e-01	0	61	0	722468864	54	4850
2026-01-25 00:44:13.04	140.59	30.42	-41.3	-44.0	19.9	6.05e-01	0	61	0	724041728	54	4857
2026-01-25 00:44:14.05	140.90	30.27	-41.3	-44.0	19.9	6.04e-01	0	61	0	726138880	54	4848
2026-01-25 00:44:15.06	141.21	30.12	-41.4	-44.1	19.8	6.02e-01	0	61	0	728236032	54	4874
2026-01-25 00:44:16.07	141.52	29.97	-41.4	-44.1	19.8	6.05e-01	0	61	0	729808896	54	4910
2026-01-25 00:44:17.08	141.82	29.82	-41.5	-44.3	19.6	6.02e-01	0	61	0	731906048	54	4996
2026-01-25 00:44:18.09	142.12	29.66	-41.5	-44.3	19.6	6.05e-01	0	61	0	733478912	54	5012
2026-01-25 00:44:19.10	142.41	29.51	-41.5	-44.2	19.6	6.04e-01	0	61	0	735576064	54	4971
2026-01-25 00:44:20.11	142.71	29.36	-41.4	-44.2	19.7	6.04e-01	0	61	0	737673216	54	4928
2026-01-25 00:44:21.12	143.00	29.21	-41.3	-44.0	19.8	6.04e-01	0	61	0	739246080	54	4860
2026-01-25 00:44:22.13	143.29	29.06	-41.3	-44.0	19.8	6.03e-01	0	61	0	741343232	54	4855
2026-01-25 00:44:23.14	143.57	28.91	-41.4	-44.2	19.7	6.03e-01	0	61	0	742916096	54	4932
2026-01-25 00:44:24.15	143.85	28.76	-41.5	-44.3	19.6	6.05e-01	0	61	0	745013248	54	4988
2026-01-25 00:44:25.16	144.13	28.60	-41.5	-44.3	19.5	6.05e-01	0	61	0	747110400	54	5038
2026-01-25 00:44:26.17	144.41	28.45	-41.5	-44.3	19.5	6.01e-01	0	61	0	748683264	54	5036
2026-01-25 00:44:27.18	144.69	28.30	-41.5	-44.3	19.6	6.02e-01	0	61	0	750780416	54	5004
2026-01-25 00:44:28.19	144.96	28.15	-41.5	-44.3	19.5	6.03e-01	0	61	0	752353280	54	5029
2026-01-25 00:44:29.20	145.23	28.00	-41.5	-44.3	19.5	6.04e-01	0	61	0	754450432	54	5019
2026-01-25 00:44:30.21	145.49	27.85	-41.6	-44.4	19.4	6.03e-01	0	61	0	756547584	54	5093
2026-01-25 00:44:31.21	145.76	27.70	-41.6	-44.4	19.4	6.05e-01	0	61	0	758120448	54	5077
2026-01-25 00:44:32.22	146.02	27.55	-41.7	-44.5	19.3	6.04e-01	0	61	0	760217600	54	5156
2026-01-25 00:44:33.24	146.28	27.40	-41.7	-44.6	19.2	6.03e-01	0	61	0	762314752	54	5215
2026-01-25 00:44:34.24	146.53	27.26	-41.8	-44.7	19.1	6.03e-01	0	61	0	763887616	54	5279
2026-01-25 00:44:35.25	146.79	27.11	-41.9	-44.9	19.0	6.04e-01	0	61	0	765984768	54	5345
2026-01-25 00:44:36.26	147.04	26.96	-41.8	-44.8	19.0	6.05e-01	0	61	0	767557632	54	5294
2026-01-25 00:44:37.26	147.29	26.81	-41.7	-44.7	19.1	6.03e-01	0	61	0	769654784	54	5234
2026-01-25 00:44:38.27	147.53	26.66	-41.7	-44.6	19.2	6.03e-01	0	61	0	771751936	54	5203
2026-01-25 00:44:39.28	147.78	26.52	-41.7	-44.7	19.1	6.01e-01	0	61	0	773324800	54	5239
2026-01-25 00:44:40.29	148.02	26.37	-41.8	-44.8	19.0	6.05e-01	0	61	0	775421952	54	5309
2026-01-25 00:44:41.31	148.26	26.22	-41.8	-44.9	18.9	6.06e-01	0	61	0	777519104	54	5355
2026-01-25 00:44:42.31	148.50	26.08	-41.9	-44.9	18.9	6.04e-01	0	61	0	779091968	54	5392
2026-01-25 00:44:43.32	148.74	25.93	-41.8	-44.9	18.9	6.04e-01	0	61	0	781189120	54	5343
2026-01-25 00:44:44.33	148.97	25.78	-41.9	-45.0	18.8	6.04e-01	0	61	0	782761984	54	5406
2026-01-25 00:44:45.34	149.20	25.64	-41.9	-44.9	18.9	6.04e-01	0	61	0	784859136	54	5360
2026-01-25 00:44:46.35	149.43	25.49	-41.8	-44.9	18.9	6.04e-01	0	61	0	786956288	54	5345
2026-01-25 00:44:47.36	149.66	25.35	-41.8	-44.9	18.9	6.04e-01	0	61	0	788529152	54	5344
2026-01-25 00:44:48.37	149.88	25.20	-41.8	-44.9	18.9	6.05e-01	0	61	0	790626304	54	5345
2026-01-25 00:44:49.38	150.11	25.06	-41.7	-44.7	19.0	6.02e-01	0	61	0	792199168	54	5259
2026-01-25 00:44:50.39	150.33	24.92	-41.8	-44.7	19.0	6.04e-01	0	61	0	794296320	54	5274
2026-01-25 00:44:51.40	150.55	24.77	-41.8	-44.8	19.0	6.04e-01	0	61	0	796393472	54	5310
2026-01-25 00:44:52.41	150.76	24.63	-41.9	-45.0	18.8	6.02e-01	0	61	0	797966336	54	5411
2026-01-25 00:44:53.42	150.98	24.49	-41.9	-45.1	18.7	6.00e-01	0	61	0	800063488	54	5469
2026-01-25 00:44:54.43	151.19	24.35	-41.9	-45.0	18.7	6.03e-01	0	61	0	801636352	54	5440
2026-01-25 00:44:55.44	151.40	24.21	-42.0	-45.1	18.7	6.02e-01	0	61	0	803733504	54	5473
2026-01-25 00:44:56.44	151.61	24.07	-42.0	-45.1	18.6	6.04e-01	0	61	0	805830656	54	5526
2026-01-25 00:44:57.45	151.82	23.93	-42.0	-45.1	18.6	6.03e-01	0	61	0	807403520	54	5499
2026-01-25 00:44:58.47	152.02	23.79	-41.9	-45.1	18.6	6.04e-01	0	61	0	809500672	54	5479
2026-01-25 00:44:59.47	152.22	23.65	-41.9	-45.0	18.7	6.03e-01	0	61	0	811073536	54	5427
2026-01-25 00:45:00.49	152.43	23.51	-41.9	-45.1	18.6	6.00e-01	0	61	0	813170688	54	5477
2026-01-25 00:45:01.49	152.63	23.37	-42.0	-45.1	18.6	6.05e-01	0	61	0	815267840	54	5510
2026-01-25 00:45:02.50	152.82	23.23	-41.9	-45.0	18.7	6.05e-01	0	61	0	816840704	54	5446
2026-01-25 00:45:03.51	153.02	23.10	-41.9	-45.0	18.7	6.04e-01	0	61	0	818937856	54	5440
2026-01-25 00:45:04.52	153.22	22.96	-41.9	-45.0	18.7	6.02e-01	0	61	0	820510720	54	5415
2026-01-25 00:45:05.53	153.41	22.82	-41.9	-45.0	18.7	6.04e-01	0	61	0	822607872	54	5455
2026-01-25 00:45:06.54	153.60	22.69	-41.8	-44.9	18.8	6.03e-01	0	61	0	824705024	54	5363
2026-01-25 00:45:07.55	153.79	22.55	-41.9	-45.0	18.7	6.01e-01	0	61	0	826277888	54	5422
2026-01-25 00:45:08.56	153.98	22.42	-41.9	-45.0	18.7	6.03e-01	0	61	0	828375040	54	5422
2026-01-25 00:45:09.57	154.16	22.28	-41.9	-45.1	18.6	6.02e-01	0	61	0	830472192	54	5490
2026-01-25 00:45:10.58	154.35	22.15	-42.0	-45.2	18.5	6.01e-01	0	61	0	832045056	54	5545
2026-01-25 00:45:11.59	154.53	22.01	-41.9	-45.1	18.5	6.01e-01	0	61	0	834142208	54	5500
2026-01-25 00:45:12.59	154.71	21.88	-41.9	-45.0	18.6	6.03e-01	0	61	0	835715072	54	5426
2026-01-25 00:45:13.60	154.89	21.75	-41.8	-44.9	18.7	6.04e-01	0	61	0	837812224	54	5386
2026-01-25 00:45:14.61	155.07	21.62	-41.9	-45.0	18.7	6.06e-01	0	61	0	839909376	54	5418
2026-01-25 00:45:15.62	155.24	21.48	-41.9	-45.0	18.6	6.03e-01	0	61	0	841482240	54	5452
2026-01-25 00:45:16.63	155.42	21.35	-41.9	-45.0	18.6	6.04e-01	0	61	0	843579392	54	5425
2026-01-25 00:45:17.64	155.59	21.22	-41.8	-44.9	18.7	6.04e-01	0	61	0	845676544	54	5368
2026-01-25 00:45:18.65	155.76	21.09	-41.8	-44.9	18.7	6.05e-01	0	61	0	847249408	54	5392
2026-01-25 00:45:19.66	155.93	20.96	-41.8	-44.8	18.8	6.05e-01	0	61	0	849346560	54	5336
2026-01-25 00:45:20.67	156.10	20.83	-41.7	-44.7	18.9	6.04e-01	0	61	0	850919424	54	5266
2026-01-25 00:45:21.68	156.27	20.70	-41.8	-44.8	18.8	6.04e-01	0	61	0	853016576	54	5340
2026-01-25 00:45:22.69	156.44	20.57	-41.8	-44.9	18.8	6.01e-01	0	61	0	854589440	54	5348
2026-01-25 00:45:23.69	156.60	20.45	-41.7	-44.8	18.9	6.04e-01	0	61	0	856686592	54	5302
2026-01-25 00:45:24.70	156.76	20.32	-41.7	-44.8	18.9	6.02e-01	0	61	0	858783744	54	5281
2026-01-25 00:45:25.71	156.92	20.19	-41.7	-44.7	18.9	6.05e-01	0	61	0	860356608	54	5270
2026-01-25 00:45:26.72	157.08	20.07	-41.6	-44.7	19.0	6.01e-01	0	61	0	862453760	54	5228
2026-01-25 00:45:27.73	157.24	19.94	-41.6	-44.6	19.0	6.04e-01	0	61	0	864026624	54	5199
2026-01-25 00:45:28.74	157.40	19.82	-41.7	-44.8	18.9	6.04e-01	0	61	0	866123776	54	5283
2026-01-25 00:45:29.75	157.56	19.69	-41.6	-44.7	18.9	6.04e-01	0	61	0	868220928	54	5226
2026-01-25 00:45:30.76	157.71	19.57	-41.6	-44.6	19.0	6.05e-01	0	61	0	869793792	54	5173
2026-01-25 00:45:31.77	157.87	19.44	-41.6	-44.6	19.0	6.03e-01	0	61	0	871890944	54	5211
2026-01-25 00:45:32.78	158.02	19.32	-41.6	-44.6	19.0	6.05e-01	0	61	0	873988096	54	5178
2026-01-25 00:45:33.79	158.17	19.20	-41.6	-44.6	19.0	6.04e-01	0	61	0	875560960	54	5176
2026-01-25 00:45:34.80	158.32	19.07	-41.6	-44.7	19.0	6.03e-01	0	61	0	877658112	54	5221
2026-01-25 00:45:35.81	158.47	18.95	-41.6	-44.6	18.9	6.03e-01	0	61	0	879230976	54	5218
2026-01-25 00:45:36.82	158.62	18.83	-41.6	-44.7	19.0	6.03e-01	0	61	0	881328128	54	5219
2026-01-25 00:45:37.83	158.77	18.71	-41.6	-44.5	19.1	6.01e-01	0	61	0	883425280	54	5156
2026-01-25 00:45:38.84	158.91	18.59	-41.6	-44.6	19.0	6.03e-01	0	61	0	884998144	54	5214
2026-01-25 00:45:39.85	159.05	18.47	-41.6	-44.7	18.9	6.04e-01	0	61	0	887095296	54	5224
2026-01-25 00:45:40.85	159.20	18.35	-41.6	-44.6	19.0	6.03e-01	0	61	0	888668160	54	5181
2026-01-25 00:45:41.86	159.34	18.23	-41.6	-44.7	18.9	6.04e-01	0	61	0	890765312	54	5243
2026-01-25 00:45:42.87	159.48	18.11	-41.6	-44.6	19.0	6.01e-01	0	61	0	892862464	54	5199
2026-01-25 00:45:43.89	159.62	17.99	-41.6	-44.6	19.0	6.04e-01	0	61	0	894435328	54	5184
2026-01-25 00:45:44.89	159.76	17.88	-41.6	-44.6	19.0	6.02e-01	0	61	0	896532480	54	5174
2026-01-25 00:45:45.90	159.89	17.76	-41.5	-44.5	19.0	6.00e-01	0	61	0	898629632	54	5152
2026-01-25 00:45:46.91	160.03	17.64	-41.5	-44.5	19.0	6.01e-01	0	61	0	900202496	54	5145
2026-01-25 00:45:47.92	160.17	17.53	-41.6	-44.6	19.0	6.03e-01	0	61	0	902299648	54	5200
2026-01-25 00:45:48.93	160.30	17.41	-41.6	-44.6	19.0	6.04e-01	0	61	0	903872512	54	5196
2026-01-25 00:45:49.94	160.43	17.29	-41.5	-44.6	19.0	6.06e-01	0	61	0	905969664	54	5160
2026-01-25 00:45:50.95	160.57	17.18	-41.5	-44.4	19.1	6.02e-01	0	61	0	908066816	54	5097
2026-01-25 00:45:51.96	160.70	17.06	-41.5	-44.5	19.0	6.03e-01	0	61	0	909639680	54	5122
2026-01-25 00:45:52.97	160.83	16.95	-41.5	-44.5	19.1	6.03e-01	0	61	0	911736832	54	5126
2026-01-25 00:45:53.98	160.96	16.84	-41.5	-44.6	19.0	6.03e-01	0	61	0	913309696	54	5170
2026-01-25 00:45:54.99	161.08	16.72	-41.4	-44.4	19.1	6.01e-01	0	61	0	915406848	54	5077
2026-01-25 00:45:56.00	161.21	16.61	-41.4	-44.4	19.1	6.04e-01	0	61	0	917504000	54	5082
2026-01-25 00:45:57.01	161.34	16.50	-41.4	-44.4	19.1	6.04e-01	0	61	0	919076864	54	5055
2026-01-25 00:45:58.01	161.46	16.39	-41.4	-44.3	19.2	6.03e-01	0	61	0	921174016	54	5024
2026-01-25 00:45:59.02	161.58	16.28	-41.4	-44.3	19.2	6.04e-01	0	61	0	922746880	54	5026
2026-01-25 00:46:00.03	161.71	16.17	-41.3	-44.3	19.2	6.04e-01	0	61	0	924844032	54	4989
2026-01-25 00:46:01.04	161.83	16.06	-41.4	-44.3	19.2	6.04e-01	0	61	0	926941184	54	5005
2026-01-25 00:46:02.05	161.95	15.95	-41.4	-44.3	19.2	6.02e-01	0	61	0	928514048	54	5032
2026-01-25 00:46:03.06	162.07	15.84	-41.4	-44.3	19.2	6.02e-01	0	61	0	930611200	54	5024
2026-01-25 00:46:04.07	162.19	15.73	-41.3	-44.3	19.2	6.03e-01	0	61	0	932184064	54	5014
2026-01-25 00:46:05.08	162.31	15.62	-41.4	-44.4	19.1	6.07e-01	0	61	0	934281216	54	5051
2026-01-25 00:46:06.09	162.43	15.51	-41.4	-44.4	19.1	6.03e-01	0	61	0	936378368	54	5044
2026-01-25 00:46:07.10	162.54	15.40	-41.4	-44.4	19.0	6.02e-01	0	61	0	937951232	54	5090
2026-01-25 00:46:08.11	162.66	15.29	-41.4	-44.4	19.1	6.03e-01	0	61	0	940048384	54	5070
2026-01-25 00:46:09.12	162.78	15.19	-41.4	-44.5	19.0	6.07e-01	0	61	0	942145536	54	5104
2026-01-25 00:46:10.13	162.89	15.08	-41.4	-44.5	19.0	6.06e-01	0	61	0	943718400	54	5123
2026-01-25 00:46:11.14	163.00	14.97	-41.5	-44.6	18.8	6.04e-01	0	61	0	945815552	54	5177
2026-01-25 00:46:12.15	163.12	14.87	-41.5	-44.6	18.8	6.04e-01	0	61	0	947388416	54	5193
2026-01-25 00:46:13.16	163.23	14.76	-41.6	-44.7	18.8	6.05e-01	0	61	0	949485568	54	5234
2026-01-25 00:46:14.17	163.34	14.66	-41.6	-44.7	18.6	6.04e-01	0	61	0	951582720	54	5279
2026-01-25 00:46:15.18	163.45	14.55	-41.5	-44.6	18.8	6.04e-01	0	61	0	953155584	54	5184
2026-01-25 00:46:16.19	163.56	14.45	-41.4	-44.5	18.9	6.04e-01	0	61	0	955252736	54	5125
2026-01-25 00:46:17.20	163.67	14.34	-41.4	-44.5	18.9	6.02e-01	0	61	0	956825600	54	5120
2026-01-25 00:46:18.21	163.78	14.24	-41.4	-44.5	18.8	6.05e-01	0	61	0	958922752	54	5138
2026-01-25 00:46:19.22	163.88	14.14	-41.4	-44.5	18.9	6.03e-01	0	61	0	961019904	54	5130
2026-01-25 00:46:20.23	163.99	14.04	-41.4	-44.5	18.8	6.04e-01	0	61	0	962592768	54	5136
2026-01-25 00:46:21.24	164.09	13.93	-41.5	-44.6	18.8	6.03e-01	0	61	0	964689920	54	5177
2026-01-25 00:46:22.25	164.20	13.83	-41.4	-44.6	18.8	6.05e-01	0	61	0	966787072	54	5164
2026-01-25 00:46:23.26	164.30	13.73	-41.4	-44.5	18.8	6.02e-01	0	61	0	968359936	54	5142
2026-01-25 00:46:24.26	164.41	13.63	-41.4	-44.5	18.8	6.03e-01	0	61	0	970457088	54	5155
2026-01-25 00:46:25.27	164.51	13.53	-41.5	-44.6	18.7	6.03e-01	0	61	0	972029952	54	5206
2026-01-25 00:46:26.28	164.61	13.43	-41.5	-44.7	18.6	6.02e-01	0	61	0	974127104	54	5226
2026-01-25 00:46:27.29	164.71	13.33	-41.5	-44.7	18.6	6.00e-01	0	61	0	976224256	54	5221
2026-01-25 00:46:28.30	164.81	13.23	-41.5	-44.6	18.6	6.00e-01	0	61	0	977797120	54	5218
2026-01-25 00:46:29.31	164.91	13.13	-41.5	-44.7	18.5	6.03e-01	0	61	0	979894272	54	5229
2026-01-25 00:46:30.32	165.01	13.03	-41.6	-44.8	18.4	6.02e-01	0	61	0	981467136	54	5311
2026-01-25 00:46:31.33	165.11	12.93	-41.6	-44.8	18.4	6.02e-01	0	61	0	983564288	54	5311
2026-01-25 00:46:32.34	165.21	12.84	-41.5	-44.8	18.4	6.04e-01	0	61	0	985661440	54	5294
2026-01-25 00:46:33.35	165.30	12.74	-41.6	-44.9	18.3	6.04e-01	0	61	0	987234304	54	5372
2026-01-25 00:46:34.36	165.40	12.64	-41.6	-44.9	18.3	6.03e-01	0	61	0	989331456	54	5366
2026-01-25 00:46:35.37	165.50	12.54	-41.5	-44.7	18.5	6.03e-01	0	61	0	990904320	54	5246
2026-01-25 00:46:36.38	165.59	12.45	-41.5	-44.8	18.4	6.00e-01	0	61	0	993001472	54	5295
2026-01-25 00:46:37.39	165.69	12.35	-41.5	-44.8	18.4	6.02e-01	0	61	0	995098624	54	5305
2026-01-25 00:46:38.40	165.78	12.26	-41.5	-44.8	18.4	6.03e-01	0	61	0	996671488	54	5292
2026-01-25 00:46:39.41	165.87	12.16	-41.6	-44.9	18.3	6.03e-01	0	61	0	998768640	54	5364
2026-01-25 00:46:40.42	165.96	12.06	-41.6	-45.0	18.2	6.02e-01	0	61	0	1000341504	54	5407
2026-01-25 00:46:41.43	166.06	11.97	-41.6	-44.9	18.2	6.05e-01	0	61	0	1002438656	54	5365
2026-01-25 00:46:42.43	166.15	11.88	-41.6	-44.9	18.2	6.00e-01	0	61	0	1004535808	54	5380
2026-01-25 00:46:43.45	166.24	11.78	-41.5	-44.8	18.3	6.04e-01	0	61	0	1006108672	54	5335
2026-01-25 00:46:44.45	166.33	11.69	-41.5	-44.9	18.3	6.05e-01	0	61	0	1008205824	54	5341
2026-01-25 00:46:45.46	166.42	11.60	-41.5	-44.8	18.3	6.05e-01	0	61	0	1010302976	54	5295
2026-01-25 00:46:46.47	166.51	11.50	-41.5	-44.9	18.2	6.03e-01	0	61	0	1011875840	54	5357
2026-01-25 00:46:47.48	166.60	11.41	-41.5	-44.9	18.2	6.06e-01	0	61	0	1013972992	54	5356
2026-01-25 00:46:48.49	166.68	11.32	-41.5	-44.9	18.2	6.04e-01	0	61	0	1015545856	54	5360
2026-01-25 00:46:49.50	166.77	11.22	-41.6	-44.9	18.2	6.01e-01	0	61	0	1017643008	54	5380
2026-01-25 00:46:50.51	166.86	11.13	-41.6	-45.0	18.0	6.04e-01	0	61	0	1019740160	54	5441
2026-01-25 00:46:51.52	166.94	11.04	-41.6	-45.0	18.1	6.03e-01	0	61	0	1021313024	54	5407
2026-01-25 00:46:52.53	167.03	10.95	-41.6	-45.0	18.1	6.03e-01	0	61	0	1023410176	54	5414
2026-01-25 00:46:53.53	167.11	10.86	-41.5	-44.9	18.1	6.02e-01	0	61	0	1024983040	54	5399
2026-01-25 00:46:54.54	167.20	10.77	-41.6	-45.1	18.0	6.03e-01	0	61	0	1027080192	54	5466
2026-01-25 00:46:55.55	167.28	10.68	-41.6	-45.0	18.1	6.01e-01	0	61	0	1029177344	54	5403
2026-01-25 00:46:56.56	167.36	10.59	-41.6	-45.0	17.9	6.03e-01	0	61	0	1030750208	54	5446
2026-01-25 00:46:57.57	167.45	10.50	-41.6	-45.0	18.0	6.05e-01	0	61	0	1032847360	54	5449
2026-01-25 00:46:58.58	167.53	10.41	-41.6	-45.1	17.8	6.06e-01	0	61	0	1034420224	54	5523
2026-01-25 00:46:59.59	167.61	10.32	-41.7	-45.2	17.8	6.03e-01	0	62	0	1036517376	54	5538
2026-01-25 00:47:00.60	167.69	10.23	-41.6	-45.1	17.8	6.03e-01	0	61	0	1038614528	54	5526
2026-01-25 00:47:01.62	167.77	10.15	-41.6	-45.2	17.7	6.03e-01	0	61	0	1040187392	54	5543
2026-01-25 00:47:02.62	167.85	10.06	-41.7	-45.3	17.6	6.02e-01	0	61	0	1042284544	54	5631
2026-01-25 00:47:03.63	167.93	9.97	-41.7	-45.3	17.5	6.03e-01	0	61	0	1043857408	54	5648
2026-01-25 00:47:04.64	168.01	9.88	-41.8	-45.5	17.4	6.04e-01	0	61	0	1045954560	54	5741
2026-01-25 00:47:05.65	168.09	9.80	-41.7	-45.3	17.5	6.02e-01	0	61	0	1048051712	54	5634
2026-01-25 00:47:06.66	168.17	9.71	-41.7	-45.4	17.4	6.06e-01	0	61	0	1049624576	54	5692
2026-01-25 00:47:07.67	168.25	9.62	-41.7	-45.3	17.5	6.03e-01	0	61	0	1051721728	54	5599
2026-01-25 00:47:08.68	168.33	9.54	-41.7	-45.3	17.5	6.05e-01	0	61	0	1053294592	54	5604
2026-01-25 00:47:09.69	168.40	9.45	-41.7	-45.3	17.5	6.02e-01	0	61	0	1055391744	54	5633
2026-01-25 00:47:10.70	168.48	9.37	-41.8	-45.5	17.3	6.03e-01	0	61	0	1057488896	54	5780
2026-01-25 00:47:11.71	168.56	9.28	-41.7	-45.4	17.3	6.04e-01	0	61	0	1059061760	54	5713
2026-01-25 00:47:12.71	168.63	9.20	-41.7	-45.4	17.4	6.04e-01	0	61	0	1061158912	54	5673
2026-01-25 00:47:13.73	168.71	9.11	-41.7	-45.4	17.3	6.02e-01	0	61	0	1063256064	54	5716
2026-01-25 00:47:14.74	168.78	9.03	-41.8	-45.5	17.3	6.06e-01	0	61	0	1064828928	54	5745
2026-01-25 00:47:15.75	168.86	8.94	-41.8	-45.7	17.1	6.06e-01	0	61	0	1066926080	54	5873
2026-01-25 00:47:16.76	168.93	8.86	-41.9	-45.8	17.0	6.03e-01	0	61	0	1068498944	54	5943
2026-01-25 00:47:17.77	169.00	8.77	-41.9	-45.8	16.9	6.01e-01	0	61	0	1070596096	54	5978
2026-01-25 00:47:18.78	169.08	8.69	-41.8	-45.7	17.0	6.03e-01	0	61	0	1072693248	54	5884
2026-01-25 00:47:19.79	169.15	8.61	-41.8	-45.6	17.0	6.03e-01	0	61	0	1074266112	54	5822
2026-01-25 00:47:20.80	169.22	8.52	-41.8	-45.8	16.9	6.05e-01	0	61	0	1076363264	54	5940
2026-01-25 00:47:21.81	169.29	8.44	-41.8	-45.8	16.9	6.05e-01	0	61	0	1078460416	54	5943
2026-01-25 00:47:22.82	169.36	8.36	-41.7	-45.5	17.1	6.02e-01	0	61	0	1080033280	54	5761
2026-01-25 00:47:23.82	169.43	8.28	-41.7	-45.5	17.1	6.02e-01	0	61	0	1082130432	54	5783
2026-01-25 00:47:24.83	169.50	8.20	-41.7	-45.6	16.9	6.04e-01	0	61	0	1083703296	54	5826
2026-01-25 00:47:25.84	169.57	8.12	-41.7	-45.6	16.9	6.01e-01	0	61	0	1085800448	54	5826
2026-01-25 00:47:26.85	169.64	8.03	-41.7	-45.6	16.9	6.05e-01	0	61	0	1087897600	54	5803
2026-01-25 00:47:27.86	169.71	7.95	-44.3	-52.0	10.9	6.15e-01	0	61	0	1089470464	59	9110
2026-01-25 00:47:28.87	169.78	7.87	-45.5	-63.5	3.8	7.47e-01	0	61	104	1089994752	61	30544
2026-01-25 00:47:29.88	169.85	7.79	-45.7	-64.3	3.9	7.46e-01	0	61	104	1089994752	62	31673
2026-01-25 00:47:30.89	169.92	7.71	-45.9	-64.5	3.8	7.46e-01	0	62	104	1089994752	62	32190
2026-01-25 00:47:31.90	169.98	7.63	-46.0	-64.6	3.8	7.44e-01	0	61	104	1089994752	62	32654
2026-01-25 00:47:32.91	170.05	7.55	-46.1	-64.7	3.8	7.46e-01	0	61	104	1089994752	62	32943
2026-01-25 00:47:33.92	170.12	7.47	-46.2	-64.7	3.8	7.44e-01	0	61	104	1089994752	62	33170
2026-01-25 00:47:34.93	170.19	7.39	-46.2	-64.8	3.8	7.41e-01	0	61	104	1089994752	62	33397
2026-01-25 00:47:35.94	170.25	7.32	-46.3	-64.8	3.8	7.42e-01	0	61	104	1089994752	63	31614
2026-01-25 00:47:36.96	170.32	7.24	-46.3	-64.8	3.8	7.45e-01	0	61	104	1089994752	63	31734
2026-01-25 00:47:37.97	170.38	7.16	-46.3	-64.8	3.8	7.46e-01	0	61	104	1089994752	63	31780
2026-01-25 00:47:38.98	170.45	7.08	-46.3	-64.8	3.8	7.44e-01	0	61	104	1089994752	63	31698
2026-01-25 00:47:39.98	170.51	7.00	-46.3	-64.8	3.8	7.47e-01	0	61	104	1089994752	63	31635
2026-01-25 00:47:40.99	170.58	6.92	-46.3	-64.8	3.8	7.47e-01	0	62	104	1089994752	63	31501
2026-01-25 00:47:42.01	170.64	6.85	-46.3	-64.8	3.8	7.41e-01	0	61	104	1089994752	63	31529
2026-01-25 00:47:43.01	170.70	6.77	-46.3	-64.8	3.8	7.46e-01	0	61	104	1089994752	63	31575
2026-01-25 00:47:44.03	170.77	6.69	-46.3	-64.7	3.8	7.46e-01	0	61	104	1089994752	63	31416
2026-01-25 00:47:45.04	170.83	6.61	-46.2	-64.7	3.8	7.50e-01	0	62	104	1089994752	63	31273
2026-01-25 00:47:46.05	170.89	6.54	-46.2	-64.7	3.8	7.48e-01	0	62	104	1089994752	63	31234
2026-01-25 00:47:47.06	170.96	6.46	-46.2	-64.7	3.8	7.46e-01	0	62	104	1089994752	63	31224
2026-01-25 00:47:48.07	171.02	6.39	-46.2	-64.7	3.8	7.42e-01	0	61	104	1089994752	63	31196
2026-01-25 00:47:49.08	171.08	6.31	-46.2	-64.7	3.8	7.43e-01	0	61	104	1089994752	63	31197
2026-01-25 00:47:50.09	171.14	6.23	-46.2	-64.7	3.8	7.46e-01	0	61	104	1089994752	63	31320
2026-01-25 00:47:51.10	171.20	6.16	-46.2	-64.7	3.8	7.45e-01	0	62	104	1089994752	63	31309
2026-01-25 00:47:52.11	171.26	6.08	-46.2	-64.7	3.8	7.45e-01	0	61	104	1089994752	63	31259
2026-01-25 00:47:53.12	171.32	6.01	-46.2	-64.7	3.8	7.44e-01	0	61	104	1089994752	63	31236
2026-01-25 00:47:54.13	171.38	5.93	-46.2	-64.7	3.8	7.47e-01	0	61	104	1089994752	63	31213
2026-01-25 00:47:55.14	171.44	5.86	-46.2	-64.7	3.8	7.50e-01	0	61	104	1089994752	63	31097
2026-01-25 00:47:56.15	171.50	5.78	-46.2	-64.7	3.8	7.46e-01	0	61	104	1089994752	63	31125
2026-01-25 00:47:57.16	171.56	5.71	-46.2	-64.6	3.8	7.43e-01	0	61	104	1089994752	63	31075
2026-01-25 00:47:58.17	171.62	5.64	-46.2	-64.7	3.8	7.46e-01	0	62	104	1089994752	63	31109
2026-01-25 00:47:59.18	171.68	5.56	-46.2	-64.7	3.8	7.45e-01	0	62	104	1089994752	63	31141
2026-01-25 00:48:00.19	171.73	5.49	-46.2	-64.6	3.8	7.45e-01	0	61	104	1089994752	63	31023
2026-01-25 00:48:01.20	171.79	5.42	-46.2	-64.6	3.8	7.45e-01	0	61	104	1089994752	63	31049
2026-01-25 00:48:02.21	171.85	5.34	-46.1	-64.6	3.8	7.46e-01	0	61	104	1089994752	63	31019
2026-01-25 00:48:03.22	171.91	5.27	-46.1	-64.6	3.8	7.42e-01	0	61	104	1089994752	63	31016
2026-01-25 00:48:04.24	171.96	5.20	-46.1	-64.6	3.8	7.44e-01	0	62	104	1089994752	63	31004
