passes_logs/2026/01/25/R2.0S_Moscow/R2.0S_Moscow__20260125_232817_SUOMI_NPP_rec.log

#Pass ID: 20260125_232817_SUOMI NPP
#Satellite: SUOMI NPP
#Configuration: NPP
#almurnet v.1.7.20251203
#Start time: 2026-01-25 23:28:19

#Version: 2.2.20231116
#Station: R2.0S_Moscow
#Location: 37.707566 lon 55.798166 lat
#TLE: 1 37849U 11061A   26025.53586395  .00000179  00000+0  10601-3 0  9996
#TLE: 2 37849  98.7821 327.4943 0002169  45.6246 314.5108 14.19529815738202

#Time	Az	El	Level	Level2	SNR	BER	BlckErr	Temp	State	Recorded	gain1	gain2
2026-01-25 23:28:19.05	17.53	2.09	-41.7	-56.3	3.8	1.49e+00	0	52	0	0	55	18907
2026-01-25 23:28:20.05	17.55	2.15	-41.7	-56.3	3.8	1.49e+00	0	52	104	0	55	18851
2026-01-25 23:28:21.06	17.56	2.22	-41.7	-56.3	3.8	1.49e+00	0	53	104	0	55	18820
2026-01-25 23:28:22.07	17.58	2.28	-41.7	-56.3	3.8	1.49e+00	0	52	104	0	55	18887
2026-01-25 23:28:23.08	17.60	2.35	-41.7	-56.3	3.8	1.49e+00	0	53	104	0	55	18909
2026-01-25 23:28:24.09	17.61	2.41	-41.7	-56.3	3.8	1.49e+00	0	53	104	0	55	18863
2026-01-25 23:28:25.10	17.63	2.48	-41.7	-56.3	3.8	1.49e+00	0	52	104	0	55	18840
2026-01-25 23:28:26.11	17.65	2.54	-41.7	-56.3	3.8	1.49e+00	0	53	104	0	55	18903
2026-01-25 23:28:27.13	17.66	2.61	-41.7	-56.3	3.8	1.49e+00	0	53	104	0	55	18894
2026-01-25 23:28:28.14	17.68	2.67	-41.7	-56.3	3.8	1.49e+00	0	53	104	0	55	18895
2026-01-25 23:28:29.15	17.70	2.74	-41.7	-56.3	3.8	1.49e+00	0	53	104	0	55	18861
2026-01-25 23:28:30.16	17.71	2.80	-41.7	-56.3	3.8	1.49e+00	0	53	104	0	55	18933
2026-01-25 23:28:31.17	17.73	2.87	-41.7	-56.3	3.8	1.49e+00	0	53	104	0	55	18881
2026-01-25 23:28:32.18	17.75	2.93	-41.7	-56.3	3.8	1.49e+00	0	53	104	0	55	18870
2026-01-25 23:28:33.19	17.77	3.00	-41.7	-56.3	3.8	1.49e+00	0	53	104	0	55	18867
2026-01-25 23:28:34.20	17.78	3.07	-41.7	-56.3	3.8	1.49e+00	0	53	104	0	55	18849
2026-01-25 23:28:35.21	17.80	3.13	-41.7	-56.3	3.8	1.49e+00	0	53	104	0	55	18854
2026-01-25 23:28:36.22	17.82	3.20	-41.7	-56.3	3.8	1.49e+00	0	53	104	0	55	18871
2026-01-25 23:28:37.23	17.84	3.27	-41.7	-56.3	3.8	1.49e+00	0	53	104	0	55	18894
2026-01-25 23:28:38.24	17.85	3.33	-41.7	-56.3	3.8	1.49e+00	0	53	104	0	55	18872
2026-01-25 23:28:39.25	17.87	3.40	-41.7	-56.3	3.8	1.49e+00	0	54	104	0	55	18901
2026-01-25 23:28:40.26	17.89	3.47	-41.7	-56.3	3.8	1.49e+00	0	54	104	0	55	18890
2026-01-25 23:28:41.27	17.91	3.54	-41.7	-56.3	3.8	1.49e+00	0	54	104	0	55	18888
2026-01-25 23:28:42.28	17.92	3.60	-41.7	-56.3	3.8	1.49e+00	0	54	104	0	55	18863
2026-01-25 23:28:43.29	17.94	3.67	-41.7	-56.3	3.8	1.49e+00	0	54	104	0	55	18866
2026-01-25 23:28:44.31	17.96	3.74	-41.7	-56.3	3.8	1.49e+00	0	54	104	0	55	18887
2026-01-25 23:28:45.32	17.98	3.81	-41.7	-56.3	3.8	1.49e+00	0	54	104	0	55	18858
2026-01-25 23:28:46.32	18.00	3.88	-41.7	-56.3	3.8	1.49e+00	0	54	104	0	55	18851
2026-01-25 23:28:47.33	18.02	3.94	-41.7	-56.3	3.8	1.49e+00	0	54	104	0	55	18846
2026-01-25 23:28:48.34	18.03	4.01	-41.7	-56.3	3.8	1.49e+00	0	54	104	0	55	18854
2026-01-25 23:28:49.35	18.05	4.08	-41.7	-56.3	3.8	1.49e+00	0	54	104	0	55	18842
2026-01-25 23:28:50.36	18.07	4.15	-41.7	-56.3	3.8	1.49e+00	0	54	104	0	55	18876
2026-01-25 23:28:51.37	18.09	4.22	-41.7	-56.3	3.8	1.49e+00	0	55	104	0	55	18852
2026-01-25 23:28:52.38	18.11	4.29	-41.7	-56.3	3.8	1.49e+00	0	54	104	0	55	18813
2026-01-25 23:28:53.39	18.13	4.36	-41.7	-56.3	3.8	1.49e+00	0	55	104	0	55	18892
2026-01-25 23:28:54.40	18.14	4.43	-41.7	-56.3	3.8	1.49e+00	0	55	104	0	55	18823
2026-01-25 23:28:55.41	18.16	4.50	-41.7	-56.3	3.8	1.49e+00	0	55	104	0	55	18819
2026-01-25 23:28:56.42	18.18	4.57	-41.7	-56.3	3.8	1.49e+00	0	55	104	0	55	18828
2026-01-25 23:28:57.44	18.20	4.64	-41.7	-56.3	3.8	1.49e+00	0	55	104	0	55	18839
2026-01-25 23:28:58.44	18.22	4.71	-41.7	-56.3	3.8	1.49e+00	0	55	104	0	55	18866
2026-01-25 23:28:59.45	18.24	4.78	-41.7	-56.3	3.8	1.49e+00	0	55	104	0	55	18825
2026-01-25 23:29:00.47	18.26	4.85	-41.7	-56.3	3.8	1.49e+00	0	55	104	0	55	18785
2026-01-25 23:29:01.48	18.28	4.92	-41.7	-56.3	3.8	1.49e+00	0	55	104	0	55	18811
2026-01-25 23:29:02.49	18.30	4.99	-41.7	-56.3	3.8	1.49e+00	0	55	104	0	55	18760
2026-01-25 23:29:03.50	18.31	5.06	-41.7	-56.3	3.8	1.49e+00	0	55	104	0	55	18830
2026-01-25 23:29:04.51	18.33	5.14	-41.7	-56.3	3.8	1.49e+00	0	55	104	0	55	18805
2026-01-25 23:29:05.52	18.35	5.21	-41.7	-56.3	3.8	1.49e+00	0	55	104	0	55	18880
2026-01-25 23:29:06.53	18.37	5.28	-41.7	-56.3	3.8	1.49e+00	0	55	104	0	55	18777
2026-01-25 23:29:07.54	18.39	5.35	-41.7	-56.3	3.8	1.49e+00	0	55	104	0	55	18833
2026-01-25 23:29:08.55	18.41	5.42	-41.7	-56.3	3.8	1.49e+00	0	55	104	0	55	18851
2026-01-25 23:29:09.56	18.43	5.50	-41.7	-56.3	3.8	1.49e+00	0	55	104	0	55	18810
2026-01-25 23:29:10.58	18.45	5.57	-41.7	-56.3	3.8	1.49e+00	0	56	104	0	55	18826
2026-01-25 23:29:11.58	18.47	5.64	-41.7	-56.3	3.8	1.49e+00	0	56	104	0	55	18832
2026-01-25 23:29:12.59	18.49	5.71	-41.7	-56.3	3.8	1.49e+00	0	56	104	0	55	18820
2026-01-25 23:29:13.60	18.51	5.79	-41.7	-56.3	3.8	1.49e+00	0	56	104	0	55	18774
2026-01-25 23:29:14.61	18.53	5.86	-41.7	-56.3	3.8	1.49e+00	0	56	104	0	55	18852
2026-01-25 23:29:15.62	18.55	5.94	-41.7	-56.3	3.8	1.49e+00	0	56	104	0	55	18846
2026-01-25 23:29:16.63	18.57	6.01	-41.7	-56.3	3.8	1.49e+00	0	56	104	0	55	18809
2026-01-25 23:29:17.65	18.59	6.08	-41.7	-56.3	3.8	1.49e+00	0	56	104	0	55	18816
2026-01-25 23:29:18.66	18.61	6.16	-41.7	-56.3	3.8	1.49e+00	0	56	104	0	55	18854
2026-01-25 23:29:19.67	18.63	6.23	-41.7	-56.3	3.8	1.49e+00	0	56	104	0	55	18785
2026-01-25 23:29:20.68	18.65	6.31	-41.7	-56.3	3.8	1.49e+00	0	56	104	0	55	18850
2026-01-25 23:29:21.69	18.67	6.38	-41.7	-56.3	3.8	1.49e+00	0	56	104	0	55	18820
2026-01-25 23:29:22.70	18.69	6.46	-41.7	-56.3	3.8	1.49e+00	0	56	104	0	55	18842
2026-01-25 23:29:23.71	18.72	6.53	-41.7	-56.3	3.8	1.49e+00	0	56	104	0	55	18769
2026-01-25 23:29:24.72	18.74	6.61	-41.7	-56.2	3.8	1.49e+00	0	56	104	0	55	18723
2026-01-25 23:29:25.73	18.76	6.68	-41.7	-56.2	3.8	1.49e+00	0	56	104	0	55	18724
2026-01-25 23:29:26.74	18.78	6.76	-41.7	-56.3	3.8	1.49e+00	0	56	104	0	55	18755
2026-01-25 23:29:27.75	18.80	6.84	-41.7	-56.2	3.8	1.49e+00	0	56	104	0	55	18681
2026-01-25 23:29:28.76	18.82	6.91	-41.7	-56.2	3.8	1.49e+00	0	56	104	0	55	18612
2026-01-25 23:29:29.77	18.84	6.99	-41.7	-56.2	3.8	1.49e+00	0	57	104	0	55	18581
2026-01-25 23:29:30.78	18.86	7.07	-41.7	-56.2	3.8	1.49e+00	0	56	104	0	55	18566
2026-01-25 23:29:31.79	18.88	7.14	-41.7	-56.1	3.8	1.49e+00	0	56	104	0	55	18419
2026-01-25 23:29:32.80	18.91	7.22	-41.7	-56.1	3.8	1.49e+00	0	57	104	0	55	18393
2026-01-25 23:29:33.81	18.93	7.30	-41.7	-56.1	3.8	1.49e+00	0	57	104	0	55	18329
2026-01-25 23:29:34.82	18.95	7.38	-41.7	-56.0	3.8	1.49e+00	0	56	104	0	55	18174
2026-01-25 23:29:35.83	18.97	7.46	-41.7	-55.9	3.8	1.49e+00	0	57	104	0	55	18051
2026-01-25 23:29:36.84	18.99	7.53	-41.7	-55.9	3.8	1.49e+00	0	57	104	0	55	17935
2026-01-25 23:29:37.85	19.02	7.61	-41.7	-55.8	3.8	1.49e+00	0	57	104	0	55	17754
2026-01-25 23:29:38.86	19.04	7.69	-41.7	-55.6	3.8	1.49e+00	0	57	104	0	55	17423
2026-01-25 23:29:39.87	19.06	7.77	-41.7	-55.4	3.8	1.49e+00	0	57	104	0	55	17049
2026-01-25 23:29:40.88	19.08	7.85	-41.6	-55.1	3.8	1.49e+00	0	57	104	0	55	16431
2026-01-25 23:29:41.89	19.10	7.93	-41.6	-54.6	3.8	1.49e+00	0	57	104	0	55	15565
2026-01-25 23:29:42.90	19.13	8.01	-41.6	-54.0	3.8	1.49e+00	0	57	104	0	55	14469
2026-01-25 23:29:43.91	19.15	8.09	-42.1	-52.5	4.4	1.43e+00	0	57	0	0	55	12230
2026-01-25 23:29:44.92	19.17	8.17	-41.5	-55.9	3.8	1.48e+00	0	57	104	1048576	54	19020
2026-01-25 23:29:45.93	19.20	8.25	-41.8	-50.0	6.0	1.39e+00	0	57	104	1048576	54	9618
2026-01-25 23:29:46.94	19.22	8.33	-42.7	-51.3	5.6	1.94e-01	0	57	0	2097152	55	10600
2026-01-25 23:29:47.95	19.24	8.41	-41.6	-52.7	4.2	4.92e-01	0	57	0	4194304	54	13184
2026-01-25 23:29:48.96	19.26	8.49	-41.3	-47.0	8.9	4.04e-01	0	57	0	5242880	54	6878
2026-01-25 23:29:49.97	19.29	8.58	-41.4	-47.2	8.9	2.72e-02	0	57	0	7340032	54	6981
2026-01-25 23:29:50.98	19.31	8.66	-41.5	-47.3	8.8	3.36e-02	0	57	0	9437184	54	7102
2026-01-25 23:29:51.99	19.33	8.74	-41.7	-47.7	8.4	3.82e-02	0	57	0	11534336	54	7431
2026-01-25 23:29:53.00	19.36	8.82	-41.6	-47.6	8.6	5.37e-02	0	57	0	13631488	54	7301
2026-01-25 23:29:54.01	19.38	8.91	-41.5	-47.1	9.0	2.71e-02	0	57	0	14680064	54	6950
2026-01-25 23:29:55.02	19.41	8.99	-41.5	-47.3	9.0	2.80e-02	0	57	0	16777216	54	7057
2026-01-25 23:29:56.03	19.43	9.07	-41.6	-47.2	9.1	2.21e-02	0	58	0	18874368	54	7006
2026-01-25 23:29:57.04	19.45	9.15	-41.6	-47.3	9.0	2.25e-02	0	58	0	20971520	54	7083
2026-01-25 23:29:58.05	19.48	9.24	-41.5	-47.0	9.3	2.19e-02	0	58	0	23068672	54	6869
2026-01-25 23:29:59.06	19.50	9.32	-41.5	-46.8	9.6	1.33e-02	0	57	0	24117248	54	6653
2026-01-25 23:30:00.07	19.53	9.41	-41.5	-46.9	9.6	9.48e-03	0	58	0	26214400	54	6724
2026-01-25 23:30:01.08	19.55	9.49	-41.5	-46.6	9.9	8.55e-03	0	58	0	28311552	54	6550
2026-01-25 23:30:02.09	19.58	9.58	-41.4	-46.4	10.1	9.27e-03	0	58	0	30408704	54	6405
2026-01-25 23:30:03.10	19.60	9.66	-41.4	-46.3	10.2	5.47e-03	0	58	0	32505856	54	6328
2026-01-25 23:30:04.11	19.62	9.75	-41.4	-46.3	10.3	6.63e-03	0	58	0	33554432	54	6334
2026-01-25 23:30:05.12	19.65	9.83	-41.4	-46.1	10.6	3.09e-03	0	58	0	35651584	54	6186
2026-01-25 23:30:06.13	19.67	9.92	-41.3	-45.8	10.9	3.98e-03	0	58	0	37748736	54	5969
2026-01-25 23:30:07.14	19.70	10.01	-41.4	-46.0	10.7	2.72e-03	0	58	0	39845888	54	6110
2026-01-25 23:30:08.15	19.73	10.09	-41.2	-45.6	11.2	1.98e-03	0	58	0	41943040	54	5855
2026-01-25 23:30:09.16	19.75	10.18	-41.3	-45.8	11.0	1.30e-03	0	58	0	42991616	54	5964
2026-01-25 23:30:10.17	19.78	10.27	-41.2	-45.6	11.3	1.39e-03	0	58	0	45088768	54	5802
2026-01-25 23:30:11.18	19.80	10.35	-41.3	-45.6	11.3	1.50e-03	0	58	0	47185920	54	5819
2026-01-25 23:30:12.19	19.83	10.44	-41.3	-45.7	11.2	9.33e-04	0	58	0	49283072	54	5894
2026-01-25 23:30:13.20	19.85	10.53	-41.2	-45.6	11.4	1.13e-03	0	58	0	51380224	54	5797
2026-01-25 23:30:14.21	19.88	10.62	-41.3	-45.6	11.4	1.15e-03	0	58	0	52428800	54	5824
2026-01-25 23:30:15.22	19.91	10.71	-41.2	-45.4	11.7	6.25e-04	0	58	0	54525952	54	5677
2026-01-25 23:30:16.23	19.93	10.80	-41.3	-45.6	11.4	7.74e-04	0	58	0	56623104	54	5842
2026-01-25 23:30:17.24	19.96	10.89	-41.3	-45.5	11.6	7.28e-04	0	58	0	58720256	54	5765
2026-01-25 23:30:18.25	19.99	10.98	-41.2	-45.4	11.7	5.70e-04	0	58	0	60817408	54	5671
2026-01-25 23:30:19.26	20.01	11.07	-41.3	-45.4	11.8	6.38e-04	0	58	0	62914560	54	5657
2026-01-25 23:30:20.27	20.04	11.16	-41.3	-45.4	11.7	4.81e-04	0	58	0	63963136	54	5703
2026-01-25 23:30:21.28	20.07	11.25	-41.3	-45.4	11.8	5.48e-04	0	58	0	66060288	54	5702
2026-01-25 23:30:22.29	20.09	11.34	-41.3	-45.4	11.8	4.68e-04	0	58	0	68157440	54	5680
2026-01-25 23:30:23.30	20.12	11.43	-41.4	-45.5	11.7	5.69e-04	0	58	0	70254592	54	5771
2026-01-25 23:30:24.31	20.15	11.52	-41.4	-45.5	11.7	5.20e-04	0	58	0	72351744	54	5731
2026-01-25 23:30:25.32	20.18	11.62	-41.4	-45.5	11.8	4.02e-04	0	59	0	73400320	54	5743
2026-01-25 23:30:26.33	20.20	11.71	-41.2	-45.2	12.1	4.39e-04	0	58	0	75497472	54	5555
2026-01-25 23:30:27.34	20.23	11.80	-41.3	-45.2	12.1	2.71e-04	0	58	0	77594624	54	5543
2026-01-25 23:30:28.35	20.26	11.89	-41.2	-45.1	12.2	2.95e-04	0	58	0	79691776	54	5477
2026-01-25 23:30:29.36	20.29	11.99	-41.3	-45.2	12.2	2.22e-04	0	58	0	81788928	54	5529
2026-01-25 23:30:30.37	20.32	12.08	-41.3	-45.3	12.0	2.94e-04	0	58	0	82837504	54	5627
2026-01-25 23:30:31.38	20.34	12.18	-41.3	-45.2	12.2	2.05e-04	0	58	0	84934656	54	5540
2026-01-25 23:30:32.39	20.37	12.27	-41.1	-44.9	12.4	1.54e-04	0	58	0	87031808	54	5381
2026-01-25 23:30:33.40	20.40	12.37	-41.2	-45.0	12.5	1.46e-04	0	59	0	89128960	54	5409
2026-01-25 23:30:34.41	20.43	12.46	-41.1	-44.8	12.6	1.46e-04	0	59	0	91226112	54	5339
2026-01-25 23:30:35.42	20.46	12.56	-41.1	-44.8	12.6	9.15e-05	0	58	0	92274688	54	5324
2026-01-25 23:30:36.43	20.49	12.65	-41.1	-44.9	12.5	1.23e-04	0	59	0	94371840	54	5351
2026-01-25 23:30:37.44	20.52	12.75	-41.1	-44.8	12.7	9.07e-05	0	59	0	96468992	54	5293
2026-01-25 23:30:38.45	20.55	12.85	-41.1	-44.8	12.7	1.02e-04	0	59	0	98566144	54	5302
2026-01-25 23:30:39.46	20.58	12.94	-41.1	-44.8	12.6	7.17e-05	0	59	0	100663296	54	5331
2026-01-25 23:30:40.47	20.61	13.04	-41.2	-44.9	12.6	8.54e-05	0	59	0	101711872	54	5354
2026-01-25 23:30:41.48	20.64	13.14	-41.1	-44.8	12.6	1.08e-04	0	59	0	103809024	54	5317
2026-01-25 23:30:42.49	20.67	13.24	-41.3	-45.1	12.4	1.02e-04	0	59	0	105906176	54	5475
2026-01-25 23:30:43.50	20.70	13.34	-41.2	-45.0	12.5	9.68e-05	0	59	0	108003328	54	5416
2026-01-25 23:30:44.51	20.73	13.44	-41.2	-45.0	12.5	1.21e-04	0	59	0	110100480	54	5405
2026-01-25 23:30:45.52	20.76	13.54	-41.3	-45.1	12.4	1.40e-04	0	59	0	111149056	54	5503
2026-01-25 23:30:46.53	20.79	13.64	-41.2	-44.9	12.6	1.18e-04	0	59	0	113246208	54	5391
2026-01-25 23:30:47.54	20.82	13.74	-41.2	-44.9	12.5	7.85e-05	0	59	0	115343360	54	5386
2026-01-25 23:30:48.55	20.85	13.84	-41.1	-44.7	12.8	8.08e-05	0	59	0	117440512	54	5270
2026-01-25 23:30:49.56	20.89	13.94	-41.2	-44.9	12.7	1.02e-04	0	59	0	119537664	54	5342
2026-01-25 23:30:50.57	20.92	14.04	-41.2	-44.8	12.7	1.04e-04	0	59	0	120586240	54	5305
2026-01-25 23:30:51.58	20.95	14.14	-41.2	-44.9	12.7	6.17e-05	0	59	0	122683392	54	5360
2026-01-25 23:30:52.59	20.98	14.24	-41.3	-45.0	12.6	1.12e-04	0	59	0	124780544	54	5413
2026-01-25 23:30:53.60	21.01	14.35	-41.2	-44.8	12.8	7.93e-05	0	59	0	126877696	54	5294
2026-01-25 23:30:54.61	21.05	14.45	-41.2	-44.9	12.7	7.40e-05	0	59	0	128974848	54	5345
2026-01-25 23:30:55.62	21.08	14.56	-41.2	-44.9	12.6	6.25e-05	0	59	0	131072000	54	5387
2026-01-25 23:30:56.63	21.11	14.66	-41.2	-44.9	12.7	6.56e-05	0	59	0	132120576	54	5348
2026-01-25 23:30:57.64	21.14	14.76	-41.3	-45.0	12.6	7.62e-05	0	59	0	134217728	54	5407
2026-01-25 23:30:58.65	21.18	14.87	-41.2	-44.8	12.8	1.09e-04	0	59	0	136314880	54	5319
2026-01-25 23:30:59.66	21.21	14.98	-41.3	-45.0	12.6	7.70e-05	0	59	0	138412032	54	5414
2026-01-25 23:31:00.67	21.25	15.08	-41.3	-44.9	12.7	8.46e-05	0	59	0	140509184	54	5386
2026-01-25 23:31:01.68	21.28	15.19	-41.3	-44.9	12.7	1.06e-04	0	59	0	141557760	54	5375
2026-01-25 23:31:02.69	21.31	15.29	-41.3	-45.0	12.7	7.78e-05	0	59	0	143654912	54	5428
2026-01-25 23:31:03.70	21.35	15.40	-41.3	-44.9	12.8	7.78e-05	0	59	0	145752064	54	5353
2026-01-25 23:31:04.70	21.38	15.51	-41.4	-45.0	12.6	7.40e-05	0	59	0	147849216	54	5462
2026-01-25 23:31:05.71	21.42	15.62	-41.3	-44.9	12.8	6.48e-05	0	59	0	149946368	54	5377
2026-01-25 23:31:06.72	21.45	15.73	-41.3	-44.9	12.8	5.11e-05	0	59	0	150994944	54	5375
2026-01-25 23:31:07.73	21.49	15.84	-41.3	-44.9	12.8	6.94e-05	0	59	0	153092096	54	5353
2026-01-25 23:31:08.75	21.52	15.95	-41.3	-44.9	12.8	6.71e-05	0	59	0	155189248	54	5358
2026-01-25 23:31:09.76	21.56	16.06	-41.2	-44.8	12.9	5.49e-05	0	59	0	157286400	54	5298
2026-01-25 23:31:10.77	21.59	16.17	-41.4	-45.0	12.7	5.64e-05	0	59	0	159383552	54	5462
2026-01-25 23:31:11.78	21.63	16.28	-41.2	-44.7	13.0	4.11e-05	0	59	0	160432128	54	5269
2026-01-25 23:31:12.79	21.67	16.39	-41.3	-44.9	12.8	5.11e-05	0	59	0	162529280	54	5391
2026-01-25 23:31:13.80	21.70	16.50	-41.2	-44.7	13.0	4.34e-05	0	59	0	164626432	54	5269
2026-01-25 23:31:14.81	21.74	16.62	-41.4	-45.0	12.7	5.72e-05	0	59	0	166723584	54	5444
2026-01-25 23:31:15.82	21.78	16.73	-41.3	-44.8	13.0	3.66e-05	0	59	0	168820736	54	5317
2026-01-25 23:31:16.83	21.82	16.84	-41.4	-44.9	12.8	4.42e-05	0	59	0	169869312	54	5400
2026-01-25 23:31:17.84	21.85	16.96	-41.4	-45.1	12.7	7.78e-05	0	59	0	171966464	54	5515
2026-01-25 23:31:18.85	21.89	17.07	-41.4	-45.1	12.7	7.17e-05	0	59	0	174063616	54	5503
2026-01-25 23:31:19.86	21.93	17.19	-41.5	-45.2	12.6	9.00e-05	0	59	0	176160768	54	5540
2026-01-25 23:31:20.87	21.97	17.31	-41.4	-45.1	12.7	8.77e-05	0	59	0	178257920	54	5491
2026-01-25 23:31:21.88	22.01	17.42	-41.5	-45.2	12.6	1.02e-04	0	60	0	179306496	54	5556
2026-01-25 23:31:22.89	22.04	17.54	-41.5	-45.3	12.5	8.85e-05	0	60	0	181403648	54	5606
2026-01-25 23:31:23.89	22.08	17.66	-41.6	-45.4	12.4	1.26e-04	0	59	0	183500800	54	5677
2026-01-25 23:31:24.90	22.12	17.77	-41.5	-45.3	12.5	1.46e-04	0	59	0	185597952	54	5632
2026-01-25 23:31:25.92	22.16	17.89	-41.6	-45.5	12.3	1.89e-04	0	59	0	187695104	54	5744
2026-01-25 23:31:26.93	22.20	18.01	-41.6	-45.4	12.4	1.85e-04	0	59	0	188743680	54	5681
2026-01-25 23:31:27.94	22.24	18.13	-41.7	-45.6	12.2	2.07e-04	0	59	0	190840832	54	5790
2026-01-25 23:31:28.94	22.28	18.25	-41.6	-45.4	12.4	1.81e-04	0	59	0	192937984	54	5721
2026-01-25 23:31:29.95	22.33	18.37	-41.8	-45.7	12.2	1.51e-04	0	59	0	195035136	54	5869
2026-01-25 23:31:30.96	22.37	18.50	-41.7	-45.6	12.2	1.88e-04	0	60	0	197132288	54	5822
2026-01-25 23:31:31.98	22.41	18.62	-41.7	-45.6	12.2	1.91e-04	0	60	0	199229440	54	5808
2026-01-25 23:31:32.99	22.45	18.74	-41.7	-45.6	12.2	2.01e-04	0	60	0	200278016	54	5822
2026-01-25 23:31:34.00	22.49	18.87	-41.7	-45.5	12.3	2.14e-04	0	60	0	202375168	54	5777
2026-01-25 23:31:35.01	22.53	18.99	-41.7	-45.6	12.1	2.37e-04	0	60	0	204472320	54	5847
2026-01-25 23:31:36.01	22.58	19.11	-41.7	-45.6	12.2	1.88e-04	0	60	0	206569472	54	5816
2026-01-25 23:31:37.03	22.62	19.24	-41.8	-45.8	12.1	2.58e-04	0	60	0	208666624	54	5946
2026-01-25 23:31:38.04	22.66	19.37	-41.8	-45.7	12.2	2.91e-04	0	60	0	209715200	54	5905
2026-01-25 23:31:39.05	22.71	19.49	-41.9	-46.0	11.9	3.32e-04	0	60	0	211812352	54	6077
2026-01-25 23:31:40.05	22.75	19.62	-41.9	-45.9	12.0	3.62e-04	0	60	0	213909504	54	5999
2026-01-25 23:31:41.06	22.80	19.75	-42.0	-46.0	11.8	4.13e-04	0	60	0	216006656	54	6125
2026-01-25 23:31:42.07	22.84	19.88	-42.0	-46.1	11.8	6.08e-04	0	60	0	218103808	54	6167
2026-01-25 23:31:43.08	22.89	20.00	-42.1	-46.3	11.7	6.11e-04	0	60	0	219152384	54	6302
2026-01-25 23:31:44.09	22.93	20.13	-42.0	-46.2	11.7	6.42e-04	0	60	0	221249536	54	6218
2026-01-25 23:31:45.10	22.98	20.26	-42.1	-46.3	11.5	6.84e-04	0	60	0	223346688	54	6339
2026-01-25 23:31:46.11	23.02	20.40	-42.1	-46.4	11.5	7.67e-04	0	60	0	225443840	54	6384
2026-01-25 23:31:47.12	23.07	20.53	-42.1	-46.2	11.7	7.96e-04	0	60	0	227540992	54	6256
2026-01-25 23:31:48.12	23.12	20.66	-42.2	-46.4	11.5	6.05e-04	0	60	0	228589568	54	6386
2026-01-25 23:31:49.13	23.16	20.79	-42.1	-46.3	11.7	6.44e-04	0	60	0	230686720	54	6295
2026-01-25 23:31:50.14	23.21	20.93	-42.0	-46.0	12.0	4.10e-04	0	60	0	232783872	54	6089
2026-01-25 23:31:51.15	23.26	21.06	-42.0	-46.1	11.9	2.79e-04	0	60	0	234881024	54	6139
2026-01-25 23:31:52.16	23.31	21.20	-41.9	-45.8	12.1	2.59e-04	0	60	0	236978176	54	5952
2026-01-25 23:31:53.17	23.35	21.33	-41.9	-45.9	12.1	2.97e-04	0	60	0	238026752	54	6028
2026-01-25 23:31:54.18	23.40	21.47	-41.9	-45.9	12.1	2.55e-04	0	60	0	240123904	54	5998
2026-01-25 23:31:55.19	23.45	21.61	-41.9	-45.8	12.2	2.17e-04	0	60	0	242221056	54	5960
2026-01-25 23:31:56.20	23.50	21.75	-41.9	-45.7	12.2	2.08e-04	0	60	0	244318208	54	5923
2026-01-25 23:31:57.21	23.55	21.88	-41.9	-45.7	12.3	1.46e-04	0	60	0	246415360	54	5886
2026-01-25 23:31:58.22	23.60	22.02	-41.8	-45.5	12.6	1.65e-04	0	60	0	247463936	54	5733
2026-01-25 23:31:59.22	23.66	22.16	-41.8	-45.6	12.4	1.17e-04	0	60	0	249561088	54	5801
2026-01-25 23:32:00.22	23.71	22.30	-41.6	-45.2	12.8	1.45e-04	0	60	0	251658240	54	5589
2026-01-25 23:32:01.23	23.76	22.45	-41.8	-45.6	12.5	1.13e-04	0	60	0	253755392	54	5794
2026-01-25 23:32:02.24	23.81	22.59	-41.9	-45.7	12.2	1.70e-04	0	60	0	255852544	54	5891
2026-01-25 23:32:03.25	23.86	22.73	-41.7	-45.4	12.6	1.01e-04	0	60	0	256901120	54	5680
2026-01-25 23:32:04.26	23.92	22.88	-41.7	-45.4	12.6	8.01e-05	0	60	0	258998272	54	5713
2026-01-25 23:32:05.27	23.97	23.02	-41.6	-45.2	12.9	6.79e-05	0	60	0	261095424	54	5557
2026-01-25 23:32:06.29	24.03	23.17	-41.7	-45.3	12.8	5.87e-05	0	60	0	263192576	54	5648
2026-01-25 23:32:07.29	24.08	23.31	-41.6	-45.2	12.9	5.41e-05	0	60	0	265289728	54	5534
2026-01-25 23:32:08.30	24.14	23.46	-41.7	-45.4	12.7	4.80e-05	0	60	0	267386880	54	5664
2026-01-25 23:32:09.31	24.19	23.61	-41.7	-45.4	12.7	7.09e-05	0	60	0	268435456	54	5671
2026-01-25 23:32:10.33	24.25	23.76	-41.7	-45.2	12.8	7.62e-05	0	60	0	270532608	54	5591
2026-01-25 23:32:11.33	24.30	23.91	-41.8	-45.4	12.6	8.62e-05	0	60	0	272629760	54	5721
2026-01-25 23:32:12.34	24.36	24.06	-41.8	-45.5	12.5	8.92e-05	0	60	0	274726912	54	5762
2026-01-25 23:32:13.35	24.42	24.21	-41.8	-45.5	12.6	1.16e-04	0	60	0	275775488	54	5762
2026-01-25 23:32:14.36	24.48	24.37	-41.8	-45.6	12.5	1.24e-04	0	60	0	277872640	54	5818
2026-01-25 23:32:15.37	24.54	24.52	-41.9	-45.7	12.4	1.87e-04	0	60	0	279969792	54	5874
2026-01-25 23:32:16.38	24.60	24.67	-41.9	-45.7	12.3	1.65e-04	0	60	0	282066944	54	5883
2026-01-25 23:32:17.39	24.66	24.83	-41.9	-45.7	12.4	1.91e-04	0	60	0	284164096	54	5875
2026-01-25 23:32:18.40	24.72	24.98	-41.9	-45.6	12.4	1.35e-04	0	60	0	285212672	54	5853
2026-01-25 23:32:19.40	24.78	25.14	-41.9	-45.7	12.4	2.25e-04	0	60	0	287309824	54	5858
2026-01-25 23:32:20.41	24.84	25.30	-41.8	-45.5	12.6	1.58e-04	0	60	0	289406976	54	5764
2026-01-25 23:32:21.42	24.90	25.46	-41.9	-45.7	12.4	7.70e-05	0	60	0	291504128	54	5897
2026-01-25 23:32:22.43	24.96	25.62	-41.8	-45.6	12.5	1.17e-04	0	60	0	293601280	54	5792
2026-01-25 23:32:23.44	25.03	25.78	-41.8	-45.5	12.6	9.07e-05	0	60	0	295698432	54	5785
2026-01-25 23:32:24.45	25.09	25.94	-41.9	-45.7	12.5	1.46e-04	0	60	0	296747008	54	5858
2026-01-25 23:32:25.46	25.15	26.10	-41.8	-45.5	12.6	8.92e-05	0	60	0	298844160	54	5781
2026-01-25 23:32:26.47	25.22	26.27	-41.8	-45.5	12.7	8.62e-05	0	60	0	300941312	54	5727
2026-01-25 23:32:27.48	25.29	26.43	-41.7	-45.4	12.7	1.31e-04	0	60	0	303038464	54	5679
2026-01-25 23:32:28.49	25.35	26.60	-41.7	-45.3	12.8	6.56e-05	0	60	0	305135616	54	5634
2026-01-25 23:32:29.50	25.42	26.76	-41.6	-45.2	13.0	3.43e-05	0	60	0	306184192	54	5530
2026-01-25 23:32:30.51	25.49	26.93	-41.7	-45.2	12.9	3.89e-05	0	60	0	308281344	54	5579
2026-01-25 23:32:31.52	25.55	27.10	-41.5	-44.9	13.1	2.28e-05	0	60	0	310378496	54	5402
2026-01-25 23:32:32.53	25.62	27.27	-41.4	-44.7	13.5	1.52e-05	0	60	0	312475648	54	5241
2026-01-25 23:32:33.54	25.69	27.44	-41.3	-44.5	13.7	1.37e-05	0	60	0	314572800	54	5103
2026-01-25 23:32:34.55	25.76	27.61	-41.2	-44.4	13.8	9.10e-06	0	60	0	315621376	54	5052
2026-01-25 23:32:35.56	25.84	27.78	-41.2	-44.3	13.9	3.80e-06	0	60	0	317718528	54	5017
2026-01-25 23:32:36.57	25.91	27.96	-41.2	-44.4	13.8	4.50e-06	0	60	0	319815680	54	5068
2026-01-25 23:32:37.58	25.98	28.13	-41.1	-44.1	14.1	2.20e-06	0	60	0	321912832	54	4924
2026-01-25 23:32:38.59	26.05	28.31	-41.2	-44.4	13.8	0.00e+00	0	60	0	324009984	54	5070
2026-01-25 23:32:39.60	26.13	28.49	-41.2	-44.4	13.8	3.80e-06	0	60	0	325058560	54	5099
2026-01-25 23:32:40.61	26.20	28.66	-41.3	-44.5	13.7	6.80e-06	0	60	0	327155712	54	5151
2026-01-25 23:32:41.62	26.28	28.84	-41.4	-44.7	13.5	1.14e-05	0	60	0	329252864	54	5246
2026-01-25 23:32:42.63	26.36	29.02	-41.4	-44.7	13.4	1.22e-05	0	60	0	331350016	54	5268
2026-01-25 23:32:43.64	26.43	29.20	-41.4	-44.7	13.5	1.14e-05	0	60	0	333447168	54	5257
2026-01-25 23:32:44.65	26.51	29.39	-41.6	-45.0	13.2	1.83e-05	0	60	0	334495744	54	5417
2026-01-25 23:32:45.66	26.59	29.57	-41.7	-45.2	13.0	1.52e-05	0	60	0	336592896	54	5549
2026-01-25 23:32:46.67	26.67	29.76	-41.8	-45.5	12.7	7.47e-05	0	60	0	338690048	54	5779
2026-01-25 23:32:47.68	26.75	29.94	-42.0	-45.9	12.3	1.33e-04	0	60	0	340787200	54	6003
2026-01-25 23:32:48.69	26.83	30.13	-42.2	-46.3	11.8	4.14e-04	0	61	0	342884352	55	5983
2026-01-25 23:32:49.70	26.92	30.32	-42.3	-46.4	11.7	6.74e-04	0	60	0	344981504	55	6032
2026-01-25 23:32:50.71	27.00	30.51	-42.7	-47.3	10.9	7.25e-04	0	60	0	346030080	55	6686
2026-01-25 23:32:51.72	27.08	30.70	-42.6	-47.1	11.0	1.94e-03	0	61	0	348127232	55	6555
2026-01-25 23:32:52.73	27.17	30.89	-42.7	-47.4	10.7	2.31e-03	0	60	0	350224384	55	6750
2026-01-25 23:32:53.74	27.26	31.08	-43.1	-48.0	10.3	3.69e-03	0	60	0	352321536	56	6828
2026-01-25 23:32:54.75	27.34	31.28	-42.9	-47.5	10.8	2.34e-03	0	60	0	353370112	56	6461
2026-01-25 23:32:55.76	27.43	31.47	-42.9	-47.5	10.8	2.98e-03	0	61	0	355467264	56	6422
2026-01-25 23:32:56.77	27.52	31.67	-42.9	-47.5	10.8	3.39e-03	0	60	0	357564416	56	6441
2026-01-25 23:32:57.78	27.61	31.87	-42.9	-47.6	10.7	2.92e-03	0	61	0	359661568	56	6508
2026-01-25 23:32:58.79	27.70	32.07	-43.1	-48.0	10.3	3.95e-03	0	60	0	361758720	56	6818
2026-01-25 23:32:59.80	27.80	32.27	-43.1	-48.1	10.2	5.14e-03	0	61	0	363855872	56	6946
2026-01-25 23:33:00.81	27.89	32.47	-43.1	-48.1	10.3	7.77e-03	0	61	0	364904448	57	6519
2026-01-25 23:33:01.82	27.98	32.67	-43.0	-47.9	10.4	6.92e-03	0	61	0	367001600	57	6402
2026-01-25 23:33:02.83	28.08	32.88	-43.2	-48.3	9.9	3.64e-03	0	61	0	369098752	57	6712
2026-01-25 23:33:03.84	28.18	33.08	-43.1	-48.1	10.2	5.44e-03	0	60	0	371195904	57	6507
2026-01-25 23:33:04.85	28.28	33.29	-43.1	-48.1	10.2	4.17e-03	0	60	0	373293056	57	6496
2026-01-25 23:33:05.86	28.38	33.50	-43.1	-48.1	10.2	5.69e-03	0	60	0	374341632	57	6506
2026-01-25 23:33:06.87	28.48	33.71	-43.0	-47.9	10.4	6.50e-03	0	60	0	376438784	57	6403
2026-01-25 23:33:07.88	28.58	33.92	-43.1	-48.1	10.2	4.37e-03	0	61	0	378535936	57	6523
2026-01-25 23:33:08.90	28.68	34.13	-43.0	-47.8	10.6	5.68e-03	0	61	0	380633088	57	6318
2026-01-25 23:33:09.91	28.79	34.35	-43.1	-48.0	10.4	3.71e-03	0	61	0	382730240	57	6452
2026-01-25 23:33:10.92	28.89	34.56	-43.0	-47.7	10.6	2.76e-03	0	61	0	383778816	57	6260
2026-01-25 23:33:11.93	29.00	34.78	-42.8	-47.4	10.9	2.39e-03	0	61	0	385875968	57	6025
2026-01-25 23:33:12.94	29.11	35.00	-43.0	-47.6	10.6	1.89e-03	0	61	0	387973120	57	6199
2026-01-25 23:33:13.95	29.22	35.22	-43.0	-47.7	10.7	2.09e-03	0	61	0	390070272	57	6233
2026-01-25 23:33:14.96	29.33	35.44	-42.9	-47.4	10.9	2.44e-03	0	61	0	392167424	57	6002
2026-01-25 23:33:15.97	29.45	35.66	-42.8	-47.2	11.1	3.87e-03	0	61	0	393216000	57	5906
2026-01-25 23:33:16.98	29.56	35.89	-43.0	-47.7	10.7	2.58e-03	0	61	0	395313152	57	6212
2026-01-25 23:33:17.99	29.68	36.11	-43.0	-47.7	10.6	5.41e-03	0	61	0	397410304	57	6228
2026-01-25 23:33:19.00	29.79	36.34	-43.0	-47.6	10.8	2.87e-03	0	61	0	399507456	57	6144
2026-01-25 23:33:20.01	29.91	36.57	-43.0	-47.7	10.7	2.82e-03	0	61	0	401604608	57	6218
2026-01-25 23:33:21.02	30.04	36.80	-43.1	-47.9	10.5	5.50e-03	0	61	0	403701760	57	6361
2026-01-25 23:33:22.03	30.16	37.03	-43.1	-48.0	10.3	4.43e-03	0	61	0	404750336	57	6438
2026-01-25 23:33:23.04	30.28	37.26	-43.2	-48.3	10.0	4.46e-03	0	61	0	406847488	57	6665
2026-01-25 23:33:24.05	30.41	37.50	-43.3	-48.4	9.9	6.79e-03	0	61	0	408944640	57	6761
2026-01-25 23:33:25.05	30.54	37.73	-43.4	-48.7	9.6	1.12e-02	0	61	0	411041792	57	7019
2026-01-25 23:33:26.06	30.66	37.97	-43.4	-48.8	9.5	2.21e-02	0	61	0	413138944	57	7065
2026-01-25 23:33:27.07	30.80	38.20	-43.6	-49.3	9.0	2.89e-02	0	61	0	414187520	57	7507
2026-01-25 23:33:28.08	30.93	38.45	-43.4	-48.8	9.5	2.66e-02	0	60	0	416284672	57	7043
2026-01-25 23:33:29.09	31.07	38.69	-43.5	-48.9	9.4	1.51e-02	0	61	0	418381824	57	7178
2026-01-25 23:33:30.10	31.20	38.93	-43.4	-48.7	9.7	1.76e-02	0	61	0	420478976	57	7036
2026-01-25 23:33:31.11	31.34	39.18	-43.2	-48.2	10.1	1.03e-02	0	61	0	422576128	57	6638
2026-01-25 23:33:32.12	31.48	39.42	-43.4	-48.6	9.7	9.98e-03	0	61	0	423624704	57	6940
2026-01-25 23:33:33.13	31.63	39.67	-43.6	-49.4	8.9	2.01e-02	0	61	0	425721856	57	7625
2026-01-25 23:33:34.14	31.77	39.92	-43.6	-49.4	9.0	2.31e-02	0	61	0	427819008	57	7563
2026-01-25 23:33:35.15	31.92	40.17	-43.6	-49.4	8.9	2.59e-02	0	61	0	429916160	57	7557
2026-01-25 23:33:36.16	32.07	40.43	-43.9	-50.3	8.0	4.17e-02	0	61	0	432013312	58	7927
2026-01-25 23:33:37.17	32.22	40.68	-43.8	-50.0	8.3	5.56e-02	0	60	0	433061888	58	7677
2026-01-25 23:33:38.18	32.38	40.94	-43.8	-49.8	8.5	4.82e-02	0	61	0	435159040	58	7538
2026-01-25 23:33:39.19	32.53	41.19	-43.7	-49.7	8.5	4.49e-02	0	61	0	437256192	58	7442
2026-01-25 23:33:40.20	32.69	41.45	-43.6	-49.4	8.8	2.59e-02	0	61	0	439353344	58	7179
2026-01-25 23:33:41.21	32.86	41.72	-43.6	-49.2	9.0	1.89e-02	0	61	0	441450496	58	7021
2026-01-25 23:33:42.22	33.02	41.98	-43.4	-48.7	9.6	1.61e-02	0	61	0	442499072	58	6624
2026-01-25 23:33:43.23	33.19	42.24	-43.5	-49.1	9.4	1.61e-02	0	61	0	444596224	58	6884
2026-01-25 23:33:44.24	33.36	42.51	-43.5	-49.0	9.3	2.22e-02	0	61	0	446693376	58	6825
2026-01-25 23:33:45.25	33.53	42.78	-43.6	-49.4	8.9	3.04e-02	0	61	0	448790528	58	7198
2026-01-25 23:33:46.25	33.71	43.04	-43.6	-49.4	9.0	2.71e-02	0	61	0	450887680	58	7153
2026-01-25 23:33:47.26	33.89	43.31	-43.4	-48.8	9.5	2.29e-02	0	61	0	451936256	58	6672
2026-01-25 23:33:48.28	34.07	43.59	-43.2	-48.2	10.3	7.54e-03	0	61	0	454033408	58	6203
2026-01-25 23:33:49.28	34.25	43.86	-43.0	-47.6	10.8	5.87e-03	0	61	0	456130560	58	5848
2026-01-25 23:33:50.30	34.44	44.14	-42.8	-47.2	11.3	3.84e-03	0	61	0	458227712	57	5890
2026-01-25 23:33:51.31	34.63	44.42	-42.7	-46.9	11.6	6.17e-04	0	61	0	460324864	57	5677
2026-01-25 23:33:52.32	34.83	44.70	-42.7	-46.9	11.5	5.20e-04	0	61	0	461373440	57	5676
2026-01-25 23:33:53.33	35.03	44.98	-42.7	-46.9	11.5	6.38e-04	0	61	0	463470592	57	5687
2026-01-25 23:33:54.33	35.22	45.26	-42.3	-46.1	12.3	3.10e-04	0	61	0	465567744	56	5516
2026-01-25 23:33:55.34	35.43	45.54	-42.4	-46.3	12.2	1.91e-04	0	61	0	467664896	56	5610
2026-01-25 23:33:56.36	35.64	45.83	-42.2	-45.9	12.6	1.69e-04	0	61	0	469762048	56	5384
2026-01-25 23:33:57.37	35.85	46.12	-42.5	-46.4	12.0	3.26e-04	0	61	0	471859200	56	5692
2026-01-25 23:33:58.38	36.07	46.41	-42.5	-46.5	12.0	5.08e-04	0	61	0	472907776	56	5749
2026-01-25 23:33:59.39	36.29	46.70	-42.6	-46.8	11.7	4.08e-04	0	61	0	475004928	56	5933
2026-01-25 23:34:00.39	36.51	46.99	-42.8	-47.1	11.3	5.66e-04	0	61	0	477102080	56	6182
2026-01-25 23:34:01.40	36.74	47.28	-43.0	-47.6	10.8	2.35e-03	0	61	0	479199232	56	6540
2026-01-25 23:34:02.41	36.97	47.58	-43.1	-47.8	10.7	3.28e-03	0	61	0	481296384	56	6682
2026-01-25 23:34:03.42	37.21	47.87	-43.4	-48.6	9.8	8.93e-03	0	61	0	482344960	57	6883
2026-01-25 23:34:04.43	37.45	48.17	-43.5	-48.9	9.4	1.48e-02	0	61	0	484442112	57	7180
2026-01-25 23:34:05.44	37.70	48.47	-43.4	-48.6	9.9	9.05e-03	0	61	0	486539264	57	6888
2026-01-25 23:34:06.45	37.95	48.77	-43.1	-47.9	10.5	9.18e-03	0	61	0	488636416	57	6348
2026-01-25 23:34:07.46	38.20	49.08	-42.5	-46.5	11.9	5.03e-04	0	61	0	490733568	56	5759
2026-01-25 23:34:08.47	38.46	49.38	-42.2	-45.9	12.6	1.83e-04	0	61	0	491782144	56	5357
2026-01-25 23:34:09.48	38.73	49.69	-42.2	-46.0	12.6	1.09e-04	0	61	0	493879296	56	5408
2026-01-25 23:34:10.49	39.00	49.99	-42.0	-45.5	13.0	4.11e-05	0	61	0	495976448	56	5137
2026-01-25 23:34:11.51	39.28	50.31	-41.9	-45.4	13.0	1.90e-05	0	61	0	498073600	55	5366
2026-01-25 23:34:12.52	39.56	50.62	-41.9	-45.4	12.9	4.88e-05	0	61	0	500170752	55	5365
2026-01-25 23:34:13.53	39.85	50.93	-42.1	-45.8	12.5	6.94e-05	0	61	0	501219328	55	5619
2026-01-25 23:34:14.54	40.15	51.24	-42.2	-46.0	12.3	1.63e-04	0	61	0	503316480	55	5768
2026-01-25 23:34:15.55	40.45	51.56	-42.0	-45.6	12.7	1.25e-04	0	61	0	505413632	55	5502
2026-01-25 23:34:16.56	40.75	51.87	-42.2	-46.1	12.2	1.46e-04	0	61	0	507510784	55	5800
2026-01-25 23:34:17.57	41.07	52.19	-42.0	-45.7	12.6	1.11e-04	0	61	0	509607936	55	5588
2026-01-25 23:34:18.58	41.39	52.51	-41.7	-45.0	13.4	4.80e-05	0	61	0	510656512	55	5152
2026-01-25 23:34:19.59	41.71	52.83	-41.6	-44.8	13.6	1.98e-05	0	61	0	512753664	55	5021
2026-01-25 23:34:20.60	42.05	53.15	-41.4	-44.5	13.9	3.00e-06	0	61	0	514850816	54	5124
2026-01-25 23:34:21.61	42.39	53.47	-41.1	-44.1	14.4	3.00e-06	0	61	0	516947968	54	4879
2026-01-25 23:34:22.62	42.74	53.79	-41.3	-44.5	14.0	1.50e-06	0	61	0	519045120	54	5110
2026-01-25 23:34:23.63	43.09	54.11	-41.1	-44.0	14.4	1.50e-06	0	61	0	520093696	54	4855
2026-01-25 23:34:24.64	43.46	54.44	-41.0	-43.8	14.6	7.00e-07	0	61	0	522190848	54	4742
2026-01-25 23:34:25.65	43.83	54.76	-40.8	-43.6	14.8	0.00e+00	0	61	0	524288000	53	4923
2026-01-25 23:34:26.66	44.21	55.09	-40.7	-43.4	15.0	0.00e+00	0	61	0	526385152	53	4782
2026-01-25 23:34:27.67	44.60	55.42	-40.4	-42.9	15.6	0.00e+00	0	61	0	528482304	52	4763
2026-01-25 23:34:28.68	45.00	55.74	-40.2	-42.6	15.8	0.00e+00	0	61	0	529530880	52	4618
2026-01-25 23:34:29.69	45.41	56.07	-40.1	-42.6	15.8	0.00e+00	0	61	0	531628032	52	4601
2026-01-25 23:34:30.71	45.84	56.40	-40.4	-43.0	15.4	0.00e+00	0	61	0	533725184	52	4825
2026-01-25 23:34:31.72	46.26	56.73	-40.3	-42.8	15.6	0.00e+00	0	61	0	535822336	52	4738
2026-01-25 23:34:32.73	46.70	57.06	-40.2	-42.7	15.7	0.00e+00	0	61	0	537919488	52	4666
2026-01-25 23:34:33.74	47.15	57.39	-40.0	-42.3	16.0	0.00e+00	0	61	0	540016640	52	4476
2026-01-25 23:34:34.75	47.61	57.72	-40.2	-42.6	15.9	0.00e+00	0	61	0	541065216	51	4905
2026-01-25 23:34:35.76	48.09	58.05	-40.4	-42.9	15.6	0.00e+00	0	61	0	543162368	51	5067
2026-01-25 23:34:36.77	48.57	58.38	-40.5	-43.0	15.5	0.00e+00	0	61	0	545259520	51	5146
2026-01-25 23:34:37.78	49.07	58.72	-40.4	-42.9	15.5	0.00e+00	0	61	0	547356672	51	5070
2026-01-25 23:34:38.79	49.57	59.05	-40.4	-42.8	15.7	0.00e+00	0	61	0	549453824	51	5023
2026-01-25 23:34:39.80	50.09	59.38	-40.4	-42.9	15.6	0.00e+00	0	61	0	550502400	51	5088
2026-01-25 23:34:40.81	50.63	59.70	-40.8	-43.5	14.9	0.00e+00	0	61	0	552599552	52	5108
2026-01-25 23:34:41.82	51.18	60.03	-41.4	-44.5	13.9	0.00e+00	0	61	0	554696704	53	5421
2026-01-25 23:34:42.83	51.74	60.36	-41.5	-44.7	13.7	5.30e-06	0	61	0	556793856	53	5532
2026-01-25 23:34:43.84	52.31	60.69	-41.6	-44.9	13.4	1.44e-05	0	61	0	558891008	53	5713
2026-01-25 23:34:44.85	52.91	61.02	-41.7	-45.0	13.5	2.13e-05	0	61	0	559939584	54	5405
2026-01-25 23:34:45.86	53.51	61.34	-41.7	-45.1	13.3	1.60e-05	0	61	0	562036736	54	5496
2026-01-25 23:34:46.87	54.14	61.67	-41.7	-45.1	13.3	2.59e-05	0	61	0	564133888	54	5498
2026-01-25 23:34:47.88	54.78	61.99	-41.3	-44.4	14.0	6.10e-06	0	61	0	566231040	54	5076
2026-01-25 23:34:48.89	55.43	62.31	-40.9	-43.7	14.7	0.00e+00	0	61	0	568328192	53	4956
2026-01-25 23:34:49.90	56.11	62.63	-40.4	-42.9	15.4	0.00e+00	0	61	0	569376768	52	4790
2026-01-25 23:34:50.91	56.80	62.95	-40.1	-42.5	15.9	0.00e+00	0	61	0	571473920	52	4553
2026-01-25 23:34:51.92	57.51	63.26	-40.1	-42.4	15.9	0.00e+00	0	61	0	573571072	52	4540
2026-01-25 23:34:52.93	58.24	63.58	-40.4	-42.8	15.6	0.00e+00	0	61	0	575668224	52	4747
2026-01-25 23:34:53.94	58.99	63.89	-40.6	-43.2	15.2	0.00e+00	0	61	0	577765376	52	4976
2026-01-25 23:34:54.95	59.75	64.20	-40.6	-43.2	15.2	0.00e+00	0	61	0	578813952	52	4975
2026-01-25 23:34:55.96	60.54	64.50	-40.5	-43.1	15.3	0.00e+00	0	61	0	580911104	52	4918
2026-01-25 23:34:56.97	61.36	64.80	-40.5	-43.1	15.3	0.00e+00	0	61	0	583008256	52	4881
2026-01-25 23:34:57.98	62.19	65.10	-40.8	-43.5	14.9	0.00e+00	0	61	0	585105408	52	5140
2026-01-25 23:34:58.99	63.04	65.40	-41.0	-43.8	14.6	0.00e+00	0	61	0	587202560	52	5293
2026-01-25 23:35:00.00	63.92	65.69	-41.0	-43.8	14.6	0.00e+00	0	61	0	589299712	52	5288
2026-01-25 23:35:01.01	64.82	65.98	-41.4	-44.6	13.7	1.50e-06	0	61	0	590348288	53	5481
2026-01-25 23:35:02.02	65.75	66.26	-41.1	-44.0	14.3	7.00e-07	0	61	0	592445440	53	5111
2026-01-25 23:35:03.03	66.70	66.54	-41.0	-43.8	14.5	7.00e-07	0	61	0	594542592	53	4995
2026-01-25 23:35:04.04	67.67	66.81	-41.8	-45.2	13.1	3.00e-06	0	61	0	596639744	54	5589
2026-01-25 23:35:05.05	68.67	67.08	-42.6	-46.9	11.3	1.47e-04	0	61	0	598736896	55	6418
2026-01-25 23:35:06.06	69.69	67.34	-43.0	-47.6	10.8	2.34e-03	0	61	0	599785472	56	6516
2026-01-25 23:35:07.07	70.74	67.60	-43.2	-48.2	10.2	3.77e-03	0	61	0	601882624	57	6592
2026-01-25 23:35:08.08	71.82	67.85	-43.3	-48.2	10.2	8.09e-03	0	61	0	603979776	57	6617
2026-01-25 23:35:09.09	72.92	68.09	-42.8	-46.9	11.5	1.07e-03	0	61	0	606076928	57	5720
2026-01-25 23:35:10.11	74.06	68.33	-42.7	-46.7	11.7	4.01e-04	0	61	0	608174080	56	5912
2026-01-25 23:35:11.12	75.22	68.56	-43.0	-47.6	10.9	1.42e-03	0	61	0	609222656	56	6525
2026-01-25 23:35:12.13	76.40	68.78	-43.2	-48.0	10.3	7.32e-03	0	61	0	611319808	57	6478
2026-01-25 23:35:13.14	77.61	68.99	-43.0	-47.7	10.7	3.97e-03	0	61	0	613416960	57	6266
2026-01-25 23:35:14.15	78.84	69.19	-42.9	-47.4	11.0	2.63e-03	0	61	0	615514112	57	6033
2026-01-25 23:35:15.16	80.10	69.39	-43.1	-47.8	10.6	3.87e-03	0	61	0	617611264	57	6305
2026-01-25 23:35:16.16	81.38	69.58	-43.2	-48.1	10.3	4.90e-03	0	61	0	618659840	57	6556
2026-01-25 23:35:17.18	82.70	69.76	-43.1	-47.7	10.8	2.99e-03	0	61	0	620756992	57	6233
2026-01-25 23:35:18.19	84.03	69.92	-42.5	-46.4	12.0	1.71e-03	0	61	0	622854144	57	5397
2026-01-25 23:35:19.20	85.39	70.08	-42.5	-46.5	11.8	5.98e-04	0	61	0	624951296	57	5405
2026-01-25 23:35:20.21	86.77	70.23	-42.7	-46.8	11.6	7.01e-04	0	61	0	627048448	57	5655
2026-01-25 23:35:21.22	88.18	70.37	-42.8	-47.0	11.4	5.41e-04	0	61	0	628097024	57	5753
2026-01-25 23:35:22.23	89.60	70.49	-42.5	-46.4	12.0	5.39e-04	0	61	0	630194176	56	5662
2026-01-25 23:35:23.24	91.04	70.61	-42.3	-46.1	12.2	2.66e-04	0	61	0	632291328	56	5528
2026-01-25 23:35:24.25	92.50	70.71	-42.3	-46.1	12.3	2.11e-04	0	61	0	634388480	56	5499
2026-01-25 23:35:25.26	93.97	70.80	-41.9	-45.4	12.9	4.27e-05	0	61	0	636485632	55	5352
2026-01-25 23:35:26.27	95.46	70.88	-41.5	-44.6	13.7	1.50e-06	0	61	0	637534208	54	5213
2026-01-25 23:35:27.28	96.96	70.95	-41.5	-44.7	13.5	5.30e-06	0	61	0	639631360	54	5268
2026-01-25 23:35:28.29	98.47	71.01	-41.9	-45.5	12.8	3.28e-05	0	61	0	641728512	54	5733
2026-01-25 23:35:29.30	99.99	71.05	-42.5	-46.5	11.6	3.05e-04	0	61	0	643825664	55	6126
2026-01-25 23:35:30.31	101.52	71.08	-42.2	-46.0	12.2	3.00e-04	0	61	0	645922816	55	5769
2026-01-25 23:35:31.32	103.05	71.10	-42.2	-46.1	12.2	1.35e-04	0	61	0	648019968	55	5803
2026-01-25 23:35:32.33	104.58	71.11	-42.7	-47.0	11.2	9.34e-04	0	61	0	649068544	55	6468
2026-01-25 23:35:33.34	106.11	71.10	-43.3	-48.5	9.8	1.04e-02	0	61	0	651165696	57	6879
2026-01-25 23:35:34.35	107.65	71.08	-43.0	-47.5	10.8	1.61e-02	0	61	0	653262848	57	6086
2026-01-25 23:35:35.36	109.17	71.05	-42.2	-45.7	12.6	3.09e-04	0	61	0	655360000	56	5271
2026-01-25 23:35:36.37	110.69	71.00	-42.5	-46.4	12.1	2.89e-04	0	61	0	657457152	56	5662
2026-01-25 23:35:37.38	112.20	70.94	-43.1	-47.8	10.5	1.09e-03	0	61	0	658505728	56	6691
2026-01-25 23:35:38.39	113.70	70.87	-43.0	-47.5	10.9	4.48e-03	0	61	0	660602880	57	6072
2026-01-25 23:35:39.40	115.19	70.79	-43.0	-47.6	10.7	2.89e-03	0	61	0	662700032	57	6177
2026-01-25 23:35:40.41	116.66	70.70	-43.5	-48.8	9.5	4.54e-03	0	61	0	664797184	57	7089
2026-01-25 23:35:41.42	118.12	70.59	-43.8	-49.7	8.5	4.89e-02	0	61	0	666894336	58	7412
2026-01-25 23:35:42.43	119.56	70.48	-43.6	-49.1	9.0	2.60e-02	0	61	0	667942912	58	6959
2026-01-25 23:35:43.44	120.98	70.35	-43.8	-49.6	8.7	1.78e-02	0	61	0	670040064	58	7353
2026-01-25 23:35:44.45	122.38	70.21	-44.2	-51.1	7.2	1.22e-01	0	61	0	672137216	58	8745
2026-01-25 23:35:45.46	123.76	70.06	-43.5	-49.0	9.3	6.28e-02	0	61	0	674234368	58	6805
2026-01-25 23:35:46.47	125.11	69.90	-43.3	-48.2	10.0	9.72e-03	0	61	0	676331520	58	6272
2026-01-25 23:35:47.48	126.45	69.73	-43.8	-49.6	8.7	2.46e-02	0	61	0	677380096	58	7342
2026-01-25 23:35:48.49	127.75	69.55	-43.7	-49.3	8.9	5.13e-02	0	61	0	679477248	58	7105
2026-01-25 23:35:49.50	129.04	69.36	-43.3	-48.2	10.1	1.16e-02	0	61	0	681574400	58	6223
2026-01-25 23:35:50.51	130.30	69.17	-43.2	-47.9	10.5	4.45e-03	0	61	0	683671552	58	6027
2026-01-25 23:35:51.52	131.53	68.96	-43.1	-47.8	10.3	6.38e-03	0	61	0	685768704	58	5949
2026-01-25 23:35:52.52	132.72	68.75	-43.1	-47.8	10.4	5.26e-03	0	61	0	686817280	58	5978
2026-01-25 23:35:53.54	133.91	68.52	-43.1	-47.9	10.5	3.53e-03	0	61	0	688914432	57	6407
2026-01-25 23:35:54.54	135.06	68.29	-43.4	-48.5	9.7	7.24e-03	0	61	0	691011584	57	6870
2026-01-25 23:35:55.56	136.19	68.05	-43.4	-48.8	9.5	1.22e-02	0	61	0	693108736	57	7053
2026-01-25 23:35:56.56	137.28	67.81	-42.6	-46.8	11.6	5.12e-03	0	61	0	695205888	57	5622
2026-01-25 23:35:57.57	138.36	67.56	-42.2	-45.8	12.6	1.80e-04	0	61	0	696254464	56	5311
2026-01-25 23:35:58.58	139.41	67.30	-41.5	-44.7	13.6	2.13e-05	0	61	0	698351616	55	4934
2026-01-25 23:35:59.59	140.43	67.04	-41.7	-45.1	13.1	9.10e-06	0	61	0	700448768	54	5501
2026-01-25 23:36:00.60	141.42	66.77	-42.3	-46.2	12.1	2.88e-04	0	61	0	702545920	55	5876
2026-01-25 23:36:01.61	142.40	66.50	-42.1	-45.9	12.4	4.91e-04	0	61	0	704643072	55	5665
2026-01-25 23:36:02.62	143.34	66.22	-41.4	-44.5	13.8	5.72e-05	0	61	0	705691648	54	5109
2026-01-25 23:36:03.63	144.27	65.94	-40.8	-43.6	14.7	7.00e-07	0	61	0	707788800	53	4887
2026-01-25 23:36:04.64	145.17	65.65	-40.2	-42.7	15.6	0.00e+00	0	61	0	709885952	52	4668
2026-01-25 23:36:05.65	146.04	65.36	-40.0	-42.3	16.0	0.00e+00	0	62	0	711983104	51	4746
2026-01-25 23:36:06.66	146.90	65.06	-40.2	-42.6	15.8	0.00e+00	0	61	0	714080256	51	4902
2026-01-25 23:36:07.67	147.73	64.76	-40.5	-43.1	15.2	0.00e+00	0	61	0	716177408	51	5197
2026-01-25 23:36:08.68	148.54	64.46	-40.7	-43.5	14.8	0.00e+00	0	61	0	717225984	52	5152
2026-01-25 23:36:09.68	149.32	64.15	-41.1	-44.1	14.2	7.00e-07	0	61	0	719323136	52	5481
2026-01-25 23:36:10.69	150.08	63.84	-40.7	-43.5	14.8	7.00e-07	0	61	0	721420288	52	5109
2026-01-25 23:36:11.70	150.83	63.53	-40.0	-42.4	15.9	0.00e+00	0	62	0	723517440	52	4515
2026-01-25 23:36:12.71	151.56	63.22	-40.1	-42.5	15.9	0.00e+00	0	61	0	725614592	51	4838
2026-01-25 23:36:13.72	152.27	62.90	-40.3	-42.8	15.6	0.00e+00	0	61	0	726663168	51	5002
2026-01-25 23:36:14.73	152.96	62.58	-39.7	-42.0	16.4	0.00e+00	0	61	0	728760320	51	4547
2026-01-25 23:36:15.74	153.63	62.26	-39.2	-41.2	17.2	0.00e+00	0	61	0	730857472	50	4408
2026-01-25 23:36:16.75	154.29	61.94	-39.0	-40.9	17.4	0.00e+00	0	61	0	732954624	49	4542
2026-01-25 23:36:17.76	154.92	61.61	-39.4	-41.5	16.9	0.00e+00	0	61	0	735051776	49	4852
2026-01-25 23:36:18.77	155.55	61.29	-40.0	-42.3	16.1	0.00e+00	0	61	0	736100352	50	5019
2026-01-25 23:36:19.78	156.15	60.96	-40.6	-43.2	15.1	0.00e+00	0	61	0	738197504	51	5237
2026-01-25 23:36:20.79	156.74	60.63	-40.5	-43.0	15.3	0.00e+00	0	61	0	740294656	51	5128
2026-01-25 23:36:21.80	157.32	60.31	-39.4	-41.5	16.8	0.00e+00	0	62	0	742391808	50	4585
2026-01-25 23:36:22.81	157.88	59.98	-39.7	-41.8	16.6	0.00e+00	0	61	0	744488960	50	4757
2026-01-25 23:36:23.82	158.43	59.65	-40.6	-43.2	15.1	0.00e+00	0	61	0	745537536	51	5273
2026-01-25 23:36:24.83	158.96	59.32	-40.6	-43.3	15.0	0.00e+00	0	61	0	747634688	52	5006
2026-01-25 23:36:25.84	159.48	58.98	-39.9	-42.1	16.1	0.00e+00	0	61	0	749731840	51	4634
2026-01-25 23:36:26.85	159.99	58.65	-40.1	-42.4	16.0	0.00e+00	0	61	0	751828992	51	4785
2026-01-25 23:36:27.86	160.48	58.32	-40.7	-43.4	15.0	0.00e+00	0	61	0	753926144	51	5368
2026-01-25 23:36:28.87	160.96	57.99	-41.0	-43.8	14.5	7.00e-07	0	61	0	754974720	52	5321
2026-01-25 23:36:29.88	161.43	57.66	-41.0	-43.9	14.3	1.50e-06	0	61	0	757071872	52	5370
2026-01-25 23:36:30.89	161.89	57.33	-41.2	-44.3	14.0	3.80e-06	0	62	0	759169024	52	5603
2026-01-25 23:36:31.90	162.34	57.00	-40.6	-43.3	14.9	3.00e-06	0	61	0	761266176	52	5035
2026-01-25 23:36:32.91	162.78	56.67	-40.0	-42.3	15.9	0.00e+00	0	61	0	763363328	52	4476
2026-01-25 23:36:33.92	163.21	56.34	-39.6	-41.7	16.6	0.00e+00	0	61	0	764411904	51	4408
2026-01-25 23:36:34.93	163.63	56.01	-40.3	-42.7	15.6	0.00e+00	0	61	0	766509056	51	4955
2026-01-25 23:36:35.94	164.03	55.68	-40.7	-43.5	14.8	0.00e+00	0	61	0	768606208	52	5115
2026-01-25 23:36:36.95	164.43	55.35	-40.5	-43.1	15.1	0.00e+00	0	61	0	770703360	52	4912
2026-01-25 23:36:37.96	164.82	55.02	-40.0	-42.3	16.0	0.00e+00	0	61	0	772800512	51	4745
2026-01-25 23:36:38.97	165.20	54.69	-39.8	-42.0	16.4	0.00e+00	0	62	0	773849088	51	4546
2026-01-25 23:36:39.98	165.58	54.37	-40.3	-42.7	15.7	0.00e+00	0	61	0	775946240	51	4957
2026-01-25 23:36:40.99	165.94	54.04	-41.3	-44.3	14.0	1.50e-06	0	62	0	778043392	53	5326
2026-01-25 23:36:42.00	166.30	53.72	-41.6	-44.9	13.3	6.80e-06	0	61	0	780140544	53	5710
2026-01-25 23:36:43.01	166.65	53.39	-41.5	-44.7	13.6	1.29e-05	0	62	0	782237696	54	5239
2026-01-25 23:36:44.02	166.99	53.07	-41.0	-43.9	14.4	2.20e-06	0	61	0	784334848	54	4772
2026-01-25 23:36:45.03	167.32	52.75	-40.2	-42.6	15.6	1.50e-06	0	61	0	785383424	52	4636
2026-01-25 23:36:46.04	167.65	52.43	-40.3	-42.7	15.6	0.00e+00	0	62	0	787480576	52	4677
2026-01-25 23:36:47.05	167.97	52.11	-40.3	-42.7	15.7	0.00e+00	0	61	0	789577728	51	4960
2026-01-25 23:36:48.07	168.28	51.79	-39.9	-42.1	16.3	0.00e+00	0	61	0	791674880	51	4629
2026-01-25 23:36:49.08	168.59	51.47	-39.8	-42.0	16.4	0.00e+00	0	61	0	793772032	51	4552
2026-01-25 23:36:50.09	168.89	51.16	-40.0	-42.4	15.9	0.00e+00	0	61	0	794820608	51	4787
2026-01-25 23:36:51.10	169.18	50.84	-41.1	-44.2	14.1	7.00e-07	0	61	0	796917760	52	5535
2026-01-25 23:36:52.11	169.47	50.53	-41.4	-44.6	13.6	6.80e-06	0	62	0	799014912	53	5495
2026-01-25 23:36:53.12	169.75	50.22	-40.8	-43.6	14.6	2.20e-06	0	61	0	801112064	53	4911
2026-01-25 23:36:54.13	170.03	49.91	-40.5	-43.1	15.2	0.00e+00	0	61	0	803209216	52	4915
2026-01-25 23:36:55.14	170.30	49.60	-40.9	-43.8	14.5	0.00e+00	0	61	0	804257792	52	5305
2026-01-25 23:36:56.15	170.56	49.29	-42.0	-45.7	12.6	3.43e-05	0	61	0	806354944	54	5858
2026-01-25 23:36:57.16	170.82	48.99	-42.8	-47.3	11.0	1.60e-03	0	61	0	808452096	56	6312
2026-01-25 23:36:58.17	171.08	48.68	-43.3	-48.6	9.5	6.00e-03	0	61	0	810549248	57	6943
2026-01-25 23:36:59.18	171.33	48.38	-43.0	-47.8	10.4	7.25e-03	0	61	0	812646400	57	6327
2026-01-25 23:37:00.19	171.58	48.08	-42.5	-46.5	11.8	9.09e-04	0	61	0	813694976	56	5738
2026-01-25 23:37:01.20	171.82	47.78	-42.3	-46.1	12.2	3.04e-04	0	61	0	815792128	56	5474
2026-01-25 23:37:02.21	172.05	47.48	-42.6	-46.8	11.6	5.93e-04	0	61	0	817889280	56	5927
2026-01-25 23:37:03.22	172.28	47.19	-42.9	-47.4	10.8	2.30e-03	0	61	0	819986432	56	6417
2026-01-25 23:37:04.23	172.51	46.89	-42.8	-47.1	11.0	2.89e-03	0	61	0	822083584	56	6181
2026-01-25 23:37:05.24	172.74	46.60	-42.6	-46.7	11.6	5.37e-04	0	61	0	823132160	56	5873
2026-01-25 23:37:06.25	172.96	46.31	-42.8	-47.2	11.0	1.46e-03	0	62	0	825229312	56	6268
2026-01-25 23:37:07.26	173.17	46.02	-43.0	-47.7	10.6	2.41e-03	0	61	0	827326464	56	6603
2026-01-25 23:37:08.27	173.38	45.73	-42.9	-47.6	10.6	6.20e-03	0	62	0	829423616	57	6173
2026-01-25 23:37:09.28	173.59	45.44	-42.2	-45.9	12.3	4.56e-04	0	61	0	831520768	56	5385
2026-01-25 23:37:10.29	173.80	45.16	-41.5	-44.8	13.3	4.42e-05	0	61	0	832569344	55	5031
2026-01-25 23:37:11.30	174.00	44.87	-41.8	-45.4	12.8	1.60e-05	0	61	0	834666496	54	5668
2026-01-25 23:37:12.31	174.19	44.59	-42.0	-45.8	12.4	1.11e-04	0	61	0	836763648	54	5932
2026-01-25 23:37:13.32	174.39	44.31	-42.4	-46.6	11.5	4.07e-04	0	62	0	838860800	55	6199
2026-01-25 23:37:14.33	174.58	44.03	-43.1	-48.1	10.2	1.59e-03	0	62	0	840957952	56	6883
2026-01-25 23:37:15.34	174.77	43.76	-43.2	-48.2	10.0	7.90e-03	0	62	0	842006528	57	6613
2026-01-25 23:37:16.35	174.95	43.48	-42.9	-47.5	10.8	4.12e-03	0	62	0	844103680	57	6064
2026-01-25 23:37:17.36	175.13	43.21	-42.8	-47.4	10.7	2.65e-03	0	62	0	846200832	57	6017
2026-01-25 23:37:18.37	175.31	42.93	-42.5	-46.7	11.5	1.36e-03	0	62	0	848297984	57	5556
2026-01-25 23:37:19.38	175.48	42.66	-42.1	-45.8	12.4	2.97e-04	0	62	0	850395136	56	5305
2026-01-25 23:37:20.38	175.66	42.40	-41.4	-44.6	13.4	4.88e-05	0	61	0	852492288	54	5196
2026-01-25 23:37:21.39	175.83	42.13	-41.3	-44.4	13.7	1.22e-05	0	61	0	853540864	54	5082
2026-01-25 23:37:22.40	175.99	41.87	-41.0	-44.0	14.1	3.00e-06	0	62	0	855638016	54	4821
2026-01-25 23:37:23.41	176.16	41.60	-41.0	-43.9	14.2	3.00e-06	0	62	0	857735168	54	4795
2026-01-25 23:37:24.42	176.32	41.34	-41.7	-45.2	12.9	3.80e-06	0	61	0	859832320	54	5545
2026-01-25 23:37:25.43	176.48	41.08	-41.8	-45.4	12.7	5.72e-05	0	62	0	861929472	54	5684
2026-01-25 23:37:26.44	176.63	40.82	-42.0	-45.9	12.3	1.91e-04	0	62	0	862978048	54	6001
2026-01-25 23:37:27.45	176.79	40.56	-42.1	-46.0	12.1	5.45e-04	0	62	0	865075200	55	5782
2026-01-25 23:37:28.46	176.94	40.31	-41.5	-45.0	13.1	6.25e-05	0	62	0	867172352	55	5112
2026-01-25 23:37:29.47	177.09	40.05	-40.9	-43.8	14.3	8.30e-06	0	62	0	869269504	53	5037
2026-01-25 23:37:30.48	177.24	39.80	-40.7	-43.5	14.6	0.00e+00	0	62	0	871366656	53	4838
2026-01-25 23:37:31.49	177.38	39.55	-40.6	-43.3	14.8	0.00e+00	0	61	0	872415232	53	4715
2026-01-25 23:37:32.50	177.53	39.30	-40.6	-43.3	14.8	0.00e+00	0	62	0	874512384	52	5032
2026-01-25 23:37:33.51	177.67	39.06	-41.0	-44.0	14.1	0.00e+00	0	61	0	876609536	52	5409
2026-01-25 23:37:34.52	177.81	38.81	-41.3	-44.5	13.6	5.30e-06	0	62	0	878706688	53	5430
2026-01-25 23:37:35.53	177.94	38.56	-41.8	-45.5	12.6	5.87e-05	0	61	0	880803840	54	5723
2026-01-25 23:37:36.54	178.08	38.32	-42.3	-46.4	11.6	4.55e-04	0	62	0	881852416	55	6038
2026-01-25 23:37:37.55	178.21	38.08	-42.5	-46.9	11.1	1.26e-03	0	62	0	883949568	55	6378
2026-01-25 23:37:38.56	178.34	37.84	-42.1	-46.1	11.8	7.19e-04	0	61	0	886046720	55	5813
2026-01-25 23:37:39.57	178.47	37.60	-41.8	-45.4	12.6	1.81e-04	0	61	0	888143872	55	5380
2026-01-25 23:37:40.58	178.60	37.37	-41.4	-44.8	13.3	7.17e-05	0	61	0	890241024	54	5285
2026-01-25 23:37:41.59	178.72	37.13	-40.8	-43.7	14.4	1.50e-06	0	61	0	891289600	53	4939
2026-01-25 23:37:42.60	178.85	36.90	-40.9	-43.8	14.3	1.50e-06	0	62	0	893386752	53	5004
2026-01-25 23:37:43.61	178.97	36.67	-40.8	-43.6	14.4	1.50e-06	0	61	0	895483904	53	4912
2026-01-25 23:37:44.62	179.09	36.44	-40.9	-43.9	14.2	0.00e+00	0	62	0	897581056	53	5053
2026-01-25 23:37:45.63	179.21	36.21	-41.3	-44.5	13.5	7.60e-06	0	62	0	899678208	53	5442
2026-01-25 23:37:46.64	179.33	35.98	-41.4	-44.7	13.3	1.14e-05	0	61	0	900726784	53	5555
2026-01-25 23:37:47.65	179.44	35.75	-41.5	-44.9	13.1	2.44e-05	0	62	0	902823936	53	5684
2026-01-25 23:37:48.66	179.56	35.53	-41.4	-44.7	13.3	1.14e-05	0	62	0	904921088	53	5580
2026-01-25 23:37:49.67	179.67	35.31	-41.9	-45.5	12.5	5.64e-05	0	61	0	907018240	54	5783
2026-01-25 23:37:50.68	179.78	35.08	-42.0	-45.8	12.2	2.46e-04	0	62	0	909115392	54	5980
2026-01-25 23:37:51.68	179.89	34.87	-42.5	-46.9	11.0	6.93e-04	0	62	0	910163968	55	6405
2026-01-25 23:37:52.69	180.00	34.65	-43.0	-47.8	10.2	3.73e-03	0	62	0	912261120	56	6716
2026-01-25 23:37:53.70	180.10	34.43	-43.1	-48.3	9.7	6.17e-03	0	62	0	914358272	56	7082
2026-01-25 23:37:54.71	180.21	34.21	-43.4	-49.1	9.0	2.19e-02	0	61	0	916455424	57	7307
2026-01-25 23:37:55.72	180.31	34.00	-43.3	-48.7	9.3	2.47e-02	0	62	0	918552576	57	7006
2026-01-25 23:37:56.73	180.42	33.78	-43.1	-48.2	9.8	1.23e-02	0	62	0	920649728	57	6643
2026-01-25 23:37:57.74	180.52	33.57	-43.0	-47.8	10.2	7.13e-03	0	61	0	921698304	57	6346
2026-01-25 23:37:58.75	180.62	33.36	-42.6	-47.0	11.1	1.92e-03	0	62	0	923795456	57	5750
2026-01-25 23:37:59.76	180.72	33.15	-42.1	-45.8	12.4	6.03e-04	0	61	0	925892608	56	5283
2026-01-25 23:38:00.77	180.82	32.95	-41.7	-45.2	12.8	6.17e-05	0	61	0	927989760	55	5256
2026-01-25 23:38:01.78	180.91	32.74	-41.7	-45.3	12.7	7.40e-05	0	62	0	930086912	55	5280
2026-01-25 23:38:02.79	181.01	32.53	-41.4	-44.7	13.3	4.57e-05	0	61	0	931135488	54	5251
2026-01-25 23:38:03.80	181.10	32.33	-41.4	-44.8	13.2	1.44e-05	0	61	0	933232640	54	5313
2026-01-25 23:38:04.80	181.19	32.13	-41.5	-45.0	12.9	1.90e-05	0	62	0	935329792	54	5431
2026-01-25 23:38:05.82	181.29	31.93	-41.5	-45.0	13.0	2.05e-05	0	62	0	937426944	54	5406
2026-01-25 23:38:06.82	181.38	31.73	-41.9	-45.6	12.4	9.00e-05	0	61	0	939524096	54	5819
2026-01-25 23:38:07.83	181.47	31.53	-42.3	-46.6	11.4	6.38e-04	0	62	0	940572672	55	6145
2026-01-25 23:38:08.84	181.56	31.33	-42.6	-47.2	10.6	1.36e-03	0	61	0	942669824	55	6631
2026-01-25 23:38:09.85	181.64	31.14	-43.1	-48.2	9.9	4.91e-03	0	61	0	944766976	56	6992
2026-01-25 23:38:10.86	181.73	30.94	-43.2	-48.5	9.4	1.62e-02	0	62	0	946864128	57	6850
2026-01-25 23:38:11.87	181.82	30.75	-43.0	-48.1	10.0	1.30e-02	0	61	0	948961280	57	6503
2026-01-25 23:38:12.88	181.90	30.55	-43.1	-48.3	9.8	1.07e-02	0	62	0	950009856	57	6666
2026-01-25 23:38:13.89	181.99	30.36	-43.1	-48.3	9.6	1.35e-02	0	61	0	952107008	57	6708
2026-01-25 23:38:14.90	182.07	30.17	-42.8	-47.5	10.4	4.69e-03	0	61	0	954204160	57	6126
2026-01-25 23:38:15.91	182.15	29.98	-42.9	-47.7	10.2	3.41e-03	0	62	0	956301312	57	6262
2026-01-25 23:38:16.92	182.23	29.80	-42.5	-46.8	11.3	2.47e-03	0	61	0	958398464	57	5615
2026-01-25 23:38:17.93	182.31	29.61	-42.3	-46.5	11.5	1.66e-03	0	61	0	959447040	56	5771
2026-01-25 23:38:18.94	182.39	29.42	-42.4	-46.8	11.3	1.49e-03	0	62	0	961544192	56	5950
2026-01-25 23:38:19.95	182.47	29.24	-42.4	-46.7	11.4	1.20e-03	0	62	0	963641344	56	5856
2026-01-25 23:38:20.96	182.55	29.06	-42.3	-46.5	11.6	5.84e-04	0	62	0	965738496	56	5735
2026-01-25 23:38:21.96	182.63	28.88	-42.2	-46.2	11.8	7.64e-04	0	62	0	967835648	56	5587
2026-01-25 23:38:22.97	182.70	28.70	-42.2	-46.1	11.9	4.33e-04	0	62	0	968884224	56	5525
2026-01-25 23:38:23.98	182.78	28.52	-42.2	-46.2	11.9	3.80e-04	0	62	0	970981376	56	5533
2026-01-25 23:38:24.99	182.85	28.34	-42.3	-46.4	11.7	3.78e-04	0	62	0	973078528	56	5660
2026-01-25 23:38:25.99	182.92	28.16	-42.1	-46.0	12.0	5.03e-04	0	61	0	975175680	56	5453
2026-01-25 23:38:27.00	183.00	27.99	-42.1	-46.0	12.1	2.28e-04	0	62	0	977272832	56	5426
2026-01-25 23:38:28.01	183.07	27.81	-42.2	-46.1	11.9	3.68e-04	0	61	0	978321408	56	5505
2026-01-25 23:38:29.02	183.14	27.64	-42.0	-45.8	12.2	3.51e-04	0	62	0	980418560	56	5324
2026-01-25 23:38:30.03	183.21	27.46	-41.9	-45.7	12.2	1.74e-04	0	62	0	982515712	55	5563
2026-01-25 23:38:31.03	183.28	27.29	-41.8	-45.7	12.2	1.40e-04	0	62	0	984612864	55	5531
2026-01-25 23:38:32.05	183.35	27.12	-41.6	-45.3	12.5	1.23e-04	0	62	0	986710016	55	5303
2026-01-25 23:38:33.06	183.42	26.95	-41.6	-45.2	12.6	7.17e-05	0	62	0	988807168	55	5273
2026-01-25 23:38:34.07	183.49	26.78	-41.5	-45.1	12.9	4.95e-05	0	62	0	989855744	55	5161
2026-01-25 23:38:35.07	183.55	26.61	-41.4	-44.9	13.1	2.51e-05	0	62	0	991952896	54	5355
2026-01-25 23:38:36.08	183.62	26.45	-41.3	-44.6	13.3	3.43e-05	0	62	0	994050048	54	5196
2026-01-25 23:38:37.09	183.69	26.28	-41.1	-44.4	13.6	8.30e-06	0	62	0	996147200	54	5046
2026-01-25 23:38:38.10	183.75	26.11	-40.9	-44.0	13.9	7.60e-06	0	61	0	998244352	53	5121
2026-01-25 23:38:39.11	183.82	25.95	-40.9	-43.9	14.0	1.50e-06	0	61	0	999292928	53	5065
2026-01-25 23:38:40.12	183.88	25.79	-40.7	-43.7	14.2	1.50e-06	0	62	0	1001390080	53	4936
2026-01-25 23:38:41.13	183.94	25.63	-40.5	-43.3	14.6	0.00e+00	0	62	0	1003487232	53	4745
2026-01-25 23:38:42.14	184.01	25.46	-40.3	-43.0	14.9	0.00e+00	0	62	0	1005584384	52	4834
2026-01-25 23:38:43.15	184.07	25.30	-40.3	-43.0	14.9	0.00e+00	0	62	0	1007681536	52	4847
2026-01-25 23:38:44.16	184.13	25.14	-40.1	-42.6	15.3	0.00e+00	0	61	0	1008730112	52	4633
2026-01-25 23:38:45.17	184.19	24.99	-40.1	-42.7	15.3	0.00e+00	0	62	0	1010827264	51	4954
2026-01-25 23:38:46.18	184.25	24.83	-40.1	-42.7	15.3	0.00e+00	0	62	0	1012924416	51	4945
2026-01-25 23:38:47.19	184.31	24.67	-40.1	-42.7	15.3	0.00e+00	0	61	0	1015021568	51	4960
2026-01-25 23:38:48.20	184.37	24.52	-40.1	-42.6	15.4	0.00e+00	0	62	0	1017118720	51	4885
2026-01-25 23:38:49.21	184.43	24.36	-40.1	-42.7	15.3	0.00e+00	0	62	0	1018167296	51	4949
2026-01-25 23:38:50.22	184.49	24.21	-40.1	-42.7	15.4	0.00e+00	0	62	0	1020264448	51	4927
2026-01-25 23:38:51.23	184.54	24.05	-40.2	-42.8	15.1	0.00e+00	0	62	0	1022361600	51	5022
2026-01-25 23:38:52.24	184.60	23.90	-40.2	-42.8	15.1	0.00e+00	0	62	0	1024458752	51	5031
2026-01-25 23:38:53.25	184.66	23.75	-40.3	-43.0	15.0	0.00e+00	0	62	0	1026555904	51	5110
2026-01-25 23:38:54.25	184.71	23.60	-40.4	-43.0	14.9	7.00e-07	0	62	0	1027604480	51	5146
2026-01-25 23:38:55.27	184.77	23.45	-40.5	-43.2	14.8	0.00e+00	0	61	0	1029701632	51	5239
2026-01-25 23:38:56.28	184.82	23.30	-40.6	-43.4	14.5	0.00e+00	0	61	0	1031798784	51	5386
2026-01-25 23:38:57.29	184.88	23.15	-40.7	-43.6	14.3	7.00e-07	0	62	0	1033895936	52	5177
2026-01-25 23:38:58.30	184.93	23.01	-40.7	-43.6	14.4	0.00e+00	0	62	0	1035993088	52	5163
2026-01-25 23:38:59.30	184.99	22.86	-40.7	-43.6	14.3	0.00e+00	0	61	0	1037041664	52	5199
2026-01-25 23:39:00.31	185.04	22.71	-40.7	-43.7	14.1	7.00e-07	0	62	0	1039138816	52	5263
2026-01-25 23:39:01.32	185.09	22.57	-40.9	-44.0	13.9	3.80e-06	0	62	0	1041235968	52	5433
2026-01-25 23:39:02.33	185.14	22.43	-40.9	-44.0	13.9	4.50e-06	0	62	0	1043333120	52	5415
2026-01-25 23:39:03.34	185.20	22.28	-41.0	-44.1	13.7	3.00e-06	0	61	0	1045430272	52	5509
2026-01-25 23:39:04.35	185.25	22.14	-41.1	-44.4	13.5	6.80e-06	0	61	0	1046478848	52	5664
2026-01-25 23:39:05.36	185.30	22.00	-41.2	-44.5	13.3	1.22e-05	0	61	0	1048576000	53	5408
2026-01-25 23:39:06.37	185.35	21.86	-41.1	-44.3	13.5	1.60e-05	0	62	0	1050673152	53	5330
2026-01-25 23:39:07.38	185.40	21.72	-41.2	-44.5	13.3	1.14e-05	0	62	0	1052770304	53	5450
2026-01-25 23:39:08.39	185.45	21.58	-41.2	-44.6	13.3	2.13e-05	0	62	0	1054867456	53	5475
2026-01-25 23:39:09.40	185.50	21.44	-41.0	-44.1	13.7	5.30e-06	0	62	0	1055916032	53	5214
2026-01-25 23:39:10.41	185.55	21.30	-41.0	-44.2	13.7	8.30e-06	0	62	0	1058013184	53	5251
2026-01-25 23:39:11.42	185.59	21.16	-41.1	-44.3	13.6	1.06e-05	0	62	0	1060110336	53	5309
2026-01-25 23:39:12.43	185.64	21.03	-40.9	-44.0	13.8	3.00e-06	0	62	0	1062207488	53	5125
2026-01-25 23:39:13.44	185.69	20.89	-41.0	-44.2	13.6	6.80e-06	0	62	0	1064304640	53	5271
2026-01-25 23:39:14.45	185.74	20.76	-40.9	-44.0	13.8	9.10e-06	0	62	0	1065353216	53	5132
2026-01-25 23:39:15.46	185.78	20.62	-41.0	-44.3	13.6	7.60e-06	0	62	0	1067450368	53	5311
2026-01-25 23:39:16.47	185.83	20.49	-41.0	-44.3	13.6	5.30e-06	0	62	0	1069547520	53	5281
2026-01-25 23:39:17.48	185.88	20.36	-41.1	-44.4	13.5	6.10e-06	0	62	0	1071644672	53	5351
2026-01-25 23:39:18.49	185.92	20.22	-41.0	-44.2	13.6	1.29e-05	0	62	0	1073741824	53	5251
2026-01-25 23:39:19.50	185.97	20.09	-40.9	-44.1	13.7	6.10e-06	0	62	0	1074790400	53	5168
2026-01-25 23:39:20.51	186.01	19.96	-41.0	-44.2	13.6	7.00e-07	0	62	0	1076887552	53	5250
2026-01-25 23:39:21.52	186.06	19.83	-41.0	-44.3	13.6	9.10e-06	0	62	0	1078984704	53	5281
2026-01-25 23:39:22.53	186.10	19.70	-40.8	-43.9	13.9	3.00e-06	0	62	0	1081081856	53	5098
2026-01-25 23:39:23.54	186.15	19.57	-40.8	-44.0	13.8	3.80e-06	0	61	0	1083179008	53	5128
2026-01-25 23:39:24.55	186.19	19.44	-40.8	-43.9	14.0	5.30e-06	0	61	0	1085276160	53	5050
2026-01-25 23:39:25.56	186.23	19.32	-40.8	-44.0	13.9	1.50e-06	0	62	0	1086324736	53	5102
2026-01-25 23:39:26.57	186.28	19.19	-40.7	-43.8	14.0	6.10e-06	0	61	0	1088421888	53	5041
2026-01-25 23:39:27.58	186.32	19.06	-40.7	-43.7	14.1	2.20e-06	0	62	0	1090519040	53	4980
2026-01-25 23:39:28.59	186.36	18.94	-40.7	-43.7	14.1	9.10e-06	0	62	0	1092616192	53	4935
2026-01-25 23:39:29.60	186.40	18.81	-40.6	-43.6	14.2	7.60e-06	0	62	0	1094713344	53	4896
2026-01-25 23:39:30.61	186.44	18.69	-40.5	-43.4	14.5	5.30e-06	0	61	0	1095761920	52	5053
2026-01-25 23:39:31.62	186.49	18.56	-40.5	-43.3	14.5	1.50e-06	0	62	0	1097859072	52	5037
2026-01-25 23:39:32.63	186.53	18.44	-40.4	-43.2	14.6	0.00e+00	0	62	0	1099956224	52	4955
2026-01-25 23:39:33.64	186.57	18.32	-40.4	-43.2	14.7	0.00e+00	0	62	0	1102053376	52	4933
2026-01-25 23:39:34.65	186.61	18.20	-40.3	-43.0	14.8	0.00e+00	0	62	0	1104150528	52	4868
2026-01-25 23:39:35.66	186.65	18.07	-40.4	-43.2	14.7	0.00e+00	0	61	0	1105199104	52	4936
2026-01-25 23:39:36.67	186.69	17.95	-40.4	-43.3	14.6	0.00e+00	0	62	0	1107296256	52	4997
2026-01-25 23:39:37.68	186.73	17.83	-40.4	-43.1	14.7	7.00e-07	0	62	0	1109393408	52	4918
2026-01-25 23:39:38.69	186.77	17.71	-40.5	-43.5	14.4	1.50e-06	0	62	0	1111490560	52	5101
2026-01-25 23:39:39.70	186.81	17.59	-40.6	-43.6	14.2	0.00e+00	0	62	0	1113587712	52	5187
2026-01-25 23:39:40.71	186.84	17.48	-40.7	-43.7	14.2	7.00e-07	0	61	0	1114636288	52	5236
2026-01-25 23:39:41.72	186.88	17.36	-40.9	-44.1	13.7	3.00e-06	0	62	0	1116733440	52	5504
2026-01-25 23:39:42.73	186.92	17.24	-40.8	-44.0	13.8	6.10e-06	0	62	0	1118830592	52	5411
2026-01-25 23:39:43.74	186.96	17.12	-40.9	-44.1	13.8	4.50e-06	0	62	0	1120927744	52	5473
2026-01-25 23:39:44.75	187.00	17.01	-41.0	-44.2	13.6	1.06e-05	0	62	0	1123024896	52	5557
2026-01-25 23:39:45.76	187.03	16.89	-41.1	-44.4	13.4	1.29e-05	0	62	0	1125122048	52	5673
2026-01-25 23:39:46.76	187.07	16.78	-41.2	-44.5	13.3	2.74e-05	0	61	0	1126170624	52	5765
2026-01-25 23:39:47.77	187.11	16.66	-41.2	-44.5	13.3	1.83e-05	0	62	0	1128267776	52	5765
2026-01-25 23:39:48.78	187.14	16.55	-41.3	-44.7	13.1	2.74e-05	0	62	0	1130364928	53	5558
2026-01-25 23:39:49.79	187.18	16.43	-41.4	-45.0	12.8	3.96e-05	0	61	0	1132462080	53	5771
2026-01-25 23:39:50.80	187.22	16.32	-41.3	-44.8	12.9	5.03e-05	0	62	0	1133510656	53	5645
2026-01-25 23:39:51.81	187.25	16.21	-41.5	-45.1	12.6	7.93e-05	0	62	0	1135607808	53	5842
2026-01-25 23:39:52.82	187.29	16.10	-41.6	-45.3	12.5	1.46e-04	0	62	0	1137704960	53	5953
2026-01-25 23:39:53.83	187.32	15.99	-41.5	-45.2	12.6	1.17e-04	0	62	0	1139802112	53	5884
2026-01-25 23:39:54.84	187.36	15.87	-41.6	-45.4	12.4	1.20e-04	0	61	0	1141899264	53	6020
2026-01-25 23:39:55.85	187.39	15.76	-41.6	-45.3	12.4	1.69e-04	0	61	0	1142947840	53	5970
2026-01-25 23:39:56.86	187.43	15.65	-41.5	-45.1	12.6	1.28e-04	0	61	0	1145044992	53	5829
2026-01-25 23:39:57.87	187.46	15.54	-41.6	-45.3	12.5	1.46e-04	0	62	0	1147142144	53	5961
2026-01-25 23:39:58.88	187.50	15.43	-41.5	-45.3	12.5	1.50e-04	0	62	0	1149239296	53	5941
2026-01-25 23:39:59.89	187.53	15.33	-41.6	-45.4	12.3	1.44e-04	0	61	0	1151336448	53	6023
2026-01-25 23:40:00.90	187.56	15.22	-41.6	-45.4	12.3	1.98e-04	0	61	0	1153433600	53	6045
