passes_logs/2026/01/25/R2.0S_Moscow/R2.0S_Moscow__20260125_000741_NOAA_20_JPSS-1_rec.log

#Pass ID: 20260125_000741_NOAA 20 (JPSS-1)
#Satellite: NOAA 20 (JPSS-1)
#Configuration: NOAA 20
#almurnet v.1.7.20251203
#Start time: 2026-01-25 00:07:42

#Version: 2.2.20231116
#Station: R2.0S_Moscow
#Location: 37.707566 lon 55.798166 lat
#TLE: 1 43013U 17073A   26024.42258823  .00000183  00000+0  10747-3 0  9990
#TLE: 2 43013  98.7646 325.2629 0001105  25.8644 334.2587 14.19539754424075

#Time	Az	El	Level	Level2	SNR	BER	BlckErr	Temp	State	Recorded	gain1	gain2
2026-01-25 00:07:42.34	14.28	2.04	-42.4	-56.9	3.8	1.49e+00	0	53	0	0	56	19015
2026-01-25 00:07:43.34	14.26	2.11	-42.4	-56.9	3.8	1.49e+00	0	53	104	0	56	18975
2026-01-25 00:07:44.35	14.24	2.17	-42.4	-56.9	3.8	1.49e+00	0	53	104	0	56	19059
2026-01-25 00:07:45.36	14.23	2.23	-42.4	-56.9	3.8	1.49e+00	0	54	104	0	56	19029
2026-01-25 00:07:46.37	14.21	2.30	-42.4	-56.9	3.8	1.49e+00	0	54	104	0	56	18954
2026-01-25 00:07:47.38	14.20	2.36	-42.4	-56.9	3.8	1.49e+00	0	54	104	0	56	19040
2026-01-25 00:07:48.39	14.18	2.43	-42.4	-56.9	3.8	1.49e+00	0	53	104	0	56	19002
2026-01-25 00:07:49.41	14.16	2.49	-42.4	-56.9	3.8	1.49e+00	0	54	104	0	56	18989
2026-01-25 00:07:50.42	14.15	2.56	-42.4	-56.9	3.8	1.49e+00	0	54	104	0	56	18962
2026-01-25 00:07:51.43	14.13	2.62	-42.4	-56.9	3.8	1.49e+00	0	54	104	0	56	18997
2026-01-25 00:07:52.44	14.11	2.69	-42.4	-56.9	3.8	1.49e+00	0	54	104	0	56	18979
2026-01-25 00:07:53.45	14.10	2.75	-42.4	-56.9	3.8	1.49e+00	0	54	104	0	56	18984
2026-01-25 00:07:54.46	14.08	2.82	-42.4	-56.9	3.8	1.49e+00	0	54	104	0	56	19089
2026-01-25 00:07:55.47	14.06	2.89	-42.4	-56.9	3.8	1.49e+00	0	54	104	0	56	18972
2026-01-25 00:07:56.48	14.04	2.95	-42.4	-56.9	3.8	1.49e+00	0	54	104	0	56	18983
2026-01-25 00:07:57.49	14.03	3.02	-42.4	-56.9	3.8	1.49e+00	0	54	104	0	56	19019
2026-01-25 00:07:58.50	14.01	3.09	-42.4	-56.8	3.8	1.49e+00	0	54	104	0	56	18883
2026-01-25 00:07:59.51	13.99	3.15	-42.4	-56.9	3.8	1.49e+00	0	55	104	0	56	18966
2026-01-25 00:08:00.52	13.97	3.22	-42.4	-56.8	3.8	1.49e+00	0	54	104	0	56	18939
2026-01-25 00:08:01.53	13.96	3.29	-42.4	-56.9	3.8	1.49e+00	0	55	104	0	56	18998
2026-01-25 00:08:02.54	13.94	3.35	-42.4	-56.8	3.8	1.49e+00	0	55	104	0	56	18864
2026-01-25 00:08:03.55	13.92	3.42	-42.4	-56.8	3.8	1.49e+00	0	55	104	0	56	18868
2026-01-25 00:08:04.56	13.90	3.49	-42.4	-56.8	3.8	1.49e+00	0	55	104	0	56	18772
2026-01-25 00:08:05.58	13.88	3.55	-42.4	-56.7	3.8	1.49e+00	0	55	104	0	56	18693
2026-01-25 00:08:06.58	13.87	3.62	-42.4	-56.7	3.8	1.49e+00	0	55	104	0	56	18654
2026-01-25 00:08:07.60	13.85	3.69	-42.4	-56.7	3.8	1.49e+00	0	55	104	0	56	18589
2026-01-25 00:08:08.61	13.83	3.76	-42.4	-56.7	3.8	1.49e+00	0	55	104	0	56	18636
2026-01-25 00:08:09.62	13.81	3.83	-42.4	-56.7	3.8	1.49e+00	0	55	104	0	56	18708
2026-01-25 00:08:10.62	13.79	3.89	-42.4	-56.7	3.8	1.49e+00	0	55	104	0	56	18688
2026-01-25 00:08:11.64	13.77	3.96	-42.4	-56.7	3.8	1.49e+00	0	55	104	0	56	18600
2026-01-25 00:08:12.65	13.75	4.03	-42.3	-56.6	3.8	1.49e+00	0	55	104	0	56	18409
2026-01-25 00:08:13.65	13.74	4.10	-42.3	-56.6	3.8	1.49e+00	0	55	104	0	56	18318
2026-01-25 00:08:14.66	13.72	4.17	-42.4	-56.5	3.8	1.49e+00	0	55	104	0	56	18246
2026-01-25 00:08:15.67	13.70	4.24	-42.3	-56.5	3.8	1.49e+00	0	55	104	0	56	18113
2026-01-25 00:08:16.69	13.68	4.31	-42.3	-56.4	3.8	1.49e+00	0	55	104	0	56	17946
2026-01-25 00:08:17.70	13.66	4.38	-42.3	-56.5	3.8	1.49e+00	0	56	104	0	56	18099
2026-01-25 00:08:18.71	13.64	4.45	-42.3	-56.4	3.8	1.49e+00	0	56	104	0	56	17895
2026-01-25 00:08:19.72	13.62	4.52	-42.3	-56.4	3.8	1.49e+00	0	56	104	0	56	17904
2026-01-25 00:08:20.73	13.60	4.59	-42.3	-56.5	3.8	1.49e+00	0	56	104	0	56	18144
2026-01-25 00:08:21.74	13.58	4.66	-42.3	-56.5	3.8	1.49e+00	0	56	104	0	56	18135
2026-01-25 00:08:22.75	13.56	4.73	-42.3	-56.3	3.8	1.49e+00	0	55	104	0	56	17752
2026-01-25 00:08:23.76	13.54	4.80	-42.3	-56.4	3.8	1.49e+00	0	56	104	0	56	18016
2026-01-25 00:08:24.77	13.52	4.87	-42.3	-56.5	3.8	1.49e+00	0	56	104	0	56	18176
2026-01-25 00:08:25.78	13.50	4.94	-42.3	-56.3	3.8	1.49e+00	0	56	104	0	56	17699
2026-01-25 00:08:26.79	13.48	5.01	-42.3	-56.1	3.8	1.49e+00	0	56	104	0	56	17456
2026-01-25 00:08:27.80	13.46	5.08	-42.3	-56.1	3.8	1.49e+00	0	56	104	0	56	17457
2026-01-25 00:08:28.81	13.44	5.15	-42.3	-56.1	3.8	1.49e+00	0	56	104	0	56	17349
2026-01-25 00:08:29.82	13.42	5.22	-42.3	-55.8	3.8	1.49e+00	0	56	104	0	56	16845
2026-01-25 00:08:30.83	13.39	5.30	-42.3	-55.5	3.8	1.49e+00	0	56	104	0	56	16154
2026-01-25 00:08:31.84	13.37	5.37	-42.3	-55.1	3.8	1.49e+00	0	56	104	0	56	15512
2026-01-25 00:08:32.85	13.35	5.44	-42.2	-54.9	3.8	1.49e+00	0	56	104	0	56	15189
2026-01-25 00:08:33.86	13.33	5.51	-42.3	-54.8	3.8	1.49e+00	0	56	104	0	56	15046
2026-01-25 00:08:34.88	13.31	5.59	-42.2	-54.9	3.8	1.49e+00	0	56	104	0	56	15133
2026-01-25 00:08:35.89	13.29	5.66	-42.2	-54.8	3.8	1.49e+00	0	56	104	0	56	14942
2026-01-25 00:08:36.90	13.27	5.73	-42.2	-54.7	3.9	1.49e+00	0	56	104	0	56	14715
2026-01-25 00:08:37.91	13.24	5.81	-42.2	-54.8	3.8	1.48e+00	0	56	104	0	56	15016
2026-01-25 00:08:38.92	13.22	5.88	-42.2	-55.1	3.8	1.49e+00	0	56	104	0	56	15402
2026-01-25 00:08:39.93	13.20	5.95	-42.3	-55.4	3.8	1.49e+00	0	56	104	0	56	15951
2026-01-25 00:08:40.94	13.18	6.03	-42.3	-55.8	3.8	1.49e+00	0	57	104	0	56	16721
2026-01-25 00:08:41.95	13.15	6.10	-42.3	-56.2	3.8	1.49e+00	0	57	104	0	56	17614
2026-01-25 00:08:42.96	13.13	6.17	-42.3	-56.6	3.8	1.49e+00	0	57	104	0	56	18425
2026-01-25 00:08:43.97	13.11	6.25	-42.4	-56.8	3.8	1.49e+00	0	57	104	0	56	18868
2026-01-25 00:08:44.98	13.09	6.32	-42.4	-56.9	3.8	1.49e+00	0	57	104	0	56	18997
2026-01-25 00:08:45.99	13.06	6.40	-42.3	-56.7	3.8	1.49e+00	0	57	104	0	56	18696
2026-01-25 00:08:47.01	13.04	6.47	-42.3	-56.3	3.8	1.49e+00	0	57	104	0	56	17728
2026-01-25 00:08:48.02	13.02	6.55	-42.3	-55.6	3.8	1.49e+00	0	57	104	0	56	16442
2026-01-25 00:08:49.03	12.99	6.62	-42.2	-54.6	3.8	1.49e+00	0	57	104	0	56	14658
2026-01-25 00:08:50.04	12.97	6.70	-42.1	-53.5	4.2	1.48e+00	0	57	104	0	56	12815
2026-01-25 00:08:51.05	12.95	6.78	-42.0	-52.2	4.6	1.32e+00	0	57	0	1048576	56	11123
2026-01-25 00:08:52.06	12.92	6.85	-41.8	-51.1	5.0	7.85e-01	0	57	0	2097152	55	10390
2026-01-25 00:08:53.07	12.90	6.93	-41.6	-50.2	5.6	5.36e-01	0	57	0	4194304	55	9301
2026-01-25 00:08:54.08	12.87	7.01	-41.5	-49.6	6.0	4.03e-01	0	57	0	6291456	55	8748
2026-01-25 00:08:55.09	12.85	7.08	-41.4	-49.1	6.4	2.61e-01	0	57	0	8388608	54	8727
2026-01-25 00:08:56.10	12.83	7.16	-41.3	-48.5	6.9	1.96e-01	0	57	0	10485760	54	8165
2026-01-25 00:08:57.11	12.80	7.24	-41.1	-47.9	7.5	1.31e-01	0	57	0	11534336	54	7566
2026-01-25 00:08:58.12	12.78	7.31	-41.0	-47.4	8.0	7.93e-02	0	58	0	13631488	54	7136
2026-01-25 00:08:59.13	12.75	7.39	-41.0	-47.3	8.1	6.44e-02	0	57	0	15728640	54	7048
2026-01-25 00:09:00.14	12.73	7.47	-40.9	-47.1	8.2	5.33e-02	0	57	0	17825792	53	7316
2026-01-25 00:09:01.15	12.70	7.55	-40.9	-46.9	8.4	4.52e-02	0	57	0	19922944	53	7178
2026-01-25 00:09:02.17	12.68	7.63	-40.8	-46.8	8.6	4.42e-02	0	57	0	20971520	53	7079
2026-01-25 00:09:03.18	12.65	7.71	-40.8	-46.7	8.7	3.86e-02	0	57	0	23068672	53	6997
2026-01-25 00:09:04.19	12.63	7.78	-40.8	-46.8	8.5	3.42e-02	0	58	0	25165824	53	7113
2026-01-25 00:09:05.20	12.60	7.86	-40.9	-47.1	8.3	4.65e-02	0	57	0	27262976	53	7311
2026-01-25 00:09:06.21	12.57	7.94	-40.9	-47.2	8.2	5.54e-02	0	58	0	29360128	53	7427
2026-01-25 00:09:07.22	12.55	8.02	-41.1	-47.5	7.8	7.70e-02	0	58	0	30408704	53	7690
2026-01-25 00:09:08.23	12.52	8.10	-41.3	-47.4	8.3	4.41e-02	0	58	0	32505856	53	7579
2026-01-25 00:09:09.24	12.49	8.18	-41.0	-47.1	8.2	9.69e-02	0	58	0	34603008	53	7290
2026-01-25 00:09:10.25	12.47	8.26	-42.3	-55.9	3.8	7.25e-01	0	58	104	35651584	55	18046
2026-01-25 00:09:11.26	12.44	8.34	-41.3	-47.0	8.7	8.86e-02	0	58	0	35651584	54	6877
2026-01-25 00:09:12.27	12.41	8.42	-41.4	-49.7	5.7	2.94e-01	0	58	0	37748736	53	9942
2026-01-25 00:09:13.28	12.39	8.51	-40.7	-46.0	9.5	3.70e-02	0	58	0	39845888	53	6464
2026-01-25 00:09:14.29	12.36	8.59	-40.7	-46.0	9.6	1.33e-02	0	58	0	41943040	53	6447
2026-01-25 00:09:15.30	12.33	8.67	-40.7	-46.0	9.6	1.35e-02	0	58	0	44040192	53	6447
2026-01-25 00:09:16.31	12.30	8.75	-40.7	-46.0	9.5	1.45e-02	0	58	0	45088768	53	6453
2026-01-25 00:09:17.32	12.28	8.83	-40.7	-46.0	9.5	1.40e-02	0	58	0	47185920	53	6446
2026-01-25 00:09:18.33	12.25	8.91	-40.6	-45.9	9.6	1.34e-02	0	58	0	49283072	53	6408
2026-01-25 00:09:19.34	12.22	9.00	-40.6	-45.9	9.6	1.35e-02	0	58	0	51380224	53	6390
2026-01-25 00:09:20.35	12.19	9.08	-40.6	-45.7	9.8	1.09e-02	0	58	0	53477376	53	6261
2026-01-25 00:09:21.36	12.16	9.16	-40.5	-45.6	9.9	9.70e-03	0	58	0	54525952	53	6132
2026-01-25 00:09:22.37	12.13	9.25	-40.5	-45.5	10.0	7.99e-03	0	58	0	56623104	52	6482
2026-01-25 00:09:23.38	12.10	9.33	-40.5	-45.5	10.0	8.21e-03	0	58	0	58720256	52	6494
2026-01-25 00:09:24.39	12.08	9.41	-40.5	-45.6	10.0	7.26e-03	0	58	0	60817408	52	6530
2026-01-25 00:09:25.40	12.05	9.50	-40.5	-45.5	10.1	7.67e-03	0	58	0	62914560	52	6466
2026-01-25 00:09:26.41	12.02	9.58	-40.4	-45.3	10.2	7.15e-03	0	58	0	63963136	52	6346
2026-01-25 00:09:27.42	11.99	9.67	-40.4	-45.4	10.2	6.41e-03	0	58	0	66060288	52	6361
2026-01-25 00:09:28.43	11.96	9.75	-40.4	-45.4	10.2	6.12e-03	0	58	0	68157440	52	6369
2026-01-25 00:09:29.44	11.93	9.84	-40.4	-45.3	10.3	5.94e-03	0	58	0	70254592	52	6288
2026-01-25 00:09:30.44	11.90	9.92	-40.4	-45.1	10.5	4.97e-03	0	58	0	72351744	52	6194
2026-01-25 00:09:31.45	11.87	10.01	-40.4	-45.1	10.5	4.14e-03	0	58	0	73400320	52	6189
2026-01-25 00:09:32.46	11.84	10.10	-40.4	-45.2	10.4	4.33e-03	0	58	0	75497472	52	6215
2026-01-25 00:09:33.47	11.80	10.18	-40.4	-45.1	10.6	3.80e-03	0	58	0	77594624	52	6143
2026-01-25 00:09:34.48	11.77	10.27	-40.4	-45.2	10.5	3.98e-03	0	59	0	79691776	52	6205
2026-01-25 00:09:35.49	11.74	10.36	-40.4	-45.1	10.6	3.82e-03	0	59	0	81788928	52	6133
2026-01-25 00:09:36.50	11.71	10.44	-40.3	-45.0	10.7	2.98e-03	0	58	0	83886080	52	6069
2026-01-25 00:09:37.51	11.68	10.53	-40.4	-45.1	10.7	3.29e-03	0	58	0	84934656	52	6142
2026-01-25 00:09:38.52	11.65	10.62	-40.3	-44.9	10.8	2.55e-03	0	59	0	87031808	52	6018
2026-01-25 00:09:39.53	11.61	10.71	-40.4	-45.0	10.8	2.54e-03	0	58	0	89128960	52	6105
2026-01-25 00:09:40.54	11.58	10.80	-40.5	-45.1	10.7	2.35e-03	0	58	0	91226112	52	6183
2026-01-25 00:09:41.55	11.55	10.89	-40.5	-45.1	10.7	3.25e-03	0	59	0	93323264	52	6189
2026-01-25 00:09:42.56	11.52	10.98	-40.6	-45.3	10.5	3.66e-03	0	59	0	94371840	52	6321
2026-01-25 00:09:43.57	11.48	11.07	-40.6	-45.4	10.5	3.53e-03	0	59	0	96468992	52	6359
2026-01-25 00:09:44.58	11.45	11.16	-40.6	-45.3	10.7	3.09e-03	0	59	0	98566144	52	6296
2026-01-25 00:09:45.59	11.42	11.25	-40.6	-45.3	10.6	3.64e-03	0	59	0	100663296	52	6333
2026-01-25 00:09:46.60	11.38	11.34	-40.6	-45.2	10.8	2.36e-03	0	59	0	102760448	52	6248
2026-01-25 00:09:47.61	11.35	11.43	-40.6	-45.1	10.9	2.07e-03	0	59	0	103809024	52	6185
2026-01-25 00:09:48.62	11.31	11.52	-40.6	-45.0	11.2	1.67e-03	0	59	0	105906176	52	6076
2026-01-25 00:09:49.63	11.28	11.61	-40.5	-44.9	11.1	1.49e-03	0	59	0	108003328	52	6058
2026-01-25 00:09:50.64	11.24	11.70	-40.5	-44.9	11.2	1.28e-03	0	59	0	110100480	52	6031
2026-01-25 00:09:51.65	11.21	11.79	-40.5	-44.9	11.2	1.29e-03	0	59	0	112197632	52	6008
2026-01-25 00:09:52.66	11.17	11.89	-40.5	-44.6	11.5	9.66e-04	0	59	0	113246208	52	5848
2026-01-25 00:09:53.66	11.14	11.98	-40.5	-44.6	11.6	7.48e-04	0	59	0	115343360	52	5841
2026-01-25 00:09:54.67	11.10	12.07	-40.6	-44.8	11.5	7.03e-04	0	59	0	117440512	52	5927
2026-01-25 00:09:55.68	11.07	12.17	-40.6	-44.7	11.7	5.55e-04	0	59	0	119537664	52	5867
2026-01-25 00:09:56.69	11.03	12.26	-40.6	-44.7	11.8	4.98e-04	0	59	0	121634816	52	5867
2026-01-25 00:09:57.70	10.99	12.35	-40.6	-44.6	11.8	4.90e-04	0	59	0	122683392	52	5843
2026-01-25 00:09:58.71	10.96	12.45	-40.7	-44.7	11.8	5.35e-04	0	59	0	124780544	52	5879
2026-01-25 00:09:59.72	10.92	12.54	-40.7	-44.8	11.8	4.47e-04	0	59	0	126877696	52	5935
2026-01-25 00:10:00.73	10.88	12.64	-40.8	-44.9	11.8	4.85e-04	0	59	0	128974848	52	6000
2026-01-25 00:10:01.74	10.84	12.73	-40.9	-45.0	11.7	5.71e-04	0	59	0	131072000	52	6064
2026-01-25 00:10:02.75	10.81	12.83	-40.9	-44.9	11.8	5.38e-04	0	59	0	132120576	52	6028
2026-01-25 00:10:03.76	10.77	12.93	-40.8	-44.8	12.0	3.94e-04	0	59	0	134217728	52	5945
2026-01-25 00:10:04.77	10.73	13.02	-40.7	-44.5	12.3	2.61e-04	0	59	0	136314880	52	5744
2026-01-25 00:10:05.78	10.69	13.12	-40.6	-44.3	12.5	1.46e-04	0	59	0	138412032	52	5645
2026-01-25 00:10:06.79	10.65	13.22	-40.7	-44.4	12.6	1.14e-04	0	59	0	140509184	52	5658
2026-01-25 00:10:07.80	10.61	13.32	-40.8	-44.6	12.3	1.29e-04	0	59	0	142606336	52	5826
2026-01-25 00:10:08.81	10.57	13.41	-40.8	-44.7	12.2	1.60e-04	0	59	0	143654912	52	5871
2026-01-25 00:10:09.81	10.53	13.51	-40.7	-44.5	12.5	1.67e-04	0	59	0	145752064	52	5733
2026-01-25 00:10:10.82	10.49	13.61	-40.7	-44.3	12.7	1.11e-04	0	59	0	147849216	52	5644
2026-01-25 00:10:11.83	10.45	13.71	-40.6	-44.2	12.9	6.02e-05	0	59	0	149946368	52	5546
2026-01-25 00:10:12.84	10.41	13.81	-40.7	-44.3	12.8	6.79e-05	0	59	0	152043520	52	5631
2026-01-25 00:10:13.85	10.37	13.91	-40.8	-44.4	12.6	7.01e-05	0	59	0	153092096	52	5715
2026-01-25 00:10:14.86	10.33	14.01	-40.7	-44.4	12.8	8.23e-05	0	59	0	155189248	52	5659
2026-01-25 00:10:15.87	10.29	14.11	-40.7	-44.3	12.8	5.64e-05	0	59	0	157286400	52	5652
2026-01-25 00:10:16.88	10.25	14.21	-40.7	-44.3	12.8	5.03e-05	0	59	0	159383552	52	5598
2026-01-25 00:10:17.89	10.20	14.32	-40.7	-44.2	13.0	4.73e-05	0	59	0	160432128	52	5536
2026-01-25 00:10:18.90	10.16	14.42	-40.6	-44.1	13.1	3.89e-05	0	59	0	162529280	52	5507
2026-01-25 00:10:19.91	10.12	14.52	-40.7	-44.2	13.0	3.50e-05	0	59	0	164626432	52	5590
2026-01-25 00:10:20.92	10.08	14.62	-40.7	-44.1	13.2	2.59e-05	0	60	0	166723584	52	5482
2026-01-25 00:10:21.93	10.03	14.73	-40.7	-44.0	13.2	2.51e-05	0	60	0	168820736	52	5464
2026-01-25 00:10:22.94	9.99	14.83	-40.8	-44.3	13.1	2.59e-05	0	60	0	170917888	52	5597
2026-01-25 00:10:23.95	9.94	14.94	-40.8	-44.2	13.1	3.43e-05	0	59	0	171966464	52	5568
2026-01-25 00:10:24.96	9.90	15.04	-40.7	-44.1	13.3	2.28e-05	0	60	0	174063616	52	5483
2026-01-25 00:10:25.97	9.85	15.15	-40.8	-44.2	13.2	2.59e-05	0	59	0	176160768	52	5581
2026-01-25 00:10:26.98	9.81	15.25	-40.8	-44.2	13.3	2.44e-05	0	59	0	178257920	52	5562
2026-01-25 00:10:27.99	9.76	15.36	-40.9	-44.3	13.2	2.05e-05	0	60	0	180355072	52	5610
2026-01-25 00:10:29.00	9.72	15.47	-40.9	-44.3	13.2	2.59e-05	0	60	0	181403648	52	5645
2026-01-25 00:10:30.01	9.67	15.57	-40.8	-44.2	13.2	3.12e-05	0	59	0	183500800	52	5588
2026-01-25 00:10:31.02	9.62	15.68	-40.8	-44.2	13.3	1.67e-05	0	60	0	185597952	52	5574
2026-01-25 00:10:32.03	9.58	15.79	-40.9	-44.3	13.2	1.90e-05	0	60	0	187695104	52	5651
2026-01-25 00:10:33.04	9.53	15.90	-40.8	-44.2	13.4	2.36e-05	0	60	0	189792256	52	5550
2026-01-25 00:10:34.05	9.48	16.01	-40.8	-44.1	13.5	1.52e-05	0	60	0	190840832	52	5524
2026-01-25 00:10:35.05	9.43	16.11	-40.9	-44.2	13.4	1.44e-05	0	59	0	192937984	52	5582
2026-01-25 00:10:36.06	9.39	16.22	-40.9	-44.3	13.3	1.98e-05	0	60	0	195035136	52	5608
2026-01-25 00:10:37.07	9.34	16.33	-40.9	-44.3	13.3	1.29e-05	0	60	0	197132288	52	5651
2026-01-25 00:10:38.08	9.29	16.44	-40.8	-44.1	13.5	2.21e-05	0	60	0	199229440	52	5510
2026-01-25 00:10:39.09	9.24	16.56	-40.8	-44.1	13.5	6.10e-06	0	60	0	200278016	52	5522
2026-01-25 00:10:40.10	9.19	16.67	-40.8	-44.1	13.5	8.30e-06	0	60	0	202375168	52	5515
2026-01-25 00:10:41.11	9.14	16.78	-40.9	-44.2	13.4	9.90e-06	0	60	0	204472320	52	5578
2026-01-25 00:10:42.13	9.09	16.89	-40.9	-44.2	13.5	1.75e-05	0	60	0	206569472	52	5570
2026-01-25 00:10:43.14	9.03	17.01	-40.9	-44.1	13.6	9.90e-06	0	60	0	208666624	52	5516
2026-01-25 00:10:44.14	8.98	17.12	-41.0	-44.3	13.4	9.10e-06	0	60	0	210763776	52	5644
2026-01-25 00:10:45.15	8.93	17.23	-40.9	-44.2	13.5	1.37e-05	0	60	0	211812352	52	5583
2026-01-25 00:10:46.16	8.88	17.35	-40.9	-44.2	13.5	7.60e-06	0	60	0	213909504	52	5549
2026-01-25 00:10:47.17	8.82	17.46	-40.8	-44.1	13.6	7.60e-06	0	60	0	216006656	52	5480
2026-01-25 00:10:48.18	8.77	17.58	-40.9	-44.1	13.7	4.50e-06	0	60	0	218103808	52	5494
2026-01-25 00:10:49.19	8.72	17.70	-40.9	-44.2	13.6	8.30e-06	0	60	0	219152384	52	5568
2026-01-25 00:10:50.20	8.66	17.81	-40.8	-44.0	13.8	7.60e-06	0	60	0	221249536	52	5455
2026-01-25 00:10:51.21	8.61	17.93	-40.9	-44.1	13.7	8.30e-06	0	60	0	223346688	52	5493
2026-01-25 00:10:52.22	8.55	18.05	-40.9	-44.1	13.7	7.60e-06	0	60	0	225443840	52	5503
2026-01-25 00:10:53.23	8.50	18.17	-40.9	-44.2	13.6	3.80e-06	0	60	0	227540992	52	5542
2026-01-25 00:10:54.24	8.44	18.29	-40.8	-44.0	13.8	9.90e-06	0	60	0	228589568	52	5445
2026-01-25 00:10:55.25	8.38	18.41	-40.8	-44.0	13.8	3.80e-06	0	60	0	230686720	52	5422
2026-01-25 00:10:56.26	8.33	18.53	-40.8	-43.9	13.9	3.00e-06	0	60	0	232783872	52	5368
2026-01-25 00:10:57.27	8.27	18.65	-40.8	-44.0	13.8	6.80e-06	0	60	0	234881024	52	5431
2026-01-25 00:10:58.27	8.21	18.77	-40.9	-44.1	13.7	4.50e-06	0	60	0	236978176	52	5517
2026-01-25 00:10:59.28	8.15	18.89	-40.9	-44.0	13.8	3.80e-06	0	60	0	239075328	52	5463
2026-01-25 00:11:00.29	8.09	19.01	-40.9	-44.2	13.7	4.50e-06	0	60	0	240123904	52	5539
2026-01-25 00:11:01.30	8.03	19.13	-40.9	-44.1	13.7	6.80e-06	0	60	0	242221056	52	5524
2026-01-25 00:11:02.31	7.97	19.26	-41.0	-44.2	13.7	6.80e-06	0	60	0	244318208	52	5542
2026-01-25 00:11:03.32	7.91	19.38	-40.9	-44.0	13.8	6.80e-06	0	60	0	246415360	52	5460
2026-01-25 00:11:04.33	7.85	19.50	-40.9	-44.0	13.8	4.50e-06	0	60	0	248512512	52	5464
2026-01-25 00:11:05.34	7.79	19.63	-40.9	-44.0	13.8	6.10e-06	0	60	0	249561088	52	5445
2026-01-25 00:11:06.35	7.73	19.76	-40.9	-44.1	13.8	3.00e-06	0	60	0	251658240	52	5487
2026-01-25 00:11:07.36	7.66	19.88	-40.9	-44.1	13.8	6.80e-06	0	60	0	253755392	52	5476
2026-01-25 00:11:08.37	7.60	20.01	-40.9	-44.1	13.7	6.10e-06	0	60	0	255852544	52	5521
2026-01-25 00:11:09.38	7.54	20.14	-41.0	-44.2	13.7	4.50e-06	0	60	0	257949696	52	5547
2026-01-25 00:11:10.39	7.47	20.27	-41.0	-44.1	13.7	3.00e-06	0	60	0	258998272	52	5528
2026-01-25 00:11:11.39	7.41	20.39	-40.9	-44.1	13.8	5.30e-06	0	60	0	261095424	52	5516
2026-01-25 00:11:12.40	7.34	20.52	-40.9	-44.1	13.8	2.20e-06	0	60	0	263192576	52	5499
2026-01-25 00:11:13.41	7.28	20.65	-41.0	-44.2	13.7	4.50e-06	0	60	0	265289728	52	5537
2026-01-25 00:11:14.42	7.21	20.78	-41.0	-44.2	13.7	5.30e-06	0	60	0	267386880	52	5539
2026-01-25 00:11:15.43	7.14	20.91	-41.0	-44.2	13.7	6.80e-06	0	60	0	268435456	52	5540
2026-01-25 00:11:16.44	7.07	21.05	-41.1	-44.3	13.6	6.80e-06	0	60	0	270532608	52	5622
2026-01-25 00:11:17.45	7.01	21.18	-41.0	-44.2	13.7	6.10e-06	0	60	0	272629760	52	5575
2026-01-25 00:11:18.46	6.94	21.31	-41.0	-44.2	13.7	6.80e-06	0	60	0	274726912	52	5551
2026-01-25 00:11:19.47	6.87	21.45	-41.1	-44.3	13.7	6.10e-06	0	60	0	276824064	52	5607
2026-01-25 00:11:20.48	6.80	21.58	-41.0	-44.2	13.8	3.80e-06	0	60	0	277872640	52	5545
2026-01-25 00:11:21.49	6.72	21.72	-41.0	-44.2	13.7	6.80e-06	0	60	0	279969792	52	5569
2026-01-25 00:11:22.50	6.65	21.85	-41.0	-44.2	13.8	2.20e-06	0	60	0	282066944	52	5545
2026-01-25 00:11:23.51	6.58	21.99	-41.0	-44.2	13.7	7.60e-06	0	60	0	284164096	52	5592
2026-01-25 00:11:24.52	6.51	22.13	-41.0	-44.2	13.7	6.80e-06	0	60	0	286261248	52	5577
2026-01-25 00:11:25.53	6.43	22.27	-41.0	-44.2	13.8	3.80e-06	0	60	0	287309824	52	5543
2026-01-25 00:11:26.54	6.36	22.40	-41.0	-44.2	13.8	3.80e-06	0	60	0	289406976	52	5533
2026-01-25 00:11:27.55	6.28	22.54	-41.0	-44.2	13.8	3.80e-06	0	60	0	291504128	52	5545
2026-01-25 00:11:28.56	6.21	22.68	-41.0	-44.2	13.8	2.20e-06	0	60	0	293601280	52	5538
2026-01-25 00:11:29.57	6.13	22.83	-41.1	-44.4	13.6	5.30e-06	0	60	0	295698432	52	5682
2026-01-25 00:11:30.58	6.05	22.97	-41.1	-44.3	13.7	1.06e-05	0	60	0	296747008	52	5616
2026-01-25 00:11:31.59	5.97	23.11	-41.1	-44.3	13.7	3.00e-06	0	60	0	298844160	52	5654
2026-01-25 00:11:32.60	5.90	23.25	-41.1	-44.3	13.7	6.10e-06	0	60	0	300941312	52	5603
2026-01-25 00:11:33.61	5.82	23.40	-41.1	-44.2	13.7	4.50e-06	0	60	0	303038464	52	5587
2026-01-25 00:11:34.62	5.73	23.54	-41.1	-44.3	13.7	5.30e-06	0	60	0	305135616	52	5603
2026-01-25 00:11:35.63	5.65	23.69	-41.2	-44.4	13.6	5.30e-06	0	60	0	307232768	52	5694
2026-01-25 00:11:36.64	5.57	23.83	-41.1	-44.3	13.6	7.60e-06	0	60	0	308281344	52	5652
2026-01-25 00:11:37.65	5.49	23.98	-41.2	-44.4	13.6	9.10e-06	0	61	0	310378496	53	5381
2026-01-25 00:11:38.66	5.40	24.13	-41.2	-44.6	13.4	2.20e-06	0	60	0	312475648	53	5469
2026-01-25 00:11:39.67	5.32	24.28	-41.2	-44.5	13.5	1.14e-05	0	60	0	314572800	53	5453
2026-01-25 00:11:40.68	5.23	24.42	-41.3	-44.7	13.4	1.60e-05	0	60	0	316669952	53	5529
2026-01-25 00:11:41.69	5.15	24.57	-41.3	-44.6	13.4	1.67e-05	0	60	0	317718528	53	5480
2026-01-25 00:11:42.69	5.06	24.72	-41.3	-44.7	13.3	9.90e-06	0	60	0	319815680	53	5570
2026-01-25 00:11:43.71	4.97	24.88	-41.4	-44.8	13.3	1.98e-05	0	60	0	321912832	53	5598
2026-01-25 00:11:44.71	4.89	25.03	-41.4	-44.9	13.1	3.12e-05	0	60	0	324009984	53	5695
2026-01-25 00:11:45.73	4.79	25.18	-41.6	-45.1	12.9	3.35e-05	0	60	0	326107136	53	5827
2026-01-25 00:11:46.74	4.70	25.34	-41.5	-45.1	12.9	4.57e-05	0	61	0	327155712	53	5814
2026-01-25 00:11:47.75	4.61	25.49	-41.6	-45.2	12.7	5.26e-05	0	61	0	329252864	53	5920
2026-01-25 00:11:48.76	4.52	25.65	-41.6	-45.2	12.9	5.64e-05	0	60	0	331350016	53	5860
2026-01-25 00:11:49.77	4.43	25.80	-41.6	-45.3	12.7	5.26e-05	0	61	0	333447168	53	5932
2026-01-25 00:11:50.78	4.33	25.96	-41.7	-45.4	12.6	8.01e-05	0	60	0	335544320	53	6011
2026-01-25 00:11:51.79	4.24	26.12	-41.8	-45.5	12.5	8.85e-05	0	61	0	336592896	54	5751
2026-01-25 00:11:52.79	4.14	26.28	-41.8	-45.5	12.5	1.53e-04	0	61	0	338690048	54	5742
2026-01-25 00:11:53.81	4.04	26.44	-41.9	-45.7	12.3	1.56e-04	0	60	0	340787200	54	5892
2026-01-25 00:11:54.82	3.94	26.60	-41.9	-45.8	12.2	2.03e-04	0	60	0	342884352	54	5965
2026-01-25 00:11:55.82	3.85	26.76	-42.0	-45.9	12.1	2.22e-04	0	61	0	344981504	54	6041
2026-01-25 00:11:56.83	3.74	26.92	-42.0	-46.0	12.0	3.17e-04	0	61	0	346030080	54	6124
2026-01-25 00:11:57.84	3.64	27.08	-42.1	-46.1	11.8	3.66e-04	0	61	0	348127232	54	6201
2026-01-25 00:11:58.85	3.54	27.25	-42.2	-46.3	11.7	5.83e-04	0	61	0	350224384	54	6302
2026-01-25 00:11:59.86	3.44	27.41	-42.2	-46.4	11.5	7.57e-04	0	60	0	352321536	55	6059
2026-01-25 00:12:00.87	3.33	27.58	-42.3	-46.6	11.4	8.20e-04	0	61	0	354418688	55	6175
2026-01-25 00:12:01.88	3.23	27.75	-42.3	-46.7	11.3	1.12e-03	0	61	0	355467264	55	6209
2026-01-25 00:12:02.89	3.12	27.91	-42.4	-46.9	11.1	1.33e-03	0	61	0	357564416	55	6366
2026-01-25 00:12:03.90	3.01	28.08	-42.5	-47.0	11.0	1.81e-03	0	61	0	359661568	55	6457
2026-01-25 00:12:04.91	2.90	28.25	-42.6	-47.1	10.8	2.08e-03	0	61	0	361758720	55	6557
2026-01-25 00:12:05.91	2.79	28.42	-42.6	-47.2	10.7	2.22e-03	0	60	0	363855872	55	6630
2026-01-25 00:12:06.92	2.68	28.59	-42.6	-47.2	10.8	2.49e-03	0	61	0	364904448	55	6575
2026-01-25 00:12:07.93	2.57	28.76	-42.5	-47.1	10.9	2.53e-03	0	60	0	367001600	55	6497
2026-01-25 00:12:08.94	2.45	28.94	-42.6	-47.2	10.8	2.49e-03	0	61	0	369098752	55	6575
2026-01-25 00:12:09.95	2.34	29.11	-42.6	-47.2	10.8	2.56e-03	0	61	0	371195904	55	6616
2026-01-25 00:12:10.96	2.22	29.29	-42.6	-47.3	10.7	2.82e-03	0	61	0	373293056	55	6651
2026-01-25 00:12:11.97	2.10	29.46	-42.7	-47.5	10.5	3.25e-03	0	61	0	375390208	55	6822
2026-01-25 00:12:12.98	1.98	29.64	-42.9	-47.7	10.4	4.37e-03	0	61	0	376438784	56	6583
2026-01-25 00:12:13.99	1.86	29.82	-43.0	-48.0	10.1	5.48e-03	0	61	0	378535936	56	6845
2026-01-25 00:12:15.00	1.74	30.00	-43.0	-48.0	10.1	6.45e-03	0	61	0	380633088	56	6872
2026-01-25 00:12:16.01	1.61	30.18	-43.0	-48.1	10.1	7.37e-03	0	61	0	382730240	56	6896
2026-01-25 00:12:17.02	1.49	30.36	-43.1	-48.2	10.0	8.41e-03	0	61	0	384827392	56	6967
2026-01-25 00:12:18.03	1.36	30.54	-43.1	-48.2	9.9	8.93e-03	0	61	0	385875968	56	6975
2026-01-25 00:12:19.04	1.23	30.72	-43.1	-48.3	9.7	9.03e-03	0	61	0	387973120	56	7116
2026-01-25 00:12:20.05	1.10	30.91	-43.0	-48.1	10.0	8.35e-03	0	61	0	390070272	56	6909
2026-01-25 00:12:21.06	0.97	31.09	-43.1	-48.1	10.0	7.07e-03	0	61	0	392167424	56	6957
2026-01-25 00:12:22.07	0.84	31.28	-43.1	-48.2	10.0	7.81e-03	0	61	0	394264576	56	6985
2026-01-25 00:12:23.08	0.70	31.47	-43.1	-48.3	9.9	8.31e-03	0	61	0	395313152	56	7043
2026-01-25 00:12:24.09	0.57	31.65	-43.2	-48.4	9.8	9.55e-03	0	61	0	397410304	56	7123
2026-01-25 00:12:25.10	0.43	31.84	-43.2	-48.5	9.6	1.04e-02	0	61	0	399507456	56	7239
2026-01-25 00:12:26.11	0.29	32.03	-43.3	-48.7	9.5	1.37e-02	0	61	0	401604608	57	6974
2026-01-25 00:12:27.12	0.15	32.22	-43.3	-48.6	9.5	1.54e-02	0	61	0	403701760	57	6920
2026-01-25 00:12:28.13	0.01	32.42	-43.3	-48.9	9.3	1.74e-02	0	61	0	404750336	57	7129
2026-01-25 00:12:29.14	359.86	32.61	-43.4	-48.9	9.2	1.92e-02	0	61	0	406847488	57	7173
2026-01-25 00:12:30.15	359.72	32.80	-43.3	-48.8	9.3	1.75e-02	0	61	0	408944640	57	7098
2026-01-25 00:12:31.15	359.57	33.00	-43.4	-48.9	9.2	1.79e-02	0	61	0	411041792	57	7144
2026-01-25 00:12:32.16	359.42	33.19	-43.3	-48.8	9.3	2.05e-02	0	61	0	413138944	57	7063
2026-01-25 00:12:33.17	359.27	33.39	-43.3	-48.8	9.3	1.93e-02	0	61	0	414187520	57	7078
2026-01-25 00:12:34.18	359.11	33.59	-43.4	-49.0	9.2	1.85e-02	0	61	0	416284672	57	7215
2026-01-25 00:12:35.19	358.96	33.79	-43.3	-48.7	9.4	1.67e-02	0	61	0	418381824	57	7034
2026-01-25 00:12:36.20	358.80	33.99	-43.4	-48.8	9.3	1.84e-02	0	61	0	420478976	57	7108
2026-01-25 00:12:37.21	358.64	34.19	-43.4	-49.0	9.2	1.88e-02	0	61	0	422576128	57	7215
2026-01-25 00:12:38.22	358.48	34.39	-43.4	-49.0	9.1	2.05e-02	0	61	0	423624704	57	7273
2026-01-25 00:12:39.23	358.32	34.60	-43.4	-48.9	9.2	1.99e-02	0	61	0	425721856	57	7184
2026-01-25 00:12:40.24	358.15	34.80	-43.4	-48.9	9.3	1.91e-02	0	61	0	427819008	57	7168
2026-01-25 00:12:41.25	357.98	35.01	-43.5	-49.3	8.9	1.97e-02	0	61	0	429916160	57	7477
2026-01-25 00:12:42.26	357.81	35.21	-43.5	-49.2	8.9	2.72e-02	0	61	0	432013312	57	7428
2026-01-25 00:12:43.27	357.64	35.42	-43.6	-49.4	8.8	2.84e-02	0	61	0	433061888	57	7587
2026-01-25 00:12:44.28	357.46	35.63	-43.5	-49.3	8.9	3.19e-02	0	61	0	435159040	57	7489
2026-01-25 00:12:45.29	357.29	35.84	-43.5	-49.2	9.0	2.53e-02	0	61	0	437256192	57	7392
2026-01-25 00:12:46.30	357.11	36.05	-43.5	-49.1	9.1	2.32e-02	0	61	0	439353344	57	7339
2026-01-25 00:12:47.31	356.93	36.26	-43.4	-48.8	9.3	1.89e-02	0	61	0	441450496	57	7114
2026-01-25 00:12:48.32	356.74	36.48	-43.4	-48.9	9.3	1.77e-02	0	61	0	443547648	57	7147
2026-01-25 00:12:49.33	356.56	36.69	-43.4	-48.9	9.3	1.91e-02	0	61	0	444596224	57	7162
2026-01-25 00:12:50.34	356.37	36.91	-43.4	-48.8	9.4	1.59e-02	0	61	0	446693376	57	7084
2026-01-25 00:12:51.35	356.18	37.12	-43.2	-48.3	9.9	1.34e-02	0	61	0	448790528	57	6706
2026-01-25 00:12:52.35	355.98	37.34	-43.2	-48.3	10.0	8.92e-03	0	61	0	450887680	57	6674
2026-01-25 00:12:53.36	355.79	37.56	-43.1	-48.1	10.2	6.99e-03	0	61	0	452984832	57	6537
2026-01-25 00:12:54.37	355.59	37.78	-43.1	-48.0	10.3	5.29e-03	0	61	0	454033408	57	6452
2026-01-25 00:12:55.38	355.38	38.00	-43.1	-48.1	10.2	6.20e-03	0	61	0	456130560	57	6533
2026-01-25 00:12:56.39	355.18	38.22	-43.1	-48.1	10.2	6.62e-03	0	61	0	458227712	57	6507
2026-01-25 00:12:57.40	354.97	38.44	-43.1	-48.1	10.2	5.52e-03	0	61	0	460324864	57	6499
2026-01-25 00:12:58.41	354.76	38.67	-43.1	-47.9	10.3	5.27e-03	0	61	0	462422016	57	6380
2026-01-25 00:12:59.42	354.55	38.89	-43.0	-47.7	10.6	4.19e-03	0	61	0	463470592	57	6240
2026-01-25 00:13:00.43	354.33	39.12	-43.0	-47.6	10.7	3.68e-03	0	61	0	465567744	57	6185
2026-01-25 00:13:01.44	354.11	39.34	-42.9	-47.5	10.7	3.13e-03	0	61	0	467664896	57	6117
2026-01-25 00:13:02.45	353.89	39.57	-42.9	-47.5	10.8	2.65e-03	0	61	0	469762048	57	6090
2026-01-25 00:13:03.46	353.66	39.80	-42.9	-47.5	10.8	2.54e-03	0	61	0	471859200	57	6103
2026-01-25 00:13:04.47	353.43	40.03	-43.0	-47.8	10.5	3.06e-03	0	61	0	472907776	57	6280
2026-01-25 00:13:05.48	353.20	40.26	-43.1	-48.0	10.3	4.62e-03	0	61	0	475004928	57	6434
2026-01-25 00:13:06.49	352.96	40.49	-43.1	-47.9	10.4	4.62e-03	0	61	0	477102080	57	6368
2026-01-25 00:13:07.50	352.72	40.73	-43.2	-48.2	10.1	6.71e-03	0	61	0	479199232	57	6631
2026-01-25 00:13:08.51	352.48	40.96	-43.2	-48.1	10.2	6.02e-03	0	61	0	481296384	57	6540
2026-01-25 00:13:09.52	352.23	41.19	-43.2	-48.1	10.1	5.13e-03	0	61	0	482344960	57	6548
2026-01-25 00:13:10.53	351.98	41.43	-43.3	-48.4	9.9	7.99e-03	0	61	0	484442112	57	6748
2026-01-25 00:13:11.54	351.72	41.67	-43.3	-48.4	9.9	8.38e-03	0	61	0	486539264	57	6765
2026-01-25 00:13:12.55	351.47	41.90	-43.3	-48.5	9.8	9.55e-03	0	61	0	488636416	57	6853
2026-01-25 00:13:13.56	351.20	42.14	-43.2	-48.1	10.2	6.87e-03	0	61	0	490733568	57	6533
2026-01-25 00:13:14.57	350.94	42.38	-43.1	-47.9	10.4	4.54e-03	0	61	0	491782144	57	6394
2026-01-25 00:13:15.58	350.67	42.62	-43.1	-47.8	10.5	4.84e-03	0	61	0	493879296	57	6333
2026-01-25 00:13:16.59	350.39	42.86	-43.1	-48.0	10.3	5.83e-03	0	61	0	495976448	57	6481
2026-01-25 00:13:17.60	350.12	43.10	-43.1	-47.8	10.5	5.08e-03	0	61	0	498073600	57	6326
2026-01-25 00:13:18.61	349.83	43.34	-42.9	-47.5	10.8	3.20e-03	0	61	0	500170752	57	6131
2026-01-25 00:13:19.62	349.55	43.59	-42.9	-47.3	11.1	1.97e-03	0	61	0	501219328	57	5975
2026-01-25 00:13:20.63	349.25	43.83	-42.7	-47.0	11.4	1.37e-03	0	61	0	503316480	57	5770
2026-01-25 00:13:21.64	348.96	44.07	-42.7	-47.0	11.4	9.80e-04	0	61	0	505413632	57	5732
2026-01-25 00:13:22.65	348.66	44.32	-42.7	-46.9	11.4	9.18e-04	0	61	0	507510784	57	5703
2026-01-25 00:13:23.66	348.35	44.57	-42.8	-47.2	11.2	1.15e-03	0	61	0	509607936	57	5900
2026-01-25 00:13:24.67	348.04	44.81	-42.8	-47.2	11.2	1.39e-03	0	61	0	511705088	57	5881
2026-01-25 00:13:25.68	347.73	45.06	-42.8	-47.1	11.3	1.23e-03	0	61	0	512753664	57	5826
2026-01-25 00:13:26.69	347.41	45.31	-42.7	-47.0	11.4	9.67e-04	0	61	0	514850816	57	5732
2026-01-25 00:13:27.70	347.08	45.55	-42.7	-46.9	11.5	8.12e-04	0	61	0	516947968	57	5702
2026-01-25 00:13:28.71	346.75	45.80	-42.7	-47.0	11.5	8.97e-04	0	61	0	519045120	57	5735
2026-01-25 00:13:29.72	346.42	46.05	-42.8	-47.2	11.2	1.18e-03	0	61	0	521142272	57	5879
2026-01-25 00:13:30.73	346.08	46.30	-42.9	-47.4	11.0	1.84e-03	0	61	0	522190848	57	6011
2026-01-25 00:13:31.74	345.73	46.55	-42.9	-47.4	11.0	1.91e-03	0	61	0	524288000	57	6007
2026-01-25 00:13:32.75	345.38	46.80	-42.9	-47.3	11.0	2.02e-03	0	61	0	526385152	57	5960
2026-01-25 00:13:33.76	345.02	47.05	-42.9	-47.5	10.9	2.34e-03	0	61	0	528482304	57	6086
2026-01-25 00:13:34.77	344.65	47.30	-42.9	-47.4	10.9	2.28e-03	0	61	0	530579456	57	6016
2026-01-25 00:13:35.78	344.28	47.55	-43.0	-47.5	10.8	2.32e-03	0	61	0	531628032	57	6112
2026-01-25 00:13:36.79	343.91	47.80	-42.9	-47.4	10.9	2.25e-03	0	61	0	533725184	57	6051
2026-01-25 00:13:37.80	343.53	48.05	-42.9	-47.4	11.0	2.06e-03	0	61	0	535822336	57	6001
2026-01-25 00:13:38.81	343.14	48.30	-42.9	-47.3	11.1	1.65e-03	0	61	0	537919488	57	5950
2026-01-25 00:13:39.82	342.74	48.55	-42.8	-47.1	11.3	1.26e-03	0	61	0	540016640	57	5855
2026-01-25 00:13:40.83	342.34	48.81	-42.7	-46.9	11.6	9.74e-04	0	61	0	541065216	57	5659
2026-01-25 00:13:41.83	341.94	49.05	-42.5	-46.6	11.9	4.56e-04	0	61	0	543162368	57	5480
2026-01-25 00:13:42.85	341.52	49.31	-42.6	-46.7	11.7	3.51e-04	0	61	0	545259520	57	5529
2026-01-25 00:13:43.86	341.10	49.56	-42.6	-46.8	11.7	5.61e-04	0	61	0	547356672	57	5593
2026-01-25 00:13:44.86	340.67	49.81	-42.6	-46.8	11.7	5.56e-04	0	61	0	549453824	57	5613
2026-01-25 00:13:45.87	340.24	50.05	-42.6	-46.6	11.9	5.71e-04	0	61	0	550502400	57	5483
2026-01-25 00:13:46.88	339.80	50.30	-42.5	-46.5	12.0	3.91e-04	0	61	0	552599552	57	5437
2026-01-25 00:13:47.89	339.35	50.55	-42.5	-46.6	11.8	5.75e-04	0	61	0	554696704	57	5473
2026-01-25 00:13:48.90	338.89	50.80	-42.6	-46.6	11.8	4.81e-04	0	61	0	556793856	57	5487
2026-01-25 00:13:49.91	338.42	51.05	-42.5	-46.4	12.0	4.43e-04	0	61	0	558891008	57	5385
2026-01-25 00:13:50.92	337.95	51.30	-42.2	-45.8	12.7	1.52e-04	0	61	0	559939584	56	5326
2026-01-25 00:13:51.93	337.47	51.54	-41.8	-45.2	13.1	4.50e-05	0	61	0	562036736	55	5258
2026-01-25 00:13:52.94	336.98	51.79	-41.6	-44.9	13.4	1.90e-05	0	61	0	564133888	55	5100
2026-01-25 00:13:53.95	336.48	52.03	-41.5	-44.6	13.7	1.22e-05	0	61	0	566231040	54	5208
2026-01-25 00:13:54.96	335.98	52.27	-41.3	-44.4	13.9	6.80e-06	0	61	0	568328192	54	5068
2026-01-25 00:13:55.97	335.46	52.52	-41.1	-44.1	14.3	7.00e-07	0	61	0	569376768	54	4882
2026-01-25 00:13:56.98	334.94	52.76	-41.1	-44.0	14.3	7.00e-07	0	61	0	571473920	54	4870
2026-01-25 00:13:57.99	334.41	53.00	-41.4	-44.5	13.8	2.20e-06	0	61	0	573571072	54	5153
2026-01-25 00:13:59.00	333.87	53.23	-41.4	-44.6	13.8	1.06e-05	0	61	0	575668224	54	5171
2026-01-25 00:14:00.00	333.32	53.47	-41.4	-44.5	13.8	6.80e-06	0	61	0	577765376	54	5143
2026-01-25 00:14:01.01	332.77	53.70	-41.4	-44.6	13.8	7.00e-07	0	61	0	579862528	54	5172
2026-01-25 00:14:02.02	332.20	53.94	-41.3	-44.4	13.9	4.50e-06	0	61	0	580911104	54	5066
2026-01-25 00:14:03.03	331.62	54.17	-41.4	-44.6	13.8	1.50e-06	0	61	0	583008256	54	5185
2026-01-25 00:14:04.04	331.04	54.40	-41.5	-44.6	13.7	6.10e-06	0	61	0	585105408	54	5217
2026-01-25 00:14:05.05	330.44	54.62	-41.2	-44.2	14.2	7.00e-07	0	61	0	587202560	54	4941
2026-01-25 00:14:06.06	329.84	54.85	-41.2	-44.1	14.2	1.50e-06	0	61	0	589299712	54	4908
2026-01-25 00:14:07.07	329.22	55.07	-41.3	-44.4	13.9	7.00e-07	0	61	0	590348288	54	5082
2026-01-25 00:14:08.08	328.60	55.29	-41.6	-44.9	13.4	8.30e-06	0	61	0	592445440	54	5372
2026-01-25 00:14:09.09	327.96	55.51	-41.9	-45.4	12.9	3.96e-05	0	61	0	594542592	54	5665
2026-01-25 00:14:10.10	327.32	55.73	-42.1	-45.9	12.4	1.22e-04	0	61	0	596639744	54	6010
2026-01-25 00:14:11.11	326.66	55.94	-42.5	-46.6	11.7	2.87e-04	0	61	0	598736896	55	6137
2026-01-25 00:14:12.12	326.00	56.15	-42.7	-47.0	11.3	7.16e-04	0	61	0	599785472	55	6468
2026-01-25 00:14:13.13	325.33	56.36	-42.8	-47.1	11.3	1.35e-03	0	61	0	601882624	56	6198
2026-01-25 00:14:14.14	324.64	56.56	-42.8	-47.0	11.3	9.06e-04	0	61	0	603979776	56	6117
2026-01-25 00:14:15.15	323.95	56.76	-42.8	-47.2	11.2	1.22e-03	0	61	0	606076928	56	6213
2026-01-25 00:14:16.16	323.24	56.96	-42.8	-47.1	11.3	1.40e-03	0	61	0	608174080	56	6201
2026-01-25 00:14:17.17	322.53	57.15	-42.7	-46.8	11.5	1.02e-03	0	61	0	609222656	56	5976
2026-01-25 00:14:18.18	321.80	57.34	-42.7	-46.8	11.6	7.59e-04	0	61	0	611319808	56	5951
2026-01-25 00:14:19.19	321.07	57.52	-42.7	-46.9	11.5	7.08e-04	0	61	0	613416960	56	6032
2026-01-25 00:14:20.20	320.32	57.71	-42.9	-47.2	11.2	1.60e-03	0	61	0	615514112	56	6260
2026-01-25 00:14:21.21	319.57	57.88	-42.9	-47.4	11.0	1.98e-03	0	61	0	617611264	56	6369
2026-01-25 00:14:22.22	318.80	58.06	-42.9	-47.2	11.2	1.86e-03	0	61	0	618659840	56	6260
2026-01-25 00:14:23.23	318.03	58.23	-42.8	-47.1	11.3	1.44e-03	0	61	0	620756992	56	6172
2026-01-25 00:14:24.24	317.24	58.39	-42.8	-47.2	11.2	1.42e-03	0	61	0	622854144	56	6242
2026-01-25 00:14:25.25	316.45	58.55	-42.7	-46.9	11.5	1.37e-03	0	61	0	624951296	56	6044
2026-01-25 00:14:26.26	315.64	58.70	-42.8	-47.1	11.3	1.02e-03	0	61	0	627048448	56	6150
2026-01-25 00:14:27.27	314.83	58.85	-42.9	-47.4	11.0	1.20e-03	0	61	0	628097024	56	6378
2026-01-25 00:14:28.28	314.01	59.00	-43.1	-47.8	10.6	2.21e-03	0	61	0	630194176	56	6649
2026-01-25 00:14:29.28	313.19	59.14	-42.9	-47.3	11.0	2.22e-03	0	61	0	632291328	56	6341
2026-01-25 00:14:30.29	312.35	59.27	-42.6	-46.8	11.6	1.36e-03	0	61	0	634388480	56	5939
2026-01-25 00:14:31.30	311.50	59.40	-42.4	-46.2	12.1	5.68e-04	0	61	0	636485632	56	5580
2026-01-25 00:14:32.31	310.64	59.53	-42.2	-45.9	12.6	1.19e-04	0	61	0	637534208	56	5343
2026-01-25 00:14:33.32	309.77	59.64	-42.1	-45.8	12.7	9.23e-05	0	61	0	639631360	56	5287
2026-01-25 00:14:34.32	308.91	59.76	-42.1	-45.6	12.7	6.86e-05	0	61	0	641728512	56	5218
2026-01-25 00:14:35.33	308.03	59.86	-41.7	-45.1	13.1	7.78e-05	0	61	0	643825664	55	5212
2026-01-25 00:14:36.34	307.14	59.96	-41.7	-45.0	13.2	2.44e-05	0	61	0	645922816	55	5156
2026-01-25 00:14:37.35	306.25	60.06	-41.7	-45.1	13.2	1.75e-05	0	61	0	648019968	55	5176
2026-01-25 00:14:38.36	305.35	60.15	-41.8	-45.3	12.9	3.58e-05	0	62	0	649068544	55	5322
2026-01-25 00:14:39.37	304.44	60.23	-41.7	-45.1	13.1	2.44e-05	0	61	0	651165696	55	5218
2026-01-25 00:14:40.38	303.53	60.30	-41.7	-45.1	13.2	2.74e-05	0	62	0	653262848	55	5205
2026-01-25 00:14:41.39	302.61	60.37	-41.7	-45.0	13.2	2.44e-05	0	62	0	655360000	55	5121
2026-01-25 00:14:42.39	301.70	60.43	-41.6	-45.0	13.2	1.67e-05	0	61	0	657457152	55	5106
2026-01-25 00:14:43.40	300.77	60.49	-41.5	-44.8	13.5	8.30e-06	0	61	0	658505728	55	4991
2026-01-25 00:14:44.41	299.84	60.54	-41.4	-44.5	13.7	4.50e-06	0	61	0	660602880	54	5159
2026-01-25 00:14:45.42	298.91	60.58	-41.4	-44.6	13.7	7.60e-06	0	61	0	662700032	54	5199
2026-01-25 00:14:46.43	297.97	60.62	-41.1	-44.1	14.1	2.20e-06	0	61	0	664797184	54	4905
2026-01-25 00:14:47.44	297.03	60.65	-40.8	-43.5	14.8	0.00e+00	0	61	0	666894336	53	4851
2026-01-25 00:14:48.45	296.09	60.67	-40.7	-43.4	14.8	7.00e-07	0	61	0	667942912	53	4806
2026-01-25 00:14:49.46	295.15	60.68	-40.6	-43.3	15.0	0.00e+00	0	61	0	670040064	53	4729
2026-01-25 00:14:50.47	294.20	60.69	-40.6	-43.3	15.0	0.00e+00	0	62	0	672137216	53	4734
2026-01-25 00:14:51.48	293.26	60.69	-40.4	-43.0	15.3	0.00e+00	0	61	0	674234368	52	4842
2026-01-25 00:14:52.48	292.32	60.69	-40.3	-42.8	15.5	0.00e+00	0	61	0	676331520	52	4712
2026-01-25 00:14:53.49	291.38	60.68	-40.2	-42.6	15.7	0.00e+00	0	61	0	677380096	52	4631
2026-01-25 00:14:54.50	290.44	60.66	-40.2	-42.7	15.6	0.00e+00	0	62	0	679477248	52	4686
2026-01-25 00:14:55.52	289.49	60.63	-40.3	-42.8	15.5	0.00e+00	0	61	0	681574400	52	4733
2026-01-25 00:14:56.52	288.56	60.60	-40.1	-42.6	15.8	0.00e+00	0	62	0	683671552	52	4607
2026-01-25 00:14:57.53	287.62	60.56	-40.1	-42.5	15.8	0.00e+00	0	62	0	685768704	52	4583
2026-01-25 00:14:58.54	286.69	60.51	-40.1	-42.5	15.7	0.00e+00	0	61	0	686817280	52	4577
2026-01-25 00:14:59.55	285.76	60.46	-40.1	-42.5	15.7	0.00e+00	0	62	0	688914432	52	4594
2026-01-25 00:15:00.56	284.84	60.40	-40.2	-42.6	15.7	0.00e+00	0	61	0	691011584	52	4634
2026-01-25 00:15:01.57	283.92	60.33	-40.1	-42.6	15.8	0.00e+00	0	62	0	693108736	52	4599
2026-01-25 00:15:02.58	283.00	60.26	-40.3	-42.9	15.4	0.00e+00	0	61	0	695205888	52	4763
2026-01-25 00:15:03.59	282.09	60.18	-40.5	-43.1	15.2	0.00e+00	0	62	0	696254464	52	4884
2026-01-25 00:15:04.60	281.19	60.10	-40.5	-43.2	15.1	0.00e+00	0	61	0	698351616	52	4947
2026-01-25 00:15:05.61	280.29	60.00	-40.4	-43.0	15.3	0.00e+00	0	61	0	700448768	52	4824
2026-01-25 00:15:06.62	279.40	59.91	-40.6	-43.3	15.0	0.00e+00	0	61	0	702545920	52	5016
2026-01-25 00:15:07.63	278.52	59.80	-40.8	-43.6	14.7	1.50e-06	0	61	0	704643072	52	5200
2026-01-25 00:15:08.64	277.64	59.69	-40.9	-43.8	14.4	7.00e-07	0	61	0	705691648	52	5318
2026-01-25 00:15:09.65	276.77	59.58	-41.0	-43.8	14.4	0.00e+00	0	61	0	707788800	52	5331
2026-01-25 00:15:10.66	275.91	59.46	-41.0	-43.9	14.3	0.00e+00	0	61	0	709885952	52	5397
2026-01-25 00:15:11.67	275.06	59.33	-41.0	-43.8	14.4	7.00e-07	0	61	0	711983104	52	5339
2026-01-25 00:15:12.68	274.21	59.20	-41.2	-44.2	14.1	7.00e-07	0	61	0	714080256	52	5540
2026-01-25 00:15:13.68	273.38	59.06	-41.4	-44.6	13.7	3.00e-06	0	61	0	716177408	53	5485
2026-01-25 00:15:14.69	272.55	58.92	-41.4	-44.5	13.7	1.06e-05	0	62	0	717225984	53	5450
2026-01-25 00:15:15.70	271.74	58.77	-41.3	-44.4	13.8	6.80e-06	0	61	0	719323136	53	5383
2026-01-25 00:15:16.71	270.93	58.61	-41.5	-44.7	13.6	6.10e-06	0	61	0	721420288	53	5545
2026-01-25 00:15:17.72	270.13	58.46	-41.6	-44.9	13.3	1.14e-05	0	61	0	723517440	53	5705
2026-01-25 00:15:18.73	269.34	58.29	-41.8	-45.3	12.9	3.50e-05	0	61	0	725614592	54	5611
2026-01-25 00:15:19.74	268.56	58.13	-42.1	-45.8	12.4	1.04e-04	0	62	0	726663168	54	5937
2026-01-25 00:15:20.75	267.79	57.95	-41.9	-45.5	12.7	1.34e-04	0	61	0	728760320	54	5777
2026-01-25 00:15:21.76	267.03	57.78	-42.0	-45.6	12.6	8.23e-05	0	62	0	730857472	54	5814
2026-01-25 00:15:22.77	266.28	57.60	-42.0	-45.6	12.6	9.15e-05	0	62	0	732954624	54	5822
2026-01-25 00:15:23.78	265.54	57.41	-41.7	-45.1	13.1	4.95e-05	0	61	0	734003200	54	5526
2026-01-25 00:15:24.79	264.81	57.23	-41.8	-45.2	13.0	2.67e-05	0	61	0	736100352	54	5556
2026-01-25 00:15:25.80	264.09	57.03	-42.0	-45.6	12.7	5.79e-05	0	62	0	738197504	54	5795
2026-01-25 00:15:26.81	263.38	56.84	-41.6	-44.9	13.3	3.12e-05	0	61	0	740294656	54	5397
2026-01-25 00:15:27.82	262.68	56.64	-41.5	-44.7	13.6	1.22e-05	0	62	0	742391808	54	5259
2026-01-25 00:15:28.83	261.99	56.44	-41.6	-44.9	13.4	1.14e-05	0	61	0	744488960	54	5351
2026-01-25 00:15:29.84	261.31	56.23	-41.6	-45.0	13.3	2.51e-05	0	62	0	745537536	54	5413
2026-01-25 00:15:30.85	260.64	56.02	-41.3	-44.4	13.9	8.30e-06	0	62	0	747634688	54	5048
2026-01-25 00:15:31.86	259.98	55.81	-41.0	-43.9	14.3	1.50e-06	0	61	0	749731840	54	4808
2026-01-25 00:15:32.87	259.33	55.59	-40.8	-43.6	14.6	1.50e-06	0	62	0	751828992	53	4901
2026-01-25 00:15:33.88	258.69	55.38	-40.8	-43.5	14.8	0.00e+00	0	61	0	753926144	53	4860
2026-01-25 00:15:34.88	258.07	55.16	-40.9	-43.8	14.5	0.00e+00	0	62	0	754974720	53	5010
2026-01-25 00:15:35.89	257.45	54.94	-40.9	-43.7	14.5	0.00e+00	0	61	0	757071872	53	4964
2026-01-25 00:15:36.90	256.84	54.71	-40.9	-43.7	14.6	0.00e+00	0	61	0	759169024	53	4977
2026-01-25 00:15:37.91	256.23	54.49	-41.0	-43.9	14.4	0.00e+00	0	62	0	761266176	53	5070
2026-01-25 00:15:38.92	255.64	54.26	-41.0	-43.9	14.4	7.00e-07	0	62	0	763363328	53	5065
2026-01-25 00:15:39.93	255.06	54.03	-41.0	-43.9	14.4	7.00e-07	0	62	0	764411904	53	5056
2026-01-25 00:15:40.94	254.49	53.79	-41.1	-44.1	14.2	0.00e+00	0	61	0	766509056	53	5190
2026-01-25 00:15:41.95	253.93	53.56	-41.3	-44.3	13.9	7.00e-07	0	61	0	768606208	53	5324
2026-01-25 00:15:42.96	253.37	53.32	-41.2	-44.2	14.1	7.00e-07	0	61	0	770703360	53	5247
2026-01-25 00:15:43.97	252.83	53.08	-41.2	-44.3	14.0	2.20e-06	0	62	0	772800512	53	5284
2026-01-25 00:15:44.98	252.29	52.84	-41.5	-44.8	13.5	7.60e-06	0	62	0	773849088	53	5614
2026-01-25 00:15:45.99	251.76	52.60	-41.8	-45.3	12.9	2.28e-05	0	61	0	775946240	54	5636
2026-01-25 00:15:47.00	251.24	52.36	-41.9	-45.5	12.8	7.24e-05	0	61	0	778043392	54	5729
2026-01-25 00:15:48.01	250.73	52.12	-41.8	-45.3	12.9	6.33e-05	0	61	0	780140544	54	5638
2026-01-25 00:15:49.02	250.23	51.87	-41.9	-45.4	12.8	5.18e-05	0	62	0	782237696	54	5708
2026-01-25 00:15:50.02	249.74	51.63	-42.1	-45.8	12.4	1.32e-04	0	61	0	783286272	54	5987
2026-01-25 00:15:51.03	249.26	51.38	-42.4	-46.5	11.8	3.27e-04	0	62	0	785383424	55	6067
2026-01-25 00:15:52.04	248.78	51.14	-42.3	-46.4	11.9	4.61e-04	0	61	0	787480576	55	6013
2026-01-25 00:15:53.05	248.31	50.89	-42.3	-46.4	11.9	4.68e-04	0	62	0	789577728	55	5996
2026-01-25 00:15:54.06	247.85	50.64	-42.3	-46.4	11.9	3.97e-04	0	62	0	791674880	55	5995
2026-01-25 00:15:55.07	247.39	50.39	-42.6	-47.0	11.2	7.52e-04	0	61	0	792723456	55	6446
2026-01-25 00:15:56.08	246.95	50.14	-43.0	-47.7	10.6	1.82e-03	0	62	0	794820608	56	6592
2026-01-25 00:15:57.09	246.51	49.89	-43.4	-48.7	9.6	1.04e-02	0	62	0	796917760	57	6993
2026-01-25 00:15:58.10	246.07	49.64	-43.5	-49.0	9.1	2.01e-02	0	62	0	799014912	57	7278
2026-01-25 00:15:59.11	245.65	49.39	-43.4	-48.7	9.6	1.49e-02	0	62	0	801112064	57	6974
2026-01-25 00:16:00.12	245.23	49.14	-43.2	-48.2	10.0	9.36e-03	0	62	0	802160640	57	6590
2026-01-25 00:16:01.13	244.82	48.88	-43.1	-47.9	10.4	6.20e-03	0	62	0	804257792	57	6385
2026-01-25 00:16:02.14	244.41	48.63	-43.0	-47.7	10.6	3.66e-03	0	62	0	806354944	57	6245
2026-01-25 00:16:03.15	244.01	48.38	-43.1	-48.0	10.3	3.41e-03	0	62	0	808452096	57	6452
2026-01-25 00:16:04.16	243.62	48.13	-43.3	-48.5	9.9	6.96e-03	0	62	0	810549248	57	6831
2026-01-25 00:16:05.17	243.24	47.88	-43.6	-49.2	9.1	1.63e-02	0	62	0	812646400	57	7390
2026-01-25 00:16:06.18	242.86	47.62	-43.7	-49.7	8.5	3.33e-02	0	62	0	813694976	58	7424
2026-01-25 00:16:07.19	242.49	47.37	-43.8	-49.8	8.4	4.42e-02	0	62	0	815792128	58	7508
2026-01-25 00:16:08.20	242.12	47.12	-43.7	-49.7	8.7	3.90e-02	0	62	0	817889280	58	7391
2026-01-25 00:16:09.21	241.76	46.87	-43.5	-49.1	9.2	2.92e-02	0	62	0	819986432	58	6913
2026-01-25 00:16:10.21	241.40	46.62	-43.2	-48.2	10.0	1.06e-02	0	62	0	822083584	58	6235
2026-01-25 00:16:11.22	241.06	46.37	-43.0	-47.6	10.7	3.82e-03	0	62	0	823132160	58	5853
2026-01-25 00:16:12.23	240.71	46.12	-42.8	-47.3	11.0	2.35e-03	0	61	0	825229312	57	5940
2026-01-25 00:16:13.24	240.37	45.87	-43.0	-47.6	10.7	3.06e-03	0	62	0	827326464	57	6199
2026-01-25 00:16:14.25	240.04	45.62	-43.0	-47.7	10.6	3.65e-03	0	62	0	829423616	57	6231
2026-01-25 00:16:15.26	239.71	45.37	-43.0	-47.8	10.5	3.97e-03	0	62	0	831520768	57	6315
2026-01-25 00:16:16.27	239.39	45.12	-43.0	-47.8	10.5	3.67e-03	0	62	0	832569344	57	6277
2026-01-25 00:16:17.28	239.07	44.88	-42.9	-47.5	10.8	2.97e-03	0	61	0	834666496	57	6079
2026-01-25 00:16:18.29	238.76	44.63	-42.7	-47.1	11.2	2.03e-03	0	62	0	836763648	57	5806
2026-01-25 00:16:19.30	238.45	44.38	-42.6	-46.8	11.5	8.95e-04	0	62	0	838860800	57	5647
2026-01-25 00:16:20.31	238.14	44.13	-42.6	-46.7	11.7	6.02e-04	0	62	0	840957952	57	5550
2026-01-25 00:16:21.32	237.85	43.89	-42.8	-47.3	11.0	1.12e-03	0	62	0	842006528	57	5933
2026-01-25 00:16:22.33	237.55	43.64	-42.9	-47.4	10.9	2.32e-03	0	62	0	844103680	57	6048
2026-01-25 00:16:23.34	237.26	43.40	-42.8	-47.3	11.1	1.96e-03	0	62	0	846200832	57	5935
2026-01-25 00:16:24.35	236.98	43.16	-42.6	-46.9	11.5	1.08e-03	0	62	0	848297984	57	5660
2026-01-25 00:16:25.36	236.70	42.91	-42.7	-46.9	11.4	8.20e-04	0	62	0	850395136	57	5700
2026-01-25 00:16:26.37	236.42	42.67	-42.7	-47.1	11.2	1.23e-03	0	61	0	851443712	57	5808
2026-01-25 00:16:27.38	236.15	42.43	-42.8	-47.1	11.1	1.33e-03	0	62	0	853540864	57	5847
2026-01-25 00:16:28.39	235.88	42.19	-42.6	-46.8	11.4	1.31e-03	0	62	0	855638016	57	5654
2026-01-25 00:16:29.39	235.62	41.95	-42.7	-47.0	11.4	9.06e-04	0	62	0	857735168	57	5732
2026-01-25 00:16:30.40	235.36	41.72	-42.8	-47.3	11.0	1.65e-03	0	62	0	859832320	57	5937
2026-01-25 00:16:31.41	235.10	41.48	-42.9	-47.4	10.9	2.14e-03	0	62	0	860880896	57	6055
2026-01-25 00:16:32.42	234.85	41.24	-42.9	-47.6	10.7	2.75e-03	0	62	0	862978048	57	6135
2026-01-25 00:16:33.43	234.60	41.01	-43.1	-47.9	10.3	4.40e-03	0	61	0	865075200	57	6403
2026-01-25 00:16:34.44	234.35	40.77	-43.2	-48.2	10.0	6.93e-03	0	62	0	867172352	57	6629
2026-01-25 00:16:35.45	234.11	40.54	-43.3	-48.6	9.6	1.04e-02	0	62	0	869269504	57	6900
2026-01-25 00:16:36.46	233.87	40.30	-43.2	-48.4	9.8	1.06e-02	0	62	0	870318080	57	6741
2026-01-25 00:16:37.47	233.63	40.07	-43.2	-48.4	9.8	1.07e-02	0	62	0	872415232	57	6768
2026-01-25 00:16:38.48	233.40	39.84	-43.4	-48.9	9.3	1.38e-02	0	62	0	874512384	57	7189
2026-01-25 00:16:39.49	233.17	39.61	-43.5	-49.2	9.0	2.12e-02	0	62	0	876609536	57	7384
2026-01-25 00:16:40.50	232.95	39.38	-43.6	-49.3	8.9	2.87e-02	0	62	0	878706688	57	7519
2026-01-25 00:16:41.51	232.73	39.15	-43.5	-49.3	8.9	2.75e-02	0	62	0	880803840	57	7482
2026-01-25 00:16:42.52	232.51	38.93	-43.5	-49.2	9.0	2.71e-02	0	61	0	881852416	57	7435
2026-01-25 00:16:43.52	232.29	38.70	-43.5	-49.2	9.0	2.51e-02	0	61	0	883949568	57	7396
2026-01-25 00:16:44.54	232.08	38.47	-43.5	-49.2	8.9	2.63e-02	0	62	0	886046720	57	7441
2026-01-25 00:16:45.54	231.87	38.25	-43.5	-49.3	8.8	2.60e-02	0	62	0	888143872	57	7485
2026-01-25 00:16:46.55	231.66	38.03	-43.5	-49.2	8.9	2.90e-02	0	62	0	890241024	57	7443
2026-01-25 00:16:47.56	231.46	37.81	-43.4	-48.8	9.4	2.02e-02	0	62	0	891289600	57	7088
2026-01-25 00:16:48.57	231.26	37.59	-43.2	-48.4	9.8	1.35e-02	0	62	0	893386752	57	6744
2026-01-25 00:16:49.58	231.06	37.37	-43.2	-48.3	9.9	8.94e-03	0	62	0	895483904	57	6723
2026-01-25 00:16:50.59	230.86	37.15	-43.1	-48.0	10.2	6.61e-03	0	62	0	897581056	57	6482
2026-01-25 00:16:51.60	230.67	36.93	-43.1	-47.9	10.3	4.60e-03	0	62	0	899678208	57	6373
2026-01-25 00:16:52.62	230.48	36.71	-43.2	-48.4	9.8	8.64e-03	0	62	0	900726784	57	6744
2026-01-25 00:16:53.62	230.29	36.50	-43.2	-48.3	9.9	9.79e-03	0	62	0	902823936	57	6718
2026-01-25 00:16:54.63	230.11	36.28	-43.3	-48.5	9.7	1.15e-02	0	62	0	904921088	57	6829
2026-01-25 00:16:55.64	229.92	36.07	-43.2	-48.3	9.8	9.70e-03	0	62	0	907018240	57	6716
2026-01-25 00:16:56.65	229.74	35.86	-43.3	-48.5	9.7	1.19e-02	0	62	0	909115392	57	6820
2026-01-25 00:16:57.67	229.56	35.64	-43.3	-48.5	9.7	1.20e-02	0	62	0	910163968	57	6823
2026-01-25 00:16:58.67	229.39	35.44	-43.3	-48.7	9.5	1.45e-02	0	62	0	912261120	57	6996
2026-01-25 00:16:59.68	229.21	35.23	-43.4	-48.8	9.4	1.52e-02	0	62	0	914358272	57	7069
2026-01-25 00:17:00.69	229.04	35.02	-43.4	-49.0	9.1	2.05e-02	0	62	0	916455424	57	7266
2026-01-25 00:17:01.70	228.87	34.81	-43.4	-49.0	9.1	2.31e-02	0	62	0	918552576	57	7219
2026-01-25 00:17:02.71	228.70	34.60	-43.4	-48.8	9.3	1.68e-02	0	61	0	919601152	57	7089
2026-01-25 00:17:03.72	228.54	34.40	-43.4	-48.8	9.3	1.71e-02	0	62	0	921698304	57	7088
2026-01-25 00:17:04.73	228.38	34.20	-43.3	-48.7	9.5	1.55e-02	0	61	0	923795456	57	6984
2026-01-25 00:17:05.74	228.21	33.99	-43.3	-48.6	9.5	1.44e-02	0	62	0	925892608	57	6929
2026-01-25 00:17:06.75	228.05	33.79	-43.3	-48.8	9.4	1.35e-02	0	62	0	927989760	57	7073
2026-01-25 00:17:07.76	227.90	33.59	-43.4	-48.8	9.3	1.65e-02	0	62	0	929038336	57	7093
2026-01-25 00:17:08.77	227.74	33.39	-43.5	-49.1	9.0	2.28e-02	0	62	0	931135488	57	7350
2026-01-25 00:17:09.78	227.59	33.19	-43.5	-49.3	8.8	2.61e-02	0	62	0	933232640	57	7471
2026-01-25 00:17:10.79	227.44	33.00	-43.5	-49.3	8.8	3.05e-02	0	62	0	935329792	57	7502
2026-01-25 00:17:11.79	227.29	32.80	-43.5	-49.4	8.8	3.13e-02	0	62	0	937426944	57	7583
2026-01-25 00:17:12.80	227.14	32.61	-43.5	-49.1	9.0	2.75e-02	0	62	0	938475520	57	7352
2026-01-25 00:17:13.81	227.00	32.41	-43.4	-48.9	9.2	2.36e-02	0	62	0	940572672	57	7159
2026-01-25 00:17:14.82	226.85	32.22	-43.2	-48.4	9.7	1.54e-02	0	62	0	942669824	57	6791
2026-01-25 00:17:15.83	226.71	32.03	-43.1	-48.2	10.0	7.58e-03	0	62	0	944766976	57	6571
2026-01-25 00:17:16.84	226.57	31.83	-42.9	-47.7	10.6	5.33e-03	0	62	0	946864128	57	6203
2026-01-25 00:17:17.85	226.43	31.64	-42.9	-47.5	10.7	3.36e-03	0	62	0	948961280	57	6122
2026-01-25 00:17:18.86	226.29	31.45	-42.8	-47.4	10.8	2.67e-03	0	62	0	950009856	57	6044
2026-01-25 00:17:19.87	226.16	31.27	-42.8	-47.4	10.8	2.94e-03	0	61	0	952107008	57	6061
2026-01-25 00:17:20.88	226.02	31.08	-42.9	-47.7	10.5	3.00e-03	0	62	0	954204160	57	6230
2026-01-25 00:17:21.89	225.89	30.89	-42.9	-47.6	10.6	3.17e-03	0	62	0	956301312	57	6141
2026-01-25 00:17:22.90	225.76	30.71	-42.9	-47.6	10.5	3.63e-03	0	62	0	958398464	57	6191
2026-01-25 00:17:23.91	225.63	30.52	-43.0	-47.7	10.4	3.54e-03	0	62	0	959447040	57	6261
2026-01-25 00:17:24.92	225.50	30.34	-43.0	-47.8	10.4	4.65e-03	0	62	0	961544192	57	6291
2026-01-25 00:17:25.93	225.37	30.16	-43.0	-47.9	10.3	4.98e-03	0	62	0	963641344	57	6356
2026-01-25 00:17:26.93	225.25	29.98	-43.0	-47.9	10.2	5.74e-03	0	62	0	965738496	57	6413
2026-01-25 00:17:27.94	225.13	29.80	-43.1	-48.1	10.1	6.56e-03	0	62	0	967835648	57	6509
2026-01-25 00:17:28.95	225.00	29.62	-43.1	-48.2	10.0	8.27e-03	0	62	0	968884224	57	6576
2026-01-25 00:17:29.96	224.88	29.44	-43.1	-48.2	10.0	7.38e-03	0	62	0	970981376	57	6592
2026-01-25 00:17:30.97	224.76	29.26	-43.1	-48.0	10.1	7.35e-03	0	62	0	973078528	57	6484
2026-01-25 00:17:31.98	224.65	29.09	-43.0	-48.0	10.2	6.08e-03	0	62	0	975175680	57	6446
2026-01-25 00:17:32.99	224.53	28.91	-43.1	-48.0	10.2	6.52e-03	0	62	0	977272832	57	6480
2026-01-25 00:17:34.00	224.41	28.74	-42.9	-47.7	10.4	5.74e-03	0	62	0	978321408	57	6262
2026-01-25 00:17:35.01	224.30	28.57	-42.9	-47.6	10.6	3.64e-03	0	62	0	980418560	57	6138
2026-01-25 00:17:36.02	224.18	28.39	-42.9	-47.6	10.6	3.62e-03	0	62	0	982515712	57	6150
2026-01-25 00:17:37.03	224.07	28.22	-42.9	-47.7	10.5	3.58e-03	0	62	0	984612864	57	6229
2026-01-25 00:17:38.04	223.96	28.05	-42.9	-47.7	10.4	3.85e-03	0	62	0	986710016	57	6251
2026-01-25 00:17:39.05	223.85	27.88	-42.8	-47.4	10.7	3.09e-03	0	62	0	987758592	57	6059
2026-01-25 00:17:40.06	223.74	27.71	-42.8	-47.4	10.8	2.46e-03	0	62	0	989855744	57	6006
2026-01-25 00:17:41.07	223.64	27.54	-42.8	-47.4	10.8	2.52e-03	0	62	0	991952896	57	5993
2026-01-25 00:17:42.07	223.53	27.38	-42.7	-47.3	10.9	2.47e-03	0	62	0	994050048	57	5941
2026-01-25 00:17:43.08	223.43	27.21	-42.6	-47.1	11.0	1.94e-03	0	62	0	996147200	57	5831
2026-01-25 00:17:44.09	223.32	27.05	-42.6	-47.1	11.1	1.65e-03	0	62	0	997195776	57	5835
2026-01-25 00:17:45.10	223.22	26.88	-42.6	-47.0	11.2	1.61e-03	0	62	0	999292928	57	5730
2026-01-25 00:17:46.11	223.12	26.72	-42.6	-46.9	11.3	1.21e-03	0	62	0	1001390080	57	5669
2026-01-25 00:17:47.12	223.02	26.56	-42.5	-46.7	11.5	1.06e-03	0	62	0	1003487232	57	5570
2026-01-25 00:17:48.13	222.92	26.40	-42.5	-46.7	11.5	7.14e-04	0	62	0	1005584384	56	5886
2026-01-25 00:17:49.14	222.82	26.24	-42.4	-46.5	11.6	7.12e-04	0	62	0	1006632960	56	5778
2026-01-25 00:17:50.15	222.72	26.08	-42.4	-46.5	11.7	5.83e-04	0	62	0	1008730112	56	5747
2026-01-25 00:17:51.16	222.63	25.92	-42.4	-46.5	11.7	5.63e-04	0	62	0	1010827264	56	5764
2026-01-25 00:17:52.17	222.53	25.76	-42.4	-46.4	11.7	6.23e-04	0	62	0	1012924416	56	5706
2026-01-25 00:17:53.18	222.44	25.60	-42.3	-46.4	11.7	5.47e-04	0	62	0	1015021568	56	5720
2026-01-25 00:17:54.19	222.34	25.44	-42.4	-46.5	11.7	4.83e-04	0	62	0	1016070144	56	5723
2026-01-25 00:17:55.20	222.25	25.29	-42.3	-46.3	11.8	5.24e-04	0	62	0	1018167296	56	5654
2026-01-25 00:17:56.21	222.16	25.13	-42.3	-46.4	11.7	5.00e-04	0	62	0	1020264448	56	5707
2026-01-25 00:17:57.22	222.07	24.98	-42.3	-46.5	11.7	5.61e-04	0	62	0	1022361600	56	5725
2026-01-25 00:17:58.23	221.98	24.83	-42.4	-46.5	11.6	6.64e-04	0	62	0	1024458752	56	5771
2026-01-25 00:17:59.24	221.89	24.67	-42.4	-46.5	11.6	7.11e-04	0	62	0	1026555904	56	5784
2026-01-25 00:18:00.24	221.80	24.52	-42.4	-46.6	11.5	7.58e-04	0	62	0	1027604480	56	5820
2026-01-25 00:18:01.25	221.71	24.37	-42.4	-46.7	11.5	8.80e-04	0	62	0	1029701632	56	5861
2026-01-25 00:18:02.26	221.63	24.22	-42.4	-46.7	11.5	8.28e-04	0	62	0	1031798784	56	5863
2026-01-25 00:18:03.27	221.54	24.07	-42.4	-46.5	11.6	8.02e-04	0	62	0	1033895936	56	5775
2026-01-25 00:18:04.28	221.46	23.93	-42.4	-46.5	11.5	7.45e-04	0	62	0	1034944512	56	5783
2026-01-25 00:18:05.29	221.37	23.78	-42.4	-46.7	11.4	8.03e-04	0	62	0	1037041664	56	5872
2026-01-25 00:18:06.30	221.29	23.63	-42.4	-46.5	11.6	8.01e-04	0	62	0	1039138816	56	5779
2026-01-25 00:18:07.31	221.21	23.48	-42.4	-46.5	11.6	6.68e-04	0	62	0	1041235968	56	5776
2026-01-25 00:18:08.32	221.13	23.34	-42.4	-46.6	11.6	7.85e-04	0	62	0	1043333120	56	5791
2026-01-25 00:18:09.33	221.04	23.19	-42.3	-46.5	11.6	6.97e-04	0	62	0	1044381696	56	5756
2026-01-25 00:18:10.34	220.96	23.05	-42.3	-46.5	11.7	5.81e-04	0	62	0	1046478848	56	5731
2026-01-25 00:18:11.35	220.89	22.91	-42.3	-46.4	11.7	5.45e-04	0	62	0	1048576000	56	5712
2026-01-25 00:18:12.36	220.81	22.76	-42.3	-46.4	11.7	5.96e-04	0	61	0	1050673152	56	5701
2026-01-25 00:18:13.37	220.73	22.62	-42.3	-46.5	11.6	6.58e-04	0	62	0	1052770304	56	5738
2026-01-25 00:18:14.38	220.65	22.48	-42.4	-46.6	11.5	7.78e-04	0	62	0	1054867456	56	5803
2026-01-25 00:18:15.39	220.58	22.34	-42.3	-46.5	11.6	7.68e-04	0	62	0	1055916032	56	5765
2026-01-25 00:18:16.40	220.50	22.20	-42.4	-46.6	11.5	6.67e-04	0	62	0	1058013184	56	5789
2026-01-25 00:18:17.41	220.43	22.06	-42.3	-46.5	11.6	6.90e-04	0	62	0	1060110336	56	5741
2026-01-25 00:18:18.42	220.35	21.92	-42.3	-46.4	11.7	6.38e-04	0	62	0	1062207488	56	5706
2026-01-25 00:18:19.43	220.28	21.79	-42.2	-46.3	11.9	4.98e-04	0	62	0	1064304640	56	5598
2026-01-25 00:18:20.44	220.20	21.65	-42.2	-46.1	11.9	4.00e-04	0	62	0	1065353216	56	5527
2026-01-25 00:18:21.44	220.13	21.52	-42.1	-46.1	12.0	3.39e-04	0	62	0	1067450368	56	5493
2026-01-25 00:18:22.45	220.06	21.38	-42.0	-45.9	12.2	2.68e-04	0	62	0	1069547520	56	5367
2026-01-25 00:18:23.46	219.99	21.25	-42.0	-45.8	12.3	1.84e-04	0	62	0	1071644672	56	5317
2026-01-25 00:18:24.47	219.92	21.11	-41.8	-45.5	12.4	1.77e-04	0	62	0	1073741824	55	5453
2026-01-25 00:18:25.48	219.85	20.98	-41.8	-45.6	12.4	1.36e-04	0	62	0	1074790400	55	5480
2026-01-25 00:18:26.49	219.78	20.85	-41.8	-45.5	12.5	1.45e-04	0	62	0	1076887552	55	5406
2026-01-25 00:18:27.50	219.71	20.71	-41.7	-45.4	12.5	9.91e-05	0	62	0	1078984704	55	5368
2026-01-25 00:18:28.51	219.64	20.58	-41.7	-45.4	12.5	1.09e-04	0	62	0	1081081856	55	5399
2026-01-25 00:18:29.52	219.58	20.45	-41.8	-45.5	12.4	1.30e-04	0	62	0	1083179008	55	5441
2026-01-25 00:18:30.53	219.51	20.32	-41.8	-45.6	12.3	1.48e-04	0	62	0	1084227584	55	5489
2026-01-25 00:18:31.54	219.44	20.19	-41.8	-45.6	12.3	1.30e-04	0	62	0	1086324736	55	5507
2026-01-25 00:18:32.55	219.38	20.06	-41.9	-45.7	12.2	2.21e-04	0	62	0	1088421888	55	5581
2026-01-25 00:18:33.56	219.31	19.93	-41.9	-45.8	12.0	2.60e-04	0	62	0	1090519040	55	5650
2026-01-25 00:18:34.57	219.25	19.81	-42.0	-46.0	11.9	3.82e-04	0	62	0	1092616192	55	5736
2026-01-25 00:18:35.58	219.19	19.68	-42.0	-46.0	11.9	3.76e-04	0	62	0	1093664768	55	5752
2026-01-25 00:18:36.59	219.12	19.55	-42.0	-46.1	11.8	4.87e-04	0	62	0	1095761920	55	5819
2026-01-25 00:18:37.60	219.06	19.43	-42.0	-46.1	11.8	4.26e-04	0	62	0	1097859072	55	5793
2026-01-25 00:18:38.60	219.00	19.30	-42.0	-46.1	11.8	4.81e-04	0	62	0	1099956224	55	5795
2026-01-25 00:18:39.61	218.94	19.18	-42.0	-46.0	11.8	5.39e-04	0	62	0	1102053376	55	5769
2026-01-25 00:18:40.62	218.88	19.05	-41.9	-45.9	11.9	4.42e-04	0	62	0	1103101952	55	5704
2026-01-25 00:18:41.63	218.81	18.93	-41.9	-45.8	12.1	2.86e-04	0	62	0	1105199104	55	5593
2026-01-25 00:18:42.64	218.75	18.81	-41.8	-45.7	12.2	2.39e-04	0	62	0	1107296256	55	5541
2026-01-25 00:18:43.65	218.70	18.68	-41.8	-45.7	12.2	2.20e-04	0	62	0	1109393408	55	5547
2026-01-25 00:18:44.66	218.64	18.56	-41.7	-45.6	12.3	2.41e-04	0	62	0	1111490560	55	5473
2026-01-25 00:18:45.67	218.58	18.44	-41.7	-45.6	12.3	1.75e-04	0	62	0	1112539136	55	5470
2026-01-25 00:18:46.68	218.52	18.32	-41.8	-45.6	12.2	1.90e-04	0	62	0	1114636288	55	5506
2026-01-25 00:18:47.69	218.46	18.20	-41.8	-45.7	12.2	2.28e-04	0	62	0	1116733440	55	5539
2026-01-25 00:18:48.70	218.40	18.08	-41.7	-45.5	12.3	1.86e-04	0	62	0	1118830592	55	5427
2026-01-25 00:18:49.71	218.35	17.96	-41.8	-45.6	12.2	1.79e-04	0	62	0	1120927744	55	5509
2026-01-25 00:18:50.72	218.29	17.84	-41.8	-45.7	12.2	2.30e-04	0	62	0	1123024896	55	5538
2026-01-25 00:18:51.73	218.24	17.73	-41.8	-45.7	12.1	2.04e-04	0	62	0	1124073472	55	5545
2026-01-25 00:18:52.74	218.18	17.61	-41.9	-45.9	12.0	3.78e-04	0	62	0	1126170624	55	5669
2026-01-25 00:18:53.75	218.12	17.49	-41.9	-45.9	11.9	4.62e-04	0	62	0	1128267776	55	5690
2026-01-25 00:18:54.76	218.07	17.38	-41.9	-45.8	12.0	4.26e-04	0	62	0	1130364928	55	5656
2026-01-25 00:18:55.77	218.02	17.26	-41.9	-45.9	11.9	4.23e-04	0	62	0	1132462080	55	5714
2026-01-25 00:18:56.77	217.96	17.15	-41.9	-46.0	11.8	5.40e-04	0	62	0	1133510656	55	5759
2026-01-25 00:18:57.78	217.91	17.03	-41.9	-46.0	11.8	4.73e-04	0	62	0	1135607808	55	5760
2026-01-25 00:18:58.79	217.86	16.92	-41.9	-46.0	11.8	5.10e-04	0	62	0	1137704960	55	5735
2026-01-25 00:18:59.80	217.80	16.80	-42.0	-46.1	11.7	6.00e-04	0	62	0	1139802112	55	5855
2026-01-25 00:19:00.81	217.75	16.69	-42.0	-46.1	11.7	6.35e-04	0	62	0	1141899264	55	5816
2026-01-25 00:19:01.82	217.70	16.58	-42.0	-46.2	11.5	6.00e-04	0	62	0	1142947840	55	5900
2026-01-25 00:19:02.83	217.65	16.46	-42.0	-46.2	11.6	7.54e-04	0	62	0	1145044992	55	5883
2026-01-25 00:19:03.84	217.60	16.35	-42.0	-46.2	11.5	7.18e-04	0	62	0	1147142144	55	5908
2026-01-25 00:19:04.85	217.55	16.24	-42.1	-46.3	11.4	9.48e-04	0	62	0	1149239296	55	5967
2026-01-25 00:19:05.86	217.50	16.13	-42.0	-46.2	11.5	7.89e-04	0	62	0	1151336448	55	5896
2026-01-25 00:19:06.87	217.45	16.02	-42.1	-46.3	11.5	8.52e-04	0	62	0	1152385024	55	5968
2026-01-25 00:19:07.88	217.40	15.91	-42.0	-46.3	11.5	9.15e-04	0	62	0	1154482176	55	5943
2026-01-25 00:19:08.88	217.35	15.80	-42.1	-46.4	11.3	1.02e-03	0	61	0	1156579328	55	6019
2026-01-25 00:19:09.89	217.30	15.69	-42.1	-46.5	11.3	1.25e-03	0	62	0	1158676480	55	6076
2026-01-25 00:19:10.90	217.26	15.58	-42.1	-46.5	11.3	1.27e-03	0	62	0	1160773632	55	6079
2026-01-25 00:19:11.91	217.21	15.48	-42.1	-46.3	11.4	1.30e-03	0	62	0	1161822208	55	5987
2026-01-25 00:19:12.92	217.16	15.37	-42.1	-46.5	11.2	1.11e-03	0	62	0	1163919360	55	6066
2026-01-25 00:19:13.93	217.11	15.26	-42.1	-46.4	11.3	1.26e-03	0	62	0	1166016512	55	6004
2026-01-25 00:19:14.94	217.07	15.15	-42.0	-46.3	11.4	9.92e-04	0	62	0	1168113664	55	5948
2026-01-25 00:19:15.95	217.02	15.05	-42.1	-46.3	11.4	9.85e-04	0	62	0	1170210816	55	5984
2026-01-25 00:19:16.96	216.97	14.94	-42.1	-46.4	11.2	1.23e-03	0	62	0	1171259392	55	6056
2026-01-25 00:19:17.97	216.93	14.84	-42.0	-46.3	11.3	1.21e-03	0	62	0	1173356544	55	5979
2026-01-25 00:19:18.98	216.88	14.73	-42.1	-46.5	11.2	1.23e-03	0	62	0	1175453696	55	6080
2026-01-25 00:19:19.99	216.84	14.63	-42.1	-46.5	11.1	1.53e-03	0	62	0	1177550848	55	6104
2026-01-25 00:19:21.00	216.79	14.52	-42.1	-46.4	11.2	1.32e-03	0	61	0	1179648000	55	6043
2026-01-25 00:19:22.01	216.75	14.42	-42.2	-46.6	11.0	1.71e-03	0	62	0	1180696576	55	6184
2026-01-25 00:19:23.02	216.71	14.32	-42.1	-46.6	11.1	1.88e-03	0	62	0	1182793728	55	6150
