passes_logs/2026/01/25/R2.0S_Moscow/R2.0S_Moscow__20260125_205006_FENGYUN_3G_rec.log

#Pass ID: 20260125_205006_FENGYUN 3G
#Satellite: FENGYUN 3G
#Configuration: FENGYUN 3G
#almurnet v.1.7.20251203
#Start time: 2026-01-25 20:50:06

#Version: 2.2.20231116
#Station: R2.0S_Moscow
#Location: 37.707566 lon 55.798166 lat
#TLE: 1 56232U 23055A   26025.14527328  .00046082  00000+0  69370-3 0  9997
#TLE: 2 56232  49.9948   3.5622 0004071  80.7231 279.4197 15.54300718157774

#Time	Az	El	Level	Level2	SNR	BER	BlckErr	Temp	State	Recorded	gain1	gain2
2026-01-25 20:50:06.52	263.65	2.03	-44.2	-62.4	3.8	8.47e-01	0	52	0	0	60	28375
2026-01-25 20:50:07.54	263.56	2.10	-44.2	-62.3	3.8	8.44e-01	0	52	104	0	60	28308
2026-01-25 20:50:08.54	263.47	2.16	-44.2	-62.3	3.8	8.47e-01	0	52	104	0	60	28351
2026-01-25 20:50:09.55	263.37	2.22	-44.2	-62.4	3.8	8.45e-01	0	52	104	0	60	28373
2026-01-25 20:50:10.56	263.28	2.28	-44.2	-62.4	3.8	8.45e-01	0	52	104	0	60	28356
2026-01-25 20:50:11.57	263.18	2.34	-44.2	-62.4	3.8	8.46e-01	0	52	104	0	60	28365
2026-01-25 20:50:12.58	263.09	2.41	-44.2	-62.3	3.8	8.45e-01	0	52	104	0	60	28333
2026-01-25 20:50:13.60	262.99	2.47	-44.2	-62.4	3.8	8.45e-01	0	52	104	0	60	28369
2026-01-25 20:50:14.61	262.90	2.53	-44.2	-62.3	3.8	8.47e-01	0	52	104	0	60	28330
2026-01-25 20:50:15.62	262.80	2.60	-44.2	-62.4	3.8	8.46e-01	0	52	104	0	60	28365
2026-01-25 20:50:16.63	262.70	2.66	-44.2	-62.3	3.8	8.46e-01	0	52	104	0	60	28265
2026-01-25 20:50:17.64	262.60	2.72	-44.2	-62.3	3.8	8.46e-01	0	53	104	0	60	28268
2026-01-25 20:50:18.65	262.50	2.79	-44.2	-62.3	3.8	8.46e-01	0	53	104	0	60	28289
2026-01-25 20:50:19.66	262.40	2.85	-44.2	-62.3	3.8	8.46e-01	0	53	104	0	60	28128
2026-01-25 20:50:20.67	262.30	2.92	-44.2	-62.3	3.8	8.47e-01	0	53	104	0	60	28102
2026-01-25 20:50:21.68	262.20	2.98	-44.2	-62.3	3.8	8.47e-01	0	53	104	0	60	28091
2026-01-25 20:50:22.69	262.10	3.04	-44.2	-62.3	3.8	8.47e-01	0	53	104	0	60	28103
2026-01-25 20:50:23.70	262.00	3.11	-44.1	-62.2	3.8	8.47e-01	0	53	104	0	60	28012
2026-01-25 20:50:24.71	261.90	3.17	-44.2	-62.2	3.8	8.45e-01	0	53	104	0	60	27883
2026-01-25 20:50:25.72	261.79	3.24	-44.2	-62.2	3.8	8.47e-01	0	53	104	0	60	27920
2026-01-25 20:50:26.73	261.69	3.30	-44.2	-62.2	3.8	8.47e-01	0	53	104	0	60	27776
2026-01-25 20:50:27.74	261.58	3.37	-44.2	-62.1	3.8	8.46e-01	0	53	104	0	60	27674
2026-01-25 20:50:28.75	261.48	3.43	-44.2	-62.1	3.8	8.46e-01	0	53	104	0	60	27534
2026-01-25 20:50:29.76	261.37	3.50	-44.2	-62.0	3.8	8.46e-01	0	53	104	0	60	27363
2026-01-25 20:50:30.77	261.27	3.56	-44.1	-62.0	3.8	8.46e-01	0	54	104	0	60	27350
2026-01-25 20:50:31.78	261.16	3.63	-44.1	-62.0	3.8	8.46e-01	0	54	104	0	60	27233
2026-01-25 20:50:32.79	261.05	3.70	-44.1	-62.1	3.8	8.48e-01	0	54	104	0	60	27496
2026-01-25 20:50:33.80	260.94	3.76	-44.2	-62.1	3.8	8.48e-01	0	54	104	0	60	27703
2026-01-25 20:50:34.81	260.83	3.83	-44.2	-62.2	3.8	8.47e-01	0	54	104	0	60	27804
2026-01-25 20:50:35.82	260.72	3.89	-44.2	-62.3	3.8	8.45e-01	0	54	104	0	60	28123
2026-01-25 20:50:36.83	260.61	3.96	-44.1	-62.3	3.8	8.45e-01	0	54	104	0	60	28100
2026-01-25 20:50:37.84	260.50	4.03	-44.1	-62.3	3.8	8.47e-01	0	54	104	0	60	28212
2026-01-25 20:50:38.85	260.38	4.09	-44.1	-62.2	3.8	8.46e-01	0	54	104	0	60	27993
2026-01-25 20:50:39.86	260.27	4.16	-44.1	-62.2	3.8	8.46e-01	0	54	104	0	60	27812
2026-01-25 20:50:40.87	260.16	4.23	-44.1	-62.0	3.8	8.46e-01	0	54	104	0	60	27363
2026-01-25 20:50:41.88	260.04	4.30	-44.1	-61.9	3.8	8.46e-01	0	54	104	0	60	26805
2026-01-25 20:50:42.89	259.93	4.36	-44.1	-61.8	3.8	8.46e-01	0	54	104	0	60	26727
2026-01-25 20:50:43.90	259.81	4.43	-44.1	-61.9	3.8	8.47e-01	0	54	104	0	60	26795
2026-01-25 20:50:44.91	259.69	4.50	-44.1	-61.9	3.8	8.47e-01	0	54	104	0	60	26876
2026-01-25 20:50:45.92	259.57	4.57	-44.1	-61.8	3.8	8.46e-01	0	54	104	0	60	26735
2026-01-25 20:50:46.94	259.45	4.64	-44.1	-61.8	3.8	8.46e-01	0	55	104	0	60	26623
2026-01-25 20:50:47.95	259.33	4.71	-44.1	-61.8	3.8	8.45e-01	0	54	104	0	60	26711
2026-01-25 20:50:48.96	259.21	4.77	-44.1	-61.9	3.8	8.46e-01	0	55	104	0	60	26881
2026-01-25 20:50:49.97	259.09	4.84	-44.1	-61.9	3.8	8.46e-01	0	55	104	0	60	26868
2026-01-25 20:50:50.98	258.97	4.91	-44.1	-61.9	3.8	8.46e-01	0	55	104	0	60	26951
2026-01-25 20:50:51.99	258.85	4.98	-44.1	-62.1	3.8	8.46e-01	0	55	104	0	60	27393
2026-01-25 20:50:53.00	258.72	5.05	-44.1	-62.1	3.8	8.46e-01	0	55	104	0	60	27430
2026-01-25 20:50:54.01	258.60	5.12	-44.1	-62.0	3.8	8.47e-01	0	55	104	0	60	27177
2026-01-25 20:50:55.02	258.47	5.19	-44.1	-62.0	3.8	8.46e-01	0	55	104	0	60	27243
2026-01-25 20:50:56.03	258.35	5.26	-44.1	-61.6	3.8	8.46e-01	0	55	104	0	60	25915
2026-01-25 20:50:57.04	258.22	5.33	-44.1	-61.0	3.8	8.47e-01	0	55	104	0	60	24299
2026-01-25 20:50:58.05	258.09	5.40	-44.1	-60.7	3.8	8.45e-01	0	55	104	0	60	23438
2026-01-25 20:50:59.06	257.96	5.47	-44.1	-59.9	3.8	8.44e-01	0	55	104	0	60	21473
2026-01-25 20:51:00.07	257.83	5.54	-44.1	-59.8	4.0	8.44e-01	0	55	104	0	60	21025
2026-01-25 20:51:01.08	257.70	5.61	-44.1	-59.8	3.8	8.43e-01	0	55	104	0	60	21081
2026-01-25 20:51:02.09	257.57	5.68	-44.1	-59.9	3.8	8.43e-01	0	55	104	0	60	21472
2026-01-25 20:51:03.11	257.43	5.76	-44.1	-60.3	3.9	8.43e-01	0	55	104	0	60	22379
2026-01-25 20:51:04.12	257.30	5.83	-44.1	-60.9	3.8	8.44e-01	0	55	104	0	60	24081
2026-01-25 20:51:05.13	257.17	5.90	-44.1	-61.5	3.8	8.45e-01	0	55	104	0	60	25803
2026-01-25 20:51:06.14	257.03	5.97	-44.1	-61.8	3.8	8.45e-01	0	56	104	0	60	26476
2026-01-25 20:51:07.15	256.89	6.04	-44.1	-61.8	3.8	8.46e-01	0	56	104	0	60	26467
2026-01-25 20:51:08.16	256.76	6.11	-44.1	-61.7	3.8	8.47e-01	0	55	104	0	60	26314
2026-01-25 20:51:09.17	256.62	6.19	-44.1	-61.4	3.8	8.47e-01	0	56	104	0	60	25412
2026-01-25 20:51:10.18	256.48	6.26	-44.1	-61.1	3.8	8.46e-01	0	56	104	0	60	24471
2026-01-25 20:51:11.19	256.34	6.33	-44.1	-60.7	3.8	8.46e-01	0	56	104	0	60	23321
2026-01-25 20:51:12.20	256.20	6.41	-44.1	-59.8	3.9	8.45e-01	0	56	104	0	60	21235
2026-01-25 20:51:13.21	256.05	6.48	-44.0	-59.5	3.9	8.45e-01	0	56	104	0	60	20339
2026-01-25 20:51:14.22	255.91	6.55	-44.0	-58.5	4.3	8.42e-01	0	56	0	0	60	18111
2026-01-25 20:51:15.23	255.77	6.63	-44.0	-57.9	4.5	8.33e-01	0	56	0	0	60	16903
2026-01-25 20:51:16.24	255.62	6.70	-44.0	-57.4	4.7	8.33e-01	0	56	0	0	59	16903
2026-01-25 20:51:17.25	255.47	6.77	-44.0	-56.2	5.2	8.15e-01	0	56	0	0	59	14871
2026-01-25 20:51:18.26	255.33	6.85	-43.9	-55.1	6.0	7.02e-01	0	56	0	0	59	13090
2026-01-25 20:51:19.27	255.18	6.92	-43.7	-53.7	7.2	7.02e-01	0	56	0	1572864	59	11156
2026-01-25 20:51:20.28	255.03	7.00	-43.6	-52.6	8.4	2.58e-01	0	56	0	2621440	59	9721
2026-01-25 20:51:21.29	254.88	7.07	-43.4	-51.8	9.2	6.94e-02	0	56	0	3670016	58	9440
2026-01-25 20:51:22.30	254.72	7.15	-43.3	-51.2	9.8	6.94e-02	0	56	0	4718592	58	8844
2026-01-25 20:51:23.31	254.57	7.22	-43.3	-51.3	9.8	1.97e-02	0	56	0	5767168	58	8889
2026-01-25 20:51:24.32	254.42	7.30	-43.5	-52.2	8.9	1.35e-02	0	56	0	7340032	58	9845
2026-01-25 20:51:25.33	254.26	7.37	-43.8	-54.6	6.6	7.10e-02	0	56	0	8388608	58	13040
2026-01-25 20:51:26.34	254.10	7.45	-44.1	-58.8	4.2	7.10e-02	0	56	0	8912896	58	21239
2026-01-25 20:51:27.36	253.94	7.52	-44.2	-61.6	3.8	6.61e-01	0	56	104	8912896	58	29290
2026-01-25 20:51:28.37	253.79	7.60	-43.9	-55.8	5.4	8.44e-01	0	56	0	8912896	58	15013
2026-01-25 20:51:29.38	253.63	7.68	-43.3	-51.3	9.6	8.44e-01	0	56	0	9961472	58	8906
2026-01-25 20:51:30.39	253.46	7.75	-42.6	-48.5	12.6	2.14e-01	0	56	0	11010048	57	6836
2026-01-25 20:51:31.40	253.30	7.83	-42.0	-46.9	14.3	5.41e-04	0	56	0	12058624	56	6045
2026-01-25 20:51:32.41	253.14	7.91	-41.5	-45.9	15.2	5.41e-04	0	56	0	13107200	54	5994
2026-01-25 20:51:33.42	252.97	7.98	-41.3	-45.6	15.6	1.10e-06	0	56	0	14155776	54	5800
2026-01-25 20:51:34.43	252.81	8.06	-41.4	-45.5	15.9	0.00e+00	0	57	0	15204352	54	5767
2026-01-25 20:51:35.44	252.64	8.14	-44.2	-56.9	4.5	4.07e-01	0	57	0	15728640	59	16096
2026-01-25 20:51:36.45	252.47	8.21	-41.1	-45.0	16.0	4.07e-01	0	57	0	16777216	54	5454
2026-01-25 20:51:37.46	252.30	8.29	-43.7	-53.7	5.7	9.87e-02	0	57	104	17301504	58	11717
2026-01-25 20:51:38.47	252.13	8.37	-41.1	-45.1	15.9	3.06e-01	0	57	0	18350080	54	5475
2026-01-25 20:51:39.48	251.96	8.45	-42.3	-47.6	12.9	3.06e-01	0	57	0	19398656	56	6561
2026-01-25 20:51:40.49	251.78	8.53	-41.0	-44.8	16.3	3.57e-03	0	57	0	20447232	53	5641
2026-01-25 20:51:41.50	251.61	8.60	-40.9	-44.7	16.4	0.00e+00	0	57	0	21495808	53	5590
2026-01-25 20:51:42.51	251.43	8.68	-40.8	-44.6	16.6	0.00e+00	0	57	0	22544384	53	5495
2026-01-25 20:51:43.52	251.26	8.76	-40.8	-44.6	16.6	0.00e+00	0	57	0	23592960	53	5476
2026-01-25 20:51:44.53	251.08	8.84	-40.8	-44.5	16.7	0.00e+00	0	57	0	25165824	53	5433
2026-01-25 20:51:45.54	250.90	8.92	-40.9	-44.7	16.5	0.00e+00	0	57	0	26214400	53	5549
2026-01-25 20:51:46.55	250.71	9.00	-40.8	-44.5	16.7	0.00e+00	0	57	0	27262976	53	5439
2026-01-25 20:51:47.56	250.53	9.08	-40.8	-44.5	16.7	0.00e+00	0	57	0	28311552	53	5463
2026-01-25 20:51:48.57	250.35	9.16	-40.8	-44.5	16.7	0.00e+00	0	57	0	29360128	53	5405
2026-01-25 20:51:49.58	250.16	9.24	-40.7	-44.4	16.8	0.00e+00	0	57	0	30408704	53	5357
2026-01-25 20:51:50.59	249.97	9.32	-40.7	-44.3	16.9	0.00e+00	0	57	0	31457280	53	5324
2026-01-25 20:51:51.59	249.79	9.40	-40.7	-44.3	17.0	0.00e+00	0	57	0	33030144	53	5293
2026-01-25 20:51:52.60	249.60	9.48	-40.7	-44.3	17.0	0.00e+00	0	57	0	34078720	53	5312
2026-01-25 20:51:53.61	249.41	9.56	-40.7	-44.2	17.0	0.00e+00	0	57	0	35127296	53	5275
2026-01-25 20:51:54.62	249.21	9.64	-40.7	-44.2	17.1	0.00e+00	0	57	0	36175872	53	5278
2026-01-25 20:51:55.63	249.02	9.72	-40.7	-44.2	17.1	0.00e+00	0	57	0	37224448	53	5240
2026-01-25 20:51:56.64	248.82	9.80	-40.6	-44.1	17.3	0.00e+00	0	58	0	38273024	53	5174
2026-01-25 20:51:57.65	248.63	9.88	-40.6	-44.0	17.3	0.00e+00	0	57	0	39845888	53	5134
2026-01-25 20:51:58.66	248.43	9.96	-40.5	-43.9	17.4	0.00e+00	0	58	0	40894464	53	5087
2026-01-25 20:51:59.67	248.23	10.04	-40.4	-43.8	17.6	0.00e+00	0	57	0	41943040	52	5283
2026-01-25 20:52:00.68	248.02	10.12	-40.4	-43.8	17.5	0.00e+00	0	58	0	42991616	52	5284
2026-01-25 20:52:01.69	247.82	10.21	-40.5	-43.8	17.5	0.00e+00	0	58	0	44040192	52	5310
2026-01-25 20:52:02.70	247.62	10.29	-40.5	-43.9	17.4	0.00e+00	0	57	0	45088768	52	5393
2026-01-25 20:52:03.71	247.41	10.37	-40.6	-44.0	17.3	0.00e+00	0	58	0	46661632	52	5425
2026-01-25 20:52:04.72	247.20	10.45	-40.6	-44.1	17.3	0.00e+00	0	58	0	47710208	52	5478
2026-01-25 20:52:05.73	246.99	10.53	-40.7	-44.1	17.2	0.00e+00	0	58	0	48758784	52	5519
2026-01-25 20:52:06.74	246.78	10.62	-40.6	-44.0	17.3	0.00e+00	0	57	0	49807360	52	5447
2026-01-25 20:52:07.75	246.57	10.70	-40.5	-43.9	17.5	0.00e+00	0	58	0	50855936	52	5341
2026-01-25 20:52:08.76	246.35	10.78	-40.5	-43.8	17.6	0.00e+00	0	58	0	51904512	52	5285
2026-01-25 20:52:09.77	246.14	10.86	-40.4	-43.7	17.7	0.00e+00	0	58	0	53477376	52	5222
2026-01-25 20:52:10.79	245.92	10.95	-40.4	-43.6	17.7	0.00e+00	0	58	0	54525952	52	5199
2026-01-25 20:52:11.79	245.70	11.03	-40.2	-43.3	18.1	0.00e+00	0	58	0	55574528	52	4995
2026-01-25 20:52:12.81	245.48	11.11	-40.0	-43.0	18.5	0.00e+00	0	57	0	56623104	51	5120
2026-01-25 20:52:13.82	245.25	11.19	-39.9	-42.8	18.7	0.00e+00	0	58	0	57671680	51	5004
2026-01-25 20:52:14.83	245.03	11.28	-40.0	-42.9	18.6	0.00e+00	0	58	0	59244544	51	5066
2026-01-25 20:52:15.84	244.80	11.36	-40.1	-43.0	18.4	0.00e+00	0	58	0	60293120	51	5158
2026-01-25 20:52:16.85	244.58	11.44	-40.2	-43.3	18.2	0.00e+00	0	58	0	61341696	51	5298
2026-01-25 20:52:17.86	244.35	11.53	-40.3	-43.4	18.1	0.00e+00	0	58	0	62390272	51	5367
2026-01-25 20:52:18.87	244.11	11.61	-40.3	-43.4	18.0	0.00e+00	0	58	0	63438848	51	5380
2026-01-25 20:52:19.88	243.88	11.69	-40.3	-43.3	18.1	0.00e+00	0	58	0	64487424	51	5339
2026-01-25 20:52:20.89	243.65	11.78	-40.2	-43.2	18.3	0.00e+00	0	58	0	66060288	51	5245
2026-01-25 20:52:21.90	243.41	11.86	-40.1	-43.1	18.5	0.00e+00	0	58	0	67108864	51	5167
2026-01-25 20:52:22.91	243.17	11.94	-40.0	-43.0	18.6	0.00e+00	0	58	0	68157440	51	5103
2026-01-25 20:52:23.92	242.93	12.03	-39.9	-42.8	18.7	0.00e+00	0	58	0	69206016	51	5023
2026-01-25 20:52:24.93	242.69	12.11	-39.9	-42.7	18.8	0.00e+00	0	58	0	70254592	51	4976
2026-01-25 20:52:25.94	242.44	12.19	-39.9	-42.7	18.8	0.00e+00	0	58	0	71303168	51	4964
2026-01-25 20:52:26.95	242.20	12.28	-40.0	-42.9	18.7	0.00e+00	0	58	0	72351744	51	5042
2026-01-25 20:52:27.96	241.95	12.36	-40.1	-43.1	18.5	0.00e+00	0	58	0	73924608	51	5170
2026-01-25 20:52:28.97	241.70	12.45	-40.2	-43.2	18.3	0.00e+00	0	58	0	74973184	51	5266
2026-01-25 20:52:29.97	241.45	12.53	-40.3	-43.4	18.2	0.00e+00	0	58	0	76021760	51	5345
2026-01-25 20:52:30.98	241.20	12.61	-40.2	-43.2	18.3	0.00e+00	0	58	0	77070336	51	5275
2026-01-25 20:52:31.99	240.94	12.70	-40.2	-43.2	18.3	0.00e+00	0	58	0	78118912	51	5253
2026-01-25 20:52:33.00	240.69	12.78	-40.1	-43.1	18.4	0.00e+00	0	58	0	79167488	51	5189
2026-01-25 20:52:34.01	240.43	12.86	-39.7	-42.5	19.1	0.00e+00	0	58	0	80740352	51	4826
2026-01-25 20:52:35.02	240.17	12.95	-39.4	-42.1	19.5	0.00e+00	0	58	0	81788928	50	4883
2026-01-25 20:52:36.03	239.90	13.03	-39.3	-41.9	19.7	0.00e+00	0	58	0	82837504	50	4771
2026-01-25 20:52:37.04	239.64	13.11	-39.4	-42.0	19.6	0.00e+00	0	58	0	83886080	50	4821
2026-01-25 20:52:38.05	239.37	13.20	-39.5	-42.1	19.5	0.00e+00	0	58	0	84934656	50	4903
2026-01-25 20:52:39.06	239.10	13.28	-39.7	-42.4	19.3	0.00e+00	0	58	0	85983232	50	5055
2026-01-25 20:52:40.07	238.83	13.36	-39.8	-42.6	19.1	0.00e+00	0	58	0	87556096	50	5166
2026-01-25 20:52:41.08	238.56	13.45	-39.8	-42.7	19.0	0.00e+00	0	58	0	88604672	50	5226
2026-01-25 20:52:42.09	238.28	13.53	-39.8	-42.6	19.0	0.00e+00	0	58	0	89653248	50	5204
2026-01-25 20:52:43.10	238.01	13.61	-39.8	-42.6	19.0	0.00e+00	0	58	0	90701824	50	5199
2026-01-25 20:52:44.11	237.73	13.69	-39.8	-42.6	19.1	0.00e+00	0	58	0	91750400	50	5175
2026-01-25 20:52:45.12	237.45	13.78	-39.8	-42.6	19.0	0.00e+00	0	58	0	93323264	50	5205
2026-01-25 20:52:46.13	237.16	13.86	-39.7	-42.4	19.3	0.00e+00	0	59	0	94371840	50	5063
2026-01-25 20:52:47.14	236.88	13.94	-39.5	-42.1	19.5	0.00e+00	0	58	0	95420416	50	4913
2026-01-25 20:52:48.16	236.59	14.03	-39.5	-42.0	19.6	0.00e+00	0	58	0	96468992	50	4869
2026-01-25 20:52:49.17	236.30	14.11	-39.4	-42.0	19.6	0.00e+00	0	59	0	97517568	50	4870
2026-01-25 20:52:50.18	236.01	14.19	-39.4	-42.0	19.6	0.00e+00	0	58	0	98566144	50	4865
2026-01-25 20:52:51.19	235.71	14.27	-39.4	-41.9	19.7	0.00e+00	0	58	0	100139008	50	4806
2026-01-25 20:52:52.20	235.42	14.35	-39.4	-42.0	19.7	0.00e+00	0	58	0	101187584	50	4827
2026-01-25 20:52:53.21	235.12	14.43	-39.4	-42.0	19.7	0.00e+00	0	59	0	102236160	50	4831
2026-01-25 20:52:54.22	234.82	14.51	-39.5	-42.2	19.6	0.00e+00	0	59	0	103284736	50	4930
2026-01-25 20:52:55.23	234.52	14.60	-39.7	-42.4	19.3	0.00e+00	0	59	0	104333312	50	5059
2026-01-25 20:52:56.24	234.22	14.68	-39.6	-42.3	19.4	0.00e+00	0	59	0	105381888	50	5004
2026-01-25 20:52:57.25	233.91	14.76	-39.7	-42.4	19.3	0.00e+00	0	59	0	106430464	50	5066
2026-01-25 20:52:58.26	233.60	14.84	-39.6	-42.3	19.4	0.00e+00	0	59	0	108003328	50	5018
2026-01-25 20:52:59.26	233.29	14.91	-39.7	-42.3	19.4	0.00e+00	0	58	0	109051904	50	5013
2026-01-25 20:53:00.27	232.98	14.99	-39.6	-42.2	19.5	0.00e+00	0	59	0	110100480	50	4963
2026-01-25 20:53:01.28	232.67	15.07	-39.7	-42.4	19.4	0.00e+00	0	59	0	111149056	50	5051
2026-01-25 20:53:02.29	232.35	15.15	-39.3	-41.8	19.9	0.00e+00	0	59	0	112197632	50	4737
2026-01-25 20:53:03.30	232.03	15.23	-39.1	-41.6	20.1	0.00e+00	0	59	0	113246208	50	4617
2026-01-25 20:53:04.31	231.71	15.31	-39.1	-41.5	20.2	0.00e+00	0	59	0	114819072	50	4569
2026-01-25 20:53:05.32	231.39	15.39	-39.1	-41.5	20.2	0.00e+00	0	59	0	115867648	50	4593
2026-01-25 20:53:06.33	231.06	15.46	-39.1	-41.6	20.1	0.00e+00	0	59	0	116916224	50	4630
2026-01-25 20:53:07.34	230.73	15.54	-39.2	-41.7	20.1	0.00e+00	0	59	0	117964800	50	4657
2026-01-25 20:53:08.35	230.40	15.62	-39.2	-41.7	20.0	0.00e+00	0	59	0	119013376	50	4697
2026-01-25 20:53:09.36	230.07	15.69	-39.5	-42.1	19.7	0.00e+00	0	59	0	120061952	50	4895
2026-01-25 20:53:10.37	229.74	15.77	-39.6	-42.3	19.5	0.00e+00	0	59	0	121634816	50	5005
2026-01-25 20:53:11.39	229.40	15.84	-39.6	-42.3	19.5	0.00e+00	0	59	0	122683392	50	4987
2026-01-25 20:53:12.39	229.06	15.92	-39.5	-42.1	19.7	0.00e+00	0	59	0	123731968	50	4879
2026-01-25 20:53:13.40	228.72	15.99	-39.4	-42.0	19.8	0.00e+00	0	59	0	124780544	50	4838
2026-01-25 20:53:14.41	228.38	16.06	-39.0	-41.4	20.3	0.00e+00	0	59	0	125829120	50	4529
2026-01-25 20:53:15.42	228.04	16.14	-38.8	-41.2	20.6	0.00e+00	0	59	0	127401984	49	4661
2026-01-25 20:53:16.43	227.69	16.21	-38.6	-40.9	20.8	0.00e+00	0	59	0	128450560	49	4523
2026-01-25 20:53:17.44	227.34	16.28	-38.5	-40.8	21.0	0.00e+00	0	59	0	129499136	49	4454
2026-01-25 20:53:18.45	226.99	16.35	-38.6	-40.8	20.9	0.00e+00	0	59	0	130547712	49	4470
2026-01-25 20:53:19.46	226.64	16.42	-38.7	-41.0	20.7	0.00e+00	0	59	0	131596288	49	4598
2026-01-25 20:53:20.47	226.28	16.49	-38.5	-40.7	21.1	0.00e+00	0	59	0	132644864	49	4422
2026-01-25 20:53:21.49	225.92	16.56	-38.6	-40.9	20.9	0.00e+00	0	59	0	134217728	49	4500
2026-01-25 20:53:22.49	225.57	16.63	-38.6	-40.8	20.9	0.00e+00	0	59	0	135266304	49	4481
2026-01-25 20:53:23.51	225.20	16.70	-38.6	-40.8	21.0	0.00e+00	0	59	0	136314880	49	4475
2026-01-25 20:53:24.51	224.84	16.77	-38.5	-40.7	21.1	0.00e+00	0	59	0	137363456	49	4432
2026-01-25 20:53:25.53	224.47	16.83	-38.5	-40.7	21.1	0.00e+00	0	59	0	138412032	48	4701
2026-01-25 20:53:26.54	224.11	16.90	-38.5	-40.8	21.1	0.00e+00	0	59	0	139460608	48	4713
2026-01-25 20:53:27.55	223.74	16.97	-38.7	-41.0	20.9	0.00e+00	0	59	0	141033472	48	4817
2026-01-25 20:53:28.56	223.36	17.03	-38.8	-41.0	20.8	0.00e+00	0	59	0	142082048	48	4868
2026-01-25 20:53:29.56	222.99	17.09	-38.9	-41.2	20.6	0.00e+00	0	59	0	143130624	48	4982
2026-01-25 20:53:30.58	222.62	17.16	-38.9	-41.3	20.6	0.00e+00	0	59	0	144179200	48	5007
2026-01-25 20:53:31.59	222.24	17.22	-38.9	-41.3	20.5	0.00e+00	0	59	0	145227776	48	5008
2026-01-25 20:53:32.60	221.86	17.28	-38.9	-41.3	20.6	0.00e+00	0	59	0	146276352	48	4993
2026-01-25 20:53:33.61	221.48	17.34	-38.9	-41.2	20.7	0.00e+00	0	59	0	147324928	48	4966
2026-01-25 20:53:34.62	221.09	17.40	-38.9	-41.2	20.7	0.00e+00	0	59	0	148897792	48	4945
2026-01-25 20:53:35.63	220.71	17.46	-38.7	-41.0	20.8	0.00e+00	0	59	0	149946368	48	4858
2026-01-25 20:53:36.64	220.32	17.52	-38.8	-41.1	20.7	0.00e+00	0	59	0	150994944	48	4902
2026-01-25 20:53:37.65	219.93	17.57	-38.8	-41.1	20.7	0.00e+00	0	59	0	152043520	48	4899
2026-01-25 20:53:38.66	219.54	17.63	-38.7	-41.0	20.9	0.00e+00	0	59	0	153092096	48	4821
2026-01-25 20:53:39.67	219.15	17.68	-38.7	-41.0	20.9	0.00e+00	0	59	0	154140672	48	4818
2026-01-25 20:53:40.68	218.76	17.74	-38.7	-41.0	20.9	0.00e+00	0	59	0	155713536	48	4833
2026-01-25 20:53:41.69	218.36	17.79	-38.6	-40.8	21.0	0.00e+00	0	59	0	156762112	48	4736
2026-01-25 20:53:42.70	217.96	17.84	-38.4	-40.6	21.3	0.00e+00	0	59	0	157810688	48	4602
2026-01-25 20:53:43.71	217.56	17.89	-38.4	-40.5	21.3	0.00e+00	0	59	0	158859264	48	4574
2026-01-25 20:53:44.72	217.16	17.94	-38.2	-40.3	21.5	0.00e+00	0	59	0	159907840	48	4490
2026-01-25 20:53:45.73	216.76	17.99	-38.0	-40.1	21.8	0.00e+00	0	59	0	161480704	48	4359
2026-01-25 20:53:46.74	216.36	18.04	-38.0	-40.1	21.8	0.00e+00	0	59	0	162529280	47	4599
2026-01-25 20:53:47.75	215.95	18.09	-37.8	-39.9	21.9	0.00e+00	0	59	0	163577856	47	4503
2026-01-25 20:53:48.76	215.54	18.13	-38.0	-40.1	21.7	0.00e+00	0	59	0	164626432	47	4628
2026-01-25 20:53:49.77	215.14	18.17	-37.9	-40.0	21.8	0.00e+00	0	59	0	165675008	47	4569
2026-01-25 20:53:50.78	214.73	18.22	-37.9	-40.0	21.8	0.00e+00	0	59	0	166723584	47	4566
2026-01-25 20:53:51.79	214.31	18.26	-38.1	-40.2	21.5	0.00e+00	0	59	0	168296448	47	4703
2026-01-25 20:53:52.80	213.90	18.30	-38.3	-40.5	21.4	0.00e+00	0	59	0	169345024	47	4822
2026-01-25 20:53:53.81	213.49	18.34	-38.3	-40.5	21.3	0.00e+00	0	59	0	170393600	47	4839
2026-01-25 20:53:54.82	213.07	18.38	-38.3	-40.4	21.3	0.00e+00	0	59	0	171442176	47	4812
2026-01-25 20:53:55.83	212.65	18.42	-38.2	-40.4	21.5	0.00e+00	0	59	0	172490752	47	4761
2026-01-25 20:53:56.84	212.24	18.45	-37.9	-40.0	21.8	0.00e+00	0	59	0	173539328	47	4576
2026-01-25 20:53:57.85	211.82	18.49	-37.7	-39.7	22.1	0.00e+00	0	59	0	175112192	47	4428
2026-01-25 20:53:58.86	211.40	18.52	-37.7	-39.7	22.1	0.00e+00	0	60	0	176160768	47	4420
2026-01-25 20:53:59.87	210.97	18.55	-37.8	-39.9	22.0	0.00e+00	0	59	0	177209344	47	4498
2026-01-25 20:54:00.88	210.55	18.58	-37.7	-39.7	22.1	0.00e+00	0	59	0	178257920	47	4431
2026-01-25 20:54:01.88	210.13	18.61	-37.9	-39.9	21.9	0.00e+00	0	59	0	179306496	47	4538
2026-01-25 20:54:02.89	209.71	18.64	-37.8	-39.9	22.0	0.00e+00	0	59	0	180355072	47	4501
2026-01-25 20:54:03.90	209.28	18.67	-38.0	-40.0	21.8	0.00e+00	0	59	0	181927936	47	4595
2026-01-25 20:54:04.91	208.85	18.69	-37.9	-39.9	21.9	0.00e+00	0	59	0	182976512	47	4534
2026-01-25 20:54:05.92	208.43	18.72	-37.9	-40.0	21.8	0.00e+00	0	59	0	184025088	47	4579
2026-01-25 20:54:06.93	208.00	18.74	-38.0	-40.0	21.8	0.00e+00	0	60	0	185073664	47	4581
2026-01-25 20:54:07.94	207.57	18.76	-38.1	-40.2	21.6	0.00e+00	0	59	0	186122240	47	4671
2026-01-25 20:54:08.95	207.14	18.78	-38.1	-40.2	21.7	0.00e+00	0	59	0	187170816	47	4654
2026-01-25 20:54:09.96	206.71	18.80	-38.0	-40.1	21.6	0.00e+00	0	59	0	188219392	47	4648
2026-01-25 20:54:10.97	206.28	18.82	-38.0	-40.1	21.7	0.00e+00	0	59	0	189792256	47	4648
2026-01-25 20:54:11.98	205.85	18.83	-38.1	-40.3	21.5	0.00e+00	0	59	0	190840832	47	4711
2026-01-25 20:54:12.99	205.41	18.85	-38.2	-40.3	21.5	0.00e+00	0	60	0	191889408	47	4738
2026-01-25 20:54:14.00	204.98	18.86	-38.2	-40.4	21.4	0.00e+00	0	59	0	192937984	47	4782
2026-01-25 20:54:15.01	204.55	18.87	-38.3	-40.5	21.3	0.00e+00	0	60	0	193986560	47	4846
2026-01-25 20:54:16.02	204.11	18.88	-38.3	-40.5	21.3	0.00e+00	0	59	0	195559424	47	4823
2026-01-25 20:54:17.03	203.68	18.89	-38.4	-40.6	21.3	0.00e+00	0	59	0	196608000	47	4882
2026-01-25 20:54:18.04	203.25	18.90	-38.4	-40.6	21.1	0.00e+00	0	59	0	197656576	47	4911
2026-01-25 20:54:19.05	202.81	18.91	-38.1	-40.2	21.6	0.00e+00	0	60	0	198705152	47	4673
2026-01-25 20:54:20.06	202.38	18.91	-38.0	-40.1	21.7	0.00e+00	0	59	0	199753728	47	4616
2026-01-25 20:54:21.07	201.94	18.92	-37.9	-39.9	21.9	0.00e+00	0	59	0	200802304	47	4538
2026-01-25 20:54:22.09	201.50	18.92	-38.0	-40.1	21.6	0.00e+00	0	59	0	202375168	47	4639
2026-01-25 20:54:23.10	201.07	18.92	-37.9	-39.9	21.8	0.00e+00	0	60	0	203423744	47	4533
2026-01-25 20:54:24.10	200.64	18.92	-38.0	-40.1	21.8	0.00e+00	0	59	0	204472320	47	4599
2026-01-25 20:54:25.11	200.20	18.91	-37.8	-39.8	22.0	0.00e+00	0	59	0	205520896	47	4490
2026-01-25 20:54:26.12	199.77	18.91	-37.9	-39.9	21.9	0.00e+00	0	60	0	206569472	47	4525
2026-01-25 20:54:27.13	199.33	18.91	-37.9	-39.9	21.9	0.00e+00	0	60	0	207618048	47	4522
2026-01-25 20:54:28.14	198.90	18.90	-37.8	-39.8	21.9	0.00e+00	0	60	0	209190912	47	4489
2026-01-25 20:54:29.15	198.46	18.89	-37.9	-40.0	21.8	0.00e+00	0	60	0	210239488	47	4546
2026-01-25 20:54:30.16	198.03	18.88	-38.0	-40.1	21.6	0.00e+00	0	60	0	211288064	47	4646
2026-01-25 20:54:31.17	197.60	18.87	-38.3	-40.5	21.3	0.00e+00	0	59	0	212336640	47	4870
2026-01-25 20:54:32.18	197.16	18.86	-38.5	-40.7	21.1	0.00e+00	0	60	0	213385216	47	4952
2026-01-25 20:54:33.19	196.73	18.84	-38.4	-40.6	21.1	0.00e+00	0	60	0	214433792	47	4921
2026-01-25 20:54:34.20	196.30	18.83	-38.2	-40.3	21.5	0.00e+00	0	60	0	216006656	47	4725
2026-01-25 20:54:35.21	195.87	18.81	-38.1	-40.3	21.5	0.00e+00	0	60	0	217055232	47	4709
2026-01-25 20:54:36.22	195.44	18.79	-37.7	-39.8	21.9	0.00e+00	0	59	0	218103808	47	4465
2026-01-25 20:54:37.23	195.01	18.77	-37.5	-39.5	22.3	0.00e+00	0	60	0	219152384	47	4293
2026-01-25 20:54:38.24	194.58	18.75	-37.4	-39.4	22.4	0.00e+00	0	60	0	220200960	46	4520
2026-01-25 20:54:39.25	194.15	18.73	-37.5	-39.5	22.3	0.00e+00	0	60	0	221249536	46	4550
2026-01-25 20:54:40.26	193.72	18.71	-37.8	-39.8	21.9	0.00e+00	0	60	0	222822400	46	4729
2026-01-25 20:54:41.27	193.29	18.68	-38.0	-40.1	21.7	0.00e+00	0	60	0	223870976	46	4897
2026-01-25 20:54:42.28	192.86	18.66	-38.2	-40.3	21.4	0.00e+00	0	60	0	224919552	46	5025
2026-01-25 20:54:43.29	192.44	18.63	-38.3	-40.5	21.2	0.00e+00	0	60	0	225968128	47	4869
2026-01-25 20:54:44.30	192.01	18.60	-38.3	-40.5	21.2	0.00e+00	0	60	0	227016704	47	4830
2026-01-25 20:54:45.32	191.59	18.57	-38.3	-40.5	21.2	0.00e+00	0	60	0	228065280	47	4860
2026-01-25 20:54:46.32	191.17	18.54	-37.9	-40.0	21.7	0.00e+00	0	60	0	229638144	47	4586
2026-01-25 20:54:47.34	190.74	18.51	-37.7	-39.8	21.8	0.00e+00	0	60	0	230686720	47	4464
2026-01-25 20:54:48.34	190.33	18.47	-37.8	-39.8	21.9	0.00e+00	0	60	0	231735296	47	4478
2026-01-25 20:54:49.35	189.91	18.44	-37.4	-39.4	22.3	0.00e+00	0	60	0	232783872	46	4521
2026-01-25 20:54:50.36	189.49	18.40	-37.4	-39.4	22.3	0.00e+00	0	60	0	233832448	46	4507
2026-01-25 20:54:51.37	189.07	18.36	-37.5	-39.5	22.2	0.00e+00	0	60	0	234881024	46	4595
2026-01-25 20:54:52.38	188.66	18.32	-38.0	-40.1	21.7	0.00e+00	0	60	0	236453888	46	4893
2026-01-25 20:54:53.39	188.24	18.28	-38.2	-40.3	21.4	0.00e+00	0	60	0	237502464	47	4759
2026-01-25 20:54:54.40	187.83	18.24	-38.2	-40.4	21.3	0.00e+00	0	60	0	238551040	47	4796
2026-01-25 20:54:55.41	187.42	18.20	-38.2	-40.4	21.3	0.00e+00	0	60	0	239599616	47	4771
2026-01-25 20:54:56.42	187.01	18.16	-38.0	-40.1	21.5	0.00e+00	0	60	0	240648192	47	4630
2026-01-25 20:54:57.43	186.60	18.11	-37.9	-40.0	21.7	0.00e+00	0	60	0	241696768	47	4578
2026-01-25 20:54:58.44	186.19	18.07	-37.9	-40.0	21.6	0.00e+00	0	60	0	243269632	47	4593
2026-01-25 20:54:59.45	185.79	18.02	-37.9	-40.0	21.7	0.00e+00	0	60	0	244318208	47	4550
2026-01-25 20:55:00.46	185.38	17.97	-37.9	-40.0	21.7	0.00e+00	0	60	0	245366784	47	4546
2026-01-25 20:55:01.47	184.98	17.92	-37.9	-40.0	21.6	0.00e+00	0	60	0	246415360	47	4584
2026-01-25 20:55:02.48	184.58	17.87	-37.9	-40.0	21.7	0.00e+00	0	60	0	247463936	47	4551
2026-01-25 20:55:03.49	184.18	17.82	-38.0	-40.1	21.6	0.00e+00	0	60	0	248512512	47	4626
2026-01-25 20:55:04.50	183.78	17.77	-38.2	-40.3	21.3	0.00e+00	0	60	0	250085376	47	4753
2026-01-25 20:55:05.51	183.39	17.71	-38.3	-40.6	21.1	0.00e+00	0	60	0	251133952	47	4873
2026-01-25 20:55:06.52	182.99	17.66	-38.4	-40.6	21.0	0.00e+00	0	60	0	252182528	47	4903
2026-01-25 20:55:07.53	182.60	17.60	-38.3	-40.6	21.0	0.00e+00	0	60	0	253231104	47	4900
2026-01-25 20:55:08.54	182.21	17.55	-38.4	-40.6	21.1	0.00e+00	0	60	0	254279680	47	4905
2026-01-25 20:55:09.55	181.82	17.49	-38.3	-40.5	21.1	0.00e+00	0	60	0	255328256	47	4852
2026-01-25 20:55:10.56	181.44	17.43	-38.4	-40.6	21.0	0.00e+00	0	60	0	256901120	47	4907
2026-01-25 20:55:11.57	181.05	17.37	-38.6	-40.9	20.7	0.00e+00	0	60	0	257949696	47	5091
2026-01-25 20:55:12.58	180.67	17.31	-38.9	-41.3	20.4	0.00e+00	0	60	0	258998272	48	5000
2026-01-25 20:55:13.58	180.29	17.25	-38.7	-41.0	20.7	0.00e+00	0	60	0	260046848	48	4829
2026-01-25 20:55:14.59	179.91	17.19	-38.6	-40.8	20.8	0.00e+00	0	60	0	261095424	48	4750
2026-01-25 20:55:15.61	179.53	17.13	-38.5	-40.7	21.0	0.00e+00	0	60	0	262144000	48	4688
2026-01-25 20:55:16.62	179.16	17.06	-38.3	-40.5	21.2	0.00e+00	0	60	0	263716864	48	4579
2026-01-25 20:55:17.63	178.78	17.00	-38.3	-40.5	21.2	0.00e+00	0	60	0	264765440	48	4573
2026-01-25 20:55:18.64	178.41	16.94	-38.4	-40.6	21.0	0.00e+00	0	60	0	265814016	48	4640
2026-01-25 20:55:19.65	178.04	16.87	-38.6	-40.9	20.8	0.00e+00	0	60	0	266862592	48	4786
2026-01-25 20:55:20.66	177.68	16.80	-38.7	-41.0	20.6	0.00e+00	0	60	0	267911168	48	4841
2026-01-25 20:55:21.66	177.31	16.74	-38.9	-41.3	20.4	0.00e+00	0	60	0	268959744	48	5031
2026-01-25 20:55:22.67	176.95	16.67	-38.9	-41.3	20.4	0.00e+00	0	60	0	270532608	48	5034
2026-01-25 20:55:23.68	176.59	16.60	-38.9	-41.3	20.3	0.00e+00	0	60	0	271581184	48	5023
2026-01-25 20:55:24.69	176.23	16.53	-39.0	-41.4	20.2	0.00e+00	0	60	0	272629760	48	5089
2026-01-25 20:55:25.70	175.87	16.46	-39.0	-41.5	20.2	0.00e+00	0	60	0	273678336	48	5106
2026-01-25 20:55:26.71	175.52	16.39	-39.1	-41.6	20.1	0.00e+00	0	60	0	274726912	48	5193
2026-01-25 20:55:27.72	175.17	16.32	-39.2	-41.7	20.0	0.00e+00	0	60	0	275775488	48	5229
2026-01-25 20:55:28.73	174.81	16.25	-39.3	-41.8	19.9	0.00e+00	0	60	0	277348352	49	4988
2026-01-25 20:55:29.74	174.47	16.18	-39.3	-41.9	19.9	0.00e+00	0	60	0	278396928	49	5060
2026-01-25 20:55:30.75	174.12	16.10	-40.2	-42.7	20.0	0.00e+00	0	60	0	279445504	51	4951
2026-01-25 20:55:31.77	173.77	16.03	-39.3	-41.7	20.2	0.00e+00	0	60	0	280494080	50	4682
2026-01-25 20:55:32.78	173.43	15.96	-39.1	-41.5	20.4	0.00e+00	0	60	0	281542656	50	4558
2026-01-25 20:55:33.78	173.09	15.88	-39.1	-41.5	20.4	0.00e+00	0	60	0	282591232	50	4549
2026-01-25 20:55:34.79	172.76	15.81	-39.0	-41.3	20.5	0.00e+00	0	60	0	284164096	49	4756
2026-01-25 20:55:35.80	172.42	15.73	-39.2	-41.6	20.2	0.00e+00	0	60	0	285212672	49	4894
2026-01-25 20:55:36.81	172.09	15.66	-39.3	-41.8	20.1	0.00e+00	0	60	0	286261248	49	5003
2026-01-25 20:55:37.82	171.75	15.58	-39.2	-41.6	20.2	0.00e+00	0	60	0	287309824	49	4925
2026-01-25 20:55:38.83	171.42	15.50	-39.2	-41.6	20.2	0.00e+00	0	60	0	288358400	49	4914
2026-01-25 20:55:39.84	171.10	15.43	-39.2	-41.6	20.2	0.00e+00	0	60	0	289406976	49	4925
2026-01-25 20:55:40.85	170.77	15.35	-39.3	-41.7	20.1	0.00e+00	0	60	0	290979840	49	4983
2026-01-25 20:55:41.86	170.45	15.27	-39.3	-41.8	20.0	0.00e+00	0	60	0	292028416	49	5017
2026-01-25 20:55:42.87	170.13	15.19	-39.3	-41.8	20.0	0.00e+00	0	60	0	293076992	49	5028
2026-01-25 20:55:43.88	169.81	15.11	-39.2	-41.7	20.2	0.00e+00	0	60	0	294125568	49	4930
2026-01-25 20:55:44.89	169.49	15.04	-39.4	-41.8	20.0	0.00e+00	0	60	0	295174144	49	5030
2026-01-25 20:55:45.90	169.18	14.96	-39.5	-42.0	19.9	0.00e+00	0	60	0	296222720	49	5114
2026-01-25 20:55:46.90	168.87	14.88	-39.6	-42.2	19.7	0.00e+00	0	60	0	297795584	49	5263
2026-01-25 20:55:47.92	168.56	14.80	-39.7	-42.3	19.6	0.00e+00	0	60	0	298844160	49	5327
2026-01-25 20:55:48.93	168.25	14.72	-39.8	-42.4	19.6	0.00e+00	0	60	0	299892736	50	5084
2026-01-25 20:55:49.94	167.94	14.64	-39.7	-42.4	19.6	0.00e+00	0	60	0	300941312	50	5042
2026-01-25 20:55:50.95	167.64	14.55	-39.8	-42.4	19.6	0.00e+00	0	60	0	301989888	50	5064
2026-01-25 20:55:51.96	167.34	14.47	-39.8	-42.5	19.5	0.00e+00	0	60	0	303038464	50	5125
2026-01-25 20:55:52.97	167.04	14.39	-39.8	-42.4	19.5	0.00e+00	0	60	0	304611328	50	5062
2026-01-25 20:55:53.97	166.74	14.31	-39.7	-42.2	19.7	0.00e+00	0	60	0	305659904	50	4972
2026-01-25 20:55:54.98	166.45	14.23	-39.6	-42.2	19.7	0.00e+00	0	60	0	306708480	50	4940
2026-01-25 20:55:55.99	166.15	14.15	-39.5	-42.1	19.8	0.00e+00	0	60	0	307757056	50	4879
2026-01-25 20:55:57.00	165.86	14.07	-39.7	-42.3	19.6	0.00e+00	0	60	0	308805632	50	4984
2026-01-25 20:55:58.01	165.57	13.98	-39.7	-42.4	19.4	0.00e+00	0	60	0	309854208	50	5068
2026-01-25 20:55:59.02	165.29	13.90	-39.9	-42.6	19.3	0.00e+00	0	60	0	311427072	50	5190
2026-01-25 20:56:00.03	165.00	13.82	-40.0	-42.8	19.0	0.00e+00	0	60	0	312475648	50	5332
2026-01-25 20:56:01.04	164.72	13.74	-40.1	-42.9	18.9	0.00e+00	0	60	0	313524224	50	5376
2026-01-25 20:56:02.05	164.44	13.65	-40.0	-42.8	19.1	0.00e+00	0	60	0	314572800	50	5310
2026-01-25 20:56:03.06	164.16	13.57	-40.0	-42.7	19.1	0.00e+00	0	60	0	315621376	50	5278
2026-01-25 20:56:04.07	163.88	13.49	-39.9	-42.7	19.2	0.00e+00	0	60	0	316669952	50	5244
2026-01-25 20:56:05.08	163.61	13.40	-39.9	-42.7	19.2	0.00e+00	0	60	0	318242816	50	5230
2026-01-25 20:56:06.09	163.33	13.32	-39.9	-42.7	19.2	0.00e+00	0	60	0	319291392	50	5240
2026-01-25 20:56:07.10	163.06	13.24	-40.0	-42.8	19.1	0.00e+00	0	60	0	320339968	50	5304
2026-01-25 20:56:08.11	162.79	13.15	-40.0	-42.8	19.1	0.00e+00	0	60	0	321388544	50	5310
2026-01-25 20:56:09.12	162.53	13.07	-40.1	-43.0	18.9	0.00e+00	0	60	0	322437120	50	5436
2026-01-25 20:56:10.13	162.26	12.99	-40.1	-43.0	18.8	0.00e+00	0	60	0	323485696	51	5155
2026-01-25 20:56:11.14	162.00	12.90	-40.1	-43.1	18.8	0.00e+00	0	60	0	325058560	51	5162
2026-01-25 20:56:12.15	161.74	12.82	-40.2	-43.1	18.7	0.00e+00	0	60	0	326107136	51	5193
2026-01-25 20:56:13.16	161.48	12.73	-40.1	-43.0	18.8	0.00e+00	0	60	0	327155712	51	5126
2026-01-25 20:56:14.17	161.22	12.65	-40.0	-42.8	19.0	0.00e+00	0	60	0	328204288	51	5038
2026-01-25 20:56:15.18	160.97	12.57	-40.0	-42.8	19.0	0.00e+00	0	60	0	329252864	51	5018
2026-01-25 20:56:16.19	160.71	12.48	-39.8	-42.6	19.2	0.00e+00	0	60	0	330301440	51	4898
2026-01-25 20:56:17.20	160.46	12.40	-39.9	-42.6	19.2	0.00e+00	0	60	0	331874304	51	4910
2026-01-25 20:56:18.21	160.21	12.32	-40.1	-43.0	18.8	0.00e+00	0	60	0	332922880	51	5116
2026-01-25 20:56:19.22	159.97	12.23	-40.1	-43.1	18.7	0.00e+00	0	60	0	333971456	51	5184
2026-01-25 20:56:20.23	159.72	12.15	-40.3	-43.3	18.5	0.00e+00	0	60	0	335020032	51	5328
2026-01-25 20:56:21.24	159.48	12.06	-40.3	-43.4	18.4	0.00e+00	0	60	0	336068608	51	5352
2026-01-25 20:56:22.25	159.23	11.98	-40.3	-43.4	18.3	0.00e+00	0	60	0	337117184	51	5388
2026-01-25 20:56:23.26	158.99	11.90	-40.3	-43.4	18.3	0.00e+00	0	60	0	338690048	51	5402
2026-01-25 20:56:24.27	158.75	11.81	-40.3	-43.4	18.3	0.00e+00	0	60	0	339738624	51	5390
2026-01-25 20:56:25.28	158.52	11.73	-40.3	-43.4	18.2	0.00e+00	0	60	0	340787200	51	5398
2026-01-25 20:56:26.29	158.28	11.65	-40.3	-43.5	18.2	0.00e+00	0	61	0	341835776	51	5406
2026-01-25 20:56:27.30	158.05	11.56	-40.3	-43.4	18.3	0.00e+00	0	60	0	342884352	51	5390
2026-01-25 20:56:28.31	157.82	11.48	-40.3	-43.4	18.3	0.00e+00	0	61	0	343932928	51	5370
2026-01-25 20:56:29.32	157.59	11.40	-40.3	-43.4	18.2	0.00e+00	0	60	0	345505792	51	5369
2026-01-25 20:56:30.33	157.36	11.31	-40.3	-43.4	18.2	0.00e+00	0	60	0	346554368	51	5375
2026-01-25 20:56:31.34	157.14	11.23	-40.3	-43.4	18.3	0.00e+00	0	60	0	347602944	51	5396
2026-01-25 20:56:32.35	156.91	11.15	-40.3	-43.4	18.2	0.00e+00	0	61	0	348651520	51	5392
2026-01-25 20:56:33.36	156.69	11.06	-40.3	-43.5	18.1	0.00e+00	0	61	0	349700096	51	5453
2026-01-25 20:56:34.37	156.47	10.98	-40.3	-43.5	18.1	0.00e+00	0	60	0	350748672	51	5435
2026-01-25 20:56:35.38	156.25	10.90	-40.4	-43.6	18.0	0.00e+00	0	60	0	352321536	51	5491
2026-01-25 20:56:36.39	156.03	10.81	-40.4	-43.7	17.8	0.00e+00	0	60	0	353370112	51	5555
2026-01-25 20:56:37.40	155.81	10.73	-40.4	-43.8	17.8	0.00e+00	0	61	0	354418688	51	5599
2026-01-25 20:56:38.41	155.60	10.65	-40.5	-43.8	17.8	0.00e+00	0	60	0	355467264	51	5601
2026-01-25 20:56:39.42	155.39	10.57	-40.6	-43.9	17.6	0.00e+00	0	60	0	356515840	51	5715
2026-01-25 20:56:40.43	155.17	10.48	-40.6	-44.1	17.4	0.00e+00	0	60	0	357564416	51	5844
2026-01-25 20:56:41.44	154.97	10.40	-40.7	-44.2	17.4	0.00e+00	0	61	0	359137280	51	5883
2026-01-25 20:56:42.45	154.76	10.32	-40.6	-44.1	17.3	0.00e+00	0	60	0	360185856	51	5834
2026-01-25 20:56:43.46	154.55	10.24	-40.7	-44.3	17.2	0.00e+00	0	60	0	361234432	51	5951
2026-01-25 20:56:44.47	154.35	10.16	-40.6	-44.1	17.2	0.00e+00	0	60	0	362283008	52	5517
2026-01-25 20:56:45.48	154.14	10.07	-40.6	-44.2	17.1	0.00e+00	0	60	0	363331584	52	5591
2026-01-25 20:56:46.49	153.94	9.99	-40.6	-44.2	17.2	0.00e+00	0	61	0	364380160	52	5568
2026-01-25 20:56:47.50	153.74	9.91	-40.7	-44.3	17.0	0.00e+00	0	61	0	365953024	52	5633
2026-01-25 20:56:48.51	153.54	9.83	-40.7	-44.4	17.0	0.00e+00	0	60	0	367001600	52	5671
2026-01-25 20:56:49.52	153.34	9.75	-40.7	-44.4	17.0	0.00e+00	0	60	0	368050176	52	5669
2026-01-25 20:56:50.52	153.15	9.67	-40.5	-44.1	17.2	0.00e+00	0	61	0	369098752	52	5493
2026-01-25 20:56:51.53	152.96	9.59	-40.6	-44.2	17.1	0.00e+00	0	61	0	370147328	52	5563
2026-01-25 20:56:52.54	152.76	9.51	-40.5	-44.0	17.2	0.00e+00	0	61	0	371195904	52	5440
2026-01-25 20:56:53.56	152.57	9.43	-40.4	-43.9	17.3	0.00e+00	0	60	0	372768768	52	5396
2026-01-25 20:56:54.57	152.38	9.35	-40.4	-43.8	17.4	0.00e+00	0	61	0	373817344	52	5339
2026-01-25 20:56:55.58	152.19	9.27	-40.4	-44.0	17.3	0.00e+00	0	61	0	374865920	52	5403
2026-01-25 20:56:56.59	152.00	9.19	-40.4	-43.8	17.4	0.00e+00	0	60	0	375914496	52	5334
2026-01-25 20:56:57.60	151.82	9.11	-40.4	-43.9	17.3	0.00e+00	0	60	0	376963072	52	5350
2026-01-25 20:56:58.61	151.63	9.03	-40.4	-43.9	17.3	0.00e+00	0	61	0	378011648	52	5372
2026-01-25 20:56:59.62	151.45	8.95	-40.4	-44.0	17.2	0.00e+00	0	60	0	379584512	52	5420
2026-01-25 20:57:00.63	151.27	8.87	-40.5	-44.2	16.9	0.00e+00	0	61	0	380633088	52	5550
2026-01-25 20:57:01.64	151.09	8.79	-40.6	-44.4	16.7	0.00e+00	0	60	0	381681664	52	5698
2026-01-25 20:57:02.65	150.91	8.71	-40.7	-44.7	16.4	0.00e+00	0	60	0	382730240	52	5865
2026-01-25 20:57:03.65	150.73	8.63	-40.9	-45.1	16.0	0.00e+00	0	60	0	383778816	52	6143
2026-01-25 20:57:04.66	150.56	8.55	-41.0	-45.1	15.9	0.00e+00	0	60	0	384827392	52	6190
2026-01-25 20:57:05.67	150.38	8.47	-41.0	-45.2	15.8	0.00e+00	0	60	0	386400256	52	6219
2026-01-25 20:57:06.68	150.21	8.40	-40.9	-45.1	15.9	0.00e+00	0	61	0	387448832	52	6193
2026-01-25 20:57:07.69	150.04	8.32	-40.9	-45.2	15.8	0.00e+00	0	61	0	388497408	52	6224
2026-01-25 20:57:08.70	149.86	8.24	-40.9	-45.2	15.8	0.00e+00	0	61	0	389545984	52	6220
2026-01-25 20:57:09.71	149.69	8.16	-40.9	-45.1	15.8	0.00e+00	0	60	0	390594560	52	6136
2026-01-25 20:57:10.72	149.53	8.08	-40.9	-45.2	15.7	0.00e+00	0	61	0	391643136	52	6209
2026-01-25 20:57:11.73	149.36	8.01	-43.7	-53.3	7.5	0.00e+00	0	61	0	393216000	57	11944
2026-01-25 20:57:12.74	149.19	7.93	-44.8	-62.1	3.8	1.14e-02	0	60	104	393216000	60	27397
2026-01-25 20:57:13.75	149.03	7.85	-45.1	-63.1	3.8	7.37e-01	0	60	104	393216000	60	30864
2026-01-25 20:57:14.76	148.86	7.78	-45.4	-63.6	3.8	7.37e-01	0	61	104	393216000	61	31080
2026-01-25 20:57:15.77	148.70	7.70	-45.6	-63.9	3.8	8.47e-01	0	60	104	393216000	61	31896
2026-01-25 20:57:16.78	148.54	7.62	-45.7	-64.0	3.8	8.46e-01	0	60	104	393216000	61	32468
2026-01-25 20:57:17.79	148.38	7.55	-45.8	-64.1	3.8	8.46e-01	0	60	104	393216000	62	31036
2026-01-25 20:57:18.80	148.22	7.47	-45.8	-64.1	3.8	8.46e-01	0	61	104	393216000	62	31014
2026-01-25 20:57:19.81	148.06	7.39	-45.8	-64.1	3.8	8.46e-01	0	61	104	393216000	62	31005
2026-01-25 20:57:20.83	147.90	7.32	-45.8	-64.0	3.8	8.46e-01	0	60	104	393216000	62	30686
2026-01-25 20:57:21.84	147.75	7.24	-45.7	-63.9	3.8	8.46e-01	0	61	104	393216000	62	30343
2026-01-25 20:57:22.85	147.59	7.17	-45.7	-63.8	3.8	8.47e-01	0	61	104	393216000	62	29981
2026-01-25 20:57:23.86	147.44	7.09	-45.6	-63.8	3.8	8.46e-01	0	61	104	393216000	62	29758
2026-01-25 20:57:24.87	147.29	7.02	-45.5	-63.8	3.8	8.46e-01	0	61	104	393216000	62	29725
2026-01-25 20:57:25.88	147.14	6.94	-45.4	-63.5	3.8	8.46e-01	0	61	104	393216000	61	30504
2026-01-25 20:57:26.89	146.99	6.87	-45.4	-63.5	3.8	8.46e-01	0	61	104	393216000	61	30462
2026-01-25 20:57:27.89	146.84	6.79	-45.4	-63.1	3.8	8.46e-01	0	61	104	393216000	60	31060
2026-01-25 20:57:28.91	146.69	6.72	-44.8	-63.5	3.8	8.46e-01	0	60	104	393216000	61	30500
2026-01-25 20:57:29.92	146.54	6.65	-45.4	-63.6	3.8	8.45e-01	0	61	104	393216000	61	31068
2026-01-25 20:57:30.93	146.40	6.57	-45.4	-63.5	3.8	8.45e-01	0	61	104	393216000	61	30472
2026-01-25 20:57:31.94	146.25	6.50	-45.4	-63.5	3.8	8.45e-01	0	61	104	393216000	61	30423
2026-01-25 20:57:32.95	146.11	6.42	-45.4	-63.5	3.8	8.46e-01	0	61	104	393216000	61	30517
2026-01-25 20:57:33.96	145.97	6.35	-45.4	-63.5	3.8	8.47e-01	0	61	104	393216000	61	30514
2026-01-25 20:57:34.97	145.83	6.28	-45.4	-63.5	3.8	8.47e-01	0	61	104	393216000	61	30517
2026-01-25 20:57:35.98	145.68	6.21	-45.2	-63.5	3.8	8.46e-01	0	61	104	393216000	61	30473
2026-01-25 20:57:36.99	145.55	6.13	-45.4	-63.5	3.8	8.47e-01	0	61	104	393216000	61	30543
2026-01-25 20:57:38.00	145.41	6.06	-45.4	-63.5	3.8	8.47e-01	0	61	104	393216000	61	30478
2026-01-25 20:57:39.01	145.27	5.99	-45.4	-63.5	3.8	8.45e-01	0	61	104	393216000	61	30456
2026-01-25 20:57:40.02	145.13	5.92	-45.3	-63.5	3.8	8.46e-01	0	61	104	393216000	61	30477
2026-01-25 20:57:41.03	145.00	5.84	-45.4	-63.5	3.8	8.46e-01	0	61	104	393216000	61	30406
2026-01-25 20:57:42.04	144.86	5.77	-45.4	-63.5	3.8	8.46e-01	0	61	104	393216000	61	30410
2026-01-25 20:57:43.05	144.73	5.70	-45.1	-63.5	3.8	8.46e-01	0	61	104	393216000	61	30422
2026-01-25 20:57:44.06	144.59	5.63	-45.4	-63.5	3.8	8.46e-01	0	61	104	393216000	61	30402
2026-01-25 20:57:45.07	144.46	5.56	-45.3	-63.5	3.8	8.46e-01	0	60	104	393216000	61	30449
2026-01-25 20:57:46.08	144.33	5.49	-45.4	-63.5	3.8	8.46e-01	0	61	104	393216000	61	30417
2026-01-25 20:57:47.09	144.20	5.42	-45.4	-63.5	3.8	8.46e-01	0	61	104	393216000	61	30438
2026-01-25 20:57:48.10	144.07	5.35	-45.4	-63.4	3.8	8.46e-01	0	61	104	393216000	61	30318
2026-01-25 20:57:49.11	143.94	5.28	-45.4	-63.5	3.8	8.46e-01	0	61	104	393216000	61	30456
2026-01-25 20:57:50.13	143.81	5.20	-45.4	-63.4	3.8	8.46e-01	0	61	104	393216000	61	30314
2026-01-25 20:57:51.13	143.69	5.14	-45.4	-63.5	3.8	8.46e-01	0	61	104	393216000	61	30424
2026-01-25 20:57:52.14	143.56	5.07	-45.4	-63.4	3.8	8.46e-01	0	61	104	393216000	61	30330
2026-01-25 20:57:53.15	143.44	5.00	-45.2	-63.4	3.8	8.45e-01	0	61	104	393216000	61	30304
2026-01-25 20:57:54.17	143.31	4.93	-45.3	-63.4	3.8	8.46e-01	0	61	104	393216000	61	30267
2026-01-25 20:57:55.18	143.19	4.86	-45.3	-63.5	3.8	8.46e-01	0	61	104	393216000	61	30561
2026-01-25 20:57:56.19	143.07	4.79	-45.3	-63.4	3.8	8.47e-01	0	61	104	393216000	61	30287
2026-01-25 20:57:57.20	142.95	4.72	-45.3	-63.4	3.8	8.46e-01	0	61	104	393216000	61	30373
2026-01-25 20:57:58.21	142.83	4.65	-45.3	-63.4	3.8	8.46e-01	0	61	104	393216000	61	30249
2026-01-25 20:57:59.22	142.71	4.58	-45.3	-63.4	3.8	8.47e-01	0	61	104	393216000	61	30372
2026-01-25 20:58:00.23	142.59	4.51	-45.3	-63.4	3.8	8.45e-01	0	61	104	393216000	61	30276
2026-01-25 20:58:01.24	142.47	4.44	-45.3	-63.4	3.8	8.45e-01	0	61	104	393216000	61	30237
2026-01-25 20:58:02.25	142.35	4.38	-45.3	-63.4	3.8	8.46e-01	0	61	104	393216000	61	30187
2026-01-25 20:58:03.26	142.23	4.31	-45.3	-63.4	3.8	8.45e-01	0	61	104	393216000	61	30227
2026-01-25 20:58:04.27	142.12	4.24	-45.3	-63.4	3.8	8.46e-01	0	61	104	393216000	61	30270
2026-01-25 20:58:05.28	142.00	4.17	-45.3	-63.4	3.8	8.46e-01	0	61	104	393216000	61	30237
2026-01-25 20:58:06.29	141.89	4.11	-45.3	-63.0	3.8	8.45e-01	0	61	104	393216000	60	30576
2026-01-25 20:58:07.30	141.77	4.04	-45.3	-63.4	3.8	8.45e-01	0	61	104	393216000	61	30224
2026-01-25 20:58:08.31	141.66	3.97	-45.3	-63.4	3.8	8.45e-01	0	61	104	393216000	61	30167
2026-01-25 20:58:09.32	141.55	3.90	-45.3	-63.4	3.8	8.45e-01	0	61	104	393216000	61	30238
2026-01-25 20:58:10.33	141.44	3.84	-45.3	-63.4	3.8	8.44e-01	0	61	104	393216000	61	30313
2026-01-25 20:58:11.35	141.33	3.77	-45.2	-63.4	3.8	8.44e-01	0	61	104	393216000	61	30166
2026-01-25 20:58:12.36	141.22	3.70	-45.2	-63.4	3.8	8.46e-01	0	61	104	393216000	61	30160
2026-01-25 20:58:13.37	141.11	3.64	-45.3	-63.4	3.8	8.47e-01	0	61	104	393216000	61	30119
2026-01-25 20:58:14.38	141.00	3.57	-45.3	-63.4	3.8	8.47e-01	0	61	104	393216000	61	30215
2026-01-25 20:58:15.39	140.89	3.51	-45.3	-63.4	3.8	8.46e-01	0	61	104	393216000	61	30140
2026-01-25 20:58:16.40	140.78	3.44	-45.3	-63.4	3.8	8.46e-01	0	61	104	393216000	61	30072
2026-01-25 20:58:17.41	140.68	3.38	-45.3	-63.4	3.8	8.46e-01	0	61	104	393216000	61	30210
2026-01-25 20:58:18.42	140.57	3.31	-45.3	-63.4	3.8	8.46e-01	0	61	104	393216000	61	30190
2026-01-25 20:58:19.43	140.47	3.25	-45.3	-63.4	3.8	8.45e-01	0	61	104	393216000	61	30085
2026-01-25 20:58:20.44	140.36	3.18	-45.3	-63.4	3.8	8.45e-01	0	61	104	393216000	61	30130
2026-01-25 20:58:21.45	140.26	3.12	-45.3	-63.4	3.8	8.45e-01	0	61	104	393216000	61	30167
2026-01-25 20:58:22.46	140.16	3.05	-45.3	-63.4	3.8	8.46e-01	0	61	104	393216000	61	30138
2026-01-25 20:58:23.47	140.05	2.99	-45.3	-63.4	3.8	8.46e-01	0	61	104	393216000	61	30192
2026-01-25 20:58:24.48	139.95	2.92	-45.3	-63.4	3.8	8.46e-01	0	61	104	393216000	61	30142
2026-01-25 20:58:25.50	139.85	2.86	-45.3	-63.4	3.8	8.46e-01	0	60	104	393216000	61	30124
2026-01-25 20:58:26.51	139.75	2.79	-45.3	-63.4	3.8	8.47e-01	0	61	104	393216000	61	30071
2026-01-25 20:58:27.52	139.65	2.73	-45.3	-63.4	3.8	8.47e-01	0	61	104	393216000	61	30057
2026-01-25 20:58:28.53	139.55	2.67	-45.3	-63.3	3.8	8.47e-01	0	61	104	393216000	61	30028
2026-01-25 20:58:29.54	139.45	2.60	-45.3	-63.3	3.8	8.47e-01	0	61	104	393216000	61	30030
2026-01-25 20:58:30.55	139.35	2.54	-45.3	-63.4	3.8	8.45e-01	0	61	104	393216000	61	30178
2026-01-25 20:58:31.56	139.26	2.48	-45.3	-63.4	3.8	8.45e-01	0	61	104	393216000	61	30165
2026-01-25 20:58:32.57	139.16	2.41	-45.3	-63.4	3.8	8.46e-01	0	61	104	393216000	61	30174
2026-01-25 20:58:33.58	139.06	2.35	-45.3	-63.3	3.8	8.46e-01	0	61	104	393216000	61	29996
2026-01-25 20:58:34.59	138.97	2.29	-45.3	-63.4	3.8	8.46e-01	0	61	104	393216000	61	30096
2026-01-25 20:58:35.60	138.87	2.22	-45.3	-63.4	3.8	8.47e-01	0	61	104	393216000	61	30081
2026-01-25 20:58:36.61	138.78	2.16	-45.3	-63.4	3.8	8.47e-01	0	61	104	393216000	61	30088
2026-01-25 20:58:37.62	138.69	2.10	-45.3	-63.3	3.8	8.47e-01	0	61	104	393216000	61	30012
2026-01-25 20:58:38.63	138.59	2.04	-45.3	-63.4	3.8	8.46e-01	0	61	104	393216000	61	30128
2026-01-25 20:58:39.64	138.50	1.98	-45.3	-63.4	3.8	8.47e-01	0	61	104	393216000	61	30051
2026-01-25 20:58:40.65	138.41	1.91	-45.3	-63.3	3.8	8.47e-01	0	61	104	393216000	61	30009

#Closed at: 2026-01-25 20:58:40
#Recorded file [393 MB]: D:/lorett/data/31039_260125_235006.dat