passes_logs/2026/01/25/R2.0S_Moscow/R2.0S_Moscow__20260125_022447_FENGYUN_3D_rec.log

#Pass ID: 20260125_022447_FENGYUN 3D
#Satellite: FENGYUN 3D
#Configuration: FENGYUN 3D
#almurnet v.1.7.20251203
#Start time: 2026-01-25 02:26:17

#Version: 2.2.20231116
#Station: R2.0S_Moscow
#Location: 37.707566 lon 55.798166 lat
#TLE: 1 43010U 17072A   26024.51794477  .00000040  00000+0  40682-4 0  9990
#TLE: 2 43010  98.9961 356.4820 0002494  91.2631 268.8830 14.19699550424601

#Time	Az	El	Level	Level2	SNR	BER	BlckErr	Temp	State	Recorded	gain1	gain2
2026-01-25 02:26:17.68	11.27	8.36	-46.1	-64.6	3.8	7.44e-01	0	61	0	0	63	30828
2026-01-25 02:26:18.68	11.23	8.44	-45.5	-57.2	3.8	8.48e-01	0	61	104	0	63	13249
2026-01-25 02:26:19.69	11.19	8.52	-45.4	-57.2	3.8	8.47e-01	0	62	104	0	62	13892
2026-01-25 02:26:20.70	11.15	8.60	-45.4	-57.1	3.8	8.47e-01	0	62	104	0	62	13880
2026-01-25 02:26:21.71	11.11	8.68	-45.3	-57.1	3.8	8.46e-01	0	62	104	0	62	13761
2026-01-25 02:26:22.72	11.07	8.76	-45.1	-56.9	3.8	8.46e-01	0	61	104	0	62	13544
2026-01-25 02:26:23.73	11.03	8.84	-45.0	-56.7	3.8	8.46e-01	0	61	104	0	62	13257
2026-01-25 02:26:24.74	10.99	8.92	-44.8	-56.6	3.8	8.46e-01	0	62	104	0	61	13822
2026-01-25 02:26:25.75	10.95	9.00	-44.4	-56.1	3.8	8.46e-01	0	61	104	0	60	13806
2026-01-25 02:26:26.76	10.91	9.08	-43.3	-54.8	3.8	8.45e-01	0	61	104	0	58	13273
2026-01-25 02:26:27.77	10.87	9.17	-43.3	-54.7	3.8	8.46e-01	0	61	104	0	58	13204
2026-01-25 02:26:28.78	10.83	9.25	-43.2	-54.6	3.8	8.46e-01	0	62	104	0	58	13090
2026-01-25 02:26:29.79	10.78	9.33	-43.2	-54.6	3.8	8.47e-01	0	62	104	0	58	13054
2026-01-25 02:26:30.80	10.74	9.41	-43.2	-54.5	3.8	8.46e-01	0	62	104	0	58	12951
2026-01-25 02:26:31.81	10.70	9.50	-43.2	-54.6	3.8	8.45e-01	0	62	104	0	58	12969
2026-01-25 02:26:32.82	10.66	9.58	-43.2	-54.6	3.8	8.46e-01	0	61	104	0	58	13016
2026-01-25 02:26:33.83	10.61	9.66	-43.2	-54.6	3.8	8.45e-01	0	62	104	0	58	13088
2026-01-25 02:26:34.84	10.57	9.75	-43.2	-54.7	3.8	8.46e-01	0	61	104	0	58	13115
2026-01-25 02:26:35.85	10.53	9.83	-43.2	-54.7	3.8	8.45e-01	0	61	104	0	58	13123
2026-01-25 02:26:36.86	10.48	9.92	-43.2	-54.6	3.8	8.46e-01	0	62	104	0	58	13085
2026-01-25 02:26:37.87	10.44	10.00	-43.2	-54.5	3.8	8.46e-01	0	61	104	0	58	12934
2026-01-25 02:26:38.88	10.39	10.09	-43.2	-54.4	3.8	8.46e-01	0	62	104	0	58	12727
2026-01-25 02:26:39.89	10.35	10.17	-43.1	-54.1	3.8	8.46e-01	0	62	104	0	58	12250
2026-01-25 02:26:40.90	10.30	10.26	-43.1	-54.0	3.8	8.46e-01	0	62	104	0	58	12115
2026-01-25 02:26:41.91	10.26	10.34	-43.1	-54.2	3.8	8.46e-01	0	62	104	0	58	12467
2026-01-25 02:26:42.92	10.21	10.43	-43.2	-54.3	3.8	8.47e-01	0	62	104	0	58	12654
2026-01-25 02:26:43.94	10.17	10.52	-43.1	-54.2	3.8	8.47e-01	0	62	104	0	58	12481
2026-01-25 02:26:44.95	10.12	10.60	-43.1	-54.1	3.8	8.45e-01	0	61	104	0	58	12356
2026-01-25 02:26:45.96	10.07	10.69	-43.1	-54.0	3.8	8.46e-01	0	62	104	0	58	12130
2026-01-25 02:26:46.97	10.03	10.78	-43.1	-53.7	3.8	8.46e-01	0	62	104	0	58	11694
2026-01-25 02:26:47.98	9.98	10.86	-43.0	-53.4	3.8	8.45e-01	0	62	104	0	58	11380
2026-01-25 02:26:48.99	9.93	10.95	-43.1	-53.6	3.8	8.46e-01	0	62	104	0	58	11570
2026-01-25 02:26:50.00	9.89	11.04	-43.1	-53.8	3.8	8.46e-01	0	62	104	0	58	11834
2026-01-25 02:26:51.01	9.84	11.13	-43.1	-53.7	3.8	8.47e-01	0	62	104	0	58	11688
2026-01-25 02:26:52.02	9.79	11.22	-43.1	-53.7	3.8	8.46e-01	0	62	104	0	58	11723
2026-01-25 02:26:53.03	9.74	11.31	-43.1	-53.9	3.8	8.48e-01	0	62	104	0	58	12076
2026-01-25 02:26:54.04	9.69	11.40	-43.1	-54.2	3.8	8.46e-01	0	62	104	0	58	12516
2026-01-25 02:26:55.05	9.64	11.49	-43.1	-54.5	3.8	8.46e-01	0	61	104	0	58	12817
2026-01-25 02:26:56.06	9.59	11.58	-43.2	-54.6	3.8	8.46e-01	0	62	104	0	58	13025
2026-01-25 02:26:57.07	9.54	11.67	-43.2	-54.5	3.8	8.45e-01	0	62	104	0	58	12947
2026-01-25 02:26:58.08	9.49	11.76	-43.0	-53.3	3.8	8.45e-01	0	62	104	0	58	11246
2026-01-25 02:26:59.09	9.44	11.85	-42.7	-51.1	4.2	8.40e-01	0	62	0	0	57	9240
2026-01-25 02:27:00.11	9.39	11.94	-42.2	-48.8	5.1	7.93e-01	0	62	0	0	56	7463
2026-01-25 02:27:01.12	9.34	12.03	-41.4	-46.6	6.6	3.76e-01	0	62	0	3145728	54	6548
2026-01-25 02:27:02.13	9.29	12.12	-40.7	-44.8	8.4	9.02e-02	0	62	0	9437184	53	5624
2026-01-25 02:27:03.14	9.23	12.21	-40.0	-43.3	10.0	2.22e-02	0	62	0	14680064	51	5336
2026-01-25 02:27:04.15	9.18	12.31	-39.3	-42.1	11.2	2.67e-03	0	62	0	19922944	50	4888
2026-01-25 02:27:05.16	9.13	12.40	-38.6	-41.1	12.2	6.32e-04	0	62	0	26214400	49	4647
2026-01-25 02:27:06.17	9.08	12.49	-38.2	-40.6	12.8	9.95e-05	0	62	0	31457280	48	4613
2026-01-25 02:27:07.18	9.02	12.59	-38.1	-40.4	13.0	5.14e-05	0	62	0	37748736	48	4521
2026-01-25 02:27:08.19	8.97	12.68	-38.3	-40.6	12.9	7.32e-05	0	62	0	42991616	48	4626
2026-01-25 02:27:09.20	8.92	12.77	-38.5	-40.9	12.5	1.38e-04	0	62	0	48234496	48	4790
2026-01-25 02:27:10.21	8.86	12.87	-38.7	-41.3	12.1	3.97e-04	0	62	0	54525952	48	5033
2026-01-25 02:27:11.22	8.81	12.96	-39.0	-41.6	11.8	6.91e-04	0	62	0	59768832	48	5199
2026-01-25 02:27:12.24	8.75	13.06	-39.2	-42.0	11.4	1.23e-03	0	62	0	66060288	49	5153
2026-01-25 02:27:13.25	8.69	13.16	-43.9	-55.2	3.8	8.46e-01	0	62	104	68157440	58	13996
2026-01-25 02:27:14.25	8.64	13.25	-38.7	-40.9	13.1	5.23e-04	0	62	0	70254592	49	4545
2026-01-25 02:27:15.26	8.58	13.35	-42.6	-51.5	4.0	8.41e-01	0	62	104	73400320	55	10884
2026-01-25 02:27:16.27	8.53	13.44	-40.3	-43.3	10.7	1.46e-02	0	62	0	76546048	52	5006
2026-01-25 02:27:17.28	8.47	13.54	-40.5	-44.3	8.8	4.25e-02	0	62	0	82837504	52	5651
2026-01-25 02:27:18.29	8.41	13.64	-38.8	-41.1	12.8	1.07e-04	0	62	0	88080384	49	4632
2026-01-25 02:27:19.30	8.35	13.73	-38.5	-40.7	13.4	1.48e-05	0	62	0	94371840	49	4423
2026-01-25 02:27:20.31	8.29	13.83	-38.3	-40.4	13.8	3.40e-06	0	62	0	99614720	48	4522
2026-01-25 02:27:21.32	8.24	13.93	-38.4	-40.5	13.7	2.20e-06	0	62	0	105906176	48	4587
2026-01-25 02:27:22.33	8.18	14.03	-38.5	-40.6	13.6	4.50e-06	0	62	0	111149056	48	4634
2026-01-25 02:27:23.34	8.12	14.13	-38.5	-40.7	13.6	2.20e-06	0	62	0	117440512	48	4657
2026-01-25 02:27:24.35	8.06	14.23	-38.5	-40.7	13.6	1.10e-06	0	62	0	122683392	48	4681
2026-01-25 02:27:25.36	8.00	14.33	-38.5	-40.6	13.7	5.70e-06	0	62	0	127926272	48	4612
2026-01-25 02:27:26.37	7.93	14.43	-38.4	-40.5	13.8	2.20e-06	0	62	0	134217728	48	4583
2026-01-25 02:27:27.38	7.87	14.53	-38.4	-40.5	13.9	2.20e-06	0	62	0	139460608	48	4571
2026-01-25 02:27:28.39	7.81	14.63	-38.5	-40.6	13.8	0.00e+00	0	62	0	145752064	48	4603
2026-01-25 02:27:29.40	7.75	14.73	-38.4	-40.5	13.9	3.40e-06	0	62	0	150994944	48	4581
2026-01-25 02:27:30.41	7.69	14.83	-38.3	-40.4	14.1	3.40e-06	0	62	0	156237824	48	4517
2026-01-25 02:27:31.42	7.62	14.93	-38.2	-40.2	14.2	1.10e-06	0	62	0	162529280	48	4436
2026-01-25 02:27:32.43	7.56	15.04	-38.3	-40.4	14.1	1.10e-06	0	62	0	167772160	48	4497
2026-01-25 02:27:33.44	7.49	15.14	-38.3	-40.3	14.2	0.00e+00	0	62	0	174063616	48	4445
2026-01-25 02:27:34.45	7.43	15.24	-38.2	-40.1	14.4	1.10e-06	0	62	0	179306496	48	4385
2026-01-25 02:27:35.46	7.37	15.35	-38.3	-40.3	14.2	0.00e+00	0	62	0	184549376	48	4456
2026-01-25 02:27:36.47	7.30	15.45	-38.3	-40.2	14.3	0.00e+00	0	62	0	190840832	48	4436
2026-01-25 02:27:37.48	7.23	15.56	-38.2	-40.1	14.4	1.10e-06	0	62	0	196083712	48	4374
2026-01-25 02:27:38.49	7.17	15.66	-38.1	-40.1	14.6	0.00e+00	0	62	0	202375168	48	4355
2026-01-25 02:27:39.50	7.10	15.77	-38.2	-40.1	14.6	1.10e-06	0	62	0	207618048	48	4362
2026-01-25 02:27:40.51	7.03	15.87	-38.2	-40.1	14.6	0.00e+00	0	62	0	213909504	48	4373
2026-01-25 02:27:41.52	6.96	15.98	-38.1	-40.0	14.6	0.00e+00	0	62	0	219152384	48	4337
2026-01-25 02:27:42.53	6.90	16.08	-38.0	-39.9	14.8	0.00e+00	0	62	0	225443840	48	4262
2026-01-25 02:27:43.54	6.83	16.19	-37.8	-39.7	14.9	0.00e+00	0	62	0	230686720	47	4393
2026-01-25 02:27:44.55	6.76	16.30	-37.8	-39.7	14.9	0.00e+00	0	61	0	235929600	47	4401
2026-01-25 02:27:45.56	6.69	16.41	-37.9	-39.8	14.9	0.00e+00	0	62	0	242221056	47	4447
2026-01-25 02:27:46.57	6.62	16.52	-37.8	-39.7	14.9	0.00e+00	0	62	0	247463936	47	4407
2026-01-25 02:27:47.58	6.54	16.62	-37.6	-39.4	15.2	0.00e+00	0	62	0	253755392	47	4280
2026-01-25 02:27:48.59	6.47	16.73	-37.5	-39.3	15.4	0.00e+00	0	62	0	258998272	47	4210
2026-01-25 02:27:49.60	6.40	16.84	-37.4	-39.1	15.6	0.00e+00	0	62	0	264241152	46	4363
2026-01-25 02:27:50.61	6.33	16.95	-37.4	-39.1	15.6	0.00e+00	0	62	0	270532608	46	4378
2026-01-25 02:27:51.62	6.25	17.06	-37.4	-39.1	15.6	0.00e+00	0	62	0	275775488	46	4362
2026-01-25 02:27:52.63	6.18	17.17	-37.4	-39.1	15.6	0.00e+00	0	62	0	281018368	46	4365
2026-01-25 02:27:53.64	6.11	17.29	-37.3	-39.0	15.7	0.00e+00	0	62	0	287309824	46	4336
2026-01-25 02:27:54.65	6.03	17.40	-37.2	-38.9	15.8	0.00e+00	0	62	0	292552704	46	4266
2026-01-25 02:27:55.66	5.95	17.51	-37.2	-38.9	15.9	0.00e+00	0	61	0	298844160	46	4260
2026-01-25 02:27:56.67	5.88	17.62	-37.3	-39.0	15.8	0.00e+00	0	62	0	304087040	46	4330
2026-01-25 02:27:57.68	5.80	17.74	-37.4	-39.1	15.7	0.00e+00	0	62	0	310378496	46	4361
2026-01-25 02:27:58.69	5.72	17.85	-37.4	-39.1	15.7	0.00e+00	0	62	0	315621376	46	4349
2026-01-25 02:27:59.70	5.64	17.96	-37.4	-39.1	15.7	0.00e+00	0	62	0	321912832	46	4359
2026-01-25 02:28:00.71	5.57	18.08	-37.5	-39.2	15.7	0.00e+00	0	62	0	327155712	46	4395
2026-01-25 02:28:01.72	5.49	18.19	-37.4	-39.1	15.7	0.00e+00	0	62	0	332398592	46	4380
2026-01-25 02:28:02.72	5.41	18.31	-37.5	-39.2	15.7	0.00e+00	0	62	0	338690048	46	4405
2026-01-25 02:28:03.73	5.33	18.42	-37.4	-39.0	15.8	0.00e+00	0	62	0	343932928	46	4337
2026-01-25 02:28:04.74	5.25	18.54	-37.3	-38.9	15.9	0.00e+00	0	62	0	350224384	46	4277
2026-01-25 02:28:05.75	5.16	18.66	-37.3	-38.9	15.9	0.00e+00	0	62	0	355467264	46	4283
2026-01-25 02:28:06.76	5.08	18.78	-37.2	-38.9	16.0	0.00e+00	0	61	0	360710144	46	4273
2026-01-25 02:28:07.77	5.00	18.89	-37.3	-38.9	15.9	0.00e+00	0	62	0	367001600	46	4278
2026-01-25 02:28:08.78	4.91	19.01	-37.3	-39.0	15.9	0.00e+00	0	62	0	372244480	46	4301
2026-01-25 02:28:09.79	4.83	19.13	-37.3	-38.9	16.0	0.00e+00	0	62	0	378535936	46	4267
2026-01-25 02:28:10.80	4.74	19.25	-37.3	-39.0	15.9	0.00e+00	0	62	0	383778816	46	4310
2026-01-25 02:28:11.81	4.66	19.37	-37.2	-38.9	16.1	0.00e+00	0	62	0	389021696	46	4244
2026-01-25 02:28:12.82	4.57	19.49	-37.2	-38.8	16.1	0.00e+00	0	62	0	395313152	46	4211
2026-01-25 02:28:13.83	4.48	19.61	-37.2	-38.8	16.1	0.00e+00	0	62	0	400556032	46	4223
2026-01-25 02:28:14.84	4.39	19.74	-37.2	-38.8	16.1	0.00e+00	0	62	0	406847488	46	4235
2026-01-25 02:28:15.85	4.30	19.86	-37.1	-38.8	16.2	0.00e+00	0	62	0	412090368	46	4206
2026-01-25 02:28:16.86	4.21	19.98	-37.1	-38.7	16.2	0.00e+00	0	62	0	418381824	46	4186
2026-01-25 02:28:17.87	4.12	20.10	-37.0	-38.6	16.3	0.00e+00	0	62	0	423624704	46	4116
2026-01-25 02:28:18.88	4.03	20.23	-37.0	-38.6	16.4	0.00e+00	0	62	0	429916160	46	4122
2026-01-25 02:28:19.89	3.94	20.35	-37.1	-38.7	16.3	0.00e+00	0	62	0	435159040	46	4148
2026-01-25 02:28:20.90	3.85	20.48	-37.0	-38.6	16.3	0.00e+00	0	62	0	440401920	46	4129
2026-01-25 02:28:21.91	3.75	20.60	-37.0	-38.6	16.3	0.00e+00	0	62	0	446693376	45	4354
2026-01-25 02:28:22.92	3.66	20.73	-37.0	-38.6	16.4	0.00e+00	0	62	0	451936256	45	4362
2026-01-25 02:28:23.93	3.56	20.85	-37.0	-38.6	16.4	0.00e+00	0	62	0	458227712	45	4357
2026-01-25 02:28:24.94	3.47	20.98	-37.0	-38.6	16.3	0.00e+00	0	62	0	463470592	45	4380
2026-01-25 02:28:25.95	3.37	21.11	-37.0	-38.6	16.3	0.00e+00	0	62	0	468713472	45	4382
2026-01-25 02:28:26.96	3.27	21.24	-37.0	-38.6	16.4	0.00e+00	0	62	0	475004928	45	4354
2026-01-25 02:28:27.97	3.18	21.37	-37.0	-38.6	16.5	0.00e+00	0	62	0	480247808	45	4346
2026-01-25 02:28:28.98	3.08	21.50	-36.8	-38.3	16.7	0.00e+00	0	62	0	486539264	45	4231
2026-01-25 02:28:29.99	2.98	21.63	-36.7	-38.2	16.8	0.00e+00	0	62	0	491782144	45	4179
2026-01-25 02:28:31.00	2.87	21.76	-36.7	-38.2	16.8	0.00e+00	0	62	0	497025024	45	4160
2026-01-25 02:28:32.01	2.77	21.89	-36.7	-38.2	16.7	0.00e+00	0	62	0	503316480	45	4184
2026-01-25 02:28:33.02	2.67	22.02	-36.6	-38.1	16.9	0.00e+00	0	62	0	508559360	45	4117
2026-01-25 02:28:34.04	2.56	22.15	-36.6	-38.1	16.9	0.00e+00	0	62	0	514850816	45	4117
2026-01-25 02:28:35.04	2.46	22.28	-36.6	-38.1	16.9	0.00e+00	0	62	0	520093696	45	4133
2026-01-25 02:28:36.05	2.36	22.42	-36.6	-38.1	16.9	0.00e+00	0	62	0	526385152	45	4130
2026-01-25 02:28:37.06	2.25	22.55	-36.7	-38.2	16.8	0.00e+00	0	62	0	531628032	45	4184
2026-01-25 02:28:38.07	2.14	22.69	-36.7	-38.2	16.8	0.00e+00	0	62	0	536870912	45	4169
2026-01-25 02:28:39.08	2.03	22.82	-36.6	-38.1	16.9	0.00e+00	0	62	0	543162368	45	4111
2026-01-25 02:28:40.09	1.92	22.96	-36.5	-38.0	17.0	0.00e+00	0	61	0	548405248	45	4077
2026-01-25 02:28:41.11	1.81	23.10	-36.6	-38.1	17.0	0.00e+00	0	62	0	554696704	45	4106
2026-01-25 02:28:42.12	1.70	23.23	-36.6	-38.1	16.9	0.00e+00	0	61	0	559939584	45	4122
2026-01-25 02:28:43.12	1.59	23.37	-36.5	-38.0	17.0	0.00e+00	0	62	0	565182464	45	4077
2026-01-25 02:28:44.14	1.47	23.51	-36.5	-38.0	17.1	0.00e+00	0	62	0	571473920	44	4300
2026-01-25 02:28:45.14	1.36	23.65	-36.5	-38.0	17.0	0.00e+00	0	62	0	576716800	44	4321
2026-01-25 02:28:46.16	1.24	23.79	-36.4	-37.9	17.1	0.00e+00	0	62	0	583008256	44	4270
2026-01-25 02:28:47.17	1.13	23.93	-36.3	-37.8	17.3	0.00e+00	0	62	0	588251136	44	4215
2026-01-25 02:28:48.18	1.01	24.07	-36.3	-37.8	17.3	0.00e+00	0	62	0	593494016	44	4209
2026-01-25 02:28:49.19	0.89	24.21	-36.4	-37.9	17.1	0.00e+00	0	62	0	599785472	44	4273
2026-01-25 02:28:50.20	0.77	24.35	-36.3	-37.7	17.3	0.00e+00	0	62	0	605028352	44	4168
2026-01-25 02:28:51.21	0.65	24.49	-36.3	-37.7	17.3	0.00e+00	0	62	0	611319808	44	4190
2026-01-25 02:28:52.22	0.53	24.64	-36.2	-37.7	17.4	0.00e+00	0	62	0	616562688	44	4161
2026-01-25 02:28:53.23	0.40	24.78	-36.3	-37.8	17.3	0.00e+00	0	62	0	622854144	44	4203
2026-01-25 02:28:54.24	0.28	24.93	-36.3	-37.7	17.4	0.00e+00	0	62	0	628097024	44	4168
2026-01-25 02:28:55.25	0.15	25.07	-36.3	-37.8	17.3	0.00e+00	0	62	0	634388480	44	4200
2026-01-25 02:28:56.26	0.02	25.22	-36.3	-37.8	17.3	0.00e+00	0	62	0	639631360	44	4211
2026-01-25 02:28:57.27	359.90	25.36	-36.3	-37.8	17.3	0.00e+00	0	62	0	644874240	44	4217
2026-01-25 02:28:58.27	359.77	25.51	-36.3	-37.8	17.3	0.00e+00	0	62	0	651165696	44	4203
2026-01-25 02:28:59.29	359.64	25.66	-36.4	-37.8	17.3	0.00e+00	0	62	0	656408576	44	4230
2026-01-25 02:29:00.30	359.50	25.81	-36.2	-37.7	17.4	0.00e+00	0	62	0	662700032	44	4146
2026-01-25 02:29:01.31	359.37	25.96	-36.2	-37.6	17.4	0.00e+00	0	62	0	667942912	44	4142
2026-01-25 02:29:02.32	359.24	26.11	-36.2	-37.6	17.5	0.00e+00	0	62	0	673185792	44	4126
2026-01-25 02:29:03.33	359.10	26.26	-36.3	-37.7	17.4	0.00e+00	0	62	0	679477248	44	4165
2026-01-25 02:29:04.34	358.96	26.41	-36.3	-37.7	17.4	0.00e+00	0	62	0	684720128	44	4185
2026-01-25 02:29:05.35	358.82	26.56	-36.3	-37.8	17.3	0.00e+00	0	62	0	691011584	44	4213
2026-01-25 02:29:06.36	358.68	26.71	-36.3	-37.8	17.4	0.00e+00	0	62	0	696254464	44	4199
2026-01-25 02:29:07.37	358.54	26.86	-36.3	-37.8	17.4	0.00e+00	0	62	0	701497344	44	4198
2026-01-25 02:29:08.38	358.40	27.02	-36.4	-37.9	17.2	0.00e+00	0	62	0	707788800	44	4258
2026-01-25 02:29:09.39	358.26	27.17	-36.3	-37.7	17.4	0.00e+00	0	62	0	713031680	44	4180
2026-01-25 02:29:10.40	358.11	27.33	-36.2	-37.6	17.5	0.00e+00	0	62	0	719323136	44	4144
2026-01-25 02:29:11.41	357.96	27.48	-36.2	-37.6	17.5	0.00e+00	0	62	0	724566016	44	4121
2026-01-25 02:29:12.42	357.82	27.64	-36.2	-37.6	17.6	0.00e+00	0	62	0	730857472	44	4121
2026-01-25 02:29:13.43	357.67	27.80	-36.2	-37.6	17.5	0.00e+00	0	62	0	736100352	44	4135
2026-01-25 02:29:14.44	357.51	27.96	-36.2	-37.6	17.6	0.00e+00	0	62	0	742391808	44	4108
2026-01-25 02:29:15.45	357.36	28.11	-36.3	-37.7	17.5	0.00e+00	0	62	0	747634688	44	4159
2026-01-25 02:29:16.46	357.21	28.27	-36.3	-37.7	17.5	0.00e+00	0	62	0	752877568	44	4169
2026-01-25 02:29:17.47	357.05	28.43	-36.3	-37.7	17.4	0.00e+00	0	62	0	759169024	44	4184
2026-01-25 02:29:18.48	356.89	28.59	-36.3	-37.7	17.4	0.00e+00	0	62	0	764411904	44	4190
2026-01-25 02:29:19.49	356.73	28.75	-36.3	-37.8	17.4	0.00e+00	0	62	0	770703360	44	4207
2026-01-25 02:29:20.50	356.57	28.92	-36.3	-37.8	17.4	0.00e+00	0	62	0	775946240	44	4201
2026-01-25 02:29:21.51	356.41	29.08	-36.2	-37.6	17.6	0.00e+00	0	62	0	781189120	44	4120
2026-01-25 02:29:22.52	356.24	29.24	-36.1	-37.6	17.6	0.00e+00	0	62	0	787480576	44	4106
2026-01-25 02:29:23.53	356.08	29.41	-36.0	-37.4	17.8	0.00e+00	0	62	0	792723456	44	4034
2026-01-25 02:29:24.54	355.91	29.57	-36.0	-37.3	17.9	0.00e+00	0	62	0	799014912	44	3997
2026-01-25 02:29:25.55	355.74	29.74	-35.7	-37.0	18.0	0.00e+00	0	62	0	804257792	43	4083
2026-01-25 02:29:26.56	355.57	29.90	-35.7	-37.0	18.0	0.00e+00	0	62	0	809500672	43	4087
2026-01-25 02:29:27.57	355.40	30.07	-35.7	-37.0	18.0	0.00e+00	0	62	0	815792128	43	4076
2026-01-25 02:29:28.58	355.22	30.24	-35.7	-37.1	17.9	0.00e+00	0	62	0	821035008	43	4115
2026-01-25 02:29:29.59	355.04	30.41	-35.7	-37.0	18.0	0.00e+00	0	62	0	827326464	43	4090
2026-01-25 02:29:30.60	354.86	30.57	-35.8	-37.2	17.9	0.00e+00	0	62	0	832569344	43	4152
2026-01-25 02:29:31.61	354.68	30.74	-35.7	-37.1	17.9	0.00e+00	0	62	0	838860800	43	4132
2026-01-25 02:29:32.62	354.50	30.91	-35.7	-37.1	18.0	0.00e+00	0	62	0	844103680	43	4117
2026-01-25 02:29:33.63	354.32	31.08	-35.8	-37.2	17.9	0.00e+00	0	62	0	850395136	43	4158
2026-01-25 02:29:34.64	354.13	31.26	-35.8	-37.1	17.9	0.00e+00	0	62	0	855638016	43	4145
2026-01-25 02:29:35.65	353.94	31.43	-35.5	-36.9	18.2	0.00e+00	0	62	0	860880896	43	4006
2026-01-25 02:29:36.66	353.75	31.60	-35.4	-36.7	18.3	0.00e+00	0	62	0	867172352	42	4191
2026-01-25 02:29:37.67	353.56	31.77	-35.4	-36.7	18.3	0.00e+00	0	62	0	872415232	42	4181
2026-01-25 02:29:38.69	353.36	31.95	-35.4	-36.7	18.3	0.00e+00	0	62	0	878706688	42	4176
2026-01-25 02:29:39.70	353.16	32.12	-35.3	-36.6	18.4	0.00e+00	0	62	0	883949568	42	4139
2026-01-25 02:29:40.71	352.96	32.30	-35.4	-36.7	18.3	0.00e+00	0	62	0	889192448	42	4191
2026-01-25 02:29:41.72	352.76	32.48	-35.5	-36.8	18.3	0.00e+00	0	62	0	895483904	42	4220
2026-01-25 02:29:42.73	352.56	32.65	-35.5	-36.8	18.3	0.00e+00	0	62	0	900726784	42	4223
2026-01-25 02:29:43.74	352.35	32.83	-35.5	-36.8	18.3	0.00e+00	0	62	0	907018240	42	4215
2026-01-25 02:29:44.75	352.14	33.01	-35.5	-36.8	18.2	0.00e+00	0	62	0	912261120	42	4240
2026-01-25 02:29:45.76	351.93	33.19	-35.4	-36.7	18.3	0.00e+00	0	62	0	917504000	42	4180
2026-01-25 02:29:46.77	351.72	33.36	-35.4	-36.7	18.4	0.00e+00	0	62	0	923795456	42	4157
2026-01-25 02:29:47.78	351.50	33.54	-35.2	-36.5	18.6	0.00e+00	0	62	0	929038336	42	4073
2026-01-25 02:29:48.79	351.29	33.72	-35.2	-36.5	18.5	0.00e+00	0	62	0	935329792	42	4088
2026-01-25 02:29:49.80	351.07	33.91	-35.0	-36.3	18.8	0.00e+00	0	62	0	940572672	42	3965
2026-01-25 02:29:50.81	350.84	34.09	-34.9	-36.2	18.8	0.00e+00	0	62	0	946864128	41	4177
2026-01-25 02:29:51.82	350.62	34.27	-35.1	-36.4	18.7	0.00e+00	0	62	0	952107008	41	4251
2026-01-25 02:29:52.83	350.39	34.45	-35.1	-36.4	18.6	0.00e+00	0	62	0	957349888	41	4284
2026-01-25 02:29:53.84	350.16	34.63	-35.2	-36.5	18.6	0.00e+00	0	62	0	963641344	41	4299
2026-01-25 02:29:54.85	349.93	34.82	-35.2	-36.5	18.5	0.00e+00	0	62	0	968884224	41	4337
2026-01-25 02:29:55.86	349.69	35.00	-35.3	-36.5	18.5	0.00e+00	0	62	0	975175680	41	4337
2026-01-25 02:29:56.87	349.45	35.19	-35.3	-36.6	18.5	0.00e+00	0	62	0	980418560	41	4352
2026-01-25 02:29:57.88	349.21	35.37	-35.3	-36.6	18.4	0.00e+00	0	62	0	985661440	41	4386
2026-01-25 02:29:58.88	348.97	35.56	-35.3	-36.5	18.5	0.00e+00	0	62	0	991952896	41	4338
2026-01-25 02:29:59.90	348.72	35.74	-35.2	-36.5	18.6	0.00e+00	0	62	0	997195776	41	4325
2026-01-25 02:30:00.91	348.47	35.93	-35.3	-36.6	18.5	0.00e+00	0	62	0	1003487232	41	4369
2026-01-25 02:30:01.91	348.22	36.12	-35.4	-36.7	18.4	0.00e+00	0	62	0	1008730112	41	4423
2026-01-25 02:30:02.93	347.96	36.31	-35.6	-36.9	18.2	0.00e+00	0	62	0	1013972992	41	4535
2026-01-25 02:30:03.94	347.70	36.49	-35.6	-37.0	18.1	0.00e+00	0	62	0	1020264448	41	4557
2026-01-25 02:30:04.95	347.44	36.68	-35.5	-36.9	18.3	0.00e+00	0	62	0	1025507328	41	4496
2026-01-25 02:30:05.95	347.18	36.87	-35.4	-36.7	18.4	0.00e+00	0	62	0	1031798784	41	4439
2026-01-25 02:30:06.97	346.91	37.06	-35.3	-36.6	18.5	0.00e+00	0	62	0	1037041664	41	4366
2026-01-25 02:30:07.98	346.64	37.25	-35.3	-36.6	18.5	0.00e+00	0	62	0	1043333120	41	4361
2026-01-25 02:30:08.98	346.36	37.44	-35.4	-36.7	18.5	0.00e+00	0	62	0	1048576000	41	4406
2026-01-25 02:30:10.00	346.08	37.63	-35.4	-36.7	18.4	0.00e+00	0	62	0	1054867456	41	4426
2026-01-25 02:30:11.00	345.81	37.82	-35.4	-36.7	18.4	0.00e+00	0	62	0	1060110336	41	4415
2026-01-25 02:30:12.01	345.52	38.01	-35.4	-36.7	18.4	0.00e+00	0	62	0	1065353216	41	4425
2026-01-25 02:30:13.02	345.23	38.20	-35.6	-36.9	18.3	0.00e+00	0	62	0	1071644672	41	4503
2026-01-25 02:30:14.03	344.94	38.39	-35.6	-36.9	18.3	0.00e+00	0	62	0	1076887552	41	4512
2026-01-25 02:30:15.04	344.65	38.58	-35.5	-36.8	18.3	0.00e+00	0	62	0	1083179008	41	4468
2026-01-25 02:30:16.05	344.35	38.77	-35.4	-36.7	18.5	0.00e+00	0	62	0	1088421888	41	4404
2026-01-25 02:30:17.06	344.05	38.97	-35.3	-36.6	18.5	0.00e+00	0	62	0	1093664768	41	4368
2026-01-25 02:30:18.07	343.74	39.16	-35.3	-36.6	18.5	0.00e+00	0	62	0	1099956224	41	4366
2026-01-25 02:30:19.08	343.43	39.35	-35.3	-36.5	18.6	0.00e+00	0	62	0	1105199104	41	4336
2026-01-25 02:30:20.09	343.12	39.54	-35.3	-36.6	18.6	0.00e+00	0	62	0	1111490560	41	4349
2026-01-25 02:30:21.10	342.80	39.74	-35.4	-36.6	18.5	0.00e+00	0	62	0	1116733440	41	4383
2026-01-25 02:30:22.11	342.48	39.93	-35.4	-36.7	18.4	0.00e+00	0	62	0	1121976320	41	4429
2026-01-25 02:30:23.12	342.16	40.12	-35.5	-36.8	18.4	0.00e+00	0	62	0	1128267776	41	4450
2026-01-25 02:30:24.13	341.83	40.31	-35.5	-36.8	18.3	0.00e+00	0	62	0	1133510656	41	4488
2026-01-25 02:30:25.14	341.50	40.51	-35.5	-36.8	18.3	0.00e+00	0	62	0	1139802112	41	4466
2026-01-25 02:30:26.15	341.16	40.70	-35.4	-36.7	18.4	0.00e+00	0	62	0	1145044992	41	4425
2026-01-25 02:30:27.16	340.82	40.89	-35.4	-36.7	18.4	0.00e+00	0	62	0	1151336448	41	4436
2026-01-25 02:30:28.17	340.48	41.08	-35.5	-36.8	18.4	0.00e+00	0	62	0	1156579328	41	4476
2026-01-25 02:30:29.19	340.13	41.28	-35.5	-36.8	18.4	0.00e+00	0	62	0	1162870784	41	4463
2026-01-25 02:30:30.20	339.77	41.47	-35.5	-36.8	18.3	0.00e+00	0	62	0	1168113664	41	4484
2026-01-25 02:30:31.21	339.42	41.66	-35.4	-36.7	18.5	0.00e+00	0	62	0	1173356544	41	4398
2026-01-25 02:30:32.22	339.06	41.85	-35.3	-36.6	18.6	0.00e+00	0	62	0	1179648000	41	4376
2026-01-25 02:30:33.23	338.69	42.04	-35.2	-36.5	18.7	0.00e+00	0	62	0	1184890880	41	4322
2026-01-25 02:30:34.24	338.32	42.23	-35.3	-36.5	18.7	0.00e+00	0	62	0	1191182336	41	4329
2026-01-25 02:30:35.25	337.95	42.42	-35.4	-36.7	18.5	0.00e+00	0	62	0	1196425216	41	4403
2026-01-25 02:30:36.26	337.57	42.61	-35.5	-36.8	18.4	0.00e+00	0	62	0	1201668096	41	4448
2026-01-25 02:30:37.27	337.18	42.80	-35.4	-36.6	18.5	0.00e+00	0	62	0	1207959552	41	4388
2026-01-25 02:30:38.27	336.80	42.99	-35.3	-36.5	18.7	0.00e+00	0	62	0	1213202432	41	4327
2026-01-25 02:30:39.29	336.40	43.18	-35.3	-36.5	18.7	0.00e+00	0	62	0	1219493888	41	4339
2026-01-25 02:30:40.30	336.01	43.37	-35.3	-36.6	18.6	0.00e+00	0	62	0	1224736768	41	4359
2026-01-25 02:30:41.31	335.60	43.55	-35.4	-36.7	18.5	0.00e+00	0	62	0	1229979648	41	4440
2026-01-25 02:30:42.32	335.20	43.74	-35.4	-36.7	18.5	0.00e+00	0	62	0	1236271104	41	4396
2026-01-25 02:30:43.33	334.79	43.93	-35.3	-36.5	18.6	0.00e+00	0	62	0	1241513984	41	4339
2026-01-25 02:30:44.34	334.37	44.11	-35.3	-36.6	18.6	0.00e+00	0	62	0	1247805440	41	4361
2026-01-25 02:30:45.35	333.95	44.29	-35.4	-36.7	18.5	0.00e+00	0	62	0	1253048320	41	4409
2026-01-25 02:30:46.36	333.52	44.48	-35.4	-36.8	18.4	0.00e+00	0	62	0	1259339776	41	4443
2026-01-25 02:30:47.37	333.09	44.66	-35.4	-36.7	18.5	0.00e+00	0	61	0	1264582656	41	4413
2026-01-25 02:30:48.38	332.65	44.84	-35.3	-36.6	18.6	0.00e+00	0	62	0	1269825536	41	4369
2026-01-25 02:30:49.38	332.22	45.02	-35.3	-36.5	18.6	0.00e+00	0	62	0	1276116992	41	4335
2026-01-25 02:30:50.39	331.77	45.20	-35.2	-36.4	18.7	0.00e+00	0	62	0	1281359872	41	4289
2026-01-25 02:30:51.40	331.32	45.38	-35.4	-36.7	18.5	0.00e+00	0	62	0	1287651328	41	4412
2026-01-25 02:30:52.41	330.86	45.55	-35.7	-37.0	18.2	0.00e+00	0	62	0	1292894208	41	4587
2026-01-25 02:30:53.42	330.40	45.73	-35.8	-37.1	18.1	0.00e+00	0	62	0	1298137088	42	4364
2026-01-25 02:30:54.43	329.94	45.90	-35.8	-37.1	18.1	0.00e+00	0	62	0	1304428544	42	4358
2026-01-25 02:30:55.44	329.46	46.07	-35.8	-37.1	18.1	0.00e+00	0	62	0	1309671424	42	4352
2026-01-25 02:30:56.45	328.99	46.25	-35.5	-36.8	18.4	0.00e+00	0	62	0	1315962880	42	4218
2026-01-25 02:30:57.46	328.50	46.42	-35.5	-36.8	18.4	0.00e+00	0	62	0	1321205760	42	4218
2026-01-25 02:30:58.47	328.02	46.58	-35.5	-36.8	18.4	0.00e+00	0	62	0	1326448640	42	4231
2026-01-25 02:30:59.49	327.52	46.75	-35.3	-36.6	18.6	0.00e+00	0	62	0	1332740096	42	4118
2026-01-25 02:31:00.48	327.03	46.91	-35.4	-36.6	18.6	0.00e+00	0	62	0	1337982976	42	4127
2026-01-25 02:31:01.49	326.53	47.08	-35.5	-36.8	18.4	0.00e+00	0	62	0	1344274432	42	4224
2026-01-25 02:31:02.50	326.02	47.24	-35.8	-37.2	18.0	0.00e+00	0	62	0	1349517312	42	4401
2026-01-25 02:31:03.51	325.50	47.40	-36.0	-37.3	17.9	0.00e+00	0	62	0	1355808768	42	4480
2026-01-25 02:31:04.52	324.98	47.55	-36.1	-37.5	17.7	0.00e+00	0	62	0	1361051648	42	4558
2026-01-25 02:31:05.53	324.46	47.71	-36.0	-37.4	17.9	0.00e+00	0	62	0	1367343104	42	4500
2026-01-25 02:31:06.54	323.93	47.86	-36.0	-37.4	17.9	0.00e+00	0	62	0	1372585984	42	4500
2026-01-25 02:31:07.55	323.40	48.01	-36.1	-37.5	17.8	0.00e+00	0	62	0	1377828864	42	4547
2026-01-25 02:31:08.56	322.85	48.16	-36.1	-37.4	17.8	0.00e+00	0	62	0	1384120320	42	4539
2026-01-25 02:31:09.57	322.31	48.31	-36.1	-37.5	17.8	0.00e+00	0	62	0	1389363200	42	4547
2026-01-25 02:31:10.58	321.76	48.45	-36.1	-37.5	17.7	0.00e+00	0	62	0	1395654656	42	4571
2026-01-25 02:31:11.59	321.20	48.60	-36.0	-37.3	17.9	0.00e+00	0	62	0	1400897536	42	4475
2026-01-25 02:31:12.61	320.64	48.74	-36.1	-37.4	17.8	0.00e+00	0	62	0	1406140416	42	4537
2026-01-25 02:31:13.62	320.07	48.87	-36.3	-37.7	17.5	0.00e+00	0	62	0	1412431872	43	4440
2026-01-25 02:31:14.63	319.50	49.01	-36.4	-37.9	17.4	0.00e+00	0	62	0	1417674752	43	4499
2026-01-25 02:31:15.64	318.92	49.14	-36.4	-37.8	17.4	0.00e+00	0	62	0	1423966208	43	4485
2026-01-25 02:31:16.65	318.34	49.27	-36.2	-37.6	17.7	0.00e+00	0	62	0	1429209088	43	4351
2026-01-25 02:31:17.66	317.75	49.39	-36.0	-37.3	17.9	0.00e+00	0	62	0	1434451968	43	4230
2026-01-25 02:31:18.66	317.17	49.52	-36.0	-37.4	17.8	0.00e+00	0	62	0	1440743424	43	4254
2026-01-25 02:31:19.67	316.57	49.64	-36.1	-37.5	17.7	0.00e+00	0	62	0	1445986304	43	4326
2026-01-25 02:31:20.68	315.97	49.75	-36.2	-37.6	17.6	0.00e+00	0	62	0	1452277760	43	4391
2026-01-25 02:31:21.69	315.37	49.87	-36.2	-37.5	17.7	0.00e+00	0	62	0	1457520640	43	4340
2026-01-25 02:31:22.70	314.76	49.98	-36.0	-37.4	17.8	0.00e+00	0	62	0	1463812096	43	4266
2026-01-25 02:31:23.71	314.14	50.08	-36.1	-37.5	17.7	0.00e+00	0	62	0	1469054976	43	4337
2026-01-25 02:31:24.72	313.53	50.19	-36.2	-37.6	17.6	0.00e+00	0	62	0	1474297856	43	4388
2026-01-25 02:31:25.73	312.90	50.29	-36.3	-37.7	17.5	0.00e+00	0	62	0	1480589312	43	4406
2026-01-25 02:31:26.74	312.28	50.39	-36.2	-37.6	17.6	0.00e+00	0	62	0	1485832192	43	4368
2026-01-25 02:31:27.75	311.65	50.48	-36.0	-37.3	17.9	0.00e+00	0	62	0	1492123648	43	4220
2026-01-25 02:31:28.77	311.01	50.57	-36.0	-37.3	17.9	0.00e+00	0	62	0	1497366528	43	4214
2026-01-25 02:31:29.78	310.37	50.66	-36.2	-37.6	17.6	0.00e+00	0	62	0	1502609408	43	4391
2026-01-25 02:31:30.79	309.73	50.74	-36.1	-37.5	17.8	0.00e+00	0	62	0	1508900864	43	4295
2026-01-25 02:31:31.80	309.08	50.82	-35.8	-37.2	18.1	0.00e+00	0	62	0	1514143744	43	4146
2026-01-25 02:31:32.81	308.43	50.90	-35.8	-37.1	18.1	0.00e+00	0	62	0	1520435200	43	4132
2026-01-25 02:31:33.82	307.78	50.97	-35.8	-37.1	18.1	0.00e+00	0	62	0	1525678080	43	4138
2026-01-25 02:31:34.83	307.12	51.04	-35.8	-37.1	18.1	0.00e+00	0	62	0	1531969536	43	4121
2026-01-25 02:31:35.84	306.47	51.10	-35.8	-37.1	18.1	0.00e+00	0	62	0	1537212416	43	4128
2026-01-25 02:31:36.85	305.80	51.17	-35.7	-37.1	18.1	0.00e+00	0	62	0	1542455296	43	4107
2026-01-25 02:31:37.86	305.14	51.22	-35.7	-37.0	18.2	0.00e+00	0	62	0	1548746752	43	4062
2026-01-25 02:31:38.87	304.48	51.27	-35.8	-37.2	18.0	0.00e+00	0	62	0	1553989632	43	4156
2026-01-25 02:31:39.88	303.81	51.32	-35.8	-37.2	18.0	0.00e+00	0	62	0	1560281088	43	4150
2026-01-25 02:31:40.89	303.14	51.37	-35.9	-37.2	18.0	0.00e+00	0	62	0	1565523968	43	4181
2026-01-25 02:31:41.90	302.46	51.41	-36.0	-37.4	17.8	0.00e+00	0	62	0	1571815424	43	4264
2026-01-25 02:31:42.90	301.80	51.44	-36.2	-37.6	17.6	0.00e+00	0	62	0	1577058304	43	4363
2026-01-25 02:31:43.92	301.11	51.48	-36.1	-37.4	17.8	0.00e+00	0	62	0	1582301184	43	4280
2026-01-25 02:31:44.92	300.44	51.50	-35.9	-37.3	17.9	0.00e+00	0	62	0	1588592640	43	4198
2026-01-25 02:31:45.93	299.77	51.53	-35.7	-37.1	18.1	0.00e+00	0	62	0	1593835520	43	4109
2026-01-25 02:31:46.94	299.09	51.55	-35.8	-37.1	18.1	0.00e+00	0	62	0	1600126976	43	4118
2026-01-25 02:31:47.95	298.41	51.56	-35.9	-37.3	17.9	0.00e+00	0	62	0	1605369856	43	4214
2026-01-25 02:31:48.96	297.73	51.58	-35.8	-37.1	18.0	0.00e+00	0	62	0	1610612736	43	4145
2026-01-25 02:31:49.97	297.04	51.58	-35.8	-37.1	18.1	0.00e+00	0	62	0	1616904192	43	4134
2026-01-25 02:31:50.98	296.36	51.59	-35.9	-37.2	18.0	0.00e+00	0	62	0	1622147072	43	4163
2026-01-25 02:31:52.00	295.67	51.58	-36.1	-37.5	17.7	0.00e+00	0	62	0	1628438528	43	4306
2026-01-25 02:31:53.01	294.99	51.58	-36.2	-37.6	17.5	0.00e+00	0	62	0	1633681408	43	4379
2026-01-25 02:31:54.01	294.32	51.57	-36.1	-37.5	17.6	0.00e+00	0	62	0	1638924288	43	4331
2026-01-25 02:31:55.02	293.64	51.55	-36.2	-37.6	17.6	0.00e+00	0	62	0	1645215744	43	4362
2026-01-25 02:31:56.03	292.96	51.54	-36.4	-37.8	17.4	0.00e+00	0	62	0	1650458624	43	4463
2026-01-25 02:31:57.04	292.28	51.51	-36.3	-37.8	17.4	0.00e+00	0	62	0	1656750080	43	4452
2026-01-25 02:31:58.05	291.60	51.49	-36.2	-37.6	17.5	0.00e+00	0	62	0	1661992960	43	4377
2026-01-25 02:31:59.06	290.93	51.46	-36.0	-37.4	17.8	0.00e+00	0	62	0	1668284416	43	4246
2026-01-25 02:32:00.07	290.25	51.42	-35.9	-37.2	18.0	0.00e+00	0	62	0	1673527296	43	4170
2026-01-25 02:32:01.08	289.58	51.38	-35.9	-37.3	17.9	0.00e+00	0	62	0	1679818752	43	4211
2026-01-25 02:32:02.09	288.91	51.34	-35.9	-37.3	17.9	0.00e+00	0	62	0	1685061632	43	4218
2026-01-25 02:32:03.10	288.24	51.29	-35.9	-37.2	18.0	0.00e+00	0	62	0	1690304512	43	4159
2026-01-25 02:32:04.11	287.57	51.24	-36.0	-37.3	17.9	0.00e+00	0	62	0	1696595968	43	4235
2026-01-25 02:32:05.12	286.90	51.19	-36.0	-37.4	17.8	0.00e+00	0	62	0	1701838848	43	4250
2026-01-25 02:32:06.13	286.24	51.13	-36.0	-37.4	17.8	0.00e+00	0	62	0	1708130304	43	4243
2026-01-25 02:32:07.14	285.58	51.06	-35.8	-37.1	18.0	0.00e+00	0	62	0	1713373184	43	4126
2026-01-25 02:32:08.15	284.93	51.00	-35.7	-37.0	18.1	0.00e+00	0	62	0	1718616064	43	4086
2026-01-25 02:32:09.16	284.27	50.93	-35.9	-37.3	17.9	0.00e+00	0	62	0	1724907520	43	4205
2026-01-25 02:32:10.17	283.62	50.85	-35.9	-37.3	17.9	0.00e+00	0	62	0	1730150400	43	4207
2026-01-25 02:32:11.18	282.97	50.77	-35.8	-37.2	18.0	0.00e+00	0	62	0	1736441856	43	4152
2026-01-25 02:32:12.19	282.33	50.69	-35.7	-37.1	18.1	0.00e+00	0	62	0	1741684736	43	4105
2026-01-25 02:32:13.20	281.69	50.60	-35.6	-36.9	18.3	0.00e+00	0	62	0	1746927616	43	4025
2026-01-25 02:32:14.21	281.05	50.51	-35.6	-36.9	18.2	0.00e+00	0	62	0	1753219072	43	4044
2026-01-25 02:32:15.22	280.42	50.42	-35.7	-37.0	18.1	0.00e+00	0	62	0	1758461952	43	4095
2026-01-25 02:32:16.23	279.79	50.32	-35.8	-37.2	18.0	0.00e+00	0	62	0	1764753408	43	4147
2026-01-25 02:32:17.24	279.17	50.23	-35.8	-37.1	18.0	0.00e+00	0	62	0	1769996288	43	4141
2026-01-25 02:32:18.25	278.55	50.12	-35.8	-37.1	18.0	0.00e+00	0	62	0	1776287744	43	4133
2026-01-25 02:32:19.26	277.93	50.02	-35.9	-37.3	17.9	0.00e+00	0	62	0	1781530624	43	4225
2026-01-25 02:32:20.27	277.32	49.91	-36.1	-37.5	17.7	0.00e+00	0	62	0	1786773504	43	4308
2026-01-25 02:32:21.29	276.70	49.79	-35.8	-37.1	18.0	0.00e+00	0	62	0	1793064960	43	4132
2026-01-25 02:32:22.29	276.11	49.68	-35.7	-37.0	18.1	0.00e+00	0	62	0	1798307840	43	4086
2026-01-25 02:32:23.31	275.50	49.56	-35.8	-37.1	18.0	0.00e+00	0	62	0	1804599296	43	4136
2026-01-25 02:32:24.32	274.91	49.43	-35.8	-37.1	18.0	0.00e+00	0	62	0	1809842176	43	4125
2026-01-25 02:32:25.33	274.32	49.31	-35.6	-37.0	18.2	0.00e+00	0	62	0	1816133632	43	4057
2026-01-25 02:32:26.34	273.74	49.18	-35.6	-36.9	18.2	0.00e+00	0	62	0	1821376512	43	4037
2026-01-25 02:32:27.35	273.16	49.05	-35.6	-36.9	18.3	0.00e+00	0	62	0	1826619392	43	4033
2026-01-25 02:32:28.36	272.58	48.92	-35.6	-36.9	18.2	0.00e+00	0	62	0	1832910848	43	4051
2026-01-25 02:32:29.37	272.01	48.78	-35.6	-36.9	18.3	0.00e+00	0	62	0	1838153728	43	4023
2026-01-25 02:32:30.38	271.45	48.64	-35.6	-36.9	18.3	0.00e+00	0	62	0	1844445184	43	4032
2026-01-25 02:32:31.39	270.89	48.50	-35.5	-36.8	18.4	0.00e+00	0	62	0	1849688064	43	3980
2026-01-25 02:32:32.40	270.34	48.36	-35.5	-36.8	18.3	0.00e+00	0	62	0	1854930944	42	4242
2026-01-25 02:32:33.41	269.79	48.21	-35.5	-36.8	18.4	0.00e+00	0	62	0	1861222400	42	4204
2026-01-25 02:32:34.42	269.25	48.06	-35.4	-36.7	18.5	0.00e+00	0	62	0	1866465280	42	4174
2026-01-25 02:32:35.43	268.71	47.91	-35.5	-36.8	18.3	0.00e+00	0	62	0	1872756736	42	4231
2026-01-25 02:32:36.44	268.17	47.76	-35.5	-36.9	18.3	0.00e+00	0	62	0	1877999616	42	4247
2026-01-25 02:32:37.45	267.65	47.60	-35.5	-36.8	18.3	0.00e+00	0	62	0	1884291072	42	4238
2026-01-25 02:32:38.46	267.13	47.44	-35.6	-36.9	18.3	0.00e+00	0	62	0	1889533952	42	4250
2026-01-25 02:32:39.47	266.61	47.29	-35.6	-36.9	18.3	0.00e+00	0	62	0	1894776832	42	4248
2026-01-25 02:32:40.48	266.10	47.12	-35.6	-37.0	18.2	0.00e+00	0	62	0	1901068288	42	4292
2026-01-25 02:32:41.50	265.59	46.96	-35.6	-36.9	18.2	0.00e+00	0	62	0	1906311168	42	4278
2026-01-25 02:32:42.51	265.08	46.80	-35.4	-36.7	18.4	0.00e+00	0	62	0	1912602624	42	4173
2026-01-25 02:32:43.51	264.59	46.63	-35.4	-36.6	18.5	0.00e+00	0	62	0	1917845504	42	4143
2026-01-25 02:32:44.53	264.10	46.46	-35.2	-36.5	18.7	0.00e+00	0	62	0	1923088384	42	4054
2026-01-25 02:32:45.54	263.61	46.29	-34.9	-36.2	19.0	0.00e+00	0	62	0	1929379840	41	4157
2026-01-25 02:32:46.55	263.13	46.12	-34.9	-36.1	19.0	0.00e+00	0	62	0	1934622720	41	4141
2026-01-25 02:32:47.56	262.66	45.95	-35.0	-36.3	18.9	0.00e+00	0	62	0	1940914176	41	4198
2026-01-25 02:32:48.57	262.19	45.77	-35.1	-36.3	18.8	0.00e+00	0	62	0	1946157056	41	4230
2026-01-25 02:32:49.58	261.72	45.60	-35.0	-36.3	18.8	0.00e+00	0	62	0	1951399936	41	4221
2026-01-25 02:32:50.59	261.26	45.42	-35.2	-36.4	18.7	0.00e+00	0	62	0	1957691392	41	4287
2026-01-25 02:32:51.60	260.81	45.24	-35.3	-36.6	18.6	0.00e+00	0	62	0	1962934272	41	4355
2026-01-25 02:32:52.61	260.36	45.06	-35.3	-36.6	18.6	0.00e+00	0	62	0	1969225728	41	4354
2026-01-25 02:32:53.62	259.92	44.88	-35.2	-36.5	18.6	0.00e+00	0	62	0	1974468608	41	4325
2026-01-25 02:32:54.63	259.48	44.70	-35.3	-36.5	18.6	0.00e+00	0	62	0	1980760064	41	4329
2026-01-25 02:32:55.64	259.05	44.52	-35.0	-36.3	18.9	0.00e+00	0	62	0	1986002944	41	4204
2026-01-25 02:32:56.65	258.62	44.34	-35.0	-36.2	18.9	0.00e+00	0	62	0	1992294400	41	4179
2026-01-25 02:32:57.66	258.19	44.15	-34.9	-36.2	18.9	0.00e+00	0	62	0	1997537280	41	4154
2026-01-25 02:32:58.66	257.78	43.97	-34.9	-36.2	18.9	0.00e+00	0	62	0	2002780160	41	4162
2026-01-25 02:32:59.67	257.36	43.78	-35.0	-36.2	18.9	0.00e+00	0	62	0	2009071616	41	4177
2026-01-25 02:33:00.67	256.96	43.60	-34.9	-36.2	18.9	0.00e+00	0	62	0	2014314496	41	4164
2026-01-25 02:33:01.68	256.55	43.41	-34.9	-36.2	19.0	0.00e+00	0	62	0	2020605952	41	4149
2026-01-25 02:33:02.69	256.15	43.22	-34.7	-35.9	19.1	0.00e+00	0	62	0	2025848832	41	4045
2026-01-25 02:33:03.71	255.75	43.03	-34.8	-36.0	19.2	0.00e+00	0	62	0	2031091712	41	4054
2026-01-25 02:33:04.72	255.36	42.84	-34.9	-36.1	19.0	0.00e+00	0	62	0	2037383168	41	4132
2026-01-25 02:33:05.73	254.98	42.65	-35.0	-36.3	18.9	0.00e+00	0	62	0	2042626048	41	4202
2026-01-25 02:33:06.74	254.60	42.46	-35.0	-36.3	18.8	0.00e+00	0	62	0	2048917504	41	4221
2026-01-25 02:33:07.75	254.22	42.27	-35.2	-36.5	18.6	0.00e+00	0	62	0	2054160384	41	4305
2026-01-25 02:33:08.76	253.85	42.08	-35.1	-36.4	18.7	0.00e+00	0	62	0	2059403264	41	4275
2026-01-25 02:33:09.77	253.48	41.89	-35.0	-36.3	18.8	0.00e+00	0	62	0	2065694720	41	4207
2026-01-25 02:33:10.78	253.12	41.70	-35.0	-36.3	18.8	0.00e+00	0	62	0	2070937600	41	4215
2026-01-25 02:33:11.79	252.76	41.50	-35.0	-36.3	18.8	0.00e+00	0	62	0	2077229056	41	4203
2026-01-25 02:33:12.80	252.40	41.31	-34.9	-36.2	18.9	0.00e+00	0	62	0	2082471936	41	4146
2026-01-25 02:33:13.81	252.05	41.12	-35.0	-36.2	18.9	0.00e+00	0	62	0	2088763392	41	4187
2026-01-25 02:33:14.82	251.70	40.93	-35.1	-36.3	18.8	0.00e+00	0	62	0	2094006272	41	4237
2026-01-25 02:33:15.83	251.36	40.73	-35.1	-36.4	18.7	0.00e+00	0	62	0	2100297728	41	4284
2026-01-25 02:33:16.84	251.02	40.54	-35.2	-36.4	18.7	0.00e+00	0	61	0	2105540608	41	4287
2026-01-25 02:33:17.85	250.69	40.35	-35.2	-36.4	18.7	0.00e+00	0	62	0	2110783488	41	4280
2026-01-25 02:33:18.86	250.36	40.15	-35.1	-36.4	18.7	0.00e+00	0	62	0	2117074944	41	4249
2026-01-25 02:33:19.87	250.03	39.96	-35.0	-36.2	18.8	0.00e+00	0	62	0	2122317824	41	4187
2026-01-25 02:33:20.88	249.71	39.77	-35.0	-36.3	18.8	0.00e+00	0	62	0	2128609280	41	4194
2026-01-25 02:33:21.89	249.39	39.57	-35.0	-36.3	18.8	0.00e+00	0	62	0	2133852160	41	4195
2026-01-25 02:33:22.90	249.08	39.38	-34.9	-36.2	18.9	0.00e+00	0	62	0	2139095040	41	4153
2026-01-25 02:33:23.91	248.76	39.19	-34.9	-36.1	19.0	0.00e+00	0	62	0	2145386496	41	4124
2026-01-25 02:33:24.92	248.46	38.99	-34.8	-36.1	19.0	0.00e+00	0	62	0	2150629376	41	4120
2026-01-25 02:33:25.93	248.15	38.80	-34.9	-36.1	19.0	0.00e+00	0	62	0	2155872256	41	4112
2026-01-25 02:33:26.94	247.85	38.61	-34.7	-35.9	19.2	0.00e+00	0	62	0	2162163712	41	4028
2026-01-25 02:33:27.95	247.56	38.42	-34.6	-35.8	19.3	0.00e+00	0	62	0	2167406592	41	3963
2026-01-25 02:33:28.96	247.26	38.22	-34.6	-35.8	19.3	0.00e+00	0	62	0	2173698048	41	3963
2026-01-25 02:33:29.97	246.97	38.03	-34.7	-35.9	19.2	0.00e+00	0	62	0	2178940928	41	4009
2026-01-25 02:33:30.98	246.69	37.84	-34.7	-35.9	19.1	0.00e+00	0	62	0	2185232384	41	4045
2026-01-25 02:33:31.98	246.41	37.65	-34.8	-36.0	19.1	0.00e+00	0	62	0	2190475264	41	4065
2026-01-25 02:33:32.99	246.13	37.46	-34.8	-36.0	19.0	0.00e+00	0	62	0	2196766720	41	4078
2026-01-25 02:33:34.00	245.85	37.27	-34.9	-36.1	18.9	0.00e+00	0	62	0	2202009600	41	4127
2026-01-25 02:33:35.02	245.57	37.08	-34.9	-36.2	18.9	0.00e+00	0	62	0	2207252480	41	4148
2026-01-25 02:33:36.02	245.31	36.89	-35.0	-36.3	18.8	0.00e+00	0	62	0	2213543936	41	4196
2026-01-25 02:33:37.03	245.04	36.70	-35.0	-36.2	18.8	0.00e+00	0	62	0	2218786816	41	4192
2026-01-25 02:33:38.05	244.77	36.51	-34.8	-36.1	18.9	0.00e+00	0	62	0	2225078272	41	4122
2026-01-25 02:33:39.05	244.52	36.32	-34.8	-36.0	19.1	0.00e+00	0	62	0	2230321152	41	4076
2026-01-25 02:33:40.06	244.26	36.13	-34.8	-36.0	19.1	0.00e+00	0	62	0	2235564032	41	4063
2026-01-25 02:33:41.08	244.00	35.94	-34.7	-35.9	19.1	0.00e+00	0	62	0	2241855488	41	4028
2026-01-25 02:33:42.09	243.75	35.76	-34.7	-35.9	19.1	0.00e+00	0	62	0	2247098368	41	4027
2026-01-25 02:33:43.10	243.50	35.57	-34.7	-35.9	19.1	0.00e+00	0	62	0	2253389824	41	4035
2026-01-25 02:33:44.11	243.25	35.38	-34.7	-36.0	19.1	0.00e+00	0	62	0	2258632704	41	4062
2026-01-25 02:33:45.12	243.01	35.20	-34.7	-35.9	19.1	0.00e+00	0	62	0	2263875584	41	4049
2026-01-25 02:33:46.13	242.77	35.01	-34.7	-35.9	19.1	0.00e+00	0	62	0	2270167040	41	4027
2026-01-25 02:33:47.14	242.53	34.83	-34.7	-35.9	19.1	0.00e+00	0	62	0	2275409920	41	4028
2026-01-25 02:33:48.15	242.30	34.64	-34.7	-36.0	19.1	0.00e+00	0	62	0	2281701376	41	4053
2026-01-25 02:33:49.16	242.07	34.46	-34.7	-35.9	19.2	0.00e+00	0	62	0	2286944256	41	4024
2026-01-25 02:33:50.17	241.84	34.27	-34.7	-35.9	19.1	0.00e+00	0	62	0	2293235712	41	4043
2026-01-25 02:33:51.18	241.61	34.09	-34.7	-35.9	19.1	0.00e+00	0	62	0	2298478592	41	4045
2026-01-25 02:33:52.19	241.38	33.91	-34.6	-35.8	19.2	0.00e+00	0	62	0	2304770048	41	3981
2026-01-25 02:33:53.20	241.16	33.73	-34.6	-35.8	19.2	0.00e+00	0	62	0	2310012928	41	3960
2026-01-25 02:33:54.21	240.94	33.54	-34.7	-35.9	19.1	0.00e+00	0	62	0	2315255808	41	4014
2026-01-25 02:33:55.22	240.73	33.36	-34.7	-35.9	19.1	0.00e+00	0	62	0	2321547264	41	4051
2026-01-25 02:33:56.23	240.51	33.18	-34.8	-36.0	19.0	0.00e+00	0	62	0	2326790144	41	4083
2026-01-25 02:33:57.24	240.30	33.00	-34.9	-36.1	18.9	0.00e+00	0	62	0	2333081600	41	4126
2026-01-25 02:33:58.25	240.09	32.83	-35.0	-36.3	18.7	0.00e+00	0	62	0	2338324480	41	4211
2026-01-25 02:33:59.26	239.88	32.65	-35.0	-36.2	18.8	0.00e+00	0	62	0	2343567360	41	4191
2026-01-25 02:34:00.27	239.68	32.47	-35.0	-36.3	18.8	0.00e+00	0	62	0	2349858816	41	4208
2026-01-25 02:34:01.28	239.47	32.29	-35.1	-36.4	18.7	0.00e+00	0	62	0	2355101696	41	4253
2026-01-25 02:34:02.29	239.27	32.12	-35.2	-36.5	18.6	0.00e+00	0	62	0	2361393152	41	4305
2026-01-25 02:34:03.30	239.07	31.94	-35.1	-36.4	18.6	0.00e+00	0	62	0	2366636032	41	4269
2026-01-25 02:34:04.31	238.88	31.77	-35.0	-36.3	18.7	0.00e+00	0	62	0	2371878912	41	4215
2026-01-25 02:34:05.32	238.68	31.59	-35.0	-36.3	18.6	0.00e+00	0	62	0	2378170368	41	4226
2026-01-25 02:34:06.33	238.49	31.42	-35.0	-36.2	18.8	0.00e+00	0	62	0	2383413248	41	4175
2026-01-25 02:34:07.34	238.30	31.25	-35.0	-36.2	18.7	0.00e+00	0	62	0	2389704704	41	4185
2026-01-25 02:34:08.35	238.11	31.07	-34.9	-36.1	18.8	0.00e+00	0	62	0	2394947584	41	4136
2026-01-25 02:34:09.36	237.93	30.90	-34.9	-36.2	18.8	0.00e+00	0	62	0	2401239040	41	4151
2026-01-25 02:34:10.37	237.74	30.73	-35.2	-36.5	18.5	0.00e+00	0	62	0	2406481920	41	4295
2026-01-25 02:34:11.38	237.56	30.56	-35.0	-36.3	18.7	0.00e+00	0	62	0	2412773376	41	4224
2026-01-25 02:34:12.39	237.38	30.39	-35.1	-36.3	18.6	0.00e+00	0	62	0	2418016256	41	4239
2026-01-25 02:34:13.40	237.20	30.22	-35.2	-36.4	18.5	0.00e+00	0	62	0	2423259136	41	4290
2026-01-25 02:34:14.41	237.02	30.05	-35.2	-36.5	18.5	0.00e+00	0	62	0	2429550592	41	4309
2026-01-25 02:34:15.42	236.85	29.89	-35.3	-36.6	18.4	0.00e+00	0	62	0	2434793472	41	4356
2026-01-25 02:34:16.43	236.68	29.72	-35.1	-36.4	18.5	0.00e+00	0	62	0	2440036352	41	4278
2026-01-25 02:34:17.43	236.51	29.55	-35.2	-36.4	18.5	0.00e+00	0	62	0	2446327808	41	4287
2026-01-25 02:34:18.45	236.34	29.39	-35.2	-36.5	18.5	0.00e+00	0	62	0	2451570688	41	4302
2026-01-25 02:34:19.45	236.17	29.22	-35.3	-36.5	18.4	0.00e+00	0	62	0	2457862144	41	4336
2026-01-25 02:34:20.46	236.00	29.06	-35.2	-36.5	18.4	0.00e+00	0	62	0	2463105024	41	4319
2026-01-25 02:34:21.47	235.84	28.90	-35.3	-36.6	18.4	0.00e+00	0	62	0	2468347904	41	4352
2026-01-25 02:34:22.48	235.68	28.73	-35.3	-36.7	18.3	0.00e+00	0	62	0	2474639360	41	4396
2026-01-25 02:34:23.49	235.52	28.57	-35.4	-36.7	18.3	0.00e+00	0	62	0	2479882240	41	4402
2026-01-25 02:34:24.50	235.36	28.41	-35.4	-36.7	18.2	0.00e+00	0	62	0	2486173696	41	4429
2026-01-25 02:34:25.51	235.20	28.25	-35.5	-36.8	18.1	0.00e+00	0	62	0	2491416576	41	4491
2026-01-25 02:34:26.52	235.04	28.09	-35.5	-36.9	18.1	0.00e+00	0	62	0	2497708032	41	4504
2026-01-25 02:34:27.53	234.89	27.93	-35.5	-36.9	18.1	0.00e+00	0	62	0	2502950912	41	4499
2026-01-25 02:34:28.54	234.74	27.77	-35.5	-36.9	18.1	0.00e+00	0	62	0	2509242368	41	4503
2026-01-25 02:34:29.55	234.59	27.61	-35.5	-36.8	18.2	0.00e+00	0	62	0	2514485248	41	4471
2026-01-25 02:34:30.56	234.44	27.46	-35.5	-36.9	18.1	0.00e+00	0	62	0	2519728128	41	4498
2026-01-25 02:34:31.57	234.29	27.30	-35.6	-36.9	18.1	0.00e+00	0	62	0	2526019584	41	4523
2026-01-25 02:34:32.58	234.14	27.14	-35.5	-36.8	18.2	0.00e+00	0	62	0	2531262464	41	4471
2026-01-25 02:34:33.60	233.99	26.99	-35.4	-36.7	18.3	0.00e+00	0	62	0	2537553920	41	4431
2026-01-25 02:34:34.61	233.85	26.83	-35.3	-36.6	18.3	0.00e+00	0	62	0	2542796800	41	4385
2026-01-25 02:34:35.62	233.71	26.68	-35.3	-36.7	18.3	0.00e+00	0	62	0	2548039680	41	4399
2026-01-25 02:34:36.63	233.57	26.52	-35.3	-36.6	18.3	0.00e+00	0	62	0	2554331136	41	4374
2026-01-25 02:34:37.64	233.43	26.37	-35.3	-36.6	18.3	0.00e+00	0	62	0	2559574016	41	4383
2026-01-25 02:34:38.65	233.29	26.22	-35.3	-36.6	18.3	0.00e+00	0	62	0	2565865472	41	4364
2026-01-25 02:34:39.66	233.15	26.07	-35.3	-36.7	18.3	0.00e+00	0	62	0	2571108352	41	4392
2026-01-25 02:34:40.67	233.02	25.92	-35.3	-36.6	18.3	0.00e+00	0	62	0	2576351232	41	4386
2026-01-25 02:34:41.68	232.88	25.77	-35.3	-36.6	18.4	0.00e+00	0	62	0	2582642688	41	4350
2026-01-25 02:34:42.69	232.75	25.62	-35.2	-36.5	18.4	0.00e+00	0	62	0	2587885568	41	4340
2026-01-25 02:34:43.70	232.62	25.47	-35.3	-36.6	18.3	0.00e+00	0	62	0	2594177024	41	4356
2026-01-25 02:34:44.71	232.49	25.32	-35.4	-36.7	18.3	0.00e+00	0	62	0	2599419904	41	4408
2026-01-25 02:34:45.72	232.36	25.17	-35.4	-36.7	18.2	0.00e+00	0	62	0	2605711360	41	4433
2026-01-25 02:34:46.73	232.23	25.03	-35.4	-36.7	18.2	0.00e+00	0	62	0	2610954240	41	4426
2026-01-25 02:34:47.74	232.10	24.88	-35.4	-36.7	18.2	0.00e+00	0	62	0	2617245696	41	4435
2026-01-25 02:34:48.75	231.98	24.74	-35.5	-36.8	18.1	0.00e+00	0	62	0	2622488576	41	4469
2026-01-25 02:34:49.76	231.85	24.59	-35.5	-36.8	18.1	0.00e+00	0	62	0	2627731456	41	4464
2026-01-25 02:34:50.77	231.73	24.45	-35.4	-36.8	18.2	0.00e+00	0	62	0	2634022912	41	4451
2026-01-25 02:34:51.78	231.60	24.30	-35.5	-36.8	18.1	0.00e+00	0	62	0	2639265792	41	4473
2026-01-25 02:34:52.79	231.48	24.16	-35.5	-36.8	18.1	0.00e+00	0	62	0	2645557248	41	4472
2026-01-25 02:34:53.80	231.36	24.02	-35.5	-36.8	18.1	0.00e+00	0	62	0	2650800128	41	4463
2026-01-25 02:34:54.81	231.24	23.88	-35.4	-36.7	18.2	0.00e+00	0	62	0	2656043008	41	4437
2026-01-25 02:34:55.82	231.13	23.74	-35.5	-36.9	18.0	0.00e+00	0	62	0	2662334464	41	4510
2026-01-25 02:34:56.83	231.01	23.60	-35.6	-36.9	18.0	0.00e+00	0	62	0	2667577344	41	4532
2026-01-25 02:34:57.84	230.89	23.46	-35.6	-37.0	17.9	0.00e+00	0	62	0	2673868800	41	4554
2026-01-25 02:34:58.84	230.78	23.32	-35.7	-37.0	17.9	0.00e+00	0	62	0	2679111680	41	4586
2026-01-25 02:34:59.85	230.67	23.18	-35.7	-37.1	17.8	0.00e+00	0	62	0	2684354560	41	4605
2026-01-25 02:35:00.86	230.55	23.04	-35.7	-37.1	17.7	0.00e+00	0	62	0	2690646016	42	4372
2026-01-25 02:35:01.87	230.44	22.91	-35.8	-37.2	17.7	0.00e+00	0	62	0	2695888896	42	4419
2026-01-25 02:35:02.88	230.33	22.77	-35.8	-37.2	17.7	0.00e+00	0	62	0	2702180352	42	4418
2026-01-25 02:35:03.89	230.22	22.63	-35.8	-37.2	17.7	0.00e+00	0	62	0	2707423232	42	4424
2026-01-25 02:35:04.90	230.11	22.50	-35.8	-37.2	17.7	0.00e+00	0	62	0	2713714688	42	4417
2026-01-25 02:35:05.91	230.01	22.36	-35.8	-37.2	17.7	0.00e+00	0	62	0	2718957568	42	4408
2026-01-25 02:35:06.92	229.90	22.23	-35.8	-37.2	17.6	0.00e+00	0	62	0	2724200448	42	4436
2026-01-25 02:35:07.93	229.79	22.10	-35.7	-37.1	17.8	0.00e+00	0	62	0	2730491904	42	4365
2026-01-25 02:35:08.94	229.69	21.96	-35.7	-37.1	17.8	0.00e+00	0	62	0	2735734784	42	4345
2026-01-25 02:35:09.95	229.58	21.83	-35.8	-37.1	17.7	0.00e+00	0	62	0	2742026240	42	4391
2026-01-25 02:35:10.96	229.48	21.70	-35.8	-37.2	17.7	0.00e+00	0	62	0	2747269120	42	4392
2026-01-25 02:35:11.98	229.38	21.57	-35.6	-36.9	17.9	0.00e+00	0	62	0	2752512000	42	4286
2026-01-25 02:35:12.99	229.28	21.44	-35.6	-36.9	18.0	0.00e+00	0	62	0	2758803456	42	4258
2026-01-25 02:35:14.00	229.18	21.31	-35.6	-37.0	17.9	0.00e+00	0	62	0	2764046336	42	4294
2026-01-25 02:35:15.01	229.08	21.18	-35.6	-37.0	17.9	0.00e+00	0	62	0	2770337792	42	4305
2026-01-25 02:35:16.02	228.98	21.05	-35.8	-37.1	17.7	0.00e+00	0	62	0	2775580672	42	4388
2026-01-25 02:35:17.03	228.88	20.92	-35.7	-37.0	17.8	0.00e+00	0	62	0	2781872128	42	4339
2026-01-25 02:35:18.04	228.78	20.79	-35.6	-37.0	17.9	0.00e+00	0	62	0	2787115008	42	4320
2026-01-25 02:35:19.05	228.69	20.66	-35.7	-37.1	17.8	0.00e+00	0	62	0	2792357888	42	4370
2026-01-25 02:35:20.06	228.59	20.54	-35.8	-37.2	17.7	0.00e+00	0	62	0	2798649344	42	4422
2026-01-25 02:35:21.07	228.50	20.41	-35.9	-37.3	17.6	0.00e+00	0	62	0	2803892224	42	4448
2026-01-25 02:35:22.08	228.40	20.29	-36.0	-37.5	17.4	0.00e+00	0	62	0	2810183680	42	4554
2026-01-25 02:35:23.09	228.31	20.16	-36.1	-37.5	17.4	0.00e+00	0	61	0	2815426560	42	4560
2026-01-25 02:35:24.10	228.22	20.04	-36.1	-37.5	17.4	0.00e+00	0	62	0	2821718016	42	4564
2026-01-25 02:35:25.11	228.12	19.91	-36.1	-37.5	17.3	0.00e+00	0	62	0	2826960896	42	4595
2026-01-25 02:35:26.12	228.03	19.79	-36.2	-37.6	17.2	0.00e+00	0	62	0	2832203776	42	4625
2026-01-25 02:35:27.13	227.94	19.67	-36.2	-37.7	17.1	0.00e+00	0	62	0	2838495232	43	4423
2026-01-25 02:35:28.14	227.85	19.54	-36.3	-37.8	17.1	0.00e+00	0	62	0	2843738112	43	4446
2026-01-25 02:35:29.15	227.77	19.42	-36.3	-37.8	17.0	0.00e+00	0	62	0	2850029568	43	4491
2026-01-25 02:35:30.16	227.68	19.30	-36.4	-37.9	16.9	0.00e+00	0	62	0	2855272448	43	4520
2026-01-25 02:35:31.17	227.59	19.18	-36.4	-38.0	16.9	0.00e+00	0	62	0	2860515328	43	4554
2026-01-25 02:35:32.18	227.50	19.06	-36.5	-38.0	16.8	0.00e+00	0	62	0	2866806784	43	4579
2026-01-25 02:35:33.19	227.42	18.94	-36.5	-38.1	16.8	0.00e+00	0	62	0	2872049664	43	4609
2026-01-25 02:35:34.20	227.33	18.82	-36.4	-38.0	16.8	0.00e+00	0	62	0	2878341120	43	4557
2026-01-25 02:35:35.21	227.25	18.70	-36.5	-38.0	16.8	0.00e+00	0	62	0	2883584000	43	4572
2026-01-25 02:35:36.22	227.17	18.58	-36.5	-38.0	16.8	0.00e+00	0	62	0	2888826880	43	4581
2026-01-25 02:35:37.23	227.08	18.47	-36.5	-38.0	16.7	0.00e+00	0	62	0	2895118336	43	4592
2026-01-25 02:35:38.24	227.00	18.35	-36.5	-38.0	16.8	0.00e+00	0	62	0	2900361216	43	4552
2026-01-25 02:35:39.25	226.92	18.23	-36.5	-38.0	16.7	0.00e+00	0	62	0	2906652672	43	4592
2026-01-25 02:35:40.26	226.84	18.12	-36.5	-38.0	16.8	0.00e+00	0	62	0	2911895552	43	4572
2026-01-25 02:35:41.27	226.76	18.00	-36.5	-38.0	16.8	0.00e+00	0	62	0	2918187008	43	4554
2026-01-25 02:35:42.28	226.68	17.89	-36.5	-38.0	16.7	0.00e+00	0	62	0	2923429888	43	4581
2026-01-25 02:35:43.29	226.60	17.77	-36.5	-38.0	16.7	0.00e+00	0	62	0	2929721344	43	4586
2026-01-25 02:35:44.30	226.52	17.66	-36.6	-38.1	16.7	0.00e+00	0	62	0	2934964224	43	4610
2026-01-25 02:35:45.31	226.44	17.54	-36.6	-38.1	16.7	0.00e+00	0	62	0	2940207104	43	4616
2026-01-25 02:35:46.32	226.36	17.43	-36.6	-38.1	16.7	0.00e+00	0	62	0	2946498560	43	4622
2026-01-25 02:35:47.33	226.29	17.32	-36.7	-38.2	16.6	0.00e+00	0	62	0	2951741440	43	4679
2026-01-25 02:35:48.34	226.21	17.20	-36.9	-38.5	16.4	0.00e+00	0	62	0	2958032896	44	4561
2026-01-25 02:35:49.35	226.13	17.09	-36.9	-38.5	16.4	0.00e+00	0	62	0	2963275776	44	4560
2026-01-25 02:35:50.37	226.06	16.98	-36.9	-38.5	16.4	0.00e+00	0	62	0	2968518656	44	4554
2026-01-25 02:35:51.37	225.99	16.87	-36.9	-38.5	16.4	0.00e+00	0	62	0	2974810112	44	4566
2026-01-25 02:35:52.39	225.91	16.76	-37.0	-38.6	16.3	0.00e+00	0	62	0	2980052992	44	4612
2026-01-25 02:35:53.40	225.84	16.65	-37.0	-38.6	16.3	0.00e+00	0	62	0	2986344448	44	4612
2026-01-25 02:35:54.41	225.76	16.54	-37.0	-38.6	16.3	0.00e+00	0	62	0	2991587328	44	4640
2026-01-25 02:35:55.42	225.69	16.43	-37.1	-38.7	16.2	0.00e+00	0	62	0	2996830208	44	4666
2026-01-25 02:35:56.43	225.62	16.32	-37.0	-38.6	16.3	0.00e+00	0	62	0	3003121664	44	4601
2026-01-25 02:35:57.44	225.55	16.21	-37.0	-38.6	16.3	0.00e+00	0	62	0	3008364544	44	4629
2026-01-25 02:35:58.45	225.48	16.10	-37.1	-38.7	16.2	0.00e+00	0	62	0	3014656000	44	4671
2026-01-25 02:35:59.45	225.41	16.00	-37.1	-38.6	16.2	0.00e+00	0	62	0	3019898880	44	4651
2026-01-25 02:36:00.46	225.34	15.89	-37.1	-38.7	16.1	0.00e+00	0	62	0	3026190336	44	4697
2026-01-25 02:36:01.47	225.27	15.78	-37.2	-38.8	16.1	0.00e+00	0	62	0	3031433216	44	4753
2026-01-25 02:36:02.48	225.20	15.68	-37.2	-38.9	16.0	0.00e+00	0	62	0	3037724672	45	4501
2026-01-25 02:36:03.49	225.13	15.57	-37.3	-39.0	15.8	0.00e+00	0	62	0	3042967552	45	4576
2026-01-25 02:36:04.50	225.07	15.47	-37.4	-39.0	15.8	0.00e+00	0	62	0	3048210432	45	4581
2026-01-25 02:36:05.51	225.00	15.36	-37.5	-39.1	15.7	0.00e+00	0	62	0	3054501888	45	4644
2026-01-25 02:36:06.52	224.93	15.26	-37.5	-39.2	15.6	0.00e+00	0	62	0	3059744768	45	4687
2026-01-25 02:36:07.52	224.87	15.15	-37.5	-39.2	15.6	0.00e+00	0	62	0	3064987648	45	4697
2026-01-25 02:36:08.53	224.80	15.05	-37.5	-39.3	15.6	0.00e+00	0	62	0	3071279104	45	4719
2026-01-25 02:36:09.54	224.74	14.95	-37.7	-39.4	15.4	0.00e+00	0	62	0	3076521984	45	4810
2026-01-25 02:36:10.55	224.67	14.84	-37.7	-39.5	15.4	0.00e+00	0	62	0	3082813440	45	4815
2026-01-25 02:36:11.56	224.61	14.74	-37.7	-39.5	15.4	0.00e+00	0	62	0	3088056320	46	4592
2026-01-25 02:36:12.57	224.54	14.64	-37.8	-39.6	15.2	0.00e+00	0	62	0	3093299200	46	4643
2026-01-25 02:36:13.58	224.48	14.54	-37.8	-39.6	15.2	0.00e+00	0	62	0	3099590656	46	4644
2026-01-25 02:36:14.59	224.42	14.44	-37.8	-39.6	15.3	0.00e+00	0	62	0	3104833536	46	4603
2026-01-25 02:36:15.60	224.35	14.34	-37.8	-39.6	15.3	0.00e+00	0	62	0	3111124992	46	4610
2026-01-25 02:36:16.61	224.29	14.23	-37.9	-39.7	15.1	1.10e-06	0	62	0	3116367872	46	4685
2026-01-25 02:36:17.62	224.23	14.13	-37.9	-39.7	15.1	0.00e+00	0	62	0	3122659328	46	4683
2026-01-25 02:36:18.63	224.17	14.03	-37.9	-39.7	15.1	0.00e+00	0	62	0	3127902208	46	4681
2026-01-25 02:36:19.64	224.11	13.94	-37.9	-39.7	15.1	0.00e+00	0	62	0	3134193664	46	4693
2026-01-25 02:36:20.65	224.05	13.84	-37.9	-39.7	15.1	0.00e+00	0	62	0	3139436544	46	4693
2026-01-25 02:36:21.66	223.99	13.74	-37.8	-39.6	15.2	0.00e+00	0	62	0	3144679424	46	4620
2026-01-25 02:36:22.67	223.93	13.64	-37.7	-39.5	15.2	0.00e+00	0	62	0	3150970880	46	4591
2026-01-25 02:36:23.68	223.87	13.54	-37.8	-39.5	15.2	0.00e+00	0	62	0	3156213760	46	4598
2026-01-25 02:36:24.69	223.81	13.44	-37.7	-39.5	15.3	0.00e+00	0	62	0	3162505216	46	4568
2026-01-25 02:36:25.70	223.75	13.35	-37.7	-39.5	15.2	0.00e+00	0	62	0	3167748096	46	4587
2026-01-25 02:36:26.71	223.70	13.25	-37.7	-39.5	15.3	1.10e-06	0	62	0	3172990976	46	4576
2026-01-25 02:36:27.72	223.64	13.15	-37.7	-39.5	15.2	0.00e+00	0	62	0	3179282432	46	4594
2026-01-25 02:36:28.73	223.58	13.06	-37.8	-39.6	15.2	0.00e+00	0	62	0	3184525312	46	4616
2026-01-25 02:36:29.74	223.52	12.96	-37.8	-39.6	15.1	0.00e+00	0	62	0	3190816768	46	4632
2026-01-25 02:36:30.75	223.47	12.87	-37.7	-39.4	15.3	0.00e+00	0	62	0	3196059648	46	4530
2026-01-25 02:36:31.76	223.41	12.77	-37.7	-39.5	15.2	0.00e+00	0	62	0	3201302528	46	4569
2026-01-25 02:36:32.77	223.36	12.68	-37.7	-39.5	15.2	0.00e+00	0	62	0	3207593984	46	4577
2026-01-25 02:36:33.78	223.30	12.58	-37.9	-39.7	15.1	0.00e+00	0	62	0	3212836864	46	4653
2026-01-25 02:36:34.79	223.25	12.49	-37.8	-39.6	15.1	0.00e+00	0	62	0	3219128320	46	4622
2026-01-25 02:36:35.80	223.19	12.39	-37.8	-39.6	15.1	0.00e+00	0	62	0	3224371200	46	4646
2026-01-25 02:36:36.81	223.14	12.30	-37.8	-39.6	15.1	0.00e+00	0	62	0	3230662656	46	4614
2026-01-25 02:36:37.83	223.08	12.21	-37.9	-39.7	15.0	0.00e+00	0	62	0	3235905536	46	4668
2026-01-25 02:36:38.84	223.03	12.11	-37.8	-39.6	15.1	0.00e+00	0	62	0	3241148416	46	4647
2026-01-25 02:36:39.85	222.98	12.02	-37.9	-39.8	14.9	0.00e+00	0	62	0	3247439872	46	4712
2026-01-25 02:36:40.86	222.92	11.93	-38.0	-39.8	14.9	0.00e+00	0	62	0	3252682752	46	4740
2026-01-25 02:36:41.87	222.87	11.84	-38.1	-40.0	14.7	1.10e-06	0	62	0	3258974208	46	4826
2026-01-25 02:36:42.88	222.82	11.74	-38.0	-39.9	14.8	0.00e+00	0	62	0	3264217088	46	4766
2026-01-25 02:36:43.89	222.77	11.65	-38.0	-39.9	14.8	0.00e+00	0	62	0	3270508544	46	4789
2026-01-25 02:36:44.90	222.72	11.56	-38.1	-40.0	14.7	1.10e-06	0	62	0	3275751424	46	4832
2026-01-25 02:36:45.91	222.67	11.47	-38.2	-40.1	14.6	0.00e+00	0	62	0	3280994304	46	4885
2026-01-25 02:36:46.92	222.61	11.38	-38.1	-40.0	14.7	0.00e+00	0	62	0	3287285760	46	4853
2026-01-25 02:36:47.93	222.56	11.29	-38.1	-40.1	14.6	0.00e+00	0	62	0	3292528640	46	4894
2026-01-25 02:36:48.94	222.51	11.20	-38.2	-40.2	14.5	1.10e-06	0	62	0	3298820096	47	4662
2026-01-25 02:36:49.95	222.46	11.11	-38.2	-40.2	14.4	0.00e+00	0	62	0	3304062976	47	4662
2026-01-25 02:36:50.96	222.42	11.02	-38.3	-40.3	14.3	2.20e-06	0	62	0	3309305856	47	4723
2026-01-25 02:36:51.97	222.37	10.94	-38.3	-40.3	14.3	1.10e-06	0	62	0	3315597312	47	4729
2026-01-25 02:36:52.98	222.32	10.85	-38.3	-40.3	14.2	2.20e-06	0	62	0	3320840192	47	4741
2026-01-25 02:36:53.99	222.27	10.76	-38.3	-40.3	14.3	0.00e+00	0	62	0	3327131648	47	4739
2026-01-25 02:36:55.00	222.22	10.67	-38.4	-40.4	14.2	0.00e+00	0	62	0	3332374528	47	4775
2026-01-25 02:36:56.01	222.17	10.58	-38.4	-40.4	14.2	0.00e+00	0	62	0	3337617408	47	4788
2026-01-25 02:36:57.02	222.13	10.50	-38.4	-40.4	14.1	3.40e-06	0	62	0	3343908864	47	4812
2026-01-25 02:36:58.03	222.08	10.41	-38.5	-40.5	14.0	1.10e-06	0	62	0	3349151744	47	4856
2026-01-25 02:36:59.04	222.03	10.32	-38.6	-40.7	13.9	0.00e+00	0	62	0	3355443200	47	4929
2026-01-25 02:37:00.05	221.98	10.24	-38.6	-40.7	13.9	0.00e+00	0	62	0	3360686080	47	4939
2026-01-25 02:37:01.06	221.94	10.15	-38.6	-40.7	13.8	1.10e-06	0	62	0	3366977536	47	4956
2026-01-25 02:37:02.07	221.89	10.06	-38.5	-40.6	13.9	0.00e+00	0	62	0	3372220416	47	4892
2026-01-25 02:37:03.08	221.85	9.98	-38.5	-40.6	13.9	3.40e-06	0	62	0	3377463296	47	4918
2026-01-25 02:37:04.08	221.80	9.89	-38.4	-40.5	14.0	0.00e+00	0	62	0	3383754752	47	4849
2026-01-25 02:37:05.09	221.76	9.81	-38.5	-40.6	13.9	4.50e-06	0	62	0	3388997632	47	4873
2026-01-25 02:37:06.10	221.71	9.72	-38.5	-40.6	13.9	1.10e-06	0	62	0	3395289088	47	4906
2026-01-25 02:37:07.12	221.67	9.64	-38.4	-40.5	14.0	0.00e+00	0	62	0	3400531968	47	4823
2026-01-25 02:37:08.12	221.62	9.56	-38.5	-40.6	13.8	4.50e-06	0	62	0	3405774848	47	4917
2026-01-25 02:37:09.14	221.58	9.47	-38.4	-40.5	13.9	0.00e+00	0	62	0	3412066304	47	4854
2026-01-25 02:37:10.15	221.53	9.39	-38.4	-40.5	13.9	1.10e-06	0	62	0	3417309184	47	4852
2026-01-25 02:37:11.16	221.49	9.30	-38.6	-40.7	13.7	4.50e-06	0	62	0	3423600640	47	4961
2026-01-25 02:37:12.17	221.45	9.22	-38.5	-40.7	13.7	1.10e-06	0	62	0	3428843520	47	4941
2026-01-25 02:37:13.18	221.40	9.14	-38.4	-40.5	13.9	1.10e-06	0	62	0	3434086400	47	4860
2026-01-25 02:37:14.19	221.36	9.06	-38.6	-40.7	13.7	0.00e+00	0	62	0	3440377856	47	4957
2026-01-25 02:37:15.20	221.32	8.97	-38.6	-40.7	13.6	4.50e-06	0	62	0	3445620736	47	4980
2026-01-25 02:37:16.21	221.28	8.89	-38.6	-40.7	13.6	2.20e-06	0	62	0	3451912192	47	4954
2026-01-25 02:37:17.22	221.23	8.81	-38.6	-40.7	13.6	1.10e-06	0	62	0	3457155072	47	4975
2026-01-25 02:37:18.22	221.19	8.73	-38.6	-40.8	13.6	3.40e-06	0	62	0	3463446528	47	4996
2026-01-25 02:37:19.23	221.15	8.65	-38.6	-40.8	13.6	1.02e-05	0	62	0	3468689408	47	4998
2026-01-25 02:37:20.24	221.11	8.57	-38.6	-40.8	13.5	4.50e-06	0	62	0	3474980864	47	5014
2026-01-25 02:37:21.25	221.07	8.48	-38.6	-40.8	13.6	6.80e-06	0	62	0	3480223744	47	4986
2026-01-25 02:37:22.26	221.03	8.40	-38.7	-40.9	13.4	1.02e-05	0	62	0	3485466624	47	5064
2026-01-25 02:37:23.27	220.99	8.32	-38.6	-40.8	13.4	8.00e-06	0	62	0	3491758080	47	5037
2026-01-25 02:37:24.28	220.95	8.24	-38.6	-40.9	13.4	1.60e-05	0	62	0	3497000960	47	5049
2026-01-25 02:37:25.29	220.91	8.16	-38.7	-40.9	13.4	1.14e-05	0	62	0	3503292416	47	5059
2026-01-25 02:37:26.30	220.87	8.08	-38.9	-41.2	13.2	1.48e-05	0	62	0	3508535296	48	4952
2026-01-25 02:37:27.31	220.83	8.01	-39.2	-41.5	12.9	1.83e-05	0	62	0	3513778176	48	5156
2026-01-25 02:37:28.32	220.79	7.93	-44.5	-56.0	3.8	8.47e-01	0	62	104	3516923904	59	14455
2026-01-25 02:37:29.33	220.75	7.85	-44.7	-56.5	3.8	8.46e-01	0	62	104	3516923904	60	14421
2026-01-25 02:37:30.34	220.71	7.77	-44.9	-56.6	3.8	8.47e-01	0	62	104	3516923904	60	14662
2026-01-25 02:37:31.35	220.67	7.69	-44.9	-56.7	3.8	8.47e-01	0	62	104	3516923904	60	14879
2026-01-25 02:37:32.36	220.63	7.61	-45.0	-56.8	3.8	8.46e-01	0	62	104	3516923904	60	14910
2026-01-25 02:37:33.38	220.59	7.53	-45.1	-56.8	3.8	8.46e-01	0	62	104	3516923904	60	15047
2026-01-25 02:37:34.39	220.55	7.46	-45.1	-56.9	3.8	8.46e-01	0	62	104	3516923904	60	15160
2026-01-25 02:37:35.40	220.52	7.38	-45.2	-56.9	3.8	8.47e-01	0	62	104	3516923904	60	15225
2026-01-25 02:37:36.41	220.48	7.30	-45.2	-57.0	3.8	8.45e-01	0	62	104	3516923904	60	15226
2026-01-25 02:37:37.42	220.44	7.22	-45.1	-56.8	3.8	8.47e-01	0	62	104	3516923904	60	15044
2026-01-25 02:37:38.43	220.40	7.15	-45.1	-56.9	3.8	8.46e-01	0	62	104	3516923904	60	15101
2026-01-25 02:37:39.44	220.37	7.07	-45.1	-56.8	3.8	8.46e-01	0	62	104	3516923904	60	15051
2026-01-25 02:37:40.45	220.33	6.99	-45.1	-56.8	3.8	8.45e-01	0	62	104	3516923904	60	14920
2026-01-25 02:37:41.46	220.29	6.92	-45.0	-56.8	3.8	8.47e-01	0	62	104	3516923904	60	14908
2026-01-25 02:37:42.47	220.26	6.84	-45.1	-56.8	3.8	8.46e-01	0	62	104	3516923904	60	14928
2026-01-25 02:37:43.48	220.22	6.77	-45.1	-56.9	3.8	8.48e-01	0	62	104	3516923904	60	15054
2026-01-25 02:37:44.49	220.18	6.69	-45.1	-56.8	3.8	8.45e-01	0	62	104	3516923904	60	14904
2026-01-25 02:37:45.50	220.15	6.61	-45.1	-56.8	3.8	8.46e-01	0	62	104	3516923904	60	14969
2026-01-25 02:37:46.51	220.11	6.54	-45.1	-56.8	3.8	8.46e-01	0	62	104	3516923904	60	14931
2026-01-25 02:37:47.52	220.08	6.46	-45.1	-56.8	3.8	8.46e-01	0	62	104	3516923904	60	14921
2026-01-25 02:37:48.53	220.04	6.39	-45.1	-56.8	3.8	8.47e-01	0	62	104	3516923904	60	14920
