passes_logs/2026/01/25/R2.0S_Moscow/R2.0S_Moscow__20260125_005750_NOAA_21_JPSS-2_rec.log

#Pass ID: 20260125_005750_NOAA 21 (JPSS-2)
#Satellite: NOAA 21 (JPSS-2)
#Configuration: NOAA-21
#almurnet v.1.7.20251203
#Start time: 2026-01-25 00:58:26

#Version: 2.2.20231116
#Station: R2.0S_Moscow
#Location: 37.707566 lon 55.798166 lat
#TLE: 1 54234U 22150A   26024.45772595  .00000201  00000+0  11607-3 0  9996
#TLE: 2 54234  98.7508 325.2435 0000728 220.7365 139.3757 14.19538765166156

#Time	Az	El	Level	Level2	SNR	BER	BlckErr	Temp	State	Recorded	gain1	gain2
2026-01-25 00:58:26.94	9.38	4.22	-45.1	-56.8	3.8	8.45e-01	0	61	0	0	61	14066
2026-01-25 00:58:27.94	9.32	4.28	-45.6	-58.0	3.8	1.49e+00	0	62	104	0	63	14437
2026-01-25 00:58:28.95	9.26	4.35	-45.5	-57.9	3.8	1.49e+00	0	62	104	0	62	15213
2026-01-25 00:58:29.96	9.20	4.41	-45.4	-57.9	3.8	1.49e+00	0	62	104	0	62	15057
2026-01-25 00:58:30.97	9.14	4.48	-45.3	-57.7	3.8	1.49e+00	0	62	104	0	62	14865
2026-01-25 00:58:31.98	9.08	4.54	-45.2	-57.7	3.8	1.49e+00	0	62	104	0	62	14774
2026-01-25 00:58:32.99	9.02	4.61	-45.2	-57.7	3.8	1.49e+00	0	62	104	0	62	14792
2026-01-25 00:58:34.00	8.96	4.67	-44.6	-57.1	3.8	1.49e+00	0	62	104	0	61	14696
2026-01-25 00:58:35.01	8.90	4.73	-43.9	-56.2	3.8	1.49e+00	0	62	104	0	59	14775
2026-01-25 00:58:36.02	8.84	4.80	-40.3	-52.7	3.8	1.49e+00	0	62	104	0	52	14734
2026-01-25 00:58:37.03	8.78	4.86	-39.9	-52.3	3.8	1.49e+00	0	62	104	0	51	14937
2026-01-25 00:58:38.04	8.71	4.93	-39.9	-52.3	3.8	1.49e+00	0	62	104	0	51	14907
2026-01-25 00:58:39.05	8.65	4.99	-39.9	-52.3	3.8	1.49e+00	0	62	104	0	51	14895
2026-01-25 00:58:40.06	8.59	5.06	-39.9	-52.2	3.8	1.49e+00	0	62	104	0	51	14876
2026-01-25 00:58:41.07	8.52	5.13	-39.9	-52.2	3.8	1.49e+00	0	62	104	0	51	14840
2026-01-25 00:58:42.08	8.46	5.19	-39.9	-52.2	3.8	1.49e+00	0	62	104	0	51	14835
2026-01-25 00:58:43.09	8.40	5.26	-39.9	-52.2	3.8	1.49e+00	0	62	104	0	51	14838
2026-01-25 00:58:44.10	8.33	5.32	-39.9	-52.2	3.8	1.49e+00	0	62	104	0	51	14812
2026-01-25 00:58:45.11	8.27	5.39	-39.9	-52.2	3.8	1.49e+00	0	62	104	0	51	14797
2026-01-25 00:58:46.12	8.20	5.46	-39.9	-52.2	3.8	1.49e+00	0	62	104	0	51	14798
2026-01-25 00:58:47.13	8.14	5.52	-39.9	-52.2	3.8	1.49e+00	0	62	104	0	51	14785
2026-01-25 00:58:48.14	8.07	5.59	-39.9	-52.2	3.8	1.49e+00	0	62	104	0	51	14798
2026-01-25 00:58:49.15	8.01	5.65	-39.9	-52.2	3.8	1.49e+00	0	62	104	0	51	14802
2026-01-25 00:58:50.16	7.94	5.72	-39.9	-52.2	3.8	1.49e+00	0	62	104	0	51	14783
2026-01-25 00:58:51.17	7.87	5.79	-39.9	-52.2	3.8	1.49e+00	0	62	104	0	51	14758
2026-01-25 00:58:52.18	7.81	5.86	-39.9	-52.2	3.8	1.49e+00	0	62	104	0	51	14831
2026-01-25 00:58:53.19	7.74	5.92	-39.9	-52.2	3.8	1.49e+00	0	62	104	0	51	14785
2026-01-25 00:58:54.20	7.67	5.99	-39.8	-52.2	3.8	1.49e+00	0	62	104	0	51	14771
2026-01-25 00:58:55.21	7.60	6.06	-39.9	-52.2	3.8	1.49e+00	0	62	104	0	51	14800
2026-01-25 00:58:56.22	7.54	6.12	-39.8	-52.2	3.8	1.49e+00	0	62	104	0	51	14749
2026-01-25 00:58:57.24	7.47	6.19	-39.9	-52.2	3.8	1.49e+00	0	62	104	0	51	14765
2026-01-25 00:58:58.25	7.40	6.26	-39.9	-52.2	3.8	1.49e+00	0	62	104	0	51	14799
2026-01-25 00:58:59.26	7.33	6.33	-39.9	-52.2	3.8	1.49e+00	0	62	104	0	51	14764
2026-01-25 00:59:00.27	7.26	6.40	-39.8	-52.2	3.8	1.49e+00	0	62	104	0	51	14733
2026-01-25 00:59:01.28	7.19	6.46	-39.8	-52.2	3.8	1.49e+00	0	62	104	0	51	14821
2026-01-25 00:59:02.29	7.12	6.53	-39.9	-52.2	3.8	1.49e+00	0	62	104	0	51	14751
2026-01-25 00:59:03.30	7.05	6.60	-39.8	-52.2	3.8	1.49e+00	0	62	104	0	51	14769
2026-01-25 00:59:04.31	6.98	6.67	-39.8	-52.1	3.8	1.49e+00	0	62	104	0	51	14702
2026-01-25 00:59:05.32	6.91	6.74	-39.8	-52.2	3.8	1.49e+00	0	62	104	0	51	14776
2026-01-25 00:59:06.33	6.84	6.81	-39.8	-52.2	3.8	1.49e+00	0	62	104	0	51	14768
2026-01-25 00:59:07.34	6.76	6.88	-39.8	-52.1	3.8	1.49e+00	0	62	104	0	51	14705
2026-01-25 00:59:08.35	6.69	6.95	-39.8	-52.2	3.8	1.49e+00	0	62	104	0	51	14726
2026-01-25 00:59:09.36	6.62	7.01	-39.8	-52.2	3.8	1.49e+00	0	62	104	0	51	14765
2026-01-25 00:59:10.37	6.55	7.08	-39.8	-52.2	3.8	1.49e+00	0	62	104	0	51	14738
2026-01-25 00:59:11.38	6.47	7.15	-39.8	-52.2	3.8	1.49e+00	0	62	104	0	51	14757
2026-01-25 00:59:12.39	6.40	7.22	-39.8	-52.2	3.8	1.49e+00	0	62	104	0	51	14711
2026-01-25 00:59:13.39	6.33	7.29	-39.8	-52.2	3.8	1.49e+00	0	62	104	0	51	14766
2026-01-25 00:59:14.40	6.25	7.36	-39.8	-52.2	3.8	1.49e+00	0	62	104	0	51	14743
2026-01-25 00:59:15.41	6.18	7.43	-39.8	-52.2	3.8	1.49e+00	0	62	104	0	51	14731
2026-01-25 00:59:16.42	6.10	7.50	-39.8	-52.1	3.8	1.49e+00	0	62	104	0	51	14706
2026-01-25 00:59:17.43	6.03	7.57	-39.8	-52.2	3.8	1.49e+00	0	62	104	0	51	14730
2026-01-25 00:59:18.44	5.95	7.64	-39.8	-52.2	3.8	1.49e+00	0	62	104	0	51	14728
2026-01-25 00:59:19.45	5.87	7.71	-39.8	-52.2	3.8	1.49e+00	0	62	104	0	51	14717
2026-01-25 00:59:20.46	5.80	7.79	-39.8	-52.2	3.8	1.49e+00	0	62	104	0	51	14726
2026-01-25 00:59:21.47	5.72	7.86	-39.8	-52.2	3.8	1.49e+00	0	62	104	0	51	14712
2026-01-25 00:59:22.48	5.64	7.93	-39.8	-52.1	3.8	1.49e+00	0	62	104	0	51	14692
2026-01-25 00:59:23.49	5.56	8.00	-39.8	-52.1	3.8	1.49e+00	0	62	104	0	51	14707
2026-01-25 00:59:24.50	5.49	8.07	-39.8	-52.2	3.8	1.49e+00	0	62	104	0	51	14784
2026-01-25 00:59:25.51	5.41	8.14	-39.9	-52.3	3.8	1.49e+00	0	62	104	0	51	14925
2026-01-25 00:59:26.52	5.33	8.21	-40.0	-52.3	3.8	1.49e+00	0	62	104	0	51	15013
2026-01-25 00:59:27.53	5.25	8.29	-40.0	-52.3	3.8	1.49e+00	0	62	104	0	51	15024
2026-01-25 00:59:28.54	5.17	8.36	-40.0	-52.3	3.8	1.49e+00	0	62	104	0	51	14989
2026-01-25 00:59:29.55	5.09	8.43	-40.0	-52.3	3.8	1.49e+00	0	62	104	0	51	14999
2026-01-25 00:59:30.56	5.01	8.50	-40.0	-52.3	3.8	1.49e+00	0	62	104	0	51	14972
2026-01-25 00:59:31.57	4.93	8.58	-40.0	-52.4	3.8	1.49e+00	0	62	104	0	51	15057
2026-01-25 00:59:32.58	4.84	8.65	-39.9	-52.3	3.8	1.49e+00	0	62	104	0	51	14902
2026-01-25 00:59:33.59	4.76	8.72	-40.0	-52.4	3.8	1.49e+00	0	62	104	0	51	15056
2026-01-25 00:59:34.60	4.68	8.79	-40.0	-52.3	3.8	1.49e+00	0	62	104	0	51	14932
2026-01-25 00:59:35.61	4.60	8.87	-40.0	-52.4	3.8	1.49e+00	0	62	104	0	51	15078
2026-01-25 00:59:36.62	4.51	8.94	-40.0	-52.3	3.8	1.49e+00	0	62	104	0	51	15004
2026-01-25 00:59:37.63	4.43	9.01	-40.0	-52.4	3.8	1.49e+00	0	62	104	0	51	15092
2026-01-25 00:59:38.64	4.34	9.09	-40.0	-52.3	3.8	1.49e+00	0	62	104	0	51	14963
2026-01-25 00:59:39.65	4.26	9.16	-40.1	-52.4	3.8	1.49e+00	0	62	104	0	51	15142
2026-01-25 00:59:40.66	4.17	9.24	-40.0	-52.3	3.8	1.49e+00	0	62	104	0	51	14975
2026-01-25 00:59:41.67	4.09	9.31	-40.1	-52.4	3.8	1.49e+00	0	62	104	0	51	15160
2026-01-25 00:59:42.68	4.00	9.38	-40.0	-52.3	3.8	1.49e+00	0	62	104	0	51	15031
2026-01-25 00:59:43.69	3.92	9.46	-40.2	-52.5	3.8	1.49e+00	0	62	104	0	51	15268
2026-01-25 00:59:44.70	3.83	9.53	-40.0	-52.3	3.8	1.49e+00	0	62	104	0	51	14960
2026-01-25 00:59:45.71	3.74	9.61	-40.1	-52.4	3.8	1.49e+00	0	62	104	0	51	15149
2026-01-25 00:59:46.72	3.65	9.68	-40.0	-52.4	3.8	1.49e+00	0	62	104	0	51	15090
2026-01-25 00:59:47.73	3.57	9.76	-40.2	-52.6	3.8	1.49e+00	0	62	104	0	51	15438
2026-01-25 00:59:48.74	3.48	9.83	-40.0	-52.3	3.8	1.49e+00	0	62	104	0	51	14946
2026-01-25 00:59:49.75	3.39	9.91	-40.1	-52.4	3.8	1.49e+00	0	62	104	0	51	15188
2026-01-25 00:59:50.76	3.30	9.98	-40.1	-52.4	3.8	1.49e+00	0	62	104	0	51	15140
2026-01-25 00:59:51.77	3.21	10.06	-40.3	-52.6	3.8	1.49e+00	0	62	104	0	51	15572
2026-01-25 00:59:52.78	3.12	10.13	-39.9	-52.3	3.8	1.49e+00	0	62	104	0	51	14931
2026-01-25 00:59:53.78	3.03	10.21	-40.2	-52.5	3.8	1.49e+00	0	62	104	0	51	15244
2026-01-25 00:59:54.79	2.93	10.29	-40.1	-52.4	3.8	1.49e+00	0	62	104	0	51	15171
2026-01-25 00:59:55.80	2.84	10.36	-40.4	-52.7	3.8	1.49e+00	0	62	104	0	51	15756
2026-01-25 00:59:56.81	2.75	10.44	-40.0	-52.3	3.8	1.49e+00	0	62	104	0	51	14974
2026-01-25 00:59:57.82	2.66	10.52	-40.2	-52.5	3.8	1.49e+00	0	62	104	0	51	15338
2026-01-25 00:59:58.83	2.56	10.59	-40.1	-52.4	3.8	1.49e+00	0	62	104	0	51	15200
2026-01-25 00:59:59.84	2.47	10.67	-40.5	-52.9	3.8	1.49e+00	0	62	104	0	51	15961
2026-01-25 01:00:00.85	2.37	10.75	-40.0	-52.3	3.8	1.49e+00	0	62	104	0	51	15000
2026-01-25 01:00:01.86	2.28	10.82	-39.9	-52.3	3.8	1.49e+00	0	62	104	0	51	14915
2026-01-25 01:00:02.87	2.18	10.90	-39.9	-52.2	3.8	1.49e+00	0	62	104	0	51	14868
2026-01-25 01:00:03.88	2.08	10.98	-39.9	-52.2	3.8	1.49e+00	0	62	104	0	51	14817
2026-01-25 01:00:04.89	1.99	11.06	-39.9	-52.2	3.8	1.49e+00	0	62	104	0	51	14787
2026-01-25 01:00:05.90	1.89	11.13	-39.9	-52.2	3.8	1.49e+00	0	62	104	0	51	14851
2026-01-25 01:00:06.91	1.79	11.21	-40.7	-53.0	3.8	1.49e+00	0	62	104	0	51	16304
2026-01-25 01:00:07.92	1.69	11.29	-40.1	-52.5	3.8	1.49e+00	0	62	104	0	51	15226
2026-01-25 01:00:08.93	1.59	11.37	-40.0	-52.3	3.8	1.49e+00	0	62	104	0	51	15010
2026-01-25 01:00:09.94	1.49	11.45	-40.0	-52.4	3.8	1.49e+00	0	62	104	0	51	15143
2026-01-25 01:00:10.95	1.39	11.53	-40.0	-52.3	3.8	1.49e+00	0	62	104	0	51	15007
2026-01-25 01:00:11.96	1.29	11.60	-40.0	-52.3	3.8	1.49e+00	0	62	104	0	51	14977
2026-01-25 01:00:12.97	1.19	11.68	-40.2	-52.5	3.8	1.49e+00	0	62	104	0	51	15328
2026-01-25 01:00:13.98	1.09	11.76	-40.1	-52.4	3.8	1.49e+00	0	62	104	0	51	15176
2026-01-25 01:00:14.99	0.99	11.84	-40.8	-53.2	3.8	1.49e+00	0	62	104	0	52	15649
2026-01-25 01:00:15.99	0.89	11.92	-40.4	-52.7	3.8	1.49e+00	0	62	104	0	52	14774
2026-01-25 01:00:17.00	0.78	12.00	-40.0	-52.4	3.8	1.49e+00	0	62	104	0	52	14225
2026-01-25 01:00:18.01	0.68	12.08	-40.2	-52.5	3.8	1.49e+00	0	62	104	0	52	14467
2026-01-25 01:00:19.02	0.57	12.16	-40.2	-52.4	3.8	1.49e+00	0	62	104	0	52	14343
2026-01-25 01:00:20.03	0.47	12.24	-40.2	-52.4	3.8	1.49e+00	0	62	104	0	52	14273
2026-01-25 01:00:21.04	0.36	12.32	-40.4	-52.5	3.8	1.49e+00	0	62	104	0	52	14435
2026-01-25 01:00:22.05	0.25	12.40	-40.2	-52.3	3.8	1.49e+00	0	62	104	0	52	14178
2026-01-25 01:00:23.06	0.15	12.48	-41.5	-53.1	3.8	1.49e+00	0	62	104	0	53	14591
2026-01-25 01:00:24.07	0.04	12.56	-40.5	-52.8	3.8	1.49e+00	0	62	104	0	53	14099
2026-01-25 01:00:25.08	359.93	12.65	-40.2	-52.5	3.8	1.49e+00	0	62	104	0	52	14430
2026-01-25 01:00:26.10	359.82	12.73	-40.4	-52.5	3.8	1.49e+00	0	62	104	0	52	14480
2026-01-25 01:00:27.11	359.71	12.81	-40.3	-52.3	3.8	1.49e+00	0	62	104	0	52	14179
2026-01-25 01:00:28.11	359.60	12.89	-40.3	-52.3	3.8	1.49e+00	0	62	104	0	52	14179
2026-01-25 01:00:29.13	359.49	12.97	-40.6	-52.6	3.8	1.49e+00	0	62	104	0	52	14688
2026-01-25 01:00:30.14	359.38	13.05	-40.4	-52.5	3.8	1.49e+00	0	62	104	0	52	14436
2026-01-25 01:00:31.15	359.27	13.14	-42.1	-51.5	4.1	1.47e+00	0	62	104	0	54	11466
2026-01-25 01:00:32.16	359.15	13.22	-41.9	-49.1	5.1	9.86e-01	2	62	104	0	54	8736
2026-01-25 01:00:33.17	359.04	13.30	-41.8	-53.8	3.8	1.49e+00	0	62	104	0	54	15031
2026-01-25 01:00:34.18	358.93	13.38	-41.6	-48.0	5.9	3.88e-01	0	62	0	0	54	7656
2026-01-25 01:00:35.19	358.81	13.47	-41.1	-46.3	7.1	2.15e-01	0	62	0	3145728	54	6318
2026-01-25 01:00:36.19	358.70	13.55	-40.4	-44.7	8.8	4.97e-02	0	62	0	6291456	52	5876
2026-01-25 01:00:37.20	358.58	13.63	-40.0	-43.7	9.8	1.45e-02	0	62	0	9437184	51	5568
2026-01-25 01:00:38.21	358.46	13.71	-39.5	-42.7	10.9	3.90e-03	0	62	0	12582912	51	4954
2026-01-25 01:00:39.22	358.35	13.80	-39.1	-42.0	11.6	9.80e-04	0	62	0	15728640	50	4863
2026-01-25 01:00:40.24	358.23	13.88	-38.8	-41.6	12.0	2.90e-04	0	62	0	18874368	49	4897
2026-01-25 01:00:41.25	358.11	13.97	-38.8	-41.6	12.0	3.07e-04	0	62	0	22020096	49	4900
2026-01-25 01:00:42.26	357.99	14.05	-39.2	-42.3	11.3	1.17e-03	0	62	0	25165824	49	5316
2026-01-25 01:00:43.27	357.87	14.13	-39.4	-42.7	10.9	2.12e-03	0	62	0	28311552	49	5532
2026-01-25 01:00:44.28	357.75	14.22	-39.4	-42.6	11.0	2.15e-03	0	62	0	31457280	49	5495
2026-01-25 01:00:45.29	357.62	14.30	-39.1	-42.1	11.5	1.05e-03	0	62	0	34603008	49	5171
2026-01-25 01:00:46.30	357.50	14.39	-38.7	-41.5	12.1	3.39e-04	0	62	0	37748736	49	4835
2026-01-25 01:00:47.31	357.38	14.47	-38.9	-41.8	11.7	3.84e-04	0	62	0	40894464	49	5034
2026-01-25 01:00:48.32	357.26	14.56	-39.3	-42.4	11.2	1.33e-03	0	62	0	44040192	49	5359
2026-01-25 01:00:49.33	357.13	14.64	-39.1	-42.0	11.6	1.05e-03	0	62	0	47185920	49	5115
2026-01-25 01:00:50.34	357.01	14.73	-39.0	-42.0	11.6	6.81e-04	0	62	0	50331648	49	5127
2026-01-25 01:00:51.35	356.88	14.81	-39.1	-42.1	11.5	1.05e-03	0	62	0	53477376	49	5200
2026-01-25 01:00:52.36	356.75	14.90	-39.1	-42.2	11.4	9.89e-04	0	62	0	56623104	49	5243
2026-01-25 01:00:53.37	356.62	14.98	-39.4	-42.7	10.8	2.17e-03	0	62	0	59768832	49	5533
2026-01-25 01:00:54.38	356.50	15.07	-39.6	-43.2	10.2	4.67e-03	0	62	0	62914560	49	5879
2026-01-25 01:00:55.39	356.37	15.15	-40.0	-44.1	9.2	1.33e-02	0	62	0	66060288	50	6153
2026-01-25 01:00:56.40	356.24	15.24	-40.3	-45.0	8.2	4.09e-02	0	62	0	69206016	51	6440
2026-01-25 01:00:57.41	356.11	15.33	-40.7	-46.2	6.8	1.22e-01	0	62	0	72351744	51	7438
2026-01-25 01:00:58.41	355.98	15.41	-40.7	-47.0	6.0	2.78e-01	0	62	0	75497472	52	7698
2026-01-25 01:00:59.42	355.84	15.50	-40.9	-48.6	4.9	6.33e-01	0	62	0	78643200	52	9179
2026-01-25 01:01:00.43	355.71	15.59	-41.0	-49.5	4.4	1.21e+00	0	62	104	79691776	52	10270
2026-01-25 01:01:01.44	355.58	15.67	-41.0	-51.3	3.9	1.47e+00	0	62	104	79691776	52	12523
2026-01-25 01:01:02.45	355.44	15.76	-40.9	-52.3	3.8	1.49e+00	0	62	104	79691776	52	14120
2026-01-25 01:01:03.46	355.31	15.85	-41.0	-52.7	3.8	1.49e+00	0	62	104	79691776	52	14766
2026-01-25 01:01:04.47	355.17	15.93	-41.8	-52.8	3.8	1.49e+00	0	62	104	79691776	54	13284
2026-01-25 01:01:05.49	355.03	16.02	-41.2	-52.8	3.8	1.49e+00	0	62	104	79691776	54	13280
2026-01-25 01:01:06.50	354.90	16.11	-40.9	-53.2	3.8	1.49e+00	0	62	104	79691776	53	14784
2026-01-25 01:01:07.51	354.76	16.20	-40.9	-53.0	3.8	1.49e+00	0	62	104	79691776	53	14416
2026-01-25 01:01:08.52	354.62	16.29	-40.8	-53.1	3.8	1.49e+00	0	62	104	79691776	53	14575
2026-01-25 01:01:09.53	354.48	16.37	-40.9	-53.1	3.8	1.49e+00	0	62	104	79691776	53	14671
2026-01-25 01:01:10.54	354.34	16.46	-40.9	-53.1	3.8	1.49e+00	0	62	104	79691776	53	14695
2026-01-25 01:01:11.55	354.19	16.55	-40.7	-53.0	3.8	1.49e+00	0	62	104	79691776	53	14462
2026-01-25 01:01:12.56	354.05	16.64	-40.7	-53.1	3.8	1.49e+00	0	62	104	79691776	53	14565
2026-01-25 01:01:13.57	353.91	16.73	-40.6	-52.9	3.8	1.49e+00	0	62	104	79691776	53	14306
2026-01-25 01:01:14.58	353.76	16.82	-40.6	-52.9	3.8	1.49e+00	0	62	104	79691776	53	14282
2026-01-25 01:01:15.59	353.62	16.90	-40.6	-53.0	3.8	1.49e+00	0	62	104	79691776	53	14378
2026-01-25 01:01:16.60	353.47	16.99	-40.7	-53.0	3.8	1.49e+00	0	62	104	79691776	53	14525
2026-01-25 01:01:17.61	353.32	17.08	-40.6	-52.9	3.8	1.49e+00	0	62	104	79691776	53	14246
2026-01-25 01:01:18.62	353.17	17.17	-40.8	-53.1	3.8	1.49e+00	0	62	104	79691776	53	14579
2026-01-25 01:01:19.63	353.03	17.26	-40.6	-52.9	3.8	1.49e+00	0	62	104	79691776	53	14346
2026-01-25 01:01:20.64	352.88	17.35	-40.7	-53.0	3.8	1.49e+00	0	62	104	79691776	53	14411
2026-01-25 01:01:21.65	352.72	17.44	-40.7	-53.0	3.8	1.49e+00	0	62	104	79691776	53	14532
2026-01-25 01:01:22.66	352.57	17.53	-40.8	-53.1	3.8	1.49e+00	0	62	104	79691776	53	14551
2026-01-25 01:01:23.67	352.42	17.62	-40.8	-53.1	3.8	1.49e+00	0	62	104	79691776	53	14665
2026-01-25 01:01:24.68	352.27	17.71	-40.7	-53.1	3.8	1.49e+00	0	62	104	79691776	53	14548
2026-01-25 01:01:25.69	352.11	17.80	-40.7	-53.0	3.8	1.49e+00	0	62	104	79691776	53	14497
2026-01-25 01:01:26.70	351.96	17.89	-40.7	-53.0	3.8	1.49e+00	0	62	104	79691776	53	14436
2026-01-25 01:01:27.71	351.80	17.98	-40.8	-53.1	3.8	1.49e+00	0	62	104	79691776	53	14687
2026-01-25 01:01:28.72	351.64	18.07	-40.8	-53.1	3.8	1.49e+00	0	62	104	79691776	53	14576
2026-01-25 01:01:29.73	351.48	18.16	-40.7	-53.0	3.8	1.49e+00	0	62	104	79691776	53	14396
2026-01-25 01:01:30.74	351.32	18.25	-40.8	-53.1	3.8	1.49e+00	0	62	104	79691776	53	14606
2026-01-25 01:01:31.75	351.16	18.34	-40.7	-53.0	3.8	1.49e+00	0	62	104	79691776	53	14445
2026-01-25 01:01:32.76	351.00	18.43	-40.9	-53.2	3.8	1.49e+00	0	62	104	79691776	53	14820
2026-01-25 01:01:33.77	350.84	18.52	-40.8	-53.1	3.8	1.49e+00	0	62	104	79691776	53	14624
2026-01-25 01:01:34.78	350.68	18.62	-40.8	-53.1	3.8	1.49e+00	0	62	104	79691776	53	14569
2026-01-25 01:01:35.79	350.51	18.71	-40.7	-53.0	3.8	1.49e+00	0	62	104	79691776	53	14459
2026-01-25 01:01:36.80	350.35	18.80	-41.0	-53.3	3.8	1.49e+00	0	62	104	79691776	53	14976
2026-01-25 01:01:37.80	350.18	18.89	-40.8	-53.0	3.8	1.49e+00	0	62	104	79691776	53	14522
2026-01-25 01:01:38.81	350.02	18.98	-41.0	-53.3	3.8	1.49e+00	0	62	104	79691776	53	15034
2026-01-25 01:01:39.82	349.85	19.07	-40.8	-53.1	3.8	1.49e+00	0	62	104	79691776	53	14651
2026-01-25 01:01:40.83	349.68	19.16	-41.1	-53.5	3.8	1.49e+00	0	62	104	79691776	53	15261
2026-01-25 01:01:41.84	349.51	19.25	-40.8	-53.1	3.8	1.49e+00	0	62	104	79691776	53	14640
2026-01-25 01:01:42.85	349.34	19.35	-41.1	-53.4	3.8	1.49e+00	0	62	104	79691776	53	15127
2026-01-25 01:01:43.86	349.16	19.44	-41.0	-53.2	3.8	1.49e+00	0	62	104	79691776	53	14771
2026-01-25 01:01:44.87	348.99	19.53	-41.2	-53.4	3.8	1.49e+00	0	62	104	79691776	53	15101
2026-01-25 01:01:45.88	348.81	19.62	-41.0	-53.2	3.8	1.49e+00	0	62	104	79691776	53	14727
2026-01-25 01:01:46.89	348.64	19.71	-41.1	-53.5	3.8	1.49e+00	0	62	104	79691776	53	15260
2026-01-25 01:01:47.90	348.46	19.80	-41.1	-53.3	3.8	1.49e+00	0	62	104	79691776	53	14946
2026-01-25 01:01:48.91	348.28	19.90	-41.4	-53.5	3.8	1.49e+00	0	62	104	79691776	53	15265
2026-01-25 01:01:49.92	348.10	19.99	-41.1	-53.3	3.8	1.49e+00	0	62	104	79691776	53	14978
2026-01-25 01:01:50.93	347.92	20.08	-41.2	-53.5	3.8	1.49e+00	0	62	104	79691776	53	15253
2026-01-25 01:01:51.94	347.74	20.17	-41.1	-53.4	3.8	1.49e+00	0	62	104	79691776	53	15141
2026-01-25 01:01:52.95	347.56	20.27	-41.8	-53.2	3.8	1.49e+00	0	62	104	79691776	54	14024
2026-01-25 01:01:53.96	347.38	20.36	-41.1	-53.4	3.8	1.49e+00	0	62	104	79691776	54	14230
2026-01-25 01:01:54.97	347.19	20.45	-41.4	-53.6	3.8	1.49e+00	0	62	104	79691776	54	14553
2026-01-25 01:01:55.98	347.01	20.54	-41.1	-53.3	3.8	1.49e+00	0	62	104	79691776	54	14055
2026-01-25 01:01:56.99	346.82	20.63	-41.8	-51.3	3.9	1.49e+00	0	62	104	79691776	54	11206
2026-01-25 01:01:58.00	346.63	20.73	-41.1	-53.2	3.8	1.49e+00	0	62	104	79691776	54	13956
2026-01-25 01:01:59.01	346.44	20.82	-41.6	-50.6	4.2	1.48e+00	0	62	104	79691776	54	10372
2026-01-25 01:02:00.01	346.26	20.91	-41.8	-50.7	4.2	1.45e+00	0	62	104	79691776	54	10518
2026-01-25 01:02:01.03	346.06	21.00	-41.8	-50.1	4.4	1.45e+00	0	62	104	79691776	54	9799
2026-01-25 01:02:02.04	345.87	21.10	-43.1	-54.3	3.8	1.49e+00	0	62	104	79691776	56	14187
2026-01-25 01:02:03.05	345.68	21.19	-42.4	-51.1	4.0	1.25e+00	0	62	104	79691776	56	9735
2026-01-25 01:02:04.06	345.48	21.28	-41.1	-53.0	3.8	1.49e+00	0	62	104	80740352	52	15275
2026-01-25 01:02:05.07	345.28	21.37	-41.0	-46.1	7.4	1.75e-01	0	62	0	81788928	52	6943
2026-01-25 01:02:06.08	345.09	21.46	-41.2	-49.0	4.8	1.93e-01	0	62	0	84934656	53	9125
2026-01-25 01:02:07.09	344.89	21.56	-39.0	-42.0	11.5	2.51e-03	0	62	0	87031808	50	4858
2026-01-25 01:02:08.09	344.69	21.65	-38.7	-41.4	12.3	2.46e-04	0	62	0	91226112	49	4806
2026-01-25 01:02:09.10	344.49	21.74	-38.6	-41.2	12.5	1.35e-04	0	62	0	94371840	49	4673
2026-01-25 01:02:10.11	344.29	21.83	-38.1	-40.5	13.3	2.36e-05	0	62	0	97517568	48	4573
2026-01-25 01:02:11.12	344.08	21.92	-38.1	-40.5	13.4	1.67e-05	0	62	0	100663296	48	4554
2026-01-25 01:02:12.13	343.88	22.02	-38.3	-40.7	13.1	2.67e-05	0	62	0	103809024	48	4695
2026-01-25 01:02:13.14	343.67	22.11	-38.4	-40.8	13.1	2.13e-05	0	62	0	106954752	48	4716
2026-01-25 01:02:14.15	343.47	22.20	-38.5	-41.0	13.0	3.73e-05	0	62	0	110100480	48	4831
2026-01-25 01:02:15.16	343.26	22.29	-38.5	-41.0	13.0	3.73e-05	0	62	0	113246208	48	4833
2026-01-25 01:02:16.17	343.05	22.38	-38.6	-41.0	13.1	2.67e-05	0	62	0	116391936	48	4852
2026-01-25 01:02:17.18	342.84	22.47	-38.7	-41.1	13.2	2.59e-05	0	62	0	119537664	48	4885
2026-01-25 01:02:18.19	342.63	22.57	-38.7	-41.1	13.2	2.13e-05	0	62	0	122683392	48	4887
2026-01-25 01:02:19.20	342.41	22.66	-38.9	-41.4	13.1	2.82e-05	0	62	0	125829120	48	5053
2026-01-25 01:02:20.21	342.20	22.75	-39.0	-41.5	13.1	2.59e-05	0	62	0	128974848	48	5107
2026-01-25 01:02:21.22	341.98	22.84	-39.0	-41.3	13.4	2.67e-05	0	62	0	132120576	48	5014
2026-01-25 01:02:22.23	341.76	22.93	-38.9	-41.2	13.6	1.14e-05	0	62	0	135266304	48	4945
2026-01-25 01:02:23.24	341.55	23.02	-38.9	-41.1	13.8	3.80e-06	0	62	0	138412032	48	4889
2026-01-25 01:02:24.25	341.33	23.11	-39.1	-41.3	13.7	4.50e-06	0	62	0	141557760	48	5031
2026-01-25 01:02:25.26	341.10	23.20	-39.3	-41.7	13.5	9.90e-06	0	62	0	144703488	49	4932
2026-01-25 01:02:26.27	340.88	23.29	-39.3	-41.6	13.6	1.06e-05	0	62	0	147849216	49	4915
2026-01-25 01:02:27.28	340.66	23.38	-39.2	-41.4	13.8	9.10e-06	0	62	0	150994944	49	4806
2026-01-25 01:02:28.29	340.43	23.47	-39.2	-41.3	13.9	3.80e-06	0	62	0	154140672	49	4756
2026-01-25 01:02:29.30	340.21	23.56	-38.9	-41.0	14.3	1.50e-06	0	62	0	157286400	49	4588
2026-01-25 01:02:30.31	339.98	23.65	-38.8	-40.9	14.4	7.00e-07	0	62	0	160432128	49	4524
2026-01-25 01:02:31.32	339.75	23.74	-38.9	-40.9	14.4	1.50e-06	0	62	0	163577856	49	4542
2026-01-25 01:02:32.33	339.52	23.83	-38.9	-40.9	14.4	1.50e-06	0	62	0	166723584	49	4532
2026-01-25 01:02:33.34	339.29	23.92	-38.9	-40.9	14.5	0.00e+00	0	62	0	169869312	49	4536
2026-01-25 01:02:34.35	339.05	24.01	-39.0	-41.1	14.3	0.00e+00	0	62	0	173015040	49	4619
2026-01-25 01:02:35.36	338.82	24.10	-39.0	-41.1	14.3	0.00e+00	0	62	0	176160768	49	4649
2026-01-25 01:02:36.37	338.58	24.19	-39.0	-41.1	14.4	7.00e-07	0	62	0	179306496	49	4620
2026-01-25 01:02:37.38	338.35	24.28	-38.9	-41.0	14.5	0.00e+00	0	62	0	182452224	49	4565
2026-01-25 01:02:38.39	338.11	24.37	-39.0	-41.0	14.5	7.00e-07	0	62	0	185597952	49	4574
2026-01-25 01:02:39.40	337.87	24.45	-39.1	-41.1	14.4	0.00e+00	0	62	0	188743680	49	4639
2026-01-25 01:02:40.41	337.63	24.54	-39.1	-41.2	14.4	2.20e-06	0	62	0	191889408	49	4654
2026-01-25 01:02:41.42	337.39	24.63	-39.2	-41.3	14.3	7.00e-07	0	62	0	195035136	49	4736
2026-01-25 01:02:42.43	337.14	24.72	-39.3	-41.4	14.2	1.50e-06	0	62	0	198180864	49	4782
2026-01-25 01:02:43.44	336.90	24.80	-39.3	-41.5	14.2	1.50e-06	0	62	0	201326592	49	4829
2026-01-25 01:02:44.44	336.65	24.89	-39.4	-41.6	14.0	4.50e-06	0	62	0	204472320	49	4911
2026-01-25 01:02:45.45	336.40	24.98	-39.4	-41.6	14.1	3.00e-06	0	62	0	207618048	49	4909
2026-01-25 01:02:46.46	336.16	25.06	-39.5	-41.6	14.0	1.50e-06	0	62	0	210763776	49	4926
2026-01-25 01:02:47.47	335.90	25.15	-39.5	-41.6	14.0	2.20e-06	0	62	0	213909504	49	4925
2026-01-25 01:02:48.48	335.65	25.23	-39.5	-41.6	14.1	0.00e+00	0	62	0	217055232	49	4914
2026-01-25 01:02:49.49	335.40	25.32	-39.4	-41.5	14.1	7.00e-07	0	62	0	220200960	49	4866
2026-01-25 01:02:50.50	335.14	25.40	-39.4	-41.5	14.1	2.20e-06	0	62	0	223346688	49	4868
2026-01-25 01:02:51.51	334.89	25.49	-39.5	-41.7	14.1	3.00e-06	0	62	0	226492416	49	4928
2026-01-25 01:02:52.52	334.63	25.57	-39.5	-41.6	14.1	3.80e-06	0	62	0	229638144	49	4916
2026-01-25 01:02:53.53	334.37	25.65	-39.4	-41.5	14.3	7.00e-07	0	62	0	232783872	49	4831
2026-01-25 01:02:54.54	334.11	25.74	-39.3	-41.4	14.3	0.00e+00	0	62	0	235929600	49	4808
2026-01-25 01:02:55.55	333.85	25.82	-39.3	-41.4	14.3	0.00e+00	0	62	0	239075328	49	4795
2026-01-25 01:02:56.56	333.59	25.90	-39.4	-41.4	14.3	7.00e-07	0	62	0	242221056	49	4812
2026-01-25 01:02:57.57	333.32	25.98	-39.5	-41.7	14.1	3.00e-06	0	62	0	245366784	49	4932
2026-01-25 01:02:58.58	333.05	26.07	-39.5	-41.7	14.1	2.20e-06	0	62	0	248512512	49	4976
2026-01-25 01:02:59.59	332.79	26.15	-39.5	-41.7	14.0	7.00e-07	0	62	0	251658240	49	4949
2026-01-25 01:03:00.60	332.52	26.23	-39.5	-41.7	14.0	2.20e-06	0	62	0	254803968	49	4966
2026-01-25 01:03:01.61	332.25	26.31	-39.5	-41.6	14.1	3.00e-06	0	62	0	257949696	49	4917
2026-01-25 01:03:02.61	331.98	26.39	-39.4	-41.5	14.2	7.00e-07	0	62	0	261095424	49	4868
2026-01-25 01:03:03.62	331.71	26.47	-39.4	-41.5	14.2	1.50e-06	0	62	0	264241152	49	4835
2026-01-25 01:03:04.63	331.43	26.54	-39.4	-41.6	14.2	0.00e+00	0	62	0	267386880	49	4877
2026-01-25 01:03:05.64	331.16	26.62	-39.6	-41.8	13.9	0.00e+00	0	62	0	270532608	49	5011
2026-01-25 01:03:06.65	330.88	26.70	-39.6	-41.8	14.0	3.80e-06	0	62	0	273678336	49	5037
2026-01-25 01:03:07.66	330.60	26.78	-39.6	-41.8	14.0	5.30e-06	0	62	0	276824064	49	5018
2026-01-25 01:03:08.67	330.32	26.85	-39.6	-41.7	14.1	1.50e-06	0	62	0	279969792	49	4982
2026-01-25 01:03:09.68	330.04	26.93	-39.6	-41.7	14.1	0.00e+00	0	62	0	283115520	49	4955
2026-01-25 01:03:10.69	329.76	27.01	-39.6	-41.8	14.0	2.20e-06	0	62	0	286261248	49	5016
2026-01-25 01:03:11.71	329.47	27.08	-39.7	-41.9	13.9	1.50e-06	0	62	0	289406976	49	5043
2026-01-25 01:03:12.72	329.19	27.16	-39.6	-41.8	14.1	4.50e-06	0	62	0	292552704	49	4986
2026-01-25 01:03:13.73	328.90	27.23	-39.4	-41.5	14.4	1.50e-06	0	62	0	295698432	49	4828
2026-01-25 01:03:14.74	328.61	27.30	-39.4	-41.5	14.4	0.00e+00	0	62	0	298844160	49	4816
2026-01-25 01:03:15.75	328.32	27.38	-39.4	-41.4	14.4	0.00e+00	0	62	0	301989888	49	4788
2026-01-25 01:03:16.76	328.03	27.45	-39.4	-41.4	14.5	7.00e-07	0	62	0	305135616	49	4793
2026-01-25 01:03:17.77	327.74	27.52	-39.4	-41.4	14.4	1.50e-06	0	62	0	308281344	49	4812
2026-01-25 01:03:18.78	327.45	27.59	-39.4	-41.5	14.4	0.00e+00	0	62	0	311427072	49	4825
2026-01-25 01:03:19.79	327.15	27.66	-39.5	-41.6	14.3	7.00e-07	0	62	0	314572800	49	4892
2026-01-25 01:03:20.80	326.86	27.73	-39.6	-41.7	14.1	2.20e-06	0	62	0	317718528	49	4951
2026-01-25 01:03:21.81	326.56	27.80	-39.5	-41.6	14.2	0.00e+00	0	62	0	320864256	49	4926
2026-01-25 01:03:22.82	326.26	27.87	-39.7	-41.9	14.0	3.00e-06	0	62	0	324009984	49	5043
2026-01-25 01:03:23.83	325.96	27.93	-39.6	-41.7	14.1	2.20e-06	0	62	0	327155712	49	4955
2026-01-25 01:03:24.84	325.66	28.00	-39.6	-41.7	14.1	3.00e-06	0	62	0	330301440	49	4964
2026-01-25 01:03:25.85	325.36	28.07	-39.6	-41.8	14.1	3.00e-06	0	62	0	333447168	49	5010
2026-01-25 01:03:26.86	325.06	28.13	-39.6	-41.8	14.1	7.00e-07	0	62	0	336592896	49	4990
2026-01-25 01:03:27.87	324.75	28.20	-39.7	-41.9	14.0	2.20e-06	0	62	0	339738624	49	5057
2026-01-25 01:03:28.88	324.44	28.26	-39.8	-42.0	13.9	3.00e-06	0	62	0	342884352	50	4834
2026-01-25 01:03:29.89	324.14	28.32	-39.7	-41.9	14.0	3.00e-06	0	62	0	346030080	50	4760
2026-01-25 01:03:30.90	323.83	28.38	-39.4	-41.5	14.4	2.20e-06	0	62	0	349175808	50	4572
2026-01-25 01:03:31.91	323.52	28.45	-39.4	-41.5	14.4	7.00e-07	0	62	0	352321536	50	4575
2026-01-25 01:03:32.92	323.21	28.51	-39.4	-41.5	14.4	0.00e+00	0	62	0	355467264	50	4580
2026-01-25 01:03:33.93	322.90	28.57	-39.4	-41.5	14.4	1.50e-06	0	62	0	358612992	50	4550
2026-01-25 01:03:34.94	322.58	28.63	-39.5	-41.6	14.3	7.00e-07	0	62	0	361758720	50	4623
2026-01-25 01:03:35.95	322.27	28.68	-39.6	-41.8	14.1	7.00e-07	0	62	0	364904448	50	4726
2026-01-25 01:03:36.96	321.95	28.74	-39.6	-41.8	14.1	3.00e-06	0	62	0	368050176	50	4733
2026-01-25 01:03:37.97	321.64	28.80	-39.6	-41.8	14.1	2.20e-06	0	62	0	371195904	50	4709
2026-01-25 01:03:38.98	321.32	28.85	-39.5	-41.7	14.2	7.00e-07	0	62	0	374341632	50	4654
2026-01-25 01:03:39.99	321.00	28.91	-39.7	-41.9	14.0	3.00e-06	0	62	0	377487360	50	4772
2026-01-25 01:03:41.00	320.68	28.96	-39.8	-42.1	13.8	3.00e-06	0	62	0	380633088	50	4876
2026-01-25 01:03:42.01	320.36	29.01	-39.9	-42.2	13.7	1.06e-05	0	62	0	383778816	50	4954
2026-01-25 01:03:43.02	320.04	29.07	-39.9	-42.2	13.7	3.80e-06	0	62	0	386924544	50	4930
2026-01-25 01:03:44.03	319.71	29.12	-40.0	-42.3	13.6	1.44e-05	0	62	0	390070272	50	4996
2026-01-25 01:03:45.04	319.39	29.17	-39.9	-42.1	13.7	5.30e-06	0	62	0	393216000	50	4918
2026-01-25 01:03:46.05	319.07	29.22	-39.8	-41.9	14.0	5.30e-06	0	62	0	397410304	50	4805
2026-01-25 01:03:47.06	318.74	29.26	-39.8	-41.9	13.9	8.30e-06	0	62	0	400556032	50	4809
2026-01-25 01:03:48.07	318.41	29.31	-39.7	-41.9	13.9	1.50e-06	0	62	0	402653184	50	4797
2026-01-25 01:03:49.08	318.08	29.36	-39.9	-42.1	13.8	3.00e-06	0	62	0	405798912	50	4896
2026-01-25 01:03:50.09	317.75	29.40	-39.9	-42.2	13.6	7.60e-06	0	62	0	408944640	50	4970
2026-01-25 01:03:51.10	317.42	29.45	-40.0	-42.3	13.6	8.30e-06	0	62	0	413138944	50	4985
2026-01-25 01:03:52.11	317.09	29.49	-40.0	-42.3	13.6	3.80e-06	0	62	0	416284672	50	5001
2026-01-25 01:03:53.11	316.77	29.53	-40.0	-42.4	13.5	1.22e-05	0	62	0	419430400	50	5042
2026-01-25 01:03:54.12	316.43	29.57	-40.0	-42.3	13.5	8.30e-06	0	62	0	422576128	50	5021
2026-01-25 01:03:55.13	316.10	29.61	-40.0	-42.3	13.6	1.29e-05	0	62	0	424673280	50	5004
2026-01-25 01:03:56.14	315.77	29.65	-40.0	-42.3	13.5	9.90e-06	0	62	0	428867584	50	5001
2026-01-25 01:03:57.15	315.43	29.69	-40.0	-42.3	13.5	9.10e-06	0	62	0	432013312	50	4998
2026-01-25 01:03:58.16	315.09	29.73	-39.8	-42.0	13.8	3.00e-06	0	62	0	435159040	50	4855
2026-01-25 01:03:59.17	314.76	29.76	-39.8	-42.0	13.8	9.10e-06	0	62	0	438304768	50	4835
2026-01-25 01:04:00.18	314.42	29.80	-39.8	-42.1	13.7	5.30e-06	0	62	0	441450496	50	4888
2026-01-25 01:04:01.19	314.08	29.83	-40.0	-42.3	13.6	4.50e-06	0	62	0	444596224	50	4985
2026-01-25 01:04:02.20	313.74	29.87	-39.9	-42.2	13.7	7.60e-06	0	62	0	447741952	50	4950
2026-01-25 01:04:03.21	313.40	29.90	-40.0	-42.3	13.6	9.90e-06	0	62	0	450887680	50	5005
2026-01-25 01:04:04.22	313.06	29.93	-39.9	-42.2	13.7	9.10e-06	0	62	0	454033408	50	4937
2026-01-25 01:04:05.23	312.72	29.96	-39.8	-42.0	13.8	2.20e-06	0	62	0	457179136	50	4860
2026-01-25 01:04:06.24	312.38	29.99	-39.9	-42.1	13.8	6.80e-06	0	62	0	460324864	50	4891
2026-01-25 01:04:07.25	312.04	30.01	-39.7	-41.9	14.0	1.50e-06	0	62	0	463470592	50	4761
2026-01-25 01:04:08.26	311.70	30.04	-39.7	-41.9	14.0	2.20e-06	0	62	0	466616320	50	4806
2026-01-25 01:04:09.27	311.35	30.07	-39.8	-42.0	13.8	7.00e-07	0	62	0	469762048	50	4859
2026-01-25 01:04:10.28	311.01	30.09	-39.8	-42.0	13.9	5.30e-06	0	62	0	472907776	50	4844
2026-01-25 01:04:11.29	310.66	30.11	-39.7	-41.9	13.9	3.80e-06	0	62	0	476053504	50	4807
2026-01-25 01:04:12.30	310.32	30.13	-39.6	-41.8	14.1	1.50e-06	0	62	0	479199232	50	4708
2026-01-25 01:04:13.31	309.97	30.15	-39.7	-41.8	14.0	2.20e-06	0	62	0	482344960	50	4734
2026-01-25 01:04:14.32	309.63	30.17	-39.7	-41.9	13.9	5.30e-06	0	62	0	485490688	50	4790
2026-01-25 01:04:15.33	309.28	30.19	-39.8	-42.1	13.7	6.10e-06	0	62	0	488636416	50	4892
2026-01-25 01:04:16.34	308.94	30.21	-39.8	-42.1	13.8	6.10e-06	0	62	0	491782144	50	4877
2026-01-25 01:04:17.35	308.59	30.23	-39.6	-41.8	14.1	2.20e-06	0	62	0	494927872	50	4714
2026-01-25 01:04:18.36	308.24	30.24	-39.6	-41.7	14.1	7.00e-07	0	62	0	498073600	50	4695
2026-01-25 01:04:19.37	307.89	30.25	-39.6	-41.7	14.1	2.20e-06	0	62	0	501219328	50	4687
2026-01-25 01:04:20.38	307.55	30.27	-39.7	-41.8	14.0	5.30e-06	0	62	0	504365056	50	4755
2026-01-25 01:04:21.39	307.20	30.28	-39.7	-41.9	14.0	2.20e-06	0	62	0	507510784	50	4778
2026-01-25 01:04:22.40	306.85	30.29	-39.8	-42.0	13.9	3.80e-06	0	62	0	510656512	50	4838
2026-01-25 01:04:23.41	306.50	30.30	-39.8	-42.0	13.9	3.00e-06	0	62	0	513802240	50	4851
2026-01-25 01:04:24.42	306.15	30.30	-39.7	-41.8	14.1	1.50e-06	0	62	0	516947968	50	4736
2026-01-25 01:04:25.43	305.80	30.31	-39.6	-41.7	14.2	2.20e-06	0	62	0	520093696	50	4675
2026-01-25 01:04:26.44	305.45	30.32	-39.6	-41.7	14.2	7.00e-07	0	62	0	523239424	50	4669
2026-01-25 01:04:27.45	305.10	30.32	-39.5	-41.6	14.2	2.20e-06	0	62	0	526385152	50	4644
2026-01-25 01:04:28.46	304.76	30.32	-39.4	-41.5	14.4	0.00e+00	0	62	0	529530880	50	4583
2026-01-25 01:04:29.47	304.41	30.32	-39.4	-41.5	14.4	7.00e-07	0	62	0	532676608	50	4556
2026-01-25 01:04:30.48	304.06	30.32	-39.4	-41.5	14.4	2.20e-06	0	62	0	535822336	50	4559
2026-01-25 01:04:31.49	303.71	30.32	-39.4	-41.4	14.5	7.00e-07	0	62	0	538968064	50	4519
2026-01-25 01:04:32.50	303.36	30.32	-39.2	-41.2	14.7	0.00e+00	0	62	0	542113792	50	4418
2026-01-25 01:04:33.51	303.01	30.32	-39.2	-41.1	14.7	7.00e-07	0	62	0	545259520	50	4379
2026-01-25 01:04:34.52	302.66	30.31	-39.1	-41.1	14.7	0.00e+00	0	62	0	548405248	50	4376
2026-01-25 01:04:35.53	302.31	30.31	-39.2	-41.2	14.6	0.00e+00	0	62	0	551550976	50	4404
2026-01-25 01:04:36.54	301.96	30.30	-39.3	-41.3	14.6	0.00e+00	0	62	0	554696704	50	4463
2026-01-25 01:04:37.55	301.61	30.29	-39.2	-41.2	14.6	7.00e-07	0	62	0	557842432	50	4437
2026-01-25 01:04:38.56	301.26	30.28	-39.3	-41.3	14.6	0.00e+00	0	62	0	560988160	50	4464
2026-01-25 01:04:39.57	300.92	30.27	-39.3	-41.3	14.5	0.00e+00	0	62	0	564133888	50	4480
2026-01-25 01:04:40.58	300.57	30.26	-39.4	-41.4	14.4	1.50e-06	0	62	0	567279616	50	4538
2026-01-25 01:04:41.59	300.22	30.25	-39.5	-41.6	14.3	0.00e+00	0	62	0	570425344	50	4613
2026-01-25 01:04:42.60	299.87	30.24	-39.5	-41.6	14.2	7.00e-07	0	62	0	573571072	50	4639
2026-01-25 01:04:43.61	299.52	30.22	-39.6	-41.7	14.2	4.50e-06	0	62	0	576716800	50	4689
2026-01-25 01:04:44.62	299.18	30.21	-39.6	-41.8	14.1	2.20e-06	0	62	0	579862528	50	4710
2026-01-25 01:04:45.63	298.83	30.19	-39.6	-41.7	14.2	7.00e-07	0	62	0	583008256	50	4684
2026-01-25 01:04:46.64	298.48	30.17	-39.7	-41.8	14.0	7.00e-07	0	62	0	586153984	50	4756
2026-01-25 01:04:47.65	298.14	30.15	-39.9	-42.1	13.7	9.10e-06	0	62	0	589299712	50	4913
2026-01-25 01:04:48.66	297.79	30.13	-40.1	-42.4	13.4	8.30e-06	0	62	0	592445440	50	5074
2026-01-25 01:04:49.66	297.45	30.11	-40.0	-42.3	13.5	7.60e-06	0	62	0	595591168	50	5038
2026-01-25 01:04:50.67	297.11	30.08	-40.1	-42.4	13.4	1.06e-05	0	62	0	598736896	50	5065
2026-01-25 01:04:51.68	296.76	30.06	-39.9	-42.2	13.6	1.14e-05	0	62	0	601882624	50	4949
2026-01-25 01:04:52.69	296.42	30.03	-39.8	-42.0	13.8	7.60e-06	0	62	0	605028352	50	4868
2026-01-25 01:04:53.70	296.08	30.01	-39.8	-42.0	13.9	7.00e-07	0	62	0	608174080	50	4824
2026-01-25 01:04:54.71	295.73	29.98	-39.7	-41.9	14.0	7.00e-07	0	62	0	611319808	50	4761
2026-01-25 01:04:55.72	295.39	29.95	-39.6	-41.8	14.1	3.80e-06	0	62	0	614465536	50	4714
2026-01-25 01:04:56.73	295.05	29.92	-39.5	-41.7	14.2	1.50e-06	0	62	0	617611264	50	4659
2026-01-25 01:04:57.74	294.71	29.89	-39.6	-41.8	14.1	2.20e-06	0	62	0	620756992	50	4713
2026-01-25 01:04:58.75	294.37	29.86	-39.6	-41.7	14.2	7.00e-07	0	62	0	623902720	50	4689
2026-01-25 01:04:59.76	294.03	29.83	-39.6	-41.7	14.2	7.00e-07	0	62	0	627048448	50	4658
2026-01-25 01:05:00.77	293.69	29.79	-39.6	-41.7	14.2	2.20e-06	0	62	0	630194176	50	4667
2026-01-25 01:05:01.78	293.35	29.76	-39.6	-41.7	14.2	7.00e-07	0	62	0	633339904	50	4683
2026-01-25 01:05:02.79	293.02	29.72	-39.6	-41.8	14.1	1.50e-06	0	62	0	636485632	50	4720
2026-01-25 01:05:03.80	292.68	29.68	-39.6	-41.8	14.1	3.00e-06	0	62	0	639631360	50	4727
2026-01-25 01:05:04.81	292.34	29.64	-39.6	-41.8	14.1	4.50e-06	0	62	0	642777088	50	4720
2026-01-25 01:05:05.82	292.01	29.60	-39.6	-41.7	14.1	1.50e-06	0	62	0	645922816	50	4700
2026-01-25 01:05:06.83	291.68	29.56	-39.6	-41.8	14.1	3.80e-06	0	62	0	649068544	50	4709
2026-01-25 01:05:07.84	291.34	29.52	-39.5	-41.6	14.2	7.00e-07	0	62	0	652214272	50	4647
2026-01-25 01:05:08.85	291.01	29.48	-39.5	-41.6	14.2	1.50e-06	0	62	0	655360000	50	4650
2026-01-25 01:05:09.86	290.68	29.44	-39.5	-41.7	14.2	1.50e-06	0	62	0	658505728	50	4661
2026-01-25 01:05:10.87	290.35	29.39	-39.6	-41.7	14.1	3.00e-06	0	62	0	661651456	50	4700
2026-01-25 01:05:11.88	290.02	29.35	-39.6	-41.7	14.2	1.50e-06	0	62	0	664797184	50	4670
2026-01-25 01:05:12.89	289.69	29.30	-39.5	-41.6	14.2	1.50e-06	0	62	0	667942912	50	4633
2026-01-25 01:05:13.90	289.36	29.25	-39.5	-41.6	14.3	1.50e-06	0	62	0	671088640	50	4607
2026-01-25 01:05:14.91	289.04	29.20	-39.5	-41.6	14.3	7.00e-07	0	62	0	674234368	50	4611
2026-01-25 01:05:15.91	288.71	29.15	-39.5	-41.6	14.3	1.50e-06	0	62	0	677380096	50	4622
2026-01-25 01:05:16.92	288.39	29.10	-39.6	-41.8	14.1	1.50e-06	0	62	0	680525824	50	4707
2026-01-25 01:05:17.93	288.07	29.05	-39.7	-41.9	13.9	1.50e-06	0	62	0	683671552	50	4804
2026-01-25 01:05:18.94	287.74	29.00	-39.8	-42.0	13.8	7.60e-06	0	62	0	686817280	50	4854
2026-01-25 01:05:19.95	287.42	28.95	-39.8	-42.1	13.7	1.52e-05	0	62	0	689963008	50	4890
2026-01-25 01:05:20.96	287.10	28.89	-39.9	-42.2	13.6	6.56e-05	0	62	0	693108736	50	4932
2026-01-25 01:05:21.97	286.78	28.84	-39.8	-42.0	13.7	1.43e-04	0	62	0	696254464	50	4861
2026-01-25 01:05:22.98	286.46	28.78	-39.7	-41.9	13.8	1.64e-04	0	62	0	699400192	50	4789
2026-01-25 01:05:23.99	286.15	28.72	-39.7	-41.9	13.9	2.51e-05	0	62	0	702545920	50	4766
2026-01-25 01:05:25.00	285.83	28.67	-39.6	-41.8	13.9	4.50e-06	0	62	0	705691648	50	4745
2026-01-25 01:05:26.01	285.52	28.61	-39.6	-41.7	14.0	3.89e-05	0	62	0	708837376	50	4693
2026-01-25 01:05:27.02	285.20	28.55	-39.5	-41.6	14.2	0.00e+00	0	62	0	711983104	50	4640
2026-01-25 01:05:28.03	284.89	28.49	-39.5	-41.5	14.3	0.00e+00	0	62	0	715128832	50	4594
2026-01-25 01:05:29.04	284.58	28.43	-39.4	-41.5	14.4	7.00e-07	0	62	0	718274560	50	4554
2026-01-25 01:05:30.05	284.27	28.37	-39.4	-41.5	14.2	1.14e-05	0	62	0	721420288	50	4563
2026-01-25 01:05:31.06	283.96	28.30	-39.4	-41.5	14.1	1.15e-04	0	62	0	724566016	50	4591
2026-01-25 01:05:32.07	283.65	28.24	-39.5	-41.6	14.1	1.04e-04	0	62	0	727711744	50	4632
2026-01-25 01:05:33.08	283.35	28.18	-39.5	-41.6	14.1	6.25e-05	0	62	0	730857472	50	4623
2026-01-25 01:05:34.09	283.04	28.11	-39.5	-41.7	14.2	1.50e-06	0	62	0	735051776	50	4663
2026-01-25 01:05:35.10	282.74	28.05	-39.4	-41.5	14.2	1.50e-06	0	62	0	738197504	50	4594
2026-01-25 01:05:36.11	282.43	27.98	-39.4	-41.5	14.3	0.00e+00	0	62	0	740294656	50	4592
2026-01-25 01:05:37.12	282.13	27.91	-39.4	-41.5	14.2	0.00e+00	0	62	0	743440384	50	4593
2026-01-25 01:05:38.13	281.83	27.84	-39.3	-41.4	14.3	3.00e-06	0	62	0	746586112	50	4528
2026-01-25 01:05:39.14	281.53	27.78	-39.3	-41.4	14.3	1.50e-06	0	62	0	750780416	50	4531
2026-01-25 01:05:40.15	281.23	27.71	-39.4	-41.5	14.2	4.50e-06	0	62	0	753926144	50	4582
2026-01-25 01:05:41.16	280.94	27.64	-39.5	-41.6	14.2	4.50e-06	0	62	0	757071872	50	4606
2026-01-25 01:05:42.17	280.64	27.57	-39.5	-41.6	14.2	7.00e-07	0	62	0	760217600	50	4603
2026-01-25 01:05:43.18	280.35	27.50	-39.3	-41.4	14.4	7.00e-07	0	62	0	763363328	50	4509
2026-01-25 01:05:44.19	280.06	27.42	-39.1	-41.2	14.6	0.00e+00	0	62	0	766509056	50	4395
2026-01-25 01:05:45.21	279.76	27.35	-39.0	-41.0	14.7	0.00e+00	0	62	0	769654784	50	4319
2026-01-25 01:05:46.22	279.47	27.28	-38.9	-40.8	14.9	0.00e+00	0	62	0	772800512	49	4469
2026-01-25 01:05:47.23	279.18	27.20	-38.9	-40.9	14.8	0.00e+00	0	62	0	775946240	49	4504
2026-01-25 01:05:48.24	278.90	27.13	-39.0	-41.0	14.8	7.00e-07	0	62	0	779091968	49	4559
2026-01-25 01:05:49.25	278.61	27.05	-39.3	-41.4	14.4	7.00e-07	0	62	0	782237696	49	4784
2026-01-25 01:05:50.26	278.33	26.98	-39.7	-41.9	13.8	7.00e-07	0	62	0	785383424	49	5096
2026-01-25 01:05:51.27	278.04	26.90	-40.0	-42.4	13.4	1.90e-05	0	62	0	788529152	50	5065
2026-01-25 01:05:52.28	277.76	26.83	-40.2	-42.7	13.0	1.87e-04	0	62	0	791674880	50	5273
2026-01-25 01:05:53.29	277.48	26.75	-40.1	-42.7	12.9	1.14e-03	0	62	0	794820608	50	5248
2026-01-25 01:05:54.30	277.20	26.67	-40.1	-42.5	13.3	1.44e-05	0	62	0	797966336	50	5105
2026-01-25 01:05:55.31	276.92	26.59	-39.9	-42.3	13.5	9.10e-06	0	62	0	801112064	50	4992
2026-01-25 01:05:56.32	276.65	26.52	-39.7	-41.9	13.8	3.00e-06	0	62	0	804257792	50	4797
2026-01-25 01:05:57.33	276.37	26.44	-39.5	-41.6	14.2	0.00e+00	0	62	0	807403520	50	4635
2026-01-25 01:05:58.34	276.10	26.36	-39.5	-41.6	14.2	3.00e-06	0	62	0	810549248	50	4619
2026-01-25 01:05:59.35	275.83	26.28	-39.2	-41.3	14.5	7.00e-07	0	62	0	813694976	50	4451
2026-01-25 01:06:00.36	275.56	26.20	-39.3	-41.3	14.5	0.00e+00	0	62	0	816840704	50	4475
2026-01-25 01:06:01.37	275.29	26.11	-39.5	-41.6	14.1	0.00e+00	0	62	0	819986432	50	4643
2026-01-25 01:06:02.38	275.02	26.03	-39.6	-41.9	13.9	2.20e-06	0	62	0	823132160	50	4764
2026-01-25 01:06:03.39	274.75	25.95	-39.6	-41.8	13.9	1.50e-06	0	62	0	826277888	50	4729
2026-01-25 01:06:04.40	274.49	25.87	-39.5	-41.6	14.1	7.00e-07	0	62	0	829423616	50	4624
2026-01-25 01:06:05.41	274.22	25.79	-39.4	-41.6	14.1	7.00e-07	0	62	0	832569344	50	4608
2026-01-25 01:06:06.41	273.96	25.70	-39.4	-41.5	14.1	2.20e-06	0	62	0	835715072	50	4597
2026-01-25 01:06:07.42	273.70	25.62	-39.4	-41.5	14.2	7.00e-07	0	62	0	838860800	50	4565
2026-01-25 01:06:08.44	273.44	25.53	-39.4	-41.5	14.2	1.50e-06	0	62	0	842006528	50	4579
2026-01-25 01:06:09.44	273.18	25.45	-39.4	-41.5	14.2	7.00e-07	0	62	0	845152256	50	4592
2026-01-25 01:06:10.45	272.93	25.37	-39.4	-41.5	14.2	1.50e-06	0	62	0	848297984	50	4577
2026-01-25 01:06:11.46	272.67	25.28	-39.4	-41.5	14.2	7.00e-07	0	62	0	851443712	50	4560
2026-01-25 01:06:12.47	272.42	25.20	-39.3	-41.4	14.2	3.00e-06	0	62	0	854589440	50	4545
2026-01-25 01:06:13.48	272.16	25.11	-39.3	-41.3	14.3	0.00e+00	0	62	0	857735168	50	4482
2026-01-25 01:06:14.49	271.91	25.02	-39.3	-41.3	14.3	7.00e-07	0	62	0	860880896	50	4479
2026-01-25 01:06:15.51	271.66	24.94	-39.0	-41.0	14.7	2.20e-06	0	62	0	864026624	50	4325
2026-01-25 01:06:16.52	271.41	24.85	-38.8	-40.6	15.0	0.00e+00	0	62	0	867172352	49	4390
2026-01-25 01:06:17.52	271.17	24.76	-38.7	-40.5	15.1	0.00e+00	0	62	0	870318080	49	4338
2026-01-25 01:06:18.53	270.92	24.68	-38.7	-40.6	15.1	0.00e+00	0	62	0	873463808	49	4343
2026-01-25 01:06:19.54	270.67	24.59	-38.7	-40.6	15.1	0.00e+00	0	62	0	876609536	49	4360
2026-01-25 01:06:20.56	270.43	24.50	-38.9	-40.8	14.9	0.00e+00	0	62	0	879755264	49	4480
2026-01-25 01:06:21.57	270.19	24.41	-38.8	-40.8	14.8	1.14e-05	0	62	0	882900992	49	4467
2026-01-25 01:06:22.57	269.95	24.32	-38.8	-40.7	15.0	0.00e+00	0	62	0	886046720	49	4432
2026-01-25 01:06:23.59	269.71	24.24	-38.8	-40.7	15.0	0.00e+00	0	62	0	889192448	49	4414
2026-01-25 01:06:24.60	269.47	24.15	-38.7	-40.6	15.1	0.00e+00	0	62	0	892338176	49	4352
2026-01-25 01:06:25.61	269.23	24.06	-38.6	-40.5	15.2	0.00e+00	0	62	0	895483904	49	4326
2026-01-25 01:06:26.62	269.00	23.97	-38.7	-40.6	15.0	0.00e+00	0	62	0	898629632	49	4371
2026-01-25 01:06:27.63	268.76	23.88	-38.8	-40.7	14.9	0.00e+00	0	62	0	901775360	49	4419
2026-01-25 01:06:28.64	268.53	23.79	-38.8	-40.8	14.9	0.00e+00	0	62	0	904921088	49	4448
2026-01-25 01:06:29.65	268.30	23.70	-38.8	-40.7	15.0	0.00e+00	0	62	0	908066816	49	4393
2026-01-25 01:06:30.66	268.07	23.61	-38.8	-40.6	15.0	0.00e+00	0	62	0	911212544	49	4390
2026-01-25 01:06:31.67	267.84	23.52	-38.7	-40.6	15.1	0.00e+00	0	62	0	914358272	49	4381
2026-01-25 01:06:32.68	267.61	23.43	-38.8	-40.7	14.9	0.00e+00	0	62	0	917504000	49	4437
2026-01-25 01:06:33.68	267.39	23.34	-38.8	-40.7	15.0	0.00e+00	0	62	0	920649728	49	4429
2026-01-25 01:06:34.69	267.17	23.25	-38.8	-40.8	14.9	0.00e+00	0	62	0	923795456	49	4447
2026-01-25 01:06:35.71	266.94	23.15	-38.8	-40.7	15.0	0.00e+00	0	62	0	926941184	49	4409
2026-01-25 01:06:36.71	266.72	23.06	-38.8	-40.7	15.0	0.00e+00	0	62	0	930086912	49	4416
2026-01-25 01:06:37.72	266.50	22.97	-38.8	-40.7	14.9	0.00e+00	0	62	0	933232640	49	4426
2026-01-25 01:06:38.73	266.28	22.88	-38.8	-40.8	14.9	0.00e+00	0	62	0	936378368	49	4463
2026-01-25 01:06:39.74	266.06	22.79	-38.9	-40.8	14.9	0.00e+00	0	62	0	939524096	49	4457
2026-01-25 01:06:40.75	265.85	22.70	-38.9	-40.9	14.8	7.00e-07	0	62	0	942669824	49	4498
2026-01-25 01:06:41.76	265.63	22.61	-39.0	-41.0	14.7	0.00e+00	0	62	0	945815552	49	4561
2026-01-25 01:06:42.77	265.42	22.52	-39.1	-41.1	14.6	0.00e+00	0	62	0	948961280	49	4608
2026-01-25 01:06:43.78	265.20	22.42	-39.1	-41.1	14.5	1.50e-06	0	62	0	952107008	49	4637
2026-01-25 01:06:44.79	264.99	22.33	-39.0	-41.0	14.7	0.00e+00	0	62	0	955252736	49	4569
2026-01-25 01:06:45.80	264.78	22.24	-39.1	-41.1	14.6	0.00e+00	0	62	0	958398464	49	4609
2026-01-25 01:06:46.81	264.57	22.15	-39.0	-41.0	14.6	0.00e+00	0	62	0	961544192	49	4583
2026-01-25 01:06:47.82	264.36	22.05	-39.0	-41.0	14.6	0.00e+00	0	62	0	964689920	49	4582
2026-01-25 01:06:48.83	264.16	21.96	-38.9	-40.9	14.7	0.00e+00	0	62	0	967835648	49	4532
2026-01-25 01:06:49.84	263.95	21.87	-39.0	-41.0	14.7	0.00e+00	0	62	0	970981376	49	4546
2026-01-25 01:06:50.85	263.75	21.78	-38.9	-40.9	14.8	0.00e+00	0	62	0	974127104	49	4502
2026-01-25 01:06:51.86	263.55	21.68	-38.9	-40.8	14.8	0.00e+00	0	62	0	977272832	49	4485
2026-01-25 01:06:52.87	263.34	21.59	-38.9	-40.8	14.8	0.00e+00	0	62	0	980418560	49	4493
2026-01-25 01:06:53.88	263.14	21.50	-38.9	-40.9	14.8	7.00e-07	0	62	0	983564288	49	4497
2026-01-25 01:06:54.89	262.94	21.41	-38.9	-40.9	14.8	0.00e+00	0	62	0	986710016	49	4512
2026-01-25 01:06:55.90	262.75	21.31	-39.0	-41.1	14.6	0.00e+00	0	62	0	989855744	49	4610
2026-01-25 01:06:56.91	262.55	21.22	-39.2	-41.2	14.4	0.00e+00	0	62	0	993001472	49	4704
2026-01-25 01:06:57.92	262.35	21.13	-39.3	-41.5	14.2	0.00e+00	0	62	0	996147200	49	4833
2026-01-25 01:06:58.93	262.16	21.04	-39.4	-41.5	14.1	3.00e-06	0	62	0	999292928	49	4848
2026-01-25 01:06:59.94	261.96	20.94	-39.4	-41.5	14.1	1.50e-06	0	62	0	1002438656	49	4861
2026-01-25 01:07:00.95	261.77	20.85	-39.4	-41.6	14.0	0.00e+00	0	62	0	1005584384	49	4904
2026-01-25 01:07:01.96	261.58	20.76	-39.5	-41.7	14.0	1.50e-06	0	62	0	1008730112	49	4937
2026-01-25 01:07:02.97	261.39	20.67	-39.5	-41.7	14.0	0.00e+00	0	62	0	1011875840	49	4939
2026-01-25 01:07:03.98	261.20	20.57	-39.5	-41.8	13.9	3.80e-06	0	62	0	1015021568	49	4987
2026-01-25 01:07:04.99	261.02	20.48	-39.5	-41.8	13.9	6.10e-06	0	62	0	1018167296	49	4993
2026-01-25 01:07:06.00	260.83	20.39	-39.4	-41.6	14.1	2.20e-06	0	62	0	1021313024	49	4899
2026-01-25 01:07:07.01	260.64	20.29	-39.3	-41.5	14.2	2.20e-06	0	62	0	1024458752	49	4821
2026-01-25 01:07:08.02	260.46	20.20	-39.2	-41.3	14.3	0.00e+00	0	62	0	1027604480	49	4722
2026-01-25 01:07:09.03	260.28	20.11	-39.1	-41.1	14.5	7.00e-07	0	62	0	1030750208	49	4645
2026-01-25 01:07:10.04	260.09	20.02	-39.0	-41.0	14.6	0.00e+00	0	62	0	1033895936	49	4576
2026-01-25 01:07:11.05	259.91	19.92	-39.0	-41.0	14.6	0.00e+00	0	62	0	1037041664	49	4597
2026-01-25 01:07:12.06	259.73	19.83	-39.2	-41.3	14.3	0.00e+00	0	62	0	1040187392	49	4713
2026-01-25 01:07:13.07	259.55	19.74	-39.3	-41.5	14.1	7.00e-07	0	62	0	1043333120	49	4830
2026-01-25 01:07:14.08	259.38	19.65	-39.5	-41.7	13.9	1.50e-06	0	62	0	1046478848	49	4948
2026-01-25 01:07:15.09	259.20	19.55	-39.6	-41.8	13.8	2.20e-06	0	62	0	1049624576	49	5035
2026-01-25 01:07:16.10	259.02	19.46	-39.6	-41.9	13.7	1.22e-05	0	62	0	1053818880	49	5052
2026-01-25 01:07:17.11	258.85	19.37	-39.6	-41.9	13.7	6.10e-06	0	62	0	1056964608	49	5073
2026-01-25 01:07:18.12	258.68	19.28	-39.5	-41.8	13.8	1.50e-06	0	62	0	1059061760	49	5010
2026-01-25 01:07:19.12	258.51	19.19	-39.6	-41.8	13.8	8.30e-06	0	62	0	1062207488	49	5022
2026-01-25 01:07:20.14	258.33	19.09	-39.6	-41.8	13.8	6.80e-06	0	62	0	1065353216	49	5010
2026-01-25 01:07:21.15	258.16	19.00	-39.5	-41.8	13.9	3.80e-06	0	62	0	1069547520	49	4993
2026-01-25 01:07:22.16	257.99	18.91	-39.4	-41.6	14.0	3.00e-06	0	62	0	1072693248	49	4921
2026-01-25 01:07:23.17	257.83	18.82	-39.4	-41.6	13.9	2.20e-06	0	62	0	1075838976	49	4926
2026-01-25 01:07:24.18	257.66	18.73	-39.6	-41.8	13.7	7.60e-06	0	62	0	1078984704	49	5032
2026-01-25 01:07:25.19	257.49	18.64	-39.8	-42.1	13.4	1.14e-05	0	62	0	1081081856	50	4902
2026-01-25 01:07:26.20	257.33	18.54	-39.9	-42.3	13.3	1.83e-05	0	62	0	1085276160	50	5020
2026-01-25 01:07:27.20	257.16	18.45	-39.9	-42.4	13.2	2.67e-05	0	62	0	1088421888	50	5042
2026-01-25 01:07:28.21	257.00	18.36	-39.9	-42.3	13.3	2.44e-05	0	62	0	1091567616	50	4987
2026-01-25 01:07:29.22	256.84	18.27	-39.8	-42.1	13.5	9.90e-06	0	62	0	1094713344	50	4891
2026-01-25 01:07:30.23	256.68	18.18	-39.7	-41.9	13.7	6.80e-06	0	62	0	1097859072	50	4808
2026-01-25 01:07:31.24	256.52	18.09	-39.5	-41.7	13.9	3.80e-06	0	62	0	1101004800	50	4696
2026-01-25 01:07:32.25	256.36	18.00	-39.3	-41.4	14.2	7.00e-07	0	62	0	1104150528	50	4501
2026-01-25 01:07:33.26	256.20	17.91	-39.1	-41.2	14.4	7.00e-07	0	62	0	1107296256	50	4417
2026-01-25 01:07:34.27	256.04	17.82	-39.2	-41.3	14.4	1.50e-06	0	62	0	1110441984	50	4445
2026-01-25 01:07:35.28	255.89	17.73	-39.3	-41.4	14.2	7.00e-07	0	62	0	1113587712	50	4519
2026-01-25 01:07:36.29	255.73	17.63	-39.5	-41.7	13.9	7.00e-07	0	62	0	1116733440	50	4683
2026-01-25 01:07:37.30	255.58	17.54	-39.7	-41.9	13.6	7.60e-06	0	62	0	1119879168	50	4807
2026-01-25 01:07:38.31	255.42	17.45	-39.8	-42.2	13.4	1.22e-05	0	62	0	1123024896	50	4954
2026-01-25 01:07:39.32	255.27	17.36	-39.9	-42.3	13.2	1.83e-05	0	62	0	1126170624	50	5026
2026-01-25 01:07:40.33	255.12	17.27	-39.9	-42.4	13.2	2.44e-05	0	62	0	1129316352	50	5043
2026-01-25 01:07:41.35	254.97	17.18	-39.9	-42.3	13.3	2.44e-05	0	62	0	1132462080	50	4999
2026-01-25 01:07:42.35	254.82	17.09	-39.7	-42.1	13.4	1.14e-05	0	62	0	1135607808	50	4890
2026-01-25 01:07:43.36	254.67	17.00	-39.6	-41.9	13.7	6.80e-06	0	62	0	1138753536	50	4776
2026-01-25 01:07:44.37	254.52	16.92	-39.5	-41.8	13.8	5.30e-06	0	62	0	1141899264	50	4714
2026-01-25 01:07:45.38	254.37	16.83	-39.3	-41.4	14.1	7.00e-07	0	62	0	1145044992	50	4532
2026-01-25 01:07:46.39	254.23	16.74	-39.2	-41.3	14.2	0.00e+00	0	62	0	1148190720	50	4487
2026-01-25 01:07:47.40	254.08	16.65	-39.2	-41.3	14.3	7.00e-07	0	62	0	1151336448	50	4467
2026-01-25 01:07:48.41	253.94	16.56	-39.2	-41.4	14.2	0.00e+00	0	62	0	1154482176	50	4497
2026-01-25 01:07:49.43	253.79	16.47	-39.4	-41.5	14.0	0.00e+00	0	62	0	1157627904	50	4597
2026-01-25 01:07:50.43	253.65	16.38	-39.6	-41.9	13.7	4.50e-06	0	62	0	1160773632	50	4781
2026-01-25 01:07:51.45	253.51	16.29	-39.8	-42.3	13.3	9.90e-06	0	62	0	1163919360	50	4984
2026-01-25 01:07:52.46	253.37	16.20	-40.0	-42.5	13.0	2.89e-05	0	62	0	1167065088	50	5123
2026-01-25 01:07:53.47	253.23	16.12	-40.1	-42.6	12.9	4.42e-05	0	62	0	1170210816	50	5207
2026-01-25 01:07:54.48	253.09	16.03	-40.1	-42.7	12.8	5.95e-05	0	62	0	1173356544	50	5230
2026-01-25 01:07:55.49	252.95	15.94	-40.1	-42.7	12.9	5.79e-05	0	62	0	1176502272	50	5220
2026-01-25 01:07:56.50	252.81	15.85	-39.9	-42.3	13.2	2.74e-05	0	62	0	1179648000	50	5038
2026-01-25 01:07:57.51	252.67	15.76	-39.8	-42.2	13.3	1.44e-05	0	62	0	1182793728	50	4953
2026-01-25 01:07:58.51	252.54	15.68	-39.7	-42.0	13.5	1.52e-05	0	62	0	1185939456	50	4837
2026-01-25 01:07:59.52	252.40	15.59	-39.6	-41.8	13.6	4.50e-06	0	62	0	1189085184	50	4758
2026-01-25 01:08:00.53	252.27	15.50	-39.4	-41.6	13.8	6.80e-06	0	62	0	1192230912	50	4648
2026-01-25 01:08:01.54	252.13	15.42	-39.4	-41.6	13.8	6.10e-06	0	62	0	1195376640	50	4636
2026-01-25 01:08:02.55	252.00	15.33	-39.4	-41.6	13.9	2.20e-06	0	62	0	1198522368	50	4624
2026-01-25 01:08:03.56	251.87	15.24	-39.3	-41.5	14.0	6.10e-06	0	62	0	1201668096	50	4578
2026-01-25 01:08:04.57	251.74	15.15	-39.4	-41.6	13.9	3.00e-06	0	62	0	1204813824	50	4613
2026-01-25 01:08:05.58	251.61	15.07	-39.5	-41.8	13.7	7.60e-06	0	62	0	1207959552	50	4712
2026-01-25 01:08:06.59	251.48	14.98	-39.6	-41.8	13.7	4.50e-06	0	62	0	1211105280	50	4753
2026-01-25 01:08:07.60	251.35	14.90	-39.7	-42.0	13.5	9.10e-06	0	62	0	1214251008	50	4856
2026-01-25 01:08:08.61	251.22	14.81	-39.8	-42.1	13.3	1.75e-05	0	62	0	1217396736	50	4918
2026-01-25 01:08:09.62	251.09	14.72	-39.8	-42.3	13.2	1.67e-05	0	62	0	1220542464	50	4997
2026-01-25 01:08:10.63	250.96	14.64	-39.9	-42.4	13.1	3.58e-05	0	62	0	1223688192	50	5058
2026-01-25 01:08:11.64	250.84	14.55	-40.0	-42.5	13.0	3.35e-05	0	62	0	1226833920	50	5102
2026-01-25 01:08:12.65	250.71	14.47	-39.9	-42.4	13.1	3.58e-05	0	62	0	1229979648	50	5066
2026-01-25 01:08:13.66	250.59	14.38	-40.0	-42.4	13.0	3.28e-05	0	62	0	1233125376	50	5078
2026-01-25 01:08:14.67	250.46	14.30	-39.9	-42.4	13.0	3.58e-05	0	62	0	1236271104	50	5074
2026-01-25 01:08:15.68	250.34	14.21	-39.9	-42.3	13.1	3.05e-05	0	62	0	1239416832	50	5000
2026-01-25 01:08:16.69	250.22	14.13	-39.5	-41.8	13.6	1.22e-05	0	62	0	1242562560	50	4755
2026-01-25 01:08:17.70	250.10	14.04	-39.4	-41.6	13.9	4.50e-06	0	62	0	1245708288	50	4602
2026-01-25 01:08:18.71	249.97	13.96	-39.4	-41.5	13.9	2.20e-06	0	62	0	1248854016	50	4593
2026-01-25 01:08:19.72	249.85	13.87	-39.3	-41.5	14.0	2.20e-06	0	62	0	1251999744	50	4547
2026-01-25 01:08:20.73	249.73	13.79	-39.3	-41.5	13.9	5.30e-06	0	62	0	1255145472	50	4583
2026-01-25 01:08:21.74	249.62	13.71	-39.3	-41.5	14.0	2.20e-06	0	62	0	1258291200	50	4578
2026-01-25 01:08:22.75	249.50	13.62	-39.3	-41.5	13.9	2.20e-06	0	62	0	1261436928	50	4581
2026-01-25 01:08:23.76	249.38	13.54	-39.3	-41.5	14.0	5.30e-06	0	62	0	1264582656	50	4571
2026-01-25 01:08:24.77	249.26	13.46	-39.4	-41.6	13.9	3.00e-06	0	62	0	1267728384	50	4619
2026-01-25 01:08:25.78	249.15	13.37	-39.5	-41.8	13.7	6.10e-06	0	62	0	1270874112	50	4716
2026-01-25 01:08:26.79	249.03	13.29	-39.6	-41.9	13.5	1.06e-05	0	62	0	1274019840	50	4811
2026-01-25 01:08:27.80	248.91	13.21	-39.8	-42.3	13.2	1.52e-05	0	62	0	1277165568	50	4994
2026-01-25 01:08:28.81	248.80	13.12	-40.0	-42.5	12.9	4.04e-05	0	62	0	1280311296	50	5143
2026-01-25 01:08:29.82	248.69	13.04	-40.1	-42.7	12.8	6.10e-05	0	62	0	1283457024	50	5240
2026-01-25 01:08:30.82	248.57	12.96	-40.2	-42.8	12.6	1.01e-04	0	62	0	1286602752	50	5333
2026-01-25 01:08:31.83	248.46	12.88	-40.3	-43.0	12.4	1.41e-04	0	62	0	1289748480	51	5104
2026-01-25 01:08:32.84	248.35	12.80	-40.2	-42.9	12.5	1.04e-04	0	62	0	1292894208	51	5059
2026-01-25 01:08:33.85	248.24	12.71	-40.3	-43.0	12.4	1.34e-04	0	62	0	1296039936	51	5102
2026-01-25 01:08:34.86	248.13	12.63	-40.1	-42.8	12.6	1.01e-04	0	62	0	1299185664	51	4986
2026-01-25 01:08:35.87	248.02	12.55	-40.1	-42.7	12.6	7.85e-05	0	62	0	1302331392	51	4955
2026-01-25 01:08:36.88	247.91	12.47	-40.1	-42.7	12.6	8.92e-05	0	62	0	1305477120	51	4946
2026-01-25 01:08:37.90	247.80	12.39	-40.1	-42.6	12.7	9.15e-05	0	62	0	1308622848	51	4926
2026-01-25 01:08:38.90	247.69	12.31	-39.8	-42.3	13.0	4.34e-05	0	62	0	1311768576	51	4726
2026-01-25 01:08:39.91	247.58	12.23	-39.6	-42.0	13.4	1.75e-05	0	62	0	1314914304	51	4546
2026-01-25 01:08:40.92	247.48	12.15	-39.5	-41.9	13.5	1.60e-05	0	62	0	1318060032	51	4499
2026-01-25 01:08:41.93	247.37	12.06	-39.5	-41.8	13.6	9.10e-06	0	62	0	1321205760	51	4461
2026-01-25 01:08:42.94	247.27	11.98	-39.5	-41.8	13.6	4.50e-06	0	62	0	1324351488	50	4735
2026-01-25 01:08:43.95	247.16	11.90	-39.6	-41.9	13.4	1.83e-05	0	62	0	1327497216	50	4813
2026-01-25 01:08:44.96	247.06	11.82	-39.6	-42.0	13.3	1.14e-05	0	62	0	1330642944	50	4861
2026-01-25 01:08:45.97	246.95	11.74	-39.8	-42.2	13.1	2.67e-05	0	62	0	1333788672	50	4971
2026-01-25 01:08:46.98	246.85	11.66	-39.9	-42.4	13.0	2.51e-05	0	62	0	1336934400	50	5049
2026-01-25 01:08:47.99	246.75	11.59	-40.0	-42.6	12.8	5.41e-05	0	62	0	1340080128	50	5183
2026-01-25 01:08:49.00	246.64	11.51	-40.2	-42.8	12.5	1.04e-04	0	62	0	1343225856	50	5321
2026-01-25 01:08:50.01	246.54	11.43	-40.3	-43.1	12.3	1.79e-04	0	62	0	1346371584	51	5160
2026-01-25 01:08:51.02	246.44	11.35	-40.4	-43.2	12.1	2.25e-04	0	62	0	1349517312	51	5224
2026-01-25 01:08:52.03	246.34	11.27	-40.4	-43.3	12.0	2.61e-04	0	62	0	1352663040	51	5295
2026-01-25 01:08:53.04	246.24	11.19	-40.4	-43.3	12.0	3.27e-04	0	62	0	1355808768	51	5315
2026-01-25 01:08:54.05	246.14	11.11	-40.5	-43.4	11.9	4.95e-04	0	62	0	1358954496	51	5370
2026-01-25 01:08:55.06	246.04	11.03	-40.5	-43.3	11.9	3.90e-04	0	62	0	1362100224	51	5325
2026-01-25 01:08:56.07	245.94	10.95	-40.5	-43.5	11.8	4.42e-04	0	62	0	1365245952	51	5406
2026-01-25 01:08:57.08	245.85	10.88	-40.5	-43.4	11.8	5.37e-04	0	62	0	1368391680	51	5401
2026-01-25 01:08:58.09	245.75	10.80	-40.5	-43.4	11.8	4.49e-04	0	62	0	1371537408	51	5383
2026-01-25 01:08:59.10	245.65	10.72	-40.5	-43.5	11.7	5.21e-04	0	62	0	1374683136	51	5415
2026-01-25 01:09:00.11	245.55	10.64	-40.3	-43.2	12.0	3.64e-04	0	62	0	1377828864	51	5227
2026-01-25 01:09:01.12	245.46	10.57	-40.4	-43.3	11.9	3.47e-04	0	62	0	1380974592	51	5281
2026-01-25 01:09:02.13	245.36	10.49	-40.4	-43.2	11.9	3.49e-04	0	62	0	1384120320	51	5279
2026-01-25 01:09:03.14	245.27	10.41	-40.3	-43.1	12.1	3.90e-04	0	62	0	1388314624	51	5195
2026-01-25 01:09:04.15	245.17	10.34	-40.2	-43.0	12.2	2.42e-04	0	62	0	1391460352	51	5111
2026-01-25 01:09:05.16	245.08	10.26	-40.2	-43.0	12.2	2.41e-04	0	62	0	1394606080	51	5102
2026-01-25 01:09:06.18	244.99	10.18	-40.1	-42.8	12.4	1.59e-04	0	62	0	1396703232	51	5035
2026-01-25 01:09:07.19	244.89	10.10	-40.2	-42.9	12.2	2.17e-04	0	62	0	1399848960	51	5088
2026-01-25 01:09:08.20	244.80	10.03	-40.2	-43.0	12.2	2.19e-04	0	62	0	1404043264	51	5135
2026-01-25 01:09:09.21	244.71	9.95	-40.3	-43.0	12.1	2.50e-04	0	62	0	1407188992	51	5158
2026-01-25 01:09:10.22	244.62	9.88	-40.3	-43.1	12.1	2.60e-04	0	62	0	1410334720	51	5168
2026-01-25 01:09:11.23	244.53	9.80	-40.3	-43.2	12.0	2.68e-04	0	62	0	1413480448	51	5221
2026-01-25 01:09:12.24	244.44	9.73	-40.4	-43.3	11.9	4.39e-04	0	62	0	1416626176	51	5294
2026-01-25 01:09:13.25	244.35	9.65	-40.5	-43.5	11.7	5.71e-04	0	62	0	1419771904	51	5403
2026-01-25 01:09:14.26	244.26	9.57	-40.5	-43.5	11.6	6.64e-04	0	62	0	1422917632	51	5446
2026-01-25 01:09:15.27	244.17	9.50	-40.6	-43.6	11.5	7.19e-04	0	62	0	1426063360	51	5501
2026-01-25 01:09:16.28	244.08	9.42	-40.7	-43.8	11.3	8.80e-04	0	62	0	1429209088	51	5639
2026-01-25 01:09:17.29	243.99	9.35	-40.8	-44.0	11.0	1.53e-03	0	62	0	1432354816	52	5407
2026-01-25 01:09:18.30	243.91	9.28	-40.7	-43.8	11.2	1.45e-03	0	62	0	1435500544	52	5331
2026-01-25 01:09:19.31	243.82	9.20	-40.7	-43.9	11.1	1.30e-03	0	62	0	1438646272	52	5373
2026-01-25 01:09:20.32	243.73	9.13	-40.8	-44.1	10.9	1.96e-03	0	62	0	1441792000	52	5482
2026-01-25 01:09:21.33	243.65	9.05	-40.8	-44.0	10.9	2.26e-03	0	62	0	1444937728	52	5462
2026-01-25 01:09:22.34	243.56	8.98	-40.7	-43.9	11.0	1.72e-03	0	62	0	1448083456	52	5402
2026-01-25 01:09:23.35	243.47	8.90	-40.8	-44.0	10.9	2.02e-03	0	62	0	1451229184	52	5440
2026-01-25 01:09:24.36	243.39	8.83	-40.8	-44.1	10.9	2.20e-03	0	62	0	1454374912	52	5477
2026-01-25 01:09:25.37	243.31	8.76	-40.8	-44.0	10.9	2.11e-03	0	62	0	1457520640	52	5443
2026-01-25 01:09:26.38	243.22	8.68	-40.8	-44.0	10.9	2.37e-03	0	62	0	1460666368	52	5453
2026-01-25 01:09:27.39	243.14	8.61	-40.8	-44.1	10.9	2.35e-03	0	62	0	1463812096	52	5465
2026-01-25 01:09:28.40	243.05	8.54	-40.7	-44.0	10.9	2.14e-03	0	62	0	1466957824	52	5438
2026-01-25 01:09:29.41	242.97	8.46	-40.8	-44.1	10.8	2.29e-03	0	62	0	1470103552	52	5467
2026-01-25 01:09:30.42	242.89	8.39	-40.7	-43.9	11.0	2.06e-03	0	62	0	1473249280	52	5397
2026-01-25 01:09:31.43	242.81	8.32	-40.7	-43.9	11.0	2.22e-03	0	62	0	1476395008	52	5376
2026-01-25 01:09:32.44	242.73	8.25	-40.7	-43.9	10.9	1.93e-03	0	62	0	1479540736	52	5391
2026-01-25 01:09:33.45	242.65	8.17	-40.6	-43.8	11.0	1.66e-03	0	62	0	1482686464	52	5320
2026-01-25 01:09:34.46	242.57	8.10	-40.6	-43.7	11.2	1.54e-03	0	62	0	1485832192	52	5246
2026-01-25 01:09:35.47	242.49	8.03	-41.5	-45.4	9.8	2.90e-03	0	62	0	1488977920	53	6031
2026-01-25 01:09:36.48	242.41	7.96	-44.5	-56.6	3.8	1.49e+00	0	62	104	1490026496	59	15495
2026-01-25 01:09:37.49	242.33	7.89	-44.8	-57.2	3.8	1.49e+00	0	62	104	1490026496	60	15667
2026-01-25 01:09:38.50	242.25	7.82	-44.9	-57.3	3.8	1.49e+00	0	62	104	1490026496	60	15882
2026-01-25 01:09:39.51	242.17	7.74	-45.0	-57.4	3.8	1.49e+00	0	62	104	1490026496	60	16112
2026-01-25 01:09:40.52	242.09	7.67	-45.1	-57.5	3.8	1.49e+00	0	62	104	1490026496	60	16222
2026-01-25 01:09:41.53	242.01	7.60	-45.1	-57.5	3.8	1.49e+00	0	62	104	1490026496	60	16306
2026-01-25 01:09:42.54	241.94	7.53	-45.2	-57.6	3.8	1.49e+00	0	62	104	1490026496	60	16348
2026-01-25 01:09:43.55	241.86	7.46	-45.2	-57.6	3.8	1.49e+00	0	62	104	1490026496	60	16408
2026-01-25 01:09:44.57	241.78	7.39	-45.2	-57.7	3.8	1.49e+00	0	62	104	1490026496	60	16545
2026-01-25 01:09:45.58	241.70	7.32	-45.2	-57.6	3.8	1.49e+00	0	62	104	1490026496	61	15499
2026-01-25 01:09:46.59	241.63	7.25	-45.2	-57.5	3.8	1.49e+00	0	62	104	1490026496	61	15386
2026-01-25 01:09:47.60	241.55	7.18	-45.1	-57.5	3.8	1.49e+00	0	62	104	1490026496	61	15352
2026-01-25 01:09:48.61	241.48	7.11	-45.1	-57.5	3.8	1.49e+00	0	62	104	1490026496	61	15354
2026-01-25 01:09:49.62	241.40	7.04	-45.1	-57.5	3.8	1.49e+00	0	62	104	1490026496	61	15285
2026-01-25 01:09:50.63	241.33	6.97	-45.1	-57.5	3.8	1.49e+00	0	62	104	1490026496	61	15228
2026-01-25 01:09:51.64	241.26	6.90	-45.2	-57.6	3.8	1.49e+00	0	62	104	1490026496	61	15420
2026-01-25 01:09:52.65	241.18	6.83	-45.1	-57.5	3.8	1.49e+00	0	62	104	1490026496	61	15244
2026-01-25 01:09:53.66	241.11	6.76	-45.1	-57.4	3.8	1.49e+00	0	62	104	1490026496	61	15217
2026-01-25 01:09:54.67	241.04	6.69	-45.1	-57.4	3.8	1.49e+00	0	62	104	1490026496	61	15214
2026-01-25 01:09:55.68	240.96	6.62	-45.1	-57.5	3.8	1.49e+00	0	62	104	1490026496	61	15226
2026-01-25 01:09:56.69	240.89	6.55	-45.1	-57.4	3.8	1.49e+00	0	62	104	1490026496	61	15213
2026-01-25 01:09:57.70	240.82	6.48	-45.1	-57.5	3.8	1.49e+00	0	62	104	1490026496	61	15254
2026-01-25 01:09:58.71	240.75	6.42	-45.1	-57.4	3.8	1.49e+00	0	62	104	1490026496	61	15199
2026-01-25 01:09:59.73	240.68	6.35	-45.1	-57.4	3.8	1.49e+00	0	62	104	1490026496	61	15167
2026-01-25 01:10:00.74	240.60	6.28	-45.1	-57.5	3.8	1.49e+00	0	62	104	1490026496	61	15228
2026-01-25 01:10:01.75	240.53	6.21	-45.1	-57.4	3.8	1.49e+00	0	62	104	1490026496	61	15199
2026-01-25 01:10:02.76	240.46	6.14	-45.1	-57.5	3.8	1.49e+00	0	62	104	1490026496	61	15230
2026-01-25 01:10:03.77	240.39	6.07	-45.1	-57.5	3.8	1.49e+00	0	62	104	1490026496	61	15230
2026-01-25 01:10:04.78	240.32	6.01	-45.1	-57.4	3.8	1.49e+00	0	62	104	1490026496	61	15178
2026-01-25 01:10:05.79	240.26	5.94	-45.1	-57.5	3.8	1.49e+00	0	62	104	1490026496	61	15254
2026-01-25 01:10:06.80	240.19	5.87	-45.1	-57.5	3.8	1.49e+00	0	62	104	1490026496	61	15231
