passes_logs/2026/01/25/R2.0S_Moscow/R2.0S_Moscow__20260125_012739_SUOMI_NPP_rec.log

#Pass ID: 20260125_012739_SUOMI NPP
#Satellite: SUOMI NPP
#Configuration: NPP
#almurnet v.1.7.20251203
#Start time: 2026-01-25 01:27:41

#Version: 2.2.20231116
#Station: R2.0S_Moscow
#Location: 37.707566 lon 55.798166 lat
#TLE: 1 37849U 11061A   26024.54906732  .00000185  00000+0  10878-3 0  9990
#TLE: 2 37849  98.7821 326.5159 0002200  47.3746 312.7615 14.19529340738061

#Time	Az	El	Level	Level2	SNR	BER	BlckErr	Temp	State	Recorded	gain1	gain2
2026-01-25 01:27:41.09	10.10	2.07	-39.9	-54.5	3.8	1.49e+00	0	52	0	0	51	19216
2026-01-25 01:27:42.10	10.03	2.12	-39.9	-54.5	3.8	1.49e+00	0	52	104	0	51	19208
2026-01-25 01:27:43.11	9.96	2.18	-39.9	-54.5	3.8	1.49e+00	0	52	104	0	51	19219
2026-01-25 01:27:44.12	9.89	2.24	-39.9	-54.5	3.8	1.49e+00	0	53	104	0	51	19208
2026-01-25 01:27:45.13	9.83	2.29	-39.9	-54.5	3.8	1.49e+00	0	53	104	0	51	19311
2026-01-25 01:27:46.15	9.76	2.35	-39.9	-54.5	3.8	1.49e+00	0	53	104	0	51	19213
2026-01-25 01:27:47.15	9.69	2.41	-39.9	-54.5	3.8	1.49e+00	0	53	104	0	51	19210
2026-01-25 01:27:48.17	9.62	2.47	-39.9	-54.5	3.8	1.49e+00	0	53	104	0	51	19213
2026-01-25 01:27:49.18	9.55	2.52	-39.9	-54.5	3.8	1.49e+00	0	53	104	0	51	19230
2026-01-25 01:27:50.19	9.48	2.58	-39.9	-54.5	3.8	1.49e+00	0	53	104	0	51	19264
2026-01-25 01:27:51.20	9.42	2.64	-39.9	-54.5	3.8	1.49e+00	0	53	104	0	51	19226
2026-01-25 01:27:52.21	9.35	2.69	-39.9	-54.5	3.8	1.49e+00	0	53	104	0	51	19205
2026-01-25 01:27:53.22	9.28	2.75	-39.9	-54.5	3.8	1.49e+00	0	53	104	0	51	19209
2026-01-25 01:27:54.23	9.21	2.81	-39.9	-54.5	3.8	1.49e+00	0	53	104	0	51	19196
2026-01-25 01:27:55.24	9.14	2.87	-39.9	-54.5	3.8	1.49e+00	0	53	104	0	51	19208
2026-01-25 01:27:56.25	9.07	2.92	-39.9	-54.5	3.8	1.49e+00	0	54	104	0	51	19187
2026-01-25 01:27:57.26	8.99	2.98	-39.9	-54.5	3.8	1.49e+00	0	53	104	0	51	19178
2026-01-25 01:27:58.27	8.92	3.04	-39.9	-54.5	3.8	1.49e+00	0	54	104	0	51	19187
2026-01-25 01:27:59.28	8.85	3.10	-39.9	-54.5	3.8	1.49e+00	0	54	104	0	51	19185
2026-01-25 01:28:00.29	8.78	3.16	-39.9	-54.5	3.8	1.49e+00	0	54	104	0	51	19199
2026-01-25 01:28:01.30	8.71	3.21	-39.9	-54.5	3.8	1.49e+00	0	54	104	0	51	19183
2026-01-25 01:28:02.31	8.64	3.27	-39.9	-54.5	3.8	1.49e+00	0	54	104	0	51	19189
2026-01-25 01:28:03.32	8.56	3.33	-39.9	-54.4	3.8	1.49e+00	0	54	104	0	51	19161
2026-01-25 01:28:04.33	8.49	3.39	-39.9	-54.5	3.8	1.49e+00	0	54	104	0	51	19172
2026-01-25 01:28:05.34	8.42	3.45	-39.9	-54.5	3.8	1.49e+00	0	54	104	0	51	19189
2026-01-25 01:28:06.35	8.34	3.51	-39.9	-54.5	3.8	1.49e+00	0	54	104	0	51	19229
2026-01-25 01:28:07.36	8.27	3.56	-39.9	-54.5	3.8	1.49e+00	0	54	104	0	51	19206
2026-01-25 01:28:08.38	8.19	3.62	-39.9	-54.4	3.8	1.49e+00	0	54	104	0	51	19158
2026-01-25 01:28:09.39	8.12	3.68	-39.9	-54.5	3.8	1.49e+00	0	54	104	0	51	19230
2026-01-25 01:28:10.40	8.04	3.74	-39.9	-54.4	3.8	1.49e+00	0	54	104	0	51	19156
2026-01-25 01:28:11.40	7.97	3.80	-39.9	-54.4	3.8	1.49e+00	0	54	104	0	51	19148
2026-01-25 01:28:12.42	7.89	3.86	-39.9	-54.5	3.8	1.49e+00	0	55	104	0	51	19194
2026-01-25 01:28:13.43	7.82	3.92	-39.9	-54.4	3.8	1.49e+00	0	55	104	0	51	19141
2026-01-25 01:28:14.44	7.74	3.98	-39.9	-54.4	3.8	1.49e+00	0	54	104	0	51	19151
2026-01-25 01:28:15.45	7.67	4.04	-39.9	-54.5	3.8	1.49e+00	0	55	104	0	51	19187
2026-01-25 01:28:16.46	7.59	4.10	-39.9	-54.5	3.8	1.49e+00	0	55	104	0	51	19174
2026-01-25 01:28:17.47	7.51	4.15	-39.9	-54.4	3.8	1.49e+00	0	55	104	0	51	19133
2026-01-25 01:28:18.48	7.43	4.21	-39.9	-54.5	3.8	1.49e+00	0	55	104	0	51	19176
2026-01-25 01:28:19.49	7.36	4.27	-39.9	-54.4	3.8	1.49e+00	0	55	104	0	51	19155
2026-01-25 01:28:20.50	7.28	4.33	-39.9	-54.4	3.8	1.49e+00	0	55	104	0	51	19096
2026-01-25 01:28:21.51	7.20	4.39	-39.9	-54.5	3.8	1.49e+00	0	55	104	0	51	19177
2026-01-25 01:28:22.52	7.12	4.45	-39.9	-54.4	3.8	1.49e+00	0	55	104	0	51	19132
2026-01-25 01:28:23.53	7.04	4.51	-39.9	-54.4	3.8	1.49e+00	0	55	104	0	51	19116
2026-01-25 01:28:24.54	6.96	4.57	-39.9	-54.4	3.8	1.49e+00	0	55	104	0	51	19165
2026-01-25 01:28:25.55	6.88	4.63	-39.9	-54.4	3.8	1.49e+00	0	55	104	0	51	19117
2026-01-25 01:28:26.56	6.80	4.69	-39.9	-54.4	3.8	1.49e+00	0	55	104	0	51	19162
2026-01-25 01:28:27.57	6.72	4.75	-39.9	-54.4	3.8	1.49e+00	0	55	104	0	51	19153
2026-01-25 01:28:28.58	6.64	4.81	-39.9	-54.5	3.8	1.49e+00	0	55	104	0	51	19182
2026-01-25 01:28:29.59	6.56	4.87	-39.9	-54.4	3.8	1.49e+00	0	55	104	0	51	19119
2026-01-25 01:28:30.60	6.48	4.93	-39.9	-54.5	3.8	1.49e+00	0	55	104	0	51	19178
2026-01-25 01:28:31.61	6.40	4.99	-39.9	-54.4	3.8	1.49e+00	0	55	104	0	51	19166
2026-01-25 01:28:32.62	6.31	5.05	-39.9	-54.4	3.8	1.49e+00	0	55	104	0	51	19148
2026-01-25 01:28:33.63	6.23	5.11	-39.9	-54.4	3.8	1.49e+00	0	56	104	0	51	19138
2026-01-25 01:28:34.64	6.15	5.18	-39.9	-54.4	3.8	1.49e+00	0	56	104	0	51	19141
2026-01-25 01:28:35.65	6.07	5.24	-39.9	-54.5	3.8	1.49e+00	0	56	104	0	51	19201
2026-01-25 01:28:36.66	5.98	5.30	-39.9	-54.4	3.8	1.49e+00	0	56	104	0	51	19106
2026-01-25 01:28:37.67	5.90	5.36	-39.9	-54.4	3.8	1.49e+00	0	56	104	0	51	19136
2026-01-25 01:28:38.68	5.81	5.42	-39.9	-54.5	3.8	1.49e+00	0	56	104	0	51	19188
2026-01-25 01:28:39.69	5.73	5.48	-39.9	-54.4	3.8	1.49e+00	0	56	104	0	51	19164
2026-01-25 01:28:40.70	5.64	5.54	-39.9	-54.4	3.8	1.49e+00	0	56	104	0	51	19107
2026-01-25 01:28:41.71	5.56	5.60	-39.9	-54.4	3.8	1.49e+00	0	56	104	0	51	19150
2026-01-25 01:28:42.72	5.47	5.66	-39.9	-54.5	3.8	1.49e+00	0	56	104	0	51	19180
2026-01-25 01:28:43.73	5.39	5.73	-39.9	-54.4	3.8	1.49e+00	0	56	104	0	51	19161
2026-01-25 01:28:44.74	5.30	5.79	-39.9	-54.4	3.8	1.49e+00	0	56	104	0	51	19127
2026-01-25 01:28:45.75	5.21	5.85	-39.9	-54.5	3.8	1.49e+00	0	56	104	0	51	19178
2026-01-25 01:28:46.76	5.12	5.91	-39.9	-54.4	3.8	1.49e+00	0	56	104	0	51	19146
2026-01-25 01:28:47.77	5.04	5.97	-39.9	-54.4	3.8	1.49e+00	0	56	104	0	51	19090
2026-01-25 01:28:48.79	4.95	6.03	-39.9	-54.4	3.8	1.49e+00	0	56	104	0	51	19154
2026-01-25 01:28:49.79	4.86	6.10	-39.9	-54.4	3.8	1.49e+00	0	56	104	0	51	19162
2026-01-25 01:28:50.81	4.77	6.16	-39.9	-54.4	3.8	1.49e+00	0	56	104	0	51	19134
2026-01-25 01:28:51.82	4.68	6.22	-39.9	-54.4	3.8	1.49e+00	0	56	104	0	51	19127
2026-01-25 01:28:52.83	4.59	6.28	-39.9	-54.5	3.8	1.49e+00	0	56	104	0	51	19175
2026-01-25 01:28:53.84	4.50	6.35	-39.9	-54.4	3.8	1.49e+00	0	57	104	0	51	19165
2026-01-25 01:28:54.85	4.41	6.41	-39.9	-54.4	3.8	1.49e+00	0	56	104	0	51	19135
2026-01-25 01:28:55.86	4.32	6.47	-39.9	-54.4	3.8	1.49e+00	0	57	104	0	51	19142
2026-01-25 01:28:56.87	4.23	6.53	-39.9	-54.5	3.8	1.49e+00	0	56	104	0	51	19219
2026-01-25 01:28:57.88	4.14	6.59	-39.9	-54.4	3.8	1.49e+00	0	56	104	0	51	19145
2026-01-25 01:28:58.89	4.04	6.66	-39.9	-54.4	3.8	1.49e+00	0	57	104	0	51	19163
2026-01-25 01:28:59.90	3.95	6.72	-39.9	-54.4	3.8	1.49e+00	0	56	104	0	51	19144
2026-01-25 01:29:00.91	3.86	6.78	-39.9	-54.4	3.8	1.49e+00	0	57	104	0	51	19122
2026-01-25 01:29:01.92	3.76	6.85	-39.9	-54.4	3.8	1.49e+00	0	57	104	0	51	19151
2026-01-25 01:29:02.93	3.67	6.91	-39.9	-54.4	3.8	1.49e+00	0	57	104	0	51	19156
2026-01-25 01:29:03.94	3.58	6.97	-39.9	-54.4	3.8	1.49e+00	0	57	104	0	51	19127
2026-01-25 01:29:04.95	3.48	7.04	-39.9	-54.4	3.8	1.49e+00	0	57	104	0	51	19140
2026-01-25 01:29:05.96	3.39	7.10	-39.9	-54.5	3.8	1.49e+00	0	57	104	0	51	19181
2026-01-25 01:29:06.97	3.29	7.16	-39.9	-54.4	3.8	1.49e+00	0	57	104	0	51	19127
2026-01-25 01:29:07.98	3.19	7.23	-39.9	-54.4	3.8	1.49e+00	0	57	104	0	51	19142
2026-01-25 01:29:08.99	3.10	7.29	-39.9	-54.4	3.8	1.49e+00	0	57	104	0	51	19116
2026-01-25 01:29:10.00	3.00	7.35	-39.9	-54.5	3.8	1.49e+00	0	57	104	0	51	19176
2026-01-25 01:29:11.01	2.90	7.42	-39.9	-54.4	3.8	1.49e+00	0	57	104	0	51	19154
2026-01-25 01:29:12.03	2.80	7.48	-39.9	-54.5	3.8	1.49e+00	0	57	104	0	51	19180
2026-01-25 01:29:13.04	2.71	7.54	-39.9	-54.4	3.8	1.49e+00	0	57	104	0	51	19149
2026-01-25 01:29:14.05	2.61	7.61	-39.9	-54.4	3.8	1.49e+00	0	57	104	0	51	19139
2026-01-25 01:29:15.06	2.51	7.67	-39.9	-54.4	3.8	1.49e+00	0	57	104	0	51	19133
2026-01-25 01:29:16.07	2.41	7.74	-39.9	-54.4	3.8	1.49e+00	0	57	104	0	51	19159
2026-01-25 01:29:17.08	2.31	7.80	-39.9	-54.4	3.8	1.49e+00	0	57	104	0	51	19136
2026-01-25 01:29:18.09	2.21	7.86	-39.9	-54.5	3.8	1.49e+00	0	57	104	0	51	19172
2026-01-25 01:29:19.10	2.11	7.93	-39.9	-54.4	3.8	1.49e+00	0	57	104	0	51	19127
2026-01-25 01:29:20.11	2.01	7.99	-39.9	-54.4	3.8	1.49e+00	0	57	104	0	51	19129
2026-01-25 01:29:21.12	1.90	8.06	-39.9	-54.4	3.8	1.49e+00	0	57	104	0	51	19159
2026-01-25 01:29:22.13	1.80	8.12	-39.9	-54.5	3.8	1.49e+00	0	57	104	0	51	19255
2026-01-25 01:29:23.14	1.70	8.19	-40.0	-54.5	3.8	1.49e+00	0	57	104	0	51	19265
2026-01-25 01:29:24.15	1.60	8.25	-40.0	-54.5	3.8	1.49e+00	0	57	104	0	51	19356
2026-01-25 01:29:25.16	1.49	8.31	-40.1	-54.7	3.8	1.49e+00	0	58	104	0	51	19654
2026-01-25 01:29:26.17	1.39	8.38	-39.9	-54.5	3.8	1.49e+00	0	58	104	0	51	19216
2026-01-25 01:29:27.18	1.28	8.44	-40.0	-54.5	3.8	1.49e+00	0	58	104	0	51	19324
2026-01-25 01:29:28.19	1.18	8.51	-40.0	-54.5	3.8	1.49e+00	0	58	104	0	51	19348
2026-01-25 01:29:29.20	1.07	8.57	-40.0	-54.6	3.8	1.49e+00	0	58	104	0	51	19496
2026-01-25 01:29:30.21	0.97	8.64	-39.9	-54.4	3.8	1.49e+00	0	58	104	0	51	19122
2026-01-25 01:29:31.22	0.86	8.70	-40.0	-54.6	3.8	1.49e+00	0	58	104	0	51	19397
2026-01-25 01:29:32.23	0.75	8.77	-40.0	-54.5	3.8	1.49e+00	0	58	104	0	51	19286
2026-01-25 01:29:33.24	0.64	8.84	-40.0	-54.6	3.8	1.49e+00	0	58	104	0	51	19398
2026-01-25 01:29:34.25	0.54	8.90	-39.9	-54.4	3.8	1.49e+00	0	58	104	0	51	19162
2026-01-25 01:29:35.26	0.43	8.97	-40.0	-54.6	3.8	1.49e+00	0	58	104	0	51	19430
2026-01-25 01:29:36.27	0.32	9.03	-39.9	-54.5	3.8	1.49e+00	0	58	104	0	51	19185
2026-01-25 01:29:37.28	0.21	9.10	-40.0	-54.5	3.8	1.49e+00	0	58	104	0	51	19321
2026-01-25 01:29:38.29	0.10	9.16	-40.0	-54.5	3.8	1.49e+00	0	58	104	0	51	19270
2026-01-25 01:29:39.30	359.99	9.23	-40.0	-54.6	3.8	1.49e+00	0	58	104	0	51	19400
2026-01-25 01:29:40.31	359.88	9.29	-39.9	-54.5	3.8	1.49e+00	0	58	104	0	51	19254
2026-01-25 01:29:41.32	359.76	9.36	-40.0	-54.6	3.8	1.49e+00	0	58	104	0	51	19436
2026-01-25 01:29:42.33	359.65	9.43	-39.9	-54.5	3.8	1.49e+00	0	58	104	0	51	19199
2026-01-25 01:29:43.34	359.54	9.49	-40.0	-54.5	3.8	1.49e+00	0	58	104	0	51	19388
2026-01-25 01:29:44.35	359.43	9.56	-40.0	-54.5	3.8	1.49e+00	0	58	104	0	51	19271
2026-01-25 01:29:45.36	359.31	9.62	-40.0	-54.6	3.8	1.49e+00	0	58	104	0	51	19442
2026-01-25 01:29:46.37	359.20	9.69	-39.9	-54.5	3.8	1.49e+00	0	58	104	0	51	19226
2026-01-25 01:29:47.38	359.08	9.76	-40.0	-54.6	3.8	1.49e+00	0	58	104	0	51	19403
2026-01-25 01:29:48.39	358.97	9.82	-40.0	-54.5	3.8	1.49e+00	0	58	104	0	51	19310
2026-01-25 01:29:49.39	358.85	9.89	-40.0	-54.6	3.8	1.49e+00	0	58	104	0	51	19406
2026-01-25 01:29:50.40	358.74	9.95	-39.9	-54.4	3.8	1.49e+00	0	58	104	0	51	19146
2026-01-25 01:29:51.41	358.62	10.02	-40.0	-54.6	3.8	1.49e+00	0	58	104	0	51	19447
2026-01-25 01:29:52.42	358.50	10.09	-40.0	-54.6	3.8	1.49e+00	0	58	104	0	51	19418
2026-01-25 01:29:53.43	358.38	10.15	-40.0	-54.6	3.8	1.49e+00	0	58	104	0	51	19531
2026-01-25 01:29:54.44	358.26	10.22	-39.9	-54.5	3.8	1.49e+00	0	58	104	0	51	19168
2026-01-25 01:29:55.45	358.14	10.29	-40.1	-54.6	3.8	1.49e+00	0	58	104	0	51	19561
2026-01-25 01:29:56.46	358.02	10.35	-40.0	-54.6	3.8	1.49e+00	0	58	104	0	51	19537
2026-01-25 01:29:57.47	357.90	10.42	-40.1	-54.7	3.8	1.49e+00	0	58	104	0	51	19660
2026-01-25 01:29:58.48	357.78	10.49	-40.0	-54.5	3.8	1.49e+00	0	58	104	0	51	19334
2026-01-25 01:29:59.49	357.66	10.55	-40.2	-54.7	3.8	1.49e+00	0	59	104	0	51	19737
2026-01-25 01:30:00.50	357.54	10.62	-40.2	-54.7	3.8	1.49e+00	0	58	104	0	51	19759
2026-01-25 01:30:01.51	357.42	10.69	-40.2	-54.7	3.8	1.49e+00	0	58	104	0	51	19712
2026-01-25 01:30:02.51	357.29	10.76	-40.1	-54.6	3.8	1.49e+00	0	58	104	0	51	19567
2026-01-25 01:30:03.52	357.17	10.82	-40.2	-54.8	3.8	1.49e+00	0	59	104	0	51	19900
2026-01-25 01:30:04.53	357.05	10.89	-40.3	-54.8	3.8	1.49e+00	0	59	104	0	51	20054
2026-01-25 01:30:05.54	356.92	10.96	-40.2	-54.8	3.8	1.49e+00	0	59	104	0	51	19910
2026-01-25 01:30:06.55	356.80	11.02	-39.9	-54.5	3.8	1.49e+00	0	59	104	0	51	19269
2026-01-25 01:30:07.56	356.67	11.09	-39.9	-54.4	3.8	1.49e+00	0	59	104	0	51	19119
2026-01-25 01:30:08.57	356.54	11.16	-40.0	-54.5	3.8	1.49e+00	0	59	104	0	51	19257
2026-01-25 01:30:09.58	356.41	11.23	-40.0	-54.5	3.8	1.49e+00	0	59	104	0	51	19317
2026-01-25 01:30:10.59	356.29	11.29	-40.1	-54.5	3.8	1.49e+00	0	59	104	0	51	19384
2026-01-25 01:30:11.60	356.16	11.36	-40.5	-54.9	3.8	1.49e+00	0	59	104	0	51	20210
2026-01-25 01:30:12.61	356.03	11.43	-40.7	-55.1	3.8	1.49e+00	0	59	104	0	52	19403
2026-01-25 01:30:13.62	355.90	11.50	-40.4	-54.9	3.8	1.49e+00	0	59	104	0	52	19128
2026-01-25 01:30:14.63	355.77	11.56	-40.8	-55.2	3.8	1.49e+00	0	59	104	0	52	19835
2026-01-25 01:30:15.64	355.64	11.63	-40.4	-54.9	3.8	1.49e+00	0	59	104	0	52	19102
2026-01-25 01:30:16.65	355.50	11.70	-40.3	-54.8	3.8	1.49e+00	0	59	104	0	52	18817
2026-01-25 01:30:17.66	355.37	11.77	-40.2	-54.8	3.8	1.49e+00	0	59	104	0	52	18781
2026-01-25 01:30:18.67	355.24	11.84	-40.3	-54.8	3.8	1.49e+00	0	59	104	0	52	18802
2026-01-25 01:30:19.67	355.11	11.90	-40.2	-54.7	3.8	1.49e+00	0	59	104	0	52	18695
2026-01-25 01:30:20.69	354.97	11.97	-40.1	-54.7	3.8	1.49e+00	0	59	104	0	52	18559
2026-01-25 01:30:21.70	354.84	12.04	-40.2	-54.7	3.8	1.49e+00	0	59	104	0	52	18724
2026-01-25 01:30:22.71	354.70	12.11	-40.2	-54.8	3.8	1.49e+00	0	59	104	0	52	18758
2026-01-25 01:30:23.72	354.56	12.18	-40.5	-55.1	3.8	1.49e+00	0	59	104	0	52	19413
2026-01-25 01:30:24.72	354.43	12.24	-40.5	-55.0	3.8	1.49e+00	0	59	104	0	52	19326
2026-01-25 01:30:25.73	354.29	12.31	-40.6	-55.1	3.8	1.49e+00	0	59	104	0	52	19496
2026-01-25 01:30:26.74	354.15	12.38	-40.5	-55.1	3.8	1.49e+00	0	59	104	0	52	19497
2026-01-25 01:30:27.75	354.01	12.45	-40.3	-54.9	3.8	1.49e+00	0	59	104	0	52	19000
2026-01-25 01:30:28.76	353.88	12.51	-40.5	-55.0	3.8	1.49e+00	0	59	104	0	52	19304
2026-01-25 01:30:29.77	353.74	12.58	-40.5	-55.1	3.8	1.49e+00	0	59	104	0	52	19534
2026-01-25 01:30:30.78	353.59	12.65	-40.5	-55.1	3.8	1.49e+00	0	59	104	0	52	19444
2026-01-25 01:30:31.79	353.45	12.72	-40.4	-54.9	3.8	1.49e+00	0	59	104	0	52	19045
2026-01-25 01:30:32.80	353.31	12.79	-40.6	-55.1	3.8	1.49e+00	0	59	104	0	52	19609
2026-01-25 01:30:33.81	353.17	12.86	-40.5	-55.1	3.8	1.49e+00	0	59	104	0	52	19427
2026-01-25 01:30:34.82	353.02	12.92	-40.5	-55.1	3.8	1.49e+00	0	59	104	0	52	19390
2026-01-25 01:30:35.83	352.88	12.99	-40.5	-55.0	3.8	1.49e+00	0	59	104	0	52	19355
2026-01-25 01:30:36.84	352.74	13.06	-40.7	-55.2	3.8	1.49e+00	0	59	104	0	52	19766
2026-01-25 01:30:37.85	352.59	13.13	-40.5	-55.0	3.8	1.49e+00	0	59	104	0	52	19363
2026-01-25 01:30:38.86	352.44	13.20	-40.7	-55.2	3.8	1.49e+00	0	59	104	0	52	19818
2026-01-25 01:30:39.87	352.30	13.26	-40.6	-55.1	3.8	1.49e+00	0	59	104	0	52	19466
2026-01-25 01:30:40.88	352.15	13.33	-40.7	-55.2	3.8	1.49e+00	0	59	104	0	52	19742
2026-01-25 01:30:41.88	352.00	13.40	-40.7	-55.2	3.8	1.49e+00	0	59	104	0	52	19740
2026-01-25 01:30:42.89	351.85	13.47	-40.7	-55.2	3.8	1.49e+00	0	59	104	0	52	19781
2026-01-25 01:30:43.90	351.70	13.54	-40.5	-55.1	3.8	1.49e+00	0	59	104	0	52	19399
2026-01-25 01:30:44.91	351.55	13.61	-40.8	-55.2	3.8	1.49e+00	0	59	104	0	52	19742
2026-01-25 01:30:45.92	351.40	13.67	-40.8	-55.2	3.8	1.49e+00	0	59	104	0	52	19644
2026-01-25 01:30:46.93	351.25	13.74	-40.6	-55.2	3.8	1.49e+00	0	59	104	0	52	19625
2026-01-25 01:30:47.94	351.10	13.81	-40.8	-55.3	3.8	1.49e+00	0	60	104	0	52	20037
2026-01-25 01:30:48.95	350.94	13.88	-40.8	-55.3	3.8	1.49e+00	0	59	104	0	52	20051
2026-01-25 01:30:49.96	350.79	13.95	-40.7	-55.2	3.8	1.49e+00	0	59	104	0	52	19829
2026-01-25 01:30:50.97	350.64	14.01	-40.9	-55.4	3.8	1.49e+00	0	59	104	0	52	20233
2026-01-25 01:30:51.97	350.48	14.08	-40.9	-55.4	3.8	1.49e+00	0	60	104	0	52	20198
2026-01-25 01:30:52.98	350.33	14.15	-40.8	-55.4	3.8	1.49e+00	0	60	104	0	52	20096
2026-01-25 01:30:53.99	350.17	14.22	-40.8	-55.3	3.8	1.49e+00	0	59	104	0	52	20055
2026-01-25 01:30:55.00	350.01	14.29	-41.0	-55.5	3.8	1.49e+00	0	59	104	0	52	20526
2026-01-25 01:30:56.01	349.85	14.35	-40.8	-55.3	3.8	1.49e+00	0	59	104	0	52	20063
2026-01-25 01:30:57.02	349.69	14.42	-41.2	-55.7	3.8	1.49e+00	0	59	104	0	52	20954
2026-01-25 01:30:58.03	349.53	14.49	-40.8	-55.3	3.8	1.49e+00	0	60	104	0	52	19994
2026-01-25 01:30:59.04	349.37	14.56	-40.9	-55.5	3.8	1.49e+00	0	59	104	0	52	20434
2026-01-25 01:31:00.05	349.21	14.63	-41.0	-55.6	3.8	1.49e+00	0	60	104	0	52	20656
2026-01-25 01:31:01.04	349.05	14.69	-41.3	-55.9	3.8	1.49e+00	0	60	104	0	53	20073
2026-01-25 01:31:02.05	348.89	14.76	-40.8	-55.4	3.8	1.49e+00	0	60	104	0	53	18998
2026-01-25 01:31:03.06	348.73	14.83	-41.2	-55.7	3.8	1.49e+00	0	60	104	0	53	19739
2026-01-25 01:31:04.07	348.56	14.90	-41.2	-55.7	3.8	1.49e+00	0	60	104	0	53	19836
2026-01-25 01:31:05.08	348.40	14.96	-41.4	-55.9	3.8	1.49e+00	0	60	104	0	53	20292
2026-01-25 01:31:06.08	348.23	15.03	-41.2	-55.7	3.8	1.49e+00	0	60	104	0	53	19779
2026-01-25 01:31:07.10	348.06	15.10	-41.3	-55.8	3.8	1.49e+00	0	60	104	0	53	19953
2026-01-25 01:31:08.11	347.90	15.17	-41.3	-55.8	3.8	1.49e+00	0	60	104	0	53	19917
2026-01-25 01:31:09.12	347.73	15.23	-41.5	-56.0	3.8	1.49e+00	0	60	104	0	53	20354
2026-01-25 01:31:10.13	347.56	15.30	-41.3	-55.8	3.8	1.49e+00	0	60	104	0	53	20046
2026-01-25 01:31:11.14	347.39	15.37	-41.4	-55.8	3.8	1.49e+00	0	60	104	0	53	20027
2026-01-25 01:31:12.15	347.22	15.44	-41.4	-55.9	3.8	1.49e+00	0	60	104	0	53	20286
2026-01-25 01:31:13.16	347.05	15.50	-41.2	-55.7	3.8	1.49e+00	0	60	104	0	53	19799
2026-01-25 01:31:14.17	346.87	15.57	-41.4	-55.9	3.8	1.49e+00	0	60	104	0	53	20228
2026-01-25 01:31:15.18	346.70	15.64	-41.4	-55.9	3.8	1.49e+00	0	60	104	0	53	20158
2026-01-25 01:31:16.19	346.53	15.70	-41.3	-55.8	3.8	1.49e+00	0	60	104	0	53	19950
2026-01-25 01:31:17.20	346.35	15.77	-40.9	-55.4	3.8	1.49e+00	0	60	104	0	53	19107
2026-01-25 01:31:18.21	346.18	15.84	-41.4	-55.9	3.8	1.49e+00	0	60	104	0	53	20231
2026-01-25 01:31:19.22	346.00	15.90	-40.8	-55.3	3.8	1.49e+00	0	60	104	0	53	18891
2026-01-25 01:31:20.23	345.83	15.97	-40.7	-55.3	3.8	1.49e+00	0	60	104	0	53	18768
2026-01-25 01:31:21.23	345.65	16.04	-40.7	-55.3	3.8	1.49e+00	0	60	104	0	53	18844
2026-01-25 01:31:22.24	345.47	16.10	-40.6	-55.1	3.8	1.49e+00	0	60	104	0	53	18492
2026-01-25 01:31:23.26	345.29	16.17	-40.8	-55.3	3.8	1.49e+00	0	60	104	0	53	18860
2026-01-25 01:31:24.27	345.11	16.24	-40.9	-55.5	3.8	1.49e+00	0	60	104	0	53	19191
2026-01-25 01:31:25.27	344.93	16.30	-40.9	-55.5	3.8	1.49e+00	0	60	104	0	53	19198
2026-01-25 01:31:26.28	344.75	16.37	-41.0	-55.5	3.8	1.49e+00	0	60	104	0	53	19275
2026-01-25 01:31:27.30	344.56	16.43	-40.7	-55.2	3.8	1.49e+00	0	60	104	0	53	18590
2026-01-25 01:31:28.31	344.38	16.50	-40.7	-55.3	3.8	1.49e+00	0	60	104	0	53	18790
2026-01-25 01:31:29.32	344.20	16.57	-40.9	-55.4	3.8	1.49e+00	0	60	104	0	53	19073
2026-01-25 01:31:30.33	344.01	16.63	-40.7	-55.2	3.8	1.49e+00	0	60	104	0	53	18530
2026-01-25 01:31:31.34	343.83	16.70	-40.7	-55.2	3.8	1.49e+00	0	60	104	0	53	18538
2026-01-25 01:31:32.35	343.64	16.76	-40.8	-55.3	3.8	1.49e+00	0	60	104	0	53	18766
2026-01-25 01:31:33.36	343.45	16.83	-40.7	-55.2	3.8	1.49e+00	0	60	104	0	53	18589
2026-01-25 01:31:34.37	343.26	16.89	-40.6	-55.2	3.8	1.49e+00	0	60	104	0	53	18548
2026-01-25 01:31:35.38	343.07	16.96	-40.7	-55.2	3.8	1.49e+00	0	60	104	0	53	18725
2026-01-25 01:31:36.38	342.89	17.02	-40.6	-55.1	3.8	1.49e+00	0	60	104	0	53	18487
2026-01-25 01:31:37.39	342.70	17.08	-40.8	-55.3	3.8	1.49e+00	0	60	104	0	53	18755
2026-01-25 01:31:38.40	342.50	17.15	-40.5	-55.0	3.8	1.49e+00	0	60	104	0	53	18297
2026-01-25 01:31:39.42	342.31	17.21	-40.6	-55.2	3.8	1.49e+00	0	60	104	0	53	18533
2026-01-25 01:31:40.42	342.12	17.28	-40.8	-55.2	3.8	1.49e+00	0	60	104	0	53	18710
2026-01-25 01:31:41.43	341.92	17.34	-40.7	-55.2	3.8	1.49e+00	0	60	104	0	53	18584
2026-01-25 01:31:42.44	341.73	17.40	-40.5	-55.0	3.8	1.49e+00	0	60	104	0	53	18216
2026-01-25 01:31:43.45	341.53	17.47	-40.7	-55.2	3.8	1.49e+00	0	60	104	0	53	18616
2026-01-25 01:31:44.46	341.34	17.53	-40.7	-55.2	3.8	1.49e+00	0	60	104	0	53	18557
2026-01-25 01:31:45.47	341.14	17.59	-40.8	-55.4	3.8	1.49e+00	0	60	104	0	53	18955
2026-01-25 01:31:46.48	340.94	17.66	-40.8	-55.3	3.8	1.49e+00	0	60	104	0	53	18735
2026-01-25 01:31:47.49	340.74	17.72	-41.0	-55.5	3.8	1.49e+00	0	60	104	0	53	19204
2026-01-25 01:31:48.50	340.54	17.78	-40.8	-55.3	3.8	1.49e+00	0	60	104	0	53	18821
2026-01-25 01:31:49.51	340.34	17.84	-41.1	-55.5	3.8	1.49e+00	0	60	104	0	53	19342
2026-01-25 01:31:50.52	340.14	17.91	-41.4	-55.3	3.8	1.49e+00	0	60	104	0	53	18756
2026-01-25 01:31:51.53	339.94	17.97	-41.3	-55.0	3.8	1.49e+00	0	60	104	0	54	17168
2026-01-25 01:31:52.54	339.73	18.03	-41.1	-55.3	3.8	1.49e+00	0	60	104	0	54	17864
2026-01-25 01:31:53.55	339.53	18.09	-41.8	-51.9	4.6	1.49e+00	0	60	104	0	54	11957
2026-01-25 01:31:54.56	339.32	18.15	-42.1	-51.7	4.8	1.47e+00	0	60	0	0	55	11141
2026-01-25 01:31:55.57	339.12	18.21	-41.7	-48.9	6.8	2.15e-01	0	60	0	1048576	55	8066
2026-01-25 01:31:56.58	338.91	18.27	-41.7	-48.3	7.6	1.18e-01	0	60	0	3145728	55	7528
2026-01-25 01:31:57.59	338.70	18.33	-41.5	-47.4	8.5	6.66e-02	0	60	0	5242880	55	6788
2026-01-25 01:31:58.60	338.50	18.39	-41.3	-46.7	9.4	2.07e-02	0	60	0	7340032	54	6626
2026-01-25 01:31:59.61	338.29	18.45	-41.1	-46.1	10.0	1.23e-02	0	60	0	9437184	54	6195
2026-01-25 01:32:00.62	338.08	18.51	-40.9	-45.5	10.9	4.10e-03	0	60	0	10485760	53	6065
2026-01-25 01:32:01.62	337.87	18.57	-40.7	-45.0	11.4	1.48e-03	0	60	0	12582912	53	5787
2026-01-25 01:32:02.63	337.66	18.63	-40.9	-45.3	11.4	1.27e-03	0	60	0	14680064	53	5941
2026-01-25 01:32:03.64	337.44	18.69	-41.0	-45.2	11.5	1.07e-03	0	60	0	16777216	53	5911
2026-01-25 01:32:04.65	337.23	18.75	-40.5	-44.2	12.5	3.74e-04	0	60	0	18874368	53	5276
2026-01-25 01:32:05.66	337.01	18.81	-40.5	-44.0	13.0	4.42e-05	0	60	0	19922944	52	5454
2026-01-25 01:32:06.67	336.80	18.87	-40.7	-44.5	12.6	6.02e-05	0	60	0	22020096	52	5737
2026-01-25 01:32:07.68	336.58	18.92	-40.7	-44.3	12.8	6.86e-05	0	60	0	24117248	52	5624
2026-01-25 01:32:08.69	336.37	18.98	-40.8	-44.4	12.7	8.23e-05	0	60	0	26214400	52	5716
2026-01-25 01:32:09.70	336.15	19.04	-40.9	-44.7	12.4	1.20e-04	0	60	0	28311552	52	5907
2026-01-25 01:32:10.71	335.93	19.10	-41.0	-44.8	12.4	1.24e-04	0	60	0	29360128	52	5987
2026-01-25 01:32:11.72	335.71	19.15	-41.1	-45.1	12.2	2.09e-04	0	60	0	31457280	52	6157
2026-01-25 01:32:12.73	335.49	19.21	-41.1	-45.1	12.3	1.90e-04	0	61	0	33554432	52	6147
2026-01-25 01:32:13.74	335.27	19.27	-41.1	-45.0	12.3	1.29e-04	0	60	0	35651584	52	6115
2026-01-25 01:32:14.75	335.05	19.32	-41.0	-44.8	12.7	7.70e-05	0	61	0	37748736	52	5932
2026-01-25 01:32:15.75	334.83	19.38	-41.0	-44.7	12.8	7.62e-05	0	60	0	38797312	52	5869
2026-01-25 01:32:16.76	334.61	19.43	-41.1	-44.8	12.7	4.34e-05	0	60	0	40894464	52	5972
2026-01-25 01:32:17.77	334.38	19.49	-41.0	-44.7	12.8	4.34e-05	0	61	0	42991616	52	5899
2026-01-25 01:32:18.78	334.16	19.54	-41.1	-44.9	12.6	7.40e-05	0	60	0	45088768	52	6051
2026-01-25 01:32:19.79	333.93	19.59	-41.2	-45.0	12.5	1.14e-04	0	60	0	47185920	52	6110
2026-01-25 01:32:20.80	333.70	19.65	-41.3	-45.2	12.4	1.06e-04	0	60	0	49283072	53	5896
2026-01-25 01:32:21.81	333.48	19.70	-41.2	-45.0	12.5	1.04e-04	0	60	0	50331648	53	5782
2026-01-25 01:32:22.82	333.25	19.75	-41.1	-44.8	12.8	8.31e-05	0	60	0	52428800	53	5595
2026-01-25 01:32:23.83	333.02	19.81	-41.0	-44.6	13.1	3.81e-05	0	60	0	54525952	53	5469
2026-01-25 01:32:24.84	332.79	19.86	-40.8	-44.1	13.5	1.29e-05	0	61	0	56623104	53	5216
2026-01-25 01:32:25.85	332.56	19.91	-40.8	-44.1	13.6	1.14e-05	0	61	0	58720256	53	5160
2026-01-25 01:32:26.86	332.33	19.96	-40.8	-44.2	13.5	5.30e-06	0	61	0	59768832	53	5227
2026-01-25 01:32:27.86	332.10	20.01	-40.9	-44.2	13.4	1.29e-05	0	60	0	61865984	53	5263
2026-01-25 01:32:28.88	331.86	20.06	-40.9	-44.4	13.3	1.67e-05	0	61	0	63963136	53	5358
2026-01-25 01:32:29.88	331.63	20.11	-41.0	-44.6	13.1	2.21e-05	0	60	0	66060288	53	5475
2026-01-25 01:32:30.89	331.40	20.16	-41.0	-44.4	13.3	2.67e-05	0	60	0	68157440	53	5360
2026-01-25 01:32:31.90	331.16	20.21	-40.7	-43.9	13.8	3.00e-06	0	61	0	69206016	53	5076
2026-01-25 01:32:32.92	330.92	20.26	-40.7	-43.9	13.8	6.80e-06	0	60	0	71303168	53	5074
2026-01-25 01:32:33.92	330.69	20.31	-40.6	-43.6	14.0	3.80e-06	0	60	0	73400320	53	4920
2026-01-25 01:32:34.93	330.45	20.36	-40.4	-43.4	14.3	3.00e-06	0	61	0	75497472	52	5068
2026-01-25 01:32:35.94	330.21	20.41	-40.6	-43.6	14.1	2.20e-06	0	60	0	77594624	52	5191
2026-01-25 01:32:36.96	329.97	20.45	-40.7	-43.8	13.9	4.50e-06	0	61	0	78643200	52	5296
2026-01-25 01:32:37.96	329.73	20.50	-40.9	-44.1	13.6	6.10e-06	0	61	0	80740352	52	5520
2026-01-25 01:32:38.97	329.49	20.55	-41.0	-44.4	13.4	1.06e-05	0	60	0	82837504	52	5670
2026-01-25 01:32:39.98	329.25	20.59	-41.1	-44.5	13.2	1.90e-05	0	61	0	84934656	52	5762
2026-01-25 01:32:40.99	329.01	20.64	-41.0	-44.4	13.3	1.83e-05	0	61	0	87031808	52	5722
2026-01-25 01:32:42.00	328.77	20.68	-40.9	-44.1	13.6	1.14e-05	0	61	0	88080384	52	5521
2026-01-25 01:32:43.01	328.52	20.73	-40.8	-44.1	13.7	6.10e-06	0	61	0	90177536	52	5480
2026-01-25 01:32:44.02	328.28	20.77	-41.0	-44.3	13.5	7.60e-06	0	61	0	92274688	52	5595
2026-01-25 01:32:45.03	328.03	20.82	-40.9	-44.3	13.5	6.80e-06	0	60	0	94371840	52	5596
2026-01-25 01:32:46.04	327.79	20.86	-41.1	-44.4	13.4	1.06e-05	0	61	0	96468992	52	5710
2026-01-25 01:32:47.05	327.54	20.90	-41.1	-44.5	13.3	1.52e-05	0	61	0	97517568	52	5769
2026-01-25 01:32:48.06	327.30	20.95	-41.0	-44.3	13.4	1.37e-05	0	61	0	99614720	52	5614
2026-01-25 01:32:49.07	327.05	20.99	-41.0	-44.4	13.4	1.37e-05	0	61	0	101711872	52	5685
2026-01-25 01:32:50.08	326.80	21.03	-40.9	-44.1	13.6	2.28e-05	0	61	0	103809024	52	5528
2026-01-25 01:32:51.09	326.55	21.07	-40.9	-44.1	13.6	1.06e-05	0	60	0	105906176	52	5509
2026-01-25 01:32:52.10	326.30	21.11	-40.7	-43.8	13.9	2.20e-06	0	61	0	106954752	52	5328
2026-01-25 01:32:53.11	326.05	21.15	-40.7	-43.8	14.0	3.00e-06	0	61	0	109051904	52	5286
2026-01-25 01:32:54.12	325.80	21.19	-40.5	-43.5	14.3	7.00e-07	0	61	0	111149056	52	5117
2026-01-25 01:32:55.12	325.55	21.23	-40.5	-43.6	14.2	1.50e-06	0	60	0	113246208	52	5169
2026-01-25 01:32:56.13	325.30	21.26	-40.6	-43.7	14.1	2.20e-06	0	60	0	115343360	52	5220
2026-01-25 01:32:57.14	325.04	21.30	-40.6	-43.6	14.1	1.50e-06	0	60	0	116391936	52	5209
2026-01-25 01:32:58.15	324.79	21.34	-40.6	-43.7	14.0	2.20e-06	0	60	0	118489088	52	5244
2026-01-25 01:32:59.16	324.54	21.38	-40.6	-43.7	14.1	2.20e-06	0	61	0	120586240	52	5220
2026-01-25 01:33:00.17	324.28	21.41	-40.7	-43.7	14.1	2.20e-06	0	61	0	122683392	52	5258
2026-01-25 01:33:01.17	324.03	21.45	-40.5	-43.5	14.2	7.00e-07	0	61	0	124780544	52	5156
2026-01-25 01:33:02.18	323.77	21.48	-40.5	-43.5	14.3	1.50e-06	0	61	0	125829120	52	5104
2026-01-25 01:33:03.19	323.52	21.52	-40.5	-43.5	14.3	2.20e-06	0	61	0	127926272	52	5125
2026-01-25 01:33:04.20	323.26	21.55	-40.6	-43.7	14.1	7.00e-07	0	61	0	130023424	52	5224
2026-01-25 01:33:05.21	323.00	21.58	-40.7	-43.8	14.0	2.20e-06	0	61	0	132120576	52	5316
2026-01-25 01:33:06.22	322.74	21.62	-40.8	-43.9	13.8	3.80e-06	0	61	0	134217728	52	5402
2026-01-25 01:33:07.23	322.49	21.65	-41.0	-44.2	13.5	9.90e-06	0	61	0	135266304	52	5587
2026-01-25 01:33:08.24	322.23	21.68	-41.2	-44.6	13.2	2.05e-05	0	61	0	137363456	52	5836
2026-01-25 01:33:09.25	321.97	21.71	-41.4	-44.9	12.9	4.19e-05	0	61	0	139460608	53	5716
2026-01-25 01:33:10.25	321.71	21.74	-41.3	-44.8	12.9	6.17e-05	0	61	0	141557760	53	5643
2026-01-25 01:33:11.26	321.45	21.77	-41.4	-45.2	12.6	7.01e-05	0	61	0	143654912	53	5857
2026-01-25 01:33:12.27	321.19	21.80	-41.5	-45.3	12.4	1.05e-04	0	61	0	145752064	53	5953
2026-01-25 01:33:13.28	320.92	21.83	-41.7	-45.6	12.1	1.53e-04	0	61	0	146800640	53	6188
2026-01-25 01:33:14.29	320.66	21.86	-41.8	-45.7	12.0	3.46e-04	0	61	0	148897792	54	5923
2026-01-25 01:33:15.30	320.40	21.88	-41.9	-46.1	11.7	3.58e-04	0	61	0	150994944	54	6144
2026-01-25 01:33:16.31	320.14	21.91	-41.9	-46.1	11.6	6.19e-04	0	61	0	153092096	54	6159
2026-01-25 01:33:17.33	319.87	21.94	-41.9	-46.1	11.6	6.32e-04	0	60	0	155189248	54	6143
2026-01-25 01:33:18.33	319.61	21.96	-41.8	-45.9	11.9	5.92e-04	0	61	0	156237824	54	5996
2026-01-25 01:33:19.34	319.34	21.99	-41.8	-45.8	11.9	3.85e-04	0	61	0	158334976	54	5949
2026-01-25 01:33:20.35	319.08	22.01	-41.7	-45.7	12.0	2.66e-04	0	61	0	160432128	54	5906
2026-01-25 01:33:21.36	318.81	22.03	-41.6	-45.5	12.2	1.66e-04	0	61	0	162529280	54	5764
2026-01-25 01:33:22.37	318.55	22.06	-41.5	-45.2	12.5	1.05e-04	0	61	0	164626432	54	5565
2026-01-25 01:33:23.38	318.28	22.08	-41.4	-45.1	12.6	9.61e-05	0	61	0	165675008	54	5496
2026-01-25 01:33:24.39	318.01	22.10	-41.6	-45.4	12.4	9.99e-05	0	61	0	167772160	54	5685
2026-01-25 01:33:25.40	317.75	22.12	-41.6	-45.5	12.3	1.57e-04	0	61	0	169869312	54	5746
2026-01-25 01:33:26.41	317.48	22.14	-41.6	-45.6	12.2	2.62e-04	0	61	0	171966464	54	5796
2026-01-25 01:33:27.42	317.21	22.16	-41.7	-45.8	11.9	2.26e-04	0	61	0	174063616	54	5968
2026-01-25 01:33:28.43	316.94	22.18	-41.8	-46.0	11.7	3.29e-04	0	61	0	175112192	54	6089
2026-01-25 01:33:29.44	316.68	22.20	-41.7	-45.7	12.0	4.48e-04	0	61	0	177209344	54	5897
2026-01-25 01:33:30.45	316.41	22.22	-41.8	-45.9	11.8	4.42e-04	0	61	0	179306496	54	6057
2026-01-25 01:33:31.46	316.14	22.23	-41.7	-45.8	11.9	4.86e-04	0	61	0	181403648	54	5965
2026-01-25 01:33:32.46	315.87	22.25	-41.6	-45.6	12.1	3.39e-04	0	61	0	183500800	54	5835
2026-01-25 01:33:33.48	315.60	22.27	-41.6	-45.5	12.3	2.31e-04	0	61	0	184549376	54	5732
2026-01-25 01:33:34.49	315.33	22.28	-41.6	-45.4	12.3	1.24e-04	0	61	0	186646528	54	5704
2026-01-25 01:33:35.49	315.06	22.30	-41.7	-45.6	12.4	1.25e-04	0	61	0	188743680	54	5819
2026-01-25 01:33:36.50	314.79	22.31	-41.7	-45.6	12.1	1.90e-04	0	61	0	190840832	54	5840
2026-01-25 01:33:37.51	314.52	22.32	-41.8	-45.9	11.9	4.20e-04	0	61	0	192937984	54	6032
2026-01-25 01:33:38.52	314.25	22.33	-41.9	-46.1	11.7	6.70e-04	0	61	0	193986560	54	6141
2026-01-25 01:33:39.53	313.98	22.35	-41.9	-46.2	11.5	8.70e-04	0	61	0	196083712	54	6230
2026-01-25 01:33:40.54	313.71	22.36	-41.8	-46.0	11.7	7.50e-04	0	61	0	198180864	54	6108
2026-01-25 01:33:41.55	313.44	22.37	-41.7	-45.7	12.0	4.42e-04	0	61	0	200278016	54	5912
2026-01-25 01:33:42.56	313.16	22.38	-41.6	-45.5	12.2	3.41e-04	0	61	0	202375168	54	5787
2026-01-25 01:33:43.57	312.89	22.39	-41.6	-45.5	12.2	2.58e-04	0	61	0	203423744	54	5781
2026-01-25 01:33:44.58	312.62	22.39	-41.6	-45.5	12.2	3.25e-04	0	61	0	205520896	54	5770
2026-01-25 01:33:45.58	312.35	22.40	-41.8	-45.9	11.8	3.33e-04	0	61	0	207618048	54	6059
2026-01-25 01:33:46.60	312.08	22.41	-42.0	-46.5	11.2	1.21e-03	0	61	0	209715200	54	6425
2026-01-25 01:33:47.61	311.80	22.42	-42.3	-47.1	10.6	2.24e-03	0	61	0	211812352	55	6556
2026-01-25 01:33:48.62	311.53	22.42	-42.4	-47.5	10.3	3.82e-03	0	61	0	213909504	55	6813
2026-01-25 01:33:49.63	311.26	22.43	-42.5	-47.7	10.0	7.29e-03	0	61	0	214958080	55	6986
2026-01-25 01:33:50.64	310.98	22.43	-42.6	-48.0	9.7	1.16e-02	0	61	0	217055232	55	7224
2026-01-25 01:33:51.65	310.71	22.43	-42.5	-47.6	10.0	1.16e-02	0	61	0	219152384	55	6934
2026-01-25 01:33:52.66	310.44	22.44	-42.5	-47.6	10.0	7.94e-03	0	61	0	221249536	55	6959
2026-01-25 01:33:53.67	310.17	22.44	-42.3	-47.1	10.6	4.81e-03	0	61	0	223346688	55	6522
2026-01-25 01:33:54.68	309.89	22.44	-42.2	-46.9	10.7	2.35e-03	0	61	0	224395264	55	6413
2026-01-25 01:33:55.68	309.62	22.44	-41.9	-46.3	11.3	1.68e-03	0	61	0	226492416	55	5990
2026-01-25 01:33:56.69	309.35	22.44	-41.7	-45.9	11.8	9.02e-04	0	61	0	228589568	55	5695
2026-01-25 01:33:57.70	309.08	22.44	-41.5	-45.4	12.3	3.68e-04	0	61	0	230686720	55	5381
2026-01-25 01:33:58.71	308.80	22.44	-41.4	-45.2	12.5	1.84e-04	0	61	0	232783872	54	5569
2026-01-25 01:33:59.72	308.53	22.44	-41.5	-45.3	12.4	1.10e-04	0	61	0	233832448	54	5631
2026-01-25 01:34:00.73	308.26	22.43	-41.4	-45.3	12.4	1.12e-04	0	61	0	235929600	54	5618
2026-01-25 01:34:01.74	307.99	22.43	-41.5	-45.3	12.4	1.17e-04	0	61	0	238026752	54	5649
2026-01-25 01:34:02.75	307.71	22.43	-41.4	-45.3	12.4	1.79e-04	0	61	0	240123904	54	5644
2026-01-25 01:34:03.76	307.44	22.42	-41.6	-45.6	12.2	2.23e-04	0	61	0	242221056	54	5818
2026-01-25 01:34:04.77	307.17	22.41	-41.4	-45.2	12.4	1.79e-04	0	61	0	243269632	54	5560
2026-01-25 01:34:05.78	306.90	22.41	-41.3	-45.0	12.8	8.01e-05	0	61	0	245366784	54	5431
2026-01-25 01:34:06.79	306.62	22.40	-41.3	-44.9	12.8	6.02e-05	0	61	0	247463936	54	5401
2026-01-25 01:34:07.80	306.35	22.39	-41.3	-45.0	12.8	4.34e-05	0	61	0	249561088	54	5422
2026-01-25 01:34:08.81	306.08	22.39	-41.3	-45.0	12.7	8.46e-05	0	61	0	251658240	54	5458
2026-01-25 01:34:09.82	305.81	22.38	-41.4	-45.3	12.4	1.23e-04	0	61	0	252706816	54	5613
2026-01-25 01:34:10.83	305.53	22.37	-41.4	-45.3	12.4	1.50e-04	0	61	0	254803968	54	5599
2026-01-25 01:34:11.84	305.26	22.36	-41.5	-45.5	12.3	1.40e-04	0	61	0	256901120	54	5724
2026-01-25 01:34:12.85	304.99	22.35	-41.6	-45.5	12.2	1.98e-04	0	61	0	258998272	54	5777
2026-01-25 01:34:13.86	304.72	22.33	-41.6	-45.6	12.1	1.60e-04	0	61	0	261095424	54	5820
2026-01-25 01:34:14.87	304.45	22.32	-41.5	-45.4	12.3	1.75e-04	0	61	0	262144000	54	5722
2026-01-25 01:34:15.87	304.18	22.31	-41.6	-45.6	12.1	1.40e-04	0	61	0	264241152	54	5838
2026-01-25 01:34:16.88	303.91	22.29	-41.4	-45.1	12.7	9.61e-05	0	61	0	266338304	54	5474
2026-01-25 01:34:17.89	303.64	22.28	-41.2	-44.8	13.0	6.71e-05	0	61	0	268435456	54	5311
2026-01-25 01:34:18.91	303.37	22.26	-41.1	-44.6	13.1	3.20e-05	0	61	0	270532608	54	5196
2026-01-25 01:34:19.91	303.10	22.25	-41.1	-44.6	13.2	1.75e-05	0	61	0	271581184	54	5213
2026-01-25 01:34:20.92	302.83	22.23	-41.3	-45.0	12.9	3.35e-05	0	61	0	273678336	54	5405
2026-01-25 01:34:21.93	302.56	22.22	-41.4	-45.1	12.7	6.10e-05	0	61	0	275775488	54	5486
2026-01-25 01:34:22.94	302.29	22.20	-41.3	-45.0	12.8	4.50e-05	0	61	0	277872640	54	5418
2026-01-25 01:34:23.95	302.02	22.18	-41.2	-44.8	13.0	4.04e-05	0	61	0	279969792	54	5299
2026-01-25 01:34:24.96	301.76	22.16	-41.0	-44.3	13.5	1.52e-05	0	61	0	282066944	54	5003
2026-01-25 01:34:25.97	301.49	22.14	-40.8	-43.9	13.9	2.20e-06	0	61	0	283115520	53	5082
2026-01-25 01:34:26.98	301.22	22.12	-40.8	-43.9	13.9	6.10e-06	0	61	0	285212672	53	5078
2026-01-25 01:34:27.99	300.95	22.10	-40.8	-44.0	13.8	3.80e-06	0	61	0	287309824	53	5141
2026-01-25 01:34:29.00	300.69	22.08	-41.1	-44.4	13.4	9.10e-06	0	61	0	289406976	53	5365
2026-01-25 01:34:30.01	300.42	22.05	-41.0	-44.1	13.7	7.60e-06	0	61	0	291504128	53	5216
2026-01-25 01:34:31.02	300.15	22.03	-40.9	-44.1	13.7	7.60e-06	0	61	0	292552704	53	5173
2026-01-25 01:34:32.03	299.89	22.01	-40.9	-44.0	13.9	5.30e-06	0	61	0	294649856	53	5101
2026-01-25 01:34:33.04	299.62	21.98	-40.7	-43.7	14.1	7.00e-07	0	61	0	296747008	53	4957
2026-01-25 01:34:34.05	299.36	21.96	-40.7	-43.7	14.1	7.00e-07	0	61	0	298844160	53	4977
2026-01-25 01:34:35.06	299.09	21.93	-40.7	-43.7	14.1	0.00e+00	0	61	0	300941312	53	4935
2026-01-25 01:34:36.07	298.83	21.91	-40.7	-43.7	14.1	7.00e-07	0	61	0	301989888	53	4976
2026-01-25 01:34:37.08	298.56	21.88	-40.6	-43.6	14.2	1.50e-06	0	61	0	304087040	53	4900
2026-01-25 01:34:38.09	298.30	21.85	-40.7	-43.8	14.1	0.00e+00	0	61	0	306184192	53	4992
2026-01-25 01:34:39.10	298.04	21.83	-40.8	-43.9	14.0	7.00e-07	0	61	0	308281344	53	5043
2026-01-25 01:34:40.11	297.78	21.80	-40.9	-44.0	13.8	4.50e-06	0	61	0	310378496	53	5108
2026-01-25 01:34:41.12	297.51	21.77	-40.9	-44.1	13.7	2.20e-06	0	61	0	311427072	53	5176
2026-01-25 01:34:42.13	297.25	21.74	-40.9	-44.1	13.7	6.10e-06	0	61	0	313524224	53	5200
2026-01-25 01:34:43.14	296.99	21.71	-40.9	-44.0	13.8	5.30e-06	0	61	0	315621376	53	5126
2026-01-25 01:34:44.14	296.73	21.68	-40.8	-43.9	13.9	2.20e-06	0	61	0	317718528	53	5094
2026-01-25 01:34:45.15	296.47	21.65	-40.7	-43.7	14.2	3.00e-06	0	61	0	319815680	53	4937
2026-01-25 01:34:46.16	296.22	21.61	-40.6	-43.5	14.3	2.20e-06	0	61	0	320864256	53	4852
2026-01-25 01:34:47.17	295.96	21.58	-40.6	-43.5	14.3	7.00e-07	0	61	0	322961408	53	4866
2026-01-25 01:34:48.18	295.70	21.55	-40.5	-43.4	14.5	0.00e+00	0	61	0	325058560	52	5062
2026-01-25 01:34:49.19	295.44	21.51	-40.6	-43.5	14.3	0.00e+00	0	61	0	327155712	52	5150
2026-01-25 01:34:50.20	295.18	21.48	-40.6	-43.5	14.4	1.50e-06	0	61	0	329252864	52	5108
2026-01-25 01:34:51.21	294.93	21.44	-40.6	-43.5	14.3	0.00e+00	0	61	0	330301440	52	5139
2026-01-25 01:34:52.22	294.67	21.41	-40.8	-43.8	14.0	3.80e-06	0	61	0	332398592	52	5310
2026-01-25 01:34:53.23	294.42	21.37	-40.9	-44.1	13.7	3.00e-06	0	61	0	334495744	52	5475
2026-01-25 01:34:54.24	294.16	21.34	-41.1	-44.5	13.3	1.06e-05	0	61	0	336592896	52	5732
2026-01-25 01:34:55.25	293.91	21.30	-41.3	-44.7	13.0	2.28e-05	0	61	0	338690048	53	5573
2026-01-25 01:34:56.26	293.65	21.26	-41.3	-44.8	13.0	6.48e-05	0	61	0	339738624	53	5631
2026-01-25 01:34:57.27	293.40	21.22	-41.3	-44.8	13.0	6.17e-05	0	61	0	341835776	53	5635
2026-01-25 01:34:58.28	293.15	21.18	-41.2	-44.6	13.2	3.58e-05	0	61	0	343932928	53	5484
2026-01-25 01:34:59.29	292.90	21.14	-41.2	-44.5	13.3	2.74e-05	0	61	0	346030080	53	5454
2026-01-25 01:35:00.30	292.65	21.10	-41.1	-44.5	13.3	2.74e-05	0	61	0	348127232	53	5414
2026-01-25 01:35:01.30	292.40	21.06	-41.1	-44.4	13.4	1.90e-05	0	61	0	350224384	53	5360
2026-01-25 01:35:02.31	292.15	21.02	-41.3	-44.7	13.1	2.36e-05	0	61	0	351272960	53	5543
2026-01-25 01:35:03.33	291.90	20.98	-41.4	-44.9	12.9	3.28e-05	0	61	0	353370112	53	5691
2026-01-25 01:35:04.33	291.65	20.94	-41.6	-45.3	12.5	1.06e-04	0	61	0	355467264	53	5964
2026-01-25 01:35:05.34	291.41	20.90	-41.6	-45.4	12.4	1.28e-04	0	61	0	357564416	53	6026
2026-01-25 01:35:06.35	291.16	20.85	-41.7	-45.6	12.2	2.23e-04	0	61	0	359661568	54	5815
2026-01-25 01:35:07.36	290.91	20.81	-41.9	-46.0	11.8	4.40e-04	0	61	0	360710144	54	6070
2026-01-25 01:35:08.37	290.67	20.77	-42.0	-46.1	11.6	5.46e-04	0	61	0	362807296	54	6157
2026-01-25 01:35:09.38	290.42	20.72	-42.0	-46.2	11.5	5.77e-04	0	61	0	364904448	54	6270
2026-01-25 01:35:10.39	290.18	20.68	-42.1	-46.3	11.4	9.26e-04	0	61	0	367001600	54	6338
2026-01-25 01:35:11.40	289.94	20.63	-42.1	-46.3	11.4	1.01e-03	0	61	0	369098752	54	6337
2026-01-25 01:35:12.41	289.69	20.59	-42.0	-46.1	11.7	7.02e-04	0	61	0	370147328	54	6172
2026-01-25 01:35:13.42	289.45	20.54	-42.0	-46.1	11.7	6.34e-04	0	61	0	372244480	54	6154
2026-01-25 01:35:14.43	289.21	20.49	-41.9	-45.9	11.9	4.55e-04	0	61	0	374341632	54	5996
2026-01-25 01:35:15.44	288.97	20.45	-41.8	-45.6	12.2	2.44e-04	0	61	0	376438784	54	5827
2026-01-25 01:35:16.45	288.73	20.40	-41.6	-45.3	12.4	1.52e-04	0	61	0	378535936	54	5655
2026-01-25 01:35:17.46	288.49	20.35	-41.7	-45.4	12.3	1.89e-04	0	61	0	379584512	54	5712
2026-01-25 01:35:18.47	288.25	20.30	-41.7	-45.5	12.3	1.87e-04	0	61	0	381681664	54	5743
2026-01-25 01:35:19.48	288.01	20.25	-41.7	-45.6	12.1	1.93e-04	0	61	0	383778816	54	5820
2026-01-25 01:35:20.49	287.78	20.21	-41.9	-45.9	11.8	3.23e-04	0	61	0	385875968	54	6022
2026-01-25 01:35:21.50	287.54	20.16	-41.9	-45.8	12.0	3.52e-04	0	61	0	387973120	54	5962
2026-01-25 01:35:22.51	287.31	20.11	-41.8	-45.7	12.0	3.02e-04	0	61	0	389021696	54	5894
2026-01-25 01:35:23.52	287.07	20.06	-41.8	-45.6	12.1	3.39e-04	0	61	0	391118848	54	5845
2026-01-25 01:35:24.53	286.84	20.00	-41.5	-45.2	12.6	1.27e-04	0	61	0	393216000	54	5541
2026-01-25 01:35:25.54	286.61	19.95	-41.5	-45.1	12.7	7.17e-05	0	61	0	395313152	54	5494
2026-01-25 01:35:26.55	286.37	19.90	-41.4	-44.9	12.9	5.11e-05	0	61	0	397410304	54	5348
2026-01-25 01:35:27.56	286.14	19.85	-41.2	-44.5	13.3	2.44e-05	0	61	0	398458880	54	5105
2026-01-25 01:35:28.57	285.91	19.80	-41.2	-44.5	13.2	1.90e-05	0	61	0	400556032	54	5117
2026-01-25 01:35:29.58	285.68	19.74	-41.0	-44.2	13.6	1.75e-05	0	61	0	402653184	54	4950
2026-01-25 01:35:30.59	285.45	19.69	-41.0	-44.3	13.5	5.30e-06	0	61	0	404750336	53	5292
2026-01-25 01:35:31.60	285.23	19.64	-41.1	-44.3	13.4	1.06e-05	0	61	0	406847488	53	5331
2026-01-25 01:35:32.60	285.00	19.58	-41.2	-44.5	13.2	9.10e-06	0	61	0	407896064	53	5455
2026-01-25 01:35:33.61	284.77	19.53	-41.2	-44.7	13.1	3.50e-05	0	61	0	409993216	53	5535
2026-01-25 01:35:34.62	284.55	19.48	-41.4	-44.9	12.8	4.88e-05	0	61	0	412090368	53	5693
2026-01-25 01:35:35.63	284.32	19.42	-41.6	-45.3	12.4	7.40e-05	0	61	0	414187520	53	5959
2026-01-25 01:35:36.64	284.10	19.37	-41.8	-45.8	11.8	3.17e-04	0	61	0	416284672	54	5982
2026-01-25 01:35:37.65	283.88	19.31	-42.1	-46.4	11.3	8.79e-04	0	61	0	418381824	54	6388
2026-01-25 01:35:38.66	283.65	19.25	-42.2	-46.6	11.1	1.57e-03	0	61	0	419430400	54	6505
2026-01-25 01:35:39.67	283.43	19.20	-42.2	-46.8	10.8	2.48e-03	0	61	0	421527552	55	6307
2026-01-25 01:35:40.68	283.21	19.14	-42.3	-46.8	10.8	2.96e-03	0	61	0	423624704	55	6327
2026-01-25 01:35:41.68	282.99	19.09	-42.2	-46.6	11.0	2.69e-03	0	61	0	425721856	55	6163
2026-01-25 01:35:42.69	282.77	19.03	-42.2	-46.6	11.0	1.65e-03	0	61	0	427819008	55	6173
2026-01-25 01:35:43.71	282.55	18.97	-42.3	-47.0	10.6	1.68e-03	0	62	0	428867584	55	6476
2026-01-25 01:35:44.71	282.34	18.91	-42.3	-47.0	10.6	3.11e-03	0	61	0	430964736	55	6445
2026-01-25 01:35:45.72	282.12	18.85	-42.5	-47.6	10.0	5.26e-03	0	61	0	433061888	55	6911
2026-01-25 01:35:46.73	281.91	18.80	-42.9	-48.3	9.5	1.66e-02	0	61	0	435159040	56	7066
2026-01-25 01:35:47.74	281.69	18.74	-43.0	-48.8	9.0	2.51e-02	0	61	0	436207616	56	7464
2026-01-25 01:35:48.75	281.48	18.68	-43.1	-48.9	8.8	3.42e-02	0	61	0	438304768	56	7582
2026-01-25 01:35:49.76	281.26	18.62	-43.1	-48.9	8.8	2.73e-02	0	61	0	440401920	56	7620
2026-01-25 01:35:50.77	281.05	18.56	-43.0	-48.8	8.9	3.14e-02	0	61	0	442499072	56	7462
2026-01-25 01:35:51.78	280.84	18.50	-42.8	-48.0	9.7	2.00e-02	0	61	0	444596224	56	6845
2026-01-25 01:35:52.79	280.63	18.44	-42.5	-47.2	10.5	8.41e-03	0	61	0	446693376	56	6265
2026-01-25 01:35:53.80	280.42	18.38	-42.3	-46.8	11.0	2.44e-03	0	61	0	447741952	56	5962
2026-01-25 01:35:54.81	280.21	18.32	-42.1	-46.2	11.5	1.70e-03	0	61	0	449839104	56	5592
2026-01-25 01:35:55.82	280.00	18.26	-41.7	-45.5	12.1	4.30e-04	0	61	0	451936256	55	5451
2026-01-25 01:35:56.83	279.79	18.20	-41.5	-45.2	12.6	1.52e-04	0	61	0	454033408	54	5534
2026-01-25 01:35:57.84	279.59	18.14	-41.4	-45.0	12.7	1.04e-04	0	61	0	456130560	54	5446
2026-01-25 01:35:58.84	279.38	18.08	-41.3	-44.8	12.9	5.72e-05	0	61	0	457179136	54	5291
2026-01-25 01:35:59.85	279.18	18.01	-41.3	-44.8	12.8	3.81e-05	0	61	0	459276288	54	5326
2026-01-25 01:36:00.86	278.97	17.95	-41.3	-44.8	12.8	4.19e-05	0	61	0	461373440	54	5323
2026-01-25 01:36:01.87	278.77	17.89	-41.4	-45.0	12.7	6.02e-05	0	61	0	463470592	54	5408
2026-01-25 01:36:02.88	278.57	17.83	-41.4	-45.0	12.6	7.17e-05	0	61	0	465567744	54	5459
2026-01-25 01:36:03.89	278.37	17.77	-41.6	-45.3	12.3	1.22e-04	0	61	0	466616320	54	5645
2026-01-25 01:36:04.90	278.17	17.70	-41.5	-45.3	12.4	1.78e-04	0	61	0	468713472	54	5608
2026-01-25 01:36:05.91	277.97	17.64	-41.6	-45.4	12.2	2.16e-04	0	62	0	470810624	54	5680
2026-01-25 01:36:06.92	277.77	17.58	-41.5	-45.3	12.3	1.64e-04	0	61	0	472907776	54	5646
2026-01-25 01:36:07.93	277.57	17.51	-41.5	-45.2	12.4	1.23e-04	0	61	0	475004928	54	5572
2026-01-25 01:36:08.94	277.37	17.45	-41.3	-44.9	12.7	1.27e-04	0	61	0	476053504	54	5358
2026-01-25 01:36:09.95	277.18	17.39	-41.3	-44.9	12.8	7.17e-05	0	61	0	478150656	54	5362
2026-01-25 01:36:10.96	276.98	17.32	-41.4	-44.9	12.7	1.09e-04	0	61	0	480247808	54	5393
2026-01-25 01:36:11.97	276.78	17.26	-41.5	-45.2	12.5	7.78e-05	0	61	0	482344960	54	5545
2026-01-25 01:36:12.98	276.59	17.20	-41.6	-45.5	12.2	1.81e-04	0	61	0	484442112	54	5736
2026-01-25 01:36:13.99	276.40	17.13	-41.8	-46.0	11.6	3.73e-04	0	61	0	486539264	54	6089
2026-01-25 01:36:15.00	276.20	17.07	-42.0	-46.4	11.2	9.67e-04	0	61	0	487587840	54	6382
2026-01-25 01:36:16.01	276.01	17.00	-42.2	-46.8	10.8	1.94e-03	0	62	0	489684992	54	6681
2026-01-25 01:36:17.02	275.82	16.94	-42.4	-47.2	10.3	3.89e-03	0	61	0	491782144	55	6595
2026-01-25 01:36:18.03	275.63	16.87	-42.4	-47.3	10.2	5.02e-03	0	62	0	493879296	55	6663
2026-01-25 01:36:19.04	275.44	16.81	-42.4	-47.2	10.3	5.33e-03	0	61	0	494927872	55	6642
2026-01-25 01:36:20.05	275.26	16.74	-42.2	-46.7	10.7	4.47e-03	0	61	0	497025024	55	6270
2026-01-25 01:36:21.06	275.07	16.68	-42.2	-46.9	10.6	2.88e-03	0	61	0	499122176	55	6373
2026-01-25 01:36:22.07	274.88	16.61	-42.0	-46.3	11.2	1.69e-03	0	61	0	501219328	55	5988
2026-01-25 01:36:23.08	274.70	16.55	-41.8	-45.9	11.7	8.35e-04	0	62	0	503316480	55	5681
2026-01-25 01:36:24.09	274.51	16.48	-41.7	-45.7	11.8	6.00e-04	0	61	0	504365056	55	5553
2026-01-25 01:36:25.10	274.33	16.41	-41.7	-45.8	11.8	5.10e-04	0	61	0	506462208	55	5611
2026-01-25 01:36:26.11	274.14	16.35	-41.7	-45.8	11.8	6.35e-04	0	61	0	508559360	55	5595
2026-01-25 01:36:27.12	273.96	16.28	-41.7	-45.6	11.9	3.76e-04	0	61	0	510656512	55	5515
2026-01-25 01:36:28.13	273.78	16.21	-41.6	-45.6	12.0	3.38e-04	0	61	0	512753664	55	5470
2026-01-25 01:36:29.14	273.60	16.15	-41.5	-45.4	12.2	2.30e-04	0	61	0	514850816	54	5661
2026-01-25 01:36:30.15	273.42	16.08	-41.5	-45.3	12.3	2.30e-04	0	61	0	515899392	54	5607
2026-01-25 01:36:31.16	273.24	16.02	-41.5	-45.3	12.3	1.54e-04	0	61	0	517996544	54	5603
2026-01-25 01:36:32.17	273.06	15.95	-41.5	-45.4	12.2	2.41e-04	0	61	0	520093696	54	5680
2026-01-25 01:36:33.18	272.88	15.88	-41.6	-45.6	12.0	2.88e-04	0	61	0	522190848	54	5789
2026-01-25 01:36:34.19	272.70	15.82	-41.9	-46.1	11.5	4.26e-04	0	61	0	524288000	54	6185
2026-01-25 01:36:35.20	272.53	15.75	-42.0	-46.3	11.3	1.09e-03	0	61	0	525336576	54	6315
2026-01-25 01:36:36.21	272.35	15.68	-42.1	-46.6	10.9	1.70e-03	0	61	0	527433728	54	6510
2026-01-25 01:36:37.22	272.18	15.61	-42.1	-46.6	10.9	2.29e-03	0	61	0	529530880	54	6523
2026-01-25 01:36:38.23	272.00	15.55	-42.0	-46.5	11.0	1.93e-03	0	61	0	531628032	54	6461
2026-01-25 01:36:39.23	271.83	15.48	-41.9	-46.3	11.3	1.24e-03	0	61	0	533725184	54	6282
2026-01-25 01:36:40.24	271.66	15.41	-41.7	-45.8	11.7	8.48e-04	0	61	0	534773760	54	5989
2026-01-25 01:36:41.25	271.49	15.35	-41.7	-45.7	11.8	4.39e-04	0	61	0	536870912	54	5896
2026-01-25 01:36:42.26	271.32	15.28	-41.6	-45.5	12.1	3.95e-04	0	61	0	538968064	54	5750
2026-01-25 01:36:43.27	271.15	15.21	-41.6	-45.6	11.9	3.23e-04	0	62	0	541065216	54	5803
2026-01-25 01:36:44.28	270.98	15.14	-41.7	-45.7	11.8	4.47e-04	0	61	0	543162368	54	5901
2026-01-25 01:36:45.29	270.81	15.07	-41.7	-45.8	11.7	3.95e-04	0	61	0	544210944	54	5944
2026-01-25 01:36:46.30	270.64	15.01	-41.7	-45.9	11.6	5.28e-04	0	61	0	546308096	54	6000
2026-01-25 01:36:47.31	270.48	14.94	-41.8	-45.9	11.6	6.97e-04	0	61	0	548405248	54	6039
2026-01-25 01:36:48.31	270.31	14.87	-41.8	-46.0	11.5	8.96e-04	0	61	0	550502400	54	6077
2026-01-25 01:36:49.32	270.15	14.80	-41.8	-46.0	11.5	9.06e-04	0	61	0	552599552	54	6107
2026-01-25 01:36:50.33	269.98	14.74	-41.8	-46.0	11.5	8.27e-04	0	61	0	553648128	54	6105
2026-01-25 01:36:51.34	269.82	14.67	-41.8	-46.0	11.5	8.73e-04	0	61	0	555745280	54	6071
2026-01-25 01:36:52.35	269.66	14.60	-41.7	-45.8	11.7	7.68e-04	0	61	0	557842432	54	5955
2026-01-25 01:36:53.36	269.49	14.53	-41.7	-45.7	11.7	6.03e-04	0	61	0	559939584	54	5920
2026-01-25 01:36:54.37	269.33	14.46	-41.5	-45.4	12.0	3.89e-04	0	61	0	562036736	54	5718
2026-01-25 01:36:55.38	269.17	14.40	-41.3	-45.0	12.5	1.64e-04	0	61	0	563085312	54	5463
2026-01-25 01:36:56.39	269.01	14.33	-41.3	-45.0	12.5	1.13e-04	0	61	0	565182464	54	5432
2026-01-25 01:36:57.40	268.85	14.26	-41.2	-44.8	12.7	7.85e-05	0	61	0	567279616	54	5320
2026-01-25 01:36:58.41	268.69	14.19	-41.1	-44.6	12.8	6.02e-05	0	61	0	569376768	54	5218
2026-01-25 01:36:59.42	268.54	14.12	-41.2	-44.7	12.7	5.26e-05	0	62	0	571473920	54	5267
2026-01-25 01:37:00.43	268.38	14.05	-41.1	-44.7	12.8	6.17e-05	0	61	0	572522496	54	5250
2026-01-25 01:37:01.44	268.22	13.99	-41.1	-44.6	12.8	4.73e-05	0	61	0	574619648	54	5217
2026-01-25 01:37:02.45	268.07	13.92	-41.2	-44.7	12.8	6.33e-05	0	61	0	576716800	54	5267
2026-01-25 01:37:03.46	267.91	13.85	-41.1	-44.6	12.9	4.50e-05	0	61	0	578813952	54	5184
2026-01-25 01:37:04.47	267.76	13.78	-40.9	-44.3	13.2	3.81e-05	0	61	0	580911104	53	5294
2026-01-25 01:37:05.48	267.61	13.71	-40.7	-44.0	13.5	1.06e-05	0	62	0	581959680	53	5118
2026-01-25 01:37:06.49	267.45	13.64	-40.8	-44.0	13.4	1.29e-05	0	61	0	584056832	53	5148
2026-01-25 01:37:07.50	267.30	13.57	-40.7	-44.0	13.5	1.06e-05	0	62	0	586153984	53	5115
2026-01-25 01:37:08.51	267.15	13.51	-40.7	-43.9	13.6	6.80e-06	0	61	0	588251136	53	5066
2026-01-25 01:37:09.52	267.00	13.44	-40.8	-44.1	13.4	1.22e-05	0	61	0	590348288	53	5191
2026-01-25 01:37:10.53	266.85	13.37	-40.8	-44.1	13.4	1.90e-05	0	61	0	592445440	53	5190
2026-01-25 01:37:11.53	266.70	13.30	-40.9	-44.4	13.1	3.05e-05	0	61	0	593494016	53	5364
2026-01-25 01:37:12.54	266.55	13.23	-41.2	-44.8	12.6	4.42e-05	0	61	0	595591168	53	5619
2026-01-25 01:37:13.55	266.40	13.16	-41.2	-44.9	12.5	7.09e-05	0	61	0	597688320	53	5708
2026-01-25 01:37:14.56	266.26	13.10	-41.2	-44.9	12.5	1.24e-04	0	62	0	599785472	53	5713
2026-01-25 01:37:15.57	266.11	13.03	-41.3	-45.1	12.3	1.70e-04	0	61	0	601882624	53	5794
2026-01-25 01:37:16.58	265.97	12.96	-41.3	-45.2	12.2	1.73e-04	0	61	0	602931200	53	5884
2026-01-25 01:37:17.59	265.82	12.89	-41.4	-45.2	12.1	2.17e-04	0	61	0	605028352	53	5921
2026-01-25 01:37:18.60	265.68	12.82	-41.5	-45.5	11.9	3.23e-04	0	62	0	607125504	53	6087
2026-01-25 01:37:19.61	265.53	12.75	-41.4	-45.2	12.1	2.68e-04	0	61	0	609222656	53	5911
2026-01-25 01:37:20.62	265.39	12.69	-41.3	-45.2	12.2	2.05e-04	0	61	0	611319808	53	5865
2026-01-25 01:37:21.63	265.25	12.62	-41.2	-44.8	12.5	1.22e-04	0	62	0	612368384	53	5645
2026-01-25 01:37:22.64	265.11	12.55	-41.1	-44.7	12.7	7.55e-05	0	62	0	614465536	53	5553
2026-01-25 01:37:23.65	264.96	12.48	-41.0	-44.5	12.9	4.11e-05	0	61	0	616562688	53	5412
2026-01-25 01:37:24.66	264.82	12.41	-40.9	-44.4	13.0	3.20e-05	0	62	0	618659840	53	5343
2026-01-25 01:37:25.67	264.68	12.34	-41.0	-44.4	12.9	5.03e-05	0	61	0	620756992	53	5392
2026-01-25 01:37:26.68	264.55	12.28	-41.0	-44.5	12.9	5.18e-05	0	61	0	621805568	53	5441
2026-01-25 01:37:27.69	264.41	12.21	-41.1	-44.7	12.7	5.64e-05	0	61	0	623902720	53	5549
2026-01-25 01:37:28.70	264.27	12.14	-41.1	-44.8	12.6	8.54e-05	0	61	0	625999872	53	5610
2026-01-25 01:37:29.71	264.13	12.07	-41.2	-45.0	12.4	1.40e-04	0	61	0	628097024	53	5751
2026-01-25 01:37:30.72	264.00	12.00	-41.2	-45.0	12.3	1.83e-04	0	61	0	630194176	53	5763
2026-01-25 01:37:31.72	263.86	11.94	-41.3	-45.1	12.2	1.98e-04	0	61	0	631242752	53	5851
2026-01-25 01:37:32.73	263.73	11.87	-41.3	-45.3	12.0	2.91e-04	0	62	0	633339904	53	5945
2026-01-25 01:37:33.74	263.59	11.80	-41.4	-45.4	12.0	2.73e-04	0	61	0	635437056	53	5995
2026-01-25 01:37:34.75	263.46	11.73	-41.5	-45.5	11.8	4.56e-04	0	61	0	637534208	53	6093
2026-01-25 01:37:35.76	263.32	11.66	-41.4	-45.4	11.9	5.71e-04	0	62	0	639631360	53	6026
2026-01-25 01:37:36.77	263.19	11.60	-41.5	-45.7	11.6	7.75e-04	0	61	0	640679936	53	6260
2026-01-25 01:37:37.78	263.06	11.53	-41.6	-45.9	11.4	9.18e-04	0	61	0	642777088	53	6354
2026-01-25 01:37:38.79	262.93	11.46	-41.8	-46.2	11.1	1.05e-03	0	62	0	644874240	54	6236
2026-01-25 01:37:39.80	262.80	11.39	-41.6	-45.9	11.4	9.52e-04	0	62	0	646971392	54	6015
2026-01-25 01:37:40.81	262.67	11.32	-41.6	-45.8	11.5	8.53e-04	0	62	0	649068544	54	5976
2026-01-25 01:37:41.82	262.54	11.26	-41.6	-45.8	11.5	1.28e-03	0	62	0	650117120	54	5930
2026-01-25 01:37:42.83	262.41	11.19	-41.3	-45.2	12.0	4.39e-04	0	62	0	652214272	54	5575
2026-01-25 01:37:43.84	262.28	11.12	-41.3	-45.3	12.0	2.46e-04	0	61	0	654311424	54	5595
2026-01-25 01:37:44.85	262.15	11.05	-41.1	-44.7	12.6	1.63e-04	0	61	0	656408576	54	5261
2026-01-25 01:37:45.86	262.03	10.99	-40.9	-44.4	12.8	8.69e-05	0	62	0	658505728	53	5361
2026-01-25 01:37:46.87	261.90	10.92	-40.9	-44.3	13.0	5.87e-05	0	61	0	660602880	53	5340
2026-01-25 01:37:47.88	261.77	10.85	-40.9	-44.5	12.8	5.34e-05	0	61	0	661651456	53	5415
2026-01-25 01:37:48.89	261.65	10.78	-40.8	-44.2	13.1	5.11e-05	0	61	0	663748608	53	5226
2026-01-25 01:37:49.90	261.52	10.72	-40.9	-44.5	12.8	3.58e-05	0	61	0	665845760	53	5414
2026-01-25 01:37:50.91	261.40	10.65	-41.1	-44.9	12.4	9.84e-05	0	61	0	667942912	53	5669
2026-01-25 01:37:51.92	261.27	10.58	-41.1	-44.9	12.3	2.00e-04	0	61	0	670040064	53	5705
2026-01-25 01:37:52.93	261.15	10.51	-41.4	-45.4	11.8	2.73e-04	0	61	0	671088640	53	6019
2026-01-25 01:37:53.94	261.03	10.45	-41.5	-45.7	11.5	6.81e-04	0	61	0	673185792	53	6229
2026-01-25 01:37:54.95	260.91	10.38	-41.7	-46.1	11.1	9.22e-04	0	61	0	675282944	53	6502
2026-01-25 01:37:55.96	260.79	10.31	-41.7	-46.2	11.0	1.65e-03	0	62	0	677380096	53	6579
2026-01-25 01:37:56.97	260.66	10.25	-41.8	-46.3	10.9	2.12e-03	0	62	0	679477248	54	6297
2026-01-25 01:37:57.97	260.55	10.18	-41.8	-46.3	10.9	2.98e-03	0	62	0	680525824	54	6294
2026-01-25 01:37:58.98	260.43	10.11	-41.7	-46.1	11.1	1.85e-03	0	62	0	682622976	54	6175
2026-01-25 01:37:59.99	260.31	10.05	-41.8	-46.3	10.8	2.22e-03	0	61	0	684720128	54	6323
2026-01-25 01:38:01.00	260.19	9.98	-41.6	-45.9	11.3	1.45e-03	0	61	0	686817280	54	5996
2026-01-25 01:38:02.01	260.07	9.91	-41.6	-45.9	11.3	1.15e-03	0	61	0	688914432	54	6005
2026-01-25 01:38:03.02	259.95	9.85	-41.5	-45.8	11.3	1.48e-03	0	61	0	689963008	54	5974
2026-01-25 01:38:04.03	259.84	9.78	-41.5	-45.7	11.5	1.03e-03	0	61	0	692060160	54	5889
2026-01-25 01:38:05.04	259.72	9.71	-41.6	-45.9	11.3	1.01e-03	0	62	0	694157312	54	6014
2026-01-25 01:38:06.05	259.60	9.65	-41.5	-45.8	11.4	9.48e-04	0	62	0	696254464	54	5927
2026-01-25 01:38:07.06	259.49	9.58	-41.6	-45.9	11.3	1.04e-03	0	62	0	698351616	54	6027
2026-01-25 01:38:08.07	259.37	9.51	-41.5	-45.7	11.4	1.13e-03	0	62	0	699400192	54	5891
2026-01-25 01:38:09.07	259.26	9.45	-41.7	-46.1	11.0	1.43e-03	0	61	0	701497344	54	6200
2026-01-25 01:38:10.08	259.15	9.38	-41.7	-46.2	10.9	2.32e-03	0	61	0	703594496	54	6241
2026-01-25 01:38:11.09	259.03	9.32	-41.7	-46.2	10.9	1.33e-03	0	62	0	705691648	54	6261
2026-01-25 01:38:12.10	258.92	9.25	-41.6	-46.1	11.0	1.95e-03	0	61	0	707788800	54	6155
2026-01-25 01:38:13.11	258.81	9.18	-41.6	-46.0	11.0	2.12e-03	0	62	0	708837376	54	6105
2026-01-25 01:38:14.12	258.70	9.12	-41.7	-46.2	10.8	2.49e-03	0	61	0	710934528	54	6273
2026-01-25 01:38:15.13	258.59	9.05	-41.7	-46.1	10.9	2.22e-03	0	61	0	713031680	54	6193
2026-01-25 01:38:16.14	258.48	8.99	-41.7	-46.3	10.8	2.22e-03	0	62	0	715128832	54	6299
2026-01-25 01:38:17.15	258.36	8.92	-41.7	-46.3	10.7	2.41e-03	0	62	0	717225984	54	6330
2026-01-25 01:38:18.16	258.26	8.86	-41.8	-46.4	10.7	2.97e-03	0	61	0	718274560	54	6406
2026-01-25 01:38:19.17	258.15	8.79	-41.8	-46.5	10.6	4.45e-03	0	62	0	720371712	54	6444
2026-01-25 01:38:20.18	258.04	8.73	-41.8	-46.5	10.5	3.73e-03	0	62	0	722468864	54	6442
2026-01-25 01:38:21.19	257.93	8.66	-41.9	-46.8	10.2	4.73e-03	0	61	0	724566016	54	6720
2026-01-25 01:38:22.20	257.82	8.59	-41.8	-46.6	10.5	4.16e-03	0	62	0	726663168	54	6532
2026-01-25 01:38:23.21	257.71	8.53	-41.9	-46.7	10.3	4.09e-03	0	61	0	728760320	54	6617
2026-01-25 01:38:24.22	257.61	8.46	-41.8	-46.6	10.4	5.73e-03	0	62	0	729808896	54	6555
2026-01-25 01:38:25.23	257.50	8.40	-41.8	-46.6	10.4	4.98e-03	0	61	0	731906048	54	6563
2026-01-25 01:38:26.24	257.40	8.33	-41.8	-46.5	10.5	4.26e-03	0	61	0	734003200	54	6442
2026-01-25 01:38:27.25	257.29	8.27	-41.8	-46.6	10.5	3.01e-03	0	61	0	736100352	54	6496
2026-01-25 01:38:28.26	257.19	8.20	-41.8	-46.6	10.4	4.69e-03	0	61	0	738197504	54	6556
2026-01-25 01:38:29.27	257.08	8.14	-41.8	-46.5	10.5	3.73e-03	0	62	0	739246080	54	6424
2026-01-25 01:38:30.28	256.98	8.07	-41.9	-46.8	10.2	5.15e-03	0	62	0	741343232	54	6674
2026-01-25 01:38:31.29	256.87	8.01	-42.0	-47.1	10.0	6.39e-03	0	62	0	743440384	54	6891
2026-01-25 01:38:32.30	256.77	7.95	-44.4	-58.7	3.8	1.49e+00	0	61	104	744488960	59	19756
2026-01-25 01:38:33.31	256.67	7.88	-44.7	-59.3	3.9	1.49e+00	0	62	104	744488960	60	20006
2026-01-25 01:38:34.32	256.57	7.82	-44.8	-59.5	3.8	1.49e+00	0	62	104	744488960	60	20510
2026-01-25 01:38:35.33	256.47	7.75	-45.0	-59.6	3.8	1.49e+00	0	62	104	744488960	60	20753
2026-01-25 01:38:36.34	256.37	7.69	-45.1	-59.7	3.8	1.49e+00	0	61	104	744488960	60	20986
2026-01-25 01:38:37.35	256.26	7.62	-45.1	-59.8	3.8	1.49e+00	0	62	104	744488960	60	21071
2026-01-25 01:38:38.36	256.16	7.56	-45.1	-59.8	3.8	1.49e+00	0	62	104	744488960	60	21111
2026-01-25 01:38:39.37	256.06	7.50	-45.1	-59.8	3.8	1.49e+00	0	62	104	744488960	60	21043
2026-01-25 01:38:40.38	255.97	7.43	-45.2	-59.8	3.8	1.49e+00	0	61	104	744488960	60	21233
2026-01-25 01:38:41.39	255.87	7.37	-45.2	-59.8	3.8	1.49e+00	0	62	104	744488960	60	21092
2026-01-25 01:38:42.40	255.77	7.30	-45.2	-59.8	3.8	1.49e+00	0	62	104	744488960	60	21083
2026-01-25 01:38:43.41	255.67	7.24	-45.1	-59.8	3.8	1.49e+00	0	62	104	744488960	60	21019
2026-01-25 01:38:44.42	255.57	7.18	-45.1	-59.7	3.8	1.49e+00	0	62	104	744488960	60	20965
2026-01-25 01:38:45.44	255.48	7.11	-45.1	-59.7	3.8	1.49e+00	0	62	104	744488960	60	20929
2026-01-25 01:38:46.45	255.38	7.05	-45.1	-59.7	3.8	1.49e+00	0	62	104	744488960	60	20902
2026-01-25 01:38:47.45	255.28	6.99	-45.2	-59.8	3.8	1.49e+00	0	62	104	744488960	60	21026
2026-01-25 01:38:48.46	255.19	6.92	-45.1	-59.7	3.8	1.49e+00	0	62	104	744488960	60	20850
2026-01-25 01:38:49.48	255.09	6.86	-45.1	-59.7	3.8	1.49e+00	0	62	104	744488960	60	20856
2026-01-25 01:38:50.49	255.00	6.80	-45.1	-59.7	3.8	1.49e+00	0	62	104	744488960	60	20833
2026-01-25 01:38:51.50	254.90	6.73	-45.1	-59.7	3.8	1.49e+00	0	62	104	744488960	60	20798
2026-01-25 01:38:52.50	254.81	6.67	-45.1	-59.7	3.8	1.49e+00	0	61	104	744488960	60	20817
2026-01-25 01:38:53.52	254.71	6.61	-45.1	-59.7	3.8	1.49e+00	0	61	104	744488960	60	20814
2026-01-25 01:38:54.53	254.62	6.54	-45.1	-59.7	3.8	1.49e+00	0	62	104	744488960	60	20868
2026-01-25 01:38:55.54	254.53	6.48	-45.1	-59.6	3.8	1.49e+00	0	62	104	744488960	60	20771
2026-01-25 01:38:56.55	254.44	6.42	-45.1	-59.7	3.8	1.49e+00	0	62	104	744488960	60	20812
2026-01-25 01:38:57.56	254.34	6.36	-45.1	-59.7	3.8	1.49e+00	0	62	104	744488960	60	20822
2026-01-25 01:38:58.57	254.25	6.29	-45.1	-59.6	3.8	1.49e+00	0	62	104	744488960	60	20756
2026-01-25 01:38:59.58	254.16	6.23	-45.1	-59.7	3.8	1.49e+00	0	62	104	744488960	60	20812
2026-01-25 01:39:00.59	254.07	6.17	-45.1	-59.7	3.8	1.49e+00	0	61	104	744488960	60	20795
2026-01-25 01:39:01.60	253.98	6.11	-45.1	-59.7	3.8	1.49e+00	0	62	104	744488960	60	20788
2026-01-25 01:39:02.61	253.89	6.05	-45.1	-59.7	3.8	1.49e+00	0	62	104	744488960	60	20845
2026-01-25 01:39:03.62	253.80	5.98	-45.1	-59.6	3.8	1.49e+00	0	62	104	744488960	60	20770
2026-01-25 01:39:04.63	253.71	5.92	-45.1	-59.7	3.8	1.49e+00	0	62	104	744488960	60	20877
2026-01-25 01:39:05.64	253.62	5.86	-45.1	-59.7	3.8	1.49e+00	0	62	104	744488960	60	20785
2026-01-25 01:39:06.65	253.53	5.80	-45.1	-59.6	3.8	1.49e+00	0	62	104	744488960	60	20757
2026-01-25 01:39:07.66	253.45	5.74	-45.1	-59.7	3.8	1.49e+00	0	62	104	744488960	60	20806
2026-01-25 01:39:08.67	253.36	5.67	-45.1	-59.7	3.8	1.49e+00	0	62	104	744488960	60	20788
2026-01-25 01:39:09.69	253.27	5.61	-45.1	-59.7	3.8	1.49e+00	0	62	104	744488960	60	20811
2026-01-25 01:39:10.70	253.18	5.55	-45.1	-59.7	3.8	1.49e+00	0	62	104	744488960	60	20801
2026-01-25 01:39:11.71	253.10	5.49	-45.1	-59.7	3.8	1.49e+00	0	62	104	744488960	60	20802
2026-01-25 01:39:12.72	253.01	5.43	-45.1	-59.6	3.8	1.49e+00	0	62	104	744488960	60	20687
2026-01-25 01:39:13.73	252.92	5.37	-45.1	-59.7	3.8	1.49e+00	0	62	104	744488960	60	20780
2026-01-25 01:39:14.74	252.84	5.31	-45.1	-59.7	3.8	1.49e+00	0	61	104	744488960	60	20805
2026-01-25 01:39:15.75	252.75	5.24	-45.1	-59.7	3.8	1.49e+00	0	62	104	744488960	60	20785
2026-01-25 01:39:16.76	252.67	5.18	-45.1	-59.7	3.8	1.49e+00	0	62	104	744488960	60	20802
2026-01-25 01:39:17.77	252.58	5.12	-45.0	-59.7	3.8	1.49e+00	0	62	104	744488960	60	20813
2026-01-25 01:39:18.78	252.50	5.06	-45.1	-59.7	3.8	1.49e+00	0	62	104	744488960	60	20834
2026-01-25 01:39:19.79	252.42	5.00	-45.1	-59.7	3.8	1.49e+00	0	62	104	744488960	60	20807
2026-01-25 01:39:20.80	252.33	4.94	-45.1	-59.6	3.8	1.49e+00	0	62	104	744488960	60	20747
2026-01-25 01:39:21.81	252.25	4.88	-45.1	-59.6	3.8	1.49e+00	0	62	104	744488960	60	20774
2026-01-25 01:39:22.82	252.17	4.82	-45.1	-59.6	3.8	1.49e+00	0	62	104	744488960	60	20726
2026-01-25 01:39:23.83	252.09	4.76	-45.0	-59.6	3.8	1.49e+00	0	62	104	744488960	60	20757
2026-01-25 01:39:24.84	252.00	4.70	-45.1	-59.7	3.8	1.49e+00	0	62	104	744488960	60	20780
2026-01-25 01:39:25.85	251.92	4.64	-45.1	-59.6	3.8	1.49e+00	0	62	104	744488960	60	20746
2026-01-25 01:39:26.86	251.84	4.58	-45.1	-59.6	3.8	1.49e+00	0	62	104	744488960	60	20751
2026-01-25 01:39:27.87	251.76	4.52	-45.0	-59.6	3.8	1.49e+00	0	62	104	744488960	60	20692
2026-01-25 01:39:28.89	251.68	4.46	-45.0	-59.7	3.8	1.49e+00	0	62	104	744488960	60	20788
2026-01-25 01:39:29.90	251.60	4.40	-45.0	-59.7	3.8	1.49e+00	0	62	104	744488960	60	20782
2026-01-25 01:39:30.91	251.52	4.34	-45.0	-59.6	3.8	1.49e+00	0	62	104	744488960	60	20773
2026-01-25 01:39:31.92	251.44	4.28	-45.0	-59.6	3.8	1.49e+00	0	62	104	744488960	60	20711
2026-01-25 01:39:32.93	251.36	4.22	-45.1	-59.6	3.8	1.49e+00	0	62	104	744488960	60	20694
