passes_logs/2026/01/25/R2.0S_Moscow/R2.0S_Moscow__20260125_040746_FENGYUN_3E_rec.log

#Pass ID: 20260125_040746_FENGYUN 3E
#Satellite: FENGYUN 3E
#Configuration: FENGYUN 3E
#almurnet v.1.7.20251203
#Start time: 2026-01-25 04:07:48

#Version: 2.2.20231116
#Station: R2.0S_Moscow
#Location: 37.707566 lon 55.798166 lat
#TLE: 1 49008U 21062A   26024.51886291 -.00000133  00000+0 -41802-4 0  9993
#TLE: 2 49008  98.7494  29.5356 0002407 118.1139 242.0281 14.19886269236195

#Time	Az	El	Level	Level2	SNR	BER	BlckErr	Temp	State	Recorded	gain1	gain2
2026-01-25 04:07:48.71	15.36	2.12	-43.2	-54.2	3.8	8.45e-01	0	52	0	0	57	12474
2026-01-25 04:07:49.71	15.36	2.18	-43.2	-54.1	3.8	8.46e-01	0	53	104	0	57	12365
2026-01-25 04:07:50.72	15.35	2.25	-43.2	-54.2	3.8	8.46e-01	0	53	104	0	57	12460
2026-01-25 04:07:51.73	15.35	2.31	-43.2	-54.2	3.8	8.46e-01	0	53	104	0	57	12448
2026-01-25 04:07:52.74	15.34	2.38	-43.2	-54.2	3.8	8.47e-01	0	53	104	0	57	12427
2026-01-25 04:07:53.75	15.34	2.44	-43.2	-54.2	3.8	8.47e-01	0	53	104	0	57	12433
2026-01-25 04:07:54.76	15.34	2.51	-43.2	-54.2	3.8	8.48e-01	0	53	104	0	57	12492
2026-01-25 04:07:55.77	15.33	2.57	-43.2	-54.2	3.8	8.47e-01	0	53	104	0	57	12455
2026-01-25 04:07:56.78	15.33	2.64	-43.2	-54.2	3.8	8.45e-01	0	53	104	0	57	12468
2026-01-25 04:07:57.79	15.32	2.71	-43.2	-54.2	3.8	8.46e-01	0	53	104	0	57	12501
2026-01-25 04:07:58.80	15.32	2.77	-43.2	-54.2	3.8	8.46e-01	0	53	104	0	57	12462
2026-01-25 04:07:59.81	15.31	2.84	-43.2	-54.2	3.8	8.46e-01	0	53	104	0	57	12397
2026-01-25 04:08:00.82	15.31	2.90	-43.2	-54.2	3.8	8.46e-01	0	53	104	0	57	12429
2026-01-25 04:08:01.83	15.31	2.97	-43.2	-54.2	3.8	8.46e-01	0	53	104	0	57	12450
2026-01-25 04:08:02.84	15.30	3.04	-43.2	-54.2	3.8	8.47e-01	0	54	104	0	57	12399
2026-01-25 04:08:03.86	15.30	3.11	-43.2	-54.2	3.8	8.47e-01	0	54	104	0	57	12459
2026-01-25 04:08:04.87	15.29	3.17	-43.2	-54.2	3.8	8.46e-01	0	54	104	0	57	12452
2026-01-25 04:08:05.88	15.29	3.24	-43.2	-54.2	3.8	8.45e-01	0	54	104	0	57	12395
2026-01-25 04:08:06.89	15.28	3.31	-43.2	-54.2	3.8	8.47e-01	0	54	104	0	57	12403
2026-01-25 04:08:07.90	15.28	3.37	-43.2	-54.2	3.8	8.46e-01	0	54	104	0	57	12461
2026-01-25 04:08:08.91	15.27	3.44	-43.2	-54.2	3.8	8.46e-01	0	54	104	0	57	12475
2026-01-25 04:08:09.92	15.27	3.51	-43.2	-54.2	3.8	8.46e-01	0	54	104	0	57	12415
2026-01-25 04:08:10.93	15.26	3.58	-43.2	-54.2	3.8	8.47e-01	0	54	104	0	57	12475
2026-01-25 04:08:11.94	15.26	3.65	-43.2	-54.2	3.8	8.46e-01	0	54	104	0	57	12430
2026-01-25 04:08:12.95	15.25	3.72	-43.2	-54.2	3.8	8.46e-01	0	54	104	0	57	12419
2026-01-25 04:08:13.96	15.25	3.78	-43.2	-54.2	3.8	8.46e-01	0	54	104	0	57	12457
2026-01-25 04:08:14.97	15.24	3.85	-43.2	-54.2	3.8	8.47e-01	0	54	104	0	57	12419
2026-01-25 04:08:15.98	15.24	3.92	-43.2	-54.2	3.8	8.46e-01	0	55	104	0	57	12434
2026-01-25 04:08:16.99	15.23	3.99	-43.2	-54.1	3.8	8.45e-01	0	55	104	0	57	12369
2026-01-25 04:08:18.00	15.23	4.06	-43.2	-54.2	3.8	8.46e-01	0	55	104	0	57	12412
2026-01-25 04:08:19.01	15.22	4.13	-43.2	-54.2	3.8	8.46e-01	0	55	104	0	57	12459
2026-01-25 04:08:20.02	15.22	4.20	-43.2	-54.2	3.8	8.46e-01	0	55	104	0	57	12437
2026-01-25 04:08:21.04	15.21	4.27	-43.2	-54.2	3.8	8.47e-01	0	55	104	0	57	12410
2026-01-25 04:08:22.05	15.21	4.34	-43.2	-54.2	3.8	8.46e-01	0	55	104	0	57	12436
2026-01-25 04:08:23.06	15.20	4.41	-43.2	-54.2	3.8	8.45e-01	0	55	104	0	57	12385
2026-01-25 04:08:24.07	15.19	4.48	-43.2	-54.2	3.8	8.45e-01	0	55	104	0	57	12406
2026-01-25 04:08:25.08	15.19	4.55	-43.2	-54.2	3.8	8.46e-01	0	55	104	0	57	12435
2026-01-25 04:08:26.09	15.18	4.62	-43.2	-54.2	3.8	8.47e-01	0	55	104	0	57	12432
2026-01-25 04:08:27.10	15.18	4.69	-43.2	-54.2	3.8	8.47e-01	0	55	104	0	57	12381
2026-01-25 04:08:28.11	15.17	4.76	-43.2	-54.2	3.8	8.46e-01	0	55	104	0	57	12443
2026-01-25 04:08:29.12	15.17	4.83	-43.2	-54.1	3.8	8.46e-01	0	56	104	0	57	12328
2026-01-25 04:08:30.13	15.16	4.91	-43.2	-54.1	3.8	8.46e-01	0	55	104	0	57	12348
2026-01-25 04:08:31.14	15.15	4.98	-43.2	-54.1	3.8	8.46e-01	0	55	104	0	57	12363
2026-01-25 04:08:32.15	15.15	5.05	-43.2	-54.0	3.8	8.47e-01	0	55	104	0	57	12208
2026-01-25 04:08:33.16	15.14	5.12	-43.2	-54.1	3.8	8.45e-01	0	55	104	0	57	12345
2026-01-25 04:08:34.17	15.14	5.19	-43.2	-54.1	3.8	8.45e-01	0	55	104	0	57	12360
2026-01-25 04:08:35.18	15.13	5.27	-43.2	-53.9	3.8	8.47e-01	0	56	104	0	57	12069
2026-01-25 04:08:36.19	15.13	5.34	-43.1	-53.9	3.8	8.46e-01	0	56	104	0	57	12087
2026-01-25 04:08:37.20	15.12	5.41	-43.2	-54.2	3.8	8.47e-01	0	56	104	0	57	12423
2026-01-25 04:08:38.21	15.11	5.48	-43.1	-53.9	3.8	8.46e-01	0	56	104	0	57	11981
2026-01-25 04:08:39.22	15.11	5.56	-43.1	-53.5	3.8	8.45e-01	0	56	104	0	57	11546
2026-01-25 04:08:40.23	15.10	5.63	-43.1	-53.8	3.8	8.46e-01	0	56	104	0	57	11953
2026-01-25 04:08:41.24	15.09	5.70	-43.2	-54.1	3.8	8.47e-01	0	56	104	0	57	12357
2026-01-25 04:08:42.25	15.09	5.78	-43.1	-53.9	3.8	8.46e-01	0	56	104	0	57	12088
2026-01-25 04:08:43.26	15.08	5.85	-43.1	-53.5	3.8	8.46e-01	0	56	104	0	57	11431
2026-01-25 04:08:44.28	15.07	5.93	-43.1	-53.5	3.8	8.46e-01	0	56	104	0	57	11441
2026-01-25 04:08:45.29	15.07	6.00	-43.1	-53.8	3.8	8.48e-01	0	56	104	0	57	11870
2026-01-25 04:08:46.30	15.06	6.08	-43.2	-54.1	3.8	8.46e-01	0	56	104	0	57	12259
2026-01-25 04:08:47.31	15.05	6.15	-43.2	-54.1	3.8	8.46e-01	0	56	104	0	57	12258
2026-01-25 04:08:48.32	15.05	6.23	-43.1	-53.6	3.8	8.45e-01	0	56	104	0	57	11672
2026-01-25 04:08:49.33	15.04	6.30	-43.1	-53.1	3.8	8.47e-01	0	56	104	0	57	11000
2026-01-25 04:08:50.34	15.03	6.38	-43.0	-52.9	3.8	8.46e-01	0	56	104	0	57	10742
2026-01-25 04:08:51.35	15.03	6.45	-43.0	-52.8	3.8	8.46e-01	0	57	104	0	57	10572
2026-01-25 04:08:52.36	15.02	6.53	-43.0	-52.9	3.8	8.44e-01	0	57	104	0	57	10713
2026-01-25 04:08:53.37	15.01	6.61	-43.0	-52.7	3.8	8.46e-01	0	57	104	0	57	10495
2026-01-25 04:08:54.38	15.01	6.68	-43.0	-52.4	3.8	8.45e-01	0	57	104	0	56	10667
2026-01-25 04:08:55.39	15.00	6.76	-42.8	-51.5	4.0	8.43e-01	0	57	104	0	56	9640
2026-01-25 04:08:56.40	14.99	6.84	-42.6	-50.1	4.3	8.33e-01	0	57	0	0	56	8231
2026-01-25 04:08:57.41	14.98	6.91	-42.1	-48.5	5.0	7.96e-01	0	57	0	0	55	7210
2026-01-25 04:08:58.42	14.98	6.99	-41.6	-46.9	6.1	3.87e-01	0	57	0	2097152	54	6375
2026-01-25 04:08:59.43	14.97	7.07	-41.0	-45.4	7.4	1.47e-01	0	57	0	9437184	53	5659
2026-01-25 04:09:00.44	14.96	7.14	-40.4	-43.9	8.9	3.52e-02	0	57	0	16777216	51	5389
2026-01-25 04:09:01.45	14.95	7.22	-39.7	-42.7	10.1	9.29e-03	0	57	0	23068672	50	4965
2026-01-25 04:09:02.46	14.95	7.30	-39.0	-41.5	11.4	1.43e-03	0	57	0	31457280	49	4557
2026-01-25 04:09:03.48	14.94	7.38	-38.2	-40.4	12.4	2.53e-04	0	57	0	38797312	47	4512
2026-01-25 04:09:04.49	14.93	7.46	-37.9	-40.0	12.8	7.89e-05	0	57	0	45088768	46	4578
2026-01-25 04:09:05.50	14.92	7.54	-37.8	-39.8	13.0	3.77e-05	0	57	0	52428800	46	4477
2026-01-25 04:09:06.51	14.92	7.62	-38.2	-40.5	12.3	1.13e-04	0	57	0	59768832	46	4826
2026-01-25 04:09:07.52	14.91	7.70	-38.7	-41.1	11.7	4.23e-04	0	57	0	67108864	46	5213
2026-01-25 04:09:08.53	14.90	7.78	-39.1	-41.8	10.9	1.85e-03	0	57	0	74448896	47	5323
2026-01-25 04:09:09.54	14.89	7.86	-38.6	-41.1	11.7	7.98e-04	0	57	0	81788928	47	4886
2026-01-25 04:09:10.55	14.88	7.94	-38.5	-40.9	11.9	4.90e-04	0	57	0	89128960	47	4802
2026-01-25 04:09:11.56	14.88	8.02	-38.9	-41.5	11.3	8.37e-04	0	58	0	96468992	47	5111
2026-01-25 04:09:12.57	14.87	8.10	-40.0	-43.1	9.9	5.92e-03	0	57	0	103809024	49	5506
2026-01-25 04:09:13.58	14.86	8.18	-41.8	-47.0	6.1	1.99e-01	0	58	0	111149056	53	6874
2026-01-25 04:09:14.59	14.85	8.26	-39.3	-41.9	11.2	6.69e-02	0	58	0	115343360	49	4807
2026-01-25 04:09:15.60	14.84	8.34	-38.8	-41.1	12.4	6.50e-03	0	58	0	122683392	48	4618
2026-01-25 04:09:16.61	14.83	8.42	-40.4	-43.6	9.7	3.17e-04	0	58	0	130023424	50	5528
2026-01-25 04:09:17.62	14.83	8.51	-40.0	-43.0	10.0	8.44e-01	0	58	104	130023424	51	4834
2026-01-25 04:09:18.63	14.82	8.59	-38.6	-40.7	12.7	1.20e-04	0	58	0	135266304	48	4436
2026-01-25 04:09:19.63	14.81	8.67	-38.3	-40.3	13.0	4.92e-05	0	58	0	142606336	47	4482
2026-01-25 04:09:20.64	14.80	8.75	-38.4	-40.5	12.9	5.49e-05	0	58	0	149946368	47	4571
2026-01-25 04:09:21.66	14.79	8.84	-38.2	-40.2	13.2	3.31e-05	0	58	0	157286400	47	4403
2026-01-25 04:09:22.67	14.78	8.92	-38.5	-40.7	12.8	5.83e-05	0	58	0	164626432	47	4669
2026-01-25 04:09:23.67	14.77	9.00	-38.4	-40.5	13.0	6.17e-05	0	58	0	171966464	47	4564
2026-01-25 04:09:24.68	14.76	9.09	-38.4	-40.5	13.0	3.20e-05	0	58	0	179306496	47	4554
2026-01-25 04:09:25.69	14.75	9.17	-38.4	-40.5	13.0	5.03e-05	0	58	0	186646528	47	4576
2026-01-25 04:09:26.70	14.74	9.26	-38.4	-40.4	13.1	3.43e-05	0	58	0	193986560	47	4524
2026-01-25 04:09:27.71	14.74	9.34	-38.5	-40.5	12.9	8.69e-05	0	58	0	201326592	47	4597
2026-01-25 04:09:28.72	14.73	9.43	-38.4	-40.5	13.0	3.54e-05	0	58	0	208666624	47	4565
2026-01-25 04:09:29.73	14.72	9.51	-38.4	-40.5	13.1	5.14e-05	0	58	0	216006656	47	4574
2026-01-25 04:09:30.74	14.71	9.60	-38.4	-40.5	13.1	5.49e-05	0	58	0	223346688	47	4573
2026-01-25 04:09:31.75	14.70	9.68	-38.4	-40.4	13.2	4.34e-05	0	58	0	229638144	47	4522
2026-01-25 04:09:32.76	14.69	9.77	-38.2	-40.1	13.5	8.00e-06	0	58	0	238026752	47	4376
2026-01-25 04:09:33.77	14.68	9.86	-38.3	-40.2	13.4	1.71e-05	0	58	0	245366784	47	4420
2026-01-25 04:09:34.79	14.67	9.95	-38.4	-40.4	13.3	1.60e-05	0	58	0	251658240	47	4511
2026-01-25 04:09:35.79	14.66	10.03	-38.3	-40.3	13.4	1.94e-05	0	58	0	258998272	47	4442
2026-01-25 04:09:36.80	14.65	10.12	-38.4	-40.4	13.3	1.71e-05	0	58	0	266338304	47	4497
2026-01-25 04:09:37.81	14.64	10.21	-38.3	-40.2	13.4	1.14e-05	0	58	0	273678336	47	4432
2026-01-25 04:09:38.83	14.63	10.30	-38.3	-40.3	13.4	1.37e-05	0	58	0	281018368	47	4457
2026-01-25 04:09:39.84	14.62	10.39	-38.1	-40.0	13.7	1.10e-06	0	58	0	288358400	47	4329
2026-01-25 04:09:40.85	14.61	10.47	-38.1	-40.1	13.7	9.10e-06	0	58	0	295698432	47	4348
2026-01-25 04:09:41.86	14.60	10.56	-38.2	-40.1	13.6	6.80e-06	0	58	0	303038464	47	4375
2026-01-25 04:09:42.87	14.58	10.65	-38.2	-40.1	13.6	8.00e-06	0	58	0	310378496	47	4358
2026-01-25 04:09:43.87	14.57	10.74	-38.1	-40.0	13.8	8.00e-06	0	58	0	317718528	47	4299
2026-01-25 04:09:44.88	14.56	10.83	-38.1	-40.0	13.8	8.00e-06	0	59	0	325058560	47	4319
2026-01-25 04:09:45.89	14.55	10.92	-38.3	-40.2	13.6	5.70e-06	0	59	0	332398592	47	4419
2026-01-25 04:09:46.90	14.54	11.01	-38.2	-40.1	13.7	1.37e-05	0	58	0	339738624	47	4370
2026-01-25 04:09:47.91	14.53	11.10	-38.2	-40.1	13.7	6.80e-06	0	59	0	347078656	47	4365
2026-01-25 04:09:48.92	14.52	11.20	-38.1	-40.0	13.8	6.80e-06	0	58	0	354418688	47	4331
2026-01-25 04:09:49.93	14.51	11.29	-38.1	-39.9	13.9	2.20e-06	0	59	0	361758720	47	4275
2026-01-25 04:09:50.95	14.50	11.38	-38.1	-40.0	13.9	3.40e-06	0	59	0	369098752	47	4297
2026-01-25 04:09:51.96	14.48	11.47	-38.1	-40.0	13.9	6.80e-06	0	59	0	376438784	47	4300
2026-01-25 04:09:52.97	14.47	11.57	-38.1	-39.9	14.0	3.40e-06	0	59	0	383778816	46	4508
2026-01-25 04:09:53.98	14.46	11.66	-38.1	-40.0	13.9	2.20e-06	0	59	0	391118848	46	4572
2026-01-25 04:09:54.99	14.45	11.75	-38.1	-39.9	14.0	2.20e-06	0	59	0	398458880	46	4508
2026-01-25 04:09:56.00	14.44	11.85	-38.0	-39.8	14.1	2.20e-06	0	59	0	404750336	46	4471
2026-01-25 04:09:57.01	14.43	11.94	-38.0	-39.8	14.1	2.20e-06	0	59	0	412090368	46	4479
2026-01-25 04:09:58.01	14.41	12.04	-38.0	-39.8	14.1	2.20e-06	0	59	0	420478976	46	4469
2026-01-25 04:09:59.02	14.40	12.13	-37.8	-39.5	14.4	0.00e+00	0	59	0	426770432	46	4335
2026-01-25 04:10:00.03	14.39	12.23	-38.0	-39.7	14.2	1.10e-06	0	59	0	434110464	46	4436
2026-01-25 04:10:01.04	14.38	12.32	-37.8	-39.6	14.4	1.10e-06	0	59	0	441450496	46	4358
2026-01-25 04:10:02.05	14.36	12.42	-37.7	-39.4	14.6	0.00e+00	0	59	0	448790528	46	4273
2026-01-25 04:10:03.06	14.35	12.51	-37.7	-39.4	14.5	0.00e+00	0	59	0	456130560	46	4290
2026-01-25 04:10:04.07	14.34	12.61	-37.7	-39.4	14.5	0.00e+00	0	59	0	463470592	46	4290
2026-01-25 04:10:05.08	14.33	12.71	-37.8	-39.5	14.5	1.10e-06	0	59	0	470810624	46	4319
2026-01-25 04:10:06.09	14.31	12.81	-37.8	-39.5	14.5	0.00e+00	0	59	0	478150656	46	4308
2026-01-25 04:10:07.10	14.30	12.90	-37.7	-39.4	14.7	0.00e+00	0	59	0	485490688	46	4260
2026-01-25 04:10:08.11	14.29	13.00	-37.6	-39.2	14.8	0.00e+00	0	59	0	492830720	46	4191
2026-01-25 04:10:09.12	14.27	13.10	-37.7	-39.3	14.8	0.00e+00	0	59	0	500170752	46	4220
2026-01-25 04:10:10.13	14.26	13.20	-37.7	-39.4	14.7	0.00e+00	0	59	0	507510784	46	4263
2026-01-25 04:10:11.14	14.25	13.30	-37.6	-39.3	14.9	1.10e-06	0	59	0	514850816	46	4194
2026-01-25 04:10:12.15	14.23	13.40	-37.6	-39.2	14.9	0.00e+00	0	59	0	522190848	46	4188
2026-01-25 04:10:13.16	14.22	13.50	-37.6	-39.2	15.0	0.00e+00	0	59	0	529530880	46	4175
2026-01-25 04:10:14.18	14.20	13.60	-37.5	-39.1	15.1	1.10e-06	0	59	0	536870912	46	4108
2026-01-25 04:10:15.18	14.19	13.70	-37.5	-39.1	15.1	0.00e+00	0	59	0	544210944	45	4370
2026-01-25 04:10:16.19	14.18	13.81	-37.3	-38.8	15.4	0.00e+00	0	59	0	550502400	45	4213
2026-01-25 04:10:17.20	14.16	13.91	-37.2	-38.8	15.5	0.00e+00	0	59	0	557842432	45	4202
2026-01-25 04:10:18.21	14.15	14.01	-37.2	-38.7	15.6	0.00e+00	0	59	0	566231040	45	4185
2026-01-25 04:10:19.22	14.13	14.11	-37.3	-38.8	15.5	0.00e+00	0	59	0	572522496	45	4223
2026-01-25 04:10:20.23	14.12	14.22	-37.2	-38.7	15.6	0.00e+00	0	59	0	579862528	45	4172
2026-01-25 04:10:21.24	14.10	14.32	-37.1	-38.6	15.7	0.00e+00	0	59	0	587202560	45	4139
2026-01-25 04:10:22.25	14.09	14.43	-37.1	-38.6	15.7	0.00e+00	0	59	0	594542592	45	4123
2026-01-25 04:10:23.25	14.07	14.53	-37.1	-38.5	15.8	0.00e+00	0	60	0	601882624	44	4334
2026-01-25 04:10:24.26	14.06	14.63	-36.9	-38.4	16.0	0.00e+00	0	59	0	609222656	44	4257
2026-01-25 04:10:25.27	14.04	14.74	-36.9	-38.4	16.0	0.00e+00	0	59	0	616562688	44	4255
2026-01-25 04:10:26.28	14.03	14.85	-36.9	-38.3	16.0	0.00e+00	0	60	0	623902720	44	4240
2026-01-25 04:10:27.29	14.01	14.95	-36.9	-38.3	16.0	0.00e+00	0	59	0	631242752	44	4239
2026-01-25 04:10:28.30	14.00	15.06	-36.9	-38.3	16.1	0.00e+00	0	60	0	638582784	44	4218
2026-01-25 04:10:29.31	13.98	15.17	-36.9	-38.3	16.1	0.00e+00	0	60	0	645922816	44	4230
2026-01-25 04:10:30.32	13.96	15.28	-36.9	-38.3	16.1	0.00e+00	0	60	0	653262848	44	4236
2026-01-25 04:10:31.33	13.95	15.39	-36.8	-38.2	16.2	0.00e+00	0	60	0	660602880	44	4180
2026-01-25 04:10:32.34	13.93	15.49	-36.9	-38.3	16.2	0.00e+00	0	60	0	667942912	44	4215
2026-01-25 04:10:33.36	13.92	15.60	-36.7	-38.1	16.4	0.00e+00	0	59	0	675282944	44	4136
2026-01-25 04:10:34.37	13.90	15.71	-36.7	-38.1	16.4	0.00e+00	0	60	0	682622976	44	4119
2026-01-25 04:10:35.38	13.88	15.83	-36.8	-38.2	16.3	0.00e+00	0	60	0	689963008	44	4166
2026-01-25 04:10:36.39	13.86	15.94	-36.7	-38.1	16.4	0.00e+00	0	60	0	697303040	44	4133
2026-01-25 04:10:37.40	13.85	16.05	-36.8	-38.1	16.4	0.00e+00	0	60	0	703594496	44	4139
2026-01-25 04:10:38.40	13.83	16.16	-36.7	-38.1	16.5	0.00e+00	0	60	0	710934528	44	4116
2026-01-25 04:10:39.41	13.81	16.27	-36.7	-38.1	16.5	0.00e+00	0	60	0	719323136	44	4118
2026-01-25 04:10:40.42	13.80	16.38	-36.7	-38.0	16.6	0.00e+00	0	60	0	725614592	44	4094
2026-01-25 04:10:41.43	13.78	16.50	-37.0	-38.4	16.2	0.00e+00	0	60	0	732954624	44	4272
2026-01-25 04:10:42.44	13.76	16.61	-36.7	-38.0	16.6	0.00e+00	0	60	0	740294656	44	4097
2026-01-25 04:10:43.45	13.74	16.73	-36.8	-38.2	16.4	0.00e+00	0	60	0	747634688	44	4160
2026-01-25 04:10:44.46	13.72	16.84	-36.6	-37.9	16.7	0.00e+00	0	60	0	754974720	44	4029
2026-01-25 04:10:45.47	13.71	16.96	-36.7	-38.1	16.6	0.00e+00	0	60	0	762314752	44	4106
2026-01-25 04:10:46.48	13.69	17.08	-36.7	-38.0	16.6	0.00e+00	0	60	0	769654784	44	4094
2026-01-25 04:10:47.50	13.67	17.19	-36.5	-37.9	16.8	0.00e+00	0	60	0	776994816	44	4021
2026-01-25 04:10:48.50	13.65	17.31	-36.5	-37.9	16.8	0.00e+00	0	60	0	784334848	44	4014
2026-01-25 04:10:49.51	13.63	17.43	-36.3	-37.6	16.9	0.00e+00	0	60	0	791674880	43	4140
2026-01-25 04:10:50.53	13.61	17.55	-36.4	-37.8	16.7	0.00e+00	0	60	0	799014912	43	4209
2026-01-25 04:10:51.53	13.59	17.67	-36.3	-37.6	16.9	0.00e+00	0	60	0	806354944	43	4118
2026-01-25 04:10:52.54	13.57	17.79	-36.3	-37.6	16.9	0.00e+00	0	60	0	813694976	43	4134
2026-01-25 04:10:53.55	13.55	17.91	-36.2	-37.5	17.1	0.00e+00	0	60	0	821035008	43	4056
2026-01-25 04:10:54.56	13.53	18.03	-36.1	-37.4	17.1	0.00e+00	0	60	0	828375040	43	4039
2026-01-25 04:10:55.57	13.51	18.15	-36.1	-37.3	17.2	0.00e+00	0	60	0	835715072	43	3997
2026-01-25 04:10:56.58	13.49	18.27	-36.1	-37.4	17.2	0.00e+00	0	60	0	843055104	43	4035
2026-01-25 04:10:57.59	13.47	18.39	-36.2	-37.5	17.1	0.00e+00	0	60	0	850395136	43	4060
2026-01-25 04:10:58.60	13.45	18.52	-36.1	-37.4	17.2	0.00e+00	0	60	0	856686592	43	4043
2026-01-25 04:10:59.61	13.43	18.64	-36.0	-37.3	17.3	0.00e+00	0	60	0	864026624	43	3987
2026-01-25 04:11:00.62	13.41	18.76	-36.1	-37.4	17.2	0.00e+00	0	60	0	872415232	43	4005
2026-01-25 04:11:01.63	13.38	18.89	-36.0	-37.2	17.3	0.00e+00	0	60	0	878706688	42	4193
2026-01-25 04:11:02.64	13.36	19.02	-36.0	-37.3	17.3	0.00e+00	0	60	0	886046720	42	4206
2026-01-25 04:11:03.65	13.34	19.14	-36.1	-37.4	17.3	0.00e+00	0	60	0	893386752	42	4244
2026-01-25 04:11:04.66	13.32	19.27	-36.0	-37.3	17.3	0.00e+00	0	60	0	900726784	42	4214
2026-01-25 04:11:05.67	13.30	19.40	-36.0	-37.3	17.3	0.00e+00	0	60	0	908066816	42	4217
2026-01-25 04:11:06.68	13.27	19.53	-36.1	-37.3	17.3	0.00e+00	0	60	0	915406848	42	4238
2026-01-25 04:11:07.69	13.25	19.65	-36.1	-37.4	17.2	0.00e+00	0	60	0	922746880	42	4274
2026-01-25 04:11:08.70	13.23	19.78	-36.1	-37.3	17.3	0.00e+00	0	60	0	930086912	42	4226
2026-01-25 04:11:09.71	13.21	19.92	-36.1	-37.3	17.3	0.00e+00	0	60	0	937426944	42	4240
2026-01-25 04:11:10.72	13.18	20.05	-36.0	-37.3	17.4	0.00e+00	0	60	0	944766976	42	4216
2026-01-25 04:11:11.73	13.16	20.18	-36.2	-37.5	17.2	0.00e+00	0	60	0	952107008	42	4296
2026-01-25 04:11:12.74	13.13	20.31	-36.1	-37.4	17.2	0.00e+00	0	60	0	959447040	42	4270
2026-01-25 04:11:13.75	13.11	20.44	-36.0	-37.3	17.4	0.00e+00	0	60	0	966787072	42	4227
2026-01-25 04:11:14.76	13.09	20.58	-36.1	-37.4	17.3	0.00e+00	0	60	0	974127104	42	4254
2026-01-25 04:11:15.77	13.06	20.71	-36.1	-37.4	17.3	0.00e+00	0	60	0	981467136	42	4248
2026-01-25 04:11:16.78	13.04	20.85	-36.0	-37.3	17.4	0.00e+00	0	60	0	988807168	42	4218
2026-01-25 04:11:17.79	13.01	20.98	-36.1	-37.4	17.3	0.00e+00	0	60	0	996147200	42	4245
2026-01-25 04:11:18.80	12.99	21.12	-36.2	-37.5	17.2	0.00e+00	0	60	0	1002438656	42	4326
2026-01-25 04:11:19.81	12.96	21.26	-36.1	-37.4	17.3	0.00e+00	0	60	0	1009778688	42	4281
2026-01-25 04:11:20.81	12.93	21.40	-36.2	-37.5	17.2	0.00e+00	0	60	0	1018167296	42	4309
2026-01-25 04:11:21.82	12.91	21.53	-36.1	-37.4	17.3	0.00e+00	0	60	0	1024458752	42	4252
2026-01-25 04:11:22.83	12.88	21.67	-35.9	-37.2	17.5	0.00e+00	0	60	0	1031798784	42	4164
2026-01-25 04:11:23.84	12.85	21.82	-35.9	-37.2	17.5	0.00e+00	0	60	0	1039138816	42	4147
2026-01-25 04:11:24.85	12.83	21.96	-35.9	-37.1	17.6	0.00e+00	0	61	0	1046478848	42	4114
2026-01-25 04:11:25.86	12.80	22.10	-35.8	-37.1	17.6	0.00e+00	0	60	0	1053818880	42	4102
2026-01-25 04:11:26.87	12.77	22.24	-35.9	-37.1	17.6	0.00e+00	0	60	0	1061158912	42	4108
2026-01-25 04:11:27.88	12.74	22.39	-35.9	-37.1	17.6	0.00e+00	0	60	0	1068498944	42	4110
2026-01-25 04:11:28.89	12.72	22.53	-35.8	-37.0	17.7	0.00e+00	0	60	0	1075838976	42	4080
2026-01-25 04:11:29.90	12.69	22.68	-35.8	-37.0	17.7	0.00e+00	0	60	0	1083179008	42	4090
2026-01-25 04:11:30.91	12.66	22.82	-35.7	-36.9	17.8	0.00e+00	0	61	0	1090519040	42	4026
2026-01-25 04:11:31.92	12.63	22.97	-35.8	-37.0	17.7	0.00e+00	0	60	0	1097859072	42	4079
2026-01-25 04:11:32.93	12.60	23.12	-35.6	-36.8	17.9	0.00e+00	0	60	0	1105199104	42	3979
2026-01-25 04:11:33.94	12.57	23.27	-35.7	-36.9	17.9	0.00e+00	0	60	0	1112539136	42	4019
2026-01-25 04:11:34.95	12.54	23.42	-35.6	-36.8	17.9	0.00e+00	0	60	0	1119879168	42	3984
2026-01-25 04:11:35.96	12.51	23.57	-35.5	-36.7	18.1	0.00e+00	0	60	0	1127219200	41	4146
2026-01-25 04:11:36.97	12.48	23.72	-35.4	-36.6	18.2	0.00e+00	0	60	0	1134559232	41	4101
2026-01-25 04:11:37.98	12.45	23.87	-35.4	-36.6	18.2	0.00e+00	0	60	0	1141899264	41	4110
2026-01-25 04:11:38.99	12.42	24.02	-35.3	-36.5	18.2	0.00e+00	0	60	0	1149239296	41	4065
2026-01-25 04:11:40.00	12.38	24.18	-35.4	-36.5	18.2	0.00e+00	0	61	0	1155530752	41	4085
2026-01-25 04:11:41.01	12.35	24.33	-35.4	-36.6	18.1	0.00e+00	0	61	0	1163919360	41	4122
2026-01-25 04:11:42.02	12.32	24.49	-35.4	-36.5	18.2	0.00e+00	0	60	0	1171259392	41	4095
2026-01-25 04:11:43.03	12.29	24.65	-35.4	-36.5	18.2	0.00e+00	0	60	0	1177550848	41	4092
2026-01-25 04:11:44.04	12.25	24.80	-35.4	-36.6	18.2	0.00e+00	0	61	0	1184890880	41	4116
2026-01-25 04:11:45.05	12.22	24.96	-35.3	-36.5	18.3	0.00e+00	0	61	0	1192230912	41	4079
2026-01-25 04:11:46.06	12.19	25.12	-35.4	-36.5	18.3	0.00e+00	0	61	0	1199570944	41	4082
2026-01-25 04:11:47.06	12.15	25.28	-35.3	-36.4	18.4	0.00e+00	0	60	0	1206910976	41	4038
2026-01-25 04:11:48.07	12.12	25.44	-35.3	-36.4	18.4	0.00e+00	0	61	0	1214251008	41	4029
2026-01-25 04:11:49.08	12.08	25.60	-35.2	-36.3	18.4	0.00e+00	0	61	0	1221591040	41	3992
2026-01-25 04:11:50.09	12.05	25.77	-35.2	-36.3	18.5	0.00e+00	0	61	0	1228931072	41	3999
2026-01-25 04:11:51.10	12.01	25.93	-35.1	-36.3	18.5	0.00e+00	0	60	0	1236271104	41	3964
2026-01-25 04:11:52.12	11.97	26.10	-35.2	-36.4	18.4	0.00e+00	0	61	0	1243611136	41	4006
2026-01-25 04:11:53.13	11.94	26.27	-35.2	-36.4	18.4	0.00e+00	0	61	0	1250951168	41	4025
2026-01-25 04:11:54.13	11.90	26.43	-35.2	-36.4	18.4	0.00e+00	0	61	0	1258291200	41	4012
2026-01-25 04:11:55.14	11.86	26.60	-35.1	-36.3	18.5	0.00e+00	0	61	0	1265631232	41	3961
2026-01-25 04:11:56.16	11.82	26.77	-35.2	-36.4	18.4	0.00e+00	0	61	0	1272971264	41	4022
2026-01-25 04:11:57.17	11.78	26.94	-35.2	-36.4	18.4	0.00e+00	0	61	0	1280311296	41	4014
2026-01-25 04:11:58.17	11.75	27.11	-35.2	-36.4	18.4	0.00e+00	0	61	0	1287651328	41	4024
2026-01-25 04:11:59.18	11.71	27.29	-35.4	-36.5	18.3	0.00e+00	0	61	0	1294991360	41	4078
2026-01-25 04:12:00.19	11.67	27.46	-35.3	-36.5	18.3	0.00e+00	0	61	0	1301282816	41	4079
2026-01-25 04:12:01.20	11.63	27.64	-35.3	-36.5	18.4	0.00e+00	0	61	0	1308622848	41	4056
2026-01-25 04:12:02.21	11.59	27.81	-35.3	-36.4	18.4	0.00e+00	0	61	0	1317011456	41	4030
2026-01-25 04:12:03.22	11.54	27.99	-35.2	-36.3	18.5	0.00e+00	0	61	0	1323302912	41	4003
2026-01-25 04:12:04.23	11.50	28.17	-35.2	-36.3	18.5	0.00e+00	0	61	0	1330642944	41	3984
2026-01-25 04:12:05.24	11.46	28.35	-35.2	-36.4	18.5	0.00e+00	0	61	0	1337982976	41	4015
2026-01-25 04:12:06.25	11.42	28.53	-35.1	-36.3	18.6	0.00e+00	0	61	0	1345323008	41	3966
2026-01-25 04:12:07.26	11.37	28.71	-35.1	-36.2	18.6	0.00e+00	0	61	0	1352663040	41	3950
2026-01-25 04:12:08.27	11.33	28.89	-35.1	-36.2	18.7	0.00e+00	0	61	0	1360003072	41	3928
2026-01-25 04:12:09.28	11.28	29.08	-35.0	-36.1	18.7	0.00e+00	0	61	0	1367343104	41	3895
2026-01-25 04:12:10.29	11.24	29.26	-35.0	-36.1	18.7	0.00e+00	0	61	0	1374683136	40	4123
2026-01-25 04:12:11.30	11.19	29.45	-35.0	-36.1	18.8	0.00e+00	0	61	0	1382023168	40	4102
2026-01-25 04:12:12.31	11.15	29.64	-34.9	-36.0	18.8	0.00e+00	0	61	0	1389363200	40	4083
2026-01-25 04:12:13.32	11.10	29.83	-34.9	-36.0	18.9	0.00e+00	0	61	0	1396703232	40	4068
2026-01-25 04:12:14.33	11.05	30.02	-34.9	-36.0	18.9	0.00e+00	0	61	0	1404043264	40	4061
2026-01-25 04:12:15.34	11.00	30.21	-35.0	-36.1	18.8	0.00e+00	0	61	0	1411383296	40	4110
2026-01-25 04:12:16.35	10.96	30.40	-34.9	-36.0	18.9	0.00e+00	0	61	0	1418723328	40	4077
2026-01-25 04:12:17.36	10.91	30.59	-35.0	-36.1	18.8	0.00e+00	0	61	0	1426063360	40	4119
2026-01-25 04:12:18.37	10.86	30.79	-35.0	-36.1	18.8	0.00e+00	0	61	0	1433403392	40	4119
2026-01-25 04:12:19.38	10.81	30.99	-35.0	-36.2	18.7	0.00e+00	0	61	0	1440743424	40	4148
2026-01-25 04:12:20.39	10.75	31.19	-35.1	-36.2	18.7	0.00e+00	0	61	0	1448083456	40	4164
2026-01-25 04:12:21.40	10.70	31.38	-35.2	-36.3	18.6	0.00e+00	0	61	0	1454374912	40	4231
2026-01-25 04:12:22.41	10.65	31.59	-35.3	-36.4	18.5	0.00e+00	0	61	0	1462763520	40	4269
2026-01-25 04:12:23.42	10.60	31.79	-35.3	-36.4	18.5	0.00e+00	0	61	0	1470103552	40	4287
2026-01-25 04:12:24.43	10.54	31.99	-35.3	-36.5	18.4	0.00e+00	0	61	0	1476395008	40	4293
2026-01-25 04:12:25.44	10.49	32.20	-35.5	-36.7	18.3	0.00e+00	0	61	0	1483735040	40	4398
2026-01-25 04:12:26.45	10.43	32.40	-35.5	-36.7	18.2	0.00e+00	0	61	0	1491075072	40	4422
2026-01-25 04:12:27.45	10.38	32.61	-35.5	-36.6	18.3	0.00e+00	0	61	0	1498415104	40	4386
2026-01-25 04:12:28.46	10.32	32.82	-35.4	-36.6	18.3	0.00e+00	0	61	0	1505755136	40	4350
2026-01-25 04:12:29.47	10.26	33.03	-35.4	-36.5	18.4	0.00e+00	0	61	0	1513095168	40	4339
2026-01-25 04:12:30.48	10.20	33.24	-35.4	-36.5	18.4	0.00e+00	0	61	0	1520435200	40	4340
2026-01-25 04:12:31.49	10.14	33.45	-35.3	-36.4	18.5	0.00e+00	0	61	0	1527775232	40	4280
2026-01-25 04:12:32.50	10.08	33.67	-35.2	-36.3	18.6	0.00e+00	0	61	0	1535115264	40	4208
2026-01-25 04:12:33.51	10.02	33.88	-35.1	-36.3	18.6	0.00e+00	0	61	0	1542455296	40	4203
2026-01-25 04:12:34.52	9.96	34.10	-35.1	-36.2	18.7	0.00e+00	0	61	0	1549795328	40	4181
2026-01-25 04:12:35.53	9.89	34.32	-35.0	-36.2	18.7	0.00e+00	0	61	0	1557135360	40	4147
2026-01-25 04:12:36.54	9.83	34.54	-35.0	-36.1	18.8	0.00e+00	0	61	0	1564475392	40	4134
2026-01-25 04:12:37.55	9.77	34.76	-35.0	-36.1	18.8	0.00e+00	0	61	0	1571815424	40	4112
2026-01-25 04:12:38.56	9.70	34.99	-34.9	-36.0	18.9	0.00e+00	0	61	0	1579155456	40	4085
2026-01-25 04:12:39.57	9.63	35.21	-35.0	-36.1	18.8	0.00e+00	0	61	0	1586495488	40	4122
2026-01-25 04:12:40.58	9.57	35.44	-35.0	-36.2	18.7	0.00e+00	0	61	0	1593835520	40	4146
2026-01-25 04:12:41.59	9.50	35.67	-35.1	-36.2	18.7	0.00e+00	0	61	0	1600126976	40	4172
2026-01-25 04:12:42.60	9.43	35.90	-35.2	-36.3	18.6	0.00e+00	0	61	0	1607467008	40	4234
2026-01-25 04:12:43.61	9.36	36.13	-35.1	-36.3	18.6	0.00e+00	0	61	0	1615855616	40	4205
2026-01-25 04:12:44.62	9.28	36.37	-35.2	-36.3	18.7	0.00e+00	0	61	0	1622147072	40	4207
2026-01-25 04:12:45.63	9.21	36.60	-35.1	-36.2	18.7	0.00e+00	0	61	0	1629487104	40	4178
2026-01-25 04:12:46.64	9.14	36.84	-35.0	-36.1	18.8	0.00e+00	0	61	0	1636827136	40	4120
2026-01-25 04:12:47.65	9.06	37.08	-35.1	-36.2	18.7	0.00e+00	0	61	0	1644167168	40	4193
2026-01-25 04:12:48.66	8.98	37.32	-35.1	-36.2	18.7	0.00e+00	0	61	0	1651507200	40	4180
2026-01-25 04:12:49.67	8.91	37.56	-35.0	-36.1	18.9	0.00e+00	0	61	0	1658847232	40	4114
2026-01-25 04:12:50.68	8.83	37.80	-35.0	-36.1	18.8	0.00e+00	0	61	0	1666187264	40	4143
2026-01-25 04:12:51.69	8.75	38.05	-35.0	-36.2	18.8	0.00e+00	0	61	0	1673527296	40	4154
2026-01-25 04:12:52.70	8.67	38.30	-34.8	-35.9	19.0	0.00e+00	0	61	0	1680867328	40	4039
2026-01-25 04:12:53.71	8.58	38.54	-34.7	-35.8	19.1	0.00e+00	0	61	0	1688207360	40	3979
2026-01-25 04:12:54.72	8.50	38.80	-34.8	-35.9	19.0	0.00e+00	0	61	0	1695547392	40	4022
2026-01-25 04:12:55.73	8.41	39.05	-34.8	-35.8	19.1	0.00e+00	0	61	0	1702887424	40	4001
2026-01-25 04:12:56.74	8.33	39.30	-34.9	-36.0	19.0	0.00e+00	0	61	0	1710227456	40	4053
2026-01-25 04:12:57.75	8.24	39.56	-35.1	-36.2	18.8	0.00e+00	0	61	0	1717567488	40	4158
2026-01-25 04:12:58.76	8.15	39.82	-35.2	-36.3	18.7	0.00e+00	0	61	0	1724907520	40	4225
2026-01-25 04:12:59.77	8.06	40.08	-35.1	-36.2	18.8	0.00e+00	0	61	0	1732247552	40	4158
2026-01-25 04:13:00.78	7.97	40.34	-35.1	-36.2	18.7	0.00e+00	0	61	0	1739587584	40	4186
2026-01-25 04:13:01.79	7.87	40.60	-35.2	-36.3	18.7	0.00e+00	0	61	0	1746927616	40	4206
2026-01-25 04:13:02.80	7.78	40.87	-35.3	-36.5	18.5	0.00e+00	0	61	0	1753219072	40	4294
2026-01-25 04:13:03.81	7.68	41.13	-35.4	-36.5	18.5	0.00e+00	0	61	0	1760559104	40	4340
2026-01-25 04:13:04.82	7.58	41.40	-35.3	-36.5	18.5	0.00e+00	0	61	0	1768947712	40	4309
2026-01-25 04:13:05.83	7.48	41.67	-35.2	-36.3	18.6	0.00e+00	0	61	0	1775239168	40	4240
2026-01-25 04:13:06.84	7.38	41.95	-35.0	-36.1	18.8	0.00e+00	0	61	0	1782579200	40	4142
2026-01-25 04:13:07.85	7.27	42.22	-35.2	-36.3	18.7	0.00e+00	0	61	0	1789919232	40	4212
2026-01-25 04:13:08.85	7.17	42.50	-35.2	-36.3	18.7	0.00e+00	0	61	0	1797259264	40	4235
2026-01-25 04:13:09.86	7.06	42.77	-35.3	-36.4	18.6	0.00e+00	0	61	0	1804599296	40	4269
2026-01-25 04:13:10.87	6.95	43.05	-35.1	-36.2	18.8	0.00e+00	0	61	0	1811939328	40	4176
2026-01-25 04:13:11.88	6.83	43.34	-35.2	-36.3	18.7	0.00e+00	0	61	0	1819279360	40	4209
2026-01-25 04:13:12.89	6.72	43.62	-35.3	-36.5	18.6	0.00e+00	0	62	0	1826619392	40	4292
2026-01-25 04:13:13.90	6.60	43.91	-35.4	-36.6	18.5	0.00e+00	0	61	0	1833959424	40	4346
2026-01-25 04:13:14.91	6.48	44.20	-35.4	-36.5	18.5	0.00e+00	0	61	0	1841299456	40	4324
2026-01-25 04:13:15.92	6.36	44.49	-35.6	-36.8	18.2	0.00e+00	0	61	0	1848639488	40	4464
2026-01-25 04:13:16.93	6.24	44.78	-35.5	-36.7	18.3	0.00e+00	0	61	0	1855979520	41	4162
2026-01-25 04:13:17.95	6.11	45.08	-35.5	-36.7	18.3	0.00e+00	0	61	0	1863319552	41	4156
2026-01-25 04:13:18.96	5.98	45.38	-35.5	-36.6	18.4	0.00e+00	0	61	0	1870659584	41	4128
2026-01-25 04:13:19.97	5.85	45.67	-35.5	-36.6	18.4	0.00e+00	0	61	0	1877999616	41	4125
2026-01-25 04:13:20.98	5.72	45.98	-35.5	-36.7	18.4	0.00e+00	0	61	0	1885339648	41	4173
2026-01-25 04:13:21.99	5.59	46.28	-35.6	-36.7	18.3	0.00e+00	0	61	0	1892679680	41	4182
2026-01-25 04:13:23.00	5.45	46.58	-35.7	-36.9	18.2	0.00e+00	0	61	0	1898971136	41	4256
2026-01-25 04:13:24.01	5.31	46.89	-35.8	-37.0	18.1	0.00e+00	0	61	0	1906311168	41	4312
2026-01-25 04:13:25.01	5.16	47.20	-36.0	-37.2	17.9	0.00e+00	0	62	0	1914699776	41	4418
2026-01-25 04:13:26.02	5.02	47.51	-36.1	-37.4	17.7	0.00e+00	0	61	0	1920991232	41	4507
2026-01-25 04:13:27.03	4.86	47.82	-36.1	-37.4	17.7	0.00e+00	0	61	0	1928331264	42	4263
2026-01-25 04:13:28.04	4.71	48.14	-36.3	-37.5	17.6	0.00e+00	0	61	0	1935671296	42	4338
2026-01-25 04:13:29.06	4.55	48.46	-36.4	-37.6	17.4	0.00e+00	0	61	0	1943011328	42	4384
2026-01-25 04:13:30.07	4.39	48.78	-36.4	-37.6	17.5	0.00e+00	0	62	0	1950351360	42	4384
2026-01-25 04:13:31.08	4.23	49.10	-36.4	-37.7	17.4	0.00e+00	0	61	0	1957691392	42	4416
2026-01-25 04:13:32.08	4.06	49.42	-36.5	-37.8	17.3	0.00e+00	0	61	0	1965031424	42	4462
2026-01-25 04:13:33.09	3.89	49.75	-36.6	-37.9	17.2	0.00e+00	0	61	0	1972371456	42	4530
2026-01-25 04:13:34.11	3.72	50.08	-36.1	-37.4	17.7	0.00e+00	0	61	0	1979711488	43	4008
2026-01-25 04:13:35.11	3.54	50.40	-36.4	-37.7	17.4	0.00e+00	0	61	0	1987051520	43	4161
2026-01-25 04:13:36.13	3.36	50.74	-36.4	-37.6	17.5	0.00e+00	0	61	0	1994391552	43	4120
2026-01-25 04:13:37.13	3.17	51.07	-36.2	-37.4	17.6	0.00e+00	0	61	0	2001731584	43	4045
2026-01-25 04:13:38.14	2.98	51.41	-36.3	-37.5	17.6	0.00e+00	0	61	0	2009071616	43	4088
2026-01-25 04:13:39.15	2.79	51.75	-36.0	-37.2	17.8	0.00e+00	0	61	0	2016411648	43	3952
2026-01-25 04:13:40.16	2.59	52.09	-36.1	-37.3	17.8	0.00e+00	0	62	0	2023751680	42	4229
2026-01-25 04:13:41.18	2.38	52.43	-36.3	-37.5	17.6	0.00e+00	0	61	0	2031091712	42	4327
2026-01-25 04:13:42.19	2.17	52.78	-36.5	-37.8	17.4	0.00e+00	0	62	0	2038431744	42	4452
2026-01-25 04:13:43.20	1.95	53.12	-36.8	-38.1	17.0	0.00e+00	0	61	0	2045771776	43	4347
2026-01-25 04:13:44.21	1.73	53.47	-36.8	-38.1	17.0	0.00e+00	0	62	0	2052063232	43	4360
2026-01-25 04:13:45.22	1.51	53.82	-37.1	-38.5	16.8	0.00e+00	0	61	0	2060451840	44	4299
2026-01-25 04:13:46.23	1.28	54.18	-37.0	-38.3	17.0	0.00e+00	0	61	0	2067791872	44	4213
2026-01-25 04:13:47.24	1.04	54.53	-36.7	-38.0	17.3	0.00e+00	0	61	0	2074083328	44	4070
2026-01-25 04:13:48.25	0.80	54.89	-36.7	-38.0	17.3	0.00e+00	0	61	0	2081423360	44	4068
2026-01-25 04:13:49.26	0.55	55.25	-36.6	-37.8	17.5	0.00e+00	0	61	0	2089811968	44	3981
2026-01-25 04:13:50.27	0.29	55.61	-36.4	-37.6	17.5	0.00e+00	0	61	0	2096103424	42	4375
2026-01-25 04:13:51.28	0.03	55.97	-36.4	-37.7	17.4	0.00e+00	0	62	0	2103443456	42	4412
2026-01-25 04:13:52.29	359.76	56.33	-37.0	-38.3	16.8	0.00e+00	0	62	0	2110783488	43	4467
2026-01-25 04:13:53.30	359.49	56.70	-37.3	-38.7	16.6	0.00e+00	0	61	0	2118123520	44	4420
2026-01-25 04:13:54.31	359.20	57.06	-37.6	-39.0	16.1	0.00e+00	0	61	0	2125463552	44	4595
2026-01-25 04:13:55.32	358.91	57.43	-37.4	-38.7	16.5	0.00e+00	0	62	0	2132803584	44	4435
2026-01-25 04:13:56.33	358.61	57.80	-37.0	-38.3	17.0	0.00e+00	0	61	0	2140143616	44	4204
2026-01-25 04:13:57.34	358.30	58.18	-36.6	-37.8	17.4	0.00e+00	0	61	0	2147483648	44	3994
2026-01-25 04:13:58.35	357.98	58.55	-36.3	-37.6	17.6	0.00e+00	0	61	0	2154823680	43	4101
2026-01-25 04:13:59.36	357.65	58.93	-36.7	-38.0	17.2	0.00e+00	0	62	0	2162163712	43	4308
2026-01-25 04:14:00.37	357.32	59.30	-36.4	-37.7	17.5	0.00e+00	0	62	0	2169503744	43	4156
2026-01-25 04:14:01.38	356.97	59.68	-36.7	-38.0	17.2	0.00e+00	0	61	0	2176843776	43	4299
2026-01-25 04:14:02.39	356.62	60.06	-36.7	-38.1	17.1	0.00e+00	0	62	0	2184183808	43	4347
2026-01-25 04:14:03.40	356.25	60.44	-36.5	-37.8	17.4	0.00e+00	0	61	0	2191523840	43	4196
2026-01-25 04:14:04.41	355.87	60.82	-36.2	-37.4	17.7	0.00e+00	0	62	0	2198863872	42	4261
2026-01-25 04:14:05.42	355.48	61.21	-36.1	-37.4	17.8	1.10e-06	0	62	0	2206203904	42	4244
2026-01-25 04:14:06.43	355.07	61.59	-36.1	-37.3	17.8	0.00e+00	0	62	0	2213543936	42	4233
2026-01-25 04:14:07.44	354.66	61.98	-36.2	-37.4	17.7	1.10e-06	0	61	0	2219835392	42	4259
2026-01-25 04:14:08.45	354.23	62.36	-36.3	-37.5	17.6	0.00e+00	0	62	0	2227175424	42	4319
2026-01-25 04:14:09.46	353.79	62.75	-36.1	-37.4	17.7	0.00e+00	0	62	0	2234515456	42	4248
2026-01-25 04:14:10.47	353.33	63.14	-35.5	-36.7	18.4	2.97e-05	0	62	0	2242904064	41	4155
2026-01-25 04:14:11.48	352.86	63.52	-35.5	-36.6	18.4	0.00e+00	0	61	0	2249195520	41	4142
2026-01-25 04:14:12.49	352.37	63.91	-35.6	-36.8	18.3	0.00e+00	0	62	0	2256535552	41	4216
2026-01-25 04:14:13.50	351.86	64.30	-35.7	-36.8	18.3	0.00e+00	0	62	0	2263875584	41	4234
2026-01-25 04:14:14.51	351.34	64.69	-35.5	-36.7	18.4	0.00e+00	0	61	0	2271215616	41	4149
2026-01-25 04:14:15.52	350.79	65.08	-34.7	-35.8	19.1	0.00e+00	0	62	0	2278555648	40	3962
2026-01-25 04:14:16.52	350.24	65.46	-35.1	-36.2	18.9	0.00e+00	0	61	0	2285895680	40	4167
2026-01-25 04:14:17.53	349.66	65.85	-35.0	-36.1	19.0	0.00e+00	0	62	0	2293235712	40	4101
2026-01-25 04:14:18.54	349.05	66.24	-35.1	-36.2	18.9	0.00e+00	0	62	0	2300575744	40	4180
2026-01-25 04:14:19.55	348.43	66.63	-35.3	-36.4	18.7	0.00e+00	0	62	0	2307915776	40	4255
2026-01-25 04:14:20.56	347.78	67.02	-35.3	-36.4	18.7	0.00e+00	0	62	0	2315255808	40	4284
2026-01-25 04:14:21.57	347.11	67.40	-35.3	-36.5	18.6	0.00e+00	0	62	0	2322595840	40	4293
2026-01-25 04:14:22.59	346.41	67.79	-35.1	-36.3	18.8	0.00e+00	0	61	0	2329935872	40	4195
2026-01-25 04:14:23.60	345.68	68.17	-35.1	-36.2	18.9	0.00e+00	0	62	0	2337275904	40	4159
2026-01-25 04:14:24.61	344.93	68.55	-35.2	-36.3	18.7	0.00e+00	0	62	0	2344615936	40	4224
2026-01-25 04:14:25.62	344.14	68.93	-35.5	-36.7	18.5	0.00e+00	0	61	0	2351955968	40	4397
2026-01-25 04:14:26.62	343.34	69.31	-35.3	-36.5	18.6	0.00e+00	0	62	0	2359296000	41	4066
2026-01-25 04:14:27.63	342.49	69.68	-35.5	-36.7	18.4	0.00e+00	0	62	0	2366636032	41	4171
2026-01-25 04:14:28.64	341.61	70.05	-35.8	-37.0	18.1	0.00e+00	0	62	0	2372927488	41	4326
2026-01-25 04:14:29.65	340.70	70.42	-35.7	-36.9	18.2	0.00e+00	0	62	0	2380267520	41	4266
2026-01-25 04:14:30.67	339.73	70.79	-35.7	-36.9	18.1	0.00e+00	0	62	0	2388656128	41	4278
2026-01-25 04:14:31.68	338.74	71.15	-35.5	-36.6	18.4	0.00e+00	0	62	0	2394947584	41	4137
2026-01-25 04:14:32.69	337.70	71.51	-35.6	-36.8	18.3	0.00e+00	0	62	0	2402287616	41	4215
2026-01-25 04:14:33.69	336.64	71.86	-35.4	-36.6	18.4	0.00e+00	0	62	0	2409627648	41	4113
2026-01-25 04:14:34.70	335.52	72.20	-35.2	-36.3	18.7	0.00e+00	0	61	0	2416967680	41	3962
2026-01-25 04:14:35.71	334.35	72.55	-34.4	-36.0	19.0	0.00e+00	0	62	0	2424307712	40	4075
2026-01-25 04:14:36.72	333.13	72.88	-34.9	-35.9	18.9	0.00e+00	0	61	0	2431647744	40	4050
2026-01-25 04:14:37.73	331.86	73.21	-34.9	-36.0	19.0	0.00e+00	0	61	0	2438987776	40	4061
2026-01-25 04:14:38.74	330.54	73.53	-34.8	-35.9	19.2	0.00e+00	0	62	0	2446327808	40	4007
2026-01-25 04:14:39.75	329.16	73.84	-34.7	-35.7	19.3	0.00e+00	0	62	0	2453667840	40	3947
2026-01-25 04:14:40.76	327.73	74.15	-34.7	-35.7	19.3	0.00e+00	0	62	0	2461007872	40	3941
2026-01-25 04:14:41.77	326.24	74.44	-34.7	-35.7	19.3	0.00e+00	0	62	0	2468347904	39	4189
2026-01-25 04:14:42.78	324.69	74.73	-34.6	-35.7	19.4	0.00e+00	0	62	0	2475687936	39	4169
2026-01-25 04:14:43.79	323.08	75.00	-34.6	-35.6	19.5	0.00e+00	0	62	0	2483027968	39	4145
2026-01-25 04:14:44.80	321.41	75.27	-34.6	-35.6	19.5	0.00e+00	0	61	0	2490368000	39	4138
2026-01-25 04:14:45.81	319.68	75.52	-34.7	-35.7	19.3	0.00e+00	0	62	0	2497708032	39	4187
2026-01-25 04:14:46.82	317.88	75.76	-34.5	-35.6	19.4	0.00e+00	0	62	0	2505048064	39	4102
2026-01-25 04:14:47.83	316.02	75.98	-34.5	-35.6	19.3	0.00e+00	0	62	0	2512388096	39	4103
2026-01-25 04:14:48.84	314.11	76.19	-34.4	-35.4	19.6	0.00e+00	0	61	0	2519728128	39	4048
2026-01-25 04:14:49.85	312.13	76.39	-34.5	-35.5	19.6	0.00e+00	0	62	0	2526019584	39	4096
2026-01-25 04:14:50.85	310.12	76.57	-34.7	-35.8	19.2	0.00e+00	0	61	0	2534408192	39	4220
2026-01-25 04:14:51.86	308.03	76.73	-34.2	-35.3	19.8	0.00e+00	0	62	0	2541748224	39	3967
2026-01-25 04:14:52.88	305.87	76.88	-34.0	-35.0	20.0	0.00e+00	0	61	0	2548039680	38	4093
2026-01-25 04:14:53.89	303.68	77.00	-34.1	-35.1	19.9	0.00e+00	0	62	0	2555379712	38	4139
2026-01-25 04:14:54.89	301.48	77.11	-34.1	-35.1	19.9	0.00e+00	0	62	0	2562719744	38	4142
2026-01-25 04:14:55.90	299.22	77.20	-34.1	-35.1	20.0	0.00e+00	0	62	0	2570059776	38	4136
2026-01-25 04:14:56.91	296.92	77.27	-34.0	-35.0	20.1	0.00e+00	0	62	0	2577399808	38	4061
2026-01-25 04:14:57.92	294.61	77.32	-34.0	-35.0	20.0	0.00e+00	0	62	0	2584739840	38	4094
2026-01-25 04:14:58.93	292.28	77.35	-34.4	-35.5	19.6	0.00e+00	0	62	0	2592079872	38	4316
2026-01-25 04:14:59.94	289.95	77.36	-34.5	-35.6	19.5	0.00e+00	0	62	0	2599419904	38	4347
2026-01-25 04:15:00.95	287.61	77.35	-34.4	-35.4	19.7	0.00e+00	0	62	0	2606759936	38	4282
2026-01-25 04:15:01.96	285.28	77.32	-34.2	-35.2	19.9	0.00e+00	0	62	0	2614099968	38	4165
2026-01-25 04:15:02.97	282.97	77.26	-34.2	-35.2	19.8	0.00e+00	0	62	0	2621440000	38	4171
2026-01-25 04:15:03.98	280.68	77.19	-34.1	-35.1	20.0	0.00e+00	0	62	0	2628780032	38	4104
2026-01-25 04:15:04.99	278.42	77.10	-34.2	-35.2	19.8	0.00e+00	0	62	0	2636120064	38	4187
2026-01-25 04:15:06.00	276.20	76.99	-34.3	-35.4	19.7	0.00e+00	0	62	0	2643460096	38	4255
2026-01-25 04:15:07.01	274.02	76.86	-34.6	-35.7	19.4	0.00e+00	0	61	0	2650800128	39	4175
2026-01-25 04:15:08.02	271.88	76.71	-34.9	-36.0	19.1	0.00e+00	0	62	0	2658140160	39	4325
2026-01-25 04:15:09.03	269.80	76.55	-34.6	-35.7	19.4	0.00e+00	0	62	0	2665480192	39	4167
2026-01-25 04:15:10.04	267.77	76.36	-34.4	-35.5	19.6	0.00e+00	0	62	0	2671771648	39	4060
2026-01-25 04:15:11.05	265.80	76.17	-34.3	-35.4	19.7	0.00e+00	0	62	0	2679111680	39	4021
2026-01-25 04:15:12.06	263.89	75.95	-34.7	-35.8	19.2	0.00e+00	0	62	0	2687500288	39	4225
2026-01-25 04:15:13.07	262.04	75.73	-34.9	-36.0	19.1	0.00e+00	0	62	0	2693791744	39	4326
2026-01-25 04:15:14.08	260.25	75.49	-34.7	-35.8	19.3	0.00e+00	0	62	0	2701131776	39	4232
2026-01-25 04:15:15.09	258.52	75.23	-34.6	-35.6	19.5	0.00e+00	0	62	0	2708471808	39	4120
2026-01-25 04:15:16.10	256.86	74.97	-34.8	-35.9	19.2	0.00e+00	0	62	0	2715811840	39	4252
2026-01-25 04:15:17.11	255.26	74.69	-35.1	-36.2	18.9	0.00e+00	0	62	0	2723151872	39	4406
2026-01-25 04:15:18.12	253.71	74.40	-35.2	-36.3	18.8	0.00e+00	0	62	0	2730491904	40	4220
2026-01-25 04:15:19.13	252.23	74.11	-35.2	-36.3	18.7	0.00e+00	0	62	0	2737831936	40	4219
2026-01-25 04:15:20.14	250.80	73.80	-35.0	-36.1	19.0	0.00e+00	0	62	0	2745171968	40	4114
2026-01-25 04:15:21.15	249.43	73.49	-35.1	-36.2	18.9	0.00e+00	0	62	0	2752512000	40	4153
2026-01-25 04:15:22.16	248.12	73.16	-34.9	-36.0	19.0	0.00e+00	0	62	0	2759852032	40	4054
2026-01-25 04:15:23.18	246.84	72.83	-34.6	-35.7	19.3	0.00e+00	0	62	0	2767192064	40	3943
2026-01-25 04:15:24.19	245.63	72.49	-34.9	-36.0	19.0	0.00e+00	0	62	0	2774532096	40	4076
2026-01-25 04:15:25.20	244.46	72.15	-35.2	-36.3	18.7	0.00e+00	0	62	0	2781872128	40	4215
2026-01-25 04:15:26.21	243.35	71.80	-35.4	-36.5	18.5	0.00e+00	0	62	0	2789212160	40	4336
2026-01-25 04:15:27.22	242.27	71.45	-35.5	-36.7	18.3	0.00e+00	0	62	0	2796552192	40	4421
2026-01-25 04:15:28.23	241.25	71.09	-35.3	-36.5	18.6	0.00e+00	0	62	0	2803892224	40	4307
2026-01-25 04:15:29.23	240.27	70.73	-35.1	-36.2	18.8	0.00e+00	0	62	0	2811232256	40	4186
2026-01-25 04:15:30.24	239.32	70.37	-35.2	-36.3	18.8	0.00e+00	0	62	0	2818572288	40	4220
2026-01-25 04:15:31.25	238.40	70.00	-35.4	-36.5	18.6	0.00e+00	0	62	0	2825912320	40	4327
2026-01-25 04:15:32.27	237.52	69.62	-35.5	-36.6	18.4	0.00e+00	0	61	0	2833252352	40	4388
2026-01-25 04:15:33.28	236.68	69.25	-35.4	-36.6	18.5	0.00e+00	0	62	0	2840592384	40	4343
2026-01-25 04:15:34.29	235.87	68.87	-35.3	-36.4	18.7	0.00e+00	0	62	0	2846883840	40	4255
2026-01-25 04:15:35.30	235.09	68.49	-35.4	-36.5	18.6	0.00e+00	0	62	0	2854223872	40	4334
2026-01-25 04:15:36.31	234.34	68.10	-35.5	-36.7	18.4	0.00e+00	0	62	0	2862612480	40	4413
2026-01-25 04:15:37.32	233.62	67.72	-35.5	-36.7	18.3	0.00e+00	0	62	0	2868903936	40	4423
2026-01-25 04:15:38.33	232.92	67.33	-35.3	-36.4	18.7	0.00e+00	0	62	0	2876243968	40	4254
2026-01-25 04:15:39.34	232.25	66.95	-35.1	-36.2	18.9	0.00e+00	0	62	0	2883584000	40	4160
2026-01-25 04:15:40.35	231.61	66.56	-35.1	-36.2	18.8	0.00e+00	0	62	0	2890924032	40	4174
2026-01-25 04:15:41.35	230.99	66.17	-35.4	-36.6	18.5	0.00e+00	0	62	0	2898264064	40	4356
2026-01-25 04:15:42.36	230.39	65.79	-35.7	-36.9	18.1	0.00e+00	0	62	0	2905604096	41	4279
2026-01-25 04:15:43.37	229.81	65.40	-35.8	-37.0	18.1	0.00e+00	0	62	0	2912944128	41	4297
2026-01-25 04:15:44.38	229.25	65.01	-35.6	-36.7	18.3	0.00e+00	0	62	0	2920284160	41	4180
2026-01-25 04:15:45.39	228.71	64.62	-35.5	-36.6	18.4	0.00e+00	0	62	0	2927624192	41	4122
2026-01-25 04:15:46.40	228.19	64.23	-35.7	-36.9	18.2	0.00e+00	0	62	0	2934964224	41	4258
2026-01-25 04:15:47.41	227.68	63.84	-35.9	-37.1	17.9	0.00e+00	0	62	0	2942304256	41	4383
2026-01-25 04:15:48.42	227.20	63.45	-35.9	-37.1	17.9	0.00e+00	0	62	0	2949644288	41	4379
2026-01-25 04:15:49.43	226.73	63.06	-36.0	-37.3	17.8	0.00e+00	0	62	0	2956984320	41	4449
2026-01-25 04:15:50.44	226.27	62.67	-36.1	-37.3	17.7	0.00e+00	0	62	0	2964324352	41	4483
2026-01-25 04:15:51.45	225.83	62.28	-36.0	-37.2	17.8	0.00e+00	0	62	0	2970615808	41	4437
2026-01-25 04:15:52.46	225.40	61.89	-35.9	-37.1	18.0	0.00e+00	0	62	0	2979004416	41	4348
2026-01-25 04:15:53.47	224.99	61.51	-36.0	-37.2	17.8	0.00e+00	0	62	0	2986344448	41	4428
2026-01-25 04:15:54.48	224.58	61.12	-35.9	-37.1	17.9	0.00e+00	0	62	0	2992635904	41	4376
2026-01-25 04:15:55.49	224.19	60.74	-36.1	-37.3	17.8	0.00e+00	0	62	0	2999975936	41	4470
2026-01-25 04:15:56.50	223.82	60.36	-36.2	-37.4	17.7	0.00e+00	0	62	0	3008364544	41	4533
2026-01-25 04:15:57.51	223.45	59.97	-36.3	-37.5	17.5	0.00e+00	0	62	0	3014656000	42	4319
2026-01-25 04:15:58.52	223.09	59.59	-36.3	-37.5	17.6	0.00e+00	0	62	0	3021996032	42	4311
2026-01-25 04:15:59.53	222.75	59.21	-36.2	-37.4	17.7	0.00e+00	0	62	0	3029336064	42	4259
2026-01-25 04:16:00.54	222.41	58.84	-36.3	-37.5	17.4	0.00e+00	0	62	0	3036676096	42	4339
2026-01-25 04:16:01.55	222.09	58.46	-36.6	-37.8	17.3	0.00e+00	0	62	0	3044016128	42	4492
2026-01-25 04:16:02.56	221.77	58.09	-36.7	-37.9	17.2	0.00e+00	0	62	0	3051356160	42	4544
2026-01-25 04:16:03.57	221.46	57.71	-36.5	-37.8	17.3	0.00e+00	0	62	0	3058696192	42	4471
2026-01-25 04:16:04.58	221.16	57.34	-36.1	-37.3	17.8	0.00e+00	0	62	0	3066036224	42	4239
2026-01-25 04:16:05.59	220.87	56.97	-36.1	-37.3	17.8	0.00e+00	0	62	0	3073376256	42	4222
2026-01-25 04:16:06.60	220.59	56.60	-36.3	-37.6	17.6	0.00e+00	0	62	0	3080716288	42	4344
2026-01-25 04:16:07.61	220.31	56.24	-36.6	-37.9	17.1	0.00e+00	0	62	0	3088056320	42	4503
2026-01-25 04:16:08.62	220.04	55.87	-36.7	-38.0	17.2	0.00e+00	0	62	0	3095396352	43	4306
2026-01-25 04:16:09.63	219.78	55.51	-36.4	-37.6	17.5	0.00e+00	0	62	0	3102736384	43	4133
2026-01-25 04:16:10.64	219.53	55.15	-36.1	-37.3	17.8	0.00e+00	0	62	0	3110076416	43	3975
2026-01-25 04:16:11.64	219.28	54.79	-35.8	-37.0	18.1	0.00e+00	0	62	0	3117416448	42	4072
2026-01-25 04:16:12.65	219.04	54.43	-35.8	-36.9	18.2	0.00e+00	0	62	0	3124756480	42	4038
2026-01-25 04:16:13.66	218.80	54.08	-36.0	-37.2	18.0	0.00e+00	0	62	0	3132096512	42	4157
2026-01-25 04:16:14.67	218.57	53.72	-36.2	-37.4	17.7	0.00e+00	0	62	0	3139436544	42	4284
2026-01-25 04:16:15.68	218.34	53.37	-36.3	-37.6	17.5	0.00e+00	0	62	0	3145728000	42	4363
2026-01-25 04:16:16.69	218.12	53.02	-36.4	-37.7	17.5	0.00e+00	0	62	0	3153068032	42	4403
2026-01-25 04:16:17.70	217.91	52.68	-36.6	-37.9	17.3	0.00e+00	0	62	0	3161456640	42	4498
2026-01-25 04:16:18.71	217.70	52.33	-36.6	-37.8	17.3	0.00e+00	0	62	0	3167748096	42	4486
2026-01-25 04:16:19.72	217.50	51.99	-36.7	-38.1	17.1	0.00e+00	0	62	0	3175088128	43	4341
2026-01-25 04:16:20.73	217.30	51.64	-36.7	-38.1	17.1	0.00e+00	0	62	0	3182428160	43	4349
2026-01-25 04:16:21.74	217.10	51.31	-36.8	-38.1	17.0	0.00e+00	0	62	0	3189768192	43	4368
2026-01-25 04:16:22.75	216.91	50.97	-36.6	-37.9	17.2	0.00e+00	0	62	0	3197108224	43	4281
2026-01-25 04:16:23.76	216.72	50.63	-36.5	-37.8	17.3	0.00e+00	0	62	0	3204448256	43	4200
2026-01-25 04:16:24.77	216.54	50.30	-36.3	-37.6	17.5	0.00e+00	0	62	0	3211788288	43	4112
2026-01-25 04:16:25.78	216.36	49.97	-36.2	-37.4	17.6	0.00e+00	0	62	0	3219128320	43	4025
2026-01-25 04:16:26.79	216.19	49.64	-36.3	-37.5	17.6	0.00e+00	0	62	0	3226468352	43	4096
2026-01-25 04:16:27.80	216.02	49.31	-36.3	-37.6	17.5	0.00e+00	0	62	0	3233808384	43	4101
2026-01-25 04:16:28.81	215.85	48.99	-36.3	-37.6	17.5	0.00e+00	0	62	0	3241148416	43	4106
2026-01-25 04:16:29.82	215.69	48.67	-36.1	-37.3	17.7	0.00e+00	0	62	0	3248488448	43	4001
2026-01-25 04:16:30.83	215.53	48.34	-36.1	-37.4	17.7	0.00e+00	0	62	0	3255828480	43	4019
2026-01-25 04:16:31.84	215.37	48.03	-36.1	-37.3	17.7	0.00e+00	0	62	0	3263168512	43	3997
2026-01-25 04:16:32.85	215.22	47.71	-36.0	-37.2	17.9	0.00e+00	0	62	0	3269459968	42	4159
2026-01-25 04:16:33.86	215.07	47.40	-35.8	-37.0	18.1	0.00e+00	0	62	0	3277848576	42	4065
2026-01-25 04:16:34.87	214.92	47.08	-35.8	-37.0	18.1	0.00e+00	0	62	0	3285188608	42	4066
2026-01-25 04:16:35.88	214.78	46.77	-35.9	-37.1	18.0	0.00e+00	0	62	0	3291480064	42	4114
2026-01-25 04:16:36.89	214.64	46.46	-35.8	-37.0	18.0	0.00e+00	0	62	0	3298820096	42	4065
2026-01-25 04:16:37.90	214.50	46.16	-35.8	-37.0	18.1	0.00e+00	0	62	0	3306160128	42	4081
2026-01-25 04:16:38.91	214.36	45.86	-35.7	-36.9	18.2	0.00e+00	0	62	0	3313500160	42	4028
2026-01-25 04:16:39.92	214.23	45.55	-35.6	-36.7	18.3	0.00e+00	0	62	0	3320840192	42	3951
2026-01-25 04:16:40.93	214.10	45.25	-35.5	-36.6	18.5	0.00e+00	0	62	0	3328180224	42	3898
2026-01-25 04:16:41.94	213.97	44.96	-35.4	-36.5	18.5	0.00e+00	0	62	0	3335520256	41	4094
2026-01-25 04:16:42.95	213.84	44.66	-35.3	-36.5	18.6	0.00e+00	0	62	0	3342860288	41	4053
2026-01-25 04:16:43.96	213.72	44.37	-35.3	-36.5	18.6	0.00e+00	0	62	0	3350200320	41	4056
2026-01-25 04:16:44.97	213.60	44.08	-35.3	-36.4	18.7	0.00e+00	0	62	0	3357540352	41	4016
2026-01-25 04:16:45.98	213.48	43.79	-35.2	-36.4	18.7	0.00e+00	0	62	0	3364880384	41	4011
2026-01-25 04:16:46.99	213.36	43.50	-35.0	-36.1	18.8	0.00e+00	0	62	0	3372220416	41	3896
2026-01-25 04:16:48.00	213.25	43.21	-35.1	-36.2	18.8	0.00e+00	0	62	0	3379560448	40	4164
2026-01-25 04:16:49.01	213.14	42.93	-35.0	-36.1	19.0	0.00e+00	0	62	0	3386900480	40	4128
2026-01-25 04:16:50.02	213.03	42.65	-35.0	-36.1	18.9	0.00e+00	0	62	0	3394240512	40	4132
2026-01-25 04:16:51.03	212.92	42.37	-35.0	-36.1	18.9	0.00e+00	0	62	0	3401580544	40	4121
2026-01-25 04:16:52.03	212.81	42.09	-35.0	-36.1	18.9	0.00e+00	0	62	0	3408920576	40	4138
2026-01-25 04:16:53.04	212.71	41.82	-35.0	-36.1	18.9	0.00e+00	0	62	0	3416260608	40	4141
2026-01-25 04:16:54.05	212.60	41.54	-35.1	-36.2	18.9	0.00e+00	0	62	0	3423600640	40	4177
2026-01-25 04:16:55.06	212.50	41.27	-35.2	-36.4	18.7	0.00e+00	0	62	0	3430940672	40	4254
2026-01-25 04:16:56.08	212.40	41.00	-35.4	-36.5	18.6	0.00e+00	0	62	0	3438280704	40	4329
2026-01-25 04:16:57.08	212.31	40.73	-35.4	-36.6	18.5	0.00e+00	0	62	0	3444572160	40	4347
2026-01-25 04:16:58.10	212.21	40.47	-35.5	-36.7	18.3	0.00e+00	0	62	0	3451912192	40	4392
2026-01-25 04:16:59.11	212.11	40.20	-35.4	-36.5	18.5	0.00e+00	0	62	0	3460300800	40	4340
2026-01-25 04:17:00.12	212.02	39.94	-35.4	-36.5	18.5	0.00e+00	0	62	0	3466592256	40	4330
2026-01-25 04:17:01.12	211.93	39.68	-35.4	-36.5	18.5	0.00e+00	0	62	0	3473932288	40	4319
2026-01-25 04:17:02.14	211.84	39.42	-35.3	-36.5	18.5	0.00e+00	0	62	0	3481272320	40	4299
2026-01-25 04:17:03.15	211.75	39.16	-35.3	-36.5	18.5	0.00e+00	0	62	0	3488612352	40	4297
2026-01-25 04:17:04.16	211.66	38.91	-35.4	-36.5	18.6	0.00e+00	0	62	0	3495952384	40	4310
2026-01-25 04:17:05.17	211.58	38.66	-35.4	-36.5	18.5	0.00e+00	0	62	0	3503292416	40	4317
2026-01-25 04:17:06.18	211.49	38.40	-35.1	-36.2	18.8	0.00e+00	0	62	0	3510632448	40	4186
2026-01-25 04:17:07.18	211.41	38.16	-35.1	-36.2	18.8	0.00e+00	0	62	0	3517972480	40	4172
2026-01-25 04:17:08.19	211.33	37.91	-35.1	-36.2	18.8	0.00e+00	0	62	0	3525312512	40	4151
2026-01-25 04:17:09.20	211.25	37.66	-35.0	-36.1	18.9	0.00e+00	0	62	0	3532652544	40	4102
2026-01-25 04:17:10.21	211.17	37.42	-34.9	-36.0	19.0	0.00e+00	0	62	0	3539992576	40	4093
2026-01-25 04:17:11.22	211.09	37.18	-34.9	-36.0	19.0	0.00e+00	0	62	0	3547332608	40	4068
2026-01-25 04:17:12.23	211.02	36.93	-34.9	-36.0	19.0	0.00e+00	0	62	0	3554672640	40	4079
2026-01-25 04:17:13.24	210.94	36.70	-35.0	-36.1	18.9	0.00e+00	0	62	0	3562012672	40	4111
2026-01-25 04:17:14.25	210.87	36.46	-34.9	-36.0	19.0	0.00e+00	0	62	0	3568304128	40	4077
2026-01-25 04:17:15.26	210.79	36.22	-34.9	-36.0	19.0	0.00e+00	0	62	0	3576692736	40	4054
2026-01-25 04:17:16.27	210.72	35.99	-34.8	-35.9	19.1	0.00e+00	0	62	0	3584032768	40	4015
2026-01-25 04:17:17.28	210.65	35.76	-34.8	-35.9	19.1	0.00e+00	0	62	0	3590324224	40	4031
2026-01-25 04:17:18.29	210.58	35.52	-34.8	-35.9	19.0	0.00e+00	0	62	0	3597664256	40	4020
2026-01-25 04:17:19.30	210.51	35.30	-34.7	-35.8	19.2	0.00e+00	0	62	0	3605004288	40	3970
2026-01-25 04:17:20.31	210.44	35.07	-34.5	-35.6	19.4	0.00e+00	0	62	0	3612344320	40	3888
2026-01-25 04:17:21.32	210.37	34.84	-34.5	-35.6	19.4	0.00e+00	0	62	0	3619684352	40	3874
2026-01-25 04:17:22.33	210.31	34.62	-34.4	-35.4	19.6	0.00e+00	0	62	0	3627024384	39	4032
2026-01-25 04:17:23.34	210.24	34.39	-34.4	-35.4	19.6	0.00e+00	0	62	0	3634364416	39	4037
2026-01-25 04:17:24.35	210.18	34.17	-34.5	-35.5	19.6	0.00e+00	0	62	0	3641704448	39	4075
2026-01-25 04:17:25.36	210.12	33.95	-34.5	-35.6	19.5	0.00e+00	0	62	0	3649044480	39	4105
2026-01-25 04:17:26.37	210.05	33.73	-34.5	-35.6	19.5	0.00e+00	0	62	0	3656384512	39	4109
2026-01-25 04:17:27.38	209.99	33.52	-34.6	-35.7	19.4	0.00e+00	0	62	0	3663724544	39	4167
2026-01-25 04:17:28.39	209.93	33.30	-34.7	-35.8	19.0	0.00e+00	0	62	0	3671064576	39	4235
2026-01-25 04:17:29.40	209.87	33.09	-34.8	-35.9	19.1	0.00e+00	0	62	0	3678404608	39	4271
2026-01-25 04:17:30.41	209.81	32.87	-34.8	-35.9	19.1	0.00e+00	0	62	0	3685744640	39	4285
2026-01-25 04:17:31.42	209.75	32.66	-34.8	-35.9	19.1	0.00e+00	0	62	0	3693084672	39	4282
2026-01-25 04:17:32.43	209.70	32.45	-34.8	-35.9	19.1	0.00e+00	0	62	0	3700424704	39	4284
2026-01-25 04:17:33.43	209.64	32.25	-34.9	-35.9	19.1	0.00e+00	0	62	0	3707764736	39	4290
2026-01-25 04:17:34.45	209.58	32.04	-34.8	-35.8	19.1	0.00e+00	0	62	0	3715104768	39	4238
2026-01-25 04:17:35.46	209.53	31.83	-34.8	-35.9	19.1	0.00e+00	0	62	0	3722444800	39	4283
2026-01-25 04:17:36.47	209.47	31.63	-34.8	-35.9	19.1	0.00e+00	0	62	0	3729784832	39	4281
2026-01-25 04:17:37.48	209.42	31.43	-34.8	-35.9	19.1	0.00e+00	0	62	0	3737124864	39	4277
2026-01-25 04:17:38.49	209.37	31.23	-34.7	-35.7	19.3	0.00e+00	0	62	0	3743416320	39	4177
2026-01-25 04:17:39.50	209.31	31.03	-34.7	-35.7	19.3	0.00e+00	0	62	0	3750756352	39	4183
2026-01-25 04:17:40.51	209.26	30.83	-34.7	-35.8	19.2	0.00e+00	0	62	0	3759144960	39	4201
2026-01-25 04:17:41.51	209.21	30.63	-34.8	-35.8	19.2	0.00e+00	0	62	0	3765436416	39	4233
2026-01-25 04:17:42.52	209.16	30.44	-34.9	-36.0	19.0	0.00e+00	0	62	0	3772776448	39	4307
2026-01-25 04:17:43.54	209.11	30.24	-34.9	-36.0	19.1	0.00e+00	0	62	0	3780116480	39	4302
2026-01-25 04:17:44.55	209.06	30.05	-35.0	-36.1	19.0	0.00e+00	0	62	0	3787456512	39	4360
2026-01-25 04:17:45.56	209.01	29.85	-35.0	-36.2	18.9	0.00e+00	0	62	0	3794796544	39	4392
2026-01-25 04:17:46.57	208.96	29.66	-35.1	-36.2	18.8	0.00e+00	0	62	0	3802136576	39	4427
2026-01-25 04:17:47.58	208.92	29.47	-35.1	-36.2	18.8	0.00e+00	0	62	0	3809476608	39	4437
2026-01-25 04:17:48.58	208.87	29.29	-35.1	-36.2	18.8	0.00e+00	0	62	0	3816816640	39	4429
2026-01-25 04:17:49.60	208.82	29.10	-35.1	-36.3	18.7	0.00e+00	0	62	0	3824156672	39	4454
2026-01-25 04:17:50.61	208.78	28.91	-35.2	-36.3	18.7	0.00e+00	0	62	0	3831496704	39	4474
2026-01-25 04:17:51.62	208.73	28.73	-35.1	-36.3	18.7	0.00e+00	0	62	0	3838836736	40	4201
2026-01-25 04:17:52.63	208.69	28.54	-35.2	-36.3	18.6	0.00e+00	0	62	0	3846176768	40	4224
2026-01-25 04:17:53.64	208.64	28.36	-35.1	-36.3	18.7	0.00e+00	0	62	0	3853516800	40	4196
2026-01-25 04:17:54.65	208.60	28.18	-35.1	-36.2	18.7	0.00e+00	0	62	0	3860856832	40	4181
2026-01-25 04:17:55.66	208.56	28.00	-35.1	-36.3	18.7	0.00e+00	0	62	0	3868196864	40	4204
2026-01-25 04:17:56.67	208.52	27.82	-35.2	-36.4	18.5	0.00e+00	0	62	0	3875536896	40	4254
2026-01-25 04:17:57.68	208.47	27.64	-35.2	-36.3	18.6	0.00e+00	0	62	0	3882876928	40	4241
2026-01-25 04:17:58.69	208.43	27.47	-35.1	-36.3	18.6	0.00e+00	0	62	0	3889168384	40	4196
2026-01-25 04:17:59.70	208.39	27.29	-35.2	-36.3	18.5	0.00e+00	0	62	0	3896508416	40	4223
2026-01-25 04:18:00.71	208.35	27.12	-35.2	-36.3	18.6	0.00e+00	0	62	0	3904897024	40	4219
2026-01-25 04:18:01.72	208.31	26.94	-35.1	-36.3	18.6	0.00e+00	0	62	0	3911188480	40	4212
2026-01-25 04:18:02.73	208.27	26.77	-35.2	-36.4	18.5	0.00e+00	0	62	0	3918528512	40	4247
2026-01-25 04:18:03.74	208.23	26.60	-35.3	-36.4	18.4	0.00e+00	0	62	0	3925868544	40	4277
2026-01-25 04:18:04.75	208.19	26.43	-35.4	-36.5	18.4	0.00e+00	0	62	0	3933208576	40	4326
2026-01-25 04:18:05.76	208.15	26.26	-35.3	-36.5	18.4	0.00e+00	0	62	0	3940548608	40	4303
2026-01-25 04:18:06.77	208.12	26.09	-35.3	-36.5	18.4	0.00e+00	0	62	0	3947888640	40	4302
2026-01-25 04:18:07.78	208.08	25.93	-35.5	-36.7	18.2	0.00e+00	0	62	0	3955228672	40	4393
2026-01-25 04:18:08.78	208.04	25.76	-35.5	-36.6	18.2	0.00e+00	0	62	0	3962568704	40	4383
2026-01-25 04:18:09.80	208.01	25.60	-35.4	-36.6	18.3	0.00e+00	0	62	0	3969908736	40	4367
2026-01-25 04:18:10.81	207.97	25.43	-35.4	-36.6	18.3	0.00e+00	0	62	0	3977248768	40	4347
2026-01-25 04:18:11.82	207.93	25.27	-35.5	-36.6	18.2	0.00e+00	0	62	0	3984588800	40	4380
2026-01-25 04:18:12.82	207.90	25.11	-35.4	-36.6	18.2	0.00e+00	0	62	0	3991928832	40	4372
2026-01-25 04:18:13.83	207.86	24.95	-35.5	-36.6	18.2	0.00e+00	0	62	0	3999268864	40	4386
2026-01-25 04:18:14.84	207.83	24.79	-35.4	-36.6	18.2	0.00e+00	0	62	0	4006608896	40	4377
2026-01-25 04:18:15.85	207.80	24.63	-35.5	-36.6	18.2	0.00e+00	0	62	0	4013948928	40	4375
2026-01-25 04:18:16.86	207.76	24.47	-35.4	-36.6	18.2	0.00e+00	0	62	0	4021288960	40	4366
2026-01-25 04:18:17.87	207.73	24.31	-35.5	-36.7	18.2	0.00e+00	0	62	0	4028628992	40	4394
2026-01-25 04:18:18.88	207.70	24.16	-35.5	-36.6	18.2	0.00e+00	0	62	0	4035969024	40	4388
2026-01-25 04:18:19.90	207.66	24.00	-35.5	-36.7	18.1	0.00e+00	0	62	0	4042260480	40	4419
2026-01-25 04:18:20.90	207.63	23.85	-35.5	-36.7	18.0	0.00e+00	0	62	0	4050649088	40	4415
2026-01-25 04:18:21.92	207.60	23.69	-35.5	-36.6	18.2	0.00e+00	0	62	0	4057989120	40	4385
2026-01-25 04:18:22.93	207.57	23.54	-35.5	-36.6	18.2	0.00e+00	0	62	0	4064280576	40	4388
2026-01-25 04:18:23.93	207.53	23.39	-35.5	-36.6	18.2	0.00e+00	0	62	0	4071620608	40	4386
2026-01-25 04:18:24.94	207.50	23.24	-35.5	-36.7	18.1	0.00e+00	0	62	0	4078960640	40	4425
2026-01-25 04:18:25.95	207.47	23.09	-35.5	-36.7	18.1	0.00e+00	0	62	0	4086300672	40	4426
2026-01-25 04:18:26.96	207.44	22.94	-35.5	-36.7	18.1	0.00e+00	0	62	0	4093640704	40	4406
2026-01-25 04:18:27.97	207.41	22.79	-35.5	-36.7	18.0	0.00e+00	0	62	0	4100980736	40	4425
2026-01-25 04:18:28.98	207.38	22.64	-35.6	-36.8	18.0	0.00e+00	0	62	0	4108320768	40	4450
2026-01-25 04:18:29.99	207.35	22.50	-35.6	-36.8	17.9	0.00e+00	0	62	0	4115660800	40	4459
2026-01-25 04:18:31.00	207.32	22.35	-35.5	-36.7	18.0	0.00e+00	0	62	0	4123000832	40	4433
2026-01-25 04:18:32.01	207.30	22.21	-35.6	-36.8	18.0	0.00e+00	0	62	0	4130340864	40	4467
2026-01-25 04:18:33.02	207.27	22.06	-35.7	-36.9	17.9	0.00e+00	0	62	0	4137680896	40	4504
2026-01-25 04:18:34.03	207.24	21.92	-35.6	-36.8	18.0	0.00e+00	0	62	0	4145020928	40	4459
2026-01-25 04:18:35.04	207.21	21.78	-35.6	-36.8	17.9	0.00e+00	0	62	0	4152360960	40	4488
2026-01-25 04:18:36.05	207.18	21.63	-35.6	-36.8	18.0	0.00e+00	0	62	0	4159700992	40	4480
2026-01-25 04:18:37.06	207.16	21.49	-35.6	-36.8	17.9	0.00e+00	0	62	0	4167041024	40	4475
2026-01-25 04:18:38.06	207.13	21.35	-35.6	-36.8	17.9	0.00e+00	0	62	0	4174381056	40	4478
2026-01-25 04:18:39.08	207.10	21.21	-35.6	-36.8	18.0	0.00e+00	0	62	0	4181721088	40	4466
2026-01-25 04:18:40.09	207.07	21.08	-35.7	-36.9	17.9	0.00e+00	0	62	0	4188012544	40	4508
2026-01-25 04:18:41.10	207.05	20.94	-35.6	-36.8	17.9	0.00e+00	0	62	0	4195352576	40	4487
2026-01-25 04:18:42.10	207.02	20.80	-35.7	-36.9	17.9	0.00e+00	0	62	0	4203741184	40	4505
2026-01-25 04:18:43.11	207.00	20.66	-35.6	-36.8	17.9	0.00e+00	0	62	0	4210032640	40	4466
2026-01-25 04:18:44.12	206.97	20.53	-35.6	-36.8	17.9	0.00e+00	0	62	0	4217372672	40	4481
2026-01-25 04:18:45.13	206.95	20.39	-35.6	-36.8	17.9	0.00e+00	0	62	0	4224712704	40	4485
2026-01-25 04:18:46.14	206.92	20.26	-35.6	-36.9	17.9	0.00e+00	0	62	0	4232052736	40	4503
2026-01-25 04:18:47.15	206.90	20.13	-35.7	-36.9	17.9	0.00e+00	0	62	0	4239392768	40	4511
2026-01-25 04:18:48.16	206.87	19.99	-35.7	-36.9	17.8	0.00e+00	0	62	0	4246732800	40	4537
2026-01-25 04:18:49.17	206.85	19.86	-35.7	-36.9	17.8	0.00e+00	0	62	0	4254072832	41	4267
2026-01-25 04:18:50.18	206.82	19.73	-35.7	-36.9	17.8	0.00e+00	0	62	0	4261412864	41	4261
2026-01-25 04:18:51.19	206.80	19.60	-35.8	-37.0	17.7	0.00e+00	0	62	0	4268752896	41	4310
2026-01-25 04:18:52.20	206.77	19.47	-35.7	-36.9	17.8	0.00e+00	0	62	0	4276092928	41	4281
2026-01-25 04:18:53.21	206.75	19.34	-35.8	-37.0	17.7	0.00e+00	0	62	0	4283432960	41	4309
2026-01-25 04:18:54.22	206.73	19.21	-35.8	-37.1	17.6	0.00e+00	0	62	0	4290772992	41	4361
2026-01-25 04:18:55.23	206.70	19.08	-35.9	-37.1	17.5	0.00e+00	0	62	0	4298113024	41	4391
2026-01-25 04:18:56.24	206.68	18.96	-36.0	-37.2	17.4	0.00e+00	0	62	0	4305453056	41	4437
2026-01-25 04:18:57.25	206.66	18.83	-35.9	-37.2	17.5	0.00e+00	0	62	0	4312793088	41	4416
2026-01-25 04:18:58.26	206.64	18.70	-36.0	-37.3	17.4	0.00e+00	0	62	0	4320133120	41	4451
2026-01-25 04:18:59.27	206.61	18.58	-36.1	-37.3	17.3	0.00e+00	0	62	0	4327473152	41	4485
2026-01-25 04:19:00.28	206.59	18.45	-36.1	-37.4	17.2	0.00e+00	0	62	0	4334813184	41	4537
2026-01-25 04:19:01.29	206.57	18.33	-36.2	-37.5	17.2	0.00e+00	0	62	0	4341104640	41	4548
2026-01-25 04:19:02.30	206.55	18.20	-36.3	-37.6	17.1	0.00e+00	0	62	0	4348444672	42	4343
2026-01-25 04:19:03.31	206.53	18.08	-36.3	-37.6	17.1	0.00e+00	0	62	0	4356833280	42	4353
2026-01-25 04:19:04.32	206.51	17.96	-36.3	-37.7	17.0	0.00e+00	0	62	0	4363124736	42	4397
2026-01-25 04:19:05.32	206.49	17.84	-36.4	-37.7	17.0	0.00e+00	0	62	0	4370464768	42	4405
2026-01-25 04:19:06.34	206.46	17.72	-36.4	-37.7	16.9	0.00e+00	0	62	0	4377804800	42	4429
2026-01-25 04:19:07.34	206.44	17.60	-36.5	-37.8	16.8	0.00e+00	0	62	0	4385144832	42	4493
2026-01-25 04:19:08.35	206.42	17.48	-36.6	-37.9	16.7	0.00e+00	0	62	0	4392484864	42	4535
2026-01-25 04:19:09.37	206.40	17.36	-36.5	-37.8	16.8	0.00e+00	0	62	0	4399824896	42	4472
2026-01-25 04:19:10.38	206.38	17.24	-36.5	-37.8	16.8	0.00e+00	0	62	0	4407164928	42	4475
2026-01-25 04:19:11.38	206.36	17.12	-36.5	-37.9	16.8	0.00e+00	0	62	0	4414504960	42	4504
2026-01-25 04:19:12.40	206.34	17.00	-36.5	-37.8	16.7	0.00e+00	0	62	0	4421844992	42	4491
2026-01-25 04:19:13.41	206.32	16.88	-36.6	-38.0	16.7	0.00e+00	0	62	0	4429185024	42	4547
2026-01-25 04:19:14.42	206.30	16.77	-36.6	-38.0	16.6	0.00e+00	0	62	0	4436525056	42	4565
2026-01-25 04:19:15.43	206.29	16.65	-36.6	-38.0	16.6	0.00e+00	0	62	0	4443865088	42	4576
2026-01-25 04:19:16.44	206.27	16.54	-36.7	-38.1	16.5	0.00e+00	0	62	0	4451205120	42	4612
2026-01-25 04:19:17.45	206.25	16.42	-36.6	-38.0	16.6	0.00e+00	0	62	0	4458545152	42	4576
2026-01-25 04:19:18.46	206.23	16.31	-36.7	-38.1	16.5	0.00e+00	0	62	0	4465885184	42	4610
2026-01-25 04:19:19.47	206.21	16.19	-36.8	-38.2	16.4	0.00e+00	0	62	0	4473225216	43	4406
2026-01-25 04:19:20.48	206.19	16.08	-36.8	-38.2	16.4	0.00e+00	0	62	0	4480565248	43	4435
2026-01-25 04:19:21.48	206.17	15.97	-36.8	-38.2	16.4	0.00e+00	0	62	0	4486856704	43	4415
2026-01-25 04:19:22.49	206.16	15.86	-36.8	-38.2	16.4	0.00e+00	0	62	0	4494196736	43	4393
2026-01-25 04:19:23.50	206.14	15.74	-36.8	-38.1	16.3	0.00e+00	0	62	0	4502585344	43	4388
2026-01-25 04:19:24.51	206.12	15.63	-36.8	-38.2	16.4	0.00e+00	0	62	0	4508876800	43	4411
