passes_logs/2026/01/25/R2.0S_Moscow/R2.0S_Moscow__20260125_081926_NOAA_20_JPSS-1_rec.log

#Pass ID: 20260125_081926_NOAA 20 (JPSS-1)
#Satellite: NOAA 20 (JPSS-1)
#Configuration: NOAA 20
#almurnet v.1.7.20251203
#Start time: 2026-01-25 08:19:28

#Version: 2.2.20231116
#Station: R2.0S_Moscow
#Location: 37.707566 lon 55.798166 lat
#TLE: 1 43013U 17073A   26024.42258823  .00000183  00000+0  10747-3 0  9990
#TLE: 2 43013  98.7646 325.2629 0001105  25.8644 334.2587 14.19539754424075

#Time	Az	El	Level	Level2	SNR	BER	BlckErr	Temp	State	Recorded	gain1	gain2
2026-01-25 08:19:28.58	113.56	2.12	-40.6	-56.0	3.9	1.49e+00	0	53	0	0	53	20421
2026-01-25 08:19:29.60	113.49	2.18	-37.4	-54.8	4.1	1.49e+00	0	53	104	0	44	29726
2026-01-25 08:19:30.61	113.43	2.23	-35.5	-53.7	4.1	1.50e+00	0	53	104	0	49	19734
2026-01-25 08:19:31.62	113.36	2.29	-38.7	-53.4	3.6	1.49e+00	0	53	104	0	47	21493
2026-01-25 08:19:32.63	113.30	2.35	-36.2	-53.1	3.9	1.50e+00	0	53	104	0	42	27584
2026-01-25 08:19:33.64	113.23	2.41	-33.1	-53.3	3.8	1.49e+00	0	53	104	0	37	37431
2026-01-25 08:19:34.65	113.16	2.46	-34.6	-53.3	3.9	1.49e+00	0	53	104	0	44	25008
2026-01-25 08:19:35.66	113.10	2.52	-40.4	-56.2	3.9	1.49e+00	0	54	104	0	52	22187
2026-01-25 08:19:36.67	113.03	2.58	-39.0	-54.6	3.9	1.49e+00	0	54	104	0	51	19480
2026-01-25 08:19:37.68	112.96	2.64	-41.1	-56.5	3.8	1.49e+00	0	54	104	0	52	22786
2026-01-25 08:19:38.69	112.89	2.70	-40.6	-55.7	3.9	1.49e+00	0	53	104	0	52	20967
2026-01-25 08:19:39.70	112.82	2.76	-41.0	-56.4	3.9	1.49e+00	0	54	104	0	53	21273
2026-01-25 08:19:40.71	112.76	2.81	-39.9	-55.4	3.8	1.49e+00	0	54	104	0	51	21444
2026-01-25 08:19:41.72	112.69	2.87	-41.7	-56.3	4.0	1.49e+00	0	54	104	0	53	21151
2026-01-25 08:19:42.73	112.62	2.93	-35.0	-53.1	3.9	1.49e+00	0	54	104	0	40	30937
2026-01-25 08:19:43.74	112.55	2.99	-39.5	-55.6	3.8	1.49e+00	0	54	104	0	50	23309
2026-01-25 08:19:44.75	112.48	3.05	-37.6	-54.4	3.8	1.49e+00	0	54	104	0	47	23922
2026-01-25 08:19:45.76	112.41	3.11	-41.2	-55.6	3.8	1.49e+00	0	54	104	0	52	20734
2026-01-25 08:19:46.77	112.34	3.17	-39.5	-54.8	3.6	1.49e+00	0	54	104	0	45	28220
2026-01-25 08:19:47.78	112.27	3.23	-41.1	-56.1	3.8	1.49e+00	0	54	104	0	53	20754
2026-01-25 08:19:48.79	112.20	3.29	-36.0	-53.8	3.8	1.49e+00	0	54	104	0	43	28076
2026-01-25 08:19:49.80	112.13	3.35	-34.4	-52.9	4.0	1.49e+00	0	54	104	0	44	24039
2026-01-25 08:19:50.81	112.05	3.40	-36.9	-54.5	4.0	1.49e+00	0	54	104	0	48	22825
2026-01-25 08:19:51.82	111.98	3.46	-37.8	-53.2	4.0	1.49e+00	0	54	104	0	48	19718
2026-01-25 08:19:52.83	111.91	3.52	-41.2	-55.7	4.1	1.50e+00	0	54	104	0	50	23580
2026-01-25 08:19:53.84	111.84	3.58	-40.3	-55.8	4.0	1.49e+00	0	55	104	0	52	21122
2026-01-25 08:19:54.85	111.77	3.64	-39.8	-55.5	3.7	1.49e+00	0	55	104	0	51	21645
2026-01-25 08:19:55.86	111.69	3.70	-41.4	-55.7	3.9	1.49e+00	0	55	104	0	51	22137
2026-01-25 08:19:56.87	111.62	3.76	-35.5	-54.2	4.0	1.49e+00	0	55	104	0	49	20945
2026-01-25 08:19:57.88	111.55	3.82	-39.6	-55.5	3.9	1.49e+00	0	55	104	0	52	20480
2026-01-25 08:19:58.89	111.47	3.88	-41.3	-56.2	3.9	1.49e+00	0	55	104	0	52	22228
2026-01-25 08:19:59.91	111.40	3.94	-35.7	-53.9	4.0	1.49e+00	0	55	104	0	49	20226
2026-01-25 08:20:00.92	111.32	4.00	-40.1	-55.0	3.7	1.49e+00	0	55	104	0	50	21583
2026-01-25 08:20:01.93	111.25	4.06	-40.4	-55.9	3.8	1.49e+00	0	55	104	0	52	21274
2026-01-25 08:20:02.94	111.17	4.12	-39.2	-55.3	3.9	1.49e+00	0	55	104	0	50	22360
2026-01-25 08:20:03.95	111.10	4.19	-38.5	-54.6	3.9	1.49e+00	0	55	104	0	49	21899
2026-01-25 08:20:04.96	111.02	4.25	-34.6	-53.5	3.9	1.49e+00	0	55	104	0	41	30521
2026-01-25 08:20:05.97	110.95	4.31	-39.8	-55.7	3.7	1.49e+00	0	55	104	0	51	22139
2026-01-25 08:20:06.98	110.87	4.37	-40.6	-56.1	3.8	1.49e+00	0	55	104	0	52	21841
2026-01-25 08:20:07.99	110.79	4.43	-39.8	-55.4	3.8	1.49e+00	0	55	104	0	51	21297
2026-01-25 08:20:09.00	110.72	4.49	-34.6	-53.4	3.7	1.50e+00	0	55	104	0	41	30315
2026-01-25 08:20:10.02	110.64	4.55	-39.3	-55.3	4.0	1.50e+00	0	56	104	0	50	22440
2026-01-25 08:20:11.03	110.56	4.61	-38.4	-55.0	3.9	1.50e+00	0	55	104	0	48	24312
2026-01-25 08:20:12.04	110.48	4.67	-38.8	-55.1	3.9	1.49e+00	0	56	104	0	49	23175
2026-01-25 08:20:13.05	110.40	4.73	-39.6	-55.1	3.9	1.49e+00	0	56	104	0	49	23298
2026-01-25 08:20:14.06	110.32	4.80	-39.3	-55.0	4.0	1.49e+00	0	56	104	0	47	25572
2026-01-25 08:20:15.07	110.24	4.86	-39.7	-55.8	4.0	1.49e+00	0	56	104	0	49	25175
2026-01-25 08:20:16.08	110.17	4.92	-39.9	-55.4	4.0	1.49e+00	0	56	104	0	49	23954
2026-01-25 08:20:17.09	110.09	4.98	-39.2	-54.6	3.9	1.49e+00	0	56	104	0	49	21849
2026-01-25 08:20:18.10	110.01	5.04	-41.1	-55.8	3.9	1.49e+00	0	56	104	0	52	21185
2026-01-25 08:20:19.11	109.92	5.10	-38.6	-54.9	3.8	1.49e+00	0	56	104	0	47	25285
2026-01-25 08:20:20.12	109.84	5.17	-40.7	-56.0	3.8	1.49e+00	0	56	104	0	52	21650
2026-01-25 08:20:21.13	109.76	5.23	-40.8	-55.4	3.9	1.49e+00	0	56	104	0	53	19156
2026-01-25 08:20:22.14	109.68	5.29	-40.3	-55.8	4.0	1.49e+00	0	56	104	0	53	20009
2026-01-25 08:20:23.15	109.60	5.35	-39.4	-55.5	3.8	1.49e+00	0	56	104	0	51	21579
2026-01-25 08:20:24.16	109.52	5.42	-39.8	-55.4	3.8	1.49e+00	0	56	104	0	51	21402
2026-01-25 08:20:25.17	109.43	5.48	-40.2	-55.9	3.8	1.49e+00	0	56	104	0	52	21395
2026-01-25 08:20:26.18	109.35	5.54	-39.5	-55.3	3.7	1.49e+00	0	56	104	0	50	22313
2026-01-25 08:20:27.19	109.27	5.60	-39.8	-55.6	3.8	1.49e+00	0	56	104	0	51	21756
2026-01-25 08:20:28.20	109.18	5.67	-39.1	-55.2	3.8	1.49e+00	0	57	104	0	51	20831
2026-01-25 08:20:29.21	109.10	5.73	-36.6	-53.5	3.9	1.49e+00	0	56	104	0	47	21626
2026-01-25 08:20:30.22	109.02	5.79	-36.0	-54.9	3.5	1.50e+00	0	57	104	0	47	25536
2026-01-25 08:20:31.23	108.93	5.85	-35.5	-53.8	3.6	1.49e+00	0	57	104	0	44	26490
2026-01-25 08:20:32.24	108.84	5.92	-35.9	-53.4	3.8	1.49e+00	0	56	104	0	44	25431
2026-01-25 08:20:33.26	108.76	5.98	-34.7	-53.7	3.7	1.50e+00	0	57	104	0	44	26319
2026-01-25 08:20:34.27	108.67	6.04	-34.0	-52.2	3.4	1.50e+00	0	57	104	0	39	29427
2026-01-25 08:20:35.28	108.59	6.11	-34.5	-53.5	3.7	1.49e+00	0	57	104	0	43	27353
2026-01-25 08:20:36.29	108.50	6.17	-37.4	-54.9	3.8	1.49e+00	0	57	104	0	49	22561
2026-01-25 08:20:37.30	108.41	6.23	-35.9	-53.5	4.0	1.49e+00	0	57	104	0	44	25583
2026-01-25 08:20:38.31	108.32	6.30	-38.9	-55.0	4.0	1.49e+00	0	57	104	0	49	22799
2026-01-25 08:20:39.32	108.24	6.36	-39.1	-55.1	3.7	1.49e+00	0	57	104	0	49	23310
2026-01-25 08:20:40.33	108.15	6.43	-41.4	-56.0	3.7	1.49e+00	0	57	104	0	51	22969
2026-01-25 08:20:41.34	108.06	6.49	-36.1	-51.6	4.3	1.49e+00	0	57	104	0	45	19565
2026-01-25 08:20:42.35	107.97	6.55	-40.7	-55.3	4.1	1.49e+00	0	57	104	0	49	23714
2026-01-25 08:20:43.36	107.88	6.62	-38.5	-55.1	4.0	1.49e+00	0	57	104	0	49	23119
2026-01-25 08:20:44.37	107.79	6.68	-40.5	-53.9	4.0	1.50e+00	0	57	104	0	44	26994
2026-01-25 08:20:45.38	107.70	6.75	-36.0	-51.6	4.0	1.50e+00	0	57	104	0	42	23123
2026-01-25 08:20:46.39	107.61	6.81	-34.5	-51.6	3.9	1.50e+00	0	57	104	0	40	26065
2026-01-25 08:20:47.40	107.52	6.88	-33.6	-52.3	4.0	1.50e+00	0	57	104	0	40	28308
2026-01-25 08:20:48.41	107.43	6.94	-35.1	-53.2	4.1	1.49e+00	0	58	104	0	44	24904
2026-01-25 08:20:49.43	107.33	7.00	-36.2	-52.2	4.1	1.49e+00	0	58	104	0	39	29682
2026-01-25 08:20:50.44	107.24	7.07	-41.0	-55.7	4.2	1.50e+00	0	57	104	0	45	31385
2026-01-25 08:20:51.45	107.15	7.13	-38.3	-54.9	4.0	1.50e+00	0	58	104	0	46	26862
2026-01-25 08:20:52.46	107.05	7.20	-40.6	-55.7	3.8	1.49e+00	0	57	104	0	53	19664
2026-01-25 08:20:53.47	106.96	7.26	-37.4	-55.5	3.8	1.49e+00	0	57	104	0	53	19334
2026-01-25 08:20:54.48	106.87	7.33	-38.3	-54.6	3.7	1.49e+00	0	57	104	0	49	21881
2026-01-25 08:20:55.49	106.77	7.39	-38.4	-54.8	3.8	1.49e+00	0	57	104	0	50	21140
2026-01-25 08:20:56.50	106.68	7.46	-36.9	-54.9	3.6	1.49e+00	0	58	104	0	48	24111
2026-01-25 08:20:57.51	106.58	7.53	-41.2	-55.0	3.8	1.49e+00	0	58	104	0	52	19387
2026-01-25 08:20:58.52	106.49	7.59	-41.2	-55.4	3.7	1.49e+00	0	58	104	0	51	21300
2026-01-25 08:20:59.54	106.39	7.66	-40.5	-54.1	3.7	1.49e+00	0	58	104	0	51	18499
2026-01-25 08:21:00.55	106.29	7.72	-41.1	-53.8	4.0	1.48e+00	0	58	104	0	53	15917
2026-01-25 08:21:01.56	106.19	7.79	-41.3	-53.6	3.8	1.49e+00	0	58	104	0	52	16331
2026-01-25 08:21:02.57	106.10	7.85	-39.8	-51.9	4.2	1.44e+00	0	58	0	0	52	13498
2026-01-25 08:21:03.58	106.00	7.92	-40.0	-51.4	4.5	1.35e+00	13	58	0	0	51	13478
2026-01-25 08:21:04.59	105.90	7.99	-36.0	-50.4	4.3	9.87e-01	45	58	0	1048576	47	15055
2026-01-25 08:21:05.60	105.80	8.05	-39.9	-55.8	3.9	1.28e+00	0	58	104	2097152	52	21079
2026-01-25 08:21:06.61	105.70	8.12	-41.0	-55.4	4.1	1.49e+00	0	58	104	2097152	53	19048
2026-01-25 08:21:07.62	105.60	8.19	-39.0	-48.3	5.9	1.45e+00	4	58	104	2097152	49	10602
2026-01-25 08:21:08.63	105.50	8.25	-39.9	-52.2	4.1	1.44e+00	0	58	0	2097152	48	17575
2026-01-25 08:21:09.64	105.40	8.32	-37.2	-49.2	4.8	1.45e+00	63	58	104	2097152	47	13242
2026-01-25 08:21:10.65	105.30	8.38	-31.7	-45.2	4.3	1.30e+00	0	58	104	2097152	33	18615
2026-01-25 08:21:11.66	105.20	8.45	-37.0	-48.7	4.3	1.47e+00	0	58	104	2097152	42	16589
2026-01-25 08:21:12.68	105.09	8.52	-31.1	-46.1	4.2	1.46e+00	0	58	104	2097152	30	24543
2026-01-25 08:21:13.69	104.99	8.59	-39.0	-51.3	4.1	1.48e+00	0	58	104	2097152	45	18943
2026-01-25 08:21:14.70	104.89	8.65	-29.4	-46.4	4.3	1.50e+00	0	58	104	2097152	30	25532
2026-01-25 08:21:15.71	104.78	8.72	-36.3	-48.1	5.1	1.48e+00	52	58	104	2097152	44	13854
2026-01-25 08:21:16.72	104.68	8.79	-33.2	-48.5	4.4	1.16e+00	0	58	0	2097152	43	15279
2026-01-25 08:21:17.73	104.57	8.85	-25.1	-43.9	4.0	1.48e+00	0	58	104	2097152	22	30181
2026-01-25 08:21:18.74	104.47	8.92	-28.0	-45.6	4.1	1.50e+00	0	58	104	2097152	23	34637
2026-01-25 08:21:19.75	104.36	8.99	-25.9	-46.9	3.6	1.50e+00	0	58	104	2097152	23	40102
2026-01-25 08:21:20.76	104.26	9.06	-23.6	-42.9	3.9	1.49e+00	0	58	104	2097152	27	20110
2026-01-25 08:21:21.77	104.15	9.12	-35.5	-50.7	4.1	1.50e+00	0	58	104	2097152	40	23569
2026-01-25 08:21:22.78	104.04	9.19	-19.8	-38.8	3.8	1.50e+00	0	59	104	2097152	13	28182
2026-01-25 08:21:23.79	103.94	9.26	-39.1	-50.8	4.2	1.46e+00	0	58	104	2097152	46	16801
2026-01-25 08:21:24.80	103.83	9.33	-28.6	-45.0	3.9	1.47e+00	0	58	104	2097152	29	23022
2026-01-25 08:21:25.81	103.72	9.40	-25.6	-48.4	4.1	1.49e+00	0	59	104	2097152	37	21270
2026-01-25 08:21:26.82	103.61	9.46	-36.3	-51.0	3.7	1.50e+00	0	59	104	2097152	36	30696
2026-01-25 08:21:27.83	103.50	9.53	-36.4	-50.6	4.3	1.49e+00	0	59	104	2097152	41	21976
2026-01-25 08:21:28.84	103.39	9.60	-30.3	-46.6	4.1	1.49e+00	0	59	104	2097152	35	19403
2026-01-25 08:21:29.85	103.28	9.67	-32.3	-49.1	4.2	1.49e+00	0	59	104	2097152	34	27483
2026-01-25 08:21:30.86	103.17	9.74	-34.8	-50.1	3.7	1.49e+00	0	59	104	2097152	34	30761
2026-01-25 08:21:31.87	103.05	9.80	-38.5	-50.4	4.9	1.04e+00	56	59	0	2097152	46	15974
2026-01-25 08:21:32.88	102.94	9.87	-28.4	-45.8	3.7	1.00e+00	0	59	104	3145728	29	25117
2026-01-25 08:21:33.89	102.83	9.94	-33.6	-49.3	3.9	1.46e+00	0	59	104	3145728	40	20034
2026-01-25 08:21:34.90	102.72	10.01	-25.3	-46.5	4.1	1.49e+00	0	59	104	3145728	33	21570
2026-01-25 08:21:35.91	102.60	10.08	-31.3	-50.9	4.1	1.50e+00	0	59	104	3145728	38	27011
2026-01-25 08:21:36.92	102.49	10.15	-22.9	-43.9	3.9	1.50e+00	0	59	104	3145728	18	37895
2026-01-25 08:21:37.93	102.37	10.22	-33.7	-47.3	4.9	1.48e+00	37	59	104	3145728	38	17697
2026-01-25 08:21:38.94	102.26	10.29	-35.3	-51.5	4.5	1.19e+00	0	59	104	3145728	37	30411
2026-01-25 08:21:39.95	102.14	10.36	-36.8	-49.8	4.6	9.56e-01	0	59	0	3145728	41	19891
2026-01-25 08:21:40.96	102.02	10.42	-22.6	-43.7	3.6	1.44e+00	0	59	104	3145728	19	35248
2026-01-25 08:21:41.97	101.90	10.49	-35.9	-51.5	4.2	1.50e+00	0	59	104	3145728	43	21597
2026-01-25 08:21:42.98	101.79	10.56	-33.6	-52.2	5.7	1.50e+00	0	59	104	3145728	26	62288
2026-01-25 08:21:43.99	101.67	10.63	-34.3	-51.3	4.1	1.50e+00	0	59	104	3145728	39	26671
2026-01-25 08:21:45.00	101.55	10.70	-24.4	-44.0	3.8	1.50e+00	0	59	104	3145728	19	36288
2026-01-25 08:21:46.01	101.43	10.77	-30.8	-48.1	4.3	1.50e+00	0	59	104	3145728	30	31030
2026-01-25 08:21:47.02	101.31	10.84	-32.4	-48.6	4.6	1.50e+00	0	59	104	3145728	25	43902
2026-01-25 08:21:48.03	101.19	10.91	-34.2	-48.9	4.2	1.40e+00	0	59	104	3145728	39	20077
2026-01-25 08:21:49.04	101.07	10.98	-29.4	-47.9	3.7	1.50e+00	0	59	104	3145728	29	32141
2026-01-25 08:21:50.05	100.94	11.05	-35.6	-50.9	4.1	1.47e+00	0	59	104	3145728	38	26957
2026-01-25 08:21:51.05	100.82	11.12	-33.1	-46.7	4.5	1.49e+00	0	59	0	3145728	32	23491
2026-01-25 08:21:52.06	100.70	11.19	-31.9	-46.5	4.5	1.46e+00	0	59	104	3145728	32	22782
2026-01-25 08:21:53.07	100.58	11.26	-30.7	-47.3	4.4	1.50e+00	0	59	104	3145728	33	23803
2026-01-25 08:21:54.08	100.45	11.33	-30.6	-48.5	4.4	1.48e+00	0	59	104	3145728	32	28875
2026-01-25 08:21:55.09	100.33	11.40	-24.3	-41.4	3.7	1.50e+00	0	59	104	3145728	19	26938
2026-01-25 08:21:56.10	100.20	11.47	-37.7	-50.8	4.2	1.46e+00	0	59	104	3145728	41	22449
2026-01-25 08:21:57.11	100.07	11.54	-20.3	-40.8	3.8	1.50e+00	0	59	104	3145728	11	39701
2026-01-25 08:21:58.12	99.95	11.61	-35.4	-51.7	4.1	1.49e+00	0	59	104	3145728	37	31414
2026-01-25 08:21:59.13	99.82	11.68	-35.6	-49.0	4.4	1.48e+00	0	59	104	3145728	38	21559
2026-01-25 08:22:00.14	99.69	11.75	-34.9	-49.1	4.5	1.46e+00	0	59	104	3145728	40	19593
2026-01-25 08:22:01.15	99.56	11.82	-34.5	-47.7	4.4	1.48e+00	0	59	104	3145728	36	20837
2026-01-25 08:22:02.16	99.43	11.89	-26.0	-48.5	3.9	1.45e+00	0	59	104	3145728	30	32347
2026-01-25 08:22:03.17	99.30	11.96	-36.5	-49.7	4.3	1.48e+00	0	60	104	3145728	43	17657
2026-01-25 08:22:04.19	99.17	12.04	-34.2	-49.5	4.7	5.90e-01	0	60	0	3145728	37	24179
2026-01-25 08:22:05.20	99.04	12.11	-39.8	-52.5	4.3	1.48e+00	0	60	104	3145728	50	16223
2026-01-25 08:22:06.21	98.91	12.18	-34.8	-51.7	4.3	1.13e+00	0	60	104	3145728	40	26224
2026-01-25 08:22:07.22	98.78	12.25	-30.6	-49.7	4.1	1.50e+00	0	60	104	3145728	39	22140
2026-01-25 08:22:08.23	98.64	12.32	-26.4	-42.3	4.1	1.49e+00	0	60	104	3145728	30	15938
2026-01-25 08:22:09.24	98.51	12.39	-23.9	-42.5	3.8	1.50e+00	0	59	104	3145728	17	34180
2026-01-25 08:22:10.25	98.37	12.46	-37.1	-50.9	4.0	1.49e+00	0	59	104	3145728	42	21350
2026-01-25 08:22:11.25	98.24	12.53	-36.9	-50.6	4.2	1.47e+00	0	60	104	3145728	42	20575
2026-01-25 08:22:12.26	98.10	12.60	-42.9	-53.8	4.3	7.88e-01	0	60	0	3145728	54	14997
2026-01-25 08:22:13.27	97.97	12.67	-31.9	-49.7	4.3	1.16e+00	0	60	104	4194304	47	14028
2026-01-25 08:22:14.28	97.83	12.75	-37.6	-49.8	5.2	9.69e-01	61	60	0	4194304	45	15768
2026-01-25 08:22:15.29	97.69	12.82	-41.1	-48.7	7.0	8.92e-01	8	60	0	6291456	51	9853
2026-01-25 08:22:16.30	97.55	12.89	-40.9	-47.8	7.4	2.51e-01	2	60	0	8388608	52	8439
2026-01-25 08:22:17.31	97.41	12.96	-41.3	-48.2	7.7	4.41e-01	2	60	0	9437184	53	8278
2026-01-25 08:22:18.32	97.27	13.03	-41.5	-48.1	8.0	1.09e-01	2	59	0	11534336	53	8197
2026-01-25 08:22:19.33	97.13	13.10	-41.5	-48.1	8.0	4.06e-01	0	60	0	13631488	52	8679
2026-01-25 08:22:20.34	96.99	13.17	-41.6	-48.1	7.2	1.44e-01	2	60	0	15728640	53	8259
2026-01-25 08:22:21.35	96.85	13.25	-41.7	-48.2	8.2	1.13e-01	0	60	0	17825792	54	7839
2026-01-25 08:22:22.36	96.71	13.32	-41.3	-48.4	8.1	8.09e-02	0	60	0	18874368	54	8028
2026-01-25 08:22:23.37	96.56	13.39	-42.2	-48.7	8.1	1.18e-01	0	60	0	20971520	55	7829
2026-01-25 08:22:24.38	96.42	13.46	-42.3	-48.4	8.5	5.03e-02	0	60	0	23068672	55	7549
2026-01-25 08:22:25.39	96.27	13.53	-42.3	-48.2	8.6	5.85e-02	0	60	0	25165824	55	7436
2026-01-25 08:22:26.40	96.13	13.60	-42.4	-48.6	8.4	4.33e-02	0	60	0	27262976	55	7735
2026-01-25 08:22:27.41	95.98	13.68	-42.5	-48.8	8.2	4.64e-02	0	60	0	28311552	55	7917
2026-01-25 08:22:28.42	95.84	13.75	-42.6	-49.0	8.0	6.00e-02	0	60	0	30408704	55	8094
2026-01-25 08:22:29.43	95.69	13.82	-42.2	-48.0	9.0	3.60e-02	0	60	0	32505856	55	7269
2026-01-25 08:22:30.44	95.54	13.89	-42.2	-47.8	9.3	2.01e-02	0	60	0	34603008	55	7103
2026-01-25 08:22:31.45	95.39	13.96	-42.1	-47.7	9.4	1.75e-02	0	60	0	36700160	55	7023
2026-01-25 08:22:32.46	95.24	14.03	-42.4	-48.1	9.0	2.18e-02	0	60	0	37748736	55	7340
2026-01-25 08:22:33.47	95.09	14.11	-42.3	-47.9	9.2	2.42e-02	0	60	0	39845888	55	7200
2026-01-25 08:22:34.48	94.94	14.18	-42.3	-47.8	9.3	1.84e-02	0	60	0	41943040	55	7086
2026-01-25 08:22:35.49	94.79	14.25	-42.2	-47.8	9.3	1.63e-02	0	60	0	44040192	55	7041
2026-01-25 08:22:36.50	94.63	14.32	-42.2	-47.6	9.5	1.66e-02	0	60	0	46137344	55	6929
2026-01-25 08:22:37.51	94.48	14.39	-42.2	-47.8	9.3	1.57e-02	0	60	0	47185920	55	7052
2026-01-25 08:22:38.52	94.33	14.47	-42.2	-47.9	9.1	2.03e-02	0	60	0	49283072	55	7170
2026-01-25 08:22:39.53	94.17	14.54	-42.3	-48.0	9.0	2.11e-02	0	60	0	51380224	55	7274
2026-01-25 08:22:40.54	94.01	14.61	-42.3	-47.9	9.1	2.11e-02	0	60	0	53477376	55	7198
2026-01-25 08:22:41.55	93.86	14.68	-42.2	-47.8	9.2	2.00e-02	0	60	0	55574528	55	7118
2026-01-25 08:22:42.56	93.70	14.75	-42.1	-47.5	9.5	1.76e-02	0	60	0	57671680	55	6857
2026-01-25 08:22:43.57	93.54	14.83	-42.1	-47.3	9.7	1.34e-02	0	60	0	58720256	55	6704
2026-01-25 08:22:44.58	93.38	14.90	-42.0	-47.2	9.9	9.31e-03	0	60	0	60817408	55	6588
2026-01-25 08:22:45.59	93.22	14.97	-42.1	-47.4	9.6	1.07e-02	0	60	0	62914560	55	6768
2026-01-25 08:22:46.59	93.06	15.04	-42.1	-47.4	9.7	1.25e-02	0	60	0	65011712	55	6763
2026-01-25 08:22:47.61	92.90	15.11	-42.1	-47.4	9.6	1.23e-02	0	60	0	67108864	55	6786
2026-01-25 08:22:48.62	92.74	15.19	-42.1	-47.3	9.8	1.12e-02	0	60	0	68157440	55	6666
2026-01-25 08:22:49.63	92.58	15.26	-42.0	-47.2	9.9	8.66e-03	0	60	0	70254592	55	6579
2026-01-25 08:22:50.64	92.41	15.33	-42.0	-47.1	10.0	8.65e-03	0	60	0	72351744	55	6542
2026-01-25 08:22:51.65	92.25	15.40	-42.0	-47.2	9.9	9.50e-03	0	60	0	74448896	55	6590
2026-01-25 08:22:52.66	92.08	15.47	-42.1	-47.4	9.7	9.88e-03	0	60	0	76546048	55	6726
2026-01-25 08:22:53.67	91.92	15.54	-42.1	-47.3	9.7	1.09e-02	0	60	0	77594624	55	6715
2026-01-25 08:22:54.68	91.75	15.62	-42.1	-47.4	9.7	1.08e-02	0	60	0	79691776	55	6750
2026-01-25 08:22:55.69	91.58	15.69	-42.1	-47.4	9.7	1.27e-02	0	60	0	81788928	55	6776
2026-01-25 08:22:56.70	91.41	15.76	-42.1	-47.4	9.6	1.26e-02	0	60	0	83886080	55	6795
2026-01-25 08:22:57.71	91.24	15.83	-42.1	-47.5	9.5	1.31e-02	0	60	0	85983232	55	6848
2026-01-25 08:22:58.72	91.07	15.90	-42.1	-47.6	9.4	1.54e-02	0	60	0	87031808	55	6910
2026-01-25 08:22:59.73	90.90	15.97	-42.1	-47.6	9.5	1.49e-02	0	60	0	89128960	55	6904
2026-01-25 08:23:00.74	90.73	16.05	-42.1	-47.6	9.3	1.73e-02	0	60	0	91226112	55	6957
2026-01-25 08:23:01.75	90.56	16.12	-42.1	-47.7	9.2	1.88e-02	0	60	0	93323264	55	7001
2026-01-25 08:23:02.76	90.38	16.19	-42.1	-47.8	9.1	2.27e-02	0	60	0	95420416	55	7065
2026-01-25 08:23:03.77	90.21	16.26	-42.1	-47.7	9.1	2.23e-02	0	60	0	96468992	55	7004
2026-01-25 08:23:04.78	90.04	16.33	-42.0	-47.7	9.1	1.98e-02	0	60	0	98566144	55	6978
2026-01-25 08:23:05.79	89.86	16.40	-42.0	-47.7	9.0	2.42e-02	0	60	0	100663296	55	7011
2026-01-25 08:23:06.80	89.68	16.47	-41.9	-47.6	9.0	2.41e-02	0	60	0	102760448	55	6900
2026-01-25 08:23:07.81	89.50	16.54	-41.9	-47.6	9.0	2.56e-02	0	60	0	104857600	55	6922
2026-01-25 08:23:08.82	89.33	16.62	-41.9	-47.6	9.0	2.30e-02	0	60	0	105906176	55	6915
2026-01-25 08:23:09.83	89.15	16.69	-41.9	-47.7	8.9	2.71e-02	0	60	0	108003328	55	7024
2026-01-25 08:23:10.84	88.97	16.76	-41.8	-47.6	9.0	2.70e-02	0	60	0	110100480	55	6903
2026-01-25 08:23:11.85	88.79	16.83	-41.8	-47.6	8.9	2.46e-02	0	60	0	112197632	55	6894
2026-01-25 08:23:12.86	88.60	16.90	-41.8	-47.7	8.8	3.15e-02	0	60	0	114294784	55	6977
2026-01-25 08:23:13.87	88.42	16.97	-41.8	-47.7	8.7	3.29e-02	0	60	0	115343360	55	6984
2026-01-25 08:23:14.88	88.24	17.04	-41.8	-47.9	8.5	3.80e-02	0	61	0	117440512	55	7175
2026-01-25 08:23:15.88	88.05	17.11	-41.8	-47.9	8.4	4.63e-02	0	60	0	119537664	55	7139
2026-01-25 08:23:16.89	87.87	17.18	-41.7	-47.8	8.4	4.70e-02	0	61	0	121634816	55	7085
2026-01-25 08:23:17.90	87.68	17.25	-41.7	-47.9	8.3	4.85e-02	0	61	0	123731968	55	7163
2026-01-25 08:23:18.91	87.50	17.32	-41.7	-47.9	8.3	5.27e-02	0	60	0	125829120	55	7132
2026-01-25 08:23:19.92	87.31	17.39	-41.6	-47.7	8.4	4.63e-02	0	60	0	126877696	55	7012
2026-01-25 08:23:20.93	87.12	17.46	-41.6	-47.7	8.4	4.60e-02	0	60	0	128974848	55	6991
2026-01-25 08:23:21.94	86.93	17.53	-41.5	-47.6	8.5	4.55e-02	0	61	0	131072000	55	6924
2026-01-25 08:23:22.95	86.74	17.60	-41.5	-47.7	8.4	4.51e-02	0	60	0	133169152	55	6963
2026-01-25 08:23:23.96	86.55	17.67	-41.4	-47.3	8.8	3.37e-02	0	60	0	135266304	54	7082
2026-01-25 08:23:24.97	86.35	17.74	-41.4	-47.1	9.0	2.65e-02	0	60	0	136314880	54	6953
2026-01-25 08:23:25.98	86.16	17.81	-41.4	-47.0	9.2	2.39e-02	0	60	0	138412032	54	6853
2026-01-25 08:23:26.99	85.97	17.87	-41.4	-47.0	9.2	2.03e-02	0	61	0	140509184	54	6865
2026-01-25 08:23:28.00	85.77	17.94	-41.4	-47.1	9.1	2.13e-02	0	60	0	142606336	54	6880
2026-01-25 08:23:29.01	85.58	18.01	-41.3	-46.9	9.2	2.24e-02	0	61	0	144703488	54	6787
2026-01-25 08:23:30.02	85.38	18.08	-41.2	-46.7	9.4	1.70e-02	0	60	0	145752064	54	6609
2026-01-25 08:23:31.03	85.18	18.15	-41.1	-46.4	9.6	1.44e-02	0	60	0	147849216	54	6388
2026-01-25 08:23:32.04	84.98	18.22	-41.0	-46.3	9.7	1.16e-02	0	60	0	149946368	54	6289
2026-01-25 08:23:33.04	84.79	18.28	-41.0	-46.4	9.6	1.17e-02	0	61	0	152043520	54	6367
2026-01-25 08:23:34.05	84.58	18.35	-41.0	-46.3	9.7	1.13e-02	0	61	0	154140672	54	6342
2026-01-25 08:23:35.06	84.38	18.42	-41.0	-46.2	9.9	1.04e-02	0	60	0	155189248	54	6252
2026-01-25 08:23:36.07	84.18	18.49	-41.0	-45.9	10.3	6.21e-03	0	61	0	157286400	54	6025
2026-01-25 08:23:37.08	83.98	18.55	-41.0	-45.7	10.7	4.28e-03	0	61	0	159383552	54	5880
2026-01-25 08:23:38.09	83.77	18.62	-41.0	-45.7	10.8	2.84e-03	0	61	0	161480704	54	5868
2026-01-25 08:23:39.10	83.57	18.69	-41.1	-45.7	10.9	2.36e-03	0	61	0	163577856	54	5865
2026-01-25 08:23:40.11	83.36	18.75	-41.0	-45.5	11.1	1.84e-03	0	61	0	164626432	54	5734
2026-01-25 08:23:41.12	83.16	18.82	-41.0	-45.4	11.2	1.48e-03	0	61	0	166723584	54	5667
2026-01-25 08:23:42.13	82.95	18.89	-41.0	-45.4	11.2	1.41e-03	0	61	0	168820736	54	5718
2026-01-25 08:23:43.14	82.74	18.95	-41.0	-45.5	11.0	1.68e-03	0	61	0	170917888	54	5770
2026-01-25 08:23:44.15	82.53	19.02	-41.0	-45.5	11.0	1.70e-03	0	61	0	173015040	54	5727
2026-01-25 08:23:45.16	82.32	19.08	-40.9	-45.3	11.3	1.38e-03	0	61	0	174063616	53	5944
2026-01-25 08:23:46.17	82.11	19.15	-40.9	-45.4	11.2	1.36e-03	0	61	0	176160768	53	6002
2026-01-25 08:23:47.18	81.90	19.21	-40.9	-45.3	11.2	1.41e-03	0	61	0	178257920	53	5959
2026-01-25 08:23:48.19	81.68	19.28	-40.9	-45.1	11.5	1.12e-03	0	61	0	180355072	53	5847
2026-01-25 08:23:49.20	81.47	19.34	-40.8	-45.2	11.4	7.97e-04	0	61	0	182452224	53	5863
2026-01-25 08:23:50.21	81.25	19.41	-40.8	-45.1	11.5	8.79e-04	0	61	0	183500800	53	5819
2026-01-25 08:23:51.22	81.04	19.47	-40.8	-45.1	11.5	8.89e-04	0	61	0	185597952	53	5803
2026-01-25 08:23:52.23	80.82	19.54	-40.9	-45.2	11.4	9.14e-04	0	61	0	187695104	53	5917
2026-01-25 08:23:53.24	80.60	19.60	-41.0	-45.5	11.0	1.27e-03	0	61	0	189792256	53	6116
2026-01-25 08:23:54.25	80.39	19.66	-41.0	-45.6	11.0	1.88e-03	0	61	0	191889408	53	6148
2026-01-25 08:23:55.26	80.17	19.73	-41.1	-45.7	10.8	2.06e-03	0	61	0	193986560	53	6254
2026-01-25 08:23:56.27	79.95	19.79	-41.1	-45.7	10.9	2.02e-03	0	61	0	195035136	53	6222
2026-01-25 08:23:57.27	79.73	19.85	-41.0	-45.6	10.9	2.09e-03	0	61	0	197132288	53	6199
2026-01-25 08:23:58.29	79.50	19.91	-41.1	-45.7	10.9	2.21e-03	0	61	0	199229440	53	6205
2026-01-25 08:23:59.29	79.28	19.98	-41.1	-45.7	11.0	1.93e-03	0	61	0	201326592	53	6206
2026-01-25 08:24:00.30	79.06	20.04	-41.0	-45.6	10.9	1.99e-03	0	61	0	203423744	53	6180
2026-01-25 08:24:01.31	78.83	20.10	-41.1	-45.6	10.9	2.09e-03	0	61	0	204472320	53	6191
2026-01-25 08:24:02.32	78.61	20.16	-41.1	-45.5	11.2	1.38e-03	0	61	0	206569472	53	6079
2026-01-25 08:24:03.33	78.38	20.22	-41.1	-45.5	11.4	1.09e-03	0	61	0	208666624	53	6063
2026-01-25 08:24:04.34	78.15	20.28	-41.1	-45.4	11.4	1.04e-03	0	61	0	210763776	53	6021
2026-01-25 08:24:05.35	77.92	20.34	-41.1	-45.5	11.3	1.15e-03	0	61	0	212860928	53	6065
2026-01-25 08:24:06.36	77.69	20.40	-41.1	-45.5	11.2	1.17e-03	0	61	0	213909504	53	6082
2026-01-25 08:24:07.37	77.46	20.46	-41.1	-45.5	11.2	1.21e-03	0	61	0	216006656	53	6082
2026-01-25 08:24:08.38	77.23	20.52	-41.0	-45.4	11.3	1.26e-03	0	61	0	218103808	53	6033
2026-01-25 08:24:09.39	77.00	20.58	-41.0	-45.3	11.4	1.01e-03	0	61	0	220200960	53	5977
2026-01-25 08:24:10.39	76.77	20.63	-41.1	-45.3	11.5	9.60e-04	0	61	0	222298112	53	5992
2026-01-25 08:24:11.40	76.54	20.69	-41.1	-45.5	11.3	1.16e-03	0	61	0	223346688	53	6092
2026-01-25 08:24:12.41	76.30	20.75	-41.1	-45.4	11.5	9.80e-04	0	61	0	225443840	53	6007
2026-01-25 08:24:13.42	76.07	20.81	-41.1	-45.1	11.8	5.38e-04	0	61	0	227540992	53	5848
2026-01-25 08:24:14.44	75.83	20.86	-41.1	-45.0	12.0	3.64e-04	0	61	0	229638144	53	5780
2026-01-25 08:24:15.44	75.59	20.92	-41.0	-44.9	12.1	2.90e-04	0	61	0	231735296	53	5717
2026-01-25 08:24:16.46	75.35	20.98	-41.0	-44.9	12.2	2.45e-04	0	61	0	232783872	53	5683
2026-01-25 08:24:17.47	75.11	21.03	-41.0	-44.8	12.4	1.70e-04	0	61	0	234881024	53	5593
2026-01-25 08:24:18.48	74.87	21.09	-40.9	-44.7	12.5	1.12e-04	0	61	0	236978176	53	5563
2026-01-25 08:24:19.48	74.63	21.14	-40.9	-44.6	12.6	1.20e-04	0	61	0	239075328	53	5521
2026-01-25 08:24:20.49	74.39	21.20	-40.8	-44.4	12.8	6.86e-05	0	61	0	241172480	53	5398
2026-01-25 08:24:21.50	74.15	21.25	-40.8	-44.4	12.8	6.56e-05	0	61	0	242221056	53	5389
2026-01-25 08:24:22.51	73.91	21.30	-40.9	-44.6	12.8	5.26e-05	0	61	0	244318208	53	5473
2026-01-25 08:24:23.52	73.66	21.36	-40.9	-44.6	12.8	5.56e-05	0	61	0	246415360	53	5493
2026-01-25 08:24:24.53	73.42	21.41	-41.0	-44.6	12.8	6.02e-05	0	61	0	248512512	53	5505
2026-01-25 08:24:25.54	73.17	21.46	-41.0	-44.6	12.8	6.63e-05	0	61	0	250609664	53	5526
2026-01-25 08:24:26.55	72.92	21.51	-41.0	-44.6	12.9	4.42e-05	0	61	0	251658240	53	5481
2026-01-25 08:24:27.56	72.68	21.56	-41.0	-44.5	13.0	5.72e-05	0	61	0	253755392	53	5421
2026-01-25 08:24:28.57	72.43	21.61	-40.9	-44.4	13.1	3.89e-05	0	61	0	255852544	53	5372
2026-01-25 08:24:29.58	72.18	21.66	-40.9	-44.4	13.0	2.74e-05	0	61	0	257949696	53	5387
2026-01-25 08:24:30.59	71.93	21.71	-40.9	-44.4	13.0	3.35e-05	0	61	0	260046848	53	5397
2026-01-25 08:24:31.60	71.68	21.76	-40.9	-44.5	12.9	4.11e-05	0	61	0	262144000	53	5418
2026-01-25 08:24:32.61	71.43	21.81	-40.8	-44.2	13.2	2.89e-05	0	61	0	263192576	53	5268
2026-01-25 08:24:33.62	71.17	21.86	-40.8	-44.2	13.3	2.28e-05	0	61	0	265289728	53	5235
2026-01-25 08:24:34.63	70.92	21.91	-40.8	-44.2	13.3	1.37e-05	0	61	0	267386880	53	5265
2026-01-25 08:24:35.64	70.67	21.95	-40.9	-44.3	13.3	1.90e-05	0	61	0	269484032	53	5293
2026-01-25 08:24:36.65	70.41	22.00	-40.7	-44.0	13.7	9.10e-06	0	61	0	271581184	53	5110
2026-01-25 08:24:37.66	70.16	22.05	-40.7	-43.9	13.7	8.30e-06	0	61	0	272629760	53	5090
2026-01-25 08:24:38.67	69.90	22.09	-40.8	-44.0	13.7	9.10e-06	0	61	0	274726912	53	5154
2026-01-25 08:24:39.68	69.64	22.14	-40.9	-44.2	13.6	7.60e-06	0	61	0	276824064	53	5221
2026-01-25 08:24:40.69	69.39	22.18	-40.9	-44.2	13.6	5.30e-06	0	61	0	278921216	53	5222
2026-01-25 08:24:41.70	69.13	22.23	-40.9	-44.2	13.6	9.90e-06	0	61	0	281018368	53	5231
2026-01-25 08:24:42.71	68.87	22.27	-40.9	-44.3	13.5	1.22e-05	0	61	0	282066944	53	5283
2026-01-25 08:24:43.72	68.61	22.31	-41.0	-44.4	13.4	1.60e-05	0	61	0	284164096	53	5351
2026-01-25 08:24:44.73	68.35	22.36	-41.0	-44.3	13.5	1.06e-05	0	61	0	286261248	53	5292
2026-01-25 08:24:45.74	68.09	22.40	-41.0	-44.3	13.6	6.80e-06	0	61	0	288358400	53	5281
2026-01-25 08:24:46.75	67.83	22.44	-40.9	-44.2	13.6	9.10e-06	0	61	0	290455552	53	5235
2026-01-25 08:24:47.76	67.56	22.48	-41.0	-44.3	13.5	4.50e-06	0	61	0	291504128	53	5299
2026-01-25 08:24:48.77	67.30	22.52	-41.0	-44.3	13.5	6.80e-06	0	61	0	293601280	53	5290
2026-01-25 08:24:49.78	67.04	22.56	-41.1	-44.5	13.4	1.22e-05	0	61	0	295698432	53	5420
2026-01-25 08:24:50.79	66.77	22.60	-41.3	-44.8	13.1	2.13e-05	0	61	0	297795584	53	5629
2026-01-25 08:24:51.80	66.50	22.64	-41.4	-45.0	12.9	3.43e-05	0	61	0	299892736	53	5746
2026-01-25 08:24:52.80	66.24	22.67	-41.5	-45.3	12.5	5.87e-05	0	61	0	300941312	53	5969
2026-01-25 08:24:53.81	65.97	22.71	-41.6	-45.5	12.4	1.69e-04	0	61	0	303038464	53	6080
2026-01-25 08:24:54.82	65.71	22.75	-41.6	-45.4	12.4	1.31e-04	0	61	0	305135616	53	6022
2026-01-25 08:24:55.83	65.44	22.78	-41.6	-45.5	12.4	1.62e-04	0	61	0	307232768	53	6081
2026-01-25 08:24:56.84	65.17	22.82	-41.6	-45.5	12.4	1.87e-04	0	61	0	309329920	53	6085
2026-01-25 08:24:57.85	64.90	22.85	-41.7	-45.6	12.2	1.67e-04	0	61	0	310378496	53	6149
2026-01-25 08:24:58.86	64.63	22.89	-41.6	-45.5	12.3	1.53e-04	0	61	0	312475648	53	6098
2026-01-25 08:24:59.87	64.36	22.92	-41.7	-45.6	12.3	1.33e-04	0	61	0	314572800	53	6148
2026-01-25 08:25:00.88	64.09	22.95	-41.8	-45.8	12.1	2.37e-04	0	61	0	316669952	54	5961
2026-01-25 08:25:01.89	63.82	22.99	-41.8	-45.8	12.0	3.40e-04	0	61	0	318767104	54	5992
2026-01-25 08:25:02.90	63.55	23.02	-41.8	-45.9	12.0	3.64e-04	0	61	0	319815680	54	6009
2026-01-25 08:25:03.91	63.28	23.05	-41.8	-45.8	12.1	2.95e-04	0	61	0	321912832	54	5960
2026-01-25 08:25:04.92	63.00	23.08	-41.9	-45.9	12.0	3.02e-04	0	61	0	324009984	54	6009
2026-01-25 08:25:05.93	62.73	23.11	-41.8	-45.9	12.0	2.89e-04	0	61	0	326107136	54	6005
2026-01-25 08:25:06.94	62.45	23.14	-41.9	-46.0	11.8	4.24e-04	0	61	0	328204288	54	6111
2026-01-25 08:25:07.95	62.18	23.16	-42.0	-46.2	11.7	5.84e-04	0	61	0	330301440	54	6237
2026-01-25 08:25:08.96	61.91	23.19	-42.0	-46.3	11.6	6.17e-04	0	61	0	331350016	54	6291
2026-01-25 08:25:09.97	61.63	23.22	-42.1	-46.3	11.5	6.94e-04	0	61	0	333447168	54	6346
2026-01-25 08:25:10.97	61.36	23.24	-42.1	-46.5	11.3	1.02e-03	0	61	0	335544320	54	6484
2026-01-25 08:25:11.98	61.08	23.27	-42.2	-46.6	11.3	1.22e-03	0	61	0	337641472	54	6528
2026-01-25 08:25:12.99	60.80	23.29	-42.1	-46.5	11.4	9.52e-04	0	61	0	339738624	54	6454
2026-01-25 08:25:14.00	60.53	23.32	-42.1	-46.4	11.5	9.53e-04	0	61	0	340787200	54	6409
2026-01-25 08:25:15.01	60.25	23.34	-42.1	-46.4	11.5	8.64e-04	0	61	0	342884352	54	6386
2026-01-25 08:25:16.02	59.97	23.36	-42.1	-46.4	11.6	8.00e-04	0	61	0	344981504	54	6366
2026-01-25 08:25:17.03	59.69	23.39	-42.1	-46.4	11.5	8.75e-04	0	61	0	347078656	54	6410
2026-01-25 08:25:18.04	59.41	23.41	-42.1	-46.3	11.6	7.99e-04	0	61	0	349175808	54	6340
2026-01-25 08:25:19.05	59.13	23.43	-42.0	-46.2	11.8	5.92e-04	0	61	0	350224384	54	6234
2026-01-25 08:25:20.05	58.86	23.45	-42.1	-46.3	11.7	4.76e-04	0	61	0	352321536	54	6282
2026-01-25 08:25:21.06	58.58	23.47	-42.1	-46.3	11.6	6.13e-04	0	61	0	354418688	54	6309
2026-01-25 08:25:22.07	58.30	23.49	-42.0	-46.2	11.8	6.27e-04	0	61	0	356515840	54	6236
2026-01-25 08:25:23.09	58.01	23.50	-42.1	-46.2	11.7	5.20e-04	0	61	0	358612992	54	6268
2026-01-25 08:25:24.10	57.73	23.52	-42.1	-46.2	11.8	5.07e-04	0	61	0	359661568	54	6210
2026-01-25 08:25:25.10	57.45	23.54	-42.1	-46.2	11.7	4.93e-04	0	61	0	361758720	54	6251
2026-01-25 08:25:26.11	57.17	23.55	-42.1	-46.4	11.6	7.12e-04	0	61	0	363855872	54	6359
2026-01-25 08:25:27.12	56.89	23.57	-42.1	-46.4	11.6	8.00e-04	0	61	0	365953024	54	6379
2026-01-25 08:25:28.13	56.61	23.58	-42.1	-46.2	11.8	5.78e-04	0	61	0	368050176	54	6249
2026-01-25 08:25:29.14	56.33	23.59	-42.0	-46.1	11.8	4.99e-04	0	61	0	369098752	54	6196
2026-01-25 08:25:30.15	56.04	23.61	-42.0	-46.0	12.0	3.57e-04	0	61	0	371195904	54	6100
2026-01-25 08:25:31.16	55.76	23.62	-42.0	-46.1	11.9	3.42e-04	0	61	0	373293056	54	6153
2026-01-25 08:25:32.17	55.48	23.63	-42.0	-46.1	11.9	4.31e-04	0	61	0	375390208	54	6161
2026-01-25 08:25:33.18	55.20	23.64	-42.0	-46.1	11.9	4.13e-04	0	61	0	377487360	54	6163
2026-01-25 08:25:34.19	54.91	23.65	-42.0	-46.1	11.9	3.87e-04	0	61	0	378535936	54	6166
2026-01-25 08:25:35.20	54.63	23.66	-41.9	-45.9	12.1	3.18e-04	0	61	0	380633088	54	6021
2026-01-25 08:25:36.21	54.35	23.66	-42.0	-46.0	12.0	2.94e-04	0	61	0	382730240	54	6086
2026-01-25 08:25:37.22	54.06	23.67	-42.0	-46.1	11.9	4.14e-04	0	61	0	384827392	54	6200
2026-01-25 08:25:38.23	53.78	23.68	-42.1	-46.3	11.7	4.43e-04	0	61	0	386924544	54	6291
2026-01-25 08:25:39.24	53.49	23.68	-41.9	-45.9	12.0	3.61e-04	0	61	0	387973120	54	6056
2026-01-25 08:25:40.25	53.21	23.69	-41.8	-45.7	12.3	2.20e-04	0	61	0	390070272	54	5885
2026-01-25 08:25:41.25	52.93	23.69	-41.8	-45.5	12.5	1.43e-04	0	61	0	392167424	54	5775
2026-01-25 08:25:42.27	52.64	23.70	-41.8	-45.6	12.5	1.47e-04	0	61	0	394264576	54	5790
2026-01-25 08:25:43.27	52.36	23.70	-41.7	-45.5	12.6	8.85e-05	0	61	0	396361728	54	5723
2026-01-25 08:25:44.29	52.07	23.70	-41.7	-45.4	12.6	8.16e-05	0	61	0	398458880	54	5689
2026-01-25 08:25:45.29	51.79	23.70	-41.6	-45.2	12.8	6.63e-05	0	61	0	399507456	54	5559
2026-01-25 08:25:46.30	51.51	23.70	-41.6	-45.2	12.9	4.73e-05	0	61	0	401604608	54	5544
2026-01-25 08:25:47.31	51.22	23.70	-41.7	-45.3	12.7	5.18e-05	0	61	0	403701760	54	5651
2026-01-25 08:25:48.32	50.94	23.70	-41.6	-45.2	12.9	5.87e-05	0	61	0	405798912	54	5538
2026-01-25 08:25:49.33	50.66	23.70	-41.5	-45.1	13.0	4.11e-05	0	62	0	407896064	54	5466
2026-01-25 08:25:50.34	50.37	23.69	-41.5	-45.0	13.1	2.74e-05	0	61	0	408944640	54	5407
2026-01-25 08:25:51.35	50.09	23.69	-41.4	-44.8	13.2	1.98e-05	0	61	0	411041792	54	5337
2026-01-25 08:25:52.36	49.80	23.69	-41.4	-44.9	13.1	1.98e-05	0	61	0	413138944	54	5396
2026-01-25 08:25:53.37	49.52	23.68	-41.4	-44.8	13.3	1.29e-05	0	61	0	415236096	54	5300
2026-01-25 08:25:54.38	49.24	23.68	-41.4	-44.8	13.2	1.67e-05	0	61	0	417333248	54	5318
2026-01-25 08:25:55.39	48.95	23.67	-41.4	-44.7	13.3	1.52e-05	0	61	0	418381824	54	5278
2026-01-25 08:25:56.40	48.67	23.66	-41.2	-44.5	13.6	9.90e-06	0	61	0	420478976	54	5104
2026-01-25 08:25:57.41	48.39	23.65	-41.1	-44.2	13.8	4.50e-06	0	61	0	422576128	54	4977
2026-01-25 08:25:58.42	48.10	23.65	-41.0	-44.1	14.0	1.50e-06	0	61	0	424673280	54	4908
2026-01-25 08:25:59.43	47.82	23.64	-40.9	-44.0	14.0	3.00e-06	0	61	0	426770432	53	5148
2026-01-25 08:26:00.44	47.54	23.63	-40.8	-43.8	14.2	7.00e-07	0	61	0	427819008	53	5032
2026-01-25 08:26:01.45	47.25	23.61	-40.7	-43.7	14.4	7.00e-07	0	61	0	429916160	53	4964
2026-01-25 08:26:02.46	46.97	23.60	-40.8	-43.8	14.3	0.00e+00	0	61	0	432013312	53	4984
2026-01-25 08:26:03.47	46.69	23.59	-40.7	-43.6	14.5	0.00e+00	0	62	0	434110464	53	4891
2026-01-25 08:26:04.48	46.41	23.58	-40.6	-43.5	14.5	1.50e-06	0	61	0	436207616	53	4837
2026-01-25 08:26:05.49	46.13	23.56	-40.6	-43.6	14.5	7.00e-07	0	61	0	437256192	53	4888
2026-01-25 08:26:06.50	45.84	23.55	-40.7	-43.6	14.5	0.00e+00	0	61	0	439353344	53	4882
2026-01-25 08:26:07.51	45.56	23.53	-40.7	-43.6	14.6	1.50e-06	0	61	0	441450496	53	4878
2026-01-25 08:26:08.52	45.28	23.52	-40.7	-43.6	14.5	0.00e+00	0	61	0	443547648	53	4901
2026-01-25 08:26:09.53	45.00	23.50	-40.7	-43.6	14.4	7.00e-07	0	61	0	445644800	53	4906
2026-01-25 08:26:10.54	44.72	23.48	-40.5	-43.4	14.7	7.00e-07	0	61	0	446693376	53	4765
2026-01-25 08:26:11.55	44.44	23.46	-40.5	-43.3	14.8	0.00e+00	0	61	0	448790528	52	5012
2026-01-25 08:26:12.56	44.16	23.44	-40.5	-43.2	14.8	0.00e+00	0	61	0	450887680	52	4976
2026-01-25 08:26:13.57	43.88	23.43	-40.6	-43.5	14.6	0.00e+00	0	61	0	452984832	52	5129
2026-01-25 08:26:14.58	43.60	23.40	-40.6	-43.5	14.5	0.00e+00	0	61	0	455081984	52	5153
2026-01-25 08:26:15.58	43.33	23.38	-40.6	-43.6	14.5	1.50e-06	0	61	0	456130560	52	5167
2026-01-25 08:26:16.59	43.05	23.36	-40.7	-43.6	14.4	1.50e-06	0	62	0	458227712	52	5214
2026-01-25 08:26:17.60	42.77	23.34	-40.7	-43.7	14.4	0.00e+00	0	61	0	460324864	52	5221
2026-01-25 08:26:18.61	42.50	23.32	-40.8	-43.8	14.3	2.20e-06	0	61	0	462422016	52	5304
2026-01-25 08:26:19.62	42.22	23.29	-40.8	-43.8	14.2	7.00e-07	0	61	0	464519168	52	5326
2026-01-25 08:26:20.63	41.94	23.27	-40.8	-43.9	14.1	1.50e-06	0	61	0	465567744	52	5378
2026-01-25 08:26:21.64	41.67	23.24	-40.8	-43.9	14.2	2.20e-06	0	61	0	467664896	52	5354
2026-01-25 08:26:22.65	41.39	23.22	-40.9	-43.9	14.1	1.50e-06	0	62	0	469762048	52	5383
2026-01-25 08:26:23.66	41.12	23.19	-40.9	-43.9	14.1	0.00e+00	0	61	0	471859200	52	5392
2026-01-25 08:26:24.67	40.84	23.16	-40.9	-44.0	14.0	3.80e-06	0	62	0	473956352	52	5452
2026-01-25 08:26:25.68	40.57	23.13	-41.0	-44.2	13.8	3.00e-06	0	62	0	476053504	52	5587
2026-01-25 08:26:26.69	40.29	23.10	-41.1	-44.4	13.6	5.30e-06	0	61	0	477102080	52	5692
2026-01-25 08:26:27.70	40.02	23.07	-41.2	-44.5	13.5	1.29e-05	0	61	0	479199232	52	5772
2026-01-25 08:26:28.71	39.75	23.04	-41.3	-44.6	13.4	1.14e-05	0	61	0	481296384	53	5528
2026-01-25 08:26:29.72	39.48	23.01	-41.3	-44.7	13.4	1.90e-05	0	61	0	483393536	53	5543
2026-01-25 08:26:30.73	39.21	22.98	-41.4	-44.9	13.2	1.60e-05	0	61	0	484442112	53	5668
2026-01-25 08:26:31.74	38.93	22.95	-41.4	-44.8	13.2	1.67e-05	0	61	0	486539264	53	5635
2026-01-25 08:26:32.74	38.67	22.92	-41.4	-44.9	13.1	3.35e-05	0	61	0	488636416	53	5691
2026-01-25 08:26:33.75	38.40	22.88	-41.4	-44.9	13.1	3.66e-05	0	62	0	490733568	53	5700
2026-01-25 08:26:34.76	38.13	22.85	-41.5	-45.0	13.0	4.04e-05	0	61	0	492830720	53	5780
2026-01-25 08:26:35.77	37.86	22.81	-41.5	-45.1	13.0	4.19e-05	0	61	0	494927872	53	5794
2026-01-25 08:26:36.78	37.59	22.78	-41.6	-45.2	12.8	4.50e-05	0	61	0	495976448	53	5865
2026-01-25 08:26:37.79	37.33	22.74	-41.5	-45.1	12.9	5.56e-05	0	61	0	498073600	53	5849
2026-01-25 08:26:38.80	37.06	22.71	-41.6	-45.1	12.9	5.26e-05	0	61	0	500170752	53	5849
2026-01-25 08:26:39.81	36.79	22.67	-41.6	-45.2	12.8	4.50e-05	0	61	0	502267904	53	5875
2026-01-25 08:26:40.82	36.53	22.63	-41.6	-45.2	12.8	5.18e-05	0	61	0	504365056	53	5884
2026-01-25 08:26:41.83	36.26	22.59	-41.7	-45.4	12.6	6.48e-05	0	61	0	505413632	53	6018
2026-01-25 08:26:42.84	36.00	22.55	-41.7	-45.4	12.6	9.84e-05	0	61	0	507510784	54	5712
2026-01-25 08:26:43.85	35.74	22.52	-41.8	-45.6	12.4	1.14e-04	0	61	0	509607936	54	5828
2026-01-25 08:26:44.86	35.47	22.48	-41.9	-45.8	12.2	2.06e-04	0	61	0	511705088	54	5930
2026-01-25 08:26:45.87	35.21	22.43	-41.8	-45.6	12.4	1.87e-04	0	61	0	513802240	54	5850
2026-01-25 08:26:46.88	34.95	22.39	-41.8	-45.6	12.4	1.62e-04	0	61	0	514850816	54	5845
2026-01-25 08:26:47.89	34.69	22.35	-41.8	-45.6	12.4	1.55e-04	0	61	0	516947968	54	5809
2026-01-25 08:26:48.90	34.43	22.31	-41.8	-45.7	12.3	1.52e-04	0	62	0	519045120	54	5873
2026-01-25 08:26:49.91	34.17	22.27	-41.8	-45.7	12.3	1.97e-04	0	61	0	521142272	54	5881
2026-01-25 08:26:50.92	33.91	22.22	-41.9	-45.8	12.2	1.91e-04	0	61	0	523239424	54	5967
2026-01-25 08:26:51.93	33.66	22.18	-41.9	-45.8	12.2	2.17e-04	0	62	0	524288000	54	5968
2026-01-25 08:26:52.94	33.40	22.13	-41.9	-45.9	12.1	2.37e-04	0	62	0	526385152	54	6029
2026-01-25 08:26:53.95	33.14	22.09	-42.0	-46.0	12.0	3.11e-04	0	61	0	528482304	54	6100
2026-01-25 08:26:54.96	32.89	22.04	-42.0	-46.0	12.0	3.08e-04	0	61	0	530579456	54	6091
2026-01-25 08:26:55.97	32.63	22.00	-42.0	-46.0	12.1	3.16e-04	0	61	0	532676608	54	6069
2026-01-25 08:26:56.98	32.38	21.95	-42.0	-46.0	12.0	3.57e-04	0	61	0	534773760	54	6114
2026-01-25 08:26:57.99	32.13	21.90	-42.0	-46.0	12.0	3.46e-04	0	61	0	535822336	54	6090
2026-01-25 08:26:59.00	31.87	21.86	-41.9	-45.8	12.2	2.86e-04	0	61	0	537919488	54	5963
2026-01-25 08:27:00.01	31.62	21.81	-41.9	-45.9	12.1	2.64e-04	0	61	0	540016640	54	6017
2026-01-25 08:27:01.02	31.37	21.76	-41.9	-45.8	12.2	2.10e-04	0	61	0	542113792	54	5937
2026-01-25 08:27:02.03	31.12	21.71	-41.8	-45.7	12.3	1.97e-04	0	61	0	543162368	54	5910
2026-01-25 08:27:03.04	30.87	21.66	-41.9	-45.7	12.3	1.72e-04	0	61	0	545259520	54	5906
2026-01-25 08:27:04.05	30.62	21.61	-41.9	-45.8	12.2	1.97e-04	0	61	0	547356672	54	5978
2026-01-25 08:27:05.06	30.38	21.56	-42.0	-46.1	12.0	2.56e-04	0	61	0	549453824	54	6150
2026-01-25 08:27:06.07	30.13	21.51	-42.1	-46.3	11.7	4.49e-04	0	62	0	551550976	54	6285
2026-01-25 08:27:07.07	29.89	21.46	-42.1	-46.3	11.7	6.03e-04	0	61	0	552599552	54	6302
2026-01-25 08:27:08.08	29.64	21.40	-42.1	-46.3	11.7	6.16e-04	0	61	0	554696704	54	6313
2026-01-25 08:27:09.09	29.40	21.35	-42.0	-46.0	12.0	4.47e-04	0	62	0	556793856	54	6124
2026-01-25 08:27:10.10	29.16	21.30	-41.9	-45.9	12.1	2.92e-04	0	61	0	558891008	54	6031
2026-01-25 08:27:11.11	28.91	21.25	-41.8	-45.7	12.3	2.35e-04	0	61	0	560988160	54	5891
2026-01-25 08:27:12.12	28.67	21.19	-41.8	-45.6	12.4	1.62e-04	0	61	0	563085312	54	5841
2026-01-25 08:27:13.13	28.43	21.14	-41.8	-45.7	12.3	1.63e-04	0	61	0	564133888	54	5897
2026-01-25 08:27:14.14	28.19	21.08	-41.9	-45.8	12.2	2.08e-04	0	61	0	566231040	54	5925
2026-01-25 08:27:15.15	27.95	21.03	-41.9	-45.8	12.2	2.02e-04	0	62	0	568328192	54	5947
2026-01-25 08:27:16.16	27.71	20.97	-41.9	-45.9	12.1	2.46e-04	0	62	0	570425344	54	5995
2026-01-25 08:27:17.17	27.48	20.92	-41.9	-45.7	12.2	2.24e-04	0	61	0	572522496	54	5916
2026-01-25 08:27:18.18	27.24	20.86	-41.9	-45.8	12.2	1.85e-04	0	61	0	573571072	54	5948
2026-01-25 08:27:19.19	27.01	20.80	-41.8	-45.7	12.3	2.29e-04	0	61	0	575668224	54	5898
2026-01-25 08:27:20.20	26.77	20.75	-41.8	-45.7	12.3	1.90e-04	0	61	0	577765376	54	5861
2026-01-25 08:27:21.21	26.54	20.69	-41.7	-45.5	12.5	1.25e-04	0	61	0	579862528	54	5742
2026-01-25 08:27:22.22	26.30	20.63	-41.6	-45.3	12.6	1.11e-04	0	61	0	581959680	54	5643
2026-01-25 08:27:23.23	26.07	20.57	-41.6	-45.3	12.7	8.23e-05	0	61	0	583008256	54	5627
2026-01-25 08:27:24.24	25.84	20.52	-41.6	-45.3	12.7	6.10e-05	0	61	0	585105408	54	5620
2026-01-25 08:27:25.25	25.61	20.46	-41.6	-45.3	12.7	8.69e-05	0	62	0	587202560	54	5637
2026-01-25 08:27:26.26	25.38	20.40	-41.6	-45.3	12.7	9.23e-05	0	61	0	589299712	54	5644
2026-01-25 08:27:27.27	25.15	20.34	-41.6	-45.2	12.7	7.32e-05	0	61	0	591396864	54	5577
2026-01-25 08:27:28.28	24.93	20.28	-41.5	-45.1	12.9	6.63e-05	0	61	0	592445440	54	5519
2026-01-25 08:27:29.29	24.70	20.22	-41.6	-45.2	12.7	6.40e-05	0	61	0	594542592	54	5590
2026-01-25 08:27:30.30	24.47	20.16	-41.6	-45.3	12.7	6.02e-05	0	61	0	596639744	54	5619
2026-01-25 08:27:31.31	24.25	20.10	-41.7	-45.4	12.5	8.54e-05	0	61	0	598736896	54	5699
2026-01-25 08:27:32.32	24.03	20.04	-41.7	-45.4	12.5	1.14e-04	0	61	0	600834048	54	5717
2026-01-25 08:27:33.33	23.80	19.98	-41.7	-45.4	12.5	1.19e-04	0	62	0	601882624	54	5706
2026-01-25 08:27:34.34	23.58	19.91	-41.6	-45.3	12.7	1.12e-04	0	62	0	603979776	54	5630
2026-01-25 08:27:35.34	23.36	19.85	-41.6	-45.3	12.7	8.01e-05	0	61	0	606076928	54	5614
2026-01-25 08:27:36.35	23.14	19.79	-41.6	-45.3	12.7	7.01e-05	0	61	0	608174080	54	5620
2026-01-25 08:27:37.36	22.92	19.73	-41.6	-45.3	12.6	9.46e-05	0	61	0	610271232	54	5652
2026-01-25 08:27:38.37	22.70	19.66	-41.6	-45.2	12.7	8.54e-05	0	62	0	611319808	54	5582
2026-01-25 08:27:39.38	22.49	19.60	-41.5	-45.1	12.8	5.49e-05	0	62	0	613416960	54	5500
2026-01-25 08:27:40.39	22.27	19.54	-41.5	-45.2	12.7	6.56e-05	0	61	0	615514112	54	5556
2026-01-25 08:27:41.40	22.05	19.47	-41.6	-45.2	12.7	6.86e-05	0	61	0	617611264	54	5582
2026-01-25 08:27:42.41	21.84	19.41	-41.6	-45.3	12.7	6.25e-05	0	62	0	619708416	54	5594
2026-01-25 08:27:43.42	21.63	19.35	-41.6	-45.2	12.7	6.86e-05	0	61	0	620756992	54	5567
2026-01-25 08:27:44.43	21.41	19.28	-41.6	-45.3	12.6	8.08e-05	0	62	0	622854144	54	5632
2026-01-25 08:27:45.44	21.20	19.22	-41.6	-45.3	12.6	8.92e-05	0	62	0	624951296	54	5630
2026-01-25 08:27:46.45	20.99	19.15	-41.6	-45.4	12.6	1.06e-04	0	61	0	627048448	54	5658
2026-01-25 08:27:47.46	20.78	19.09	-41.6	-45.3	12.6	8.77e-05	0	61	0	629145600	54	5649
2026-01-25 08:27:48.47	20.57	19.02	-41.6	-45.4	12.5	1.04e-04	0	61	0	631242752	54	5677
2026-01-25 08:27:49.48	20.36	18.96	-41.7	-45.5	12.5	1.20e-04	0	62	0	632291328	54	5723
2026-01-25 08:27:50.49	20.15	18.89	-41.6	-45.4	12.5	1.27e-04	0	61	0	634388480	54	5703
2026-01-25 08:27:51.50	19.95	18.82	-41.6	-45.4	12.5	1.19e-04	0	62	0	636485632	54	5668
2026-01-25 08:27:52.50	19.74	18.76	-41.7	-45.5	12.4	1.40e-04	0	61	0	638582784	54	5758
2026-01-25 08:27:53.51	19.54	18.69	-41.6	-45.4	12.5	1.20e-04	0	61	0	640679936	54	5681
2026-01-25 08:27:54.52	19.34	18.63	-41.6	-45.4	12.5	1.25e-04	0	61	0	641728512	54	5691
2026-01-25 08:27:55.54	19.13	18.56	-41.6	-45.4	12.5	1.50e-04	0	61	0	643825664	54	5670
2026-01-25 08:27:56.54	18.93	18.49	-41.6	-45.4	12.5	9.99e-05	0	62	0	645922816	54	5659
2026-01-25 08:27:57.55	18.73	18.43	-41.6	-45.3	12.5	1.20e-04	0	61	0	648019968	54	5656
2026-01-25 08:27:58.56	18.53	18.36	-41.6	-45.3	12.6	1.20e-04	0	61	0	650117120	54	5627
2026-01-25 08:27:59.57	18.33	18.29	-41.5	-45.3	12.6	8.46e-05	0	61	0	651165696	54	5602
2026-01-25 08:28:00.58	18.13	18.22	-41.6	-45.3	12.5	1.07e-04	0	61	0	653262848	54	5648
2026-01-25 08:28:01.59	17.93	18.15	-41.6	-45.3	12.5	1.17e-04	0	61	0	655360000	54	5636
2026-01-25 08:28:02.60	17.74	18.09	-41.6	-45.4	12.5	1.27e-04	0	62	0	657457152	54	5665
2026-01-25 08:28:03.61	17.54	18.02	-41.6	-45.5	12.4	1.46e-04	0	62	0	659554304	54	5725
2026-01-25 08:28:04.62	17.35	17.95	-41.6	-45.5	12.4	1.47e-04	0	61	0	660602880	54	5735
2026-01-25 08:28:05.63	17.15	17.88	-41.6	-45.4	12.5	1.30e-04	0	62	0	662700032	54	5667
2026-01-25 08:28:06.64	16.96	17.81	-41.5	-45.2	12.6	9.61e-05	0	62	0	664797184	54	5584
2026-01-25 08:28:07.65	16.77	17.74	-41.4	-45.0	12.8	7.32e-05	0	61	0	666894336	54	5444
2026-01-25 08:28:08.66	16.58	17.67	-41.4	-45.0	12.9	4.80e-05	0	62	0	668991488	54	5408
2026-01-25 08:28:09.66	16.39	17.61	-41.4	-44.9	12.9	4.50e-05	0	62	0	670040064	54	5398
2026-01-25 08:28:10.67	16.20	17.54	-41.3	-44.9	13.0	5.03e-05	0	62	0	672137216	54	5344
2026-01-25 08:28:11.68	16.01	17.47	-41.3	-44.8	13.1	3.43e-05	0	62	0	674234368	54	5285
2026-01-25 08:28:12.69	15.82	17.40	-41.2	-44.7	13.2	3.20e-05	0	62	0	676331520	54	5230
2026-01-25 08:28:13.70	15.64	17.33	-41.2	-44.6	13.3	2.13e-05	0	62	0	678428672	54	5165
2026-01-25 08:28:14.72	15.45	17.26	-41.1	-44.5	13.3	1.83e-05	0	62	0	679477248	54	5122
2026-01-25 08:28:15.73	15.26	17.19	-41.1	-44.6	13.2	1.29e-05	0	61	0	681574400	54	5172
2026-01-25 08:28:16.74	15.08	17.12	-41.1	-44.5	13.3	2.89e-05	0	62	0	683671552	54	5137
2026-01-25 08:28:17.75	14.90	17.05	-41.1	-44.5	13.3	1.83e-05	0	62	0	685768704	54	5147
2026-01-25 08:28:18.76	14.71	16.98	-41.2	-44.6	13.2	2.89e-05	0	62	0	687865856	54	5192
2026-01-25 08:28:19.77	14.53	16.91	-41.2	-44.6	13.1	2.74e-05	0	62	0	688914432	54	5208
2026-01-25 08:28:20.77	14.35	16.84	-41.1	-44.6	13.1	2.51e-05	0	62	0	691011584	54	5186
2026-01-25 08:28:21.78	14.17	16.77	-41.1	-44.5	13.3	2.67e-05	0	61	0	693108736	54	5121
2026-01-25 08:28:22.79	13.99	16.70	-41.1	-44.6	13.1	2.97e-05	0	62	0	695205888	54	5184
2026-01-25 08:28:23.80	13.82	16.63	-41.1	-44.6	13.1	2.89e-05	0	61	0	697303040	54	5193
2026-01-25 08:28:24.81	13.64	16.56	-41.1	-44.6	13.1	3.35e-05	0	62	0	699400192	54	5187
2026-01-25 08:28:25.82	13.46	16.49	-41.1	-44.5	13.2	1.75e-05	0	61	0	700448768	54	5112
2026-01-25 08:28:26.83	13.29	16.42	-41.0	-44.3	13.3	2.28e-05	0	61	0	702545920	53	5336
2026-01-25 08:28:27.84	13.11	16.34	-40.8	-44.2	13.5	1.52e-05	0	62	0	704643072	53	5243
2026-01-25 08:28:28.85	12.94	16.27	-40.8	-44.1	13.5	1.29e-05	0	61	0	706740224	53	5193
2026-01-25 08:28:29.86	12.76	16.20	-40.9	-44.2	13.5	9.10e-06	0	61	0	708837376	53	5227
2026-01-25 08:28:30.87	12.59	16.13	-40.9	-44.3	13.3	1.75e-05	0	62	0	709885952	53	5310
2026-01-25 08:28:31.88	12.42	16.06	-41.0	-44.4	13.2	2.36e-05	0	62	0	711983104	53	5374
2026-01-25 08:28:32.89	12.25	15.99	-41.0	-44.5	13.1	1.98e-05	0	62	0	714080256	53	5442
2026-01-25 08:28:33.90	12.08	15.92	-41.0	-44.5	13.0	3.35e-05	0	61	0	716177408	53	5461
2026-01-25 08:28:34.91	11.91	15.85	-41.0	-44.4	13.2	2.74e-05	0	62	0	718274560	53	5379
2026-01-25 08:28:35.91	11.75	15.78	-41.0	-44.4	13.2	2.13e-05	0	61	0	719323136	53	5378
2026-01-25 08:28:36.92	11.58	15.71	-40.9	-44.2	13.3	2.44e-05	0	61	0	721420288	53	5274
2026-01-25 08:28:37.93	11.41	15.63	-40.8	-44.2	13.4	1.29e-05	0	61	0	723517440	53	5249
2026-01-25 08:28:38.94	11.25	15.56	-40.8	-44.2	13.3	1.98e-05	0	62	0	725614592	53	5235
2026-01-25 08:28:39.95	11.08	15.49	-40.8	-44.1	13.4	1.60e-05	0	62	0	727711744	53	5176
2026-01-25 08:28:40.96	10.92	15.42	-40.8	-44.2	13.3	1.06e-05	0	61	0	728760320	53	5229
2026-01-25 08:28:41.97	10.75	15.35	-40.8	-44.2	13.2	1.67e-05	0	62	0	730857472	53	5272
2026-01-25 08:28:42.98	10.59	15.28	-40.9	-44.3	13.2	2.51e-05	0	62	0	732954624	53	5307
2026-01-25 08:28:43.99	10.43	15.21	-40.9	-44.4	13.0	2.82e-05	0	62	0	735051776	53	5349
2026-01-25 08:28:45.00	10.27	15.13	-40.9	-44.5	12.9	4.42e-05	0	62	0	737148928	53	5409
2026-01-25 08:28:46.01	10.11	15.06	-40.9	-44.4	12.9	4.42e-05	0	62	0	738197504	53	5355
2026-01-25 08:28:47.02	9.95	14.99	-40.8	-44.4	12.9	5.49e-05	0	61	0	740294656	53	5381
2026-01-25 08:28:48.03	9.79	14.92	-40.9	-44.6	12.7	7.93e-05	0	62	0	742391808	53	5472
2026-01-25 08:28:49.04	9.63	14.85	-40.9	-44.6	12.6	8.62e-05	0	62	0	744488960	53	5492
2026-01-25 08:28:50.05	9.48	14.78	-40.9	-44.6	12.5	1.03e-04	0	62	0	746586112	53	5526
2026-01-25 08:28:51.06	9.32	14.70	-40.9	-44.7	12.5	1.20e-04	0	61	0	747634688	53	5534
2026-01-25 08:28:52.07	9.16	14.63	-41.0	-44.8	12.3	1.50e-04	0	61	0	749731840	53	5625
2026-01-25 08:28:53.08	9.01	14.56	-41.0	-44.9	12.2	2.14e-04	0	62	0	751828992	53	5698
2026-01-25 08:28:54.09	8.85	14.49	-41.1	-45.1	12.0	3.31e-04	0	62	0	753926144	53	5790
2026-01-25 08:28:55.10	8.70	14.42	-41.1	-45.2	11.8	3.72e-04	0	62	0	756023296	53	5873
2026-01-25 08:28:56.11	8.55	14.35	-41.1	-45.3	11.7	5.73e-04	0	61	0	757071872	53	5945
2026-01-25 08:28:57.12	8.40	14.27	-41.2	-45.5	11.4	8.33e-04	0	62	0	759169024	53	6118
2026-01-25 08:28:58.13	8.25	14.20	-41.2	-45.4	11.4	9.22e-04	0	62	0	761266176	53	6057
2026-01-25 08:28:59.14	8.10	14.13	-41.2	-45.5	11.3	9.89e-04	0	62	0	763363328	53	6128
2026-01-25 08:29:00.15	7.95	14.06	-41.2	-45.4	11.5	1.09e-03	0	62	0	765460480	53	6028
2026-01-25 08:29:01.16	7.80	13.99	-41.1	-45.2	11.6	7.12e-04	0	62	0	767557632	53	5920
2026-01-25 08:29:02.17	7.65	13.92	-41.0	-45.1	11.7	5.87e-04	0	61	0	768606208	53	5798
2026-01-25 08:29:03.18	7.50	13.84	-40.9	-44.9	11.8	4.59e-04	0	62	0	770703360	53	5713
2026-01-25 08:29:04.18	7.36	13.77	-40.9	-45.1	11.6	6.90e-04	0	61	0	772800512	53	5794
2026-01-25 08:29:05.19	7.21	13.70	-41.0	-45.5	11.1	1.06e-03	0	61	0	774897664	53	6083
2026-01-25 08:29:06.20	7.07	13.63	-41.0	-45.5	11.1	2.11e-03	0	62	0	776994816	53	6074
2026-01-25 08:29:07.21	6.92	13.56	-41.0	-45.4	11.0	1.66e-03	0	62	0	778043392	53	6054
2026-01-25 08:29:08.22	6.78	13.49	-40.7	-45.1	11.2	1.49e-03	0	62	0	780140544	53	5836
2026-01-25 08:29:09.23	6.64	13.42	-40.7	-45.3	10.9	1.72e-03	0	62	0	782237696	53	5929
2026-01-25 08:29:10.24	6.49	13.35	-40.7	-45.5	10.5	3.51e-03	0	62	0	784334848	53	6083
2026-01-25 08:29:11.25	6.35	13.27	-40.9	-46.0	9.9	6.32e-03	0	62	0	786432000	53	6440
2026-01-25 08:29:12.26	6.21	13.20	-40.8	-46.1	9.6	1.03e-02	0	62	0	787480576	53	6525
2026-01-25 08:29:13.27	6.07	13.13	-40.7	-45.8	9.9	1.09e-02	0	62	0	789577728	53	6322
2026-01-25 08:29:14.28	5.93	13.06	-40.7	-45.8	9.9	9.11e-03	0	61	0	791674880	53	6285
2026-01-25 08:29:15.29	5.79	12.99	-40.6	-45.5	10.1	7.77e-03	0	61	0	793772032	53	6096
2026-01-25 08:29:16.30	5.65	12.92	-40.4	-45.2	10.5	5.32e-03	0	62	0	795869184	52	6232
2026-01-25 08:29:17.31	5.52	12.85	-40.4	-45.1	10.6	3.56e-03	0	61	0	796917760	52	6141
2026-01-25 08:29:18.32	5.38	12.78	-40.4	-45.2	10.4	4.07e-03	0	62	0	799014912	52	6256
2026-01-25 08:29:19.32	5.25	12.71	-40.2	-44.8	10.7	3.51e-03	0	62	0	801112064	52	5990
2026-01-25 08:29:20.33	5.11	12.64	-40.2	-45.0	10.4	3.62e-03	0	62	0	803209216	52	6128
2026-01-25 08:29:21.34	4.98	12.56	-40.3	-45.6	9.7	7.55e-03	0	62	0	805306368	52	6506
2026-01-25 08:29:22.35	4.84	12.49	-40.6	-46.7	8.4	2.23e-02	0	62	0	806354944	52	7396
2026-01-25 08:29:23.36	4.71	12.42	-40.9	-48.3	6.7	1.46e-01	0	62	0	808452096	52	8922
2026-01-25 08:29:24.37	4.57	12.35	-41.2	-50.5	5.1	4.68e-01	0	61	0	810549248	52	11525
2026-01-25 08:29:25.38	4.44	12.28	-41.2	-52.4	4.2	1.04e+00	0	62	0	811597824	53	13516
2026-01-25 08:29:26.39	4.31	12.21	-41.2	-54.0	3.8	1.49e+00	0	61	104	811597824	53	16298
2026-01-25 08:29:27.40	4.18	12.14	-41.1	-55.0	3.8	1.49e+00	0	62	104	811597824	53	18165
2026-01-25 08:29:28.41	4.05	12.07	-41.0	-55.3	3.8	1.49e+00	0	62	104	811597824	53	18945
2026-01-25 08:29:29.42	3.92	12.00	-40.9	-55.4	3.8	1.49e+00	0	62	104	811597824	53	19090
2026-01-25 08:29:30.43	3.79	11.93	-40.8	-55.4	3.8	1.49e+00	0	62	104	811597824	53	19047
2026-01-25 08:29:31.44	3.66	11.86	-40.2	-54.7	3.8	1.49e+00	0	62	104	811597824	52	18699
2026-01-25 08:29:32.45	3.54	11.79	-40.1	-54.7	3.8	1.49e+00	0	62	104	811597824	52	18613
2026-01-25 08:29:33.46	3.41	11.72	-40.3	-54.8	3.8	1.49e+00	0	62	104	811597824	52	18871
2026-01-25 08:29:34.47	3.28	11.65	-40.1	-54.6	3.8	1.49e+00	0	62	104	811597824	52	18501
2026-01-25 08:29:35.48	3.16	11.58	-40.0	-54.6	3.8	1.49e+00	0	61	104	811597824	52	18397
2026-01-25 08:29:36.49	3.03	11.51	-40.0	-54.6	3.8	1.49e+00	0	62	104	811597824	51	19457
2026-01-25 08:29:37.50	2.91	11.44	-40.0	-54.5	3.8	1.49e+00	0	62	104	811597824	51	19357
2026-01-25 08:29:38.51	2.78	11.37	-40.3	-54.9	3.8	1.49e+00	0	62	104	811597824	51	20174
2026-01-25 08:29:39.52	2.66	11.30	-40.2	-54.8	3.8	1.49e+00	0	62	104	811597824	52	18834
2026-01-25 08:29:40.52	2.54	11.23	-40.1	-54.6	3.8	1.49e+00	0	62	104	811597824	51	19509
2026-01-25 08:29:41.54	2.41	11.16	-40.1	-54.7	3.8	1.49e+00	0	62	104	811597824	51	19628
2026-01-25 08:29:42.54	2.29	11.09	-40.0	-54.5	3.8	1.49e+00	0	62	104	811597824	51	19367
2026-01-25 08:29:43.56	2.17	11.02	-40.0	-54.5	3.8	1.49e+00	0	62	104	811597824	51	19255
2026-01-25 08:29:44.56	2.05	10.95	-40.0	-54.5	3.8	1.49e+00	0	62	104	811597824	51	19204
2026-01-25 08:29:45.57	1.93	10.88	-39.9	-54.5	3.8	1.49e+00	0	62	104	811597824	51	19204
2026-01-25 08:29:46.58	1.81	10.81	-40.1	-54.7	3.8	1.49e+00	0	62	104	811597824	51	19744
2026-01-25 08:29:47.59	1.70	10.74	-40.1	-54.7	3.8	1.49e+00	0	62	104	811597824	51	19642
2026-01-25 08:29:48.60	1.58	10.67	-40.1	-54.6	3.8	1.49e+00	0	62	104	811597824	51	19504
2026-01-25 08:29:49.61	1.46	10.60	-40.2	-54.8	3.8	1.49e+00	0	62	104	811597824	51	20023
2026-01-25 08:29:50.62	1.34	10.54	-40.0	-54.6	3.8	1.49e+00	0	62	104	811597824	51	19488
2026-01-25 08:29:51.63	1.23	10.47	-40.0	-54.5	3.8	1.49e+00	0	62	104	811597824	51	19348
2026-01-25 08:29:52.64	1.11	10.40	-40.0	-54.5	3.8	1.49e+00	0	62	104	811597824	51	19388
2026-01-25 08:29:53.65	1.00	10.33	-40.1	-54.7	3.8	1.49e+00	0	62	104	811597824	51	19721
2026-01-25 08:29:54.66	0.88	10.26	-40.0	-54.5	3.8	1.49e+00	0	62	104	811597824	51	19388
2026-01-25 08:29:55.67	0.77	10.19	-39.9	-54.5	3.8	1.49e+00	0	62	104	811597824	51	19254
2026-01-25 08:29:56.68	0.65	10.12	-40.0	-54.5	3.8	1.49e+00	0	62	104	811597824	51	19318
2026-01-25 08:29:57.69	0.54	10.05	-40.1	-54.7	3.8	1.49e+00	0	62	104	811597824	51	19674
2026-01-25 08:29:58.70	0.43	9.99	-40.0	-54.5	3.8	1.49e+00	0	62	104	811597824	51	19250
2026-01-25 08:29:59.71	0.32	9.92	-39.9	-54.5	3.8	1.49e+00	0	62	104	811597824	51	19215
2026-01-25 08:30:00.72	0.21	9.85	-39.9	-54.5	3.8	1.49e+00	0	62	104	811597824	51	19303
2026-01-25 08:30:01.73	0.09	9.78	-40.1	-54.6	3.8	1.49e+00	0	62	104	811597824	51	19493
2026-01-25 08:30:02.74	359.98	9.71	-39.9	-54.5	3.8	1.49e+00	0	62	104	811597824	51	19225
2026-01-25 08:30:03.75	359.87	9.64	-39.9	-54.5	3.8	1.49e+00	0	62	104	811597824	51	19214
2026-01-25 08:30:04.76	359.76	9.58	-39.9	-54.4	3.8	1.49e+00	0	62	104	811597824	51	19164
2026-01-25 08:30:05.77	359.66	9.51	-40.0	-54.5	3.8	1.49e+00	0	62	104	811597824	51	19376
2026-01-25 08:30:06.78	359.55	9.44	-40.0	-54.5	3.8	1.49e+00	0	62	104	811597824	51	19200
2026-01-25 08:30:07.79	359.44	9.37	-39.9	-54.4	3.8	1.49e+00	0	62	104	811597824	51	19105
2026-01-25 08:30:08.80	359.33	9.31	-39.9	-54.5	3.8	1.49e+00	0	62	104	811597824	51	19215
2026-01-25 08:30:09.81	359.23	9.24	-39.9	-54.5	3.8	1.49e+00	0	62	104	811597824	51	19275
2026-01-25 08:30:10.82	359.12	9.17	-40.0	-54.5	3.8	1.49e+00	0	62	104	811597824	51	19247
2026-01-25 08:30:11.83	359.01	9.10	-39.8	-54.4	3.8	1.49e+00	0	62	104	811597824	51	18974
2026-01-25 08:30:12.84	358.91	9.04	-39.9	-54.4	3.8	1.49e+00	0	62	104	811597824	51	19151
2026-01-25 08:30:13.85	358.80	8.97	-39.9	-54.5	3.8	1.49e+00	0	62	104	811597824	51	19186
2026-01-25 08:30:14.86	358.70	8.90	-39.9	-54.4	3.8	1.49e+00	0	62	104	811597824	51	19084
2026-01-25 08:30:15.87	358.60	8.84	-39.8	-54.4	3.8	1.49e+00	0	62	104	811597824	51	19002
2026-01-25 08:30:16.88	358.49	8.77	-39.9	-54.5	3.8	1.49e+00	0	62	104	811597824	51	19168
2026-01-25 08:30:17.89	358.39	8.70	-39.9	-54.4	3.8	1.49e+00	0	62	104	811597824	51	19154
2026-01-25 08:30:18.90	358.29	8.64	-39.9	-54.4	3.8	1.49e+00	0	62	104	811597824	51	19048
2026-01-25 08:30:19.91	358.19	8.57	-39.8	-54.4	3.8	1.49e+00	0	62	104	811597824	51	18985
2026-01-25 08:30:20.92	358.09	8.50	-39.8	-54.4	3.8	1.49e+00	0	62	104	811597824	51	18962
2026-01-25 08:30:21.93	357.99	8.44	-39.9	-54.4	3.8	1.49e+00	0	62	104	811597824	51	19165
2026-01-25 08:30:22.94	357.89	8.37	-39.9	-54.4	3.8	1.49e+00	0	62	104	811597824	51	19023
2026-01-25 08:30:23.95	357.79	8.30	-39.8	-54.3	3.8	1.49e+00	0	62	104	811597824	51	18934
2026-01-25 08:30:24.96	357.69	8.24	-39.8	-54.3	3.8	1.49e+00	0	62	104	811597824	51	18941
2026-01-25 08:30:25.97	357.59	8.17	-39.9	-54.4	3.8	1.49e+00	0	62	104	811597824	51	19157
2026-01-25 08:30:26.98	357.49	8.10	-39.8	-54.4	3.8	1.49e+00	0	62	104	811597824	51	18988
2026-01-25 08:30:27.99	357.39	8.04	-39.8	-54.3	3.8	1.49e+00	0	62	104	811597824	51	18818
2026-01-25 08:30:29.00	357.29	7.97	-39.9	-54.5	3.8	1.49e+00	0	62	104	811597824	51	19291
2026-01-25 08:30:30.01	357.20	7.91	-43.1	-57.5	3.8	1.49e+00	0	62	104	811597824	56	20450
2026-01-25 08:30:31.02	357.10	7.84	-44.7	-59.2	3.8	1.49e+00	0	62	104	811597824	59	20986
2026-01-25 08:30:32.03	357.00	7.78	-44.9	-59.7	3.8	1.49e+00	0	62	104	811597824	60	20780
2026-01-25 08:30:33.04	356.91	7.71	-45.0	-59.8	3.8	1.49e+00	0	62	104	811597824	60	21251
2026-01-25 08:30:34.05	356.81	7.65	-45.3	-60.1	3.8	1.49e+00	0	62	104	811597824	61	20547
2026-01-25 08:30:35.06	356.72	7.58	-45.3	-60.1	3.8	1.49e+00	0	62	104	811597824	61	20540
2026-01-25 08:30:36.07	356.62	7.51	-45.3	-60.1	3.8	1.49e+00	0	62	104	811597824	61	20557
2026-01-25 08:30:37.08	356.53	7.45	-45.3	-60.0	3.8	1.49e+00	0	62	104	811597824	61	20479
2026-01-25 08:30:38.09	356.44	7.38	-45.2	-60.0	3.8	1.49e+00	0	62	104	811597824	61	20477
2026-01-25 08:30:39.10	356.34	7.32	-45.1	-60.0	3.8	1.49e+00	0	62	104	811597824	61	20450
2026-01-25 08:30:40.11	356.25	7.26	-45.2	-60.0	3.8	1.49e+00	0	62	104	811597824	61	20329
2026-01-25 08:30:41.12	356.16	7.19	-45.1	-59.9	3.8	1.49e+00	0	62	104	811597824	61	20193
2026-01-25 08:30:42.14	356.07	7.13	-45.3	-59.9	3.8	1.49e+00	0	62	104	811597824	61	20161
2026-01-25 08:30:43.15	355.98	7.06	-45.2	-59.9	3.8	1.49e+00	0	62	104	811597824	61	20126
2026-01-25 08:30:44.16	355.88	7.00	-45.3	-59.9	3.8	1.49e+00	0	62	104	811597824	61	20156
2026-01-25 08:30:45.17	355.79	6.93	-45.1	-59.8	3.8	1.49e+00	0	62	104	811597824	61	19866
2026-01-25 08:30:46.18	355.70	6.87	-45.1	-59.8	3.8	1.49e+00	0	62	104	811597824	60	21122
2026-01-25 08:30:47.19	355.61	6.80	-45.2	-59.8	3.8	1.49e+00	0	62	104	811597824	60	21146
2026-01-25 08:30:48.20	355.52	6.74	-45.2	-59.8	3.8	1.49e+00	0	62	104	811597824	60	21071
2026-01-25 08:30:49.21	355.44	6.68	-44.9	-59.8	3.8	1.49e+00	0	62	104	811597824	60	21036
2026-01-25 08:30:50.22	355.35	6.61	-45.2	-59.8	3.8	1.49e+00	0	62	104	811597824	60	21057
2026-01-25 08:30:51.23	355.26	6.55	-45.2	-59.7	3.8	1.49e+00	0	62	104	811597824	60	20999
2026-01-25 08:30:52.24	355.17	6.48	-45.2	-59.7	3.8	1.49e+00	0	62	104	811597824	60	20985
2026-01-25 08:30:53.25	355.08	6.42	-45.2	-59.8	3.8	1.49e+00	0	62	104	811597824	60	21020
2026-01-25 08:30:54.26	355.00	6.36	-45.2	-59.7	3.8	1.49e+00	0	62	104	811597824	60	21002
2026-01-25 08:30:55.27	354.91	6.29	-45.0	-59.8	3.8	1.49e+00	0	62	104	811597824	60	21055
2026-01-25 08:30:56.28	354.83	6.23	-45.2	-59.8	3.8	1.49e+00	0	62	104	811597824	60	21048
2026-01-25 08:30:57.29	354.74	6.17	-45.1	-59.7	3.8	1.49e+00	0	62	104	811597824	60	20936
2026-01-25 08:30:58.30	354.65	6.10	-45.1	-59.7	3.8	1.49e+00	0	62	104	811597824	60	20996
2026-01-25 08:30:59.31	354.57	6.04	-45.2	-59.7	3.8	1.49e+00	0	62	104	811597824	60	20957
2026-01-25 08:31:00.30	354.49	5.98	-45.1	-59.7	3.8	1.49e+00	0	62	104	811597824	60	20915
2026-01-25 08:31:01.31	354.40	5.92	-45.1	-59.7	3.8	1.49e+00	0	62	104	811597824	60	20949
2026-01-25 08:31:02.32	354.32	5.85	-45.1	-59.7	3.8	1.49e+00	0	62	104	811597824	60	20918
2026-01-25 08:31:03.33	354.24	5.79	-45.1	-59.8	3.8	1.49e+00	0	62	104	811597824	60	21024
2026-01-25 08:31:04.34	354.15	5.73	-45.1	-59.7	3.8	1.49e+00	0	62	104	811597824	60	20939
2026-01-25 08:31:05.35	354.07	5.67	-44.9	-59.7	3.8	1.49e+00	0	62	104	811597824	60	20967
2026-01-25 08:31:06.36	353.99	5.60	-45.0	-59.7	3.8	1.49e+00	0	62	104	811597824	60	20945
2026-01-25 08:31:07.38	353.91	5.54	-45.1	-59.7	3.8	1.49e+00	0	62	104	811597824	60	20917
2026-01-25 08:31:08.39	353.82	5.48	-45.1	-59.7	3.8	1.49e+00	0	62	104	811597824	60	20903
2026-01-25 08:31:09.40	353.74	5.42	-45.1	-59.7	3.8	1.49e+00	0	62	104	811597824	60	20860
2026-01-25 08:31:10.41	353.66	5.35	-45.1	-59.7	3.8	1.49e+00	0	62	104	811597824	60	20974
2026-01-25 08:31:11.41	353.58	5.29	-45.1	-59.7	3.8	1.49e+00	0	62	104	811597824	60	20849
2026-01-25 08:31:12.42	353.50	5.23	-45.0	-59.7	3.8	1.49e+00	0	62	104	811597824	60	20920
