passes_logs/2026/01/25/R2.0S_Moscow/R2.0S_Moscow__20260125_111855_SUOMI_NPP_rec.log

#Pass ID: 20260125_111855_SUOMI NPP
#Satellite: SUOMI NPP
#Configuration: NPP
#almurnet v.1.7.20251203
#Start time: 2026-01-25 11:18:57

#Version: 2.2.20231116
#Station: R2.0S_Moscow
#Location: 37.707566 lon 55.798166 lat
#TLE: 1 37849U 11061A   26024.54906732  .00000185  00000+0  10878-3 0  9990
#TLE: 2 37849  98.7821 326.5159 0002200  47.3746 312.7615 14.19529340738061

#Time	Az	El	Level	Level2	SNR	BER	BlckErr	Temp	State	Recorded	gain1	gain2
2026-01-25 11:18:57.29	200.26	2.08	-44.0	-58.5	3.8	1.49e+00	0	52	0	0	59	19217
2026-01-25 11:18:58.29	200.33	2.14	-44.0	-58.4	3.8	1.49e+00	0	53	104	0	59	19161
2026-01-25 11:18:59.30	200.39	2.20	-44.0	-58.4	3.8	1.49e+00	0	52	104	0	59	19155
2026-01-25 11:19:00.31	200.45	2.25	-44.0	-58.4	3.8	1.49e+00	0	52	104	0	59	19161
2026-01-25 11:19:01.32	200.52	2.31	-44.0	-58.4	3.8	1.49e+00	0	53	104	0	59	19147
2026-01-25 11:19:02.33	200.58	2.37	-44.0	-58.4	3.8	1.49e+00	0	53	104	0	59	19148
2026-01-25 11:19:03.34	200.64	2.43	-44.0	-58.4	3.8	1.49e+00	0	53	104	0	59	19138
2026-01-25 11:19:04.35	200.71	2.49	-44.0	-58.4	3.8	1.49e+00	0	53	104	0	59	19153
2026-01-25 11:19:05.36	200.77	2.55	-44.0	-58.4	3.8	1.49e+00	0	53	104	0	59	19149
2026-01-25 11:19:06.37	200.84	2.61	-44.0	-58.4	3.8	1.49e+00	0	53	104	0	59	19125
2026-01-25 11:19:07.38	200.90	2.67	-44.0	-58.4	3.8	1.49e+00	0	53	104	0	59	19121
2026-01-25 11:19:08.39	200.97	2.73	-44.0	-58.5	3.8	1.49e+00	0	53	104	0	59	19196
2026-01-25 11:19:09.40	201.03	2.79	-44.0	-58.4	3.8	1.49e+00	0	53	104	0	59	19152
2026-01-25 11:19:10.41	201.10	2.85	-44.0	-58.4	3.8	1.49e+00	0	53	104	0	59	19167
2026-01-25 11:19:11.42	201.17	2.90	-44.0	-58.4	3.8	1.49e+00	0	53	104	0	59	19129
2026-01-25 11:19:12.43	201.23	2.96	-44.0	-58.4	3.8	1.49e+00	0	53	104	0	59	19167
2026-01-25 11:19:13.44	201.30	3.02	-44.0	-58.5	3.8	1.49e+00	0	54	104	0	59	19204
2026-01-25 11:19:14.45	201.37	3.08	-44.0	-58.4	3.8	1.49e+00	0	54	104	0	59	19165
2026-01-25 11:19:15.46	201.43	3.14	-44.0	-58.5	3.8	1.49e+00	0	54	104	0	59	19174
2026-01-25 11:19:16.47	201.50	3.20	-44.0	-58.4	3.8	1.49e+00	0	54	104	0	59	19130
2026-01-25 11:19:17.49	201.57	3.26	-44.0	-58.4	3.8	1.49e+00	0	54	104	0	59	19048
2026-01-25 11:19:18.50	201.64	3.32	-43.9	-58.4	3.8	1.49e+00	0	54	104	0	59	19081
2026-01-25 11:19:19.51	201.70	3.39	-44.0	-58.4	3.8	1.49e+00	0	54	104	0	59	19098
2026-01-25 11:19:20.52	201.77	3.45	-43.9	-58.5	3.8	1.49e+00	0	54	104	0	59	19183
2026-01-25 11:19:21.53	201.84	3.51	-44.0	-58.4	3.8	1.49e+00	0	54	104	0	59	19074
2026-01-25 11:19:22.54	201.91	3.57	-44.0	-58.4	3.8	1.49e+00	0	54	104	0	59	19155
2026-01-25 11:19:23.55	201.98	3.63	-43.9	-58.4	3.8	1.49e+00	0	54	104	0	59	19167
2026-01-25 11:19:24.56	202.05	3.69	-44.0	-58.5	3.8	1.49e+00	0	54	104	0	59	19183
2026-01-25 11:19:25.57	202.12	3.75	-44.0	-58.4	3.8	1.49e+00	0	54	104	0	59	19100
2026-01-25 11:19:26.59	202.19	3.81	-44.0	-58.4	3.8	1.49e+00	0	54	104	0	59	19105
2026-01-25 11:19:27.60	202.26	3.87	-43.9	-58.4	3.8	1.49e+00	0	54	104	0	59	19110
2026-01-25 11:19:28.61	202.33	3.93	-44.0	-58.4	3.8	1.49e+00	0	55	104	0	59	19129
2026-01-25 11:19:29.62	202.40	3.99	-43.9	-58.4	3.8	1.49e+00	0	55	104	0	59	19113
2026-01-25 11:19:30.63	202.47	4.06	-43.9	-58.4	3.8	1.49e+00	0	55	104	0	59	19116
2026-01-25 11:19:31.64	202.54	4.12	-44.0	-58.4	3.8	1.49e+00	0	55	104	0	59	19098
2026-01-25 11:19:32.65	202.62	4.18	-43.9	-58.4	3.8	1.49e+00	0	55	104	0	59	19084
2026-01-25 11:19:33.66	202.69	4.24	-43.9	-58.4	3.8	1.49e+00	0	55	104	0	59	19103
2026-01-25 11:19:34.67	202.76	4.30	-43.9	-58.4	3.8	1.49e+00	0	55	104	0	59	19116
2026-01-25 11:19:35.68	202.83	4.37	-44.0	-58.4	3.8	1.49e+00	0	55	104	0	59	19105
2026-01-25 11:19:36.69	202.91	4.43	-43.9	-58.4	3.8	1.49e+00	0	55	104	0	59	19094
2026-01-25 11:19:37.70	202.98	4.49	-43.9	-58.4	3.8	1.49e+00	0	55	104	0	59	19031
2026-01-25 11:19:38.71	203.05	4.55	-43.9	-58.4	3.8	1.49e+00	0	55	104	0	59	19072
2026-01-25 11:19:39.72	203.13	4.61	-43.9	-58.4	3.8	1.49e+00	0	55	104	0	59	19079
2026-01-25 11:19:40.73	203.20	4.68	-44.0	-58.4	3.8	1.49e+00	0	55	104	0	59	19052
2026-01-25 11:19:41.74	203.28	4.74	-43.9	-58.4	3.8	1.49e+00	0	55	104	0	59	19078
2026-01-25 11:19:42.75	203.35	4.80	-43.9	-58.4	3.8	1.49e+00	0	55	104	0	59	19107
2026-01-25 11:19:43.76	203.43	4.87	-43.9	-58.4	3.8	1.49e+00	0	55	104	0	59	19111
2026-01-25 11:19:44.77	203.50	4.93	-43.9	-58.4	3.8	1.49e+00	0	55	104	0	59	19082
2026-01-25 11:19:45.78	203.58	4.99	-43.9	-58.4	3.8	1.49e+00	0	55	104	0	59	19073
2026-01-25 11:19:46.79	203.65	5.05	-43.9	-58.4	3.8	1.49e+00	0	55	104	0	59	19109
2026-01-25 11:19:47.80	203.73	5.12	-43.9	-58.4	3.8	1.49e+00	0	55	104	0	59	19106
2026-01-25 11:19:48.81	203.81	5.18	-43.9	-58.4	3.8	1.49e+00	0	56	104	0	59	19034
2026-01-25 11:19:49.82	203.88	5.24	-43.9	-58.4	3.8	1.49e+00	0	56	104	0	59	19056
2026-01-25 11:19:50.83	203.96	5.31	-43.9	-58.4	3.8	1.49e+00	0	56	104	0	59	19019
2026-01-25 11:19:51.84	204.04	5.37	-43.9	-58.4	3.8	1.49e+00	0	56	104	0	59	19012
2026-01-25 11:19:52.85	204.11	5.44	-43.9	-58.4	3.8	1.49e+00	0	56	104	0	59	18978
2026-01-25 11:19:53.86	204.19	5.50	-43.9	-58.3	3.8	1.49e+00	0	56	104	0	59	18863
2026-01-25 11:19:54.87	204.27	5.56	-43.9	-58.2	3.8	1.49e+00	0	56	104	0	59	18723
2026-01-25 11:19:55.88	204.35	5.63	-43.9	-58.1	3.8	1.49e+00	0	56	104	0	59	18355
2026-01-25 11:19:56.89	204.43	5.69	-43.9	-58.1	3.8	1.49e+00	0	56	104	0	59	18359
2026-01-25 11:19:57.90	204.51	5.76	-43.9	-57.9	3.8	1.49e+00	0	56	104	0	59	17988
2026-01-25 11:19:58.91	204.59	5.82	-43.9	-57.6	3.8	1.49e+00	0	56	104	0	59	17455
2026-01-25 11:19:59.92	204.67	5.89	-43.9	-57.3	3.8	1.49e+00	0	56	104	0	59	16845
2026-01-25 11:20:00.93	204.75	5.95	-43.9	-57.2	3.8	1.49e+00	0	56	104	0	59	16519
2026-01-25 11:20:01.94	204.83	6.02	-43.8	-56.5	3.8	1.49e+00	0	56	104	0	59	15381
2026-01-25 11:20:02.95	204.91	6.08	-43.8	-55.9	3.8	1.49e+00	0	56	104	0	59	14285
2026-01-25 11:20:03.96	204.99	6.15	-43.8	-55.5	4.0	1.47e+00	0	56	104	0	59	13596
2026-01-25 11:20:04.97	205.08	6.21	-43.7	-55.0	4.1	1.43e+00	0	56	0	0	59	12914
2026-01-25 11:20:05.99	205.16	6.28	-43.7	-54.5	4.3	1.40e+00	0	57	0	0	59	12219
2026-01-25 11:20:06.99	205.24	6.34	-43.6	-53.9	4.5	1.03e+00	0	57	0	1048576	59	11319
2026-01-25 11:20:08.01	205.32	6.41	-43.5	-53.1	4.9	8.71e-01	0	57	0	3145728	59	10314
2026-01-25 11:20:09.02	205.41	6.47	-43.5	-53.0	4.9	7.62e-01	0	57	0	5242880	59	10279
2026-01-25 11:20:10.03	205.49	6.54	-43.5	-52.9	4.9	7.68e-01	0	57	0	7340032	59	10137
2026-01-25 11:20:11.04	205.58	6.61	-43.5	-52.7	5.1	7.08e-01	0	57	0	8388608	58	10495
2026-01-25 11:20:12.05	205.66	6.67	-43.4	-52.4	5.2	6.27e-01	0	57	0	10485760	58	10163
2026-01-25 11:20:13.06	205.75	6.74	-43.4	-52.2	5.4	5.54e-01	0	57	0	12582912	58	9861
2026-01-25 11:20:14.07	205.83	6.80	-43.5	-52.7	5.1	6.18e-01	0	57	0	14680064	58	10532
2026-01-25 11:20:15.08	205.92	6.87	-43.5	-52.8	5.0	6.50e-01	0	57	0	16777216	58	10653
2026-01-25 11:20:16.09	206.00	6.94	-43.5	-52.8	5.0	6.95e-01	0	57	0	17825792	58	10562
2026-01-25 11:20:17.10	206.09	7.00	-43.5	-53.0	5.0	6.84e-01	0	57	0	19922944	58	10851
2026-01-25 11:20:18.11	206.18	7.07	-43.5	-53.3	4.8	8.00e-01	0	57	0	22020096	58	11205
2026-01-25 11:20:19.12	206.26	7.14	-43.5	-53.0	4.9	8.04e-01	0	57	0	24117248	58	10889
2026-01-25 11:20:20.13	206.35	7.20	-43.4	-52.7	5.1	6.59e-01	0	57	0	26214400	58	10414
2026-01-25 11:20:21.14	206.44	7.27	-43.4	-52.0	5.5	5.78e-01	0	57	0	27262976	58	9677
2026-01-25 11:20:22.15	206.53	7.34	-43.2	-51.0	6.2	4.10e-01	0	57	0	29360128	58	8661
2026-01-25 11:20:23.16	206.62	7.41	-43.0	-50.3	6.8	2.20e-01	0	57	0	31457280	58	7960
2026-01-25 11:20:24.17	206.70	7.47	-42.9	-49.7	7.4	1.33e-01	0	57	0	33554432	57	7849
2026-01-25 11:20:25.18	206.79	7.54	-42.7	-48.9	8.2	8.00e-02	0	57	0	35651584	57	7135
2026-01-25 11:20:26.19	206.88	7.61	-42.5	-48.4	8.6	3.54e-02	0	57	0	36700160	57	6784
2026-01-25 11:20:27.20	206.97	7.68	-42.2	-47.5	9.6	2.13e-02	0	58	0	38797312	56	6486
2026-01-25 11:20:28.21	207.06	7.75	-42.1	-47.1	10.0	1.07e-02	0	57	0	40894464	56	6195
2026-01-25 11:20:29.22	207.16	7.81	-42.0	-46.8	10.3	5.88e-03	0	58	0	42991616	56	5976
2026-01-25 11:20:30.23	207.25	7.88	-41.8	-46.7	10.3	5.67e-03	0	58	0	45088768	55	6246
2026-01-25 11:20:31.24	207.34	7.95	-41.8	-46.7	10.3	4.97e-03	0	58	0	47185920	55	6210
2026-01-25 11:20:32.25	207.43	8.02	-41.9	-46.9	10.1	6.94e-03	0	58	0	48234496	55	6354
2026-01-25 11:20:33.26	207.52	8.09	-42.2	-47.6	9.4	1.17e-02	0	58	0	50331648	55	6957
2026-01-25 11:20:34.28	207.62	8.16	-43.7	-56.3	3.8	1.21e+00	0	58	104	51380224	58	15786
2026-01-25 11:20:35.29	207.71	8.23	-43.0	-50.3	6.7	2.40e-01	0	58	0	51380224	56	8944
2026-01-25 11:20:36.30	207.81	8.29	-42.6	-48.3	8.8	1.16e-01	0	57	0	53477376	56	7048
2026-01-25 11:20:37.31	207.90	8.36	-43.2	-50.9	6.3	2.25e-01	0	58	0	55574528	57	9007
2026-01-25 11:20:38.32	208.00	8.43	-42.1	-47.0	10.2	2.04e-02	0	58	0	57671680	56	6101
2026-01-25 11:20:39.33	208.09	8.50	-42.2	-47.3	9.9	8.69e-03	0	58	0	59768832	56	6297
2026-01-25 11:20:40.34	208.19	8.57	-42.3	-47.5	9.7	8.46e-03	0	58	0	60817408	56	6432
2026-01-25 11:20:41.34	208.28	8.64	-41.9	-46.6	10.5	5.70e-03	0	58	0	62914560	55	6196
2026-01-25 11:20:42.35	208.38	8.71	-41.8	-46.5	10.6	4.12e-03	0	58	0	65011712	55	6084
2026-01-25 11:20:43.36	208.48	8.78	-41.8	-46.4	10.7	3.82e-03	0	58	0	67108864	55	6059
2026-01-25 11:20:44.37	208.57	8.85	-41.8	-46.4	10.7	2.51e-03	0	58	0	69206016	55	6024
2026-01-25 11:20:45.38	208.67	8.92	-41.8	-46.5	10.6	2.82e-03	0	58	0	70254592	55	6082
2026-01-25 11:20:46.39	208.77	8.99	-41.8	-46.3	10.7	3.44e-03	0	58	0	72351744	55	5992
2026-01-25 11:20:47.40	208.87	9.06	-41.7	-46.2	10.9	2.63e-03	0	58	0	74448896	55	5918
2026-01-25 11:20:48.41	208.97	9.13	-41.8	-46.3	10.9	2.35e-03	0	58	0	76546048	55	5954
2026-01-25 11:20:49.42	209.07	9.20	-41.7	-46.2	11.0	2.01e-03	0	58	0	78643200	55	5914
2026-01-25 11:20:50.43	209.17	9.27	-41.7	-46.1	11.1	1.87e-03	0	58	0	79691776	55	5795
2026-01-25 11:20:51.44	209.27	9.34	-41.7	-46.1	11.1	1.14e-03	0	58	0	81788928	55	5815
2026-01-25 11:20:52.45	209.37	9.41	-41.7	-46.0	11.2	1.28e-03	0	58	0	83886080	55	5776
2026-01-25 11:20:53.46	209.47	9.49	-41.6	-45.8	11.4	8.33e-04	0	58	0	85983232	55	5654
2026-01-25 11:20:54.47	209.57	9.56	-41.5	-45.6	11.6	7.28e-04	0	58	0	88080384	55	5521
2026-01-25 11:20:55.48	209.68	9.63	-41.5	-45.7	11.7	6.67e-04	0	58	0	89128960	54	5877
2026-01-25 11:20:56.48	209.78	9.70	-41.4	-45.5	11.8	5.64e-04	0	58	0	91226112	54	5760
2026-01-25 11:20:57.49	209.88	9.77	-41.4	-45.5	11.8	5.15e-04	0	58	0	93323264	54	5758
2026-01-25 11:20:58.50	209.99	9.84	-41.4	-45.4	11.9	4.30e-04	0	58	0	95420416	54	5703
2026-01-25 11:20:59.51	210.09	9.91	-41.4	-45.4	11.9	4.49e-04	0	58	0	97517568	54	5720
2026-01-25 11:21:00.52	210.20	9.99	-41.5	-45.6	11.7	5.37e-04	0	58	0	99614720	54	5811
2026-01-25 11:21:01.53	210.30	10.06	-41.5	-45.5	11.8	5.30e-04	0	58	0	100663296	54	5773
2026-01-25 11:21:02.54	210.41	10.13	-41.5	-45.7	11.6	5.91e-04	0	58	0	102760448	54	5884
2026-01-25 11:21:03.55	210.52	10.20	-41.6	-45.8	11.5	6.00e-04	0	59	0	104857600	54	5959
2026-01-25 11:21:04.56	210.62	10.28	-41.5	-45.6	11.7	7.21e-04	0	58	0	106954752	54	5846
2026-01-25 11:21:05.57	210.73	10.35	-41.6	-45.8	11.5	5.80e-04	0	58	0	109051904	54	5954
2026-01-25 11:21:06.58	210.84	10.42	-41.6	-45.7	11.6	7.13e-04	0	59	0	110100480	54	5912
2026-01-25 11:21:07.59	210.95	10.49	-41.7	-46.0	11.3	1.19e-03	0	59	0	112197632	54	6101
2026-01-25 11:21:08.60	211.06	10.57	-41.7	-45.9	11.4	9.37e-04	0	58	0	114294784	54	6045
2026-01-25 11:21:09.61	211.17	10.64	-41.7	-46.0	11.4	9.06e-04	0	59	0	116391936	54	6098
2026-01-25 11:21:10.62	211.28	10.71	-41.8	-46.1	11.3	1.21e-03	0	59	0	118489088	54	6151
2026-01-25 11:21:11.63	211.39	10.79	-41.7	-45.8	11.6	8.84e-04	0	58	0	119537664	54	5980
2026-01-25 11:21:12.64	211.50	10.86	-41.7	-45.9	11.5	8.95e-04	0	59	0	121634816	54	6050
2026-01-25 11:21:13.65	211.61	10.93	-41.7	-45.9	11.5	6.61e-04	0	59	0	123731968	54	6045
2026-01-25 11:21:14.66	211.72	11.01	-41.6	-45.7	11.7	5.58e-04	0	59	0	125829120	54	5902
2026-01-25 11:21:15.67	211.84	11.08	-41.6	-45.7	11.8	4.29e-04	0	59	0	127926272	54	5865
2026-01-25 11:21:16.68	211.95	11.16	-41.6	-45.7	11.8	4.00e-04	0	59	0	128974848	54	5860
2026-01-25 11:21:17.68	212.06	11.23	-41.5	-45.5	12.0	4.35e-04	0	59	0	131072000	54	5724
2026-01-25 11:21:18.69	212.18	11.30	-41.6	-45.6	11.8	4.61e-04	0	59	0	133169152	54	5847
2026-01-25 11:21:19.70	212.29	11.38	-41.5	-45.4	12.1	5.68e-04	0	59	0	135266304	54	5707
2026-01-25 11:21:20.71	212.41	11.45	-41.4	-45.2	12.3	2.29e-04	0	59	0	137363456	54	5584
2026-01-25 11:21:21.72	212.53	11.53	-41.5	-45.4	12.1	2.78e-04	0	59	0	138412032	54	5682
2026-01-25 11:21:22.73	212.64	11.60	-41.4	-45.4	12.1	3.11e-04	0	59	0	140509184	54	5666
2026-01-25 11:21:23.74	212.76	11.68	-41.5	-45.4	12.1	1.95e-04	0	59	0	142606336	54	5675
2026-01-25 11:21:24.75	212.88	11.75	-41.6	-45.7	11.8	2.86e-04	0	59	0	144703488	54	5897
2026-01-25 11:21:25.76	213.00	11.83	-41.6	-45.7	11.8	3.30e-04	0	59	0	146800640	54	5869
2026-01-25 11:21:26.77	213.12	11.90	-41.6	-45.7	11.8	4.45e-04	0	59	0	147849216	54	5873
2026-01-25 11:21:27.78	213.24	11.98	-41.6	-45.8	11.7	5.00e-04	0	59	0	149946368	54	5945
2026-01-25 11:21:28.79	213.36	12.05	-41.7	-45.9	11.6	7.32e-04	0	59	0	152043520	54	6020
2026-01-25 11:21:29.79	213.48	12.13	-41.7	-45.8	11.7	6.51e-04	0	59	0	154140672	54	5932
2026-01-25 11:21:30.80	213.60	12.20	-41.8	-46.2	11.3	7.77e-04	0	59	0	156237824	54	6217
2026-01-25 11:21:31.81	213.72	12.28	-41.7	-45.9	11.5	9.20e-04	0	59	0	157286400	54	6045
2026-01-25 11:21:32.82	213.84	12.35	-41.7	-45.8	11.7	8.02e-04	0	59	0	159383552	54	5959
2026-01-25 11:21:33.83	213.97	12.43	-41.8	-46.0	11.5	7.03e-04	0	59	0	161480704	54	6111
2026-01-25 11:21:34.84	214.09	12.51	-41.8	-45.9	11.6	7.87e-04	0	59	0	163577856	54	6035
2026-01-25 11:21:35.85	214.22	12.58	-41.7	-45.9	11.7	5.90e-04	0	59	0	165675008	54	6022
2026-01-25 11:21:36.86	214.34	12.66	-41.7	-45.8	11.7	5.93e-04	0	59	0	167772160	54	5989
2026-01-25 11:21:37.87	214.47	12.74	-41.8	-45.8	11.8	6.35e-04	0	59	0	168820736	54	5981
2026-01-25 11:21:38.88	214.59	12.81	-41.7	-45.8	11.9	5.91e-04	0	59	0	170917888	54	5928
2026-01-25 11:21:39.89	214.72	12.89	-41.8	-46.0	11.6	4.52e-04	0	59	0	173015040	54	6089
2026-01-25 11:21:40.90	214.85	12.97	-41.9	-46.1	11.5	6.63e-04	0	59	0	175112192	54	6176
2026-01-25 11:21:41.91	214.98	13.04	-41.8	-45.8	11.8	4.36e-04	0	59	0	177209344	54	5943
2026-01-25 11:21:42.92	215.11	13.12	-41.8	-45.9	11.8	5.92e-04	0	59	0	178257920	54	6001
2026-01-25 11:21:43.93	215.24	13.20	-41.7	-45.8	11.8	5.65e-04	0	59	0	180355072	54	5934
2026-01-25 11:21:44.94	215.37	13.28	-41.8	-46.0	11.7	5.61e-04	0	59	0	182452224	54	6068
2026-01-25 11:21:45.95	215.50	13.35	-41.7	-45.8	11.8	4.91e-04	0	59	0	184549376	54	5951
2026-01-25 11:21:46.96	215.63	13.43	-41.7	-45.7	12.0	4.13e-04	0	59	0	186646528	54	5889
2026-01-25 11:21:47.97	215.76	13.51	-41.7	-45.6	12.1	3.45e-04	0	59	0	187695104	54	5808
2026-01-25 11:21:48.97	215.89	13.59	-41.8	-45.8	11.9	3.42e-04	0	59	0	189792256	54	5938
2026-01-25 11:21:49.98	216.03	13.66	-41.8	-45.9	11.7	4.58e-04	0	59	0	191889408	54	6054
2026-01-25 11:21:50.99	216.16	13.74	-41.8	-45.8	11.8	3.87e-04	0	59	0	193986560	54	5963
2026-01-25 11:21:52.00	216.30	13.82	-41.8	-45.8	11.9	4.00e-04	0	59	0	196083712	54	5931
2026-01-25 11:21:53.01	216.43	13.90	-41.8	-45.8	11.9	4.40e-04	0	60	0	197132288	54	5961
2026-01-25 11:21:54.02	216.57	13.98	-41.7	-45.7	11.9	3.47e-04	0	60	0	199229440	54	5910
2026-01-25 11:21:55.03	216.71	14.05	-41.7	-45.6	12.1	2.95e-04	0	59	0	201326592	54	5810
2026-01-25 11:21:56.04	216.85	14.13	-41.7	-45.5	12.1	2.76e-04	0	59	0	203423744	54	5785
2026-01-25 11:21:57.05	216.99	14.21	-41.5	-45.3	12.3	1.81e-04	0	59	0	205520896	54	5628
2026-01-25 11:21:58.05	217.12	14.29	-41.5	-45.3	12.4	1.30e-04	0	59	0	206569472	54	5595
2026-01-25 11:21:59.06	217.26	14.37	-41.5	-45.2	12.5	1.26e-04	0	60	0	208666624	54	5559
2026-01-25 11:22:00.07	217.40	14.45	-41.4	-45.1	12.7	9.68e-05	0	59	0	210763776	54	5467
2026-01-25 11:22:01.08	217.55	14.53	-41.4	-45.1	12.6	7.24e-05	0	59	0	212860928	54	5477
2026-01-25 11:22:02.09	217.69	14.61	-41.5	-45.1	12.6	7.70e-05	0	60	0	214958080	54	5513
2026-01-25 11:22:03.10	217.83	14.68	-41.4	-45.1	12.6	6.40e-05	0	59	0	216006656	54	5497
2026-01-25 11:22:04.11	217.98	14.76	-41.4	-44.9	12.8	7.55e-05	0	59	0	218103808	54	5395
2026-01-25 11:22:05.13	218.12	14.84	-41.5	-45.1	12.6	7.55e-05	0	60	0	220200960	54	5495
2026-01-25 11:22:06.13	218.27	14.92	-41.6	-45.3	12.5	9.38e-05	0	60	0	222298112	54	5613
2026-01-25 11:22:07.14	218.41	15.00	-41.6	-45.3	12.4	1.48e-04	0	59	0	224395264	54	5650
2026-01-25 11:22:08.15	218.56	15.08	-41.7	-45.6	12.2	2.08e-04	0	59	0	225443840	54	5819
2026-01-25 11:22:09.16	218.71	15.16	-41.7	-45.6	12.1	2.61e-04	0	60	0	227540992	54	5836
2026-01-25 11:22:10.17	218.86	15.24	-41.8	-45.7	12.1	2.55e-04	0	60	0	229638144	54	5877
2026-01-25 11:22:11.18	219.00	15.32	-41.7	-45.6	12.1	3.07e-04	0	60	0	231735296	54	5854
2026-01-25 11:22:12.19	219.15	15.40	-41.8	-45.7	12.0	3.42e-04	0	60	0	233832448	54	5917
2026-01-25 11:22:13.20	219.31	15.48	-41.8	-45.7	12.0	2.68e-04	0	59	0	235929600	54	5909
2026-01-25 11:22:14.21	219.46	15.56	-41.9	-45.9	11.9	3.11e-04	0	60	0	236978176	54	5995
2026-01-25 11:22:15.22	219.61	15.64	-41.8	-45.7	12.0	3.75e-04	0	60	0	239075328	54	5920
2026-01-25 11:22:16.23	219.76	15.72	-41.8	-45.7	12.0	3.49e-04	0	60	0	241172480	54	5902
2026-01-25 11:22:17.24	219.92	15.80	-41.9	-45.9	11.9	3.20e-04	0	60	0	243269632	54	6006
2026-01-25 11:22:18.25	220.07	15.88	-41.9	-45.9	11.9	3.29e-04	0	60	0	245366784	54	6033
2026-01-25 11:22:19.26	220.23	15.96	-41.8	-45.7	12.1	2.77e-04	0	60	0	246415360	54	5886
2026-01-25 11:22:20.27	220.38	16.04	-41.8	-45.8	12.0	2.38e-04	0	60	0	248512512	54	5946
2026-01-25 11:22:21.28	220.54	16.13	-41.7	-45.5	12.3	1.77e-04	0	60	0	250609664	54	5787
2026-01-25 11:22:22.29	220.70	16.21	-41.7	-45.5	12.3	1.88e-04	0	60	0	252706816	54	5778
2026-01-25 11:22:23.30	220.86	16.29	-41.7	-45.5	12.3	1.92e-04	0	60	0	254803968	54	5781
2026-01-25 11:22:24.31	221.02	16.37	-41.7	-45.5	12.3	1.56e-04	0	60	0	255852544	54	5761
2026-01-25 11:22:25.32	221.18	16.45	-41.6	-45.4	12.5	1.47e-04	0	59	0	257949696	54	5670
2026-01-25 11:22:26.33	221.34	16.53	-41.5	-45.2	12.7	9.00e-05	0	60	0	260046848	54	5532
2026-01-25 11:22:27.34	221.50	16.61	-41.5	-45.2	12.7	1.06e-04	0	60	0	262144000	54	5549
2026-01-25 11:22:28.35	221.66	16.69	-41.4	-44.9	13.0	6.48e-05	0	60	0	264241152	54	5366
2026-01-25 11:22:29.36	221.83	16.77	-41.3	-44.7	13.2	2.89e-05	0	60	0	265289728	54	5229
2026-01-25 11:22:30.37	221.99	16.85	-41.1	-44.5	13.4	2.13e-05	0	60	0	267386880	54	5102
2026-01-25 11:22:31.38	222.16	16.93	-41.1	-44.5	13.4	1.75e-05	0	60	0	269484032	54	5105
2026-01-25 11:22:32.39	222.32	17.02	-41.0	-44.2	13.7	6.10e-06	0	60	0	271581184	54	4942
2026-01-25 11:22:33.40	222.49	17.10	-41.0	-44.2	13.7	7.60e-06	0	60	0	273678336	54	4938
2026-01-25 11:22:34.41	222.66	17.18	-41.0	-44.3	13.6	7.60e-06	0	60	0	274726912	53	5291
2026-01-25 11:22:35.42	222.83	17.26	-41.0	-44.1	13.7	5.30e-06	0	60	0	276824064	53	5200
2026-01-25 11:22:36.43	223.00	17.34	-41.0	-44.2	13.7	7.60e-06	0	60	0	278921216	53	5222
2026-01-25 11:22:37.44	223.17	17.42	-41.0	-44.3	13.6	9.10e-06	0	60	0	281018368	53	5282
2026-01-25 11:22:38.45	223.34	17.50	-41.1	-44.4	13.5	9.90e-06	0	60	0	283115520	53	5345
2026-01-25 11:22:39.46	223.51	17.59	-41.1	-44.4	13.5	1.60e-05	0	60	0	284164096	53	5363
2026-01-25 11:22:40.47	223.69	17.67	-41.3	-44.7	13.2	9.10e-06	0	60	0	286261248	53	5586
2026-01-25 11:22:41.48	223.86	17.75	-41.3	-44.7	13.2	2.67e-05	0	60	0	288358400	53	5530
2026-01-25 11:22:42.48	224.04	17.83	-41.3	-44.8	13.1	2.82e-05	0	60	0	290455552	53	5631
2026-01-25 11:22:43.50	224.22	17.91	-41.4	-45.0	12.9	2.89e-05	0	60	0	292552704	53	5749
2026-01-25 11:22:44.50	224.39	17.99	-41.4	-44.9	13.0	4.11e-05	0	60	0	293601280	53	5697
2026-01-25 11:22:45.51	224.57	18.07	-41.5	-45.0	12.8	5.26e-05	0	60	0	295698432	53	5763
2026-01-25 11:22:46.52	224.75	18.16	-41.5	-45.1	12.8	4.04e-05	0	60	0	297795584	53	5818
2026-01-25 11:22:47.53	224.93	18.24	-41.5	-45.0	12.9	5.41e-05	0	60	0	299892736	53	5756
2026-01-25 11:22:48.54	225.11	18.32	-41.3	-44.7	13.2	2.74e-05	0	60	0	301989888	53	5577
2026-01-25 11:22:49.55	225.29	18.40	-41.3	-44.8	13.1	2.74e-05	0	60	0	304087040	53	5609
2026-01-25 11:22:50.56	225.47	18.48	-41.3	-44.8	13.1	2.44e-05	0	60	0	305135616	53	5595
2026-01-25 11:22:51.57	225.66	18.56	-41.3	-44.7	13.2	2.51e-05	0	60	0	307232768	53	5545
2026-01-25 11:22:52.58	225.84	18.64	-41.2	-44.5	13.4	1.29e-05	0	60	0	309329920	53	5432
2026-01-25 11:22:53.59	226.03	18.73	-41.2	-44.5	13.4	1.37e-05	0	60	0	311427072	53	5434
2026-01-25 11:22:54.60	226.22	18.81	-41.0	-44.2	13.7	9.10e-06	0	60	0	313524224	53	5238
2026-01-25 11:22:55.61	226.40	18.89	-40.9	-44.0	13.9	7.60e-06	0	60	0	314572800	53	5125
2026-01-25 11:22:56.62	226.59	18.97	-40.9	-43.9	14.0	4.50e-06	0	60	0	316669952	53	5100
2026-01-25 11:22:57.63	226.78	19.05	-40.9	-44.0	13.9	7.00e-07	0	60	0	318767104	53	5157
2026-01-25 11:22:58.64	226.97	19.13	-40.9	-44.0	13.9	6.10e-06	0	60	0	320864256	53	5107
2026-01-25 11:22:59.65	227.16	19.21	-40.8	-43.8	14.0	3.00e-06	0	60	0	322961408	53	5031
2026-01-25 11:23:00.66	227.36	19.30	-41.0	-44.1	13.8	6.10e-06	0	60	0	324009984	53	5173
2026-01-25 11:23:01.67	227.55	19.38	-41.0	-44.1	13.8	6.80e-06	0	60	0	326107136	53	5188
2026-01-25 11:23:02.68	227.75	19.46	-41.0	-44.2	13.7	3.00e-06	0	60	0	328204288	53	5248
2026-01-25 11:23:03.69	227.94	19.54	-41.0	-44.2	13.7	6.10e-06	0	60	0	330301440	53	5277
2026-01-25 11:23:04.70	228.14	19.62	-41.2	-44.4	13.5	8.30e-06	0	60	0	332398592	53	5389
2026-01-25 11:23:05.71	228.34	19.70	-41.0	-44.1	13.8	6.10e-06	0	60	0	333447168	53	5206
2026-01-25 11:23:06.72	228.53	19.78	-41.0	-44.1	13.8	8.30e-06	0	60	0	335544320	53	5201
2026-01-25 11:23:07.73	228.73	19.86	-40.9	-44.0	13.9	8.30e-06	0	60	0	337641472	53	5112
2026-01-25 11:23:08.74	228.94	19.94	-40.9	-44.1	13.9	3.00e-06	0	61	0	339738624	53	5169
2026-01-25 11:23:09.74	229.14	20.02	-40.9	-44.0	13.9	7.00e-07	0	60	0	341835776	53	5104
2026-01-25 11:23:10.75	229.34	20.10	-40.9	-43.9	14.0	7.00e-07	0	60	0	342884352	53	5085
2026-01-25 11:23:11.77	229.54	20.18	-41.0	-44.2	13.7	2.20e-06	0	60	0	344981504	53	5264
2026-01-25 11:23:12.77	229.75	20.26	-41.0	-44.2	13.7	7.60e-06	0	60	0	347078656	53	5238
2026-01-25 11:23:13.78	229.95	20.34	-41.0	-44.2	13.7	9.90e-06	0	60	0	349175808	53	5238
2026-01-25 11:23:14.79	230.16	20.42	-41.0	-44.1	13.8	1.50e-06	0	60	0	351272960	53	5182
2026-01-25 11:23:15.80	230.37	20.50	-41.0	-44.1	13.8	6.80e-06	0	60	0	352321536	53	5210
2026-01-25 11:23:16.81	230.58	20.58	-40.9	-43.9	13.9	4.50e-06	0	60	0	354418688	53	5090
2026-01-25 11:23:17.82	230.79	20.66	-41.0	-44.1	13.9	6.10e-06	0	61	0	356515840	53	5168
2026-01-25 11:23:18.83	231.00	20.74	-41.0	-44.1	13.8	3.80e-06	0	60	0	358612992	53	5215
2026-01-25 11:23:19.84	231.21	20.82	-41.1	-44.3	13.6	3.00e-06	0	60	0	360710144	53	5317
2026-01-25 11:23:20.85	231.43	20.90	-41.2	-44.5	13.4	1.06e-05	0	60	0	361758720	53	5457
2026-01-25 11:23:21.86	231.64	20.98	-41.2	-44.4	13.5	1.52e-05	0	60	0	363855872	53	5371
2026-01-25 11:23:22.87	231.86	21.06	-41.3	-44.6	13.3	1.44e-05	0	60	0	365953024	53	5493
2026-01-25 11:23:23.88	232.07	21.14	-41.2	-44.5	13.5	1.44e-05	0	61	0	368050176	53	5421
2026-01-25 11:23:24.89	232.29	21.22	-41.1	-44.3	13.7	8.30e-06	0	60	0	370147328	53	5292
2026-01-25 11:23:25.90	232.51	21.30	-41.0	-44.1	13.8	6.80e-06	0	60	0	372244480	53	5196
2026-01-25 11:23:26.91	232.73	21.38	-41.0	-44.1	13.8	2.20e-06	0	60	0	373293056	53	5202
2026-01-25 11:23:27.92	232.95	21.45	-41.0	-44.2	13.8	2.20e-06	0	60	0	375390208	53	5224
2026-01-25 11:23:28.93	233.17	21.53	-41.0	-44.1	13.8	4.50e-06	0	60	0	377487360	53	5206
2026-01-25 11:23:29.94	233.40	21.61	-40.9	-44.0	13.9	5.30e-06	0	60	0	379584512	53	5141
2026-01-25 11:23:30.95	233.62	21.69	-41.0	-44.1	13.9	4.50e-06	0	60	0	381681664	53	5187
2026-01-25 11:23:31.96	233.84	21.76	-40.9	-44.0	14.0	5.30e-06	0	60	0	382730240	53	5119
2026-01-25 11:23:32.97	234.07	21.84	-40.9	-44.0	14.0	0.00e+00	0	61	0	384827392	53	5120
2026-01-25 11:23:33.98	234.30	21.92	-40.8	-43.9	14.1	1.50e-06	0	60	0	386924544	53	5049
2026-01-25 11:23:34.99	234.53	21.99	-40.9	-43.9	14.1	7.00e-07	0	60	0	389021696	53	5052
2026-01-25 11:23:36.00	234.76	22.07	-41.0	-44.1	13.8	2.20e-06	0	60	0	391118848	53	5192
2026-01-25 11:23:37.01	234.99	22.15	-40.9	-43.9	14.1	3.00e-06	0	60	0	392167424	53	5071
2026-01-25 11:23:38.01	235.22	22.22	-40.9	-44.0	13.9	7.00e-07	0	60	0	394264576	53	5134
2026-01-25 11:23:39.02	235.45	22.30	-40.8	-43.8	14.1	3.00e-06	0	60	0	396361728	53	5037
2026-01-25 11:23:40.03	235.69	22.37	-40.9	-44.0	13.9	1.50e-06	0	60	0	398458880	53	5143
2026-01-25 11:23:41.04	235.92	22.45	-40.9	-44.0	14.0	6.10e-06	0	60	0	400556032	53	5147
2026-01-25 11:23:42.05	236.16	22.52	-40.9	-44.0	14.0	2.20e-06	0	61	0	401604608	53	5130
2026-01-25 11:23:43.06	236.39	22.60	-40.8	-43.8	14.1	2.20e-06	0	60	0	403701760	53	5019
2026-01-25 11:23:44.07	236.63	22.67	-40.8	-43.8	14.1	2.20e-06	0	60	0	405798912	53	5031
2026-01-25 11:23:45.08	236.87	22.75	-40.8	-43.8	14.1	3.80e-06	0	61	0	407896064	53	5023
2026-01-25 11:23:46.09	237.11	22.82	-40.8	-43.8	14.1	0.00e+00	0	61	0	409993216	53	5035
2026-01-25 11:23:47.10	237.36	22.89	-40.7	-43.7	14.3	2.20e-06	0	60	0	411041792	53	4947
2026-01-25 11:23:48.11	237.60	22.97	-40.7	-43.7	14.3	0.00e+00	0	60	0	413138944	53	4942
2026-01-25 11:23:49.12	237.84	23.04	-40.8	-43.8	14.2	1.50e-06	0	60	0	415236096	53	4998
2026-01-25 11:23:50.13	238.09	23.11	-40.8	-43.7	14.2	2.20e-06	0	61	0	417333248	53	4967
2026-01-25 11:23:51.14	238.34	23.19	-40.8	-43.8	14.2	7.00e-07	0	60	0	419430400	53	5017
2026-01-25 11:23:52.14	238.58	23.26	-41.0	-44.1	13.9	2.20e-06	0	61	0	420478976	53	5206
2026-01-25 11:23:53.15	238.83	23.33	-41.2	-44.5	13.5	4.50e-06	0	61	0	422576128	53	5412
2026-01-25 11:23:54.16	239.08	23.40	-41.3	-44.6	13.3	1.90e-05	0	61	0	424673280	53	5519
2026-01-25 11:23:55.17	239.33	23.47	-41.3	-44.6	13.4	2.21e-05	0	61	0	426770432	53	5478
2026-01-25 11:23:56.18	239.58	23.54	-41.3	-44.6	13.4	1.90e-05	0	61	0	428867584	53	5470
2026-01-25 11:23:57.19	239.83	23.61	-41.3	-44.6	13.3	1.44e-05	0	60	0	429916160	53	5514
2026-01-25 11:23:58.20	240.09	23.68	-41.1	-44.4	13.6	6.80e-06	0	60	0	432013312	53	5351
2026-01-25 11:23:59.21	240.34	23.75	-41.0	-44.2	13.8	3.80e-06	0	60	0	434110464	53	5223
2026-01-25 11:24:00.22	240.60	23.82	-41.0	-44.1	13.9	4.50e-06	0	60	0	436207616	53	5172
2026-01-25 11:24:01.23	240.86	23.89	-40.9	-44.0	14.0	3.00e-06	0	60	0	438304768	53	5106
2026-01-25 11:24:02.24	241.12	23.95	-40.9	-44.0	14.0	3.00e-06	0	60	0	440401920	53	5121
2026-01-25 11:24:03.25	241.38	24.02	-40.8	-43.8	14.2	3.00e-06	0	61	0	441450496	53	5018
2026-01-25 11:24:04.26	241.64	24.09	-40.8	-43.8	14.2	2.20e-06	0	60	0	443547648	53	5006
2026-01-25 11:24:05.27	241.90	24.16	-40.9	-43.9	14.1	2.20e-06	0	61	0	445644800	53	5064
2026-01-25 11:24:06.28	242.16	24.22	-41.1	-44.4	13.6	3.80e-06	0	60	0	447741952	53	5348
2026-01-25 11:24:07.29	242.43	24.29	-41.2	-44.6	13.4	1.22e-05	0	61	0	448790528	53	5479
2026-01-25 11:24:08.30	242.69	24.35	-41.5	-45.0	13.0	2.36e-05	0	61	0	450887680	53	5732
2026-01-25 11:24:09.31	242.96	24.42	-41.4	-44.9	13.1	3.96e-05	0	61	0	452984832	53	5662
2026-01-25 11:24:10.31	243.22	24.48	-41.2	-44.5	13.4	2.13e-05	0	60	0	455081984	53	5452
2026-01-25 11:24:11.32	243.49	24.55	-41.0	-44.0	13.9	4.50e-06	0	61	0	457179136	53	5153
2026-01-25 11:24:12.34	243.76	24.61	-40.9	-43.9	14.0	3.80e-06	0	61	0	458227712	53	5069
2026-01-25 11:24:13.34	244.03	24.67	-41.1	-44.2	13.7	4.50e-06	0	61	0	460324864	53	5254
2026-01-25 11:24:14.35	244.30	24.73	-41.2	-44.5	13.4	9.90e-06	0	61	0	462422016	53	5416
2026-01-25 11:24:15.36	244.57	24.80	-41.6	-45.2	12.8	2.59e-05	0	61	0	464519168	53	5870
2026-01-25 11:24:16.37	244.85	24.86	-41.9	-45.8	12.1	1.15e-04	0	61	0	466616320	54	5969
2026-01-25 11:24:17.38	245.12	24.92	-42.0	-46.0	11.9	3.04e-04	0	61	0	468713472	54	6098
2026-01-25 11:24:18.39	245.40	24.98	-42.0	-46.0	11.9	5.04e-04	0	61	0	469762048	54	6092
2026-01-25 11:24:19.40	245.67	25.04	-42.0	-46.0	11.9	4.70e-04	0	60	0	471859200	54	6101
2026-01-25 11:24:20.41	245.95	25.10	-42.1	-46.1	11.9	3.22e-04	0	61	0	473956352	54	6148
2026-01-25 11:24:21.42	246.23	25.16	-42.1	-46.3	11.6	5.36e-04	0	61	0	476053504	54	6283
2026-01-25 11:24:22.43	246.51	25.21	-42.0	-46.1	11.9	4.32e-04	0	61	0	478150656	54	6145
2026-01-25 11:24:23.44	246.79	25.27	-42.0	-45.9	12.0	3.49e-04	0	61	0	479199232	54	6043
2026-01-25 11:24:24.45	247.07	25.33	-41.9	-45.8	12.2	3.03e-04	0	61	0	481296384	54	5933
2026-01-25 11:24:25.46	247.36	25.39	-41.6	-45.2	12.7	1.20e-04	0	61	0	483393536	54	5580
2026-01-25 11:24:26.47	247.64	25.44	-41.8	-45.4	12.5	1.01e-04	0	61	0	485490688	54	5709
2026-01-25 11:24:27.48	247.92	25.50	-42.0	-45.9	12.1	1.72e-04	0	61	0	487587840	54	6015
2026-01-25 11:24:28.49	248.21	25.55	-42.0	-45.9	11.9	2.15e-04	0	61	0	488636416	54	6054
2026-01-25 11:24:29.50	248.50	25.60	-42.3	-46.7	11.2	9.29e-04	0	61	0	490733568	55	6224
2026-01-25 11:24:30.51	248.78	25.66	-42.4	-46.9	11.0	1.67e-03	0	61	0	492830720	55	6394
2026-01-25 11:24:31.52	249.07	25.71	-42.6	-47.3	10.5	2.65e-03	0	61	0	494927872	55	6677
2026-01-25 11:24:32.53	249.36	25.76	-42.6	-47.4	10.5	3.76e-03	0	61	0	497025024	55	6765
2026-01-25 11:24:33.54	249.65	25.81	-42.6	-47.4	10.5	3.98e-03	0	61	0	498073600	55	6724
2026-01-25 11:24:34.55	249.94	25.86	-42.6	-47.4	10.4	4.10e-03	0	61	0	500170752	55	6792
2026-01-25 11:24:35.56	250.24	25.91	-42.7	-47.3	10.8	5.28e-03	0	61	0	502267904	56	6276
2026-01-25 11:24:36.57	250.53	25.96	-42.6	-47.2	10.9	2.18e-03	0	61	0	504365056	56	6227
2026-01-25 11:24:37.58	250.82	26.01	-42.7	-47.4	10.7	2.31e-03	0	61	0	506462208	56	6394
2026-01-25 11:24:38.58	251.11	26.06	-42.8	-47.5	10.6	2.71e-03	0	61	0	507510784	56	6467
2026-01-25 11:24:39.59	251.41	26.10	-43.0	-48.1	9.9	8.08e-03	0	61	0	509607936	56	6921
2026-01-25 11:24:40.60	251.71	26.15	-43.2	-48.6	9.3	1.17e-02	0	61	0	511705088	56	7362
2026-01-25 11:24:41.61	252.00	26.20	-43.1	-48.3	9.7	1.56e-02	0	61	0	513802240	57	6689
2026-01-25 11:24:42.62	252.30	26.24	-42.9	-48.0	10.1	6.75e-03	0	61	0	515899392	57	6422
2026-01-25 11:24:43.63	252.60	26.28	-42.7	-47.3	10.8	3.93e-03	0	61	0	516947968	57	5927
2026-01-25 11:24:44.64	252.90	26.33	-42.5	-46.9	11.1	1.87e-03	0	61	0	519045120	57	5695
2026-01-25 11:24:45.65	253.20	26.37	-42.6	-47.0	11.0	1.57e-03	0	61	0	521142272	56	6115
2026-01-25 11:24:46.66	253.50	26.41	-42.6	-47.1	11.0	1.30e-03	0	61	0	523239424	56	6137
2026-01-25 11:24:47.67	253.80	26.45	-42.8	-47.7	10.3	2.40e-03	0	61	0	525336576	56	6580
2026-01-25 11:24:48.68	254.11	26.49	-42.8	-47.6	10.4	5.55e-03	0	61	0	526385152	56	6499
2026-01-25 11:24:49.69	254.41	26.53	-42.7	-47.3	10.6	3.50e-03	0	61	0	528482304	56	6332
2026-01-25 11:24:50.70	254.71	26.57	-42.8	-47.5	10.5	3.11e-03	0	61	0	530579456	56	6484
2026-01-25 11:24:51.71	255.02	26.61	-42.7	-47.3	10.8	2.36e-03	0	61	0	532676608	56	6337
2026-01-25 11:24:52.72	255.32	26.65	-42.9	-47.9	10.1	5.25e-03	0	61	0	534773760	56	6769
2026-01-25 11:24:53.73	255.63	26.68	-43.1	-48.6	9.5	9.16e-03	0	61	0	536870912	56	7290
2026-01-25 11:24:54.74	255.94	26.72	-43.1	-48.6	9.4	1.72e-02	0	61	0	537919488	56	7289
2026-01-25 11:24:55.75	256.24	26.75	-43.0	-48.2	9.7	1.30e-02	0	61	0	540016640	57	6628
2026-01-25 11:24:56.76	256.55	26.79	-42.9	-47.9	10.0	8.53e-03	0	61	0	542113792	57	6366
2026-01-25 11:24:57.77	256.86	26.82	-42.9	-47.8	10.1	6.10e-03	0	61	0	544210944	57	6335
2026-01-25 11:24:58.78	257.17	26.85	-43.2	-48.6	9.3	1.39e-02	0	61	0	546308096	57	6953
2026-01-25 11:24:59.79	257.48	26.88	-43.2	-48.8	9.1	1.64e-02	0	61	0	547356672	57	7114
2026-01-25 11:25:00.80	257.79	26.91	-43.4	-49.5	8.5	3.05e-02	0	61	0	549453824	57	7658
2026-01-25 11:25:01.81	258.10	26.94	-43.3	-48.9	9.0	3.34e-02	0	61	0	551550976	57	7200
2026-01-25 11:25:02.82	258.42	26.97	-43.1	-48.4	9.5	1.77e-02	0	61	0	553648128	57	6761
2026-01-25 11:25:03.83	258.73	27.00	-42.8	-47.6	10.4	7.35e-03	0	61	0	555745280	57	6143
2026-01-25 11:25:04.84	259.04	27.03	-42.7	-47.4	10.6	3.58e-03	0	61	0	556793856	57	6002
2026-01-25 11:25:05.85	259.35	27.05	-42.7	-47.3	10.7	2.86e-03	0	61	0	558891008	57	5934
2026-01-25 11:25:06.86	259.67	27.08	-42.7	-47.4	10.6	3.36e-03	0	61	0	560988160	57	6011
2026-01-25 11:25:07.87	259.98	27.10	-42.7	-47.4	10.6	3.73e-03	0	61	0	563085312	57	6016
2026-01-25 11:25:08.88	260.30	27.12	-42.8	-47.6	10.4	4.18e-03	0	61	0	565182464	57	6148
2026-01-25 11:25:09.89	260.61	27.15	-42.9	-47.9	10.0	6.85e-03	0	61	0	566231040	57	6412
2026-01-25 11:25:10.90	260.93	27.17	-43.2	-48.5	9.4	9.02e-03	0	61	0	568328192	57	6864
2026-01-25 11:25:11.91	261.24	27.19	-43.3	-49.1	8.9	2.66e-02	0	61	0	570425344	57	7295
2026-01-25 11:25:12.92	261.56	27.21	-43.4	-49.2	8.8	2.84e-02	0	61	0	572522496	57	7377
2026-01-25 11:25:13.93	261.88	27.23	-43.3	-49.0	8.9	2.83e-02	0	61	0	574619648	57	7261
2026-01-25 11:25:14.94	262.19	27.25	-43.2	-48.7	9.3	2.39e-02	0	61	0	576716800	57	7021
2026-01-25 11:25:15.95	262.51	27.26	-43.1	-48.5	9.5	1.90e-02	0	61	0	577765376	57	6839
2026-01-25 11:25:16.96	262.83	27.28	-43.0	-48.0	9.9	8.85e-03	0	61	0	579862528	57	6477
2026-01-25 11:25:17.97	263.15	27.29	-42.8	-47.7	10.2	7.74e-03	0	61	0	581959680	57	6240
2026-01-25 11:25:18.98	263.47	27.31	-43.0	-48.1	9.9	5.66e-03	0	61	0	584056832	57	6512
2026-01-25 11:25:19.99	263.78	27.32	-43.0	-48.2	9.7	7.70e-03	0	61	0	586153984	57	6633
2026-01-25 11:25:21.00	264.10	27.33	-43.0	-48.2	9.8	1.23e-02	0	61	0	587202560	57	6599
2026-01-25 11:25:22.01	264.42	27.35	-43.1	-48.5	9.4	1.57e-02	0	61	0	589299712	57	6858
2026-01-25 11:25:23.02	264.74	27.36	-43.2	-48.5	9.4	1.53e-02	0	61	0	591396864	57	6878
2026-01-25 11:25:24.03	265.06	27.37	-43.1	-48.3	9.7	1.33e-02	0	61	0	593494016	57	6664
2026-01-25 11:25:25.04	265.38	27.38	-43.0	-48.2	9.7	8.26e-03	0	61	0	595591168	57	6623
2026-01-25 11:25:26.05	265.70	27.38	-42.8	-47.5	10.5	4.22e-03	0	61	0	596639744	57	6104
2026-01-25 11:25:27.06	266.02	27.39	-42.6	-47.1	10.9	3.13e-03	0	61	0	598736896	57	5852
2026-01-25 11:25:28.07	266.34	27.40	-42.6	-47.2	10.9	2.30e-03	0	61	0	600834048	57	5864
2026-01-25 11:25:29.08	266.66	27.40	-42.7	-47.3	10.7	2.41e-03	0	61	0	602931200	57	5983
2026-01-25 11:25:30.09	266.98	27.40	-42.7	-47.4	10.6	2.48e-03	0	61	0	605028352	57	6033
2026-01-25 11:25:31.10	267.30	27.41	-42.7	-47.3	10.8	3.78e-03	0	61	0	606076928	57	5935
2026-01-25 11:25:32.11	267.62	27.41	-42.6	-47.2	10.8	2.26e-03	0	61	0	608174080	57	5891
2026-01-25 11:25:33.12	267.94	27.41	-42.6	-47.1	10.9	1.91e-03	0	61	0	610271232	57	5842
2026-01-25 11:25:34.12	268.26	27.41	-42.7	-47.4	10.7	2.11e-03	0	61	0	612368384	57	5994
2026-01-25 11:25:35.13	268.58	27.41	-42.8	-47.7	10.3	3.92e-03	0	61	0	614465536	57	6226
2026-01-25 11:25:36.14	268.90	27.41	-42.9	-48.0	10.0	7.55e-03	0	61	0	615514112	57	6480
2026-01-25 11:25:37.16	269.22	27.41	-43.0	-48.3	9.7	1.09e-02	0	61	0	617611264	57	6659
2026-01-25 11:25:38.17	269.54	27.40	-43.1	-48.3	9.8	9.81e-03	0	61	0	619708416	57	6650
2026-01-25 11:25:39.18	269.86	27.40	-42.9	-48.0	10.0	9.25e-03	0	61	0	621805568	57	6433
2026-01-25 11:25:40.19	270.18	27.39	-43.0	-48.3	9.7	8.79e-03	0	61	0	623902720	57	6679
2026-01-25 11:25:41.20	270.50	27.39	-43.2	-48.6	9.4	1.51e-02	0	61	0	624951296	57	6910
2026-01-25 11:25:42.20	270.82	27.38	-43.2	-48.8	9.1	1.82e-02	0	61	0	627048448	57	7076
2026-01-25 11:25:43.21	271.14	27.37	-43.1	-48.4	9.5	1.57e-02	0	61	0	629145600	57	6742
2026-01-25 11:25:44.22	271.46	27.36	-42.9	-47.9	10.1	8.25e-03	0	61	0	631242752	57	6359
2026-01-25 11:25:45.23	271.78	27.35	-42.6	-47.2	10.8	3.47e-03	0	61	0	633339904	57	5883
2026-01-25 11:25:46.24	272.10	27.34	-42.5	-46.8	11.2	1.58e-03	0	61	0	634388480	56	5969
2026-01-25 11:25:47.25	272.42	27.33	-42.4	-46.5	11.5	8.33e-04	0	61	0	636485632	56	5786
2026-01-25 11:25:48.26	272.73	27.31	-42.2	-46.2	11.8	6.32e-04	0	61	0	638582784	56	5591
2026-01-25 11:25:49.27	273.05	27.30	-42.2	-46.2	11.8	4.33e-04	0	61	0	640679936	56	5542
2026-01-25 11:25:50.28	273.37	27.29	-42.0	-45.9	12.1	3.31e-04	0	61	0	642777088	56	5348
2026-01-25 11:25:51.29	273.69	27.27	-41.8	-45.6	12.3	1.83e-04	0	61	0	644874240	55	5527
2026-01-25 11:25:52.30	274.01	27.25	-42.0	-45.9	12.1	1.77e-04	0	61	0	645922816	55	5662
2026-01-25 11:25:53.31	274.32	27.24	-42.1	-46.1	11.8	3.95e-04	0	61	0	648019968	55	5838
2026-01-25 11:25:54.32	274.64	27.22	-42.4	-46.8	11.1	1.36e-03	0	61	0	650117120	55	6301
2026-01-25 11:25:55.33	274.96	27.20	-42.6	-47.4	10.4	2.77e-03	0	61	0	652214272	55	6773
2026-01-25 11:25:56.34	275.27	27.18	-42.7	-47.6	10.3	4.47e-03	0	61	0	653262848	55	6898
2026-01-25 11:25:57.35	275.59	27.16	-42.7	-47.4	10.4	4.51e-03	0	61	0	655360000	55	6777
2026-01-25 11:25:58.36	275.90	27.13	-42.6	-47.2	10.6	3.60e-03	0	61	0	657457152	55	6626
2026-01-25 11:25:59.36	276.21	27.11	-42.4	-46.8	11.0	2.42e-03	0	61	0	659554304	55	6326
2026-01-25 11:26:00.37	276.53	27.09	-42.3	-46.6	11.2	1.17e-03	0	61	0	661651456	55	6198
2026-01-25 11:26:01.38	276.84	27.06	-42.2	-46.4	11.5	8.11e-04	0	61	0	662700032	55	6041
2026-01-25 11:26:02.39	277.15	27.04	-42.1	-46.2	11.7	7.51e-04	0	61	0	664797184	55	5884
2026-01-25 11:26:03.40	277.47	27.01	-42.1	-46.3	11.6	6.45e-04	0	61	0	666894336	55	5928
2026-01-25 11:26:04.41	277.78	26.98	-42.0	-46.0	11.9	4.96e-04	0	61	0	668991488	55	5767
2026-01-25 11:26:05.42	278.09	26.96	-42.0	-45.9	11.9	4.10e-04	0	61	0	671088640	55	5722
2026-01-25 11:26:06.43	278.40	26.93	-41.9	-45.8	12.1	2.40e-04	0	61	0	673185792	55	5603
2026-01-25 11:26:07.44	278.71	26.90	-41.8	-45.6	12.3	1.85e-04	0	61	0	674234368	55	5513
2026-01-25 11:26:08.45	279.02	26.87	-41.8	-45.6	12.3	1.85e-04	0	61	0	676331520	55	5496
2026-01-25 11:26:09.46	279.33	26.83	-41.9	-45.8	12.1	2.05e-04	0	61	0	678428672	55	5637
2026-01-25 11:26:10.47	279.64	26.80	-41.9	-45.9	12.0	3.17e-04	0	61	0	680525824	55	5658
2026-01-25 11:26:11.48	279.95	26.77	-42.0	-46.0	11.8	4.22e-04	0	61	0	682622976	55	5763
2026-01-25 11:26:12.49	280.25	26.73	-41.9	-45.8	12.1	3.70e-04	0	61	0	683671552	55	5654
2026-01-25 11:26:13.50	280.56	26.70	-41.8	-45.5	12.4	2.27e-04	0	61	0	685768704	55	5436
2026-01-25 11:26:14.51	280.87	26.66	-41.6	-45.2	12.7	1.10e-04	0	61	0	687865856	55	5239
2026-01-25 11:26:15.51	281.17	26.63	-41.5	-45.0	13.0	6.17e-05	0	61	0	689963008	54	5450
2026-01-25 11:26:16.52	281.47	26.59	-41.3	-44.7	13.3	3.50e-05	0	61	0	692060160	54	5248
2026-01-25 11:26:17.53	281.78	26.55	-41.4	-44.9	13.1	4.11e-05	0	61	0	693108736	54	5358
2026-01-25 11:26:18.55	282.08	26.51	-41.7	-45.4	12.5	6.79e-05	0	61	0	695205888	54	5711
2026-01-25 11:26:19.56	282.39	26.47	-41.9	-45.9	12.0	1.69e-04	0	61	0	697303040	54	6020
2026-01-25 11:26:20.57	282.69	26.43	-42.1	-46.2	11.7	6.54e-04	0	61	0	699400192	54	6247
2026-01-25 11:26:21.58	282.99	26.39	-42.2	-46.4	11.5	9.19e-04	0	61	0	701497344	55	6026
2026-01-25 11:26:22.59	283.29	26.35	-42.1	-46.2	11.6	9.58e-04	0	61	0	702545920	55	5916
2026-01-25 11:26:23.60	283.59	26.31	-42.1	-46.1	11.8	6.42e-04	0	61	0	704643072	55	5821
2026-01-25 11:26:24.61	283.89	26.26	-41.9	-45.7	12.2	2.98e-04	0	61	0	706740224	55	5564
2026-01-25 11:26:25.62	284.18	26.22	-41.7	-45.3	12.6	1.71e-04	0	61	0	708837376	55	5329
2026-01-25 11:26:26.62	284.48	26.17	-41.4	-44.9	13.0	5.18e-05	0	61	0	710934528	54	5365
2026-01-25 11:26:27.63	284.77	26.13	-41.3	-44.6	13.4	2.44e-05	0	61	0	711983104	54	5175
2026-01-25 11:26:28.64	285.07	26.08	-41.0	-44.2	13.7	9.10e-06	0	61	0	714080256	54	4951
2026-01-25 11:26:29.66	285.36	26.03	-40.8	-43.7	14.2	0.00e+00	0	61	0	716177408	53	4969
2026-01-25 11:26:30.67	285.66	25.99	-40.4	-43.2	14.7	0.00e+00	0	61	0	718274560	52	4948
2026-01-25 11:26:31.67	285.95	25.94	-40.4	-43.1	14.8	0.00e+00	0	61	0	720371712	52	4907
2026-01-25 11:26:32.68	286.24	25.89	-40.5	-43.4	14.6	7.00e-07	0	61	0	721420288	52	5046
2026-01-25 11:26:33.69	286.53	25.84	-40.7	-43.7	14.2	1.50e-06	0	61	0	723517440	52	5232
2026-01-25 11:26:34.70	286.82	25.79	-41.0	-44.2	13.8	6.80e-06	0	61	0	725614592	52	5534
2026-01-25 11:26:35.71	287.11	25.74	-41.2	-44.5	13.4	8.30e-06	0	61	0	727711744	53	5439
2026-01-25 11:26:36.72	287.40	25.69	-41.1	-44.4	13.5	1.52e-05	0	61	0	729808896	53	5377
2026-01-25 11:26:37.73	287.68	25.63	-40.9	-43.9	14.0	6.80e-06	0	61	0	730857472	53	5086
2026-01-25 11:26:38.74	287.97	25.58	-40.6	-43.5	14.4	2.20e-06	0	61	0	732954624	53	4841
2026-01-25 11:26:39.75	288.25	25.53	-40.5	-43.2	14.7	7.00e-07	0	61	0	735051776	52	4981
2026-01-25 11:26:40.76	288.54	25.47	-40.4	-43.1	14.8	0.00e+00	0	61	0	737148928	52	4896
2026-01-25 11:26:41.77	288.82	25.42	-40.5	-43.4	14.4	0.00e+00	0	61	0	739246080	52	5049
2026-01-25 11:26:42.78	289.10	25.36	-40.5	-43.3	14.6	2.20e-06	0	61	0	741343232	52	5029
2026-01-25 11:26:43.79	289.39	25.30	-40.4	-43.2	14.7	7.00e-07	0	61	0	742391808	52	4962
2026-01-25 11:26:44.80	289.67	25.25	-40.3	-42.9	14.9	7.00e-07	0	61	0	744488960	52	4808
2026-01-25 11:26:45.81	289.94	25.19	-40.0	-42.5	15.4	0.00e+00	0	61	0	746586112	52	4571
2026-01-25 11:26:46.82	290.22	25.13	-39.8	-42.3	15.7	0.00e+00	0	61	0	748683264	51	4716
2026-01-25 11:26:47.83	290.50	25.07	-39.8	-42.1	15.8	0.00e+00	0	61	0	750780416	51	4650
2026-01-25 11:26:48.84	290.78	25.01	-39.9	-42.3	15.7	0.00e+00	0	61	0	751828992	51	4748
2026-01-25 11:26:49.85	291.05	24.96	-40.1	-42.6	15.4	0.00e+00	0	61	0	753926144	51	4896
2026-01-25 11:26:50.85	291.32	24.90	-40.4	-43.1	14.8	0.00e+00	0	61	0	756023296	51	5212
2026-01-25 11:26:51.86	291.60	24.83	-40.6	-43.5	14.5	0.00e+00	0	61	0	758120448	51	5431
2026-01-25 11:26:52.87	291.87	24.77	-40.6	-43.5	14.3	7.00e-07	0	61	0	760217600	52	5106
2026-01-25 11:26:53.88	292.14	24.71	-40.5	-43.3	14.6	1.50e-06	0	61	0	761266176	52	5031
2026-01-25 11:26:54.89	292.41	24.65	-40.4	-43.2	14.7	0.00e+00	0	61	0	763363328	52	4927
2026-01-25 11:26:55.90	292.68	24.59	-40.2	-42.8	15.0	7.00e-07	0	62	0	765460480	52	4758
2026-01-25 11:26:56.91	292.94	24.52	-40.2	-42.9	15.0	0.00e+00	0	61	0	767557632	52	4802
2026-01-25 11:26:57.92	293.21	24.46	-40.2	-42.9	15.0	0.00e+00	0	61	0	769654784	52	4779
2026-01-25 11:26:58.93	293.48	24.40	-40.2	-42.8	15.1	0.00e+00	0	61	0	770703360	52	4726
2026-01-25 11:26:59.94	293.74	24.33	-40.1	-42.7	15.1	0.00e+00	0	61	0	772800512	52	4695
2026-01-25 11:27:00.95	294.01	24.27	-40.1	-42.7	15.2	0.00e+00	0	62	0	774897664	52	4653
2026-01-25 11:27:01.96	294.27	24.20	-40.1	-42.7	15.2	0.00e+00	0	61	0	776994816	52	4660
2026-01-25 11:27:02.97	294.53	24.13	-40.1	-42.8	15.1	7.00e-07	0	61	0	779091968	52	4708
2026-01-25 11:27:03.98	294.79	24.07	-40.3	-43.1	14.8	0.00e+00	0	61	0	780140544	52	4887
2026-01-25 11:27:04.99	295.05	24.00	-40.2	-42.9	14.9	0.00e+00	0	61	0	782237696	52	4793
2026-01-25 11:27:06.00	295.31	23.93	-40.2	-42.8	15.1	0.00e+00	0	61	0	784334848	52	4744
2026-01-25 11:27:07.01	295.56	23.87	-40.1	-42.7	15.2	0.00e+00	0	61	0	786432000	52	4670
2026-01-25 11:27:08.02	295.82	23.80	-40.2	-42.8	15.1	0.00e+00	0	61	0	788529152	52	4755
2026-01-25 11:27:09.02	296.07	23.73	-40.2	-42.9	15.0	0.00e+00	0	61	0	789577728	52	4797
2026-01-25 11:27:10.03	296.33	23.66	-40.4	-43.3	14.6	7.00e-07	0	61	0	791674880	52	4985
2026-01-25 11:27:11.04	296.58	23.59	-40.6	-43.5	14.4	7.00e-07	0	61	0	793772032	52	5110
2026-01-25 11:27:12.05	296.83	23.52	-40.7	-43.8	14.1	3.00e-06	0	62	0	795869184	52	5293
2026-01-25 11:27:13.06	297.08	23.45	-40.6	-43.6	14.3	1.50e-06	0	61	0	797966336	52	5171
2026-01-25 11:27:14.07	297.33	23.38	-40.7	-43.7	14.2	7.00e-07	0	61	0	799014912	52	5243
2026-01-25 11:27:15.08	297.58	23.31	-40.5	-43.4	14.5	0.00e+00	0	62	0	801112064	52	5043
2026-01-25 11:27:16.09	297.82	23.24	-40.4	-43.2	14.7	0.00e+00	0	61	0	803209216	52	4932
2026-01-25 11:27:17.10	298.07	23.17	-40.5	-43.3	14.6	7.00e-07	0	61	0	805306368	52	5023
2026-01-25 11:27:18.11	298.31	23.10	-40.5	-43.3	14.5	7.00e-07	0	61	0	807403520	52	5037
2026-01-25 11:27:19.12	298.56	23.02	-40.7	-43.7	14.2	7.00e-07	0	61	0	809500672	52	5241
2026-01-25 11:27:20.13	298.80	22.95	-41.0	-44.2	13.7	6.10e-06	0	61	0	810549248	52	5545
2026-01-25 11:27:21.14	299.04	22.88	-41.3	-44.8	13.1	1.29e-05	0	61	0	812646400	53	5601
2026-01-25 11:27:22.15	299.28	22.81	-41.4	-44.9	12.9	4.57e-05	0	61	0	814743552	53	5662
2026-01-25 11:27:23.16	299.52	22.73	-41.2	-44.6	13.2	2.21e-05	0	61	0	816840704	53	5508
2026-01-25 11:27:24.17	299.76	22.66	-41.1	-44.4	13.4	2.05e-05	0	61	0	818937856	53	5354
2026-01-25 11:27:25.18	300.00	22.58	-40.9	-44.1	13.7	6.10e-06	0	62	0	819986432	53	5186
2026-01-25 11:27:26.18	300.23	22.51	-40.9	-44.0	13.9	6.10e-06	0	61	0	822083584	53	5104
2026-01-25 11:27:27.19	300.47	22.44	-40.9	-44.0	13.8	4.50e-06	0	61	0	824180736	53	5120
2026-01-25 11:27:28.20	300.70	22.36	-41.0	-44.3	13.6	8.30e-06	0	61	0	826277888	53	5284
2026-01-25 11:27:29.21	300.93	22.29	-41.1	-44.5	13.3	1.29e-05	0	61	0	828375040	53	5423
2026-01-25 11:27:30.22	301.16	22.21	-41.1	-44.4	13.4	1.83e-05	0	61	0	829423616	53	5364
2026-01-25 11:27:31.23	301.39	22.14	-41.0	-44.2	13.6	9.10e-06	0	61	0	831520768	53	5219
2026-01-25 11:27:32.25	301.63	22.06	-40.9	-44.0	13.8	5.30e-06	0	61	0	833617920	53	5111
2026-01-25 11:27:33.26	301.85	21.98	-40.7	-43.7	14.1	7.00e-07	0	61	0	835715072	53	4940
2026-01-25 11:27:34.26	302.08	21.91	-40.5	-43.3	14.5	2.20e-06	0	61	0	837812224	53	4753
2026-01-25 11:27:35.27	302.31	21.83	-40.4	-43.2	14.6	0.00e+00	0	61	0	838860800	52	4978
2026-01-25 11:27:36.28	302.53	21.75	-40.6	-43.4	14.4	0.00e+00	0	61	0	840957952	52	5087
2026-01-25 11:27:37.29	302.75	21.68	-40.7	-43.7	14.1	0.00e+00	0	61	0	843055104	52	5258
2026-01-25 11:27:38.30	302.98	21.60	-40.9	-44.0	13.8	2.20e-06	0	61	0	845152256	52	5436
2026-01-25 11:27:39.31	303.20	21.52	-41.1	-44.5	13.4	6.80e-06	0	61	0	847249408	52	5734
2026-01-25 11:27:40.32	303.42	21.45	-41.0	-44.3	13.5	8.30e-06	0	61	0	848297984	52	5617
2026-01-25 11:27:41.33	303.64	21.37	-41.2	-44.5	13.3	1.06e-05	0	61	0	850395136	52	5742
2026-01-25 11:27:42.34	303.86	21.29	-41.1	-44.4	13.4	2.74e-05	0	61	0	852492288	53	5361
2026-01-25 11:27:43.35	304.07	21.21	-41.1	-44.4	13.4	2.36e-05	0	62	0	854589440	53	5371
2026-01-25 11:27:44.35	304.29	21.14	-41.3	-44.9	12.9	4.11e-05	0	61	0	856686592	53	5660
2026-01-25 11:27:45.36	304.50	21.06	-41.3	-44.8	12.9	3.28e-05	0	61	0	857735168	53	5644
2026-01-25 11:27:46.37	304.72	20.98	-41.3	-44.8	13.1	3.43e-05	0	61	0	859832320	53	5594
2026-01-25 11:27:47.38	304.93	20.90	-41.2	-44.6	13.1	2.67e-05	0	61	0	861929472	53	5505
2026-01-25 11:27:48.39	305.14	20.82	-41.0	-44.3	13.5	9.90e-06	0	61	0	864026624	53	5321
2026-01-25 11:27:49.40	305.35	20.74	-40.9	-44.0	13.7	5.30e-06	0	61	0	866123776	53	5159
2026-01-25 11:27:50.41	305.56	20.66	-40.9	-44.1	13.7	1.14e-05	0	61	0	867172352	53	5171
2026-01-25 11:27:51.42	305.77	20.58	-41.0	-44.3	13.5	1.06e-05	0	61	0	869269504	53	5298
2026-01-25 11:27:52.43	305.98	20.51	-41.2	-44.5	13.2	1.06e-05	0	61	0	871366656	53	5445
2026-01-25 11:27:53.44	306.19	20.43	-41.4	-45.1	12.7	3.20e-05	0	61	0	873463808	53	5789
2026-01-25 11:27:54.45	306.39	20.35	-41.7	-45.5	12.3	2.17e-04	0	61	0	875560960	53	6095
2026-01-25 11:27:55.46	306.60	20.27	-41.7	-45.6	12.2	2.31e-04	0	61	0	877658112	53	6132
2026-01-25 11:27:56.47	306.80	20.19	-41.8	-45.8	11.9	3.54e-04	0	61	0	878706688	54	5931
2026-01-25 11:27:57.48	307.00	20.11	-41.5	-45.2	12.6	1.50e-04	0	61	0	880803840	54	5547
2026-01-25 11:27:58.49	307.21	20.03	-41.3	-44.8	12.9	4.34e-05	0	61	0	882900992	54	5285
2026-01-25 11:27:59.50	307.41	19.95	-40.9	-44.1	13.6	1.60e-05	0	62	0	884998144	53	5193
2026-01-25 11:28:00.51	307.61	19.87	-40.6	-43.6	14.2	7.00e-07	0	62	0	887095296	53	4890
2026-01-25 11:28:01.51	307.80	19.79	-40.7	-43.7	14.1	7.00e-07	0	61	0	888143872	53	4970
2026-01-25 11:28:02.52	308.00	19.71	-40.8	-43.9	13.9	7.00e-07	0	61	0	890241024	53	5072
2026-01-25 11:28:03.53	308.20	19.63	-41.1	-44.5	13.3	6.10e-06	0	61	0	892338176	53	5424
2026-01-25 11:28:04.54	308.39	19.55	-41.3	-44.9	12.9	2.89e-05	0	61	0	894435328	53	5660
2026-01-25 11:28:05.55	308.59	19.47	-41.6	-45.4	12.3	8.54e-05	0	61	0	896532480	53	6047
2026-01-25 11:28:06.56	308.78	19.39	-41.6	-45.4	12.3	2.17e-04	0	62	0	897581056	53	6054
2026-01-25 11:28:07.57	308.97	19.31	-41.5	-45.2	12.4	1.69e-04	0	61	0	899678208	53	5920
2026-01-25 11:28:08.58	309.16	19.23	-41.6	-45.3	12.3	1.28e-04	0	62	0	901775360	53	5976
2026-01-25 11:28:09.59	309.35	19.15	-41.3	-44.7	13.0	7.47e-05	0	61	0	903872512	53	5588
2026-01-25 11:28:10.60	309.54	19.07	-41.3	-44.9	12.9	3.73e-05	0	61	0	905969664	53	5674
2026-01-25 11:28:11.61	309.73	18.98	-41.3	-44.8	12.8	4.80e-05	0	61	0	907018240	53	5653
2026-01-25 11:28:12.62	309.92	18.90	-41.2	-44.7	13.1	6.25e-05	0	61	0	909115392	53	5530
2026-01-25 11:28:13.63	310.11	18.82	-41.5	-45.1	12.5	6.94e-05	0	61	0	911212544	53	5847
2026-01-25 11:28:14.64	310.29	18.74	-41.4	-44.9	12.8	9.07e-05	0	62	0	913309696	53	5710
2026-01-25 11:28:15.65	310.48	18.66	-41.3	-44.7	12.9	7.17e-05	0	61	0	915406848	53	5592
2026-01-25 11:28:16.66	310.66	18.58	-41.1	-44.4	13.3	3.43e-05	0	61	0	916455424	53	5397
2026-01-25 11:28:17.67	310.84	18.50	-40.8	-44.0	13.7	1.14e-05	0	61	0	918552576	53	5124
2026-01-25 11:28:18.68	311.03	18.42	-40.9	-44.1	13.6	9.90e-06	0	61	0	920649728	53	5180
2026-01-25 11:28:19.68	311.20	18.34	-40.9	-44.1	13.7	1.22e-05	0	61	0	922746880	53	5163
2026-01-25 11:28:20.69	311.38	18.26	-41.0	-44.2	13.5	1.44e-05	0	61	0	924844032	53	5265
2026-01-25 11:28:21.70	311.56	18.18	-41.0	-44.3	13.3	1.06e-05	0	61	0	925892608	53	5340
2026-01-25 11:28:22.71	311.74	18.10	-41.1	-44.6	13.1	2.59e-05	0	61	0	927989760	53	5468
2026-01-25 11:28:23.72	311.92	18.02	-41.3	-44.8	12.9	4.19e-05	0	62	0	930086912	53	5604
2026-01-25 11:28:24.73	312.10	17.94	-41.4	-45.0	12.6	6.71e-05	0	61	0	932184064	53	5757
2026-01-25 11:28:25.74	312.27	17.85	-41.3	-44.9	12.8	5.87e-05	0	61	0	934281216	53	5657
2026-01-25 11:28:26.75	312.44	17.77	-41.0	-44.2	13.4	1.98e-05	0	61	0	935329792	53	5272
2026-01-25 11:28:27.76	312.62	17.69	-40.8	-44.0	13.6	8.30e-06	0	61	0	937426944	53	5134
2026-01-25 11:28:28.77	312.79	17.61	-40.6	-43.6	14.0	3.80e-06	0	61	0	939524096	53	4925
2026-01-25 11:28:29.77	312.96	17.53	-40.6	-43.6	14.1	1.50e-06	0	61	0	941621248	53	4901
2026-01-25 11:28:30.78	313.13	17.45	-40.7	-43.8	13.9	3.00e-06	0	61	0	943718400	53	4996
2026-01-25 11:28:31.79	313.30	17.37	-40.9	-44.0	13.7	5.30e-06	0	61	0	945815552	53	5150
2026-01-25 11:28:32.80	313.47	17.29	-41.0	-44.4	13.3	9.90e-06	0	61	0	946864128	53	5361
2026-01-25 11:28:33.81	313.64	17.21	-41.3	-44.8	12.9	5.41e-05	0	61	0	948961280	53	5616
2026-01-25 11:28:34.82	313.81	17.13	-41.4	-45.0	12.6	8.23e-05	0	61	0	951058432	53	5773
2026-01-25 11:28:35.83	313.97	17.05	-41.5	-45.2	12.4	1.17e-04	0	61	0	953155584	53	5891
2026-01-25 11:28:36.84	314.14	16.97	-41.5	-45.2	12.4	1.20e-04	0	61	0	954204160	53	5906
2026-01-25 11:28:37.85	314.30	16.89	-41.2	-44.7	12.9	6.56e-05	0	61	0	956301312	53	5588
2026-01-25 11:28:38.86	314.47	16.81	-41.1	-44.4	13.2	3.35e-05	0	62	0	958398464	53	5383
2026-01-25 11:28:39.87	314.63	16.73	-41.0	-44.2	13.4	1.44e-05	0	61	0	960495616	53	5266
2026-01-25 11:28:40.88	314.79	16.65	-40.9	-44.1	13.5	1.29e-05	0	61	0	962592768	53	5192
2026-01-25 11:28:41.89	314.95	16.57	-41.1	-44.4	13.2	2.28e-05	0	61	0	963641344	53	5388
2026-01-25 11:28:42.90	315.11	16.49	-40.9	-44.2	13.4	1.67e-05	0	62	0	965738496	53	5250
2026-01-25 11:28:43.91	315.27	16.41	-41.0	-44.4	13.2	1.67e-05	0	62	0	967835648	53	5360
2026-01-25 11:28:44.91	315.43	16.33	-41.1	-44.4	13.2	2.13e-05	0	62	0	969932800	53	5393
2026-01-25 11:28:45.92	315.59	16.25	-41.1	-44.6	13.0	2.51e-05	0	61	0	972029952	53	5465
2026-01-25 11:28:46.93	315.75	16.17	-41.0	-44.4	13.2	2.89e-05	0	61	0	974127104	53	5390
2026-01-25 11:28:47.94	315.90	16.09	-41.0	-44.3	13.3	1.37e-05	0	61	0	975175680	53	5290
2026-01-25 11:28:48.95	316.06	16.01	-40.8	-43.9	13.7	1.22e-05	0	61	0	977272832	53	5084
2026-01-25 11:28:49.96	316.21	15.93	-40.7	-43.8	13.8	1.50e-06	0	62	0	979369984	53	5026
2026-01-25 11:28:50.97	316.37	15.85	-40.7	-43.8	13.7	7.60e-06	0	62	0	981467136	53	5040
2026-01-25 11:28:51.98	316.52	15.77	-40.9	-44.1	13.5	6.80e-06	0	61	0	983564288	53	5192
2026-01-25 11:28:52.99	316.67	15.69	-41.1	-44.5	13.1	2.82e-05	0	61	0	984612864	53	5431
2026-01-25 11:28:54.00	316.82	15.61	-41.3	-44.9	12.6	4.11e-05	0	61	0	986710016	53	5694
2026-01-25 11:28:55.01	316.98	15.53	-41.5	-45.3	12.2	1.59e-04	0	61	0	988807168	53	5982
2026-01-25 11:28:56.02	317.13	15.45	-41.8	-46.1	11.5	4.81e-04	0	62	0	990904320	54	6133
2026-01-25 11:28:57.03	317.27	15.37	-42.0	-46.4	11.1	8.65e-04	0	61	0	993001472	54	6349
2026-01-25 11:28:58.04	317.42	15.29	-42.0	-46.4	11.1	1.76e-03	0	61	0	994050048	54	6374
2026-01-25 11:28:59.05	317.57	15.21	-41.9	-46.3	11.2	2.02e-03	0	61	0	996147200	54	6321
2026-01-25 11:29:00.06	317.72	15.14	-41.9	-46.3	11.2	1.71e-03	0	61	0	998244352	54	6288
2026-01-25 11:29:01.07	317.86	15.06	-41.9	-46.1	11.4	1.54e-03	0	62	0	1000341504	54	6194
2026-01-25 11:29:02.08	318.01	14.98	-41.8	-46.1	11.4	9.37e-04	0	62	0	1002438656	54	6132
2026-01-25 11:29:03.09	318.15	14.90	-41.7	-45.7	11.8	6.06e-04	0	61	0	1003487232	54	5897
2026-01-25 11:29:04.10	318.30	14.82	-41.7	-45.7	11.8	4.84e-04	0	61	0	1005584384	54	5864
2026-01-25 11:29:05.11	318.44	14.74	-41.6	-45.5	12.0	3.68e-04	0	62	0	1007681536	54	5731
2026-01-25 11:29:06.12	318.58	14.66	-41.4	-45.1	12.4	1.56e-04	0	62	0	1009778688	54	5514
2026-01-25 11:29:07.13	318.73	14.58	-41.2	-44.8	12.8	8.54e-05	0	61	0	1011875840	54	5302
2026-01-25 11:29:08.13	318.87	14.51	-41.2	-44.7	12.9	6.71e-05	0	62	0	1012924416	54	5237
2026-01-25 11:29:09.14	319.01	14.43	-41.0	-44.5	13.0	4.27e-05	0	62	0	1015021568	54	5106
2026-01-25 11:29:10.15	319.15	14.35	-40.9	-44.3	13.2	3.50e-05	0	61	0	1017118720	53	5299
2026-01-25 11:29:11.16	319.29	14.27	-40.8	-44.1	13.4	1.37e-05	0	61	0	1019215872	53	5171
2026-01-25 11:29:12.17	319.42	14.20	-40.8	-44.0	13.6	8.30e-06	0	61	0	1021313024	53	5107
2026-01-25 11:29:13.18	319.56	14.12	-40.7	-43.9	13.6	1.06e-05	0	61	0	1022361600	53	5070
2026-01-25 11:29:14.19	319.70	14.04	-40.7	-43.9	13.6	7.60e-06	0	61	0	1024458752	53	5086
2026-01-25 11:29:15.20	319.83	13.96	-40.7	-43.9	13.6	6.80e-06	0	61	0	1026555904	53	5080
2026-01-25 11:29:16.21	319.97	13.89	-40.8	-44.1	13.4	1.52e-05	0	61	0	1028653056	53	5170
2026-01-25 11:29:17.22	320.10	13.81	-40.9	-44.3	13.2	1.67e-05	0	61	0	1030750208	53	5290
2026-01-25 11:29:18.23	320.24	13.73	-41.0	-44.5	13.0	3.05e-05	0	61	0	1031798784	53	5448
2026-01-25 11:29:19.24	320.37	13.65	-41.2	-44.8	12.6	9.15e-05	0	61	0	1033895936	53	5649
2026-01-25 11:29:20.25	320.51	13.58	-41.4	-45.3	12.2	1.43e-04	0	62	0	1035993088	53	5941
2026-01-25 11:29:21.26	320.64	13.50	-41.5	-45.5	11.9	2.09e-04	0	61	0	1038090240	53	6075
2026-01-25 11:29:22.27	320.77	13.42	-41.6	-45.7	11.8	4.58e-04	0	61	0	1040187392	53	6232
2026-01-25 11:29:23.28	320.90	13.35	-41.7	-45.8	11.6	5.74e-04	0	61	0	1042284544	53	6342
2026-01-25 11:29:24.29	321.03	13.27	-41.8	-46.0	11.5	8.06e-04	0	61	0	1043333120	54	6090
2026-01-25 11:29:25.30	321.16	13.19	-41.8	-46.0	11.4	8.94e-04	0	61	0	1045430272	54	6104
2026-01-25 11:29:26.31	321.29	13.12	-41.7	-45.9	11.5	8.37e-04	0	61	0	1047527424	54	6024
2026-01-25 11:29:27.32	321.42	13.04	-41.7	-46.0	11.4	9.36e-04	0	61	0	1049624576	54	6093
2026-01-25 11:29:28.33	321.54	12.96	-41.6	-45.8	11.6	7.99e-04	0	61	0	1051721728	54	5929
2026-01-25 11:29:29.34	321.67	12.89	-41.5	-45.5	11.9	4.29e-04	0	61	0	1052770304	54	5742
2026-01-25 11:29:30.35	321.80	12.81	-41.5	-45.4	12.0	3.46e-04	0	62	0	1054867456	54	5698
2026-01-25 11:29:31.36	321.92	12.74	-41.3	-45.1	12.3	2.40e-04	0	61	0	1056964608	54	5487
2026-01-25 11:29:32.37	322.05	12.66	-41.3	-45.1	12.3	2.04e-04	0	61	0	1059061760	54	5512
2026-01-25 11:29:33.38	322.17	12.59	-41.4	-45.2	12.2	2.26e-04	0	61	0	1061158912	54	5551
2026-01-25 11:29:34.39	322.30	12.51	-41.3	-45.1	12.3	2.56e-04	0	61	0	1062207488	54	5478
2026-01-25 11:29:35.40	322.42	12.43	-41.4	-45.2	12.2	2.51e-04	0	61	0	1064304640	54	5589
2026-01-25 11:29:36.41	322.54	12.36	-41.4	-45.3	12.1	2.91e-04	0	61	0	1066401792	54	5598
2026-01-25 11:29:37.42	322.66	12.28	-41.4	-45.4	12.0	2.92e-04	0	62	0	1068498944	54	5692
2026-01-25 11:29:38.42	322.78	12.21	-41.5	-45.5	11.9	3.95e-04	0	61	0	1070596096	54	5764
2026-01-25 11:29:39.43	322.91	12.14	-41.4	-45.3	12.1	2.89e-04	0	61	0	1071644672	54	5611
2026-01-25 11:29:40.44	323.03	12.06	-41.5	-45.5	11.8	3.40e-04	0	62	0	1073741824	54	5783
2026-01-25 11:29:41.45	323.15	11.99	-41.4	-45.4	12.0	3.65e-04	0	61	0	1075838976	54	5676
2026-01-25 11:29:42.46	323.26	11.91	-41.4	-45.4	12.0	2.55e-04	0	62	0	1077936128	54	5660
2026-01-25 11:29:43.47	323.38	11.84	-41.5	-45.5	11.9	3.23e-04	0	62	0	1080033280	54	5723
2026-01-25 11:29:44.48	323.50	11.76	-41.4	-45.3	12.1	3.66e-04	0	61	0	1081081856	54	5634
2026-01-25 11:29:45.49	323.62	11.69	-41.4	-45.3	12.1	2.96e-04	0	61	0	1083179008	54	5603
2026-01-25 11:29:46.50	323.74	11.61	-41.4	-45.4	12.0	3.43e-04	0	62	0	1085276160	54	5658
2026-01-25 11:29:47.51	323.85	11.54	-41.4	-45.2	12.1	3.44e-04	0	61	0	1087373312	54	5590
2026-01-25 11:29:48.52	323.97	11.47	-41.5	-45.5	11.8	4.76e-04	0	62	0	1089470464	54	5757
2026-01-25 11:29:49.53	324.08	11.39	-41.5	-45.5	11.7	5.56e-04	0	61	0	1090519040	54	5772
2026-01-25 11:29:50.54	324.20	11.32	-41.6	-45.8	11.5	5.95e-04	0	61	0	1092616192	54	5943
2026-01-25 11:29:51.55	324.31	11.25	-41.7	-46.0	11.2	1.25e-03	0	61	0	1094713344	54	6111
2026-01-25 11:29:52.56	324.42	11.17	-41.7	-46.1	11.2	1.16e-03	0	62	0	1096810496	54	6158
2026-01-25 11:29:53.57	324.54	11.10	-41.8	-46.3	11.0	1.54e-03	0	61	0	1098907648	54	6294
2026-01-25 11:29:54.58	324.65	11.03	-41.9	-46.5	10.7	2.81e-03	0	61	0	1099956224	54	6433
2026-01-25 11:29:55.58	324.76	10.96	-42.0	-46.7	10.6	3.06e-03	0	61	0	1102053376	54	6587
2026-01-25 11:29:56.59	324.87	10.88	-42.1	-46.9	10.3	4.44e-03	0	61	0	1104150528	54	6761
2026-01-25 11:29:57.60	324.98	10.81	-42.1	-47.1	10.2	5.67e-03	0	61	0	1106247680	54	6883
2026-01-25 11:29:58.61	325.09	10.74	-42.2	-47.4	9.8	8.03e-03	0	62	0	1108344832	55	6729
2026-01-25 11:29:59.62	325.20	10.66	-42.2	-47.3	9.8	1.03e-02	0	61	0	1110441984	55	6710
2026-01-25 11:30:00.63	325.31	10.59	-42.2	-47.3	9.9	8.76e-03	0	62	0	1111490560	55	6660
2026-01-25 11:30:01.64	325.42	10.52	-42.2	-47.5	9.6	9.73e-03	0	61	0	1113587712	55	6826
2026-01-25 11:30:02.65	325.53	10.45	-42.2	-47.3	9.8	1.00e-02	0	62	0	1115684864	55	6699
2026-01-25 11:30:03.66	325.64	10.38	-42.1	-47.2	10.0	7.72e-03	0	61	0	1117782016	55	6589
2026-01-25 11:30:04.67	325.74	10.30	-42.1	-47.2	10.0	9.21e-03	0	62	0	1119879168	55	6581
2026-01-25 11:30:05.68	325.85	10.23	-41.9	-46.7	10.4	6.67e-03	0	62	0	1120927744	55	6258
2026-01-25 11:30:06.69	325.96	10.16	-41.9	-46.7	10.4	5.47e-03	0	61	0	1123024896	55	6231
2026-01-25 11:30:07.70	326.06	10.09	-41.9	-46.6	10.5	4.82e-03	0	62	0	1125122048	55	6175
2026-01-25 11:30:08.72	326.17	10.02	-41.8	-46.4	10.7	3.03e-03	0	62	0	1127219200	55	6041
2026-01-25 11:30:09.73	326.27	9.95	-41.8	-46.4	10.7	3.77e-03	0	62	0	1129316352	55	6045
2026-01-25 11:30:10.74	326.38	9.88	-41.8	-46.5	10.7	3.00e-03	0	61	0	1130364928	55	6067
2026-01-25 11:30:11.75	326.48	9.81	-41.8	-46.3	10.8	2.66e-03	0	61	0	1132462080	55	5983
2026-01-25 11:30:12.76	326.58	9.73	-41.8	-46.4	10.7	2.88e-03	0	61	0	1134559232	55	6055
2026-01-25 11:30:13.77	326.69	9.66	-41.7	-46.2	10.9	2.72e-03	0	62	0	1136656384	55	5893
2026-01-25 11:30:14.78	326.79	9.59	-41.7	-46.1	11.0	1.94e-03	0	62	0	1138753536	55	5839
2026-01-25 11:30:15.79	326.89	9.52	-41.6	-46.0	11.1	1.64e-03	0	62	0	1139802112	55	5759
2026-01-25 11:30:16.80	326.99	9.45	-41.5	-45.9	11.2	1.22e-03	0	62	0	1141899264	55	5668
2026-01-25 11:30:17.81	327.09	9.38	-41.6	-45.9	11.2	1.53e-03	0	61	0	1143996416	55	5713
2026-01-25 11:30:18.82	327.19	9.31	-41.5	-45.9	11.2	1.41e-03	0	62	0	1146093568	55	5667
2026-01-25 11:30:19.83	327.29	9.24	-41.5	-45.8	11.3	1.22e-03	0	62	0	1148190720	54	5956
2026-01-25 11:30:20.84	327.39	9.17	-41.5	-45.7	11.4	1.14e-03	0	62	0	1149239296	54	5887
2026-01-25 11:30:21.85	327.49	9.10	-41.4	-45.5	11.6	8.17e-04	0	62	0	1151336448	54	5779
2026-01-25 11:30:22.86	327.59	9.03	-41.4	-45.6	11.5	7.34e-04	0	62	0	1153433600	54	5823
2026-01-25 11:30:23.87	327.69	8.96	-41.4	-45.6	11.5	7.26e-04	0	61	0	1155530752	54	5817
2026-01-25 11:30:24.88	327.79	8.89	-41.4	-45.7	11.4	8.17e-04	0	61	0	1157627904	54	5884
2026-01-25 11:30:25.88	327.88	8.83	-41.5	-45.8	11.3	1.11e-03	0	62	0	1158676480	54	5954
2026-01-25 11:30:26.89	327.98	8.76	-41.5	-45.9	11.2	1.56e-03	0	61	0	1160773632	54	5998
2026-01-25 11:30:27.90	328.08	8.69	-41.6	-46.1	11.0	1.82e-03	0	62	0	1162870784	54	6164
2026-01-25 11:30:28.91	328.17	8.62	-41.7	-46.3	10.7	2.92e-03	0	62	0	1164967936	54	6282
2026-01-25 11:30:29.92	328.27	8.55	-41.8	-46.5	10.5	3.30e-03	0	62	0	1167065088	54	6461
2026-01-25 11:30:30.93	328.36	8.48	-41.9	-46.9	10.0	5.66e-03	0	62	0	1168113664	54	6772
2026-01-25 11:30:31.94	328.46	8.41	-42.0	-47.1	9.9	8.81e-03	0	62	0	1170210816	54	6909
2026-01-25 11:30:32.96	328.55	8.35	-42.0	-47.3	9.6	7.81e-03	0	62	0	1172307968	54	7053
2026-01-25 11:30:33.96	328.65	8.28	-42.1	-47.4	9.5	1.40e-02	0	61	0	1174405120	54	7160
