passes_logs/2026/01/25/R2.0S_Moscow/R2.0S_Moscow__20260125_225834_NOAA_21_JPSS-2_rec.log

#Pass ID: 20260125_225834_NOAA 21 (JPSS-2)
#Satellite: NOAA 21 (JPSS-2)
#Configuration: NOAA-21
#almurnet v.1.7.20251203
#Start time: 2026-01-25 22:58:34

#Version: 2.2.20231116
#Station: R2.0S_Moscow
#Location: 37.707566 lon 55.798166 lat
#TLE: 1 54234U 22150A   26025.44451686  .00000186  00000+0  10896-3 0  9992
#TLE: 2 54234  98.7509 326.2184 0000763 215.1852 144.9274 14.19539183166293

#Time	Az	El	Level	Level2	SNR	BER	BlckErr	Temp	State	Recorded	gain1	gain2
2026-01-25 22:58:34.58	19.62	1.99	-42.0	-54.3	3.8	1.49e+00	0	52	0	0	56	14185
2026-01-25 22:58:35.59	19.65	2.05	-41.8	-54.1	3.8	1.49e+00	0	52	104	0	55	14705
2026-01-25 22:58:36.60	19.69	2.11	-41.8	-54.1	3.8	1.49e+00	0	52	104	0	55	14699
2026-01-25 22:58:37.61	19.72	2.18	-41.8	-54.2	3.8	1.49e+00	0	52	104	0	55	14709
2026-01-25 22:58:38.62	19.76	2.24	-41.8	-54.1	3.8	1.49e+00	0	52	104	0	55	14708
2026-01-25 22:58:39.63	19.79	2.30	-41.8	-54.2	3.8	1.49e+00	0	52	104	0	55	14726
2026-01-25 22:58:40.64	19.83	2.37	-41.8	-54.1	3.8	1.49e+00	0	53	104	0	55	14679
2026-01-25 22:58:41.65	19.87	2.43	-41.8	-54.1	3.8	1.49e+00	0	52	104	0	55	14698
2026-01-25 22:58:42.66	19.90	2.49	-41.8	-54.1	3.8	1.49e+00	0	53	104	0	55	14706
2026-01-25 22:58:43.67	19.94	2.55	-41.8	-54.1	3.8	1.49e+00	0	53	104	0	55	14697
2026-01-25 22:58:44.68	19.97	2.62	-41.8	-54.2	3.8	1.49e+00	0	53	104	0	55	14711
2026-01-25 22:58:45.69	20.01	2.68	-41.8	-54.1	3.8	1.49e+00	0	53	104	0	55	14688
2026-01-25 22:58:46.70	20.05	2.75	-41.8	-54.1	3.8	1.49e+00	0	53	104	0	55	14690
2026-01-25 22:58:47.72	20.08	2.81	-41.8	-54.1	3.8	1.49e+00	0	53	104	0	55	14681
2026-01-25 22:58:48.73	20.12	2.87	-41.8	-54.1	3.8	1.49e+00	0	53	104	0	55	14657
2026-01-25 22:58:49.74	20.16	2.94	-41.8	-54.1	3.8	1.49e+00	0	53	104	0	55	14685
2026-01-25 22:58:50.75	20.20	3.00	-41.8	-54.1	3.8	1.49e+00	0	53	104	0	55	14688
2026-01-25 22:58:51.76	20.23	3.07	-41.8	-54.1	3.8	1.49e+00	0	53	104	0	55	14664
2026-01-25 22:58:52.77	20.27	3.13	-41.8	-54.1	3.8	1.49e+00	0	54	104	0	55	14697
2026-01-25 22:58:53.78	20.31	3.20	-41.8	-54.1	3.8	1.49e+00	0	54	104	0	55	14669
2026-01-25 22:58:54.79	20.35	3.26	-41.8	-54.1	3.8	1.49e+00	0	54	104	0	55	14682
2026-01-25 22:58:55.80	20.38	3.33	-41.8	-54.1	3.8	1.49e+00	0	54	104	0	55	14684
2026-01-25 22:58:56.81	20.42	3.39	-41.8	-54.1	3.8	1.49e+00	0	54	104	0	55	14674
2026-01-25 22:58:57.82	20.46	3.46	-41.8	-54.1	3.8	1.49e+00	0	54	104	0	55	14702
2026-01-25 22:58:58.83	20.50	3.52	-41.8	-54.2	3.8	1.49e+00	0	54	104	0	55	14720
2026-01-25 22:58:59.84	20.54	3.59	-41.8	-54.1	3.8	1.49e+00	0	54	104	0	55	14659
2026-01-25 22:59:00.85	20.58	3.65	-41.8	-54.2	3.8	1.49e+00	0	54	104	0	55	14762
2026-01-25 22:59:01.86	20.62	3.72	-41.8	-54.1	3.8	1.49e+00	0	54	104	0	55	14676
2026-01-25 22:59:02.87	20.65	3.78	-41.8	-54.1	3.8	1.49e+00	0	54	104	0	55	14697
2026-01-25 22:59:03.89	20.69	3.85	-41.8	-54.1	3.8	1.49e+00	0	54	104	0	55	14664
2026-01-25 22:59:04.90	20.73	3.92	-41.8	-54.1	3.8	1.49e+00	0	55	104	0	55	14664
2026-01-25 22:59:05.91	20.77	3.98	-41.8	-54.1	3.8	1.49e+00	0	54	104	0	55	14645
2026-01-25 22:59:06.92	20.81	4.05	-41.8	-54.1	3.8	1.49e+00	0	54	104	0	55	14657
2026-01-25 22:59:07.93	20.85	4.12	-41.8	-54.1	3.8	1.49e+00	0	54	104	0	55	14678
2026-01-25 22:59:08.94	20.89	4.18	-41.8	-54.2	3.8	1.49e+00	0	54	104	0	55	14727
2026-01-25 22:59:09.95	20.93	4.25	-41.8	-54.1	3.8	1.49e+00	0	55	104	0	55	14698
2026-01-25 22:59:10.96	20.97	4.32	-41.8	-54.1	3.8	1.49e+00	0	55	104	0	55	14706
2026-01-25 22:59:11.97	21.01	4.39	-41.8	-54.1	3.8	1.49e+00	0	55	104	0	55	14650
2026-01-25 22:59:12.98	21.05	4.45	-41.8	-54.1	3.8	1.49e+00	0	55	104	0	55	14632
2026-01-25 22:59:13.99	21.09	4.52	-41.8	-54.1	3.8	1.49e+00	0	55	104	0	55	14665
2026-01-25 22:59:15.00	21.14	4.59	-41.8	-54.1	3.8	1.49e+00	0	55	104	0	55	14659
2026-01-25 22:59:16.01	21.18	4.66	-41.8	-54.1	3.8	1.49e+00	0	55	104	0	55	14645
2026-01-25 22:59:17.02	21.22	4.73	-41.8	-54.1	3.8	1.49e+00	0	55	104	0	55	14662
2026-01-25 22:59:18.03	21.26	4.79	-41.8	-54.1	3.8	1.49e+00	0	55	104	0	55	14703
2026-01-25 22:59:19.04	21.30	4.86	-41.8	-54.1	3.8	1.49e+00	0	55	104	0	55	14705
2026-01-25 22:59:20.05	21.34	4.93	-41.8	-54.1	3.8	1.49e+00	0	55	104	0	55	14694
2026-01-25 22:59:21.06	21.38	5.00	-41.8	-54.1	3.8	1.49e+00	0	55	104	0	55	14672
2026-01-25 22:59:22.07	21.43	5.07	-41.8	-54.2	3.8	1.49e+00	0	55	104	0	55	14716
2026-01-25 22:59:23.08	21.47	5.14	-41.8	-54.1	3.8	1.49e+00	0	55	104	0	55	14685
2026-01-25 22:59:24.09	21.51	5.21	-41.8	-54.1	3.8	1.49e+00	0	55	104	0	55	14682
2026-01-25 22:59:25.10	21.55	5.28	-41.8	-54.1	3.8	1.49e+00	0	56	104	0	55	14664
2026-01-25 22:59:26.11	21.60	5.35	-41.8	-54.1	3.8	1.49e+00	0	56	104	0	55	14666
2026-01-25 22:59:27.12	21.64	5.42	-41.8	-54.1	3.8	1.49e+00	0	56	104	0	55	14647
2026-01-25 22:59:28.13	21.68	5.49	-41.8	-54.1	3.8	1.49e+00	0	55	104	0	55	14676
2026-01-25 22:59:29.14	21.73	5.56	-41.8	-54.1	3.8	1.49e+00	0	56	104	0	55	14670
2026-01-25 22:59:30.15	21.77	5.63	-41.8	-54.1	3.8	1.49e+00	0	56	104	0	55	14644
2026-01-25 22:59:31.16	21.81	5.70	-41.8	-54.1	3.8	1.49e+00	0	56	104	0	55	14638
2026-01-25 22:59:32.17	21.86	5.77	-41.8	-54.1	3.8	1.49e+00	0	56	104	0	55	14678
2026-01-25 22:59:33.18	21.90	5.84	-41.8	-54.1	3.8	1.49e+00	0	56	104	0	55	14673
2026-01-25 22:59:34.19	21.95	5.91	-41.8	-54.1	3.8	1.49e+00	0	56	104	0	55	14689
2026-01-25 22:59:35.20	21.99	5.98	-41.8	-54.1	3.8	1.49e+00	0	56	104	0	55	14625
2026-01-25 22:59:36.21	22.04	6.05	-41.8	-54.1	3.8	1.49e+00	0	56	104	0	55	14630
2026-01-25 22:59:37.22	22.08	6.13	-41.8	-54.1	3.8	1.49e+00	0	56	104	0	55	14660
2026-01-25 22:59:38.23	22.13	6.20	-41.8	-54.1	3.8	1.49e+00	0	56	104	0	55	14631
2026-01-25 22:59:39.24	22.17	6.27	-41.8	-54.1	3.8	1.49e+00	0	56	104	0	55	14611
2026-01-25 22:59:40.25	22.22	6.34	-41.8	-54.1	3.8	1.49e+00	0	56	104	0	55	14674
2026-01-25 22:59:41.26	22.26	6.41	-41.8	-54.1	3.8	1.49e+00	0	56	104	0	55	14661
2026-01-25 22:59:42.28	22.31	6.49	-41.8	-54.1	3.8	1.49e+00	0	56	104	0	55	14649
2026-01-25 22:59:43.29	22.36	6.56	-41.8	-54.1	3.8	1.49e+00	0	57	104	0	55	14609
2026-01-25 22:59:44.30	22.40	6.63	-41.8	-54.1	3.8	1.49e+00	0	56	104	0	55	14576
2026-01-25 22:59:45.31	22.45	6.71	-41.8	-54.1	3.8	1.49e+00	0	57	104	0	55	14545
2026-01-25 22:59:46.31	22.49	6.78	-41.8	-54.1	3.8	1.49e+00	0	57	104	0	55	14601
2026-01-25 22:59:47.32	22.54	6.85	-41.8	-54.1	3.8	1.49e+00	0	56	104	0	55	14621
2026-01-25 22:59:48.33	22.59	6.93	-41.8	-54.1	3.8	1.49e+00	0	57	104	0	55	14646
2026-01-25 22:59:49.34	22.64	7.00	-41.8	-54.1	3.8	1.49e+00	0	57	104	0	55	14648
2026-01-25 22:59:50.35	22.68	7.08	-41.8	-54.1	3.8	1.49e+00	0	57	104	0	55	14638
2026-01-25 22:59:51.37	22.73	7.15	-41.8	-54.1	3.8	1.49e+00	0	57	104	0	55	14558
2026-01-25 22:59:52.38	22.78	7.23	-41.8	-53.9	3.8	1.49e+00	0	57	104	0	55	14365
2026-01-25 22:59:53.39	22.83	7.30	-41.8	-53.8	3.8	1.49e+00	0	57	104	0	55	14189
2026-01-25 22:59:54.39	22.88	7.37	-41.8	-53.6	3.8	1.49e+00	0	57	104	0	55	13792
2026-01-25 22:59:55.40	22.93	7.45	-41.7	-53.2	3.8	1.49e+00	0	57	104	0	55	13245
2026-01-25 22:59:56.41	22.97	7.52	-41.7	-53.0	3.8	1.49e+00	0	57	104	0	55	12885
2026-01-25 22:59:57.42	23.02	7.60	-41.7	-52.7	3.8	1.49e+00	0	57	104	0	55	12518
2026-01-25 22:59:58.44	23.07	7.68	-41.6	-51.9	3.9	1.49e+00	0	57	104	0	55	11351
2026-01-25 22:59:59.44	23.12	7.75	-41.5	-51.5	4.0	1.48e+00	0	57	104	0	55	10779
2026-01-25 23:00:00.45	23.17	7.83	-41.5	-51.0	4.1	1.47e+00	0	57	104	0	55	10277
2026-01-25 23:00:01.47	23.22	7.91	-41.4	-50.1	4.3	1.46e+00	0	57	104	0	54	9811
2026-01-25 23:00:02.48	23.27	7.98	-41.2	-49.7	4.0	8.96e-01	2	57	104	0	54	9344
2026-01-25 23:00:03.49	23.32	8.06	-41.2	-48.4	5.2	7.18e-01	0	57	0	1048576	54	7994
2026-01-25 23:00:04.50	23.38	8.14	-41.6	-51.7	4.0	1.47e+00	0	57	104	3145728	54	11739
2026-01-25 23:00:05.51	23.43	8.21	-40.8	-46.9	4.2	1.49e+00	0	57	104	3145728	53	7204
2026-01-25 23:00:06.52	23.48	8.29	-40.8	-45.0	8.9	4.35e-02	0	57	0	5242880	52	6098
2026-01-25 23:00:07.53	23.53	8.37	-39.7	-43.2	10.7	1.51e-02	0	57	0	8388608	51	5229
2026-01-25 23:00:08.54	23.58	8.45	-40.2	-44.6	8.5	1.81e-01	0	57	0	11534336	52	5808
2026-01-25 23:00:09.55	23.63	8.53	-39.9	-43.4	10.5	3.66e-03	0	57	0	14680064	51	5355
2026-01-25 23:00:10.56	23.69	8.60	-40.3	-44.0	9.9	6.25e-03	0	58	0	17825792	51	5767
2026-01-25 23:00:11.57	23.74	8.68	-40.4	-44.2	9.8	9.35e-03	0	58	0	20971520	51	5886
2026-01-25 23:00:12.58	23.79	8.76	-40.5	-44.2	9.8	1.19e-02	0	57	0	24117248	51	5922
2026-01-25 23:00:13.59	23.85	8.84	-40.2	-43.7	10.4	4.98e-03	0	58	0	27262976	51	5551
2026-01-25 23:00:14.60	23.90	8.92	-40.0	-43.4	10.8	3.09e-03	0	58	0	30408704	51	5366
2026-01-25 23:00:15.61	23.95	9.00	-40.0	-43.3	10.9	2.16e-03	0	58	0	33554432	51	5309
2026-01-25 23:00:16.62	24.01	9.08	-40.1	-43.5	10.8	2.78e-03	0	58	0	36700160	51	5405
2026-01-25 23:00:17.63	24.06	9.16	-40.2	-43.6	10.6	3.10e-03	0	58	0	39845888	51	5471
2026-01-25 23:00:18.64	24.12	9.24	-40.0	-43.2	11.1	2.09e-03	0	58	0	42991616	51	5267
2026-01-25 23:00:19.65	24.17	9.32	-40.0	-43.2	11.3	1.12e-03	0	57	0	46137344	51	5219
2026-01-25 23:00:20.66	24.23	9.40	-40.2	-43.5	11.0	1.92e-03	0	58	0	49283072	51	5442
2026-01-25 23:00:21.67	24.28	9.48	-40.2	-43.3	11.1	1.90e-03	0	58	0	52428800	51	5336
2026-01-25 23:00:22.67	24.34	9.56	-40.0	-43.2	11.3	9.54e-04	0	58	0	55574528	51	5230
2026-01-25 23:00:23.69	24.39	9.65	-40.2	-43.4	11.1	1.49e-03	0	58	0	58720256	51	5396
2026-01-25 23:00:24.70	24.45	9.73	-40.3	-43.5	11.1	1.66e-03	0	58	0	61865984	51	5435
2026-01-25 23:00:25.71	24.51	9.81	-40.3	-43.6	11.0	1.63e-03	0	58	0	65011712	51	5472
2026-01-25 23:00:26.72	24.56	9.89	-40.5	-43.8	10.9	1.99e-03	0	58	0	68157440	51	5598
2026-01-25 23:00:27.72	24.62	9.97	-40.2	-43.3	11.3	1.62e-03	0	58	0	71303168	51	5332
2026-01-25 23:00:28.73	24.68	10.06	-40.3	-43.4	11.4	8.65e-04	0	58	0	74448896	51	5372
2026-01-25 23:00:29.74	24.73	10.14	-40.2	-43.3	11.5	9.60e-04	0	58	0	77594624	51	5293
2026-01-25 23:00:30.75	24.79	10.22	-40.2	-43.3	11.6	7.14e-04	0	58	0	80740352	51	5288
2026-01-25 23:00:31.76	24.85	10.31	-40.2	-43.2	11.6	8.05e-04	0	58	0	83886080	51	5222
2026-01-25 23:00:32.77	24.91	10.39	-40.2	-43.2	11.7	5.68e-04	0	58	0	87031808	51	5245
2026-01-25 23:00:33.78	24.97	10.47	-40.1	-43.0	11.9	4.91e-04	0	58	0	90177536	51	5138
2026-01-25 23:00:34.79	25.03	10.56	-40.2	-43.0	11.9	3.62e-04	0	58	0	93323264	51	5158
2026-01-25 23:00:35.80	25.09	10.64	-40.1	-42.9	12.0	3.12e-04	0	58	0	96468992	51	5087
2026-01-25 23:00:36.81	25.15	10.73	-40.1	-42.9	12.1	3.02e-04	0	58	0	99614720	51	5077
2026-01-25 23:00:37.82	25.21	10.81	-40.1	-43.0	12.0	3.04e-04	0	58	0	102760448	51	5118
2026-01-25 23:00:38.83	25.27	10.90	-40.2	-43.0	12.0	2.41e-04	0	58	0	105906176	51	5137
2026-01-25 23:00:39.84	25.33	10.99	-40.1	-42.9	12.2	2.53e-04	0	58	0	109051904	51	5048
2026-01-25 23:00:40.85	25.39	11.07	-40.0	-42.8	12.2	1.94e-04	0	58	0	112197632	51	5016
2026-01-25 23:00:41.86	25.45	11.16	-40.1	-43.0	12.1	2.38e-04	0	58	0	115343360	51	5111
2026-01-25 23:00:42.87	25.51	11.24	-40.1	-42.8	12.3	1.59e-04	0	58	0	118489088	51	5016
2026-01-25 23:00:43.89	25.58	11.33	-40.0	-42.7	12.4	1.37e-04	0	58	0	121634816	51	4955
2026-01-25 23:00:44.90	25.64	11.42	-39.9	-42.6	12.5	1.19e-04	0	58	0	124780544	51	4915
2026-01-25 23:00:45.91	25.70	11.51	-40.0	-42.7	12.5	1.26e-04	0	58	0	127926272	51	4950
2026-01-25 23:00:46.91	25.76	11.59	-40.0	-42.8	12.4	1.23e-04	0	59	0	131072000	51	4985
2026-01-25 23:00:47.92	25.83	11.68	-39.9	-42.6	12.6	1.17e-04	0	58	0	134217728	51	4916
2026-01-25 23:00:48.93	25.89	11.77	-39.9	-42.6	12.5	8.77e-05	0	59	0	137363456	51	4916
2026-01-25 23:00:49.94	25.96	11.86	-39.9	-42.5	12.7	1.03e-04	0	59	0	140509184	51	4870
2026-01-25 23:00:50.95	26.02	11.95	-39.9	-42.5	12.8	7.17e-05	0	59	0	143654912	51	4823
2026-01-25 23:00:51.96	26.09	12.04	-39.9	-42.4	12.7	6.94e-05	0	58	0	146800640	51	4814
2026-01-25 23:00:52.98	26.15	12.13	-39.9	-42.6	12.6	6.63e-05	0	59	0	149946368	51	4883
2026-01-25 23:00:53.99	26.22	12.22	-39.9	-42.6	12.7	9.23e-05	0	59	0	153092096	51	4885
2026-01-25 23:00:55.00	26.28	12.31	-40.0	-42.6	12.6	9.76e-05	0	58	0	156237824	51	4900
2026-01-25 23:00:56.01	26.35	12.40	-39.9	-42.6	12.7	7.24e-05	0	59	0	159383552	51	4891
2026-01-25 23:00:57.02	26.42	12.49	-39.9	-42.5	12.7	7.40e-05	0	59	0	162529280	51	4852
2026-01-25 23:00:58.02	26.48	12.58	-39.8	-42.4	12.9	4.42e-05	0	59	0	165675008	51	4788
2026-01-25 23:00:59.03	26.55	12.67	-39.9	-42.4	12.8	5.11e-05	0	59	0	168820736	51	4813
2026-01-25 23:01:00.04	26.62	12.76	-39.9	-42.5	12.8	6.56e-05	0	58	0	171966464	51	4830
2026-01-25 23:01:01.05	26.69	12.85	-39.9	-42.5	12.9	4.42e-05	0	59	0	175112192	51	4820
2026-01-25 23:01:02.06	26.76	12.94	-39.9	-42.4	12.9	4.04e-05	0	59	0	178257920	51	4801
2026-01-25 23:01:03.07	26.83	13.04	-39.8	-42.3	13.0	5.18e-05	0	59	0	181403648	51	4754
2026-01-25 23:01:04.08	26.90	13.13	-39.9	-42.5	12.9	5.11e-05	0	59	0	184549376	51	4816
2026-01-25 23:01:05.09	26.97	13.22	-39.9	-42.4	12.9	4.27e-05	0	59	0	187695104	51	4799
2026-01-25 23:01:06.10	27.04	13.32	-39.8	-42.4	13.0	4.65e-05	0	59	0	190840832	51	4761
2026-01-25 23:01:07.11	27.11	13.41	-39.8	-42.4	13.1	3.12e-05	0	59	0	193986560	51	4760
2026-01-25 23:01:08.12	27.18	13.50	-39.8	-42.2	13.2	2.67e-05	0	59	0	197132288	51	4686
2026-01-25 23:01:09.13	27.25	13.60	-39.8	-42.3	13.1	3.20e-05	0	59	0	200278016	51	4730
2026-01-25 23:01:10.14	27.32	13.69	-39.8	-42.3	13.1	2.67e-05	0	59	0	203423744	51	4726
2026-01-25 23:01:11.15	27.40	13.79	-39.8	-42.2	13.2	2.28e-05	0	59	0	206569472	51	4704
2026-01-25 23:01:12.16	27.47	13.88	-39.8	-42.3	13.2	2.51e-05	0	59	0	209715200	51	4706
2026-01-25 23:01:13.17	27.54	13.98	-39.8	-42.2	13.2	2.67e-05	0	59	0	212860928	51	4704
2026-01-25 23:01:14.18	27.62	14.08	-39.8	-42.3	13.2	2.59e-05	0	59	0	216006656	51	4721
2026-01-25 23:01:15.19	27.69	14.17	-39.8	-42.2	13.2	2.51e-05	0	59	0	219152384	51	4704
2026-01-25 23:01:16.20	27.77	14.27	-39.8	-42.3	13.2	1.67e-05	0	59	0	222298112	51	4713
2026-01-25 23:01:17.21	27.84	14.37	-39.8	-42.3	13.2	3.05e-05	0	59	0	225443840	51	4711
2026-01-25 23:01:18.22	27.92	14.46	-39.8	-42.2	13.3	1.75e-05	0	59	0	228589568	51	4696
2026-01-25 23:01:19.23	27.99	14.56	-39.9	-42.4	13.2	2.59e-05	0	59	0	232783872	51	4768
2026-01-25 23:01:20.24	28.07	14.66	-39.8	-42.3	13.2	2.28e-05	0	59	0	235929600	51	4736
2026-01-25 23:01:21.25	28.15	14.76	-39.9	-42.4	13.1	2.67e-05	0	59	0	238026752	51	4772
2026-01-25 23:01:22.26	28.23	14.86	-39.9	-42.4	13.1	2.51e-05	0	59	0	241172480	51	4771
2026-01-25 23:01:23.27	28.30	14.96	-39.9	-42.3	13.2	2.13e-05	0	59	0	244318208	51	4759
2026-01-25 23:01:24.28	28.38	15.06	-39.9	-42.4	13.1	3.12e-05	0	59	0	248512512	51	4769
2026-01-25 23:01:25.29	28.46	15.16	-39.9	-42.4	13.1	2.97e-05	0	59	0	251658240	51	4800
2026-01-25 23:01:26.30	28.54	15.26	-40.0	-42.5	13.1	2.67e-05	0	59	0	254803968	51	4824
2026-01-25 23:01:27.31	28.62	15.36	-39.9	-42.4	13.1	2.44e-05	0	59	0	257949696	51	4807
2026-01-25 23:01:28.32	28.70	15.46	-39.9	-42.4	13.2	2.97e-05	0	59	0	260046848	51	4782
2026-01-25 23:01:29.33	28.79	15.56	-40.0	-42.5	13.1	3.28e-05	0	59	0	264241152	51	4819
2026-01-25 23:01:30.34	28.87	15.66	-40.0	-42.5	13.1	2.51e-05	0	59	0	267386880	51	4821
2026-01-25 23:01:31.35	28.95	15.77	-40.1	-42.6	13.0	4.27e-05	0	59	0	270532608	51	4897
2026-01-25 23:01:32.36	29.03	15.87	-40.1	-42.6	13.0	4.65e-05	0	59	0	273678336	51	4909
2026-01-25 23:01:33.38	29.12	15.97	-40.1	-42.6	12.9	4.11e-05	0	59	0	276824064	51	4921
2026-01-25 23:01:34.39	29.20	16.08	-40.1	-42.6	12.9	4.57e-05	0	60	0	279969792	51	4925
2026-01-25 23:01:35.40	29.29	16.18	-40.2	-42.7	12.9	4.88e-05	0	59	0	283115520	51	4972
2026-01-25 23:01:36.41	29.37	16.28	-40.2	-42.8	12.8	5.03e-05	0	59	0	286261248	51	4996
2026-01-25 23:01:37.42	29.46	16.39	-40.2	-42.7	12.9	5.49e-05	0	59	0	289406976	51	4980
2026-01-25 23:01:38.43	29.54	16.49	-40.2	-42.8	12.8	5.41e-05	0	59	0	292552704	51	4994
2026-01-25 23:01:39.44	29.63	16.60	-40.2	-42.8	12.8	5.49e-05	0	59	0	295698432	51	5019
2026-01-25 23:01:40.45	29.72	16.70	-40.3	-42.9	12.7	6.56e-05	0	59	0	298844160	51	5079
2026-01-25 23:01:41.46	29.80	16.81	-40.3	-42.9	12.7	6.56e-05	0	59	0	301989888	51	5089
2026-01-25 23:01:42.47	29.89	16.92	-40.2	-42.8	12.8	6.33e-05	0	59	0	305135616	51	5006
2026-01-25 23:01:43.48	29.98	17.02	-40.2	-42.7	12.9	5.95e-05	0	60	0	308281344	51	4983
2026-01-25 23:01:44.49	30.07	17.13	-40.1	-42.6	13.0	2.89e-05	0	60	0	311427072	51	4903
2026-01-25 23:01:45.50	30.16	17.24	-40.1	-42.7	13.0	4.80e-05	0	60	0	314572800	51	4936
2026-01-25 23:01:46.51	30.25	17.35	-40.1	-42.7	13.0	3.66e-05	0	59	0	317718528	51	4929
2026-01-25 23:01:47.52	30.35	17.46	-40.2	-42.7	12.9	4.27e-05	0	60	0	320864256	51	4979
2026-01-25 23:01:48.53	30.44	17.57	-40.2	-42.8	12.9	4.88e-05	0	60	0	324009984	51	5011
2026-01-25 23:01:49.54	30.53	17.68	-40.2	-42.7	13.0	4.50e-05	0	60	0	327155712	51	4975
2026-01-25 23:01:50.55	30.62	17.79	-40.1	-42.6	13.1	3.50e-05	0	60	0	330301440	51	4910
2026-01-25 23:01:51.56	30.72	17.90	-40.1	-42.6	13.1	3.20e-05	0	60	0	333447168	51	4898
2026-01-25 23:01:52.57	30.81	18.01	-40.1	-42.6	13.1	2.89e-05	0	60	0	336592896	51	4918
2026-01-25 23:01:53.59	30.91	18.12	-40.1	-42.6	13.1	3.05e-05	0	60	0	339738624	51	4915
2026-01-25 23:01:54.59	31.00	18.23	-40.2	-42.7	13.1	2.44e-05	0	60	0	342884352	51	4938
2026-01-25 23:01:55.61	31.10	18.34	-40.1	-42.6	13.1	2.59e-05	0	60	0	346030080	51	4884
2026-01-25 23:01:56.62	31.20	18.46	-40.2	-42.7	13.1	2.67e-05	0	60	0	349175808	51	4932
2026-01-25 23:01:57.63	31.30	18.57	-40.1	-42.6	13.1	2.13e-05	0	60	0	352321536	51	4902
2026-01-25 23:01:58.64	31.40	18.68	-40.1	-42.6	13.2	2.36e-05	0	60	0	355467264	51	4898
2026-01-25 23:01:59.65	31.50	18.80	-40.1	-42.6	13.2	3.66e-05	0	60	0	358612992	51	4882
2026-01-25 23:02:00.66	31.60	18.91	-40.0	-42.4	13.3	1.22e-05	0	60	0	361758720	51	4795
2026-01-25 23:02:01.67	31.70	19.02	-39.9	-42.3	13.4	9.90e-06	0	60	0	364904448	51	4755
2026-01-25 23:02:02.68	31.80	19.14	-39.9	-42.3	13.5	1.29e-05	0	60	0	368050176	51	4711
2026-01-25 23:02:03.69	31.90	19.26	-39.9	-42.3	13.5	9.10e-06	0	60	0	371195904	51	4715
2026-01-25 23:02:04.70	32.01	19.37	-39.9	-42.2	13.5	9.10e-06	0	60	0	374341632	51	4701
2026-01-25 23:02:05.71	32.11	19.49	-39.8	-42.1	13.7	6.80e-06	0	60	0	377487360	51	4621
2026-01-25 23:02:06.72	32.22	19.61	-39.7	-42.0	13.7	6.10e-06	0	60	0	380633088	51	4593
2026-01-25 23:02:07.73	32.32	19.72	-39.7	-42.0	13.8	5.30e-06	0	60	0	383778816	51	4562
2026-01-25 23:02:08.74	32.43	19.84	-39.7	-41.9	13.9	2.20e-06	0	60	0	386924544	51	4525
2026-01-25 23:02:09.75	32.53	19.96	-39.7	-41.9	13.9	3.80e-06	0	60	0	390070272	51	4526
2026-01-25 23:02:10.76	32.64	20.08	-39.6	-41.9	13.9	1.50e-06	0	60	0	393216000	51	4510
2026-01-25 23:02:11.77	32.75	20.20	-39.6	-41.8	14.0	2.20e-06	0	60	0	396361728	51	4455
2026-01-25 23:02:12.78	32.86	20.32	-39.5	-41.7	14.0	0.00e+00	0	60	0	399507456	51	4432
2026-01-25 23:02:13.79	32.97	20.44	-39.5	-41.7	14.1	2.20e-06	0	60	0	402653184	51	4415
2026-01-25 23:02:14.81	33.08	20.56	-39.6	-41.8	14.1	1.50e-06	0	60	0	405798912	51	4447
2026-01-25 23:02:15.82	33.20	20.68	-39.5	-41.6	14.2	3.00e-06	0	60	0	408944640	51	4386
2026-01-25 23:02:16.83	33.31	20.80	-39.4	-41.5	14.3	1.50e-06	0	60	0	412090368	50	4580
2026-01-25 23:02:17.84	33.42	20.93	-39.3	-41.4	14.4	7.00e-07	0	60	0	415236096	50	4533
2026-01-25 23:02:18.85	33.54	21.05	-39.3	-41.4	14.4	7.00e-07	0	60	0	418381824	50	4514
2026-01-25 23:02:19.86	33.65	21.17	-39.3	-41.3	14.5	0.00e+00	0	60	0	421527552	50	4492
2026-01-25 23:02:20.87	33.77	21.29	-39.3	-41.3	14.5	0.00e+00	0	60	0	424673280	50	4479
2026-01-25 23:02:21.88	33.89	21.42	-39.2	-41.3	14.5	7.00e-07	0	60	0	427819008	50	4479
2026-01-25 23:02:22.89	34.01	21.54	-39.2	-41.3	14.5	7.00e-07	0	60	0	430964736	50	4463
2026-01-25 23:02:23.90	34.12	21.67	-39.2	-41.3	14.5	1.50e-06	0	60	0	434110464	50	4465
2026-01-25 23:02:24.91	34.25	21.80	-39.2	-41.2	14.6	7.00e-07	0	60	0	437256192	50	4432
2026-01-25 23:02:25.93	34.37	21.92	-39.1	-41.2	14.7	0.00e+00	0	60	0	440401920	50	4393
2026-01-25 23:02:26.94	34.49	22.05	-39.2	-41.2	14.6	0.00e+00	0	60	0	443547648	50	4423
2026-01-25 23:02:27.94	34.61	22.18	-39.3	-41.3	14.6	0.00e+00	0	60	0	446693376	50	4472
2026-01-25 23:02:28.95	34.74	22.30	-39.2	-41.3	14.6	0.00e+00	0	60	0	449839104	50	4448
2026-01-25 23:02:29.96	34.86	22.43	-39.1	-41.1	14.7	0.00e+00	0	60	0	452984832	50	4388
2026-01-25 23:02:30.97	34.99	22.56	-39.2	-41.2	14.6	0.00e+00	0	60	0	456130560	50	4432
2026-01-25 23:02:31.98	35.11	22.69	-39.1	-41.1	14.8	0.00e+00	0	60	0	459276288	50	4389
2026-01-25 23:02:32.99	35.24	22.82	-39.0	-41.0	14.9	0.00e+00	0	60	0	462422016	50	4306
2026-01-25 23:02:34.00	35.37	22.95	-38.9	-40.9	15.0	0.00e+00	0	60	0	465567744	49	4510
2026-01-25 23:02:35.01	35.50	23.08	-39.0	-41.0	14.9	0.00e+00	0	60	0	468713472	49	4548
2026-01-25 23:02:36.02	35.63	23.21	-39.0	-40.9	15.0	0.00e+00	0	60	0	471859200	49	4529
2026-01-25 23:02:37.03	35.76	23.34	-38.9	-40.9	15.0	0.00e+00	0	60	0	475004928	49	4500
2026-01-25 23:02:38.04	35.90	23.48	-39.0	-40.9	15.0	7.00e-07	0	60	0	478150656	49	4534
2026-01-25 23:02:39.05	36.03	23.61	-39.1	-41.0	14.9	0.00e+00	0	60	0	481296384	49	4593
2026-01-25 23:02:40.06	36.17	23.74	-39.0	-41.0	14.9	0.00e+00	0	60	0	484442112	49	4574
2026-01-25 23:02:41.07	36.30	23.88	-39.0	-40.9	15.0	7.00e-07	0	60	0	487587840	49	4539
2026-01-25 23:02:42.08	36.44	24.01	-38.9	-40.9	15.0	0.00e+00	0	60	0	490733568	49	4515
2026-01-25 23:02:43.09	36.58	24.15	-39.0	-41.0	14.9	0.00e+00	0	60	0	493879296	49	4561
2026-01-25 23:02:44.10	36.72	24.28	-38.9	-40.9	15.1	0.00e+00	0	60	0	497025024	49	4498
2026-01-25 23:02:45.11	36.86	24.42	-39.0	-41.0	15.0	7.00e-07	0	60	0	500170752	49	4561
2026-01-25 23:02:46.13	37.01	24.56	-39.1	-41.0	15.0	0.00e+00	0	60	0	504365056	49	4580
2026-01-25 23:02:47.13	37.15	24.69	-39.1	-41.0	14.9	0.00e+00	0	60	0	506462208	49	4595
2026-01-25 23:02:48.15	37.30	24.83	-39.0	-41.0	15.0	7.00e-07	0	60	0	509607936	49	4560
2026-01-25 23:02:49.16	37.44	24.97	-39.1	-41.1	14.8	0.00e+00	0	60	0	512753664	49	4641
2026-01-25 23:02:50.16	37.59	25.11	-39.2	-41.2	14.7	0.00e+00	0	60	0	515899392	49	4704
2026-01-25 23:02:51.17	37.74	25.25	-39.2	-41.2	14.8	0.00e+00	0	60	0	520093696	49	4687
2026-01-25 23:02:52.18	37.89	25.39	-39.2	-41.3	14.7	0.00e+00	0	60	0	523239424	49	4721
2026-01-25 23:02:53.19	38.04	25.53	-39.3	-41.3	14.7	0.00e+00	0	60	0	526385152	49	4744
2026-01-25 23:02:54.20	38.19	25.67	-39.3	-41.3	14.7	7.00e-07	0	60	0	529530880	49	4747
2026-01-25 23:02:55.22	38.35	25.81	-39.3	-41.4	14.6	0.00e+00	0	60	0	531628032	49	4775
2026-01-25 23:02:56.23	38.50	25.96	-39.4	-41.4	14.6	0.00e+00	0	60	0	535822336	49	4808
2026-01-25 23:02:57.24	38.66	26.10	-39.5	-41.6	14.5	1.50e-06	0	60	0	538968064	49	4883
2026-01-25 23:02:58.25	38.82	26.24	-39.5	-41.6	14.5	7.00e-07	0	60	0	542113792	49	4889
2026-01-25 23:02:59.26	38.98	26.39	-39.6	-41.7	14.3	1.50e-06	0	60	0	545259520	49	4981
2026-01-25 23:03:00.27	39.14	26.53	-39.6	-41.7	14.3	1.50e-06	0	60	0	548405248	49	4952
2026-01-25 23:03:01.28	39.30	26.67	-39.6	-41.7	14.3	2.20e-06	0	61	0	551550976	49	4948
2026-01-25 23:03:02.29	39.46	26.82	-39.6	-41.7	14.3	1.50e-06	0	60	0	554696704	49	4962
2026-01-25 23:03:03.30	39.63	26.97	-39.6	-41.7	14.3	1.50e-06	0	61	0	557842432	49	4978
2026-01-25 23:03:04.31	39.80	27.11	-39.6	-41.7	14.3	0.00e+00	0	60	0	560988160	49	4969
2026-01-25 23:03:05.32	39.96	27.26	-39.6	-41.8	14.2	1.50e-06	0	61	0	564133888	49	4991
2026-01-25 23:03:06.33	40.13	27.41	-39.7	-41.8	14.2	3.00e-06	0	60	0	567279616	49	5033
2026-01-25 23:03:07.34	40.30	27.56	-39.7	-41.9	14.1	7.00e-07	0	60	0	570425344	50	4785
2026-01-25 23:03:08.35	40.48	27.70	-39.8	-42.0	14.0	2.20e-06	0	60	0	573571072	50	4843
2026-01-25 23:03:09.36	40.65	27.85	-39.8	-42.0	14.0	3.80e-06	0	61	0	576716800	50	4846
2026-01-25 23:03:10.37	40.83	28.00	-39.8	-42.0	14.0	2.20e-06	0	61	0	579862528	50	4862
2026-01-25 23:03:11.38	41.01	28.15	-39.8	-41.9	14.1	3.00e-06	0	60	0	583008256	50	4805
2026-01-25 23:03:12.39	41.19	28.31	-39.8	-42.0	14.1	3.80e-06	0	61	0	586153984	50	4820
2026-01-25 23:03:13.40	41.37	28.46	-39.8	-42.0	14.1	3.80e-06	0	60	0	589299712	50	4827
2026-01-25 23:03:14.41	41.55	28.61	-39.9	-42.1	14.0	3.00e-06	0	60	0	592445440	50	4878
2026-01-25 23:03:15.42	41.73	28.76	-39.8	-42.0	14.1	3.00e-06	0	61	0	595591168	50	4827
2026-01-25 23:03:16.43	41.92	28.91	-39.8	-42.0	14.0	5.30e-06	0	61	0	598736896	50	4853
2026-01-25 23:03:17.44	42.11	29.07	-39.7	-41.9	14.2	7.00e-07	0	61	0	601882624	50	4793
2026-01-25 23:03:18.45	42.30	29.22	-39.8	-41.9	14.1	7.00e-07	0	61	0	605028352	50	4811
2026-01-25 23:03:19.46	42.49	29.38	-39.7	-41.9	14.1	1.50e-06	0	61	0	608174080	50	4802
2026-01-25 23:03:20.47	42.68	29.53	-39.8	-41.9	14.1	1.50e-06	0	61	0	611319808	50	4810
2026-01-25 23:03:21.48	42.88	29.69	-39.8	-41.9	14.1	1.50e-06	0	61	0	614465536	50	4801
2026-01-25 23:03:22.49	43.07	29.84	-39.9	-42.1	14.0	2.20e-06	0	61	0	617611264	50	4875
2026-01-25 23:03:23.50	43.27	30.00	-39.7	-41.9	14.2	7.00e-07	0	60	0	620756992	50	4772
2026-01-25 23:03:24.51	43.47	30.16	-39.7	-41.8	14.2	3.00e-06	0	61	0	623902720	50	4755
2026-01-25 23:03:25.52	43.67	30.31	-39.6	-41.8	14.3	1.50e-06	0	61	0	627048448	50	4706
2026-01-25 23:03:26.53	43.88	30.47	-39.6	-41.7	14.5	0.00e+00	0	60	0	630194176	50	4654
2026-01-25 23:03:27.54	44.09	30.63	-39.6	-41.7	14.4	7.00e-07	0	60	0	633339904	50	4686
2026-01-25 23:03:28.55	44.29	30.79	-39.6	-41.6	14.5	7.00e-07	0	60	0	636485632	50	4646
2026-01-25 23:03:29.56	44.50	30.95	-39.5	-41.6	14.5	7.00e-07	0	61	0	639631360	50	4611
2026-01-25 23:03:30.57	44.72	31.11	-39.6	-41.7	14.5	3.80e-06	0	61	0	642777088	50	4663
2026-01-25 23:03:31.58	44.93	31.27	-39.6	-41.8	14.3	7.00e-07	0	61	0	645922816	50	4709
2026-01-25 23:03:32.60	45.15	31.43	-39.6	-41.7	14.4	0.00e+00	0	61	0	649068544	50	4672
2026-01-25 23:03:33.61	45.37	31.59	-39.6	-41.7	14.4	2.20e-06	0	61	0	652214272	50	4661
2026-01-25 23:03:34.62	45.59	31.76	-39.6	-41.7	14.4	2.20e-06	0	61	0	655360000	50	4693
2026-01-25 23:03:35.63	45.81	31.92	-39.7	-41.8	14.4	7.00e-07	0	61	0	658505728	50	4709
2026-01-25 23:03:36.64	46.04	32.08	-39.7	-41.8	14.3	0.00e+00	0	61	0	661651456	50	4755
2026-01-25 23:03:37.65	46.27	32.24	-39.8	-42.0	14.1	0.00e+00	0	61	0	664797184	50	4837
2026-01-25 23:03:38.66	46.50	32.41	-39.8	-42.0	14.1	1.50e-06	0	61	0	667942912	50	4852
2026-01-25 23:03:39.67	46.73	32.57	-39.9	-42.2	14.0	1.50e-06	0	61	0	671088640	50	4927
2026-01-25 23:03:40.68	46.96	32.74	-40.1	-42.3	13.8	4.50e-06	0	61	0	674234368	50	5026
2026-01-25 23:03:41.69	47.20	32.90	-40.1	-42.3	13.8	6.80e-06	0	61	0	677380096	50	5032
2026-01-25 23:03:42.70	47.44	33.07	-40.1	-42.3	13.8	2.20e-06	0	61	0	680525824	50	5030
2026-01-25 23:03:43.71	47.68	33.23	-40.1	-42.4	13.7	6.80e-06	0	61	0	683671552	50	5094
2026-01-25 23:03:44.72	47.93	33.40	-40.2	-42.6	13.5	7.60e-06	0	61	0	686817280	51	4880
2026-01-25 23:03:45.73	48.17	33.56	-40.4	-42.8	13.4	1.22e-05	0	61	0	689963008	51	4987
2026-01-25 23:03:46.74	48.42	33.73	-40.3	-42.7	13.4	1.14e-05	0	60	0	693108736	51	4952
2026-01-25 23:03:47.75	48.67	33.90	-40.3	-42.7	13.4	1.06e-05	0	61	0	696254464	51	4975
2026-01-25 23:03:48.76	48.93	34.06	-40.4	-42.8	13.3	1.83e-05	0	61	0	699400192	51	5033
2026-01-25 23:03:49.77	49.18	34.23	-40.4	-42.8	13.3	1.98e-05	0	61	0	702545920	51	5021
2026-01-25 23:03:50.78	49.44	34.40	-40.3	-42.7	13.4	1.52e-05	0	61	0	705691648	51	4967
2026-01-25 23:03:51.79	49.70	34.57	-40.3	-42.6	13.5	9.10e-06	0	61	0	708837376	51	4926
2026-01-25 23:03:52.80	49.97	34.73	-40.3	-42.7	13.4	1.37e-05	0	61	0	711983104	51	4965
2026-01-25 23:03:53.81	50.24	34.90	-40.4	-42.8	13.3	2.44e-05	0	61	0	715128832	51	5039
2026-01-25 23:03:54.82	50.51	35.07	-40.5	-42.9	13.3	2.44e-05	0	61	0	718274560	51	5055
2026-01-25 23:03:55.83	50.78	35.24	-40.5	-42.9	13.2	1.98e-05	0	61	0	721420288	51	5087
2026-01-25 23:03:56.84	51.05	35.41	-40.6	-43.0	13.1	2.44e-05	0	61	0	724566016	51	5142
2026-01-25 23:03:57.85	51.33	35.58	-40.6	-43.1	13.0	3.66e-05	0	61	0	727711744	51	5217
2026-01-25 23:03:58.86	51.61	35.75	-40.6	-43.2	12.9	5.56e-05	0	61	0	730857472	52	4933
2026-01-25 23:03:59.87	51.90	35.92	-40.8	-43.5	12.7	8.54e-05	0	61	0	734003200	52	5112
2026-01-25 23:04:00.88	52.19	36.09	-40.8	-43.5	12.6	9.61e-05	0	61	0	737148928	52	5124
2026-01-25 23:04:01.89	52.48	36.26	-41.0	-43.7	12.5	1.31e-04	0	61	0	740294656	52	5228
2026-01-25 23:04:02.90	52.77	36.43	-41.0	-43.7	12.4	1.44e-04	0	61	0	743440384	52	5240
2026-01-25 23:04:03.91	53.06	36.60	-41.0	-43.7	12.4	1.47e-04	0	61	0	746586112	52	5249
2026-01-25 23:04:04.92	53.36	36.77	-41.0	-43.8	12.4	1.72e-04	0	61	0	749731840	52	5298
2026-01-25 23:04:05.93	53.67	36.94	-41.0	-43.7	12.4	1.52e-04	0	61	0	752877568	52	5272
2026-01-25 23:04:06.94	53.97	37.11	-41.0	-43.7	12.4	1.36e-04	0	61	0	756023296	52	5244
2026-01-25 23:04:07.95	54.28	37.28	-41.0	-43.7	12.4	1.64e-04	0	61	0	759169024	52	5273
2026-01-25 23:04:08.96	54.59	37.45	-41.0	-43.8	12.3	1.85e-04	0	61	0	762314752	52	5302
2026-01-25 23:04:09.97	54.91	37.62	-41.1	-43.9	12.1	2.49e-04	0	61	0	765460480	52	5400
2026-01-25 23:04:10.98	55.22	37.79	-41.2	-44.1	11.9	3.54e-04	0	61	0	768606208	53	5191
2026-01-25 23:04:11.99	55.55	37.96	-41.2	-44.1	12.0	3.96e-04	0	61	0	771751936	53	5196
2026-01-25 23:04:13.00	55.87	38.13	-41.2	-44.1	11.9	4.31e-04	0	61	0	774897664	53	5194
2026-01-25 23:04:14.01	56.20	38.29	-41.2	-44.1	12.0	3.29e-04	0	61	0	778043392	53	5205
2026-01-25 23:04:15.02	56.53	38.46	-41.1	-43.9	12.2	2.89e-04	0	61	0	781189120	53	5081
2026-01-25 23:04:16.03	56.87	38.63	-41.0	-43.8	12.2	2.02e-04	0	61	0	784334848	53	4997
2026-01-25 23:04:17.04	57.20	38.80	-41.1	-43.9	12.3	2.45e-04	0	61	0	787480576	53	5049
2026-01-25 23:04:18.05	57.55	38.97	-41.0	-43.7	12.4	1.94e-04	0	61	0	790626304	53	4982
2026-01-25 23:04:19.06	57.89	39.14	-41.0	-43.7	12.4	1.79e-04	0	61	0	793772032	53	4976
2026-01-25 23:04:20.07	58.24	39.31	-40.9	-43.6	12.6	1.31e-04	0	61	0	797966336	53	4890
2026-01-25 23:04:21.08	58.59	39.47	-41.0	-43.8	12.3	1.48e-04	0	61	0	800063488	53	5011
2026-01-25 23:04:22.10	58.95	39.64	-40.9	-43.6	12.5	1.36e-04	0	61	0	803209216	53	4912
2026-01-25 23:04:23.10	59.31	39.81	-41.0	-43.7	12.5	1.23e-04	0	61	0	806354944	53	4943
2026-01-25 23:04:24.11	59.67	39.97	-41.0	-43.7	12.5	1.17e-04	0	61	0	809500672	53	4946
2026-01-25 23:04:25.12	60.04	40.14	-41.0	-43.8	12.4	1.49e-04	0	61	0	813694976	53	4992
2026-01-25 23:04:26.13	60.41	40.30	-41.0	-43.7	12.5	1.36e-04	0	61	0	816840704	53	4939
2026-01-25 23:04:27.14	60.78	40.47	-40.9	-43.6	12.6	1.11e-04	0	61	0	819986432	53	4882
2026-01-25 23:04:28.16	61.17	40.63	-41.1	-43.8	12.4	1.34e-04	0	61	0	823132160	53	5024
2026-01-25 23:04:29.16	61.55	40.80	-41.1	-43.8	12.4	1.68e-04	0	61	0	825229312	53	5015
2026-01-25 23:04:30.17	61.93	40.96	-41.4	-44.3	11.9	3.19e-04	0	61	0	829423616	53	5285
2026-01-25 23:04:31.18	62.32	41.12	-41.6	-44.7	11.5	7.08e-04	0	61	0	832569344	53	5533
2026-01-25 23:04:32.19	62.72	41.28	-41.6	-44.8	11.4	9.28e-04	0	61	0	835715072	53	5610
2026-01-25 23:04:33.20	63.11	41.44	-41.6	-44.6	11.5	8.81e-04	0	61	0	838860800	53	5527
2026-01-25 23:04:34.21	63.51	41.60	-41.6	-44.7	11.5	8.63e-04	0	61	0	842006528	53	5540
2026-01-25 23:04:35.22	63.92	41.76	-41.6	-44.7	11.5	8.96e-04	0	61	0	845152256	53	5535
2026-01-25 23:04:36.23	64.33	41.92	-41.7	-44.8	11.3	1.01e-03	0	61	0	848297984	53	5650
2026-01-25 23:04:37.24	64.74	42.08	-41.7	-44.9	11.3	1.19e-03	0	61	0	851443712	54	5385
2026-01-25 23:04:38.25	65.16	42.23	-41.5	-44.5	11.6	6.48e-04	0	61	0	854589440	54	5140
2026-01-25 23:04:39.26	65.58	42.39	-41.4	-44.4	11.8	4.61e-04	0	61	0	857735168	54	5084
2026-01-25 23:04:40.27	66.01	42.54	-41.4	-44.4	11.8	5.51e-04	0	61	0	860880896	54	5055
2026-01-25 23:04:41.28	66.44	42.70	-41.5	-44.4	11.8	4.74e-04	0	61	0	864026624	54	5082
2026-01-25 23:04:42.29	66.87	42.85	-41.3	-44.2	12.0	3.45e-04	0	61	0	867172352	54	4963
2026-01-25 23:04:43.30	67.31	43.00	-41.4	-44.3	11.9	4.23e-04	0	61	0	870318080	54	5017
2026-01-25 23:04:44.31	67.75	43.15	-41.2	-44.1	12.1	3.05e-04	0	61	0	873463808	54	4876
2026-01-25 23:04:45.32	68.20	43.29	-41.2	-44.1	12.2	3.11e-04	0	61	0	876609536	54	4872
2026-01-25 23:04:46.33	68.65	43.44	-41.2	-44.0	12.2	2.21e-04	0	61	0	879755264	54	4837
2026-01-25 23:04:47.34	69.10	43.59	-41.2	-44.0	12.3	1.84e-04	0	61	0	882900992	54	4826
2026-01-25 23:04:48.35	69.56	43.73	-41.2	-43.9	12.3	2.01e-04	0	61	0	886046720	54	4811
2026-01-25 23:04:49.37	70.03	43.87	-41.3	-44.1	12.1	2.14e-04	0	61	0	889192448	54	4871
2026-01-25 23:04:50.38	70.49	44.02	-41.4	-44.3	11.9	3.69e-04	0	61	0	892338176	54	4992
2026-01-25 23:04:51.39	70.96	44.15	-41.4	-44.3	11.8	4.40e-04	0	61	0	895483904	54	5034
2026-01-25 23:04:52.40	71.44	44.29	-41.6	-44.7	11.5	7.99e-04	0	61	0	898629632	54	5223
2026-01-25 23:04:53.41	71.92	44.43	-41.6	-44.7	11.5	8.06e-04	0	61	0	901775360	54	5235
2026-01-25 23:04:54.42	72.40	44.56	-41.4	-44.2	11.9	4.66e-04	0	61	0	904921088	54	4971
2026-01-25 23:04:55.43	72.89	44.70	-41.2	-44.0	12.2	2.23e-04	0	61	0	908066816	54	4850
2026-01-25 23:04:56.44	73.38	44.83	-41.2	-44.0	12.3	1.70e-04	0	61	0	911212544	54	4816
2026-01-25 23:04:57.45	73.87	44.95	-41.4	-44.4	11.9	3.49e-04	0	61	0	914358272	54	5044
2026-01-25 23:04:58.46	74.37	45.08	-41.5	-44.5	11.7	5.48e-04	0	61	0	917504000	54	5145
2026-01-25 23:04:59.47	74.87	45.21	-41.5	-44.5	11.8	5.39e-04	0	61	0	920649728	54	5144
2026-01-25 23:05:00.48	75.38	45.33	-41.5	-44.5	11.8	4.74e-04	0	61	0	923795456	54	5117
2026-01-25 23:05:01.49	75.89	45.45	-41.5	-44.4	11.9	4.90e-04	0	61	0	926941184	54	5075
2026-01-25 23:05:02.50	76.40	45.57	-41.5	-44.5	11.7	4.92e-04	0	61	0	930086912	54	5140
2026-01-25 23:05:03.51	76.92	45.69	-41.7	-44.7	11.5	6.45e-04	0	61	0	933232640	54	5259
2026-01-25 23:05:04.52	77.44	45.80	-41.6	-44.7	11.6	6.00e-04	0	61	0	936378368	54	5219
2026-01-25 23:05:05.53	77.97	45.91	-41.6	-44.6	11.7	5.43e-04	0	61	0	939524096	54	5167
2026-01-25 23:05:06.54	78.50	46.02	-41.6	-44.6	11.8	4.98e-04	0	61	0	942669824	54	5161
2026-01-25 23:05:07.55	79.03	46.13	-41.5	-44.5	11.8	5.31e-04	0	61	0	945815552	54	5125
2026-01-25 23:05:08.56	79.57	46.23	-41.5	-44.5	11.7	5.63e-04	0	61	0	948961280	54	5135
2026-01-25 23:05:09.58	80.11	46.34	-41.4	-44.4	11.9	4.40e-04	0	61	0	952107008	54	5049
2026-01-25 23:05:10.58	80.65	46.44	-41.3	-44.1	12.2	2.73e-04	0	61	0	955252736	54	4910
2026-01-25 23:05:11.60	81.21	46.54	-41.3	-44.1	12.2	2.33e-04	0	61	0	958398464	54	4926
2026-01-25 23:05:12.61	81.76	46.63	-41.3	-44.1	12.1	2.37e-04	0	61	0	961544192	54	4926
2026-01-25 23:05:13.62	82.31	46.72	-41.5	-44.4	11.9	3.95e-04	0	61	0	964689920	54	5079
2026-01-25 23:05:14.63	82.87	46.81	-41.6	-44.5	11.7	5.56e-04	0	61	0	967835648	54	5157
2026-01-25 23:05:15.64	83.43	46.90	-41.4	-44.3	11.9	4.81e-04	0	61	0	970981376	54	5031
2026-01-25 23:05:16.65	83.99	46.98	-41.3	-44.2	12.0	2.75e-04	0	61	0	974127104	54	4956
2026-01-25 23:05:17.66	84.56	47.07	-41.3	-44.1	12.0	3.06e-04	0	61	0	977272832	54	4918
2026-01-25 23:05:18.67	85.13	47.14	-41.3	-44.1	12.1	2.70e-04	0	61	0	980418560	54	4905
2026-01-25 23:05:19.68	85.70	47.22	-41.4	-44.2	12.0	2.69e-04	0	61	0	983564288	54	4969
2026-01-25 23:05:20.69	86.27	47.29	-41.2	-44.0	12.3	1.85e-04	0	61	0	986710016	54	4829
2026-01-25 23:05:21.70	86.85	47.36	-41.3	-44.0	12.2	1.98e-04	0	61	0	989855744	54	4857
2026-01-25 23:05:22.71	87.43	47.43	-41.2	-44.0	12.3	1.92e-04	0	61	0	993001472	54	4815
2026-01-25 23:05:23.72	88.01	47.49	-41.2	-44.0	12.2	2.12e-04	0	61	0	996147200	54	4851
2026-01-25 23:05:24.73	88.60	47.55	-41.2	-43.9	12.4	1.50e-04	0	61	0	999292928	54	4798
2026-01-25 23:05:25.74	89.18	47.61	-41.2	-43.9	12.4	1.48e-04	0	61	0	1002438656	54	4777
2026-01-25 23:05:26.75	89.77	47.66	-41.1	-43.8	12.5	1.11e-04	0	61	0	1005584384	54	4745
2026-01-25 23:05:27.76	90.36	47.72	-41.2	-44.0	12.3	1.59e-04	0	61	0	1008730112	54	4843
2026-01-25 23:05:28.77	90.96	47.76	-41.4	-44.3	12.0	3.32e-04	0	61	0	1011875840	54	5002
2026-01-25 23:05:29.78	91.55	47.81	-41.4	-44.3	11.9	3.72e-04	0	61	0	1015021568	54	5027
2026-01-25 23:05:30.79	92.15	47.85	-41.4	-44.3	12.0	3.00e-04	0	61	0	1018167296	54	4996
2026-01-25 23:05:31.81	92.75	47.89	-41.1	-43.9	12.4	1.51e-04	0	61	0	1021313024	54	4766
2026-01-25 23:05:32.82	93.35	47.92	-41.0	-43.5	12.7	8.31e-05	0	61	0	1024458752	54	4598
2026-01-25 23:05:33.83	93.95	47.96	-41.0	-43.6	12.7	5.79e-05	0	61	0	1027604480	53	4881
2026-01-25 23:05:34.84	94.55	47.98	-41.1	-43.8	12.5	8.85e-05	0	61	0	1030750208	53	4990
2026-01-25 23:05:35.85	95.15	48.01	-41.2	-43.9	12.5	1.20e-04	0	61	0	1033895936	53	5043
2026-01-25 23:05:36.86	95.76	48.03	-41.4	-44.2	12.1	2.12e-04	0	61	0	1037041664	53	5275
2026-01-25 23:05:37.87	96.36	48.05	-41.4	-44.2	12.1	3.01e-04	0	61	0	1040187392	53	5263
2026-01-25 23:05:38.88	96.97	48.06	-41.4	-44.2	12.0	2.49e-04	0	61	0	1043333120	53	5279
2026-01-25 23:05:39.89	97.57	48.08	-41.2	-44.0	12.3	1.76e-04	0	61	0	1046478848	53	5125
2026-01-25 23:05:40.90	98.18	48.08	-41.2	-43.9	12.4	1.52e-04	0	61	0	1049624576	53	5095
2026-01-25 23:05:41.92	98.79	48.09	-41.2	-44.0	12.3	1.77e-04	0	61	0	1052770304	53	5111
2026-01-25 23:05:42.93	99.40	48.09	-41.1	-43.8	12.5	1.30e-04	0	61	0	1055916032	53	5017
2026-01-25 23:05:43.94	100.00	48.09	-41.2	-43.9	12.4	1.18e-04	0	61	0	1059061760	53	5053
2026-01-25 23:05:44.95	100.61	48.08	-41.2	-43.9	12.4	1.43e-04	0	61	0	1062207488	53	5072
2026-01-25 23:05:45.96	101.22	48.07	-41.4	-44.2	12.1	2.62e-04	0	61	0	1065353216	53	5263
2026-01-25 23:05:46.97	101.82	48.06	-41.3	-44.2	12.1	2.97e-04	0	61	0	1068498944	53	5231
2026-01-25 23:05:47.98	102.43	48.04	-41.4	-44.3	12.0	2.97e-04	0	61	0	1071644672	53	5297
2026-01-25 23:05:49.00	103.04	48.03	-41.4	-44.3	12.0	3.73e-04	0	61	0	1074790400	53	5309
2026-01-25 23:05:50.01	103.64	48.00	-41.4	-44.3	12.0	2.94e-04	0	61	0	1077936128	53	5295
2026-01-25 23:05:51.01	104.24	47.98	-41.7	-44.8	11.5	5.52e-04	0	61	0	1081081856	53	5617
2026-01-25 23:05:52.03	104.84	47.95	-41.7	-44.9	11.4	8.62e-04	0	61	0	1085276160	54	5341
2026-01-25 23:05:53.04	105.45	47.91	-41.8	-45.0	11.2	1.07e-03	0	61	0	1088421888	54	5455
2026-01-25 23:05:54.05	106.04	47.88	-41.9	-45.2	11.1	1.60e-03	0	61	0	1091567616	54	5530
2026-01-25 23:05:55.06	106.64	47.84	-41.8	-44.9	11.3	1.16e-03	0	61	0	1093664768	54	5392
2026-01-25 23:05:56.07	107.24	47.80	-41.5	-44.4	12.0	5.86e-04	0	62	0	1096810496	54	5051
2026-01-25 23:05:57.08	107.83	47.75	-41.4	-44.3	12.0	3.50e-04	0	62	0	1101004800	54	5007
2026-01-25 23:05:58.09	108.43	47.70	-41.7	-44.7	11.6	4.97e-04	0	61	0	1104150528	54	5250
2026-01-25 23:05:59.10	109.02	47.65	-41.7	-44.7	11.6	7.36e-04	0	61	0	1107296256	54	5259
2026-01-25 23:06:00.11	109.61	47.60	-41.7	-44.8	11.5	8.80e-04	0	61	0	1110441984	54	5340
2026-01-25 23:06:01.12	110.19	47.54	-41.7	-44.8	11.5	7.83e-04	0	61	0	1113587712	54	5297
2026-01-25 23:06:02.13	110.78	47.48	-41.7	-44.7	11.6	8.01e-04	0	62	0	1116733440	54	5254
2026-01-25 23:06:03.14	111.36	47.41	-41.4	-44.3	12.0	4.66e-04	0	61	0	1119879168	54	5008
2026-01-25 23:06:04.15	111.94	47.34	-41.2	-43.8	12.5	1.49e-04	0	61	0	1123024896	54	4753
2026-01-25 23:06:05.16	112.52	47.27	-41.2	-43.9	12.4	1.31e-04	0	61	0	1126170624	54	4781
2026-01-25 23:06:06.17	113.09	47.20	-41.4	-44.2	12.1	2.25e-04	0	61	0	1129316352	54	4953
2026-01-25 23:06:07.18	113.66	47.12	-41.3	-44.2	12.1	2.14e-04	0	61	0	1132462080	54	4941
2026-01-25 23:06:08.19	114.23	47.04	-41.5	-44.4	11.8	4.45e-04	0	62	0	1135607808	54	5097
2026-01-25 23:06:09.20	114.80	46.96	-41.5	-44.5	11.8	5.07e-04	0	61	0	1138753536	54	5137
2026-01-25 23:06:10.20	115.36	46.88	-41.2	-44.0	12.3	2.58e-04	0	61	0	1141899264	54	4821
2026-01-25 23:06:11.21	115.92	46.79	-41.3	-44.1	12.2	1.61e-04	0	61	0	1145044992	54	4874
2026-01-25 23:06:12.23	116.48	46.70	-41.1	-43.8	12.4	1.31e-04	0	61	0	1148190720	54	4747
2026-01-25 23:06:13.24	117.03	46.60	-41.4	-44.3	12.1	1.94e-04	0	61	0	1151336448	54	4985
2026-01-25 23:06:14.24	117.58	46.51	-41.6	-44.7	11.6	6.45e-04	0	61	0	1154482176	54	5228
2026-01-25 23:06:15.26	118.13	46.41	-41.8	-45.0	11.4	9.57e-04	0	61	0	1157627904	54	5403
2026-01-25 23:06:16.27	118.68	46.31	-41.8	-44.9	11.4	1.18e-03	0	62	0	1160773632	54	5360
2026-01-25 23:06:17.28	119.22	46.21	-41.4	-44.3	11.9	6.34e-04	0	61	0	1163919360	54	5035
2026-01-25 23:06:18.29	119.75	46.10	-41.1	-43.8	12.4	1.59e-04	0	61	0	1167065088	54	4743
2026-01-25 23:06:19.30	120.29	45.99	-41.1	-43.7	12.6	1.36e-04	0	61	0	1170210816	54	4684
2026-01-25 23:06:20.31	120.82	45.88	-40.8	-43.4	12.9	6.25e-05	0	61	0	1173356544	53	4772
2026-01-25 23:06:21.32	121.34	45.77	-40.9	-43.5	12.8	6.25e-05	0	61	0	1176502272	53	4815
2026-01-25 23:06:22.33	121.86	45.65	-40.9	-43.4	12.9	6.02e-05	0	61	0	1179648000	53	4807
2026-01-25 23:06:23.34	122.38	45.53	-40.9	-43.5	12.8	6.17e-05	0	61	0	1182793728	53	4817
2026-01-25 23:06:24.35	122.90	45.41	-41.0	-43.7	12.6	9.84e-05	0	61	0	1185939456	53	4938
2026-01-25 23:06:25.36	123.41	45.29	-40.9	-43.5	12.8	6.79e-05	0	62	0	1189085184	53	4819
2026-01-25 23:06:26.37	123.92	45.17	-40.6	-43.0	13.2	3.50e-05	0	61	0	1192230912	53	4593
2026-01-25 23:06:27.38	124.42	45.04	-40.9	-43.4	12.8	4.04e-05	0	61	0	1195376640	53	4805
2026-01-25 23:06:28.39	124.92	44.91	-41.1	-43.7	12.6	1.07e-04	0	61	0	1198522368	53	4972
2026-01-25 23:06:29.40	125.41	44.79	-41.3	-44.0	12.2	2.04e-04	0	61	0	1201668096	53	5157
2026-01-25 23:06:30.41	125.90	44.65	-41.2	-44.0	12.3	1.65e-04	0	61	0	1204813824	53	5140
2026-01-25 23:06:31.42	126.39	44.52	-41.2	-43.9	12.4	1.94e-04	0	61	0	1207959552	53	5062
2026-01-25 23:06:32.43	126.87	44.38	-41.2	-43.9	12.2	2.00e-04	0	61	0	1211105280	53	5094
2026-01-25 23:06:33.44	127.35	44.25	-41.2	-44.0	12.3	2.18e-04	0	61	0	1214251008	53	5117
2026-01-25 23:06:34.45	127.83	44.11	-41.2	-43.9	12.3	1.69e-04	0	61	0	1217396736	53	5089
2026-01-25 23:06:35.46	128.30	43.97	-41.3	-44.1	12.1	2.14e-04	0	61	0	1220542464	53	5193
2026-01-25 23:06:36.47	128.76	43.83	-41.5	-44.5	11.8	3.97e-04	0	61	0	1223688192	53	5407
2026-01-25 23:06:37.48	129.23	43.68	-41.8	-44.9	11.3	8.59e-04	0	62	0	1226833920	54	5373
2026-01-25 23:06:38.49	129.68	43.54	-41.9	-45.2	11.0	1.71e-03	0	61	0	1229979648	54	5537
2026-01-25 23:06:39.50	130.14	43.39	-41.9	-45.1	11.1	1.72e-03	0	61	0	1233125376	54	5483
2026-01-25 23:06:40.51	130.59	43.24	-41.9	-45.1	11.1	1.62e-03	0	62	0	1236271104	54	5481
2026-01-25 23:06:41.53	131.04	43.09	-41.8	-45.0	11.3	1.25e-03	0	61	0	1239416832	54	5437
2026-01-25 23:06:42.54	131.48	42.94	-41.9	-45.1	11.2	1.41e-03	0	61	0	1242562560	54	5496
2026-01-25 23:06:43.55	131.92	42.79	-41.8	-45.0	11.3	1.38e-03	0	62	0	1245708288	54	5424
2026-01-25 23:06:44.56	132.35	42.64	-41.7	-44.7	11.5	8.50e-04	0	61	0	1248854016	54	5263
2026-01-25 23:06:45.57	132.78	42.49	-41.7	-44.7	11.5	7.39e-04	0	62	0	1251999744	54	5253
2026-01-25 23:06:46.58	133.21	42.33	-41.6	-44.7	11.6	6.55e-04	0	62	0	1255145472	54	5220
2026-01-25 23:06:47.59	133.63	42.17	-41.6	-44.6	11.7	6.22e-04	0	62	0	1258291200	54	5175
2026-01-25 23:06:48.60	134.05	42.02	-41.5	-44.4	11.9	3.91e-04	0	61	0	1261436928	54	5066
2026-01-25 23:06:49.61	134.46	41.86	-41.3	-44.2	12.1	2.63e-04	0	61	0	1264582656	54	4941
2026-01-25 23:06:50.62	134.87	41.70	-41.3	-44.1	12.2	2.42e-04	0	61	0	1267728384	54	4892
2026-01-25 23:06:51.63	135.28	41.54	-41.2	-44.0	12.3	2.09e-04	0	61	0	1270874112	54	4852
2026-01-25 23:06:52.64	135.68	41.38	-41.0	-43.7	12.6	1.11e-04	0	61	0	1274019840	54	4674
2026-01-25 23:06:53.65	136.08	41.22	-41.0	-43.6	12.6	8.01e-05	0	61	0	1277165568	53	4905
2026-01-25 23:06:54.66	136.47	41.05	-41.0	-43.6	12.6	1.03e-04	0	62	0	1280311296	53	4894
2026-01-25 23:06:55.67	136.86	40.89	-41.0	-43.6	12.6	1.12e-04	0	61	0	1283457024	53	4915
2026-01-25 23:06:56.68	137.25	40.73	-41.2	-43.9	12.4	1.88e-04	0	61	0	1286602752	53	5068
2026-01-25 23:06:57.69	137.63	40.56	-41.1	-43.9	12.4	1.39e-04	0	61	0	1289748480	53	5042
2026-01-25 23:06:58.70	138.01	40.40	-41.1	-43.9	12.3	2.00e-04	0	61	0	1292894208	53	5064
2026-01-25 23:06:59.71	138.38	40.23	-41.2	-44.0	12.2	1.90e-04	0	61	0	1296039936	53	5146
2026-01-25 23:07:00.72	138.75	40.07	-41.4	-44.2	12.0	2.93e-04	0	61	0	1299185664	53	5277
2026-01-25 23:07:01.73	139.12	39.90	-41.5	-44.4	11.8	4.69e-04	0	61	0	1302331392	53	5369
2026-01-25 23:07:02.74	139.48	39.73	-41.6	-44.6	11.6	6.51e-04	0	61	0	1305477120	53	5476
2026-01-25 23:07:03.75	139.84	39.56	-41.8	-44.9	11.3	1.03e-03	0	61	0	1308622848	54	5369
2026-01-25 23:07:04.76	140.20	39.40	-41.9	-45.2	11.0	1.59e-03	0	61	0	1311768576	54	5576
2026-01-25 23:07:05.77	140.55	39.23	-41.9	-45.2	11.0	2.23e-03	0	62	0	1314914304	54	5551
2026-01-25 23:07:06.78	140.90	39.06	-41.6	-44.7	11.5	9.86e-04	0	61	0	1318060032	54	5255
2026-01-25 23:07:07.79	141.25	38.89	-41.5	-44.5	11.7	6.00e-04	0	62	0	1321205760	54	5109
2026-01-25 23:07:08.80	141.59	38.72	-41.3	-44.1	12.1	3.68e-04	0	61	0	1324351488	54	4905
2026-01-25 23:07:09.81	141.93	38.55	-41.1	-43.9	12.3	2.06e-04	0	61	0	1327497216	54	4774
2026-01-25 23:07:10.82	142.26	38.38	-41.3	-44.1	12.0	3.16e-04	0	62	0	1330642944	54	4918
2026-01-25 23:07:11.83	142.59	38.21	-41.1	-43.9	12.3	1.59e-04	0	61	0	1333788672	54	4799
2026-01-25 23:07:12.84	142.92	38.04	-41.0	-43.7	12.6	1.30e-04	0	61	0	1336934400	54	4661
2026-01-25 23:07:13.85	143.25	37.87	-40.9	-43.5	12.7	7.17e-05	0	62	0	1340080128	53	4842
2026-01-25 23:07:14.86	143.57	37.70	-40.8	-43.4	12.8	6.56e-05	0	62	0	1343225856	53	4793
2026-01-25 23:07:15.87	143.89	37.53	-40.8	-43.4	12.8	5.18e-05	0	61	0	1346371584	53	4775
2026-01-25 23:07:16.88	144.20	37.36	-40.7	-43.3	12.9	7.70e-05	0	61	0	1349517312	53	4728
2026-01-25 23:07:17.89	144.51	37.19	-40.7	-43.2	13.0	3.73e-05	0	61	0	1352663040	53	4680
2026-01-25 23:07:18.90	144.82	37.01	-40.6	-43.1	13.1	4.65e-05	0	62	0	1355808768	53	4644
2026-01-25 23:07:19.91	145.13	36.84	-40.6	-43.0	13.2	2.89e-05	0	62	0	1358954496	53	4583
2026-01-25 23:07:20.92	145.43	36.67	-40.5	-42.9	13.3	1.75e-05	0	62	0	1362100224	53	4497
2026-01-25 23:07:21.93	145.73	36.50	-40.5	-43.0	13.2	2.36e-05	0	61	0	1365245952	52	4823
2026-01-25 23:07:22.94	146.02	36.33	-40.7	-43.2	13.0	3.12e-05	0	61	0	1368391680	52	4934
2026-01-25 23:07:23.95	146.32	36.16	-40.9	-43.5	12.6	7.70e-05	0	62	0	1371537408	52	5128
2026-01-25 23:07:24.96	146.61	35.99	-40.9	-43.6	12.6	9.23e-05	0	61	0	1374683136	52	5164
2026-01-25 23:07:25.97	146.89	35.82	-41.0	-43.7	12.4	1.06e-04	0	62	0	1377828864	52	5260
2026-01-25 23:07:26.98	147.18	35.65	-41.0	-43.8	12.3	1.59e-04	0	62	0	1382023168	52	5303
2026-01-25 23:07:27.99	147.46	35.48	-41.0	-43.7	12.4	1.24e-04	0	62	0	1384120320	52	5236
2026-01-25 23:07:29.00	147.74	35.31	-40.8	-43.5	12.6	7.85e-05	0	61	0	1387266048	52	5110
2026-01-25 23:07:30.02	148.02	35.13	-40.9	-43.5	12.6	8.92e-05	0	61	0	1390411776	52	5110
2026-01-25 23:07:31.03	148.29	34.96	-40.8	-43.4	12.7	8.39e-05	0	62	0	1394606080	52	5081
2026-01-25 23:07:32.03	148.56	34.80	-40.7	-43.3	12.7	7.01e-05	0	62	0	1397751808	52	5010
2026-01-25 23:07:33.04	148.82	34.63	-40.8	-43.4	12.7	6.86e-05	0	62	0	1400897536	52	5071
2026-01-25 23:07:34.06	149.09	34.46	-40.7	-43.3	12.8	6.56e-05	0	62	0	1404043264	52	5019
2026-01-25 23:07:35.07	149.35	34.29	-40.8	-43.3	12.8	6.63e-05	0	62	0	1407188992	52	5038
2026-01-25 23:07:36.08	149.61	34.12	-40.8	-43.5	12.7	9.23e-05	0	62	0	1410334720	52	5105
2026-01-25 23:07:37.09	149.87	33.95	-40.7	-43.3	12.8	5.56e-05	0	62	0	1413480448	52	4995
2026-01-25 23:07:38.10	150.12	33.78	-40.6	-43.0	13.1	3.43e-05	0	61	0	1416626176	52	4869
2026-01-25 23:07:39.11	150.37	33.61	-40.4	-42.8	13.2	2.05e-05	0	61	0	1419771904	52	4742
2026-01-25 23:07:40.12	150.62	33.45	-40.5	-42.9	13.2	1.52e-05	0	62	0	1422917632	52	4806
2026-01-25 23:07:41.13	150.87	33.28	-40.4	-42.8	13.3	2.67e-05	0	62	0	1426063360	52	4751
2026-01-25 23:07:42.14	151.11	33.11	-40.4	-42.8	13.2	1.75e-05	0	62	0	1429209088	52	4753
2026-01-25 23:07:43.15	151.35	32.95	-40.4	-42.8	13.3	2.21e-05	0	61	0	1432354816	52	4731
2026-01-25 23:07:44.16	151.59	32.78	-40.3	-42.7	13.4	7.60e-06	0	62	0	1435500544	52	4690
2026-01-25 23:07:45.17	151.83	32.62	-40.2	-42.5	13.5	5.30e-06	0	62	0	1438646272	52	4571
2026-01-25 23:07:46.18	152.06	32.45	-40.1	-42.4	13.6	1.14e-05	0	62	0	1441792000	52	4530
2026-01-25 23:07:47.19	152.29	32.28	-40.0	-42.3	13.7	4.50e-06	0	62	0	1444937728	52	4469
2026-01-25 23:07:48.20	152.52	32.12	-40.1	-42.4	13.5	8.30e-06	0	62	0	1448083456	52	4520
2026-01-25 23:07:49.21	152.75	31.96	-40.0	-42.3	13.7	1.06e-05	0	62	0	1451229184	52	4468
2026-01-25 23:07:50.23	152.98	31.79	-40.1	-42.4	13.6	8.30e-06	0	62	0	1454374912	52	4500
2026-01-25 23:07:51.24	153.20	31.63	-40.0	-42.3	13.6	7.60e-06	0	61	0	1457520640	52	4477
2026-01-25 23:07:52.25	153.42	31.47	-39.9	-42.1	13.9	5.30e-06	0	62	0	1460666368	51	4633
2026-01-25 23:07:53.26	153.64	31.30	-39.7	-41.9	14.2	7.00e-07	0	62	0	1463812096	51	4497
2026-01-25 23:07:54.27	153.86	31.14	-39.6	-41.7	14.3	0.00e+00	0	62	0	1466957824	51	4407
2026-01-25 23:07:55.28	154.07	30.98	-39.6	-41.6	14.4	7.00e-07	0	62	0	1470103552	51	4384
2026-01-25 23:07:56.29	154.28	30.82	-39.4	-41.4	14.6	0.00e+00	0	61	0	1473249280	50	4530
2026-01-25 23:07:57.30	154.49	30.66	-39.4	-41.4	14.6	7.00e-07	0	62	0	1476395008	50	4534
2026-01-25 23:07:58.31	154.70	30.50	-39.5	-41.5	14.5	0.00e+00	0	62	0	1479540736	50	4589
2026-01-25 23:07:59.32	154.91	30.34	-39.6	-41.7	14.4	0.00e+00	0	61	0	1482686464	50	4669
2026-01-25 23:08:00.34	155.12	30.18	-39.6	-41.7	14.3	0.00e+00	0	62	0	1485832192	50	4683
2026-01-25 23:08:01.35	155.32	30.02	-39.6	-41.8	14.3	1.50e-06	0	62	0	1488977920	50	4707
2026-01-25 23:08:02.36	155.52	29.86	-39.6	-41.7	14.4	0.00e+00	0	61	0	1492123648	50	4666
2026-01-25 23:08:03.37	155.72	29.70	-39.6	-41.7	14.4	0.00e+00	0	62	0	1495269376	50	4669
2026-01-25 23:08:04.38	155.91	29.55	-39.6	-41.7	14.4	0.00e+00	0	62	0	1498415104	50	4675
2026-01-25 23:08:05.39	156.11	29.39	-39.6	-41.7	14.4	0.00e+00	0	62	0	1501560832	50	4655
2026-01-25 23:08:06.40	156.30	29.23	-39.5	-41.6	14.5	0.00e+00	0	62	0	1504706560	50	4610
2026-01-25 23:08:07.41	156.49	29.08	-39.5	-41.5	14.6	1.50e-06	0	61	0	1507852288	50	4564
2026-01-25 23:08:08.42	156.68	28.92	-39.5	-41.5	14.6	0.00e+00	0	62	0	1510998016	50	4577
2026-01-25 23:08:09.43	156.87	28.77	-39.5	-41.5	14.5	0.00e+00	0	61	0	1514143744	50	4584
2026-01-25 23:08:10.44	157.05	28.62	-39.5	-41.5	14.6	7.00e-07	0	62	0	1517289472	50	4586
2026-01-25 23:08:11.44	157.24	28.46	-39.5	-41.6	14.5	7.00e-07	0	62	0	1520435200	50	4622
2026-01-25 23:08:12.45	157.42	28.31	-39.7	-41.8	14.2	1.50e-06	0	62	0	1523580928	50	4752
2026-01-25 23:08:13.46	157.60	28.16	-39.7	-41.8	14.2	7.00e-07	0	61	0	1526726656	50	4756
2026-01-25 23:08:14.47	157.78	28.01	-39.8	-41.9	14.1	7.00e-07	0	61	0	1529872384	50	4803
2026-01-25 23:08:15.48	157.96	27.86	-39.7	-41.8	14.2	7.00e-07	0	62	0	1533018112	50	4744
2026-01-25 23:08:16.49	158.13	27.71	-39.6	-41.6	14.4	1.50e-06	0	61	0	1536163840	50	4651
2026-01-25 23:08:17.50	158.30	27.56	-39.5	-41.6	14.4	0.00e+00	0	62	0	1539309568	50	4623
2026-01-25 23:08:18.51	158.48	27.41	-39.4	-41.3	14.7	0.00e+00	0	62	0	1542455296	50	4489
2026-01-25 23:08:19.52	158.65	27.26	-39.2	-41.2	14.8	0.00e+00	0	62	0	1545601024	50	4422
2026-01-25 23:08:20.53	158.82	27.11	-39.4	-41.4	14.6	1.50e-06	0	61	0	1548746752	50	4513
2026-01-25 23:08:21.54	158.99	26.96	-39.4	-41.4	14.6	1.50e-06	0	62	0	1551892480	50	4521
2026-01-25 23:08:22.55	159.15	26.81	-39.4	-41.4	14.5	7.00e-07	0	62	0	1555038208	50	4538
2026-01-25 23:08:23.56	159.32	26.67	-39.4	-41.4	14.6	7.00e-07	0	62	0	1558183936	50	4532
2026-01-25 23:08:24.57	159.48	26.52	-39.4	-41.4	14.6	0.00e+00	0	62	0	1561329664	50	4528
2026-01-25 23:08:25.58	159.64	26.37	-39.4	-41.4	14.6	7.00e-07	0	62	0	1564475392	50	4523
2026-01-25 23:08:26.60	159.80	26.23	-39.4	-41.5	14.5	7.00e-07	0	61	0	1567621120	50	4556
2026-01-25 23:08:27.61	159.96	26.08	-39.2	-41.2	14.8	0.00e+00	0	61	0	1570766848	50	4435
2026-01-25 23:08:28.62	160.12	25.94	-39.2	-41.2	14.8	0.00e+00	0	62	0	1573912576	50	4410
2026-01-25 23:08:29.63	160.28	25.79	-39.2	-41.2	14.8	1.50e-06	0	62	0	1577058304	50	4401
2026-01-25 23:08:30.64	160.43	25.65	-39.2	-41.1	14.8	0.00e+00	0	62	0	1580204032	50	4368
2026-01-25 23:08:31.65	160.59	25.51	-39.2	-41.2	14.8	0.00e+00	0	62	0	1583349760	50	4407
2026-01-25 23:08:32.66	160.74	25.37	-39.2	-41.2	14.7	0.00e+00	0	62	0	1586495488	50	4416
2026-01-25 23:08:33.67	160.89	25.23	-39.1	-41.1	14.8	0.00e+00	0	61	0	1589641216	50	4378
2026-01-25 23:08:34.68	161.04	25.09	-39.2	-41.2	14.7	0.00e+00	0	62	0	1592786944	50	4399
2026-01-25 23:08:35.69	161.19	24.95	-39.3	-41.3	14.7	7.00e-07	0	62	0	1595932672	50	4456
2026-01-25 23:08:36.70	161.33	24.81	-39.3	-41.3	14.7	0.00e+00	0	62	0	1599078400	50	4445
2026-01-25 23:08:37.71	161.48	24.67	-39.3	-41.3	14.6	0.00e+00	0	61	0	1602224128	50	4485
2026-01-25 23:08:38.72	161.62	24.53	-39.4	-41.5	14.5	7.00e-07	0	62	0	1605369856	50	4548
2026-01-25 23:08:39.73	161.77	24.39	-39.4	-41.5	14.4	0.00e+00	0	62	0	1608515584	50	4590
2026-01-25 23:08:40.74	161.91	24.25	-39.5	-41.5	14.4	1.50e-06	0	62	0	1611661312	50	4595
2026-01-25 23:08:41.75	162.05	24.12	-39.5	-41.6	14.3	3.00e-06	0	62	0	1614807040	50	4628
2026-01-25 23:08:42.76	162.19	23.98	-39.6	-41.7	14.3	1.50e-06	0	61	0	1617952768	50	4669
2026-01-25 23:08:43.77	162.33	23.84	-39.6	-41.8	14.1	3.00e-06	0	62	0	1621098496	50	4722
2026-01-25 23:08:44.78	162.47	23.71	-39.7	-41.9	14.0	7.00e-07	0	62	0	1624244224	50	4794
2026-01-25 23:08:45.79	162.60	23.57	-39.7	-41.9	14.0	1.50e-06	0	61	0	1627389952	50	4773
2026-01-25 23:08:46.80	162.74	23.44	-39.8	-42.1	13.8	5.30e-06	0	62	0	1630535680	50	4871
2026-01-25 23:08:47.81	162.87	23.30	-39.8	-42.0	13.8	5.30e-06	0	62	0	1633681408	50	4863
2026-01-25 23:08:48.82	163.00	23.17	-39.8	-42.1	13.7	7.60e-06	0	62	0	1636827136	50	4899
2026-01-25 23:08:49.83	163.14	23.04	-39.8	-42.1	13.8	4.50e-06	0	62	0	1639972864	50	4888
2026-01-25 23:08:50.84	163.27	22.91	-39.8	-42.0	13.8	3.00e-06	0	61	0	1643118592	50	4869
2026-01-25 23:08:51.85	163.40	22.78	-39.7	-41.9	13.9	3.80e-06	0	62	0	1646264320	50	4808
2026-01-25 23:08:52.86	163.52	22.64	-39.7	-42.0	13.8	3.00e-06	0	62	0	1649410048	50	4826
2026-01-25 23:08:53.87	163.65	22.51	-39.6	-41.8	14.0	3.00e-06	0	61	0	1652555776	50	4739
2026-01-25 23:08:54.88	163.78	22.38	-39.6	-41.7	14.1	3.00e-06	0	62	0	1655701504	50	4703
2026-01-25 23:08:55.89	163.90	22.25	-39.5	-41.7	14.1	0.00e+00	0	62	0	1658847232	50	4672
2026-01-25 23:08:56.90	164.03	22.12	-39.5	-41.6	14.2	7.00e-07	0	62	0	1661992960	50	4640
2026-01-25 23:08:57.91	164.15	22.00	-39.4	-41.5	14.3	7.00e-07	0	62	0	1665138688	50	4548
2026-01-25 23:08:58.92	164.27	21.87	-39.4	-41.5	14.3	7.00e-07	0	61	0	1668284416	50	4560
2026-01-25 23:08:59.93	164.40	21.74	-39.4	-41.4	14.3	3.80e-06	0	62	0	1672478720	50	4543
2026-01-25 23:09:00.94	164.52	21.61	-39.4	-41.5	14.3	1.50e-06	0	62	0	1675624448	50	4552
2026-01-25 23:09:01.95	164.64	21.49	-39.5	-41.6	14.2	0.00e+00	0	62	0	1677721600	50	4613
2026-01-25 23:09:02.96	164.75	21.36	-39.5	-41.6	14.2	1.50e-06	0	62	0	1680867328	50	4621
2026-01-25 23:09:03.97	164.87	21.24	-39.4	-41.5	14.2	1.50e-06	0	62	0	1684013056	50	4596
2026-01-25 23:09:04.98	164.99	21.11	-39.5	-41.6	14.2	0.00e+00	0	62	0	1688207360	50	4623
2026-01-25 23:09:05.99	165.11	20.99	-39.5	-41.6	14.2	3.00e-06	0	62	0	1691353088	50	4640
2026-01-25 23:09:07.00	165.22	20.86	-39.5	-41.7	14.1	1.50e-06	0	62	0	1694498816	50	4654
2026-01-25 23:09:08.01	165.33	20.74	-39.5	-41.6	14.2	7.00e-07	0	62	0	1697644544	50	4618
2026-01-25 23:09:09.02	165.45	20.62	-39.6	-41.7	14.1	3.80e-06	0	62	0	1699741696	50	4681
2026-01-25 23:09:10.03	165.56	20.49	-39.6	-41.7	14.1	3.00e-06	0	62	0	1703936000	50	4670
2026-01-25 23:09:11.04	165.67	20.37	-39.5	-41.6	14.2	7.00e-07	0	62	0	1707081728	50	4639
2026-01-25 23:09:12.05	165.78	20.25	-39.5	-41.6	14.1	2.20e-06	0	61	0	1710227456	50	4639
2026-01-25 23:09:13.06	165.89	20.13	-39.5	-41.6	14.2	1.50e-06	0	62	0	1713373184	50	4631
2026-01-25 23:09:14.07	166.00	20.01	-39.6	-41.7	14.0	2.20e-06	0	62	0	1716518912	50	4696
2026-01-25 23:09:15.08	166.11	19.89	-39.6	-41.8	13.9	4.50e-06	0	62	0	1719664640	50	4750
2026-01-25 23:09:16.10	166.22	19.77	-39.6	-41.9	13.9	4.50e-06	0	62	0	1722810368	50	4762
2026-01-25 23:09:17.10	166.32	19.65	-39.7	-42.0	13.8	6.10e-06	0	62	0	1725956096	50	4818
2026-01-25 23:09:18.11	166.43	19.53	-39.6	-41.8	13.9	9.10e-06	0	62	0	1729101824	50	4757
2026-01-25 23:09:19.12	166.53	19.41	-39.7	-42.0	13.8	3.80e-06	0	61	0	1732247552	50	4831
2026-01-25 23:09:20.13	166.64	19.30	-39.6	-41.8	13.9	3.80e-06	0	61	0	1735393280	50	4739
2026-01-25 23:09:21.15	166.74	19.18	-39.5	-41.7	14.0	3.00e-06	0	62	0	1738539008	50	4695
2026-01-25 23:09:22.16	166.85	19.06	-39.5	-41.7	14.0	1.50e-06	0	62	0	1741684736	50	4696
2026-01-25 23:09:23.17	166.95	18.95	-39.6	-41.8	13.9	1.50e-06	0	62	0	1744830464	50	4715
2026-01-25 23:09:24.17	167.05	18.83	-39.6	-41.8	13.8	4.50e-06	0	62	0	1747976192	50	4743
2026-01-25 23:09:25.18	167.15	18.72	-39.5	-41.7	13.9	3.00e-06	0	62	0	1751121920	50	4682
2026-01-25 23:09:26.19	167.25	18.60	-39.5	-41.7	14.0	2.20e-06	0	62	0	1754267648	50	4670
2026-01-25 23:09:27.20	167.35	18.49	-39.5	-41.8	13.9	2.20e-06	0	62	0	1757413376	50	4715
2026-01-25 23:09:28.21	167.45	18.37	-39.5	-41.7	13.9	5.30e-06	0	62	0	1760559104	50	4688
2026-01-25 23:09:29.22	167.54	18.26	-39.5	-41.7	14.0	1.50e-06	0	61	0	1763704832	50	4669
2026-01-25 23:09:30.23	167.64	18.15	-39.5	-41.7	14.0	2.20e-06	0	62	0	1766850560	50	4664
2026-01-25 23:09:31.24	167.74	18.03	-39.4	-41.6	14.1	7.00e-07	0	62	0	1769996288	50	4625
2026-01-25 23:09:32.25	167.83	17.92	-39.4	-41.5	14.2	3.00e-06	0	62	0	1773142016	50	4569
2026-01-25 23:09:33.26	167.93	17.81	-39.3	-41.4	14.3	0.00e+00	0	62	0	1776287744	50	4531
2026-01-25 23:09:34.27	168.02	17.70	-39.3	-41.3	14.3	0.00e+00	0	62	0	1779433472	50	4493
2026-01-25 23:09:35.28	168.11	17.59	-39.4	-41.5	14.2	1.50e-06	0	62	0	1782579200	50	4551
2026-01-25 23:09:36.29	168.21	17.48	-39.4	-41.5	14.2	7.00e-07	0	62	0	1785724928	50	4582
2026-01-25 23:09:37.30	168.30	17.37	-39.5	-41.6	14.1	1.50e-06	0	62	0	1788870656	50	4620
2026-01-25 23:09:38.31	168.39	17.26	-39.5	-41.6	14.1	1.50e-06	0	62	0	1792016384	50	4633
2026-01-25 23:09:39.32	168.48	17.15	-39.5	-41.6	14.1	3.80e-06	0	62	0	1795162112	50	4636
2026-01-25 23:09:40.33	168.57	17.04	-39.6	-41.8	13.9	3.00e-06	0	62	0	1798307840	50	4722
2026-01-25 23:09:41.34	168.66	16.93	-39.6	-41.8	13.9	3.80e-06	0	62	0	1801453568	50	4752
2026-01-25 23:09:42.35	168.75	16.82	-39.6	-41.9	13.9	3.00e-06	0	61	0	1804599296	50	4763
2026-01-25 23:09:43.36	168.84	16.72	-39.6	-41.8	13.9	2.20e-06	0	62	0	1807745024	50	4730
2026-01-25 23:09:44.37	168.93	16.61	-39.6	-41.8	13.9	1.50e-06	0	62	0	1810890752	50	4718
2026-01-25 23:09:45.38	169.01	16.50	-39.6	-41.9	13.8	4.50e-06	0	62	0	1814036480	50	4762
2026-01-25 23:09:46.39	169.10	16.40	-39.6	-41.9	13.8	3.80e-06	0	62	0	1817182208	50	4762
2026-01-25 23:09:47.40	169.19	16.29	-39.7	-42.0	13.6	8.30e-06	0	61	0	1820327936	50	4844
2026-01-25 23:09:48.41	169.27	16.18	-39.8	-42.1	13.6	9.90e-06	0	61	0	1823473664	50	4885
2026-01-25 23:09:49.43	169.36	16.08	-39.8	-42.1	13.5	9.90e-06	0	62	0	1826619392	50	4904
2026-01-25 23:09:50.44	169.44	15.97	-39.9	-42.3	13.4	1.22e-05	0	62	0	1829765120	50	4984
2026-01-25 23:09:51.45	169.53	15.87	-39.9	-42.3	13.3	1.37e-05	0	62	0	1832910848	50	5029
2026-01-25 23:09:52.46	169.61	15.76	-39.9	-42.4	13.2	1.83e-05	0	62	0	1836056576	50	5059
2026-01-25 23:09:53.47	169.69	15.66	-40.0	-42.4	13.2	1.90e-05	0	62	0	1839202304	50	5073
2026-01-25 23:09:54.48	169.77	15.56	-40.0	-42.5	13.1	2.82e-05	0	62	0	1842348032	50	5103
2026-01-25 23:09:55.49	169.86	15.46	-40.0	-42.5	13.0	4.95e-05	0	62	0	1845493760	50	5151
2026-01-25 23:09:56.50	169.94	15.35	-40.0	-42.5	13.0	3.50e-05	0	62	0	1848639488	50	5119
2026-01-25 23:09:57.51	170.02	15.25	-40.1	-42.5	13.0	4.11e-05	0	61	0	1851785216	50	5144
2026-01-25 23:09:58.52	170.10	15.15	-40.1	-42.6	12.9	4.50e-05	0	62	0	1854930944	50	5189
2026-01-25 23:09:59.52	170.18	15.05	-40.2	-42.7	12.8	6.79e-05	0	62	0	1858076672	50	5269
2026-01-25 23:10:00.53	170.26	14.95	-40.2	-42.8	12.7	6.17e-05	0	62	0	1861222400	50	5292
2026-01-25 23:10:01.55	170.34	14.85	-40.2	-42.9	12.6	8.23e-05	0	62	0	1864368128	51	5044
2026-01-25 23:10:02.56	170.41	14.75	-40.1	-42.7	12.8	6.63e-05	0	62	0	1867513856	51	4954
2026-01-25 23:10:03.56	170.49	14.65	-40.1	-42.7	12.8	6.71e-05	0	62	0	1870659584	51	4950
2026-01-25 23:10:04.58	170.57	14.55	-40.2	-42.8	12.7	6.33e-05	0	62	0	1873805312	51	4988
2026-01-25 23:10:05.59	170.64	14.45	-40.1	-42.6	12.9	6.63e-05	0	62	0	1876951040	51	4915
2026-01-25 23:10:06.60	170.72	14.35	-40.1	-42.6	12.9	4.65e-05	0	62	0	1880096768	51	4895
2026-01-25 23:10:07.61	170.80	14.25	-40.1	-42.6	12.8	6.56e-05	0	62	0	1883242496	51	4907
2026-01-25 23:10:08.62	170.87	14.15	-40.1	-42.6	12.8	6.33e-05	0	62	0	1886388224	51	4920
2026-01-25 23:10:09.63	170.95	14.06	-40.2	-42.7	12.7	5.95e-05	0	62	0	1889533952	51	4974
2026-01-25 23:10:10.64	171.02	13.96	-40.0	-42.5	12.9	4.42e-05	0	62	0	1892679680	51	4863
2026-01-25 23:10:11.65	171.09	13.86	-40.0	-42.5	12.9	4.57e-05	0	62	0	1895825408	51	4840
2026-01-25 23:10:12.66	171.17	13.77	-40.1	-42.6	12.8	5.49e-05	0	62	0	1898971136	51	4898
2026-01-25 23:10:13.67	171.24	13.67	-40.0	-42.5	12.9	5.72e-05	0	62	0	1902116864	51	4829
