passes_logs/2026/01/25/R2.0S_Moscow/R2.0S_Moscow__20260125_095813_NOAA_20_JPSS-1_rec.log

#Pass ID: 20260125_095813_NOAA 20 (JPSS-1)
#Satellite: NOAA 20 (JPSS-1)
#Configuration: NOAA 20
#almurnet v.1.7.20251203
#Start time: 2026-01-25 09:58:15

#Version: 2.2.20231116
#Station: R2.0S_Moscow
#Location: 37.707566 lon 55.798166 lat
#TLE: 1 43013U 17073A   26024.42258823  .00000183  00000+0  10747-3 0  9990
#TLE: 2 43013  98.7646 325.2629 0001105  25.8644 334.2587 14.19539754424075

#Time	Az	El	Level	Level2	SNR	BER	BlckErr	Temp	State	Recorded	gain1	gain2
2026-01-25 09:58:15.96	161.97	2.13	-44.0	-58.5	3.8	1.49e+00	0	53	0	0	59	19255
2026-01-25 09:58:16.96	161.97	2.20	-43.9	-58.5	3.8	1.49e+00	0	54	104	0	59	19226
2026-01-25 09:58:17.97	161.97	2.26	-43.9	-58.5	3.8	1.49e+00	0	54	104	0	59	19235
2026-01-25 09:58:18.98	161.98	2.33	-44.0	-58.5	3.8	1.49e+00	0	54	104	0	59	19316
2026-01-25 09:58:19.99	161.98	2.39	-43.9	-58.5	3.8	1.49e+00	0	54	104	0	59	19278
2026-01-25 09:58:21.00	161.99	2.46	-43.9	-58.5	3.8	1.49e+00	0	54	104	0	59	19228
2026-01-25 09:58:22.01	161.99	2.53	-43.9	-58.5	3.8	1.49e+00	0	54	104	0	59	19251
2026-01-25 09:58:23.02	162.00	2.59	-43.9	-58.4	3.8	1.49e+00	0	54	104	0	59	19130
2026-01-25 09:58:24.03	162.00	2.66	-43.9	-58.4	3.8	1.49e+00	0	54	104	0	59	19159
2026-01-25 09:58:25.04	162.01	2.72	-43.9	-58.4	3.8	1.49e+00	0	54	104	0	59	19127
2026-01-25 09:58:26.05	162.01	2.79	-43.9	-58.4	3.8	1.49e+00	0	54	104	0	59	19123
2026-01-25 09:58:27.06	162.02	2.86	-43.9	-58.4	3.8	1.49e+00	0	54	104	0	59	19110
2026-01-25 09:58:28.07	162.02	2.93	-43.9	-58.4	3.8	1.49e+00	0	54	104	0	59	19117
2026-01-25 09:58:29.08	162.03	2.99	-43.9	-58.4	3.8	1.49e+00	0	55	104	0	59	19074
2026-01-25 09:58:30.09	162.03	3.06	-43.9	-58.4	3.8	1.49e+00	0	55	104	0	59	19074
2026-01-25 09:58:31.10	162.04	3.13	-43.9	-58.4	3.8	1.49e+00	0	55	104	0	59	19160
2026-01-25 09:58:32.11	162.04	3.20	-43.9	-58.4	3.8	1.49e+00	0	55	104	0	59	19082
2026-01-25 09:58:33.13	162.05	3.26	-43.9	-58.4	3.8	1.49e+00	0	55	104	0	59	19008
2026-01-25 09:58:34.14	162.05	3.33	-43.9	-58.4	3.8	1.49e+00	0	55	104	0	59	19002
2026-01-25 09:58:35.15	162.05	3.40	-43.9	-58.4	3.8	1.49e+00	0	55	104	0	59	19046
2026-01-25 09:58:36.16	162.06	3.47	-43.9	-58.4	3.8	1.49e+00	0	55	104	0	59	19050
2026-01-25 09:58:37.17	162.06	3.54	-43.9	-58.3	3.8	1.49e+00	0	55	104	0	59	18913
2026-01-25 09:58:38.18	162.07	3.61	-43.9	-58.3	3.8	1.49e+00	0	55	104	0	59	18806
2026-01-25 09:58:39.19	162.07	3.68	-43.9	-58.2	3.8	1.49e+00	0	55	104	0	59	18724
2026-01-25 09:58:40.20	162.08	3.74	-43.9	-58.2	3.8	1.49e+00	0	55	104	0	59	18703
2026-01-25 09:58:41.21	162.08	3.81	-43.9	-58.1	3.8	1.49e+00	0	55	104	0	59	18323
2026-01-25 09:58:42.22	162.09	3.88	-43.9	-58.1	3.8	1.49e+00	0	55	104	0	59	18469
2026-01-25 09:58:43.23	162.09	3.95	-43.9	-58.2	3.8	1.49e+00	0	55	104	0	59	18612
2026-01-25 09:58:44.24	162.10	4.02	-43.8	-58.2	3.8	1.49e+00	0	56	104	0	59	18579
2026-01-25 09:58:45.25	162.10	4.09	-43.9	-58.2	3.8	1.49e+00	0	55	104	0	59	18675
2026-01-25 09:58:46.26	162.11	4.16	-43.9	-58.3	3.8	1.49e+00	0	55	104	0	59	18825
2026-01-25 09:58:47.28	162.11	4.23	-43.9	-58.3	3.8	1.49e+00	0	56	104	0	59	18786
2026-01-25 09:58:48.29	162.12	4.30	-43.9	-58.3	3.8	1.49e+00	0	56	104	0	59	18733
2026-01-25 09:58:49.30	162.12	4.38	-43.9	-58.2	3.8	1.49e+00	0	56	104	0	59	18637
2026-01-25 09:58:50.31	162.13	4.45	-43.9	-58.3	3.8	1.49e+00	0	56	104	0	59	18824
2026-01-25 09:58:51.32	162.13	4.52	-43.9	-58.3	3.8	1.49e+00	0	56	104	0	59	18868
2026-01-25 09:58:52.33	162.14	4.59	-43.9	-58.3	3.8	1.49e+00	0	56	104	0	59	18907
2026-01-25 09:58:53.34	162.14	4.66	-43.9	-58.3	3.8	1.49e+00	0	56	104	0	59	18839
2026-01-25 09:58:54.35	162.15	4.73	-43.9	-58.3	3.8	1.49e+00	0	56	104	0	59	18877
2026-01-25 09:58:55.36	162.15	4.80	-43.9	-58.3	3.8	1.49e+00	0	56	104	0	59	18851
2026-01-25 09:58:56.37	162.16	4.88	-43.9	-58.3	3.8	1.49e+00	0	56	104	0	59	18904
2026-01-25 09:58:57.38	162.16	4.95	-43.9	-58.4	3.8	1.49e+00	0	56	104	0	59	18978
2026-01-25 09:58:58.39	162.17	5.02	-43.9	-58.3	3.8	1.49e+00	0	56	104	0	59	18815
2026-01-25 09:58:59.40	162.17	5.09	-43.9	-58.2	3.8	1.49e+00	0	56	104	0	59	18662
2026-01-25 09:59:00.41	162.18	5.17	-43.9	-58.2	3.8	1.49e+00	0	56	104	0	59	18653
2026-01-25 09:59:01.42	162.18	5.24	-43.8	-58.1	3.8	1.49e+00	0	56	104	0	59	18316
2026-01-25 09:59:02.43	162.19	5.31	-43.8	-57.9	3.8	1.49e+00	0	56	104	0	59	17968
2026-01-25 09:59:03.44	162.19	5.39	-43.8	-57.8	3.8	1.49e+00	0	57	104	0	59	17703
2026-01-25 09:59:04.45	162.20	5.46	-43.8	-57.7	3.8	1.49e+00	0	56	104	0	59	17537
2026-01-25 09:59:05.46	162.20	5.53	-43.8	-57.2	3.8	1.49e+00	0	56	104	0	59	16682
2026-01-25 09:59:06.47	162.21	5.61	-43.8	-56.8	3.9	1.49e+00	0	56	104	0	59	15934
2026-01-25 09:59:07.48	162.21	5.68	-43.8	-56.7	3.8	1.49e+00	0	57	104	0	59	15589
2026-01-25 09:59:08.49	162.22	5.76	-43.7	-56.5	3.8	1.49e+00	0	56	104	0	59	15288
2026-01-25 09:59:09.50	162.22	5.83	-43.8	-56.3	3.9	1.49e+00	0	57	104	0	59	15018
2026-01-25 09:59:10.51	162.23	5.91	-43.7	-56.2	3.8	1.48e+00	0	57	104	0	59	14819
2026-01-25 09:59:11.52	162.23	5.98	-43.7	-55.6	3.9	1.47e+00	0	57	104	0	59	13851
2026-01-25 09:59:12.54	162.24	6.06	-43.7	-55.5	4.1	1.47e+00	0	57	0	0	59	13629
2026-01-25 09:59:13.55	162.24	6.13	-43.7	-55.7	3.9	1.44e+00	0	57	104	0	59	13969
2026-01-25 09:59:14.56	162.25	6.21	-43.6	-55.4	3.9	1.46e+00	0	57	104	0	59	13422
2026-01-25 09:59:15.57	162.25	6.28	-43.7	-55.7	3.8	1.47e+00	0	57	104	0	59	13890
2026-01-25 09:59:16.58	162.26	6.36	-43.6	-55.3	4.1	1.41e+00	0	57	0	0	59	13278
2026-01-25 09:59:17.59	162.27	6.44	-43.7	-55.6	4.0	1.47e+00	0	57	104	0	59	13846
2026-01-25 09:59:18.60	162.27	6.51	-43.7	-56.0	4.0	1.48e+00	0	57	104	0	59	14500
2026-01-25 09:59:19.61	162.28	6.59	-43.7	-56.3	3.8	1.49e+00	0	57	104	0	59	14982
2026-01-25 09:59:20.62	162.28	6.67	-43.7	-56.6	3.8	1.49e+00	0	57	104	0	59	15410
2026-01-25 09:59:21.63	162.29	6.75	-43.7	-57.0	3.8	1.49e+00	0	57	104	0	59	16264
2026-01-25 09:59:22.64	162.29	6.82	-43.8	-57.4	3.8	1.49e+00	0	57	104	0	59	16897
2026-01-25 09:59:23.65	162.30	6.90	-43.8	-57.5	3.8	1.49e+00	0	57	104	0	59	17150
2026-01-25 09:59:24.66	162.30	6.98	-43.8	-57.6	3.8	1.49e+00	0	57	104	0	59	17464
2026-01-25 09:59:25.67	162.31	7.06	-43.8	-57.4	3.8	1.49e+00	0	58	104	0	59	16979
2026-01-25 09:59:26.68	162.31	7.14	-43.7	-56.7	3.8	1.49e+00	0	57	104	0	59	15752
2026-01-25 09:59:27.69	162.32	7.22	-43.7	-56.1	3.8	1.49e+00	0	57	104	0	59	14595
2026-01-25 09:59:28.71	162.32	7.30	-43.6	-55.0	4.1	1.43e+00	0	58	0	0	59	12816
2026-01-25 09:59:29.72	162.33	7.37	-43.5	-53.9	4.5	1.35e+00	8	58	0	0	59	11311
2026-01-25 09:59:30.73	162.34	7.45	-43.4	-52.8	5.0	8.97e-01	0	58	0	2097152	58	10577
2026-01-25 09:59:31.74	162.34	7.53	-43.3	-52.0	5.5	5.42e-01	0	58	0	4194304	58	9623
2026-01-25 09:59:32.75	162.35	7.61	-43.2	-51.4	6.0	4.13e-01	0	58	0	5242880	58	9003
2026-01-25 09:59:33.76	162.35	7.69	-43.0	-50.5	6.7	2.69e-01	0	58	0	7340032	58	8134
2026-01-25 09:59:34.77	162.36	7.78	-42.9	-50.1	7.1	1.60e-01	0	58	0	9437184	57	8177
2026-01-25 09:59:35.78	162.36	7.86	-42.8	-49.7	7.4	1.26e-01	0	58	0	11534336	57	7831
2026-01-25 09:59:36.79	162.37	7.94	-42.7	-49.2	7.8	1.02e-01	0	58	0	13631488	57	7455
2026-01-25 09:59:37.80	162.37	8.02	-42.7	-49.3	7.8	8.11e-02	0	58	0	14680064	57	7515
2026-01-25 09:59:38.81	162.38	8.10	-44.1	-57.3	3.8	3.96e-01	0	58	104	16777216	58	17689
2026-01-25 09:59:39.82	162.39	8.18	-43.7	-54.4	4.4	1.46e+00	86	58	0	16777216	58	12723
2026-01-25 09:59:40.83	162.39	8.26	-42.9	-49.3	8.1	8.17e-01	0	58	0	17825792	57	7543
2026-01-25 09:59:41.84	162.40	8.35	-44.1	-55.7	4.1	4.93e-01	0	58	0	19922944	58	14724
2026-01-25 09:59:42.85	162.40	8.43	-43.5	-53.0	5.2	5.26e-01	0	58	0	19922944	57	11493
2026-01-25 09:59:43.87	162.41	8.51	-42.8	-49.1	8.1	1.15e+00	0	58	0	20971520	57	7366
2026-01-25 09:59:44.87	162.41	8.60	-42.7	-48.8	8.5	4.43e-02	0	58	0	23068672	57	7047
2026-01-25 09:59:45.89	162.42	8.68	-42.7	-48.6	8.6	3.85e-02	0	58	0	25165824	57	6950
2026-01-25 09:59:46.90	162.42	8.76	-42.7	-48.6	8.7	3.55e-02	0	58	0	27262976	57	6935
2026-01-25 09:59:47.90	162.43	8.85	-42.6	-48.5	8.7	3.52e-02	0	58	0	28311552	57	6859
2026-01-25 09:59:48.91	162.44	8.93	-42.7	-48.6	8.7	3.46e-02	0	58	0	30408704	57	6917
2026-01-25 09:59:49.92	162.44	9.02	-42.6	-48.3	9.1	2.98e-02	0	58	0	32505856	57	6663
2026-01-25 09:59:50.93	162.45	9.10	-42.6	-48.4	8.9	2.89e-02	0	58	0	34603008	57	6800
2026-01-25 09:59:51.94	162.45	9.19	-42.7	-48.5	8.8	2.77e-02	0	58	0	36700160	57	6853
2026-01-25 09:59:52.95	162.46	9.27	-42.6	-48.4	9.0	2.97e-02	0	58	0	37748736	57	6724
2026-01-25 09:59:53.96	162.47	9.36	-42.6	-48.4	8.9	2.70e-02	0	58	0	39845888	57	6762
2026-01-25 09:59:54.97	162.47	9.44	-42.6	-48.4	9.0	2.67e-02	0	58	0	41943040	57	6740
2026-01-25 09:59:55.98	162.48	9.53	-42.6	-48.3	9.1	2.74e-02	0	58	0	44040192	57	6693
2026-01-25 09:59:56.99	162.48	9.62	-42.6	-48.1	9.3	2.13e-02	0	58	0	46137344	57	6522
2026-01-25 09:59:58.00	162.49	9.70	-42.6	-48.1	9.3	1.91e-02	0	58	0	47185920	57	6545
2026-01-25 09:59:59.01	162.50	9.79	-42.6	-48.1	9.4	1.82e-02	0	58	0	49283072	57	6531
2026-01-25 10:00:00.02	162.50	9.88	-42.6	-48.1	9.3	1.59e-02	0	59	0	51380224	57	6555
2026-01-25 10:00:01.03	162.51	9.97	-42.6	-48.0	9.5	1.52e-02	0	58	0	53477376	57	6447
2026-01-25 10:00:02.04	162.51	10.06	-42.6	-48.1	9.4	1.54e-02	0	59	0	55574528	57	6498
2026-01-25 10:00:03.05	162.52	10.14	-42.6	-48.1	9.4	1.75e-02	0	59	0	56623104	57	6505
2026-01-25 10:00:04.06	162.53	10.23	-42.6	-48.0	9.5	1.48e-02	0	59	0	58720256	57	6439
2026-01-25 10:00:05.07	162.53	10.32	-42.6	-48.0	9.5	1.35e-02	0	59	0	60817408	57	6445
2026-01-25 10:00:06.08	162.54	10.41	-42.6	-47.9	9.6	1.54e-02	0	59	0	62914560	57	6386
2026-01-25 10:00:07.09	162.54	10.50	-42.6	-48.1	9.5	1.37e-02	0	59	0	65011712	57	6503
2026-01-25 10:00:08.10	162.55	10.59	-42.6	-48.0	9.6	1.31e-02	0	59	0	67108864	57	6436
2026-01-25 10:00:09.11	162.56	10.68	-42.6	-48.0	9.6	1.26e-02	0	59	0	68157440	57	6442
2026-01-25 10:00:10.12	162.56	10.77	-42.6	-47.9	9.7	1.33e-02	0	59	0	70254592	57	6386
2026-01-25 10:00:11.13	162.57	10.87	-42.6	-47.8	9.8	1.04e-02	0	59	0	72351744	57	6297
2026-01-25 10:00:12.14	162.57	10.96	-42.6	-47.8	9.8	9.56e-03	0	59	0	74448896	57	6292
2026-01-25 10:00:13.15	162.58	11.05	-42.6	-47.8	9.8	9.90e-03	0	59	0	76546048	56	6711
2026-01-25 10:00:14.16	162.59	11.14	-42.6	-47.8	9.8	9.12e-03	0	59	0	77594624	56	6692
2026-01-25 10:00:15.17	162.59	11.23	-42.6	-47.8	9.9	8.65e-03	0	59	0	79691776	56	6683
2026-01-25 10:00:16.18	162.60	11.33	-42.6	-47.8	9.9	9.33e-03	0	59	0	81788928	56	6673
2026-01-25 10:00:17.19	162.61	11.42	-42.6	-47.7	10.0	7.92e-03	0	59	0	83886080	56	6610
2026-01-25 10:00:18.20	162.61	11.51	-42.6	-47.6	10.1	7.62e-03	0	59	0	85983232	56	6535
2026-01-25 10:00:19.21	162.62	11.61	-42.6	-47.6	10.1	7.00e-03	0	59	0	87031808	56	6556
2026-01-25 10:00:20.22	162.62	11.70	-42.6	-47.6	10.1	6.82e-03	0	59	0	89128960	56	6546
2026-01-25 10:00:21.23	162.63	11.80	-42.6	-47.6	10.1	6.42e-03	0	59	0	91226112	56	6537
2026-01-25 10:00:22.24	162.64	11.89	-42.6	-47.6	10.1	6.19e-03	0	59	0	93323264	56	6564
2026-01-25 10:00:23.25	162.64	11.99	-42.6	-47.6	10.1	7.57e-03	0	59	0	95420416	56	6520
2026-01-25 10:00:24.25	162.65	12.08	-42.6	-47.7	10.0	8.14e-03	0	59	0	96468992	56	6643
2026-01-25 10:00:25.26	162.66	12.18	-42.6	-47.7	10.0	7.50e-03	0	59	0	98566144	56	6625
2026-01-25 10:00:26.27	162.66	12.28	-42.6	-47.6	10.2	7.02e-03	0	59	0	100663296	56	6535
2026-01-25 10:00:27.28	162.67	12.37	-42.6	-47.5	10.3	5.78e-03	0	59	0	102760448	56	6460
2026-01-25 10:00:28.29	162.68	12.47	-42.6	-47.5	10.3	6.05e-03	0	59	0	104857600	56	6464
2026-01-25 10:00:29.30	162.68	12.57	-42.6	-47.5	10.3	4.54e-03	0	59	0	105906176	56	6424
2026-01-25 10:00:30.31	162.69	12.67	-42.5	-47.3	10.5	4.50e-03	0	59	0	108003328	56	6333
2026-01-25 10:00:31.32	162.70	12.77	-42.5	-47.3	10.5	4.17e-03	0	59	0	110100480	56	6326
2026-01-25 10:00:32.33	162.70	12.86	-42.5	-47.3	10.5	4.41e-03	0	59	0	112197632	56	6327
2026-01-25 10:00:33.34	162.71	12.96	-42.5	-47.3	10.5	3.86e-03	0	59	0	114294784	56	6323
2026-01-25 10:00:34.35	162.72	13.06	-42.6	-47.4	10.5	3.93e-03	0	59	0	115343360	56	6366
2026-01-25 10:00:35.35	162.72	13.16	-42.5	-47.3	10.5	4.34e-03	0	59	0	117440512	56	6308
2026-01-25 10:00:36.36	162.73	13.26	-42.5	-47.3	10.5	3.87e-03	0	59	0	119537664	56	6323
2026-01-25 10:00:37.37	162.74	13.37	-42.5	-47.2	10.6	3.76e-03	0	60	0	121634816	56	6270
2026-01-25 10:00:38.38	162.74	13.47	-42.5	-47.2	10.7	3.31e-03	0	60	0	123731968	56	6213
2026-01-25 10:00:39.39	162.75	13.57	-42.5	-47.1	10.7	3.03e-03	0	60	0	124780544	56	6188
2026-01-25 10:00:40.40	162.76	13.67	-42.5	-47.1	10.8	2.90e-03	0	59	0	126877696	56	6165
2026-01-25 10:00:41.41	162.76	13.77	-42.5	-47.2	10.7	2.93e-03	0	59	0	128974848	56	6209
2026-01-25 10:00:42.42	162.77	13.88	-42.5	-47.1	10.7	2.88e-03	0	59	0	131072000	56	6193
2026-01-25 10:00:43.43	162.78	13.98	-42.4	-47.0	10.9	2.42e-03	0	60	0	133169152	56	6062
2026-01-25 10:00:44.44	162.79	14.08	-42.4	-47.0	10.9	2.18e-03	0	59	0	135266304	56	6068
2026-01-25 10:00:45.44	162.79	14.19	-42.5	-47.0	10.9	2.29e-03	0	60	0	136314880	56	6123
2026-01-25 10:00:46.45	162.80	14.29	-42.5	-47.1	10.8	2.32e-03	0	60	0	138412032	56	6145
2026-01-25 10:00:47.46	162.81	14.40	-42.4	-47.0	10.9	2.09e-03	0	60	0	140509184	56	6075
2026-01-25 10:00:48.47	162.81	14.50	-42.5	-47.1	10.8	2.25e-03	0	60	0	142606336	56	6146
2026-01-25 10:00:49.48	162.82	14.61	-42.4	-47.0	10.9	2.23e-03	0	60	0	144703488	56	6076
2026-01-25 10:00:50.49	162.83	14.72	-42.4	-46.9	11.0	1.88e-03	0	60	0	145752064	56	5995
2026-01-25 10:00:51.50	162.84	14.83	-42.4	-46.8	11.1	1.58e-03	0	60	0	147849216	56	5964
2026-01-25 10:00:52.51	162.84	14.93	-42.3	-46.8	11.1	1.66e-03	0	60	0	149946368	56	5946
2026-01-25 10:00:53.52	162.85	15.04	-42.4	-46.8	11.1	1.64e-03	0	60	0	152043520	56	5982
2026-01-25 10:00:54.52	162.86	15.15	-42.4	-46.8	11.1	1.49e-03	0	60	0	154140672	56	5975
2026-01-25 10:00:55.53	162.87	15.26	-42.4	-46.8	11.2	1.56e-03	0	60	0	155189248	56	5943
2026-01-25 10:00:56.54	162.87	15.37	-42.3	-46.7	11.2	1.30e-03	0	60	0	157286400	56	5917
2026-01-25 10:00:57.55	162.88	15.48	-42.4	-46.8	11.2	1.37e-03	0	60	0	159383552	56	5948
2026-01-25 10:00:58.56	162.89	15.59	-42.4	-46.8	11.1	1.49e-03	0	60	0	161480704	56	5978
2026-01-25 10:00:59.57	162.89	15.70	-42.4	-46.8	11.2	1.33e-03	0	60	0	163577856	56	5927
2026-01-25 10:01:00.58	162.90	15.81	-42.3	-46.6	11.4	1.17e-03	0	60	0	164626432	56	5821
2026-01-25 10:01:01.59	162.91	15.93	-42.3	-46.6	11.4	1.04e-03	0	60	0	166723584	56	5833
2026-01-25 10:01:02.60	162.92	16.04	-42.3	-46.6	11.4	9.98e-04	0	60	0	168820736	56	5819
2026-01-25 10:01:03.61	162.93	16.15	-42.3	-46.7	11.3	1.08e-03	0	60	0	170917888	56	5862
2026-01-25 10:01:04.61	162.93	16.26	-42.3	-46.7	11.3	1.37e-03	0	60	0	173015040	56	5856
2026-01-25 10:01:05.62	162.94	16.38	-42.3	-46.5	11.5	8.93e-04	0	60	0	174063616	56	5757
2026-01-25 10:01:06.63	162.95	16.49	-42.3	-46.5	11.5	8.96e-04	0	60	0	176160768	56	5774
2026-01-25 10:01:07.64	162.96	16.61	-42.2	-46.5	11.5	8.77e-04	0	60	0	178257920	56	5734
2026-01-25 10:01:08.65	162.96	16.73	-42.2	-46.4	11.5	7.37e-04	0	60	0	180355072	56	5717
2026-01-25 10:01:09.66	162.97	16.84	-42.2	-46.4	11.6	6.75e-04	0	60	0	182452224	56	5693
2026-01-25 10:01:10.67	162.98	16.96	-42.2	-46.4	11.6	7.28e-04	0	60	0	183500800	56	5712
2026-01-25 10:01:11.68	162.99	17.08	-42.2	-46.4	11.6	6.87e-04	0	60	0	185597952	56	5697
2026-01-25 10:01:12.69	163.00	17.20	-42.2	-46.4	11.6	6.00e-04	0	60	0	187695104	56	5658
2026-01-25 10:01:13.70	163.00	17.31	-42.1	-46.2	11.8	4.92e-04	0	60	0	189792256	56	5549
2026-01-25 10:01:14.71	163.01	17.43	-42.1	-46.1	11.9	3.55e-04	0	60	0	191889408	56	5509
2026-01-25 10:01:15.72	163.02	17.55	-42.0	-46.0	12.0	3.23e-04	0	60	0	192937984	56	5436
2026-01-25 10:01:16.73	163.03	17.67	-42.0	-46.0	12.1	3.28e-04	0	60	0	195035136	56	5408
2026-01-25 10:01:17.74	163.04	17.80	-42.0	-46.0	12.0	2.97e-04	0	60	0	197132288	56	5423
2026-01-25 10:01:18.75	163.04	17.92	-42.0	-45.9	12.1	3.02e-04	0	60	0	199229440	56	5383
2026-01-25 10:01:19.76	163.05	18.04	-42.0	-45.9	12.2	2.23e-04	0	60	0	201326592	56	5363
2026-01-25 10:01:20.77	163.06	18.16	-41.8	-45.7	12.2	2.31e-04	0	60	0	203423744	55	5543
2026-01-25 10:01:21.78	163.07	18.29	-41.8	-45.7	12.1	2.41e-04	0	60	0	204472320	55	5589
2026-01-25 10:01:22.79	163.08	18.41	-41.8	-45.7	12.2	1.92e-04	0	60	0	206569472	55	5573
2026-01-25 10:01:23.80	163.09	18.54	-41.7	-45.4	12.4	1.79e-04	0	60	0	208666624	55	5400
2026-01-25 10:01:24.80	163.09	18.66	-41.7	-45.5	12.4	1.50e-04	0	60	0	210763776	55	5428
2026-01-25 10:01:25.81	163.10	18.79	-41.7	-45.5	12.4	1.72e-04	0	60	0	212860928	55	5445
2026-01-25 10:01:26.82	163.11	18.91	-41.7	-45.4	12.5	1.40e-04	0	60	0	213909504	55	5376
2026-01-25 10:01:27.83	163.12	19.04	-41.7	-45.4	12.5	9.61e-05	0	60	0	216006656	55	5354
2026-01-25 10:01:28.85	163.13	19.17	-41.6	-45.3	12.6	1.08e-04	0	60	0	218103808	55	5311
2026-01-25 10:01:29.85	163.14	19.30	-41.6	-45.3	12.6	9.91e-05	0	60	0	220200960	55	5314
2026-01-25 10:01:30.86	163.15	19.43	-41.7	-45.4	12.5	9.76e-05	0	60	0	222298112	55	5348
2026-01-25 10:01:31.87	163.16	19.56	-41.6	-45.4	12.5	9.15e-05	0	60	0	223346688	55	5347
2026-01-25 10:01:32.88	163.16	19.69	-41.6	-45.2	12.7	9.30e-05	0	60	0	225443840	55	5270
2026-01-25 10:01:33.89	163.17	19.82	-41.6	-45.2	12.7	7.93e-05	0	60	0	227540992	55	5244
2026-01-25 10:01:34.90	163.18	19.95	-41.6	-45.2	12.7	7.24e-05	0	60	0	229638144	55	5234
2026-01-25 10:01:35.91	163.19	20.09	-41.6	-45.2	12.7	7.17e-05	0	60	0	231735296	55	5252
2026-01-25 10:01:36.92	163.20	20.22	-41.6	-45.3	12.7	8.01e-05	0	60	0	232783872	55	5280
2026-01-25 10:01:37.93	163.21	20.35	-41.6	-45.3	12.6	9.68e-05	0	60	0	234881024	55	5305
2026-01-25 10:01:38.94	163.22	20.49	-41.7	-45.3	12.6	9.07e-05	0	60	0	236978176	55	5331
2026-01-25 10:01:39.95	163.23	20.62	-41.6	-45.2	12.7	9.23e-05	0	60	0	239075328	55	5263
2026-01-25 10:01:40.96	163.24	20.76	-41.6	-45.2	12.7	8.54e-05	0	60	0	241172480	55	5233
2026-01-25 10:01:41.97	163.25	20.90	-41.6	-45.1	12.8	7.40e-05	0	60	0	242221056	55	5209
2026-01-25 10:01:42.98	163.26	21.04	-41.5	-45.1	12.8	5.64e-05	0	60	0	244318208	55	5179
2026-01-25 10:01:43.99	163.27	21.18	-41.6	-45.2	12.8	4.57e-05	0	60	0	246415360	55	5225
2026-01-25 10:01:45.00	163.28	21.32	-41.6	-45.2	12.7	7.24e-05	0	60	0	248512512	55	5235
2026-01-25 10:01:46.01	163.28	21.46	-41.6	-45.2	12.7	8.85e-05	0	60	0	250609664	55	5255
2026-01-25 10:01:47.02	163.29	21.60	-41.6	-45.3	12.6	6.48e-05	0	60	0	251658240	55	5298
2026-01-25 10:01:48.03	163.30	21.74	-41.5	-45.1	12.9	5.87e-05	0	60	0	253755392	55	5181
2026-01-25 10:01:49.04	163.31	21.88	-41.5	-45.0	12.9	4.65e-05	0	61	0	255852544	55	5154
2026-01-25 10:01:50.05	163.32	22.03	-41.6	-45.2	12.7	5.72e-05	0	61	0	257949696	55	5251
2026-01-25 10:01:51.06	163.33	22.17	-41.5	-45.1	12.8	4.95e-05	0	60	0	260046848	55	5187
2026-01-25 10:01:52.07	163.34	22.32	-41.6	-45.2	12.8	6.71e-05	0	60	0	261095424	55	5223
2026-01-25 10:01:53.08	163.35	22.46	-41.6	-45.2	12.7	7.09e-05	0	61	0	263192576	55	5279
2026-01-25 10:01:54.09	163.36	22.61	-41.6	-45.2	12.7	6.94e-05	0	60	0	265289728	55	5259
2026-01-25 10:01:55.09	163.37	22.75	-41.7	-45.3	12.6	5.34e-05	0	61	0	267386880	55	5317
2026-01-25 10:01:56.10	163.38	22.90	-41.6	-45.3	12.7	9.68e-05	0	61	0	269484032	55	5287
2026-01-25 10:01:57.11	163.39	23.05	-41.6	-45.2	12.7	6.25e-05	0	60	0	271581184	55	5248
2026-01-25 10:01:58.12	163.41	23.20	-41.7	-45.3	12.6	6.94e-05	0	61	0	272629760	55	5333
2026-01-25 10:01:59.13	163.42	23.35	-41.6	-45.2	12.8	6.86e-05	0	61	0	274726912	55	5244
2026-01-25 10:02:00.14	163.43	23.51	-41.6	-45.2	12.8	7.47e-05	0	61	0	276824064	55	5231
2026-01-25 10:02:01.15	163.44	23.66	-41.6	-45.2	12.8	6.10e-05	0	61	0	278921216	55	5250
2026-01-25 10:02:02.16	163.45	23.81	-41.6	-45.2	12.8	5.72e-05	0	61	0	281018368	55	5227
2026-01-25 10:02:03.17	163.46	23.97	-41.7	-45.3	12.6	5.03e-05	0	60	0	282066944	55	5335
2026-01-25 10:02:04.18	163.47	24.12	-41.6	-45.2	12.7	6.33e-05	0	60	0	284164096	55	5265
2026-01-25 10:02:05.19	163.48	24.28	-41.6	-45.1	12.9	5.18e-05	0	60	0	286261248	55	5202
2026-01-25 10:02:06.20	163.49	24.44	-41.6	-45.2	12.8	4.88e-05	0	61	0	288358400	55	5229
2026-01-25 10:02:07.21	163.50	24.60	-41.6	-45.2	12.8	5.72e-05	0	60	0	290455552	55	5227
2026-01-25 10:02:08.22	163.51	24.76	-41.5	-45.1	12.9	4.34e-05	0	61	0	291504128	55	5168
2026-01-25 10:02:09.23	163.52	24.92	-41.6	-45.1	12.9	5.72e-05	0	61	0	293601280	55	5200
2026-01-25 10:02:10.24	163.54	25.08	-41.6	-45.1	12.9	5.49e-05	0	61	0	295698432	55	5170
2026-01-25 10:02:11.25	163.55	25.24	-41.6	-45.1	12.8	5.79e-05	0	61	0	297795584	55	5210
2026-01-25 10:02:12.26	163.56	25.40	-41.7	-45.3	12.7	7.85e-05	0	61	0	299892736	55	5331
2026-01-25 10:02:13.27	163.57	25.57	-41.7	-45.4	12.6	8.69e-05	0	61	0	300941312	55	5357
2026-01-25 10:02:14.28	163.58	25.74	-41.8	-45.5	12.5	9.30e-05	0	61	0	303038464	55	5410
2026-01-25 10:02:15.29	163.59	25.90	-41.8	-45.5	12.5	1.21e-04	0	61	0	305135616	55	5434
2026-01-25 10:02:16.30	163.61	26.07	-41.8	-45.6	12.3	1.44e-04	0	61	0	307232768	55	5498
2026-01-25 10:02:17.31	163.62	26.24	-41.9	-45.7	12.3	2.17e-04	0	61	0	309329920	55	5568
2026-01-25 10:02:18.32	163.63	26.41	-41.9	-45.8	12.2	2.14e-04	0	61	0	310378496	55	5611
2026-01-25 10:02:19.33	163.64	26.58	-41.9	-45.7	12.3	2.72e-04	0	61	0	312475648	55	5582
2026-01-25 10:02:20.34	163.65	26.75	-42.1	-46.1	11.9	3.97e-04	0	61	0	314572800	55	5807
2026-01-25 10:02:21.35	163.67	26.92	-42.1	-46.1	11.9	4.02e-04	0	61	0	316669952	55	5827
2026-01-25 10:02:22.36	163.68	27.10	-42.2	-46.2	11.7	3.60e-04	0	61	0	318767104	55	5911
2026-01-25 10:02:23.37	163.69	27.27	-42.2	-46.3	11.6	4.99e-04	0	61	0	319815680	55	5972
2026-01-25 10:02:24.38	163.70	27.45	-42.3	-46.4	11.5	8.22e-04	0	61	0	321912832	55	6061
2026-01-25 10:02:25.39	163.72	27.63	-42.3	-46.6	11.3	8.54e-04	0	61	0	324009984	55	6202
2026-01-25 10:02:26.40	163.73	27.81	-42.4	-46.8	11.2	1.30e-03	0	61	0	326107136	55	6287
2026-01-25 10:02:27.41	163.74	27.99	-42.5	-46.9	11.1	1.80e-03	0	61	0	328204288	55	6362
2026-01-25 10:02:28.42	163.75	28.17	-42.6	-47.1	10.8	2.29e-03	0	61	0	329252864	55	6557
2026-01-25 10:02:29.43	163.77	28.35	-42.6	-47.3	10.7	3.03e-03	0	61	0	331350016	55	6685
2026-01-25 10:02:30.44	163.78	28.53	-42.7	-47.4	10.5	3.89e-03	0	61	0	333447168	55	6756
2026-01-25 10:02:31.45	163.79	28.72	-42.9	-47.6	10.4	4.27e-03	0	61	0	335544320	56	6565
2026-01-25 10:02:32.46	163.81	28.90	-43.0	-47.8	10.2	5.00e-03	0	61	0	337641472	56	6719
2026-01-25 10:02:33.47	163.82	29.09	-43.0	-47.9	10.2	5.71e-03	0	61	0	339738624	56	6761
2026-01-25 10:02:34.48	163.84	29.28	-43.0	-48.0	10.1	6.81e-03	0	61	0	340787200	56	6843
2026-01-25 10:02:35.49	163.85	29.47	-43.1	-48.1	9.9	8.55e-03	0	61	0	342884352	56	6950
2026-01-25 10:02:36.50	163.86	29.66	-43.1	-48.3	9.7	8.70e-03	0	61	0	344981504	56	7083
2026-01-25 10:02:37.51	163.88	29.85	-43.2	-48.6	9.4	1.26e-02	0	61	0	347078656	57	6913
2026-01-25 10:02:38.52	163.89	30.04	-43.3	-48.7	9.5	1.74e-02	0	61	0	349175808	57	6979
2026-01-25 10:02:39.53	163.91	30.24	-43.3	-48.8	9.3	1.68e-02	0	61	0	350224384	57	7059
2026-01-25 10:02:40.54	163.92	30.44	-43.4	-49.1	9.0	2.13e-02	0	61	0	352321536	57	7289
2026-01-25 10:02:41.55	163.94	30.63	-43.4	-49.0	9.0	2.32e-02	0	61	0	354418688	57	7248
2026-01-25 10:02:42.56	163.95	30.83	-43.4	-49.0	9.1	2.40e-02	0	61	0	356515840	57	7254
2026-01-25 10:02:43.57	163.97	31.03	-43.4	-49.0	9.0	2.49e-02	0	61	0	358612992	57	7261
2026-01-25 10:02:44.58	163.98	31.23	-43.3	-48.8	9.3	1.84e-02	0	61	0	359661568	57	7055
2026-01-25 10:02:45.59	164.00	31.44	-43.3	-48.7	9.3	1.74e-02	0	61	0	361758720	57	6977
2026-01-25 10:02:46.60	164.01	31.64	-43.1	-48.3	9.8	1.29e-02	0	61	0	363855872	57	6706
2026-01-25 10:02:47.61	164.03	31.85	-43.1	-48.1	10.0	9.67e-03	0	61	0	365953024	57	6545
2026-01-25 10:02:48.62	164.04	32.05	-43.0	-48.0	10.2	7.27e-03	0	61	0	368050176	57	6435
2026-01-25 10:02:49.63	164.06	32.26	-43.0	-47.8	10.3	5.60e-03	0	61	0	369098752	57	6329
2026-01-25 10:02:50.64	164.07	32.47	-42.9	-47.8	10.3	5.33e-03	0	61	0	371195904	57	6314
2026-01-25 10:02:51.64	164.09	32.68	-42.9	-47.6	10.5	4.24e-03	0	61	0	373293056	57	6160
2026-01-25 10:02:52.65	164.11	32.90	-42.9	-47.6	10.5	3.11e-03	0	61	0	375390208	57	6194
2026-01-25 10:02:53.66	164.12	33.11	-42.8	-47.5	10.6	3.45e-03	0	61	0	377487360	57	6103
2026-01-25 10:02:54.67	164.14	33.33	-42.8	-47.5	10.6	3.08e-03	0	61	0	378535936	57	6097
2026-01-25 10:02:55.68	164.16	33.54	-42.8	-47.3	10.8	2.86e-03	0	61	0	380633088	57	5973
2026-01-25 10:02:56.69	164.17	33.76	-42.7	-47.1	11.0	2.05e-03	0	61	0	382730240	57	5851
2026-01-25 10:02:57.70	164.19	33.99	-42.6	-47.0	11.2	1.47e-03	0	61	0	384827392	57	5752
2026-01-25 10:02:58.71	164.21	34.21	-42.5	-46.8	11.4	1.45e-03	0	61	0	386924544	57	5617
2026-01-25 10:02:59.72	164.23	34.43	-42.4	-46.4	11.8	6.02e-04	0	61	0	387973120	56	5700
2026-01-25 10:03:00.73	164.25	34.66	-42.2	-46.1	12.2	2.78e-04	0	61	0	390070272	56	5467
2026-01-25 10:03:01.74	164.26	34.88	-42.1	-45.8	12.4	1.90e-04	0	61	0	392167424	56	5337
2026-01-25 10:03:02.75	164.28	35.11	-41.7	-45.2	12.9	7.17e-05	0	61	0	394264576	55	5259
2026-01-25 10:03:03.76	164.30	35.34	-41.6	-45.0	13.1	3.28e-05	0	61	0	396361728	55	5115
2026-01-25 10:03:04.77	164.32	35.58	-41.4	-44.6	13.5	1.67e-05	0	61	0	397410304	54	5206
2026-01-25 10:03:05.78	164.34	35.81	-41.2	-44.4	13.8	7.60e-06	0	61	0	399507456	54	5055
2026-01-25 10:03:06.79	164.36	36.05	-41.3	-44.5	13.7	3.00e-06	0	61	0	401604608	54	5122
2026-01-25 10:03:07.80	164.38	36.28	-41.3	-44.4	13.7	9.90e-06	0	61	0	403701760	54	5094
2026-01-25 10:03:08.80	164.40	36.52	-41.3	-44.5	13.6	3.80e-06	0	61	0	405798912	54	5149
2026-01-25 10:03:09.81	164.42	36.76	-41.3	-44.5	13.7	7.60e-06	0	61	0	407896064	54	5130
2026-01-25 10:03:10.82	164.44	37.00	-41.3	-44.5	13.7	6.10e-06	0	61	0	408944640	54	5112
2026-01-25 10:03:11.83	164.46	37.25	-41.2	-44.4	13.8	9.10e-06	0	61	0	411041792	54	5076
2026-01-25 10:03:12.84	164.48	37.50	-41.1	-44.2	13.9	3.00e-06	0	61	0	413138944	54	4972
2026-01-25 10:03:13.85	164.50	37.74	-41.2	-44.3	13.9	5.30e-06	0	61	0	415236096	54	5018
2026-01-25 10:03:14.86	164.52	37.99	-41.2	-44.3	13.9	4.50e-06	0	61	0	417333248	54	5034
2026-01-25 10:03:15.87	164.54	38.25	-41.1	-44.2	14.0	2.20e-06	0	61	0	418381824	54	4946
2026-01-25 10:03:16.88	164.56	38.50	-41.1	-44.1	14.0	2.20e-06	0	61	0	420478976	54	4900
2026-01-25 10:03:17.89	164.59	38.76	-41.0	-44.0	14.2	2.20e-06	0	61	0	422576128	54	4835
2026-01-25 10:03:18.90	164.61	39.01	-41.0	-44.1	14.1	3.80e-06	0	61	0	424673280	54	4883
2026-01-25 10:03:19.91	164.63	39.27	-40.9	-43.9	14.2	7.00e-07	0	61	0	426770432	53	5077
2026-01-25 10:03:20.92	164.65	39.53	-41.0	-43.9	14.2	1.50e-06	0	61	0	427819008	53	5095
2026-01-25 10:03:21.93	164.68	39.80	-40.9	-43.9	14.3	0.00e+00	0	61	0	429916160	53	5066
2026-01-25 10:03:22.94	164.70	40.06	-41.0	-44.0	14.2	0.00e+00	0	61	0	432013312	53	5116
2026-01-25 10:03:23.95	164.72	40.33	-41.0	-44.0	14.1	1.50e-06	0	61	0	434110464	53	5158
2026-01-25 10:03:24.96	164.75	40.60	-41.0	-44.0	14.1	1.50e-06	0	61	0	436207616	53	5145
2026-01-25 10:03:25.97	164.77	40.87	-41.1	-44.2	14.0	0.00e+00	0	61	0	437256192	53	5226
2026-01-25 10:03:26.97	164.80	41.14	-41.2	-44.3	13.9	3.00e-06	0	61	0	439353344	53	5298
2026-01-25 10:03:27.98	164.82	41.42	-41.1	-44.1	14.0	2.20e-06	0	61	0	441450496	53	5206
2026-01-25 10:03:28.99	164.85	41.70	-41.1	-44.1	14.0	0.00e+00	0	61	0	443547648	53	5189
2026-01-25 10:03:30.00	164.88	41.98	-41.0	-44.0	14.2	0.00e+00	0	61	0	445644800	53	5136
2026-01-25 10:03:31.01	164.90	42.26	-41.0	-44.0	14.2	7.00e-07	0	61	0	446693376	53	5122
2026-01-25 10:03:32.02	164.93	42.54	-41.0	-44.0	14.2	0.00e+00	0	61	0	448790528	53	5104
2026-01-25 10:03:33.03	164.96	42.83	-41.0	-44.0	14.1	0.00e+00	0	61	0	450887680	53	5150
2026-01-25 10:03:34.04	164.98	43.12	-41.1	-44.1	14.1	3.00e-06	0	61	0	452984832	53	5205
2026-01-25 10:03:35.05	165.01	43.41	-41.2	-44.3	13.9	1.50e-06	0	61	0	455081984	53	5310
2026-01-25 10:03:36.05	165.04	43.70	-41.4	-44.6	13.6	6.10e-06	0	61	0	456130560	53	5494
2026-01-25 10:03:37.06	165.07	43.99	-41.6	-45.1	13.1	2.67e-05	0	61	0	458227712	53	5816
2026-01-25 10:03:38.07	165.10	44.29	-41.9	-45.6	12.6	5.56e-05	0	61	0	460324864	54	5815
2026-01-25 10:03:39.08	165.13	44.59	-42.1	-46.0	12.1	2.17e-04	0	61	0	462422016	54	6093
2026-01-25 10:03:40.09	165.16	44.89	-42.3	-46.4	11.7	3.90e-04	0	61	0	464519168	55	6057
2026-01-25 10:03:41.10	165.19	45.20	-42.4	-46.6	11.5	7.84e-04	0	61	0	465567744	55	6150
2026-01-25 10:03:42.11	165.23	45.51	-42.5	-46.9	11.2	1.31e-03	0	61	0	467664896	55	6385
2026-01-25 10:03:43.12	165.26	45.81	-42.6	-47.0	11.1	1.34e-03	0	61	0	469762048	55	6467
2026-01-25 10:03:44.13	165.29	46.13	-42.6	-47.2	11.0	1.74e-03	0	61	0	471859200	55	6572
2026-01-25 10:03:45.14	165.32	46.44	-42.7	-47.3	10.8	2.44e-03	0	61	0	473956352	55	6653
2026-01-25 10:03:46.15	165.36	46.76	-42.9	-47.5	10.7	2.79e-03	0	61	0	475004928	56	6481
2026-01-25 10:03:47.16	165.39	47.07	-43.0	-47.8	10.4	3.38e-03	0	61	0	477102080	56	6673
2026-01-25 10:03:48.17	165.43	47.39	-43.2	-48.3	9.9	7.79e-03	0	61	0	479199232	56	7098
2026-01-25 10:03:49.18	165.46	47.72	-43.1	-48.0	10.1	7.55e-03	0	61	0	481296384	56	6867
2026-01-25 10:03:50.19	165.50	48.04	-43.0	-47.7	10.6	5.74e-03	0	61	0	483393536	56	6612
2026-01-25 10:03:51.20	165.54	48.37	-42.9	-47.5	10.7	4.28e-03	0	61	0	484442112	56	6488
2026-01-25 10:03:52.21	165.58	48.70	-42.9	-47.5	10.6	3.45e-03	0	61	0	486539264	56	6485
2026-01-25 10:03:53.22	165.62	49.04	-43.0	-47.6	10.5	3.18e-03	0	61	0	488636416	56	6564
2026-01-25 10:03:54.23	165.66	49.37	-43.0	-47.7	10.6	3.29e-03	0	61	0	490733568	56	6578
2026-01-25 10:03:55.24	165.70	49.71	-42.9	-47.5	10.7	3.73e-03	0	61	0	492830720	56	6468
2026-01-25 10:03:56.25	165.74	50.05	-43.1	-47.9	10.4	4.24e-03	0	61	0	493879296	56	6749
2026-01-25 10:03:57.26	165.78	50.39	-42.9	-47.6	10.6	4.43e-03	0	61	0	495976448	56	6541
2026-01-25 10:03:58.27	165.82	50.74	-42.7	-47.1	11.2	1.71e-03	0	61	0	498073600	56	6141
2026-01-25 10:03:59.28	165.87	51.09	-42.2	-46.0	12.3	5.32e-04	0	61	0	500170752	56	5426
2026-01-25 10:04:00.29	165.91	51.44	-41.6	-45.0	13.1	7.40e-05	0	61	0	502267904	55	5156
2026-01-25 10:04:01.30	165.96	51.79	-41.3	-44.4	13.8	6.10e-06	0	61	0	504365056	54	5068
2026-01-25 10:04:02.31	166.01	52.15	-41.1	-44.1	14.1	2.20e-06	0	61	0	505413632	54	4873
2026-01-25 10:04:03.32	166.05	52.51	-40.8	-43.6	14.6	2.20e-06	0	61	0	507510784	53	4898
2026-01-25 10:04:04.33	166.10	52.87	-40.5	-43.2	15.0	0.00e+00	0	61	0	509607936	53	4674
2026-01-25 10:04:05.34	166.15	53.24	-40.6	-43.3	14.9	7.00e-07	0	61	0	511705088	53	4713
2026-01-25 10:04:06.34	166.21	53.60	-40.6	-43.2	14.9	7.00e-07	0	61	0	513802240	53	4703
2026-01-25 10:04:07.35	166.26	53.97	-40.6	-43.3	14.9	0.00e+00	0	61	0	514850816	53	4737
2026-01-25 10:04:08.36	166.31	54.34	-40.6	-43.4	14.9	0.00e+00	0	61	0	516947968	53	4769
2026-01-25 10:04:09.37	166.37	54.71	-40.8	-43.6	14.6	0.00e+00	0	61	0	519045120	53	4877
2026-01-25 10:04:10.38	166.43	55.09	-41.0	-43.9	14.3	0.00e+00	0	61	0	521142272	53	5084
2026-01-25 10:04:11.39	166.48	55.47	-41.1	-44.2	14.0	7.00e-07	0	61	0	523239424	53	5222
2026-01-25 10:04:12.40	166.54	55.85	-41.3	-44.4	13.8	2.20e-06	0	61	0	524288000	53	5383
2026-01-25 10:04:13.41	166.61	56.24	-41.5	-44.8	13.4	8.30e-06	0	61	0	526385152	53	5593
2026-01-25 10:04:14.42	166.67	56.63	-41.7	-45.1	13.1	3.43e-05	0	61	0	528482304	53	5842
2026-01-25 10:04:15.43	166.73	57.02	-41.8	-45.4	12.8	6.56e-05	0	61	0	530579456	54	5694
2026-01-25 10:04:16.44	166.80	57.41	-41.8	-45.4	12.8	5.72e-05	0	61	0	532676608	54	5687
2026-01-25 10:04:17.45	166.87	57.81	-41.9	-45.6	12.5	9.38e-05	0	61	0	533725184	54	5825
2026-01-25 10:04:18.46	166.94	58.21	-42.0	-45.7	12.4	1.31e-04	0	61	0	535822336	54	5901
2026-01-25 10:04:19.47	167.01	58.61	-41.9	-45.5	12.6	1.06e-04	0	61	0	537919488	54	5765
2026-01-25 10:04:20.48	167.09	59.01	-41.9	-45.5	12.6	9.61e-05	0	61	0	540016640	54	5765
2026-01-25 10:04:21.49	167.16	59.42	-41.8	-45.3	12.9	7.93e-05	0	61	0	542113792	54	5640
2026-01-25 10:04:22.50	167.24	59.83	-41.7	-45.1	13.1	4.73e-05	0	61	0	543162368	54	5485
2026-01-25 10:04:23.51	167.32	60.24	-41.3	-44.3	13.9	1.06e-05	0	61	0	545259520	54	5026
2026-01-25 10:04:24.52	167.41	60.66	-41.1	-44.0	14.2	3.00e-06	0	61	0	547356672	54	4851
2026-01-25 10:04:25.53	167.49	61.07	-40.9	-43.8	14.4	7.00e-07	0	61	0	549453824	53	5010
2026-01-25 10:04:26.54	167.58	61.49	-40.6	-43.3	14.9	0.00e+00	0	61	0	551550976	53	4747
2026-01-25 10:04:27.55	167.68	61.92	-40.4	-43.1	15.2	0.00e+00	0	61	0	552599552	52	4874
2026-01-25 10:04:28.56	167.77	62.34	-40.3	-42.9	15.3	0.00e+00	0	61	0	554696704	52	4770
2026-01-25 10:04:29.57	167.87	62.77	-40.1	-42.6	15.6	0.00e+00	0	61	0	556793856	52	4631
2026-01-25 10:04:30.58	167.97	63.20	-40.2	-42.6	15.6	0.00e+00	0	61	0	558891008	52	4642
2026-01-25 10:04:31.59	168.08	63.63	-40.3	-42.8	15.4	0.00e+00	0	61	0	560988160	52	4752
2026-01-25 10:04:32.60	168.19	64.07	-40.6	-43.4	14.8	0.00e+00	0	61	0	562036736	52	5055
2026-01-25 10:04:33.61	168.31	64.50	-41.1	-44.1	14.1	7.00e-07	0	61	0	564133888	52	5515
2026-01-25 10:04:34.62	168.42	64.95	-41.6	-44.9	13.3	6.80e-06	0	61	0	566231040	53	5689
2026-01-25 10:04:35.63	168.55	65.39	-41.9	-45.5	12.7	3.12e-05	0	61	0	568328192	54	5776
2026-01-25 10:04:36.64	168.67	65.83	-42.1	-45.9	12.2	1.35e-04	0	61	0	570425344	54	6029
2026-01-25 10:04:37.65	168.81	66.28	-42.2	-46.1	12.1	3.29e-04	0	61	0	572522496	55	5821
2026-01-25 10:04:38.66	168.95	66.73	-42.0	-45.8	12.3	2.25e-04	0	61	0	573571072	55	5626
2026-01-25 10:04:39.67	169.09	67.18	-42.0	-45.7	12.4	1.52e-04	0	62	0	575668224	55	5559
2026-01-25 10:04:40.68	169.24	67.64	-42.1	-45.9	12.3	1.75e-04	0	61	0	577765376	55	5662
2026-01-25 10:04:41.69	169.40	68.09	-42.4	-46.6	11.6	4.19e-04	0	61	0	579862528	55	6133
2026-01-25 10:04:42.70	169.56	68.55	-42.9	-47.5	10.7	1.55e-03	0	61	0	581959680	56	6494
2026-01-25 10:04:43.70	169.74	69.01	-42.9	-47.5	10.7	3.69e-03	0	61	0	583008256	56	6457
2026-01-25 10:04:44.71	169.92	69.47	-42.6	-46.8	11.4	1.73e-03	0	61	0	585105408	56	5960
2026-01-25 10:04:45.72	170.11	69.94	-42.3	-46.2	12.0	5.63e-04	0	61	0	587202560	56	5582
2026-01-25 10:04:46.73	170.30	70.41	-42.1	-45.9	12.4	1.57e-04	0	61	0	589299712	56	5347
2026-01-25 10:04:47.74	170.51	70.88	-41.8	-45.3	12.8	8.54e-05	0	61	0	591396864	55	5325
2026-01-25 10:04:48.75	170.73	71.35	-42.0	-45.8	12.4	7.47e-05	0	61	0	592445440	55	5615
2026-01-25 10:04:49.76	170.97	71.82	-42.5	-46.7	11.3	8.57e-04	0	61	0	594542592	55	6268
2026-01-25 10:04:50.77	171.21	72.30	-42.9	-47.5	10.8	2.29e-03	0	61	0	596639744	56	6486
2026-01-25 10:04:51.78	171.47	72.77	-42.8	-47.2	11.0	2.38e-03	0	61	0	598736896	56	6260
2026-01-25 10:04:52.79	171.74	73.25	-42.7	-47.2	11.0	1.99e-03	0	61	0	600834048	56	6210
2026-01-25 10:04:53.80	172.04	73.73	-42.8	-47.3	10.8	1.89e-03	0	61	0	601882624	56	6300
2026-01-25 10:04:54.81	172.34	74.21	-43.1	-48.0	10.1	4.13e-03	0	61	0	603979776	56	6862
2026-01-25 10:04:55.82	172.67	74.70	-43.2	-48.2	9.9	1.19e-02	0	62	0	606076928	57	6632
2026-01-25 10:04:56.83	173.03	75.18	-43.0	-47.9	10.3	7.57e-03	0	61	0	608174080	57	6363
2026-01-25 10:04:57.84	173.40	75.67	-42.6	-47.0	11.1	2.57e-03	0	61	0	610271232	57	5740
2026-01-25 10:04:58.85	173.81	76.15	-42.7	-47.0	11.2	1.31e-03	0	61	0	611319808	57	5756
2026-01-25 10:04:59.86	174.24	76.64	-42.5	-46.7	11.4	1.18e-03	0	61	0	613416960	57	5572
2026-01-25 10:05:00.87	174.71	77.13	-42.4	-46.5	11.7	8.05e-04	0	61	0	615514112	56	5759
2026-01-25 10:05:01.88	175.21	77.62	-42.4	-46.4	11.7	5.67e-04	0	61	0	617611264	56	5700
2026-01-25 10:05:02.89	175.76	78.11	-42.3	-46.3	11.8	4.03e-04	0	62	0	619708416	56	5650
2026-01-25 10:05:03.90	176.35	78.60	-42.0	-45.7	12.6	1.68e-04	0	61	0	620756992	56	5229
2026-01-25 10:05:04.91	177.00	79.09	-41.4	-44.7	13.3	5.56e-05	0	61	0	622854144	54	5264
2026-01-25 10:05:05.92	177.72	79.58	-41.2	-44.3	13.7	5.30e-06	0	61	0	624951296	54	5039
2026-01-25 10:05:06.93	178.50	80.07	-41.2	-44.2	13.8	2.20e-06	0	61	0	627048448	54	4983
2026-01-25 10:05:07.94	179.36	80.55	-41.2	-44.3	13.8	6.10e-06	0	62	0	629145600	54	5015
2026-01-25 10:05:08.94	180.31	81.04	-41.4	-44.7	13.3	6.10e-06	0	62	0	630194176	54	5267
2026-01-25 10:05:09.95	181.38	81.52	-41.9	-45.7	12.3	9.23e-05	0	62	0	632291328	54	5874
2026-01-25 10:05:10.96	182.58	82.01	-43.1	-48.2	9.9	2.05e-03	0	62	0	634388480	56	7005
2026-01-25 10:05:11.97	183.94	82.49	-43.5	-49.4	8.6	2.48e-02	0	61	0	636485632	57	7627
2026-01-25 10:05:12.98	185.48	82.96	-43.2	-48.4	9.6	1.96e-02	0	62	0	638582784	57	6788
2026-01-25 10:05:13.99	187.25	83.44	-42.8	-47.3	10.7	4.72e-03	0	61	0	640679936	57	5959
2026-01-25 10:05:15.00	189.29	83.90	-42.4	-46.5	11.6	1.97e-03	0	61	0	641728512	56	5782
2026-01-25 10:05:16.01	191.67	84.36	-42.3	-46.2	12.0	3.87e-04	0	61	0	643825664	56	5553
2026-01-25 10:05:17.02	194.45	84.80	-42.2	-46.1	12.1	1.68e-04	0	62	0	645922816	56	5515
2026-01-25 10:05:18.03	197.76	85.24	-42.2	-46.1	12.1	2.84e-04	0	62	0	648019968	56	5500
2026-01-25 10:05:19.04	201.71	85.65	-41.8	-45.4	12.6	1.11e-04	0	62	0	650117120	55	5370
2026-01-25 10:05:20.05	206.47	86.04	-41.9	-45.5	12.5	9.23e-05	0	62	0	651165696	55	5459
2026-01-25 10:05:21.06	212.21	86.39	-42.2	-46.2	11.8	2.26e-04	0	62	0	653262848	55	5914
2026-01-25 10:05:22.07	219.14	86.71	-42.2	-46.2	11.8	4.24e-04	0	62	0	655360000	55	5911
2026-01-25 10:05:23.08	227.36	86.96	-42.5	-46.8	11.3	1.23e-03	0	62	0	657457152	55	6312
2026-01-25 10:05:24.09	236.87	87.15	-42.5	-46.9	11.1	1.73e-03	0	61	0	659554304	55	6383
2026-01-25 10:05:25.10	247.34	87.24	-42.3	-46.3	11.6	1.16e-03	0	62	0	660602880	55	5969
2026-01-25 10:05:26.10	258.07	87.24	-42.1	-46.0	12.1	3.31e-04	0	61	0	662700032	55	5728
2026-01-25 10:05:27.11	268.54	87.14	-42.2	-46.2	11.9	3.05e-04	0	62	0	664797184	55	5872
2026-01-25 10:05:28.12	278.03	86.96	-42.2	-46.1	11.9	2.95e-04	0	61	0	666894336	55	5819
2026-01-25 10:05:29.13	286.24	86.70	-42.5	-46.9	11.1	8.00e-04	0	61	0	668991488	55	6364
2026-01-25 10:05:30.14	293.14	86.39	-42.6	-46.9	11.1	1.73e-03	0	62	0	670040064	55	6405
2026-01-25 10:05:31.15	298.87	86.03	-42.1	-45.9	12.2	7.36e-04	0	62	0	672137216	55	5663
2026-01-25 10:05:32.16	303.62	85.65	-42.0	-45.7	12.4	1.17e-04	0	61	0	674234368	55	5529
2026-01-25 10:05:33.17	307.56	85.23	-41.9	-45.6	12.4	1.23e-04	0	62	0	676331520	55	5505
2026-01-25 10:05:34.18	310.86	84.80	-41.5	-44.8	13.3	5.26e-05	0	62	0	678428672	55	5013
2026-01-25 10:05:35.19	313.64	84.35	-41.6	-44.9	13.2	1.22e-05	0	62	0	679477248	54	5393
2026-01-25 10:05:36.19	315.99	83.90	-42.2	-46.2	11.9	1.62e-04	0	61	0	681574400	54	6248
2026-01-25 10:05:37.20	318.03	83.44	-42.7	-47.2	10.9	1.46e-03	0	61	0	683671552	55	6578
2026-01-25 10:05:38.21	319.80	82.97	-43.4	-49.0	9.2	6.33e-03	0	61	0	685768704	57	7230
2026-01-25 10:05:39.22	321.34	82.49	-43.5	-49.1	8.9	2.96e-02	0	62	0	687865856	57	7332
2026-01-25 10:05:40.23	322.70	82.01	-43.2	-48.1	10.0	1.97e-02	0	61	0	688914432	57	6570
2026-01-25 10:05:41.24	323.90	81.53	-43.0	-47.7	10.6	5.24e-03	0	61	0	691011584	57	6222
2026-01-25 10:05:42.25	324.97	81.04	-42.4	-46.4	11.8	1.13e-03	0	62	0	693108736	56	5713
2026-01-25 10:05:43.26	325.93	80.55	-42.2	-46.0	12.3	2.37e-04	0	61	0	695205888	56	5440
2026-01-25 10:05:44.27	326.79	80.07	-41.6	-45.0	13.2	9.53e-05	0	62	0	697303040	55	5110
2026-01-25 10:05:45.28	327.57	79.58	-41.3	-44.4	13.7	9.90e-06	0	62	0	698351616	54	5089
2026-01-25 10:05:46.29	328.28	79.09	-42.0	-45.8	12.4	2.89e-05	0	61	0	700448768	54	5933
2026-01-25 10:05:47.29	328.92	78.60	-42.7	-47.2	10.9	1.02e-03	0	61	0	702545920	55	6607
2026-01-25 10:05:48.31	329.53	78.11	-42.7	-47.3	10.8	2.29e-03	0	61	0	704643072	55	6683
2026-01-25 10:05:49.31	330.07	77.63	-43.4	-49.0	9.1	8.27e-03	0	61	0	706740224	57	7227
2026-01-25 10:05:50.33	330.58	77.13	-44.1	-51.5	6.7	7.79e-02	0	62	0	708837376	58	9109
2026-01-25 10:05:51.33	331.04	76.65	-44.0	-50.9	7.2	2.08e-01	0	61	0	709885952	58	8535
2026-01-25 10:05:52.34	331.47	76.16	-43.6	-49.5	8.6	5.53e-02	0	62	0	711983104	58	7209
2026-01-25 10:05:53.35	331.88	75.68	-43.4	-48.7	9.5	2.00e-02	0	62	0	714080256	58	6642
2026-01-25 10:05:54.36	332.25	75.19	-43.6	-49.3	8.8	1.50e-02	0	61	0	716177408	58	7088
2026-01-25 10:05:55.37	332.60	74.71	-43.9	-50.3	7.9	6.78e-02	0	61	0	718274560	58	7918
2026-01-25 10:05:56.38	332.93	74.23	-43.5	-49.2	8.8	6.51e-02	0	62	0	719323136	58	7026
2026-01-25 10:05:57.39	333.24	73.75	-42.4	-46.7	11.5	7.18e-03	0	61	0	721420288	57	5531
2026-01-25 10:05:58.40	333.54	73.27	-42.0	-45.8	12.4	2.04e-04	0	61	0	723517440	55	5613
2026-01-25 10:05:59.41	333.81	72.79	-42.2	-46.1	12.1	2.04e-04	0	62	0	725614592	54	6134
2026-01-25 10:06:00.42	334.07	72.31	-42.0	-45.7	12.4	3.58e-04	0	61	0	727711744	55	5552
2026-01-25 10:06:01.43	334.31	71.84	-41.7	-45.1	13.0	6.02e-05	0	61	0	728760320	55	5213
2026-01-25 10:06:02.44	334.55	71.37	-41.4	-44.8	13.4	2.28e-05	0	62	0	730857472	54	5312
2026-01-25 10:06:03.45	334.77	70.90	-41.5	-44.7	13.5	9.10e-06	0	61	0	732954624	54	5276
2026-01-25 10:06:04.46	334.98	70.43	-42.2	-46.0	12.2	1.45e-04	0	62	0	735051776	54	6089
2026-01-25 10:06:05.47	335.17	69.96	-42.7	-47.2	10.9	1.68e-03	0	62	0	737148928	55	6635
2026-01-25 10:06:06.48	335.36	69.50	-42.4	-46.5	11.6	1.68e-03	0	62	0	738197504	55	6110
2026-01-25 10:06:07.49	335.54	69.04	-42.1	-45.9	12.3	2.08e-04	0	61	0	740294656	55	5659
2026-01-25 10:06:08.50	335.72	68.58	-43.1	-47.8	10.5	1.71e-03	0	62	0	742391808	56	6703
2026-01-25 10:06:09.51	335.88	68.12	-44.0	-50.6	7.6	3.83e-02	0	62	0	744488960	58	8206
2026-01-25 10:06:10.51	336.04	67.67	-43.9	-50.4	7.7	1.23e-01	0	62	0	746586112	58	8062
2026-01-25 10:06:11.53	336.19	67.21	-43.2	-48.7	9.4	2.54e-02	0	62	0	747634688	57	6970
2026-01-25 10:06:12.53	336.33	66.76	-43.2	-48.2	9.9	8.93e-03	0	61	0	749731840	57	6614
2026-01-25 10:06:13.54	336.47	66.31	-43.1	-47.9	10.5	6.59e-03	0	62	0	751828992	56	6730
2026-01-25 10:06:14.55	336.61	65.87	-43.3	-48.4	9.9	6.28e-03	0	62	0	753926144	57	6729
2026-01-25 10:06:15.56	336.73	65.42	-43.6	-49.2	9.0	2.28e-02	0	61	0	756023296	57	7403
2026-01-25 10:06:16.57	336.86	64.98	-42.9	-47.3	10.9	1.34e-02	0	62	0	757071872	57	5971
2026-01-25 10:06:17.58	336.98	64.54	-41.6	-44.9	13.3	5.41e-05	0	62	0	759169024	55	5051
2026-01-25 10:06:18.59	337.09	64.11	-41.2	-44.3	14.0	3.80e-06	0	62	0	761266176	53	5285
2026-01-25 10:06:19.60	337.20	63.67	-41.1	-44.0	14.3	3.00e-06	0	61	0	763363328	53	5133
2026-01-25 10:06:20.60	337.31	63.24	-40.8	-43.6	14.6	6.80e-06	0	62	0	765460480	52	5216
2026-01-25 10:06:21.61	337.41	62.81	-40.6	-43.7	14.5	0.00e+00	0	61	0	766509056	52	5269
2026-01-25 10:06:22.62	337.51	62.39	-41.0	-43.9	14.4	3.00e-06	0	62	0	768606208	52	5359
2026-01-25 10:06:23.63	337.60	61.96	-40.7	-43.3	14.9	7.00e-07	0	62	0	770703360	52	5032
2026-01-25 10:06:24.64	337.70	61.54	-40.5	-43.1	15.2	0.00e+00	0	61	0	772800512	52	4881
2026-01-25 10:06:25.65	337.79	61.12	-41.2	-44.2	14.1	1.50e-06	0	61	0	774897664	52	5558
2026-01-25 10:06:26.66	337.87	60.71	-42.3	-46.4	11.8	3.05e-05	0	61	0	776994816	55	6054
2026-01-25 10:06:27.67	337.96	60.29	-43.1	-48.0	10.2	4.60e-03	0	62	0	778043392	56	6878
2026-01-25 10:06:28.68	338.04	59.88	-42.9	-47.3	11.0	2.91e-03	0	62	0	780140544	56	6336
2026-01-25 10:06:29.69	338.12	59.48	-42.7	-46.9	11.4	1.24e-03	0	62	0	782237696	56	6038
2026-01-25 10:06:30.70	338.20	59.07	-42.8	-47.2	11.1	1.33e-03	0	62	0	784334848	56	6249
2026-01-25 10:06:31.71	338.27	58.67	-43.2	-48.2	10.1	4.92e-03	0	61	0	785383424	57	6623
2026-01-25 10:06:32.72	338.34	58.27	-43.4	-48.6	9.7	8.91e-03	0	62	0	787480576	57	6885
2026-01-25 10:06:33.73	338.41	57.87	-43.5	-48.8	9.5	1.38e-02	0	62	0	789577728	57	7088
2026-01-25 10:06:34.73	338.48	57.48	-43.5	-49.2	8.9	2.51e-02	0	62	0	791674880	57	7452
2026-01-25 10:06:35.74	338.55	57.09	-43.3	-48.5	9.8	2.05e-02	0	61	0	793772032	57	6804
2026-01-25 10:06:36.75	338.61	56.70	-42.5	-46.5	11.8	3.45e-03	0	62	0	794820608	57	5451
2026-01-25 10:06:37.76	338.68	56.31	-42.1	-45.8	12.6	1.07e-04	0	62	0	796917760	56	5281
2026-01-25 10:06:38.77	338.74	55.93	-42.1	-45.7	12.7	6.33e-05	0	61	0	799014912	56	5235
2026-01-25 10:06:39.78	338.80	55.55	-42.1	-45.8	12.7	1.13e-04	0	62	0	801112064	56	5281
2026-01-25 10:06:40.79	338.86	55.17	-41.8	-45.2	13.1	4.50e-05	0	61	0	803209216	55	5246
2026-01-25 10:06:41.80	338.92	54.79	-41.6	-44.9	13.3	2.44e-05	0	62	0	805306368	55	5086
2026-01-25 10:06:42.81	338.97	54.42	-41.7	-45.1	13.1	1.75e-05	0	62	0	806354944	55	5193
2026-01-25 10:06:43.82	339.03	54.05	-41.9	-45.5	12.7	6.63e-05	0	62	0	808452096	55	5438
2026-01-25 10:06:44.83	339.08	53.68	-41.8	-45.3	13.0	7.09e-05	0	62	0	810549248	55	5289
2026-01-25 10:06:45.84	339.13	53.31	-41.4	-44.5	13.8	1.67e-05	0	62	0	812646400	54	5123
2026-01-25 10:06:46.85	339.18	52.95	-41.3	-44.4	14.0	6.80e-06	0	62	0	814743552	54	5045
2026-01-25 10:06:47.86	339.23	52.59	-41.6	-44.8	13.5	3.00e-06	0	62	0	815792128	54	5307
2026-01-25 10:06:48.87	339.28	52.23	-42.2	-45.9	12.3	4.34e-05	0	61	0	817889280	54	6052
2026-01-25 10:06:49.88	339.33	51.88	-42.9	-47.5	10.9	5.31e-04	0	62	0	819986432	56	6430
2026-01-25 10:06:50.89	339.37	51.52	-43.5	-48.9	9.3	1.06e-02	0	62	0	822083584	57	7189
2026-01-25 10:06:51.91	339.42	51.17	-43.7	-49.7	8.5	3.21e-02	0	62	0	824180736	57	7835
2026-01-25 10:06:52.92	339.46	50.82	-43.9	-50.2	8.0	5.33e-02	0	62	0	825229312	58	7881
2026-01-25 10:06:53.92	339.51	50.48	-43.9	-50.4	7.8	7.84e-02	0	62	0	827326464	58	8041
2026-01-25 10:06:54.93	339.55	50.14	-43.9	-50.3	7.9	8.75e-02	0	62	0	829423616	58	7941
2026-01-25 10:06:55.94	339.59	49.80	-43.6	-49.3	8.9	5.68e-02	0	62	0	831520768	58	7061
2026-01-25 10:06:56.95	339.63	49.46	-43.5	-48.8	9.4	1.68e-02	0	62	0	833617920	58	6695
2026-01-25 10:06:57.96	339.67	49.13	-43.6	-49.3	9.0	1.69e-02	0	62	0	834666496	58	7064
2026-01-25 10:06:58.97	339.71	48.80	-44.3	-52.0	6.4	7.11e-02	0	62	0	836763648	59	9154
2026-01-25 10:06:59.99	339.75	48.46	-44.7	-55.0	4.5	8.72e-01	1	62	0	838860800	59	12825
2026-01-25 10:07:00.99	339.79	48.14	-44.4	-53.3	5.3	8.81e-01	0	62	0	840957952	60	9997
2026-01-25 10:07:02.00	339.83	47.81	-43.7	-49.6	8.4	1.78e-01	0	62	0	843055104	59	6943
2026-01-25 10:07:03.01	339.86	47.49	-43.0	-47.6	10.6	5.49e-03	0	62	0	845152256	58	5822
2026-01-25 10:07:04.02	339.90	47.17	-42.7	-46.9	11.4	1.36e-03	0	62	0	846200832	57	5689
2026-01-25 10:07:05.03	339.93	46.86	-42.4	-46.4	11.9	5.70e-04	0	62	0	848297984	56	5674
2026-01-25 10:07:06.04	339.97	46.54	-42.3	-46.2	12.1	3.81e-04	0	62	0	850395136	56	5539
2026-01-25 10:07:07.05	340.00	46.23	-42.6	-46.7	11.6	3.82e-04	0	61	0	852492288	56	5877
2026-01-25 10:07:08.06	340.04	45.92	-42.9	-47.4	10.9	1.56e-03	0	62	0	853540864	56	6373
2026-01-25 10:07:09.07	340.07	45.61	-43.0	-47.7	10.6	2.33e-03	0	62	0	855638016	56	6587
2026-01-25 10:07:10.08	340.10	45.30	-43.0	-47.8	10.4	3.76e-03	0	62	0	857735168	56	6715
2026-01-25 10:07:11.08	340.13	45.00	-42.9	-47.5	10.7	3.47e-03	0	62	0	859832320	56	6494
2026-01-25 10:07:12.09	340.16	44.70	-42.8	-47.4	10.9	2.89e-03	0	62	0	861929472	56	6389
2026-01-25 10:07:13.11	340.19	44.40	-42.6	-46.8	11.5	1.00e-03	0	62	0	862978048	56	5947
2026-01-25 10:07:14.11	340.22	44.11	-42.3	-46.3	12.0	5.29e-04	0	62	0	865075200	56	5593
2026-01-25 10:07:15.13	340.25	43.81	-42.1	-45.7	12.7	1.46e-04	0	62	0	867172352	56	5230
2026-01-25 10:07:16.13	340.28	43.52	-41.8	-45.3	12.9	6.71e-05	0	62	0	869269504	55	5287
2026-01-25 10:07:17.14	340.31	43.23	-41.4	-44.6	13.6	8.30e-06	0	62	0	871366656	54	5167
2026-01-25 10:07:18.15	340.34	42.94	-41.6	-44.9	13.3	8.30e-06	0	62	0	873463808	54	5376
2026-01-25 10:07:19.16	340.37	42.66	-41.9	-45.6	12.6	5.41e-05	0	62	0	874512384	54	5799
2026-01-25 10:07:20.17	340.39	42.38	-42.6	-47.0	11.1	5.62e-04	0	62	0	876609536	55	6477
2026-01-25 10:07:21.18	340.42	42.09	-43.3	-48.4	9.8	5.21e-03	0	62	0	878706688	57	6797
2026-01-25 10:07:22.19	340.45	41.82	-43.5	-49.2	8.9	1.92e-02	0	62	0	880803840	57	7447
2026-01-25 10:07:23.20	340.47	41.54	-43.3	-48.5	9.6	1.77e-02	0	62	0	882900992	57	6860
2026-01-25 10:07:24.21	340.50	41.26	-42.9	-47.5	10.7	5.42e-03	0	62	0	883949568	57	6128
2026-01-25 10:07:25.22	340.53	40.99	-42.4	-46.5	11.8	1.73e-03	0	62	0	886046720	56	5763
2026-01-25 10:07:26.23	340.55	40.72	-42.1	-45.8	12.5	1.47e-04	0	62	0	888143872	56	5299
2026-01-25 10:07:27.24	340.58	40.45	-41.8	-45.4	12.8	5.64e-05	0	62	0	890241024	55	5345
2026-01-25 10:07:28.25	340.60	40.19	-41.9	-45.5	12.7	6.79e-05	0	61	0	892338176	55	5458
2026-01-25 10:07:29.26	340.62	39.92	-41.9	-45.5	12.6	8.08e-05	0	62	0	893386752	55	5458
2026-01-25 10:07:30.27	340.65	39.66	-42.2	-46.1	12.0	1.59e-04	0	62	0	895483904	55	5826
2026-01-25 10:07:31.28	340.67	39.40	-42.6	-47.0	11.1	5.75e-04	0	62	0	897581056	55	6436
2026-01-25 10:07:32.29	340.69	39.14	-43.2	-48.3	9.9	6.18e-03	0	62	0	899678208	56	7091
2026-01-25 10:07:33.30	340.72	38.88	-43.6	-49.5	8.7	2.31e-02	0	62	0	901775360	57	7644
2026-01-25 10:07:34.31	340.74	38.63	-43.9	-50.7	7.4	6.66e-02	0	62	0	902823936	58	8324
2026-01-25 10:07:35.32	340.76	38.37	-44.1	-51.5	6.7	1.39e-01	0	62	0	904921088	58	9128
2026-01-25 10:07:36.33	340.78	38.12	-44.0	-51.2	6.9	2.11e-01	0	62	0	907018240	58	8811
2026-01-25 10:07:37.34	340.80	37.87	-43.9	-50.7	7.5	1.40e-01	0	62	0	909115392	58	8304
2026-01-25 10:07:38.35	340.83	37.63	-43.7	-49.9	8.2	8.92e-02	0	62	0	911212544	58	7546
2026-01-25 10:07:39.36	340.85	37.38	-43.3	-48.6	9.5	2.03e-02	0	62	0	912261120	58	6514
2026-01-25 10:07:40.37	340.87	37.14	-43.1	-48.0	10.1	8.95e-03	0	62	0	914358272	58	6129
2026-01-25 10:07:41.38	340.89	36.90	-42.9	-47.6	10.6	5.00e-03	0	62	0	916455424	57	6140
2026-01-25 10:07:42.38	340.91	36.66	-42.8	-47.3	10.9	2.74e-03	0	62	0	918552576	57	5937
2026-01-25 10:07:43.40	340.93	36.42	-42.8	-47.3	10.9	2.20e-03	0	61	0	920649728	57	5957
2026-01-25 10:07:44.40	340.95	36.18	-42.9	-47.5	10.7	2.38e-03	0	61	0	921698304	57	6091
2026-01-25 10:07:45.41	340.97	35.95	-42.8	-47.2	10.9	2.35e-03	0	62	0	923795456	57	5907
2026-01-25 10:07:46.42	340.99	35.71	-42.8	-47.4	10.8	2.30e-03	0	62	0	925892608	57	6024
2026-01-25 10:07:47.43	341.01	35.48	-42.9	-47.6	10.6	2.66e-03	0	62	0	927989760	57	6135
2026-01-25 10:07:48.44	341.03	35.25	-43.1	-48.1	9.9	4.47e-03	0	62	0	930086912	57	6566
2026-01-25 10:07:49.45	341.05	35.03	-43.4	-49.0	9.1	1.56e-02	0	62	0	931135488	57	7230
2026-01-25 10:07:50.46	341.06	34.80	-43.7	-50.1	8.0	4.36e-02	0	62	0	933232640	57	8206
2026-01-25 10:07:51.47	341.08	34.57	-44.0	-51.3	6.8	9.83e-02	0	61	0	935329792	58	8897
2026-01-25 10:07:52.48	341.10	34.35	-44.2	-52.1	6.1	2.74e-01	0	62	0	937426944	58	9812
2026-01-25 10:07:53.49	341.12	34.13	-44.3	-52.6	5.7	3.83e-01	0	62	0	939524096	59	9827
2026-01-25 10:07:54.49	341.14	33.91	-44.3	-52.9	5.5	4.58e-01	0	62	0	941621248	59	10173
2026-01-25 10:07:55.50	341.15	33.69	-44.3	-52.7	5.7	4.14e-01	0	62	0	942669824	59	9896
2026-01-25 10:07:56.51	341.17	33.48	-44.4	-53.4	5.2	3.74e-01	0	62	0	944766976	59	10769
2026-01-25 10:07:57.53	341.19	33.26	-44.0	-52.0	6.4	1.44e+00	0	62	104	945815552	60	8579
2026-01-25 10:07:58.54	341.21	33.04	-44.5	-55.1	4.5	1.39e+00	22	62	104	945815552	60	12292
2026-01-25 10:07:59.55	341.22	32.83	-43.7	-50.1	8.0	5.50e-01	0	62	0	946864128	59	7350
2026-01-25 10:08:00.56	341.24	32.62	-44.0	-51.2	6.7	1.14e+00	0	62	0	948961280	59	8296
2026-01-25 10:08:01.57	341.26	32.41	-43.4	-49.1	8.9	2.94e-02	0	62	0	951058432	58	6900
2026-01-25 10:08:02.58	341.27	32.20	-43.4	-49.0	8.9	2.58e-02	0	62	0	952107008	58	6874
2026-01-25 10:08:03.59	341.29	32.00	-43.4	-49.0	9.0	2.59e-02	0	62	0	954204160	58	6844
2026-01-25 10:08:04.60	341.30	31.79	-43.4	-49.1	8.8	2.97e-02	0	62	0	956301312	58	6932
2026-01-25 10:08:05.61	341.32	31.59	-43.4	-49.1	8.9	2.92e-02	0	62	0	958398464	58	6880
2026-01-25 10:08:06.62	341.34	31.39	-43.4	-49.3	8.7	3.34e-02	0	62	0	960495616	58	7044
2026-01-25 10:08:07.62	341.35	31.19	-43.4	-49.2	8.8	3.37e-02	0	62	0	961544192	58	7010
2026-01-25 10:08:08.63	341.37	30.99	-43.4	-49.1	8.8	3.00e-02	0	62	0	963641344	58	6944
2026-01-25 10:08:09.65	341.38	30.79	-43.4	-49.1	8.8	2.90e-02	0	62	0	965738496	58	6944
2026-01-25 10:08:10.65	341.40	30.59	-43.4	-49.2	8.8	3.19e-02	0	62	0	967835648	58	6972
2026-01-25 10:08:11.66	341.41	30.40	-43.4	-49.1	8.8	3.05e-02	0	62	0	969932800	58	6932
2026-01-25 10:08:12.67	341.43	30.20	-43.4	-49.1	8.9	3.07e-02	0	62	0	970981376	58	6896
2026-01-25 10:08:13.68	341.44	30.01	-43.3	-49.1	8.8	2.83e-02	0	62	0	973078528	58	6884
2026-01-25 10:08:14.69	341.46	29.82	-43.3	-48.9	9.0	2.49e-02	0	62	0	975175680	58	6755
2026-01-25 10:08:15.70	341.47	29.63	-43.2	-48.7	9.3	2.06e-02	0	62	0	977272832	58	6587
2026-01-25 10:08:16.71	341.49	29.44	-43.1	-48.6	9.4	1.87e-02	0	62	0	979369984	58	6504
2026-01-25 10:08:17.72	341.50	29.25	-43.1	-48.4	9.5	1.51e-02	0	62	0	980418560	58	6383
2026-01-25 10:08:18.73	341.51	29.06	-43.1	-48.5	9.5	1.48e-02	0	62	0	982515712	58	6441
2026-01-25 10:08:19.74	341.53	28.88	-42.9	-48.1	9.8	1.25e-02	0	62	0	984612864	57	6508
2026-01-25 10:08:20.75	341.54	28.70	-42.8	-47.8	10.2	8.09e-03	0	62	0	986710016	57	6276
2026-01-25 10:08:21.76	341.56	28.51	-42.8	-47.6	10.3	5.49e-03	0	62	0	988807168	57	6202
2026-01-25 10:08:22.77	341.57	28.33	-42.7	-47.5	10.4	4.73e-03	0	62	0	989855744	57	6076
2026-01-25 10:08:23.78	341.58	28.15	-42.7	-47.5	10.4	4.27e-03	0	62	0	991952896	57	6115
2026-01-25 10:08:24.78	341.60	27.97	-42.6	-47.2	10.7	4.13e-03	0	62	0	994050048	57	5889
2026-01-25 10:08:25.79	341.61	27.79	-42.4	-46.7	11.2	1.70e-03	0	62	0	996147200	56	5916
2026-01-25 10:08:26.80	341.62	27.62	-42.2	-46.3	11.6	1.06e-03	0	62	0	998244352	56	5654
2026-01-25 10:08:27.81	341.64	27.44	-42.1	-46.2	11.7	5.81e-04	0	62	0	999292928	56	5535
2026-01-25 10:08:28.82	341.65	27.27	-42.1	-46.1	11.9	5.10e-04	0	62	0	1001390080	56	5486
2026-01-25 10:08:29.83	341.66	27.09	-41.8	-45.7	12.1	3.33e-04	0	62	0	1003487232	55	5541
2026-01-25 10:08:30.84	341.68	26.92	-41.8	-45.7	12.1	2.61e-04	0	62	0	1005584384	55	5544
2026-01-25 10:08:31.85	341.69	26.75	-41.8	-45.7	12.1	3.34e-04	0	62	0	1007681536	55	5532
2026-01-25 10:08:32.86	341.70	26.58	-41.7	-45.6	12.1	2.71e-04	0	62	0	1009778688	55	5506
2026-01-25 10:08:33.87	341.71	26.41	-41.8	-45.7	12.0	2.97e-04	0	62	0	1010827264	55	5583
2026-01-25 10:08:34.88	341.73	26.24	-41.8	-45.8	11.9	3.90e-04	0	62	0	1012924416	55	5625
2026-01-25 10:08:35.89	341.74	26.07	-41.7	-45.7	11.9	3.94e-04	0	62	0	1015021568	55	5546
2026-01-25 10:08:36.90	341.75	25.91	-41.8	-45.9	11.7	5.24e-04	0	62	0	1017118720	55	5682
2026-01-25 10:08:37.91	341.76	25.74	-41.9	-46.1	11.5	6.30e-04	0	62	0	1019215872	55	5789
2026-01-25 10:08:38.92	341.78	25.58	-41.8	-45.8	11.7	7.23e-04	0	62	0	1020264448	55	5655
2026-01-25 10:08:39.93	341.79	25.42	-41.8	-45.9	11.6	5.43e-04	0	62	0	1022361600	55	5691
2026-01-25 10:08:40.94	341.80	25.25	-41.8	-45.9	11.6	7.22e-04	0	62	0	1024458752	55	5670
2026-01-25 10:08:41.95	341.81	25.09	-41.7	-45.7	11.8	5.55e-04	0	62	0	1026555904	55	5560
2026-01-25 10:08:42.96	341.82	24.93	-41.7	-45.8	11.7	5.35e-04	0	62	0	1028653056	55	5593
2026-01-25 10:08:43.97	341.84	24.77	-41.5	-45.5	12.0	3.65e-04	0	62	0	1029701632	55	5413
2026-01-25 10:08:44.98	341.85	24.62	-41.4	-45.3	12.2	2.40e-04	0	62	0	1031798784	54	5594
2026-01-25 10:08:45.99	341.86	24.46	-41.4	-45.1	12.3	2.08e-04	0	62	0	1033895936	54	5523
2026-01-25 10:08:47.00	341.87	24.30	-41.3	-44.9	12.5	1.72e-04	0	62	0	1035993088	54	5396
2026-01-25 10:08:48.01	341.88	24.15	-41.3	-44.9	12.5	1.02e-04	0	62	0	1038090240	54	5401
2026-01-25 10:08:49.01	341.89	23.99	-41.1	-44.8	12.6	1.25e-04	0	62	0	1039138816	54	5294
2026-01-25 10:08:50.02	341.90	23.84	-41.0	-44.6	12.7	6.71e-05	0	62	0	1041235968	54	5190
2026-01-25 10:08:51.03	341.92	23.69	-40.9	-44.4	13.0	5.34e-05	0	62	0	1043333120	53	5357
2026-01-25 10:08:52.04	341.93	23.54	-40.8	-44.3	13.0	4.73e-05	0	62	0	1045430272	53	5280
2026-01-25 10:08:53.05	341.94	23.39	-40.9	-44.4	12.7	5.72e-05	0	62	0	1047527424	53	5390
2026-01-25 10:08:54.06	341.95	23.24	-40.7	-44.2	13.0	4.19e-05	0	62	0	1048576000	53	5247
2026-01-25 10:08:55.07	341.96	23.09	-40.6	-44.0	13.1	3.12e-05	0	62	0	1050673152	53	5151
2026-01-25 10:08:56.08	341.97	22.94	-40.6	-44.1	12.9	3.81e-05	0	62	0	1052770304	53	5188
2026-01-25 10:08:57.09	341.98	22.79	-40.7	-44.3	12.6	6.86e-05	0	62	0	1054867456	53	5323
2026-01-25 10:08:58.10	341.99	22.64	-40.7	-44.4	12.4	1.49e-04	0	62	0	1056964608	53	5366
2026-01-25 10:08:59.11	342.00	22.50	-40.4	-44.0	12.6	1.17e-04	0	62	0	1058013184	52	5425
2026-01-25 10:09:00.12	342.01	22.35	-40.3	-43.9	12.5	1.07e-04	0	62	0	1060110336	52	5388
2026-01-25 10:09:01.13	342.02	22.21	-40.3	-44.2	12.2	1.66e-04	0	62	0	1062207488	52	5532
2026-01-25 10:09:02.14	342.04	22.07	-40.4	-44.4	11.8	3.42e-04	0	62	0	1064304640	52	5714
2026-01-25 10:09:03.15	342.05	21.92	-40.4	-44.4	11.8	4.27e-04	0	62	0	1066401792	52	5666
2026-01-25 10:09:04.16	342.06	21.78	-40.4	-44.4	11.7	5.04e-04	0	62	0	1067450368	52	5677
2026-01-25 10:09:05.17	342.07	21.64	-40.3	-44.4	11.7	5.52e-04	0	62	0	1069547520	52	5673
2026-01-25 10:09:06.18	342.08	21.50	-40.5	-44.9	11.0	9.89e-04	0	62	0	1071644672	52	6033
2026-01-25 10:09:07.19	342.09	21.36	-40.7	-45.7	10.1	4.69e-03	0	62	0	1073741824	52	6574
2026-01-25 10:09:08.20	342.10	21.22	-41.0	-46.7	8.9	1.57e-02	0	62	0	1075838976	52	7425
2026-01-25 10:09:09.21	342.11	21.09	-41.2	-47.8	7.6	4.87e-02	0	62	0	1076887552	52	8396
2026-01-25 10:09:10.22	342.12	20.95	-41.3	-49.0	6.3	2.03e-01	0	62	0	1078984704	53	9142
2026-01-25 10:09:11.22	342.13	20.81	-41.4	-50.1	5.4	3.91e-01	0	62	0	1081081856	53	10371
2026-01-25 10:09:12.23	342.14	20.68	-41.4	-51.3	4.7	6.71e-01	0	62	0	1083179008	53	11892
2026-01-25 10:09:13.24	342.15	20.54	-41.3	-52.4	4.3	1.29e+00	0	62	0	1084227584	53	13438
2026-01-25 10:09:14.25	342.16	20.41	-41.3	-53.1	4.0	1.44e+00	0	62	0	1084227584	53	14587
2026-01-25 10:09:15.26	342.17	20.28	-41.4	-53.4	4.0	1.48e+00	0	62	104	1084227584	53	15067
2026-01-25 10:09:16.27	342.18	20.14	-41.6	-53.5	3.9	1.43e+00	0	62	104	1084227584	54	14452
2026-01-25 10:09:17.28	342.19	20.01	-40.9	-55.1	3.8	1.49e+00	0	62	104	1084227584	53	18450
2026-01-25 10:09:18.29	342.20	19.88	-41.7	-54.4	3.8	1.49e+00	0	62	104	1084227584	54	16051
2026-01-25 10:09:19.30	342.21	19.75	-41.4	-55.5	3.8	1.49e+00	0	62	104	1084227584	54	18096
2026-01-25 10:09:20.31	342.22	19.62	-41.4	-55.2	3.8	1.49e+00	0	62	104	1084227584	54	17671
2026-01-25 10:09:21.32	342.22	19.49	-41.3	-55.5	3.8	1.49e+00	0	62	104	1084227584	54	18181
2026-01-25 10:09:22.33	342.23	19.36	-41.3	-55.7	3.8	1.49e+00	0	62	104	1084227584	54	18625
2026-01-25 10:09:23.33	342.24	19.24	-41.3	-55.8	3.8	1.49e+00	0	62	104	1084227584	54	18788
2026-01-25 10:09:24.34	342.25	19.11	-41.1	-55.6	3.8	1.49e+00	0	62	104	1084227584	54	18448
2026-01-25 10:09:25.35	342.26	18.98	-40.7	-55.2	3.8	1.49e+00	0	62	104	1084227584	53	18634
2026-01-25 10:09:26.37	342.27	18.86	-40.7	-55.2	3.8	1.49e+00	0	62	104	1084227584	53	18670
2026-01-25 10:09:27.38	342.28	18.73	-40.7	-55.1	3.8	1.49e+00	0	62	104	1084227584	53	18505
2026-01-25 10:09:28.39	342.29	18.61	-40.7	-55.2	3.8	1.49e+00	0	62	104	1084227584	53	18576
2026-01-25 10:09:29.39	342.30	18.48	-40.7	-55.2	3.8	1.49e+00	0	62	104	1084227584	53	18576
2026-01-25 10:09:30.40	342.31	18.36	-40.7	-55.2	3.8	1.49e+00	0	62	104	1084227584	53	18596
2026-01-25 10:09:31.41	342.32	18.24	-40.7	-55.2	3.8	1.49e+00	0	62	104	1084227584	53	18527
2026-01-25 10:09:32.42	342.33	18.12	-40.7	-55.2	3.8	1.49e+00	0	62	104	1084227584	53	18626
2026-01-25 10:09:33.43	342.34	17.99	-40.7	-55.2	3.8	1.49e+00	0	62	104	1084227584	53	18533
2026-01-25 10:09:34.44	342.34	17.87	-40.7	-55.2	3.8	1.49e+00	0	62	104	1084227584	53	18528
2026-01-25 10:09:35.45	342.35	17.75	-40.7	-55.2	3.8	1.49e+00	0	62	104	1084227584	53	18589
2026-01-25 10:09:36.46	342.36	17.63	-40.7	-55.1	3.8	1.49e+00	0	62	104	1084227584	53	18496
2026-01-25 10:09:37.47	342.37	17.51	-40.7	-55.1	3.8	1.49e+00	0	62	104	1084227584	53	18463
2026-01-25 10:09:38.48	342.38	17.39	-40.7	-55.1	3.8	1.49e+00	0	62	104	1084227584	53	18502
2026-01-25 10:09:39.49	342.39	17.28	-40.6	-55.1	3.8	1.49e+00	0	62	104	1084227584	53	18433
2026-01-25 10:09:40.50	342.40	17.16	-40.6	-55.1	3.8	1.49e+00	0	62	104	1084227584	53	18319
2026-01-25 10:09:41.50	342.41	17.04	-40.6	-55.1	3.8	1.49e+00	0	62	104	1084227584	53	18428
2026-01-25 10:09:42.51	342.41	16.93	-40.6	-55.1	3.8	1.49e+00	0	62	104	1084227584	52	19510
2026-01-25 10:09:43.52	342.42	16.81	-40.6	-55.1	3.8	1.49e+00	0	62	104	1084227584	52	19421
2026-01-25 10:09:44.53	342.43	16.70	-40.5	-55.0	3.8	1.49e+00	0	62	104	1084227584	52	19360
2026-01-25 10:09:45.54	342.44	16.58	-40.5	-55.0	3.8	1.49e+00	0	62	104	1084227584	52	19231
2026-01-25 10:09:46.55	342.45	16.47	-40.6	-55.1	3.8	1.49e+00	0	62	104	1084227584	52	19402
2026-01-25 10:09:47.56	342.46	16.35	-40.6	-55.1	3.8	1.49e+00	0	62	104	1084227584	52	19596
2026-01-25 10:09:48.57	342.47	16.24	-40.5	-55.0	3.8	1.49e+00	0	62	104	1084227584	52	19384
2026-01-25 10:09:49.58	342.47	16.13	-40.4	-54.9	3.8	1.49e+00	0	62	104	1084227584	52	19150
2026-01-25 10:09:50.59	342.48	16.02	-40.6	-55.1	3.8	1.49e+00	0	62	104	1084227584	52	19530
2026-01-25 10:09:51.60	342.49	15.90	-40.6	-55.1	3.8	1.49e+00	0	62	104	1084227584	52	19545
2026-01-25 10:09:52.61	342.50	15.79	-40.6	-55.1	3.8	1.49e+00	0	62	104	1084227584	52	19448
