passes_logs/2026/01/25/R2.0S_Moscow/R2.0S_Moscow__20260125_014820_NOAA_20_JPSS-1_rec.log

#Pass ID: 20260125_014820_NOAA 20 (JPSS-1)
#Satellite: NOAA 20 (JPSS-1)
#Configuration: NOAA 20
#almurnet v.1.7.20251203
#Start time: 2026-01-25 01:48:21

#Version: 2.2.20231116
#Station: R2.0S_Moscow
#Location: 37.707566 lon 55.798166 lat
#TLE: 1 43013U 17073A   26024.42258823  .00000183  00000+0  10747-3 0  9990
#TLE: 2 43013  98.7646 325.2629 0001105  25.8644 334.2587 14.19539754424075

#Time	Az	El	Level	Level2	SNR	BER	BlckErr	Temp	State	Recorded	gain1	gain2
2026-01-25 01:48:21.86	8.88	2.09	-39.9	-54.4	3.8	1.49e+00	0	53	0	0	51	19092
2026-01-25 01:48:22.86	8.80	2.14	-39.9	-54.4	3.8	1.49e+00	0	53	104	0	51	19116
2026-01-25 01:48:23.87	8.72	2.20	-39.9	-54.4	3.8	1.49e+00	0	53	104	0	51	19124
2026-01-25 01:48:24.88	8.63	2.25	-39.9	-54.4	3.8	1.49e+00	0	53	104	0	51	19046
2026-01-25 01:48:25.89	8.55	2.30	-39.9	-54.4	3.8	1.49e+00	0	53	104	0	51	19071
2026-01-25 01:48:26.91	8.47	2.35	-39.8	-54.4	3.8	1.49e+00	0	53	104	0	51	19090
2026-01-25 01:48:27.92	8.39	2.41	-39.9	-54.4	3.8	1.49e+00	0	53	104	0	51	19069
2026-01-25 01:48:28.93	8.30	2.46	-39.8	-54.4	3.8	1.49e+00	0	53	104	0	51	19082
2026-01-25 01:48:29.94	8.22	2.51	-39.8	-54.4	3.8	1.49e+00	0	53	104	0	51	19088
2026-01-25 01:48:30.95	8.13	2.56	-39.8	-54.4	3.8	1.49e+00	0	53	104	0	51	19039
2026-01-25 01:48:31.96	8.05	2.62	-39.8	-54.4	3.8	1.49e+00	0	54	104	0	51	19058
2026-01-25 01:48:32.97	7.97	2.67	-39.8	-54.4	3.8	1.49e+00	0	54	104	0	51	19012
2026-01-25 01:48:33.98	7.88	2.72	-39.8	-54.4	3.8	1.49e+00	0	54	104	0	51	19076
2026-01-25 01:48:34.99	7.80	2.77	-39.8	-54.4	3.8	1.49e+00	0	54	104	0	51	19065
2026-01-25 01:48:36.00	7.71	2.83	-39.8	-54.4	3.8	1.49e+00	0	54	104	0	51	19027
2026-01-25 01:48:37.01	7.62	2.88	-39.8	-54.4	3.8	1.49e+00	0	54	104	0	51	19010
2026-01-25 01:48:38.02	7.54	2.93	-39.8	-54.4	3.8	1.49e+00	0	54	104	0	51	19004
2026-01-25 01:48:39.03	7.45	2.99	-39.8	-54.4	3.8	1.49e+00	0	54	104	0	51	19022
2026-01-25 01:48:40.05	7.36	3.04	-39.8	-54.4	3.8	1.49e+00	0	54	104	0	51	19040
2026-01-25 01:48:41.06	7.28	3.09	-39.8	-54.4	3.8	1.49e+00	0	54	104	0	51	19046
2026-01-25 01:48:42.07	7.19	3.14	-39.8	-54.4	3.8	1.49e+00	0	54	104	0	51	19042
2026-01-25 01:48:43.08	7.10	3.20	-39.8	-54.4	3.8	1.49e+00	0	54	104	0	51	19010
2026-01-25 01:48:44.09	7.01	3.25	-39.8	-54.4	3.8	1.49e+00	0	54	104	0	51	19009
2026-01-25 01:48:45.10	6.93	3.30	-39.8	-54.4	3.8	1.49e+00	0	55	104	0	51	19004
2026-01-25 01:48:46.11	6.84	3.36	-39.8	-54.4	3.8	1.49e+00	0	54	104	0	51	18975
2026-01-25 01:48:47.12	6.75	3.41	-39.8	-54.4	3.8	1.49e+00	0	55	104	0	51	18982
2026-01-25 01:48:48.13	6.66	3.46	-39.8	-54.4	3.8	1.49e+00	0	55	104	0	51	19028
2026-01-25 01:48:49.14	6.57	3.52	-39.8	-54.4	3.8	1.49e+00	0	55	104	0	51	19016
2026-01-25 01:48:50.15	6.48	3.57	-39.8	-54.4	3.8	1.49e+00	0	55	104	0	51	18985
2026-01-25 01:48:51.16	6.39	3.62	-39.8	-54.4	3.8	1.49e+00	0	55	104	0	51	18972
2026-01-25 01:48:52.17	6.30	3.68	-39.8	-54.4	3.8	1.49e+00	0	55	104	0	51	18972
2026-01-25 01:48:53.18	6.21	3.73	-39.8	-54.4	3.8	1.49e+00	0	55	104	0	51	18996
2026-01-25 01:48:54.19	6.11	3.78	-39.8	-54.4	3.8	1.49e+00	0	55	104	0	51	19041
2026-01-25 01:48:55.20	6.02	3.84	-39.8	-54.4	3.8	1.49e+00	0	55	104	0	51	19012
2026-01-25 01:48:56.22	5.93	3.89	-39.8	-54.3	3.8	1.49e+00	0	55	104	0	51	18948
2026-01-25 01:48:57.23	5.84	3.94	-39.8	-54.4	3.8	1.49e+00	0	55	104	0	51	19015
2026-01-25 01:48:58.24	5.74	4.00	-39.8	-54.4	3.8	1.49e+00	0	55	104	0	51	19011
2026-01-25 01:48:59.25	5.65	4.05	-39.8	-54.4	3.8	1.49e+00	0	55	104	0	51	18986
2026-01-25 01:49:00.26	5.56	4.11	-39.8	-54.4	3.8	1.49e+00	0	55	104	0	51	19020
2026-01-25 01:49:01.27	5.46	4.16	-39.8	-54.4	3.8	1.49e+00	0	55	104	0	51	19017
2026-01-25 01:49:02.28	5.37	4.21	-39.8	-54.4	3.8	1.49e+00	0	55	104	0	51	19015
2026-01-25 01:49:03.29	5.27	4.27	-39.8	-54.4	3.8	1.49e+00	0	56	104	0	51	19035
2026-01-25 01:49:04.30	5.18	4.32	-39.8	-54.4	3.8	1.49e+00	0	56	104	0	51	19033
2026-01-25 01:49:05.31	5.08	4.37	-39.8	-54.4	3.8	1.49e+00	0	56	104	0	51	18956
2026-01-25 01:49:06.32	4.99	4.43	-39.8	-54.4	3.8	1.49e+00	0	56	104	0	51	19031
2026-01-25 01:49:07.34	4.89	4.48	-39.8	-54.4	3.8	1.49e+00	0	56	104	0	51	18956
2026-01-25 01:49:08.35	4.80	4.54	-39.8	-54.4	3.8	1.49e+00	0	56	104	0	51	18979
2026-01-25 01:49:09.36	4.70	4.59	-39.8	-54.3	3.8	1.49e+00	0	56	104	0	51	18936
2026-01-25 01:49:10.37	4.60	4.64	-39.8	-54.4	3.8	1.49e+00	0	56	104	0	51	19055
2026-01-25 01:49:11.38	4.50	4.70	-39.8	-54.4	3.8	1.49e+00	0	56	104	0	51	19006
2026-01-25 01:49:12.39	4.41	4.75	-39.8	-54.4	3.8	1.49e+00	0	56	104	0	51	18958
2026-01-25 01:49:13.40	4.31	4.81	-39.8	-54.4	3.8	1.49e+00	0	56	104	0	51	19010
2026-01-25 01:49:14.41	4.21	4.86	-39.8	-54.4	3.8	1.49e+00	0	56	104	0	51	19028
2026-01-25 01:49:15.42	4.11	4.91	-39.8	-54.4	3.8	1.49e+00	0	56	104	0	51	18962
2026-01-25 01:49:16.43	4.01	4.97	-39.8	-54.4	3.8	1.49e+00	0	56	104	0	51	18972
2026-01-25 01:49:17.44	3.91	5.02	-39.8	-54.3	3.8	1.49e+00	0	56	104	0	51	18948
2026-01-25 01:49:18.45	3.81	5.08	-39.8	-54.4	3.8	1.49e+00	0	56	104	0	51	18965
2026-01-25 01:49:19.46	3.71	5.13	-39.8	-54.4	3.8	1.49e+00	0	56	104	0	51	18986
2026-01-25 01:49:20.47	3.61	5.19	-39.8	-54.4	3.8	1.49e+00	0	56	104	0	51	18965
2026-01-25 01:49:21.48	3.51	5.24	-39.8	-54.3	3.8	1.49e+00	0	56	104	0	51	18911
2026-01-25 01:49:22.49	3.40	5.29	-39.8	-54.4	3.8	1.49e+00	0	57	104	0	51	18957
2026-01-25 01:49:23.50	3.30	5.35	-39.8	-54.4	3.8	1.49e+00	0	56	104	0	51	18981
2026-01-25 01:49:24.51	3.20	5.40	-39.8	-54.4	3.8	1.49e+00	0	57	104	0	51	18990
2026-01-25 01:49:25.52	3.10	5.46	-39.8	-54.4	3.8	1.49e+00	0	57	104	0	51	18990
2026-01-25 01:49:26.53	2.99	5.51	-39.8	-54.3	3.8	1.49e+00	0	57	104	0	51	18939
2026-01-25 01:49:27.54	2.89	5.57	-39.8	-54.4	3.8	1.49e+00	0	57	104	0	51	18997
2026-01-25 01:49:28.55	2.79	5.62	-39.8	-54.4	3.8	1.49e+00	0	57	104	0	51	18958
2026-01-25 01:49:29.56	2.68	5.67	-39.8	-54.3	3.8	1.49e+00	0	57	104	0	51	18929
2026-01-25 01:49:30.57	2.58	5.73	-39.8	-54.3	3.8	1.49e+00	0	57	104	0	51	18918
2026-01-25 01:49:31.58	2.47	5.78	-39.8	-54.3	3.8	1.49e+00	0	57	104	0	51	18939
2026-01-25 01:49:32.59	2.36	5.84	-39.8	-54.4	3.8	1.49e+00	0	57	104	0	51	18949
2026-01-25 01:49:33.61	2.26	5.89	-39.8	-54.4	3.8	1.49e+00	0	57	104	0	51	18961
2026-01-25 01:49:34.62	2.15	5.95	-39.8	-54.4	3.8	1.49e+00	0	57	104	0	51	18998
2026-01-25 01:49:35.63	2.04	6.00	-39.8	-54.4	3.8	1.49e+00	0	57	104	0	51	19009
2026-01-25 01:49:36.64	1.94	6.06	-39.8	-54.3	3.8	1.49e+00	0	57	104	0	51	18913
2026-01-25 01:49:37.65	1.83	6.11	-39.8	-54.3	3.8	1.49e+00	0	57	104	0	51	18947
2026-01-25 01:49:38.66	1.72	6.17	-39.8	-54.4	3.8	1.49e+00	0	57	104	0	51	18970
2026-01-25 01:49:39.67	1.61	6.22	-39.8	-54.3	3.8	1.49e+00	0	57	104	0	51	18925
2026-01-25 01:49:40.68	1.50	6.28	-39.8	-54.4	3.8	1.49e+00	0	57	104	0	51	18962
2026-01-25 01:49:41.69	1.39	6.33	-39.8	-54.4	3.8	1.49e+00	0	57	104	0	51	18972
2026-01-25 01:49:42.70	1.28	6.39	-39.8	-54.3	3.8	1.49e+00	0	57	104	0	51	18937
2026-01-25 01:49:43.71	1.17	6.44	-39.8	-54.4	3.8	1.49e+00	0	57	104	0	51	18983
2026-01-25 01:49:44.72	1.06	6.49	-39.8	-54.4	3.8	1.49e+00	0	57	104	0	51	18961
2026-01-25 01:49:45.73	0.95	6.55	-39.8	-54.4	3.8	1.49e+00	0	57	104	0	51	18950
2026-01-25 01:49:46.74	0.84	6.60	-39.8	-54.3	3.8	1.49e+00	0	57	104	0	51	18908
2026-01-25 01:49:47.75	0.73	6.66	-39.8	-54.4	3.8	1.49e+00	0	57	104	0	51	18969
2026-01-25 01:49:48.76	0.61	6.71	-39.8	-54.3	3.8	1.49e+00	0	57	104	0	51	18948
2026-01-25 01:49:49.77	0.50	6.77	-39.8	-54.4	3.8	1.49e+00	0	58	104	0	51	18981
2026-01-25 01:49:50.79	0.39	6.82	-39.8	-54.4	3.8	1.49e+00	0	58	104	0	51	18990
2026-01-25 01:49:51.79	0.27	6.88	-39.8	-54.3	3.8	1.49e+00	0	58	104	0	51	18924
2026-01-25 01:49:52.81	0.16	6.93	-39.8	-54.4	3.8	1.49e+00	0	58	104	0	51	18984
2026-01-25 01:49:53.82	0.04	6.99	-39.8	-54.4	3.8	1.49e+00	0	58	104	0	51	18984
2026-01-25 01:49:54.83	359.93	7.04	-39.8	-54.3	3.8	1.49e+00	0	58	104	0	51	18947
2026-01-25 01:49:55.84	359.81	7.10	-39.8	-54.3	3.8	1.49e+00	0	58	104	0	51	18908
2026-01-25 01:49:56.84	359.70	7.15	-39.8	-54.3	3.8	1.49e+00	0	58	104	0	51	18919
2026-01-25 01:49:57.86	359.58	7.21	-39.8	-54.3	3.8	1.49e+00	0	58	104	0	51	18907
2026-01-25 01:49:58.86	359.46	7.26	-39.8	-54.4	3.8	1.49e+00	0	58	104	0	51	18964
2026-01-25 01:49:59.87	359.35	7.32	-39.8	-54.4	3.8	1.49e+00	0	58	104	0	51	18961
2026-01-25 01:50:00.88	359.23	7.37	-39.8	-54.4	3.8	1.49e+00	0	58	104	0	51	18949
2026-01-25 01:50:01.89	359.11	7.43	-39.8	-54.3	3.8	1.49e+00	0	58	104	0	51	18945
2026-01-25 01:50:02.90	358.99	7.48	-39.8	-54.3	3.8	1.49e+00	0	58	104	0	51	18941
2026-01-25 01:50:03.91	358.87	7.54	-39.8	-54.4	3.8	1.49e+00	0	58	104	0	51	18990
2026-01-25 01:50:04.93	358.75	7.59	-39.8	-54.4	3.8	1.49e+00	0	58	104	0	51	18956
2026-01-25 01:50:05.94	358.63	7.65	-39.8	-54.3	3.8	1.49e+00	0	58	104	0	51	18938
2026-01-25 01:50:06.95	358.51	7.70	-39.8	-54.4	3.8	1.49e+00	0	58	104	0	51	18982
2026-01-25 01:50:07.96	358.39	7.76	-39.8	-54.3	3.8	1.49e+00	0	58	104	0	51	18946
2026-01-25 01:50:08.97	358.27	7.81	-39.8	-54.3	3.8	1.49e+00	0	58	104	0	51	18928
2026-01-25 01:50:09.98	358.14	7.87	-39.8	-54.3	3.8	1.49e+00	0	58	104	0	51	18943
2026-01-25 01:50:10.99	358.02	7.92	-39.8	-54.3	3.8	1.49e+00	0	58	104	0	51	18909
2026-01-25 01:50:12.00	357.90	7.98	-39.8	-54.4	3.8	1.49e+00	0	58	104	0	51	18970
2026-01-25 01:50:13.01	357.77	8.03	-39.8	-54.4	3.8	1.49e+00	0	58	104	0	51	18975
2026-01-25 01:50:14.02	357.65	8.09	-39.8	-54.4	3.8	1.49e+00	0	58	104	0	51	19027
2026-01-25 01:50:15.03	357.53	8.14	-40.0	-54.5	3.8	1.49e+00	0	58	104	0	51	19366
2026-01-25 01:50:16.04	357.40	8.20	-39.9	-54.4	3.8	1.49e+00	0	58	104	0	51	19096
2026-01-25 01:50:17.05	357.27	8.25	-40.0	-54.5	3.8	1.49e+00	0	58	104	0	51	19349
2026-01-25 01:50:18.06	357.15	8.31	-39.9	-54.5	3.8	1.49e+00	0	59	104	0	51	19274
2026-01-25 01:50:19.07	357.02	8.36	-40.0	-54.6	3.8	1.49e+00	0	58	104	0	51	19460
2026-01-25 01:50:20.08	356.90	8.41	-39.9	-54.4	3.8	1.49e+00	0	58	104	0	51	19108
2026-01-25 01:50:21.09	356.77	8.47	-40.0	-54.5	3.8	1.49e+00	0	58	104	0	51	19344
2026-01-25 01:50:22.09	356.64	8.52	-40.0	-54.5	3.8	1.49e+00	0	58	104	0	51	19248
2026-01-25 01:50:23.10	356.51	8.58	-40.0	-54.5	3.8	1.49e+00	0	59	104	0	51	19302
2026-01-25 01:50:24.11	356.38	8.63	-39.9	-54.5	3.8	1.49e+00	0	58	104	0	51	19175
2026-01-25 01:50:25.12	356.25	8.69	-40.0	-54.6	3.8	1.49e+00	0	58	104	0	51	19421
2026-01-25 01:50:26.13	356.12	8.74	-39.9	-54.5	3.8	1.49e+00	0	58	104	0	51	19246
2026-01-25 01:50:27.14	355.99	8.80	-40.0	-54.5	3.8	1.49e+00	0	59	104	0	51	19352
2026-01-25 01:50:28.15	355.86	8.85	-40.0	-54.5	3.8	1.49e+00	0	59	104	0	51	19256
2026-01-25 01:50:29.16	355.73	8.91	-40.1	-54.6	3.8	1.49e+00	0	59	104	0	51	19531
2026-01-25 01:50:30.17	355.60	8.96	-39.9	-54.5	3.8	1.49e+00	0	59	104	0	51	19172
2026-01-25 01:50:31.18	355.47	9.02	-40.1	-54.6	3.8	1.49e+00	0	58	104	0	51	19521
2026-01-25 01:50:32.19	355.33	9.07	-40.1	-54.6	3.8	1.49e+00	0	59	104	0	51	19455
2026-01-25 01:50:33.20	355.20	9.12	-40.1	-54.7	3.8	1.49e+00	0	59	104	0	51	19674
2026-01-25 01:50:34.21	355.07	9.18	-40.0	-54.5	3.8	1.49e+00	0	59	104	0	51	19323
2026-01-25 01:50:35.22	354.93	9.23	-40.2	-54.7	3.8	1.49e+00	0	59	104	0	51	19773
2026-01-25 01:50:36.23	354.80	9.29	-40.1	-54.6	3.8	1.49e+00	0	59	104	0	51	19575
2026-01-25 01:50:37.24	354.66	9.34	-40.2	-54.8	3.8	1.49e+00	0	59	104	0	51	19880
2026-01-25 01:50:38.25	354.52	9.40	-40.1	-54.6	3.8	1.49e+00	0	59	104	0	51	19480
2026-01-25 01:50:39.26	354.39	9.45	-40.3	-54.8	3.8	1.49e+00	0	59	104	0	51	19997
2026-01-25 01:50:40.27	354.25	9.50	-40.1	-54.7	3.8	1.49e+00	0	59	104	0	51	19676
2026-01-25 01:50:41.28	354.11	9.56	-40.3	-54.8	3.8	1.49e+00	0	59	104	0	51	20025
2026-01-25 01:50:42.29	353.98	9.61	-40.1	-54.7	3.8	1.49e+00	0	59	104	0	51	19621
2026-01-25 01:50:43.30	353.84	9.67	-40.3	-54.8	3.8	1.49e+00	0	59	104	0	51	20020
2026-01-25 01:50:44.31	353.70	9.72	-40.2	-54.7	3.8	1.49e+00	0	59	104	0	51	19803
2026-01-25 01:50:45.32	353.56	9.77	-40.4	-54.9	3.8	1.49e+00	0	59	104	0	51	20217
2026-01-25 01:50:46.33	353.42	9.83	-40.2	-54.8	3.8	1.49e+00	0	59	104	0	51	19951
2026-01-25 01:50:47.34	353.28	9.88	-40.3	-54.8	3.8	1.49e+00	0	59	104	0	51	19979
2026-01-25 01:50:48.35	353.14	9.94	-40.4	-54.9	3.8	1.49e+00	0	59	104	0	51	20200
2026-01-25 01:50:49.36	352.99	9.99	-40.5	-55.0	3.8	1.49e+00	0	59	104	0	51	20508
2026-01-25 01:50:50.37	352.85	10.04	-40.3	-54.9	3.8	1.49e+00	0	59	104	0	51	20073
2026-01-25 01:50:51.38	352.71	10.10	-40.4	-54.9	3.8	1.49e+00	0	59	104	0	51	20143
2026-01-25 01:50:52.39	352.56	10.15	-40.6	-55.1	3.8	1.49e+00	0	59	104	0	51	20736
2026-01-25 01:50:53.40	352.42	10.20	-40.6	-55.1	3.8	1.49e+00	0	59	104	0	51	20722
2026-01-25 01:50:54.41	352.28	10.26	-40.4	-54.9	3.8	1.49e+00	0	59	104	0	51	20280
2026-01-25 01:50:55.41	352.13	10.31	-40.4	-55.0	3.8	1.49e+00	0	59	104	0	52	19196
2026-01-25 01:50:56.42	351.99	10.36	-40.4	-55.0	3.8	1.49e+00	0	59	104	0	52	19219
2026-01-25 01:50:57.43	351.84	10.42	-40.5	-55.0	3.8	1.49e+00	0	59	104	0	52	19226
2026-01-25 01:50:58.44	351.69	10.47	-40.5	-55.0	3.8	1.49e+00	0	59	104	0	52	19324
2026-01-25 01:50:59.45	351.55	10.52	-40.5	-55.0	3.8	1.49e+00	0	59	104	0	52	19317
2026-01-25 01:51:00.46	351.40	10.58	-40.5	-55.1	3.8	1.49e+00	0	59	104	0	52	19395
2026-01-25 01:51:01.47	351.25	10.63	-40.5	-55.1	3.8	1.49e+00	0	59	104	0	52	19493
2026-01-25 01:51:02.48	351.10	10.68	-40.5	-55.1	3.8	1.49e+00	0	60	104	0	52	19430
2026-01-25 01:51:03.49	350.95	10.74	-40.6	-55.2	3.8	1.49e+00	0	60	104	0	52	19640
2026-01-25 01:51:04.50	350.80	10.79	-40.6	-55.1	3.8	1.49e+00	0	59	104	0	52	19570
2026-01-25 01:51:05.51	350.65	10.84	-40.8	-55.3	3.8	1.49e+00	0	60	104	0	52	19989
2026-01-25 01:51:06.52	350.50	10.89	-40.7	-55.3	3.8	1.49e+00	0	59	104	0	52	19888
2026-01-25 01:51:07.52	350.35	10.95	-40.7	-55.3	3.8	1.49e+00	0	59	104	0	52	19907
2026-01-25 01:51:08.54	350.20	11.00	-40.6	-55.1	3.8	1.49e+00	0	59	104	0	52	19560
2026-01-25 01:51:09.54	350.04	11.05	-40.8	-55.4	3.8	1.49e+00	0	59	104	0	52	20086
2026-01-25 01:51:10.55	349.89	11.10	-40.9	-55.4	3.8	1.49e+00	0	60	104	0	52	20192
2026-01-25 01:51:11.56	349.74	11.16	-40.7	-55.3	3.8	1.49e+00	0	59	104	0	52	19880
2026-01-25 01:51:12.57	349.58	11.21	-40.9	-55.4	3.8	1.49e+00	0	60	104	0	52	20161
2026-01-25 01:51:13.58	349.43	11.26	-40.8	-55.4	3.8	1.49e+00	0	60	104	0	52	20100
2026-01-25 01:51:14.59	349.27	11.31	-40.7	-55.3	3.8	1.49e+00	0	60	104	0	52	19904
2026-01-25 01:51:15.60	349.12	11.36	-40.9	-55.4	3.8	1.49e+00	0	60	104	0	52	20227
2026-01-25 01:51:16.61	348.96	11.42	-41.0	-55.5	3.8	1.49e+00	0	60	104	0	52	20480
2026-01-25 01:51:17.62	348.80	11.47	-40.9	-55.5	3.8	1.49e+00	0	60	104	0	52	20373
2026-01-25 01:51:18.63	348.64	11.52	-40.9	-55.4	3.8	1.49e+00	0	60	104	0	52	20294
2026-01-25 01:51:19.64	348.49	11.57	-41.0	-55.5	3.8	1.49e+00	0	60	104	0	52	20524
2026-01-25 01:51:20.65	348.33	11.62	-41.0	-55.6	3.8	1.49e+00	0	60	104	0	52	20606
2026-01-25 01:51:21.66	348.17	11.67	-41.0	-55.6	3.8	1.49e+00	0	60	104	0	52	20664
2026-01-25 01:51:22.67	348.01	11.72	-41.1	-55.6	3.8	1.49e+00	0	60	104	0	52	20687
2026-01-25 01:51:23.67	347.85	11.77	-41.0	-55.6	3.8	1.49e+00	0	60	104	0	52	20548
2026-01-25 01:51:24.68	347.69	11.82	-41.0	-55.6	3.8	1.49e+00	0	60	104	0	52	20661
2026-01-25 01:51:25.69	347.52	11.88	-41.1	-55.6	3.8	1.49e+00	0	60	104	0	52	20607
2026-01-25 01:51:26.70	347.36	11.93	-41.1	-55.7	3.8	1.49e+00	0	60	104	0	52	20808
2026-01-25 01:51:27.71	347.20	11.98	-41.0	-55.6	3.8	1.49e+00	0	60	104	0	52	20674
2026-01-25 01:51:28.72	347.04	12.03	-40.9	-55.5	3.8	1.49e+00	0	60	104	0	52	20369
2026-01-25 01:51:29.73	346.87	12.08	-41.1	-55.6	3.8	1.49e+00	0	60	104	0	52	20716
2026-01-25 01:51:30.74	346.71	12.13	-41.2	-55.7	3.8	1.49e+00	0	60	104	0	52	20955
2026-01-25 01:51:31.75	346.54	12.18	-41.0	-55.5	3.8	1.49e+00	0	60	104	0	52	20441
2026-01-25 01:51:32.76	346.38	12.23	-40.7	-55.2	3.8	1.49e+00	0	60	104	0	52	19838
2026-01-25 01:51:33.77	346.21	12.28	-41.0	-55.6	3.8	1.49e+00	0	60	104	0	52	20571
2026-01-25 01:51:34.78	346.04	12.33	-41.0	-55.6	3.8	1.49e+00	0	60	104	0	52	20685
2026-01-25 01:51:35.79	345.87	12.38	-40.7	-55.3	3.8	1.49e+00	0	60	104	0	52	19916
2026-01-25 01:51:36.80	345.71	12.43	-40.6	-55.2	3.8	1.49e+00	0	60	104	0	52	19621
2026-01-25 01:51:37.81	345.54	12.47	-40.8	-55.4	3.8	1.49e+00	0	60	104	0	52	20188
2026-01-25 01:51:38.82	345.37	12.52	-40.8	-55.4	3.8	1.49e+00	0	60	104	0	52	20201
2026-01-25 01:51:39.83	345.20	12.57	-40.7	-55.2	3.8	1.49e+00	0	60	104	0	52	19743
2026-01-25 01:51:40.83	345.03	12.62	-40.7	-55.2	3.8	1.49e+00	0	60	104	0	52	19670
2026-01-25 01:51:41.84	344.86	12.67	-40.7	-55.2	3.8	1.49e+00	0	60	104	0	52	19726
2026-01-25 01:51:42.85	344.69	12.72	-40.9	-55.4	3.8	1.49e+00	0	60	104	0	52	20243
2026-01-25 01:51:43.86	344.51	12.77	-40.7	-55.2	3.8	1.49e+00	0	60	104	0	52	19646
2026-01-25 01:51:44.87	344.34	12.81	-40.6	-55.1	3.8	1.49e+00	0	60	104	0	52	19469
2026-01-25 01:51:45.88	344.17	12.86	-40.8	-55.3	3.8	1.49e+00	0	60	104	0	52	19882
2026-01-25 01:51:46.89	343.99	12.91	-40.8	-55.3	3.8	1.49e+00	0	60	104	0	52	20000
2026-01-25 01:51:47.90	343.82	12.96	-40.5	-55.0	3.8	1.49e+00	0	60	104	0	52	19325
2026-01-25 01:51:48.91	343.65	13.00	-40.7	-55.2	3.8	1.49e+00	0	60	104	0	52	19682
2026-01-25 01:51:49.92	343.47	13.05	-40.7	-55.2	3.8	1.49e+00	0	60	104	0	52	19800
2026-01-25 01:51:50.93	343.29	13.10	-40.6	-55.1	3.8	1.49e+00	0	60	104	0	52	19541
2026-01-25 01:51:51.94	343.12	13.15	-40.5	-55.0	3.8	1.49e+00	0	60	104	0	52	19325
2026-01-25 01:51:52.95	342.94	13.19	-40.6	-55.1	3.8	1.49e+00	0	60	104	0	52	19433
2026-01-25 01:51:53.96	342.76	13.24	-40.6	-55.1	3.8	1.49e+00	0	61	104	0	52	19572
2026-01-25 01:51:54.97	342.58	13.29	-40.6	-55.1	3.8	1.49e+00	0	60	104	0	52	19580
2026-01-25 01:51:55.97	342.41	13.33	-40.4	-55.0	3.8	1.49e+00	0	60	104	0	52	19179
2026-01-25 01:51:56.98	342.23	13.38	-40.5	-55.0	3.8	1.49e+00	0	60	104	0	52	19311
2026-01-25 01:51:57.99	342.05	13.42	-40.7	-55.2	3.8	1.49e+00	0	60	104	0	52	19689
2026-01-25 01:51:59.00	341.86	13.47	-40.5	-55.0	3.8	1.49e+00	0	60	104	0	52	19299
2026-01-25 01:52:00.01	341.68	13.51	-40.4	-54.9	3.8	1.49e+00	0	60	104	0	52	19155
2026-01-25 01:52:01.02	341.50	13.56	-40.8	-55.3	3.8	1.49e+00	0	60	104	0	52	20038
2026-01-25 01:52:02.03	341.32	13.60	-40.5	-55.0	3.8	1.49e+00	0	60	104	0	52	19370
2026-01-25 01:52:03.04	341.14	13.65	-40.5	-55.0	3.8	1.49e+00	0	60	104	0	52	19330
2026-01-25 01:52:04.05	340.95	13.69	-40.6	-55.1	3.8	1.49e+00	0	60	104	0	52	19436
2026-01-25 01:52:05.06	340.77	13.74	-41.1	-55.5	3.8	1.49e+00	0	60	104	0	52	20338
2026-01-25 01:52:06.07	340.58	13.78	-40.6	-55.1	3.8	1.49e+00	0	60	104	0	52	19425
2026-01-25 01:52:07.08	340.40	13.83	-40.7	-55.2	3.8	1.49e+00	0	60	104	0	52	19734
2026-01-25 01:52:08.09	340.21	13.87	-40.9	-55.2	3.8	1.49e+00	0	60	104	0	52	19802
2026-01-25 01:52:09.09	340.03	13.91	-41.8	-54.5	3.8	1.49e+00	0	60	104	0	54	16215
2026-01-25 01:52:10.11	339.84	13.96	-40.8	-55.3	3.8	1.49e+00	0	60	104	0	53	18888
2026-01-25 01:52:11.11	339.65	14.00	-41.8	-52.6	4.3	1.45e+00	0	60	0	0	54	13009
2026-01-25 01:52:12.12	339.47	14.04	-41.9	-51.5	4.8	1.03e+00	0	61	0	1048576	54	11510
2026-01-25 01:52:13.13	339.28	14.08	-42.1	-50.7	5.4	5.64e-01	0	60	0	3145728	54	10504
2026-01-25 01:52:14.14	339.09	14.13	-42.1	-50.4	5.8	4.25e-01	0	60	0	5242880	54	10091
2026-01-25 01:52:15.15	338.90	14.17	-42.2	-50.3	5.9	3.94e-01	0	60	0	6291456	55	9439
2026-01-25 01:52:16.16	338.71	14.21	-42.2	-49.6	6.5	3.38e-01	0	60	0	8388608	55	8757
2026-01-25 01:52:17.17	338.52	14.25	-43.5	-53.6	4.6	1.21e+00	0	60	0	9437184	57	12341
2026-01-25 01:52:18.18	338.33	14.29	-42.0	-48.0	8.3	7.46e-01	0	60	0	10485760	56	6854
2026-01-25 01:52:19.19	338.13	14.33	-41.4	-48.3	7.3	7.30e-03	0	60	0	12582912	53	8373
2026-01-25 01:52:20.20	337.94	14.37	-42.7	-52.8	4.0	1.10e+00	0	61	104	13631488	56	11849
2026-01-25 01:52:21.21	337.75	14.42	-42.9	-53.0	4.5	4.19e-01	20	60	0	13631488	56	12225
2026-01-25 01:52:22.22	337.56	14.46	-41.5	-46.8	9.4	8.41e-02	0	61	0	15728640	55	6307
2026-01-25 01:52:23.23	337.36	14.50	-41.3	-46.1	10.2	8.52e-03	0	60	0	17825792	54	6180
2026-01-25 01:52:24.24	337.17	14.54	-41.3	-45.9	10.7	2.98e-03	0	60	0	19922944	54	6009
2026-01-25 01:52:25.25	336.97	14.58	-41.6	-46.4	10.2	3.66e-03	0	60	0	22020096	54	6390
2026-01-25 01:52:26.26	336.78	14.61	-41.5	-46.1	10.6	3.92e-03	0	60	0	23068672	54	6184
2026-01-25 01:52:27.27	336.58	14.65	-41.4	-45.7	11.2	1.45e-03	0	60	0	25165824	54	5898
2026-01-25 01:52:28.28	336.38	14.69	-41.6	-46.1	10.9	1.52e-03	0	60	0	27262976	54	6137
2026-01-25 01:52:29.28	336.19	14.73	-41.6	-46.0	11.0	2.12e-03	0	60	0	29360128	54	6095
2026-01-25 01:52:30.29	335.99	14.77	-41.6	-46.0	11.1	1.71e-03	0	60	0	31457280	54	6071
2026-01-25 01:52:31.30	335.79	14.81	-41.6	-46.1	11.0	1.84e-03	0	61	0	32505856	54	6141
2026-01-25 01:52:32.31	335.59	14.84	-41.4	-45.6	11.5	1.67e-03	0	60	0	34603008	54	5820
2026-01-25 01:52:33.32	335.39	14.88	-41.5	-45.6	11.6	6.58e-04	0	60	0	36700160	54	5834
2026-01-25 01:52:34.33	335.19	14.92	-41.4	-45.4	11.8	5.58e-04	0	60	0	38797312	54	5700
2026-01-25 01:52:35.34	334.99	14.95	-41.4	-45.4	11.8	4.87e-04	0	60	0	40894464	54	5677
2026-01-25 01:52:36.35	334.79	14.99	-41.4	-45.3	12.1	2.85e-04	0	61	0	41943040	54	5599
2026-01-25 01:52:37.36	334.59	15.03	-41.3	-45.2	12.2	3.33e-04	0	61	0	44040192	54	5554
2026-01-25 01:52:38.37	334.39	15.06	-41.4	-45.2	12.2	2.36e-04	0	61	0	46137344	54	5583
2026-01-25 01:52:39.38	334.19	15.10	-41.3	-45.0	12.3	1.56e-04	0	61	0	48234496	54	5463
2026-01-25 01:52:40.39	333.99	15.13	-41.3	-45.1	12.3	1.55e-04	0	60	0	50331648	54	5512
2026-01-25 01:52:41.40	333.78	15.17	-41.2	-44.9	12.5	1.30e-04	0	61	0	52428800	54	5369
2026-01-25 01:52:42.41	333.58	15.20	-41.2	-44.8	12.6	1.11e-04	0	61	0	53477376	54	5322
2026-01-25 01:52:43.42	333.37	15.24	-41.2	-44.8	12.6	9.23e-05	0	61	0	55574528	54	5319
2026-01-25 01:52:44.43	333.17	15.27	-41.2	-44.8	12.6	7.17e-05	0	61	0	57671680	54	5326
2026-01-25 01:52:45.44	332.96	15.30	-41.2	-44.9	12.6	9.53e-05	0	61	0	59768832	54	5341
2026-01-25 01:52:46.45	332.76	15.34	-41.3	-44.9	12.6	1.10e-04	0	61	0	61865984	54	5392
2026-01-25 01:52:47.46	332.55	15.37	-41.3	-45.0	12.6	9.84e-05	0	60	0	62914560	54	5409
2026-01-25 01:52:48.47	332.35	15.40	-41.2	-44.9	12.7	7.32e-05	0	61	0	65011712	54	5342
2026-01-25 01:52:49.48	332.14	15.44	-41.3	-45.0	12.6	1.17e-04	0	61	0	67108864	54	5423
2026-01-25 01:52:50.49	331.93	15.47	-41.3	-44.9	12.7	8.39e-05	0	61	0	69206016	54	5344
2026-01-25 01:52:51.50	331.72	15.50	-41.2	-44.8	12.9	6.02e-05	0	61	0	71303168	54	5290
2026-01-25 01:52:52.51	331.52	15.53	-41.2	-44.7	12.9	3.81e-05	0	61	0	72351744	54	5249
2026-01-25 01:52:53.52	331.31	15.56	-41.2	-44.8	12.9	4.80e-05	0	61	0	74448896	54	5286
2026-01-25 01:52:54.52	331.10	15.59	-41.2	-44.7	12.9	5.11e-05	0	61	0	76546048	54	5265
2026-01-25 01:52:55.53	330.89	15.62	-41.2	-44.7	12.9	5.72e-05	0	61	0	78643200	54	5264
2026-01-25 01:52:56.54	330.68	15.65	-41.3	-44.9	12.7	7.62e-05	0	61	0	80740352	54	5356
2026-01-25 01:52:57.56	330.47	15.68	-41.3	-44.9	12.7	1.02e-04	0	61	0	81788928	54	5392
2026-01-25 01:52:58.56	330.26	15.71	-41.2	-44.8	12.9	6.02e-05	0	61	0	83886080	54	5296
2026-01-25 01:52:59.57	330.05	15.74	-41.2	-44.8	12.8	6.02e-05	0	61	0	85983232	54	5292
2026-01-25 01:53:00.58	329.84	15.77	-41.2	-44.7	13.0	4.42e-05	0	61	0	88080384	54	5248
2026-01-25 01:53:01.59	329.62	15.80	-41.2	-44.7	12.9	4.42e-05	0	61	0	90177536	54	5268
2026-01-25 01:53:02.60	329.41	15.82	-41.3	-44.8	12.9	4.04e-05	0	61	0	91226112	54	5309
2026-01-25 01:53:03.61	329.20	15.85	-41.4	-45.0	12.7	7.09e-05	0	61	0	93323264	54	5418
2026-01-25 01:53:04.62	328.99	15.88	-41.4	-45.0	12.6	8.85e-05	0	61	0	95420416	54	5454
2026-01-25 01:53:05.63	328.77	15.91	-41.5	-45.2	12.5	1.33e-04	0	61	0	97517568	54	5563
2026-01-25 01:53:06.64	328.56	15.93	-41.5	-45.1	12.5	1.30e-04	0	61	0	99614720	54	5507
2026-01-25 01:53:07.64	328.35	15.96	-41.4	-45.1	12.5	1.18e-04	0	60	0	100663296	54	5504
2026-01-25 01:53:08.65	328.13	15.98	-41.5	-45.2	12.4	1.56e-04	0	61	0	102760448	54	5570
2026-01-25 01:53:09.66	327.92	16.01	-41.5	-45.2	12.4	1.12e-04	0	61	0	104857600	54	5570
2026-01-25 01:53:10.67	327.70	16.03	-41.4	-45.1	12.6	1.23e-04	0	61	0	106954752	54	5494
2026-01-25 01:53:11.68	327.48	16.06	-41.5	-45.1	12.5	8.92e-05	0	61	0	109051904	54	5520
2026-01-25 01:53:12.69	327.27	16.08	-41.5	-45.2	12.4	1.20e-04	0	61	0	110100480	54	5562
2026-01-25 01:53:13.70	327.05	16.10	-41.5	-45.2	12.4	1.25e-04	0	61	0	112197632	54	5552
2026-01-25 01:53:14.71	326.83	16.13	-41.5	-45.3	12.3	1.30e-04	0	61	0	114294784	54	5625
2026-01-25 01:53:15.72	326.62	16.15	-41.5	-45.3	12.4	1.34e-04	0	61	0	116391936	54	5602
2026-01-25 01:53:16.73	326.40	16.17	-41.6	-45.4	12.3	1.56e-04	0	60	0	118489088	54	5673
2026-01-25 01:53:17.74	326.18	16.19	-41.5	-45.2	12.4	1.57e-04	0	61	0	120586240	54	5566
2026-01-25 01:53:18.75	325.96	16.22	-41.5	-45.2	12.4	1.47e-04	0	61	0	121634816	54	5584
2026-01-25 01:53:19.76	325.74	16.24	-41.5	-45.1	12.5	1.19e-04	0	61	0	123731968	54	5516
2026-01-25 01:53:20.77	325.52	16.26	-41.5	-45.1	12.5	1.04e-04	0	61	0	125829120	54	5526
2026-01-25 01:53:21.78	325.31	16.28	-41.5	-45.3	12.4	1.34e-04	0	61	0	127926272	54	5595
2026-01-25 01:53:22.79	325.09	16.30	-41.5	-45.2	12.4	1.35e-04	0	61	0	130023424	54	5559
2026-01-25 01:53:23.80	324.87	16.32	-41.6	-45.4	12.2	1.71e-04	0	61	0	131072000	54	5712
2026-01-25 01:53:24.81	324.65	16.34	-41.7	-45.5	12.2	2.31e-04	0	61	0	133169152	54	5749
2026-01-25 01:53:25.81	324.43	16.36	-41.8	-45.7	12.0	2.91e-04	0	61	0	135266304	54	5916
2026-01-25 01:53:26.82	324.21	16.37	-41.7	-45.7	12.0	3.72e-04	0	61	0	137363456	54	5874
2026-01-25 01:53:27.83	323.99	16.39	-41.8	-45.7	12.0	3.32e-04	0	61	0	139460608	54	5890
2026-01-25 01:53:28.84	323.76	16.41	-41.8	-45.8	11.9	3.97e-04	0	61	0	140509184	54	5925
2026-01-25 01:53:29.85	323.54	16.43	-41.7	-45.6	12.1	3.04e-04	0	61	0	142606336	54	5793
2026-01-25 01:53:30.86	323.32	16.44	-41.7	-45.5	12.2	2.27e-04	0	61	0	144703488	54	5753
2026-01-25 01:53:31.87	323.10	16.46	-41.6	-45.4	12.3	2.06e-04	0	61	0	146800640	54	5713
2026-01-25 01:53:32.88	322.88	16.48	-41.6	-45.4	12.3	1.86e-04	0	61	0	148897792	54	5685
2026-01-25 01:53:33.89	322.65	16.49	-41.5	-45.2	12.4	2.15e-04	0	61	0	149946368	54	5588
2026-01-25 01:53:34.90	322.43	16.51	-41.5	-45.2	12.5	1.21e-04	0	61	0	152043520	54	5580
2026-01-25 01:53:35.91	322.21	16.52	-41.6	-45.3	12.4	1.18e-04	0	61	0	154140672	54	5623
2026-01-25 01:53:36.92	321.99	16.53	-41.5	-45.2	12.5	1.10e-04	0	61	0	156237824	54	5571
2026-01-25 01:53:37.93	321.76	16.55	-41.5	-45.2	12.5	1.25e-04	0	61	0	158334976	54	5579
2026-01-25 01:53:38.93	321.54	16.56	-41.6	-45.4	12.3	1.50e-04	0	61	0	159383552	54	5669
2026-01-25 01:53:39.94	321.32	16.57	-41.6	-45.3	12.4	1.62e-04	0	61	0	161480704	54	5618
2026-01-25 01:53:40.95	321.09	16.59	-41.6	-45.4	12.3	1.59e-04	0	61	0	163577856	54	5688
2026-01-25 01:53:41.96	320.87	16.60	-41.6	-45.4	12.3	1.84e-04	0	61	0	165675008	54	5696
2026-01-25 01:53:42.97	320.64	16.61	-41.7	-45.5	12.2	1.87e-04	0	61	0	167772160	54	5771
2026-01-25 01:53:43.98	320.42	16.62	-41.7	-45.7	12.0	2.51e-04	0	61	0	168820736	54	5866
2026-01-25 01:53:44.99	320.20	16.63	-41.8	-45.7	12.0	3.19e-04	0	61	0	170917888	54	5906
2026-01-25 01:53:46.00	319.97	16.64	-41.8	-45.8	11.8	3.88e-04	0	61	0	173015040	54	5980
2026-01-25 01:53:47.01	319.75	16.65	-41.8	-45.8	11.8	4.65e-04	0	61	0	175112192	54	5984
2026-01-25 01:53:48.02	319.52	16.66	-41.9	-45.9	11.7	4.88e-04	0	61	0	177209344	54	6048
2026-01-25 01:53:49.03	319.30	16.67	-41.9	-46.0	11.7	5.39e-04	0	61	0	178257920	54	6085
2026-01-25 01:53:50.04	319.07	16.68	-41.9	-45.9	11.8	5.26e-04	0	61	0	180355072	54	6046
2026-01-25 01:53:51.05	318.84	16.68	-41.9	-46.0	11.7	5.66e-04	0	61	0	182452224	54	6112
2026-01-25 01:53:52.06	318.62	16.69	-41.9	-46.1	11.6	5.81e-04	0	61	0	184549376	54	6163
2026-01-25 01:53:53.06	318.40	16.70	-41.9	-46.1	11.6	5.92e-04	0	61	0	186646528	54	6135
2026-01-25 01:53:54.07	318.17	16.71	-41.9	-46.0	11.7	5.67e-04	0	61	0	188743680	54	6078
2026-01-25 01:53:55.08	317.94	16.71	-41.9	-46.0	11.7	6.07e-04	0	61	0	189792256	54	6069
2026-01-25 01:53:56.09	317.72	16.72	-41.9	-45.9	11.7	4.81e-04	0	61	0	191889408	54	6043
2026-01-25 01:53:57.10	317.49	16.72	-41.8	-45.8	11.9	4.50e-04	0	61	0	193986560	54	5932
2026-01-25 01:53:58.11	317.26	16.73	-41.8	-45.8	11.9	3.99e-04	0	61	0	196083712	54	5969
2026-01-25 01:53:59.12	317.04	16.73	-41.8	-45.8	11.9	3.79e-04	0	61	0	198180864	54	5956
2026-01-25 01:54:00.13	316.81	16.73	-41.8	-45.7	11.9	3.61e-04	0	61	0	199229440	54	5920
2026-01-25 01:54:01.13	316.59	16.74	-41.8	-45.7	12.0	3.59e-04	0	61	0	201326592	54	5865
2026-01-25 01:54:02.14	316.36	16.74	-41.8	-45.8	11.9	3.55e-04	0	61	0	203423744	54	5947
2026-01-25 01:54:03.15	316.14	16.74	-41.7	-45.7	12.0	3.18e-04	0	61	0	205520896	54	5867
2026-01-25 01:54:04.16	315.91	16.75	-41.8	-45.7	12.0	3.55e-04	0	61	0	207618048	54	5867
2026-01-25 01:54:05.17	315.68	16.75	-41.7	-45.6	12.1	2.53e-04	0	61	0	208666624	54	5836
2026-01-25 01:54:06.18	315.46	16.75	-41.8	-45.7	12.0	2.92e-04	0	61	0	210763776	54	5897
2026-01-25 01:54:07.19	315.23	16.75	-41.8	-45.7	12.1	3.04e-04	0	61	0	212860928	54	5879
2026-01-25 01:54:08.20	315.00	16.75	-41.7	-45.6	12.1	2.92e-04	0	61	0	214958080	54	5796
2026-01-25 01:54:09.21	314.78	16.75	-41.7	-45.6	12.1	2.97e-04	0	61	0	217055232	54	5847
2026-01-25 01:54:10.22	314.55	16.75	-41.8	-45.7	12.0	2.83e-04	0	61	0	218103808	54	5869
2026-01-25 01:54:11.23	314.32	16.75	-41.8	-45.8	11.9	3.17e-04	0	61	0	220200960	54	5949
2026-01-25 01:54:12.23	314.10	16.74	-41.8	-45.9	11.8	3.41e-04	0	61	0	222298112	54	5993
2026-01-25 01:54:13.24	313.87	16.74	-41.9	-46.0	11.7	4.38e-04	0	61	0	224395264	54	6093
2026-01-25 01:54:14.25	313.64	16.74	-41.9	-46.0	11.6	6.57e-04	0	61	0	226492416	54	6128
2026-01-25 01:54:15.26	313.42	16.74	-42.0	-46.2	11.5	7.96e-04	0	61	0	227540992	54	6235
2026-01-25 01:54:16.27	313.19	16.73	-42.0	-46.3	11.4	9.23e-04	0	61	0	229638144	54	6283
2026-01-25 01:54:17.28	312.97	16.73	-42.0	-46.2	11.5	7.59e-04	0	61	0	231735296	54	6232
2026-01-25 01:54:18.29	312.74	16.73	-41.9	-45.9	11.8	5.40e-04	0	61	0	233832448	54	6056
2026-01-25 01:54:19.30	312.51	16.72	-41.9	-45.9	11.8	4.61e-04	0	61	0	235929600	54	6016
2026-01-25 01:54:20.31	312.29	16.71	-41.8	-45.9	11.8	4.89e-04	0	61	0	236978176	54	6000
2026-01-25 01:54:21.32	312.06	16.71	-41.8	-45.7	12.0	4.05e-04	0	61	0	239075328	54	5897
2026-01-25 01:54:22.33	311.83	16.70	-41.7	-45.6	12.2	2.59e-04	0	61	0	241172480	54	5791
2026-01-25 01:54:23.34	311.61	16.70	-41.7	-45.6	12.2	2.48e-04	0	61	0	243269632	54	5789
2026-01-25 01:54:24.35	311.38	16.69	-41.7	-45.6	12.1	2.53e-04	0	61	0	245366784	54	5842
2026-01-25 01:54:25.36	311.16	16.68	-41.7	-45.6	12.1	2.71e-04	0	61	0	246415360	54	5844
2026-01-25 01:54:26.37	310.93	16.67	-41.7	-45.6	12.1	2.72e-04	0	61	0	248512512	54	5844
2026-01-25 01:54:27.38	310.71	16.67	-41.7	-45.6	12.1	3.19e-04	0	61	0	250609664	54	5823
2026-01-25 01:54:28.39	310.48	16.66	-41.7	-45.6	12.1	2.53e-04	0	61	0	252706816	54	5853
2026-01-25 01:54:29.40	310.26	16.65	-41.8	-45.7	12.0	2.88e-04	0	61	0	254803968	54	5900
2026-01-25 01:54:30.40	310.03	16.64	-41.7	-45.6	12.1	2.88e-04	0	61	0	255852544	54	5838
2026-01-25 01:54:31.41	309.81	16.63	-41.7	-45.6	12.1	2.94e-04	0	61	0	257949696	54	5820
2026-01-25 01:54:32.42	309.58	16.62	-41.8	-45.7	12.0	2.72e-04	0	61	0	260046848	54	5894
2026-01-25 01:54:33.43	309.36	16.61	-41.8	-45.7	12.0	2.72e-04	0	61	0	262144000	54	5865
2026-01-25 01:54:34.44	309.13	16.59	-41.8	-45.7	12.0	2.74e-04	0	61	0	264241152	54	5897
2026-01-25 01:54:35.45	308.91	16.58	-41.8	-45.7	12.0	3.78e-04	0	61	0	265289728	54	5892
2026-01-25 01:54:36.46	308.68	16.57	-41.7	-45.6	12.1	2.57e-04	0	61	0	267386880	54	5849
2026-01-25 01:54:37.47	308.46	16.56	-41.7	-45.6	12.1	2.86e-04	0	61	0	269484032	54	5824
2026-01-25 01:54:38.48	308.24	16.54	-41.6	-45.4	12.3	2.22e-04	0	61	0	271581184	54	5708
2026-01-25 01:54:39.49	308.01	16.53	-41.6	-45.4	12.3	1.72e-04	0	61	0	273678336	54	5691
2026-01-25 01:54:40.50	307.79	16.51	-41.6	-45.4	12.3	1.90e-04	0	61	0	274726912	54	5668
2026-01-25 01:54:41.51	307.57	16.50	-41.6	-45.4	12.3	1.62e-04	0	61	0	276824064	54	5678
2026-01-25 01:54:42.52	307.34	16.49	-41.7	-45.5	12.2	2.09e-04	0	61	0	278921216	54	5749
2026-01-25 01:54:43.53	307.12	16.47	-41.6	-45.5	12.2	2.34e-04	0	61	0	281018368	54	5741
2026-01-25 01:54:44.54	306.90	16.45	-41.7	-45.6	12.1	2.04e-04	0	61	0	283115520	54	5798
2026-01-25 01:54:45.55	306.68	16.44	-41.6	-45.4	12.2	2.29e-04	0	61	0	285212672	54	5708
2026-01-25 01:54:46.56	306.46	16.42	-41.6	-45.4	12.3	1.69e-04	0	61	0	286261248	54	5683
2026-01-25 01:54:47.57	306.23	16.40	-41.6	-45.3	12.4	1.52e-04	0	61	0	288358400	54	5642
2026-01-25 01:54:48.58	306.01	16.39	-41.6	-45.3	12.4	1.37e-04	0	61	0	290455552	54	5614
2026-01-25 01:54:49.59	305.79	16.37	-41.5	-45.2	12.5	1.20e-04	0	61	0	292552704	54	5560
2026-01-25 01:54:50.60	305.57	16.35	-41.5	-45.1	12.6	9.76e-05	0	61	0	294649856	54	5507
2026-01-25 01:54:51.61	305.35	16.33	-41.4	-45.1	12.6	6.48e-05	0	61	0	295698432	54	5476
2026-01-25 01:54:52.62	305.13	16.31	-41.4	-45.0	12.7	7.70e-05	0	61	0	297795584	54	5460
2026-01-25 01:54:53.63	304.91	16.29	-41.4	-45.0	12.7	6.94e-05	0	61	0	299892736	54	5422
2026-01-25 01:54:54.64	304.69	16.27	-41.5	-45.1	12.6	8.85e-05	0	61	0	301989888	54	5521
2026-01-25 01:54:55.65	304.47	16.25	-41.4	-45.1	12.6	9.38e-05	0	61	0	304087040	54	5477
2026-01-25 01:54:56.66	304.25	16.23	-41.4	-45.1	12.6	1.17e-04	0	61	0	305135616	54	5500
2026-01-25 01:54:57.67	304.03	16.21	-41.4	-45.0	12.7	7.47e-05	0	61	0	307232768	54	5431
2026-01-25 01:54:58.68	303.81	16.19	-41.4	-44.9	12.8	7.17e-05	0	61	0	309329920	54	5398
2026-01-25 01:54:59.69	303.59	16.16	-41.3	-44.8	12.9	5.18e-05	0	61	0	311427072	54	5334
2026-01-25 01:55:00.70	303.38	16.14	-41.3	-44.9	12.8	5.26e-05	0	61	0	313524224	54	5341
2026-01-25 01:55:01.71	303.16	16.12	-41.3	-44.8	12.8	5.49e-05	0	61	0	314572800	54	5333
2026-01-25 01:55:02.72	302.94	16.10	-41.3	-44.8	12.8	5.95e-05	0	61	0	316669952	54	5330
2026-01-25 01:55:03.73	302.72	16.07	-41.4	-45.0	12.7	8.46e-05	0	61	0	318767104	54	5431
2026-01-25 01:55:04.74	302.51	16.05	-41.4	-45.0	12.6	7.93e-05	0	61	0	320864256	54	5453
2026-01-25 01:55:05.75	302.29	16.02	-41.4	-44.9	12.7	7.40e-05	0	61	0	322961408	54	5398
2026-01-25 01:55:06.76	302.08	16.00	-41.4	-45.1	12.6	7.78e-05	0	61	0	324009984	54	5482
2026-01-25 01:55:07.76	301.86	15.97	-41.4	-45.1	12.5	1.04e-04	0	61	0	326107136	54	5513
2026-01-25 01:55:08.78	301.65	15.95	-41.4	-45.1	12.6	9.99e-05	0	61	0	328204288	54	5503
2026-01-25 01:55:09.79	301.43	15.92	-41.5	-45.2	12.5	1.17e-04	0	61	0	330301440	54	5537
2026-01-25 01:55:10.80	301.22	15.89	-41.5	-45.3	12.4	1.39e-04	0	61	0	332398592	54	5594
2026-01-25 01:55:11.80	301.00	15.87	-41.5	-45.3	12.4	1.44e-04	0	61	0	333447168	54	5612
2026-01-25 01:55:12.81	300.79	15.84	-41.6	-45.4	12.3	1.79e-04	0	61	0	335544320	54	5679
2026-01-25 01:55:13.82	300.58	15.81	-41.6	-45.4	12.2	1.83e-04	0	61	0	337641472	54	5716
2026-01-25 01:55:14.83	300.36	15.79	-41.6	-45.4	12.2	2.12e-04	0	61	0	339738624	54	5721
2026-01-25 01:55:15.84	300.15	15.76	-41.6	-45.5	12.2	2.29e-04	0	61	0	341835776	54	5732
2026-01-25 01:55:16.85	299.94	15.73	-41.6	-45.5	12.1	2.75e-04	0	61	0	342884352	54	5743
2026-01-25 01:55:17.86	299.73	15.70	-41.6	-45.5	12.1	2.68e-04	0	61	0	344981504	54	5737
2026-01-25 01:55:18.87	299.52	15.67	-41.6	-45.4	12.3	2.18e-04	0	61	0	347078656	54	5671
2026-01-25 01:55:19.88	299.31	15.64	-41.6	-45.5	12.2	1.87e-04	0	61	0	349175808	54	5729
2026-01-25 01:55:20.89	299.10	15.61	-41.6	-45.5	12.1	2.37e-04	0	61	0	351272960	54	5769
2026-01-25 01:55:21.90	298.89	15.58	-41.6	-45.5	12.1	2.93e-04	0	61	0	353370112	54	5759
2026-01-25 01:55:22.91	298.68	15.55	-41.6	-45.5	12.1	2.61e-04	0	61	0	354418688	54	5733
2026-01-25 01:55:23.92	298.47	15.52	-41.7	-45.6	12.0	2.96e-04	0	61	0	356515840	54	5840
2026-01-25 01:55:24.93	298.26	15.49	-41.6	-45.5	12.1	3.09e-04	0	61	0	358612992	54	5777
2026-01-25 01:55:25.94	298.05	15.46	-41.6	-45.5	12.1	2.57e-04	0	61	0	360710144	54	5741
2026-01-25 01:55:26.95	297.84	15.42	-41.7	-45.6	11.9	3.43e-04	0	61	0	362807296	54	5843
2026-01-25 01:55:27.96	297.64	15.39	-41.7	-45.6	11.9	3.59e-04	0	61	0	363855872	54	5846
2026-01-25 01:55:28.96	297.43	15.36	-41.7	-45.7	11.8	4.50e-04	0	61	0	365953024	54	5903
2026-01-25 01:55:29.97	297.22	15.32	-41.7	-45.8	11.8	4.48e-04	0	61	0	368050176	54	5928
2026-01-25 01:55:30.98	297.02	15.29	-41.7	-45.8	11.8	4.75e-04	0	61	0	370147328	54	5949
2026-01-25 01:55:31.99	296.81	15.26	-41.7	-45.9	11.7	6.51e-04	0	61	0	372244480	54	5996
2026-01-25 01:55:33.00	296.61	15.22	-41.7	-45.8	11.7	5.57e-04	0	61	0	373293056	54	5973
2026-01-25 01:55:34.01	296.40	15.19	-41.8	-45.9	11.6	6.44e-04	0	61	0	375390208	54	6029
2026-01-25 01:55:35.02	296.20	15.15	-41.8	-46.0	11.5	7.83e-04	0	61	0	377487360	54	6078
2026-01-25 01:55:36.03	296.00	15.12	-41.7	-45.8	11.7	6.00e-04	0	61	0	379584512	54	5935
2026-01-25 01:55:37.04	295.79	15.08	-41.6	-45.7	11.8	5.29e-04	0	61	0	381681664	54	5860
2026-01-25 01:55:38.05	295.59	15.05	-41.6	-45.6	11.9	3.91e-04	0	61	0	382730240	54	5814
2026-01-25 01:55:39.05	295.39	15.01	-41.5	-45.5	12.0	3.17e-04	0	61	0	384827392	54	5733
2026-01-25 01:55:40.06	295.19	14.98	-41.4	-45.2	12.3	2.14e-04	0	62	0	386924544	54	5541
2026-01-25 01:55:41.07	294.99	14.94	-41.3	-45.1	12.4	1.38e-04	0	61	0	389021696	54	5467
2026-01-25 01:55:42.09	294.78	14.90	-41.3	-45.0	12.4	1.50e-04	0	61	0	391118848	54	5439
2026-01-25 01:55:43.10	294.58	14.87	-41.3	-45.0	12.3	1.47e-04	0	61	0	392167424	54	5451
2026-01-25 01:55:44.11	294.38	14.83	-41.4	-45.2	12.2	1.83e-04	0	61	0	394264576	54	5575
2026-01-25 01:55:45.12	294.18	14.79	-41.5	-45.4	12.0	3.20e-04	0	61	0	396361728	54	5686
2026-01-25 01:55:46.13	293.99	14.75	-41.5	-45.6	11.8	4.58e-04	0	61	0	398458880	54	5795
2026-01-25 01:55:47.13	293.79	14.71	-41.6	-45.7	11.7	4.90e-04	0	61	0	400556032	54	5858
2026-01-25 01:55:48.14	293.59	14.68	-41.5	-45.6	11.7	5.90e-04	0	61	0	401604608	54	5837
2026-01-25 01:55:49.15	293.40	14.64	-41.5	-45.6	11.7	6.22e-04	0	61	0	403701760	54	5827
2026-01-25 01:55:50.16	293.20	14.60	-41.5	-45.5	11.8	6.37e-04	0	61	0	405798912	54	5758
2026-01-25 01:55:51.17	293.00	14.56	-41.4	-45.3	11.9	4.00e-04	0	61	0	407896064	54	5645
2026-01-25 01:55:52.18	292.81	14.52	-41.4	-45.3	11.9	3.42e-04	0	61	0	409993216	54	5622
2026-01-25 01:55:53.19	292.61	14.48	-41.3	-45.1	12.1	3.08e-04	0	61	0	411041792	54	5516
2026-01-25 01:55:54.19	292.42	14.44	-41.3	-45.1	12.2	2.34e-04	0	61	0	413138944	54	5477
2026-01-25 01:55:55.20	292.23	14.40	-41.3	-45.1	12.2	2.37e-04	0	61	0	415236096	54	5487
2026-01-25 01:55:56.22	292.03	14.36	-41.3	-45.1	12.1	2.24e-04	0	61	0	417333248	54	5522
2026-01-25 01:55:57.22	291.84	14.32	-41.2	-45.1	12.2	2.43e-04	0	61	0	419430400	54	5471
2026-01-25 01:55:58.23	291.65	14.27	-41.2	-45.0	12.2	2.01e-04	0	61	0	421527552	54	5451
2026-01-25 01:55:59.24	291.46	14.23	-41.2	-45.1	12.2	2.38e-04	0	61	0	422576128	54	5480
2026-01-25 01:56:00.25	291.26	14.19	-41.3	-45.2	12.0	2.62e-04	0	62	0	424673280	54	5552
2026-01-25 01:56:01.26	291.07	14.15	-41.3	-45.2	12.0	3.51e-04	0	61	0	426770432	54	5576
2026-01-25 01:56:02.27	290.88	14.11	-41.3	-45.3	11.9	3.42e-04	0	61	0	428867584	54	5596
2026-01-25 01:56:03.28	290.69	14.06	-41.4	-45.4	11.8	4.43e-04	0	61	0	430964736	54	5699
2026-01-25 01:56:04.29	290.50	14.02	-41.3	-45.3	11.8	5.21e-04	0	61	0	432013312	54	5648
2026-01-25 01:56:05.30	290.32	13.98	-41.3	-45.3	11.8	5.00e-04	0	62	0	434110464	54	5638
2026-01-25 01:56:06.31	290.13	13.94	-41.2	-45.1	11.9	5.31e-04	0	61	0	436207616	54	5521
2026-01-25 01:56:07.32	289.94	13.89	-41.1	-45.1	11.9	3.97e-04	0	61	0	438304768	54	5491
2026-01-25 01:56:08.33	289.75	13.85	-41.1	-45.0	12.0	3.33e-04	0	61	0	440401920	54	5413
2026-01-25 01:56:09.34	289.57	13.81	-41.1	-45.0	12.0	2.68e-04	0	61	0	441450496	54	5442
2026-01-25 01:56:10.35	289.38	13.76	-41.1	-45.0	12.0	3.43e-04	0	61	0	443547648	54	5423
2026-01-25 01:56:11.36	289.20	13.72	-41.0	-44.9	12.1	3.27e-04	0	61	0	445644800	54	5378
2026-01-25 01:56:12.37	289.01	13.67	-41.1	-45.0	11.9	3.42e-04	0	61	0	447741952	54	5433
2026-01-25 01:56:13.37	288.83	13.63	-41.1	-45.1	11.8	4.10e-04	0	61	0	449839104	54	5474
2026-01-25 01:56:14.38	288.65	13.58	-41.2	-45.3	11.6	6.36e-04	0	61	0	450887680	54	5626
2026-01-25 01:56:15.39	288.46	13.54	-41.2	-45.4	11.4	8.91e-04	0	61	0	452984832	54	5699
2026-01-25 01:56:16.40	288.28	13.49	-41.4	-45.7	11.1	1.07e-03	0	61	0	455081984	54	5878
2026-01-25 01:56:17.41	288.10	13.45	-41.3	-45.8	11.0	1.77e-03	0	61	0	457179136	54	5938
2026-01-25 01:56:18.42	287.92	13.40	-41.4	-45.9	10.8	2.15e-03	0	61	0	459276288	54	6040
2026-01-25 01:56:19.43	287.74	13.36	-41.4	-46.0	10.7	2.75e-03	0	61	0	460324864	54	6088
2026-01-25 01:56:20.44	287.56	13.31	-41.4	-46.0	10.6	3.08e-03	0	62	0	462422016	54	6111
2026-01-25 01:56:21.45	287.38	13.26	-41.4	-46.1	10.6	3.35e-03	0	61	0	464519168	54	6135
2026-01-25 01:56:22.46	287.20	13.22	-41.4	-46.2	10.4	3.83e-03	0	61	0	466616320	54	6226
2026-01-25 01:56:23.46	287.02	13.17	-41.4	-46.2	10.3	5.26e-03	0	62	0	468713472	54	6270
2026-01-25 01:56:24.47	286.84	13.12	-41.4	-46.2	10.3	5.24e-03	0	62	0	469762048	54	6233
2026-01-25 01:56:25.48	286.67	13.08	-41.5	-46.4	10.0	5.84e-03	0	61	0	471859200	54	6413
2026-01-25 01:56:26.49	286.49	13.03	-41.5	-46.5	9.9	7.88e-03	0	62	0	473956352	54	6470
2026-01-25 01:56:27.50	286.31	12.98	-41.6	-46.7	9.7	1.07e-02	0	61	0	476053504	54	6628
2026-01-25 01:56:28.51	286.14	12.93	-41.6	-46.8	9.5	1.29e-02	0	61	0	478150656	54	6704
2026-01-25 01:56:29.52	285.96	12.89	-41.6	-46.9	9.4	1.37e-02	0	61	0	479199232	54	6760
2026-01-25 01:56:30.53	285.79	12.84	-41.6	-47.1	9.3	1.79e-02	0	61	0	481296384	54	6882
2026-01-25 01:56:31.54	285.61	12.79	-41.6	-47.1	9.2	2.18e-02	0	61	0	483393536	54	6928
2026-01-25 01:56:32.55	285.44	12.74	-41.6	-47.2	9.1	2.22e-02	0	61	0	485490688	54	7006
2026-01-25 01:56:33.56	285.27	12.69	-41.7	-47.2	9.1	2.31e-02	0	61	0	487587840	54	7016
2026-01-25 01:56:34.57	285.10	12.64	-41.7	-47.3	9.0	2.45e-02	0	62	0	489684992	54	7104
2026-01-25 01:56:35.58	284.92	12.60	-41.7	-47.4	8.9	2.61e-02	0	61	0	490733568	54	7129
2026-01-25 01:56:36.59	284.75	12.55	-41.7	-47.4	8.9	2.81e-02	0	61	0	492830720	54	7164
2026-01-25 01:56:37.60	284.58	12.50	-41.8	-47.5	8.8	3.26e-02	0	61	0	494927872	54	7269
2026-01-25 01:56:38.61	284.41	12.45	-41.7	-47.6	8.7	3.29e-02	0	61	0	497025024	54	7288
2026-01-25 01:56:39.62	284.24	12.40	-41.8	-47.7	8.5	3.75e-02	0	62	0	499122176	54	7420
2026-01-25 01:56:40.62	284.08	12.35	-41.8	-47.8	8.4	4.49e-02	0	62	0	500170752	54	7520
2026-01-25 01:56:41.63	283.91	12.30	-41.9	-48.0	8.3	4.74e-02	0	61	0	502267904	54	7708
2026-01-25 01:56:42.64	283.74	12.25	-41.9	-48.1	8.2	5.42e-02	0	61	0	504365056	54	7758
2026-01-25 01:56:43.65	283.57	12.20	-41.9	-48.1	8.1	6.06e-02	0	61	0	506462208	54	7807
2026-01-25 01:56:44.66	283.41	12.15	-41.9	-48.2	8.1	5.87e-02	0	61	0	507510784	54	7845
2026-01-25 01:56:45.67	283.24	12.10	-41.9	-48.1	8.2	5.95e-02	0	61	0	509607936	54	7777
2026-01-25 01:56:46.68	283.08	12.05	-41.9	-48.0	8.3	5.21e-02	0	62	0	511705088	54	7633
2026-01-25 01:56:47.69	282.91	12.00	-41.9	-48.0	8.3	5.07e-02	0	62	0	513802240	54	7633
2026-01-25 01:56:48.70	282.75	11.95	-41.8	-47.7	8.5	4.58e-02	0	61	0	515899392	54	7418
2026-01-25 01:56:49.71	282.58	11.90	-41.8	-47.5	8.8	3.40e-02	0	61	0	517996544	54	7277
2026-01-25 01:56:50.72	282.42	11.85	-41.8	-47.6	8.8	2.91e-02	0	61	0	519045120	54	7326
2026-01-25 01:56:51.73	282.26	11.80	-41.9	-47.6	8.8	3.04e-02	0	61	0	521142272	54	7325
2026-01-25 01:56:52.74	282.09	11.75	-41.9	-47.7	8.8	3.17e-02	0	61	0	523239424	54	7391
2026-01-25 01:56:53.75	281.93	11.70	-42.0	-47.8	8.7	3.08e-02	0	62	0	525336576	54	7518
2026-01-25 01:56:54.76	281.77	11.64	-42.0	-47.9	8.7	3.60e-02	0	62	0	527433728	54	7583
2026-01-25 01:56:55.76	281.61	11.59	-42.1	-48.1	8.5	3.75e-02	0	61	0	528482304	54	7720
2026-01-25 01:56:56.77	281.45	11.54	-42.1	-48.2	8.3	4.70e-02	0	62	0	530579456	54	7844
2026-01-25 01:56:57.78	281.30	11.49	-42.2	-48.2	8.4	5.01e-02	0	61	0	532676608	54	7891
2026-01-25 01:56:58.79	281.14	11.44	-42.2	-48.2	8.3	4.92e-02	0	62	0	534773760	54	7897
2026-01-25 01:56:59.80	280.98	11.39	-42.2	-48.2	8.4	4.67e-02	0	62	0	536870912	54	7821
2026-01-25 01:57:00.81	280.82	11.33	-42.1	-48.0	8.5	4.11e-02	0	62	0	537919488	54	7705
2026-01-25 01:57:01.82	280.66	11.28	-42.1	-48.0	8.5	4.17e-02	0	61	0	540016640	54	7683
2026-01-25 01:57:02.83	280.51	11.23	-42.1	-48.1	8.4	4.37e-02	0	61	0	542113792	54	7739
2026-01-25 01:57:03.84	280.35	11.18	-42.1	-48.0	8.4	4.50e-02	0	61	0	544210944	54	7718
2026-01-25 01:57:04.85	280.20	11.13	-42.0	-47.8	8.6	3.96e-02	0	61	0	546308096	54	7543
2026-01-25 01:57:05.86	280.04	11.07	-42.1	-47.9	8.6	3.74e-02	0	61	0	547356672	54	7590
2026-01-25 01:57:06.88	279.89	11.02	-42.1	-48.1	8.4	4.06e-02	0	61	0	549453824	54	7747
2026-01-25 01:57:07.88	279.74	10.97	-42.1	-48.2	8.3	4.90e-02	0	62	0	551550976	54	7871
2026-01-25 01:57:08.89	279.58	10.92	-42.1	-48.2	8.2	5.32e-02	0	61	0	553648128	54	7847
2026-01-25 01:57:09.90	279.43	10.86	-42.1	-48.3	8.1	6.02e-02	0	62	0	555745280	54	7905
2026-01-25 01:57:10.91	279.28	10.81	-42.1	-48.4	8.0	6.51e-02	0	62	0	557842432	54	8004
2026-01-25 01:57:11.92	279.13	10.76	-42.1	-48.4	7.9	6.94e-02	0	62	0	558891008	54	8029
2026-01-25 01:57:12.94	278.97	10.70	-42.0	-48.4	7.9	7.20e-02	0	61	0	560988160	54	8027
2026-01-25 01:57:13.95	278.82	10.65	-42.0	-48.4	7.8	7.33e-02	0	62	0	563085312	54	8081
2026-01-25 01:57:14.95	278.68	10.60	-42.0	-48.5	7.8	7.77e-02	0	62	0	565182464	54	8121
2026-01-25 01:57:15.96	278.53	10.54	-41.9	-48.4	7.7	8.27e-02	0	61	0	567279616	54	8077
2026-01-25 01:57:16.97	278.38	10.49	-41.9	-48.4	7.8	8.15e-02	0	62	0	568328192	54	8050
2026-01-25 01:57:17.98	278.23	10.44	-41.9	-48.5	7.7	8.84e-02	0	62	0	570425344	54	8104
2026-01-25 01:57:18.99	278.08	10.38	-41.9	-48.5	7.5	9.78e-02	0	62	0	572522496	54	8170
2026-01-25 01:57:20.00	277.94	10.33	-41.9	-48.6	7.4	1.09e-01	0	62	0	574619648	54	8212
2026-01-25 01:57:21.01	277.79	10.28	-41.9	-48.7	7.3	1.16e-01	0	62	0	575668224	54	8313
2026-01-25 01:57:22.02	277.64	10.22	-41.8	-48.8	7.2	1.35e-01	0	62	0	577765376	54	8378
2026-01-25 01:57:23.03	277.50	10.17	-41.8	-48.9	7.0	1.43e-01	0	62	0	579862528	54	8525
2026-01-25 01:57:24.03	277.36	10.12	-42.1	-50.3	5.9	2.29e-01	0	62	0	581959680	54	9987
2026-01-25 01:57:25.04	277.21	10.06	-41.8	-53.3	4.1	2.82e-01	0	62	0	583008256	54	14119
2026-01-25 01:57:26.05	277.07	10.01	-43.1	-53.3	4.6	6.24e-01	0	62	0	585105408	56	12596
2026-01-25 01:57:27.06	276.93	9.96	-40.9	-53.9	3.8	7.58e-01	0	62	104	586153984	53	16084
2026-01-25 01:57:28.07	276.78	9.90	-41.5	-49.6	6.0	1.23e+00	0	62	0	586153984	53	9804
2026-01-25 01:57:29.08	276.64	9.85	-41.6	-49.7	6.0	3.35e-01	0	62	0	588251136	53	9849
2026-01-25 01:57:30.09	276.50	9.79	-41.5	-50.0	5.7	4.03e-01	0	61	0	590348288	53	10188
2026-01-25 01:57:31.10	276.36	9.74	-41.5	-50.1	5.6	4.28e-01	0	62	0	592445440	53	10325
2026-01-25 01:57:32.11	276.22	9.69	-41.5	-50.3	5.3	5.15e-01	0	62	0	594542592	53	10647
2026-01-25 01:57:33.12	276.08	9.63	-41.4	-50.5	5.2	6.03e-01	0	61	0	595591168	53	10845
2026-01-25 01:57:34.13	275.94	9.58	-40.8	-52.0	4.2	1.13e+00	0	62	0	597688320	53	12910
2026-01-25 01:57:35.14	275.80	9.52	-42.3	-52.2	4.6	9.26e-01	2	62	0	598736896	55	11785
2026-01-25 01:57:36.15	275.66	9.47	-40.4	-53.5	3.8	1.47e+00	0	62	104	599785472	52	16243
2026-01-25 01:57:37.16	275.52	9.41	-41.4	-53.6	3.8	1.48e+00	0	62	104	599785472	53	15540
2026-01-25 01:57:38.17	275.39	9.36	-41.8	-52.1	4.5	9.68e-01	1	61	0	600834048	54	12334
2026-01-25 01:57:39.18	275.25	9.31	-41.6	-51.9	4.5	9.86e-01	7	62	0	602931200	54	12034
2026-01-25 01:57:40.19	275.11	9.25	-41.6	-52.1	4.4	1.11e+00	39	62	0	603979776	54	12283
2026-01-25 01:57:41.20	274.98	9.20	-41.6	-52.4	4.3	1.24e+00	73	62	0	606076928	54	12678
2026-01-25 01:57:42.21	274.84	9.14	-41.5	-52.6	4.2	1.36e+00	0	62	0	606076928	54	13029
2026-01-25 01:57:43.22	274.71	9.09	-41.5	-52.8	4.2	1.39e+00	0	62	0	606076928	54	13261
2026-01-25 01:57:44.23	274.57	9.03	-41.5	-52.9	4.1	1.40e+00	0	62	0	606076928	54	13425
2026-01-25 01:57:45.24	274.44	8.98	-41.3	-53.1	3.9	1.44e+00	0	62	104	606076928	54	13736
2026-01-25 01:57:46.25	274.31	8.92	-40.9	-54.2	3.8	1.49e+00	0	62	104	606076928	53	16573
2026-01-25 01:57:47.26	274.17	8.87	-40.5	-53.8	3.8	1.49e+00	0	62	104	606076928	52	16864
2026-01-25 01:57:48.27	274.04	8.81	-41.1	-54.3	3.8	1.49e+00	0	61	104	606076928	53	16761
2026-01-25 01:57:49.28	273.91	8.76	-40.1	-54.2	3.8	1.49e+00	0	62	104	606076928	52	17590
2026-01-25 01:57:50.28	273.78	8.71	-40.4	-53.8	3.8	1.49e+00	0	61	104	606076928	52	16841
2026-01-25 01:57:51.29	273.65	8.65	-40.4	-53.9	3.8	1.49e+00	0	62	104	606076928	52	16911
2026-01-25 01:57:52.30	273.52	8.60	-40.3	-54.0	3.8	1.49e+00	0	62	104	606076928	52	17094
2026-01-25 01:57:53.31	273.39	8.54	-40.3	-54.1	3.8	1.49e+00	0	62	104	606076928	52	17375
2026-01-25 01:57:54.33	273.26	8.49	-40.3	-54.1	3.8	1.49e+00	0	62	104	606076928	52	17461
2026-01-25 01:57:55.34	273.13	8.43	-40.6	-54.6	3.8	1.49e+00	0	62	104	606076928	52	18488
2026-01-25 01:57:56.35	273.00	8.38	-40.7	-54.4	3.8	1.49e+00	0	62	104	606076928	52	18082
2026-01-25 01:57:57.35	272.87	8.32	-40.0	-54.4	3.8	1.49e+00	0	62	104	606076928	51	19118
2026-01-25 01:57:58.36	272.75	8.27	-40.2	-54.3	3.8	1.49e+00	0	61	104	606076928	51	18851
2026-01-25 01:57:59.37	272.62	8.21	-40.2	-54.2	3.8	1.49e+00	0	62	104	606076928	51	18727
2026-01-25 01:58:00.38	272.49	8.16	-40.1	-54.2	3.8	1.49e+00	0	62	104	606076928	51	18723
2026-01-25 01:58:01.39	272.37	8.10	-40.0	-54.3	3.8	1.49e+00	0	62	104	606076928	51	18821
2026-01-25 01:58:02.40	272.24	8.05	-40.2	-54.3	3.8	1.49e+00	0	62	104	606076928	51	18787
2026-01-25 01:58:03.41	272.12	7.99	-40.5	-55.0	3.8	1.49e+00	0	62	104	606076928	51	20421
2026-01-25 01:58:04.42	271.99	7.94	-44.4	-58.8	3.8	1.49e+00	0	62	104	606076928	59	19963
2026-01-25 01:58:05.43	271.87	7.88	-44.6	-59.4	3.8	1.49e+00	0	62	104	606076928	60	20276
2026-01-25 01:58:06.44	271.75	7.83	-44.9	-59.6	3.8	1.49e+00	0	62	104	606076928	60	20595
2026-01-25 01:58:07.45	271.62	7.77	-45.0	-59.7	3.8	1.49e+00	0	62	104	606076928	60	20799
2026-01-25 01:58:08.46	271.50	7.72	-45.1	-59.8	3.8	1.49e+00	0	62	104	606076928	60	21038
2026-01-25 01:58:09.47	271.38	7.66	-45.1	-59.8	3.8	1.49e+00	0	62	104	606076928	60	21159
2026-01-25 01:58:10.48	271.26	7.61	-45.1	-59.8	3.8	1.49e+00	0	62	104	606076928	60	21162
2026-01-25 01:58:11.49	271.14	7.55	-45.2	-59.8	3.8	1.49e+00	0	62	104	606076928	60	21230
2026-01-25 01:58:12.50	271.02	7.50	-45.2	-59.8	3.8	1.49e+00	0	62	104	606076928	60	21134
2026-01-25 01:58:13.51	270.90	7.44	-45.2	-59.8	3.8	1.49e+00	0	62	104	606076928	60	21209
2026-01-25 01:58:14.52	270.78	7.39	-45.2	-59.8	3.8	1.49e+00	0	62	104	606076928	61	20025
2026-01-25 01:58:15.53	270.66	7.33	-45.2	-59.8	3.8	1.49e+00	0	62	104	606076928	61	19888
2026-01-25 01:58:16.54	270.54	7.28	-45.1	-59.7	3.8	1.49e+00	0	62	104	606076928	61	19814
2026-01-25 01:58:17.55	270.42	7.22	-45.1	-59.7	3.8	1.49e+00	0	62	104	606076928	61	19760
2026-01-25 01:58:18.56	270.30	7.17	-45.1	-59.7	3.8	1.49e+00	0	62	104	606076928	61	19780
2026-01-25 01:58:19.57	270.18	7.11	-45.2	-59.8	3.8	1.49e+00	0	62	104	606076928	61	20003
2026-01-25 01:58:20.58	270.07	7.06	-45.1	-59.7	3.8	1.49e+00	0	62	104	606076928	61	19735
2026-01-25 01:58:21.59	269.95	7.00	-45.1	-59.7	3.8	1.49e+00	0	62	104	606076928	61	19652
2026-01-25 01:58:22.60	269.84	6.95	-45.1	-59.7	3.8	1.49e+00	0	62	104	606076928	61	19767
2026-01-25 01:58:23.61	269.72	6.89	-45.1	-59.7	3.8	1.49e+00	0	62	104	606076928	61	19763
2026-01-25 01:58:24.62	269.60	6.84	-45.1	-59.7	3.8	1.49e+00	0	62	104	606076928	61	19782
2026-01-25 01:58:25.63	269.49	6.78	-45.1	-59.7	3.8	1.49e+00	0	62	104	606076928	61	19724
2026-01-25 01:58:26.64	269.38	6.73	-45.1	-59.7	3.8	1.49e+00	0	62	104	606076928	61	19713
2026-01-25 01:58:27.66	269.26	6.67	-45.1	-59.7	3.8	1.49e+00	0	62	104	606076928	61	19761
2026-01-25 01:58:28.67	269.15	6.62	-45.1	-59.7	3.8	1.49e+00	0	62	104	606076928	61	19740
2026-01-25 01:58:29.68	269.03	6.56	-45.1	-59.7	3.8	1.49e+00	0	62	104	606076928	61	19733
2026-01-25 01:58:30.69	268.92	6.51	-45.1	-59.7	3.8	1.49e+00	0	62	104	606076928	61	19659
2026-01-25 01:58:31.70	268.81	6.45	-45.1	-59.7	3.8	1.49e+00	0	62	104	606076928	61	19649
2026-01-25 01:58:32.71	268.70	6.40	-45.1	-59.7	3.8	1.49e+00	0	62	104	606076928	61	19721
2026-01-25 01:58:33.72	268.59	6.34	-45.1	-59.7	3.8	1.49e+00	0	62	104	606076928	61	19725
2026-01-25 01:58:34.73	268.48	6.29	-45.1	-59.7	3.8	1.49e+00	0	62	104	606076928	61	19800
2026-01-25 01:58:35.74	268.37	6.23	-45.1	-59.7	3.8	1.49e+00	0	62	104	606076928	61	19737
2026-01-25 01:58:36.75	268.26	6.18	-45.1	-59.7	3.8	1.49e+00	0	62	104	606076928	61	19721
2026-01-25 01:58:37.76	268.15	6.12	-45.1	-59.7	3.8	1.49e+00	0	62	104	606076928	61	19724
2026-01-25 01:58:38.77	268.04	6.07	-45.1	-59.7	3.8	1.49e+00	0	62	104	606076928	61	19730
2026-01-25 01:58:39.78	267.93	6.01	-45.1	-59.7	3.8	1.49e+00	0	62	104	606076928	61	19677
2026-01-25 01:58:40.79	267.82	5.96	-45.1	-59.7	3.8	1.49e+00	0	62	104	606076928	61	19766
2026-01-25 01:58:41.80	267.71	5.90	-45.1	-59.7	3.8	1.49e+00	0	62	104	606076928	61	19681
2026-01-25 01:58:42.81	267.60	5.85	-45.1	-59.7	3.8	1.49e+00	0	62	104	606076928	61	19694
2026-01-25 01:58:43.83	267.50	5.79	-45.1	-59.7	3.8	1.49e+00	0	62	104	606076928	61	19653
2026-01-25 01:58:44.84	267.39	5.74	-45.1	-59.7	3.8	1.49e+00	0	62	104	606076928	61	19702
2026-01-25 01:58:45.85	267.28	5.68	-45.1	-59.7	3.8	1.49e+00	0	62	104	606076928	61	19659
2026-01-25 01:58:46.86	267.18	5.63	-45.1	-59.7	3.8	1.49e+00	0	62	104	606076928	61	19648
2026-01-25 01:58:47.87	267.07	5.58	-45.1	-59.7	3.8	1.49e+00	0	62	104	606076928	61	19731
2026-01-25 01:58:48.88	266.97	5.52	-45.1	-59.7	3.8	1.49e+00	0	62	104	606076928	61	19640
2026-01-25 01:58:49.89	266.86	5.47	-45.1	-59.7	3.8	1.49e+00	0	62	104	606076928	61	19707
2026-01-25 01:58:50.90	266.76	5.41	-45.1	-59.7	3.8	1.49e+00	0	62	104	606076928	61	19632
2026-01-25 01:58:51.91	266.65	5.36	-45.1	-59.7	3.8	1.49e+00	0	62	104	606076928	61	19663
2026-01-25 01:58:52.92	266.55	5.30	-45.1	-59.7	3.8	1.49e+00	0	62	104	606076928	61	19684
2026-01-25 01:58:53.93	266.45	5.25	-45.1	-59.6	3.8	1.49e+00	0	62	104	606076928	61	19591
2026-01-25 01:58:54.93	266.35	5.19	-45.1	-59.7	3.8	1.49e+00	0	62	104	606076928	61	19680
2026-01-25 01:58:55.95	266.24	5.14	-45.1	-59.7	3.8	1.49e+00	0	62	104	606076928	61	19732
2026-01-25 01:58:56.96	266.14	5.08	-45.1	-59.7	3.8	1.49e+00	0	62	104	606076928	61	19645
2026-01-25 01:58:57.96	266.04	5.03	-45.1	-59.7	3.8	1.49e+00	0	62	104	606076928	61	19693
2026-01-25 01:58:58.97	265.94	4.98	-45.1	-59.7	3.8	1.49e+00	0	62	104	606076928	61	19663
2026-01-25 01:58:59.99	265.84	4.92	-45.1	-59.7	3.8	1.49e+00	0	62	104	606076928	61	19667
2026-01-25 01:59:01.00	265.74	4.87	-45.1	-59.7	3.8	1.49e+00	0	62	104	606076928	61	19648
2026-01-25 01:59:02.01	265.64	4.81	-45.1	-59.7	3.8	1.49e+00	0	62	104	606076928	61	19641
2026-01-25 01:59:03.02	265.54	4.76	-45.1	-59.7	3.8	1.49e+00	0	62	104	606076928	61	19708
2026-01-25 01:59:04.03	265.44	4.71	-45.1	-59.7	3.8	1.49e+00	0	62	104	606076928	61	19684
2026-01-25 01:59:05.04	265.34	4.65	-45.1	-59.6	3.8	1.49e+00	0	62	104	606076928	61	19582
2026-01-25 01:59:06.05	265.24	4.60	-45.1	-59.7	3.8	1.49e+00	0	62	104	606076928	61	19619
2026-01-25 01:59:07.06	265.14	4.54	-45.1	-59.7	3.8	1.49e+00	0	62	104	606076928	61	19628
2026-01-25 01:59:08.07	265.05	4.49	-45.1	-59.6	3.8	1.49e+00	0	62	104	606076928	61	19599
2026-01-25 01:59:09.08	264.95	4.43	-45.1	-59.7	3.8	1.49e+00	0	62	104	606076928	61	19631
2026-01-25 01:59:10.09	264.85	4.38	-45.1	-59.7	3.8	1.49e+00	0	62	104	606076928	61	19671
2026-01-25 01:59:11.10	264.75	4.33	-45.1	-59.7	3.8	1.49e+00	0	62	104	606076928	61	19622
2026-01-25 01:59:12.11	264.66	4.27	-45.1	-59.7	3.8	1.49e+00	0	62	104	606076928	61	19643
2026-01-25 01:59:13.12	264.56	4.22	-45.1	-59.6	3.8	1.49e+00	0	62	104	606076928	61	19581
2026-01-25 01:59:14.13	264.47	4.17	-45.1	-59.7	3.8	1.49e+00	0	62	104	606076928	61	19642
2026-01-25 01:59:15.14	264.37	4.11	-45.1	-59.7	3.8	1.49e+00	0	62	104	606076928	61	19690
2026-01-25 01:59:16.15	264.28	4.06	-45.1	-59.6	3.8	1.49e+00	0	62	104	606076928	61	19556
2026-01-25 01:59:17.16	264.18	4.00	-45.1	-59.6	3.8	1.49e+00	0	62	104	606076928	61	19583
2026-01-25 01:59:18.18	264.09	3.95	-45.1	-59.7	3.8	1.49e+00	0	62	104	606076928	61	19618
2026-01-25 01:59:19.19	263.99	3.90	-45.1	-59.6	3.8	1.49e+00	0	62	104	606076928	61	19600
2026-01-25 01:59:20.20	263.90	3.84	-45.1	-59.6	3.8	1.49e+00	0	62	104	606076928	61	19610
2026-01-25 01:59:21.21	263.81	3.79	-45.1	-59.6	3.8	1.49e+00	0	62	104	606076928	61	19531
2026-01-25 01:59:22.22	263.71	3.74	-45.1	-59.7	3.8	1.49e+00	0	62	104	606076928	61	19672
2026-01-25 01:59:23.23	263.62	3.68	-45.1	-59.6	3.8	1.49e+00	0	62	104	606076928	61	19583
2026-01-25 01:59:24.24	263.53	3.63	-45.0	-59.7	3.8	1.49e+00	0	62	104	606076928	61	19617
2026-01-25 01:59:25.25	263.44	3.57	-45.0	-59.6	3.8	1.49e+00	0	62	104	606076928	61	19558
2026-01-25 01:59:26.26	263.35	3.52	-45.1	-59.7	3.8	1.49e+00	0	62	104	606076928	61	19632
2026-01-25 01:59:27.27	263.26	3.47	-45.0	-59.6	3.8	1.49e+00	0	62	104	606076928	61	19539
2026-01-25 01:59:28.28	263.17	3.41	-45.1	-59.7	3.8	1.49e+00	0	62	104	606076928	61	19673
2026-01-25 01:59:29.29	263.08	3.36	-45.0	-59.6	3.8	1.49e+00	0	62	104	606076928	61	19567
2026-01-25 01:59:30.30	262.99	3.31	-45.0	-59.6	3.8	1.49e+00	0	62	104	606076928	61	19592
2026-01-25 01:59:31.31	262.90	3.26	-45.0	-59.6	3.8	1.49e+00	0	62	104	606076928	61	19524
2026-01-25 01:59:32.32	262.81	3.20	-45.0	-59.7	3.8	1.49e+00	0	62	104	606076928	61	19622
2026-01-25 01:59:33.33	262.72	3.15	-45.0	-59.6	3.8	1.49e+00	0	62	104	606076928	61	19579
2026-01-25 01:59:34.34	262.63	3.10	-45.1	-59.7	3.8	1.49e+00	0	62	104	606076928	61	19617
2026-01-25 01:59:35.35	262.54	3.04	-45.1	-59.6	3.8	1.49e+00	0	62	104	606076928	61	19576
2026-01-25 01:59:36.36	262.45	2.99	-45.0	-59.6	3.8	1.49e+00	0	62	104	606076928	61	19601
2026-01-25 01:59:37.37	262.36	2.94	-45.0	-59.6	3.8	1.49e+00	0	62	104	606076928	61	19579
2026-01-25 01:59:38.38	262.28	2.88	-45.0	-59.6	3.8	1.49e+00	0	62	104	606076928	61	19539
2026-01-25 01:59:39.39	262.19	2.83	-45.0	-59.6	3.8	1.49e+00	0	62	104	606076928	61	19588
2026-01-25 01:59:40.40	262.10	2.78	-45.0	-59.6	3.8	1.49e+00	0	62	104	606076928	61	19590
2026-01-25 01:59:41.41	262.02	2.73	-45.0	-59.6	3.8	1.49e+00	0	62	104	606076928	61	19563
2026-01-25 01:59:42.42	261.93	2.67	-45.0	-59.6	3.8	1.49e+00	0	62	104	606076928	61	19569
2026-01-25 01:59:43.43	261.85	2.62	-45.0	-59.6	3.8	1.49e+00	0	62	104	606076928	61	19563
2026-01-25 01:59:44.44	261.76	2.57	-45.0	-59.7	3.8	1.49e+00	0	62	104	606076928	61	19636
2026-01-25 01:59:45.45	261.67	2.51	-45.0	-59.7	3.8	1.49e+00	0	62	104	606076928	61	19616
2026-01-25 01:59:46.46	261.59	2.46	-45.0	-59.6	3.8	1.49e+00	0	62	104	606076928	61	19607
2026-01-25 01:59:47.48	261.50	2.41	-45.0	-59.6	3.8	1.49e+00	0	62	104	606076928	61	19546
2026-01-25 01:59:48.49	261.42	2.36	-45.0	-59.6	3.8	1.49e+00	0	62	104	606076928	61	19482
2026-01-25 01:59:49.50	261.34	2.30	-45.0	-59.6	3.8	1.49e+00	0	62	104	606076928	61	19597
2026-01-25 01:59:50.51	261.25	2.25	-45.0	-59.6	3.8	1.49e+00	0	62	104	606076928	61	19579
2026-01-25 01:59:51.52	261.17	2.20	-45.0	-59.6	3.8	1.49e+00	0	62	104	606076928	61	19528
2026-01-25 01:59:52.53	261.09	2.15	-45.0	-59.6	3.8	1.49e+00	0	62	104	606076928	61	19538
2026-01-25 01:59:53.54	261.00	2.09	-45.0	-59.6	3.8	1.49e+00	0	62	104	606076928	61	19566
2026-01-25 01:59:54.55	260.92	2.04	-45.0	-59.6	3.8	1.49e+00	0	62	104	606076928	61	19553
2026-01-25 01:59:55.56	260.84	1.99	-45.0	-59.6	3.8	1.49e+00	0	62	104	606076928	61	19534
2026-01-25 01:59:56.57	260.76	1.94	-45.0	-59.6	3.8	1.49e+00	0	62	104	606076928	61	19563

#Closed at: 2026-01-25 01:59:57
#Recorded file [606 MB]: D:/lorett/data/31039_260125_044821.dat