passes_logs/2026/01/25/R2.0S_Moscow/R2.0S_Moscow__20260125_075941_SUOMI_NPP_rec.log

#Pass ID: 20260125_075941_SUOMI NPP
#Satellite: SUOMI NPP
#Configuration: NPP
#almurnet v.1.7.20251203
#Start time: 2026-01-25 07:59:42

#Version: 2.2.20231116
#Station: R2.0S_Moscow
#Location: 37.707566 lon 55.798166 lat
#TLE: 1 37849U 11061A   26024.54906732  .00000185  00000+0  10878-3 0  9990
#TLE: 2 37849  98.7821 326.5159 0002200  47.3746 312.7615 14.19529340738061

#Time	Az	El	Level	Level2	SNR	BER	BlckErr	Temp	State	Recorded	gain1	gain2
2026-01-25 07:59:42.00	101.42	2.04	-40.2	-54.7	3.8	1.49e+00	0	52	0	0	51	19827
2026-01-25 07:59:43.00	101.34	2.09	-40.1	-54.7	3.8	1.49e+00	0	53	104	0	52	18582
2026-01-25 07:59:44.01	101.26	2.14	-40.1	-54.7	3.8	1.49e+00	0	52	104	0	52	18595
2026-01-25 07:59:45.02	101.18	2.20	-40.1	-54.7	3.8	1.49e+00	0	53	104	0	52	18562
2026-01-25 07:59:46.03	101.10	2.25	-40.2	-54.7	3.8	1.49e+00	0	53	104	0	51	19806
2026-01-25 07:59:47.04	101.02	2.30	-40.2	-54.7	3.8	1.49e+00	0	53	104	0	51	19835
2026-01-25 07:59:48.05	100.94	2.36	-40.2	-54.8	3.8	1.49e+00	0	53	104	0	51	19848
2026-01-25 07:59:49.06	100.86	2.41	-40.2	-54.7	3.8	1.49e+00	0	53	104	0	51	19818
2026-01-25 07:59:50.07	100.78	2.46	-40.2	-54.7	3.8	1.49e+00	0	53	104	0	51	19807
2026-01-25 07:59:51.08	100.69	2.52	-40.2	-54.7	3.8	1.49e+00	0	53	104	0	51	19760
2026-01-25 07:59:52.09	100.61	2.57	-40.1	-54.7	3.8	1.49e+00	0	53	104	0	51	19841
2026-01-25 07:59:53.10	100.53	2.62	-40.1	-54.7	3.8	1.49e+00	0	53	104	0	51	19747
2026-01-25 07:59:54.11	100.45	2.68	-40.2	-54.7	3.8	1.49e+00	0	53	104	0	51	19810
2026-01-25 07:59:55.12	100.36	2.73	-40.1	-54.7	3.8	1.49e+00	0	53	104	0	51	19838
2026-01-25 07:59:56.13	100.28	2.79	-40.2	-54.7	3.8	1.49e+00	0	53	104	0	51	19794
2026-01-25 07:59:57.14	100.19	2.84	-40.2	-54.7	3.8	1.49e+00	0	53	104	0	51	19806
2026-01-25 07:59:58.15	100.11	2.89	-40.2	-54.7	3.8	1.49e+00	0	54	104	0	51	19798
2026-01-25 07:59:59.16	100.02	2.95	-40.2	-54.7	3.8	1.49e+00	0	53	104	0	51	19828
2026-01-25 08:00:00.18	99.94	3.00	-40.2	-54.7	3.8	1.49e+00	0	54	104	0	51	19789
2026-01-25 08:00:01.19	99.85	3.06	-40.2	-54.7	3.8	1.49e+00	0	53	104	0	51	19805
2026-01-25 08:00:02.20	99.77	3.11	-40.2	-54.7	3.8	1.49e+00	0	54	104	0	51	19756
2026-01-25 08:00:03.21	99.68	3.16	-40.2	-54.7	3.8	1.49e+00	0	54	104	0	51	19765
2026-01-25 08:00:04.22	99.60	3.22	-40.1	-54.7	3.8	1.49e+00	0	54	104	0	51	19789
2026-01-25 08:00:05.23	99.51	3.27	-40.2	-54.7	3.8	1.49e+00	0	54	104	0	51	19788
2026-01-25 08:00:06.24	99.42	3.33	-40.2	-54.7	3.8	1.49e+00	0	54	104	0	51	19797
2026-01-25 08:00:07.25	99.33	3.38	-40.1	-54.7	3.8	1.49e+00	0	54	104	0	51	19772
2026-01-25 08:00:08.26	99.25	3.44	-40.2	-54.7	3.8	1.49e+00	0	54	104	0	51	19725
2026-01-25 08:00:09.27	99.16	3.49	-40.1	-54.7	3.8	1.49e+00	0	54	104	0	51	19786
2026-01-25 08:00:10.28	99.07	3.54	-40.2	-54.7	3.8	1.49e+00	0	54	104	0	51	19791
2026-01-25 08:00:11.29	98.98	3.60	-40.2	-54.7	3.8	1.49e+00	0	54	104	0	51	19735
2026-01-25 08:00:12.30	98.89	3.65	-40.2	-54.7	3.8	1.49e+00	0	54	104	0	51	19748
2026-01-25 08:00:13.31	98.80	3.71	-40.1	-54.7	3.8	1.49e+00	0	54	104	0	51	19753
2026-01-25 08:00:14.32	98.71	3.76	-40.2	-54.7	3.8	1.49e+00	0	54	104	0	51	19813
2026-01-25 08:00:15.33	98.62	3.82	-40.2	-54.7	3.8	1.49e+00	0	54	104	0	51	19729
2026-01-25 08:00:16.34	98.53	3.87	-40.2	-54.7	3.8	1.49e+00	0	55	104	0	51	19790
2026-01-25 08:00:17.35	98.44	3.93	-40.2	-54.7	3.8	1.49e+00	0	54	104	0	51	19824
2026-01-25 08:00:18.36	98.35	3.98	-40.2	-54.7	3.8	1.49e+00	0	54	104	0	51	19753
2026-01-25 08:00:19.37	98.26	4.04	-40.1	-54.7	3.8	1.49e+00	0	55	104	0	51	19740
2026-01-25 08:00:20.38	98.17	4.09	-40.1	-54.7	3.8	1.49e+00	0	55	104	0	51	19786
2026-01-25 08:00:21.39	98.08	4.15	-40.2	-54.7	3.8	1.49e+00	0	55	104	0	51	19816
2026-01-25 08:00:22.40	97.98	4.20	-40.2	-54.7	3.8	1.49e+00	0	55	104	0	51	19762
2026-01-25 08:00:23.41	97.89	4.26	-40.2	-54.7	3.8	1.49e+00	0	55	104	0	51	19780
2026-01-25 08:00:24.42	97.80	4.31	-40.1	-54.7	3.8	1.49e+00	0	55	104	0	51	19738
2026-01-25 08:00:25.43	97.70	4.37	-40.0	-54.7	3.8	1.49e+00	0	55	104	0	51	19765
2026-01-25 08:00:26.44	97.61	4.42	-40.1	-54.7	3.8	1.49e+00	0	55	104	0	51	19735
2026-01-25 08:00:27.45	97.51	4.48	-40.1	-54.7	3.8	1.49e+00	0	55	104	0	51	19752
2026-01-25 08:00:28.46	97.42	4.53	-40.1	-54.7	3.8	1.49e+00	0	55	104	0	51	19720
2026-01-25 08:00:29.47	97.33	4.59	-40.1	-54.7	3.8	1.49e+00	0	55	104	0	51	19732
2026-01-25 08:00:30.48	97.23	4.64	-40.1	-54.7	3.8	1.49e+00	0	55	104	0	51	19764
2026-01-25 08:00:31.49	97.13	4.70	-40.1	-54.7	3.8	1.49e+00	0	55	104	0	51	19752
2026-01-25 08:00:32.50	97.04	4.76	-40.1	-54.7	3.8	1.49e+00	0	55	104	0	51	19729
2026-01-25 08:00:33.51	96.94	4.81	-40.1	-54.7	3.8	1.49e+00	0	55	104	0	51	19740
2026-01-25 08:00:34.52	96.84	4.87	-40.1	-54.7	3.8	1.49e+00	0	55	104	0	51	19775
2026-01-25 08:00:35.53	96.75	4.92	-40.1	-54.7	3.8	1.49e+00	0	55	104	0	51	19756
2026-01-25 08:00:36.54	96.65	4.98	-40.1	-54.7	3.8	1.49e+00	0	55	104	0	51	19772
2026-01-25 08:00:37.55	96.55	5.03	-40.1	-54.7	3.8	1.49e+00	0	56	104	0	51	19775
2026-01-25 08:00:38.56	96.45	5.09	-40.1	-54.7	3.8	1.49e+00	0	56	104	0	51	19710
2026-01-25 08:00:39.57	96.35	5.14	-40.1	-54.7	3.8	1.49e+00	0	56	104	0	51	19744
2026-01-25 08:00:40.58	96.25	5.20	-40.1	-54.7	3.8	1.49e+00	0	56	104	0	51	19770
2026-01-25 08:00:41.60	96.15	5.26	-40.1	-54.7	3.8	1.49e+00	0	56	104	0	51	19697
2026-01-25 08:00:42.61	96.05	5.31	-40.1	-54.7	3.8	1.49e+00	0	56	104	0	51	19756
2026-01-25 08:00:43.62	95.95	5.37	-40.1	-54.7	3.8	1.49e+00	0	56	104	0	51	19748
2026-01-25 08:00:44.63	95.85	5.42	-40.1	-54.7	3.8	1.49e+00	0	56	104	0	51	19747
2026-01-25 08:00:45.64	95.75	5.48	-40.0	-54.7	3.8	1.49e+00	0	56	104	0	51	19699
2026-01-25 08:00:46.65	95.65	5.54	-40.1	-54.7	3.8	1.49e+00	0	56	104	0	51	19751
2026-01-25 08:00:47.66	95.55	5.59	-40.1	-54.7	3.8	1.49e+00	0	56	104	0	51	19756
2026-01-25 08:00:48.67	95.45	5.65	-40.1	-54.7	3.8	1.49e+00	0	56	104	0	51	19755
2026-01-25 08:00:49.68	95.34	5.70	-40.1	-54.7	3.8	1.49e+00	0	56	104	0	51	19710
2026-01-25 08:00:50.69	95.24	5.76	-40.1	-54.7	3.8	1.49e+00	0	56	104	0	51	19746
2026-01-25 08:00:51.70	95.14	5.82	-40.1	-54.7	3.8	1.49e+00	0	56	104	0	51	19761
2026-01-25 08:00:52.71	95.03	5.87	-40.1	-54.7	3.8	1.49e+00	0	56	104	0	51	19731
2026-01-25 08:00:53.72	94.93	5.93	-40.1	-54.7	3.8	1.49e+00	0	56	104	0	51	19785
2026-01-25 08:00:54.73	94.82	5.99	-40.1	-54.7	3.8	1.49e+00	0	57	104	0	51	19700
2026-01-25 08:00:55.74	94.72	6.04	-40.1	-54.7	3.8	1.49e+00	0	56	104	0	51	19673
2026-01-25 08:00:56.75	94.61	6.10	-40.1	-54.7	3.8	1.49e+00	0	57	104	0	51	19709
2026-01-25 08:00:57.76	94.51	6.15	-40.1	-54.7	3.8	1.49e+00	0	56	104	0	51	19677
2026-01-25 08:00:58.77	94.40	6.21	-40.1	-54.7	3.8	1.49e+00	0	57	104	0	51	19733
2026-01-25 08:00:59.79	94.29	6.27	-40.1	-54.7	3.8	1.49e+00	0	56	104	0	51	19747
2026-01-25 08:01:00.79	94.18	6.32	-40.1	-54.7	3.8	1.49e+00	0	57	104	0	51	19746
2026-01-25 08:01:01.81	94.08	6.38	-40.1	-54.7	3.8	1.49e+00	0	56	104	0	51	19704
2026-01-25 08:01:02.82	93.97	6.44	-40.1	-54.7	3.8	1.49e+00	0	57	104	0	51	19757
2026-01-25 08:01:03.83	93.86	6.49	-40.1	-54.7	3.8	1.49e+00	0	57	104	0	51	19693
2026-01-25 08:01:04.84	93.75	6.55	-40.1	-54.7	3.8	1.49e+00	0	57	104	0	51	19675
2026-01-25 08:01:05.85	93.64	6.61	-40.1	-54.7	3.8	1.49e+00	0	57	104	0	51	19716
2026-01-25 08:01:06.86	93.53	6.66	-40.1	-54.7	3.8	1.49e+00	0	57	104	0	51	19632
2026-01-25 08:01:07.87	93.42	6.72	-40.1	-54.7	3.8	1.49e+00	0	57	104	0	51	19701
2026-01-25 08:01:08.88	93.31	6.78	-40.1	-54.7	3.8	1.49e+00	0	57	104	0	51	19684
2026-01-25 08:01:09.89	93.20	6.83	-40.1	-54.7	3.8	1.49e+00	0	57	104	0	51	19711
2026-01-25 08:01:10.90	93.09	6.89	-40.1	-54.7	3.8	1.49e+00	0	57	104	0	51	19681
2026-01-25 08:01:11.91	92.97	6.95	-40.1	-54.7	3.8	1.49e+00	0	57	104	0	51	19702
2026-01-25 08:01:12.92	92.86	7.00	-40.1	-54.7	3.8	1.49e+00	0	57	104	0	51	19698
2026-01-25 08:01:13.93	92.75	7.06	-40.1	-54.7	3.8	1.49e+00	0	57	104	0	51	19661
2026-01-25 08:01:14.94	92.63	7.12	-40.1	-54.7	3.8	1.49e+00	0	57	104	0	51	19669
2026-01-25 08:01:15.95	92.52	7.17	-40.1	-54.7	3.8	1.49e+00	0	57	104	0	51	19672
2026-01-25 08:01:16.96	92.41	7.23	-40.1	-54.7	3.8	1.49e+00	0	57	104	0	51	19639
2026-01-25 08:01:17.97	92.29	7.29	-40.1	-54.7	3.8	1.49e+00	0	57	104	0	51	19739
2026-01-25 08:01:18.98	92.18	7.35	-40.1	-54.7	3.8	1.49e+00	0	57	104	0	51	19699
2026-01-25 08:01:19.99	92.06	7.40	-40.1	-54.7	3.8	1.49e+00	0	57	104	0	51	19667
2026-01-25 08:01:21.00	91.94	7.46	-40.1	-54.7	3.8	1.49e+00	0	57	104	0	51	19665
2026-01-25 08:01:22.01	91.83	7.52	-40.1	-54.7	3.8	1.49e+00	0	57	104	0	51	19647
2026-01-25 08:01:23.03	91.71	7.57	-40.1	-54.7	3.8	1.49e+00	0	57	104	0	51	19703
2026-01-25 08:01:24.04	91.59	7.63	-40.1	-54.7	3.8	1.49e+00	0	57	104	0	51	19725
2026-01-25 08:01:25.05	91.47	7.69	-40.1	-54.7	3.8	1.49e+00	0	57	104	0	51	19749
2026-01-25 08:01:26.05	91.36	7.74	-40.1	-54.7	3.8	1.49e+00	0	57	104	0	51	19686
2026-01-25 08:01:27.06	91.24	7.80	-40.1	-54.7	3.8	1.49e+00	0	57	104	0	51	19624
2026-01-25 08:01:28.07	91.12	7.86	-40.1	-54.6	3.8	1.49e+00	0	57	104	0	51	19411
2026-01-25 08:01:29.09	91.00	7.92	-40.1	-54.3	3.8	1.49e+00	0	58	104	0	51	18854
2026-01-25 08:01:30.10	90.88	7.97	-40.1	-54.1	3.8	1.49e+00	0	58	104	0	51	18408
2026-01-25 08:01:31.11	90.76	8.03	-40.1	-54.0	3.8	1.49e+00	0	58	104	0	51	18141
2026-01-25 08:01:32.12	90.63	8.09	-40.4	-54.5	3.8	1.49e+00	0	58	104	0	51	19284
2026-01-25 08:01:33.12	90.51	8.14	-40.4	-54.8	3.8	1.49e+00	0	58	104	0	51	19884
2026-01-25 08:01:34.13	90.39	8.20	-40.1	-54.7	3.8	1.49e+00	0	58	104	0	51	19666
2026-01-25 08:01:35.14	90.27	8.26	-40.4	-54.7	3.8	1.49e+00	0	58	104	0	51	19803
2026-01-25 08:01:36.15	90.14	8.31	-40.1	-54.6	3.8	1.49e+00	0	58	104	0	51	19420
2026-01-25 08:01:37.16	90.02	8.37	-40.3	-54.7	3.8	1.49e+00	0	58	104	0	51	19625
2026-01-25 08:01:38.17	89.90	8.43	-40.3	-54.8	3.8	1.49e+00	0	58	104	0	51	19847
2026-01-25 08:01:39.18	89.77	8.49	-40.3	-54.9	3.8	1.49e+00	0	58	104	0	51	20100
2026-01-25 08:01:40.20	89.64	8.54	-40.5	-55.1	3.8	1.49e+00	0	58	104	0	51	20553
2026-01-25 08:01:41.20	89.52	8.60	-40.6	-55.1	3.8	1.49e+00	0	58	104	0	51	20701
2026-01-25 08:01:42.21	89.39	8.66	-40.3	-54.8	3.8	1.49e+00	0	58	104	0	51	20031
2026-01-25 08:01:43.22	89.27	8.71	-40.5	-55.1	3.8	1.49e+00	0	58	104	0	51	20568
2026-01-25 08:01:44.23	89.14	8.77	-40.3	-54.9	3.8	1.49e+00	0	58	104	0	51	20111
2026-01-25 08:01:45.24	89.01	8.83	-40.6	-55.1	3.8	1.49e+00	0	58	104	0	52	19576
2026-01-25 08:01:46.25	88.88	8.89	-40.2	-54.8	3.8	1.49e+00	0	58	104	0	52	18864
2026-01-25 08:01:47.26	88.75	8.94	-40.5	-55.0	3.8	1.49e+00	0	58	104	0	51	20520
2026-01-25 08:01:48.27	88.62	9.00	-40.5	-55.0	3.8	1.49e+00	0	58	104	0	51	20397
2026-01-25 08:01:49.28	88.49	9.06	-40.6	-55.1	3.8	1.49e+00	0	58	104	0	52	19539
2026-01-25 08:01:50.30	88.36	9.11	-40.3	-54.8	3.8	1.49e+00	0	58	104	0	52	18934
2026-01-25 08:01:51.30	88.23	9.17	-40.4	-54.9	3.8	1.49e+00	0	58	104	0	52	19158
2026-01-25 08:01:52.31	88.10	9.23	-40.4	-55.0	3.8	1.49e+00	0	58	104	0	52	19306
2026-01-25 08:01:53.32	87.97	9.28	-40.5	-55.1	3.8	1.49e+00	0	58	104	0	52	19526
2026-01-25 08:01:54.33	87.84	9.34	-40.3	-54.8	3.8	1.49e+00	0	58	104	0	52	18908
2026-01-25 08:01:55.34	87.70	9.40	-40.4	-55.0	3.8	1.49e+00	0	58	104	0	51	20390
2026-01-25 08:01:56.35	87.57	9.46	-40.5	-55.1	3.8	1.49e+00	0	58	104	0	51	20638
2026-01-25 08:01:57.36	87.44	9.51	-40.5	-55.1	3.8	1.49e+00	0	58	104	0	51	20635
2026-01-25 08:01:58.37	87.30	9.57	-40.3	-54.9	3.8	1.49e+00	0	58	104	0	51	20267
2026-01-25 08:01:59.38	87.17	9.63	-40.5	-55.0	3.8	1.49e+00	0	58	104	0	51	20464
2026-01-25 08:02:00.39	87.03	9.68	-40.5	-55.0	3.8	1.49e+00	0	58	104	0	51	20458
2026-01-25 08:02:01.40	86.89	9.74	-40.5	-55.0	3.8	1.49e+00	0	58	104	0	51	20504
2026-01-25 08:02:02.41	86.76	9.80	-40.5	-55.0	3.8	1.49e+00	0	58	104	0	51	20423
2026-01-25 08:02:03.42	86.62	9.85	-40.3	-55.0	3.8	1.49e+00	0	59	104	0	51	20452
2026-01-25 08:02:04.43	86.48	9.91	-40.5	-55.0	3.8	1.49e+00	0	58	104	0	51	20443
2026-01-25 08:02:05.44	86.34	9.97	-40.5	-55.1	3.8	1.49e+00	0	58	104	0	51	20631
2026-01-25 08:02:06.45	86.20	10.02	-40.4	-55.0	3.8	1.49e+00	0	59	104	0	51	20471
2026-01-25 08:02:07.46	86.07	10.08	-40.5	-55.0	3.8	1.49e+00	0	58	104	0	51	20450
2026-01-25 08:02:08.47	85.93	10.14	-40.5	-55.1	3.8	1.49e+00	0	59	104	0	51	20646
2026-01-25 08:02:09.47	85.79	10.19	-40.5	-55.0	3.8	1.49e+00	0	59	104	0	51	20516
2026-01-25 08:02:10.48	85.64	10.25	-40.4	-54.9	3.8	1.49e+00	0	59	104	0	51	20215
2026-01-25 08:02:11.50	85.50	10.31	-40.3	-54.9	3.8	1.49e+00	0	59	104	0	51	20148
2026-01-25 08:02:12.51	85.36	10.36	-40.5	-55.0	3.8	1.49e+00	0	59	104	0	51	20498
2026-01-25 08:02:13.51	85.22	10.42	-38.8	-54.5	3.8	1.49e+00	0	59	104	0	50	20372
2026-01-25 08:02:14.52	85.07	10.47	-40.2	-54.8	3.8	1.49e+00	0	59	104	0	51	19842
2026-01-25 08:02:15.53	84.93	10.53	-40.3	-54.8	3.8	1.49e+00	0	59	104	0	51	20013
2026-01-25 08:02:16.54	84.79	10.59	-40.4	-54.9	3.8	1.49e+00	0	59	104	0	51	20268
2026-01-25 08:02:17.55	84.64	10.64	-40.3	-54.8	3.8	1.49e+00	0	59	104	0	51	20014
2026-01-25 08:02:18.56	84.50	10.70	-40.3	-54.8	3.8	1.49e+00	0	59	104	0	51	20011
2026-01-25 08:02:19.57	84.35	10.76	-40.3	-54.8	3.8	1.49e+00	0	59	104	0	51	20058
2026-01-25 08:02:20.58	84.20	10.81	-40.3	-54.9	3.8	1.49e+00	0	59	104	0	51	20171
2026-01-25 08:02:21.59	84.06	10.87	-40.3	-54.9	3.8	1.49e+00	0	59	104	0	51	20202
2026-01-25 08:02:22.60	83.91	10.92	-40.3	-54.9	3.8	1.49e+00	0	59	104	0	51	20176
2026-01-25 08:02:23.62	83.76	10.98	-40.3	-54.9	3.8	1.49e+00	0	59	104	0	51	20173
2026-01-25 08:02:24.63	83.61	11.04	-40.4	-55.0	3.8	1.49e+00	0	59	104	0	51	20341
2026-01-25 08:02:25.63	83.46	11.09	-40.4	-54.9	3.8	1.49e+00	0	59	104	0	51	20238
2026-01-25 08:02:26.64	83.31	11.15	-40.2	-54.8	3.8	1.49e+00	0	59	104	0	51	19966
2026-01-25 08:02:27.65	83.16	11.20	-40.4	-54.9	3.8	1.49e+00	0	59	104	0	51	20215
2026-01-25 08:02:28.66	83.01	11.26	-40.4	-55.0	3.8	1.49e+00	0	59	104	0	51	20316
2026-01-25 08:02:29.67	82.86	11.31	-40.2	-54.8	3.8	1.49e+00	0	59	104	0	51	19967
2026-01-25 08:02:30.68	82.70	11.37	-40.2	-54.8	3.8	1.49e+00	0	59	104	0	51	19983
2026-01-25 08:02:31.69	82.55	11.42	-40.3	-54.8	3.8	1.49e+00	0	59	104	0	51	20047
2026-01-25 08:02:32.70	82.40	11.48	-40.4	-55.0	3.8	1.49e+00	0	59	104	0	51	20306
2026-01-25 08:02:33.71	82.24	11.54	-40.2	-54.8	3.8	1.49e+00	0	59	104	0	51	19932
2026-01-25 08:02:34.72	82.09	11.59	-40.3	-54.9	3.8	1.49e+00	0	59	104	0	51	20160
2026-01-25 08:02:35.73	81.93	11.65	-40.3	-54.8	3.8	1.49e+00	0	59	104	0	51	20037
2026-01-25 08:02:36.74	81.78	11.70	-40.5	-55.0	3.8	1.49e+00	0	59	104	0	51	20443
2026-01-25 08:02:37.75	81.62	11.76	-40.2	-54.8	3.8	1.49e+00	0	59	104	0	51	20041
2026-01-25 08:02:38.75	81.46	11.81	-40.4	-54.9	3.8	1.49e+00	0	59	104	0	51	20303
2026-01-25 08:02:39.76	81.31	11.86	-40.3	-54.9	3.8	1.49e+00	0	59	104	0	51	20225
2026-01-25 08:02:40.78	81.15	11.92	-40.5	-55.1	3.8	1.49e+00	0	59	104	0	51	20700
2026-01-25 08:02:41.79	80.99	11.97	-40.3	-54.9	3.8	1.49e+00	0	59	104	0	51	20215
2026-01-25 08:02:42.80	80.83	12.03	-40.5	-55.1	3.8	1.49e+00	0	59	104	0	51	20554
2026-01-25 08:02:43.80	80.67	12.08	-40.4	-54.9	3.8	1.49e+00	0	59	104	0	51	20180
2026-01-25 08:02:44.81	80.51	12.14	-40.6	-55.2	3.8	1.49e+00	0	59	104	0	51	20782
2026-01-25 08:02:45.82	80.35	12.19	-40.4	-55.0	3.8	1.49e+00	0	59	104	0	51	20421
2026-01-25 08:02:46.83	80.18	12.25	-40.5	-55.1	3.8	1.49e+00	0	59	104	0	51	20647
2026-01-25 08:02:47.84	80.02	12.30	-40.4	-55.0	3.8	1.49e+00	0	59	104	0	51	20436
2026-01-25 08:02:48.85	79.86	12.35	-40.7	-55.3	3.8	1.49e+00	0	59	104	0	51	21126
2026-01-25 08:02:49.86	79.69	12.41	-40.4	-55.0	3.8	1.49e+00	0	59	104	0	52	19170
2026-01-25 08:02:50.87	79.53	12.46	-40.5	-55.1	3.8	1.49e+00	0	59	104	0	52	19482
2026-01-25 08:02:51.88	79.36	12.51	-40.4	-55.0	3.8	1.49e+00	0	60	104	0	52	19333
2026-01-25 08:02:52.89	79.20	12.57	-40.7	-55.3	3.8	1.49e+00	0	59	104	0	52	19954
2026-01-25 08:02:53.89	79.03	12.62	-40.4	-55.0	3.8	1.49e+00	0	59	104	0	52	19258
2026-01-25 08:02:54.91	78.87	12.67	-40.7	-55.3	3.8	1.49e+00	0	59	104	0	52	19848
2026-01-25 08:02:55.92	78.70	12.73	-40.4	-55.0	3.8	1.49e+00	0	59	104	0	52	19349
2026-01-25 08:02:56.92	78.53	12.78	-40.8	-55.4	3.8	1.49e+00	0	59	104	0	52	20131
2026-01-25 08:02:57.93	78.36	12.83	-40.5	-55.1	3.8	1.49e+00	0	59	104	0	52	19570
2026-01-25 08:02:58.94	78.19	12.88	-40.7	-55.3	3.8	1.49e+00	0	60	104	0	52	19934
2026-01-25 08:02:59.95	78.02	12.94	-40.5	-55.1	3.8	1.49e+00	0	60	104	0	52	19492
2026-01-25 08:03:00.96	77.85	12.99	-41.0	-55.4	3.8	1.49e+00	0	60	104	0	52	20287
2026-01-25 08:03:01.97	77.68	13.04	-40.6	-55.2	3.8	1.49e+00	0	60	104	0	52	19757
2026-01-25 08:03:02.98	77.51	13.09	-40.8	-55.4	3.8	1.49e+00	0	60	104	0	52	20156
2026-01-25 08:03:03.99	77.34	13.15	-40.7	-55.2	3.8	1.49e+00	0	59	104	0	52	19836
2026-01-25 08:03:05.00	77.17	13.20	-41.2	-55.4	3.8	1.49e+00	0	60	104	0	52	20201
2026-01-25 08:03:06.01	76.99	13.25	-40.7	-55.3	3.8	1.49e+00	0	60	104	0	53	18861
2026-01-25 08:03:07.02	76.82	13.30	-41.0	-55.5	3.8	1.49e+00	0	60	104	0	53	19249
2026-01-25 08:03:08.03	76.64	13.35	-40.7	-55.4	3.8	1.49e+00	0	59	104	0	53	18975
2026-01-25 08:03:09.04	76.47	13.40	-41.3	-55.4	3.8	1.49e+00	0	60	104	0	53	19158
2026-01-25 08:03:10.05	76.29	13.45	-40.9	-55.4	3.8	1.49e+00	0	59	104	0	53	19040
2026-01-25 08:03:11.06	76.11	13.51	-41.1	-55.5	3.8	1.49e+00	0	60	104	0	53	19244
2026-01-25 08:03:12.07	75.94	13.56	-40.9	-55.5	3.8	1.49e+00	0	60	104	0	53	19189
2026-01-25 08:03:13.08	75.76	13.61	-41.2	-55.4	3.8	1.49e+00	0	60	104	0	53	19127
2026-01-25 08:03:14.09	75.58	13.66	-41.0	-55.5	3.8	1.49e+00	0	60	104	0	53	19335
2026-01-25 08:03:15.10	75.40	13.71	-41.2	-55.4	3.8	1.49e+00	0	60	104	0	53	19004
2026-01-25 08:03:16.11	75.22	13.76	-41.1	-55.6	3.8	1.49e+00	0	60	104	0	53	19489
2026-01-25 08:03:17.12	75.04	13.81	-41.1	-55.0	3.8	1.49e+00	0	60	104	0	53	18206
2026-01-25 08:03:18.13	74.86	13.86	-41.2	-55.7	3.8	1.49e+00	0	60	104	0	53	19671
2026-01-25 08:03:19.13	74.68	13.91	-41.3	-54.6	3.8	1.49e+00	0	60	104	0	53	17367
2026-01-25 08:03:20.15	74.50	13.96	-41.1	-55.3	3.8	1.49e+00	0	60	104	0	53	18827
2026-01-25 08:03:21.15	74.32	14.00	-41.0	-52.9	3.9	1.49e+00	0	60	104	0	53	14340
2026-01-25 08:03:22.17	74.13	14.05	-41.0	-51.9	4.3	1.40e+00	0	60	0	0	53	12727
2026-01-25 08:03:23.18	73.95	14.10	-41.0	-51.6	4.4	1.27e+00	0	60	0	1048576	53	12278
2026-01-25 08:03:24.19	73.76	14.15	-41.0	-51.5	4.4	1.22e+00	0	60	0	3145728	53	12233
2026-01-25 08:03:25.20	73.58	14.20	-41.0	-51.0	4.7	9.60e-01	0	60	0	5242880	53	11508
2026-01-25 08:03:26.21	73.39	14.25	-40.9	-50.7	4.8	8.10e-01	0	60	0	6291456	53	11080
2026-01-25 08:03:27.22	73.21	14.29	-40.8	-50.9	4.6	1.00e+00	0	60	0	8388608	53	11376
2026-01-25 08:03:28.23	73.02	14.34	-41.3	-53.4	3.8	1.38e+00	0	60	104	9437184	53	15063
2026-01-25 08:03:29.24	72.83	14.39	-40.9	-54.8	3.8	1.33e+00	0	60	104	9437184	53	17712
2026-01-25 08:03:30.25	72.64	14.44	-40.8	-51.6	4.3	1.45e+00	0	60	0	9437184	53	12312
2026-01-25 08:03:31.26	72.45	14.48	-41.1	-53.2	3.8	1.28e+00	0	60	104	9437184	53	14822
2026-01-25 08:03:32.27	72.26	14.53	-40.6	-49.9	5.1	7.33e-01	0	60	0	10485760	53	10115
2026-01-25 08:03:33.28	72.07	14.58	-40.6	-49.7	5.2	6.20e-01	0	60	0	12582912	53	9941
2026-01-25 08:03:34.29	71.88	14.62	-40.6	-49.5	5.4	5.46e-01	0	60	0	13631488	53	9609
2026-01-25 08:03:35.30	71.69	14.67	-40.5	-49.0	5.8	4.56e-01	0	60	0	15728640	53	9117
2026-01-25 08:03:36.31	71.50	14.72	-40.7	-49.3	5.6	3.96e-01	0	60	0	17825792	53	9447
2026-01-25 08:03:37.31	71.31	14.76	-40.7	-49.2	5.7	4.47e-01	0	60	0	19922944	53	9341
2026-01-25 08:03:38.32	71.12	14.81	-40.9	-49.6	5.5	5.23e-01	0	60	0	22020096	53	9825
2026-01-25 08:03:39.33	70.92	14.85	-41.0	-51.6	4.0	1.11e+00	0	60	104	22020096	53	12351
2026-01-25 08:03:40.34	70.73	14.90	-41.4	-50.5	5.2	6.82e-01	0	60	0	23068672	53	10810
2026-01-25 08:03:41.35	70.53	14.94	-41.1	-48.9	6.1	1.33e+00	0	60	104	24117248	54	8527
2026-01-25 08:03:42.36	70.34	14.99	-41.4	-52.1	4.4	9.84e-01	0	60	104	24117248	53	13013
2026-01-25 08:03:43.37	70.14	15.03	-40.9	-47.9	7.3	1.29e-01	0	60	0	25165824	53	8016
2026-01-25 08:03:44.38	69.95	15.07	-40.9	-47.8	7.4	1.13e-01	0	60	0	27262976	53	7911
2026-01-25 08:03:45.39	69.75	15.12	-40.9	-47.4	7.8	9.33e-02	0	60	0	28311552	53	7602
2026-01-25 08:03:46.40	69.55	15.16	-40.8	-47.2	8.1	6.46e-02	0	60	0	30408704	53	7402
2026-01-25 08:03:47.41	69.35	15.20	-40.8	-46.9	8.5	4.73e-02	0	60	0	32505856	53	7136
2026-01-25 08:03:48.42	69.16	15.25	-40.8	-46.8	8.7	3.88e-02	0	60	0	34603008	53	7042
2026-01-25 08:03:49.43	68.96	15.29	-40.8	-46.6	8.8	3.38e-02	0	60	0	36700160	53	6948
2026-01-25 08:03:50.43	68.76	15.33	-40.9	-46.7	8.9	2.73e-02	0	60	0	38797312	53	6988
2026-01-25 08:03:51.44	68.56	15.37	-40.9	-46.3	9.4	2.02e-02	0	60	0	39845888	53	6694
2026-01-25 08:03:52.45	68.36	15.42	-40.9	-46.1	9.7	1.78e-02	0	60	0	41943040	53	6555
2026-01-25 08:03:53.46	68.15	15.46	-40.9	-46.1	9.8	1.03e-02	0	60	0	44040192	53	6539
2026-01-25 08:03:54.47	67.95	15.50	-41.1	-46.4	9.7	1.05e-02	0	60	0	46137344	53	6731
2026-01-25 08:03:55.48	67.75	15.54	-41.0	-46.0	10.2	8.44e-03	0	60	0	48234496	53	6470
2026-01-25 08:03:56.49	67.55	15.58	-41.0	-45.9	10.4	5.50e-03	0	61	0	49283072	53	6369
2026-01-25 08:03:57.50	67.34	15.62	-40.9	-45.4	10.9	3.07e-03	0	60	0	51380224	53	6057
2026-01-25 08:03:58.51	67.14	15.66	-40.9	-45.3	11.2	1.56e-03	0	60	0	53477376	53	5956
2026-01-25 08:03:59.52	66.93	15.70	-41.0	-45.3	11.3	1.36e-03	0	60	0	55574528	53	5944
2026-01-25 08:04:00.53	66.73	15.74	-41.0	-45.3	11.3	1.03e-03	0	60	0	57671680	53	5964
2026-01-25 08:04:01.54	66.52	15.78	-41.1	-45.5	11.3	1.05e-03	0	60	0	58720256	53	6062
2026-01-25 08:04:02.55	66.31	15.82	-41.2	-45.5	11.4	1.08e-03	0	60	0	60817408	53	6072
2026-01-25 08:04:03.56	66.11	15.86	-41.0	-45.1	11.8	7.71e-04	0	60	0	62914560	53	5847
2026-01-25 08:04:04.57	65.90	15.89	-41.0	-45.0	11.9	4.38e-04	0	60	0	65011712	53	5788
2026-01-25 08:04:05.57	65.69	15.93	-41.0	-44.9	12.1	4.05e-04	0	60	0	67108864	53	5701
2026-01-25 08:04:06.58	65.48	15.97	-40.9	-44.6	12.4	2.05e-04	0	60	0	68157440	53	5517
2026-01-25 08:04:07.59	65.28	16.01	-41.1	-45.0	12.2	1.53e-04	0	60	0	70254592	53	5778
2026-01-25 08:04:08.60	65.07	16.04	-40.7	-44.2	13.0	1.23e-04	0	60	0	72351744	53	5227
2026-01-25 08:04:09.61	64.86	16.08	-40.6	-44.0	13.2	3.28e-05	0	60	0	74448896	53	5145
2026-01-25 08:04:10.62	64.64	16.12	-40.7	-44.3	12.9	2.28e-05	0	60	0	76546048	53	5298
2026-01-25 08:04:11.63	64.43	16.15	-40.8	-44.3	13.0	4.34e-05	0	61	0	77594624	53	5292
2026-01-25 08:04:12.64	64.22	16.19	-40.9	-44.5	12.8	6.48e-05	0	60	0	79691776	53	5420
2026-01-25 08:04:13.65	64.01	16.22	-40.8	-44.4	12.8	6.02e-05	0	60	0	81788928	53	5377
2026-01-25 08:04:14.66	63.80	16.26	-40.9	-44.5	12.8	5.03e-05	0	60	0	83886080	53	5442
2026-01-25 08:04:15.67	63.58	16.29	-40.9	-44.5	12.8	6.40e-05	0	61	0	85983232	53	5423
2026-01-25 08:04:16.68	63.37	16.33	-41.0	-44.9	12.4	9.30e-05	0	60	0	87031808	53	5691
2026-01-25 08:04:17.69	63.16	16.36	-41.1	-44.9	12.3	1.44e-04	0	60	0	89128960	53	5718
2026-01-25 08:04:18.70	62.94	16.39	-41.1	-44.9	12.4	1.26e-04	0	60	0	91226112	53	5713
2026-01-25 08:04:19.71	62.73	16.43	-41.1	-45.0	12.3	1.32e-04	0	60	0	93323264	53	5735
2026-01-25 08:04:20.72	62.51	16.46	-41.1	-45.0	12.2	1.76e-04	0	61	0	95420416	53	5787
2026-01-25 08:04:21.73	62.29	16.49	-41.1	-44.9	12.3	1.84e-04	0	61	0	96468992	53	5718
2026-01-25 08:04:22.74	62.08	16.52	-41.0	-44.8	12.5	1.26e-04	0	60	0	98566144	53	5613
2026-01-25 08:04:23.74	61.86	16.55	-41.1	-45.0	12.3	1.13e-04	0	60	0	100663296	53	5768
2026-01-25 08:04:24.76	61.64	16.59	-41.1	-45.1	12.2	1.62e-04	0	61	0	102760448	53	5810
2026-01-25 08:04:25.76	61.43	16.62	-41.3	-45.3	12.0	2.08e-04	0	60	0	104857600	53	5953
2026-01-25 08:04:26.77	61.21	16.65	-41.3	-45.4	12.0	3.62e-04	0	60	0	106954752	53	5998
2026-01-25 08:04:27.78	60.99	16.68	-41.3	-45.4	12.0	3.45e-04	0	60	0	108003328	53	5996
2026-01-25 08:04:28.79	60.77	16.71	-41.2	-45.2	12.2	2.43e-04	0	61	0	110100480	53	5894
2026-01-25 08:04:29.80	60.55	16.74	-41.2	-45.1	12.2	2.79e-04	0	60	0	112197632	53	5849
2026-01-25 08:04:30.81	60.33	16.76	-41.3	-45.3	12.1	1.91e-04	0	61	0	114294784	53	5926
2026-01-25 08:04:31.83	60.11	16.79	-41.2	-45.1	12.2	2.23e-04	0	60	0	116391936	53	5849
2026-01-25 08:04:32.84	59.89	16.82	-41.4	-45.5	12.0	2.75e-04	0	60	0	117440512	53	6082
2026-01-25 08:04:33.85	59.66	16.85	-41.3	-45.4	12.0	3.52e-04	0	60	0	119537664	53	6045
2026-01-25 08:04:34.85	59.44	16.88	-41.3	-45.4	12.1	2.69e-04	0	60	0	121634816	53	6010
2026-01-25 08:04:35.86	59.22	16.90	-41.3	-45.4	12.0	3.03e-04	0	61	0	123731968	53	6008
2026-01-25 08:04:36.88	59.00	16.93	-41.3	-45.4	12.1	3.46e-04	0	60	0	125829120	53	6009
2026-01-25 08:04:37.89	58.77	16.96	-41.4	-45.4	12.0	3.42e-04	0	60	0	126877696	53	6026
2026-01-25 08:04:38.90	58.55	16.98	-41.3	-45.2	12.2	2.28e-04	0	60	0	128974848	53	5896
2026-01-25 08:04:39.91	58.33	17.01	-41.2	-45.0	12.5	1.17e-04	0	61	0	131072000	53	5732
2026-01-25 08:04:40.92	58.10	17.03	-41.0	-44.7	12.7	9.68e-05	0	61	0	133169152	53	5586
2026-01-25 08:04:41.93	57.88	17.06	-41.1	-44.8	12.6	9.00e-05	0	61	0	135266304	53	5627
2026-01-25 08:04:42.94	57.65	17.08	-41.2	-45.0	12.4	1.19e-04	0	60	0	136314880	53	5777
2026-01-25 08:04:43.95	57.43	17.10	-41.2	-45.1	12.4	1.98e-04	0	61	0	138412032	53	5826
2026-01-25 08:04:44.96	57.20	17.13	-41.3	-45.2	12.3	2.26e-04	0	61	0	140509184	53	5862
2026-01-25 08:04:45.97	56.98	17.15	-41.3	-45.2	12.3	1.72e-04	0	61	0	142606336	53	5922
2026-01-25 08:04:46.98	56.75	17.17	-41.2	-45.1	12.4	1.88e-04	0	61	0	144703488	53	5800
2026-01-25 08:04:47.99	56.52	17.19	-41.1	-44.8	12.7	1.51e-04	0	61	0	145752064	53	5637
2026-01-25 08:04:49.00	56.30	17.21	-41.1	-44.9	12.6	9.23e-05	0	61	0	147849216	53	5659
2026-01-25 08:04:50.01	56.07	17.23	-41.1	-44.8	12.6	1.06e-04	0	61	0	149946368	53	5653
2026-01-25 08:04:51.02	55.84	17.25	-41.1	-44.9	12.5	9.53e-05	0	61	0	152043520	53	5676
2026-01-25 08:04:52.03	55.62	17.27	-41.3	-45.2	12.2	1.98e-04	0	60	0	154140672	53	5913
2026-01-25 08:04:53.04	55.39	17.29	-41.4	-45.6	11.9	2.18e-04	0	61	0	155189248	53	6134
2026-01-25 08:04:54.05	55.16	17.31	-41.3	-45.4	12.1	3.11e-04	0	61	0	157286400	53	6001
2026-01-25 08:04:55.06	54.93	17.33	-41.4	-45.6	11.9	3.69e-04	0	61	0	159383552	53	6156
2026-01-25 08:04:56.07	54.70	17.35	-41.6	-45.9	11.6	6.17e-04	0	61	0	161480704	53	6418
2026-01-25 08:04:57.08	54.47	17.37	-41.6	-46.1	11.3	7.00e-04	0	61	0	163577856	53	6546
2026-01-25 08:04:58.08	54.24	17.38	-41.8	-46.6	10.9	1.65e-03	0	61	0	164626432	54	6521
2026-01-25 08:04:59.10	54.01	17.40	-41.8	-46.6	10.9	1.87e-03	0	61	0	166723584	54	6513
2026-01-25 08:05:00.11	53.78	17.42	-41.7	-46.3	11.2	2.01e-03	0	61	0	168820736	54	6315
2026-01-25 08:05:01.11	53.55	17.43	-41.7	-46.2	11.3	1.45e-03	0	61	0	170917888	54	6239
2026-01-25 08:05:02.12	53.32	17.45	-41.7	-46.2	11.3	1.47e-03	0	61	0	173015040	54	6208
2026-01-25 08:05:03.13	53.09	17.46	-41.7	-46.2	11.3	1.11e-03	0	61	0	175112192	54	6230
2026-01-25 08:05:04.15	52.86	17.48	-41.6	-45.9	11.6	9.35e-04	0	61	0	176160768	54	6032
2026-01-25 08:05:05.16	52.63	17.49	-41.5	-45.9	11.6	6.50e-04	0	61	0	178257920	54	5996
2026-01-25 08:05:06.16	52.40	17.51	-41.4	-45.5	11.9	5.39e-04	0	61	0	180355072	54	5786
2026-01-25 08:05:07.17	52.17	17.52	-41.4	-45.4	12.0	4.05e-04	0	61	0	182452224	54	5721
2026-01-25 08:05:08.18	51.94	17.53	-41.4	-45.5	12.0	2.94e-04	0	61	0	184549376	54	5779
2026-01-25 08:05:09.19	51.70	17.54	-41.5	-45.7	11.8	3.40e-04	0	61	0	185597952	54	5911
2026-01-25 08:05:10.20	51.47	17.56	-41.4	-45.6	11.9	3.84e-04	0	61	0	187695104	54	5829
2026-01-25 08:05:11.21	51.24	17.57	-41.4	-45.5	12.0	3.01e-04	0	61	0	189792256	54	5751
2026-01-25 08:05:12.22	51.01	17.58	-41.3	-45.4	12.2	3.52e-04	0	61	0	191889408	54	5680
2026-01-25 08:05:13.23	50.78	17.59	-41.2	-45.1	12.4	1.88e-04	0	61	0	193986560	54	5503
2026-01-25 08:05:14.23	50.55	17.60	-41.1	-44.9	12.6	6.86e-05	0	61	0	195035136	54	5390
2026-01-25 08:05:15.24	50.31	17.61	-41.1	-44.8	12.7	4.88e-05	0	61	0	197132288	54	5317
2026-01-25 08:05:16.25	50.08	17.62	-41.1	-44.8	12.8	6.10e-05	0	61	0	199229440	54	5292
2026-01-25 08:05:17.26	49.85	17.62	-41.1	-44.8	12.8	4.88e-05	0	61	0	201326592	54	5321
2026-01-25 08:05:18.27	49.61	17.63	-41.1	-44.9	12.8	8.01e-05	0	61	0	203423744	54	5352
2026-01-25 08:05:19.28	49.38	17.64	-41.2	-44.9	12.7	8.85e-05	0	61	0	204472320	54	5382
2026-01-25 08:05:20.29	49.15	17.65	-41.3	-45.1	12.4	6.79e-05	0	61	0	206569472	54	5497
2026-01-25 08:05:21.30	48.91	17.65	-41.3	-45.3	12.3	1.65e-04	0	61	0	208666624	54	5622
2026-01-25 08:05:22.31	48.68	17.66	-41.5	-45.5	12.0	2.57e-04	0	61	0	210763776	54	5788
2026-01-25 08:05:23.32	48.44	17.66	-41.5	-45.6	12.0	3.08e-04	0	61	0	212860928	54	5843
2026-01-25 08:05:24.33	48.21	17.67	-41.5	-45.6	12.0	3.14e-04	0	61	0	213909504	54	5823
2026-01-25 08:05:25.34	47.98	17.67	-41.4	-45.5	12.1	3.80e-04	0	61	0	216006656	54	5743
2026-01-25 08:05:26.35	47.74	17.68	-41.4	-45.5	12.1	3.05e-04	0	61	0	218103808	54	5751
2026-01-25 08:05:27.36	47.51	17.68	-41.4	-45.5	12.1	2.52e-04	0	61	0	220200960	54	5767
2026-01-25 08:05:28.37	47.28	17.68	-41.4	-45.4	12.2	2.49e-04	0	61	0	222298112	54	5703
2026-01-25 08:05:29.37	47.04	17.68	-41.4	-45.4	12.2	2.35e-04	0	61	0	223346688	54	5700
2026-01-25 08:05:30.38	46.81	17.69	-41.4	-45.3	12.3	2.01e-04	0	61	0	225443840	54	5622
2026-01-25 08:05:31.39	46.58	17.69	-41.2	-45.0	12.6	1.21e-04	0	61	0	227540992	54	5446
2026-01-25 08:05:32.40	46.34	17.69	-41.2	-44.9	12.7	6.40e-05	0	61	0	229638144	54	5387
2026-01-25 08:05:33.41	46.11	17.69	-41.3	-45.1	12.5	8.92e-05	0	61	0	231735296	54	5496
2026-01-25 08:05:34.42	45.87	17.69	-41.4	-45.4	12.2	1.62e-04	0	61	0	232783872	54	5708
2026-01-25 08:05:35.43	45.64	17.69	-41.6	-45.9	11.7	3.91e-04	0	61	0	234881024	54	6020
2026-01-25 08:05:36.44	45.40	17.69	-41.8	-46.3	11.2	6.71e-04	0	61	0	236978176	54	6335
2026-01-25 08:05:37.45	45.17	17.69	-41.9	-46.6	11.0	1.42e-03	0	61	0	239075328	54	6502
2026-01-25 08:05:38.46	44.94	17.68	-41.9	-46.5	11.1	1.77e-03	0	61	0	241172480	54	6423
2026-01-25 08:05:39.47	44.70	17.68	-41.9	-46.6	10.9	1.55e-03	0	61	0	243269632	54	6501
2026-01-25 08:05:40.48	44.47	17.68	-41.9	-46.5	11.0	1.90e-03	0	61	0	244318208	54	6485
2026-01-25 08:05:41.49	44.23	17.68	-41.9	-46.6	11.0	1.68e-03	0	61	0	246415360	54	6499
2026-01-25 08:05:42.50	44.00	17.67	-41.9	-46.5	11.1	1.68e-03	0	61	0	248512512	54	6437
2026-01-25 08:05:43.51	43.77	17.67	-41.8	-46.3	11.2	1.09e-03	0	61	0	250609664	54	6346
2026-01-25 08:05:44.52	43.53	17.66	-41.7	-46.1	11.5	9.09e-04	0	61	0	252706816	54	6146
2026-01-25 08:05:45.53	43.30	17.66	-41.5	-45.7	11.8	5.00e-04	0	61	0	253755392	54	5918
2026-01-25 08:05:46.54	43.07	17.65	-41.4	-45.5	12.1	2.94e-04	0	61	0	255852544	54	5760
2026-01-25 08:05:47.55	42.83	17.64	-41.3	-45.2	12.5	1.27e-04	0	61	0	257949696	54	5540
2026-01-25 08:05:48.56	42.60	17.64	-41.4	-45.3	12.3	1.68e-04	0	61	0	260046848	54	5652
2026-01-25 08:05:49.57	42.37	17.63	-41.5	-45.6	12.0	2.62e-04	0	61	0	262144000	54	5806
2026-01-25 08:05:50.57	42.13	17.62	-41.6	-45.8	11.8	3.45e-04	0	61	0	263192576	54	5976
2026-01-25 08:05:51.58	41.90	17.61	-41.4	-45.4	12.3	3.38e-04	0	61	0	265289728	54	5673
2026-01-25 08:05:52.59	41.67	17.61	-41.3	-45.2	12.4	1.40e-04	0	61	0	267386880	54	5534
2026-01-25 08:05:53.60	41.44	17.60	-41.3	-45.2	12.5	1.44e-04	0	61	0	269484032	54	5543
2026-01-25 08:05:54.61	41.20	17.59	-41.3	-45.2	12.5	8.39e-05	0	61	0	271581184	54	5557
2026-01-25 08:05:55.62	40.97	17.58	-41.2	-45.0	12.6	9.76e-05	0	61	0	272629760	54	5445
2026-01-25 08:05:56.63	40.74	17.57	-41.3	-45.1	12.5	1.01e-04	0	61	0	274726912	54	5516
2026-01-25 08:05:57.64	40.51	17.55	-41.3	-45.2	12.5	1.56e-04	0	61	0	276824064	54	5529
2026-01-25 08:05:58.65	40.28	17.54	-41.3	-45.1	12.6	9.91e-05	0	61	0	278921216	54	5472
2026-01-25 08:05:59.66	40.04	17.53	-41.2	-44.9	12.7	5.11e-05	0	61	0	281018368	54	5372
2026-01-25 08:06:00.66	39.81	17.52	-40.9	-44.4	13.3	3.28e-05	0	61	0	282066944	53	5346
2026-01-25 08:06:01.67	39.58	17.50	-40.9	-44.3	13.4	1.52e-05	0	61	0	284164096	53	5306
2026-01-25 08:06:02.68	39.35	17.49	-40.8	-44.2	13.5	2.13e-05	0	61	0	286261248	53	5233
2026-01-25 08:06:03.69	39.12	17.48	-40.8	-44.2	13.5	1.75e-05	0	61	0	288358400	53	5237
2026-01-25 08:06:04.70	38.89	17.46	-40.7	-44.0	13.7	1.52e-05	0	61	0	290455552	53	5122
2026-01-25 08:06:05.71	38.66	17.45	-40.7	-44.0	13.6	3.00e-06	0	61	0	291504128	53	5140
2026-01-25 08:06:06.72	38.43	17.43	-40.8	-44.1	13.6	7.60e-06	0	61	0	293601280	53	5190
2026-01-25 08:06:07.73	38.20	17.42	-40.8	-44.1	13.6	1.44e-05	0	61	0	295698432	53	5198
2026-01-25 08:06:08.74	37.97	17.40	-40.8	-44.2	13.5	6.80e-06	0	61	0	297795584	53	5250
2026-01-25 08:06:09.75	37.74	17.38	-40.9	-44.3	13.3	1.22e-05	0	61	0	299892736	53	5326
2026-01-25 08:06:10.76	37.51	17.37	-40.9	-44.3	13.4	2.28e-05	0	61	0	300941312	53	5302
2026-01-25 08:06:11.77	37.28	17.35	-41.0	-44.4	13.2	1.75e-05	0	61	0	303038464	53	5388
2026-01-25 08:06:12.78	37.05	17.33	-41.0	-44.5	13.1	2.67e-05	0	61	0	305135616	53	5427
2026-01-25 08:06:13.79	36.83	17.31	-41.1	-44.8	12.9	3.96e-05	0	61	0	307232768	53	5609
2026-01-25 08:06:14.80	36.60	17.29	-41.2	-45.0	12.7	5.72e-05	0	61	0	309329920	53	5737
2026-01-25 08:06:15.81	36.37	17.27	-41.2	-45.0	12.6	9.68e-05	0	61	0	311427072	53	5743
2026-01-25 08:06:16.82	36.14	17.25	-41.3	-45.1	12.6	1.19e-04	0	61	0	312475648	53	5812
2026-01-25 08:06:17.83	35.92	17.23	-41.2	-45.0	12.6	1.13e-04	0	61	0	314572800	53	5750
2026-01-25 08:06:18.84	35.69	17.21	-41.3	-45.1	12.6	8.85e-05	0	61	0	316669952	53	5802
2026-01-25 08:06:19.85	35.46	17.19	-41.3	-45.2	12.5	1.23e-04	0	61	0	318767104	53	5867
2026-01-25 08:06:20.86	35.24	17.17	-41.2	-44.9	12.7	9.00e-05	0	61	0	320864256	53	5719
2026-01-25 08:06:21.86	35.01	17.15	-41.3	-45.1	12.5	8.77e-05	0	61	0	321912832	53	5824
2026-01-25 08:06:22.87	34.79	17.12	-41.3	-45.2	12.5	1.30e-04	0	61	0	324009984	53	5866
2026-01-25 08:06:23.88	34.56	17.10	-41.3	-45.1	12.6	1.02e-04	0	61	0	326107136	53	5814
2026-01-25 08:06:24.90	34.34	17.08	-41.4	-45.3	12.3	1.68e-04	0	61	0	328204288	53	5983
2026-01-25 08:06:25.90	34.11	17.05	-41.4	-45.3	12.3	1.97e-04	0	61	0	330301440	53	5976
2026-01-25 08:06:26.91	33.89	17.03	-41.6	-45.7	12.0	3.49e-04	0	61	0	331350016	53	6205
2026-01-25 08:06:27.92	33.67	17.00	-41.5	-45.6	12.0	3.22e-04	0	61	0	333447168	53	6162
2026-01-25 08:06:28.93	33.44	16.98	-41.6	-45.8	11.8	2.92e-04	0	61	0	335544320	53	6293
2026-01-25 08:06:29.94	33.22	16.95	-41.6	-45.7	11.9	3.29e-04	0	61	0	337641472	53	6231
2026-01-25 08:06:30.95	33.00	16.93	-41.5	-45.6	12.0	3.37e-04	0	61	0	339738624	53	6149
2026-01-25 08:06:31.96	32.78	16.90	-41.5	-45.5	12.1	2.40e-04	0	61	0	340787200	53	6062
2026-01-25 08:06:32.97	32.55	16.87	-41.6	-45.6	11.9	3.74e-04	0	61	0	342884352	53	6202
2026-01-25 08:06:33.98	32.33	16.85	-41.6	-45.8	11.8	4.43e-04	0	61	0	344981504	53	6313
2026-01-25 08:06:34.99	32.11	16.82	-41.5	-45.6	12.0	3.42e-04	0	61	0	347078656	53	6175
2026-01-25 08:06:36.00	31.89	16.79	-41.4	-45.4	12.2	2.33e-04	0	61	0	349175808	53	6036
2026-01-25 08:06:37.01	31.67	16.76	-41.5	-45.5	12.1	2.75e-04	0	61	0	350224384	53	6089
2026-01-25 08:06:38.02	31.45	16.73	-41.4	-45.3	12.3	3.52e-04	0	61	0	352321536	53	5966
2026-01-25 08:06:39.03	31.23	16.71	-41.5	-45.6	11.9	3.55e-04	0	61	0	354418688	53	6188
2026-01-25 08:06:40.04	31.01	16.68	-41.6	-45.9	11.7	5.05e-04	0	61	0	356515840	53	6352
2026-01-25 08:06:41.05	30.80	16.65	-41.6	-45.9	11.6	5.40e-04	0	61	0	358612992	53	6386
2026-01-25 08:06:42.05	30.58	16.62	-41.7	-46.1	11.5	8.10e-04	0	61	0	359661568	54	6138
2026-01-25 08:06:43.06	30.36	16.59	-41.8	-46.3	11.3	1.12e-03	0	61	0	361758720	54	6313
2026-01-25 08:06:44.07	30.15	16.55	-41.9	-46.4	11.2	1.39e-03	0	61	0	363855872	54	6376
2026-01-25 08:06:45.08	29.93	16.52	-41.7	-46.1	11.5	1.56e-03	0	61	0	365953024	54	6158
2026-01-25 08:06:46.09	29.71	16.49	-41.8	-46.2	11.4	9.72e-04	0	61	0	368050176	54	6233
2026-01-25 08:06:47.10	29.50	16.46	-41.8	-46.2	11.3	1.11e-03	0	61	0	369098752	54	6259
2026-01-25 08:06:48.11	29.28	16.43	-41.8	-46.2	11.3	1.11e-03	0	61	0	371195904	54	6248
2026-01-25 08:06:49.12	29.07	16.39	-41.6	-45.9	11.6	7.09e-04	0	61	0	373293056	54	6041
2026-01-25 08:06:50.13	28.85	16.36	-41.7	-46.0	11.5	7.84e-04	0	61	0	375390208	54	6123
2026-01-25 08:06:51.14	28.64	16.33	-41.6	-45.8	11.7	7.54e-04	0	61	0	377487360	54	5954
2026-01-25 08:06:52.15	28.43	16.29	-41.7	-46.0	11.5	7.86e-04	0	61	0	379584512	54	6093
2026-01-25 08:06:53.16	28.21	16.26	-41.6	-45.8	11.8	5.57e-04	0	61	0	380633088	54	5951
2026-01-25 08:06:54.17	28.00	16.22	-41.5	-45.7	11.8	4.90e-04	0	61	0	382730240	54	5892
2026-01-25 08:06:55.18	27.79	16.19	-41.5	-45.6	11.9	3.78e-04	0	61	0	384827392	54	5832
2026-01-25 08:06:56.19	27.58	16.15	-41.5	-45.6	12.0	4.20e-04	0	61	0	386924544	54	5793
2026-01-25 08:06:57.20	27.37	16.12	-41.4	-45.4	12.1	3.06e-04	0	61	0	389021696	54	5712
2026-01-25 08:06:58.21	27.16	16.08	-41.3	-45.2	12.3	1.43e-04	0	61	0	390070272	54	5544
2026-01-25 08:06:59.22	26.95	16.04	-41.1	-44.9	12.7	9.84e-05	0	61	0	392167424	54	5352
2026-01-25 08:07:00.23	26.74	16.01	-41.1	-44.8	12.8	6.71e-05	0	61	0	394264576	54	5321
2026-01-25 08:07:01.24	26.53	15.97	-41.1	-44.7	12.8	6.48e-05	0	61	0	396361728	54	5279
2026-01-25 08:07:02.25	26.32	15.93	-41.1	-44.9	12.7	5.79e-05	0	61	0	398458880	54	5360
2026-01-25 08:07:03.26	26.12	15.89	-41.1	-44.8	12.7	4.65e-05	0	61	0	399507456	54	5310
2026-01-25 08:07:04.27	25.91	15.86	-41.1	-44.8	12.7	4.34e-05	0	61	0	401604608	53	5653
2026-01-25 08:07:05.28	25.70	15.82	-41.0	-44.7	12.8	4.65e-05	0	61	0	403701760	53	5555
2026-01-25 08:07:06.29	25.50	15.78	-41.0	-44.7	12.8	6.17e-05	0	61	0	405798912	53	5571
2026-01-25 08:07:07.30	25.29	15.74	-41.0	-44.8	12.8	6.25e-05	0	61	0	407896064	53	5593
2026-01-25 08:07:08.31	25.09	15.70	-41.0	-44.8	12.7	7.47e-05	0	61	0	408944640	53	5601
2026-01-25 08:07:09.32	24.88	15.66	-41.2	-45.1	12.4	9.00e-05	0	61	0	411041792	53	5802
2026-01-25 08:07:10.33	24.68	15.62	-41.3	-45.3	12.2	1.57e-04	0	61	0	413138944	53	5950
2026-01-25 08:07:11.34	24.48	15.58	-41.5	-45.8	11.7	3.54e-04	0	61	0	415236096	53	6320
2026-01-25 08:07:12.35	24.27	15.54	-41.7	-46.1	11.3	8.90e-04	0	61	0	417333248	53	6534
2026-01-25 08:07:13.36	24.07	15.50	-41.9	-46.6	10.8	1.86e-03	0	61	0	418381824	54	6531
2026-01-25 08:07:14.36	23.87	15.46	-41.8	-46.4	11.0	2.42e-03	0	61	0	420478976	54	6419
2026-01-25 08:07:15.38	23.67	15.42	-41.9	-46.7	10.7	2.76e-03	0	61	0	422576128	54	6591
2026-01-25 08:07:16.39	23.47	15.37	-41.9	-46.6	10.8	3.00e-03	0	61	0	424673280	54	6563
2026-01-25 08:07:17.39	23.27	15.33	-41.9	-46.6	10.8	2.33e-03	0	61	0	426770432	54	6542
2026-01-25 08:07:18.40	23.07	15.29	-41.8	-46.4	11.1	1.86e-03	0	61	0	427819008	54	6364
2026-01-25 08:07:19.41	22.87	15.25	-41.7	-46.2	11.2	1.44e-03	0	61	0	429916160	54	6245
2026-01-25 08:07:20.42	22.68	15.21	-41.8	-46.3	11.1	1.72e-03	0	61	0	432013312	54	6324
2026-01-25 08:07:21.43	22.48	15.16	-41.8	-46.3	11.1	1.49e-03	0	61	0	434110464	54	6319
2026-01-25 08:07:22.44	22.28	15.12	-41.8	-46.3	11.1	2.01e-03	0	61	0	436207616	54	6334
2026-01-25 08:07:23.45	22.09	15.08	-41.8	-46.4	11.0	2.01e-03	0	61	0	437256192	54	6350
2026-01-25 08:07:24.46	21.89	15.03	-41.8	-46.5	10.9	2.14e-03	0	61	0	439353344	54	6463
2026-01-25 08:07:25.47	21.69	14.99	-41.9	-46.5	11.0	1.87e-03	0	61	0	441450496	54	6481
2026-01-25 08:07:26.48	21.50	14.94	-41.9	-46.6	10.9	2.18e-03	0	61	0	443547648	54	6559
2026-01-25 08:07:27.49	21.31	14.90	-41.8	-46.3	11.1	1.94e-03	0	61	0	445644800	54	6340
2026-01-25 08:07:28.49	21.11	14.85	-41.7	-46.2	11.3	1.42e-03	0	61	0	446693376	54	6236
2026-01-25 08:07:29.50	20.92	14.81	-41.8	-46.3	11.3	1.13e-03	0	61	0	448790528	54	6320
2026-01-25 08:07:30.51	20.73	14.76	-41.5	-45.8	11.6	7.80e-04	0	61	0	450887680	54	5967
2026-01-25 08:07:31.52	20.54	14.72	-41.6	-46.0	11.5	7.80e-04	0	61	0	452984832	54	6104
2026-01-25 08:07:32.53	20.35	14.67	-41.5	-45.8	11.7	7.48e-04	0	61	0	455081984	54	5937
2026-01-25 08:07:33.54	20.16	14.63	-41.4	-45.6	11.9	7.38e-04	0	61	0	456130560	54	5790
2026-01-25 08:07:34.55	19.97	14.58	-41.4	-45.6	11.9	4.97e-04	0	61	0	458227712	54	5792
2026-01-25 08:07:35.56	19.78	14.53	-41.4	-45.6	11.8	4.49e-04	0	61	0	460324864	54	5821
2026-01-25 08:07:36.57	19.59	14.49	-41.4	-45.5	11.9	5.45e-04	0	61	0	462422016	54	5739
2026-01-25 08:07:37.58	19.40	14.44	-41.4	-45.5	11.9	3.96e-04	0	61	0	464519168	54	5752
2026-01-25 08:07:38.59	19.21	14.39	-41.4	-45.6	11.7	4.53e-04	0	61	0	465567744	54	5825
2026-01-25 08:07:39.60	19.03	14.35	-41.5	-45.9	11.4	6.66e-04	0	61	0	467664896	54	6050
2026-01-25 08:07:40.61	18.84	14.30	-41.7	-46.3	11.1	1.31e-03	0	61	0	469762048	54	6308
2026-01-25 08:07:41.62	18.66	14.25	-41.7	-46.4	11.0	1.68e-03	0	61	0	471859200	54	6381
2026-01-25 08:07:42.63	18.47	14.20	-41.8	-46.6	10.8	2.14e-03	0	61	0	473956352	54	6533
2026-01-25 08:07:43.64	18.29	14.15	-41.6	-46.2	11.1	2.27e-03	0	61	0	476053504	54	6229
2026-01-25 08:07:44.65	18.10	14.11	-41.6	-46.0	11.3	1.34e-03	0	61	0	477102080	54	6085
2026-01-25 08:07:45.66	17.92	14.06	-41.6	-46.1	11.3	1.13e-03	0	61	0	479199232	54	6148
2026-01-25 08:07:46.67	17.74	14.01	-41.5	-46.0	11.3	1.02e-03	0	61	0	481296384	54	6096
2026-01-25 08:07:47.68	17.56	13.96	-41.4	-45.8	11.5	7.44e-04	0	61	0	483393536	54	5929
2026-01-25 08:07:48.69	17.38	13.91	-41.4	-45.7	11.7	6.10e-04	0	61	0	485490688	54	5868
2026-01-25 08:07:49.70	17.19	13.86	-41.4	-45.8	11.5	1.04e-03	0	61	0	486539264	54	5929
2026-01-25 08:07:50.71	17.01	13.81	-41.4	-45.8	11.5	7.75e-04	0	61	0	488636416	54	5933
2026-01-25 08:07:51.72	16.84	13.76	-41.7	-46.3	11.0	1.28e-03	0	61	0	490733568	54	6335
2026-01-25 08:07:52.73	16.66	13.71	-41.8	-46.7	10.5	2.17e-03	0	62	0	492830720	54	6645
2026-01-25 08:07:53.75	16.48	13.66	-42.0	-47.3	9.9	6.77e-03	0	61	0	494927872	54	7054
2026-01-25 08:07:54.75	16.30	13.61	-42.1	-47.7	9.5	1.07e-02	0	62	0	495976448	54	7386
2026-01-25 08:07:55.76	16.12	13.56	-42.4	-48.5	8.7	2.43e-02	0	61	0	498073600	55	7655
2026-01-25 08:07:56.77	15.95	13.51	-42.5	-48.9	8.2	5.04e-02	0	62	0	500170752	55	8030
2026-01-25 08:07:57.78	15.77	13.46	-42.5	-49.0	8.1	6.11e-02	0	61	0	502267904	55	8087
2026-01-25 08:07:58.79	15.60	13.41	-42.4	-48.6	8.4	5.37e-02	0	61	0	504365056	55	7787
2026-01-25 08:07:59.80	15.42	13.36	-42.4	-48.6	8.6	4.16e-02	0	61	0	505413632	55	7734
2026-01-25 08:08:00.81	15.25	13.31	-42.3	-48.3	8.8	3.64e-02	0	62	0	507510784	55	7458
2026-01-25 08:08:01.82	15.08	13.26	-42.2	-48.1	8.9	3.32e-02	0	61	0	509607936	55	7296
2026-01-25 08:08:02.83	14.90	13.20	-42.2	-48.1	9.0	3.01e-02	0	61	0	511705088	55	7290
2026-01-25 08:08:03.84	14.73	13.15	-42.1	-47.8	9.2	2.20e-02	0	61	0	513802240	55	7078
2026-01-25 08:08:04.85	14.56	13.10	-42.0	-47.7	9.3	1.87e-02	0	61	0	514850816	55	7001
2026-01-25 08:08:05.86	14.39	13.05	-42.0	-47.6	9.4	1.73e-02	0	61	0	516947968	55	6886
2026-01-25 08:08:06.87	14.22	13.00	-41.9	-47.3	9.6	1.57e-02	0	61	0	519045120	55	6718
2026-01-25 08:08:07.87	14.05	12.95	-41.8	-47.0	9.9	1.04e-02	0	61	0	521142272	55	6477
2026-01-25 08:08:08.88	13.88	12.89	-41.7	-46.8	10.2	7.37e-03	0	61	0	523239424	55	6303
2026-01-25 08:08:09.89	13.71	12.84	-41.6	-46.6	10.3	5.45e-03	0	61	0	524288000	55	6176
2026-01-25 08:08:10.90	13.55	12.79	-41.6	-46.6	10.4	4.04e-03	0	61	0	526385152	55	6145
2026-01-25 08:08:11.91	13.38	12.74	-41.6	-46.7	10.1	5.34e-03	0	61	0	528482304	55	6260
2026-01-25 08:08:12.92	13.21	12.68	-41.7	-46.9	9.9	6.84e-03	0	61	0	530579456	55	6411
2026-01-25 08:08:13.93	13.05	12.63	-41.7	-47.1	9.7	9.30e-03	0	61	0	532676608	55	6507
2026-01-25 08:08:14.94	12.88	12.58	-41.7	-46.9	9.9	1.01e-02	0	61	0	533725184	55	6387
2026-01-25 08:08:15.95	12.72	12.52	-41.8	-47.3	9.4	1.40e-02	0	61	0	535822336	55	6669
2026-01-25 08:08:16.96	12.55	12.47	-41.7	-47.1	9.6	1.46e-02	0	61	0	537919488	55	6508
2026-01-25 08:08:17.97	12.39	12.42	-41.6	-47.0	9.7	1.27e-02	0	61	0	540016640	55	6429
2026-01-25 08:08:18.98	12.23	12.36	-41.5	-46.7	9.8	1.06e-02	0	62	0	542113792	55	6246
2026-01-25 08:08:19.99	12.06	12.31	-41.5	-46.6	9.9	8.72e-03	0	61	0	544210944	54	6558
2026-01-25 08:08:21.00	11.90	12.26	-41.4	-46.6	9.9	9.66e-03	0	62	0	545259520	54	6561
2026-01-25 08:08:22.01	11.74	12.20	-41.4	-46.7	9.8	9.94e-03	0	61	0	547356672	54	6602
2026-01-25 08:08:23.02	11.58	12.15	-41.4	-46.6	9.8	9.83e-03	0	61	0	549453824	54	6510
2026-01-25 08:08:24.03	11.42	12.09	-41.2	-46.2	10.1	7.28e-03	0	61	0	551550976	54	6261
2026-01-25 08:08:25.03	11.26	12.04	-41.1	-46.2	10.0	8.76e-03	0	61	0	553648128	54	6218
2026-01-25 08:08:26.04	11.11	11.99	-41.0	-46.2	9.9	8.63e-03	0	61	0	554696704	54	6252
2026-01-25 08:08:27.05	10.95	11.93	-41.0	-46.4	9.6	1.25e-02	0	61	0	556793856	53	6745
2026-01-25 08:08:28.06	10.79	11.88	-41.0	-46.6	9.2	1.62e-02	0	61	0	558891008	53	6931
2026-01-25 08:08:29.07	10.63	11.82	-41.1	-46.8	8.9	2.58e-02	0	61	0	560988160	53	7119
2026-01-25 08:08:30.08	10.48	11.77	-41.2	-47.5	8.2	4.24e-02	0	62	0	563085312	53	7638
2026-01-25 08:08:31.09	10.32	11.71	-41.2	-47.7	7.8	7.43e-02	0	62	0	564133888	53	7873
2026-01-25 08:08:32.10	10.17	11.66	-41.2	-48.2	7.3	1.11e-01	0	61	0	566231040	53	8278
2026-01-25 08:08:33.11	10.01	11.60	-41.3	-48.6	6.8	1.63e-01	0	61	0	568328192	53	8740
2026-01-25 08:08:34.12	9.86	11.55	-41.3	-49.2	6.2	2.32e-01	0	61	0	570425344	53	9316
2026-01-25 08:08:35.13	9.70	11.49	-41.3	-49.6	5.8	3.29e-01	0	61	0	572522496	53	9771
2026-01-25 08:08:36.14	9.55	11.44	-41.3	-49.8	5.6	4.28e-01	0	61	0	573571072	53	10058
2026-01-25 08:08:37.15	9.40	11.38	-41.1	-50.5	5.1	6.09e-01	0	62	0	575668224	53	10813
2026-01-25 08:08:38.16	9.25	11.33	-41.8	-51.4	4.9	5.61e-01	0	62	0	577765376	54	11416
2026-01-25 08:08:39.17	9.10	11.27	-40.6	-55.1	3.8	1.49e+00	0	61	104	578813952	53	18334
2026-01-25 08:08:40.18	8.95	11.22	-41.2	-53.6	3.8	1.49e+00	0	62	104	578813952	53	15473
2026-01-25 08:08:41.19	8.80	11.16	-42.1	-55.0	3.8	1.25e+00	0	62	104	578813952	54	17240
2026-01-25 08:08:42.20	8.65	11.11	-41.5	-53.2	4.1	1.44e+00	0	62	0	578813952	54	13887
2026-01-25 08:08:43.20	8.50	11.05	-41.4	-53.2	3.9	1.45e+00	0	61	104	578813952	54	13922
2026-01-25 08:08:44.21	8.35	10.99	-41.2	-53.2	3.9	1.45e+00	0	62	104	578813952	54	14046
2026-01-25 08:08:45.22	8.21	10.94	-41.2	-53.6	3.9	1.47e+00	0	62	104	578813952	54	14676
2026-01-25 08:08:46.23	8.06	10.88	-41.2	-54.2	3.8	1.49e+00	0	62	104	578813952	54	15690
2026-01-25 08:08:47.24	7.91	10.83	-41.1	-53.7	3.8	1.48e+00	0	62	104	578813952	54	14817
2026-01-25 08:08:48.25	7.77	10.77	-40.1	-54.7	3.8	1.49e+00	0	61	104	578813952	52	18560
2026-01-25 08:08:49.26	7.62	10.72	-40.8	-54.8	3.8	1.49e+00	0	62	104	578813952	52	18785
2026-01-25 08:08:50.27	7.48	10.66	-41.3	-55.0	3.8	1.49e+00	0	61	104	578813952	53	18190
2026-01-25 08:08:51.28	7.33	10.60	-41.0	-54.9	3.8	1.49e+00	0	62	104	578813952	53	17990
2026-01-25 08:08:52.29	7.19	10.55	-41.0	-55.3	3.8	1.49e+00	0	62	104	578813952	53	18776
2026-01-25 08:08:53.29	7.05	10.49	-40.9	-55.3	3.8	1.49e+00	0	61	104	578813952	53	18944
2026-01-25 08:08:54.30	6.91	10.44	-40.8	-55.3	3.8	1.49e+00	0	61	104	578813952	53	18885
2026-01-25 08:08:55.32	6.76	10.38	-40.5	-55.1	3.8	1.49e+00	0	62	104	578813952	53	18442
2026-01-25 08:08:56.33	6.62	10.32	-39.9	-54.4	3.8	1.49e+00	0	62	104	578813952	51	19154
2026-01-25 08:08:57.34	6.48	10.27	-39.8	-54.4	3.8	1.49e+00	0	62	104	578813952	51	18974
2026-01-25 08:08:58.35	6.34	10.21	-39.9	-54.5	3.8	1.49e+00	0	62	104	578813952	51	19228
2026-01-25 08:08:59.36	6.20	10.15	-39.8	-54.3	3.8	1.49e+00	0	61	104	578813952	51	18901
2026-01-25 08:09:00.36	6.06	10.10	-39.8	-54.3	3.8	1.49e+00	0	62	104	578813952	51	18940
2026-01-25 08:09:01.37	5.92	10.04	-39.8	-54.3	3.8	1.49e+00	0	61	104	578813952	51	18890
2026-01-25 08:09:02.38	5.79	9.99	-39.8	-54.3	3.8	1.49e+00	0	61	104	578813952	51	18862
2026-01-25 08:09:03.39	5.65	9.93	-39.9	-54.4	3.8	1.49e+00	0	62	104	578813952	51	19097
2026-01-25 08:09:04.40	5.51	9.87	-40.2	-54.8	3.8	1.49e+00	0	62	104	578813952	51	19886
2026-01-25 08:09:05.42	5.37	9.81	-39.8	-54.4	3.8	1.49e+00	0	62	104	578813952	51	18951
2026-01-25 08:09:06.43	5.24	9.76	-39.8	-54.4	3.8	1.49e+00	0	62	104	578813952	51	19042
2026-01-25 08:09:07.44	5.10	9.70	-39.8	-54.3	3.8	1.49e+00	0	62	104	578813952	51	18870
2026-01-25 08:09:08.44	4.97	9.65	-39.8	-54.3	3.8	1.49e+00	0	62	104	578813952	51	18876
2026-01-25 08:09:09.45	4.84	9.59	-39.7	-54.3	3.8	1.49e+00	0	62	104	578813952	51	18846
2026-01-25 08:09:10.46	4.70	9.53	-39.7	-54.3	3.8	1.49e+00	0	62	104	578813952	51	18815
2026-01-25 08:09:11.47	4.57	9.48	-39.9	-54.4	3.8	1.49e+00	0	62	104	578813952	51	19035
2026-01-25 08:09:12.48	4.44	9.42	-40.0	-54.6	3.8	1.49e+00	0	62	104	578813952	51	19457
2026-01-25 08:09:13.49	4.30	9.36	-39.9	-54.4	3.8	1.49e+00	0	61	104	578813952	51	19116
2026-01-25 08:09:14.50	4.17	9.31	-40.0	-54.5	3.8	1.49e+00	0	62	104	578813952	51	19319
2026-01-25 08:09:15.51	4.04	9.25	-39.9	-54.5	3.8	1.49e+00	0	61	104	578813952	51	19201
2026-01-25 08:09:16.52	3.91	9.19	-39.8	-54.4	3.8	1.49e+00	0	62	104	578813952	51	19031
2026-01-25 08:09:17.53	3.78	9.13	-39.8	-54.4	3.8	1.49e+00	0	62	104	578813952	51	19054
2026-01-25 08:09:18.54	3.65	9.08	-40.0	-54.5	3.8	1.49e+00	0	62	104	578813952	51	19334
2026-01-25 08:09:19.55	3.52	9.02	-39.9	-54.4	3.8	1.49e+00	0	62	104	578813952	51	19138
2026-01-25 08:09:20.56	3.40	8.96	-39.8	-54.3	3.8	1.49e+00	0	62	104	578813952	51	18866
2026-01-25 08:09:21.57	3.27	8.91	-39.8	-54.3	3.8	1.49e+00	0	62	104	578813952	51	18890
2026-01-25 08:09:22.58	3.14	8.85	-39.9	-54.4	3.8	1.49e+00	0	62	104	578813952	51	19167
2026-01-25 08:09:23.59	3.01	8.79	-39.8	-54.3	3.8	1.49e+00	0	62	104	578813952	51	18920
2026-01-25 08:09:24.60	2.89	8.74	-39.8	-54.4	3.8	1.49e+00	0	62	104	578813952	51	18988
2026-01-25 08:09:25.61	2.76	8.68	-39.8	-54.3	3.8	1.49e+00	0	62	104	578813952	51	18797
2026-01-25 08:09:26.62	2.64	8.62	-39.9	-54.4	3.8	1.49e+00	0	61	104	578813952	51	19018
2026-01-25 08:09:27.63	2.51	8.57	-39.8	-54.4	3.8	1.49e+00	0	62	104	578813952	51	18962
2026-01-25 08:09:28.64	2.39	8.51	-39.9	-54.4	3.8	1.49e+00	0	61	104	578813952	51	19065
2026-01-25 08:09:29.65	2.26	8.45	-39.8	-54.3	3.8	1.49e+00	0	61	104	578813952	51	18901
2026-01-25 08:09:30.66	2.14	8.40	-39.9	-54.4	3.8	1.49e+00	0	62	104	578813952	51	19140
2026-01-25 08:09:31.67	2.02	8.34	-39.9	-54.4	3.8	1.49e+00	0	62	104	578813952	51	19099
2026-01-25 08:09:32.68	1.89	8.28	-39.8	-54.4	3.8	1.49e+00	0	61	104	578813952	51	18992
2026-01-25 08:09:33.69	1.77	8.23	-39.8	-54.4	3.8	1.49e+00	0	62	104	578813952	51	19033
2026-01-25 08:09:34.70	1.65	8.17	-39.9	-54.4	3.8	1.49e+00	0	62	104	578813952	51	19127
2026-01-25 08:09:35.71	1.53	8.11	-39.9	-54.4	3.8	1.49e+00	0	62	104	578813952	51	19101
2026-01-25 08:09:36.72	1.41	8.05	-39.8	-54.3	3.8	1.49e+00	0	62	104	578813952	51	18829
2026-01-25 08:09:37.73	1.29	8.00	-39.9	-54.4	3.8	1.49e+00	0	62	104	578813952	51	19100
2026-01-25 08:09:38.74	1.17	7.94	-42.1	-56.6	3.8	1.49e+00	0	62	104	578813952	54	20657
2026-01-25 08:09:39.75	1.05	7.88	-44.7	-59.2	3.8	1.49e+00	0	62	104	578813952	59	20877
2026-01-25 08:09:40.76	0.93	7.83	-44.9	-59.7	3.8	1.49e+00	0	62	104	578813952	60	20818
2026-01-25 08:09:41.77	0.82	7.77	-45.1	-59.9	3.8	1.49e+00	0	62	104	578813952	60	21279
2026-01-25 08:09:42.78	0.70	7.71	-45.2	-60.0	3.8	1.49e+00	0	62	104	578813952	60	21520
2026-01-25 08:09:43.79	0.58	7.66	-45.3	-60.0	3.8	1.49e+00	0	62	104	578813952	61	20514
2026-01-25 08:09:44.80	0.46	7.60	-45.4	-60.2	3.8	1.49e+00	0	61	104	578813952	61	20867
2026-01-25 08:09:45.81	0.35	7.54	-45.4	-60.1	3.8	1.49e+00	0	61	104	578813952	61	20685
2026-01-25 08:09:46.82	0.23	7.49	-45.4	-60.1	3.8	1.49e+00	0	62	104	578813952	61	20622
2026-01-25 08:09:47.83	0.12	7.43	-45.3	-60.0	3.8	1.49e+00	0	62	104	578813952	61	20483
2026-01-25 08:09:48.84	0.00	7.37	-45.3	-60.0	3.8	1.49e+00	0	62	104	578813952	60	21680
2026-01-25 08:09:49.85	359.89	7.32	-45.3	-59.9	3.8	1.49e+00	0	62	104	578813952	61	20171
2026-01-25 08:09:50.87	359.77	7.26	-45.3	-59.9	3.8	1.49e+00	0	62	104	578813952	61	20115
2026-01-25 08:09:51.88	359.66	7.20	-45.3	-59.9	3.8	1.49e+00	0	62	104	578813952	61	20073
2026-01-25 08:09:52.89	359.55	7.15	-45.2	-59.8	3.8	1.49e+00	0	61	104	578813952	61	19950
2026-01-25 08:09:53.90	359.44	7.09	-45.1	-59.7	3.8	1.49e+00	0	62	104	578813952	61	19769
2026-01-25 08:09:54.91	359.32	7.03	-45.2	-59.7	3.8	1.49e+00	0	62	104	578813952	61	19748
2026-01-25 08:09:55.92	359.21	6.98	-45.1	-59.7	3.8	1.49e+00	0	62	104	578813952	61	19794
2026-01-25 08:09:56.93	359.10	6.92	-45.1	-59.7	3.8	1.49e+00	0	61	104	578813952	60	20983
2026-01-25 08:09:57.94	358.99	6.86	-45.1	-59.7	3.8	1.49e+00	0	62	104	578813952	60	20962
2026-01-25 08:09:58.95	358.88	6.81	-45.2	-59.8	3.8	1.49e+00	0	62	104	578813952	60	21037
2026-01-25 08:09:59.96	358.77	6.75	-45.2	-59.7	3.8	1.49e+00	0	62	104	578813952	60	20975
2026-01-25 08:10:00.96	358.66	6.69	-45.1	-59.8	3.8	1.49e+00	0	62	104	578813952	60	21024
2026-01-25 08:10:01.98	358.55	6.64	-45.2	-59.7	3.8	1.49e+00	0	62	104	578813952	60	20909
2026-01-25 08:10:02.99	358.44	6.58	-45.2	-59.7	3.8	1.49e+00	0	61	104	578813952	60	20970
2026-01-25 08:10:04.00	358.34	6.52	-45.0	-59.7	3.8	1.49e+00	0	62	104	578813952	60	20958
2026-01-25 08:10:05.01	358.23	6.47	-45.1	-59.7	3.8	1.49e+00	0	62	104	578813952	60	20974
2026-01-25 08:10:06.02	358.12	6.41	-44.9	-59.7	3.8	1.49e+00	0	62	104	578813952	60	20936
2026-01-25 08:10:07.03	358.01	6.36	-45.0	-59.7	3.8	1.49e+00	0	61	104	578813952	60	20851
2026-01-25 08:10:08.04	357.91	6.30	-45.1	-59.7	3.8	1.49e+00	0	62	104	578813952	60	20890
2026-01-25 08:10:09.05	357.80	6.24	-43.2	-59.6	3.8	1.49e+00	0	62	104	578813952	59	21971
2026-01-25 08:10:10.06	357.70	6.19	-45.1	-59.7	3.8	1.49e+00	0	61	104	578813952	60	20834
2026-01-25 08:10:11.07	357.59	6.13	-44.9	-59.7	3.8	1.49e+00	0	62	104	578813952	60	20819
2026-01-25 08:10:12.08	357.49	6.07	-45.1	-59.7	3.8	1.49e+00	0	62	104	578813952	60	20883
2026-01-25 08:10:13.09	357.38	6.02	-45.1	-59.7	3.8	1.49e+00	0	62	104	578813952	60	20877
2026-01-25 08:10:14.10	357.28	5.96	-45.0	-59.7	3.8	1.49e+00	0	62	104	578813952	60	20872
2026-01-25 08:10:15.12	357.17	5.91	-45.1	-59.7	3.8	1.49e+00	0	62	104	578813952	60	20842
2026-01-25 08:10:16.12	357.07	5.85	-45.1	-59.7	3.8	1.49e+00	0	62	104	578813952	60	20919
2026-01-25 08:10:17.14	356.97	5.79	-45.0	-59.7	3.8	1.49e+00	0	61	104	578813952	60	20833
2026-01-25 08:10:18.15	356.87	5.74	-45.1	-59.7	3.8	1.49e+00	0	62	104	578813952	60	20811
2026-01-25 08:10:19.16	356.77	5.68	-45.1	-59.7	3.8	1.49e+00	0	62	104	578813952	60	20805
2026-01-25 08:10:20.17	356.66	5.63	-45.0	-59.7	3.8	1.49e+00	0	62	104	578813952	60	20817
2026-01-25 08:10:21.18	356.56	5.57	-45.0	-59.7	3.8	1.49e+00	0	62	104	578813952	60	20834
2026-01-25 08:10:22.19	356.46	5.51	-44.8	-59.7	3.8	1.49e+00	0	62	104	578813952	60	20823
2026-01-25 08:10:23.20	356.36	5.46	-45.1	-59.7	3.8	1.49e+00	0	62	104	578813952	60	20874
2026-01-25 08:10:24.21	356.26	5.40	-44.3	-59.7	3.8	1.49e+00	0	62	104	578813952	60	20851
2026-01-25 08:10:25.22	356.16	5.35	-45.1	-59.7	3.8	1.49e+00	0	62	104	578813952	60	20780
2026-01-25 08:10:26.23	356.06	5.29	-45.1	-59.7	3.8	1.49e+00	0	62	104	578813952	60	20860
2026-01-25 08:10:27.24	355.97	5.23	-45.1	-59.7	3.8	1.49e+00	0	62	104	578813952	60	20806
2026-01-25 08:10:28.25	355.87	5.18	-45.1	-59.7	3.8	1.49e+00	0	62	104	578813952	60	20805
2026-01-25 08:10:29.26	355.77	5.12	-45.1	-59.7	3.8	1.49e+00	0	62	104	578813952	60	20802
2026-01-25 08:10:30.27	355.67	5.07	-45.1	-59.7	3.8	1.49e+00	0	62	104	578813952	60	20888
2026-01-25 08:10:31.28	355.58	5.01	-45.1	-59.7	3.8	1.49e+00	0	62	104	578813952	60	20798
2026-01-25 08:10:32.29	355.48	4.96	-45.1	-59.7	3.8	1.49e+00	0	62	104	578813952	60	20820
2026-01-25 08:10:33.30	355.38	4.90	-45.1	-59.7	3.8	1.49e+00	0	62	104	578813952	60	20817
2026-01-25 08:10:34.31	355.29	4.85	-44.9	-59.7	3.8	1.49e+00	0	62	104	578813952	60	20816
2026-01-25 08:10:35.32	355.19	4.79	-45.1	-59.7	3.8	1.49e+00	0	62	104	578813952	60	20875
2026-01-25 08:10:36.33	355.10	4.74	-45.1	-59.7	3.8	1.49e+00	0	62	104	578813952	60	20854
2026-01-25 08:10:37.34	355.00	4.68	-45.1	-59.7	3.8	1.49e+00	0	62	104	578813952	60	20852
2026-01-25 08:10:38.35	354.91	4.63	-45.1	-59.7	3.8	1.49e+00	0	62	104	578813952	60	20829
2026-01-25 08:10:39.36	354.81	4.57	-45.1	-59.7	3.8	1.49e+00	0	62	104	578813952	60	20819
2026-01-25 08:10:40.37	354.72	4.51	-45.1	-59.7	3.8	1.49e+00	0	62	104	578813952	60	20867
2026-01-25 08:10:41.38	354.63	4.46	-45.0	-59.7	3.8	1.49e+00	0	62	104	578813952	60	20823
2026-01-25 08:10:42.39	354.53	4.40	-45.1	-59.7	3.8	1.49e+00	0	62	104	578813952	60	20851
2026-01-25 08:10:43.40	354.44	4.35	-45.1	-59.7	3.8	1.49e+00	0	62	104	578813952	60	20779
2026-01-25 08:10:44.41	354.35	4.29	-45.1	-59.6	3.8	1.49e+00	0	62	104	578813952	60	20765
2026-01-25 08:10:45.42	354.26	4.24	-45.1	-59.6	3.8	1.49e+00	0	62	104	578813952	60	20771
2026-01-25 08:10:46.44	354.17	4.18	-45.1	-59.7	3.8	1.49e+00	0	62	104	578813952	60	20780
2026-01-25 08:10:47.45	354.07	4.13	-45.0	-59.7	3.8	1.49e+00	0	62	104	578813952	60	20785
2026-01-25 08:10:48.45	353.98	4.08	-45.1	-59.6	3.8	1.49e+00	0	62	104	578813952	60	20742
2026-01-25 08:10:49.46	353.89	4.02	-44.8	-59.6	3.8	1.49e+00	0	61	104	578813952	60	20775
2026-01-25 08:10:50.47	353.80	3.97	-45.0	-59.7	3.8	1.49e+00	0	62	104	578813952	60	20807
2026-01-25 08:10:51.48	353.71	3.91	-45.1	-59.7	3.8	1.49e+00	0	62	104	578813952	60	20801
2026-01-25 08:10:52.49	353.63	3.86	-45.1	-59.7	3.8	1.49e+00	0	61	104	578813952	60	20821
2026-01-25 08:10:53.51	353.54	3.80	-45.1	-59.7	3.8	1.49e+00	0	62	104	578813952	60	20821
2026-01-25 08:10:54.52	353.45	3.75	-45.1	-59.6	3.8	1.49e+00	0	62	104	578813952	60	20770
2026-01-25 08:10:55.53	353.36	3.69	-45.1	-59.6	3.8	1.49e+00	0	62	104	578813952	60	20756
2026-01-25 08:10:56.54	353.27	3.64	-45.1	-59.6	3.8	1.49e+00	0	62	104	578813952	60	20721
2026-01-25 08:10:57.55	353.18	3.58	-45.0	-59.6	3.8	1.49e+00	0	62	104	578813952	60	20763
2026-01-25 08:10:58.55	353.10	3.53	-45.0	-59.7	3.8	1.49e+00	0	62	104	578813952	60	20788
2026-01-25 08:10:59.57	353.01	3.47	-45.1	-59.6	3.8	1.49e+00	0	62	104	578813952	60	20669
2026-01-25 08:11:00.58	352.92	3.42	-45.1	-59.6	3.8	1.49e+00	0	62	104	578813952	60	20759
2026-01-25 08:11:01.59	352.84	3.37	-45.1	-59.7	3.8	1.49e+00	0	62	104	578813952	60	20798
2026-01-25 08:11:02.60	352.75	3.31	-45.0	-59.7	3.8	1.49e+00	0	62	104	578813952	60	20822
2026-01-25 08:11:03.61	352.66	3.26	-45.1	-59.6	3.8	1.49e+00	0	62	104	578813952	60	20724
2026-01-25 08:11:04.62	352.58	3.20	-45.1	-59.7	3.8	1.49e+00	0	62	104	578813952	60	20803
2026-01-25 08:11:05.63	352.49	3.15	-44.9	-59.6	3.8	1.49e+00	0	62	104	578813952	60	20701
2026-01-25 08:11:06.64	352.41	3.10	-45.1	-59.6	3.8	1.49e+00	0	62	104	578813952	60	20758
2026-01-25 08:11:07.65	352.33	3.04	-45.0	-59.6	3.8	1.49e+00	0	62	104	578813952	60	20758
2026-01-25 08:11:08.66	352.24	2.99	-45.0	-59.7	3.8	1.49e+00	0	62	104	578813952	60	20804
2026-01-25 08:11:09.67	352.16	2.93	-45.0	-59.7	3.8	1.49e+00	0	62	104	578813952	60	20826
2026-01-25 08:11:10.68	352.07	2.88	-45.1	-59.6	3.8	1.49e+00	0	62	104	578813952	60	20734
2026-01-25 08:11:11.69	351.99	2.83	-45.0	-59.7	3.8	1.49e+00	0	62	104	578813952	60	20779
2026-01-25 08:11:12.71	351.91	2.77	-45.1	-59.6	3.8	1.49e+00	0	62	104	578813952	60	20763
2026-01-25 08:11:13.71	351.83	2.72	-45.0	-59.6	3.8	1.49e+00	0	62	104	578813952	60	20755
2026-01-25 08:11:14.73	351.74	2.66	-45.0	-59.6	3.8	1.49e+00	0	62	104	578813952	60	20734
2026-01-25 08:11:15.73	351.66	2.61	-45.0	-59.7	3.8	1.49e+00	0	62	104	578813952	60	20804
2026-01-25 08:11:16.75	351.58	2.56	-45.0	-59.6	3.8	1.49e+00	0	62	104	578813952	60	20727
2026-01-25 08:11:17.75	351.50	2.50	-45.0	-59.6	3.8	1.49e+00	0	62	104	578813952	60	20754
2026-01-25 08:11:18.77	351.42	2.45	-45.1	-59.7	3.8	1.49e+00	0	62	104	578813952	60	20778
2026-01-25 08:11:19.78	351.34	2.40	-45.0	-59.6	3.8	1.49e+00	0	62	104	578813952	60	20760
2026-01-25 08:11:20.79	351.26	2.34	-45.0	-59.7	3.8	1.49e+00	0	62	104	578813952	60	20834
2026-01-25 08:11:21.80	351.18	2.29	-45.0	-59.6	3.8	1.49e+00	0	62	104	578813952	60	20776
2026-01-25 08:11:22.81	351.10	2.24	-45.0	-59.6	3.8	1.49e+00	0	62	104	578813952	60	20751
2026-01-25 08:11:23.82	351.02	2.18	-45.1	-59.6	3.8	1.49e+00	0	62	104	578813952	60	20754
2026-01-25 08:11:24.83	350.94	2.13	-45.0	-59.6	3.8	1.49e+00	0	62	104	578813952	60	20705
2026-01-25 08:11:25.84	350.86	2.08	-45.0	-59.6	3.8	1.49e+00	0	62	104	578813952	60	20704
2026-01-25 08:11:26.85	350.78	2.02	-45.0	-59.7	3.8	1.49e+00	0	62	104	578813952	60	20793
2026-01-25 08:11:27.86	350.71	1.97	-45.0	-59.6	3.8	1.49e+00	0	62	104	578813952	60	20704
2026-01-25 08:11:28.87	350.63	1.92	-45.1	-59.6	3.8	1.49e+00	0	62	104	578813952	60	20755

#Closed at: 2026-01-25 08:11:29
#Recorded file [578 MB]: D:/lorett/data/31039_260125_105941.dat