passes_logs/2026/01/25/R2.0S_Moscow/R2.0S_Moscow__20260125_135814_FENGYUN_3E_rec.log

#Pass ID: 20260125_135814_FENGYUN 3E
#Satellite: FENGYUN 3E
#Configuration: FENGYUN 3E
#almurnet v.1.7.20251203
#Start time: 2026-01-25 13:58:14

#Version: 2.2.20231116
#Station: R2.0S_Moscow
#Location: 37.707566 lon 55.798166 lat
#TLE: 1 49008U 21062A   26025.22354119 -.00000045  00000+0 -39974-6 0  9992
#TLE: 2 49008  98.7496  30.2323 0002444 117.8821 242.2603 14.19886325236299

#Time	Az	El	Level	Level2	SNR	BER	BlckErr	Temp	State	Recorded	gain1	gain2
2026-01-25 13:58:14.63	153.84	1.99	-44.3	-55.2	3.8	8.47e-01	0	52	0	0	59	12470
2026-01-25 13:58:15.64	153.83	2.05	-44.2	-55.2	3.8	8.46e-01	0	52	104	0	59	12426
2026-01-25 13:58:16.65	153.82	2.12	-44.3	-55.2	3.8	8.48e-01	0	52	104	0	59	12454
2026-01-25 13:58:17.66	153.82	2.18	-44.3	-55.2	3.8	8.47e-01	0	52	104	0	59	12432
2026-01-25 13:58:18.67	153.81	2.25	-44.3	-55.2	3.8	8.46e-01	0	53	104	0	59	12466
2026-01-25 13:58:19.68	153.80	2.31	-44.2	-55.2	3.8	8.46e-01	0	53	104	0	59	12441
2026-01-25 13:58:20.69	153.79	2.38	-44.2	-55.2	3.8	8.46e-01	0	53	104	0	59	12447
2026-01-25 13:58:21.70	153.78	2.45	-44.2	-55.2	3.8	8.47e-01	0	53	104	0	59	12394
2026-01-25 13:58:22.71	153.77	2.51	-44.2	-55.2	3.8	8.45e-01	0	53	104	0	59	12420
2026-01-25 13:58:23.72	153.77	2.58	-44.2	-55.2	3.8	8.47e-01	0	53	104	0	59	12454
2026-01-25 13:58:24.74	153.76	2.65	-44.2	-55.2	3.8	8.45e-01	0	53	104	0	59	12431
2026-01-25 13:58:25.75	153.75	2.71	-44.2	-55.2	3.8	8.48e-01	0	53	104	0	59	12385
2026-01-25 13:58:26.76	153.74	2.78	-44.2	-55.2	3.8	8.46e-01	0	53	104	0	59	12439
2026-01-25 13:58:27.77	153.73	2.85	-44.2	-55.2	3.8	8.46e-01	0	53	104	0	59	12376
2026-01-25 13:58:28.78	153.72	2.91	-44.2	-55.2	3.8	8.46e-01	0	53	104	0	58	13202
2026-01-25 13:58:29.79	153.71	2.98	-44.2	-55.2	3.8	8.46e-01	0	54	104	0	58	13135
2026-01-25 13:58:30.79	153.70	3.05	-44.2	-55.2	3.8	8.46e-01	0	54	104	0	58	13172
2026-01-25 13:58:31.80	153.70	3.11	-44.2	-55.2	3.8	8.46e-01	0	54	104	0	58	13174
2026-01-25 13:58:32.81	153.69	3.18	-44.2	-55.2	3.8	8.47e-01	0	53	104	0	58	13112
2026-01-25 13:58:33.82	153.68	3.25	-44.2	-55.2	3.8	8.47e-01	0	54	104	0	58	13142
2026-01-25 13:58:34.83	153.67	3.32	-44.2	-55.2	3.8	8.47e-01	0	54	104	0	58	13168
2026-01-25 13:58:35.84	153.66	3.38	-44.2	-55.1	3.8	8.46e-01	0	54	104	0	58	13094
2026-01-25 13:58:36.85	153.65	3.45	-44.2	-55.2	3.8	8.46e-01	0	54	104	0	58	13131
2026-01-25 13:58:37.86	153.64	3.52	-44.2	-55.2	3.8	8.46e-01	0	54	104	0	58	13135
2026-01-25 13:58:38.87	153.63	3.59	-44.2	-55.2	3.8	8.46e-01	0	54	104	0	58	13113
2026-01-25 13:58:39.88	153.62	3.66	-44.2	-55.2	3.8	8.46e-01	0	54	104	0	58	13172
2026-01-25 13:58:40.90	153.61	3.73	-44.2	-55.2	3.8	8.46e-01	0	54	104	0	58	13167
2026-01-25 13:58:41.91	153.60	3.80	-44.2	-55.2	3.8	8.47e-01	0	54	104	0	58	13126
2026-01-25 13:58:42.92	153.60	3.87	-44.2	-55.2	3.8	8.47e-01	0	54	104	0	58	13133
2026-01-25 13:58:43.93	153.59	3.94	-44.2	-55.1	3.8	8.46e-01	0	54	104	0	58	13104
2026-01-25 13:58:44.94	153.58	4.01	-44.2	-55.2	3.8	8.46e-01	0	55	104	0	58	13113
2026-01-25 13:58:45.95	153.57	4.08	-44.2	-55.2	3.8	8.46e-01	0	54	104	0	58	13152
2026-01-25 13:58:46.96	153.56	4.15	-44.2	-55.1	3.8	8.48e-01	0	55	104	0	58	13103
2026-01-25 13:58:47.97	153.55	4.22	-44.2	-55.2	3.8	8.46e-01	0	55	104	0	58	13146
2026-01-25 13:58:48.98	153.54	4.29	-44.2	-55.1	3.8	8.47e-01	0	55	104	0	58	13101
2026-01-25 13:58:49.99	153.53	4.36	-44.2	-55.2	3.8	8.46e-01	0	55	104	0	58	13149
2026-01-25 13:58:51.00	153.52	4.43	-44.2	-55.2	3.8	8.47e-01	0	55	104	0	58	13122
2026-01-25 13:58:52.01	153.51	4.50	-44.2	-55.2	3.8	8.46e-01	0	55	104	0	58	13119
2026-01-25 13:58:53.02	153.50	4.57	-44.2	-55.2	3.8	8.46e-01	0	55	104	0	58	13143
2026-01-25 13:58:54.03	153.49	4.64	-44.2	-55.2	3.8	8.46e-01	0	55	104	0	58	13115
2026-01-25 13:58:55.05	153.48	4.71	-44.2	-55.2	3.8	8.46e-01	0	55	104	0	58	13133
2026-01-25 13:58:56.06	153.47	4.78	-44.2	-55.1	3.8	8.46e-01	0	55	104	0	58	13089
2026-01-25 13:58:57.07	153.46	4.86	-44.2	-55.2	3.8	8.46e-01	0	55	104	0	58	13112
2026-01-25 13:58:58.08	153.45	4.93	-44.2	-55.1	3.8	8.45e-01	0	55	104	0	58	13073
2026-01-25 13:58:59.09	153.44	5.00	-44.2	-55.2	3.8	8.47e-01	0	55	104	0	58	13113
2026-01-25 13:59:00.10	153.43	5.07	-44.2	-55.1	3.8	8.47e-01	0	55	104	0	58	13071
2026-01-25 13:59:01.11	153.42	5.15	-44.2	-55.1	3.8	8.46e-01	0	55	104	0	58	13014
2026-01-25 13:59:02.12	153.41	5.22	-44.2	-55.0	3.8	8.46e-01	0	56	104	0	58	12919
2026-01-25 13:59:03.13	153.39	5.29	-44.2	-54.9	3.8	8.45e-01	0	56	104	0	58	12736
2026-01-25 13:59:04.14	153.38	5.36	-44.1	-54.8	3.8	8.46e-01	0	56	104	0	58	12533
2026-01-25 13:59:05.15	153.37	5.44	-44.1	-54.6	3.8	8.47e-01	0	56	104	0	58	12346
2026-01-25 13:59:06.16	153.36	5.51	-44.1	-54.5	3.8	8.45e-01	0	56	104	0	58	12112
2026-01-25 13:59:07.17	153.35	5.59	-44.1	-54.2	3.8	8.46e-01	0	56	104	0	58	11795
2026-01-25 13:59:08.18	153.34	5.66	-43.9	-53.9	3.8	8.46e-01	0	56	104	0	58	11344
2026-01-25 13:59:09.20	153.33	5.73	-44.0	-53.6	3.8	8.45e-01	0	56	104	0	58	10953
2026-01-25 13:59:10.21	153.32	5.81	-43.9	-53.2	3.8	8.46e-01	0	56	104	0	58	10474
2026-01-25 13:59:11.22	153.31	5.88	-43.8	-52.7	4.0	8.43e-01	0	56	104	0	58	9849
2026-01-25 13:59:12.23	153.30	5.96	-43.7	-52.1	4.1	8.41e-01	0	56	0	0	58	9214
2026-01-25 13:59:13.24	153.28	6.03	-43.6	-51.5	4.2	8.37e-01	0	56	0	0	58	8649
2026-01-25 13:59:14.25	153.27	6.11	-43.2	-50.4	4.6	8.23e-01	0	56	0	0	57	8021
2026-01-25 13:59:15.26	153.26	6.19	-43.2	-50.1	4.7	8.03e-01	0	56	0	0	57	7738
2026-01-25 13:59:16.27	153.25	6.26	-43.2	-50.0	4.8	7.94e-01	0	56	0	0	57	7655
2026-01-25 13:59:17.28	153.24	6.34	-43.2	-50.1	4.7	7.99e-01	0	56	0	0	57	7799
2026-01-25 13:59:18.29	153.23	6.41	-43.3	-50.7	4.5	8.19e-01	0	57	0	0	57	8273
2026-01-25 13:59:19.30	153.22	6.49	-43.4	-51.0	4.3	8.28e-01	0	57	0	0	57	8652
2026-01-25 13:59:20.31	153.20	6.57	-43.4	-51.2	4.3	8.35e-01	0	56	0	0	57	8808
2026-01-25 13:59:21.32	153.19	6.64	-43.5	-51.3	4.3	8.34e-01	0	57	0	0	57	8906
2026-01-25 13:59:22.33	153.18	6.72	-43.6	-52.1	4.1	8.40e-01	0	57	0	0	57	9745
2026-01-25 13:59:23.34	153.17	6.80	-43.8	-53.0	3.9	8.44e-01	0	57	104	0	57	10824
2026-01-25 13:59:24.35	153.16	6.88	-43.8	-52.8	4.0	8.44e-01	0	57	104	0	57	10632
2026-01-25 13:59:25.36	153.14	6.95	-43.8	-53.0	3.8	8.44e-01	0	57	104	0	57	10841
2026-01-25 13:59:26.37	153.13	7.03	-43.8	-52.8	3.8	8.44e-01	0	57	104	0	57	10600
2026-01-25 13:59:27.38	153.12	7.11	-43.6	-51.6	4.2	8.39e-01	0	57	0	0	57	9179
2026-01-25 13:59:28.39	153.11	7.19	-43.3	-50.3	4.6	8.15e-01	0	57	0	0	57	7960
2026-01-25 13:59:29.40	153.09	7.27	-43.0	-49.3	5.1	7.80e-01	0	57	0	0	57	7090
2026-01-25 13:59:30.41	153.08	7.35	-42.3	-47.5	6.3	3.58e-01	0	57	0	3145728	55	6436
2026-01-25 13:59:31.42	153.07	7.43	-41.8	-46.4	7.3	1.52e-01	0	57	0	10485760	54	5999
2026-01-25 13:59:32.43	153.06	7.50	-41.2	-45.1	8.5	6.06e-02	0	57	0	17825792	53	5507
2026-01-25 13:59:33.44	153.04	7.58	-40.7	-44.4	9.3	2.16e-02	0	57	0	25165824	52	5343
2026-01-25 13:59:34.45	153.03	7.66	-40.2	-43.4	10.3	7.23e-03	0	57	0	32505856	51	5098
2026-01-25 13:59:35.46	153.02	7.75	-39.6	-42.5	11.2	1.68e-03	0	57	0	39845888	50	4870
2026-01-25 13:59:36.48	153.00	7.83	-39.2	-42.0	11.7	7.28e-04	0	57	0	47185920	49	4842
2026-01-25 13:59:37.49	152.99	7.91	-38.7	-41.4	12.4	2.14e-04	0	57	0	54525952	48	4769
2026-01-25 13:59:38.50	152.98	7.99	-38.5	-41.2	12.6	9.38e-05	0	57	0	61865984	48	4663
2026-01-25 13:59:39.51	152.96	8.07	-41.5	-45.5	8.6	1.01e-04	0	57	0	69206016	52	6091
2026-01-25 13:59:40.52	152.95	8.15	-43.7	-51.6	4.3	8.14e-01	0	57	0	70254592	57	9232
2026-01-25 13:59:41.53	152.94	8.23	-38.6	-41.1	12.7	5.40e-01	0	58	0	72351744	48	4628
2026-01-25 13:59:42.54	152.92	8.32	-40.9	-44.7	8.9	9.48e-02	0	57	0	79691776	52	5550
2026-01-25 13:59:43.55	152.91	8.40	-38.6	-41.1	12.7	3.85e-02	0	57	0	87031808	48	4646
2026-01-25 13:59:44.56	152.90	8.48	-38.8	-41.4	12.4	4.22e-04	0	58	0	94371840	48	4788
2026-01-25 13:59:45.57	152.88	8.56	-38.4	-41.0	12.6	8.35e-05	0	58	0	100663296	47	4838
2026-01-25 13:59:46.58	152.87	8.65	-38.2	-40.7	12.9	4.34e-05	0	58	0	108003328	47	4678
2026-01-25 13:59:47.59	152.85	8.73	-38.0	-40.5	13.2	3.43e-05	0	58	0	116391936	47	4559
2026-01-25 13:59:48.60	152.84	8.81	-37.9	-40.3	13.3	1.83e-05	0	58	0	122683392	46	4759
2026-01-25 13:59:49.61	152.82	8.90	-37.9	-40.3	13.3	1.94e-05	0	58	0	130023424	46	4754
2026-01-25 13:59:50.62	152.81	8.98	-38.0	-40.4	13.2	2.17e-05	0	58	0	137363456	46	4805
2026-01-25 13:59:51.63	152.80	9.07	-37.9	-40.4	13.3	6.80e-06	0	58	0	144703488	46	4777
2026-01-25 13:59:52.63	152.78	9.15	-37.8	-40.1	13.6	1.94e-05	0	58	0	152043520	46	4641
2026-01-25 13:59:53.64	152.77	9.24	-37.8	-40.2	13.5	1.02e-05	0	58	0	159383552	46	4702
2026-01-25 13:59:54.65	152.75	9.32	-37.7	-40.0	13.8	8.00e-06	0	58	0	166723584	46	4570
2026-01-25 13:59:55.66	152.74	9.41	-37.8	-40.1	13.6	4.50e-06	0	58	0	174063616	46	4636
2026-01-25 13:59:56.67	152.72	9.49	-37.7	-40.0	13.8	5.70e-06	0	58	0	181403648	46	4583
2026-01-25 13:59:57.68	152.71	9.58	-37.6	-39.9	13.8	0.00e+00	0	58	0	188743680	46	4545
2026-01-25 13:59:58.69	152.69	9.67	-37.7	-40.1	13.7	2.20e-06	0	58	0	196083712	46	4637
2026-01-25 13:59:59.70	152.68	9.75	-37.6	-40.0	13.9	9.10e-06	0	58	0	203423744	46	4551
2026-01-25 14:00:00.71	152.66	9.84	-37.7	-39.9	13.9	0.00e+00	0	58	0	210763776	46	4541
2026-01-25 14:00:01.72	152.65	9.93	-37.8	-40.2	13.7	3.40e-06	0	58	0	218103808	46	4661
2026-01-25 14:00:02.73	152.63	10.02	-37.7	-40.0	13.8	8.00e-06	0	58	0	225443840	46	4597
2026-01-25 14:00:03.74	152.61	10.10	-37.5	-39.8	14.1	2.20e-06	0	58	0	232783872	46	4472
2026-01-25 14:00:04.75	152.60	10.19	-37.4	-39.6	14.3	2.20e-06	0	58	0	240123904	45	4609
2026-01-25 14:00:05.76	152.58	10.28	-37.4	-39.7	14.2	0.00e+00	0	58	0	246415360	45	4664
2026-01-25 14:00:06.77	152.57	10.37	-37.4	-39.6	14.3	1.10e-06	0	58	0	253755392	45	4641
2026-01-25 14:00:07.78	152.55	10.46	-37.3	-39.5	14.4	1.10e-06	0	58	0	261095424	45	4592
2026-01-25 14:00:08.79	152.53	10.55	-37.3	-39.5	14.4	1.10e-06	0	58	0	268435456	45	4583
2026-01-25 14:00:09.80	152.52	10.64	-37.3	-39.5	14.4	1.10e-06	0	59	0	275775488	45	4562
2026-01-25 14:00:10.80	152.50	10.73	-37.3	-39.5	14.5	1.10e-06	0	58	0	283115520	45	4579
2026-01-25 14:00:11.81	152.48	10.82	-37.2	-39.4	14.5	0.00e+00	0	59	0	290455552	45	4515
2026-01-25 14:00:12.82	152.47	10.91	-37.1	-39.3	14.7	0.00e+00	0	58	0	297795584	45	4453
2026-01-25 14:00:13.83	152.45	11.00	-37.3	-39.4	14.6	1.10e-06	0	58	0	305135616	45	4530
2026-01-25 14:00:14.84	152.43	11.09	-37.1	-39.3	14.7	0.00e+00	0	58	0	312475648	45	4451
2026-01-25 14:00:15.85	152.42	11.19	-37.2	-39.4	14.6	1.10e-06	0	59	0	319815680	45	4500
2026-01-25 14:00:16.86	152.40	11.28	-37.1	-39.3	14.7	0.00e+00	0	59	0	327155712	45	4446
2026-01-25 14:00:17.87	152.38	11.37	-37.1	-39.2	14.8	0.00e+00	0	59	0	334495744	45	4417
2026-01-25 14:00:18.88	152.36	11.46	-37.1	-39.2	14.8	0.00e+00	0	59	0	341835776	45	4422
2026-01-25 14:00:19.89	152.35	11.56	-37.1	-39.2	14.9	0.00e+00	0	59	0	349175808	45	4398
2026-01-25 14:00:20.90	152.33	11.65	-37.2	-39.3	14.7	0.00e+00	0	59	0	356515840	45	4471
2026-01-25 14:00:21.91	152.31	11.75	-37.0	-39.1	15.0	1.10e-06	0	58	0	363855872	45	4357
2026-01-25 14:00:22.92	152.29	11.84	-37.0	-39.1	14.9	0.00e+00	0	59	0	371195904	44	4643
2026-01-25 14:00:23.93	152.27	11.94	-37.0	-39.1	15.0	0.00e+00	0	59	0	377487360	44	4618
2026-01-25 14:00:24.94	152.26	12.03	-36.9	-38.9	15.1	0.00e+00	0	59	0	385875968	44	4539
2026-01-25 14:00:25.95	152.24	12.13	-37.0	-39.0	15.1	0.00e+00	0	59	0	393216000	44	4581
2026-01-25 14:00:26.96	152.22	12.22	-37.1	-39.1	14.9	0.00e+00	0	59	0	399507456	44	4647
2026-01-25 14:00:27.97	152.20	12.32	-37.0	-39.0	15.1	0.00e+00	0	59	0	406847488	44	4574
2026-01-25 14:00:28.98	152.18	12.42	-36.9	-39.0	15.2	0.00e+00	0	59	0	414187520	44	4552
2026-01-25 14:00:29.99	152.16	12.51	-36.8	-38.7	15.4	0.00e+00	0	59	0	421527552	44	4440
2026-01-25 14:00:31.00	152.14	12.61	-37.0	-39.0	15.1	0.00e+00	0	59	0	428867584	44	4577
2026-01-25 14:00:32.01	152.12	12.71	-36.9	-38.9	15.3	0.00e+00	0	59	0	436207616	44	4503
2026-01-25 14:00:33.02	152.10	12.81	-36.9	-38.9	15.2	0.00e+00	0	59	0	443547648	44	4533
2026-01-25 14:00:34.03	152.08	12.91	-36.9	-38.9	15.3	0.00e+00	0	59	0	450887680	44	4501
2026-01-25 14:00:35.04	152.06	13.01	-36.9	-38.9	15.3	0.00e+00	0	59	0	458227712	44	4499
2026-01-25 14:00:36.05	152.04	13.10	-36.8	-38.8	15.4	0.00e+00	0	59	0	465567744	44	4486
2026-01-25 14:00:37.06	152.02	13.20	-36.9	-38.8	15.4	0.00e+00	0	59	0	472907776	44	4489
2026-01-25 14:00:38.07	152.00	13.30	-36.9	-38.9	15.3	0.00e+00	0	59	0	480247808	44	4509
2026-01-25 14:00:39.08	151.98	13.41	-36.8	-38.8	15.4	0.00e+00	0	59	0	487587840	44	4452
2026-01-25 14:00:40.09	151.96	13.51	-36.9	-38.9	15.4	0.00e+00	0	59	0	494927872	44	4503
2026-01-25 14:00:41.10	151.94	13.61	-36.8	-38.8	15.4	0.00e+00	0	59	0	502267904	44	4475
2026-01-25 14:00:42.11	151.92	13.71	-36.8	-38.8	15.4	0.00e+00	0	59	0	509607936	44	4469
2026-01-25 14:00:43.12	151.90	13.81	-36.7	-38.7	15.5	0.00e+00	0	59	0	516947968	44	4418
2026-01-25 14:00:44.13	151.88	13.92	-36.6	-38.6	15.7	0.00e+00	0	59	0	524288000	44	4355
2026-01-25 14:00:45.14	151.86	14.02	-36.8	-38.8	15.5	0.00e+00	0	59	0	531628032	44	4463
2026-01-25 14:00:46.15	151.84	14.12	-36.7	-38.7	15.6	0.00e+00	0	59	0	538968064	44	4413
2026-01-25 14:00:47.16	151.81	14.23	-36.8	-38.8	15.5	0.00e+00	0	59	0	546308096	44	4450
2026-01-25 14:00:48.17	151.79	14.33	-36.7	-38.7	15.6	0.00e+00	0	59	0	552599552	44	4396
2026-01-25 14:00:49.18	151.77	14.44	-36.7	-38.7	15.6	0.00e+00	0	60	0	559939584	44	4417
2026-01-25 14:00:50.19	151.75	14.54	-36.7	-38.6	15.7	0.00e+00	0	59	0	568328192	44	4373
2026-01-25 14:00:51.20	151.73	14.65	-36.7	-38.6	15.7	0.00e+00	0	59	0	574619648	44	4360
2026-01-25 14:00:52.21	151.70	14.76	-36.7	-38.7	15.6	0.00e+00	0	59	0	581959680	44	4393
2026-01-25 14:00:53.22	151.68	14.86	-36.7	-38.7	15.6	0.00e+00	0	60	0	589299712	44	4406
2026-01-25 14:00:54.23	151.66	14.97	-36.7	-38.7	15.6	0.00e+00	0	60	0	596639744	44	4403
2026-01-25 14:00:55.24	151.63	15.08	-36.6	-38.6	15.7	0.00e+00	0	59	0	603979776	44	4349
2026-01-25 14:00:56.26	151.61	15.19	-36.7	-38.7	15.6	0.00e+00	0	60	0	611319808	44	4419
2026-01-25 14:00:57.26	151.59	15.29	-36.8	-38.7	15.6	0.00e+00	0	60	0	618659840	44	4418
2026-01-25 14:00:58.28	151.56	15.41	-36.6	-38.6	15.8	0.00e+00	0	60	0	625999872	44	4345
2026-01-25 14:00:59.29	151.54	15.52	-36.7	-38.7	15.7	0.00e+00	0	60	0	633339904	44	4395
2026-01-25 14:01:00.30	151.52	15.63	-36.6	-38.5	15.8	0.00e+00	0	60	0	640679936	44	4340
2026-01-25 14:01:01.31	151.49	15.74	-36.7	-38.7	15.7	0.00e+00	0	60	0	648019968	44	4401
2026-01-25 14:01:02.32	151.47	15.85	-36.7	-38.6	15.8	0.00e+00	0	60	0	655360000	44	4365
2026-01-25 14:01:03.33	151.44	15.96	-36.3	-38.2	16.0	0.00e+00	0	60	0	662700032	43	4419
2026-01-25 14:01:04.33	151.42	16.07	-36.4	-38.3	15.9	0.00e+00	0	60	0	670040064	43	4483
2026-01-25 14:01:05.34	151.39	16.18	-36.4	-38.3	15.9	0.00e+00	0	60	0	677380096	43	4468
2026-01-25 14:01:06.35	151.37	16.30	-36.4	-38.3	15.9	0.00e+00	0	60	0	684720128	43	4474
2026-01-25 14:01:07.36	151.34	16.41	-36.3	-38.2	16.0	0.00e+00	0	60	0	692060160	43	4420
2026-01-25 14:01:08.37	151.32	16.53	-36.3	-38.2	16.0	0.00e+00	0	60	0	698351616	43	4416
2026-01-25 14:01:09.38	151.29	16.64	-36.2	-38.0	16.2	0.00e+00	0	60	0	705691648	43	4330
2026-01-25 14:01:10.39	151.26	16.76	-36.2	-38.0	16.2	0.00e+00	0	60	0	714080256	43	4333
2026-01-25 14:01:11.40	151.24	16.87	-36.3	-38.2	16.1	0.00e+00	0	60	0	720371712	43	4408
2026-01-25 14:01:12.41	151.21	16.99	-36.1	-38.0	16.2	0.00e+00	0	60	0	727711744	43	4298
2026-01-25 14:01:13.42	151.18	17.11	-36.2	-38.0	16.2	0.00e+00	0	60	0	735051776	43	4322
2026-01-25 14:01:14.42	151.16	17.22	-36.1	-37.9	16.3	0.00e+00	0	60	0	742391808	43	4269
2026-01-25 14:01:15.43	151.13	17.34	-36.1	-38.0	16.3	0.00e+00	0	60	0	749731840	43	4297
2026-01-25 14:01:16.44	151.10	17.46	-36.0	-37.8	16.4	0.00e+00	0	60	0	757071872	43	4239
2026-01-25 14:01:17.45	151.07	17.58	-36.0	-37.8	16.5	0.00e+00	0	60	0	764411904	43	4214
2026-01-25 14:01:18.46	151.05	17.70	-36.0	-37.8	16.5	0.00e+00	0	60	0	771751936	42	4477
2026-01-25 14:01:19.47	151.02	17.82	-36.0	-37.7	16.5	0.00e+00	0	60	0	779091968	42	4440
2026-01-25 14:01:20.48	150.99	17.94	-35.8	-37.6	16.7	0.00e+00	0	60	0	786432000	42	4368
2026-01-25 14:01:21.49	150.96	18.06	-35.9	-37.6	16.6	0.00e+00	0	60	0	793772032	42	4383
2026-01-25 14:01:22.50	150.93	18.18	-35.8	-37.5	16.8	0.00e+00	0	60	0	801112064	42	4318
2026-01-25 14:01:23.51	150.90	18.31	-35.8	-37.5	16.8	0.00e+00	0	60	0	808452096	42	4331
2026-01-25 14:01:24.52	150.87	18.43	-35.6	-37.3	17.0	0.00e+00	0	60	0	815792128	42	4227
2026-01-25 14:01:25.53	150.84	18.55	-35.6	-37.3	16.9	0.00e+00	0	60	0	823132160	42	4238
2026-01-25 14:01:26.54	150.81	18.68	-35.6	-37.3	17.0	0.00e+00	0	60	0	830472192	42	4232
2026-01-25 14:01:27.55	150.78	18.81	-35.5	-37.2	17.1	0.00e+00	0	60	0	837812224	42	4176
2026-01-25 14:01:28.56	150.75	18.93	-35.4	-37.1	17.2	0.00e+00	0	60	0	845152256	41	4368
2026-01-25 14:01:29.58	150.72	19.06	-35.5	-37.2	17.1	0.00e+00	0	60	0	851443712	41	4411
2026-01-25 14:01:30.58	150.69	19.19	-35.5	-37.2	17.1	0.00e+00	0	60	0	859832320	41	4397
2026-01-25 14:01:31.59	150.66	19.31	-35.4	-37.1	17.2	0.00e+00	0	60	0	867172352	41	4364
2026-01-25 14:01:32.60	150.63	19.44	-35.4	-37.0	17.3	0.00e+00	0	60	0	873463808	41	4323
2026-01-25 14:01:33.61	150.59	19.57	-35.4	-37.0	17.3	0.00e+00	0	60	0	880803840	41	4332
2026-01-25 14:01:34.62	150.56	19.70	-35.5	-37.2	17.1	0.00e+00	0	60	0	888143872	41	4424
2026-01-25 14:01:35.63	150.53	19.83	-35.4	-37.1	17.3	0.00e+00	0	60	0	895483904	41	4341
2026-01-25 14:01:36.64	150.50	19.96	-35.2	-36.9	17.5	0.00e+00	0	60	0	902823936	41	4243
2026-01-25 14:01:37.65	150.46	20.09	-35.2	-36.8	17.5	0.00e+00	0	60	0	910163968	41	4221
2026-01-25 14:01:38.66	150.43	20.23	-35.3	-36.9	17.4	0.00e+00	0	60	0	917504000	41	4257
2026-01-25 14:01:39.67	150.40	20.36	-35.1	-36.7	17.6	0.00e+00	0	60	0	924844032	41	4167
2026-01-25 14:01:40.67	150.36	20.49	-35.1	-36.7	17.6	0.00e+00	0	60	0	932184064	41	4169
2026-01-25 14:01:41.69	150.33	20.63	-35.2	-36.8	17.6	0.00e+00	0	60	0	939524096	41	4205
2026-01-25 14:01:42.70	150.29	20.77	-35.0	-36.6	17.7	0.00e+00	0	60	0	946864128	41	4122
2026-01-25 14:01:43.70	150.26	20.90	-35.1	-36.7	17.7	0.00e+00	0	60	0	954204160	41	4153
2026-01-25 14:01:44.71	150.22	21.04	-35.0	-36.6	17.7	0.00e+00	0	60	0	961544192	41	4109
2026-01-25 14:01:45.72	150.19	21.17	-35.0	-36.6	17.7	0.00e+00	0	60	0	968884224	40	4385
2026-01-25 14:01:46.73	150.15	21.31	-35.0	-36.6	17.8	0.00e+00	0	60	0	976224256	40	4348
2026-01-25 14:01:47.75	150.11	21.45	-35.0	-36.7	17.6	0.00e+00	0	60	0	983564288	40	4399
2026-01-25 14:01:48.76	150.08	21.59	-35.1	-36.7	17.7	0.00e+00	0	60	0	990904320	40	4404
2026-01-25 14:01:49.77	150.04	21.73	-35.1	-36.7	17.6	0.00e+00	0	60	0	997195776	40	4431
2026-01-25 14:01:50.78	150.00	21.88	-35.0	-36.6	17.7	0.00e+00	0	60	0	1004535808	40	4369
2026-01-25 14:01:51.79	149.96	22.02	-35.0	-36.6	17.7	0.00e+00	0	60	0	1012924416	40	4390
2026-01-25 14:01:52.79	149.92	22.16	-35.0	-36.7	17.7	0.00e+00	0	60	0	1019215872	40	4398
2026-01-25 14:01:53.81	149.89	22.31	-35.1	-36.7	17.6	0.00e+00	0	61	0	1026555904	40	4441
2026-01-25 14:01:54.82	149.85	22.45	-35.2	-36.9	17.5	0.00e+00	0	60	0	1033895936	40	4522
2026-01-25 14:01:55.83	149.81	22.60	-35.1	-36.7	17.6	0.00e+00	0	61	0	1041235968	40	4418
2026-01-25 14:01:56.83	149.77	22.74	-35.1	-36.8	17.6	0.00e+00	0	60	0	1048576000	40	4451
2026-01-25 14:01:57.85	149.73	22.89	-35.1	-36.8	17.5	0.00e+00	0	60	0	1055916032	40	4460
2026-01-25 14:01:58.86	149.69	23.04	-35.1	-36.8	17.6	0.00e+00	0	60	0	1063256064	40	4444
2026-01-25 14:01:59.86	149.64	23.18	-35.0	-36.7	17.6	0.00e+00	0	61	0	1070596096	40	4411
2026-01-25 14:02:00.87	149.60	23.33	-35.2	-36.9	17.4	0.00e+00	0	60	0	1077936128	40	4517
2026-01-25 14:02:01.89	149.56	23.49	-35.1	-36.8	17.5	0.00e+00	0	60	0	1085276160	40	4466
2026-01-25 14:02:02.90	149.52	23.64	-35.1	-36.8	17.5	0.00e+00	0	61	0	1092616192	40	4477
2026-01-25 14:02:03.91	149.48	23.79	-35.1	-36.9	17.4	0.00e+00	0	61	0	1099956224	40	4512
2026-01-25 14:02:04.92	149.43	23.94	-35.1	-36.8	17.5	0.00e+00	0	61	0	1107296256	40	4476
2026-01-25 14:02:05.93	149.39	24.10	-35.1	-36.8	17.5	0.00e+00	0	61	0	1114636288	40	4481
2026-01-25 14:02:06.94	149.34	24.25	-35.2	-37.0	17.4	0.00e+00	0	61	0	1121976320	40	4550
2026-01-25 14:02:07.95	149.30	24.41	-35.2	-36.9	17.4	0.00e+00	0	60	0	1129316352	40	4531
2026-01-25 14:02:08.96	149.25	24.56	-35.1	-36.9	17.4	0.00e+00	0	61	0	1136656384	40	4513
2026-01-25 14:02:09.97	149.21	24.72	-35.2	-36.9	17.4	0.00e+00	0	60	0	1143996416	40	4537
2026-01-25 14:02:10.98	149.16	24.88	-35.1	-36.9	17.4	0.00e+00	0	61	0	1150287872	40	4539
2026-01-25 14:02:11.99	149.12	25.04	-35.1	-36.9	17.4	0.00e+00	0	61	0	1158676480	40	4527
2026-01-25 14:02:13.00	149.07	25.20	-35.1	-36.8	17.5	0.00e+00	0	60	0	1166016512	40	4485
2026-01-25 14:02:14.01	149.02	25.36	-35.1	-36.9	17.4	0.00e+00	0	61	0	1172307968	40	4511
2026-01-25 14:02:15.02	148.97	25.52	-35.2	-36.9	17.4	0.00e+00	0	61	0	1179648000	40	4540
2026-01-25 14:02:16.03	148.92	25.69	-35.2	-36.9	17.4	0.00e+00	0	61	0	1188036608	40	4537
2026-01-25 14:02:17.05	148.87	25.85	-35.0	-36.8	17.6	0.00e+00	0	61	0	1194328064	40	4442
2026-01-25 14:02:18.05	148.82	26.02	-35.0	-36.7	17.7	0.00e+00	0	61	0	1201668096	40	4411
2026-01-25 14:02:19.06	148.77	26.18	-34.9	-36.7	17.7	0.00e+00	0	61	0	1209008128	40	4403
2026-01-25 14:02:20.08	148.72	26.35	-35.0	-36.7	17.6	0.00e+00	0	61	0	1216348160	40	4438
2026-01-25 14:02:21.09	148.67	26.52	-34.8	-36.5	17.8	0.00e+00	0	61	0	1223688192	40	4340
2026-01-25 14:02:22.09	148.62	26.69	-34.9	-36.7	17.7	0.00e+00	0	61	0	1231028224	40	4392
2026-01-25 14:02:23.10	148.57	26.86	-34.7	-36.4	17.9	0.00e+00	0	61	0	1238368256	40	4270
2026-01-25 14:02:24.11	148.51	27.03	-34.8	-36.5	17.9	0.00e+00	0	61	0	1245708288	40	4324
2026-01-25 14:02:25.12	148.46	27.20	-34.8	-36.5	17.9	0.00e+00	0	61	0	1253048320	40	4312
2026-01-25 14:02:26.13	148.41	27.38	-34.7	-36.3	18.0	0.00e+00	0	61	0	1260388352	40	4236
2026-01-25 14:02:27.14	148.35	27.55	-34.5	-36.1	18.2	0.00e+00	0	61	0	1267728384	40	4138
2026-01-25 14:02:28.15	148.29	27.73	-34.7	-36.3	18.1	0.00e+00	0	61	0	1275068416	39	4478
2026-01-25 14:02:29.16	148.24	27.90	-34.5	-36.1	18.3	0.00e+00	0	61	0	1282408448	39	4374
2026-01-25 14:02:30.17	148.18	28.08	-34.4	-36.0	18.4	0.00e+00	0	61	0	1289748480	39	4336
2026-01-25 14:02:31.18	148.12	28.26	-34.4	-36.0	18.5	0.00e+00	0	61	0	1296039936	39	4292
2026-01-25 14:02:32.19	148.06	28.44	-34.3	-35.8	18.6	0.00e+00	0	61	0	1304428544	39	4227
2026-01-25 14:02:33.20	148.01	28.62	-34.2	-35.8	18.6	0.00e+00	0	61	0	1311768576	39	4217
2026-01-25 14:02:34.21	147.95	28.80	-34.2	-35.7	18.7	0.00e+00	0	61	0	1318060032	39	4176
2026-01-25 14:02:35.21	147.89	28.98	-34.2	-35.7	18.8	0.00e+00	0	61	0	1325400064	39	4164
2026-01-25 14:02:36.22	147.82	29.17	-34.2	-35.7	18.8	0.00e+00	0	61	0	1332740096	39	4152
2026-01-25 14:02:37.23	147.76	29.36	-34.1	-35.6	18.9	0.00e+00	0	61	0	1340080128	39	4130
2026-01-25 14:02:38.24	147.70	29.54	-34.2	-35.7	18.8	0.00e+00	0	61	0	1347420160	39	4181
2026-01-25 14:02:39.25	147.64	29.73	-34.3	-35.8	18.6	0.00e+00	0	61	0	1354760192	39	4241
2026-01-25 14:02:40.26	147.57	29.92	-34.4	-36.0	18.5	0.00e+00	0	61	0	1362100224	39	4298
2026-01-25 14:02:41.27	147.51	30.11	-34.4	-35.9	18.6	0.00e+00	0	61	0	1369440256	39	4283
2026-01-25 14:02:42.28	147.44	30.30	-34.5	-36.0	18.5	0.00e+00	0	61	0	1376780288	39	4330
2026-01-25 14:02:43.29	147.37	30.50	-34.4	-36.0	18.5	0.00e+00	0	61	0	1384120320	39	4306
2026-01-25 14:02:44.30	147.31	30.69	-34.4	-36.0	18.5	0.00e+00	0	61	0	1391460352	39	4323
2026-01-25 14:02:45.31	147.24	30.89	-34.4	-36.0	18.5	0.00e+00	0	61	0	1398800384	39	4310
2026-01-25 14:02:46.32	147.17	31.08	-34.4	-36.0	18.5	0.00e+00	0	61	0	1406140416	39	4317
2026-01-25 14:02:47.33	147.10	31.28	-34.5	-36.1	18.4	0.00e+00	0	61	0	1413480448	39	4360
2026-01-25 14:02:48.34	147.03	31.48	-34.4	-36.0	18.5	0.00e+00	0	61	0	1420820480	39	4333
2026-01-25 14:02:49.35	146.96	31.68	-34.5	-36.1	18.4	0.00e+00	0	61	0	1428160512	39	4341
2026-01-25 14:02:50.36	146.88	31.89	-34.4	-36.0	18.4	0.00e+00	0	61	0	1435500544	39	4339
2026-01-25 14:02:51.37	146.81	32.09	-34.5	-36.1	18.4	0.00e+00	0	61	0	1442840576	39	4374
2026-01-25 14:02:52.38	146.73	32.29	-34.6	-36.2	18.2	0.00e+00	0	61	0	1449132032	39	4438
2026-01-25 14:02:53.39	146.66	32.50	-34.5	-36.1	18.4	0.00e+00	0	61	0	1457520640	39	4352
2026-01-25 14:02:54.40	146.58	32.71	-34.6	-36.2	18.2	0.00e+00	0	61	0	1464860672	39	4439
2026-01-25 14:02:55.41	146.50	32.92	-34.6	-36.2	18.2	0.00e+00	0	61	0	1471152128	39	4434
2026-01-25 14:02:56.42	146.42	33.13	-34.6	-36.3	18.2	0.00e+00	0	61	0	1478492160	39	4448
2026-01-25 14:02:57.43	146.34	33.34	-34.6	-36.3	18.2	0.00e+00	0	61	0	1485832192	39	4447
2026-01-25 14:02:58.44	146.26	33.55	-34.6	-36.3	18.1	0.00e+00	0	61	0	1493172224	39	4475
2026-01-25 14:02:59.44	146.18	33.77	-34.6	-36.3	18.2	0.00e+00	0	61	0	1500512256	39	4443
2026-01-25 14:03:00.45	146.10	33.98	-34.7	-36.4	18.1	0.00e+00	0	61	0	1507852288	39	4502
2026-01-25 14:03:01.46	146.01	34.20	-34.7	-36.4	18.1	0.00e+00	0	61	0	1515192320	39	4520
2026-01-25 14:03:02.47	145.93	34.42	-34.7	-36.4	18.1	0.00e+00	0	61	0	1522532352	39	4503
2026-01-25 14:03:03.48	145.84	34.64	-34.7	-36.5	18.0	0.00e+00	0	61	0	1529872384	39	4551
2026-01-25 14:03:04.49	145.75	34.86	-34.7	-36.4	18.1	0.00e+00	0	61	0	1537212416	39	4514
2026-01-25 14:03:05.51	145.66	35.09	-34.5	-36.2	18.3	0.00e+00	0	61	0	1544552448	39	4412
2026-01-25 14:03:06.52	145.57	35.31	-34.5	-36.1	18.3	0.00e+00	0	61	0	1551892480	39	4380
2026-01-25 14:03:07.53	145.48	35.54	-34.4	-36.0	18.4	0.00e+00	0	61	0	1559232512	39	4339
2026-01-25 14:03:08.53	145.39	35.76	-34.5	-36.1	18.4	0.00e+00	0	61	0	1566572544	39	4369
2026-01-25 14:03:09.54	145.29	35.99	-34.5	-36.1	18.3	0.00e+00	0	61	0	1573912576	39	4385
2026-01-25 14:03:10.56	145.20	36.23	-34.5	-36.2	18.3	0.00e+00	0	61	0	1581252608	39	4398
2026-01-25 14:03:11.57	145.10	36.46	-34.5	-36.1	18.3	0.00e+00	0	61	0	1588592640	39	4377
2026-01-25 14:03:12.58	145.00	36.69	-34.6	-36.3	18.2	0.00e+00	0	61	0	1594884096	39	4449
2026-01-25 14:03:13.59	144.90	36.93	-34.7	-36.3	18.2	0.00e+00	0	61	0	1603272704	39	4492
2026-01-25 14:03:14.60	144.80	37.17	-34.8	-36.5	18.1	0.00e+00	0	61	0	1610612736	39	4563
2026-01-25 14:03:15.61	144.70	37.41	-34.9	-36.5	18.0	0.00e+00	0	61	0	1616904192	39	4587
2026-01-25 14:03:16.62	144.59	37.65	-34.9	-36.6	17.9	0.00e+00	0	61	0	1624244224	39	4650
2026-01-25 14:03:17.63	144.48	37.89	-35.1	-36.8	17.8	0.00e+00	0	61	0	1631584256	39	4737
2026-01-25 14:03:18.64	144.38	38.13	-35.1	-36.8	17.7	0.00e+00	0	61	0	1638924288	39	4737
2026-01-25 14:03:19.65	144.27	38.38	-35.1	-36.9	17.7	0.00e+00	0	61	0	1646264320	39	4764
2026-01-25 14:03:20.66	144.15	38.63	-35.0	-36.7	17.8	0.00e+00	0	61	0	1653604352	39	4699
2026-01-25 14:03:21.67	144.04	38.88	-34.9	-36.6	18.0	0.00e+00	0	61	0	1660944384	39	4621
2026-01-25 14:03:22.68	143.93	39.13	-34.8	-36.5	18.1	0.00e+00	0	61	0	1668284416	39	4554
2026-01-25 14:03:23.69	143.81	39.38	-34.8	-36.4	18.1	0.00e+00	0	61	0	1675624448	39	4535
2026-01-25 14:03:24.70	143.69	39.63	-34.5	-36.1	18.5	0.00e+00	0	61	0	1682964480	39	4341
2026-01-25 14:03:25.71	143.57	39.89	-34.6	-36.2	18.3	0.00e+00	0	61	0	1690304512	39	4426
2026-01-25 14:03:26.72	143.45	40.15	-34.8	-36.4	18.2	0.00e+00	0	61	0	1697644544	39	4513
2026-01-25 14:03:27.73	143.32	40.41	-34.7	-36.3	18.3	0.00e+00	0	61	0	1704984576	39	4450
2026-01-25 14:03:28.74	143.19	40.67	-35.1	-36.2	18.8	0.00e+00	0	61	0	1712324608	39	4418
2026-01-25 14:03:29.75	143.07	40.93	-35.2	-36.3	18.7	0.00e+00	0	61	0	1719664640	40	4218
2026-01-25 14:03:30.76	142.93	41.19	-35.2	-36.3	18.7	0.00e+00	0	61	0	1727004672	40	4242
2026-01-25 14:03:31.77	142.80	41.46	-35.2	-36.4	18.6	0.00e+00	0	61	0	1734344704	40	4261
2026-01-25 14:03:32.78	142.67	41.73	-35.3	-36.4	18.5	0.00e+00	0	61	0	1741684736	40	4287
2026-01-25 14:03:33.79	142.53	42.00	-35.5	-36.7	18.4	0.00e+00	0	61	0	1749024768	40	4398
2026-01-25 14:03:34.80	142.39	42.27	-35.5	-36.7	18.4	0.00e+00	0	61	0	1756364800	40	4393
2026-01-25 14:03:35.81	142.25	42.54	-35.3	-36.5	18.5	0.00e+00	0	61	0	1763704832	41	4067
2026-01-25 14:03:36.82	142.10	42.82	-35.6	-36.8	18.2	0.00e+00	0	61	0	1769996288	41	4223
2026-01-25 14:03:37.83	141.95	43.10	-35.5	-36.6	18.4	0.00e+00	0	62	0	1777336320	41	4120
2026-01-25 14:03:38.84	141.80	43.38	-35.4	-36.5	18.5	0.00e+00	0	61	0	1785724928	41	4089
2026-01-25 14:03:39.85	141.65	43.66	-35.3	-36.4	18.6	0.00e+00	0	61	0	1792016384	41	4025
2026-01-25 14:03:40.86	141.49	43.94	-35.3	-36.4	18.6	0.00e+00	0	61	0	1799356416	41	4023
2026-01-25 14:03:41.87	141.33	44.22	-35.3	-36.4	18.6	0.00e+00	0	61	0	1806696448	41	4026
2026-01-25 14:03:42.88	141.17	44.51	-35.3	-36.4	18.5	0.00e+00	0	61	0	1814036480	41	4038
2026-01-25 14:03:43.89	141.01	44.80	-35.4	-36.5	18.5	0.00e+00	0	61	0	1821376512	41	4074
2026-01-25 14:03:44.90	140.84	45.09	-35.7	-36.8	18.2	0.00e+00	0	61	0	1828716544	41	4239
2026-01-25 14:03:45.91	140.67	45.38	-35.7	-36.9	18.1	0.00e+00	0	61	0	1836056576	41	4279
2026-01-25 14:03:46.92	140.50	45.67	-35.8	-37.0	18.0	0.00e+00	0	61	0	1843396608	41	4308
2026-01-25 14:03:47.93	140.32	45.97	-36.0	-37.2	17.8	0.00e+00	0	62	0	1850736640	41	4438
2026-01-25 14:03:48.94	140.14	46.27	-36.1	-37.4	17.7	0.00e+00	0	61	0	1858076672	41	4503
2026-01-25 14:03:49.95	139.95	46.56	-36.0	-37.3	17.8	0.00e+00	0	62	0	1865416704	41	4453
2026-01-25 14:03:50.96	139.76	46.87	-36.0	-37.2	17.8	0.00e+00	0	61	0	1872756736	41	4434
2026-01-25 14:03:51.97	139.57	47.17	-36.1	-37.3	17.7	0.00e+00	0	61	0	1880096768	42	4237
2026-01-25 14:03:52.98	139.38	47.47	-35.9	-37.1	18.0	0.00e+00	0	61	0	1887436800	42	4104
2026-01-25 14:03:53.99	139.18	47.78	-35.9	-37.0	18.0	0.00e+00	0	61	0	1894776832	42	4094
2026-01-25 14:03:55.00	138.97	48.09	-35.9	-37.1	18.0	0.00e+00	0	62	0	1902116864	42	4105
2026-01-25 14:03:56.01	138.77	48.40	-35.9	-37.1	18.0	0.00e+00	0	61	0	1909456896	42	4104
2026-01-25 14:03:57.02	138.56	48.71	-35.9	-37.0	18.0	0.00e+00	0	62	0	1916796928	42	4078
2026-01-25 14:03:58.03	138.34	49.02	-36.1	-37.3	17.7	0.00e+00	0	61	0	1923088384	42	4221
2026-01-25 14:03:59.04	138.12	49.34	-36.3	-37.5	17.5	0.00e+00	0	62	0	1931476992	42	4327
2026-01-25 14:04:00.05	137.89	49.65	-36.4	-37.6	17.5	0.00e+00	0	61	0	1938817024	42	4364
2026-01-25 14:04:01.06	137.66	49.97	-36.6	-37.9	17.2	0.00e+00	0	61	0	1945108480	42	4496
2026-01-25 14:04:02.07	137.43	50.29	-36.4	-37.7	17.4	0.00e+00	0	62	0	1952448512	43	4180
2026-01-25 14:04:03.08	137.19	50.62	-36.6	-37.9	17.2	0.00e+00	0	61	0	1959788544	43	4267
2026-01-25 14:04:04.09	136.94	50.94	-36.5	-37.8	17.3	0.00e+00	0	61	0	1967128576	43	4204
2026-01-25 14:04:05.10	136.69	51.27	-36.5	-37.7	17.3	0.00e+00	0	61	0	1974468608	43	4176
2026-01-25 14:04:06.11	136.43	51.59	-36.3	-37.6	17.5	0.00e+00	0	61	0	1981808640	43	4101
2026-01-25 14:04:07.12	136.17	51.92	-36.4	-37.6	17.4	0.00e+00	0	61	0	1989148672	43	4141
2026-01-25 14:04:08.13	135.90	52.25	-36.3	-37.6	17.5	0.00e+00	0	61	0	1996488704	43	4106
2026-01-25 14:04:09.14	135.63	52.58	-36.3	-37.6	17.5	0.00e+00	0	61	0	2003828736	43	4119
2026-01-25 14:04:10.15	135.35	52.92	-36.4	-37.7	17.4	0.00e+00	0	62	0	2011168768	43	4178
2026-01-25 14:04:11.16	135.06	53.25	-36.6	-38.0	17.2	0.00e+00	0	61	0	2018508800	43	4294
2026-01-25 14:04:12.17	134.77	53.59	-36.3	-37.5	17.4	0.00e+00	0	62	0	2025848832	43	4098
2026-01-25 14:04:13.18	134.47	53.93	-36.4	-37.7	17.4	0.00e+00	0	61	0	2033188864	43	4155
2026-01-25 14:04:14.19	134.16	54.27	-36.5	-37.8	17.2	0.00e+00	0	62	0	2040528896	43	4212
2026-01-25 14:04:15.20	133.84	54.61	-36.7	-38.1	17.0	0.00e+00	0	62	0	2047868928	43	4344
2026-01-25 14:04:16.21	133.52	54.95	-36.6	-37.9	17.2	0.00e+00	0	61	0	2055208960	43	4250
2026-01-25 14:04:17.22	133.19	55.29	-36.3	-37.6	17.6	0.00e+00	0	61	0	2062548992	43	4103
2026-01-25 14:04:18.23	132.85	55.64	-36.4	-37.6	17.4	0.00e+00	0	61	0	2068840448	43	4142
2026-01-25 14:04:19.23	132.50	55.98	-36.5	-37.7	17.3	0.00e+00	0	61	0	2077229056	43	4192
2026-01-25 14:04:20.24	132.15	56.33	-36.4	-37.7	17.4	0.00e+00	0	62	0	2084569088	43	4167
2026-01-25 14:04:21.25	131.78	56.67	-36.5	-37.8	17.3	0.00e+00	0	61	0	2090860544	43	4198
2026-01-25 14:04:22.26	131.40	57.02	-36.6	-37.9	17.2	0.00e+00	0	61	0	2098200576	43	4274
2026-01-25 14:04:23.27	131.02	57.37	-36.6	-37.9	17.2	0.00e+00	0	62	0	2105540608	43	4253
2026-01-25 14:04:24.28	130.62	57.72	-36.6	-37.9	17.2	0.00e+00	0	62	0	2112880640	43	4261
2026-01-25 14:04:25.29	130.22	58.08	-36.5	-37.8	17.3	0.00e+00	0	62	0	2120220672	43	4197
2026-01-25 14:04:26.30	129.80	58.43	-36.5	-37.8	17.3	0.00e+00	0	62	0	2127560704	43	4209
2026-01-25 14:04:27.31	129.37	58.78	-36.0	-37.1	17.9	0.00e+00	0	62	0	2134900736	42	4130
2026-01-25 14:04:28.32	128.93	59.13	-36.2	-37.4	17.6	0.00e+00	0	62	0	2142240768	43	4047
2026-01-25 14:04:29.33	128.48	59.49	-36.4	-37.6	17.5	0.00e+00	0	62	0	2149580800	43	4139
2026-01-25 14:04:30.35	128.01	59.85	-36.3	-37.5	17.5	0.00e+00	0	62	0	2156920832	43	4098
2026-01-25 14:04:31.35	127.54	60.20	-36.3	-37.6	17.5	0.00e+00	0	62	0	2164260864	43	4121
2026-01-25 14:04:32.36	127.05	60.55	-36.3	-37.6	17.6	0.00e+00	0	62	0	2171600896	43	4102
2026-01-25 14:04:33.38	126.54	60.91	-36.1	-37.4	17.7	0.00e+00	0	61	0	2178940928	42	4247
2026-01-25 14:04:34.39	126.02	61.26	-36.0	-37.2	17.9	0.00e+00	0	61	0	2186280960	42	4173
2026-01-25 14:04:35.39	125.49	61.61	-36.1	-37.3	17.8	0.00e+00	0	61	0	2193620992	42	4241
2026-01-25 14:04:36.40	124.94	61.97	-35.9	-37.0	18.0	0.00e+00	0	62	0	2200961024	42	4094
2026-01-25 14:04:37.41	124.38	62.32	-35.7	-36.9	18.2	0.00e+00	0	62	0	2208301056	42	4013
2026-01-25 14:04:38.42	123.80	62.67	-36.2	-37.5	17.6	0.00e+00	0	62	0	2215641088	41	4553
2026-01-25 14:04:39.43	123.20	63.03	-35.8	-36.9	18.1	0.00e+00	0	62	0	2221932544	41	4284
2026-01-25 14:04:40.44	122.58	63.38	-35.9	-37.1	17.9	0.00e+00	0	61	0	2230321152	41	4363
2026-01-25 14:04:41.45	121.94	63.73	-35.9	-37.1	17.9	0.00e+00	0	62	0	2237661184	41	4369
2026-01-25 14:04:42.46	121.28	64.08	-35.8	-37.0	18.1	0.00e+00	0	62	0	2243952640	41	4299
2026-01-25 14:04:43.47	120.61	64.42	-35.6	-36.8	18.2	0.00e+00	0	62	0	2251292672	41	4214
2026-01-25 14:04:44.48	119.91	64.77	-35.5	-36.7	18.4	0.00e+00	0	61	0	2258632704	41	4165
2026-01-25 14:04:45.49	119.19	65.11	-35.3	-36.4	18.6	0.00e+00	0	62	0	2265972736	41	4051
2026-01-25 14:04:46.50	118.45	65.45	-35.0	-36.1	19.0	0.00e+00	0	62	0	2273312768	41	3883
2026-01-25 14:04:47.51	117.69	65.79	-35.1	-36.2	18.9	0.00e+00	0	62	0	2280652800	41	3915
2026-01-25 14:04:48.52	116.90	66.13	-35.3	-36.5	18.5	0.00e+00	0	62	0	2287992832	40	4296
2026-01-25 14:04:49.53	116.09	66.46	-35.1	-36.2	18.9	0.00e+00	0	62	0	2295332864	40	4156
2026-01-25 14:04:50.54	115.25	66.79	-35.1	-36.2	18.8	0.00e+00	0	61	0	2302672896	40	4158
2026-01-25 14:04:51.55	114.38	67.12	-35.2	-36.3	18.7	0.00e+00	0	62	0	2310012928	40	4233
2026-01-25 14:04:52.56	113.49	67.44	-35.2	-36.4	18.7	0.00e+00	0	61	0	2317352960	40	4244
2026-01-25 14:04:53.57	112.57	67.76	-35.1	-36.2	18.7	0.00e+00	0	62	0	2324692992	40	4171
2026-01-25 14:04:54.58	111.62	68.08	-35.3	-36.4	18.6	0.00e+00	0	62	0	2332033024	40	4272
2026-01-25 14:04:55.59	110.64	68.39	-35.4	-36.5	18.5	0.00e+00	0	62	0	2339373056	40	4321
2026-01-25 14:04:56.60	109.63	68.69	-35.3	-36.5	18.6	0.00e+00	0	62	0	2346713088	40	4305
2026-01-25 14:04:57.61	108.59	68.99	-35.4	-36.5	18.5	0.00e+00	0	62	0	2354053120	40	4319
2026-01-25 14:04:58.62	107.51	69.28	-35.4	-36.5	18.5	0.00e+00	0	62	0	2361393152	40	4319
2026-01-25 14:04:59.62	106.42	69.57	-35.3	-36.5	18.5	0.00e+00	0	62	0	2367684608	40	4302
2026-01-25 14:05:00.63	105.28	69.85	-35.2	-36.3	18.7	0.00e+00	0	62	0	2376073216	40	4230
2026-01-25 14:05:01.65	104.09	70.13	-35.3	-36.4	18.6	0.00e+00	0	62	0	2383413248	40	4265
2026-01-25 14:05:02.66	102.88	70.40	-35.4	-36.5	18.5	0.00e+00	0	62	0	2389704704	40	4315
2026-01-25 14:05:03.66	101.65	70.65	-35.4	-36.6	18.4	0.00e+00	0	62	0	2397044736	40	4359
2026-01-25 14:05:04.67	100.37	70.90	-35.2	-36.4	18.7	0.00e+00	0	62	0	2404384768	40	4264
2026-01-25 14:05:05.68	99.05	71.15	-35.3	-36.4	18.6	0.00e+00	0	62	0	2411724800	40	4275
2026-01-25 14:05:06.69	97.70	71.38	-35.4	-36.5	18.5	0.00e+00	0	62	0	2419064832	40	4323
2026-01-25 14:05:07.70	96.31	71.60	-35.5	-36.6	18.4	0.00e+00	0	62	0	2426404864	40	4381
2026-01-25 14:05:08.71	94.89	71.82	-35.4	-36.5	18.5	0.00e+00	0	62	0	2433744896	40	4305
2026-01-25 14:05:09.72	93.43	72.02	-35.7	-36.8	18.2	0.00e+00	0	62	0	2441084928	40	4492
2026-01-25 14:05:10.73	91.94	72.21	-35.7	-36.9	18.2	0.00e+00	0	61	0	2448424960	41	4249
2026-01-25 14:05:11.74	90.41	72.39	-35.5	-36.6	18.4	0.00e+00	0	62	0	2455764992	41	4134
2026-01-25 14:05:12.75	88.85	72.56	-35.3	-36.4	18.6	0.00e+00	0	62	0	2463105024	41	4035
2026-01-25 14:05:13.76	87.26	72.72	-35.4	-36.5	18.4	0.00e+00	0	62	0	2470445056	41	4087
2026-01-25 14:05:14.77	85.64	72.86	-35.4	-36.6	18.5	0.00e+00	0	62	0	2477785088	41	4114
2026-01-25 14:05:15.78	84.00	73.00	-35.3	-36.5	18.6	0.00e+00	0	62	0	2485125120	41	4056
2026-01-25 14:05:16.79	82.33	73.11	-35.4	-36.5	18.5	0.00e+00	0	62	0	2492465152	41	4078
2026-01-25 14:05:17.80	80.63	73.22	-35.4	-36.5	18.5	0.00e+00	0	62	0	2499805184	41	4088
2026-01-25 14:05:18.81	78.91	73.31	-35.2	-36.3	18.7	0.00e+00	0	62	0	2507145216	41	3988
2026-01-25 14:05:19.82	77.18	73.38	-35.1	-36.1	18.8	0.00e+00	0	62	0	2514485248	40	4139
2026-01-25 14:05:20.83	75.43	73.44	-35.0	-36.1	18.9	0.00e+00	0	62	0	2520776704	40	4117
2026-01-25 14:05:21.84	73.67	73.49	-35.3	-36.5	18.6	0.00e+00	0	62	0	2529165312	40	4306
2026-01-25 14:05:22.85	71.91	73.52	-35.5	-36.7	18.4	0.00e+00	0	62	0	2536505344	40	4408
2026-01-25 14:05:23.86	70.13	73.53	-35.4	-36.5	18.6	0.00e+00	0	62	0	2542796800	40	4323
2026-01-25 14:05:24.87	68.36	73.53	-35.1	-36.3	18.7	0.00e+00	0	62	0	2550136832	40	4194
2026-01-25 14:05:25.88	66.58	73.52	-35.0	-36.1	18.9	0.00e+00	0	62	0	2557476864	40	4124
2026-01-25 14:05:26.89	64.81	73.49	-35.1	-36.2	18.9	0.00e+00	0	62	0	2564816896	40	4152
2026-01-25 14:05:27.90	63.05	73.44	-35.2	-36.3	18.7	0.00e+00	0	62	0	2572156928	40	4240
2026-01-25 14:05:28.90	61.32	73.39	-35.2	-36.3	18.7	0.00e+00	0	62	0	2579496960	40	4231
2026-01-25 14:05:29.91	59.59	73.31	-35.2	-36.3	18.8	0.00e+00	0	62	0	2586836992	40	4215
2026-01-25 14:05:30.92	57.87	73.22	-35.2	-36.3	18.8	0.00e+00	0	62	0	2594177024	40	4205
2026-01-25 14:05:31.93	56.18	73.12	-35.1	-36.2	18.8	0.00e+00	0	62	0	2601517056	40	4193
2026-01-25 14:05:32.95	54.49	73.00	-35.3	-36.4	18.7	0.00e+00	0	62	0	2608857088	40	4260
2026-01-25 14:05:33.95	52.86	72.87	-35.3	-36.4	18.7	0.00e+00	0	62	0	2616197120	40	4257
2026-01-25 14:05:34.96	51.24	72.73	-35.1	-36.2	18.8	0.00e+00	0	62	0	2623537152	40	4183
2026-01-25 14:05:35.97	49.65	72.57	-35.3	-36.4	18.6	0.00e+00	0	62	0	2630877184	40	4258
2026-01-25 14:05:36.98	48.09	72.41	-35.2	-36.3	18.8	0.00e+00	0	62	0	2638217216	40	4232
2026-01-25 14:05:37.99	46.56	72.23	-35.3	-36.4	18.6	0.00e+00	0	62	0	2645557248	40	4257
2026-01-25 14:05:39.00	45.07	72.03	-35.5	-36.7	18.4	0.00e+00	0	62	0	2652897280	40	4416
2026-01-25 14:05:40.01	43.61	71.83	-35.6	-36.8	18.3	0.00e+00	0	62	0	2660237312	40	4444
2026-01-25 14:05:41.02	42.18	71.62	-35.7	-36.8	18.2	0.00e+00	0	62	0	2666528768	41	4229
2026-01-25 14:05:42.03	40.79	71.40	-35.8	-37.0	18.0	0.00e+00	0	62	0	2673868800	41	4340
2026-01-25 14:05:43.03	39.45	71.16	-35.7	-36.8	18.2	0.00e+00	0	62	0	2682257408	41	4233
2026-01-25 14:05:44.04	38.14	70.92	-35.7	-36.8	18.2	0.00e+00	0	62	0	2688548864	41	4241
2026-01-25 14:05:45.05	36.85	70.67	-35.5	-36.6	18.5	0.00e+00	0	62	0	2695888896	41	4129
2026-01-25 14:05:46.06	35.61	70.41	-35.4	-36.5	18.5	0.00e+00	0	62	0	2703228928	41	4073
2026-01-25 14:05:47.07	34.40	70.15	-35.3	-36.4	18.6	0.00e+00	0	62	0	2710568960	41	4041
2026-01-25 14:05:48.08	33.22	69.87	-35.4	-36.6	18.4	0.00e+00	0	62	0	2717908992	41	4113
2026-01-25 14:05:49.09	32.08	69.59	-35.2	-36.3	18.8	0.00e+00	0	62	0	2725249024	41	3968
2026-01-25 14:05:50.10	30.97	69.31	-35.0	-36.1	19.0	0.00e+00	0	62	0	2732589056	40	4121
2026-01-25 14:05:51.11	29.90	69.01	-35.2	-36.3	18.7	0.00e+00	0	62	0	2739929088	40	4242
2026-01-25 14:05:52.12	28.85	68.71	-35.4	-36.6	18.5	0.00e+00	0	62	0	2747269120	40	4354
2026-01-25 14:05:53.13	27.84	68.41	-35.4	-36.5	18.6	0.00e+00	0	62	0	2754609152	40	4324
2026-01-25 14:05:54.14	26.86	68.10	-35.2	-36.3	18.7	0.00e+00	0	62	0	2761949184	40	4235
2026-01-25 14:05:55.15	25.91	67.79	-35.2	-36.3	18.6	0.00e+00	0	62	0	2769289216	40	4224
2026-01-25 14:05:56.16	24.99	67.47	-35.1	-36.2	18.9	0.00e+00	0	62	0	2776629248	40	4154
2026-01-25 14:05:57.17	24.10	67.15	-35.3	-36.4	18.7	0.00e+00	0	62	0	2783969280	40	4274
2026-01-25 14:05:58.18	23.23	66.82	-35.3	-36.4	18.6	0.00e+00	0	62	0	2791309312	40	4289
2026-01-25 14:05:59.18	22.40	66.49	-35.2	-36.3	18.8	0.00e+00	0	62	0	2798649344	40	4211
2026-01-25 14:06:00.20	21.58	66.16	-35.3	-36.4	18.7	0.00e+00	0	62	0	2805989376	40	4273
2026-01-25 14:06:01.21	20.79	65.82	-35.5	-36.6	18.5	0.00e+00	0	62	0	2813329408	40	4391
2026-01-25 14:06:02.22	20.02	65.48	-35.6	-36.7	18.4	0.00e+00	0	62	0	2819620864	40	4433
2026-01-25 14:06:03.23	19.28	65.14	-35.7	-36.9	18.3	0.00e+00	0	62	0	2826960896	40	4505
2026-01-25 14:06:04.24	18.56	64.80	-35.5	-36.7	18.4	0.00e+00	0	62	0	2835349504	41	4157
2026-01-25 14:06:05.25	17.87	64.46	-35.6	-36.7	18.4	0.00e+00	0	62	0	2841640960	41	4188
2026-01-25 14:06:06.26	17.19	64.11	-35.6	-36.7	18.3	0.00e+00	0	62	0	2848980992	41	4188
2026-01-25 14:06:07.26	16.54	63.77	-35.8	-37.0	18.1	0.00e+00	0	62	0	2856321024	41	4307
2026-01-25 14:06:08.28	15.89	63.41	-35.8	-37.0	18.1	0.00e+00	0	62	0	2863661056	41	4319
2026-01-25 14:06:09.29	15.28	63.06	-36.0	-37.3	17.9	0.00e+00	0	62	0	2871001088	41	4443
2026-01-25 14:06:10.30	14.68	62.71	-36.1	-37.3	17.7	0.00e+00	0	62	0	2878341120	42	4225
2026-01-25 14:06:11.30	14.10	62.37	-36.2	-37.4	17.7	0.00e+00	0	62	0	2885681152	42	4274
2026-01-25 14:06:12.31	13.53	62.01	-36.2	-37.4	17.7	0.00e+00	0	62	0	2893021184	42	4286
2026-01-25 14:06:13.32	12.98	61.66	-36.5	-37.7	17.4	0.00e+00	0	62	0	2900361216	42	4438
2026-01-25 14:06:14.33	12.45	61.31	-36.8	-38.1	17.0	0.00e+00	0	62	0	2907701248	43	4368
2026-01-25 14:06:15.35	11.92	60.95	-36.8	-38.1	17.0	3.40e-06	0	62	0	2915041280	43	4379
2026-01-25 14:06:16.36	11.42	60.60	-36.6	-37.9	17.2	0.00e+00	0	62	0	2922381312	43	4261
2026-01-25 14:06:17.36	10.93	60.25	-36.6	-37.8	17.3	0.00e+00	0	62	0	2929721344	43	4230
2026-01-25 14:06:18.38	10.45	59.89	-36.7	-38.0	17.1	0.00e+00	0	62	0	2937061376	43	4340
2026-01-25 14:06:19.39	9.99	59.54	-36.9	-38.2	16.9	0.00e+00	0	62	0	2944401408	43	4411
2026-01-25 14:06:20.40	9.53	59.18	-36.7	-38.0	17.0	0.00e+00	0	62	0	2951741440	43	4312
2026-01-25 14:06:21.41	9.09	58.83	-36.6	-37.9	17.2	0.00e+00	0	62	0	2959081472	43	4251
2026-01-25 14:06:22.42	8.67	58.48	-36.4	-37.6	17.5	0.00e+00	0	62	0	2965372928	43	4131
2026-01-25 14:06:23.43	8.25	58.13	-36.5	-37.8	17.3	0.00e+00	0	62	0	2972712960	43	4218
2026-01-25 14:06:24.44	7.84	57.78	-36.8	-38.1	17.0	0.00e+00	0	62	0	2981101568	43	4377
2026-01-25 14:06:25.45	7.45	57.43	-37.0	-38.3	16.8	0.00e+00	0	62	0	2987393024	43	4485
2026-01-25 14:06:26.46	7.06	57.08	-36.9	-38.3	16.8	0.00e+00	0	62	0	2994733056	43	4459
2026-01-25 14:06:27.47	6.69	56.73	-36.7	-38.0	17.1	0.00e+00	0	62	0	3002073088	43	4332
2026-01-25 14:06:28.48	6.32	56.38	-36.5	-37.8	17.3	0.00e+00	0	62	0	3009413120	43	4234
2026-01-25 14:06:29.49	5.96	56.04	-36.3	-37.6	17.5	2.20e-06	0	62	0	3016753152	43	4126
2026-01-25 14:06:30.50	5.62	55.69	-36.2	-37.5	17.6	0.00e+00	0	62	0	3024093184	43	4069
2026-01-25 14:06:31.51	5.28	55.35	-36.2	-37.5	17.5	0.00e+00	0	62	0	3031433216	43	4065
2026-01-25 14:06:32.52	4.95	55.01	-36.1	-37.4	17.7	3.40e-06	0	62	0	3038773248	42	4247
2026-01-25 14:06:33.53	4.62	54.66	-36.1	-37.3	17.8	0.00e+00	0	62	0	3046113280	42	4208
2026-01-25 14:06:34.54	4.31	54.32	-36.0	-37.2	17.9	0.00e+00	0	62	0	3053453312	42	4180
2026-01-25 14:06:35.55	4.00	53.99	-36.1	-37.3	17.7	0.00e+00	0	62	0	3060793344	42	4225
2026-01-25 14:06:36.55	3.70	53.65	-36.4	-37.7	17.3	0.00e+00	0	62	0	3068133376	42	4415
2026-01-25 14:06:37.57	3.40	53.31	-36.6	-37.9	17.2	0.00e+00	0	62	0	3075473408	42	4531
2026-01-25 14:06:38.57	3.12	52.98	-36.7	-38.1	17.0	4.50e-06	0	62	0	3082813440	42	4614
2026-01-25 14:06:39.59	2.84	52.65	-36.4	-37.7	17.4	1.10e-06	0	62	0	3090153472	43	4174
2026-01-25 14:06:40.59	2.56	52.32	-36.3	-37.6	17.4	0.00e+00	0	62	0	3097493504	43	4114
2026-01-25 14:06:41.60	2.30	51.99	-36.5	-37.8	17.2	1.10e-06	0	62	0	3104833536	43	4211
2026-01-25 14:06:42.61	2.03	51.66	-36.7	-38.0	17.1	3.40e-06	0	62	0	3112173568	43	4301
2026-01-25 14:06:43.62	1.78	51.34	-36.8	-38.1	16.9	4.80e-05	0	62	0	3118465024	43	4343
2026-01-25 14:06:44.63	1.53	51.01	-36.8	-38.2	16.9	8.00e-06	0	62	0	3125805056	43	4413
2026-01-25 14:06:45.64	1.28	50.69	-36.5	-38.1	16.8	6.80e-06	0	62	0	3134193664	43	4373
2026-01-25 14:06:46.65	1.04	50.37	-36.6	-37.9	17.1	0.00e+00	0	62	0	3140485120	43	4287
2026-01-25 14:06:47.66	0.80	50.05	-36.4	-37.6	17.4	0.00e+00	0	62	0	3147825152	43	4142
2026-01-25 14:06:48.67	0.57	49.73	-36.3	-37.6	17.4	9.10e-06	0	62	0	3155165184	43	4120
2026-01-25 14:06:49.68	0.35	49.41	-36.3	-37.5	17.5	0.00e+00	0	62	0	3162505216	43	4088
2026-01-25 14:06:50.69	0.13	49.10	-36.3	-37.5	17.5	0.00e+00	0	62	0	3169845248	43	4096
2026-01-25 14:06:51.70	359.91	48.79	-36.2	-37.4	17.7	1.10e-06	0	62	0	3177185280	43	4029
2026-01-25 14:06:52.71	359.70	48.47	-36.0	-37.2	17.9	0.00e+00	0	62	0	3184525312	42	4146
2026-01-25 14:06:53.72	359.49	48.17	-35.8	-37.0	18.0	0.00e+00	0	62	0	3191865344	42	4071
2026-01-25 14:06:54.73	359.29	47.86	-35.8	-37.0	18.1	3.40e-06	0	62	0	3199205376	42	4072
2026-01-25 14:06:55.74	359.09	47.55	-35.7	-36.9	18.1	0.00e+00	0	62	0	3206545408	42	4036
2026-01-25 14:06:56.75	358.90	47.25	-35.8	-37.0	18.0	0.00e+00	0	62	0	3213885440	41	4304
2026-01-25 14:06:57.76	358.70	46.95	-35.9	-37.1	17.9	0.00e+00	0	62	0	3221225472	41	4359
2026-01-25 14:06:58.77	358.52	46.65	-35.4	-37.1	17.4	1.12e-04	0	62	0	3228565504	41	4357
2026-01-25 14:06:59.78	358.33	46.35	-35.9	-37.1	17.8	2.20e-06	0	62	0	3235905536	41	4344
2026-01-25 14:07:00.79	358.15	46.05	-35.8	-37.0	18.0	0.00e+00	0	62	0	3243245568	41	4304
2026-01-25 14:07:01.80	357.97	45.76	-35.6	-36.8	18.2	4.50e-06	0	62	0	3250585600	41	4215
2026-01-25 14:07:02.81	357.80	45.47	-35.5	-36.7	18.3	1.71e-05	0	62	0	3257925632	41	4168
2026-01-25 14:07:03.82	357.63	45.18	-35.4	-36.6	18.4	5.70e-06	0	62	0	3264217088	41	4117
2026-01-25 14:07:04.82	357.46	44.89	-35.5	-36.6	18.4	0.00e+00	0	62	0	3271557120	41	4133
2026-01-25 14:07:05.83	357.30	44.60	-35.4	-36.5	18.4	0.00e+00	0	62	0	3279945728	41	4090
2026-01-25 14:07:06.84	357.14	44.32	-35.3	-36.4	18.6	3.40e-06	0	62	0	3286237184	41	4032
2026-01-25 14:07:07.85	356.98	44.03	-35.1	-36.4	18.5	0.00e+00	0	62	0	3293577216	41	4016
2026-01-25 14:07:08.86	356.82	43.75	-35.1	-36.4	18.4	2.20e-06	0	62	0	3300917248	40	4280
2026-01-25 14:07:09.87	356.67	43.47	-35.1	-36.2	18.4	0.00e+00	0	62	0	3308257280	40	4164
2026-01-25 14:07:10.88	356.52	43.19	-35.2	-36.3	18.7	0.00e+00	0	62	0	3315597312	40	4210
2026-01-25 14:07:11.89	356.37	42.92	-35.1	-36.2	18.8	0.00e+00	0	62	0	3322937344	40	4187
2026-01-25 14:07:12.90	356.23	42.64	-35.1	-36.2	18.8	0.00e+00	0	62	0	3330277376	40	4192
2026-01-25 14:07:13.91	356.09	42.37	-35.0	-36.2	18.7	0.00e+00	0	62	0	3337617408	40	4190
2026-01-25 14:07:14.92	355.95	42.10	-35.3	-36.4	18.5	0.00e+00	0	62	0	3344957440	40	4273
2026-01-25 14:07:15.93	355.81	41.83	-35.2	-36.5	18.4	2.20e-06	0	62	0	3352297472	40	4313
2026-01-25 14:07:16.94	355.67	41.56	-35.4	-36.6	18.4	0.00e+00	0	62	0	3359637504	40	4365
2026-01-25 14:07:17.95	355.54	41.30	-35.5	-36.7	18.3	0.00e+00	0	62	0	3366977536	40	4409
2026-01-25 14:07:18.96	355.41	41.03	-35.6	-36.8	18.2	0.00e+00	0	62	0	3374317568	40	4463
2026-01-25 14:07:19.97	355.28	40.77	-35.7	-36.9	18.0	0.00e+00	0	62	0	3381657600	40	4527
2026-01-25 14:07:20.98	355.15	40.51	-35.6	-36.7	18.2	0.00e+00	0	62	0	3388997632	40	4425
2026-01-25 14:07:21.99	355.03	40.25	-35.6	-36.7	18.2	0.00e+00	0	62	0	3396337664	40	4440
2026-01-25 14:07:23.00	354.91	39.99	-35.7	-36.9	18.1	0.00e+00	0	62	0	3403677696	40	4494
2026-01-25 14:07:24.01	354.79	39.74	-35.6	-36.8	18.2	0.00e+00	0	62	0	3411017728	40	4477
2026-01-25 14:07:25.02	354.67	39.49	-35.5	-36.7	18.3	0.00e+00	0	62	0	3417309184	40	4401
2026-01-25 14:07:26.03	354.55	39.23	-35.5	-36.7	18.3	0.00e+00	0	62	0	3424649216	40	4394
2026-01-25 14:07:27.04	354.44	38.98	-35.4	-36.6	18.4	0.00e+00	0	62	0	3433037824	40	4367
2026-01-25 14:07:28.05	354.32	38.74	-35.4	-36.6	18.4	0.00e+00	0	62	0	3439329280	40	4357
2026-01-25 14:07:29.06	354.21	38.49	-35.3	-36.5	18.5	0.00e+00	0	62	0	3446669312	40	4297
2026-01-25 14:07:30.07	354.10	38.24	-35.2	-36.3	18.5	0.00e+00	0	62	0	3454009344	40	4218
2026-01-25 14:07:31.08	354.00	38.00	-35.1	-36.2	18.6	0.00e+00	0	62	0	3461349376	40	4160
2026-01-25 14:07:32.09	353.89	37.76	-35.2	-36.3	18.7	0.00e+00	0	62	0	3468689408	40	4215
2026-01-25 14:07:33.10	353.78	37.52	-35.2	-36.3	18.7	0.00e+00	0	62	0	3476029440	40	4208
2026-01-25 14:07:34.11	353.68	37.28	-35.2	-36.3	18.5	0.00e+00	0	62	0	3483369472	40	4240
2026-01-25 14:07:35.12	353.58	37.04	-35.3	-36.4	18.5	0.00e+00	0	62	0	3490709504	40	4269
2026-01-25 14:07:36.13	353.48	36.81	-35.3	-36.4	18.4	0.00e+00	0	62	0	3498049536	40	4287
2026-01-25 14:07:37.14	353.38	36.57	-35.1	-36.2	18.7	0.00e+00	0	62	0	3505389568	40	4169
2026-01-25 14:07:38.15	353.28	36.34	-35.0	-36.1	18.8	0.00e+00	0	62	0	3512729600	40	4114
2026-01-25 14:07:39.16	353.19	36.11	-34.9	-36.0	18.9	0.00e+00	0	62	0	3520069632	40	4070
2026-01-25 14:07:40.17	353.09	35.88	-34.8	-35.9	19.0	0.00e+00	0	62	0	3527409664	40	4035
2026-01-25 14:07:41.18	353.00	35.66	-34.8	-35.9	19.0	0.00e+00	0	62	0	3534749696	40	4027
2026-01-25 14:07:42.19	352.91	35.43	-34.8	-35.9	19.0	0.00e+00	0	62	0	3542089728	40	4039
2026-01-25 14:07:43.20	352.82	35.20	-34.8	-35.9	18.9	0.00e+00	0	62	0	3549429760	40	4041
2026-01-25 14:07:44.21	352.73	34.98	-34.9	-36.0	18.9	0.00e+00	0	62	0	3556769792	40	4071
2026-01-25 14:07:45.22	352.64	34.76	-34.9	-36.0	18.8	0.00e+00	0	62	0	3563061248	40	4093
2026-01-25 14:07:46.23	352.56	34.54	-35.0	-36.1	18.8	0.00e+00	0	62	0	3570401280	40	4132
2026-01-25 14:07:47.24	352.47	34.32	-35.0	-36.1	18.8	0.00e+00	0	62	0	3578789888	40	4116
2026-01-25 14:07:48.25	352.39	34.10	-34.9	-36.1	18.8	0.00e+00	0	62	0	3585081344	40	4103
2026-01-25 14:07:49.26	352.30	33.89	-34.9	-36.0	18.9	0.00e+00	0	62	0	3592421376	40	4065
2026-01-25 14:07:50.27	352.22	33.68	-34.9	-36.0	18.8	0.00e+00	0	62	0	3599761408	40	4093
2026-01-25 14:07:51.28	352.14	33.46	-34.9	-36.0	18.8	0.00e+00	0	62	0	3607101440	40	4065
2026-01-25 14:07:52.29	352.06	33.25	-34.9	-36.0	18.9	0.00e+00	0	62	0	3614441472	40	4071
2026-01-25 14:07:53.30	351.98	33.04	-34.8	-35.9	19.0	0.00e+00	0	62	0	3621781504	40	4008
2026-01-25 14:07:54.31	351.91	32.83	-34.9	-36.0	18.8	0.00e+00	0	62	0	3629121536	40	4097
2026-01-25 14:07:55.32	351.83	32.63	-34.8	-35.9	18.9	0.00e+00	0	62	0	3636461568	40	4030
2026-01-25 14:07:56.33	351.75	32.42	-34.8	-35.9	18.9	0.00e+00	0	62	0	3643801600	40	4030
2026-01-25 14:07:57.34	351.68	32.22	-34.9	-36.1	18.8	0.00e+00	0	62	0	3651141632	40	4106
2026-01-25 14:07:58.35	351.61	32.01	-34.9	-36.0	18.8	0.00e+00	0	62	0	3658481664	40	4094
2026-01-25 14:07:59.36	351.53	31.81	-34.9	-36.0	18.8	0.00e+00	0	62	0	3665821696	40	4097
2026-01-25 14:08:00.37	351.46	31.61	-35.0	-36.1	18.7	0.00e+00	0	62	0	3673161728	40	4134
2026-01-25 14:08:01.38	351.39	31.41	-35.0	-36.2	18.6	0.00e+00	0	62	0	3680501760	40	4157
2026-01-25 14:08:02.39	351.32	31.21	-35.1	-36.2	18.5	0.00e+00	0	62	0	3687841792	40	4169
2026-01-25 14:08:03.40	351.25	31.02	-35.0	-36.2	18.6	0.00e+00	0	62	0	3695181824	40	4156
2026-01-25 14:08:04.41	351.19	30.82	-35.1	-36.2	18.6	0.00e+00	0	62	0	3702521856	40	4159
2026-01-25 14:08:05.42	351.12	30.63	-35.1	-36.2	18.5	0.00e+00	0	62	0	3709861888	40	4162
2026-01-25 14:08:06.43	351.05	30.43	-35.0	-36.1	18.7	0.00e+00	0	62	0	3716153344	40	4113
2026-01-25 14:08:07.44	350.99	30.24	-34.9	-36.1	18.6	0.00e+00	0	62	0	3724541952	40	4099
2026-01-25 14:08:08.45	350.92	30.05	-34.9	-36.0	18.6	0.00e+00	0	62	0	3731881984	40	4095
2026-01-25 14:08:09.46	350.86	29.86	-34.9	-36.0	18.8	0.00e+00	0	62	0	3738173440	40	4054
2026-01-25 14:08:10.47	350.79	29.68	-34.9	-36.0	18.7	0.00e+00	0	62	0	3745513472	40	4054
2026-01-25 14:08:11.48	350.73	29.49	-34.9	-36.1	18.7	0.00e+00	0	62	0	3752853504	40	4102
2026-01-25 14:08:12.49	350.67	29.30	-34.9	-36.0	18.7	0.00e+00	0	62	0	3760193536	40	4092
2026-01-25 14:08:13.50	350.61	29.12	-35.0	-36.1	18.6	0.00e+00	0	62	0	3767533568	40	4119
2026-01-25 14:08:14.50	350.55	28.94	-35.0	-36.1	18.6	0.00e+00	0	62	0	3774873600	40	4133
2026-01-25 14:08:15.52	350.49	28.75	-35.1	-36.3	18.4	0.00e+00	0	62	0	3782213632	40	4212
2026-01-25 14:08:16.52	350.43	28.57	-35.2	-36.3	18.3	0.00e+00	0	62	0	3789553664	40	4238
2026-01-25 14:08:17.53	350.37	28.39	-35.2	-36.4	18.3	0.00e+00	0	62	0	3796893696	40	4264
2026-01-25 14:08:18.54	350.32	28.22	-35.3	-36.5	18.2	0.00e+00	0	62	0	3804233728	40	4311
2026-01-25 14:08:19.55	350.26	28.04	-35.3	-36.5	18.1	0.00e+00	0	62	0	3811573760	40	4331
2026-01-25 14:08:20.56	350.21	27.86	-35.4	-36.6	18.1	0.00e+00	0	62	0	3818913792	40	4359
2026-01-25 14:08:21.57	350.15	27.69	-35.5	-36.7	18.0	0.00e+00	0	62	0	3826253824	40	4402
2026-01-25 14:08:22.58	350.10	27.51	-35.4	-36.6	18.0	0.00e+00	0	62	0	3833593856	40	4387
2026-01-25 14:08:23.59	350.04	27.34	-35.5	-36.7	17.9	0.00e+00	0	62	0	3840933888	40	4410
2026-01-25 14:08:24.60	349.99	27.17	-35.4	-36.6	18.0	0.00e+00	0	62	0	3848273920	40	4387
2026-01-25 14:08:25.61	349.94	27.00	-35.4	-36.6	18.0	0.00e+00	0	62	0	3855613952	40	4356
2026-01-25 14:08:26.62	349.88	26.83	-35.4	-36.6	17.9	0.00e+00	0	62	0	3861905408	40	4375
2026-01-25 14:08:27.62	349.83	26.66	-35.4	-36.6	18.0	0.00e+00	0	62	0	3869245440	40	4345
2026-01-25 14:08:28.63	349.78	26.49	-35.3	-36.5	18.0	0.00e+00	0	62	0	3876585472	40	4320
2026-01-25 14:08:29.64	349.73	26.32	-35.3	-36.5	17.9	0.00e+00	0	62	0	3883925504	40	4328
2026-01-25 14:08:30.65	349.68	26.16	-35.2	-36.4	18.0	0.00e+00	0	62	0	3891265536	40	4262
2026-01-25 14:08:31.66	349.63	25.99	-35.2	-36.4	18.0	0.00e+00	0	62	0	3898605568	40	4250
2026-01-25 14:08:32.67	349.58	25.83	-35.1	-36.3	17.9	0.00e+00	0	62	0	3905945600	40	4204
2026-01-25 14:08:33.68	349.53	25.67	-35.1	-36.3	18.0	0.00e+00	0	62	0	3913285632	40	4207
2026-01-25 14:08:34.69	349.49	25.51	-35.1	-36.3	18.0	0.00e+00	0	62	0	3920625664	40	4207
2026-01-25 14:08:35.70	349.44	25.34	-35.1	-36.3	18.0	0.00e+00	0	62	0	3927965696	40	4216
2026-01-25 14:08:36.72	349.39	25.18	-35.1	-36.3	18.0	0.00e+00	0	62	0	3935305728	40	4195
2026-01-25 14:08:37.73	349.35	25.02	-35.2	-36.4	17.9	0.00e+00	0	62	0	3942645760	40	4250
2026-01-25 14:08:38.73	349.30	24.87	-35.2	-36.4	17.9	0.00e+00	0	62	0	3949985792	40	4250
2026-01-25 14:08:39.75	349.26	24.71	-35.2	-36.5	17.8	0.00e+00	0	62	0	3957325824	40	4295
2026-01-25 14:08:40.76	349.21	24.55	-35.2	-36.5	17.8	0.00e+00	0	62	0	3964665856	40	4294
2026-01-25 14:08:41.77	349.17	24.40	-35.4	-36.6	17.6	0.00e+00	0	62	0	3972005888	40	4381
2026-01-25 14:08:42.77	349.12	24.24	-35.4	-36.6	17.6	0.00e+00	0	62	0	3979345920	40	4371
2026-01-25 14:08:43.78	349.08	24.09	-35.5	-36.8	17.4	0.00e+00	0	62	0	3986685952	40	4445
2026-01-25 14:08:44.79	349.04	23.94	-35.5	-36.8	17.4	0.00e+00	0	62	0	3994025984	40	4446
2026-01-25 14:08:45.80	349.00	23.79	-35.4	-36.6	17.5	0.00e+00	0	62	0	4001366016	40	4378
2026-01-25 14:08:46.81	348.95	23.63	-35.5	-36.8	17.2	0.00e+00	0	62	0	4008706048	40	4461
2026-01-25 14:08:47.82	348.91	23.48	-35.6	-36.9	17.0	0.00e+00	0	62	0	4014997504	40	4537
2026-01-25 14:08:48.83	348.87	23.33	-35.5	-36.8	17.0	0.00e+00	0	62	0	4022337536	40	4457
2026-01-25 14:08:49.84	348.83	23.19	-35.3	-36.6	17.0	0.00e+00	0	62	0	4030726144	40	4372
2026-01-25 14:08:50.85	348.79	23.04	-35.6	-36.9	16.6	0.00e+00	0	62	0	4037017600	40	4533
2026-01-25 14:08:51.87	348.75	22.89	-35.8	-37.3	16.1	0.00e+00	0	62	0	4044357632	41	4445
2026-01-25 14:08:52.88	348.71	22.74	-35.6	-37.0	16.4	0.00e+00	0	62	0	4051697664	41	4296
2026-01-25 14:08:53.89	348.67	22.60	-35.2	-36.5	16.7	0.00e+00	0	62	0	4059037696	41	4083
2026-01-25 14:08:54.90	348.63	22.45	-35.1	-36.5	16.7	0.00e+00	0	62	0	4066377728	41	4052
2026-01-25 14:08:55.91	348.60	22.31	-35.2	-36.6	16.4	0.00e+00	0	62	0	4073717760	41	4120
2026-01-25 14:08:56.92	348.56	22.17	-35.2	-36.6	16.3	0.00e+00	0	62	0	4081057792	41	4143
2026-01-25 14:08:57.93	348.52	22.03	-35.2	-36.6	16.3	0.00e+00	0	62	0	4088397824	41	4109
2026-01-25 14:08:58.94	348.48	21.89	-35.2	-36.6	16.1	0.00e+00	0	62	0	4095737856	41	4141
2026-01-25 14:08:59.95	348.45	21.75	-35.5	-36.9	15.7	0.00e+00	0	62	0	4103077888	41	4289
2026-01-25 14:09:00.96	348.41	21.61	-35.9	-37.6	15.0	0.00e+00	0	62	0	4110417920	41	4606
2026-01-25 14:09:01.97	348.37	21.47	-36.7	-38.5	13.9	1.10e-06	0	62	0	4117757952	42	4869
2026-01-25 14:09:02.98	348.34	21.33	-37.7	-39.9	12.5	9.15e-05	0	62	0	4125097984	44	5046
2026-01-25 14:09:03.99	348.30	21.19	-38.6	-41.3	10.7	2.10e-03	0	62	0	4132438016	46	5340
2026-01-25 14:09:05.00	348.27	21.05	-39.6	-43.0	9.0	1.81e-02	0	62	0	4139778048	48	5767
2026-01-25 14:09:06.00	348.23	20.92	-40.3	-44.6	7.2	9.11e-02	0	62	0	4147118080	50	6196
2026-01-25 14:09:07.01	348.20	20.78	-40.9	-46.4	5.5	4.10e-01	0	62	0	4153409536	51	7165
2026-01-25 14:09:08.02	348.17	20.65	-41.2	-48.0	4.6	7.98e-01	0	62	0	4154458112	51	8648
2026-01-25 14:09:09.03	348.13	20.52	-41.3	-49.4	4.1	8.40e-01	0	62	0	4154458112	52	9581
2026-01-25 14:09:10.04	348.10	20.38	-41.4	-50.6	3.8	8.45e-01	0	62	104	4154458112	52	11009
2026-01-25 14:09:11.05	348.07	20.25	-41.4	-51.2	3.8	8.45e-01	0	62	104	4154458112	52	11804
2026-01-25 14:09:12.06	348.03	20.12	-41.4	-51.6	3.8	8.46e-01	0	62	104	4154458112	52	12256
2026-01-25 14:09:13.07	348.00	19.99	-41.4	-52.1	3.8	8.46e-01	0	62	104	4154458112	52	13069
2026-01-25 14:09:14.08	347.97	19.86	-41.4	-52.0	3.8	8.46e-01	0	62	104	4154458112	52	12865
2026-01-25 14:09:15.09	347.94	19.73	-41.3	-52.0	3.8	8.46e-01	0	62	104	4154458112	52	12827
2026-01-25 14:09:16.10	347.91	19.60	-41.5	-51.8	3.8	8.46e-01	0	62	104	4154458112	52	12663
2026-01-25 14:09:17.11	347.88	19.47	-41.5	-52.2	3.8	8.46e-01	0	62	104	4154458112	52	13132
2026-01-25 14:09:18.12	347.84	19.34	-41.4	-52.0	3.8	8.47e-01	0	62	104	4154458112	52	12883
2026-01-25 14:09:19.13	347.81	19.22	-41.3	-52.0	3.8	8.46e-01	0	62	104	4154458112	52	12896
2026-01-25 14:09:20.14	347.78	19.09	-41.4	-52.1	3.8	8.46e-01	0	62	104	4154458112	52	13041
2026-01-25 14:09:21.16	347.75	18.96	-41.4	-52.2	3.8	8.47e-01	0	62	104	4154458112	52	13138
2026-01-25 14:09:22.16	347.72	18.84	-41.3	-52.0	3.8	8.47e-01	0	62	104	4154458112	52	12900
2026-01-25 14:09:23.17	347.70	18.71	-41.5	-52.4	3.8	8.46e-01	0	62	104	4154458112	52	13445
2026-01-25 14:09:24.18	347.67	18.59	-41.5	-52.2	3.8	8.46e-01	0	62	104	4154458112	52	13214
2026-01-25 14:09:25.19	347.64	18.47	-41.2	-52.0	3.8	8.46e-01	0	62	104	4154458112	52	12835
2026-01-25 14:09:26.20	347.61	18.34	-41.4	-52.2	3.8	8.45e-01	0	62	104	4154458112	52	13220
2026-01-25 14:09:27.21	347.58	18.22	-41.7	-52.6	3.8	8.46e-01	0	62	104	4154458112	53	12975
2026-01-25 14:09:28.22	347.55	18.10	-41.4	-52.1	3.8	8.46e-01	0	62	104	4154458112	53	12359
2026-01-25 14:09:29.23	347.52	17.98	-41.2	-52.0	3.8	8.45e-01	0	62	104	4154458112	53	12113
2026-01-25 14:09:30.24	347.50	17.86	-41.2	-52.0	3.8	8.47e-01	0	62	104	4154458112	53	12097
2026-01-25 14:09:31.24	347.47	17.74	-41.2	-52.0	3.8	8.45e-01	0	62	104	4154458112	53	12130
2026-01-25 14:09:32.25	347.44	17.62	-41.3	-52.0	3.8	8.47e-01	0	62	104	4154458112	53	12234
2026-01-25 14:09:33.27	347.42	17.50	-41.2	-52.0	3.8	8.46e-01	0	62	104	4154458112	53	12219
2026-01-25 14:09:34.28	347.39	17.38	-41.7	-52.6	3.8	8.46e-01	0	62	104	4154458112	53	13003
2026-01-25 14:09:35.29	347.36	17.27	-41.2	-52.0	3.8	8.46e-01	0	62	104	4154458112	53	12193
2026-01-25 14:09:36.29	347.34	17.15	-41.5	-52.3	3.8	8.46e-01	0	62	104	4154458112	53	12636
2026-01-25 14:09:37.30	347.31	17.03	-41.4	-52.3	3.8	8.46e-01	0	62	104	4154458112	53	12534
2026-01-25 14:09:38.31	347.29	16.92	-41.4	-52.3	3.8	8.47e-01	0	62	104	4154458112	53	12568
2026-01-25 14:09:39.32	347.26	16.80	-41.6	-52.4	3.8	8.47e-01	0	62	104	4154458112	53	12763
2026-01-25 14:09:40.33	347.23	16.69	-41.6	-52.5	3.8	8.46e-01	0	62	104	4154458112	53	12916
2026-01-25 14:09:41.34	347.21	16.57	-41.7	-52.6	3.8	8.46e-01	0	62	104	4154458112	53	13005
2026-01-25 14:09:42.35	347.19	16.46	-41.6	-52.5	3.8	8.47e-01	0	62	104	4154458112	53	12921
2026-01-25 14:09:43.36	347.16	16.35	-41.7	-52.5	3.8	8.46e-01	0	62	104	4154458112	53	12910
2026-01-25 14:09:44.37	347.14	16.23	-41.7	-52.6	3.8	8.46e-01	0	62	104	4154458112	53	13012
2026-01-25 14:09:45.38	347.11	16.12	-41.7	-52.6	3.8	8.46e-01	0	62	104	4154458112	53	13049
2026-01-25 14:09:46.39	347.09	16.01	-41.7	-52.6	3.8	8.47e-01	0	62	104	4154458112	53	13086
