passes_logs/2026/01/23/T1/T1__20260123_072012_NOAA_20_JPSS-1_rec.log

#Pass ID: 20260123_072012_NOAA 20 (JPSS-1)
#Satellite: NOAA 20 (JPSS-1)
#Configuration: NOAA 20
#almurnet v.1.7.20251203
#Start time: 2026-01-23 07:20:11

#Version: 2.0.20230620
#Station: T1
#Location: 37.570604 lon 55.790049 lat
#TLE: 1 43013U 17073A   26022.44900781  .00000193  00000+0  11233-3 0  9999
#TLE: 2 43013  98.7645 323.3100 0001197  28.8413 331.2829 14.19538802423792

#Time	Az	El	Level	Level2	SNR	BER	BlckErr	Temp	State	Recorded	gain1	gain2
2026-01-23 07:20:11.84	75.17	5.00	-48.1	-63.5	3.8	1.49e+00	0	35	0	0	68	20359
2026-01-23 07:20:12.83	75.05	5.04	-48.1	-63.4	3.8	1.49e+00	0	35	104	0	68	20262
2026-01-23 07:20:13.82	74.93	5.08	-48.1	-63.4	3.8	1.49e+00	0	35	104	0	68	20282
2026-01-23 07:20:14.81	74.81	5.12	-48.1	-63.5	3.8	1.49e+00	0	35	104	0	68	20352
2026-01-23 07:20:15.81	74.69	5.17	-48.1	-63.5	3.8	1.49e+00	0	35	104	0	68	20342
2026-01-23 07:20:16.80	74.56	5.21	-48.1	-63.4	3.8	1.49e+00	0	35	104	0	68	20281
2026-01-23 07:20:17.79	74.44	5.25	-48.1	-63.4	3.8	1.49e+00	0	35	104	0	68	20300
2026-01-23 07:20:18.79	74.32	5.29	-48.1	-63.4	3.8	1.49e+00	0	35	104	0	68	20250
2026-01-23 07:20:19.78	74.20	5.34	-48.1	-63.4	3.8	1.49e+00	0	35	104	0	68	20246
2026-01-23 07:20:20.77	74.08	5.38	-48.1	-63.4	3.8	1.49e+00	0	35	104	0	68	20275
2026-01-23 07:20:21.77	73.95	5.42	-48.1	-63.4	3.8	1.49e+00	0	35	104	0	68	20232
2026-01-23 07:20:22.76	73.83	5.46	-48.1	-63.4	3.8	1.49e+00	0	35	104	0	68	20164
2026-01-23 07:20:23.76	73.70	5.51	-48.1	-63.4	3.8	1.49e+00	0	35	104	0	68	20171
2026-01-23 07:20:24.75	73.58	5.55	-48.0	-63.4	3.8	1.49e+00	0	35	104	0	68	20210
2026-01-23 07:20:25.74	73.46	5.59	-48.1	-63.4	3.8	1.49e+00	0	35	104	0	68	20174
2026-01-23 07:20:26.74	73.33	5.63	-48.1	-63.4	3.8	1.49e+00	0	35	104	0	68	20218
2026-01-23 07:20:27.73	73.20	5.68	-48.1	-63.4	3.8	1.49e+00	0	35	104	0	68	20257
2026-01-23 07:20:28.72	73.08	5.72	-48.1	-63.4	3.8	1.49e+00	0	35	104	0	68	20206
2026-01-23 07:20:29.72	72.95	5.76	-48.1	-63.4	3.8	1.49e+00	0	35	104	0	68	20209
2026-01-23 07:20:30.71	72.83	5.80	-48.1	-63.4	3.8	1.49e+00	0	35	104	0	68	20228
2026-01-23 07:20:31.70	72.70	5.84	-48.0	-63.4	3.8	1.49e+00	0	36	104	0	68	20231
2026-01-23 07:20:32.70	72.57	5.89	-48.1	-63.4	3.8	1.49e+00	0	36	104	0	68	20156
2026-01-23 07:20:33.69	72.44	5.93	-48.1	-63.4	3.8	1.49e+00	0	36	104	0	68	20196
2026-01-23 07:20:34.68	72.32	5.97	-48.1	-63.4	3.8	1.49e+00	0	36	104	0	68	20250
2026-01-23 07:20:35.68	72.19	6.01	-48.1	-63.4	3.8	1.49e+00	0	36	104	0	68	20231
2026-01-23 07:20:36.67	72.06	6.05	-48.1	-63.4	3.8	1.49e+00	0	36	104	0	68	20163
2026-01-23 07:20:37.66	71.93	6.09	-48.0	-63.4	3.8	1.49e+00	0	36	104	0	68	20284
2026-01-23 07:20:38.66	71.80	6.14	-48.1	-63.4	3.8	1.49e+00	0	36	104	0	68	20265
2026-01-23 07:20:39.65	71.67	6.18	-48.1	-63.4	3.8	1.49e+00	0	36	104	0	68	20240
2026-01-23 07:20:40.64	71.54	6.22	-48.1	-63.4	3.8	1.49e+00	0	36	104	0	68	20229
2026-01-23 07:20:41.64	71.41	6.26	-48.0	-63.4	3.8	1.49e+00	0	36	104	0	68	20226
2026-01-23 07:20:42.63	71.28	6.30	-48.0	-63.4	3.8	1.49e+00	0	36	104	0	68	20213
2026-01-23 07:20:43.62	71.15	6.34	-48.0	-63.4	3.8	1.49e+00	0	36	104	0	68	20078
2026-01-23 07:20:44.62	71.01	6.38	-48.0	-63.4	3.8	1.49e+00	0	36	104	0	68	20155
2026-01-23 07:20:45.61	70.88	6.42	-48.0	-63.4	3.8	1.49e+00	0	36	104	0	68	20200
2026-01-23 07:20:46.60	70.75	6.46	-48.0	-63.4	3.8	1.49e+00	0	36	104	0	68	20169
2026-01-23 07:20:47.60	70.62	6.51	-48.1	-63.4	3.8	1.49e+00	0	36	104	0	68	20163
2026-01-23 07:20:48.59	70.48	6.55	-48.0	-63.4	3.8	1.49e+00	0	36	104	0	68	20096
2026-01-23 07:20:49.58	70.35	6.59	-48.0	-63.4	3.8	1.49e+00	0	36	104	0	68	20117
2026-01-23 07:20:50.58	70.22	6.63	-48.0	-63.4	3.8	1.49e+00	0	36	104	0	68	20178
2026-01-23 07:20:51.57	70.08	6.67	-48.0	-63.4	3.8	1.49e+00	0	36	104	0	68	20202
2026-01-23 07:20:52.56	69.95	6.71	-48.0	-63.4	3.8	1.49e+00	0	36	104	0	68	20194
2026-01-23 07:20:53.56	69.81	6.75	-48.0	-63.4	3.8	1.49e+00	0	36	104	0	68	20243
2026-01-23 07:20:54.55	69.68	6.79	-48.0	-63.4	3.8	1.49e+00	0	36	104	0	68	20153
2026-01-23 07:20:55.54	69.54	6.83	-48.0	-63.4	3.8	1.49e+00	0	36	104	0	68	20183
2026-01-23 07:20:56.54	69.40	6.87	-48.0	-63.4	3.8	1.49e+00	0	36	104	0	68	20182
2026-01-23 07:20:57.53	69.27	6.91	-48.0	-63.4	3.8	1.49e+00	0	36	104	0	68	20221
2026-01-23 07:20:58.53	69.13	6.95	-48.0	-63.4	3.8	1.49e+00	0	36	104	0	68	20124
2026-01-23 07:20:59.52	68.99	6.99	-48.1	-63.3	3.8	1.49e+00	0	36	104	0	68	20059
2026-01-23 07:21:00.51	68.85	7.03	-48.1	-63.4	3.8	1.49e+00	0	36	104	0	68	20118
2026-01-23 07:21:01.51	68.72	7.07	-48.0	-63.4	3.8	1.49e+00	0	36	104	0	68	20089
2026-01-23 07:21:02.50	68.58	7.11	-48.0	-63.3	3.8	1.49e+00	0	36	104	0	68	20066
2026-01-23 07:21:03.49	68.44	7.15	-48.0	-63.3	3.8	1.49e+00	0	37	104	0	68	19988
2026-01-23 07:21:04.49	68.30	7.19	-48.0	-63.3	3.8	1.49e+00	0	36	104	0	68	19973
2026-01-23 07:21:05.48	68.16	7.22	-48.0	-63.3	3.8	1.49e+00	0	37	104	0	68	20052
2026-01-23 07:21:06.48	68.02	7.26	-48.1	-63.3	3.8	1.49e+00	0	36	104	0	68	20008
2026-01-23 07:21:07.47	67.88	7.30	-48.0	-63.3	3.8	1.49e+00	0	36	104	0	68	19961
2026-01-23 07:21:08.46	67.74	7.34	-48.0	-63.3	3.8	1.49e+00	0	36	104	0	68	19926
2026-01-23 07:21:09.46	67.60	7.38	-48.0	-63.3	3.8	1.49e+00	0	36	104	0	68	19847
2026-01-23 07:21:10.45	67.45	7.42	-48.0	-63.2	3.8	1.49e+00	0	36	104	0	68	19710
2026-01-23 07:21:11.44	67.31	7.46	-48.0	-63.2	3.8	1.49e+00	0	37	104	0	68	19730
2026-01-23 07:21:12.43	67.17	7.50	-48.0	-63.2	3.8	1.49e+00	0	36	104	0	68	19673
2026-01-23 07:21:13.43	67.03	7.53	-48.0	-63.2	3.8	1.49e+00	0	36	104	0	68	19737
2026-01-23 07:21:14.42	66.88	7.57	-48.0	-63.2	3.8	1.49e+00	0	37	104	0	68	19829
2026-01-23 07:21:15.41	66.74	7.61	-48.0	-63.3	3.8	1.49e+00	0	37	104	0	68	19856
2026-01-23 07:21:16.41	66.60	7.65	-48.0	-63.3	3.8	1.49e+00	0	36	104	0	68	20045
2026-01-23 07:21:17.40	66.45	7.69	-48.0	-63.3	3.8	1.49e+00	0	37	104	0	68	20003
2026-01-23 07:21:18.39	66.31	7.72	-48.0	-63.3	3.8	1.49e+00	0	37	104	0	68	19849
2026-01-23 07:21:19.39	66.16	7.76	-48.0	-63.2	3.8	1.49e+00	0	37	104	0	68	19764
2026-01-23 07:21:20.38	66.02	7.80	-48.0	-63.1	3.8	1.49e+00	0	37	104	0	68	19564
2026-01-23 07:21:21.37	65.87	7.84	-48.0	-63.1	3.8	1.49e+00	0	37	104	0	68	19421
2026-01-23 07:21:22.37	65.73	7.87	-48.0	-63.0	3.8	1.49e+00	0	37	104	0	68	19251
2026-01-23 07:21:23.36	65.58	7.91	-48.0	-63.0	3.8	1.49e+00	0	37	104	0	68	19231
2026-01-23 07:21:24.35	65.43	7.95	-48.0	-63.1	3.8	1.49e+00	0	37	104	0	68	19517
2026-01-23 07:21:25.35	65.28	7.99	-48.0	-63.2	3.8	1.49e+00	0	37	104	0	68	19724
2026-01-23 07:21:26.34	65.14	8.02	-48.0	-63.3	3.8	1.49e+00	0	37	104	0	68	19914
2026-01-23 07:21:27.33	64.99	8.06	-48.0	-63.3	3.8	1.49e+00	0	37	104	0	68	19975
2026-01-23 07:21:28.33	64.84	8.10	-48.0	-63.3	3.8	1.49e+00	0	37	104	0	68	19956
2026-01-23 07:21:29.32	64.69	8.13	-48.0	-63.1	3.8	1.49e+00	0	37	104	0	68	19595
2026-01-23 07:21:30.31	64.54	8.17	-48.0	-62.9	3.8	1.49e+00	0	37	104	0	68	19050
2026-01-23 07:21:31.31	64.39	8.20	-48.0	-62.5	3.8	1.49e+00	0	37	104	0	68	18167
2026-01-23 07:21:32.30	64.24	8.24	-48.0	-62.3	3.8	1.49e+00	0	37	104	0	68	17722
2026-01-23 07:21:33.29	64.09	8.28	-48.0	-62.2	3.8	1.49e+00	0	37	104	0	68	17673
2026-01-23 07:21:34.29	63.94	8.31	-48.0	-62.5	3.8	1.49e+00	0	37	104	0	68	18136
2026-01-23 07:21:35.28	63.79	8.35	-48.0	-62.8	3.8	1.49e+00	0	37	104	0	68	18807
2026-01-23 07:21:36.27	63.64	8.38	-48.0	-63.0	3.8	1.49e+00	0	37	104	0	68	19368
2026-01-23 07:21:37.27	63.49	8.42	-48.1	-63.1	3.8	1.49e+00	0	37	104	0	68	19589
2026-01-23 07:21:38.26	63.34	8.45	-48.0	-63.1	3.8	1.49e+00	0	37	104	0	68	19418
2026-01-23 07:21:39.25	63.18	8.49	-48.0	-62.6	3.8	1.49e+00	0	37	104	0	68	18349
2026-01-23 07:21:40.25	63.03	8.52	-47.8	-61.6	3.8	1.49e+00	0	37	104	0	67	17362
2026-01-23 07:21:41.24	62.88	8.56	-47.7	-60.8	3.8	1.49e+00	0	37	104	0	67	15866
2026-01-23 07:21:42.23	62.72	8.59	-47.7	-60.6	3.9	1.47e+00	0	37	104	0	67	15517
2026-01-23 07:21:43.22	62.57	8.63	-47.8	-61.6	3.8	1.49e+00	0	37	104	0	67	17441
2026-01-23 07:21:44.22	62.41	8.66	-47.9	-62.8	3.8	1.49e+00	0	37	104	0	67	19992
2026-01-23 07:21:45.21	62.26	8.70	-47.7	-59.8	3.9	1.49e+00	0	37	104	0	67	14078
2026-01-23 07:21:46.20	62.11	8.73	-46.9	-54.7	7.2	6.80e-01	0	37	0	1048576	65	8822
2026-01-23 07:21:47.20	61.95	8.76	-45.8	-51.2	10.9	9.57e-03	0	37	0	3145728	63	6576
2026-01-23 07:21:48.19	61.79	8.80	-44.7	-48.7	13.5	1.14e-04	0	37	0	4194304	61	5562
2026-01-23 07:21:49.18	61.64	8.83	-43.7	-47.1	15.1	1.50e-06	0	37	0	6291456	59	5168
2026-01-23 07:21:50.17	61.48	8.86	-43.1	-46.1	16.1	0.00e+00	0	37	0	8388608	58	4904
2026-01-23 07:21:51.17	61.32	8.90	-43.1	-46.1	16.1	0.00e+00	0	37	0	10485760	58	4893
2026-01-23 07:21:52.16	61.17	8.93	-43.5	-46.8	15.5	0.00e+00	0	37	0	11534336	58	5291
2026-01-23 07:21:53.15	61.01	8.96	-44.4	-48.2	14.0	0.00e+00	0	37	0	13631488	59	5884
2026-01-23 07:21:54.15	60.85	9.00	-45.4	-50.2	12.0	1.13e-04	0	37	0	15728640	61	6597
2026-01-23 07:21:55.14	60.69	9.03	-46.4	-52.6	9.4	5.37e-03	0	37	0	17825792	63	7802
2026-01-23 07:21:56.13	60.53	9.06	-45.1	-49.5	12.7	5.60e-04	0	37	0	18874368	61	6119
2026-01-23 07:21:57.13	60.37	9.09	-46.2	-52.2	10.0	5.45e-04	0	37	0	20971520	63	7378
2026-01-23 07:21:58.12	60.22	9.12	-47.4	-58.0	4.8	3.71e-01	0	37	0	23068672	65	12812
2026-01-23 07:21:59.12	60.05	9.16	-44.4	-48.2	14.1	5.79e-05	0	37	0	25165824	60	5579
2026-01-23 07:22:00.18	59.88	9.19	-47.5	-58.6	4.5	6.23e-02	0	37	0	27262976	65	13883
2026-01-23 07:22:01.11	59.73	9.22	-44.8	-48.7	13.5	7.70e-05	0	37	0	28311552	61	5587
2026-01-23 07:22:02.10	59.57	9.25	-44.0	-47.3	14.9	0.00e+00	0	37	0	30408704	59	5317
2026-01-23 07:22:03.09	59.41	9.28	-43.6	-46.8	15.5	0.00e+00	0	37	0	32505856	59	4989
2026-01-23 07:22:04.31	59.21	9.32	-43.7	-47.0	15.3	0.00e+00	0	37	0	34603008	59	5106
2026-01-23 07:22:05.16	59.08	9.35	-43.4	-46.5	15.8	0.00e+00	0	37	0	36700160	58	5118
2026-01-23 07:22:06.49	58.86	9.39	-43.2	-46.1	16.1	0.00e+00	0	37	0	38797312	58	4922
2026-01-23 07:22:07.20	58.74	9.41	-43.0	-45.9	16.3	0.00e+00	0	37	0	39845888	58	4808
2026-01-23 07:22:08.48	58.53	9.45	-42.9	-45.9	16.3	0.00e+00	0	37	0	42991616	57	5063
2026-01-23 07:22:09.20	58.41	9.47	-42.9	-45.8	16.4	0.00e+00	0	37	0	44040192	57	5015
2026-01-23 07:22:10.72	58.16	9.52	-42.9	-45.8	16.4	0.00e+00	0	37	0	47185920	57	5036
2026-01-23 07:22:11.43	58.04	9.54	-43.0	-45.9	16.4	0.00e+00	0	37	0	48234496	57	5062
2026-01-23 07:22:12.71	57.83	9.58	-42.9	-45.8	16.5	0.00e+00	0	37	0	50331648	57	5029
2026-01-23 07:22:13.42	57.72	9.60	-42.8	-45.7	16.5	0.00e+00	0	37	0	51380224	57	4967
2026-01-23 07:22:14.82	57.48	9.64	-42.9	-45.7	16.6	0.00e+00	0	37	0	54525952	57	4969
2026-01-23 07:22:15.53	57.36	9.66	-42.8	-45.7	16.6	0.00e+00	0	37	0	55574528	57	4960
2026-01-23 07:22:16.81	57.15	9.70	-42.9	-45.8	16.5	0.00e+00	0	37	0	57671680	57	5000
2026-01-23 07:22:17.52	57.03	9.72	-42.9	-45.7	16.5	0.00e+00	0	37	0	59768832	57	4978
2026-01-23 07:22:18.80	56.82	9.75	-42.9	-45.8	16.4	0.00e+00	0	37	0	61865984	57	5035
2026-01-23 07:22:19.53	56.69	9.77	-42.9	-45.9	16.4	0.00e+00	0	37	0	62914560	57	5056
2026-01-23 07:22:20.81	56.48	9.81	-42.9	-45.8	16.5	0.00e+00	0	37	0	66060288	57	5002
2026-01-23 07:22:21.56	56.35	9.83	-42.9	-45.8	16.4	0.00e+00	0	37	0	67108864	57	5030
2026-01-23 07:22:22.84	56.14	9.86	-42.9	-45.8	16.5	0.00e+00	0	37	0	69206016	57	5017
2026-01-23 07:22:23.60	56.01	9.89	-42.9	-45.8	16.5	0.00e+00	0	37	0	71303168	57	4997
2026-01-23 07:22:25.20	55.74	9.93	-42.8	-45.7	16.6	0.00e+00	0	37	0	73400320	57	4952
2026-01-23 07:22:25.78	55.64	9.94	-42.8	-45.7	16.6	0.00e+00	0	37	0	74448896	57	4960
2026-01-23 07:22:27.52	55.34	9.99	-42.9	-45.9	16.5	0.00e+00	0	37	0	78643200	57	5042
2026-01-23 07:22:28.08	55.25	10.01	-42.9	-45.8	16.5	0.00e+00	0	37	0	79691776	57	5037
2026-01-23 07:22:29.79	54.95	10.05	-43.0	-46.0	16.3	0.00e+00	0	37	0	82837504	57	5103
2026-01-23 07:22:30.36	54.86	10.07	-42.9	-45.8	16.5	0.00e+00	0	37	0	83886080	57	4998
2026-01-23 07:22:32.07	54.56	10.11	-42.7	-45.5	16.8	0.00e+00	0	37	0	87031808	57	4831
2026-01-23 07:22:32.73	54.45	10.13	-42.8	-45.6	16.7	0.00e+00	0	37	0	88080384	57	4899
2026-01-23 07:22:34.15	54.20	10.16	-42.8	-45.7	16.6	0.00e+00	0	37	0	90177536	57	4955
2026-01-23 07:22:34.86	54.08	10.18	-42.9	-45.8	16.5	0.00e+00	0	37	0	92274688	57	5004
2026-01-23 07:22:36.14	53.86	10.21	-42.9	-45.9	16.4	0.00e+00	0	37	0	94371840	57	5054
2026-01-23 07:22:37.01	53.71	10.23	-42.9	-45.8	16.6	0.00e+00	0	37	0	96468992	57	5001
2026-01-23 07:22:38.14	53.51	10.26	-43.0	-45.9	16.4	0.00e+00	0	37	0	98566144	57	5060
2026-01-23 07:22:39.19	53.33	10.29	-42.9	-45.8	16.5	0.00e+00	0	37	0	99614720	57	5038
2026-01-23 07:22:40.34	53.13	10.31	-43.0	-45.9	16.4	0.00e+00	0	37	0	101711872	57	5064
2026-01-23 07:22:41.24	52.97	10.33	-43.0	-46.0	16.3	0.00e+00	0	37	0	103809024	57	5114
2026-01-23 07:22:42.26	52.79	10.36	-43.1	-46.0	16.3	0.00e+00	0	37	0	105906176	57	5146
2026-01-23 07:22:43.43	52.59	10.38	-43.1	-46.0	16.3	0.00e+00	0	37	0	108003328	57	5146
2026-01-23 07:22:44.31	52.43	10.40	-43.1	-46.1	16.2	0.00e+00	0	37	0	110100480	57	5197
2026-01-23 07:22:45.63	52.20	10.43	-43.2	-46.2	16.2	0.00e+00	0	37	0	112197632	57	5235
2026-01-23 07:22:46.34	52.08	10.45	-43.2	-46.2	16.1	0.00e+00	0	37	0	113246208	57	5258
2026-01-23 07:22:47.62	51.85	10.48	-43.3	-46.4	15.9	0.00e+00	0	37	0	116391936	57	5371
2026-01-23 07:22:48.33	51.73	10.49	-43.4	-46.4	15.9	0.00e+00	0	37	0	117440512	57	5397
2026-01-23 07:22:49.61	51.50	10.52	-43.2	-46.3	16.1	0.00e+00	0	37	0	119537664	57	5283
2026-01-23 07:22:50.32	51.37	10.54	-43.3	-46.3	16.1	0.00e+00	0	37	0	120586240	57	5291
2026-01-23 07:22:51.60	51.15	10.56	-43.2	-46.2	16.1	0.00e+00	0	37	0	123731968	57	5275
2026-01-23 07:22:52.46	50.99	10.58	-43.2	-46.3	16.1	0.00e+00	0	37	0	124780544	57	5281
2026-01-23 07:22:53.60	50.79	10.61	-43.3	-46.3	16.0	0.00e+00	0	37	0	126877696	57	5332
2026-01-23 07:22:54.45	50.64	10.62	-43.2	-46.2	16.1	0.00e+00	0	37	0	128974848	57	5263
2026-01-23 07:22:55.58	50.44	10.65	-43.2	-46.1	16.2	0.00e+00	0	37	0	131072000	57	5201
2026-01-23 07:22:56.44	50.29	10.66	-43.1	-46.0	16.3	0.00e+00	0	37	0	132120576	57	5142
2026-01-23 07:22:57.57	50.08	10.68	-43.1	-46.1	16.3	0.00e+00	0	37	0	134217728	57	5161
2026-01-23 07:22:58.43	49.93	10.70	-43.1	-46.0	16.4	0.00e+00	0	37	0	136314880	57	5108
2026-01-23 07:22:59.63	49.71	10.72	-43.1	-46.0	16.3	0.00e+00	0	37	0	138412032	57	5138
2026-01-23 07:23:00.49	49.56	10.74	-43.2	-46.1	16.2	0.00e+00	0	37	0	140509184	57	5215
2026-01-23 07:23:01.62	49.36	10.76	-43.1	-46.0	16.3	0.00e+00	0	37	0	142606336	57	5144
2026-01-23 07:23:02.48	49.20	10.78	-43.0	-45.9	16.5	0.00e+00	0	37	0	143654912	57	5048
2026-01-23 07:23:03.61	49.00	10.80	-43.0	-46.0	16.4	0.00e+00	0	37	0	145752064	57	5105
2026-01-23 07:23:04.47	48.84	10.81	-43.0	-45.9	16.5	0.00e+00	0	37	0	147849216	57	5072
2026-01-23 07:23:05.60	48.64	10.83	-43.0	-45.9	16.5	0.00e+00	0	37	0	149946368	57	5053
2026-01-23 07:23:06.46	48.48	10.85	-43.0	-45.9	16.4	0.00e+00	0	37	0	150994944	57	5084
2026-01-23 07:23:07.60	48.28	10.87	-42.9	-45.8	16.5	0.00e+00	0	37	0	153092096	57	5032
2026-01-23 07:23:08.59	48.10	10.88	-42.9	-45.8	16.6	0.00e+00	0	37	0	155189248	57	5010
2026-01-23 07:23:09.59	47.92	10.90	-42.9	-45.8	16.5	0.00e+00	0	37	0	157286400	57	5034
2026-01-23 07:23:10.83	47.69	10.92	-42.8	-45.7	16.6	0.00e+00	0	37	0	159383552	57	4968
2026-01-23 07:23:11.74	47.53	10.93	-42.8	-45.6	16.7	0.00e+00	0	37	0	161480704	57	4911
2026-01-23 07:23:12.75	47.34	10.95	-42.9	-45.7	16.6	0.00e+00	0	37	0	162529280	57	4978
2026-01-23 07:23:13.93	47.13	10.97	-42.8	-45.7	16.6	0.00e+00	0	37	0	165675008	57	4961
2026-01-23 07:23:14.82	46.96	10.98	-42.9	-45.8	16.6	0.00e+00	0	37	0	166723584	57	5003
2026-01-23 07:23:15.95	46.76	11.00	-42.7	-45.5	16.9	0.00e+00	0	37	0	168820736	57	4850
2026-01-23 07:23:16.81	46.60	11.01	-42.7	-45.5	16.9	0.00e+00	0	37	0	170917888	57	4861
2026-01-23 07:23:17.94	46.39	11.03	-42.7	-45.5	16.9	0.00e+00	0	37	0	173015040	57	4830
2026-01-23 07:23:18.79	46.24	11.04	-42.7	-45.5	16.9	0.00e+00	0	37	0	174063616	57	4856
2026-01-23 07:23:19.93	46.03	11.05	-42.7	-45.5	16.8	0.00e+00	0	37	0	176160768	57	4844
2026-01-23 07:23:20.78	45.87	11.07	-42.7	-45.5	16.9	0.00e+00	0	37	0	178257920	57	4824
2026-01-23 07:23:21.92	45.66	11.08	-42.6	-45.3	17.0	0.00e+00	0	37	0	180355072	57	4751
2026-01-23 07:23:22.77	45.51	11.09	-42.4	-45.1	17.2	0.00e+00	0	37	0	181403648	56	4909
2026-01-23 07:23:23.91	45.30	11.11	-42.3	-45.0	17.4	0.00e+00	0	37	0	183500800	56	4848
2026-01-23 07:23:24.76	45.14	11.12	-42.4	-45.1	17.3	0.00e+00	0	37	0	185597952	56	4882
2026-01-23 07:23:26.09	44.89	11.13	-42.5	-45.2	17.1	0.00e+00	0	37	0	187695104	56	4981
2026-01-23 07:23:26.80	44.76	11.14	-42.6	-45.3	17.1	0.00e+00	0	38	0	189792256	56	4995
2026-01-23 07:23:28.25	44.50	11.16	-42.4	-45.1	17.2	0.00e+00	0	37	0	191889408	56	4902
2026-01-23 07:23:28.96	44.36	11.16	-42.4	-45.1	17.3	0.00e+00	0	37	0	192937984	56	4910
2026-01-23 07:23:30.24	44.13	11.18	-42.4	-45.0	17.4	0.00e+00	0	37	0	196083712	56	4853
2026-01-23 07:23:30.95	44.00	11.19	-42.2	-44.8	17.6	0.00e+00	0	37	0	197132288	56	4750
2026-01-23 07:23:32.23	43.76	11.20	-42.3	-44.9	17.5	0.00e+00	0	37	0	199229440	56	4797
2026-01-23 07:23:32.96	43.62	11.21	-42.4	-45.0	17.4	0.00e+00	0	37	0	201326592	56	4855
2026-01-23 07:23:34.23	43.39	11.22	-42.4	-45.1	17.3	0.00e+00	0	37	0	203423744	56	4921
2026-01-23 07:23:34.94	43.26	11.23	-42.5	-45.3	17.1	0.00e+00	0	38	0	204472320	56	4990
2026-01-23 07:23:36.22	43.02	11.24	-42.4	-45.2	17.2	0.00e+00	0	37	0	206569472	56	4935
2026-01-23 07:23:36.95	42.88	11.24	-42.4	-45.0	17.4	0.00e+00	0	37	0	208666624	56	4857
2026-01-23 07:23:38.23	42.65	11.25	-42.3	-45.0	17.4	0.00e+00	0	37	0	210763776	56	4846
2026-01-23 07:23:38.94	42.51	11.26	-42.3	-45.0	17.4	0.00e+00	0	37	0	211812352	56	4829
2026-01-23 07:23:40.22	42.27	11.27	-42.3	-45.0	17.4	0.00e+00	0	37	0	214958080	56	4848
2026-01-23 07:23:41.09	42.11	11.28	-42.3	-45.0	17.4	0.00e+00	0	37	0	216006656	56	4846
2026-01-23 07:23:42.22	41.90	11.29	-42.3	-44.9	17.4	0.00e+00	0	37	0	218103808	56	4813
2026-01-23 07:23:43.27	41.71	11.29	-42.3	-44.9	17.5	0.00e+00	0	37	0	220200960	56	4799
2026-01-23 07:23:44.23	41.53	11.30	-42.3	-44.9	17.4	0.00e+00	0	37	0	222298112	56	4814
2026-01-23 07:23:45.22	41.34	11.31	-42.2	-44.8	17.6	0.00e+00	0	37	0	224395264	56	4749
2026-01-23 07:23:46.22	41.16	11.31	-42.2	-44.9	17.5	0.00e+00	0	37	0	225443840	56	4771
2026-01-23 07:23:47.21	40.97	11.32	-42.2	-44.8	17.6	0.00e+00	0	37	0	227540992	56	4715
2026-01-23 07:23:48.21	40.78	11.32	-42.1	-44.8	17.6	0.00e+00	0	37	0	229638144	56	4712
2026-01-23 07:23:49.20	40.60	11.33	-42.2	-44.8	17.6	0.00e+00	0	37	0	231735296	56	4728
2026-01-23 07:23:50.20	40.41	11.33	-42.2	-44.8	17.6	0.00e+00	0	37	0	232783872	56	4749
2026-01-23 07:23:51.20	40.23	11.34	-42.1	-44.7	17.7	0.00e+00	0	37	0	234881024	56	4682
2026-01-23 07:23:52.19	40.04	11.34	-42.1	-44.7	17.7	0.00e+00	0	37	0	236978176	56	4680
2026-01-23 07:23:53.18	39.85	11.35	-42.1	-44.7	17.7	0.00e+00	0	37	0	239075328	56	4675
2026-01-23 07:23:54.24	39.66	11.35	-42.1	-44.7	17.7	0.00e+00	0	37	0	241172480	56	4675
2026-01-23 07:23:55.13	39.49	11.35	-42.1	-44.8	17.6	0.00e+00	0	37	0	242221056	56	4712
2026-01-23 07:23:56.27	39.28	11.36	-42.1	-44.7	17.7	0.00e+00	0	37	0	244318208	56	4703
2026-01-23 07:23:57.12	39.12	11.36	-42.2	-44.9	17.5	0.00e+00	0	37	0	246415360	56	4792
2026-01-23 07:23:58.25	38.91	11.36	-42.2	-44.8	17.6	0.00e+00	0	37	0	248512512	56	4741
2026-01-23 07:23:59.11	38.74	11.36	-42.2	-44.9	17.5	0.00e+00	0	37	0	249561088	56	4770
2026-01-23 07:24:00.24	38.53	11.37	-42.3	-45.0	17.4	0.00e+00	0	37	0	251658240	56	4867
2026-01-23 07:24:01.10	38.37	11.37	-42.2	-44.9	17.5	0.00e+00	0	37	0	253755392	56	4799
2026-01-23 07:24:02.31	38.14	11.37	-42.1	-44.8	17.6	0.00e+00	0	37	0	255852544	56	4717
2026-01-23 07:24:03.17	37.98	11.37	-42.1	-44.7	17.7	0.00e+00	0	37	0	257949696	56	4690
2026-01-23 07:24:04.30	37.77	11.37	-42.1	-44.7	17.7	0.00e+00	0	37	0	260046848	56	4698
2026-01-23 07:24:05.15	37.61	11.37	-42.1	-44.7	17.7	0.00e+00	0	37	0	261095424	56	4682
2026-01-23 07:24:06.29	37.40	11.37	-42.1	-44.7	17.7	0.00e+00	0	37	0	263192576	56	4666
2026-01-23 07:24:07.15	37.24	11.37	-42.1	-44.7	17.7	0.00e+00	0	37	0	265289728	56	4673
2026-01-23 07:24:08.28	37.03	11.37	-42.1	-44.7	17.7	0.00e+00	0	37	0	267386880	56	4688
2026-01-23 07:24:09.13	36.87	11.37	-42.1	-44.7	17.6	0.00e+00	0	37	0	268435456	56	4704
2026-01-23 07:24:10.27	36.65	11.37	-42.0	-44.7	17.8	0.00e+00	0	37	0	270532608	56	4658
2026-01-23 07:24:11.12	36.49	11.37	-42.1	-44.8	17.6	0.00e+00	0	37	0	272629760	56	4732
2026-01-23 07:24:12.26	36.28	11.37	-42.2	-44.9	17.5	0.00e+00	0	37	0	274726912	56	4798
2026-01-23 07:24:13.11	36.12	11.37	-42.4	-45.1	17.4	0.00e+00	0	37	0	275775488	56	4882
2026-01-23 07:24:14.25	35.91	11.36	-42.6	-45.3	17.1	0.00e+00	0	37	0	277872640	56	5031
2026-01-23 07:24:15.10	35.75	11.36	-42.7	-45.5	17.0	0.00e+00	0	37	0	279969792	56	5108
2026-01-23 07:24:16.30	35.52	11.36	-42.7	-45.5	16.9	0.00e+00	0	37	0	282066944	56	5150
2026-01-23 07:24:17.16	35.36	11.36	-42.8	-45.6	16.9	0.00e+00	0	37	0	284164096	56	5194
2026-01-23 07:24:18.29	35.15	11.35	-42.8	-45.6	16.8	0.00e+00	0	37	0	286261248	56	5205
2026-01-23 07:24:19.15	34.99	11.35	-42.8	-45.7	16.7	0.00e+00	0	37	0	287309824	56	5248
2026-01-23 07:24:20.28	34.78	11.34	-42.8	-45.7	16.8	0.00e+00	0	37	0	289406976	56	5230
2026-01-23 07:24:21.13	34.62	11.34	-42.7	-45.6	16.8	0.00e+00	0	37	0	291504128	56	5178
2026-01-23 07:24:22.27	34.41	11.34	-42.6	-45.5	17.0	0.00e+00	0	37	0	293601280	56	5111
2026-01-23 07:24:23.12	34.25	11.33	-42.7	-45.5	17.0	0.00e+00	0	38	0	294649856	56	5124
2026-01-23 07:24:24.26	34.03	11.33	-42.8	-45.7	16.8	0.00e+00	0	37	0	296747008	56	5234
2026-01-23 07:24:25.11	33.87	11.32	-42.8	-45.6	16.9	0.00e+00	0	37	0	298844160	56	5173
2026-01-23 07:24:26.25	33.66	11.32	-42.8	-45.7	16.8	0.00e+00	0	37	0	300941312	56	5232
2026-01-23 07:24:27.10	33.50	11.31	-42.9	-45.9	16.6	0.00e+00	0	37	0	301989888	56	5354
2026-01-23 07:24:28.30	33.28	11.30	-43.0	-45.9	16.5	0.00e+00	0	37	0	305135616	56	5377
2026-01-23 07:24:29.15	33.12	11.30	-42.9	-45.9	16.6	0.00e+00	0	37	0	306184192	56	5354
2026-01-23 07:24:30.29	32.91	11.29	-42.9	-45.9	16.5	0.00e+00	0	37	0	308281344	56	5380
2026-01-23 07:24:31.14	32.75	11.28	-43.0	-46.1	16.4	0.00e+00	0	37	0	310378496	56	5497
2026-01-23 07:24:32.40	32.52	11.27	-42.9	-45.9	16.5	0.00e+00	0	38	0	312475648	56	5401
2026-01-23 07:24:33.18	32.37	11.27	-42.8	-45.8	16.6	0.00e+00	0	37	0	313524224	56	5329
2026-01-23 07:24:34.46	32.13	11.26	-42.8	-45.8	16.6	0.00e+00	0	37	0	316669952	56	5331
2026-01-23 07:24:35.17	32.00	11.25	-42.8	-45.8	16.7	0.00e+00	0	37	0	317718528	56	5291
2026-01-23 07:24:36.45	31.76	11.24	-42.8	-45.7	16.8	0.00e+00	0	37	0	319815680	56	5234
2026-01-23 07:24:37.17	31.63	11.23	-42.8	-45.6	16.8	0.00e+00	0	37	0	320864256	56	5210
2026-01-23 07:24:38.45	31.39	11.22	-42.7	-45.6	16.9	0.00e+00	0	37	0	324009984	56	5172
2026-01-23 07:24:39.16	31.26	11.22	-42.7	-45.6	16.9	0.00e+00	0	38	0	325058560	56	5185
2026-01-23 07:24:40.44	31.02	11.20	-42.8	-45.6	16.8	0.00e+00	0	37	0	327155712	56	5210
2026-01-23 07:24:41.15	30.89	11.20	-42.7	-45.6	16.9	0.00e+00	0	37	0	329252864	56	5176
2026-01-23 07:24:42.47	30.65	11.18	-42.9	-45.8	16.7	0.00e+00	0	37	0	331350016	56	5294
2026-01-23 07:24:43.18	30.52	11.17	-42.9	-45.8	16.6	0.00e+00	0	37	0	332398592	56	5327
2026-01-23 07:24:44.46	30.28	11.16	-43.1	-46.0	16.4	0.00e+00	0	37	0	334495744	56	5463
2026-01-23 07:24:45.17	30.15	11.15	-43.1	-46.1	16.4	0.00e+00	0	37	0	336592896	56	5489
2026-01-23 07:24:46.45	29.91	11.14	-43.1	-46.1	16.3	0.00e+00	0	37	0	338690048	56	5495
2026-01-23 07:24:47.16	29.78	11.13	-43.0	-46.1	16.3	0.00e+00	0	37	0	339738624	56	5488
2026-01-23 07:24:48.44	29.55	11.11	-43.0	-46.1	16.4	0.00e+00	0	37	0	342884352	56	5466
2026-01-23 07:24:49.15	29.42	11.11	-43.0	-46.2	16.3	0.00e+00	0	38	0	343932928	56	5533
2026-01-23 07:24:50.43	29.18	11.09	-42.7	-45.7	16.8	0.00e+00	0	37	0	346030080	56	5240
2026-01-23 07:24:51.16	29.05	11.08	-42.6	-45.6	16.9	0.00e+00	0	38	0	347078656	56	5175
2026-01-23 07:24:52.44	28.81	11.06	-42.7	-45.6	16.9	0.00e+00	0	38	0	350224384	56	5190
2026-01-23 07:24:53.15	28.68	11.05	-42.7	-45.6	16.9	0.00e+00	0	37	0	351272960	56	5165
2026-01-23 07:24:54.52	28.43	11.03	-42.7	-45.6	16.9	0.00e+00	0	37	0	353370112	56	5166
2026-01-23 07:24:55.23	28.30	11.03	-42.8	-45.7	16.8	0.00e+00	0	37	0	355467264	56	5231
2026-01-23 07:24:56.51	28.07	11.01	-42.8	-45.7	16.7	0.00e+00	0	37	0	357564416	56	5240
2026-01-23 07:24:57.23	27.93	11.00	-42.8	-45.7	16.7	0.00e+00	0	37	0	358612992	56	5252
2026-01-23 07:24:58.73	27.66	10.97	-42.9	-45.8	16.6	0.00e+00	0	38	0	361758720	56	5339
2026-01-23 07:24:59.44	27.53	10.96	-42.9	-45.9	16.6	0.00e+00	0	37	0	362807296	56	5344
2026-01-23 07:25:00.72	27.30	10.94	-42.9	-45.8	16.6	0.00e+00	0	37	0	365953024	56	5321
2026-01-23 07:25:01.46	27.16	10.93	-42.8	-45.8	16.7	0.00e+00	0	37	0	367001600	56	5297
2026-01-23 07:25:02.74	26.93	10.91	-42.8	-45.8	16.7	0.00e+00	0	37	0	369098752	56	5296
2026-01-23 07:25:03.46	26.80	10.90	-42.8	-45.8	16.6	0.00e+00	0	38	0	370147328	56	5329
2026-01-23 07:25:04.74	26.57	10.88	-42.8	-45.8	16.6	0.00e+00	0	37	0	373293056	56	5312
2026-01-23 07:25:05.45	26.44	10.87	-42.8	-45.9	16.5	0.00e+00	0	37	0	374341632	56	5380
2026-01-23 07:25:06.73	26.21	10.85	-42.8	-46.0	16.5	0.00e+00	0	37	0	376438784	56	5407
2026-01-23 07:25:07.46	26.08	10.83	-42.8	-45.9	16.5	0.00e+00	0	38	0	378535936	56	5402
2026-01-23 07:25:08.74	25.85	10.81	-42.8	-46.0	16.4	0.00e+00	0	38	0	380633088	56	5449
2026-01-23 07:25:09.45	25.72	10.80	-42.9	-46.1	16.3	0.00e+00	0	38	0	381681664	56	5493
2026-01-23 07:25:10.73	25.49	10.77	-42.8	-46.0	16.5	0.00e+00	0	38	0	383778816	56	5423
2026-01-23 07:25:11.55	25.34	10.76	-42.8	-45.9	16.5	0.00e+00	0	37	0	385875968	56	5394
2026-01-23 07:25:12.69	25.14	10.74	-42.8	-45.9	16.5	0.00e+00	0	37	0	387973120	56	5396
2026-01-23 07:25:13.75	24.95	10.72	-42.8	-45.8	16.6	0.00e+00	0	38	0	390070272	56	5331
2026-01-23 07:25:14.76	24.77	10.70	-42.7	-45.7	16.7	0.00e+00	0	37	0	392167424	56	5279
2026-01-23 07:25:15.75	24.59	10.68	-42.7	-45.6	16.8	0.00e+00	0	38	0	393216000	56	5214
2026-01-23 07:25:16.75	24.41	10.66	-42.7	-45.7	16.8	0.00e+00	0	37	0	395313152	56	5228
2026-01-23 07:25:17.74	24.24	10.64	-42.8	-45.7	16.8	0.00e+00	0	37	0	397410304	56	5239
2026-01-23 07:25:18.74	24.06	10.62	-42.8	-45.7	16.7	0.00e+00	0	37	0	399507456	56	5249
2026-01-23 07:25:19.73	23.88	10.60	-42.8	-45.7	16.7	0.00e+00	0	37	0	400556032	56	5270
2026-01-23 07:25:20.73	23.70	10.58	-42.8	-45.7	16.7	0.00e+00	0	37	0	402653184	56	5264
2026-01-23 07:25:21.73	23.53	10.56	-42.9	-45.8	16.6	0.00e+00	0	37	0	404750336	56	5325
2026-01-23 07:25:22.72	23.35	10.54	-42.9	-45.8	16.6	0.00e+00	0	37	0	406847488	56	5297
2026-01-23 07:25:23.72	23.18	10.52	-42.8	-45.7	16.7	0.00e+00	0	38	0	408944640	56	5267
2026-01-23 07:25:24.71	23.00	10.49	-42.8	-45.6	16.8	0.00e+00	0	37	0	409993216	56	5204
2026-01-23 07:25:25.74	22.82	10.47	-42.7	-45.6	16.8	0.00e+00	0	37	0	412090368	56	5201
2026-01-23 07:25:26.77	22.64	10.45	-42.6	-45.5	16.9	0.00e+00	0	38	0	414187520	56	5129
2026-01-23 07:25:27.76	22.47	10.43	-42.6	-45.6	16.9	0.00e+00	0	38	0	416284672	56	5175
2026-01-23 07:25:28.85	22.27	10.40	-42.5	-45.6	16.8	0.00e+00	0	37	0	418381824	56	5216
2026-01-23 07:25:29.74	22.12	10.38	-42.4	-45.5	16.9	0.00e+00	0	37	0	419430400	56	5146
2026-01-23 07:25:30.87	21.92	10.36	-42.3	-45.6	16.8	0.00e+00	0	37	0	421527552	56	5205
2026-01-23 07:25:31.73	21.77	10.34	-42.3	-45.6	16.8	0.00e+00	0	37	0	423624704	56	5217
2026-01-23 07:25:33.08	21.54	10.30	-42.3	-45.7	16.7	0.00e+00	0	38	0	425721856	56	5248
2026-01-23 07:25:33.80	21.41	10.29	-42.4	-45.8	16.6	0.00e+00	0	38	0	427819008	56	5315
2026-01-23 07:25:35.08	21.19	10.26	-42.3	-45.7	16.7	0.00e+00	0	37	0	429916160	56	5235
2026-01-23 07:25:35.81	21.06	10.24	-42.3	-45.6	16.8	0.00e+00	0	37	0	430964736	56	5213
2026-01-23 07:25:37.08	20.84	10.21	-42.3	-45.6	16.8	0.00e+00	0	37	0	434110464	56	5216
2026-01-23 07:25:37.87	20.71	10.19	-42.3	-45.6	16.8	0.00e+00	0	38	0	435159040	56	5210
2026-01-23 07:25:39.06	20.50	10.16	-42.3	-45.7	16.8	0.00e+00	0	37	0	437256192	56	5228
2026-01-23 07:25:39.91	20.36	10.14	-42.2	-45.4	17.0	0.00e+00	0	37	0	439353344	56	5065
2026-01-23 07:25:41.05	20.16	10.11	-42.2	-45.5	17.0	0.00e+00	0	37	0	441450496	56	5101
2026-01-23 07:25:41.90	20.01	10.09	-42.3	-45.4	17.0	0.00e+00	0	37	0	442499072	56	5088
2026-01-23 07:25:43.04	19.82	10.06	-42.2	-45.3	17.1	0.00e+00	0	37	0	444596224	56	5000
2026-01-23 07:25:43.89	19.67	10.04	-42.3	-45.3	17.1	0.00e+00	0	37	0	446693376	56	5000
2026-01-23 07:25:45.03	19.48	10.01	-42.4	-45.4	17.0	0.00e+00	0	38	0	448790528	56	5064
2026-01-23 07:25:45.89	19.33	9.98	-42.4	-45.3	17.1	0.00e+00	0	37	0	449839104	56	5038
2026-01-23 07:25:47.03	19.14	9.95	-42.2	-45.1	17.3	0.00e+00	0	38	0	451936256	56	4875
2026-01-23 07:25:47.88	19.00	9.93	-42.2	-45.1	17.3	0.00e+00	0	37	0	454033408	56	4893
2026-01-23 07:25:49.02	18.80	9.90	-42.2	-45.1	17.3	0.00e+00	0	37	0	456130560	56	4919
2026-01-23 07:25:49.87	18.66	9.88	-42.2	-45.0	17.3	0.00e+00	0	38	0	457179136	56	4859
2026-01-23 07:25:51.01	18.47	9.84	-42.2	-45.1	17.3	0.00e+00	0	38	0	459276288	56	4872
2026-01-23 07:25:51.86	18.32	9.82	-42.2	-45.0	17.5	0.00e+00	0	37	0	461373440	56	4821
2026-01-23 07:25:53.00	18.13	9.79	-42.3	-45.0	17.4	0.00e+00	0	37	0	463470592	56	4834
2026-01-23 07:25:53.85	17.99	9.76	-42.3	-45.0	17.4	0.00e+00	0	37	0	465567744	56	4866
2026-01-23 07:25:54.99	17.80	9.73	-42.3	-45.1	17.3	0.00e+00	0	37	0	467664896	56	4900
2026-01-23 07:25:55.84	17.66	9.71	-42.2	-45.0	17.4	0.00e+00	0	38	0	468713472	56	4856
2026-01-23 07:25:56.98	17.47	9.68	-42.2	-45.1	17.3	0.00e+00	0	37	0	470810624	56	4880
2026-01-23 07:25:57.90	17.32	9.65	-42.2	-45.1	17.3	0.00e+00	0	38	0	472907776	56	4887
2026-01-23 07:25:58.89	17.15	9.62	-42.2	-45.2	17.2	0.00e+00	0	38	0	475004928	56	4954
2026-01-23 07:25:59.88	16.99	9.59	-42.1	-45.1	17.3	0.00e+00	0	37	0	476053504	56	4926
2026-01-23 07:26:00.88	16.82	9.56	-42.1	-45.2	17.2	0.00e+00	0	38	0	478150656	56	4960
2026-01-23 07:26:01.87	16.66	9.53	-42.1	-45.2	17.2	0.00e+00	0	37	0	480247808	56	4980
2026-01-23 07:26:02.87	16.49	9.50	-42.1	-45.2	17.2	0.00e+00	0	38	0	482344960	56	4947
2026-01-23 07:26:03.86	16.33	9.47	-42.0	-45.2	17.2	0.00e+00	0	38	0	483393536	56	4956
2026-01-23 07:26:04.86	16.17	9.44	-42.0	-45.2	17.2	0.00e+00	0	38	0	485490688	56	4947
2026-01-23 07:26:05.85	16.01	9.41	-42.1	-45.2	17.2	0.00e+00	0	38	0	487587840	56	4947
2026-01-23 07:26:06.86	15.84	9.38	-42.1	-45.2	17.2	0.00e+00	0	37	0	489684992	56	4950
2026-01-23 07:26:07.86	15.68	9.35	-42.2	-45.3	17.1	0.00e+00	0	37	0	491782144	56	5019
2026-01-23 07:26:08.85	15.52	9.32	-42.1	-45.2	17.2	0.00e+00	0	37	0	492830720	56	4946
2026-01-23 07:26:09.85	15.36	9.29	-42.2	-45.3	17.2	0.00e+00	0	37	0	494927872	56	4988
2026-01-23 07:26:10.84	15.20	9.26	-42.1	-45.1	17.3	0.00e+00	0	37	0	497025024	56	4905
2026-01-23 07:26:11.84	15.03	9.23	-42.1	-45.2	17.2	0.00e+00	0	37	0	499122176	56	4935
2026-01-23 07:26:12.83	14.87	9.19	-42.2	-45.3	17.1	0.00e+00	0	37	0	500170752	56	4987
2026-01-23 07:26:13.83	14.71	9.16	-42.3	-45.3	17.0	0.00e+00	0	38	0	502267904	56	5027
2026-01-23 07:26:14.82	14.55	9.13	-42.4	-45.3	17.0	0.00e+00	0	37	0	504365056	56	5036
2026-01-23 07:26:15.82	14.39	9.10	-42.4	-45.3	17.1	0.00e+00	0	38	0	506462208	56	5025
2026-01-23 07:26:16.81	14.24	9.07	-42.5	-45.4	17.0	0.00e+00	0	37	0	508559360	56	5046
2026-01-23 07:26:17.81	14.08	9.03	-42.5	-45.4	16.9	0.00e+00	0	38	0	509607936	56	5095
2026-01-23 07:26:18.80	13.92	9.00	-45.7	-51.3	11.4	0.00e+00	0	38	0	511705088	61	7475
2026-01-23 07:26:19.80	13.76	8.97	-46.7	-63.6	3.8	1.43e+00	0	38	104	512753664	64	26085
2026-01-23 07:26:20.79	13.61	8.94	-48.5	-63.8	3.8	1.49e+00	0	37	104	512753664	67	22286
2026-01-23 07:26:21.78	13.45	8.90	-48.2	-63.8	3.8	1.49e+00	0	37	104	512753664	67	22511
2026-01-23 07:26:22.78	13.29	8.87	-48.3	-63.9	3.8	1.49e+00	0	38	104	512753664	67	22639
2026-01-23 07:26:23.77	13.14	8.84	-48.3	-63.9	3.8	1.49e+00	0	37	104	512753664	67	22757
2026-01-23 07:26:24.77	12.98	8.80	-48.6	-64.0	3.8	1.49e+00	0	37	104	512753664	67	22898
2026-01-23 07:26:25.76	12.82	8.77	-48.9	-64.2	3.8	1.49e+00	0	37	104	512753664	68	22156
2026-01-23 07:26:26.75	12.67	8.74	-48.6	-64.3	3.8	1.49e+00	0	38	104	512753664	68	22315
2026-01-23 07:26:27.75	12.51	8.70	-48.9	-64.3	3.8	1.49e+00	0	38	104	512753664	68	22346
2026-01-23 07:26:28.74	12.36	8.67	-49.0	-64.3	3.8	1.49e+00	0	38	104	512753664	68	22384
2026-01-23 07:26:29.73	12.21	8.63	-49.0	-64.3	3.8	1.49e+00	0	38	104	512753664	68	22414
2026-01-23 07:26:30.73	12.05	8.60	-49.0	-64.3	3.8	1.49e+00	0	38	104	512753664	68	22397
2026-01-23 07:26:31.72	11.90	8.56	-48.9	-64.3	3.8	1.49e+00	0	38	104	512753664	68	22516
2026-01-23 07:26:32.71	11.75	8.53	-49.0	-64.3	3.8	1.49e+00	0	38	104	512753664	68	22491
2026-01-23 07:26:33.71	11.60	8.49	-48.9	-64.3	3.8	1.49e+00	0	37	104	512753664	68	22395
2026-01-23 07:26:34.70	11.44	8.46	-48.9	-64.3	3.8	1.49e+00	0	37	104	512753664	68	22474
2026-01-23 07:26:35.69	11.29	8.43	-49.1	-64.3	3.8	1.49e+00	0	38	104	512753664	68	22355
2026-01-23 07:26:36.69	11.14	8.39	-49.0	-64.3	3.8	1.49e+00	0	38	104	512753664	68	22359
2026-01-23 07:26:37.68	10.99	8.35	-49.0	-64.3	3.8	1.49e+00	0	38	104	512753664	68	22463
2026-01-23 07:26:38.68	10.84	8.32	-49.1	-64.3	3.8	1.49e+00	0	38	104	512753664	68	22391
2026-01-23 07:26:39.67	10.69	8.28	-49.1	-64.3	3.8	1.49e+00	0	38	104	512753664	68	22320
2026-01-23 07:26:40.66	10.54	8.25	-49.0	-64.2	3.8	1.49e+00	0	38	104	512753664	68	22187
2026-01-23 07:26:41.66	10.39	8.21	-48.9	-64.3	3.8	1.49e+00	0	38	104	512753664	68	22338
2026-01-23 07:26:42.65	10.24	8.18	-48.8	-64.3	3.8	1.49e+00	0	38	104	512753664	68	22310
2026-01-23 07:26:43.64	10.09	8.14	-49.0	-64.3	3.8	1.49e+00	0	38	104	512753664	68	22281
2026-01-23 07:26:44.64	9.94	8.10	-48.9	-64.2	3.8	1.49e+00	0	38	104	512753664	68	22168
2026-01-23 07:26:45.63	9.80	8.07	-48.9	-64.2	3.8	1.49e+00	0	38	104	512753664	68	22138
2026-01-23 07:26:46.62	9.65	8.03	-48.9	-64.2	3.8	1.49e+00	0	37	104	512753664	68	22233
2026-01-23 07:26:47.62	9.50	7.99	-48.8	-64.2	3.8	1.49e+00	0	38	104	512753664	68	22127
2026-01-23 07:26:48.61	9.36	7.96	-48.9	-64.2	3.8	1.49e+00	0	38	104	512753664	68	22175
2026-01-23 07:26:49.61	9.21	7.92	-48.8	-64.2	3.8	1.49e+00	0	38	104	512753664	68	22196
2026-01-23 07:26:50.60	9.06	7.88	-48.8	-64.2	3.8	1.49e+00	0	38	104	512753664	68	22136
2026-01-23 07:26:51.59	8.92	7.84	-48.8	-64.2	3.8	1.49e+00	0	38	104	512753664	68	22182
2026-01-23 07:26:52.59	8.77	7.81	-48.8	-64.2	3.8	1.49e+00	0	38	104	512753664	68	22205
2026-01-23 07:26:53.58	8.63	7.77	-48.9	-64.2	3.8	1.49e+00	0	38	104	512753664	68	22226
2026-01-23 07:26:54.57	8.48	7.73	-48.8	-64.2	3.8	1.49e+00	0	38	104	512753664	68	22157
2026-01-23 07:26:55.57	8.34	7.69	-48.8	-64.2	3.8	1.49e+00	0	37	104	512753664	68	22196
2026-01-23 07:26:56.56	8.20	7.66	-48.8	-64.2	3.8	1.49e+00	0	38	104	512753664	68	22162
2026-01-23 07:26:57.55	8.05	7.62	-48.8	-64.2	3.8	1.49e+00	0	37	104	512753664	68	22128
2026-01-23 07:26:58.55	7.91	7.58	-48.8	-64.2	3.8	1.49e+00	0	38	104	512753664	68	22149
2026-01-23 07:26:59.54	7.77	7.54	-48.8	-64.2	3.8	1.49e+00	0	38	104	512753664	68	22183
2026-01-23 07:27:00.53	7.63	7.50	-48.8	-64.2	3.8	1.49e+00	0	38	104	512753664	68	22163
2026-01-23 07:27:01.53	7.48	7.47	-48.8	-64.2	3.8	1.49e+00	0	38	104	512753664	68	22087
2026-01-23 07:27:02.52	7.34	7.43	-48.8	-64.2	3.8	1.49e+00	0	37	104	512753664	68	22161
2026-01-23 07:27:03.52	7.20	7.39	-48.8	-64.2	3.8	1.49e+00	0	38	104	512753664	68	22139
2026-01-23 07:27:04.51	7.06	7.35	-48.8	-64.2	3.8	1.49e+00	0	38	104	512753664	68	22171
2026-01-23 07:27:05.50	6.92	7.31	-48.8	-64.2	3.8	1.49e+00	0	38	104	512753664	68	22161
2026-01-23 07:27:06.50	6.78	7.27	-48.8	-64.2	3.8	1.49e+00	0	38	104	512753664	68	22129
2026-01-23 07:27:07.49	6.64	7.23	-48.8	-64.2	3.8	1.49e+00	0	38	104	512753664	68	22155
2026-01-23 07:27:08.48	6.50	7.20	-48.8	-64.2	3.8	1.49e+00	0	38	104	512753664	68	22130
2026-01-23 07:27:09.48	6.36	7.16	-48.8	-64.2	3.8	1.49e+00	0	38	104	512753664	68	22091
2026-01-23 07:27:10.47	6.22	7.12	-48.8	-64.2	3.8	1.49e+00	0	38	104	512753664	68	22162
2026-01-23 07:27:11.46	6.09	7.08	-48.8	-64.2	3.8	1.49e+00	0	38	104	512753664	68	22154
2026-01-23 07:27:12.46	5.95	7.04	-48.8	-64.2	3.8	1.49e+00	0	38	104	512753664	68	22189
2026-01-23 07:27:13.45	5.81	7.00	-48.8	-64.2	3.8	1.49e+00	0	38	104	512753664	68	22099
2026-01-23 07:27:14.44	5.68	6.96	-48.8	-64.2	3.8	1.49e+00	0	38	104	512753664	68	22128
2026-01-23 07:27:15.44	5.54	6.92	-48.8	-64.2	3.8	1.49e+00	0	38	104	512753664	68	22187
2026-01-23 07:27:16.43	5.40	6.88	-48.8	-64.2	3.8	1.49e+00	0	38	104	512753664	68	22098
2026-01-23 07:27:17.42	5.27	6.84	-48.8	-64.2	3.8	1.49e+00	0	38	104	512753664	68	22044
2026-01-23 07:27:18.42	5.13	6.80	-48.8	-64.2	3.8	1.49e+00	0	38	104	512753664	68	22095
2026-01-23 07:27:19.41	5.00	6.76	-48.8	-64.2	3.8	1.49e+00	0	38	104	512753664	68	22137
2026-01-23 07:27:20.40	4.86	6.72	-48.8	-64.2	3.8	1.49e+00	0	38	104	512753664	68	22113
2026-01-23 07:27:21.40	4.73	6.68	-48.8	-64.2	3.8	1.49e+00	0	38	104	512753664	68	22173
2026-01-23 07:27:22.39	4.60	6.64	-48.8	-64.2	3.8	1.49e+00	0	38	104	512753664	68	22034
2026-01-23 07:27:23.38	4.46	6.60	-48.8	-64.2	3.8	1.49e+00	0	38	104	512753664	68	22124
2026-01-23 07:27:24.38	4.33	6.56	-48.8	-64.2	3.8	1.49e+00	0	37	104	512753664	68	22137
2026-01-23 07:27:25.37	4.20	6.52	-48.8	-64.2	3.8	1.49e+00	0	38	104	512753664	68	22178
2026-01-23 07:27:26.36	4.07	6.48	-48.8	-64.2	3.8	1.49e+00	0	38	104	512753664	68	22125
2026-01-23 07:27:27.36	3.93	6.44	-48.8	-64.2	3.8	1.49e+00	0	38	104	512753664	68	22139
2026-01-23 07:27:28.35	3.80	6.39	-48.8	-64.2	3.8	1.49e+00	0	38	104	512753664	68	22120
2026-01-23 07:27:29.34	3.67	6.35	-48.8	-64.2	3.8	1.49e+00	0	37	104	512753664	68	22169
2026-01-23 07:27:30.34	3.54	6.31	-48.8	-64.2	3.8	1.49e+00	0	37	104	512753664	68	22130
2026-01-23 07:27:31.33	3.41	6.27	-48.8	-64.2	3.8	1.49e+00	0	38	104	512753664	68	22119
2026-01-23 07:27:32.32	3.28	6.23	-48.8	-64.2	3.8	1.49e+00	0	38	104	512753664	68	22113
2026-01-23 07:27:33.31	3.15	6.19	-48.8	-64.2	3.8	1.49e+00	0	38	104	512753664	68	22119
2026-01-23 07:27:34.31	3.02	6.15	-48.8	-64.2	3.8	1.49e+00	0	37	104	512753664	68	22200
2026-01-23 07:27:35.30	2.89	6.11	-48.8	-64.2	3.8	1.49e+00	0	37	104	512753664	68	22120
2026-01-23 07:27:36.29	2.76	6.07	-48.8	-64.2	3.8	1.49e+00	0	38	104	512753664	68	22060
2026-01-23 07:27:37.29	2.64	6.02	-48.8	-64.2	3.8	1.49e+00	0	37	104	512753664	68	22141
2026-01-23 07:27:38.28	2.51	5.98	-48.8	-64.2	3.8	1.49e+00	0	38	104	512753664	68	22112
2026-01-23 07:27:39.27	2.38	5.94	-48.8	-64.2	3.8	1.49e+00	0	38	104	512753664	68	22075
2026-01-23 07:27:40.27	2.25	5.90	-48.8	-64.2	3.8	1.49e+00	0	38	104	512753664	68	22088
2026-01-23 07:27:41.26	2.13	5.86	-48.8	-64.2	3.8	1.49e+00	0	38	104	512753664	68	22179
2026-01-23 07:27:42.25	2.00	5.82	-48.8	-64.2	3.8	1.49e+00	0	38	104	512753664	68	22152
2026-01-23 07:27:43.25	1.88	5.77	-48.8	-64.2	3.8	1.49e+00	0	38	104	512753664	68	22145
2026-01-23 07:27:44.24	1.75	5.73	-48.8	-64.2	3.8	1.49e+00	0	38	104	512753664	68	22074
2026-01-23 07:27:45.23	1.63	5.69	-48.8	-64.2	3.8	1.49e+00	0	37	104	512753664	68	22166
2026-01-23 07:27:46.23	1.50	5.65	-48.8	-64.2	3.8	1.49e+00	0	38	104	512753664	68	22137
2026-01-23 07:27:47.22	1.38	5.61	-48.8	-64.2	3.8	1.49e+00	0	37	104	512753664	68	22172
2026-01-23 07:27:48.21	1.25	5.56	-48.8	-64.2	3.8	1.49e+00	0	38	104	512753664	68	22088
2026-01-23 07:27:49.21	1.13	5.52	-48.8	-64.2	3.8	1.49e+00	0	38	104	512753664	68	22111
2026-01-23 07:27:50.20	1.01	5.48	-48.8	-64.2	3.8	1.49e+00	0	38	104	512753664	68	22069
2026-01-23 07:27:51.19	0.88	5.44	-48.8	-64.2	3.8	1.49e+00	0	38	104	512753664	68	22113
2026-01-23 07:27:52.19	0.76	5.39	-48.8	-64.2	3.8	1.49e+00	0	38	104	512753664	68	22101
2026-01-23 07:27:53.18	0.64	5.35	-48.8	-64.2	3.8	1.49e+00	0	38	104	512753664	68	22152
2026-01-23 07:27:54.17	0.52	5.31	-48.8	-64.2	3.8	1.49e+00	0	38	104	512753664	68	22194
2026-01-23 07:27:55.16	0.40	5.27	-48.8	-64.2	3.8	1.49e+00	0	38	104	512753664	68	22127
2026-01-23 07:27:56.16	0.27	5.22	-48.8	-64.2	3.8	1.49e+00	0	38	104	512753664	68	22118
2026-01-23 07:27:57.15	0.15	5.18	-48.8	-64.2	3.8	1.49e+00	0	38	104	512753664	68	22131
2026-01-23 07:27:58.14	0.03	5.14	-48.8	-64.2	3.8	1.49e+00	0	38	104	512753664	68	22033
2026-01-23 07:27:59.14	359.91	5.10	-48.8	-64.2	3.8	1.49e+00	0	38	104	512753664	68	22147
2026-01-23 07:28:00.13	359.79	5.05	-48.8	-64.2	3.8	1.49e+00	0	38	104	512753664	68	22206
2026-01-23 07:28:01.12	359.68	5.01	-48.8	-64.2	3.8	1.49e+00	0	38	104	512753664	68	22154
2026-01-23 07:28:02.12	359.56	4.97	-48.8	-64.2	3.8	1.49e+00	0	38	104	512753664	68	22140

#Closed at: 2026-01-23 07:28:03
#Recorded file [512 MB]: D:/Data/31040_260123_102011.dat