passes_logs/2026/01/23/T1/T1__20260123_030636_FENGYUN_3E_rec.log

#Pass ID: 20260123_030636_FENGYUN 3E
#Satellite: FENGYUN 3E
#Configuration: FENGYUN 3E
#almurnet v.1.7.20251203
#Start time: 2026-01-23 03:06:37

#Version: 2.0.20230620
#Station: T1
#Location: 37.570604 lon 55.790049 lat
#TLE: 1 49008U 21062A   26022.47529509  .00000460  00000+0  23724-3 0  9995
#TLE: 2 49008  98.7486  27.5157 0002334 123.7692 236.3707 14.19888297235908

#Time	Az	El	Level	Level2	SNR	BER	BlckErr	Temp	State	Recorded	gain1	gain2
2026-01-23 03:06:37.03	22.89	5.05	-49.0	-60.4	3.8	8.47e-01	0	38	0	0	68	13302
2026-01-23 03:06:38.02	22.95	5.11	-48.9	-60.3	3.8	8.47e-01	0	38	104	0	68	13141
2026-01-23 03:06:39.01	23.00	5.18	-48.9	-60.3	3.8	8.48e-01	0	38	104	0	68	13152
2026-01-23 03:06:40.00	23.05	5.25	-48.9	-60.2	3.8	8.47e-01	0	38	104	0	68	12982
2026-01-23 03:06:40.99	23.10	5.31	-48.9	-60.1	3.8	8.47e-01	0	39	104	0	68	12930
2026-01-23 03:06:41.99	23.15	5.38	-48.9	-60.0	3.8	8.46e-01	0	38	104	0	68	12778
2026-01-23 03:06:42.98	23.20	5.45	-48.9	-60.0	3.8	8.46e-01	0	39	104	0	68	12680
2026-01-23 03:06:43.97	23.26	5.51	-48.9	-59.8	3.8	8.47e-01	0	39	104	0	68	12508
2026-01-23 03:06:44.97	23.31	5.58	-48.9	-59.8	3.8	8.46e-01	0	39	104	0	68	12447
2026-01-23 03:06:45.96	23.36	5.65	-48.9	-59.8	3.8	8.47e-01	0	39	104	0	68	12400
2026-01-23 03:06:46.95	23.41	5.72	-48.9	-59.8	3.8	8.47e-01	0	39	104	0	68	12390
2026-01-23 03:06:47.95	23.47	5.79	-48.8	-59.8	3.8	8.47e-01	0	39	104	0	68	12382
2026-01-23 03:06:48.94	23.52	5.86	-48.8	-59.8	3.8	8.48e-01	0	39	104	0	68	12426
2026-01-23 03:06:49.93	23.58	5.92	-48.9	-59.8	3.8	8.46e-01	0	39	104	0	68	12516
2026-01-23 03:06:50.93	23.63	5.99	-48.9	-59.9	3.8	8.46e-01	0	39	104	0	68	12522
2026-01-23 03:06:51.92	23.68	6.06	-48.9	-59.9	3.8	8.47e-01	0	39	104	0	68	12644
2026-01-23 03:06:52.91	23.74	6.13	-48.8	-60.0	3.8	8.46e-01	0	39	104	0	68	12667
2026-01-23 03:06:53.91	23.79	6.20	-48.9	-60.0	3.8	8.46e-01	0	39	104	0	68	12724
2026-01-23 03:06:54.90	23.85	6.27	-48.9	-60.0	3.8	8.47e-01	0	39	104	0	68	12809
2026-01-23 03:06:55.89	23.90	6.34	-48.8	-60.0	3.8	8.46e-01	0	39	104	0	68	12749
2026-01-23 03:06:56.89	23.96	6.41	-48.9	-60.0	3.8	8.47e-01	0	39	104	0	68	12710
2026-01-23 03:06:57.88	24.01	6.48	-48.8	-59.9	3.8	8.48e-01	0	39	104	0	68	12623
2026-01-23 03:06:58.87	24.07	6.55	-48.8	-59.9	3.8	8.46e-01	0	39	104	0	68	12559
2026-01-23 03:06:59.87	24.13	6.62	-48.8	-59.8	3.8	8.46e-01	0	39	104	0	68	12482
2026-01-23 03:07:00.86	24.18	6.69	-48.8	-59.9	3.8	8.47e-01	0	39	104	0	68	12549
2026-01-23 03:07:01.85	24.24	6.76	-48.8	-59.8	3.8	8.46e-01	0	39	104	0	68	12504
2026-01-23 03:07:02.85	24.30	6.83	-48.8	-59.9	3.8	8.47e-01	0	39	104	0	68	12550
2026-01-23 03:07:03.84	24.35	6.90	-48.8	-60.0	3.8	8.46e-01	0	40	104	0	68	12703
2026-01-23 03:07:04.83	24.41	6.97	-48.9	-60.0	3.8	8.47e-01	0	39	104	0	68	12706
2026-01-23 03:07:05.83	24.47	7.04	-48.8	-60.0	3.8	8.47e-01	0	39	104	0	68	12770
2026-01-23 03:07:06.82	24.53	7.11	-48.8	-60.0	3.8	8.48e-01	0	39	104	0	68	12781
2026-01-23 03:07:07.81	24.58	7.19	-48.8	-60.0	3.8	8.46e-01	0	39	104	0	68	12692
2026-01-23 03:07:08.80	24.64	7.26	-48.8	-59.8	3.8	8.46e-01	0	39	104	0	68	12427
2026-01-23 03:07:09.80	24.70	7.33	-48.8	-59.4	3.8	8.47e-01	0	39	104	0	68	11945
2026-01-23 03:07:10.79	24.76	7.40	-48.7	-59.0	3.8	8.47e-01	0	39	104	0	68	11406
2026-01-23 03:07:11.78	24.82	7.47	-48.7	-58.8	3.8	8.47e-01	0	40	104	0	68	11032
2026-01-23 03:07:12.78	24.88	7.55	-48.6	-58.5	3.8	8.46e-01	0	40	104	0	68	10658
2026-01-23 03:07:13.77	24.94	7.62	-48.6	-58.2	3.8	8.46e-01	0	39	104	0	68	10306
2026-01-23 03:07:14.77	25.00	7.69	-48.6	-58.0	3.8	8.45e-01	0	40	104	0	68	10075
2026-01-23 03:07:15.76	25.06	7.76	-48.4	-57.8	3.9	8.46e-01	0	40	104	0	67	10438
2026-01-23 03:07:16.75	25.12	7.84	-48.4	-57.7	3.8	8.44e-01	0	40	104	0	67	10336
2026-01-23 03:07:17.75	25.18	7.91	-48.4	-57.7	3.8	8.46e-01	0	40	104	0	67	10375
2026-01-23 03:07:18.74	25.24	7.98	-48.4	-57.6	4.0	8.45e-01	0	40	104	0	67	10263
2026-01-23 03:07:19.73	25.30	8.06	-48.4	-57.7	4.0	8.44e-01	0	40	104	0	67	10337
2026-01-23 03:07:20.73	25.37	8.13	-48.4	-57.6	3.8	8.45e-01	0	40	104	0	67	10248
2026-01-23 03:07:21.72	25.43	8.21	-48.4	-57.5	4.0	8.44e-01	0	40	104	0	67	10117
2026-01-23 03:07:22.71	25.49	8.28	-48.4	-57.3	3.9	8.43e-01	0	40	104	0	67	9926
2026-01-23 03:07:23.71	25.55	8.36	-48.3	-56.9	4.1	8.42e-01	0	40	104	0	67	9479
2026-01-23 03:07:24.70	25.62	8.43	-48.2	-56.3	4.2	8.38e-01	0	40	0	0	67	8830
2026-01-23 03:07:25.69	25.68	8.51	-48.1	-55.5	4.6	8.22e-01	0	40	0	0	67	8014
2026-01-23 03:07:26.69	25.74	8.58	-47.8	-54.2	5.2	7.67e-01	0	40	0	0	66	7370
2026-01-23 03:07:27.68	25.81	8.66	-47.4	-52.9	6.1	4.70e-01	0	40	0	2097152	65	6657
2026-01-23 03:07:28.68	25.87	8.73	-46.7	-51.1	7.7	1.15e-01	0	40	0	9437184	64	5761
2026-01-23 03:07:29.67	25.94	8.81	-46.2	-49.9	9.1	3.11e-02	0	40	0	15728640	63	5292
2026-01-23 03:07:30.66	26.00	8.88	-45.2	-48.1	10.9	5.66e-03	0	40	0	23068672	61	4832
2026-01-23 03:07:31.66	26.07	8.96	-44.3	-46.7	12.3	2.96e-04	0	40	0	30408704	59	4601
2026-01-23 03:07:32.65	26.13	9.04	-43.7	-45.7	13.3	4.46e-05	0	40	0	37748736	58	4379
2026-01-23 03:07:33.65	26.20	9.11	-46.2	-49.7	9.7	7.80e-04	0	40	0	45088768	61	5826
2026-01-23 03:07:34.64	26.26	9.19	-44.3	-46.5	12.7	1.53e-03	0	40	0	49283072	57	5074
2026-01-23 03:07:35.64	26.33	9.27	-42.0	-43.5	15.4	1.20e-02	0	40	0	56623104	54	4284
2026-01-23 03:07:36.63	26.40	9.34	-44.3	-46.4	12.8	4.50e-06	0	40	0	63963136	57	5034
2026-01-23 03:07:37.62	26.47	9.42	-40.5	-41.8	17.1	1.60e-05	0	40	0	71303168	52	3938
2026-01-23 03:07:38.68	26.54	9.50	-38.3	-39.4	19.3	0.00e+00	0	40	0	78643200	47	3982
2026-01-23 03:07:39.61	26.60	9.58	-38.4	-39.5	19.2	0.00e+00	0	40	0	84934656	47	4032
2026-01-23 03:07:40.61	26.67	9.66	-38.1	-39.1	19.6	0.00e+00	0	40	0	92274688	47	3850
2026-01-23 03:07:41.60	26.74	9.73	-38.1	-39.2	19.6	0.00e+00	0	40	0	99614720	46	4102
2026-01-23 03:07:42.60	26.81	9.81	-38.1	-39.1	19.6	0.00e+00	0	40	0	106954752	46	4093
2026-01-23 03:07:43.59	26.88	9.89	-38.1	-39.1	19.7	0.00e+00	0	40	0	114294784	46	4070
2026-01-23 03:07:44.59	26.95	9.97	-38.0	-39.0	19.7	0.00e+00	0	40	0	121634816	46	4049
2026-01-23 03:07:45.58	27.02	10.05	-38.1	-39.1	19.6	0.00e+00	0	40	0	128974848	46	4086
2026-01-23 03:07:46.57	27.09	10.13	-38.1	-39.1	19.7	0.00e+00	0	40	0	135266304	46	4067
2026-01-23 03:07:47.57	27.16	10.21	-38.0	-39.0	19.8	0.00e+00	0	40	0	142606336	46	4011
2026-01-23 03:07:48.56	27.23	10.29	-37.9	-38.9	19.9	0.00e+00	0	40	0	149946368	46	3995
2026-01-23 03:07:49.56	27.30	10.37	-38.0	-39.0	19.8	0.00e+00	0	40	0	157286400	46	4011
2026-01-23 03:07:50.56	27.37	10.45	-37.9	-38.9	19.9	0.00e+00	0	40	0	164626432	46	3965
2026-01-23 03:07:51.56	27.44	10.53	-38.1	-39.1	19.7	0.00e+00	0	40	0	171966464	46	4062
2026-01-23 03:07:52.55	27.52	10.61	-37.9	-38.9	19.9	0.00e+00	0	40	0	178257920	46	3987
2026-01-23 03:07:53.55	27.59	10.69	-37.9	-38.9	19.9	0.00e+00	0	40	0	185597952	46	3982
2026-01-23 03:07:54.54	27.66	10.77	-37.8	-38.8	20.0	0.00e+00	0	40	0	192937984	46	3950
2026-01-23 03:07:55.54	27.74	10.86	-38.0	-39.0	19.8	0.00e+00	0	40	0	200278016	46	4027
2026-01-23 03:07:56.53	27.81	10.94	-38.2	-39.2	19.7	0.00e+00	0	40	0	207618048	46	4104
2026-01-23 03:07:57.53	27.88	11.02	-38.0	-39.0	19.9	0.00e+00	0	40	0	214958080	46	4029
2026-01-23 03:07:58.53	27.96	11.10	-37.8	-38.8	19.9	0.00e+00	0	40	0	221249536	46	3956
2026-01-23 03:07:59.52	28.03	11.18	-37.9	-38.9	19.9	0.00e+00	0	40	0	228589568	46	3980
2026-01-23 03:08:00.52	28.11	11.27	-37.9	-39.0	19.9	0.00e+00	0	40	0	235929600	46	4008
2026-01-23 03:08:01.51	28.19	11.35	-37.8	-38.9	20.0	0.00e+00	0	40	0	243269632	46	3966
2026-01-23 03:08:02.51	28.26	11.43	-37.9	-38.9	20.0	0.00e+00	0	40	0	250609664	46	3964
2026-01-23 03:08:03.50	28.34	11.52	-37.9	-38.9	19.9	0.00e+00	0	40	0	257949696	46	3973
2026-01-23 03:08:04.50	28.42	11.60	-37.8	-38.8	20.1	0.00e+00	0	40	0	265289728	46	3938
2026-01-23 03:08:05.49	28.50	11.68	-37.8	-38.8	20.0	0.00e+00	0	40	0	272629760	46	3955
2026-01-23 03:08:06.49	28.57	11.77	-38.0	-39.0	19.9	0.00e+00	0	40	0	278921216	46	4017
2026-01-23 03:08:07.48	28.65	11.85	-37.8	-38.8	20.0	0.00e+00	0	40	0	286261248	45	4172
2026-01-23 03:08:08.47	28.73	11.94	-37.9	-38.9	19.9	0.00e+00	0	40	0	293601280	45	4232
2026-01-23 03:08:09.47	28.81	12.02	-37.8	-38.8	20.1	0.00e+00	0	40	0	300941312	45	4162
2026-01-23 03:08:10.46	28.89	12.11	-37.8	-38.8	19.9	0.00e+00	0	40	0	308281344	45	4155
2026-01-23 03:08:11.46	28.97	12.19	-37.7	-38.7	20.1	0.00e+00	0	40	0	315621376	45	4144
2026-01-23 03:08:12.45	29.05	12.28	-37.7	-38.7	20.2	0.00e+00	0	40	0	321912832	45	4101
2026-01-23 03:08:13.45	29.13	12.36	-37.8	-38.8	20.1	0.00e+00	0	41	0	329252864	45	4155
2026-01-23 03:08:14.44	29.21	12.45	-37.7	-38.7	20.1	0.00e+00	0	40	0	336592896	45	4143
2026-01-23 03:08:15.44	29.30	12.54	-37.8	-38.8	20.1	0.00e+00	0	41	0	343932928	45	4147
2026-01-23 03:08:16.44	29.38	12.62	-37.8	-38.8	20.1	0.00e+00	0	40	0	351272960	45	4163
2026-01-23 03:08:17.43	29.46	12.71	-37.7	-38.7	20.2	0.00e+00	0	41	0	358612992	45	4124
2026-01-23 03:08:18.43	29.55	12.80	-37.6	-38.6	20.3	0.00e+00	0	40	0	364904448	45	4086
2026-01-23 03:08:19.42	29.63	12.88	-37.7	-38.7	20.2	0.00e+00	0	41	0	372244480	45	4112
2026-01-23 03:08:20.42	29.71	12.97	-37.7	-38.7	20.2	0.00e+00	0	40	0	379584512	45	4127
2026-01-23 03:08:21.43	29.80	13.06	-37.8	-38.7	20.2	0.00e+00	0	40	0	386924544	45	4139
2026-01-23 03:08:22.45	29.89	13.15	-37.8	-38.7	20.1	0.00e+00	0	41	0	394264576	45	4145
2026-01-23 03:08:23.45	29.97	13.24	-37.7	-38.7	20.2	0.00e+00	0	40	0	401604608	45	4125
2026-01-23 03:08:24.56	30.07	13.34	-37.6	-38.5	20.4	0.00e+00	0	41	0	409993216	45	4040
2026-01-23 03:08:25.41	30.15	13.42	-37.6	-38.6	20.3	0.00e+00	0	40	0	416284672	45	4077
2026-01-23 03:08:26.55	30.25	13.52	-37.6	-38.6	20.3	0.00e+00	0	41	0	424673280	45	4059
2026-01-23 03:08:27.40	30.32	13.60	-37.6	-38.6	20.3	0.00e+00	0	40	0	429916160	45	4080
2026-01-23 03:08:28.54	30.42	13.70	-37.5	-38.5	20.5	0.00e+00	0	40	0	438304768	45	4013
2026-01-23 03:08:29.39	30.50	13.78	-37.5	-38.4	20.5	0.00e+00	0	41	0	444596224	45	3993
2026-01-23 03:08:30.52	30.60	13.88	-37.4	-38.3	20.5	0.00e+00	0	40	0	452984832	45	3952
2026-01-23 03:08:31.38	30.68	13.96	-37.3	-38.3	20.6	0.00e+00	0	41	0	459276288	45	3917
2026-01-23 03:08:32.51	30.78	14.06	-37.4	-38.3	20.6	0.00e+00	0	41	0	466616320	45	3938
2026-01-23 03:08:33.37	30.86	14.14	-37.2	-38.1	20.7	0.00e+00	0	41	0	472907776	45	3866
2026-01-23 03:08:34.51	30.96	14.24	-37.3	-38.2	20.6	0.00e+00	0	41	0	481296384	45	3899
2026-01-23 03:08:35.36	31.04	14.32	-37.2	-38.1	20.8	0.00e+00	0	41	0	487587840	45	3854
2026-01-23 03:08:36.50	31.15	14.43	-37.1	-38.0	20.8	0.00e+00	0	41	0	495976448	45	3821
2026-01-23 03:08:37.35	31.23	14.51	-37.0	-38.0	20.9	0.00e+00	0	41	0	502267904	44	4005
2026-01-23 03:08:38.49	31.34	14.61	-37.1	-38.0	20.9	0.00e+00	0	41	0	510656512	44	4049
2026-01-23 03:08:39.34	31.42	14.69	-37.0	-37.9	21.0	0.00e+00	0	41	0	516947968	44	3991
2026-01-23 03:08:40.48	31.52	14.80	-37.1	-38.0	20.9	0.00e+00	0	41	0	525336576	44	4037
2026-01-23 03:08:41.33	31.61	14.88	-37.0	-37.9	21.0	0.00e+00	0	41	0	530579456	44	3994
2026-01-23 03:08:42.47	31.72	14.99	-36.9	-37.8	21.1	0.00e+00	0	41	0	538968064	44	3951
2026-01-23 03:08:43.32	31.80	15.07	-37.0	-37.9	21.0	0.00e+00	0	41	0	545259520	44	4000
2026-01-23 03:08:44.46	31.91	15.18	-36.9	-37.8	21.1	0.00e+00	0	41	0	553648128	44	3948
2026-01-23 03:08:45.31	31.99	15.26	-36.9	-37.9	21.1	0.00e+00	0	41	0	559939584	44	3964
2026-01-23 03:08:46.45	32.11	15.37	-37.0	-37.9	21.0	0.00e+00	0	41	0	567279616	44	3989
2026-01-23 03:08:47.30	32.19	15.45	-37.0	-37.9	21.0	0.00e+00	0	40	0	573571072	44	3977
2026-01-23 03:08:48.44	32.31	15.56	-37.0	-37.9	21.0	0.00e+00	0	41	0	581959680	44	3997
2026-01-23 03:08:49.29	32.39	15.64	-37.1	-38.0	20.9	0.00e+00	0	41	0	588251136	44	4030
2026-01-23 03:08:50.43	32.51	15.75	-36.9	-37.8	21.1	0.00e+00	0	41	0	596639744	44	3954
2026-01-23 03:08:51.28	32.59	15.83	-36.9	-37.8	21.1	0.00e+00	0	41	0	602931200	44	3927
2026-01-23 03:08:52.42	32.71	15.94	-36.8	-37.7	21.2	0.00e+00	0	41	0	610271232	44	3885
2026-01-23 03:08:53.27	32.80	16.03	-36.7	-37.6	21.3	0.00e+00	0	41	0	616562688	44	3848
2026-01-23 03:08:54.60	32.94	16.16	-36.7	-37.7	21.2	0.00e+00	0	41	0	627048448	44	3870
2026-01-23 03:08:55.31	33.01	16.23	-36.4	-37.3	21.4	0.00e+00	0	41	0	631242752	43	3942
2026-01-23 03:08:56.59	33.15	16.35	-36.4	-37.3	21.4	0.00e+00	0	41	0	640679936	43	3929
2026-01-23 03:08:57.31	33.22	16.43	-36.4	-37.3	21.4	0.00e+00	0	41	0	645922816	43	3925
2026-01-23 03:08:58.59	33.36	16.55	-36.3	-37.2	21.5	0.00e+00	0	41	0	655360000	43	3907
2026-01-23 03:08:59.30	33.43	16.62	-36.4	-37.3	21.4	0.00e+00	0	41	0	660602880	43	3946
2026-01-23 03:09:00.58	33.57	16.75	-36.4	-37.3	21.4	0.00e+00	0	41	0	670040064	43	3941
2026-01-23 03:09:01.29	33.65	16.82	-36.4	-37.3	21.4	0.00e+00	0	41	0	675282944	43	3938
2026-01-23 03:09:02.59	33.79	16.95	-36.3	-37.2	21.4	0.00e+00	0	41	0	684720128	43	3904
2026-01-23 03:09:03.30	33.87	17.02	-36.3	-37.2	21.4	0.00e+00	0	41	0	689963008	43	3893
2026-01-23 03:09:04.58	34.01	17.15	-36.3	-37.3	21.4	0.00e+00	0	41	0	698351616	43	3922
2026-01-23 03:09:05.29	34.09	17.23	-36.3	-37.2	21.4	0.00e+00	0	41	0	703594496	43	3910
2026-01-23 03:09:06.73	34.25	17.37	-36.2	-37.1	21.6	0.00e+00	0	41	0	714080256	43	3837
2026-01-23 03:09:07.44	34.33	17.45	-36.3	-37.2	21.5	0.00e+00	0	41	0	719323136	43	3887
2026-01-23 03:09:08.71	34.48	17.58	-36.2	-37.1	21.6	0.00e+00	0	41	0	728760320	42	4080
2026-01-23 03:09:09.42	34.56	17.65	-36.2	-37.1	21.6	0.00e+00	0	41	0	734003200	42	4080
2026-01-23 03:09:10.70	34.71	17.78	-36.2	-37.1	21.6	0.00e+00	0	41	0	742391808	42	4070
2026-01-23 03:09:11.41	34.79	17.85	-36.1	-37.0	21.7	0.00e+00	0	41	0	747634688	42	4049
2026-01-23 03:09:12.69	34.94	17.99	-36.1	-37.0	21.7	0.00e+00	0	41	0	757071872	42	4018
2026-01-23 03:09:13.40	35.02	18.06	-36.1	-37.0	21.7	0.00e+00	0	41	0	762314752	42	4017
2026-01-23 03:09:14.71	35.18	18.20	-36.1	-37.0	21.8	0.00e+00	0	41	0	771751936	42	4020
2026-01-23 03:09:15.45	35.27	18.28	-36.0	-36.9	21.8	0.00e+00	0	41	0	776994816	42	3997
2026-01-23 03:09:16.73	35.42	18.41	-36.0	-36.9	21.8	0.00e+00	0	41	0	786432000	42	3977
2026-01-23 03:09:17.46	35.51	18.49	-36.0	-36.9	21.8	0.00e+00	0	41	0	791674880	42	3997
2026-01-23 03:09:18.74	35.66	18.62	-36.1	-37.0	21.8	0.00e+00	0	41	0	801112064	42	4005
2026-01-23 03:09:19.59	35.77	18.71	-36.1	-37.0	21.8	0.00e+00	0	41	0	807403520	42	4010
2026-01-23 03:09:21.01	35.94	18.87	-36.1	-37.0	21.7	0.00e+00	0	41	0	816840704	42	4043
2026-01-23 03:09:21.72	36.03	18.94	-36.1	-37.0	21.8	0.00e+00	0	41	0	822083584	42	4015
2026-01-23 03:09:23.00	36.19	19.08	-36.1	-37.0	21.8	0.00e+00	0	41	0	831520768	42	4005
2026-01-23 03:09:23.71	36.28	19.16	-36.1	-36.9	21.8	0.00e+00	0	41	0	836763648	42	4004
2026-01-23 03:09:24.99	36.44	19.29	-36.0	-36.9	21.9	0.00e+00	0	41	0	846200832	42	3972
2026-01-23 03:09:25.70	36.53	19.37	-35.9	-36.8	22.0	0.00e+00	0	41	0	851443712	42	3924
2026-01-23 03:09:27.33	36.74	19.55	-35.8	-36.7	22.1	0.00e+00	0	41	0	862978048	42	3887
2026-01-23 03:09:27.90	36.82	19.61	-35.9	-36.7	22.0	0.00e+00	0	41	0	867172352	42	3903
2026-01-23 03:09:29.86	37.07	19.82	-35.6	-36.5	22.3	0.00e+00	0	41	0	880803840	42	3803
2026-01-23 03:09:30.43	37.15	19.89	-35.6	-36.4	22.3	0.00e+00	0	41	0	884998144	41	3995
2026-01-23 03:09:32.13	37.38	20.08	-35.5	-36.3	22.3	0.00e+00	0	41	0	897581056	41	3954
2026-01-23 03:09:32.84	37.47	20.15	-35.5	-36.4	22.3	0.00e+00	0	41	0	902823936	41	3960
2026-01-23 03:09:34.12	37.64	20.30	-35.5	-36.4	22.3	0.00e+00	0	41	0	912261120	41	3959
2026-01-23 03:09:34.85	37.74	20.38	-35.4	-36.3	22.4	0.00e+00	0	41	0	917504000	41	3930
2026-01-23 03:09:36.13	37.92	20.52	-35.7	-36.5	22.2	0.00e+00	0	41	0	926941184	41	4037
2026-01-23 03:09:36.84	38.02	20.60	-35.5	-36.4	22.3	0.00e+00	0	41	0	931135488	41	3967
2026-01-23 03:09:38.12	38.19	20.74	-35.6	-36.4	22.3	0.00e+00	0	41	0	940572672	41	3986
2026-01-23 03:09:39.17	38.34	20.86	-35.6	-36.4	22.3	0.00e+00	0	41	0	947912704	41	4001
2026-01-23 03:09:40.42	38.52	21.00	-35.5	-36.3	22.4	0.00e+00	0	41	0	957349888	41	3951
2026-01-23 03:09:41.21	38.63	21.09	-35.5	-36.3	22.4	0.00e+00	0	41	0	962592768	41	3935
2026-01-23 03:09:42.41	38.80	21.23	-35.5	-36.3	22.3	0.00e+00	0	41	0	972029952	41	3952
2026-01-23 03:09:43.27	38.93	21.33	-35.5	-36.3	22.4	0.00e+00	0	41	0	978321408	41	3938
2026-01-23 03:09:44.40	39.09	21.46	-35.4	-36.2	22.4	0.00e+00	0	41	0	985661440	41	3908
2026-01-23 03:09:45.26	39.22	21.56	-35.5	-36.4	22.3	0.00e+00	0	41	0	991952896	41	3963
2026-01-23 03:09:46.39	39.38	21.69	-35.5	-36.4	22.3	0.00e+00	0	41	0	1000341504	41	3962
2026-01-23 03:09:47.24	39.51	21.79	-35.4	-36.2	22.4	0.00e+00	0	41	0	1006632960	41	3909
2026-01-23 03:09:48.38	39.68	21.92	-35.4	-36.2	22.5	0.00e+00	0	41	0	1015021568	41	3901
2026-01-23 03:09:49.24	39.81	22.02	-35.4	-36.3	22.4	0.00e+00	0	41	0	1021313024	41	3933
2026-01-23 03:09:50.37	39.98	22.15	-35.5	-36.4	22.4	0.00e+00	0	41	0	1028653056	41	3959
2026-01-23 03:09:51.23	40.11	22.25	-35.5	-36.3	22.4	0.00e+00	0	41	0	1034944512	41	3938
2026-01-23 03:09:52.36	40.29	22.39	-35.4	-36.3	22.4	0.00e+00	0	41	0	1043333120	41	3927
2026-01-23 03:09:53.22	40.42	22.49	-35.5	-36.3	22.4	0.00e+00	0	41	0	1049624576	41	3939
2026-01-23 03:09:54.35	40.60	22.62	-35.4	-36.3	22.5	0.00e+00	0	41	0	1058013184	41	3916
2026-01-23 03:09:55.30	40.75	22.73	-35.4	-36.3	22.5	0.00e+00	0	41	0	1064304640	41	3929
2026-01-23 03:09:56.47	40.94	22.87	-35.4	-36.3	22.5	0.00e+00	0	41	0	1072693248	41	3914
2026-01-23 03:09:57.35	41.08	22.98	-35.1	-36.0	22.8	0.00e+00	0	41	0	1080033280	41	3790
2026-01-23 03:09:58.49	41.26	23.11	-35.2	-36.1	22.7	0.00e+00	0	41	0	1088421888	41	3834
2026-01-23 03:09:59.34	41.40	23.22	-35.1	-36.0	22.8	0.00e+00	0	41	0	1093664768	41	3782
2026-01-23 03:10:00.48	41.58	23.35	-35.1	-35.9	22.8	0.00e+00	0	41	0	1102053376	40	3979
2026-01-23 03:10:01.33	41.72	23.45	-35.1	-35.9	22.8	0.00e+00	0	41	0	1108344832	40	3993
2026-01-23 03:10:02.47	41.91	23.59	-35.2	-36.0	22.8	0.00e+00	0	41	0	1116733440	40	4032
2026-01-23 03:10:03.32	42.06	23.70	-35.1	-36.0	22.8	0.00e+00	0	41	0	1123024896	40	4016
2026-01-23 03:10:04.46	42.25	23.83	-35.3	-36.1	22.6	0.00e+00	0	41	0	1130364928	40	4076
2026-01-23 03:10:05.31	42.39	23.94	-35.3	-36.1	22.6	0.00e+00	0	41	0	1136656384	40	4085
2026-01-23 03:10:06.45	42.59	24.08	-35.2	-36.1	22.7	0.00e+00	0	41	0	1145044992	40	4065
2026-01-23 03:10:07.30	42.74	24.18	-35.2	-36.1	22.7	0.00e+00	0	41	0	1151336448	40	4069
2026-01-23 03:10:08.43	42.93	24.32	-35.2	-36.0	22.8	0.00e+00	0	41	0	1159725056	40	4033
2026-01-23 03:10:09.28	43.08	24.42	-35.2	-36.0	22.7	0.00e+00	0	41	0	1166016512	40	4047
2026-01-23 03:10:10.50	43.30	24.57	-35.3	-36.1	22.7	0.00e+00	0	41	0	1174405120	40	4077
2026-01-23 03:10:11.35	43.45	24.68	-35.0	-35.9	22.9	0.00e+00	0	41	0	1180696576	40	3960
2026-01-23 03:10:12.57	43.67	24.83	-35.0	-35.9	22.9	0.00e+00	0	41	0	1189085184	40	3963
2026-01-23 03:10:13.42	43.82	24.94	-35.0	-35.9	22.9	0.00e+00	0	41	0	1195376640	40	3972
2026-01-23 03:10:14.56	44.03	25.08	-35.0	-35.8	22.9	0.00e+00	0	41	0	1203765248	40	3952
2026-01-23 03:10:15.41	44.18	25.18	-35.0	-35.9	22.9	0.00e+00	0	41	0	1210056704	40	3965
2026-01-23 03:10:16.55	44.40	25.33	-34.9	-35.7	23.0	0.00e+00	0	41	0	1218445312	40	3887
2026-01-23 03:10:17.40	44.55	25.43	-34.8	-35.6	23.1	0.00e+00	0	41	0	1224736768	40	3852
2026-01-23 03:10:18.54	44.77	25.58	-34.8	-35.6	23.1	0.00e+00	0	41	0	1233125376	40	3835
2026-01-23 03:10:19.39	44.93	25.68	-34.7	-35.5	23.2	0.00e+00	0	41	0	1238368256	40	3792
2026-01-23 03:10:20.53	45.15	25.83	-34.6	-35.4	23.3	0.00e+00	0	41	0	1246756864	39	4001
2026-01-23 03:10:21.38	45.31	25.94	-34.7	-35.5	23.2	0.00e+00	0	41	0	1253048320	39	4038
2026-01-23 03:10:22.52	45.53	26.08	-34.7	-35.5	23.3	0.00e+00	0	41	0	1261436928	39	4022
2026-01-23 03:10:23.37	45.70	26.19	-34.7	-35.5	23.2	0.00e+00	0	41	0	1267728384	39	4040
2026-01-23 03:10:24.51	45.92	26.33	-34.7	-35.6	23.2	0.00e+00	0	41	0	1276116992	39	4058
2026-01-23 03:10:25.36	46.09	26.44	-34.8	-35.6	23.2	0.00e+00	0	41	0	1281359872	39	4075
2026-01-23 03:10:26.50	46.32	26.59	-34.8	-35.7	23.1	0.00e+00	0	41	0	1289748480	39	4099
2026-01-23 03:10:27.35	46.49	26.70	-34.7	-35.5	23.2	0.00e+00	0	41	0	1296039936	39	4048
2026-01-23 03:10:28.49	46.72	26.84	-34.8	-35.6	23.1	0.00e+00	0	41	0	1304428544	39	4096
2026-01-23 03:10:29.34	46.90	26.95	-34.8	-35.6	23.2	0.00e+00	0	41	0	1310720000	39	4058
2026-01-23 03:10:30.48	47.13	27.10	-34.5	-35.3	23.4	0.00e+00	0	41	0	1319108608	39	3939
2026-01-23 03:10:31.33	47.31	27.21	-34.6	-35.4	23.4	0.00e+00	0	41	0	1325400064	39	3975
2026-01-23 03:10:32.47	47.55	27.36	-34.6	-35.5	23.3	0.00e+00	0	41	0	1332740096	39	4011
2026-01-23 03:10:33.32	47.73	27.47	-34.7	-35.5	23.2	0.00e+00	0	41	0	1339031552	39	4044
2026-01-23 03:10:34.46	47.97	27.62	-34.6	-35.4	23.3	0.00e+00	0	41	0	1347420160	39	3996
2026-01-23 03:10:35.31	48.15	27.73	-34.7	-35.5	23.2	0.00e+00	0	41	0	1353711616	39	4041
2026-01-23 03:10:36.45	48.40	27.87	-34.7	-35.5	23.3	0.00e+00	0	41	0	1362100224	39	4021
2026-01-23 03:10:37.30	48.59	27.99	-34.7	-35.5	23.3	0.00e+00	0	41	0	1368391680	39	4015
2026-01-23 03:10:38.44	48.84	28.13	-34.7	-35.5	23.2	0.00e+00	0	41	0	1376780288	39	4019
2026-01-23 03:10:39.30	49.03	28.25	-34.4	-35.2	23.5	0.00e+00	0	41	0	1382023168	39	3911
2026-01-23 03:10:40.43	49.28	28.39	-34.5	-35.3	23.4	0.00e+00	0	41	0	1390411776	39	3946
2026-01-23 03:10:41.28	49.47	28.51	-34.5	-35.3	23.4	0.00e+00	0	41	0	1396703232	39	3944
2026-01-23 03:10:42.50	49.75	28.67	-34.5	-35.3	23.4	0.00e+00	0	41	0	1405091840	39	3939
2026-01-23 03:10:43.36	49.95	28.78	-34.5	-35.3	23.4	0.00e+00	0	41	0	1411383296	39	3934
2026-01-23 03:10:44.57	50.23	28.94	-34.6	-35.4	23.4	0.00e+00	0	41	0	1420820480	39	3976
2026-01-23 03:10:45.42	50.42	29.05	-34.5	-35.3	23.5	0.00e+00	0	41	0	1426063360	39	3930
2026-01-23 03:10:46.56	50.69	29.20	-34.5	-35.3	23.5	0.00e+00	0	41	0	1434451968	39	3917
2026-01-23 03:10:47.41	50.89	29.31	-34.4	-35.2	23.5	0.00e+00	0	41	0	1440743424	39	3898
2026-01-23 03:10:48.55	51.16	29.46	-34.4	-35.2	23.5	0.00e+00	0	41	0	1449132032	39	3896
2026-01-23 03:10:49.40	51.37	29.57	-34.4	-35.2	23.6	0.00e+00	0	41	0	1455423488	39	3884
2026-01-23 03:10:50.54	51.64	29.72	-34.5	-35.3	23.5	0.00e+00	0	41	0	1463812096	39	3940
2026-01-23 03:10:51.39	51.85	29.84	-34.5	-35.3	23.5	0.00e+00	0	41	0	1470103552	39	3932
2026-01-23 03:10:52.53	52.13	29.99	-34.5	-35.3	23.4	0.00e+00	0	41	0	1478492160	39	3944
2026-01-23 03:10:53.38	52.34	30.10	-34.3	-35.2	23.6	0.00e+00	0	41	0	1483735040	39	3873
2026-01-23 03:10:54.52	52.63	30.25	-34.4	-35.2	23.6	0.00e+00	0	41	0	1492123648	39	3879
2026-01-23 03:10:55.37	52.84	30.36	-34.5	-35.3	23.4	0.00e+00	0	41	0	1498415104	39	3939
2026-01-23 03:10:56.51	53.13	30.51	-34.5	-35.3	23.4	0.00e+00	0	41	0	1506803712	39	3951
2026-01-23 03:10:57.36	53.35	30.63	-34.5	-35.3	23.5	0.00e+00	0	41	0	1513095168	39	3944
2026-01-23 03:10:58.50	53.65	30.78	-34.6	-35.4	23.4	0.00e+00	0	41	0	1521483776	39	3966
2026-01-23 03:10:59.35	53.87	30.89	-34.6	-35.4	23.4	0.00e+00	0	41	0	1526726656	39	3987
2026-01-23 03:11:00.49	54.17	31.04	-34.6	-35.4	23.4	0.00e+00	0	41	0	1535115264	39	3987
2026-01-23 03:11:01.34	54.39	31.15	-34.6	-35.4	23.4	0.00e+00	0	41	0	1541406720	39	3966
2026-01-23 03:11:02.53	54.71	31.31	-34.4	-35.2	23.5	0.00e+00	0	41	0	1549795328	39	3906
2026-01-23 03:11:03.38	54.94	31.42	-34.3	-35.1	23.7	0.00e+00	0	41	0	1556086784	39	3836
2026-01-23 03:11:04.52	55.25	31.57	-34.2	-35.0	23.7	0.00e+00	0	41	0	1564475392	39	3820
2026-01-23 03:11:05.37	55.48	31.69	-34.3	-35.1	23.6	0.00e+00	0	41	0	1570766848	39	3853
2026-01-23 03:11:06.70	55.85	31.86	-34.5	-35.3	23.5	0.00e+00	0	41	0	1580204032	39	3936
2026-01-23 03:11:07.41	56.05	31.95	-34.6	-35.4	23.4	0.00e+00	0	41	0	1585446912	39	3966
2026-01-23 03:11:08.70	56.41	32.12	-34.6	-35.4	23.4	0.00e+00	0	41	0	1594884096	39	3970
2026-01-23 03:11:09.41	56.61	32.22	-34.6	-35.4	23.4	0.00e+00	0	41	0	1600126976	39	3995
2026-01-23 03:11:10.69	56.97	32.38	-34.6	-35.4	23.3	0.00e+00	0	41	0	1609564160	39	3999
2026-01-23 03:11:11.42	57.18	32.48	-34.8	-35.6	23.2	0.00e+00	0	41	0	1613758464	39	4076
2026-01-23 03:11:12.70	57.55	32.65	-34.8	-35.6	23.2	0.00e+00	0	41	0	1623195648	39	4073
2026-01-23 03:11:13.49	57.78	32.75	-34.7	-35.5	23.3	0.00e+00	0	41	0	1629487104	39	4042
2026-01-23 03:11:14.69	58.14	32.91	-34.7	-35.5	23.4	0.00e+00	0	41	0	1637875712	39	4012
2026-01-23 03:11:15.55	58.39	33.02	-34.6	-35.4	23.4	0.00e+00	0	41	0	1644167168	39	4001
2026-01-23 03:11:16.68	58.73	33.17	-34.8	-35.6	23.2	0.00e+00	0	41	0	1652555776	39	4071
2026-01-23 03:11:17.54	58.99	33.28	-34.8	-35.6	23.2	0.00e+00	0	41	0	1658847232	39	4071
2026-01-23 03:11:18.67	59.33	33.42	-34.7	-35.6	23.3	0.00e+00	0	41	0	1666187264	39	4058
2026-01-23 03:11:19.53	59.60	33.53	-34.8	-35.7	23.2	0.00e+00	0	41	0	1672478720	39	4101
2026-01-23 03:11:20.66	59.95	33.68	-34.7	-35.5	23.3	0.00e+00	0	41	0	1680867328	39	4027
2026-01-23 03:11:21.52	60.21	33.79	-34.6	-35.5	23.4	0.00e+00	0	41	0	1687158784	39	4005
2026-01-23 03:11:22.66	60.57	33.93	-34.4	-35.2	23.6	0.00e+00	0	41	0	1695547392	39	3897
2026-01-23 03:11:23.51	60.84	34.04	-34.3	-35.1	23.7	0.00e+00	0	41	0	1701838848	39	3859
2026-01-23 03:11:24.64	61.20	34.19	-34.4	-35.2	23.6	0.00e+00	0	41	0	1710227456	39	3870
2026-01-23 03:11:25.49	61.47	34.29	-34.4	-35.2	23.6	0.00e+00	0	41	0	1715470336	39	3897
2026-01-23 03:11:26.63	61.84	34.44	-34.3	-35.1	23.7	0.00e+00	0	41	0	1723858944	39	3849
2026-01-23 03:11:27.48	62.11	34.54	-34.5	-35.3	23.5	0.00e+00	0	41	0	1730150400	39	3954
2026-01-23 03:11:28.62	62.49	34.69	-34.6	-35.4	23.4	0.00e+00	0	41	0	1738539008	39	3977
2026-01-23 03:11:29.69	62.84	34.82	-34.6	-35.5	23.4	0.00e+00	0	42	0	1745879040	39	4006
2026-01-23 03:11:30.72	63.19	34.95	-34.5	-35.3	23.4	0.00e+00	0	41	0	1753219072	39	3953
2026-01-23 03:11:31.89	63.58	35.09	-34.5	-35.3	23.5	0.00e+00	0	41	0	1762656256	39	3949
2026-01-23 03:11:32.74	63.87	35.19	-34.4	-35.2	23.6	0.00e+00	0	41	0	1767899136	39	3910
2026-01-23 03:11:34.08	64.32	35.36	-34.4	-35.2	23.6	0.00e+00	0	41	0	1778384896	39	3888
2026-01-23 03:11:34.79	64.57	35.44	-34.5	-35.3	23.5	0.00e+00	0	41	0	1782579200	39	3929
2026-01-23 03:11:36.07	65.01	35.60	-34.5	-35.4	23.5	0.00e+00	0	41	0	1792016384	39	3959
2026-01-23 03:11:36.78	65.26	35.68	-34.6	-35.4	23.4	0.00e+00	0	41	0	1797259264	39	3970
2026-01-23 03:11:38.06	65.71	35.84	-34.5	-35.3	23.5	0.00e+00	0	41	0	1806696448	39	3924
2026-01-23 03:11:38.81	65.98	35.92	-34.5	-35.3	23.5	0.00e+00	0	41	0	1811939328	39	3919
2026-01-23 03:11:40.09	66.43	36.08	-34.4	-35.2	23.6	0.00e+00	0	41	0	1821376512	39	3894
2026-01-23 03:11:40.79	66.68	36.16	-34.5	-35.3	23.5	0.00e+00	0	41	0	1826619392	39	3946
2026-01-23 03:11:42.09	67.15	36.31	-34.7	-35.5	23.3	0.00e+00	0	41	0	1836056576	39	4029
2026-01-23 03:11:42.91	67.45	36.40	-34.6	-35.4	23.4	0.00e+00	0	41	0	1841299456	39	3990
2026-01-23 03:11:44.05	67.87	36.53	-34.6	-35.4	23.5	0.00e+00	0	41	0	1849688064	39	3988
2026-01-23 03:11:44.90	68.19	36.63	-34.6	-35.4	23.4	0.00e+00	0	41	0	1855979520	39	3969
2026-01-23 03:11:46.04	68.61	36.76	-34.6	-35.4	23.4	0.00e+00	0	41	0	1864368128	39	3968
2026-01-23 03:11:46.89	68.93	36.85	-34.5	-35.3	23.5	0.00e+00	0	41	0	1870659584	39	3931
2026-01-23 03:11:48.03	69.36	36.98	-34.4	-35.2	23.6	0.00e+00	0	41	0	1877999616	39	3909
2026-01-23 03:11:48.88	69.68	37.07	-34.3	-35.1	23.7	0.00e+00	0	41	0	1885339648	39	3857
2026-01-23 03:11:50.05	70.13	37.20	-34.3	-35.1	23.7	0.00e+00	0	41	0	1892679680	39	3845
2026-01-23 03:11:50.90	70.45	37.29	-34.2	-35.0	23.7	0.00e+00	0	41	0	1898971136	39	3814
2026-01-23 03:11:52.10	70.92	37.42	-34.3	-35.2	23.7	0.00e+00	0	41	0	1908408320	39	3870
2026-01-23 03:11:53.37	71.42	37.55	-34.4	-35.2	23.6	0.00e+00	0	41	0	1916796928	39	3886
2026-01-23 03:11:54.17	71.73	37.63	-34.4	-35.2	23.6	0.00e+00	0	41	0	1923088384	39	3902
2026-01-23 03:11:55.30	72.18	37.75	-34.6	-35.4	23.4	0.00e+00	0	41	0	1931476992	39	3992
2026-01-23 03:11:56.16	72.52	37.84	-34.7	-35.5	23.4	0.00e+00	0	41	0	1936719872	39	4024
2026-01-23 03:11:57.29	72.97	37.95	-34.7	-35.5	23.3	0.00e+00	0	41	0	1945108480	39	4024
2026-01-23 03:11:58.15	73.32	38.03	-34.6	-35.4	23.4	0.00e+00	0	41	0	1951399936	39	4003
2026-01-23 03:11:59.32	73.79	38.15	-34.7	-35.5	23.3	0.00e+00	0	41	0	1959788544	39	4039
2026-01-23 03:12:00.17	74.14	38.23	-34.6	-35.4	23.4	0.00e+00	0	41	0	1966080000	39	3997
2026-01-23 03:12:01.31	74.60	38.34	-34.8	-35.6	23.3	0.00e+00	0	41	0	1974468608	39	4064
2026-01-23 03:12:02.16	74.95	38.42	-34.9	-35.7	23.2	0.00e+00	0	41	0	1980760064	39	4131
2026-01-23 03:12:03.42	75.48	38.53	-34.9	-35.8	23.1	0.00e+00	0	41	0	1989148672	39	4163
2026-01-23 03:12:04.24	75.82	38.61	-35.0	-35.8	23.1	0.00e+00	0	41	0	1995440128	39	4173
2026-01-23 03:12:05.38	76.30	38.71	-34.8	-35.6	23.2	0.00e+00	0	41	0	2003828736	39	4088
2026-01-23 03:12:06.23	76.66	38.78	-34.5	-35.3	23.5	0.00e+00	0	41	0	2010120192	39	3956
2026-01-23 03:12:07.51	77.20	38.90	-34.3	-35.1	23.7	0.00e+00	0	41	0	2019557376	39	3831
2026-01-23 03:12:08.25	77.51	38.96	-34.2	-35.0	23.8	0.00e+00	0	41	0	2024800256	39	3793
2026-01-23 03:12:09.53	78.06	39.06	-34.3	-35.1	23.7	0.00e+00	0	41	0	2033188864	38	4072
2026-01-23 03:12:10.24	78.37	39.12	-34.4	-35.2	23.7	0.00e+00	0	41	0	2039480320	38	4105
2026-01-23 03:12:11.76	79.03	39.24	-34.7	-35.5	23.3	0.00e+00	0	41	0	2049966080	38	4275
2026-01-23 03:12:12.47	79.34	39.30	-34.8	-35.6	23.3	0.00e+00	0	41	0	2055208960	38	4315
2026-01-23 03:12:13.74	79.89	39.40	-34.7	-35.5	23.4	0.00e+00	0	41	0	2064646144	38	4267
2026-01-23 03:12:14.47	80.21	39.45	-34.5	-35.3	23.5	0.00e+00	0	41	0	2068840448	38	4165
2026-01-23 03:12:15.75	80.78	39.54	-34.4	-35.2	23.6	0.00e+00	0	41	0	2078277632	38	4135
2026-01-23 03:12:16.49	81.11	39.60	-34.4	-35.2	23.6	0.00e+00	0	41	0	2084569088	38	4120
2026-01-23 03:12:17.77	81.68	39.69	-34.6	-35.4	23.4	0.00e+00	0	41	0	2092957696	38	4219
2026-01-23 03:12:18.49	82.00	39.73	-34.7	-35.5	23.4	0.00e+00	0	41	0	2098200576	38	4264
2026-01-23 03:12:19.77	82.57	39.82	-34.8	-35.6	23.3	0.00e+00	0	41	0	2107637760	39	4083
2026-01-23 03:12:20.49	82.90	39.86	-34.9	-35.7	23.2	0.00e+00	0	41	0	2112880640	39	4121
2026-01-23 03:12:21.77	83.48	39.94	-34.7	-35.5	23.3	0.00e+00	0	41	0	2122317824	39	4036
2026-01-23 03:12:22.48	83.80	39.99	-34.5	-35.3	23.5	0.00e+00	0	41	0	2127560704	39	3940
2026-01-23 03:12:23.76	84.38	40.06	-34.2	-35.0	23.8	0.00e+00	0	41	0	2135949312	39	3798
2026-01-23 03:12:24.59	84.76	40.11	-34.3	-35.1	23.7	0.00e+00	0	41	0	2142240768	39	3833
2026-01-23 03:12:25.73	85.29	40.17	-34.3	-35.1	23.7	0.00e+00	0	41	0	2150629376	39	3859
2026-01-23 03:12:26.58	85.68	40.22	-34.4	-35.2	23.6	0.00e+00	0	41	0	2156920832	39	3897
2026-01-23 03:12:27.72	86.21	40.27	-34.4	-35.2	23.7	0.00e+00	0	41	0	2165309440	39	3874
2026-01-23 03:12:28.82	86.72	40.33	-34.5	-35.3	23.6	0.00e+00	0	41	0	2172649472	39	3938
2026-01-23 03:12:29.68	87.12	40.37	-34.6	-35.4	23.4	0.00e+00	0	41	0	2178940928	39	3984
2026-01-23 03:12:31.18	87.82	40.43	-34.8	-35.6	23.2	0.00e+00	0	41	0	2189426688	39	4095
2026-01-23 03:12:31.89	88.15	40.46	-34.8	-35.7	23.2	0.00e+00	0	41	0	2195718144	39	4115
2026-01-23 03:12:33.16	88.74	40.51	-34.9	-35.7	23.2	0.00e+00	0	41	0	2204106752	39	4129
2026-01-23 03:12:33.87	89.08	40.54	-34.9	-35.7	23.2	0.00e+00	0	41	0	2209349632	39	4129
2026-01-23 03:12:35.15	89.68	40.59	-34.9	-35.8	23.0	0.00e+00	0	41	0	2218786816	39	4162
2026-01-23 03:12:35.86	90.02	40.61	-35.0	-35.8	23.1	0.00e+00	0	41	0	2224029696	39	4175
2026-01-23 03:12:37.14	90.62	40.65	-35.1	-35.9	23.0	0.00e+00	0	41	0	2233466880	39	4233
2026-01-23 03:12:37.98	91.02	40.67	-35.0	-35.9	23.0	0.00e+00	0	41	0	2238709760	39	4213
2026-01-23 03:12:39.11	91.56	40.70	-35.0	-35.9	23.0	0.00e+00	0	41	0	2247098368	39	4209
2026-01-23 03:12:39.97	91.97	40.73	-35.0	-35.9	23.0	0.00e+00	0	41	0	2253389824	39	4211
2026-01-23 03:12:41.10	92.51	40.75	-35.0	-35.9	23.0	0.00e+00	0	41	0	2261778432	39	4203
2026-01-23 03:12:41.96	92.92	40.77	-35.0	-35.8	23.1	0.00e+00	0	41	0	2268069888	39	4171
2026-01-23 03:12:43.09	93.46	40.79	-34.8	-35.6	23.2	0.00e+00	0	41	0	2276458496	39	4093
2026-01-23 03:12:43.95	93.87	40.80	-34.7	-35.5	23.3	0.00e+00	0	41	0	2282749952	39	4048
2026-01-23 03:12:45.08	94.41	40.82	-34.6	-35.4	23.4	0.00e+00	0	41	0	2290089984	39	4001
2026-01-23 03:12:45.94	94.82	40.83	-34.7	-35.5	23.4	0.00e+00	0	41	0	2296381440	39	4028
2026-01-23 03:12:47.15	95.40	40.84	-34.7	-35.5	23.3	0.00e+00	0	41	0	2305818624	39	4044
2026-01-23 03:12:48.00	95.81	40.85	-34.7	-35.5	23.3	0.00e+00	0	41	0	2311061504	39	4031
2026-01-23 03:12:49.14	96.36	40.85	-34.7	-35.5	23.3	0.00e+00	0	41	0	2319450112	39	4022
2026-01-23 03:12:49.99	96.76	40.86	-34.7	-35.5	23.4	0.00e+00	0	41	0	2325741568	39	4037
2026-01-23 03:12:51.13	97.31	40.86	-34.6	-35.4	23.4	0.00e+00	0	42	0	2334130176	39	3999
2026-01-23 03:12:52.00	97.73	40.86	-34.7	-35.5	23.4	0.00e+00	0	41	0	2340421632	39	4032
2026-01-23 03:12:53.14	98.28	40.85	-34.8	-35.6	23.3	0.00e+00	0	41	0	2348810240	39	4071
2026-01-23 03:12:53.99	98.68	40.85	-34.9	-35.7	23.2	0.00e+00	0	41	0	2355101696	39	4118
2026-01-23 03:12:55.13	99.23	40.84	-35.0	-35.9	23.1	0.00e+00	0	41	0	2362441728	39	4196
2026-01-23 03:12:56.14	99.72	40.83	-35.1	-36.0	22.9	0.00e+00	0	41	0	2370830336	39	4246
2026-01-23 03:12:57.13	100.19	40.82	-35.2	-36.1	22.9	0.00e+00	0	41	0	2377121792	39	4302
2026-01-23 03:12:58.13	100.67	40.80	-35.1	-35.9	22.9	0.00e+00	0	41	0	2384461824	40	4002
2026-01-23 03:12:59.12	101.14	40.78	-35.1	-35.9	22.9	0.00e+00	0	41	0	2391801856	40	3988
2026-01-23 03:13:00.43	101.77	40.76	-34.8	-35.6	23.2	0.00e+00	0	41	0	2401239040	40	3847
2026-01-23 03:13:01.19	102.13	40.74	-34.7	-35.5	23.3	0.00e+00	0	41	0	2406481920	39	4028
2026-01-23 03:13:02.79	102.89	40.70	-34.6	-35.4	23.4	0.00e+00	0	41	0	2418016256	39	4002
2026-01-23 03:13:03.35	103.16	40.69	-34.7	-35.5	23.4	0.00e+00	0	41	0	2422210560	39	4016
2026-01-23 03:13:05.06	103.97	40.64	-34.7	-35.5	23.3	0.00e+00	0	41	0	2434793472	39	4048
2026-01-23 03:13:05.63	104.24	40.62	-34.7	-35.5	23.3	0.00e+00	0	41	0	2438987776	39	4050
2026-01-23 03:13:07.33	105.04	40.56	-34.6	-35.4	23.4	0.00e+00	0	41	0	2451570688	39	3993
2026-01-23 03:13:07.90	105.31	40.54	-34.5	-35.3	23.6	0.00e+00	0	41	0	2454716416	39	3922
2026-01-23 03:13:09.61	106.12	40.48	-34.6	-35.4	23.4	0.00e+00	0	41	0	2467299328	39	3965
2026-01-23 03:13:10.34	106.46	40.45	-34.6	-35.4	23.4	0.00e+00	0	41	0	2472542208	39	3979
2026-01-23 03:13:11.61	107.05	40.39	-34.7	-35.5	23.4	0.00e+00	0	42	0	2481979392	39	4037
2026-01-23 03:13:12.32	107.39	40.36	-34.7	-35.5	23.3	0.00e+00	0	41	0	2487222272	39	4049
2026-01-23 03:13:13.60	107.98	40.30	-34.7	-35.5	23.4	0.00e+00	0	41	0	2496659456	39	4033
2026-01-23 03:13:14.60	108.44	40.25	-34.5	-35.2	23.6	0.00e+00	0	41	0	2503999488	39	3913
2026-01-23 03:13:15.60	108.91	40.20	-34.5	-35.3	23.5	0.00e+00	0	41	0	2510290944	39	3953
2026-01-23 03:13:16.59	109.36	40.14	-34.7	-35.6	23.2	0.00e+00	0	41	0	2517630976	39	4053
2026-01-23 03:13:17.59	109.82	40.09	-35.0	-35.8	23.1	0.00e+00	0	41	0	2524971008	39	4167
2026-01-23 03:13:18.58	110.28	40.03	-35.1	-35.9	23.0	0.00e+00	0	41	0	2532311040	39	4238
2026-01-23 03:13:19.57	110.73	39.97	-35.2	-36.0	22.9	0.00e+00	0	41	0	2539651072	39	4267
2026-01-23 03:13:20.57	111.18	39.91	-35.1	-35.9	23.0	0.00e+00	0	41	0	2545942528	39	4223
2026-01-23 03:13:21.57	111.63	39.85	-34.9	-35.7	23.2	0.00e+00	0	41	0	2553282560	39	4126
2026-01-23 03:13:22.56	112.08	39.78	-34.8	-35.6	23.2	0.00e+00	0	41	0	2560622592	39	4090
2026-01-23 03:13:23.55	112.53	39.72	-34.7	-35.5	23.3	0.00e+00	0	41	0	2567962624	39	4043
2026-01-23 03:13:24.55	112.97	39.65	-34.8	-35.6	23.2	0.00e+00	0	41	0	2575302656	39	4094
2026-01-23 03:13:25.54	113.41	39.58	-35.0	-35.8	23.1	0.00e+00	0	41	0	2582642688	39	4178
2026-01-23 03:13:26.54	113.86	39.51	-35.0	-35.9	23.0	0.00e+00	0	41	0	2589982720	39	4205
2026-01-23 03:13:27.53	114.30	39.43	-35.1	-36.0	22.9	0.00e+00	0	41	0	2597322752	39	4255
2026-01-23 03:13:28.52	114.73	39.36	-35.0	-35.9	23.0	0.00e+00	0	41	0	2603614208	39	4213
2026-01-23 03:13:29.52	115.17	39.28	-34.9	-35.7	23.2	0.00e+00	0	41	0	2610954240	39	4132
2026-01-23 03:13:30.52	115.60	39.20	-34.7	-35.5	23.2	0.00e+00	0	41	0	2618294272	39	4028
2026-01-23 03:13:31.51	116.03	39.12	-34.6	-35.5	23.4	0.00e+00	0	41	0	2625634304	39	4011
2026-01-23 03:13:32.50	116.46	39.04	-34.9	-35.7	23.1	0.00e+00	0	41	0	2632974336	39	4134
2026-01-23 03:13:33.50	116.89	38.96	-35.0	-35.8	23.1	0.00e+00	0	41	0	2640314368	39	4167
2026-01-23 03:13:34.49	117.31	38.87	-35.0	-35.9	23.1	0.00e+00	0	41	0	2647654400	39	4194
2026-01-23 03:13:35.53	117.75	38.78	-35.0	-35.8	23.0	0.00e+00	0	41	0	2654994432	39	4168
2026-01-23 03:13:36.53	118.18	38.70	-35.0	-35.8	23.1	0.00e+00	0	41	0	2661285888	39	4153
2026-01-23 03:13:37.52	118.59	38.61	-34.9	-35.7	23.1	0.00e+00	0	41	0	2668625920	39	4109
2026-01-23 03:13:38.52	119.01	38.52	-34.8	-35.6	23.2	0.00e+00	0	41	0	2675965952	39	4074
2026-01-23 03:13:39.51	119.42	38.43	-34.7	-35.5	23.4	0.00e+00	0	41	0	2683305984	39	4015
2026-01-23 03:13:40.51	119.84	38.33	-34.6	-35.4	23.4	0.00e+00	0	41	0	2690646016	39	4001
2026-01-23 03:13:41.50	120.24	38.24	-34.5	-35.3	23.4	0.00e+00	0	41	0	2697986048	39	3944
2026-01-23 03:13:42.50	120.65	38.14	-34.5	-35.3	23.5	0.00e+00	0	42	0	2705326080	39	3952
2026-01-23 03:13:43.50	121.06	38.04	-34.5	-35.3	23.5	0.00e+00	0	41	0	2711617536	39	3931
2026-01-23 03:13:44.49	121.46	37.94	-34.5	-35.3	23.5	0.00e+00	0	41	0	2718957568	39	3936
2026-01-23 03:13:45.49	121.86	37.84	-34.7	-35.5	23.3	0.00e+00	0	41	0	2726297600	39	4047
2026-01-23 03:13:46.48	122.26	37.74	-34.8	-35.6	23.2	0.00e+00	0	42	0	2733637632	39	4091
2026-01-23 03:13:47.48	122.65	37.64	-34.7	-35.5	23.4	0.00e+00	0	41	0	2740977664	39	4024
2026-01-23 03:13:48.47	123.04	37.54	-34.7	-35.5	23.3	0.00e+00	0	41	0	2748317696	39	4043
2026-01-23 03:13:49.47	123.43	37.43	-34.8	-35.6	23.2	0.00e+00	0	41	0	2754609152	39	4086
2026-01-23 03:13:50.47	123.82	37.32	-34.9	-35.8	23.1	0.00e+00	0	41	0	2761949184	39	4160
2026-01-23 03:13:51.46	124.21	37.22	-34.9	-35.7	23.1	0.00e+00	0	41	0	2769289216	39	4134
2026-01-23 03:13:52.46	124.59	37.11	-34.9	-35.8	23.1	0.00e+00	0	41	0	2776629248	39	4154
2026-01-23 03:13:53.46	124.97	37.00	-35.0	-35.9	23.0	0.00e+00	0	41	0	2783969280	39	4198
2026-01-23 03:13:54.45	125.35	36.89	-34.9	-35.7	23.2	0.00e+00	0	41	0	2791309312	39	4115
2026-01-23 03:13:55.45	125.72	36.78	-34.8	-35.6	23.2	0.00e+00	0	41	0	2798649344	39	4093
2026-01-23 03:13:56.44	126.09	36.67	-34.9	-35.7	23.2	0.00e+00	0	41	0	2805989376	39	4130
2026-01-23 03:13:57.44	126.47	36.55	-34.8	-35.7	23.2	0.00e+00	0	41	0	2813329408	39	4110
2026-01-23 03:13:58.43	126.83	36.44	-34.8	-35.7	23.2	0.00e+00	0	41	0	2819620864	39	4100
2026-01-23 03:13:59.43	127.20	36.33	-34.7	-35.6	23.2	0.00e+00	0	42	0	2826960896	39	4052
2026-01-23 03:14:00.43	127.56	36.21	-34.6	-35.4	23.4	0.00e+00	0	41	0	2834300928	39	3986
2026-01-23 03:14:01.42	127.92	36.09	-34.5	-35.3	23.5	0.00e+00	0	41	0	2841640960	39	3958
2026-01-23 03:14:02.42	128.28	35.98	-34.6	-35.4	23.4	0.00e+00	0	41	0	2848980992	39	3988
2026-01-23 03:14:03.41	128.63	35.86	-34.8	-35.6	23.3	0.00e+00	0	41	0	2855272448	39	4083
2026-01-23 03:14:04.46	129.00	35.73	-34.7	-35.5	23.1	0.00e+00	0	41	0	2863661056	39	4027
2026-01-23 03:14:05.45	129.35	35.61	-34.7	-35.5	23.4	0.00e+00	0	41	0	2871001088	39	4029
2026-01-23 03:14:06.44	129.70	35.49	-34.7	-35.5	23.4	0.00e+00	0	41	0	2877292544	39	4025
2026-01-23 03:14:07.44	130.04	35.37	-34.5	-35.3	23.4	0.00e+00	0	41	0	2884632576	39	3943
2026-01-23 03:14:08.43	130.38	35.25	-34.6	-35.4	23.4	0.00e+00	0	41	0	2891972608	39	3999
2026-01-23 03:14:09.43	130.72	35.13	-34.3	-35.1	23.5	0.00e+00	0	41	0	2899312640	39	3837
2026-01-23 03:14:10.42	131.06	35.01	-34.6	-35.4	23.4	0.00e+00	0	41	0	2906652672	39	3969
2026-01-23 03:14:11.42	131.40	34.88	-34.7	-35.6	23.3	0.00e+00	0	41	0	2913992704	39	4059
2026-01-23 03:14:12.41	131.73	34.76	-34.8	-35.6	23.2	0.00e+00	0	41	0	2920284160	39	4080
2026-01-23 03:14:13.41	132.06	34.63	-34.9	-35.8	23.1	0.00e+00	0	41	0	2927624192	39	4149
2026-01-23 03:14:14.40	132.38	34.51	-35.1	-36.0	22.9	0.00e+00	0	41	0	2934964224	39	4246
2026-01-23 03:14:15.40	132.71	34.38	-35.2	-36.0	22.9	0.00e+00	0	41	0	2942304256	39	4274
2026-01-23 03:14:16.39	133.03	34.26	-35.2	-36.0	22.9	0.00e+00	0	42	0	2949644288	39	4265
2026-01-23 03:14:17.38	133.35	34.13	-35.1	-35.9	23.0	0.00e+00	0	42	0	2956984320	39	4225
2026-01-23 03:14:18.38	133.67	34.00	-35.0	-35.8	23.0	0.00e+00	0	41	0	2964324352	39	4173
2026-01-23 03:14:19.38	133.98	33.87	-34.9	-35.8	23.1	0.00e+00	0	41	0	2970615808	39	4156
2026-01-23 03:14:20.37	134.29	33.75	-34.8	-35.6	23.2	0.00e+00	0	41	0	2977955840	39	4080
2026-01-23 03:14:21.44	134.63	33.61	-34.6	-35.4	23.4	0.00e+00	0	41	0	2986344448	39	3993
2026-01-23 03:14:22.33	134.90	33.49	-34.6	-35.4	23.4	0.00e+00	0	41	0	2992635904	39	3994
2026-01-23 03:14:23.46	135.25	33.35	-34.5	-35.3	23.5	0.00e+00	0	41	0	3001024512	39	3924
2026-01-23 03:14:24.31	135.51	33.24	-34.5	-35.3	23.5	0.00e+00	0	41	0	3006267392	39	3943
2026-01-23 03:14:25.68	135.92	33.06	-34.6	-35.4	23.4	0.00e+00	0	41	0	3016753152	39	3975
2026-01-23 03:14:26.40	136.13	32.96	-34.7	-35.5	23.3	0.00e+00	0	41	0	3021996032	39	4042
2026-01-23 03:14:27.68	136.51	32.80	-34.9	-35.7	23.1	0.00e+00	0	41	0	3030384640	39	4136
2026-01-23 03:14:28.40	136.73	32.70	-35.0	-35.8	23.0	0.00e+00	0	42	0	3036676096	39	4189
2026-01-23 03:14:29.68	137.10	32.53	-35.2	-36.0	22.9	0.00e+00	0	41	0	3046113280	39	4282
2026-01-23 03:14:30.41	137.31	32.44	-35.2	-36.1	22.7	0.00e+00	0	42	0	3050307584	40	4052
2026-01-23 03:14:31.68	137.68	32.27	-35.2	-36.0	22.8	0.00e+00	0	42	0	3059744768	40	4051
2026-01-23 03:14:32.50	137.91	32.16	-35.2	-36.0	22.8	0.00e+00	0	41	0	3066036224	40	4035
2026-01-23 03:14:33.64	138.23	32.01	-35.0	-35.9	23.0	0.00e+00	0	41	0	3074424832	40	3960
2026-01-23 03:14:34.70	138.53	31.87	-35.0	-35.8	23.0	0.00e+00	0	41	0	3081764864	40	3937
2026-01-23 03:14:35.75	138.82	31.73	-35.0	-35.8	22.9	0.00e+00	0	41	0	3089104896	40	3941
2026-01-23 03:14:36.77	139.10	31.60	-34.7	-35.6	23.2	0.00e+00	0	41	0	3096444928	40	3830
2026-01-23 03:14:37.76	139.37	31.47	-34.7	-35.5	23.3	0.00e+00	0	42	0	3103784960	39	4028
2026-01-23 03:14:38.96	139.70	31.31	-34.7	-35.5	23.3	0.00e+00	0	41	0	3112173568	39	4017
2026-01-23 03:14:39.84	139.94	31.19	-34.7	-35.5	23.3	0.00e+00	0	41	0	3118465024	39	4029
2026-01-23 03:14:40.98	140.24	31.04	-34.8	-35.6	23.1	0.00e+00	0	41	0	3126853632	39	4088
2026-01-23 03:14:41.90	140.48	30.91	-34.9	-35.8	23.0	0.00e+00	0	41	0	3134193664	39	4159
2026-01-23 03:14:42.89	140.74	30.78	-35.0	-35.9	22.9	0.00e+00	0	42	0	3140485120	39	4211
2026-01-23 03:14:43.89	141.00	30.65	-35.1	-35.9	22.9	0.00e+00	0	41	0	3147825152	39	4232
2026-01-23 03:14:44.88	141.26	30.52	-35.1	-35.9	22.9	0.00e+00	0	41	0	3155165184	39	4218
2026-01-23 03:14:45.88	141.51	30.38	-35.1	-35.9	22.9	0.00e+00	0	41	0	3162505216	39	4226
2026-01-23 03:14:46.87	141.77	30.25	-35.2	-36.0	22.9	0.00e+00	0	41	0	3169845248	39	4281
2026-01-23 03:14:47.87	142.02	30.12	-35.1	-35.9	22.8	0.00e+00	0	41	0	3176136704	39	4228
2026-01-23 03:14:48.86	142.27	29.99	-35.1	-35.9	22.9	0.00e+00	0	42	0	3183476736	39	4239
2026-01-23 03:14:49.86	142.51	29.85	-35.0	-35.9	23.0	0.00e+00	0	42	0	3190816768	39	4198
2026-01-23 03:14:50.85	142.76	29.72	-35.0	-35.8	23.0	0.00e+00	0	41	0	3198156800	39	4171
2026-01-23 03:14:51.86	143.00	29.59	-35.0	-35.9	23.0	0.00e+00	0	41	0	3205496832	39	4196
2026-01-23 03:14:52.89	143.25	29.45	-35.0	-35.8	23.0	0.00e+00	0	42	0	3212836864	39	4178
2026-01-23 03:14:53.88	143.49	29.32	-35.0	-35.8	23.0	0.00e+00	0	42	0	3220176896	39	4181
2026-01-23 03:14:54.94	143.74	29.18	-35.0	-35.8	23.0	0.00e+00	0	41	0	3227516928	39	4185
2026-01-23 03:14:55.84	143.96	29.06	-35.0	-35.9	22.9	0.00e+00	0	41	0	3234856960	39	4205
2026-01-23 03:14:56.95	144.22	28.91	-35.1	-35.9	22.9	0.00e+00	0	42	0	3242196992	39	4225
2026-01-23 03:14:57.80	144.41	28.80	-35.1	-36.0	22.9	0.00e+00	0	42	0	3248488448	39	4247
2026-01-23 03:14:58.94	144.68	28.65	-35.2	-36.0	22.9	0.00e+00	0	42	0	3256877056	39	4266
2026-01-23 03:14:59.79	144.87	28.54	-35.2	-36.1	22.8	0.00e+00	0	42	0	3263168512	39	4293
2026-01-23 03:15:00.93	145.13	28.39	-35.1	-35.9	22.9	0.00e+00	0	41	0	3271557120	39	4211
2026-01-23 03:15:01.78	145.32	28.27	-35.1	-35.9	22.9	0.00e+00	0	41	0	3277848576	39	4238
2026-01-23 03:15:02.92	145.57	28.12	-35.1	-35.9	22.7	0.00e+00	0	41	0	3285188608	39	4216
2026-01-23 03:15:03.77	145.76	28.01	-35.1	-35.9	22.9	0.00e+00	0	41	0	3291480064	39	4231
2026-01-23 03:15:04.94	146.02	27.86	-35.1	-36.0	22.9	0.00e+00	0	41	0	3299868672	39	4249
2026-01-23 03:15:05.79	146.21	27.75	-35.2	-36.0	22.8	0.00e+00	0	41	0	3306160128	39	4266
2026-01-23 03:15:06.93	146.45	27.60	-35.2	-36.1	22.7	0.00e+00	0	42	0	3314548736	40	4067
2026-01-23 03:15:07.79	146.64	27.49	-35.2	-36.1	22.7	0.00e+00	0	41	0	3320840192	40	4075
2026-01-23 03:15:09.03	146.90	27.32	-35.3	-36.2	22.6	0.00e+00	0	42	0	3329228800	40	4112
2026-01-23 03:15:09.88	147.08	27.21	-35.2	-36.1	22.7	0.00e+00	0	42	0	3335520256	40	4055
2026-01-23 03:15:11.10	147.33	27.05	-35.1	-36.0	22.8	0.00e+00	0	41	0	3344957440	40	4026
2026-01-23 03:15:11.95	147.51	26.94	-35.2	-36.0	22.6	0.00e+00	0	41	0	3350200320	40	4051
2026-01-23 03:15:13.15	147.76	26.79	-35.1	-36.0	22.8	0.00e+00	0	42	0	3359637504	40	4031
2026-01-23 03:15:14.40	148.01	26.63	-35.1	-35.9	22.8	0.00e+00	0	41	0	3368026112	40	3997
2026-01-23 03:15:15.42	148.22	26.49	-34.9	-35.8	22.9	0.00e+00	0	42	0	3375366144	40	3922
2026-01-23 03:15:16.42	148.42	26.37	-34.8	-35.7	23.0	0.00e+00	0	42	0	3382706176	40	3880
2026-01-23 03:15:17.41	148.62	26.24	-34.9	-35.8	22.9	0.00e+00	0	42	0	3390046208	40	3920
2026-01-23 03:15:18.41	148.81	26.11	-34.9	-35.7	23.0	0.00e+00	0	41	0	3397386240	40	3894
2026-01-23 03:15:19.41	149.01	25.98	-35.0	-35.9	22.8	0.00e+00	0	41	0	3404726272	40	3974
2026-01-23 03:15:20.40	149.20	25.86	-35.0	-35.8	22.9	0.00e+00	0	41	0	3412066304	40	3938
2026-01-23 03:15:21.40	149.39	25.73	-35.1	-35.9	22.8	0.00e+00	0	41	0	3418357760	40	3988
2026-01-23 03:15:22.39	149.58	25.60	-35.1	-36.0	22.8	0.00e+00	0	41	0	3425697792	40	4017
2026-01-23 03:15:23.39	149.77	25.47	-35.2	-36.0	22.7	0.00e+00	0	41	0	3433037824	40	4047
2026-01-23 03:15:24.38	149.96	25.35	-35.3	-36.1	22.6	0.00e+00	0	41	0	3440377856	40	4093
2026-01-23 03:15:25.38	150.15	25.22	-35.3	-36.1	22.6	0.00e+00	0	42	0	3447717888	40	4093
2026-01-23 03:15:26.37	150.33	25.10	-35.3	-36.2	22.6	0.00e+00	0	41	0	3455057920	40	4099
2026-01-23 03:15:27.37	150.51	24.97	-35.4	-36.3	22.5	0.00e+00	0	41	0	3461349376	40	4146
2026-01-23 03:15:28.44	150.71	24.84	-35.4	-36.2	22.5	0.00e+00	0	41	0	3469737984	40	4142
2026-01-23 03:15:29.32	150.87	24.73	-35.3	-36.1	22.6	0.00e+00	0	41	0	3476029440	40	4086
2026-01-23 03:15:30.63	151.10	24.56	-35.3	-36.1	22.6	0.00e+00	0	42	0	3485466624	40	4081
2026-01-23 03:15:31.34	151.23	24.48	-35.1	-36.0	22.7	0.00e+00	0	42	0	3490709504	40	4016
2026-01-23 03:15:32.83	151.49	24.29	-35.0	-35.8	22.8	0.00e+00	0	42	0	3501195264	40	3956
2026-01-23 03:15:33.54	151.62	24.20	-35.0	-35.8	22.7	0.00e+00	0	41	0	3506438144	40	3942
2026-01-23 03:15:34.82	151.84	24.04	-35.1	-35.9	22.8	0.00e+00	0	42	0	3515875328	40	3980
2026-01-23 03:15:35.53	151.96	23.96	-35.0	-35.9	22.8	0.00e+00	0	42	0	3520069632	40	3975
2026-01-23 03:15:36.81	152.18	23.80	-35.1	-35.9	22.8	0.00e+00	0	41	0	3529506816	40	3999
2026-01-23 03:15:37.53	152.30	23.71	-35.2	-36.0	22.7	0.00e+00	0	41	0	3535798272	40	4029
2026-01-23 03:15:38.81	152.52	23.56	-35.2	-36.0	22.6	0.00e+00	0	42	0	3544186880	40	4051
2026-01-23 03:15:39.54	152.64	23.47	-35.2	-36.0	22.7	0.00e+00	0	41	0	3549429760	40	4040
2026-01-23 03:15:40.82	152.85	23.31	-35.3	-36.1	22.6	0.00e+00	0	41	0	3558866944	40	4079
2026-01-23 03:15:41.53	152.97	23.22	-35.3	-36.2	22.6	0.00e+00	0	41	0	3564109824	40	4105
2026-01-23 03:15:42.81	153.18	23.07	-35.3	-36.2	22.6	0.00e+00	0	41	0	3573547008	40	4100
2026-01-23 03:15:43.52	153.29	22.98	-35.3	-36.1	22.6	0.00e+00	0	42	0	3578789888	40	4086
2026-01-23 03:15:44.80	153.50	22.83	-35.2	-36.1	22.6	0.00e+00	0	41	0	3588227072	40	4062
2026-01-23 03:15:45.51	153.61	22.74	-35.2	-36.1	22.6	0.00e+00	0	42	0	3592421376	40	4061
2026-01-23 03:15:46.79	153.82	22.59	-35.2	-36.1	22.6	0.00e+00	0	41	0	3601858560	40	4058
2026-01-23 03:15:47.66	153.95	22.49	-35.1	-36.0	22.7	0.00e+00	0	41	0	3608150016	40	4017
2026-01-23 03:15:49.11	154.18	22.32	-35.1	-36.0	22.7	0.00e+00	0	41	0	3618635776	40	4005
2026-01-23 03:15:49.82	154.29	22.23	-35.1	-35.9	22.8	0.00e+00	0	42	0	3623878656	40	3976
2026-01-23 03:15:51.10	154.49	22.08	-35.1	-35.9	22.7	0.00e+00	0	41	0	3633315840	40	4000
2026-01-23 03:15:51.81	154.60	22.00	-35.2	-36.0	22.7	0.00e+00	0	42	0	3638558720	40	4029
2026-01-23 03:15:53.09	154.79	21.85	-35.3	-36.2	22.5	0.00e+00	0	41	0	3647995904	40	4118
2026-01-23 03:15:53.81	154.90	21.76	-35.4	-36.2	22.4	0.00e+00	0	41	0	3652190208	40	4141
2026-01-23 03:15:55.09	155.09	21.61	-35.4	-36.3	22.4	0.00e+00	0	42	0	3661627392	40	4158
2026-01-23 03:15:55.81	155.20	21.53	-35.6	-36.4	22.3	0.00e+00	0	41	0	3666870272	40	4237
2026-01-23 03:15:57.08	155.38	21.38	-35.6	-36.5	22.3	0.00e+00	0	41	0	3676307456	40	4251
2026-01-23 03:15:57.81	155.49	21.30	-35.7	-36.6	22.1	0.00e+00	0	41	0	3681550336	40	4313
2026-01-23 03:15:59.09	155.67	21.15	-35.7	-36.5	22.2	0.00e+00	0	41	0	3690987520	41	4045
2026-01-23 03:15:59.82	155.78	21.06	-35.6	-36.5	22.2	0.00e+00	0	42	0	3696230400	41	4028
2026-01-23 03:16:01.09	155.96	20.92	-35.7	-36.5	22.2	0.00e+00	0	41	0	3705667584	41	4034
2026-01-23 03:16:01.81	156.06	20.84	-35.6	-36.5	22.2	0.00e+00	0	42	0	3710910464	41	4029
2026-01-23 03:16:03.09	156.24	20.69	-35.7	-36.5	22.2	0.00e+00	0	41	0	3720347648	41	4049
2026-01-23 03:16:03.80	156.34	20.61	-35.5	-36.4	22.2	0.00e+00	0	42	0	3724541952	41	3971
2026-01-23 03:16:05.08	156.52	20.47	-35.5	-36.3	22.3	0.00e+00	0	42	0	3733979136	41	3954
2026-01-23 03:16:05.90	156.63	20.37	-35.5	-36.3	22.4	0.00e+00	0	42	0	3740270592	41	3950
2026-01-23 03:16:07.03	156.79	20.25	-35.4	-36.3	22.4	0.00e+00	0	42	0	3748659200	41	3925
2026-01-23 03:16:07.89	156.90	20.15	-35.4	-36.2	22.4	0.00e+00	0	41	0	3754950656	41	3901
2026-01-23 03:16:09.02	157.06	20.02	-35.5	-36.3	22.4	0.00e+00	0	42	0	3762290688	41	3934
2026-01-23 03:16:09.87	157.17	19.93	-35.5	-36.4	22.3	0.00e+00	0	42	0	3768582144	41	3969
2026-01-23 03:16:11.01	157.32	19.80	-35.5	-36.4	22.3	0.00e+00	0	42	0	3776970752	41	3967
2026-01-23 03:16:11.86	157.43	19.71	-35.6	-36.5	22.2	0.00e+00	0	42	0	3783262208	41	4016
2026-01-23 03:16:13.14	157.60	19.57	-35.7	-36.6	22.1	0.00e+00	0	42	0	3792699392	41	4054
2026-01-23 03:16:13.86	157.70	19.49	-35.7	-36.5	22.2	0.00e+00	0	42	0	3797942272	41	4042
2026-01-23 03:16:15.14	157.86	19.35	-35.8	-36.7	22.0	0.00e+00	0	42	0	3806330880	41	4112
2026-01-23 03:16:15.85	157.95	19.27	-35.9	-36.8	21.9	0.00e+00	0	42	0	3811573760	41	4151
2026-01-23 03:16:17.13	158.12	19.13	-35.9	-36.8	21.9	0.00e+00	0	41	0	3821010944	41	4168
2026-01-23 03:16:17.89	158.21	19.05	-36.0	-36.8	21.8	0.00e+00	0	42	0	3826253824	41	4185
2026-01-23 03:16:19.17	158.37	18.91	-36.0	-36.8	21.8	0.00e+00	0	42	0	3835691008	41	4183
2026-01-23 03:16:19.88	158.46	18.83	-36.0	-36.9	21.8	0.00e+00	0	42	0	3840933888	41	4217
2026-01-23 03:16:21.15	158.62	18.69	-36.0	-36.9	21.8	0.00e+00	0	42	0	3850371072	41	4226
2026-01-23 03:16:21.87	158.71	18.62	-36.0	-36.9	21.8	0.00e+00	0	42	0	3855613952	41	4202
2026-01-23 03:16:23.15	158.87	18.48	-36.0	-36.9	21.7	0.00e+00	0	42	0	3865051136	41	4222
2026-01-23 03:16:23.87	158.95	18.40	-36.1	-36.9	21.7	0.00e+00	0	42	0	3869245440	41	4234
2026-01-23 03:16:25.15	159.11	18.27	-36.0	-36.9	21.8	0.00e+00	0	42	0	3878682624	41	4199
2026-01-23 03:16:25.88	159.19	18.19	-36.1	-37.0	21.7	0.00e+00	0	41	0	3883925504	41	4250
2026-01-23 03:16:27.15	159.35	18.05	-36.0	-36.8	21.8	0.00e+00	0	41	0	3893362688	41	4175
2026-01-23 03:16:27.86	159.43	17.98	-36.0	-36.9	21.8	0.00e+00	0	42	0	3898605568	41	4210
2026-01-23 03:16:29.27	159.60	17.83	-36.1	-37.0	21.7	0.00e+00	0	42	0	3909091328	41	4257
2026-01-23 03:16:29.98	159.68	17.76	-36.2	-37.1	21.6	0.00e+00	0	42	0	3914334208	41	4292
2026-01-23 03:16:31.26	159.83	17.62	-36.1	-37.0	21.7	0.00e+00	0	41	0	3922722816	41	4254
2026-01-23 03:16:31.97	159.91	17.55	-36.1	-37.0	21.7	0.00e+00	0	41	0	3927965696	41	4275
2026-01-23 03:16:33.25	160.05	17.42	-36.2	-37.1	21.6	0.00e+00	0	42	0	3937402880	41	4306
2026-01-23 03:16:33.96	160.14	17.34	-36.1	-37.0	19.1	0.00e+00	0	42	0	3942645760	41	4258
2026-01-23 03:16:35.24	160.28	17.21	-36.0	-36.9	21.7	0.00e+00	0	41	0	3952082944	41	4205
2026-01-23 03:16:36.04	160.37	17.13	-36.0	-36.9	21.8	0.00e+00	0	42	0	3957325824	41	4208
2026-01-23 03:16:37.18	160.50	17.01	-36.1	-37.0	21.7	0.00e+00	0	42	0	3965714432	41	4270
2026-01-23 03:16:38.03	160.59	16.93	-36.1	-37.0	21.7	0.00e+00	0	42	0	3972005888	41	4251
2026-01-23 03:16:39.17	160.72	16.81	-36.2	-37.0	21.6	0.00e+00	0	42	0	3980394496	41	4287
2026-01-23 03:16:40.02	160.81	16.72	-36.3	-37.1	21.6	0.00e+00	0	41	0	3986685952	42	4084
2026-01-23 03:16:41.16	160.93	16.61	-36.2	-37.1	21.6	0.00e+00	0	42	0	3994025984	42	4064
2026-01-23 03:16:42.01	161.02	16.52	-36.2	-37.1	21.6	0.00e+00	0	41	0	4000317440	42	4082
2026-01-23 03:16:43.15	161.15	16.41	-36.3	-37.2	21.5	0.00e+00	0	41	0	4008706048	42	4114
2026-01-23 03:16:44.35	161.27	16.29	-36.4	-37.2	21.4	0.00e+00	0	42	0	4017094656	42	4145
2026-01-23 03:16:45.21	161.36	16.20	-36.5	-37.4	21.4	0.00e+00	0	41	0	4023386112	42	4207
2026-01-23 03:16:46.34	161.48	16.09	-36.5	-37.4	21.3	0.00e+00	0	41	0	4031774720	42	4212
2026-01-23 03:16:47.20	161.57	16.01	-36.6	-37.5	21.2	0.00e+00	0	42	0	4038066176	42	4260
2026-01-23 03:16:48.33	161.69	15.89	-36.6	-37.5	21.2	0.00e+00	0	42	0	4046454784	42	4271
2026-01-23 03:16:49.19	161.78	15.81	-36.7	-37.7	21.0	0.00e+00	0	42	0	4052746240	42	4343
2026-01-23 03:16:50.33	161.89	15.70	-36.7	-37.6	21.1	0.00e+00	0	41	0	4060086272	42	4315
2026-01-23 03:16:51.18	161.98	15.61	-36.8	-37.7	20.0	0.00e+00	0	42	0	4067426304	43	4136
2026-01-23 03:16:52.38	162.10	15.50	-36.9	-37.8	20.9	0.00e+00	0	42	0	4075814912	43	4173
2026-01-23 03:16:53.23	162.19	15.42	-36.9	-37.8	20.8	0.00e+00	0	42	0	4082106368	43	4164
2026-01-23 03:16:54.43	162.31	15.30	-36.9	-37.8	20.9	0.00e+00	0	42	0	4090494976	43	4193
2026-01-23 03:16:55.29	162.39	15.22	-36.9	-37.8	20.9	0.00e+00	0	42	0	4096786432	43	4182
2026-01-23 03:16:56.42	162.50	15.11	-36.9	-37.9	20.8	0.00e+00	0	41	0	4104126464	43	4197
2026-01-23 03:16:57.27	162.59	15.03	-37.0	-38.0	20.8	0.00e+00	0	42	0	4110417920	43	4243
2026-01-23 03:16:58.41	162.70	14.92	-36.9	-37.9	20.8	0.00e+00	0	42	0	4118806528	43	4207
2026-01-23 03:16:59.27	162.78	14.83	-37.0	-37.9	20.8	0.00e+00	0	41	0	4125097984	43	4231
2026-01-23 03:17:00.61	162.91	14.71	-37.0	-38.0	20.7	0.00e+00	0	42	0	4134535168	43	4248
2026-01-23 03:17:01.32	162.98	14.64	-37.0	-38.0	20.7	0.00e+00	0	41	0	4139778048	43	4261
2026-01-23 03:17:02.60	163.10	14.52	-37.0	-37.9	20.7	0.00e+00	0	42	0	4149215232	43	4229
2026-01-23 03:17:03.34	163.17	14.45	-36.9	-37.9	20.8	0.00e+00	0	42	0	4154458112	43	4204
2026-01-23 03:17:04.61	163.29	14.33	-37.0	-37.9	20.8	0.00e+00	0	42	0	4163895296	43	4211
2026-01-23 03:17:05.40	163.36	14.26	-37.1	-38.0	20.7	0.00e+00	0	42	0	4169138176	43	4267
2026-01-23 03:17:06.59	163.47	14.15	-37.0	-37.9	20.8	0.00e+00	0	42	0	4178575360	43	4232
2026-01-23 03:17:07.62	163.57	14.05	-37.0	-37.9	20.8	0.00e+00	0	41	0	4185915392	43	4205
2026-01-23 03:17:08.78	163.67	13.94	-37.0	-38.0	20.7	0.00e+00	0	41	0	4194304000	43	4249
2026-01-23 03:17:09.64	163.75	13.86	-37.1	-38.0	20.7	0.00e+00	0	41	0	4200595456	43	4261
2026-01-23 03:17:10.77	163.85	13.76	-37.1	-38.0	20.7	0.00e+00	0	42	0	4207935488	43	4281
2026-01-23 03:17:11.70	163.93	13.67	-37.1	-38.0	20.7	0.00e+00	0	42	0	4215275520	43	4258
2026-01-23 03:17:12.87	164.04	13.57	-37.1	-38.1	20.6	0.00e+00	0	42	0	4223664128	43	4292
2026-01-23 03:17:13.72	164.11	13.49	-37.1	-38.1	20.6	0.00e+00	0	42	0	4229955584	43	4302
2026-01-23 03:17:14.86	164.21	13.39	-37.2	-38.1	20.5	0.00e+00	0	42	0	4237295616	43	4338
2026-01-23 03:17:15.71	164.29	13.31	-37.2	-38.2	20.5	0.00e+00	0	41	0	4243587072	43	4356
2026-01-23 03:17:16.85	164.39	13.21	-37.3	-38.2	20.4	0.00e+00	0	42	0	4251975680	43	4380
2026-01-23 03:17:17.70	164.46	13.13	-37.5	-38.4	20.4	0.00e+00	0	42	0	4258267136	44	4241
2026-01-23 03:17:18.84	164.56	13.03	-37.5	-38.5	20.3	0.00e+00	0	42	0	4266655744	44	4265
2026-01-23 03:17:19.69	164.63	12.95	-37.5	-38.5	20.3	0.00e+00	0	41	0	4272947200	44	4284
2026-01-23 03:17:20.83	164.73	12.85	-37.6	-38.6	20.2	0.00e+00	0	42	0	4281335808	44	4313
2026-01-23 03:17:21.68	164.80	12.77	-37.7	-38.7	20.2	0.00e+00	0	42	0	4287627264	44	4348
2026-01-23 03:17:22.82	164.90	12.67	-37.7	-38.7	20.1	0.00e+00	0	42	0	4294967296	44	4347
2026-01-23 03:17:23.67	164.97	12.60	-37.7	-38.7	20.1	0.00e+00	0	42	0	4301258752	44	4367
2026-01-23 03:17:24.81	165.06	12.50	-37.8	-38.8	20.1	0.00e+00	0	42	0	4309647360	44	4400
2026-01-23 03:17:25.66	165.13	12.42	-37.7	-38.7	20.1	0.00e+00	0	42	0	4315938816	45	4144
2026-01-23 03:17:27.00	165.24	12.31	-37.8	-38.8	20.0	0.00e+00	0	42	0	4325376000	45	4180
2026-01-23 03:17:27.71	165.30	12.24	-37.8	-38.8	20.0	0.00e+00	0	42	0	4330618880	45	4168
2026-01-23 03:17:29.21	165.42	12.11	-37.8	-38.8	20.0	0.00e+00	0	41	0	4341104640	45	4169
2026-01-23 03:17:30.16	165.50	12.03	-37.8	-38.8	20.0	0.00e+00	0	42	0	4348444672	45	4179
2026-01-23 03:17:31.47	165.60	11.92	-37.8	-38.8	20.0	0.00e+00	0	42	0	4357881856	45	4187
2026-01-23 03:17:32.18	165.66	11.86	-37.9	-38.9	19.9	0.00e+00	0	41	0	4363124736	45	4205
2026-01-23 03:17:33.85	165.79	11.71	-37.8	-38.8	20.0	0.00e+00	0	42	0	4374659072	45	4181
2026-01-23 03:17:34.42	165.84	11.66	-37.8	-38.8	20.0	0.00e+00	0	42	0	4378853376	45	4182
2026-01-23 03:17:36.13	165.97	11.52	-37.9	-38.9	19.9	0.00e+00	0	42	0	4391436288	45	4199
2026-01-23 03:17:36.74	166.02	11.47	-38.0	-39.0	19.8	0.00e+00	0	42	0	4395630592	45	4258
2026-01-23 03:17:38.31	166.14	11.33	-38.0	-39.0	19.8	0.00e+00	0	42	0	4407164928	45	4252
2026-01-23 03:17:38.95	166.19	11.28	-38.0	-39.1	19.8	0.00e+00	0	42	0	4411359232	45	4302
2026-01-23 03:17:40.37	166.30	11.16	-38.0	-39.0	19.8	2.31e-03	0	42	0	4421844992	45	4282
2026-01-23 03:17:41.08	166.35	11.10	-38.0	-39.0	19.8	0.00e+00	0	42	0	4427087872	45	4289
2026-01-23 03:17:42.36	166.45	10.99	-38.0	-39.0	19.7	0.00e+00	0	41	0	4436525056	45	4284
2026-01-23 03:17:43.07	166.50	10.93	-38.0	-39.0	19.7	0.00e+00	0	42	0	4441767936	45	4288
2026-01-23 03:17:44.35	166.60	10.83	-38.0	-39.0	19.8	0.00e+00	0	42	0	4451205120	45	4267
2026-01-23 03:17:45.07	166.65	10.77	-38.1	-39.2	19.6	0.00e+00	0	42	0	4455399424	45	4343
2026-01-23 03:17:46.75	166.77	10.63	-38.0	-39.1	19.7	0.00e+00	0	42	0	4467982336	45	4324
2026-01-23 03:17:47.32	166.81	10.58	-38.0	-39.1	19.7	0.00e+00	0	42	0	4472176640	45	4302
2026-01-23 03:17:49.02	166.94	10.44	-38.0	-39.2	19.6	0.00e+00	0	42	0	4484759552	45	4348
2026-01-23 03:17:49.59	166.98	10.40	-38.0	-39.1	19.6	0.00e+00	0	42	0	4488953856	45	4339
2026-01-23 03:17:51.30	167.10	10.26	-38.0	-39.2	19.5	0.00e+00	0	42	0	4500488192	45	4370
2026-01-23 03:17:51.87	167.14	10.21	-38.0	-39.2	19.6	4.00e-05	0	42	0	4504682496	45	4352
2026-01-23 03:17:53.57	167.26	10.07	-38.1	-39.3	19.4	0.00e+00	0	42	0	4517265408	45	4425
2026-01-23 03:17:54.14	167.30	10.03	-38.1	-39.3	19.4	0.00e+00	0	42	0	4521459712	45	4425
2026-01-23 03:17:55.91	167.43	9.88	-38.1	-39.4	19.4	0.00e+00	0	42	0	4534042624	46	4204
2026-01-23 03:17:56.48	167.47	9.84	-38.1	-39.5	19.3	0.00e+00	0	42	0	4538236928	46	4244
2026-01-23 03:17:58.18	167.59	9.70	-38.2	-39.5	19.2	0.00e+00	0	42	0	4550819840	46	4287
2026-01-23 03:17:58.75	167.63	9.66	-38.3	-39.6	19.1	0.00e+00	0	42	0	4555014144	46	4318
2026-01-23 03:18:00.51	167.75	9.52	-38.3	-39.7	19.1	9.75e-03	0	42	0	4567597056	46	4357
2026-01-23 03:18:01.07	167.78	9.47	-38.3	-39.7	19.0	0.00e+00	0	42	0	4570742784	46	4349
2026-01-23 03:18:03.11	167.92	9.31	-38.5	-39.8	18.6	0.00e+00	0	42	0	4586471424	46	4441
2026-01-23 03:18:03.68	167.96	9.27	-38.5	-39.8	18.9	0.00e+00	0	42	0	4590665728	46	4413
2026-01-23 03:18:05.70	168.10	9.11	-38.6	-40.0	18.7	0.00e+00	0	42	0	4604297216	46	4498
2026-01-23 03:18:06.27	168.13	9.06	-38.6	-40.0	18.7	0.00e+00	0	41	0	4608491520	46	4507
2026-01-23 03:18:07.97	168.25	8.93	-45.9	-53.7	6.1	8.35e-05	0	42	0	4621074432	61	9266
2026-01-23 03:18:08.54	168.28	8.89	-48.8	-58.6	3.8	8.48e-01	0	42	104	4621074432	66	12165
2026-01-23 03:18:10.21	168.39	8.76	-49.4	-60.6	3.8	8.47e-01	0	42	104	4621074432	68	13587
2026-01-23 03:18:10.78	168.43	8.71	-49.6	-60.6	3.8	8.47e-01	0	42	104	4621074432	68	13711
2026-01-23 03:18:12.49	168.54	8.58	-49.8	-60.8	3.8	8.47e-01	0	42	104	4621074432	69	13208
2026-01-23 03:18:13.05	168.57	8.54	-50.0	-60.8	3.8	8.47e-01	0	42	104	4621074432	69	13144
2026-01-23 03:18:14.76	168.68	8.41	-50.0	-60.9	3.8	8.47e-01	0	42	104	4621074432	69	13327
2026-01-23 03:18:15.33	168.72	8.37	-50.0	-60.9	3.8	8.47e-01	0	42	104	4621074432	69	13365
