passes_logs/2026/01/23/T1/T1__20260123_022715_NOAA_20_JPSS-1_rec.log

#Pass ID: 20260123_022715_NOAA 20 (JPSS-1)
#Satellite: NOAA 20 (JPSS-1)
#Configuration: NOAA 20
#almurnet v.1.7.20251203
#Start time: 2026-01-23 02:27:15

#Version: 2.0.20230620
#Station: T1
#Location: 37.570604 lon 55.790049 lat
#TLE: 1 43013U 17073A   26022.44900781  .00000193  00000+0  11233-3 0  9999
#TLE: 2 43013  98.7645 323.3100 0001197  28.8413 331.2829 14.19538802423792

#Time	Az	El	Level	Level2	SNR	BER	BlckErr	Temp	State	Recorded	gain1	gain2
2026-01-23 02:27:15.90	359.86	5.02	-47.6	-64.5	3.8	1.49e+00	0	35	0	0	67	24407
2026-01-23 02:27:16.89	359.74	5.06	-45.3	-64.4	3.8	1.49e+00	0	35	104	0	61	33826
2026-01-23 02:27:17.88	359.62	5.10	-45.2	-64.4	3.8	1.49e+00	0	35	104	0	61	33858
2026-01-23 02:27:18.87	359.50	5.14	-45.2	-64.4	3.8	1.49e+00	0	35	104	0	61	33876
2026-01-23 02:27:19.87	359.38	5.18	-45.2	-64.4	3.8	1.49e+00	0	35	104	0	61	33860
2026-01-23 02:27:20.86	359.25	5.22	-45.2	-64.4	3.8	1.49e+00	0	35	104	0	61	33908
2026-01-23 02:27:21.86	359.13	5.27	-45.2	-64.4	3.8	1.49e+00	0	35	104	0	61	33870
2026-01-23 02:27:22.85	359.01	5.31	-45.3	-64.4	3.8	1.49e+00	0	35	104	0	61	33753
2026-01-23 02:27:23.84	358.88	5.35	-45.3	-64.4	3.8	1.49e+00	0	35	104	0	61	33870
2026-01-23 02:27:24.84	358.76	5.39	-45.3	-64.3	3.8	1.49e+00	0	35	104	0	61	33588
2026-01-23 02:27:25.83	358.64	5.43	-45.2	-64.4	3.8	1.49e+00	0	35	104	0	61	33804
2026-01-23 02:27:26.82	358.51	5.47	-45.2	-64.4	3.8	1.49e+00	0	35	104	0	61	33801
2026-01-23 02:27:27.82	358.38	5.51	-45.3	-64.3	3.8	1.49e+00	0	35	104	0	61	33694
2026-01-23 02:27:28.81	358.26	5.55	-45.3	-64.4	3.8	1.49e+00	0	35	104	0	61	33858
2026-01-23 02:27:29.80	358.13	5.59	-45.3	-64.4	3.8	1.49e+00	0	35	104	0	61	33815
2026-01-23 02:27:30.80	358.01	5.63	-45.2	-64.4	3.8	1.49e+00	0	35	104	0	61	33713
2026-01-23 02:27:31.79	357.88	5.68	-45.2	-64.4	3.8	1.49e+00	0	35	104	0	61	33813
2026-01-23 02:27:32.78	357.75	5.72	-45.2	-64.4	3.8	1.49e+00	0	36	104	0	61	33909
2026-01-23 02:27:33.78	357.63	5.76	-45.3	-64.4	3.8	1.49e+00	0	35	104	0	61	33854
2026-01-23 02:27:34.77	357.50	5.80	-45.2	-64.4	3.8	1.49e+00	0	36	104	0	61	33744
2026-01-23 02:27:35.76	357.37	5.84	-45.3	-64.4	3.8	1.49e+00	0	35	104	0	61	33725
2026-01-23 02:27:36.76	357.24	5.88	-45.3	-64.3	3.8	1.49e+00	0	36	104	0	61	33653
2026-01-23 02:27:37.75	357.11	5.92	-45.2	-64.4	3.8	1.49e+00	0	36	104	0	61	33713
2026-01-23 02:27:38.74	356.98	5.96	-45.2	-64.3	3.8	1.49e+00	0	36	104	0	61	33655
2026-01-23 02:27:39.74	356.85	6.00	-45.3	-64.4	3.8	1.49e+00	0	36	104	0	61	33879
2026-01-23 02:27:40.73	356.72	6.04	-45.3	-64.4	3.8	1.49e+00	0	36	104	0	61	33738
2026-01-23 02:27:41.72	356.59	6.08	-45.3	-64.4	3.8	1.49e+00	0	36	104	0	61	33775
2026-01-23 02:27:42.72	356.46	6.12	-45.2	-64.4	3.8	1.49e+00	0	36	104	0	61	33732
2026-01-23 02:27:43.71	356.33	6.16	-45.2	-64.4	3.8	1.49e+00	0	36	104	0	61	33728
2026-01-23 02:27:44.71	356.20	6.20	-45.2	-64.4	3.8	1.49e+00	0	36	104	0	61	33735
2026-01-23 02:27:45.70	356.07	6.24	-45.2	-64.4	3.8	1.49e+00	0	36	104	0	61	33832
2026-01-23 02:27:46.69	355.94	6.28	-45.2	-64.4	3.8	1.49e+00	0	36	104	0	61	33697
2026-01-23 02:27:47.69	355.80	6.32	-45.2	-64.4	3.8	1.49e+00	0	36	104	0	61	33700
2026-01-23 02:27:48.68	355.67	6.35	-45.2	-64.3	3.8	1.49e+00	0	36	104	0	61	33693
2026-01-23 02:27:49.67	355.54	6.39	-45.3	-64.4	3.8	1.49e+00	0	36	104	0	61	33817
2026-01-23 02:27:50.67	355.40	6.43	-45.3	-64.4	3.8	1.49e+00	0	36	104	0	61	33726
2026-01-23 02:27:51.66	355.27	6.47	-45.2	-64.4	3.8	1.49e+00	0	36	104	0	61	33737
2026-01-23 02:27:52.65	355.14	6.51	-45.3	-64.3	3.8	1.49e+00	0	36	104	0	61	33619
2026-01-23 02:27:53.65	355.00	6.55	-45.3	-64.4	3.8	1.49e+00	0	36	104	0	61	33793
2026-01-23 02:27:54.64	354.87	6.59	-45.3	-64.3	3.8	1.49e+00	0	36	104	0	61	33662
2026-01-23 02:27:55.63	354.73	6.63	-45.3	-64.3	3.8	1.49e+00	0	36	104	0	61	33593
2026-01-23 02:27:56.63	354.59	6.67	-45.3	-64.3	3.8	1.49e+00	0	36	104	0	61	33677
2026-01-23 02:27:57.62	354.46	6.70	-45.3	-64.3	3.8	1.49e+00	0	36	104	0	61	33616
2026-01-23 02:27:58.61	354.32	6.74	-45.3	-64.3	3.8	1.49e+00	0	36	104	0	61	33647
2026-01-23 02:27:59.61	354.18	6.78	-45.2	-64.3	3.8	1.49e+00	0	36	104	0	61	33685
2026-01-23 02:28:00.60	354.05	6.82	-45.2	-64.3	3.8	1.49e+00	0	36	104	0	61	33584
2026-01-23 02:28:01.59	353.91	6.86	-45.3	-64.3	3.8	1.49e+00	0	36	104	0	61	33609
2026-01-23 02:28:02.59	353.77	6.90	-45.3	-64.4	3.8	1.49e+00	0	37	104	0	61	33728
2026-01-23 02:28:03.58	353.63	6.93	-45.3	-64.4	3.8	1.49e+00	0	36	104	0	61	33710
2026-01-23 02:28:04.57	353.49	6.97	-45.2	-64.4	3.8	1.49e+00	0	37	104	0	61	33737
2026-01-23 02:28:05.57	353.35	7.01	-45.3	-64.4	3.8	1.49e+00	0	37	104	0	61	33776
2026-01-23 02:28:06.56	353.22	7.05	-45.3	-64.4	3.8	1.49e+00	0	36	104	0	61	33724
2026-01-23 02:28:07.55	353.08	7.08	-45.2	-64.3	3.8	1.49e+00	0	36	104	0	61	33594
2026-01-23 02:28:08.55	352.93	7.12	-45.2	-64.3	3.8	1.49e+00	0	36	104	0	61	33690
2026-01-23 02:28:09.54	352.79	7.16	-45.3	-64.4	3.8	1.49e+00	0	37	104	0	61	33764
2026-01-23 02:28:10.53	352.65	7.20	-45.2	-64.4	3.8	1.49e+00	0	37	104	0	61	33751
2026-01-23 02:28:11.53	352.51	7.23	-45.2	-64.4	3.8	1.49e+00	0	36	104	0	61	33727
2026-01-23 02:28:12.52	352.37	7.27	-45.2	-64.4	3.8	1.49e+00	0	37	104	0	61	33726
2026-01-23 02:28:13.51	352.23	7.31	-45.2	-64.4	3.8	1.49e+00	0	37	104	0	61	33719
2026-01-23 02:28:14.51	352.09	7.34	-45.2	-64.3	3.8	1.49e+00	0	37	104	0	61	33590
2026-01-23 02:28:15.50	351.94	7.38	-45.2	-64.3	3.8	1.49e+00	0	37	104	0	61	33677
2026-01-23 02:28:16.49	351.80	7.42	-45.2	-64.3	3.8	1.49e+00	0	37	104	0	61	33652
2026-01-23 02:28:17.49	351.66	7.45	-45.3	-64.4	3.8	1.49e+00	0	37	104	0	61	33727
2026-01-23 02:28:18.48	351.51	7.49	-45.3	-64.3	3.8	1.49e+00	0	37	104	0	61	33596
2026-01-23 02:28:19.47	351.37	7.53	-45.3	-64.3	3.8	1.49e+00	0	37	104	0	61	33560
2026-01-23 02:28:20.46	351.22	7.56	-45.3	-64.3	3.8	1.49e+00	0	37	104	0	61	33553
2026-01-23 02:28:21.46	351.08	7.60	-45.3	-64.3	3.8	1.49e+00	0	37	104	0	61	33403
2026-01-23 02:28:22.45	350.93	7.63	-45.3	-64.3	3.8	1.49e+00	0	37	104	0	61	33421
2026-01-23 02:28:23.44	350.79	7.67	-45.3	-64.2	3.8	1.49e+00	0	37	104	0	61	33284
2026-01-23 02:28:24.44	350.64	7.70	-45.3	-64.3	3.8	1.49e+00	0	37	104	0	61	33400
2026-01-23 02:28:25.43	350.49	7.74	-45.3	-64.3	3.8	1.49e+00	0	37	104	0	61	33384
2026-01-23 02:28:26.42	350.35	7.78	-45.3	-64.3	3.8	1.49e+00	0	37	104	0	61	33579
2026-01-23 02:28:27.42	350.20	7.81	-45.3	-64.4	3.8	1.49e+00	0	37	104	0	61	33725
2026-01-23 02:28:28.41	350.05	7.85	-45.3	-64.4	3.8	1.49e+00	0	37	104	0	61	33733
2026-01-23 02:28:29.40	349.91	7.88	-45.3	-64.4	3.8	1.49e+00	0	37	104	0	61	33821
2026-01-23 02:28:30.40	349.76	7.92	-45.3	-64.4	3.8	1.49e+00	0	37	104	0	61	33740
2026-01-23 02:28:31.39	349.61	7.95	-45.3	-64.4	3.8	1.49e+00	0	37	104	0	61	33747
2026-01-23 02:28:32.38	349.46	7.98	-45.3	-64.4	3.8	1.49e+00	0	37	104	0	61	33792
2026-01-23 02:28:33.37	349.31	8.02	-45.3	-64.3	3.8	1.49e+00	0	37	104	0	61	33657
2026-01-23 02:28:34.37	349.16	8.05	-45.3	-64.3	3.8	1.49e+00	0	37	104	0	61	33443
2026-01-23 02:28:35.36	349.01	8.09	-45.3	-64.2	3.8	1.49e+00	0	37	104	0	61	33245
2026-01-23 02:28:36.35	348.86	8.12	-45.3	-64.1	3.8	1.49e+00	0	37	104	0	61	32776
2026-01-23 02:28:37.35	348.71	8.15	-45.3	-64.0	3.8	1.49e+00	0	37	104	0	61	32510
2026-01-23 02:28:38.34	348.56	8.19	-45.3	-64.1	3.8	1.49e+00	0	37	104	0	61	32798
2026-01-23 02:28:39.33	348.41	8.22	-45.3	-64.2	3.8	1.49e+00	0	37	104	0	61	32989
2026-01-23 02:28:40.33	348.25	8.26	-45.3	-64.2	3.8	1.49e+00	0	37	104	0	61	33080
2026-01-23 02:28:41.32	348.10	8.29	-45.3	-64.3	3.8	1.49e+00	0	37	104	0	61	33437
2026-01-23 02:28:42.31	347.95	8.32	-45.3	-64.2	3.8	1.49e+00	0	37	104	0	61	33262
2026-01-23 02:28:43.31	347.80	8.35	-45.3	-64.2	3.8	1.49e+00	0	37	104	0	61	33011
2026-01-23 02:28:44.30	347.64	8.39	-45.3	-64.1	3.8	1.49e+00	0	37	104	0	61	32647
2026-01-23 02:28:45.29	347.49	8.42	-45.3	-64.0	3.8	1.49e+00	0	37	104	0	61	32372
2026-01-23 02:28:46.28	347.34	8.45	-45.2	-64.0	3.8	1.49e+00	0	37	104	0	61	32489
2026-01-23 02:28:47.28	347.18	8.48	-45.2	-64.2	3.8	1.49e+00	0	37	104	0	61	32956
2026-01-23 02:28:48.27	347.03	8.52	-45.2	-64.3	3.8	1.49e+00	0	37	104	0	61	33512
2026-01-23 02:28:49.26	346.87	8.55	-45.3	-64.2	3.8	1.49e+00	0	37	104	0	61	33288
2026-01-23 02:28:50.25	346.72	8.58	-45.3	-64.0	3.8	1.49e+00	0	37	104	0	61	32343
2026-01-23 02:28:51.25	346.56	8.61	-45.2	-63.6	3.8	1.49e+00	0	37	104	0	61	30901
2026-01-23 02:28:52.24	346.40	8.64	-45.2	-63.2	3.8	1.49e+00	0	37	104	0	61	29422
2026-01-23 02:28:53.23	346.25	8.67	-45.2	-62.9	3.8	1.49e+00	0	37	104	0	61	28412
2026-01-23 02:28:54.23	346.09	8.71	-45.2	-62.6	3.8	1.49e+00	0	37	104	0	61	27411
2026-01-23 02:28:55.22	345.93	8.74	-45.2	-62.2	3.8	1.49e+00	0	37	104	0	61	26234
2026-01-23 02:28:56.22	345.78	8.77	-45.2	-61.8	3.8	1.48e+00	0	37	104	0	61	25010
2026-01-23 02:28:57.21	345.62	8.80	-45.2	-61.2	4.1	1.47e+00	0	37	0	0	61	23419
2026-01-23 02:28:58.20	345.46	8.83	-45.2	-60.6	4.2	1.38e+00	0	37	0	0	61	21969
2026-01-23 02:28:59.19	345.30	8.86	-45.1	-59.9	4.5	1.24e+00	0	37	0	1048576	61	20154
2026-01-23 02:29:00.19	345.14	8.89	-45.0	-58.3	5.3	7.91e-01	0	37	0	2097152	61	16833
2026-01-23 02:29:01.18	344.98	8.92	-44.9	-56.2	6.8	3.85e-01	0	37	0	4194304	61	13196
2026-01-23 02:29:02.17	344.82	8.95	-44.5	-53.7	9.2	4.04e-02	0	37	0	6291456	61	9899
2026-01-23 02:29:03.17	344.66	8.98	-44.0	-51.3	11.8	2.78e-03	0	37	0	8388608	60	7962
2026-01-23 02:29:04.16	344.50	9.01	-43.5	-49.2	13.9	6.40e-05	0	37	0	10485760	59	6625
2026-01-23 02:29:05.15	344.34	9.04	-43.3	-49.0	14.2	3.00e-06	0	37	0	11534336	58	6823
2026-01-23 02:29:06.15	344.18	9.07	-44.4	-53.9	9.0	2.53e-02	0	37	0	13631488	59	11407
2026-01-23 02:29:07.14	344.02	9.10	-42.2	-46.6	16.6	0.00e+00	0	37	0	15728640	56	5808
2026-01-23 02:29:08.14	343.86	9.12	-44.2	-52.3	10.7	1.01e-04	0	37	0	17825792	59	9434
2026-01-23 02:29:09.13	343.70	9.15	-42.9	-48.2	14.9	0.00e+00	0	37	0	18874368	56	6963
2026-01-23 02:29:10.13	343.53	9.18	-41.8	-46.3	16.7	0.00e+00	0	37	0	20971520	55	5930
2026-01-23 02:29:11.15	343.37	9.21	-41.8	-46.3	16.7	0.00e+00	0	37	0	23068672	55	5929
2026-01-23 02:29:12.18	343.20	9.24	-41.9	-46.2	16.7	0.00e+00	0	37	0	25165824	55	5917
2026-01-23 02:29:13.18	343.03	9.27	-42.0	-46.2	16.8	0.00e+00	0	37	0	27262976	55	5903
2026-01-23 02:29:14.17	342.87	9.29	-42.0	-46.1	17.0	0.00e+00	0	37	0	28311552	55	5816
2026-01-23 02:29:15.17	342.71	9.32	-42.1	-46.1	16.9	0.00e+00	0	37	0	30408704	55	5806
2026-01-23 02:29:16.16	342.54	9.35	-42.2	-46.1	16.8	0.00e+00	0	37	0	32505856	55	5853
2026-01-23 02:29:17.16	342.38	9.38	-42.2	-46.1	16.9	0.00e+00	0	37	0	34603008	55	5855
2026-01-23 02:29:18.15	342.21	9.40	-42.2	-46.2	16.8	0.00e+00	0	37	0	36700160	55	5902
2026-01-23 02:29:19.15	342.05	9.43	-42.4	-46.5	16.6	0.00e+00	0	37	0	37748736	55	6062
2026-01-23 02:29:20.14	341.88	9.46	-42.5	-46.5	16.6	0.00e+00	0	37	0	39845888	55	6077
2026-01-23 02:29:21.14	341.72	9.48	-42.5	-46.5	16.5	0.00e+00	0	37	0	41943040	55	6092
2026-01-23 02:29:22.13	341.55	9.51	-42.8	-46.7	16.5	0.00e+00	0	37	0	44040192	56	5871
2026-01-23 02:29:23.12	341.38	9.53	-43.0	-46.6	16.7	0.00e+00	0	37	0	45088768	56	5811
2026-01-23 02:29:24.12	341.22	9.56	-42.9	-46.3	16.9	0.00e+00	0	37	0	47185920	56	5602
2026-01-23 02:29:25.12	341.05	9.59	-43.0	-46.4	16.8	0.00e+00	0	37	0	49283072	56	5685
2026-01-23 02:29:26.16	340.87	9.61	-43.1	-46.3	16.9	0.00e+00	0	37	0	51380224	57	5330
2026-01-23 02:29:27.19	340.70	9.64	-43.2	-46.3	16.9	0.00e+00	0	37	0	53477376	57	5308
2026-01-23 02:29:28.18	340.53	9.66	-43.3	-46.4	16.9	0.00e+00	0	37	0	54525952	57	5383
2026-01-23 02:29:29.22	340.36	9.69	-43.3	-46.4	16.8	0.00e+00	0	37	0	56623104	57	5376
2026-01-23 02:29:30.27	340.18	9.71	-43.4	-46.5	16.7	0.00e+00	0	37	0	58720256	57	5448
2026-01-23 02:29:31.23	340.02	9.74	-43.3	-46.5	16.7	0.00e+00	0	37	0	60817408	57	5446
2026-01-23 02:29:32.22	339.85	9.76	-43.4	-46.5	16.7	0.00e+00	0	37	0	62914560	57	5452
2026-01-23 02:29:33.34	339.66	9.79	-43.4	-46.5	16.7	0.00e+00	0	37	0	65011712	57	5437
2026-01-23 02:29:34.23	339.51	9.81	-43.4	-46.5	16.7	0.00e+00	0	37	0	66060288	57	5428
2026-01-23 02:29:35.37	339.31	9.84	-43.4	-46.4	16.9	0.00e+00	0	37	0	68157440	57	5345
2026-01-23 02:29:36.22	339.16	9.86	-43.4	-46.4	16.9	0.00e+00	0	37	0	70254592	57	5346
2026-01-23 02:29:37.36	338.97	9.88	-43.4	-46.4	16.8	0.00e+00	0	37	0	72351744	57	5394
2026-01-23 02:29:38.21	338.82	9.90	-43.4	-46.5	16.7	0.00e+00	0	37	0	73400320	57	5443
2026-01-23 02:29:39.35	338.63	9.93	-43.3	-46.6	16.7	0.00e+00	0	37	0	75497472	57	5470
2026-01-23 02:29:40.20	338.48	9.95	-43.3	-46.6	16.7	0.00e+00	0	37	0	77594624	57	5492
2026-01-23 02:29:41.34	338.28	9.97	-43.2	-46.6	16.6	0.00e+00	0	37	0	79691776	57	5518
2026-01-23 02:29:42.19	338.14	9.99	-43.3	-46.7	16.6	0.00e+00	0	37	0	81788928	57	5546
2026-01-23 02:29:43.33	337.94	10.01	-43.3	-46.6	16.6	0.00e+00	0	37	0	83886080	57	5527
2026-01-23 02:29:44.18	337.79	10.03	-43.3	-46.6	16.7	0.00e+00	0	37	0	84934656	57	5484
2026-01-23 02:29:45.32	337.59	10.06	-43.4	-46.7	16.6	0.00e+00	0	37	0	87031808	57	5548
2026-01-23 02:29:46.17	337.45	10.07	-43.5	-46.8	16.5	0.00e+00	0	37	0	89128960	57	5617
2026-01-23 02:29:47.40	337.23	10.10	-43.3	-46.7	16.6	0.00e+00	0	37	0	91226112	57	5529
2026-01-23 02:29:48.26	337.08	10.12	-43.2	-46.6	16.6	0.00e+00	0	37	0	92274688	57	5477
2026-01-23 02:29:49.39	336.89	10.14	-43.2	-46.7	16.6	0.00e+00	0	37	0	94371840	57	5539
2026-01-23 02:29:50.24	336.74	10.16	-43.3	-46.8	16.4	0.00e+00	0	37	0	96468992	57	5653
2026-01-23 02:29:51.52	336.51	10.18	-43.3	-46.9	16.3	0.00e+00	0	37	0	98566144	57	5686
2026-01-23 02:29:52.25	336.38	10.20	-43.3	-47.0	16.3	0.00e+00	0	37	0	99614720	57	5723
2026-01-23 02:29:53.53	336.16	10.22	-43.5	-47.1	16.2	0.00e+00	0	37	0	102760448	57	5801
2026-01-23 02:29:54.24	336.04	10.23	-43.5	-47.1	16.2	0.00e+00	0	37	0	103809024	57	5824
2026-01-23 02:29:55.52	335.81	10.26	-43.6	-47.0	16.2	0.00e+00	0	37	0	105906176	57	5787
2026-01-23 02:29:56.26	335.68	10.27	-43.6	-47.0	16.2	0.00e+00	0	37	0	108003328	57	5746
2026-01-23 02:29:57.84	335.40	10.30	-43.8	-47.2	16.1	0.00e+00	0	37	0	110100480	58	5587
2026-01-23 02:29:58.46	335.29	10.31	-43.8	-47.2	16.0	0.00e+00	0	37	0	112197632	58	5592
2026-01-23 02:30:00.02	335.01	10.34	-44.0	-47.3	15.9	0.00e+00	0	37	0	114294784	58	5649
2026-01-23 02:30:00.65	334.90	10.35	-44.1	-47.5	15.8	0.00e+00	0	37	0	115343360	58	5752
2026-01-23 02:30:02.15	334.64	10.37	-44.2	-47.5	15.8	0.00e+00	0	37	0	118489088	59	5413
2026-01-23 02:30:02.86	334.51	10.39	-44.1	-47.3	15.9	0.00e+00	0	37	0	120586240	59	5319
2026-01-23 02:30:04.14	334.28	10.41	-44.2	-47.5	15.8	0.00e+00	0	37	0	122683392	59	5427
2026-01-23 02:30:04.88	334.15	10.42	-44.1	-47.4	15.8	0.00e+00	0	37	0	123731968	59	5363
2026-01-23 02:30:06.16	333.92	10.44	-44.0	-47.3	15.9	0.00e+00	0	37	0	125829120	59	5311
2026-01-23 02:30:06.87	333.80	10.45	-44.0	-47.3	16.1	0.00e+00	0	37	0	127926272	59	5280
2026-01-23 02:30:08.16	333.57	10.47	-43.9	-47.1	16.1	0.00e+00	0	37	0	130023424	59	5213
2026-01-23 02:30:08.87	333.44	10.48	-44.0	-47.2	16.0	0.00e+00	0	37	0	131072000	59	5273
2026-01-23 02:30:10.15	333.21	10.50	-44.0	-47.1	16.1	0.00e+00	0	37	0	134217728	59	5209
2026-01-23 02:30:11.16	333.03	10.52	-44.0	-47.2	16.1	0.00e+00	0	37	0	135266304	59	5251
2026-01-23 02:30:12.46	332.79	10.53	-44.1	-47.3	16.0	0.00e+00	0	37	0	138412032	59	5300
2026-01-23 02:30:13.17	332.67	10.54	-44.0	-47.2	16.1	0.00e+00	0	37	0	139460608	59	5232
2026-01-23 02:30:14.45	332.44	10.56	-43.9	-47.1	16.2	0.00e+00	0	37	0	141557760	59	5166
2026-01-23 02:30:15.17	332.31	10.57	-43.9	-47.0	16.3	0.00e+00	0	37	0	143654912	59	5109
2026-01-23 02:30:16.45	332.08	10.59	-43.8	-46.9	16.3	0.00e+00	0	37	0	145752064	59	5086
2026-01-23 02:30:17.16	331.95	10.60	-43.7	-46.8	16.5	0.00e+00	0	37	0	146800640	59	5013
2026-01-23 02:30:18.44	331.72	10.61	-43.7	-46.7	16.6	0.00e+00	0	37	0	148897792	59	4932
2026-01-23 02:30:19.15	331.59	10.62	-43.6	-46.6	16.6	0.00e+00	0	37	0	150994944	59	4880
2026-01-23 02:30:20.43	331.36	10.64	-43.6	-46.5	16.6	0.00e+00	0	37	0	153092096	59	4868
2026-01-23 02:30:21.15	331.23	10.65	-43.5	-46.3	16.8	0.00e+00	0	37	0	154140672	58	5034
2026-01-23 02:30:22.43	331.00	10.66	-43.5	-46.4	16.9	0.00e+00	0	37	0	156237824	58	5048
2026-01-23 02:30:23.16	330.86	10.67	-43.5	-46.3	16.9	0.00e+00	0	37	0	158334976	58	5039
2026-01-23 02:30:24.44	330.63	10.68	-43.5	-46.4	16.9	0.00e+00	0	38	0	160432128	58	5077
2026-01-23 02:30:25.15	330.50	10.69	-43.6	-46.5	16.8	0.00e+00	0	38	0	161480704	58	5110
2026-01-23 02:30:26.43	330.27	10.71	-43.5	-46.4	16.9	0.00e+00	0	37	0	164626432	58	5066
2026-01-23 02:30:27.14	330.14	10.71	-43.4	-46.3	16.9	0.00e+00	0	37	0	165675008	58	4993
2026-01-23 02:30:28.73	329.85	10.73	-43.5	-46.4	16.8	0.00e+00	0	37	0	168820736	58	5069
2026-01-23 02:30:29.30	329.75	10.73	-43.5	-46.4	16.8	0.00e+00	0	37	0	169869312	58	5056
2026-01-23 02:30:31.01	329.43	10.75	-43.6	-46.5	16.8	0.00e+00	0	37	0	173015040	58	5131
2026-01-23 02:30:31.58	329.33	10.76	-43.6	-46.5	16.8	0.00e+00	0	37	0	174063616	58	5137
2026-01-23 02:30:33.28	329.02	10.77	-43.5	-46.5	16.7	0.00e+00	0	37	0	177209344	58	5131
2026-01-23 02:30:33.85	328.92	10.78	-43.5	-46.4	16.9	0.00e+00	0	37	0	178257920	58	5093
2026-01-23 02:30:35.56	328.60	10.79	-43.5	-46.5	16.8	0.00e+00	0	37	0	181403648	58	5116
2026-01-23 02:30:36.13	328.50	10.79	-43.4	-46.4	16.8	0.00e+00	0	37	0	182452224	58	5075
2026-01-23 02:30:37.83	328.19	10.81	-43.5	-46.5	16.8	0.00e+00	0	37	0	185597952	58	5128
2026-01-23 02:30:38.40	328.08	10.81	-43.4	-46.4	16.8	0.00e+00	0	37	0	186646528	58	5081
2026-01-23 02:30:40.11	327.77	10.82	-43.4	-46.4	16.9	0.00e+00	0	37	0	189792256	58	5071
2026-01-23 02:30:40.68	327.67	10.83	-43.4	-46.4	16.9	0.00e+00	0	37	0	190840832	58	5048
2026-01-23 02:30:42.38	327.35	10.84	-43.5	-46.4	16.8	0.00e+00	0	37	0	193986560	58	5081
2026-01-23 02:30:43.04	327.23	10.84	-43.4	-46.3	17.0	0.00e+00	0	37	0	195035136	58	5014
2026-01-23 02:30:44.47	326.97	10.85	-43.3	-46.2	17.1	0.00e+00	0	37	0	198180864	58	4956
2026-01-23 02:30:45.18	326.84	10.85	-43.3	-46.2	17.0	0.00e+00	0	37	0	199229440	58	4944
2026-01-23 02:30:46.46	326.60	10.86	-43.1	-46.0	17.2	0.00e+00	0	37	0	201326592	58	4858
2026-01-23 02:30:47.17	326.47	10.86	-43.1	-46.0	17.2	0.00e+00	0	38	0	203423744	58	4860
2026-01-23 02:30:48.45	326.24	10.87	-42.9	-45.9	17.3	0.00e+00	0	38	0	205520896	57	5081
2026-01-23 02:30:49.16	326.11	10.87	-42.9	-45.9	17.3	0.00e+00	0	38	0	206569472	57	5075
2026-01-23 02:30:50.44	325.87	10.88	-42.8	-45.9	17.3	0.00e+00	0	37	0	209715200	57	5058
2026-01-23 02:30:51.15	325.74	10.88	-42.9	-46.0	17.3	0.00e+00	0	38	0	210763776	57	5123
2026-01-23 02:30:52.43	325.51	10.88	-42.8	-45.9	17.3	0.00e+00	0	37	0	212860928	57	5067
2026-01-23 02:30:53.16	325.37	10.89	-42.8	-45.9	17.3	0.00e+00	0	37	0	213909504	57	5071
2026-01-23 02:30:54.44	325.14	10.89	-42.9	-45.9	17.3	0.00e+00	0	37	0	217055232	57	5090
2026-01-23 02:30:55.15	325.01	10.89	-43.0	-46.0	17.3	0.00e+00	0	38	0	218103808	57	5103
2026-01-23 02:30:56.43	324.77	10.89	-42.8	-45.7	17.5	0.00e+00	0	37	0	220200960	57	4978
2026-01-23 02:30:57.14	324.64	10.89	-42.8	-45.7	17.5	0.00e+00	0	38	0	222298112	57	4970
2026-01-23 02:30:58.63	324.36	10.90	-42.7	-45.7	17.6	0.00e+00	0	37	0	224395264	57	4943
2026-01-23 02:30:59.34	324.23	10.90	-42.7	-45.7	17.5	0.00e+00	0	38	0	225443840	57	4938
2026-01-23 02:31:00.68	323.99	10.90	-42.7	-45.7	17.4	0.00e+00	0	37	0	228589568	57	4975
2026-01-23 02:31:01.39	323.86	10.90	-42.6	-45.7	17.5	0.00e+00	0	37	0	229638144	57	4947
2026-01-23 02:31:02.73	323.61	10.90	-42.6	-45.6	17.6	0.00e+00	0	38	0	232783872	57	4923
2026-01-23 02:31:03.44	323.48	10.90	-42.6	-45.7	17.6	0.00e+00	0	37	0	233832448	57	4941
2026-01-23 02:31:04.72	323.24	10.90	-42.6	-45.6	17.6	0.00e+00	0	37	0	235929600	57	4913
2026-01-23 02:31:05.45	323.11	10.90	-42.7	-45.7	17.5	0.00e+00	0	38	0	236978176	57	4938
2026-01-23 02:31:06.84	322.85	10.90	-42.8	-45.6	17.6	0.00e+00	0	38	0	240123904	57	4898
2026-01-23 02:31:07.55	322.72	10.90	-43.0	-45.8	17.5	0.00e+00	0	37	0	241172480	57	4984
2026-01-23 02:31:08.83	322.48	10.90	-43.1	-45.8	17.4	0.00e+00	0	38	0	243269632	57	5022
2026-01-23 02:31:09.54	322.35	10.89	-43.1	-45.8	17.3	0.00e+00	0	37	0	245366784	57	5039
2026-01-23 02:31:10.82	322.12	10.89	-43.2	-46.0	17.3	0.00e+00	0	37	0	247463936	57	5102
2026-01-23 02:31:11.53	321.99	10.89	-43.2	-46.0	17.2	0.00e+00	0	37	0	248512512	57	5112
2026-01-23 02:31:12.82	321.75	10.89	-43.2	-46.1	17.1	0.00e+00	0	37	0	251658240	57	5165
2026-01-23 02:31:13.54	321.62	10.89	-43.2	-46.1	17.1	0.00e+00	0	37	0	252706816	57	5190
2026-01-23 02:31:14.82	321.38	10.88	-43.1	-46.0	17.2	0.00e+00	0	38	0	254803968	57	5147
2026-01-23 02:31:15.55	321.25	10.88	-43.2	-46.0	17.2	0.00e+00	0	37	0	255852544	57	5145
2026-01-23 02:31:16.82	321.01	10.87	-43.1	-46.0	17.2	0.00e+00	0	38	0	258998272	57	5104
2026-01-23 02:31:17.68	320.85	10.87	-43.0	-45.8	17.5	0.00e+00	0	38	0	260046848	57	5003
2026-01-23 02:31:19.10	320.59	10.87	-42.9	-45.6	17.6	0.00e+00	0	37	0	263192576	57	4919
2026-01-23 02:31:19.81	320.46	10.86	-42.9	-45.6	17.6	0.00e+00	0	38	0	264241152	57	4897
2026-01-23 02:31:21.08	320.23	10.86	-42.8	-45.5	17.7	0.00e+00	0	38	0	266338304	57	4843
2026-01-23 02:31:21.82	320.09	10.85	-42.8	-45.6	17.6	0.00e+00	0	38	0	268435456	57	4877
2026-01-23 02:31:23.10	319.86	10.84	-42.8	-45.6	17.5	0.00e+00	0	38	0	270532608	57	4892
2026-01-23 02:31:23.84	319.72	10.84	-42.8	-45.7	17.5	0.00e+00	0	38	0	271581184	57	4969
2026-01-23 02:31:25.12	319.49	10.83	-42.9	-45.8	17.4	0.00e+00	0	37	0	274726912	57	5033
2026-01-23 02:31:25.85	319.35	10.83	-43.0	-45.9	17.3	0.00e+00	0	37	0	275775488	57	5075
2026-01-23 02:31:27.12	319.12	10.82	-43.2	-46.1	17.0	0.00e+00	0	38	0	277872640	57	5218
2026-01-23 02:31:27.84	318.99	10.82	-43.3	-46.3	16.9	0.00e+00	0	38	0	278921216	57	5286
2026-01-23 02:31:29.12	318.75	10.81	-43.4	-46.4	16.8	0.00e+00	0	38	0	282066944	57	5372
2026-01-23 02:31:29.83	318.62	10.80	-43.5	-46.5	16.7	0.00e+00	0	37	0	283115520	57	5441
2026-01-23 02:31:31.10	318.39	10.79	-43.7	-46.7	16.6	0.00e+00	0	38	0	285212672	58	5240
2026-01-23 02:31:31.83	318.26	10.79	-43.8	-46.7	16.5	0.00e+00	0	38	0	287309824	58	5274
2026-01-23 02:31:33.11	318.02	10.77	-43.9	-46.9	16.3	0.00e+00	0	38	0	289406976	58	5348
2026-01-23 02:31:33.83	317.89	10.77	-43.9	-46.9	16.3	0.00e+00	0	38	0	290455552	58	5379
2026-01-23 02:31:35.11	317.66	10.76	-43.9	-46.9	16.2	0.00e+00	0	38	0	292552704	58	5397
2026-01-23 02:31:35.82	317.53	10.75	-43.9	-46.9	16.3	0.00e+00	0	38	0	294649856	58	5352
2026-01-23 02:31:37.10	317.29	10.74	-43.9	-46.8	16.4	0.00e+00	0	38	0	296747008	58	5307
2026-01-23 02:31:37.83	317.16	10.73	-43.8	-46.8	16.4	0.00e+00	0	38	0	297795584	58	5287
2026-01-23 02:31:39.11	316.93	10.72	-44.0	-47.0	16.2	0.00e+00	0	38	0	300941312	58	5409
2026-01-23 02:31:39.82	316.80	10.71	-44.0	-47.0	16.3	0.00e+00	0	37	0	301989888	58	5419
2026-01-23 02:31:41.11	316.56	10.70	-44.0	-47.0	16.2	0.00e+00	0	38	0	304087040	58	5456
2026-01-23 02:31:41.83	316.43	10.69	-44.0	-47.1	16.1	0.00e+00	0	38	0	305135616	58	5507
2026-01-23 02:31:43.11	316.20	10.68	-44.0	-47.1	16.2	0.00e+00	0	37	0	308281344	58	5480
2026-01-23 02:31:43.82	316.07	10.67	-43.9	-47.0	16.2	0.00e+00	0	38	0	309329920	58	5439
2026-01-23 02:31:45.24	315.81	10.65	-44.0	-47.1	16.2	0.00e+00	0	37	0	312475648	58	5466
2026-01-23 02:31:45.95	315.68	10.64	-44.0	-47.0	16.2	0.00e+00	0	38	0	313524224	58	5442
2026-01-23 02:31:47.23	315.45	10.63	-44.0	-47.1	16.2	0.00e+00	0	38	0	315621376	58	5467
2026-01-23 02:31:47.96	315.32	10.62	-44.0	-47.0	16.2	0.00e+00	0	38	0	316669952	58	5423
2026-01-23 02:31:49.24	315.09	10.60	-44.0	-47.0	16.3	0.00e+00	0	38	0	319815680	58	5436
2026-01-23 02:31:49.96	314.96	10.59	-44.0	-47.0	16.2	0.00e+00	0	37	0	320864256	58	5426
2026-01-23 02:31:51.24	314.73	10.58	-44.0	-46.9	16.2	0.00e+00	0	38	0	322961408	58	5400
2026-01-23 02:31:51.97	314.60	10.57	-44.0	-47.0	16.2	0.00e+00	0	37	0	325058560	58	5444
2026-01-23 02:31:53.24	314.37	10.55	-44.0	-47.1	16.1	0.00e+00	0	38	0	327155712	58	5488
2026-01-23 02:31:53.95	314.24	10.54	-44.1	-47.1	16.1	0.00e+00	0	38	0	328204288	58	5507
2026-01-23 02:31:55.23	314.01	10.52	-44.1	-47.2	16.0	0.00e+00	0	38	0	330301440	58	5582
2026-01-23 02:31:55.96	313.88	10.51	-44.2	-47.4	15.8	0.00e+00	0	37	0	332398592	58	5672
2026-01-23 02:31:57.24	313.65	10.49	-44.3	-47.6	15.6	0.00e+00	0	38	0	334495744	59	5495
2026-01-23 02:31:57.96	313.52	10.48	-44.3	-47.6	15.5	0.00e+00	0	38	0	335544320	59	5518
2026-01-23 02:31:59.24	313.29	10.46	-44.4	-47.8	15.4	0.00e+00	0	38	0	338690048	59	5648
2026-01-23 02:31:59.96	313.16	10.45	-44.3	-47.8	15.3	0.00e+00	0	37	0	339738624	59	5608
2026-01-23 02:32:01.24	312.93	10.43	-44.3	-47.8	15.4	0.00e+00	0	38	0	341835776	59	5605
2026-01-23 02:32:01.95	312.80	10.42	-44.2	-47.7	15.5	0.00e+00	0	38	0	342884352	59	5539
2026-01-23 02:32:03.23	312.58	10.40	-44.2	-47.5	15.6	0.00e+00	0	38	0	346030080	59	5461
2026-01-23 02:32:03.97	312.44	10.39	-44.1	-47.4	15.8	0.00e+00	0	37	0	347078656	59	5367
2026-01-23 02:32:05.25	312.22	10.36	-44.1	-47.3	15.9	0.00e+00	0	38	0	349175808	59	5298
2026-01-23 02:32:05.96	312.09	10.35	-44.1	-47.3	15.8	0.00e+00	0	38	0	351272960	59	5339
2026-01-23 02:32:07.24	311.86	10.33	-44.1	-47.3	15.9	0.00e+00	0	38	0	353370112	59	5298
2026-01-23 02:32:07.96	311.74	10.32	-44.1	-47.2	15.9	0.00e+00	0	37	0	354418688	59	5271
2026-01-23 02:32:09.24	311.51	10.29	-44.1	-47.3	15.9	0.00e+00	0	38	0	356515840	59	5287
2026-01-23 02:32:09.95	311.38	10.28	-44.1	-47.3	15.8	0.00e+00	0	38	0	358612992	59	5327
2026-01-23 02:32:11.23	311.16	10.26	-44.2	-47.4	15.8	0.00e+00	0	38	0	360710144	59	5371
2026-01-23 02:32:11.94	311.03	10.24	-44.2	-47.3	15.8	0.00e+00	0	38	0	361758720	59	5340
2026-01-23 02:32:13.22	310.81	10.22	-44.2	-47.4	15.8	0.00e+00	0	38	0	364904448	59	5355
2026-01-23 02:32:13.95	310.68	10.21	-44.3	-47.5	15.7	0.00e+00	0	37	0	365953024	59	5415
2026-01-23 02:32:15.23	310.45	10.18	-44.4	-47.6	15.6	0.00e+00	0	38	0	368050176	59	5474
2026-01-23 02:32:15.98	310.32	10.17	-44.4	-47.6	15.5	0.00e+00	0	38	0	370147328	59	5488
2026-01-23 02:32:17.26	310.10	10.14	-44.4	-47.8	15.4	0.00e+00	0	38	0	372244480	59	5593
2026-01-23 02:32:17.97	309.97	10.13	-44.5	-47.8	15.3	0.00e+00	0	38	0	373293056	59	5640
2026-01-23 02:32:19.25	309.75	10.10	-44.5	-47.9	15.2	0.00e+00	0	38	0	375390208	59	5707
2026-01-23 02:32:19.97	309.62	10.09	-44.5	-47.9	15.2	0.00e+00	0	38	0	377487360	59	5696
2026-01-23 02:32:21.25	309.40	10.06	-44.5	-48.0	15.2	0.00e+00	0	38	0	379584512	59	5732
2026-01-23 02:32:22.21	309.23	10.04	-44.5	-47.9	15.3	0.00e+00	0	38	0	381681664	59	5660
2026-01-23 02:32:23.21	309.06	10.02	-44.5	-47.9	15.2	0.00e+00	0	38	0	382730240	59	5678
2026-01-23 02:32:24.20	308.89	10.00	-44.4	-47.7	15.4	0.00e+00	0	38	0	384827392	59	5579
2026-01-23 02:32:25.19	308.72	9.98	-44.4	-47.7	15.4	0.00e+00	0	38	0	386924544	59	5550
2026-01-23 02:32:26.19	308.54	9.95	-44.3	-47.6	15.5	0.00e+00	0	38	0	389021696	59	5470
2026-01-23 02:32:27.18	308.37	9.93	-44.3	-47.5	15.6	0.00e+00	0	38	0	391118848	59	5448
2026-01-23 02:32:28.18	308.20	9.91	-44.3	-47.4	15.7	0.00e+00	0	38	0	392167424	59	5373
2026-01-23 02:32:29.17	308.03	9.89	-44.3	-47.4	15.6	0.00e+00	0	38	0	394264576	59	5385
2026-01-23 02:32:30.17	307.86	9.86	-44.3	-47.5	15.7	0.00e+00	0	38	0	396361728	59	5403
2026-01-23 02:32:31.24	307.67	9.84	-44.3	-47.5	15.6	0.00e+00	0	38	0	398458880	59	5441
2026-01-23 02:32:32.12	307.52	9.82	-44.4	-47.7	15.5	7.00e-07	0	38	0	399507456	59	5531
2026-01-23 02:32:33.26	307.33	9.79	-44.5	-47.8	15.3	0.00e+00	0	38	0	401604608	59	5622
2026-01-23 02:32:34.11	307.18	9.77	-44.6	-48.0	15.1	0.00e+00	0	38	0	403701760	59	5726
2026-01-23 02:32:35.25	306.99	9.74	-44.6	-48.0	15.2	0.00e+00	0	38	0	405798912	59	5730
2026-01-23 02:32:36.10	306.84	9.72	-44.7	-48.1	15.0	0.00e+00	0	38	0	407896064	60	5511
2026-01-23 02:32:37.58	306.59	9.69	-44.5	-48.0	15.1	7.00e-07	0	38	0	409993216	60	5440
2026-01-23 02:32:38.29	306.47	9.67	-44.5	-48.0	15.1	0.00e+00	0	38	0	411041792	60	5417
2026-01-23 02:32:39.58	306.25	9.64	-44.5	-47.9	15.2	0.00e+00	0	38	0	414187520	60	5398
2026-01-23 02:32:40.31	306.13	9.62	-44.5	-47.9	15.2	0.00e+00	0	38	0	415236096	60	5374
2026-01-23 02:32:41.83	305.87	9.58	-44.5	-47.9	15.3	0.00e+00	0	38	0	418381824	60	5343
2026-01-23 02:32:42.54	305.75	9.56	-44.4	-47.7	15.5	0.00e+00	0	38	0	419430400	60	5242
2026-01-23 02:32:43.82	305.54	9.53	-44.3	-47.5	15.7	0.00e+00	0	38	0	421527552	60	5141
2026-01-23 02:32:44.55	305.42	9.51	-44.3	-47.5	15.7	0.00e+00	0	38	0	423624704	60	5154
2026-01-23 02:32:45.83	305.20	9.48	-44.3	-47.5	15.7	0.00e+00	0	38	0	425721856	60	5111
2026-01-23 02:32:46.54	305.08	9.46	-44.4	-47.6	15.6	0.00e+00	0	38	0	426770432	60	5180
2026-01-23 02:32:47.82	304.87	9.42	-44.4	-47.7	15.4	0.00e+00	0	38	0	428867584	60	5223
2026-01-23 02:32:48.54	304.75	9.41	-44.5	-47.8	15.3	0.00e+00	0	38	0	430964736	60	5311
2026-01-23 02:32:49.82	304.54	9.37	-44.5	-47.8	15.4	0.00e+00	0	38	0	433061888	60	5312
2026-01-23 02:32:50.55	304.42	9.35	-44.6	-47.9	15.1	0.00e+00	0	38	0	434110464	60	5399
2026-01-23 02:32:51.82	304.21	9.32	-44.6	-48.0	15.1	0.00e+00	0	38	0	437256192	60	5419
2026-01-23 02:32:52.54	304.09	9.30	-44.6	-48.1	15.1	0.00e+00	0	38	0	438304768	60	5466
2026-01-23 02:32:53.82	303.88	9.26	-44.7	-48.1	14.9	7.00e-07	0	38	0	440401920	60	5521
2026-01-23 02:32:54.53	303.76	9.24	-44.6	-48.0	15.1	0.00e+00	0	38	0	441450496	60	5457
2026-01-23 02:32:55.81	303.55	9.20	-44.5	-47.9	15.3	0.00e+00	0	38	0	444596224	60	5344
2026-01-23 02:32:56.54	303.43	9.18	-44.6	-47.9	15.2	0.00e+00	0	38	0	445644800	60	5388
2026-01-23 02:32:57.81	303.22	9.15	-44.4	-47.7	15.4	0.00e+00	0	38	0	447741952	60	5271
2026-01-23 02:32:58.54	303.10	9.13	-44.3	-47.6	15.5	0.00e+00	0	38	0	449839104	60	5168
2026-01-23 02:32:59.82	302.89	9.09	-44.2	-47.4	15.7	0.00e+00	0	38	0	451936256	60	5065
2026-01-23 02:33:00.53	302.78	9.07	-44.2	-47.4	15.7	0.00e+00	0	38	0	452984832	60	5061
2026-01-23 02:33:01.81	302.57	9.03	-44.1	-47.2	15.9	0.00e+00	0	38	0	456130560	60	4959
2026-01-23 02:33:02.53	302.45	9.01	-44.3	-47.6	15.6	0.00e+00	0	38	0	457179136	60	5179
2026-01-23 02:33:03.81	302.25	8.97	-49.3	-64.5	3.8	1.45e+00	0	38	104	458227712	69	21585
2026-01-23 02:33:04.52	302.13	8.95	-49.4	-64.7	3.8	1.49e+00	0	38	104	458227712	69	22034
2026-01-23 02:33:05.80	301.92	8.91	-49.7	-64.9	3.8	1.49e+00	0	38	104	458227712	69	22647
2026-01-23 02:33:06.54	301.81	8.89	-49.7	-64.9	3.8	1.49e+00	0	38	104	458227712	70	21496
2026-01-23 02:33:07.82	301.60	8.85	-49.8	-65.0	3.8	1.49e+00	0	38	104	458227712	70	21622
2026-01-23 02:33:08.54	301.49	8.83	-49.8	-65.0	3.8	1.49e+00	0	38	104	458227712	70	21671
2026-01-23 02:33:09.82	301.28	8.79	-49.7	-65.1	3.8	1.49e+00	0	38	104	458227712	70	21792
2026-01-23 02:33:10.55	301.16	8.77	-49.8	-65.1	3.8	1.49e+00	0	38	104	458227712	70	21795
2026-01-23 02:33:11.83	300.96	8.73	-49.9	-65.1	3.8	1.49e+00	0	37	104	458227712	70	21857
2026-01-23 02:33:12.53	300.85	8.71	-49.8	-65.1	3.8	1.49e+00	0	38	104	458227712	70	21920
2026-01-23 02:33:13.81	300.65	8.67	-49.8	-65.1	3.8	1.49e+00	0	38	104	458227712	70	21903
2026-01-23 02:33:14.54	300.53	8.64	-49.8	-65.1	3.8	1.49e+00	0	38	104	458227712	70	21911
2026-01-23 02:33:15.81	300.33	8.60	-49.7	-65.1	3.8	1.49e+00	0	38	104	458227712	70	21874
2026-01-23 02:33:16.52	300.22	8.58	-49.7	-65.1	3.8	1.49e+00	0	38	104	458227712	70	21885
2026-01-23 02:33:17.81	300.02	8.54	-49.7	-65.1	3.8	1.49e+00	0	38	104	458227712	70	21797
2026-01-23 02:33:18.52	299.91	8.51	-49.7	-65.1	3.8	1.49e+00	0	38	104	458227712	70	21896
2026-01-23 02:33:19.80	299.71	8.47	-49.8	-65.1	3.8	1.49e+00	0	38	104	458227712	70	21815
2026-01-23 02:33:20.52	299.59	8.45	-49.8	-65.1	3.8	1.49e+00	0	38	104	458227712	70	21786
2026-01-23 02:33:21.80	299.39	8.41	-49.7	-65.1	3.8	1.49e+00	0	38	104	458227712	70	21802
2026-01-23 02:33:22.51	299.28	8.38	-49.7	-65.1	3.8	1.49e+00	0	38	104	458227712	70	21793
2026-01-23 02:33:23.79	299.09	8.34	-49.6	-65.0	3.8	1.49e+00	0	38	104	458227712	70	21598
2026-01-23 02:33:24.50	298.98	8.32	-49.6	-65.0	3.8	1.49e+00	0	38	104	458227712	70	21566
2026-01-23 02:33:25.78	298.78	8.28	-49.6	-65.0	3.8	1.49e+00	0	38	104	458227712	70	21558
2026-01-23 02:33:26.50	298.67	8.25	-49.6	-65.0	3.8	1.49e+00	0	38	104	458227712	70	21550
2026-01-23 02:33:27.78	298.47	8.21	-49.6	-65.0	3.8	1.49e+00	0	38	104	458227712	70	21552
2026-01-23 02:33:28.49	298.36	8.18	-49.6	-64.9	3.8	1.49e+00	0	38	104	458227712	70	21478
2026-01-23 02:33:29.78	298.17	8.14	-49.6	-64.9	3.8	1.49e+00	0	38	104	458227712	70	21504
2026-01-23 02:33:30.49	298.06	8.12	-49.6	-64.9	3.8	1.49e+00	0	38	104	458227712	70	21462
2026-01-23 02:33:31.77	297.86	8.07	-49.6	-65.0	3.8	1.49e+00	0	38	104	458227712	70	21559
2026-01-23 02:33:32.51	297.75	8.05	-49.6	-65.0	3.8	1.49e+00	0	38	104	458227712	70	21521
2026-01-23 02:33:33.78	297.56	8.00	-49.6	-65.0	3.8	1.49e+00	0	38	104	458227712	70	21549
2026-01-23 02:33:34.51	297.45	7.98	-49.6	-64.9	3.8	1.49e+00	0	38	104	458227712	70	21437
2026-01-23 02:33:35.79	297.26	7.93	-49.6	-64.9	3.8	1.49e+00	0	38	104	458227712	70	21435
2026-01-23 02:33:36.50	297.15	7.91	-49.5	-64.9	3.8	1.49e+00	0	38	104	458227712	70	21441
2026-01-23 02:33:37.77	296.96	7.86	-49.6	-64.9	3.8	1.49e+00	0	38	104	458227712	70	21502
2026-01-23 02:33:38.50	296.85	7.84	-49.5	-64.9	3.8	1.49e+00	0	38	104	458227712	70	21398
2026-01-23 02:33:39.78	296.66	7.79	-49.5	-64.9	3.8	1.49e+00	0	38	104	458227712	70	21409
2026-01-23 02:33:40.49	296.55	7.77	-49.6	-64.9	3.8	1.49e+00	0	38	104	458227712	70	21334
2026-01-23 02:33:41.77	296.36	7.72	-49.5	-64.9	3.8	1.49e+00	0	38	104	458227712	70	21471
2026-01-23 02:33:42.47	296.26	7.70	-49.5	-64.9	3.8	1.49e+00	0	38	104	458227712	70	21373
2026-01-23 02:33:43.75	296.07	7.65	-49.5	-64.9	3.8	1.49e+00	0	38	104	458227712	70	21384
2026-01-23 02:33:44.46	295.97	7.63	-49.5	-64.9	3.8	1.49e+00	0	38	104	458227712	70	21378
2026-01-23 02:33:45.75	295.78	7.58	-49.5	-64.9	3.8	1.49e+00	0	38	104	458227712	70	21416
2026-01-23 02:33:46.46	295.67	7.55	-49.5	-64.9	3.8	1.49e+00	0	38	104	458227712	70	21338
2026-01-23 02:33:47.76	295.48	7.51	-49.5	-64.9	3.8	1.49e+00	0	38	104	458227712	70	21357
2026-01-23 02:33:48.47	295.38	7.48	-49.5	-64.9	3.8	1.49e+00	0	38	104	458227712	70	21364
2026-01-23 02:33:49.74	295.20	7.43	-49.5	-64.9	3.8	1.49e+00	0	38	104	458227712	70	21421
2026-01-23 02:33:50.47	295.09	7.41	-49.5	-64.9	3.8	1.49e+00	0	38	104	458227712	70	21362
2026-01-23 02:33:51.74	294.91	7.36	-49.5	-64.9	3.8	1.49e+00	0	38	104	458227712	70	21414
2026-01-23 02:33:52.45	294.80	7.33	-49.5	-64.9	3.8	1.49e+00	0	38	104	458227712	70	21386
2026-01-23 02:33:53.73	294.62	7.29	-49.5	-64.9	3.8	1.49e+00	0	38	104	458227712	70	21317
2026-01-23 02:33:54.44	294.52	7.26	-49.5	-64.9	3.8	1.49e+00	0	38	104	458227712	70	21317
2026-01-23 02:33:55.72	294.33	7.21	-49.5	-64.9	3.8	1.49e+00	0	38	104	458227712	70	21447
2026-01-23 02:33:56.43	294.23	7.19	-49.5	-64.9	3.8	1.49e+00	0	38	104	458227712	70	21382
2026-01-23 02:33:57.70	294.05	7.14	-49.5	-64.9	3.8	1.49e+00	0	38	104	458227712	70	21381
2026-01-23 02:33:58.41	293.95	7.11	-49.5	-64.9	3.8	1.49e+00	0	38	104	458227712	70	21346
2026-01-23 02:33:59.69	293.77	7.06	-49.5	-64.9	3.8	1.49e+00	0	38	104	458227712	70	21401
2026-01-23 02:34:00.40	293.67	7.04	-49.5	-64.9	3.8	1.49e+00	0	38	104	458227712	70	21307
2026-01-23 02:34:01.68	293.49	6.99	-49.5	-64.9	3.8	1.49e+00	0	38	104	458227712	70	21428
2026-01-23 02:34:02.40	293.39	6.96	-49.5	-64.9	3.8	1.49e+00	0	38	104	458227712	70	21395
2026-01-23 02:34:03.68	293.21	6.91	-49.5	-64.9	3.8	1.49e+00	0	38	104	458227712	70	21317
2026-01-23 02:34:04.39	293.11	6.88	-49.5	-64.9	3.8	1.49e+00	0	38	104	458227712	70	21293
2026-01-23 02:34:05.68	292.93	6.84	-49.5	-64.9	3.8	1.49e+00	0	38	104	458227712	70	21347
2026-01-23 02:34:06.39	292.83	6.81	-49.5	-64.9	3.8	1.49e+00	0	38	104	458227712	70	21368
2026-01-23 02:34:07.67	292.65	6.76	-49.5	-64.9	3.8	1.49e+00	0	38	104	458227712	70	21333
2026-01-23 02:34:08.38	292.55	6.73	-49.5	-64.9	3.8	1.49e+00	0	38	104	458227712	70	21306
2026-01-23 02:34:09.66	292.38	6.68	-49.5	-64.9	3.8	1.49e+00	0	38	104	458227712	70	21387
2026-01-23 02:34:10.37	292.28	6.65	-49.5	-64.9	3.8	1.49e+00	0	38	104	458227712	70	21401
2026-01-23 02:34:11.64	292.10	6.60	-49.5	-64.9	3.8	1.49e+00	0	38	104	458227712	70	21358
2026-01-23 02:34:12.35	292.01	6.58	-49.5	-64.9	3.8	1.49e+00	0	38	104	458227712	70	21378
2026-01-23 02:34:13.63	291.83	6.53	-49.5	-64.9	3.8	1.49e+00	0	38	104	458227712	70	21368
2026-01-23 02:34:14.34	291.74	6.50	-49.5	-64.9	3.8	1.49e+00	0	38	104	458227712	70	21338
2026-01-23 02:34:15.62	291.56	6.45	-49.5	-64.9	3.8	1.49e+00	0	38	104	458227712	70	21349
2026-01-23 02:34:16.33	291.47	6.42	-49.5	-64.9	3.8	1.49e+00	0	38	104	458227712	70	21368
2026-01-23 02:34:17.61	291.29	6.37	-49.5	-64.9	3.8	1.49e+00	0	38	104	458227712	70	21311
2026-01-23 02:34:18.31	291.20	6.34	-49.5	-64.9	3.8	1.49e+00	0	38	104	458227712	70	21342
2026-01-23 02:34:19.59	291.03	6.29	-49.5	-64.9	3.8	1.49e+00	0	38	104	458227712	70	21349
2026-01-23 02:34:20.33	290.93	6.26	-49.5	-64.9	3.8	1.49e+00	0	38	104	458227712	70	21355
2026-01-23 02:34:21.61	290.76	6.21	-49.5	-64.9	3.8	1.49e+00	0	38	104	458227712	70	21352
2026-01-23 02:34:22.32	290.66	6.18	-49.5	-64.9	3.8	1.49e+00	0	38	104	458227712	70	21367
2026-01-23 02:34:23.59	290.49	6.13	-49.5	-64.9	3.8	1.49e+00	0	38	104	458227712	70	21311
2026-01-23 02:34:24.32	290.40	6.10	-49.5	-64.9	3.8	1.49e+00	0	38	104	458227712	70	21382
2026-01-23 02:34:25.60	290.23	6.05	-49.5	-64.9	3.8	1.49e+00	0	38	104	458227712	70	21397
2026-01-23 02:34:26.31	290.13	6.02	-49.5	-64.9	3.8	1.49e+00	0	38	104	458227712	70	21342
2026-01-23 02:34:27.58	289.97	5.97	-49.5	-64.9	3.8	1.49e+00	0	38	104	458227712	70	21379
2026-01-23 02:34:28.29	289.87	5.94	-49.5	-64.9	3.8	1.49e+00	0	38	104	458227712	70	21415
2026-01-23 02:34:29.57	289.71	5.89	-49.5	-64.9	3.8	1.49e+00	0	38	104	458227712	70	21371
2026-01-23 02:34:30.28	289.61	5.86	-49.5	-64.9	3.8	1.49e+00	0	38	104	458227712	70	21395
2026-01-23 02:34:31.56	289.45	5.81	-49.5	-64.9	3.8	1.49e+00	0	38	104	458227712	70	21396
2026-01-23 02:34:32.27	289.36	5.78	-49.5	-64.9	3.8	1.49e+00	0	38	104	458227712	70	21361
2026-01-23 02:34:33.55	289.19	5.73	-49.5	-64.9	3.8	1.49e+00	0	38	104	458227712	70	21366
2026-01-23 02:34:34.26	289.10	5.70	-49.5	-64.9	3.8	1.49e+00	0	38	104	458227712	70	21430
2026-01-23 02:34:35.53	288.94	5.65	-49.5	-64.9	3.8	1.49e+00	0	38	104	458227712	70	21291
2026-01-23 02:34:36.24	288.85	5.62	-49.5	-64.9	3.8	1.49e+00	0	38	104	458227712	70	21444
2026-01-23 02:34:37.52	288.68	5.57	-49.5	-64.9	3.8	1.49e+00	0	38	104	458227712	70	21357
2026-01-23 02:34:38.23	288.59	5.54	-49.5	-64.9	3.8	1.49e+00	0	38	104	458227712	70	21332
2026-01-23 02:34:39.51	288.43	5.48	-49.5	-64.9	3.8	1.49e+00	0	38	104	458227712	70	21329
2026-01-23 02:34:40.22	288.34	5.45	-49.5	-64.9	3.8	1.49e+00	0	38	104	458227712	70	21322
2026-01-23 02:34:41.49	288.18	5.40	-49.5	-64.9	3.8	1.49e+00	0	38	104	458227712	70	21334
2026-01-23 02:34:42.23	288.09	5.37	-49.5	-64.9	3.8	1.49e+00	0	38	104	458227712	70	21367
2026-01-23 02:34:43.51	287.93	5.32	-49.5	-64.8	3.8	1.49e+00	0	38	104	458227712	70	21229
2026-01-23 02:34:44.22	287.84	5.29	-49.5	-64.9	3.8	1.49e+00	0	38	104	458227712	70	21329
2026-01-23 02:34:45.50	287.68	5.24	-49.5	-64.9	3.8	1.49e+00	0	38	104	458227712	70	21345
2026-01-23 02:34:46.21	287.59	5.21	-49.5	-64.9	3.8	1.49e+00	0	38	104	458227712	70	21343
2026-01-23 02:34:47.48	287.43	5.15	-49.5	-64.9	3.8	1.49e+00	0	38	104	458227712	70	21327
2026-01-23 02:34:48.19	287.34	5.12	-49.5	-64.9	3.8	1.49e+00	0	38	104	458227712	70	21332
2026-01-23 02:34:49.47	287.18	5.07	-49.5	-64.9	3.8	1.49e+00	0	38	104	458227712	70	21362
2026-01-23 02:34:50.18	287.10	5.04	-49.5	-64.9	3.8	1.49e+00	0	38	104	458227712	70	21355
2026-01-23 02:34:51.46	286.94	4.99	-49.5	-64.9	3.8	1.49e+00	0	38	104	458227712	70	21323

#Closed at: 2026-01-23 02:34:52
#Recorded file [458 MB]: D:/Data/31040_260123_052715.dat