passes_logs/2026/01/23/T1/T1__20260123_120944_AQUA_rec.log

#Pass ID: 20260123_120944_AQUA
#Satellite: AQUA
#Configuration: AQUA
#almurnet v.1.7.20251203
#Start time: 2026-01-23 12:09:44

#Version: 2.0.20230620
#Station: T1
#Location: 37.570604 lon 55.790049 lat
#TLE: 1 27424U 02022A   26022.49486490  .00002153  00000+0  44069-3 0  9997
#TLE: 2 27424  98.4099 349.0485 0001970  69.5876  43.4746 14.61847233261984

#Time	Az	El	Level	Level2	SNR	BER	BlckErr	Temp	State	Recorded	gain1	gain2
2026-01-23 12:09:44.49	176.88	5.04	-50.4	-71.4	3.8	7.47e-01	0	37	0	0	71	42475
2026-01-23 12:09:45.48	176.92	5.11	-49.5	-69.3	3.9	7.46e-01	0	37	104	0	69	37740
2026-01-23 12:09:46.48	176.95	5.18	-49.4	-68.4	4.0	7.43e-01	0	37	104	0	69	33818
2026-01-23 12:09:47.47	176.99	5.26	-49.4	-68.3	3.9	7.46e-01	0	37	104	0	69	33381
2026-01-23 12:09:48.46	177.02	5.33	-49.4	-68.0	4.0	7.44e-01	0	37	104	0	69	32224
2026-01-23 12:09:49.46	177.05	5.41	-49.4	-67.4	4.2	7.34e-01	0	37	104	0	69	30086
2026-01-23 12:09:50.45	177.09	5.48	-49.4	-67.2	4.3	7.30e-01	0	37	104	0	69	29376
2026-01-23 12:09:51.44	177.12	5.56	-49.4	-67.3	3.9	7.41e-01	0	37	104	0	69	29898
2026-01-23 12:09:52.43	177.16	5.63	-49.4	-67.4	3.9	7.40e-01	0	37	104	0	69	30330
2026-01-23 12:09:53.43	177.19	5.71	-49.5	-67.5	4.2	7.42e-01	0	37	104	0	69	30534
2026-01-23 12:09:54.42	177.23	5.78	-49.5	-67.3	4.2	7.31e-01	0	37	104	0	69	29875
2026-01-23 12:09:55.41	177.26	5.86	-49.4	-67.6	4.2	7.38e-01	0	37	104	0	69	30806
2026-01-23 12:09:56.41	177.30	5.94	-49.5	-67.9	4.1	7.42e-01	0	37	104	0	69	31910
2026-01-23 12:09:57.40	177.33	6.01	-49.5	-68.5	3.8	7.45e-01	0	37	104	0	69	34257
2026-01-23 12:09:58.39	177.37	6.09	-49.5	-68.4	4.0	7.44e-01	0	37	104	0	69	33889
2026-01-23 12:09:59.39	177.40	6.17	-49.4	-68.9	3.8	7.47e-01	0	37	104	0	69	35799
2026-01-23 12:10:00.38	177.44	6.24	-49.5	-68.9	3.8	7.47e-01	0	37	104	0	69	36010
2026-01-23 12:10:01.37	177.48	6.32	-49.5	-69.1	3.9	7.46e-01	0	37	104	0	69	36533
2026-01-23 12:10:02.37	177.51	6.40	-49.5	-69.2	3.8	7.46e-01	0	37	104	0	69	36956
2026-01-23 12:10:03.36	177.55	6.48	-49.5	-69.1	3.8	7.47e-01	0	37	104	0	69	36698
2026-01-23 12:10:04.35	177.59	6.55	-49.5	-68.7	3.8	7.46e-01	0	37	104	0	69	35260
2026-01-23 12:10:05.35	177.62	6.63	-49.5	-68.2	3.8	7.45e-01	0	37	104	0	69	33134
2026-01-23 12:10:06.34	177.66	6.71	-49.5	-67.2	4.3	7.32e-01	0	37	104	0	69	29362
2026-01-23 12:10:07.33	177.70	6.79	-49.4	-66.6	4.3	7.24e-01	0	37	104	0	69	27445
2026-01-23 12:10:08.33	177.74	6.87	-49.4	-66.6	3.9	7.40e-01	0	37	104	0	69	27478
2026-01-23 12:10:09.32	177.78	6.95	-49.4	-66.3	4.4	7.42e-01	0	37	104	0	69	26657
2026-01-23 12:10:10.31	177.81	7.03	-49.4	-66.2	4.0	7.42e-01	0	37	104	0	69	26295
2026-01-23 12:10:11.31	177.85	7.11	-49.4	-65.3	5.0	7.11e-01	0	37	0	0	69	23804
2026-01-23 12:10:12.30	177.89	7.19	-49.3	-64.2	5.7	6.92e-01	0	38	0	0	69	20975
2026-01-23 12:10:13.29	177.93	7.27	-49.2	-62.4	7.1	6.63e-01	0	37	0	1572864	69	17066
2026-01-23 12:10:14.28	177.97	7.35	-49.0	-60.0	9.5	6.29e-01	0	37	0	3670016	69	12926
2026-01-23 12:10:15.28	178.01	7.43	-48.7	-57.7	11.9	6.14e-01	0	37	0	5242880	69	9943
2026-01-23 12:10:16.27	178.05	7.51	-48.2	-55.6	14.1	6.08e-01	0	37	0	7340032	68	8228
2026-01-23 12:10:17.26	178.09	7.59	-47.5	-53.6	16.0	6.07e-01	0	38	0	9437184	67	6939
2026-01-23 12:10:18.26	178.13	7.68	-46.9	-52.1	17.6	6.06e-01	0	37	0	11010048	65	6506
2026-01-23 12:10:19.25	178.17	7.76	-46.3	-50.9	18.8	6.08e-01	0	37	0	13107200	64	5997
2026-01-23 12:10:20.24	178.21	7.84	-45.8	-49.9	19.8	6.07e-01	0	37	0	14680064	63	5691
2026-01-23 12:10:21.23	178.25	7.92	-45.3	-49.1	20.6	6.06e-01	0	37	0	16777216	62	5510
2026-01-23 12:10:22.23	178.29	8.01	-45.0	-48.7	21.0	6.07e-01	0	37	0	18350080	62	5228
2026-01-23 12:10:23.22	178.33	8.09	-44.8	-48.3	21.4	6.08e-01	0	38	0	20447232	61	5338
2026-01-23 12:10:24.22	178.37	8.18	-44.8	-48.3	21.4	6.07e-01	0	37	0	22020096	61	5338
2026-01-23 12:10:25.21	178.41	8.26	-45.0	-48.6	21.2	6.06e-01	0	37	0	24117248	61	5472
2026-01-23 12:10:26.20	178.45	8.34	-45.2	-49.0	20.7	6.06e-01	0	38	0	26214400	61	5750
2026-01-23 12:10:27.19	178.50	8.43	-45.6	-49.7	20.1	6.07e-01	0	37	0	27787264	61	6227
2026-01-23 12:10:28.19	178.54	8.51	-46.1	-50.5	19.3	6.07e-01	0	38	0	29884416	62	6467
2026-01-23 12:10:29.18	178.58	8.60	-46.7	-51.7	18.0	6.07e-01	0	38	0	31457280	64	6619
2026-01-23 12:10:30.17	178.62	8.68	-47.3	-53.1	16.6	6.05e-01	0	38	0	33554432	65	7368
2026-01-23 12:10:31.17	178.67	8.77	-47.9	-54.9	14.8	6.07e-01	0	38	0	35127296	66	8514
2026-01-23 12:10:32.16	178.71	8.86	-48.4	-56.9	12.9	6.10e-01	0	38	0	37224448	67	10064
2026-01-23 12:10:33.15	178.75	8.94	-48.9	-58.9	10.8	6.20e-01	0	38	0	38797312	68	12035
2026-01-23 12:10:34.15	178.80	9.03	-49.1	-60.9	8.7	6.37e-01	0	38	0	40894464	68	15182
2026-01-23 12:10:35.14	178.84	9.12	-49.0	-60.2	9.4	6.34e-01	0	38	0	42467328	68	14039
2026-01-23 12:10:36.13	178.89	9.20	-48.7	-61.2	8.3	6.43e-01	0	38	0	44564480	68	15737
2026-01-23 12:10:37.13	178.93	9.29	-48.1	-59.0	10.3	6.20e-01	0	38	0	46661632	68	12152
2026-01-23 12:10:38.12	178.98	9.38	-44.4	-49.2	20.8	6.07e-01	0	38	0	48234496	59	6614
2026-01-23 12:10:39.11	179.02	9.47	-49.1	-66.1	4.5	7.21e-01	0	38	104	49283072	68	27531
2026-01-23 12:10:40.11	179.07	9.56	-44.1	-49.1	20.7	6.05e-01	0	38	0	49807360	60	6182
2026-01-23 12:10:41.10	179.11	9.65	-43.4	-47.7	21.9	6.08e-01	0	38	0	51904512	58	5900
2026-01-23 12:10:42.10	179.16	9.74	-42.7	-46.5	23.1	6.05e-01	0	38	0	53477376	57	5442
2026-01-23 12:10:43.09	179.21	9.83	-42.6	-46.1	23.6	6.04e-01	0	38	0	55574528	57	5206
2026-01-23 12:10:44.09	179.25	9.92	-42.8	-46.2	23.6	6.06e-01	0	38	0	57147392	57	5221
2026-01-23 12:10:45.08	179.30	10.01	-42.8	-46.2	23.6	6.05e-01	0	38	0	59244544	57	5231
2026-01-23 12:10:46.08	179.35	10.10	-43.0	-46.1	23.6	6.04e-01	0	38	0	60817408	57	5212
2026-01-23 12:10:47.08	179.39	10.19	-43.1	-46.2	23.6	6.07e-01	0	38	0	62914560	57	5268
2026-01-23 12:10:48.07	179.44	10.28	-43.1	-46.1	23.6	6.07e-01	0	38	0	64487424	57	5208
2026-01-23 12:10:49.07	179.49	10.38	-43.2	-46.1	23.7	6.06e-01	0	38	0	66584576	57	5179
2026-01-23 12:10:50.06	179.54	10.47	-43.2	-46.0	23.8	6.07e-01	0	38	0	68681728	57	5150
2026-01-23 12:10:51.06	179.59	10.56	-43.3	-45.9	23.8	6.07e-01	0	38	0	70254592	57	5094
2026-01-23 12:10:52.05	179.64	10.65	-43.3	-46.0	23.8	6.07e-01	0	38	0	72351744	57	5109
2026-01-23 12:10:53.05	179.69	10.75	-43.3	-45.9	23.9	6.06e-01	0	38	0	73924608	57	5069
2026-01-23 12:10:54.04	179.74	10.84	-43.3	-46.0	23.9	6.06e-01	0	38	0	76021760	57	5124
2026-01-23 12:10:55.04	179.79	10.94	-43.2	-45.9	23.9	6.08e-01	0	38	0	77594624	57	5062
2026-01-23 12:10:56.03	179.84	11.03	-43.2	-45.9	23.9	6.06e-01	0	38	0	79691776	57	5075
2026-01-23 12:10:57.03	179.89	11.13	-43.2	-45.9	23.9	6.05e-01	0	38	0	81788928	57	5069
2026-01-23 12:10:58.02	179.94	11.22	-43.1	-45.8	24.0	6.07e-01	0	38	0	83361792	57	4985
2026-01-23 12:10:59.01	179.99	11.32	-43.0	-45.6	24.2	6.06e-01	0	38	0	85458944	57	4920
2026-01-23 12:11:00.01	180.04	11.42	-43.0	-45.7	24.2	6.04e-01	0	38	0	87031808	57	4933
2026-01-23 12:11:01.00	180.09	11.51	-43.0	-45.7	24.1	6.06e-01	0	38	0	89128960	57	4942
2026-01-23 12:11:02.00	180.15	11.61	-43.0	-45.7	24.1	6.08e-01	0	38	0	90701824	57	4953
2026-01-23 12:11:02.99	180.20	11.71	-42.8	-45.6	24.2	6.08e-01	0	38	0	92798976	57	4884
2026-01-23 12:11:03.99	180.25	11.81	-42.9	-45.6	24.2	6.06e-01	0	38	0	94371840	57	4923
2026-01-23 12:11:04.98	180.31	11.90	-42.9	-45.7	24.1	6.08e-01	0	38	0	96468992	57	4949
2026-01-23 12:11:05.98	180.36	12.00	-42.9	-45.6	24.2	6.07e-01	0	38	0	98566144	57	4904
2026-01-23 12:11:06.97	180.41	12.10	-42.9	-45.7	24.2	6.07e-01	0	38	0	100139008	57	4943
2026-01-23 12:11:07.97	180.47	12.20	-42.9	-45.7	24.1	6.08e-01	0	38	0	102236160	57	4967
2026-01-23 12:11:08.96	180.52	12.30	-42.8	-45.6	24.3	6.06e-01	0	38	0	103809024	57	4873
2026-01-23 12:11:09.96	180.58	12.40	-42.9	-45.6	24.2	6.05e-01	0	38	0	105906176	57	4918
2026-01-23 12:11:10.95	180.64	12.50	-42.8	-45.6	24.2	6.08e-01	0	38	0	107479040	57	4899
2026-01-23 12:11:11.95	180.69	12.61	-42.8	-45.7	24.2	6.06e-01	0	38	0	109576192	57	4930
2026-01-23 12:11:12.94	180.75	12.71	-42.8	-45.6	24.2	6.05e-01	0	38	0	111149056	57	4902
2026-01-23 12:11:13.94	180.81	12.81	-42.8	-45.6	24.2	6.06e-01	0	38	0	113246208	57	4920
2026-01-23 12:11:14.93	180.86	12.91	-42.7	-45.5	24.3	6.08e-01	0	38	0	115343360	57	4848
2026-01-23 12:11:15.93	180.92	13.02	-42.7	-45.5	24.3	6.04e-01	0	38	0	116916224	57	4854
2026-01-23 12:11:16.92	180.98	13.12	-42.7	-45.5	24.3	6.05e-01	0	38	0	119013376	57	4856
2026-01-23 12:11:17.91	181.04	13.23	-42.7	-45.4	22.6	6.06e-01	0	38	0	120586240	57	4809
2026-01-23 12:11:18.91	181.10	13.33	-42.6	-45.3	24.5	6.05e-01	0	38	0	122683392	57	4732
2026-01-23 12:11:19.90	181.16	13.44	-42.7	-45.3	24.5	6.04e-01	0	38	0	124256256	57	4758
2026-01-23 12:11:20.90	181.22	13.54	-42.7	-45.3	24.5	6.06e-01	0	38	0	126353408	57	4716
2026-01-23 12:11:21.89	181.28	13.65	-42.5	-45.1	24.7	6.07e-01	0	38	0	127926272	57	4639
2026-01-23 12:11:22.89	181.34	13.76	-42.5	-45.0	24.7	6.07e-01	0	38	0	130023424	57	4595
2026-01-23 12:11:23.88	181.40	13.86	-42.5	-45.1	24.7	6.05e-01	0	38	0	132120576	57	4622
2026-01-23 12:11:24.88	181.46	13.97	-42.5	-45.1	24.7	6.07e-01	0	38	0	133693440	57	4630
2026-01-23 12:11:25.88	181.52	14.08	-42.5	-45.2	21.0	6.04e-01	0	38	0	135790592	57	4655
2026-01-23 12:11:26.87	181.58	14.19	-42.6	-45.2	24.7	6.06e-01	0	38	0	137363456	57	4653
2026-01-23 12:11:27.87	181.65	14.30	-42.6	-45.3	24.6	6.07e-01	0	38	0	139460608	57	4723
2026-01-23 12:11:28.86	181.71	14.41	-42.6	-45.2	24.6	6.06e-01	0	38	0	141033472	57	4680
2026-01-23 12:11:29.86	181.78	14.52	-42.6	-45.3	24.6	6.06e-01	0	38	0	143130624	57	4715
2026-01-23 12:11:30.85	181.84	14.63	-42.7	-45.4	24.5	6.07e-01	0	38	0	145227776	57	4760
2026-01-23 12:11:31.85	181.91	14.74	-42.7	-45.3	24.5	6.07e-01	0	38	0	146800640	57	4733
2026-01-23 12:11:32.85	181.97	14.85	-42.7	-45.3	24.5	6.04e-01	0	38	0	148897792	57	4736
2026-01-23 12:11:33.84	182.04	14.97	-42.6	-45.3	23.3	6.08e-01	0	38	0	150470656	57	4721
2026-01-23 12:11:34.84	182.10	15.08	-42.7	-45.4	24.5	6.05e-01	0	38	0	152567808	57	4789
2026-01-23 12:11:35.83	182.17	15.19	-42.8	-45.5	24.4	6.06e-01	0	38	0	154140672	57	4850
2026-01-23 12:11:36.83	182.24	15.31	-42.6	-45.3	24.6	6.05e-01	0	38	0	156237824	57	4706
2026-01-23 12:11:37.82	182.31	15.42	-42.5	-45.1	24.7	6.06e-01	0	38	0	157810688	57	4644
2026-01-23 12:11:38.82	182.38	15.54	-42.5	-45.1	24.7	6.06e-01	0	38	0	159907840	56	4903
2026-01-23 12:11:39.81	182.44	15.65	-42.5	-45.1	24.8	6.09e-01	0	38	0	162004992	56	4901
2026-01-23 12:11:40.81	182.51	15.77	-42.4	-45.0	24.9	6.06e-01	0	38	0	163577856	56	4860
2026-01-23 12:11:41.80	182.58	15.89	-42.4	-45.1	24.8	6.09e-01	0	38	0	165675008	56	4874
2026-01-23 12:11:42.80	182.66	16.00	-42.5	-45.1	24.8	6.05e-01	0	38	0	167247872	56	4871
2026-01-23 12:11:43.79	182.73	16.12	-42.6	-45.2	24.7	6.05e-01	0	38	0	169345024	56	4933
2026-01-23 12:11:44.79	182.80	16.24	-42.7	-45.2	24.7	6.07e-01	0	38	0	170917888	56	4978
2026-01-23 12:11:45.78	182.87	16.36	-42.6	-45.1	24.7	6.09e-01	0	38	0	173015040	56	4922
2026-01-23 12:11:46.78	182.94	16.48	-42.7	-45.2	24.7	6.06e-01	0	37	0	174587904	56	4950
2026-01-23 12:11:47.77	183.02	16.60	-42.7	-45.2	24.7	6.07e-01	0	38	0	176685056	56	4958
2026-01-23 12:11:48.77	183.09	16.72	-42.7	-45.2	24.7	6.06e-01	0	38	0	178782208	56	4949
2026-01-23 12:11:49.76	183.17	16.84	-42.7	-45.2	24.7	6.04e-01	0	38	0	180355072	56	4981
2026-01-23 12:11:50.76	183.24	16.97	-42.6	-45.1	24.8	6.06e-01	0	38	0	182452224	56	4911
2026-01-23 12:11:51.75	183.32	17.09	-42.6	-45.1	24.2	6.08e-01	0	38	0	184025088	56	4895
2026-01-23 12:11:52.75	183.40	17.21	-42.6	-45.1	24.7	6.05e-01	0	38	0	186122240	56	4926
2026-01-23 12:11:53.74	183.47	17.34	-42.5	-45.0	24.8	6.05e-01	0	38	0	187695104	56	4869
2026-01-23 12:11:54.74	183.55	17.46	-42.5	-45.0	24.9	6.05e-01	0	38	0	189792256	56	4827
2026-01-23 12:11:55.73	183.63	17.59	-42.4	-44.9	25.0	6.07e-01	0	38	0	191365120	56	4796
2026-01-23 12:11:56.73	183.71	17.72	-42.4	-44.9	25.0	6.06e-01	0	38	0	193462272	56	4783
2026-01-23 12:11:57.72	183.79	17.84	-42.4	-44.9	25.0	6.07e-01	0	38	0	195559424	56	4791
2026-01-23 12:11:58.72	183.87	17.97	-42.4	-44.9	24.9	6.07e-01	0	38	0	197132288	56	4796
2026-01-23 12:11:59.72	183.95	18.10	-42.3	-44.8	25.1	6.06e-01	0	38	0	199229440	56	4740
2026-01-23 12:12:00.71	184.04	18.23	-42.3	-44.9	25.0	6.07e-01	0	38	0	200802304	56	4783
2026-01-23 12:12:01.70	184.12	18.36	-42.3	-45.0	24.9	6.07e-01	0	38	0	202899456	56	4815
2026-01-23 12:12:02.70	184.20	18.49	-42.4	-45.0	24.9	6.07e-01	0	38	0	204472320	56	4844
2026-01-23 12:12:03.69	184.29	18.62	-42.5	-45.1	24.8	6.05e-01	0	38	0	206569472	56	4893
2026-01-23 12:12:04.69	184.37	18.75	-42.5	-45.1	24.8	6.05e-01	0	38	0	208142336	56	4918
2026-01-23 12:12:05.69	184.46	18.89	-42.5	-45.1	24.8	6.05e-01	0	38	0	210239488	56	4904
2026-01-23 12:12:06.68	184.54	19.02	-42.6	-45.1	24.8	6.05e-01	0	38	0	212336640	56	4921
2026-01-23 12:12:07.68	184.63	19.15	-42.7	-45.3	24.6	6.06e-01	0	38	0	213909504	56	5007
2026-01-23 12:12:08.67	184.72	19.29	-42.5	-45.1	24.8	6.06e-01	0	38	0	216006656	56	4914
2026-01-23 12:12:09.67	184.81	19.43	-42.6	-45.2	24.8	6.06e-01	0	38	0	217579520	56	4933
2026-01-23 12:12:10.66	184.90	19.56	-42.5	-45.0	24.9	6.06e-01	0	38	0	219676672	56	4857
2026-01-23 12:12:11.66	184.99	19.70	-42.5	-45.0	24.9	6.06e-01	0	38	0	221249536	56	4868
2026-01-23 12:12:12.66	185.08	19.84	-42.4	-44.9	25.0	6.06e-01	0	38	0	223346688	56	4779
2026-01-23 12:12:13.65	185.17	19.98	-42.3	-44.8	25.1	6.05e-01	0	38	0	225443840	56	4737
2026-01-23 12:12:14.65	185.27	20.12	-42.4	-44.9	25.1	6.06e-01	0	38	0	227016704	56	4780
2026-01-23 12:12:15.64	185.36	20.26	-42.3	-44.9	25.1	6.06e-01	0	38	0	229113856	56	4770
2026-01-23 12:12:16.63	185.46	20.40	-42.4	-45.0	25.0	6.06e-01	0	38	0	230686720	56	4839
2026-01-23 12:12:17.63	185.55	20.54	-42.5	-45.0	24.7	6.05e-01	0	38	0	232783872	56	4841
2026-01-23 12:12:18.62	185.65	20.68	-42.5	-45.1	24.9	6.05e-01	0	38	0	234356736	56	4873
2026-01-23 12:12:19.62	185.75	20.83	-42.5	-45.0	24.9	6.07e-01	0	38	0	236453888	56	4862
2026-01-23 12:12:20.61	185.85	20.97	-42.5	-45.0	24.9	6.07e-01	0	38	0	238026752	56	4867
2026-01-23 12:12:21.61	185.95	21.12	-42.5	-45.1	24.9	6.06e-01	0	38	0	240123904	56	4871
2026-01-23 12:12:22.60	186.05	21.26	-42.4	-45.0	24.9	6.07e-01	0	38	0	242221056	56	4819
2026-01-23 12:12:23.60	186.15	21.41	-42.5	-45.1	24.9	6.07e-01	0	38	0	243793920	56	4875
2026-01-23 12:12:24.59	186.25	21.56	-42.5	-45.0	24.9	6.05e-01	0	38	0	245891072	56	4849
2026-01-23 12:12:25.59	186.35	21.70	-42.6	-45.1	24.8	6.05e-01	0	38	0	247463936	56	4924
2026-01-23 12:12:26.58	186.46	21.85	-42.7	-45.2	24.7	6.04e-01	0	38	0	249561088	56	4970
2026-01-23 12:12:27.58	186.56	22.00	-42.7	-45.2	24.7	6.05e-01	0	38	0	251133952	56	4972
2026-01-23 12:12:28.57	186.67	22.16	-42.7	-45.3	24.7	6.05e-01	0	38	0	253231104	56	4988
2026-01-23 12:12:29.57	186.78	22.31	-42.8	-45.3	24.7	6.05e-01	0	38	0	254803968	56	5030
2026-01-23 12:12:30.56	186.89	22.46	-42.8	-45.3	24.7	6.05e-01	0	38	0	256901120	56	4996
2026-01-23 12:12:31.56	187.00	22.62	-42.8	-45.3	24.7	6.07e-01	0	38	0	258998272	56	5003
2026-01-23 12:12:32.55	187.11	22.77	-42.7	-45.1	24.8	6.07e-01	0	38	0	260571136	56	4907
2026-01-23 12:12:33.55	187.22	22.93	-42.7	-45.2	24.7	6.04e-01	0	38	0	262668288	56	4978
2026-01-23 12:12:34.54	187.33	23.08	-42.7	-45.2	24.8	6.07e-01	0	38	0	264241152	56	4969
2026-01-23 12:12:35.53	187.44	23.24	-42.8	-45.3	24.7	6.05e-01	0	38	0	266338304	56	4997
2026-01-23 12:12:36.53	187.56	23.40	-42.9	-45.4	24.6	6.08e-01	0	38	0	267911168	56	5077
2026-01-23 12:12:37.52	187.68	23.56	-42.9	-45.4	24.5	6.07e-01	0	38	0	270008320	56	5100
2026-01-23 12:12:38.52	187.80	23.72	-42.9	-45.4	24.6	6.05e-01	0	38	0	272105472	56	5096
2026-01-23 12:12:39.51	187.91	23.88	-42.9	-45.5	24.6	6.07e-01	0	38	0	273678336	56	5110
2026-01-23 12:12:40.51	188.04	24.04	-42.8	-45.3	24.7	6.05e-01	0	38	0	275775488	56	5021
2026-01-23 12:12:41.50	188.16	24.20	-42.9	-45.3	24.7	6.09e-01	0	38	0	277348352	56	5034
2026-01-23 12:12:42.50	188.28	24.37	-43.0	-45.4	24.6	6.07e-01	0	38	0	279445504	56	5084
2026-01-23 12:12:43.49	188.40	24.53	-42.9	-45.3	24.7	6.08e-01	0	38	0	281018368	56	5035
2026-01-23 12:12:44.49	188.53	24.70	-42.9	-45.3	24.7	6.07e-01	0	38	0	283115520	56	5031
2026-01-23 12:12:45.48	188.66	24.87	-43.0	-45.5	24.6	6.07e-01	0	38	0	284688384	56	5107
2026-01-23 12:12:46.47	188.78	25.04	-43.0	-45.4	24.6	6.05e-01	0	38	0	286785536	56	5075
2026-01-23 12:12:47.47	188.91	25.21	-43.0	-45.5	24.6	6.06e-01	0	38	0	288882688	56	5105
2026-01-23 12:12:48.47	189.05	25.38	-43.0	-45.5	24.5	6.06e-01	0	38	0	290455552	56	5108
2026-01-23 12:12:49.46	189.18	25.55	-43.1	-45.5	24.6	6.07e-01	0	38	0	292552704	56	5137
2026-01-23 12:12:50.45	189.31	25.72	-43.0	-45.4	24.6	6.08e-01	0	38	0	294125568	56	5070
2026-01-23 12:12:51.45	189.45	25.90	-43.0	-45.5	24.6	6.06e-01	0	38	0	296222720	56	5102
2026-01-23 12:12:52.44	189.58	26.07	-42.9	-45.3	24.8	6.07e-01	0	38	0	297795584	56	4993
2026-01-23 12:12:53.44	189.72	26.25	-42.8	-45.2	24.8	6.06e-01	0	38	0	299892736	56	4947
2026-01-23 12:12:54.43	189.86	26.42	-42.8	-45.2	24.8	6.03e-01	0	38	0	301465600	56	4974
2026-01-23 12:12:55.43	190.00	26.60	-42.8	-45.1	24.9	6.07e-01	0	38	0	303562752	56	4917
2026-01-23 12:12:56.43	190.15	26.78	-42.8	-45.2	24.8	6.08e-01	0	38	0	305659904	56	4937
2026-01-23 12:12:57.42	190.29	26.96	-42.8	-45.2	24.9	6.07e-01	0	38	0	307232768	56	4934
2026-01-23 12:12:58.41	190.44	27.14	-42.7	-45.1	24.9	6.06e-01	0	38	0	309329920	56	4907
2026-01-23 12:12:59.41	190.59	27.32	-42.6	-45.0	24.9	6.06e-01	0	38	0	310902784	56	4863
2026-01-23 12:13:00.40	190.74	27.51	-42.6	-45.0	25.0	6.07e-01	0	38	0	312999936	56	4828
2026-01-23 12:13:01.40	190.89	27.69	-42.6	-45.0	25.0	6.07e-01	0	38	0	314572800	56	4868
2026-01-23 12:13:02.39	191.04	27.88	-42.7	-45.1	24.9	6.08e-01	0	38	0	316669952	56	4913
2026-01-23 12:13:03.39	191.20	28.06	-42.7	-45.1	24.9	6.04e-01	0	38	0	318242816	56	4907
2026-01-23 12:13:04.38	191.35	28.25	-42.7	-45.1	25.0	6.05e-01	0	38	0	320339968	56	4876
2026-01-23 12:13:05.38	191.51	28.44	-42.4	-44.7	25.3	6.05e-01	0	38	0	322437120	56	4683
2026-01-23 12:13:06.37	191.68	28.63	-42.3	-44.6	25.4	6.08e-01	0	38	0	324009984	56	4625
2026-01-23 12:13:07.37	191.84	28.82	-42.4	-44.8	25.3	6.04e-01	0	38	0	326107136	56	4706
2026-01-23 12:13:08.36	192.00	29.02	-42.4	-44.7	25.3	6.09e-01	0	38	0	327680000	56	4704
2026-01-23 12:13:09.36	192.17	29.21	-42.4	-44.7	25.3	6.07e-01	0	38	0	329777152	56	4697
2026-01-23 12:13:10.35	192.34	29.41	-42.4	-44.7	25.3	6.06e-01	0	38	0	331350016	56	4677
2026-01-23 12:13:11.35	192.51	29.60	-42.5	-44.8	25.2	6.06e-01	0	38	0	333447168	56	4741
2026-01-23 12:13:12.34	192.68	29.80	-42.5	-44.9	25.2	6.05e-01	0	38	0	335020032	56	4762
2026-01-23 12:13:13.34	192.86	30.00	-42.6	-44.9	25.1	6.06e-01	0	38	0	337117184	56	4778
2026-01-23 12:13:14.33	193.04	30.20	-42.6	-44.9	25.1	6.08e-01	0	38	0	339214336	56	4811
2026-01-23 12:13:15.33	193.22	30.40	-42.6	-44.9	25.2	6.07e-01	0	38	0	340787200	56	4794
2026-01-23 12:13:16.32	193.40	30.60	-42.6	-44.9	25.2	6.06e-01	0	38	0	342884352	56	4764
2026-01-23 12:13:17.32	193.58	30.81	-42.6	-45.0	25.1	6.07e-01	0	38	0	344457216	56	4817
2026-01-23 12:13:18.31	193.77	31.01	-42.6	-44.9	25.1	6.08e-01	0	38	0	346554368	56	4801
2026-01-23 12:13:19.31	193.96	31.22	-42.6	-44.9	25.1	6.07e-01	0	38	0	348127232	56	4809
2026-01-23 12:13:20.30	194.15	31.42	-42.6	-44.9	25.1	6.07e-01	0	38	0	350224384	56	4800
2026-01-23 12:13:21.30	194.35	31.63	-42.5	-44.9	25.2	6.04e-01	0	38	0	352321536	56	4783
2026-01-23 12:13:22.29	194.54	31.84	-42.6	-45.0	25.1	6.06e-01	0	38	0	353894400	56	4821
2026-01-23 12:13:23.29	194.74	32.05	-42.6	-45.0	25.1	6.07e-01	0	38	0	355991552	56	4853
2026-01-23 12:13:24.28	194.94	32.26	-42.7	-45.1	25.0	6.07e-01	0	38	0	357564416	56	4889
2026-01-23 12:13:25.27	195.15	32.48	-42.8	-45.2	24.9	6.07e-01	0	38	0	359661568	56	4937
2026-01-23 12:13:26.27	195.36	32.69	-42.7	-45.2	24.9	6.05e-01	0	38	0	361234432	56	4927
2026-01-23 12:13:27.26	195.56	32.91	-42.8	-45.3	24.9	6.07e-01	0	38	0	363331584	56	4986
2026-01-23 12:13:28.25	195.78	33.12	-43.0	-45.4	24.7	6.04e-01	0	38	0	364904448	56	5062
2026-01-23 12:13:29.25	195.99	33.34	-43.2	-45.6	24.5	6.08e-01	0	38	0	367001600	56	5183
2026-01-23 12:13:30.24	196.21	33.56	-43.1	-45.5	24.6	6.07e-01	0	38	0	368574464	57	4864
2026-01-23 12:13:31.24	196.43	33.78	-43.1	-45.5	24.6	6.07e-01	0	38	0	370671616	57	4856
2026-01-23 12:13:32.23	196.66	34.00	-43.2	-45.6	24.6	6.08e-01	0	38	0	372768768	57	4890
2026-01-23 12:13:33.23	196.89	34.23	-43.1	-45.6	24.6	6.07e-01	0	38	0	374341632	57	4889
2026-01-23 12:13:34.22	197.12	34.45	-43.2	-45.7	24.5	6.04e-01	0	38	0	376438784	57	4935
2026-01-23 12:13:35.21	197.35	34.68	-43.4	-45.8	24.4	6.05e-01	0	38	0	378011648	57	5032
2026-01-23 12:13:36.21	197.59	34.91	-43.7	-46.2	24.0	6.07e-01	0	38	0	380108800	58	4969
2026-01-23 12:13:37.20	197.83	35.13	-43.7	-46.2	24.0	6.06e-01	0	38	0	381681664	58	4954
2026-01-23 12:13:38.20	198.07	35.36	-43.8	-46.3	23.9	6.06e-01	0	38	0	383778816	58	5003
2026-01-23 12:13:39.19	198.32	35.59	-43.8	-46.4	23.9	6.06e-01	0	38	0	385351680	58	5056
2026-01-23 12:13:40.19	198.57	35.83	-44.0	-46.6	23.7	6.07e-01	0	38	0	387448832	58	5171
2026-01-23 12:13:41.18	198.83	36.06	-43.9	-46.4	23.9	6.07e-01	0	38	0	389545984	58	5069
2026-01-23 12:13:42.18	199.09	36.29	-43.9	-46.5	23.8	6.07e-01	0	38	0	391118848	58	5132
2026-01-23 12:13:43.17	199.35	36.53	-44.2	-46.8	23.5	6.06e-01	0	38	0	393216000	58	5324
2026-01-23 12:13:44.17	199.62	36.76	-44.3	-47.0	23.2	6.07e-01	0	38	0	394788864	59	5146
2026-01-23 12:13:45.17	199.89	37.00	-44.1	-46.8	23.5	6.07e-01	0	38	0	396886016	59	5010
2026-01-23 12:13:46.16	200.16	37.24	-44.2	-46.9	23.4	6.07e-01	0	38	0	398458880	59	5063
2026-01-23 12:13:47.16	200.44	37.48	-44.2	-46.9	23.4	6.05e-01	0	38	0	400556032	59	5062
2026-01-23 12:13:48.15	200.72	37.72	-44.1	-46.8	23.5	6.07e-01	0	38	0	402653184	59	5028
2026-01-23 12:13:49.15	201.01	37.97	-44.5	-47.3	23.0	6.05e-01	0	38	0	404226048	59	5296
2026-01-23 12:13:50.14	201.30	38.21	-44.4	-47.1	23.0	6.05e-01	0	38	0	406323200	60	4907
2026-01-23 12:13:51.14	201.60	38.45	-44.0	-46.6	23.5	6.07e-01	0	38	0	407896064	60	4649
2026-01-23 12:13:52.14	201.90	38.70	-44.1	-46.7	23.6	6.07e-01	0	38	0	409993216	59	4960
2026-01-23 12:13:53.13	202.20	38.94	-44.2	-46.8	23.4	6.08e-01	0	38	0	411566080	59	5016
2026-01-23 12:13:54.13	202.51	39.19	-44.0	-46.7	23.6	6.09e-01	0	38	0	413663232	59	4929
2026-01-23 12:13:55.12	202.83	39.44	-43.8	-46.4	23.8	6.05e-01	0	38	0	415236096	59	4781
2026-01-23 12:13:56.12	203.15	39.69	-43.8	-46.4	23.8	6.06e-01	0	38	0	417333248	59	4809
2026-01-23 12:13:57.11	203.47	39.94	-43.7	-46.3	23.9	6.05e-01	0	38	0	419430400	59	4751
2026-01-23 12:13:58.11	203.80	40.19	-43.5	-46.1	24.1	6.05e-01	0	38	0	421003264	59	4630
2026-01-23 12:13:59.10	204.13	40.44	-43.4	-45.9	24.3	6.06e-01	0	38	0	423100416	58	4799
2026-01-23 12:14:00.10	204.48	40.70	-43.2	-45.7	24.5	6.04e-01	0	38	0	424673280	58	4699
2026-01-23 12:14:01.09	204.82	40.95	-43.1	-45.7	24.5	6.06e-01	0	38	0	426770432	58	4653
2026-01-23 12:14:02.09	205.17	41.20	-43.1	-45.5	24.6	6.06e-01	0	38	0	428343296	58	4593
2026-01-23 12:14:03.09	205.53	41.46	-43.2	-45.7	24.5	6.06e-01	0	38	0	430440448	58	4654
2026-01-23 12:14:04.08	205.89	41.71	-43.3	-45.8	24.3	6.05e-01	0	38	0	432013312	58	4741
2026-01-23 12:14:05.07	206.25	41.97	-43.0	-45.4	24.7	6.07e-01	0	38	0	434110464	58	4522
2026-01-23 12:14:06.07	206.63	42.23	-42.7	-45.2	24.9	6.07e-01	0	38	0	436207616	57	4655
2026-01-23 12:14:07.07	207.01	42.49	-42.6	-45.0	25.1	6.03e-01	0	38	0	437780480	57	4585
2026-01-23 12:14:08.06	207.39	42.74	-42.8	-45.2	25.0	6.04e-01	0	38	0	439877632	57	4660
2026-01-23 12:14:09.06	207.79	43.00	-42.6	-44.9	25.2	6.06e-01	0	38	0	441450496	57	4525
2026-01-23 12:14:10.05	208.18	43.26	-42.5	-44.8	25.2	6.06e-01	0	38	0	443547648	56	4758
2026-01-23 12:14:11.05	208.59	43.52	-42.4	-44.7	25.4	6.08e-01	0	38	0	445120512	56	4697
2026-01-23 12:14:12.04	209.00	43.78	-42.1	-44.5	25.6	6.06e-01	0	38	0	447217664	56	4558
2026-01-23 12:14:13.04	209.42	44.04	-42.2	-44.6	25.5	6.05e-01	0	38	0	448790528	56	4608
2026-01-23 12:14:14.03	209.84	44.29	-42.2	-44.5	25.5	6.06e-01	0	38	0	450887680	56	4569
2026-01-23 12:14:15.03	210.28	44.56	-42.1	-44.4	25.7	6.08e-01	0	38	0	452984832	56	4495
2026-01-23 12:14:16.02	210.72	44.81	-42.1	-44.3	25.7	6.06e-01	0	38	0	454557696	56	4483
2026-01-23 12:14:17.01	211.16	45.07	-42.1	-44.4	25.7	6.06e-01	0	38	0	456654848	56	4502
2026-01-23 12:14:18.01	211.62	45.33	-42.0	-44.3	25.8	6.06e-01	0	38	0	458227712	56	4443
2026-01-23 12:14:19.00	212.07	45.59	-41.8	-44.1	25.9	6.06e-01	0	38	0	460324864	55	4605
2026-01-23 12:14:20.00	212.55	45.85	-41.8	-44.1	25.8	6.06e-01	0	38	0	461897728	55	4625
2026-01-23 12:14:20.99	213.02	46.11	-41.9	-44.2	25.8	6.04e-01	0	38	0	463994880	55	4654
2026-01-23 12:14:21.98	213.50	46.37	-41.8	-44.1	25.8	6.06e-01	0	38	0	465567744	55	4603
2026-01-23 12:14:22.98	214.00	46.62	-41.9	-44.1	25.8	6.06e-01	0	38	0	467664896	55	4623
2026-01-23 12:14:23.97	214.50	46.88	-42.1	-44.3	25.6	6.07e-01	0	38	0	469762048	55	4758
2026-01-23 12:14:24.97	215.01	47.14	-41.8	-44.0	25.9	6.07e-01	0	38	0	471334912	55	4591
2026-01-23 12:14:25.96	215.52	47.39	-41.9	-44.2	25.7	6.06e-01	0	38	0	473432064	55	4683
2026-01-23 12:14:26.96	216.05	47.65	-42.1	-44.4	25.6	6.06e-01	0	38	0	475004928	55	4780
2026-01-23 12:14:27.95	216.58	47.90	-42.2	-44.5	25.5	6.06e-01	0	38	0	477102080	55	4850
2026-01-23 12:14:28.95	217.13	48.15	-42.1	-44.4	25.6	6.05e-01	0	38	0	479199232	55	4770
2026-01-23 12:14:29.94	217.68	48.40	-42.3	-44.6	25.4	6.05e-01	0	38	0	480772096	55	4894
2026-01-23 12:14:30.94	218.24	48.65	-42.2	-44.4	25.5	6.06e-01	0	38	0	482344960	55	4808
2026-01-23 12:14:31.93	218.81	48.90	-42.3	-44.6	25.4	6.06e-01	0	38	0	484442112	55	4893
2026-01-23 12:14:32.93	219.39	49.15	-42.2	-44.5	25.4	6.07e-01	0	38	0	486539264	55	4852
2026-01-23 12:14:33.92	219.98	49.39	-42.4	-44.7	25.3	6.06e-01	0	38	0	488112128	55	4936
2026-01-23 12:14:34.92	220.58	49.64	-42.4	-44.7	25.3	6.05e-01	0	38	0	490209280	55	4936
2026-01-23 12:14:35.91	221.19	49.88	-42.3	-44.6	25.5	6.06e-01	0	38	0	491782144	55	4872
2026-01-23 12:14:36.91	221.81	50.12	-41.9	-44.1	25.9	6.05e-01	0	38	0	493879296	55	4612
2026-01-23 12:14:37.90	222.43	50.36	-42.0	-44.3	25.7	6.05e-01	0	38	0	495976448	55	4738
2026-01-23 12:14:38.90	223.07	50.59	-42.1	-44.3	25.7	6.06e-01	0	38	0	497549312	55	4757
2026-01-23 12:14:39.89	223.72	50.82	-41.9	-44.2	25.8	6.05e-01	0	38	0	499122176	55	4659
2026-01-23 12:14:40.89	224.38	51.05	-42.0	-44.3	25.5	6.04e-01	0	38	0	501219328	55	4753
2026-01-23 12:14:41.88	225.04	51.28	-41.9	-44.3	25.7	6.05e-01	0	38	0	503316480	55	4718
2026-01-23 12:14:42.87	225.72	51.50	-42.2	-44.6	25.4	6.07e-01	0	38	0	504889344	55	4915
2026-01-23 12:14:43.87	226.41	51.72	-42.2	-44.5	25.4	6.06e-01	0	38	0	506986496	55	4854
2026-01-23 12:14:44.86	227.11	51.94	-42.4	-44.7	25.4	6.06e-01	0	38	0	508559360	55	4946
2026-01-23 12:14:45.86	227.82	52.16	-42.7	-45.1	25.0	6.07e-01	0	38	0	510656512	56	4875
2026-01-23 12:14:46.86	228.54	52.37	-42.5	-44.8	25.3	6.06e-01	0	38	0	512753664	56	4729
2026-01-23 12:14:47.85	229.27	52.57	-42.6	-44.9	25.2	6.07e-01	0	38	0	514326528	56	4814
2026-01-23 12:14:48.84	230.00	52.78	-42.7	-45.1	25.1	6.06e-01	0	38	0	515899392	56	4889
2026-01-23 12:14:49.84	230.76	52.98	-42.6	-44.9	25.3	6.04e-01	0	38	0	517996544	56	4777
2026-01-23 12:14:50.83	231.51	53.17	-42.5	-44.8	25.3	6.07e-01	0	38	0	520093696	56	4742
2026-01-23 12:14:51.83	232.29	53.36	-42.6	-44.9	25.2	6.09e-01	0	38	0	521666560	56	4801
2026-01-23 12:14:52.82	233.06	53.55	-42.6	-45.0	25.2	6.06e-01	0	38	0	523763712	56	4848
2026-01-23 12:14:53.82	233.86	53.73	-42.4	-44.8	25.3	6.08e-01	0	38	0	525336576	56	4721
2026-01-23 12:14:54.81	234.65	53.91	-42.4	-44.7	25.4	6.04e-01	0	38	0	527433728	56	4701
2026-01-23 12:14:55.81	235.47	54.08	-42.7	-45.1	25.1	6.07e-01	0	38	0	529530880	56	4873
2026-01-23 12:14:56.80	236.28	54.24	-42.5	-45.0	25.2	6.07e-01	0	38	0	531103744	56	4826
2026-01-23 12:14:57.79	237.10	54.41	-42.6	-45.0	25.1	6.06e-01	0	38	0	533200896	56	4855
2026-01-23 12:14:58.79	237.95	54.56	-42.6	-45.0	25.2	6.06e-01	0	38	0	534773760	56	4857
2026-01-23 12:14:59.78	238.79	54.71	-43.0	-45.4	24.8	6.07e-01	0	38	0	536870912	56	5095
2026-01-23 12:15:00.78	239.65	54.86	-43.0	-45.4	24.8	6.04e-01	0	38	0	538443776	56	5091
2026-01-23 12:15:01.77	240.51	55.00	-43.3	-45.7	24.5	6.07e-01	0	38	0	540540928	57	4962
2026-01-23 12:15:02.77	241.39	55.13	-43.7	-46.2	24.1	6.06e-01	0	38	0	542113792	58	4982
2026-01-23 12:15:03.76	242.26	55.26	-43.2	-45.6	24.7	6.07e-01	0	38	0	544210944	58	4619
2026-01-23 12:15:04.76	243.15	55.38	-43.4	-45.9	24.3	6.07e-01	0	38	0	546308096	58	4781
2026-01-23 12:15:05.75	244.05	55.49	-43.2	-45.7	24.6	6.07e-01	0	38	0	547880960	58	4670
2026-01-23 12:15:06.75	244.95	55.60	-43.3	-45.8	24.5	6.06e-01	0	38	0	549978112	58	4706
2026-01-23 12:15:07.74	245.86	55.70	-43.4	-45.8	24.4	6.07e-01	0	38	0	551550976	58	4754
2026-01-23 12:15:08.73	246.77	55.79	-43.2	-45.6	24.6	6.08e-01	0	38	0	553648128	58	4611
2026-01-23 12:15:09.73	247.69	55.88	-43.5	-45.9	24.4	6.06e-01	0	38	0	555220992	58	4810
2026-01-23 12:15:10.72	248.62	55.96	-43.4	-45.8	24.4	6.06e-01	0	38	0	557318144	58	4745
2026-01-23 12:15:11.72	249.55	56.03	-43.4	-45.9	24.4	6.05e-01	0	38	0	558891008	58	4772
2026-01-23 12:15:12.71	250.49	56.10	-43.4	-45.9	24.3	6.06e-01	0	38	0	560988160	58	4800
2026-01-23 12:15:13.71	251.43	56.15	-43.6	-46.1	24.1	6.07e-01	0	38	0	563085312	58	4899
2026-01-23 12:15:14.70	252.37	56.21	-43.5	-46.0	24.3	6.07e-01	0	38	0	564658176	58	4827
2026-01-23 12:15:15.70	253.32	56.25	-43.7	-46.2	24.1	6.06e-01	0	38	0	566755328	58	4949
2026-01-23 12:15:16.69	254.27	56.28	-43.7	-46.2	24.1	6.07e-01	0	38	0	568328192	58	4965
2026-01-23 12:15:17.69	255.23	56.31	-43.6	-46.0	24.2	6.08e-01	0	38	0	570425344	58	4860
2026-01-23 12:15:18.68	256.18	56.33	-43.8	-46.3	23.9	6.08e-01	0	38	0	571998208	58	5039
2026-01-23 12:15:19.67	257.13	56.35	-43.7	-46.3	24.0	6.06e-01	0	38	0	574095360	58	4999
2026-01-23 12:15:20.67	258.09	56.35	-43.7	-46.2	24.0	6.05e-01	0	38	0	575668224	58	4980
2026-01-23 12:15:21.66	259.04	56.35	-43.5	-46.1	24.2	6.07e-01	0	38	0	577765376	58	4877
2026-01-23 12:15:22.66	260.00	56.34	-43.5	-46.2	24.1	6.06e-01	0	38	0	579862528	58	4930
2026-01-23 12:15:23.66	260.96	56.33	-43.6	-46.1	24.2	6.06e-01	0	38	0	581435392	58	4881
2026-01-23 12:15:24.65	261.91	56.30	-43.6	-46.0	24.2	6.08e-01	0	38	0	583532544	58	4851
2026-01-23 12:15:25.64	262.85	56.27	-43.3	-45.8	24.5	6.05e-01	0	38	0	585105408	58	4727
2026-01-23 12:15:26.64	263.81	56.23	-43.5	-46.1	24.2	6.05e-01	0	38	0	587202560	58	4881
2026-01-23 12:15:27.63	264.75	56.18	-43.6	-46.1	24.2	6.07e-01	0	38	0	588775424	58	4917
2026-01-23 12:15:28.63	265.70	56.13	-43.7	-46.2	24.1	6.04e-01	0	38	0	590872576	58	4930
2026-01-23 12:15:29.62	266.63	56.07	-43.7	-46.3	24.1	6.07e-01	0	38	0	592445440	58	5002
2026-01-23 12:15:30.62	267.57	56.00	-43.6	-46.1	24.1	6.06e-01	0	38	0	594542592	58	4892
2026-01-23 12:15:31.61	268.49	55.92	-43.6	-46.1	24.2	6.06e-01	0	38	0	596639744	58	4899
2026-01-23 12:15:32.60	269.41	55.84	-43.5	-46.0	24.1	6.07e-01	0	38	0	598212608	58	4846
2026-01-23 12:15:33.60	270.34	55.75	-43.1	-45.5	24.7	6.08e-01	0	38	0	600309760	58	4587
2026-01-23 12:15:34.59	271.24	55.65	-43.4	-45.9	24.3	6.05e-01	0	38	0	601882624	58	4802
2026-01-23 12:15:35.59	272.15	55.55	-43.4	-45.9	24.3	6.07e-01	0	38	0	603979776	58	4787
2026-01-23 12:15:36.58	273.05	55.44	-42.9	-45.3	24.9	6.08e-01	0	38	0	605552640	57	4737
2026-01-23 12:15:37.58	273.94	55.32	-43.2	-45.6	24.6	6.06e-01	0	38	0	607649792	57	4926
2026-01-23 12:15:38.58	274.83	55.20	-43.2	-45.7	24.6	6.05e-01	0	38	0	609222656	57	4932
2026-01-23 12:15:39.57	275.70	55.07	-43.0	-45.4	24.8	6.07e-01	0	38	0	611319808	57	4786
2026-01-23 12:15:40.56	276.57	54.94	-43.1	-45.5	24.7	6.06e-01	0	38	0	613416960	57	4837
2026-01-23 12:15:41.56	277.43	54.80	-42.9	-45.3	24.9	6.04e-01	0	38	0	614989824	57	4731
2026-01-23 12:15:42.55	278.28	54.65	-42.9	-45.3	24.9	6.07e-01	0	38	0	617086976	57	4751
2026-01-23 12:15:43.55	279.12	54.50	-42.9	-45.2	24.9	6.06e-01	0	38	0	618659840	57	4691
2026-01-23 12:15:44.54	279.95	54.34	-42.7	-45.0	25.1	6.07e-01	0	38	0	620756992	57	4596
2026-01-23 12:15:45.54	280.78	54.17	-43.1	-45.5	24.7	6.06e-01	0	38	0	622329856	57	4852
2026-01-23 12:15:46.53	281.59	54.01	-42.9	-45.4	24.8	6.07e-01	0	38	0	624427008	57	4780
2026-01-23 12:15:47.53	282.39	53.83	-42.8	-45.3	24.9	6.06e-01	0	38	0	625999872	57	4722
2026-01-23 12:15:48.52	283.18	53.65	-43.0	-45.5	24.8	6.06e-01	0	38	0	628097024	57	4819
2026-01-23 12:15:49.51	283.96	53.47	-43.1	-45.5	24.7	6.06e-01	0	38	0	630194176	57	4815
2026-01-23 12:15:50.51	284.74	53.28	-43.2	-45.6	24.7	6.06e-01	0	38	0	631767040	57	4871
2026-01-23 12:15:51.50	285.50	53.09	-43.1	-45.5	24.7	6.06e-01	0	38	0	633864192	57	4866
2026-01-23 12:15:52.50	286.26	52.90	-43.0	-45.3	24.9	6.06e-01	0	38	0	635437056	57	4750
2026-01-23 12:15:53.49	287.00	52.70	-43.1	-45.5	24.7	6.07e-01	0	38	0	637534208	57	4867
2026-01-23 12:15:54.49	287.74	52.49	-42.7	-45.0	25.1	6.05e-01	0	38	0	639107072	57	4598
2026-01-23 12:15:55.48	288.46	52.28	-42.9	-45.3	24.9	6.06e-01	0	38	0	641204224	57	4718
2026-01-23 12:15:56.47	289.17	52.07	-42.9	-45.4	24.8	6.06e-01	0	38	0	642777088	57	4763
2026-01-23 12:15:57.47	289.87	51.86	-43.1	-45.5	24.7	6.08e-01	0	38	0	644874240	57	4860
2026-01-23 12:15:58.46	290.56	51.64	-43.1	-45.5	24.7	6.06e-01	0	38	0	646971392	57	4858
2026-01-23 12:15:59.46	291.25	51.42	-43.4	-45.8	24.5	6.09e-01	0	38	0	648544256	57	5035
2026-01-23 12:16:00.45	291.92	51.19	-43.6	-46.1	24.1	6.07e-01	0	38	0	650641408	58	4897
2026-01-23 12:16:01.45	292.58	50.97	-43.3	-45.8	24.5	6.05e-01	0	38	0	652214272	58	4706
2026-01-23 12:16:02.44	293.23	50.74	-43.1	-45.6	24.5	6.05e-01	0	38	0	654311424	58	4640
2026-01-23 12:16:03.43	293.87	50.51	-43.0	-45.5	24.8	6.05e-01	0	38	0	655884288	58	4547
2026-01-23 12:16:04.43	294.51	50.27	-43.4	-45.9	24.4	6.06e-01	0	38	0	657981440	58	4776
2026-01-23 12:16:05.42	295.13	50.03	-43.4	-45.8	24.3	6.08e-01	0	38	0	659554304	58	4756
2026-01-23 12:16:06.42	295.74	49.79	-43.3	-45.8	24.4	6.07e-01	0	38	0	661651456	58	4739
2026-01-23 12:16:07.42	296.35	49.55	-43.3	-45.8	24.4	6.08e-01	0	38	0	663748608	58	4711
2026-01-23 12:16:08.41	296.94	49.31	-43.2	-45.6	24.6	6.07e-01	0	38	0	665321472	58	4613
2026-01-23 12:16:09.40	297.52	49.06	-43.4	-45.8	24.4	6.05e-01	0	38	0	667418624	58	4749
2026-01-23 12:16:10.40	298.10	48.82	-43.8	-46.3	23.8	6.07e-01	0	38	0	668991488	58	5037
2026-01-23 12:16:11.40	298.67	48.57	-43.3	-45.8	24.4	6.05e-01	0	38	0	671088640	58	4726
2026-01-23 12:16:12.39	299.22	48.32	-43.1	-45.6	24.6	6.07e-01	0	38	0	672661504	58	4621
2026-01-23 12:16:13.39	299.77	48.07	-43.1	-45.5	24.6	6.06e-01	0	38	0	674758656	58	4587
2026-01-23 12:16:14.38	300.30	47.82	-43.1	-45.5	24.7	6.04e-01	0	38	0	676331520	58	4577
2026-01-23 12:16:15.38	300.84	47.56	-43.3	-45.9	24.3	6.06e-01	0	38	0	678428672	58	4777
2026-01-23 12:16:16.37	301.36	47.31	-43.1	-45.7	24.4	6.06e-01	0	38	0	680525824	58	4679
2026-01-23 12:16:17.37	301.87	47.05	-42.9	-45.4	24.7	6.05e-01	0	38	0	682098688	57	4804
2026-01-23 12:16:18.37	302.38	46.80	-43.1	-45.5	24.6	6.08e-01	0	38	0	684195840	57	4863
2026-01-23 12:16:19.36	302.87	46.54	-43.0	-45.4	24.7	6.05e-01	0	38	0	685768704	57	4809
2026-01-23 12:16:20.35	303.36	46.29	-42.8	-45.2	24.9	6.07e-01	0	38	0	687865856	57	4685
2026-01-23 12:16:21.35	303.84	46.03	-43.1	-45.5	24.6	6.06e-01	0	38	0	689438720	57	4862
2026-01-23 12:16:22.34	304.31	45.77	-43.0	-45.5	24.7	6.06e-01	0	38	0	691535872	57	4828
2026-01-23 12:16:23.34	304.78	45.51	-43.0	-45.4	24.7	6.07e-01	0	38	0	693108736	57	4798
2026-01-23 12:16:24.33	305.23	45.26	-42.9	-45.3	24.9	6.07e-01	0	38	0	695205888	57	4734
2026-01-23 12:16:25.32	305.68	45.00	-42.8	-45.3	24.9	6.06e-01	0	38	0	697303040	57	4710
2026-01-23 12:16:26.32	306.12	44.74	-42.8	-45.2	25.0	6.09e-01	0	38	0	698875904	57	4681
2026-01-23 12:16:27.32	306.56	44.48	-42.9	-45.4	24.8	6.09e-01	0	38	0	700973056	57	4773
2026-01-23 12:16:28.31	306.99	44.22	-42.9	-45.3	24.8	6.06e-01	0	38	0	702545920	57	4748
2026-01-23 12:16:29.31	307.41	43.96	-42.9	-45.4	24.8	6.05e-01	0	38	0	704643072	57	4764
2026-01-23 12:16:30.30	307.82	43.71	-43.1	-45.5	24.7	6.05e-01	0	38	0	706215936	57	4863
2026-01-23 12:16:31.29	308.23	43.45	-43.2	-45.6	24.6	6.06e-01	0	38	0	708313088	57	4925
2026-01-23 12:16:32.29	308.63	43.19	-43.0	-45.4	24.7	6.06e-01	0	38	0	709885952	57	4792
2026-01-23 12:16:33.28	309.02	42.94	-43.0	-45.4	24.8	6.07e-01	0	38	0	711983104	57	4787
2026-01-23 12:16:34.28	309.41	42.68	-43.1	-45.6	24.6	6.09e-01	0	38	0	714080256	57	4909
2026-01-23 12:16:35.27	309.79	42.42	-43.1	-45.6	24.5	6.05e-01	0	38	0	715653120	57	4923
2026-01-23 12:16:36.27	310.17	42.17	-43.1	-45.6	24.5	6.05e-01	0	38	0	717750272	57	4919
2026-01-23 12:16:37.26	310.54	41.91	-43.3	-46.0	24.3	6.08e-01	0	38	0	719323136	57	5103
2026-01-23 12:16:38.26	310.91	41.66	-43.5	-46.0	24.2	6.06e-01	0	38	0	721420288	57	5156
2026-01-23 12:16:39.25	311.26	41.40	-43.4	-46.0	24.2	6.05e-01	0	38	0	722993152	57	5110
2026-01-23 12:16:40.25	311.62	41.15	-43.2	-45.8	24.3	6.06e-01	0	38	0	725090304	57	5022
2026-01-23 12:16:41.24	311.96	40.90	-43.1	-45.7	24.5	6.06e-01	0	38	0	726663168	57	4936
2026-01-23 12:16:42.24	312.31	40.65	-43.0	-45.6	24.7	6.05e-01	0	38	0	728760320	57	4871
2026-01-23 12:16:43.23	312.64	40.40	-43.2	-45.8	24.5	6.06e-01	0	38	0	730857472	57	5014
2026-01-23 12:16:44.23	312.98	40.15	-43.4	-46.0	24.3	6.06e-01	0	38	0	732430336	57	5117
2026-01-23 12:16:45.22	313.30	39.90	-43.5	-46.1	23.8	6.07e-01	0	38	0	734527488	57	5161
2026-01-23 12:16:46.22	313.62	39.65	-43.6	-46.1	24.1	6.04e-01	0	38	0	736100352	57	5216
2026-01-23 12:16:47.21	313.94	39.40	-43.6	-46.1	24.1	6.08e-01	0	38	0	738197504	57	5207
2026-01-23 12:16:48.21	314.25	39.15	-43.6	-46.1	24.1	6.06e-01	0	38	0	739770368	58	4914
2026-01-23 12:16:49.20	314.56	38.91	-43.5	-46.1	24.1	6.06e-01	0	38	0	741867520	58	4872
2026-01-23 12:16:50.20	314.86	38.66	-43.3	-45.8	24.3	6.06e-01	0	38	0	743964672	58	4724
2026-01-23 12:16:51.20	315.16	38.42	-43.3	-45.8	24.5	6.07e-01	0	38	0	745537536	58	4707
2026-01-23 12:16:52.19	315.45	38.18	-43.4	-45.9	24.3	6.06e-01	0	38	0	747634688	58	4782
2026-01-23 12:16:53.19	315.74	37.93	-43.3	-45.7	24.4	6.04e-01	0	38	0	749207552	58	4703
2026-01-23 12:16:54.18	316.03	37.70	-43.2	-45.7	24.5	6.06e-01	0	38	0	751304704	58	4684
2026-01-23 12:16:55.17	316.31	37.46	-42.9	-45.4	24.8	6.05e-01	0	38	0	752877568	57	4764
2026-01-23 12:16:56.17	316.58	37.22	-42.8	-45.3	24.8	6.08e-01	0	38	0	754974720	57	4745
2026-01-23 12:16:57.16	316.85	36.98	-42.9	-45.4	24.7	6.07e-01	0	38	0	757071872	57	4792
2026-01-23 12:16:58.16	317.12	36.75	-43.0	-45.5	24.7	6.08e-01	0	38	0	758644736	57	4864
2026-01-23 12:16:59.15	317.39	36.51	-42.9	-45.4	24.7	6.05e-01	0	38	0	760741888	57	4803
2026-01-23 12:17:00.15	317.65	36.28	-42.8	-45.3	24.8	6.07e-01	0	38	0	762314752	57	4728
2026-01-23 12:17:01.14	317.91	36.05	-42.8	-45.3	24.8	6.05e-01	0	38	0	764411904	57	4733
2026-01-23 12:17:02.14	318.16	35.81	-42.7	-45.1	25.0	6.06e-01	0	38	0	765984768	57	4640
2026-01-23 12:17:03.13	318.41	35.58	-42.5	-44.8	25.2	6.06e-01	0	38	0	768081920	56	4757
2026-01-23 12:17:04.12	318.65	35.36	-42.3	-44.7	25.4	6.06e-01	0	38	0	769654784	56	4666
2026-01-23 12:17:05.12	318.90	35.13	-42.1	-44.4	25.6	6.05e-01	0	38	0	771751936	56	4523
2026-01-23 12:17:06.11	319.14	34.90	-42.1	-44.5	25.5	6.05e-01	0	38	0	773849088	56	4572
2026-01-23 12:17:07.11	319.37	34.68	-42.0	-44.5	25.5	6.07e-01	0	38	0	775421952	56	4586
2026-01-23 12:17:08.10	319.61	34.45	-41.8	-44.4	25.5	6.04e-01	0	38	0	777519104	55	4800
2026-01-23 12:17:09.10	319.84	34.23	-41.6	-44.3	25.6	6.05e-01	0	38	0	779091968	55	4743
2026-01-23 12:17:10.09	320.06	34.01	-41.6	-44.3	25.6	6.07e-01	0	38	0	781189120	55	4745
2026-01-23 12:17:11.09	320.29	33.79	-41.6	-44.2	25.7	6.06e-01	0	38	0	782761984	55	4672
2026-01-23 12:17:12.08	320.51	33.57	-41.8	-44.4	25.6	6.05e-01	0	38	0	784859136	55	4772
2026-01-23 12:17:13.07	320.72	33.35	-41.6	-44.0	25.9	6.04e-01	0	38	0	786432000	55	4582
2026-01-23 12:17:14.07	320.94	33.13	-41.7	-44.0	25.9	6.06e-01	0	38	0	788529152	55	4563
2026-01-23 12:17:15.07	321.15	32.92	-41.7	-44.0	25.8	6.06e-01	0	38	0	790626304	55	4580
2026-01-23 12:17:16.06	321.36	32.70	-41.7	-43.9	26.0	6.06e-01	0	38	0	792199168	55	4535
2026-01-23 12:17:17.06	321.57	32.49	-41.7	-43.9	25.9	6.07e-01	0	38	0	794296320	55	4538
2026-01-23 12:17:18.05	321.77	32.28	-41.6	-43.9	26.0	6.08e-01	0	38	0	795869184	55	4525
2026-01-23 12:17:19.05	321.97	32.07	-41.5	-43.8	26.0	6.03e-01	0	38	0	797966336	55	4490
2026-01-23 12:17:20.05	322.17	31.86	-41.4	-43.8	26.1	6.05e-01	0	38	0	799539200	54	4737
2026-01-23 12:17:21.04	322.36	31.65	-41.4	-43.8	26.0	6.06e-01	0	38	0	801636352	54	4733
2026-01-23 12:17:22.04	322.56	31.44	-41.3	-43.8	26.0	6.06e-01	0	38	0	803209216	54	4733
2026-01-23 12:17:23.03	322.75	31.24	-41.2	-43.7	26.2	6.06e-01	0	38	0	805306368	54	4660
2026-01-23 12:17:24.03	322.94	31.03	-41.2	-43.7	26.2	6.04e-01	0	38	0	807403520	54	4659
2026-01-23 12:17:25.02	323.12	30.83	-41.2	-43.7	26.1	6.05e-01	0	38	0	808976384	54	4678
2026-01-23 12:17:26.01	323.30	30.63	-41.3	-43.8	26.1	6.07e-01	0	38	0	811073536	54	4738
2026-01-23 12:17:27.01	323.49	30.43	-41.4	-43.8	26.0	6.05e-01	0	38	0	812646400	54	4757
2026-01-23 12:17:28.00	323.66	30.23	-41.6	-44.0	25.8	6.07e-01	0	38	0	814743552	54	4848
2026-01-23 12:17:29.00	323.84	30.03	-41.5	-43.9	25.9	6.04e-01	0	38	0	816316416	54	4811
2026-01-23 12:17:30.00	324.02	29.83	-41.7	-44.1	25.8	6.06e-01	0	38	0	818413568	54	4885
2026-01-23 12:17:30.99	324.19	29.64	-41.8	-44.1	25.7	6.07e-01	0	38	0	819986432	54	4912
2026-01-23 12:17:31.99	324.36	29.44	-41.7	-44.1	25.8	6.05e-01	0	38	0	822083584	54	4903
2026-01-23 12:17:32.98	324.53	29.25	-41.7	-44.1	25.8	6.06e-01	0	38	0	824180736	54	4889
2026-01-23 12:17:33.98	324.69	29.05	-41.7	-44.2	25.7	6.07e-01	0	38	0	825753600	54	4938
2026-01-23 12:17:34.97	324.86	28.86	-41.7	-44.3	25.6	6.06e-01	0	38	0	827850752	54	4999
2026-01-23 12:17:35.97	325.02	28.67	-41.6	-44.1	25.7	6.08e-01	0	38	0	829423616	54	4914
2026-01-23 12:17:36.96	325.18	28.48	-41.7	-44.3	25.6	6.08e-01	0	38	0	831520768	54	4996
2026-01-23 12:17:37.96	325.34	28.29	-41.7	-44.1	25.7	6.06e-01	0	38	0	833093632	54	4914
2026-01-23 12:17:38.95	325.50	28.11	-41.8	-44.2	25.7	6.06e-01	0	38	0	835190784	54	4940
2026-01-23 12:17:39.94	325.65	27.92	-41.8	-44.2	25.7	6.05e-01	0	38	0	836763648	54	4930
2026-01-23 12:17:40.94	325.80	27.74	-41.9	-44.3	25.6	6.05e-01	0	38	0	838860800	54	5028
2026-01-23 12:17:41.94	325.96	27.56	-41.9	-44.4	25.4	6.07e-01	0	38	0	840957952	54	5076
2026-01-23 12:17:42.93	326.10	27.37	-41.8	-44.4	25.4	6.03e-01	0	38	0	842530816	54	5070
2026-01-23 12:17:43.93	326.25	27.19	-41.8	-44.5	25.4	6.04e-01	0	38	0	844627968	54	5143
2026-01-23 12:17:44.92	326.40	27.01	-41.9	-44.6	25.3	6.06e-01	0	38	0	846200832	54	5205
2026-01-23 12:17:45.92	326.54	26.83	-42.0	-44.7	25.2	6.07e-01	0	38	0	848297984	54	5253
2026-01-23 12:17:46.91	326.69	26.66	-42.2	-44.8	25.1	6.06e-01	0	38	0	849870848	55	4992
2026-01-23 12:17:47.91	326.83	26.48	-42.3	-44.8	25.1	6.06e-01	0	38	0	851968000	55	5024
2026-01-23 12:17:48.90	326.97	26.30	-42.3	-44.8	25.1	6.03e-01	0	38	0	854065152	55	5000
2026-01-23 12:17:49.90	327.11	26.13	-42.2	-44.7	25.2	6.05e-01	0	38	0	855638016	55	4966
2026-01-23 12:17:50.89	327.24	25.96	-42.2	-44.7	25.2	6.06e-01	0	38	0	857735168	55	4978
2026-01-23 12:17:51.88	327.38	25.78	-42.3	-44.8	25.1	6.06e-01	0	38	0	859308032	55	4996
2026-01-23 12:17:52.88	327.51	25.61	-42.3	-44.8	25.1	6.07e-01	0	38	0	861405184	55	5025
2026-01-23 12:17:53.87	327.64	25.44	-42.3	-44.8	25.1	6.07e-01	0	38	0	862978048	55	5032
2026-01-23 12:17:54.87	327.77	25.27	-42.3	-44.9	25.0	6.06e-01	0	38	0	865075200	55	5050
2026-01-23 12:17:55.86	327.90	25.11	-42.2	-44.7	25.2	6.06e-01	0	38	0	866648064	55	4980
2026-01-23 12:17:56.86	328.03	24.94	-42.0	-44.6	25.2	6.08e-01	0	38	0	868745216	55	4920
2026-01-23 12:17:57.85	328.16	24.77	-42.0	-44.8	25.1	6.08e-01	0	38	0	870842368	55	4993
2026-01-23 12:17:58.85	328.28	24.61	-41.9	-44.8	25.1	6.07e-01	0	38	0	872415232	55	4989
2026-01-23 12:17:59.84	328.41	24.44	-42.0	-44.9	25.0	6.05e-01	0	38	0	874512384	55	5044
2026-01-23 12:18:00.84	328.53	24.28	-42.1	-44.8	25.1	6.06e-01	0	38	0	876085248	55	5018
2026-01-23 12:18:01.83	328.65	24.12	-42.1	-44.8	25.0	6.08e-01	0	38	0	878182400	55	4995
2026-01-23 12:18:02.83	328.77	23.95	-42.2	-44.7	25.1	6.06e-01	0	38	0	879755264	55	4976
2026-01-23 12:18:03.82	328.89	23.80	-42.3	-44.8	25.0	6.05e-01	0	38	0	881852416	55	5030
2026-01-23 12:18:04.82	329.01	23.64	-42.4	-44.8	25.1	6.06e-01	0	38	0	883425280	55	5039
2026-01-23 12:18:05.81	329.12	23.48	-42.4	-44.8	25.1	6.07e-01	0	38	0	885522432	55	5030
2026-01-23 12:18:06.81	329.24	23.32	-42.4	-44.8	25.1	6.07e-01	0	38	0	887619584	55	4996
2026-01-23 12:18:07.80	329.35	23.16	-42.5	-44.9	25.1	6.06e-01	0	38	0	889192448	55	5063
2026-01-23 12:18:08.80	329.47	23.01	-42.4	-44.8	25.1	6.07e-01	0	38	0	891289600	55	4997
2026-01-23 12:18:09.79	329.58	22.85	-42.4	-44.8	25.2	6.05e-01	0	38	0	892862464	55	4996
2026-01-23 12:18:10.77	329.69	22.70	-42.4	-44.9	25.0	6.07e-01	0	38	0	894959616	55	5043
2026-01-23 12:18:11.77	329.80	22.55	-42.4	-44.9	25.0	6.05e-01	0	38	0	896532480	55	5079
2026-01-23 12:18:12.76	329.90	22.40	-42.4	-45.0	25.0	6.08e-01	0	38	0	898629632	55	5107
2026-01-23 12:18:13.76	330.01	22.24	-42.3	-44.8	25.0	6.07e-01	0	38	0	900202496	55	5031
2026-01-23 12:18:14.75	330.12	22.10	-42.3	-44.8	25.1	6.07e-01	0	38	0	902299648	55	5022
2026-01-23 12:18:15.75	330.22	21.95	-42.4	-44.9	25.1	6.07e-01	0	38	0	904396800	55	5047
2026-01-23 12:18:16.74	330.33	21.80	-42.3	-44.7	25.2	6.07e-01	0	38	0	905969664	55	4969
2026-01-23 12:18:17.74	330.43	21.65	-42.2	-44.6	25.2	6.06e-01	0	38	0	908066816	55	4926
2026-01-23 12:18:18.73	330.53	21.50	-42.2	-44.7	25.2	6.09e-01	0	38	0	909639680	55	4950
2026-01-23 12:18:19.73	330.64	21.36	-42.0	-44.6	25.3	6.05e-01	0	38	0	911736832	55	4887
2026-01-23 12:18:20.72	330.74	21.21	-42.0	-44.7	25.2	6.06e-01	0	38	0	913309696	55	4938
2026-01-23 12:18:21.72	330.84	21.07	-42.0	-44.7	25.2	6.07e-01	0	38	0	915406848	55	4950
2026-01-23 12:18:22.71	330.94	20.92	-42.1	-44.8	25.1	6.05e-01	0	38	0	916979712	55	4992
2026-01-23 12:18:23.71	331.03	20.78	-42.0	-44.7	25.2	6.07e-01	0	38	0	919076864	55	4953
2026-01-23 12:18:24.70	331.13	20.64	-42.0	-44.7	25.1	6.07e-01	0	38	0	921174016	55	4977
2026-01-23 12:18:25.70	331.23	20.50	-42.0	-44.6	25.2	6.04e-01	0	38	0	922746880	55	4917
2026-01-23 12:18:26.70	331.32	20.36	-42.0	-44.5	25.3	6.07e-01	0	38	0	924844032	55	4836
2026-01-23 12:18:27.69	331.42	20.22	-42.0	-44.5	25.4	6.07e-01	0	38	0	926416896	55	4822
2026-01-23 12:18:28.68	331.51	20.08	-42.1	-44.5	25.3	6.07e-01	0	38	0	928514048	55	4858
2026-01-23 12:18:29.68	331.60	19.94	-42.0	-44.4	25.4	6.03e-01	0	38	0	930086912	55	4769
2026-01-23 12:18:30.68	331.69	19.80	-41.9	-44.3	25.5	6.07e-01	0	38	0	932184064	55	4742
2026-01-23 12:18:31.67	331.78	19.67	-42.0	-44.4	25.1	6.05e-01	0	38	0	933756928	55	4779
2026-01-23 12:18:32.66	331.87	19.53	-42.0	-44.4	25.3	6.06e-01	0	38	0	935854080	55	4772
2026-01-23 12:18:33.66	331.96	19.40	-42.0	-44.5	25.3	6.06e-01	0	38	0	937951232	55	4823
2026-01-23 12:18:34.65	332.05	19.26	-42.0	-44.4	25.4	6.05e-01	0	38	0	939524096	55	4782
2026-01-23 12:18:35.64	332.14	19.13	-42.0	-44.4	25.4	6.06e-01	0	38	0	941621248	55	4806
2026-01-23 12:18:36.64	332.23	19.00	-42.0	-44.4	25.4	6.07e-01	0	38	0	943194112	55	4782
2026-01-23 12:18:37.63	332.31	18.87	-42.0	-44.5	25.3	6.04e-01	0	38	0	945291264	55	4833
2026-01-23 12:18:38.63	332.40	18.74	-42.0	-44.5	25.3	6.07e-01	0	38	0	946864128	55	4854
2026-01-23 12:18:39.62	332.48	18.61	-42.0	-44.5	25.3	6.08e-01	0	38	0	948961280	55	4857
2026-01-23 12:18:40.62	332.57	18.48	-42.0	-44.6	25.2	6.06e-01	0	38	0	950534144	55	4878
2026-01-23 12:18:41.61	332.65	18.35	-41.9	-44.6	25.2	6.05e-01	0	38	0	952631296	55	4872
2026-01-23 12:18:42.61	332.73	18.22	-42.0	-44.7	25.1	6.05e-01	0	38	0	954728448	55	4944
2026-01-23 12:18:43.60	332.81	18.09	-41.9	-44.7	25.1	6.05e-01	0	38	0	956301312	55	4932
2026-01-23 12:18:44.59	332.89	17.96	-42.0	-44.8	25.0	6.05e-01	0	38	0	958398464	55	4995
2026-01-23 12:18:45.59	332.97	17.84	-42.0	-44.8	25.0	6.05e-01	0	38	0	959971328	55	4988
2026-01-23 12:18:46.58	333.05	17.71	-42.0	-44.7	25.1	6.08e-01	0	38	0	962068480	55	4981
2026-01-23 12:18:47.57	333.13	17.59	-42.0	-44.7	25.1	6.07e-01	0	38	0	963641344	55	4941
2026-01-23 12:18:48.57	333.21	17.46	-42.1	-44.7	25.1	6.06e-01	0	38	0	965738496	55	4966
2026-01-23 12:18:49.56	333.29	17.34	-42.2	-44.8	25.0	6.06e-01	0	38	0	967311360	55	5007
2026-01-23 12:18:50.56	333.37	17.22	-42.1	-44.7	25.1	6.08e-01	0	38	0	969408512	55	4966
2026-01-23 12:18:51.55	333.44	17.09	-42.0	-44.6	25.2	6.06e-01	0	38	0	971505664	55	4906
2026-01-23 12:18:52.55	333.52	16.97	-42.0	-44.6	25.2	6.06e-01	0	38	0	973078528	55	4905
2026-01-23 12:18:53.54	333.59	16.85	-42.0	-44.6	25.3	6.03e-01	0	38	0	975175680	55	4884
2026-01-23 12:18:54.54	333.67	16.73	-41.9	-44.5	25.3	6.06e-01	0	38	0	976748544	55	4824
2026-01-23 12:18:55.53	333.74	16.61	-41.8	-44.5	25.3	6.06e-01	0	38	0	978845696	55	4817
2026-01-23 12:18:56.52	333.82	16.49	-42.0	-44.6	25.2	6.07e-01	0	38	0	980418560	55	4886
2026-01-23 12:18:57.52	333.89	16.37	-41.9	-44.5	25.3	6.06e-01	0	38	0	982515712	55	4827
2026-01-23 12:18:58.51	333.96	16.25	-42.0	-44.6	25.2	6.07e-01	0	38	0	984088576	55	4872
2026-01-23 12:18:59.51	334.03	16.14	-42.0	-44.5	25.2	6.06e-01	0	38	0	986185728	55	4865
2026-01-23 12:19:00.51	334.11	16.02	-41.9	-44.5	25.3	6.07e-01	0	38	0	988282880	55	4820
2026-01-23 12:19:01.50	334.18	15.90	-42.0	-44.4	25.3	6.07e-01	0	38	0	989855744	55	4811
2026-01-23 12:19:02.50	334.25	15.79	-41.9	-44.4	25.3	6.04e-01	0	38	0	991952896	55	4797
2026-01-23 12:19:03.49	334.32	15.67	-42.0	-44.5	25.2	6.07e-01	0	38	0	993525760	55	4845
2026-01-23 12:19:04.49	334.38	15.56	-42.0	-44.5	25.2	6.07e-01	0	38	0	995622912	55	4865
2026-01-23 12:19:05.48	334.45	15.44	-42.0	-44.5	25.1	6.06e-01	0	38	0	997720064	55	4863
2026-01-23 12:19:06.48	334.52	15.33	-42.0	-44.5	25.3	6.05e-01	0	38	0	999292928	55	4839
2026-01-23 12:19:07.47	334.59	15.22	-42.0	-44.5	25.2	6.07e-01	0	38	0	1000865792	55	4853
2026-01-23 12:19:08.46	334.66	15.10	-42.0	-44.5	25.2	6.07e-01	0	38	0	1002962944	55	4832
2026-01-23 12:19:09.46	334.72	14.99	-42.0	-44.5	25.1	6.03e-01	0	38	0	1005060096	55	4861
2026-01-23 12:19:10.45	334.79	14.88	-42.0	-44.5	25.2	6.06e-01	0	38	0	1006632960	55	4853
2026-01-23 12:19:11.45	334.85	14.77	-41.9	-44.4	25.3	6.06e-01	0	38	0	1008730112	55	4796
2026-01-23 12:19:12.44	334.92	14.66	-41.9	-44.5	25.2	6.05e-01	0	38	0	1010302976	55	4837
2026-01-23 12:19:13.44	334.98	14.55	-41.9	-44.4	25.2	6.07e-01	0	38	0	1012400128	55	4796
2026-01-23 12:19:14.43	335.05	14.44	-41.9	-44.4	25.3	6.07e-01	0	38	0	1014497280	55	4795
2026-01-23 12:19:15.43	335.11	14.33	-41.9	-44.5	25.2	6.06e-01	0	38	0	1016070144	55	4851
2026-01-23 12:19:16.42	335.17	14.22	-42.0	-44.6	25.1	6.06e-01	0	38	0	1017643008	55	4880
2026-01-23 12:19:17.42	335.24	14.12	-42.0	-44.5	25.1	6.07e-01	0	38	0	1019740160	55	4857
2026-01-23 12:19:18.41	335.30	14.01	-42.0	-44.6	25.1	6.06e-01	0	38	0	1021837312	55	4893
2026-01-23 12:19:19.41	335.36	13.90	-42.1	-44.6	25.1	6.06e-01	0	38	0	1023410176	55	4900
2026-01-23 12:19:20.41	335.42	13.80	-42.1	-44.5	25.1	6.05e-01	0	38	0	1025507328	55	4868
2026-01-23 12:19:21.40	335.48	13.69	-42.1	-44.6	25.1	6.06e-01	0	38	0	1027080192	55	4875
2026-01-23 12:19:22.39	335.54	13.59	-42.2	-44.7	25.0	6.04e-01	0	38	0	1029177344	55	4941
2026-01-23 12:19:23.39	335.60	13.48	-42.3	-44.8	24.9	6.06e-01	0	38	0	1031274496	55	5006
2026-01-23 12:19:24.38	335.66	13.38	-42.2	-44.6	25.0	6.07e-01	0	38	0	1032847360	55	4917
2026-01-23 12:19:25.38	335.72	13.27	-42.2	-44.7	25.0	6.06e-01	0	38	0	1034944512	55	4927
2026-01-23 12:19:26.38	335.78	13.17	-42.2	-44.7	24.9	6.06e-01	0	38	0	1036517376	55	4936
2026-01-23 12:19:27.37	335.84	13.07	-42.2	-44.7	25.0	6.08e-01	0	38	0	1038614528	55	4942
2026-01-23 12:19:28.36	335.90	12.96	-42.3	-44.9	24.8	6.05e-01	0	38	0	1040187392	55	5064
2026-01-23 12:19:29.36	335.96	12.86	-42.1	-44.8	24.9	6.08e-01	0	38	0	1042284544	55	4988
2026-01-23 12:19:30.36	336.01	12.76	-42.1	-44.9	24.8	6.06e-01	0	38	0	1043857408	55	5045
2026-01-23 12:19:31.35	336.07	12.66	-42.0	-44.8	24.9	6.04e-01	0	38	0	1045954560	55	5001
2026-01-23 12:19:32.35	336.13	12.56	-42.0	-44.8	24.9	6.07e-01	0	38	0	1048051712	55	5012
2026-01-23 12:19:33.34	336.18	12.46	-41.9	-44.8	24.8	6.06e-01	0	38	0	1049624576	55	4987
2026-01-23 12:19:34.34	336.24	12.36	-41.8	-44.8	24.9	6.07e-01	0	38	0	1051721728	55	4993
2026-01-23 12:19:35.33	336.29	12.26	-41.8	-44.9	24.8	6.05e-01	0	38	0	1053294592	55	5058
2026-01-23 12:19:36.33	336.35	12.16	-41.9	-44.9	24.7	6.06e-01	0	38	0	1055391744	55	5100
2026-01-23 12:19:37.32	336.40	12.06	-41.8	-44.9	24.8	6.06e-01	0	38	0	1056964608	55	5066
2026-01-23 12:19:38.32	336.46	11.96	-41.9	-44.9	24.7	6.05e-01	0	38	0	1059061760	55	5095
2026-01-23 12:19:39.31	336.51	11.87	-41.9	-44.9	24.7	6.03e-01	0	38	0	1060634624	55	5097
2026-01-23 12:19:40.31	336.56	11.77	-41.9	-45.0	24.6	6.03e-01	0	38	0	1062731776	55	5118
2026-01-23 12:19:41.30	336.62	11.67	-41.9	-45.0	24.6	6.02e-01	0	38	0	1064828928	55	5134
2026-01-23 12:19:42.30	336.67	11.57	-42.0	-45.2	24.5	6.03e-01	0	38	0	1066401792	55	5223
2026-01-23 12:19:43.29	336.72	11.48	-41.9	-45.1	24.6	6.02e-01	0	38	0	1068498944	55	5174
2026-01-23 12:19:44.28	336.77	11.38	-41.9	-45.1	24.6	6.04e-01	0	38	0	1070071808	55	5166
2026-01-23 12:19:45.28	336.83	11.29	-41.9	-45.1	24.5	6.03e-01	0	38	0	1072168960	55	5199
2026-01-23 12:19:46.27	336.88	11.19	-41.9	-45.2	24.4	6.06e-01	0	38	0	1073741824	55	5276
2026-01-23 12:19:47.27	336.93	11.10	-41.9	-45.2	24.4	6.06e-01	0	38	0	1075838976	55	5257
2026-01-23 12:19:48.26	336.98	11.01	-41.9	-45.2	24.4	6.03e-01	0	38	0	1077411840	55	5249
2026-01-23 12:19:49.26	337.03	10.91	-41.9	-45.2	24.3	6.03e-01	0	38	0	1079508992	55	5266
2026-01-23 12:19:50.25	337.08	10.82	-41.9	-45.2	24.4	6.02e-01	0	38	0	1081606144	55	5270
2026-01-23 12:19:51.25	337.13	10.72	-41.9	-45.3	24.3	6.03e-01	0	38	0	1083179008	55	5285
2026-01-23 12:19:52.24	337.18	10.63	-41.9	-45.2	24.3	6.02e-01	0	38	0	1085276160	55	5239
2026-01-23 12:19:53.23	337.23	10.54	-42.0	-45.3	24.3	6.04e-01	0	38	0	1086849024	55	5311
2026-01-23 12:19:54.23	337.28	10.45	-42.1	-45.3	24.2	6.03e-01	0	38	0	1088946176	55	5330
2026-01-23 12:19:55.22	337.33	10.36	-42.2	-45.3	24.3	6.02e-01	0	38	0	1090519040	55	5304
2026-01-23 12:19:56.22	337.38	10.27	-42.3	-45.3	24.3	6.01e-01	0	38	0	1092616192	55	5299
2026-01-23 12:19:57.21	337.42	10.18	-42.4	-45.4	24.2	6.06e-01	0	38	0	1094189056	55	5358
2026-01-23 12:19:58.21	337.47	10.09	-42.3	-45.3	24.2	6.06e-01	0	38	0	1096286208	55	5330
2026-01-23 12:19:59.20	337.52	10.00	-42.4	-45.4	24.1	6.03e-01	0	38	0	1098383360	55	5399
2026-01-23 12:20:00.20	337.57	9.91	-42.5	-45.5	24.1	6.04e-01	0	38	0	1099956224	55	5434
2026-01-23 12:20:01.19	337.61	9.82	-42.3	-45.4	24.2	6.04e-01	0	38	0	1102053376	55	5347
2026-01-23 12:20:02.19	337.66	9.73	-42.4	-45.5	24.0	6.04e-01	0	38	0	1103626240	55	5433
2026-01-23 12:20:03.18	337.71	9.64	-42.3	-45.5	24.0	6.01e-01	0	38	0	1105723392	55	5427
2026-01-23 12:20:04.18	337.75	9.55	-42.3	-45.5	24.1	6.03e-01	0	38	0	1107296256	55	5408
2026-01-23 12:20:05.17	337.80	9.46	-42.4	-45.7	23.9	6.03e-01	0	38	0	1109393408	55	5546
2026-01-23 12:20:06.17	337.84	9.38	-42.2	-45.5	24.1	6.03e-01	0	38	0	1110966272	55	5446
2026-01-23 12:20:07.16	337.89	9.29	-42.3	-45.6	24.0	6.04e-01	0	38	0	1113063424	55	5479
2026-01-23 12:20:08.16	337.93	9.20	-42.4	-45.7	23.9	6.02e-01	0	38	0	1115160576	55	5563
2026-01-23 12:20:09.15	337.98	9.11	-42.4	-45.7	23.8	6.03e-01	0	38	0	1116733440	55	5537
2026-01-23 12:20:10.14	338.02	9.03	-42.5	-45.7	23.8	6.04e-01	0	38	0	1118830592	55	5564
2026-01-23 12:20:11.14	338.07	8.94	-47.3	-66.7	4.4	7.49e-01	0	38	104	1120403456	66	33289
2026-01-23 12:20:12.13	338.11	8.86	-50.3	-70.8	3.9	7.50e-01	0	38	104	1120403456	71	39683
2026-01-23 12:20:13.12	338.15	8.77	-49.7	-71.1	3.8	7.47e-01	0	38	104	1120403456	71	41013
2026-01-23 12:20:14.12	338.20	8.69	-49.5	-71.3	3.8	7.46e-01	0	38	104	1120403456	69	47490
2026-01-23 12:20:15.11	338.24	8.60	-49.7	-71.3	3.8	7.42e-01	0	38	104	1120403456	70	44515
2026-01-23 12:20:16.10	338.28	8.52	-49.9	-71.1	3.8	7.47e-01	0	38	104	1120403456	71	41133
2026-01-23 12:20:17.09	338.33	8.43	-50.3	-71.5	3.8	7.46e-01	0	38	104	1120403456	71	43076
2026-01-23 12:20:18.09	338.37	8.35	-50.3	-71.6	3.8	7.46e-01	0	38	104	1120403456	71	43590
2026-01-23 12:20:19.08	338.41	8.27	-49.4	-71.5	3.8	7.47e-01	0	38	104	1120403456	70	45834
2026-01-23 12:20:20.07	338.45	8.18	-50.0	-71.2	3.8	7.43e-01	0	38	104	1120403456	71	41933
2026-01-23 12:20:21.07	338.49	8.10	-50.5	-71.6	3.8	7.45e-01	0	38	104	1120403456	72	41329
2026-01-23 12:20:22.06	338.54	8.02	-51.3	-71.6	3.8	7.48e-01	0	38	104	1120403456	73	39017
2026-01-23 12:20:23.05	338.58	7.94	-50.8	-71.6	3.8	7.44e-01	0	38	104	1120403456	73	39129
2026-01-23 12:20:24.05	338.62	7.85	-50.5	-71.6	3.8	7.44e-01	0	38	104	1120403456	73	39049
2026-01-23 12:20:25.04	338.66	7.77	-51.3	-71.7	3.8	7.49e-01	0	38	104	1120403456	73	39228
2026-01-23 12:20:26.03	338.70	7.69	-51.2	-71.7	3.8	7.46e-01	0	38	104	1120403456	73	39223
2026-01-23 12:20:27.03	338.74	7.61	-50.9	-71.7	3.8	7.46e-01	0	38	104	1120403456	73	39150
2026-01-23 12:20:28.02	338.78	7.53	-51.5	-71.6	3.8	7.46e-01	0	38	104	1120403456	73	39059
2026-01-23 12:20:29.01	338.82	7.45	-51.7	-71.7	3.9	7.44e-01	0	38	104	1120403456	74	36979
2026-01-23 12:20:30.00	338.86	7.37	-51.7	-71.7	3.8	7.46e-01	0	38	104	1120403456	74	36949
2026-01-23 12:20:31.00	338.90	7.29	-51.5	-71.6	3.8	7.46e-01	0	38	104	1120403456	74	36930
2026-01-23 12:20:31.99	338.94	7.21	-51.5	-71.6	3.8	7.52e-01	0	38	104	1120403456	74	36886
2026-01-23 12:20:32.98	338.98	7.13	-51.4	-71.6	3.8	7.45e-01	0	38	104	1120403456	74	36752
2026-01-23 12:20:33.98	339.02	7.05	-51.3	-71.6	3.8	7.49e-01	0	38	104	1120403456	74	36673
2026-01-23 12:20:34.97	339.05	6.97	-51.0	-71.6	3.8	7.45e-01	0	38	104	1120403456	73	38943
2026-01-23 12:20:35.96	339.09	6.89	-51.0	-71.6	3.8	7.44e-01	0	38	104	1120403456	73	38736
2026-01-23 12:20:36.95	339.13	6.82	-50.9	-71.5	3.8	7.47e-01	0	38	104	1120403456	73	38636
2026-01-23 12:20:37.95	339.17	6.74	-50.9	-71.5	3.8	7.45e-01	0	38	104	1120403456	73	38555
2026-01-23 12:20:38.94	339.21	6.66	-50.9	-71.5	3.8	7.46e-01	0	38	104	1120403456	73	38614
2026-01-23 12:20:39.93	339.25	6.58	-50.9	-71.5	3.8	7.48e-01	0	38	104	1120403456	73	38615
2026-01-23 12:20:40.93	339.28	6.50	-50.9	-71.6	3.8	7.47e-01	0	38	104	1120403456	73	38694
2026-01-23 12:20:41.92	339.32	6.43	-50.9	-71.5	3.8	7.44e-01	0	38	104	1120403456	73	38622
2026-01-23 12:20:42.91	339.36	6.35	-50.9	-71.5	3.8	7.48e-01	0	38	104	1120403456	73	38585
2026-01-23 12:20:43.91	339.39	6.27	-50.9	-71.5	3.8	7.46e-01	0	38	104	1120403456	73	38626
2026-01-23 12:20:44.90	339.43	6.20	-50.8	-71.5	3.8	7.51e-01	0	38	104	1120403456	73	38630
2026-01-23 12:20:45.89	339.47	6.12	-50.8	-71.5	3.8	7.48e-01	0	38	104	1120403456	73	38625
2026-01-23 12:20:46.88	339.50	6.05	-50.9	-71.5	3.8	7.50e-01	0	38	104	1120403456	73	38626
2026-01-23 12:20:47.88	339.54	5.97	-50.9	-71.5	3.8	7.43e-01	0	38	104	1120403456	73	38564
2026-01-23 12:20:48.87	339.58	5.90	-50.9	-71.5	3.8	7.48e-01	0	38	104	1120403456	73	38552
2026-01-23 12:20:49.86	339.61	5.82	-50.8	-71.5	3.8	7.46e-01	0	38	104	1120403456	73	38546
2026-01-23 12:20:50.86	339.65	5.74	-50.8	-71.5	3.8	7.47e-01	0	38	104	1120403456	73	38681
2026-01-23 12:20:51.85	339.68	5.67	-50.8	-71.5	3.8	7.46e-01	0	38	104	1120403456	73	38490
2026-01-23 12:20:52.84	339.72	5.60	-50.8	-71.5	3.8	7.48e-01	0	38	104	1120403456	73	38563
2026-01-23 12:20:53.84	339.75	5.52	-50.8	-71.5	3.8	7.47e-01	0	38	104	1120403456	73	38494
2026-01-23 12:20:54.83	339.79	5.45	-50.8	-71.5	3.8	7.45e-01	0	38	104	1120403456	73	38641
2026-01-23 12:20:55.82	339.82	5.37	-50.8	-71.5	3.8	7.46e-01	0	38	104	1120403456	73	38575
2026-01-23 12:20:56.82	339.86	5.30	-50.8	-71.5	3.8	7.45e-01	0	38	104	1120403456	73	38576
2026-01-23 12:20:57.81	339.89	5.23	-50.8	-71.5	3.8	7.47e-01	0	38	104	1120403456	73	38547
2026-01-23 12:20:58.80	339.93	5.15	-50.8	-71.5	3.8	7.46e-01	0	38	104	1120403456	73	38552
2026-01-23 12:20:59.79	339.96	5.08	-50.8	-71.5	3.8	7.45e-01	0	38	104	1120403456	73	38252
2026-01-23 12:21:00.79	339.99	5.01	-50.8	-71.5	3.8	7.42e-01	0	38	104	1120403456	73	38509
2026-01-23 12:21:01.78	340.03	4.94	-50.8	-71.5	3.8	7.46e-01	0	38	104	1120403456	73	38440

#Closed at: 2026-01-23 12:21:02
#Recorded file [1120 MB]: D:/Data/31040_260123_150944.dat