passes_logs/2026/01/23/T1/T1__20260123_233654_NOAA_21_JPSS-2_rec.log

#Pass ID: 20260123_233654_NOAA 21 (JPSS-2)
#Satellite: NOAA 21 (JPSS-2)
#Configuration: NOAA 21
#almurnet v.1.7.20251203
#Start time: 2026-01-23 23:36:55

#Version: 2.0.20230620
#Station: T1
#Location: 37.570604 lon 55.790049 lat
#TLE: 1 54234U 22150A   26022.90705406  .00000208  00000+0  11937-3 0  9994
#TLE: 2 54234  98.7507 323.7115 0000669 231.3756 128.7360 14.19537879165931

#Time	Az	El	Level	Level2	SNR	BER	BlckErr	Temp	State	Recorded	gain1	gain2
2026-01-23 23:36:55.70	16.82	5.10	-47.5	-61.0	3.8	1.49e+00	0	36	0	0	65	18176
2026-01-23 23:36:56.68	16.83	5.17	-47.5	-61.0	3.8	1.49e+00	0	37	104	0	65	18274
2026-01-23 23:36:57.68	16.84	5.24	-47.5	-61.0	3.8	1.49e+00	0	37	104	0	65	18235
2026-01-23 23:36:58.67	16.85	5.31	-47.5	-61.1	3.8	1.49e+00	0	37	104	0	65	18316
2026-01-23 23:36:59.66	16.86	5.38	-47.5	-61.0	3.8	1.49e+00	0	37	104	0	65	18235
2026-01-23 23:37:00.66	16.86	5.45	-47.5	-61.0	3.8	1.49e+00	0	37	104	0	65	18185
2026-01-23 23:37:01.65	16.87	5.52	-47.5	-61.0	3.8	1.49e+00	0	37	104	0	65	18103
2026-01-23 23:37:02.64	16.88	5.60	-47.5	-60.9	3.8	1.49e+00	0	37	104	0	65	18078
2026-01-23 23:37:03.64	16.89	5.67	-47.5	-60.9	3.8	1.49e+00	0	37	104	0	65	17977
2026-01-23 23:37:04.63	16.90	5.74	-47.5	-60.9	3.8	1.49e+00	0	37	104	0	65	17891
2026-01-23 23:37:05.62	16.90	5.81	-47.4	-60.9	3.8	1.49e+00	0	37	104	0	65	17999
2026-01-23 23:37:06.62	16.91	5.89	-47.5	-60.9	3.8	1.49e+00	0	37	104	0	65	17901
2026-01-23 23:37:07.61	16.92	5.96	-47.5	-60.8	3.8	1.49e+00	0	37	104	0	65	17879
2026-01-23 23:37:08.60	16.93	6.03	-47.5	-60.9	3.8	1.49e+00	0	37	104	0	65	17955
2026-01-23 23:37:09.60	16.94	6.11	-47.5	-60.9	3.8	1.49e+00	0	37	104	0	65	17924
2026-01-23 23:37:10.59	16.94	6.18	-47.5	-60.9	3.8	1.49e+00	0	37	104	0	65	18010
2026-01-23 23:37:11.59	16.95	6.25	-47.5	-61.0	3.8	1.49e+00	0	37	104	0	65	18123
2026-01-23 23:37:12.58	16.96	6.33	-47.5	-60.9	3.8	1.49e+00	0	37	104	0	65	18043
2026-01-23 23:37:13.57	16.97	6.40	-47.5	-60.9	3.8	1.49e+00	0	37	104	0	65	18086
2026-01-23 23:37:14.57	16.98	6.48	-47.4	-60.9	3.8	1.49e+00	0	37	104	0	65	17950
2026-01-23 23:37:15.56	16.98	6.55	-47.5	-60.8	3.8	1.49e+00	0	37	104	0	65	17862
2026-01-23 23:37:16.56	16.99	6.63	-47.4	-60.7	3.8	1.49e+00	0	37	104	0	65	17532
2026-01-23 23:37:17.55	17.00	6.70	-47.4	-60.6	3.8	1.49e+00	0	37	104	0	65	17389
2026-01-23 23:37:18.54	17.01	6.78	-47.4	-60.5	3.8	1.49e+00	0	37	104	0	65	17124
2026-01-23 23:37:19.54	17.02	6.85	-47.4	-60.3	3.8	1.49e+00	0	37	104	0	65	16702
2026-01-23 23:37:20.53	17.03	6.93	-47.4	-60.1	3.8	1.49e+00	0	37	104	0	65	16403
2026-01-23 23:37:21.52	17.03	7.00	-47.4	-59.9	3.8	1.49e+00	0	38	104	0	65	15997
2026-01-23 23:37:22.52	17.04	7.08	-47.3	-59.7	3.8	1.49e+00	0	38	104	0	65	15623
2026-01-23 23:37:23.51	17.05	7.16	-47.2	-59.4	3.8	1.49e+00	0	37	104	0	65	15209
2026-01-23 23:37:24.51	17.06	7.23	-47.3	-59.1	3.9	1.49e+00	0	37	104	0	65	14637
2026-01-23 23:37:25.50	17.07	7.31	-47.3	-59.0	3.8	1.48e+00	0	38	104	0	65	14412
2026-01-23 23:37:26.49	17.08	7.39	-47.2	-58.4	4.0	1.48e+00	0	38	104	0	65	13496
2026-01-23 23:37:27.48	17.08	7.46	-47.2	-58.0	4.1	1.48e+00	0	38	104	0	65	12938
2026-01-23 23:37:28.48	17.09	7.54	-47.2	-57.7	4.2	1.47e+00	0	38	104	0	65	12376
2026-01-23 23:37:29.47	17.10	7.62	-47.1	-57.4	4.2	1.46e+00	0	38	104	0	65	12039
2026-01-23 23:37:30.46	17.11	7.70	-47.1	-57.0	4.2	1.45e+00	0	38	104	0	65	11545
2026-01-23 23:37:31.46	17.12	7.78	-47.0	-57.1	4.0	1.39e+00	0	38	104	0	65	11590
2026-01-23 23:37:32.45	17.13	7.86	-46.9	-56.7	4.0	1.17e+00	0	38	104	0	65	11134
2026-01-23 23:37:33.44	17.14	7.93	-46.8	-55.5	5.0	7.18e-01	0	38	0	0	65	9607
2026-01-23 23:37:34.44	17.14	8.01	-46.7	-54.8	5.4	5.82e-01	0	38	0	0	65	8895
2026-01-23 23:37:35.43	17.15	8.09	-46.5	-53.9	6.0	3.82e-01	0	38	0	0	64	8539
2026-01-23 23:37:36.42	17.16	8.17	-46.3	-53.1	6.7	2.30e-01	0	38	0	0	64	7772
2026-01-23 23:37:37.42	17.17	8.25	-46.1	-52.3	7.5	1.24e-01	0	38	0	0	63	7511
2026-01-23 23:37:38.41	17.18	8.33	-45.8	-51.4	8.4	5.46e-02	0	38	0	0	63	6773
2026-01-23 23:37:39.40	17.19	8.41	-45.5	-50.5	9.2	2.05e-02	0	38	0	0	63	6129
2026-01-23 23:37:40.40	17.20	8.49	-45.1	-49.7	10.1	9.25e-03	0	38	0	0	62	5913
2026-01-23 23:37:41.39	17.20	8.57	-44.7	-48.9	10.9	2.70e-03	0	38	0	0	61	5694
2026-01-23 23:37:42.38	17.21	8.65	-44.4	-48.3	11.6	8.23e-04	0	38	0	0	60	5622
2026-01-23 23:37:43.38	17.22	8.74	-44.0	-47.6	12.3	2.26e-04	0	38	0	0	60	5212
2026-01-23 23:37:44.37	17.23	8.82	-43.7	-47.1	12.8	7.09e-05	0	38	0	0	59	5187
2026-01-23 23:37:45.36	17.24	8.90	-43.6	-46.8	13.1	3.20e-05	0	38	0	0	59	5038
2026-01-23 23:37:46.36	17.25	8.98	-43.4	-46.6	13.4	2.05e-05	0	38	0	0	58	5167
2026-01-23 23:37:47.35	17.26	9.06	-43.5	-46.7	13.3	1.52e-05	0	38	0	0	58	5228
2026-01-23 23:37:48.34	17.27	9.15	-44.1	-47.7	12.3	1.38e-04	0	38	0	0	58	5868
2026-01-23 23:37:49.34	17.28	9.23	-44.2	-47.8	12.1	4.17e-03	0	38	0	0	60	5293
2026-01-23 23:37:50.33	17.28	9.31	-44.7	-49.0	10.9	3.52e-03	0	38	0	0	60	6082
2026-01-23 23:37:51.33	17.29	9.40	-46.5	-53.2	6.5	6.68e-01	0	38	0	0	64	7838
2026-01-23 23:37:52.32	17.30	9.48	-43.0	-46.0	14.0	2.20e-06	0	38	0	0	58	4860
2026-01-23 23:37:53.32	17.31	9.57	-43.3	-46.4	13.6	3.80e-06	0	38	0	0	58	5066
2026-01-23 23:37:54.31	17.32	9.65	-43.3	-46.3	13.7	7.60e-06	0	38	0	0	58	5027
2026-01-23 23:37:55.31	17.33	9.74	-43.4	-46.4	13.6	1.22e-05	0	38	0	0	58	5066
2026-01-23 23:37:56.31	17.34	9.82	-42.7	-45.5	14.5	0.00e+00	0	38	0	0	57	4827
2026-01-23 23:37:57.35	17.35	9.91	-41.7	-44.1	15.7	0.00e+00	0	38	0	0	55	4646
2026-01-23 23:37:58.28	17.36	9.99	-41.2	-43.5	16.3	0.00e+00	0	38	0	0	54	4554
2026-01-23 23:37:59.45	17.37	10.09	-40.8	-43.0	16.8	0.00e+00	0	38	0	0	53	4580
2026-01-23 23:38:00.33	17.38	10.17	-40.4	-42.6	17.2	0.00e+00	0	38	0	0	52	4608
2026-01-23 23:38:01.47	17.39	10.27	-40.3	-42.4	17.5	1.50e-06	0	38	0	0	51	4765
2026-01-23 23:38:02.38	17.40	10.35	-39.9	-42.0	17.8	0.00e+00	0	38	0	0	51	4565
2026-01-23 23:38:03.38	17.40	10.43	-39.7	-41.7	18.2	0.00e+00	0	38	0	0	51	4396
2026-01-23 23:38:04.38	17.41	10.52	-39.6	-41.6	18.2	0.00e+00	0	38	0	0	51	4373
2026-01-23 23:38:05.37	17.42	10.61	-39.6	-41.6	18.2	0.00e+00	0	38	0	0	51	4376
2026-01-23 23:38:06.36	17.43	10.70	-39.4	-41.3	18.5	0.00e+00	0	38	0	0	50	4472
2026-01-23 23:38:07.36	17.44	10.79	-39.3	-41.3	18.5	0.00e+00	0	38	0	0	50	4448
2026-01-23 23:38:08.35	17.45	10.88	-39.2	-41.1	18.7	0.00e+00	0	38	0	0	50	4346
2026-01-23 23:38:09.35	17.46	10.96	-39.2	-41.1	18.8	0.00e+00	0	38	0	0	50	4341
2026-01-23 23:38:10.34	17.47	11.05	-39.3	-41.2	18.6	0.00e+00	0	38	0	0	50	4397
2026-01-23 23:38:11.34	17.48	11.14	-39.2	-41.1	18.8	0.00e+00	0	38	0	0	50	4347
2026-01-23 23:38:12.33	17.49	11.23	-39.2	-41.1	18.7	0.00e+00	0	38	0	0	50	4360
2026-01-23 23:38:13.33	17.50	11.32	-39.2	-41.0	18.8	0.00e+00	0	38	0	0	50	4326
2026-01-23 23:38:14.32	17.51	11.42	-39.0	-41.0	18.8	0.00e+00	0	38	0	0	50	4302
2026-01-23 23:38:15.39	17.52	11.51	-39.1	-41.0	18.8	0.00e+00	0	39	0	0	49	4557
2026-01-23 23:38:16.29	17.53	11.60	-39.1	-41.0	18.7	0.00e+00	0	38	0	0	49	4580
2026-01-23 23:38:17.57	17.54	11.71	-39.2	-41.1	18.7	0.00e+00	0	38	0	0	49	4648
2026-01-23 23:38:18.31	17.55	11.78	-39.1	-41.0	18.8	0.00e+00	0	39	0	0	49	4567
2026-01-23 23:38:19.59	17.56	11.90	-39.0	-40.8	19.0	0.00e+00	0	38	0	0	49	4457
2026-01-23 23:38:20.31	17.57	11.97	-39.0	-40.8	18.9	0.00e+00	0	38	0	0	49	4488
2026-01-23 23:38:21.59	17.58	12.09	-39.0	-40.8	19.0	0.00e+00	0	38	0	0	49	4461
2026-01-23 23:38:22.30	17.59	12.16	-38.9	-40.8	19.0	0.00e+00	0	39	0	0	49	4443
2026-01-23 23:38:23.58	17.60	12.28	-38.9	-40.7	19.1	0.00e+00	0	38	0	0	49	4405
2026-01-23 23:38:24.31	17.61	12.35	-38.8	-40.6	19.1	0.00e+00	0	38	0	0	49	4370
2026-01-23 23:38:25.59	17.62	12.47	-38.9	-40.7	19.1	0.00e+00	0	38	0	0	49	4398
2026-01-23 23:38:26.31	17.63	12.54	-38.8	-40.6	19.2	0.00e+00	0	39	0	0	49	4355
2026-01-23 23:38:27.59	17.64	12.66	-38.7	-40.5	19.2	0.00e+00	0	38	0	0	49	4330
2026-01-23 23:38:28.48	17.65	12.75	-38.8	-40.6	19.2	0.00e+00	0	39	0	0	49	4374
2026-01-23 23:38:29.61	17.66	12.86	-38.7	-40.5	19.3	0.00e+00	0	39	0	0	49	4296
2026-01-23 23:38:30.64	17.67	12.96	-38.7	-40.5	19.3	0.00e+00	0	38	0	0	49	4306
2026-01-23 23:38:31.79	17.69	13.07	-38.7	-40.5	19.2	0.00e+00	0	39	0	0	49	4330
2026-01-23 23:38:32.65	17.70	13.15	-38.7	-40.5	19.3	0.00e+00	0	39	0	0	49	4312
2026-01-23 23:38:33.99	17.71	13.28	-38.6	-40.3	19.4	0.00e+00	0	39	0	0	49	4228
2026-01-23 23:38:34.70	17.72	13.35	-38.5	-40.3	19.5	0.00e+00	0	38	0	0	49	4194
2026-01-23 23:38:36.19	17.73	13.50	-38.5	-40.3	19.5	0.00e+00	0	39	0	0	48	4464
2026-01-23 23:38:36.90	17.74	13.57	-38.6	-40.3	19.4	0.00e+00	0	39	0	0	48	4488
2026-01-23 23:38:38.29	17.76	13.71	-38.6	-40.3	19.5	0.00e+00	0	39	0	0	48	4488
2026-01-23 23:38:39.00	17.76	13.78	-38.5	-40.3	19.5	0.00e+00	0	39	0	0	48	4452
2026-01-23 23:38:40.27	17.78	13.91	-38.4	-40.2	19.6	0.00e+00	0	39	0	0	48	4405
2026-01-23 23:38:40.99	17.78	13.99	-38.5	-40.2	19.5	1.50e-06	0	39	0	0	48	4440
2026-01-23 23:38:42.27	17.80	14.12	-38.5	-40.2	19.6	0.00e+00	0	39	0	0	48	4425
2026-01-23 23:38:42.99	17.81	14.19	-38.4	-40.1	19.6	0.00e+00	0	39	0	0	48	4378
2026-01-23 23:38:44.27	17.82	14.32	-38.5	-40.2	19.6	0.00e+00	0	39	0	0	48	4408
2026-01-23 23:38:45.00	17.83	14.40	-38.5	-40.2	19.6	0.00e+00	0	39	0	0	48	4423
2026-01-23 23:38:46.27	17.84	14.53	-38.5	-40.2	19.6	0.00e+00	0	39	0	0	48	4423
2026-01-23 23:38:46.98	17.85	14.60	-38.5	-40.2	19.6	0.00e+00	0	39	0	0	48	4408
2026-01-23 23:38:48.26	17.86	14.74	-38.5	-40.2	19.6	0.00e+00	0	39	0	0	48	4415
2026-01-23 23:38:48.97	17.87	14.81	-38.5	-40.2	19.6	0.00e+00	0	39	0	0	48	4435
2026-01-23 23:38:50.25	17.89	14.95	-38.4	-40.1	19.7	0.00e+00	0	39	0	0	48	4372
2026-01-23 23:38:50.96	17.90	15.02	-38.4	-40.1	19.7	0.00e+00	0	39	0	0	48	4377
2026-01-23 23:38:52.24	17.91	15.16	-38.4	-40.2	19.6	0.00e+00	0	39	0	0	48	4401
2026-01-23 23:38:53.20	17.92	15.26	-38.5	-40.2	19.6	0.00e+00	0	39	0	0	48	4430
2026-01-23 23:38:54.20	17.93	15.37	-38.4	-40.2	19.7	0.00e+00	0	39	0	0	48	4400
2026-01-23 23:38:55.54	17.95	15.51	-38.5	-40.3	19.6	0.00e+00	0	39	0	0	48	4462
2026-01-23 23:38:56.25	17.96	15.59	-38.5	-40.2	19.7	0.00e+00	0	39	0	0	48	4416
2026-01-23 23:38:57.53	17.97	15.73	-38.4	-40.2	19.7	0.00e+00	0	39	0	0	48	4395
2026-01-23 23:38:58.25	17.98	15.81	-38.4	-40.2	19.7	0.00e+00	0	39	0	0	48	4404
2026-01-23 23:38:59.53	17.99	15.95	-38.5	-40.3	19.6	0.00e+00	0	39	0	0	48	4454
2026-01-23 23:39:00.24	18.00	16.03	-38.5	-40.3	19.6	0.00e+00	0	39	0	0	48	4463
2026-01-23 23:39:01.52	18.02	16.17	-38.4	-40.2	19.7	0.00e+00	0	39	0	0	48	4414
2026-01-23 23:39:02.26	18.03	16.25	-38.4	-40.2	19.6	0.00e+00	0	39	0	0	48	4437
2026-01-23 23:39:03.54	18.04	16.39	-38.6	-40.4	19.5	0.00e+00	0	38	0	0	48	4514
2026-01-23 23:39:04.25	18.05	16.47	-38.4	-40.2	19.7	0.00e+00	0	39	0	0	48	4426
2026-01-23 23:39:05.53	18.07	16.62	-38.6	-40.4	19.5	0.00e+00	0	39	0	0	48	4510
2026-01-23 23:39:06.26	18.08	16.70	-38.6	-40.4	19.5	0.00e+00	0	39	0	0	48	4517
2026-01-23 23:39:07.54	18.09	16.85	-38.4	-40.3	19.6	0.00e+00	0	39	0	0	48	4443
2026-01-23 23:39:08.25	18.10	16.93	-38.5	-40.4	19.5	0.00e+00	0	39	0	0	48	4495
2026-01-23 23:39:09.53	18.12	17.08	-38.5	-40.3	19.6	0.00e+00	0	39	0	0	48	4482
2026-01-23 23:39:10.25	18.12	17.16	-38.5	-40.4	19.5	0.00e+00	0	39	0	0	48	4503
2026-01-23 23:39:11.74	18.14	17.33	-38.5	-40.4	19.6	0.00e+00	0	39	0	0	48	4495
2026-01-23 23:39:12.72	18.16	17.45	-38.5	-40.4	19.5	0.00e+00	0	39	0	0	48	4496
2026-01-23 23:39:13.72	18.17	17.56	-38.6	-40.5	19.5	0.00e+00	0	39	0	0	48	4550
2026-01-23 23:39:14.71	18.18	17.68	-38.7	-40.5	19.4	0.00e+00	0	39	0	0	48	4559
2026-01-23 23:39:15.70	18.19	17.80	-38.6	-40.4	19.6	0.00e+00	0	39	0	0	48	4497
2026-01-23 23:39:16.70	18.21	17.92	-38.6	-40.4	19.5	0.00e+00	0	39	0	0	48	4503
2026-01-23 23:39:17.69	18.22	18.04	-38.6	-40.4	19.4	0.00e+00	0	39	0	0	48	4538
2026-01-23 23:39:18.68	18.23	18.16	-38.5	-40.3	19.5	0.00e+00	0	39	0	0	48	4484
2026-01-23 23:39:19.73	18.25	18.28	-38.5	-40.3	19.5	0.00e+00	0	39	0	0	48	4477
2026-01-23 23:39:20.70	18.26	18.40	-38.6	-40.4	19.5	0.00e+00	0	39	0	0	48	4510
2026-01-23 23:39:21.78	18.27	18.53	-38.6	-40.3	19.5	0.00e+00	0	39	0	0	48	4485
2026-01-23 23:39:22.63	18.28	18.64	-38.4	-40.2	19.6	0.00e+00	0	39	0	0	48	4422
2026-01-23 23:39:23.97	18.30	18.80	-38.5	-40.3	19.6	0.00e+00	0	38	0	0	48	4443
2026-01-23 23:39:24.69	18.31	18.89	-38.6	-40.3	19.5	0.00e+00	0	39	0	0	48	4471
2026-01-23 23:39:25.97	18.33	19.05	-38.5	-40.2	19.6	0.00e+00	0	39	0	0	48	4430
2026-01-23 23:39:26.71	18.34	19.14	-38.5	-40.3	19.6	0.00e+00	0	39	0	0	48	4468
2026-01-23 23:39:27.99	18.36	19.31	-38.4	-40.1	19.7	0.00e+00	0	39	0	0	48	4374
2026-01-23 23:39:28.71	18.37	19.40	-38.4	-40.1	19.7	0.00e+00	0	39	0	0	48	4359
2026-01-23 23:39:29.99	18.38	19.56	-38.4	-40.2	19.6	0.00e+00	0	39	0	0	48	4415
2026-01-23 23:39:30.75	18.39	19.66	-38.5	-40.2	19.6	0.00e+00	0	39	0	0	48	4430
2026-01-23 23:39:32.03	18.41	19.82	-38.3	-40.1	19.8	0.00e+00	0	39	0	0	48	4341
2026-01-23 23:39:32.75	18.42	19.91	-38.3	-40.0	19.8	0.00e+00	0	39	0	0	48	4339
2026-01-23 23:39:34.03	18.44	20.08	-38.2	-40.0	19.8	0.00e+00	0	39	0	0	48	4300
2026-01-23 23:39:34.74	18.45	20.17	-38.2	-39.9	19.8	0.00e+00	0	39	0	0	48	4290
2026-01-23 23:39:36.02	18.47	20.34	-38.1	-39.8	19.9	0.00e+00	0	39	0	0	48	4241
2026-01-23 23:39:36.73	18.48	20.44	-38.2	-39.9	19.9	0.00e+00	0	39	0	0	48	4274
2026-01-23 23:39:38.01	18.50	20.61	-38.1	-39.9	19.9	0.00e+00	0	39	0	0	48	4252
2026-01-23 23:39:38.72	18.51	20.70	-38.0	-39.8	20.0	0.00e+00	0	39	0	0	48	4213
2026-01-23 23:39:40.17	18.53	20.89	-37.9	-39.6	20.0	0.00e+00	0	39	0	0	47	4370
2026-01-23 23:39:40.88	18.54	20.99	-37.9	-39.7	19.9	0.00e+00	0	39	0	0	47	4417
2026-01-23 23:39:42.23	18.56	21.17	-37.7	-39.5	20.1	0.00e+00	0	39	0	0	47	4307
2026-01-23 23:39:42.94	18.57	21.27	-37.7	-39.4	20.2	0.00e+00	0	39	0	0	47	4277
2026-01-23 23:39:44.22	18.59	21.45	-37.7	-39.4	20.2	0.00e+00	0	39	0	0	47	4285
2026-01-23 23:39:44.93	18.60	21.54	-37.6	-39.4	20.2	0.00e+00	0	39	0	0	47	4243
2026-01-23 23:39:46.21	18.62	21.72	-37.7	-39.4	20.2	2.59e-05	0	39	0	0	47	4265
2026-01-23 23:39:46.92	18.63	21.82	-37.6	-39.4	20.3	0.00e+00	0	39	0	0	47	4246
2026-01-23 23:39:48.20	18.65	22.00	-37.5	-39.2	20.4	6.56e-05	0	39	0	0	46	4439
2026-01-23 23:39:48.91	18.66	22.10	-37.5	-39.2	20.4	0.00e+00	0	39	0	0	46	4417
2026-01-23 23:39:50.19	18.68	22.28	-37.5	-39.2	20.4	0.00e+00	0	39	0	0	46	4401
2026-01-23 23:39:50.92	18.69	22.39	-37.4	-39.1	20.5	0.00e+00	0	39	0	0	46	4362
2026-01-23 23:39:52.20	18.71	22.57	-37.5	-39.1	20.5	0.00e+00	0	39	0	0	46	4386
2026-01-23 23:39:53.07	18.73	22.70	-37.4	-39.1	20.5	0.00e+00	0	39	0	0	46	4372
2026-01-23 23:39:54.50	18.75	22.90	-37.2	-38.9	20.7	0.00e+00	0	39	0	0	46	4246
2026-01-23 23:39:55.21	18.76	23.01	-37.1	-38.8	20.8	0.00e+00	0	39	0	0	46	4206
2026-01-23 23:39:56.71	18.79	23.23	-37.2	-38.8	20.7	0.00e+00	0	39	0	0	46	4229
2026-01-23 23:39:57.42	18.80	23.33	-37.1	-38.8	20.8	0.00e+00	0	39	0	0	46	4207
2026-01-23 23:39:58.77	18.82	23.53	-37.1	-38.7	20.8	0.00e+00	0	39	0	0	46	4180
2026-01-23 23:39:59.48	18.83	23.64	-36.9	-38.7	20.8	0.00e+00	0	39	0	0	45	4394
2026-01-23 23:40:00.76	18.86	23.83	-37.1	-38.8	20.8	0.00e+00	0	39	0	0	45	4446
2026-01-23 23:40:01.50	18.87	23.95	-37.1	-38.7	20.8	0.00e+00	0	39	0	0	45	4433
2026-01-23 23:40:02.77	18.89	24.14	-37.2	-38.9	20.7	0.00e+00	0	39	0	0	45	4511
2026-01-23 23:40:03.48	18.90	24.25	-37.1	-38.7	20.8	0.00e+00	0	39	0	0	45	4431
2026-01-23 23:40:04.76	18.92	24.45	-37.1	-38.7	20.9	0.00e+00	0	39	0	0	45	4428
2026-01-23 23:40:05.49	18.94	24.56	-37.1	-38.7	20.9	0.00e+00	0	39	0	0	45	4424
2026-01-23 23:40:06.77	18.96	24.76	-37.1	-38.8	20.9	0.00e+00	0	39	0	0	45	4462
2026-01-23 23:40:07.48	18.97	24.87	-37.2	-38.9	20.8	0.00e+00	0	39	0	0	45	4513
2026-01-23 23:40:08.76	19.00	25.07	-37.3	-39.0	20.7	0.00e+00	0	39	0	0	45	4567
2026-01-23 23:40:09.48	19.01	25.19	-37.3	-39.0	20.7	0.00e+00	0	39	0	0	45	4581
2026-01-23 23:40:10.76	19.03	25.39	-37.5	-39.1	20.6	0.00e+00	0	39	0	0	45	4645
2026-01-23 23:40:11.47	19.05	25.51	-37.4	-39.1	20.6	0.00e+00	0	39	0	0	45	4633
2026-01-23 23:40:12.75	19.07	25.71	-37.4	-39.3	20.3	0.00e+00	0	39	0	0	45	4746
2026-01-23 23:40:13.59	19.09	25.85	-37.4	-39.4	20.3	0.00e+00	0	39	0	0	45	4777
2026-01-23 23:40:14.73	19.11	26.04	-37.8	-39.5	20.2	0.00e+00	0	39	0	0	46	4592
2026-01-23 23:40:15.79	19.13	26.21	-37.9	-39.7	20.2	0.00e+00	0	39	0	0	46	4658
2026-01-23 23:40:16.85	19.15	26.39	-38.1	-39.9	20.0	0.00e+00	0	39	0	0	46	4770
2026-01-23 23:40:17.70	19.16	26.53	-38.1	-39.9	19.9	0.00e+00	0	39	0	0	46	4782
2026-01-23 23:40:18.84	19.19	26.72	-38.2	-40.0	19.8	0.00e+00	0	39	0	0	46	4815
2026-01-23 23:40:19.69	19.20	26.86	-38.1	-39.9	19.9	0.00e+00	0	39	0	0	46	4785
2026-01-23 23:40:20.83	19.23	27.06	-38.4	-40.2	19.7	0.00e+00	0	39	0	0	47	4663
2026-01-23 23:40:21.68	19.24	27.20	-38.4	-40.2	19.6	0.00e+00	0	39	0	0	47	4689
2026-01-23 23:40:22.82	19.27	27.40	-38.5	-40.3	19.5	0.00e+00	0	39	0	0	47	4728
2026-01-23 23:40:23.67	19.28	27.55	-38.6	-40.4	19.5	0.00e+00	0	39	0	0	47	4778
2026-01-23 23:40:24.81	19.31	27.75	-38.6	-40.4	19.4	0.00e+00	0	39	0	0	47	4792
2026-01-23 23:40:25.66	19.32	27.90	-38.6	-40.5	19.3	0.00e+00	0	39	0	0	47	4825
2026-01-23 23:40:26.97	19.35	28.13	-38.6	-40.4	19.3	0.00e+00	0	39	0	0	47	4800
2026-01-23 23:40:27.68	19.37	28.25	-38.6	-40.4	19.4	0.00e+00	0	39	0	0	47	4775
2026-01-23 23:40:29.17	19.40	28.52	-38.6	-40.4	19.3	0.00e+00	0	39	0	0	47	4776
2026-01-23 23:40:29.87	19.41	28.65	-38.6	-40.4	19.3	0.00e+00	0	39	0	0	47	4801
2026-01-23 23:40:31.23	19.44	28.89	-38.6	-40.4	19.5	0.00e+00	0	39	0	0	48	4495
2026-01-23 23:40:31.94	19.46	29.02	-38.5	-40.3	19.5	0.00e+00	0	39	0	0	48	4457
2026-01-23 23:40:33.22	19.49	29.26	-38.5	-40.3	19.6	0.00e+00	0	39	0	0	48	4454
2026-01-23 23:40:33.95	19.50	29.40	-38.4	-40.2	19.7	0.00e+00	0	39	0	0	48	4394
2026-01-23 23:40:35.23	19.53	29.63	-38.3	-40.0	19.9	0.00e+00	0	39	0	0	48	4320
2026-01-23 23:40:35.95	19.55	29.77	-38.1	-39.8	20.0	0.00e+00	0	39	0	0	48	4216
2026-01-23 23:40:37.23	19.58	30.01	-38.0	-39.7	20.1	0.00e+00	0	39	0	0	48	4174
2026-01-23 23:40:37.94	19.60	30.15	-38.0	-39.7	20.1	0.00e+00	0	39	0	0	48	4184
2026-01-23 23:40:39.22	19.63	30.39	-38.0	-39.7	19.9	0.00e+00	0	39	0	0	47	4441
2026-01-23 23:40:39.93	19.64	30.53	-37.8	-39.6	20.0	3.80e-06	0	39	0	0	47	4366
2026-01-23 23:40:41.21	19.67	30.78	-37.7	-39.3	20.4	0.00e+00	0	39	0	0	47	4234
2026-01-23 23:40:42.00	19.69	30.93	-37.5	-39.2	20.5	0.00e+00	0	39	0	0	47	4171
2026-01-23 23:40:43.19	19.72	31.17	-37.6	-39.2	20.5	0.00e+00	0	39	0	0	47	4189
2026-01-23 23:40:44.04	19.74	31.33	-37.6	-39.3	20.5	0.00e+00	0	39	0	0	47	4211
2026-01-23 23:40:45.17	19.77	31.56	-37.7	-39.3	20.4	0.00e+00	0	39	0	0	47	4229
2026-01-23 23:40:46.03	19.79	31.73	-37.6	-39.2	20.5	0.00e+00	0	39	0	0	47	4184
2026-01-23 23:40:47.16	19.82	31.96	-37.6	-39.3	20.5	0.00e+00	0	39	0	0	47	4220
2026-01-23 23:40:48.02	19.84	32.14	-37.7	-39.4	20.3	0.00e+00	0	39	0	0	47	4261
2026-01-23 23:40:49.15	19.87	32.37	-37.8	-39.4	20.3	0.00e+00	0	39	0	0	47	4286
2026-01-23 23:40:50.01	19.90	32.55	-37.8	-39.5	20.3	0.00e+00	0	39	0	0	47	4303
2026-01-23 23:40:51.15	19.93	32.78	-38.0	-39.6	20.2	0.00e+00	0	39	0	0	47	4388
2026-01-23 23:40:52.03	19.95	32.97	-38.0	-39.6	20.2	0.00e+00	0	39	0	0	47	4383
2026-01-23 23:40:53.17	19.98	33.21	-38.3	-40.0	19.9	1.50e-06	0	39	0	0	47	4557
2026-01-23 23:40:54.09	20.01	33.40	-38.3	-40.0	19.8	0.00e+00	0	39	0	0	47	4564
2026-01-23 23:40:55.26	20.04	33.65	-38.4	-40.1	19.8	0.00e+00	0	39	0	0	47	4632
2026-01-23 23:40:56.11	20.06	33.84	-38.4	-40.2	19.7	0.00e+00	0	39	0	0	47	4658
2026-01-23 23:40:57.50	20.10	34.14	-38.5	-40.3	19.6	0.00e+00	0	39	0	0	47	4717
2026-01-23 23:40:58.21	20.12	34.29	-38.6	-40.3	19.6	0.00e+00	0	39	0	0	47	4738
2026-01-23 23:40:59.72	20.17	34.63	-38.6	-40.4	19.5	0.00e+00	0	39	0	0	47	4778
2026-01-23 23:41:00.73	20.20	34.85	-39.0	-40.8	19.4	0.00e+00	0	39	0	0	48	4723
2026-01-23 23:41:01.72	20.23	35.07	-39.0	-40.8	19.3	0.00e+00	0	39	0	0	48	4715
2026-01-23 23:41:02.71	20.26	35.30	-39.1	-41.0	19.2	0.00e+00	0	39	0	0	48	4824
2026-01-23 23:41:03.71	20.29	35.52	-39.3	-41.2	19.0	0.00e+00	0	39	0	0	49	4665
2026-01-23 23:41:04.70	20.32	35.75	-39.4	-41.3	18.9	0.00e+00	0	39	0	0	49	4717
2026-01-23 23:41:05.69	20.35	35.98	-39.5	-41.4	18.8	0.00e+00	0	39	0	0	49	4775
2026-01-23 23:41:06.69	20.38	36.21	-39.7	-41.6	18.5	0.00e+00	0	39	0	0	50	4644
2026-01-23 23:41:07.68	20.41	36.44	-39.6	-41.5	18.6	0.00e+00	0	39	0	0	50	4598
2026-01-23 23:41:08.74	20.45	36.69	-39.9	-41.8	18.3	0.00e+00	0	39	0	0	50	4754
2026-01-23 23:41:09.67	20.48	36.91	-39.8	-41.7	18.3	0.00e+00	0	39	0	0	50	4703
2026-01-23 23:41:10.67	20.51	37.15	-39.9	-41.9	18.2	0.00e+00	0	39	0	0	50	4776
2026-01-23 23:41:11.66	20.55	37.39	-40.0	-41.9	18.2	0.00e+00	0	39	0	0	50	4794
2026-01-23 23:41:12.65	20.58	37.63	-40.1	-42.1	18.1	0.00e+00	0	39	0	0	50	4895
2026-01-23 23:41:13.65	20.62	37.87	-40.2	-42.1	18.1	0.00e+00	0	39	0	0	50	4913
2026-01-23 23:41:14.64	20.65	38.12	-40.2	-42.2	18.0	0.00e+00	0	39	0	0	51	4669
2026-01-23 23:41:15.64	20.69	38.36	-39.8	-41.7	18.5	0.00e+00	0	39	0	0	51	4425
2026-01-23 23:41:16.63	20.72	38.61	-39.9	-41.8	18.4	0.00e+00	0	39	0	0	51	4450
2026-01-23 23:41:17.63	20.76	38.86	-39.7	-41.6	18.6	0.00e+00	0	39	0	0	51	4362
2026-01-23 23:41:18.62	20.80	39.11	-39.7	-41.6	18.6	0.00e+00	0	39	0	0	51	4350
2026-01-23 23:41:19.62	20.84	39.37	-39.6	-41.5	18.7	0.00e+00	0	39	0	0	51	4309
2026-01-23 23:41:20.61	20.87	39.62	-39.6	-41.5	18.7	0.00e+00	0	39	0	0	51	4313
2026-01-23 23:41:21.61	20.91	39.88	-39.7	-41.5	18.6	0.00e+00	0	39	0	0	51	4336
2026-01-23 23:41:22.60	20.95	40.14	-39.8	-41.7	18.5	0.00e+00	0	39	0	0	51	4398
2026-01-23 23:41:23.60	20.99	40.40	-39.8	-41.7	18.5	0.00e+00	0	39	0	0	51	4401
2026-01-23 23:41:24.59	21.03	40.67	-39.9	-41.8	18.4	0.00e+00	0	39	0	0	51	4472
2026-01-23 23:41:25.59	21.08	40.93	-39.9	-41.8	18.3	0.00e+00	0	39	0	0	51	4468
2026-01-23 23:41:26.58	21.12	41.20	-40.1	-42.0	18.2	0.00e+00	0	39	0	0	51	4557
2026-01-23 23:41:27.58	21.16	41.47	-40.1	-42.0	18.1	0.00e+00	0	39	0	0	51	4591
2026-01-23 23:41:28.58	21.20	41.74	-40.3	-42.2	17.9	0.00e+00	0	39	0	0	51	4691
2026-01-23 23:41:29.57	21.25	42.01	-40.3	-42.2	17.9	0.00e+00	0	39	0	0	51	4703
2026-01-23 23:41:30.56	21.29	42.29	-40.5	-42.5	17.7	0.00e+00	0	39	0	0	51	4820
2026-01-23 23:41:31.56	21.34	42.57	-40.6	-42.6	17.5	0.00e+00	0	39	0	0	52	4608
2026-01-23 23:41:32.55	21.38	42.84	-40.9	-43.0	17.1	7.62e-05	0	39	0	0	52	4862
2026-01-23 23:41:33.55	21.43	43.13	-41.1	-43.2	16.9	0.00e+00	0	39	0	0	52	4962
2026-01-23 23:41:34.55	21.48	43.41	-41.4	-43.5	16.6	0.00e+00	0	39	0	0	53	4855
2026-01-23 23:41:35.54	21.53	43.70	-41.3	-43.5	16.6	0.00e+00	0	39	0	0	53	4817
2026-01-23 23:41:36.54	21.57	43.99	-41.3	-43.4	16.7	0.00e+00	0	39	0	0	53	4781
2026-01-23 23:41:37.53	21.62	44.27	-41.1	-43.2	16.9	0.00e+00	0	39	0	0	53	4681
2026-01-23 23:41:38.52	21.67	44.56	-41.0	-43.1	17.0	0.00e+00	0	39	0	0	53	4603
2026-01-23 23:41:39.52	21.73	44.86	-40.9	-42.9	17.2	0.00e+00	0	39	0	0	53	4532
2026-01-23 23:41:40.51	21.78	45.16	-41.1	-43.2	17.0	0.00e+00	0	39	0	0	53	4688
2026-01-23 23:41:41.51	21.83	45.46	-41.3	-43.5	16.7	0.00e+00	0	39	0	0	53	4852
2026-01-23 23:41:42.50	21.89	45.75	-41.5	-43.8	16.4	0.00e+00	0	39	0	0	53	4991
2026-01-23 23:41:43.50	21.94	46.06	-41.7	-44.0	16.2	0.00e+00	0	39	0	0	53	5136
2026-01-23 23:41:44.49	22.00	46.36	-41.8	-44.2	16.0	0.00e+00	0	39	0	0	54	4936
2026-01-23 23:41:45.49	22.06	46.67	-41.8	-44.2	15.9	0.00e+00	0	39	0	0	54	4931
2026-01-23 23:41:46.48	22.11	46.98	-41.7	-44.0	16.1	0.00e+00	0	39	0	0	54	4838
2026-01-23 23:41:47.48	22.17	47.29	-41.4	-43.6	16.4	0.00e+00	0	39	0	0	54	4635
2026-01-23 23:41:48.47	22.23	47.61	-41.2	-43.3	16.7	0.00e+00	0	39	0	0	54	4469
2026-01-23 23:41:49.47	22.30	47.93	-41.0	-43.1	16.9	0.00e+00	0	39	0	0	54	4358
2026-01-23 23:41:50.46	22.36	48.24	-40.9	-43.0	17.0	0.00e+00	0	39	0	0	53	4579
2026-01-23 23:41:51.47	22.43	48.57	-40.5	-42.6	17.4	0.00e+00	0	39	0	0	53	4354
2026-01-23 23:41:52.47	22.49	48.90	-40.4	-42.4	17.7	0.00e+00	0	39	0	0	52	4542
2026-01-23 23:41:53.46	22.56	49.22	-40.2	-42.1	18.0	0.00e+00	0	39	0	0	52	4371
2026-01-23 23:41:54.46	22.63	49.55	-40.2	-42.1	18.0	0.00e+00	0	39	0	0	52	4377
2026-01-23 23:41:55.45	22.70	49.88	-40.2	-42.2	17.9	0.00e+00	0	39	0	0	52	4400
2026-01-23 23:41:56.45	22.77	50.21	-40.1	-42.0	18.1	0.00e+00	0	39	0	0	52	4303
2026-01-23 23:41:57.44	22.84	50.55	-40.1	-42.1	18.1	0.00e+00	0	39	0	0	52	4358
2026-01-23 23:41:58.44	22.91	50.89	-40.0	-41.9	18.3	0.00e+00	0	39	0	0	51	4539
2026-01-23 23:41:59.43	22.99	51.23	-39.8	-41.6	18.6	0.00e+00	0	39	0	0	51	4384
2026-01-23 23:42:00.43	23.07	51.57	-39.7	-41.6	18.7	0.00e+00	0	39	0	0	51	4356
2026-01-23 23:42:01.42	23.15	51.92	-39.5	-41.4	18.7	0.00e+00	0	39	0	0	51	4244
2026-01-23 23:42:02.42	23.23	52.27	-39.4	-41.3	18.7	0.00e+00	0	39	0	0	50	4457
2026-01-23 23:42:03.42	23.31	52.62	-39.0	-40.8	19.2	0.00e+00	0	39	0	0	49	4449
2026-01-23 23:42:04.41	23.40	52.97	-38.6	-40.3	19.5	0.00e+00	0	39	0	0	49	4242
2026-01-23 23:42:05.41	23.48	53.33	-38.7	-40.4	19.5	0.00e+00	0	39	0	0	49	4277
2026-01-23 23:42:06.47	23.58	53.71	-38.7	-40.4	19.5	0.00e+00	0	39	0	0	49	4288
2026-01-23 23:42:07.33	23.66	54.02	-38.5	-40.3	19.7	0.00e+00	0	39	0	0	49	4198
2026-01-23 23:42:08.71	23.79	54.52	-38.3	-40.0	20.0	0.00e+00	0	39	0	0	48	4297
2026-01-23 23:42:09.42	23.86	54.78	-38.0	-39.7	20.2	0.00e+00	0	39	0	0	48	4178
2026-01-23 23:42:10.70	23.98	55.26	-37.8	-39.5	20.3	0.00e+00	0	39	0	0	47	4300
2026-01-23 23:42:11.41	24.05	55.52	-37.8	-39.5	20.3	0.00e+00	0	39	0	0	47	4311
2026-01-23 23:42:12.69	24.19	56.00	-37.7	-39.4	20.4	0.00e+00	0	39	0	0	47	4267
2026-01-23 23:42:13.48	24.27	56.30	-37.8	-39.5	20.3	0.00e+00	0	39	0	0	47	4315
2026-01-23 23:42:14.69	24.40	56.76	-37.8	-39.5	20.2	0.00e+00	0	39	0	0	47	4316
2026-01-23 23:42:15.64	24.51	57.13	-37.9	-39.6	20.2	0.00e+00	0	39	0	0	47	4362
2026-01-23 23:42:16.64	24.63	57.51	-38.1	-39.8	20.1	0.00e+00	0	39	0	0	47	4463
2026-01-23 23:42:17.84	24.77	57.98	-38.1	-39.8	20.1	0.00e+00	0	39	0	0	47	4474
2026-01-23 23:42:18.72	24.88	58.32	-37.9	-39.6	20.2	0.00e+00	0	39	0	0	47	4384
2026-01-23 23:42:19.86	25.02	58.77	-37.6	-39.3	20.5	0.00e+00	0	39	0	0	47	4204
2026-01-23 23:42:20.71	25.14	59.11	-37.5	-39.1	20.5	0.00e+00	0	39	0	0	46	4371
2026-01-23 23:42:21.85	25.29	59.56	-37.4	-39.1	20.6	0.00e+00	0	39	0	0	46	4343
2026-01-23 23:42:22.70	25.41	59.90	-37.2	-38.8	20.9	0.00e+00	0	39	0	0	46	4234
2026-01-23 23:42:23.84	25.57	60.36	-36.9	-38.5	21.2	0.00e+00	0	39	0	0	45	4326
2026-01-23 23:42:24.69	25.69	60.71	-36.9	-38.5	21.3	0.00e+00	0	39	0	0	45	4307
2026-01-23 23:42:25.83	25.87	61.17	-36.9	-38.5	21.2	0.00e+00	0	39	0	0	45	4303
2026-01-23 23:42:26.68	26.00	61.52	-36.7	-38.3	21.4	0.00e+00	0	39	0	0	45	4213
2026-01-23 23:42:27.82	26.19	61.99	-36.3	-37.9	21.8	0.00e+00	0	39	0	0	44	4248
2026-01-23 23:42:28.67	26.33	62.34	-36.3	-37.8	21.8	0.00e+00	0	39	0	0	44	4230
2026-01-23 23:42:29.81	26.52	62.82	-36.4	-37.9	21.7	0.00e+00	0	39	0	0	44	4275
2026-01-23 23:42:30.66	26.68	63.18	-36.5	-38.1	21.6	0.00e+00	0	39	0	0	44	4354
2026-01-23 23:42:31.92	26.91	63.71	-36.6	-38.1	21.5	0.00e+00	0	39	0	0	44	4380
2026-01-23 23:42:32.72	27.06	64.05	-36.7	-38.2	21.4	0.00e+00	0	39	0	0	44	4440
2026-01-23 23:42:33.97	27.31	64.58	-36.7	-38.3	21.4	0.00e+00	0	39	0	0	44	4461
2026-01-23 23:42:34.82	27.49	64.94	-36.6	-38.2	21.5	0.00e+00	0	39	0	0	44	4407
2026-01-23 23:42:35.96	27.74	65.44	-36.5	-38.1	21.6	0.00e+00	0	39	0	0	44	4346
2026-01-23 23:42:36.81	27.93	65.80	-36.7	-38.2	21.5	0.00e+00	0	39	0	0	44	4437
2026-01-23 23:42:38.09	28.23	66.36	-36.3	-37.9	21.8	0.00e+00	0	39	0	0	44	4263
2026-01-23 23:42:38.80	28.40	66.67	-36.3	-37.8	21.8	0.00e+00	0	39	0	0	44	4236
2026-01-23 23:42:40.08	28.72	67.23	-36.7	-38.3	21.3	0.00e+00	0	39	0	0	44	4458
2026-01-23 23:42:40.79	28.91	67.55	-37.0	-38.6	21.0	0.00e+00	0	39	0	0	44	4615
2026-01-23 23:42:42.07	29.26	68.12	-36.9	-38.6	21.1	0.00e+00	0	39	0	0	44	4606
2026-01-23 23:42:42.79	29.47	68.44	-36.6	-38.2	21.4	0.00e+00	0	39	0	0	44	4418
2026-01-23 23:42:44.07	29.85	69.01	-36.5	-38.0	21.3	0.00e+00	0	39	0	0	44	4328
2026-01-23 23:42:44.78	30.08	69.33	-36.4	-38.0	21.4	0.00e+00	0	39	0	0	44	4319
2026-01-23 23:42:46.06	30.50	69.90	-36.2	-37.8	21.6	0.00e+00	0	39	0	0	44	4194
2026-01-23 23:42:46.78	30.75	70.23	-36.0	-37.5	21.6	0.00e+00	0	39	0	0	44	4086
2026-01-23 23:42:48.06	31.21	70.81	-35.8	-37.3	21.9	0.00e+00	0	39	0	0	43	4208
2026-01-23 23:42:48.77	31.48	71.13	-35.8	-37.4	21.9	0.00e+00	0	39	0	0	43	4246
2026-01-23 23:42:50.05	31.99	71.71	-36.2	-37.7	21.6	0.00e+00	0	39	0	0	43	4427
2026-01-23 23:42:50.76	32.29	72.04	-36.1	-37.6	21.8	0.00e+00	0	39	0	0	43	4377
2026-01-23 23:42:52.17	32.92	72.68	-35.9	-37.4	22.1	0.00e+00	0	39	0	0	43	4244
2026-01-23 23:42:52.88	33.26	73.01	-35.9	-37.4	22.0	0.00e+00	0	39	0	0	43	4249
2026-01-23 23:42:54.22	33.93	73.62	-35.9	-37.5	21.8	0.00e+00	0	39	0	0	43	4300
2026-01-23 23:42:54.93	34.31	73.95	-36.1	-37.6	21.7	0.00e+00	0	39	0	0	43	4369
2026-01-23 23:42:56.26	35.06	74.56	-36.0	-37.6	21.9	0.00e+00	0	39	0	0	43	4369
2026-01-23 23:42:56.97	35.49	74.89	-35.8	-37.4	22.1	0.00e+00	0	39	0	0	43	4246
2026-01-23 23:42:58.25	36.31	75.47	-35.7	-37.2	22.1	0.00e+00	0	39	0	0	43	4179
2026-01-23 23:42:58.96	36.79	75.80	-36.3	-37.9	21.5	0.00e+00	0	39	0	0	43	4495
2026-01-23 23:43:00.24	37.73	76.39	-37.3	-38.9	20.9	0.00e+00	0	39	0	0	45	4537
2026-01-23 23:43:00.95	38.29	76.71	-37.2	-38.9	21.1	0.00e+00	0	39	0	0	45	4494
2026-01-23 23:43:02.23	39.36	77.30	-37.0	-38.5	21.3	0.00e+00	0	39	0	0	45	4337
2026-01-23 23:43:02.96	40.02	77.63	-37.1	-38.7	21.2	0.00e+00	0	39	0	0	45	4394
2026-01-23 23:43:04.23	41.26	78.21	-37.6	-39.3	20.6	0.00e+00	0	39	0	0	45	4715
2026-01-23 23:43:04.96	42.03	78.54	-37.7	-39.4	20.6	0.00e+00	0	39	0	0	46	4506
2026-01-23 23:43:06.24	43.50	79.11	-37.5	-39.2	20.8	0.00e+00	0	39	0	0	46	4399
2026-01-23 23:43:06.95	44.38	79.43	-37.2	-38.8	21.0	0.00e+00	0	39	0	0	46	4216
2026-01-23 23:43:08.23	46.11	79.99	-36.9	-38.5	21.2	0.00e+00	0	39	0	0	45	4332
2026-01-23 23:43:08.99	47.24	80.33	-36.7	-38.3	21.4	0.00e+00	0	39	0	0	45	4222
2026-01-23 23:43:10.27	49.32	80.88	-36.6	-38.1	21.5	0.00e+00	0	39	0	0	45	4142
2026-01-23 23:43:10.97	50.57	81.17	-36.8	-38.3	21.3	0.00e+00	0	39	0	0	45	4238
2026-01-23 23:43:12.27	53.13	81.71	-37.0	-38.6	21.1	0.00e+00	0	39	0	0	45	4376
2026-01-23 23:43:12.98	54.67	82.00	-37.0	-38.6	21.1	0.00e+00	0	39	0	0	45	4348
2026-01-23 23:43:14.26	57.75	82.50	-36.5	-38.1	21.3	0.00e+00	0	39	0	0	44	4356
2026-01-23 23:43:14.98	59.67	82.77	-36.8	-38.4	20.8	0.00e+00	0	39	0	0	44	4529
2026-01-23 23:43:16.26	63.45	83.24	-37.1	-38.8	20.5	0.00e+00	0	39	0	0	45	4461
2026-01-23 23:43:16.98	65.81	83.48	-37.3	-38.9	20.7	0.00e+00	0	39	0	0	45	4530
2026-01-23 23:43:18.26	70.47	83.89	-36.9	-38.5	21.1	0.00e+00	0	39	0	0	45	4302
2026-01-23 23:43:18.98	73.37	84.10	-36.9	-38.5	21.0	0.00e+00	0	39	0	0	45	4307
2026-01-23 23:43:20.26	79.03	84.44	-37.2	-38.9	20.7	0.00e+00	0	39	0	0	45	4498
2026-01-23 23:43:20.99	82.55	84.60	-37.4	-39.1	20.6	0.00e+00	0	39	0	0	45	4620
2026-01-23 23:43:22.27	89.23	84.84	-37.5	-39.1	20.8	0.00e+00	0	39	0	0	45	4623
2026-01-23 23:43:22.98	93.17	84.94	-37.5	-39.2	20.6	0.00e+00	0	39	0	0	45	4675
2026-01-23 23:43:24.26	100.60	85.05	-37.8	-39.6	20.3	0.00e+00	0	39	0	0	46	4615
2026-01-23 23:43:24.97	104.83	85.08	-37.6	-39.3	20.6	0.00e+00	0	39	0	0	46	4450
2026-01-23 23:43:26.24	112.42	85.06	-37.1	-38.8	21.0	0.00e+00	0	39	0	0	46	4203
2026-01-23 23:43:26.96	116.66	85.01	-37.6	-39.3	20.5	0.00e+00	0	39	0	0	46	4465
2026-01-23 23:43:28.25	123.97	84.86	-37.2	-38.9	20.9	0.00e+00	0	39	0	0	46	4250
2026-01-23 23:43:28.96	127.78	84.74	-37.1	-38.7	21.1	0.00e+00	0	39	0	0	46	4167
2026-01-23 23:43:30.24	134.18	84.47	-37.2	-38.9	20.9	0.00e+00	0	39	0	0	46	4262
2026-01-23 23:43:30.95	137.44	84.30	-36.6	-38.2	21.5	0.00e+00	0	39	0	0	45	4156
2026-01-23 23:43:32.23	142.81	83.94	-36.3	-37.9	21.6	0.00e+00	0	39	0	0	44	4264
2026-01-23 23:43:32.96	145.59	83.72	-36.9	-38.5	21.2	0.00e+00	0	39	0	0	44	4578
2026-01-23 23:43:34.23	149.95	83.29	-36.9	-38.5	21.2	0.00e+00	0	39	0	0	44	4551
2026-01-23 23:43:34.97	152.24	83.03	-36.8	-38.4	21.1	0.00e+00	0	39	0	0	44	4504
2026-01-23 23:43:36.25	155.80	82.55	-36.7	-38.3	21.3	0.00e+00	0	39	0	0	44	4481
2026-01-23 23:43:36.96	157.58	82.28	-36.9	-38.5	21.2	0.00e+00	0	39	0	0	44	4566
2026-01-23 23:43:38.24	160.49	81.77	-36.7	-38.3	21.5	0.00e+00	0	39	0	0	44	4442
2026-01-23 23:43:38.96	161.96	81.47	-36.5	-38.0	21.4	0.00e+00	0	39	0	0	44	4328
2026-01-23 23:43:40.24	164.35	80.93	-37.4	-39.1	20.7	0.00e+00	0	39	0	0	45	4632
2026-01-23 23:43:40.97	165.58	80.62	-37.7	-39.4	20.6	0.00e+00	0	39	0	0	46	4509
2026-01-23 23:43:42.25	167.55	80.06	-37.1	-38.8	21.0	0.00e+00	0	39	0	0	46	4209
2026-01-23 23:43:42.97	168.57	79.75	-37.0	-38.6	21.1	0.00e+00	0	39	0	0	46	4138
2026-01-23 23:43:44.25	170.22	79.18	-37.0	-38.6	21.2	0.00e+00	0	39	0	0	45	4360
2026-01-23 23:43:45.23	171.37	78.74	-37.0	-38.6	21.3	0.00e+00	0	39	0	0	45	4378
2026-01-23 23:43:46.22	172.44	78.29	-36.9	-38.5	21.1	0.00e+00	0	39	0	0	45	4332
2026-01-23 23:43:47.22	173.44	77.84	-37.1	-38.7	20.9	0.00e+00	0	39	0	0	45	4432
2026-01-23 23:43:48.22	174.37	77.38	-36.8	-38.4	21.3	0.00e+00	0	39	0	0	45	4281
2026-01-23 23:43:49.21	175.22	76.93	-36.6	-38.1	21.4	0.00e+00	0	39	0	0	45	4130
2026-01-23 23:43:50.21	176.03	76.47	-36.9	-38.5	20.9	0.00e+00	0	39	0	0	45	4331
2026-01-23 23:43:51.20	176.77	76.01	-37.5	-39.2	20.7	0.00e+00	0	39	0	0	45	4652
2026-01-23 23:43:52.20	177.47	75.55	-37.5	-39.2	20.7	0.00e+00	0	39	0	0	45	4699
2026-01-23 23:43:53.24	178.15	75.08	-37.3	-39.0	20.5	0.00e+00	0	39	0	0	45	4573
2026-01-23 23:43:54.23	178.76	74.62	-36.8	-38.4	20.9	0.00e+00	0	39	0	0	45	4288
2026-01-23 23:43:55.23	179.33	74.16	-36.5	-38.0	21.6	0.00e+00	0	39	0	0	44	4318
2026-01-23 23:43:56.22	179.87	73.70	-36.6	-38.2	21.4	0.00e+00	0	39	0	0	44	4400
2026-01-23 23:43:57.21	180.38	73.25	-37.3	-38.9	20.9	0.00e+00	0	39	0	0	45	4531
2026-01-23 23:43:58.21	180.86	72.79	-37.2	-38.8	21.1	0.00e+00	0	39	0	0	45	4485
2026-01-23 23:43:59.20	181.32	72.33	-37.0	-38.6	21.3	0.00e+00	0	39	0	0	45	4353
2026-01-23 23:44:00.20	181.75	71.87	-36.7	-38.3	21.3	0.00e+00	0	39	0	0	45	4198
2026-01-23 23:44:01.19	182.16	71.42	-36.5	-38.1	21.4	0.00e+00	0	39	0	0	44	4348
2026-01-23 23:44:02.19	182.55	70.97	-36.2	-37.8	21.8	0.00e+00	0	39	0	0	44	4202
2026-01-23 23:44:03.18	182.92	70.52	-36.4	-38.0	21.8	0.00e+00	0	39	0	0	44	4299
2026-01-23 23:44:04.18	183.27	70.06	-37.2	-38.8	21.1	0.00e+00	0	39	0	0	45	4485
2026-01-23 23:44:05.17	183.61	69.62	-38.1	-39.8	20.1	0.00e+00	0	39	0	0	46	4740
2026-01-23 23:44:06.53	184.04	69.00	-38.6	-40.4	19.5	0.00e+00	0	39	0	0	48	4535
2026-01-23 23:44:07.27	184.27	68.67	-38.0	-39.7	20.1	0.00e+00	0	39	0	0	48	4189
2026-01-23 23:44:08.85	184.72	67.97	-36.6	-38.2	21.5	0.00e+00	0	39	0	0	45	4151
2026-01-23 23:44:09.49	184.90	67.68	-36.4	-38.0	21.7	0.00e+00	0	39	0	0	44	4307
2026-01-23 23:44:10.91	185.27	67.05	-36.8	-38.4	21.5	0.00e+00	0	39	0	0	44	4516
2026-01-23 23:44:11.62	185.45	66.74	-37.7	-39.4	20.6	0.00e+00	0	39	0	0	46	4536
2026-01-23 23:44:12.90	185.76	66.18	-38.1	-39.8	20.2	0.00e+00	0	39	0	0	47	4479
2026-01-23 23:44:13.61	185.93	65.87	-37.8	-39.5	20.3	0.00e+00	0	39	0	0	47	4326
2026-01-23 23:44:15.06	186.25	65.24	-36.4	-38.0	21.4	0.00e+00	0	39	0	0	44	4328
2026-01-23 23:44:15.77	186.40	64.93	-36.1	-37.7	21.8	0.00e+00	0	39	0	0	44	4168
2026-01-23 23:44:17.05	186.67	64.38	-35.6	-37.2	22.3	0.00e+00	0	39	0	0	43	4154
2026-01-23 23:44:17.76	186.81	64.08	-35.6	-37.2	22.3	0.00e+00	0	39	0	0	43	4146
2026-01-23 23:44:19.17	187.08	63.48	-36.9	-38.5	21.3	0.00e+00	0	39	0	0	44	4589
2026-01-23 23:44:19.88	187.21	63.18	-37.8	-39.5	20.6	0.00e+00	0	39	0	0	46	4563
2026-01-23 23:44:21.23	187.45	62.61	-38.5	-40.3	19.5	0.00e+00	0	39	0	0	47	4711
2026-01-23 23:44:21.94	187.57	62.32	-38.1	-39.9	19.6	0.00e+00	0	39	0	0	47	4512
2026-01-23 23:44:23.22	187.79	61.78	-37.3	-38.9	20.4	0.00e+00	0	39	0	0	46	4282
2026-01-23 23:44:23.93	187.90	61.49	-37.1	-38.7	20.7	0.00e+00	0	39	0	0	46	4159
2026-01-23 23:44:25.21	188.10	60.96	-36.9	-38.5	21.0	0.00e+00	0	39	0	0	45	4320
2026-01-23 23:44:25.92	188.21	60.67	-37.2	-38.8	20.8	0.00e+00	0	39	0	0	45	4485
2026-01-23 23:44:27.21	188.39	60.15	-38.2	-39.9	19.9	0.00e+00	0	39	0	0	47	4544
2026-01-23 23:44:27.93	188.50	59.86	-38.4	-40.2	19.8	0.00e+00	0	39	0	0	47	4682
2026-01-23 23:44:29.21	188.67	59.34	-37.8	-39.5	20.5	0.00e+00	0	39	0	0	47	4328
2026-01-23 23:44:29.92	188.77	59.06	-37.6	-39.3	20.6	0.00e+00	0	39	0	0	47	4198
2026-01-23 23:44:31.20	188.93	58.55	-37.8	-39.5	20.0	0.00e+00	0	39	0	0	47	4325
2026-01-23 23:44:31.92	189.02	58.27	-37.7	-39.4	20.2	0.00e+00	0	39	0	0	47	4257
2026-01-23 23:44:33.20	189.18	57.77	-37.3	-38.9	20.7	0.00e+00	0	39	0	0	46	4269
2026-01-23 23:44:34.05	189.28	57.44	-37.3	-38.9	20.8	0.00e+00	0	39	0	0	46	4268
2026-01-23 23:44:35.19	189.41	57.00	-37.9	-39.6	20.3	0.00e+00	0	39	0	0	46	4609
2026-01-23 23:44:36.04	189.51	56.67	-38.2	-39.9	20.2	0.00e+00	0	39	0	0	47	4496
2026-01-23 23:44:37.18	189.63	56.23	-39.0	-40.7	19.5	0.00e+00	0	39	0	0	48	4703
2026-01-23 23:44:38.03	189.72	55.91	-39.5	-41.4	18.9	0.00e+00	0	39	0	0	49	4760
2026-01-23 23:44:39.17	189.84	55.48	-39.7	-41.5	18.6	0.00e+00	0	39	0	0	50	4572
2026-01-23 23:44:40.02	189.93	55.17	-39.5	-41.3	18.9	0.00e+00	0	39	0	0	50	4463
2026-01-23 23:44:41.16	190.04	54.74	-39.1	-40.9	18.9	0.00e+00	0	39	0	0	50	4251
2026-01-23 23:44:42.01	190.12	54.43	-39.0	-40.8	19.0	0.00e+00	0	39	0	0	50	4215
2026-01-23 23:44:43.15	190.23	54.01	-39.0	-40.8	19.2	0.00e+00	0	39	0	0	49	4445
2026-01-23 23:44:44.00	190.31	53.70	-38.7	-40.4	19.5	0.00e+00	0	39	0	0	49	4290
2026-01-23 23:44:45.14	190.41	53.29	-38.3	-40.1	19.9	0.00e+00	0	39	0	0	48	4343
2026-01-23 23:44:46.05	190.49	52.96	-38.2	-39.9	20.0	0.00e+00	0	39	0	0	48	4291
2026-01-23 23:44:47.05	190.57	52.61	-38.6	-40.4	19.7	0.00e+00	0	39	0	0	48	4500
2026-01-23 23:44:48.05	190.66	52.25	-39.2	-41.0	19.2	0.00e+00	0	39	0	0	49	4594
2026-01-23 23:44:49.04	190.74	51.90	-39.9	-41.8	18.4	0.00e+00	0	39	0	0	50	4755
2026-01-23 23:44:50.04	190.82	51.55	-40.5	-42.5	17.6	0.00e+00	0	39	0	0	51	4846
2026-01-23 23:44:51.04	190.90	51.21	-40.5	-42.5	17.6	0.00e+00	0	39	0	0	51	4857
2026-01-23 23:44:52.03	190.97	50.87	-40.2	-42.1	18.0	0.00e+00	0	39	0	0	51	4614
2026-01-23 23:44:53.03	191.05	50.53	-40.0	-41.9	18.1	0.00e+00	0	39	0	0	51	4519
2026-01-23 23:44:54.02	191.12	50.19	-39.8	-41.7	18.4	0.00e+00	0	39	0	0	51	4396
2026-01-23 23:44:55.02	191.19	49.85	-39.9	-41.8	18.2	0.00e+00	0	39	0	0	51	4458
2026-01-23 23:44:56.01	191.26	49.52	-40.2	-42.1	17.9	0.00e+00	0	39	0	0	51	4632
2026-01-23 23:44:57.01	191.33	49.19	-40.3	-42.3	17.8	0.00e+00	0	39	0	0	51	4723
2026-01-23 23:44:58.01	191.40	48.86	-40.3	-42.2	17.9	0.00e+00	0	39	0	0	51	4681
2026-01-23 23:44:59.00	191.46	48.54	-39.9	-41.7	18.4	0.00e+00	0	39	0	0	51	4441
2026-01-23 23:45:00.00	191.53	48.21	-40.0	-41.8	18.3	0.00e+00	0	39	0	0	51	4489
2026-01-23 23:45:01.00	191.59	47.89	-40.1	-42.0	18.2	0.00e+00	0	39	0	0	51	4584
2026-01-23 23:45:01.99	191.65	47.57	-40.3	-42.3	18.0	0.00e+00	0	39	0	0	51	4708
2026-01-23 23:45:02.99	191.71	47.26	-40.4	-42.4	17.8	0.00e+00	0	39	0	0	51	4778
2026-01-23 23:45:03.98	191.77	46.94	-40.6	-42.6	17.4	0.00e+00	0	39	0	0	51	4923
2026-01-23 23:45:04.97	191.83	46.63	-40.7	-42.7	17.1	0.00e+00	0	39	0	0	52	4678
2026-01-23 23:45:05.97	191.89	46.32	-40.7	-42.7	17.0	0.00e+00	0	39	0	0	52	4668
2026-01-23 23:45:06.96	191.94	46.02	-40.7	-42.8	17.1	0.00e+00	0	39	0	0	52	4725
2026-01-23 23:45:07.96	192.00	45.71	-40.7	-42.7	17.3	0.00e+00	0	39	0	0	52	4696
2026-01-23 23:45:08.95	192.05	45.41	-40.7	-42.7	17.5	0.00e+00	0	39	0	0	52	4658
2026-01-23 23:45:09.95	192.11	45.11	-40.7	-42.7	17.5	0.00e+00	0	39	0	0	52	4689
2026-01-23 23:45:10.94	192.16	44.81	-41.1	-43.1	17.1	0.00e+00	0	39	0	0	52	4916
2026-01-23 23:45:11.94	192.21	44.51	-41.5	-43.7	16.4	0.00e+00	0	39	0	0	53	4937
2026-01-23 23:45:12.95	192.26	44.22	-41.8	-44.1	16.0	0.00e+00	0	39	0	0	54	4876
2026-01-23 23:45:13.98	192.31	43.91	-41.7	-43.9	16.2	0.00e+00	0	39	0	0	54	4798
2026-01-23 23:45:14.97	192.36	43.63	-41.5	-43.6	16.4	0.00e+00	0	39	0	0	54	4639
2026-01-23 23:45:15.97	192.41	43.34	-41.2	-43.3	16.6	0.00e+00	0	39	0	0	54	4474
2026-01-23 23:45:16.96	192.46	43.05	-41.1	-43.2	16.8	0.00e+00	0	39	0	0	54	4406
2026-01-23 23:45:17.96	192.50	42.77	-40.6	-42.7	17.5	0.00e+00	0	39	0	0	53	4398
2026-01-23 23:45:18.95	192.55	42.49	-40.4	-42.4	17.8	0.00e+00	0	39	0	0	52	4522
2026-01-23 23:45:19.95	192.59	42.21	-40.2	-42.1	18.1	0.00e+00	0	39	0	0	52	4379
2026-01-23 23:45:20.94	192.64	41.94	-40.3	-42.3	17.9	0.00e+00	0	39	0	0	52	4475
2026-01-23 23:45:21.94	192.68	41.66	-40.9	-43.0	17.2	0.00e+00	0	39	0	0	52	4860
2026-01-23 23:45:22.93	192.72	41.39	-41.5	-43.7	16.5	0.00e+00	0	39	0	0	53	4947
2026-01-23 23:45:23.93	192.77	41.12	-41.5	-43.8	16.3	0.00e+00	0	39	0	0	53	5007
2026-01-23 23:45:24.92	192.81	40.85	-41.8	-44.2	16.0	0.00e+00	0	39	0	0	54	4927
2026-01-23 23:45:25.92	192.85	40.58	-41.8	-44.1	16.1	0.00e+00	0	39	0	0	54	4903
2026-01-23 23:45:26.96	192.89	40.31	-41.5	-43.7	16.6	0.00e+00	0	39	0	0	54	4654
2026-01-23 23:45:27.91	192.93	40.05	-41.0	-43.1	17.2	0.00e+00	0	39	0	0	54	4365
2026-01-23 23:45:29.01	192.97	39.77	-40.7	-42.7	17.5	0.00e+00	0	39	0	0	53	4408
2026-01-23 23:45:29.86	193.01	39.55	-40.3	-42.3	18.0	0.00e+00	0	39	0	0	52	4448
2026-01-23 23:45:31.00	193.05	39.25	-40.0	-41.9	18.4	0.00e+00	0	39	0	0	51	4506
2026-01-23 23:45:31.86	193.08	39.03	-40.0	-41.9	18.3	0.00e+00	0	39	0	0	51	4511
2026-01-23 23:45:32.99	193.12	38.74	-39.9	-41.7	18.4	0.00e+00	0	39	0	0	51	4419
2026-01-23 23:45:33.85	193.16	38.53	-40.1	-42.0	18.0	0.00e+00	0	39	0	0	51	4582
2026-01-23 23:45:34.98	193.20	38.24	-40.4	-42.4	17.8	0.00e+00	0	39	0	0	51	4767
2026-01-23 23:45:35.84	193.23	38.03	-40.1	-42.0	18.2	0.00e+00	0	39	0	0	51	4567
2026-01-23 23:45:36.97	193.27	37.75	-39.5	-41.2	18.9	0.00e+00	0	39	0	0	51	4191
2026-01-23 23:45:37.83	193.30	37.54	-39.3	-41.0	19.1	0.00e+00	0	39	0	0	50	4337
2026-01-23 23:45:38.96	193.34	37.26	-39.3	-41.1	18.9	0.00e+00	0	39	0	0	50	4369
2026-01-23 23:45:39.81	193.36	37.06	-39.3	-41.0	19.0	0.00e+00	0	39	0	0	50	4327
2026-01-23 23:45:40.95	193.40	36.78	-39.3	-41.1	19.0	0.00e+00	0	39	0	0	50	4347
2026-01-23 23:45:41.80	193.43	36.58	-39.4	-41.2	19.0	0.00e+00	0	39	0	0	50	4401
2026-01-23 23:45:43.11	193.47	36.27	-39.6	-41.5	18.5	0.00e+00	0	39	0	0	50	4561
2026-01-23 23:45:43.82	193.50	36.11	-39.7	-41.6	18.4	0.00e+00	0	39	0	0	50	4613
2026-01-23 23:45:45.10	193.54	35.81	-40.3	-42.2	17.8	0.00e+00	0	39	0	0	51	4682
2026-01-23 23:45:45.83	193.56	35.64	-40.6	-42.6	17.4	0.00e+00	0	39	0	0	51	4914
2026-01-23 23:45:47.11	193.60	35.34	-40.4	-42.4	17.5	0.00e+00	0	39	0	0	52	4531
2026-01-23 23:45:47.83	193.62	35.18	-40.3	-42.3	17.5	0.00e+00	0	39	0	0	52	4475
2026-01-23 23:45:49.11	193.66	34.89	-40.3	-42.2	17.4	0.00e+00	0	39	0	0	52	4434
2026-01-23 23:45:49.88	193.68	34.72	-40.3	-42.3	17.3	0.00e+00	0	39	0	0	52	4475
2026-01-23 23:45:51.16	193.72	34.43	-40.2	-42.2	17.6	0.00e+00	0	39	0	0	52	4406
2026-01-23 23:45:51.89	193.74	34.27	-40.0	-42.0	17.9	0.00e+00	0	39	0	0	52	4292
2026-01-23 23:45:53.16	193.78	33.99	-39.9	-41.8	18.2	0.00e+00	0	39	0	0	51	4468
2026-01-23 23:45:53.87	193.80	33.84	-39.9	-41.7	18.3	0.00e+00	0	39	0	0	51	4430
2026-01-23 23:45:55.15	193.83	33.56	-39.7	-41.6	18.5	0.00e+00	0	39	0	0	51	4350
2026-01-23 23:45:55.86	193.85	33.41	-39.6	-41.4	18.7	0.00e+00	0	39	0	0	51	4269
2026-01-23 23:45:57.14	193.89	33.13	-39.1	-40.8	19.2	0.00e+00	0	39	0	0	50	4242
2026-01-23 23:45:57.85	193.91	32.98	-39.0	-40.8	19.3	0.00e+00	0	39	0	0	50	4210
2026-01-23 23:45:59.16	193.94	32.70	-38.8	-40.6	19.5	0.00e+00	0	39	0	0	49	4357
2026-01-23 23:46:00.13	193.97	32.50	-38.7	-40.5	19.6	0.00e+00	0	39	0	0	49	4306
2026-01-23 23:46:01.12	193.99	32.30	-38.7	-40.4	19.7	0.00e+00	0	39	0	0	49	4263
2026-01-23 23:46:02.46	194.03	32.02	-38.5	-40.2	19.9	0.00e+00	0	39	0	0	49	4181
2026-01-23 23:46:03.17	194.04	31.87	-38.3	-40.0	20.1	0.00e+00	0	39	0	0	48	4319
2026-01-23 23:46:04.80	194.09	31.54	-38.1	-39.8	20.1	0.00e+00	0	39	0	0	48	4228
2026-01-23 23:46:05.37	194.10	31.43	-38.1	-39.8	20.2	0.00e+00	0	39	0	0	48	4221
2026-01-23 23:46:07.07	194.14	31.09	-38.4	-40.1	19.9	0.00e+00	0	39	0	0	48	4349
2026-01-23 23:46:07.64	194.15	30.97	-38.4	-40.1	19.9	0.00e+00	0	39	0	0	48	4349
2026-01-23 23:46:09.35	194.20	30.64	-38.7	-40.4	19.5	0.00e+00	0	39	0	0	48	4528
2026-01-23 23:46:09.92	194.21	30.53	-38.8	-40.5	19.4	0.00e+00	0	39	0	0	48	4597
2026-01-23 23:46:11.62	194.25	30.20	-38.9	-40.7	19.3	0.00e+00	0	39	0	0	48	4687
2026-01-23 23:46:12.19	194.26	30.09	-39.0	-40.7	19.2	0.00e+00	0	39	0	0	48	4703
2026-01-23 23:46:13.89	194.30	29.76	-39.0	-40.8	19.1	0.00e+00	0	39	0	0	48	4742
2026-01-23 23:46:14.54	194.32	29.64	-39.0	-40.7	19.2	0.00e+00	0	39	0	0	48	4705
2026-01-23 23:46:15.96	194.35	29.37	-38.9	-40.6	19.3	0.00e+00	0	39	0	0	48	4636
2026-01-23 23:46:16.67	194.36	29.24	-38.9	-40.6	19.3	0.00e+00	0	39	0	0	48	4651
2026-01-23 23:46:17.95	194.39	29.00	-38.8	-40.6	19.3	0.00e+00	0	39	0	0	48	4611
2026-01-23 23:46:18.67	194.41	28.87	-38.9	-40.6	19.3	0.00e+00	0	39	0	0	48	4642
2026-01-23 23:46:19.95	194.43	28.63	-38.7	-40.4	19.5	0.00e+00	0	39	0	0	48	4533
2026-01-23 23:46:20.68	194.45	28.50	-38.6	-40.3	19.5	0.00e+00	0	39	0	0	48	4477
2026-01-23 23:46:21.96	194.48	28.27	-38.7	-40.5	19.5	0.00e+00	0	39	0	0	48	4554
2026-01-23 23:46:22.67	194.49	28.14	-38.4	-40.1	19.7	0.00e+00	0	39	0	0	48	4390
2026-01-23 23:46:23.95	194.52	27.91	-38.2	-39.9	19.9	0.00e+00	0	39	0	0	48	4284
2026-01-23 23:46:24.66	194.53	27.79	-38.1	-39.8	20.0	0.00e+00	0	39	0	0	48	4203
2026-01-23 23:46:25.93	194.56	27.56	-37.9	-39.6	20.0	0.00e+00	0	39	0	0	47	4345
2026-01-23 23:46:26.65	194.57	27.44	-37.9	-39.6	20.0	0.00e+00	0	39	0	0	47	4375
2026-01-23 23:46:28.08	194.60	27.19	-38.0	-39.7	19.9	0.00e+00	0	39	0	0	47	4417
2026-01-23 23:46:28.79	194.61	27.07	-37.8	-39.5	20.1	0.00e+00	0	39	0	0	47	4317
2026-01-23 23:46:30.07	194.64	26.85	-37.8	-39.5	20.2	0.00e+00	0	39	0	0	47	4300
2026-01-23 23:46:30.78	194.65	26.72	-37.7	-39.4	20.2	0.00e+00	0	39	0	0	47	4267
2026-01-23 23:46:32.19	194.68	26.49	-37.5	-39.2	20.4	0.00e+00	0	39	0	0	47	4153
2026-01-23 23:46:32.90	194.69	26.37	-37.5	-39.1	20.5	0.00e+00	0	39	0	0	46	4359
2026-01-23 23:46:34.18	194.72	26.15	-37.4	-39.1	20.5	0.00e+00	0	39	0	0	46	4341
2026-01-23 23:46:34.91	194.73	26.03	-37.4	-39.1	20.5	0.00e+00	0	39	0	0	46	4354
2026-01-23 23:46:36.18	194.75	25.82	-37.4	-39.1	20.6	0.00e+00	0	39	0	0	46	4351
2026-01-23 23:46:36.94	194.77	25.70	-37.5	-39.1	20.5	0.00e+00	0	39	0	0	46	4368
2026-01-23 23:46:38.22	194.79	25.49	-37.4	-39.1	20.5	0.00e+00	0	39	0	0	46	4355
2026-01-23 23:46:38.95	194.80	25.37	-37.6	-39.2	20.4	0.00e+00	0	39	0	0	46	4414
2026-01-23 23:46:40.22	194.83	25.16	-37.4	-39.1	20.5	0.00e+00	0	39	0	0	46	4353
2026-01-23 23:46:40.93	194.84	25.05	-37.5	-39.2	20.4	0.00e+00	0	39	0	0	46	4416
2026-01-23 23:46:42.21	194.86	24.85	-37.5	-39.1	20.5	0.00e+00	0	39	0	0	46	4372
2026-01-23 23:46:42.95	194.87	24.73	-37.5	-39.2	20.6	0.00e+00	0	39	0	0	46	4393
2026-01-23 23:46:44.23	194.90	24.53	-37.3	-38.9	20.7	0.00e+00	0	39	0	0	46	4272
2026-01-23 23:46:44.94	194.91	24.42	-37.3	-38.9	20.8	0.00e+00	0	39	0	0	46	4253
2026-01-23 23:46:46.22	194.93	24.22	-37.4	-39.0	20.7	0.00e+00	0	39	0	0	46	4319
2026-01-23 23:46:46.95	194.94	24.10	-37.4	-39.0	20.6	0.00e+00	0	39	0	0	46	4335
2026-01-23 23:46:48.23	194.96	23.91	-37.5	-39.1	20.6	0.00e+00	0	39	0	0	46	4371
2026-01-23 23:46:49.19	194.98	23.76	-37.6	-39.3	20.5	0.00e+00	0	39	0	0	46	4444
2026-01-23 23:46:50.47	195.00	23.57	-37.7	-39.3	20.4	0.00e+00	0	39	0	0	46	4481
2026-01-23 23:46:51.22	195.01	23.45	-37.7	-39.4	20.4	0.00e+00	0	39	0	0	46	4504
2026-01-23 23:46:52.50	195.03	23.26	-37.8	-39.5	20.2	0.00e+00	0	39	0	0	46	4585
2026-01-23 23:46:53.21	195.05	23.15	-37.9	-39.5	20.3	0.00e+00	0	39	0	0	46	4594
2026-01-23 23:46:54.49	195.07	22.96	-37.9	-39.6	20.2	0.00e+00	0	39	0	0	46	4630
2026-01-23 23:46:55.22	195.08	22.86	-38.0	-39.7	20.1	0.00e+00	0	39	0	0	46	4692
2026-01-23 23:46:56.50	195.10	22.67	-38.1	-39.8	20.0	0.00e+00	0	39	0	0	46	4750
2026-01-23 23:46:57.21	195.11	22.57	-38.0	-39.7	20.1	0.00e+00	0	39	0	0	46	4703
2026-01-23 23:46:58.49	195.13	22.38	-38.0	-39.7	20.1	0.00e+00	0	39	0	0	46	4672
2026-01-23 23:46:59.21	195.14	22.28	-38.1	-39.8	20.1	0.00e+00	0	39	0	0	46	4715
2026-01-23 23:47:00.52	195.16	22.09	-37.9	-39.6	20.2	0.00e+00	0	39	0	0	46	4650
2026-01-23 23:47:01.23	195.17	21.99	-38.0	-39.7	20.1	0.00e+00	0	39	0	0	46	4693
2026-01-23 23:47:02.57	195.19	21.80	-37.9	-39.6	20.2	0.00e+00	0	39	0	0	46	4644
2026-01-23 23:47:03.28	195.20	21.70	-37.9	-39.6	20.2	0.00e+00	0	39	0	0	46	4618
2026-01-23 23:47:04.56	195.22	21.52	-37.9	-39.6	20.1	0.00e+00	0	39	0	0	46	4651
2026-01-23 23:47:05.30	195.23	21.42	-37.9	-39.6	20.1	0.00e+00	0	39	0	0	46	4646
2026-01-23 23:47:06.58	195.25	21.24	-37.9	-39.6	20.1	0.00e+00	0	39	0	0	46	4619
2026-01-23 23:47:07.30	195.26	21.14	-37.9	-39.6	20.1	0.00e+00	0	39	0	0	46	4646
2026-01-23 23:47:08.58	195.28	20.96	-37.8	-39.6	20.2	0.00e+00	0	39	0	0	46	4604
2026-01-23 23:47:09.31	195.29	20.86	-37.8	-39.6	20.1	0.00e+00	0	39	0	0	46	4600
2026-01-23 23:47:10.59	195.31	20.69	-37.9	-39.6	20.1	0.00e+00	0	39	0	0	46	4632
2026-01-23 23:47:11.30	195.32	20.60	-37.9	-39.6	20.1	0.00e+00	0	39	0	0	46	4638
2026-01-23 23:47:12.58	195.33	20.42	-37.9	-39.6	20.0	0.00e+00	0	39	0	0	46	4622
2026-01-23 23:47:13.30	195.34	20.33	-37.9	-39.7	20.0	0.00e+00	0	39	0	0	46	4654
2026-01-23 23:47:14.57	195.36	20.16	-37.9	-39.6	20.0	0.00e+00	0	39	0	0	46	4626
2026-01-23 23:47:15.30	195.37	20.06	-38.0	-39.7	19.9	0.00e+00	0	39	0	0	46	4673
2026-01-23 23:47:16.58	195.39	19.89	-37.9	-39.7	19.9	0.00e+00	0	39	0	0	46	4666
2026-01-23 23:47:17.30	195.40	19.80	-38.0	-39.8	19.8	0.00e+00	0	39	0	0	46	4707
2026-01-23 23:47:18.58	195.42	19.63	-38.0	-39.8	19.8	0.00e+00	0	39	0	0	46	4725
2026-01-23 23:47:19.30	195.42	19.54	-38.1	-39.9	19.7	0.00e+00	0	39	0	0	46	4760
2026-01-23 23:47:20.58	195.44	19.38	-38.1	-39.8	19.7	0.00e+00	0	39	0	0	46	4738
2026-01-23 23:47:21.31	195.45	19.28	-38.1	-39.9	19.7	0.00e+00	0	39	0	0	46	4791
2026-01-23 23:47:22.73	195.47	19.10	-38.1	-39.9	19.7	0.00e+00	0	39	0	0	46	4774
2026-01-23 23:47:23.44	195.48	19.01	-38.2	-39.9	19.6	0.00e+00	0	39	0	0	47	4545
2026-01-23 23:47:24.72	195.50	18.85	-38.1	-39.8	19.7	0.00e+00	0	39	0	0	47	4484
2026-01-23 23:47:25.44	195.50	18.76	-38.1	-39.9	19.6	0.00e+00	0	39	0	0	47	4511
2026-01-23 23:47:26.72	195.52	18.60	-38.1	-39.9	19.6	0.00e+00	0	39	0	0	47	4523
2026-01-23 23:47:27.44	195.53	18.51	-38.2	-40.0	19.5	1.75e-04	0	39	0	0	47	4548
2026-01-23 23:47:28.71	195.55	18.36	-38.2	-40.0	19.5	0.00e+00	0	39	0	0	47	4596
2026-01-23 23:47:29.42	195.55	18.27	-38.2	-40.0	19.5	0.00e+00	0	39	0	0	47	4589
2026-01-23 23:47:30.70	195.57	18.11	-38.3	-40.1	19.4	0.00e+00	0	39	0	0	47	4616
2026-01-23 23:47:31.43	195.58	18.02	-38.4	-40.2	19.3	0.00e+00	0	39	0	0	47	4673
2026-01-23 23:47:32.71	195.60	17.87	-38.3	-40.1	19.4	0.00e+00	0	39	0	0	47	4648
2026-01-23 23:47:33.46	195.60	17.78	-38.4	-40.2	19.3	0.00e+00	0	39	0	0	47	4674
2026-01-23 23:47:34.74	195.62	17.63	-38.5	-40.3	19.2	0.00e+00	0	39	0	0	47	4750
2026-01-23 23:47:35.50	195.63	17.53	-38.5	-40.3	19.2	0.00e+00	0	39	0	0	47	4738
2026-01-23 23:47:36.78	195.64	17.38	-38.5	-40.4	19.2	0.00e+00	0	39	0	0	47	4762
2026-01-23 23:47:37.52	195.65	17.30	-38.6	-40.4	19.2	0.00e+00	0	39	0	0	47	4808
2026-01-23 23:47:38.80	195.67	17.15	-38.6	-40.5	19.1	0.00e+00	0	39	0	0	47	4854
2026-01-23 23:47:39.62	195.68	17.05	-38.7	-40.6	19.1	0.00e+00	0	39	0	0	47	4876
2026-01-23 23:47:41.04	195.69	16.88	-38.6	-40.5	19.2	3.73e-05	0	39	0	0	47	4820
2026-01-23 23:47:41.75	195.70	16.80	-38.6	-40.5	19.2	0.00e+00	0	39	0	0	47	4824
2026-01-23 23:47:43.03	195.72	16.66	-38.8	-40.6	19.3	0.00e+00	0	39	0	0	48	4631
2026-01-23 23:47:43.76	195.73	16.57	-38.8	-40.6	19.3	0.00e+00	0	39	0	0	48	4642
2026-01-23 23:47:45.04	195.74	16.43	-38.7	-40.6	19.3	0.00e+00	0	39	0	0	48	4620
2026-01-23 23:47:45.78	195.75	16.34	-38.7	-40.5	19.3	0.00e+00	0	39	0	0	48	4593
2026-01-23 23:47:47.06	195.76	16.20	-38.7	-40.5	19.3	0.00e+00	0	39	0	0	48	4593
2026-01-23 23:47:47.78	195.77	16.12	-38.6	-40.5	19.4	0.00e+00	0	39	0	0	48	4564
2026-01-23 23:47:49.06	195.79	15.97	-38.6	-40.5	19.4	0.00e+00	0	39	0	0	48	4550
2026-01-23 23:47:49.80	195.79	15.89	-38.6	-40.4	19.4	0.00e+00	0	39	0	0	48	4530
2026-01-23 23:47:51.08	195.81	15.75	-38.6	-40.4	19.5	0.00e+00	0	39	0	0	48	4537
2026-01-23 23:47:52.11	195.82	15.64	-38.7	-40.5	19.4	0.00e+00	0	39	0	0	48	4567
2026-01-23 23:47:53.11	195.83	15.53	-38.7	-40.5	19.3	0.00e+00	0	39	0	0	48	4581
2026-01-23 23:47:54.45	195.84	15.38	-38.7	-40.5	19.3	0.00e+00	0	39	0	0	48	4598
2026-01-23 23:47:55.19	195.85	15.30	-38.7	-40.5	19.3	0.00e+00	0	39	0	0	48	4576
2026-01-23 23:47:56.46	195.87	15.16	-38.6	-40.4	19.4	0.00e+00	0	39	0	0	48	4542
2026-01-23 23:47:57.19	195.87	15.08	-38.7	-40.5	19.4	7.00e-07	0	39	0	0	48	4573
2026-01-23 23:47:58.47	195.89	14.95	-38.6	-40.5	19.4	0.00e+00	0	39	0	0	48	4548
2026-01-23 23:47:59.18	195.89	14.87	-38.7	-40.5	19.4	0.00e+00	0	39	0	0	48	4560
2026-01-23 23:48:00.46	195.91	14.73	-38.8	-40.6	19.2	0.00e+00	0	39	0	0	48	4636
2026-01-23 23:48:01.18	195.92	14.66	-38.8	-40.6	19.2	0.00e+00	0	39	0	0	48	4624
2026-01-23 23:48:02.48	195.93	14.52	-38.8	-40.6	19.2	0.00e+00	0	39	0	0	48	4631
2026-01-23 23:48:03.19	195.94	14.45	-38.8	-40.7	19.2	0.00e+00	0	39	0	0	48	4668
2026-01-23 23:48:04.47	195.95	14.31	-38.7	-40.5	19.3	0.00e+00	0	39	0	0	48	4581
2026-01-23 23:48:05.18	195.96	14.24	-38.7	-40.6	19.3	0.00e+00	0	39	0	0	48	4603
2026-01-23 23:48:06.57	195.97	14.09	-38.7	-40.5	19.3	0.00e+00	0	39	0	0	48	4580
2026-01-23 23:48:07.28	195.98	14.02	-38.7	-40.5	19.3	0.00e+00	0	39	0	0	48	4584
2026-01-23 23:48:08.56	195.99	13.89	-38.7	-40.5	19.3	0.00e+00	0	39	0	0	48	4593
2026-01-23 23:48:09.27	196.00	13.82	-38.7	-40.5	19.3	0.00e+00	0	39	0	0	48	4575
2026-01-23 23:48:10.55	196.01	13.69	-38.8	-40.7	19.2	0.00e+00	0	39	0	0	48	4673
2026-01-23 23:48:11.25	196.02	13.62	-38.7	-40.5	19.3	0.00e+00	0	39	0	0	48	4598
2026-01-23 23:48:12.67	196.03	13.47	-38.7	-40.5	19.3	0.00e+00	0	39	0	0	48	4570
2026-01-23 23:48:13.66	196.04	13.37	-38.7	-40.5	19.3	0.00e+00	0	39	0	0	48	4588
2026-01-23 23:48:14.99	196.05	13.24	-38.7	-40.5	19.3	0.00e+00	0	39	0	0	48	4555
2026-01-23 23:48:15.70	196.06	13.17	-38.7	-40.5	19.3	0.00e+00	0	39	0	0	48	4581
2026-01-23 23:48:16.98	196.07	13.04	-38.7	-40.6	19.3	0.00e+00	0	39	0	0	48	4605
2026-01-23 23:48:17.69	196.08	12.97	-38.8	-40.6	19.2	0.00e+00	0	39	0	0	48	4635
2026-01-23 23:48:18.98	196.09	12.85	-38.7	-40.5	19.3	0.00e+00	0	39	0	0	48	4578
2026-01-23 23:48:19.69	196.10	12.78	-38.7	-40.6	19.3	0.00e+00	0	39	0	0	48	4602
2026-01-23 23:48:20.98	196.11	12.65	-38.7	-40.5	19.3	0.00e+00	0	39	0	0	48	4587
2026-01-23 23:48:21.69	196.12	12.58	-38.7	-40.5	19.3	0.00e+00	0	39	0	0	48	4585
2026-01-23 23:48:22.97	196.13	12.46	-38.8	-40.6	19.1	0.00e+00	0	39	0	0	48	4646
2026-01-23 23:48:23.70	196.14	12.39	-38.8	-40.6	19.2	0.00e+00	0	39	0	0	48	4641
2026-01-23 23:48:24.98	196.15	12.26	-38.9	-40.8	19.0	0.00e+00	0	39	0	0	48	4716
2026-01-23 23:48:25.70	196.16	12.19	-38.9	-40.7	19.0	1.29e-05	0	39	0	0	48	4702
2026-01-23 23:48:27.22	196.17	12.05	-38.8	-40.7	19.0	0.00e+00	0	39	0	0	48	4678
2026-01-23 23:48:27.93	196.18	11.98	-38.9	-40.8	19.0	0.00e+00	0	39	0	0	48	4723
2026-01-23 23:48:29.21	196.19	11.86	-38.9	-40.8	19.0	0.00e+00	0	39	0	0	48	4738
2026-01-23 23:48:29.93	196.19	11.79	-39.0	-40.9	18.9	0.00e+00	0	39	0	0	48	4768
2026-01-23 23:48:31.22	196.21	11.67	-39.0	-40.9	18.9	0.00e+00	0	39	0	0	48	4790
2026-01-23 23:48:31.94	196.21	11.61	-39.0	-40.9	18.8	0.00e+00	0	39	0	0	48	4805
2026-01-23 23:48:33.22	196.22	11.49	-39.1	-41.0	18.8	0.00e+00	0	39	0	0	48	4832
2026-01-23 23:48:33.94	196.23	11.42	-39.2	-41.1	18.7	0.00e+00	0	39	0	0	49	4627
2026-01-23 23:48:35.22	196.24	11.30	-39.1	-41.0	18.7	0.00e+00	0	39	0	0	49	4592
2026-01-23 23:48:35.95	196.25	11.24	-39.2	-41.1	18.7	0.00e+00	0	39	0	0	49	4619
2026-01-23 23:48:37.23	196.26	11.12	-39.1	-41.1	18.7	0.00e+00	0	39	0	0	49	4607
2026-01-23 23:48:37.95	196.27	11.05	-39.2	-41.1	18.6	0.00e+00	0	39	0	0	49	4629
2026-01-23 23:48:39.23	196.28	10.94	-39.3	-41.2	18.6	0.00e+00	0	39	0	0	49	4675
2026-01-23 23:48:39.94	196.28	10.87	-39.3	-41.2	18.5	0.00e+00	0	39	0	0	49	4703
2026-01-23 23:48:41.22	196.29	10.76	-39.4	-41.3	18.4	0.00e+00	0	39	0	0	49	4739
2026-01-23 23:48:41.94	196.30	10.69	-39.2	-41.3	18.4	0.00e+00	0	39	0	0	49	4729
2026-01-23 23:48:43.22	196.31	10.58	-39.4	-41.3	18.4	0.00e+00	0	39	0	0	49	4757
2026-01-23 23:48:43.96	196.32	10.51	-39.4	-41.4	18.4	0.00e+00	0	39	0	0	49	4767
2026-01-23 23:48:45.24	196.33	10.40	-39.5	-41.5	18.2	0.00e+00	0	39	0	0	49	4843
2026-01-23 23:48:46.22	196.34	10.31	-39.5	-41.5	18.2	0.00e+00	0	39	0	0	49	4855
2026-01-23 23:48:47.55	196.35	10.19	-39.6	-41.6	18.1	0.00e+00	0	39	0	0	49	4898
2026-01-23 23:48:48.26	196.35	10.13	-39.6	-41.6	18.1	0.00e+00	0	39	0	0	49	4922
2026-01-23 23:48:49.54	196.36	10.02	-39.7	-41.7	18.1	0.00e+00	0	39	0	0	50	4659
2026-01-23 23:48:50.26	196.37	9.95	-39.7	-41.8	18.0	0.00e+00	0	39	0	0	50	4712
2026-01-23 23:48:51.54	196.38	9.84	-39.8	-41.8	17.9	0.00e+00	0	39	0	0	50	4755
2026-01-23 23:48:52.25	196.39	9.78	-39.7	-41.8	18.0	0.00e+00	0	39	0	0	50	4720
2026-01-23 23:48:53.53	196.40	9.67	-39.9	-42.0	17.8	0.00e+00	0	39	0	0	50	4823
2026-01-23 23:48:54.24	196.40	9.61	-39.8	-41.9	17.8	0.00e+00	0	39	0	0	50	4780
2026-01-23 23:48:55.52	196.41	9.50	-40.0	-42.0	17.7	0.00e+00	0	39	0	0	50	4863
2026-01-23 23:48:56.23	196.42	9.44	-39.9	-42.0	17.7	0.00e+00	0	39	0	0	50	4844
2026-01-23 23:48:57.51	196.43	9.33	-40.0	-42.1	17.6	0.00e+00	0	39	0	0	50	4909
2026-01-23 23:48:58.22	196.44	9.27	-40.1	-42.2	17.6	0.00e+00	0	39	0	0	50	4938
2026-01-23 23:48:59.50	196.45	9.16	-40.1	-42.2	17.5	0.00e+00	0	39	0	0	50	4981
2026-01-23 23:49:00.22	196.45	9.10	-40.1	-42.2	17.5	0.00e+00	0	39	0	0	50	4963
2026-01-23 23:49:01.51	196.46	8.99	-40.7	-42.9	16.9	0.00e+00	0	39	0	0	51	5071
2026-01-23 23:49:02.22	196.47	8.93	-47.4	-60.0	3.8	1.30e+00	0	39	104	0	65	16311
2026-01-23 23:49:03.51	196.48	8.83	-48.1	-61.4	3.8	1.49e+00	0	39	104	0	66	17925
2026-01-23 23:49:04.22	196.48	8.77	-48.0	-61.4	3.8	1.49e+00	0	39	104	0	67	17036
2026-01-23 23:49:05.50	196.49	8.66	-48.6	-61.5	3.8	1.49e+00	0	39	104	0	67	17231
2026-01-23 23:49:06.21	196.50	8.60	-48.6	-61.6	3.8	1.49e+00	0	39	104	0	67	17329
2026-01-23 23:49:07.51	196.51	8.50	-48.8	-61.8	3.8	1.49e+00	0	39	104	0	68	16855
2026-01-23 23:49:08.22	196.51	8.44	-48.8	-61.9	3.8	1.49e+00	0	39	104	0	68	16927
2026-01-23 23:49:09.57	196.53	8.33	-48.9	-61.9	3.8	1.49e+00	0	39	104	0	68	16951
2026-01-23 23:49:10.27	196.53	8.27	-48.9	-61.9	3.8	1.49e+00	0	39	104	0	68	17011
2026-01-23 23:49:11.61	196.54	8.16	-48.9	-61.9	3.8	1.49e+00	0	39	104	0	68	17036
2026-01-23 23:49:12.32	196.55	8.10	-48.9	-61.9	3.8	1.49e+00	0	39	104	0	68	17041
2026-01-23 23:49:13.67	196.56	7.99	-49.0	-61.9	3.8	1.49e+00	0	39	104	0	68	17029
2026-01-23 23:49:14.37	196.56	7.94	-49.1	-61.9	3.8	1.49e+00	0	39	104	0	68	17051
2026-01-23 23:49:15.71	196.57	7.83	-49.0	-61.9	3.8	1.49e+00	0	39	104	0	68	16989
2026-01-23 23:49:16.42	196.58	7.77	-48.9	-61.9	3.8	1.49e+00	0	39	104	0	68	17009
2026-01-23 23:49:17.76	196.59	7.67	-48.8	-61.9	3.8	1.49e+00	0	39	104	0	68	16984
2026-01-23 23:49:18.47	196.59	7.61	-49.0	-61.9	3.8	1.49e+00	0	39	104	0	68	16994
2026-01-23 23:49:19.81	196.60	7.50	-49.0	-61.9	3.8	1.49e+00	0	39	104	0	68	16899
2026-01-23 23:49:20.52	196.61	7.45	-48.7	-61.9	3.8	1.49e+00	0	39	104	0	68	16899
2026-01-23 23:49:21.80	196.62	7.35	-48.9	-61.9	3.8	1.49e+00	0	39	104	0	68	16948
2026-01-23 23:49:22.51	196.62	7.29	-48.8	-61.9	3.8	1.49e+00	0	39	104	0	68	16974
2026-01-23 23:49:23.79	196.63	7.19	-48.7	-61.8	3.8	1.49e+00	0	39	104	0	68	16882
2026-01-23 23:49:24.50	196.64	7.14	-48.8	-61.9	3.8	1.49e+00	0	39	104	0	68	16937
2026-01-23 23:49:25.78	196.65	7.04	-48.7	-61.8	3.8	1.49e+00	0	39	104	0	68	16883
2026-01-23 23:49:26.50	196.65	6.98	-48.8	-61.8	3.8	1.49e+00	0	39	104	0	68	16863
2026-01-23 23:49:27.78	196.66	6.88	-48.7	-61.9	3.8	1.49e+00	0	39	104	0	68	16893
2026-01-23 23:49:28.49	196.67	6.83	-48.7	-61.8	3.8	1.49e+00	0	39	104	0	68	16792
2026-01-23 23:49:29.77	196.68	6.73	-48.7	-61.8	3.8	1.49e+00	0	39	104	0	68	16786
2026-01-23 23:49:30.48	196.68	6.67	-48.7	-61.8	3.8	1.49e+00	0	39	104	0	68	16822
2026-01-23 23:49:31.75	196.69	6.58	-48.7	-61.8	3.8	1.49e+00	0	39	104	0	68	16855
2026-01-23 23:49:32.46	196.70	6.52	-48.7	-61.8	3.8	1.49e+00	0	39	104	0	68	16839
2026-01-23 23:49:33.74	196.70	6.43	-48.7	-61.8	3.8	1.49e+00	0	39	104	0	68	16775
2026-01-23 23:49:34.45	196.71	6.37	-48.7	-61.8	3.8	1.49e+00	0	39	104	0	68	16762
2026-01-23 23:49:35.73	196.72	6.28	-48.7	-61.8	3.8	1.49e+00	0	39	104	0	68	16804
2026-01-23 23:49:36.45	196.72	6.22	-48.7	-61.8	3.8	1.49e+00	0	39	104	0	68	16766
2026-01-23 23:49:37.73	196.73	6.13	-48.7	-61.8	3.8	1.49e+00	0	39	104	0	68	16830
2026-01-23 23:49:38.45	196.74	6.07	-48.7	-61.8	3.8	1.49e+00	0	39	104	0	68	16778
2026-01-23 23:49:39.73	196.75	5.98	-48.7	-61.8	3.8	1.49e+00	0	39	104	0	68	16820
2026-01-23 23:49:40.44	196.75	5.92	-48.7	-61.8	3.8	1.49e+00	0	39	104	0	68	16751
2026-01-23 23:49:41.72	196.76	5.83	-48.7	-61.8	3.8	1.49e+00	0	39	104	0	68	16785
