passes_logs/2026/01/23/T1/T1__20260123_094617_NOAA_21_JPSS-2_rec.log

#Pass ID: 20260123_094617_NOAA 21 (JPSS-2)
#Satellite: NOAA 21 (JPSS-2)
#Configuration: NOAA 21
#almurnet v.1.7.20251203
#Start time: 2026-01-23 09:46:18

#Version: 2.0.20230620
#Station: T1
#Location: 37.570604 lon 55.790049 lat
#TLE: 1 54234U 22150A   26022.41365820  .00000211  00000+0  12084-3 0  9990
#TLE: 2 54234  98.7507 323.2240 0000658 234.5287 125.5828 14.19537645165864

#Time	Az	El	Level	Level2	SNR	BER	BlckErr	Temp	State	Recorded	gain1	gain2
2026-01-23 09:46:18.06	155.37	5.03	-48.5	-61.8	3.8	1.49e+00	0	40	0	0	68	16872
2026-01-23 09:46:19.05	155.36	5.10	-48.5	-61.6	3.8	1.49e+00	0	40	104	0	68	16441
2026-01-23 09:46:20.05	155.36	5.17	-48.5	-61.6	3.8	1.49e+00	0	40	104	0	68	16435
2026-01-23 09:46:21.05	155.35	5.25	-48.5	-61.6	3.8	1.49e+00	0	40	104	0	68	16502
2026-01-23 09:46:22.05	155.34	5.32	-48.5	-61.7	3.8	1.49e+00	0	40	104	0	68	16580
2026-01-23 09:46:23.05	155.34	5.39	-48.5	-61.7	3.8	1.49e+00	0	40	104	0	68	16647
2026-01-23 09:46:24.05	155.33	5.47	-48.5	-61.8	3.8	1.49e+00	0	40	104	0	68	16800
2026-01-23 09:46:25.04	155.32	5.54	-48.5	-61.9	3.8	1.49e+00	0	40	104	0	68	17064
2026-01-23 09:46:26.04	155.31	5.61	-48.5	-62.0	3.8	1.49e+00	0	40	104	0	68	17117
2026-01-23 09:46:27.04	155.31	5.68	-48.5	-62.0	3.8	1.49e+00	0	40	104	0	68	17132
2026-01-23 09:46:28.04	155.30	5.76	-48.5	-62.0	3.8	1.49e+00	0	40	104	0	68	17102
2026-01-23 09:46:29.04	155.29	5.83	-48.5	-61.8	3.8	1.49e+00	0	40	104	0	68	16789
2026-01-23 09:46:30.04	155.28	5.91	-48.5	-61.6	3.8	1.49e+00	0	40	104	0	68	16355
2026-01-23 09:46:31.04	155.28	5.98	-48.5	-61.3	3.8	1.49e+00	0	40	104	0	68	15891
2026-01-23 09:46:32.04	155.27	6.05	-48.4	-61.1	3.8	1.49e+00	0	40	104	0	68	15413
2026-01-23 09:46:33.04	155.26	6.13	-48.4	-60.8	3.8	1.49e+00	0	40	104	0	68	14919
2026-01-23 09:46:34.03	155.25	6.20	-48.4	-60.6	3.8	1.49e+00	0	40	104	0	68	14696
2026-01-23 09:46:35.03	155.25	6.28	-48.4	-60.5	3.8	1.49e+00	0	40	104	0	68	14448
2026-01-23 09:46:36.03	155.24	6.35	-48.4	-60.5	3.8	1.49e+00	0	40	104	0	68	14534
2026-01-23 09:46:37.03	155.23	6.43	-48.4	-60.7	3.8	1.49e+00	0	40	104	0	68	14714
2026-01-23 09:46:38.03	155.22	6.51	-48.4	-60.8	3.8	1.49e+00	0	40	104	0	68	15019
2026-01-23 09:46:39.03	155.21	6.58	-48.4	-61.1	3.8	1.49e+00	0	40	104	0	68	15492
2026-01-23 09:46:40.02	155.21	6.66	-48.5	-61.3	3.8	1.49e+00	0	40	104	0	68	15925
2026-01-23 09:46:41.02	155.20	6.73	-48.5	-61.7	3.8	1.49e+00	0	40	104	0	68	16533
2026-01-23 09:46:42.02	155.19	6.81	-48.5	-61.9	3.8	1.49e+00	0	40	104	0	68	16949
2026-01-23 09:46:43.02	155.18	6.89	-48.5	-62.0	3.8	1.49e+00	0	40	104	0	68	17169
2026-01-23 09:46:44.02	155.17	6.97	-48.5	-62.0	3.8	1.49e+00	0	40	104	0	68	17084
2026-01-23 09:46:45.02	155.17	7.04	-48.5	-61.9	3.8	1.49e+00	0	40	104	0	68	17007
2026-01-23 09:46:46.01	155.16	7.12	-48.5	-61.8	3.8	1.49e+00	0	40	104	0	68	16726
2026-01-23 09:46:47.01	155.15	7.20	-48.5	-61.5	3.8	1.49e+00	0	40	104	0	68	16282
2026-01-23 09:46:48.01	155.14	7.28	-48.4	-61.2	3.8	1.49e+00	0	40	104	0	68	15595
2026-01-23 09:46:49.01	155.13	7.35	-48.4	-60.6	3.8	1.49e+00	0	40	104	0	68	14653
2026-01-23 09:46:50.01	155.12	7.43	-48.3	-59.6	3.9	1.49e+00	0	41	104	0	68	12983
2026-01-23 09:46:51.01	155.11	7.51	-48.1	-58.2	4.3	1.47e+00	0	41	104	0	68	11054
2026-01-23 09:46:52.01	155.11	7.59	-47.8	-56.5	4.9	1.15e+00	0	40	104	0	67	9609
2026-01-23 09:46:53.00	155.10	7.67	-47.4	-54.8	5.9	4.40e-01	0	40	0	0	66	8440
2026-01-23 09:46:54.00	155.09	7.75	-47.0	-53.4	7.1	1.79e-01	0	40	0	0	66	7135
2026-01-23 09:46:55.00	155.08	7.83	-46.6	-52.1	8.4	5.60e-02	0	40	0	0	65	6521
2026-01-23 09:46:56.00	155.07	7.91	-46.1	-50.9	9.6	2.14e-02	0	40	0	0	64	6016
2026-01-23 09:46:57.00	155.06	7.99	-45.6	-49.8	10.8	4.23e-03	0	41	0	0	63	5634
2026-01-23 09:46:58.00	155.05	8.07	-45.2	-49.0	11.7	8.67e-04	0	41	0	0	62	5415
2026-01-23 09:46:59.00	155.04	8.15	-44.7	-48.2	12.5	1.71e-04	0	40	0	0	61	5246
2026-01-23 09:47:00.00	155.03	8.23	-44.4	-47.7	13.1	3.50e-05	0	41	0	0	60	5224
2026-01-23 09:47:01.00	155.02	8.31	-44.1	-47.2	13.5	1.14e-05	0	40	0	0	60	4955
2026-01-23 09:47:01.99	155.02	8.39	-44.0	-47.1	13.6	9.10e-06	0	40	0	0	60	4887
2026-01-23 09:47:02.99	155.01	8.48	-44.0	-47.1	13.6	1.06e-05	0	40	0	0	59	5166
2026-01-23 09:47:03.99	155.00	8.56	-44.1	-47.1	13.6	6.80e-06	0	40	0	0	59	5205
2026-01-23 09:47:04.99	154.99	8.64	-44.3	-47.4	13.3	1.98e-05	0	41	0	0	59	5383
2026-01-23 09:47:05.99	154.98	8.72	-44.6	-48.0	12.7	6.79e-05	0	40	0	0	59	5736
2026-01-23 09:47:06.98	154.97	8.81	-44.9	-48.5	12.2	1.39e-04	0	40	0	0	60	5751
2026-01-23 09:47:07.98	154.96	8.89	-45.4	-49.4	11.3	6.61e-04	0	41	0	0	61	6005
2026-01-23 09:47:08.98	154.95	8.97	-45.9	-50.4	10.2	4.01e-03	0	41	0	0	62	6413
2026-01-23 09:47:09.98	154.94	9.06	-46.5	-51.7	8.9	2.06e-02	0	40	0	0	63	6967
2026-01-23 09:47:10.98	154.93	9.14	-46.1	-50.8	9.9	8.60e-03	0	40	0	0	63	6289
2026-01-23 09:47:11.98	154.92	9.22	-44.1	-47.1	13.7	6.25e-05	0	41	0	0	60	4885
2026-01-23 09:47:12.97	154.91	9.31	-48.4	-60.2	3.8	5.22e-01	0	41	104	0	67	14771
2026-01-23 09:47:13.97	154.90	9.39	-46.7	-51.9	8.7	5.05e-02	0	41	0	0	65	6398
2026-01-23 09:47:14.96	154.89	9.48	-41.6	-43.8	16.8	0.00e+00	0	40	0	0	55	4455
2026-01-23 09:47:15.96	154.88	9.56	-41.5	-43.6	16.9	0.00e+00	0	41	0	0	55	4385
2026-01-23 09:47:16.96	154.87	9.65	-41.2	-43.2	17.3	0.00e+00	0	41	0	0	54	4431
2026-01-23 09:47:17.96	154.86	9.74	-41.2	-43.2	17.3	1.50e-06	0	40	0	0	54	4440
2026-01-23 09:47:18.95	154.85	9.82	-40.8	-42.8	17.7	0.00e+00	0	41	0	0	53	4455
2026-01-23 09:47:19.95	154.84	9.91	-40.6	-42.6	17.9	0.00e+00	0	41	0	0	53	4359
2026-01-23 09:47:20.95	154.82	9.99	-40.6	-42.5	18.0	0.00e+00	0	40	0	0	53	4328
2026-01-23 09:47:21.94	154.81	10.08	-40.5	-42.4	18.1	0.00e+00	0	40	0	0	53	4269
2026-01-23 09:47:22.94	154.80	10.17	-40.4	-42.4	18.1	0.00e+00	0	40	0	0	52	4498
2026-01-23 09:47:23.94	154.79	10.26	-40.4	-42.3	18.2	0.00e+00	0	40	0	0	52	4477
2026-01-23 09:47:24.94	154.78	10.34	-40.4	-42.3	18.2	0.00e+00	0	40	0	0	52	4479
2026-01-23 09:47:25.94	154.77	10.43	-40.3	-42.3	18.3	0.00e+00	0	40	0	0	52	4450
2026-01-23 09:47:26.93	154.76	10.52	-40.3	-42.2	18.3	0.00e+00	0	40	0	0	52	4431
2026-01-23 09:47:27.93	154.75	10.61	-40.3	-42.2	18.3	0.00e+00	0	40	0	0	52	4430
2026-01-23 09:47:28.93	154.74	10.70	-40.3	-42.2	18.4	0.00e+00	0	40	0	0	52	4400
2026-01-23 09:47:29.93	154.72	10.79	-40.3	-42.2	18.4	0.00e+00	0	40	0	0	52	4399
2026-01-23 09:47:30.92	154.71	10.88	-40.2	-42.1	18.4	0.00e+00	0	40	0	0	52	4370
2026-01-23 09:47:31.92	154.70	10.97	-40.3	-42.2	17.8	0.00e+00	0	40	0	0	52	4399
2026-01-23 09:47:32.92	154.69	11.06	-40.1	-42.0	18.5	0.00e+00	0	41	0	0	52	4306
2026-01-23 09:47:33.92	154.68	11.15	-40.1	-42.0	18.5	0.00e+00	0	41	0	0	52	4311
2026-01-23 09:47:34.92	154.67	11.24	-40.1	-42.0	18.5	0.00e+00	0	40	0	0	52	4335
2026-01-23 09:47:35.92	154.65	11.34	-40.1	-42.0	18.5	0.00e+00	0	40	0	0	52	4336
2026-01-23 09:47:36.91	154.64	11.43	-40.0	-41.9	18.6	0.00e+00	0	41	0	0	52	4275
2026-01-23 09:47:37.91	154.63	11.52	-40.0	-41.9	18.7	0.00e+00	0	41	0	0	51	4533
2026-01-23 09:47:38.91	154.62	11.61	-40.0	-41.9	18.7	0.00e+00	0	41	0	0	51	4528
2026-01-23 09:47:39.91	154.61	11.71	-40.0	-41.9	18.7	0.00e+00	0	41	0	0	51	4501
2026-01-23 09:47:40.91	154.59	11.80	-39.9	-41.8	18.8	0.00e+00	0	40	0	0	51	4467
2026-01-23 09:47:41.90	154.58	11.89	-39.9	-41.8	18.8	0.00e+00	0	41	0	0	51	4479
2026-01-23 09:47:42.90	154.57	11.99	-39.9	-41.8	18.8	0.00e+00	0	40	0	0	51	4461
2026-01-23 09:47:43.90	154.56	12.08	-39.9	-41.8	18.8	0.00e+00	0	41	0	0	51	4469
2026-01-23 09:47:44.90	154.54	12.18	-39.9	-41.7	18.9	0.00e+00	0	41	0	0	51	4433
2026-01-23 09:47:45.89	154.53	12.27	-39.8	-41.6	19.0	0.00e+00	0	40	0	0	51	4385
2026-01-23 09:47:46.89	154.52	12.37	-39.8	-41.7	18.9	0.00e+00	0	41	0	0	51	4409
2026-01-23 09:47:47.89	154.50	12.46	-39.8	-41.7	18.9	0.00e+00	0	40	0	0	51	4404
2026-01-23 09:47:48.88	154.49	12.56	-39.8	-41.6	19.0	0.00e+00	0	40	0	0	51	4375
2026-01-23 09:47:49.88	154.48	12.66	-39.7	-41.5	19.1	0.00e+00	0	40	0	0	51	4338
2026-01-23 09:47:50.88	154.46	12.75	-39.7	-41.5	19.1	0.00e+00	0	41	0	0	51	4315
2026-01-23 09:47:51.88	154.45	12.85	-39.7	-41.6	19.0	0.00e+00	0	41	0	0	51	4356
2026-01-23 09:47:52.87	154.44	12.95	-39.8	-41.6	19.0	0.00e+00	0	41	0	0	51	4373
2026-01-23 09:47:53.87	154.42	13.05	-39.7	-41.5	19.1	0.00e+00	0	41	0	0	51	4329
2026-01-23 09:47:54.87	154.41	13.15	-39.6	-41.4	19.2	0.00e+00	0	41	0	0	51	4282
2026-01-23 09:47:55.86	154.39	13.24	-39.6	-41.4	19.2	0.00e+00	0	41	0	0	51	4280
2026-01-23 09:47:56.86	154.38	13.34	-39.6	-41.4	19.2	0.00e+00	0	40	0	0	51	4277
2026-01-23 09:47:57.86	154.37	13.44	-39.6	-41.4	19.1	0.00e+00	0	40	0	0	51	4264
2026-01-23 09:47:58.86	154.35	13.54	-39.6	-41.4	19.2	0.00e+00	0	40	0	0	51	4257
2026-01-23 09:47:59.86	154.34	13.65	-39.6	-41.4	19.2	0.00e+00	0	41	0	0	51	4271
2026-01-23 09:48:00.85	154.32	13.75	-39.6	-41.4	19.2	0.00e+00	0	41	0	0	51	4262
2026-01-23 09:48:01.85	154.31	13.85	-39.6	-41.4	19.2	0.00e+00	0	41	0	0	51	4262
2026-01-23 09:48:02.85	154.29	13.95	-39.6	-41.5	19.2	0.00e+00	0	40	0	0	51	4300
2026-01-23 09:48:03.84	154.28	14.05	-39.5	-41.4	19.2	0.00e+00	0	41	0	0	51	4249
2026-01-23 09:48:04.84	154.26	14.15	-39.5	-41.3	19.3	0.00e+00	0	40	0	0	51	4237
2026-01-23 09:48:05.84	154.25	14.26	-39.6	-41.5	19.2	0.00e+00	0	40	0	0	51	4297
2026-01-23 09:48:06.83	154.23	14.36	-39.6	-41.4	19.2	0.00e+00	0	41	0	0	51	4278
2026-01-23 09:48:07.83	154.22	14.47	-39.5	-41.3	19.3	0.00e+00	0	40	0	0	51	4242
2026-01-23 09:48:08.83	154.20	14.57	-39.5	-41.4	19.3	0.00e+00	0	40	0	0	51	4246
2026-01-23 09:48:09.83	154.19	14.68	-39.5	-41.4	19.3	0.00e+00	0	41	0	0	51	4253
2026-01-23 09:48:10.81	154.17	14.78	-39.5	-41.4	19.3	0.00e+00	0	41	0	0	51	4247
2026-01-23 09:48:11.80	154.16	14.88	-39.6	-41.4	19.2	0.00e+00	0	41	0	0	51	4289
2026-01-23 09:48:12.80	154.14	14.99	-39.5	-41.4	19.3	0.00e+00	0	41	0	0	51	4246
2026-01-23 09:48:13.80	154.12	15.10	-39.5	-41.4	19.3	0.00e+00	0	41	0	0	51	4249
2026-01-23 09:48:14.79	154.11	15.20	-39.6	-41.4	19.3	0.00e+00	0	41	0	0	51	4255
2026-01-23 09:48:15.79	154.09	15.31	-39.6	-41.4	19.2	0.00e+00	0	41	0	0	51	4290
2026-01-23 09:48:16.79	154.07	15.42	-39.6	-41.5	19.2	0.00e+00	0	41	0	0	51	4300
2026-01-23 09:48:17.79	154.06	15.53	-39.6	-41.5	19.2	0.00e+00	0	40	0	0	51	4292
2026-01-23 09:48:18.79	154.04	15.64	-39.6	-41.4	19.2	0.00e+00	0	41	0	0	51	4271
2026-01-23 09:48:19.78	154.02	15.75	-39.7	-41.5	19.2	0.00e+00	0	41	0	0	51	4314
2026-01-23 09:48:20.78	154.01	15.86	-39.7	-41.5	19.2	0.00e+00	0	41	0	0	51	4324
2026-01-23 09:48:21.78	153.99	15.97	-39.7	-41.5	19.2	0.00e+00	0	41	0	0	51	4323
2026-01-23 09:48:22.78	153.97	16.08	-39.7	-41.5	19.2	0.00e+00	0	41	0	0	51	4339
2026-01-23 09:48:23.78	153.95	16.19	-39.7	-41.5	19.2	0.00e+00	0	41	0	0	51	4334
2026-01-23 09:48:24.78	153.94	16.31	-39.7	-41.5	19.2	0.00e+00	0	41	0	0	51	4331
2026-01-23 09:48:25.78	153.92	16.42	-39.9	-41.7	19.0	0.00e+00	0	41	0	0	51	4421
2026-01-23 09:48:26.78	153.90	16.53	-39.9	-41.7	19.0	0.00e+00	0	41	0	0	51	4435
2026-01-23 09:48:27.78	153.88	16.65	-39.9	-41.7	19.0	0.00e+00	0	41	0	0	51	4426
2026-01-23 09:48:28.78	153.86	16.76	-39.9	-41.7	19.0	0.00e+00	0	41	0	0	51	4432
2026-01-23 09:48:29.77	153.84	16.88	-39.9	-41.8	19.0	0.00e+00	0	41	0	0	51	4450
2026-01-23 09:48:30.77	153.83	16.99	-39.9	-41.7	19.0	0.00e+00	0	41	0	0	51	4438
2026-01-23 09:48:31.77	153.81	17.11	-39.8	-41.7	19.0	0.00e+00	0	41	0	0	51	4397
2026-01-23 09:48:32.77	153.79	17.22	-39.9	-41.7	19.0	0.00e+00	0	41	0	0	51	4419
2026-01-23 09:48:33.77	153.77	17.34	-39.9	-41.7	19.0	0.00e+00	0	40	0	0	51	4434
2026-01-23 09:48:34.76	153.75	17.46	-39.9	-41.8	19.0	0.00e+00	0	41	0	0	51	4454
2026-01-23 09:48:35.76	153.73	17.58	-39.9	-41.8	18.9	0.00e+00	0	41	0	0	51	4444
2026-01-23 09:48:36.76	153.71	17.70	-40.0	-41.9	18.8	0.00e+00	0	41	0	0	51	4515
2026-01-23 09:48:37.76	153.69	17.82	-40.0	-41.9	18.8	0.00e+00	0	41	0	0	51	4517
2026-01-23 09:48:38.75	153.67	17.94	-40.0	-41.8	18.9	0.00e+00	0	41	0	0	51	4483
2026-01-23 09:48:39.75	153.65	18.06	-40.0	-41.9	18.9	0.00e+00	0	41	0	0	51	4495
2026-01-23 09:48:40.74	153.63	18.18	-40.0	-41.8	18.9	0.00e+00	0	41	0	0	51	4483
2026-01-23 09:48:41.74	153.61	18.30	-40.0	-41.8	18.9	0.00e+00	0	41	0	0	51	4462
2026-01-23 09:48:42.73	153.59	18.42	-40.0	-41.9	18.9	0.00e+00	0	41	0	0	51	4498
2026-01-23 09:48:43.73	153.57	18.54	-40.1	-41.9	18.8	0.00e+00	0	41	0	0	51	4545
2026-01-23 09:48:44.73	153.55	18.67	-40.1	-41.9	18.9	0.00e+00	0	41	0	0	51	4516
2026-01-23 09:48:45.73	153.52	18.79	-40.0	-41.9	18.9	0.00e+00	0	41	0	0	51	4495
2026-01-23 09:48:46.73	153.50	18.92	-40.0	-41.8	18.4	0.00e+00	0	41	0	0	51	4479
2026-01-23 09:48:47.73	153.48	19.04	-40.0	-41.9	18.9	0.00e+00	0	41	0	0	51	4512
2026-01-23 09:48:48.73	153.46	19.17	-40.1	-42.0	18.8	0.00e+00	0	41	0	0	51	4548
2026-01-23 09:48:49.72	153.44	19.29	-40.0	-41.8	18.9	0.00e+00	0	41	0	0	51	4493
2026-01-23 09:48:50.72	153.41	19.42	-39.9	-41.7	19.0	0.00e+00	0	41	0	0	51	4438
2026-01-23 09:48:51.72	153.39	19.55	-39.9	-41.8	19.0	0.00e+00	0	41	0	0	51	4455
2026-01-23 09:48:52.72	153.37	19.68	-39.9	-41.7	19.0	0.00e+00	0	41	0	0	51	4429
2026-01-23 09:48:53.72	153.34	19.81	-39.9	-41.7	19.1	0.00e+00	0	41	0	0	51	4408
2026-01-23 09:48:54.72	153.32	19.94	-39.8	-41.6	19.2	0.00e+00	0	41	0	0	51	4356
2026-01-23 09:48:55.72	153.30	20.07	-39.8	-41.6	19.2	0.00e+00	0	41	0	0	51	4364
2026-01-23 09:48:56.72	153.27	20.20	-39.8	-41.6	19.2	0.00e+00	0	41	0	0	51	4361
2026-01-23 09:48:57.72	153.25	20.33	-39.6	-41.3	19.4	0.00e+00	0	41	0	0	51	4236
2026-01-23 09:48:58.71	153.23	20.46	-39.5	-41.2	19.5	0.00e+00	0	41	0	0	50	4428
2026-01-23 09:48:59.71	153.20	20.60	-39.5	-41.3	19.5	0.00e+00	0	41	0	0	50	4445
2026-01-23 09:49:00.71	153.18	20.73	-39.4	-41.2	19.6	0.00e+00	0	41	0	0	50	4392
2026-01-23 09:49:01.71	153.15	20.87	-39.4	-41.1	19.7	0.00e+00	0	41	0	0	50	4364
2026-01-23 09:49:02.71	153.13	21.00	-39.4	-41.1	19.6	0.00e+00	0	41	0	0	50	4369
2026-01-23 09:49:03.71	153.10	21.14	-39.2	-40.9	19.8	0.00e+00	0	41	0	0	50	4262
2026-01-23 09:49:04.71	153.08	21.28	-39.2	-40.9	19.8	0.00e+00	0	41	0	0	50	4266
2026-01-23 09:49:05.71	153.05	21.42	-38.9	-40.6	20.0	0.00e+00	0	41	0	0	49	4386
2026-01-23 09:49:06.70	153.02	21.55	-38.9	-40.5	20.1	0.00e+00	0	41	0	0	49	4340
2026-01-23 09:49:07.70	153.00	21.69	-38.8	-40.5	20.2	0.00e+00	0	41	0	0	49	4335
2026-01-23 09:49:08.70	152.97	21.83	-38.7	-40.3	20.3	0.00e+00	0	41	0	0	49	4240
2026-01-23 09:49:09.70	152.94	21.97	-38.6	-40.3	20.4	0.00e+00	0	41	0	0	49	4222
2026-01-23 09:49:10.70	152.92	22.12	-38.7	-40.3	20.4	0.00e+00	0	41	0	0	49	4240
2026-01-23 09:49:11.70	152.89	22.26	-38.5	-40.2	20.5	0.00e+00	0	41	0	0	49	4153
2026-01-23 09:49:12.70	152.86	22.40	-38.5	-40.2	20.5	0.00e+00	0	41	0	0	48	4392
2026-01-23 09:49:13.69	152.83	22.55	-38.4	-40.0	20.7	0.00e+00	0	41	0	0	48	4324
2026-01-23 09:49:14.69	152.80	22.69	-38.3	-39.9	20.7	0.00e+00	0	41	0	0	48	4262
2026-01-23 09:49:15.69	152.78	22.84	-38.3	-40.0	20.7	0.00e+00	0	41	0	0	48	4303
2026-01-23 09:49:16.69	152.75	22.98	-38.3	-39.9	20.7	0.00e+00	0	41	0	0	48	4291
2026-01-23 09:49:17.69	152.72	23.13	-38.2	-39.9	20.8	0.00e+00	0	41	0	0	48	4246
2026-01-23 09:49:18.69	152.69	23.28	-38.2	-39.8	20.8	0.00e+00	0	41	0	0	48	4213
2026-01-23 09:49:19.68	152.66	23.43	-38.2	-39.9	20.8	0.00e+00	0	41	0	0	48	4249
2026-01-23 09:49:20.68	152.63	23.58	-38.2	-39.8	20.8	0.00e+00	0	41	0	0	48	4210
2026-01-23 09:49:21.67	152.60	23.73	-38.0	-39.6	20.9	0.00e+00	0	41	0	0	48	4144
2026-01-23 09:49:22.67	152.57	23.88	-38.1	-39.7	20.8	0.00e+00	0	41	0	0	48	4182
2026-01-23 09:49:23.67	152.54	24.03	-38.1	-39.7	20.8	0.00e+00	0	41	0	0	48	4193
2026-01-23 09:49:24.67	152.50	24.18	-38.1	-39.7	20.8	0.00e+00	0	41	0	0	48	4180
2026-01-23 09:49:25.66	152.47	24.34	-38.2	-39.8	20.8	0.00e+00	0	41	0	0	48	4222
2026-01-23 09:49:26.66	152.44	24.49	-38.2	-39.8	20.8	0.00e+00	0	41	0	0	48	4236
2026-01-23 09:49:27.66	152.41	24.65	-38.3	-40.0	20.7	0.00e+00	0	41	0	0	48	4296
2026-01-23 09:49:28.66	152.37	24.81	-38.3	-40.0	20.7	0.00e+00	0	41	0	0	48	4308
2026-01-23 09:49:29.65	152.34	24.96	-38.4	-40.1	20.6	0.00e+00	0	41	0	0	48	4362
2026-01-23 09:49:30.65	152.31	25.12	-38.5	-40.2	20.5	0.00e+00	0	40	0	0	48	4405
2026-01-23 09:49:31.65	152.27	25.28	-38.5	-40.2	20.5	0.00e+00	0	41	0	0	48	4408
2026-01-23 09:49:32.65	152.24	25.44	-38.6	-40.2	20.5	0.00e+00	0	41	0	0	48	4439
2026-01-23 09:49:33.65	152.20	25.60	-38.7	-40.4	20.4	0.00e+00	0	41	0	0	48	4496
2026-01-23 09:49:34.65	152.17	25.77	-38.8	-40.5	20.3	0.00e+00	0	41	0	0	48	4570
2026-01-23 09:49:35.64	152.13	25.93	-38.9	-40.6	20.1	0.00e+00	0	41	0	0	48	4640
2026-01-23 09:49:36.64	152.10	26.09	-38.9	-40.7	20.1	0.00e+00	0	41	0	0	48	4655
2026-01-23 09:49:37.64	152.06	26.26	-39.1	-40.8	20.0	0.00e+00	0	41	0	0	48	4738
2026-01-23 09:49:38.63	152.03	26.43	-39.1	-40.8	20.0	0.00e+00	0	41	0	0	48	4737
2026-01-23 09:49:39.63	151.99	26.59	-39.1	-40.9	19.9	0.00e+00	0	41	0	0	48	4795
2026-01-23 09:49:40.63	151.95	26.76	-39.2	-41.0	19.9	0.00e+00	0	41	0	0	49	4547
2026-01-23 09:49:41.62	151.91	26.93	-39.3	-41.0	19.8	0.00e+00	0	41	0	0	49	4589
2026-01-23 09:49:42.62	151.87	27.10	-39.3	-41.1	19.7	0.00e+00	0	41	0	0	49	4623
2026-01-23 09:49:43.62	151.84	27.27	-39.5	-41.3	19.6	0.00e+00	0	41	0	0	49	4712
2026-01-23 09:49:44.62	151.80	27.45	-39.4	-41.2	19.6	0.00e+00	0	41	0	0	49	4677
2026-01-23 09:49:45.62	151.76	27.62	-39.5	-41.3	19.6	0.00e+00	0	41	0	0	49	4714
2026-01-23 09:49:46.61	151.72	27.80	-39.5	-41.3	19.5	0.00e+00	0	41	0	0	49	4739
2026-01-23 09:49:47.60	151.68	27.97	-39.6	-41.5	19.4	0.00e+00	0	41	0	0	49	4825
2026-01-23 09:49:48.61	151.63	28.15	-39.7	-41.5	19.4	0.00e+00	0	41	0	0	49	4840
2026-01-23 09:49:49.60	151.59	28.33	-39.8	-41.6	19.3	0.00e+00	0	41	0	0	50	4646
2026-01-23 09:49:50.60	151.55	28.51	-39.8	-41.6	19.3	0.00e+00	0	41	0	0	50	4605
2026-01-23 09:49:51.60	151.51	28.69	-39.8	-41.7	19.2	0.00e+00	0	41	0	0	50	4660
2026-01-23 09:49:52.60	151.47	28.87	-39.8	-41.6	19.3	0.00e+00	0	41	0	0	50	4607
2026-01-23 09:49:53.60	151.42	29.05	-39.8	-41.7	19.2	0.00e+00	0	41	0	0	50	4652
2026-01-23 09:49:54.60	151.38	29.24	-39.8	-41.5	19.3	0.00e+00	0	41	0	0	50	4588
2026-01-23 09:49:55.59	151.33	29.42	-39.7	-41.4	19.4	0.00e+00	0	41	0	0	50	4537
2026-01-23 09:49:56.59	151.29	29.61	-39.6	-41.3	19.5	0.00e+00	0	41	0	0	50	4476
2026-01-23 09:49:57.58	151.24	29.79	-39.6	-41.4	19.4	0.00e+00	0	41	0	0	50	4499
2026-01-23 09:49:58.58	151.20	29.98	-39.4	-41.1	19.6	0.00e+00	0	41	0	0	50	4377
2026-01-23 09:49:59.57	151.15	30.17	-39.4	-41.1	19.7	0.00e+00	0	41	0	0	50	4365
2026-01-23 09:50:00.57	151.10	30.36	-39.1	-40.8	19.9	0.00e+00	0	41	0	0	50	4228
2026-01-23 09:50:01.56	151.05	30.55	-39.1	-40.8	19.9	0.00e+00	0	41	0	0	50	4242
2026-01-23 09:50:02.56	151.00	30.75	-38.9	-40.6	20.1	0.00e+00	0	41	0	0	49	4361
2026-01-23 09:50:03.56	150.95	30.94	-38.9	-40.6	20.1	0.00e+00	0	41	0	0	49	4384
2026-01-23 09:50:04.56	150.90	31.14	-38.8	-40.5	20.2	0.00e+00	0	41	0	0	49	4326
2026-01-23 09:50:05.56	150.85	31.34	-38.8	-40.5	20.2	0.00e+00	0	41	0	0	49	4314
2026-01-23 09:50:06.56	150.80	31.54	-38.8	-40.5	20.3	0.00e+00	0	41	0	0	49	4306
2026-01-23 09:50:07.55	150.75	31.74	-38.9	-40.5	20.2	0.00e+00	0	41	0	0	49	4332
2026-01-23 09:50:08.55	150.70	31.94	-38.9	-40.6	20.2	0.00e+00	0	41	0	0	49	4351
2026-01-23 09:50:09.55	150.64	32.14	-38.9	-40.6	20.1	0.00e+00	0	41	0	0	49	4373
2026-01-23 09:50:10.55	150.59	32.35	-39.1	-40.8	20.0	0.00e+00	0	41	0	0	49	4444
2026-01-23 09:50:11.54	150.54	32.55	-39.1	-40.8	19.9	0.00e+00	0	41	0	0	49	4480
2026-01-23 09:50:12.54	150.48	32.76	-39.2	-40.9	19.9	0.00e+00	0	41	0	0	49	4511
2026-01-23 09:50:13.54	150.42	32.97	-39.3	-41.0	19.8	0.00e+00	0	41	0	0	49	4575
2026-01-23 09:50:14.53	150.37	33.18	-39.3	-41.1	19.7	0.00e+00	0	41	0	0	49	4602
2026-01-23 09:50:15.53	150.31	33.39	-39.4	-41.1	19.7	0.00e+00	0	41	0	0	49	4646
2026-01-23 09:50:16.53	150.25	33.60	-39.5	-41.2	19.6	0.00e+00	0	41	0	0	49	4693
2026-01-23 09:50:17.53	150.19	33.82	-39.7	-41.4	19.4	0.00e+00	0	41	0	0	49	4797
2026-01-23 09:50:18.52	150.13	34.03	-39.8	-41.6	19.3	0.00e+00	0	41	0	0	50	4621
2026-01-23 09:50:19.52	150.07	34.25	-39.9	-41.7	19.1	0.00e+00	0	41	0	0	50	4697
2026-01-23 09:50:20.52	150.01	34.47	-40.0	-41.7	19.1	0.00e+00	0	41	0	0	50	4705
2026-01-23 09:50:21.52	149.94	34.69	-40.1	-42.0	18.9	0.00e+00	0	41	0	0	50	4829
2026-01-23 09:50:22.52	149.88	34.91	-40.2	-42.0	18.9	0.00e+00	0	41	0	0	51	4578
2026-01-23 09:50:23.51	149.82	35.13	-40.4	-42.2	18.7	0.00e+00	0	41	0	0	51	4686
2026-01-23 09:50:24.51	149.75	35.36	-40.4	-42.3	18.6	0.00e+00	0	41	0	0	51	4730
2026-01-23 09:50:25.51	149.68	35.59	-40.6	-42.5	18.5	0.00e+00	0	41	0	0	51	4842
2026-01-23 09:50:26.51	149.62	35.81	-40.6	-42.5	18.4	0.00e+00	0	41	0	0	52	4587
2026-01-23 09:50:27.51	149.55	36.04	-40.9	-42.8	18.1	0.00e+00	0	41	0	0	52	4727
2026-01-23 09:50:28.50	149.48	36.27	-40.9	-42.8	18.1	0.00e+00	0	41	0	0	52	4720
2026-01-23 09:50:29.50	149.41	36.51	-41.0	-42.9	18.0	0.00e+00	0	41	0	0	52	4788
2026-01-23 09:50:30.50	149.34	36.74	-41.0	-43.0	17.9	0.00e+00	0	41	0	0	52	4830
2026-01-23 09:50:31.50	149.26	36.98	-41.0	-42.9	17.9	0.00e+00	0	41	0	0	52	4813
2026-01-23 09:50:32.50	149.19	37.22	-41.0	-42.9	18.0	0.00e+00	0	41	0	0	52	4782
2026-01-23 09:50:33.50	149.11	37.46	-41.0	-43.0	18.0	0.00e+00	0	41	0	0	52	4818
2026-01-23 09:50:34.50	149.04	37.70	-41.0	-42.9	18.0	0.00e+00	0	41	0	0	52	4808
2026-01-23 09:50:35.49	148.96	37.94	-40.9	-42.9	18.1	0.00e+00	0	41	0	0	52	4769
2026-01-23 09:50:36.49	148.88	38.18	-40.8	-42.7	18.2	0.00e+00	0	41	0	0	52	4665
2026-01-23 09:50:37.49	148.80	38.43	-40.8	-42.7	18.2	0.00e+00	0	41	0	0	52	4696
2026-01-23 09:50:38.49	148.72	38.68	-40.6	-42.5	18.4	0.00e+00	0	41	0	0	52	4555
2026-01-23 09:50:39.49	148.64	38.93	-40.7	-42.5	18.3	0.00e+00	0	41	0	0	52	4583
2026-01-23 09:50:40.48	148.55	39.18	-40.6	-42.4	18.4	0.00e+00	0	41	0	0	52	4532
2026-01-23 09:50:41.48	148.47	39.43	-40.6	-42.4	18.4	0.00e+00	0	41	0	0	52	4542
2026-01-23 09:50:42.48	148.38	39.69	-40.6	-42.5	18.3	0.00e+00	0	41	0	0	52	4574
2026-01-23 09:50:43.47	148.30	39.94	-40.6	-42.5	18.3	0.00e+00	0	41	0	0	52	4574
2026-01-23 09:50:44.47	148.21	40.20	-40.6	-42.5	18.3	0.00e+00	0	41	0	0	52	4593
2026-01-23 09:50:45.47	148.12	40.46	-40.7	-42.6	18.2	0.00e+00	0	41	0	0	52	4626
2026-01-23 09:50:46.46	148.02	40.72	-40.7	-42.6	18.2	0.00e+00	0	41	0	0	52	4651
2026-01-23 09:50:47.46	147.93	40.99	-40.8	-42.7	18.2	0.00e+00	0	41	0	0	52	4687
2026-01-23 09:50:48.46	147.83	41.25	-40.9	-42.9	18.0	0.00e+00	0	41	0	0	52	4762
2026-01-23 09:50:49.45	147.74	41.52	-41.0	-42.9	18.0	0.00e+00	0	41	0	0	52	4796
2026-01-23 09:50:50.45	147.64	41.79	-41.2	-43.1	17.8	0.00e+00	0	41	0	0	52	4910
2026-01-23 09:50:51.45	147.54	42.06	-41.3	-43.3	17.6	0.00e+00	0	41	0	0	53	4728
2026-01-23 09:50:52.45	147.44	42.33	-41.3	-43.3	17.5	0.00e+00	0	41	0	0	53	4738
2026-01-23 09:50:53.45	147.33	42.61	-41.5	-43.5	17.3	0.00e+00	0	41	0	0	53	4860
2026-01-23 09:50:54.44	147.23	42.88	-41.7	-43.7	17.1	0.00e+00	0	41	0	0	54	4705
2026-01-23 09:50:55.44	147.12	43.16	-41.7	-43.8	17.1	0.00e+00	0	41	0	0	54	4724
2026-01-23 09:50:56.44	147.01	43.44	-41.9	-44.0	16.9	0.00e+00	0	41	0	0	54	4862
2026-01-23 09:50:57.44	146.90	43.73	-41.9	-44.1	16.8	0.00e+00	0	41	0	0	54	4885
2026-01-23 09:50:58.43	146.78	44.01	-42.0	-44.2	16.9	0.00e+00	0	41	0	0	54	4943
2026-01-23 09:50:59.43	146.67	44.30	-42.1	-44.2	16.8	0.00e+00	0	41	0	0	54	4956
2026-01-23 09:51:00.43	146.55	44.59	-41.9	-44.0	16.9	0.00e+00	0	41	0	0	54	4869
2026-01-23 09:51:01.42	146.43	44.88	-41.9	-44.0	17.0	0.00e+00	0	41	0	0	54	4818
2026-01-23 09:51:02.42	146.31	45.17	-41.9	-44.0	17.0	0.00e+00	0	41	0	0	54	4817
2026-01-23 09:51:03.42	146.18	45.47	-41.9	-44.0	17.0	0.00e+00	0	41	0	0	54	4822
2026-01-23 09:51:04.42	146.06	45.76	-41.9	-44.0	17.0	0.00e+00	0	41	0	0	54	4841
2026-01-23 09:51:05.42	145.93	46.06	-41.7	-43.7	17.2	0.00e+00	0	41	0	0	54	4694
2026-01-23 09:51:06.42	145.79	46.36	-41.5	-43.6	17.3	0.00e+00	0	41	0	0	54	4610
2026-01-23 09:51:07.41	145.66	46.66	-41.4	-43.4	17.3	0.00e+00	0	41	0	0	54	4517
2026-01-23 09:51:08.41	145.52	46.97	-41.2	-43.2	17.6	0.00e+00	0	41	0	0	54	4418
2026-01-23 09:51:09.41	145.38	47.28	-41.0	-42.9	17.9	0.00e+00	0	41	0	0	54	4271
2026-01-23 09:51:10.41	145.24	47.59	-40.9	-42.8	18.0	0.00e+00	0	41	0	0	53	4482
2026-01-23 09:51:11.40	145.09	47.90	-41.0	-42.9	18.0	0.00e+00	0	41	0	0	53	4526
2026-01-23 09:51:12.40	144.94	48.21	-40.7	-42.6	18.3	0.00e+00	0	41	0	0	53	4361
2026-01-23 09:51:13.40	144.79	48.53	-40.8	-42.7	18.3	0.00e+00	0	41	0	0	53	4394
2026-01-23 09:51:14.40	144.64	48.84	-40.8	-42.7	18.2	0.00e+00	0	41	0	0	53	4438
2026-01-23 09:51:15.40	144.48	49.16	-40.9	-42.8	18.0	0.00e+00	0	41	0	0	53	4470
2026-01-23 09:51:16.39	144.32	49.48	-40.8	-42.7	18.2	0.00e+00	0	41	0	0	53	4407
2026-01-23 09:51:17.39	144.15	49.81	-40.6	-42.5	18.3	0.00e+00	0	41	0	0	53	4328
2026-01-23 09:51:18.39	143.98	50.13	-40.3	-42.2	18.6	0.00e+00	0	41	0	0	52	4405
2026-01-23 09:51:19.39	143.81	50.46	-40.2	-42.1	18.7	0.00e+00	0	41	0	0	52	4345
2026-01-23 09:51:20.39	143.63	50.79	-40.3	-42.1	18.6	0.00e+00	0	41	0	0	52	4367
2026-01-23 09:51:21.39	143.45	51.12	-40.6	-42.4	18.4	0.00e+00	0	41	0	0	52	4531
2026-01-23 09:51:22.39	143.26	51.46	-40.7	-42.6	18.2	0.00e+00	0	41	0	0	52	4642
2026-01-23 09:51:23.39	143.07	51.79	-40.8	-42.7	18.2	0.00e+00	0	41	0	0	52	4668
2026-01-23 09:51:24.38	142.88	52.13	-40.7	-42.6	18.3	0.00e+00	0	41	0	0	52	4611
2026-01-23 09:51:25.38	142.68	52.47	-40.5	-42.4	18.5	0.00e+00	0	41	0	0	52	4502
2026-01-23 09:51:26.38	142.48	52.81	-40.4	-42.3	18.5	0.00e+00	0	41	0	0	52	4470
2026-01-23 09:51:27.37	142.27	53.15	-40.3	-42.1	18.7	0.00e+00	0	41	0	0	52	4376
2026-01-23 09:51:28.37	142.06	53.50	-40.0	-41.8	19.0	0.00e+00	0	41	0	0	52	4213
2026-01-23 09:51:29.37	141.84	53.85	-39.9	-41.6	19.2	0.00e+00	0	41	0	0	51	4378
2026-01-23 09:51:30.36	141.62	54.19	-39.9	-41.7	19.2	0.00e+00	0	41	0	0	51	4409
2026-01-23 09:51:31.36	141.39	54.54	-39.9	-41.6	19.2	0.00e+00	0	41	0	0	51	4373
2026-01-23 09:51:32.35	141.16	54.90	-39.7	-41.5	19.3	0.00e+00	0	41	0	0	51	4322
2026-01-23 09:51:33.35	140.92	55.25	-39.6	-41.4	19.5	0.00e+00	0	41	0	0	51	4253
2026-01-23 09:51:34.34	140.67	55.61	-39.4	-41.1	19.7	0.00e+00	0	41	0	0	50	4371
2026-01-23 09:51:35.34	140.42	55.96	-39.3	-41.0	19.8	0.00e+00	0	41	0	0	50	4323
2026-01-23 09:51:36.33	140.16	56.32	-39.0	-40.7	20.1	0.00e+00	0	41	0	0	50	4168
2026-01-23 09:51:37.33	139.89	56.69	-38.9	-40.5	20.3	0.00e+00	0	41	0	0	49	4323
2026-01-23 09:51:38.33	139.62	57.05	-38.7	-40.3	20.4	0.00e+00	0	41	0	0	49	4239
2026-01-23 09:51:39.33	139.34	57.42	-38.7	-40.4	20.2	0.00e+00	0	41	0	0	49	4253
2026-01-23 09:51:40.32	139.05	57.78	-38.8	-40.5	20.0	0.00e+00	0	41	0	0	49	4296
2026-01-23 09:51:41.32	138.75	58.15	-38.9	-40.6	19.9	0.00e+00	0	41	0	0	49	4374
2026-01-23 09:51:42.32	138.44	58.52	-38.9	-40.6	20.1	0.00e+00	0	41	0	0	49	4350
2026-01-23 09:51:43.31	138.13	58.89	-38.9	-40.6	20.2	0.00e+00	0	41	0	0	49	4349
2026-01-23 09:51:44.32	137.80	59.27	-38.7	-40.4	20.4	0.00e+00	0	41	0	0	49	4246
2026-01-23 09:51:45.32	137.47	59.64	-38.5	-40.1	20.6	0.00e+00	0	41	0	0	48	4388
2026-01-23 09:51:46.31	137.13	60.02	-38.3	-40.0	20.8	0.00e+00	0	41	0	0	48	4302
2026-01-23 09:51:47.31	136.78	60.40	-38.4	-40.0	20.7	0.00e+00	0	41	0	0	48	4317
2026-01-23 09:51:48.31	136.41	60.78	-38.6	-40.3	20.5	0.00e+00	0	41	0	0	48	4446
2026-01-23 09:51:49.30	136.04	61.15	-38.7	-40.4	20.3	0.00e+00	0	41	0	0	48	4519
2026-01-23 09:51:50.30	135.65	61.53	-38.7	-40.4	20.2	0.00e+00	0	41	0	0	48	4502
2026-01-23 09:51:51.30	135.25	61.92	-38.7	-40.3	20.3	0.00e+00	0	41	0	0	48	4489
2026-01-23 09:51:52.29	134.84	62.30	-38.6	-40.3	20.5	0.00e+00	0	41	0	0	48	4457
2026-01-23 09:51:53.29	134.42	62.68	-38.3	-39.9	20.8	0.00e+00	0	41	0	0	48	4268
2026-01-23 09:51:54.28	133.98	63.06	-37.8	-39.4	21.1	0.00e+00	0	41	0	0	47	4283
2026-01-23 09:51:55.28	133.53	63.45	-37.7	-39.3	21.1	0.00e+00	0	41	0	0	47	4226
2026-01-23 09:51:56.28	133.06	63.83	-37.7	-39.3	21.0	0.00e+00	0	41	0	0	47	4241
2026-01-23 09:51:57.29	132.57	64.22	-37.7	-39.3	21.0	0.00e+00	0	41	0	0	47	4220
2026-01-23 09:51:58.28	132.07	64.61	-37.6	-39.2	21.1	0.00e+00	0	41	0	0	47	4148
2026-01-23 09:51:59.28	131.55	65.00	-37.8	-39.4	20.9	0.00e+00	0	41	0	0	47	4274
2026-01-23 09:52:00.28	131.02	65.38	-37.9	-39.6	20.9	0.00e+00	0	41	0	0	47	4345
2026-01-23 09:52:01.27	130.47	65.77	-38.1	-39.7	20.8	0.00e+00	0	41	0	0	47	4425
2026-01-23 09:52:02.27	129.89	66.15	-38.3	-40.0	20.5	0.00e+00	0	41	0	0	47	4581
2026-01-23 09:52:03.27	129.29	66.54	-38.2	-39.8	20.7	0.00e+00	0	41	0	0	47	4478
2026-01-23 09:52:04.27	128.67	66.92	-37.9	-39.6	21.0	0.00e+00	0	41	0	0	47	4345
2026-01-23 09:52:05.26	128.04	67.31	-38.0	-39.6	20.9	0.00e+00	0	41	0	0	47	4368
2026-01-23 09:52:06.26	127.37	67.69	-37.9	-39.5	21.0	0.00e+00	0	41	0	0	47	4323
2026-01-23 09:52:07.26	126.68	68.07	-37.6	-39.2	21.3	0.00e+00	0	41	0	0	47	4183
2026-01-23 09:52:08.26	125.96	68.45	-37.3	-38.9	21.6	0.00e+00	0	41	0	0	46	4259
2026-01-23 09:52:09.26	125.21	68.83	-37.1	-38.6	21.8	0.00e+00	0	41	0	0	46	4135
2026-01-23 09:52:10.26	124.43	69.21	-37.1	-38.7	21.6	0.00e+00	0	41	0	0	46	4156
2026-01-23 09:52:11.25	123.63	69.58	-37.1	-38.7	21.7	0.00e+00	0	41	0	0	46	4168
2026-01-23 09:52:12.25	122.79	69.96	-37.3	-38.9	21.4	0.00e+00	0	41	0	0	46	4258
2026-01-23 09:52:13.25	121.92	70.33	-37.3	-38.8	21.5	0.00e+00	0	41	0	0	46	4242
2026-01-23 09:52:14.25	121.01	70.69	-37.2	-38.7	21.6	0.00e+00	0	41	0	0	46	4185
2026-01-23 09:52:15.24	120.07	71.05	-37.5	-39.1	21.3	0.00e+00	0	41	0	0	46	4349
2026-01-23 09:52:16.24	119.08	71.41	-37.4	-39.0	21.3	0.00e+00	0	41	0	0	46	4304
2026-01-23 09:52:17.23	118.07	71.77	-37.8	-39.5	20.7	0.00e+00	0	41	0	0	46	4549
2026-01-23 09:52:18.23	117.00	72.12	-37.9	-39.5	20.9	0.00e+00	0	41	0	0	46	4575
2026-01-23 09:52:19.24	115.87	72.47	-37.8	-39.5	20.9	0.00e+00	0	41	0	0	46	4559
2026-01-23 09:52:20.23	114.72	72.80	-37.9	-39.5	20.8	0.00e+00	0	41	0	0	46	4566
2026-01-23 09:52:21.23	113.51	73.14	-38.1	-39.7	20.7	0.00e+00	0	41	0	0	46	4679
2026-01-23 09:52:22.23	112.24	73.46	-37.9	-39.5	21.0	0.00e+00	0	41	0	0	46	4565
2026-01-23 09:52:23.23	110.93	73.79	-37.4	-39.0	21.4	0.00e+00	0	41	0	0	46	4294
2026-01-23 09:52:24.23	109.56	74.10	-37.3	-38.9	21.5	0.00e+00	0	41	0	0	46	4274
2026-01-23 09:52:25.22	108.14	74.40	-37.5	-39.1	21.4	0.00e+00	0	41	0	0	46	4377
2026-01-23 09:52:26.22	106.66	74.70	-37.6	-39.2	21.3	0.00e+00	0	41	0	0	46	4431
2026-01-23 09:52:27.22	105.11	74.98	-37.7	-39.3	21.2	0.00e+00	0	41	0	0	46	4454
2026-01-23 09:52:28.22	103.51	75.26	-37.5	-39.1	21.4	0.00e+00	0	41	0	0	46	4364
2026-01-23 09:52:29.22	101.84	75.52	-37.7	-39.3	21.0	0.00e+00	0	41	0	0	46	4493
2026-01-23 09:52:30.21	100.12	75.77	-37.9	-39.6	21.0	0.00e+00	0	41	0	0	46	4615
2026-01-23 09:52:31.21	98.33	76.01	-37.8	-39.4	21.1	0.00e+00	0	41	0	0	46	4518
2026-01-23 09:52:32.21	96.47	76.24	-37.5	-39.1	21.4	0.00e+00	0	41	0	0	46	4343
2026-01-23 09:52:33.21	94.55	76.45	-37.7	-39.3	21.2	0.00e+00	0	41	0	0	46	4461
2026-01-23 09:52:34.21	92.57	76.65	-37.9	-39.5	21.1	0.00e+00	0	41	0	0	46	4577
2026-01-23 09:52:35.21	90.53	76.83	-37.9	-39.6	21.0	0.00e+00	0	41	0	0	46	4628
2026-01-23 09:52:36.20	88.46	76.99	-37.7	-39.4	21.2	0.00e+00	0	41	0	0	46	4503
2026-01-23 09:52:37.20	86.31	77.14	-37.5	-39.1	21.2	0.00e+00	0	41	0	0	46	4350
2026-01-23 09:52:38.20	84.11	77.27	-37.6	-39.2	21.2	0.00e+00	0	41	0	0	46	4439
2026-01-23 09:52:39.20	81.88	77.38	-37.8	-39.4	21.1	0.00e+00	0	41	0	0	46	4529
2026-01-23 09:52:40.20	79.60	77.48	-38.1	-39.8	20.7	0.00e+00	0	41	0	0	46	4722
2026-01-23 09:52:41.20	77.29	77.55	-37.9	-39.5	20.6	0.00e+00	0	41	0	0	46	4591
2026-01-23 09:52:42.20	74.96	77.60	-38.0	-39.6	20.4	0.00e+00	0	41	0	0	46	4644
2026-01-23 09:52:43.20	72.61	77.64	-38.3	-39.9	20.4	0.00e+00	0	41	0	0	47	4535
2026-01-23 09:52:44.19	70.27	77.65	-38.3	-40.0	20.5	0.00e+00	0	41	0	0	47	4568
2026-01-23 09:52:45.19	67.92	77.64	-38.3	-40.0	20.5	0.00e+00	0	41	0	0	47	4547
2026-01-23 09:52:46.19	65.56	77.61	-38.3	-39.9	20.5	0.00e+00	0	41	0	0	47	4543
2026-01-23 09:52:47.18	63.25	77.57	-38.0	-39.6	20.9	0.00e+00	0	41	0	0	47	4385
2026-01-23 09:52:48.18	60.94	77.50	-37.9	-39.5	20.7	0.00e+00	0	41	0	0	47	4339
2026-01-23 09:52:49.18	58.65	77.41	-38.0	-39.7	20.7	0.00e+00	0	41	0	0	47	4401
2026-01-23 09:52:50.18	56.40	77.30	-38.0	-39.6	20.9	0.00e+00	0	41	0	0	47	4383
2026-01-23 09:52:51.18	54.19	77.18	-38.4	-40.0	20.5	0.00e+00	0	41	0	0	47	4592
2026-01-23 09:52:52.18	52.03	77.03	-38.0	-39.6	20.8	0.00e+00	0	41	0	0	47	4360
2026-01-23 09:52:53.17	49.95	76.88	-37.8	-39.4	20.8	0.00e+00	0	41	0	0	47	4254
2026-01-23 09:52:54.18	47.87	76.70	-38.0	-39.6	20.7	0.00e+00	0	41	0	0	47	4358
2026-01-23 09:52:55.17	45.90	76.50	-38.1	-39.8	20.6	0.00e+00	0	41	0	0	47	4455
2026-01-23 09:52:56.17	43.96	76.30	-38.2	-39.9	20.6	0.00e+00	0	41	0	0	47	4511
2026-01-23 09:52:57.17	42.09	76.07	-38.6	-40.3	20.4	0.00e+00	0	41	0	0	47	4727
2026-01-23 09:52:58.17	40.28	75.84	-38.5	-40.1	20.7	0.00e+00	0	41	0	0	48	4385
2026-01-23 09:52:59.17	38.54	75.59	-38.0	-39.7	21.1	0.00e+00	0	41	0	0	48	4146
2026-01-23 09:53:00.17	36.85	75.33	-37.8	-39.4	21.1	0.00e+00	0	41	0	0	47	4266
2026-01-23 09:53:01.17	35.23	75.05	-37.8	-39.4	21.1	0.00e+00	0	41	0	0	47	4286
2026-01-23 09:53:02.17	33.67	74.77	-37.9	-39.6	21.1	0.00e+00	0	41	0	0	47	4348
2026-01-23 09:53:03.16	32.19	74.48	-37.6	-39.2	21.3	0.00e+00	0	41	0	0	47	4162
2026-01-23 09:53:04.16	30.75	74.18	-37.2	-38.8	21.3	0.00e+00	0	41	0	0	46	4196
2026-01-23 09:53:05.16	29.36	73.87	-37.4	-39.0	20.9	0.00e+00	0	41	0	0	46	4313
2026-01-23 09:53:06.15	28.05	73.55	-37.3	-38.9	21.0	0.00e+00	0	41	0	0	46	4264
2026-01-23 09:53:07.15	26.77	73.23	-37.4	-39.0	21.2	0.00e+00	0	41	0	0	46	4301
2026-01-23 09:53:08.15	25.55	72.90	-38.0	-39.6	20.7	0.00e+00	0	41	0	0	46	4609
2026-01-23 09:53:09.15	24.38	72.56	-38.5	-40.2	20.1	0.00e+00	0	41	0	0	47	4677
2026-01-23 09:53:10.15	23.25	72.21	-38.4	-40.1	19.9	0.00e+00	0	41	0	0	47	4610
2026-01-23 09:53:11.15	22.17	71.86	-38.0	-39.6	20.5	0.00e+00	0	41	0	0	47	4364
2026-01-23 09:53:12.14	21.14	71.51	-37.7	-39.3	20.8	0.00e+00	0	41	0	0	47	4226
2026-01-23 09:53:13.14	20.14	71.16	-38.1	-39.8	20.6	0.00e+00	0	41	0	0	47	4444
2026-01-23 09:53:14.14	19.19	70.79	-38.0	-39.6	20.9	0.00e+00	0	41	0	0	47	4390
2026-01-23 09:53:15.14	18.27	70.43	-37.9	-39.6	20.9	0.00e+00	0	41	0	0	47	4346
2026-01-23 09:53:16.14	17.39	70.06	-38.1	-39.7	20.4	0.00e+00	0	41	0	0	47	4413
2026-01-23 09:53:17.13	16.55	69.69	-37.6	-39.2	20.6	0.00e+00	0	41	0	0	47	4185
2026-01-23 09:53:18.13	15.73	69.32	-37.2	-38.7	21.2	0.00e+00	0	41	0	0	46	4184
2026-01-23 09:53:19.13	14.95	68.94	-37.1	-38.6	21.7	0.00e+00	0	41	0	0	45	4360
2026-01-23 09:53:20.13	14.20	68.56	-37.3	-38.8	21.6	0.00e+00	0	41	0	0	45	4477
2026-01-23 09:53:21.12	13.48	68.19	-38.2	-39.9	20.8	0.00e+00	0	41	0	0	47	4503
2026-01-23 09:53:22.12	12.78	67.81	-39.1	-40.8	19.8	0.00e+00	0	41	0	0	48	4745
2026-01-23 09:53:23.11	12.11	67.43	-38.8	-40.5	19.8	0.00e+00	0	41	0	0	48	4557
2026-01-23 09:53:24.11	11.46	67.04	-38.0	-39.7	20.2	0.00e+00	0	41	0	0	48	4152
2026-01-23 09:53:25.11	10.84	66.66	-37.7	-39.3	20.5	0.00e+00	0	41	0	0	47	4232
2026-01-23 09:53:26.11	10.23	66.27	-37.8	-39.4	20.8	0.00e+00	0	41	0	0	47	4247
2026-01-23 09:53:27.11	9.65	65.89	-38.4	-40.1	20.5	0.00e+00	0	41	0	0	47	4625
2026-01-23 09:53:28.11	9.09	65.50	-39.6	-41.5	19.5	0.00e+00	0	41	0	0	49	4817
2026-01-23 09:53:29.10	8.56	65.12	-40.1	-42.0	19.1	0.00e+00	0	41	0	0	50	4855
2026-01-23 09:53:30.10	8.03	64.73	-39.3	-41.1	19.8	0.00e+00	0	41	0	0	50	4350
2026-01-23 09:53:31.10	7.53	64.35	-38.4	-40.1	20.6	0.00e+00	0	41	0	0	48	4355
2026-01-23 09:53:32.09	7.04	63.96	-38.0	-39.6	21.0	0.00e+00	0	41	0	0	48	4106
2026-01-23 09:53:33.09	6.57	63.58	-38.2	-39.9	20.6	0.00e+00	0	41	0	0	47	4494
2026-01-23 09:53:34.09	6.11	63.19	-39.2	-40.8	20.0	0.00e+00	0	41	0	0	48	4752
2026-01-23 09:53:35.08	5.67	62.81	-39.8	-41.6	19.4	0.00e+00	0	41	0	0	50	4625
2026-01-23 09:53:36.08	5.24	62.43	-40.4	-42.3	18.9	0.00e+00	0	41	0	0	51	4711
2026-01-23 09:53:37.08	4.83	62.05	-40.4	-42.3	18.7	0.00e+00	0	41	0	0	52	4467
2026-01-23 09:53:38.08	4.43	61.67	-39.2	-40.9	19.8	0.00e+00	0	41	0	0	50	4286
2026-01-23 09:53:39.08	4.04	61.28	-38.1	-39.7	20.8	0.00e+00	0	41	0	0	48	4159
2026-01-23 09:53:40.07	3.66	60.91	-37.8	-39.4	20.9	0.00e+00	0	41	0	0	47	4259
2026-01-23 09:53:41.07	3.29	60.53	-38.0	-39.6	20.9	0.00e+00	0	41	0	0	47	4373
2026-01-23 09:53:42.07	2.94	60.15	-38.6	-40.3	20.4	0.00e+00	0	41	0	0	47	4712
2026-01-23 09:53:43.07	2.59	59.78	-39.1	-40.8	20.0	0.00e+00	0	41	0	0	48	4741
2026-01-23 09:53:44.06	2.26	59.41	-40.0	-41.8	19.0	0.00e+00	0	41	0	0	50	4742
2026-01-23 09:53:45.06	1.93	59.03	-40.6	-42.6	18.1	0.00e+00	0	41	0	0	51	4886
2026-01-23 09:53:46.06	1.62	58.66	-40.5	-42.4	18.1	0.00e+00	0	41	0	0	52	4534
2026-01-23 09:53:47.06	1.31	58.29	-40.0	-41.9	18.7	0.00e+00	0	41	0	0	52	4266
2026-01-23 09:53:48.06	1.01	57.92	-39.5	-41.2	19.6	0.00e+00	0	41	0	0	50	4438
2026-01-23 09:53:49.06	0.72	57.55	-38.5	-40.2	20.6	0.00e+00	0	41	0	0	49	4156
2026-01-23 09:53:50.05	0.44	57.19	-38.9	-40.5	20.4	0.00e+00	0	41	0	0	49	4309
2026-01-23 09:53:51.05	0.16	56.83	-39.7	-41.5	19.6	0.00e+00	0	41	0	0	50	4564
2026-01-23 09:53:52.05	359.89	56.46	-40.8	-42.8	18.3	0.00e+00	0	41	0	0	52	4739
2026-01-23 09:53:53.05	359.63	56.10	-41.3	-43.4	17.7	0.00e+00	0	41	0	0	53	4775
2026-01-23 09:53:54.05	359.37	55.75	-40.6	-42.6	18.3	0.00e+00	0	41	0	0	53	4353
2026-01-23 09:53:55.05	359.12	55.39	-40.2	-42.0	18.8	0.00e+00	0	41	0	0	52	4334
2026-01-23 09:53:56.05	358.88	55.03	-39.7	-41.5	19.4	0.00e+00	0	41	0	0	51	4299
2026-01-23 09:53:57.04	358.65	54.68	-39.3	-41.0	19.9	0.00e+00	0	41	0	0	50	4303
2026-01-23 09:53:58.04	358.42	54.33	-39.0	-40.7	20.1	0.00e+00	0	41	0	0	50	4154
2026-01-23 09:53:59.04	358.19	53.98	-38.9	-40.5	20.2	0.00e+00	0	41	0	0	49	4331
2026-01-23 09:54:00.04	357.97	53.64	-39.3	-41.0	19.8	0.00e+00	0	41	0	0	49	4563
2026-01-23 09:54:01.04	357.76	53.29	-40.0	-41.7	19.3	0.00e+00	0	41	0	0	50	4704
2026-01-23 09:54:02.03	357.55	52.95	-40.8	-42.7	18.3	0.00e+00	0	41	0	0	52	4696
2026-01-23 09:54:03.03	357.35	52.61	-41.6	-43.6	17.5	0.00e+00	0	41	0	0	53	4913
2026-01-23 09:54:04.03	357.15	52.27	-41.7	-43.8	17.1	0.00e+00	0	41	0	0	54	4751
2026-01-23 09:54:05.02	356.96	51.93	-41.2	-43.1	17.6	0.00e+00	0	41	0	0	54	4377
2026-01-23 09:54:06.02	356.77	51.60	-40.9	-42.8	18.1	0.00e+00	0	41	0	0	53	4456
2026-01-23 09:54:07.02	356.58	51.27	-40.4	-42.2	18.6	0.00e+00	0	41	0	0	52	4421
2026-01-23 09:54:08.01	356.40	50.94	-40.3	-42.1	18.7	0.00e+00	0	41	0	0	52	4382
2026-01-23 09:54:09.01	356.22	50.61	-40.7	-42.6	18.2	0.00e+00	0	41	0	0	52	4634
2026-01-23 09:54:10.02	356.05	50.28	-41.1	-43.1	17.9	0.00e+00	0	41	0	0	52	4871
2026-01-23 09:54:11.01	355.88	49.95	-41.2	-43.2	17.7	0.00e+00	0	41	0	0	53	4691
2026-01-23 09:54:12.01	355.71	49.63	-41.1	-43.0	18.0	0.00e+00	0	41	0	0	53	4569
2026-01-23 09:54:13.01	355.55	49.31	-41.2	-43.2	17.8	0.00e+00	0	41	0	0	53	4659
2026-01-23 09:54:14.01	355.39	48.99	-41.5	-43.6	17.5	0.00e+00	0	41	0	0	53	4888
2026-01-23 09:54:15.01	355.23	48.67	-41.7	-43.8	17.3	0.00e+00	0	41	0	0	54	4750
2026-01-23 09:54:16.01	355.08	48.36	-41.9	-44.1	17.1	0.00e+00	0	41	0	0	54	4872
2026-01-23 09:54:17.00	354.93	48.05	-41.8	-43.9	17.3	0.00e+00	0	41	0	0	54	4775
2026-01-23 09:54:18.00	354.79	47.74	-41.3	-43.3	17.7	0.00e+00	0	41	0	0	54	4475
2026-01-23 09:54:19.00	354.64	47.43	-41.0	-42.9	18.0	0.00e+00	0	41	0	0	54	4254
2026-01-23 09:54:19.99	354.50	47.12	-40.8	-42.7	18.3	0.00e+00	0	41	0	0	53	4422
2026-01-23 09:54:20.99	354.36	46.82	-40.9	-42.8	18.2	0.00e+00	0	41	0	0	53	4461
2026-01-23 09:54:21.99	354.23	46.52	-41.2	-43.1	17.9	0.00e+00	0	41	0	0	53	4651
2026-01-23 09:54:22.98	354.10	46.22	-41.4	-43.4	17.7	0.00e+00	0	41	0	0	53	4785
2026-01-23 09:54:23.97	353.97	45.92	-41.7	-43.8	17.4	0.00e+00	0	41	0	0	54	4707
2026-01-23 09:54:24.97	353.84	45.63	-41.7	-43.8	17.3	0.00e+00	0	41	0	0	54	4751
2026-01-23 09:54:25.97	353.71	45.33	-41.7	-43.8	17.4	0.00e+00	0	41	0	0	54	4713
2026-01-23 09:54:26.97	353.59	45.04	-41.4	-43.5	17.6	0.00e+00	0	41	0	0	54	4557
2026-01-23 09:54:27.97	353.47	44.75	-41.5	-43.5	17.6	0.00e+00	0	41	0	0	54	4582
2026-01-23 09:54:28.97	353.35	44.46	-41.8	-44.0	17.1	0.00e+00	0	41	0	0	54	4835
2026-01-23 09:54:29.96	353.24	44.17	-42.5	-44.8	16.4	0.00e+00	0	41	0	0	55	5005
2026-01-23 09:54:30.96	353.12	43.89	-43.2	-45.7	15.7	0.00e+00	0	41	0	0	56	5249
2026-01-23 09:54:31.96	353.01	43.61	-43.4	-46.0	15.3	0.00e+00	0	41	0	0	57	5153
2026-01-23 09:54:32.96	352.90	43.33	-43.7	-46.4	14.9	0.00e+00	0	41	0	0	58	5083
2026-01-23 09:54:33.96	352.79	43.05	-43.5	-46.0	15.3	0.00e+00	0	41	0	0	58	4865
2026-01-23 09:54:34.95	352.69	42.77	-43.0	-45.4	15.9	0.00e+00	0	41	0	0	58	4524
2026-01-23 09:54:35.95	352.58	42.50	-42.6	-44.9	16.4	0.00e+00	0	41	0	0	57	4498
2026-01-23 09:54:36.95	352.48	42.22	-42.7	-45.0	16.2	0.00e+00	0	41	0	0	57	4569
2026-01-23 09:54:37.95	352.38	41.95	-41.7	-43.7	17.3	0.00e+00	0	41	0	0	55	4434
2026-01-23 09:54:38.95	352.28	41.68	-41.0	-42.9	18.1	0.00e+00	0	41	0	0	54	4278
2026-01-23 09:54:39.95	352.19	41.41	-40.6	-42.5	18.5	0.00e+00	0	41	0	0	53	4314
2026-01-23 09:54:40.95	352.09	41.15	-40.5	-42.4	18.6	0.00e+00	0	41	0	0	52	4508
2026-01-23 09:54:41.95	352.00	40.88	-40.8	-42.7	18.3	0.00e+00	0	41	0	0	52	4675
2026-01-23 09:54:42.95	351.90	40.62	-41.1	-43.0	18.0	0.00e+00	0	41	0	0	52	4864
2026-01-23 09:54:43.94	351.81	40.36	-41.4	-43.4	17.6	0.00e+00	0	41	0	0	53	4774
2026-01-23 09:54:44.94	351.72	40.11	-41.3	-43.2	17.8	0.00e+00	0	41	0	0	53	4695
2026-01-23 09:54:45.94	351.64	39.85	-41.3	-43.3	17.7	0.00e+00	0	41	0	0	53	4717
2026-01-23 09:54:46.93	351.55	39.60	-41.3	-43.2	17.7	0.00e+00	0	41	0	0	53	4686
2026-01-23 09:54:47.93	351.47	39.34	-41.3	-43.2	17.8	0.00e+00	0	41	0	0	53	4682
2026-01-23 09:54:48.93	351.38	39.09	-41.4	-43.4	17.7	0.00e+00	0	41	0	0	53	4765
2026-01-23 09:54:49.93	351.30	38.84	-41.4	-43.4	17.7	0.00e+00	0	41	0	0	53	4790
2026-01-23 09:54:50.93	351.22	38.60	-41.4	-43.5	17.6	0.00e+00	0	41	0	0	53	4824
2026-01-23 09:54:51.93	351.14	38.35	-41.2	-43.3	17.8	0.00e+00	0	41	0	0	53	4744
2026-01-23 09:54:52.93	351.06	38.10	-41.1	-43.1	18.0	0.00e+00	0	41	0	0	53	4644
2026-01-23 09:54:53.92	350.98	37.86	-40.9	-43.0	18.1	0.00e+00	0	41	0	0	53	4576
2026-01-23 09:54:54.92	350.91	37.62	-40.8	-42.8	18.3	0.00e+00	0	41	0	0	53	4472
2026-01-23 09:54:55.92	350.83	37.38	-40.8	-42.9	18.2	0.00e+00	0	41	0	0	53	4495
2026-01-23 09:54:56.91	350.76	37.15	-40.9	-43.0	18.2	0.00e+00	0	41	0	0	53	4549
2026-01-23 09:54:57.91	350.69	36.91	-41.0	-43.0	18.1	0.00e+00	0	41	0	0	53	4551
2026-01-23 09:54:58.91	350.61	36.68	-40.8	-42.8	18.2	0.00e+00	0	41	0	0	53	4479
2026-01-23 09:54:59.91	350.54	36.45	-40.5	-42.4	18.6	0.00e+00	0	41	0	0	53	4283
2026-01-23 09:55:00.91	350.47	36.21	-40.4	-42.3	18.7	0.00e+00	0	41	0	0	52	4458
2026-01-23 09:55:01.91	350.41	35.98	-40.2	-42.1	18.9	0.00e+00	0	41	0	0	52	4355
2026-01-23 09:55:02.90	350.34	35.76	-40.2	-42.1	18.9	0.00e+00	0	41	0	0	52	4364
2026-01-23 09:55:03.90	350.27	35.53	-40.3	-42.2	18.8	0.00e+00	0	41	0	0	52	4395
2026-01-23 09:55:04.89	350.21	35.31	-40.3	-42.2	18.8	0.00e+00	0	41	0	0	52	4424
2026-01-23 09:55:05.89	350.14	35.09	-40.2	-42.1	18.9	0.00e+00	0	41	0	0	52	4363
2026-01-23 09:55:06.89	350.08	34.86	-40.2	-42.1	18.9	0.00e+00	0	41	0	0	52	4342
2026-01-23 09:55:07.89	350.02	34.64	-40.0	-41.9	19.1	0.00e+00	0	41	0	0	52	4253
2026-01-23 09:55:08.88	349.96	34.43	-40.0	-41.8	19.2	0.00e+00	0	41	0	0	51	4486
2026-01-23 09:55:09.88	349.89	34.21	-39.8	-41.7	19.3	0.00e+00	0	41	0	0	51	4396
2026-01-23 09:55:10.88	349.83	33.99	-39.8	-41.6	19.4	0.00e+00	0	41	0	0	51	4364
2026-01-23 09:55:11.88	349.77	33.78	-39.5	-41.3	19.6	0.00e+00	0	41	0	0	51	4228
2026-01-23 09:55:12.88	349.72	33.57	-39.4	-41.2	19.7	0.00e+00	0	41	0	0	50	4404
2026-01-23 09:55:13.87	349.66	33.36	-39.4	-41.2	19.7	0.00e+00	0	41	0	0	50	4432
2026-01-23 09:55:14.87	349.60	33.15	-39.4	-41.2	19.7	0.00e+00	0	41	0	0	50	4418
2026-01-23 09:55:15.87	349.55	32.94	-39.6	-41.3	19.5	0.00e+00	0	41	0	0	50	4486
2026-01-23 09:55:16.87	349.49	32.73	-39.6	-41.4	19.4	0.00e+00	0	41	0	0	50	4542
2026-01-23 09:55:17.86	349.44	32.53	-39.8	-41.6	19.3	0.00e+00	0	41	0	0	50	4619
2026-01-23 09:55:18.86	349.38	32.32	-39.9	-41.7	19.2	0.00e+00	0	41	0	0	50	4697
2026-01-23 09:55:19.86	349.33	32.12	-39.9	-41.7	19.2	0.00e+00	0	41	0	0	50	4698
2026-01-23 09:55:20.85	349.28	31.92	-39.9	-41.7	18.9	0.00e+00	0	41	0	0	50	4705
2026-01-23 09:55:21.85	349.23	31.72	-39.9	-41.8	19.3	0.00e+00	0	41	0	0	50	4719
2026-01-23 09:55:22.85	349.17	31.52	-39.8	-41.6	19.3	0.00e+00	0	41	0	0	50	4649
2026-01-23 09:55:23.85	349.12	31.32	-39.7	-41.5	19.4	0.00e+00	0	41	0	0	50	4598
2026-01-23 09:55:24.85	349.07	31.13	-39.8	-41.5	19.5	0.00e+00	0	41	0	0	50	4598
2026-01-23 09:55:25.85	349.02	30.93	-39.6	-41.4	19.6	0.00e+00	0	41	0	0	50	4518
2026-01-23 09:55:26.84	348.98	30.74	-39.5	-41.3	19.6	0.00e+00	0	41	0	0	50	4465
2026-01-23 09:55:27.84	348.93	30.55	-39.5	-41.2	19.7	0.00e+00	0	41	0	0	50	4439
2026-01-23 09:55:28.84	348.88	30.36	-39.4	-41.2	19.8	0.00e+00	0	41	0	0	50	4411
2026-01-23 09:55:29.84	348.83	30.17	-39.4	-41.1	19.8	0.00e+00	0	41	0	0	50	4364
2026-01-23 09:55:30.84	348.79	29.98	-39.5	-41.2	19.7	0.00e+00	0	41	0	0	50	4439
2026-01-23 09:55:31.84	348.74	29.79	-39.3	-41.1	19.9	0.00e+00	0	41	0	0	50	4356
2026-01-23 09:55:32.84	348.70	29.60	-39.4	-41.2	19.8	0.00e+00	0	41	0	0	50	4401
2026-01-23 09:55:33.84	348.65	29.42	-39.4	-41.2	19.8	0.00e+00	0	41	0	0	50	4407
2026-01-23 09:55:34.83	348.61	29.23	-39.5	-41.3	19.7	0.00e+00	0	41	0	0	50	4460
2026-01-23 09:55:35.83	348.57	29.05	-39.5	-41.2	19.7	0.00e+00	0	41	0	0	50	4428
2026-01-23 09:55:36.82	348.52	28.87	-39.5	-41.3	19.6	0.00e+00	0	41	0	0	50	4470
2026-01-23 09:55:37.82	348.48	28.69	-39.5	-41.2	19.7	0.00e+00	0	41	0	0	50	4432
2026-01-23 09:55:38.82	348.44	28.51	-39.5	-41.3	19.6	0.00e+00	0	41	0	0	50	4452
2026-01-23 09:55:39.81	348.40	28.33	-39.5	-41.3	19.6	0.00e+00	0	41	0	0	50	4456
2026-01-23 09:55:40.81	348.36	28.16	-39.5	-41.3	19.5	0.00e+00	0	41	0	0	50	4472
2026-01-23 09:55:41.80	348.32	27.98	-39.6	-41.3	19.5	0.00e+00	0	41	0	0	50	4493
2026-01-23 09:55:42.80	348.28	27.81	-39.4	-41.1	19.7	0.00e+00	0	41	0	0	50	4387
2026-01-23 09:55:43.80	348.24	27.63	-39.3	-41.1	19.8	0.00e+00	0	41	0	0	50	4368
2026-01-23 09:55:44.79	348.20	27.46	-39.3	-41.0	19.8	0.00e+00	0	41	0	0	50	4339
2026-01-23 09:55:45.79	348.16	27.29	-39.1	-40.9	20.0	0.00e+00	0	41	0	0	50	4270
2026-01-23 09:55:46.79	348.12	27.12	-39.1	-40.8	20.0	0.00e+00	0	41	0	0	50	4234
2026-01-23 09:55:47.79	348.09	26.95	-39.2	-40.9	20.0	0.00e+00	0	41	0	0	50	4272
2026-01-23 09:55:48.79	348.05	26.78	-39.2	-40.9	20.0	0.00e+00	0	41	0	0	50	4278
2026-01-23 09:55:49.78	348.01	26.62	-38.9	-40.6	20.2	0.00e+00	0	41	0	0	49	4382
2026-01-23 09:55:50.78	347.98	26.45	-38.8	-40.5	20.3	0.00e+00	0	41	0	0	49	4328
2026-01-23 09:55:51.78	347.94	26.28	-38.8	-40.5	20.3	0.00e+00	0	41	0	0	49	4318
2026-01-23 09:55:52.77	347.91	26.12	-38.8	-40.5	20.3	0.00e+00	0	41	0	0	49	4317
2026-01-23 09:55:53.77	347.87	25.96	-38.8	-40.5	20.3	0.00e+00	0	41	0	0	49	4309
2026-01-23 09:55:54.77	347.84	25.79	-38.8	-40.5	20.3	0.00e+00	0	41	0	0	49	4329
2026-01-23 09:55:55.76	347.80	25.63	-38.8	-40.6	20.2	0.00e+00	0	41	0	0	49	4344
2026-01-23 09:55:56.76	347.77	25.47	-38.8	-40.5	20.2	0.00e+00	0	41	0	0	49	4338
2026-01-23 09:55:57.75	347.74	25.32	-38.8	-40.5	20.3	0.00e+00	0	41	0	0	49	4318
2026-01-23 09:55:58.75	347.70	25.16	-38.9	-40.6	20.2	0.00e+00	0	41	0	0	49	4375
2026-01-23 09:55:59.75	347.67	25.00	-38.9	-40.7	20.1	0.00e+00	0	41	0	0	49	4410
2026-01-23 09:56:00.74	347.64	24.84	-38.9	-40.6	20.1	0.00e+00	0	41	0	0	49	4391
2026-01-23 09:56:01.74	347.61	24.69	-38.9	-40.6	20.1	0.00e+00	0	41	0	0	49	4369
2026-01-23 09:56:02.74	347.57	24.53	-38.9	-40.7	20.0	0.00e+00	0	41	0	0	49	4404
2026-01-23 09:56:03.74	347.54	24.38	-39.0	-40.7	20.0	0.00e+00	0	41	0	0	49	4441
2026-01-23 09:56:04.74	347.51	24.22	-39.0	-40.7	20.0	0.00e+00	0	41	0	0	49	4415
2026-01-23 09:56:05.74	347.48	24.07	-39.1	-40.8	19.9	0.00e+00	0	41	0	0	49	4463
2026-01-23 09:56:06.74	347.45	23.92	-39.1	-40.9	19.8	0.00e+00	0	41	0	0	49	4527
2026-01-23 09:56:07.73	347.42	23.77	-39.1	-40.9	19.9	0.00e+00	0	41	0	0	49	4496
2026-01-23 09:56:08.73	347.39	23.62	-39.1	-40.9	19.9	0.00e+00	0	41	0	0	49	4503
2026-01-23 09:56:09.73	347.36	23.47	-39.0	-40.8	19.9	0.00e+00	0	41	0	0	49	4480
2026-01-23 09:56:10.73	347.33	23.32	-39.0	-40.8	19.9	0.00e+00	0	41	0	0	49	4484
2026-01-23 09:56:11.73	347.30	23.18	-39.0	-40.8	19.9	0.00e+00	0	41	0	0	49	4473
2026-01-23 09:56:12.73	347.28	23.03	-38.9	-40.8	20.0	0.00e+00	0	41	0	0	49	4444
2026-01-23 09:56:13.72	347.25	22.89	-38.8	-40.6	20.1	0.00e+00	0	41	0	0	49	4381
2026-01-23 09:56:14.72	347.22	22.74	-38.9	-40.6	20.1	0.00e+00	0	41	0	0	49	4388
2026-01-23 09:56:15.72	347.19	22.60	-38.9	-40.7	20.1	0.00e+00	0	41	0	0	49	4395
2026-01-23 09:56:16.71	347.17	22.46	-38.8	-40.5	20.2	0.00e+00	0	41	0	0	49	4326
2026-01-23 09:56:17.71	347.14	22.31	-38.7	-40.4	20.3	0.00e+00	0	41	0	0	49	4288
2026-01-23 09:56:18.70	347.11	22.17	-38.8	-40.4	20.3	0.00e+00	0	41	0	0	49	4291
2026-01-23 09:56:19.70	347.09	22.03	-38.7	-40.4	20.4	0.00e+00	0	41	0	0	49	4251
2026-01-23 09:56:20.70	347.06	21.89	-38.8	-40.4	20.3	0.00e+00	0	41	0	0	49	4289
2026-01-23 09:56:21.70	347.03	21.75	-38.7	-40.4	20.4	0.00e+00	0	41	0	0	49	4249
2026-01-23 09:56:22.70	347.01	21.61	-38.6	-40.3	20.5	0.00e+00	0	41	0	0	49	4219
2026-01-23 09:56:23.69	346.98	21.48	-38.7	-40.4	20.4	0.00e+00	0	41	0	0	49	4246
2026-01-23 09:56:24.69	346.96	21.34	-38.6	-40.2	20.5	0.00e+00	0	41	0	0	49	4188
2026-01-23 09:56:25.69	346.93	21.20	-38.7	-40.3	20.4	0.00e+00	0	41	0	0	49	4233
2026-01-23 09:56:26.68	346.91	21.07	-38.6	-40.3	20.5	0.00e+00	0	41	0	0	49	4207
2026-01-23 09:56:27.67	346.88	20.94	-38.6	-40.2	20.5	0.00e+00	0	41	0	0	49	4191
2026-01-23 09:56:28.67	346.86	20.80	-38.6	-40.3	20.4	0.00e+00	0	41	0	0	49	4214
2026-01-23 09:56:29.67	346.84	20.67	-38.7	-40.4	20.4	0.00e+00	0	41	0	0	49	4244
2026-01-23 09:56:30.67	346.81	20.54	-38.6	-40.3	20.4	0.00e+00	0	41	0	0	49	4212
2026-01-23 09:56:31.67	346.79	20.40	-38.7	-40.4	20.3	0.00e+00	0	41	0	0	49	4274
2026-01-23 09:56:32.67	346.77	20.27	-38.9	-40.5	20.3	0.00e+00	0	41	0	0	49	4330
2026-01-23 09:56:33.67	346.74	20.14	-38.8	-40.5	20.2	0.00e+00	0	41	0	0	49	4327
2026-01-23 09:56:34.66	346.72	20.01	-38.9	-40.5	20.2	0.00e+00	0	41	0	0	49	4334
2026-01-23 09:56:35.66	346.70	19.88	-39.0	-40.6	20.1	0.00e+00	0	41	0	0	49	4391
2026-01-23 09:56:36.65	346.68	19.76	-38.9	-40.6	20.1	0.00e+00	0	41	0	0	49	4388
2026-01-23 09:56:37.65	346.65	19.63	-39.0	-40.7	20.1	0.00e+00	0	41	0	0	49	4429
2026-01-23 09:56:38.65	346.63	19.50	-39.1	-40.8	19.9	0.00e+00	0	41	0	0	49	4485
2026-01-23 09:56:39.65	346.61	19.37	-39.0	-40.8	20.0	0.00e+00	0	41	0	0	49	4459
2026-01-23 09:56:40.65	346.59	19.25	-39.1	-40.8	20.0	0.00e+00	0	41	0	0	49	4487
2026-01-23 09:56:41.64	346.57	19.12	-39.1	-40.8	19.9	0.00e+00	0	41	0	0	49	4488
2026-01-23 09:56:42.64	346.55	19.00	-39.1	-40.9	19.9	0.00e+00	0	41	0	0	49	4522
2026-01-23 09:56:43.63	346.53	18.88	-39.2	-41.0	19.8	0.00e+00	0	41	0	0	49	4567
2026-01-23 09:56:44.63	346.51	18.75	-39.2	-40.9	19.8	0.00e+00	0	41	0	0	49	4531
2026-01-23 09:56:45.63	346.49	18.63	-39.3	-41.0	19.7	0.00e+00	0	41	0	0	49	4584
2026-01-23 09:56:46.62	346.47	18.51	-39.3	-41.0	19.7	0.00e+00	0	41	0	0	49	4596
2026-01-23 09:56:47.62	346.45	18.39	-39.4	-41.1	19.6	0.00e+00	0	41	0	0	49	4648
2026-01-23 09:56:48.62	346.43	18.26	-39.4	-41.1	19.6	0.00e+00	0	41	0	0	49	4634
2026-01-23 09:56:49.61	346.41	18.14	-39.4	-41.2	19.6	0.00e+00	0	41	0	0	49	4676
2026-01-23 09:56:50.61	346.39	18.02	-39.5	-41.3	19.4	0.00e+00	0	41	0	0	49	4746
2026-01-23 09:56:51.61	346.37	17.91	-39.6	-41.4	19.4	0.00e+00	0	41	0	0	49	4804
2026-01-23 09:56:52.60	346.35	17.79	-39.6	-41.4	19.4	0.00e+00	0	41	0	0	49	4798
2026-01-23 09:56:53.60	346.33	17.67	-39.7	-41.5	19.2	0.00e+00	0	41	0	0	50	4597
2026-01-23 09:56:54.60	346.31	17.55	-39.7	-41.6	19.1	0.00e+00	0	41	0	0	50	4648
2026-01-23 09:56:55.60	346.29	17.43	-39.7	-41.7	19.1	0.00e+00	0	41	0	0	50	4656
2026-01-23 09:56:56.60	346.27	17.32	-39.6	-41.7	19.1	0.00e+00	0	41	0	0	50	4652
2026-01-23 09:56:57.59	346.26	17.20	-39.7	-41.7	19.2	0.00e+00	0	41	0	0	50	4675
2026-01-23 09:56:58.59	346.24	17.09	-39.7	-41.7	19.1	0.00e+00	0	41	0	0	50	4704
2026-01-23 09:56:59.59	346.22	16.97	-39.7	-41.8	19.1	0.00e+00	0	41	0	0	50	4728
2026-01-23 09:57:00.59	346.20	16.86	-39.8	-41.8	19.0	0.00e+00	0	41	0	0	50	4748
2026-01-23 09:57:01.59	346.19	16.74	-39.8	-41.8	19.1	0.00e+00	0	41	0	0	50	4722
2026-01-23 09:57:02.59	346.17	16.63	-39.8	-41.8	19.1	0.00e+00	0	41	0	0	50	4724
2026-01-23 09:57:03.59	346.15	16.52	-39.9	-41.8	19.0	0.00e+00	0	41	0	0	50	4753
2026-01-23 09:57:04.59	346.13	16.40	-39.8	-41.7	19.1	0.00e+00	0	41	0	0	50	4695
2026-01-23 09:57:05.58	346.12	16.29	-39.9	-41.8	19.0	0.00e+00	0	41	0	0	50	4714
2026-01-23 09:57:06.57	346.10	16.18	-39.8	-41.7	19.1	0.00e+00	0	41	0	0	50	4696
2026-01-23 09:57:07.57	346.08	16.07	-39.9	-41.8	19.0	0.00e+00	0	41	0	0	50	4751
2026-01-23 09:57:08.57	346.07	15.96	-39.8	-41.8	19.1	0.00e+00	0	41	0	0	50	4708
2026-01-23 09:57:09.56	346.05	15.85	-39.8	-41.7	19.1	0.00e+00	0	41	0	0	50	4686
2026-01-23 09:57:10.56	346.04	15.74	-39.9	-41.8	19.0	0.00e+00	0	41	0	0	50	4740
2026-01-23 09:57:11.56	346.02	15.64	-39.8	-41.7	19.0	0.00e+00	0	41	0	0	50	4703
2026-01-23 09:57:12.56	346.00	15.53	-39.8	-41.7	19.0	0.00e+00	0	41	0	0	50	4695
2026-01-23 09:57:13.56	345.99	15.42	-39.8	-41.8	19.0	0.00e+00	0	41	0	0	50	4735
2026-01-23 09:57:14.55	345.97	15.31	-39.8	-41.9	18.9	0.00e+00	0	41	0	0	50	4763
2026-01-23 09:57:15.54	345.96	15.21	-39.7	-41.8	19.1	0.00e+00	0	41	0	0	50	4716
2026-01-23 09:57:16.54	345.94	15.10	-39.8	-41.8	19.0	0.00e+00	0	41	0	0	50	4744
2026-01-23 09:57:17.54	345.93	14.99	-39.9	-41.9	18.9	0.00e+00	0	41	0	0	50	4800
2026-01-23 09:57:18.54	345.91	14.89	-39.9	-41.9	18.9	0.00e+00	0	41	0	0	50	4794
2026-01-23 09:57:19.53	345.90	14.78	-39.8	-41.9	18.9	0.00e+00	0	41	0	0	50	4777
2026-01-23 09:57:20.53	345.88	14.68	-39.9	-42.0	18.8	0.00e+00	0	41	0	0	50	4844
2026-01-23 09:57:21.52	345.87	14.58	-39.9	-41.9	18.8	0.00e+00	0	41	0	0	50	4813
2026-01-23 09:57:22.52	345.85	14.47	-40.0	-42.1	18.7	0.00e+00	0	41	0	0	50	4880
2026-01-23 09:57:23.51	345.84	14.37	-40.1	-42.1	18.6	0.00e+00	0	41	0	0	50	4923
2026-01-23 09:57:24.51	345.82	14.27	-40.2	-42.2	18.5	0.00e+00	0	41	0	0	51	4698
2026-01-23 09:57:25.51	345.81	14.16	-40.2	-42.3	18.5	0.00e+00	0	41	0	0	51	4715
2026-01-23 09:57:26.50	345.80	14.06	-40.1	-42.1	18.6	0.00e+00	0	41	0	0	51	4647
2026-01-23 09:57:27.50	345.78	13.96	-40.1	-42.0	18.7	0.00e+00	0	41	0	0	51	4595
2026-01-23 09:57:28.50	345.77	13.86	-40.1	-42.1	18.7	0.00e+00	0	41	0	0	51	4613
2026-01-23 09:57:29.50	345.76	13.76	-40.2	-42.2	18.6	0.00e+00	0	41	0	0	51	4656
2026-01-23 09:57:30.50	345.74	13.66	-40.3	-42.3	18.4	0.00e+00	0	41	0	0	51	4725
2026-01-23 09:57:31.49	345.73	13.56	-40.1	-42.1	18.6	0.00e+00	0	41	0	0	51	4624
2026-01-23 09:57:32.49	345.72	13.46	-40.1	-42.1	18.6	0.00e+00	0	41	0	0	51	4626
2026-01-23 09:57:33.49	345.70	13.36	-40.0	-42.1	18.6	0.00e+00	0	41	0	0	51	4617
2026-01-23 09:57:34.48	345.69	13.26	-40.0	-42.1	18.6	0.00e+00	0	41	0	0	51	4631
2026-01-23 09:57:35.48	345.68	13.17	-40.1	-42.1	18.5	0.00e+00	0	41	0	0	51	4636
2026-01-23 09:57:36.48	345.66	13.07	-40.1	-42.2	18.4	0.00e+00	0	41	0	0	51	4681
2026-01-23 09:57:37.48	345.65	12.97	-40.1	-42.2	18.5	0.00e+00	0	41	0	0	51	4672
2026-01-23 09:57:38.48	345.64	12.87	-40.0	-42.1	18.7	0.00e+00	0	41	0	0	51	4630
2026-01-23 09:57:39.47	345.63	12.78	-40.1	-42.1	18.5	0.00e+00	0	41	0	0	51	4649
2026-01-23 09:57:40.48	345.61	12.68	-40.1	-42.1	18.5	0.00e+00	0	41	0	0	51	4650
2026-01-23 09:57:41.47	345.60	12.58	-40.1	-42.1	18.4	0.00e+00	0	41	0	0	51	4638
2026-01-23 09:57:42.47	345.59	12.49	-40.1	-42.1	18.4	0.00e+00	0	41	0	0	51	4622
2026-01-23 09:57:43.47	345.58	12.39	-40.2	-42.2	18.3	0.00e+00	0	41	0	0	51	4669
2026-01-23 09:57:44.47	345.56	12.30	-40.2	-42.2	18.3	0.00e+00	0	41	0	0	51	4699
2026-01-23 09:57:45.47	345.55	12.20	-40.2	-42.2	18.4	0.00e+00	0	41	0	0	51	4673
2026-01-23 09:57:46.46	345.54	12.11	-40.2	-42.2	18.5	0.00e+00	0	41	0	0	51	4664
2026-01-23 09:57:47.46	345.53	12.02	-40.3	-42.3	18.5	0.00e+00	0	41	0	0	51	4728
2026-01-23 09:57:48.46	345.52	11.92	-40.3	-42.3	18.4	0.00e+00	0	41	0	0	51	4751
2026-01-23 09:57:49.45	345.51	11.83	-40.2	-42.2	18.5	0.00e+00	0	41	0	0	51	4687
2026-01-23 09:57:50.45	345.50	11.74	-40.2	-42.2	18.5	0.00e+00	0	41	0	0	51	4687
2026-01-23 09:57:51.45	345.48	11.65	-40.1	-42.2	18.5	0.00e+00	0	41	0	0	51	4666
2026-01-23 09:57:52.44	345.47	11.55	-40.1	-42.2	18.5	0.00e+00	0	41	0	0	51	4701
2026-01-23 09:57:53.44	345.46	11.46	-40.0	-42.2	18.5	0.00e+00	0	41	0	0	51	4696
2026-01-23 09:57:54.44	345.45	11.37	-40.1	-42.3	18.4	0.00e+00	0	41	0	0	51	4730
2026-01-23 09:57:55.43	345.44	11.28	-40.0	-42.3	18.4	0.00e+00	0	41	0	0	51	4748
2026-01-23 09:57:56.43	345.43	11.19	-39.9	-42.3	18.4	0.00e+00	0	41	0	0	51	4743
2026-01-23 09:57:57.42	345.42	11.10	-39.9	-42.3	18.4	0.00e+00	0	41	0	0	51	4738
2026-01-23 09:57:58.42	345.41	11.01	-39.9	-42.4	18.3	0.00e+00	0	41	0	0	51	4761
2026-01-23 09:57:59.42	345.40	10.92	-40.0	-42.5	18.2	0.00e+00	0	41	0	0	51	4838
2026-01-23 09:58:00.41	345.39	10.83	-40.0	-42.5	18.2	0.00e+00	0	41	0	0	51	4856
2026-01-23 09:58:01.41	345.38	10.74	-39.9	-42.5	18.2	0.00e+00	0	41	0	0	51	4825
2026-01-23 09:58:02.41	345.37	10.65	-40.0	-42.6	18.1	0.00e+00	0	41	0	0	51	4916
2026-01-23 09:58:03.40	345.36	10.57	-40.0	-42.6	18.0	0.00e+00	0	41	0	0	51	4911
2026-01-23 09:58:04.40	345.35	10.48	-40.0	-42.6	18.1	0.00e+00	0	41	0	0	51	4882
2026-01-23 09:58:05.40	345.34	10.39	-40.1	-42.6	18.0	0.00e+00	0	41	0	0	51	4926
2026-01-23 09:58:06.39	345.33	10.30	-40.1	-42.7	17.9	0.00e+00	0	41	0	0	51	4951
2026-01-23 09:58:07.39	345.32	10.22	-40.1	-42.7	17.9	0.00e+00	0	41	0	0	51	4969
2026-01-23 09:58:08.38	345.31	10.13	-40.2	-42.8	17.8	0.00e+00	0	41	0	0	51	5025
2026-01-23 09:58:09.38	345.30	10.04	-40.2	-42.8	17.8	0.00e+00	0	41	0	0	51	5027
2026-01-23 09:58:10.38	345.29	9.96	-40.2	-42.8	17.8	0.00e+00	0	41	0	0	51	5027
2026-01-23 09:58:11.38	345.28	9.87	-40.2	-42.8	17.8	0.00e+00	0	41	0	0	51	5018
2026-01-23 09:58:12.38	345.27	9.79	-40.2	-42.9	17.8	0.00e+00	0	41	0	0	51	5051
2026-01-23 09:58:13.38	345.26	9.70	-40.1	-42.9	17.8	0.00e+00	0	41	0	0	51	5055
2026-01-23 09:58:14.37	345.25	9.62	-40.1	-43.0	17.7	0.00e+00	0	41	0	0	51	5106
2026-01-23 09:58:15.37	345.24	9.53	-40.1	-43.0	17.6	0.00e+00	0	41	0	0	51	5153
2026-01-23 09:58:16.37	345.23	9.45	-40.1	-43.1	17.5	0.00e+00	0	41	0	0	51	5203
2026-01-23 09:58:17.37	345.22	9.36	-40.1	-43.2	17.5	0.00e+00	0	41	0	0	51	5231
2026-01-23 09:58:18.36	345.21	9.28	-40.1	-43.1	17.5	0.00e+00	0	41	0	0	51	5201
2026-01-23 09:58:19.36	345.21	9.19	-40.1	-43.2	17.5	0.00e+00	0	41	0	0	51	5238
2026-01-23 09:58:20.36	345.20	9.11	-40.1	-43.1	17.5	0.00e+00	0	41	0	0	51	5206
2026-01-23 09:58:21.36	345.19	9.03	-40.2	-43.3	17.4	0.00e+00	0	41	0	0	51	5282
2026-01-23 09:58:22.36	345.18	8.95	-46.9	-61.8	3.8	1.49e+00	0	41	104	0	64	21201
2026-01-23 09:58:23.36	345.17	8.86	-47.5	-62.2	3.8	1.49e+00	0	41	104	0	66	19757
2026-01-23 09:58:24.35	345.16	8.78	-47.9	-62.3	3.8	1.49e+00	0	41	104	0	67	18862
2026-01-23 09:58:25.35	345.15	8.70	-49.2	-62.5	3.8	1.49e+00	0	41	104	0	69	17165
2026-01-23 09:58:26.35	345.15	8.62	-48.2	-62.5	3.8	1.49e+00	0	41	104	0	67	19269
2026-01-23 09:58:27.35	345.14	8.54	-49.4	-62.7	3.8	1.49e+00	0	41	104	0	69	17561
2026-01-23 09:58:28.35	345.13	8.45	-49.2	-62.7	3.8	1.49e+00	0	41	104	0	69	17577
2026-01-23 09:58:29.35	345.12	8.37	-49.2	-62.7	3.8	1.49e+00	0	41	104	0	69	17600
2026-01-23 09:58:30.35	345.11	8.29	-48.7	-62.8	3.8	1.49e+00	0	41	104	0	69	17728
2026-01-23 09:58:31.34	345.10	8.21	-49.7	-62.8	3.8	1.49e+00	0	41	104	0	70	16730
2026-01-23 09:58:32.34	345.10	8.13	-49.3	-62.8	3.8	1.49e+00	0	41	104	0	70	16736
2026-01-23 09:58:33.33	345.09	8.05	-49.6	-62.8	3.8	1.49e+00	0	41	104	0	70	16762
2026-01-23 09:58:34.33	345.08	7.97	-49.6	-62.8	3.8	1.49e+00	0	41	104	0	70	16749
2026-01-23 09:58:35.33	345.07	7.89	-49.7	-62.8	3.8	1.49e+00	0	41	104	0	70	16755
2026-01-23 09:58:36.33	345.07	7.81	-49.6	-62.8	3.8	1.49e+00	0	41	104	0	70	16704
2026-01-23 09:58:37.33	345.06	7.74	-49.5	-62.8	3.8	1.49e+00	0	41	104	0	70	16719
2026-01-23 09:58:38.33	345.05	7.66	-49.8	-62.8	3.8	1.49e+00	0	41	104	0	70	16712
2026-01-23 09:58:39.32	345.04	7.58	-49.6	-62.8	3.8	1.49e+00	0	41	104	0	70	16730
2026-01-23 09:58:40.32	345.04	7.50	-49.5	-62.8	3.8	1.49e+00	0	41	104	0	70	16700
2026-01-23 09:58:41.32	345.03	7.42	-49.7	-62.8	3.8	1.49e+00	0	42	104	0	70	16705
2026-01-23 09:58:42.32	345.02	7.35	-49.7	-62.7	3.8	1.49e+00	0	41	104	0	70	16618
2026-01-23 09:58:43.32	345.01	7.27	-49.8	-62.8	3.8	1.49e+00	0	41	104	0	70	16722
2026-01-23 09:58:44.31	345.01	7.19	-49.7	-62.8	3.8	1.49e+00	0	41	104	0	70	16724
2026-01-23 09:58:45.31	345.00	7.11	-49.7	-62.7	3.8	1.49e+00	0	41	104	0	70	16622
2026-01-23 09:58:46.31	344.99	7.04	-49.7	-62.7	3.8	1.49e+00	0	41	104	0	70	16633
2026-01-23 09:58:47.31	344.99	6.96	-49.7	-62.7	3.8	1.49e+00	0	42	104	0	70	16589
2026-01-23 09:58:48.31	344.98	6.88	-49.6	-62.7	3.8	1.49e+00	0	41	104	0	70	16573
2026-01-23 09:58:49.31	344.97	6.81	-49.5	-62.7	3.8	1.49e+00	0	41	104	0	70	16527
