passes_logs/2026/01/23/T1/T1__20260123_084515_KHAYYAM_rec.log

#Pass ID: 20260123_084515_KHAYYAM
#Satellite: KHAYYAM
#Configuration: KHAYYAM_480M
#almurnet v.1.7.20251203
#Start time: 2026-01-23 08:45:16

#Version: 2.0.20230620
#Station: T1
#Location: 37.570604 lon 55.790049 lat
#TLE: 1 53370U 22096A   26022.50444257  .00007758  00000+0  31649-3 0  9992
#TLE: 2 53370  97.3554 289.3799 0001875 107.2390 252.9053 15.24700694192380

#Time	Az	El	Level	Level2	SNR	BER	BlckErr	Temp	State	Recorded	gain1	gain2
2026-01-23 08:45:16.67	199.49	5.11	-50.1	-55.0	3.3	0.00e+00	0	40	0	0	71	25762
2026-01-23 08:45:17.66	199.58	5.18	-50.1	-55.0	3.7	0.00e+00	0	40	104	0	70	27276
2026-01-23 08:45:18.65	199.68	5.25	-50.1	-55.0	3.7	0.00e+00	0	40	104	0	70	27222
2026-01-23 08:45:19.66	199.78	5.33	-50.1	-55.0	3.7	0.00e+00	0	40	104	0	70	27306
2026-01-23 08:45:20.65	199.87	5.40	-50.1	-55.1	3.7	0.00e+00	0	40	104	0	70	27536
2026-01-23 08:45:21.65	199.97	5.48	-50.1	-55.0	3.7	0.00e+00	0	40	104	0	70	27265
2026-01-23 08:45:22.65	200.07	5.55	-50.1	-55.0	3.7	0.00e+00	0	40	104	0	70	27447
2026-01-23 08:45:23.65	200.17	5.63	-50.0	-54.9	3.7	0.00e+00	0	40	104	0	70	27171
2026-01-23 08:45:24.65	200.27	5.70	-50.1	-55.0	3.7	0.00e+00	0	41	104	0	70	27212
2026-01-23 08:45:25.64	200.37	5.78	-50.0	-55.0	3.7	0.00e+00	0	41	104	0	70	27276
2026-01-23 08:45:26.63	200.47	5.85	-50.0	-54.9	3.7	0.00e+00	0	41	104	0	70	27162
2026-01-23 08:45:27.63	200.57	5.93	-50.1	-55.0	3.7	0.00e+00	0	41	104	0	70	27368
2026-01-23 08:45:28.63	200.67	6.01	-50.1	-55.0	3.7	0.00e+00	0	41	104	0	70	27290
2026-01-23 08:45:29.63	200.78	6.08	-50.1	-55.0	3.7	0.00e+00	0	41	104	0	70	27356
2026-01-23 08:45:30.63	200.88	6.16	-50.1	-54.9	3.7	0.00e+00	0	41	104	0	70	27125
2026-01-23 08:45:31.62	200.98	6.24	-50.0	-54.9	3.7	0.00e+00	0	41	104	0	70	27169
2026-01-23 08:45:32.62	201.09	6.31	-50.0	-55.0	3.7	0.00e+00	0	41	104	0	70	27204
2026-01-23 08:45:33.62	201.19	6.39	-50.0	-55.0	3.7	0.00e+00	0	41	104	0	70	27214
2026-01-23 08:45:34.62	201.30	6.47	-50.1	-55.0	3.7	0.00e+00	0	41	104	0	70	27259
2026-01-23 08:45:35.62	201.41	6.55	-50.1	-55.0	3.7	0.00e+00	0	41	104	0	70	27281
2026-01-23 08:45:36.62	201.52	6.63	-50.0	-55.0	3.7	0.00e+00	0	41	104	0	70	27267
2026-01-23 08:45:37.62	201.62	6.70	-50.0	-54.9	3.6	0.00e+00	0	42	104	0	70	27193
2026-01-23 08:45:38.61	201.73	6.78	-50.0	-54.9	3.7	0.00e+00	0	42	104	0	70	27190
2026-01-23 08:45:39.61	201.84	6.86	-50.0	-54.9	3.7	0.00e+00	0	42	104	0	70	27179
2026-01-23 08:45:40.60	201.95	6.94	-50.0	-54.9	3.7	0.00e+00	0	42	104	0	70	27168
2026-01-23 08:45:41.60	202.06	7.02	-50.0	-54.9	3.7	0.00e+00	0	42	104	0	70	27166
2026-01-23 08:45:42.60	202.18	7.10	-50.0	-55.0	3.7	0.00e+00	0	42	104	0	70	27218
2026-01-23 08:45:43.60	202.29	7.18	-50.0	-55.0	3.7	0.00e+00	0	42	104	0	70	27245
2026-01-23 08:45:44.59	202.40	7.26	-50.1	-55.0	3.7	0.00e+00	0	42	104	0	70	27264
2026-01-23 08:45:45.59	202.52	7.34	-50.0	-54.9	3.7	0.00e+00	0	42	104	0	70	27016
2026-01-23 08:45:46.59	202.63	7.42	-50.1	-55.0	3.7	0.00e+00	0	42	104	0	70	27279
2026-01-23 08:45:47.58	202.75	7.50	-50.0	-54.9	3.7	0.00e+00	0	42	104	0	70	27121
2026-01-23 08:45:48.58	202.86	7.58	-50.1	-55.0	3.7	0.00e+00	0	42	104	0	70	27345
2026-01-23 08:45:49.58	202.98	7.66	-50.1	-55.0	3.7	0.00e+00	0	42	104	0	70	27469
2026-01-23 08:45:50.57	203.10	7.74	-50.1	-55.0	3.7	0.00e+00	0	42	104	0	70	27230
2026-01-23 08:45:51.57	203.22	7.83	-50.1	-55.0	3.7	0.00e+00	0	42	104	0	70	27321
2026-01-23 08:45:52.57	203.34	7.91	-50.1	-55.0	3.7	0.00e+00	0	42	104	0	70	27324
2026-01-23 08:45:53.57	203.46	7.99	-50.1	-54.9	3.7	0.00e+00	0	42	104	0	70	27186
2026-01-23 08:45:54.57	203.58	8.07	-50.1	-55.0	3.7	0.00e+00	0	42	104	0	70	27473
2026-01-23 08:45:55.57	203.71	8.16	-50.1	-55.0	3.7	0.00e+00	0	43	104	0	70	27245
2026-01-23 08:45:56.56	203.83	8.24	-50.1	-55.0	3.7	0.00e+00	0	42	104	0	70	27326
2026-01-23 08:45:57.56	203.95	8.32	-50.1	-55.0	3.7	0.00e+00	0	43	104	0	70	27288
2026-01-23 08:45:58.56	204.08	8.41	-50.1	-55.0	3.7	0.00e+00	0	43	104	0	70	27277
2026-01-23 08:45:59.55	204.20	8.49	-50.1	-55.0	3.7	0.00e+00	0	43	104	0	70	27383
2026-01-23 08:46:00.53	204.33	8.58	-50.1	-55.0	3.7	0.00e+00	0	43	104	0	70	27378
2026-01-23 08:46:01.52	204.45	8.66	-50.2	-55.0	3.7	0.00e+00	0	43	104	0	71	25917
2026-01-23 08:46:02.52	204.58	8.74	-50.1	-55.0	3.7	0.00e+00	0	43	104	0	71	25815
2026-01-23 08:46:03.52	204.71	8.83	-50.1	-55.0	3.7	0.00e+00	0	43	104	0	71	25910
2026-01-23 08:46:04.52	204.84	8.92	-50.1	-55.0	3.7	0.00e+00	0	43	104	0	71	25768
2026-01-23 08:46:05.52	204.98	9.00	-50.1	-54.9	3.7	0.00e+00	0	43	104	0	71	25632
2026-01-23 08:46:06.52	205.11	9.09	-50.1	-54.9	3.7	0.00e+00	0	43	104	0	71	25480
2026-01-23 08:46:07.51	205.24	9.17	-50.2	-54.9	3.7	0.00e+00	0	43	104	0	71	25670
2026-01-23 08:46:08.51	205.37	9.26	-50.1	-55.0	3.7	0.00e+00	0	43	104	0	71	25704
2026-01-23 08:46:09.51	205.51	9.35	-50.0	-54.7	3.7	0.00e+00	0	43	104	0	71	25055
2026-01-23 08:46:10.51	205.65	9.44	-50.3	-55.1	3.7	0.00e+00	0	43	104	0	71	26210
2026-01-23 08:46:11.50	205.78	9.52	-50.5	-55.2	3.7	0.00e+00	0	43	104	0	71	26329
2026-01-23 08:46:12.51	205.92	9.61	-50.6	-55.2	3.7	0.00e+00	0	43	104	0	71	26527
2026-01-23 08:46:13.51	206.06	9.70	-50.5	-55.2	3.7	0.00e+00	0	43	104	0	71	26422
2026-01-23 08:46:14.50	206.20	9.79	-50.6	-55.3	3.7	0.00e+00	0	43	104	0	72	25134
2026-01-23 08:46:15.50	206.34	9.88	-50.9	-55.5	3.7	0.00e+00	0	43	104	0	72	25925
2026-01-23 08:46:16.50	206.49	9.97	-50.8	-55.5	3.7	0.00e+00	0	43	104	0	72	25953
2026-01-23 08:46:17.49	206.63	10.06	-50.6	-55.4	3.7	0.00e+00	0	43	104	0	72	25450
2026-01-23 08:46:18.49	206.77	10.15	-50.9	-55.8	3.7	0.00e+00	0	43	104	0	72	26737
2026-01-23 08:46:19.49	206.92	10.24	-51.1	-55.9	3.7	0.00e+00	0	43	104	0	72	26956
2026-01-23 08:46:20.49	207.07	10.33	-51.0	-55.8	3.7	0.00e+00	0	43	104	0	72	26854
2026-01-23 08:46:21.49	207.21	10.42	-50.9	-55.8	3.7	0.00e+00	0	44	104	0	72	26583
2026-01-23 08:46:22.48	207.36	10.51	-51.2	-56.0	3.7	0.00e+00	0	43	104	0	73	25728
2026-01-23 08:46:23.48	207.51	10.60	-51.3	-56.1	3.7	0.00e+00	0	44	104	0	73	25990
2026-01-23 08:46:24.48	207.66	10.69	-51.3	-56.0	3.7	0.00e+00	0	44	104	0	73	25948
2026-01-23 08:46:25.48	207.82	10.78	-51.3	-56.0	3.7	0.00e+00	0	44	104	0	73	25972
2026-01-23 08:46:26.47	207.97	10.88	-51.3	-56.1	3.7	0.00e+00	0	44	104	0	73	26027
2026-01-23 08:46:27.47	208.12	10.97	-51.5	-56.1	3.7	0.00e+00	0	44	104	0	73	26236
2026-01-23 08:46:28.47	208.28	11.06	-51.4	-56.1	3.7	0.00e+00	0	43	104	0	73	26060
2026-01-23 08:46:29.47	208.44	11.16	-51.4	-56.1	3.7	0.00e+00	0	44	104	0	73	26125
2026-01-23 08:46:30.46	208.59	11.25	-51.5	-56.2	3.7	0.00e+00	0	44	104	0	73	26431
2026-01-23 08:46:31.46	208.75	11.34	-51.7	-56.4	3.7	0.00e+00	0	44	104	0	74	25545
2026-01-23 08:46:32.46	208.91	11.44	-51.6	-56.3	3.7	0.00e+00	0	44	104	0	74	25161
2026-01-23 08:46:33.46	209.08	11.53	-51.5	-56.2	3.6	0.00e+00	0	44	104	0	74	24847
2026-01-23 08:46:34.45	209.24	11.63	-51.6	-56.2	3.7	0.00e+00	0	44	104	0	74	25008
2026-01-23 08:46:35.44	209.40	11.72	-51.7	-56.3	3.7	0.00e+00	0	44	104	0	74	25191
2026-01-23 08:46:36.44	209.57	11.82	-51.8	-56.3	3.7	0.00e+00	0	44	104	0	74	25293
2026-01-23 08:46:37.43	209.73	11.91	-51.7	-56.3	3.7	0.00e+00	0	44	104	0	74	25172
2026-01-23 08:46:38.43	209.90	12.01	-51.9	-56.4	3.7	0.00e+00	0	44	104	0	74	25650
2026-01-23 08:46:39.43	210.07	12.10	-52.2	-56.7	3.7	0.00e+00	0	44	104	0	75	24932
2026-01-23 08:46:40.43	210.24	12.20	-52.2	-56.6	3.7	0.00e+00	0	44	104	0	75	24665
2026-01-23 08:46:41.43	210.41	12.30	-52.0	-56.5	3.7	0.00e+00	0	44	104	0	75	24418
2026-01-23 08:46:42.42	210.59	12.39	-52.1	-56.6	3.7	0.00e+00	0	44	104	0	75	24586
2026-01-23 08:46:43.42	210.76	12.49	-52.2	-56.8	3.7	0.00e+00	0	44	104	0	75	25139
2026-01-23 08:46:44.42	210.94	12.59	-52.2	-56.7	3.7	0.00e+00	0	44	104	0	75	24912
2026-01-23 08:46:45.42	211.12	12.69	-52.1	-56.6	3.7	0.00e+00	0	44	104	0	75	24721
2026-01-23 08:46:46.42	211.29	12.79	-52.2	-56.7	3.7	0.00e+00	0	44	104	0	75	25012
2026-01-23 08:46:47.41	211.47	12.88	-52.3	-56.9	3.7	0.00e+00	0	44	104	0	75	25463
2026-01-23 08:46:48.41	211.66	12.98	-52.3	-56.8	3.7	0.00e+00	0	44	104	0	75	25157
2026-01-23 08:46:49.41	211.84	13.08	-52.2	-56.7	3.7	0.00e+00	0	44	104	0	75	24973
2026-01-23 08:46:50.41	212.02	13.18	-52.3	-56.8	3.7	0.00e+00	0	44	104	0	75	25196
2026-01-23 08:46:51.41	212.21	13.28	-52.3	-56.9	3.7	0.00e+00	0	44	104	0	75	25633
2026-01-23 08:46:52.40	212.40	13.38	-52.2	-56.8	3.7	0.00e+00	0	44	104	0	75	25119
2026-01-23 08:46:53.40	212.59	13.48	-52.3	-56.8	3.7	0.00e+00	0	44	104	0	75	25318
2026-01-23 08:46:54.40	212.78	13.59	-52.0	-56.7	3.7	0.00e+00	0	44	104	0	75	24860
2026-01-23 08:46:55.39	212.97	13.69	-52.0	-56.7	3.7	0.00e+00	0	44	104	0	75	24965
2026-01-23 08:46:56.39	213.16	13.79	-52.0	-56.6	3.7	0.00e+00	0	44	104	0	75	24687
2026-01-23 08:46:57.39	213.36	13.89	-51.9	-56.6	3.7	0.00e+00	0	44	104	0	75	24524
2026-01-23 08:46:58.39	213.56	13.99	-43.8	-45.0	9.9	1.01e-01	0	45	0	0	59	16348
2026-01-23 08:46:59.38	213.75	14.09	-40.2	-41.2	13.2	2.70e-02	0	45	0	67108864	51	16771
2026-01-23 08:47:00.39	213.96	14.20	-38.9	-40.0	14.2	2.54e-05	0	45	0	125829120	49	16222
2026-01-23 08:47:01.38	214.16	14.30	-38.7	-39.7	14.5	0.00e+00	0	45	0	184549376	48	16708
2026-01-23 08:47:02.38	214.36	14.40	-37.4	-38.3	15.1	0.00e+00	0	45	0	243269632	46	15967
2026-01-23 08:47:03.38	214.57	14.51	-35.3	-36.2	16.6	0.00e+00	0	45	0	301989888	42	15826
2026-01-23 08:47:04.38	214.77	14.61	-34.2	-35.1	17.3	0.00e+00	0	45	0	360710144	40	15498
2026-01-23 08:47:05.37	214.98	14.72	-33.4	-34.3	17.8	0.00e+00	0	45	0	427819008	38	15918
2026-01-23 08:47:06.36	215.19	14.82	-32.0	-32.9	18.6	0.00e+00	0	45	0	478150656	36	15133
2026-01-23 08:47:07.36	215.40	14.92	-30.1	-31.0	18.5	0.00e+00	0	45	0	536870912	32	15323
2026-01-23 08:47:08.35	215.61	15.03	-29.5	-30.4	18.6	0.00e+00	0	45	0	603979776	31	15123
2026-01-23 08:47:09.34	215.83	15.13	-28.8	-29.7	19.0	0.00e+00	0	45	0	662700032	29	15750
2026-01-23 08:47:10.34	216.05	15.24	-28.6	-29.5	19.2	0.00e+00	0	45	0	721420288	29	15354
2026-01-23 08:47:11.33	216.26	15.34	-28.5	-29.4	19.3	0.00e+00	0	45	0	780140544	29	15125
2026-01-23 08:47:12.33	216.48	15.45	-28.6	-29.5	19.3	0.00e+00	0	45	0	838860800	29	15376
2026-01-23 08:47:13.33	216.71	15.56	-28.4	-29.3	19.4	0.00e+00	0	45	0	897581056	28	15868
2026-01-23 08:47:14.33	216.93	15.66	-28.4	-29.2	19.4	0.00e+00	0	45	0	964689920	28	15792
2026-01-23 08:47:15.32	217.16	15.77	-28.4	-29.3	19.2	0.00e+00	0	45	0	1023410176	28	15925
2026-01-23 08:47:16.32	217.39	15.88	-28.4	-29.3	19.4	0.00e+00	0	45	0	1082130432	28	15873
2026-01-23 08:47:17.32	217.62	15.98	-28.3	-29.2	19.4	0.00e+00	0	45	0	1140850688	28	15697
2026-01-23 08:47:18.32	217.85	16.09	-28.3	-29.2	19.4	0.00e+00	0	45	0	1199570944	28	15719
2026-01-23 08:47:19.32	218.08	16.20	-28.2	-29.1	19.5	0.00e+00	0	45	0	1258291200	28	15491
2026-01-23 08:47:20.31	218.32	16.31	-28.1	-29.0	19.6	0.00e+00	0	45	0	1317011456	28	15397
2026-01-23 08:47:21.31	218.56	16.41	-28.2	-29.1	19.6	0.00e+00	0	45	0	1375731712	28	15524
2026-01-23 08:47:22.31	218.80	16.52	-28.0	-28.9	19.6	0.00e+00	0	45	0	1434451968	28	15136
2026-01-23 08:47:23.31	219.04	16.63	-28.1	-28.9	19.4	0.00e+00	0	46	0	1501560832	28	15223
2026-01-23 08:47:24.30	219.28	16.74	-28.1	-28.9	19.4	0.00e+00	0	45	0	1560281088	28	15254
2026-01-23 08:47:25.30	219.53	16.85	-28.0	-28.9	19.5	0.00e+00	0	46	0	1619001344	28	15167
2026-01-23 08:47:26.30	219.78	16.96	-28.0	-28.9	19.5	0.00e+00	0	46	0	1677721600	28	15123
2026-01-23 08:47:27.29	220.02	17.07	-28.0	-28.8	19.8	0.00e+00	0	45	0	1736441856	27	15963
2026-01-23 08:47:28.29	220.28	17.18	-27.9	-28.8	19.8	0.00e+00	0	46	0	1795162112	27	15893
2026-01-23 08:47:29.29	220.53	17.29	-28.0	-28.9	19.6	0.00e+00	0	46	0	1853882368	27	16052
2026-01-23 08:47:30.29	220.79	17.40	-28.1	-28.9	19.6	0.00e+00	0	46	0	1920991232	27	16162
2026-01-23 08:47:31.29	221.05	17.51	-27.7	-28.6	19.8	0.00e+00	0	46	0	1979711488	27	15568
2026-01-23 08:47:32.29	221.31	17.62	-27.7	-28.6	19.9	0.00e+00	0	45	0	2038431744	27	15477
2026-01-23 08:47:33.28	221.57	17.73	-27.6	-28.5	20.0	0.00e+00	0	46	0	2097152000	27	15326
2026-01-23 08:47:34.28	221.84	17.84	-27.6	-28.4	20.0	0.00e+00	0	46	0	2155872256	27	15288
2026-01-23 08:47:35.28	222.10	17.95	-27.7	-28.5	19.8	0.00e+00	0	46	0	2214592512	27	15450
2026-01-23 08:47:36.28	222.37	18.06	-27.6	-28.4	19.9	0.00e+00	0	46	0	2281701376	27	15266
2026-01-23 08:47:37.28	222.65	18.17	-27.6	-28.4	19.9	0.00e+00	0	46	0	2340421632	27	15249
2026-01-23 08:47:38.28	222.92	18.28	-27.5	-28.4	20.0	0.00e+00	0	46	0	2399141888	27	15163
2026-01-23 08:47:39.28	223.20	18.39	-27.6	-28.5	20.0	0.00e+00	0	46	0	2457862144	27	15297
2026-01-23 08:47:40.28	223.48	18.50	-27.3	-28.1	20.2	0.00e+00	0	46	0	2516582400	26	15573
2026-01-23 08:47:41.27	223.76	18.61	-27.3	-28.1	20.0	0.00e+00	0	46	0	2575302656	26	15636
2026-01-23 08:47:42.27	224.04	18.72	-27.2	-28.1	20.1	0.00e+00	0	46	0	2634022912	26	15569
2026-01-23 08:47:43.26	224.33	18.83	-27.3	-28.1	20.0	0.00e+00	0	46	0	2692743168	26	15649
2026-01-23 08:47:44.26	224.61	18.94	-27.2	-28.0	20.1	0.00e+00	0	46	0	2751463424	26	15466
2026-01-23 08:47:45.25	224.90	19.05	-27.1	-27.9	20.2	0.00e+00	0	46	0	2818572288	26	15222
2026-01-23 08:47:46.25	225.20	19.17	-27.1	-28.0	20.1	0.00e+00	0	46	0	2877292544	26	15351
2026-01-23 08:47:47.25	225.49	19.28	-27.1	-27.9	20.1	0.00e+00	0	46	0	2936012800	26	15277
2026-01-23 08:47:48.25	225.79	19.39	-27.1	-27.9	20.1	0.00e+00	0	46	0	2994733056	26	15272
2026-01-23 08:47:49.24	226.09	19.50	-27.0	-27.8	20.2	0.00e+00	0	46	0	3053453312	25	16001
2026-01-23 08:47:50.24	226.39	19.61	-26.9	-27.8	20.3	0.00e+00	0	46	0	3112173568	25	15898
2026-01-23 08:47:51.24	226.70	19.72	-26.9	-27.8	20.2	0.00e+00	0	46	0	3170893824	25	15866
2026-01-23 08:47:52.23	227.00	19.83	-26.9	-27.7	20.3	0.00e+00	0	46	0	3238002688	25	15800
2026-01-23 08:47:53.23	227.31	19.94	-26.7	-27.5	20.4	0.00e+00	0	46	0	3296722944	25	15462
2026-01-23 08:47:54.23	227.63	20.05	-26.6	-27.5	20.4	0.00e+00	0	46	0	3355443200	25	15374
2026-01-23 08:47:55.23	227.94	20.16	-26.7	-27.5	20.4	0.00e+00	0	46	0	3414163456	25	15470
2026-01-23 08:47:56.23	228.26	20.27	-26.8	-27.6	20.2	0.00e+00	0	46	0	3472883712	25	15637
2026-01-23 08:47:57.22	228.58	20.38	-26.6	-27.4	20.4	0.00e+00	0	46	0	3531603968	25	15224
2026-01-23 08:47:58.21	228.90	20.49	-26.6	-27.4	20.4	0.00e+00	0	46	0	3590324224	25	15207
2026-01-23 08:47:59.21	229.23	20.60	-26.6	-27.4	20.4	0.00e+00	0	46	0	3649044480	25	15284
2026-01-23 08:48:00.21	229.56	20.71	-26.7	-27.6	20.2	0.00e+00	0	46	0	3716153344	25	15479
2026-01-23 08:48:01.20	229.88	20.81	-26.5	-27.4	20.3	0.00e+00	0	46	0	3774873600	25	15201
2026-01-23 08:48:02.20	230.22	20.92	-26.6	-27.5	20.4	0.00e+00	0	46	0	3833593856	25	15322
2026-01-23 08:48:03.19	230.55	21.03	-26.4	-27.2	20.5	0.00e+00	0	46	0	3892314112	24	15832
2026-01-23 08:48:04.19	230.89	21.14	-26.5	-27.3	20.2	0.00e+00	0	46	0	3951034368	24	16011
2026-01-23 08:48:05.19	231.23	21.25	-26.3	-27.1	20.5	0.00e+00	0	46	0	4009754624	24	15585
2026-01-23 08:48:06.18	231.57	21.35	-26.3	-27.2	20.4	0.00e+00	0	46	0	4068474880	24	15705
2026-01-23 08:48:07.18	231.92	21.46	-26.3	-27.1	20.5	0.00e+00	0	46	0	4135583744	24	15640
2026-01-23 08:48:08.17	232.27	21.56	-26.3	-27.2	20.3	0.00e+00	0	46	0	4194304000	24	15749
2026-01-23 08:48:09.16	232.62	21.67	-26.1	-27.0	20.5	0.00e+00	0	46	0	4253024256	24	15337
2026-01-23 08:48:10.14	232.97	21.77	-26.2	-27.1	20.5	0.00e+00	0	46	0	4311744512	24	15523
2026-01-23 08:48:11.14	233.32	21.88	-26.3	-27.1	20.5	0.00e+00	0	46	0	4370464768	24	15622
2026-01-23 08:48:12.13	233.68	21.98	-26.0	-26.9	20.4	0.00e+00	0	46	0	4429185024	24	15178
2026-01-23 08:48:13.13	234.05	22.09	-26.0	-26.9	20.5	0.00e+00	0	46	0	4487905280	24	15144
2026-01-23 08:48:14.13	234.41	22.19	-26.1	-27.0	20.5	0.00e+00	0	46	0	4546625536	24	15366
2026-01-23 08:48:15.12	234.78	22.29	-26.2	-27.0	20.6	0.00e+00	0	46	0	4605345792	24	15411
2026-01-23 08:48:16.12	235.15	22.40	-26.0	-26.8	20.6	0.00e+00	0	46	0	4672454656	23	15929
2026-01-23 08:48:17.11	235.52	22.50	-25.9	-26.8	20.6	0.00e+00	0	46	0	4731174912	23	15917
2026-01-23 08:48:18.11	235.90	22.60	-26.1	-27.0	20.5	0.00e+00	0	46	0	4789895168	23	16246
2026-01-23 08:48:19.11	236.28	22.70	-25.7	-26.6	21.0	0.00e+00	0	46	0	4848615424	23	15515
2026-01-23 08:48:20.11	236.66	22.80	-25.8	-26.6	20.8	0.00e+00	0	46	0	4907335680	23	15616
2026-01-23 08:48:21.11	237.04	22.90	-25.8	-26.6	20.8	0.00e+00	0	46	0	4966055936	23	15587
2026-01-23 08:48:22.11	237.43	23.00	-25.8	-26.6	20.8	0.00e+00	0	46	0	5033164800	23	15612
2026-01-23 08:48:23.11	237.82	23.09	-25.7	-26.5	20.8	0.00e+00	0	46	0	5091885056	23	15426
2026-01-23 08:48:24.10	238.21	23.19	-25.7	-26.6	20.8	0.00e+00	0	46	0	5150605312	23	15482
2026-01-23 08:48:25.10	238.61	23.29	-25.7	-26.5	20.8	0.00e+00	0	46	0	5209325568	23	15407
2026-01-23 08:48:26.09	239.00	23.38	-25.5	-26.3	21.1	0.00e+00	0	46	0	5268045824	23	15027
2026-01-23 08:48:27.09	239.41	23.47	-25.6	-26.4	20.8	0.00e+00	0	46	0	5326766080	22	16146
2026-01-23 08:48:28.09	239.81	23.57	-25.6	-26.4	20.9	0.00e+00	0	46	0	5385486336	22	16117
2026-01-23 08:48:29.09	240.22	23.66	-25.6	-26.5	20.9	0.00e+00	0	46	0	5444206592	22	16208
2026-01-23 08:48:30.08	240.62	23.75	-25.4	-26.3	20.8	0.00e+00	0	46	0	5502926848	22	15898
2026-01-23 08:48:31.08	241.03	23.84	-25.5	-26.3	20.9	0.00e+00	0	46	0	5570035712	22	15964
2026-01-23 08:48:32.08	241.45	23.93	-25.4	-26.3	21.0	0.00e+00	0	46	0	5628755968	22	15909
2026-01-23 08:48:33.08	241.87	24.02	-25.4	-26.2	20.9	0.00e+00	0	46	0	5687476224	22	15738
2026-01-23 08:48:34.08	242.29	24.11	-25.4	-26.2	20.9	0.00e+00	0	46	0	5746196480	22	15811
2026-01-23 08:48:35.07	242.70	24.19	-25.4	-26.2	21.0	0.00e+00	0	46	0	5804916736	22	15795
2026-01-23 08:48:36.07	243.13	24.28	-25.2	-26.0	21.2	0.00e+00	0	46	0	5863636992	22	15424
2026-01-23 08:48:37.07	243.56	24.36	-25.3	-26.1	21.1	0.00e+00	0	46	0	5922357248	22	15606
2026-01-23 08:48:38.07	243.99	24.45	-25.3	-26.2	21.1	0.00e+00	0	46	0	5989466112	22	15664
2026-01-23 08:48:39.06	244.41	24.53	-25.3	-26.2	21.2	0.00e+00	0	46	0	6048186368	22	15679
2026-01-23 08:48:40.06	244.85	24.61	-25.2	-26.0	21.2	0.00e+00	0	46	0	6106906624	22	15442
2026-01-23 08:48:41.06	245.29	24.69	-25.2	-26.1	21.2	0.00e+00	0	46	0	6165626880	22	15527
2026-01-23 08:48:42.05	245.72	24.76	-25.3	-26.2	21.2	0.00e+00	0	46	0	6224347136	22	15712
2026-01-23 08:48:43.05	246.16	24.84	-25.1	-25.9	21.3	0.00e+00	0	47	0	6283067392	22	15261
2026-01-23 08:48:44.05	246.61	24.91	-25.2	-26.1	21.2	0.00e+00	0	46	0	6341787648	22	15499
2026-01-23 08:48:45.04	247.05	24.99	-25.3	-26.1	21.2	0.00e+00	0	46	0	6400507904	22	15614
2026-01-23 08:48:46.04	247.50	25.06	-25.1	-25.9	21.1	0.00e+00	0	46	0	6459228160	22	15218
2026-01-23 08:48:47.04	247.95	25.13	-25.1	-25.9	21.1	0.00e+00	0	46	0	6526337024	22	15261
2026-01-23 08:48:48.03	248.40	25.20	-25.2	-26.0	21.0	0.00e+00	0	46	0	6585057280	22	15412
2026-01-23 08:48:49.03	248.85	25.27	-25.1	-25.9	21.2	0.00e+00	0	47	0	6643777536	22	15226
2026-01-23 08:48:50.04	249.32	25.33	-25.1	-26.0	21.3	0.00e+00	0	46	0	6702497792	22	15311
2026-01-23 08:48:51.03	249.77	25.40	-25.2	-26.0	21.3	0.00e+00	0	47	0	6761218048	22	15391
2026-01-23 08:48:52.03	250.23	25.46	-24.9	-25.8	21.3	0.00e+00	0	46	0	6819938304	21	15853
2026-01-23 08:48:53.03	250.70	25.52	-25.0	-25.9	21.2	0.00e+00	0	46	0	6887047168	21	16033
2026-01-23 08:48:54.03	251.16	25.58	-25.1	-26.0	21.2	0.00e+00	0	46	0	6945767424	21	16252
2026-01-23 08:48:55.03	251.63	25.64	-24.8	-25.6	21.4	0.00e+00	0	46	0	7004487680	21	15611
2026-01-23 08:48:56.02	252.09	25.70	-25.0	-25.8	21.3	0.00e+00	0	46	0	7063207936	21	15913
2026-01-23 08:48:57.02	252.56	25.75	-25.0	-25.8	21.2	0.00e+00	0	46	0	7121928192	21	15974
2026-01-23 08:48:58.02	253.04	25.80	-25.0	-25.8	21.2	0.00e+00	0	46	0	7180648448	21	15950
2026-01-23 08:48:59.01	253.51	25.85	-24.7	-25.6	21.4	0.00e+00	0	46	0	7239368704	21	15491
2026-01-23 08:49:00.01	253.98	25.90	-24.8	-25.7	21.2	0.00e+00	0	46	0	7306477568	21	15706
2026-01-23 08:49:01.01	254.46	25.95	-24.9	-25.8	21.2	0.00e+00	0	46	0	7365197824	21	15873
2026-01-23 08:49:02.00	254.94	26.00	-24.7	-25.5	21.5	0.00e+00	0	47	0	7423918080	21	15421
2026-01-23 08:49:03.00	255.42	26.04	-24.8	-25.6	21.3	0.00e+00	0	47	0	7482638336	21	15606
2026-01-23 08:49:04.00	255.90	26.08	-24.9	-25.8	21.2	0.00e+00	0	46	0	7541358592	21	15882
2026-01-23 08:49:05.00	256.38	26.12	-24.7	-25.5	21.6	0.00e+00	0	47	0	7600078848	21	15353
2026-01-23 08:49:05.99	256.86	26.16	-24.8	-25.7	21.4	0.00e+00	0	47	0	7658799104	21	15691
2026-01-23 08:49:07.00	257.35	26.20	-25.0	-25.9	21.3	0.00e+00	0	47	0	7717519360	21	16043
2026-01-23 08:49:07.99	257.83	26.23	-24.9	-25.7	21.3	0.00e+00	0	47	0	7776239616	21	15798
2026-01-23 08:49:08.99	258.32	26.26	-24.7	-25.6	21.3	0.00e+00	0	46	0	7843348480	21	15496
2026-01-23 08:49:09.98	258.81	26.29	-24.8	-25.7	21.3	0.00e+00	0	46	0	7902068736	21	15710
2026-01-23 08:49:10.98	259.30	26.32	-25.1	-25.9	21.1	0.00e+00	0	46	0	7960788992	21	16168
2026-01-23 08:49:11.97	259.78	26.35	-24.7	-25.6	21.5	0.00e+00	0	47	0	8019509248	21	15530
2026-01-23 08:49:12.97	260.28	26.37	-24.9	-25.8	21.4	0.00e+00	0	46	0	8078229504	21	15843
2026-01-23 08:49:13.97	260.77	26.40	-25.0	-25.8	21.1	0.00e+00	0	46	0	8136949760	21	15943
2026-01-23 08:49:14.96	261.26	26.42	-24.8	-25.6	21.4	0.00e+00	0	47	0	8204058624	21	15548
2026-01-23 08:49:15.96	261.75	26.43	-25.2	-26.0	21.1	0.00e+00	0	47	0	8262778880	21	16373
2026-01-23 08:49:16.96	262.25	26.45	-25.0	-25.8	21.4	0.00e+00	0	46	0	8321499136	21	15934
2026-01-23 08:49:17.95	262.74	26.46	-24.6	-25.4	21.7	0.00e+00	0	46	0	8380219392	21	15289
2026-01-23 08:49:18.95	263.23	26.48	-24.9	-25.7	21.5	0.00e+00	0	46	0	8438939648	21	15722
2026-01-23 08:49:19.96	263.73	26.49	-24.9	-25.8	21.5	0.00e+00	0	47	0	8497659904	21	15851
2026-01-23 08:49:20.95	264.22	26.49	-24.7	-25.5	21.8	0.00e+00	0	47	0	8556380160	21	15345
2026-01-23 08:49:21.95	264.72	26.50	-24.8	-25.6	21.7	0.00e+00	0	47	0	8623489024	21	15599
2026-01-23 08:49:22.94	265.21	26.50	-25.0	-25.8	21.6	0.00e+00	0	46	0	8673820672	21	15921
2026-01-23 08:49:23.94	265.71	26.51	-25.1	-25.9	21.6	0.00e+00	0	46	0	8740929536	21	16175
2026-01-23 08:49:24.94	266.20	26.50	-24.7	-25.6	21.7	0.00e+00	0	47	0	8799649792	21	15544
2026-01-23 08:49:25.94	266.70	26.50	-24.8	-25.7	21.6	0.00e+00	0	47	0	8858370048	21	15728
2026-01-23 08:49:26.94	267.20	26.50	-25.2	-26.0	21.4	0.00e+00	0	47	0	8917090304	21	16364
2026-01-23 08:49:27.93	267.69	26.49	-24.8	-25.6	21.7	0.00e+00	0	46	0	8975810560	21	15610
2026-01-23 08:49:28.93	268.18	26.48	-24.9	-25.8	21.6	0.00e+00	0	47	0	9034530816	21	15875
2026-01-23 08:49:29.93	268.68	26.47	-25.1	-25.9	21.4	0.00e+00	0	46	0	9093251072	21	16180
2026-01-23 08:49:30.93	269.17	26.46	-24.9	-25.7	21.6	0.00e+00	0	47	0	9160359936	21	15776
2026-01-23 08:49:31.93	269.67	26.44	-25.6	-26.4	21.3	0.00e+00	0	47	0	9219080192	21	17103
2026-01-23 08:49:32.93	270.16	26.43	-25.2	-26.0	21.5	0.00e+00	0	46	0	9277800448	21	16330
2026-01-23 08:49:33.93	270.66	26.41	-24.9	-25.7	21.7	0.00e+00	0	46	0	9336520704	21	15797
2026-01-23 08:49:34.92	271.14	26.39	-25.0	-25.9	21.6	0.00e+00	0	47	0	9395240960	21	16058
2026-01-23 08:49:35.92	271.63	26.36	-25.1	-26.0	21.5	0.00e+00	0	47	0	9453961216	21	16252
2026-01-23 08:49:36.91	272.12	26.34	-26.0	-26.9	20.9	0.00e+00	0	46	0	9521070080	22	16978
2026-01-23 08:49:37.91	272.61	26.31	-25.1	-26.0	21.4	0.00e+00	0	46	0	9579790336	22	15301
2026-01-23 08:49:38.91	273.10	26.28	-25.2	-26.1	21.5	0.00e+00	0	47	0	9638510592	22	15537
2026-01-23 08:49:39.91	273.59	26.25	-25.3	-26.1	21.4	0.00e+00	0	47	0	9697230848	22	15626
2026-01-23 08:49:40.91	274.07	26.22	-25.6	-26.5	21.3	0.00e+00	0	47	0	9755951104	22	16233
2026-01-23 08:49:41.90	274.56	26.18	-25.2	-26.1	21.6	0.00e+00	0	47	0	9814671360	22	15516
2026-01-23 08:49:42.90	275.04	26.14	-25.3	-26.1	21.5	0.00e+00	0	47	0	9873391616	22	15590
2026-01-23 08:49:43.90	275.52	26.10	-25.5	-26.3	21.4	0.00e+00	0	47	0	9940500480	22	15885
2026-01-23 08:49:44.90	276.01	26.06	-25.7	-26.5	21.2	0.00e+00	0	46	0	9999220736	22	16378
2026-01-23 08:49:45.90	276.49	26.02	-25.3	-26.1	21.5	0.00e+00	0	47	0	10057940992	22	15533
2026-01-23 08:49:46.90	276.96	25.98	-52.8	-57.2	3.7	0.00e+00	0	46	104	10091495424	76	24915
2026-01-23 08:49:47.89	277.44	25.93	-52.8	-57.3	3.7	0.00e+00	0	46	104	10091495424	76	25201
2026-01-23 08:49:48.89	277.91	25.88	-52.5	-57.0	3.7	0.00e+00	0	46	104	10091495424	76	24458
2026-01-23 08:49:49.89	278.39	25.83	-52.4	-56.9	3.7	0.00e+00	0	46	104	10091495424	76	23970
2026-01-23 08:49:50.89	278.86	25.78	-52.3	-56.7	3.7	0.00e+00	0	46	104	10091495424	76	23562
2026-01-23 08:49:51.89	279.33	25.73	-52.2	-56.7	3.7	0.00e+00	0	46	104	10091495424	76	23539
2026-01-23 08:49:52.89	279.80	25.67	-52.6	-57.1	3.7	0.00e+00	0	46	104	10091495424	76	24628
2026-01-23 08:49:53.88	280.26	25.61	-52.7	-57.0	3.7	0.00e+00	0	46	104	10091495424	76	24384
2026-01-23 08:49:54.88	280.73	25.56	-52.8	-57.2	3.7	0.00e+00	0	46	104	10091495424	76	25009
2026-01-23 08:49:55.88	281.19	25.50	-52.7	-57.2	3.7	0.00e+00	0	46	104	10091495424	76	24989
2026-01-23 08:49:56.88	281.65	25.43	-52.9	-57.4	3.7	0.00e+00	0	46	104	10091495424	76	25494
2026-01-23 08:49:57.87	282.11	25.37	-52.9	-57.3	3.7	0.00e+00	0	46	104	10091495424	76	25145
2026-01-23 08:49:58.87	282.56	25.30	-52.9	-57.3	3.7	0.00e+00	0	46	104	10091495424	76	25357
2026-01-23 08:49:59.87	283.02	25.24	-52.9	-57.4	3.7	0.00e+00	0	46	104	10091495424	76	25569
2026-01-23 08:50:00.86	283.47	25.17	-52.7	-57.2	3.7	0.00e+00	0	46	104	10091495424	76	24877
2026-01-23 08:50:01.87	283.92	25.10	-52.7	-57.2	3.7	0.00e+00	0	46	104	10091495424	76	25009
2026-01-23 08:50:02.87	284.37	25.03	-52.8	-57.3	3.7	0.00e+00	0	46	104	10091495424	76	25319
2026-01-23 08:50:03.87	284.82	24.96	-52.7	-57.3	3.7	0.00e+00	0	46	104	10091495424	76	25170
2026-01-23 08:50:04.86	285.26	24.88	-52.9	-57.3	3.7	0.00e+00	0	46	104	10091495424	76	25354
2026-01-23 08:50:05.86	285.70	24.81	-52.9	-57.3	3.7	0.00e+00	0	46	104	10091495424	76	25273
2026-01-23 08:50:06.86	286.14	24.73	-52.7	-57.1	3.7	0.00e+00	0	46	104	10091495424	76	24592
2026-01-23 08:50:07.86	286.58	24.65	-52.7	-57.0	3.7	0.00e+00	0	46	104	10091495424	76	24421
2026-01-23 08:50:08.85	287.01	24.57	-52.6	-57.1	3.7	0.00e+00	0	46	104	10091495424	76	24525
2026-01-23 08:50:09.85	287.44	24.49	-52.7	-57.2	3.7	0.00e+00	0	46	104	10091495424	76	24921
2026-01-23 08:50:10.84	287.86	24.41	-52.3	-56.9	3.7	0.00e+00	0	46	104	10091495424	76	24017
2026-01-23 08:50:11.84	288.29	24.33	-52.4	-56.9	3.7	0.00e+00	0	46	104	10091495424	76	24221
2026-01-23 08:50:12.84	288.71	24.25	-52.4	-56.9	3.7	0.00e+00	0	46	104	10091495424	76	24167
2026-01-23 08:50:13.83	289.13	24.16	-52.6	-57.1	3.7	0.00e+00	0	46	104	10091495424	76	24747
2026-01-23 08:50:14.83	289.55	24.08	-52.8	-57.3	3.7	0.00e+00	0	46	104	10091495424	76	25209
2026-01-23 08:50:15.83	289.97	23.99	-52.8	-57.3	3.7	0.00e+00	0	46	104	10091495424	76	25245
2026-01-23 08:50:16.83	290.38	23.90	-52.6	-57.1	3.7	0.00e+00	0	46	104	10091495424	76	24553
2026-01-23 08:50:17.82	290.79	23.81	-52.4	-57.1	3.7	0.00e+00	0	46	104	10091495424	76	24549
2026-01-23 08:50:18.82	291.20	23.72	-52.4	-57.0	3.7	0.00e+00	0	46	104	10091495424	76	24379
2026-01-23 08:50:19.82	291.61	23.63	-52.4	-57.1	3.7	0.00e+00	0	46	104	10091495424	76	24722
2026-01-23 08:50:20.82	292.01	23.54	-52.4	-56.9	3.7	0.00e+00	0	46	104	10091495424	76	24000
2026-01-23 08:50:21.81	292.41	23.44	-52.4	-56.6	3.7	0.00e+00	0	46	104	10091495424	76	23415
2026-01-23 08:50:22.81	292.81	23.35	-52.7	-57.0	3.7	0.00e+00	0	46	104	10091495424	76	24323
2026-01-23 08:50:23.80	293.20	23.26	-52.7	-57.0	3.7	0.00e+00	0	46	104	10091495424	76	24372
2026-01-23 08:50:24.80	293.59	23.16	-52.6	-56.7	3.7	0.00e+00	0	46	104	10091495424	76	23476
2026-01-23 08:50:25.80	293.98	23.06	-52.5	-56.6	3.7	0.00e+00	0	46	104	10091495424	76	23264
2026-01-23 08:50:26.80	294.37	22.97	-52.7	-57.0	3.7	0.00e+00	0	46	104	10091495424	76	24355
2026-01-23 08:50:27.80	294.75	22.87	-52.6	-56.9	3.7	0.00e+00	0	46	104	10091495424	76	24038
2026-01-23 08:50:28.79	295.13	22.77	-52.7	-56.9	3.7	0.00e+00	0	46	104	10091495424	76	24113
2026-01-23 08:50:29.79	295.51	22.67	-52.6	-57.0	3.7	0.00e+00	0	46	104	10091495424	76	24279
2026-01-23 08:50:30.78	295.89	22.57	-52.7	-56.9	3.7	0.00e+00	0	46	104	10091495424	76	24084
2026-01-23 08:50:31.78	296.26	22.47	-52.6	-56.8	3.7	0.00e+00	0	46	104	10091495424	76	23830
2026-01-23 08:50:32.78	296.63	22.37	-52.8	-57.2	3.7	0.00e+00	0	46	104	10091495424	76	24924
2026-01-23 08:50:33.78	297.00	22.27	-52.7	-57.2	3.7	0.00e+00	0	46	104	10091495424	76	24870
2026-01-23 08:50:34.78	297.37	22.16	-52.3	-56.8	3.7	2.87e-03	0	46	104	10091495424	76	23951
2026-01-23 08:50:35.78	297.73	22.06	-52.5	-57.0	3.7	2.87e-03	0	46	104	10091495424	76	24275
2026-01-23 08:50:36.77	298.09	21.96	-52.2	-56.7	3.7	2.87e-03	0	46	104	10091495424	76	23609
2026-01-23 08:50:37.77	298.44	21.85	-52.3	-56.8	3.7	2.87e-03	0	46	104	10091495424	76	23942
2026-01-23 08:50:38.77	298.80	21.75	-52.6	-57.0	3.7	2.87e-03	0	46	104	10091495424	76	24466
2026-01-23 08:50:39.77	299.15	21.64	-52.5	-57.0	3.7	2.87e-03	0	46	104	10091495424	76	24387
2026-01-23 08:50:40.77	299.50	21.54	-52.6	-57.0	3.6	2.87e-03	0	46	104	10091495424	76	24481
2026-01-23 08:50:41.77	299.85	21.43	-52.6	-57.0	3.7	2.87e-03	0	46	104	10091495424	76	24280
2026-01-23 08:50:42.76	300.19	21.33	-52.5	-57.0	3.7	2.87e-03	0	46	104	10091495424	76	24280
2026-01-23 08:50:43.76	300.53	21.22	-52.6	-57.0	3.7	2.87e-03	0	46	104	10091495424	76	24444
2026-01-23 08:50:44.76	300.87	21.11	-52.6	-57.0	3.7	2.87e-03	0	46	104	10091495424	76	24406
2026-01-23 08:50:45.75	301.20	21.01	-52.8	-57.2	3.7	2.87e-03	0	46	104	10091495424	76	24893
2026-01-23 08:50:46.75	301.54	20.90	-52.6	-56.6	3.7	2.87e-03	0	46	104	10091495424	76	23413
2026-01-23 08:50:47.75	301.87	20.79	-52.7	-56.9	3.7	2.87e-03	0	45	104	10091495424	76	24187
2026-01-23 08:50:48.74	302.19	20.68	-52.4	-56.5	3.7	2.87e-03	0	46	104	10091495424	76	23038
2026-01-23 08:50:49.74	302.52	20.57	-52.2	-56.2	3.7	2.87e-03	0	45	104	10091495424	76	22362
2026-01-23 08:50:50.74	302.84	20.47	-52.4	-56.4	3.7	2.87e-03	0	46	104	10091495424	76	22837
2026-01-23 08:50:51.73	303.16	20.36	-52.4	-56.3	3.7	2.87e-03	0	46	104	10091495424	76	22515
2026-01-23 08:50:52.73	303.48	20.25	-52.1	-55.9	3.7	2.87e-03	0	46	104	10091495424	76	21582
2026-01-23 08:50:53.73	303.79	20.14	-52.5	-56.7	3.7	2.87e-03	0	46	104	10091495424	76	23609
2026-01-23 08:50:54.72	304.10	20.03	-52.5	-56.7	3.7	2.87e-03	0	46	104	10091495424	76	23627
2026-01-23 08:50:55.72	304.41	19.92	-52.6	-57.0	3.7	2.87e-03	0	46	104	10091495424	76	24313
2026-01-23 08:50:56.72	304.72	19.81	-52.6	-56.9	3.7	2.87e-03	0	46	104	10091495424	76	24085
2026-01-23 08:50:57.72	305.03	19.70	-52.4	-56.5	3.7	2.87e-03	0	46	104	10091495424	76	23084
2026-01-23 08:50:58.72	305.33	19.59	-52.2	-56.4	3.7	2.87e-03	0	46	104	10091495424	76	22656
2026-01-23 08:50:59.71	305.63	19.48	-52.2	-56.4	3.7	2.87e-03	0	46	104	10091495424	76	22827
2026-01-23 08:51:00.71	305.93	19.37	-52.4	-56.7	3.7	2.87e-03	0	45	104	10091495424	76	23580
2026-01-23 08:51:01.71	306.22	19.26	-52.3	-56.8	3.7	2.87e-03	0	46	104	10091495424	76	23785
2026-01-23 08:51:02.70	306.51	19.15	-52.3	-56.8	3.7	2.87e-03	0	46	104	10091495424	76	23884
2026-01-23 08:51:03.70	306.80	19.04	-52.2	-56.7	3.7	2.87e-03	0	46	104	10091495424	76	23426
2026-01-23 08:51:04.70	307.09	18.93	-52.5	-57.1	3.7	2.87e-03	0	45	104	10091495424	76	24567
2026-01-23 08:51:05.70	307.38	18.82	-52.6	-57.2	3.7	2.87e-03	0	46	104	10091495424	76	24919
2026-01-23 08:51:06.70	307.66	18.71	-52.6	-57.2	3.7	2.87e-03	0	46	104	10091495424	76	24988
2026-01-23 08:51:07.69	307.94	18.60	-52.6	-57.1	3.7	2.87e-03	0	46	104	10091495424	76	24765
2026-01-23 08:51:08.69	308.22	18.49	-52.4	-57.0	3.7	2.87e-03	0	46	104	10091495424	76	24295
2026-01-23 08:51:09.69	308.50	18.38	-52.6	-57.0	3.6	2.87e-03	0	46	104	10091495424	76	24262
2026-01-23 08:51:10.68	308.77	18.28	-52.6	-57.1	3.7	2.87e-03	0	46	104	10091495424	76	24611
2026-01-23 08:51:11.67	309.04	18.17	-52.6	-56.9	3.7	2.87e-03	0	46	104	10091495424	76	24236
2026-01-23 08:51:12.67	309.31	18.06	-52.5	-56.8	3.7	2.87e-03	0	46	104	10091495424	76	23937
2026-01-23 08:51:13.68	309.58	17.95	-51.9	-56.7	3.7	2.87e-03	0	45	104	10091495424	75	24888
2026-01-23 08:51:14.68	309.85	17.84	-52.1	-56.7	3.7	2.87e-03	0	45	104	10091495424	75	25080
2026-01-23 08:51:15.68	310.11	17.73	-51.9	-56.6	3.7	2.87e-03	0	46	104	10091495424	75	24656
2026-01-23 08:51:16.68	310.37	17.62	-51.7	-56.5	3.7	2.87e-03	0	46	104	10091495424	75	24440
2026-01-23 08:51:17.68	310.63	17.51	-51.7	-56.4	3.7	2.87e-03	0	46	104	10091495424	75	24169
2026-01-23 08:51:18.68	310.89	17.40	-51.8	-56.4	3.7	2.87e-03	0	46	104	10091495424	75	24173
2026-01-23 08:51:19.68	311.14	17.29	-51.7	-56.3	3.7	2.87e-03	0	46	104	10091495424	75	23796
2026-01-23 08:51:20.68	311.39	17.18	-51.7	-56.5	3.7	2.87e-03	0	45	104	10091495424	75	24292
2026-01-23 08:51:21.68	311.64	17.07	-52.0	-56.7	3.7	2.87e-03	0	46	104	10091495424	75	24928
2026-01-23 08:51:22.68	311.89	16.96	-51.8	-56.5	3.7	2.87e-03	0	46	104	10091495424	75	24339
2026-01-23 08:51:23.68	312.14	16.86	-52.0	-56.6	3.7	2.87e-03	0	46	104	10091495424	75	24806
2026-01-23 08:51:24.68	312.38	16.75	-52.2	-56.9	3.7	2.87e-03	0	46	104	10091495424	75	25397
2026-01-23 08:51:25.68	312.63	16.64	-52.1	-56.7	3.7	2.87e-03	0	45	104	10091495424	75	25003
2026-01-23 08:51:26.68	312.87	16.53	-52.2	-56.8	3.7	2.87e-03	0	45	104	10091495424	75	25367
2026-01-23 08:51:27.67	313.10	16.42	-52.1	-56.8	3.7	2.87e-03	0	46	104	10091495424	75	25156
2026-01-23 08:51:28.67	313.34	16.32	-52.0	-56.7	3.7	2.87e-03	0	45	104	10091495424	75	24946
2026-01-23 08:51:29.67	313.57	16.21	-51.9	-56.8	3.7	2.87e-03	0	45	104	10091495424	75	25198
2026-01-23 08:51:30.68	313.81	16.10	-51.9	-56.7	3.7	2.87e-03	0	46	104	10091495424	75	24935
2026-01-23 08:51:31.68	314.04	16.00	-51.7	-56.7	3.7	2.87e-03	0	45	104	10091495424	75	24935
2026-01-23 08:51:32.68	314.27	15.89	-51.9	-56.8	3.7	2.87e-03	0	46	104	10091495424	75	25240
2026-01-23 08:51:33.68	314.49	15.78	-51.8	-56.6	3.7	2.87e-03	0	46	104	10091495424	75	24805
2026-01-23 08:51:34.68	314.72	15.68	-51.8	-56.7	3.7	2.87e-03	0	45	104	10091495424	75	24999
2026-01-23 08:51:35.68	314.94	15.57	-51.7	-56.6	3.7	2.87e-03	0	46	104	10091495424	75	24629
2026-01-23 08:51:36.68	315.16	15.47	-51.8	-56.6	3.7	2.87e-03	0	45	104	10091495424	75	24704
2026-01-23 08:51:37.68	315.38	15.36	-51.9	-56.4	3.7	2.87e-03	0	46	104	10091495424	75	24206
2026-01-23 08:51:38.68	315.60	15.26	-51.8	-56.4	3.7	2.87e-03	0	45	104	10091495424	75	24169
2026-01-23 08:51:39.68	315.82	15.15	-51.9	-56.5	3.7	2.87e-03	0	45	104	10091495424	75	24297
2026-01-23 08:51:40.68	316.03	15.05	-52.1	-56.7	3.7	2.87e-03	0	45	104	10091495424	75	24830
2026-01-23 08:51:41.68	316.24	14.94	-52.0	-56.7	3.7	2.87e-03	0	45	104	10091495424	75	24921
2026-01-23 08:51:42.68	316.45	14.84	-52.3	-56.9	3.7	2.87e-03	0	46	104	10091495424	75	25490
2026-01-23 08:51:43.68	316.66	14.73	-51.1	-56.2	3.7	2.87e-03	0	46	104	10091495424	74	24858
2026-01-23 08:51:44.68	316.87	14.63	-50.6	-55.9	3.7	2.87e-03	0	45	104	10091495424	73	25646
2026-01-23 08:51:45.68	317.08	14.53	-50.8	-56.0	3.7	2.87e-03	0	45	104	10091495424	73	25955
2026-01-23 08:51:46.68	317.28	14.43	-51.6	-56.5	3.7	2.87e-03	0	45	104	10091495424	73	27434
2026-01-23 08:51:47.68	317.48	14.32	-52.2	-56.9	3.7	2.87e-03	0	46	104	10091495424	75	25636
2026-01-23 08:51:48.68	317.68	14.22	-52.2	-56.9	3.7	2.87e-03	0	45	104	10091495424	75	25615
2026-01-23 08:51:49.68	317.88	14.12	-51.5	-56.5	3.7	2.87e-03	0	45	104	10091495424	75	24258
2026-01-23 08:51:50.68	318.08	14.02	-51.5	-56.5	3.7	2.87e-03	0	46	104	10091495424	74	25945
2026-01-23 08:51:51.68	318.27	13.92	-52.0	-56.8	3.7	2.87e-03	0	46	104	10091495424	74	26655
2026-01-23 08:51:52.68	318.47	13.81	-52.2	-56.9	3.7	2.87e-03	0	46	104	10091495424	75	25581
2026-01-23 08:51:53.68	318.66	13.71	-52.3	-56.9	3.7	2.87e-03	0	45	104	10091495424	75	25642
2026-01-23 08:51:54.68	318.85	13.61	-52.3	-57.0	3.7	2.87e-03	0	46	104	10091495424	75	25723
2026-01-23 08:51:55.68	319.04	13.51	-52.2	-56.9	3.7	2.87e-03	0	46	104	10091495424	75	25545
2026-01-23 08:51:56.68	319.23	13.41	-52.2	-56.9	3.7	2.87e-03	0	45	104	10091495424	75	25531
2026-01-23 08:51:57.68	319.42	13.31	-51.9	-56.7	3.7	2.87e-03	0	46	104	10091495424	75	24986
2026-01-23 08:51:58.68	319.60	13.21	-51.3	-56.4	3.7	2.87e-03	0	45	104	10091495424	74	25460
2026-01-23 08:51:59.68	319.79	13.12	-51.4	-56.4	3.7	2.87e-03	0	45	104	10091495424	73	26964
2026-01-23 08:52:00.68	319.97	13.02	-50.9	-56.1	3.7	2.87e-03	0	45	104	10091495424	73	26027
2026-01-23 08:52:01.68	320.15	12.92	-50.5	-55.9	3.7	2.87e-03	0	45	104	10091495424	73	25430
2026-01-23 08:52:02.69	320.33	12.82	-50.7	-56.0	3.7	2.87e-03	0	46	104	10091495424	73	25743
2026-01-23 08:52:03.68	320.51	12.72	-50.4	-55.8	3.7	2.87e-03	0	45	104	10091495424	72	26647
2026-01-23 08:52:04.68	320.68	12.63	-50.7	-56.1	3.7	2.87e-03	0	45	104	10091495424	72	27586
2026-01-23 08:52:05.68	320.86	12.53	-51.2	-56.4	3.7	2.87e-03	0	46	104	10091495424	72	28777
2026-01-23 08:52:06.68	321.03	12.43	-50.7	-56.1	3.7	2.87e-03	0	45	104	10091495424	73	26237
2026-01-23 08:52:07.68	321.20	12.33	-50.6	-56.0	3.7	2.87e-03	0	46	104	10091495424	73	25952
2026-01-23 08:52:08.68	321.37	12.24	-51.1	-56.4	3.7	2.87e-03	0	46	104	10091495424	73	26996
2026-01-23 08:52:09.68	321.54	12.14	-51.4	-56.6	3.7	0.00e+00	0	46	104	10091495424	73	27563
2026-01-23 08:52:10.68	321.71	12.05	-51.5	-56.6	3.7	0.00e+00	0	46	104	10091495424	73	27728
2026-01-23 08:52:11.68	321.88	11.95	-51.6	-56.6	3.7	0.00e+00	0	46	104	10091495424	73	27735
2026-01-23 08:52:12.68	322.05	11.86	-51.6	-56.6	3.7	0.00e+00	0	45	104	10091495424	73	27816
2026-01-23 08:52:13.68	322.21	11.76	-50.8	-56.0	3.7	0.00e+00	0	46	104	10091495424	73	25932
2026-01-23 08:52:14.68	322.37	11.67	-50.7	-56.0	3.7	0.00e+00	0	45	104	10091495424	73	25876
2026-01-23 08:52:15.67	322.53	11.58	-51.5	-56.5	3.7	0.00e+00	0	45	104	10091495424	73	27215
2026-01-23 08:52:16.67	322.70	11.48	-51.2	-56.3	3.7	0.00e+00	0	45	104	10091495424	74	25360
2026-01-23 08:52:17.67	322.86	11.39	-51.8	-56.6	3.7	0.00e+00	0	45	104	10091495424	74	26260
2026-01-23 08:52:18.66	323.01	11.30	-52.0	-56.9	3.7	0.00e+00	0	46	104	10091495424	75	25455
2026-01-23 08:52:19.66	323.17	11.20	-52.2	-57.0	3.7	0.00e+00	0	46	104	10091495424	75	25753
2026-01-23 08:52:20.66	323.33	11.11	-52.0	-56.9	3.7	0.00e+00	0	45	104	10091495424	75	25538
2026-01-23 08:52:21.66	323.48	11.02	-51.6	-56.6	3.7	0.00e+00	0	46	104	10091495424	75	24773
2026-01-23 08:52:22.66	323.63	10.93	-50.8	-56.1	3.7	0.00e+00	0	46	104	10091495424	73	26149
2026-01-23 08:52:23.66	323.79	10.84	-50.0	-55.6	3.7	0.00e+00	0	45	104	10091495424	72	26231
2026-01-23 08:52:24.66	323.94	10.74	-49.0	-54.9	3.7	0.00e+00	0	46	104	10091495424	70	27113
2026-01-23 08:52:25.66	324.09	10.65	-48.9	-54.9	3.7	0.00e+00	0	45	104	10091495424	69	28791
2026-01-23 08:52:26.66	324.24	10.56	-48.8	-54.9	3.7	0.00e+00	0	45	104	10091495424	69	28537
2026-01-23 08:52:27.65	324.39	10.47	-48.9	-55.0	3.7	0.00e+00	0	46	104	10091495424	69	28847
2026-01-23 08:52:28.65	324.53	10.38	-49.3	-55.3	3.7	0.00e+00	0	46	104	10091495424	69	29828
2026-01-23 08:52:29.65	324.68	10.29	-49.6	-55.4	3.7	0.00e+00	0	45	104	10091495424	69	30400
2026-01-23 08:52:30.64	324.82	10.20	-49.8	-55.6	3.7	0.00e+00	0	46	104	10091495424	70	29281
2026-01-23 08:52:31.64	324.97	10.12	-50.2	-55.9	3.7	0.00e+00	0	45	104	10091495424	71	28566
2026-01-23 08:52:32.64	325.11	10.03	-50.4	-56.0	3.7	0.00e+00	0	45	104	10091495424	71	28842
2026-01-23 08:52:33.64	325.25	9.94	-49.8	-55.6	3.7	0.00e+00	0	45	104	10091495424	71	27664
2026-01-23 08:52:34.64	325.39	9.85	-49.7	-55.6	3.7	0.00e+00	0	46	104	10091495424	71	27599
2026-01-23 08:52:35.63	325.53	9.76	-50.0	-55.7	3.7	0.00e+00	0	45	104	10091495424	71	27901
2026-01-23 08:52:36.63	325.67	9.68	-49.7	-55.5	3.7	0.00e+00	0	46	104	10091495424	71	27357
2026-01-23 08:52:37.63	325.81	9.59	-49.7	-55.4	3.7	0.00e+00	0	46	104	10091495424	71	27099
2026-01-23 08:52:38.63	325.94	9.50	-49.0	-55.0	3.7	0.00e+00	0	46	104	10091495424	70	27251
2026-01-23 08:52:39.62	326.08	9.42	-49.1	-55.1	3.7	0.00e+00	0	46	104	10091495424	69	29203
2026-01-23 08:52:40.62	326.21	9.33	-49.2	-55.1	3.7	0.00e+00	0	46	104	10091495424	69	29276
2026-01-23 08:52:41.62	326.35	9.24	-49.0	-54.9	3.7	0.00e+00	0	46	104	10091495424	69	28798
2026-01-23 08:52:42.61	326.48	9.16	-50.0	-55.7	3.7	0.00e+00	0	45	104	10091495424	70	29576
2026-01-23 08:52:43.61	326.61	9.07	-49.5	-55.3	3.7	0.00e+00	0	45	104	10091495424	71	26734
2026-01-23 08:52:44.61	326.74	8.99	-49.0	-55.0	3.7	0.00e+00	0	46	104	10091495424	69	29124
2026-01-23 08:52:45.60	326.87	8.90	-49.3	-55.1	3.7	0.00e+00	0	46	104	10091495424	70	27534
2026-01-23 08:52:46.60	327.00	8.82	-51.4	-56.5	3.7	0.00e+00	0	46	104	10091495424	74	25908
2026-01-23 08:52:47.60	327.13	8.73	-51.9	-56.8	3.7	0.00e+00	0	46	104	10091495424	74	26887
2026-01-23 08:52:48.60	327.26	8.65	-51.9	-56.7	3.7	0.00e+00	0	46	104	10091495424	74	26423
2026-01-23 08:52:49.59	327.38	8.57	-51.8	-56.5	3.7	0.00e+00	0	45	104	10091495424	74	25871
2026-01-23 08:52:50.59	327.51	8.48	-50.3	-55.9	3.7	0.00e+00	0	46	104	10091495424	72	27129
2026-01-23 08:52:51.58	327.63	8.40	-52.6	-57.2	3.7	0.00e+00	0	46	104	10091495424	76	24893
2026-01-23 08:52:52.58	327.75	8.32	-53.1	-57.6	3.7	0.00e+00	0	45	104	10091495424	76	26026
2026-01-23 08:52:53.58	327.88	8.23	-52.1	-56.8	3.7	0.00e+00	0	46	104	10091495424	76	23708
2026-01-23 08:52:54.57	328.00	8.15	-52.4	-57.0	3.7	0.00e+00	0	46	104	10091495424	75	25728
2026-01-23 08:52:55.57	328.12	8.07	-52.4	-57.1	3.7	0.00e+00	0	45	104	10091495424	76	24677
2026-01-23 08:52:56.57	328.24	7.99	-52.7	-57.4	3.7	0.00e+00	0	46	104	10091495424	76	25504
2026-01-23 08:52:57.57	328.36	7.91	-52.1	-56.9	3.7	0.00e+00	0	46	104	10091495424	76	24082
2026-01-23 08:52:58.57	328.48	7.82	-53.0	-57.3	3.7	0.00e+00	0	45	104	10091495424	76	25173
2026-01-23 08:52:59.57	328.60	7.74	-52.8	-57.1	3.7	0.00e+00	0	46	104	10091495424	77	23384
2026-01-23 08:53:00.56	328.71	7.66	-53.0	-57.3	3.7	0.00e+00	0	46	104	10091495424	77	23728
2026-01-23 08:53:01.56	328.83	7.58	-52.7	-57.1	3.7	0.00e+00	0	46	104	10091495424	77	23312
2026-01-23 08:53:02.56	328.95	7.50	-52.6	-57.1	3.7	0.00e+00	0	46	104	10091495424	77	23408
2026-01-23 08:53:03.56	329.06	7.42	-52.8	-57.3	3.7	0.00e+00	0	45	104	10091495424	77	23947
2026-01-23 08:53:04.56	329.18	7.34	-52.3	-56.7	3.7	0.00e+00	0	45	104	10091495424	76	23554
2026-01-23 08:53:05.56	329.29	7.26	-52.7	-57.1	3.7	0.00e+00	0	46	104	10091495424	76	24637
2026-01-23 08:53:06.55	329.40	7.18	-52.5	-57.0	3.7	0.00e+00	0	45	104	10091495424	76	24417
2026-01-23 08:53:07.55	329.51	7.11	-52.5	-57.0	3.7	0.00e+00	0	45	104	10091495424	76	24409
2026-01-23 08:53:08.54	329.62	7.03	-52.5	-57.0	3.7	0.00e+00	0	46	104	10091495424	76	24404
2026-01-23 08:53:09.54	329.73	6.95	-52.5	-57.0	3.7	0.00e+00	0	45	104	10091495424	76	24390
2026-01-23 08:53:10.54	329.84	6.87	-52.5	-57.0	3.7	0.00e+00	0	46	104	10091495424	76	24335
2026-01-23 08:53:11.53	329.95	6.79	-52.5	-57.0	3.7	0.00e+00	0	45	104	10091495424	76	24398
2026-01-23 08:53:12.53	330.06	6.72	-52.5	-57.0	3.7	0.00e+00	0	45	104	10091495424	76	24431
2026-01-23 08:53:13.53	330.17	6.64	-52.5	-57.0	3.7	0.00e+00	0	46	104	10091495424	76	24295
2026-01-23 08:53:14.52	330.27	6.56	-52.5	-57.0	3.7	0.00e+00	0	46	104	10091495424	76	24420
2026-01-23 08:53:15.53	330.38	6.48	-52.5	-57.0	3.7	0.00e+00	0	45	104	10091495424	76	24418
2026-01-23 08:53:16.52	330.49	6.41	-52.5	-57.0	3.7	0.00e+00	0	46	104	10091495424	76	24343
2026-01-23 08:53:17.52	330.59	6.33	-52.5	-57.0	3.7	0.00e+00	0	45	104	10091495424	76	24477
2026-01-23 08:53:18.52	330.70	6.25	-52.5	-57.0	3.7	0.00e+00	0	45	104	10091495424	76	24401
2026-01-23 08:53:19.52	330.80	6.18	-52.5	-57.0	3.7	0.00e+00	0	45	104	10091495424	76	24372
2026-01-23 08:53:20.52	330.90	6.10	-52.5	-57.0	3.7	0.00e+00	0	46	104	10091495424	76	24415
2026-01-23 08:53:21.51	331.00	6.03	-52.5	-57.0	3.7	0.00e+00	0	46	104	10091495424	76	24395
2026-01-23 08:53:22.51	331.11	5.95	-52.5	-57.0	3.7	0.00e+00	0	46	104	10091495424	76	24414
2026-01-23 08:53:23.51	331.21	5.88	-52.5	-57.0	3.7	0.00e+00	0	46	104	10091495424	76	24389
2026-01-23 08:53:24.51	331.31	5.80	-52.5	-57.0	3.7	0.00e+00	0	46	104	10091495424	76	24358
2026-01-23 08:53:25.51	331.41	5.73	-52.5	-57.0	3.7	0.00e+00	0	45	104	10091495424	76	24426
2026-01-23 08:53:26.51	331.51	5.65	-52.5	-57.0	3.7	0.00e+00	0	45	104	10091495424	76	24387
2026-01-23 08:53:27.50	331.60	5.58	-52.5	-57.0	3.7	0.00e+00	0	45	104	10091495424	76	24360
2026-01-23 08:53:28.50	331.70	5.50	-52.5	-57.0	3.7	0.00e+00	0	46	104	10091495424	76	24349
2026-01-23 08:53:29.50	331.80	5.43	-52.5	-57.0	3.7	0.00e+00	0	46	104	10091495424	76	24373
2026-01-23 08:53:30.50	331.90	5.36	-52.5	-57.0	3.7	0.00e+00	0	46	104	10091495424	76	24384
2026-01-23 08:53:31.49	331.99	5.28	-52.5	-57.0	3.7	0.00e+00	0	46	104	10091495424	76	24356
2026-01-23 08:53:32.49	332.09	5.21	-52.5	-57.0	3.7	0.00e+00	0	46	104	10091495424	76	24341
2026-01-23 08:53:33.49	332.18	5.14	-52.5	-57.0	3.7	0.00e+00	0	46	104	10091495424	76	24377
2026-01-23 08:53:34.49	332.28	5.07	-52.5	-57.0	3.7	0.00e+00	0	46	104	10091495424	76	24415
2026-01-23 08:53:35.49	332.37	4.99	-52.5	-57.0	3.7	0.00e+00	0	46	104	10091495424	76	24385

#Closed at: 2026-01-23 08:53:36
#Recorded file [10091 MB]: D:/Data/31040_260123_114516.dat