passes_logs/2026/01/23/T1/T1__20260123_103648_NOAA_20_JPSS-1_rec.log

#Pass ID: 20260123_103648_NOAA 20 (JPSS-1)
#Satellite: NOAA 20 (JPSS-1)
#Configuration: NOAA 20
#almurnet v.1.7.20251203
#Start time: 2026-01-23 10:36:50

#Version: 2.0.20230620
#Station: T1
#Location: 37.570604 lon 55.790049 lat
#TLE: 1 43013U 17073A   26022.44900781  .00000193  00000+0  11233-3 0  9999
#TLE: 2 43013  98.7645 323.3100 0001197  28.8413 331.2829 14.19538802423792

#Time	Az	El	Level	Level2	SNR	BER	BlckErr	Temp	State	Recorded	gain1	gain2
2026-01-23 10:36:50.65	181.99	5.16	-48.6	-64.3	3.8	1.49e+00	0	39	0	0	68	22386
2026-01-23 10:36:51.65	182.03	5.23	-48.6	-64.4	3.8	1.49e+00	0	39	104	0	69	21348
2026-01-23 10:36:52.64	182.07	5.30	-48.6	-64.4	3.8	1.49e+00	0	39	104	0	69	21331
2026-01-23 10:36:53.64	182.11	5.37	-48.6	-64.4	3.8	1.49e+00	0	39	104	0	69	21354
2026-01-23 10:36:54.64	182.15	5.44	-48.6	-64.3	3.8	1.49e+00	0	40	104	0	69	21245
2026-01-23 10:36:55.63	182.19	5.51	-48.6	-64.3	3.8	1.49e+00	0	40	104	0	69	21169
2026-01-23 10:36:56.63	182.23	5.58	-48.6	-64.3	3.8	1.49e+00	0	40	104	0	68	22464
2026-01-23 10:36:57.62	182.27	5.65	-48.7	-64.3	3.8	1.49e+00	0	40	104	0	68	22435
2026-01-23 10:36:58.62	182.31	5.72	-48.6	-64.3	3.8	1.49e+00	0	40	104	0	68	22509
2026-01-23 10:36:59.62	182.35	5.79	-48.6	-64.4	3.8	1.49e+00	0	40	104	0	68	22583
2026-01-23 10:37:00.61	182.39	5.86	-48.6	-64.4	3.8	1.49e+00	0	40	104	0	68	22674
2026-01-23 10:37:01.61	182.44	5.93	-48.6	-64.4	3.8	1.49e+00	0	40	104	0	68	22679
2026-01-23 10:37:02.61	182.48	6.00	-48.6	-64.4	3.8	1.49e+00	0	40	104	0	68	22768
2026-01-23 10:37:03.60	182.52	6.08	-48.6	-64.4	3.8	1.49e+00	0	40	104	0	68	22637
2026-01-23 10:37:04.60	182.56	6.15	-48.6	-64.4	3.8	1.49e+00	0	40	104	0	68	22627
2026-01-23 10:37:05.59	182.60	6.22	-48.6	-64.4	3.8	1.49e+00	0	40	104	0	68	22623
2026-01-23 10:37:06.59	182.65	6.29	-48.6	-64.4	3.8	1.49e+00	0	40	104	0	68	22556
2026-01-23 10:37:07.58	182.69	6.36	-48.6	-64.4	3.8	1.49e+00	0	40	104	0	68	22630
2026-01-23 10:37:08.58	182.73	6.44	-48.6	-64.4	3.8	1.49e+00	0	40	104	0	68	22715
2026-01-23 10:37:09.58	182.77	6.51	-48.6	-64.3	3.8	1.49e+00	0	40	104	0	68	22517
2026-01-23 10:37:10.57	182.82	6.58	-48.6	-64.3	3.8	1.49e+00	0	40	104	0	68	22384
2026-01-23 10:37:11.57	182.86	6.66	-48.6	-64.0	3.8	1.49e+00	0	40	104	0	68	21709
2026-01-23 10:37:12.56	182.90	6.73	-48.6	-63.6	3.8	1.49e+00	0	40	104	0	68	20766
2026-01-23 10:37:13.56	182.95	6.80	-48.6	-63.2	3.8	1.49e+00	0	40	104	0	68	19812
2026-01-23 10:37:14.55	182.99	6.88	-48.6	-62.8	3.8	1.49e+00	0	40	104	0	68	18836
2026-01-23 10:37:15.54	183.04	6.95	-48.5	-62.5	3.8	1.49e+00	0	40	104	0	68	18177
2026-01-23 10:37:16.54	183.08	7.03	-48.5	-62.6	3.8	1.49e+00	0	40	104	0	68	18310
2026-01-23 10:37:17.53	183.13	7.10	-48.6	-62.8	3.8	1.49e+00	0	40	104	0	68	18944
2026-01-23 10:37:18.53	183.17	7.17	-48.6	-63.5	3.8	1.49e+00	0	40	104	0	68	20431
2026-01-23 10:37:19.53	183.22	7.25	-48.6	-64.2	3.8	1.49e+00	0	41	104	0	68	22209
2026-01-23 10:37:20.52	183.26	7.32	-48.6	-64.3	3.8	1.49e+00	0	40	104	0	68	22409
2026-01-23 10:37:21.52	183.31	7.40	-48.5	-63.0	3.8	1.49e+00	0	40	104	0	68	19242
2026-01-23 10:37:22.52	183.35	7.48	-48.4	-60.2	4.4	1.49e+00	0	40	0	0	68	13943
2026-01-23 10:37:23.51	183.40	7.55	-48.0	-57.3	5.9	5.43e-01	0	40	0	1048576	68	10034
2026-01-23 10:37:24.51	183.45	7.63	-47.4	-54.8	8.0	1.50e-01	0	40	0	3145728	66	8445
2026-01-23 10:37:25.50	183.49	7.70	-46.8	-53.0	9.9	2.79e-02	0	40	0	5242880	65	7228
2026-01-23 10:37:26.50	183.54	7.78	-46.2	-51.2	11.8	3.30e-03	0	40	0	7340032	64	6263
2026-01-23 10:37:27.49	183.59	7.86	-45.7	-50.1	13.0	8.08e-05	0	40	0	8388608	63	5846
2026-01-23 10:37:28.49	183.63	7.93	-45.1	-49.1	14.1	1.44e-05	0	41	0	10485760	62	5474
2026-01-23 10:37:29.49	183.68	8.01	-44.6	-48.3	14.8	1.50e-06	0	41	0	12582912	61	5318
2026-01-23 10:37:30.48	183.73	8.09	-44.3	-47.8	15.4	0.00e+00	0	41	0	14680064	60	5292
2026-01-23 10:37:31.48	183.78	8.17	-44.1	-47.5	15.6	0.00e+00	0	41	0	16777216	60	5149
2026-01-23 10:37:32.47	183.82	8.24	-44.1	-47.5	15.7	0.00e+00	0	41	0	17825792	60	5102
2026-01-23 10:37:33.47	183.87	8.32	-44.2	-47.6	15.6	0.00e+00	0	40	0	19922944	60	5201
2026-01-23 10:37:34.46	183.92	8.40	-44.4	-48.0	15.2	0.00e+00	0	41	0	22020096	60	5409
2026-01-23 10:37:35.46	183.97	8.48	-44.7	-48.5	14.7	0.00e+00	0	40	0	24117248	60	5753
2026-01-23 10:37:36.45	184.02	8.56	-45.2	-49.3	13.9	0.00e+00	0	41	0	25165824	60	6291
2026-01-23 10:37:37.45	184.07	8.63	-45.6	-50.1	13.1	2.05e-05	0	40	0	27262976	61	6508
2026-01-23 10:37:38.44	184.12	8.71	-46.2	-51.2	11.9	1.87e-04	0	41	0	29360128	62	7022
2026-01-23 10:37:39.44	184.17	8.79	-46.7	-52.4	10.6	1.25e-03	0	41	0	31457280	63	7630
2026-01-23 10:37:40.43	184.22	8.87	-47.0	-53.7	9.2	7.50e-03	0	41	0	33554432	64	8346
2026-01-23 10:37:41.43	184.27	8.95	-47.4	-55.1	7.7	5.87e-02	0	41	0	34603008	65	9264
2026-01-23 10:37:42.42	184.32	9.03	-47.8	-56.6	6.4	1.74e-01	0	41	0	36700160	66	10369
2026-01-23 10:37:43.42	184.37	9.11	-47.9	-57.6	5.6	3.52e-01	0	41	0	38797312	66	11648
2026-01-23 10:37:44.42	184.42	9.19	-47.6	-56.0	6.8	3.81e-01	0	41	0	40894464	66	9609
2026-01-23 10:37:45.42	184.47	9.27	-47.6	-55.8	7.4	1.45e-03	0	41	0	42991616	65	9975
2026-01-23 10:37:46.42	184.52	9.36	-48.2	-59.4	4.6	1.41e+00	0	41	0	42991616	67	13503
2026-01-23 10:37:47.42	184.58	9.44	-46.8	-52.9	9.7	3.15e-01	0	41	0	45088768	65	7173
2026-01-23 10:37:48.42	184.63	9.52	-45.6	-50.1	13.1	2.13e-05	0	41	0	47185920	62	6167
2026-01-23 10:37:49.42	184.68	9.60	-45.6	-50.1	13.0	1.90e-05	0	41	0	49283072	62	6178
2026-01-23 10:37:50.43	184.73	9.68	-45.4	-49.7	13.5	1.52e-05	0	41	0	50331648	62	5901
2026-01-23 10:37:51.43	184.79	9.77	-45.0	-49.1	14.1	3.80e-06	0	41	0	52428800	62	5478
2026-01-23 10:37:52.42	184.84	9.85	-44.5	-48.1	15.1	0.00e+00	0	41	0	54525952	61	5208
2026-01-23 10:37:53.42	184.90	9.93	-44.0	-47.4	15.9	0.00e+00	0	41	0	56623104	60	5059
2026-01-23 10:37:54.43	184.95	10.02	-43.9	-47.1	16.1	0.00e+00	0	41	0	58720256	59	5193
2026-01-23 10:37:55.43	185.00	10.10	-43.8	-46.9	16.3	0.00e+00	0	41	0	59768832	59	5096
2026-01-23 10:37:56.43	185.06	10.18	-43.7	-46.7	16.5	0.00e+00	0	41	0	61865984	59	4961
2026-01-23 10:37:57.44	185.11	10.27	-43.6	-46.6	16.6	0.00e+00	0	41	0	63963136	59	4917
2026-01-23 10:37:58.43	185.17	10.35	-43.7	-46.7	16.5	0.00e+00	0	41	0	66060288	59	4963
2026-01-23 10:37:59.43	185.23	10.44	-43.5	-46.5	16.7	0.00e+00	0	41	0	68157440	59	4825
2026-01-23 10:38:00.43	185.28	10.52	-43.4	-46.2	17.0	0.00e+00	0	41	0	69206016	58	4972
2026-01-23 10:38:01.43	185.34	10.61	-43.4	-46.2	17.0	0.00e+00	0	41	0	71303168	58	4983
2026-01-23 10:38:02.44	185.39	10.69	-43.5	-46.4	16.9	0.00e+00	0	41	0	73400320	58	5050
2026-01-23 10:38:03.44	185.45	10.78	-43.4	-46.3	17.0	0.00e+00	0	41	0	75497472	58	4998
2026-01-23 10:38:04.44	185.51	10.86	-43.4	-46.3	16.9	0.00e+00	0	41	0	77594624	58	5037
2026-01-23 10:38:05.44	185.57	10.95	-43.3	-46.2	17.1	0.00e+00	0	41	0	78643200	58	4941
2026-01-23 10:38:06.44	185.62	11.04	-43.4	-46.3	17.0	0.00e+00	0	41	0	80740352	58	5005
2026-01-23 10:38:07.44	185.68	11.12	-43.2	-46.1	17.1	0.00e+00	0	41	0	82837504	58	4902
2026-01-23 10:38:08.44	185.74	11.21	-43.2	-46.1	17.1	0.00e+00	0	41	0	84934656	58	4921
2026-01-23 10:38:09.44	185.80	11.30	-43.2	-46.2	17.1	0.00e+00	0	41	0	85983232	58	4938
2026-01-23 10:38:10.44	185.86	11.39	-43.2	-46.1	17.1	0.00e+00	0	41	0	88080384	58	4902
2026-01-23 10:38:11.44	185.92	11.47	-43.1	-46.0	17.2	0.00e+00	0	41	0	90177536	58	4854
2026-01-23 10:38:12.44	185.98	11.56	-43.1	-45.9	17.3	0.00e+00	0	41	0	92274688	58	4809
2026-01-23 10:38:13.44	186.04	11.65	-43.1	-45.9	17.4	0.00e+00	0	41	0	94371840	58	4778
2026-01-23 10:38:14.44	186.10	11.74	-43.1	-45.9	17.4	0.00e+00	0	41	0	95420416	58	4775
2026-01-23 10:38:15.44	186.16	11.83	-43.1	-46.0	17.3	0.00e+00	0	41	0	97517568	58	4832
2026-01-23 10:38:16.45	186.22	11.92	-43.1	-45.9	17.3	0.00e+00	0	41	0	99614720	58	4795
2026-01-23 10:38:17.45	186.28	12.01	-43.1	-45.9	17.3	0.00e+00	0	41	0	101711872	58	4789
2026-01-23 10:38:18.45	186.35	12.10	-43.1	-45.9	17.5	0.00e+00	0	41	0	103809024	58	4776
2026-01-23 10:38:19.45	186.41	12.19	-43.1	-45.8	17.5	0.00e+00	0	41	0	104857600	58	4748
2026-01-23 10:38:20.45	186.47	12.28	-43.1	-45.8	17.5	0.00e+00	0	41	0	106954752	58	4742
2026-01-23 10:38:21.45	186.53	12.37	-43.0	-45.7	17.6	0.00e+00	0	41	0	109051904	57	4928
2026-01-23 10:38:22.45	186.60	12.46	-43.0	-45.7	17.6	0.00e+00	0	41	0	111149056	57	4955
2026-01-23 10:38:23.46	186.66	12.56	-43.0	-45.7	17.6	0.00e+00	0	41	0	112197632	57	4968
2026-01-23 10:38:24.46	186.73	12.65	-42.9	-45.6	17.7	0.00e+00	0	41	0	114294784	57	4884
2026-01-23 10:38:25.46	186.79	12.74	-42.9	-45.6	17.7	0.00e+00	0	41	0	116391936	57	4871
2026-01-23 10:38:26.46	186.85	12.83	-42.8	-45.5	17.8	0.00e+00	0	41	0	118489088	57	4843
2026-01-23 10:38:27.46	186.92	12.93	-42.9	-45.5	17.8	0.00e+00	0	41	0	120586240	57	4867
2026-01-23 10:38:28.46	186.99	13.02	-42.9	-45.5	17.8	0.00e+00	0	41	0	122683392	57	4840
2026-01-23 10:38:29.46	187.05	13.11	-42.9	-45.6	17.7	0.00e+00	0	41	0	123731968	57	4893
2026-01-23 10:38:30.46	187.12	13.21	-42.8	-45.5	17.9	0.00e+00	0	42	0	125829120	57	4820
2026-01-23 10:38:31.46	187.19	13.30	-42.9	-45.5	17.8	0.00e+00	0	41	0	127926272	57	4861
2026-01-23 10:38:32.47	187.25	13.40	-42.8	-45.4	17.9	0.00e+00	0	41	0	130023424	57	4802
2026-01-23 10:38:33.46	187.32	13.49	-42.8	-45.4	17.9	0.00e+00	0	41	0	131072000	57	4790
2026-01-23 10:38:34.47	187.39	13.59	-42.7	-45.3	18.0	0.00e+00	0	41	0	133169152	57	4734
2026-01-23 10:38:35.47	187.46	13.68	-42.7	-45.3	18.1	0.00e+00	0	41	0	135266304	57	4711
2026-01-23 10:38:36.47	187.53	13.78	-42.7	-45.3	18.1	0.00e+00	0	41	0	137363456	57	4707
2026-01-23 10:38:37.47	187.60	13.88	-42.6	-45.2	18.1	0.00e+00	0	42	0	139460608	57	4667
2026-01-23 10:38:38.47	187.67	13.97	-42.5	-45.1	18.2	0.00e+00	0	41	0	140509184	57	4644
2026-01-23 10:38:39.47	187.74	14.07	-42.6	-45.2	18.1	0.00e+00	0	41	0	142606336	57	4704
2026-01-23 10:38:40.47	187.81	14.17	-42.6	-45.2	18.1	0.00e+00	0	41	0	144703488	57	4682
2026-01-23 10:38:41.48	187.88	14.26	-42.6	-45.2	18.1	0.00e+00	0	42	0	146800640	57	4702
2026-01-23 10:38:42.48	187.95	14.36	-42.5	-45.2	18.1	0.00e+00	0	41	0	148897792	57	4674
2026-01-23 10:38:43.48	188.02	14.46	-42.6	-45.3	18.1	0.00e+00	0	42	0	149946368	57	4708
2026-01-23 10:38:44.48	188.10	14.56	-42.4	-45.1	18.3	0.00e+00	0	41	0	152043520	56	4871
2026-01-23 10:38:45.48	188.17	14.66	-42.4	-44.9	18.4	0.00e+00	0	41	0	154140672	56	4813
2026-01-23 10:38:46.48	188.24	14.76	-42.3	-44.9	18.4	0.00e+00	0	41	0	156237824	56	4796
2026-01-23 10:38:47.48	188.32	14.86	-42.4	-45.0	18.3	0.00e+00	0	41	0	157286400	56	4833
2026-01-23 10:38:48.48	188.39	14.96	-42.5	-45.1	18.2	0.00e+00	0	41	0	159383552	56	4902
2026-01-23 10:38:49.48	188.47	15.06	-42.4	-45.0	18.4	0.00e+00	0	42	0	161480704	56	4820
2026-01-23 10:38:50.48	188.54	15.16	-42.3	-44.9	18.5	0.00e+00	0	41	0	163577856	56	4764
2026-01-23 10:38:51.48	188.62	15.26	-42.4	-44.9	18.4	0.00e+00	0	41	0	165675008	56	4804
2026-01-23 10:38:52.48	188.69	15.36	-42.3	-44.8	18.5	0.00e+00	0	41	0	166723584	56	4726
2026-01-23 10:38:53.48	188.77	15.47	-42.2	-44.7	18.7	0.00e+00	0	42	0	168820736	56	4662
2026-01-23 10:38:54.48	188.85	15.57	-42.2	-44.7	18.6	0.00e+00	0	41	0	170917888	56	4681
2026-01-23 10:38:55.48	188.93	15.67	-42.2	-44.7	18.6	0.00e+00	0	41	0	173015040	56	4687
2026-01-23 10:38:56.49	189.00	15.78	-42.3	-44.8	18.5	0.00e+00	0	41	0	175112192	56	4732
2026-01-23 10:38:57.48	189.08	15.88	-42.2	-44.7	18.6	0.00e+00	0	41	0	176160768	56	4680
2026-01-23 10:38:58.48	189.16	15.98	-42.1	-44.6	18.7	0.00e+00	0	41	0	178257920	56	4616
2026-01-23 10:38:59.48	189.24	16.09	-42.2	-44.7	18.6	0.00e+00	0	42	0	180355072	56	4658
2026-01-23 10:39:00.48	189.32	16.19	-42.1	-44.6	18.7	0.00e+00	0	42	0	182452224	56	4635
2026-01-23 10:39:01.48	189.40	16.30	-42.1	-44.5	18.8	0.00e+00	0	41	0	184549376	56	4578
2026-01-23 10:39:02.48	189.49	16.40	-42.1	-44.5	18.8	0.00e+00	0	42	0	185597952	56	4577
2026-01-23 10:39:03.48	189.57	16.51	-42.0	-44.5	18.9	0.00e+00	0	42	0	187695104	56	4549
2026-01-23 10:39:04.48	189.65	16.62	-41.8	-44.2	19.0	0.00e+00	0	41	0	189792256	55	4679
2026-01-23 10:39:05.49	189.73	16.72	-41.8	-44.3	18.9	0.00e+00	0	41	0	191889408	55	4709
2026-01-23 10:39:06.49	189.82	16.83	-41.9	-44.3	18.9	0.00e+00	0	42	0	192937984	55	4734
2026-01-23 10:39:07.49	189.90	16.94	-41.7	-44.1	19.0	0.00e+00	0	42	0	195035136	55	4625
2026-01-23 10:39:08.50	189.99	17.05	-41.7	-44.2	18.9	0.00e+00	0	41	0	197132288	55	4676
2026-01-23 10:39:09.50	190.07	17.16	-41.7	-44.1	19.0	0.00e+00	0	42	0	199229440	55	4622
2026-01-23 10:39:10.50	190.16	17.27	-41.7	-44.1	19.0	0.00e+00	0	41	0	201326592	55	4617
2026-01-23 10:39:11.50	190.25	17.37	-41.7	-44.1	19.0	0.00e+00	0	42	0	202375168	55	4628
2026-01-23 10:39:12.50	190.33	17.48	-41.6	-44.0	19.1	0.00e+00	0	41	0	204472320	55	4548
2026-01-23 10:39:13.50	190.42	17.59	-41.5	-43.8	19.3	0.00e+00	0	42	0	206569472	55	4470
2026-01-23 10:39:14.51	190.51	17.71	-41.5	-43.8	19.3	0.00e+00	0	42	0	208666624	55	4480
2026-01-23 10:39:15.51	190.60	17.82	-41.5	-43.8	19.3	0.00e+00	0	41	0	210763776	54	4729
2026-01-23 10:39:16.51	190.69	17.93	-41.5	-43.8	19.3	0.00e+00	0	42	0	211812352	54	4751
2026-01-23 10:39:17.51	190.78	18.04	-41.4	-43.7	19.4	0.00e+00	0	42	0	213909504	54	4696
2026-01-23 10:39:18.51	190.87	18.15	-41.4	-43.7	19.4	0.00e+00	0	41	0	216006656	54	4703
2026-01-23 10:39:19.52	190.97	18.27	-41.4	-43.8	19.4	0.00e+00	0	42	0	218103808	54	4718
2026-01-23 10:39:20.52	191.06	18.38	-41.3	-43.6	19.5	0.00e+00	0	42	0	220200960	54	4650
2026-01-23 10:39:21.52	191.15	18.50	-41.4	-43.8	19.4	0.00e+00	0	41	0	221249536	54	4706
2026-01-23 10:39:22.52	191.25	18.61	-41.4	-43.8	19.4	0.00e+00	0	41	0	223346688	54	4712
2026-01-23 10:39:23.52	191.34	18.72	-41.4	-43.7	19.5	0.00e+00	0	42	0	225443840	54	4691
2026-01-23 10:39:24.53	191.44	18.84	-41.4	-43.7	19.5	0.00e+00	0	41	0	227540992	54	4664
2026-01-23 10:39:25.53	191.53	18.96	-41.3	-43.6	19.6	0.00e+00	0	42	0	229638144	54	4628
2026-01-23 10:39:26.52	191.63	19.07	-41.5	-43.8	19.5	0.00e+00	0	42	0	230686720	54	4710
2026-01-23 10:39:27.53	191.73	19.19	-41.4	-43.7	19.5	0.00e+00	0	41	0	232783872	54	4681
2026-01-23 10:39:28.53	191.82	19.31	-41.4	-43.7	19.6	0.00e+00	0	42	0	234881024	54	4659
2026-01-23 10:39:29.53	191.92	19.42	-41.5	-43.8	19.4	0.00e+00	0	42	0	236978176	54	4721
2026-01-23 10:39:30.53	192.02	19.54	-41.4	-43.7	19.5	0.00e+00	0	42	0	238026752	54	4700
2026-01-23 10:39:31.54	192.12	19.66	-41.4	-43.7	19.5	0.00e+00	0	42	0	240123904	54	4674
2026-01-23 10:39:32.54	192.22	19.78	-41.4	-43.8	19.5	0.00e+00	0	42	0	242221056	54	4707
2026-01-23 10:39:33.53	192.33	19.90	-41.5	-43.8	19.4	0.00e+00	0	42	0	244318208	54	4742
2026-01-23 10:39:34.54	192.43	20.02	-41.5	-43.8	19.4	0.00e+00	0	42	0	246415360	54	4736
2026-01-23 10:39:35.54	192.53	20.14	-41.6	-43.9	19.3	0.00e+00	0	42	0	247463936	54	4806
2026-01-23 10:39:36.54	192.64	20.26	-41.5	-43.9	19.4	0.00e+00	0	41	0	249561088	54	4783
2026-01-23 10:39:37.54	192.74	20.38	-41.6	-44.0	19.3	0.00e+00	0	42	0	251658240	54	4833
2026-01-23 10:39:38.54	192.85	20.51	-41.7	-44.1	19.2	0.00e+00	0	42	0	253755392	54	4888
2026-01-23 10:39:39.54	192.95	20.63	-41.6	-44.0	19.3	0.00e+00	0	42	0	255852544	54	4834
2026-01-23 10:39:40.54	193.06	20.75	-41.6	-43.9	19.3	0.00e+00	0	42	0	256901120	54	4807
2026-01-23 10:39:41.54	193.17	20.87	-41.6	-43.9	19.4	0.00e+00	0	42	0	258998272	54	4785
2026-01-23 10:39:42.54	193.28	21.00	-41.6	-43.9	19.4	0.00e+00	0	41	0	261095424	54	4790
2026-01-23 10:39:43.55	193.39	21.12	-41.6	-43.9	19.4	0.00e+00	0	42	0	263192576	54	4796
2026-01-23 10:39:44.55	193.50	21.25	-41.6	-43.8	19.4	0.00e+00	0	41	0	265289728	54	4751
2026-01-23 10:39:45.55	193.61	21.38	-41.5	-43.8	19.5	0.00e+00	0	41	0	266338304	54	4733
2026-01-23 10:39:46.55	193.72	21.50	-41.5	-43.7	19.5	0.00e+00	0	42	0	268435456	54	4676
2026-01-23 10:39:47.55	193.84	21.63	-41.4	-43.6	19.7	0.00e+00	0	41	0	270532608	54	4603
2026-01-23 10:39:48.55	193.95	21.76	-41.3	-43.5	19.7	0.00e+00	0	41	0	272629760	54	4590
2026-01-23 10:39:49.56	194.07	21.88	-41.4	-43.6	19.7	0.00e+00	0	42	0	274726912	54	4614
2026-01-23 10:39:50.56	194.18	22.01	-41.3	-43.5	19.7	0.00e+00	0	42	0	275775488	54	4573
2026-01-23 10:39:51.55	194.30	22.14	-41.3	-43.5	19.8	0.00e+00	0	42	0	277872640	54	4548
2026-01-23 10:39:52.55	194.42	22.27	-41.2	-43.4	19.9	0.00e+00	0	42	0	279969792	54	4527
2026-01-23 10:39:53.56	194.54	22.40	-41.3	-43.4	19.8	0.00e+00	0	42	0	282066944	54	4545
2026-01-23 10:39:54.56	194.66	22.53	-41.2	-43.4	19.9	0.00e+00	0	41	0	283115520	54	4521
2026-01-23 10:39:55.56	194.78	22.66	-41.3	-43.4	19.8	0.00e+00	0	42	0	285212672	54	4545
2026-01-23 10:39:56.55	194.90	22.79	-41.2	-43.4	19.8	0.00e+00	0	41	0	287309824	54	4536
2026-01-23 10:39:57.56	195.02	22.93	-41.2	-43.4	19.9	0.00e+00	0	42	0	289406976	54	4522
2026-01-23 10:39:58.55	195.15	23.06	-41.3	-43.5	19.8	0.00e+00	0	42	0	291504128	54	4572
2026-01-23 10:39:59.56	195.27	23.19	-41.3	-43.5	19.8	0.00e+00	0	42	0	292552704	54	4578
2026-01-23 10:40:00.56	195.40	23.32	-41.4	-43.6	19.7	0.00e+00	0	41	0	294649856	54	4616
2026-01-23 10:40:01.56	195.53	23.46	-41.3	-43.5	19.8	0.00e+00	0	41	0	296747008	54	4555
2026-01-23 10:40:02.56	195.66	23.59	-41.2	-43.4	19.9	0.00e+00	0	41	0	298844160	54	4526
2026-01-23 10:40:03.56	195.78	23.73	-41.3	-43.5	19.8	0.00e+00	0	42	0	300941312	54	4560
2026-01-23 10:40:04.56	195.91	23.86	-41.4	-43.6	19.7	0.00e+00	0	42	0	301989888	54	4610
2026-01-23 10:40:05.57	196.05	24.00	-41.3	-43.5	19.8	0.00e+00	0	42	0	304087040	54	4578
2026-01-23 10:40:06.57	196.18	24.14	-41.4	-43.6	19.7	0.00e+00	0	42	0	306184192	54	4630
2026-01-23 10:40:07.57	196.31	24.28	-41.5	-43.7	19.6	0.00e+00	0	42	0	308281344	54	4705
2026-01-23 10:40:08.57	196.45	24.42	-41.6	-43.9	19.4	0.00e+00	0	42	0	310378496	54	4780
2026-01-23 10:40:09.57	196.58	24.55	-41.8	-44.1	19.3	0.00e+00	0	42	0	311427072	54	4871
2026-01-23 10:40:10.57	196.72	24.69	-41.8	-44.1	19.2	0.00e+00	0	42	0	313524224	54	4876
2026-01-23 10:40:11.57	196.86	24.83	-41.9	-44.2	19.1	0.00e+00	0	41	0	315621376	54	4968
2026-01-23 10:40:12.58	197.00	24.97	-41.9	-44.2	19.1	0.00e+00	0	41	0	317718528	54	4968
2026-01-23 10:40:13.58	197.14	25.12	-41.9	-44.2	19.1	0.00e+00	0	41	0	318767104	54	4982
2026-01-23 10:40:14.58	197.28	25.26	-42.0	-44.3	19.1	0.00e+00	0	42	0	320864256	54	4994
2026-01-23 10:40:15.58	197.43	25.40	-41.9	-44.2	19.1	0.00e+00	0	41	0	322961408	54	4980
2026-01-23 10:40:16.59	197.57	25.54	-42.0	-44.2	19.1	0.00e+00	0	42	0	325058560	54	4983
2026-01-23 10:40:17.59	197.72	25.69	-42.0	-44.3	19.0	0.00e+00	0	42	0	327155712	54	5037
2026-01-23 10:40:18.59	197.87	25.83	-42.0	-44.4	19.0	0.00e+00	0	42	0	328204288	54	5047
2026-01-23 10:40:19.59	198.01	25.98	-42.1	-44.5	18.9	0.00e+00	0	42	0	330301440	55	4833
2026-01-23 10:40:20.59	198.16	26.12	-42.1	-44.4	19.0	0.00e+00	0	42	0	332398592	55	4788
2026-01-23 10:40:21.59	198.31	26.27	-42.2	-44.5	18.9	0.00e+00	0	41	0	334495744	55	4849
2026-01-23 10:40:22.59	198.47	26.41	-42.2	-44.6	18.8	0.00e+00	0	42	0	336592896	55	4882
2026-01-23 10:40:23.59	198.62	26.56	-42.2	-44.5	18.8	0.00e+00	0	42	0	337641472	55	4855
2026-01-23 10:40:24.59	198.78	26.71	-42.2	-44.5	18.8	0.00e+00	0	42	0	339738624	55	4855
2026-01-23 10:40:25.59	198.93	26.86	-42.1	-44.5	18.9	0.00e+00	0	42	0	341835776	55	4829
2026-01-23 10:40:26.59	199.09	27.00	-42.1	-44.5	18.8	0.00e+00	0	42	0	343932928	55	4843
2026-01-23 10:40:27.59	199.25	27.15	-42.2	-44.6	18.8	0.00e+00	0	42	0	344981504	55	4885
2026-01-23 10:40:28.59	199.41	27.30	-42.2	-44.5	18.9	0.00e+00	0	42	0	347078656	55	4856
2026-01-23 10:40:29.59	199.57	27.45	-42.2	-44.6	18.8	0.00e+00	0	42	0	349175808	55	4879
2026-01-23 10:40:30.59	199.74	27.60	-42.4	-44.8	18.6	0.00e+00	0	41	0	351272960	55	4988
2026-01-23 10:40:31.59	199.90	27.76	-42.5	-44.9	18.5	0.00e+00	0	42	0	353370112	55	5091
2026-01-23 10:40:32.59	200.07	27.91	-42.8	-45.3	18.3	0.00e+00	0	42	0	354418688	56	5034
2026-01-23 10:40:33.59	200.24	28.06	-43.1	-45.6	18.0	0.00e+00	0	42	0	356515840	56	5207
2026-01-23 10:40:34.59	200.41	28.21	-43.3	-45.9	17.6	0.00e+00	0	42	0	358612992	57	5100
2026-01-23 10:40:35.59	200.58	28.37	-43.4	-46.1	17.5	0.00e+00	0	42	0	360710144	57	5205
2026-01-23 10:40:36.59	200.75	28.52	-43.5	-46.2	17.4	0.00e+00	0	42	0	362807296	57	5243
2026-01-23 10:40:37.59	200.93	28.68	-43.5	-46.2	17.4	0.00e+00	0	42	0	363855872	57	5254
2026-01-23 10:40:38.59	201.10	28.83	-43.6	-46.3	17.3	0.00e+00	0	41	0	365953024	57	5326
2026-01-23 10:40:39.59	201.28	28.99	-43.7	-46.3	17.3	0.00e+00	0	42	0	368050176	58	5036
2026-01-23 10:40:40.59	201.46	29.15	-43.8	-46.6	17.0	0.00e+00	0	42	0	370147328	58	5173
2026-01-23 10:40:41.59	201.64	29.30	-43.9	-46.7	16.9	0.00e+00	0	42	0	372244480	58	5246
2026-01-23 10:40:42.59	201.83	29.46	-44.0	-46.7	16.9	0.00e+00	0	41	0	373293056	58	5265
2026-01-23 10:40:43.59	202.01	29.62	-44.0	-46.8	16.8	0.00e+00	0	41	0	375390208	58	5311
2026-01-23 10:40:44.59	202.20	29.78	-44.1	-46.9	16.7	0.00e+00	0	41	0	377487360	58	5368
2026-01-23 10:40:45.59	202.39	29.94	-44.0	-46.8	16.8	0.00e+00	0	42	0	379584512	58	5323
2026-01-23 10:40:46.59	202.58	30.10	-44.1	-46.9	16.7	0.00e+00	0	42	0	380633088	58	5394
2026-01-23 10:40:47.60	202.77	30.26	-44.3	-47.2	16.5	0.00e+00	0	42	0	382730240	59	5226
2026-01-23 10:40:48.59	202.96	30.42	-44.3	-47.1	16.5	0.00e+00	0	42	0	384827392	59	5215
2026-01-23 10:40:49.59	203.16	30.58	-44.3	-47.2	16.4	0.00e+00	0	41	0	386924544	59	5250
2026-01-23 10:40:50.60	203.36	30.75	-44.3	-47.2	16.4	0.00e+00	0	42	0	389021696	59	5269
2026-01-23 10:40:51.60	203.56	30.91	-44.5	-47.4	16.2	0.00e+00	0	42	0	390070272	59	5396
2026-01-23 10:40:52.60	203.76	31.07	-44.5	-47.5	16.2	0.00e+00	0	42	0	392167424	59	5415
2026-01-23 10:40:53.60	203.97	31.24	-44.3	-47.3	16.4	0.00e+00	0	41	0	394264576	59	5282
2026-01-23 10:40:54.60	204.17	31.40	-44.3	-47.1	16.5	0.00e+00	0	42	0	396361728	59	5208
2026-01-23 10:40:55.61	204.38	31.57	-44.3	-47.1	16.5	0.00e+00	0	42	0	398458880	59	5216
2026-01-23 10:40:56.61	204.59	31.73	-44.1	-46.9	16.7	0.00e+00	0	42	0	399507456	59	5082
2026-01-23 10:40:57.61	204.81	31.90	-44.1	-46.9	16.7	0.00e+00	0	42	0	401604608	59	5068
2026-01-23 10:40:58.61	205.02	32.07	-44.2	-47.1	16.6	0.00e+00	0	42	0	403701760	59	5184
2026-01-23 10:40:59.61	205.24	32.23	-44.2	-47.0	16.6	0.00e+00	0	42	0	405798912	59	5156
2026-01-23 10:41:00.61	205.46	32.40	-44.3	-47.2	16.4	0.00e+00	0	42	0	407896064	59	5258
2026-01-23 10:41:01.61	205.68	32.57	-44.3	-47.3	16.4	0.00e+00	0	42	0	408944640	59	5282
2026-01-23 10:41:02.61	205.90	32.74	-44.2	-47.1	16.6	0.00e+00	0	41	0	411041792	59	5174
2026-01-23 10:41:03.61	206.13	32.91	-43.9	-46.6	17.0	0.00e+00	0	42	0	413138944	59	4898
2026-01-23 10:41:04.62	206.36	33.08	-43.8	-46.5	17.2	0.00e+00	0	42	0	415236096	59	4840
2026-01-23 10:41:05.62	206.59	33.25	-43.7	-46.4	17.2	0.00e+00	0	42	0	417333248	59	4785
2026-01-23 10:41:06.62	206.82	33.42	-43.7	-46.4	17.2	0.00e+00	0	42	0	418381824	59	4793
2026-01-23 10:41:07.62	207.06	33.59	-43.7	-46.3	17.3	0.00e+00	0	42	0	420478976	59	4754
2026-01-23 10:41:08.62	207.29	33.76	-43.6	-46.3	17.4	0.00e+00	0	42	0	422576128	59	4718
2026-01-23 10:41:09.62	207.53	33.93	-43.6	-46.3	17.4	0.00e+00	0	42	0	424673280	59	4708
2026-01-23 10:41:10.62	207.78	34.10	-43.5	-46.1	17.6	0.00e+00	0	42	0	425721856	58	4902
2026-01-23 10:41:11.62	208.02	34.28	-43.5	-46.1	17.6	0.00e+00	0	42	0	427819008	58	4890
2026-01-23 10:41:12.62	208.27	34.45	-43.3	-45.9	17.7	0.00e+00	0	42	0	429916160	58	4761
2026-01-23 10:41:13.63	208.52	34.63	-43.2	-45.8	17.9	0.00e+00	0	41	0	432013312	58	4721
2026-01-23 10:41:14.63	208.78	34.80	-43.1	-45.6	18.0	0.00e+00	0	42	0	434110464	58	4635
2026-01-23 10:41:15.62	209.03	34.97	-42.9	-45.4	18.2	0.00e+00	0	42	0	435159040	57	4788
2026-01-23 10:41:16.62	209.29	35.15	-42.9	-45.4	18.3	0.00e+00	0	41	0	437256192	57	4767
2026-01-23 10:41:17.62	209.55	35.32	-43.0	-45.6	18.1	0.00e+00	0	41	0	439353344	57	4874
2026-01-23 10:41:18.62	209.81	35.49	-43.0	-45.5	18.2	0.00e+00	0	42	0	441450496	57	4822
2026-01-23 10:41:19.62	210.08	35.67	-42.8	-45.3	18.3	0.00e+00	0	42	0	443547648	57	4747
2026-01-23 10:41:20.62	210.35	35.85	-42.6	-45.0	18.6	0.00e+00	0	42	0	444596224	57	4586
2026-01-23 10:41:21.62	210.62	36.02	-42.3	-44.6	18.9	0.00e+00	0	41	0	446693376	56	4642
2026-01-23 10:41:22.62	210.90	36.20	-42.1	-44.4	19.2	0.00e+00	0	42	0	448790528	56	4500
2026-01-23 10:41:23.63	211.18	36.38	-41.8	-44.0	19.3	0.00e+00	0	42	0	450887680	55	4585
2026-01-23 10:41:24.62	211.45	36.55	-41.9	-44.2	19.2	0.00e+00	0	41	0	452984832	55	4654
2026-01-23 10:41:25.62	211.74	36.73	-41.9	-44.2	19.2	0.00e+00	0	42	0	454033408	55	4686
2026-01-23 10:41:26.62	212.03	36.90	-42.1	-44.4	19.1	0.00e+00	0	42	0	456130560	55	4788
2026-01-23 10:41:27.62	212.32	37.08	-42.3	-44.7	18.8	0.00e+00	0	41	0	458227712	55	4945
2026-01-23 10:41:28.63	212.61	37.26	-42.1	-44.4	19.0	0.00e+00	0	42	0	460324864	55	4814
2026-01-23 10:41:29.63	212.91	37.44	-41.9	-44.2	19.2	0.00e+00	0	42	0	461373440	55	4690
2026-01-23 10:41:30.63	213.21	37.61	-41.8	-44.0	19.4	0.00e+00	0	41	0	463470592	55	4575
2026-01-23 10:41:31.63	213.51	37.79	-41.6	-43.8	19.6	0.00e+00	0	42	0	465567744	55	4467
2026-01-23 10:41:32.64	213.82	37.97	-41.5	-43.7	19.7	0.00e+00	0	42	0	467664896	55	4409
2026-01-23 10:41:33.64	214.13	38.15	-41.4	-43.6	19.8	0.00e+00	0	42	0	469762048	54	4637
2026-01-23 10:41:34.64	214.44	38.32	-41.4	-43.6	19.8	0.00e+00	0	42	0	470810624	54	4625
2026-01-23 10:41:35.64	214.76	38.50	-41.4	-43.5	19.9	0.00e+00	0	42	0	472907776	54	4584
2026-01-23 10:41:36.64	215.08	38.68	-41.3	-43.5	19.9	0.00e+00	0	42	0	475004928	54	4563
2026-01-23 10:41:37.64	215.40	38.86	-41.6	-43.8	19.6	0.00e+00	0	42	0	477102080	54	4735
2026-01-23 10:41:38.64	215.73	39.03	-41.8	-44.1	19.3	0.00e+00	0	42	0	479199232	54	4899
2026-01-23 10:41:39.64	216.06	39.21	-42.3	-44.7	18.8	0.00e+00	0	41	0	480247808	55	4955
2026-01-23 10:41:40.64	216.39	39.39	-42.5	-44.9	18.6	0.00e+00	0	41	0	482344960	55	5051
2026-01-23 10:41:41.65	216.73	39.57	-42.5	-44.9	18.6	0.00e+00	0	42	0	484442112	55	5050
2026-01-23 10:41:42.65	217.07	39.74	-42.4	-44.8	18.7	0.00e+00	0	42	0	486539264	55	4995
2026-01-23 10:41:43.65	217.42	39.92	-42.1	-44.4	19.0	0.00e+00	0	42	0	487587840	55	4800
2026-01-23 10:41:44.65	217.77	40.10	-42.0	-44.3	19.1	0.00e+00	0	42	0	489684992	55	4745
2026-01-23 10:41:45.65	218.12	40.27	-42.1	-44.4	19.0	0.00e+00	0	42	0	491782144	55	4804
2026-01-23 10:41:46.66	218.48	40.45	-42.4	-44.7	18.7	0.00e+00	0	42	0	493879296	55	4978
2026-01-23 10:41:47.66	218.84	40.62	-42.6	-45.1	18.4	0.00e+00	0	41	0	495976448	55	5166
2026-01-23 10:41:48.66	219.20	40.80	-43.0	-45.5	18.2	0.00e+00	0	42	0	498073600	56	5123
2026-01-23 10:41:49.66	219.57	40.97	-43.0	-45.5	18.2	0.00e+00	0	41	0	499122176	56	5126
2026-01-23 10:41:50.66	219.94	41.15	-42.9	-45.3	18.4	0.00e+00	0	41	0	501219328	56	5009
2026-01-23 10:41:51.66	220.31	41.32	-42.8	-45.2	18.5	0.00e+00	0	42	0	503316480	56	4941
2026-01-23 10:41:52.67	220.70	41.49	-42.7	-45.0	18.6	0.00e+00	0	42	0	505413632	56	4863
2026-01-23 10:41:53.67	221.08	41.67	-42.7	-45.1	18.6	0.00e+00	0	42	0	506462208	56	4881
2026-01-23 10:41:54.67	221.47	41.84	-43.0	-45.5	18.1	0.00e+00	0	42	0	508559360	56	5150
2026-01-23 10:41:55.67	221.86	42.01	-43.3	-45.9	17.7	0.00e+00	0	41	0	510656512	57	5086
2026-01-23 10:41:56.67	222.25	42.18	-43.5	-46.1	17.6	0.00e+00	0	42	0	512753664	57	5172
2026-01-23 10:41:57.67	222.65	42.35	-43.3	-45.8	17.9	0.00e+00	0	41	0	514850816	57	5015
2026-01-23 10:41:58.68	223.06	42.52	-43.2	-45.7	18.0	0.00e+00	0	41	0	515899392	57	4947
2026-01-23 10:41:59.68	223.47	42.69	-43.0	-45.4	18.2	0.00e+00	0	41	0	517996544	57	4812
2026-01-23 10:42:00.68	223.88	42.85	-42.9	-45.4	18.3	0.00e+00	0	42	0	520093696	57	4783
2026-01-23 10:42:01.68	224.30	43.02	-42.7	-45.1	18.5	0.00e+00	0	42	0	522190848	57	4636
2026-01-23 10:42:02.68	224.72	43.18	-42.8	-45.2	18.4	0.00e+00	0	42	0	524288000	57	4686
2026-01-23 10:42:03.68	225.14	43.35	-42.8	-45.3	18.4	0.00e+00	0	42	0	525336576	57	4708
2026-01-23 10:42:04.68	225.57	43.51	-43.0	-45.4	18.2	0.00e+00	0	41	0	527433728	57	4807
2026-01-23 10:42:05.68	226.01	43.67	-43.1	-45.6	18.0	0.00e+00	0	41	0	529530880	57	4898
2026-01-23 10:42:06.68	226.45	43.83	-43.1	-45.6	18.1	0.00e+00	0	41	0	531628032	57	4912
2026-01-23 10:42:07.69	226.89	44.00	-42.9	-45.4	18.3	0.00e+00	0	42	0	532676608	57	4762
2026-01-23 10:42:08.68	227.33	44.15	-42.8	-45.2	18.5	0.00e+00	0	41	0	534773760	57	4663
2026-01-23 10:42:09.68	227.79	44.31	-42.7	-45.1	18.6	0.00e+00	0	41	0	536870912	57	4604
2026-01-23 10:42:10.69	228.25	44.47	-42.7	-45.1	18.5	0.00e+00	0	41	0	538968064	57	4644
2026-01-23 10:42:11.69	228.71	44.62	-42.8	-45.2	18.4	0.00e+00	0	42	0	541065216	57	4683
2026-01-23 10:42:12.69	229.17	44.77	-42.9	-45.3	18.3	0.00e+00	0	42	0	542113792	57	4758
2026-01-23 10:42:13.69	229.64	44.93	-42.9	-45.4	18.2	0.00e+00	0	41	0	544210944	57	4801
2026-01-23 10:42:14.69	230.11	45.08	-42.8	-45.3	18.3	0.00e+00	0	41	0	546308096	57	4742
2026-01-23 10:42:15.69	230.59	45.22	-42.6	-45.0	18.6	0.00e+00	0	42	0	548405248	57	4568
2026-01-23 10:42:16.69	231.07	45.37	-42.3	-44.7	19.0	0.00e+00	0	41	0	550502400	56	4659
2026-01-23 10:42:17.69	231.56	45.52	-42.5	-44.8	18.8	0.00e+00	0	42	0	551550976	56	4735
2026-01-23 10:42:18.69	232.05	45.66	-42.8	-45.2	18.4	0.00e+00	0	42	0	553648128	56	4975
2026-01-23 10:42:19.69	232.54	45.80	-43.2	-45.8	17.9	0.00e+00	0	42	0	555745280	57	4984
2026-01-23 10:42:20.70	233.05	45.94	-43.3	-45.8	17.8	0.00e+00	0	41	0	557842432	57	4995
2026-01-23 10:42:21.70	233.55	46.08	-43.2	-45.6	18.0	0.00e+00	0	42	0	559939584	57	4919
2026-01-23 10:42:22.70	234.06	46.22	-43.1	-45.5	18.1	0.00e+00	0	41	0	560988160	57	4854
2026-01-23 10:42:23.70	234.57	46.35	-42.9	-45.4	18.3	0.00e+00	0	42	0	563085312	57	4782
2026-01-23 10:42:24.70	235.09	46.48	-42.8	-45.2	18.5	0.00e+00	0	42	0	565182464	57	4653
2026-01-23 10:42:25.71	235.62	46.61	-42.9	-45.3	18.4	0.00e+00	0	42	0	567279616	57	4731
2026-01-23 10:42:26.71	236.14	46.74	-43.2	-45.7	18.0	0.00e+00	0	41	0	569376768	57	4936
2026-01-23 10:42:27.71	236.67	46.87	-43.7	-46.3	17.4	0.00e+00	0	41	0	570425344	57	5327
2026-01-23 10:42:28.71	237.21	46.99	-43.7	-46.5	17.2	0.00e+00	0	41	0	572522496	58	5101
2026-01-23 10:42:29.71	237.74	47.11	-43.8	-46.6	17.1	0.00e+00	0	42	0	574619648	58	5176
2026-01-23 10:42:30.71	238.29	47.23	-43.7	-46.4	17.4	0.00e+00	0	41	0	576716800	58	5069
2026-01-23 10:42:31.71	238.83	47.35	-43.8	-46.6	17.2	0.00e+00	0	41	0	577765376	58	5164
2026-01-23 10:42:32.72	239.39	47.46	-44.2	-47.0	16.8	0.00e+00	0	42	0	579862528	58	5438
2026-01-23 10:42:33.72	239.94	47.57	-44.3	-47.2	16.5	0.00e+00	0	42	0	581959680	59	5267
2026-01-23 10:42:34.72	240.50	47.68	-44.3	-47.3	16.4	0.00e+00	0	42	0	584056832	59	5316
2026-01-23 10:42:35.73	241.07	47.79	-44.2	-47.2	16.6	0.00e+00	0	41	0	586153984	59	5222
2026-01-23 10:42:36.73	241.63	47.89	-44.0	-46.8	16.9	0.00e+00	0	41	0	587202560	59	5020
2026-01-23 10:42:37.73	242.20	47.99	-44.0	-46.7	17.0	0.00e+00	0	41	0	589299712	59	4968
2026-01-23 10:42:38.73	242.77	48.09	-44.2	-47.0	16.8	0.00e+00	0	42	0	591396864	59	5133
2026-01-23 10:42:39.73	243.35	48.18	-44.5	-47.5	16.1	0.00e+00	0	41	0	593494016	59	5456
2026-01-23 10:42:40.73	243.93	48.27	-45.0	-48.1	15.6	0.00e+00	0	41	0	595591168	60	5526
2026-01-23 10:42:41.74	244.52	48.36	-44.9	-48.1	15.7	0.00e+00	0	41	0	596639744	60	5465
2026-01-23 10:42:42.73	245.10	48.45	-44.6	-47.6	16.1	0.00e+00	0	42	0	598736896	60	5207
2026-01-23 10:42:43.73	245.69	48.53	-44.2	-47.1	16.6	0.00e+00	0	41	0	600834048	60	4913
2026-01-23 10:42:44.74	246.29	48.61	-44.1	-47.0	16.8	0.00e+00	0	42	0	602931200	60	4817
2026-01-23 10:42:45.74	246.88	48.69	-44.2	-47.0	16.8	0.00e+00	0	42	0	605028352	60	4863
2026-01-23 10:42:46.74	247.48	48.76	-44.4	-47.4	16.4	0.00e+00	0	41	0	606076928	60	5051
2026-01-23 10:42:47.74	248.08	48.83	-44.5	-47.5	16.2	0.00e+00	0	41	0	608174080	60	5141
2026-01-23 10:42:48.74	248.69	48.90	-44.4	-47.3	16.4	0.00e+00	0	41	0	610271232	60	5020
2026-01-23 10:42:49.74	249.29	48.96	-44.2	-47.1	16.7	0.00e+00	0	42	0	612368384	60	4876
2026-01-23 10:42:50.74	249.90	49.02	-43.8	-46.5	17.1	0.00e+00	0	41	0	613416960	59	4834
2026-01-23 10:42:51.74	250.51	49.08	-43.8	-46.5	17.2	0.00e+00	0	41	0	615514112	59	4839
2026-01-23 10:42:52.75	251.13	49.13	-44.0	-46.7	17.0	0.00e+00	0	41	0	617611264	59	4969
2026-01-23 10:42:53.75	251.75	49.18	-44.2	-47.1	16.7	0.00e+00	0	41	0	619708416	59	5174
2026-01-23 10:42:54.75	252.36	49.23	-44.3	-47.1	16.5	0.00e+00	0	41	0	621805568	59	5212
2026-01-23 10:42:55.75	252.98	49.27	-44.1	-46.9	16.8	0.00e+00	0	42	0	622854144	59	5071
2026-01-23 10:42:56.76	253.61	49.31	-44.1	-46.9	16.8	0.00e+00	0	41	0	624951296	59	5056
2026-01-23 10:42:57.76	254.23	49.35	-43.9	-46.7	17.1	0.00e+00	0	42	0	627048448	59	4929
2026-01-23 10:42:58.76	254.86	49.38	-44.0	-46.7	17.1	0.00e+00	0	41	0	629145600	59	4964
2026-01-23 10:42:59.76	255.48	49.41	-43.9	-46.6	17.1	0.00e+00	0	41	0	631242752	59	4915
2026-01-23 10:43:00.76	256.11	49.44	-43.8	-46.5	17.2	0.00e+00	0	41	0	632291328	59	4842
2026-01-23 10:43:01.77	256.74	49.46	-43.7	-46.4	17.4	0.00e+00	0	41	0	634388480	59	4762
2026-01-23 10:43:02.77	257.37	49.48	-43.4	-46.0	17.8	0.00e+00	0	41	0	636485632	58	4815
2026-01-23 10:43:03.77	258.00	49.49	-43.1	-45.6	18.1	0.00e+00	0	41	0	638582784	58	4624
2026-01-23 10:43:04.77	258.62	49.50	-43.1	-45.6	18.1	0.00e+00	0	41	0	640679936	58	4610
2026-01-23 10:43:05.77	259.25	49.51	-43.3	-45.8	17.9	0.00e+00	0	42	0	641728512	58	4726
2026-01-23 10:43:06.77	259.88	49.52	-43.0	-45.5	18.2	0.00e+00	0	41	0	643825664	58	4595
2026-01-23 10:43:07.78	260.52	49.52	-43.0	-45.5	18.2	0.00e+00	0	42	0	645922816	57	4856
2026-01-23 10:43:08.78	261.15	49.51	-42.7	-45.1	18.6	0.00e+00	0	41	0	648019968	57	4603
2026-01-23 10:43:09.78	261.78	49.51	-42.8	-45.2	18.5	0.00e+00	0	41	0	650117120	57	4662
2026-01-23 10:43:10.79	262.41	49.50	-43.3	-45.8	17.9	0.00e+00	0	42	0	651165696	57	5012
2026-01-23 10:43:11.79	263.04	49.48	-43.6	-46.3	17.4	0.00e+00	0	41	0	653262848	57	5331
2026-01-23 10:43:12.79	263.67	49.46	-43.5	-46.2	17.5	0.00e+00	0	41	0	655360000	57	5251
2026-01-23 10:43:13.80	264.30	49.44	-43.1	-45.6	18.1	0.00e+00	0	41	0	657457152	57	4897
2026-01-23 10:43:14.80	264.93	49.42	-42.7	-45.1	18.6	0.00e+00	0	41	0	658505728	57	4642
2026-01-23 10:43:15.80	265.55	49.39	-43.3	-45.8	17.9	0.00e+00	0	41	0	660602880	57	5003
2026-01-23 10:43:16.80	266.18	49.36	-43.2	-45.8	17.9	0.00e+00	0	41	0	662700032	57	5003
2026-01-23 10:43:17.80	266.80	49.32	-43.7	-46.5	17.2	0.00e+00	0	41	0	664797184	58	5112
2026-01-23 10:43:18.80	267.42	49.28	-43.7	-46.4	17.3	0.00e+00	0	41	0	666894336	58	5086
2026-01-23 10:43:19.80	268.04	49.24	-43.6	-46.3	17.5	0.00e+00	0	41	0	667942912	58	4998
2026-01-23 10:43:20.80	268.65	49.19	-43.6	-46.3	17.4	0.00e+00	0	41	0	670040064	58	4993
2026-01-23 10:43:21.80	269.27	49.14	-44.0	-46.8	16.9	0.00e+00	0	42	0	672137216	58	5305
2026-01-23 10:43:22.80	269.88	49.09	-44.2	-47.0	16.7	0.00e+00	0	41	0	674234368	59	5152
2026-01-23 10:43:23.80	270.49	49.04	-43.8	-46.5	17.2	0.00e+00	0	41	0	676331520	59	4851
2026-01-23 10:43:24.80	271.10	48.98	-43.8	-46.6	17.1	0.00e+00	0	42	0	677380096	59	4871
2026-01-23 10:43:25.80	271.71	48.91	-43.7	-46.4	17.3	0.00e+00	0	42	0	679477248	59	4775
2026-01-23 10:43:26.80	272.31	48.85	-44.1	-46.9	16.8	0.00e+00	0	41	0	681574400	59	5061
2026-01-23 10:43:27.81	272.92	48.78	-44.5	-47.5	16.3	0.00e+00	0	41	0	683671552	59	5408
2026-01-23 10:43:28.81	273.52	48.70	-44.4	-47.3	16.4	0.00e+00	0	41	0	685768704	59	5328
2026-01-23 10:43:29.81	274.11	48.63	-44.0	-46.7	16.9	0.00e+00	0	42	0	686817280	59	4981
2026-01-23 10:43:30.81	274.71	48.55	-43.7	-46.3	17.4	0.00e+00	0	42	0	688914432	59	4756
2026-01-23 10:43:31.81	275.30	48.47	-43.9	-46.6	17.1	0.00e+00	0	41	0	691011584	59	4895
2026-01-23 10:43:32.82	275.89	48.38	-44.2	-47.0	16.8	0.00e+00	0	42	0	693108736	59	5122
2026-01-23 10:43:33.82	276.47	48.30	-44.5	-47.5	16.3	0.00e+00	0	42	0	695205888	59	5416
2026-01-23 10:43:34.82	277.05	48.20	-44.9	-48.1	15.7	0.00e+00	0	41	0	696254464	60	5481
2026-01-23 10:43:35.82	277.63	48.11	-44.8	-48.0	15.8	0.00e+00	0	41	0	698351616	60	5414
2026-01-23 10:43:36.82	278.20	48.01	-45.0	-48.2	15.6	0.00e+00	0	42	0	700448768	60	5554
2026-01-23 10:43:37.82	278.77	47.91	-45.6	-49.1	14.7	0.00e+00	0	41	0	702545920	61	5837
2026-01-23 10:43:38.83	279.34	47.81	-46.2	-50.2	13.6	1.50e-06	0	42	0	703594496	62	6247
2026-01-23 10:43:39.83	279.90	47.71	-45.8	-49.6	14.1	6.80e-06	0	41	0	705691648	63	5506
2026-01-23 10:43:40.83	280.46	47.60	-45.4	-48.8	14.9	0.00e+00	0	41	0	707788800	62	5337
2026-01-23 10:43:41.83	281.01	47.49	-45.5	-48.9	14.9	0.00e+00	0	41	0	709885952	62	5378
2026-01-23 10:43:42.83	281.56	47.38	-46.1	-49.9	13.8	7.00e-07	0	41	0	711983104	62	6035
2026-01-23 10:43:43.83	282.11	47.26	-46.7	-51.0	12.9	2.97e-05	0	41	0	713031680	63	6421
2026-01-23 10:43:44.83	282.65	47.14	-46.4	-50.6	13.1	6.56e-05	0	41	0	715128832	64	5823
2026-01-23 10:43:45.84	283.19	47.02	-45.8	-49.5	14.3	5.30e-06	0	42	0	717225984	63	5406
2026-01-23 10:43:46.84	283.73	46.90	-45.6	-49.0	14.8	0.00e+00	0	41	0	719323136	63	5147
2026-01-23 10:43:47.84	284.26	46.78	-45.4	-48.7	15.1	0.00e+00	0	42	0	721420288	62	5275
2026-01-23 10:43:48.84	284.78	46.65	-45.9	-49.6	14.2	0.00e+00	0	42	0	722468864	62	5817
2026-01-23 10:43:49.84	285.30	46.52	-46.5	-50.8	13.0	1.44e-05	0	41	0	724566016	63	6315
2026-01-23 10:43:50.84	285.82	46.39	-45.8	-49.5	14.2	8.30e-06	0	42	0	726663168	63	5427
2026-01-23 10:43:51.84	286.33	46.26	-44.5	-47.5	16.3	0.00e+00	0	41	0	728760320	60	5124
2026-01-23 10:43:52.84	286.84	46.12	-43.9	-46.7	17.0	0.00e+00	0	41	0	730857472	59	4939
2026-01-23 10:43:53.84	287.34	45.99	-44.1	-46.9	16.9	0.00e+00	0	42	0	731906048	59	5054
2026-01-23 10:43:54.84	287.84	45.85	-44.4	-47.3	16.5	0.00e+00	0	41	0	734003200	59	5296
2026-01-23 10:43:55.84	288.34	45.71	-44.1	-46.9	16.8	0.00e+00	0	41	0	736100352	59	5074
2026-01-23 10:43:56.84	288.83	45.56	-43.4	-46.0	17.6	0.00e+00	0	41	0	738197504	58	4845
2026-01-23 10:43:57.84	289.32	45.42	-43.0	-45.5	18.2	0.00e+00	0	41	0	739246080	58	4567
2026-01-23 10:43:58.85	289.80	45.27	-43.1	-45.6	18.1	0.00e+00	0	41	0	741343232	58	4642
2026-01-23 10:43:59.85	290.28	45.12	-43.2	-45.7	18.0	0.00e+00	0	41	0	743440384	58	4704
2026-01-23 10:44:00.85	290.75	44.98	-43.5	-46.1	17.6	0.00e+00	0	41	0	745537536	58	4922
2026-01-23 10:44:01.85	291.22	44.83	-43.9	-46.5	17.2	0.00e+00	0	41	0	747634688	58	5159
2026-01-23 10:44:02.85	291.69	44.67	-43.7	-46.3	17.4	0.00e+00	0	41	0	748683264	58	5027
2026-01-23 10:44:03.86	292.15	44.52	-43.5	-46.0	17.7	0.00e+00	0	41	0	750780416	58	4863
2026-01-23 10:44:04.86	292.61	44.36	-43.1	-45.6	18.1	0.00e+00	0	41	0	752877568	58	4627
2026-01-23 10:44:05.86	293.06	44.21	-43.0	-45.5	18.2	0.00e+00	0	41	0	754974720	58	4564
2026-01-23 10:44:06.86	293.50	44.05	-42.5	-44.8	18.8	0.00e+00	0	41	0	757071872	57	4468
2026-01-23 10:44:07.86	293.94	43.89	-42.1	-44.4	19.2	0.00e+00	0	41	0	758120448	56	4510
2026-01-23 10:44:08.86	294.38	43.73	-42.2	-44.5	19.1	0.00e+00	0	41	0	760217600	56	4587
2026-01-23 10:44:09.86	294.82	43.57	-42.5	-44.8	18.9	0.00e+00	0	41	0	762314752	56	4750
2026-01-23 10:44:10.86	295.25	43.41	-42.9	-45.3	18.4	0.00e+00	0	41	0	764411904	56	5026
2026-01-23 10:44:11.87	295.67	43.24	-42.6	-45.0	18.6	0.00e+00	0	41	0	766509056	56	4850
2026-01-23 10:44:12.87	296.10	43.08	-42.1	-44.4	19.3	0.00e+00	0	41	0	767557632	56	4506
2026-01-23 10:44:13.87	296.51	42.91	-42.1	-44.4	19.3	0.00e+00	0	41	0	769654784	56	4515
2026-01-23 10:44:14.87	296.92	42.75	-42.3	-44.6	19.0	0.00e+00	0	41	0	771751936	56	4639
2026-01-23 10:44:15.87	297.33	42.58	-42.6	-45.0	18.7	0.00e+00	0	41	0	773849088	56	4846
2026-01-23 10:44:16.87	297.74	42.41	-42.6	-45.1	18.6	0.00e+00	0	41	0	775946240	56	4900
2026-01-23 10:44:17.87	298.13	42.25	-42.4	-44.8	18.9	0.00e+00	0	41	0	776994816	56	4723
2026-01-23 10:44:18.87	298.53	42.08	-42.2	-44.6	19.0	0.00e+00	0	41	0	779091968	56	4613
2026-01-23 10:44:19.87	298.92	41.91	-42.3	-44.6	19.1	0.00e+00	0	41	0	781189120	56	4614
2026-01-23 10:44:20.88	299.31	41.74	-42.7	-45.0	18.6	0.00e+00	0	41	0	783286272	56	4868
2026-01-23 10:44:21.88	299.70	41.56	-43.6	-46.3	17.4	0.00e+00	0	41	0	784334848	57	5317
2026-01-23 10:44:22.88	300.07	41.39	-43.7	-46.4	17.3	0.00e+00	0	41	0	786432000	58	5085
2026-01-23 10:44:23.88	300.45	41.22	-42.8	-45.2	18.4	0.00e+00	0	41	0	788529152	57	4705
2026-01-23 10:44:24.88	300.82	41.05	-42.2	-44.5	19.1	0.00e+00	0	41	0	790626304	56	4568
2026-01-23 10:44:25.88	301.19	40.87	-42.3	-44.6	19.0	0.00e+00	0	41	0	792723456	56	4616
2026-01-23 10:44:26.88	301.55	40.70	-43.1	-45.6	18.1	0.00e+00	0	41	0	793772032	56	5183
2026-01-23 10:44:27.89	301.92	40.53	-44.0	-46.8	16.9	0.00e+00	0	41	0	795869184	58	5326
2026-01-23 10:44:28.89	302.27	40.35	-44.0	-46.9	16.9	0.00e+00	0	41	0	797966336	59	5050
2026-01-23 10:44:29.89	302.62	40.18	-43.7	-46.4	17.3	0.00e+00	0	41	0	800063488	59	4776
2026-01-23 10:44:30.88	302.97	40.00	-43.2	-45.8	17.9	0.00e+00	0	41	0	802160640	58	4738
2026-01-23 10:44:31.88	303.31	39.83	-43.0	-45.5	18.2	0.00e+00	0	41	0	803209216	57	4863
2026-01-23 10:44:32.89	303.66	39.65	-43.4	-46.1	17.6	0.00e+00	0	41	0	805306368	57	5161
2026-01-23 10:44:33.89	303.99	39.47	-44.2	-47.0	16.7	0.00e+00	0	41	0	807403520	59	5153
2026-01-23 10:44:34.89	304.33	39.30	-44.8	-48.1	15.7	0.00e+00	0	41	0	809500672	60	5471
2026-01-23 10:44:35.89	304.66	39.12	-44.0	-46.8	16.9	0.00e+00	0	41	0	810549248	60	4727
2026-01-23 10:44:36.89	304.98	38.95	-43.2	-45.8	17.9	0.00e+00	0	41	0	812646400	58	4712
2026-01-23 10:44:37.89	305.31	38.77	-42.9	-45.4	18.3	0.00e+00	0	41	0	814743552	57	4765
2026-01-23 10:44:38.89	305.63	38.59	-43.0	-45.5	18.2	0.00e+00	0	41	0	816840704	57	4839
2026-01-23 10:44:39.89	305.94	38.42	-44.1	-47.0	16.7	0.00e+00	0	41	0	818937856	58	5425
2026-01-23 10:44:40.89	306.26	38.24	-45.5	-49.2	14.6	0.00e+00	0	41	0	819986432	61	5913
2026-01-23 10:44:41.89	306.57	38.07	-45.9	-50.0	13.7	3.80e-06	0	41	0	822083584	62	6108
2026-01-23 10:44:42.89	306.87	37.89	-45.3	-48.8	14.9	7.00e-07	0	41	0	824180736	62	5335
2026-01-23 10:44:43.90	307.18	37.71	-44.7	-48.0	15.8	0.00e+00	0	41	0	826277888	61	5102
2026-01-23 10:44:44.90	307.48	37.53	-44.7	-47.9	15.8	0.00e+00	0	42	0	828375040	61	5065
2026-01-23 10:44:45.90	307.78	37.36	-44.7	-47.8	16.0	0.00e+00	0	41	0	829423616	60	5296
2026-01-23 10:44:46.90	308.07	37.18	-45.6	-49.2	14.6	0.00e+00	0	41	0	831520768	61	5888
2026-01-23 10:44:47.90	308.36	37.01	-46.4	-50.6	13.2	7.60e-06	0	41	0	833617920	63	6136
2026-01-23 10:44:48.90	308.65	36.83	-46.4	-50.8	12.8	1.01e-04	0	41	0	835715072	64	5968
2026-01-23 10:44:49.90	308.93	36.66	-45.6	-49.3	14.4	1.60e-05	0	41	0	837812224	63	5331
2026-01-23 10:44:50.90	309.21	36.48	-44.4	-47.4	16.3	0.00e+00	0	41	0	838860800	60	5074
2026-01-23 10:44:51.90	309.49	36.30	-43.2	-45.8	17.9	0.00e+00	0	41	0	840957952	58	4722
2026-01-23 10:44:52.91	309.77	36.13	-42.9	-45.4	18.3	0.00e+00	0	41	0	843055104	57	4778
2026-01-23 10:44:53.91	310.04	35.95	-42.9	-45.4	18.3	0.00e+00	0	41	0	845152256	57	4772
2026-01-23 10:44:54.91	310.31	35.78	-43.8	-46.5	17.2	0.00e+00	0	41	0	847249408	58	5138
2026-01-23 10:44:55.92	310.58	35.60	-44.9	-48.1	15.7	0.00e+00	0	41	0	848297984	60	5516
2026-01-23 10:44:56.92	310.84	35.43	-45.3	-48.8	15.0	0.00e+00	0	41	0	850395136	61	5610
2026-01-23 10:44:57.92	311.11	35.26	-44.7	-47.8	15.9	0.00e+00	0	41	0	852492288	61	5025
2026-01-23 10:44:58.92	311.36	35.08	-44.1	-46.9	16.8	0.00e+00	0	41	0	854589440	60	4790
2026-01-23 10:44:59.92	311.62	34.91	-43.8	-46.5	17.2	0.00e+00	0	41	0	855638016	59	4816
2026-01-23 10:45:00.92	311.87	34.74	-43.5	-46.1	17.5	0.00e+00	0	41	0	857735168	59	4645
2026-01-23 10:45:01.92	312.12	34.56	-43.8	-46.5	17.2	0.00e+00	0	41	0	859832320	58	5119
2026-01-23 10:45:02.92	312.37	34.39	-44.6	-47.7	16.0	0.00e+00	0	41	0	861929472	59	5531
2026-01-23 10:45:03.93	312.62	34.22	-45.4	-48.9	14.9	0.00e+00	0	41	0	864026624	61	5682
2026-01-23 10:45:04.93	312.86	34.05	-46.1	-50.1	13.7	3.00e-06	0	41	0	865075200	62	6171
2026-01-23 10:45:05.93	313.10	33.88	-46.3	-50.6	13.1	1.98e-05	0	41	0	867172352	63	6154
2026-01-23 10:45:06.93	313.34	33.71	-45.5	-49.2	14.5	3.80e-06	0	41	0	869269504	63	5268
2026-01-23 10:45:07.93	313.58	33.54	-44.5	-47.7	16.1	0.00e+00	0	41	0	871366656	61	4931
2026-01-23 10:45:08.94	313.81	33.37	-43.8	-46.6	17.0	0.00e+00	0	41	0	873463808	59	4896
2026-01-23 10:45:09.93	314.04	33.20	-43.5	-46.2	17.4	0.00e+00	0	41	0	874512384	59	4688
2026-01-23 10:45:10.94	314.27	33.03	-43.3	-46.0	17.7	0.00e+00	0	41	0	876609536	58	4834
2026-01-23 10:45:11.94	314.50	32.86	-43.6	-46.4	17.3	0.00e+00	0	41	0	878706688	58	5051
2026-01-23 10:45:12.94	314.72	32.69	-44.6	-47.7	16.1	0.00e+00	0	41	0	880803840	59	5540
2026-01-23 10:45:13.94	314.94	32.53	-45.4	-49.0	14.8	0.00e+00	0	41	0	882900992	61	5736
2026-01-23 10:45:14.94	315.16	32.36	-46.4	-50.6	13.2	2.20e-06	0	41	0	883949568	63	6132
2026-01-23 10:45:15.94	315.38	32.19	-46.5	-51.0	12.6	4.19e-05	0	41	0	886046720	64	6081
2026-01-23 10:45:16.94	315.59	32.03	-46.2	-50.3	13.3	5.18e-05	0	41	0	888143872	64	5617
2026-01-23 10:45:17.94	315.80	31.86	-45.6	-49.2	14.4	4.50e-06	0	41	0	890241024	63	5270
2026-01-23 10:45:18.94	316.02	31.70	-45.0	-48.3	15.4	0.00e+00	0	41	0	891289600	62	5002
2026-01-23 10:45:19.95	316.23	31.53	-44.1	-47.1	16.6	0.00e+00	0	41	0	893386752	60	4894
2026-01-23 10:45:20.94	316.43	31.37	-43.5	-46.3	17.3	0.00e+00	0	41	0	895483904	59	4742
2026-01-23 10:45:21.95	316.64	31.20	-43.1	-45.9	17.8	0.00e+00	0	41	0	897581056	58	4778
2026-01-23 10:45:22.95	316.84	31.04	-43.2	-46.1	17.6	0.00e+00	0	41	0	899678208	58	4888
2026-01-23 10:45:23.95	317.04	30.88	-43.7	-46.9	16.8	0.00e+00	0	41	0	900726784	58	5354
2026-01-23 10:45:24.96	317.24	30.72	-44.3	-47.7	15.9	0.00e+00	0	41	0	902823936	59	5577
2026-01-23 10:45:25.96	317.44	30.56	-44.6	-48.1	15.5	0.00e+00	0	41	0	904921088	59	5853
2026-01-23 10:45:26.96	317.63	30.40	-44.7	-48.3	15.5	0.00e+00	0	41	0	907018240	60	5619
2026-01-23 10:45:27.95	317.82	30.24	-44.6	-48.0	15.7	0.00e+00	0	41	0	909115392	60	5429
2026-01-23 10:45:28.96	318.02	30.08	-44.4	-47.5	16.2	0.00e+00	0	41	0	910163968	60	5152
2026-01-23 10:45:29.96	318.20	29.92	-44.3	-47.3	16.4	0.00e+00	0	41	0	912261120	60	5012
2026-01-23 10:45:30.96	318.39	29.76	-43.7	-46.5	17.2	0.00e+00	0	41	0	914358272	59	4821
2026-01-23 10:45:31.96	318.58	29.60	-43.6	-46.3	17.3	0.00e+00	0	41	0	916455424	59	4728
2026-01-23 10:45:32.96	318.76	29.44	-43.8	-46.5	17.1	0.00e+00	0	41	0	918552576	59	4845
2026-01-23 10:45:33.95	318.94	29.29	-43.9	-46.7	16.9	0.00e+00	0	41	0	919601152	59	4944
2026-01-23 10:45:34.96	319.12	29.13	-44.2	-47.1	16.6	0.00e+00	0	41	0	921698304	59	5170
2026-01-23 10:45:35.96	319.30	28.98	-44.4	-47.4	16.3	0.00e+00	0	41	0	923795456	59	5367
2026-01-23 10:45:36.95	319.48	28.82	-44.5	-47.6	16.0	0.00e+00	0	41	0	925892608	59	5503
2026-01-23 10:45:37.95	319.65	28.67	-44.1	-47.1	16.5	0.00e+00	0	41	0	926941184	59	5195
2026-01-23 10:45:38.96	319.83	28.51	-43.7	-46.7	16.9	0.00e+00	0	41	0	929038336	59	4939
2026-01-23 10:45:39.95	320.00	28.36	-43.3	-46.1	17.5	0.00e+00	0	41	0	931135488	58	4917
2026-01-23 10:45:40.96	320.17	28.21	-43.1	-45.9	17.8	0.00e+00	0	41	0	933232640	58	4763
2026-01-23 10:45:41.96	320.34	28.06	-42.6	-45.2	18.4	0.00e+00	0	41	0	935329792	57	4667
2026-01-23 10:45:42.96	320.51	27.91	-42.1	-44.6	18.9	0.00e+00	0	41	0	936378368	56	4618
2026-01-23 10:45:43.96	320.67	27.75	-42.1	-44.5	19.1	0.00e+00	0	41	0	938475520	56	4574
2026-01-23 10:45:44.96	320.84	27.60	-42.4	-44.9	18.7	0.00e+00	0	41	0	940572672	56	4777
2026-01-23 10:45:45.96	321.00	27.45	-42.4	-45.0	18.6	0.00e+00	0	41	0	942669824	56	4830
2026-01-23 10:45:46.96	321.16	27.31	-42.7	-45.3	18.3	0.00e+00	0	41	0	944766976	56	5009
2026-01-23 10:45:47.97	321.32	27.16	-43.0	-45.6	17.9	0.00e+00	0	41	0	945815552	56	5214
2026-01-23 10:45:48.96	321.48	27.01	-43.1	-45.8	17.8	0.00e+00	0	41	0	947912704	56	5305
2026-01-23 10:45:49.97	321.64	26.86	-43.2	-45.9	17.6	0.00e+00	0	41	0	950009856	57	5096
2026-01-23 10:45:50.97	321.79	26.71	-43.2	-45.9	17.7	0.00e+00	0	41	0	952107008	57	5067
2026-01-23 10:45:51.97	321.95	26.57	-43.1	-45.9	17.7	0.00e+00	0	41	0	954204160	57	5080
2026-01-23 10:45:52.97	322.10	26.42	-42.9	-45.6	17.9	0.00e+00	0	41	0	955252736	57	4921
2026-01-23 10:45:53.97	322.25	26.28	-42.8	-45.5	18.1	0.00e+00	0	41	0	957349888	57	4824
2026-01-23 10:45:54.98	322.40	26.13	-42.6	-45.2	18.3	0.00e+00	0	41	0	959447040	57	4704
2026-01-23 10:45:55.98	322.55	25.99	-42.6	-45.2	18.3	0.00e+00	0	41	0	961544192	57	4697
2026-01-23 10:45:56.98	322.70	25.84	-42.6	-45.3	18.2	0.00e+00	0	41	0	963641344	57	4729
2026-01-23 10:45:57.99	322.85	25.70	-42.6	-45.2	18.4	0.00e+00	0	41	0	964689920	57	4659
2026-01-23 10:45:58.98	322.99	25.56	-42.7	-45.2	18.3	0.00e+00	0	41	0	966787072	57	4700
2026-01-23 10:45:59.98	323.13	25.42	-42.7	-45.2	18.3	0.00e+00	0	41	0	968884224	57	4688
2026-01-23 10:46:00.95	323.27	25.28	-42.6	-45.1	18.5	0.00e+00	0	41	0	970981376	57	4610
2026-01-23 10:46:01.95	323.41	25.14	-42.7	-45.2	18.3	0.00e+00	0	41	0	972029952	57	4679
2026-01-23 10:46:02.95	323.55	25.00	-42.6	-45.1	18.4	0.00e+00	0	41	0	974127104	57	4642
2026-01-23 10:46:03.95	323.69	24.86	-42.7	-45.2	18.3	0.00e+00	0	41	0	976224256	57	4674
2026-01-23 10:46:04.96	323.83	24.72	-42.8	-45.5	18.1	0.00e+00	0	41	0	978321408	57	4830
2026-01-23 10:46:05.96	323.97	24.58	-43.0	-45.8	17.8	0.00e+00	0	41	0	980418560	57	4991
2026-01-23 10:46:06.96	324.10	24.45	-43.3	-46.1	17.4	0.00e+00	0	41	0	981467136	57	5192
2026-01-23 10:46:07.96	324.24	24.31	-43.6	-46.5	17.1	0.00e+00	0	41	0	983564288	57	5425
2026-01-23 10:46:08.96	324.37	24.17	-43.7	-46.7	16.9	0.00e+00	0	41	0	985661440	58	5254
2026-01-23 10:46:09.96	324.50	24.04	-43.8	-46.8	16.8	0.00e+00	0	41	0	987758592	58	5304
2026-01-23 10:46:10.96	324.63	23.90	-43.8	-46.8	16.8	0.00e+00	0	41	0	989855744	58	5303
2026-01-23 10:46:11.97	324.76	23.77	-43.6	-46.5	17.1	0.00e+00	0	41	0	990904320	58	5108
2026-01-23 10:46:12.97	324.89	23.63	-43.4	-46.3	17.3	0.00e+00	0	41	0	993001472	58	4991
2026-01-23 10:46:13.97	325.02	23.50	-43.1	-45.9	17.6	0.00e+00	0	41	0	995098624	58	4795
2026-01-23 10:46:14.97	325.15	23.37	-43.0	-45.8	17.8	0.00e+00	0	41	0	997195776	58	4707
2026-01-23 10:46:15.97	325.27	23.23	-42.9	-45.6	18.0	0.00e+00	0	41	0	998244352	57	4887
2026-01-23 10:46:16.97	325.40	23.10	-42.7	-45.4	18.2	0.00e+00	0	41	0	1000341504	57	4765
2026-01-23 10:46:17.97	325.52	22.97	-42.6	-45.2	18.3	0.00e+00	0	41	0	1002438656	57	4683
2026-01-23 10:46:18.97	325.64	22.84	-42.8	-45.5	18.1	0.00e+00	0	41	0	1004535808	57	4824
2026-01-23 10:46:19.97	325.76	22.71	-43.0	-45.7	17.8	0.00e+00	0	41	0	1006632960	57	4977
2026-01-23 10:46:20.97	325.88	22.58	-43.0	-45.8	17.7	0.00e+00	0	41	0	1007681536	57	5024
2026-01-23 10:46:21.97	326.00	22.45	-43.2	-46.1	17.5	0.00e+00	0	41	0	1009778688	57	5170
2026-01-23 10:46:22.97	326.12	22.32	-43.1	-46.0	17.5	0.00e+00	0	41	0	1011875840	57	5155
2026-01-23 10:46:23.97	326.24	22.19	-43.0	-45.9	17.6	0.00e+00	0	41	0	1013972992	57	5094
2026-01-23 10:46:24.97	326.36	22.07	-43.0	-45.9	17.6	0.00e+00	0	41	0	1016070144	57	5089
2026-01-23 10:46:25.97	326.47	21.94	-42.8	-45.6	17.9	0.00e+00	0	41	0	1017118720	57	4925
2026-01-23 10:46:26.98	326.59	21.81	-42.8	-45.6	17.9	0.00e+00	0	41	0	1019215872	57	4877
2026-01-23 10:46:27.98	326.70	21.69	-42.8	-45.6	18.0	0.00e+00	0	41	0	1021313024	57	4886
2026-01-23 10:46:28.98	326.82	21.56	-42.6	-45.2	18.3	0.00e+00	0	41	0	1023410176	57	4660
2026-01-23 10:46:29.98	326.93	21.43	-42.7	-45.2	18.3	0.00e+00	0	41	0	1025507328	57	4692
2026-01-23 10:46:30.99	327.04	21.31	-42.7	-45.2	18.3	0.00e+00	0	41	0	1026555904	57	4655
2026-01-23 10:46:31.98	327.15	21.19	-42.7	-45.2	18.2	0.00e+00	0	41	0	1028653056	57	4696
2026-01-23 10:46:32.99	327.26	21.06	-42.7	-45.2	18.3	0.00e+00	0	41	0	1030750208	57	4691
2026-01-23 10:46:33.99	327.37	20.94	-42.8	-45.3	18.2	0.00e+00	0	41	0	1032847360	57	4736
2026-01-23 10:46:34.99	327.48	20.82	-42.9	-45.5	18.0	0.00e+00	0	41	0	1033895936	57	4818
2026-01-23 10:46:35.99	327.58	20.69	-42.8	-45.4	18.0	0.00e+00	0	41	0	1035993088	57	4811
2026-01-23 10:46:36.99	327.69	20.57	-42.8	-45.4	18.1	0.00e+00	0	41	0	1038090240	57	4785
2026-01-23 10:46:37.99	327.80	20.45	-42.9	-45.6	17.9	0.00e+00	0	41	0	1040187392	57	4884
2026-01-23 10:46:38.99	327.90	20.33	-42.8	-45.5	18.0	0.00e+00	0	41	0	1042284544	57	4843
2026-01-23 10:46:39.98	328.00	20.21	-42.9	-45.6	17.9	0.00e+00	0	41	0	1043333120	57	4880
2026-01-23 10:46:40.99	328.11	20.09	-42.9	-45.6	17.9	0.00e+00	0	41	0	1045430272	57	4911
2026-01-23 10:46:41.99	328.21	19.97	-42.8	-45.6	17.9	0.00e+00	0	41	0	1047527424	57	4872
2026-01-23 10:46:42.99	328.31	19.85	-42.8	-45.5	17.9	0.00e+00	0	41	0	1049624576	57	4870
2026-01-23 10:46:43.99	328.41	19.74	-43.0	-45.7	17.8	0.00e+00	0	41	0	1051721728	57	4969
2026-01-23 10:46:44.99	328.51	19.62	-43.1	-45.9	17.6	0.00e+00	0	41	0	1052770304	57	5050
2026-01-23 10:46:45.99	328.61	19.50	-43.1	-45.9	17.6	0.00e+00	0	41	0	1054867456	57	5075
2026-01-23 10:46:46.99	328.71	19.38	-43.1	-46.0	17.5	0.00e+00	0	41	0	1056964608	57	5111
2026-01-23 10:46:47.99	328.81	19.27	-43.2	-46.1	17.3	0.00e+00	0	41	0	1059061760	57	5195
2026-01-23 10:46:48.99	328.91	19.15	-43.2	-46.2	17.3	0.00e+00	0	41	0	1060110336	57	5225
2026-01-23 10:46:49.99	329.00	19.04	-43.2	-46.2	17.3	0.00e+00	0	41	0	1062207488	57	5241
2026-01-23 10:46:50.99	329.10	18.92	-43.3	-46.3	17.2	0.00e+00	0	41	0	1064304640	57	5307
2026-01-23 10:46:51.99	329.20	18.81	-43.2	-46.2	17.3	0.00e+00	0	41	0	1066401792	57	5231
2026-01-23 10:46:53.00	329.29	18.69	-43.2	-46.3	17.2	0.00e+00	0	41	0	1068498944	57	5291
2026-01-23 10:46:54.00	329.38	18.58	-43.1	-46.1	17.4	0.00e+00	0	41	0	1069547520	57	5194
2026-01-23 10:46:54.99	329.48	18.47	-43.2	-46.1	17.4	0.00e+00	0	41	0	1071644672	57	5190
2026-01-23 10:46:56.00	329.57	18.36	-43.2	-46.0	17.4	0.00e+00	0	41	0	1073741824	57	5154
2026-01-23 10:46:57.00	329.66	18.24	-43.2	-46.0	17.5	0.00e+00	0	41	0	1075838976	57	5104
2026-01-23 10:46:58.00	329.75	18.13	-43.2	-45.9	17.5	0.00e+00	0	41	0	1077936128	57	5082
2026-01-23 10:46:59.00	329.84	18.02	-43.2	-45.9	17.5	0.00e+00	0	41	0	1078984704	57	5085
2026-01-23 10:47:00.00	329.93	17.91	-43.2	-45.9	17.5	0.00e+00	0	41	0	1081081856	57	5077
2026-01-23 10:47:01.00	330.02	17.80	-43.3	-46.0	17.5	0.00e+00	0	41	0	1083179008	57	5115
2026-01-23 10:47:02.00	330.11	17.69	-43.2	-45.9	17.6	0.00e+00	0	41	0	1085276160	57	5048
2026-01-23 10:47:03.01	330.20	17.58	-43.2	-45.9	17.5	0.00e+00	0	41	0	1087373312	57	5100
2026-01-23 10:47:04.01	330.29	17.47	-43.2	-45.9	17.5	0.00e+00	0	41	0	1088421888	57	5083
2026-01-23 10:47:05.01	330.38	17.36	-43.2	-45.9	17.5	0.00e+00	0	41	0	1090519040	57	5077
2026-01-23 10:47:06.01	330.46	17.25	-43.3	-46.0	17.4	0.00e+00	0	41	0	1092616192	57	5138
2026-01-23 10:47:07.01	330.55	17.15	-43.2	-45.9	17.5	0.00e+00	0	41	0	1094713344	57	5100
2026-01-23 10:47:08.01	330.63	17.04	-43.2	-45.9	17.5	0.00e+00	0	41	0	1096810496	57	5093
2026-01-23 10:47:09.01	330.72	16.93	-43.2	-45.9	17.5	0.00e+00	0	41	0	1097859072	57	5082
2026-01-23 10:47:10.01	330.80	16.82	-43.2	-45.9	17.5	0.00e+00	0	41	0	1099956224	57	5063
2026-01-23 10:47:11.01	330.89	16.72	-43.2	-45.9	17.5	0.00e+00	0	41	0	1102053376	57	5098
2026-01-23 10:47:12.01	330.97	16.61	-43.2	-45.9	17.5	0.00e+00	0	41	0	1104150528	57	5086
2026-01-23 10:47:13.01	331.05	16.51	-43.2	-46.0	17.5	0.00e+00	0	41	0	1105199104	57	5113
2026-01-23 10:47:14.02	331.13	16.40	-43.0	-45.7	17.7	0.00e+00	0	41	0	1107296256	57	4976
2026-01-23 10:47:15.02	331.22	16.30	-42.9	-45.7	17.7	0.00e+00	0	41	0	1109393408	57	4951
2026-01-23 10:47:16.02	331.30	16.19	-43.0	-45.7	17.7	0.00e+00	0	41	0	1111490560	57	4976
2026-01-23 10:47:17.02	331.38	16.09	-42.9	-45.7	17.7	0.00e+00	0	41	0	1113587712	57	4952
2026-01-23 10:47:18.02	331.46	15.99	-43.0	-45.8	17.6	0.00e+00	0	41	0	1114636288	57	5014
2026-01-23 10:47:19.02	331.54	15.88	-42.9	-45.6	17.7	0.00e+00	0	41	0	1116733440	57	4913
2026-01-23 10:47:20.02	331.61	15.78	-42.9	-45.7	17.7	0.00e+00	0	41	0	1118830592	57	4932
2026-01-23 10:47:21.03	331.69	15.68	-42.9	-45.6	17.8	0.00e+00	0	41	0	1120927744	57	4884
2026-01-23 10:47:22.03	331.77	15.58	-42.9	-45.6	17.8	0.00e+00	0	41	0	1123024896	57	4898
2026-01-23 10:47:23.02	331.85	15.48	-43.0	-45.8	17.6	0.00e+00	0	41	0	1124073472	57	5004
2026-01-23 10:47:24.02	331.92	15.38	-43.0	-45.8	17.6	0.00e+00	0	41	0	1126170624	57	4996
2026-01-23 10:47:25.03	332.00	15.27	-43.1	-45.9	17.5	0.00e+00	0	41	0	1128267776	57	5045
2026-01-23 10:47:26.03	332.08	15.17	-43.1	-45.9	17.5	0.00e+00	0	41	0	1130364928	57	5076
2026-01-23 10:47:27.03	332.15	15.07	-43.2	-46.0	17.4	0.00e+00	0	41	0	1132462080	57	5130
2026-01-23 10:47:28.03	332.23	14.97	-43.3	-46.2	17.2	0.00e+00	0	41	0	1133510656	57	5234
2026-01-23 10:47:29.03	332.30	14.88	-43.3	-46.2	17.2	0.00e+00	0	41	0	1135607808	57	5227
2026-01-23 10:47:30.03	332.37	14.78	-43.4	-46.3	17.0	0.00e+00	0	41	0	1137704960	57	5319
2026-01-23 10:47:31.03	332.45	14.68	-43.5	-46.4	17.0	0.00e+00	0	41	0	1139802112	57	5372
2026-01-23 10:47:32.03	332.52	14.58	-43.6	-46.6	16.8	0.00e+00	0	41	0	1140850688	57	5474
2026-01-23 10:47:33.03	332.59	14.48	-43.6	-46.6	16.8	0.00e+00	0	41	0	1142947840	57	5499
2026-01-23 10:47:34.02	332.66	14.39	-43.7	-46.7	16.7	0.00e+00	0	41	0	1145044992	58	5225
2026-01-23 10:47:35.03	332.74	14.29	-43.8	-46.8	16.6	0.00e+00	0	41	0	1147142144	58	5283
2026-01-23 10:47:36.03	332.81	14.19	-43.8	-46.8	16.6	0.00e+00	0	41	0	1149239296	58	5320
2026-01-23 10:47:37.03	332.88	14.10	-43.8	-46.8	16.5	0.00e+00	0	41	0	1150287872	58	5322
2026-01-23 10:47:38.03	332.95	14.00	-43.8	-47.0	16.4	0.00e+00	0	41	0	1152385024	58	5410
2026-01-23 10:47:39.03	333.02	13.90	-43.8	-46.9	16.5	0.00e+00	0	41	0	1154482176	58	5342
2026-01-23 10:47:40.03	333.09	13.81	-43.8	-47.0	16.4	0.00e+00	0	41	0	1156579328	58	5407
2026-01-23 10:47:41.03	333.16	13.71	-43.8	-46.8	16.4	0.00e+00	0	41	0	1158676480	58	5327
2026-01-23 10:47:42.04	333.23	13.62	-43.6	-46.6	16.8	0.00e+00	0	41	0	1159725056	58	5180
2026-01-23 10:47:43.04	333.30	13.52	-43.6	-46.5	16.8	0.00e+00	0	41	0	1161822208	58	5150
2026-01-23 10:47:44.04	333.36	13.43	-43.5	-46.4	17.0	0.00e+00	0	41	0	1163919360	58	5043
2026-01-23 10:47:45.04	333.43	13.34	-43.4	-46.2	17.1	0.00e+00	0	41	0	1166016512	58	4974
2026-01-23 10:47:46.04	333.50	13.24	-43.4	-46.2	17.2	0.00e+00	0	41	0	1167065088	58	4935
2026-01-23 10:47:47.04	333.56	13.15	-43.3	-46.0	17.3	0.00e+00	0	41	0	1169162240	58	4865
2026-01-23 10:47:48.05	333.63	13.06	-43.3	-46.1	17.2	0.00e+00	0	41	0	1171259392	58	4891
2026-01-23 10:47:49.05	333.70	12.96	-43.3	-46.0	17.3	0.00e+00	0	41	0	1173356544	58	4851
2026-01-23 10:47:50.05	333.76	12.87	-43.2	-46.0	17.3	0.00e+00	0	41	0	1175453696	58	4832
2026-01-23 10:47:51.05	333.83	12.78	-43.1	-45.8	17.5	0.00e+00	0	41	0	1176502272	58	4750
2026-01-23 10:47:52.05	333.89	12.69	-43.0	-45.7	17.6	0.00e+00	0	41	0	1178599424	58	4687
2026-01-23 10:47:53.05	333.96	12.60	-43.0	-45.7	17.6	0.00e+00	0	41	0	1180696576	58	4686
2026-01-23 10:47:54.06	334.02	12.51	-42.9	-45.7	17.6	0.00e+00	0	41	0	1182793728	57	4929
2026-01-23 10:47:55.06	334.08	12.42	-42.9	-45.7	17.6	0.00e+00	0	41	0	1184890880	57	4951
2026-01-23 10:47:56.06	334.15	12.33	-43.0	-45.8	17.5	0.00e+00	0	41	0	1185939456	57	4996
2026-01-23 10:47:57.06	334.21	12.24	-43.0	-45.8	17.5	0.00e+00	0	41	0	1188036608	57	4998
2026-01-23 10:47:58.06	334.27	12.15	-43.0	-45.8	17.5	0.00e+00	0	41	0	1190133760	57	5007
2026-01-23 10:47:59.07	334.34	12.06	-43.1	-45.9	17.4	0.00e+00	0	41	0	1192230912	57	5081
2026-01-23 10:48:00.07	334.40	11.97	-43.2	-46.0	17.3	0.00e+00	0	41	0	1194328064	57	5124
2026-01-23 10:48:01.06	334.46	11.88	-43.3	-46.1	17.2	0.00e+00	0	41	0	1195376640	57	5176
2026-01-23 10:48:02.06	334.52	11.79	-43.4	-46.3	17.0	0.00e+00	0	41	0	1197473792	57	5298
2026-01-23 10:48:03.06	334.58	11.70	-43.4	-46.3	17.0	0.00e+00	0	41	0	1199570944	57	5302
2026-01-23 10:48:04.07	334.64	11.62	-43.6	-46.5	16.8	0.00e+00	0	41	0	1201668096	57	5416
2026-01-23 10:48:05.07	334.70	11.53	-43.7	-46.7	16.6	0.00e+00	0	41	0	1203765248	58	5242
2026-01-23 10:48:06.07	334.76	11.44	-43.8	-46.7	16.5	0.00e+00	0	41	0	1204813824	58	5275
2026-01-23 10:48:07.07	334.82	11.35	-43.9	-47.0	16.3	0.00e+00	0	41	0	1206910976	58	5430
2026-01-23 10:48:08.07	334.88	11.27	-44.0	-47.1	16.2	0.00e+00	0	41	0	1209008128	58	5511
2026-01-23 10:48:09.07	334.94	11.18	-44.1	-47.3	16.0	0.00e+00	0	41	0	1211105280	58	5625
2026-01-23 10:48:10.06	335.00	11.10	-44.1	-47.3	15.9	0.00e+00	0	41	0	1213202432	59	5323
2026-01-23 10:48:11.06	335.06	11.01	-44.2	-47.5	15.8	0.00e+00	0	41	0	1214251008	59	5427
2026-01-23 10:48:12.06	335.11	10.93	-44.2	-47.6	15.6	0.00e+00	0	41	0	1216348160	59	5525
2026-01-23 10:48:13.06	335.17	10.84	-44.2	-47.7	15.6	0.00e+00	0	41	0	1218445312	59	5554
2026-01-23 10:48:14.06	335.23	10.76	-44.2	-47.7	15.5	0.00e+00	0	41	0	1220542464	59	5562
2026-01-23 10:48:15.07	335.29	10.67	-44.2	-47.8	15.5	0.00e+00	0	41	0	1221591040	59	5593
2026-01-23 10:48:16.07	335.34	10.59	-44.2	-47.7	15.6	0.00e+00	0	41	0	1223688192	59	5558
