passes_logs/2026/01/23/T1/T1__20260123_012307_FENGYUN_3D_rec.log

#Pass ID: 20260123_012307_FENGYUN 3D
#Satellite: FENGYUN 3D
#Configuration: FENGYUN 3D
#almurnet v.1.7.20251203
#Start time: 2026-01-23 01:23:07

#Version: 2.0.20230620
#Station: T1
#Location: 37.570604 lon 55.790049 lat
#TLE: 1 43010U 17072A   26022.47411728  .00000617  00000+0  31375-3 0  9996
#TLE: 2 43010  98.9952 354.4060 0002481  95.7964 264.3494 14.19699924424319

#Time	Az	El	Level	Level2	SNR	BER	BlckErr	Temp	State	Recorded	gain1	gain2
2026-01-23 01:23:07.90	19.61	5.03	-47.3	-61.2	3.8	8.46e-01	0	35	0	0	66	17518
2026-01-23 01:23:08.89	19.63	5.10	-47.3	-61.0	3.8	8.47e-01	0	35	104	0	65	18252
2026-01-23 01:23:09.88	19.66	5.17	-47.3	-60.9	3.8	8.47e-01	0	35	104	0	65	18047
2026-01-23 01:23:10.88	19.69	5.24	-47.3	-60.9	3.8	8.47e-01	0	35	104	0	65	18042
2026-01-23 01:23:11.87	19.71	5.31	-47.3	-60.9	3.8	8.46e-01	0	35	104	0	65	17945
2026-01-23 01:23:12.86	19.74	5.38	-47.3	-60.8	3.8	8.47e-01	0	35	104	0	65	17854
2026-01-23 01:23:13.86	19.76	5.45	-47.3	-60.8	3.8	8.47e-01	0	35	104	0	65	17759
2026-01-23 01:23:14.85	19.79	5.52	-47.3	-60.8	3.8	8.47e-01	0	35	104	0	65	17817
2026-01-23 01:23:15.84	19.82	5.59	-47.3	-60.8	3.8	8.47e-01	0	35	104	0	65	17776
2026-01-23 01:23:16.84	19.84	5.67	-47.3	-60.8	3.8	8.48e-01	0	35	104	0	65	17849
2026-01-23 01:23:17.83	19.87	5.74	-47.3	-60.8	3.8	8.46e-01	0	36	104	0	65	17799
2026-01-23 01:23:18.82	19.90	5.81	-47.3	-60.8	3.8	8.47e-01	0	35	104	0	65	17852
2026-01-23 01:23:19.82	19.93	5.88	-47.3	-60.9	3.8	8.47e-01	0	35	104	0	65	18041
2026-01-23 01:23:20.81	19.95	5.95	-47.3	-61.0	3.8	8.47e-01	0	36	104	0	65	18198
2026-01-23 01:23:21.81	19.98	6.03	-47.2	-61.0	3.8	8.48e-01	0	36	104	0	65	18238
2026-01-23 01:23:22.80	20.01	6.10	-47.3	-61.1	3.8	8.46e-01	0	36	104	0	65	18410
2026-01-23 01:23:23.79	20.03	6.17	-47.3	-61.2	3.8	8.47e-01	0	36	104	0	65	18546
2026-01-23 01:23:24.78	20.06	6.24	-47.3	-61.2	3.8	8.47e-01	0	36	104	0	65	18574
2026-01-23 01:23:25.78	20.09	6.32	-47.3	-61.2	3.8	8.46e-01	0	36	104	0	65	18659
2026-01-23 01:23:26.77	20.12	6.39	-47.3	-61.2	3.8	8.48e-01	0	36	104	0	65	18635
2026-01-23 01:23:27.77	20.15	6.46	-47.3	-61.2	3.8	8.48e-01	0	36	104	0	65	18547
2026-01-23 01:23:28.76	20.17	6.54	-47.3	-61.1	3.8	8.47e-01	0	36	104	0	65	18360
2026-01-23 01:23:29.75	20.20	6.61	-47.3	-60.9	3.8	8.47e-01	0	36	104	0	65	18059
2026-01-23 01:23:30.74	20.23	6.68	-47.2	-60.7	3.8	8.47e-01	0	36	104	0	65	17624
2026-01-23 01:23:31.74	20.26	6.76	-47.2	-60.4	3.8	8.47e-01	0	36	104	0	65	17076
2026-01-23 01:23:32.73	20.29	6.83	-47.2	-60.1	3.8	8.48e-01	0	36	104	0	65	16443
2026-01-23 01:23:33.73	20.32	6.91	-47.2	-59.7	3.8	8.47e-01	0	36	104	0	65	15649
2026-01-23 01:23:34.72	20.34	6.98	-47.1	-59.3	3.8	8.46e-01	0	36	104	0	65	14980
2026-01-23 01:23:35.71	20.37	7.06	-47.1	-58.9	3.8	8.47e-01	0	36	104	0	65	14229
2026-01-23 01:23:36.71	20.40	7.13	-47.1	-58.4	4.0	8.44e-01	0	36	0	0	65	13545
2026-01-23 01:23:37.70	20.43	7.21	-47.0	-58.0	4.1	8.41e-01	0	36	0	0	65	12825
2026-01-23 01:23:38.69	20.46	7.28	-47.0	-57.7	4.2	8.38e-01	0	36	0	0	65	12403
2026-01-23 01:23:39.68	20.49	7.36	-46.9	-57.3	4.3	8.35e-01	0	36	0	0	65	11863
2026-01-23 01:23:40.68	20.52	7.44	-46.9	-57.0	4.4	8.31e-01	0	36	0	0	65	11538
2026-01-23 01:23:41.67	20.55	7.51	-46.9	-56.8	4.5	8.25e-01	0	36	0	0	65	11237
2026-01-23 01:23:42.66	20.58	7.59	-46.8	-56.6	4.6	8.19e-01	0	36	0	0	65	10904
2026-01-23 01:23:43.66	20.61	7.67	-46.8	-56.5	4.6	8.14e-01	0	36	0	0	65	10826
2026-01-23 01:23:44.65	20.64	7.74	-46.8	-56.4	4.7	8.08e-01	0	36	0	0	65	10660
2026-01-23 01:23:45.64	20.67	7.82	-46.8	-56.3	4.7	8.06e-01	0	36	0	0	65	10549
2026-01-23 01:23:46.64	20.70	7.90	-46.8	-56.2	4.8	8.01e-01	0	36	0	0	65	10450
2026-01-23 01:23:47.63	20.73	7.98	-46.7	-55.8	4.9	7.86e-01	0	36	0	0	65	9994
2026-01-23 01:23:48.63	20.76	8.06	-46.7	-55.6	5.0	7.72e-01	0	36	0	0	65	9762
2026-01-23 01:23:49.62	20.79	8.13	-46.6	-55.1	5.3	7.41e-01	0	36	0	0	65	9243
2026-01-23 01:23:50.61	20.82	8.21	-46.5	-54.6	5.7	6.89e-01	0	36	0	0	65	8687
2026-01-23 01:23:51.61	20.85	8.29	-46.3	-53.9	6.2	3.54e-01	0	36	0	6291456	64	8505
2026-01-23 01:23:52.60	20.89	8.37	-46.1	-53.1	6.8	2.37e-01	0	36	0	11534336	64	7789
2026-01-23 01:23:53.59	20.92	8.45	-45.9	-52.2	7.8	1.03e-01	0	36	0	16777216	63	7391
2026-01-23 01:23:54.59	20.95	8.53	-45.5	-51.2	8.8	4.52e-02	0	37	0	22020096	63	6588
2026-01-23 01:23:55.58	20.98	8.61	-45.0	-50.0	10.1	1.76e-02	0	37	0	28311552	62	6064
2026-01-23 01:23:56.57	21.01	8.69	-44.6	-49.0	11.1	3.29e-03	0	36	0	33554432	61	5767
2026-01-23 01:23:57.57	21.04	8.77	-44.1	-48.1	12.0	8.40e-04	0	36	0	38797312	60	5502
2026-01-23 01:23:58.56	21.08	8.85	-43.6	-47.2	12.9	1.13e-04	0	37	0	45088768	59	5256
2026-01-23 01:23:59.55	21.11	8.93	-43.1	-46.4	13.8	1.60e-05	0	37	0	50331648	58	5088
2026-01-23 01:24:00.55	21.14	9.01	-42.8	-45.9	14.3	2.20e-06	0	37	0	55574528	57	5047
2026-01-23 01:24:01.54	21.17	9.09	-42.7	-45.7	14.5	2.20e-06	0	37	0	61865984	57	4973
2026-01-23 01:24:02.53	21.21	9.17	-44.7	-49.3	11.0	6.80e-06	0	37	0	67108864	60	6318
2026-01-23 01:24:03.53	21.24	9.26	-42.7	-45.7	14.4	2.50e-02	0	36	0	72351744	57	4959
2026-01-23 01:24:04.52	21.27	9.34	-41.5	-44.2	16.0	0.00e+00	0	37	0	78643200	53	5238
2026-01-23 01:24:05.52	21.31	9.42	-39.9	-42.2	17.8	0.00e+00	0	37	0	83886080	52	4439
2026-01-23 01:24:06.51	21.34	9.50	-39.3	-41.5	18.6	0.00e+00	0	37	0	89128960	50	4568
2026-01-23 01:24:07.51	21.37	9.59	-39.1	-41.3	18.8	0.00e+00	0	37	0	95420416	50	4456
2026-01-23 01:24:08.50	21.41	9.67	-39.0	-41.1	19.0	0.00e+00	0	37	0	100663296	50	4375
2026-01-23 01:24:09.50	21.44	9.75	-38.9	-41.0	19.1	0.00e+00	0	37	0	105906176	49	4559
2026-01-23 01:24:10.49	21.47	9.84	-38.9	-41.0	19.0	0.00e+00	0	37	0	112197632	49	4583
2026-01-23 01:24:11.49	21.51	9.92	-38.7	-40.8	19.3	0.00e+00	0	37	0	117440512	49	4453
2026-01-23 01:24:12.49	21.54	10.01	-38.7	-40.7	19.3	0.00e+00	0	37	0	122683392	49	4439
2026-01-23 01:24:13.53	21.58	10.10	-38.8	-40.9	19.2	0.00e+00	0	37	0	128974848	49	4499
2026-01-23 01:24:14.47	21.61	10.18	-38.7	-40.7	19.4	0.00e+00	0	37	0	134217728	49	4432
2026-01-23 01:24:15.47	21.65	10.26	-38.8	-40.8	19.2	0.00e+00	0	37	0	139460608	49	4490
2026-01-23 01:24:16.46	21.68	10.35	-38.7	-40.8	19.3	0.00e+00	0	37	0	145752064	49	4458
2026-01-23 01:24:17.46	21.72	10.43	-38.8	-40.8	19.3	0.00e+00	0	37	0	150994944	49	4490
2026-01-23 01:24:18.45	21.75	10.52	-38.6	-40.6	19.5	0.00e+00	0	37	0	157286400	49	4383
2026-01-23 01:24:19.45	21.79	10.61	-38.8	-40.8	19.3	0.00e+00	0	37	0	162529280	49	4467
2026-01-23 01:24:20.44	21.83	10.69	-38.7	-40.7	19.4	0.00e+00	0	37	0	167772160	49	4440
2026-01-23 01:24:21.43	21.86	10.78	-38.6	-40.5	19.6	0.00e+00	0	37	0	173015040	49	4339
2026-01-23 01:24:22.43	21.90	10.87	-38.5	-40.5	19.7	0.00e+00	0	37	0	179306496	49	4300
2026-01-23 01:24:23.42	21.93	10.95	-38.5	-40.5	19.6	0.00e+00	0	37	0	184549376	49	4311
2026-01-23 01:24:24.42	21.97	11.04	-38.5	-40.5	19.6	0.00e+00	0	37	0	189792256	48	4572
2026-01-23 01:24:25.42	22.01	11.13	-38.6	-40.5	19.6	0.00e+00	0	37	0	196083712	48	4583
2026-01-23 01:24:26.41	22.04	11.22	-38.5	-40.4	19.7	0.00e+00	0	37	0	201326592	48	4526
2026-01-23 01:24:27.44	22.08	11.31	-38.5	-40.5	19.7	0.00e+00	0	37	0	207618048	48	4552
2026-01-23 01:24:28.45	22.12	11.40	-38.5	-40.4	19.8	0.00e+00	0	37	0	212860928	48	4535
2026-01-23 01:24:29.47	22.16	11.49	-38.5	-40.4	19.7	0.00e+00	0	37	0	219152384	48	4540
2026-01-23 01:24:30.47	22.20	11.58	-38.5	-40.4	19.8	0.00e+00	0	37	0	224395264	48	4521
2026-01-23 01:24:31.47	22.24	11.67	-38.4	-40.3	19.9	0.00e+00	0	37	0	229638144	48	4458
2026-01-23 01:24:32.46	22.27	11.76	-38.4	-40.3	19.9	0.00e+00	0	37	0	235929600	48	4449
2026-01-23 01:24:33.45	22.31	11.85	-38.5	-40.4	19.8	0.00e+00	0	37	0	241172480	48	4495
2026-01-23 01:24:34.45	22.35	11.95	-38.4	-40.3	19.9	0.00e+00	0	37	0	246415360	48	4477
2026-01-23 01:24:35.44	22.39	12.04	-38.5	-40.4	19.8	0.00e+00	0	37	0	252706816	48	4511
2026-01-23 01:24:36.44	22.43	12.13	-38.3	-40.1	20.1	0.00e+00	0	37	0	257949696	48	4369
2026-01-23 01:24:37.43	22.47	12.22	-38.3	-40.1	20.1	0.00e+00	0	37	0	263192576	48	4388
2026-01-23 01:24:38.43	22.51	12.31	-38.3	-40.1	20.1	0.00e+00	0	37	0	269484032	48	4367
2026-01-23 01:24:39.42	22.55	12.41	-38.3	-40.1	20.1	0.00e+00	0	37	0	274726912	48	4381
2026-01-23 01:24:40.42	22.59	12.50	-38.1	-39.9	20.3	0.00e+00	0	37	0	279969792	48	4272
2026-01-23 01:24:41.41	22.63	12.59	-37.8	-39.6	20.3	0.00e+00	0	37	0	286261248	47	4391
2026-01-23 01:24:42.41	22.67	12.69	-37.8	-39.7	20.3	0.00e+00	0	37	0	291504128	47	4392
2026-01-23 01:24:43.40	22.71	12.78	-37.8	-39.6	20.3	0.00e+00	0	37	0	296747008	47	4386
2026-01-23 01:24:44.40	22.75	12.88	-37.8	-39.6	20.4	0.00e+00	0	37	0	303038464	47	4384
2026-01-23 01:24:45.46	22.80	12.98	-37.9	-39.7	20.3	0.00e+00	0	37	0	308281344	47	4440
2026-01-23 01:24:46.34	22.83	13.06	-37.8	-39.6	20.4	0.00e+00	0	37	0	313524224	47	4360
2026-01-23 01:24:47.48	22.88	13.17	-37.8	-39.6	20.5	0.00e+00	0	37	0	319815680	47	4348
2026-01-23 01:24:48.33	22.92	13.25	-37.8	-39.6	20.4	0.00e+00	0	37	0	325058560	47	4348
2026-01-23 01:24:49.47	22.96	13.36	-37.7	-39.5	20.5	0.00e+00	0	37	0	331350016	47	4331
2026-01-23 01:24:50.32	23.00	13.45	-37.7	-39.5	20.5	0.00e+00	0	37	0	335544320	47	4299
2026-01-23 01:24:51.46	23.05	13.56	-37.7	-39.5	20.6	0.00e+00	0	37	0	342884352	47	4292
2026-01-23 01:24:52.31	23.09	13.64	-37.6	-39.4	20.6	0.00e+00	0	37	0	347078656	47	4256
2026-01-23 01:24:53.44	23.13	13.75	-37.7	-39.5	20.6	0.00e+00	0	37	0	353370112	47	4302
2026-01-23 01:24:54.30	23.17	13.84	-37.7	-39.5	20.5	0.00e+00	0	37	0	358612992	47	4297
2026-01-23 01:24:55.43	23.22	13.95	-37.7	-39.5	20.6	0.00e+00	0	37	0	364904448	47	4294
2026-01-23 01:24:56.28	23.26	14.04	-37.6	-39.4	20.6	0.00e+00	0	37	0	369098752	47	4288
2026-01-23 01:24:57.42	23.31	14.15	-37.6	-39.4	20.6	0.00e+00	0	37	0	376438784	47	4260
2026-01-23 01:24:58.27	23.35	14.23	-37.5	-39.3	20.7	0.00e+00	0	37	0	380633088	47	4241
2026-01-23 01:24:59.50	23.40	14.36	-37.6	-39.4	20.6	0.00e+00	0	37	0	387973120	47	4270
2026-01-23 01:25:00.36	23.44	14.45	-37.5	-39.3	20.7	0.00e+00	0	37	0	392167424	46	4476
2026-01-23 01:25:01.49	23.49	14.56	-37.5	-39.3	20.7	0.00e+00	0	37	0	398458880	46	4480
2026-01-23 01:25:02.34	23.53	14.65	-37.5	-39.3	20.7	0.00e+00	0	37	0	403701760	46	4468
2026-01-23 01:25:03.48	23.59	14.76	-37.6	-39.5	20.6	0.00e+00	0	37	0	409993216	46	4546
2026-01-23 01:25:04.33	23.63	14.85	-37.5	-39.3	20.8	0.00e+00	0	37	0	415236096	46	4453
2026-01-23 01:25:05.69	23.69	14.99	-37.3	-39.1	20.9	0.00e+00	0	37	0	422576128	46	4390
2026-01-23 01:25:06.40	23.72	15.07	-37.4	-39.2	20.8	0.00e+00	0	37	0	426770432	46	4418
2026-01-23 01:25:07.68	23.78	15.20	-37.2	-39.0	21.0	0.00e+00	0	37	0	434110464	46	4311
2026-01-23 01:25:08.41	23.82	15.28	-37.3	-39.1	21.0	0.00e+00	0	37	0	438304768	46	4345
2026-01-23 01:25:09.69	23.88	15.41	-37.2	-39.0	21.0	0.00e+00	0	37	0	444596224	46	4329
2026-01-23 01:25:10.41	23.91	15.49	-37.2	-39.0	21.0	0.00e+00	0	37	0	448790528	46	4328
2026-01-23 01:25:11.69	23.98	15.62	-37.1	-38.9	21.1	0.00e+00	0	37	0	456130560	46	4261
2026-01-23 01:25:12.42	24.01	15.70	-37.2	-39.0	21.1	0.00e+00	0	37	0	460324864	46	4293
2026-01-23 01:25:13.70	24.08	15.84	-37.0	-38.8	21.2	0.00e+00	0	37	0	467664896	46	4223
2026-01-23 01:25:14.41	24.11	15.91	-37.0	-38.7	21.3	0.00e+00	0	37	0	471859200	46	4187
2026-01-23 01:25:15.69	24.17	16.05	-36.9	-38.7	21.3	0.00e+00	0	37	0	478150656	45	4410
2026-01-23 01:25:16.41	24.21	16.13	-36.9	-38.7	21.3	0.00e+00	0	37	0	482344960	45	4403
2026-01-23 01:25:17.74	24.28	16.27	-36.9	-38.6	21.4	0.00e+00	0	37	0	489684992	45	4379
2026-01-23 01:25:18.45	24.31	16.35	-36.9	-38.6	21.4	0.00e+00	0	37	0	493879296	45	4374
2026-01-23 01:25:19.81	24.38	16.50	-36.8	-38.6	21.4	0.00e+00	0	37	0	502267904	45	4346
2026-01-23 01:25:20.52	24.42	16.58	-36.7	-38.4	21.6	0.00e+00	0	37	0	505413632	45	4272
2026-01-23 01:25:21.80	24.49	16.72	-36.8	-38.5	21.5	0.00e+00	0	37	0	512753664	45	4313
2026-01-23 01:25:22.51	24.52	16.80	-36.8	-38.5	21.5	0.00e+00	0	37	0	516947968	45	4305
2026-01-23 01:25:23.79	24.59	16.94	-36.7	-38.4	21.6	0.00e+00	0	38	0	524288000	45	4291
2026-01-23 01:25:24.50	24.63	17.02	-36.7	-38.5	21.5	0.00e+00	0	37	0	528482304	45	4297
2026-01-23 01:25:25.78	24.70	17.17	-36.7	-38.5	21.5	0.00e+00	0	37	0	535822336	45	4294
2026-01-23 01:25:26.50	24.74	17.25	-36.7	-38.4	21.6	0.00e+00	0	37	0	538968064	45	4282
2026-01-23 01:25:27.78	24.81	17.39	-36.7	-38.5	21.5	0.00e+00	0	37	0	546308096	45	4296
2026-01-23 01:25:28.49	24.84	17.48	-36.7	-38.4	21.6	0.00e+00	0	37	0	550502400	45	4268
2026-01-23 01:25:29.77	24.91	17.62	-36.7	-38.4	21.6	0.00e+00	0	37	0	557842432	45	4278
2026-01-23 01:25:30.66	24.96	17.73	-36.7	-38.4	21.6	0.00e+00	0	37	0	563085312	45	4276
2026-01-23 01:25:32.05	25.04	17.89	-36.5	-38.3	21.7	0.00e+00	0	37	0	570425344	45	4218
2026-01-23 01:25:32.77	25.08	17.97	-36.6	-38.3	21.7	0.00e+00	0	37	0	574619648	45	4233
2026-01-23 01:25:34.05	25.15	18.12	-36.5	-38.2	21.8	0.00e+00	0	37	0	581959680	44	4428
2026-01-23 01:25:34.77	25.20	18.20	-36.3	-38.1	21.9	0.00e+00	0	37	0	586153984	44	4359
2026-01-23 01:25:36.05	25.27	18.36	-36.4	-38.2	21.8	0.00e+00	0	37	0	593494016	44	4413
2026-01-23 01:25:36.78	25.31	18.44	-36.3	-38.1	21.9	0.00e+00	0	37	0	597688320	44	4356
2026-01-23 01:25:38.06	25.39	18.60	-36.3	-38.0	22.0	0.00e+00	0	37	0	605028352	44	4316
2026-01-23 01:25:38.89	25.43	18.69	-36.4	-38.1	21.9	0.00e+00	0	37	0	609222656	44	4369
2026-01-23 01:25:40.03	25.50	18.83	-36.1	-37.9	22.1	0.00e+00	0	37	0	615514112	44	4255
2026-01-23 01:25:40.89	25.55	18.94	-36.2	-37.9	22.0	0.00e+00	0	37	0	620756992	44	4281
2026-01-23 01:25:42.02	25.62	19.07	-36.1	-37.9	22.1	0.00e+00	0	37	0	627048448	44	4256
2026-01-23 01:25:42.87	25.67	19.18	-36.2	-37.9	22.1	0.00e+00	0	37	0	631242752	44	4268
2026-01-23 01:25:44.01	25.74	19.32	-36.1	-37.9	22.1	0.00e+00	0	37	0	638582784	44	4257
2026-01-23 01:25:44.86	25.79	19.42	-36.2	-37.9	22.0	0.00e+00	0	37	0	642777088	44	4280
2026-01-23 01:25:46.01	25.87	19.56	-36.2	-37.9	22.1	0.00e+00	0	37	0	649068544	44	4275
2026-01-23 01:25:46.87	25.92	19.67	-36.2	-38.0	22.0	0.00e+00	0	37	0	654311424	44	4313
2026-01-23 01:25:48.00	25.99	19.81	-36.2	-37.9	22.0	0.00e+00	0	38	0	660602880	44	4287
2026-01-23 01:25:48.85	26.04	19.92	-36.2	-37.9	22.1	0.00e+00	0	37	0	665845760	44	4284
2026-01-23 01:25:50.12	26.12	20.08	-36.3	-38.0	22.0	0.00e+00	0	37	0	672137216	44	4332
2026-01-23 01:25:50.92	26.18	20.18	-36.2	-38.0	22.0	0.00e+00	0	37	0	677380096	44	4315
2026-01-23 01:25:52.06	26.25	20.33	-36.2	-37.9	22.1	0.00e+00	0	37	0	683671552	44	4283
2026-01-23 01:25:52.91	26.31	20.43	-36.2	-37.9	22.1	0.00e+00	0	38	0	687865856	44	4260
2026-01-23 01:25:54.05	26.38	20.58	-36.2	-37.9	22.1	0.00e+00	0	37	0	694157312	44	4267
2026-01-23 01:25:54.90	26.44	20.69	-36.1	-37.9	22.2	0.00e+00	0	37	0	699400192	44	4246
2026-01-23 01:25:56.04	26.51	20.84	-36.1	-37.9	22.1	0.00e+00	0	38	0	705691648	44	4247
2026-01-23 01:25:56.89	26.57	20.95	-36.1	-37.8	22.2	0.00e+00	0	37	0	709885952	44	4222
2026-01-23 01:25:58.03	26.65	21.10	-36.2	-37.9	22.1	0.00e+00	0	37	0	717225984	44	4254
2026-01-23 01:25:58.88	26.71	21.21	-36.3	-38.0	22.1	0.00e+00	0	37	0	721420288	44	4305
2026-01-23 01:26:00.02	26.78	21.36	-36.2	-38.0	22.1	0.00e+00	0	37	0	727711744	44	4298
2026-01-23 01:26:00.88	26.84	21.48	-36.2	-37.9	22.1	0.00e+00	0	37	0	732954624	44	4272
2026-01-23 01:26:02.01	26.92	21.63	-36.3	-38.0	22.0	0.00e+00	0	37	0	739246080	44	4312
2026-01-23 01:26:02.86	26.98	21.74	-36.2	-38.0	22.1	0.00e+00	0	38	0	744488960	44	4302
2026-01-23 01:26:04.00	27.06	21.90	-36.3	-38.0	22.0	0.00e+00	0	37	0	750780416	44	4320
2026-01-23 01:26:04.85	27.13	22.01	-36.2	-37.9	22.1	0.00e+00	0	37	0	754974720	44	4261
2026-01-23 01:26:05.99	27.21	22.17	-35.8	-37.5	22.4	0.00e+00	0	38	0	761266176	43	4301
2026-01-23 01:26:06.85	27.27	22.29	-35.7	-37.4	22.4	0.00e+00	0	38	0	766509056	43	4251
2026-01-23 01:26:07.98	27.35	22.44	-35.5	-37.2	22.6	0.00e+00	0	38	0	772800512	43	4162
2026-01-23 01:26:08.84	27.42	22.56	-35.4	-37.1	22.7	0.00e+00	0	37	0	778043392	42	4368
2026-01-23 01:26:09.97	27.50	22.72	-35.3	-37.0	22.8	0.00e+00	0	38	0	784334848	42	4306
2026-01-23 01:26:10.82	27.57	22.84	-35.3	-37.0	22.8	0.00e+00	0	37	0	788529152	42	4315
2026-01-23 01:26:11.96	27.65	23.00	-35.3	-37.0	22.8	0.00e+00	0	37	0	794820608	42	4292
2026-01-23 01:26:12.81	27.72	23.12	-35.2	-36.8	22.9	0.00e+00	0	38	0	800063488	42	4235
2026-01-23 01:26:13.95	27.81	23.28	-35.1	-36.7	23.0	0.00e+00	0	38	0	806354944	42	4193
2026-01-23 01:26:14.80	27.87	23.40	-35.1	-36.7	23.1	0.00e+00	0	37	0	810549248	42	4169
2026-01-23 01:26:15.93	27.96	23.57	-35.1	-36.7	23.0	0.00e+00	0	38	0	817889280	42	4187
2026-01-23 01:26:16.79	28.03	23.69	-35.1	-36.7	23.0	0.00e+00	0	38	0	822083584	42	4189
2026-01-23 01:26:17.92	28.12	23.85	-35.1	-36.8	23.0	0.00e+00	0	37	0	828375040	42	4209
2026-01-23 01:26:18.78	28.19	23.98	-35.2	-36.8	22.9	0.00e+00	0	37	0	833617920	42	4242
2026-01-23 01:26:20.03	28.29	24.16	-35.3	-36.9	22.9	0.00e+00	0	37	0	840957952	42	4286
2026-01-23 01:26:20.88	28.36	24.29	-35.2	-36.9	22.9	0.00e+00	0	38	0	845152256	42	4269
2026-01-23 01:26:22.02	28.46	24.46	-35.2	-36.9	22.9	0.00e+00	0	37	0	851443712	42	4270
2026-01-23 01:26:22.87	28.53	24.59	-35.2	-36.9	22.9	0.00e+00	0	38	0	856686592	42	4245
2026-01-23 01:26:24.01	28.63	24.76	-35.1	-36.7	23.0	0.00e+00	0	37	0	862978048	42	4192
2026-01-23 01:26:24.86	28.70	24.88	-35.1	-36.7	23.0	0.00e+00	0	38	0	868220928	42	4181
2026-01-23 01:26:26.00	28.80	25.06	-35.1	-36.7	23.1	0.00e+00	0	38	0	874512384	42	4185
2026-01-23 01:26:26.85	28.87	25.19	-35.0	-36.6	23.1	0.00e+00	0	38	0	878706688	41	4371
2026-01-23 01:26:27.99	28.97	25.36	-35.0	-36.7	23.1	0.00e+00	0	38	0	884998144	41	4406
2026-01-23 01:26:28.84	29.05	25.49	-34.9	-36.5	23.2	0.00e+00	0	38	0	890241024	41	4334
2026-01-23 01:26:29.97	29.15	25.67	-34.9	-36.5	23.2	0.00e+00	0	38	0	896532480	41	4312
2026-01-23 01:26:30.83	29.23	25.80	-34.9	-36.5	23.2	0.00e+00	0	38	0	901775360	41	4335
2026-01-23 01:26:31.96	29.33	25.98	-35.0	-36.6	23.1	0.00e+00	0	38	0	908066816	41	4388
2026-01-23 01:26:32.82	29.41	26.11	-35.1	-36.8	23.0	0.00e+00	0	37	0	912261120	41	4457
2026-01-23 01:26:33.95	29.51	26.29	-35.2	-36.8	22.9	0.00e+00	0	38	0	918552576	41	4488
2026-01-23 01:26:34.80	29.59	26.43	-35.3	-36.9	22.9	0.00e+00	0	38	0	923795456	41	4536
2026-01-23 01:26:35.94	29.70	26.61	-35.3	-37.0	22.8	0.00e+00	0	38	0	930086912	41	4550
2026-01-23 01:26:36.79	29.78	26.75	-35.2	-36.9	22.9	0.00e+00	0	38	0	934281216	41	4530
2026-01-23 01:26:38.00	29.90	26.94	-35.2	-36.8	22.9	0.00e+00	0	37	0	941621248	41	4492
2026-01-23 01:26:38.85	29.98	27.08	-35.3	-37.0	22.9	0.00e+00	0	37	0	945815552	41	4547
2026-01-23 01:26:39.99	30.09	27.27	-35.1	-36.8	23.0	0.00e+00	0	38	0	953155584	41	4458
2026-01-23 01:26:40.84	30.18	27.41	-35.0	-36.6	23.1	0.00e+00	0	38	0	957349888	41	4378
2026-01-23 01:26:42.11	30.31	27.62	-34.9	-36.6	23.2	0.00e+00	0	38	0	964689920	41	4360
2026-01-23 01:26:42.91	30.39	27.75	-35.0	-36.6	23.2	0.00e+00	0	38	0	968884224	41	4377
2026-01-23 01:26:44.05	30.50	27.94	-35.0	-36.6	23.2	0.00e+00	0	38	0	975175680	41	4371
2026-01-23 01:26:44.90	30.59	28.09	-34.9	-36.6	23.2	0.00e+00	0	38	0	980418560	41	4367
2026-01-23 01:26:46.04	30.71	28.28	-34.9	-36.5	23.2	0.00e+00	0	38	0	986710016	41	4329
2026-01-23 01:26:46.89	30.80	28.42	-34.8	-36.5	23.3	0.00e+00	0	38	0	991952896	41	4296
2026-01-23 01:26:48.02	30.92	28.62	-34.7	-36.4	23.4	0.00e+00	0	38	0	998244352	41	4251
2026-01-23 01:26:48.87	31.01	28.76	-34.7	-36.4	23.4	0.00e+00	0	38	0	1002438656	41	4266
2026-01-23 01:26:50.01	31.14	28.96	-34.7	-36.3	23.4	0.00e+00	0	38	0	1009778688	41	4226
2026-01-23 01:26:50.86	31.23	29.11	-34.6	-36.3	23.5	0.00e+00	0	38	0	1013972992	41	4198
2026-01-23 01:26:52.00	31.36	29.31	-34.6	-36.3	23.5	0.00e+00	0	38	0	1020264448	41	4210
2026-01-23 01:26:52.85	31.45	29.46	-34.7	-36.3	23.4	0.00e+00	0	38	0	1025507328	41	4241
2026-01-23 01:26:53.99	31.58	29.66	-34.6	-36.3	23.5	0.00e+00	0	38	0	1031798784	41	4196
2026-01-23 01:26:54.84	31.68	29.81	-34.6	-36.3	23.5	0.00e+00	0	38	0	1035993088	41	4202
2026-01-23 01:26:55.99	31.81	30.02	-34.7	-36.3	23.4	0.00e+00	0	38	0	1042284544	41	4213
2026-01-23 01:26:56.85	31.92	30.17	-34.7	-36.3	23.4	0.00e+00	0	37	0	1047527424	41	4242
2026-01-23 01:26:57.99	32.05	30.38	-34.7	-36.4	23.3	0.00e+00	0	38	0	1053818880	41	4255
2026-01-23 01:26:58.84	32.15	30.53	-34.7	-36.3	23.5	0.00e+00	0	38	0	1059061760	41	4213
2026-01-23 01:27:00.10	32.31	30.76	-34.8	-36.4	23.4	0.00e+00	0	38	0	1065353216	41	4267
2026-01-23 01:27:00.87	32.40	30.90	-34.9	-36.5	23.3	0.00e+00	0	38	0	1070596096	41	4314
2026-01-23 01:27:02.15	32.56	31.14	-34.8	-36.4	23.4	0.00e+00	0	38	0	1077936128	41	4263
2026-01-23 01:27:02.88	32.65	31.28	-34.8	-36.4	23.4	0.00e+00	0	38	0	1082130432	41	4274
2026-01-23 01:27:04.16	32.81	31.52	-34.9	-36.6	23.2	0.00e+00	0	38	0	1088421888	41	4357
2026-01-23 01:27:04.87	32.90	31.65	-34.9	-36.6	23.2	0.00e+00	0	38	0	1092616192	41	4353
2026-01-23 01:27:06.19	33.07	31.90	-34.9	-36.5	23.3	0.00e+00	0	38	0	1099956224	41	4334
2026-01-23 01:27:06.91	33.17	32.04	-34.8	-36.5	23.3	0.00e+00	0	38	0	1104150528	41	4293
2026-01-23 01:27:08.18	33.34	32.28	-34.7	-36.3	23.4	0.00e+00	0	38	0	1111490560	41	4238
2026-01-23 01:27:08.90	33.43	32.42	-34.6	-36.2	23.5	0.00e+00	0	38	0	1115684864	41	4191
2026-01-23 01:27:10.17	33.61	32.67	-34.8	-36.4	23.4	0.00e+00	0	38	0	1123024896	41	4263
2026-01-23 01:27:11.00	33.72	32.83	-34.7	-36.3	23.4	0.00e+00	0	38	0	1127219200	41	4221
2026-01-23 01:27:12.13	33.88	33.05	-34.7	-36.4	23.4	0.00e+00	0	38	0	1133510656	41	4260
2026-01-23 01:27:12.99	34.00	33.22	-34.8	-36.5	23.3	0.00e+00	0	38	0	1138753536	41	4308
2026-01-23 01:27:14.12	34.16	33.44	-34.9	-36.5	23.2	0.00e+00	0	38	0	1145044992	41	4328
2026-01-23 01:27:14.98	34.28	33.62	-34.8	-36.4	23.3	0.00e+00	0	38	0	1149239296	41	4291
2026-01-23 01:27:16.11	34.45	33.84	-34.6	-36.3	23.4	0.00e+00	0	38	0	1156579328	41	4211
2026-01-23 01:27:17.30	34.62	34.08	-34.6	-36.2	23.5	0.00e+00	0	38	0	1162870784	41	4166
2026-01-23 01:27:18.33	34.78	34.29	-34.5	-36.1	23.6	0.00e+00	0	38	0	1168113664	41	4123
2026-01-23 01:27:19.32	34.93	34.49	-34.5	-36.1	23.6	0.00e+00	0	38	0	1174405120	41	4121
2026-01-23 01:27:20.32	35.08	34.70	-34.5	-36.1	23.6	0.00e+00	0	38	0	1179648000	41	4141
2026-01-23 01:27:21.31	35.24	34.90	-34.5	-36.2	23.6	0.00e+00	0	38	0	1184890880	41	4153
2026-01-23 01:27:22.31	35.39	35.11	-34.6	-36.2	23.5	0.00e+00	0	38	0	1191182336	41	4181
2026-01-23 01:27:23.30	35.55	35.32	-34.5	-36.2	23.6	0.00e+00	0	38	0	1196425216	41	4153
2026-01-23 01:27:24.30	35.71	35.53	-34.4	-36.0	23.7	0.00e+00	0	38	0	1201668096	40	4333
2026-01-23 01:27:25.29	35.87	35.74	-34.3	-36.0	23.8	0.00e+00	0	38	0	1207959552	40	4302
2026-01-23 01:27:26.29	36.04	35.95	-34.3	-36.0	23.7	0.00e+00	0	38	0	1213202432	40	4298
2026-01-23 01:27:27.29	36.21	36.16	-34.4	-36.0	23.8	0.00e+00	0	38	0	1218445312	40	4313
2026-01-23 01:27:28.28	36.38	36.37	-34.3	-35.9	23.8	0.00e+00	0	38	0	1224736768	40	4258
2026-01-23 01:27:29.27	36.55	36.59	-34.2	-35.8	23.9	0.00e+00	0	38	0	1229979648	40	4210
2026-01-23 01:27:30.30	36.72	36.81	-34.1	-35.8	23.2	0.00e+00	0	38	0	1235222528	40	4223
2026-01-23 01:27:31.30	36.90	37.03	-34.1	-35.8	23.2	0.00e+00	0	37	0	1241513984	40	4204
2026-01-23 01:27:32.35	37.09	37.26	-34.0	-35.7	23.3	0.00e+00	0	38	0	1247805440	40	4178
2026-01-23 01:27:33.28	37.26	37.46	-34.1	-35.8	23.2	0.00e+00	0	38	0	1253048320	40	4199
2026-01-23 01:27:34.28	37.44	37.68	-34.0	-35.7	23.2	0.00e+00	0	38	0	1258291200	40	4191
2026-01-23 01:27:35.43	37.65	37.94	-34.1	-35.8	23.2	0.00e+00	0	38	0	1264582656	40	4223
2026-01-23 01:27:36.32	37.82	38.14	-34.2	-35.9	23.2	0.00e+00	0	38	0	1269825536	40	4273
2026-01-23 01:27:37.45	38.04	38.39	-34.3	-36.0	23.0	0.00e+00	0	38	0	1276116992	40	4337
2026-01-23 01:27:38.37	38.22	38.60	-34.3	-36.0	23.0	0.00e+00	0	38	0	1281359872	40	4334
2026-01-23 01:27:39.36	38.41	38.83	-34.4	-36.2	23.0	0.00e+00	0	37	0	1286602752	40	4393
2026-01-23 01:27:40.36	38.61	39.06	-34.6	-36.3	22.9	0.00e+00	0	37	0	1292894208	40	4462
2026-01-23 01:27:41.35	38.81	39.28	-34.6	-36.4	22.8	0.00e+00	0	38	0	1298137088	40	4504
2026-01-23 01:27:42.34	39.01	39.51	-34.7	-36.4	22.8	0.00e+00	0	38	0	1303379968	40	4518
2026-01-23 01:27:43.34	39.22	39.74	-34.7	-36.5	22.8	0.00e+00	0	38	0	1308622848	40	4562
2026-01-23 01:27:44.33	39.43	39.97	-34.4	-36.1	23.1	0.00e+00	0	38	0	1314914304	40	4346
2026-01-23 01:27:45.33	39.64	40.21	-34.2	-35.9	23.3	0.00e+00	0	38	0	1320157184	40	4253
2026-01-23 01:27:46.32	39.86	40.44	-34.2	-35.9	23.2	0.00e+00	0	38	0	1326448640	40	4279
2026-01-23 01:27:47.32	40.08	40.68	-34.4	-36.1	23.0	0.00e+00	0	37	0	1331691520	40	4377
2026-01-23 01:27:48.31	40.30	40.91	-34.6	-36.3	22.9	0.00e+00	0	38	0	1336934400	40	4454
2026-01-23 01:27:49.31	40.52	41.15	-34.6	-36.3	22.9	0.00e+00	0	38	0	1343225856	40	4461
2026-01-23 01:27:50.30	40.75	41.39	-34.7	-36.4	22.8	0.00e+00	0	38	0	1348468736	40	4513
2026-01-23 01:27:51.34	40.99	41.64	-34.4	-36.2	23.0	0.00e+00	0	38	0	1353711616	40	4393
2026-01-23 01:27:52.34	41.23	41.88	-34.7	-36.4	22.8	0.00e+00	0	38	0	1360003072	40	4508
2026-01-23 01:27:53.33	41.47	42.12	-34.7	-36.4	22.8	0.00e+00	0	38	0	1365245952	40	4528
2026-01-23 01:27:54.33	41.71	42.37	-34.8	-36.5	22.7	0.00e+00	0	38	0	1371537408	40	4576
2026-01-23 01:27:55.32	41.96	42.61	-34.7	-36.4	22.7	0.00e+00	0	38	0	1376780288	40	4543
2026-01-23 01:27:56.32	42.21	42.85	-34.6	-36.3	22.9	0.00e+00	0	38	0	1382023168	40	4480
2026-01-23 01:27:57.31	42.46	43.10	-34.6	-36.3	22.8	0.00e+00	0	38	0	1388314624	40	4488
2026-01-23 01:27:58.31	42.72	43.35	-34.5	-36.2	22.9	0.00e+00	0	38	0	1393557504	40	4438
2026-01-23 01:27:59.30	42.98	43.59	-34.5	-36.2	23.0	0.00e+00	0	38	0	1398800384	40	4404
2026-01-23 01:28:00.30	43.24	43.84	-34.6	-36.3	22.9	0.00e+00	0	38	0	1404043264	40	4479
2026-01-23 01:28:01.29	43.51	44.09	-34.8	-36.5	22.7	0.00e+00	0	38	0	1410334720	40	4593
2026-01-23 01:28:02.29	43.79	44.35	-34.9	-36.7	22.5	0.00e+00	0	38	0	1415577600	40	4682
2026-01-23 01:28:03.28	44.06	44.60	-35.0	-36.8	22.5	0.00e+00	0	38	0	1421869056	40	4716
2026-01-23 01:28:04.28	44.35	44.85	-34.9	-36.7	22.6	0.00e+00	0	38	0	1427111936	40	4664
2026-01-23 01:28:05.27	44.63	45.10	-34.8	-36.5	22.7	0.00e+00	0	38	0	1432354816	40	4596
2026-01-23 01:28:06.27	44.92	45.36	-34.8	-36.5	22.7	0.00e+00	0	38	0	1438646272	40	4595
2026-01-23 01:28:07.26	45.22	45.61	-34.8	-36.5	22.7	0.00e+00	0	38	0	1443889152	40	4569
2026-01-23 01:28:08.26	45.52	45.87	-34.8	-36.5	22.7	0.00e+00	0	38	0	1449132032	40	4595
2026-01-23 01:28:09.26	45.83	46.13	-34.8	-36.5	22.7	0.00e+00	0	38	0	1455423488	40	4596
2026-01-23 01:28:10.25	46.14	46.38	-34.7	-36.4	22.8	0.00e+00	0	38	0	1460666368	40	4535
2026-01-23 01:28:11.25	46.45	46.64	-34.6	-36.4	22.9	0.00e+00	0	38	0	1465909248	40	4494
2026-01-23 01:28:12.24	46.77	46.90	-34.8	-36.5	22.8	0.00e+00	0	38	0	1472200704	40	4584
2026-01-23 01:28:13.23	47.10	47.16	-34.7	-36.4	22.9	0.00e+00	0	38	0	1477443584	40	4536
2026-01-23 01:28:14.43	47.50	47.47	-34.7	-36.4	23.0	0.00e+00	0	38	0	1483735040	40	4527
2026-01-23 01:28:15.33	47.80	47.71	-34.7	-36.4	22.9	0.00e+00	0	38	0	1488977920	40	4543
2026-01-23 01:28:16.44	48.18	48.00	-34.9	-36.6	22.7	0.00e+00	0	38	0	1495269376	40	4632
2026-01-23 01:28:17.29	48.48	48.22	-34.9	-36.6	22.8	0.00e+00	0	38	0	1500512256	40	4645
2026-01-23 01:28:18.43	48.89	48.52	-34.8	-36.5	22.9	0.00e+00	0	38	0	1506803712	40	4565
2026-01-23 01:28:19.28	49.20	48.75	-34.8	-36.4	22.9	0.00e+00	0	38	0	1510998016	40	4542
2026-01-23 01:28:20.42	49.62	49.05	-34.9	-36.6	22.8	0.00e+00	0	38	0	1518338048	40	4599
2026-01-23 01:28:21.27	49.94	49.27	-35.1	-36.8	22.6	0.00e+00	0	38	0	1522532352	40	4726
2026-01-23 01:28:22.41	50.37	49.58	-35.2	-37.0	22.5	0.00e+00	0	38	0	1528823808	41	4550
2026-01-23 01:28:23.27	50.71	49.80	-35.3	-37.1	22.3	0.00e+00	0	38	0	1534066688	41	4613
2026-01-23 01:28:24.40	51.15	50.10	-35.4	-37.1	22.3	0.00e+00	0	38	0	1540358144	41	4642
2026-01-23 01:28:25.25	51.50	50.33	-35.4	-37.1	22.3	0.00e+00	0	38	0	1545601024	41	4648
2026-01-23 01:28:26.47	52.00	50.65	-35.5	-37.2	22.2	0.00e+00	0	38	0	1551892480	41	4698
2026-01-23 01:28:27.32	52.35	50.88	-35.3	-37.0	22.5	0.00e+00	0	38	0	1557135360	41	4568
2026-01-23 01:28:28.46	52.83	51.18	-34.9	-36.6	22.8	0.00e+00	0	38	0	1563426816	41	4363
2026-01-23 01:28:29.31	53.20	51.41	-35.0	-36.7	22.8	0.00e+00	0	38	0	1567621120	41	4409
2026-01-23 01:28:30.45	53.70	51.71	-35.4	-37.1	22.4	0.00e+00	0	38	0	1573912576	41	4632
2026-01-23 01:28:31.31	54.09	51.94	-35.5	-37.3	22.3	0.00e+00	0	38	0	1579155456	41	4708
2026-01-23 01:28:32.44	54.60	52.24	-35.4	-37.2	22.3	0.00e+00	0	38	0	1585446912	41	4670
2026-01-23 01:28:33.41	55.05	52.49	-35.5	-37.3	22.2	0.00e+00	0	38	0	1590689792	41	4729
2026-01-23 01:28:34.56	55.59	52.80	-35.6	-37.4	22.1	0.00e+00	0	38	0	1596981248	41	4790
2026-01-23 01:28:35.41	56.00	53.02	-35.6	-37.4	22.1	0.00e+00	0	38	0	1602224128	42	4509
2026-01-23 01:28:36.55	56.56	53.32	-35.4	-37.2	22.3	0.00e+00	0	38	0	1608515584	42	4392
2026-01-23 01:28:37.40	56.98	53.54	-35.3	-37.0	22.5	0.00e+00	0	38	0	1613758464	42	4306
2026-01-23 01:28:38.54	57.56	53.84	-35.5	-37.3	22.2	0.00e+00	0	38	0	1620049920	42	4447
2026-01-23 01:28:39.39	58.00	54.06	-35.7	-37.5	22.0	0.00e+00	0	38	0	1624244224	42	4580
2026-01-23 01:28:40.53	58.60	54.35	-35.7	-37.5	22.0	0.00e+00	0	38	0	1630535680	42	4576
2026-01-23 01:28:41.38	59.05	54.57	-35.6	-37.3	22.1	0.00e+00	0	38	0	1635778560	42	4473
2026-01-23 01:28:42.52	59.67	54.87	-35.6	-37.3	22.2	0.00e+00	0	38	0	1642070016	42	4462
2026-01-23 01:28:43.37	60.15	55.08	-35.6	-37.3	22.2	0.00e+00	0	38	0	1647312896	42	4487
2026-01-23 01:28:44.51	60.79	55.37	-35.9	-37.6	21.9	0.00e+00	0	38	0	1653604352	42	4632
2026-01-23 01:28:45.36	61.28	55.59	-36.0	-37.8	21.8	0.00e+00	0	38	0	1657798656	42	4722
2026-01-23 01:28:46.50	61.94	55.87	-36.1	-37.9	21.7	0.00e+00	0	38	0	1664090112	42	4772
2026-01-23 01:28:47.35	62.45	56.08	-35.6	-37.4	22.1	0.00e+00	0	38	0	1669332992	42	4496
2026-01-23 01:28:48.48	63.13	56.36	-35.2	-36.9	22.5	0.00e+00	0	38	0	1675624448	42	4270
2026-01-23 01:28:49.34	63.66	56.57	-35.3	-37.0	22.5	0.00e+00	0	38	0	1680867328	42	4314
2026-01-23 01:28:50.47	64.37	56.85	-35.5	-37.2	22.3	0.00e+00	0	38	0	1687158784	42	4430
2026-01-23 01:28:51.33	64.92	57.05	-35.5	-37.3	22.2	0.00e+00	0	38	0	1691353088	42	4465
2026-01-23 01:28:52.46	65.66	57.32	-35.5	-37.2	22.3	0.00e+00	0	38	0	1697644544	42	4433
2026-01-23 01:28:53.32	66.22	57.53	-35.5	-37.2	22.3	0.00e+00	0	38	0	1702887424	42	4436
2026-01-23 01:28:54.45	66.98	57.79	-35.3	-37.0	22.6	0.00e+00	0	38	0	1709178880	42	4296
2026-01-23 01:28:55.30	67.57	57.99	-35.4	-37.1	22.4	0.00e+00	0	38	0	1713373184	42	4351
2026-01-23 01:28:56.44	68.36	58.25	-35.3	-37.1	22.4	0.00e+00	0	38	0	1720713216	42	4350
2026-01-23 01:28:57.29	68.96	58.44	-35.6	-37.4	22.1	0.00e+00	0	38	0	1724907520	42	4518
2026-01-23 01:28:58.43	69.78	58.69	-35.2	-36.9	22.5	0.00e+00	0	38	0	1731198976	42	4269
2026-01-23 01:28:59.28	70.40	58.87	-34.9	-36.6	22.7	0.00e+00	0	38	0	1736441856	41	4381
2026-01-23 01:29:00.42	71.25	59.12	-34.8	-36.5	22.9	0.00e+00	0	38	0	1742733312	41	4313
2026-01-23 01:29:01.27	71.89	59.30	-34.7	-36.4	23.0	0.00e+00	0	38	0	1747976192	41	4273
2026-01-23 01:29:02.55	72.87	59.56	-35.1	-36.8	22.7	0.00e+00	0	38	0	1754267648	41	4466
2026-01-23 01:29:03.27	73.43	59.71	-34.9	-36.6	22.8	0.00e+00	0	38	0	1758461952	41	4359
2026-01-23 01:29:04.76	74.61	60.00	-34.7	-36.4	23.0	0.00e+00	0	38	0	1766850560	41	4255
2026-01-23 01:29:05.47	75.19	60.14	-34.6	-36.3	23.0	0.00e+00	0	38	0	1771044864	41	4223
2026-01-23 01:29:06.75	76.23	60.38	-34.9	-36.6	22.7	0.00e+00	0	38	0	1778384896	41	4371
2026-01-23 01:29:07.47	76.83	60.51	-34.8	-36.6	22.7	0.00e+00	0	38	0	1782579200	41	4356
2026-01-23 01:29:08.75	77.91	60.74	-34.7	-36.4	22.9	0.00e+00	0	38	0	1789919232	41	4278
2026-01-23 01:29:09.48	78.54	60.87	-34.6	-36.3	22.9	0.00e+00	0	38	0	1794113536	41	4234
2026-01-23 01:29:10.76	79.64	61.09	-34.4	-36.1	23.1	0.00e+00	0	38	0	1801453568	40	4349
2026-01-23 01:29:11.48	80.28	61.21	-34.2	-35.9	23.2	0.00e+00	0	38	0	1804599296	40	4268
2026-01-23 01:29:12.76	81.41	61.41	-34.4	-36.1	23.1	0.00e+00	0	38	0	1811939328	40	4342
2026-01-23 01:29:13.49	82.07	61.52	-34.6	-36.3	22.9	0.00e+00	0	38	0	1816133632	40	4486
2026-01-23 01:29:14.76	83.23	61.71	-34.6	-36.4	22.9	0.00e+00	0	38	0	1823473664	40	4498
2026-01-23 01:29:15.54	83.95	61.82	-34.4	-36.1	23.1	0.00e+00	0	38	0	1827667968	40	4386
2026-01-23 01:29:16.82	85.14	61.99	-34.5	-36.3	23.1	0.00e+00	0	38	0	1835008000	40	4448
2026-01-23 01:29:17.54	85.82	62.08	-34.8	-36.6	22.8	0.00e+00	0	38	0	1839202304	40	4605
2026-01-23 01:29:18.82	87.04	62.24	-34.8	-36.5	22.8	0.00e+00	0	38	0	1846542336	40	4575
2026-01-23 01:29:19.55	87.74	62.32	-34.7	-36.5	22.8	0.00e+00	0	38	0	1850736640	40	4550
2026-01-23 01:29:20.83	88.98	62.46	-34.4	-36.1	23.1	0.00e+00	0	38	0	1858076672	40	4347
2026-01-23 01:29:21.55	89.69	62.53	-34.5	-36.3	23.0	0.00e+00	0	38	0	1861222400	40	4457
2026-01-23 01:29:22.83	90.95	62.65	-34.2	-35.9	23.2	0.00e+00	0	38	0	1868562432	40	4278
2026-01-23 01:29:23.56	91.68	62.72	-34.2	-35.9	23.2	0.00e+00	0	38	0	1872756736	40	4279
2026-01-23 01:29:24.84	92.96	62.82	-34.3	-36.1	23.1	0.00e+00	0	38	0	1880096768	40	4345
2026-01-23 01:29:25.56	93.69	62.87	-34.4	-36.2	23.0	0.00e+00	0	38	0	1884291072	40	4412
2026-01-23 01:29:26.84	94.99	62.96	-34.4	-36.1	23.1	0.00e+00	0	38	0	1891631104	40	4360
2026-01-23 01:29:27.56	95.72	63.00	-34.2	-35.9	23.3	0.00e+00	0	38	0	1895825408	40	4280
2026-01-23 01:29:28.84	97.03	63.07	-34.4	-36.1	23.1	0.00e+00	0	38	0	1902116864	40	4365
2026-01-23 01:29:29.57	97.78	63.10	-34.1	-35.8	23.4	0.00e+00	0	38	0	1906311168	40	4236
2026-01-23 01:29:30.85	99.10	63.14	-34.1	-35.8	23.4	0.00e+00	0	38	0	1913651200	40	4201
2026-01-23 01:29:31.60	99.88	63.17	-34.2	-35.9	23.3	0.00e+00	0	38	0	1917845504	40	4272
2026-01-23 01:29:32.88	101.21	63.19	-34.1	-35.8	23.4	0.00e+00	0	38	0	1925185536	40	4240
2026-01-23 01:29:33.67	102.03	63.20	-34.1	-35.8	23.4	0.00e+00	0	38	0	1929379840	40	4215
2026-01-23 01:29:35.17	103.59	63.21	-34.3	-36.0	23.2	0.00e+00	0	38	0	1938817024	40	4333
2026-01-23 01:29:35.88	104.32	63.20	-34.3	-36.0	23.2	0.00e+00	0	38	0	1941962752	40	4327
2026-01-23 01:29:37.16	105.65	63.19	-34.4	-36.1	23.1	0.00e+00	0	38	0	1949302784	40	4351
2026-01-23 01:29:37.87	106.39	63.17	-34.4	-36.1	23.2	0.00e+00	0	38	0	1953497088	40	4343
2026-01-23 01:29:39.15	107.71	63.14	-34.4	-36.1	23.1	0.00e+00	0	38	0	1960837120	40	4390
2026-01-23 01:29:39.87	108.46	63.11	-34.4	-36.1	23.0	0.00e+00	0	38	0	1965031424	40	4386
2026-01-23 01:29:41.15	109.77	63.06	-34.3	-36.0	23.2	0.00e+00	0	38	0	1972371456	40	4314
2026-01-23 01:29:41.88	110.52	63.02	-34.4	-36.1	23.1	0.00e+00	0	38	0	1975517184	40	4350
2026-01-23 01:29:43.15	111.82	62.95	-34.5	-36.2	23.0	0.00e+00	0	38	0	1982857216	40	4413
2026-01-23 01:29:43.90	112.58	62.90	-34.5	-36.2	23.0	0.00e+00	0	38	0	1987051520	40	4434
2026-01-23 01:29:45.18	113.87	62.80	-34.3	-36.0	23.1	0.00e+00	0	38	0	1994391552	40	4322
2026-01-23 01:29:45.89	114.58	62.75	-34.2	-35.9	23.2	0.00e+00	0	38	0	1998585856	40	4283
2026-01-23 01:29:47.17	115.86	62.64	-34.2	-35.9	23.2	0.00e+00	0	38	0	2005925888	40	4291
2026-01-23 01:29:47.89	116.57	62.57	-34.3	-36.1	23.1	0.00e+00	0	38	0	2010120192	40	4345
2026-01-23 01:29:49.17	117.83	62.44	-34.2	-35.9	23.3	0.00e+00	0	38	0	2017460224	40	4258
2026-01-23 01:29:49.88	118.52	62.36	-34.1	-35.8	23.3	0.00e+00	0	38	0	2020605952	40	4231
2026-01-23 01:29:51.17	119.76	62.21	-34.5	-36.2	23.1	0.00e+00	0	38	0	2027945984	40	4420
2026-01-23 01:29:51.91	120.47	62.12	-34.7	-36.4	22.9	0.00e+00	0	38	0	2032140288	40	4522
2026-01-23 01:29:53.25	121.73	61.95	-34.8	-36.5	22.8	0.00e+00	0	38	0	2039480320	40	4565
2026-01-23 01:29:53.96	122.39	61.86	-34.6	-36.4	22.9	0.00e+00	0	38	0	2043674624	40	4496
2026-01-23 01:29:55.24	123.58	61.68	-34.6	-36.3	22.9	0.00e+00	0	38	0	2051014656	40	4476
2026-01-23 01:29:55.96	124.23	61.57	-34.5	-36.2	23.1	0.00e+00	0	38	0	2055208960	40	4394
2026-01-23 01:29:57.24	125.39	61.38	-34.3	-36.0	23.2	0.00e+00	0	38	0	2062548992	40	4301
2026-01-23 01:29:57.97	126.04	61.26	-34.2	-35.9	23.3	0.00e+00	0	38	0	2066743296	40	4272
2026-01-23 01:29:59.24	127.16	61.05	-34.2	-35.9	23.3	0.00e+00	0	38	0	2074083328	40	4244
2026-01-23 01:29:59.97	127.79	60.93	-34.1	-35.8	23.4	0.00e+00	0	38	0	2078277632	40	4220
2026-01-23 01:30:01.25	128.89	60.71	-34.3	-36.0	23.3	0.00e+00	0	38	0	2084569088	40	4295
2026-01-23 01:30:01.99	129.51	60.57	-34.4	-36.1	23.1	0.00e+00	0	38	0	2088763392	40	4371
2026-01-23 01:30:03.27	130.58	60.34	-34.6	-36.3	23.0	0.00e+00	0	38	0	2096103424	40	4484
2026-01-23 01:30:04.07	131.23	60.19	-34.6	-36.3	23.0	0.00e+00	0	38	0	2101346304	40	4489
2026-01-23 01:30:05.51	132.39	59.91	-34.8	-36.5	22.9	0.00e+00	0	38	0	2108686336	40	4553
2026-01-23 01:30:06.22	132.96	59.77	-35.0	-36.7	22.7	0.00e+00	0	38	0	2112880640	40	4679
2026-01-23 01:30:07.50	133.96	59.51	-34.8	-36.5	22.8	0.00e+00	0	38	0	2120220672	40	4583
2026-01-23 01:30:08.21	134.50	59.36	-34.6	-36.3	23.0	0.00e+00	0	38	0	2124414976	40	4475
2026-01-23 01:30:09.49	135.47	59.09	-34.8	-36.5	22.8	0.00e+00	0	38	0	2131755008	40	4563
2026-01-23 01:30:10.23	136.02	58.93	-34.9	-36.7	22.7	0.00e+00	0	38	0	2135949312	40	4664
2026-01-23 01:30:11.83	137.19	58.58	-34.8	-36.6	22.7	0.00e+00	0	38	0	2144337920	40	4606
2026-01-23 01:30:12.40	137.60	58.45	-34.8	-36.5	22.8	0.00e+00	0	38	0	2147483648	40	4596
2026-01-23 01:30:14.11	138.81	58.07	-34.7	-36.4	22.9	0.00e+00	0	38	0	2156920832	40	4523
2026-01-23 01:30:14.67	139.19	57.94	-34.8	-36.5	22.9	0.00e+00	0	38	0	2160066560	40	4563
2026-01-23 01:30:16.38	140.35	57.54	-35.2	-37.0	22.4	0.00e+00	0	38	0	2170552320	41	4554
2026-01-23 01:30:16.95	140.73	57.41	-35.2	-36.9	22.5	0.00e+00	0	38	0	2172649472	41	4538
2026-01-23 01:30:18.65	141.84	57.00	-35.2	-36.9	22.5	0.00e+00	0	38	0	2183135232	41	4526
2026-01-23 01:30:19.33	142.27	56.83	-35.5	-37.2	22.3	0.00e+00	0	38	0	2186280960	41	4687
2026-01-23 01:30:20.75	143.16	56.49	-35.7	-37.5	22.0	0.00e+00	0	38	0	2194669568	42	4565
2026-01-23 01:30:21.46	143.60	56.31	-35.6	-37.3	22.1	0.00e+00	0	38	0	2198863872	42	4486
2026-01-23 01:30:22.74	144.37	56.00	-35.6	-37.4	22.0	0.00e+00	0	38	0	2206203904	42	4514
2026-01-23 01:30:23.59	144.88	55.78	-35.7	-37.5	21.9	0.00e+00	0	38	0	2210398208	42	4595
2026-01-23 01:30:24.73	145.54	55.50	-35.9	-37.7	21.8	0.00e+00	0	38	0	2216689664	42	4660
2026-01-23 01:30:25.58	146.03	55.28	-35.8	-37.6	21.8	0.00e+00	0	38	0	2221932544	42	4632
2026-01-23 01:30:26.72	146.67	54.99	-35.7	-37.4	22.0	0.00e+00	0	38	0	2228224000	42	4512
2026-01-23 01:30:27.57	147.14	54.77	-35.4	-37.2	22.2	0.00e+00	0	38	0	2233466880	42	4395
2026-01-23 01:30:28.71	147.76	54.48	-35.7	-37.4	22.0	0.00e+00	0	38	0	2239758336	42	4533
2026-01-23 01:30:29.56	148.21	54.26	-35.8	-37.6	21.8	0.00e+00	0	38	0	2243952640	42	4613
2026-01-23 01:30:30.70	148.81	53.96	-35.6	-37.4	21.9	0.00e+00	0	38	0	2250244096	42	4532
2026-01-23 01:30:31.55	149.25	53.74	-35.8	-37.5	21.9	0.00e+00	0	38	0	2255486976	42	4576
2026-01-23 01:30:32.69	149.82	53.44	-35.6	-37.4	22.0	0.00e+00	0	38	0	2261778432	42	4524
2026-01-23 01:30:33.54	150.24	53.22	-35.7	-37.4	22.0	0.00e+00	0	38	0	2267021312	42	4539
2026-01-23 01:30:34.68	150.80	52.92	-35.8	-37.6	21.9	0.00e+00	0	38	0	2273312768	42	4601
2026-01-23 01:30:35.61	151.24	52.67	-35.7	-37.5	21.9	0.00e+00	0	38	0	2278555648	42	4584
2026-01-23 01:30:36.78	151.79	52.36	-35.5	-37.3	22.1	0.00e+00	0	38	0	2284847104	42	4456
2026-01-23 01:30:37.63	152.19	52.13	-35.1	-36.9	22.4	0.00e+00	0	38	0	2290089984	42	4255
2026-01-23 01:30:38.77	152.70	51.83	-35.1	-36.9	22.5	0.00e+00	0	38	0	2296381440	42	4245
2026-01-23 01:30:39.70	153.12	51.58	-35.1	-36.8	22.5	0.00e+00	0	38	0	2301624320	42	4223
2026-01-23 01:30:40.87	153.63	51.27	-35.0	-36.8	22.6	0.00e+00	0	38	0	2307915776	42	4203
2026-01-23 01:30:41.73	154.00	51.04	-35.0	-36.7	22.7	0.00e+00	0	38	0	2313158656	42	4190
2026-01-23 01:30:42.86	154.47	50.74	-34.9	-36.6	22.8	0.00e+00	0	38	0	2319450112	41	4345
2026-01-23 01:30:43.72	154.83	50.51	-34.9	-36.6	22.8	0.00e+00	0	38	0	2323644416	41	4379
2026-01-23 01:30:44.85	155.29	50.21	-35.1	-36.9	22.5	0.00e+00	0	38	0	2329935872	41	4500
2026-01-23 01:30:45.71	155.64	49.98	-35.2	-36.9	22.5	0.00e+00	0	38	0	2335178752	41	4518
2026-01-23 01:30:46.84	156.08	49.68	-35.0	-36.7	22.6	0.00e+00	0	38	0	2341470208	41	4424
2026-01-23 01:30:47.70	156.41	49.45	-34.8	-36.5	22.8	0.00e+00	0	38	0	2345664512	41	4315
2026-01-23 01:30:48.83	156.84	49.15	-34.9	-36.6	22.8	0.00e+00	0	38	0	2353004544	41	4346
2026-01-23 01:30:49.68	157.16	48.93	-34.8	-36.5	22.8	0.00e+00	0	38	0	2357198848	41	4316
2026-01-23 01:30:50.82	157.58	48.62	-34.7	-36.4	22.9	0.00e+00	0	38	0	2363490304	41	4277
2026-01-23 01:30:51.67	157.89	48.40	-34.8	-36.5	22.8	0.00e+00	0	38	0	2368733184	41	4315
2026-01-23 01:30:52.92	158.33	48.07	-34.8	-36.6	22.7	0.00e+00	0	38	0	2376073216	41	4348
2026-01-23 01:30:53.77	158.63	47.84	-34.9	-36.7	22.6	0.00e+00	0	38	0	2380267520	41	4418
2026-01-23 01:30:54.91	159.02	47.54	-34.9	-36.6	22.6	0.00e+00	0	38	0	2386558976	41	4379
2026-01-23 01:30:55.76	159.31	47.32	-34.8	-36.6	22.6	0.00e+00	0	38	0	2391801856	41	4353
2026-01-23 01:30:57.02	159.72	46.99	-34.8	-36.5	22.7	0.00e+00	0	38	0	2399141888	41	4331
2026-01-23 01:30:57.81	159.98	46.78	-34.8	-36.5	22.7	0.00e+00	0	38	0	2403336192	41	4335
2026-01-23 01:30:59.01	160.37	46.47	-34.9	-36.6	22.6	0.00e+00	0	38	0	2409627648	41	4379
2026-01-23 01:30:59.87	160.64	46.25	-34.8	-36.5	22.7	0.00e+00	0	38	0	2414870528	41	4339
2026-01-23 01:31:01.00	160.99	45.95	-35.0	-36.7	22.5	0.00e+00	0	38	0	2421161984	41	4438
2026-01-23 01:31:01.86	161.25	45.73	-34.9	-36.6	22.6	0.00e+00	0	38	0	2426404864	41	4389
2026-01-23 01:31:02.99	161.59	45.44	-34.7	-36.4	22.7	0.00e+00	0	38	0	2431647744	41	4285
2026-01-23 01:31:03.84	161.84	45.22	-34.7	-36.4	22.8	0.00e+00	0	38	0	2436890624	41	4264
2026-01-23 01:31:04.98	162.17	44.93	-34.7	-36.4	22.8	0.00e+00	0	38	0	2443182080	41	4256
2026-01-23 01:31:05.83	162.42	44.71	-34.5	-36.1	23.0	0.00e+00	0	38	0	2448424960	41	4136
2026-01-23 01:31:06.97	162.74	44.42	-34.5	-36.2	23.0	0.00e+00	0	38	0	2454716416	41	4156
2026-01-23 01:31:07.82	162.97	44.20	-34.5	-36.2	22.9	0.00e+00	0	38	0	2459959296	40	4415
2026-01-23 01:31:08.96	163.29	43.92	-34.7	-36.5	22.7	0.00e+00	0	38	0	2466250752	40	4546
2026-01-23 01:31:09.81	163.51	43.70	-34.7	-36.4	22.8	0.00e+00	0	38	0	2470445056	40	4530
2026-01-23 01:31:10.94	163.81	43.42	-34.6	-36.3	22.8	0.00e+00	0	38	0	2476736512	40	4490
2026-01-23 01:31:11.80	164.04	43.20	-34.7	-36.4	22.8	0.00e+00	0	38	0	2481979392	40	4513
2026-01-23 01:31:12.98	164.34	42.91	-34.5	-36.2	22.9	0.00e+00	0	38	0	2488270848	40	4428
2026-01-23 01:31:13.83	164.56	42.70	-34.5	-36.2	22.9	0.00e+00	0	38	0	2493513728	40	4411
2026-01-23 01:31:15.03	164.86	42.40	-34.5	-36.2	22.9	0.00e+00	0	38	0	2499805184	40	4418
2026-01-23 01:31:15.89	165.07	42.19	-34.5	-36.2	22.9	0.00e+00	0	38	0	2505048064	40	4406
2026-01-23 01:31:17.09	165.36	41.90	-34.5	-36.2	22.8	0.00e+00	0	38	0	2511339520	40	4441
2026-01-23 01:31:17.94	165.56	41.69	-34.5	-36.2	22.8	0.00e+00	0	38	0	2516582400	40	4416
2026-01-23 01:31:19.08	165.83	41.41	-34.3	-36.0	22.9	0.00e+00	0	38	0	2522873856	40	4327
2026-01-23 01:31:19.93	166.02	41.21	-34.3	-36.0	22.9	0.00e+00	0	38	0	2527068160	40	4333
2026-01-23 01:31:21.07	166.28	40.93	-34.2	-36.0	22.9	0.00e+00	0	38	0	2534408192	40	4296
2026-01-23 01:31:21.93	166.47	40.73	-34.2	-36.0	22.9	0.00e+00	0	38	0	2538602496	40	4305
2026-01-23 01:31:23.06	166.72	40.46	-34.2	-35.9	23.0	0.00e+00	0	38	0	2544893952	40	4256
2026-01-23 01:31:23.91	166.91	40.26	-34.2	-35.9	22.9	0.00e+00	0	38	0	2550136832	40	4285
2026-01-23 01:31:25.05	167.15	39.99	-34.4	-36.1	22.8	0.00e+00	0	38	0	2556428288	40	4366
2026-01-23 01:31:25.90	167.33	39.79	-34.3	-36.1	22.9	0.00e+00	0	38	0	2561671168	40	4354
2026-01-23 01:31:27.04	167.57	39.52	-34.3	-36.0	22.9	0.00e+00	0	38	0	2567962624	40	4327
2026-01-23 01:31:27.90	167.75	39.32	-34.3	-36.1	22.9	0.00e+00	0	38	0	2572156928	40	4344
2026-01-23 01:31:29.03	167.98	39.06	-34.3	-36.1	22.9	0.00e+00	0	38	0	2578448384	40	4347
2026-01-23 01:31:29.89	168.15	38.87	-34.3	-36.1	22.9	0.00e+00	0	38	0	2583691264	40	4362
2026-01-23 01:31:31.02	168.38	38.61	-34.4	-36.1	22.9	0.00e+00	0	38	0	2589982720	40	4387
2026-01-23 01:31:31.88	168.54	38.41	-34.2	-36.0	23.0	0.00e+00	0	38	0	2595225600	40	4304
2026-01-23 01:31:33.01	168.76	38.15	-34.0	-35.8	23.1	0.00e+00	0	38	0	2601517056	40	4194
2026-01-23 01:31:33.87	168.92	37.96	-34.0	-35.7	23.1	0.00e+00	0	38	0	2605711360	39	4438
2026-01-23 01:31:35.01	169.14	37.71	-33.9	-35.6	23.3	0.00e+00	0	38	0	2612002816	39	4365
2026-01-23 01:31:35.86	169.29	37.52	-33.9	-35.6	23.4	0.00e+00	0	38	0	2617245696	39	4354
2026-01-23 01:31:37.00	169.50	37.26	-33.8	-35.5	23.5	0.00e+00	0	38	0	2623537152	39	4299
2026-01-23 01:31:37.85	169.66	37.07	-33.7	-35.4	23.5	0.00e+00	0	38	0	2627731456	39	4286
2026-01-23 01:31:38.98	169.86	36.83	-33.8	-35.5	23.4	0.00e+00	0	38	0	2635071488	39	4303
2026-01-23 01:31:39.83	170.01	36.64	-33.9	-35.6	23.4	0.00e+00	0	38	0	2639265792	39	4342
2026-01-23 01:31:40.97	170.20	36.39	-33.9	-35.6	23.3	0.00e+00	0	38	0	2645557248	39	4379
2026-01-23 01:31:41.82	170.35	36.21	-34.0	-35.7	23.2	0.00e+00	0	38	0	2650800128	39	4430
2026-01-23 01:31:42.96	170.54	35.96	-34.1	-35.9	23.1	0.00e+00	0	38	0	2657091584	39	4499
2026-01-23 01:31:43.81	170.68	35.78	-34.1	-35.9	23.1	0.00e+00	0	38	0	2662334464	39	4495
2026-01-23 01:31:44.95	170.87	35.54	-34.2	-35.9	23.0	0.00e+00	0	38	0	2668625920	39	4533
2026-01-23 01:31:45.80	171.01	35.36	-34.2	-36.0	23.0	0.00e+00	0	38	0	2672820224	39	4546
2026-01-23 01:31:47.00	171.20	35.11	-34.2	-35.9	23.0	0.00e+00	0	38	0	2680160256	39	4538
2026-01-23 01:31:47.85	171.33	34.93	-34.2	-36.0	23.0	0.00e+00	0	38	0	2684354560	39	4557
2026-01-23 01:31:48.99	171.51	34.69	-34.2	-35.9	23.0	0.00e+00	0	38	0	2690646016	39	4544
2026-01-23 01:31:49.84	171.64	34.52	-34.3	-36.0	23.0	0.00e+00	0	38	0	2695888896	39	4584
2026-01-23 01:31:51.09	171.83	34.26	-34.4	-36.2	22.8	0.00e+00	0	38	0	2703228928	39	4668
2026-01-23 01:31:51.94	171.96	34.09	-34.4	-36.1	22.9	0.00e+00	0	38	0	2707423232	39	4631
2026-01-23 01:31:53.14	172.14	33.84	-34.4	-36.2	22.8	0.00e+00	0	38	0	2714763264	39	4655
2026-01-23 01:31:54.42	172.33	33.58	-34.5	-36.3	22.7	0.00e+00	0	38	0	2721054720	39	4728
2026-01-23 01:31:55.15	172.43	33.44	-34.6	-36.3	22.7	0.00e+00	0	38	0	2725249024	39	4737
2026-01-23 01:31:56.43	172.62	33.18	-34.4	-36.2	22.8	0.00e+00	0	38	0	2732589056	39	4669
2026-01-23 01:31:57.17	172.72	33.04	-34.5	-36.2	22.7	0.00e+00	0	38	0	2736783360	39	4680
2026-01-23 01:31:58.45	172.90	32.78	-34.5	-36.3	22.7	0.00e+00	0	38	0	2744123392	39	4716
2026-01-23 01:31:59.17	173.00	32.64	-34.4	-36.1	22.8	0.00e+00	0	38	0	2748317696	39	4642
2026-01-23 01:32:00.48	173.18	32.39	-34.5	-36.2	22.7	0.00e+00	0	38	0	2755657728	39	4677
2026-01-23 01:32:01.19	173.27	32.25	-34.5	-36.3	22.7	0.00e+00	0	38	0	2759852032	39	4709
2026-01-23 01:32:02.47	173.44	32.00	-34.5	-36.2	22.7	0.00e+00	0	38	0	2767192064	39	4691
2026-01-23 01:32:03.20	173.54	31.86	-34.6	-36.3	22.7	0.00e+00	0	38	0	2770337792	39	4739
2026-01-23 01:32:04.58	173.72	31.60	-34.7	-36.4	22.5	0.00e+00	0	38	0	2778726400	40	4539
2026-01-23 01:32:05.29	173.81	31.46	-34.7	-36.5	22.4	0.00e+00	0	38	0	2782920704	40	4566
2026-01-23 01:32:06.62	173.98	31.21	-34.7	-36.5	22.5	0.00e+00	0	38	0	2790260736	40	4590
2026-01-23 01:32:07.33	174.07	31.08	-34.8	-36.6	22.4	0.00e+00	0	38	0	2794455040	40	4635
2026-01-23 01:32:08.61	174.23	30.84	-35.0	-36.8	22.2	0.00e+00	0	38	0	2801795072	40	4708
2026-01-23 01:32:09.67	174.36	30.64	-34.8	-36.5	22.4	0.00e+00	0	38	0	2807037952	40	4596
2026-01-23 01:32:10.84	174.50	30.43	-34.8	-36.6	22.4	0.00e+00	0	38	0	2813329408	40	4608
2026-01-23 01:32:11.69	174.60	30.27	-34.7	-36.5	22.5	0.00e+00	0	38	0	2818572288	40	4589
2026-01-23 01:32:12.83	174.73	30.07	-34.8	-36.5	22.4	0.00e+00	0	38	0	2824863744	40	4598
2026-01-23 01:32:13.68	174.83	29.91	-34.7	-36.5	22.5	0.00e+00	0	38	0	2830106624	40	4576
2026-01-23 01:32:14.82	174.97	29.71	-34.7	-36.5	22.5	0.00e+00	0	38	0	2836398080	40	4566
2026-01-23 01:32:15.67	175.06	29.56	-34.7	-36.4	22.5	0.00e+00	0	38	0	2840592384	40	4528
2026-01-23 01:32:16.81	175.19	29.35	-34.6	-36.4	22.6	0.00e+00	0	38	0	2847932416	40	4522
2026-01-23 01:32:17.66	175.29	29.20	-34.7	-36.4	22.5	0.00e+00	0	38	0	2852126720	40	4531
2026-01-23 01:32:18.80	175.41	29.00	-34.7	-36.5	22.5	0.00e+00	0	38	0	2858418176	40	4548
2026-01-23 01:32:19.65	175.51	28.85	-34.7	-36.5	22.5	0.00e+00	0	38	0	2863661056	40	4557
2026-01-23 01:32:20.78	175.63	28.66	-34.8	-36.6	22.4	0.00e+00	0	38	0	2869952512	40	4603
2026-01-23 01:32:21.70	175.73	28.50	-34.7	-36.5	22.4	0.00e+00	0	38	0	2875195392	40	4572
2026-01-23 01:32:22.87	175.85	28.30	-34.8	-36.6	22.4	0.00e+00	0	38	0	2881486848	40	4605
2026-01-23 01:32:23.75	175.95	28.15	-34.7	-36.5	22.4	0.00e+00	0	38	0	2886729728	40	4575
2026-01-23 01:32:24.89	176.07	27.95	-34.7	-36.5	22.4	0.00e+00	0	38	0	2893021184	40	4575
2026-01-23 01:32:25.80	176.16	27.80	-34.7	-36.5	22.4	0.00e+00	0	38	0	2898264064	40	4581
2026-01-23 01:32:26.97	176.28	27.60	-34.7	-36.4	22.5	0.00e+00	0	38	0	2904555520	40	4541
2026-01-23 01:32:27.86	176.37	27.45	-34.7	-36.4	22.5	0.00e+00	0	38	0	2909798400	40	4541
2026-01-23 01:32:28.99	176.48	27.27	-34.5	-36.3	22.6	0.00e+00	0	38	0	2916089856	40	4469
2026-01-23 01:32:29.84	176.57	27.13	-34.6	-36.4	22.6	0.00e+00	0	38	0	2920284160	40	4507
2026-01-23 01:32:30.98	176.68	26.94	-34.5	-36.3	22.7	0.00e+00	0	38	0	2927624192	40	4454
2026-01-23 01:32:31.84	176.76	26.80	-34.6	-36.4	22.6	0.00e+00	0	38	0	2931818496	40	4495
2026-01-23 01:32:32.97	176.87	26.61	-34.7	-36.5	22.5	0.00e+00	0	38	0	2938109952	40	4556
2026-01-23 01:32:33.82	176.95	26.48	-34.6	-36.4	22.5	0.00e+00	0	38	0	2943352832	40	4516
2026-01-23 01:32:34.96	177.06	26.29	-34.7	-36.4	22.5	0.00e+00	0	38	0	2949644288	40	4531
2026-01-23 01:32:35.81	177.14	26.16	-34.7	-36.4	22.5	0.00e+00	0	38	0	2954887168	40	4536
2026-01-23 01:32:36.95	177.24	25.98	-34.7	-36.5	22.5	0.00e+00	0	38	0	2960130048	40	4564
2026-01-23 01:32:37.80	177.32	25.84	-34.8	-36.6	22.4	0.00e+00	0	38	0	2965372928	40	4615
2026-01-23 01:32:38.94	177.42	25.66	-34.8	-36.6	22.4	0.00e+00	0	38	0	2971664384	40	4609
2026-01-23 01:32:39.79	177.50	25.53	-34.9	-36.6	22.3	0.00e+00	0	38	0	2976907264	40	4650
2026-01-23 01:32:40.93	177.60	25.35	-34.9	-36.7	22.3	0.00e+00	0	38	0	2983198720	40	4674
2026-01-23 01:32:41.78	177.68	25.22	-34.9	-36.7	22.3	0.00e+00	0	38	0	2987393024	40	4661
2026-01-23 01:32:42.92	177.78	25.04	-35.0	-36.7	22.2	0.00e+00	0	38	0	2994733056	40	4700
2026-01-23 01:32:43.77	177.85	24.91	-35.0	-36.7	22.2	0.00e+00	0	38	0	2998927360	40	4692
2026-01-23 01:32:45.14	177.97	24.71	-34.9	-36.7	22.3	0.00e+00	0	38	0	3006267392	40	4666
2026-01-23 01:32:45.85	178.03	24.60	-34.9	-36.7	22.3	0.00e+00	0	38	0	3010461696	40	4672
2026-01-23 01:32:47.13	178.13	24.41	-34.9	-36.7	22.3	0.00e+00	0	38	0	3017801728	40	4663
2026-01-23 01:32:47.86	178.20	24.30	-35.0	-36.7	22.2	0.00e+00	0	38	0	3021996032	40	4695
2026-01-23 01:32:49.14	178.30	24.11	-34.9	-36.7	22.3	0.00e+00	0	38	0	3029336064	40	4677
2026-01-23 01:32:49.85	178.36	24.00	-35.0	-36.7	22.2	0.00e+00	0	38	0	3033530368	40	4694
2026-01-23 01:32:51.13	178.46	23.81	-35.0	-36.7	22.3	0.00e+00	0	38	0	3040870400	40	4692
2026-01-23 01:32:52.04	178.54	23.68	-35.0	-36.8	22.2	0.00e+00	0	38	0	3045064704	40	4724
2026-01-23 01:32:53.04	178.62	23.53	-35.1	-36.9	22.1	0.00e+00	0	38	0	3051356160	40	4771
2026-01-23 01:32:54.03	178.69	23.39	-35.2	-37.0	22.1	0.00e+00	0	38	0	3056599040	40	4827
2026-01-23 01:32:55.03	178.77	23.24	-35.1	-36.9	22.1	0.00e+00	0	38	0	3062890496	40	4793
2026-01-23 01:32:56.02	178.85	23.10	-35.1	-36.9	22.1	0.00e+00	0	38	0	3068133376	40	4800
2026-01-23 01:32:57.02	178.93	22.96	-35.2	-37.0	22.1	0.00e+00	0	38	0	3073376256	41	4568
2026-01-23 01:32:58.01	179.00	22.82	-35.3	-37.1	22.0	0.00e+00	0	38	0	3079667712	41	4645
2026-01-23 01:32:59.01	179.08	22.68	-35.3	-37.1	21.9	0.00e+00	0	38	0	3084910592	41	4643
2026-01-23 01:33:00.00	179.15	22.54	-35.3	-37.1	22.0	0.00e+00	0	38	0	3090153472	41	4629
2026-01-23 01:33:01.00	179.22	22.40	-35.3	-37.1	21.9	0.00e+00	0	38	0	3095396352	41	4649
2026-01-23 01:33:01.99	179.30	22.26	-35.4	-37.2	21.8	0.00e+00	0	38	0	3101687808	41	4701
2026-01-23 01:33:02.99	179.37	22.12	-35.4	-37.2	21.9	0.00e+00	0	38	0	3106930688	41	4676
2026-01-23 01:33:03.98	179.44	21.99	-35.4	-37.3	21.8	0.00e+00	0	38	0	3113222144	41	4707
2026-01-23 01:33:04.97	179.51	21.85	-35.5	-37.3	21.8	0.00e+00	0	38	0	3118465024	41	4725
2026-01-23 01:33:05.97	179.58	21.71	-35.5	-37.3	21.8	0.00e+00	0	38	0	3123707904	41	4718
2026-01-23 01:33:06.96	179.65	21.58	-35.6	-37.4	21.7	0.00e+00	0	38	0	3129999360	41	4798
2026-01-23 01:33:07.96	179.72	21.44	-35.5	-37.4	21.7	0.00e+00	0	38	0	3135242240	41	4771
2026-01-23 01:33:08.95	179.79	21.31	-35.6	-37.4	21.7	0.00e+00	0	38	0	3140485120	41	4809
2026-01-23 01:33:09.95	179.86	21.18	-35.6	-37.4	21.7	0.00e+00	0	38	0	3145728000	41	4811
2026-01-23 01:33:10.94	179.93	21.05	-35.7	-37.5	21.6	0.00e+00	0	38	0	3152019456	41	4840
2026-01-23 01:33:12.02	180.00	20.90	-35.7	-37.6	21.6	0.00e+00	0	38	0	3158310912	42	4609
2026-01-23 01:33:12.87	180.06	20.79	-35.8	-37.7	21.5	0.00e+00	0	38	0	3162505216	42	4652
2026-01-23 01:33:14.00	180.14	20.64	-35.8	-37.6	21.6	0.00e+00	0	38	0	3168796672	42	4630
2026-01-23 01:33:14.86	180.19	20.53	-35.8	-37.7	21.5	0.00e+00	0	38	0	3174039552	42	4665
2026-01-23 01:33:15.99	180.27	20.38	-35.9	-37.7	21.5	0.00e+00	0	38	0	3180331008	42	4683
2026-01-23 01:33:16.85	180.32	20.27	-35.9	-37.8	21.4	0.00e+00	0	38	0	3185573888	42	4716
2026-01-23 01:33:17.98	180.40	20.13	-35.9	-37.7	21.5	0.00e+00	0	38	0	3191865344	42	4697
2026-01-23 01:33:18.84	180.45	20.02	-35.9	-37.8	21.4	0.00e+00	0	38	0	3196059648	42	4718
2026-01-23 01:33:19.97	180.52	19.87	-36.0	-37.9	21.3	0.00e+00	0	38	0	3202351104	42	4765
2026-01-23 01:33:20.82	180.58	19.77	-36.0	-37.8	21.4	0.00e+00	0	38	0	3207593984	42	4734
2026-01-23 01:33:21.96	180.65	19.62	-36.0	-37.8	21.3	0.00e+00	0	38	0	3213885440	42	4758
2026-01-23 01:33:22.81	180.70	19.52	-36.0	-37.9	21.3	0.00e+00	0	38	0	3219128320	42	4764
2026-01-23 01:33:24.01	180.77	19.37	-36.1	-37.9	21.3	0.00e+00	0	38	0	3225419776	42	4802
2026-01-23 01:33:24.87	180.83	19.26	-36.2	-38.0	21.2	0.00e+00	0	38	0	3230662656	42	4837
2026-01-23 01:33:26.08	180.90	19.11	-36.1	-37.9	21.3	0.00e+00	0	38	0	3236954112	42	4799
2026-01-23 01:33:26.94	180.95	19.01	-36.1	-38.0	21.3	0.00e+00	0	38	0	3242196992	42	4821
2026-01-23 01:33:28.07	181.02	18.87	-36.2	-38.1	21.2	0.00e+00	0	38	0	3248488448	43	4599
2026-01-23 01:33:28.93	181.07	18.76	-36.3	-38.1	21.1	0.00e+00	0	38	0	3252682752	43	4644
2026-01-23 01:33:30.06	181.14	18.63	-36.3	-38.2	21.1	0.00e+00	0	38	0	3260022784	43	4657
2026-01-23 01:33:30.92	181.19	18.52	-36.4	-38.2	21.1	0.00e+00	0	38	0	3264217088	43	4676
2026-01-23 01:33:32.05	181.25	18.39	-36.4	-38.3	21.0	0.00e+00	0	38	0	3270508544	43	4717
2026-01-23 01:33:32.90	181.30	18.28	-36.3	-38.1	21.1	0.00e+00	0	38	0	3275751424	43	4642
2026-01-23 01:33:34.04	181.37	18.15	-36.3	-38.2	21.1	0.00e+00	0	38	0	3282042880	43	4663
2026-01-23 01:33:34.89	181.41	18.05	-36.4	-38.2	21.0	0.00e+00	0	38	0	3286237184	43	4688
2026-01-23 01:33:36.03	181.48	17.91	-36.4	-38.3	21.0	0.00e+00	0	38	0	3293577216	43	4716
2026-01-23 01:33:36.88	181.53	17.81	-36.4	-38.2	21.0	0.00e+00	0	38	0	3297771520	43	4692
2026-01-23 01:33:38.02	181.59	17.68	-36.5	-38.4	20.9	0.00e+00	0	38	0	3304062976	43	4770
2026-01-23 01:33:38.87	181.64	17.58	-36.6	-38.4	20.9	0.00e+00	0	38	0	3309305856	43	4793
2026-01-23 01:33:40.01	181.70	17.45	-36.5	-38.3	21.0	0.00e+00	0	38	0	3315597312	43	4739
2026-01-23 01:33:40.86	181.74	17.35	-36.5	-38.3	21.0	0.00e+00	0	38	0	3320840192	43	4731
2026-01-23 01:33:42.10	181.81	17.21	-36.6	-38.4	20.9	0.00e+00	0	38	0	3327131648	43	4792
2026-01-23 01:33:42.96	181.86	17.11	-36.5	-38.4	20.9	0.00e+00	0	38	0	3332374528	43	4783
2026-01-23 01:33:44.09	181.92	16.98	-36.6	-38.4	20.9	0.00e+00	0	38	0	3338665984	43	4808
2026-01-23 01:33:44.94	181.96	16.89	-36.6	-38.4	20.8	0.00e+00	0	38	0	3342860288	43	4812
2026-01-23 01:33:46.08	182.02	16.76	-36.6	-38.4	20.9	0.00e+00	0	38	0	3349151744	43	4809
2026-01-23 01:33:46.94	182.07	16.66	-36.6	-38.5	20.8	0.00e+00	0	38	0	3354394624	43	4844
2026-01-23 01:33:48.07	182.12	16.53	-36.9	-38.7	20.7	0.00e+00	0	38	0	3360686080	44	4705
2026-01-23 01:33:49.02	182.17	16.43	-36.9	-38.8	20.6	0.00e+00	0	38	0	3365928960	44	4748
2026-01-23 01:33:50.02	182.22	16.32	-36.9	-38.8	20.7	0.00e+00	0	38	0	3372220416	44	4723
2026-01-23 01:33:51.01	182.27	16.21	-37.0	-38.9	20.6	0.00e+00	0	38	0	3377463296	44	4779
2026-01-23 01:33:52.01	182.32	16.10	-37.0	-38.9	20.5	0.00e+00	0	38	0	3382706176	44	4812
2026-01-23 01:33:53.00	182.37	15.99	-37.1	-39.0	20.5	0.00e+00	0	38	0	3388997632	44	4868
2026-01-23 01:33:54.00	182.42	15.88	-37.3	-39.2	20.3	0.00e+00	0	38	0	3394240512	45	4682
2026-01-23 01:33:54.99	182.47	15.78	-37.3	-39.2	20.3	0.00e+00	0	38	0	3399483392	45	4686
2026-01-23 01:33:55.98	182.52	15.67	-37.3	-39.3	20.3	0.00e+00	0	38	0	3405774848	45	4724
2026-01-23 01:33:56.98	182.57	15.56	-37.2	-39.1	20.4	0.00e+00	0	38	0	3411017728	45	4641
2026-01-23 01:33:57.98	182.62	15.45	-37.2	-39.2	20.3	0.00e+00	0	38	0	3416260608	45	4668
2026-01-23 01:33:58.97	182.66	15.35	-37.3	-39.3	20.2	0.00e+00	0	38	0	3422552064	45	4723
2026-01-23 01:33:59.97	182.71	15.24	-37.3	-39.2	18.3	0.00e+00	0	38	0	3427794944	45	4700
2026-01-23 01:34:00.96	182.76	15.14	-37.3	-39.3	20.2	0.00e+00	0	38	0	3433037824	45	4722
2026-01-23 01:34:01.95	182.81	15.03	-37.4	-39.4	20.1	0.00e+00	0	38	0	3438280704	45	4776
2026-01-23 01:34:02.94	182.85	14.93	-37.4	-39.4	20.1	0.00e+00	0	38	0	3444572160	45	4788
2026-01-23 01:34:03.94	182.90	14.83	-37.5	-39.4	20.1	0.00e+00	0	38	0	3449815040	45	4807
2026-01-23 01:34:04.93	182.94	14.72	-37.5	-39.5	20.0	0.00e+00	0	38	0	3456106496	45	4816
2026-01-23 01:34:05.93	182.99	14.62	-37.6	-39.5	20.0	0.00e+00	0	38	0	3461349376	45	4868
2026-01-23 01:34:06.93	183.04	14.52	-37.5	-39.5	20.0	0.00e+00	0	38	0	3466592256	45	4825
2026-01-23 01:34:07.92	183.08	14.41	-37.6	-39.5	20.0	0.00e+00	0	38	0	3472883712	45	4848
2026-01-23 01:34:08.91	183.12	14.31	-37.6	-39.5	20.0	0.00e+00	0	38	0	3478126592	45	4856
2026-01-23 01:34:09.91	183.17	14.21	-37.6	-39.6	19.9	0.00e+00	0	38	0	3483369472	45	4891
2026-01-23 01:34:10.90	183.21	14.11	-37.7	-39.7	19.9	0.00e+00	0	38	0	3488612352	46	4652
2026-01-23 01:34:11.90	183.26	14.01	-37.7	-39.7	19.9	0.00e+00	0	38	0	3494903808	46	4662
2026-01-23 01:34:12.96	183.30	13.90	-37.7	-39.7	19.8	0.00e+00	0	38	0	3501195264	46	4667
2026-01-23 01:34:13.87	183.34	13.81	-37.8	-39.8	19.8	0.00e+00	0	38	0	3506438144	46	4731
2026-01-23 01:34:14.88	183.39	13.71	-37.8	-39.8	19.8	0.00e+00	0	38	0	3511681024	46	4715
2026-01-23 01:34:15.88	183.43	13.61	-37.7	-39.6	19.9	0.00e+00	0	38	0	3516923904	46	4644
2026-01-23 01:34:16.87	183.47	13.51	-37.8	-39.8	19.7	0.00e+00	0	38	0	3523215360	46	4733
2026-01-23 01:34:17.86	183.51	13.42	-37.7	-39.7	19.8	0.00e+00	0	38	0	3528458240	46	4663
2026-01-23 01:34:18.86	183.56	13.32	-37.7	-39.7	19.8	0.00e+00	0	38	0	3533701120	46	4683
2026-01-23 01:34:19.85	183.60	13.22	-37.8	-39.8	19.8	0.00e+00	0	38	0	3539992576	46	4709
2026-01-23 01:34:20.85	183.64	13.12	-37.7	-39.7	19.8	0.00e+00	0	38	0	3545235456	46	4678
2026-01-23 01:34:21.84	183.68	13.03	-37.8	-39.7	19.8	0.00e+00	0	38	0	3550478336	46	4701
2026-01-23 01:34:22.84	183.72	12.93	-37.8	-39.7	19.8	0.00e+00	0	38	0	3556769792	46	4692
2026-01-23 01:34:23.83	183.76	12.84	-37.8	-39.7	19.8	0.00e+00	0	38	0	3562012672	46	4667
2026-01-23 01:34:24.82	183.80	12.74	-37.8	-39.8	19.7	0.00e+00	0	38	0	3567255552	46	4727
2026-01-23 01:34:25.87	183.84	12.64	-37.8	-39.8	18.1	0.00e+00	0	38	0	3573547008	46	4710
2026-01-23 01:34:26.89	183.89	12.54	-37.9	-39.9	19.7	0.00e+00	0	38	0	3578789888	46	4762
2026-01-23 01:34:27.92	183.93	12.44	-37.9	-39.8	19.7	0.00e+00	0	38	0	3585081344	46	4738
2026-01-23 01:34:29.01	183.97	12.34	-37.9	-39.8	19.7	0.00e+00	0	38	0	3591372800	46	4734
2026-01-23 01:34:29.86	184.00	12.26	-37.9	-39.8	19.7	0.00e+00	0	38	0	3595567104	46	4747
2026-01-23 01:34:31.00	184.05	12.15	-37.8	-39.8	19.8	0.00e+00	0	38	0	3601858560	46	4711
2026-01-23 01:34:31.85	184.08	12.08	-37.9	-39.8	19.7	0.00e+00	0	38	0	3607101440	46	4746
2026-01-23 01:34:32.99	184.13	11.97	-37.9	-39.8	19.7	0.00e+00	0	38	0	3613392896	46	4738
2026-01-23 01:34:33.84	184.16	11.89	-37.9	-39.9	19.7	0.00e+00	0	38	0	3618635776	46	4765
2026-01-23 01:34:34.97	184.20	11.79	-38.0	-40.0	19.5	0.00e+00	0	38	0	3624927232	46	4832
2026-01-23 01:34:35.82	184.23	11.71	-38.0	-39.9	19.6	0.00e+00	0	38	0	3629121536	46	4788
2026-01-23 01:34:36.96	184.28	11.60	-38.0	-40.0	19.5	0.00e+00	0	38	0	3635412992	46	4831
2026-01-23 01:34:37.81	184.31	11.53	-38.1	-40.0	19.6	0.00e+00	0	38	0	3640655872	46	4846
2026-01-23 01:34:39.01	184.35	11.42	-38.0	-40.0	19.6	0.00e+00	0	38	0	3646947328	46	4833
