passes_logs/2026/01/23/T1/T1__20260123_023614_AQUA_rec.log

#Pass ID: 20260123_023614_AQUA
#Satellite: AQUA
#Configuration: AQUA
#almurnet v.1.7.20251203
#Start time: 2026-01-23 02:36:16

#Version: 2.0.20230620
#Station: T1
#Location: 37.570604 lon 55.790049 lat
#TLE: 1 27424U 02022A   26022.49486490  .00002153  00000+0  44069-3 0  9997
#TLE: 2 27424  98.4099 349.0485 0001970  69.5876  43.4746 14.61847233261984

#Time	Az	El	Level	Level2	SNR	BER	BlckErr	Temp	State	Recorded	gain1	gain2
2026-01-23 02:36:16.57	5.49	5.18	-46.7	-70.2	3.8	7.43e-01	0	37	0	0	65	52446
2026-01-23 02:36:17.56	5.41	5.25	-46.6	-70.2	3.8	7.43e-01	0	37	104	0	64	55663
2026-01-23 02:36:18.55	5.34	5.32	-46.6	-70.3	3.8	7.46e-01	0	37	104	0	64	56267
2026-01-23 02:36:19.54	5.26	5.38	-46.6	-70.3	3.8	7.46e-01	0	37	104	0	64	56485
2026-01-23 02:36:20.54	5.18	5.45	-46.6	-70.4	3.8	7.45e-01	0	37	104	0	64	57061
2026-01-23 02:36:21.53	5.11	5.52	-46.6	-70.5	3.8	7.46e-01	0	37	104	0	64	57615
2026-01-23 02:36:22.52	5.03	5.59	-46.6	-70.5	3.8	7.49e-01	0	37	104	0	64	57813
2026-01-23 02:36:23.52	4.95	5.65	-46.6	-70.6	3.8	7.47e-01	0	37	104	0	64	57935
2026-01-23 02:36:24.51	4.87	5.72	-46.6	-70.6	3.8	7.41e-01	0	37	104	0	64	58060
2026-01-23 02:36:25.51	4.80	5.79	-46.6	-70.5	3.8	7.45e-01	0	37	104	0	64	57881
2026-01-23 02:36:26.50	4.72	5.86	-46.6	-70.5	3.8	7.48e-01	0	37	104	0	64	57600
2026-01-23 02:36:27.49	4.64	5.93	-46.6	-70.5	3.8	7.47e-01	0	37	104	0	64	57373
2026-01-23 02:36:28.48	4.56	6.00	-46.6	-70.5	3.8	7.49e-01	0	37	104	0	64	57253
2026-01-23 02:36:29.48	4.48	6.07	-46.6	-70.4	3.8	7.42e-01	0	37	104	0	64	57026
2026-01-23 02:36:30.47	4.40	6.13	-46.6	-70.4	3.8	7.44e-01	0	37	104	0	64	56989
2026-01-23 02:36:31.47	4.32	6.20	-46.6	-70.4	3.8	7.49e-01	0	37	104	0	64	56694
2026-01-23 02:36:32.46	4.24	6.27	-46.6	-70.4	3.8	7.46e-01	0	37	104	0	64	56596
2026-01-23 02:36:33.45	4.16	6.34	-46.6	-70.4	3.8	7.45e-01	0	37	104	0	64	56754
2026-01-23 02:36:34.45	4.07	6.41	-46.6	-70.4	3.8	7.45e-01	0	37	104	0	64	57170
2026-01-23 02:36:35.44	3.99	6.48	-46.5	-70.5	3.8	7.48e-01	0	37	104	0	64	57405
2026-01-23 02:36:36.43	3.91	6.55	-46.6	-70.5	3.8	7.48e-01	0	37	104	0	64	57841
2026-01-23 02:36:37.43	3.82	6.62	-46.6	-70.6	3.8	7.46e-01	0	37	104	0	64	57942
2026-01-23 02:36:38.42	3.74	6.69	-46.6	-70.5	3.8	7.45e-01	0	37	104	0	64	57745
2026-01-23 02:36:39.41	3.66	6.76	-46.6	-70.5	3.8	7.47e-01	0	37	104	0	64	57313
2026-01-23 02:36:40.41	3.57	6.83	-46.6	-70.4	3.8	7.45e-01	0	37	104	0	64	56901
2026-01-23 02:36:41.40	3.49	6.91	-46.5	-70.3	3.8	7.46e-01	0	37	104	0	64	56247
2026-01-23 02:36:42.39	3.40	6.98	-46.5	-70.2	3.8	7.44e-01	0	37	104	0	64	55753
2026-01-23 02:36:43.39	3.31	7.05	-46.5	-70.2	3.8	7.46e-01	0	37	104	0	64	55290
2026-01-23 02:36:44.38	3.23	7.12	-46.5	-70.1	3.8	7.48e-01	0	37	104	0	64	54971
2026-01-23 02:36:45.37	3.14	7.19	-46.6	-70.1	3.8	7.46e-01	0	37	104	0	64	54699
2026-01-23 02:36:46.37	3.05	7.26	-46.5	-70.0	3.8	7.46e-01	0	37	104	0	64	54496
2026-01-23 02:36:47.36	2.96	7.33	-46.5	-69.8	3.8	7.42e-01	0	37	104	0	64	53341
2026-01-23 02:36:48.35	2.88	7.41	-46.5	-69.4	3.8	7.43e-01	0	37	104	0	64	50465
2026-01-23 02:36:49.35	2.79	7.48	-46.5	-68.6	3.8	7.43e-01	0	37	104	0	64	46107
2026-01-23 02:36:50.34	2.70	7.55	-46.5	-67.6	4.1	7.41e-01	0	38	104	0	64	41072
2026-01-23 02:36:51.33	2.61	7.62	-46.5	-66.3	4.5	7.27e-01	0	37	104	0	64	35686
2026-01-23 02:36:52.33	2.51	7.70	-46.5	-66.3	4.0	7.41e-01	0	38	104	0	64	35382
2026-01-23 02:36:53.32	2.42	7.77	-46.5	-66.0	4.0	7.36e-01	0	37	104	0	64	34465
2026-01-23 02:36:54.31	2.33	7.84	-46.5	-66.4	4.0	7.37e-01	0	37	104	0	64	35999
2026-01-23 02:36:55.31	2.24	7.91	-46.5	-66.7	4.4	7.28e-01	0	38	104	0	64	37230
2026-01-23 02:36:56.30	2.15	7.99	-46.5	-67.9	4.0	7.40e-01	0	38	104	0	64	42705
2026-01-23 02:36:57.29	2.05	8.06	-46.5	-69.3	3.8	7.46e-01	0	38	104	0	64	50111
2026-01-23 02:36:58.29	1.96	8.13	-46.5	-69.8	3.8	7.49e-01	0	38	104	0	64	52858
2026-01-23 02:36:59.28	1.87	8.21	-46.5	-69.1	3.8	7.44e-01	0	38	104	0	64	48840
2026-01-23 02:37:00.27	1.77	8.28	-46.5	-66.5	4.5	7.27e-01	0	38	104	0	64	36298
2026-01-23 02:37:01.27	1.67	8.36	-46.4	-63.3	6.2	6.80e-01	0	38	0	0	64	25260
2026-01-23 02:37:02.26	1.58	8.43	-46.3	-60.1	9.4	6.28e-01	0	37	0	2097152	64	17306
2026-01-23 02:37:03.25	1.48	8.50	-46.1	-57.1	12.4	6.06e-01	0	37	0	3670016	64	12261
2026-01-23 02:37:04.25	1.38	8.58	-45.7	-54.7	15.0	6.03e-01	0	38	0	5767168	63	9831
2026-01-23 02:37:05.24	1.29	8.65	-45.3	-52.7	17.0	6.05e-01	0	37	0	7340032	62	8310
2026-01-23 02:37:06.23	1.19	8.73	-44.8	-51.1	18.6	6.05e-01	0	38	0	9437184	61	7327
2026-01-23 02:37:07.23	1.09	8.80	-44.4	-50.0	19.6	6.03e-01	0	37	0	11534336	60	6866
2026-01-23 02:37:08.22	0.99	8.88	-44.1	-49.4	20.3	6.06e-01	0	38	0	13107200	60	6358
2026-01-23 02:37:09.21	0.89	8.95	-44.0	-49.2	20.5	6.04e-01	0	38	0	15204352	60	6205
2026-01-23 02:37:10.21	0.79	9.03	-44.3	-49.6	20.3	6.07e-01	0	38	0	16777216	59	6886
2026-01-23 02:37:11.51	0.66	9.13	-46.3	-55.5	14.8	6.04e-01	0	38	0	19398656	63	10873
2026-01-23 02:37:12.27	0.58	9.19	-46.2	-55.0	13.8	6.06e-01	0	38	0	20971520	64	9674
2026-01-23 02:37:13.55	0.45	9.29	-42.8	-46.2	23.5	6.05e-01	0	38	0	23068672	57	5241
2026-01-23 02:37:14.31	0.37	9.35	-42.9	-46.3	23.4	6.02e-01	0	38	0	24641536	57	5314
2026-01-23 02:37:15.59	0.23	9.44	-43.1	-46.8	22.8	6.03e-01	0	38	0	26738688	58	5293
2026-01-23 02:37:16.30	0.16	9.50	-42.8	-46.1	23.6	6.06e-01	0	38	0	28311552	57	5187
2026-01-23 02:37:17.58	0.02	9.60	-42.9	-46.1	23.6	6.04e-01	0	38	0	30932992	57	5162
2026-01-23 02:37:18.29	359.95	9.65	-42.9	-46.0	23.7	6.07e-01	0	38	0	31981568	57	5139
2026-01-23 02:37:19.57	359.81	9.75	-43.0	-46.1	23.7	6.03e-01	0	38	0	34603008	57	5163
2026-01-23 02:37:20.28	359.74	9.81	-43.0	-46.0	23.6	6.03e-01	0	38	0	35651584	57	5144
2026-01-23 02:37:21.56	359.60	9.91	-42.9	-45.9	23.8	6.05e-01	0	38	0	38273024	57	5074
2026-01-23 02:37:22.27	359.52	9.96	-42.9	-45.9	23.9	6.04e-01	0	38	0	39321600	57	5052
2026-01-23 02:37:23.66	359.37	10.07	-42.9	-45.8	23.9	6.06e-01	0	38	0	41943040	57	5008
2026-01-23 02:37:24.37	359.29	10.13	-42.9	-45.8	23.9	6.05e-01	0	38	0	43515904	57	4993
2026-01-23 02:37:25.65	359.15	10.23	-42.9	-45.7	24.0	6.03e-01	0	38	0	45613056	57	4977
2026-01-23 02:37:26.39	359.07	10.29	-42.8	-45.7	24.0	6.01e-01	0	38	0	47185920	57	4938
2026-01-23 02:37:27.67	358.92	10.39	-42.9	-45.8	23.9	6.04e-01	0	38	0	49807360	57	5004
2026-01-23 02:37:28.38	358.84	10.45	-42.8	-45.7	24.0	6.07e-01	0	38	0	50855936	57	4950
2026-01-23 02:37:29.66	358.70	10.55	-42.8	-45.8	23.8	6.04e-01	0	38	0	53477376	57	5005
2026-01-23 02:37:30.38	358.61	10.61	-42.9	-45.9	23.8	6.02e-01	0	38	0	54525952	57	5042
2026-01-23 02:37:31.66	358.47	10.71	-42.8	-45.8	23.9	6.08e-01	0	38	0	57147392	57	5020
2026-01-23 02:37:32.47	358.37	10.77	-42.7	-45.7	23.9	6.01e-01	0	38	0	58720256	57	4980
2026-01-23 02:37:33.60	358.24	10.86	-42.7	-45.7	24.0	6.02e-01	0	38	0	60817408	57	4951
2026-01-23 02:37:34.45	358.14	10.93	-42.6	-45.6	24.0	6.05e-01	0	38	0	62390272	57	4907
2026-01-23 02:37:35.59	358.01	11.02	-42.5	-45.6	24.0	6.04e-01	0	38	0	64487424	57	4897
2026-01-23 02:37:36.44	357.91	11.09	-42.5	-45.6	24.1	6.06e-01	0	38	0	66060288	57	4906
2026-01-23 02:37:37.58	357.77	11.19	-42.4	-45.5	24.3	6.03e-01	0	38	0	68157440	56	5111
2026-01-23 02:37:38.43	357.67	11.25	-42.3	-45.4	24.2	6.02e-01	0	38	0	69730304	56	5099
2026-01-23 02:37:39.58	357.53	11.35	-42.2	-45.4	24.4	6.02e-01	0	38	0	71827456	56	5059
2026-01-23 02:37:40.43	357.43	11.42	-42.3	-45.4	24.3	6.02e-01	0	38	0	73400320	56	5086
2026-01-23 02:37:41.64	357.28	11.52	-42.3	-45.6	24.2	6.03e-01	0	38	0	76021760	56	5162
2026-01-23 02:37:42.49	357.17	11.59	-42.3	-45.6	24.2	6.03e-01	0	38	0	77594624	56	5174
2026-01-23 02:37:43.71	357.02	11.69	-42.3	-45.5	24.3	6.05e-01	0	38	0	79691776	56	5125
2026-01-23 02:37:44.56	356.92	11.76	-42.3	-45.6	24.1	6.02e-01	0	38	0	81264640	56	5204
2026-01-23 02:37:45.70	356.77	11.85	-42.2	-45.5	24.2	6.08e-01	0	38	0	83361792	56	5153
2026-01-23 02:37:46.55	356.67	11.92	-42.2	-45.5	24.3	6.07e-01	0	38	0	84934656	56	5106
2026-01-23 02:37:47.69	356.52	12.02	-42.1	-45.5	24.3	6.05e-01	0	38	0	87031808	56	5149
2026-01-23 02:37:48.54	356.41	12.09	-42.2	-45.5	24.3	6.04e-01	0	38	0	88604672	56	5141
2026-01-23 02:37:49.68	356.27	12.18	-42.2	-45.6	24.3	6.05e-01	0	38	0	90701824	56	5171
2026-01-23 02:37:50.63	356.14	12.26	-42.0	-45.4	24.4	6.02e-01	0	38	0	92798976	56	5067
2026-01-23 02:37:51.63	356.01	12.34	-41.8	-45.2	24.5	6.05e-01	0	38	0	94371840	55	5242
2026-01-23 02:37:52.83	355.85	12.45	-41.9	-45.3	24.4	6.03e-01	0	38	0	96993280	55	5282
2026-01-23 02:37:53.72	355.74	12.52	-42.0	-45.3	24.3	6.10e-01	0	38	0	98566144	55	5315
2026-01-23 02:37:54.83	355.59	12.61	-41.8	-45.1	24.6	6.04e-01	0	38	0	100663296	55	5204
2026-01-23 02:37:55.68	355.48	12.69	-41.8	-45.1	24.6	6.03e-01	0	38	0	102236160	55	5203
2026-01-23 02:37:56.82	355.32	12.78	-41.8	-45.1	24.7	6.04e-01	0	38	0	104333312	55	5160
2026-01-23 02:37:57.67	355.21	12.85	-41.8	-45.0	24.6	6.04e-01	0	38	0	105906176	55	5148
2026-01-23 02:37:58.81	355.05	12.95	-41.9	-45.0	24.5	6.05e-01	0	38	0	108003328	55	5148
2026-01-23 02:37:59.67	354.93	13.02	-42.1	-44.9	24.7	6.00e-01	0	38	0	109576192	55	5080
2026-01-23 02:38:00.80	354.78	13.12	-42.2	-45.0	24.7	6.05e-01	0	38	0	111673344	55	5105
2026-01-23 02:38:01.65	354.66	13.19	-42.1	-44.9	24.7	6.05e-01	0	38	0	113246208	55	5087
2026-01-23 02:38:02.79	354.50	13.29	-42.3	-44.9	24.8	6.03e-01	0	38	0	115343360	55	5071
2026-01-23 02:38:03.64	354.38	13.36	-42.4	-44.9	24.7	6.06e-01	0	38	0	116916224	55	5089
2026-01-23 02:38:04.78	354.22	13.46	-42.4	-45.0	24.7	6.02e-01	0	38	0	119013376	55	5111
2026-01-23 02:38:05.63	354.10	13.53	-42.3	-44.9	24.8	6.05e-01	0	38	0	120586240	55	5083
2026-01-23 02:38:06.86	353.92	13.64	-42.4	-45.0	24.8	6.04e-01	0	38	0	123207680	55	5110
2026-01-23 02:38:07.72	353.80	13.72	-42.3	-44.9	24.8	6.04e-01	0	38	0	124780544	55	5089
2026-01-23 02:38:08.88	353.63	13.82	-42.2	-44.8	24.9	6.04e-01	0	38	0	126877696	55	5034
2026-01-23 02:38:09.74	353.50	13.89	-42.2	-44.8	24.8	6.05e-01	0	38	0	128450560	55	5035
2026-01-23 02:38:10.92	353.33	13.99	-42.2	-44.8	24.9	6.02e-01	0	38	0	130547712	55	4993
2026-01-23 02:38:11.77	353.21	14.07	-42.2	-44.7	25.0	6.04e-01	0	38	0	132120576	55	4975
2026-01-23 02:38:12.91	353.04	14.17	-42.3	-44.8	25.0	6.05e-01	0	38	0	134217728	55	4985
2026-01-23 02:38:13.76	352.91	14.24	-42.3	-44.8	24.9	6.03e-01	0	38	0	135790592	55	4997
2026-01-23 02:38:15.09	352.71	14.36	-42.4	-44.9	24.9	6.05e-01	0	38	0	138412032	55	5042
2026-01-23 02:38:15.80	352.60	14.42	-42.3	-44.9	24.9	6.05e-01	0	38	0	139984896	55	5077
2026-01-23 02:38:17.08	352.40	14.53	-42.2	-44.9	24.9	6.05e-01	0	38	0	142082048	55	5043
2026-01-23 02:38:17.79	352.29	14.60	-42.1	-44.8	24.8	6.03e-01	0	38	0	143654912	55	5021
2026-01-23 02:38:19.07	352.09	14.71	-42.0	-44.8	24.9	6.03e-01	0	38	0	145752064	55	5020
2026-01-23 02:38:19.80	351.98	14.77	-42.1	-44.8	24.9	6.05e-01	0	38	0	147324928	55	5018
2026-01-23 02:38:21.07	351.78	14.89	-42.0	-44.7	25.0	6.05e-01	0	38	0	149946368	55	4975
2026-01-23 02:38:21.80	351.67	14.95	-42.0	-44.7	25.0	6.04e-01	0	38	0	150994944	55	4951
2026-01-23 02:38:23.08	351.46	15.06	-42.0	-44.5	25.2	6.03e-01	0	38	0	153616384	55	4870
2026-01-23 02:38:23.79	351.35	15.13	-42.0	-44.5	25.1	6.01e-01	0	38	0	154664960	55	4867
2026-01-23 02:38:25.07	351.14	15.24	-42.0	-44.5	25.2	6.04e-01	0	38	0	157286400	55	4866
2026-01-23 02:38:25.78	351.03	15.30	-42.0	-44.5	25.2	6.01e-01	0	38	0	158859264	55	4844
2026-01-23 02:38:27.11	350.81	15.42	-42.1	-44.5	25.2	6.05e-01	0	38	0	160956416	55	4860
2026-01-23 02:38:27.82	350.69	15.49	-42.0	-44.5	25.2	6.04e-01	0	38	0	162529280	55	4834
2026-01-23 02:38:29.10	350.48	15.60	-42.1	-44.6	25.2	6.06e-01	0	38	0	164626432	55	4886
2026-01-23 02:38:29.81	350.36	15.67	-42.1	-44.6	24.4	6.05e-01	0	38	0	166199296	55	4897
2026-01-23 02:38:31.25	350.12	15.80	-42.1	-44.7	25.1	6.05e-01	0	38	0	168820736	55	4929
2026-01-23 02:38:31.96	350.00	15.86	-42.1	-44.6	25.1	6.07e-01	0	38	0	170393600	55	4909
2026-01-23 02:38:33.23	349.79	15.97	-42.1	-44.7	25.1	6.05e-01	0	38	0	172490752	55	4940
2026-01-23 02:38:33.95	349.66	16.04	-42.1	-44.7	25.1	6.04e-01	0	38	0	174063616	55	4937
2026-01-23 02:38:35.22	349.44	16.15	-42.1	-44.7	25.0	6.05e-01	0	38	0	176160768	55	4942
2026-01-23 02:38:35.94	349.32	16.22	-42.1	-44.6	25.0	6.05e-01	0	38	0	177733632	55	4926
2026-01-23 02:38:37.21	349.10	16.33	-42.2	-44.8	24.9	6.03e-01	0	38	0	179830784	55	5028
2026-01-23 02:38:37.94	348.97	16.40	-42.3	-44.8	24.9	6.05e-01	0	38	0	181403648	55	5035
2026-01-23 02:38:39.22	348.74	16.52	-42.3	-44.8	24.9	6.04e-01	0	38	0	183500800	55	5027
2026-01-23 02:38:39.93	348.62	16.58	-42.1	-44.7	25.0	6.05e-01	0	38	0	185073664	55	4931
2026-01-23 02:38:41.21	348.39	16.70	-42.1	-44.6	25.2	6.04e-01	0	38	0	187695104	55	4904
2026-01-23 02:38:41.92	348.26	16.76	-42.1	-44.6	25.1	6.04e-01	0	38	0	188743680	55	4914
2026-01-23 02:38:43.20	348.03	16.88	-42.1	-44.6	25.0	6.04e-01	0	38	0	191365120	55	4922
2026-01-23 02:38:43.92	347.89	16.95	-42.0	-44.6	25.1	6.02e-01	0	38	0	192413696	55	4910
2026-01-23 02:38:45.20	347.66	17.06	-42.0	-44.6	25.1	6.03e-01	0	38	0	195035136	55	4923
2026-01-23 02:38:45.91	347.53	17.13	-41.8	-44.5	25.2	6.03e-01	0	38	0	196083712	55	4861
2026-01-23 02:38:47.19	347.29	17.25	-41.6	-44.5	25.2	6.04e-01	0	38	0	198705152	55	4860
2026-01-23 02:38:47.90	347.16	17.31	-41.6	-44.6	25.2	6.04e-01	0	38	0	200278016	55	4877
2026-01-23 02:38:49.26	346.90	17.44	-41.6	-44.6	25.2	6.05e-01	0	38	0	202375168	55	4897
2026-01-23 02:38:49.97	346.76	17.50	-41.7	-44.7	25.1	6.04e-01	0	38	0	203948032	55	4936
2026-01-23 02:38:51.25	346.52	17.62	-41.8	-44.6	25.0	6.04e-01	0	38	0	206569472	55	4906
2026-01-23 02:38:51.98	346.38	17.69	-41.9	-44.6	25.1	6.04e-01	0	38	0	207618048	55	4905
2026-01-23 02:38:53.26	346.13	17.80	-42.0	-44.6	25.1	6.05e-01	0	38	0	210239488	55	4886
2026-01-23 02:38:53.98	345.99	17.87	-42.2	-44.6	25.1	6.06e-01	0	38	0	211288064	55	4926
2026-01-23 02:38:55.26	345.74	17.99	-42.1	-44.6	25.1	6.03e-01	0	38	0	213909504	55	4876
2026-01-23 02:38:55.97	345.60	18.05	-42.2	-44.7	25.1	6.05e-01	0	38	0	215482368	55	4940
2026-01-23 02:38:57.25	345.34	18.17	-42.0	-44.6	25.2	6.04e-01	0	38	0	217579520	55	4913
2026-01-23 02:38:57.96	345.20	18.24	-41.9	-44.6	25.2	6.03e-01	0	38	0	218628096	55	4904
2026-01-23 02:38:59.24	344.94	18.36	-41.8	-44.5	25.3	6.04e-01	0	38	0	221249536	55	4855
2026-01-23 02:39:00.07	344.77	18.43	-41.8	-44.6	25.2	6.02e-01	0	39	0	222822400	55	4879
2026-01-23 02:39:01.50	344.48	18.57	-42.0	-44.6	25.1	6.02e-01	0	38	0	225443840	55	4921
2026-01-23 02:39:02.21	344.33	18.63	-42.2	-44.8	25.0	6.04e-01	0	38	0	227016704	55	5007
2026-01-23 02:39:03.49	344.07	18.75	-42.3	-44.8	25.0	6.04e-01	0	38	0	229113856	55	5001
2026-01-23 02:39:04.21	343.92	18.82	-42.3	-44.7	25.1	6.03e-01	0	38	0	230686720	55	4937
2026-01-23 02:39:05.49	343.65	18.93	-42.2	-44.6	25.2	6.04e-01	0	38	0	232783872	55	4907
2026-01-23 02:39:06.20	343.50	19.00	-42.2	-44.6	25.2	6.04e-01	0	39	0	234356736	55	4881
2026-01-23 02:39:07.48	343.23	19.12	-42.0	-44.5	25.2	6.04e-01	0	38	0	236978176	55	4835
2026-01-23 02:39:08.19	343.07	19.18	-42.1	-44.5	25.2	6.06e-01	0	38	0	238026752	55	4865
2026-01-23 02:39:09.47	342.80	19.30	-42.0	-44.5	25.2	6.03e-01	0	38	0	240648192	55	4867
2026-01-23 02:39:10.18	342.64	19.37	-42.0	-44.5	25.2	6.03e-01	0	38	0	241696768	55	4858
2026-01-23 02:39:11.46	342.36	19.49	-42.2	-44.6	25.2	6.07e-01	0	38	0	244318208	55	4920
2026-01-23 02:39:12.17	342.21	19.55	-42.3	-44.7	25.1	6.04e-01	0	38	0	245366784	55	4980
2026-01-23 02:39:13.45	341.93	19.67	-42.5	-44.8	25.0	6.03e-01	0	38	0	247988224	55	5039
2026-01-23 02:39:14.19	341.76	19.74	-42.6	-44.9	24.9	6.04e-01	0	38	0	249561088	55	5087
2026-01-23 02:39:15.52	341.46	19.86	-42.5	-45.0	24.8	6.02e-01	0	38	0	251658240	55	5108
2026-01-23 02:39:16.23	341.30	19.93	-42.4	-45.0	24.7	6.03e-01	0	38	0	253231104	55	5140
2026-01-23 02:39:17.59	340.99	20.05	-42.3	-45.0	24.7	6.07e-01	0	39	0	255852544	55	5108
2026-01-23 02:39:18.30	340.83	20.12	-42.1	-44.8	24.9	6.06e-01	0	38	0	256901120	55	5012
2026-01-23 02:39:19.66	340.52	20.24	-42.0	-44.7	24.9	6.03e-01	0	38	0	259522560	55	4971
2026-01-23 02:39:20.37	340.35	20.31	-41.9	-44.6	25.2	6.03e-01	0	39	0	261095424	55	4909
2026-01-23 02:39:21.73	340.04	20.43	-42.2	-44.7	25.1	6.04e-01	0	38	0	263716864	55	4943
2026-01-23 02:39:22.44	339.87	20.50	-42.2	-44.7	25.1	6.03e-01	0	38	0	264765440	55	4936
2026-01-23 02:39:23.78	339.55	20.62	-42.3	-44.7	25.1	6.03e-01	0	38	0	267386880	55	4953
2026-01-23 02:39:24.49	339.38	20.68	-42.3	-44.7	25.1	6.04e-01	0	38	0	268435456	55	4966
2026-01-23 02:39:25.77	339.08	20.80	-42.1	-44.7	25.1	6.05e-01	0	38	0	271056896	55	4939
2026-01-23 02:39:26.50	338.90	20.87	-42.0	-44.7	25.1	6.03e-01	0	38	0	272629760	55	4983
2026-01-23 02:39:27.78	338.59	20.98	-41.8	-44.8	25.0	6.02e-01	0	38	0	274726912	55	5006
2026-01-23 02:39:28.49	338.42	21.05	-41.9	-44.9	24.9	6.05e-01	0	38	0	276299776	55	5077
2026-01-23 02:39:29.77	338.10	21.16	-41.9	-44.8	24.9	6.05e-01	0	38	0	278396928	55	5037
2026-01-23 02:39:30.48	337.93	21.23	-42.0	-44.9	24.9	6.04e-01	0	38	0	279969792	55	5059
2026-01-23 02:39:31.76	337.61	21.34	-42.2	-44.9	24.9	6.04e-01	0	38	0	282066944	55	5042
2026-01-23 02:39:32.48	337.43	21.41	-42.3	-44.9	24.9	6.06e-01	0	38	0	283639808	55	5055
2026-01-23 02:39:33.76	337.11	21.52	-42.3	-45.0	24.8	6.04e-01	0	38	0	286261248	55	5123
2026-01-23 02:39:34.48	336.93	21.59	-42.3	-45.0	24.8	6.07e-01	0	38	0	287309824	55	5154
2026-01-23 02:39:35.75	336.60	21.70	-42.1	-45.0	24.8	6.02e-01	0	39	0	289931264	55	5135
2026-01-23 02:39:36.68	336.36	21.78	-42.1	-44.9	24.9	6.06e-01	0	38	0	291504128	55	5100
2026-01-23 02:39:37.99	336.02	21.90	-42.2	-45.0	24.9	6.03e-01	0	38	0	294125568	55	5121
2026-01-23 02:39:38.70	335.84	21.96	-42.1	-44.8	25.0	6.05e-01	0	38	0	295174144	55	5038
2026-01-23 02:39:39.98	335.51	22.07	-42.3	-45.0	24.9	6.06e-01	0	38	0	297795584	55	5106
2026-01-23 02:39:40.69	335.32	22.14	-42.4	-44.9	24.9	6.05e-01	0	38	0	298844160	55	5093
2026-01-23 02:39:41.97	334.98	22.25	-42.4	-44.8	25.0	6.02e-01	0	38	0	301465600	55	5039
2026-01-23 02:39:42.68	334.79	22.31	-42.4	-44.8	25.0	6.05e-01	0	38	0	303038464	55	5018
2026-01-23 02:39:43.96	334.45	22.42	-42.4	-44.8	25.0	6.07e-01	0	38	0	305135616	55	5021
2026-01-23 02:39:44.69	334.25	22.48	-42.4	-44.9	24.9	6.05e-01	0	38	0	306708480	55	5044
2026-01-23 02:39:46.05	333.88	22.60	-42.3	-44.8	25.0	6.03e-01	0	38	0	309329920	55	5038
2026-01-23 02:39:46.76	333.69	22.66	-42.4	-44.9	24.9	6.06e-01	0	38	0	310378496	55	5098
2026-01-23 02:39:48.04	333.34	22.77	-42.3	-45.0	24.8	6.07e-01	0	38	0	312999936	55	5146
2026-01-23 02:39:48.76	333.14	22.83	-42.3	-45.0	24.8	6.06e-01	0	38	0	314048512	55	5131
2026-01-23 02:39:50.04	332.79	22.94	-42.3	-44.9	24.9	6.03e-01	0	38	0	316669952	55	5079
2026-01-23 02:39:50.76	332.58	23.00	-42.3	-45.0	24.9	6.04e-01	0	38	0	317718528	55	5117
2026-01-23 02:39:52.25	332.17	23.13	-42.4	-44.9	24.8	6.05e-01	0	38	0	320864256	55	5098
2026-01-23 02:39:52.96	331.97	23.19	-42.4	-45.0	24.9	6.00e-01	0	38	0	321912832	55	5109
2026-01-23 02:39:54.24	331.60	23.29	-42.4	-44.8	25.0	6.04e-01	0	38	0	324534272	55	5036
2026-01-23 02:39:54.97	331.39	23.35	-42.4	-44.8	25.1	6.02e-01	0	39	0	325582848	55	5034
2026-01-23 02:39:56.25	331.03	23.46	-42.4	-44.9	24.9	6.03e-01	0	38	0	328204288	55	5052
2026-01-23 02:39:56.96	330.82	23.52	-42.4	-44.8	25.0	6.02e-01	0	38	0	329252864	55	5007
2026-01-23 02:39:58.24	330.45	23.62	-42.5	-44.9	25.0	6.02e-01	0	38	0	331874304	55	5042
2026-01-23 02:39:58.96	330.24	23.68	-42.6	-45.0	24.9	6.05e-01	0	38	0	333447168	55	5120
2026-01-23 02:40:00.24	329.86	23.78	-42.6	-44.9	24.9	6.03e-01	0	38	0	335544320	55	5098
2026-01-23 02:40:00.98	329.64	23.84	-42.6	-45.0	24.9	6.04e-01	0	38	0	337117184	55	5129
2026-01-23 02:40:02.26	329.26	23.94	-42.5	-45.0	24.8	6.05e-01	0	38	0	339214336	55	5144
2026-01-23 02:40:02.97	329.05	24.00	-42.5	-45.1	24.8	6.02e-01	0	38	0	340787200	55	5161
2026-01-23 02:40:04.26	328.67	24.10	-42.5	-45.3	24.6	6.04e-01	0	38	0	343408640	55	5280
2026-01-23 02:40:04.98	328.45	24.15	-42.3	-45.0	24.9	6.04e-01	0	39	0	344457216	55	5136
2026-01-23 02:40:06.25	328.06	24.25	-42.1	-44.8	25.1	6.06e-01	0	38	0	347078656	55	5016
2026-01-23 02:40:06.96	327.85	24.30	-42.1	-44.8	25.1	6.02e-01	0	38	0	348127232	55	5004
2026-01-23 02:40:08.24	327.45	24.40	-42.4	-45.0	24.9	6.05e-01	0	38	0	350748672	55	5105
2026-01-23 02:40:08.97	327.23	24.45	-42.6	-45.2	24.7	6.04e-01	0	38	0	351797248	55	5241
2026-01-23 02:40:10.25	326.83	24.55	-42.5	-45.1	24.8	6.04e-01	0	38	0	354418688	55	5189
2026-01-23 02:40:10.96	326.61	24.60	-42.6	-45.2	24.7	6.06e-01	0	39	0	355991552	55	5249
2026-01-23 02:40:12.24	326.21	24.70	-42.3	-44.9	25.0	6.03e-01	0	39	0	358088704	55	5059
2026-01-23 02:40:12.95	325.99	24.75	-42.4	-44.9	24.9	6.04e-01	0	39	0	359661568	55	5100
2026-01-23 02:40:14.23	325.59	24.84	-42.4	-45.0	24.8	6.01e-01	0	38	0	361758720	55	5133
2026-01-23 02:40:14.95	325.36	24.89	-42.4	-45.0	24.8	6.03e-01	0	38	0	363331584	55	5146
2026-01-23 02:40:16.23	324.95	24.98	-42.3	-45.0	24.9	6.01e-01	0	38	0	365953024	55	5118
2026-01-23 02:40:16.95	324.72	25.03	-42.2	-44.9	24.9	6.03e-01	0	38	0	367001600	55	5086
2026-01-23 02:40:18.22	324.31	25.12	-42.2	-44.9	24.9	6.03e-01	0	38	0	369623040	55	5086
2026-01-23 02:40:19.11	324.02	25.18	-42.3	-45.0	25.0	6.04e-01	0	38	0	371195904	55	5117
2026-01-23 02:40:20.24	323.66	25.25	-42.5	-45.0	24.9	6.05e-01	0	38	0	373293056	55	5139
2026-01-23 02:40:21.09	323.38	25.31	-42.5	-44.9	24.9	6.06e-01	0	39	0	374865920	55	5094
2026-01-23 02:40:22.23	323.01	25.38	-42.6	-45.0	24.9	6.04e-01	0	39	0	376963072	55	5159
2026-01-23 02:40:23.09	322.73	25.44	-42.5	-45.0	24.9	6.05e-01	0	39	0	378535936	55	5151
2026-01-23 02:40:24.22	322.35	25.51	-42.5	-45.2	24.7	6.03e-01	0	39	0	380633088	55	5266
2026-01-23 02:40:25.08	322.07	25.57	-42.3	-45.1	24.7	6.04e-01	0	39	0	382205952	55	5188
2026-01-23 02:40:26.29	321.66	25.64	-42.2	-44.9	25.0	6.01e-01	0	39	0	384303104	55	5086
2026-01-23 02:40:27.14	321.38	25.69	-42.1	-44.8	25.1	6.05e-01	0	39	0	385875968	55	5019
2026-01-23 02:40:28.28	321.00	25.76	-42.2	-44.8	25.0	6.05e-01	0	38	0	388497408	55	5018
2026-01-23 02:40:29.13	320.71	25.81	-42.3	-44.9	25.0	6.05e-01	0	38	0	390070272	55	5054
2026-01-23 02:40:30.27	320.32	25.88	-42.5	-45.1	24.8	6.04e-01	0	38	0	392167424	55	5167
2026-01-23 02:40:31.12	320.04	25.93	-42.4	-45.0	24.9	6.06e-01	0	39	0	393740288	55	5140
2026-01-23 02:40:32.26	319.65	25.99	-42.2	-44.8	25.1	6.04e-01	0	38	0	395837440	55	4998
2026-01-23 02:40:33.11	319.36	26.04	-42.3	-44.9	24.9	6.06e-01	0	38	0	397410304	55	5083
2026-01-23 02:40:34.25	318.96	26.10	-42.2	-44.7	25.1	6.05e-01	0	39	0	399507456	55	4983
2026-01-23 02:40:35.10	318.67	26.15	-42.3	-44.9	25.0	6.04e-01	0	39	0	401080320	55	5073
2026-01-23 02:40:36.24	318.28	26.21	-42.4	-45.0	24.9	6.05e-01	0	39	0	403177472	55	5111
2026-01-23 02:40:37.09	317.98	26.25	-42.3	-44.8	25.0	6.05e-01	0	39	0	404750336	55	5040
2026-01-23 02:40:38.23	317.58	26.31	-42.4	-44.9	25.0	6.01e-01	0	39	0	406847488	55	5087
2026-01-23 02:40:39.08	317.29	26.35	-42.5	-44.9	24.9	6.03e-01	0	39	0	408420352	55	5059
2026-01-23 02:40:40.22	316.89	26.41	-42.6	-45.0	24.9	6.04e-01	0	39	0	410517504	55	5112
2026-01-23 02:40:41.08	316.59	26.45	-42.6	-45.0	24.9	6.04e-01	0	38	0	412090368	55	5113
2026-01-23 02:40:42.21	316.19	26.50	-42.6	-44.9	25.0	6.05e-01	0	38	0	414187520	55	5090
2026-01-23 02:40:43.07	315.88	26.54	-42.5	-44.9	25.1	6.02e-01	0	39	0	415760384	55	5053
2026-01-23 02:40:44.21	315.48	26.59	-42.4	-44.8	25.1	6.02e-01	0	39	0	417857536	55	5021
2026-01-23 02:40:45.06	315.17	26.63	-42.3	-44.8	25.1	6.04e-01	0	38	0	419954688	55	5000
2026-01-23 02:40:46.42	314.69	26.69	-42.2	-44.8	25.1	6.06e-01	0	39	0	422051840	55	5029
2026-01-23 02:40:47.13	314.43	26.72	-42.2	-45.0	24.9	6.05e-01	0	38	0	423624704	55	5116
2026-01-23 02:40:48.41	313.97	26.77	-42.0	-44.9	25.0	6.03e-01	0	38	0	425721856	55	5043
2026-01-23 02:40:49.12	313.72	26.80	-42.1	-44.9	25.0	6.05e-01	0	39	0	427294720	55	5054
2026-01-23 02:40:50.40	313.26	26.84	-42.2	-44.9	25.0	6.03e-01	0	38	0	429916160	55	5065
2026-01-23 02:40:51.12	313.00	26.87	-42.1	-44.5	25.3	6.00e-01	0	38	0	430964736	55	4860
2026-01-23 02:40:52.72	312.42	26.93	-42.4	-44.8	25.1	6.05e-01	0	38	0	434110464	55	4989
2026-01-23 02:40:53.29	312.21	26.95	-42.6	-45.1	24.8	6.05e-01	0	38	0	435159040	55	5166
2026-01-23 02:40:55.20	311.51	27.01	-42.8	-45.2	24.8	6.05e-01	0	38	0	438829056	56	4978
2026-01-23 02:40:56.11	311.18	27.03	-42.6	-44.9	25.1	6.05e-01	0	38	0	440401920	56	4803
2026-01-23 02:40:57.11	310.81	27.06	-42.6	-45.0	24.9	6.04e-01	0	39	0	442499072	56	4827
2026-01-23 02:40:58.10	310.45	27.09	-42.8	-45.3	24.8	6.05e-01	0	38	0	444071936	56	5003
2026-01-23 02:40:59.10	310.08	27.12	-42.8	-45.2	24.8	6.05e-01	0	39	0	446169088	56	4947
2026-01-23 02:41:00.14	309.70	27.15	-43.0	-45.5	24.5	6.05e-01	0	38	0	448266240	56	5146
2026-01-23 02:41:01.15	309.32	27.17	-42.7	-45.1	24.9	6.03e-01	0	39	0	449839104	56	4917
2026-01-23 02:41:02.18	308.94	27.20	-42.7	-45.1	24.9	6.05e-01	0	39	0	451936256	56	4881
2026-01-23 02:41:03.17	308.58	27.22	-42.8	-45.2	24.9	6.05e-01	0	38	0	453509120	56	4946
2026-01-23 02:41:04.17	308.21	27.24	-42.6	-45.0	25.0	6.03e-01	0	39	0	455606272	56	4840
2026-01-23 02:41:05.16	307.84	27.26	-42.6	-45.0	25.0	6.02e-01	0	38	0	457179136	56	4849
2026-01-23 02:41:06.16	307.47	27.27	-42.9	-45.4	24.6	6.04e-01	0	39	0	459276288	56	5061
2026-01-23 02:41:07.15	307.10	27.29	-42.8	-45.2	24.8	6.01e-01	0	39	0	461373440	56	4941
2026-01-23 02:41:08.37	306.64	27.31	-42.2	-44.4	25.5	6.05e-01	0	39	0	463470592	56	4533
2026-01-23 02:41:09.25	306.31	27.32	-42.9	-45.3	24.7	6.06e-01	0	38	0	465043456	56	5022
2026-01-23 02:41:10.39	305.89	27.34	-42.8	-45.2	24.9	6.03e-01	0	38	0	467140608	56	4950
2026-01-23 02:41:11.24	305.57	27.35	-42.5	-44.9	25.1	6.04e-01	0	39	0	468713472	56	4772
2026-01-23 02:41:12.65	305.04	27.36	-42.7	-45.1	24.9	6.07e-01	0	39	0	471334912	56	4903
2026-01-23 02:41:13.36	304.78	27.37	-42.6	-45.0	25.1	6.01e-01	0	39	0	472907776	56	4835
2026-01-23 02:41:14.85	304.22	27.38	-42.2	-44.5	25.4	6.04e-01	0	39	0	475529216	56	4589
2026-01-23 02:41:15.56	303.95	27.38	-43.0	-45.4	24.6	6.04e-01	0	39	0	477102080	56	5089
2026-01-23 02:41:16.84	303.47	27.39	-43.3	-45.8	24.2	6.01e-01	0	39	0	479199232	57	5034
2026-01-23 02:41:17.56	303.20	27.39	-42.3	-44.6	25.2	6.02e-01	0	39	0	480772096	56	4625
2026-01-23 02:41:18.84	302.72	27.39	-42.4	-44.7	24.9	6.05e-01	0	38	0	482869248	56	4697
2026-01-23 02:41:19.57	302.45	27.39	-42.6	-45.0	25.0	6.05e-01	0	39	0	484442112	55	5125
2026-01-23 02:41:20.85	301.97	27.39	-42.2	-44.6	25.2	6.07e-01	0	39	0	487063552	55	4891
2026-01-23 02:41:21.56	301.70	27.39	-43.2	-45.8	24.1	6.04e-01	0	38	0	488112128	57	4992
2026-01-23 02:41:22.83	301.23	27.39	-43.1	-45.6	24.4	6.05e-01	0	38	0	490733568	56	5214
2026-01-23 02:41:23.61	300.93	27.38	-42.7	-45.2	24.9	6.03e-01	0	39	0	491782144	56	4927
2026-01-23 02:41:24.89	300.45	27.38	-43.4	-45.9	24.1	6.05e-01	0	39	0	494403584	57	5099
2026-01-23 02:41:25.61	300.18	27.37	-42.1	-44.3	25.6	6.06e-01	0	39	0	495976448	56	4483
2026-01-23 02:41:27.24	299.57	27.36	-42.3	-44.6	25.2	6.04e-01	0	39	0	498597888	55	4905
2026-01-23 02:41:27.80	299.36	27.35	-43.7	-46.4	23.6	6.07e-01	0	38	0	499646464	58	5056
2026-01-23 02:41:29.51	298.72	27.33	-42.9	-45.4	24.5	6.04e-01	0	39	0	502792192	57	4791
2026-01-23 02:41:30.08	298.51	27.32	-42.8	-45.2	24.8	6.03e-01	0	38	0	504365056	57	4671
2026-01-23 02:41:31.78	297.88	27.30	-42.3	-44.6	25.0	6.03e-01	0	38	0	507510784	56	4632
2026-01-23 02:41:32.35	297.66	27.29	-42.7	-45.0	24.9	6.04e-01	0	39	0	508559360	56	4870
2026-01-23 02:41:34.05	297.03	27.26	-43.5	-46.1	24.0	6.04e-01	0	38	0	511705088	57	5205
2026-01-23 02:41:34.62	296.82	27.25	-43.4	-45.9	23.8	6.05e-01	0	38	0	512753664	58	4812
2026-01-23 02:41:36.32	296.19	27.21	-42.9	-45.4	24.6	6.05e-01	0	39	0	515899392	57	4771
2026-01-23 02:41:36.89	295.98	27.20	-42.8	-45.2	24.8	6.03e-01	0	39	0	516947968	57	4668
2026-01-23 02:41:38.60	295.34	27.16	-42.7	-45.1	24.8	6.04e-01	0	39	0	520093696	57	4605
2026-01-23 02:41:39.42	295.04	27.14	-43.5	-46.1	24.0	6.04e-01	0	39	0	521666560	57	5182
2026-01-23 02:41:40.56	294.62	27.11	-42.6	-45.0	25.0	6.06e-01	0	39	0	523763712	56	4827
2026-01-23 02:41:41.41	294.31	27.09	-42.9	-45.3	24.6	6.05e-01	0	39	0	525336576	56	5032
2026-01-23 02:41:42.55	293.89	27.05	-42.8	-45.2	24.8	6.05e-01	0	39	0	527433728	56	4966
2026-01-23 02:41:43.40	293.58	27.03	-43.3	-45.8	24.3	6.01e-01	0	39	0	529006592	57	5009
2026-01-23 02:41:44.61	293.13	26.99	-42.7	-45.0	25.0	6.06e-01	0	39	0	531103744	57	4587
2026-01-23 02:41:45.47	292.82	26.96	-43.4	-46.0	24.0	6.04e-01	0	39	0	533200896	58	4831
2026-01-23 02:41:46.60	292.41	26.92	-43.3	-45.8	24.3	6.05e-01	0	39	0	535298048	57	5018
2026-01-23 02:41:47.46	292.10	26.89	-42.8	-45.1	24.8	6.06e-01	0	39	0	536870912	57	4649
2026-01-23 02:41:48.71	291.64	26.85	-43.1	-45.6	24.4	6.04e-01	0	39	0	538968064	57	4895
2026-01-23 02:41:49.56	291.33	26.82	-43.1	-45.6	24.5	6.05e-01	0	39	0	540540928	57	4893
2026-01-23 02:41:50.70	290.92	26.77	-43.2	-45.7	24.4	6.02e-01	0	39	0	542638080	57	4948
2026-01-23 02:41:51.55	290.62	26.74	-43.2	-45.7	24.4	6.02e-01	0	39	0	544210944	57	4954
2026-01-23 02:41:52.69	290.21	26.69	-43.3	-45.8	24.3	6.05e-01	0	39	0	546308096	57	5025
2026-01-23 02:41:53.54	289.90	26.66	-42.7	-44.9	25.0	6.04e-01	0	39	0	547880960	57	4544
2026-01-23 02:41:54.68	289.50	26.61	-43.7	-46.2	23.9	6.05e-01	0	39	0	550502400	57	5249
2026-01-23 02:41:55.62	289.16	26.57	-42.7	-45.0	24.9	6.03e-01	0	39	0	552075264	57	4566
2026-01-23 02:41:56.62	288.81	26.52	-43.7	-46.3	23.9	6.06e-01	0	39	0	553648128	57	5283
2026-01-23 02:41:57.85	288.37	26.46	-42.8	-45.1	24.8	6.02e-01	0	39	0	556269568	57	4646
2026-01-23 02:41:58.73	288.06	26.42	-43.9	-46.4	23.6	6.06e-01	0	39	0	557842432	58	5097
2026-01-23 02:41:59.87	287.66	26.37	-43.4	-45.9	24.2	6.05e-01	0	39	0	559939584	58	4788
2026-01-23 02:42:00.72	287.36	26.33	-43.2	-45.7	24.2	6.04e-01	0	39	0	561512448	58	4661
2026-01-23 02:42:01.86	286.96	26.27	-43.4	-45.9	24.3	6.04e-01	0	39	0	563609600	57	5047
2026-01-23 02:42:02.71	286.67	26.22	-42.9	-45.3	24.7	6.02e-01	0	39	0	565182464	57	4729
2026-01-23 02:42:03.85	286.27	26.16	-44.0	-46.7	23.5	6.02e-01	0	39	0	567279616	58	5226
2026-01-23 02:42:04.70	285.98	26.12	-42.9	-45.3	24.6	6.04e-01	0	39	0	568852480	57	4731
2026-01-23 02:42:05.84	285.58	26.06	-44.1	-46.8	23.4	6.05e-01	0	39	0	570949632	58	5315
2026-01-23 02:42:06.69	285.29	26.01	-43.2	-45.5	24.5	6.05e-01	0	39	0	573046784	58	4593
2026-01-23 02:42:07.83	284.90	25.94	-44.3	-47.0	23.3	6.00e-01	0	39	0	575143936	59	5110
2026-01-23 02:42:08.68	284.61	25.89	-43.6	-46.0	24.0	6.05e-01	0	39	0	576716800	59	4594
2026-01-23 02:42:09.82	284.22	25.83	-44.5	-47.3	22.8	6.02e-01	0	38	0	578813952	60	5001
2026-01-23 02:42:10.70	283.93	25.78	-43.3	-45.6	24.3	6.05e-01	0	39	0	580386816	58	4649
2026-01-23 02:42:12.01	283.48	25.70	-44.6	-47.5	22.5	6.06e-01	0	39	0	582483968	60	5137
2026-01-23 02:42:12.72	283.25	25.65	-43.3	-45.8	24.2	6.05e-01	0	39	0	584056832	58	4707
2026-01-23 02:42:14.00	282.82	25.57	-44.4	-47.2	22.9	6.04e-01	0	38	0	586678272	59	5255
2026-01-23 02:42:14.71	282.58	25.53	-44.1	-46.7	23.4	6.04e-01	0	39	0	587726848	59	4953
2026-01-23 02:42:15.99	282.16	25.45	-44.5	-47.3	22.9	6.04e-01	0	39	0	590348288	59	5291
2026-01-23 02:42:16.70	281.92	25.40	-43.9	-46.4	23.5	6.05e-01	0	39	0	591396864	59	4807
2026-01-23 02:42:17.99	281.50	25.32	-44.2	-46.8	23.3	6.06e-01	0	39	0	594018304	59	5037
2026-01-23 02:42:18.70	281.27	25.27	-44.1	-46.6	23.4	6.05e-01	0	39	0	595066880	59	4917
2026-01-23 02:42:19.98	280.85	25.18	-44.3	-47.0	23.2	6.03e-01	0	39	0	597688320	59	5112
2026-01-23 02:42:20.69	280.62	25.14	-44.6	-47.4	22.9	6.06e-01	0	39	0	599261184	59	5361
2026-01-23 02:42:21.97	280.21	25.05	-43.8	-46.4	23.7	6.05e-01	0	39	0	601358336	59	4775
2026-01-23 02:42:22.68	279.98	25.00	-44.4	-47.2	23.1	6.05e-01	0	39	0	602931200	59	5219
2026-01-23 02:42:24.06	279.54	24.90	-43.5	-46.0	24.1	6.05e-01	0	39	0	605552640	59	4577
2026-01-23 02:42:24.76	279.31	24.85	-43.8	-46.4	23.8	6.06e-01	0	39	0	606601216	59	4766
2026-01-23 02:42:26.15	278.87	24.75	-43.6	-46.2	23.9	6.05e-01	0	39	0	609222656	59	4663
2026-01-23 02:42:26.87	278.65	24.70	-43.6	-46.1	24.0	6.06e-01	0	39	0	610795520	59	4632
2026-01-23 02:42:28.14	278.25	24.61	-43.5	-46.0	24.1	6.04e-01	0	39	0	612892672	59	4598
2026-01-23 02:42:28.85	278.03	24.55	-43.3	-45.8	24.3	6.04e-01	0	39	0	614465536	58	4718
2026-01-23 02:42:30.24	277.60	24.45	-43.7	-46.3	23.9	6.05e-01	0	39	0	617086976	58	5018
2026-01-23 02:42:30.95	277.38	24.40	-43.7	-46.3	23.8	6.01e-01	0	39	0	618135552	58	5029
2026-01-23 02:42:32.23	276.98	24.30	-43.5	-46.1	24.1	6.04e-01	0	39	0	620756992	58	4879
2026-01-23 02:42:32.94	276.77	24.25	-43.6	-46.1	24.0	6.03e-01	0	39	0	621805568	58	4903
2026-01-23 02:42:34.22	276.38	24.15	-43.5	-46.0	24.2	6.04e-01	0	39	0	624427008	58	4823
2026-01-23 02:42:34.95	276.15	24.09	-43.6	-46.1	24.0	6.04e-01	0	39	0	625999872	58	4893
2026-01-23 02:42:36.23	275.77	23.99	-43.5	-46.0	24.0	6.03e-01	0	39	0	628097024	58	4860
2026-01-23 02:42:36.97	275.55	23.93	-43.4	-45.9	24.2	6.05e-01	0	39	0	629669888	58	4779
2026-01-23 02:42:38.24	275.17	23.83	-43.8	-46.5	23.6	6.05e-01	0	39	0	631767040	58	5128
2026-01-23 02:42:38.97	274.95	23.77	-43.6	-46.1	23.9	6.05e-01	0	39	0	633339904	58	4924
2026-01-23 02:42:40.25	274.58	23.67	-43.4	-45.9	24.2	6.02e-01	0	39	0	635437056	58	4783
2026-01-23 02:42:40.96	274.37	23.61	-43.6	-46.2	23.9	6.04e-01	0	39	0	637009920	58	4971
2026-01-23 02:42:42.24	273.99	23.51	-43.5	-46.0	24.0	6.06e-01	0	39	0	639631360	58	4862
2026-01-23 02:42:42.97	273.78	23.45	-43.4	-45.9	24.2	6.03e-01	0	39	0	640679936	58	4767
2026-01-23 02:42:44.28	273.40	23.34	-43.6	-46.2	24.0	6.02e-01	0	39	0	643301376	58	4940
2026-01-23 02:42:44.99	273.20	23.28	-43.7	-46.3	23.8	6.02e-01	0	39	0	644349952	58	5033
2026-01-23 02:42:46.27	272.84	23.18	-43.3	-45.8	24.3	6.03e-01	0	39	0	646971392	58	4739
2026-01-23 02:42:46.98	272.63	23.12	-43.4	-45.9	24.2	6.04e-01	0	39	0	648544256	58	4790
2026-01-23 02:42:48.26	272.27	23.01	-43.7	-46.2	23.9	6.04e-01	0	39	0	650641408	58	4978
2026-01-23 02:42:48.98	272.07	22.95	-43.7	-46.3	23.8	6.07e-01	0	39	0	652214272	58	5021
2026-01-23 02:42:50.26	271.71	22.84	-43.4	-45.9	24.2	6.03e-01	0	39	0	654311424	58	4773
2026-01-23 02:42:50.99	271.51	22.78	-43.4	-46.0	24.1	6.07e-01	0	39	0	655884288	58	4823
2026-01-23 02:42:52.27	271.16	22.67	-43.4	-45.9	24.2	6.05e-01	0	39	0	657981440	58	4786
2026-01-23 02:42:52.98	270.96	22.61	-43.5	-46.0	24.1	6.05e-01	0	38	0	659554304	58	4832
2026-01-23 02:42:54.26	270.62	22.49	-43.5	-46.1	24.0	6.05e-01	0	39	0	662175744	58	4883
2026-01-23 02:42:55.09	270.39	22.42	-43.6	-46.1	23.9	6.05e-01	0	39	0	663748608	58	4902
2026-01-23 02:42:56.23	270.08	22.32	-43.3	-45.7	24.3	6.03e-01	0	39	0	665845760	58	4691
2026-01-23 02:42:57.08	269.86	22.25	-43.2	-45.7	24.4	6.03e-01	0	39	0	667418624	58	4663
2026-01-23 02:42:58.22	269.55	22.15	-43.5	-46.0	24.1	6.05e-01	0	39	0	669515776	58	4855
2026-01-23 02:42:59.07	269.33	22.07	-43.6	-46.3	23.9	6.03e-01	0	39	0	671088640	58	4990
2026-01-23 02:43:00.21	269.03	21.97	-43.6	-46.3	23.8	6.05e-01	0	39	0	673185792	58	4993
2026-01-23 02:43:01.39	268.72	21.87	-43.5	-46.1	24.0	6.05e-01	0	39	0	675282944	58	4875
2026-01-23 02:43:02.25	268.50	21.79	-43.3	-45.8	24.3	6.04e-01	0	39	0	676855808	58	4746
2026-01-23 02:43:03.38	268.21	21.69	-43.6	-46.2	23.8	6.06e-01	0	39	0	678952960	58	4960
2026-01-23 02:43:04.24	267.98	21.61	-43.6	-46.2	23.8	6.05e-01	0	39	0	680525824	58	4974
2026-01-23 02:43:05.38	267.69	21.51	-43.4	-46.0	24.0	6.03e-01	0	39	0	682622976	58	4826
2026-01-23 02:43:06.23	267.48	21.44	-43.2	-45.7	24.3	6.07e-01	0	39	0	684195840	58	4681
2026-01-23 02:43:07.37	267.19	21.33	-43.2	-45.7	24.3	6.05e-01	0	39	0	686292992	58	4702
2026-01-23 02:43:08.22	266.98	21.26	-43.5	-46.1	24.0	6.03e-01	0	39	0	687865856	58	4899
2026-01-23 02:43:09.48	266.67	21.14	-43.5	-46.1	23.9	6.04e-01	0	39	0	690487296	58	4890
2026-01-23 02:43:10.27	266.47	21.07	-43.4	-45.9	24.1	6.01e-01	0	39	0	692060160	58	4807
2026-01-23 02:43:11.46	266.18	20.96	-43.4	-45.9	24.2	6.02e-01	0	39	0	694157312	58	4765
2026-01-23 02:43:12.31	265.97	20.88	-43.4	-46.0	24.1	6.07e-01	0	39	0	695730176	58	4828
2026-01-23 02:43:13.45	265.69	20.78	-43.5	-46.1	24.0	6.06e-01	0	39	0	697827328	58	4901
2026-01-23 02:43:14.30	265.49	20.70	-43.6	-46.1	23.9	6.04e-01	0	39	0	699400192	58	4911
2026-01-23 02:43:15.44	265.22	20.60	-43.4	-45.9	24.1	6.06e-01	0	39	0	701497344	58	4786
2026-01-23 02:43:16.29	265.01	20.52	-43.3	-45.7	24.3	6.04e-01	0	39	0	703070208	58	4705
2026-01-23 02:43:17.43	264.74	20.42	-43.3	-45.9	24.2	6.04e-01	0	39	0	705691648	58	4764
2026-01-23 02:43:18.28	264.55	20.34	-43.3	-45.8	24.2	6.08e-01	0	39	0	707264512	58	4730
2026-01-23 02:43:19.42	264.28	20.23	-43.3	-45.9	24.2	6.03e-01	0	39	0	709361664	58	4772
2026-01-23 02:43:20.28	264.08	20.15	-43.2	-45.8	24.2	6.05e-01	0	39	0	710934528	58	4716
2026-01-23 02:43:21.41	263.82	20.05	-43.2	-45.8	24.3	6.04e-01	0	39	0	713031680	58	4722
2026-01-23 02:43:22.27	263.62	19.97	-43.3	-45.9	24.1	6.06e-01	0	39	0	714604544	58	4793
2026-01-23 02:43:23.41	263.36	19.86	-43.3	-45.9	24.1	6.03e-01	0	39	0	716701696	58	4790
2026-01-23 02:43:24.26	263.17	19.79	-43.2	-45.7	24.2	6.05e-01	0	39	0	718274560	58	4705
2026-01-23 02:43:25.52	262.89	19.67	-43.2	-45.7	24.3	6.05e-01	0	39	0	720371712	58	4669
2026-01-23 02:43:26.31	262.71	19.60	-43.2	-45.7	24.3	6.03e-01	0	39	0	721944576	58	4696
2026-01-23 02:43:27.64	262.42	19.47	-43.4	-46.0	24.1	6.03e-01	0	39	0	724566016	58	4830
2026-01-23 02:43:28.35	262.26	19.41	-43.5	-46.1	24.0	6.04e-01	0	39	0	726138880	58	4885
2026-01-23 02:43:29.78	261.95	19.27	-43.3	-45.9	24.1	6.03e-01	0	39	0	728760320	58	4778
2026-01-23 02:43:30.49	261.79	19.21	-43.3	-45.8	24.2	6.04e-01	0	39	0	729808896	58	4725
2026-01-23 02:43:31.83	261.50	19.08	-43.2	-45.8	24.2	6.04e-01	0	39	0	732430336	58	4711
2026-01-23 02:43:32.55	261.35	19.02	-43.2	-45.7	24.3	6.04e-01	0	39	0	734003200	58	4693
2026-01-23 02:43:33.83	261.08	18.90	-43.3	-45.8	24.2	6.06e-01	0	39	0	736100352	58	4756
2026-01-23 02:43:34.55	260.92	18.83	-43.3	-45.9	24.1	6.04e-01	0	39	0	737673216	58	4804
2026-01-23 02:43:35.83	260.66	18.71	-43.2	-45.7	24.3	6.03e-01	0	39	0	739770368	58	4687
2026-01-23 02:43:36.56	260.50	18.64	-43.0	-45.5	24.4	6.00e-01	0	39	0	741343232	58	4594
2026-01-23 02:43:37.84	260.24	18.52	-43.2	-45.7	24.3	6.05e-01	0	39	0	743440384	58	4662
2026-01-23 02:43:38.55	260.09	18.46	-43.2	-45.8	24.2	6.04e-01	0	39	0	745013248	58	4713
2026-01-23 02:43:39.83	259.83	18.34	-43.3	-45.9	24.1	6.03e-01	0	39	0	747634688	58	4767
2026-01-23 02:43:40.57	259.68	18.27	-43.1	-45.7	24.3	6.02e-01	0	39	0	748683264	58	4662
2026-01-23 02:43:41.85	259.42	18.15	-43.1	-45.6	24.4	6.02e-01	0	39	0	751304704	58	4632
2026-01-23 02:43:42.59	259.27	18.08	-43.2	-45.7	24.3	6.04e-01	0	39	0	752353280	58	4679
2026-01-23 02:43:43.87	259.02	17.96	-43.3	-45.8	24.2	6.03e-01	0	39	0	754974720	58	4756
2026-01-23 02:43:44.67	258.86	17.89	-43.4	-45.9	24.0	6.03e-01	0	39	0	756547584	58	4812
2026-01-23 02:43:46.11	258.57	17.76	-43.2	-45.7	24.2	6.01e-01	0	39	0	759169024	58	4696
2026-01-23 02:43:46.82	258.44	17.69	-43.1	-45.7	24.3	6.03e-01	0	39	0	760217600	58	4653
2026-01-23 02:43:48.10	258.19	17.57	-43.2	-45.7	24.3	6.04e-01	0	39	0	762839040	58	4658
2026-01-23 02:43:48.83	258.05	17.51	-43.1	-45.6	24.4	6.02e-01	0	39	0	764411904	58	4639
2026-01-23 02:43:50.11	257.80	17.39	-43.4	-45.9	24.1	6.07e-01	0	39	0	766509056	58	4776
2026-01-23 02:43:50.83	257.66	17.32	-43.4	-45.9	24.1	6.06e-01	0	39	0	768081920	58	4801
2026-01-23 02:43:52.10	257.42	17.20	-43.4	-46.0	24.0	6.05e-01	0	39	0	770179072	58	4821
2026-01-23 02:43:52.88	257.28	17.13	-43.3	-45.8	24.1	6.03e-01	0	39	0	771751936	58	4726
2026-01-23 02:43:54.16	257.04	17.01	-43.2	-45.7	24.3	6.03e-01	0	39	0	774373376	58	4667
2026-01-23 02:43:54.87	256.91	16.95	-43.2	-45.7	24.3	6.04e-01	0	39	0	775421952	58	4669
2026-01-23 02:43:56.15	256.67	16.83	-43.2	-45.7	24.3	6.04e-01	0	39	0	778043392	58	4668
2026-01-23 02:43:56.86	256.54	16.77	-43.2	-45.7	24.3	6.03e-01	0	39	0	779091968	58	4686
2026-01-23 02:43:58.14	256.31	16.65	-43.3	-45.8	24.2	6.05e-01	0	39	0	781713408	58	4721
2026-01-23 02:43:58.86	256.18	16.58	-43.4	-45.8	24.1	6.03e-01	0	39	0	783286272	58	4759
2026-01-23 02:44:00.14	255.95	16.46	-43.4	-45.9	24.1	6.04e-01	0	39	0	785383424	58	4763
2026-01-23 02:44:00.85	255.82	16.40	-43.4	-45.9	24.1	6.04e-01	0	39	0	786956288	58	4768
2026-01-23 02:44:02.18	255.59	16.28	-43.5	-46.0	24.0	6.03e-01	0	39	0	789577728	58	4838
2026-01-23 02:44:03.16	255.42	16.19	-43.3	-45.8	24.2	6.03e-01	0	39	0	791150592	58	4741
2026-01-23 02:44:04.47	255.19	16.07	-43.2	-45.7	24.2	6.05e-01	0	39	0	793772032	58	4705
2026-01-23 02:44:05.21	255.06	16.00	-43.1	-45.6	24.3	6.04e-01	0	39	0	794820608	58	4648
2026-01-23 02:44:06.82	254.78	15.86	-43.2	-45.7	24.3	6.04e-01	0	39	0	797966336	58	4667
2026-01-23 02:44:07.39	254.69	15.80	-43.2	-45.8	24.2	6.03e-01	0	39	0	799014912	58	4709
2026-01-23 02:44:09.10	254.40	15.65	-43.3	-45.8	24.1	6.04e-01	0	39	0	802160640	58	4755
2026-01-23 02:44:09.67	254.30	15.60	-43.3	-45.9	24.1	6.05e-01	0	39	0	803209216	58	4774
2026-01-23 02:44:11.37	254.02	15.45	-43.4	-45.9	24.0	6.06e-01	0	39	0	806354944	58	4804
2026-01-23 02:44:11.94	253.92	15.39	-43.3	-45.9	24.0	6.05e-01	0	39	0	807403520	58	4769
2026-01-23 02:44:13.64	253.64	15.24	-43.3	-45.9	24.1	6.06e-01	0	39	0	811073536	58	4778
2026-01-23 02:44:14.21	253.55	15.19	-43.3	-45.9	24.1	6.05e-01	0	39	0	811597824	58	4763
2026-01-23 02:44:15.99	253.26	15.03	-43.4	-46.0	24.0	6.01e-01	0	39	0	815267840	58	4827
2026-01-23 02:44:16.56	253.17	14.98	-43.5	-46.1	23.9	6.04e-01	0	39	0	816316416	58	4885
2026-01-23 02:44:18.26	252.90	14.83	-43.3	-45.9	24.1	6.04e-01	0	39	0	819462144	58	4763
2026-01-23 02:44:18.94	252.79	14.77	-43.3	-45.9	24.1	6.06e-01	0	39	0	820510720	58	4765
2026-01-23 02:44:20.36	252.57	14.64	-43.3	-45.9	24.0	6.04e-01	0	39	0	823132160	58	4763
2026-01-23 02:44:21.07	252.46	14.58	-43.3	-45.8	24.1	6.02e-01	0	39	0	824705024	58	4750
2026-01-23 02:44:22.73	252.20	14.43	-43.5	-46.1	23.9	6.01e-01	0	39	0	827850752	58	4877
2026-01-23 02:44:23.30	252.11	14.38	-43.5	-46.1	23.9	6.00e-01	0	39	0	828899328	58	4872
2026-01-23 02:44:25.21	251.82	14.21	-43.3	-45.8	24.1	6.03e-01	0	39	0	832569344	58	4745
2026-01-23 02:44:25.78	251.73	14.16	-43.3	-45.8	24.1	6.03e-01	0	39	0	833617920	58	4758
2026-01-23 02:44:27.48	251.48	14.01	-43.4	-45.9	23.9	6.04e-01	0	39	0	836763648	58	4811
2026-01-23 02:44:28.05	251.39	13.96	-43.4	-46.0	24.0	6.04e-01	0	39	0	837812224	58	4820
2026-01-23 02:44:29.75	251.14	13.81	-43.6	-46.1	23.8	6.06e-01	0	39	0	840957952	58	4898
2026-01-23 02:44:30.32	251.06	13.77	-43.6	-46.1	23.7	6.04e-01	0	39	0	842006528	58	4919
2026-01-23 02:44:32.02	250.81	13.62	-43.6	-46.1	23.8	6.05e-01	0	39	0	845152256	58	4902
2026-01-23 02:44:32.59	250.72	13.57	-43.6	-46.1	23.8	6.05e-01	0	39	0	846200832	58	4905
2026-01-23 02:44:34.30	250.48	13.42	-43.4	-45.9	23.9	6.03e-01	0	39	0	849346560	58	4780
2026-01-23 02:44:34.87	250.40	13.37	-43.4	-45.9	24.0	6.02e-01	0	39	0	850919424	58	4774
2026-01-23 02:44:36.58	250.15	13.22	-43.4	-45.9	24.0	6.05e-01	0	39	0	854065152	58	4802
2026-01-23 02:44:37.15	250.07	13.17	-43.4	-45.9	24.0	6.04e-01	0	39	0	855113728	58	4772
2026-01-23 02:44:38.84	249.84	13.03	-43.5	-46.0	23.9	6.05e-01	0	39	0	858259456	58	4843
2026-01-23 02:44:39.54	249.74	12.97	-43.5	-46.0	23.9	6.05e-01	0	39	0	859308032	58	4870
2026-01-23 02:44:40.94	249.55	12.85	-43.6	-46.2	23.7	6.04e-01	0	39	0	861929472	58	4936
2026-01-23 02:44:41.65	249.45	12.79	-43.6	-46.3	23.6	6.03e-01	0	39	0	863502336	58	4993
2026-01-23 02:44:42.93	249.28	12.68	-43.7	-46.4	23.5	6.04e-01	0	39	0	865599488	58	5054
2026-01-23 02:44:43.66	249.18	12.62	-43.8	-46.4	23.5	6.04e-01	0	39	0	867172352	58	5083
2026-01-23 02:44:44.94	249.00	12.51	-43.7	-46.3	23.6	6.03e-01	0	39	0	869269504	58	5009
2026-01-23 02:44:45.65	248.91	12.45	-43.5	-46.1	23.8	6.02e-01	0	39	0	870842368	58	4890
2026-01-23 02:44:46.93	248.74	12.34	-43.5	-46.0	23.9	6.04e-01	0	39	0	873463808	58	4849
2026-01-23 02:44:47.64	248.65	12.28	-43.4	-46.0	23.9	6.03e-01	0	39	0	874512384	58	4822
2026-01-23 02:44:48.92	248.48	12.17	-43.6	-46.1	23.8	6.02e-01	0	39	0	877133824	58	4904
2026-01-23 02:44:49.66	248.38	12.11	-43.6	-46.2	23.7	6.05e-01	0	39	0	878182400	58	4952
2026-01-23 02:44:50.94	248.22	12.01	-43.8	-46.4	23.5	6.05e-01	0	39	0	880803840	58	5063
2026-01-23 02:44:51.65	248.12	11.95	-43.8	-46.4	23.4	6.02e-01	0	39	0	881852416	58	5082
2026-01-23 02:44:53.15	247.93	11.82	-43.9	-46.6	23.3	6.05e-01	0	39	0	884998144	58	5187
2026-01-23 02:44:53.86	247.84	11.76	-43.8	-46.4	23.3	6.05e-01	0	39	0	886046720	58	5083
2026-01-23 02:44:55.14	247.68	11.66	-43.6	-46.2	23.6	6.05e-01	0	39	0	888668160	58	4961
2026-01-23 02:44:55.86	247.59	11.60	-43.7	-46.3	23.5	6.03e-01	0	39	0	889716736	58	4990
2026-01-23 02:44:57.25	247.42	11.48	-43.6	-46.2	23.6	6.03e-01	0	39	0	892338176	58	4971
2026-01-23 02:44:57.96	247.33	11.42	-43.6	-46.2	23.6	6.05e-01	0	39	0	893911040	58	4964
2026-01-23 02:44:59.24	247.17	11.32	-43.7	-46.3	23.5	6.05e-01	0	39	0	896532480	58	4999
2026-01-23 02:44:59.97	247.08	11.26	-43.7	-46.3	23.6	6.04e-01	0	39	0	897581056	58	5016
2026-01-23 02:45:01.25	246.93	11.15	-43.9	-46.6	23.3	6.04e-01	0	39	0	900202496	58	5165
2026-01-23 02:45:01.96	246.84	11.10	-43.8	-46.4	23.4	6.04e-01	0	39	0	901251072	58	5088
2026-01-23 02:45:03.24	246.69	10.99	-43.8	-46.4	23.4	6.02e-01	0	39	0	903872512	58	5082
2026-01-23 02:45:03.96	246.60	10.93	-43.8	-46.5	23.3	6.05e-01	0	39	0	904921088	58	5117
2026-01-23 02:45:05.24	246.45	10.83	-44.0	-46.6	23.2	6.05e-01	0	39	0	907542528	58	5206
2026-01-23 02:45:05.98	246.36	10.77	-44.0	-46.6	23.2	6.04e-01	0	39	0	909115392	58	5207
2026-01-23 02:45:07.26	246.21	10.67	-44.0	-46.7	23.1	6.05e-01	0	39	0	911212544	58	5255
2026-01-23 02:45:08.11	246.11	10.60	-44.0	-46.6	23.2	6.03e-01	0	39	0	912785408	58	5218
2026-01-23 02:45:09.25	245.98	10.51	-44.0	-46.6	23.2	6.04e-01	0	39	0	914882560	58	5211
2026-01-23 02:45:10.10	245.88	10.44	-44.0	-46.6	23.2	6.04e-01	0	39	0	916455424	58	5200
2026-01-23 02:45:11.24	245.75	10.35	-44.0	-46.7	23.2	6.07e-01	0	39	0	918552576	58	5233
2026-01-23 02:45:12.09	245.66	10.28	-44.0	-46.7	23.1	6.04e-01	0	39	0	920649728	58	5222
2026-01-23 02:45:13.23	245.53	10.19	-44.1	-46.8	23.1	6.03e-01	0	39	0	922746880	58	5291
2026-01-23 02:45:14.08	245.43	10.12	-43.9	-46.6	23.2	6.05e-01	0	39	0	924319744	58	5190
2026-01-23 02:45:15.31	245.29	10.02	-44.0	-46.7	23.2	6.04e-01	0	39	0	926416896	58	5219
2026-01-23 02:45:16.17	245.20	9.96	-43.9	-46.6	23.2	6.01e-01	0	39	0	927989760	58	5165
2026-01-23 02:45:17.38	245.07	9.86	-44.0	-46.7	23.1	6.02e-01	0	39	0	930086912	58	5251
2026-01-23 02:45:18.23	244.97	9.79	-44.0	-46.7	23.0	6.03e-01	0	39	0	932184064	58	5275
2026-01-23 02:45:19.37	244.85	9.71	-44.2	-47.0	22.8	6.02e-01	0	39	0	933756928	59	5115
2026-01-23 02:45:20.22	244.76	9.64	-44.2	-46.9	22.8	6.02e-01	0	39	0	935854080	59	5085
2026-01-23 02:45:21.49	244.62	9.54	-44.1	-46.8	22.9	6.04e-01	0	39	0	937951232	59	5001
2026-01-23 02:45:22.29	244.53	9.48	-44.2	-46.9	22.9	6.05e-01	0	39	0	939524096	59	5075
2026-01-23 02:45:23.43	244.41	9.39	-44.2	-46.9	22.9	6.04e-01	0	39	0	941621248	59	5075
2026-01-23 02:45:24.28	244.32	9.32	-44.1	-46.9	22.8	6.08e-01	0	39	0	943194112	59	5053
2026-01-23 02:45:25.41	244.20	9.24	-44.1	-46.8	22.9	6.02e-01	0	39	0	945291264	59	5037
2026-01-23 02:45:26.27	244.11	9.17	-44.1	-46.8	22.9	6.06e-01	0	39	0	946864128	59	5012
2026-01-23 02:45:27.41	244.00	9.08	-44.1	-46.8	22.9	6.04e-01	0	39	0	948961280	59	4998
2026-01-23 02:45:28.26	243.91	9.02	-44.1	-46.9	22.9	6.03e-01	0	39	0	950534144	59	5042
2026-01-23 02:45:29.39	243.79	8.93	-51.0	-70.5	3.9	7.48e-01	0	39	104	951582720	72	36496
2026-01-23 02:45:30.25	243.70	8.86	-51.1	-71.0	3.8	7.44e-01	0	39	104	951582720	72	38359
2026-01-23 02:45:31.38	243.59	8.78	-51.2	-71.3	3.8	7.48e-01	0	39	104	951582720	73	37634
2026-01-23 02:45:32.23	243.50	8.71	-51.1	-71.4	3.8	7.47e-01	0	39	104	951582720	73	38103
2026-01-23 02:45:33.37	243.39	8.63	-51.2	-71.5	3.8	7.48e-01	0	39	104	951582720	73	38484
2026-01-23 02:45:34.22	243.30	8.56	-51.0	-71.5	3.8	7.47e-01	0	39	104	951582720	73	38564
2026-01-23 02:45:35.39	243.19	8.47	-51.1	-71.6	3.8	7.48e-01	0	39	104	951582720	73	38748
2026-01-23 02:45:36.24	243.10	8.41	-51.5	-71.6	3.8	7.47e-01	0	39	104	951582720	73	38808
2026-01-23 02:45:37.44	242.99	8.32	-51.5	-71.6	3.8	7.45e-01	0	39	104	951582720	73	38871
2026-01-23 02:45:38.29	242.90	8.26	-51.5	-71.6	3.8	7.43e-01	0	39	104	951582720	73	38815
2026-01-23 02:45:39.49	242.79	8.17	-51.5	-71.6	3.8	7.43e-01	0	39	104	951582720	73	38790
2026-01-23 02:45:40.34	242.70	8.10	-51.4	-71.6	3.8	7.46e-01	0	39	104	951582720	73	38861
2026-01-23 02:45:41.52	242.59	8.02	-51.3	-71.6	3.8	7.41e-01	0	39	104	951582720	73	38853
2026-01-23 02:45:42.37	242.51	7.95	-51.0	-71.6	3.8	7.43e-01	0	39	104	951582720	73	38934
2026-01-23 02:45:43.60	242.39	7.86	-51.0	-71.6	3.8	7.43e-01	0	39	104	951582720	73	38890
2026-01-23 02:45:44.46	242.31	7.80	-51.1	-71.6	3.8	7.46e-01	0	39	104	951582720	73	38896
2026-01-23 02:45:45.66	242.20	7.71	-51.2	-71.6	3.8	7.48e-01	0	39	104	951582720	73	38841
2026-01-23 02:45:46.51	242.12	7.65	-51.2	-71.6	3.8	7.44e-01	0	39	104	951582720	73	38731
2026-01-23 02:45:47.71	242.01	7.56	-51.3	-71.6	3.8	7.49e-01	0	39	104	951582720	73	38746
2026-01-23 02:45:48.56	241.93	7.50	-51.3	-71.6	3.8	7.46e-01	0	39	104	951582720	73	38781
2026-01-23 02:45:49.69	241.83	7.41	-51.1	-71.6	3.8	7.44e-01	0	39	104	951582720	73	38731
2026-01-23 02:45:50.54	241.75	7.35	-50.9	-71.5	3.8	7.48e-01	0	39	104	951582720	73	38575
2026-01-23 02:45:51.68	241.65	7.27	-50.9	-71.5	3.8	7.43e-01	0	39	104	951582720	73	38540
2026-01-23 02:45:52.53	241.57	7.21	-50.9	-71.5	3.8	7.44e-01	0	39	104	951582720	73	38473
2026-01-23 02:45:53.67	241.47	7.12	-50.9	-71.5	3.8	7.46e-01	0	39	104	951582720	73	38520
2026-01-23 02:45:54.52	241.39	7.06	-50.8	-71.5	3.8	7.47e-01	0	39	104	951582720	73	38438
2026-01-23 02:45:55.65	241.29	6.98	-50.8	-71.5	3.8	7.46e-01	0	39	104	951582720	73	38416
2026-01-23 02:45:56.51	241.22	6.92	-50.8	-71.5	3.8	7.47e-01	0	39	104	951582720	73	38382
2026-01-23 02:45:57.64	241.12	6.84	-50.8	-71.5	3.8	7.48e-01	0	39	104	951582720	73	38319
2026-01-23 02:45:58.49	241.05	6.78	-50.8	-71.5	3.8	7.50e-01	0	39	104	951582720	73	38331
2026-01-23 02:45:59.63	240.95	6.70	-50.8	-71.5	3.8	7.46e-01	0	39	104	951582720	73	38390
2026-01-23 02:46:00.46	240.88	6.64	-50.8	-71.4	3.8	7.47e-01	0	39	104	951582720	73	38212
2026-01-23 02:46:01.59	240.78	6.56	-50.8	-71.5	3.8	7.47e-01	0	39	104	951582720	73	38290
2026-01-23 02:46:02.44	240.71	6.50	-50.8	-71.5	3.8	7.44e-01	0	39	104	951582720	73	38343
2026-01-23 02:46:03.58	240.61	6.42	-50.8	-71.5	3.8	7.45e-01	0	39	104	951582720	73	38318
2026-01-23 02:46:04.43	240.54	6.36	-50.8	-71.5	3.8	7.45e-01	0	39	104	951582720	73	38270
2026-01-23 02:46:05.56	240.44	6.28	-50.8	-71.4	3.8	7.48e-01	0	39	104	951582720	73	38197
2026-01-23 02:46:06.41	240.37	6.22	-50.8	-71.4	3.8	7.46e-01	0	39	104	951582720	73	38213
2026-01-23 02:46:07.55	240.28	6.14	-50.8	-71.5	3.8	7.46e-01	0	39	104	951582720	73	38283
2026-01-23 02:46:08.40	240.21	6.08	-50.8	-71.4	3.8	7.44e-01	0	39	104	951582720	73	38208
2026-01-23 02:46:09.54	240.11	6.00	-50.8	-71.4	3.8	7.43e-01	0	39	104	951582720	73	38235
2026-01-23 02:46:10.39	240.04	5.94	-50.8	-71.4	3.8	7.50e-01	0	39	104	951582720	73	38187
2026-01-23 02:46:11.52	239.95	5.86	-50.8	-71.5	3.8	7.48e-01	0	39	104	951582720	73	38250
2026-01-23 02:46:12.38	239.88	5.80	-50.8	-71.4	3.8	7.44e-01	0	39	104	951582720	73	38227
2026-01-23 02:46:13.51	239.79	5.72	-50.8	-71.5	3.8	7.48e-01	0	39	104	951582720	73	38247
2026-01-23 02:46:14.36	239.72	5.66	-50.8	-71.5	3.8	7.42e-01	0	39	104	951582720	73	38326
2026-01-23 02:46:15.50	239.63	5.58	-50.8	-71.4	3.8	7.46e-01	0	39	104	951582720	73	38242
2026-01-23 02:46:16.35	239.57	5.53	-50.8	-71.4	3.8	7.47e-01	0	39	104	951582720	73	38217
2026-01-23 02:46:17.49	239.48	5.45	-50.8	-71.5	3.8	7.43e-01	0	39	104	951582720	73	38319
2026-01-23 02:46:18.34	239.41	5.39	-50.8	-71.4	3.8	7.44e-01	0	39	104	951582720	73	38226
2026-01-23 02:46:19.47	239.32	5.31	-50.8	-71.5	3.8	7.44e-01	0	39	104	951582720	73	38286
2026-01-23 02:46:20.32	239.26	5.25	-50.8	-71.5	3.8	7.46e-01	0	39	104	951582720	73	38282
2026-01-23 02:46:21.46	239.17	5.18	-50.8	-71.5	3.8	7.48e-01	0	39	104	951582720	73	38287
2026-01-23 02:46:22.31	239.10	5.12	-50.8	-71.5	3.8	7.46e-01	0	39	104	951582720	73	38296
2026-01-23 02:46:23.44	239.02	5.04	-50.8	-71.5	3.8	7.46e-01	0	39	104	951582720	73	38370
2026-01-23 02:46:24.30	238.95	4.99	-50.8	-71.4	3.8	7.45e-01	0	39	104	951582720	73	38211
2026-01-23 02:46:25.43	238.87	4.91	-50.8	-71.5	3.8	7.45e-01	0	39	104	951582720	73	38282

#Closed at: 2026-01-23 02:46:26
#Recorded file [951 MB]: D:/Data/31040_260123_053616.dat