passes_logs/2026/01/23/T1/T1__20260123_093651_FENGYUN_3D_rec.log

#Pass ID: 20260123_093651_FENGYUN 3D
#Satellite: FENGYUN 3D
#Configuration: FENGYUN 3D
#almurnet v.1.7.20251203
#Start time: 2026-01-23 09:36:53

#Version: 2.0.20230620
#Station: T1
#Location: 37.570604 lon 55.790049 lat
#TLE: 1 43010U 17072A   26022.47411728  .00000617  00000+0  31375-3 0  9996
#TLE: 2 43010  98.9952 354.4060 0002481  95.7964 264.3494 14.19699924424319

#Time	Az	El	Level	Level2	SNR	BER	BlckErr	Temp	State	Recorded	gain1	gain2
2026-01-23 09:36:53.73	82.97	5.12	-48.9	-61.0	3.8	8.46e-01	0	37	0	0	69	14484
2026-01-23 09:36:54.71	82.86	5.16	-48.8	-61.0	3.8	8.45e-01	0	37	104	0	69	14414
2026-01-23 09:36:55.71	82.75	5.21	-48.8	-61.0	3.8	8.47e-01	0	37	104	0	69	14413
2026-01-23 09:36:56.70	82.64	5.26	-48.8	-60.9	3.8	8.47e-01	0	37	104	0	69	14369
2026-01-23 09:36:57.70	82.52	5.31	-48.8	-61.0	3.8	8.47e-01	0	37	104	0	69	14428
2026-01-23 09:36:58.69	82.41	5.35	-48.8	-61.0	3.8	8.47e-01	0	37	104	0	69	14457
2026-01-23 09:36:59.68	82.29	5.40	-48.8	-61.0	3.8	8.47e-01	0	37	104	0	69	14377
2026-01-23 09:37:00.68	82.18	5.45	-48.8	-61.0	3.8	8.47e-01	0	38	104	0	69	14396
2026-01-23 09:37:01.67	82.06	5.50	-48.8	-61.0	3.8	8.46e-01	0	37	104	0	69	14414
2026-01-23 09:37:02.67	81.95	5.55	-48.8	-60.9	3.8	8.46e-01	0	37	104	0	69	14356
2026-01-23 09:37:03.67	81.83	5.59	-48.8	-60.9	3.8	8.47e-01	0	38	104	0	69	14372
2026-01-23 09:37:04.66	81.72	5.64	-48.8	-61.0	3.8	8.47e-01	0	38	104	0	69	14385
2026-01-23 09:37:05.66	81.60	5.69	-48.8	-61.0	3.8	8.48e-01	0	38	104	0	69	14433
2026-01-23 09:37:06.65	81.48	5.74	-48.8	-61.0	3.8	8.46e-01	0	38	104	0	69	14442
2026-01-23 09:37:07.64	81.37	5.79	-48.8	-61.0	3.8	8.47e-01	0	38	104	0	69	14397
2026-01-23 09:37:08.64	81.25	5.83	-48.8	-61.0	3.8	8.46e-01	0	38	104	0	69	14380
2026-01-23 09:37:09.63	81.13	5.88	-48.8	-61.0	3.8	8.47e-01	0	38	104	0	69	14414
2026-01-23 09:37:10.63	81.01	5.93	-48.8	-61.0	3.8	8.45e-01	0	38	104	0	69	14415
2026-01-23 09:37:11.62	80.89	5.98	-48.8	-61.0	3.8	8.46e-01	0	38	104	0	69	14401
2026-01-23 09:37:12.61	80.77	6.02	-48.8	-61.0	3.8	8.46e-01	0	38	104	0	69	14383
2026-01-23 09:37:13.61	80.65	6.07	-48.8	-61.0	3.8	8.46e-01	0	38	104	0	69	14435
2026-01-23 09:37:14.60	80.53	6.12	-48.8	-61.0	3.8	8.47e-01	0	38	104	0	69	14386
2026-01-23 09:37:15.59	80.41	6.17	-48.8	-61.0	3.8	8.48e-01	0	38	104	0	69	14439
2026-01-23 09:37:16.59	80.29	6.21	-48.8	-61.0	3.8	8.47e-01	0	38	104	0	69	14464
2026-01-23 09:37:17.58	80.17	6.26	-48.8	-61.0	3.8	8.47e-01	0	38	104	0	69	14397
2026-01-23 09:37:18.57	80.05	6.31	-48.8	-60.9	3.8	8.47e-01	0	38	104	0	69	14354
2026-01-23 09:37:19.57	79.93	6.36	-48.8	-61.0	3.8	8.46e-01	0	38	104	0	69	14395
2026-01-23 09:37:20.57	79.80	6.40	-48.8	-60.9	3.8	8.46e-01	0	38	104	0	69	14343
2026-01-23 09:37:21.57	79.68	6.45	-48.8	-60.9	3.8	8.47e-01	0	38	104	0	69	14318
2026-01-23 09:37:22.57	79.55	6.50	-48.8	-60.9	3.8	8.48e-01	0	38	104	0	69	14280
2026-01-23 09:37:23.57	79.43	6.55	-48.8	-60.9	3.8	8.47e-01	0	38	104	0	69	14248
2026-01-23 09:37:24.57	79.30	6.59	-48.8	-60.9	3.8	8.47e-01	0	38	104	0	69	14260
2026-01-23 09:37:25.56	79.18	6.64	-48.8	-60.9	3.8	8.46e-01	0	38	104	0	69	14219
2026-01-23 09:37:26.56	79.05	6.69	-48.8	-60.8	3.8	8.46e-01	0	39	104	0	69	14185
2026-01-23 09:37:27.55	78.93	6.74	-48.8	-60.8	3.8	8.46e-01	0	38	104	0	69	14205
2026-01-23 09:37:28.55	78.80	6.78	-48.8	-60.8	3.8	8.47e-01	0	39	104	0	69	14167
2026-01-23 09:37:29.55	78.68	6.83	-48.8	-60.8	3.8	8.47e-01	0	38	104	0	69	14077
2026-01-23 09:37:30.54	78.55	6.88	-48.8	-60.8	3.8	8.47e-01	0	38	104	0	69	14055
2026-01-23 09:37:31.54	78.42	6.92	-48.8	-60.7	3.8	8.47e-01	0	39	104	0	69	13964
2026-01-23 09:37:32.54	78.29	6.97	-48.8	-60.7	3.8	8.47e-01	0	39	104	0	69	13962
2026-01-23 09:37:33.54	78.17	7.02	-48.8	-60.7	3.8	8.47e-01	0	39	104	0	69	13984
2026-01-23 09:37:34.54	78.04	7.07	-48.8	-60.7	3.8	8.46e-01	0	39	104	0	69	13999
2026-01-23 09:37:35.54	77.91	7.11	-48.8	-60.7	3.8	8.47e-01	0	39	104	0	69	14018
2026-01-23 09:37:36.54	77.78	7.16	-48.8	-60.7	3.8	8.46e-01	0	39	104	0	69	14010
2026-01-23 09:37:37.54	77.65	7.21	-48.8	-60.7	3.8	8.46e-01	0	39	104	0	69	13916
2026-01-23 09:37:38.54	77.52	7.25	-48.8	-60.6	3.8	8.46e-01	0	39	104	0	69	13794
2026-01-23 09:37:39.53	77.39	7.30	-48.8	-60.5	3.8	8.46e-01	0	39	104	0	69	13646
2026-01-23 09:37:40.53	77.25	7.35	-48.7	-60.4	3.8	8.47e-01	0	39	104	0	69	13496
2026-01-23 09:37:41.53	77.12	7.39	-48.7	-60.3	3.8	8.47e-01	0	39	104	0	69	13276
2026-01-23 09:37:42.52	76.99	7.44	-48.7	-60.2	3.8	8.47e-01	0	39	104	0	69	13235
2026-01-23 09:37:43.52	76.86	7.49	-48.7	-60.3	3.8	8.45e-01	0	39	104	0	69	13306
2026-01-23 09:37:44.52	76.72	7.53	-48.7	-60.4	3.8	8.46e-01	0	39	104	0	69	13485
2026-01-23 09:37:45.52	76.59	7.58	-48.8	-60.6	3.8	8.47e-01	0	39	104	0	69	13795
2026-01-23 09:37:46.52	76.46	7.63	-48.8	-60.7	3.8	8.47e-01	0	39	104	0	69	13952
2026-01-23 09:37:47.52	76.32	7.67	-48.8	-60.7	3.8	8.48e-01	0	39	104	0	69	13983
2026-01-23 09:37:48.52	76.19	7.72	-48.8	-60.7	3.8	8.48e-01	0	39	104	0	69	13890
2026-01-23 09:37:49.51	76.05	7.76	-48.8	-60.5	3.8	8.47e-01	0	39	104	0	69	13626
2026-01-23 09:37:50.51	75.92	7.81	-48.7	-60.1	3.8	8.47e-01	0	39	104	0	69	13053
2026-01-23 09:37:51.51	75.78	7.86	-48.7	-59.8	3.8	8.46e-01	0	39	104	0	69	12537
2026-01-23 09:37:52.51	75.64	7.90	-48.6	-59.4	3.8	8.46e-01	0	39	104	0	69	12082
2026-01-23 09:37:53.51	75.51	7.95	-48.6	-59.3	3.8	8.47e-01	0	39	104	0	69	11840
2026-01-23 09:37:54.50	75.37	7.99	-48.6	-59.3	3.8	8.45e-01	0	39	104	0	69	11844
2026-01-23 09:37:55.50	75.23	8.04	-48.7	-59.6	3.8	8.46e-01	0	39	104	0	69	12359
2026-01-23 09:37:56.50	75.09	8.08	-48.7	-60.1	3.8	8.46e-01	0	39	104	0	69	13019
2026-01-23 09:37:57.50	74.95	8.13	-48.7	-60.4	3.8	8.48e-01	0	39	104	0	69	13519
2026-01-23 09:37:58.49	74.81	8.17	-48.8	-60.5	3.8	8.46e-01	0	39	104	0	69	13695
2026-01-23 09:37:59.49	74.67	8.22	-48.7	-60.3	3.8	8.47e-01	0	39	104	0	69	13301
2026-01-23 09:38:00.49	74.53	8.27	-48.7	-59.6	3.8	8.47e-01	0	39	104	0	69	12367
2026-01-23 09:38:01.49	74.39	8.31	-48.5	-58.5	4.0	8.47e-01	0	39	104	0	69	10838
2026-01-23 09:38:02.48	74.25	8.36	-48.4	-57.6	4.2	8.44e-01	0	39	104	0	68	10341
2026-01-23 09:38:03.48	74.11	8.40	-48.4	-57.5	4.2	8.37e-01	0	39	0	0	68	10181
2026-01-23 09:38:04.48	73.97	8.45	-48.5	-58.7	3.8	8.44e-01	0	39	104	0	68	11744
2026-01-23 09:38:05.48	73.83	8.49	-48.8	-60.3	3.8	8.46e-01	0	39	104	0	68	14187
2026-01-23 09:38:06.48	73.68	8.54	-48.4	-57.5	4.2	8.46e-01	0	39	104	0	68	10285
2026-01-23 09:38:07.47	73.54	8.58	-46.6	-51.8	7.6	2.55e-01	0	39	0	2097152	65	6308
2026-01-23 09:38:08.47	73.40	8.62	-44.4	-47.8	11.9	5.74e-03	0	39	0	7340032	60	5281
2026-01-23 09:38:09.47	73.25	8.67	-42.3	-44.9	14.8	2.20e-06	0	39	0	13631488	56	4797
2026-01-23 09:38:10.47	73.11	8.71	-40.5	-42.8	16.7	0.00e+00	0	39	0	18874368	53	4455
2026-01-23 09:38:11.47	72.96	8.76	-39.5	-41.6	17.8	0.00e+00	0	39	0	24117248	51	4376
2026-01-23 09:38:12.46	72.82	8.80	-39.1	-41.1	18.3	0.00e+00	0	39	0	30408704	50	4391
2026-01-23 09:38:13.46	72.67	8.85	-39.2	-41.3	18.2	0.00e+00	0	39	0	35651584	50	4454
2026-01-23 09:38:14.46	72.53	8.89	-39.9	-42.0	17.5	0.00e+00	0	39	0	40894464	50	4860
2026-01-23 09:38:15.46	72.38	8.93	-41.1	-43.4	16.1	0.00e+00	0	39	0	47185920	52	5064
2026-01-23 09:38:16.46	72.23	8.98	-42.9	-45.7	14.0	0.00e+00	0	39	0	52428800	56	5224
2026-01-23 09:38:17.45	72.08	9.02	-44.3	-47.5	12.2	2.47e-04	0	39	0	58720256	59	5415
2026-01-23 09:38:18.45	71.94	9.07	-42.5	-45.1	14.6	8.12e-05	0	39	0	63963136	57	4613
2026-01-23 09:38:19.45	71.79	9.11	-42.9	-45.7	14.2	0.00e+00	0	39	0	69206016	56	5274
2026-01-23 09:38:20.45	71.64	9.15	-45.4	-49.2	10.1	6.73e-01	0	40	0	74448896	62	5586
2026-01-23 09:38:21.44	71.49	9.20	-40.0	-42.1	17.4	0.00e+00	0	39	0	79691776	51	4648
2026-01-23 09:38:22.44	71.34	9.24	-42.6	-45.2	13.9	1.27e-03	0	39	0	84934656	57	4679
2026-01-23 09:38:23.44	71.19	9.28	-40.0	-42.2	17.4	0.00e+00	0	39	0	91226112	51	4658
2026-01-23 09:38:24.43	71.04	9.32	-39.7	-41.8	17.7	0.00e+00	0	39	0	96468992	51	4488
2026-01-23 09:38:25.43	70.89	9.37	-39.3	-41.4	18.1	0.00e+00	0	39	0	101711872	50	4526
2026-01-23 09:38:26.43	70.74	9.41	-39.0	-41.0	18.4	0.00e+00	0	39	0	108003328	50	4332
2026-01-23 09:38:27.43	70.58	9.45	-38.8	-40.8	18.6	0.00e+00	0	39	0	113246208	49	4470
2026-01-23 09:38:28.43	70.43	9.50	-38.6	-40.6	18.8	0.00e+00	0	40	0	118489088	49	4367
2026-01-23 09:38:29.42	70.28	9.54	-38.6	-40.6	18.9	0.00e+00	0	39	0	124780544	49	4344
2026-01-23 09:38:30.42	70.12	9.58	-38.7	-40.7	18.8	0.00e+00	0	39	0	130023424	49	4399
2026-01-23 09:38:31.42	69.97	9.62	-38.6	-40.6	18.8	0.00e+00	0	39	0	135266304	49	4387
2026-01-23 09:38:32.42	69.82	9.66	-38.6	-40.6	18.9	0.00e+00	0	39	0	141557760	49	4353
2026-01-23 09:38:33.42	69.66	9.71	-38.5	-40.4	19.0	0.00e+00	0	39	0	146800640	48	4537
2026-01-23 09:38:34.41	69.51	9.75	-38.4	-40.3	19.1	0.00e+00	0	40	0	152043520	48	4491
2026-01-23 09:38:35.41	69.35	9.79	-38.3	-40.3	19.1	0.00e+00	0	40	0	158334976	48	4481
2026-01-23 09:38:36.41	69.19	9.83	-38.3	-40.3	19.1	0.00e+00	0	40	0	163577856	48	4481
2026-01-23 09:38:37.41	69.04	9.87	-38.3	-40.3	19.1	0.00e+00	0	39	0	168820736	48	4463
2026-01-23 09:38:38.41	68.88	9.91	-38.4	-40.3	19.1	0.00e+00	0	39	0	175112192	48	4490
2026-01-23 09:38:39.40	68.72	9.95	-38.3	-40.3	19.2	0.00e+00	0	40	0	180355072	48	4462
2026-01-23 09:38:40.40	68.56	9.99	-38.3	-40.3	19.2	0.00e+00	0	39	0	186646528	48	4464
2026-01-23 09:38:41.40	68.41	10.04	-38.3	-40.2	19.2	0.00e+00	0	40	0	191889408	48	4436
2026-01-23 09:38:42.40	68.25	10.08	-38.2	-40.1	19.4	0.00e+00	0	39	0	197132288	48	4367
2026-01-23 09:38:43.39	68.09	10.12	-38.1	-40.0	19.5	0.00e+00	0	39	0	203423744	48	4319
2026-01-23 09:38:44.39	67.93	10.16	-38.1	-40.0	19.4	0.00e+00	0	40	0	208666624	48	4339
2026-01-23 09:38:45.39	67.77	10.20	-38.2	-40.2	19.3	0.00e+00	0	40	0	213909504	48	4399
2026-01-23 09:38:46.39	67.61	10.24	-38.3	-40.2	19.3	0.00e+00	0	40	0	220200960	48	4432
2026-01-23 09:38:47.38	67.45	10.28	-38.3	-40.2	19.2	0.00e+00	0	40	0	225443840	48	4433
2026-01-23 09:38:48.38	67.28	10.32	-38.3	-40.2	19.2	0.00e+00	0	40	0	230686720	48	4437
2026-01-23 09:38:49.37	67.12	10.36	-38.2	-40.2	19.3	0.00e+00	0	40	0	236978176	48	4409
2026-01-23 09:38:50.37	66.96	10.40	-38.3	-40.3	19.2	0.00e+00	0	40	0	242221056	48	4452
2026-01-23 09:38:51.37	66.80	10.43	-38.2	-40.2	19.3	0.00e+00	0	40	0	247463936	48	4418
2026-01-23 09:38:52.36	66.64	10.47	-38.3	-40.2	19.2	0.00e+00	0	40	0	253755392	48	4441
2026-01-23 09:38:53.36	66.47	10.51	-38.3	-40.3	19.2	0.00e+00	0	40	0	258998272	48	4445
2026-01-23 09:38:54.36	66.31	10.55	-38.3	-40.3	19.2	0.00e+00	0	40	0	264241152	48	4468
2026-01-23 09:38:55.36	66.14	10.59	-38.3	-40.3	19.2	0.00e+00	0	40	0	270532608	48	4459
2026-01-23 09:38:56.36	65.98	10.63	-38.2	-40.2	19.3	0.00e+00	0	40	0	275775488	48	4408
2026-01-23 09:38:57.36	65.81	10.67	-38.2	-40.1	19.3	0.00e+00	0	40	0	281018368	48	4387
2026-01-23 09:38:58.35	65.65	10.70	-38.3	-40.2	19.2	0.00e+00	0	40	0	287309824	48	4435
2026-01-23 09:38:59.35	65.48	10.74	-38.4	-40.3	19.2	0.00e+00	0	40	0	292552704	48	4480
2026-01-23 09:39:00.35	65.31	10.78	-38.3	-40.3	19.2	0.00e+00	0	40	0	298844160	48	4458
2026-01-23 09:39:01.34	65.15	10.82	-38.3	-40.3	19.2	0.00e+00	0	40	0	304087040	48	4469
2026-01-23 09:39:02.34	64.98	10.86	-38.3	-40.2	19.3	0.00e+00	0	39	0	309329920	48	4432
2026-01-23 09:39:03.34	64.81	10.89	-38.2	-40.2	19.3	0.00e+00	0	40	0	315621376	48	4409
2026-01-23 09:39:04.34	64.64	10.93	-38.2	-40.1	19.4	0.00e+00	0	40	0	320864256	48	4380
2026-01-23 09:39:05.33	64.47	10.97	-38.0	-40.0	19.5	0.00e+00	0	40	0	326107136	48	4309
2026-01-23 09:39:06.33	64.30	11.00	-38.0	-39.9	19.6	0.00e+00	0	40	0	332398592	48	4262
2026-01-23 09:39:07.33	64.13	11.04	-38.0	-40.0	19.6	0.00e+00	0	40	0	337641472	48	4293
2026-01-23 09:39:08.33	63.96	11.08	-38.1	-40.0	19.5	0.00e+00	0	40	0	342884352	48	4336
2026-01-23 09:39:09.32	63.79	11.11	-38.0	-39.9	19.6	0.00e+00	0	40	0	349175808	48	4288
2026-01-23 09:39:10.32	63.62	11.15	-37.9	-39.8	19.5	0.00e+00	0	40	0	354418688	47	4484
2026-01-23 09:39:11.31	63.45	11.18	-37.8	-39.8	19.5	0.00e+00	0	40	0	359661568	47	4456
2026-01-23 09:39:12.30	63.28	11.22	-37.8	-39.8	19.5	0.00e+00	0	40	0	365953024	47	4444
2026-01-23 09:39:13.30	63.11	11.25	-37.8	-39.7	19.5	0.00e+00	0	40	0	371195904	47	4421
2026-01-23 09:39:14.30	62.93	11.29	-37.9	-39.9	19.4	0.00e+00	0	40	0	376438784	47	4503
2026-01-23 09:39:15.30	62.76	11.32	-38.0	-40.0	19.3	0.00e+00	0	40	0	382730240	47	4561
2026-01-23 09:39:16.29	62.59	11.36	-38.1	-40.1	19.2	0.00e+00	0	40	0	387973120	47	4621
2026-01-23 09:39:17.29	62.41	11.39	-38.2	-40.2	19.1	0.00e+00	0	40	0	394264576	47	4668
2026-01-23 09:39:18.29	62.24	11.43	-38.2	-40.3	19.1	0.00e+00	0	40	0	399507456	47	4710
2026-01-23 09:39:19.29	62.06	11.46	-38.1	-40.1	19.2	0.00e+00	0	40	0	404750336	47	4617
2026-01-23 09:39:20.29	61.89	11.49	-38.1	-40.1	19.2	0.00e+00	0	40	0	411041792	47	4639
2026-01-23 09:39:21.29	61.71	11.53	-38.0	-40.0	19.3	0.00e+00	0	40	0	416284672	47	4568
2026-01-23 09:39:22.28	61.54	11.56	-37.9	-39.9	19.4	0.00e+00	0	40	0	421527552	47	4494
2026-01-23 09:39:23.28	61.36	11.60	-37.8	-39.8	19.5	0.00e+00	0	40	0	427819008	47	4448
2026-01-23 09:39:24.28	61.18	11.63	-37.8	-39.8	19.5	0.00e+00	0	40	0	433061888	47	4444
2026-01-23 09:39:25.28	61.01	11.66	-37.9	-39.9	19.4	0.00e+00	0	40	0	438304768	47	4512
2026-01-23 09:39:26.27	60.83	11.69	-38.0	-40.0	19.3	0.00e+00	0	40	0	444596224	47	4556
2026-01-23 09:39:27.27	60.65	11.73	-37.8	-39.8	19.5	0.00e+00	0	40	0	449839104	47	4477
2026-01-23 09:39:28.27	60.47	11.76	-37.8	-39.8	19.5	0.00e+00	0	40	0	455081984	47	4455
2026-01-23 09:39:29.26	60.29	11.79	-37.9	-39.9	19.4	0.00e+00	0	40	0	461373440	47	4496
2026-01-23 09:39:30.26	60.11	11.82	-37.8	-39.7	19.6	0.00e+00	0	40	0	466616320	47	4424
2026-01-23 09:39:31.26	59.93	11.85	-37.8	-39.7	19.6	0.00e+00	0	40	0	471859200	47	4418
2026-01-23 09:39:32.25	59.76	11.88	-37.8	-39.7	19.6	0.00e+00	0	40	0	478150656	47	4409
2026-01-23 09:39:33.25	59.58	11.91	-37.8	-39.7	19.6	0.00e+00	0	40	0	483393536	47	4422
2026-01-23 09:39:34.25	59.39	11.95	-37.8	-39.7	19.6	0.00e+00	0	40	0	488636416	47	4434
2026-01-23 09:39:35.25	59.21	11.98	-37.8	-39.7	19.6	0.00e+00	0	40	0	494927872	47	4439
2026-01-23 09:39:36.24	59.03	12.01	-37.7	-39.7	19.6	0.00e+00	0	40	0	500170752	47	4410
2026-01-23 09:39:37.24	58.85	12.04	-37.6	-39.5	19.7	0.00e+00	0	40	0	506462208	47	4328
2026-01-23 09:39:38.23	58.67	12.07	-37.5	-39.4	19.9	0.00e+00	0	40	0	511705088	47	4267
2026-01-23 09:39:39.24	58.48	12.09	-37.6	-39.5	19.8	0.00e+00	0	40	0	516947968	46	4570
2026-01-23 09:39:40.23	58.30	12.12	-37.4	-39.3	19.9	0.00e+00	0	40	0	523239424	46	4491
2026-01-23 09:39:41.23	58.12	12.15	-37.4	-39.4	19.9	0.00e+00	0	40	0	528482304	46	4495
2026-01-23 09:39:42.23	57.93	12.18	-37.5	-39.4	19.9	0.00e+00	0	40	0	533725184	46	4506
2026-01-23 09:39:43.22	57.75	12.21	-37.5	-39.5	19.8	0.00e+00	0	40	0	538968064	46	4554
2026-01-23 09:39:44.22	57.57	12.24	-37.5	-39.4	19.9	0.00e+00	0	40	0	545259520	46	4512
2026-01-23 09:39:45.22	57.38	12.27	-37.4	-39.3	20.0	0.00e+00	0	40	0	550502400	46	4488
2026-01-23 09:39:46.21	57.20	12.29	-37.5	-39.4	19.9	0.00e+00	0	40	0	556793856	46	4505
2026-01-23 09:39:47.21	57.01	12.32	-37.6	-39.5	19.8	0.00e+00	0	40	0	562036736	46	4585
2026-01-23 09:39:48.20	56.83	12.35	-37.4	-39.3	20.0	0.00e+00	0	40	0	567279616	46	4480
2026-01-23 09:39:49.20	56.64	12.37	-37.4	-39.3	20.0	0.00e+00	0	40	0	573571072	46	4471
2026-01-23 09:39:50.20	56.45	12.40	-37.4	-39.3	20.0	0.00e+00	0	40	0	578813952	46	4480
2026-01-23 09:39:51.20	56.27	12.43	-37.5	-39.4	19.9	0.00e+00	0	40	0	584056832	46	4510
2026-01-23 09:39:52.20	56.08	12.45	-37.3	-39.2	20.1	0.00e+00	0	40	0	590348288	46	4429
2026-01-23 09:39:53.20	55.89	12.48	-37.3	-39.2	20.1	0.00e+00	0	40	0	595591168	46	4422
2026-01-23 09:39:54.19	55.71	12.51	-37.3	-39.2	20.1	0.00e+00	0	40	0	600834048	46	4393
2026-01-23 09:39:55.19	55.52	12.53	-37.2	-39.1	20.2	0.00e+00	0	40	0	607125504	46	4383
2026-01-23 09:39:56.18	55.33	12.56	-37.2	-39.1	20.1	0.00e+00	0	40	0	612368384	46	4379
2026-01-23 09:39:57.18	55.14	12.58	-37.3	-39.2	20.1	0.00e+00	0	40	0	618659840	46	4421
2026-01-23 09:39:58.18	54.95	12.60	-37.4	-39.3	20.0	0.00e+00	0	40	0	623902720	46	4493
2026-01-23 09:39:59.18	54.76	12.63	-37.5	-39.4	19.9	0.00e+00	0	40	0	629145600	46	4511
2026-01-23 09:40:00.18	54.57	12.65	-37.6	-39.5	19.8	0.00e+00	0	40	0	634388480	46	4562
2026-01-23 09:40:01.18	54.38	12.68	-37.6	-39.5	19.8	0.00e+00	0	40	0	640679936	46	4593
2026-01-23 09:40:02.17	54.19	12.70	-37.5	-39.4	19.9	0.00e+00	0	40	0	645922816	46	4520
2026-01-23 09:40:03.17	54.00	12.72	-37.5	-39.4	19.8	0.00e+00	0	40	0	651165696	46	4542
2026-01-23 09:40:04.17	53.81	12.75	-37.4	-39.3	20.0	0.00e+00	0	40	0	657457152	46	4461
2026-01-23 09:40:05.16	53.62	12.77	-37.3	-39.2	20.1	0.00e+00	0	40	0	662700032	46	4409
2026-01-23 09:40:06.16	53.43	12.79	-37.3	-39.3	20.1	0.00e+00	0	40	0	668991488	46	4442
2026-01-23 09:40:07.16	53.23	12.81	-37.3	-39.2	20.1	0.00e+00	0	40	0	674234368	46	4428
2026-01-23 09:40:08.15	53.04	12.83	-37.4	-39.3	20.0	0.00e+00	0	40	0	679477248	46	4456
2026-01-23 09:40:09.15	52.85	12.85	-37.4	-39.3	20.0	0.00e+00	0	40	0	685768704	46	4469
2026-01-23 09:40:10.14	52.66	12.88	-37.6	-39.4	20.3	0.00e+00	0	40	0	691011584	46	4533
2026-01-23 09:40:11.14	52.47	12.90	-37.5	-39.3	20.4	0.00e+00	0	40	0	696254464	46	4450
2026-01-23 09:40:12.13	52.27	12.92	-37.3	-39.0	20.6	0.00e+00	0	40	0	702545920	46	4336
2026-01-23 09:40:13.13	52.08	12.94	-37.2	-39.0	20.6	0.00e+00	0	40	0	707788800	46	4325
2026-01-23 09:40:14.13	51.89	12.96	-37.1	-38.9	20.7	0.00e+00	0	40	0	713031680	46	4265
2026-01-23 09:40:15.13	51.69	12.98	-37.2	-39.0	20.7	0.00e+00	0	40	0	719323136	46	4299
2026-01-23 09:40:16.12	51.50	12.99	-37.2	-39.0	20.7	0.00e+00	0	40	0	724566016	46	4310
2026-01-23 09:40:17.12	51.30	13.01	-37.3	-39.1	20.5	0.00e+00	0	40	0	729808896	46	4377
2026-01-23 09:40:18.12	51.11	13.03	-37.3	-39.1	20.6	0.00e+00	0	40	0	736100352	46	4360
2026-01-23 09:40:19.12	50.91	13.05	-37.4	-39.2	20.5	0.00e+00	0	40	0	741343232	46	4393
2026-01-23 09:40:20.12	50.72	13.07	-37.2	-39.0	20.7	0.00e+00	0	40	0	746586112	46	4321
2026-01-23 09:40:21.12	50.52	13.09	-37.2	-39.0	20.7	0.00e+00	0	40	0	752877568	46	4317
2026-01-23 09:40:22.11	50.33	13.10	-37.0	-38.8	20.9	0.00e+00	0	40	0	758120448	46	4196
2026-01-23 09:40:23.11	50.13	13.12	-36.9	-38.6	21.0	0.00e+00	0	40	0	763363328	45	4390
2026-01-23 09:40:24.10	49.94	13.14	-36.9	-38.6	21.0	0.00e+00	0	40	0	769654784	45	4370
2026-01-23 09:40:25.10	49.74	13.15	-36.9	-38.7	21.0	0.00e+00	0	40	0	774897664	45	4404
2026-01-23 09:40:26.10	49.54	13.17	-36.9	-38.7	20.9	0.00e+00	0	40	0	781189120	45	4420
2026-01-23 09:40:27.10	49.35	13.18	-36.9	-38.6	21.0	0.00e+00	0	40	0	786432000	45	4386
2026-01-23 09:40:28.10	49.15	13.20	-37.0	-38.7	20.9	0.00e+00	0	40	0	791674880	45	4428
2026-01-23 09:40:29.10	48.95	13.21	-36.9	-38.7	20.9	0.00e+00	0	40	0	797966336	45	4418
2026-01-23 09:40:30.10	48.75	13.23	-37.0	-38.8	20.9	0.00e+00	0	40	0	803209216	45	4454
2026-01-23 09:40:31.09	48.56	13.24	-37.1	-38.9	20.7	0.00e+00	0	40	0	808452096	45	4528
2026-01-23 09:40:32.09	48.36	13.26	-37.2	-38.9	20.7	0.00e+00	0	40	0	814743552	45	4540
2026-01-23 09:40:33.09	48.16	13.27	-37.3	-39.1	20.6	0.00e+00	0	40	0	819986432	45	4602
2026-01-23 09:40:34.09	47.96	13.28	-37.3	-39.1	20.6	0.00e+00	0	40	0	825229312	45	4614
2026-01-23 09:40:35.08	47.76	13.30	-37.3	-39.1	20.5	0.00e+00	0	40	0	831520768	45	4645
2026-01-23 09:40:36.08	47.57	13.31	-37.3	-39.2	20.5	0.00e+00	0	40	0	836763648	45	4652
2026-01-23 09:40:37.08	47.37	13.32	-37.3	-39.1	20.6	0.00e+00	0	40	0	842006528	45	4600
2026-01-23 09:40:38.08	47.17	13.33	-37.0	-38.8	20.9	0.00e+00	0	40	0	848297984	45	4463
2026-01-23 09:40:39.07	46.97	13.35	-37.0	-38.8	20.9	0.00e+00	0	40	0	853540864	45	4456
2026-01-23 09:40:40.07	46.77	13.36	-37.2	-39.0	20.7	0.00e+00	0	40	0	858783744	45	4552
2026-01-23 09:40:41.07	46.57	13.37	-37.2	-39.0	20.6	0.00e+00	0	40	0	865075200	45	4588
2026-01-23 09:40:42.06	46.37	13.38	-37.3	-39.1	20.6	0.00e+00	0	40	0	870318080	45	4615
2026-01-23 09:40:43.06	46.17	13.39	-37.2	-39.0	20.7	0.00e+00	0	40	0	876609536	45	4567
2026-01-23 09:40:44.06	45.97	13.40	-37.2	-39.0	20.6	0.00e+00	0	40	0	881852416	45	4587
2026-01-23 09:40:45.06	45.77	13.41	-37.3	-39.1	20.6	0.00e+00	0	40	0	887095296	45	4605
2026-01-23 09:40:46.06	45.57	13.42	-37.1	-38.9	20.7	0.00e+00	0	40	0	893386752	45	4522
2026-01-23 09:40:47.05	45.37	13.43	-37.1	-38.9	20.8	0.00e+00	0	40	0	898629632	45	4497
2026-01-23 09:40:48.05	45.17	13.44	-37.2	-38.9	20.7	0.00e+00	0	40	0	903872512	45	4544
2026-01-23 09:40:49.05	44.97	13.44	-37.1	-38.9	20.8	0.00e+00	0	40	0	910163968	45	4496
2026-01-23 09:40:50.04	44.77	13.45	-37.1	-38.9	20.8	0.00e+00	0	40	0	915406848	45	4496
2026-01-23 09:40:51.04	44.57	13.46	-37.2	-39.0	20.7	0.00e+00	0	40	0	920649728	45	4555
2026-01-23 09:40:52.04	44.37	13.47	-37.2	-39.0	20.6	0.00e+00	0	40	0	926941184	45	4588
2026-01-23 09:40:53.03	44.17	13.47	-37.3	-39.1	20.6	0.00e+00	0	40	0	932184064	45	4603
2026-01-23 09:40:54.03	43.97	13.48	-37.2	-38.9	20.7	0.00e+00	0	40	0	938475520	45	4535
2026-01-23 09:40:55.03	43.77	13.49	-37.2	-38.9	20.7	0.00e+00	0	40	0	943718400	45	4539
2026-01-23 09:40:56.02	43.57	13.49	-37.2	-39.0	20.7	0.00e+00	0	40	0	948961280	45	4546
2026-01-23 09:40:57.02	43.37	13.50	-37.2	-38.9	20.7	0.00e+00	0	40	0	954204160	45	4543
2026-01-23 09:40:58.01	43.17	13.50	-37.2	-39.0	20.7	0.00e+00	0	40	0	960495616	45	4547
2026-01-23 09:40:59.01	42.97	13.51	-37.1	-38.9	20.7	0.00e+00	0	40	0	965738496	45	4531
2026-01-23 09:41:00.00	42.77	13.51	-37.1	-38.9	20.8	0.00e+00	0	40	0	970981376	45	4507
2026-01-23 09:41:00.99	42.57	13.52	-37.2	-38.9	20.7	0.00e+00	0	40	0	977272832	45	4533
2026-01-23 09:41:01.99	42.37	13.52	-37.2	-39.0	20.7	0.00e+00	0	40	0	982515712	45	4555
2026-01-23 09:41:02.98	42.17	13.52	-37.2	-38.9	20.7	0.00e+00	0	40	0	988807168	45	4538
2026-01-23 09:41:03.98	41.96	13.53	-37.2	-39.0	20.7	0.00e+00	0	40	0	994050048	45	4564
2026-01-23 09:41:04.98	41.76	13.53	-37.3	-39.1	20.6	0.00e+00	0	40	0	999292928	45	4611
2026-01-23 09:41:05.98	41.56	13.53	-37.3	-39.1	20.6	0.00e+00	0	40	0	1005584384	45	4633
2026-01-23 09:41:06.97	41.36	13.53	-37.4	-39.2	20.5	0.00e+00	0	40	0	1010827264	45	4656
2026-01-23 09:41:07.97	41.16	13.54	-37.3	-39.1	20.6	0.00e+00	0	40	0	1016070144	45	4627
2026-01-23 09:41:08.97	40.96	13.54	-37.3	-39.1	20.6	0.00e+00	0	40	0	1021313024	45	4606
2026-01-23 09:41:09.97	40.75	13.54	-37.3	-39.1	20.6	0.00e+00	0	40	0	1027604480	45	4610
2026-01-23 09:41:10.97	40.55	13.54	-37.4	-39.2	20.5	0.00e+00	0	40	0	1032847360	45	4655
2026-01-23 09:41:11.96	40.35	13.54	-37.2	-38.9	20.7	0.00e+00	0	40	0	1039138816	45	4544
2026-01-23 09:41:12.96	40.15	13.54	-37.2	-38.9	20.7	0.00e+00	0	40	0	1044381696	45	4536
2026-01-23 09:41:13.96	39.95	13.54	-37.1	-38.9	20.7	0.00e+00	0	40	0	1049624576	45	4536
2026-01-23 09:41:14.96	39.75	13.54	-37.1	-38.9	20.7	0.00e+00	0	40	0	1055916032	45	4531
2026-01-23 09:41:15.96	39.54	13.54	-37.1	-38.9	20.8	0.00e+00	0	40	0	1061158912	45	4498
2026-01-23 09:41:16.95	39.34	13.54	-37.0	-38.7	20.9	0.00e+00	0	40	0	1066401792	45	4429
2026-01-23 09:41:17.95	39.14	13.53	-37.1	-38.9	20.8	0.00e+00	0	40	0	1072693248	45	4496
2026-01-23 09:41:18.95	38.94	13.53	-36.9	-38.7	21.0	0.00e+00	0	40	0	1077936128	45	4411
2026-01-23 09:41:19.95	38.74	13.53	-37.0	-38.7	21.0	0.00e+00	0	40	0	1083179008	45	4433
2026-01-23 09:41:20.94	38.54	13.53	-36.8	-38.6	21.1	0.00e+00	0	40	0	1089470464	45	4371
2026-01-23 09:41:21.94	38.34	13.52	-36.8	-38.5	21.1	0.00e+00	0	40	0	1094713344	45	4333
2026-01-23 09:41:22.94	38.13	13.52	-36.7	-38.4	21.2	0.00e+00	0	40	0	1101004800	45	4288
2026-01-23 09:41:23.94	37.93	13.52	-36.7	-38.4	21.2	0.00e+00	0	40	0	1106247680	45	4268
2026-01-23 09:41:24.94	37.73	13.51	-36.7	-38.4	21.2	0.00e+00	0	40	0	1111490560	45	4290
2026-01-23 09:41:25.94	37.53	13.51	-36.8	-38.6	21.1	0.00e+00	0	40	0	1117782016	45	4354
2026-01-23 09:41:26.93	37.33	13.50	-36.9	-38.6	21.0	0.00e+00	0	40	0	1123024896	45	4384
2026-01-23 09:41:27.93	37.13	13.50	-37.0	-38.8	20.9	0.00e+00	0	40	0	1128267776	45	4449
2026-01-23 09:41:28.93	36.93	13.49	-37.2	-39.0	20.7	0.00e+00	0	40	0	1134559232	45	4552
2026-01-23 09:41:29.93	36.72	13.49	-37.2	-39.0	20.6	0.00e+00	0	40	0	1139802112	45	4590
2026-01-23 09:41:30.93	36.52	13.48	-37.1	-38.9	20.7	0.00e+00	0	40	0	1145044992	45	4535
2026-01-23 09:41:31.93	36.32	13.47	-37.1	-38.9	20.8	0.00e+00	0	40	0	1151336448	45	4519
2026-01-23 09:41:32.93	36.12	13.47	-37.1	-38.9	20.8	0.00e+00	0	40	0	1156579328	45	4511
2026-01-23 09:41:33.92	35.92	13.46	-37.2	-39.0	20.6	0.00e+00	0	40	0	1161822208	45	4573
2026-01-23 09:41:34.92	35.72	13.45	-37.2	-39.0	20.7	0.00e+00	0	40	0	1168113664	45	4581
2026-01-23 09:41:35.92	35.52	13.44	-37.2	-39.0	20.6	0.00e+00	0	40	0	1173356544	45	4580
2026-01-23 09:41:36.91	35.32	13.43	-37.2	-39.0	20.6	0.00e+00	0	40	0	1178599424	45	4581
2026-01-23 09:41:37.91	35.12	13.43	-37.2	-39.0	20.7	0.00e+00	0	40	0	1184890880	45	4583
2026-01-23 09:41:38.91	34.92	13.42	-37.3	-39.1	20.6	0.00e+00	0	40	0	1190133760	45	4619
2026-01-23 09:41:39.90	34.72	13.41	-37.3	-39.1	20.6	0.00e+00	0	40	0	1195376640	45	4642
2026-01-23 09:41:40.90	34.52	13.40	-37.3	-39.1	20.6	0.00e+00	0	40	0	1201668096	45	4617
2026-01-23 09:41:41.90	34.32	13.39	-37.3	-39.1	20.6	0.00e+00	0	40	0	1206910976	45	4639
2026-01-23 09:41:42.89	34.13	13.38	-37.2	-39.0	20.7	0.00e+00	0	40	0	1213202432	45	4563
2026-01-23 09:41:43.89	33.93	13.37	-37.0	-38.7	21.0	0.00e+00	0	40	0	1218445312	45	4430
2026-01-23 09:41:44.89	33.73	13.36	-36.9	-38.6	21.0	0.00e+00	0	40	0	1223688192	45	4379
2026-01-23 09:41:45.88	33.53	13.34	-36.9	-38.6	21.1	0.00e+00	0	40	0	1229979648	45	4366
2026-01-23 09:41:46.88	33.33	13.33	-36.9	-38.6	21.0	0.00e+00	0	40	0	1235222528	45	4380
2026-01-23 09:41:47.88	33.13	13.32	-36.9	-38.7	21.0	0.00e+00	0	40	0	1240465408	45	4392
2026-01-23 09:41:48.88	32.93	13.31	-36.9	-38.6	21.0	0.00e+00	0	40	0	1246756864	45	4384
2026-01-23 09:41:49.88	32.73	13.30	-36.9	-38.7	21.0	0.00e+00	0	40	0	1251999744	45	4396
2026-01-23 09:41:50.87	32.54	13.28	-37.0	-38.8	20.9	0.00e+00	0	40	0	1257242624	45	4450
2026-01-23 09:41:51.87	32.34	13.27	-37.0	-38.8	20.9	0.00e+00	0	40	0	1263534080	45	4487
2026-01-23 09:41:52.87	32.14	13.25	-36.9	-38.7	20.9	0.00e+00	0	40	0	1268776960	45	4430
2026-01-23 09:41:53.87	31.94	13.24	-36.9	-38.7	21.0	0.00e+00	0	40	0	1274019840	45	4419
2026-01-23 09:41:54.86	31.75	13.23	-37.0	-38.8	20.9	0.00e+00	0	40	0	1280311296	45	4465
2026-01-23 09:41:55.86	31.55	13.21	-37.1	-38.9	20.8	0.00e+00	0	40	0	1285554176	45	4495
2026-01-23 09:41:56.86	31.35	13.20	-37.2	-39.0	20.7	0.00e+00	0	40	0	1290797056	45	4550
2026-01-23 09:41:57.86	31.15	13.18	-37.2	-39.0	20.7	0.00e+00	0	40	0	1297088512	45	4577
2026-01-23 09:41:58.86	30.96	13.17	-37.2	-39.0	20.7	0.00e+00	0	40	0	1302331392	45	4579
2026-01-23 09:41:59.86	30.76	13.15	-37.2	-39.0	20.7	0.00e+00	0	40	0	1307574272	45	4598
2026-01-23 09:42:00.85	30.57	13.13	-37.3	-39.1	20.6	0.00e+00	0	40	0	1313865728	45	4606
2026-01-23 09:42:01.85	30.37	13.12	-37.1	-38.9	20.8	0.00e+00	0	40	0	1319108608	45	4539
2026-01-23 09:42:02.85	30.17	13.10	-37.2	-38.9	20.7	0.00e+00	0	40	0	1325400064	45	4537
2026-01-23 09:42:03.85	29.98	13.08	-37.1	-38.9	20.8	0.00e+00	0	40	0	1330642944	45	4524
2026-01-23 09:42:04.85	29.78	13.06	-37.2	-38.9	20.7	0.00e+00	0	40	0	1335885824	45	4540
2026-01-23 09:42:05.85	29.59	13.05	-37.1	-38.9	20.8	0.00e+00	0	40	0	1342177280	45	4538
2026-01-23 09:42:06.85	29.39	13.03	-37.1	-38.9	20.7	0.00e+00	0	40	0	1347420160	45	4541
2026-01-23 09:42:07.84	29.20	13.01	-37.1	-38.9	20.8	0.00e+00	0	40	0	1352663040	45	4527
2026-01-23 09:42:08.84	29.00	12.99	-37.0	-38.8	20.9	0.00e+00	0	40	0	1358954496	45	4488
2026-01-23 09:42:09.84	28.81	12.97	-37.1	-38.9	20.8	0.00e+00	0	40	0	1364197376	45	4526
2026-01-23 09:42:10.84	28.62	12.95	-37.1	-38.9	20.8	0.00e+00	0	40	0	1369440256	45	4524
2026-01-23 09:42:11.84	28.42	12.93	-37.1	-38.9	20.8	0.00e+00	0	40	0	1375731712	45	4527
2026-01-23 09:42:12.83	28.23	12.91	-37.2	-39.0	20.7	0.00e+00	0	40	0	1380974592	45	4577
2026-01-23 09:42:13.83	28.04	12.89	-37.1	-38.9	20.7	0.00e+00	0	40	0	1387266048	45	4534
2026-01-23 09:42:14.83	27.84	12.87	-37.1	-38.9	20.8	0.00e+00	0	40	0	1392508928	45	4534
2026-01-23 09:42:15.83	27.65	12.85	-37.1	-38.9	20.8	0.00e+00	0	40	0	1397751808	45	4517
2026-01-23 09:42:16.83	27.46	12.83	-37.1	-39.0	20.7	0.00e+00	0	40	0	1404043264	45	4557
2026-01-23 09:42:17.83	27.27	12.81	-37.3	-39.2	20.5	0.00e+00	0	40	0	1409286144	45	4656
2026-01-23 09:42:18.83	27.07	12.79	-37.3	-39.1	20.6	0.00e+00	0	40	0	1414529024	45	4648
2026-01-23 09:42:19.83	26.88	12.76	-37.4	-39.3	20.5	0.00e+00	0	40	0	1420820480	45	4716
2026-01-23 09:42:20.82	26.69	12.74	-37.5	-39.3	20.3	0.00e+00	0	40	0	1426063360	45	4757
2026-01-23 09:42:21.82	26.50	12.72	-37.6	-39.5	20.3	0.00e+00	0	40	0	1431306240	45	4823
2026-01-23 09:42:22.82	26.31	12.70	-37.6	-39.4	20.3	0.00e+00	0	40	0	1437597696	45	4790
2026-01-23 09:42:23.82	26.12	12.67	-37.6	-39.4	20.3	0.00e+00	0	40	0	1442840576	45	4778
2026-01-23 09:42:24.82	25.93	12.65	-37.6	-39.5	20.2	0.00e+00	0	40	0	1448083456	45	4832
2026-01-23 09:42:25.81	25.74	12.62	-37.7	-39.5	20.2	0.00e+00	0	40	0	1454374912	46	4588
2026-01-23 09:42:26.82	25.55	12.60	-37.7	-39.6	20.2	0.00e+00	0	40	0	1459617792	46	4619
2026-01-23 09:42:27.81	25.37	12.58	-37.8	-39.7	20.1	0.00e+00	0	40	0	1464860672	46	4663
2026-01-23 09:42:28.81	25.18	12.55	-37.8	-39.7	20.0	0.00e+00	0	40	0	1471152128	46	4690
2026-01-23 09:42:29.81	24.99	12.53	-37.8	-39.7	20.0	0.00e+00	0	40	0	1476395008	46	4671
2026-01-23 09:42:30.81	24.80	12.50	-37.8	-39.7	20.1	0.00e+00	0	40	0	1482686464	46	4658
2026-01-23 09:42:31.81	24.61	12.47	-37.8	-39.6	20.1	0.00e+00	0	40	0	1487929344	46	4637
2026-01-23 09:42:32.81	24.42	12.45	-37.7	-39.5	20.2	0.00e+00	0	40	0	1493172224	46	4570
2026-01-23 09:42:33.80	24.24	12.42	-37.7	-39.5	20.2	0.00e+00	0	40	0	1499463680	46	4597
2026-01-23 09:42:34.80	24.05	12.40	-37.7	-39.6	20.2	0.00e+00	0	40	0	1504706560	46	4601
2026-01-23 09:42:35.80	23.87	12.37	-37.8	-39.7	20.1	0.00e+00	0	40	0	1509949440	46	4659
2026-01-23 09:42:36.80	23.68	12.34	-37.9	-39.8	20.0	0.00e+00	0	40	0	1516240896	46	4707
2026-01-23 09:42:37.80	23.49	12.32	-37.7	-39.6	20.2	0.00e+00	0	40	0	1521483776	46	4601
2026-01-23 09:42:38.79	23.31	12.29	-37.7	-39.5	20.2	0.00e+00	0	40	0	1526726656	46	4585
2026-01-23 09:42:39.79	23.13	12.26	-37.7	-39.5	20.2	0.00e+00	0	40	0	1533018112	46	4586
2026-01-23 09:42:40.79	22.94	12.23	-37.8	-39.6	20.1	0.00e+00	0	40	0	1538260992	46	4641
2026-01-23 09:42:41.79	22.76	12.20	-37.7	-39.5	20.3	0.00e+00	0	40	0	1544552448	46	4551
2026-01-23 09:42:42.79	22.57	12.18	-37.6	-39.4	20.3	0.00e+00	0	40	0	1549795328	46	4517
2026-01-23 09:42:43.79	22.39	12.15	-37.6	-39.4	20.3	0.00e+00	0	40	0	1555038208	46	4543
2026-01-23 09:42:44.78	22.21	12.12	-37.6	-39.4	20.3	0.00e+00	0	40	0	1561329664	46	4543
2026-01-23 09:42:45.78	22.03	12.09	-37.6	-39.4	20.3	0.00e+00	0	40	0	1566572544	46	4536
2026-01-23 09:42:46.78	21.84	12.06	-37.5	-39.4	20.3	0.00e+00	0	40	0	1571815424	46	4528
2026-01-23 09:42:47.78	21.66	12.03	-37.5	-39.4	20.3	0.00e+00	0	40	0	1578106880	46	4544
2026-01-23 09:42:48.78	21.48	12.00	-37.5	-39.5	20.2	0.00e+00	0	40	0	1583349760	46	4554
2026-01-23 09:42:49.78	21.30	11.97	-37.6	-39.6	20.1	0.00e+00	0	40	0	1588592640	46	4615
2026-01-23 09:42:50.78	21.12	11.94	-37.7	-39.7	20.0	0.00e+00	0	40	0	1594884096	46	4675
2026-01-23 09:42:51.78	20.94	11.91	-37.8	-39.8	19.9	0.00e+00	0	40	0	1600126976	46	4721
2026-01-23 09:42:52.77	20.76	11.88	-37.9	-39.8	19.9	0.00e+00	0	40	0	1605369856	46	4755
2026-01-23 09:42:53.77	20.58	11.85	-38.0	-40.0	19.8	0.00e+00	0	40	0	1611661312	46	4820
2026-01-23 09:42:54.77	20.40	11.81	-37.9	-39.9	19.8	0.00e+00	0	40	0	1616904192	46	4797
2026-01-23 09:42:55.77	20.22	11.78	-38.0	-40.0	19.7	0.00e+00	0	40	0	1622147072	46	4828
2026-01-23 09:42:56.77	20.04	11.75	-37.9	-39.9	19.8	0.00e+00	0	40	0	1628438528	46	4795
2026-01-23 09:42:57.77	19.86	11.72	-37.9	-39.9	19.8	0.00e+00	0	41	0	1633681408	46	4785
2026-01-23 09:42:58.76	19.69	11.69	-38.0	-39.9	19.8	0.00e+00	0	40	0	1638924288	46	4789
2026-01-23 09:42:59.76	19.51	11.65	-37.9	-39.8	19.9	0.00e+00	0	40	0	1645215744	46	4732
2026-01-23 09:43:00.75	19.33	11.62	-37.7	-39.6	20.1	0.00e+00	0	40	0	1650458624	46	4634
2026-01-23 09:43:01.75	19.16	11.59	-37.8	-39.7	20.0	0.00e+00	0	40	0	1656750080	46	4671
2026-01-23 09:43:02.75	18.98	11.56	-37.7	-39.5	20.2	0.00e+00	0	40	0	1661992960	46	4593
2026-01-23 09:43:03.75	18.81	11.52	-37.8	-39.6	20.1	0.00e+00	0	40	0	1667235840	46	4646
2026-01-23 09:43:04.75	18.63	11.49	-37.8	-39.6	20.1	0.00e+00	0	40	0	1673527296	46	4636
2026-01-23 09:43:05.74	18.46	11.45	-37.8	-39.6	20.1	0.00e+00	0	40	0	1678770176	46	4624
2026-01-23 09:43:06.74	18.28	11.42	-37.8	-39.6	20.1	0.00e+00	0	40	0	1684013056	46	4634
2026-01-23 09:43:07.74	18.11	11.39	-37.8	-39.6	20.1	0.00e+00	0	40	0	1690304512	46	4633
2026-01-23 09:43:08.74	17.93	11.35	-37.8	-39.6	20.1	0.00e+00	0	40	0	1695547392	46	4629
2026-01-23 09:43:09.74	17.76	11.32	-37.8	-39.6	20.1	0.00e+00	0	40	0	1700790272	46	4648
2026-01-23 09:43:10.73	17.59	11.28	-37.9	-39.7	20.0	0.00e+00	0	40	0	1707081728	46	4679
2026-01-23 09:43:11.73	17.42	11.25	-38.0	-39.9	19.9	0.00e+00	0	40	0	1712324608	46	4776
2026-01-23 09:43:12.73	17.25	11.21	-38.0	-39.9	19.8	0.00e+00	0	40	0	1718616064	46	4776
2026-01-23 09:43:13.72	17.08	11.18	-38.0	-39.9	19.8	0.00e+00	0	40	0	1723858944	46	4806
2026-01-23 09:43:14.72	16.90	11.14	-37.9	-39.9	19.8	0.00e+00	0	40	0	1729101824	46	4780
2026-01-23 09:43:15.72	16.73	11.10	-37.9	-39.9	19.8	0.00e+00	0	40	0	1734344704	46	4760
2026-01-23 09:43:16.71	16.56	11.07	-37.8	-39.8	19.9	0.00e+00	0	40	0	1740636160	46	4727
2026-01-23 09:43:17.71	16.39	11.03	-37.8	-39.8	19.9	0.00e+00	0	40	0	1745879040	46	4751
2026-01-23 09:43:18.71	16.23	11.00	-37.8	-39.8	19.9	0.00e+00	0	40	0	1751121920	46	4728
2026-01-23 09:43:19.71	16.06	10.96	-37.8	-39.8	19.9	0.00e+00	0	40	0	1757413376	46	4736
2026-01-23 09:43:20.71	15.89	10.92	-37.8	-39.8	19.9	0.00e+00	0	40	0	1762656256	46	4741
2026-01-23 09:43:21.71	15.72	10.89	-37.8	-39.8	19.8	0.00e+00	0	40	0	1768947712	46	4756
2026-01-23 09:43:22.71	15.55	10.85	-37.9	-39.9	19.8	0.00e+00	0	40	0	1774190592	46	4803
2026-01-23 09:43:23.70	15.39	10.81	-37.9	-39.9	19.8	0.00e+00	0	40	0	1779433472	46	4765
2026-01-23 09:43:24.70	15.22	10.77	-37.9	-39.9	19.8	0.00e+00	0	40	0	1785724928	46	4805
2026-01-23 09:43:25.70	15.05	10.74	-37.9	-39.9	19.8	0.00e+00	0	40	0	1790967808	46	4789
2026-01-23 09:43:26.70	14.89	10.70	-38.0	-39.9	19.8	0.00e+00	0	40	0	1796210688	46	4806
2026-01-23 09:43:27.70	14.72	10.66	-38.1	-40.1	19.6	0.00e+00	0	40	0	1802502144	46	4887
2026-01-23 09:43:28.69	14.56	10.62	-38.2	-40.1	19.6	0.00e+00	0	41	0	1807745024	46	4925
2026-01-23 09:43:29.69	14.39	10.58	-38.2	-40.2	19.5	0.00e+00	0	41	0	1812987904	47	4697
2026-01-23 09:43:30.69	14.23	10.54	-38.3	-40.2	19.5	0.00e+00	0	40	0	1819279360	47	4687
2026-01-23 09:43:31.69	14.06	10.51	-38.3	-40.2	19.5	0.00e+00	0	40	0	1824522240	47	4686
2026-01-23 09:43:32.69	13.90	10.47	-38.3	-40.3	19.4	0.00e+00	0	40	0	1830813696	47	4721
2026-01-23 09:43:33.68	13.74	10.43	-38.2	-40.1	19.6	0.00e+00	0	40	0	1836056576	47	4636
2026-01-23 09:43:34.68	13.58	10.39	-38.0	-39.9	19.7	0.00e+00	0	40	0	1841299456	47	4524
2026-01-23 09:43:35.68	13.42	10.35	-38.0	-39.9	19.8	0.00e+00	0	40	0	1847590912	47	4520
2026-01-23 09:43:36.68	13.25	10.31	-38.1	-39.9	19.7	0.00e+00	0	40	0	1852833792	47	4544
2026-01-23 09:43:37.67	13.09	10.27	-38.1	-40.0	19.7	0.00e+00	0	40	0	1858076672	47	4577
2026-01-23 09:43:38.67	12.93	10.23	-38.2	-40.1	19.5	0.00e+00	0	40	0	1863319552	47	4636
2026-01-23 09:43:39.67	12.77	10.19	-38.2	-40.1	19.5	0.00e+00	0	40	0	1869611008	47	4651
2026-01-23 09:43:40.67	12.61	10.15	-38.3	-40.2	19.5	0.00e+00	0	40	0	1874853888	47	4684
2026-01-23 09:43:41.67	12.45	10.11	-38.2	-40.2	19.5	0.00e+00	0	40	0	1881145344	47	4653
2026-01-23 09:43:42.66	12.30	10.07	-38.1	-40.1	19.6	0.00e+00	0	40	0	1886388224	47	4616
2026-01-23 09:43:43.66	12.14	10.03	-38.2	-40.2	19.5	0.00e+00	0	40	0	1891631104	47	4676
2026-01-23 09:43:44.65	11.98	9.99	-38.2	-40.2	19.5	0.00e+00	0	40	0	1897922560	47	4694
2026-01-23 09:43:45.65	11.82	9.95	-38.2	-40.3	19.4	0.00e+00	0	40	0	1903165440	47	4714
2026-01-23 09:43:46.65	11.67	9.91	-38.2	-40.3	19.3	0.00e+00	0	40	0	1908408320	47	4743
2026-01-23 09:43:47.65	11.51	9.87	-38.3	-40.5	19.2	0.00e+00	0	40	0	1914699776	47	4844
2026-01-23 09:43:48.65	11.35	9.82	-38.2	-40.4	19.3	0.00e+00	0	41	0	1919942656	47	4778
2026-01-23 09:43:49.64	11.20	9.78	-38.2	-40.4	19.3	0.00e+00	0	40	0	1925185536	47	4771
2026-01-23 09:43:50.64	11.05	9.74	-38.2	-40.4	19.3	0.00e+00	0	40	0	1931476992	47	4772
2026-01-23 09:43:51.64	10.89	9.70	-38.1	-40.3	19.4	0.00e+00	0	40	0	1936719872	47	4743
2026-01-23 09:43:52.64	10.74	9.66	-38.2	-40.5	19.2	0.00e+00	0	40	0	1943011328	47	4822
2026-01-23 09:43:53.64	10.58	9.62	-38.2	-40.5	19.2	0.00e+00	0	40	0	1948254208	47	4827
2026-01-23 09:43:54.63	10.43	9.57	-38.3	-40.6	19.1	0.00e+00	0	40	0	1953497088	47	4904
2026-01-23 09:43:55.63	10.28	9.53	-38.3	-40.7	19.0	0.00e+00	0	40	0	1959788544	47	4949
2026-01-23 09:43:56.63	10.12	9.49	-38.4	-40.8	18.9	0.00e+00	0	40	0	1965031424	47	5012
2026-01-23 09:43:57.63	9.97	9.45	-38.3	-40.8	18.9	0.00e+00	0	40	0	1970274304	47	5003
2026-01-23 09:43:58.63	9.82	9.40	-38.2	-40.7	19.0	0.00e+00	0	41	0	1976565760	47	4937
2026-01-23 09:43:59.63	9.67	9.36	-38.2	-40.6	19.0	0.00e+00	0	41	0	1981808640	47	4922
2026-01-23 09:44:00.63	9.52	9.32	-38.2	-40.5	19.1	0.00e+00	0	40	0	1987051520	47	4850
2026-01-23 09:44:01.62	9.37	9.28	-38.1	-40.5	19.2	0.00e+00	0	40	0	1993342976	47	4842
2026-01-23 09:44:02.62	9.22	9.23	-38.1	-40.5	19.2	0.00e+00	0	41	0	1998585856	47	4831
2026-01-23 09:44:03.62	9.07	9.19	-38.2	-40.6	19.1	0.00e+00	0	40	0	2003828736	47	4877
2026-01-23 09:44:04.61	8.92	9.15	-38.2	-40.5	19.1	0.00e+00	0	40	0	2010120192	47	4859
2026-01-23 09:44:05.61	8.77	9.10	-38.4	-40.7	19.0	0.00e+00	0	41	0	2015363072	47	4940
2026-01-23 09:44:06.61	8.63	9.06	-38.4	-40.6	19.1	0.00e+00	0	40	0	2020605952	47	4899
2026-01-23 09:44:07.60	8.48	9.02	-39.5	-41.9	18.2	0.00e+00	0	40	0	2026897408	49	5044
2026-01-23 09:44:08.60	8.33	8.97	-47.0	-61.1	3.8	8.43e-01	0	40	104	2028994560	64	19517
2026-01-23 09:44:09.60	8.19	8.93	-47.8	-61.1	3.8	8.46e-01	0	40	104	2028994560	66	17375
2026-01-23 09:44:10.60	8.04	8.88	-48.0	-61.4	3.8	8.47e-01	0	40	104	2028994560	67	17076
2026-01-23 09:44:11.60	7.89	8.84	-49.4	-61.6	3.8	8.47e-01	0	40	104	2028994560	69	15520
2026-01-23 09:44:12.59	7.75	8.80	-49.2	-61.7	3.8	8.47e-01	0	40	104	2028994560	69	15608
2026-01-23 09:44:13.59	7.61	8.75	-49.3	-61.7	3.8	8.46e-01	0	41	104	2028994560	69	15748
2026-01-23 09:44:14.59	7.46	8.71	-49.2	-61.8	3.8	8.47e-01	0	40	104	2028994560	69	15826
2026-01-23 09:44:15.59	7.32	8.66	-49.6	-61.8	3.8	8.47e-01	0	41	104	2028994560	69	15918
2026-01-23 09:44:16.59	7.17	8.62	-49.4	-61.9	3.8	8.48e-01	0	40	104	2028994560	69	15944
2026-01-23 09:44:17.59	7.03	8.57	-49.4	-61.9	3.8	8.48e-01	0	41	104	2028994560	69	16009
2026-01-23 09:44:18.59	6.89	8.53	-49.6	-61.9	3.8	8.47e-01	0	41	104	2028994560	69	16033
2026-01-23 09:44:19.59	6.75	8.49	-49.7	-61.9	3.9	8.48e-01	0	40	104	2028994560	70	15151
2026-01-23 09:44:20.59	6.60	8.44	-49.8	-61.9	3.8	8.47e-01	0	40	104	2028994560	70	15165
2026-01-23 09:44:21.58	6.46	8.40	-49.7	-61.9	3.8	8.46e-01	0	41	104	2028994560	70	15197
2026-01-23 09:44:22.58	6.32	8.35	-49.6	-61.9	3.8	8.46e-01	0	40	104	2028994560	70	15164
2026-01-23 09:44:23.58	6.18	8.31	-49.7	-61.9	3.8	8.47e-01	0	41	104	2028994560	70	15138
2026-01-23 09:44:24.58	6.04	8.26	-49.6	-61.9	3.8	8.48e-01	0	41	104	2028994560	70	15160
2026-01-23 09:44:25.57	5.90	8.22	-49.5	-61.9	3.8	8.47e-01	0	41	104	2028994560	70	15095
2026-01-23 09:44:26.57	5.77	8.17	-49.7	-61.9	3.8	8.46e-01	0	40	104	2028994560	70	15134
2026-01-23 09:44:27.57	5.63	8.12	-49.8	-61.9	3.8	8.46e-01	0	41	104	2028994560	70	15082
2026-01-23 09:44:28.57	5.49	8.08	-49.8	-61.9	3.8	8.48e-01	0	40	104	2028994560	70	15062
2026-01-23 09:44:29.57	5.35	8.03	-49.8	-61.9	3.8	8.48e-01	0	40	104	2028994560	70	15082
2026-01-23 09:44:30.56	5.22	7.99	-49.8	-61.9	3.8	8.48e-01	0	41	104	2028994560	70	15057
2026-01-23 09:44:31.56	5.08	7.94	-49.7	-61.8	3.8	8.47e-01	0	40	104	2028994560	70	15012
2026-01-23 09:44:32.56	4.94	7.90	-49.7	-61.8	3.8	8.46e-01	0	41	104	2028994560	70	14974
2026-01-23 09:44:33.56	4.81	7.85	-49.6	-61.9	3.8	8.47e-01	0	40	104	2028994560	70	15056
2026-01-23 09:44:34.55	4.67	7.81	-49.6	-61.8	3.8	8.47e-01	0	40	104	2028994560	70	14972
2026-01-23 09:44:35.55	4.54	7.76	-49.5	-61.8	3.8	8.46e-01	0	40	104	2028994560	70	14919
2026-01-23 09:44:36.55	4.40	7.71	-49.5	-61.8	3.8	8.48e-01	0	40	104	2028994560	70	14899
2026-01-23 09:44:37.55	4.27	7.67	-49.5	-61.8	3.8	8.48e-01	0	40	104	2028994560	70	14976
2026-01-23 09:44:38.55	4.13	7.62	-49.5	-61.8	3.8	8.47e-01	0	40	104	2028994560	70	14918
2026-01-23 09:44:39.55	4.00	7.57	-49.5	-61.8	3.8	8.47e-01	0	41	104	2028994560	70	14892
2026-01-23 09:44:40.55	3.87	7.53	-49.5	-61.8	3.8	8.48e-01	0	40	104	2028994560	70	14919
2026-01-23 09:44:41.54	3.74	7.48	-49.5	-61.8	3.8	8.47e-01	0	41	104	2028994560	70	14889
2026-01-23 09:44:42.55	3.60	7.44	-49.5	-61.8	3.8	8.46e-01	0	40	104	2028994560	70	14918
2026-01-23 09:44:43.54	3.47	7.39	-49.5	-61.8	3.8	8.47e-01	0	41	104	2028994560	70	14885
2026-01-23 09:44:44.54	3.34	7.34	-49.5	-61.8	3.8	8.47e-01	0	41	104	2028994560	70	14913
2026-01-23 09:44:45.54	3.21	7.30	-49.5	-61.7	3.8	8.47e-01	0	41	104	2028994560	70	14847
2026-01-23 09:44:46.54	3.08	7.25	-49.5	-61.7	3.8	8.47e-01	0	40	104	2028994560	70	14853
2026-01-23 09:44:47.54	2.95	7.20	-49.5	-61.7	3.8	8.46e-01	0	41	104	2028994560	70	14827
2026-01-23 09:44:48.54	2.82	7.16	-49.5	-61.7	3.8	8.48e-01	0	41	104	2028994560	70	14874
2026-01-23 09:44:49.53	2.69	7.11	-49.5	-61.7	3.8	8.47e-01	0	40	104	2028994560	70	14848
2026-01-23 09:44:50.53	2.56	7.06	-49.5	-61.7	3.8	8.48e-01	0	41	104	2028994560	70	14831
2026-01-23 09:44:51.53	2.44	7.02	-49.5	-61.7	3.8	8.47e-01	0	41	104	2028994560	70	14870
2026-01-23 09:44:52.53	2.31	6.97	-49.5	-61.7	3.8	8.46e-01	0	40	104	2028994560	70	14850
2026-01-23 09:44:53.53	2.18	6.92	-49.5	-61.7	3.8	8.48e-01	0	40	104	2028994560	70	14859
2026-01-23 09:44:54.53	2.05	6.87	-49.5	-61.7	3.8	8.47e-01	0	40	104	2028994560	70	14844
2026-01-23 09:44:55.53	1.93	6.83	-49.4	-61.8	3.8	8.47e-01	0	41	104	2028994560	70	14901
2026-01-23 09:44:56.53	1.80	6.78	-49.5	-61.7	3.8	8.46e-01	0	41	104	2028994560	70	14859
2026-01-23 09:44:57.53	1.68	6.73	-49.4	-61.8	3.8	8.47e-01	0	40	104	2028994560	70	14882
2026-01-23 09:44:58.53	1.55	6.69	-49.5	-61.7	3.8	8.47e-01	0	41	104	2028994560	70	14849
2026-01-23 09:44:59.53	1.43	6.64	-49.5	-61.7	3.8	8.48e-01	0	41	104	2028994560	70	14874
2026-01-23 09:45:00.53	1.30	6.59	-49.5	-61.7	3.8	8.47e-01	0	41	104	2028994560	70	14808
2026-01-23 09:45:01.52	1.18	6.54	-49.5	-61.7	3.8	8.47e-01	0	41	104	2028994560	70	14850
2026-01-23 09:45:02.52	1.06	6.50	-49.5	-61.8	3.8	8.46e-01	0	41	104	2028994560	70	14903
2026-01-23 09:45:03.52	0.93	6.45	-49.5	-61.7	3.8	8.46e-01	0	41	104	2028994560	70	14811
2026-01-23 09:45:04.52	0.81	6.40	-49.5	-61.7	3.8	8.46e-01	0	41	104	2028994560	70	14824
2026-01-23 09:45:05.52	0.69	6.35	-49.5	-61.7	3.8	8.47e-01	0	41	104	2028994560	70	14849
2026-01-23 09:45:06.52	0.57	6.31	-49.5	-61.7	3.8	8.47e-01	0	41	104	2028994560	70	14861
2026-01-23 09:45:07.51	0.44	6.26	-49.5	-61.7	3.8	8.47e-01	0	41	104	2028994560	70	14864
2026-01-23 09:45:08.51	0.32	6.21	-49.4	-61.7	3.8	8.47e-01	0	41	104	2028994560	70	14813
2026-01-23 09:45:09.52	0.20	6.16	-49.5	-61.7	3.8	8.48e-01	0	41	104	2028994560	70	14835
2026-01-23 09:45:10.51	0.08	6.12	-49.5	-61.7	3.8	8.48e-01	0	41	104	2028994560	70	14868
2026-01-23 09:45:11.51	359.96	6.07	-49.5	-61.8	3.8	8.47e-01	0	41	104	2028994560	70	14883
2026-01-23 09:45:12.51	359.84	6.02	-49.5	-61.7	3.8	8.47e-01	0	41	104	2028994560	70	14862
2026-01-23 09:45:13.50	359.73	5.97	-49.5	-61.7	3.8	8.48e-01	0	41	104	2028994560	70	14866
2026-01-23 09:45:14.50	359.61	5.92	-49.5	-61.7	3.8	8.46e-01	0	41	104	2028994560	70	14843
2026-01-23 09:45:15.50	359.49	5.88	-49.5	-61.7	3.8	8.47e-01	0	41	104	2028994560	70	14819
2026-01-23 09:45:16.50	359.37	5.83	-49.5	-61.7	3.8	8.48e-01	0	41	104	2028994560	70	14838
2026-01-23 09:45:17.49	359.25	5.78	-49.5	-61.7	3.8	8.48e-01	0	40	104	2028994560	70	14844
2026-01-23 09:45:18.49	359.14	5.73	-49.5	-61.7	3.8	8.47e-01	0	41	104	2028994560	70	14810
2026-01-23 09:45:19.49	359.02	5.69	-49.5	-61.7	3.8	8.46e-01	0	41	104	2028994560	70	14787
2026-01-23 09:45:20.49	358.90	5.64	-49.4	-61.7	3.8	8.46e-01	0	41	104	2028994560	70	14836
2026-01-23 09:45:21.49	358.79	5.59	-49.4	-61.7	3.8	8.47e-01	0	41	104	2028994560	70	14840
2026-01-23 09:45:22.49	358.67	5.54	-49.5	-61.7	3.8	8.47e-01	0	41	104	2028994560	70	14815
2026-01-23 09:45:23.49	358.56	5.49	-49.5	-61.7	3.8	8.47e-01	0	41	104	2028994560	70	14802
2026-01-23 09:45:24.49	358.44	5.45	-49.5	-61.8	3.8	8.47e-01	0	41	104	2028994560	70	14889
2026-01-23 09:45:25.48	358.33	5.40	-49.4	-61.7	3.8	8.46e-01	0	41	104	2028994560	70	14866
2026-01-23 09:45:26.48	358.22	5.35	-49.4	-61.7	3.8	8.46e-01	0	41	104	2028994560	70	14872
2026-01-23 09:45:27.48	358.10	5.30	-49.5	-61.7	3.8	8.47e-01	0	41	104	2028994560	70	14869
2026-01-23 09:45:28.48	357.99	5.25	-49.4	-61.8	3.8	8.46e-01	0	40	104	2028994560	70	14889
2026-01-23 09:45:29.47	357.88	5.21	-49.4	-61.7	3.8	8.47e-01	0	41	104	2028994560	70	14879
2026-01-23 09:45:30.47	357.76	5.16	-49.5	-61.7	3.8	8.46e-01	0	41	104	2028994560	70	14789
2026-01-23 09:45:31.46	357.65	5.11	-49.4	-61.7	3.8	8.46e-01	0	41	104	2028994560	70	14825
2026-01-23 09:45:32.46	357.54	5.06	-49.4	-61.7	3.8	8.47e-01	0	41	104	2028994560	70	14858
2026-01-23 09:45:33.46	357.43	5.01	-49.4	-61.7	3.8	8.47e-01	0	41	104	2028994560	70	14786
2026-01-23 09:45:34.46	357.32	4.97	-49.4	-61.7	3.8	8.47e-01	0	41	104	2028994560	70	14802

#Closed at: 2026-01-23 09:45:35
#Recorded file [2028 MB]: D:/Data/31040_260123_123653.dat