passes_logs/2026/01/23/T1/T1__20260123_112800_NOAA_21_JPSS-2_rec.log

#Pass ID: 20260123_112800_NOAA 21 (JPSS-2)
#Satellite: NOAA 21 (JPSS-2)
#Configuration: NOAA 21
#almurnet v.1.7.20251203
#Start time: 2026-01-23 11:28:00

#Version: 2.0.20230620
#Station: T1
#Location: 37.570604 lon 55.790049 lat
#TLE: 1 54234U 22150A   26022.41365820  .00000211  00000+0  12084-3 0  9990
#TLE: 2 54234  98.7507 323.2240 0000658 234.5287 125.5828 14.19537645165864

#Time	Az	El	Level	Level2	SNR	BER	BlckErr	Temp	State	Recorded	gain1	gain2
2026-01-23 11:28:00.29	210.78	4.97	-48.7	-62.0	3.8	1.49e+00	0	37	0	0	69	16305
2026-01-23 11:28:01.28	210.87	5.03	-48.6	-62.0	3.8	1.49e+00	0	37	104	0	68	17259
2026-01-23 11:28:02.27	210.95	5.09	-48.6	-62.1	3.8	1.49e+00	0	37	104	0	68	17288
2026-01-23 11:28:03.26	211.04	5.15	-48.6	-62.0	3.8	1.49e+00	0	37	104	0	68	17265
2026-01-23 11:28:04.26	211.13	5.21	-48.6	-62.0	3.8	1.49e+00	0	37	104	0	68	17242
2026-01-23 11:28:05.25	211.21	5.27	-48.6	-62.1	3.8	1.49e+00	0	37	104	0	68	17283
2026-01-23 11:28:06.24	211.30	5.32	-48.6	-62.0	3.8	1.49e+00	0	37	104	0	68	17228
2026-01-23 11:28:07.24	211.39	5.38	-48.6	-62.0	3.8	1.49e+00	0	37	104	0	68	17204
2026-01-23 11:28:08.23	211.47	5.44	-48.6	-62.0	3.8	1.49e+00	0	37	104	0	68	17207
2026-01-23 11:28:09.22	211.56	5.50	-48.6	-61.9	3.8	1.49e+00	0	37	104	0	68	17068
2026-01-23 11:28:10.22	211.65	5.56	-48.6	-61.9	3.8	1.49e+00	0	37	104	0	68	17064
2026-01-23 11:28:11.21	211.74	5.62	-48.6	-61.9	3.8	1.49e+00	0	37	104	0	68	17078
2026-01-23 11:28:12.20	211.83	5.68	-48.6	-61.9	3.8	1.49e+00	0	37	104	0	68	17008
2026-01-23 11:28:13.19	211.92	5.74	-48.6	-61.9	3.8	1.49e+00	0	37	104	0	68	17001
2026-01-23 11:28:14.19	212.01	5.80	-48.6	-61.9	3.8	1.49e+00	0	38	104	0	68	16978
2026-01-23 11:28:15.18	212.10	5.86	-48.6	-61.9	3.8	1.49e+00	0	38	104	0	68	16963
2026-01-23 11:28:16.17	212.19	5.92	-48.6	-61.9	3.8	1.49e+00	0	38	104	0	68	16897
2026-01-23 11:28:17.17	212.28	5.98	-48.6	-61.9	3.8	1.49e+00	0	38	104	0	68	17027
2026-01-23 11:28:18.16	212.37	6.04	-48.6	-61.9	3.8	1.49e+00	0	38	104	0	68	17012
2026-01-23 11:28:19.15	212.46	6.10	-48.6	-61.9	3.8	1.49e+00	0	38	104	0	68	16966
2026-01-23 11:28:20.15	212.55	6.16	-48.6	-61.9	3.8	1.49e+00	0	38	104	0	68	17022
2026-01-23 11:28:21.14	212.65	6.22	-48.6	-61.9	3.8	1.49e+00	0	38	104	0	68	16893
2026-01-23 11:28:22.13	212.74	6.28	-48.6	-61.8	3.8	1.49e+00	0	38	104	0	68	16801
2026-01-23 11:28:23.13	212.83	6.34	-48.6	-61.9	3.8	1.49e+00	0	38	104	0	68	16980
2026-01-23 11:28:24.12	212.92	6.41	-48.6	-61.9	3.8	1.49e+00	0	38	104	0	68	17068
2026-01-23 11:28:25.11	213.02	6.47	-48.6	-62.0	3.8	1.49e+00	0	38	104	0	68	17198
2026-01-23 11:28:26.10	213.11	6.53	-48.6	-62.0	3.8	1.49e+00	0	38	104	0	68	17260
2026-01-23 11:28:27.10	213.21	6.59	-48.6	-62.0	3.8	1.49e+00	0	38	104	0	68	17104
2026-01-23 11:28:28.09	213.30	6.65	-48.6	-61.9	3.8	1.49e+00	0	38	104	0	68	16984
2026-01-23 11:28:29.08	213.40	6.71	-48.6	-61.8	3.8	1.49e+00	0	38	104	0	68	16821
2026-01-23 11:28:30.08	213.49	6.77	-48.6	-61.8	3.8	1.49e+00	0	38	104	0	68	16743
2026-01-23 11:28:31.07	213.59	6.83	-48.6	-61.8	3.8	1.49e+00	0	38	104	0	68	16783
2026-01-23 11:28:32.06	213.68	6.89	-48.6	-61.7	3.8	1.49e+00	0	38	104	0	68	16674
2026-01-23 11:28:33.06	213.78	6.96	-48.6	-61.8	3.8	1.49e+00	0	38	104	0	68	16707
2026-01-23 11:28:34.05	213.88	7.02	-48.6	-61.7	3.8	1.49e+00	0	38	104	0	68	16641
2026-01-23 11:28:35.04	213.98	7.08	-48.6	-61.7	3.8	1.49e+00	0	38	104	0	68	16635
2026-01-23 11:28:36.04	214.07	7.14	-48.6	-61.7	3.8	1.49e+00	0	38	104	0	68	16673
2026-01-23 11:28:37.03	214.17	7.20	-48.6	-61.8	3.8	1.49e+00	0	38	104	0	68	16782
2026-01-23 11:28:38.02	214.27	7.26	-48.6	-61.8	3.8	1.49e+00	0	38	104	0	68	16834
2026-01-23 11:28:39.02	214.37	7.33	-48.6	-61.8	3.8	1.49e+00	0	38	104	0	68	16806
2026-01-23 11:28:40.01	214.47	7.39	-48.6	-61.8	3.8	1.49e+00	0	38	104	0	68	16742
2026-01-23 11:28:41.00	214.57	7.45	-48.6	-61.8	3.8	1.49e+00	0	38	104	0	68	16786
2026-01-23 11:28:42.00	214.67	7.51	-48.6	-61.9	3.8	1.49e+00	0	38	104	0	68	16942
2026-01-23 11:28:42.99	214.77	7.57	-48.6	-61.9	3.8	1.49e+00	0	38	104	0	68	17055
2026-01-23 11:28:43.98	214.87	7.64	-48.6	-61.7	3.8	1.49e+00	0	38	104	0	68	16675
2026-01-23 11:28:44.98	214.98	7.70	-48.5	-61.2	3.8	1.49e+00	0	38	104	0	68	15624
2026-01-23 11:28:45.97	215.08	7.76	-48.4	-60.2	3.9	1.49e+00	0	38	104	0	68	13969
2026-01-23 11:28:46.96	215.18	7.82	-48.3	-58.8	4.0	1.47e+00	0	38	104	0	68	11857
2026-01-23 11:28:47.95	215.28	7.89	-48.2	-58.7	3.9	1.46e+00	0	38	104	0	68	11757
2026-01-23 11:28:48.95	215.39	7.95	-48.3	-59.1	3.9	1.47e+00	0	38	104	0	68	12254
2026-01-23 11:28:49.94	215.49	8.01	-48.5	-60.4	3.8	1.49e+00	0	38	104	0	68	14285
2026-01-23 11:28:50.93	215.59	8.07	-48.6	-61.9	3.8	1.49e+00	0	38	104	0	68	17068
2026-01-23 11:28:51.93	215.70	8.14	-48.4	-60.2	3.8	1.49e+00	0	38	104	0	68	14010
2026-01-23 11:28:52.92	215.80	8.20	-47.5	-54.7	6.0	1.07e+00	0	38	0	0	67	7820
2026-01-23 11:28:53.91	215.91	8.26	-46.1	-50.7	9.8	3.80e-02	0	38	0	0	64	5898
2026-01-23 11:28:54.91	216.02	8.33	-44.6	-48.0	12.7	3.17e-04	0	38	0	0	61	5117
2026-01-23 11:28:55.90	216.12	8.39	-43.2	-45.9	14.8	7.00e-07	0	38	0	0	58	4786
2026-01-23 11:28:56.89	216.23	8.45	-42.2	-44.5	16.1	0.00e+00	0	38	0	0	56	4594
2026-01-23 11:28:57.88	216.33	8.52	-41.5	-43.6	16.8	0.00e+00	0	38	0	0	55	4386
2026-01-23 11:28:58.88	216.44	8.58	-41.2	-43.3	17.1	0.00e+00	0	38	0	0	54	4475
2026-01-23 11:28:59.87	216.55	8.64	-41.3	-43.4	17.0	0.00e+00	0	38	0	0	54	4543
2026-01-23 11:29:00.86	216.66	8.71	-41.7	-43.9	16.6	0.00e+00	0	38	0	0	54	4785
2026-01-23 11:29:01.86	216.77	8.77	-42.3	-44.7	15.8	0.00e+00	0	38	0	0	55	4970
2026-01-23 11:29:02.85	216.88	8.83	-43.5	-46.3	14.4	0.00e+00	0	38	0	0	57	5282
2026-01-23 11:29:03.84	216.99	8.90	-44.6	-47.9	12.8	1.52e-05	0	38	0	0	59	5669
2026-01-23 11:29:04.84	217.10	8.96	-45.5	-49.6	11.1	8.70e-04	0	38	0	0	61	6139
2026-01-23 11:29:05.83	217.21	9.02	-46.4	-51.4	9.2	1.55e-02	0	38	0	0	63	6775
2026-01-23 11:29:06.82	217.32	9.09	-46.5	-51.7	8.8	3.78e-02	0	38	0	0	64	6633
2026-01-23 11:29:07.82	217.43	9.15	-44.1	-47.0	13.8	3.50e-03	0	38	0	0	60	4839
2026-01-23 11:29:08.81	217.55	9.22	-47.4	-54.6	6.1	3.97e-02	0	38	0	0	65	8708
2026-01-23 11:29:09.81	217.66	9.28	-47.6	-54.2	6.3	2.91e-01	0	38	0	0	66	7892
2026-01-23 11:29:10.80	217.77	9.35	-42.7	-45.1	15.8	0.00e+00	0	38	0	0	57	4607
2026-01-23 11:29:11.80	217.89	9.41	-42.6	-45.0	15.8	0.00e+00	0	38	0	0	57	4563
2026-01-23 11:29:12.79	218.00	9.47	-42.8	-45.2	15.6	0.00e+00	0	38	0	0	57	4684
2026-01-23 11:29:13.79	218.12	9.54	-42.4	-44.7	16.1	0.00e+00	0	38	0	0	56	4661
2026-01-23 11:29:14.78	218.23	9.60	-41.5	-43.7	16.9	0.00e+00	0	38	0	0	55	4396
2026-01-23 11:29:15.78	218.35	9.67	-41.3	-43.4	17.2	0.00e+00	0	38	0	0	54	4534
2026-01-23 11:29:16.77	218.46	9.73	-41.1	-43.1	17.4	0.00e+00	0	38	0	0	54	4390
2026-01-23 11:29:17.77	218.58	9.80	-41.1	-43.1	17.4	0.00e+00	0	38	0	0	54	4367
2026-01-23 11:29:18.76	218.70	9.86	-41.2	-43.2	17.4	0.00e+00	0	38	0	0	54	4430
2026-01-23 11:29:19.76	218.82	9.93	-40.9	-42.9	17.6	0.00e+00	0	38	0	0	53	4525
2026-01-23 11:29:20.75	218.94	9.99	-40.4	-42.4	18.2	0.00e+00	0	38	0	0	52	4508
2026-01-23 11:29:21.75	219.06	10.06	-40.3	-42.2	18.3	0.00e+00	0	38	0	0	52	4440
2026-01-23 11:29:22.74	219.17	10.12	-40.2	-42.2	18.3	0.00e+00	0	39	0	0	52	4408
2026-01-23 11:29:23.74	219.30	10.19	-40.3	-42.3	18.2	0.00e+00	0	38	0	0	52	4489
2026-01-23 11:29:24.73	219.42	10.25	-40.2	-42.3	18.3	0.00e+00	0	38	0	0	52	4449
2026-01-23 11:29:25.73	219.54	10.32	-40.3	-42.4	18.2	0.00e+00	0	38	0	0	52	4510
2026-01-23 11:29:26.73	219.66	10.39	-40.1	-42.1	18.4	0.00e+00	0	38	0	0	52	4388
2026-01-23 11:29:27.72	219.78	10.45	-40.1	-42.1	18.4	0.00e+00	0	38	0	0	52	4387
2026-01-23 11:29:28.72	219.90	10.52	-40.1	-42.1	18.4	0.00e+00	0	38	0	0	52	4370
2026-01-23 11:29:29.72	220.03	10.58	-40.2	-42.2	18.3	0.00e+00	0	38	0	0	52	4411
2026-01-23 11:29:30.71	220.15	10.65	-40.2	-42.2	18.3	0.00e+00	0	38	0	0	52	4402
2026-01-23 11:29:31.71	220.28	10.71	-40.2	-42.2	18.3	0.00e+00	0	38	0	0	52	4431
2026-01-23 11:29:32.70	220.40	10.78	-40.1	-42.0	18.5	0.00e+00	0	38	0	0	52	4320
2026-01-23 11:29:33.70	220.53	10.85	-40.0	-41.9	18.7	0.00e+00	0	38	0	0	51	4522
2026-01-23 11:29:34.69	220.65	10.91	-40.1	-42.0	18.6	0.00e+00	0	38	0	0	51	4551
2026-01-23 11:29:35.68	220.78	10.98	-40.1	-42.0	18.7	0.00e+00	0	38	0	0	51	4555
2026-01-23 11:29:36.68	220.91	11.04	-40.0	-41.9	18.7	0.00e+00	0	38	0	0	51	4523
2026-01-23 11:29:37.67	221.03	11.11	-40.1	-42.0	18.6	0.00e+00	0	38	0	0	51	4571
2026-01-23 11:29:38.67	221.16	11.18	-40.2	-42.1	18.5	0.00e+00	0	39	0	0	51	4633
2026-01-23 11:29:39.66	221.29	11.24	-40.0	-41.9	18.7	0.00e+00	0	38	0	0	51	4502
2026-01-23 11:29:40.66	221.42	11.31	-40.0	-41.8	18.8	0.00e+00	0	38	0	0	51	4487
2026-01-23 11:29:41.65	221.55	11.37	-40.0	-41.8	18.8	0.00e+00	0	38	0	0	51	4481
2026-01-23 11:29:42.64	221.68	11.44	-39.9	-41.7	18.8	0.00e+00	0	38	0	0	51	4432
2026-01-23 11:29:43.64	221.81	11.51	-39.8	-41.6	18.9	0.00e+00	0	38	0	0	51	4380
2026-01-23 11:29:44.63	221.94	11.57	-39.8	-41.6	19.0	0.00e+00	0	38	0	0	51	4346
2026-01-23 11:29:45.63	222.07	11.64	-39.7	-41.5	19.1	0.00e+00	0	38	0	0	51	4327
2026-01-23 11:29:46.62	222.21	11.71	-39.8	-41.6	19.0	0.00e+00	0	38	0	0	51	4366
2026-01-23 11:29:47.62	222.34	11.77	-39.7	-41.5	19.1	0.00e+00	0	38	0	0	51	4327
2026-01-23 11:29:48.61	222.47	11.84	-39.7	-41.5	19.1	0.00e+00	0	38	0	0	51	4328
2026-01-23 11:29:49.60	222.61	11.90	-39.8	-41.6	19.0	0.00e+00	0	38	0	0	51	4347
2026-01-23 11:29:50.60	222.74	11.97	-39.7	-41.5	19.2	0.00e+00	0	38	0	0	51	4298
2026-01-23 11:29:51.60	222.88	12.04	-39.7	-41.5	19.1	0.00e+00	0	38	0	0	51	4315
2026-01-23 11:29:52.59	223.01	12.11	-39.8	-41.5	19.1	0.00e+00	0	38	0	0	51	4339
2026-01-23 11:29:53.59	223.15	12.17	-39.7	-41.5	19.2	0.00e+00	0	38	0	0	51	4295
2026-01-23 11:29:54.58	223.29	12.24	-39.7	-41.4	19.2	0.00e+00	0	38	0	0	51	4286
2026-01-23 11:29:55.57	223.43	12.31	-39.7	-41.4	19.2	0.00e+00	0	38	0	0	51	4285
2026-01-23 11:29:56.57	223.56	12.37	-39.6	-41.4	19.2	0.00e+00	0	38	0	0	51	4275
2026-01-23 11:29:57.56	223.70	12.44	-39.6	-41.4	19.3	0.00e+00	0	38	0	0	51	4272
2026-01-23 11:29:58.56	223.84	12.51	-39.6	-41.3	19.3	0.00e+00	0	39	0	0	51	4238
2026-01-23 11:29:59.55	223.98	12.57	-39.7	-41.5	19.2	0.00e+00	0	38	0	0	51	4293
2026-01-23 11:30:00.55	224.13	12.64	-39.6	-41.4	19.3	0.00e+00	0	38	0	0	51	4250
2026-01-23 11:30:01.54	224.27	12.71	-39.6	-41.4	19.3	0.00e+00	0	38	0	0	51	4275
2026-01-23 11:30:02.54	224.41	12.77	-39.6	-41.4	19.3	0.00e+00	0	38	0	0	51	4261
2026-01-23 11:30:03.53	224.55	12.84	-39.7	-41.5	19.2	0.00e+00	0	39	0	0	51	4297
2026-01-23 11:30:04.53	224.70	12.91	-39.5	-41.2	19.4	0.00e+00	0	38	0	0	50	4439
2026-01-23 11:30:05.52	224.84	12.98	-39.5	-41.3	19.4	0.00e+00	0	38	0	0	50	4444
2026-01-23 11:30:06.52	224.99	13.04	-39.5	-41.3	19.4	0.00e+00	0	38	0	0	50	4445
2026-01-23 11:30:07.52	225.13	13.11	-39.5	-41.2	19.4	0.00e+00	0	38	0	0	50	4426
2026-01-23 11:30:08.51	225.28	13.18	-39.5	-41.2	19.4	0.00e+00	0	39	0	0	50	4437
2026-01-23 11:30:09.51	225.43	13.24	-39.5	-41.2	19.4	0.00e+00	0	38	0	0	50	4439
2026-01-23 11:30:10.50	225.57	13.31	-39.3	-41.1	19.6	0.00e+00	0	39	0	0	50	4352
2026-01-23 11:30:11.50	225.72	13.38	-39.4	-41.2	19.5	0.00e+00	0	39	0	0	50	4413
2026-01-23 11:30:12.49	225.87	13.45	-39.5	-41.3	19.4	0.00e+00	0	39	0	0	50	4468
2026-01-23 11:30:13.49	226.02	13.51	-39.5	-41.3	19.4	0.00e+00	0	39	0	0	50	4468
2026-01-23 11:30:14.48	226.17	13.58	-39.5	-41.2	19.5	0.00e+00	0	38	0	0	50	4414
2026-01-23 11:30:15.47	226.32	13.65	-39.4	-41.2	19.5	0.00e+00	0	39	0	0	50	4396
2026-01-23 11:30:16.47	226.47	13.71	-39.5	-41.3	19.4	0.00e+00	0	38	0	0	50	4448
2026-01-23 11:30:17.46	226.62	13.78	-39.6	-41.4	19.3	0.00e+00	0	39	0	0	50	4496
2026-01-23 11:30:18.45	226.77	13.85	-39.5	-41.3	19.4	0.00e+00	0	39	0	0	50	4465
2026-01-23 11:30:19.45	226.93	13.92	-39.5	-41.2	19.5	0.00e+00	0	39	0	0	50	4431
2026-01-23 11:30:20.45	227.08	13.98	-39.5	-41.2	19.5	0.00e+00	0	38	0	0	50	4439
2026-01-23 11:30:21.44	227.24	14.05	-39.5	-41.2	19.4	0.00e+00	0	38	0	0	50	4436
2026-01-23 11:30:22.44	227.39	14.12	-39.5	-41.2	19.5	0.00e+00	0	39	0	0	50	4436
2026-01-23 11:30:23.43	227.55	14.19	-39.5	-41.3	19.4	0.00e+00	0	39	0	0	50	4462
2026-01-23 11:30:24.43	227.71	14.25	-39.5	-41.3	19.4	0.00e+00	0	38	0	0	50	4450
2026-01-23 11:30:25.42	227.86	14.32	-39.6	-41.4	19.3	0.00e+00	0	39	0	0	50	4508
2026-01-23 11:30:26.42	228.02	14.39	-39.6	-41.4	19.4	0.00e+00	0	38	0	0	50	4495
2026-01-23 11:30:27.41	228.18	14.45	-39.7	-41.5	19.3	0.00e+00	0	39	0	0	50	4561
2026-01-23 11:30:28.41	228.34	14.52	-39.7	-41.5	19.3	0.00e+00	0	38	0	0	50	4571
2026-01-23 11:30:29.40	228.50	14.59	-39.7	-41.5	19.2	0.00e+00	0	38	0	0	50	4594
2026-01-23 11:30:30.40	228.66	14.66	-39.7	-41.4	19.3	0.00e+00	0	38	0	0	50	4538
2026-01-23 11:30:31.40	228.82	14.72	-39.6	-41.4	19.4	0.00e+00	0	38	0	0	50	4500
2026-01-23 11:30:32.39	228.99	14.79	-39.5	-41.2	19.5	0.00e+00	0	39	0	0	50	4425
2026-01-23 11:30:33.38	229.15	14.86	-39.5	-41.2	19.5	0.00e+00	0	38	0	0	50	4438
2026-01-23 11:30:34.38	229.31	14.92	-39.5	-41.2	19.5	0.00e+00	0	39	0	0	50	4434
2026-01-23 11:30:35.37	229.48	14.99	-39.4	-41.1	19.6	0.00e+00	0	39	0	0	50	4391
2026-01-23 11:30:36.37	229.64	15.06	-39.4	-41.2	19.5	0.00e+00	0	38	0	0	50	4396
2026-01-23 11:30:37.36	229.81	15.12	-39.4	-41.1	19.6	0.00e+00	0	39	0	0	50	4375
2026-01-23 11:30:38.36	229.98	15.19	-39.4	-41.2	19.5	0.00e+00	0	38	0	0	50	4408
2026-01-23 11:30:39.35	230.14	15.26	-39.5	-41.2	19.5	0.00e+00	0	38	0	0	50	4434
2026-01-23 11:30:40.35	230.31	15.32	-39.5	-41.2	19.5	0.00e+00	0	38	0	0	50	4418
2026-01-23 11:30:41.34	230.48	15.39	-39.4	-41.1	19.6	0.00e+00	0	38	0	0	50	4381
2026-01-23 11:30:42.34	230.65	15.46	-39.4	-41.2	19.5	0.00e+00	0	39	0	0	50	4415
2026-01-23 11:30:43.33	230.82	15.52	-39.5	-41.2	19.4	0.00e+00	0	38	0	0	50	4440
2026-01-23 11:30:44.33	230.99	15.59	-39.5	-41.3	19.4	0.00e+00	0	39	0	0	50	4466
2026-01-23 11:30:45.33	231.16	15.66	-39.5	-41.3	19.4	0.00e+00	0	38	0	0	50	4456
2026-01-23 11:30:46.32	231.34	15.72	-39.6	-41.3	19.4	0.00e+00	0	38	0	0	50	4485
2026-01-23 11:30:47.32	231.51	15.79	-39.5	-41.3	19.4	0.00e+00	0	39	0	0	50	4463
2026-01-23 11:30:48.31	231.68	15.86	-39.5	-41.2	19.5	0.00e+00	0	38	0	0	50	4419
2026-01-23 11:30:49.30	231.86	15.92	-39.5	-41.3	19.5	0.00e+00	0	39	0	0	50	4447
2026-01-23 11:30:50.30	232.03	15.99	-39.4	-41.2	19.6	0.00e+00	0	39	0	0	50	4393
2026-01-23 11:30:51.29	232.21	16.05	-39.4	-41.2	19.5	0.00e+00	0	39	0	0	50	4401
2026-01-23 11:30:52.29	232.39	16.12	-39.4	-41.1	19.5	0.00e+00	0	38	0	0	50	4391
2026-01-23 11:30:53.28	232.56	16.19	-39.5	-41.2	19.5	0.00e+00	0	39	0	0	50	4425
2026-01-23 11:30:54.28	232.74	16.25	-39.4	-41.2	19.6	0.00e+00	0	39	0	0	50	4392
2026-01-23 11:30:55.27	232.92	16.32	-39.4	-41.2	19.5	0.00e+00	0	38	0	0	50	4413
2026-01-23 11:30:56.27	233.10	16.38	-39.6	-41.3	19.4	0.00e+00	0	38	0	0	50	4475
2026-01-23 11:30:57.26	233.28	16.45	-39.5	-41.3	19.5	0.00e+00	0	39	0	0	50	4453
2026-01-23 11:30:58.25	233.46	16.51	-39.3	-41.1	19.7	0.00e+00	0	39	0	0	50	4345
2026-01-23 11:30:59.25	233.65	16.58	-39.2	-40.9	19.8	0.00e+00	0	39	0	0	50	4265
2026-01-23 11:31:00.24	233.83	16.65	-39.2	-40.9	19.8	0.00e+00	0	38	0	0	50	4285
2026-01-23 11:31:01.24	234.02	16.71	-39.3	-41.1	19.7	0.00e+00	0	38	0	0	50	4346
2026-01-23 11:31:02.23	234.20	16.78	-39.3	-41.0	19.7	0.00e+00	0	38	0	0	50	4311
2026-01-23 11:31:03.23	234.39	16.84	-39.2	-40.9	19.8	0.00e+00	0	39	0	0	50	4281
2026-01-23 11:31:04.22	234.57	16.90	-39.2	-40.9	19.8	0.00e+00	0	38	0	0	50	4278
2026-01-23 11:31:05.22	234.76	16.97	-39.2	-40.9	19.8	0.00e+00	0	38	0	0	50	4279
2026-01-23 11:31:06.21	234.95	17.03	-39.2	-40.9	19.9	0.00e+00	0	39	0	0	50	4251
2026-01-23 11:31:07.21	235.14	17.10	-39.2	-40.9	19.8	0.00e+00	0	38	0	0	50	4274
2026-01-23 11:31:08.20	235.32	17.16	-39.3	-41.0	19.7	0.00e+00	0	38	0	0	50	4313
2026-01-23 11:31:09.20	235.52	17.23	-39.2	-40.9	19.8	0.00e+00	0	38	0	0	50	4260
2026-01-23 11:31:10.19	235.71	17.29	-39.1	-40.8	19.9	0.00e+00	0	39	0	0	50	4240
2026-01-23 11:31:11.19	235.90	17.36	-39.1	-40.8	19.9	0.00e+00	0	39	0	0	50	4228
2026-01-23 11:31:12.18	236.09	17.42	-39.1	-40.9	19.9	0.00e+00	0	38	0	0	50	4244
2026-01-23 11:31:13.17	236.28	17.48	-39.1	-40.8	19.9	0.00e+00	0	38	0	0	50	4237
2026-01-23 11:31:14.17	236.48	17.55	-39.1	-40.8	20.0	0.00e+00	0	39	0	0	50	4208
2026-01-23 11:31:15.16	236.67	17.61	-39.1	-40.8	20.0	0.00e+00	0	39	0	0	50	4204
2026-01-23 11:31:16.16	236.87	17.67	-39.1	-40.8	19.9	0.00e+00	0	39	0	0	50	4220
2026-01-23 11:31:17.15	237.06	17.73	-39.1	-40.8	19.9	0.00e+00	0	38	0	0	50	4230
2026-01-23 11:31:18.15	237.26	17.80	-39.1	-40.8	19.9	0.00e+00	0	38	0	0	50	4218
2026-01-23 11:31:19.15	237.46	17.86	-39.2	-40.9	19.8	0.00e+00	0	39	0	0	50	4255
2026-01-23 11:31:20.14	237.66	17.92	-39.3	-41.0	19.8	0.00e+00	0	39	0	0	50	4293
2026-01-23 11:31:21.13	237.86	17.99	-39.2	-40.9	19.8	0.00e+00	0	38	0	0	50	4268
2026-01-23 11:31:22.12	238.06	18.05	-39.3	-41.0	19.8	0.00e+00	0	39	0	0	50	4297
2026-01-23 11:31:23.12	238.26	18.11	-39.2	-40.9	19.9	0.00e+00	0	38	0	0	50	4277
2026-01-23 11:31:24.11	238.46	18.17	-39.2	-40.9	19.9	0.00e+00	0	39	0	0	50	4272
2026-01-23 11:31:25.11	238.67	18.23	-39.3	-41.0	19.8	0.00e+00	0	39	0	0	50	4317
2026-01-23 11:31:26.10	238.87	18.29	-39.3	-41.0	19.8	0.00e+00	0	39	0	0	50	4329
2026-01-23 11:31:27.10	239.07	18.36	-39.3	-41.0	19.8	0.00e+00	0	39	0	0	50	4308
2026-01-23 11:31:28.09	239.28	18.42	-39.2	-40.9	19.9	0.00e+00	0	39	0	0	50	4271
2026-01-23 11:31:29.09	239.49	18.48	-39.2	-40.9	19.9	0.00e+00	0	39	0	0	50	4266
2026-01-23 11:31:30.08	239.69	18.54	-39.1	-40.8	19.9	0.00e+00	0	39	0	0	50	4218
2026-01-23 11:31:31.08	239.90	18.60	-39.1	-40.8	20.0	0.00e+00	0	38	0	0	50	4210
2026-01-23 11:31:32.07	240.11	18.66	-39.1	-40.8	20.0	0.00e+00	0	38	0	0	50	4225
2026-01-23 11:31:33.07	240.32	18.72	-39.1	-40.8	20.0	0.00e+00	0	38	0	0	50	4203
2026-01-23 11:31:34.06	240.53	18.78	-39.2	-40.9	19.9	0.00e+00	0	38	0	0	50	4288
2026-01-23 11:31:35.06	240.74	18.84	-39.3	-41.0	19.8	0.00e+00	0	38	0	0	50	4319
2026-01-23 11:31:36.05	240.95	18.90	-39.4	-41.1	19.7	0.00e+00	0	39	0	0	50	4363
2026-01-23 11:31:37.05	241.16	18.95	-39.5	-41.2	19.6	0.00e+00	0	39	0	0	50	4441
2026-01-23 11:31:38.04	241.38	19.01	-39.5	-41.2	19.6	0.00e+00	0	39	0	0	50	4433
2026-01-23 11:31:39.03	241.59	19.07	-39.4	-41.2	19.7	0.00e+00	0	38	0	0	50	4406
2026-01-23 11:31:40.03	241.81	19.13	-39.5	-41.3	19.6	0.00e+00	0	39	0	0	50	4459
2026-01-23 11:31:41.02	242.02	19.19	-39.6	-41.3	19.5	0.00e+00	0	38	0	0	50	4475
2026-01-23 11:31:42.02	242.24	19.25	-39.6	-41.3	19.6	0.00e+00	0	39	0	0	50	4467
2026-01-23 11:31:43.02	242.46	19.30	-39.6	-41.3	19.6	0.00e+00	0	38	0	0	50	4491
2026-01-23 11:31:44.01	242.67	19.36	-39.4	-41.1	19.7	0.00e+00	0	39	0	0	50	4381
2026-01-23 11:31:45.01	242.89	19.42	-39.4	-41.2	19.7	0.00e+00	0	39	0	0	50	4401
2026-01-23 11:31:46.00	243.11	19.47	-39.4	-41.1	19.7	0.00e+00	0	38	0	0	50	4372
2026-01-23 11:31:47.00	243.33	19.53	-39.5	-41.2	19.6	0.00e+00	0	38	0	0	50	4420
2026-01-23 11:31:47.99	243.55	19.59	-39.5	-41.2	19.6	0.00e+00	0	39	0	0	50	4418
2026-01-23 11:31:48.99	243.78	19.64	-39.5	-41.3	19.5	0.00e+00	0	39	0	0	50	4455
2026-01-23 11:31:49.98	244.00	19.70	-39.6	-41.3	19.4	0.00e+00	0	38	0	0	50	4493
2026-01-23 11:31:50.97	244.22	19.75	-39.7	-41.5	19.3	0.00e+00	0	39	0	0	50	4570
2026-01-23 11:31:51.97	244.45	19.81	-39.6	-41.4	19.4	0.00e+00	0	39	0	0	50	4513
2026-01-23 11:31:52.97	244.67	19.86	-39.7	-41.4	19.4	0.00e+00	0	38	0	0	50	4528
2026-01-23 11:31:53.96	244.90	19.91	-39.5	-41.3	19.5	0.00e+00	0	38	0	0	50	4458
2026-01-23 11:31:54.96	245.13	19.97	-39.5	-41.3	19.5	0.00e+00	0	39	0	0	50	4444
2026-01-23 11:31:55.95	245.35	20.02	-39.2	-40.9	19.9	0.00e+00	0	38	0	0	50	4283
2026-01-23 11:31:56.95	245.58	20.08	-39.1	-40.8	19.9	0.00e+00	0	38	0	0	50	4234
2026-01-23 11:31:57.94	245.81	20.13	-39.1	-40.8	20.0	0.00e+00	0	39	0	0	50	4234
2026-01-23 11:31:58.93	246.04	20.18	-39.2	-40.9	19.9	0.00e+00	0	39	0	0	50	4285
2026-01-23 11:31:59.93	246.27	20.23	-39.3	-41.0	19.8	0.00e+00	0	39	0	0	50	4333
2026-01-23 11:32:00.92	246.50	20.28	-39.3	-41.1	19.7	0.00e+00	0	38	0	0	50	4346
2026-01-23 11:32:01.92	246.73	20.34	-39.4	-41.1	19.7	0.00e+00	0	39	0	0	50	4357
2026-01-23 11:32:02.91	246.97	20.39	-39.4	-41.2	19.6	0.00e+00	0	39	0	0	50	4401
2026-01-23 11:32:03.91	247.20	20.44	-39.4	-41.1	19.7	0.00e+00	0	39	0	0	50	4383
2026-01-23 11:32:04.90	247.43	20.49	-39.3	-41.0	19.7	0.00e+00	0	39	0	0	50	4335
2026-01-23 11:32:05.89	247.67	20.54	-39.3	-41.0	19.8	0.00e+00	0	39	0	0	50	4333
2026-01-23 11:32:06.89	247.91	20.59	-39.3	-41.0	19.8	0.00e+00	0	39	0	0	50	4326
2026-01-23 11:32:07.88	248.14	20.64	-39.3	-41.0	19.8	0.00e+00	0	39	0	0	50	4330
2026-01-23 11:32:08.88	248.38	20.68	-39.1	-40.8	20.0	0.00e+00	0	39	0	0	50	4238
2026-01-23 11:32:09.87	248.62	20.73	-39.0	-40.7	20.1	0.00e+00	0	39	0	0	50	4168
2026-01-23 11:32:10.86	248.85	20.78	-39.0	-40.7	20.0	0.00e+00	0	38	0	0	50	4190
2026-01-23 11:32:11.86	249.09	20.83	-39.0	-40.7	20.0	0.00e+00	0	39	0	0	50	4191
2026-01-23 11:32:12.86	249.34	20.88	-39.1	-40.8	20.0	0.00e+00	0	39	0	0	50	4210
2026-01-23 11:32:13.85	249.58	20.92	-39.1	-40.8	19.9	0.00e+00	0	39	0	0	50	4232
2026-01-23 11:32:14.85	249.82	20.97	-39.0	-40.7	20.1	0.00e+00	0	39	0	0	50	4188
2026-01-23 11:32:15.84	250.06	21.01	-39.0	-40.7	20.1	0.00e+00	0	39	0	0	50	4188
2026-01-23 11:32:16.83	250.30	21.06	-39.0	-40.7	20.1	0.00e+00	0	39	0	0	50	4187
2026-01-23 11:32:17.83	250.55	21.10	-38.9	-40.6	20.1	0.00e+00	0	38	0	0	49	4366
2026-01-23 11:32:18.83	250.79	21.15	-39.0	-40.7	20.1	0.00e+00	0	39	0	0	49	4393
2026-01-23 11:32:19.82	251.04	21.19	-38.9	-40.6	20.1	0.00e+00	0	39	0	0	49	4381
2026-01-23 11:32:20.82	251.28	21.24	-39.0	-40.7	20.0	0.00e+00	0	39	0	0	49	4420
2026-01-23 11:32:21.81	251.53	21.28	-38.9	-40.6	20.1	0.00e+00	0	38	0	0	49	4370
2026-01-23 11:32:22.81	251.78	21.32	-39.1	-40.8	20.0	0.00e+00	0	38	0	0	49	4443
2026-01-23 11:32:23.80	252.02	21.36	-39.0	-40.7	20.1	0.00e+00	0	38	0	0	49	4396
2026-01-23 11:32:24.80	252.27	21.41	-38.9	-40.6	20.2	0.00e+00	0	38	0	0	49	4370
2026-01-23 11:32:25.79	252.52	21.45	-38.9	-40.6	20.2	0.00e+00	0	38	0	0	49	4355
2026-01-23 11:32:26.78	252.77	21.49	-38.8	-40.5	20.3	0.00e+00	0	39	0	0	49	4312
2026-01-23 11:32:27.78	253.02	21.53	-38.7	-40.4	20.4	0.00e+00	0	38	0	0	49	4266
2026-01-23 11:32:28.77	253.27	21.57	-38.8	-40.4	20.3	0.00e+00	0	38	0	0	49	4283
2026-01-23 11:32:29.77	253.52	21.61	-38.8	-40.5	20.2	0.00e+00	0	39	0	0	49	4310
2026-01-23 11:32:30.76	253.77	21.65	-38.9	-40.6	20.1	0.00e+00	0	38	0	0	49	4350
2026-01-23 11:32:31.76	254.03	21.69	-39.0	-40.7	20.0	0.00e+00	0	39	0	0	49	4418
2026-01-23 11:32:32.75	254.28	21.72	-39.0	-40.7	20.0	0.00e+00	0	39	0	0	49	4407
2026-01-23 11:32:33.74	254.53	21.76	-39.1	-40.8	20.0	0.00e+00	0	38	0	0	49	4449
2026-01-23 11:32:34.74	254.79	21.80	-38.9	-40.6	20.2	0.00e+00	0	38	0	0	49	4355
2026-01-23 11:32:35.73	255.04	21.83	-38.7	-40.4	20.4	0.00e+00	0	39	0	0	49	4269
2026-01-23 11:32:36.73	255.30	21.87	-38.7	-40.4	20.4	0.00e+00	0	39	0	0	49	4260
2026-01-23 11:32:37.72	255.56	21.90	-38.7	-40.3	20.4	0.00e+00	0	38	0	0	49	4215
2026-01-23 11:32:38.72	255.81	21.94	-38.7	-40.3	20.4	0.00e+00	0	39	0	0	49	4235
2026-01-23 11:32:39.71	256.07	21.97	-38.8	-40.5	20.2	0.00e+00	0	39	0	0	49	4293
2026-01-23 11:32:40.71	256.33	22.01	-38.9	-40.6	20.0	0.00e+00	0	39	0	0	49	4374
2026-01-23 11:32:41.70	256.59	22.04	-39.0	-40.7	20.0	0.00e+00	0	39	0	0	49	4422
2026-01-23 11:32:42.70	256.85	22.07	-39.1	-40.7	20.0	0.00e+00	0	39	0	0	49	4441
2026-01-23 11:32:43.69	257.11	22.11	-38.9	-40.6	20.2	0.00e+00	0	38	0	0	49	4367
2026-01-23 11:32:44.69	257.37	22.14	-38.8	-40.5	20.3	0.00e+00	0	38	0	0	49	4322
2026-01-23 11:32:45.68	257.63	22.17	-38.8	-40.5	20.3	0.00e+00	0	39	0	0	49	4306
2026-01-23 11:32:46.68	257.89	22.20	-38.8	-40.5	20.2	0.00e+00	0	39	0	0	49	4325
2026-01-23 11:32:47.68	258.15	22.23	-38.8	-40.4	20.3	0.00e+00	0	39	0	0	49	4280
2026-01-23 11:32:48.67	258.41	22.26	-38.7	-40.4	20.3	0.00e+00	0	39	0	0	49	4258
2026-01-23 11:32:49.66	258.67	22.29	-38.7	-40.4	20.3	0.00e+00	0	39	0	0	49	4270
2026-01-23 11:32:50.66	258.94	22.31	-38.8	-40.5	20.2	0.00e+00	0	39	0	0	49	4303
2026-01-23 11:32:51.65	259.20	22.34	-38.8	-40.5	20.3	0.00e+00	0	38	0	0	49	4320
2026-01-23 11:32:52.65	259.47	22.37	-38.9	-40.6	20.2	0.00e+00	0	38	0	0	49	4365
2026-01-23 11:32:53.64	259.73	22.39	-38.8	-40.5	20.3	0.00e+00	0	38	0	0	49	4328
2026-01-23 11:32:54.64	259.99	22.42	-38.8	-40.5	20.3	0.00e+00	0	39	0	0	49	4306
2026-01-23 11:32:55.63	260.26	22.45	-38.9	-40.6	20.1	0.00e+00	0	38	0	0	49	4354
2026-01-23 11:32:56.63	260.53	22.47	-38.8	-40.5	20.1	0.00e+00	0	39	0	0	49	4313
2026-01-23 11:32:57.62	260.79	22.49	-38.8	-40.5	20.1	0.00e+00	0	39	0	0	49	4319
2026-01-23 11:32:58.62	261.06	22.52	-38.8	-40.4	20.2	0.00e+00	0	38	0	0	49	4282
2026-01-23 11:32:59.61	261.32	22.54	-38.7	-40.4	20.2	0.00e+00	0	38	0	0	49	4254
2026-01-23 11:33:00.61	261.59	22.56	-38.7	-40.4	20.3	0.00e+00	0	38	0	0	49	4258
2026-01-23 11:33:01.60	261.86	22.58	-38.7	-40.4	20.3	0.00e+00	0	39	0	0	49	4267
2026-01-23 11:33:02.60	262.13	22.60	-38.6	-40.3	20.4	0.00e+00	0	38	0	0	49	4194
2026-01-23 11:33:03.59	262.39	22.62	-38.7	-40.4	20.4	0.00e+00	0	39	0	0	49	4245
2026-01-23 11:33:04.59	262.66	22.64	-38.8	-40.4	20.3	0.00e+00	0	38	0	0	49	4285
2026-01-23 11:33:05.58	262.93	22.66	-38.9	-40.6	20.2	0.00e+00	0	39	0	0	49	4356
2026-01-23 11:33:06.57	263.20	22.68	-38.9	-40.7	20.1	0.00e+00	0	39	0	0	49	4393
2026-01-23 11:33:07.57	263.47	22.70	-39.0	-40.7	20.1	0.00e+00	0	39	0	0	49	4435
2026-01-23 11:33:08.56	263.74	22.72	-38.9	-40.7	20.1	0.00e+00	0	39	0	0	49	4395
2026-01-23 11:33:09.56	264.01	22.73	-38.8	-40.5	20.2	0.00e+00	0	39	0	0	49	4333
2026-01-23 11:33:10.55	264.28	22.75	-38.8	-40.4	20.2	0.00e+00	0	38	0	0	49	4288
2026-01-23 11:33:11.55	264.55	22.76	-38.8	-40.5	20.2	0.00e+00	0	38	0	0	49	4318
2026-01-23 11:33:12.54	264.82	22.78	-38.7	-40.4	20.4	0.00e+00	0	38	0	0	49	4248
2026-01-23 11:33:13.54	265.09	22.79	-38.6	-40.2	20.4	0.00e+00	0	39	0	0	49	4172
2026-01-23 11:33:14.53	265.36	22.81	-38.5	-40.2	20.5	0.00e+00	0	39	0	0	49	4162
2026-01-23 11:33:15.52	265.63	22.82	-38.5	-40.1	20.5	0.00e+00	0	39	0	0	48	4380
2026-01-23 11:33:16.52	265.91	22.83	-38.6	-40.3	20.4	0.00e+00	0	39	0	0	48	4454
2026-01-23 11:33:17.52	266.18	22.84	-38.6	-40.2	20.4	0.00e+00	0	39	0	0	48	4424
2026-01-23 11:33:18.51	266.45	22.85	-38.7	-40.3	20.4	0.00e+00	0	39	0	0	48	4476
2026-01-23 11:33:19.51	266.72	22.86	-38.8	-40.4	20.3	0.00e+00	0	38	0	0	48	4537
2026-01-23 11:33:20.50	266.99	22.87	-38.8	-40.5	20.3	0.00e+00	0	39	0	0	48	4583
2026-01-23 11:33:21.50	267.27	22.88	-38.8	-40.5	20.3	0.00e+00	0	39	0	0	48	4575
2026-01-23 11:33:22.49	267.54	22.89	-38.8	-40.5	20.4	0.00e+00	0	39	0	0	48	4560
2026-01-23 11:33:23.49	267.81	22.90	-38.6	-40.3	20.5	0.00e+00	0	39	0	0	48	4459
2026-01-23 11:33:24.49	268.09	22.90	-38.6	-40.3	20.4	0.00e+00	0	39	0	0	48	4457
2026-01-23 11:33:25.48	268.36	22.91	-38.8	-40.5	20.2	0.00e+00	0	39	0	0	48	4564
2026-01-23 11:33:26.47	268.63	22.91	-38.8	-40.5	20.2	0.00e+00	0	39	0	0	48	4565
2026-01-23 11:33:27.47	268.91	22.92	-38.9	-40.7	20.1	0.00e+00	0	39	0	0	48	4663
2026-01-23 11:33:28.46	269.18	22.92	-38.9	-40.6	20.2	0.00e+00	0	39	0	0	48	4626
2026-01-23 11:33:29.46	269.45	22.93	-38.9	-40.6	20.1	0.00e+00	0	39	0	0	48	4647
2026-01-23 11:33:30.45	269.72	22.93	-38.9	-40.6	20.2	0.00e+00	0	39	0	0	48	4619
2026-01-23 11:33:31.45	270.00	22.93	-38.9	-40.6	20.2	0.00e+00	0	38	0	0	48	4608
2026-01-23 11:33:32.44	270.27	22.93	-38.9	-40.5	20.2	0.00e+00	0	39	0	0	48	4595
2026-01-23 11:33:33.44	270.55	22.93	-38.8	-40.5	20.3	0.00e+00	0	38	0	0	48	4563
2026-01-23 11:33:34.43	270.82	22.93	-38.8	-40.5	20.3	0.00e+00	0	38	0	0	48	4573
2026-01-23 11:33:35.43	271.09	22.93	-38.8	-40.4	20.3	0.00e+00	0	39	0	0	48	4531
2026-01-23 11:33:36.42	271.36	22.93	-38.7	-40.3	20.4	0.00e+00	0	39	0	0	48	4491
2026-01-23 11:33:37.42	271.64	22.93	-38.7	-40.4	20.4	0.00e+00	0	39	0	0	48	4518
2026-01-23 11:33:38.41	271.91	22.93	-38.6	-40.2	20.6	0.00e+00	0	39	0	0	48	4414
2026-01-23 11:33:39.41	272.19	22.92	-38.6	-40.2	20.5	0.00e+00	0	38	0	0	48	4434
2026-01-23 11:33:40.40	272.46	22.92	-38.5	-40.2	20.5	0.00e+00	0	39	0	0	48	4412
2026-01-23 11:33:41.39	272.73	22.91	-38.7	-40.4	20.4	0.00e+00	0	38	0	0	48	4499
2026-01-23 11:33:42.39	273.00	22.91	-38.8	-40.5	20.4	0.00e+00	0	38	0	0	48	4560
2026-01-23 11:33:43.39	273.28	22.90	-38.8	-40.5	20.3	0.00e+00	0	38	0	0	48	4564
2026-01-23 11:33:44.38	273.55	22.90	-38.7	-40.4	20.4	0.00e+00	0	39	0	0	48	4504
2026-01-23 11:33:45.37	273.82	22.89	-38.8	-40.4	20.4	0.00e+00	0	39	0	0	48	4537
2026-01-23 11:33:46.37	274.09	22.88	-38.9	-40.6	20.2	0.00e+00	0	38	0	0	48	4623
2026-01-23 11:33:47.36	274.37	22.87	-38.9	-40.6	20.2	0.00e+00	0	39	0	0	48	4602
2026-01-23 11:33:48.35	274.64	22.86	-38.9	-40.6	20.2	0.00e+00	0	39	0	0	48	4611
2026-01-23 11:33:49.35	274.91	22.85	-38.9	-40.6	20.2	0.00e+00	0	39	0	0	48	4621
2026-01-23 11:33:50.34	275.18	22.84	-39.0	-40.7	20.1	0.00e+00	0	39	0	0	48	4682
2026-01-23 11:33:51.34	275.45	22.83	-39.1	-40.8	20.1	0.00e+00	0	39	0	0	48	4721
2026-01-23 11:33:52.33	275.72	22.82	-38.9	-40.5	20.3	0.00e+00	0	39	0	0	48	4590
2026-01-23 11:33:53.33	276.00	22.81	-38.8	-40.5	20.3	0.00e+00	0	39	0	0	48	4557
2026-01-23 11:33:54.32	276.27	22.80	-38.9	-40.6	20.2	0.00e+00	0	39	0	0	48	4599
2026-01-23 11:33:55.32	276.54	22.78	-38.9	-40.6	20.2	0.00e+00	0	39	0	0	48	4609
2026-01-23 11:33:56.31	276.81	22.77	-39.0	-40.7	20.1	0.00e+00	0	39	0	0	48	4661
2026-01-23 11:33:57.31	277.08	22.75	-38.9	-40.6	20.2	0.00e+00	0	39	0	0	48	4599
2026-01-23 11:33:58.30	277.35	22.74	-38.7	-40.4	20.4	0.00e+00	0	39	0	0	48	4508
2026-01-23 11:33:59.30	277.62	22.72	-38.6	-40.2	20.5	0.00e+00	0	38	0	0	48	4430
2026-01-23 11:34:00.29	277.89	22.70	-38.6	-40.2	20.5	0.00e+00	0	38	0	0	48	4422
2026-01-23 11:34:01.29	278.16	22.69	-38.5	-40.2	20.5	0.00e+00	0	39	0	0	48	4394
2026-01-23 11:34:02.28	278.42	22.67	-38.4	-40.0	20.6	0.00e+00	0	39	0	0	48	4335
2026-01-23 11:34:03.27	278.69	22.65	-38.5	-40.2	20.5	0.00e+00	0	38	0	0	48	4392
2026-01-23 11:34:04.27	278.96	22.63	-38.5	-40.1	20.6	0.00e+00	0	39	0	0	48	4368
2026-01-23 11:34:05.26	279.23	22.61	-38.5	-40.1	20.6	0.00e+00	0	39	0	0	48	4383
2026-01-23 11:34:06.26	279.50	22.59	-38.5	-40.1	20.6	0.00e+00	0	39	0	0	48	4366
2026-01-23 11:34:07.25	279.76	22.57	-38.5	-40.1	20.5	0.00e+00	0	38	0	0	48	4376
2026-01-23 11:34:08.25	280.03	22.55	-38.5	-40.1	20.5	0.00e+00	0	39	0	0	48	4390
2026-01-23 11:34:09.24	280.30	22.52	-38.5	-40.2	20.5	0.00e+00	0	38	0	0	48	4403
2026-01-23 11:34:10.24	280.56	22.50	-38.6	-40.3	20.4	0.00e+00	0	39	0	0	48	4443
2026-01-23 11:34:11.23	280.83	22.48	-38.6	-40.2	20.5	0.00e+00	0	39	0	0	48	4427
2026-01-23 11:34:12.23	281.09	22.45	-38.6	-40.2	20.5	0.00e+00	0	39	0	0	48	4439
2026-01-23 11:34:13.22	281.36	22.43	-38.4	-40.1	20.6	0.00e+00	0	39	0	0	48	4349
2026-01-23 11:34:14.22	281.62	22.40	-38.5	-40.2	20.5	0.00e+00	0	38	0	0	48	4397
2026-01-23 11:34:15.21	281.89	22.38	-38.5	-40.2	20.5	0.00e+00	0	39	0	0	48	4394
2026-01-23 11:34:16.21	282.15	22.35	-38.6	-40.2	20.5	0.00e+00	0	38	0	0	48	4416
2026-01-23 11:34:17.20	282.41	22.32	-38.5	-40.2	20.5	0.00e+00	0	39	0	0	48	4410
2026-01-23 11:34:18.20	282.68	22.29	-38.6	-40.3	20.4	0.00e+00	0	38	0	0	48	4442
2026-01-23 11:34:19.19	282.94	22.27	-38.6	-40.2	20.5	0.00e+00	0	39	0	0	48	4433
2026-01-23 11:34:20.19	283.20	22.24	-38.5	-40.2	20.5	0.00e+00	0	38	0	0	48	4418
2026-01-23 11:34:21.18	283.46	22.21	-38.7	-40.3	20.4	0.00e+00	0	39	0	0	48	4484
2026-01-23 11:34:22.18	283.72	22.18	-38.8	-40.4	20.3	0.00e+00	0	38	0	0	48	4539
2026-01-23 11:34:23.17	283.98	22.15	-38.9	-40.6	20.1	0.00e+00	0	38	0	0	48	4624
2026-01-23 11:34:24.17	284.24	22.12	-38.8	-40.5	20.3	0.00e+00	0	38	0	0	48	4583
2026-01-23 11:34:25.16	284.50	22.08	-38.8	-40.5	20.3	0.00e+00	0	38	0	0	48	4569
2026-01-23 11:34:26.15	284.76	22.05	-38.9	-40.5	20.3	0.00e+00	0	39	0	0	48	4596
2026-01-23 11:34:27.15	285.02	22.02	-38.9	-40.5	20.3	0.00e+00	0	39	0	0	48	4598
2026-01-23 11:34:28.14	285.27	21.99	-38.7	-40.4	20.3	0.00e+00	0	39	0	0	48	4508
2026-01-23 11:34:29.13	285.53	21.95	-38.7	-40.4	20.4	0.00e+00	0	39	0	0	48	4508
2026-01-23 11:34:30.13	285.79	21.92	-38.8	-40.5	20.3	0.00e+00	0	39	0	0	48	4551
2026-01-23 11:34:31.12	286.04	21.88	-38.8	-40.5	20.3	0.00e+00	0	39	0	0	48	4547
2026-01-23 11:34:32.12	286.30	21.85	-38.7	-40.4	20.3	0.00e+00	0	39	0	0	48	4530
2026-01-23 11:34:33.12	286.55	21.81	-38.7	-40.4	20.3	0.00e+00	0	38	0	0	48	4519
2026-01-23 11:34:34.11	286.81	21.77	-38.6	-40.3	20.4	0.00e+00	0	39	0	0	48	4458
2026-01-23 11:34:35.10	287.06	21.74	-38.7	-40.3	20.4	0.00e+00	0	39	0	0	48	4479
2026-01-23 11:34:36.10	287.31	21.70	-38.7	-40.4	20.3	0.00e+00	0	39	0	0	48	4495
2026-01-23 11:34:37.10	287.56	21.66	-38.8	-40.5	20.2	0.00e+00	0	38	0	0	48	4565
2026-01-23 11:34:38.09	287.82	21.62	-38.8	-40.5	20.2	0.00e+00	0	39	0	0	48	4581
2026-01-23 11:34:39.09	288.07	21.58	-38.8	-40.4	20.3	0.00e+00	0	39	0	0	48	4543
2026-01-23 11:34:40.08	288.32	21.54	-38.8	-40.5	20.3	0.00e+00	0	38	0	0	48	4550
2026-01-23 11:34:41.08	288.57	21.50	-38.7	-40.3	20.3	0.00e+00	0	39	0	0	48	4486
2026-01-23 11:34:42.07	288.82	21.46	-38.6	-40.3	20.4	0.00e+00	0	38	0	0	48	4459
2026-01-23 11:34:43.07	289.07	21.42	-38.6	-40.3	20.4	0.00e+00	0	39	0	0	48	4467
2026-01-23 11:34:44.06	289.31	21.38	-38.6	-40.3	20.4	0.00e+00	0	38	0	0	48	4455
2026-01-23 11:34:45.05	289.56	21.34	-38.6	-40.2	20.4	0.00e+00	0	38	0	0	48	4436
2026-01-23 11:34:46.05	289.81	21.30	-38.7	-40.3	20.4	0.00e+00	0	38	0	0	48	4493
2026-01-23 11:34:47.04	290.05	21.25	-38.8	-40.5	20.3	0.00e+00	0	38	0	0	48	4554
2026-01-23 11:34:48.04	290.30	21.21	-38.8	-40.5	20.2	0.00e+00	0	39	0	0	48	4573
2026-01-23 11:34:49.03	290.54	21.17	-38.8	-40.5	20.3	0.00e+00	0	39	0	0	48	4548
2026-01-23 11:34:50.02	290.78	21.12	-38.8	-40.4	20.3	0.00e+00	0	39	0	0	48	4527
2026-01-23 11:34:51.02	291.03	21.08	-38.8	-40.5	20.2	0.00e+00	0	39	0	0	48	4574
2026-01-23 11:34:52.01	291.27	21.03	-38.8	-40.5	20.2	0.00e+00	0	38	0	0	48	4583
2026-01-23 11:34:53.01	291.51	20.99	-38.8	-40.5	20.3	0.00e+00	0	39	0	0	48	4568
2026-01-23 11:34:54.00	291.75	20.94	-38.8	-40.4	20.3	0.00e+00	0	38	0	0	48	4534
2026-01-23 11:34:55.00	291.99	20.90	-38.7	-40.4	20.4	0.00e+00	0	38	0	0	48	4516
2026-01-23 11:34:56.00	292.23	20.85	-38.7	-40.3	20.4	0.00e+00	0	38	0	0	48	4489
2026-01-23 11:34:56.99	292.47	20.80	-38.6	-40.3	20.4	0.00e+00	0	39	0	0	48	4446
2026-01-23 11:34:57.99	292.71	20.75	-38.7	-40.3	20.4	0.00e+00	0	39	0	0	48	4486
2026-01-23 11:34:58.98	292.95	20.71	-38.8	-40.5	20.2	0.00e+00	0	38	0	0	48	4577
2026-01-23 11:34:59.98	293.18	20.66	-38.9	-40.5	20.2	0.00e+00	0	39	0	0	48	4594
2026-01-23 11:35:00.97	293.42	20.61	-38.9	-40.6	20.1	0.00e+00	0	39	0	0	48	4615
2026-01-23 11:35:01.97	293.65	20.56	-38.9	-40.6	20.1	0.00e+00	0	39	0	0	48	4627
2026-01-23 11:35:02.96	293.89	20.51	-38.9	-40.6	20.1	0.00e+00	0	39	0	0	48	4627
2026-01-23 11:35:03.96	294.12	20.46	-38.8	-40.5	20.3	0.00e+00	0	39	0	0	48	4560
2026-01-23 11:35:04.95	294.35	20.41	-38.8	-40.5	20.2	0.00e+00	0	39	0	0	48	4550
2026-01-23 11:35:05.95	294.59	20.36	-38.8	-40.5	20.1	0.00e+00	0	39	0	0	48	4582
2026-01-23 11:35:06.94	294.82	20.31	-38.9	-40.6	20.1	0.00e+00	0	39	0	0	48	4645
2026-01-23 11:35:07.94	295.05	20.26	-38.9	-40.5	20.1	0.00e+00	0	39	0	0	48	4598
2026-01-23 11:35:08.94	295.28	20.21	-38.9	-40.5	20.1	0.00e+00	0	39	0	0	48	4587
2026-01-23 11:35:09.93	295.51	20.16	-38.8	-40.5	20.2	0.00e+00	0	39	0	0	48	4578
2026-01-23 11:35:10.93	295.74	20.10	-38.9	-40.6	20.1	0.00e+00	0	39	0	0	48	4617
2026-01-23 11:35:11.92	295.96	20.05	-38.9	-40.5	20.2	0.00e+00	0	38	0	0	48	4593
2026-01-23 11:35:12.92	296.19	20.00	-38.8	-40.5	20.2	0.00e+00	0	39	0	0	48	4583
2026-01-23 11:35:13.91	296.42	19.94	-38.8	-40.4	20.3	0.00e+00	0	39	0	0	48	4545
2026-01-23 11:35:14.91	296.64	19.89	-38.8	-40.5	20.1	0.00e+00	0	39	0	0	48	4585
2026-01-23 11:35:15.90	296.87	19.84	-38.9	-40.6	20.1	0.00e+00	0	38	0	0	48	4618
2026-01-23 11:35:16.90	297.09	19.78	-39.0	-40.7	20.0	0.00e+00	0	39	0	0	48	4669
2026-01-23 11:35:17.89	297.31	19.73	-39.0	-40.7	20.0	0.00e+00	0	38	0	0	48	4675
2026-01-23 11:35:18.89	297.54	19.67	-39.1	-40.9	19.9	0.00e+00	0	39	0	0	48	4760
2026-01-23 11:35:19.88	297.76	19.62	-39.0	-40.7	20.1	0.00e+00	0	39	0	0	48	4655
2026-01-23 11:35:20.88	297.98	19.56	-39.0	-40.7	20.0	0.00e+00	0	39	0	0	48	4668
2026-01-23 11:35:21.87	298.20	19.51	-39.1	-40.8	19.9	0.00e+00	0	39	0	0	48	4751
2026-01-23 11:35:22.87	298.42	19.45	-39.2	-40.9	19.8	0.00e+00	0	39	0	0	49	4528
2026-01-23 11:35:23.86	298.64	19.39	-39.3	-41.0	19.8	0.00e+00	0	39	0	0	49	4558
2026-01-23 11:35:24.86	298.85	19.34	-39.3	-41.0	19.8	0.00e+00	0	39	0	0	49	4594
2026-01-23 11:35:25.85	299.07	19.28	-39.3	-41.0	19.8	0.00e+00	0	39	0	0	49	4564
2026-01-23 11:35:26.85	299.29	19.22	-39.3	-41.0	19.8	0.00e+00	0	39	0	0	49	4587
2026-01-23 11:35:27.84	299.50	19.17	-39.2	-40.9	19.8	0.00e+00	0	39	0	0	49	4531
2026-01-23 11:35:28.84	299.72	19.11	-39.1	-40.8	19.9	0.00e+00	0	38	0	0	49	4462
2026-01-23 11:35:29.83	299.93	19.05	-39.1	-40.8	19.8	0.00e+00	0	38	0	0	49	4493
2026-01-23 11:35:30.83	300.14	18.99	-39.1	-40.8	19.8	0.00e+00	0	39	0	0	49	4486
2026-01-23 11:35:31.82	300.35	18.93	-39.0	-40.7	20.0	0.00e+00	0	39	0	0	49	4431
2026-01-23 11:35:32.81	300.56	18.88	-38.9	-40.6	20.1	0.00e+00	0	39	0	0	49	4368
2026-01-23 11:35:33.81	300.77	18.82	-38.9	-40.5	20.2	0.00e+00	0	38	0	0	49	4332
2026-01-23 11:35:34.80	300.98	18.76	-38.8	-40.5	20.3	0.00e+00	0	39	0	0	49	4314
2026-01-23 11:35:35.80	301.19	18.70	-38.9	-40.5	20.3	0.00e+00	0	38	0	0	49	4329
2026-01-23 11:35:36.79	301.40	18.64	-38.9	-40.6	20.2	0.00e+00	0	39	0	0	49	4353
2026-01-23 11:35:37.79	301.61	18.58	-39.1	-40.8	20.0	0.00e+00	0	39	0	0	49	4448
2026-01-23 11:35:38.78	301.81	18.52	-39.1	-40.8	19.9	0.00e+00	0	39	0	0	49	4489
2026-01-23 11:35:39.78	302.02	18.46	-39.3	-41.0	19.8	0.00e+00	0	39	0	0	49	4549
2026-01-23 11:35:40.78	302.23	18.40	-39.3	-41.1	19.7	0.00e+00	0	39	0	0	49	4603
2026-01-23 11:35:41.77	302.43	18.34	-39.3	-41.0	19.7	0.00e+00	0	38	0	0	49	4597
2026-01-23 11:35:42.76	302.63	18.28	-39.3	-41.1	19.7	0.00e+00	0	39	0	0	49	4610
2026-01-23 11:35:43.76	302.83	18.22	-39.4	-41.1	19.7	0.00e+00	0	39	0	0	49	4618
2026-01-23 11:35:44.75	303.03	18.16	-39.3	-41.0	19.7	0.00e+00	0	39	0	0	49	4584
2026-01-23 11:35:45.75	303.24	18.09	-39.3	-41.0	19.7	0.00e+00	0	38	0	0	49	4574
2026-01-23 11:35:46.74	303.43	18.03	-39.3	-41.0	19.8	0.00e+00	0	39	0	0	49	4554
2026-01-23 11:35:47.74	303.63	17.97	-39.3	-41.0	19.8	0.00e+00	0	38	0	0	49	4559
2026-01-23 11:35:48.73	303.83	17.91	-39.2	-40.9	19.9	0.00e+00	0	39	0	0	49	4523
2026-01-23 11:35:49.73	304.03	17.85	-39.3	-41.0	19.8	0.00e+00	0	39	0	0	49	4576
2026-01-23 11:35:50.72	304.23	17.78	-39.3	-41.1	19.8	0.00e+00	0	38	0	0	49	4607
2026-01-23 11:35:51.72	304.42	17.72	-39.4	-41.2	19.6	0.00e+00	0	39	0	0	49	4667
2026-01-23 11:35:52.71	304.62	17.66	-39.4	-41.2	19.7	0.00e+00	0	39	0	0	49	4658
2026-01-23 11:35:53.70	304.81	17.60	-39.6	-41.4	19.4	0.00e+00	0	39	0	0	49	4776
2026-01-23 11:35:54.70	305.01	17.53	-39.7	-41.5	19.3	0.00e+00	0	39	0	0	50	4582
2026-01-23 11:35:55.69	305.20	17.47	-39.9	-41.7	19.2	0.00e+00	0	39	0	0	50	4667
2026-01-23 11:35:56.69	305.39	17.41	-39.9	-41.8	19.1	0.00e+00	0	38	0	0	50	4706
2026-01-23 11:35:57.68	305.58	17.35	-39.9	-41.8	19.1	0.00e+00	0	38	0	0	50	4715
2026-01-23 11:35:58.68	305.77	17.28	-39.9	-41.7	19.2	0.00e+00	0	39	0	0	50	4686
2026-01-23 11:35:59.67	305.96	17.22	-39.8	-41.6	19.3	0.00e+00	0	39	0	0	50	4599
2026-01-23 11:36:00.67	306.15	17.15	-39.5	-41.3	19.5	0.00e+00	0	38	0	0	50	4469
2026-01-23 11:36:01.66	306.34	17.09	-39.5	-41.2	19.6	0.00e+00	0	38	0	0	50	4415
2026-01-23 11:36:02.66	306.53	17.03	-39.5	-41.2	19.5	0.00e+00	0	39	0	0	50	4435
2026-01-23 11:36:03.65	306.71	16.96	-39.6	-41.3	19.4	0.00e+00	0	38	0	0	50	4472
2026-01-23 11:36:04.65	306.90	16.90	-39.6	-41.3	19.4	0.00e+00	0	39	0	0	50	4493
2026-01-23 11:36:05.64	307.08	16.83	-39.7	-41.5	19.3	0.00e+00	0	39	0	0	50	4559
2026-01-23 11:36:06.64	307.27	16.77	-39.8	-41.6	19.2	0.00e+00	0	39	0	0	50	4609
2026-01-23 11:36:07.63	307.45	16.71	-39.7	-41.5	19.3	0.00e+00	0	39	0	0	50	4554
2026-01-23 11:36:08.63	307.63	16.64	-39.8	-41.6	19.2	0.00e+00	0	39	0	0	50	4620
2026-01-23 11:36:09.62	307.81	16.58	-39.8	-41.6	19.1	0.00e+00	0	39	0	0	50	4633
2026-01-23 11:36:10.61	308.00	16.51	-39.9	-41.7	19.1	0.00e+00	0	38	0	0	50	4684
2026-01-23 11:36:11.61	308.18	16.45	-39.9	-41.8	19.1	0.00e+00	0	38	0	0	50	4710
2026-01-23 11:36:12.60	308.36	16.38	-40.0	-41.8	19.1	0.00e+00	0	38	0	0	50	4717
2026-01-23 11:36:13.60	308.54	16.32	-40.0	-41.8	19.1	0.00e+00	0	38	0	0	50	4715
2026-01-23 11:36:14.59	308.71	16.25	-40.0	-41.8	19.1	0.00e+00	0	39	0	0	50	4734
2026-01-23 11:36:15.59	308.89	16.19	-40.1	-41.9	19.0	0.00e+00	0	38	0	0	50	4772
2026-01-23 11:36:16.58	309.07	16.12	-40.0	-41.8	19.0	0.00e+00	0	38	0	0	50	4747
2026-01-23 11:36:17.58	309.24	16.06	-39.9	-41.7	19.1	0.00e+00	0	39	0	0	50	4700
2026-01-23 11:36:18.58	309.42	15.99	-39.9	-41.8	19.0	0.00e+00	0	39	0	0	50	4714
2026-01-23 11:36:19.57	309.59	15.92	-39.9	-41.8	19.0	0.00e+00	0	38	0	0	50	4712
2026-01-23 11:36:20.57	309.77	15.86	-40.0	-41.8	19.0	0.00e+00	0	39	0	0	50	4736
2026-01-23 11:36:21.56	309.94	15.79	-40.0	-41.8	19.0	0.00e+00	0	39	0	0	50	4753
2026-01-23 11:36:22.56	310.11	15.73	-40.0	-41.8	19.0	0.00e+00	0	38	0	0	50	4745
2026-01-23 11:36:23.55	310.28	15.66	-39.9	-41.8	19.0	0.00e+00	0	39	0	0	50	4728
2026-01-23 11:36:24.55	310.45	15.60	-39.9	-41.7	19.1	0.00e+00	0	39	0	0	50	4702
2026-01-23 11:36:25.54	310.62	15.53	-39.8	-41.6	19.1	0.00e+00	0	38	0	0	50	4644
2026-01-23 11:36:26.54	310.79	15.46	-39.8	-41.6	19.2	0.00e+00	0	39	0	0	50	4638
2026-01-23 11:36:27.53	310.96	15.40	-39.8	-41.6	19.2	0.00e+00	0	39	0	0	50	4616
2026-01-23 11:36:28.53	311.13	15.33	-39.9	-41.7	19.1	0.00e+00	0	38	0	0	50	4677
2026-01-23 11:36:29.52	311.30	15.27	-39.7	-41.5	19.3	0.00e+00	0	38	0	0	50	4569
2026-01-23 11:36:30.51	311.46	15.20	-39.7	-41.5	19.2	0.00e+00	0	38	0	0	50	4585
2026-01-23 11:36:31.51	311.63	15.13	-39.8	-41.6	19.2	0.00e+00	0	39	0	0	50	4609
2026-01-23 11:36:32.51	311.79	15.07	-39.8	-41.6	19.2	0.00e+00	0	38	0	0	50	4648
2026-01-23 11:36:33.50	311.96	15.00	-39.9	-41.7	19.2	0.00e+00	0	38	0	0	50	4677
2026-01-23 11:36:34.49	312.12	14.93	-39.9	-41.8	19.1	0.00e+00	0	39	0	0	50	4720
2026-01-23 11:36:35.49	312.28	14.87	-39.8	-41.7	19.1	0.00e+00	0	39	0	0	50	4661
2026-01-23 11:36:36.48	312.44	14.80	-39.8	-41.7	19.2	0.00e+00	0	38	0	0	50	4660
2026-01-23 11:36:37.48	312.61	14.74	-39.7	-41.6	19.2	0.00e+00	0	39	0	0	50	4609
2026-01-23 11:36:38.47	312.77	14.67	-39.8	-41.7	19.2	0.00e+00	0	39	0	0	50	4667
2026-01-23 11:36:39.47	312.93	14.60	-39.9	-41.8	19.1	0.00e+00	0	39	0	0	50	4724
2026-01-23 11:36:40.47	313.09	14.54	-39.9	-41.7	19.2	0.00e+00	0	38	0	0	50	4673
2026-01-23 11:36:41.46	313.25	14.47	-39.8	-41.6	19.2	0.00e+00	0	39	0	0	50	4649
2026-01-23 11:36:42.46	313.40	14.40	-39.8	-41.7	19.2	0.00e+00	0	39	0	0	50	4657
2026-01-23 11:36:43.45	313.56	14.34	-39.7	-41.6	19.3	0.00e+00	0	38	0	0	50	4601
2026-01-23 11:36:44.44	313.72	14.27	-39.7	-41.5	19.3	0.00e+00	0	38	0	0	50	4575
2026-01-23 11:36:45.44	313.87	14.20	-39.7	-41.5	19.3	0.00e+00	0	38	0	0	50	4590
2026-01-23 11:36:46.43	314.03	14.14	-39.6	-41.4	19.4	0.00e+00	0	39	0	0	50	4511
2026-01-23 11:36:47.43	314.18	14.07	-39.6	-41.4	19.4	0.00e+00	0	39	0	0	50	4526
2026-01-23 11:36:48.43	314.34	14.00	-39.7	-41.4	19.4	0.00e+00	0	39	0	0	50	4538
2026-01-23 11:36:49.42	314.49	13.94	-39.6	-41.4	19.3	0.00e+00	0	39	0	0	50	4535
2026-01-23 11:36:50.42	314.64	13.87	-39.8	-41.6	19.2	0.00e+00	0	39	0	0	50	4611
2026-01-23 11:36:51.41	314.79	13.80	-39.8	-41.6	19.2	0.00e+00	0	39	0	0	50	4625
2026-01-23 11:36:52.41	314.95	13.74	-39.8	-41.7	19.1	0.00e+00	0	39	0	0	50	4656
2026-01-23 11:36:53.40	315.10	13.67	-39.9	-41.7	19.1	0.00e+00	0	39	0	0	50	4680
2026-01-23 11:36:54.40	315.25	13.60	-40.0	-41.8	19.0	0.00e+00	0	39	0	0	50	4718
2026-01-23 11:36:55.40	315.40	13.54	-40.0	-41.8	19.0	0.00e+00	0	39	0	0	50	4746
2026-01-23 11:36:56.39	315.54	13.47	-40.0	-41.8	19.0	0.00e+00	0	39	0	0	50	4742
2026-01-23 11:36:57.38	315.69	13.40	-40.1	-42.0	18.9	0.00e+00	0	38	0	0	50	4818
2026-01-23 11:36:58.38	315.84	13.34	-40.0	-41.9	18.9	0.00e+00	0	38	0	0	50	4771
2026-01-23 11:36:59.38	315.99	13.27	-40.1	-42.0	18.8	0.00e+00	0	38	0	0	50	4831
2026-01-23 11:37:00.37	316.13	13.20	-40.1	-42.0	18.8	0.00e+00	0	39	0	0	50	4829
2026-01-23 11:37:01.37	316.28	13.14	-40.1	-42.1	18.8	0.00e+00	0	38	0	0	50	4873
2026-01-23 11:37:02.36	316.42	13.07	-40.1	-42.0	18.8	0.00e+00	0	39	0	0	50	4839
2026-01-23 11:37:03.35	316.57	13.01	-40.2	-42.1	18.7	0.00e+00	0	39	0	0	50	4884
2026-01-23 11:37:04.35	316.71	12.94	-40.2	-42.1	18.6	0.00e+00	0	39	0	0	51	4608
2026-01-23 11:37:05.34	316.85	12.87	-40.2	-42.1	18.7	0.00e+00	0	39	0	0	51	4600
2026-01-23 11:37:06.34	316.99	12.81	-40.2	-42.1	18.6	0.00e+00	0	38	0	0	51	4624
2026-01-23 11:37:07.33	317.14	12.74	-40.3	-42.2	18.5	0.00e+00	0	39	0	0	51	4682
2026-01-23 11:37:08.33	317.28	12.67	-40.4	-42.2	18.5	0.00e+00	0	39	0	0	51	4705
2026-01-23 11:37:09.32	317.42	12.61	-40.4	-42.3	18.4	0.00e+00	0	39	0	0	51	4743
2026-01-23 11:37:10.32	317.56	12.54	-40.5	-42.4	18.3	0.00e+00	0	38	0	0	51	4791
2026-01-23 11:37:11.31	317.70	12.48	-40.6	-42.5	18.2	0.00e+00	0	39	0	0	51	4827
2026-01-23 11:37:12.31	317.84	12.41	-40.6	-42.5	18.2	0.00e+00	0	39	0	0	51	4825
2026-01-23 11:37:13.30	317.97	12.34	-40.6	-42.6	18.2	0.00e+00	0	39	0	0	51	4888
2026-01-23 11:37:14.29	318.11	12.28	-40.6	-42.5	18.2	0.00e+00	0	39	0	0	51	4827
2026-01-23 11:37:15.29	318.25	12.21	-40.6	-42.5	18.2	0.00e+00	0	39	0	0	51	4869
2026-01-23 11:37:16.28	318.38	12.14	-40.6	-42.6	18.1	0.00e+00	0	38	0	0	52	4600
2026-01-23 11:37:17.28	318.52	12.08	-40.5	-42.4	18.2	0.00e+00	0	39	0	0	52	4538
2026-01-23 11:37:18.27	318.65	12.01	-40.4	-42.3	18.4	0.00e+00	0	38	0	0	52	4481
2026-01-23 11:37:19.26	318.79	11.95	-40.3	-42.2	18.5	0.00e+00	0	38	0	0	52	4413
2026-01-23 11:37:20.26	318.92	11.88	-40.3	-42.2	18.4	0.00e+00	0	39	0	0	52	4427
2026-01-23 11:37:21.25	319.05	11.82	-40.2	-42.1	18.5	0.00e+00	0	38	0	0	52	4391
2026-01-23 11:37:22.25	319.19	11.75	-40.2	-42.2	18.5	0.00e+00	0	39	0	0	52	4424
2026-01-23 11:37:23.24	319.32	11.68	-40.2	-42.1	18.5	0.00e+00	0	39	0	0	52	4390
2026-01-23 11:37:24.24	319.45	11.62	-40.2	-42.2	18.4	0.00e+00	0	39	0	0	52	4441
2026-01-23 11:37:25.23	319.58	11.55	-40.2	-42.3	18.4	0.00e+00	0	39	0	0	52	4455
2026-01-23 11:37:26.23	319.71	11.49	-40.3	-42.3	18.4	0.00e+00	0	38	0	0	52	4487
2026-01-23 11:37:27.22	319.84	11.42	-40.3	-42.3	18.4	0.00e+00	0	38	0	0	52	4475
2026-01-23 11:37:28.22	319.97	11.36	-40.3	-42.3	18.4	0.00e+00	0	38	0	0	52	4481
2026-01-23 11:37:29.21	320.10	11.29	-40.4	-42.4	18.3	0.00e+00	0	39	0	0	52	4521
2026-01-23 11:37:30.20	320.23	11.23	-40.5	-42.5	18.3	0.00e+00	0	39	0	0	52	4558
2026-01-23 11:37:31.20	320.35	11.16	-40.4	-42.3	18.3	0.00e+00	0	38	0	0	52	4487
2026-01-23 11:37:32.19	320.48	11.09	-40.5	-42.5	18.2	0.00e+00	0	39	0	0	52	4546
2026-01-23 11:37:33.18	320.61	11.03	-40.6	-42.5	18.2	0.00e+00	0	39	0	0	52	4597
2026-01-23 11:37:34.18	320.73	10.96	-40.6	-42.6	18.1	0.00e+00	0	39	0	0	52	4604
2026-01-23 11:37:35.17	320.86	10.90	-40.6	-42.6	18.1	0.00e+00	0	39	0	0	52	4620
2026-01-23 11:37:36.17	320.98	10.83	-40.6	-42.6	18.1	0.00e+00	0	38	0	0	52	4623
2026-01-23 11:37:37.16	321.11	10.77	-40.6	-42.6	18.0	0.00e+00	0	39	0	0	52	4645
2026-01-23 11:37:38.15	321.23	10.70	-40.6	-42.6	18.0	0.00e+00	0	38	0	0	52	4646
2026-01-23 11:37:39.14	321.35	10.64	-40.6	-42.6	18.0	0.00e+00	0	39	0	0	52	4635
2026-01-23 11:37:40.14	321.48	10.57	-40.6	-42.6	18.1	0.00e+00	0	38	0	0	52	4608
2026-01-23 11:37:41.13	321.60	10.51	-40.6	-42.7	18.0	0.00e+00	0	39	0	0	52	4661
2026-01-23 11:37:42.13	321.72	10.44	-40.7	-42.8	17.8	0.00e+00	0	39	0	0	52	4720
2026-01-23 11:37:43.12	321.84	10.38	-40.7	-42.7	17.9	0.00e+00	0	39	0	0	52	4675
2026-01-23 11:37:44.12	321.96	10.32	-40.8	-42.8	17.8	0.00e+00	0	39	0	0	52	4754
2026-01-23 11:37:45.11	322.08	10.25	-40.8	-42.8	17.8	0.00e+00	0	39	0	0	52	4715
2026-01-23 11:37:46.11	322.20	10.19	-40.9	-42.9	17.7	0.00e+00	0	39	0	0	52	4774
2026-01-23 11:37:47.11	322.32	10.12	-40.9	-42.9	17.7	0.00e+00	0	38	0	0	52	4806
2026-01-23 11:37:48.10	322.44	10.06	-40.8	-42.8	17.8	0.00e+00	0	38	0	0	52	4726
2026-01-23 11:37:49.10	322.56	9.99	-40.8	-42.8	17.8	0.00e+00	0	39	0	0	52	4755
2026-01-23 11:37:50.09	322.68	9.93	-40.8	-42.9	17.8	0.00e+00	0	39	0	0	52	4767
2026-01-23 11:37:51.09	322.79	9.86	-40.8	-43.0	17.7	0.00e+00	0	39	0	0	52	4839
2026-01-23 11:37:52.08	322.91	9.80	-40.8	-43.0	17.7	0.00e+00	0	38	0	0	52	4851
2026-01-23 11:37:53.08	323.03	9.74	-40.6	-42.8	17.9	0.00e+00	0	39	0	0	52	4739
2026-01-23 11:37:54.07	323.14	9.67	-40.7	-42.9	17.8	0.00e+00	0	39	0	0	52	4764
2026-01-23 11:37:55.07	323.26	9.61	-40.6	-42.8	17.9	0.00e+00	0	38	0	0	52	4744
2026-01-23 11:37:56.06	323.37	9.54	-40.6	-42.8	17.8	0.00e+00	0	39	0	0	52	4759
2026-01-23 11:37:57.06	323.49	9.48	-40.7	-42.9	17.8	0.00e+00	0	39	0	0	52	4779
2026-01-23 11:37:58.05	323.60	9.42	-40.6	-42.8	17.8	0.00e+00	0	38	0	0	52	4725
2026-01-23 11:37:59.05	323.71	9.35	-40.7	-42.9	17.7	0.00e+00	0	39	0	0	52	4800
2026-01-23 11:38:00.04	323.83	9.29	-40.7	-43.0	17.6	0.00e+00	0	38	0	0	52	4820
2026-01-23 11:38:01.04	323.94	9.23	-40.7	-43.0	17.5	0.00e+00	0	39	0	0	52	4863
2026-01-23 11:38:02.03	324.05	9.16	-40.7	-43.0	17.5	0.00e+00	0	39	0	0	52	4862
2026-01-23 11:38:03.02	324.16	9.10	-40.8	-43.1	17.4	0.00e+00	0	39	0	0	52	4916
2026-01-23 11:38:04.02	324.27	9.04	-40.8	-43.1	17.4	0.00e+00	0	38	0	0	52	4911
2026-01-23 11:38:05.01	324.38	8.97	-47.3	-59.9	3.8	6.47e-01	0	38	104	0	65	15979
2026-01-23 11:38:06.01	324.49	8.91	-48.8	-62.2	3.8	1.49e+00	0	39	104	0	68	17671
2026-01-23 11:38:07.00	324.60	8.85	-49.1	-62.5	3.8	1.49e+00	0	39	104	0	68	18184
2026-01-23 11:38:07.99	324.71	8.78	-48.6	-62.6	3.8	1.49e+00	0	39	104	0	68	18486
2026-01-23 11:38:08.98	324.82	8.72	-49.2	-62.7	3.8	1.49e+00	0	39	104	0	69	17552
2026-01-23 11:38:09.98	324.93	8.66	-49.0	-62.7	3.8	1.49e+00	0	39	104	0	69	17665
2026-01-23 11:38:10.97	325.04	8.60	-49.7	-62.8	3.8	1.49e+00	0	39	104	0	70	16767
2026-01-23 11:38:11.96	325.14	8.53	-49.7	-62.8	3.8	1.49e+00	0	38	104	0	70	16803
2026-01-23 11:38:12.95	325.25	8.47	-49.5	-62.8	3.8	1.49e+00	0	39	104	0	70	16785
2026-01-23 11:38:13.95	325.36	8.41	-49.5	-62.8	3.8	1.49e+00	0	39	104	0	70	16849
2026-01-23 11:38:14.94	325.46	8.35	-49.6	-62.8	3.8	1.49e+00	0	38	104	0	70	16875
2026-01-23 11:38:15.93	325.57	8.28	-49.5	-62.9	3.8	1.49e+00	0	38	104	0	70	16902
2026-01-23 11:38:16.93	325.67	8.22	-49.3	-62.7	3.8	1.49e+00	0	38	104	0	70	16653
2026-01-23 11:38:17.92	325.78	8.16	-49.8	-62.8	3.8	1.49e+00	0	39	104	0	70	16808
2026-01-23 11:38:18.91	325.88	8.10	-49.9	-62.9	3.8	1.49e+00	0	39	104	0	70	16941
2026-01-23 11:38:19.91	325.99	8.03	-49.9	-62.8	3.8	1.49e+00	0	39	104	0	70	16872
2026-01-23 11:38:20.90	326.09	7.97	-49.8	-62.8	3.8	1.49e+00	0	39	104	0	70	16881
2026-01-23 11:38:21.89	326.19	7.91	-49.7	-62.8	3.8	1.49e+00	0	39	104	0	70	16858
2026-01-23 11:38:22.89	326.29	7.85	-49.8	-62.8	3.8	1.49e+00	0	39	104	0	70	16804
2026-01-23 11:38:23.88	326.40	7.79	-49.7	-62.8	3.8	1.49e+00	0	39	104	0	70	16741
2026-01-23 11:38:24.87	326.50	7.73	-49.7	-62.8	3.8	1.49e+00	0	39	104	0	70	16710
2026-01-23 11:38:25.87	326.60	7.66	-49.6	-62.7	3.8	1.49e+00	0	39	104	0	70	16687
2026-01-23 11:38:26.86	326.70	7.60	-49.6	-62.7	3.8	1.49e+00	0	39	104	0	70	16648
2026-01-23 11:38:27.85	326.80	7.54	-49.6	-62.7	3.8	1.49e+00	0	39	104	0	70	16689
2026-01-23 11:38:28.85	326.90	7.48	-49.6	-62.8	3.8	1.49e+00	0	38	104	0	70	16720
2026-01-23 11:38:29.84	327.00	7.42	-49.6	-62.8	3.8	1.49e+00	0	39	104	0	70	16722
2026-01-23 11:38:30.83	327.10	7.36	-49.6	-62.7	3.8	1.49e+00	0	38	104	0	70	16643
2026-01-23 11:38:31.83	327.20	7.30	-49.6	-62.7	3.8	1.49e+00	0	39	104	0	70	16663
2026-01-23 11:38:32.82	327.30	7.23	-49.6	-62.7	3.8	1.49e+00	0	39	104	0	70	16615
2026-01-23 11:38:33.81	327.39	7.17	-49.6	-62.7	3.8	1.49e+00	0	39	104	0	70	16631
2026-01-23 11:38:34.81	327.49	7.11	-49.6	-62.7	3.8	1.49e+00	0	39	104	0	70	16692
2026-01-23 11:38:35.80	327.59	7.05	-49.6	-62.7	3.8	1.49e+00	0	38	104	0	70	16669
2026-01-23 11:38:36.79	327.69	6.99	-49.6	-62.8	3.8	1.49e+00	0	39	104	0	70	16710
2026-01-23 11:38:37.79	327.78	6.93	-49.6	-62.7	3.8	1.49e+00	0	39	104	0	70	16667
2026-01-23 11:38:38.78	327.88	6.87	-49.6	-62.7	3.8	1.49e+00	0	39	104	0	70	16655
2026-01-23 11:38:39.77	327.97	6.81	-49.6	-62.7	3.8	1.49e+00	0	39	104	0	70	16679
2026-01-23 11:38:40.76	328.07	6.75	-49.6	-62.7	3.8	1.49e+00	0	39	104	0	70	16681
2026-01-23 11:38:41.76	328.17	6.69	-49.6	-62.7	3.8	1.49e+00	0	39	104	0	70	16650
2026-01-23 11:38:42.75	328.26	6.63	-49.6	-62.7	3.8	1.49e+00	0	39	104	0	70	16640
2026-01-23 11:38:43.74	328.35	6.57	-49.6	-62.7	3.8	1.49e+00	0	39	104	0	70	16642
2026-01-23 11:38:44.73	328.45	6.51	-49.6	-62.7	3.8	1.49e+00	0	39	104	0	70	16645
2026-01-23 11:38:45.73	328.54	6.45	-49.6	-62.7	3.8	1.49e+00	0	39	104	0	70	16624
2026-01-23 11:38:46.72	328.63	6.39	-49.5	-62.7	3.8	1.49e+00	0	39	104	0	70	16687
2026-01-23 11:38:47.71	328.73	6.33	-49.6	-62.7	3.8	1.49e+00	0	39	104	0	70	16633
2026-01-23 11:38:48.71	328.82	6.27	-49.6	-62.8	3.8	1.49e+00	0	39	104	0	70	16705
2026-01-23 11:38:49.70	328.91	6.21	-49.6	-62.7	3.8	1.49e+00	0	39	104	0	70	16650
2026-01-23 11:38:50.69	329.00	6.15	-49.6	-62.7	3.8	1.49e+00	0	39	104	0	70	16633
2026-01-23 11:38:51.69	329.09	6.09	-49.5	-62.7	3.8	1.49e+00	0	39	104	0	70	16651
2026-01-23 11:38:52.68	329.19	6.03	-49.6	-62.7	3.8	1.49e+00	0	39	104	0	70	16628
2026-01-23 11:38:53.67	329.28	5.97	-49.6	-62.7	3.8	1.49e+00	0	39	104	0	70	16629
2026-01-23 11:38:54.67	329.37	5.91	-49.6	-62.7	3.8	1.49e+00	0	39	104	0	70	16597
2026-01-23 11:38:55.66	329.46	5.85	-49.6	-62.7	3.8	1.49e+00	0	39	104	0	70	16641
2026-01-23 11:38:56.65	329.55	5.79	-49.6	-62.7	3.8	1.49e+00	0	39	104	0	70	16663
2026-01-23 11:38:57.65	329.64	5.73	-49.4	-62.7	3.8	1.49e+00	0	39	104	0	70	16607
2026-01-23 11:38:58.64	329.72	5.68	-49.6	-62.7	3.8	1.49e+00	0	38	104	0	70	16671
2026-01-23 11:38:59.63	329.81	5.62	-49.6	-62.7	3.8	1.49e+00	0	39	104	0	70	16630
2026-01-23 11:39:00.63	329.90	5.56	-49.5	-62.7	3.8	1.49e+00	0	39	104	0	70	16575
2026-01-23 11:39:01.62	329.99	5.50	-49.6	-62.7	3.8	1.49e+00	0	39	104	0	70	16648
2026-01-23 11:39:02.61	330.08	5.44	-49.6	-62.7	3.8	1.49e+00	0	39	104	0	70	16630
2026-01-23 11:39:03.61	330.16	5.38	-49.6	-62.7	3.8	1.49e+00	0	39	104	0	70	16666
2026-01-23 11:39:04.60	330.25	5.32	-49.6	-62.7	3.8	1.49e+00	0	39	104	0	70	16554
2026-01-23 11:39:05.59	330.34	5.26	-49.6	-62.7	3.8	1.49e+00	0	38	104	0	70	16595
2026-01-23 11:39:06.58	330.42	5.21	-49.6	-62.7	3.8	1.49e+00	0	39	104	0	70	16608
2026-01-23 11:39:07.58	330.51	5.15	-49.6	-62.7	3.8	1.49e+00	0	39	104	0	70	16600
2026-01-23 11:39:08.57	330.59	5.09	-49.6	-62.7	3.8	1.49e+00	0	38	104	0	70	16591
2026-01-23 11:39:09.56	330.68	5.03	-49.6	-62.7	3.8	1.49e+00	0	39	104	0	70	16665
2026-01-23 11:39:10.56	330.77	4.97	-49.6	-62.7	3.8	1.49e+00	0	39	104	0	70	16606

#Closed at: 2026-01-23 11:39:11
#Recorded file [0 MB]: D:/Data/31040_260123_142800.dat