passes_logs/2026/01/23/T1/T1__20260123_143717_FENGYUN_3E_rec.log

#Pass ID: 20260123_143717_FENGYUN 3E
#Satellite: FENGYUN 3E
#Configuration: FENGYUN 3E
#almurnet v.1.7.20251203
#Start time: 2026-01-23 14:37:18

#Version: 2.0.20230620
#Station: T1
#Location: 37.570604 lon 55.790049 lat
#TLE: 1 49008U 21062A   26022.96857035  .00000014  00000+0  27449-4 0  9991
#TLE: 2 49008  98.7488  28.0032 0002359 122.8887 237.2516 14.19886951235971

#Time	Az	El	Level	Level2	SNR	BER	BlckErr	Temp	State	Recorded	gain1	gain2
2026-01-23 14:37:18.12	173.24	5.05	-48.3	-59.7	3.8	8.47e-01	0	35	0	0	67	12980
2026-01-23 14:37:19.11	173.26	5.12	-43.9	-59.5	3.8	8.47e-01	0	35	104	0	57	22584
2026-01-23 14:37:20.10	173.29	5.19	-43.9	-59.4	3.8	8.48e-01	0	35	104	0	57	22399
2026-01-23 14:37:21.09	173.31	5.26	-43.9	-59.5	3.8	8.48e-01	0	35	104	0	57	22534
2026-01-23 14:37:22.09	173.34	5.33	-43.8	-59.4	3.8	8.47e-01	0	36	104	0	57	22498
2026-01-23 14:37:23.08	173.36	5.40	-43.9	-59.5	3.8	8.46e-01	0	36	104	0	57	22687
2026-01-23 14:37:24.07	173.39	5.47	-43.9	-59.5	3.8	8.47e-01	0	36	104	0	57	22677
2026-01-23 14:37:25.06	173.41	5.54	-43.9	-59.5	3.8	8.47e-01	0	36	104	0	57	22612
2026-01-23 14:37:26.06	173.44	5.62	-43.9	-59.5	3.8	8.47e-01	0	36	104	0	57	22609
2026-01-23 14:37:27.05	173.46	5.69	-44.0	-59.5	3.8	8.47e-01	0	36	104	0	57	22610
2026-01-23 14:37:28.05	173.49	5.76	-44.0	-59.4	3.8	8.46e-01	0	36	104	0	57	22520
2026-01-23 14:37:29.04	173.51	5.83	-44.0	-59.4	3.8	8.47e-01	0	36	104	0	57	22326
2026-01-23 14:37:30.03	173.54	5.91	-43.9	-59.3	3.8	8.47e-01	0	36	104	0	57	22195
2026-01-23 14:37:31.02	173.56	5.98	-43.9	-59.3	3.8	8.47e-01	0	36	104	0	57	22031
2026-01-23 14:37:32.02	173.59	6.05	-43.9	-59.2	3.8	8.47e-01	0	36	104	0	57	21946
2026-01-23 14:37:33.01	173.61	6.13	-43.9	-59.2	3.8	8.46e-01	0	36	104	0	57	21898
2026-01-23 14:37:34.00	173.64	6.20	-43.9	-59.2	3.8	8.47e-01	0	36	104	0	57	21993
2026-01-23 14:37:35.00	173.67	6.27	-43.9	-59.4	3.8	8.46e-01	0	36	104	0	57	22301
2026-01-23 14:37:35.99	173.69	6.35	-43.9	-59.5	3.8	8.47e-01	0	36	104	0	57	22549
2026-01-23 14:37:36.98	173.72	6.42	-43.9	-59.5	3.8	8.46e-01	0	36	104	0	57	22738
2026-01-23 14:37:37.97	173.74	6.49	-44.0	-59.5	3.8	8.47e-01	0	36	104	0	57	22745
2026-01-23 14:37:38.97	173.77	6.57	-43.9	-59.4	3.8	8.47e-01	0	36	104	0	57	22505
2026-01-23 14:37:39.96	173.80	6.64	-44.0	-59.1	3.8	8.47e-01	0	36	104	0	57	21593
2026-01-23 14:37:40.96	173.82	6.72	-43.9	-58.6	3.8	8.46e-01	0	36	104	0	57	20342
2026-01-23 14:37:41.95	173.85	6.80	-43.8	-57.9	3.8	8.47e-01	0	36	104	0	57	18820
2026-01-23 14:37:42.94	173.88	6.87	-43.7	-57.2	3.8	8.44e-01	0	36	104	0	57	17405
2026-01-23 14:37:43.94	173.90	6.95	-43.8	-56.4	4.1	8.42e-01	0	37	104	0	57	15816
2026-01-23 14:37:44.93	173.93	7.02	-43.7	-55.7	4.3	8.38e-01	0	37	0	0	57	14656
2026-01-23 14:37:45.92	173.96	7.10	-43.6	-55.0	4.5	8.23e-01	0	36	0	0	57	13511
2026-01-23 14:37:46.92	173.99	7.17	-43.5	-54.4	4.8	8.00e-01	0	36	0	0	57	12575
2026-01-23 14:37:47.91	174.01	7.25	-43.4	-53.6	5.2	7.56e-01	0	36	0	0	57	11476
2026-01-23 14:37:48.90	174.04	7.33	-43.3	-52.5	6.0	3.84e-01	0	36	0	2097152	57	10110
2026-01-23 14:37:49.89	174.07	7.40	-43.2	-51.4	6.9	1.90e-01	0	36	0	9437184	57	8921
2026-01-23 14:37:50.89	174.10	7.48	-42.8	-50.1	8.2	6.81e-02	0	37	0	16777216	56	8086
2026-01-23 14:37:51.88	174.13	7.56	-42.3	-48.6	9.5	1.97e-02	0	37	0	24117248	55	7227
2026-01-23 14:37:52.87	174.15	7.64	-41.9	-47.4	10.8	4.39e-03	0	37	0	31457280	54	6657
2026-01-23 14:37:53.87	174.18	7.72	-41.5	-46.1	12.1	5.21e-04	0	37	0	38797312	53	6110
2026-01-23 14:37:54.86	174.21	7.79	-41.1	-45.3	12.7	8.35e-05	0	37	0	45088768	53	5589
2026-01-23 14:37:55.85	174.24	7.87	-40.6	-44.4	13.8	8.00e-06	0	37	0	52428800	52	5308
2026-01-23 14:37:56.85	174.27	7.95	-40.3	-43.8	14.5	1.10e-06	0	37	0	59768832	51	5264
2026-01-23 14:37:57.84	174.30	8.03	-40.0	-43.3	15.0	0.00e+00	0	37	0	67108864	50	5266
2026-01-23 14:37:58.83	174.33	8.11	-39.8	-43.0	15.3	0.00e+00	0	37	0	74448896	50	5056
2026-01-23 14:37:59.83	174.36	8.19	-39.8	-42.9	15.3	0.00e+00	0	37	0	80740352	50	5029
2026-01-23 14:38:00.82	174.39	8.27	-39.7	-42.8	15.5	0.00e+00	0	37	0	88080384	50	4929
2026-01-23 14:38:01.81	174.42	8.35	-40.0	-43.3	15.0	0.00e+00	0	37	0	95420416	50	5242
2026-01-23 14:38:02.80	174.45	8.43	-40.2	-43.7	14.6	0.00e+00	0	37	0	102760448	50	5526
2026-01-23 14:38:03.80	174.48	8.51	-40.6	-44.4	13.9	2.20e-06	0	37	0	110100480	50	5985
2026-01-23 14:38:04.79	174.51	8.59	-41.2	-45.5	12.8	2.51e-05	0	37	0	117440512	51	6355
2026-01-23 14:38:05.78	174.54	8.67	-41.6	-46.4	11.8	2.53e-04	0	37	0	123731968	52	6674
2026-01-23 14:38:06.78	174.57	8.75	-42.0	-47.7	10.4	3.93e-03	0	37	0	131072000	53	7365
2026-01-23 14:38:07.77	174.60	8.83	-42.5	-49.4	8.8	2.57e-02	0	37	0	138412032	54	8371
2026-01-23 14:38:08.76	174.63	8.91	-43.0	-51.2	7.0	1.16e-01	0	37	0	145752064	55	9768
2026-01-23 14:38:09.76	174.66	9.00	-43.5	-53.4	5.4	7.08e-01	0	37	0	150994944	56	11915
2026-01-23 14:38:10.75	174.69	9.08	-43.5	-53.3	5.5	7.55e-01	0	37	0	152043520	56	11726
2026-01-23 14:38:11.74	174.72	9.16	-43.6	-55.3	4.5	8.07e-01	0	37	0	153092096	56	14710
2026-01-23 14:38:12.74	174.75	9.24	-43.0	-49.7	8.5	4.26e-01	0	37	0	155189248	56	7773
2026-01-23 14:38:13.73	174.78	9.33	-39.6	-41.8	16.4	3.20e-05	0	37	0	161480704	50	4406
2026-01-23 14:38:14.73	174.81	9.41	-43.9	-55.3	4.5	3.47e-01	0	37	0	168820736	57	13924
2026-01-23 14:38:15.72	174.85	9.49	-40.6	-43.0	15.1	1.63e-01	0	37	0	169869312	52	4495
2026-01-23 14:38:16.72	174.88	9.58	-38.0	-39.7	18.2	0.00e+00	0	37	0	177209344	46	4387
2026-01-23 14:38:17.71	174.91	9.66	-37.5	-39.1	18.8	0.00e+00	0	37	0	184549376	45	4320
2026-01-23 14:38:18.70	174.94	9.75	-37.4	-39.1	18.8	0.00e+00	0	37	0	190840832	45	4321
2026-01-23 14:38:19.70	174.98	9.83	-37.4	-39.1	18.8	0.00e+00	0	37	0	198180864	45	4305
2026-01-23 14:38:20.70	175.01	9.92	-37.2	-38.9	19.0	0.00e+00	0	37	0	205520896	45	4210
2026-01-23 14:38:21.69	175.04	10.00	-37.3	-39.0	18.9	0.00e+00	0	37	0	212860928	45	4266
2026-01-23 14:38:22.69	175.07	10.09	-37.1	-38.8	19.0	0.00e+00	0	37	0	220200960	45	4172
2026-01-23 14:38:23.69	175.11	10.17	-37.2	-38.9	19.0	0.00e+00	0	37	0	227540992	44	4480
2026-01-23 14:38:24.68	175.14	10.26	-36.9	-38.7	19.2	0.00e+00	0	37	0	234881024	44	4352
2026-01-23 14:38:25.68	175.17	10.35	-36.7	-38.4	19.4	0.00e+00	0	37	0	242221056	44	4236
2026-01-23 14:38:26.67	175.21	10.43	-36.9	-38.7	19.2	0.00e+00	0	37	0	249561088	44	4360
2026-01-23 14:38:27.67	175.24	10.52	-36.8	-38.5	19.3	0.00e+00	0	37	0	255852544	44	4290
2026-01-23 14:38:28.66	175.28	10.61	-36.8	-38.5	19.3	0.00e+00	0	37	0	263192576	44	4278
2026-01-23 14:38:29.65	175.31	10.69	-36.7	-38.5	19.4	0.00e+00	0	37	0	270532608	44	4268
2026-01-23 14:38:30.65	175.34	10.78	-36.7	-38.5	19.4	0.00e+00	0	37	0	277872640	44	4248
2026-01-23 14:38:31.64	175.38	10.87	-36.7	-38.4	19.4	0.00e+00	0	37	0	285212672	44	4234
2026-01-23 14:38:32.64	175.41	10.96	-36.7	-38.4	19.5	0.00e+00	0	37	0	291504128	44	4203
2026-01-23 14:38:33.63	175.45	11.05	-36.8	-38.5	19.4	0.00e+00	0	37	0	298844160	44	4261
2026-01-23 14:38:34.63	175.48	11.14	-36.6	-38.3	19.5	0.00e+00	0	37	0	306184192	44	4168
2026-01-23 14:38:35.62	175.52	11.23	-36.8	-38.4	19.4	0.00e+00	0	37	0	313524224	44	4241
2026-01-23 14:38:36.62	175.56	11.32	-36.6	-38.2	19.5	0.00e+00	0	37	0	320864256	43	4357
2026-01-23 14:38:37.61	175.59	11.41	-36.5	-38.0	19.7	0.00e+00	0	37	0	328204288	43	4268
2026-01-23 14:38:38.61	175.63	11.50	-36.6	-38.1	19.6	0.00e+00	0	37	0	334495744	43	4330
2026-01-23 14:38:39.60	175.66	11.59	-36.6	-38.1	19.6	0.00e+00	0	37	0	341835776	43	4327
2026-01-23 14:38:40.60	175.70	11.68	-36.6	-38.0	19.7	0.00e+00	0	37	0	349175808	43	4270
2026-01-23 14:38:41.59	175.74	11.77	-36.6	-38.1	19.6	0.00e+00	0	37	0	356515840	43	4309
2026-01-23 14:38:42.59	175.77	11.87	-36.6	-38.1	19.6	0.00e+00	0	37	0	363855872	43	4299
2026-01-23 14:38:43.58	175.81	11.96	-36.6	-38.1	19.7	0.00e+00	0	38	0	371195904	43	4298
2026-01-23 14:38:44.58	175.85	12.05	-36.4	-37.8	19.9	0.00e+00	0	37	0	378535936	43	4190
2026-01-23 14:38:45.57	175.89	12.14	-36.3	-37.7	19.9	0.00e+00	0	37	0	385875968	43	4138
2026-01-23 14:38:46.56	175.92	12.24	-36.4	-37.8	19.9	0.00e+00	0	37	0	392167424	43	4185
2026-01-23 14:38:47.56	175.96	12.33	-36.3	-37.7	20.0	0.00e+00	0	37	0	399507456	43	4101
2026-01-23 14:38:48.55	176.00	12.42	-36.2	-37.6	20.1	0.00e+00	0	37	0	406847488	43	4054
2026-01-23 14:38:49.55	176.04	12.52	-36.2	-37.6	20.1	0.00e+00	0	37	0	414187520	43	4053
2026-01-23 14:38:50.55	176.08	12.61	-36.1	-37.5	20.2	0.00e+00	0	37	0	421527552	43	4009
2026-01-23 14:38:51.54	176.12	12.71	-36.2	-37.5	20.2	0.00e+00	0	38	0	428867584	43	4038
2026-01-23 14:38:52.54	176.16	12.80	-36.2	-37.5	20.2	0.00e+00	0	37	0	435159040	42	4283
2026-01-23 14:38:53.53	176.19	12.90	-36.0	-37.3	20.3	0.00e+00	0	38	0	442499072	42	4192
2026-01-23 14:38:54.52	176.23	12.99	-36.0	-37.4	20.3	0.00e+00	0	38	0	449839104	42	4208
2026-01-23 14:38:55.52	176.27	13.09	-35.9	-37.2	20.4	0.00e+00	0	37	0	457179136	42	4140
2026-01-23 14:38:56.51	176.31	13.19	-35.8	-37.1	20.5	0.00e+00	0	37	0	464519168	42	4088
2026-01-23 14:38:57.51	176.35	13.29	-35.9	-37.3	20.4	0.00e+00	0	38	0	471859200	42	4146
2026-01-23 14:38:58.50	176.39	13.38	-35.7	-37.0	20.6	0.00e+00	0	38	0	478150656	42	4048
2026-01-23 14:38:59.50	176.44	13.48	-35.7	-37.0	20.6	0.00e+00	0	38	0	485490688	42	4032
2026-01-23 14:39:00.50	176.48	13.58	-35.7	-37.1	20.5	0.00e+00	0	37	0	492830720	42	4078
2026-01-23 14:39:01.49	176.52	13.68	-35.6	-37.0	20.7	0.00e+00	0	38	0	500170752	41	4249
2026-01-23 14:39:02.49	176.56	13.78	-35.6	-37.0	20.7	0.00e+00	0	37	0	507510784	41	4262
2026-01-23 14:39:03.48	176.60	13.88	-35.6	-37.0	20.7	0.00e+00	0	38	0	514850816	41	4265
2026-01-23 14:39:04.48	176.64	13.98	-35.5	-36.8	20.8	0.00e+00	0	38	0	522190848	41	4182
2026-01-23 14:39:05.47	176.69	14.08	-35.5	-36.9	20.8	0.00e+00	0	37	0	529530880	41	4194
2026-01-23 14:39:06.47	176.73	14.18	-35.5	-36.8	20.8	0.00e+00	0	38	0	536870912	41	4175
2026-01-23 14:39:07.46	176.77	14.28	-35.4	-36.7	20.9	0.00e+00	0	38	0	543162368	41	4122
2026-01-23 14:39:08.46	176.81	14.38	-35.4	-36.7	20.9	0.00e+00	0	38	0	550502400	41	4123
2026-01-23 14:39:09.46	176.86	14.49	-35.4	-36.8	20.9	0.00e+00	0	38	0	557842432	41	4150
2026-01-23 14:39:10.45	176.90	14.59	-35.4	-36.7	20.9	0.00e+00	0	38	0	565182464	41	4128
2026-01-23 14:39:11.45	176.95	14.69	-35.4	-36.8	20.8	0.00e+00	0	38	0	572522496	41	4152
2026-01-23 14:39:12.44	176.99	14.79	-35.2	-36.6	21.0	0.00e+00	0	38	0	578813952	41	4066
2026-01-23 14:39:13.44	177.04	14.90	-35.3	-36.7	20.9	0.00e+00	0	38	0	586153984	41	4099
2026-01-23 14:39:14.43	177.08	15.00	-35.3	-36.6	20.9	0.00e+00	0	38	0	593494016	41	4097
2026-01-23 14:39:15.43	177.13	15.11	-35.4	-36.8	20.7	0.00e+00	0	38	0	600834048	41	4162
2026-01-23 14:39:16.42	177.17	15.21	-35.3	-36.7	20.8	0.00e+00	0	38	0	608174080	41	4124
2026-01-23 14:39:17.42	177.22	15.32	-35.4	-36.8	20.8	0.00e+00	0	38	0	615514112	41	4146
2026-01-23 14:39:18.41	177.26	15.42	-35.3	-36.7	20.8	0.00e+00	0	38	0	621805568	41	4123
2026-01-23 14:39:19.41	177.31	15.53	-35.1	-36.5	21.0	0.00e+00	0	38	0	629145600	41	4029
2026-01-23 14:39:20.40	177.36	15.64	-35.2	-36.5	20.9	0.00e+00	0	38	0	636485632	41	4049
2026-01-23 14:39:21.39	177.40	15.74	-35.2	-36.6	20.9	0.00e+00	0	38	0	643825664	41	4055
2026-01-23 14:39:22.39	177.45	15.85	-35.1	-36.5	20.9	0.00e+00	0	38	0	651165696	40	4290
2026-01-23 14:39:23.38	177.50	15.96	-35.1	-36.5	20.9	0.00e+00	0	38	0	658505728	40	4280
2026-01-23 14:39:24.38	177.55	16.07	-35.3	-36.7	20.8	0.00e+00	0	38	0	665845760	40	4359
2026-01-23 14:39:25.37	177.59	16.18	-35.2	-36.6	20.9	0.00e+00	0	38	0	673185792	40	4316
2026-01-23 14:39:26.37	177.64	16.29	-35.3	-36.8	20.7	0.00e+00	0	38	0	679477248	40	4392
2026-01-23 14:39:27.36	177.69	16.40	-35.2	-36.6	20.9	0.00e+00	0	38	0	686817280	40	4340
2026-01-23 14:39:28.35	177.74	16.51	-35.2	-36.6	20.9	0.00e+00	0	38	0	694157312	40	4328
2026-01-23 14:39:29.35	177.79	16.62	-35.2	-36.6	20.8	0.00e+00	0	38	0	701497344	40	4335
2026-01-23 14:39:30.34	177.84	16.73	-35.2	-36.6	20.9	0.00e+00	0	38	0	708837376	40	4320
2026-01-23 14:39:31.34	177.89	16.84	-35.1	-36.5	20.9	0.00e+00	0	38	0	716177408	40	4287
2026-01-23 14:39:32.33	177.94	16.95	-35.1	-36.5	20.9	0.00e+00	0	38	0	722468864	40	4276
2026-01-23 14:39:33.33	177.99	17.07	-35.0	-36.4	21.0	0.00e+00	0	38	0	729808896	40	4237
2026-01-23 14:39:34.32	178.04	17.18	-34.9	-36.3	21.1	0.00e+00	0	38	0	737148928	40	4180
2026-01-23 14:39:35.32	178.10	17.30	-35.0	-36.5	20.9	0.00e+00	0	38	0	744488960	40	4257
2026-01-23 14:39:36.31	178.15	17.41	-35.0	-36.5	20.9	0.00e+00	0	38	0	751828992	40	4263
2026-01-23 14:39:37.31	178.20	17.53	-34.9	-36.4	21.0	0.00e+00	0	38	0	759169024	40	4224
2026-01-23 14:39:38.30	178.25	17.64	-34.9	-36.4	21.0	0.00e+00	0	38	0	765460480	40	4198
2026-01-23 14:39:39.30	178.31	17.76	-35.0	-36.4	20.9	0.00e+00	0	38	0	772800512	40	4231
2026-01-23 14:39:40.29	178.36	17.87	-34.8	-36.3	21.0	0.00e+00	0	38	0	780140544	40	4156
2026-01-23 14:39:41.28	178.41	17.99	-34.9	-36.3	15.3	0.00e+00	0	38	0	787480576	40	4175
2026-01-23 14:39:42.28	178.47	18.11	-34.9	-36.3	21.0	0.00e+00	0	38	0	794820608	40	4182
2026-01-23 14:39:43.28	178.52	18.23	-34.8	-36.2	21.1	0.00e+00	0	38	0	802160640	40	4130
2026-01-23 14:39:44.27	178.58	18.35	-34.7	-36.2	21.1	1.10e-06	0	38	0	809500672	40	4116
2026-01-23 14:39:45.26	178.63	18.46	-34.8	-36.2	21.2	0.00e+00	0	38	0	815792128	39	4369
2026-01-23 14:39:46.26	178.69	18.59	-34.8	-36.2	21.1	0.00e+00	0	38	0	823132160	39	4385
2026-01-23 14:39:47.25	178.75	18.71	-34.7	-36.1	21.2	2.74e-05	0	38	0	830472192	39	4340
2026-01-23 14:39:48.25	178.80	18.83	-34.8	-36.2	21.1	0.00e+00	0	38	0	837812224	39	4386
2026-01-23 14:39:49.25	178.86	18.95	-34.8	-36.2	21.1	0.00e+00	0	38	0	845152256	39	4365
2026-01-23 14:39:50.24	178.92	19.07	-34.7	-36.1	21.2	0.00e+00	0	38	0	852492288	39	4333
2026-01-23 14:39:51.23	178.98	19.19	-34.5	-35.9	21.4	0.00e+00	0	38	0	859832320	39	4200
2026-01-23 14:39:52.23	179.04	19.32	-34.4	-35.8	21.5	0.00e+00	0	38	0	866123776	39	4146
2026-01-23 14:39:53.23	179.10	19.44	-34.3	-35.7	21.6	0.00e+00	0	38	0	873463808	39	4122
2026-01-23 14:39:54.22	179.15	19.57	-34.3	-35.6	21.7	0.00e+00	0	38	0	880803840	39	4096
2026-01-23 14:39:55.21	179.21	19.69	-34.4	-35.7	21.5	0.00e+00	0	38	0	888143872	39	4144
2026-01-23 14:39:56.21	179.28	19.82	-34.4	-35.8	21.5	0.00e+00	0	38	0	895483904	39	4161
2026-01-23 14:39:57.20	179.34	19.94	-34.3	-35.6	21.6	0.00e+00	0	38	0	902823936	39	4079
2026-01-23 14:39:58.20	179.40	20.07	-34.2	-35.6	21.7	0.00e+00	0	38	0	909115392	39	4054
2026-01-23 14:39:59.19	179.46	20.20	-34.2	-35.6	21.7	0.00e+00	0	38	0	916455424	39	4055
2026-01-23 14:40:00.19	179.52	20.33	-34.3	-35.7	21.6	0.00e+00	0	38	0	923795456	38	4352
2026-01-23 14:40:01.18	179.58	20.46	-34.2	-35.6	21.7	0.00e+00	0	38	0	931135488	38	4302
2026-01-23 14:40:02.18	179.65	20.59	-34.3	-35.7	21.6	0.00e+00	0	38	0	938475520	38	4375
2026-01-23 14:40:03.17	179.71	20.71	-34.3	-35.7	21.5	0.00e+00	0	38	0	945815552	38	4381
2026-01-23 14:40:04.17	179.78	20.85	-34.3	-35.7	21.6	0.00e+00	0	38	0	953155584	38	4373
2026-01-23 14:40:05.16	179.84	20.98	-34.4	-35.8	21.5	0.00e+00	0	38	0	959447040	38	4398
2026-01-23 14:40:06.16	179.91	21.11	-34.4	-35.9	21.4	0.00e+00	0	38	0	966787072	38	4444
2026-01-23 14:40:07.15	179.97	21.24	-34.3	-35.7	21.5	0.00e+00	0	38	0	974127104	38	4375
2026-01-23 14:40:08.14	180.04	21.38	-34.4	-35.9	21.4	0.00e+00	0	38	0	981467136	38	4449
2026-01-23 14:40:09.14	180.11	21.51	-34.4	-35.8	21.5	0.00e+00	0	38	0	988807168	38	4429
2026-01-23 14:40:10.13	180.17	21.64	-34.3	-35.7	21.5	0.00e+00	0	38	0	996147200	38	4363
2026-01-23 14:40:11.13	180.24	21.78	-34.5	-36.0	21.3	0.00e+00	0	38	0	1003487232	38	4509
2026-01-23 14:40:12.12	180.31	21.92	-34.5	-35.9	21.4	0.00e+00	0	38	0	1009778688	38	4473
2026-01-23 14:40:13.12	180.38	22.05	-34.5	-36.0	21.3	0.00e+00	0	38	0	1017118720	38	4508
2026-01-23 14:40:14.11	180.45	22.19	-34.5	-35.9	21.4	0.00e+00	0	38	0	1024458752	38	4481
2026-01-23 14:40:15.11	180.52	22.33	-34.5	-35.9	21.4	0.00e+00	0	38	0	1031798784	38	4468
2026-01-23 14:40:16.11	180.59	22.47	-34.6	-36.1	21.3	0.00e+00	0	38	0	1039138816	38	4546
2026-01-23 14:40:17.10	180.67	22.61	-34.4	-35.8	21.5	0.00e+00	0	38	0	1046478848	38	4429
2026-01-23 14:40:18.09	180.74	22.75	-34.4	-35.8	21.5	0.00e+00	0	38	0	1052770304	38	4414
2026-01-23 14:40:19.09	180.81	22.89	-34.3	-35.7	21.6	0.00e+00	0	38	0	1060110336	38	4374
2026-01-23 14:40:20.08	180.88	23.03	-34.2	-35.6	21.8	0.00e+00	0	38	0	1067450368	38	4296
2026-01-23 14:40:21.08	180.96	23.18	-34.1	-35.4	21.9	0.00e+00	0	38	0	1074790400	38	4233
2026-01-23 14:40:22.07	181.03	23.32	-34.2	-35.5	21.8	0.00e+00	0	38	0	1082130432	38	4287
2026-01-23 14:40:23.07	181.11	23.46	-34.2	-35.5	21.8	0.00e+00	0	38	0	1089470464	38	4290
2026-01-23 14:40:24.06	181.19	23.61	-34.1	-35.4	21.9	0.00e+00	0	38	0	1095761920	38	4226
2026-01-23 14:40:25.06	181.26	23.75	-34.1	-35.4	21.9	0.00e+00	0	38	0	1103101952	38	4242
2026-01-23 14:40:26.05	181.34	23.90	-34.1	-35.5	21.9	0.00e+00	0	38	0	1110441984	38	4259
2026-01-23 14:40:27.04	181.42	24.05	-34.0	-35.4	22.0	0.00e+00	0	38	0	1117782016	38	4199
2026-01-23 14:40:28.04	181.50	24.19	-34.0	-35.4	22.0	0.00e+00	0	38	0	1125122048	38	4195
2026-01-23 14:40:29.03	181.58	24.34	-34.0	-35.3	22.1	0.00e+00	0	38	0	1132462080	38	4164
2026-01-23 14:40:30.03	181.66	24.49	-34.0	-35.3	22.0	0.00e+00	0	38	0	1139802112	38	4178
2026-01-23 14:40:31.02	181.74	24.64	-33.9	-35.2	22.1	0.00e+00	0	38	0	1147142144	38	4112
2026-01-23 14:40:32.02	181.82	24.79	-34.0	-35.3	22.1	0.00e+00	0	38	0	1153433600	38	4149
2026-01-23 14:40:33.01	181.90	24.95	-33.9	-35.2	22.1	0.00e+00	0	38	0	1160773632	38	4116
2026-01-23 14:40:34.00	181.99	25.10	-33.9	-35.2	22.2	0.00e+00	0	38	0	1168113664	38	4102
2026-01-23 14:40:35.00	182.07	25.25	-34.0	-35.3	22.1	0.00e+00	0	38	0	1175453696	38	4167
2026-01-23 14:40:36.00	182.16	25.41	-33.9	-35.2	22.1	0.00e+00	0	38	0	1182793728	38	4129
2026-01-23 14:40:36.99	182.24	25.56	-33.9	-35.2	22.1	0.00e+00	0	38	0	1190133760	38	4111
2026-01-23 14:40:37.99	182.33	25.72	-33.9	-35.3	22.0	0.00e+00	0	38	0	1196425216	38	4159
2026-01-23 14:40:38.98	182.42	25.88	-34.0	-35.3	21.9	0.00e+00	0	38	0	1203765248	38	4191
2026-01-23 14:40:39.98	182.51	26.04	-34.0	-35.3	21.9	0.00e+00	0	38	0	1211105280	38	4193
2026-01-23 14:40:40.97	182.59	26.19	-33.9	-35.3	22.0	0.00e+00	0	38	0	1218445312	38	4169
2026-01-23 14:40:41.97	182.69	26.35	-34.0	-35.4	21.9	0.00e+00	0	38	0	1225785344	38	4228
2026-01-23 14:40:42.96	182.78	26.51	-33.9	-35.3	22.0	0.00e+00	0	38	0	1233125376	38	4164
2026-01-23 14:40:43.96	182.87	26.68	-34.1	-35.4	21.9	0.00e+00	0	38	0	1239416832	38	4236
2026-01-23 14:40:44.96	182.96	26.84	-33.9	-35.2	22.0	0.00e+00	0	38	0	1246756864	38	4130
2026-01-23 14:40:45.95	183.05	27.00	-33.7	-35.0	22.1	0.00e+00	0	38	0	1254096896	38	4048
2026-01-23 14:40:46.95	183.15	27.17	-33.6	-34.9	22.2	0.00e+00	0	38	0	1261436928	37	4227
2026-01-23 14:40:47.94	183.25	27.33	-33.6	-34.9	22.2	0.00e+00	0	38	0	1268776960	37	4239
2026-01-23 14:40:48.94	183.34	27.50	-33.5	-34.8	22.3	0.00e+00	0	38	0	1276116992	37	4189
2026-01-23 14:40:49.93	183.44	27.66	-33.4	-34.7	22.4	0.00e+00	0	38	0	1283457024	37	4137
2026-01-23 14:40:50.93	183.54	27.83	-33.4	-34.8	22.3	0.00e+00	0	38	0	1290797056	37	4161
2026-01-23 14:40:51.93	183.64	28.00	-33.5	-34.8	22.3	0.00e+00	0	38	0	1297088512	37	4191
2026-01-23 14:40:52.92	183.74	28.17	-33.3	-34.6	22.4	0.00e+00	0	38	0	1304428544	37	4098
2026-01-23 14:40:53.92	183.84	28.34	-33.4	-34.8	22.3	0.00e+00	0	38	0	1311768576	37	4151
2026-01-23 14:40:54.91	183.94	28.51	-33.4	-34.8	22.4	0.00e+00	0	38	0	1319108608	37	4153
2026-01-23 14:40:55.91	184.05	28.69	-33.3	-34.7	22.4	0.00e+00	0	38	0	1326448640	37	4120
2026-01-23 14:40:56.90	184.15	28.86	-33.3	-34.6	22.4	0.00e+00	0	38	0	1333788672	37	4098
2026-01-23 14:40:57.90	184.26	29.04	-33.3	-34.6	22.5	0.00e+00	0	38	0	1340080128	36	4309
2026-01-23 14:40:58.89	184.36	29.21	-33.3	-34.6	22.5	0.00e+00	0	38	0	1347420160	36	4316
2026-01-23 14:40:59.89	184.47	29.39	-33.3	-34.6	22.5	0.00e+00	0	38	0	1354760192	36	4313
2026-01-23 14:41:00.88	184.58	29.56	-33.3	-34.6	22.6	0.00e+00	0	38	0	1362100224	36	4303
2026-01-23 14:41:01.87	184.69	29.74	-33.2	-34.5	22.6	0.00e+00	0	38	0	1369440256	36	4261
2026-01-23 14:41:02.87	184.80	29.92	-33.2	-34.5	22.7	0.00e+00	0	38	0	1376780288	36	4261
2026-01-23 14:41:03.86	184.92	30.10	-33.3	-34.6	22.6	0.00e+00	0	38	0	1383071744	36	4301
2026-01-23 14:41:04.86	185.03	30.29	-33.2	-34.4	22.8	0.00e+00	0	38	0	1390411776	36	4228
2026-01-23 14:41:05.85	185.15	30.47	-33.3	-34.5	22.7	0.00e+00	0	38	0	1397751808	36	4280
2026-01-23 14:41:06.85	185.26	30.65	-33.3	-34.5	22.7	0.00e+00	0	38	0	1405091840	36	4276
2026-01-23 14:41:07.84	185.38	30.84	-33.3	-34.5	22.6	0.00e+00	0	38	0	1412431872	36	4286
2026-01-23 14:41:08.84	185.50	31.02	-33.4	-34.6	22.6	0.00e+00	0	38	0	1419771904	36	4321
2026-01-23 14:41:09.83	185.62	31.21	-33.5	-34.8	22.5	0.00e+00	0	38	0	1427111936	36	4401
2026-01-23 14:41:10.82	185.74	31.40	-33.6	-34.9	22.4	0.00e+00	0	38	0	1434451968	36	4447
2026-01-23 14:41:11.82	185.87	31.59	-33.5	-34.8	22.5	0.00e+00	0	38	0	1440743424	36	4421
2026-01-23 14:41:12.81	185.99	31.78	-33.5	-34.7	22.5	0.00e+00	0	38	0	1448083456	36	4385
2026-01-23 14:41:13.81	186.12	31.97	-33.4	-34.6	22.6	0.00e+00	0	38	0	1455423488	36	4311
2026-01-23 14:41:14.80	186.24	32.16	-33.5	-34.7	22.5	0.00e+00	0	38	0	1462763520	36	4373
2026-01-23 14:41:15.80	186.37	32.35	-33.5	-34.7	22.5	0.00e+00	0	38	0	1470103552	36	4367
2026-01-23 14:41:16.80	186.50	32.55	-33.5	-34.8	22.5	0.00e+00	0	38	0	1477443584	36	4400
2026-01-23 14:41:17.79	186.64	32.74	-33.7	-35.0	22.3	0.00e+00	0	38	0	1483735040	36	4499
2026-01-23 14:41:18.79	186.77	32.94	-33.9	-35.2	22.0	0.00e+00	0	38	0	1491075072	37	4366
2026-01-23 14:41:19.78	186.91	33.14	-33.6	-34.9	22.3	0.00e+00	0	38	0	1498415104	37	4235
2026-01-23 14:41:20.78	187.04	33.34	-33.7	-35.0	22.3	0.00e+00	0	38	0	1505755136	37	4245
2026-01-23 14:41:21.78	187.18	33.54	-33.5	-34.8	22.3	0.00e+00	0	38	0	1513095168	37	4189
2026-01-23 14:41:22.77	187.32	33.74	-33.6	-34.9	22.3	0.00e+00	0	38	0	1520435200	37	4230
2026-01-23 14:41:23.76	187.46	33.94	-33.6	-35.0	22.2	0.00e+00	0	38	0	1526726656	37	4243
2026-01-23 14:41:24.76	187.61	34.15	-33.7	-35.0	22.2	0.00e+00	0	38	0	1534066688	37	4274
2026-01-23 14:41:25.75	187.75	34.35	-33.7	-35.0	22.2	0.00e+00	0	38	0	1541406720	37	4290
2026-01-23 14:41:26.75	187.90	34.56	-33.5	-34.8	22.4	0.00e+00	0	38	0	1548746752	37	4188
2026-01-23 14:41:27.74	188.05	34.76	-33.5	-34.8	22.3	0.00e+00	0	38	0	1556086784	37	4168
2026-01-23 14:41:28.74	188.20	34.97	-33.4	-34.8	22.5	0.00e+00	0	38	0	1563426816	37	4151
2026-01-23 14:41:29.73	188.35	35.18	-33.7	-35.1	22.3	0.00e+00	0	38	0	1570766848	36	4557
2026-01-23 14:41:30.72	188.51	35.39	-33.5	-34.8	22.5	0.00e+00	0	38	0	1578106880	36	4419
2026-01-23 14:41:31.72	188.66	35.60	-33.4	-34.7	22.6	0.00e+00	0	38	0	1584398336	36	4352
2026-01-23 14:41:32.72	188.82	35.82	-33.5	-34.8	22.5	0.00e+00	0	38	0	1591738368	36	4418
2026-01-23 14:41:33.71	188.98	36.03	-33.3	-34.6	22.7	0.00e+00	0	38	0	1599078400	36	4315
2026-01-23 14:41:34.70	189.15	36.24	-33.1	-34.3	22.9	0.00e+00	0	38	0	1606418432	36	4186
2026-01-23 14:41:35.70	189.31	36.46	-33.4	-34.6	22.6	0.00e+00	0	38	0	1613758464	36	4339
2026-01-23 14:41:36.69	189.48	36.68	-33.4	-34.6	22.7	0.00e+00	0	38	0	1621098496	36	4335
2026-01-23 14:41:37.69	189.65	36.90	-33.3	-34.6	22.7	0.00e+00	0	38	0	1627389952	36	4322
2026-01-23 14:41:38.68	189.82	37.12	-33.3	-34.6	22.6	0.00e+00	0	38	0	1634729984	36	4317
2026-01-23 14:41:39.68	189.99	37.34	-33.4	-34.7	22.6	0.00e+00	0	38	0	1642070016	36	4358
2026-01-23 14:41:40.68	190.17	37.56	-33.5	-34.8	22.5	0.00e+00	0	38	0	1649410048	37	4172
2026-01-23 14:41:41.67	190.35	37.79	-33.4	-34.7	22.5	0.00e+00	0	38	0	1656750080	37	4132
2026-01-23 14:41:42.67	190.53	38.01	-33.5	-34.8	22.4	0.00e+00	0	38	0	1664090112	37	4165
2026-01-23 14:41:43.66	190.71	38.24	-33.6	-34.9	22.3	0.00e+00	0	38	0	1670381568	37	4213
2026-01-23 14:41:44.66	190.90	38.47	-33.6	-34.9	22.3	0.00e+00	0	38	0	1677721600	37	4225
2026-01-23 14:41:45.65	191.09	38.69	-33.5	-34.9	22.3	0.00e+00	0	38	0	1685061632	37	4197
2026-01-23 14:41:46.64	191.28	38.92	-33.6	-34.9	22.2	0.00e+00	0	38	0	1692401664	37	4238
2026-01-23 14:41:47.64	191.47	39.15	-33.6	-34.9	22.2	0.00e+00	0	38	0	1699741696	37	4230
2026-01-23 14:41:48.63	191.67	39.39	-33.8	-35.1	22.1	0.00e+00	0	38	0	1707081728	37	4320
2026-01-23 14:41:49.63	191.87	39.62	-33.7	-35.1	22.1	0.00e+00	0	38	0	1714421760	37	4314
2026-01-23 14:41:50.62	192.07	39.85	-34.2	-35.7	21.6	0.00e+00	0	38	0	1721761792	37	4612
2026-01-23 14:41:51.62	192.27	40.09	-33.9	-35.2	22.0	0.00e+00	0	38	0	1728053248	37	4386
2026-01-23 14:41:52.61	192.48	40.33	-33.9	-35.2	22.1	0.00e+00	0	38	0	1735393280	37	4362
2026-01-23 14:41:53.61	192.69	40.56	-33.9	-35.2	22.1	0.00e+00	0	38	0	1742733312	37	4391
2026-01-23 14:41:54.60	192.91	40.80	-33.9	-35.2	22.2	0.00e+00	0	38	0	1750073344	37	4348
2026-01-23 14:41:55.60	193.12	41.04	-34.1	-35.5	22.0	0.00e+00	0	38	0	1757413376	37	4506
2026-01-23 14:41:56.60	193.35	41.29	-33.6	-34.9	22.5	0.00e+00	0	38	0	1764753408	38	3969
2026-01-23 14:41:57.59	193.57	41.53	-33.8	-35.0	22.4	0.00e+00	0	38	0	1771044864	38	4037
2026-01-23 14:41:58.59	193.80	41.77	-33.6	-34.8	22.6	0.00e+00	0	38	0	1778384896	38	3942
2026-01-23 14:41:59.58	194.03	42.02	-33.8	-35.0	22.5	0.00e+00	0	38	0	1785724928	38	4025
2026-01-23 14:42:00.58	194.26	42.26	-33.9	-35.1	22.4	0.00e+00	0	38	0	1793064960	38	4096
2026-01-23 14:42:01.57	194.50	42.51	-34.0	-35.3	22.3	0.00e+00	0	38	0	1800404992	38	4154
2026-01-23 14:42:02.57	194.74	42.76	-34.0	-35.3	22.2	0.00e+00	0	38	0	1807745024	38	4162
2026-01-23 14:42:03.56	194.98	43.01	-34.0	-35.3	22.2	0.00e+00	0	38	0	1814036480	38	4185
2026-01-23 14:42:04.56	195.23	43.26	-34.0	-35.3	22.2	0.00e+00	0	38	0	1821376512	38	4183
2026-01-23 14:42:05.55	195.48	43.51	-34.0	-35.3	22.1	0.00e+00	0	38	0	1828716544	38	4192
2026-01-23 14:42:06.55	195.74	43.76	-33.7	-34.9	22.4	0.00e+00	0	38	0	1836056576	37	4232
2026-01-23 14:42:07.54	196.00	44.02	-34.1	-35.4	22.0	0.00e+00	0	38	0	1843396608	38	4218
2026-01-23 14:42:08.54	196.27	44.27	-34.2	-35.5	22.0	0.00e+00	0	38	0	1850736640	38	4263
2026-01-23 14:42:09.53	196.53	44.53	-34.2	-35.5	22.0	0.00e+00	0	38	0	1858076672	38	4255
2026-01-23 14:42:10.53	196.81	44.78	-34.1	-35.4	22.1	0.00e+00	0	38	0	1865416704	38	4224
2026-01-23 14:42:11.52	197.08	45.04	-33.8	-35.0	22.5	0.00e+00	0	38	0	1871708160	38	4028
2026-01-23 14:42:12.52	197.37	45.30	-34.2	-35.5	22.1	0.00e+00	0	38	0	1879048192	38	4263
2026-01-23 14:42:13.51	197.65	45.56	-34.2	-35.5	22.1	0.00e+00	0	38	0	1886388224	38	4267
2026-01-23 14:42:14.51	197.94	45.82	-34.2	-35.5	22.1	0.00e+00	0	38	0	1893728256	38	4260
2026-01-23 14:42:15.50	198.24	46.08	-34.8	-35.6	22.7	0.00e+00	0	38	0	1901068288	38	4329
2026-01-23 14:42:16.49	198.54	46.34	-34.9	-35.8	22.6	0.00e+00	0	38	0	1908408320	39	4175
2026-01-23 14:42:17.49	198.84	46.60	-34.9	-35.7	22.5	0.00e+00	0	38	0	1914699776	40	3905
2026-01-23 14:42:18.48	199.15	46.87	-34.9	-35.8	22.5	0.00e+00	0	38	0	1922039808	40	3927
2026-01-23 14:42:19.48	199.47	47.13	-35.2	-36.1	22.3	0.00e+00	0	38	0	1929379840	40	4061
2026-01-23 14:42:20.47	199.79	47.39	-35.1	-36.0	22.3	0.00e+00	0	38	0	1936719872	40	4030
2026-01-23 14:42:21.47	200.12	47.66	-35.0	-35.9	22.4	0.00e+00	0	38	0	1944059904	40	3981
2026-01-23 14:42:22.46	200.45	47.93	-35.2	-36.1	21.7	0.00e+00	0	38	0	1951399936	41	3855
2026-01-23 14:42:23.45	200.79	48.19	-35.1	-35.9	22.4	0.00e+00	0	38	0	1957691392	40	4002
2026-01-23 14:42:24.45	201.13	48.46	-35.2	-36.0	22.3	0.00e+00	0	38	0	1965031424	40	4051
2026-01-23 14:42:25.44	201.48	48.73	-35.4	-36.3	22.1	0.00e+00	0	38	0	1972371456	40	4184
2026-01-23 14:42:26.44	201.84	49.00	-35.2	-36.1	22.2	0.00e+00	0	38	0	1979711488	40	4094
2026-01-23 14:42:27.43	202.20	49.27	-35.2	-36.0	22.4	0.00e+00	0	38	0	1987051520	40	4044
2026-01-23 14:42:28.43	202.57	49.54	-35.2	-36.0	22.3	0.00e+00	0	38	0	1994391552	40	4039
2026-01-23 14:42:29.42	202.94	49.80	-35.2	-36.0	22.3	0.00e+00	0	38	0	2001731584	40	4044
2026-01-23 14:42:30.42	203.32	50.08	-35.2	-36.1	22.3	0.00e+00	0	38	0	2009071616	40	4064
2026-01-23 14:42:31.41	203.71	50.35	-35.4	-36.3	22.1	0.00e+00	0	38	0	2015363072	40	4147
2026-01-23 14:42:32.41	204.11	50.62	-35.6	-36.5	22.0	0.00e+00	0	38	0	2022703104	40	4243
2026-01-23 14:42:33.40	204.51	50.89	-35.6	-36.4	21.9	0.00e+00	0	38	0	2030043136	41	4002
2026-01-23 14:42:34.39	204.91	51.16	-35.6	-36.5	21.9	0.00e+00	0	38	0	2037383168	41	4026
2026-01-23 14:42:35.39	205.33	51.43	-35.6	-36.5	21.9	0.00e+00	0	38	0	2044723200	41	4042
2026-01-23 14:42:36.38	205.76	51.70	-35.9	-36.8	21.6	0.00e+00	0	38	0	2052063232	41	4149
2026-01-23 14:42:37.38	206.19	51.97	-35.9	-36.8	21.7	0.00e+00	0	38	0	2058354688	41	4148
2026-01-23 14:42:38.37	206.63	52.24	-35.9	-36.8	21.7	0.00e+00	0	38	0	2065694720	42	3919
2026-01-23 14:42:39.37	207.08	52.51	-35.7	-36.5	21.8	0.00e+00	0	38	0	2073034752	41	4049
2026-01-23 14:42:40.36	207.53	52.78	-35.7	-36.6	21.8	0.00e+00	0	38	0	2080374784	41	4068
2026-01-23 14:42:41.36	208.00	53.05	-35.4	-36.2	22.2	0.00e+00	0	38	0	2087714816	41	3905
2026-01-23 14:42:42.35	208.47	53.32	-35.3	-36.2	22.2	0.00e+00	0	38	0	2095054848	41	3872
2026-01-23 14:42:43.35	208.95	53.59	-35.3	-36.2	22.2	0.00e+00	0	38	0	2101346304	40	4118
2026-01-23 14:42:44.34	209.44	53.85	-35.7	-36.6	21.8	0.00e+00	0	38	0	2108686336	41	4058
2026-01-23 14:42:45.34	209.94	54.12	-35.7	-36.5	21.9	0.00e+00	0	38	0	2116026368	41	4050
2026-01-23 14:42:46.33	210.45	54.39	-35.7	-36.6	21.9	0.00e+00	0	38	0	2123366400	41	4069
2026-01-23 14:42:47.32	210.97	54.65	-35.5	-36.4	22.0	0.00e+00	0	38	0	2130706432	41	3982
2026-01-23 14:42:48.32	211.50	54.92	-35.4	-36.3	22.1	0.00e+00	0	38	0	2136997888	41	3948
2026-01-23 14:42:49.31	212.03	55.18	-35.4	-36.2	22.1	0.00e+00	0	38	0	2144337920	41	3908
2026-01-23 14:42:50.31	212.58	55.44	-35.4	-36.3	22.1	0.00e+00	0	38	0	2151677952	41	3946
2026-01-23 14:42:51.30	213.14	55.70	-35.4	-36.3	22.1	0.00e+00	0	38	0	2159017984	41	3917
2026-01-23 14:42:52.30	213.71	55.96	-35.4	-36.3	22.1	0.00e+00	0	38	0	2166358016	41	3931
2026-01-23 14:42:53.29	214.28	56.22	-35.5	-36.4	22.0	0.00e+00	0	38	0	2173698048	41	3971
2026-01-23 14:42:54.29	214.88	56.48	-35.0	-35.9	22.5	0.00e+00	0	38	0	2181038080	40	3967
2026-01-23 14:42:55.28	215.47	56.73	-34.9	-35.8	22.5	0.00e+00	0	38	0	2188378112	40	3917
2026-01-23 14:42:56.27	216.08	56.98	-34.8	-35.7	22.7	0.00e+00	0	38	0	2195718144	40	3875
2026-01-23 14:42:57.27	216.71	57.23	-34.9	-35.8	22.6	0.00e+00	0	38	0	2202009600	40	3924
2026-01-23 14:42:58.26	217.34	57.48	-35.0	-35.9	22.5	0.00e+00	0	38	0	2209349632	40	3980
2026-01-23 14:42:59.26	217.99	57.73	-35.1	-36.0	22.4	0.00e+00	0	38	0	2216689664	40	4011
2026-01-23 14:43:00.25	218.64	57.97	-35.3	-36.2	22.1	0.00e+00	0	38	0	2224029696	40	4143
2026-01-23 14:43:01.25	219.32	58.21	-35.4	-36.3	22.1	0.00e+00	0	38	0	2231369728	40	4170
2026-01-23 14:43:02.24	219.99	58.45	-35.6	-36.5	22.0	0.00e+00	0	38	0	2237661184	40	4244
2026-01-23 14:43:03.24	220.69	58.69	-35.6	-36.5	21.9	0.00e+00	0	38	0	2245001216	40	4258
2026-01-23 14:43:04.23	221.39	58.92	-35.5	-36.4	22.0	0.00e+00	0	38	0	2252341248	40	4208
2026-01-23 14:43:05.23	222.12	59.15	-35.3	-36.2	22.1	0.00e+00	0	38	0	2259681280	40	4112
2026-01-23 14:43:06.22	222.84	59.38	-35.2	-36.1	22.3	0.00e+00	0	38	0	2267021312	40	4083
2026-01-23 14:43:07.22	223.59	59.60	-35.5	-36.4	22.0	0.00e+00	0	38	0	2274361344	40	4229
2026-01-23 14:43:08.21	224.34	59.82	-35.6	-36.5	21.8	0.00e+00	0	38	0	2280652800	40	4281
2026-01-23 14:43:09.21	225.12	60.03	-35.4	-36.2	22.2	0.00e+00	0	38	0	2287992832	41	3907
2026-01-23 14:43:10.20	225.89	60.25	-34.9	-35.7	22.6	0.00e+00	0	38	0	2295332864	40	3902
2026-01-23 14:43:11.20	226.69	60.45	-35.0	-35.8	22.6	0.00e+00	0	38	0	2302672896	40	3949
2026-01-23 14:43:12.19	227.49	60.66	-35.2	-36.1	22.3	0.00e+00	0	38	0	2310012928	40	4062
2026-01-23 14:43:13.19	228.32	60.86	-35.3	-36.2	22.2	0.00e+00	0	38	0	2317352960	40	4112
2026-01-23 14:43:14.18	229.15	61.05	-34.9	-35.8	22.5	0.00e+00	0	38	0	2324692992	40	3925
2026-01-23 14:43:15.18	230.00	61.24	-35.0	-35.9	22.4	0.00e+00	0	38	0	2332033024	40	3976
2026-01-23 14:43:16.17	230.85	61.42	-34.9	-35.8	22.6	0.00e+00	0	38	0	2339373056	40	3925
2026-01-23 14:43:17.17	231.73	61.60	-34.8	-35.7	22.7	0.00e+00	0	38	0	2345664512	40	3871
2026-01-23 14:43:18.16	232.61	61.78	-34.6	-35.4	22.8	0.00e+00	0	38	0	2353004544	40	3769
2026-01-23 14:43:19.16	233.51	61.95	-34.6	-35.5	22.9	0.00e+00	0	38	0	2360344576	39	4008
2026-01-23 14:43:20.15	234.41	62.11	-35.0	-35.9	22.5	0.00e+00	0	38	0	2367684608	39	4209
2026-01-23 14:43:21.15	235.33	62.27	-35.1	-36.0	22.5	0.00e+00	0	38	0	2375024640	39	4244
2026-01-23 14:43:22.14	236.26	62.42	-35.1	-36.0	22.4	0.00e+00	0	38	0	2381316096	39	4248
2026-01-23 14:43:23.14	237.21	62.56	-35.0	-35.8	22.5	0.00e+00	0	38	0	2388656128	39	4185
2026-01-23 14:43:24.13	238.16	62.70	-34.6	-35.4	22.9	0.00e+00	0	38	0	2395996160	39	3992
2026-01-23 14:43:25.13	239.13	62.83	-34.7	-35.6	22.8	0.00e+00	0	38	0	2403336192	39	4065
2026-01-23 14:43:26.13	240.11	62.96	-34.6	-35.5	22.8	0.00e+00	0	38	0	2410676224	39	4019
2026-01-23 14:43:27.12	241.09	63.08	-34.7	-35.6	22.8	0.00e+00	0	38	0	2418016256	39	4062
2026-01-23 14:43:28.12	242.09	63.19	-34.8	-35.6	22.8	0.00e+00	0	38	0	2424307712	39	4079
2026-01-23 14:43:29.11	243.08	63.30	-34.6	-35.4	22.9	0.00e+00	0	38	0	2431647744	39	3985
2026-01-23 14:43:30.11	244.10	63.40	-34.5	-35.3	23.0	0.00e+00	0	38	0	2438987776	39	3930
2026-01-23 14:43:31.10	245.12	63.49	-34.4	-35.2	23.0	0.00e+00	0	38	0	2446327808	39	3912
2026-01-23 14:43:32.09	246.14	63.57	-34.4	-35.3	23.1	0.00e+00	0	38	0	2453667840	39	3914
2026-01-23 14:43:33.09	247.18	63.65	-34.5	-35.4	22.9	0.00e+00	0	38	0	2461007872	39	3975
2026-01-23 14:43:34.08	248.22	63.71	-34.5	-35.3	23.0	0.00e+00	0	38	0	2468347904	39	3949
2026-01-23 14:43:35.08	249.27	63.78	-34.3	-35.1	23.2	0.00e+00	0	38	0	2475687936	39	3865
2026-01-23 14:43:36.07	250.31	63.83	-34.4	-35.2	23.1	0.00e+00	0	38	0	2483027968	39	3902
2026-01-23 14:43:37.07	251.38	63.88	-34.7	-35.6	22.8	0.00e+00	0	38	0	2489319424	39	4067
2026-01-23 14:43:38.06	252.43	63.91	-34.7	-35.6	22.8	0.00e+00	0	38	0	2496659456	39	4065
2026-01-23 14:43:39.06	253.50	63.94	-34.7	-35.6	22.8	0.00e+00	0	38	0	2503999488	39	4063
2026-01-23 14:43:40.05	254.56	63.96	-34.6	-35.4	22.9	0.00e+00	0	38	0	2511339520	39	3997
2026-01-23 14:43:41.05	255.63	63.98	-34.7	-35.5	22.9	0.00e+00	0	38	0	2518679552	39	4048
2026-01-23 14:43:42.04	256.70	63.98	-34.6	-35.4	23.0	0.00e+00	0	38	0	2524971008	39	3986
2026-01-23 14:43:43.03	257.76	63.98	-34.3	-35.2	23.2	0.00e+00	0	38	0	2532311040	39	3874
2026-01-23 14:43:44.03	258.83	63.97	-34.3	-35.1	23.1	0.00e+00	0	38	0	2539651072	39	3868
2026-01-23 14:43:45.03	259.90	63.95	-34.4	-35.2	23.1	0.00e+00	0	38	0	2546991104	39	3889
2026-01-23 14:43:46.02	260.96	63.93	-34.4	-35.3	23.1	0.00e+00	0	38	0	2554331136	39	3927
2026-01-23 14:43:47.02	262.03	63.90	-34.7	-35.5	22.9	0.00e+00	0	38	0	2561671168	39	4040
2026-01-23 14:43:48.01	263.08	63.85	-34.7	-35.5	22.8	0.00e+00	0	38	0	2567962624	39	4037
2026-01-23 14:43:49.01	264.14	63.80	-34.7	-35.6	22.7	0.00e+00	0	38	0	2575302656	39	4074
2026-01-23 14:43:50.00	265.19	63.75	-34.7	-35.5	22.8	0.00e+00	0	38	0	2582642688	39	4051
2026-01-23 14:43:51.00	266.24	63.68	-34.8	-35.6	22.7	0.00e+00	0	38	0	2589982720	39	4097
2026-01-23 14:43:51.99	267.27	63.61	-35.0	-35.9	22.5	0.00e+00	0	38	0	2597322752	39	4215
2026-01-23 14:43:52.99	268.30	63.53	-34.9	-35.8	22.4	0.00e+00	0	38	0	2604662784	39	4178
2026-01-23 14:43:53.98	269.32	63.44	-35.1	-35.9	22.5	0.00e+00	0	38	0	2612002816	39	4239
2026-01-23 14:43:54.98	270.34	63.35	-34.9	-35.8	22.7	0.00e+00	0	38	0	2619342848	39	4157
2026-01-23 14:43:55.97	271.35	63.25	-34.9	-35.8	22.7	0.00e+00	0	38	0	2626682880	39	4157
2026-01-23 14:43:56.97	272.35	63.14	-34.9	-35.8	22.4	0.00e+00	0	38	0	2632974336	39	4173
2026-01-23 14:43:57.96	273.33	63.02	-34.9	-35.8	22.6	0.00e+00	0	38	0	2640314368	39	4166
2026-01-23 14:43:58.95	274.31	62.90	-35.0	-35.9	22.4	0.00e+00	0	38	0	2647654400	39	4230
2026-01-23 14:43:59.95	275.28	62.77	-35.0	-35.8	22.6	0.00e+00	0	38	0	2654994432	39	4188
2026-01-23 14:44:00.94	276.24	62.64	-34.9	-35.7	22.6	0.00e+00	0	38	0	2662334464	40	3897
2026-01-23 14:44:01.94	277.19	62.49	-35.0	-35.8	22.5	0.00e+00	0	38	0	2668625920	40	3956
2026-01-23 14:44:02.93	278.12	62.35	-35.0	-35.8	22.5	0.00e+00	0	38	0	2675965952	40	3944
2026-01-23 14:44:03.93	279.05	62.19	-35.3	-36.2	22.1	0.00e+00	0	38	0	2683305984	40	4121
2026-01-23 14:44:04.92	279.96	62.03	-35.2	-36.1	22.2	0.00e+00	0	38	0	2690646016	40	4064
2026-01-23 14:44:05.91	280.85	61.87	-35.2	-36.0	22.2	0.00e+00	0	38	0	2697986048	40	4037
2026-01-23 14:44:06.91	281.75	61.70	-35.0	-35.8	22.5	0.00e+00	0	38	0	2705326080	40	3936
2026-01-23 14:44:07.90	282.62	61.52	-34.9	-35.8	22.6	0.00e+00	0	38	0	2711617536	40	3930
2026-01-23 14:44:08.90	283.49	61.34	-35.0	-35.9	22.5	0.00e+00	0	38	0	2718957568	40	3970
2026-01-23 14:44:09.89	284.33	61.15	-35.0	-35.9	22.5	0.00e+00	0	38	0	2726297600	40	3973
2026-01-23 14:44:10.89	285.18	60.96	-34.9	-35.7	22.6	0.00e+00	0	38	0	2733637632	40	3895
2026-01-23 14:44:11.88	286.00	60.76	-34.9	-35.8	22.5	0.00e+00	0	38	0	2740977664	40	3922
2026-01-23 14:44:12.88	286.81	60.56	-35.0	-35.8	22.5	0.00e+00	0	38	0	2748317696	40	3956
2026-01-23 14:44:13.87	287.61	60.36	-35.1	-35.9	22.4	0.00e+00	0	38	0	2755657728	40	3980
2026-01-23 14:44:14.87	288.40	60.15	-35.2	-36.1	22.2	0.00e+00	0	38	0	2762997760	40	4081
2026-01-23 14:44:15.86	289.17	59.94	-35.4	-36.2	22.1	0.00e+00	0	38	0	2769289216	40	4138
2026-01-23 14:44:16.86	289.94	59.72	-35.3	-36.2	22.2	0.00e+00	0	38	0	2776629248	40	4120
2026-01-23 14:44:17.85	290.68	59.50	-35.6	-36.5	21.8	0.00e+00	0	38	0	2783969280	40	4272
2026-01-23 14:44:18.85	291.42	59.28	-35.7	-36.6	21.8	0.00e+00	0	38	0	2791309312	41	4073
2026-01-23 14:44:19.84	292.14	59.05	-35.4	-36.3	22.0	0.00e+00	0	39	0	2798649344	41	3943
2026-01-23 14:44:20.84	292.86	58.82	-35.2	-36.0	22.3	0.00e+00	0	38	0	2805989376	41	3801
2026-01-23 14:44:21.83	293.55	58.59	-35.2	-36.1	22.3	0.00e+00	0	38	0	2812280832	41	3852
2026-01-23 14:44:22.83	294.24	58.35	-35.3	-36.2	22.3	0.00e+00	0	38	0	2819620864	41	3876
2026-01-23 14:44:23.82	294.92	58.11	-35.4	-36.2	22.2	0.00e+00	0	38	0	2826960896	41	3910
2026-01-23 14:44:24.82	295.58	57.87	-35.3	-36.2	22.1	0.00e+00	0	38	0	2834300928	41	3871
2026-01-23 14:44:25.81	296.23	57.62	-35.5	-36.4	22.0	0.00e+00	0	38	0	2841640960	41	3963
2026-01-23 14:44:26.81	296.87	57.38	-35.4	-36.2	22.1	0.00e+00	0	38	0	2848980992	41	3912
2026-01-23 14:44:27.81	297.50	57.13	-35.6	-36.5	21.9	0.00e+00	0	38	0	2855272448	41	4018
2026-01-23 14:44:28.80	298.12	56.88	-35.7	-36.6	21.8	0.00e+00	0	38	0	2862612480	41	4074
2026-01-23 14:44:29.79	298.72	56.62	-35.9	-36.8	21.6	0.00e+00	0	38	0	2869952512	41	4170
2026-01-23 14:44:30.79	299.32	56.37	-35.8	-36.7	21.7	0.00e+00	0	38	0	2877292544	41	4134
2026-01-23 14:44:31.79	299.90	56.11	-35.7	-36.5	21.8	0.00e+00	0	38	0	2884632576	41	4047
2026-01-23 14:44:32.78	300.47	55.85	-35.5	-36.3	22.0	0.00e+00	0	38	0	2891972608	41	3943
2026-01-23 14:44:33.78	301.04	55.59	-35.3	-36.1	22.1	0.00e+00	0	38	0	2899312640	41	3851
2026-01-23 14:44:34.77	301.59	55.33	-35.4	-36.3	22.0	0.00e+00	0	38	0	2906652672	41	3914
2026-01-23 14:44:35.77	302.13	55.07	-35.4	-36.2	22.1	0.00e+00	0	38	0	2913992704	41	3899
2026-01-23 14:44:36.76	302.66	54.81	-35.5	-36.4	22.0	0.00e+00	0	38	0	2920284160	41	3991
2026-01-23 14:44:37.76	303.19	54.54	-35.5	-36.4	21.9	0.00e+00	0	38	0	2927624192	41	3990
2026-01-23 14:44:38.75	303.70	54.28	-35.5	-36.4	21.8	0.00e+00	0	38	0	2934964224	41	3989
2026-01-23 14:44:39.75	304.20	54.01	-35.6	-36.5	22.0	0.00e+00	0	38	0	2942304256	41	4005
2026-01-23 14:44:40.74	304.70	53.75	-35.5	-36.4	21.9	0.00e+00	0	38	0	2949644288	41	3997
2026-01-23 14:44:41.74	305.18	53.48	-35.5	-36.3	22.0	0.00e+00	0	38	0	2955935744	41	3955
2026-01-23 14:44:42.73	305.66	53.21	-35.6	-36.5	21.9	0.00e+00	0	38	0	2963275776	41	4031
2026-01-23 14:44:43.73	306.13	52.94	-35.9	-36.8	21.5	0.00e+00	0	38	0	2970615808	41	4168
2026-01-23 14:44:44.72	306.59	52.68	-36.1	-37.1	21.4	0.00e+00	0	38	0	2977955840	41	4292
2026-01-23 14:44:45.72	307.04	52.40	-36.1	-37.0	21.4	0.00e+00	0	38	0	2985295872	41	4286
2026-01-23 14:44:46.71	307.48	52.14	-35.9	-36.9	21.6	0.00e+00	0	38	0	2992635904	41	4199
2026-01-23 14:44:47.71	307.92	51.87	-35.8	-36.7	21.8	0.00e+00	0	38	0	2998927360	41	4102
2026-01-23 14:44:48.70	308.34	51.60	-35.7	-36.5	21.9	0.00e+00	0	38	0	3006267392	41	4048
2026-01-23 14:44:49.70	308.77	51.33	-35.6	-36.4	21.9	0.00e+00	0	38	0	3013607424	41	4002
2026-01-23 14:44:50.69	309.18	51.06	-35.6	-36.5	21.9	0.00e+00	0	38	0	3020947456	41	4030
2026-01-23 14:44:51.69	309.58	50.79	-35.6	-36.5	21.8	0.00e+00	0	38	0	3028287488	41	4029
2026-01-23 14:44:52.68	309.98	50.52	-35.6	-36.5	21.9	0.00e+00	0	38	0	3035627520	41	4006
2026-01-23 14:44:53.68	310.37	50.25	-35.5	-36.4	21.9	0.00e+00	0	38	0	3042967552	41	3961
2026-01-23 14:44:54.67	310.76	49.98	-35.2	-36.1	21.6	0.00e+00	0	38	0	3050307584	41	3831
2026-01-23 14:44:55.67	311.14	49.71	-35.1	-36.0	22.3	0.00e+00	0	38	0	3057647616	41	3788
2026-01-23 14:44:56.66	311.50	49.44	-35.2	-36.1	22.2	0.00e+00	0	38	0	3063939072	41	3832
2026-01-23 14:44:57.66	311.87	49.17	-35.3	-36.1	22.2	0.00e+00	0	38	0	3071279104	41	3849
2026-01-23 14:44:58.65	312.23	48.91	-35.4	-36.2	22.1	0.00e+00	0	38	0	3078619136	41	3897
2026-01-23 14:44:59.65	312.58	48.64	-35.5	-36.3	22.0	0.00e+00	0	38	0	3085959168	41	3948
2026-01-23 14:45:00.64	312.93	48.37	-35.5	-36.4	22.0	0.00e+00	0	38	0	3093299200	41	3967
2026-01-23 14:45:01.64	313.27	48.10	-35.4	-36.3	22.0	0.00e+00	0	38	0	3099590656	41	3933
2026-01-23 14:45:02.63	313.60	47.84	-35.2	-36.0	22.3	0.00e+00	0	38	0	3106930688	41	3821
2026-01-23 14:45:03.63	313.93	47.57	-35.0	-35.8	22.5	0.00e+00	0	38	0	3114270720	40	3944
2026-01-23 14:45:04.62	314.26	47.31	-34.7	-35.6	22.7	0.00e+00	0	38	0	3121610752	40	3827
2026-01-23 14:45:05.62	314.58	47.05	-34.5	-35.4	22.9	0.00e+00	0	38	0	3128950784	39	3970
2026-01-23 14:45:06.61	314.89	46.78	-34.5	-35.4	23.0	0.00e+00	0	38	0	3136290816	39	3968
2026-01-23 14:45:07.61	315.20	46.52	-34.4	-35.2	23.1	0.00e+00	0	38	0	3142582272	39	3887
2026-01-23 14:45:08.60	315.50	46.26	-34.4	-35.2	23.0	0.00e+00	0	38	0	3149922304	39	3907
2026-01-23 14:45:09.59	315.79	46.00	-34.2	-35.0	23.3	0.00e+00	0	38	0	3157262336	39	3798
2026-01-23 14:45:10.59	316.09	45.74	-34.1	-34.9	23.2	0.00e+00	0	38	0	3164602368	38	3976
2026-01-23 14:45:11.59	316.38	45.48	-34.1	-34.9	23.3	0.00e+00	0	38	0	3171942400	38	4000
2026-01-23 14:45:12.58	316.66	45.23	-34.0	-34.8	23.3	0.00e+00	0	38	0	3179282432	38	3958
2026-01-23 14:45:13.57	316.94	44.97	-34.1	-34.9	23.3	0.00e+00	0	39	0	3186622464	38	3990
2026-01-23 14:45:14.57	317.22	44.71	-34.1	-34.9	23.3	0.00e+00	0	38	0	3192913920	38	3999
2026-01-23 14:45:15.56	317.48	44.46	-34.2	-35.0	23.0	0.00e+00	0	38	0	3200253952	38	4027
2026-01-23 14:45:16.56	317.75	44.20	-34.2	-35.1	23.1	0.00e+00	0	38	0	3207593984	38	4056
2026-01-23 14:45:17.55	318.01	43.95	-34.2	-35.0	23.2	0.00e+00	0	38	0	3214934016	38	4048
2026-01-23 14:45:18.55	318.27	43.70	-34.4	-35.2	23.0	0.00e+00	0	38	0	3222274048	38	4130
2026-01-23 14:45:19.54	318.53	43.45	-34.2	-35.0	23.3	0.00e+00	0	38	0	3229614080	38	4024
2026-01-23 14:45:20.54	318.78	43.20	-34.2	-35.0	23.3	0.00e+00	0	38	0	3236954112	38	4036
2026-01-23 14:45:21.53	319.02	42.95	-34.3	-35.1	23.2	0.00e+00	0	38	0	3243245568	38	4077
2026-01-23 14:45:22.52	319.26	42.70	-34.1	-34.9	23.3	0.00e+00	0	38	0	3250585600	38	3995
2026-01-23 14:45:23.52	319.50	42.46	-34.0	-34.9	23.3	0.00e+00	0	38	0	3257925632	38	3962
2026-01-23 14:45:24.51	319.74	42.21	-34.0	-34.8	23.4	0.00e+00	0	38	0	3265265664	38	3930
2026-01-23 14:45:25.51	319.97	41.97	-34.1	-34.9	23.3	0.00e+00	0	38	0	3272605696	38	3992
2026-01-23 14:45:26.50	320.20	41.72	-34.1	-34.9	23.2	0.00e+00	0	38	0	3279945728	38	3980
2026-01-23 14:45:27.50	320.43	41.48	-33.9	-34.7	23.4	0.00e+00	0	38	0	3286237184	38	3897
2026-01-23 14:45:28.49	320.65	41.24	-34.1	-34.9	23.3	0.00e+00	0	38	0	3293577216	38	3970
2026-01-23 14:45:29.49	320.87	41.00	-34.2	-35.1	23.2	0.00e+00	0	38	0	3300917248	38	4053
2026-01-23 14:45:30.48	321.08	40.76	-34.3	-35.2	23.1	0.00e+00	0	38	0	3308257280	38	4101
2026-01-23 14:45:31.48	321.30	40.52	-34.4	-35.3	23.0	0.00e+00	0	38	0	3315597312	38	4158
2026-01-23 14:45:32.47	321.50	40.29	-34.6	-35.5	22.8	0.00e+00	0	38	0	3322937344	38	4245
2026-01-23 14:45:33.47	321.71	40.05	-34.5	-35.4	22.9	0.00e+00	0	38	0	3330277376	38	4208
2026-01-23 14:45:34.46	321.91	39.82	-34.3	-35.1	23.1	0.00e+00	0	38	0	3336568832	38	4087
2026-01-23 14:45:35.46	322.12	39.58	-34.1	-35.0	23.3	0.00e+00	0	38	0	3343908864	38	4019
2026-01-23 14:45:36.45	322.31	39.35	-34.0	-34.8	23.4	0.00e+00	0	38	0	3351248896	38	3936
2026-01-23 14:45:37.45	322.51	39.12	-34.0	-34.8	23.3	0.00e+00	0	38	0	3358588928	38	3941
2026-01-23 14:45:38.44	322.70	38.89	-34.0	-34.9	23.4	0.00e+00	0	38	0	3365928960	38	3961
2026-01-23 14:45:39.44	322.89	38.67	-33.9	-34.8	23.4	0.00e+00	0	38	0	3373268992	38	3916
2026-01-23 14:45:40.43	323.08	38.44	-34.0	-34.8	23.4	0.00e+00	0	38	0	3380609024	38	3939
2026-01-23 14:45:41.43	323.26	38.21	-34.0	-34.9	23.3	0.00e+00	0	38	0	3386900480	38	3959
2026-01-23 14:45:42.42	323.45	37.99	-34.0	-34.9	23.3	0.00e+00	0	38	0	3394240512	38	3973
2026-01-23 14:45:43.42	323.63	37.76	-34.0	-34.8	23.4	0.00e+00	0	38	0	3401580544	38	3956
2026-01-23 14:45:44.41	323.80	37.54	-34.0	-34.9	23.4	0.00e+00	0	38	0	3408920576	38	3964
2026-01-23 14:45:45.40	323.98	37.32	-34.0	-34.9	23.3	0.00e+00	0	38	0	3416260608	38	3979
2026-01-23 14:45:46.40	324.15	37.10	-34.0	-34.9	23.3	0.00e+00	0	38	0	3423600640	38	3987
2026-01-23 14:45:47.39	324.32	36.89	-34.1	-35.0	23.2	0.00e+00	0	38	0	3429892096	38	4027
2026-01-23 14:45:48.39	324.49	36.67	-34.1	-35.0	23.3	0.00e+00	0	38	0	3437232128	38	4009
2026-01-23 14:45:49.38	324.66	36.45	-34.1	-34.9	23.3	0.00e+00	0	38	0	3444572160	38	3992
2026-01-23 14:45:50.38	324.82	36.24	-34.2	-35.0	23.2	0.00e+00	0	38	0	3451912192	38	4045
2026-01-23 14:45:51.37	324.98	36.02	-34.1	-35.0	23.3	0.00e+00	0	38	0	3459252224	38	4005
2026-01-23 14:45:52.37	325.14	35.81	-34.0	-34.9	23.4	0.00e+00	0	38	0	3465543680	38	3973
2026-01-23 14:45:53.36	325.30	35.60	-34.1	-34.9	23.3	0.00e+00	0	38	0	3472883712	38	3988
2026-01-23 14:45:54.36	325.46	35.39	-34.0	-34.8	23.4	0.00e+00	0	38	0	3480223744	38	3954
2026-01-23 14:45:55.35	325.61	35.18	-33.8	-34.6	23.5	0.00e+00	0	38	0	3487563776	38	3863
2026-01-23 14:45:56.34	325.76	34.97	-33.7	-34.5	23.7	0.00e+00	0	38	0	3494903808	38	3816
2026-01-23 14:45:57.34	325.91	34.76	-33.6	-34.4	23.7	0.00e+00	0	38	0	3502243840	38	3778
2026-01-23 14:45:58.33	326.06	34.56	-33.6	-34.5	23.5	0.00e+00	0	38	0	3509583872	38	3784
2026-01-23 14:45:59.33	326.21	34.35	-33.6	-34.4	23.7	0.00e+00	0	38	0	3516923904	37	3990
2026-01-23 14:46:00.31	326.35	34.15	-33.6	-34.4	23.7	0.00e+00	0	38	0	3523215360	37	3978
2026-01-23 14:46:01.28	326.49	33.96	-33.5	-34.4	23.8	0.00e+00	0	38	0	3530555392	37	3962
2026-01-23 14:46:02.28	326.63	33.75	-33.6	-34.4	23.8	0.00e+00	0	38	0	3537895424	37	3976
2026-01-23 14:46:03.28	326.77	33.55	-33.6	-34.4	23.7	0.00e+00	0	38	0	3545235456	37	4003
2026-01-23 14:46:04.27	326.91	33.36	-33.7	-34.5	23.6	0.00e+00	0	38	0	3552575488	37	4045
2026-01-23 14:46:05.26	327.05	33.16	-33.8	-34.7	23.5	0.00e+00	0	38	0	3558866944	37	4106
2026-01-23 14:46:06.26	327.18	32.96	-33.9	-34.7	23.5	0.00e+00	0	38	0	3566206976	37	4113
2026-01-23 14:46:07.25	327.31	32.77	-34.0	-34.8	23.2	0.00e+00	0	38	0	3573547008	37	4174
2026-01-23 14:46:08.25	327.45	32.57	-34.0	-34.8	23.1	0.00e+00	0	38	0	3580887040	37	4190
2026-01-23 14:46:09.24	327.58	32.38	-34.0	-34.8	23.3	0.00e+00	0	38	0	3588227072	37	4161
2026-01-23 14:46:10.24	327.71	32.19	-34.0	-34.8	23.3	0.00e+00	0	38	0	3595567104	37	4185
2026-01-23 14:46:11.23	327.83	32.00	-33.9	-34.8	23.4	0.00e+00	0	38	0	3602907136	37	4150
2026-01-23 14:46:12.23	327.96	31.80	-33.9	-34.7	23.4	0.00e+00	0	38	0	3609198592	37	4143
2026-01-23 14:46:13.22	328.08	31.62	-33.8	-34.7	23.4	0.00e+00	0	38	0	3616538624	37	4102
2026-01-23 14:46:14.22	328.21	31.43	-33.9	-34.7	23.4	0.00e+00	0	38	0	3623878656	37	4145
2026-01-23 14:46:15.21	328.33	31.24	-33.9	-34.7	23.5	0.00e+00	0	38	0	3631218688	37	4118
2026-01-23 14:46:16.21	328.45	31.06	-33.9	-34.8	23.3	0.00e+00	0	38	0	3638558720	37	4150
2026-01-23 14:46:17.21	328.57	30.87	-33.7	-34.5	23.6	0.00e+00	0	38	0	3645898752	37	4031
2026-01-23 14:46:18.20	328.68	30.69	-33.7	-34.6	23.5	0.00e+00	0	38	0	3652190208	37	4059
2026-01-23 14:46:19.20	328.80	30.50	-33.7	-34.5	23.5	0.00e+00	0	38	0	3659530240	37	4048
2026-01-23 14:46:20.19	328.92	30.32	-33.7	-34.6	23.5	0.00e+00	0	38	0	3666870272	37	4054
2026-01-23 14:46:21.19	329.03	30.14	-33.9	-34.7	23.3	0.00e+00	0	38	0	3674210304	37	4127
2026-01-23 14:46:22.18	329.14	29.96	-33.8	-34.7	23.4	0.00e+00	0	38	0	3681550336	37	4128
2026-01-23 14:46:23.18	329.26	29.78	-33.8	-34.7	23.4	0.00e+00	0	38	0	3688890368	37	4131
2026-01-23 14:46:24.17	329.37	29.61	-33.8	-34.7	23.4	0.00e+00	0	38	0	3696230400	37	4125
2026-01-23 14:46:25.17	329.47	29.43	-33.9	-34.7	23.4	0.00e+00	0	38	0	3702521856	37	4137
2026-01-23 14:46:26.16	329.58	29.25	-34.0	-34.9	23.3	0.00e+00	0	38	0	3709861888	37	4203
2026-01-23 14:46:27.15	329.69	29.08	-34.1	-35.0	23.2	0.00e+00	0	38	0	3717201920	37	4246
2026-01-23 14:46:28.15	329.80	28.91	-34.2	-35.0	23.0	0.00e+00	0	38	0	3724541952	37	4265
2026-01-23 14:46:29.15	329.90	28.73	-34.2	-35.0	23.2	0.00e+00	0	38	0	3731881984	37	4262
2026-01-23 14:46:30.14	330.00	28.56	-34.3	-35.1	23.0	0.00e+00	0	38	0	3739222016	37	4328
2026-01-23 14:46:31.14	330.11	28.39	-34.3	-35.1	23.1	0.00e+00	0	38	0	3746562048	38	4091
2026-01-23 14:46:32.13	330.21	28.22	-34.3	-35.1	23.1	0.00e+00	0	38	0	3752853504	38	4080
2026-01-23 14:46:33.13	330.31	28.05	-34.3	-35.1	23.1	0.00e+00	0	38	0	3760193536	38	4085
2026-01-23 14:46:34.13	330.41	27.88	-34.3	-35.1	23.1	0.00e+00	0	38	0	3767533568	38	4078
2026-01-23 14:46:35.12	330.51	27.72	-34.3	-35.1	23.0	0.00e+00	0	38	0	3774873600	38	4092
2026-01-23 14:46:36.12	330.60	27.55	-34.2	-35.1	23.0	0.00e+00	0	38	0	3782213632	38	4080
2026-01-23 14:46:37.11	330.70	27.39	-34.3	-35.1	23.1	0.00e+00	0	38	0	3789553664	38	4095
2026-01-23 14:46:38.11	330.80	27.22	-34.1	-35.0	23.2	0.00e+00	0	38	0	3795845120	38	4031
2026-01-23 14:46:39.10	330.89	27.06	-34.1	-35.0	23.1	0.00e+00	0	38	0	3803185152	38	4040
2026-01-23 14:46:40.10	330.99	26.90	-34.1	-35.0	23.2	0.00e+00	0	38	0	3810525184	38	4025
2026-01-23 14:46:41.09	331.08	26.74	-34.0	-34.9	23.2	0.00e+00	0	38	0	3817865216	38	3993
2026-01-23 14:46:42.09	331.17	26.58	-34.0	-34.9	23.3	0.00e+00	0	38	0	3825205248	38	3962
2026-01-23 14:46:43.09	331.26	26.41	-34.0	-34.9	23.3	0.00e+00	0	38	0	3832545280	38	3981
2026-01-23 14:46:44.08	331.35	26.26	-33.9	-34.8	23.4	0.00e+00	0	38	0	3839885312	38	3918
2026-01-23 14:46:45.07	331.44	26.10	-34.0	-34.9	23.3	0.00e+00	0	38	0	3847225344	38	3971
2026-01-23 14:46:46.07	331.53	25.94	-34.0	-34.8	23.3	0.00e+00	0	38	0	3854565376	38	3936
2026-01-23 14:46:47.06	331.62	25.79	-33.9	-34.7	23.1	0.00e+00	0	38	0	3860856832	38	3912
2026-01-23 14:46:48.06	331.70	25.63	-34.0	-34.8	23.3	0.00e+00	0	38	0	3868196864	38	3947
2026-01-23 14:46:49.05	331.79	25.48	-34.1	-34.9	23.1	0.00e+00	0	38	0	3875536896	38	3986
2026-01-23 14:46:50.05	331.88	25.32	-34.1	-34.9	23.2	0.00e+00	0	38	0	3882876928	38	3974
2026-01-23 14:46:51.04	331.96	25.17	-34.1	-34.9	23.2	0.00e+00	0	38	0	3890216960	38	3981
2026-01-23 14:46:52.04	332.04	25.02	-34.1	-34.9	23.2	0.00e+00	0	38	0	3896508416	38	3998
2026-01-23 14:46:53.03	332.13	24.87	-34.3	-35.1	23.1	0.00e+00	0	38	0	3903848448	38	4075
2026-01-23 14:46:54.03	332.21	24.72	-34.3	-35.1	23.0	0.00e+00	0	38	0	3911188480	38	4090
2026-01-23 14:46:55.02	332.29	24.57	-34.2	-35.1	23.1	0.00e+00	0	38	0	3918528512	38	4055
2026-01-23 14:46:56.02	332.37	24.42	-34.2	-35.0	23.1	0.00e+00	0	38	0	3925868544	38	4048
2026-01-23 14:46:57.01	332.45	24.27	-34.2	-35.1	23.1	0.00e+00	0	38	0	3933208576	38	4061
2026-01-23 14:46:58.01	332.53	24.12	-34.2	-35.1	23.1	0.00e+00	0	38	0	3939500032	38	4073
2026-01-23 14:46:59.00	332.61	23.98	-34.3	-35.1	23.0	0.00e+00	0	38	0	3946840064	38	4080
2026-01-23 14:46:59.99	332.69	23.83	-34.3	-35.2	23.0	0.00e+00	0	38	0	3954180096	38	4114
2026-01-23 14:47:00.99	332.76	23.69	-34.3	-35.2	23.0	0.00e+00	0	38	0	3961520128	38	4107
2026-01-23 14:47:01.98	332.84	23.54	-34.2	-35.1	23.1	0.00e+00	0	38	0	3968860160	38	4072
2026-01-23 14:47:02.98	332.92	23.40	-34.2	-35.1	23.1	0.00e+00	0	38	0	3976200192	38	4068
2026-01-23 14:47:03.97	332.99	23.26	-34.3	-35.2	23.0	0.00e+00	0	38	0	3983540224	38	4103
2026-01-23 14:47:04.97	333.07	23.11	-34.2	-35.1	23.1	0.00e+00	0	38	0	3990880256	38	4076
2026-01-23 14:47:05.96	333.14	22.97	-34.3	-35.1	23.0	0.00e+00	0	38	0	3997171712	38	4092
2026-01-23 14:47:06.96	333.21	22.83	-34.3	-35.2	22.9	0.00e+00	0	38	0	4004511744	38	4104
2026-01-23 14:47:07.96	333.29	22.69	-34.4	-35.2	22.9	0.00e+00	0	38	0	4011851776	38	4140
2026-01-23 14:47:08.95	333.36	22.55	-34.3	-35.2	22.9	0.00e+00	0	38	0	4019191808	38	4133
2026-01-23 14:47:09.95	333.43	22.42	-34.4	-35.3	22.8	0.00e+00	0	38	0	4026531840	38	4166
2026-01-23 14:47:10.95	333.50	22.28	-34.4	-35.2	22.9	0.00e+00	0	38	0	4033871872	38	4145
2026-01-23 14:47:11.94	333.57	22.14	-34.5	-35.3	22.7	0.00e+00	0	38	0	4040163328	38	4176
2026-01-23 14:47:12.93	333.64	22.01	-34.6	-35.4	21.9	0.00e+00	0	38	0	4047503360	38	4225
2026-01-23 14:47:13.93	333.71	21.87	-34.6	-35.4	22.7	0.00e+00	0	38	0	4054843392	38	4226
2026-01-23 14:47:14.92	333.78	21.74	-34.6	-35.5	22.7	0.00e+00	0	38	0	4062183424	38	4250
2026-01-23 14:47:15.92	333.85	21.60	-34.6	-35.5	22.6	0.00e+00	0	38	0	4069523456	38	4261
2026-01-23 14:47:16.91	333.92	21.47	-34.7	-35.6	22.6	0.00e+00	0	38	0	4076863488	38	4306
2026-01-23 14:47:17.91	333.98	21.33	-34.6	-35.5	22.7	0.00e+00	0	38	0	4083154944	38	4266
2026-01-23 14:47:18.90	334.05	21.20	-34.7	-35.5	22.6	0.00e+00	0	38	0	4090494976	38	4290
2026-01-23 14:47:19.90	334.11	21.07	-34.7	-35.6	22.6	0.00e+00	0	38	0	4097835008	38	4307
2026-01-23 14:47:20.89	334.18	20.94	-34.8	-35.7	22.5	0.00e+00	0	38	0	4105175040	39	4120
2026-01-23 14:47:21.88	334.24	20.81	-34.8	-35.7	22.5	0.00e+00	0	38	0	4112515072	39	4102
2026-01-23 14:47:22.88	334.31	20.68	-34.8	-35.7	22.5	0.00e+00	0	38	0	4119855104	39	4102
2026-01-23 14:47:23.87	334.37	20.55	-34.9	-35.8	22.4	0.00e+00	0	38	0	4127195136	39	4152
2026-01-23 14:47:24.87	334.44	20.42	-34.9	-35.8	22.4	0.00e+00	0	38	0	4134535168	39	4157
2026-01-23 14:47:25.86	334.50	20.30	-34.9	-35.8	22.4	0.00e+00	0	38	0	4140826624	39	4179
2026-01-23 14:47:26.86	334.56	20.17	-34.9	-35.9	22.3	0.00e+00	0	38	0	4148166656	39	4206
2026-01-23 14:47:27.85	334.62	20.04	-35.0	-35.9	22.2	0.00e+00	0	38	0	4155506688	39	4238
2026-01-23 14:47:28.85	334.69	19.92	-35.0	-35.9	22.2	0.00e+00	0	38	0	4162846720	39	4234
2026-01-23 14:47:29.84	334.75	19.79	-35.0	-36.0	22.2	0.00e+00	0	38	0	4170186752	39	4248
2026-01-23 14:47:30.84	334.81	19.67	-35.1	-36.0	22.1	0.00e+00	0	38	0	4177526784	39	4282
2026-01-23 14:47:31.83	334.87	19.55	-35.2	-36.2	22.0	0.00e+00	0	38	0	4183818240	39	4351
2026-01-23 14:47:32.83	334.93	19.42	-35.2	-36.1	22.0	0.00e+00	0	38	0	4191158272	39	4338
2026-01-23 14:47:33.82	334.99	19.30	-35.1	-36.1	22.1	0.00e+00	0	38	0	4198498304	40	4055
2026-01-23 14:47:34.81	335.04	19.18	-35.1	-36.0	22.0	0.00e+00	0	38	0	4205838336	40	4048
2026-01-23 14:47:35.81	335.10	19.06	-35.2	-36.1	22.0	0.00e+00	0	38	0	4213178368	40	4057
2026-01-23 14:47:36.80	335.16	18.93	-35.2	-36.1	22.1	0.00e+00	0	38	0	4220518400	40	4060
2026-01-23 14:47:37.80	335.22	18.81	-35.2	-36.1	22.0	0.00e+00	0	38	0	4226809856	40	4094
2026-01-23 14:47:38.79	335.27	18.69	-35.2	-36.1	22.0	0.00e+00	0	38	0	4234149888	40	4066
2026-01-23 14:47:39.79	335.33	18.57	-35.2	-36.1	21.9	0.00e+00	0	38	0	4241489920	40	4092
2026-01-23 14:47:40.78	335.39	18.46	-35.2	-36.1	22.0	0.00e+00	0	38	0	4248829952	40	4087
2026-01-23 14:47:41.78	335.44	18.34	-35.2	-36.1	22.0	0.00e+00	0	38	0	4256169984	40	4079
2026-01-23 14:47:42.77	335.50	18.22	-35.2	-36.1	21.9	0.00e+00	0	38	0	4263510016	40	4098
2026-01-23 14:47:43.77	335.55	18.10	-35.2	-36.1	22.0	0.00e+00	0	38	0	4270850048	40	4095
2026-01-23 14:47:44.76	335.61	17.99	-35.2	-36.2	22.0	0.00e+00	0	38	0	4277141504	40	4100
2026-01-23 14:47:45.76	335.66	17.87	-35.3	-36.2	21.9	0.00e+00	0	38	0	4284481536	40	4128
2026-01-23 14:47:46.75	335.72	17.75	-35.3	-36.2	21.9	0.00e+00	0	38	0	4291821568	40	4118
2026-01-23 14:47:47.75	335.77	17.64	-35.3	-36.2	21.9	0.00e+00	0	38	0	4299161600	40	4139
2026-01-23 14:47:48.74	335.82	17.53	-35.4	-36.3	21.8	0.00e+00	0	38	0	4306501632	40	4167
2026-01-23 14:47:49.74	335.88	17.41	-35.4	-36.3	21.8	0.00e+00	0	38	0	4313841664	40	4188
2026-01-23 14:47:50.73	335.93	17.30	-35.5	-36.4	21.7	0.00e+00	0	38	0	4321181696	40	4207
2026-01-23 14:47:51.73	335.98	17.18	-35.4	-36.3	21.8	0.00e+00	0	38	0	4327473152	40	4174
2026-01-23 14:47:52.72	336.03	17.07	-35.5	-36.4	21.7	0.00e+00	0	38	0	4334813184	40	4211
2026-01-23 14:47:53.72	336.08	16.96	-35.5	-36.4	21.7	0.00e+00	0	38	0	4342153216	40	4234
2026-01-23 14:47:54.71	336.13	16.85	-35.5	-36.4	21.7	0.00e+00	0	38	0	4349493248	40	4233
2026-01-23 14:47:55.71	336.18	16.74	-35.5	-36.4	21.7	0.00e+00	0	38	0	4356833280	40	4230
2026-01-23 14:47:56.71	336.23	16.63	-35.5	-36.4	21.7	0.00e+00	0	38	0	4364173312	40	4241
2026-01-23 14:47:57.70	336.28	16.52	-35.5	-36.5	21.6	0.00e+00	0	38	0	4370464768	40	4257
2026-01-23 14:47:58.69	336.33	16.41	-35.6	-36.5	21.6	0.00e+00	0	38	0	4377804800	40	4285
2026-01-23 14:47:59.69	336.38	16.30	-35.6	-36.6	21.5	0.00e+00	0	38	0	4385144832	40	4297
2026-01-23 14:48:00.68	336.43	16.19	-35.6	-36.6	21.5	0.00e+00	0	38	0	4392484864	40	4302
2026-01-23 14:48:01.67	336.48	16.08	-35.6	-36.5	21.6	0.00e+00	0	38	0	4399824896	40	4283
2026-01-23 14:48:02.67	336.53	15.97	-35.6	-36.5	21.6	0.00e+00	0	38	0	4407164928	40	4275
2026-01-23 14:48:03.66	336.58	15.87	-35.6	-36.6	21.5	0.00e+00	0	38	0	4413456384	40	4300
2026-01-23 14:48:04.66	336.62	15.76	-35.7	-36.6	21.5	0.00e+00	0	38	0	4420796416	40	4324
2026-01-23 14:48:05.65	336.67	15.65	-35.7	-36.6	21.5	0.00e+00	0	38	0	4428136448	40	4317
2026-01-23 14:48:06.65	336.72	15.55	-35.7	-36.6	21.5	0.00e+00	0	38	0	4435476480	40	4336
2026-01-23 14:48:07.64	336.77	15.44	-35.8	-36.7	21.4	0.00e+00	0	38	0	4442816512	41	4122
2026-01-23 14:48:08.64	336.81	15.34	-35.8	-36.7	21.3	0.00e+00	0	38	0	4450156544	41	4110
2026-01-23 14:48:09.63	336.86	15.23	-35.8	-36.7	21.4	0.00e+00	0	38	0	4457496576	41	4123
2026-01-23 14:48:10.61	336.90	15.13	-35.8	-36.7	21.4	0.00e+00	0	38	0	4464836608	41	4131
2026-01-23 14:48:11.60	336.95	15.03	-35.8	-36.7	21.3	0.00e+00	0	38	0	4471128064	41	4137
2026-01-23 14:48:12.60	336.99	14.92	-35.9	-36.8	21.3	0.00e+00	0	38	0	4478468096	41	4159
2026-01-23 14:48:13.59	337.04	14.82	-35.9	-36.9	21.2	0.00e+00	0	38	0	4485808128	41	4201
2026-01-23 14:48:14.59	337.08	14.72	-36.0	-37.0	21.1	0.00e+00	0	38	0	4493148160	41	4266
2026-01-23 14:48:15.58	337.13	14.62	-36.0	-37.0	21.1	0.00e+00	0	38	0	4500488192	41	4265
2026-01-23 14:48:16.58	337.17	14.52	-36.0	-37.0	21.1	0.00e+00	0	38	0	4507828224	41	4267
2026-01-23 14:48:17.57	337.22	14.41	-36.0	-37.0	21.1	0.00e+00	0	38	0	4514119680	41	4273
2026-01-23 14:48:18.56	337.26	14.31	-36.0	-37.0	21.1	0.00e+00	0	38	0	4521459712	41	4270
2026-01-23 14:48:19.56	337.30	14.21	-36.1	-37.1	21.0	0.00e+00	0	38	0	4528799744	41	4296
2026-01-23 14:48:20.55	337.35	14.11	-36.0	-37.1	21.0	0.00e+00	0	38	0	4536139776	41	4296
2026-01-23 14:48:21.55	337.39	14.01	-36.1	-37.2	20.9	0.00e+00	0	38	0	4543479808	41	4343
2026-01-23 14:48:22.54	337.43	13.92	-36.1	-37.1	21.0	0.00e+00	0	38	0	4549771264	41	4336
2026-01-23 14:48:23.54	337.47	13.82	-36.1	-37.1	20.9	0.00e+00	0	38	0	4557111296	41	4340
2026-01-23 14:48:24.53	337.52	13.72	-36.2	-37.2	20.9	0.00e+00	0	38	0	4564451328	41	4371
2026-01-23 14:48:25.53	337.56	13.62	-36.3	-37.3	20.8	0.00e+00	0	38	0	4571791360	41	4428
2026-01-23 14:48:26.52	337.60	13.52	-36.3	-37.3	20.8	0.00e+00	0	38	0	4579131392	42	4176
2026-01-23 14:48:27.52	337.64	13.42	-36.3	-37.3	20.7	0.00e+00	0	38	0	4586471424	42	4190
2026-01-23 14:48:28.51	337.68	13.33	-36.3	-37.3	20.8	0.00e+00	0	38	0	4593811456	42	4182
2026-01-23 14:48:29.50	337.72	13.23	-36.3	-37.3	20.8	0.00e+00	0	38	0	4601151488	42	4182
2026-01-23 14:48:30.49	337.76	13.14	-36.3	-37.4	20.7	0.00e+00	0	38	0	4607442944	42	4204
2026-01-23 14:48:31.49	337.80	13.04	-36.4	-37.4	20.7	0.00e+00	0	38	0	4614782976	42	4239
2026-01-23 14:48:32.48	337.84	12.95	-36.3	-37.4	20.7	0.00e+00	0	38	0	4622123008	42	4224
2026-01-23 14:48:33.48	337.88	12.85	-36.3	-37.5	20.5	0.00e+00	0	38	0	4629463040	42	4244
2026-01-23 14:48:34.47	337.92	12.76	-36.3	-37.4	20.7	0.00e+00	0	38	0	4636803072	42	4232
