passes_logs/2026/01/23/T1/T1__20260123_205919_FENGYUN_3G_rec.log

#Pass ID: 20260123_205919_FENGYUN 3G
#Satellite: FENGYUN 3G
#Configuration: FENGYUN 3G
#almurnet v.1.7.20251203
#Start time: 2026-01-23 20:59:21

#Version: 2.0.20230620
#Station: T1
#Location: 37.570604 lon 55.790049 lat
#TLE: 1 56232U 23055A   26022.95932522  .00036289  00000+0  55235-3 0  9992
#TLE: 2 56232  49.9946  14.8507 0004090  68.3647 291.7756 15.54106507157434

#Time	Az	El	Level	Level2	SNR	BER	BlckErr	Temp	State	Recorded	gain1	gain2
2026-01-23 20:59:21.79	257.38	5.16	-48.3	-67.1	3.8	8.47e-01	0	35	0	0	68	30862
2026-01-23 20:59:22.78	257.28	5.23	-48.3	-67.0	3.8	8.38e-01	0	35	104	0	68	30509
2026-01-23 20:59:23.78	257.18	5.31	-48.3	-67.0	3.8	8.48e-01	0	35	104	0	68	30454
2026-01-23 20:59:24.77	257.08	5.38	-48.3	-67.0	3.8	8.46e-01	0	35	104	0	68	30395
2026-01-23 20:59:25.77	256.98	5.45	-48.3	-67.0	3.8	8.46e-01	0	35	104	0	68	30444
2026-01-23 20:59:26.76	256.87	5.53	-48.3	-67.0	3.8	8.47e-01	0	35	104	0	68	30588
2026-01-23 20:59:27.76	256.77	5.60	-48.3	-67.1	3.8	8.46e-01	0	35	104	0	68	30758
2026-01-23 20:59:28.76	256.67	5.68	-48.3	-67.1	3.8	8.46e-01	0	35	104	0	68	30787
2026-01-23 20:59:29.76	256.56	5.76	-48.3	-67.0	3.8	8.47e-01	0	35	104	0	68	30729
2026-01-23 20:59:30.75	256.46	5.83	-48.3	-67.1	3.8	8.47e-01	0	35	104	0	68	30732
2026-01-23 20:59:31.75	256.35	5.91	-48.3	-67.1	3.8	8.47e-01	0	35	104	0	68	30805
2026-01-23 20:59:32.74	256.25	5.98	-48.3	-67.1	3.8	8.47e-01	0	35	104	0	68	30836
2026-01-23 20:59:33.74	256.14	6.06	-48.3	-67.1	3.8	8.46e-01	0	35	104	0	68	30899
2026-01-23 20:59:34.74	256.03	6.14	-48.3	-67.0	3.8	8.46e-01	0	35	104	0	68	30720
2026-01-23 20:59:35.74	255.92	6.22	-48.3	-67.0	3.8	8.48e-01	0	35	104	0	68	30513
2026-01-23 20:59:36.73	255.81	6.29	-48.3	-66.9	3.8	8.47e-01	0	35	104	0	68	30272
2026-01-23 20:59:37.73	255.70	6.37	-48.3	-66.9	3.8	8.47e-01	0	35	104	0	68	30118
2026-01-23 20:59:38.73	255.59	6.45	-48.3	-66.8	3.8	8.47e-01	0	35	104	0	68	29953
2026-01-23 20:59:39.72	255.48	6.53	-48.3	-66.7	3.8	8.47e-01	0	35	104	0	68	29633
2026-01-23 20:59:40.72	255.36	6.61	-48.3	-66.7	3.8	8.46e-01	0	35	104	0	68	29373
2026-01-23 20:59:41.72	255.25	6.69	-48.3	-66.6	3.8	8.46e-01	0	36	104	0	68	29122
2026-01-23 20:59:42.71	255.13	6.76	-48.3	-66.6	3.8	8.47e-01	0	36	104	0	68	29075
2026-01-23 20:59:43.71	255.02	6.84	-48.3	-66.6	3.8	8.46e-01	0	36	104	0	68	29237
2026-01-23 20:59:44.71	254.90	6.92	-48.3	-66.8	3.8	8.46e-01	0	36	104	0	68	29712
2026-01-23 20:59:45.70	254.78	7.00	-48.3	-66.9	3.8	8.46e-01	0	36	104	0	68	30258
2026-01-23 20:59:46.70	254.66	7.08	-48.3	-67.1	3.8	8.45e-01	0	36	104	0	68	30845
2026-01-23 20:59:47.70	254.54	7.17	-48.3	-67.2	3.8	8.45e-01	0	36	104	0	68	31213
2026-01-23 20:59:48.69	254.42	7.25	-48.3	-67.2	3.8	8.46e-01	0	36	104	0	68	31266
2026-01-23 20:59:49.69	254.30	7.33	-48.3	-67.2	3.8	8.46e-01	0	36	104	0	68	31187
2026-01-23 20:59:50.68	254.18	7.41	-48.3	-67.2	3.8	8.46e-01	0	36	104	0	68	31291
2026-01-23 20:59:51.68	254.06	7.49	-48.3	-67.2	3.8	8.47e-01	0	36	104	0	68	31258
2026-01-23 20:59:52.68	253.93	7.57	-48.3	-67.1	3.8	8.48e-01	0	36	104	0	68	31086
2026-01-23 20:59:53.67	253.81	7.66	-48.3	-66.8	3.8	8.48e-01	0	36	104	0	68	29865
2026-01-23 20:59:54.67	253.68	7.74	-48.3	-66.2	3.8	8.48e-01	0	36	104	0	68	27958
2026-01-23 20:59:55.67	253.55	7.82	-48.2	-65.7	3.8	8.46e-01	0	36	104	0	68	26184
2026-01-23 20:59:56.66	253.43	7.91	-48.2	-65.4	3.8	8.46e-01	0	36	104	0	68	25297
2026-01-23 20:59:57.66	253.30	7.99	-48.2	-65.5	3.8	8.46e-01	0	36	104	0	68	25762
2026-01-23 20:59:58.66	253.16	8.07	-48.2	-66.1	3.8	8.45e-01	0	36	104	0	68	27682
2026-01-23 20:59:59.65	253.03	8.16	-48.3	-66.9	3.8	8.45e-01	0	36	104	0	68	30358
2026-01-23 21:00:00.65	252.90	8.24	-48.3	-67.1	3.8	8.45e-01	0	36	104	0	68	31034
2026-01-23 21:00:01.65	252.77	8.33	-48.2	-66.6	3.8	8.48e-01	0	36	104	0	68	29041
2026-01-23 21:00:02.65	252.63	8.41	-48.2	-65.8	3.8	8.47e-01	0	36	104	0	68	26652
2026-01-23 21:00:03.64	252.50	8.50	-48.2	-65.2	3.8	8.47e-01	0	36	104	0	68	24966
2026-01-23 21:00:04.64	252.36	8.59	-48.2	-64.1	3.9	8.47e-01	0	36	104	0	68	21785
2026-01-23 21:00:05.64	252.22	8.67	-48.0	-61.1	5.2	8.33e-01	0	36	0	0	68	15551
2026-01-23 21:00:06.64	252.08	8.76	-47.5	-57.5	8.1	8.33e-01	0	36	0	0	67	10780
2026-01-23 21:00:07.63	251.94	8.85	-46.9	-54.6	11.2	3.16e-01	0	36	0	0	65	8668
2026-01-23 21:00:08.63	251.80	8.93	-46.2	-52.1	13.8	5.47e-03	0	36	0	0	64	6942
2026-01-23 21:00:09.62	251.65	9.02	-45.7	-50.8	15.2	5.47e-03	0	36	0	0	63	6319
2026-01-23 21:00:10.62	251.51	9.11	-44.5	-48.4	18.0	8.00e-06	0	36	0	0	60	5700
2026-01-23 21:00:11.62	251.36	9.20	-43.5	-46.9	19.1	0.00e+00	0	36	0	0	59	5089
2026-01-23 21:00:12.63	251.22	9.29	-46.2	-52.0	15.3	0.00e+00	0	36	0	0	62	7657
2026-01-23 21:00:13.63	251.07	9.38	-45.6	-50.7	15.2	4.50e-06	0	36	0	0	63	6205
2026-01-23 21:00:14.63	250.92	9.47	-42.2	-45.0	20.8	3.93e-02	0	36	0	0	56	4839
2026-01-23 21:00:15.64	250.77	9.56	-41.3	-43.9	22.1	0.00e+00	0	36	0	0	54	4786
2026-01-23 21:00:16.64	250.61	9.65	-41.2	-43.8	22.1	0.00e+00	0	36	0	0	54	4717
2026-01-23 21:00:17.64	250.46	9.74	-40.4	-42.9	23.0	0.00e+00	0	36	0	0	52	4779
2026-01-23 21:00:18.64	250.30	9.83	-40.0	-42.3	23.5	0.00e+00	0	36	0	0	52	4487
2026-01-23 21:00:19.64	250.15	9.92	-40.1	-42.5	23.5	0.00e+00	0	36	0	0	51	4840
2026-01-23 21:00:20.64	249.99	10.01	-40.0	-42.3	23.7	0.00e+00	0	36	0	0	51	4738
2026-01-23 21:00:21.64	249.83	10.11	-39.7	-42.0	24.0	0.00e+00	0	36	0	0	51	4573
2026-01-23 21:00:22.64	249.67	10.20	-39.7	-41.9	24.0	0.00e+00	0	36	0	0	51	4540
2026-01-23 21:00:23.64	249.51	10.29	-39.7	-41.9	24.0	0.00e+00	0	36	0	0	51	4545
2026-01-23 21:00:24.64	249.35	10.38	-39.6	-41.9	24.1	0.00e+00	0	36	0	0	51	4539
2026-01-23 21:00:25.64	249.18	10.48	-39.7	-41.9	24.0	0.00e+00	0	36	0	0	51	4545
2026-01-23 21:00:26.64	249.02	10.57	-39.6	-41.9	24.1	0.00e+00	0	36	0	0	51	4514
2026-01-23 21:00:27.65	248.85	10.67	-39.4	-41.7	24.2	0.00e+00	0	36	0	0	50	4683
2026-01-23 21:00:28.65	248.68	10.76	-39.4	-41.6	24.4	0.00e+00	0	36	0	0	50	4628
2026-01-23 21:00:29.65	248.51	10.86	-39.3	-41.5	24.4	0.00e+00	0	36	0	0	50	4575
2026-01-23 21:00:30.65	248.34	10.95	-39.0	-41.2	24.6	0.00e+00	0	36	0	0	50	4438
2026-01-23 21:00:31.65	248.16	11.05	-39.0	-41.2	24.6	0.00e+00	0	36	0	0	50	4436
2026-01-23 21:00:32.66	247.99	11.14	-39.1	-41.3	24.7	0.00e+00	0	36	0	0	50	4446
2026-01-23 21:00:33.66	247.81	11.24	-39.2	-41.4	24.6	0.00e+00	0	37	0	0	50	4510
2026-01-23 21:00:34.65	247.63	11.34	-39.2	-41.4	24.6	0.00e+00	0	37	0	0	50	4505
2026-01-23 21:00:35.65	247.45	11.43	-39.1	-41.3	24.7	0.00e+00	0	36	0	0	50	4477
2026-01-23 21:00:36.66	247.27	11.53	-39.1	-41.3	24.6	0.00e+00	0	36	0	0	50	4488
2026-01-23 21:00:37.66	247.09	11.63	-39.0	-41.2	24.8	0.00e+00	0	36	0	0	50	4400
2026-01-23 21:00:38.66	246.90	11.73	-38.8	-41.0	24.9	0.00e+00	0	37	0	0	49	4579
2026-01-23 21:00:39.66	246.72	11.83	-38.8	-41.0	25.0	0.00e+00	0	37	0	0	49	4583
2026-01-23 21:00:40.66	246.53	11.93	-38.8	-40.9	25.0	0.00e+00	0	36	0	0	49	4543
2026-01-23 21:00:41.67	246.34	12.03	-38.7	-40.8	25.1	0.00e+00	0	36	0	0	49	4481
2026-01-23 21:00:42.67	246.15	12.13	-38.6	-40.7	25.2	0.00e+00	0	37	0	0	49	4419
2026-01-23 21:00:43.67	245.95	12.23	-38.6	-40.8	25.2	0.00e+00	0	36	0	0	49	4452
2026-01-23 21:00:44.67	245.76	12.33	-38.6	-40.7	25.3	0.00e+00	0	37	0	0	49	4407
2026-01-23 21:00:45.67	245.56	12.43	-38.6	-40.7	25.2	0.00e+00	0	37	0	0	49	4435
2026-01-23 21:00:46.67	245.36	12.53	-38.4	-40.5	25.5	0.00e+00	0	36	0	0	48	4554
2026-01-23 21:00:47.67	245.16	12.63	-38.3	-40.4	25.5	0.00e+00	0	37	0	0	48	4545
2026-01-23 21:00:48.67	244.96	12.73	-38.3	-40.4	25.5	0.00e+00	0	37	0	0	48	4544
2026-01-23 21:00:49.67	244.76	12.83	-38.4	-40.5	25.4	0.00e+00	0	37	0	0	48	4589
2026-01-23 21:00:50.67	244.55	12.94	-38.4	-40.5	25.4	0.00e+00	0	37	0	0	48	4593
2026-01-23 21:00:51.68	244.34	13.04	-38.4	-40.5	25.4	0.00e+00	0	37	0	0	48	4577
2026-01-23 21:00:52.68	244.13	13.14	-38.4	-40.5	25.4	0.00e+00	0	37	0	0	48	4565
2026-01-23 21:00:53.68	243.92	13.25	-38.1	-40.2	25.7	0.00e+00	0	37	0	0	48	4433
2026-01-23 21:00:54.68	243.71	13.35	-38.0	-40.1	25.8	0.00e+00	0	37	0	0	48	4346
2026-01-23 21:00:55.68	243.49	13.46	-37.9	-40.0	25.9	0.00e+00	0	37	0	0	47	4564
2026-01-23 21:00:56.68	243.28	13.56	-37.7	-39.8	26.1	0.00e+00	0	37	0	0	47	4464
2026-01-23 21:00:57.69	243.05	13.67	-37.8	-39.9	25.9	0.00e+00	0	37	0	0	47	4521
2026-01-23 21:00:58.69	242.83	13.77	-37.8	-39.8	26.0	0.00e+00	0	37	0	0	47	4484
2026-01-23 21:00:59.69	242.61	13.88	-37.7	-39.8	26.1	0.00e+00	0	37	0	0	47	4459
2026-01-23 21:01:00.69	242.38	13.98	-37.8	-39.8	26.0	0.00e+00	0	37	0	0	47	4489
2026-01-23 21:01:01.69	242.16	14.09	-37.8	-39.9	26.0	0.00e+00	0	37	0	0	47	4505
2026-01-23 21:01:02.69	241.93	14.20	-38.0	-40.1	25.8	0.00e+00	0	37	0	0	47	4635
2026-01-23 21:01:03.69	241.69	14.30	-38.0	-40.1	25.7	0.00e+00	0	37	0	0	47	4645
2026-01-23 21:01:04.69	241.46	14.41	-37.8	-39.9	26.0	0.00e+00	0	36	0	0	47	4502
2026-01-23 21:01:05.69	241.22	14.52	-37.6	-39.7	26.1	0.00e+00	0	37	0	0	47	4416
2026-01-23 21:01:06.69	240.99	14.63	-37.5	-39.6	26.3	0.00e+00	0	37	0	0	47	4360
2026-01-23 21:01:07.69	240.74	14.73	-37.7	-39.7	26.1	0.00e+00	0	37	0	0	47	4424
2026-01-23 21:01:08.69	240.50	14.84	-37.4	-39.5	26.3	0.00e+00	0	37	0	0	46	4555
2026-01-23 21:01:09.69	240.26	14.95	-37.4	-39.4	26.3	0.00e+00	0	37	0	0	46	4537
2026-01-23 21:01:10.69	240.01	15.06	-37.4	-39.5	26.3	0.00e+00	0	37	0	0	46	4552
2026-01-23 21:01:11.69	239.76	15.17	-37.6	-39.6	26.2	0.00e+00	0	37	0	0	46	4642
2026-01-23 21:01:12.69	239.51	15.28	-37.6	-39.7	26.1	0.00e+00	0	37	0	0	46	4683
2026-01-23 21:01:13.69	239.25	15.39	-37.5	-39.6	26.3	0.00e+00	0	37	0	0	46	4617
2026-01-23 21:01:14.69	238.99	15.50	-37.6	-39.6	26.3	0.00e+00	0	37	0	0	46	4648
2026-01-23 21:01:15.69	238.73	15.61	-37.5	-39.6	26.3	0.00e+00	0	37	0	0	46	4603
2026-01-23 21:01:16.69	238.47	15.72	-37.3	-39.3	26.5	0.00e+00	0	37	0	0	46	4485
2026-01-23 21:01:17.70	238.21	15.83	-37.1	-39.1	26.7	0.00e+00	0	37	0	0	46	4343
2026-01-23 21:01:18.70	237.94	15.94	-37.0	-39.0	26.8	0.00e+00	0	37	0	0	46	4309
2026-01-23 21:01:19.70	237.67	16.05	-37.0	-39.0	26.8	0.00e+00	0	37	0	0	46	4337
2026-01-23 21:01:20.70	237.40	16.16	-37.0	-39.0	26.8	0.00e+00	0	37	0	0	46	4338
2026-01-23 21:01:21.71	237.12	16.27	-37.0	-39.0	26.8	0.00e+00	0	37	0	0	45	4565
2026-01-23 21:01:22.70	236.84	16.39	-37.0	-39.0	26.8	0.00e+00	0	37	0	0	45	4595
2026-01-23 21:01:23.71	236.56	16.50	-37.0	-39.1	26.8	0.00e+00	0	37	0	0	45	4599
2026-01-23 21:01:24.71	236.28	16.61	-37.1	-39.1	26.6	0.00e+00	0	37	0	0	45	4648
2026-01-23 21:01:25.71	235.99	16.72	-37.1	-39.1	26.7	0.00e+00	0	37	0	0	45	4630
2026-01-23 21:01:26.71	235.71	16.83	-37.2	-39.3	26.6	0.00e+00	0	37	0	0	45	4719
2026-01-23 21:01:27.71	235.42	16.95	-37.1	-39.2	26.6	0.00e+00	0	37	0	0	45	4662
2026-01-23 21:01:28.71	235.12	17.06	-37.2	-39.2	26.6	0.00e+00	0	37	0	0	45	4691
2026-01-23 21:01:29.71	234.83	17.17	-36.9	-38.9	26.8	0.00e+00	0	37	0	0	45	4530
2026-01-23 21:01:30.71	234.53	17.28	-36.5	-38.5	27.2	0.00e+00	0	37	0	0	45	4314
2026-01-23 21:01:31.71	234.23	17.40	-36.6	-38.6	27.2	0.00e+00	0	37	0	0	45	4346
2026-01-23 21:01:32.72	233.92	17.51	-36.6	-38.6	27.2	0.00e+00	0	37	0	0	45	4375
2026-01-23 21:01:33.72	233.61	17.62	-36.7	-38.7	27.1	0.00e+00	0	37	0	0	45	4399
2026-01-23 21:01:34.72	233.30	17.74	-36.7	-38.7	27.1	0.00e+00	0	37	0	0	45	4423
2026-01-23 21:01:35.72	232.99	17.85	-36.9	-38.9	26.7	0.00e+00	0	37	0	0	45	4508
2026-01-23 21:01:36.72	232.67	17.96	-37.0	-39.0	26.8	0.00e+00	0	37	0	0	45	4586
2026-01-23 21:01:37.71	232.36	18.07	-37.1	-39.1	26.7	0.00e+00	0	37	0	0	45	4614
2026-01-23 21:01:38.71	232.03	18.19	-37.0	-39.0	26.9	0.00e+00	0	37	0	0	45	4552
2026-01-23 21:01:39.72	231.71	18.30	-36.7	-38.7	27.1	0.00e+00	0	37	0	0	45	4431
2026-01-23 21:01:40.72	231.38	18.41	-36.8	-38.8	27.0	0.00e+00	0	37	0	0	45	4446
2026-01-23 21:01:41.72	231.05	18.52	-36.4	-38.4	27.3	0.00e+00	0	37	0	0	44	4520
2026-01-23 21:01:42.72	230.71	18.64	-36.3	-38.3	27.5	0.00e+00	0	37	0	0	44	4460
2026-01-23 21:01:43.72	230.38	18.75	-36.4	-38.4	27.3	0.00e+00	0	37	0	0	44	4501
2026-01-23 21:01:44.72	230.04	18.86	-36.2	-38.1	27.6	0.00e+00	0	37	0	0	44	4366
2026-01-23 21:01:45.72	229.69	18.97	-36.2	-38.2	27.5	0.00e+00	0	37	0	0	44	4405
2026-01-23 21:01:46.72	229.35	19.08	-36.3	-38.2	27.5	0.00e+00	0	37	0	0	44	4427
2026-01-23 21:01:47.73	228.99	19.20	-36.3	-38.3	27.5	0.00e+00	0	37	0	0	44	4446
2026-01-23 21:01:48.73	228.64	19.31	-36.5	-38.5	27.3	0.00e+00	0	37	0	0	44	4562
2026-01-23 21:01:49.73	228.29	19.42	-36.5	-38.4	27.3	0.00e+00	0	37	0	0	44	4538
2026-01-23 21:01:50.73	227.93	19.53	-36.6	-38.6	27.2	0.00e+00	0	37	0	0	44	4627
2026-01-23 21:01:51.73	227.56	19.64	-36.5	-38.5	27.3	0.00e+00	0	37	0	0	44	4577
2026-01-23 21:01:52.73	227.20	19.75	-36.6	-38.5	27.2	0.00e+00	0	37	0	0	44	4587
2026-01-23 21:01:53.74	226.83	19.86	-36.3	-38.3	27.4	0.00e+00	0	37	0	0	44	4472
2026-01-23 21:01:54.74	226.46	19.97	-36.0	-37.9	27.7	0.00e+00	0	37	0	0	44	4288
2026-01-23 21:01:55.73	226.08	20.08	-35.7	-37.6	27.8	0.00e+00	0	37	0	0	43	4353
2026-01-23 21:01:56.74	225.70	20.19	-35.5	-37.5	28.0	0.00e+00	0	37	0	0	43	4298
2026-01-23 21:01:57.74	225.32	20.29	-35.6	-37.5	28.0	0.00e+00	0	37	0	0	42	4582
2026-01-23 21:01:58.74	224.94	20.40	-35.5	-37.4	28.0	0.00e+00	0	37	0	0	42	4529
2026-01-23 21:01:59.74	224.55	20.51	-35.5	-37.4	28.1	0.00e+00	0	37	0	0	42	4511
2026-01-23 21:02:00.74	224.16	20.61	-35.7	-37.6	27.9	0.00e+00	0	37	0	0	42	4629
2026-01-23 21:02:01.74	223.76	20.72	-35.7	-37.6	27.9	0.00e+00	0	37	0	0	42	4613
2026-01-23 21:02:02.74	223.37	20.82	-35.7	-37.6	27.8	0.00e+00	0	37	0	0	42	4625
2026-01-23 21:02:03.74	222.97	20.93	-35.9	-37.8	27.7	0.00e+00	0	37	0	0	42	4739
2026-01-23 21:02:04.74	222.56	21.03	-36.0	-37.9	27.6	0.00e+00	0	37	0	0	42	4777
2026-01-23 21:02:05.74	222.15	21.14	-36.0	-38.0	27.6	0.00e+00	0	37	0	0	42	4822
2026-01-23 21:02:06.74	221.74	21.24	-36.0	-37.9	27.6	0.00e+00	0	37	0	0	42	4800
2026-01-23 21:02:07.74	221.33	21.34	-35.8	-37.8	27.7	0.00e+00	0	37	0	0	42	4722
2026-01-23 21:02:08.74	220.91	21.44	-35.7	-37.6	27.8	0.00e+00	0	37	0	0	42	4637
2026-01-23 21:02:09.75	220.49	21.54	-35.5	-37.4	28.0	0.00e+00	0	37	0	0	42	4534
2026-01-23 21:02:10.74	220.07	21.64	-35.7	-37.7	27.7	0.00e+00	0	37	0	0	42	4661
2026-01-23 21:02:11.74	219.64	21.74	-35.8	-37.7	27.8	0.00e+00	0	37	0	0	42	4671
2026-01-23 21:02:12.74	219.21	21.83	-35.8	-37.7	27.8	0.00e+00	0	37	0	0	42	4676
2026-01-23 21:02:13.74	218.78	21.93	-35.7	-37.6	27.9	0.00e+00	0	37	0	0	42	4628
2026-01-23 21:02:14.75	218.34	22.03	-35.5	-37.4	28.1	0.00e+00	0	37	0	0	42	4511
2026-01-23 21:02:15.75	217.90	22.12	-35.2	-37.0	28.4	0.00e+00	0	37	0	0	42	4339
2026-01-23 21:02:16.75	217.45	22.21	-35.3	-37.2	28.3	0.00e+00	0	37	0	0	42	4399
2026-01-23 21:02:17.75	217.01	22.30	-35.3	-37.2	28.3	0.00e+00	0	37	0	0	42	4410
2026-01-23 21:02:18.75	216.56	22.39	-35.4	-37.3	28.2	0.00e+00	0	37	0	0	42	4463
2026-01-23 21:02:19.75	216.11	22.48	-35.4	-37.3	28.2	0.00e+00	0	37	0	0	42	4463
2026-01-23 21:02:20.76	215.65	22.57	-35.6	-37.5	28.0	0.00e+00	0	37	0	0	42	4561
2026-01-23 21:02:21.76	215.19	22.66	-35.3	-37.2	28.2	0.00e+00	0	37	0	0	42	4433
2026-01-23 21:02:22.76	214.73	22.75	-35.1	-37.0	28.4	0.00e+00	0	37	0	0	42	4307
2026-01-23 21:02:23.77	214.26	22.83	-35.1	-37.0	28.5	0.00e+00	0	37	0	0	42	4292
2026-01-23 21:02:24.77	213.79	22.91	-34.9	-36.8	28.4	0.00e+00	0	37	0	0	41	4474
2026-01-23 21:02:25.77	213.32	22.99	-35.0	-36.9	28.3	0.00e+00	0	37	0	0	41	4501
2026-01-23 21:02:26.77	212.85	23.07	-35.0	-36.9	28.5	0.00e+00	0	37	0	0	41	4533
2026-01-23 21:02:27.77	212.37	23.15	-35.1	-37.0	28.4	0.00e+00	0	37	0	0	41	4565
2026-01-23 21:02:28.77	211.89	23.23	-35.0	-36.9	28.4	0.00e+00	0	37	0	0	41	4540
2026-01-23 21:02:29.77	211.41	23.30	-35.2	-37.1	28.3	0.00e+00	0	37	0	0	41	4627
2026-01-23 21:02:30.78	210.92	23.38	-35.3	-37.2	28.2	0.00e+00	0	37	0	0	41	4686
2026-01-23 21:02:31.78	210.43	23.45	-35.1	-37.0	28.4	0.00e+00	0	37	0	0	41	4566
2026-01-23 21:02:32.78	209.94	23.52	-35.1	-37.0	28.4	0.00e+00	0	37	0	0	41	4576
2026-01-23 21:02:33.78	209.45	23.59	-35.0	-36.9	28.4	0.00e+00	0	37	0	0	41	4509
2026-01-23 21:02:34.78	208.96	23.66	-35.1	-36.9	28.4	0.00e+00	0	37	0	0	41	4542
2026-01-23 21:02:35.78	208.46	23.72	-34.9	-36.8	28.5	0.00e+00	0	37	0	0	41	4465
2026-01-23 21:02:36.79	207.96	23.79	-34.8	-36.7	28.6	0.00e+00	0	37	0	0	41	4417
2026-01-23 21:02:37.78	207.46	23.85	-34.9	-36.7	28.5	0.00e+00	0	37	0	0	41	4432
2026-01-23 21:02:38.79	206.95	23.91	-35.1	-37.0	28.0	0.00e+00	0	37	0	0	41	4547
2026-01-23 21:02:39.79	206.44	23.96	-35.0	-36.9	28.4	0.00e+00	0	37	0	0	41	4495
2026-01-23 21:02:40.78	205.94	24.02	-35.3	-37.2	28.2	0.00e+00	0	37	0	0	41	4677
2026-01-23 21:02:41.78	205.43	24.07	-35.2	-37.1	28.3	0.00e+00	0	37	0	0	41	4636
2026-01-23 21:02:42.78	204.92	24.12	-35.2	-37.0	28.3	0.00e+00	0	37	0	0	41	4592
2026-01-23 21:02:43.78	204.40	24.17	-35.1	-37.0	28.4	0.00e+00	0	37	0	0	41	4577
2026-01-23 21:02:44.79	203.88	24.22	-34.9	-36.7	28.6	0.00e+00	0	37	0	0	41	4441
2026-01-23 21:02:45.79	203.36	24.27	-35.0	-36.8	28.5	0.00e+00	0	37	0	0	41	4483
2026-01-23 21:02:46.78	202.85	24.31	-35.3	-37.2	28.3	0.00e+00	0	37	0	0	41	4699
2026-01-23 21:02:47.78	202.33	24.35	-35.2	-37.1	28.3	0.00e+00	0	37	0	0	41	4610
2026-01-23 21:02:48.79	201.80	24.39	-35.4	-37.3	28.1	0.00e+00	0	37	0	0	41	4714
2026-01-23 21:02:49.79	201.27	24.43	-35.0	-36.9	28.4	0.00e+00	0	37	0	0	41	4532
2026-01-23 21:02:50.79	200.75	24.46	-35.2	-37.1	28.2	0.00e+00	0	37	0	0	41	4634
2026-01-23 21:02:51.79	200.22	24.49	-35.1	-36.9	28.2	0.00e+00	0	37	0	0	41	4544
2026-01-23 21:02:52.79	199.69	24.52	-35.2	-37.1	28.3	0.00e+00	0	37	0	0	41	4629
2026-01-23 21:02:53.79	199.16	24.55	-35.4	-37.3	28.2	0.00e+00	0	37	0	0	41	4755
2026-01-23 21:02:54.80	198.63	24.58	-35.6	-37.5	28.1	0.00e+00	0	37	0	0	41	4833
2026-01-23 21:02:55.79	198.10	24.60	-35.7	-37.6	27.8	0.00e+00	0	37	0	0	42	4651
2026-01-23 21:02:56.80	197.56	24.62	-35.5	-37.4	28.1	0.00e+00	0	37	0	0	42	4528
2026-01-23 21:02:57.80	197.03	24.64	-35.5	-37.4	28.0	0.00e+00	0	37	0	0	42	4545
2026-01-23 21:02:58.80	196.50	24.66	-35.1	-37.0	28.4	0.00e+00	0	37	0	0	42	4321
2026-01-23 21:02:59.80	195.96	24.67	-35.0	-36.9	28.5	0.00e+00	0	37	0	0	42	4278
2026-01-23 21:03:00.80	195.43	24.68	-35.0	-36.9	28.4	0.00e+00	0	37	0	0	41	4517
2026-01-23 21:03:01.80	194.89	24.69	-34.8	-36.6	28.6	0.00e+00	0	37	0	0	41	4380
2026-01-23 21:03:02.80	194.36	24.70	-34.6	-36.4	28.8	0.00e+00	0	37	0	0	41	4274
2026-01-23 21:03:03.81	193.81	24.70	-34.7	-36.6	28.7	0.00e+00	0	37	0	0	41	4357
2026-01-23 21:03:04.80	193.28	24.70	-34.6	-36.5	28.8	0.00e+00	0	37	0	0	41	4310
2026-01-23 21:03:05.81	192.74	24.70	-34.7	-36.6	28.7	0.00e+00	0	37	0	0	41	4359
2026-01-23 21:03:06.81	192.21	24.70	-34.9	-36.8	28.5	0.00e+00	0	37	0	0	41	4463
2026-01-23 21:03:07.81	191.67	24.70	-35.2	-37.1	28.3	0.00e+00	0	37	0	0	41	4636
2026-01-23 21:03:08.82	191.13	24.69	-35.3	-37.2	28.2	0.00e+00	0	37	0	0	41	4682
2026-01-23 21:03:09.82	190.59	24.68	-35.4	-37.3	28.1	0.00e+00	0	37	0	0	41	4741
2026-01-23 21:03:10.82	190.06	24.67	-35.3	-37.2	28.2	0.00e+00	0	37	0	0	41	4676
2026-01-23 21:03:11.82	189.53	24.65	-35.2	-37.1	28.4	0.00e+00	0	37	0	0	41	4606
2026-01-23 21:03:12.82	188.99	24.63	-35.2	-37.0	28.3	0.00e+00	0	37	0	0	41	4583
2026-01-23 21:03:13.82	188.46	24.61	-35.1	-37.0	28.3	0.00e+00	0	37	0	0	41	4550
2026-01-23 21:03:14.81	187.93	24.59	-34.9	-36.7	26.6	0.00e+00	0	37	0	0	41	4429
2026-01-23 21:03:15.82	187.39	24.57	-34.8	-36.6	28.7	0.00e+00	0	37	0	0	41	4389
2026-01-23 21:03:16.81	186.87	24.54	-34.6	-36.5	28.8	0.00e+00	0	37	0	0	41	4305
2026-01-23 21:03:17.82	186.34	24.51	-34.7	-36.6	28.8	0.00e+00	0	37	0	0	41	4352
2026-01-23 21:03:18.82	185.81	24.48	-34.7	-36.6	28.7	0.00e+00	0	37	0	0	41	4342
2026-01-23 21:03:19.81	185.29	24.45	-34.8	-36.7	28.6	0.00e+00	0	37	0	0	41	4404
2026-01-23 21:03:20.82	184.76	24.41	-34.9	-36.8	28.6	0.00e+00	0	37	0	0	41	4473
2026-01-23 21:03:21.82	184.23	24.38	-35.3	-37.1	28.3	0.00e+00	0	37	0	0	41	4649
2026-01-23 21:03:22.82	183.71	24.34	-35.6	-37.5	28.1	0.00e+00	0	37	0	0	41	4828
2026-01-23 21:03:23.82	183.19	24.29	-35.7	-37.6	27.9	0.00e+00	0	37	0	0	42	4635
2026-01-23 21:03:24.82	182.67	24.25	-35.6	-37.5	28.0	0.00e+00	0	37	0	0	42	4581
2026-01-23 21:03:25.82	182.15	24.20	-35.4	-37.3	28.1	0.00e+00	0	37	0	0	42	4470
2026-01-23 21:03:26.82	181.63	24.16	-35.2	-37.1	28.4	0.00e+00	0	37	0	0	42	4349
2026-01-23 21:03:27.82	181.12	24.11	-34.9	-36.8	28.6	0.00e+00	0	37	0	0	41	4467
2026-01-23 21:03:28.82	180.61	24.05	-35.1	-37.0	28.4	0.00e+00	0	37	0	0	41	4572
2026-01-23 21:03:29.83	180.09	24.00	-35.5	-37.4	28.1	0.00e+00	0	37	0	0	41	4783
2026-01-23 21:03:30.83	179.59	23.94	-35.4	-37.3	28.2	0.00e+00	0	37	0	0	41	4740
2026-01-23 21:03:31.83	179.08	23.88	-35.4	-37.3	28.1	0.00e+00	0	37	0	0	41	4729
2026-01-23 21:03:32.83	178.58	23.82	-35.2	-37.1	28.3	0.00e+00	0	37	0	0	41	4644
2026-01-23 21:03:33.83	178.08	23.76	-35.1	-37.0	28.4	0.00e+00	0	37	0	0	41	4587
2026-01-23 21:03:34.83	177.58	23.70	-35.0	-36.9	28.4	0.00e+00	0	37	0	0	41	4525
2026-01-23 21:03:35.84	177.08	23.63	-35.0	-36.9	28.5	0.00e+00	0	37	0	0	41	4525
2026-01-23 21:03:36.84	176.58	23.56	-34.8	-36.7	28.6	0.00e+00	0	37	0	0	41	4440
2026-01-23 21:03:37.84	176.09	23.49	-34.7	-36.6	28.0	0.00e+00	0	37	0	0	41	4344
2026-01-23 21:03:38.84	175.60	23.42	-34.9	-36.8	28.6	0.00e+00	0	37	0	0	41	4446
2026-01-23 21:03:39.85	175.11	23.35	-34.9	-36.8	28.6	0.00e+00	0	37	0	0	41	4468
2026-01-23 21:03:40.85	174.63	23.28	-34.9	-36.8	28.6	0.00e+00	0	37	0	0	41	4445
2026-01-23 21:03:41.85	174.15	23.20	-34.8	-36.7	28.7	0.00e+00	0	37	0	0	41	4424
2026-01-23 21:03:42.86	173.66	23.12	-34.6	-36.5	28.9	0.00e+00	0	37	0	0	41	4297
2026-01-23 21:03:43.86	173.19	23.04	-34.6	-36.5	28.8	0.00e+00	0	37	0	0	41	4316
2026-01-23 21:03:44.86	172.72	22.96	-34.7	-36.6	28.8	0.00e+00	0	37	0	0	41	4360
2026-01-23 21:03:45.86	172.25	22.88	-34.9	-36.9	28.5	0.00e+00	0	37	0	0	41	4497
2026-01-23 21:03:46.86	171.78	22.80	-34.8	-36.6	28.7	0.00e+00	0	37	0	0	41	4391
2026-01-23 21:03:47.86	171.32	22.71	-34.9	-36.8	28.6	0.00e+00	0	37	0	0	41	4466
2026-01-23 21:03:48.86	170.86	22.63	-34.9	-36.8	28.6	0.00e+00	0	37	0	0	40	4730
2026-01-23 21:03:49.86	170.40	22.54	-34.8	-36.6	28.7	0.00e+00	0	37	0	0	40	4648
2026-01-23 21:03:50.86	169.94	22.45	-35.0	-36.9	28.4	0.00e+00	0	37	0	0	40	4773
2026-01-23 21:03:51.86	169.49	22.36	-35.0	-36.9	28.5	0.00e+00	0	37	0	0	40	4786
2026-01-23 21:03:52.87	169.04	22.27	-35.1	-37.0	28.4	0.00e+00	0	37	0	0	40	4828
2026-01-23 21:03:53.87	168.59	22.18	-35.4	-37.3	28.2	0.00e+00	0	37	0	0	41	4723
2026-01-23 21:03:54.87	168.15	22.08	-35.6	-37.6	28.0	0.00e+00	0	37	0	0	41	4883
2026-01-23 21:03:55.87	167.71	21.99	-35.8	-37.8	27.8	0.00e+00	0	37	0	0	42	4712
2026-01-23 21:03:56.87	167.28	21.89	-35.5	-37.5	28.0	0.00e+00	0	37	0	0	42	4552
2026-01-23 21:03:57.87	166.85	21.80	-35.2	-37.1	28.3	0.00e+00	0	37	0	0	42	4355
2026-01-23 21:03:58.87	166.42	21.70	-35.2	-37.1	28.3	0.00e+00	0	37	0	0	42	4357
2026-01-23 21:03:59.87	165.99	21.60	-34.9	-36.8	28.3	0.00e+00	0	37	0	0	41	4474
2026-01-23 21:04:00.87	165.57	21.50	-34.9	-36.8	24.2	0.00e+00	0	37	0	0	41	4479
2026-01-23 21:04:01.87	165.15	21.40	-35.5	-37.4	28.1	0.00e+00	0	37	0	0	41	4798
2026-01-23 21:04:02.88	164.73	21.30	-35.9	-37.8	27.8	0.00e+00	0	37	0	0	42	4734
2026-01-23 21:04:03.88	164.31	21.20	-36.3	-38.2	27.4	0.00e+00	0	37	0	0	43	4694
2026-01-23 21:04:04.88	163.90	21.09	-36.3	-38.3	27.4	0.00e+00	0	37	0	0	43	4708
2026-01-23 21:04:05.88	163.50	20.99	-36.0	-37.9	27.5	0.00e+00	0	37	0	0	43	4545
2026-01-23 21:04:06.89	163.09	20.89	-35.7	-37.6	27.9	0.00e+00	0	37	0	0	43	4377
2026-01-23 21:04:07.89	162.69	20.78	-35.6	-37.5	28.0	0.00e+00	0	37	0	0	43	4332
2026-01-23 21:04:08.89	162.29	20.68	-35.6	-37.5	28.0	0.00e+00	0	37	0	0	43	4339
2026-01-23 21:04:09.89	161.90	20.57	-35.7	-37.7	27.9	0.00e+00	0	37	0	0	43	4411
2026-01-23 21:04:10.89	161.51	20.46	-35.8	-37.7	27.8	0.00e+00	0	37	0	0	43	4437
2026-01-23 21:04:11.89	161.12	20.36	-35.9	-37.9	27.7	0.00e+00	0	37	0	0	43	4496
2026-01-23 21:04:12.89	160.74	20.25	-36.0	-38.0	27.6	0.00e+00	0	37	0	0	43	4558
2026-01-23 21:04:13.90	160.36	20.14	-36.1	-38.1	27.5	0.00e+00	0	37	0	0	43	4607
2026-01-23 21:04:14.90	159.98	20.03	-36.3	-38.3	27.3	0.00e+00	0	37	0	0	43	4738
2026-01-23 21:04:15.90	159.61	19.92	-36.3	-38.3	27.3	0.00e+00	0	37	0	0	43	4719
2026-01-23 21:04:16.90	159.23	19.81	-36.2	-38.1	27.4	0.00e+00	0	37	0	0	43	4650
2026-01-23 21:04:17.90	158.87	19.70	-36.0	-38.0	27.5	0.00e+00	0	37	0	0	43	4566
2026-01-23 21:04:18.90	158.50	19.59	-36.0	-37.9	27.5	0.00e+00	0	37	0	0	43	4544
2026-01-23 21:04:19.90	158.14	19.48	-36.0	-38.0	27.5	0.00e+00	0	37	0	0	43	4551
2026-01-23 21:04:20.90	157.78	19.37	-35.9	-37.9	27.6	0.00e+00	0	37	0	0	43	4519
2026-01-23 21:04:21.90	157.43	19.26	-36.2	-38.1	27.3	0.00e+00	0	37	0	0	43	4651
2026-01-23 21:04:22.90	157.08	19.15	-36.3	-38.3	27.1	0.00e+00	0	37	0	0	43	4722
2026-01-23 21:04:23.90	156.73	19.04	-36.2	-38.2	27.1	0.00e+00	0	37	0	0	43	4654
2026-01-23 21:04:24.91	156.38	18.92	-35.9	-37.8	27.5	0.00e+00	0	37	0	0	43	4470
2026-01-23 21:04:25.91	156.04	18.81	-35.8	-37.8	27.5	0.00e+00	0	37	0	0	43	4445
2026-01-23 21:04:26.91	155.70	18.70	-35.8	-37.8	27.6	0.00e+00	0	37	0	0	43	4458
2026-01-23 21:04:27.91	155.36	18.59	-36.0	-37.9	27.4	0.00e+00	0	37	0	0	43	4539
2026-01-23 21:04:28.91	155.03	18.47	-36.1	-38.1	27.3	0.00e+00	0	37	0	0	43	4615
2026-01-23 21:04:29.92	154.70	18.36	-36.0	-38.0	27.4	0.00e+00	0	37	0	0	43	4575
2026-01-23 21:04:30.92	154.37	18.25	-36.0	-38.0	27.4	0.00e+00	0	37	0	0	43	4549
2026-01-23 21:04:31.92	154.05	18.14	-35.9	-37.8	27.5	0.00e+00	0	37	0	0	43	4492
2026-01-23 21:04:32.92	153.72	18.02	-35.9	-37.8	27.5	0.00e+00	0	37	0	0	43	4478
2026-01-23 21:04:33.92	153.41	17.91	-35.9	-37.9	27.5	0.00e+00	0	37	0	0	43	4516
2026-01-23 21:04:34.92	153.09	17.80	-36.2	-38.2	27.2	0.00e+00	0	37	0	0	43	4688
2026-01-23 21:04:35.93	152.78	17.68	-36.3	-38.3	27.1	0.00e+00	0	37	0	0	43	4723
2026-01-23 21:04:36.93	152.47	17.57	-36.3	-38.3	27.1	0.00e+00	0	37	0	0	43	4728
2026-01-23 21:04:37.93	152.16	17.46	-36.3	-38.3	27.1	0.00e+00	0	37	0	0	43	4736
2026-01-23 21:04:38.93	151.86	17.34	-36.3	-38.3	27.1	0.00e+00	0	37	0	0	43	4738
2026-01-23 21:04:39.93	151.56	17.23	-36.5	-38.5	27.0	0.00e+00	0	37	0	0	43	4825
2026-01-23 21:04:40.93	151.26	17.12	-36.5	-38.5	27.0	0.00e+00	0	37	0	0	43	4836
2026-01-23 21:04:41.93	150.96	17.01	-36.5	-38.5	26.9	0.00e+00	0	37	0	0	43	4856
2026-01-23 21:04:42.94	150.67	16.89	-36.2	-38.2	27.2	0.00e+00	0	37	0	0	43	4693
2026-01-23 21:04:43.94	150.38	16.78	-36.3	-38.3	27.2	0.00e+00	0	37	0	0	43	4724
2026-01-23 21:04:44.94	150.09	16.67	-36.4	-38.4	27.1	0.00e+00	0	37	0	0	43	4781
2026-01-23 21:04:45.94	149.81	16.56	-36.5	-38.4	26.9	0.00e+00	0	37	0	0	43	4807
2026-01-23 21:04:46.94	149.52	16.44	-36.9	-38.9	26.8	0.00e+00	0	37	0	0	44	4786
2026-01-23 21:04:47.95	149.24	16.33	-37.0	-39.1	26.6	0.00e+00	0	37	0	0	44	4876
2026-01-23 21:04:48.95	148.97	16.22	-37.3	-39.3	26.4	0.00e+00	0	37	0	0	45	4737
2026-01-23 21:04:49.95	148.69	16.11	-37.3	-39.3	26.4	0.00e+00	0	37	0	0	45	4728
2026-01-23 21:04:50.95	148.42	16.00	-37.3	-39.3	26.4	0.00e+00	0	37	0	0	45	4744
2026-01-23 21:04:51.95	148.15	15.89	-37.2	-39.3	26.5	0.00e+00	0	37	0	0	45	4717
2026-01-23 21:04:52.95	147.89	15.78	-37.3	-39.3	26.5	0.00e+00	0	37	0	0	45	4743
2026-01-23 21:04:53.95	147.62	15.67	-37.4	-39.5	26.3	0.00e+00	0	37	0	0	45	4828
2026-01-23 21:04:54.95	147.36	15.56	-37.5	-39.6	26.2	0.00e+00	0	37	0	0	45	4892
2026-01-23 21:04:55.95	147.10	15.44	-37.6	-39.7	26.2	0.00e+00	0	37	0	0	45	4942
2026-01-23 21:04:56.95	146.84	15.33	-37.4	-39.5	26.3	0.00e+00	0	37	0	0	45	4850
2026-01-23 21:04:57.95	146.59	15.23	-37.3	-39.4	26.4	0.00e+00	0	37	0	0	45	4778
2026-01-23 21:04:58.95	146.34	15.12	-37.5	-39.5	26.3	0.00e+00	0	37	0	0	45	4864
2026-01-23 21:04:59.95	146.09	15.01	-37.6	-39.6	26.2	0.00e+00	0	37	0	0	45	4914
2026-01-23 21:05:00.95	145.84	14.90	-37.8	-39.9	26.0	0.00e+00	0	37	0	0	46	4777
2026-01-23 21:05:01.95	145.60	14.79	-37.9	-40.0	26.0	0.00e+00	0	37	0	0	46	4839
2026-01-23 21:05:02.95	145.36	14.68	-37.9	-40.1	25.9	0.00e+00	0	37	0	0	46	4871
2026-01-23 21:05:03.95	145.12	14.57	-38.0	-40.1	25.8	0.00e+00	0	37	0	0	46	4919
2026-01-23 21:05:04.95	144.88	14.47	-38.1	-40.2	25.7	0.00e+00	0	37	0	0	46	4977
2026-01-23 21:05:05.95	144.64	14.36	-38.0	-40.2	25.8	0.00e+00	0	37	0	0	46	4929
2026-01-23 21:05:06.95	144.41	14.25	-38.0	-40.0	25.9	0.00e+00	0	37	0	0	46	4865
2026-01-23 21:05:07.95	144.18	14.14	-38.1	-40.2	25.7	0.00e+00	0	37	0	0	46	4959
2026-01-23 21:05:08.96	143.95	14.04	-38.1	-40.3	25.7	0.00e+00	0	37	0	0	46	4989
2026-01-23 21:05:09.96	143.72	13.93	-38.2	-40.3	25.7	0.00e+00	0	37	0	0	46	5014
2026-01-23 21:05:10.96	143.49	13.82	-38.3	-40.5	25.5	0.00e+00	0	37	0	0	47	4841
2026-01-23 21:05:11.96	143.27	13.72	-38.3	-40.5	25.5	0.00e+00	0	37	0	0	47	4819
2026-01-23 21:05:12.97	143.05	13.61	-38.3	-40.4	25.5	0.00e+00	0	37	0	0	47	4811
2026-01-23 21:05:13.97	142.83	13.51	-38.3	-40.4	25.6	0.00e+00	0	37	0	0	47	4810
2026-01-23 21:05:14.97	142.61	13.40	-38.4	-40.6	25.4	0.00e+00	0	37	0	0	47	4882
2026-01-23 21:05:15.98	142.39	13.30	-38.4	-40.6	25.4	0.00e+00	0	37	0	0	47	4900
2026-01-23 21:05:16.98	142.18	13.19	-38.5	-40.6	25.3	0.00e+00	0	37	0	0	47	4917
2026-01-23 21:05:17.98	141.97	13.09	-38.4	-40.6	25.4	0.00e+00	0	37	0	0	47	4887
2026-01-23 21:05:18.97	141.76	12.99	-38.5	-40.6	25.4	0.00e+00	0	37	0	0	47	4917
2026-01-23 21:05:19.97	141.56	12.89	-38.4	-40.6	25.5	0.00e+00	0	37	0	0	47	4882
2026-01-23 21:05:20.97	141.35	12.78	-38.4	-40.6	25.5	0.00e+00	0	37	0	0	47	4876
2026-01-23 21:05:21.97	141.15	12.68	-38.5	-40.7	25.3	0.00e+00	0	37	0	0	47	4953
2026-01-23 21:05:22.98	140.94	12.58	-38.6	-40.8	25.2	0.00e+00	0	37	0	0	47	5015
2026-01-23 21:05:23.98	140.74	12.48	-38.9	-41.0	25.1	0.00e+00	0	37	0	0	48	4847
2026-01-23 21:05:24.98	140.55	12.38	-39.0	-41.1	25.0	0.00e+00	0	37	0	0	48	4918
2026-01-23 21:05:25.98	140.35	12.27	-39.0	-41.2	24.9	0.00e+00	0	37	0	0	48	4970
2026-01-23 21:05:26.98	140.16	12.17	-39.2	-41.4	24.7	0.00e+00	0	37	0	0	49	4795
2026-01-23 21:05:27.98	139.96	12.07	-39.3	-41.5	24.7	0.00e+00	0	37	0	0	49	4818
2026-01-23 21:05:28.98	139.77	11.97	-39.3	-41.5	24.7	0.00e+00	0	37	0	0	49	4816
2026-01-23 21:05:29.98	139.58	11.88	-39.3	-41.5	24.7	0.00e+00	0	37	0	0	49	4830
2026-01-23 21:05:30.98	139.40	11.78	-39.3	-41.5	24.7	0.00e+00	0	37	0	0	49	4870
2026-01-23 21:05:31.98	139.21	11.68	-39.3	-41.5	24.7	0.00e+00	0	37	0	0	49	4842
2026-01-23 21:05:32.98	139.03	11.58	-39.5	-41.7	24.6	0.00e+00	0	37	0	0	49	4945
2026-01-23 21:05:33.99	138.84	11.48	-39.7	-41.9	24.3	0.00e+00	0	37	0	0	49	5086
2026-01-23 21:05:34.98	138.66	11.38	-39.8	-42.0	24.2	0.00e+00	0	37	0	0	50	4855
2026-01-23 21:05:35.99	138.48	11.29	-39.8	-42.0	24.2	0.00e+00	0	37	0	0	50	4852
2026-01-23 21:05:36.99	138.31	11.19	-39.8	-42.0	24.2	0.00e+00	0	37	0	0	50	4849
2026-01-23 21:05:37.99	138.13	11.09	-39.7	-42.0	24.3	0.00e+00	0	37	0	0	50	4816
2026-01-23 21:05:38.99	137.95	11.00	-39.8	-42.0	24.3	0.00e+00	0	37	0	0	50	4853
2026-01-23 21:05:39.99	137.78	10.90	-39.9	-42.2	24.1	0.00e+00	0	37	0	0	50	4927
2026-01-23 21:05:40.99	137.61	10.81	-39.9	-42.2	24.1	0.00e+00	0	37	0	0	50	4955
2026-01-23 21:05:41.99	137.44	10.71	-40.0	-42.3	24.0	0.00e+00	0	37	0	0	50	4992
2026-01-23 21:05:42.99	137.27	10.62	-40.0	-42.4	23.9	0.00e+00	0	37	0	0	50	5048
2026-01-23 21:05:43.99	137.10	10.52	-40.0	-42.3	24.0	0.00e+00	0	37	0	0	50	4985
2026-01-23 21:05:44.99	136.94	10.43	-39.9	-42.2	24.0	0.00e+00	0	37	0	0	50	4979
2026-01-23 21:05:45.99	136.77	10.33	-39.8	-42.1	24.2	0.00e+00	0	37	0	0	50	4901
2026-01-23 21:05:46.99	136.61	10.24	-39.8	-42.1	24.1	0.00e+00	0	37	0	0	50	4902
2026-01-23 21:05:47.99	136.45	10.15	-40.0	-42.3	23.9	0.00e+00	0	37	0	0	50	5009
2026-01-23 21:05:48.99	136.29	10.06	-39.9	-42.2	24.1	0.00e+00	0	37	0	0	50	4951
2026-01-23 21:05:49.99	136.13	9.96	-40.2	-42.7	23.7	0.00e+00	0	37	0	0	51	4955
2026-01-23 21:05:50.99	135.98	9.87	-40.3	-42.6	23.6	0.00e+00	0	37	0	0	51	4924
2026-01-23 21:05:51.99	135.82	9.78	-40.4	-42.8	23.5	0.00e+00	0	37	0	0	51	5010
2026-01-23 21:05:52.99	135.66	9.69	-40.5	-42.9	23.2	0.00e+00	0	37	0	0	51	5042
2026-01-23 21:05:53.99	135.51	9.60	-40.5	-42.9	23.4	0.00e+00	0	37	0	0	51	5045
2026-01-23 21:05:55.00	135.36	9.51	-40.4	-42.8	23.5	0.00e+00	0	37	0	0	51	5014
2026-01-23 21:05:56.00	135.21	9.42	-40.5	-42.9	23.3	0.00e+00	0	37	0	0	51	5099
2026-01-23 21:05:57.00	135.06	9.33	-40.4	-42.8	23.5	0.00e+00	0	37	0	0	51	4999
2026-01-23 21:05:58.00	134.91	9.24	-40.5	-42.8	23.4	0.00e+00	0	37	0	0	51	5038
2026-01-23 21:05:59.00	134.76	9.15	-40.4	-42.7	23.4	0.00e+00	0	37	0	0	51	4983
2026-01-23 21:06:00.00	134.62	9.06	-40.5	-42.8	23.4	0.00e+00	0	37	0	0	51	5041
2026-01-23 21:06:01.00	134.47	8.97	-48.4	-61.0	7.2	3.78e-04	0	37	0	0	67	16174
2026-01-23 21:06:01.99	134.33	8.89	-48.9	-67.4	3.7	3.78e-04	0	37	104	0	68	31942
2026-01-23 21:06:02.99	134.19	8.80	-49.1	-67.7	3.8	8.10e-01	0	37	104	0	68	33142
2026-01-23 21:06:03.98	134.05	8.71	-49.2	-68.0	3.8	8.47e-01	0	37	104	0	69	32494
2026-01-23 21:06:04.98	133.91	8.62	-49.2	-68.1	3.8	8.47e-01	0	37	104	0	69	32710
2026-01-23 21:06:05.97	133.77	8.54	-49.4	-68.1	3.8	8.47e-01	0	37	104	0	69	32747
2026-01-23 21:06:06.97	133.64	8.45	-49.1	-68.2	3.8	8.46e-01	0	37	104	0	69	33008
2026-01-23 21:06:07.96	133.50	8.37	-49.4	-68.2	3.8	8.46e-01	0	37	104	0	69	33134
2026-01-23 21:06:08.96	133.36	8.28	-49.4	-68.2	3.8	8.47e-01	0	37	104	0	69	33143
2026-01-23 21:06:09.96	133.23	8.20	-49.5	-68.2	3.8	8.46e-01	0	37	104	0	69	33175
2026-01-23 21:06:10.95	133.10	8.11	-49.5	-68.3	3.8	8.46e-01	0	37	104	0	69	33337
2026-01-23 21:06:11.95	132.97	8.03	-49.5	-68.3	3.8	8.46e-01	0	37	104	0	69	33346
2026-01-23 21:06:12.94	132.84	7.94	-49.3	-68.3	3.8	8.46e-01	0	37	104	0	69	33402
2026-01-23 21:06:13.93	132.71	7.86	-49.5	-68.3	3.8	8.46e-01	0	37	104	0	69	33459
2026-01-23 21:06:14.93	132.58	7.78	-49.3	-68.3	3.8	8.46e-01	0	37	104	0	69	33556
2026-01-23 21:06:15.93	132.45	7.69	-49.4	-68.3	3.8	8.46e-01	0	37	104	0	69	33496
2026-01-23 21:06:16.92	132.33	7.61	-49.3	-68.3	3.8	8.46e-01	0	37	104	0	69	33460
2026-01-23 21:06:17.92	132.20	7.53	-49.2	-68.3	3.8	8.48e-01	0	38	104	0	69	33529
2026-01-23 21:06:18.92	132.08	7.45	-49.2	-68.3	3.8	8.47e-01	0	37	104	0	69	33486
2026-01-23 21:06:19.91	131.95	7.36	-49.3	-68.3	3.8	8.45e-01	0	37	104	0	69	33593
2026-01-23 21:06:20.91	131.83	7.28	-49.4	-68.3	3.8	8.45e-01	0	37	104	0	69	33439
2026-01-23 21:06:21.91	131.71	7.20	-49.3	-68.3	3.8	8.48e-01	0	37	104	0	69	33469
2026-01-23 21:06:22.90	131.59	7.12	-49.3	-68.3	3.8	8.48e-01	0	37	104	0	69	33378
2026-01-23 21:06:23.90	131.47	7.04	-49.3	-68.3	3.8	8.48e-01	0	37	104	0	69	33373
2026-01-23 21:06:24.90	131.35	6.96	-49.3	-68.3	3.8	8.47e-01	0	38	104	0	69	33316
2026-01-23 21:06:25.90	131.23	6.88	-49.3	-68.3	3.8	8.48e-01	0	37	104	0	69	33375
2026-01-23 21:06:26.89	131.12	6.80	-49.3	-68.2	3.8	8.48e-01	0	37	104	0	69	33282
2026-01-23 21:06:27.89	131.00	6.72	-49.3	-68.3	3.8	8.48e-01	0	38	104	0	69	33331
2026-01-23 21:06:28.89	130.88	6.64	-49.3	-68.3	3.8	8.47e-01	0	37	104	0	69	33413
2026-01-23 21:06:29.89	130.77	6.56	-49.3	-68.2	3.8	8.47e-01	0	37	104	0	69	33234
2026-01-23 21:06:30.88	130.66	6.48	-49.3	-68.2	3.8	8.47e-01	0	38	104	0	69	33260
2026-01-23 21:06:31.88	130.54	6.40	-49.3	-68.3	3.8	8.46e-01	0	38	104	0	69	33332
2026-01-23 21:06:32.87	130.43	6.33	-49.3	-68.3	3.8	8.46e-01	0	38	104	0	69	33355
2026-01-23 21:06:33.87	130.32	6.25	-49.3	-68.2	3.8	8.46e-01	0	37	104	0	69	33246
2026-01-23 21:06:34.87	130.21	6.17	-49.3	-68.2	3.8	8.47e-01	0	37	104	0	69	33283
2026-01-23 21:06:35.86	130.10	6.09	-49.3	-68.2	3.8	8.47e-01	0	37	104	0	69	33265
2026-01-23 21:06:36.86	130.00	6.02	-49.3	-68.2	3.8	8.46e-01	0	37	104	0	69	33264
2026-01-23 21:06:37.86	129.89	5.94	-49.3	-68.2	3.8	8.47e-01	0	37	104	0	69	33253
2026-01-23 21:06:38.85	129.78	5.86	-49.3	-68.2	3.8	8.46e-01	0	37	104	0	69	33233
2026-01-23 21:06:39.85	129.68	5.79	-49.3	-68.2	3.8	8.46e-01	0	37	104	0	69	33221
2026-01-23 21:06:40.84	129.57	5.71	-49.3	-68.2	3.8	8.47e-01	0	38	104	0	69	33231
2026-01-23 21:06:41.84	129.47	5.64	-49.3	-68.2	3.8	8.48e-01	0	37	104	0	69	33229
2026-01-23 21:06:42.84	129.36	5.56	-49.3	-68.2	3.8	8.48e-01	0	37	104	0	69	33288
2026-01-23 21:06:43.83	129.26	5.49	-49.3	-68.2	3.8	8.47e-01	0	37	104	0	69	33261
2026-01-23 21:06:44.83	129.16	5.41	-49.3	-68.2	3.8	8.48e-01	0	38	104	0	69	33178
2026-01-23 21:06:45.83	129.06	5.34	-49.3	-68.2	3.8	8.48e-01	0	37	104	0	69	33129
2026-01-23 21:06:46.83	128.96	5.26	-49.3	-68.2	3.8	8.46e-01	0	38	104	0	69	33121
2026-01-23 21:06:47.82	128.86	5.19	-49.3	-68.2	3.8	8.48e-01	0	37	104	0	69	33189
2026-01-23 21:06:48.82	128.76	5.11	-49.3	-68.2	3.8	8.48e-01	0	37	104	0	69	33142
2026-01-23 21:06:49.81	128.66	5.04	-49.3	-68.2	3.8	8.47e-01	0	38	104	0	69	33193
2026-01-23 21:06:50.81	128.56	4.97	-49.3	-68.2	3.8	8.47e-01	0	37	104	0	69	33221

#Closed at: 2026-01-23 21:06:51
#Recorded file [0 MB]: D:/Data/31040_260123_235921.dat