passes_logs/2026/01/23/T1/T1__20260123_222636_SUOMI_NPP_rec.log

#Pass ID: 20260123_222636_SUOMI NPP
#Satellite: SUOMI NPP
#Configuration: NPP
#almurnet v.1.7.20251203
#Start time: 2026-01-23 22:26:36

#Version: 2.0.20230620
#Station: T1
#Location: 37.570604 lon 55.790049 lat
#TLE: 1 37849U 11061A   26022.92790088  .00000200  00000+0  11571-3 0  9994
#TLE: 2 37849  98.7820 324.9085 0002258  50.1112 310.0263 14.19528452737839

#Time	Az	El	Level	Level2	SNR	BER	BlckErr	Temp	State	Recorded	gain1	gain2
2026-01-23 22:26:36.71	27.51	5.03	-48.4	-64.1	3.8	1.49e+00	0	38	0	0	68	21821
2026-01-23 22:26:37.70	27.59	5.09	-48.2	-63.9	3.8	1.49e+00	0	38	104	0	67	22588
2026-01-23 22:26:38.70	27.67	5.15	-48.1	-63.9	3.8	1.49e+00	0	38	104	0	67	22611
2026-01-23 22:26:39.69	27.74	5.21	-48.2	-63.9	3.8	1.49e+00	0	38	104	0	67	22536
2026-01-23 22:26:40.68	27.82	5.27	-48.2	-63.9	3.8	1.49e+00	0	38	104	0	67	22602
2026-01-23 22:26:41.68	27.90	5.34	-48.2	-63.8	3.8	1.49e+00	0	38	104	0	67	22510
2026-01-23 22:26:42.67	27.98	5.40	-48.2	-63.8	3.8	1.49e+00	0	38	104	0	67	22376
2026-01-23 22:26:43.66	28.06	5.46	-48.2	-63.8	3.8	1.49e+00	0	38	104	0	67	22429
2026-01-23 22:26:44.66	28.14	5.52	-48.2	-63.8	3.8	1.49e+00	0	38	104	0	67	22492
2026-01-23 22:26:45.65	28.21	5.58	-48.2	-63.8	3.8	1.49e+00	0	38	104	0	67	22456
2026-01-23 22:26:46.64	28.29	5.64	-48.2	-63.8	3.8	1.49e+00	0	38	104	0	67	22402
2026-01-23 22:26:47.64	28.37	5.71	-48.2	-63.8	3.8	1.49e+00	0	38	104	0	67	22316
2026-01-23 22:26:48.63	28.45	5.77	-48.0	-63.8	3.8	1.49e+00	0	38	104	0	67	22275
2026-01-23 22:26:49.62	28.53	5.83	-48.2	-63.8	3.8	1.49e+00	0	38	104	0	67	22299
2026-01-23 22:26:50.62	28.61	5.89	-48.1	-63.8	3.8	1.49e+00	0	39	104	0	67	22304
2026-01-23 22:26:51.61	28.70	5.95	-48.2	-63.7	3.8	1.49e+00	0	39	104	0	67	22195
2026-01-23 22:26:52.60	28.78	6.02	-48.2	-63.7	3.8	1.49e+00	0	39	104	0	67	22199
2026-01-23 22:26:53.60	28.86	6.08	-48.1	-63.7	3.8	1.49e+00	0	39	104	0	67	22183
2026-01-23 22:26:54.59	28.94	6.14	-48.1	-63.8	3.8	1.49e+00	0	39	104	0	67	22269
2026-01-23 22:26:55.58	29.02	6.20	-48.2	-63.8	3.8	1.49e+00	0	39	104	0	67	22326
2026-01-23 22:26:56.58	29.11	6.27	-48.1	-63.8	3.8	1.49e+00	0	39	104	0	67	22281
2026-01-23 22:26:57.57	29.19	6.33	-48.1	-63.8	3.8	1.49e+00	0	39	104	0	67	22384
2026-01-23 22:26:58.56	29.27	6.39	-48.1	-63.8	3.8	1.49e+00	0	39	104	0	67	22411
2026-01-23 22:26:59.56	29.35	6.46	-48.1	-63.8	3.8	1.49e+00	0	39	104	0	67	22347
2026-01-23 22:27:00.55	29.44	6.52	-48.1	-63.8	3.8	1.49e+00	0	39	104	0	67	22460
2026-01-23 22:27:01.55	29.52	6.58	-48.1	-63.8	3.8	1.49e+00	0	39	104	0	67	22365
2026-01-23 22:27:02.54	29.61	6.65	-48.1	-63.8	3.8	1.49e+00	0	39	104	0	67	22464
2026-01-23 22:27:03.53	29.69	6.71	-48.1	-63.8	3.8	1.49e+00	0	39	104	0	67	22364
2026-01-23 22:27:04.53	29.78	6.77	-48.1	-63.8	3.8	1.49e+00	0	39	104	0	67	22308
2026-01-23 22:27:05.52	29.86	6.84	-48.1	-63.7	3.8	1.49e+00	0	39	104	0	67	22258
2026-01-23 22:27:06.51	29.95	6.90	-48.0	-63.7	3.8	1.49e+00	0	39	104	0	67	22171
2026-01-23 22:27:07.51	30.04	6.97	-48.1	-63.7	3.8	1.49e+00	0	39	104	0	67	22227
2026-01-23 22:27:08.50	30.12	7.03	-48.1	-63.7	3.8	1.49e+00	0	39	104	0	67	22213
2026-01-23 22:27:09.49	30.21	7.09	-48.1	-63.7	3.8	1.49e+00	0	39	104	0	67	22212
2026-01-23 22:27:10.48	30.30	7.16	-48.1	-63.7	3.8	1.49e+00	0	39	104	0	67	22226
2026-01-23 22:27:11.47	30.39	7.22	-48.1	-63.7	3.8	1.49e+00	0	39	104	0	67	22156
2026-01-23 22:27:12.47	30.47	7.29	-48.1	-63.6	3.8	1.49e+00	0	39	104	0	67	21950
2026-01-23 22:27:13.46	30.56	7.35	-48.1	-63.6	3.8	1.49e+00	0	39	104	0	67	21818
2026-01-23 22:27:14.46	30.65	7.42	-48.1	-63.5	3.8	1.49e+00	0	39	104	0	67	21603
2026-01-23 22:27:15.45	30.74	7.48	-48.1	-63.5	3.8	1.49e+00	0	40	104	0	67	21532
2026-01-23 22:27:16.44	30.83	7.55	-48.1	-63.5	3.8	1.49e+00	0	39	104	0	67	21610
2026-01-23 22:27:17.43	30.92	7.61	-48.1	-63.6	3.8	1.49e+00	0	39	104	0	67	21769
2026-01-23 22:27:18.43	31.01	7.68	-48.1	-63.7	3.8	1.49e+00	0	39	104	0	67	22087
2026-01-23 22:27:19.42	31.10	7.74	-48.1	-63.7	3.8	1.49e+00	0	39	104	0	67	22239
2026-01-23 22:27:20.42	31.19	7.81	-48.1	-63.8	3.8	1.49e+00	0	39	104	0	67	22397
2026-01-23 22:27:21.41	31.29	7.87	-48.1	-63.8	3.8	1.49e+00	0	40	104	0	67	22298
2026-01-23 22:27:22.40	31.38	7.94	-48.1	-63.8	3.8	1.49e+00	0	39	104	0	67	22322
2026-01-23 22:27:23.40	31.47	8.00	-48.1	-63.8	3.8	1.49e+00	0	39	104	0	67	22288
2026-01-23 22:27:24.39	31.56	8.07	-48.1	-63.7	3.8	1.49e+00	0	39	104	0	67	22164
2026-01-23 22:27:25.38	31.66	8.14	-48.1	-63.7	3.8	1.49e+00	0	40	104	0	67	22086
2026-01-23 22:27:26.38	31.75	8.20	-48.1	-63.6	3.8	1.49e+00	0	39	104	0	67	21993
2026-01-23 22:27:27.37	31.84	8.27	-48.1	-63.5	3.8	1.49e+00	0	40	104	0	67	21686
2026-01-23 22:27:28.36	31.94	8.33	-48.1	-63.5	3.8	1.49e+00	0	40	104	0	67	21521
2026-01-23 22:27:29.36	32.03	8.40	-48.1	-63.3	3.8	1.49e+00	0	40	104	0	67	21111
2026-01-23 22:27:30.35	32.13	8.47	-48.1	-63.1	3.8	1.49e+00	0	40	104	0	67	20761
2026-01-23 22:27:31.34	32.22	8.53	-48.1	-63.0	3.8	1.49e+00	0	40	104	0	67	20363
2026-01-23 22:27:32.34	32.32	8.60	-48.1	-62.7	3.8	1.49e+00	0	40	104	0	67	19628
2026-01-23 22:27:33.33	32.42	8.67	-48.0	-62.0	3.8	1.49e+00	0	40	104	0	67	18204
2026-01-23 22:27:34.32	32.51	8.73	-47.9	-60.7	4.1	1.49e+00	0	39	104	0	67	15724
2026-01-23 22:27:35.32	32.61	8.80	-47.8	-58.9	4.6	1.14e+00	0	40	0	0	67	12714
2026-01-23 22:27:36.31	32.71	8.87	-47.5	-56.8	5.9	5.34e-01	0	40	0	2097152	67	9960
2026-01-23 22:27:37.30	32.81	8.94	-47.1	-55.0	7.5	1.78e-01	0	40	0	4194304	66	8567
2026-01-23 22:27:38.29	32.91	9.00	-46.5	-52.9	9.5	4.49e-02	0	40	0	6291456	65	7127
2026-01-23 22:27:39.29	33.01	9.07	-46.0	-51.2	11.3	2.28e-03	0	40	0	7340032	64	6269
2026-01-23 22:27:40.28	33.10	9.14	-46.4	-52.2	10.4	2.73e-03	0	40	0	9437184	64	7011
2026-01-23 22:27:41.28	33.21	9.21	-47.4	-55.3	7.0	3.08e-01	0	40	0	11534336	66	8897
2026-01-23 22:27:42.28	33.31	9.28	-45.5	-49.8	13.1	9.90e-06	0	40	0	13631488	62	5950
2026-01-23 22:27:43.35	33.42	9.35	-46.7	-52.3	10.1	8.38e-02	0	40	0	15728640	65	6696
2026-01-23 22:27:44.25	33.51	9.41	-43.0	-45.9	16.7	0.00e+00	0	40	0	16777216	58	4786
2026-01-23 22:27:45.27	33.61	9.48	-42.9	-45.8	16.9	0.00e+00	0	40	0	18874368	57	4989
2026-01-23 22:27:46.44	33.73	9.56	-43.0	-45.9	16.7	0.00e+00	0	40	0	20971520	57	5050
2026-01-23 22:27:47.32	33.82	9.62	-43.1	-45.9	16.7	0.00e+00	0	40	0	23068672	57	5074
2026-01-23 22:27:48.64	33.96	9.71	-43.0	-45.8	16.8	0.00e+00	0	40	0	25165824	57	5009
2026-01-23 22:27:49.35	34.03	9.76	-43.0	-45.8	16.9	0.00e+00	0	40	0	26214400	57	4984
2026-01-23 22:27:50.63	34.17	9.85	-43.0	-45.7	16.9	0.00e+00	0	40	0	29360128	57	4974
2026-01-23 22:27:51.34	34.24	9.90	-42.9	-45.7	16.9	0.00e+00	0	40	0	30408704	57	4941
2026-01-23 22:27:52.62	34.38	9.99	-43.0	-45.7	16.9	6.94e-05	0	40	0	32505856	57	4981
2026-01-23 22:27:53.33	34.45	10.04	-42.8	-45.5	17.1	0.00e+00	0	40	0	34603008	57	4865
2026-01-23 22:27:54.61	34.59	10.13	-42.9	-45.6	17.0	0.00e+00	0	40	0	36700160	57	4923
2026-01-23 22:27:55.32	34.67	10.18	-42.9	-45.6	17.0	0.00e+00	0	40	0	37748736	57	4910
2026-01-23 22:27:56.60	34.81	10.27	-42.9	-45.7	16.9	0.00e+00	0	40	0	39845888	57	4950
2026-01-23 22:27:57.49	34.90	10.33	-43.0	-45.7	17.0	0.00e+00	0	40	0	41943040	57	4975
2026-01-23 22:27:58.62	35.03	10.41	-43.0	-45.8	16.9	0.00e+00	0	40	0	44040192	57	5002
2026-01-23 22:27:59.48	35.12	10.47	-43.1	-45.9	16.8	0.00e+00	0	40	0	46137344	57	5092
2026-01-23 22:28:00.62	35.24	10.55	-42.9	-45.7	17.0	0.00e+00	0	40	0	48234496	57	4947
2026-01-23 22:28:01.47	35.34	10.61	-42.9	-45.7	17.0	0.00e+00	0	40	0	49283072	57	4954
2026-01-23 22:28:02.61	35.47	10.69	-42.9	-45.6	17.0	0.00e+00	0	40	0	51380224	57	4921
2026-01-23 22:28:03.46	35.56	10.75	-42.9	-45.7	17.0	0.00e+00	0	40	0	53477376	57	4960
2026-01-23 22:28:04.60	35.69	10.83	-42.9	-45.7	17.0	0.00e+00	0	40	0	55574528	57	4946
2026-01-23 22:28:05.81	35.82	10.92	-42.8	-45.5	17.1	0.00e+00	0	40	0	57671680	57	4858
2026-01-23 22:28:06.67	35.92	10.98	-42.8	-45.6	17.1	0.00e+00	0	40	0	58720256	57	4883
2026-01-23 22:28:07.80	36.05	11.06	-42.9	-45.7	17.0	0.00e+00	0	40	0	60817408	57	4938
2026-01-23 22:28:08.65	36.15	11.12	-42.9	-45.7	17.0	0.00e+00	0	40	0	62914560	57	4941
2026-01-23 22:28:09.79	36.28	11.20	-43.0	-45.8	16.9	0.00e+00	0	40	0	65011712	57	4995
2026-01-23 22:28:10.64	36.37	11.26	-43.1	-46.0	16.7	0.00e+00	0	40	0	66060288	57	5120
2026-01-23 22:28:11.78	36.51	11.34	-43.1	-46.0	16.7	0.00e+00	0	40	0	69206016	57	5151
2026-01-23 22:28:12.63	36.61	11.40	-43.2	-46.1	16.7	0.00e+00	0	40	0	70254592	57	5168
2026-01-23 22:28:13.78	36.74	11.49	-43.3	-46.2	16.6	0.00e+00	0	40	0	72351744	57	5240
2026-01-23 22:28:14.63	36.84	11.55	-43.1	-46.0	16.7	0.00e+00	0	40	0	74448896	57	5134
2026-01-23 22:28:15.86	36.99	11.64	-43.1	-46.0	16.7	0.00e+00	0	40	0	76546048	57	5106
2026-01-23 22:28:16.71	37.09	11.70	-43.1	-45.9	16.8	0.00e+00	0	40	0	77594624	57	5090
2026-01-23 22:28:17.93	37.23	11.79	-43.2	-46.1	16.7	6.56e-05	0	40	0	80740352	57	5160
2026-01-23 22:28:18.78	37.33	11.85	-43.0	-45.7	17.0	0.00e+00	0	40	0	81788928	57	4951
2026-01-23 22:28:20.00	37.48	11.94	-43.2	-46.0	16.8	0.00e+00	0	40	0	83886080	57	5126
2026-01-23 22:28:20.85	37.58	12.00	-43.1	-45.9	16.9	0.00e+00	0	40	0	85983232	57	5060
2026-01-23 22:28:21.99	37.72	12.08	-43.1	-45.9	16.8	1.36e-04	0	40	0	88080384	57	5060
2026-01-23 22:28:22.84	37.82	12.14	-42.9	-45.6	17.1	0.00e+00	0	40	0	89128960	57	4903
2026-01-23 22:28:23.98	37.96	12.23	-42.8	-45.5	17.2	0.00e+00	0	40	0	91226112	57	4852
2026-01-23 22:28:24.83	38.07	12.29	-42.8	-45.4	17.3	0.00e+00	0	40	0	93323264	57	4806
2026-01-23 22:28:25.97	38.21	12.37	-42.6	-45.2	17.6	0.00e+00	0	40	0	95420416	57	4662
2026-01-23 22:28:26.82	38.32	12.43	-42.5	-45.1	17.6	0.00e+00	0	40	0	96468992	57	4611
2026-01-23 22:28:27.96	38.46	12.52	-42.4	-45.0	17.7	0.00e+00	0	41	0	98566144	56	4829
2026-01-23 22:28:28.81	38.57	12.58	-42.4	-45.0	17.7	0.00e+00	0	41	0	100663296	56	4822
2026-01-23 22:28:29.95	38.71	12.66	-42.2	-44.8	17.9	0.00e+00	0	40	0	102760448	56	4716
2026-01-23 22:28:30.80	38.82	12.73	-42.2	-44.7	18.0	0.00e+00	0	40	0	103809024	56	4666
2026-01-23 22:28:31.93	38.96	12.81	-42.0	-44.7	18.0	0.00e+00	0	40	0	106954752	56	4664
2026-01-23 22:28:32.79	39.07	12.87	-42.2	-44.7	18.0	0.00e+00	0	40	0	108003328	56	4671
2026-01-23 22:28:33.93	39.22	12.96	-42.1	-44.6	18.2	0.00e+00	0	40	0	110100480	56	4606
2026-01-23 22:28:34.78	39.33	13.02	-42.0	-44.5	18.2	0.00e+00	0	40	0	112197632	56	4551
2026-01-23 22:28:35.92	39.48	13.10	-41.8	-44.2	18.3	0.00e+00	0	40	0	114294784	55	4695
2026-01-23 22:28:36.77	39.59	13.17	-41.7	-44.2	18.4	1.25e-04	0	40	0	115343360	55	4660
2026-01-23 22:28:37.91	39.74	13.25	-41.8	-44.2	18.3	0.00e+00	0	41	0	117440512	55	4704
2026-01-23 22:28:38.76	39.85	13.32	-41.9	-44.3	18.2	0.00e+00	0	40	0	119537664	55	4734
2026-01-23 22:28:39.90	40.00	13.40	-41.7	-44.1	18.5	0.00e+00	0	40	0	121634816	55	4620
2026-01-23 22:28:40.75	40.11	13.46	-41.9	-44.4	18.2	0.00e+00	0	40	0	122683392	55	4766
2026-01-23 22:28:41.88	40.26	13.55	-41.7	-44.1	18.4	0.00e+00	0	40	0	124780544	55	4643
2026-01-23 22:28:42.74	40.38	13.61	-41.8	-44.3	18.3	0.00e+00	0	40	0	126877696	55	4708
2026-01-23 22:28:43.89	40.53	13.70	-41.9	-44.3	18.2	0.00e+00	0	40	0	128974848	55	4754
2026-01-23 22:28:44.74	40.65	13.76	-41.9	-44.3	18.2	0.00e+00	0	40	0	130023424	55	4736
2026-01-23 22:28:45.88	40.80	13.85	-41.8	-44.2	18.3	0.00e+00	0	40	0	132120576	55	4686
2026-01-23 22:28:46.73	40.92	13.91	-41.7	-44.3	18.2	0.00e+00	0	40	0	134217728	55	4744
2026-01-23 22:28:47.87	41.08	14.00	-42.0	-44.4	18.1	0.00e+00	0	40	0	136314880	55	4814
2026-01-23 22:28:48.72	41.20	14.06	-42.0	-44.5	18.1	0.00e+00	0	41	0	138412032	55	4848
2026-01-23 22:28:49.86	41.35	14.15	-42.1	-44.6	18.0	0.00e+00	0	40	0	140509184	55	4903
2026-01-23 22:28:50.71	41.47	14.21	-42.3	-44.9	17.7	0.00e+00	0	40	0	141557760	55	5050
2026-01-23 22:28:51.85	41.63	14.30	-42.2	-44.7	17.9	0.00e+00	0	40	0	143654912	55	4970
2026-01-23 22:28:52.70	41.75	14.36	-42.4	-45.0	17.6	0.00e+00	0	41	0	145752064	55	5121
2026-01-23 22:28:53.84	41.91	14.45	-42.5	-45.1	17.6	0.00e+00	0	40	0	147849216	55	5195
2026-01-23 22:28:54.69	42.04	14.51	-42.5	-45.1	17.5	0.00e+00	0	40	0	148897792	55	5209
2026-01-23 22:28:55.83	42.20	14.60	-42.5	-45.1	17.6	0.00e+00	0	40	0	150994944	55	5160
2026-01-23 22:28:56.68	42.32	14.66	-42.6	-45.2	17.4	0.00e+00	0	40	0	153092096	55	5274
2026-01-23 22:28:57.82	42.49	14.75	-42.4	-45.0	17.6	0.00e+00	0	40	0	155189248	55	5132
2026-01-23 22:28:58.67	42.61	14.82	-42.4	-45.0	17.6	0.00e+00	0	40	0	156237824	55	5108
2026-01-23 22:28:59.80	42.77	14.90	-42.2	-44.7	17.9	0.00e+00	0	40	0	158334976	55	4971
2026-01-23 22:29:00.66	42.90	14.97	-42.1	-44.6	18.0	0.00e+00	0	40	0	160432128	55	4889
2026-01-23 22:29:01.92	43.09	15.06	-41.8	-44.2	18.4	1.52e-04	0	41	0	162529280	55	4665
2026-01-23 22:29:02.70	43.20	15.12	-41.9	-44.3	18.2	0.00e+00	0	40	0	164626432	55	4751
2026-01-23 22:29:04.12	43.41	15.23	-41.5	-43.8	18.7	0.00e+00	0	40	0	166723584	55	4482
2026-01-23 22:29:04.83	43.52	15.29	-41.5	-43.8	18.7	0.00e+00	0	40	0	167772160	54	4748
2026-01-23 22:29:06.11	43.71	15.38	-41.5	-43.8	18.7	1.88e-04	0	41	0	170917888	54	4759
2026-01-23 22:29:06.82	43.82	15.44	-41.5	-43.8	18.8	0.00e+00	0	41	0	171966464	54	4725
2026-01-23 22:29:08.10	44.02	15.54	-41.4	-43.8	18.8	0.00e+00	0	40	0	174063616	54	4719
2026-01-23 22:29:08.83	44.13	15.59	-41.3	-43.6	18.9	0.00e+00	0	40	0	176160768	54	4648
2026-01-23 22:29:10.11	44.32	15.69	-41.3	-43.6	18.9	0.00e+00	0	41	0	178257920	54	4641
2026-01-23 22:29:10.84	44.44	15.75	-41.2	-43.5	19.0	0.00e+00	0	40	0	179306496	54	4594
2026-01-23 22:29:12.12	44.64	15.85	-41.3	-43.6	19.0	0.00e+00	0	40	0	181403648	54	4626
2026-01-23 22:29:12.90	44.76	15.91	-41.2	-43.5	19.0	0.00e+00	0	40	0	183500800	54	4564
2026-01-23 22:29:14.18	44.96	16.00	-41.1	-43.4	19.2	0.00e+00	0	40	0	185597952	54	4503
2026-01-23 22:29:14.90	45.07	16.06	-41.0	-43.3	19.2	0.00e+00	0	40	0	186646528	54	4454
2026-01-23 22:29:16.18	45.27	16.16	-41.0	-43.2	19.3	0.00e+00	0	40	0	189792256	53	4681
2026-01-23 22:29:16.91	45.39	16.21	-41.1	-43.3	19.2	1.32e-04	0	40	0	190840832	53	4735
2026-01-23 22:29:18.19	45.59	16.31	-40.9	-43.1	19.3	0.00e+00	0	41	0	192937984	53	4644
2026-01-23 22:29:18.90	45.71	16.37	-41.2	-43.5	19.0	0.00e+00	0	40	0	193986560	53	4821
2026-01-23 22:29:20.18	45.92	16.47	-41.3	-43.6	18.9	0.00e+00	0	41	0	197132288	53	4908
2026-01-23 22:29:20.89	46.03	16.52	-41.5	-43.8	18.7	2.43e-04	0	41	0	198180864	53	5040
2026-01-23 22:29:22.24	46.25	16.63	-41.7	-44.1	18.5	0.00e+00	0	41	0	200278016	53	5162
2026-01-23 22:29:22.95	46.37	16.68	-41.9	-44.4	18.2	0.00e+00	0	41	0	202375168	54	5044
2026-01-23 22:29:24.27	46.59	16.78	-41.7	-44.1	18.5	0.00e+00	0	41	0	204472320	54	4913
2026-01-23 22:29:24.98	46.70	16.84	-41.7	-44.1	18.5	0.00e+00	0	41	0	205520896	54	4895
2026-01-23 22:29:26.27	46.92	16.94	-41.7	-44.0	18.6	0.00e+00	0	41	0	208666624	54	4861
2026-01-23 22:29:26.98	47.04	16.99	-41.7	-44.0	18.6	0.00e+00	0	41	0	209715200	54	4863
2026-01-23 22:29:28.26	47.25	17.09	-41.7	-44.1	18.5	0.00e+00	0	41	0	211812352	54	4879
2026-01-23 22:29:28.98	47.37	17.15	-41.6	-43.9	18.6	0.00e+00	0	40	0	213909504	54	4812
2026-01-23 22:29:30.26	47.59	17.25	-41.6	-44.0	18.6	0.00e+00	0	41	0	216006656	54	4852
2026-01-23 22:29:30.99	47.72	17.30	-41.6	-43.9	18.6	0.00e+00	0	40	0	217055232	54	4809
2026-01-23 22:29:32.27	47.94	17.40	-41.8	-44.2	18.4	0.00e+00	0	41	0	219152384	54	4942
2026-01-23 22:29:32.98	48.06	17.46	-41.8	-44.2	18.4	0.00e+00	0	41	0	221249536	54	4959
2026-01-23 22:29:34.25	48.28	17.56	-41.7	-44.1	18.5	0.00e+00	0	41	0	223346688	54	4906
2026-01-23 22:29:35.14	48.43	17.62	-41.6	-44.1	18.4	0.00e+00	0	41	0	225443840	54	4914
2026-01-23 22:29:36.27	48.63	17.71	-41.5	-43.8	18.8	0.00e+00	0	41	0	227540992	54	4722
2026-01-23 22:29:37.13	48.78	17.78	-41.3	-43.6	18.9	0.00e+00	0	40	0	228589568	54	4642
2026-01-23 22:29:38.27	48.99	17.87	-41.1	-43.4	19.2	0.00e+00	0	40	0	230686720	54	4498
2026-01-23 22:29:39.12	49.14	17.93	-41.1	-43.4	19.1	0.00e+00	0	41	0	232783872	54	4511
2026-01-23 22:29:40.26	49.34	18.02	-40.9	-43.1	19.4	0.00e+00	0	40	0	234881024	53	4630
2026-01-23 22:29:41.11	49.49	18.09	-40.9	-43.1	19.4	0.00e+00	0	41	0	235929600	53	4647
2026-01-23 22:29:42.25	49.70	18.18	-40.8	-42.9	19.6	0.00e+00	0	41	0	238026752	53	4542
2026-01-23 22:29:43.10	49.85	18.24	-40.7	-42.9	19.6	0.00e+00	0	41	0	240123904	53	4498
2026-01-23 22:29:44.24	50.06	18.33	-40.7	-42.9	19.6	0.00e+00	0	41	0	242221056	53	4531
2026-01-23 22:29:45.09	50.22	18.39	-40.5	-42.6	19.8	0.00e+00	0	41	0	243269632	52	4650
2026-01-23 22:29:46.40	50.46	18.50	-40.4	-42.6	19.9	2.14e-04	0	41	0	246415360	52	4613
2026-01-23 22:29:47.11	50.59	18.55	-40.3	-42.4	20.0	0.00e+00	0	41	0	247463936	52	4513
2026-01-23 22:29:48.39	50.83	18.65	-40.4	-42.5	19.9	0.00e+00	0	41	0	249561088	52	4583
2026-01-23 22:29:49.10	50.96	18.70	-40.1	-42.2	20.2	0.00e+00	0	41	0	250609664	52	4413
2026-01-23 22:29:50.40	51.20	18.80	-40.4	-42.5	19.9	2.25e-04	0	41	0	253755392	52	4595
2026-01-23 22:29:51.11	51.34	18.86	-40.3	-42.4	20.0	0.00e+00	0	41	0	254803968	52	4520
2026-01-23 22:29:52.72	51.64	18.98	-40.3	-42.4	20.1	0.00e+00	0	41	0	257949696	52	4531
2026-01-23 22:29:53.30	51.75	19.03	-40.2	-42.3	20.1	0.00e+00	0	41	0	258998272	52	4458
2026-01-23 22:29:55.06	52.09	19.16	-40.2	-42.3	20.2	0.00e+00	0	41	0	262144000	52	4476
2026-01-23 22:29:55.62	52.20	19.21	-40.2	-42.3	20.2	0.00e+00	0	41	0	263192576	52	4446
2026-01-23 22:29:57.33	52.53	19.34	-40.0	-42.1	20.4	0.00e+00	0	40	0	266338304	51	4628
2026-01-23 22:29:57.90	52.64	19.38	-40.2	-42.2	20.3	0.00e+00	0	41	0	267386880	51	4699
2026-01-23 22:29:59.60	52.98	19.51	-40.1	-42.2	20.3	0.00e+00	0	41	0	270532608	51	4682
2026-01-23 22:30:00.17	53.09	19.55	-40.1	-42.2	20.3	0.00e+00	0	41	0	271581184	51	4689
2026-01-23 22:30:01.89	53.43	19.68	-40.3	-42.4	20.1	0.00e+00	0	41	0	274726912	51	4810
2026-01-23 22:30:02.46	53.55	19.73	-40.3	-42.4	20.1	0.00e+00	0	41	0	275775488	51	4787
2026-01-23 22:30:04.17	53.89	19.86	-40.4	-42.5	20.0	0.00e+00	0	41	0	278921216	51	4864
2026-01-23 22:30:04.73	54.00	19.90	-40.4	-42.5	19.8	0.00e+00	0	41	0	279969792	51	4831
2026-01-23 22:30:06.50	54.36	20.03	-40.5	-42.6	19.9	0.00e+00	0	41	0	284164096	52	4640
2026-01-23 22:30:07.07	54.48	20.08	-40.5	-42.7	19.8	0.00e+00	0	41	0	285212672	52	4675
2026-01-23 22:30:08.77	54.83	20.20	-40.5	-42.6	19.9	0.00e+00	0	41	0	288358400	52	4643
2026-01-23 22:30:09.45	54.97	20.26	-40.4	-42.5	20.0	0.00e+00	0	40	0	289406976	52	4597
2026-01-23 22:30:10.87	55.26	20.36	-40.3	-42.5	20.0	0.00e+00	0	41	0	291504128	52	4572
2026-01-23 22:30:11.71	55.44	20.43	-40.5	-42.6	19.9	0.00e+00	0	41	0	293601280	52	4624
2026-01-23 22:30:12.85	55.68	20.51	-40.3	-42.5	20.0	0.00e+00	0	41	0	295698432	52	4550
2026-01-23 22:30:13.70	55.86	20.57	-40.3	-42.4	20.1	0.00e+00	0	41	0	296747008	52	4527
2026-01-23 22:30:14.84	56.10	20.66	-40.2	-42.2	20.2	0.00e+00	0	41	0	299892736	52	4438
2026-01-23 22:30:15.70	56.28	20.72	-40.1	-42.1	20.3	0.00e+00	0	41	0	300941312	52	4382
2026-01-23 22:30:16.83	56.52	20.81	-40.2	-42.2	20.3	0.00e+00	0	41	0	303038464	51	4682
2026-01-23 22:30:17.69	56.71	20.87	-40.3	-42.4	20.1	0.00e+00	0	41	0	305135616	51	4794
2026-01-23 22:30:18.90	56.97	20.96	-40.4	-42.5	20.1	0.00e+00	0	41	0	307232768	51	4868
2026-01-23 22:30:19.76	57.15	21.02	-40.6	-42.7	19.8	1.59e-04	0	41	0	308281344	51	4968
2026-01-23 22:30:20.97	57.42	21.11	-40.7	-42.9	19.7	0.00e+00	0	41	0	311427072	52	4776
2026-01-23 22:30:21.83	57.60	21.17	-40.9	-43.1	19.5	0.00e+00	0	41	0	312475648	52	4924
2026-01-23 22:30:22.96	57.85	21.26	-40.8	-43.0	19.6	0.00e+00	0	41	0	314572800	52	4837
2026-01-23 22:30:23.82	58.04	21.32	-40.8	-43.0	19.4	0.00e+00	0	41	0	316669952	52	4818
2026-01-23 22:30:25.10	58.33	21.41	-40.5	-42.6	19.9	0.00e+00	0	41	0	318767104	52	4625
2026-01-23 22:30:25.82	58.49	21.46	-40.7	-42.8	19.7	0.00e+00	0	41	0	319815680	52	4729
2026-01-23 22:30:27.10	58.77	21.56	-40.9	-43.1	19.5	0.00e+00	0	41	0	321912832	52	4890
2026-01-23 22:30:27.82	58.94	21.61	-40.8	-43.0	19.5	0.00e+00	0	41	0	324009984	52	4844
2026-01-23 22:30:29.10	59.23	21.70	-41.2	-43.5	19.1	0.00e+00	0	41	0	326107136	53	4867
2026-01-23 22:30:29.82	59.39	21.75	-41.0	-43.3	19.3	0.00e+00	0	41	0	327155712	53	4717
2026-01-23 22:30:31.10	59.68	21.84	-40.7	-42.9	19.7	0.00e+00	0	41	0	330301440	53	4512
2026-01-23 22:30:31.83	59.85	21.89	-40.6	-42.8	19.8	0.00e+00	0	41	0	331350016	53	4445
2026-01-23 22:30:33.11	60.14	21.98	-40.3	-42.4	20.1	0.00e+00	0	41	0	333447168	52	4519
2026-01-23 22:30:33.91	60.33	22.04	-40.4	-42.5	20.0	0.00e+00	0	41	0	335544320	52	4568
2026-01-23 22:30:35.04	60.59	22.12	-40.8	-43.0	19.5	0.00e+00	0	41	0	337641472	52	4866
2026-01-23 22:30:35.90	60.79	22.18	-41.1	-43.4	19.2	0.00e+00	0	41	0	338690048	52	5065
2026-01-23 22:30:37.03	61.06	22.26	-41.5	-43.8	18.8	0.00e+00	0	41	0	340787200	53	5030
2026-01-23 22:30:37.89	61.26	22.32	-41.7	-44.1	18.6	0.00e+00	0	41	0	342884352	54	4898
2026-01-23 22:30:39.03	61.53	22.40	-41.5	-43.8	18.8	0.00e+00	0	41	0	344981504	54	4737
2026-01-23 22:30:39.88	61.73	22.45	-41.2	-43.5	19.1	0.00e+00	0	41	0	346030080	54	4568
2026-01-23 22:30:41.02	62.00	22.53	-40.7	-42.8	19.8	0.00e+00	0	41	0	348127232	53	4482
2026-01-23 22:30:41.87	62.20	22.59	-40.4	-42.5	20.0	0.00e+00	0	41	0	350224384	52	4559
2026-01-23 22:30:43.00	62.48	22.67	-40.5	-42.7	19.9	0.00e+00	0	41	0	352321536	52	4653
2026-01-23 22:30:43.86	62.68	22.72	-40.6	-42.8	19.7	0.00e+00	0	41	0	353370112	52	4735
2026-01-23 22:30:45.14	62.99	22.81	-41.0	-43.3	19.2	1.75e-05	0	41	0	356515840	52	4993
2026-01-23 22:30:45.85	63.17	22.86	-41.2	-43.5	19.2	5.45e-04	0	41	0	357564416	53	4822
2026-01-23 22:30:47.13	63.48	22.94	-41.1	-43.3	19.3	0.00e+00	0	41	0	359661568	53	4757
2026-01-23 22:30:47.84	63.65	22.99	-41.0	-43.2	19.4	0.00e+00	0	41	0	361758720	53	4688
2026-01-23 22:30:49.12	63.97	23.07	-41.1	-43.3	19.2	0.00e+00	0	41	0	363855872	53	4751
2026-01-23 22:30:49.90	64.16	23.12	-41.2	-43.4	19.2	0.00e+00	0	41	0	364904448	53	4786
2026-01-23 22:30:51.17	64.48	23.20	-41.8	-44.1	18.6	0.00e+00	0	41	0	368050176	54	4906
2026-01-23 22:30:51.88	64.66	23.25	-41.9	-44.3	18.4	0.00e+00	0	41	0	369098752	54	5025
2026-01-23 22:30:53.16	64.98	23.33	-42.0	-44.4	18.3	0.00e+00	0	41	0	371195904	54	5044
2026-01-23 22:30:53.88	65.16	23.38	-42.1	-44.5	18.2	0.00e+00	0	41	0	372244480	54	5121
2026-01-23 22:30:55.15	65.48	23.46	-41.7	-44.0	18.7	0.00e+00	0	41	0	375390208	54	4842
2026-01-23 22:30:55.89	65.67	23.50	-41.6	-43.9	18.8	0.00e+00	0	41	0	376438784	54	4788
2026-01-23 22:30:57.18	66.00	23.59	-41.4	-43.7	19.0	0.00e+00	0	41	0	378535936	54	4671
2026-01-23 22:30:57.89	66.18	23.63	-41.6	-43.9	18.7	0.00e+00	0	41	0	380633088	54	4802
2026-01-23 22:30:59.17	66.51	23.71	-41.8	-44.2	18.5	0.00e+00	0	41	0	382730240	54	4967
2026-01-23 22:30:59.88	66.69	23.75	-42.1	-44.6	18.1	5.56e-04	0	41	0	383778816	54	5186
2026-01-23 22:31:01.27	67.05	23.83	-42.5	-45.1	17.7	0.00e+00	0	41	0	386924544	55	5183
2026-01-23 22:31:01.98	67.23	23.88	-42.6	-45.2	17.6	0.00e+00	0	41	0	387973120	55	5237
2026-01-23 22:31:03.26	67.57	23.95	-43.2	-45.9	17.1	0.00e+00	0	41	0	390070272	57	5067
2026-01-23 22:31:03.97	67.75	24.00	-43.4	-46.3	16.7	2.68e-04	0	41	0	391118848	57	5292
2026-01-23 22:31:05.25	68.09	24.07	-43.4	-46.2	16.7	0.00e+00	0	41	0	394264576	57	5251
2026-01-23 22:31:05.96	68.28	24.11	-43.4	-46.1	16.8	0.00e+00	0	41	0	395313152	57	5201
2026-01-23 22:31:07.24	68.62	24.19	-43.1	-45.8	17.2	0.00e+00	0	41	0	397410304	57	4989
2026-01-23 22:31:07.96	68.81	24.23	-42.9	-45.5	17.5	0.00e+00	0	41	0	398458880	57	4830
2026-01-23 22:31:09.24	69.15	24.30	-42.2	-44.6	18.3	0.00e+00	0	41	0	401604608	56	4633
2026-01-23 22:31:09.95	69.34	24.34	-42.1	-44.5	18.4	0.00e+00	0	41	0	402653184	56	4576
2026-01-23 22:31:11.23	69.68	24.41	-42.4	-44.9	18.0	0.00e+00	0	41	0	404750336	56	4803
2026-01-23 22:31:12.08	69.91	24.46	-42.9	-45.4	17.5	0.00e+00	0	41	0	406847488	56	5099
2026-01-23 22:31:13.52	70.30	24.54	-43.7	-46.7	16.3	0.00e+00	0	41	0	409993216	58	5226
2026-01-23 22:31:14.23	70.49	24.57	-44.1	-47.2	15.7	0.00e+00	0	41	0	411041792	59	5273
2026-01-23 22:31:15.73	70.90	24.65	-44.5	-47.8	15.2	0.00e+00	0	41	0	413138944	59	5601
2026-01-23 22:31:16.44	71.10	24.69	-44.5	-47.7	15.3	0.00e+00	0	41	0	415236096	59	5572
2026-01-23 22:31:17.72	71.45	24.76	-44.6	-47.9	15.2	0.00e+00	0	41	0	417333248	59	5657
2026-01-23 22:31:18.43	71.64	24.79	-44.0	-47.3	15.6	0.00e+00	0	41	0	418381824	59	5340
2026-01-23 22:31:19.71	71.99	24.86	-44.3	-47.5	15.5	0.00e+00	0	41	0	420478976	59	5423
2026-01-23 22:31:20.42	72.19	24.89	-44.3	-47.5	15.5	0.00e+00	0	41	0	422576128	59	5427
2026-01-23 22:31:21.70	72.55	24.96	-44.2	-47.3	15.7	0.00e+00	0	41	0	424673280	59	5291
2026-01-23 22:31:22.42	72.75	24.99	-44.0	-47.0	16.0	0.00e+00	0	41	0	425721856	59	5111
2026-01-23 22:31:23.70	73.11	25.06	-43.5	-46.3	16.6	0.00e+00	0	41	0	428867584	59	4741
2026-01-23 22:31:24.47	73.32	25.09	-43.7	-46.6	16.4	0.00e+00	0	41	0	429916160	58	5210
2026-01-23 22:31:25.75	73.68	25.15	-44.1	-47.1	15.9	0.00e+00	0	41	0	432013312	58	5487
2026-01-23 22:31:26.46	73.88	25.19	-44.3	-47.5	15.5	0.00e+00	0	41	0	434110464	59	5454
2026-01-23 22:31:27.74	74.24	25.24	-44.6	-47.9	15.1	0.00e+00	0	41	0	436207616	60	5393
2026-01-23 22:31:28.61	74.49	25.28	-45.0	-48.6	14.4	0.00e+00	0	41	0	437256192	60	5811
2026-01-23 22:31:29.74	74.81	25.33	-44.7	-48.0	14.9	2.41e-04	0	41	0	439353344	60	5456
2026-01-23 22:31:30.60	75.06	25.37	-44.3	-47.5	15.5	0.00e+00	0	41	0	441450496	60	5139
2026-01-23 22:31:32.08	75.48	25.44	-44.0	-47.0	16.0	0.00e+00	0	41	0	444596224	59	5124
2026-01-23 22:31:32.79	75.69	25.47	-44.1	-47.2	15.8	0.00e+00	0	41	0	445644800	59	5237
2026-01-23 22:31:34.07	76.05	25.52	-44.7	-48.1	14.9	0.00e+00	0	41	0	447741952	60	5522
2026-01-23 22:31:34.80	76.26	25.55	-44.9	-48.5	14.5	1.50e-06	0	41	0	448790528	60	5745
2026-01-23 22:31:36.08	76.64	25.60	-44.4	-47.6	15.4	7.00e-07	0	41	0	451936256	60	5200
2026-01-23 22:31:36.79	76.84	25.63	-44.3	-47.6	15.4	0.00e+00	0	41	0	452984832	60	5180
2026-01-23 22:31:38.06	77.21	25.68	-43.8	-46.8	16.2	0.00e+00	0	41	0	455081984	59	4987
2026-01-23 22:31:38.77	77.42	25.71	-43.5	-46.4	16.6	0.00e+00	0	41	0	457179136	58	5045
2026-01-23 22:31:40.05	77.79	25.75	-43.2	-45.9	17.1	0.00e+00	0	41	0	459276288	58	4761
2026-01-23 22:31:40.76	78.00	25.78	-43.0	-45.7	17.3	0.00e+00	0	41	0	460324864	58	4688
2026-01-23 22:31:42.04	78.38	25.83	-43.0	-45.7	17.2	0.00e+00	0	41	0	462422016	57	4959
2026-01-23 22:31:42.75	78.58	25.85	-43.2	-45.9	17.0	0.00e+00	0	41	0	464519168	57	5080
2026-01-23 22:31:44.16	79.00	25.90	-43.4	-46.2	16.7	1.26e-04	0	41	0	466616320	57	5275
2026-01-23 22:31:44.87	79.21	25.92	-43.3	-46.1	16.8	0.00e+00	0	41	0	468713472	57	5205
2026-01-23 22:31:46.18	79.60	25.97	-43.5	-46.3	16.7	0.00e+00	0	41	0	470810624	58	5023
2026-01-23 22:31:46.89	79.81	25.99	-43.5	-46.3	16.6	0.00e+00	0	41	0	471859200	58	5020
2026-01-23 22:31:48.23	80.21	26.03	-43.4	-46.3	16.7	2.30e-04	0	41	0	475004928	58	4990
2026-01-23 22:31:48.95	80.42	26.05	-43.6	-46.5	16.4	0.00e+00	0	41	0	476053504	58	5125
2026-01-23 22:31:50.23	80.80	26.09	-43.5	-46.4	16.5	0.00e+00	0	41	0	478150656	58	5079
2026-01-23 22:31:50.95	81.02	26.11	-43.5	-46.4	16.5	0.00e+00	0	41	0	479199232	58	5067
2026-01-23 22:31:52.23	81.40	26.15	-42.9	-45.6	17.2	0.00e+00	0	41	0	482344960	57	4906
2026-01-23 22:31:52.96	81.62	26.17	-42.6	-45.2	17.7	0.00e+00	0	41	0	483393536	57	4662
2026-01-23 22:31:54.24	82.01	26.20	-42.3	-44.8	18.0	0.00e+00	0	41	0	485490688	56	4725
2026-01-23 22:31:54.96	82.22	26.22	-42.5	-45.1	17.7	0.00e+00	0	41	0	487587840	56	4920
2026-01-23 22:31:56.24	82.61	26.25	-42.8	-45.6	17.3	0.00e+00	0	41	0	489684992	56	5183
2026-01-23 22:31:57.02	82.84	26.27	-43.2	-46.1	16.9	0.00e+00	0	41	0	490733568	57	5170
2026-01-23 22:31:58.30	83.23	26.30	-43.5	-46.4	16.4	0.00e+00	0	41	0	493879296	57	5400
2026-01-23 22:31:59.02	83.45	26.32	-43.5	-46.4	16.6	4.42e-05	0	41	0	494927872	57	5399
2026-01-23 22:32:00.30	83.84	26.35	-42.8	-45.5	17.3	0.00e+00	0	41	0	497025024	57	4863
2026-01-23 22:32:01.18	84.11	26.36	-42.5	-45.2	17.6	0.00e+00	0	41	0	499122176	57	4690
2026-01-23 22:32:02.60	84.54	26.39	-42.5	-45.2	17.7	0.00e+00	0	41	0	501219328	56	4934
2026-01-23 22:32:03.32	84.76	26.41	-42.6	-45.3	17.6	0.00e+00	0	41	0	503316480	56	4997
2026-01-23 22:32:04.80	85.21	26.43	-43.0	-45.9	17.0	0.00e+00	0	41	0	505413632	56	5353
2026-01-23 22:32:05.51	85.43	26.45	-43.2	-46.1	16.8	0.00e+00	0	41	0	506462208	57	5166
2026-01-23 22:32:06.79	85.82	26.47	-43.2	-46.0	16.9	0.00e+00	0	41	0	509607936	57	5136
2026-01-23 22:32:07.50	86.04	26.48	-42.8	-45.5	17.4	0.00e+00	0	41	0	510656512	57	4841
2026-01-23 22:32:08.78	86.43	26.50	-42.9	-45.6	17.2	0.00e+00	0	41	0	512753664	57	4907
2026-01-23 22:32:09.52	86.65	26.51	-42.7	-45.5	17.4	0.00e+00	0	41	0	514850816	57	4820
2026-01-23 22:32:10.80	87.05	26.52	-42.8	-45.6	17.3	0.00e+00	0	41	0	516947968	57	4876
2026-01-23 22:32:11.51	87.27	26.53	-42.9	-45.7	17.2	0.00e+00	0	41	0	517996544	57	4939
2026-01-23 22:32:12.79	87.66	26.55	-42.8	-45.5	17.4	0.00e+00	0	41	0	520093696	57	4835
2026-01-23 22:32:13.50	87.88	26.55	-42.3	-45.0	17.7	0.00e+00	0	41	0	522190848	56	4842
2026-01-23 22:32:14.78	88.27	26.57	-42.1	-44.6	18.2	0.00e+00	0	41	0	524288000	56	4603
2026-01-23 22:32:15.56	88.51	26.57	-42.1	-44.6	18.2	0.00e+00	0	41	0	525336576	56	4606
2026-01-23 22:32:16.84	88.91	26.58	-42.6	-45.2	17.7	0.00e+00	0	41	0	528482304	56	4933
2026-01-23 22:32:17.59	89.14	26.59	-42.8	-45.5	17.4	1.16e-04	0	41	0	529530880	56	5113
2026-01-23 22:32:19.18	89.63	26.60	-43.1	-46.0	16.9	0.00e+00	0	41	0	532676608	56	5404
2026-01-23 22:32:19.82	89.83	26.60	-43.0	-45.8	17.1	0.00e+00	0	41	0	533725184	56	5281
2026-01-23 22:32:21.24	90.26	26.60	-42.7	-45.4	17.5	0.00e+00	0	41	0	536870912	56	5049
2026-01-23 22:32:21.95	90.48	26.61	-42.6	-45.2	17.7	0.00e+00	0	41	0	537919488	56	4949
2026-01-23 22:32:23.27	90.89	26.61	-42.8	-45.4	17.4	0.00e+00	0	41	0	540016640	56	5087
2026-01-23 22:32:23.98	91.11	26.61	-42.9	-45.6	17.3	0.00e+00	0	41	0	541065216	56	5169
2026-01-23 22:32:25.26	91.51	26.61	-43.0	-45.7	17.2	0.00e+00	0	41	0	544210944	56	5244
2026-01-23 22:32:25.98	91.73	26.61	-43.0	-45.7	17.2	0.00e+00	0	41	0	545259520	56	5234
2026-01-23 22:32:27.26	92.12	26.61	-42.7	-45.3	17.6	0.00e+00	0	41	0	547356672	56	5006
2026-01-23 22:32:27.97	92.34	26.61	-42.7	-45.4	17.4	0.00e+00	0	41	0	549453824	56	5063
2026-01-23 22:32:29.25	92.74	26.60	-42.8	-45.5	17.4	0.00e+00	0	41	0	551550976	56	5105
2026-01-23 22:32:29.96	92.96	26.60	-43.0	-45.8	17.0	0.00e+00	0	41	0	552599552	56	5326
2026-01-23 22:32:31.24	93.35	26.59	-43.5	-46.4	16.5	0.00e+00	0	41	0	554696704	57	5385
2026-01-23 22:32:31.97	93.58	26.59	-43.7	-46.7	16.2	0.00e+00	0	41	0	556793856	58	5236
2026-01-23 22:32:33.25	93.97	26.58	-43.9	-46.8	16.0	0.00e+00	0	41	0	558891008	58	5339
2026-01-23 22:32:34.07	94.23	26.57	-43.8	-46.7	16.2	0.00e+00	0	41	0	560988160	58	5248
2026-01-23 22:32:35.51	94.67	26.56	-43.3	-46.0	16.8	0.00e+00	0	41	0	563085312	58	4864
2026-01-23 22:32:36.22	94.89	26.56	-42.8	-45.4	17.3	0.00e+00	0	41	0	564133888	57	4801
2026-01-23 22:32:37.70	95.34	26.54	-42.4	-44.9	17.9	0.00e+00	0	41	0	567279616	56	4777
2026-01-23 22:32:38.41	95.56	26.53	-42.2	-44.7	18.1	0.00e+00	0	41	0	568328192	56	4655
2026-01-23 22:32:39.69	95.96	26.52	-42.4	-44.8	18.0	0.00e+00	0	41	0	571473920	56	4749
2026-01-23 22:32:40.40	96.17	26.51	-42.4	-44.8	17.9	0.00e+00	0	41	0	572522496	56	4754
2026-01-23 22:32:41.70	96.57	26.49	-42.5	-45.0	17.7	0.00e+00	0	41	0	574619648	56	4851
2026-01-23 22:32:42.41	96.79	26.48	-42.6	-45.1	17.7	0.00e+00	0	41	0	575668224	56	4892
2026-01-23 22:32:43.69	97.18	26.46	-42.2	-44.6	18.2	1.83e-04	0	41	0	578813952	56	4607
2026-01-23 22:32:44.41	97.40	26.45	-41.7	-44.1	18.5	0.00e+00	0	41	0	579862528	55	4622
2026-01-23 22:32:45.69	97.79	26.42	-41.8	-44.2	18.4	0.00e+00	0	41	0	581959680	55	4688
2026-01-23 22:32:46.40	98.01	26.41	-42.1	-44.6	18.1	0.00e+00	0	41	0	584056832	55	4874
2026-01-23 22:32:47.68	98.40	26.39	-42.1	-44.6	18.0	0.00e+00	0	41	0	586153984	55	4886
2026-01-23 22:32:48.39	98.62	26.37	-42.2	-44.7	18.0	0.00e+00	0	41	0	587202560	55	4964
2026-01-23 22:32:49.67	99.01	26.35	-41.7	-44.1	18.5	0.00e+00	0	41	0	589299712	55	4624
2026-01-23 22:32:50.39	99.23	26.33	-41.5	-43.8	18.8	0.00e+00	0	41	0	591396864	54	4742
2026-01-23 22:32:51.67	99.62	26.30	-41.3	-43.7	18.9	0.00e+00	0	41	0	593494016	54	4654
2026-01-23 22:32:52.40	99.84	26.29	-41.4	-43.7	18.9	0.00e+00	0	41	0	594542592	54	4665
2026-01-23 22:32:53.76	100.25	26.25	-41.3	-43.6	18.9	0.00e+00	0	41	0	597688320	54	4641
2026-01-23 22:32:54.47	100.46	26.24	-41.6	-44.0	18.6	0.00e+00	0	41	0	598736896	54	4850
2026-01-23 22:32:55.75	100.85	26.20	-42.2	-44.7	18.0	0.00e+00	0	41	0	600834048	55	4961
2026-01-23 22:32:56.48	101.07	26.18	-42.5	-45.1	17.6	0.00e+00	0	41	0	602931200	55	5163
2026-01-23 22:32:57.75	101.45	26.15	-43.0	-45.6	17.2	0.00e+00	0	41	0	605028352	56	5207
2026-01-23 22:32:58.47	101.67	26.13	-43.1	-45.8	17.0	9.23e-05	0	41	0	606076928	56	5304
2026-01-23 22:32:59.74	102.05	26.09	-42.9	-45.5	17.3	0.00e+00	0	41	0	608174080	56	5154
2026-01-23 22:33:00.45	102.26	26.07	-42.8	-45.4	17.5	0.00e+00	0	41	0	610271232	56	5057
2026-01-23 22:33:01.73	102.64	26.03	-42.3	-44.8	18.0	9.90e-06	0	41	0	612368384	56	4748
2026-01-23 22:33:02.46	102.86	26.01	-42.1	-44.5	18.3	0.00e+00	0	41	0	613416960	56	4566
2026-01-23 22:33:03.74	103.24	25.97	-41.5	-43.9	18.7	0.00e+00	0	41	0	616562688	54	4774
2026-01-23 22:33:04.50	103.47	25.94	-41.3	-43.6	19.0	0.00e+00	0	41	0	617611264	54	4629
2026-01-23 22:33:05.78	103.85	25.90	-40.8	-43.0	19.4	0.00e+00	0	41	0	619708416	53	4579
2026-01-23 22:33:06.57	104.08	25.87	-40.3	-42.4	20.0	0.00e+00	0	41	0	621805568	52	4535
2026-01-23 22:33:07.74	104.42	25.83	-40.1	-42.1	20.3	0.00e+00	0	41	0	623902720	51	4643
2026-01-23 22:33:08.59	104.67	25.80	-40.0	-42.0	20.4	0.00e+00	0	41	0	624951296	51	4585
2026-01-23 22:33:09.72	105.01	25.76	-40.2	-42.3	20.2	0.00e+00	0	41	0	627048448	51	4716
2026-01-23 22:33:10.80	105.32	25.72	-40.7	-42.8	19.7	0.00e+00	0	41	0	629145600	51	5033
2026-01-23 22:33:11.82	105.62	25.68	-41.1	-43.4	19.1	0.00e+00	0	41	0	631242752	52	5092
2026-01-23 22:33:12.82	105.91	25.64	-41.2	-43.5	19.0	1.43e-04	0	41	0	633339904	53	4854
2026-01-23 22:33:13.81	106.20	25.60	-41.3	-43.6	18.9	0.00e+00	0	41	0	635437056	53	4899
2026-01-23 22:33:14.81	106.49	25.56	-40.6	-42.8	19.6	0.00e+00	0	41	0	636485632	53	4462
2026-01-23 22:33:15.80	106.78	25.52	-40.3	-42.4	20.0	0.00e+00	0	41	0	638582784	52	4541
2026-01-23 22:33:16.80	107.07	25.48	-40.0	-42.1	20.3	0.00e+00	0	41	0	640679936	52	4376
2026-01-23 22:33:17.79	107.35	25.44	-40.2	-42.3	20.1	0.00e+00	0	41	0	642777088	52	4479
2026-01-23 22:33:18.78	107.64	25.40	-40.3	-42.5	20.0	0.00e+00	0	41	0	643825664	52	4547
2026-01-23 22:33:19.78	107.92	25.35	-40.1	-42.2	20.2	0.00e+00	0	41	0	645922816	52	4398
2026-01-23 22:33:20.79	108.21	25.31	-40.0	-42.1	20.3	0.00e+00	0	41	0	648019968	51	4641
2026-01-23 22:33:21.79	108.50	25.26	-39.9	-42.0	20.4	0.00e+00	0	41	0	650117120	51	4556
2026-01-23 22:33:22.84	108.79	25.21	-39.6	-41.6	20.7	0.00e+00	0	41	0	652214272	51	4390
2026-01-23 22:33:23.76	109.06	25.17	-39.1	-41.1	21.2	0.00e+00	0	41	0	653262848	50	4358
2026-01-23 22:33:24.89	109.37	25.12	-39.3	-41.2	21.1	0.00e+00	0	41	0	655360000	50	4430
2026-01-23 22:33:25.80	109.63	25.08	-39.4	-41.4	21.0	0.00e+00	0	41	0	657457152	50	4510
2026-01-23 22:33:26.97	109.96	25.02	-40.1	-42.2	20.3	0.00e+00	0	41	0	659554304	50	4960
2026-01-23 22:33:27.82	110.20	24.98	-40.3	-42.4	20.1	1.25e-04	0	41	0	661651456	51	4795
2026-01-23 22:33:28.96	110.52	24.92	-40.7	-42.9	19.7	0.00e+00	0	41	0	663748608	51	5045
2026-01-23 22:33:29.81	110.75	24.88	-40.6	-42.8	19.7	0.00e+00	0	41	0	664797184	52	4738
2026-01-23 22:33:30.95	111.07	24.82	-40.2	-42.3	19.9	0.00e+00	0	41	0	666894336	52	4491
2026-01-23 22:33:31.80	111.30	24.78	-40.0	-42.1	20.4	0.00e+00	0	41	0	668991488	51	4605
2026-01-23 22:33:32.94	111.62	24.72	-39.9	-42.0	20.5	0.00e+00	0	41	0	671088640	51	4558
2026-01-23 22:33:33.79	111.85	24.67	-39.8	-41.9	20.5	0.00e+00	0	41	0	672137216	51	4505
2026-01-23 22:33:34.93	112.16	24.61	-39.6	-41.6	20.7	0.00e+00	0	41	0	674234368	51	4365
2026-01-23 22:33:35.78	112.40	24.57	-39.7	-41.8	20.6	0.00e+00	0	41	0	676331520	51	4454
2026-01-23 22:33:37.05	112.74	24.50	-39.8	-41.8	20.6	0.00e+00	0	41	0	678428672	51	4466
2026-01-23 22:33:37.76	112.93	24.46	-39.7	-41.7	20.6	0.00e+00	0	41	0	679477248	51	4436
2026-01-23 22:33:39.04	113.28	24.39	-39.9	-42.0	20.4	0.00e+00	0	41	0	682622976	51	4563
2026-01-23 22:33:39.76	113.47	24.35	-40.1	-42.1	20.3	0.00e+00	0	41	0	683671552	51	4647
2026-01-23 22:33:41.04	113.82	24.28	-40.3	-42.4	20.1	0.00e+00	0	41	0	685768704	51	4770
2026-01-23 22:33:41.76	114.01	24.23	-40.2	-42.3	20.2	0.00e+00	0	41	0	686817280	51	4724
2026-01-23 22:33:43.03	114.35	24.16	-40.1	-42.2	20.2	0.00e+00	0	41	0	689963008	51	4700
2026-01-23 22:33:43.75	114.54	24.12	-40.1	-42.2	20.3	0.00e+00	0	41	0	691011584	51	4679
2026-01-23 22:33:45.02	114.87	24.05	-40.0	-42.1	20.3	0.00e+00	0	41	0	693108736	51	4611
2026-01-23 22:33:45.74	115.06	24.00	-40.0	-42.1	20.3	0.00e+00	0	41	0	695205888	51	4620
2026-01-23 22:33:47.02	115.40	23.93	-40.3	-42.4	20.1	0.00e+00	0	41	0	697303040	51	4795
2026-01-23 22:33:47.73	115.59	23.88	-40.4	-42.5	19.9	0.00e+00	0	41	0	698351616	51	4869
2026-01-23 22:33:49.01	115.92	23.81	-40.3	-42.4	20.1	0.00e+00	0	41	0	700448768	51	4803
2026-01-23 22:33:49.72	116.10	23.76	-40.4	-42.6	19.9	0.00e+00	0	41	0	702545920	51	4895
2026-01-23 22:33:51.00	116.43	23.69	-40.5	-42.7	19.8	0.00e+00	0	41	0	704643072	51	4955
2026-01-23 22:33:51.72	116.62	23.64	-40.2	-42.3	20.1	0.00e+00	0	41	0	705691648	51	4752
2026-01-23 22:33:53.00	116.95	23.56	-40.1	-42.1	20.3	0.00e+00	0	41	0	708837376	51	4646
2026-01-23 22:33:53.71	117.13	23.52	-40.1	-42.2	20.2	0.00e+00	0	41	0	709885952	51	4691
2026-01-23 22:33:54.99	117.46	23.44	-40.5	-42.6	19.8	0.00e+00	0	41	0	711983104	51	4926
2026-01-23 22:33:55.70	117.64	23.39	-40.9	-43.2	19.3	0.00e+00	0	41	0	713031680	52	4946
2026-01-23 22:33:56.98	117.96	23.31	-41.4	-43.7	18.8	0.00e+00	0	41	0	716177408	53	4983
2026-01-23 22:33:57.69	118.14	23.26	-41.6	-44.0	18.5	1.32e-04	0	41	0	717225984	53	5131
2026-01-23 22:33:58.97	118.46	23.18	-41.8	-44.2	18.4	0.00e+00	0	41	0	719323136	54	4954
2026-01-23 22:33:59.68	118.64	23.13	-41.4	-43.7	18.8	0.00e+00	0	41	0	721420288	54	4690
2026-01-23 22:34:00.96	118.96	23.05	-41.1	-43.4	19.1	1.24e-04	0	41	0	723517440	54	4517
2026-01-23 22:34:01.69	119.14	23.00	-40.8	-43.0	19.4	0.00e+00	0	41	0	724566016	53	4573
2026-01-23 22:34:03.03	119.47	22.91	-40.4	-42.6	19.8	0.00e+00	0	41	0	727711744	52	4608
2026-01-23 22:34:03.74	119.64	22.87	-40.6	-42.8	19.6	0.00e+00	0	41	0	728760320	52	4736
2026-01-23 22:34:05.07	119.97	22.78	-40.6	-42.8	19.6	0.00e+00	0	41	0	730857472	52	4753
2026-01-23 22:34:05.77	120.14	22.73	-40.6	-42.8	19.6	0.00e+00	0	41	0	732954624	52	4730
2026-01-23 22:34:07.09	120.46	22.64	-40.5	-42.7	19.7	0.00e+00	0	41	0	735051776	52	4653
2026-01-23 22:34:07.80	120.63	22.59	-40.4	-42.6	19.8	0.00e+00	0	41	0	736100352	52	4612
2026-01-23 22:34:09.17	120.96	22.50	-40.6	-42.7	19.6	0.00e+00	0	41	0	739246080	52	4685
2026-01-23 22:34:09.88	121.13	22.45	-40.6	-42.8	19.6	0.00e+00	0	41	0	740294656	52	4734
2026-01-23 22:34:11.29	121.46	22.35	-40.8	-43.1	19.4	0.00e+00	0	41	0	742391808	52	4871
2026-01-23 22:34:12.00	121.63	22.30	-41.0	-43.3	19.1	0.00e+00	0	41	0	744488960	52	5002
2026-01-23 22:34:13.39	121.96	22.21	-41.1	-43.3	19.1	0.00e+00	0	41	0	746586112	53	4747
2026-01-23 22:34:14.10	122.13	22.16	-41.2	-43.4	19.0	0.00e+00	0	41	0	747634688	53	4807
2026-01-23 22:34:15.50	122.45	22.06	-41.0	-43.2	19.2	5.30e-06	0	41	0	750780416	53	4690
2026-01-23 22:34:16.48	122.68	21.99	-40.9	-43.2	19.2	0.00e+00	0	41	0	752877568	53	4673
2026-01-23 22:34:17.48	122.91	21.92	-41.0	-43.3	19.1	0.00e+00	0	41	0	753926144	53	4741
2026-01-23 22:34:18.47	123.14	21.85	-41.1	-43.4	19.0	0.00e+00	0	41	0	756023296	53	4808
2026-01-23 22:34:19.47	123.37	21.78	-41.3	-43.6	18.8	0.00e+00	0	41	0	758120448	53	4898
2026-01-23 22:34:20.47	123.60	21.71	-41.2	-43.6	18.9	0.00e+00	0	41	0	760217600	53	4872
2026-01-23 22:34:21.46	123.82	21.63	-41.1	-43.4	19.0	0.00e+00	0	41	0	761266176	53	4778
2026-01-23 22:34:22.45	124.05	21.56	-40.9	-43.2	19.2	0.00e+00	0	41	0	763363328	53	4656
2026-01-23 22:34:23.48	124.28	21.49	-40.9	-43.2	19.2	0.00e+00	0	41	0	765460480	53	4684
2026-01-23 22:34:24.48	124.50	21.42	-41.2	-43.5	18.9	0.00e+00	0	41	0	767557632	53	4855
2026-01-23 22:34:25.47	124.73	21.34	-41.5	-43.9	18.4	0.00e+00	0	41	0	769654784	53	5048
2026-01-23 22:34:26.46	124.95	21.27	-41.9	-44.3	18.1	0.00e+00	0	41	0	770703360	54	5040
2026-01-23 22:34:27.45	125.16	21.20	-42.0	-44.5	18.0	1.76e-04	0	41	0	772800512	54	5131
2026-01-23 22:34:28.45	125.38	21.12	-42.3	-44.8	17.7	0.00e+00	0	41	0	774897664	55	5031
2026-01-23 22:34:29.44	125.60	21.05	-41.9	-44.4	18.1	0.00e+00	0	41	0	776994816	55	4784
2026-01-23 22:34:30.44	125.82	20.98	-41.5	-43.9	18.6	1.18e-04	0	41	0	779091968	54	4792
2026-01-23 22:34:31.43	126.04	20.90	-41.2	-43.5	19.0	0.00e+00	0	41	0	780140544	54	4561
2026-01-23 22:34:32.43	126.25	20.83	-40.8	-43.1	19.3	0.00e+00	0	41	0	782237696	53	4612
2026-01-23 22:34:33.42	126.46	20.76	-40.7	-42.9	19.5	0.00e+00	0	41	0	784334848	53	4508
2026-01-23 22:34:34.42	126.68	20.68	-40.3	-42.4	19.9	0.00e+00	0	41	0	786432000	52	4531
2026-01-23 22:34:35.41	126.89	20.61	-40.4	-42.6	19.7	0.00e+00	0	41	0	787480576	52	4620
2026-01-23 22:34:36.40	127.10	20.53	-40.8	-43.1	19.3	0.00e+00	0	41	0	789577728	52	4885
2026-01-23 22:34:37.40	127.31	20.46	-41.2	-43.5	18.9	0.00e+00	0	41	0	791674880	53	4860
2026-01-23 22:34:38.39	127.52	20.38	-41.4	-43.8	18.6	0.00e+00	0	41	0	793772032	53	5014
2026-01-23 22:34:39.39	127.73	20.31	-41.7	-44.1	18.3	0.00e+00	0	41	0	795869184	53	5174
2026-01-23 22:34:40.38	127.93	20.23	-41.8	-44.3	18.2	0.00e+00	0	41	0	796917760	54	4993
2026-01-23 22:34:41.38	128.14	20.16	-41.9	-44.3	18.1	0.00e+00	0	41	0	799014912	54	5040
2026-01-23 22:34:42.37	128.35	20.08	-42.0	-44.5	18.0	0.00e+00	0	41	0	801112064	54	5134
2026-01-23 22:34:43.46	128.57	20.00	-42.2	-44.7	17.8	0.00e+00	0	41	0	803209216	55	4952
2026-01-23 22:34:44.34	128.75	19.93	-42.1	-44.5	18.0	0.00e+00	0	41	0	804257792	55	4860
2026-01-23 22:34:45.48	128.98	19.84	-41.7	-44.1	18.4	0.00e+00	0	41	0	806354944	55	4628
2026-01-23 22:34:46.40	129.17	19.77	-41.3	-43.6	18.8	0.00e+00	0	41	0	808452096	54	4618
2026-01-23 22:34:47.58	129.40	19.68	-40.7	-42.9	19.5	0.00e+00	0	41	0	810549248	53	4508
2026-01-23 22:34:48.44	129.58	19.62	-40.6	-42.7	19.6	0.00e+00	0	41	0	812646400	53	4435
2026-01-23 22:34:49.58	129.80	19.53	-40.3	-42.4	19.8	0.00e+00	0	41	0	814743552	52	4545
2026-01-23 22:34:50.43	129.97	19.46	-40.4	-42.5	19.8	0.00e+00	0	41	0	815792128	52	4570
2026-01-23 22:34:51.57	130.20	19.38	-41.0	-43.2	19.2	0.00e+00	0	41	0	817889280	52	4955
2026-01-23 22:34:52.42	130.36	19.31	-41.2	-43.5	19.0	0.00e+00	0	41	0	819986432	53	4867
2026-01-23 22:34:53.55	130.58	19.22	-41.8	-44.2	18.2	0.00e+00	0	41	0	822083584	54	4975
2026-01-23 22:34:54.41	130.75	19.16	-42.0	-44.5	18.0	0.00e+00	0	41	0	823132160	54	5120
2026-01-23 22:34:55.55	130.97	19.07	-41.8	-44.3	18.1	0.00e+00	0	41	0	825229312	54	5020
2026-01-23 22:34:56.40	131.14	19.00	-41.8	-44.2	18.2	1.22e-05	0	41	0	827326464	54	4979
2026-01-23 22:34:57.54	131.35	18.92	-41.3	-43.7	18.7	0.00e+00	0	41	0	829423616	54	4664
2026-01-23 22:34:58.39	131.52	18.85	-41.0	-43.3	19.0	0.00e+00	0	41	0	831520768	54	4469
2026-01-23 22:34:59.53	131.73	18.76	-40.7	-43.1	19.2	0.00e+00	0	41	0	833617920	53	4634
2026-01-23 22:35:00.38	131.89	18.70	-40.9	-43.2	19.2	0.00e+00	0	41	0	834666496	53	4660
2026-01-23 22:35:01.61	132.12	18.60	-41.1	-43.4	18.9	0.00e+00	0	41	0	836763648	53	4794
2026-01-23 22:35:02.46	132.28	18.53	-41.2	-43.5	18.9	0.00e+00	0	41	0	838860800	53	4834
2026-01-23 22:35:03.60	132.49	18.45	-41.2	-43.5	18.9	0.00e+00	0	41	0	840957952	53	4823
2026-01-23 22:35:04.45	132.65	18.38	-41.1	-43.4	19.0	0.00e+00	0	41	0	842006528	53	4770
2026-01-23 22:35:05.59	132.86	18.29	-40.9	-43.2	19.1	0.00e+00	0	41	0	844103680	53	4669
2026-01-23 22:35:06.45	133.02	18.22	-40.7	-43.0	19.4	0.00e+00	0	41	0	846200832	53	4554
2026-01-23 22:35:07.58	133.22	18.13	-40.5	-42.7	19.6	0.00e+00	0	41	0	848297984	53	4411
2026-01-23 22:35:08.43	133.38	18.07	-40.4	-42.6	19.7	0.00e+00	0	41	0	850395136	52	4617
2026-01-23 22:35:09.57	133.58	17.98	-40.6	-42.8	19.5	0.00e+00	0	41	0	852492288	52	4739
2026-01-23 22:35:10.42	133.74	17.91	-40.5	-42.7	19.6	0.00e+00	0	41	0	853540864	52	4677
2026-01-23 22:35:11.56	133.94	17.82	-40.8	-43.1	19.3	1.43e-04	0	41	0	855638016	52	4880
2026-01-23 22:35:12.41	134.09	17.76	-40.9	-43.2	19.2	0.00e+00	0	41	0	857735168	52	4954
2026-01-23 22:35:13.55	134.29	17.67	-41.1	-43.3	19.0	0.00e+00	0	41	0	859832320	52	5030
2026-01-23 22:35:14.40	134.44	17.60	-41.1	-43.3	19.0	1.17e-04	0	41	0	860880896	52	5037
2026-01-23 22:35:15.54	134.64	17.51	-40.9	-43.2	19.1	0.00e+00	0	41	0	862978048	53	4677
2026-01-23 22:35:16.39	134.79	17.45	-41.1	-43.4	18.9	0.00e+00	0	41	0	865075200	53	4789
2026-01-23 22:35:17.52	134.99	17.36	-41.1	-43.4	19.0	0.00e+00	0	41	0	867172352	53	4770
2026-01-23 22:35:18.38	135.13	17.29	-41.1	-43.3	19.0	0.00e+00	0	41	0	868220928	53	4753
2026-01-23 22:35:19.52	135.33	17.20	-41.4	-43.8	18.7	0.00e+00	0	41	0	870318080	53	4986
2026-01-23 22:35:20.37	135.47	17.14	-41.7	-44.1	18.3	0.00e+00	0	41	0	872415232	54	4921
2026-01-23 22:35:21.51	135.67	17.05	-42.1	-44.6	17.8	0.00e+00	0	41	0	874512384	54	5188
2026-01-23 22:35:22.36	135.81	16.98	-42.2	-44.8	17.7	0.00e+00	0	41	0	875560960	55	5000
2026-01-23 22:35:23.50	136.00	16.89	-42.2	-44.7	17.7	0.00e+00	0	41	0	877658112	55	4975
2026-01-23 22:35:24.35	136.15	16.83	-42.1	-44.6	17.8	0.00e+00	0	41	0	879755264	55	4908
2026-01-23 22:35:25.49	136.34	16.74	-41.8	-44.3	18.1	0.00e+00	0	41	0	881852416	55	4722
2026-01-23 22:35:26.34	136.48	16.67	-41.6	-44.1	18.3	2.94e-04	0	41	0	883949568	55	4618
2026-01-23 22:35:27.48	136.66	16.58	-41.5	-43.9	18.4	0.00e+00	0	41	0	886046720	55	4534
2026-01-23 22:35:28.34	136.80	16.51	-41.4	-43.8	18.6	0.00e+00	0	41	0	887095296	54	4730
2026-01-23 22:35:29.47	136.99	16.43	-41.1	-43.4	18.9	2.99e-04	0	41	0	889192448	54	4532
2026-01-23 22:35:30.32	137.13	16.36	-41.1	-43.4	18.9	0.00e+00	0	41	0	891289600	54	4513
2026-01-23 22:35:31.46	137.31	16.27	-41.0	-43.3	19.0	0.00e+00	0	41	0	893386752	54	4476
2026-01-23 22:35:32.31	137.45	16.20	-41.0	-43.3	19.0	0.00e+00	0	41	0	894435328	53	4715
2026-01-23 22:35:33.45	137.63	16.12	-40.9	-43.2	19.0	0.00e+00	0	41	0	896532480	53	4704
2026-01-23 22:35:34.30	137.77	16.05	-40.9	-43.2	19.1	0.00e+00	0	41	0	898629632	53	4681
2026-01-23 22:35:35.61	137.97	15.95	-40.8	-43.1	19.2	0.00e+00	0	41	0	900726784	53	4604
2026-01-23 22:35:36.32	138.08	15.89	-40.6	-42.8	19.4	0.00e+00	0	41	0	901775360	53	4487
2026-01-23 22:35:37.60	138.29	15.79	-40.5	-42.7	19.5	0.00e+00	0	41	0	904921088	52	4665
2026-01-23 22:35:38.33	138.40	15.74	-40.6	-42.7	19.5	0.00e+00	0	41	0	905969664	52	4702
2026-01-23 22:35:39.61	138.60	15.64	-40.7	-42.9	19.3	0.00e+00	0	41	0	908066816	52	4798
2026-01-23 22:35:40.33	138.71	15.58	-40.7	-42.9	19.3	0.00e+00	0	41	0	910163968	52	4813
2026-01-23 22:35:41.61	138.91	15.48	-40.9	-43.2	19.1	0.00e+00	0	41	0	912261120	52	4931
2026-01-23 22:35:42.32	139.01	15.43	-41.1	-43.4	18.9	0.00e+00	0	41	0	913309696	52	5067
2026-01-23 22:35:43.60	139.21	15.33	-41.2	-43.5	18.7	0.00e+00	0	41	0	915406848	53	4870
2026-01-23 22:35:44.47	139.34	15.26	-41.5	-43.9	18.4	0.00e+00	0	41	0	917504000	53	5056
2026-01-23 22:35:45.60	139.51	15.17	-41.8	-44.3	18.0	0.00e+00	0	41	0	919601152	54	5017
2026-01-23 22:35:46.61	139.66	15.10	-42.0	-44.6	17.8	0.00e+00	0	41	0	921698304	54	5166
2026-01-23 22:35:47.78	139.84	15.01	-42.3	-44.9	17.4	0.00e+00	0	41	0	923795456	55	5061
2026-01-23 22:35:48.66	139.97	14.94	-42.1	-44.8	17.6	0.00e+00	0	41	0	924844032	55	4986
2026-01-23 22:35:49.80	140.13	14.85	-42.1	-44.8	17.5	0.00e+00	0	41	0	926941184	55	5010
2026-01-23 22:35:50.65	140.26	14.79	-42.1	-44.7	17.5	0.00e+00	0	41	0	929038336	55	4982
2026-01-23 22:35:52.01	140.46	14.68	-41.9	-44.4	17.8	0.00e+00	0	41	0	931135488	55	4805
2026-01-23 22:35:52.72	140.56	14.63	-41.9	-44.5	17.8	0.00e+00	0	41	0	933232640	55	4827
2026-01-23 22:35:54.00	140.74	14.53	-41.6	-44.1	18.1	0.00e+00	0	41	0	935329792	55	4627
2026-01-23 22:35:54.72	140.85	14.47	-41.5	-44.0	18.2	0.00e+00	0	41	0	936378368	55	4551
2026-01-23 22:35:56.01	141.03	14.37	-41.5	-44.0	18.2	9.30e-05	0	41	0	939524096	54	4848
2026-01-23 22:35:56.73	141.13	14.32	-41.4	-43.9	18.3	0.00e+00	0	41	0	940572672	54	4779
2026-01-23 22:35:58.01	141.32	14.22	-41.2	-43.6	18.6	0.00e+00	0	41	0	942669824	54	4635
2026-01-23 22:35:58.74	141.42	14.17	-41.3	-43.8	18.4	0.00e+00	0	41	0	943718400	54	4712
2026-01-23 22:36:00.02	141.60	14.07	-41.1	-43.5	18.6	0.00e+00	0	41	0	946864128	54	4591
2026-01-23 22:36:00.75	141.70	14.01	-41.1	-43.5	18.7	0.00e+00	0	41	0	947912704	54	4548
2026-01-23 22:36:02.03	141.88	13.92	-41.0	-43.3	18.8	0.00e+00	0	41	0	950009856	53	4751
2026-01-23 22:36:02.74	141.97	13.86	-40.9	-43.3	18.4	0.00e+00	0	41	0	952107008	53	4716
2026-01-23 22:36:04.02	142.15	13.76	-40.7	-43.1	19.0	0.00e+00	0	41	0	954204160	53	4604
2026-01-23 22:36:04.73	142.25	13.71	-40.6	-43.0	19.1	0.00e+00	0	41	0	955252736	53	4546
2026-01-23 22:36:06.01	142.42	13.61	-40.7	-43.0	19.0	0.00e+00	0	41	0	957349888	53	4587
2026-01-23 22:36:06.74	142.52	13.56	-40.7	-43.0	19.0	0.00e+00	0	41	0	959447040	53	4592
2026-01-23 22:36:08.25	142.72	13.44	-40.8	-43.2	18.9	0.00e+00	0	41	0	961544192	53	4656
2026-01-23 22:36:08.96	142.82	13.39	-41.0	-43.4	18.7	0.00e+00	0	41	0	963641344	53	4784
2026-01-23 22:36:10.24	142.99	13.29	-41.3	-43.8	18.3	0.00e+00	0	41	0	965738496	53	4985
2026-01-23 22:36:10.95	143.08	13.24	-41.5	-43.9	18.2	2.18e-04	0	41	0	966787072	53	5081
2026-01-23 22:36:12.23	143.25	13.15	-41.7	-44.2	17.9	0.00e+00	0	41	0	969932800	54	4962
2026-01-23 22:36:12.96	143.35	13.09	-41.8	-44.3	17.8	0.00e+00	0	41	0	970981376	54	5034
2026-01-23 22:36:14.24	143.51	12.99	-42.0	-44.6	17.5	0.00e+00	0	41	0	973078528	54	5206
2026-01-23 22:36:14.98	143.61	12.94	-42.2	-44.8	17.3	0.00e+00	0	41	0	975175680	55	5030
2026-01-23 22:36:16.25	143.77	12.84	-42.2	-44.9	17.3	0.00e+00	0	41	0	977272832	55	5070
2026-01-23 22:36:16.98	143.87	12.79	-42.1	-44.8	17.4	0.00e+00	0	41	0	978321408	55	4999
2026-01-23 22:36:18.26	144.03	12.69	-42.2	-44.9	17.3	0.00e+00	0	41	0	980418560	55	5053
2026-01-23 22:36:19.03	144.13	12.64	-41.9	-44.6	17.6	0.00e+00	0	41	0	982515712	55	4872
2026-01-23 22:36:20.31	144.29	12.54	-41.9	-44.5	17.7	0.00e+00	0	41	0	984612864	55	4817
2026-01-23 22:36:21.03	144.38	12.49	-41.8	-44.3	17.8	0.00e+00	0	41	0	985661440	55	4744
2026-01-23 22:36:22.31	144.54	12.39	-41.7	-44.2	17.9	0.00e+00	0	41	0	988807168	55	4670
2026-01-23 22:36:23.12	144.64	12.33	-41.7	-44.2	17.9	0.00e+00	0	41	0	989855744	55	4696
2026-01-23 22:36:24.25	144.78	12.25	-41.7	-44.2	18.0	0.00e+00	0	41	0	991952896	55	4654
2026-01-23 22:36:25.11	144.89	12.19	-41.5	-44.3	17.7	2.44e-05	0	41	0	994050048	55	4748
2026-01-23 22:36:26.24	145.03	12.10	-41.8	-44.4	17.7	0.00e+00	0	41	0	996147200	55	4767
2026-01-23 22:36:27.10	145.14	12.04	-41.9	-44.5	17.6	0.00e+00	0	41	0	997195776	55	4848
2026-01-23 22:36:28.24	145.27	11.96	-42.2	-44.9	17.2	1.57e-04	0	41	0	999292928	55	5098
2026-01-23 22:36:29.37	145.41	11.87	-42.0	-44.7	17.4	0.00e+00	0	41	0	1001390080	55	4950
2026-01-23 22:36:30.23	145.51	11.81	-42.1	-44.9	17.2	0.00e+00	0	41	0	1003487232	55	5076
2026-01-23 22:36:31.71	145.69	11.70	-42.3	-45.1	17.0	0.00e+00	0	41	0	1005584384	55	5200
2026-01-23 22:36:32.42	145.78	11.65	-42.2	-45.1	17.0	0.00e+00	0	41	0	1007681536	55	5172
2026-01-23 22:36:33.70	145.93	11.56	-42.2	-45.1	17.0	0.00e+00	0	41	0	1009778688	55	5208
2026-01-23 22:36:34.43	146.02	11.50	-42.1	-45.0	17.1	0.00e+00	0	41	0	1010827264	55	5113
2026-01-23 22:36:35.71	146.17	11.41	-42.2	-45.1	17.0	0.00e+00	0	41	0	1013972992	55	5180
2026-01-23 22:36:36.43	146.25	11.36	-42.3	-45.2	17.0	0.00e+00	0	41	0	1015021568	55	5222
2026-01-23 22:36:37.71	146.40	11.27	-42.0	-44.7	17.3	0.00e+00	0	41	0	1017118720	55	4980
2026-01-23 22:36:38.45	146.49	11.21	-42.1	-44.9	17.1	0.00e+00	0	41	0	1018167296	55	5085
2026-01-23 22:36:39.73	146.63	11.12	-42.0	-44.7	17.3	0.00e+00	0	41	0	1021313024	55	4948
2026-01-23 22:36:40.44	146.71	11.07	-41.9	-44.6	17.5	3.00e-06	0	41	0	1022361600	55	4874
2026-01-23 22:36:41.72	146.86	10.98	-42.2	-44.9	17.1	0.00e+00	0	41	0	1024458752	55	5074
2026-01-23 22:36:42.70	146.97	10.91	-42.2	-44.9	17.1	3.80e-06	0	41	0	1026555904	55	5098
2026-01-23 22:36:43.99	147.12	10.81	-42.5	-45.3	16.8	0.00e+00	0	41	0	1028653056	55	5311
2026-01-23 22:36:44.70	147.20	10.76	-42.5	-45.3	16.7	0.00e+00	0	41	0	1030750208	55	5299
2026-01-23 22:36:45.98	147.34	10.67	-42.4	-45.2	16.8	0.00e+00	0	41	0	1032847360	55	5268
2026-01-23 22:36:46.69	147.42	10.62	-42.5	-45.4	16.6	0.00e+00	0	41	0	1033895936	55	5388
2026-01-23 22:36:47.97	147.56	10.53	-42.3	-45.2	16.8	0.00e+00	0	41	0	1037041664	55	5237
2026-01-23 22:36:48.71	147.64	10.48	-42.3	-45.1	16.9	0.00e+00	0	41	0	1038090240	55	5186
2026-01-23 22:36:49.99	147.78	10.39	-42.4	-45.3	16.6	0.00e+00	0	41	0	1040187392	55	5333
2026-01-23 22:36:50.72	147.86	10.33	-42.3	-45.2	16.8	0.00e+00	0	41	0	1041235968	55	5239
2026-01-23 22:36:52.00	148.00	10.24	-42.3	-45.1	16.9	7.00e-07	0	41	0	1044381696	55	5194
2026-01-23 22:36:52.71	148.08	10.19	-42.2	-45.0	17.0	0.00e+00	0	41	0	1045430272	55	5120
2026-01-23 22:36:54.03	148.22	10.10	-42.0	-44.7	17.2	0.00e+00	0	41	0	1047527424	55	4941
2026-01-23 22:36:54.75	148.30	10.05	-42.1	-44.9	17.0	0.00e+00	0	41	0	1049624576	55	5076
2026-01-23 22:36:56.07	148.44	9.96	-42.2	-44.9	17.0	0.00e+00	0	41	0	1051721728	55	5074
2026-01-23 22:36:56.78	148.52	9.91	-42.1	-44.8	17.2	0.00e+00	0	41	0	1052770304	55	4989
2026-01-23 22:36:58.14	148.66	9.81	-42.5	-45.3	16.7	9.10e-06	0	41	0	1055916032	55	5319
2026-01-23 22:36:58.85	148.74	9.76	-42.5	-45.3	16.6	0.00e+00	0	41	0	1056964608	55	5318
2026-01-23 22:37:00.20	148.88	9.67	-42.9	-45.9	16.3	0.00e+00	0	41	0	1059061760	56	5351
2026-01-23 22:37:00.91	148.95	9.62	-43.0	-46.0	16.1	0.00e+00	0	41	0	1061158912	56	5427
2026-01-23 22:37:02.27	149.09	9.52	-43.1	-46.1	16.0	0.00e+00	0	41	0	1063256064	56	5487
2026-01-23 22:37:02.98	149.17	9.47	-43.3	-46.5	15.6	0.00e+00	0	41	0	1064304640	57	5421
2026-01-23 22:37:04.29	149.30	9.38	-43.3	-46.6	15.5	0.00e+00	0	41	0	1067450368	57	5486
2026-01-23 22:37:05.00	149.37	9.33	-43.3	-46.6	15.5	0.00e+00	0	41	0	1068498944	57	5491
2026-01-23 22:37:06.28	149.50	9.24	-43.5	-46.9	15.2	0.00e+00	0	41	0	1070596096	57	5657
2026-01-23 22:37:07.00	149.58	9.19	-43.5	-46.8	15.3	0.00e+00	0	41	0	1072693248	57	5644
2026-01-23 22:37:08.35	149.71	9.10	-43.5	-46.8	15.2	7.00e-07	0	41	0	1074790400	57	5652
2026-01-23 22:37:09.06	149.78	9.05	-43.5	-46.8	15.3	0.00e+00	0	41	0	1075838976	58	5330
2026-01-23 22:37:10.34	149.91	8.96	-48.1	-63.1	3.8	7.63e-01	0	41	104	1077936128	67	20746
2026-01-23 22:37:11.05	149.98	8.92	-48.1	-63.4	3.8	1.49e+00	0	41	104	1077936128	67	21388
2026-01-23 22:37:12.32	150.11	8.83	-48.4	-63.7	3.8	1.49e+00	0	41	104	1077936128	67	22177
2026-01-23 22:37:13.03	150.18	8.78	-48.2	-63.8	3.8	1.49e+00	0	41	104	1077936128	67	22296
2026-01-23 22:37:14.31	150.31	8.69	-48.5	-63.8	3.8	1.49e+00	0	41	104	1077936128	67	22503
2026-01-23 22:37:15.03	150.38	8.64	-48.8	-64.1	3.8	1.49e+00	0	41	104	1077936128	68	21771
2026-01-23 22:37:16.31	150.50	8.56	-48.9	-64.1	3.8	1.49e+00	0	41	104	1077936128	68	21836
2026-01-23 22:37:17.02	150.57	8.51	-48.7	-64.1	3.8	1.49e+00	0	41	104	1077936128	68	21952
2026-01-23 22:37:18.30	150.69	8.42	-48.9	-64.2	3.8	1.49e+00	0	41	104	1077936128	68	22015
2026-01-23 22:37:19.01	150.76	8.37	-48.7	-64.2	3.8	1.49e+00	0	41	104	1077936128	68	22016
2026-01-23 22:37:20.29	150.88	8.29	-49.0	-64.2	3.8	1.49e+00	0	41	104	1077936128	68	22107
2026-01-23 22:37:21.09	150.96	8.23	-49.0	-64.2	3.8	1.49e+00	0	41	104	1077936128	68	22137
2026-01-23 22:37:22.22	151.07	8.16	-49.1	-64.2	3.8	1.49e+00	0	41	104	1077936128	68	22171
2026-01-23 22:37:23.25	151.16	8.09	-48.8	-64.2	3.8	1.49e+00	0	41	104	1077936128	68	22226
2026-01-23 22:37:24.42	151.27	8.01	-48.8	-64.3	3.8	1.49e+00	0	41	104	1077936128	68	22302
2026-01-23 22:37:25.30	151.36	7.95	-49.1	-64.3	3.8	1.49e+00	0	41	104	1077936128	68	22301
2026-01-23 22:37:26.61	151.48	7.86	-48.9	-64.3	3.8	1.49e+00	0	41	104	1077936128	68	22274
2026-01-23 22:37:27.32	151.54	7.82	-49.1	-64.2	3.8	1.49e+00	0	41	104	1077936128	68	22242
2026-01-23 22:37:28.82	151.68	7.72	-49.1	-64.3	3.8	1.49e+00	0	41	104	1077936128	68	22299
2026-01-23 22:37:29.53	151.75	7.67	-49.0	-64.3	3.8	1.49e+00	0	41	104	1077936128	68	22302
2026-01-23 22:37:30.87	151.87	7.58	-48.9	-64.3	3.8	1.49e+00	0	41	104	1077936128	68	22264
2026-01-23 22:37:31.58	151.93	7.53	-48.8	-64.2	3.8	1.49e+00	0	41	104	1077936128	68	22173
2026-01-23 22:37:32.85	152.05	7.45	-48.9	-64.2	3.8	1.49e+00	0	41	104	1077936128	68	22074
2026-01-23 22:37:33.56	152.11	7.40	-48.9	-64.2	3.8	1.49e+00	0	41	104	1077936128	68	22131
2026-01-23 22:37:34.84	152.23	7.32	-48.9	-64.2	3.8	1.49e+00	0	41	104	1077936128	68	22049
2026-01-23 22:37:35.56	152.29	7.27	-48.9	-64.2	3.8	1.49e+00	0	41	104	1077936128	68	22029
2026-01-23 22:37:36.84	152.41	7.19	-48.9	-64.2	3.8	1.49e+00	0	41	104	1077936128	68	22013
2026-01-23 22:37:37.55	152.47	7.14	-48.9	-64.2	3.8	1.49e+00	0	41	104	1077936128	68	22075
2026-01-23 22:37:38.83	152.58	7.05	-48.9	-64.2	3.8	1.49e+00	0	41	104	1077936128	68	22019
2026-01-23 22:37:39.54	152.64	7.01	-48.8	-64.1	3.8	1.49e+00	0	41	104	1077936128	68	22006
2026-01-23 22:37:40.81	152.76	6.93	-48.8	-64.2	3.8	1.49e+00	0	41	104	1077936128	68	22012
2026-01-23 22:37:41.54	152.82	6.88	-48.3	-64.1	3.8	1.49e+00	0	41	104	1077936128	68	21955
2026-01-23 22:37:42.82	152.93	6.79	-48.8	-64.2	3.8	1.49e+00	0	41	104	1077936128	68	22008
2026-01-23 22:37:43.53	152.99	6.75	-48.8	-64.2	3.8	1.49e+00	0	41	104	1077936128	68	22028
2026-01-23 22:37:44.80	153.10	6.67	-48.8	-64.1	3.8	1.49e+00	0	41	104	1077936128	68	21954
2026-01-23 22:37:45.51	153.16	6.62	-48.8	-64.1	3.8	1.49e+00	0	41	104	1077936128	68	21979
2026-01-23 22:37:46.79	153.27	6.54	-48.8	-64.1	3.8	1.49e+00	0	42	104	1077936128	68	21985
2026-01-23 22:37:47.50	153.33	6.49	-48.8	-64.1	3.8	1.49e+00	0	41	104	1077936128	68	21934
2026-01-23 22:37:48.78	153.44	6.41	-48.8	-64.1	3.8	1.49e+00	0	41	104	1077936128	68	21946
2026-01-23 22:37:49.49	153.50	6.36	-48.8	-64.1	3.8	1.49e+00	0	41	104	1077936128	68	21873
2026-01-23 22:37:50.76	153.60	6.28	-48.8	-64.1	3.8	1.49e+00	0	41	104	1077936128	68	21922
2026-01-23 22:37:51.47	153.66	6.24	-48.8	-64.1	3.8	1.49e+00	0	41	104	1077936128	68	21897
2026-01-23 22:37:52.75	153.77	6.15	-48.8	-64.1	3.8	1.49e+00	0	41	104	1077936128	68	21903
2026-01-23 22:37:53.46	153.83	6.11	-48.8	-64.1	3.8	1.49e+00	0	41	104	1077936128	68	21868
2026-01-23 22:37:54.74	153.93	6.03	-48.8	-64.1	3.8	1.49e+00	0	41	104	1077936128	68	21841
2026-01-23 22:37:55.45	153.99	5.98	-48.8	-64.1	3.8	1.49e+00	0	41	104	1077936128	68	21914
2026-01-23 22:37:56.72	154.10	5.90	-48.8	-64.1	3.8	1.49e+00	0	41	104	1077936128	68	21847
2026-01-23 22:37:57.43	154.15	5.86	-48.8	-64.1	3.8	1.49e+00	0	41	104	1077936128	68	21895
2026-01-23 22:37:58.71	154.26	5.78	-48.8	-64.1	3.8	1.49e+00	0	41	104	1077936128	68	21881
2026-01-23 22:37:59.42	154.32	5.73	-48.8	-64.1	3.8	1.49e+00	0	41	104	1077936128	68	21934
2026-01-23 22:38:00.70	154.42	5.65	-48.8	-64.1	3.8	1.49e+00	0	41	104	1077936128	68	21887
2026-01-23 22:38:01.41	154.48	5.60	-48.8	-64.1	3.8	1.49e+00	0	41	104	1077936128	68	21860
2026-01-23 22:38:02.69	154.58	5.52	-48.8	-64.1	3.8	1.49e+00	0	41	104	1077936128	68	21872
2026-01-23 22:38:03.43	154.64	5.48	-48.8	-64.1	3.8	1.49e+00	0	41	104	1077936128	68	21888
2026-01-23 22:38:04.70	154.74	5.40	-48.8	-64.1	3.8	1.49e+00	0	42	104	1077936128	68	21917
2026-01-23 22:38:05.41	154.79	5.35	-48.8	-64.1	3.8	1.49e+00	0	41	104	1077936128	68	21878
2026-01-23 22:38:06.69	154.89	5.27	-48.8	-64.1	3.8	1.49e+00	0	41	104	1077936128	68	21918
2026-01-23 22:38:07.40	154.95	5.23	-48.8	-64.1	3.8	1.49e+00	0	41	104	1077936128	68	21903
2026-01-23 22:38:08.68	155.05	5.15	-48.8	-64.1	3.8	1.49e+00	0	41	104	1077936128	68	21879
2026-01-23 22:38:09.39	155.10	5.11	-48.8	-64.1	3.8	1.49e+00	0	42	104	1077936128	68	21840
2026-01-23 22:38:10.67	155.20	5.03	-48.8	-64.1	3.8	1.49e+00	0	41	104	1077936128	68	21880
2026-01-23 22:38:11.37	155.26	4.98	-48.8	-64.1	3.8	1.49e+00	0	42	104	1077936128	68	21831

#Closed at: 2026-01-23 22:38:12
#Recorded file [1077 MB]: D:/Data/31040_260124_012636.dat