passes_logs/2026/01/23/T1/T1__20260123_101600_SUOMI_NPP_rec.log

#Pass ID: 20260123_101600_SUOMI NPP
#Satellite: SUOMI NPP
#Configuration: NPP
#almurnet v.1.7.20251203
#Start time: 2026-01-23 10:16:01

#Version: 2.0.20230620
#Station: T1
#Location: 37.570604 lon 55.790049 lat
#TLE: 1 37849U 11061A   26022.50498765  .00000208  00000+0  11976-3 0  9992
#TLE: 2 37849  98.7820 324.4892 0002275  50.8149 309.3229 14.19528284737775

#Time	Az	El	Level	Level2	SNR	BER	BlckErr	Temp	State	Recorded	gain1	gain2
2026-01-23 10:16:01.22	168.49	5.02	-49.1	-64.5	3.8	1.49e+00	0	39	0	0	69	21715
2026-01-23 10:16:02.22	168.51	5.10	-45.6	-63.8	3.8	1.49e+00	0	39	104	0	63	28078
2026-01-23 10:16:03.21	168.53	5.17	-45.6	-63.7	3.8	1.49e+00	0	39	104	0	63	27971
2026-01-23 10:16:04.21	168.54	5.24	-45.6	-63.7	3.8	1.49e+00	0	39	104	0	63	27823
2026-01-23 10:16:05.21	168.56	5.31	-45.5	-63.8	3.8	1.49e+00	0	39	104	0	63	28051
2026-01-23 10:16:06.20	168.58	5.38	-45.5	-63.8	3.8	1.49e+00	0	39	104	0	63	28155
2026-01-23 10:16:07.20	168.59	5.46	-45.5	-63.8	3.8	1.49e+00	0	39	104	0	62	29890
2026-01-23 10:16:08.20	168.61	5.53	-45.5	-63.8	3.8	1.49e+00	0	39	104	0	62	29973
2026-01-23 10:16:09.20	168.63	5.60	-45.5	-63.9	3.8	1.49e+00	0	39	104	0	62	30186
2026-01-23 10:16:10.21	168.64	5.68	-45.6	-63.9	3.8	1.49e+00	0	39	104	0	62	30278
2026-01-23 10:16:11.20	168.66	5.75	-45.7	-63.9	3.8	1.49e+00	0	40	104	0	62	30266
2026-01-23 10:16:12.21	168.68	5.82	-45.6	-63.9	3.8	1.49e+00	0	39	104	0	62	30239
2026-01-23 10:16:13.20	168.69	5.90	-45.6	-63.9	3.8	1.49e+00	0	39	104	0	62	30171
2026-01-23 10:16:14.20	168.71	5.97	-45.6	-63.8	3.8	1.49e+00	0	39	104	0	62	29878
2026-01-23 10:16:15.19	168.73	6.04	-45.6	-63.7	3.8	1.49e+00	0	39	104	0	62	29642
2026-01-23 10:16:16.19	168.74	6.12	-45.6	-63.6	3.8	1.49e+00	0	39	104	0	62	29177
2026-01-23 10:16:17.19	168.76	6.19	-45.5	-63.5	3.8	1.49e+00	0	39	104	0	62	28985
2026-01-23 10:16:18.19	168.78	6.27	-45.6	-63.5	3.8	1.49e+00	0	39	104	0	62	28685
2026-01-23 10:16:19.20	168.80	6.34	-45.6	-63.5	3.8	1.49e+00	0	40	104	0	62	28761
2026-01-23 10:16:20.19	168.81	6.42	-45.7	-63.5	3.8	1.49e+00	0	39	104	0	62	28843
2026-01-23 10:16:21.19	168.83	6.49	-45.7	-63.6	3.8	1.49e+00	0	40	104	0	62	29197
2026-01-23 10:16:22.19	168.85	6.57	-45.7	-63.7	3.8	1.49e+00	0	40	104	0	62	29498
2026-01-23 10:16:23.19	168.87	6.64	-45.7	-63.9	3.8	1.49e+00	0	40	104	0	62	30061
2026-01-23 10:16:24.19	168.88	6.72	-45.8	-64.0	3.8	1.49e+00	0	40	104	0	62	30439
2026-01-23 10:16:25.19	168.90	6.80	-45.7	-64.1	3.8	1.49e+00	0	40	104	0	62	30801
2026-01-23 10:16:26.18	168.92	6.87	-45.6	-64.2	3.8	1.49e+00	0	40	104	0	62	31100
2026-01-23 10:16:27.18	168.94	6.95	-45.7	-64.1	3.8	1.49e+00	0	40	104	0	62	31029
2026-01-23 10:16:28.18	168.96	7.03	-45.7	-64.1	3.8	1.49e+00	0	40	104	0	62	31021
2026-01-23 10:16:29.18	168.97	7.10	-45.7	-64.1	3.8	1.49e+00	0	40	104	0	62	30742
2026-01-23 10:16:30.18	168.99	7.18	-45.7	-64.0	3.8	1.49e+00	0	40	104	0	62	30522
2026-01-23 10:16:31.18	169.01	7.26	-45.7	-63.8	3.8	1.49e+00	0	40	104	0	62	29973
2026-01-23 10:16:32.18	169.03	7.34	-45.7	-63.6	3.8	1.49e+00	0	40	104	0	62	29037
2026-01-23 10:16:33.18	169.05	7.42	-45.6	-63.0	3.8	1.49e+00	0	40	104	0	62	27383
2026-01-23 10:16:34.18	169.07	7.49	-45.5	-62.3	3.8	1.49e+00	0	40	104	0	62	25155
2026-01-23 10:16:35.18	169.08	7.57	-45.5	-61.3	3.9	1.49e+00	0	40	104	0	62	22263
2026-01-23 10:16:36.18	169.10	7.65	-45.4	-59.7	4.4	1.26e+00	0	40	0	0	62	18711
2026-01-23 10:16:37.18	169.12	7.73	-45.3	-58.4	5.1	7.94e-01	0	40	0	2097152	62	15986
2026-01-23 10:16:38.17	169.14	7.81	-45.3	-57.2	5.8	5.04e-01	0	40	0	4194304	62	13978
2026-01-23 10:16:39.17	169.16	7.89	-45.1	-55.9	6.9	2.61e-01	0	40	0	5242880	62	12014
2026-01-23 10:16:40.17	169.18	7.97	-45.1	-55.1	7.6	9.91e-02	0	40	0	7340032	62	10958
2026-01-23 10:16:41.17	169.20	8.05	-44.9	-54.1	7.5	5.16e-02	0	40	0	9437184	61	10321
2026-01-23 10:16:42.17	169.22	8.13	-44.9	-53.5	9.3	2.63e-02	0	40	0	11534336	61	9615
2026-01-23 10:16:43.17	169.24	8.21	-44.7	-52.9	9.8	1.43e-02	0	40	0	12582912	61	9046
2026-01-23 10:16:44.16	169.26	8.29	-44.7	-52.6	10.2	1.31e-02	0	40	0	14680064	61	8718
2026-01-23 10:16:45.16	169.28	8.37	-44.7	-52.6	10.2	5.16e-03	0	40	0	16777216	61	8684
2026-01-23 10:16:46.16	169.30	8.45	-44.7	-52.7	10.0	6.94e-03	0	40	0	18874368	61	8829
2026-01-23 10:16:47.16	169.31	8.54	-44.7	-52.9	9.8	1.51e-02	0	40	0	20971520	61	8984
2026-01-23 10:16:48.16	169.33	8.62	-44.9	-53.8	9.0	1.67e-02	0	40	0	22020096	61	9953
2026-01-23 10:16:49.17	169.35	8.70	-45.0	-54.3	8.4	3.43e-02	0	40	0	24117248	61	10575
2026-01-23 10:16:50.16	169.37	8.78	-45.0	-55.3	7.5	6.31e-02	0	40	0	26214400	61	11828
2026-01-23 10:16:51.17	169.40	8.87	-45.3	-56.5	6.4	2.04e-01	0	40	0	28311552	61	13654
2026-01-23 10:16:52.16	169.42	8.95	-45.4	-58.1	5.3	3.90e-01	0	40	0	30408704	61	16344
2026-01-23 10:16:53.16	169.44	9.03	-45.5	-59.7	4.5	7.93e-01	0	40	0	31457280	61	19805
2026-01-23 10:16:54.16	169.46	9.12	-45.7	-59.5	4.5	1.12e+00	0	40	0	33554432	62	18148
2026-01-23 10:16:55.16	169.48	9.20	-45.5	-53.4	9.5	2.38e-02	0	40	0	35651584	62	9015
2026-01-23 10:16:56.16	169.50	9.28	-45.3	-63.1	3.8	1.20e+00	0	40	104	36700160	62	27588
2026-01-23 10:16:57.16	169.52	9.37	-46.2	-57.6	5.6	1.48e+00	0	40	0	36700160	63	13759
2026-01-23 10:16:58.16	169.54	9.45	-43.8	-48.3	14.5	7.93e-05	0	41	0	38797312	59	5982
2026-01-23 10:16:59.16	169.56	9.54	-43.7	-48.3	14.6	7.00e-07	0	41	0	39845888	59	5949
2026-01-23 10:17:00.16	169.58	9.62	-43.2	-47.4	15.5	0.00e+00	0	41	0	41943040	58	5672
2026-01-23 10:17:01.16	169.60	9.71	-43.3	-47.5	15.4	0.00e+00	0	41	0	44040192	58	5740
2026-01-23 10:17:02.16	169.62	9.80	-43.3	-47.5	15.3	0.00e+00	0	40	0	46137344	58	5784
2026-01-23 10:17:03.16	169.64	9.88	-43.2	-47.2	15.7	0.00e+00	0	40	0	47185920	58	5583
2026-01-23 10:17:04.16	169.67	9.97	-43.3	-47.5	15.1	0.00e+00	0	41	0	49283072	58	5782
2026-01-23 10:17:05.15	169.69	10.05	-43.0	-47.0	15.9	0.00e+00	0	41	0	51380224	58	5419
2026-01-23 10:17:06.16	169.71	10.14	-42.9	-46.7	16.2	0.00e+00	0	41	0	53477376	57	5586
2026-01-23 10:17:07.15	169.73	10.23	-42.8	-46.6	16.3	0.00e+00	0	41	0	55574528	57	5501
2026-01-23 10:17:08.15	169.75	10.32	-42.8	-46.7	16.2	0.00e+00	0	41	0	56623104	57	5562
2026-01-23 10:17:09.15	169.78	10.41	-42.7	-46.4	16.5	0.00e+00	0	41	0	58720256	57	5401
2026-01-23 10:17:10.15	169.80	10.49	-42.7	-46.6	16.4	0.00e+00	0	41	0	60817408	57	5465
2026-01-23 10:17:11.15	169.82	10.58	-42.6	-46.3	16.6	0.00e+00	0	41	0	62914560	57	5304
2026-01-23 10:17:12.14	169.84	10.67	-42.6	-46.2	16.7	0.00e+00	0	41	0	65011712	57	5257
2026-01-23 10:17:13.14	169.86	10.76	-42.6	-46.2	16.7	0.00e+00	0	41	0	66060288	57	5274
2026-01-23 10:17:14.14	169.89	10.85	-42.5	-46.0	16.9	0.00e+00	0	41	0	68157440	57	5121
2026-01-23 10:17:15.13	169.91	10.94	-42.5	-45.9	17.0	0.00e+00	0	41	0	70254592	57	5099
2026-01-23 10:17:16.13	169.93	11.03	-42.5	-45.8	17.1	0.00e+00	0	41	0	72351744	56	5306
2026-01-23 10:17:17.13	169.96	11.12	-42.5	-45.8	17.1	0.00e+00	0	41	0	74448896	56	5287
2026-01-23 10:17:18.13	169.98	11.21	-42.5	-45.6	17.3	0.00e+00	0	41	0	75497472	56	5208
2026-01-23 10:17:19.13	170.00	11.30	-42.5	-45.6	17.4	0.00e+00	0	41	0	77594624	56	5189
2026-01-23 10:17:20.13	170.03	11.39	-42.6	-45.6	17.3	0.00e+00	0	41	0	79691776	56	5200
2026-01-23 10:17:21.13	170.05	11.49	-42.7	-45.6	17.3	0.00e+00	0	41	0	81788928	56	5211
2026-01-23 10:17:22.13	170.07	11.58	-42.7	-45.7	17.2	0.00e+00	0	41	0	82837504	56	5274
2026-01-23 10:17:23.12	170.10	11.67	-42.7	-45.6	17.4	0.00e+00	0	41	0	84934656	56	5172
2026-01-23 10:17:24.12	170.12	11.76	-42.8	-45.6	17.4	0.00e+00	0	41	0	87031808	56	5190
2026-01-23 10:17:25.12	170.14	11.86	-42.7	-45.5	17.5	7.00e-07	0	41	0	89128960	56	5113
2026-01-23 10:17:26.11	170.17	11.95	-42.6	-45.3	17.6	0.00e+00	0	41	0	91226112	56	5039
2026-01-23 10:17:27.11	170.19	12.04	-42.7	-45.4	17.6	0.00e+00	0	41	0	92274688	56	5057
2026-01-23 10:17:28.11	170.22	12.14	-42.7	-45.4	17.6	0.00e+00	0	41	0	94371840	56	5065
2026-01-23 10:17:29.11	170.24	12.23	-42.7	-45.4	17.5	0.00e+00	0	41	0	96468992	56	5097
2026-01-23 10:17:30.11	170.27	12.33	-42.7	-45.4	17.6	0.00e+00	0	41	0	98566144	56	5052
2026-01-23 10:17:31.11	170.29	12.42	-42.5	-45.1	17.9	0.00e+00	0	41	0	99614720	56	4888
2026-01-23 10:17:32.10	170.32	12.52	-42.5	-45.1	17.9	0.00e+00	0	41	0	101711872	56	4871
2026-01-23 10:17:33.10	170.34	12.62	-42.5	-45.1	17.9	4.80e-03	0	41	0	103809024	56	4884
2026-01-23 10:17:34.10	170.37	12.71	-42.4	-44.9	18.0	0.00e+00	0	41	0	105906176	56	4790
2026-01-23 10:17:35.10	170.39	12.81	-42.3	-44.8	18.1	0.00e+00	0	41	0	108003328	56	4745
2026-01-23 10:17:36.10	170.42	12.91	-42.2	-44.7	18.3	2.49e-03	0	41	0	109051904	56	4658
2026-01-23 10:17:37.10	170.44	13.01	-42.2	-44.7	18.3	0.00e+00	0	41	0	111149056	56	4669
2026-01-23 10:17:38.10	170.47	13.10	-42.2	-44.6	18.3	0.00e+00	0	41	0	113246208	56	4631
2026-01-23 10:17:39.10	170.50	13.20	-42.2	-44.6	18.3	0.00e+00	0	41	0	115343360	56	4639
2026-01-23 10:17:40.10	170.52	13.30	-42.2	-44.6	18.3	0.00e+00	0	41	0	117440512	56	4636
2026-01-23 10:17:41.10	170.55	13.40	-42.1	-44.6	18.4	0.00e+00	0	41	0	118489088	56	4599
2026-01-23 10:17:42.10	170.58	13.50	-42.1	-44.5	18.4	0.00e+00	0	41	0	120586240	56	4582
2026-01-23 10:17:43.10	170.60	13.60	-42.1	-44.5	18.5	0.00e+00	0	41	0	122683392	56	4572
2026-01-23 10:17:44.10	170.63	13.70	-41.7	-44.1	18.7	0.00e+00	0	41	0	124780544	55	4633
2026-01-23 10:17:45.10	170.66	13.80	-41.9	-44.4	18.5	0.00e+00	0	41	0	125829120	55	4761
2026-01-23 10:17:46.10	170.68	13.90	-41.7	-44.2	18.6	0.00e+00	0	41	0	127926272	55	4661
2026-01-23 10:17:47.09	170.71	14.01	-41.8	-44.3	18.5	0.00e+00	0	41	0	130023424	55	4714
2026-01-23 10:17:48.09	170.74	14.11	-41.7	-44.2	18.6	0.00e+00	0	41	0	132120576	55	4678
2026-01-23 10:17:49.09	170.77	14.21	-41.7	-44.2	18.6	0.00e+00	0	41	0	134217728	55	4676
2026-01-23 10:17:50.08	170.79	14.31	-41.8	-44.3	18.5	0.00e+00	0	41	0	135266304	55	4727
2026-01-23 10:17:51.08	170.82	14.42	-41.8	-44.2	18.5	0.00e+00	0	41	0	137363456	55	4694
2026-01-23 10:17:52.09	170.85	14.52	-41.6	-44.0	18.8	0.00e+00	0	41	0	139460608	55	4572
2026-01-23 10:17:53.09	170.88	14.63	-41.8	-44.2	18.5	0.00e+00	0	41	0	141557760	55	4700
2026-01-23 10:17:54.09	170.91	14.73	-41.7	-44.2	18.6	0.00e+00	0	41	0	143654912	55	4663
2026-01-23 10:17:55.09	170.94	14.84	-41.8	-44.2	18.5	0.00e+00	0	41	0	144703488	55	4704
2026-01-23 10:17:56.09	170.96	14.94	-41.5	-43.9	18.9	0.00e+00	0	41	0	146800640	55	4518
2026-01-23 10:17:57.09	170.99	15.05	-41.6	-44.1	18.8	0.00e+00	0	41	0	148897792	55	4603
2026-01-23 10:17:58.09	171.02	15.16	-41.6	-44.1	18.7	0.00e+00	0	41	0	150994944	55	4600
2026-01-23 10:17:59.09	171.05	15.26	-41.7	-44.1	18.7	0.00e+00	0	41	0	153092096	55	4621
2026-01-23 10:18:00.09	171.08	15.37	-41.6	-44.0	18.8	0.00e+00	0	41	0	154140672	55	4583
2026-01-23 10:18:01.08	171.11	15.48	-41.6	-44.0	18.8	0.00e+00	0	41	0	156237824	55	4562
2026-01-23 10:18:02.08	171.14	15.59	-41.5	-43.9	18.9	0.00e+00	0	41	0	158334976	55	4505
2026-01-23 10:18:03.08	171.17	15.70	-41.6	-44.0	18.8	0.00e+00	0	41	0	160432128	54	4854
2026-01-23 10:18:04.08	171.20	15.81	-41.6	-44.0	18.8	0.00e+00	0	41	0	161480704	54	4861
2026-01-23 10:18:05.08	171.23	15.92	-41.5	-43.9	18.9	0.00e+00	0	41	0	163577856	54	4799
2026-01-23 10:18:06.08	171.26	16.03	-41.7	-44.1	18.7	0.00e+00	0	41	0	165675008	54	4903
2026-01-23 10:18:07.08	171.30	16.14	-41.6	-43.9	18.9	0.00e+00	0	41	0	167772160	54	4802
2026-01-23 10:18:08.08	171.33	16.25	-41.6	-44.0	18.8	0.00e+00	0	41	0	169869312	54	4835
2026-01-23 10:18:09.08	171.36	16.36	-41.6	-44.0	18.8	0.00e+00	0	41	0	170917888	54	4815
2026-01-23 10:18:10.07	171.39	16.47	-41.6	-43.9	18.9	0.00e+00	0	41	0	173015040	54	4799
2026-01-23 10:18:11.06	171.42	16.59	-41.6	-44.0	18.8	0.00e+00	0	41	0	175112192	54	4827
2026-01-23 10:18:12.06	171.45	16.70	-41.5	-43.8	19.0	0.00e+00	0	41	0	177209344	54	4730
2026-01-23 10:18:13.06	171.49	16.81	-41.6	-43.9	18.9	0.00e+00	0	41	0	179306496	54	4783
2026-01-23 10:18:14.06	171.52	16.93	-41.6	-44.0	18.8	0.00e+00	0	41	0	180355072	54	4825
2026-01-23 10:18:15.06	171.55	17.05	-41.8	-44.2	18.7	0.00e+00	0	41	0	182452224	54	4944
2026-01-23 10:18:16.06	171.59	17.16	-41.8	-44.2	18.6	0.00e+00	0	41	0	184549376	54	4949
2026-01-23 10:18:17.06	171.62	17.28	-41.8	-44.2	18.7	0.00e+00	0	41	0	186646528	54	4931
2026-01-23 10:18:18.06	171.65	17.39	-41.7	-44.1	18.8	0.00e+00	0	41	0	187695104	54	4877
2026-01-23 10:18:19.06	171.69	17.51	-41.8	-44.1	18.7	0.00e+00	0	41	0	189792256	54	4922
2026-01-23 10:18:20.05	171.72	17.63	-41.9	-44.4	18.5	0.00e+00	0	41	0	191889408	54	5061
2026-01-23 10:18:21.05	171.75	17.75	-41.8	-44.2	18.6	0.00e+00	0	41	0	193986560	54	4967
2026-01-23 10:18:22.05	171.79	17.87	-41.9	-44.3	18.6	0.00e+00	0	41	0	196083712	54	4991
2026-01-23 10:18:23.05	171.82	17.99	-41.8	-44.2	18.7	0.00e+00	0	41	0	197132288	54	4945
2026-01-23 10:18:24.05	171.86	18.11	-41.9	-44.3	18.6	0.00e+00	0	41	0	199229440	54	5010
2026-01-23 10:18:25.04	171.89	18.23	-42.1	-44.6	18.3	0.00e+00	0	41	0	201326592	54	5165
2026-01-23 10:18:26.04	171.93	18.35	-42.1	-44.6	18.3	0.00e+00	0	41	0	203423744	54	5165
2026-01-23 10:18:27.04	171.96	18.47	-42.1	-44.5	18.3	0.00e+00	0	41	0	205520896	54	5159
2026-01-23 10:18:28.04	172.00	18.59	-42.2	-44.8	18.1	0.00e+00	0	41	0	206569472	55	4998
2026-01-23 10:18:29.04	172.04	18.72	-42.3	-44.9	18.1	0.00e+00	0	41	0	208666624	55	5063
2026-01-23 10:18:30.04	172.07	18.84	-42.3	-44.8	18.1	0.00e+00	0	41	0	210763776	55	5032
2026-01-23 10:18:31.03	172.11	18.96	-42.4	-45.0	17.9	0.00e+00	0	41	0	212860928	55	5154
2026-01-23 10:18:32.03	172.15	19.09	-42.4	-45.0	17.9	0.00e+00	0	41	0	213909504	55	5143
2026-01-23 10:18:33.03	172.18	19.22	-42.5	-45.1	17.8	0.00e+00	0	41	0	216006656	55	5201
2026-01-23 10:18:34.03	172.22	19.34	-42.6	-45.2	17.8	0.00e+00	0	41	0	218103808	55	5233
2026-01-23 10:18:35.02	172.26	19.47	-42.8	-45.5	17.6	0.00e+00	0	41	0	220200960	56	5110
2026-01-23 10:18:36.02	172.30	19.60	-42.8	-45.5	17.7	0.00e+00	0	41	0	222298112	56	5108
2026-01-23 10:18:37.02	172.34	19.72	-43.0	-45.7	17.5	0.00e+00	0	41	0	223346688	56	5228
2026-01-23 10:18:38.01	172.38	19.85	-42.9	-45.5	17.7	0.00e+00	0	41	0	225443840	56	5121
2026-01-23 10:18:39.01	172.41	19.98	-42.9	-45.5	17.6	0.00e+00	0	41	0	227540992	56	5154
2026-01-23 10:18:40.01	172.45	20.11	-43.0	-45.7	17.5	0.00e+00	0	41	0	229638144	56	5263
2026-01-23 10:18:41.01	172.49	20.24	-43.1	-45.8	17.4	0.00e+00	0	41	0	231735296	56	5280
2026-01-23 10:18:42.01	172.53	20.37	-42.9	-45.5	17.1	0.00e+00	0	41	0	232783872	56	5150
2026-01-23 10:18:43.01	172.57	20.51	-43.1	-45.8	17.4	0.00e+00	0	41	0	234881024	57	5008
2026-01-23 10:18:44.00	172.62	20.64	-43.0	-45.6	17.5	0.00e+00	0	41	0	236978176	57	4922
2026-01-23 10:18:45.00	172.66	20.77	-43.3	-46.1	17.1	0.00e+00	0	41	0	239075328	57	5190
2026-01-23 10:18:46.00	172.70	20.91	-43.2	-45.9	17.3	0.00e+00	0	41	0	240123904	57	5075
2026-01-23 10:18:47.00	172.74	21.04	-43.0	-45.7	17.5	0.00e+00	0	41	0	242221056	57	4943
2026-01-23 10:18:48.00	172.78	21.18	-43.0	-45.6	17.5	0.00e+00	0	41	0	244318208	57	4909
2026-01-23 10:18:49.00	172.82	21.31	-43.2	-45.9	17.3	0.00e+00	0	41	0	246415360	57	5073
2026-01-23 10:18:49.99	172.87	21.45	-43.0	-45.7	17.4	0.00e+00	0	41	0	248512512	57	4957
2026-01-23 10:18:50.99	172.91	21.59	-43.2	-46.0	17.3	0.00e+00	0	41	0	249561088	57	5107
2026-01-23 10:18:51.99	172.95	21.73	-43.3	-46.1	17.1	0.00e+00	0	41	0	251658240	57	5192
2026-01-23 10:18:52.98	173.00	21.87	-43.3	-46.0	17.2	0.00e+00	0	41	0	253755392	57	5139
2026-01-23 10:18:53.98	173.04	22.01	-43.3	-46.1	17.1	0.00e+00	0	42	0	255852544	57	5172
2026-01-23 10:18:54.98	173.09	22.15	-43.4	-46.2	16.9	0.00e+00	0	41	0	256901120	57	5252
2026-01-23 10:18:55.98	173.13	22.29	-43.4	-46.1	17.0	0.00e+00	0	41	0	258998272	57	5201
2026-01-23 10:18:56.98	173.18	22.43	-43.3	-46.0	17.2	0.00e+00	0	41	0	261095424	57	5157
2026-01-23 10:18:57.98	173.22	22.58	-43.4	-46.1	17.1	0.00e+00	0	41	0	263192576	57	5176
2026-01-23 10:18:58.98	173.27	22.72	-43.2	-45.8	17.4	0.00e+00	0	41	0	265289728	57	5039
2026-01-23 10:18:59.98	173.31	22.86	-43.3	-46.0	17.2	0.00e+00	0	41	0	266338304	57	5119
2026-01-23 10:19:00.97	173.36	23.01	-43.2	-45.8	17.3	0.00e+00	0	41	0	268435456	57	5013
2026-01-23 10:19:01.97	173.41	23.16	-43.4	-46.1	17.2	0.00e+00	0	41	0	270532608	57	5167
2026-01-23 10:19:02.98	173.46	23.30	-43.1	-45.6	17.5	0.00e+00	0	41	0	272629760	57	4916
2026-01-23 10:19:03.97	173.50	23.45	-42.8	-45.3	17.8	0.00e+00	0	41	0	274726912	57	4732
2026-01-23 10:19:04.98	173.55	23.60	-42.9	-45.5	17.4	0.00e+00	0	41	0	275775488	57	4844
2026-01-23 10:19:05.98	173.60	23.75	-43.0	-45.6	17.6	0.00e+00	0	41	0	277872640	57	4908
2026-01-23 10:19:06.98	173.65	23.90	-42.9	-45.4	17.8	0.00e+00	0	42	0	279969792	57	4801
2026-01-23 10:19:07.98	173.70	24.05	-43.0	-45.6	17.6	0.00e+00	0	41	0	282066944	57	4887
2026-01-23 10:19:08.98	173.75	24.21	-43.0	-45.5	17.7	0.00e+00	0	41	0	284164096	57	4857
2026-01-23 10:19:09.97	173.80	24.36	-43.0	-45.5	17.6	0.00e+00	0	41	0	285212672	57	4870
2026-01-23 10:19:10.97	173.85	24.51	-43.1	-45.7	17.5	0.00e+00	0	41	0	287309824	57	4936
2026-01-23 10:19:11.97	173.91	24.67	-43.0	-45.6	17.6	0.00e+00	0	42	0	289406976	57	4920
2026-01-23 10:19:12.97	173.96	24.82	-42.8	-45.4	17.8	0.00e+00	0	42	0	291504128	57	4763
2026-01-23 10:19:13.97	174.01	24.98	-42.7	-45.3	17.9	0.00e+00	0	42	0	292552704	57	4706
2026-01-23 10:19:14.97	174.06	25.14	-42.7	-45.2	18.0	0.00e+00	0	41	0	294649856	57	4691
2026-01-23 10:19:15.96	174.12	25.30	-42.5	-44.9	18.2	0.00e+00	0	41	0	296747008	56	4813
2026-01-23 10:19:16.97	174.17	25.46	-42.6	-45.0	18.2	0.00e+00	0	41	0	298844160	56	4862
2026-01-23 10:19:17.97	174.23	25.62	-42.3	-44.7	18.5	0.00e+00	0	42	0	300941312	56	4701
2026-01-23 10:19:18.97	174.28	25.78	-42.4	-44.8	18.4	0.00e+00	0	42	0	301989888	56	4734
2026-01-23 10:19:19.97	174.34	25.94	-42.6	-45.1	18.1	0.00e+00	0	41	0	304087040	56	4917
2026-01-23 10:19:20.96	174.39	26.11	-42.7	-45.2	18.0	0.00e+00	0	42	0	306184192	56	4955
2026-01-23 10:19:21.97	174.45	26.27	-42.5	-45.0	18.2	0.00e+00	0	41	0	308281344	56	4839
2026-01-23 10:19:22.96	174.51	26.44	-42.9	-45.4	17.9	0.00e+00	0	42	0	310378496	56	5082
2026-01-23 10:19:23.97	174.57	26.60	-42.8	-45.4	17.9	0.00e+00	0	41	0	311427072	56	5052
2026-01-23 10:19:24.97	174.63	26.77	-42.8	-45.3	17.9	0.00e+00	0	41	0	313524224	56	5028
2026-01-23 10:19:25.97	174.69	26.94	-42.7	-45.2	18.0	0.00e+00	0	41	0	315621376	56	4954
2026-01-23 10:19:26.96	174.75	27.11	-42.9	-45.4	17.8	0.00e+00	0	41	0	317718528	56	5059
2026-01-23 10:19:27.96	174.81	27.28	-42.7	-45.1	18.1	0.00e+00	0	41	0	318767104	56	4916
2026-01-23 10:19:28.96	174.87	27.45	-42.6	-45.0	18.2	0.00e+00	0	41	0	320864256	56	4850
2026-01-23 10:19:29.96	174.93	27.62	-42.6	-45.1	18.2	0.00e+00	0	41	0	322961408	56	4881
2026-01-23 10:19:30.96	174.99	27.80	-42.5	-45.0	18.3	0.00e+00	0	41	0	325058560	56	4822
2026-01-23 10:19:31.96	175.05	27.97	-42.7	-45.2	18.0	0.00e+00	0	41	0	327155712	56	4973
2026-01-23 10:19:32.95	175.12	28.15	-42.7	-45.1	18.1	0.00e+00	0	41	0	328204288	56	4925
2026-01-23 10:19:33.95	175.18	28.32	-42.9	-45.4	17.8	0.00e+00	0	41	0	330301440	56	5085
2026-01-23 10:19:34.95	175.25	28.50	-43.0	-45.6	17.7	0.00e+00	0	41	0	332398592	57	4874
2026-01-23 10:19:35.95	175.31	28.68	-43.0	-45.5	17.7	0.00e+00	0	41	0	334495744	57	4849
2026-01-23 10:19:36.95	175.38	28.86	-43.4	-46.0	17.2	0.00e+00	0	41	0	335544320	57	5148
2026-01-23 10:19:37.95	175.45	29.04	-43.3	-46.0	17.3	0.00e+00	0	41	0	337641472	57	5113
2026-01-23 10:19:38.95	175.51	29.23	-43.3	-45.9	17.3	0.00e+00	0	41	0	339738624	57	5095
2026-01-23 10:19:39.95	175.58	29.41	-43.4	-46.0	17.3	0.00e+00	0	41	0	341835776	57	5155
2026-01-23 10:19:40.95	175.65	29.59	-43.3	-45.9	17.4	0.00e+00	0	41	0	343932928	57	5056
2026-01-23 10:19:41.95	175.72	29.78	-43.4	-46.1	17.2	0.00e+00	0	41	0	344981504	57	5185
2026-01-23 10:19:42.95	175.79	29.97	-43.2	-45.9	17.4	0.00e+00	0	41	0	347078656	57	5080
2026-01-23 10:19:43.95	175.86	30.16	-43.6	-46.4	16.9	0.00e+00	0	42	0	349175808	57	5362
2026-01-23 10:19:44.95	175.94	30.35	-43.7	-46.5	16.8	0.00e+00	0	42	0	351272960	57	5414
2026-01-23 10:19:45.95	176.01	30.54	-43.5	-46.2	17.1	0.00e+00	0	41	0	353370112	57	5271
2026-01-23 10:19:46.95	176.08	30.73	-43.9	-46.7	16.6	0.00e+00	0	41	0	354418688	58	5260
2026-01-23 10:19:47.95	176.16	30.92	-43.7	-46.5	16.8	0.00e+00	0	42	0	356515840	58	5110
2026-01-23 10:19:48.95	176.23	31.12	-44.0	-46.8	16.5	0.00e+00	0	42	0	358612992	59	5037
2026-01-23 10:19:49.95	176.31	31.31	-43.9	-46.7	16.7	0.00e+00	0	41	0	360710144	59	4928
2026-01-23 10:19:50.95	176.39	31.51	-44.0	-46.9	16.5	0.00e+00	0	41	0	362807296	59	5058
2026-01-23 10:19:51.95	176.47	31.71	-44.3	-47.2	16.1	0.00e+00	0	41	0	363855872	59	5262
2026-01-23 10:19:52.95	176.55	31.91	-44.1	-47.0	16.3	0.00e+00	0	41	0	365953024	59	5149
2026-01-23 10:19:53.94	176.63	32.11	-44.0	-46.8	16.6	0.00e+00	0	42	0	368050176	59	5009
2026-01-23 10:19:54.94	176.71	32.31	-43.9	-46.6	16.7	0.00e+00	0	41	0	370147328	59	4914
2026-01-23 10:19:55.95	176.79	32.52	-43.9	-46.7	16.6	0.00e+00	0	41	0	371195904	59	4971
2026-01-23 10:19:56.94	176.87	32.72	-44.1	-47.0	16.4	0.00e+00	0	41	0	373293056	59	5128
2026-01-23 10:19:57.94	176.96	32.92	-43.8	-46.6	16.8	0.00e+00	0	41	0	375390208	59	4873
2026-01-23 10:19:58.94	177.04	33.13	-44.1	-46.9	16.5	0.00e+00	0	41	0	377487360	59	5064
2026-01-23 10:19:59.94	177.13	33.34	-43.7	-46.3	17.0	0.00e+00	0	42	0	379584512	59	4748
2026-01-23 10:20:00.94	177.22	33.55	-43.6	-46.3	17.0	0.00e+00	0	41	0	380633088	59	4737
2026-01-23 10:20:01.94	177.31	33.76	-43.8	-46.6	16.8	0.00e+00	0	41	0	382730240	59	4885
2026-01-23 10:20:02.93	177.39	33.97	-43.6	-46.3	17.2	0.00e+00	0	42	0	384827392	58	5001
2026-01-23 10:20:03.93	177.48	34.19	-43.8	-46.6	16.8	0.00e+00	0	41	0	386924544	58	5174
2026-01-23 10:20:04.93	177.58	34.41	-44.0	-46.9	16.6	0.00e+00	0	41	0	389021696	58	5359
2026-01-23 10:20:05.93	177.67	34.62	-44.1	-47.0	16.4	0.00e+00	0	41	0	390070272	58	5427
2026-01-23 10:20:06.93	177.76	34.84	-44.0	-46.9	16.5	0.00e+00	0	42	0	392167424	58	5368
2026-01-23 10:20:07.93	177.86	35.06	-43.7	-46.5	16.9	0.00e+00	0	41	0	394264576	59	4832
2026-01-23 10:20:08.93	177.96	35.28	-43.9	-46.8	16.6	0.00e+00	0	42	0	396361728	59	4984
2026-01-23 10:20:09.93	178.06	35.51	-43.8	-46.6	16.7	0.00e+00	0	42	0	398458880	59	4917
2026-01-23 10:20:10.92	178.15	35.73	-43.7	-46.5	16.9	0.00e+00	0	42	0	399507456	59	4832
2026-01-23 10:20:11.92	178.25	35.96	-43.7	-46.5	16.9	0.00e+00	0	41	0	401604608	59	4817
2026-01-23 10:20:12.92	178.36	36.18	-43.9	-46.7	16.7	0.00e+00	0	41	0	403701760	59	4950
2026-01-23 10:20:13.92	178.46	36.41	-43.7	-46.4	16.9	0.00e+00	0	42	0	405798912	59	4808
2026-01-23 10:20:14.92	178.56	36.64	-43.7	-46.5	16.9	0.00e+00	0	41	0	406847488	59	4817
2026-01-23 10:20:15.92	178.67	36.88	-43.9	-46.7	16.6	0.00e+00	0	41	0	408944640	58	5276
2026-01-23 10:20:16.92	178.78	37.11	-43.7	-46.5	16.9	0.00e+00	0	42	0	411041792	58	5103
2026-01-23 10:20:17.92	178.89	37.35	-43.9	-46.8	16.6	0.00e+00	0	42	0	413138944	58	5293
2026-01-23 10:20:18.92	179.00	37.58	-43.7	-46.5	16.9	0.00e+00	0	42	0	415236096	58	5144
2026-01-23 10:20:19.92	179.11	37.82	-43.5	-46.2	17.2	0.00e+00	0	42	0	416284672	58	4933
2026-01-23 10:20:20.92	179.23	38.06	-43.2	-45.8	17.5	0.00e+00	0	41	0	418381824	58	4750
2026-01-23 10:20:21.92	179.34	38.30	-43.2	-45.7	17.7	0.00e+00	0	41	0	420478976	58	4686
2026-01-23 10:20:22.92	179.46	38.55	-43.3	-45.9	17.5	0.00e+00	0	42	0	422576128	57	5071
2026-01-23 10:20:23.92	179.58	38.79	-43.1	-45.6	17.8	0.00e+00	0	42	0	424673280	57	4882
2026-01-23 10:20:24.92	179.70	39.04	-43.3	-45.9	17.4	0.00e+00	0	42	0	425721856	57	5091
2026-01-23 10:20:25.92	179.82	39.29	-43.3	-45.9	17.4	0.00e+00	0	42	0	427819008	57	5082
2026-01-23 10:20:26.92	179.95	39.54	-43.4	-46.0	17.4	0.00e+00	0	41	0	429916160	57	5146
2026-01-23 10:20:27.93	180.07	39.79	-43.5	-46.2	17.2	0.00e+00	0	42	0	432013312	57	5266
2026-01-23 10:20:28.92	180.20	40.04	-44.3	-47.4	16.1	0.00e+00	0	42	0	433061888	59	5348
2026-01-23 10:20:29.92	180.33	40.30	-44.7	-48.0	15.6	0.00e+00	0	42	0	435159040	60	5408
2026-01-23 10:20:30.92	180.46	40.55	-44.7	-47.8	15.6	0.00e+00	0	42	0	437256192	60	5319
2026-01-23 10:20:31.92	180.60	40.81	-45.0	-48.3	15.3	0.00e+00	0	41	0	439353344	60	5654
2026-01-23 10:20:32.92	180.73	41.07	-44.8	-48.1	15.4	0.00e+00	0	42	0	441450496	60	5483
2026-01-23 10:20:33.92	180.87	41.33	-44.6	-47.7	15.8	0.00e+00	0	42	0	442499072	60	5239
2026-01-23 10:20:34.92	181.01	41.60	-44.6	-47.7	15.8	0.00e+00	0	42	0	444596224	60	5243
2026-01-23 10:20:35.92	181.16	41.86	-44.3	-47.4	16.1	0.00e+00	0	42	0	446693376	60	5043
2026-01-23 10:20:36.92	181.30	42.13	-44.2	-47.2	16.2	0.00e+00	0	41	0	448790528	60	4932
2026-01-23 10:20:37.92	181.45	42.40	-43.7	-46.4	16.9	0.00e+00	0	42	0	450887680	59	4801
2026-01-23 10:20:38.91	181.60	42.66	-43.6	-46.3	17.1	0.00e+00	0	42	0	451936256	59	4718
2026-01-23 10:20:39.91	181.75	42.94	-43.1	-45.6	17.7	0.00e+00	0	42	0	454033408	58	4617
2026-01-23 10:20:40.91	181.91	43.21	-43.3	-45.8	17.5	0.00e+00	0	42	0	456130560	57	5015
2026-01-23 10:20:41.91	182.07	43.49	-42.9	-45.3	18.0	0.00e+00	0	42	0	458227712	57	4742
2026-01-23 10:20:42.91	182.23	43.76	-43.0	-45.4	17.9	0.00e+00	0	42	0	459276288	57	4804
2026-01-23 10:20:43.91	182.39	44.04	-43.5	-46.1	17.3	0.00e+00	0	42	0	461373440	57	5193
2026-01-23 10:20:44.90	182.55	44.32	-43.5	-46.1	17.3	0.00e+00	0	42	0	463470592	57	5210
2026-01-23 10:20:45.90	182.72	44.60	-44.0	-46.8	16.6	0.00e+00	0	42	0	465567744	59	5023
2026-01-23 10:20:46.90	182.89	44.89	-44.1	-46.9	16.6	0.00e+00	0	42	0	467664896	59	5080
2026-01-23 10:20:47.89	183.07	45.17	-44.1	-46.8	16.7	0.00e+00	0	42	0	468713472	58	5337
2026-01-23 10:20:48.89	183.25	45.46	-44.4	-47.3	16.1	0.00e+00	0	42	0	470810624	59	5317
2026-01-23 10:20:49.89	183.43	45.75	-44.5	-47.4	16.1	0.00e+00	0	42	0	472907776	60	5090
2026-01-23 10:20:50.89	183.61	46.04	-44.1	-47.0	16.4	0.00e+00	0	42	0	475004928	60	4825
2026-01-23 10:20:51.89	183.80	46.33	-44.6	-47.7	15.8	0.00e+00	0	42	0	477102080	60	5251
2026-01-23 10:20:52.89	183.99	46.63	-44.9	-48.1	15.5	0.00e+00	0	42	0	478150656	60	5490
2026-01-23 10:20:53.89	184.19	46.93	-45.1	-48.5	15.1	0.00e+00	0	42	0	480247808	60	5759
2026-01-23 10:20:54.89	184.39	47.22	-45.1	-48.5	15.0	0.00e+00	0	42	0	482344960	61	5429
2026-01-23 10:20:55.89	184.59	47.52	-45.0	-48.4	15.2	0.00e+00	0	42	0	484442112	61	5391
2026-01-23 10:20:56.89	184.79	47.83	-45.9	-49.9	13.7	0.00e+00	0	42	0	485490688	62	6036
2026-01-23 10:20:57.89	185.00	48.13	-45.7	-49.4	14.1	5.30e-06	0	42	0	487587840	62	5716
2026-01-23 10:20:58.88	185.22	48.43	-45.7	-49.4	14.1	1.50e-06	0	42	0	489684992	62	5715
2026-01-23 10:20:59.88	185.44	48.74	-45.0	-48.4	15.2	0.00e+00	0	42	0	491782144	61	5359
2026-01-23 10:21:00.88	185.66	49.05	-44.2	-47.2	16.3	0.00e+00	0	42	0	493879296	60	4934
2026-01-23 10:21:01.88	185.89	49.36	-43.8	-46.6	16.8	0.00e+00	0	42	0	494927872	59	4923
2026-01-23 10:21:02.88	186.12	49.67	-43.2	-45.8	17.6	0.00e+00	0	41	0	497025024	58	4729
2026-01-23 10:21:03.88	186.35	49.99	-42.7	-45.3	18.1	0.00e+00	0	42	0	499122176	56	5001
2026-01-23 10:21:04.88	186.60	50.30	-42.5	-44.9	18.4	0.00e+00	0	42	0	501219328	56	4796
2026-01-23 10:21:05.88	186.84	50.62	-42.6	-45.0	18.3	0.00e+00	0	42	0	503316480	56	4867
2026-01-23 10:21:06.88	187.10	50.94	-42.0	-44.3	19.0	0.00e+00	0	42	0	504365056	56	4487
2026-01-23 10:21:07.88	187.35	51.26	-42.1	-44.4	18.9	0.00e+00	0	42	0	506462208	56	4503
2026-01-23 10:21:08.88	187.62	51.58	-41.6	-43.8	19.2	0.00e+00	0	41	0	508559360	55	4477
2026-01-23 10:21:09.88	187.88	51.90	-41.6	-43.9	19.3	0.00e+00	0	41	0	510656512	54	4760
2026-01-23 10:21:10.88	188.16	52.23	-41.0	-43.1	19.9	0.00e+00	0	42	0	511705088	54	4377
2026-01-23 10:21:11.88	188.44	52.56	-40.6	-42.7	20.3	0.00e+00	0	42	0	513802240	53	4415
2026-01-23 10:21:12.88	188.72	52.88	-40.2	-42.2	20.6	0.00e+00	0	41	0	515899392	52	4424
2026-01-23 10:21:13.88	189.02	53.21	-40.4	-42.5	20.4	0.00e+00	0	41	0	517996544	52	4577
2026-01-23 10:21:14.88	189.32	53.55	-40.6	-42.7	20.2	0.00e+00	0	42	0	520093696	52	4692
2026-01-23 10:21:15.88	189.62	53.88	-41.1	-43.3	19.7	0.00e+00	0	41	0	521142272	52	5033
2026-01-23 10:21:16.88	189.94	54.21	-41.0	-43.1	20.0	0.00e+00	0	42	0	523239424	52	4924
2026-01-23 10:21:17.87	190.25	54.54	-40.4	-42.4	20.5	0.00e+00	0	41	0	525336576	52	4527
2026-01-23 10:21:18.87	190.58	54.88	-39.9	-41.8	21.1	0.00e+00	0	41	0	527433728	51	4481
2026-01-23 10:21:19.87	190.92	55.22	-39.5	-41.4	21.4	0.00e+00	0	42	0	529530880	51	4282
2026-01-23 10:21:20.86	191.26	55.55	-39.5	-41.4	21.5	0.00e+00	0	41	0	530579456	50	4517
2026-01-23 10:21:21.86	191.61	55.89	-39.5	-41.4	21.6	0.00e+00	0	42	0	532676608	50	4499
2026-01-23 10:21:22.86	191.97	56.23	-40.0	-42.0	20.9	0.00e+00	0	41	0	534773760	50	4847
2026-01-23 10:21:23.86	192.34	56.58	-40.3	-42.3	20.7	0.00e+00	0	42	0	536870912	51	4732
2026-01-23 10:21:24.85	192.72	56.91	-40.4	-42.5	20.5	0.00e+00	0	42	0	537919488	51	4847
2026-01-23 10:21:25.86	193.11	57.26	-40.2	-42.2	20.7	0.00e+00	0	42	0	540016640	51	4702
2026-01-23 10:21:26.85	193.50	57.60	-39.9	-41.9	21.1	0.00e+00	0	42	0	542113792	51	4530
2026-01-23 10:21:27.85	193.91	57.95	-40.0	-42.0	20.9	0.00e+00	0	42	0	544210944	51	4567
2026-01-23 10:21:28.84	194.32	58.29	-40.3	-42.3	20.5	0.00e+00	0	42	0	546308096	51	4747
2026-01-23 10:21:29.83	194.75	58.63	-40.4	-42.4	20.6	0.00e+00	0	42	0	547356672	51	4791
2026-01-23 10:21:30.84	195.19	58.98	-40.4	-42.4	20.5	0.00e+00	0	42	0	549453824	51	4809
2026-01-23 10:21:31.83	195.64	59.33	-39.7	-41.7	21.2	0.00e+00	0	42	0	551550976	51	4403
2026-01-23 10:21:32.83	196.11	59.68	-39.4	-41.3	21.6	0.00e+00	0	42	0	553648128	50	4447
2026-01-23 10:21:33.83	196.58	60.02	-39.1	-41.0	21.8	0.00e+00	0	42	0	555745280	49	4559
2026-01-23 10:21:34.83	197.07	60.37	-39.2	-41.1	21.7	0.00e+00	0	42	0	556793856	49	4649
2026-01-23 10:21:35.83	197.58	60.72	-39.4	-41.3	21.6	0.00e+00	0	42	0	558891008	49	4713
2026-01-23 10:21:36.82	198.09	61.06	-39.3	-41.2	21.7	0.00e+00	0	41	0	560988160	49	4659
2026-01-23 10:21:37.82	198.62	61.41	-39.5	-41.5	21.5	0.00e+00	0	41	0	563085312	49	4815
2026-01-23 10:21:38.81	199.16	61.76	-40.6	-42.6	20.4	0.00e+00	0	42	0	564133888	51	4926
2026-01-23 10:21:39.82	199.73	62.11	-41.3	-43.6	19.5	0.00e+00	0	42	0	566231040	53	4887
2026-01-23 10:21:40.81	200.30	62.45	-41.9	-44.3	19.0	0.00e+00	0	42	0	568328192	54	4984
2026-01-23 10:21:41.81	200.89	62.80	-41.4	-43.6	19.5	0.00e+00	0	42	0	570425344	54	4636
2026-01-23 10:21:42.82	201.51	63.14	-40.4	-42.5	20.5	0.00e+00	0	42	0	572522496	52	4572
2026-01-23 10:21:43.81	202.14	63.48	-39.8	-41.8	21.1	0.00e+00	0	42	0	573571072	51	4442
2026-01-23 10:21:44.81	202.78	63.83	-39.6	-41.6	21.3	0.00e+00	0	42	0	575668224	51	4346
2026-01-23 10:21:45.81	203.45	64.17	-40.3	-42.3	20.6	0.00e+00	0	42	0	577765376	51	4757
2026-01-23 10:21:46.81	204.14	64.51	-41.1	-43.3	19.7	0.00e+00	0	42	0	579862528	52	5017
2026-01-23 10:21:47.80	204.84	64.84	-41.4	-43.6	19.4	0.00e+00	0	42	0	580911104	53	4916
2026-01-23 10:21:48.80	205.57	65.18	-41.2	-43.4	19.7	0.00e+00	0	42	0	583008256	53	4763
2026-01-23 10:21:49.80	206.32	65.51	-40.7	-42.8	20.2	0.00e+00	0	42	0	585105408	53	4456
2026-01-23 10:21:50.79	207.08	65.84	-40.3	-42.3	20.6	0.00e+00	0	42	0	587202560	52	4492
2026-01-23 10:21:51.79	207.88	66.16	-40.9	-43.0	20.0	0.00e+00	0	42	0	589299712	52	4867
2026-01-23 10:21:52.79	208.70	66.49	-42.3	-44.7	18.6	0.00e+00	0	42	0	590348288	55	4981
2026-01-23 10:21:53.78	209.54	66.81	-42.9	-45.3	18.0	0.00e+00	0	41	0	592445440	56	5033
2026-01-23 10:21:54.78	210.41	67.13	-42.4	-44.6	18.6	0.00e+00	0	42	0	594542592	56	4651
2026-01-23 10:21:55.78	211.31	67.44	-41.8	-44.0	19.1	0.00e+00	0	42	0	596639744	55	4560
2026-01-23 10:21:56.78	212.23	67.75	-42.7	-45.1	18.2	0.00e+00	0	42	0	598736896	55	5194
2026-01-23 10:21:57.78	213.18	68.06	-42.9	-45.5	17.9	0.00e+00	0	42	0	599785472	56	5120
2026-01-23 10:21:58.77	214.16	68.36	-42.4	-44.8	18.7	0.00e+00	0	42	0	601882624	56	4716
2026-01-23 10:21:59.76	215.16	68.65	-42.1	-44.4	18.9	0.00e+00	0	42	0	603979776	56	4545
2026-01-23 10:22:00.76	216.20	68.94	-43.2	-45.8	17.6	0.00e+00	0	42	0	606076928	56	5327
2026-01-23 10:22:01.76	217.27	69.23	-43.5	-46.3	17.2	0.00e+00	0	42	0	607125504	57	5306
2026-01-23 10:22:02.76	218.38	69.51	-43.2	-45.7	17.7	0.00e+00	0	42	0	609222656	58	4702
2026-01-23 10:22:03.76	219.52	69.78	-42.9	-45.4	18.0	0.00e+00	0	42	0	611319808	57	4763
2026-01-23 10:22:04.75	220.67	70.04	-43.5	-46.1	17.3	0.00e+00	0	42	0	613416960	57	5190
2026-01-23 10:22:05.75	221.88	70.30	-43.3	-45.9	17.5	0.00e+00	0	42	0	615514112	58	4774
2026-01-23 10:22:06.75	223.11	70.55	-43.1	-45.7	17.7	0.00e+00	0	42	0	616562688	58	4663
2026-01-23 10:22:07.74	224.37	70.80	-43.7	-46.4	17.2	0.00e+00	0	42	0	618659840	58	5080
2026-01-23 10:22:08.74	225.68	71.03	-45.1	-48.4	15.2	0.00e+00	0	42	0	620756992	60	5681
2026-01-23 10:22:09.74	227.01	71.26	-44.5	-47.6	15.9	0.00e+00	0	42	0	622854144	60	5173
2026-01-23 10:22:10.74	228.39	71.47	-43.5	-46.2	17.2	0.00e+00	0	42	0	624951296	59	4685
2026-01-23 10:22:11.74	229.79	71.68	-43.9	-46.7	16.7	0.00e+00	0	42	0	625999872	59	4977
2026-01-23 10:22:12.74	231.23	71.88	-43.3	-46.0	17.5	0.00e+00	0	42	0	628097024	58	4842
2026-01-23 10:22:13.73	232.69	72.06	-42.5	-44.8	18.5	0.00e+00	0	41	0	630194176	56	4754
2026-01-23 10:22:14.73	234.19	72.24	-42.5	-44.9	18.5	0.00e+00	0	42	0	632291328	56	4771
2026-01-23 10:22:15.73	235.72	72.40	-43.4	-46.0	17.5	0.00e+00	0	41	0	633339904	57	5105
2026-01-23 10:22:16.72	237.27	72.55	-42.5	-44.8	18.5	0.00e+00	0	42	0	635437056	56	4746
2026-01-23 10:22:17.72	238.86	72.69	-42.3	-44.6	18.6	0.00e+00	0	42	0	637534208	56	4639
2026-01-23 10:22:18.72	240.47	72.82	-42.2	-44.5	18.9	0.00e+00	0	42	0	639631360	56	4552
2026-01-23 10:22:19.72	242.11	72.93	-42.1	-44.5	18.7	0.00e+00	0	42	0	641728512	55	4847
2026-01-23 10:22:20.71	243.75	73.03	-42.9	-45.5	17.9	0.00e+00	0	42	0	642777088	57	4868
2026-01-23 10:22:21.71	245.43	73.12	-42.4	-44.8	18.6	0.00e+00	0	42	0	644874240	56	4720
2026-01-23 10:22:22.71	247.13	73.19	-41.6	-43.9	19.3	0.00e+00	0	42	0	646971392	54	4769
2026-01-23 10:22:23.71	248.84	73.25	-41.3	-43.5	19.7	0.00e+00	0	42	0	649068544	54	4547
2026-01-23 10:22:24.71	250.56	73.30	-41.4	-43.6	19.5	0.00e+00	0	42	0	650117120	54	4647
2026-01-23 10:22:25.71	252.29	73.33	-40.9	-43.0	20.1	0.00e+00	0	42	0	652214272	53	4575
2026-01-23 10:22:26.70	254.01	73.34	-40.8	-43.0	20.0	0.00e+00	0	42	0	654311424	53	4549
2026-01-23 10:22:27.69	255.73	73.35	-40.7	-42.8	20.2	0.00e+00	0	42	0	656408576	53	4453
2026-01-23 10:22:28.69	257.46	73.33	-40.9	-43.0	20.0	0.00e+00	0	42	0	658505728	53	4596
2026-01-23 10:22:29.68	259.18	73.31	-41.7	-44.0	19.1	0.00e+00	0	42	0	659554304	54	4832
2026-01-23 10:22:30.67	260.88	73.27	-41.9	-44.2	19.0	0.00e+00	0	42	0	661651456	54	4974
2026-01-23 10:22:31.67	262.60	73.21	-41.7	-44.0	19.3	0.00e+00	0	42	0	663748608	54	4820
2026-01-23 10:22:32.67	264.30	73.14	-41.1	-43.2	19.9	0.00e+00	0	42	0	665845760	53	4685
2026-01-23 10:22:33.67	265.98	73.06	-41.5	-43.7	19.4	0.00e+00	0	42	0	667942912	53	4960
2026-01-23 10:22:34.66	267.63	72.96	-43.1	-45.6	17.8	0.00e+00	0	42	0	668991488	56	5213
2026-01-23 10:22:35.65	269.26	72.85	-44.5	-47.6	15.9	0.00e+00	0	42	0	671088640	59	5507
2026-01-23 10:22:36.64	270.86	72.73	-45.1	-48.5	15.1	0.00e+00	0	42	0	673185792	60	5746
2026-01-23 10:22:37.64	272.46	72.59	-45.1	-48.6	15.1	0.00e+00	0	42	0	675282944	61	5478
2026-01-23 10:22:38.64	274.03	72.45	-44.5	-47.5	15.9	0.00e+00	0	42	0	676331520	61	4852
2026-01-23 10:22:39.63	275.55	72.29	-44.0	-46.9	16.8	0.00e+00	0	42	0	678428672	59	5044
2026-01-23 10:22:40.63	277.06	72.12	-44.6	-47.7	15.9	0.00e+00	0	42	0	680525824	59	5586
2026-01-23 10:22:41.63	278.54	71.93	-43.9	-46.6	16.9	0.00e+00	0	42	0	682622976	59	4906
2026-01-23 10:22:42.63	279.99	71.74	-43.5	-46.0	17.5	0.00e+00	0	42	0	684720128	58	4854
2026-01-23 10:22:43.63	281.40	71.54	-45.6	-49.1	14.6	0.00e+00	0	42	0	685768704	61	5844
2026-01-23 10:22:44.62	282.77	71.32	-46.3	-50.4	13.0	1.67e-05	0	42	0	687865856	63	6052
2026-01-23 10:22:45.63	284.13	71.10	-45.0	-48.2	15.3	0.00e+00	0	42	0	689963008	62	4983
2026-01-23 10:22:46.62	285.43	70.87	-45.5	-49.1	14.7	0.00e+00	0	42	0	692060160	61	5801
2026-01-23 10:22:47.62	286.71	70.63	-47.8	-53.6	10.1	3.77e-04	0	42	0	693108736	66	7371
2026-01-23 10:22:48.62	287.96	70.38	-47.2	-52.1	11.3	1.38e-03	0	42	0	695205888	66	6177
2026-01-23 10:22:49.61	289.15	70.13	-45.9	-49.5	14.0	2.44e-05	0	41	0	697303040	63	5447
2026-01-23 10:22:50.61	290.33	69.86	-44.6	-47.6	16.0	0.00e+00	0	42	0	699400192	61	4895
2026-01-23 10:22:51.61	291.48	69.59	-43.7	-46.4	17.2	0.00e+00	0	42	0	701497344	59	4768
2026-01-23 10:22:52.61	292.59	69.31	-43.9	-46.6	16.9	0.00e+00	0	42	0	702545920	58	5202
2026-01-23 10:22:53.61	293.67	69.03	-45.1	-48.3	15.3	0.00e+00	0	42	0	704643072	61	5303
2026-01-23 10:22:54.61	294.72	68.74	-44.9	-48.1	15.6	0.00e+00	0	42	0	706740224	61	5165
2026-01-23 10:22:55.61	295.74	68.45	-45.1	-48.5	15.1	0.00e+00	0	42	0	708837376	61	5446
2026-01-23 10:22:56.60	296.72	68.15	-44.9	-48.1	15.4	0.00e+00	0	42	0	709885952	61	5202
2026-01-23 10:22:57.60	297.68	67.85	-45.0	-48.2	15.4	0.00e+00	0	42	0	711983104	61	5250
2026-01-23 10:22:58.60	298.62	67.54	-44.8	-47.9	15.6	7.00e-07	0	42	0	714080256	61	5087
2026-01-23 10:22:59.60	299.52	67.23	-44.3	-47.2	16.4	0.00e+00	0	42	0	716177408	60	4970
2026-01-23 10:23:00.60	300.40	66.91	-43.8	-46.5	17.0	0.00e+00	0	42	0	718274560	58	5150
2026-01-23 10:23:01.60	301.25	66.59	-44.1	-47.0	16.6	0.00e+00	0	42	0	719323136	59	5110
2026-01-23 10:23:02.60	302.08	66.27	-44.2	-47.1	16.4	0.00e+00	0	42	0	721420288	59	5183
2026-01-23 10:23:03.59	302.87	65.94	-42.3	-44.6	18.7	0.00e+00	0	42	0	723517440	56	4635
2026-01-23 10:23:04.59	303.65	65.61	-41.3	-43.5	19.7	0.00e+00	0	42	0	725614592	54	4572
2026-01-23 10:23:05.59	304.41	65.28	-40.8	-42.9	20.2	0.00e+00	0	42	0	727711744	53	4495
2026-01-23 10:23:06.59	305.14	64.95	-40.8	-42.9	20.2	0.00e+00	0	42	0	728760320	52	4789
2026-01-23 10:23:07.59	305.85	64.61	-41.0	-43.2	19.9	0.00e+00	0	41	0	730857472	52	4954
2026-01-23 10:23:08.59	306.54	64.27	-40.4	-42.4	20.6	0.00e+00	0	42	0	732954624	52	4523
2026-01-23 10:23:09.58	307.21	63.94	-39.8	-41.7	21.3	0.00e+00	0	42	0	735051776	51	4435
2026-01-23 10:23:10.58	307.86	63.60	-39.9	-41.9	21.1	0.00e+00	0	42	0	737148928	51	4515
2026-01-23 10:23:11.57	308.49	63.26	-40.2	-42.2	20.9	0.00e+00	0	42	0	738197504	51	4666
2026-01-23 10:23:12.57	309.10	62.91	-39.4	-41.3	21.7	0.00e+00	0	42	0	740294656	50	4468
2026-01-23 10:23:13.57	309.70	62.57	-38.5	-40.3	22.4	0.00e+00	0	42	0	742391808	49	4241
2026-01-23 10:23:14.57	310.28	62.23	-38.1	-39.9	22.7	0.00e+00	0	42	0	744488960	48	4272
2026-01-23 10:23:15.56	310.84	61.88	-38.7	-40.6	22.2	0.00e+00	0	42	0	745537536	48	4627
2026-01-23 10:23:16.56	311.39	61.54	-39.8	-41.9	21.2	0.00e+00	0	42	0	747634688	50	4762
2026-01-23 10:23:17.55	311.92	61.19	-40.5	-42.6	20.6	0.00e+00	0	42	0	749731840	51	4887
2026-01-23 10:23:18.55	312.45	60.85	-40.1	-42.2	20.8	0.00e+00	0	42	0	751828992	51	4667
2026-01-23 10:23:19.54	312.95	60.50	-39.4	-41.3	21.7	0.00e+00	0	42	0	753926144	50	4453
2026-01-23 10:23:20.54	313.44	60.16	-39.4	-41.3	21.5	0.00e+00	0	42	0	754974720	50	4485
2026-01-23 10:23:21.54	313.92	59.81	-40.8	-43.0	20.1	0.00e+00	0	42	0	757071872	52	4836
2026-01-23 10:23:22.54	314.39	59.46	-41.1	-43.4	19.7	0.00e+00	0	42	0	759169024	53	4787
2026-01-23 10:23:23.54	314.84	59.12	-39.9	-41.9	21.1	0.00e+00	0	42	0	761266176	51	4510
2026-01-23 10:23:24.54	315.29	58.77	-39.7	-41.6	21.4	0.00e+00	0	42	0	762314752	50	4648
2026-01-23 10:23:25.54	315.72	58.43	-40.5	-42.6	20.6	0.00e+00	0	42	0	764411904	51	4880
2026-01-23 10:23:26.54	316.14	58.08	-41.4	-43.6	19.6	0.00e+00	0	42	0	766509056	53	4879
2026-01-23 10:23:27.54	316.55	57.74	-41.5	-43.7	19.5	0.00e+00	0	42	0	768606208	53	4943
2026-01-23 10:23:28.54	316.95	57.39	-41.5	-43.7	19.4	0.00e+00	0	42	0	770703360	54	4687
2026-01-23 10:23:29.54	317.34	57.05	-41.1	-43.3	19.8	0.00e+00	0	42	0	771751936	54	4468
2026-01-23 10:23:30.54	317.72	56.71	-40.4	-42.4	20.5	0.00e+00	0	42	0	773849088	52	4543
2026-01-23 10:23:31.54	318.10	56.37	-39.9	-41.9	21.1	0.00e+00	0	42	0	775946240	51	4512
2026-01-23 10:23:32.55	318.46	56.02	-39.6	-41.5	21.5	0.00e+00	0	42	0	778043392	51	4318
2026-01-23 10:23:33.54	318.81	55.69	-40.7	-42.8	20.3	0.00e+00	0	42	0	780140544	52	4722
2026-01-23 10:23:34.55	319.16	55.35	-41.1	-43.3	19.8	0.00e+00	0	42	0	781189120	53	4727
2026-01-23 10:23:35.55	319.50	55.01	-40.2	-42.3	20.6	0.00e+00	0	42	0	783286272	52	4445
2026-01-23 10:23:36.54	319.83	54.68	-38.8	-40.7	22.1	0.00e+00	0	42	0	785383424	49	4398
2026-01-23 10:23:37.55	320.15	54.34	-39.3	-41.2	21.6	0.00e+00	0	42	0	787480576	49	4701
2026-01-23 10:23:38.55	320.47	54.01	-40.3	-42.4	20.7	0.00e+00	0	42	0	789577728	51	4761
2026-01-23 10:23:39.55	320.77	53.68	-40.8	-42.9	20.2	0.00e+00	0	42	0	790626304	52	4805
2026-01-23 10:23:40.55	321.08	53.35	-41.0	-43.1	20.0	0.00e+00	0	42	0	792723456	52	4891
2026-01-23 10:23:41.55	321.37	53.02	-40.9	-43.0	20.0	0.00e+00	0	42	0	794820608	52	4863
2026-01-23 10:23:42.55	321.66	52.69	-40.4	-42.4	20.6	0.00e+00	0	42	0	796917760	52	4539
2026-01-23 10:23:43.55	321.94	52.37	-40.0	-42.0	20.9	0.00e+00	0	42	0	797966336	51	4555
2026-01-23 10:23:44.54	322.21	52.04	-39.4	-41.2	21.7	0.00e+00	0	42	0	800063488	50	4439
2026-01-23 10:23:45.54	322.48	51.72	-39.1	-40.9	21.9	0.00e+00	0	42	0	802160640	50	4279
2026-01-23 10:23:46.55	322.75	51.40	-39.5	-41.4	21.6	0.00e+00	0	42	0	804257792	50	4520
2026-01-23 10:23:47.55	323.01	51.08	-40.6	-42.7	20.5	0.00e+00	0	42	0	806354944	51	4949
2026-01-23 10:23:48.55	323.26	50.76	-41.3	-43.6	19.6	0.00e+00	0	42	0	807403520	53	4884
2026-01-23 10:23:49.56	323.51	50.44	-41.7	-44.0	19.2	0.00e+00	0	42	0	809500672	54	4853
2026-01-23 10:23:50.56	323.75	50.13	-41.3	-43.6	19.6	0.00e+00	0	42	0	811597824	54	4602
2026-01-23 10:23:51.56	323.99	49.81	-40.8	-42.9	20.0	0.00e+00	0	42	0	813694976	53	4514
2026-01-23 10:23:52.56	324.23	49.50	-41.3	-43.5	19.6	0.00e+00	0	42	0	815792128	53	4824
2026-01-23 10:23:53.56	324.45	49.19	-42.4	-44.9	18.7	0.00e+00	0	42	0	816840704	55	5050
2026-01-23 10:23:54.56	324.68	48.88	-42.8	-45.3	18.2	0.00e+00	0	42	0	818937856	56	4994
2026-01-23 10:23:55.57	324.90	48.57	-43.1	-45.7	17.8	0.00e+00	0	42	0	821035008	57	4927
2026-01-23 10:23:56.57	325.12	48.27	-43.9	-46.6	16.9	0.00e+00	0	42	0	823132160	58	5218
2026-01-23 10:23:57.57	325.33	47.97	-45.0	-48.3	15.3	0.00e+00	0	42	0	825229312	60	5624
2026-01-23 10:23:58.57	325.53	47.66	-45.5	-49.2	14.5	0.00e+00	0	42	0	826277888	61	5859
2026-01-23 10:23:59.57	325.74	47.37	-45.4	-49.0	14.5	7.00e-07	0	42	0	828375040	61	5732
2026-01-23 10:24:00.57	325.94	47.07	-44.9	-48.2	15.5	7.00e-07	0	42	0	830472192	61	5265
2026-01-23 10:24:01.57	326.13	46.77	-44.1	-47.1	16.6	0.00e+00	0	42	0	832569344	60	4872
2026-01-23 10:24:02.57	326.33	46.48	-43.3	-45.9	17.6	0.00e+00	0	42	0	834666496	58	4770
2026-01-23 10:24:03.57	326.51	46.19	-42.4	-44.7	18.7	0.00e+00	0	42	0	835715072	56	4678
2026-01-23 10:24:04.57	326.70	45.89	-42.6	-44.9	18.5	0.00e+00	0	42	0	837812224	56	4812
2026-01-23 10:24:05.57	326.88	45.61	-43.5	-46.1	17.4	0.00e+00	0	42	0	839909376	57	5204
2026-01-23 10:24:06.57	327.06	45.32	-44.4	-47.5	16.1	0.00e+00	0	42	0	842006528	59	5404
2026-01-23 10:24:07.57	327.24	45.03	-44.9	-48.4	15.2	0.00e+00	0	42	0	843055104	60	5706
2026-01-23 10:24:08.57	327.41	44.75	-44.3	-47.5	16.0	0.00e+00	0	42	0	845152256	60	5125
2026-01-23 10:24:09.57	327.58	44.47	-43.4	-46.2	17.2	0.00e+00	0	42	0	847249408	58	4967
2026-01-23 10:24:10.57	327.75	44.19	-42.7	-45.3	18.1	0.00e+00	0	42	0	849346560	57	4729
2026-01-23 10:24:11.58	327.91	43.91	-42.3	-44.7	18.7	0.00e+00	0	42	0	851443712	56	4675
2026-01-23 10:24:12.58	328.07	43.63	-41.8	-44.2	19.0	0.00e+00	0	42	0	852492288	55	4688
2026-01-23 10:24:13.58	328.23	43.36	-41.7	-44.1	19.1	0.00e+00	0	41	0	854589440	55	4606
2026-01-23 10:24:14.58	328.39	43.08	-43.2	-45.8	17.6	0.00e+00	0	42	0	856686592	57	5032
2026-01-23 10:24:15.58	328.54	42.81	-43.9	-46.8	16.8	0.00e+00	0	41	0	858783744	58	5308
2026-01-23 10:24:16.58	328.69	42.54	-44.2	-47.2	16.3	0.00e+00	0	42	0	860880896	59	5256
2026-01-23 10:24:17.58	328.84	42.27	-43.9	-46.8	16.6	0.00e+00	0	42	0	861929472	59	5016
2026-01-23 10:24:18.58	328.99	42.01	-42.6	-45.0	18.1	0.00e+00	0	42	0	864026624	57	4598
2026-01-23 10:24:19.59	329.13	41.74	-40.7	-42.9	20.1	0.00e+00	0	42	0	866123776	53	4508
2026-01-23 10:24:20.59	329.27	41.48	-39.7	-41.7	21.3	0.00e+00	0	41	0	868220928	51	4399
2026-01-23 10:24:21.59	329.41	41.22	-39.7	-41.6	21.3	0.00e+00	0	42	0	869269504	51	4388
2026-01-23 10:24:22.60	329.55	40.96	-39.4	-41.4	21.5	0.00e+00	0	41	0	871366656	50	4495
2026-01-23 10:24:23.60	329.69	40.70	-40.0	-42.0	21.0	0.00e+00	0	42	0	873463808	50	4853
2026-01-23 10:24:24.60	329.82	40.44	-41.0	-43.2	19.8	0.00e+00	0	41	0	875560960	52	4970
2026-01-23 10:24:25.60	329.95	40.19	-41.9	-44.3	19.0	0.00e+00	0	42	0	877658112	54	4985
2026-01-23 10:24:26.60	330.08	39.94	-42.4	-45.0	18.2	0.00e+00	0	42	0	878706688	55	5120
2026-01-23 10:24:27.60	330.20	39.68	-42.8	-45.4	18.1	0.00e+00	0	42	0	880803840	56	5048
2026-01-23 10:24:28.60	330.33	39.44	-42.5	-45.0	18.5	0.00e+00	0	41	0	882900992	56	4855
2026-01-23 10:24:29.61	330.45	39.19	-41.6	-43.9	19.3	0.00e+00	0	42	0	884998144	55	4509
2026-01-23 10:24:30.61	330.58	38.94	-41.7	-44.0	19.1	0.00e+00	0	42	0	887095296	55	4593
2026-01-23 10:24:31.61	330.70	38.70	-41.7	-44.0	19.2	0.00e+00	0	42	0	888143872	55	4580
2026-01-23 10:24:32.61	330.81	38.45	-42.2	-44.6	18.6	0.00e+00	0	42	0	890241024	55	4914
2026-01-23 10:24:33.61	330.93	38.21	-42.4	-44.8	18.3	0.00e+00	0	42	0	892338176	55	5034
2026-01-23 10:24:34.61	331.04	37.97	-42.1	-44.5	18.7	0.00e+00	0	42	0	894435328	55	4822
2026-01-23 10:24:35.61	331.16	37.73	-41.5	-43.8	19.4	0.00e+00	0	42	0	896532480	55	4444
2026-01-23 10:24:36.61	331.27	37.50	-41.0	-43.3	19.8	0.00e+00	0	42	0	897581056	54	4456
2026-01-23 10:24:37.61	331.38	37.26	-41.3	-43.6	19.5	0.00e+00	0	41	0	899678208	54	4640
2026-01-23 10:24:38.61	331.49	37.03	-41.3	-43.6	19.5	0.00e+00	0	42	0	901775360	54	4608
2026-01-23 10:24:39.61	331.59	36.80	-41.7	-44.0	19.2	0.00e+00	0	42	0	903872512	54	4839
2026-01-23 10:24:40.61	331.70	36.57	-42.3	-44.7	18.4	0.00e+00	0	42	0	905969664	55	4982
2026-01-23 10:24:41.61	331.80	36.34	-42.2	-44.6	18.6	0.00e+00	0	42	0	907018240	55	4911
2026-01-23 10:24:42.61	331.91	36.11	-43.0	-45.5	18.0	0.00e+00	0	42	0	909115392	56	5127
2026-01-23 10:24:43.61	332.01	35.89	-43.0	-45.5	18.0	0.00e+00	0	42	0	911212544	56	5113
2026-01-23 10:24:44.61	332.11	35.66	-43.0	-45.5	17.9	0.00e+00	0	42	0	913309696	56	5130
2026-01-23 10:24:45.61	332.21	35.44	-42.8	-45.2	18.1	0.00e+00	0	42	0	914358272	56	4966
2026-01-23 10:24:46.62	332.31	35.22	-42.7	-45.2	18.3	0.00e+00	0	42	0	916455424	56	4941
2026-01-23 10:24:47.62	332.40	35.00	-42.8	-45.3	18.1	0.00e+00	0	42	0	918552576	56	5013
2026-01-23 10:24:48.62	332.50	34.78	-42.7	-45.2	18.2	0.00e+00	0	42	0	920649728	56	4959
2026-01-23 10:24:49.62	332.59	34.56	-43.1	-45.7	17.7	0.00e+00	0	42	0	922746880	56	5242
2026-01-23 10:24:50.62	332.68	34.35	-43.0	-45.6	17.9	0.00e+00	0	42	0	923795456	57	4874
2026-01-23 10:24:51.62	332.77	34.13	-43.8	-46.6	16.8	0.00e+00	0	42	0	925892608	58	5212
2026-01-23 10:24:52.62	332.86	33.92	-43.9	-46.7	16.8	0.00e+00	0	42	0	927989760	58	5266
2026-01-23 10:24:53.62	332.95	33.71	-44.0	-46.9	16.6	0.00e+00	0	42	0	930086912	58	5357
2026-01-23 10:24:54.62	333.04	33.50	-44.0	-47.1	16.4	0.00e+00	0	42	0	932184064	59	5169
2026-01-23 10:24:55.62	333.13	33.29	-44.3	-47.5	16.0	0.00e+00	0	42	0	933232640	59	5414
2026-01-23 10:24:56.62	333.21	33.09	-44.4	-47.8	15.7	0.00e+00	0	42	0	935329792	59	5656
2026-01-23 10:24:57.62	333.30	32.88	-43.8	-47.0	16.5	0.00e+00	0	41	0	937426944	59	5145
2026-01-23 10:24:58.62	333.38	32.68	-44.1	-47.5	16.0	0.00e+00	0	42	0	939524096	59	5450
2026-01-23 10:24:59.62	333.47	32.47	-43.7	-46.9	16.6	0.00e+00	0	42	0	941621248	59	5058
2026-01-23 10:25:00.63	333.55	32.27	-43.3	-46.2	17.3	0.00e+00	0	42	0	942669824	58	4945
2026-01-23 10:25:01.63	333.63	32.07	-43.6	-46.5	17.0	0.00e+00	0	42	0	944766976	58	5152
2026-01-23 10:25:02.63	333.71	31.87	-43.2	-45.9	17.5	0.00e+00	0	42	0	946864128	58	4788
2026-01-23 10:25:03.63	333.79	31.67	-43.0	-45.6	17.8	0.00e+00	0	42	0	948961280	57	4919
2026-01-23 10:25:04.63	333.87	31.48	-42.8	-45.4	18.0	0.00e+00	0	42	0	950009856	57	4763
2026-01-23 10:25:05.63	333.94	31.28	-42.6	-45.0	18.3	0.00e+00	0	42	0	952107008	57	4594
2026-01-23 10:25:06.63	334.02	31.09	-42.8	-45.4	18.1	0.00e+00	0	42	0	954204160	57	4774
2026-01-23 10:25:07.64	334.10	30.89	-42.8	-45.4	18.0	0.00e+00	0	42	0	956301312	57	4764
2026-01-23 10:25:08.64	334.17	30.70	-43.1	-45.7	17.7	0.00e+00	0	42	0	958398464	57	4931
2026-01-23 10:25:09.64	334.24	30.51	-42.8	-45.3	18.1	0.00e+00	0	42	0	959447040	57	4744
2026-01-23 10:25:10.64	334.32	30.32	-43.0	-45.6	17.8	0.00e+00	0	42	0	961544192	57	4926
2026-01-23 10:25:11.64	334.39	30.13	-42.8	-45.4	18.0	0.00e+00	0	41	0	963641344	57	4797
2026-01-23 10:25:12.64	334.46	29.95	-42.7	-45.4	18.0	0.00e+00	0	42	0	965738496	57	4798
2026-01-23 10:25:13.64	334.53	29.76	-42.9	-45.7	17.8	0.00e+00	0	42	0	967835648	57	4945
2026-01-23 10:25:14.64	334.60	29.58	-43.2	-46.2	17.2	0.00e+00	0	42	0	968884224	57	5255
2026-01-23 10:25:15.64	334.67	29.39	-43.3	-46.4	17.1	0.00e+00	0	42	0	970981376	57	5363
2026-01-23 10:25:16.64	334.74	29.21	-43.8	-47.1	16.4	0.00e+00	0	42	0	973078528	58	5486
2026-01-23 10:25:17.65	334.81	29.03	-44.3	-47.8	15.6	0.00e+00	0	42	0	975175680	59	5654
2026-01-23 10:25:18.64	334.87	28.85	-44.8	-48.6	15.1	0.00e+00	0	42	0	976224256	60	5801
2026-01-23 10:25:19.65	334.94	28.67	-45.5	-49.8	13.9	7.00e-07	0	42	0	978321408	61	6280
2026-01-23 10:25:20.65	335.01	28.49	-45.5	-49.6	14.0	7.00e-07	0	42	0	980418560	62	5841
2026-01-23 10:25:21.65	335.07	28.32	-45.4	-49.5	14.2	7.00e-07	0	42	0	982515712	62	5728
2026-01-23 10:25:22.65	335.14	28.14	-45.5	-49.6	14.0	4.50e-06	0	42	0	984612864	62	5810
2026-01-23 10:25:23.65	335.20	27.97	-44.8	-48.4	15.2	0.00e+00	0	42	0	985661440	61	5347
2026-01-23 10:25:24.65	335.26	27.79	-44.1	-47.3	16.2	0.00e+00	0	42	0	987758592	60	5005
2026-01-23 10:25:25.65	335.32	27.62	-43.8	-46.8	16.7	0.00e+00	0	42	0	989855744	59	4988
2026-01-23 10:25:26.65	335.39	27.45	-43.2	-45.9	17.5	0.00e+00	0	42	0	991952896	58	4801
2026-01-23 10:25:27.65	335.45	27.28	-42.6	-45.1	17.5	0.00e+00	0	42	0	994050048	57	4642
2026-01-23 10:25:28.66	335.51	27.11	-41.4	-43.7	19.4	0.00e+00	0	42	0	995098624	54	4665
2026-01-23 10:25:29.66	335.57	26.94	-41.1	-43.3	19.7	0.00e+00	0	42	0	997195776	54	4467
2026-01-23 10:25:30.65	335.63	26.78	-40.9	-43.1	19.9	0.00e+00	0	42	0	999292928	53	4623
2026-01-23 10:25:31.66	335.69	26.61	-40.4	-42.5	20.5	0.00e+00	0	42	0	1001390080	52	4587
2026-01-23 10:25:32.66	335.74	26.44	-40.2	-42.3	20.5	0.00e+00	0	42	0	1003487232	52	4469
2026-01-23 10:25:33.66	335.80	26.28	-40.3	-42.4	20.6	0.00e+00	0	42	0	1004535808	52	4497
2026-01-23 10:25:34.66	335.86	26.12	-40.6	-42.8	20.2	0.00e+00	0	42	0	1006632960	52	4722
2026-01-23 10:25:35.66	335.92	25.95	-40.7	-42.9	20.1	0.00e+00	0	42	0	1008730112	52	4791
2026-01-23 10:25:36.66	335.97	25.79	-41.1	-43.4	19.7	0.00e+00	0	42	0	1010827264	52	5065
2026-01-23 10:25:37.66	336.03	25.63	-41.5	-43.9	19.3	0.00e+00	0	42	0	1012924416	53	5044
2026-01-23 10:25:38.67	336.08	25.47	-41.8	-44.2	19.0	0.00e+00	0	42	0	1013972992	54	4972
2026-01-23 10:25:39.67	336.14	25.31	-42.3	-44.9	18.3	0.00e+00	0	42	0	1016070144	55	5058
2026-01-23 10:25:40.67	336.19	25.16	-42.5	-45.3	17.9	0.00e+00	0	42	0	1018167296	55	5288
2026-01-23 10:25:41.67	336.24	25.00	-42.5	-45.2	18.0	0.00e+00	0	42	0	1020264448	55	5257
2026-01-23 10:25:42.67	336.30	24.84	-42.3	-45.0	18.2	0.00e+00	0	42	0	1021313024	55	5134
2026-01-23 10:25:43.67	336.35	24.69	-42.2	-44.9	18.3	0.00e+00	0	42	0	1023410176	55	5046
2026-01-23 10:25:44.67	336.40	24.54	-42.3	-44.9	18.3	0.00e+00	0	42	0	1025507328	55	5076
2026-01-23 10:25:45.67	336.45	24.38	-41.8	-44.2	18.9	0.00e+00	0	42	0	1027604480	55	4687
2026-01-23 10:25:46.67	336.50	24.23	-41.6	-44.0	19.2	0.00e+00	0	42	0	1029701632	55	4563
2026-01-23 10:25:47.67	336.55	24.08	-41.7	-44.1	19.0	0.00e+00	0	42	0	1030750208	55	4618
2026-01-23 10:25:48.67	336.60	23.93	-41.3	-43.6	19.5	0.00e+00	0	42	0	1032847360	54	4600
2026-01-23 10:25:49.67	336.65	23.78	-41.2	-43.5	19.6	0.00e+00	0	42	0	1034944512	54	4558
2026-01-23 10:25:50.68	336.70	23.63	-41.1	-43.3	19.7	0.00e+00	0	42	0	1037041664	54	4470
2026-01-23 10:25:51.68	336.75	23.48	-41.1	-43.4	19.6	0.00e+00	0	42	0	1039138816	53	4789
2026-01-23 10:25:52.68	336.80	23.33	-41.0	-43.3	19.7	0.00e+00	0	42	0	1040187392	53	4723
2026-01-23 10:25:53.68	336.85	23.19	-40.8	-43.1	19.9	0.00e+00	0	42	0	1042284544	53	4614
2026-01-23 10:25:54.68	336.90	23.04	-40.8	-43.1	19.9	0.00e+00	0	42	0	1044381696	53	4619
2026-01-23 10:25:55.68	336.94	22.90	-40.7	-43.0	20.0	0.00e+00	0	42	0	1046478848	53	4576
2026-01-23 10:25:56.69	336.99	22.75	-40.7	-43.0	20.0	0.00e+00	0	42	0	1048576000	53	4571
2026-01-23 10:25:57.69	337.04	22.61	-40.6	-42.9	20.1	0.00e+00	0	42	0	1049624576	53	4497
2026-01-23 10:25:58.68	337.08	22.47	-40.6	-42.9	20.0	0.00e+00	0	42	0	1051721728	53	4535
2026-01-23 10:25:59.68	337.13	22.33	-40.7	-43.1	19.9	0.00e+00	0	42	0	1053818880	53	4604
2026-01-23 10:26:00.68	337.17	22.19	-40.5	-42.8	20.1	0.00e+00	0	42	0	1055916032	53	4489
2026-01-23 10:26:01.68	337.22	22.05	-40.6	-42.9	20.0	0.00e+00	0	42	0	1056964608	52	4812
2026-01-23 10:26:02.68	337.26	21.91	-40.9	-43.3	19.7	0.00e+00	0	42	0	1059061760	52	4990
2026-01-23 10:26:03.68	337.31	21.77	-40.9	-43.2	19.7	0.00e+00	0	42	0	1061158912	52	4970
2026-01-23 10:26:04.68	337.35	21.63	-41.2	-43.6	19.5	0.00e+00	0	42	0	1063256064	52	5162
2026-01-23 10:26:05.68	337.40	21.50	-41.5	-43.9	19.1	0.00e+00	0	42	0	1065353216	53	5097
2026-01-23 10:26:06.68	337.44	21.36	-41.5	-44.0	19.1	0.00e+00	0	42	0	1066401792	53	5105
2026-01-23 10:26:07.69	337.48	21.22	-41.9	-44.4	18.7	0.00e+00	0	42	0	1068498944	54	5063
2026-01-23 10:26:08.69	337.52	21.09	-41.9	-44.4	18.7	0.00e+00	0	42	0	1070596096	54	5099
2026-01-23 10:26:09.69	337.57	20.95	-42.0	-44.6	18.5	0.00e+00	0	42	0	1072693248	54	5209
2026-01-23 10:26:10.69	337.61	20.82	-41.9	-44.5	18.6	0.00e+00	0	42	0	1074790400	54	5152
2026-01-23 10:26:11.69	337.65	20.69	-41.7	-44.4	18.8	0.00e+00	0	42	0	1075838976	54	5054
2026-01-23 10:26:12.69	337.69	20.56	-41.7	-44.4	18.7	0.00e+00	0	42	0	1077936128	54	5091
2026-01-23 10:26:13.69	337.73	20.42	-41.3	-44.0	19.1	0.00e+00	0	42	0	1080033280	54	4815
2026-01-23 10:26:14.69	337.77	20.29	-41.3	-43.9	19.1	0.00e+00	0	42	0	1082130432	54	4814
2026-01-23 10:26:15.69	337.81	20.16	-41.2	-43.7	19.3	0.00e+00	0	41	0	1084227584	54	4685
2026-01-23 10:26:16.69	337.85	20.03	-40.9	-43.2	19.7	0.00e+00	0	42	0	1085276160	53	4697
2026-01-23 10:26:17.70	337.89	19.90	-40.8	-43.1	19.9	0.00e+00	0	42	0	1087373312	53	4604
2026-01-23 10:26:18.70	337.93	19.78	-40.7	-43.0	20.0	0.00e+00	0	42	0	1089470464	53	4552
2026-01-23 10:26:19.70	337.97	19.65	-40.5	-42.7	20.2	0.00e+00	0	42	0	1091567616	53	4414
2026-01-23 10:26:20.70	338.01	19.52	-40.5	-42.6	20.3	0.00e+00	0	42	0	1092616192	53	4360
2026-01-23 10:26:21.71	338.05	19.40	-40.4	-42.5	20.4	0.00e+00	0	42	0	1094713344	52	4555
2026-01-23 10:26:22.71	338.09	19.27	-40.4	-42.5	20.4	0.00e+00	0	42	0	1096810496	52	4549
2026-01-23 10:26:23.71	338.12	19.15	-40.3	-42.4	20.5	0.00e+00	0	42	0	1098907648	52	4510
2026-01-23 10:26:24.71	338.16	19.02	-40.3	-42.4	20.4	0.00e+00	0	42	0	1101004800	52	4541
2026-01-23 10:26:25.71	338.20	18.90	-40.3	-42.4	20.4	0.00e+00	0	42	0	1102053376	52	4538
2026-01-23 10:26:26.71	338.24	18.77	-40.6	-42.7	20.1	0.00e+00	0	42	0	1104150528	52	4696
2026-01-23 10:26:27.71	338.27	18.65	-40.6	-42.8	20.1	0.00e+00	0	42	0	1106247680	52	4748
2026-01-23 10:26:28.71	338.31	18.53	-40.7	-43.0	19.9	0.00e+00	0	42	0	1108344832	52	4831
2026-01-23 10:26:29.71	338.35	18.41	-40.9	-43.1	19.8	0.00e+00	0	42	0	1110441984	52	4921
2026-01-23 10:26:30.71	338.38	18.29	-41.0	-43.3	19.7	0.00e+00	0	42	0	1111490560	52	4988
2026-01-23 10:26:31.71	338.42	18.17	-41.0	-43.2	19.7	0.00e+00	0	42	0	1113587712	52	4979
2026-01-23 10:26:32.72	338.45	18.05	-41.1	-43.4	19.6	0.00e+00	0	42	0	1115684864	52	5067
2026-01-23 10:26:33.71	338.49	17.93	-41.3	-43.6	19.4	0.00e+00	0	42	0	1117782016	53	4890
2026-01-23 10:26:34.72	338.52	17.81	-41.2	-43.5	19.4	0.00e+00	0	42	0	1119879168	53	4861
2026-01-23 10:26:35.72	338.56	17.69	-41.2	-43.5	19.5	0.00e+00	0	41	0	1120927744	53	4847
2026-01-23 10:26:36.72	338.59	17.58	-41.4	-43.6	19.3	0.00e+00	0	42	0	1123024896	53	4911
2026-01-23 10:26:37.72	338.63	17.46	-41.4	-43.7	19.3	0.00e+00	0	42	0	1125122048	53	4943
2026-01-23 10:26:38.72	338.66	17.34	-41.2	-43.4	19.5	0.00e+00	0	42	0	1127219200	53	4814
2026-01-23 10:26:39.72	338.70	17.23	-41.4	-43.6	19.4	0.00e+00	0	42	0	1129316352	53	4916
2026-01-23 10:26:40.72	338.73	17.11	-41.4	-43.6	19.3	0.00e+00	0	42	0	1130364928	53	4917
2026-01-23 10:26:41.73	338.76	17.00	-41.3	-43.5	19.4	0.00e+00	0	42	0	1132462080	53	4846
2026-01-23 10:26:42.73	338.80	16.88	-41.3	-43.6	19.4	0.00e+00	0	42	0	1134559232	53	4880
2026-01-23 10:26:43.73	338.83	16.77	-41.4	-43.7	19.3	0.00e+00	0	42	0	1136656384	53	4944
2026-01-23 10:26:44.74	338.86	16.66	-41.3	-43.6	19.3	0.00e+00	0	42	0	1137704960	53	4924
2026-01-23 10:26:45.74	338.89	16.54	-41.3	-43.7	19.3	0.00e+00	0	42	0	1139802112	53	4935
2026-01-23 10:26:46.74	338.93	16.43	-41.3	-43.7	19.2	0.00e+00	0	42	0	1141899264	53	4982
2026-01-23 10:26:47.74	338.96	16.32	-41.3	-43.8	19.2	0.00e+00	0	42	0	1143996416	53	5013
2026-01-23 10:26:48.75	338.99	16.21	-41.3	-43.8	19.1	0.00e+00	0	42	0	1146093568	53	5038
2026-01-23 10:26:49.75	339.02	16.10	-41.4	-43.9	19.1	0.00e+00	0	42	0	1147142144	53	5073
2026-01-23 10:26:50.75	339.05	15.99	-41.5	-44.1	18.9	0.00e+00	0	42	0	1149239296	53	5165
2026-01-23 10:26:51.75	339.09	15.88	-41.3	-43.9	19.1	0.00e+00	0	42	0	1151336448	53	5044
2026-01-23 10:26:52.75	339.12	15.77	-41.5	-44.0	19.0	0.00e+00	0	42	0	1153433600	53	5151
2026-01-23 10:26:53.76	339.15	15.66	-41.7	-44.3	18.7	0.00e+00	0	42	0	1155530752	54	5020
2026-01-23 10:26:54.76	339.18	15.55	-41.6	-44.1	18.9	0.00e+00	0	42	0	1156579328	54	4914
2026-01-23 10:26:55.76	339.21	15.45	-41.7	-44.2	18.8	0.00e+00	0	42	0	1158676480	54	4980
2026-01-23 10:26:56.76	339.24	15.34	-41.8	-44.4	18.6	0.00e+00	0	42	0	1160773632	54	5064
2026-01-23 10:26:57.77	339.27	15.23	-41.9	-44.5	18.6	0.00e+00	0	42	0	1162870784	54	5114
2026-01-23 10:26:58.77	339.30	15.13	-41.9	-44.6	18.5	0.00e+00	0	42	0	1164967936	54	5178
2026-01-23 10:26:59.77	339.33	15.02	-42.0	-44.7	18.4	0.00e+00	0	42	0	1166016512	54	5255
2026-01-23 10:27:00.77	339.36	14.92	-42.0	-44.8	18.3	0.00e+00	0	42	0	1168113664	54	5284
2026-01-23 10:27:01.77	339.39	14.81	-42.0	-44.9	18.2	0.00e+00	0	42	0	1170210816	54	5346
2026-01-23 10:27:02.77	339.42	14.71	-42.1	-45.0	18.1	0.00e+00	0	42	0	1172307968	54	5439
2026-01-23 10:27:03.77	339.45	14.60	-42.4	-45.4	17.7	0.00e+00	0	42	0	1174405120	55	5377
2026-01-23 10:27:04.77	339.48	14.50	-42.3	-45.3	17.8	0.00e+00	0	42	0	1175453696	55	5312
2026-01-23 10:27:05.78	339.51	14.40	-42.4	-45.5	17.6	0.00e+00	0	42	0	1177550848	55	5442
2026-01-23 10:27:06.77	339.53	14.29	-42.5	-45.6	17.5	0.00e+00	0	42	0	1179648000	55	5522
2026-01-23 10:27:07.78	339.56	14.19	-42.6	-45.8	17.3	0.00e+00	0	42	0	1181745152	55	5595
2026-01-23 10:27:08.77	339.59	14.09	-42.9	-46.1	17.1	0.00e+00	0	42	0	1182793728	56	5514
2026-01-23 10:27:09.77	339.62	13.99	-42.9	-46.1	17.1	0.00e+00	0	42	0	1184890880	56	5521
2026-01-23 10:27:10.78	339.65	13.89	-43.0	-46.2	17.1	0.00e+00	0	42	0	1186988032	56	5555
2026-01-23 10:27:11.78	339.67	13.79	-43.3	-46.6	16.6	0.00e+00	0	42	0	1189085184	57	5518
2026-01-23 10:27:12.78	339.70	13.69	-43.3	-46.6	16.7	0.00e+00	0	42	0	1191182336	57	5466
2026-01-23 10:27:13.78	339.73	13.59	-43.5	-46.7	16.6	0.00e+00	0	42	0	1192230912	57	5583
2026-01-23 10:27:14.78	339.76	13.49	-43.8	-47.1	16.2	0.00e+00	0	42	0	1194328064	58	5497
2026-01-23 10:27:15.78	339.78	13.39	-43.8	-47.2	16.1	0.00e+00	0	42	0	1196425216	58	5536
2026-01-23 10:27:16.78	339.81	13.29	-43.8	-47.0	16.2	0.00e+00	0	42	0	1198522368	58	5460
2026-01-23 10:27:17.79	339.84	13.19	-44.2	-47.6	15.7	0.00e+00	0	42	0	1200619520	58	5806
2026-01-23 10:27:18.79	339.86	13.10	-44.1	-47.6	15.7	0.00e+00	0	42	0	1201668096	58	5800
2026-01-23 10:27:19.79	339.89	13.00	-44.1	-47.5	15.8	0.00e+00	0	42	0	1203765248	58	5769
2026-01-23 10:27:20.79	339.92	12.90	-43.9	-47.3	16.0	0.00e+00	0	42	0	1205862400	58	5610
2026-01-23 10:27:21.79	339.94	12.81	-44.0	-47.6	15.7	0.00e+00	0	42	0	1207959552	58	5799
2026-01-23 10:27:22.80	339.97	12.71	-43.7	-47.2	16.0	0.00e+00	0	42	0	1209008128	58	5586
2026-01-23 10:27:23.80	340.00	12.61	-43.7	-47.3	15.9	0.00e+00	0	42	0	1211105280	58	5636
2026-01-23 10:27:24.80	340.02	12.52	-43.6	-47.4	15.9	0.00e+00	0	42	0	1213202432	58	5722
2026-01-23 10:27:25.80	340.05	12.42	-43.5	-47.3	16.0	0.00e+00	0	42	0	1215299584	58	5626
2026-01-23 10:27:26.81	340.07	12.33	-43.4	-47.2	16.1	0.00e+00	0	42	0	1217396736	58	5530
