passes_logs/2026/01/23/T1/T1__20260123_080801_NOAA_21_JPSS-2_rec.log

#Pass ID: 20260123_080801_NOAA 21 (JPSS-2)
#Satellite: NOAA 21 (JPSS-2)
#Configuration: NOAA 21
#almurnet v.1.7.20251203
#Start time: 2026-01-23 08:08:02

#Version: 2.0.20230620
#Station: T1
#Location: 37.570604 lon 55.790049 lat
#TLE: 1 54234U 22150A   26022.41365820  .00000211  00000+0  12084-3 0  9990
#TLE: 2 54234  98.7507 323.2240 0000658 234.5287 125.5828 14.19537645165864

#Time	Az	El	Level	Level2	SNR	BER	BlckErr	Temp	State	Recorded	gain1	gain2
2026-01-23 08:08:02.10	103.05	5.04	-48.3	-61.2	3.8	1.49e+00	0	35	0	0	68	15622
2026-01-23 08:08:03.09	102.96	5.10	-48.3	-61.1	3.8	1.49e+00	0	35	104	0	68	15540
2026-01-23 08:08:04.09	102.87	5.15	-48.3	-61.1	3.8	1.49e+00	0	35	104	0	68	15577
2026-01-23 08:08:05.08	102.78	5.21	-48.3	-61.2	3.8	1.49e+00	0	35	104	0	68	15583
2026-01-23 08:08:06.08	102.69	5.27	-48.3	-61.2	3.8	1.49e+00	0	35	104	0	68	15626
2026-01-23 08:08:07.07	102.60	5.33	-48.3	-61.2	3.8	1.49e+00	0	35	104	0	68	15601
2026-01-23 08:08:08.07	102.51	5.39	-48.3	-61.2	3.8	1.49e+00	0	35	104	0	68	15644
2026-01-23 08:08:09.07	102.42	5.44	-48.3	-61.2	3.8	1.49e+00	0	35	104	0	68	15671
2026-01-23 08:08:10.07	102.33	5.50	-48.2	-61.2	3.8	1.49e+00	0	35	104	0	68	15718
2026-01-23 08:08:11.07	102.24	5.56	-48.3	-61.2	3.8	1.49e+00	0	35	104	0	68	15664
2026-01-23 08:08:12.06	102.15	5.62	-48.3	-61.2	3.8	1.49e+00	0	35	104	0	68	15661
2026-01-23 08:08:13.06	102.05	5.68	-48.3	-61.2	3.8	1.49e+00	0	35	104	0	68	15653
2026-01-23 08:08:14.06	101.96	5.74	-48.2	-61.2	3.8	1.49e+00	0	35	104	0	68	15683
2026-01-23 08:08:15.06	101.87	5.80	-48.3	-61.2	3.8	1.49e+00	0	35	104	0	68	15664
2026-01-23 08:08:16.05	101.77	5.86	-48.2	-61.2	3.8	1.49e+00	0	35	104	0	68	15677
2026-01-23 08:08:17.05	101.68	5.91	-48.3	-61.2	3.8	1.49e+00	0	36	104	0	68	15718
2026-01-23 08:08:18.04	101.59	5.97	-48.3	-61.2	3.8	1.49e+00	0	36	104	0	68	15732
2026-01-23 08:08:19.04	101.49	6.03	-48.2	-61.2	3.8	1.49e+00	0	36	104	0	68	15715
2026-01-23 08:08:20.04	101.40	6.09	-48.3	-61.2	3.8	1.49e+00	0	36	104	0	68	15729
2026-01-23 08:08:21.04	101.30	6.15	-48.3	-61.2	3.8	1.49e+00	0	36	104	0	68	15640
2026-01-23 08:08:22.04	101.20	6.21	-48.2	-61.2	3.8	1.49e+00	0	36	104	0	68	15643
2026-01-23 08:08:23.03	101.11	6.27	-48.2	-61.1	3.8	1.49e+00	0	36	104	0	68	15553
2026-01-23 08:08:24.03	101.01	6.33	-48.2	-61.1	3.8	1.49e+00	0	36	104	0	68	15433
2026-01-23 08:08:25.03	100.91	6.39	-48.2	-61.0	3.8	1.49e+00	0	36	104	0	68	15333
2026-01-23 08:08:26.03	100.82	6.45	-48.2	-61.0	3.8	1.49e+00	0	36	104	0	68	15307
2026-01-23 08:08:27.02	100.72	6.51	-48.2	-61.0	3.8	1.49e+00	0	36	104	0	68	15264
2026-01-23 08:08:28.02	100.62	6.57	-48.2	-60.9	3.8	1.49e+00	0	36	104	0	68	15169
2026-01-23 08:08:29.02	100.52	6.63	-48.2	-60.9	3.8	1.49e+00	0	36	104	0	68	15177
2026-01-23 08:08:30.02	100.42	6.69	-48.2	-61.0	3.8	1.49e+00	0	36	104	0	68	15227
2026-01-23 08:08:31.02	100.32	6.75	-48.2	-61.0	3.8	1.49e+00	0	36	104	0	68	15381
2026-01-23 08:08:32.02	100.22	6.81	-48.2	-61.0	3.8	1.49e+00	0	36	104	0	68	15395
2026-01-23 08:08:33.01	100.12	6.87	-48.2	-61.0	3.8	1.49e+00	0	36	104	0	68	15382
2026-01-23 08:08:34.01	100.02	6.93	-48.2	-61.1	3.8	1.49e+00	0	36	104	0	68	15451
2026-01-23 08:08:35.01	99.92	6.99	-48.2	-61.0	3.8	1.49e+00	0	36	104	0	68	15322
2026-01-23 08:08:36.01	99.81	7.05	-48.2	-61.0	3.8	1.49e+00	0	36	104	0	68	15307
2026-01-23 08:08:37.00	99.71	7.11	-48.2	-60.9	3.8	1.49e+00	0	36	104	0	68	15099
2026-01-23 08:08:38.01	99.61	7.17	-48.2	-60.7	3.8	1.49e+00	0	36	104	0	68	14816
2026-01-23 08:08:39.00	99.51	7.23	-48.2	-60.6	3.8	1.49e+00	0	36	104	0	68	14594
2026-01-23 08:08:40.00	99.40	7.29	-48.2	-60.4	3.8	1.49e+00	0	36	104	0	68	14324
2026-01-23 08:08:41.00	99.30	7.35	-48.2	-60.3	3.8	1.49e+00	0	36	104	0	68	14180
2026-01-23 08:08:42.00	99.19	7.41	-48.2	-60.3	3.8	1.49e+00	0	36	104	0	68	14178
2026-01-23 08:08:42.99	99.09	7.47	-48.2	-60.4	3.8	1.49e+00	0	36	104	0	68	14342
2026-01-23 08:08:44.00	98.98	7.53	-48.2	-60.6	3.8	1.49e+00	0	36	104	0	68	14568
2026-01-23 08:08:45.00	98.88	7.59	-48.2	-60.6	3.8	1.49e+00	0	36	104	0	68	14705
2026-01-23 08:08:45.99	98.77	7.65	-48.2	-60.7	3.8	1.49e+00	0	36	104	0	68	14828
2026-01-23 08:08:46.98	98.67	7.71	-48.2	-60.7	3.8	1.49e+00	0	36	104	0	68	14775
2026-01-23 08:08:47.98	98.56	7.77	-48.2	-60.6	3.8	1.49e+00	0	36	104	0	68	14567
2026-01-23 08:08:48.98	98.45	7.83	-48.1	-60.2	3.8	1.49e+00	0	36	104	0	68	14032
2026-01-23 08:08:49.98	98.34	7.89	-48.1	-59.8	3.8	1.49e+00	0	37	104	0	68	13388
2026-01-23 08:08:50.97	98.23	7.95	-48.1	-59.6	3.8	1.49e+00	0	37	104	0	68	12964
2026-01-23 08:08:51.97	98.13	8.01	-48.1	-59.5	3.8	1.49e+00	0	37	104	0	68	12914
2026-01-23 08:08:52.97	98.02	8.07	-48.1	-59.9	3.8	1.49e+00	0	37	104	0	68	13454
2026-01-23 08:08:53.96	97.91	8.13	-48.2	-60.5	3.8	1.49e+00	0	36	104	0	68	14427
2026-01-23 08:08:54.96	97.80	8.20	-48.1	-60.1	3.8	1.49e+00	0	37	104	0	68	13736
2026-01-23 08:08:55.96	97.68	8.26	-47.6	-57.1	4.0	1.47e+00	0	37	104	0	67	10366
2026-01-23 08:08:56.96	97.57	8.32	-46.6	-52.7	7.1	2.86e-01	0	37	0	0	65	6986
2026-01-23 08:08:57.96	97.46	8.38	-45.3	-49.5	10.3	1.24e-02	0	37	0	0	62	5750
2026-01-23 08:08:58.95	97.35	8.44	-44.0	-47.1	12.8	1.34e-04	0	37	0	0	59	5201
2026-01-23 08:08:59.95	97.24	8.50	-42.6	-45.2	14.7	3.80e-06	0	37	0	0	57	4688
2026-01-23 08:09:00.95	97.12	8.56	-41.4	-43.6	16.1	0.00e+00	0	37	0	0	54	4631
2026-01-23 08:09:01.94	97.01	8.62	-40.6	-42.6	17.1	0.00e+00	0	37	0	0	53	4389
2026-01-23 08:09:02.95	96.89	8.69	-40.3	-42.3	17.4	0.00e+00	0	37	0	0	52	4462
2026-01-23 08:09:03.95	96.78	8.75	-40.3	-42.3	17.4	0.00e+00	0	37	0	0	52	4462
2026-01-23 08:09:04.94	96.66	8.81	-40.8	-42.9	16.8	0.00e+00	0	37	0	0	52	4791
2026-01-23 08:09:05.94	96.55	8.87	-41.5	-43.8	15.8	0.00e+00	0	37	0	0	53	5036
2026-01-23 08:09:06.93	96.43	8.93	-42.9	-45.6	14.3	0.00e+00	0	37	0	0	56	5191
2026-01-23 08:09:07.93	96.32	8.99	-44.2	-47.5	12.5	4.88e-05	0	37	0	0	58	5724
2026-01-23 08:09:08.92	96.20	9.05	-45.5	-49.9	10.0	4.82e-03	0	37	0	0	61	6359
2026-01-23 08:09:09.92	96.08	9.12	-41.3	-43.6	16.2	4.34e-05	0	37	0	0	54	4613
2026-01-23 08:09:10.92	95.96	9.18	-44.9	-48.8	11.2	6.80e-06	0	37	0	0	60	5992
2026-01-23 08:09:11.91	95.85	9.24	-47.0	-54.0	6.0	3.52e-02	0	37	0	0	64	8638
2026-01-23 08:09:12.91	95.73	9.30	-41.7	-44.2	15.6	6.10e-06	0	37	0	0	55	4653
2026-01-23 08:09:13.91	95.61	9.36	-47.3	-55.9	4.8	2.70e-01	0	37	0	0	65	10165
2026-01-23 08:09:14.91	95.49	9.42	-42.0	-44.5	15.5	1.50e-06	0	37	0	0	56	4546
2026-01-23 08:09:15.91	95.36	9.49	-40.5	-42.6	17.1	0.00e+00	0	37	0	0	53	4383
2026-01-23 08:09:16.91	95.24	9.55	-40.0	-41.9	18.0	0.00e+00	0	37	0	0	51	4533
2026-01-23 08:09:17.90	95.12	9.61	-39.9	-41.8	18.1	0.00e+00	0	37	0	0	51	4464
2026-01-23 08:09:18.90	95.00	9.67	-40.0	-41.9	17.9	0.00e+00	0	37	0	0	51	4522
2026-01-23 08:09:19.90	94.88	9.73	-39.9	-41.8	18.0	0.00e+00	0	37	0	0	51	4469
2026-01-23 08:09:20.90	94.75	9.80	-39.8	-41.8	18.1	0.00e+00	0	37	0	0	51	4446
2026-01-23 08:09:21.89	94.63	9.86	-39.6	-41.4	18.4	0.00e+00	0	37	0	0	51	4289
2026-01-23 08:09:22.89	94.50	9.92	-39.5	-41.3	18.5	0.00e+00	0	37	0	0	51	4242
2026-01-23 08:09:23.89	94.38	9.98	-39.5	-41.4	18.5	0.00e+00	0	37	0	0	50	4496
2026-01-23 08:09:24.89	94.25	10.04	-39.5	-41.4	18.4	0.00e+00	0	37	0	0	50	4514
2026-01-23 08:09:25.89	94.13	10.11	-39.5	-41.4	18.4	0.00e+00	0	37	0	0	50	4502
2026-01-23 08:09:26.89	94.00	10.17	-39.6	-41.5	18.4	0.00e+00	0	37	0	0	50	4574
2026-01-23 08:09:27.89	93.87	10.23	-39.5	-41.4	18.4	0.00e+00	0	37	0	0	50	4515
2026-01-23 08:09:28.88	93.74	10.29	-39.5	-41.4	18.4	0.00e+00	0	37	0	0	50	4520
2026-01-23 08:09:29.88	93.62	10.35	-39.5	-41.3	18.5	0.00e+00	0	37	0	0	50	4491
2026-01-23 08:09:30.88	93.49	10.42	-39.3	-41.2	18.7	0.00e+00	0	37	0	0	50	4402
2026-01-23 08:09:31.88	93.36	10.48	-39.3	-41.1	18.7	0.00e+00	0	37	0	0	50	4384
2026-01-23 08:09:32.87	93.23	10.54	-39.3	-41.1	18.7	0.00e+00	0	37	0	0	50	4369
2026-01-23 08:09:33.87	93.10	10.60	-39.1	-40.9	18.9	0.00e+00	0	37	0	0	50	4282
2026-01-23 08:09:34.87	92.97	10.67	-39.1	-40.9	18.9	0.00e+00	0	37	0	0	50	4291
2026-01-23 08:09:35.86	92.84	10.73	-39.2	-41.1	18.7	0.00e+00	0	37	0	0	50	4346
2026-01-23 08:09:36.86	92.70	10.79	-39.2	-41.0	18.7	0.00e+00	0	37	0	0	50	4335
2026-01-23 08:09:37.86	92.57	10.85	-39.2	-41.1	18.7	0.00e+00	0	37	0	0	50	4354
2026-01-23 08:09:38.85	92.44	10.91	-39.3	-41.1	18.7	0.00e+00	0	37	0	0	50	4368
2026-01-23 08:09:39.85	92.30	10.98	-39.3	-41.2	18.7	0.00e+00	0	37	0	0	50	4396
2026-01-23 08:09:40.85	92.17	11.04	-39.2	-41.1	18.8	0.00e+00	0	37	0	0	50	4355
2026-01-23 08:09:41.85	92.03	11.10	-39.2	-41.1	18.8	0.00e+00	0	37	0	0	50	4345
2026-01-23 08:09:42.85	91.90	11.16	-39.3	-41.1	18.8	0.00e+00	0	37	0	0	50	4366
2026-01-23 08:09:43.85	91.76	11.23	-39.3	-41.1	18.8	0.00e+00	0	37	0	0	50	4372
2026-01-23 08:09:44.84	91.62	11.29	-39.2	-41.1	18.8	0.00e+00	0	37	0	0	50	4346
2026-01-23 08:09:45.84	91.49	11.35	-39.1	-40.9	19.0	0.00e+00	0	37	0	0	50	4289
2026-01-23 08:09:46.84	91.35	11.41	-39.1	-40.9	18.9	0.00e+00	0	37	0	0	50	4289
2026-01-23 08:09:47.84	91.21	11.47	-39.1	-40.9	19.0	0.00e+00	0	37	0	0	50	4277
2026-01-23 08:09:48.84	91.07	11.54	-39.0	-40.8	19.1	0.00e+00	0	37	0	0	50	4236
2026-01-23 08:09:49.83	90.93	11.60	-39.0	-40.8	19.1	0.00e+00	0	37	0	0	50	4217
2026-01-23 08:09:50.83	90.79	11.66	-39.0	-40.9	19.1	0.00e+00	0	37	0	0	50	4245
2026-01-23 08:09:51.83	90.65	11.72	-39.0	-40.8	19.1	0.00e+00	0	37	0	0	50	4214
2026-01-23 08:09:52.83	90.51	11.79	-38.9	-40.8	19.2	0.00e+00	0	37	0	0	49	4447
2026-01-23 08:09:53.83	90.36	11.85	-39.0	-40.8	19.1	0.00e+00	0	37	0	0	49	4464
2026-01-23 08:09:54.84	90.22	11.91	-39.1	-40.9	19.1	0.00e+00	0	37	0	0	49	4510
2026-01-23 08:09:55.83	90.08	11.97	-39.1	-41.0	19.0	0.00e+00	0	37	0	0	49	4549
2026-01-23 08:09:56.83	89.93	12.04	-39.0	-40.8	19.1	0.00e+00	0	37	0	0	49	4463
2026-01-23 08:09:57.83	89.79	12.10	-39.0	-40.9	19.1	0.00e+00	0	37	0	0	49	4500
2026-01-23 08:09:58.84	89.64	12.16	-39.0	-40.8	19.1	0.00e+00	0	37	0	0	49	4457
2026-01-23 08:09:59.84	89.49	12.22	-39.0	-40.9	19.1	0.00e+00	0	37	0	0	49	4499
2026-01-23 08:10:00.84	89.35	12.29	-39.0	-40.8	19.1	0.00e+00	0	37	0	0	49	4457
2026-01-23 08:10:01.84	89.20	12.35	-39.0	-40.8	19.0	0.00e+00	0	37	0	0	49	4493
2026-01-23 08:10:02.84	89.05	12.41	-39.2	-41.0	18.9	0.00e+00	0	37	0	0	49	4571
2026-01-23 08:10:03.84	88.90	12.47	-39.2	-41.0	18.9	0.00e+00	0	37	0	0	49	4578
2026-01-23 08:10:04.83	88.75	12.53	-39.2	-41.0	18.9	0.00e+00	0	37	0	0	49	4595
2026-01-23 08:10:05.84	88.60	12.60	-39.2	-41.0	18.9	0.00e+00	0	37	0	0	49	4582
2026-01-23 08:10:06.83	88.45	12.66	-39.2	-41.1	18.9	0.00e+00	0	37	0	0	49	4616
2026-01-23 08:10:07.83	88.30	12.72	-39.3	-41.1	18.9	0.00e+00	0	37	0	0	49	4619
2026-01-23 08:10:08.84	88.15	12.78	-39.3	-41.1	18.8	0.00e+00	0	37	0	0	49	4636
2026-01-23 08:10:09.84	87.99	12.84	-39.3	-41.1	18.9	0.00e+00	0	37	0	0	49	4617
2026-01-23 08:10:10.84	87.84	12.91	-39.2	-41.1	18.9	0.00e+00	0	37	0	0	49	4613
2026-01-23 08:10:11.84	87.69	12.97	-39.2	-41.1	18.9	0.00e+00	0	37	0	0	49	4601
2026-01-23 08:10:12.84	87.53	13.03	-39.1	-41.0	19.0	0.00e+00	0	37	0	0	49	4559
2026-01-23 08:10:13.84	87.38	13.09	-39.2	-41.1	18.9	0.00e+00	0	37	0	0	49	4609
2026-01-23 08:10:14.84	87.22	13.15	-39.3	-41.2	18.8	0.00e+00	0	37	0	0	49	4678
2026-01-23 08:10:15.84	87.06	13.21	-39.1	-41.0	19.0	0.00e+00	0	37	0	0	49	4555
2026-01-23 08:10:16.85	86.91	13.28	-39.2	-41.0	19.0	0.00e+00	0	37	0	0	49	4589
2026-01-23 08:10:17.84	86.75	13.34	-39.2	-41.0	18.9	0.00e+00	0	37	0	0	49	4592
2026-01-23 08:10:18.84	86.59	13.40	-39.0	-40.8	19.1	0.00e+00	0	37	0	0	49	4488
2026-01-23 08:10:19.84	86.43	13.46	-38.8	-40.6	19.3	0.00e+00	0	37	0	0	49	4382
2026-01-23 08:10:20.84	86.27	13.52	-38.8	-40.6	19.4	0.00e+00	0	37	0	0	49	4360
2026-01-23 08:10:21.84	86.11	13.58	-38.7	-40.5	19.4	0.00e+00	0	37	0	0	49	4330
2026-01-23 08:10:22.84	85.95	13.64	-38.8	-40.5	19.4	0.00e+00	0	37	0	0	49	4338
2026-01-23 08:10:23.84	85.79	13.70	-38.8	-40.6	19.2	0.00e+00	0	37	0	0	49	4385
2026-01-23 08:10:24.84	85.62	13.77	-38.8	-40.6	19.3	0.00e+00	0	37	0	0	49	4387
2026-01-23 08:10:25.84	85.46	13.83	-38.9	-40.7	19.2	0.00e+00	0	37	0	0	49	4431
2026-01-23 08:10:26.84	85.30	13.89	-39.0	-40.8	19.1	0.00e+00	0	37	0	0	49	4454
2026-01-23 08:10:27.84	85.13	13.95	-38.9	-40.8	19.2	0.00e+00	0	37	0	0	49	4454
2026-01-23 08:10:28.84	84.97	14.01	-38.8	-40.6	19.3	0.00e+00	0	37	0	0	49	4367
2026-01-23 08:10:29.84	84.80	14.07	-38.9	-40.7	19.3	0.00e+00	0	37	0	0	49	4414
2026-01-23 08:10:30.84	84.63	14.13	-38.9	-40.7	19.2	0.00e+00	0	37	0	0	49	4440
2026-01-23 08:10:31.84	84.47	14.19	-38.9	-40.7	19.3	0.00e+00	0	37	0	0	49	4427
2026-01-23 08:10:32.84	84.30	14.25	-38.9	-40.7	19.2	0.00e+00	0	37	0	0	49	4426
2026-01-23 08:10:33.84	84.13	14.31	-39.0	-40.8	19.2	0.00e+00	0	37	0	0	49	4485
2026-01-23 08:10:34.84	83.96	14.37	-39.1	-40.9	19.0	0.00e+00	0	37	0	0	49	4538
2026-01-23 08:10:35.84	83.79	14.43	-39.1	-41.0	19.0	0.00e+00	0	37	0	0	49	4582
2026-01-23 08:10:36.84	83.62	14.49	-39.2	-41.0	19.0	0.00e+00	0	37	0	0	49	4598
2026-01-23 08:10:37.84	83.45	14.55	-39.1	-41.0	19.0	0.00e+00	0	37	0	0	49	4559
2026-01-23 08:10:38.84	83.28	14.61	-39.2	-41.0	19.0	0.00e+00	0	38	0	0	49	4573
2026-01-23 08:10:39.84	83.10	14.67	-39.2	-41.1	19.0	0.00e+00	0	37	0	0	49	4605
2026-01-23 08:10:40.84	82.93	14.73	-39.0	-40.8	19.2	0.00e+00	0	37	0	0	49	4491
2026-01-23 08:10:41.84	82.75	14.79	-38.9	-40.7	19.3	0.00e+00	0	37	0	0	49	4427
2026-01-23 08:10:42.84	82.58	14.85	-39.0	-40.8	19.2	0.00e+00	0	37	0	0	49	4468
2026-01-23 08:10:43.85	82.40	14.91	-39.1	-41.0	19.1	0.00e+00	0	37	0	0	49	4555
2026-01-23 08:10:44.85	82.22	14.97	-39.0	-40.8	19.2	0.00e+00	0	37	0	0	49	4493
2026-01-23 08:10:45.85	82.05	15.03	-39.1	-41.0	19.0	0.00e+00	0	37	0	0	49	4561
2026-01-23 08:10:46.84	81.87	15.08	-39.2	-41.1	19.0	0.00e+00	0	37	0	0	49	4618
2026-01-23 08:10:47.84	81.69	15.14	-39.2	-41.1	19.0	0.00e+00	0	37	0	0	49	4612
2026-01-23 08:10:48.84	81.51	15.20	-39.2	-41.0	19.1	0.00e+00	0	37	0	0	49	4579
2026-01-23 08:10:49.84	81.33	15.26	-39.1	-40.9	19.2	0.00e+00	0	37	0	0	49	4532
2026-01-23 08:10:50.84	81.15	15.32	-39.1	-40.9	19.2	0.00e+00	0	37	0	0	49	4523
2026-01-23 08:10:51.85	80.97	15.38	-39.1	-40.9	19.2	0.00e+00	0	37	0	0	49	4510
2026-01-23 08:10:52.85	80.79	15.43	-39.0	-40.7	19.2	0.00e+00	0	37	0	0	49	4440
2026-01-23 08:10:53.85	80.60	15.49	-39.1	-40.9	19.1	0.00e+00	0	37	0	0	49	4528
2026-01-23 08:10:54.84	80.42	15.55	-39.1	-40.9	19.1	0.00e+00	0	37	0	0	49	4516
2026-01-23 08:10:55.84	80.24	15.61	-39.2	-41.0	19.1	0.00e+00	0	37	0	0	49	4554
2026-01-23 08:10:56.84	80.05	15.66	-39.1	-40.9	19.1	0.00e+00	0	37	0	0	49	4544
2026-01-23 08:10:57.85	79.87	15.72	-39.3	-41.1	19.0	0.00e+00	0	38	0	0	49	4614
2026-01-23 08:10:58.85	79.68	15.78	-39.1	-40.9	19.1	0.00e+00	0	37	0	0	49	4543
2026-01-23 08:10:59.85	79.49	15.83	-39.1	-40.9	19.1	0.00e+00	0	37	0	0	49	4501
2026-01-23 08:11:00.85	79.30	15.89	-39.0	-40.8	19.2	0.00e+00	0	37	0	0	49	4484
2026-01-23 08:11:01.85	79.12	15.95	-39.1	-40.9	19.1	0.00e+00	0	37	0	0	49	4524
2026-01-23 08:11:02.84	78.93	16.00	-39.1	-40.9	19.1	0.00e+00	0	37	0	0	49	4545
2026-01-23 08:11:03.84	78.74	16.06	-39.1	-40.9	19.1	0.00e+00	0	37	0	0	49	4532
2026-01-23 08:11:04.84	78.55	16.11	-39.2	-41.0	19.0	0.00e+00	0	37	0	0	49	4598
2026-01-23 08:11:05.84	78.36	16.17	-39.3	-41.2	18.9	0.00e+00	0	37	0	0	49	4661
2026-01-23 08:11:06.84	78.16	16.22	-39.2	-41.0	19.1	0.00e+00	0	37	0	0	49	4573
2026-01-23 08:11:07.85	77.97	16.28	-39.2	-41.0	19.0	0.00e+00	0	38	0	0	49	4576
2026-01-23 08:11:08.85	77.78	16.34	-39.2	-41.0	19.1	0.00e+00	0	38	0	0	49	4579
2026-01-23 08:11:09.85	77.58	16.39	-39.0	-40.8	19.3	0.00e+00	0	37	0	0	49	4476
2026-01-23 08:11:10.85	77.39	16.44	-39.0	-40.8	19.3	0.00e+00	0	37	0	0	49	4462
2026-01-23 08:11:11.85	77.19	16.50	-38.9	-40.7	19.3	0.00e+00	0	38	0	0	49	4406
2026-01-23 08:11:12.85	76.99	16.55	-38.9	-40.7	19.4	0.00e+00	0	37	0	0	49	4401
2026-01-23 08:11:13.85	76.80	16.61	-38.7	-40.5	19.5	0.00e+00	0	37	0	0	49	4314
2026-01-23 08:11:14.85	76.60	16.66	-38.6	-40.4	19.6	0.00e+00	0	38	0	0	49	4263
2026-01-23 08:11:15.85	76.40	16.71	-38.7	-40.5	19.5	0.00e+00	0	38	0	0	49	4317
2026-01-23 08:11:16.85	76.20	16.77	-38.8	-40.5	19.4	0.00e+00	0	37	0	0	49	4337
2026-01-23 08:11:17.86	76.00	16.82	-38.6	-40.4	19.5	0.00e+00	0	38	0	0	49	4250
2026-01-23 08:11:18.86	75.80	16.87	-38.5	-40.2	19.6	0.00e+00	0	37	0	0	49	4190
2026-01-23 08:11:19.86	75.60	16.93	-38.7	-40.4	19.5	0.00e+00	0	38	0	0	49	4260
2026-01-23 08:11:20.86	75.40	16.98	-38.6	-40.4	19.6	0.00e+00	0	37	0	0	49	4252
2026-01-23 08:11:21.86	75.19	17.03	-38.7	-40.4	19.5	0.00e+00	0	38	0	0	49	4275
2026-01-23 08:11:22.86	74.99	17.08	-38.8	-40.5	19.4	0.00e+00	0	37	0	0	49	4322
2026-01-23 08:11:23.86	74.79	17.13	-38.8	-40.5	19.4	0.00e+00	0	37	0	0	49	4338
2026-01-23 08:11:24.86	74.58	17.18	-38.7	-40.5	19.4	0.00e+00	0	37	0	0	49	4324
2026-01-23 08:11:25.86	74.38	17.23	-38.9	-40.6	19.3	0.00e+00	0	37	0	0	49	4379
2026-01-23 08:11:26.87	74.17	17.29	-39.0	-40.8	19.2	0.00e+00	0	37	0	0	49	4454
2026-01-23 08:11:27.87	73.96	17.34	-38.9	-40.7	19.2	0.00e+00	0	37	0	0	49	4437
2026-01-23 08:11:28.87	73.75	17.39	-38.9	-40.7	19.3	0.00e+00	0	38	0	0	49	4398
2026-01-23 08:11:29.86	73.55	17.43	-38.9	-40.7	19.2	0.00e+00	0	37	0	0	49	4416
2026-01-23 08:11:30.86	73.34	17.48	-38.9	-40.7	19.2	0.00e+00	0	38	0	0	49	4429
2026-01-23 08:11:31.86	73.13	17.53	-38.9	-40.7	19.3	0.00e+00	0	38	0	0	49	4417
2026-01-23 08:11:32.86	72.92	17.58	-38.8	-40.6	19.5	0.00e+00	0	37	0	0	49	4356
2026-01-23 08:11:33.86	72.71	17.63	-38.6	-40.4	19.7	0.00e+00	0	38	0	0	49	4244
2026-01-23 08:11:34.86	72.49	17.68	-38.4	-40.2	19.9	0.00e+00	0	37	0	0	48	4395
2026-01-23 08:11:35.86	72.28	17.73	-38.4	-40.1	19.9	0.00e+00	0	37	0	0	48	4358
2026-01-23 08:11:36.86	72.07	17.77	-38.5	-40.2	19.8	0.00e+00	0	37	0	0	48	4400
2026-01-23 08:11:37.86	71.85	17.82	-38.3	-40.0	20.0	0.00e+00	0	38	0	0	48	4310
2026-01-23 08:11:38.86	71.64	17.87	-38.2	-39.9	20.0	0.00e+00	0	38	0	0	48	4271
2026-01-23 08:11:39.87	71.42	17.92	-38.2	-39.9	20.0	0.00e+00	0	38	0	0	48	4272
2026-01-23 08:11:40.87	71.21	17.96	-38.3	-40.0	20.0	0.00e+00	0	38	0	0	48	4299
2026-01-23 08:11:41.87	70.99	18.01	-38.2	-39.9	20.1	0.00e+00	0	37	0	0	48	4261
2026-01-23 08:11:42.87	70.77	18.05	-38.2	-39.9	20.1	0.00e+00	0	38	0	0	48	4255
2026-01-23 08:11:43.87	70.56	18.10	-38.0	-39.7	20.3	0.00e+00	0	38	0	0	48	4160
2026-01-23 08:11:44.87	70.34	18.14	-37.9	-39.6	20.2	0.00e+00	0	38	0	0	47	4341
2026-01-23 08:11:45.87	70.12	18.19	-37.9	-39.6	20.1	0.00e+00	0	38	0	0	47	4373
2026-01-23 08:11:46.87	69.90	18.23	-38.0	-39.7	20.0	0.00e+00	0	37	0	0	47	4400
2026-01-23 08:11:47.87	69.68	18.28	-38.1	-39.8	19.9	0.00e+00	0	37	0	0	47	4466
2026-01-23 08:11:48.87	69.46	18.32	-38.1	-39.8	19.9	0.00e+00	0	38	0	0	47	4475
2026-01-23 08:11:49.88	69.23	18.36	-38.2	-39.9	19.8	0.00e+00	0	37	0	0	47	4545
2026-01-23 08:11:50.88	69.01	18.41	-38.2	-40.0	19.8	0.00e+00	0	38	0	0	47	4552
2026-01-23 08:11:51.88	68.79	18.45	-38.3	-40.1	19.7	0.00e+00	0	38	0	0	47	4608
2026-01-23 08:11:52.88	68.57	18.49	-38.3	-40.1	19.7	0.00e+00	0	38	0	0	47	4612
2026-01-23 08:11:53.88	68.34	18.53	-38.3	-40.0	19.8	0.00e+00	0	38	0	0	47	4564
2026-01-23 08:11:54.88	68.12	18.57	-38.3	-40.0	19.8	0.00e+00	0	38	0	0	47	4556
2026-01-23 08:11:55.88	67.89	18.62	-38.3	-40.0	19.8	0.00e+00	0	37	0	0	47	4586
2026-01-23 08:11:56.88	67.66	18.66	-38.3	-40.0	19.8	0.00e+00	0	38	0	0	47	4565
2026-01-23 08:11:57.88	67.44	18.70	-38.2	-39.9	19.8	0.00e+00	0	37	0	0	47	4536
2026-01-23 08:11:58.88	67.21	18.74	-38.1	-39.8	19.9	0.00e+00	0	37	0	0	47	4480
2026-01-23 08:11:59.88	66.98	18.77	-38.1	-39.9	19.9	0.00e+00	0	37	0	0	47	4497
2026-01-23 08:12:00.88	66.76	18.81	-38.1	-39.8	19.9	0.00e+00	0	38	0	0	47	4489
2026-01-23 08:12:01.88	66.53	18.85	-38.1	-39.8	20.0	0.00e+00	0	37	0	0	47	4443
2026-01-23 08:12:02.87	66.30	18.89	-38.1	-39.8	19.9	0.00e+00	0	37	0	0	47	4475
2026-01-23 08:12:03.87	66.07	18.93	-38.0	-39.7	20.0	0.00e+00	0	37	0	0	47	4427
2026-01-23 08:12:04.87	65.84	18.96	-38.1	-39.8	20.0	0.00e+00	0	38	0	0	47	4457
2026-01-23 08:12:05.87	65.61	19.00	-38.1	-39.8	20.0	0.00e+00	0	38	0	0	47	4461
2026-01-23 08:12:06.86	65.38	19.04	-38.1	-39.8	20.0	0.00e+00	0	37	0	0	47	4486
2026-01-23 08:12:07.86	65.15	19.07	-37.9	-39.6	20.2	0.00e+00	0	37	0	0	47	4366
2026-01-23 08:12:08.86	64.91	19.11	-37.9	-39.6	20.1	0.00e+00	0	38	0	0	47	4365
2026-01-23 08:12:09.86	64.68	19.14	-38.0	-39.7	20.1	0.00e+00	0	37	0	0	47	4401
2026-01-23 08:12:10.85	64.45	19.18	-37.9	-39.6	20.2	0.00e+00	0	38	0	0	47	4349
2026-01-23 08:12:11.85	64.21	19.21	-38.0	-39.6	20.1	0.00e+00	0	37	0	0	47	4388
2026-01-23 08:12:12.85	63.98	19.25	-37.9	-39.6	20.1	0.00e+00	0	37	0	0	47	4373
2026-01-23 08:12:13.85	63.74	19.28	-37.9	-39.6	20.1	0.00e+00	0	38	0	0	47	4382
2026-01-23 08:12:14.85	63.51	19.31	-38.0	-39.7	20.1	0.00e+00	0	37	0	0	47	4410
2026-01-23 08:12:15.84	63.27	19.34	-38.1	-39.8	20.0	0.00e+00	0	38	0	0	47	4457
2026-01-23 08:12:16.84	63.04	19.38	-38.1	-39.8	20.0	0.00e+00	0	37	0	0	47	4456
2026-01-23 08:12:17.83	62.80	19.41	-38.1	-39.9	19.9	0.00e+00	0	38	0	0	47	4494
2026-01-23 08:12:18.83	62.56	19.44	-38.1	-39.8	19.9	0.00e+00	0	37	0	0	47	4492
2026-01-23 08:12:19.83	62.33	19.47	-38.1	-39.8	19.9	0.00e+00	0	38	0	0	47	4476
2026-01-23 08:12:20.82	62.09	19.50	-38.1	-39.9	19.9	0.00e+00	0	37	0	0	47	4496
2026-01-23 08:12:21.82	61.85	19.53	-38.2	-39.9	19.8	0.00e+00	0	38	0	0	47	4518
2026-01-23 08:12:22.82	61.61	19.56	-38.2	-39.9	19.8	0.00e+00	0	38	0	0	47	4542
2026-01-23 08:12:23.82	61.37	19.58	-38.2	-39.9	19.8	0.00e+00	0	37	0	0	47	4545
2026-01-23 08:12:24.82	61.13	19.61	-38.2	-39.9	19.9	0.00e+00	0	37	0	0	47	4517
2026-01-23 08:12:25.81	60.89	19.64	-38.2	-40.0	19.8	0.00e+00	0	38	0	0	47	4558
2026-01-23 08:12:26.81	60.65	19.67	-38.1	-39.8	19.9	0.00e+00	0	38	0	0	47	4485
2026-01-23 08:12:27.80	60.41	19.69	-38.1	-39.8	19.9	0.00e+00	0	37	0	0	47	4473
2026-01-23 08:12:28.81	60.16	19.72	-38.2	-39.9	19.8	0.00e+00	0	38	0	0	47	4525
2026-01-23 08:12:29.81	59.92	19.74	-38.2	-40.0	19.8	0.00e+00	0	38	0	0	47	4548
2026-01-23 08:12:30.80	59.68	19.77	-38.1	-39.9	19.9	0.00e+00	0	38	0	0	47	4505
2026-01-23 08:12:31.80	59.44	19.79	-38.3	-40.0	19.8	0.00e+00	0	38	0	0	47	4566
2026-01-23 08:12:32.80	59.19	19.82	-38.3	-40.0	19.8	0.00e+00	0	37	0	0	47	4582
2026-01-23 08:12:33.79	58.95	19.84	-38.3	-40.1	19.7	0.00e+00	0	37	0	0	47	4599
2026-01-23 08:12:34.79	58.71	19.86	-38.4	-40.1	19.7	0.00e+00	0	37	0	0	47	4645
2026-01-23 08:12:35.79	58.46	19.89	-38.5	-40.3	19.5	0.00e+00	0	38	0	0	47	4733
2026-01-23 08:12:36.78	58.22	19.91	-38.6	-40.3	19.5	0.00e+00	0	37	0	0	47	4750
2026-01-23 08:12:37.78	57.97	19.93	-38.6	-40.4	19.4	0.00e+00	0	38	0	0	47	4779
2026-01-23 08:12:38.77	57.73	19.95	-38.7	-40.5	19.5	0.00e+00	0	38	0	0	48	4563
2026-01-23 08:12:39.77	57.48	19.97	-38.6	-40.4	19.6	0.00e+00	0	38	0	0	48	4517
2026-01-23 08:12:40.77	57.24	19.99	-38.5	-40.2	19.8	0.00e+00	0	38	0	0	48	4418
2026-01-23 08:12:41.77	56.99	20.01	-38.5	-40.2	19.8	0.00e+00	0	37	0	0	48	4406
2026-01-23 08:12:42.77	56.74	20.03	-38.4	-40.2	19.8	0.00e+00	0	37	0	0	48	4393
2026-01-23 08:12:43.76	56.50	20.05	-38.4	-40.1	19.9	0.00e+00	0	38	0	0	48	4356
2026-01-23 08:12:44.76	56.25	20.06	-38.3	-40.0	20.0	0.00e+00	0	38	0	0	48	4311
2026-01-23 08:12:45.76	56.00	20.08	-38.4	-40.1	19.9	0.00e+00	0	38	0	0	48	4355
2026-01-23 08:12:46.76	55.75	20.10	-38.4	-40.1	19.9	0.00e+00	0	37	0	0	48	4370
2026-01-23 08:12:47.75	55.51	20.11	-38.4	-40.2	19.8	0.00e+00	0	38	0	0	48	4399
2026-01-23 08:12:48.75	55.26	20.13	-38.5	-40.2	19.8	0.00e+00	0	38	0	0	48	4416
2026-01-23 08:12:49.75	55.01	20.14	-38.5	-40.2	19.8	0.00e+00	0	37	0	0	48	4430
2026-01-23 08:12:50.75	54.76	20.16	-38.4	-40.1	19.8	0.00e+00	0	37	0	0	48	4385
2026-01-23 08:12:51.75	54.51	20.17	-38.3	-40.1	19.9	0.00e+00	0	38	0	0	48	4344
2026-01-23 08:12:52.75	54.26	20.18	-38.3	-40.0	19.9	0.00e+00	0	38	0	0	48	4324
2026-01-23 08:12:53.74	54.01	20.19	-38.3	-40.0	19.9	0.00e+00	0	37	0	0	48	4325
2026-01-23 08:12:54.73	53.76	20.21	-38.3	-40.0	19.9	0.00e+00	0	38	0	0	48	4319
2026-01-23 08:12:55.73	53.51	20.22	-38.4	-40.1	19.8	0.00e+00	0	37	0	0	48	4381
2026-01-23 08:12:56.72	53.27	20.23	-38.3	-40.0	20.0	0.00e+00	0	37	0	0	48	4300
2026-01-23 08:12:57.72	53.02	20.24	-38.4	-40.1	19.9	0.00e+00	0	38	0	0	48	4348
2026-01-23 08:12:58.72	52.76	20.25	-38.4	-40.1	19.9	0.00e+00	0	37	0	0	48	4356
2026-01-23 08:12:59.71	52.52	20.26	-38.4	-40.1	19.8	0.00e+00	0	38	0	0	48	4386
2026-01-23 08:13:00.71	52.26	20.27	-38.4	-40.1	19.8	0.00e+00	0	37	0	0	48	4387
2026-01-23 08:13:01.71	52.01	20.27	-38.4	-40.1	19.8	0.00e+00	0	38	0	0	48	4367
2026-01-23 08:13:02.71	51.76	20.28	-38.3	-40.1	19.9	0.00e+00	0	38	0	0	48	4343
2026-01-23 08:13:03.70	51.51	20.29	-38.2	-39.9	20.0	0.00e+00	0	37	0	0	48	4276
2026-01-23 08:13:04.70	51.26	20.29	-38.2	-39.9	20.0	0.00e+00	0	38	0	0	48	4255
2026-01-23 08:13:05.70	51.01	20.30	-38.2	-39.9	20.0	0.00e+00	0	38	0	0	48	4277
2026-01-23 08:13:06.70	50.76	20.31	-38.3	-40.0	20.0	0.00e+00	0	38	0	0	48	4319
2026-01-23 08:13:07.70	50.51	20.31	-38.3	-40.0	20.0	0.00e+00	0	38	0	0	48	4317
2026-01-23 08:13:08.69	50.26	20.31	-38.2	-39.9	20.1	0.00e+00	0	38	0	0	48	4247
2026-01-23 08:13:09.69	50.00	20.32	-38.3	-40.0	20.0	0.00e+00	0	38	0	0	48	4313
2026-01-23 08:13:10.69	49.75	20.32	-38.4	-40.1	19.9	0.00e+00	0	38	0	0	48	4360
2026-01-23 08:13:11.69	49.50	20.32	-38.5	-40.2	19.9	0.00e+00	0	38	0	0	48	4408
2026-01-23 08:13:12.69	49.25	20.32	-38.5	-40.3	19.8	0.00e+00	0	38	0	0	48	4450
2026-01-23 08:13:13.69	49.00	20.32	-38.5	-40.2	19.8	0.00e+00	0	38	0	0	48	4436
2026-01-23 08:13:14.69	48.74	20.32	-38.6	-40.3	19.7	0.00e+00	0	38	0	0	48	4475
2026-01-23 08:13:15.68	48.49	20.32	-38.6	-40.4	19.6	0.00e+00	0	37	0	0	48	4505
2026-01-23 08:13:16.69	48.24	20.32	-38.7	-40.5	19.5	0.00e+00	0	37	0	0	48	4553
2026-01-23 08:13:17.69	47.99	20.32	-38.6	-40.3	19.7	0.00e+00	0	38	0	0	48	4455
2026-01-23 08:13:18.68	47.74	20.32	-38.4	-40.1	19.9	0.00e+00	0	37	0	0	48	4390
2026-01-23 08:13:19.68	47.49	20.32	-38.5	-40.2	19.8	0.00e+00	0	38	0	0	48	4415
2026-01-23 08:13:20.68	47.23	20.31	-38.4	-40.1	20.0	0.00e+00	0	38	0	0	48	4363
2026-01-23 08:13:21.68	46.98	20.31	-38.3	-40.0	20.0	0.00e+00	0	37	0	0	48	4326
2026-01-23 08:13:22.68	46.73	20.31	-38.3	-40.0	20.1	0.00e+00	0	38	0	0	48	4300
2026-01-23 08:13:23.68	46.48	20.30	-38.3	-40.0	20.0	0.00e+00	0	38	0	0	48	4313
2026-01-23 08:13:24.67	46.23	20.30	-38.3	-40.0	20.0	0.00e+00	0	37	0	0	48	4336
2026-01-23 08:13:25.67	45.98	20.29	-38.3	-40.0	20.0	0.00e+00	0	38	0	0	48	4298
2026-01-23 08:13:26.68	45.72	20.28	-38.4	-40.1	19.9	0.00e+00	0	38	0	0	48	4346
2026-01-23 08:13:27.67	45.47	20.28	-38.2	-39.8	20.1	0.00e+00	0	38	0	0	48	4229
2026-01-23 08:13:28.67	45.22	20.27	-38.1	-39.8	20.2	0.00e+00	0	38	0	0	48	4212
2026-01-23 08:13:29.67	44.97	20.26	-38.1	-39.8	20.2	0.00e+00	0	38	0	0	48	4214
2026-01-23 08:13:30.67	44.72	20.25	-38.1	-39.8	20.2	0.00e+00	0	38	0	0	48	4199
2026-01-23 08:13:31.67	44.47	20.24	-38.1	-39.8	20.2	0.00e+00	0	38	0	0	48	4202
2026-01-23 08:13:32.67	44.22	20.23	-38.2	-39.9	20.1	0.00e+00	0	38	0	0	48	4246
2026-01-23 08:13:33.67	43.97	20.22	-38.3	-40.0	20.0	0.00e+00	0	38	0	0	48	4324
2026-01-23 08:13:34.66	43.72	20.21	-38.4	-40.1	19.9	0.00e+00	0	38	0	0	48	4356
2026-01-23 08:13:35.66	43.47	20.20	-38.4	-40.1	19.9	0.00e+00	0	38	0	0	48	4376
2026-01-23 08:13:36.65	43.22	20.19	-38.4	-40.1	19.9	0.00e+00	0	38	0	0	48	4384
2026-01-23 08:13:37.66	42.97	20.17	-38.4	-40.1	20.0	0.00e+00	0	37	0	0	48	4360
2026-01-23 08:13:38.65	42.73	20.16	-38.4	-40.1	20.0	0.00e+00	0	38	0	0	48	4344
2026-01-23 08:13:39.65	42.48	20.15	-38.4	-40.1	19.9	0.00e+00	0	38	0	0	48	4379
2026-01-23 08:13:40.65	42.23	20.13	-38.3	-40.0	20.0	0.00e+00	0	38	0	0	48	4332
2026-01-23 08:13:41.65	41.98	20.12	-38.3	-40.0	20.0	0.00e+00	0	38	0	0	48	4323
2026-01-23 08:13:42.65	41.73	20.10	-38.2	-39.9	20.1	0.00e+00	0	38	0	0	48	4257
2026-01-23 08:13:43.65	41.48	20.09	-38.1	-39.8	20.2	0.00e+00	0	38	0	0	48	4195
2026-01-23 08:13:44.65	41.23	20.07	-38.1	-39.7	20.2	0.00e+00	0	37	0	0	48	4192
2026-01-23 08:13:45.65	40.99	20.05	-38.1	-39.8	20.2	0.00e+00	0	37	0	0	48	4224
2026-01-23 08:13:46.64	40.74	20.03	-38.2	-39.9	20.0	0.00e+00	0	38	0	0	48	4290
2026-01-23 08:13:47.64	40.49	20.02	-38.2	-39.9	20.1	0.00e+00	0	38	0	0	48	4262
2026-01-23 08:13:48.64	40.25	20.00	-38.3	-40.0	20.0	0.00e+00	0	38	0	0	48	4303
2026-01-23 08:13:49.64	40.00	19.98	-38.4	-40.1	20.0	0.00e+00	0	38	0	0	48	4356
2026-01-23 08:13:50.64	39.75	19.96	-38.3	-40.1	20.0	0.00e+00	0	38	0	0	48	4343
2026-01-23 08:13:51.64	39.51	19.94	-38.4	-40.2	19.8	0.00e+00	0	38	0	0	48	4404
2026-01-23 08:13:52.63	39.27	19.92	-38.5	-40.3	19.8	0.00e+00	0	38	0	0	48	4446
2026-01-23 08:13:53.63	39.02	19.89	-38.5	-40.2	19.8	0.00e+00	0	38	0	0	48	4420
2026-01-23 08:13:54.62	38.78	19.87	-38.5	-40.2	19.9	0.00e+00	0	38	0	0	48	4422
2026-01-23 08:13:55.62	38.53	19.85	-38.4	-40.1	20.0	0.00e+00	0	38	0	0	48	4352
2026-01-23 08:13:56.62	38.29	19.83	-38.3	-40.0	20.0	0.00e+00	0	38	0	0	48	4317
2026-01-23 08:13:57.62	38.05	19.80	-38.3	-40.0	20.0	0.00e+00	0	38	0	0	48	4330
2026-01-23 08:13:58.61	37.81	19.78	-38.2	-39.9	20.1	0.00e+00	0	38	0	0	48	4255
2026-01-23 08:13:59.61	37.56	19.75	-38.1	-39.8	20.1	0.00e+00	0	38	0	0	48	4229
2026-01-23 08:14:00.61	37.32	19.73	-38.2	-39.9	20.1	0.00e+00	0	37	0	0	48	4247
2026-01-23 08:14:01.61	37.08	19.70	-38.2	-39.9	20.1	0.00e+00	0	38	0	0	48	4266
2026-01-23 08:14:02.61	36.84	19.68	-38.3	-40.0	20.1	0.00e+00	0	37	0	0	48	4320
2026-01-23 08:14:03.61	36.60	19.65	-38.4	-40.1	20.0	0.00e+00	0	37	0	0	48	4354
2026-01-23 08:14:04.61	36.35	19.62	-38.4	-40.1	19.9	0.00e+00	0	37	0	0	48	4382
2026-01-23 08:14:05.60	36.12	19.59	-38.5	-40.2	19.9	0.00e+00	0	38	0	0	48	4404
2026-01-23 08:14:06.60	35.88	19.57	-38.6	-40.3	19.8	0.00e+00	0	38	0	0	48	4464
2026-01-23 08:14:07.59	35.64	19.54	-38.6	-40.3	19.8	0.00e+00	0	38	0	0	48	4476
2026-01-23 08:14:08.59	35.40	19.51	-38.5	-40.2	19.8	0.00e+00	0	38	0	0	48	4421
2026-01-23 08:14:09.59	35.16	19.48	-38.5	-40.2	19.8	0.00e+00	0	38	0	0	48	4401
2026-01-23 08:14:10.58	34.93	19.45	-38.5	-40.2	19.8	0.00e+00	0	38	0	0	48	4432
2026-01-23 08:14:11.58	34.69	19.42	-38.6	-40.3	19.6	0.00e+00	0	38	0	0	48	4479
2026-01-23 08:14:12.58	34.45	19.39	-38.7	-40.4	19.6	0.00e+00	0	38	0	0	48	4530
2026-01-23 08:14:13.58	34.22	19.36	-38.6	-40.3	19.7	0.00e+00	0	38	0	0	48	4489
2026-01-23 08:14:14.58	33.98	19.32	-38.5	-40.2	19.8	0.00e+00	0	38	0	0	48	4436
2026-01-23 08:14:15.57	33.75	19.29	-38.5	-40.3	19.8	0.00e+00	0	38	0	0	48	4448
2026-01-23 08:14:16.57	33.51	19.26	-38.4	-40.2	19.8	0.00e+00	0	38	0	0	48	4423
2026-01-23 08:14:17.56	33.28	19.23	-38.5	-40.3	19.8	0.00e+00	0	38	0	0	48	4449
2026-01-23 08:14:18.56	33.05	19.19	-38.5	-40.2	19.8	0.00e+00	0	38	0	0	48	4437
2026-01-23 08:14:19.56	32.81	19.16	-38.5	-40.2	19.8	0.00e+00	0	38	0	0	48	4420
2026-01-23 08:14:20.56	32.58	19.12	-38.4	-40.1	19.9	0.00e+00	0	38	0	0	48	4383
2026-01-23 08:14:21.56	32.35	19.09	-38.4	-40.1	20.0	0.00e+00	0	38	0	0	48	4354
2026-01-23 08:14:22.55	32.12	19.05	-38.4	-40.2	19.9	0.00e+00	0	37	0	0	48	4392
2026-01-23 08:14:23.55	31.89	19.02	-38.3	-40.0	20.1	0.00e+00	0	38	0	0	48	4294
2026-01-23 08:14:24.55	31.65	18.98	-38.2	-39.9	20.1	0.00e+00	0	38	0	0	48	4285
2026-01-23 08:14:25.54	31.43	18.94	-38.3	-40.0	20.0	0.00e+00	0	37	0	0	48	4327
2026-01-23 08:14:26.54	31.20	18.90	-38.4	-40.1	20.0	0.00e+00	0	38	0	0	48	4349
2026-01-23 08:14:27.54	30.97	18.87	-38.4	-40.1	19.9	0.00e+00	0	38	0	0	48	4390
2026-01-23 08:14:28.54	30.74	18.83	-38.4	-40.1	19.9	0.00e+00	0	37	0	0	48	4385
2026-01-23 08:14:29.54	30.51	18.79	-38.2	-39.9	20.1	0.00e+00	0	38	0	0	48	4286
2026-01-23 08:14:30.54	30.29	18.75	-38.1	-39.8	20.2	0.00e+00	0	38	0	0	48	4229
2026-01-23 08:14:31.54	30.06	18.71	-38.2	-39.9	20.1	0.00e+00	0	38	0	0	48	4250
2026-01-23 08:14:32.54	29.83	18.67	-38.3	-40.0	20.0	0.00e+00	0	38	0	0	48	4304
2026-01-23 08:14:33.54	29.61	18.63	-38.4	-40.1	19.8	0.00e+00	0	37	0	0	48	4381
2026-01-23 08:14:34.54	29.38	18.59	-38.4	-40.2	19.8	0.00e+00	0	38	0	0	48	4401
2026-01-23 08:14:35.54	29.16	18.55	-38.5	-40.3	19.7	0.00e+00	0	38	0	0	48	4461
2026-01-23 08:14:36.54	28.93	18.51	-38.6	-40.3	19.7	0.00e+00	0	37	0	0	48	4483
2026-01-23 08:14:37.54	28.71	18.47	-38.6	-40.3	19.7	0.00e+00	0	38	0	0	48	4477
2026-01-23 08:14:38.54	28.49	18.42	-38.7	-40.4	19.7	0.00e+00	0	38	0	0	48	4511
2026-01-23 08:14:39.54	28.27	18.38	-38.7	-40.4	19.6	0.00e+00	0	38	0	0	48	4545
2026-01-23 08:14:40.53	28.05	18.34	-38.6	-40.3	19.8	0.00e+00	0	38	0	0	48	4464
2026-01-23 08:14:41.54	27.83	18.30	-38.5	-40.2	19.9	0.00e+00	0	38	0	0	48	4420
2026-01-23 08:14:42.53	27.61	18.25	-38.3	-40.1	20.0	0.00e+00	0	38	0	0	48	4358
2026-01-23 08:14:43.53	27.39	18.21	-38.4	-40.1	20.0	0.00e+00	0	38	0	0	48	4380
2026-01-23 08:14:44.53	27.17	18.16	-38.4	-40.2	19.9	0.00e+00	0	38	0	0	48	4408
2026-01-23 08:14:45.53	26.95	18.12	-38.5	-40.3	19.8	0.00e+00	0	37	0	0	48	4451
2026-01-23 08:14:46.53	26.74	18.07	-38.5	-40.4	19.7	0.00e+00	0	38	0	0	48	4502
2026-01-23 08:14:47.53	26.52	18.03	-38.6	-40.4	19.6	0.00e+00	0	37	0	0	48	4530
2026-01-23 08:14:48.53	26.30	17.98	-38.7	-40.5	19.6	0.00e+00	0	38	0	0	48	4585
2026-01-23 08:14:49.53	26.09	17.94	-38.7	-40.5	19.5	0.00e+00	0	38	0	0	48	4590
2026-01-23 08:14:50.53	25.87	17.89	-38.7	-40.5	19.5	0.00e+00	0	37	0	0	48	4598
2026-01-23 08:14:51.53	25.66	17.84	-38.7	-40.5	19.5	0.00e+00	0	38	0	0	48	4580
2026-01-23 08:14:52.53	25.45	17.80	-38.7	-40.5	19.5	0.00e+00	0	38	0	0	48	4588
2026-01-23 08:14:53.53	25.23	17.75	-38.6	-40.4	19.7	0.00e+00	0	38	0	0	48	4497
2026-01-23 08:14:54.53	25.02	17.70	-38.6	-40.4	19.7	0.00e+00	0	38	0	0	48	4498
2026-01-23 08:14:55.53	24.81	17.65	-38.3	-40.1	19.9	0.00e+00	0	38	0	0	48	4343
2026-01-23 08:14:56.52	24.60	17.61	-38.2	-39.9	20.1	0.00e+00	0	38	0	0	48	4280
2026-01-23 08:14:57.52	24.39	17.56	-38.4	-40.1	20.0	0.00e+00	0	38	0	0	48	4363
2026-01-23 08:14:58.52	24.18	17.51	-38.4	-40.1	20.0	0.00e+00	0	38	0	0	48	4346
2026-01-23 08:14:59.52	23.97	17.46	-38.5	-40.3	19.8	0.00e+00	0	38	0	0	48	4455
2026-01-23 08:15:00.52	23.77	17.41	-38.6	-40.3	19.7	0.00e+00	0	38	0	0	48	4491
2026-01-23 08:15:01.51	23.56	17.36	-38.7	-40.5	19.6	0.00e+00	0	38	0	0	48	4578
2026-01-23 08:15:02.51	23.35	17.31	-38.8	-40.6	19.5	0.00e+00	0	38	0	0	48	4626
2026-01-23 08:15:03.51	23.15	17.26	-38.8	-40.6	19.5	0.00e+00	0	37	0	0	48	4637
2026-01-23 08:15:04.50	22.95	17.21	-38.7	-40.5	19.6	0.00e+00	0	38	0	0	48	4575
2026-01-23 08:15:05.50	22.74	17.16	-38.7	-40.5	19.6	0.00e+00	0	38	0	0	48	4559
2026-01-23 08:15:06.50	22.54	17.11	-38.8	-40.6	19.5	0.00e+00	0	37	0	0	48	4624
2026-01-23 08:15:07.49	22.34	17.06	-38.7	-40.5	19.5	0.00e+00	0	38	0	0	48	4557
2026-01-23 08:15:08.49	22.14	17.01	-38.6	-40.4	19.6	0.00e+00	0	38	0	0	48	4504
2026-01-23 08:15:09.49	21.93	16.95	-38.6	-40.4	19.6	0.00e+00	0	38	0	0	48	4529
2026-01-23 08:15:10.49	21.73	16.90	-38.5	-40.3	19.7	0.00e+00	0	38	0	0	48	4474
2026-01-23 08:15:11.48	21.53	16.85	-38.4	-40.2	19.8	0.00e+00	0	38	0	0	48	4418
2026-01-23 08:15:12.48	21.34	16.80	-38.5	-40.2	19.7	0.00e+00	0	38	0	0	48	4440
2026-01-23 08:15:13.47	21.14	16.75	-38.4	-40.2	19.8	0.00e+00	0	38	0	0	48	4406
2026-01-23 08:15:14.47	20.94	16.69	-38.5	-40.3	19.7	0.00e+00	0	38	0	0	48	4451
2026-01-23 08:15:15.47	20.74	16.64	-38.6	-40.3	19.7	0.00e+00	0	38	0	0	48	4480
2026-01-23 08:15:16.47	20.55	16.59	-38.6	-40.4	19.7	0.00e+00	0	38	0	0	48	4510
2026-01-23 08:15:17.47	20.35	16.53	-38.7	-40.5	19.6	0.00e+00	0	38	0	0	48	4565
2026-01-23 08:15:18.47	20.16	16.48	-38.8	-40.6	19.5	0.00e+00	0	38	0	0	48	4622
2026-01-23 08:15:19.46	19.96	16.42	-38.8	-40.6	19.5	0.00e+00	0	38	0	0	48	4631
2026-01-23 08:15:20.46	19.77	16.37	-38.8	-40.6	19.4	0.00e+00	0	38	0	0	48	4636
2026-01-23 08:15:21.46	19.58	16.31	-38.8	-40.6	19.4	0.00e+00	0	38	0	0	48	4621
2026-01-23 08:15:22.46	19.38	16.26	-38.8	-40.7	19.3	0.00e+00	0	38	0	0	48	4662
2026-01-23 08:15:23.46	19.19	16.21	-38.7	-40.6	19.4	0.00e+00	0	38	0	0	48	4615
2026-01-23 08:15:24.45	19.00	16.15	-38.8	-40.7	19.3	0.00e+00	0	37	0	0	48	4667
2026-01-23 08:15:25.45	18.81	16.09	-38.7	-40.5	19.5	0.00e+00	0	38	0	0	48	4568
2026-01-23 08:15:26.45	18.62	16.04	-38.6	-40.4	19.6	0.00e+00	0	38	0	0	48	4523
2026-01-23 08:15:27.44	18.44	15.98	-38.6	-40.5	19.5	0.00e+00	0	38	0	0	48	4553
2026-01-23 08:15:28.44	18.25	15.93	-38.6	-40.4	19.6	0.00e+00	0	37	0	0	48	4520
2026-01-23 08:15:29.44	18.06	15.87	-38.7	-40.5	19.5	0.00e+00	0	37	0	0	48	4580
2026-01-23 08:15:30.44	17.88	15.82	-38.8	-40.6	19.4	0.00e+00	0	38	0	0	48	4604
2026-01-23 08:15:31.44	17.69	15.76	-38.9	-40.6	19.4	0.00e+00	0	38	0	0	48	4649
2026-01-23 08:15:32.43	17.51	15.70	-38.9	-40.6	19.4	0.00e+00	0	38	0	0	48	4646
2026-01-23 08:15:33.43	17.32	15.65	-38.9	-40.7	19.4	0.00e+00	0	38	0	0	48	4658
2026-01-23 08:15:34.43	17.14	15.59	-39.0	-40.8	19.4	0.00e+00	0	38	0	0	48	4708
2026-01-23 08:15:35.42	16.96	15.53	-39.1	-40.9	19.2	0.00e+00	0	38	0	0	48	4798
2026-01-23 08:15:36.42	16.77	15.47	-39.1	-40.9	19.3	0.00e+00	0	38	0	0	48	4765
2026-01-23 08:15:37.42	16.59	15.42	-39.1	-40.8	19.2	0.00e+00	0	38	0	0	48	4759
2026-01-23 08:15:38.43	16.41	15.36	-39.1	-40.9	19.3	0.00e+00	0	38	0	0	48	4766
2026-01-23 08:15:39.42	16.23	15.30	-39.1	-40.9	19.1	0.00e+00	0	38	0	0	48	4807
2026-01-23 08:15:40.42	16.05	15.24	-39.1	-41.0	19.1	0.00e+00	0	38	0	0	48	4818
2026-01-23 08:15:41.42	15.87	15.19	-39.0	-40.9	19.1	0.00e+00	0	38	0	0	48	4799
2026-01-23 08:15:42.42	15.70	15.13	-39.1	-41.1	19.0	0.00e+00	0	37	0	0	48	4882
2026-01-23 08:15:43.42	15.52	15.07	-39.0	-40.9	19.1	0.00e+00	0	38	0	0	48	4798
2026-01-23 08:15:44.42	15.34	15.01	-38.9	-40.9	19.1	0.00e+00	0	38	0	0	48	4769
2026-01-23 08:15:45.41	15.17	14.95	-38.7	-40.7	19.2	0.00e+00	0	37	0	0	48	4680
2026-01-23 08:15:46.41	14.99	14.89	-38.8	-40.8	19.2	0.00e+00	0	38	0	0	48	4721
2026-01-23 08:15:47.41	14.82	14.83	-38.7	-40.7	19.3	0.00e+00	0	38	0	0	48	4658
2026-01-23 08:15:48.40	14.65	14.78	-38.5	-40.5	19.5	0.00e+00	0	38	0	0	48	4551
2026-01-23 08:15:49.40	14.47	14.72	-38.5	-40.4	19.5	0.00e+00	0	38	0	0	48	4531
2026-01-23 08:15:50.39	14.30	14.66	-38.5	-40.4	19.5	0.00e+00	0	38	0	0	48	4540
2026-01-23 08:15:51.38	14.13	14.60	-38.6	-40.6	19.4	0.00e+00	0	38	0	0	48	4612
2026-01-23 08:15:52.38	13.96	14.54	-38.7	-40.7	19.4	0.00e+00	0	38	0	0	48	4657
2026-01-23 08:15:53.38	13.79	14.48	-38.7	-40.6	19.4	0.00e+00	0	38	0	0	48	4643
2026-01-23 08:15:54.37	13.62	14.42	-38.8	-40.8	18.9	0.00e+00	0	38	0	0	48	4729
2026-01-23 08:15:55.37	13.45	14.36	-38.9	-40.8	19.2	0.00e+00	0	37	0	0	48	4756
2026-01-23 08:15:56.37	13.29	14.30	-39.0	-41.0	19.1	0.00e+00	0	38	0	0	48	4821
2026-01-23 08:15:57.37	13.12	14.24	-39.0	-41.0	19.1	0.00e+00	0	38	0	0	48	4844
2026-01-23 08:15:58.36	12.95	14.18	-39.0	-40.9	19.1	0.00e+00	0	38	0	0	48	4799
2026-01-23 08:15:59.36	12.79	14.12	-39.0	-40.9	19.1	0.00e+00	0	38	0	0	48	4801
2026-01-23 08:16:00.36	12.62	14.06	-39.0	-40.9	19.1	0.00e+00	0	38	0	0	48	4791
2026-01-23 08:16:01.36	12.46	14.00	-38.9	-40.8	19.2	0.00e+00	0	38	0	0	48	4744
2026-01-23 08:16:02.36	12.29	13.94	-38.9	-40.8	19.2	0.00e+00	0	38	0	0	48	4720
2026-01-23 08:16:03.36	12.13	13.88	-38.8	-40.6	19.4	0.00e+00	0	37	0	0	48	4638
2026-01-23 08:16:04.36	11.97	13.82	-38.7	-40.5	19.5	0.00e+00	0	38	0	0	48	4583
2026-01-23 08:16:05.35	11.81	13.76	-38.7	-40.5	19.4	0.00e+00	0	38	0	0	48	4585
2026-01-23 08:16:06.35	11.64	13.70	-38.7	-40.6	19.3	0.00e+00	0	38	0	0	48	4607
2026-01-23 08:16:07.35	11.48	13.64	-38.8	-40.7	19.2	0.00e+00	0	37	0	0	48	4693
2026-01-23 08:16:08.34	11.33	13.58	-38.9	-40.8	19.1	0.00e+00	0	38	0	0	48	4744
2026-01-23 08:16:09.34	11.17	13.52	-39.0	-41.0	18.9	0.00e+00	0	38	0	0	48	4820
2026-01-23 08:16:10.34	11.01	13.45	-39.1	-41.1	18.8	0.00e+00	0	38	0	0	48	4898
2026-01-23 08:16:11.34	10.85	13.39	-39.2	-41.1	18.9	0.00e+00	0	38	0	0	48	4916
2026-01-23 08:16:12.34	10.69	13.33	-39.0	-41.0	19.0	0.00e+00	0	38	0	0	49	4559
2026-01-23 08:16:13.34	10.53	13.27	-39.0	-41.0	19.0	0.00e+00	0	38	0	0	49	4557
2026-01-23 08:16:14.34	10.38	13.21	-39.1	-41.1	18.9	0.00e+00	0	38	0	0	49	4602
2026-01-23 08:16:15.33	10.22	13.15	-38.8	-40.8	19.1	0.00e+00	0	38	0	0	49	4470
2026-01-23 08:16:16.33	10.07	13.09	-38.8	-40.8	19.0	0.00e+00	0	38	0	0	49	4477
2026-01-23 08:16:17.33	9.92	13.03	-38.9	-40.9	19.0	0.00e+00	0	38	0	0	49	4530
2026-01-23 08:16:18.33	9.76	12.96	-38.8	-40.8	19.0	0.00e+00	0	38	0	0	49	4489
2026-01-23 08:16:19.32	9.61	12.90	-38.8	-40.8	19.1	0.00e+00	0	38	0	0	49	4457
2026-01-23 08:16:20.32	9.46	12.84	-38.9	-40.9	19.0	0.00e+00	0	38	0	0	49	4517
2026-01-23 08:16:21.32	9.31	12.78	-38.9	-40.9	19.0	0.00e+00	0	38	0	0	49	4516
2026-01-23 08:16:22.32	9.16	12.72	-38.9	-40.9	18.9	0.00e+00	0	38	0	0	49	4541
2026-01-23 08:16:23.31	9.01	12.66	-39.0	-41.0	18.8	0.00e+00	0	38	0	0	49	4582
2026-01-23 08:16:24.31	8.86	12.60	-38.9	-41.0	18.9	0.00e+00	0	38	0	0	49	4549
2026-01-23 08:16:25.31	8.71	12.53	-39.0	-41.1	18.8	0.00e+00	0	38	0	0	49	4611
2026-01-23 08:16:26.31	8.56	12.47	-38.9	-41.0	18.9	0.00e+00	0	38	0	0	49	4566
2026-01-23 08:16:27.30	8.42	12.41	-39.0	-41.1	18.9	0.00e+00	0	38	0	0	49	4617
2026-01-23 08:16:28.30	8.27	12.35	-39.1	-41.2	18.8	0.00e+00	0	37	0	0	49	4688
2026-01-23 08:16:29.30	8.12	12.29	-39.1	-41.3	18.7	0.00e+00	0	38	0	0	49	4713
2026-01-23 08:16:30.29	7.98	12.22	-39.3	-41.4	18.6	0.00e+00	0	38	0	0	49	4775
2026-01-23 08:16:31.29	7.83	12.16	-39.2	-41.3	18.6	0.00e+00	0	37	0	0	49	4751
2026-01-23 08:16:32.29	7.69	12.10	-39.4	-41.5	18.4	0.00e+00	0	38	0	0	49	4822
2026-01-23 08:16:33.28	7.55	12.04	-39.4	-41.5	18.4	0.00e+00	0	38	0	0	49	4847
2026-01-23 08:16:34.28	7.40	11.98	-39.4	-41.5	18.4	0.00e+00	0	38	0	0	49	4835
2026-01-23 08:16:35.28	7.26	11.92	-39.5	-41.6	18.2	0.00e+00	0	38	0	0	49	4876
2026-01-23 08:16:36.28	7.12	11.85	-39.4	-41.5	18.2	0.00e+00	0	38	0	0	49	4834
2026-01-23 08:16:37.27	6.98	11.79	-39.5	-41.5	18.1	0.00e+00	0	38	0	0	49	4870
2026-01-23 08:16:38.27	6.84	11.73	-39.4	-41.4	18.2	0.00e+00	0	38	0	0	49	4791
2026-01-23 08:16:39.27	6.70	11.67	-39.4	-41.4	18.3	0.00e+00	0	38	0	0	49	4805
2026-01-23 08:16:40.27	6.56	11.60	-39.4	-41.4	18.4	0.00e+00	0	38	0	0	49	4791
2026-01-23 08:16:41.27	6.42	11.54	-39.2	-41.2	18.6	0.00e+00	0	38	0	0	49	4692
2026-01-23 08:16:42.27	6.28	11.48	-39.2	-41.2	18.6	0.00e+00	0	37	0	0	49	4678
2026-01-23 08:16:43.27	6.14	11.42	-39.3	-41.3	18.5	0.00e+00	0	38	0	0	49	4751
2026-01-23 08:16:44.26	6.01	11.36	-39.3	-41.4	18.6	0.00e+00	0	38	0	0	49	4768
2026-01-23 08:16:45.26	5.87	11.29	-39.5	-41.6	18.4	0.00e+00	0	37	0	0	49	4904
2026-01-23 08:16:46.26	5.73	11.23	-39.5	-41.7	18.4	0.00e+00	0	38	0	0	49	4935
2026-01-23 08:16:47.26	5.60	11.17	-39.6	-41.8	18.2	0.00e+00	0	38	0	0	49	4998
2026-01-23 08:16:48.26	5.46	11.11	-39.8	-42.0	18.1	0.00e+00	0	38	0	0	50	4827
2026-01-23 08:16:49.26	5.33	11.05	-39.8	-42.1	18.0	0.00e+00	0	38	0	0	50	4888
2026-01-23 08:16:50.25	5.20	10.98	-39.9	-42.2	17.8	0.00e+00	0	38	0	0	50	4954
2026-01-23 08:16:51.25	5.06	10.92	-40.0	-42.2	17.7	0.00e+00	0	38	0	0	50	4973
2026-01-23 08:16:52.24	4.93	10.86	-40.0	-42.3	17.6	0.00e+00	0	37	0	0	50	4988
2026-01-23 08:16:53.24	4.80	10.80	-40.0	-42.2	17.6	0.00e+00	0	38	0	0	50	4957
2026-01-23 08:16:54.24	4.67	10.74	-40.0	-42.2	17.5	0.00e+00	0	38	0	0	50	4975
2026-01-23 08:16:55.23	4.54	10.67	-40.0	-42.3	17.4	0.00e+00	0	38	0	0	50	4987
2026-01-23 08:16:56.23	4.41	10.61	-39.8	-42.1	17.6	0.00e+00	0	38	0	0	50	4878
2026-01-23 08:16:57.23	4.28	10.55	-39.8	-42.0	17.6	0.00e+00	0	38	0	0	50	4855
2026-01-23 08:16:58.23	4.15	10.49	-39.9	-42.1	17.5	0.00e+00	0	37	0	0	50	4914
2026-01-23 08:16:59.23	4.02	10.43	-39.9	-42.1	17.6	0.00e+00	0	38	0	0	50	4911
2026-01-23 08:17:00.23	3.89	10.36	-39.9	-42.1	17.7	0.00e+00	0	38	0	0	50	4921
2026-01-23 08:17:01.23	3.77	10.30	-40.0	-42.1	17.8	0.00e+00	0	37	0	0	50	4917
2026-01-23 08:17:02.23	3.64	10.24	-40.1	-42.2	17.8	0.00e+00	0	38	0	0	50	4959
2026-01-23 08:17:03.22	3.51	10.18	-40.3	-42.4	17.7	0.00e+00	0	38	0	0	51	4768
2026-01-23 08:17:04.22	3.39	10.12	-40.4	-42.5	17.5	0.00e+00	0	38	0	0	51	4838
2026-01-23 08:17:05.22	3.26	10.05	-40.6	-42.7	17.3	0.00e+00	0	38	0	0	51	4965
2026-01-23 08:17:06.21	3.14	9.99	-40.6	-42.8	17.1	0.00e+00	0	38	0	0	51	5024
2026-01-23 08:17:07.21	3.02	9.93	-40.6	-43.0	16.9	0.00e+00	0	38	0	0	51	5106
2026-01-23 08:17:08.21	2.89	9.87	-40.4	-42.8	17.0	0.00e+00	0	38	0	0	51	5023
2026-01-23 08:17:09.21	2.77	9.81	-40.4	-42.8	17.0	0.00e+00	0	38	0	0	51	5030
2026-01-23 08:17:10.21	2.65	9.75	-40.4	-42.7	17.1	0.00e+00	0	38	0	0	51	4945
2026-01-23 08:17:11.21	2.52	9.68	-40.3	-42.5	17.3	0.00e+00	0	38	0	0	51	4843
2026-01-23 08:17:12.20	2.40	9.62	-40.3	-42.4	17.4	0.00e+00	0	38	0	0	51	4814
2026-01-23 08:17:13.20	2.28	9.56	-40.3	-42.4	17.4	0.00e+00	0	38	0	0	51	4796
2026-01-23 08:17:14.20	2.16	9.50	-40.1	-42.2	17.6	0.00e+00	0	38	0	0	51	4701
2026-01-23 08:17:15.20	2.04	9.44	-40.1	-42.2	17.7	0.00e+00	0	38	0	0	51	4660
2026-01-23 08:17:16.20	1.92	9.38	-40.0	-42.3	17.6	0.00e+00	0	38	0	0	51	4711
2026-01-23 08:17:17.19	1.81	9.31	-39.9	-42.2	17.7	0.00e+00	0	37	0	0	51	4669
2026-01-23 08:17:18.19	1.69	9.25	-39.8	-42.2	17.8	0.00e+00	0	37	0	0	51	4662
2026-01-23 08:17:19.19	1.57	9.19	-39.9	-42.4	17.6	0.00e+00	0	38	0	0	51	4771
2026-01-23 08:17:20.18	1.45	9.13	-39.9	-42.4	17.5	0.00e+00	0	38	0	0	51	4813
2026-01-23 08:17:21.18	1.34	9.07	-40.1	-42.7	17.3	0.00e+00	0	38	0	0	51	4939
2026-01-23 08:17:22.18	1.22	9.01	-40.1	-42.7	17.3	0.00e+00	0	38	0	0	51	4933
2026-01-23 08:17:23.18	1.10	8.95	-47.3	-59.4	3.8	8.17e-02	0	37	104	0	65	15160
2026-01-23 08:17:24.17	0.99	8.88	-47.9	-61.4	3.8	1.49e+00	0	37	104	0	66	17926
2026-01-23 08:17:25.17	0.87	8.82	-48.0	-61.4	3.8	1.49e+00	0	38	104	0	66	18038
2026-01-23 08:17:26.17	0.76	8.76	-48.3	-61.6	3.8	1.49e+00	0	38	104	0	67	17394
2026-01-23 08:17:27.17	0.65	8.70	-47.8	-61.5	3.8	1.49e+00	0	38	104	0	67	17279
2026-01-23 08:17:28.17	0.53	8.64	-48.4	-61.7	3.8	1.49e+00	0	38	104	0	67	17609
2026-01-23 08:17:29.17	0.42	8.58	-48.9	-61.9	3.8	1.49e+00	0	38	104	0	68	16976
2026-01-23 08:17:30.16	0.31	8.52	-48.7	-62.0	3.8	1.49e+00	0	38	104	0	68	17125
2026-01-23 08:17:31.16	0.20	8.46	-48.7	-62.0	3.8	1.49e+00	0	38	104	0	68	17134
2026-01-23 08:17:32.16	0.09	8.40	-48.2	-62.0	3.8	1.49e+00	0	38	104	0	68	17240
2026-01-23 08:17:33.16	359.97	8.33	-48.9	-62.0	3.8	1.49e+00	0	38	104	0	68	17220
2026-01-23 08:17:34.16	359.86	8.27	-48.8	-62.0	3.8	1.49e+00	0	38	104	0	68	17256
2026-01-23 08:17:35.16	359.75	8.21	-48.7	-62.0	3.8	1.49e+00	0	38	104	0	68	17264
2026-01-23 08:17:36.15	359.65	8.15	-48.8	-62.0	3.8	1.49e+00	0	38	104	0	68	17213
2026-01-23 08:17:37.15	359.54	8.09	-49.0	-62.0	3.8	1.49e+00	0	38	104	0	68	17216
2026-01-23 08:17:38.14	359.43	8.03	-48.9	-62.1	3.8	1.49e+00	0	38	104	0	68	17345
2026-01-23 08:17:39.14	359.32	7.97	-48.8	-62.0	3.8	1.49e+00	0	38	104	0	68	17231
2026-01-23 08:17:40.13	359.21	7.91	-49.0	-62.0	3.8	1.49e+00	0	38	104	0	68	17243
2026-01-23 08:17:41.13	359.11	7.85	-49.0	-62.1	3.8	1.49e+00	0	38	104	0	68	17296
2026-01-23 08:17:42.13	359.00	7.79	-48.9	-62.0	3.8	1.49e+00	0	38	104	0	68	17268
2026-01-23 08:17:43.13	358.89	7.73	-49.0	-62.0	3.8	1.49e+00	0	38	104	0	68	17247
2026-01-23 08:17:44.13	358.79	7.67	-49.0	-62.0	3.8	1.49e+00	0	38	104	0	68	17281
2026-01-23 08:17:45.12	358.68	7.61	-49.0	-62.0	3.8	1.49e+00	0	38	104	0	68	17227
2026-01-23 08:17:46.12	358.58	7.55	-49.0	-62.1	3.8	1.49e+00	0	38	104	0	68	17282
2026-01-23 08:17:47.11	358.48	7.49	-49.0	-62.0	3.8	1.49e+00	0	38	104	0	68	17221
2026-01-23 08:17:48.11	358.37	7.43	-48.9	-62.0	3.8	1.49e+00	0	38	104	0	68	17233
2026-01-23 08:17:49.11	358.27	7.37	-49.0	-62.0	3.8	1.49e+00	0	38	104	0	68	17211
2026-01-23 08:17:50.11	358.17	7.31	-48.8	-62.0	3.8	1.49e+00	0	38	104	0	68	17172
2026-01-23 08:17:51.10	358.06	7.25	-48.9	-62.0	3.8	1.49e+00	0	38	104	0	68	17152
2026-01-23 08:17:52.10	357.96	7.19	-48.8	-62.0	3.8	1.49e+00	0	38	104	0	68	17177
2026-01-23 08:17:53.09	357.86	7.13	-48.8	-62.0	3.8	1.49e+00	0	38	104	0	68	17102
2026-01-23 08:17:54.08	357.76	7.07	-48.8	-61.9	3.8	1.49e+00	0	38	104	0	68	17058
2026-01-23 08:17:55.08	357.66	7.01	-48.8	-61.9	3.8	1.49e+00	0	38	104	0	68	17081
2026-01-23 08:17:56.07	357.56	6.95	-48.8	-61.9	3.8	1.49e+00	0	38	104	0	68	17069
2026-01-23 08:17:57.07	357.46	6.89	-48.8	-62.0	3.8	1.49e+00	0	38	104	0	68	17099
2026-01-23 08:17:58.06	357.36	6.83	-48.8	-61.9	3.8	1.49e+00	0	38	104	0	68	17071
2026-01-23 08:17:59.06	357.26	6.77	-48.8	-62.0	3.8	1.49e+00	0	37	104	0	68	17085
2026-01-23 08:18:00.05	357.16	6.71	-48.8	-61.9	3.8	1.49e+00	0	38	104	0	68	17050
2026-01-23 08:18:01.05	357.07	6.65	-48.8	-61.9	3.8	1.49e+00	0	38	104	0	68	16980
2026-01-23 08:18:02.05	356.97	6.59	-48.8	-61.9	3.8	1.49e+00	0	38	104	0	68	17053
2026-01-23 08:18:03.05	356.87	6.53	-48.8	-61.9	3.8	1.49e+00	0	38	104	0	68	17016
2026-01-23 08:18:04.04	356.77	6.47	-48.8	-61.9	3.8	1.49e+00	0	37	104	0	68	17041
2026-01-23 08:18:05.04	356.68	6.41	-48.8	-61.9	3.8	1.49e+00	0	38	104	0	68	17003
2026-01-23 08:18:06.04	356.58	6.35	-48.8	-61.9	3.8	1.49e+00	0	38	104	0	68	16999
2026-01-23 08:18:07.04	356.49	6.30	-48.8	-61.9	3.8	1.49e+00	0	38	104	0	68	17042
2026-01-23 08:18:08.04	356.39	6.24	-48.8	-61.9	3.8	1.49e+00	0	38	104	0	68	17046
2026-01-23 08:18:09.04	356.29	6.18	-48.8	-61.9	3.8	1.49e+00	0	38	104	0	68	17043
2026-01-23 08:18:10.02	356.20	6.12	-48.8	-61.9	3.8	1.49e+00	0	38	104	0	68	17030
2026-01-23 08:18:11.01	356.11	6.06	-48.8	-61.9	3.8	1.49e+00	0	38	104	0	68	17052
2026-01-23 08:18:12.01	356.01	6.00	-48.8	-61.9	3.8	1.49e+00	0	38	104	0	68	16994
2026-01-23 08:18:13.01	355.92	5.94	-48.8	-61.9	3.8	1.49e+00	0	38	104	0	68	16951
2026-01-23 08:18:14.00	355.83	5.88	-48.8	-61.9	3.8	1.49e+00	0	38	104	0	68	17025
2026-01-23 08:18:15.00	355.74	5.83	-48.8	-61.9	3.8	1.49e+00	0	38	104	0	68	17036
2026-01-23 08:18:15.99	355.64	5.77	-48.8	-61.9	3.8	1.49e+00	0	38	104	0	68	17015
2026-01-23 08:18:16.99	355.55	5.71	-48.8	-61.9	3.8	1.49e+00	0	38	104	0	68	17044
2026-01-23 08:18:17.99	355.46	5.65	-48.8	-61.9	3.8	1.49e+00	0	38	104	0	68	17028
2026-01-23 08:18:18.99	355.37	5.59	-48.8	-61.9	3.8	1.49e+00	0	38	104	0	68	17061
2026-01-23 08:18:19.99	355.28	5.53	-48.8	-61.9	3.8	1.49e+00	0	38	104	0	68	17030
2026-01-23 08:18:20.97	355.19	5.48	-48.7	-61.9	3.8	1.49e+00	0	38	104	0	68	17014
2026-01-23 08:18:21.98	355.10	5.42	-48.8	-61.9	3.8	1.49e+00	0	38	104	0	68	16976
2026-01-23 08:18:22.97	355.01	5.36	-48.7	-61.9	3.8	1.49e+00	0	38	104	0	68	16985
2026-01-23 08:18:23.97	354.92	5.30	-48.7	-61.9	3.8	1.49e+00	0	38	104	0	68	16938
2026-01-23 08:18:24.96	354.83	5.24	-48.7	-61.9	3.8	1.49e+00	0	38	104	0	68	16976
2026-01-23 08:18:25.96	354.74	5.18	-48.7	-61.9	3.8	1.49e+00	0	38	104	0	68	17007
2026-01-23 08:18:26.96	354.66	5.13	-48.7	-61.9	3.8	1.49e+00	0	38	104	0	68	17028
2026-01-23 08:18:27.96	354.57	5.07	-48.7	-61.9	3.8	1.49e+00	0	38	104	0	68	17016
2026-01-23 08:18:28.95	354.48	5.01	-48.7	-61.9	3.8	1.49e+00	0	38	104	0	68	17024
2026-01-23 08:18:29.95	354.39	4.95	-48.7	-61.9	3.8	1.49e+00	0	38	104	0	68	17006

#Closed at: 2026-01-23 08:18:31
#Recorded file [0 MB]: D:/Data/31040_260123_110802.dat