passes_logs/2026/01/23/T1/T1__20260123_111400_FENGYUN_3D_rec.log

#Pass ID: 20260123_111400_FENGYUN 3D
#Satellite: FENGYUN 3D
#Configuration: FENGYUN 3D
#almurnet v.1.7.20251203
#Start time: 2026-01-23 11:14:02

#Version: 2.0.20230620
#Station: T1
#Location: 37.570604 lon 55.790049 lat
#TLE: 1 43010U 17072A   26022.47411728  .00000617  00000+0  31375-3 0  9996
#TLE: 2 43010  98.9952 354.4060 0002481  95.7964 264.3494 14.19699924424319

#Time	Az	El	Level	Level2	SNR	BER	BlckErr	Temp	State	Recorded	gain1	gain2
2026-01-23 11:14:02.30	136.45	5.10	-48.8	-61.0	3.8	8.48e-01	0	36	0	0	69	14526
2026-01-23 11:14:03.29	136.41	5.17	-48.8	-61.1	3.8	8.48e-01	0	37	104	0	69	14580
2026-01-23 11:14:04.28	136.37	5.24	-48.8	-61.1	3.8	8.47e-01	0	36	104	0	69	14637
2026-01-23 11:14:05.27	136.34	5.30	-48.8	-61.1	3.8	8.47e-01	0	37	104	0	69	14589
2026-01-23 11:14:06.27	136.30	5.38	-48.8	-61.0	3.8	8.47e-01	0	37	104	0	69	14539
2026-01-23 11:14:07.26	136.26	5.45	-48.8	-61.0	3.8	8.46e-01	0	37	104	0	69	14430
2026-01-23 11:14:08.25	136.22	5.52	-48.8	-60.9	3.8	8.47e-01	0	37	104	0	69	14363
2026-01-23 11:14:09.25	136.18	5.59	-48.8	-60.9	3.8	8.47e-01	0	37	104	0	69	14211
2026-01-23 11:14:10.24	136.14	5.66	-48.8	-60.8	3.8	8.47e-01	0	37	104	0	69	14098
2026-01-23 11:14:11.23	136.10	5.73	-48.7	-60.6	3.8	8.46e-01	0	37	104	0	69	13880
2026-01-23 11:14:12.23	136.06	5.80	-48.7	-60.6	3.8	8.47e-01	0	37	104	0	69	13740
2026-01-23 11:14:13.22	136.02	5.87	-48.7	-60.4	3.8	8.48e-01	0	37	104	0	69	13542
2026-01-23 11:14:14.21	135.98	5.94	-48.7	-60.3	3.8	8.45e-01	0	37	104	0	69	13276
2026-01-23 11:14:15.20	135.94	6.01	-48.7	-60.1	3.8	8.47e-01	0	37	104	0	69	12983
2026-01-23 11:14:16.20	135.90	6.08	-48.6	-59.9	3.8	8.47e-01	0	37	104	0	69	12667
2026-01-23 11:14:17.19	135.85	6.16	-48.6	-59.8	3.8	8.47e-01	0	37	104	0	69	12541
2026-01-23 11:14:18.19	135.81	6.23	-48.6	-59.5	3.8	8.46e-01	0	37	104	0	69	12225
2026-01-23 11:14:19.18	135.77	6.30	-48.6	-59.4	3.8	8.46e-01	0	37	104	0	69	12089
2026-01-23 11:14:20.17	135.73	6.37	-48.6	-59.3	3.8	8.47e-01	0	37	104	0	69	11948
2026-01-23 11:14:21.17	135.69	6.44	-48.6	-59.3	3.8	8.48e-01	0	37	104	0	69	11901
2026-01-23 11:14:22.16	135.65	6.52	-48.6	-59.5	3.8	8.47e-01	0	37	104	0	69	12234
2026-01-23 11:14:23.15	135.60	6.59	-48.6	-59.9	3.8	8.46e-01	0	37	104	0	69	12675
2026-01-23 11:14:24.14	135.56	6.66	-48.7	-60.2	3.8	8.48e-01	0	37	104	0	69	13244
2026-01-23 11:14:25.14	135.52	6.74	-48.7	-60.6	3.8	8.46e-01	0	37	104	0	69	13872
2026-01-23 11:14:26.13	135.47	6.81	-48.8	-60.9	3.8	8.48e-01	0	37	104	0	69	14370
2026-01-23 11:14:27.12	135.43	6.88	-48.8	-61.1	3.8	8.48e-01	0	38	104	0	69	14578
2026-01-23 11:14:28.12	135.39	6.96	-48.8	-60.9	3.8	8.46e-01	0	37	104	0	69	14363
2026-01-23 11:14:29.11	135.34	7.03	-48.7	-60.4	3.8	8.47e-01	0	37	104	0	69	13563
2026-01-23 11:14:30.10	135.30	7.11	-48.6	-59.6	3.8	8.47e-01	0	37	104	0	69	12319
2026-01-23 11:14:31.10	135.25	7.18	-48.5	-58.8	3.8	8.46e-01	0	38	104	0	69	11214
2026-01-23 11:14:32.09	135.21	7.26	-48.4	-58.2	3.9	8.43e-01	0	38	104	0	68	11038
2026-01-23 11:14:33.08	135.17	7.33	-48.3	-57.3	4.2	8.40e-01	0	38	0	0	68	10036
2026-01-23 11:14:34.08	135.12	7.41	-48.2	-56.7	4.4	8.28e-01	0	38	0	0	68	9294
2026-01-23 11:14:35.07	135.07	7.48	-48.0	-55.8	4.8	8.11e-01	0	38	0	0	68	8450
2026-01-23 11:14:36.06	135.03	7.56	-47.5	-54.5	5.5	7.32e-01	0	38	0	0	67	7665
2026-01-23 11:14:37.06	134.98	7.63	-47.1	-53.0	6.6	3.24e-01	0	38	0	4194304	66	6847
2026-01-23 11:14:38.05	134.94	7.71	-46.5	-51.6	8.0	1.35e-01	0	38	0	9437184	65	6139
2026-01-23 11:14:39.04	134.89	7.78	-45.7	-50.0	9.7	2.44e-02	0	38	0	14680064	63	5726
2026-01-23 11:14:40.04	134.84	7.86	-44.8	-48.4	11.3	4.15e-03	0	38	0	20971520	61	5382
2026-01-23 11:14:41.03	134.80	7.94	-43.9	-46.9	12.8	1.73e-04	0	38	0	26214400	59	5079
2026-01-23 11:14:42.02	134.75	8.01	-43.0	-45.7	14.0	1.02e-05	0	38	0	32505856	58	4686
2026-01-23 11:14:43.01	134.70	8.09	-42.1	-44.7	15.1	0.00e+00	0	38	0	37748736	56	4667
2026-01-23 11:14:44.01	134.66	8.17	-41.3	-43.7	15.9	0.00e+00	0	38	0	42991616	54	4670
2026-01-23 11:14:45.00	134.61	8.25	-40.9	-43.2	16.4	0.00e+00	0	38	0	49283072	53	4659
2026-01-23 11:14:45.99	134.56	8.32	-40.4	-42.7	16.9	0.00e+00	0	38	0	54525952	52	4664
2026-01-23 11:14:46.99	134.51	8.40	-40.2	-42.4	17.1	0.00e+00	0	38	0	59768832	52	4500
2026-01-23 11:14:47.98	134.46	8.48	-40.2	-42.4	17.1	0.00e+00	0	38	0	65011712	52	4508
2026-01-23 11:14:48.97	134.41	8.56	-40.4	-42.6	16.9	0.00e+00	0	38	0	71303168	52	4624
2026-01-23 11:14:49.97	134.36	8.64	-40.7	-43.0	16.5	0.00e+00	0	38	0	76546048	52	4856
2026-01-23 11:14:50.96	134.31	8.71	-41.3	-43.7	15.9	0.00e+00	0	38	0	82837504	53	4937
2026-01-23 11:14:51.95	134.26	8.79	-42.0	-44.5	15.1	0.00e+00	0	38	0	88080384	54	5150
2026-01-23 11:14:52.94	134.21	8.87	-42.9	-45.7	14.1	4.50e-06	0	38	0	93323264	56	5223
2026-01-23 11:14:53.94	134.16	8.95	-43.9	-47.0	12.8	3.54e-05	0	38	0	98566144	58	5422
2026-01-23 11:14:54.93	134.11	9.03	-44.8	-48.4	11.4	4.53e-04	0	38	0	104857600	60	5664
2026-01-23 11:14:55.92	134.06	9.11	-44.6	-48.1	11.7	1.01e-03	0	38	0	110100480	60	5490
2026-01-23 11:14:56.92	134.01	9.19	-41.1	-43.4	16.2	6.80e-06	0	38	0	115343360	54	4533
2026-01-23 11:14:57.91	133.96	9.27	-47.9	-55.8	4.8	2.44e-01	0	38	0	120586240	66	9448
2026-01-23 11:14:58.91	133.91	9.35	-44.6	-47.9	12.0	3.33e-02	0	38	0	123731968	61	5087
2026-01-23 11:14:59.90	133.86	9.43	-42.2	-44.7	14.9	0.00e+00	0	38	0	130023424	55	4948
2026-01-23 11:15:00.90	133.80	9.52	-42.1	-44.6	15.0	0.00e+00	0	38	0	135266304	55	4880
2026-01-23 11:15:01.89	133.75	9.60	-41.8	-44.3	15.3	0.00e+00	0	38	0	140509184	55	4736
2026-01-23 11:15:02.89	133.70	9.68	-41.1	-43.4	16.2	0.00e+00	0	38	0	146800640	54	4503
2026-01-23 11:15:03.88	133.64	9.76	-40.5	-42.7	16.9	0.00e+00	0	38	0	152043520	53	4408
2026-01-23 11:15:04.88	133.59	9.84	-40.4	-42.6	17.0	0.00e+00	0	38	0	157286400	52	4604
2026-01-23 11:15:05.87	133.53	9.93	-40.3	-42.5	17.1	0.00e+00	0	38	0	163577856	52	4574
2026-01-23 11:15:06.87	133.48	10.01	-39.8	-41.9	17.7	0.00e+00	0	38	0	168820736	51	4521
2026-01-23 11:15:07.87	133.43	10.09	-39.3	-41.3	18.3	0.00e+00	0	38	0	174063616	50	4487
2026-01-23 11:15:08.86	133.37	10.18	-39.0	-41.0	18.6	0.00e+00	0	38	0	180355072	50	4323
2026-01-23 11:15:09.86	133.31	10.26	-38.9	-40.8	18.8	0.00e+00	0	38	0	185597952	49	4490
2026-01-23 11:15:10.85	133.26	10.34	-38.8	-40.8	18.8	0.00e+00	0	38	0	191889408	49	4458
2026-01-23 11:15:11.85	133.20	10.43	-38.8	-40.7	18.9	0.00e+00	0	38	0	197132288	49	4435
2026-01-23 11:15:12.85	133.15	10.51	-38.7	-40.7	18.8	0.00e+00	0	38	0	202375168	49	4433
2026-01-23 11:15:13.84	133.09	10.60	-38.7	-40.7	18.8	0.00e+00	0	38	0	207618048	49	4437
2026-01-23 11:15:14.84	133.03	10.68	-38.7	-40.7	18.9	0.00e+00	0	38	0	213909504	49	4413
2026-01-23 11:15:15.83	132.97	10.77	-38.7	-40.7	18.9	0.00e+00	0	39	0	219152384	49	4414
2026-01-23 11:15:16.83	132.92	10.85	-38.7	-40.7	18.9	0.00e+00	0	39	0	225443840	49	4415
2026-01-23 11:15:17.82	132.86	10.94	-38.7	-40.7	18.9	0.00e+00	0	38	0	230686720	49	4426
2026-01-23 11:15:18.82	132.80	11.02	-38.7	-40.7	18.9	0.00e+00	0	38	0	235929600	49	4433
2026-01-23 11:15:19.82	132.74	11.11	-38.7	-40.7	19.0	0.00e+00	0	38	0	242221056	49	4395
2026-01-23 11:15:20.81	132.68	11.20	-38.6	-40.6	19.0	0.00e+00	0	38	0	247463936	49	4385
2026-01-23 11:15:21.80	132.62	11.28	-38.6	-40.6	19.0	0.00e+00	0	38	0	252706816	49	4365
2026-01-23 11:15:22.80	132.56	11.37	-38.7	-40.7	19.0	0.00e+00	0	38	0	257949696	49	4393
2026-01-23 11:15:23.80	132.50	11.46	-38.5	-40.5	19.1	0.00e+00	0	39	0	264241152	49	4333
2026-01-23 11:15:24.79	132.44	11.54	-38.5	-40.5	19.1	0.00e+00	0	39	0	269484032	49	4333
2026-01-23 11:15:25.78	132.38	11.63	-38.5	-40.5	19.1	0.00e+00	0	38	0	275775488	49	4331
2026-01-23 11:15:26.78	132.32	11.72	-38.4	-40.4	19.2	0.00e+00	0	39	0	281018368	48	4525
2026-01-23 11:15:27.77	132.26	11.81	-38.5	-40.5	19.1	0.00e+00	0	39	0	286261248	48	4546
2026-01-23 11:15:28.76	132.20	11.90	-38.4	-40.3	19.2	0.00e+00	0	38	0	292552704	48	4492
2026-01-23 11:15:29.76	132.13	11.99	-38.3	-40.3	19.3	0.00e+00	0	38	0	297795584	48	4475
2026-01-23 11:15:30.75	132.07	12.07	-38.4	-40.4	19.2	0.00e+00	0	39	0	303038464	48	4524
2026-01-23 11:15:31.75	132.01	12.16	-38.4	-40.4	19.3	0.00e+00	0	39	0	308281344	48	4504
2026-01-23 11:15:32.74	131.94	12.25	-38.2	-40.1	19.5	0.00e+00	0	38	0	314572800	48	4388
2026-01-23 11:15:33.74	131.88	12.34	-38.2	-40.1	19.5	0.00e+00	0	38	0	319815680	48	4390
2026-01-23 11:15:34.73	131.81	12.43	-38.1	-40.0	19.6	0.00e+00	0	38	0	326107136	48	4318
2026-01-23 11:15:35.72	131.75	12.52	-37.8	-39.8	19.6	0.00e+00	0	38	0	331350016	47	4470
2026-01-23 11:15:36.72	131.68	12.62	-37.9	-39.8	19.6	0.00e+00	0	39	0	336592896	47	4485
2026-01-23 11:15:37.71	131.62	12.71	-37.9	-39.8	19.6	0.00e+00	0	39	0	342884352	47	4488
2026-01-23 11:15:38.71	131.55	12.80	-37.9	-39.9	19.5	0.00e+00	0	39	0	348127232	47	4497
2026-01-23 11:15:39.70	131.48	12.89	-37.7	-39.7	19.7	0.00e+00	0	39	0	353370112	47	4411
2026-01-23 11:15:40.70	131.42	12.98	-37.7	-39.6	19.8	0.00e+00	0	39	0	358612992	47	4369
2026-01-23 11:15:41.69	131.35	13.08	-37.7	-39.6	19.8	0.00e+00	0	39	0	364904448	47	4382
2026-01-23 11:15:42.69	131.28	13.17	-37.6	-39.5	19.9	0.00e+00	0	39	0	370147328	47	4328
2026-01-23 11:15:43.68	131.21	13.26	-37.6	-39.6	19.9	0.00e+00	0	38	0	376438784	47	4341
2026-01-23 11:15:44.68	131.14	13.36	-37.7	-39.6	19.8	0.00e+00	0	39	0	381681664	47	4372
2026-01-23 11:15:45.67	131.07	13.45	-37.6	-39.5	19.9	0.00e+00	0	39	0	386924544	47	4317
2026-01-23 11:15:46.67	131.00	13.54	-37.5	-39.4	19.9	0.00e+00	0	39	0	393216000	47	4286
2026-01-23 11:15:47.66	130.93	13.64	-37.6	-39.5	19.9	0.00e+00	0	39	0	398458880	47	4328
2026-01-23 11:15:48.65	130.86	13.73	-37.6	-39.5	19.9	0.00e+00	0	39	0	403701760	47	4302
2026-01-23 11:15:49.65	130.79	13.83	-37.5	-39.4	19.9	0.00e+00	0	39	0	408944640	47	4276
2026-01-23 11:15:50.65	130.72	13.92	-37.5	-39.4	19.9	0.00e+00	0	39	0	415236096	47	4281
2026-01-23 11:15:51.64	130.65	14.02	-37.5	-39.4	20.0	0.00e+00	0	39	0	420478976	47	4275
2026-01-23 11:15:52.64	130.57	14.12	-37.5	-39.4	20.0	0.00e+00	0	39	0	426770432	47	4272
2026-01-23 11:15:53.63	130.50	14.21	-37.5	-39.4	20.0	0.00e+00	0	39	0	432013312	47	4284
2026-01-23 11:15:54.63	130.43	14.31	-37.5	-39.4	20.0	0.00e+00	0	39	0	437256192	46	4508
2026-01-23 11:15:55.62	130.35	14.41	-37.5	-39.4	20.1	0.00e+00	0	39	0	443547648	46	4505
2026-01-23 11:15:56.62	130.28	14.50	-37.5	-39.4	20.0	0.00e+00	0	39	0	448790528	46	4517
2026-01-23 11:15:57.61	130.20	14.60	-37.3	-39.2	20.1	0.00e+00	0	39	0	454033408	46	4427
2026-01-23 11:15:58.61	130.13	14.70	-37.3	-39.2	20.2	0.00e+00	0	39	0	460324864	46	4427
2026-01-23 11:15:59.60	130.05	14.80	-37.3	-39.2	20.2	0.00e+00	0	39	0	465567744	46	4421
2026-01-23 11:16:00.59	129.98	14.90	-37.3	-39.2	20.2	0.00e+00	0	39	0	470810624	46	4395
2026-01-23 11:16:01.59	129.90	15.00	-37.1	-38.9	20.4	0.00e+00	0	39	0	477102080	46	4289
2026-01-23 11:16:02.58	129.82	15.09	-37.0	-38.9	20.5	0.00e+00	0	38	0	482344960	46	4257
2026-01-23 11:16:03.58	129.74	15.20	-37.0	-38.9	20.5	0.00e+00	0	38	0	487587840	46	4274
2026-01-23 11:16:04.57	129.66	15.30	-36.9	-38.8	20.6	0.00e+00	0	39	0	493879296	45	4466
2026-01-23 11:16:05.57	129.58	15.40	-37.0	-38.8	20.5	0.00e+00	0	39	0	499122176	45	4477
2026-01-23 11:16:06.56	129.50	15.50	-36.9	-38.8	20.6	0.00e+00	0	38	0	504365056	45	4450
2026-01-23 11:16:07.56	129.42	15.60	-36.8	-38.7	20.7	0.00e+00	0	39	0	510656512	45	4399
2026-01-23 11:16:08.55	129.34	15.70	-36.9	-38.8	20.6	0.00e+00	0	39	0	515899392	45	4451
2026-01-23 11:16:09.55	129.26	15.80	-37.0	-38.9	20.5	0.00e+00	0	39	0	521142272	45	4511
2026-01-23 11:16:10.54	129.18	15.90	-36.8	-38.7	20.6	0.00e+00	0	39	0	527433728	45	4422
2026-01-23 11:16:11.54	129.09	16.01	-36.9	-38.8	20.6	0.00e+00	0	39	0	532676608	45	4444
2026-01-23 11:16:12.53	129.01	16.11	-36.9	-38.7	20.6	0.00e+00	0	39	0	537919488	45	4426
2026-01-23 11:16:13.53	128.93	16.21	-36.8	-38.7	20.7	0.00e+00	0	38	0	544210944	45	4415
2026-01-23 11:16:14.52	128.84	16.32	-36.9	-38.7	20.6	0.00e+00	0	39	0	549453824	45	4433
2026-01-23 11:16:15.52	128.76	16.42	-36.8	-38.7	20.7	0.00e+00	0	39	0	554696704	45	4406
2026-01-23 11:16:16.51	128.67	16.53	-36.6	-38.5	20.8	0.00e+00	0	39	0	560988160	45	4310
2026-01-23 11:16:17.51	128.58	16.63	-36.7	-38.6	20.8	0.00e+00	0	39	0	566231040	45	4345
2026-01-23 11:16:18.50	128.50	16.74	-36.8	-38.7	20.7	0.00e+00	0	39	0	571473920	45	4392
2026-01-23 11:16:19.50	128.41	16.84	-36.6	-38.5	20.8	0.00e+00	0	39	0	577765376	45	4314
2026-01-23 11:16:20.49	128.32	16.95	-36.6	-38.4	20.9	0.00e+00	0	39	0	583008256	45	4290
2026-01-23 11:16:21.49	128.23	17.06	-36.6	-38.4	20.9	0.00e+00	0	39	0	588251136	45	4270
2026-01-23 11:16:22.49	128.14	17.16	-36.6	-38.4	20.9	0.00e+00	0	39	0	594542592	45	4265
2026-01-23 11:16:23.48	128.05	17.27	-36.5	-38.3	21.0	0.00e+00	0	39	0	599785472	44	4468
2026-01-23 11:16:24.47	127.96	17.38	-36.5	-38.3	21.0	0.00e+00	0	39	0	605028352	44	4480
2026-01-23 11:16:25.47	127.87	17.49	-36.5	-38.3	21.0	0.00e+00	0	39	0	611319808	44	4493
2026-01-23 11:16:26.47	127.78	17.60	-36.4	-38.2	21.1	0.00e+00	0	39	0	616562688	44	4425
2026-01-23 11:16:27.46	127.68	17.71	-36.4	-38.3	21.1	0.00e+00	0	39	0	622854144	44	4444
2026-01-23 11:16:28.46	127.59	17.82	-36.5	-38.3	21.0	0.00e+00	0	39	0	628097024	44	4482
2026-01-23 11:16:29.45	127.50	17.92	-36.4	-38.2	21.1	0.00e+00	0	39	0	633339904	44	4429
2026-01-23 11:16:30.44	127.40	18.03	-36.4	-38.2	21.1	0.00e+00	0	39	0	638582784	44	4415
2026-01-23 11:16:31.44	127.31	18.15	-36.4	-38.2	21.1	0.00e+00	0	39	0	644874240	44	4425
2026-01-23 11:16:32.43	127.21	18.26	-36.4	-38.2	21.1	0.00e+00	0	39	0	650117120	44	4421
2026-01-23 11:16:33.43	127.11	18.37	-36.3	-38.2	21.1	0.00e+00	0	39	0	655360000	44	4401
2026-01-23 11:16:34.42	127.01	18.48	-36.4	-38.3	21.0	0.00e+00	0	39	0	661651456	44	4446
2026-01-23 11:16:35.42	126.92	18.59	-36.3	-38.1	21.2	0.00e+00	0	39	0	666894336	44	4357
2026-01-23 11:16:36.41	126.82	18.70	-36.3	-38.1	21.2	0.00e+00	0	39	0	673185792	44	4365
2026-01-23 11:16:37.41	126.72	18.82	-36.2	-38.0	21.2	0.00e+00	0	39	0	678428672	44	4309
2026-01-23 11:16:38.40	126.61	18.93	-36.1	-37.9	21.4	0.00e+00	0	39	0	683671552	44	4259
2026-01-23 11:16:39.40	126.51	19.05	-36.0	-37.8	21.4	0.00e+00	0	39	0	688914432	44	4240
2026-01-23 11:16:40.39	126.41	19.16	-36.0	-37.8	21.4	0.00e+00	0	39	0	695205888	44	4235
2026-01-23 11:16:41.39	126.31	19.28	-36.0	-37.8	21.4	0.00e+00	0	39	0	700448768	44	4223
2026-01-23 11:16:42.38	126.20	19.39	-36.0	-37.8	21.5	0.00e+00	0	39	0	705691648	44	4207
2026-01-23 11:16:43.38	126.10	19.51	-35.7	-37.5	21.6	0.00e+00	0	39	0	711983104	43	4308
2026-01-23 11:16:44.37	125.99	19.62	-35.7	-37.5	21.5	0.00e+00	0	39	0	717225984	43	4326
2026-01-23 11:16:45.37	125.88	19.74	-35.7	-37.5	21.6	0.00e+00	0	39	0	723517440	43	4308
2026-01-23 11:16:46.36	125.78	19.86	-35.7	-37.4	21.6	0.00e+00	0	39	0	728760320	43	4288
2026-01-23 11:16:47.35	125.67	19.97	-35.7	-37.5	21.6	0.00e+00	0	39	0	734003200	43	4306
2026-01-23 11:16:48.35	125.56	20.09	-35.7	-37.5	21.6	0.00e+00	0	39	0	739246080	43	4318
2026-01-23 11:16:49.35	125.45	20.21	-35.7	-37.5	21.6	0.00e+00	0	39	0	745537536	43	4339
2026-01-23 11:16:50.34	125.34	20.33	-35.8	-37.5	21.6	0.00e+00	0	39	0	750780416	43	4339
2026-01-23 11:16:51.34	125.23	20.45	-35.7	-37.5	21.6	0.00e+00	0	39	0	756023296	43	4301
2026-01-23 11:16:52.33	125.12	20.57	-35.7	-37.5	21.6	0.00e+00	0	39	0	762314752	43	4331
2026-01-23 11:16:53.33	125.00	20.69	-35.7	-37.5	21.6	0.00e+00	0	39	0	767557632	43	4306
2026-01-23 11:16:54.32	124.89	20.81	-35.8	-37.6	21.5	0.00e+00	0	39	0	773849088	43	4347
2026-01-23 11:16:55.32	124.77	20.93	-35.7	-37.5	21.6	0.00e+00	0	39	0	779091968	43	4296
2026-01-23 11:16:56.31	124.66	21.05	-35.7	-37.5	21.6	0.00e+00	0	39	0	784334848	43	4309
2026-01-23 11:16:57.31	124.54	21.18	-35.7	-37.5	21.6	0.00e+00	0	39	0	790626304	43	4304
2026-01-23 11:16:58.30	124.42	21.30	-35.6	-37.3	21.8	0.00e+00	0	39	0	795869184	43	4234
2026-01-23 11:16:59.30	124.30	21.42	-35.5	-37.2	21.8	0.00e+00	0	39	0	801112064	42	4438
2026-01-23 11:17:00.29	124.18	21.54	-35.4	-37.2	21.8	0.00e+00	0	39	0	806354944	42	4438
2026-01-23 11:17:01.29	124.06	21.67	-35.5	-37.3	21.8	0.00e+00	0	39	0	812646400	42	4473
2026-01-23 11:17:02.28	123.94	21.79	-35.5	-37.3	21.8	0.00e+00	0	39	0	817889280	42	4456
2026-01-23 11:17:03.28	123.81	21.92	-35.5	-37.2	21.8	0.00e+00	0	39	0	824180736	42	4440
2026-01-23 11:17:04.27	123.69	22.04	-35.5	-37.3	21.8	0.00e+00	0	39	0	829423616	42	4452
2026-01-23 11:17:05.27	123.56	22.17	-35.5	-37.3	21.8	0.00e+00	0	39	0	834666496	42	4475
2026-01-23 11:17:06.26	123.44	22.30	-35.5	-37.3	21.8	0.00e+00	0	39	0	840957952	42	4459
2026-01-23 11:17:07.26	123.31	22.42	-35.6	-37.4	21.7	0.00e+00	0	39	0	846200832	42	4504
2026-01-23 11:17:08.25	123.18	22.55	-35.7	-37.5	21.6	0.00e+00	0	39	0	851443712	42	4558
2026-01-23 11:17:09.25	123.05	22.68	-35.6	-37.4	21.6	0.00e+00	0	39	0	856686592	42	4544
2026-01-23 11:17:10.24	122.92	22.81	-35.5	-37.3	21.8	0.00e+00	0	39	0	862978048	42	4485
2026-01-23 11:17:11.24	122.79	22.93	-35.5	-37.3	21.8	0.00e+00	0	39	0	868220928	42	4479
2026-01-23 11:17:12.23	122.66	23.06	-35.5	-37.3	21.8	0.00e+00	0	39	0	874512384	42	4447
2026-01-23 11:17:13.22	122.53	23.19	-35.3	-37.1	21.9	0.00e+00	0	39	0	879755264	42	4382
2026-01-23 11:17:14.22	122.39	23.32	-35.3	-37.1	22.0	0.00e+00	0	39	0	884998144	42	4383
2026-01-23 11:17:15.21	122.26	23.45	-35.3	-37.0	22.0	0.00e+00	0	39	0	891289600	42	4334
2026-01-23 11:17:16.20	122.12	23.58	-35.2	-36.9	22.1	0.00e+00	0	39	0	896532480	42	4270
2026-01-23 11:17:17.20	121.98	23.72	-35.1	-36.9	22.2	0.00e+00	0	39	0	901775360	42	4258
2026-01-23 11:17:18.19	121.84	23.85	-35.0	-36.8	22.2	0.00e+00	0	39	0	907018240	42	4212
2026-01-23 11:17:19.18	121.70	23.98	-35.0	-36.8	22.2	0.00e+00	0	39	0	913309696	42	4204
2026-01-23 11:17:20.18	121.56	24.11	-35.1	-36.9	22.2	0.00e+00	0	39	0	918552576	42	4246
2026-01-23 11:17:21.17	121.42	24.25	-35.0	-36.8	22.2	0.00e+00	0	39	0	924844032	42	4204
2026-01-23 11:17:22.17	121.27	24.38	-35.1	-36.8	22.2	0.00e+00	0	39	0	930086912	42	4229
2026-01-23 11:17:23.17	121.12	24.52	-35.1	-36.9	22.1	0.00e+00	0	39	0	935329792	42	4248
2026-01-23 11:17:24.16	120.98	24.65	-35.2	-36.9	22.1	0.00e+00	0	39	0	941621248	42	4285
2026-01-23 11:17:25.15	120.83	24.79	-35.1	-36.9	22.1	0.00e+00	0	39	0	946864128	42	4272
2026-01-23 11:17:26.15	120.68	24.92	-35.1	-36.9	22.1	0.00e+00	0	39	0	952107008	42	4268
2026-01-23 11:17:27.15	120.53	25.06	-35.0	-36.7	22.2	0.00e+00	0	39	0	957349888	42	4193
2026-01-23 11:17:28.14	120.38	25.20	-35.0	-36.7	22.3	0.00e+00	0	39	0	963641344	41	4423
2026-01-23 11:17:29.14	120.22	25.33	-34.9	-36.7	22.3	0.00e+00	0	39	0	968884224	41	4399
2026-01-23 11:17:30.13	120.07	25.47	-34.9	-36.6	22.3	0.00e+00	0	39	0	975175680	41	4391
2026-01-23 11:17:31.13	119.91	25.61	-34.9	-36.7	22.3	0.00e+00	0	39	0	980418560	41	4411
2026-01-23 11:17:32.12	119.75	25.75	-35.0	-36.7	22.2	0.00e+00	0	39	0	985661440	41	4427
2026-01-23 11:17:33.12	119.59	25.89	-34.8	-36.6	22.4	0.00e+00	0	39	0	991952896	41	4359
2026-01-23 11:17:34.11	119.43	26.03	-34.8	-36.6	22.4	0.00e+00	0	39	0	997195776	41	4351
2026-01-23 11:17:35.11	119.27	26.17	-34.9	-36.6	22.3	0.00e+00	0	39	0	1002438656	41	4383
2026-01-23 11:17:36.10	119.11	26.31	-34.8	-36.5	22.4	0.00e+00	0	39	0	1008730112	41	4325
2026-01-23 11:17:37.10	118.94	26.45	-34.8	-36.5	22.4	0.00e+00	0	39	0	1013972992	41	4333
2026-01-23 11:17:38.09	118.78	26.59	-34.9	-36.7	22.3	0.00e+00	0	39	0	1019215872	41	4398
2026-01-23 11:17:39.09	118.61	26.74	-34.9	-36.7	22.3	0.00e+00	0	39	0	1025507328	41	4405
2026-01-23 11:17:40.08	118.44	26.88	-34.9	-36.7	22.2	0.00e+00	0	39	0	1030750208	41	4430
2026-01-23 11:17:41.08	118.27	27.02	-34.8	-36.6	22.4	0.00e+00	0	39	0	1035993088	41	4353
2026-01-23 11:17:42.07	118.10	27.16	-34.8	-36.6	22.4	0.00e+00	0	39	0	1042284544	41	4353
2026-01-23 11:17:43.06	117.92	27.31	-34.7	-36.4	22.5	0.00e+00	0	39	0	1047527424	41	4280
2026-01-23 11:17:44.06	117.75	27.45	-34.7	-36.5	22.5	0.00e+00	0	39	0	1052770304	41	4294
2026-01-23 11:17:45.05	117.57	27.60	-34.7	-36.4	22.5	0.00e+00	0	39	0	1059061760	41	4273
2026-01-23 11:17:46.05	117.39	27.74	-34.6	-36.4	22.5	0.00e+00	0	39	0	1064304640	41	4244
2026-01-23 11:17:47.04	117.21	27.89	-34.6	-36.3	22.5	0.00e+00	0	39	0	1069547520	41	4233
2026-01-23 11:17:48.04	117.03	28.04	-34.5	-36.3	22.6	0.00e+00	0	39	0	1075838976	41	4196
2026-01-23 11:17:49.03	116.84	28.18	-34.5	-36.2	22.7	0.00e+00	0	39	0	1081081856	41	4191
2026-01-23 11:17:50.03	116.66	28.33	-34.4	-36.2	22.7	0.00e+00	0	39	0	1086324736	40	4398
2026-01-23 11:17:51.02	116.47	28.48	-34.4	-36.2	22.7	0.00e+00	0	39	0	1092616192	40	4409
2026-01-23 11:17:52.01	116.28	28.63	-34.4	-36.2	22.8	0.00e+00	0	39	0	1097859072	40	4392
2026-01-23 11:17:53.01	116.09	28.77	-34.4	-36.1	22.8	0.00e+00	0	39	0	1103101952	40	4381
2026-01-23 11:17:54.00	115.90	28.92	-34.5	-36.2	22.7	0.00e+00	0	39	0	1109393408	40	4432
2026-01-23 11:17:55.00	115.70	29.07	-34.5	-36.2	22.7	0.00e+00	0	39	0	1114636288	40	4438
2026-01-23 11:17:55.99	115.51	29.22	-34.7	-36.4	22.6	0.00e+00	0	39	0	1119879168	40	4527
2026-01-23 11:17:56.99	115.31	29.37	-34.7	-36.4	22.5	0.00e+00	0	39	0	1126170624	40	4535
2026-01-23 11:17:57.98	115.11	29.52	-34.7	-36.5	22.5	0.00e+00	0	39	0	1131413504	40	4566
2026-01-23 11:17:58.97	114.91	29.67	-34.7	-36.5	22.5	0.00e+00	0	39	0	1136656384	40	4547
2026-01-23 11:17:59.97	114.70	29.83	-34.8	-36.6	22.4	0.00e+00	0	39	0	1142947840	40	4619
2026-01-23 11:18:00.96	114.50	29.98	-34.6	-36.4	22.6	0.00e+00	0	39	0	1148190720	40	4514
2026-01-23 11:18:01.96	114.29	30.13	-34.5	-36.3	22.7	0.00e+00	0	39	0	1153433600	40	4463
2026-01-23 11:18:02.95	114.08	30.28	-34.5	-36.2	22.8	0.00e+00	0	39	0	1159725056	40	4428
2026-01-23 11:18:03.95	113.87	30.44	-34.5	-36.2	22.8	0.00e+00	0	39	0	1164967936	40	4412
2026-01-23 11:18:04.95	113.65	30.59	-34.4	-36.1	22.9	0.00e+00	0	39	0	1170210816	40	4375
2026-01-23 11:18:05.94	113.44	30.74	-34.5	-36.3	22.7	0.00e+00	0	39	0	1176502272	40	4462
2026-01-23 11:18:06.94	113.22	30.90	-34.5	-36.3	22.7	0.00e+00	0	39	0	1181745152	40	4464
2026-01-23 11:18:07.93	113.00	31.05	-34.7	-36.5	22.5	0.00e+00	0	39	0	1186988032	40	4549
2026-01-23 11:18:08.93	112.77	31.21	-34.7	-36.5	22.5	0.00e+00	0	39	0	1193279488	40	4564
2026-01-23 11:18:09.92	112.55	31.36	-34.8	-36.6	22.4	0.00e+00	0	39	0	1198522368	40	4604
2026-01-23 11:18:10.91	112.33	31.52	-34.8	-36.6	22.4	0.00e+00	0	39	0	1203765248	40	4616
2026-01-23 11:18:11.90	112.10	31.67	-34.8	-36.6	22.4	0.00e+00	0	39	0	1210056704	40	4632
2026-01-23 11:18:12.89	111.87	31.83	-34.8	-36.6	22.4	0.00e+00	0	39	0	1215299584	40	4625
2026-01-23 11:18:13.89	111.63	31.98	-34.7	-36.4	22.5	0.00e+00	0	39	0	1221591040	40	4535
2026-01-23 11:18:14.88	111.40	32.14	-34.4	-36.1	22.8	0.00e+00	0	39	0	1226833920	40	4379
2026-01-23 11:18:15.88	111.16	32.30	-34.3	-36.0	22.9	0.00e+00	0	39	0	1232076800	40	4326
2026-01-23 11:18:16.87	110.92	32.45	-34.2	-36.0	22.9	0.00e+00	0	39	0	1237319680	40	4293
2026-01-23 11:18:17.87	110.68	32.61	-34.3	-36.1	22.9	0.00e+00	0	39	0	1243611136	40	4341
2026-01-23 11:18:18.86	110.43	32.77	-34.3	-36.0	22.9	0.00e+00	0	39	0	1248854016	40	4325
2026-01-23 11:18:19.86	110.18	32.93	-34.2	-35.9	22.9	0.00e+00	0	39	0	1254096896	40	4277
2026-01-23 11:18:20.85	109.94	33.09	-34.2	-36.0	22.9	0.00e+00	0	39	0	1260388352	40	4293
2026-01-23 11:18:21.85	109.68	33.25	-34.2	-35.9	23.0	0.00e+00	0	39	0	1265631232	40	4286
2026-01-23 11:18:22.84	109.43	33.40	-34.4	-36.2	22.8	0.00e+00	0	39	0	1271922688	40	4403
2026-01-23 11:18:23.84	109.17	33.56	-34.4	-36.2	22.8	0.00e+00	0	39	0	1277165568	40	4394
2026-01-23 11:18:24.83	108.91	33.72	-34.3	-36.0	22.9	0.00e+00	0	39	0	1282408448	40	4327
2026-01-23 11:18:25.83	108.65	33.88	-34.3	-36.0	22.9	0.00e+00	0	39	0	1287651328	40	4334
2026-01-23 11:18:26.83	108.38	34.04	-34.3	-36.1	22.8	0.00e+00	0	39	0	1293942784	40	4345
2026-01-23 11:18:27.82	108.12	34.20	-34.4	-36.1	22.8	0.00e+00	0	39	0	1299185664	40	4387
2026-01-23 11:18:28.81	107.85	34.36	-34.4	-36.1	22.7	0.00e+00	0	39	0	1304428544	40	4378
2026-01-23 11:18:29.81	107.57	34.52	-34.3	-36.0	22.8	0.00e+00	0	39	0	1310720000	40	4323
2026-01-23 11:18:30.80	107.30	34.68	-34.3	-36.0	22.9	0.00e+00	0	39	0	1315962880	40	4326
2026-01-23 11:18:31.80	107.02	34.84	-34.2	-35.9	22.9	0.00e+00	0	39	0	1322254336	40	4275
2026-01-23 11:18:32.79	106.74	35.00	-34.2	-36.0	22.9	0.00e+00	0	39	0	1327497216	40	4297
2026-01-23 11:18:33.79	106.45	35.16	-34.3	-36.0	22.9	0.00e+00	0	39	0	1332740096	40	4325
2026-01-23 11:18:34.78	106.17	35.31	-34.3	-36.1	22.9	0.00e+00	0	39	0	1337982976	40	4341
2026-01-23 11:18:35.78	105.88	35.47	-34.4	-36.1	22.8	0.00e+00	0	39	0	1344274432	40	4389
2026-01-23 11:18:36.77	105.59	35.63	-34.3	-36.0	22.9	0.00e+00	0	39	0	1349517312	40	4307
2026-01-23 11:18:37.77	105.29	35.79	-34.2	-35.9	23.0	0.00e+00	0	39	0	1354760192	40	4275
2026-01-23 11:18:38.76	104.99	35.95	-34.2	-36.0	22.9	0.00e+00	0	39	0	1361051648	40	4302
2026-01-23 11:18:39.75	104.69	36.11	-34.2	-35.9	23.0	0.00e+00	0	39	0	1366294528	40	4285
2026-01-23 11:18:40.75	104.39	36.27	-34.2	-35.9	23.0	0.00e+00	0	39	0	1372585984	40	4278
2026-01-23 11:18:41.74	104.08	36.43	-34.2	-35.9	23.0	0.00e+00	0	39	0	1377828864	40	4265
2026-01-23 11:18:42.74	103.77	36.59	-34.3	-36.0	23.0	0.00e+00	0	39	0	1383071744	40	4308
2026-01-23 11:18:43.74	103.45	36.75	-34.3	-36.1	22.9	0.00e+00	0	39	0	1389363200	40	4355
2026-01-23 11:18:44.73	103.14	36.90	-34.4	-36.1	22.8	0.00e+00	0	39	0	1394606080	40	4381
2026-01-23 11:18:45.73	102.82	37.06	-34.2	-36.0	22.9	0.00e+00	0	39	0	1399848960	40	4307
2026-01-23 11:18:46.72	102.50	37.22	-34.3	-36.1	22.9	0.00e+00	0	39	0	1406140416	40	4347
2026-01-23 11:18:47.72	102.17	37.38	-34.2	-36.0	22.9	0.00e+00	0	39	0	1411383296	40	4302
2026-01-23 11:18:48.72	101.84	37.54	-34.4	-36.2	22.8	0.00e+00	0	39	0	1416626176	40	4403
2026-01-23 11:18:49.71	101.51	37.69	-34.5	-36.3	22.7	0.00e+00	0	39	0	1422917632	40	4449
2026-01-23 11:18:50.71	101.17	37.85	-34.7	-36.5	22.5	0.00e+00	0	39	0	1428160512	40	4550
2026-01-23 11:18:51.70	100.84	38.01	-34.8	-36.6	22.4	0.00e+00	0	39	0	1433403392	40	4623
2026-01-23 11:18:52.70	100.49	38.16	-34.8	-36.6	22.4	0.00e+00	0	39	0	1439694848	40	4631
2026-01-23 11:18:53.69	100.15	38.32	-34.9	-36.6	22.4	0.00e+00	0	39	0	1444937728	40	4631
2026-01-23 11:18:54.69	99.80	38.47	-34.7	-36.5	22.6	0.00e+00	0	39	0	1450180608	40	4550
2026-01-23 11:18:55.68	99.45	38.63	-34.6	-36.3	22.7	0.00e+00	0	39	0	1456472064	40	4487
2026-01-23 11:18:56.68	99.09	38.78	-34.6	-36.3	22.7	0.00e+00	0	39	0	1461714944	40	4490
2026-01-23 11:18:57.67	98.74	38.93	-34.6	-36.4	22.6	0.00e+00	0	39	0	1466957824	40	4512
2026-01-23 11:18:58.67	98.37	39.08	-34.4	-36.1	22.9	0.00e+00	0	39	0	1473249280	40	4383
2026-01-23 11:18:59.66	98.01	39.24	-34.4	-36.1	22.9	0.00e+00	0	39	0	1478492160	40	4357
2026-01-23 11:19:00.66	97.64	39.39	-34.5	-36.3	22.7	0.00e+00	0	39	0	1483735040	40	4450
2026-01-23 11:19:01.65	97.27	39.54	-34.7	-36.4	22.6	0.00e+00	0	39	0	1490026496	40	4516
2026-01-23 11:19:02.65	96.89	39.69	-34.7	-36.4	22.6	0.00e+00	0	39	0	1495269376	40	4530
2026-01-23 11:19:03.64	96.51	39.84	-34.6	-36.3	22.7	0.00e+00	0	39	0	1500512256	40	4485
2026-01-23 11:19:04.63	96.13	39.98	-34.4	-36.2	22.8	0.00e+00	0	39	0	1506803712	40	4398
2026-01-23 11:19:05.63	95.74	40.13	-34.3	-36.0	23.0	0.00e+00	0	39	0	1512046592	40	4340
2026-01-23 11:19:06.62	95.36	40.28	-34.1	-35.8	23.1	0.00e+00	0	39	0	1517289472	40	4231
2026-01-23 11:19:07.62	94.96	40.42	-34.1	-35.8	23.1	0.00e+00	0	39	0	1523580928	40	4219
2026-01-23 11:19:08.61	94.57	40.57	-34.1	-35.8	23.1	0.00e+00	0	39	0	1528823808	40	4228
2026-01-23 11:19:09.60	94.17	40.71	-34.1	-35.8	23.2	0.00e+00	0	39	0	1534066688	40	4221
2026-01-23 11:19:10.60	93.76	40.85	-34.1	-35.8	23.2	0.00e+00	0	39	0	1540358144	40	4219
2026-01-23 11:19:11.60	93.35	40.99	-34.1	-35.8	23.1	0.00e+00	0	39	0	1545601024	40	4232
2026-01-23 11:19:12.59	92.94	41.13	-34.1	-35.8	23.2	0.00e+00	0	39	0	1550843904	40	4234
2026-01-23 11:19:13.58	92.53	41.27	-34.1	-35.9	23.1	0.00e+00	0	39	0	1557135360	40	4249
2026-01-23 11:19:14.58	92.11	41.41	-34.3	-36.0	23.0	0.00e+00	0	39	0	1562378240	40	4340
2026-01-23 11:19:15.58	91.69	41.55	-34.3	-36.0	23.1	0.00e+00	0	39	0	1567621120	40	4322
2026-01-23 11:19:16.57	91.27	41.68	-34.3	-36.0	23.1	0.00e+00	0	39	0	1573912576	40	4326
2026-01-23 11:19:17.56	90.84	41.82	-34.2	-35.9	23.1	0.00e+00	0	39	0	1579155456	40	4285
2026-01-23 11:19:18.56	90.40	41.95	-34.2	-35.9	23.1	0.00e+00	0	39	0	1584398336	40	4290
2026-01-23 11:19:19.55	89.97	42.08	-34.3	-36.0	23.1	0.00e+00	0	39	0	1590689792	40	4336
2026-01-23 11:19:20.55	89.53	42.21	-34.3	-36.0	23.1	0.00e+00	0	39	0	1595932672	40	4310
2026-01-23 11:19:21.55	89.08	42.34	-34.2	-35.9	23.2	0.00e+00	0	39	0	1601175552	40	4258
2026-01-23 11:19:22.54	88.64	42.47	-34.1	-35.9	23.1	0.00e+00	0	39	0	1607467008	40	4248
2026-01-23 11:19:23.53	88.19	42.59	-34.0	-35.7	23.3	0.00e+00	0	39	0	1612709888	39	4428
2026-01-23 11:19:24.53	87.74	42.72	-33.9	-35.6	23.4	0.00e+00	0	39	0	1617952768	39	4369
2026-01-23 11:19:25.52	87.28	42.84	-34.0	-35.7	23.4	0.00e+00	0	39	0	1624244224	39	4392
2026-01-23 11:19:26.52	86.82	42.96	-34.0	-35.8	23.3	0.00e+00	0	39	0	1629487104	39	4444
2026-01-23 11:19:27.51	86.36	43.08	-33.9	-35.5	23.5	0.00e+00	0	39	0	1634729984	39	4339
2026-01-23 11:19:28.51	85.89	43.19	-33.9	-35.6	23.5	0.00e+00	0	39	0	1641021440	39	4341
2026-01-23 11:19:29.50	85.42	43.31	-34.0	-35.7	23.4	0.00e+00	0	39	0	1646264320	39	4417
2026-01-23 11:19:30.50	84.94	43.42	-34.3	-36.0	23.1	0.00e+00	0	39	0	1651507200	39	4564
2026-01-23 11:19:31.49	84.47	43.53	-34.4	-36.1	23.0	0.00e+00	0	39	0	1657798656	39	4649
2026-01-23 11:19:32.48	83.99	43.64	-34.4	-36.1	23.0	0.00e+00	0	39	0	1663041536	39	4630
2026-01-23 11:19:33.48	83.50	43.75	-34.2	-35.9	23.2	0.00e+00	0	39	0	1668284416	39	4545
2026-01-23 11:19:34.48	83.01	43.86	-34.0	-35.7	23.4	0.00e+00	0	39	0	1674575872	39	4430
2026-01-23 11:19:35.47	82.52	43.96	-34.0	-35.7	23.4	0.00e+00	0	39	0	1679818752	39	4401
2026-01-23 11:19:36.47	82.03	44.06	-34.1	-35.8	23.3	0.00e+00	0	39	0	1685061632	39	4457
2026-01-23 11:19:37.46	81.53	44.16	-34.1	-35.8	23.3	0.00e+00	0	39	0	1691353088	39	4482
2026-01-23 11:19:38.46	81.03	44.26	-34.1	-35.9	23.3	0.00e+00	0	39	0	1696595968	39	4495
2026-01-23 11:19:39.45	80.53	44.35	-34.3	-36.0	23.2	0.00e+00	0	39	0	1701838848	39	4565
2026-01-23 11:19:40.45	80.02	44.45	-34.2	-35.9	23.2	0.00e+00	0	39	0	1708130304	39	4530
2026-01-23 11:19:41.44	79.52	44.54	-34.4	-36.2	23.0	0.00e+00	0	39	0	1713373184	39	4667
2026-01-23 11:19:42.44	79.00	44.62	-34.6	-36.4	22.8	0.00e+00	0	39	0	1719664640	39	4763
2026-01-23 11:19:43.43	78.49	44.71	-34.6	-36.3	22.8	0.00e+00	0	39	0	1724907520	39	4725
2026-01-23 11:19:44.43	77.97	44.79	-34.6	-36.3	22.8	0.00e+00	0	39	0	1730150400	39	4753
2026-01-23 11:19:45.42	77.45	44.87	-34.4	-36.1	23.0	0.00e+00	0	39	0	1735393280	39	4623
2026-01-23 11:19:46.42	76.93	44.95	-34.5	-36.2	22.9	0.00e+00	0	39	0	1741684736	39	4692
2026-01-23 11:19:47.41	76.41	45.03	-34.5	-36.2	22.9	0.00e+00	0	39	0	1746927616	39	4698
2026-01-23 11:19:48.41	75.88	45.10	-34.4	-36.1	23.0	0.00e+00	0	39	0	1752170496	39	4621
2026-01-23 11:19:49.40	75.35	45.17	-34.4	-36.2	23.0	0.00e+00	0	39	0	1758461952	39	4659
2026-01-23 11:19:50.40	74.81	45.24	-34.6	-36.3	22.9	0.00e+00	0	39	0	1763704832	39	4732
2026-01-23 11:19:51.39	74.28	45.31	-34.5	-36.2	23.0	0.00e+00	0	39	0	1769996288	39	4670
2026-01-23 11:19:52.38	73.75	45.37	-34.4	-36.2	23.0	0.00e+00	0	39	0	1775239168	39	4654
2026-01-23 11:19:53.38	73.21	45.43	-34.3	-36.0	23.1	0.00e+00	0	39	0	1780482048	39	4572
2026-01-23 11:19:54.38	72.66	45.49	-34.4	-36.1	23.0	0.00e+00	0	39	0	1785724928	39	4651
2026-01-23 11:19:55.37	72.12	45.54	-34.5	-36.2	22.9	0.00e+00	0	39	0	1792016384	39	4683
2026-01-23 11:19:56.37	71.58	45.59	-34.5	-36.2	22.9	0.00e+00	0	39	0	1797259264	39	4682
2026-01-23 11:19:57.36	71.03	45.64	-34.4	-36.1	23.0	0.00e+00	0	39	0	1803550720	39	4640
2026-01-23 11:19:58.36	70.48	45.69	-34.3	-36.0	23.1	0.00e+00	0	39	0	1808793600	39	4577
2026-01-23 11:19:59.35	69.94	45.73	-34.3	-36.0	23.1	0.00e+00	0	39	0	1814036480	39	4564
2026-01-23 11:20:00.35	69.38	45.77	-34.4	-36.2	23.0	0.00e+00	0	39	0	1820327936	39	4659
2026-01-23 11:20:01.34	68.83	45.81	-34.4	-36.1	23.1	0.00e+00	0	39	0	1825570816	39	4608
2026-01-23 11:20:02.34	68.28	45.84	-34.4	-36.1	23.1	0.00e+00	0	39	0	1830813696	39	4607
2026-01-23 11:20:03.33	67.73	45.87	-34.4	-36.1	23.1	0.00e+00	0	39	0	1836056576	39	4609
2026-01-23 11:20:04.32	67.17	45.90	-34.5	-36.2	23.0	0.00e+00	0	39	0	1842348032	39	4683
2026-01-23 11:20:05.32	66.61	45.93	-34.5	-36.2	23.0	0.00e+00	0	39	0	1847590912	39	4678
2026-01-23 11:20:06.31	66.06	45.95	-34.3	-36.0	23.1	0.00e+00	0	39	0	1853882368	39	4577
2026-01-23 11:20:07.31	65.50	45.97	-34.3	-36.0	23.1	0.00e+00	0	39	0	1859125248	39	4567
2026-01-23 11:20:08.30	64.94	45.99	-34.3	-36.0	23.1	0.00e+00	0	39	0	1864368128	39	4577
2026-01-23 11:20:09.30	64.38	46.00	-34.3	-36.0	23.1	0.00e+00	0	39	0	1870659584	39	4592
2026-01-23 11:20:10.29	63.82	46.01	-34.2	-35.9	23.2	0.00e+00	0	39	0	1875902464	39	4543
2026-01-23 11:20:11.29	63.26	46.02	-34.2	-35.9	23.2	0.00e+00	0	39	0	1881145344	39	4501
2026-01-23 11:20:12.28	62.70	46.03	-34.2	-35.8	23.3	0.00e+00	0	39	0	1886388224	39	4493
2026-01-23 11:20:13.28	62.14	46.03	-34.4	-36.1	23.1	0.00e+00	0	39	0	1892679680	39	4603
2026-01-23 11:20:14.27	61.58	46.03	-34.5	-36.3	22.9	0.00e+00	0	39	0	1897922560	39	4720
2026-01-23 11:20:15.26	61.02	46.02	-34.3	-36.0	23.1	0.00e+00	0	39	0	1904214016	39	4579
2026-01-23 11:20:16.26	60.46	46.01	-34.2	-35.8	23.3	0.00e+00	0	39	0	1909456896	39	4492
2026-01-23 11:20:17.26	59.90	46.00	-34.2	-35.9	23.3	0.00e+00	0	39	0	1914699776	39	4506
2026-01-23 11:20:18.25	59.34	45.99	-34.3	-36.1	23.1	0.00e+00	0	39	0	1920991232	39	4605
2026-01-23 11:20:19.24	58.79	45.97	-34.3	-36.0	23.1	0.00e+00	0	39	0	1926234112	39	4567
2026-01-23 11:20:20.24	58.23	45.95	-34.4	-36.1	23.0	0.00e+00	0	39	0	1931476992	39	4640
2026-01-23 11:20:21.23	57.67	45.93	-34.8	-36.5	22.6	0.00e+00	0	39	0	1936719872	40	4585
2026-01-23 11:20:22.23	57.11	45.91	-34.6	-36.4	22.7	0.00e+00	0	39	0	1943011328	40	4495
2026-01-23 11:20:23.22	56.56	45.88	-34.6	-36.3	22.8	0.00e+00	0	39	0	1948254208	40	4478
2026-01-23 11:20:24.22	56.00	45.85	-34.3	-36.0	23.1	0.00e+00	0	39	0	1954545664	40	4292
2026-01-23 11:20:25.22	55.45	45.81	-34.2	-35.9	23.2	0.00e+00	0	39	0	1959788544	40	4257
2026-01-23 11:20:26.21	54.90	45.78	-34.2	-35.9	23.2	0.00e+00	0	39	0	1965031424	40	4273
2026-01-23 11:20:27.21	54.34	45.74	-34.3	-36.0	23.1	0.00e+00	0	39	0	1971322880	40	4296
2026-01-23 11:20:28.20	53.80	45.69	-34.3	-36.0	23.1	0.00e+00	0	39	0	1976565760	40	4308
2026-01-23 11:20:29.19	53.25	45.65	-34.3	-36.0	23.1	0.00e+00	0	39	0	1981808640	40	4314
2026-01-23 11:20:30.19	52.70	45.60	-34.1	-35.8	23.3	0.00e+00	0	39	0	1988100096	40	4218
2026-01-23 11:20:31.18	52.16	45.55	-34.2	-35.9	23.2	0.00e+00	0	39	0	1993342976	40	4263
2026-01-23 11:20:32.18	51.62	45.49	-34.5	-36.3	22.8	0.00e+00	0	39	0	1998585856	40	4454
2026-01-23 11:20:33.17	51.08	45.44	-34.3	-36.1	23.0	0.00e+00	0	39	0	2004877312	40	4357
2026-01-23 11:20:34.16	50.54	45.38	-34.5	-36.2	22.9	0.00e+00	0	39	0	2010120192	40	4424
2026-01-23 11:20:35.16	50.01	45.31	-34.3	-36.1	23.0	0.00e+00	0	39	0	2015363072	40	4341
2026-01-23 11:20:36.15	49.47	45.25	-34.4	-36.1	23.0	0.00e+00	0	39	0	2021654528	40	4341
2026-01-23 11:20:37.15	48.94	45.18	-34.1	-35.8	23.3	0.00e+00	0	39	0	2026897408	40	4218
2026-01-23 11:20:38.14	48.41	45.11	-34.1	-35.8	23.3	0.00e+00	0	39	0	2032140288	40	4194
2026-01-23 11:20:39.14	47.88	45.04	-34.1	-35.8	23.2	0.00e+00	0	39	0	2038431744	40	4227
2026-01-23 11:20:40.13	47.36	44.96	-34.1	-35.8	23.3	0.00e+00	0	39	0	2043674624	40	4204
2026-01-23 11:20:41.13	46.84	44.89	-34.1	-35.8	23.3	0.00e+00	0	39	0	2048917504	40	4221
2026-01-23 11:20:42.12	46.32	44.81	-34.3	-36.0	23.1	0.00e+00	0	39	0	2055208960	40	4318
2026-01-23 11:20:43.12	45.80	44.72	-34.6	-36.3	22.8	0.00e+00	0	39	0	2060451840	40	4477
2026-01-23 11:20:44.12	45.28	44.64	-34.4	-36.1	23.0	0.00e+00	0	39	0	2065694720	40	4375
2026-01-23 11:20:45.11	44.77	44.55	-34.3	-36.1	23.1	0.00e+00	0	39	0	2071986176	40	4345
2026-01-23 11:20:46.11	44.26	44.46	-34.3	-36.0	23.1	0.00e+00	0	39	0	2077229056	40	4336
2026-01-23 11:20:47.10	43.76	44.37	-34.2	-35.9	23.1	0.00e+00	0	39	0	2082471936	40	4277
2026-01-23 11:20:48.10	43.26	44.27	-34.0	-35.7	23.3	0.00e+00	0	39	0	2088763392	40	4192
2026-01-23 11:20:49.09	42.76	44.18	-34.1	-35.8	23.3	0.00e+00	0	39	0	2094006272	40	4202
2026-01-23 11:20:50.09	42.26	44.08	-33.9	-35.5	23.5	0.00e+00	0	39	0	2099249152	39	4339
2026-01-23 11:20:51.09	41.76	43.98	-33.8	-35.5	23.6	0.00e+00	0	39	0	2105540608	39	4311
2026-01-23 11:20:52.08	41.28	43.87	-33.8	-35.5	23.5	0.00e+00	0	39	0	2110783488	39	4318
2026-01-23 11:20:53.08	40.79	43.77	-33.9	-35.6	23.5	0.00e+00	0	39	0	2116026368	39	4359
2026-01-23 11:20:54.07	40.31	43.66	-33.9	-35.6	23.5	0.00e+00	0	39	0	2122317824	39	4378
2026-01-23 11:20:55.06	39.83	43.55	-34.0	-35.6	23.4	0.00e+00	0	39	0	2127560704	39	4383
2026-01-23 11:20:56.06	39.35	43.44	-34.1	-35.8	23.3	0.00e+00	0	39	0	2132803584	39	4448
2026-01-23 11:20:57.05	38.88	43.33	-34.2	-35.9	23.2	0.00e+00	0	39	0	2139095040	39	4501
2026-01-23 11:20:58.05	38.41	43.21	-34.2	-35.9	23.2	0.00e+00	0	39	0	2144337920	39	4502
2026-01-23 11:20:59.04	37.94	43.10	-34.1	-35.8	23.2	0.00e+00	0	39	0	2149580800	39	4484
2026-01-23 11:21:00.04	37.48	42.98	-34.1	-35.8	23.3	0.00e+00	0	39	0	2155872256	39	4485
2026-01-23 11:21:01.03	37.02	42.86	-34.2	-36.0	23.2	0.00e+00	0	39	0	2161115136	39	4551
2026-01-23 11:21:02.03	36.56	42.74	-34.2	-35.9	23.2	0.00e+00	0	39	0	2166358016	39	4506
2026-01-23 11:21:03.03	36.10	42.61	-34.1	-35.8	23.3	0.00e+00	0	39	0	2172649472	39	4463
2026-01-23 11:21:04.02	35.66	42.49	-34.1	-35.9	23.2	0.00e+00	0	39	0	2177892352	39	4497
2026-01-23 11:21:05.02	35.21	42.36	-34.0	-35.7	23.3	0.00e+00	0	39	0	2183135232	39	4436
2026-01-23 11:21:06.01	34.77	42.23	-33.8	-35.5	23.5	0.00e+00	0	39	0	2189426688	39	4332
2026-01-23 11:21:07.01	34.33	42.10	-34.0	-35.6	23.4	0.00e+00	0	39	0	2194669568	39	4387
2026-01-23 11:21:08.00	33.89	41.97	-33.9	-35.6	23.4	0.00e+00	0	39	0	2199912448	39	4377
2026-01-23 11:21:08.99	33.46	41.84	-34.0	-35.7	23.3	0.00e+00	0	39	0	2206203904	39	4428
2026-01-23 11:21:09.99	33.03	41.71	-34.1	-35.8	23.2	0.00e+00	0	39	0	2211446784	39	4471
2026-01-23 11:21:10.98	32.61	41.57	-34.1	-35.8	23.2	0.00e+00	0	39	0	2216689664	39	4477
2026-01-23 11:21:11.98	32.19	41.44	-34.1	-35.8	23.2	0.00e+00	0	39	0	2222981120	39	4490
2026-01-23 11:21:12.97	31.77	41.30	-34.1	-35.8	23.2	0.00e+00	0	39	0	2228224000	39	4490
2026-01-23 11:21:13.96	31.36	41.16	-34.2	-35.9	23.1	0.00e+00	0	39	0	2233466880	39	4535
2026-01-23 11:21:14.96	30.95	41.02	-34.2	-35.9	23.2	0.00e+00	0	39	0	2239758336	39	4536
2026-01-23 11:21:15.95	30.54	40.88	-34.2	-35.9	23.2	0.00e+00	0	39	0	2245001216	39	4519
2026-01-23 11:21:16.95	30.14	40.74	-34.0	-35.7	23.3	0.00e+00	0	39	0	2251292672	39	4438
2026-01-23 11:21:17.95	29.74	40.60	-34.1	-35.9	23.2	0.00e+00	0	39	0	2256535552	39	4494
2026-01-23 11:21:18.94	29.34	40.45	-34.2	-35.9	23.2	0.00e+00	0	39	0	2261778432	39	4526
2026-01-23 11:21:19.94	28.95	40.31	-34.0	-35.8	23.3	0.00e+00	0	39	0	2267021312	39	4442
2026-01-23 11:21:20.93	28.56	40.16	-34.0	-35.7	23.3	0.00e+00	0	39	0	2273312768	39	4429
2026-01-23 11:21:21.92	28.18	40.02	-34.2	-35.8	23.9	0.00e+00	0	39	0	2278555648	39	4466
2026-01-23 11:21:22.92	27.79	39.87	-34.2	-35.9	23.8	0.00e+00	0	39	0	2283798528	39	4502
2026-01-23 11:21:23.91	27.42	39.72	-34.3	-35.9	23.7	0.00e+00	0	39	0	2290089984	39	4538
2026-01-23 11:21:24.91	27.04	39.57	-34.4	-36.1	23.6	0.00e+00	0	39	0	2295332864	39	4605
2026-01-23 11:21:25.90	26.67	39.42	-34.4	-36.1	23.7	0.00e+00	0	39	0	2301624320	39	4614
2026-01-23 11:21:26.90	26.30	39.27	-34.5	-36.1	23.5	0.00e+00	0	39	0	2306867200	39	4639
2026-01-23 11:21:27.89	25.94	39.12	-34.4	-36.0	23.7	0.00e+00	0	39	0	2312110080	39	4584
2026-01-23 11:21:28.89	25.58	38.97	-34.3	-35.9	23.7	0.00e+00	0	39	0	2318401536	39	4529
2026-01-23 11:21:29.88	25.22	38.82	-34.2	-35.8	23.9	0.00e+00	0	39	0	2323644416	39	4470
2026-01-23 11:21:30.88	24.86	38.66	-34.2	-35.8	23.8	0.00e+00	0	39	0	2328887296	39	4489
2026-01-23 11:21:31.87	24.51	38.51	-34.2	-35.8	23.9	0.00e+00	0	39	0	2334130176	39	4462
2026-01-23 11:21:32.87	24.16	38.36	-34.2	-35.8	23.8	0.00e+00	0	39	0	2340421632	39	4481
2026-01-23 11:21:33.86	23.82	38.20	-34.2	-35.8	23.9	0.00e+00	0	39	0	2345664512	39	4462
2026-01-23 11:21:34.86	23.48	38.05	-34.2	-35.8	23.9	0.00e+00	0	39	0	2351955968	39	4463
2026-01-23 11:21:35.85	23.14	37.89	-34.1	-35.7	23.9	0.00e+00	0	39	0	2357198848	39	4434
2026-01-23 11:21:36.85	22.81	37.74	-34.0	-35.6	24.1	0.00e+00	0	39	0	2362441728	39	4353
2026-01-23 11:21:37.84	22.48	37.58	-34.0	-35.6	24.1	0.00e+00	0	39	0	2368733184	39	4352
2026-01-23 11:21:38.83	22.15	37.42	-34.0	-35.6	24.0	0.00e+00	0	39	0	2373976064	39	4389
2026-01-23 11:21:39.83	21.82	37.27	-34.0	-35.6	24.1	0.00e+00	0	39	0	2379218944	39	4352
2026-01-23 11:21:40.83	21.50	37.11	-33.9	-35.6	24.1	0.00e+00	0	39	0	2384461824	39	4342
2026-01-23 11:21:41.82	21.18	36.95	-33.9	-35.5	24.1	0.00e+00	0	39	0	2390753280	39	4333
2026-01-23 11:21:42.81	20.87	36.80	-33.9	-35.5	24.1	0.00e+00	0	39	0	2395996160	39	4336
2026-01-23 11:21:43.81	20.55	36.64	-33.9	-35.6	24.1	0.00e+00	0	39	0	2402287616	39	4345
2026-01-23 11:21:44.80	20.25	36.48	-34.0	-35.7	24.0	0.00e+00	0	39	0	2407530496	39	4416
2026-01-23 11:21:45.80	19.94	36.32	-34.0	-35.7	23.9	0.00e+00	0	39	0	2412773376	39	4417
2026-01-23 11:21:46.79	19.64	36.16	-34.0	-35.6	24.0	0.00e+00	0	39	0	2419064832	39	4386
2026-01-23 11:21:47.79	19.33	36.00	-34.0	-35.7	24.0	0.00e+00	0	39	0	2424307712	39	4392
2026-01-23 11:21:48.78	19.04	35.85	-34.0	-35.6	24.0	0.00e+00	0	39	0	2429550592	39	4363
2026-01-23 11:21:49.78	18.74	35.69	-33.8	-35.4	24.2	0.00e+00	0	39	0	2434793472	39	4276
2026-01-23 11:21:50.77	18.45	35.53	-33.8	-35.4	24.2	0.00e+00	0	39	0	2441084928	39	4272
2026-01-23 11:21:51.77	18.16	35.37	-34.0	-35.6	24.0	0.00e+00	0	39	0	2446327808	39	4366
2026-01-23 11:21:52.76	17.88	35.21	-34.1	-35.7	23.9	0.00e+00	0	39	0	2452619264	39	4425
2026-01-23 11:21:53.76	17.59	35.05	-34.2	-35.8	23.8	0.00e+00	0	39	0	2457862144	39	4489
2026-01-23 11:21:54.75	17.31	34.89	-34.1	-35.7	23.9	0.00e+00	0	39	0	2463105024	39	4431
2026-01-23 11:21:55.75	17.03	34.73	-34.1	-35.8	23.9	0.00e+00	0	39	0	2469396480	39	4448
2026-01-23 11:21:56.74	16.76	34.57	-34.0	-35.6	24.0	0.00e+00	0	39	0	2474639360	39	4378
2026-01-23 11:21:57.73	16.49	34.42	-34.1	-35.7	24.0	0.00e+00	0	39	0	2479882240	39	4402
2026-01-23 11:21:58.73	16.22	34.26	-34.1	-35.8	23.9	0.00e+00	0	39	0	2485125120	39	4453
2026-01-23 11:21:59.72	15.95	34.10	-34.2	-35.8	23.8	0.00e+00	0	39	0	2491416576	39	4486
2026-01-23 11:22:00.72	15.69	33.94	-34.2	-35.8	23.8	0.00e+00	0	39	0	2496659456	39	4472
2026-01-23 11:22:01.71	15.42	33.78	-34.2	-35.8	23.9	0.00e+00	0	39	0	2502950912	39	4454
2026-01-23 11:22:02.71	15.16	33.62	-34.1	-35.7	23.9	0.00e+00	0	39	0	2508193792	39	4421
2026-01-23 11:22:03.70	14.91	33.47	-34.1	-35.7	23.9	0.00e+00	0	39	0	2513436672	39	4433
2026-01-23 11:22:04.69	14.66	33.31	-34.2	-35.8	23.8	0.00e+00	0	39	0	2519728128	39	4480
2026-01-23 11:22:05.69	14.40	33.15	-34.2	-35.8	23.8	0.00e+00	0	39	0	2524971008	39	4483
2026-01-23 11:22:06.69	14.15	32.99	-34.1	-35.7	23.9	0.00e+00	0	39	0	2530213888	39	4440
2026-01-23 11:22:07.68	13.91	32.84	-34.0	-35.7	23.9	0.00e+00	0	39	0	2535456768	39	4394
2026-01-23 11:22:08.67	13.66	32.68	-34.1	-35.7	23.9	0.00e+00	0	39	0	2541748224	39	4429
2026-01-23 11:22:09.67	13.42	32.52	-34.1	-35.7	24.0	0.00e+00	0	39	0	2546991104	39	4404
2026-01-23 11:22:10.66	13.18	32.37	-34.1	-35.7	23.9	0.00e+00	0	39	0	2553282560	39	4435
2026-01-23 11:22:11.66	12.94	32.21	-34.3	-35.9	23.7	0.00e+00	0	39	0	2558525440	39	4524
2026-01-23 11:22:12.65	12.71	32.05	-34.3	-35.9	23.7	0.00e+00	0	39	0	2563768320	39	4545
2026-01-23 11:22:13.65	12.47	31.90	-34.3	-35.9	23.7	0.00e+00	0	39	0	2570059776	39	4530
2026-01-23 11:22:14.64	12.25	31.74	-34.2	-35.9	23.8	0.00e+00	0	39	0	2575302656	39	4503
2026-01-23 11:22:15.64	12.02	31.59	-34.2	-35.8	23.8	0.00e+00	0	39	0	2580545536	39	4480
2026-01-23 11:22:16.63	11.79	31.43	-34.2	-35.8	23.8	0.00e+00	0	39	0	2585788416	39	4492
2026-01-23 11:22:17.62	11.57	31.28	-34.2	-35.8	23.8	0.00e+00	0	39	0	2592079872	39	4464
2026-01-23 11:22:18.62	11.34	31.12	-34.2	-35.8	23.9	0.00e+00	0	39	0	2597322752	39	4473
2026-01-23 11:22:19.61	11.13	30.97	-34.2	-35.8	23.8	0.00e+00	0	39	0	2603614208	39	4488
2026-01-23 11:22:20.61	10.91	30.82	-34.2	-35.8	23.8	0.00e+00	0	39	0	2608857088	39	4493
2026-01-23 11:22:21.60	10.69	30.66	-34.2	-35.8	23.8	0.00e+00	0	39	0	2614099968	39	4471
2026-01-23 11:22:22.60	10.48	30.51	-34.2	-35.8	23.8	0.00e+00	0	39	0	2620391424	39	4481
2026-01-23 11:22:23.59	10.27	30.36	-34.2	-35.8	23.8	0.00e+00	0	39	0	2625634304	39	4480
2026-01-23 11:22:24.59	10.06	30.20	-34.3	-35.9	23.7	0.00e+00	0	39	0	2630877184	39	4531
2026-01-23 11:22:25.58	9.85	30.05	-34.5	-36.1	23.6	0.00e+00	0	39	0	2637168640	39	4631
2026-01-23 11:22:26.57	9.65	29.90	-34.6	-36.3	23.4	0.00e+00	0	39	0	2642411520	40	4457
2026-01-23 11:22:27.57	9.44	29.75	-34.8	-36.5	23.2	0.00e+00	0	39	0	2647654400	40	4568
2026-01-23 11:22:28.56	9.24	29.60	-34.8	-36.5	23.2	0.00e+00	0	39	0	2653945856	40	4556
2026-01-23 11:22:29.56	9.04	29.45	-34.9	-36.6	23.1	0.00e+00	0	39	0	2659188736	40	4623
2026-01-23 11:22:30.55	8.85	29.30	-34.9	-36.6	23.1	0.00e+00	0	39	0	2664431616	40	4610
2026-01-23 11:22:31.55	8.65	29.15	-34.8	-36.4	23.2	0.00e+00	0	39	0	2670723072	40	4528
2026-01-23 11:22:32.54	8.46	29.00	-34.8	-36.4	23.2	0.00e+00	0	39	0	2675965952	40	4526
2026-01-23 11:22:33.54	8.26	28.85	-34.8	-36.4	23.2	0.00e+00	0	39	0	2681208832	40	4540
2026-01-23 11:22:34.53	8.07	28.71	-34.6	-36.3	23.3	0.00e+00	0	39	0	2687500288	40	4473
2026-01-23 11:22:35.53	7.88	28.56	-34.7	-36.4	23.2	0.00e+00	0	39	0	2692743168	40	4506
2026-01-23 11:22:36.52	7.70	28.41	-34.5	-36.2	23.4	0.00e+00	0	39	0	2697986048	40	4415
2026-01-23 11:22:37.51	7.51	28.27	-34.4	-36.1	23.5	0.00e+00	0	39	0	2704277504	40	4358
2026-01-23 11:22:38.51	7.33	28.12	-34.5	-36.1	23.4	0.00e+00	0	39	0	2709520384	40	4384
2026-01-23 11:22:39.50	7.15	27.97	-34.5	-36.1	23.5	0.00e+00	0	39	0	2714763264	40	4382
2026-01-23 11:22:40.50	6.97	27.83	-34.5	-36.2	23.4	0.00e+00	0	39	0	2721054720	40	4402
2026-01-23 11:22:41.50	6.79	27.68	-34.6	-36.3	23.4	0.00e+00	0	39	0	2726297600	40	4445
2026-01-23 11:22:42.49	6.61	27.54	-34.7	-36.4	23.2	0.00e+00	0	39	0	2731540480	40	4497
2026-01-23 11:22:43.49	6.44	27.39	-34.8	-36.4	23.2	0.00e+00	0	39	0	2737831936	40	4532
2026-01-23 11:22:44.49	6.26	27.25	-34.9	-36.5	23.1	0.00e+00	0	39	0	2743074816	40	4579
2026-01-23 11:22:45.48	6.09	27.11	-34.8	-36.5	23.1	0.00e+00	0	39	0	2748317696	40	4578
2026-01-23 11:22:46.47	5.92	26.96	-34.9	-36.5	23.1	0.00e+00	0	39	0	2754609152	40	4587
2026-01-23 11:22:47.47	5.75	26.82	-34.8	-36.5	23.1	0.00e+00	0	39	0	2759852032	40	4574
2026-01-23 11:22:48.46	5.58	26.68	-34.9	-36.5	23.1	0.00e+00	0	39	0	2765094912	40	4598
2026-01-23 11:22:49.46	5.42	26.54	-34.8	-36.5	23.2	0.00e+00	0	39	0	2771386368	40	4551
2026-01-23 11:22:50.45	5.25	26.40	-34.7	-36.4	23.2	0.00e+00	0	39	0	2776629248	40	4504
2026-01-23 11:22:51.45	5.09	26.26	-34.8	-36.4	23.2	0.00e+00	0	39	0	2781872128	40	4535
2026-01-23 11:22:52.44	4.93	26.12	-34.6	-36.3	23.3	0.00e+00	0	39	0	2788163584	40	4446
2026-01-23 11:22:53.43	4.77	25.98	-34.6	-36.2	23.4	0.00e+00	0	39	0	2793406464	40	4436
2026-01-23 11:22:54.43	4.61	25.84	-34.6	-36.2	23.3	0.00e+00	0	39	0	2798649344	40	4430
2026-01-23 11:22:55.42	4.45	25.70	-34.6	-36.3	23.3	0.00e+00	0	39	0	2804940800	40	4456
2026-01-23 11:22:56.42	4.30	25.56	-34.7	-36.4	23.3	0.00e+00	0	39	0	2810183680	40	4499
2026-01-23 11:22:57.41	4.14	25.43	-34.7	-36.4	23.2	0.00e+00	0	39	0	2815426560	40	4496
2026-01-23 11:22:58.41	3.99	25.29	-34.8	-36.5	23.2	0.00e+00	0	39	0	2821718016	40	4553
2026-01-23 11:22:59.40	3.84	25.15	-34.7	-36.3	23.3	0.00e+00	0	39	0	2826960896	40	4482
2026-01-23 11:23:00.39	3.69	25.02	-34.7	-36.3	23.3	0.00e+00	0	39	0	2832203776	40	4471
2026-01-23 11:23:01.39	3.54	24.88	-34.6	-36.3	23.3	0.00e+00	0	39	0	2838495232	40	4461
2026-01-23 11:23:02.38	3.39	24.75	-34.7	-36.3	23.3	0.00e+00	0	39	0	2843738112	40	4473
2026-01-23 11:23:03.38	3.25	24.61	-34.7	-36.3	23.3	0.00e+00	0	39	0	2848980992	40	4474
2026-01-23 11:23:04.37	3.10	24.48	-34.6	-36.3	23.3	0.00e+00	0	39	0	2855272448	40	4465
2026-01-23 11:23:05.37	2.96	24.34	-34.7	-36.4	23.2	0.00e+00	0	39	0	2860515328	40	4495
2026-01-23 11:23:06.36	2.82	24.21	-34.8	-36.5	23.2	0.00e+00	0	39	0	2865758208	40	4547
2026-01-23 11:23:07.35	2.68	24.08	-34.9	-36.6	23.0	0.00e+00	0	39	0	2872049664	40	4615
2026-01-23 11:23:08.35	2.53	23.95	-34.8	-36.5	23.1	0.00e+00	0	39	0	2877292544	40	4580
2026-01-23 11:23:09.34	2.40	23.82	-34.9	-36.5	23.0	0.00e+00	0	39	0	2882535424	40	4598
2026-01-23 11:23:10.34	2.26	23.68	-34.9	-36.5	23.1	0.00e+00	0	39	0	2888826880	40	4591
2026-01-23 11:23:11.34	2.12	23.55	-34.8	-36.5	23.1	0.00e+00	0	39	0	2894069760	40	4577
2026-01-23 11:23:12.33	1.99	23.42	-34.9	-36.6	23.0	0.00e+00	0	39	0	2899312640	40	4600
2026-01-23 11:23:13.33	1.85	23.29	-34.8	-36.5	23.1	0.00e+00	0	39	0	2905604096	40	4572
2026-01-23 11:23:14.32	1.72	23.16	-34.9	-36.5	23.1	0.00e+00	0	39	0	2910846976	40	4587
2026-01-23 11:23:15.32	1.59	23.03	-34.9	-36.5	23.0	0.00e+00	0	39	0	2916089856	40	4596
2026-01-23 11:23:16.31	1.46	22.91	-34.9	-36.5	23.1	0.00e+00	0	39	0	2922381312	40	4593
2026-01-23 11:23:17.30	1.33	22.78	-35.0	-36.7	22.9	0.00e+00	0	39	0	2927624192	40	4658
2026-01-23 11:23:18.30	1.20	22.65	-35.0	-36.7	22.9	0.00e+00	0	39	0	2932867072	40	4657
2026-01-23 11:23:19.29	1.07	22.52	-35.1	-36.8	22.8	0.00e+00	0	39	0	2939158528	40	4732
2026-01-23 11:23:20.29	0.94	22.40	-35.2	-36.9	22.8	0.00e+00	0	39	0	2944401408	40	4764
2026-01-23 11:23:21.28	0.82	22.27	-35.2	-36.9	22.8	0.00e+00	0	39	0	2949644288	40	4761
2026-01-23 11:23:22.28	0.69	22.15	-35.2	-36.9	22.7	0.00e+00	0	39	0	2955935744	41	4517
2026-01-23 11:23:23.27	0.57	22.02	-35.3	-37.0	22.7	0.00e+00	0	39	0	2961178624	41	4550
2026-01-23 11:23:24.27	0.45	21.90	-35.2	-36.9	22.7	0.00e+00	0	39	0	2966421504	41	4521
2026-01-23 11:23:25.26	0.33	21.77	-35.3	-37.0	22.7	0.00e+00	0	39	0	2972712960	41	4547
2026-01-23 11:23:26.25	0.21	21.65	-35.2	-36.8	22.8	0.00e+00	0	39	0	2977955840	41	4482
2026-01-23 11:23:27.25	0.09	21.53	-35.2	-36.9	22.8	0.00e+00	0	39	0	2983198720	41	4509
2026-01-23 11:23:28.24	359.97	21.40	-35.2	-36.9	22.8	0.00e+00	0	39	0	2989490176	41	4498
2026-01-23 11:23:29.24	359.85	21.28	-35.1	-36.8	22.8	0.00e+00	0	39	0	2994733056	41	4465
2026-01-23 11:23:30.23	359.73	21.16	-35.2	-36.9	22.7	0.00e+00	0	39	0	2999975936	41	4512
2026-01-23 11:23:31.22	359.62	21.04	-35.1	-36.8	22.8	0.00e+00	0	39	0	3006267392	41	4479
2026-01-23 11:23:32.22	359.50	20.92	-35.2	-36.9	22.7	0.00e+00	0	39	0	3011510272	41	4494
2026-01-23 11:23:33.22	359.39	20.80	-35.1	-36.8	22.8	0.00e+00	0	39	0	3016753152	41	4463
2026-01-23 11:23:34.21	359.28	20.68	-35.2	-36.9	22.7	0.00e+00	0	39	0	3023044608	41	4512
2026-01-23 11:23:35.20	359.17	20.56	-35.2	-36.9	22.7	0.00e+00	0	39	0	3028287488	41	4534
2026-01-23 11:23:36.20	359.05	20.44	-35.2	-36.9	22.7	0.00e+00	0	39	0	3033530368	41	4539
2026-01-23 11:23:37.19	358.94	20.32	-35.3	-37.0	22.6	0.00e+00	0	39	0	3039821824	41	4583
2026-01-23 11:23:38.19	358.83	20.20	-35.4	-37.1	22.5	0.00e+00	0	39	0	3045064704	41	4645
2026-01-23 11:23:39.18	358.73	20.09	-35.5	-37.2	22.5	0.00e+00	0	39	0	3050307584	41	4658
2026-01-23 11:23:40.18	358.62	19.97	-35.5	-37.2	22.5	0.00e+00	0	39	0	3056599040	41	4656
2026-01-23 11:23:41.18	358.51	19.85	-35.6	-37.3	22.4	0.00e+00	0	39	0	3061841920	41	4714
2026-01-23 11:23:42.17	358.40	19.73	-35.6	-37.3	22.3	0.00e+00	0	39	0	3067084800	41	4746
2026-01-23 11:23:43.16	358.30	19.62	-35.7	-37.4	22.2	0.00e+00	0	39	0	3073376256	42	4540
2026-01-23 11:23:44.16	358.20	19.50	-35.8	-37.5	22.2	0.00e+00	0	39	0	3078619136	42	4580
2026-01-23 11:23:45.16	358.09	19.39	-35.9	-37.6	22.1	0.00e+00	0	39	0	3084910592	42	4640
2026-01-23 11:23:46.15	357.99	19.27	-36.0	-37.7	22.0	0.00e+00	0	39	0	3090153472	42	4691
2026-01-23 11:23:47.14	357.89	19.16	-36.0	-37.8	21.9	0.00e+00	0	39	0	3095396352	42	4715
2026-01-23 11:23:48.14	357.79	19.05	-36.1	-37.9	21.9	0.00e+00	0	39	0	3101687808	42	4760
2026-01-23 11:23:49.13	357.69	18.93	-36.1	-37.9	21.9	0.00e+00	0	39	0	3106930688	42	4765
2026-01-23 11:23:50.13	357.59	18.82	-36.1	-37.9	21.8	0.00e+00	0	39	0	3112173568	42	4814
2026-01-23 11:23:51.12	357.49	18.71	-36.1	-37.9	21.9	0.00e+00	0	39	0	3117416448	43	4501
2026-01-23 11:23:52.11	357.39	18.60	-36.0	-37.9	21.9	0.00e+00	0	39	0	3123707904	43	4500
2026-01-23 11:23:53.11	357.29	18.48	-36.0	-37.7	21.9	0.00e+00	0	39	0	3128950784	43	4433
2026-01-23 11:23:54.11	357.20	18.37	-36.0	-37.7	21.9	0.00e+00	0	39	0	3135242240	43	4440
2026-01-23 11:23:55.11	357.10	18.26	-35.9	-37.7	22.0	0.00e+00	0	39	0	3140485120	43	4411
2026-01-23 11:23:56.10	357.00	18.15	-36.0	-37.7	21.9	0.00e+00	0	39	0	3145728000	43	4430
2026-01-23 11:23:57.10	356.91	18.04	-36.0	-37.7	22.0	0.00e+00	0	39	0	3152019456	43	4419
2026-01-23 11:23:58.09	356.82	17.93	-36.1	-37.8	21.9	0.00e+00	0	39	0	3157262336	43	4468
2026-01-23 11:23:59.09	356.72	17.82	-36.1	-37.9	21.8	0.00e+00	0	39	0	3162505216	43	4494
2026-01-23 11:24:00.08	356.63	17.71	-36.1	-37.9	21.8	0.00e+00	0	39	0	3167748096	43	4498
2026-01-23 11:24:01.07	356.54	17.61	-36.2	-38.0	21.7	0.00e+00	0	39	0	3174039552	43	4549
2026-01-23 11:24:02.07	356.45	17.50	-36.2	-38.0	21.7	0.00e+00	0	39	0	3179282432	43	4547
2026-01-23 11:24:03.06	356.36	17.39	-36.3	-38.1	21.6	0.00e+00	0	39	0	3185573888	43	4618
2026-01-23 11:24:04.06	356.27	17.28	-36.4	-38.2	21.5	0.00e+00	0	39	0	3190816768	43	4660
2026-01-23 11:24:05.05	356.18	17.18	-36.3	-38.1	21.6	0.00e+00	0	39	0	3196059648	43	4629
2026-01-23 11:24:06.05	356.09	17.07	-36.3	-38.1	21.6	0.00e+00	0	39	0	3202351104	43	4601
2026-01-23 11:24:07.04	356.00	16.96	-36.3	-38.0	21.7	0.00e+00	0	39	0	3207593984	43	4579
2026-01-23 11:24:08.04	355.92	16.86	-36.3	-38.1	21.6	0.00e+00	0	39	0	3212836864	43	4601
2026-01-23 11:24:09.03	355.83	16.75	-36.3	-38.1	21.6	0.00e+00	0	39	0	3218079744	43	4604
2026-01-23 11:24:10.03	355.75	16.65	-36.4	-38.1	21.6	0.00e+00	0	39	0	3224371200	43	4636
2026-01-23 11:24:11.02	355.66	16.54	-36.4	-38.1	21.6	0.00e+00	0	39	0	3229614080	43	4627
2026-01-23 11:24:12.02	355.58	16.44	-36.4	-38.2	21.5	0.00e+00	0	39	0	3235905536	43	4663
2026-01-23 11:24:13.01	355.49	16.34	-36.5	-38.3	21.4	0.00e+00	0	39	0	3241148416	43	4708
2026-01-23 11:24:14.00	355.41	16.23	-36.6	-38.3	21.4	0.00e+00	0	39	0	3246391296	43	4751
2026-01-23 11:24:15.00	355.33	16.13	-36.6	-38.4	21.3	0.00e+00	0	39	0	3252682752	43	4766
2026-01-23 11:24:15.99	355.24	16.03	-36.9	-38.7	21.2	0.00e+00	0	39	0	3257925632	44	4688
2026-01-23 11:24:16.99	355.16	15.93	-37.0	-38.8	21.1	0.00e+00	0	39	0	3263168512	44	4729
2026-01-23 11:24:17.98	355.08	15.82	-37.0	-38.8	21.1	0.00e+00	0	39	0	3268411392	44	4753
2026-01-23 11:24:18.98	355.00	15.72	-37.2	-39.0	20.9	0.00e+00	0	39	0	3274702848	44	4861
2026-01-23 11:24:19.97	354.92	15.62	-37.1	-39.0	20.9	0.00e+00	0	39	0	3279945728	45	4571
2026-01-23 11:24:20.97	354.84	15.52	-37.2	-39.0	20.9	0.00e+00	0	39	0	3286237184	45	4581
2026-01-23 11:24:21.96	354.76	15.42	-37.3	-39.1	20.8	0.00e+00	0	39	0	3291480064	45	4641
2026-01-23 11:24:22.96	354.69	15.32	-37.3	-39.2	20.8	0.00e+00	0	39	0	3296722944	45	4657
2026-01-23 11:24:23.95	354.61	15.22	-37.4	-39.3	20.6	0.00e+00	0	39	0	3303014400	45	4722
2026-01-23 11:24:24.95	354.53	15.12	-37.4	-39.3	20.6	0.00e+00	0	39	0	3308257280	45	4721
2026-01-23 11:24:25.94	354.45	15.02	-37.4	-39.2	20.6	0.00e+00	0	39	0	3313500160	45	4702
2026-01-23 11:24:26.94	354.38	14.92	-37.3	-39.2	20.7	0.00e+00	0	39	0	3319791616	45	4682
2026-01-23 11:24:27.93	354.30	14.83	-37.3	-39.2	20.6	0.00e+00	0	39	0	3325034496	45	4691
2026-01-23 11:24:28.93	354.23	14.73	-37.3	-39.1	20.7	0.00e+00	0	39	0	3330277376	45	4647
2026-01-23 11:24:29.92	354.15	14.63	-37.2	-39.1	20.7	0.00e+00	0	39	0	3336568832	45	4624
2026-01-23 11:24:30.92	354.08	14.53	-37.2	-39.1	20.8	0.00e+00	0	39	0	3341811712	45	4618
2026-01-23 11:24:31.91	354.01	14.44	-37.3	-39.1	20.7	0.00e+00	0	39	0	3347054592	45	4647
2026-01-23 11:24:32.91	353.93	14.34	-37.2	-39.1	20.8	0.00e+00	0	39	0	3353346048	45	4609
2026-01-23 11:24:33.90	353.86	14.24	-37.2	-39.0	20.8	0.00e+00	0	39	0	3358588928	45	4589
2026-01-23 11:24:34.90	353.79	14.15	-37.2	-39.0	20.8	0.00e+00	0	39	0	3363831808	45	4589
2026-01-23 11:24:35.89	353.72	14.05	-37.2	-39.0	20.8	0.00e+00	0	39	0	3370123264	45	4581
2026-01-23 11:24:36.89	353.65	13.96	-37.2	-39.0	20.8	0.00e+00	0	39	0	3375366144	45	4586
2026-01-23 11:24:37.88	353.58	13.86	-37.2	-39.0	20.8	0.00e+00	0	39	0	3380609024	45	4587
2026-01-23 11:24:38.88	353.51	13.77	-37.2	-39.0	20.9	0.00e+00	0	39	0	3386900480	45	4556
2026-01-23 11:24:39.87	353.44	13.67	-37.2	-39.0	20.8	0.00e+00	0	39	0	3392143360	45	4567
2026-01-23 11:24:40.87	353.37	13.58	-37.2	-39.0	20.8	0.00e+00	0	39	0	3397386240	45	4593
2026-01-23 11:24:41.86	353.30	13.48	-37.2	-39.0	20.8	0.00e+00	0	39	0	3403677696	45	4589
2026-01-23 11:24:42.86	353.23	13.39	-37.3	-39.1	20.7	0.00e+00	0	39	0	3408920576	45	4634
2026-01-23 11:24:43.85	353.16	13.30	-37.3	-39.1	20.7	0.00e+00	0	39	0	3414163456	45	4642
2026-01-23 11:24:44.85	353.10	13.21	-37.3	-39.2	20.6	0.00e+00	0	39	0	3420454912	45	4679
2026-01-23 11:24:45.85	353.03	13.11	-37.4	-39.3	20.5	0.00e+00	0	39	0	3425697792	45	4742
2026-01-23 11:24:46.84	352.96	13.02	-37.3	-39.3	20.5	0.00e+00	0	39	0	3430940672	45	4753
2026-01-23 11:24:47.83	352.90	12.93	-37.3	-39.3	20.5	0.00e+00	0	39	0	3437232128	45	4734
2026-01-23 11:24:48.83	352.83	12.84	-37.3	-39.4	20.5	0.00e+00	0	39	0	3442475008	45	4769
2026-01-23 11:24:49.83	352.77	12.75	-37.5	-39.5	20.3	0.00e+00	0	39	0	3447717888	45	4863
2026-01-23 11:24:50.82	352.70	12.66	-37.5	-39.6	20.2	0.00e+00	0	39	0	3454009344	45	4896
2026-01-23 11:24:51.82	352.64	12.56	-37.6	-39.6	20.2	0.00e+00	0	39	0	3459252224	45	4920
2026-01-23 11:24:52.81	352.57	12.48	-37.5	-39.6	20.2	0.00e+00	0	39	0	3464495104	45	4908
2026-01-23 11:24:53.80	352.51	12.39	-37.6	-39.7	20.2	0.00e+00	0	39	0	3470786560	45	4927
2026-01-23 11:24:54.80	352.45	12.30	-37.6	-39.6	20.2	0.00e+00	0	39	0	3476029440	45	4918
2026-01-23 11:24:55.79	352.38	12.21	-37.7	-39.7	20.1	0.00e+00	0	39	0	3481272320	46	4694
2026-01-23 11:24:56.79	352.32	12.12	-37.7	-39.7	20.1	0.00e+00	0	39	0	3487563776	46	4682
2026-01-23 11:24:57.78	352.26	12.03	-37.7	-39.7	20.1	0.00e+00	0	39	0	3492806656	46	4705
2026-01-23 11:24:58.77	352.20	11.94	-37.8	-39.8	20.1	0.00e+00	0	39	0	3498049536	46	4738
2026-01-23 11:24:59.77	352.14	11.85	-37.8	-39.8	20.0	0.00e+00	0	39	0	3504340992	46	4746
2026-01-23 11:25:00.76	352.08	11.76	-37.8	-39.8	20.0	0.00e+00	0	39	0	3509583872	46	4742
2026-01-23 11:25:01.76	352.02	11.68	-37.8	-39.8	20.0	0.00e+00	0	39	0	3514826752	46	4759
2026-01-23 11:25:02.75	351.96	11.59	-37.8	-39.9	20.0	0.00e+00	0	39	0	3521118208	46	4782
2026-01-23 11:25:03.75	351.90	11.50	-37.8	-40.0	19.9	0.00e+00	0	39	0	3526361088	46	4817
2026-01-23 11:25:04.74	351.84	11.42	-37.8	-40.0	19.8	0.00e+00	0	39	0	3531603968	46	4870
2026-01-23 11:25:05.73	351.78	11.33	-37.7	-39.9	19.9	0.00e+00	0	39	0	3537895424	46	4800
2026-01-23 11:25:06.73	351.72	11.24	-37.7	-40.0	19.9	0.00e+00	0	39	0	3543138304	46	4839
2026-01-23 11:25:07.72	351.66	11.16	-37.6	-40.0	19.8	0.00e+00	0	39	0	3548381184	46	4850
2026-01-23 11:25:08.72	351.61	11.07	-37.6	-40.0	19.8	0.00e+00	0	39	0	3554672640	46	4856
2026-01-23 11:25:09.72	351.55	10.99	-37.7	-40.1	19.7	0.00e+00	0	39	0	3559915520	46	4884
2026-01-23 11:25:10.71	351.49	10.90	-37.6	-40.0	19.8	0.00e+00	0	39	0	3565158400	46	4856
2026-01-23 11:25:11.70	351.44	10.82	-37.6	-40.0	19.8	0.00e+00	0	39	0	3571449856	46	4863
2026-01-23 11:25:12.70	351.38	10.73	-37.4	-40.0	19.8	0.00e+00	0	39	0	3576692736	46	4835
2026-01-23 11:25:13.69	351.32	10.65	-37.5	-40.1	19.7	0.00e+00	0	39	0	3582984192	46	4899
2026-01-23 11:25:14.69	351.27	10.56	-37.4	-40.0	19.8	0.00e+00	0	39	0	3588227072	46	4829
2026-01-23 11:25:15.68	351.21	10.48	-37.4	-39.9	19.9	0.00e+00	0	39	0	3593469952	46	4802
2026-01-23 11:25:16.68	351.16	10.40	-37.5	-39.9	19.9	0.00e+00	0	39	0	3598712832	46	4774
2026-01-23 11:25:17.67	351.10	10.31	-37.8	-40.1	19.7	0.00e+00	0	39	0	3605004288	46	4876
2026-01-23 11:25:18.67	351.05	10.23	-37.7	-40.0	19.8	0.00e+00	0	39	0	3610247168	46	4839
2026-01-23 11:25:19.66	351.00	10.15	-37.8	-40.0	19.8	0.00e+00	0	39	0	3615490048	46	4867
2026-01-23 11:25:20.66	350.94	10.06	-37.9	-40.1	19.7	0.00e+00	0	39	0	3621781504	46	4890
2026-01-23 11:25:21.65	350.89	9.98	-37.9	-40.1	19.7	0.00e+00	0	39	0	3627024384	46	4891
2026-01-23 11:25:22.64	350.84	9.90	-37.9	-40.0	19.7	0.00e+00	0	39	0	3633315840	46	4850
2026-01-23 11:25:23.64	350.78	9.82	-38.0	-40.1	19.6	0.00e+00	0	39	0	3638558720	46	4915
