passes_logs/2026/01/23/T1/T1__20260123_062751_FENGYUN_3E_rec.log

#Pass ID: 20260123_062751_FENGYUN 3E
#Satellite: FENGYUN 3E
#Configuration: FENGYUN 3E
#almurnet v.1.7.20251203
#Start time: 2026-01-23 06:27:52

#Version: 2.0.20230620
#Station: T1
#Location: 37.570604 lon 55.790049 lat
#TLE: 1 49008U 21062A   26022.47529509  .00000460  00000+0  23724-3 0  9995
#TLE: 2 49008  98.7486  27.5157 0002334 123.7692 236.3707 14.19888297235908

#Time	Az	El	Level	Level2	SNR	BER	BlckErr	Temp	State	Recorded	gain1	gain2
2026-01-23 06:27:52.15	1.55	5.01	-48.5	-59.7	3.8	8.45e-01	0	35	0	0	67	13000
2026-01-23 06:27:53.14	1.44	5.06	-46.3	-59.4	3.8	8.47e-01	0	35	104	0	62	16842
2026-01-23 06:27:54.13	1.33	5.11	-46.3	-59.4	3.8	8.46e-01	0	35	104	0	62	16729
2026-01-23 06:27:55.12	1.22	5.15	-46.3	-59.4	3.8	8.48e-01	0	35	104	0	62	16725
2026-01-23 06:27:56.12	1.10	5.20	-46.3	-59.4	3.8	8.48e-01	0	35	104	0	62	16795
2026-01-23 06:27:57.11	0.99	5.25	-46.3	-59.4	3.8	8.47e-01	0	35	104	0	62	16790
2026-01-23 06:27:58.10	0.87	5.29	-46.2	-59.4	3.8	8.47e-01	0	35	104	0	62	16708
2026-01-23 06:27:59.10	0.76	5.34	-46.2	-59.4	3.8	8.46e-01	0	36	104	0	62	16762
2026-01-23 06:28:00.09	0.64	5.39	-46.2	-59.3	3.8	8.47e-01	0	36	104	0	62	16658
2026-01-23 06:28:01.08	0.53	5.43	-46.3	-59.4	3.8	8.46e-01	0	36	104	0	62	16803
2026-01-23 06:28:02.07	0.41	5.48	-46.2	-59.4	3.8	8.46e-01	0	36	104	0	62	16712
2026-01-23 06:28:03.07	0.30	5.53	-46.3	-59.3	3.8	8.47e-01	0	36	104	0	62	16558
2026-01-23 06:28:04.06	0.18	5.57	-46.3	-59.4	3.8	8.47e-01	0	36	104	0	62	16701
2026-01-23 06:28:05.05	0.06	5.62	-46.2	-59.3	3.8	8.46e-01	0	36	104	0	62	16655
2026-01-23 06:28:06.05	359.94	5.67	-46.2	-59.3	3.8	8.46e-01	0	36	104	0	62	16664
2026-01-23 06:28:07.04	359.83	5.71	-46.2	-59.3	3.8	8.47e-01	0	36	104	0	62	16622
2026-01-23 06:28:08.03	359.71	5.76	-46.2	-59.4	3.8	8.46e-01	0	36	104	0	62	16741
2026-01-23 06:28:09.03	359.59	5.81	-46.2	-59.3	3.8	8.46e-01	0	36	104	0	62	16679
2026-01-23 06:28:10.02	359.47	5.85	-46.2	-59.3	3.8	8.47e-01	0	36	104	0	62	16677
2026-01-23 06:28:11.01	359.35	5.90	-46.2	-59.3	3.8	8.46e-01	0	36	104	0	62	16642
2026-01-23 06:28:12.01	359.23	5.95	-46.2	-59.3	3.8	8.46e-01	0	36	104	0	62	16621
2026-01-23 06:28:13.00	359.11	5.99	-46.2	-59.4	3.8	8.46e-01	0	36	104	0	62	16727
2026-01-23 06:28:13.99	358.99	6.04	-46.2	-59.3	3.8	8.46e-01	0	36	104	0	62	16675
2026-01-23 06:28:14.98	358.87	6.08	-46.2	-59.3	3.8	8.47e-01	0	36	104	0	62	16611
2026-01-23 06:28:15.98	358.75	6.13	-46.2	-59.3	3.8	8.46e-01	0	36	104	0	62	16676
2026-01-23 06:28:16.97	358.63	6.18	-46.2	-59.3	3.8	8.47e-01	0	36	104	0	62	16667
2026-01-23 06:28:17.96	358.51	6.22	-46.2	-59.4	3.8	8.47e-01	0	36	104	0	62	16744
2026-01-23 06:28:18.96	358.38	6.27	-46.2	-59.3	3.8	8.48e-01	0	36	104	0	62	16576
2026-01-23 06:28:19.95	358.26	6.31	-46.2	-59.3	3.8	8.47e-01	0	36	104	0	62	16686
2026-01-23 06:28:20.94	358.14	6.36	-46.2	-59.4	3.8	8.46e-01	0	36	104	0	62	16704
2026-01-23 06:28:21.94	358.01	6.41	-46.2	-59.3	3.8	8.46e-01	0	36	104	0	62	16676
2026-01-23 06:28:22.93	357.89	6.45	-46.2	-59.3	3.8	8.47e-01	0	36	104	0	62	16654
2026-01-23 06:28:23.92	357.76	6.50	-46.2	-59.3	3.8	8.47e-01	0	36	104	0	62	16576
2026-01-23 06:28:24.92	357.64	6.54	-46.2	-59.3	3.8	8.46e-01	0	36	104	0	62	16561
2026-01-23 06:28:25.91	357.51	6.59	-46.2	-59.4	3.8	8.46e-01	0	37	104	0	62	16763
2026-01-23 06:28:26.90	357.39	6.64	-46.2	-59.3	3.8	8.48e-01	0	36	104	0	62	16589
2026-01-23 06:28:27.90	357.26	6.68	-46.2	-59.3	3.8	8.48e-01	0	36	104	0	62	16583
2026-01-23 06:28:28.89	357.13	6.73	-46.2	-59.3	3.8	8.46e-01	0	36	104	0	62	16614
2026-01-23 06:28:29.88	357.01	6.77	-46.2	-59.3	3.8	8.47e-01	0	36	104	0	62	16586
2026-01-23 06:28:30.88	356.88	6.82	-46.2	-59.3	3.8	8.47e-01	0	37	104	0	62	16592
2026-01-23 06:28:31.87	356.75	6.86	-46.2	-59.2	3.8	8.47e-01	0	36	104	0	62	16355
2026-01-23 06:28:32.86	356.62	6.91	-46.2	-59.3	3.8	8.47e-01	0	37	104	0	62	16507
2026-01-23 06:28:33.86	356.50	6.95	-46.2	-59.2	3.8	8.48e-01	0	37	104	0	62	16476
2026-01-23 06:28:34.85	356.37	7.00	-46.2	-59.3	3.8	8.47e-01	0	37	104	0	62	16548
2026-01-23 06:28:35.84	356.24	7.04	-46.2	-59.3	3.8	8.47e-01	0	37	104	0	62	16660
2026-01-23 06:28:36.84	356.11	7.09	-46.2	-59.4	3.8	8.48e-01	0	37	104	0	62	16702
2026-01-23 06:28:37.83	355.98	7.13	-46.2	-59.3	3.8	8.47e-01	0	36	104	0	62	16598
2026-01-23 06:28:38.82	355.85	7.18	-46.2	-59.3	3.8	8.47e-01	0	37	104	0	62	16670
2026-01-23 06:28:39.81	355.72	7.22	-46.2	-59.3	3.8	8.46e-01	0	37	104	0	62	16636
2026-01-23 06:28:40.81	355.58	7.27	-46.2	-59.3	3.8	8.46e-01	0	37	104	0	62	16580
2026-01-23 06:28:41.80	355.45	7.31	-46.2	-59.3	3.8	8.48e-01	0	37	104	0	62	16564
2026-01-23 06:28:42.80	355.32	7.36	-46.2	-59.2	3.8	8.47e-01	0	37	104	0	62	16446
2026-01-23 06:28:43.79	355.19	7.40	-46.2	-59.2	3.8	8.47e-01	0	37	104	0	62	16481
2026-01-23 06:28:44.78	355.05	7.45	-46.2	-59.3	3.8	8.47e-01	0	37	104	0	62	16519
2026-01-23 06:28:45.78	354.92	7.49	-46.2	-59.3	3.8	8.46e-01	0	37	104	0	62	16517
2026-01-23 06:28:46.77	354.79	7.54	-46.2	-59.2	3.8	8.46e-01	0	37	104	0	62	16472
2026-01-23 06:28:47.76	354.65	7.58	-46.2	-59.2	3.8	8.48e-01	0	37	104	0	62	16493
2026-01-23 06:28:48.75	354.52	7.63	-46.2	-59.3	3.8	8.47e-01	0	37	104	0	62	16666
2026-01-23 06:28:49.75	354.38	7.67	-46.3	-59.3	3.8	8.47e-01	0	37	104	0	62	16574
2026-01-23 06:28:50.74	354.25	7.72	-46.2	-59.3	3.8	8.46e-01	0	37	104	0	62	16586
2026-01-23 06:28:51.74	354.11	7.76	-46.2	-59.4	3.8	8.47e-01	0	37	104	0	62	16711
2026-01-23 06:28:52.73	353.97	7.80	-46.2	-59.3	3.8	8.46e-01	0	37	104	0	62	16671
2026-01-23 06:28:53.72	353.84	7.85	-46.2	-59.3	3.8	8.48e-01	0	37	104	0	62	16575
2026-01-23 06:28:54.72	353.70	7.89	-46.2	-59.2	3.8	8.47e-01	0	37	104	0	62	16463
2026-01-23 06:28:55.71	353.56	7.94	-46.2	-59.1	3.8	8.47e-01	0	37	104	0	62	16312
2026-01-23 06:28:56.71	353.42	7.98	-46.2	-59.1	3.8	8.47e-01	0	37	104	0	62	16294
2026-01-23 06:28:57.70	353.28	8.02	-46.2	-59.1	3.8	8.48e-01	0	37	104	0	62	16308
2026-01-23 06:28:58.69	353.14	8.07	-46.2	-59.3	3.8	8.46e-01	0	37	104	0	62	16518
2026-01-23 06:28:59.69	353.00	8.11	-46.2	-59.3	3.8	8.46e-01	0	37	104	0	62	16613
2026-01-23 06:29:00.68	352.86	8.15	-46.2	-59.3	3.8	8.47e-01	0	37	104	0	62	16609
2026-01-23 06:29:01.67	352.72	8.20	-46.2	-59.3	3.8	8.47e-01	0	37	104	0	62	16674
2026-01-23 06:29:02.67	352.58	8.24	-46.2	-59.4	3.8	8.46e-01	0	37	104	0	62	16699
2026-01-23 06:29:03.66	352.44	8.28	-46.2	-59.3	3.8	8.48e-01	0	37	104	0	62	16518
2026-01-23 06:29:04.65	352.30	8.33	-46.2	-59.0	3.8	8.47e-01	0	37	104	0	62	16047
2026-01-23 06:29:05.65	352.16	8.37	-46.1	-58.6	3.8	8.48e-01	0	37	104	0	62	15257
2026-01-23 06:29:06.64	352.01	8.41	-46.1	-57.9	3.8	8.47e-01	0	37	104	0	62	14149
2026-01-23 06:29:07.63	351.87	8.45	-46.0	-57.3	3.8	8.46e-01	0	37	104	0	62	13161
2026-01-23 06:29:08.63	351.73	8.50	-46.0	-56.7	4.0	8.43e-01	0	37	104	0	62	12372
2026-01-23 06:29:09.62	351.58	8.54	-46.0	-56.4	4.1	8.45e-01	0	37	104	0	62	11920
2026-01-23 06:29:10.61	351.44	8.58	-45.9	-56.1	4.1	8.40e-01	0	37	0	0	62	11449
2026-01-23 06:29:11.61	351.29	8.62	-45.9	-55.7	4.2	8.38e-01	0	37	0	0	62	10917
2026-01-23 06:29:12.60	351.15	8.67	-45.8	-55.1	4.4	8.30e-01	0	37	0	0	62	10256
2026-01-23 06:29:13.59	351.00	8.71	-45.7	-54.5	4.7	8.14e-01	0	37	0	0	62	9546
2026-01-23 06:29:14.59	350.86	8.75	-45.6	-53.9	5.0	7.88e-01	0	37	0	0	62	8945
2026-01-23 06:29:15.58	350.71	8.79	-45.4	-53.0	5.5	7.12e-01	0	38	0	0	61	8512
2026-01-23 06:29:16.57	350.57	8.83	-45.1	-51.6	6.6	2.68e-01	0	38	0	5242880	61	7254
2026-01-23 06:29:17.57	350.42	8.88	-44.6	-49.6	8.4	7.63e-02	0	37	0	12582912	59	6425
2026-01-23 06:29:18.56	350.27	8.92	-43.6	-47.3	10.8	4.24e-03	0	37	0	19922944	58	5225
2026-01-23 06:29:19.55	350.12	8.96	-42.1	-44.7	13.3	7.66e-05	0	38	0	26214400	55	4639
2026-01-23 06:29:20.55	349.97	9.00	-40.8	-42.9	15.2	0.00e+00	0	37	0	33554432	52	4457
2026-01-23 06:29:21.54	349.82	9.04	-40.4	-42.3	16.0	0.00e+00	0	38	0	40894464	50	4653
2026-01-23 06:29:22.53	349.67	9.08	-41.9	-44.4	13.7	0.00e+00	0	37	0	48234496	53	5017
2026-01-23 06:29:23.53	349.52	9.12	-40.1	-41.8	16.3	0.00e+00	0	37	0	55574528	51	4191
2026-01-23 06:29:24.52	349.37	9.17	-40.2	-42.1	16.2	0.00e+00	0	37	0	62914560	49	4819
2026-01-23 06:29:25.52	349.22	9.21	-38.2	-39.7	18.2	1.05e-04	0	38	0	69206016	47	4103
2026-01-23 06:29:26.51	349.07	9.25	-37.7	-39.0	18.9	0.00e+00	0	37	0	76546048	46	4043
2026-01-23 06:29:27.51	348.92	9.29	-37.7	-39.1	18.9	0.00e+00	0	38	0	83886080	45	4303
2026-01-23 06:29:28.51	348.77	9.33	-37.6	-39.0	18.9	0.00e+00	0	38	0	91226112	45	4257
2026-01-23 06:29:29.50	348.61	9.37	-37.6	-38.9	19.0	0.00e+00	0	37	0	98566144	45	4225
2026-01-23 06:29:30.50	348.46	9.41	-37.6	-39.0	18.9	0.00e+00	0	38	0	105906176	45	4279
2026-01-23 06:29:31.50	348.31	9.45	-37.6	-39.0	18.9	0.00e+00	0	38	0	112197632	45	4289
2026-01-23 06:29:32.49	348.15	9.49	-37.5	-38.9	19.0	0.00e+00	0	38	0	119537664	45	4235
2026-01-23 06:29:33.49	348.00	9.53	-37.5	-38.9	19.0	0.00e+00	0	37	0	126877696	45	4237
2026-01-23 06:29:34.48	347.84	9.57	-37.5	-39.0	19.0	0.00e+00	0	38	0	134217728	45	4256
2026-01-23 06:29:35.48	347.69	9.61	-37.4	-39.0	19.0	0.00e+00	0	37	0	141557760	45	4254
2026-01-23 06:29:36.47	347.53	9.65	-37.5	-39.1	18.9	0.00e+00	0	38	0	148897792	45	4310
2026-01-23 06:29:37.47	347.37	9.69	-37.4	-39.0	19.0	0.00e+00	0	37	0	156237824	45	4267
2026-01-23 06:29:38.46	347.22	9.73	-37.4	-39.0	18.9	0.00e+00	0	38	0	163577856	45	4284
2026-01-23 06:29:39.46	347.06	9.76	-37.3	-38.9	19.0	0.00e+00	0	37	0	169869312	45	4233
2026-01-23 06:29:40.45	346.90	9.80	-37.4	-39.0	18.9	0.00e+00	0	38	0	177209344	45	4272
2026-01-23 06:29:41.44	346.75	9.84	-37.3	-38.9	19.1	0.00e+00	0	38	0	184549376	45	4205
2026-01-23 06:29:42.44	346.59	9.88	-37.3	-38.8	19.1	0.00e+00	0	38	0	191889408	45	4191
2026-01-23 06:29:43.43	346.43	9.92	-37.3	-38.9	19.1	0.00e+00	0	38	0	199229440	45	4215
2026-01-23 06:29:44.43	346.27	9.96	-37.2	-38.8	19.1	0.00e+00	0	38	0	206569472	45	4169
2026-01-23 06:29:45.42	346.11	10.00	-37.1	-38.7	19.3	0.00e+00	0	38	0	212860928	45	4119
2026-01-23 06:29:46.48	345.94	10.04	-37.2	-38.7	19.2	0.00e+00	0	37	0	221249536	45	4141
2026-01-23 06:29:47.35	345.80	10.07	-37.2	-38.8	19.2	0.00e+00	0	37	0	227540992	45	4146
2026-01-23 06:29:48.49	345.61	10.11	-37.3	-38.7	19.2	0.00e+00	0	37	0	234881024	45	4144
2026-01-23 06:29:49.34	345.48	10.14	-37.3	-38.8	19.2	0.00e+00	0	38	0	241172480	45	4172
2026-01-23 06:29:50.48	345.29	10.19	-37.2	-38.6	19.3	0.00e+00	0	38	0	249561088	45	4096
2026-01-23 06:29:51.33	345.15	10.22	-37.2	-38.7	19.3	0.00e+00	0	37	0	255852544	45	4125
2026-01-23 06:29:52.47	344.97	10.26	-37.1	-38.6	19.4	0.00e+00	0	38	0	264241152	45	4080
2026-01-23 06:29:53.32	344.83	10.29	-37.1	-38.6	19.4	0.00e+00	0	37	0	270532608	44	4329
2026-01-23 06:29:54.46	344.64	10.33	-37.2	-38.8	19.2	0.00e+00	0	38	0	278921216	44	4406
2026-01-23 06:29:55.31	344.50	10.36	-37.2	-38.7	19.3	0.00e+00	0	38	0	285212672	44	4355
2026-01-23 06:29:56.45	344.31	10.41	-37.3	-38.8	19.2	0.00e+00	0	38	0	292552704	44	4392
2026-01-23 06:29:57.30	344.17	10.44	-37.4	-38.8	19.2	0.00e+00	0	38	0	298844160	44	4416
2026-01-23 06:29:58.44	343.98	10.48	-37.5	-38.9	19.1	0.00e+00	0	38	0	307232768	44	4458
2026-01-23 06:29:59.29	343.84	10.51	-37.5	-38.8	19.1	0.00e+00	0	38	0	313524224	44	4434
2026-01-23 06:30:00.57	343.63	10.55	-37.5	-38.9	19.1	0.00e+00	0	37	0	322961408	44	4458
2026-01-23 06:30:01.28	343.51	10.58	-37.5	-38.8	19.1	0.00e+00	0	38	0	328204288	44	4438
2026-01-23 06:30:02.56	343.29	10.63	-37.6	-38.9	18.9	0.00e+00	0	38	0	337641472	44	4490
2026-01-23 06:30:03.29	343.17	10.65	-37.6	-39.0	19.0	0.00e+00	0	38	0	341835776	44	4529
2026-01-23 06:30:04.57	342.96	10.70	-37.5	-38.8	19.2	0.00e+00	0	38	0	351272960	44	4433
2026-01-23 06:30:05.29	342.83	10.72	-37.5	-38.8	19.2	0.00e+00	0	38	0	356515840	44	4425
2026-01-23 06:30:06.57	342.62	10.76	-37.4	-38.7	19.3	0.00e+00	0	38	0	365953024	44	4358
2026-01-23 06:30:07.29	342.49	10.79	-37.4	-38.6	19.4	0.00e+00	0	38	0	371195904	44	4331
2026-01-23 06:30:08.56	342.28	10.83	-37.2	-38.3	19.6	0.00e+00	0	38	0	380633088	44	4185
2026-01-23 06:30:09.29	342.15	10.86	-37.1	-38.3	19.7	0.00e+00	0	38	0	385875968	44	4164
2026-01-23 06:30:10.57	341.94	10.90	-36.9	-38.1	19.9	0.00e+00	0	38	0	395313152	44	4064
2026-01-23 06:30:11.28	341.81	10.92	-37.0	-38.2	19.8	0.00e+00	0	38	0	399507456	44	4100
2026-01-23 06:30:12.56	341.59	10.97	-36.9	-38.0	19.9	0.00e+00	0	38	0	408944640	44	4049
2026-01-23 06:30:13.27	341.47	10.99	-37.0	-38.1	19.8	0.00e+00	0	37	0	414187520	44	4097
2026-01-23 06:30:14.55	341.25	11.03	-37.1	-38.3	19.8	0.00e+00	0	38	0	423624704	44	4156
2026-01-23 06:30:15.27	341.13	11.06	-37.1	-38.3	19.7	0.00e+00	0	38	0	428867584	44	4160
2026-01-23 06:30:16.76	340.87	11.11	-37.2	-38.3	19.7	0.00e+00	0	37	0	439353344	44	4186
2026-01-23 06:30:17.47	340.74	11.13	-37.3	-38.4	19.6	0.00e+00	0	38	0	444596224	44	4219
2026-01-23 06:30:18.75	340.52	11.17	-37.4	-38.5	19.6	0.00e+00	0	38	0	454033408	44	4246
2026-01-23 06:30:19.46	340.40	11.19	-37.4	-38.4	19.5	0.00e+00	0	38	0	459276288	44	4238
2026-01-23 06:30:20.74	340.17	11.23	-37.4	-38.5	19.5	0.00e+00	0	38	0	467664896	44	4281
2026-01-23 06:30:21.46	340.05	11.26	-37.6	-38.7	19.4	0.00e+00	0	38	0	473956352	44	4355
2026-01-23 06:30:22.74	339.82	11.30	-37.5	-38.6	19.4	0.00e+00	0	38	0	482344960	44	4325
2026-01-23 06:30:23.48	339.69	11.32	-37.5	-38.7	19.3	0.00e+00	0	38	0	487587840	44	4372
2026-01-23 06:30:24.76	339.47	11.36	-37.3	-38.5	19.5	0.00e+00	0	38	0	497025024	44	4285
2026-01-23 06:30:25.48	339.34	11.38	-37.3	-38.5	19.6	0.00e+00	0	37	0	502267904	44	4247
2026-01-23 06:30:26.76	339.11	11.42	-37.3	-38.5	19.6	0.00e+00	0	38	0	511705088	44	4243
2026-01-23 06:30:27.61	338.96	11.44	-37.3	-38.4	19.6	0.00e+00	0	38	0	517996544	44	4229
2026-01-23 06:30:29.04	338.71	11.49	-37.3	-38.4	19.6	0.00e+00	0	38	0	528482304	44	4225
2026-01-23 06:30:29.75	338.58	11.51	-37.3	-38.4	19.6	0.00e+00	0	37	0	532676608	44	4216
2026-01-23 06:30:31.04	338.35	11.55	-37.2	-38.3	19.7	0.00e+00	0	38	0	542113792	44	4184
2026-01-23 06:30:31.75	338.22	11.57	-37.1	-38.2	19.7	0.00e+00	0	38	0	548405248	44	4143
2026-01-23 06:30:33.03	337.99	11.60	-37.1	-38.2	19.8	0.00e+00	0	38	0	556793856	44	4133
2026-01-23 06:30:33.76	337.86	11.62	-37.0	-38.2	19.8	0.00e+00	0	38	0	562036736	44	4131
2026-01-23 06:30:35.04	337.63	11.66	-36.9	-38.1	19.9	0.00e+00	0	38	0	571473920	44	4097
2026-01-23 06:30:35.76	337.50	11.68	-37.0	-38.2	19.8	0.00e+00	0	38	0	576716800	44	4111
2026-01-23 06:30:37.04	337.27	11.72	-36.9	-38.1	19.9	0.00e+00	0	38	0	586153984	44	4080
2026-01-23 06:30:37.77	337.14	11.74	-36.9	-38.0	20.0	0.00e+00	0	38	0	591396864	44	4044
2026-01-23 06:30:39.05	336.90	11.77	-36.7	-37.8	20.2	0.00e+00	0	38	0	599785472	44	3929
2026-01-23 06:30:39.76	336.77	11.79	-36.6	-37.7	20.3	0.00e+00	0	38	0	606076928	44	3904
2026-01-23 06:30:41.04	336.54	11.83	-36.4	-37.5	20.3	0.00e+00	0	38	0	614465536	43	4050
2026-01-23 06:30:41.79	336.40	11.85	-36.3	-37.4	20.4	0.00e+00	0	38	0	619708416	43	4002
2026-01-23 06:30:43.07	336.17	11.88	-36.4	-37.5	20.3	0.00e+00	0	38	0	629145600	43	4019
2026-01-23 06:30:43.78	336.04	11.90	-36.4	-37.5	20.3	0.00e+00	0	38	0	634388480	43	4035
2026-01-23 06:30:45.06	335.80	11.93	-36.5	-37.6	20.3	0.00e+00	0	38	0	643825664	43	4053
2026-01-23 06:30:45.78	335.67	11.95	-36.5	-37.6	20.3	0.00e+00	0	38	0	649068544	43	4053
2026-01-23 06:30:47.14	335.42	11.98	-36.5	-37.5	20.4	0.00e+00	0	38	0	658505728	43	4013
2026-01-23 06:30:47.85	335.29	12.00	-36.5	-37.5	20.4	0.00e+00	0	38	0	663748608	43	4005
2026-01-23 06:30:49.13	335.05	12.03	-36.5	-37.4	20.4	0.00e+00	0	38	0	673185792	43	3998
2026-01-23 06:30:50.19	334.86	12.06	-36.4	-37.4	20.4	0.00e+00	0	38	0	680525824	43	3985
2026-01-23 06:30:51.34	334.64	12.09	-36.5	-37.5	20.3	0.00e+00	0	38	0	688914432	43	4043
2026-01-23 06:30:52.19	334.48	12.11	-36.6	-37.6	20.3	0.00e+00	0	38	0	695205888	43	4064
2026-01-23 06:30:53.33	334.27	12.13	-36.7	-37.7	20.2	0.00e+00	0	38	0	703594496	43	4116
2026-01-23 06:30:54.18	334.11	12.15	-36.8	-37.8	20.0	0.00e+00	0	38	0	709885952	43	4183
2026-01-23 06:30:55.32	333.90	12.18	-36.9	-37.9	19.9	0.00e+00	0	38	0	718274560	43	4242
2026-01-23 06:30:56.18	333.74	12.20	-36.9	-38.0	19.9	0.00e+00	0	38	0	724566016	43	4244
2026-01-23 06:30:57.31	333.53	12.23	-37.0	-38.0	19.8	0.00e+00	0	38	0	731906048	43	4279
2026-01-23 06:30:58.16	333.37	12.24	-37.0	-38.0	19.8	0.00e+00	0	38	0	738197504	43	4288
2026-01-23 06:30:59.30	333.15	12.27	-37.0	-38.1	19.8	0.00e+00	0	38	0	746586112	43	4305
2026-01-23 06:31:00.15	332.99	12.29	-37.1	-38.2	19.7	0.00e+00	0	38	0	752877568	43	4354
2026-01-23 06:31:01.29	332.78	12.31	-37.0	-38.0	19.8	0.00e+00	0	38	0	761266176	43	4291
2026-01-23 06:31:02.15	332.61	12.33	-36.9	-38.0	19.9	0.00e+00	0	38	0	766509056	43	4246
2026-01-23 06:31:03.28	332.40	12.35	-37.0	-38.0	19.8	0.00e+00	0	38	0	774897664	43	4276
2026-01-23 06:31:04.14	332.24	12.37	-37.0	-38.0	19.9	0.00e+00	0	38	0	781189120	43	4254
2026-01-23 06:31:05.27	332.02	12.39	-36.7	-37.7	20.1	0.00e+00	0	38	0	789577728	43	4135
2026-01-23 06:31:06.20	331.85	12.41	-36.7	-37.7	20.2	0.00e+00	0	38	0	796917760	43	4101
2026-01-23 06:31:07.37	331.62	12.44	-36.6	-37.6	20.2	0.00e+00	0	38	0	805306368	43	4081
2026-01-23 06:31:08.23	331.46	12.45	-36.7	-37.7	20.2	0.00e+00	0	38	0	810549248	43	4104
2026-01-23 06:31:09.36	331.24	12.47	-36.6	-37.6	20.2	0.00e+00	0	38	0	818937856	43	4080
2026-01-23 06:31:10.22	331.08	12.49	-36.5	-37.4	20.4	0.00e+00	0	38	0	825229312	43	3997
2026-01-23 06:31:11.35	330.86	12.51	-36.4	-37.4	20.4	0.00e+00	0	38	0	833617920	43	3972
2026-01-23 06:31:12.21	330.70	12.53	-36.4	-37.4	20.5	0.00e+00	0	38	0	839909376	43	3971
2026-01-23 06:31:13.67	330.42	12.55	-36.5	-37.5	20.4	0.00e+00	0	38	0	850395136	43	4012
2026-01-23 06:31:14.38	330.28	12.57	-36.5	-37.5	20.3	0.00e+00	0	38	0	855638016	43	4022
2026-01-23 06:31:15.67	330.03	12.59	-36.5	-37.5	20.3	0.00e+00	0	38	0	865075200	43	4035
2026-01-23 06:31:16.38	329.90	12.60	-36.7	-37.7	20.2	0.00e+00	0	38	0	870318080	43	4114
2026-01-23 06:31:17.66	329.65	12.62	-36.7	-37.7	20.2	0.00e+00	0	38	0	879755264	43	4122
2026-01-23 06:31:18.37	329.51	12.63	-36.6	-37.5	20.3	0.00e+00	0	38	0	883949568	43	4045
2026-01-23 06:31:19.65	329.27	12.65	-36.5	-37.5	20.3	0.00e+00	0	38	0	893386752	43	4026
2026-01-23 06:31:20.49	329.10	12.67	-36.5	-37.4	20.4	0.00e+00	0	38	0	899678208	43	3998
2026-01-23 06:31:21.63	328.88	12.68	-36.5	-37.5	20.4	0.00e+00	0	38	0	908066816	43	4011
2026-01-23 06:31:22.48	328.72	12.70	-36.5	-37.5	20.3	0.00e+00	0	38	0	914358272	43	4019
2026-01-23 06:31:23.61	328.50	12.71	-36.5	-37.5	20.4	0.00e+00	0	38	0	921698304	43	4020
2026-01-23 06:31:24.47	328.33	12.73	-36.5	-37.4	20.4	0.00e+00	0	38	0	927989760	43	3999
2026-01-23 06:31:25.60	328.11	12.74	-36.5	-37.5	20.4	0.00e+00	0	38	0	936378368	43	4023
2026-01-23 06:31:26.46	327.94	12.75	-36.7	-37.6	20.2	0.00e+00	0	38	0	942669824	43	4097
2026-01-23 06:31:27.59	327.72	12.77	-36.7	-37.7	20.2	0.00e+00	0	38	0	951058432	43	4102
2026-01-23 06:31:28.45	327.56	12.78	-36.6	-37.6	20.2	0.00e+00	0	38	0	957349888	43	4096
2026-01-23 06:31:29.63	327.32	12.79	-36.7	-37.7	20.1	0.00e+00	0	38	0	965738496	43	4145
2026-01-23 06:31:30.48	327.16	12.81	-36.7	-37.8	20.1	0.00e+00	0	38	0	972029952	43	4146
2026-01-23 06:31:31.62	326.94	12.82	-36.8	-37.9	20.0	0.00e+00	0	38	0	980418560	43	4199
2026-01-23 06:31:32.47	326.77	12.83	-36.9	-38.0	19.9	0.00e+00	0	38	0	985661440	43	4246
2026-01-23 06:31:33.61	326.55	12.84	-37.0	-38.1	19.8	0.00e+00	0	38	0	994050048	43	4300
2026-01-23 06:31:34.46	326.38	12.85	-36.8	-37.9	20.0	0.00e+00	0	38	0	1000341504	43	4217
2026-01-23 06:31:35.60	326.16	12.86	-36.9	-38.0	19.9	0.00e+00	0	38	0	1008730112	43	4250
2026-01-23 06:31:36.70	325.94	12.88	-36.8	-37.9	20.0	0.00e+00	0	38	0	1017118720	43	4205
2026-01-23 06:31:37.73	325.74	12.89	-36.7	-37.8	20.1	0.00e+00	0	38	0	1024458752	43	4152
2026-01-23 06:31:38.72	325.54	12.90	-36.6	-37.6	20.2	0.00e+00	0	38	0	1030750208	43	4092
2026-01-23 06:31:39.72	325.35	12.91	-36.6	-37.7	20.2	0.00e+00	0	38	0	1038090240	43	4100
2026-01-23 06:31:41.00	325.09	12.92	-36.5	-37.6	20.3	0.00e+00	0	38	0	1047527424	43	4071
2026-01-23 06:31:41.72	324.95	12.92	-36.5	-37.6	20.3	0.00e+00	0	38	0	1052770304	43	4063
2026-01-23 06:31:43.00	324.70	12.93	-36.5	-37.6	20.3	0.00e+00	0	38	0	1062207488	43	4063
2026-01-23 06:31:43.72	324.56	12.94	-36.4	-37.5	20.4	0.00e+00	0	38	0	1067450368	43	4031
2026-01-23 06:31:44.99	324.31	12.95	-36.4	-37.5	20.3	0.00e+00	0	38	0	1075838976	43	4027
2026-01-23 06:31:45.71	324.16	12.96	-36.5	-37.5	20.3	0.00e+00	0	38	0	1082130432	43	4044
2026-01-23 06:31:46.99	323.91	12.96	-36.5	-37.5	20.3	0.00e+00	0	38	0	1090519040	43	4043
2026-01-23 06:31:47.71	323.77	12.97	-36.6	-37.6	20.2	0.00e+00	0	38	0	1095761920	43	4094
2026-01-23 06:31:48.99	323.52	12.98	-36.5	-37.6	20.3	0.00e+00	0	38	0	1105199104	43	4062
2026-01-23 06:31:49.70	323.38	12.98	-36.7	-37.7	20.2	0.00e+00	0	38	0	1110441984	43	4126
2026-01-23 06:31:51.06	323.11	12.99	-36.6	-37.6	20.3	0.00e+00	0	38	0	1119879168	43	4056
2026-01-23 06:31:51.77	322.97	12.99	-36.5	-37.5	20.4	0.00e+00	0	38	0	1125122048	43	4017
2026-01-23 06:31:53.05	322.71	13.00	-36.5	-37.5	20.4	0.00e+00	0	38	0	1134559232	43	4006
2026-01-23 06:31:53.77	322.57	13.00	-36.5	-37.5	20.4	0.00e+00	0	38	0	1139802112	43	4028
2026-01-23 06:31:55.15	322.30	13.01	-36.5	-37.5	20.4	0.00e+00	0	38	0	1150287872	43	4014
2026-01-23 06:31:55.86	322.15	13.01	-36.4	-37.4	20.4	0.00e+00	0	38	0	1154482176	43	3984
2026-01-23 06:31:57.22	321.88	13.02	-36.6	-37.6	20.3	0.00e+00	0	38	0	1164967936	43	4068
2026-01-23 06:31:57.93	321.74	13.02	-36.5	-37.5	20.3	0.00e+00	0	38	0	1170210816	43	4035
2026-01-23 06:31:59.21	321.49	13.02	-36.5	-37.5	20.3	0.00e+00	0	38	0	1179648000	43	4029
2026-01-23 06:31:59.93	321.35	13.03	-36.5	-37.5	20.4	0.00e+00	0	38	0	1183842304	43	4015
2026-01-23 06:32:01.21	321.09	13.03	-36.6	-37.6	20.3	0.00e+00	0	38	0	1193279488	43	4052
2026-01-23 06:32:01.94	320.95	13.03	-36.5	-37.5	20.3	0.00e+00	0	38	0	1198522368	43	4028
2026-01-23 06:32:03.22	320.69	13.03	-36.5	-37.5	20.4	0.00e+00	0	38	0	1207959552	43	4010
2026-01-23 06:32:03.94	320.55	13.03	-36.6	-37.6	20.3	0.00e+00	0	38	0	1213202432	43	4071
2026-01-23 06:32:05.22	320.30	13.04	-36.5	-37.5	20.3	0.00e+00	0	38	0	1222639616	43	4046
2026-01-23 06:32:05.95	320.15	13.04	-36.6	-37.6	20.3	0.00e+00	0	38	0	1227882496	43	4067
2026-01-23 06:32:07.23	319.90	13.04	-36.7	-37.7	20.2	0.00e+00	0	38	0	1237319680	43	4126
2026-01-23 06:32:07.97	319.75	13.04	-36.7	-37.7	20.2	0.00e+00	0	38	0	1242562560	43	4122
2026-01-23 06:32:09.25	319.49	13.04	-36.7	-37.7	20.1	0.00e+00	0	38	0	1250951168	43	4137
2026-01-23 06:32:10.10	319.33	13.04	-36.7	-37.8	20.1	0.00e+00	0	38	0	1258291200	43	4155
2026-01-23 06:32:11.54	319.04	13.03	-36.7	-37.7	20.1	0.00e+00	0	38	0	1267728384	43	4134
2026-01-23 06:32:12.25	318.90	13.03	-36.6	-37.6	20.2	0.00e+00	0	38	0	1272971264	43	4079
2026-01-23 06:32:13.52	318.65	13.03	-36.6	-37.6	20.3	0.00e+00	0	38	0	1282408448	43	4062
2026-01-23 06:32:14.24	318.50	13.03	-36.5	-37.5	20.4	0.00e+00	0	38	0	1287651328	43	4027
2026-01-23 06:32:15.52	318.25	13.03	-36.6	-37.5	20.4	0.00e+00	0	38	0	1297088512	43	4030
2026-01-23 06:32:16.23	318.11	13.02	-36.5	-37.5	20.4	0.00e+00	0	38	0	1302331392	43	4018
2026-01-23 06:32:17.50	317.86	13.02	-36.4	-37.4	20.5	0.00e+00	0	38	0	1311768576	43	3976
2026-01-23 06:32:18.22	317.71	13.02	-36.4	-37.4	20.5	0.00e+00	0	38	0	1315962880	43	3971
2026-01-23 06:32:19.50	317.46	13.01	-36.3	-37.3	20.6	0.00e+00	0	38	0	1325400064	43	3919
2026-01-23 06:32:20.21	317.32	13.01	-36.3	-37.3	20.6	0.00e+00	0	38	0	1330642944	43	3930
2026-01-23 06:32:21.49	317.06	13.00	-36.3	-37.3	20.6	0.00e+00	0	38	0	1340080128	43	3921
2026-01-23 06:32:22.21	316.92	13.00	-36.2	-37.2	20.7	0.00e+00	0	38	0	1345323008	43	3873
2026-01-23 06:32:23.49	316.67	12.99	-36.2	-37.2	20.7	0.00e+00	0	38	0	1353711616	43	3871
2026-01-23 06:32:24.22	316.52	12.99	-36.3	-37.2	20.6	0.00e+00	0	38	0	1360003072	43	3906
2026-01-23 06:32:25.50	316.27	12.98	-36.3	-37.3	20.6	0.00e+00	0	38	0	1368391680	43	3925
2026-01-23 06:32:26.21	316.13	12.98	-36.3	-37.3	20.6	0.00e+00	0	38	0	1373634560	43	3917
2026-01-23 06:32:27.49	315.87	12.97	-36.5	-37.5	20.4	0.00e+00	0	38	0	1383071744	43	4006
2026-01-23 06:32:28.20	315.73	12.96	-36.5	-37.5	20.4	0.00e+00	0	38	0	1388314624	43	4034
2026-01-23 06:32:29.48	315.48	12.96	-36.6	-37.6	20.3	0.00e+00	0	38	0	1397751808	43	4060
2026-01-23 06:32:30.22	315.33	12.95	-36.6	-37.6	20.3	0.00e+00	0	38	0	1402994688	43	4070
2026-01-23 06:32:31.50	315.08	12.94	-36.7	-37.6	20.2	0.00e+00	0	38	0	1412431872	43	4089
2026-01-23 06:32:32.21	314.94	12.93	-36.7	-37.7	20.1	0.00e+00	0	38	0	1417674752	43	4135
2026-01-23 06:32:33.49	314.69	12.92	-36.7	-37.7	20.2	0.00e+00	0	38	0	1426063360	43	4101
2026-01-23 06:32:34.20	314.55	12.92	-36.6	-37.5	20.3	0.00e+00	0	38	0	1431306240	43	4039
2026-01-23 06:32:35.48	314.30	12.91	-36.6	-37.5	20.3	0.00e+00	0	38	0	1440743424	43	4045
2026-01-23 06:32:36.20	314.15	12.90	-36.6	-37.6	20.3	0.00e+00	0	38	0	1445986304	43	4068
2026-01-23 06:32:37.48	313.90	12.89	-36.6	-37.5	20.3	0.00e+00	0	38	0	1455423488	43	4049
2026-01-23 06:32:38.21	313.76	12.88	-36.5	-37.5	20.3	0.00e+00	0	38	0	1460666368	43	4035
2026-01-23 06:32:39.49	313.51	12.87	-36.6	-37.6	20.2	0.00e+00	0	38	0	1470103552	43	4089
2026-01-23 06:32:40.20	313.37	12.86	-36.8	-37.8	20.1	0.00e+00	0	38	0	1474297856	43	4158
2026-01-23 06:32:41.47	313.12	12.84	-36.9	-37.9	20.0	0.00e+00	0	38	0	1483735040	43	4206
2026-01-23 06:32:42.20	312.98	12.84	-36.9	-37.9	20.0	0.00e+00	0	38	0	1490026496	43	4211
2026-01-23 06:32:43.48	312.72	12.82	-36.9	-37.9	19.9	0.00e+00	0	38	0	1498415104	43	4238
2026-01-23 06:32:44.19	312.59	12.81	-36.9	-37.9	20.0	0.00e+00	0	38	0	1503657984	43	4230
2026-01-23 06:32:45.47	312.33	12.80	-36.9	-37.9	19.9	0.00e+00	0	38	0	1513095168	43	4224
2026-01-23 06:32:46.18	312.20	12.79	-36.9	-37.9	20.0	0.00e+00	0	38	0	1518338048	43	4213
2026-01-23 06:32:47.46	311.95	12.77	-36.9	-37.8	20.0	0.00e+00	0	38	0	1527775232	43	4188
2026-01-23 06:32:48.19	311.80	12.76	-36.9	-37.9	20.0	0.00e+00	0	38	0	1533018112	43	4229
2026-01-23 06:32:49.48	311.55	12.74	-36.9	-37.9	20.0	0.00e+00	0	38	0	1541406720	43	4223
2026-01-23 06:32:50.19	311.41	12.73	-36.9	-37.9	19.9	0.00e+00	0	38	0	1546649600	43	4241
2026-01-23 06:32:51.47	311.16	12.71	-37.0	-38.1	19.8	0.00e+00	0	38	0	1556086784	43	4293
2026-01-23 06:32:52.20	311.02	12.70	-37.0	-38.1	19.8	0.00e+00	0	38	0	1561329664	43	4292
2026-01-23 06:32:53.48	310.77	12.68	-37.2	-38.2	19.7	0.00e+00	0	38	0	1570766848	43	4351
2026-01-23 06:32:54.19	310.64	12.67	-37.2	-38.2	19.7	0.00e+00	0	38	0	1576009728	43	4351
2026-01-23 06:32:55.64	310.35	12.65	-37.0	-38.0	19.9	0.00e+00	0	38	0	1586495488	43	4271
2026-01-23 06:32:56.35	310.22	12.64	-37.0	-38.0	19.8	0.00e+00	0	38	0	1591738368	43	4289
2026-01-23 06:32:57.63	309.97	12.62	-37.0	-38.1	19.8	0.00e+00	0	38	0	1601175552	43	4292
2026-01-23 06:32:58.70	309.76	12.60	-37.0	-38.0	19.9	0.00e+00	0	38	0	1608515584	43	4265
2026-01-23 06:32:59.56	309.60	12.59	-37.0	-38.1	19.8	0.00e+00	0	38	0	1614807040	43	4304
2026-01-23 06:33:00.69	309.38	12.57	-37.1	-38.2	19.7	0.00e+00	0	38	0	1623195648	43	4344
2026-01-23 06:33:01.55	309.21	12.55	-37.1	-38.1	19.8	0.00e+00	0	38	0	1628438528	43	4297
2026-01-23 06:33:02.68	309.00	12.53	-36.9	-38.0	19.9	0.00e+00	0	38	0	1636827136	43	4244
2026-01-23 06:33:03.54	308.83	12.52	-37.0	-38.0	19.9	0.00e+00	0	38	0	1643118592	43	4249
2026-01-23 06:33:04.68	308.61	12.50	-37.1	-38.1	19.8	0.00e+00	0	38	0	1651507200	43	4297
2026-01-23 06:33:05.53	308.45	12.48	-37.0	-38.0	19.8	0.00e+00	0	38	0	1657798656	43	4281
2026-01-23 06:33:06.66	308.23	12.46	-37.1	-38.1	18.9	0.00e+00	0	38	0	1666187264	43	4312
2026-01-23 06:33:07.60	308.05	12.44	-37.1	-38.1	19.7	0.00e+00	0	38	0	1672478720	43	4328
2026-01-23 06:33:08.76	307.83	12.42	-37.0	-38.0	19.8	0.00e+00	0	38	0	1680867328	43	4279
2026-01-23 06:33:09.64	307.66	12.40	-37.1	-38.1	19.8	0.00e+00	0	38	0	1687158784	43	4293
2026-01-23 06:33:10.78	307.45	12.38	-37.0	-38.0	19.8	0.00e+00	0	38	0	1695547392	43	4274
2026-01-23 06:33:11.64	307.28	12.36	-37.0	-38.0	19.8	0.00e+00	0	38	0	1701838848	43	4279
2026-01-23 06:33:12.77	307.07	12.34	-37.0	-38.0	19.9	0.00e+00	0	38	0	1710227456	43	4265
2026-01-23 06:33:13.62	306.91	12.32	-37.0	-38.0	19.8	0.00e+00	0	38	0	1716518912	43	4288
2026-01-23 06:33:14.76	306.69	12.29	-37.1	-38.1	19.8	0.00e+00	0	38	0	1724907520	43	4299
2026-01-23 06:33:15.61	306.53	12.28	-37.0	-38.0	19.9	0.00e+00	0	38	0	1731198976	43	4268
2026-01-23 06:33:16.75	306.32	12.25	-37.0	-38.0	19.9	0.00e+00	0	38	0	1738539008	43	4267
2026-01-23 06:33:17.60	306.16	12.23	-37.0	-37.9	19.9	0.00e+00	0	38	0	1744830464	43	4240
2026-01-23 06:33:18.77	305.94	12.21	-37.1	-38.1	19.7	0.00e+00	0	38	0	1753219072	43	4329
2026-01-23 06:33:19.62	305.78	12.19	-37.1	-38.1	19.7	0.00e+00	0	38	0	1759510528	43	4318
2026-01-23 06:33:20.76	305.56	12.16	-37.1	-38.1	19.8	0.00e+00	0	38	0	1767899136	43	4315
2026-01-23 06:33:21.61	305.40	12.14	-37.2	-38.2	19.6	0.00e+00	0	38	0	1774190592	43	4387
2026-01-23 06:33:22.89	305.17	12.11	-37.3	-38.3	19.7	0.00e+00	0	38	0	1782579200	44	4175
2026-01-23 06:33:23.62	305.03	12.09	-37.3	-38.3	19.7	0.00e+00	0	38	0	1788870656	44	4186
2026-01-23 06:33:24.89	304.79	12.06	-37.2	-38.2	19.8	0.00e+00	0	38	0	1797259264	44	4143
2026-01-23 06:33:25.61	304.66	12.04	-37.2	-38.2	19.8	0.00e+00	0	38	0	1802502144	44	4139
2026-01-23 06:33:26.88	304.42	12.01	-37.2	-38.2	19.8	0.00e+00	0	38	0	1811939328	44	4103
2026-01-23 06:33:27.59	304.29	11.99	-37.2	-38.2	19.8	0.00e+00	0	38	0	1817182208	44	4109
2026-01-23 06:33:28.87	304.05	11.96	-37.2	-38.2	19.8	0.00e+00	0	38	0	1826619392	44	4111
2026-01-23 06:33:29.59	303.92	11.94	-37.1	-38.1	19.9	0.00e+00	0	38	0	1831862272	44	4091
2026-01-23 06:33:30.87	303.68	11.91	-37.2	-38.2	19.8	0.00e+00	0	38	0	1840250880	44	4115
2026-01-23 06:33:31.75	303.52	11.89	-37.3	-38.3	19.7	0.00e+00	0	38	0	1847590912	44	4177
2026-01-23 06:33:32.89	303.31	11.86	-37.2	-38.2	19.8	0.00e+00	0	38	0	1854930944	44	4129
2026-01-23 06:33:33.74	303.16	11.84	-37.2	-38.2	19.8	0.00e+00	0	38	0	1861222400	44	4136
2026-01-23 06:33:34.88	302.95	11.80	-37.2	-38.2	19.8	0.00e+00	0	38	0	1869611008	44	4108
2026-01-23 06:33:35.73	302.79	11.78	-37.3	-38.2	19.8	0.00e+00	0	38	0	1875902464	44	4145
2026-01-23 06:33:36.87	302.59	11.75	-37.4	-38.4	19.6	0.00e+00	0	38	0	1884291072	44	4208
2026-01-23 06:33:37.72	302.43	11.73	-37.5	-38.5	19.5	0.00e+00	0	38	0	1890582528	44	4258
2026-01-23 06:33:38.90	302.22	11.69	-37.5	-38.5	19.5	0.00e+00	0	38	0	1898971136	44	4265
2026-01-23 06:33:39.75	302.06	11.67	-37.5	-38.5	19.4	0.00e+00	0	38	0	1905262592	44	4291
2026-01-23 06:33:40.89	301.86	11.64	-37.6	-38.6	19.4	0.00e+00	0	38	0	1912602624	44	4326
2026-01-23 06:33:41.74	301.70	11.61	-37.6	-38.7	19.3	0.00e+00	0	38	0	1918894080	44	4355
2026-01-23 06:33:43.02	301.47	11.58	-37.6	-38.6	19.4	0.00e+00	0	38	0	1928331264	44	4311
2026-01-23 06:33:43.73	301.34	11.56	-37.5	-38.6	19.4	0.00e+00	0	38	0	1933574144	44	4298
2026-01-23 06:33:45.01	301.11	11.52	-37.5	-38.5	19.5	0.00e+00	0	38	0	1943011328	44	4248
2026-01-23 06:33:45.74	300.98	11.50	-37.5	-38.5	19.4	0.00e+00	0	38	0	1948254208	44	4265
2026-01-23 06:33:47.25	300.71	11.45	-37.6	-38.6	19.4	0.00e+00	0	38	0	1958739968	44	4312
2026-01-23 06:33:47.96	300.59	11.43	-37.6	-38.6	19.4	0.00e+00	0	38	0	1963982848	44	4317
2026-01-23 06:33:49.24	300.36	11.39	-37.6	-38.6	19.3	0.00e+00	0	38	0	1973420032	44	4325
2026-01-23 06:33:49.97	300.23	11.37	-37.5	-38.5	19.4	0.00e+00	0	38	0	1978662912	44	4285
2026-01-23 06:33:51.24	300.00	11.33	-37.5	-38.5	19.4	0.00e+00	0	38	0	1988100096	44	4284
2026-01-23 06:33:51.97	299.88	11.31	-37.5	-38.6	19.4	0.00e+00	0	38	0	1993342976	44	4299
2026-01-23 06:33:53.25	299.65	11.27	-37.3	-38.3	19.6	0.00e+00	0	38	0	2001731584	44	4179
2026-01-23 06:33:53.99	299.52	11.25	-37.4	-38.4	19.6	0.00e+00	0	38	0	2008023040	44	4208
2026-01-23 06:33:55.27	299.29	11.21	-37.4	-38.4	19.5	0.00e+00	0	38	0	2016411648	44	4233
2026-01-23 06:33:55.99	299.17	11.18	-37.4	-38.4	19.5	0.00e+00	0	38	0	2021654528	44	4231
2026-01-23 06:33:57.27	298.94	11.14	-37.3	-38.3	19.6	0.00e+00	0	38	0	2031091712	44	4188
2026-01-23 06:33:58.00	298.82	11.12	-37.4	-38.4	19.6	0.00e+00	0	38	0	2036334592	44	4213
2026-01-23 06:33:59.28	298.59	11.08	-37.6	-38.6	19.4	0.00e+00	0	38	0	2045771776	44	4294
2026-01-23 06:33:59.99	298.47	11.05	-37.6	-38.6	19.4	0.00e+00	0	38	0	2051014656	44	4302
2026-01-23 06:34:01.28	298.25	11.01	-37.7	-38.7	19.3	0.00e+00	0	38	0	2060451840	44	4361
2026-01-23 06:34:01.99	298.12	10.99	-37.7	-38.7	19.2	0.00e+00	0	38	0	2065694720	44	4387
2026-01-23 06:34:03.27	297.90	10.94	-37.8	-38.9	19.1	0.00e+00	0	38	0	2075131904	45	4218
2026-01-23 06:34:03.98	297.78	10.92	-37.8	-38.8	19.1	0.00e+00	0	38	0	2079326208	45	4183
2026-01-23 06:34:05.26	297.56	10.88	-37.8	-38.8	19.1	0.00e+00	0	38	0	2088763392	45	4191
2026-01-23 06:34:06.00	297.43	10.85	-37.8	-38.9	19.1	0.00e+00	0	38	0	2094006272	45	4203
2026-01-23 06:34:07.28	297.21	10.81	-37.8	-38.8	19.1	0.00e+00	0	38	0	2103443456	45	4192
2026-01-23 06:34:08.00	297.09	10.78	-37.8	-38.9	19.1	0.00e+00	0	38	0	2108686336	45	4215
2026-01-23 06:34:09.28	296.87	10.74	-37.9	-38.9	19.0	0.00e+00	0	38	0	2118123520	45	4239
2026-01-23 06:34:10.01	296.75	10.71	-37.8	-38.8	19.1	0.00e+00	0	38	0	2123366400	45	4190
2026-01-23 06:34:11.29	296.53	10.67	-37.8	-38.9	19.1	0.00e+00	0	38	0	2132803584	45	4209
2026-01-23 06:34:12.01	296.41	10.64	-37.9	-38.9	19.1	0.00e+00	0	38	0	2138046464	45	4218
2026-01-23 06:34:13.29	296.20	10.60	-37.9	-38.9	19.1	0.00e+00	0	38	0	2146435072	45	4223
2026-01-23 06:34:14.00	296.08	10.57	-37.9	-39.0	18.9	0.00e+00	0	38	0	2152726528	45	4259
2026-01-23 06:34:15.28	295.86	10.53	-37.9	-39.0	19.0	0.00e+00	0	38	0	2161115136	45	4252
2026-01-23 06:34:15.99	295.74	10.50	-38.0	-39.0	19.0	0.00e+00	0	38	0	2166358016	45	4269
2026-01-23 06:34:17.27	295.53	10.46	-37.9	-38.9	19.0	0.00e+00	0	38	0	2175795200	45	4225
2026-01-23 06:34:18.00	295.41	10.43	-37.9	-38.9	19.0	0.00e+00	0	38	0	2181038080	45	4222
2026-01-23 06:34:19.28	295.19	10.38	-37.8	-38.8	19.2	0.00e+00	0	38	0	2190475264	45	4166
2026-01-23 06:34:19.99	295.08	10.36	-37.7	-38.7	19.3	0.00e+00	0	38	0	2195718144	45	4120
2026-01-23 06:34:21.27	294.87	10.31	-37.7	-38.8	19.2	0.00e+00	0	38	0	2204106752	45	4154
2026-01-23 06:34:22.00	294.74	10.28	-37.7	-38.7	19.3	0.00e+00	0	38	0	2209349632	45	4120
2026-01-23 06:34:23.28	294.53	10.24	-37.6	-38.7	19.3	0.00e+00	0	38	0	2218786816	45	4101
2026-01-23 06:34:24.01	294.41	10.21	-37.7	-38.8	19.2	0.00e+00	0	38	0	2224029696	45	4156
2026-01-23 06:34:25.29	294.21	10.16	-37.8	-38.8	19.2	0.00e+00	0	38	0	2233466880	45	4182
2026-01-23 06:34:26.00	294.09	10.13	-37.8	-38.8	19.1	0.00e+00	0	38	0	2238709760	45	4178
2026-01-23 06:34:27.28	293.88	10.09	-37.8	-38.9	19.1	0.00e+00	0	38	0	2248146944	45	4213
2026-01-23 06:34:28.01	293.76	10.06	-37.8	-38.9	19.1	0.00e+00	0	38	0	2253389824	45	4202
2026-01-23 06:34:29.28	293.56	10.01	-37.9	-39.0	19.0	0.00e+00	0	38	0	2262827008	45	4258
2026-01-23 06:34:30.12	293.42	9.98	-37.9	-38.9	19.0	0.00e+00	0	38	0	2268069888	45	4237
2026-01-23 06:34:31.26	293.24	9.93	-38.0	-39.0	19.0	0.00e+00	0	38	0	2276458496	45	4266
2026-01-23 06:34:32.11	293.10	9.90	-38.0	-39.1	18.9	0.00e+00	0	38	0	2282749952	45	4312
2026-01-23 06:34:33.25	292.92	9.86	-38.0	-39.0	18.9	0.00e+00	0	38	0	2291138560	45	4268
2026-01-23 06:34:34.10	292.78	9.82	-38.0	-39.1	18.9	0.00e+00	0	38	0	2297430016	45	4305
2026-01-23 06:34:35.65	292.54	9.76	-38.0	-39.1	18.9	0.00e+00	0	38	0	2308964352	45	4313
2026-01-23 06:34:36.36	292.42	9.74	-38.0	-39.1	18.8	0.00e+00	0	38	0	2313158656	45	4318
2026-01-23 06:34:37.64	292.22	9.69	-38.1	-39.1	18.8	0.00e+00	0	38	0	2322595840	45	4338
2026-01-23 06:34:38.37	292.11	9.66	-38.1	-39.2	18.7	0.00e+00	0	38	0	2327838720	45	4360
2026-01-23 06:34:39.65	291.90	9.61	-38.1	-39.2	18.8	0.00e+00	0	38	0	2337275904	45	4349
2026-01-23 06:34:40.36	291.79	9.58	-38.1	-39.2	18.8	0.00e+00	0	38	0	2342518784	45	4346
2026-01-23 06:34:41.64	291.59	9.53	-38.1	-39.1	18.8	0.00e+00	0	38	0	2351955968	45	4335
2026-01-23 06:34:42.36	291.48	9.50	-38.1	-39.1	18.8	0.00e+00	0	38	0	2357198848	45	4338
2026-01-23 06:34:43.64	291.28	9.45	-38.0	-39.1	18.9	0.00e+00	0	38	0	2365587456	45	4307
2026-01-23 06:34:44.37	291.17	9.42	-38.1	-39.2	18.8	0.00e+00	0	38	0	2370830336	45	4359
2026-01-23 06:34:45.65	290.97	9.36	-38.1	-39.1	18.8	0.00e+00	0	38	0	2380267520	45	4325
2026-01-23 06:34:46.36	290.86	9.34	-38.2	-39.3	18.7	0.00e+00	0	38	0	2385510400	45	4402
2026-01-23 06:34:47.64	290.66	9.28	-38.1	-39.2	18.7	0.00e+00	0	38	0	2394947584	45	4371
2026-01-23 06:34:48.38	290.55	9.25	-38.1	-39.2	18.8	0.00e+00	0	38	0	2400190464	46	4114
2026-01-23 06:34:49.65	290.35	9.20	-38.3	-39.3	18.6	0.00e+00	0	38	0	2409627648	46	4185
2026-01-23 06:34:50.38	290.24	9.17	-38.2	-39.3	18.7	0.00e+00	0	38	0	2414870528	46	4155
2026-01-23 06:34:51.66	290.05	9.12	-38.2	-39.3	18.6	0.00e+00	0	38	0	2424307712	46	4181
2026-01-23 06:34:52.50	289.92	9.08	-38.3	-39.4	18.6	0.00e+00	0	38	0	2429550592	46	4203
2026-01-23 06:34:53.63	289.75	9.04	-38.2	-39.3	18.6	0.00e+00	0	38	0	2437939200	46	4181
2026-01-23 06:34:54.48	289.62	9.00	-38.2	-39.3	18.6	0.00e+00	0	38	0	2444230656	46	4185
2026-01-23 06:34:55.62	289.45	8.95	-48.9	-59.3	3.8	8.47e-01	0	38	104	2447376384	67	12490
2026-01-23 06:34:56.47	289.32	8.92	-48.9	-59.7	3.8	8.48e-01	0	38	104	2447376384	67	13041
2026-01-23 06:34:57.61	289.15	8.87	-49.0	-59.8	3.8	8.47e-01	0	38	104	2447376384	67	13202
2026-01-23 06:34:58.46	289.02	8.83	-49.2	-59.9	3.8	8.46e-01	0	38	104	2447376384	67	13292
2026-01-23 06:34:59.60	288.86	8.79	-49.3	-60.0	3.8	8.47e-01	0	38	104	2447376384	67	13440
2026-01-23 06:35:00.45	288.73	8.75	-49.2	-60.0	3.8	8.46e-01	0	38	104	2447376384	67	13484
2026-01-23 06:35:01.58	288.56	8.70	-49.1	-60.0	3.8	8.47e-01	0	38	104	2447376384	67	13446
2026-01-23 06:35:02.43	288.44	8.67	-49.4	-60.2	3.8	8.48e-01	0	38	104	2447376384	68	12977
2026-01-23 06:35:03.67	288.25	8.61	-49.5	-60.2	3.8	8.47e-01	0	38	104	2447376384	68	13065
2026-01-23 06:35:04.52	288.13	8.58	-49.5	-60.1	3.8	8.47e-01	0	38	104	2447376384	68	12958
2026-01-23 06:35:05.65	287.96	8.53	-49.5	-60.2	3.8	8.47e-01	0	38	104	2447376384	68	13007
2026-01-23 06:35:06.50	287.84	8.49	-49.5	-60.2	3.8	8.47e-01	0	38	104	2447376384	68	13078
2026-01-23 06:35:07.64	287.68	8.44	-49.4	-60.2	3.8	8.47e-01	0	38	104	2447376384	68	13086
2026-01-23 06:35:08.49	287.55	8.41	-49.3	-60.1	3.8	8.47e-01	0	38	104	2447376384	68	12944
2026-01-23 06:35:09.63	287.39	8.36	-49.3	-60.2	3.8	8.47e-01	0	38	104	2447376384	68	13009
2026-01-23 06:35:10.48	287.27	8.32	-49.3	-60.2	3.8	8.48e-01	0	38	104	2447376384	68	13073
2026-01-23 06:35:11.61	287.10	8.27	-49.4	-60.2	3.8	8.47e-01	0	38	104	2447376384	68	12980
2026-01-23 06:35:12.47	286.98	8.23	-49.4	-60.2	3.8	8.47e-01	0	38	104	2447376384	68	12975
2026-01-23 06:35:13.60	286.82	8.18	-49.4	-60.2	3.8	8.46e-01	0	38	104	2447376384	68	12963
2026-01-23 06:35:14.45	286.70	8.15	-49.4	-60.1	3.8	8.47e-01	0	38	104	2447376384	68	12894
2026-01-23 06:35:15.59	286.54	8.10	-49.2	-60.1	3.8	8.47e-01	0	38	104	2447376384	68	12844
2026-01-23 06:35:16.44	286.42	8.06	-49.2	-60.1	3.8	8.46e-01	0	38	104	2447376384	68	12912
2026-01-23 06:35:17.58	286.26	8.01	-49.2	-60.0	3.8	8.47e-01	0	38	104	2447376384	68	12773
2026-01-23 06:35:18.43	286.14	7.97	-49.2	-60.1	3.8	8.46e-01	0	38	104	2447376384	68	12816
2026-01-23 06:35:19.56	285.98	7.92	-49.1	-60.0	3.8	8.47e-01	0	38	104	2447376384	68	12778
2026-01-23 06:35:20.42	285.86	7.88	-49.1	-60.1	3.8	8.47e-01	0	38	104	2447376384	68	12830
2026-01-23 06:35:21.55	285.70	7.83	-49.2	-60.1	3.8	8.46e-01	0	38	104	2447376384	68	12811
2026-01-23 06:35:22.40	285.58	7.80	-49.2	-60.1	3.8	8.47e-01	0	38	104	2447376384	68	12819
2026-01-23 06:35:23.54	285.42	7.75	-49.1	-60.1	3.8	8.46e-01	0	38	104	2447376384	68	12837
2026-01-23 06:35:24.39	285.31	7.71	-49.1	-60.0	3.8	8.47e-01	0	38	104	2447376384	68	12803
2026-01-23 06:35:25.52	285.15	7.66	-49.1	-60.1	3.8	8.46e-01	0	38	104	2447376384	68	12840
2026-01-23 06:35:26.38	285.03	7.62	-49.1	-60.1	3.8	8.47e-01	0	38	104	2447376384	68	12862
2026-01-23 06:35:27.51	284.88	7.57	-49.1	-60.1	3.8	8.47e-01	0	38	104	2447376384	68	12830
2026-01-23 06:35:28.37	284.76	7.53	-49.1	-60.1	3.8	8.47e-01	0	38	104	2447376384	68	12824
2026-01-23 06:35:29.50	284.61	7.48	-49.1	-60.0	3.8	8.47e-01	0	38	104	2447376384	68	12787
2026-01-23 06:35:30.35	284.49	7.44	-49.1	-60.1	3.8	8.47e-01	0	38	104	2447376384	68	12831
2026-01-23 06:35:31.49	284.34	7.39	-49.2	-60.1	3.8	8.47e-01	0	38	104	2447376384	68	12862
2026-01-23 06:35:32.34	284.23	7.35	-49.1	-60.1	3.8	8.47e-01	0	38	104	2447376384	68	12812
2026-01-23 06:35:33.47	284.07	7.30	-49.1	-60.0	3.8	8.47e-01	0	38	104	2447376384	68	12803
2026-01-23 06:35:34.33	283.96	7.26	-49.1	-60.1	3.8	8.47e-01	0	38	104	2447376384	68	12877
2026-01-23 06:35:35.46	283.81	7.21	-49.1	-60.1	3.8	8.48e-01	0	38	104	2447376384	68	12836
2026-01-23 06:35:36.31	283.70	7.17	-49.1	-60.1	3.8	8.46e-01	0	38	104	2447376384	68	12814
2026-01-23 06:35:37.45	283.54	7.12	-49.1	-60.0	3.8	8.47e-01	0	38	104	2447376384	68	12799
2026-01-23 06:35:38.30	283.43	7.08	-49.1	-60.0	3.8	8.47e-01	0	38	104	2447376384	68	12761
2026-01-23 06:35:39.43	283.28	7.03	-49.1	-60.0	3.8	8.47e-01	0	38	104	2447376384	68	12791
2026-01-23 06:35:40.28	283.17	6.99	-49.1	-60.0	3.8	8.47e-01	0	38	104	2447376384	68	12764
2026-01-23 06:35:41.42	283.02	6.94	-49.1	-60.1	3.8	8.46e-01	0	38	104	2447376384	68	12821
2026-01-23 06:35:42.27	282.91	6.90	-49.1	-60.0	3.8	8.46e-01	0	38	104	2447376384	68	12780
2026-01-23 06:35:43.41	282.76	6.85	-49.1	-60.0	3.8	8.47e-01	0	38	104	2447376384	68	12749
2026-01-23 06:35:44.26	282.65	6.81	-49.1	-60.0	3.8	8.47e-01	0	38	104	2447376384	68	12748
2026-01-23 06:35:45.39	282.51	6.76	-49.1	-60.0	3.8	8.46e-01	0	38	104	2447376384	68	12800
2026-01-23 06:35:46.24	282.40	6.72	-49.1	-60.1	3.8	8.46e-01	0	38	104	2447376384	68	12837
2026-01-23 06:35:47.38	282.25	6.67	-49.1	-60.0	3.8	8.46e-01	0	38	104	2447376384	68	12761
2026-01-23 06:35:48.23	282.14	6.63	-49.1	-60.0	3.8	8.47e-01	0	38	104	2447376384	68	12775
2026-01-23 06:35:49.36	282.00	6.57	-49.1	-60.0	3.8	8.45e-01	0	38	104	2447376384	68	12758
2026-01-23 06:35:50.22	281.89	6.53	-49.1	-60.0	3.8	8.47e-01	0	38	104	2447376384	68	12801
2026-01-23 06:35:51.35	281.75	6.48	-49.1	-60.0	3.8	8.47e-01	0	38	104	2447376384	68	12769
2026-01-23 06:35:52.20	281.64	6.44	-49.1	-60.0	3.8	8.47e-01	0	38	104	2447376384	68	12718
2026-01-23 06:35:53.34	281.50	6.39	-49.1	-60.0	3.8	8.47e-01	0	38	104	2447376384	68	12728
2026-01-23 06:35:54.19	281.39	6.35	-49.1	-60.0	3.8	8.47e-01	0	38	104	2447376384	68	12795
2026-01-23 06:35:55.32	281.25	6.30	-49.1	-60.0	3.8	8.48e-01	0	38	104	2447376384	68	12730
2026-01-23 06:35:56.17	281.14	6.26	-49.1	-60.0	3.8	8.47e-01	0	38	104	2447376384	68	12763
2026-01-23 06:35:57.31	281.00	6.21	-49.1	-60.0	3.8	8.48e-01	0	38	104	2447376384	68	12790
2026-01-23 06:35:58.16	280.90	6.17	-49.1	-60.0	3.8	8.47e-01	0	38	104	2447376384	68	12792
2026-01-23 06:35:59.30	280.75	6.11	-49.1	-60.0	3.8	8.45e-01	0	38	104	2447376384	68	12782
2026-01-23 06:36:00.15	280.65	6.07	-49.1	-60.0	3.8	8.47e-01	0	38	104	2447376384	68	12777
2026-01-23 06:36:01.28	280.51	6.02	-49.1	-60.0	3.8	8.47e-01	0	38	104	2447376384	68	12741
2026-01-23 06:36:02.13	280.41	5.98	-49.1	-60.0	3.8	8.46e-01	0	38	104	2447376384	68	12773
2026-01-23 06:36:03.27	280.27	5.93	-49.1	-60.0	3.8	8.46e-01	0	38	104	2447376384	68	12704
2026-01-23 06:36:04.12	280.17	5.89	-49.1	-60.0	3.8	8.46e-01	0	38	104	2447376384	68	12784
2026-01-23 06:36:05.25	280.03	5.83	-49.1	-60.0	3.8	8.47e-01	0	38	104	2447376384	68	12798
2026-01-23 06:36:06.10	279.93	5.80	-49.1	-60.0	3.8	8.47e-01	0	38	104	2447376384	68	12781
2026-01-23 06:36:07.24	279.79	5.74	-49.1	-60.0	3.8	8.47e-01	0	38	104	2447376384	68	12762
2026-01-23 06:36:08.09	279.69	5.70	-49.1	-60.0	3.8	8.47e-01	0	38	104	2447376384	68	12768
2026-01-23 06:36:09.22	279.55	5.65	-49.1	-60.0	3.8	8.47e-01	0	38	104	2447376384	68	12741
2026-01-23 06:36:10.07	279.45	5.61	-49.1	-60.1	3.8	8.47e-01	0	38	104	2447376384	68	12834
2026-01-23 06:36:11.21	279.32	5.56	-49.1	-60.0	3.8	8.47e-01	0	38	104	2447376384	68	12751
2026-01-23 06:36:12.06	279.21	5.52	-49.1	-59.9	3.8	8.47e-01	0	38	104	2447376384	68	12658
2026-01-23 06:36:13.20	279.08	5.46	-49.1	-60.0	3.8	8.47e-01	0	38	104	2447376384	68	12766
2026-01-23 06:36:14.05	278.98	5.42	-49.1	-60.0	3.8	8.47e-01	0	38	104	2447376384	68	12749
2026-01-23 06:36:15.18	278.85	5.37	-49.1	-60.0	3.8	8.47e-01	0	38	104	2447376384	68	12767
2026-01-23 06:36:16.03	278.75	5.33	-49.1	-59.9	3.8	8.46e-01	0	39	104	2447376384	68	12654
2026-01-23 06:36:17.17	278.62	5.27	-49.1	-60.0	3.8	8.46e-01	0	38	104	2447376384	68	12694
2026-01-23 06:36:18.02	278.52	5.23	-49.1	-60.0	3.8	8.47e-01	0	38	104	2447376384	68	12698
2026-01-23 06:36:19.16	278.39	5.18	-49.1	-60.0	3.8	8.47e-01	0	38	104	2447376384	68	12682
2026-01-23 06:36:20.01	278.29	5.14	-49.1	-60.0	3.8	8.46e-01	0	38	104	2447376384	68	12718
2026-01-23 06:36:21.14	278.16	5.09	-49.1	-60.0	3.8	8.47e-01	0	38	104	2447376384	68	12729
2026-01-23 06:36:22.00	278.06	5.05	-49.1	-60.0	3.8	8.47e-01	0	38	104	2447376384	68	12749
2026-01-23 06:36:23.13	277.93	4.99	-49.1	-60.0	3.8	8.47e-01	0	38	104	2447376384	68	12711

#Closed at: 2026-01-23 06:36:23
#Recorded file [2447 MB]: D:/Data/31040_260123_092752.dat