passes_logs/2026/01/23/T1/T1__20260123_162034_FENGYUN_3E_rec.log

#Pass ID: 20260123_162034_FENGYUN 3E
#Satellite: FENGYUN 3E
#Configuration: FENGYUN 3E
#almurnet v.1.7.20251203
#Start time: 2026-01-23 16:20:36

#Version: 2.0.20230620
#Station: T1
#Location: 37.570604 lon 55.790049 lat
#TLE: 1 49008U 21062A   26022.96857035  .00000014  00000+0  27449-4 0  9991
#TLE: 2 49008  98.7488  28.0032 0002359 122.8887 237.2516 14.19886951235971

#Time	Az	El	Level	Level2	SNR	BER	BlckErr	Temp	State	Recorded	gain1	gain2
2026-01-23 16:20:36.46	234.14	5.10	-49.8	-60.5	3.8	8.47e-01	0	35	0	0	70	11961
2026-01-23 16:20:37.45	234.26	5.15	-49.8	-60.4	3.8	8.47e-01	0	35	104	0	70	11947
2026-01-23 16:20:38.45	234.38	5.19	-49.8	-60.4	3.8	8.47e-01	0	35	104	0	70	11929
2026-01-23 16:20:39.45	234.50	5.24	-49.8	-60.4	3.8	8.46e-01	0	35	104	0	70	11946
2026-01-23 16:20:40.44	234.61	5.28	-49.8	-60.4	3.8	8.46e-01	0	36	104	0	70	11850
2026-01-23 16:20:41.44	234.73	5.33	-49.8	-60.4	3.8	8.47e-01	0	35	104	0	70	11903
2026-01-23 16:20:42.43	234.85	5.38	-49.8	-60.4	3.8	8.48e-01	0	36	104	0	70	11934
2026-01-23 16:20:43.43	234.97	5.42	-49.8	-60.5	3.8	8.46e-01	0	36	104	0	70	11957
2026-01-23 16:20:44.42	235.09	5.47	-49.8	-60.5	3.8	8.47e-01	0	36	104	0	70	11967
2026-01-23 16:20:45.42	235.21	5.51	-49.8	-60.4	3.8	8.47e-01	0	36	104	0	70	11860
2026-01-23 16:20:46.42	235.33	5.56	-49.8	-60.5	3.8	8.47e-01	0	36	104	0	70	11964
2026-01-23 16:20:47.42	235.45	5.60	-49.8	-60.4	3.8	8.47e-01	0	36	104	0	70	11852
2026-01-23 16:20:48.41	235.57	5.65	-49.8	-60.5	3.8	8.46e-01	0	36	104	0	70	11956
2026-01-23 16:20:49.41	235.70	5.70	-49.8	-60.4	3.8	8.46e-01	0	36	104	0	70	11895
2026-01-23 16:20:50.41	235.82	5.74	-49.8	-60.4	3.8	8.47e-01	0	36	104	0	70	11842
2026-01-23 16:20:51.40	235.94	5.79	-49.8	-60.4	3.8	8.48e-01	0	36	104	0	70	11835
2026-01-23 16:20:52.40	236.06	5.83	-49.8	-60.4	3.8	8.47e-01	0	36	104	0	70	11849
2026-01-23 16:20:53.39	236.18	5.88	-49.8	-60.3	3.8	8.47e-01	0	36	104	0	70	11802
2026-01-23 16:20:54.39	236.31	5.92	-49.7	-60.4	3.8	8.46e-01	0	36	104	0	70	11846
2026-01-23 16:20:55.39	236.43	5.97	-49.8	-60.3	3.8	8.46e-01	0	36	104	0	70	11811
2026-01-23 16:20:56.39	236.56	6.01	-49.7	-60.3	3.8	8.48e-01	0	36	104	0	70	11816
2026-01-23 16:20:57.38	236.68	6.06	-49.8	-60.4	3.8	8.47e-01	0	36	104	0	70	11927
2026-01-23 16:20:58.38	236.81	6.10	-49.8	-60.4	3.8	8.47e-01	0	36	104	0	70	11920
2026-01-23 16:20:59.37	236.93	6.15	-49.8	-60.3	3.8	8.47e-01	0	36	104	0	70	11816
2026-01-23 16:21:00.37	237.06	6.20	-49.8	-60.4	3.8	8.47e-01	0	36	104	0	70	11889
2026-01-23 16:21:01.37	237.18	6.24	-49.8	-60.4	3.8	8.48e-01	0	36	104	0	70	11869
2026-01-23 16:21:02.36	237.31	6.29	-49.8	-60.4	3.8	8.46e-01	0	36	104	0	70	11891
2026-01-23 16:21:03.36	237.43	6.33	-49.7	-60.5	3.8	8.48e-01	0	36	104	0	70	11970
2026-01-23 16:21:04.35	237.56	6.38	-49.7	-60.4	3.8	8.48e-01	0	36	104	0	70	11834
2026-01-23 16:21:05.35	237.69	6.42	-49.7	-60.4	3.8	8.47e-01	0	36	104	0	70	11881
2026-01-23 16:21:06.35	237.82	6.47	-49.7	-60.4	3.8	8.46e-01	0	36	104	0	70	11819
2026-01-23 16:21:07.34	237.94	6.51	-49.7	-60.3	3.8	8.47e-01	0	36	104	0	70	11715
2026-01-23 16:21:08.34	238.07	6.56	-49.7	-60.3	3.8	8.47e-01	0	36	104	0	70	11735
2026-01-23 16:21:09.34	238.20	6.60	-49.7	-60.2	3.8	8.47e-01	0	36	104	0	70	11663
2026-01-23 16:21:10.33	238.33	6.65	-49.7	-60.2	3.8	8.46e-01	0	36	104	0	70	11586
2026-01-23 16:21:11.33	238.46	6.69	-49.7	-60.2	3.8	8.47e-01	0	36	104	0	70	11585
2026-01-23 16:21:12.33	238.59	6.74	-49.7	-60.2	3.8	8.48e-01	0	36	104	0	70	11569
2026-01-23 16:21:13.32	238.72	6.78	-49.7	-60.1	3.8	8.48e-01	0	36	104	0	70	11515
2026-01-23 16:21:14.32	238.85	6.82	-49.7	-60.1	3.8	8.47e-01	0	36	104	0	70	11533
2026-01-23 16:21:15.31	238.98	6.87	-49.7	-60.1	3.8	8.46e-01	0	36	104	0	70	11534
2026-01-23 16:21:16.31	239.12	6.91	-49.7	-60.1	3.8	8.46e-01	0	37	104	0	70	11547
2026-01-23 16:21:17.31	239.25	6.96	-49.7	-60.2	3.8	8.47e-01	0	37	104	0	70	11619
2026-01-23 16:21:18.31	239.38	7.00	-49.7	-60.2	3.8	8.47e-01	0	37	104	0	70	11622
2026-01-23 16:21:19.30	239.51	7.05	-49.7	-60.2	3.8	8.47e-01	0	37	104	0	70	11655
2026-01-23 16:21:20.30	239.65	7.09	-49.7	-60.3	3.8	8.46e-01	0	37	104	0	70	11716
2026-01-23 16:21:21.30	239.78	7.14	-49.7	-60.3	3.8	8.46e-01	0	37	104	0	70	11731
2026-01-23 16:21:22.30	239.92	7.18	-49.7	-60.3	3.8	8.48e-01	0	37	104	0	70	11689
2026-01-23 16:21:23.29	240.05	7.22	-49.7	-60.2	3.8	8.47e-01	0	37	104	0	70	11627
2026-01-23 16:21:24.29	240.19	7.27	-49.7	-60.2	3.8	8.46e-01	0	37	104	0	70	11658
2026-01-23 16:21:25.29	240.32	7.31	-49.7	-60.3	3.8	8.47e-01	0	37	104	0	70	11693
2026-01-23 16:21:26.28	240.46	7.36	-49.7	-60.3	3.8	8.47e-01	0	37	104	0	70	11706
2026-01-23 16:21:27.28	240.59	7.40	-49.7	-60.3	3.8	8.48e-01	0	37	104	0	70	11772
2026-01-23 16:21:28.28	240.73	7.45	-49.7	-60.3	3.8	8.47e-01	0	37	104	0	70	11684
2026-01-23 16:21:29.28	240.87	7.49	-49.7	-60.1	3.8	8.46e-01	0	37	104	0	70	11508
2026-01-23 16:21:30.27	241.00	7.53	-49.6	-60.0	3.8	8.46e-01	0	37	104	0	70	11304
2026-01-23 16:21:31.27	241.14	7.58	-49.6	-59.9	3.8	8.48e-01	0	37	104	0	70	11186
2026-01-23 16:21:32.26	241.28	7.62	-49.6	-59.9	3.8	8.47e-01	0	37	104	0	70	11205
2026-01-23 16:21:33.26	241.42	7.66	-49.6	-60.1	3.8	8.47e-01	0	37	104	0	70	11432
2026-01-23 16:21:34.26	241.56	7.71	-49.7	-60.3	3.8	8.47e-01	0	37	104	0	70	11700
2026-01-23 16:21:35.25	241.69	7.75	-49.7	-60.3	3.8	8.47e-01	0	37	104	0	70	11808
2026-01-23 16:21:36.25	241.83	7.79	-49.7	-60.3	3.8	8.47e-01	0	37	104	0	70	11704
2026-01-23 16:21:37.25	241.97	7.84	-49.7	-60.3	3.8	8.47e-01	0	37	104	0	70	11768
2026-01-23 16:21:38.24	242.11	7.88	-49.6	-60.2	3.8	8.48e-01	0	37	104	0	70	11667
2026-01-23 16:21:39.24	242.26	7.92	-49.6	-60.2	3.8	8.47e-01	0	37	104	0	70	11556
2026-01-23 16:21:40.24	242.40	7.97	-49.6	-60.2	3.8	8.46e-01	0	37	104	0	70	11638
2026-01-23 16:21:41.23	242.54	8.01	-49.7	-60.2	3.8	8.46e-01	0	37	104	0	70	11671
2026-01-23 16:21:42.23	242.68	8.05	-49.7	-60.3	3.8	8.47e-01	0	37	104	0	70	11732
2026-01-23 16:21:43.22	242.82	8.10	-49.6	-60.3	3.8	8.47e-01	0	37	104	0	70	11749
2026-01-23 16:21:44.22	242.97	8.14	-49.6	-60.2	3.8	8.47e-01	0	37	104	0	70	11622
2026-01-23 16:21:45.22	243.11	8.18	-49.6	-60.2	3.8	8.46e-01	0	37	104	0	70	11584
2026-01-23 16:21:46.22	243.25	8.22	-49.6	-60.2	3.8	8.47e-01	0	37	104	0	70	11669
2026-01-23 16:21:47.21	243.40	8.27	-49.6	-60.2	3.8	8.46e-01	0	37	104	0	70	11671
2026-01-23 16:21:48.21	243.54	8.31	-49.5	-59.7	3.8	8.45e-01	0	37	104	0	69	11567
2026-01-23 16:21:49.20	243.69	8.35	-49.4	-58.4	3.8	8.47e-01	0	37	104	0	69	9982
2026-01-23 16:21:50.20	243.83	8.39	-49.1	-57.1	4.1	8.42e-01	0	37	0	0	69	8589
2026-01-23 16:21:51.19	243.98	8.43	-49.1	-57.0	4.1	8.39e-01	0	37	0	0	69	8487
2026-01-23 16:21:52.19	244.12	8.48	-49.4	-58.4	3.9	8.46e-01	0	37	104	0	69	10027
2026-01-23 16:21:53.19	244.27	8.52	-49.6	-60.0	3.8	8.47e-01	0	37	104	0	69	12000
2026-01-23 16:21:54.18	244.42	8.56	-48.8	-55.5	4.6	8.32e-01	0	37	104	0	68	7629
2026-01-23 16:21:55.18	244.56	8.60	-46.7	-50.1	8.8	7.47e-02	0	37	0	4194304	64	5107
2026-01-23 16:21:56.17	244.71	8.64	-44.4	-46.4	12.6	6.33e-04	0	37	0	11534336	59	4471
2026-01-23 16:21:57.17	244.86	8.69	-42.3	-43.8	15.2	0.00e+00	0	37	0	18874368	55	4157
2026-01-23 16:21:58.17	245.01	8.73	-41.0	-42.3	16.7	0.00e+00	0	37	0	26214400	52	4167
2026-01-23 16:21:59.16	245.16	8.77	-40.3	-41.5	17.5	0.00e+00	0	37	0	32505856	51	4032
2026-01-23 16:22:00.16	245.31	8.81	-40.2	-41.4	17.6	0.00e+00	0	37	0	39845888	51	3960
2026-01-23 16:22:01.16	245.46	8.85	-40.5	-41.7	17.3	0.00e+00	0	37	0	47185920	51	4109
2026-01-23 16:22:02.15	245.61	8.89	-41.3	-42.6	16.5	0.00e+00	0	38	0	54525952	51	4549
2026-01-23 16:22:03.15	245.76	8.93	-42.4	-43.9	15.0	0.00e+00	0	38	0	61865984	54	4476
2026-01-23 16:22:04.14	245.91	8.97	-44.0	-45.9	13.1	4.50e-06	0	37	0	69206016	57	4747
2026-01-23 16:22:05.14	246.06	9.02	-45.6	-48.2	10.9	1.15e-03	0	37	0	76546048	60	5176
2026-01-23 16:22:06.14	246.21	9.06	-49.6	-59.7	3.8	8.47e-01	0	37	104	80740352	68	12305
2026-01-23 16:22:07.14	246.36	9.10	-48.5	-54.8	4.8	7.77e-01	0	37	0	81788928	67	7445
2026-01-23 16:22:08.14	246.52	9.14	-44.3	-46.3	12.7	3.31e-05	0	37	0	88080384	58	4685
2026-01-23 16:22:09.14	246.67	9.18	-40.6	-41.8	17.3	0.00e+00	0	37	0	95420416	51	4162
2026-01-23 16:22:10.14	246.82	9.22	-47.4	-51.6	7.3	7.29e-02	0	38	0	102760448	64	6118
2026-01-23 16:22:11.14	246.98	9.26	-40.3	-41.4	17.6	0.00e+00	0	37	0	110100480	51	3999
2026-01-23 16:22:12.14	247.13	9.30	-39.3	-40.3	18.6	0.00e+00	0	37	0	117440512	49	3957
2026-01-23 16:22:13.14	247.29	9.34	-39.2	-40.2	18.8	0.00e+00	0	37	0	124780544	48	4143
2026-01-23 16:22:14.14	247.45	9.38	-38.7	-39.8	19.2	0.00e+00	0	37	0	132120576	48	3922
2026-01-23 16:22:15.15	247.60	9.42	-38.4	-39.4	19.3	0.00e+00	0	37	0	139460608	47	4002
2026-01-23 16:22:16.15	247.76	9.46	-38.5	-39.5	19.2	0.00e+00	0	37	0	146800640	47	4050
2026-01-23 16:22:17.15	247.92	9.50	-38.3	-39.3	19.4	0.00e+00	0	37	0	153092096	47	3922
2026-01-23 16:22:18.14	248.07	9.54	-38.3	-39.3	19.4	0.00e+00	0	37	0	160432128	47	3934
2026-01-23 16:22:19.14	248.23	9.58	-38.2	-39.2	19.5	0.00e+00	0	38	0	167772160	47	3877
2026-01-23 16:22:20.14	248.39	9.62	-38.1	-39.1	19.6	0.00e+00	0	37	0	175112192	47	3854
2026-01-23 16:22:21.14	248.55	9.66	-38.1	-39.1	19.6	0.00e+00	0	37	0	182452224	47	3855
2026-01-23 16:22:22.14	248.71	9.69	-38.1	-39.1	19.6	0.00e+00	0	37	0	189792256	46	4091
2026-01-23 16:22:23.14	248.86	9.73	-38.1	-39.1	19.6	0.00e+00	0	37	0	197132288	46	4092
2026-01-23 16:22:24.14	249.02	9.77	-38.2	-39.2	19.5	0.00e+00	0	38	0	204472320	46	4109
2026-01-23 16:22:25.15	249.19	9.81	-38.1	-39.0	19.7	0.00e+00	0	37	0	210763776	46	4050
2026-01-23 16:22:26.15	249.35	9.85	-38.1	-39.1	19.6	0.00e+00	0	37	0	218103808	46	4077
2026-01-23 16:22:27.15	249.51	9.89	-38.0	-39.0	19.7	0.00e+00	0	38	0	225443840	46	4036
2026-01-23 16:22:28.15	249.67	9.93	-38.0	-39.0	19.7	0.00e+00	0	37	0	232783872	46	4041
2026-01-23 16:22:29.15	249.83	9.96	-38.1	-39.0	19.7	0.00e+00	0	38	0	240123904	46	4049
2026-01-23 16:22:30.15	249.99	10.00	-38.0	-39.0	19.7	0.00e+00	0	37	0	247463936	46	4035
2026-01-23 16:22:31.15	250.16	10.04	-38.0	-39.0	19.7	0.00e+00	0	37	0	254803968	46	4023
2026-01-23 16:22:32.15	250.32	10.08	-38.0	-39.0	19.8	0.00e+00	0	37	0	262144000	46	4012
2026-01-23 16:22:33.16	250.48	10.11	-38.1	-39.1	19.6	0.00e+00	0	37	0	269484032	46	4071
2026-01-23 16:22:34.16	250.65	10.15	-38.0	-39.0	19.7	0.00e+00	0	37	0	275775488	46	4029
2026-01-23 16:22:35.16	250.81	10.19	-38.0	-39.0	19.7	0.00e+00	0	38	0	283115520	46	4031
2026-01-23 16:22:36.16	250.98	10.23	-38.0	-39.0	19.7	0.00e+00	0	37	0	290455552	46	4014
2026-01-23 16:22:37.16	251.14	10.26	-37.9	-38.9	19.8	0.00e+00	0	38	0	297795584	46	3994
2026-01-23 16:22:38.16	251.31	10.30	-37.9	-38.9	19.8	0.00e+00	0	37	0	305135616	46	3978
2026-01-23 16:22:39.17	251.47	10.34	-37.9	-38.9	19.9	0.00e+00	0	37	0	312475648	46	3964
2026-01-23 16:22:40.17	251.64	10.37	-37.9	-38.9	19.8	0.00e+00	0	37	0	319815680	46	3974
2026-01-23 16:22:41.17	251.81	10.41	-38.0	-39.0	19.8	0.00e+00	0	37	0	327155712	46	4005
2026-01-23 16:22:42.17	251.97	10.44	-37.8	-38.7	20.0	0.00e+00	0	37	0	334495744	46	3898
2026-01-23 16:22:43.17	252.14	10.48	-37.7	-38.7	20.0	0.00e+00	0	38	0	341835776	46	3886
2026-01-23 16:22:44.17	252.31	10.52	-37.6	-38.6	20.1	0.00e+00	0	38	0	349175808	46	3841
2026-01-23 16:22:45.18	252.48	10.55	-37.7	-38.7	20.0	0.00e+00	0	37	0	356515840	46	3884
2026-01-23 16:22:46.18	252.65	10.59	-37.8	-38.8	19.9	0.00e+00	0	37	0	362807296	46	3922
2026-01-23 16:22:47.18	252.82	10.62	-37.7	-38.6	20.1	0.00e+00	0	38	0	370147328	46	3866
2026-01-23 16:22:48.18	252.99	10.66	-37.7	-38.6	20.1	0.00e+00	0	37	0	377487360	46	3861
2026-01-23 16:22:49.18	253.16	10.69	-37.6	-38.6	20.1	0.00e+00	0	38	0	384827392	45	4089
2026-01-23 16:22:50.19	253.33	10.73	-37.6	-38.6	20.1	0.00e+00	0	37	0	392167424	45	4060
2026-01-23 16:22:51.19	253.50	10.76	-37.6	-38.5	20.1	0.00e+00	0	37	0	399507456	45	4050
2026-01-23 16:22:52.19	253.67	10.80	-37.6	-38.6	20.1	0.00e+00	0	38	0	406847488	45	4055
2026-01-23 16:22:53.19	253.84	10.83	-37.6	-38.5	20.2	0.00e+00	0	38	0	414187520	45	4045
2026-01-23 16:22:54.19	254.01	10.86	-37.6	-38.6	20.1	0.00e+00	0	37	0	420478976	45	4060
2026-01-23 16:22:55.19	254.19	10.90	-37.7	-38.7	20.0	0.00e+00	0	37	0	427819008	45	4103
2026-01-23 16:22:56.19	254.36	10.93	-37.8	-38.8	19.9	0.00e+00	0	37	0	435159040	45	4153
2026-01-23 16:22:57.20	254.53	10.96	-37.8	-38.8	19.9	0.00e+00	0	37	0	442499072	45	4192
2026-01-23 16:22:58.19	254.70	11.00	-37.8	-38.8	19.9	0.00e+00	0	37	0	449839104	45	4184
2026-01-23 16:22:59.20	254.88	11.03	-37.7	-38.7	20.0	0.00e+00	0	38	0	457179136	45	4114
2026-01-23 16:23:00.20	255.05	11.06	-37.6	-38.6	20.1	0.00e+00	0	37	0	464519168	45	4069
2026-01-23 16:23:01.20	255.23	11.10	-37.4	-38.4	20.3	0.00e+00	0	38	0	471859200	45	3979
2026-01-23 16:23:02.20	255.40	11.13	-37.5	-38.4	20.2	0.00e+00	0	37	0	479199232	45	4000
2026-01-23 16:23:03.20	255.58	11.16	-37.4	-38.4	20.3	0.00e+00	0	38	0	485490688	45	3970
2026-01-23 16:23:04.20	255.75	11.19	-37.5	-38.4	20.2	0.00e+00	0	38	0	492830720	45	3992
2026-01-23 16:23:05.20	255.93	11.22	-37.4	-38.4	20.3	0.00e+00	0	38	0	500170752	45	3977
2026-01-23 16:23:06.20	256.11	11.26	-37.5	-38.5	20.2	0.00e+00	0	38	0	507510784	45	4032
2026-01-23 16:23:07.20	256.28	11.29	-37.6	-38.6	20.1	0.00e+00	0	37	0	514850816	45	4062
2026-01-23 16:23:08.20	256.46	11.32	-37.7	-38.6	20.0	0.00e+00	0	37	0	522190848	45	4096
2026-01-23 16:23:09.20	256.64	11.35	-37.6	-38.6	20.1	0.00e+00	0	38	0	529530880	45	4087
2026-01-23 16:23:10.21	256.82	11.38	-37.5	-38.5	20.2	0.00e+00	0	38	0	536870912	45	4042
2026-01-23 16:23:11.21	256.99	11.41	-37.5	-38.5	20.2	0.00e+00	0	38	0	544210944	45	4006
2026-01-23 16:23:12.22	257.18	11.44	-37.4	-38.4	20.3	0.00e+00	0	37	0	551550976	45	3963
2026-01-23 16:23:13.21	257.35	11.47	-37.4	-38.3	20.3	0.00e+00	0	38	0	557842432	45	3942
2026-01-23 16:23:14.22	257.53	11.50	-37.4	-38.3	20.3	0.00e+00	0	37	0	565182464	45	3942
2026-01-23 16:23:15.22	257.71	11.53	-37.3	-38.2	20.4	0.00e+00	0	38	0	572522496	45	3883
2026-01-23 16:23:16.21	257.89	11.56	-37.3	-38.2	20.5	0.00e+00	0	38	0	579862528	45	3885
2026-01-23 16:23:17.21	258.07	11.59	-37.2	-38.1	20.6	0.00e+00	0	38	0	587202560	45	3838
2026-01-23 16:23:18.21	258.25	11.62	-37.3	-38.2	20.5	0.00e+00	0	37	0	594542592	45	3882
2026-01-23 16:23:19.21	258.43	11.65	-37.3	-38.2	20.5	0.00e+00	0	38	0	601882624	45	3891
2026-01-23 16:23:20.22	258.62	11.68	-37.4	-38.3	20.3	0.00e+00	0	38	0	609222656	45	3955
2026-01-23 16:23:21.21	258.80	11.71	-37.4	-38.4	20.3	0.00e+00	0	38	0	615514112	45	3959
2026-01-23 16:23:22.21	258.98	11.73	-37.4	-38.4	20.3	0.00e+00	0	38	0	622854144	45	3978
2026-01-23 16:23:23.22	259.16	11.76	-37.5	-38.5	20.2	0.00e+00	0	38	0	630194176	45	4005
2026-01-23 16:23:24.22	259.34	11.79	-37.4	-38.4	20.2	0.00e+00	0	38	0	637534208	45	3995
2026-01-23 16:23:25.22	259.53	11.82	-37.3	-38.3	20.3	0.00e+00	0	38	0	644874240	45	3943
2026-01-23 16:23:26.22	259.71	11.84	-37.3	-38.2	20.0	0.00e+00	0	38	0	652214272	45	3906
2026-01-23 16:23:27.22	259.89	11.87	-37.4	-38.3	20.3	0.00e+00	0	38	0	659554304	45	3955
2026-01-23 16:23:28.22	260.08	11.90	-37.3	-38.2	20.4	0.00e+00	0	38	0	666894336	45	3903
2026-01-23 16:23:29.22	260.26	11.92	-37.2	-38.1	20.5	0.00e+00	0	38	0	674234368	45	3852
2026-01-23 16:23:30.23	260.45	11.95	-37.2	-38.2	20.4	0.00e+00	0	38	0	681574400	45	3878
2026-01-23 16:23:31.22	260.63	11.98	-37.3	-38.2	20.4	0.00e+00	0	38	0	688914432	45	3897
2026-01-23 16:23:32.22	260.82	12.00	-37.3	-38.2	20.4	0.00e+00	0	38	0	695205888	45	3901
2026-01-23 16:23:33.23	261.00	12.03	-37.3	-38.3	20.3	0.00e+00	0	38	0	702545920	45	3939
2026-01-23 16:23:34.23	261.19	12.05	-37.5	-38.5	20.2	0.00e+00	0	37	0	709885952	45	4006
2026-01-23 16:23:35.23	261.38	12.08	-37.5	-38.5	20.2	0.00e+00	0	38	0	717225984	45	4007
2026-01-23 16:23:36.23	261.56	12.10	-37.5	-38.4	20.2	0.00e+00	0	38	0	724566016	45	4004
2026-01-23 16:23:37.23	261.75	12.13	-37.5	-38.5	20.1	0.00e+00	0	38	0	731906048	45	4036
2026-01-23 16:23:38.23	261.94	12.15	-37.5	-38.5	20.2	0.00e+00	0	38	0	739246080	45	4014
2026-01-23 16:23:39.23	262.12	12.18	-37.3	-38.3	20.4	0.00e+00	0	38	0	746586112	45	3931
2026-01-23 16:23:40.23	262.31	12.20	-37.3	-38.3	20.4	0.00e+00	0	38	0	752877568	45	3925
2026-01-23 16:23:41.24	262.50	12.22	-37.3	-38.3	20.3	0.00e+00	0	38	0	760217600	45	3927
2026-01-23 16:23:42.24	262.69	12.25	-37.3	-38.3	20.4	0.00e+00	0	38	0	767557632	45	3917
2026-01-23 16:23:43.24	262.88	12.27	-37.4	-38.3	20.3	0.00e+00	0	38	0	774897664	45	3949
2026-01-23 16:23:44.24	263.07	12.29	-37.3	-38.2	20.4	0.00e+00	0	38	0	782237696	45	3901
2026-01-23 16:23:45.24	263.26	12.32	-37.3	-38.3	20.3	0.00e+00	0	38	0	789577728	45	3916
2026-01-23 16:23:46.24	263.44	12.34	-37.2	-38.2	20.5	0.00e+00	0	38	0	796917760	45	3875
2026-01-23 16:23:47.24	263.63	12.36	-37.2	-38.2	20.4	0.00e+00	0	38	0	804257792	45	3905
2026-01-23 16:23:48.25	263.83	12.38	-37.2	-38.2	20.4	0.00e+00	0	38	0	811597824	45	3903
2026-01-23 16:23:49.25	264.02	12.40	-37.1	-38.1	20.5	0.00e+00	0	38	0	817889280	45	3853
2026-01-23 16:23:50.25	264.21	12.43	-37.0	-38.0	20.6	0.00e+00	0	38	0	825229312	44	4024
2026-01-23 16:23:51.26	264.40	12.45	-37.0	-38.0	20.6	0.00e+00	0	38	0	832569344	44	4017
2026-01-23 16:23:52.26	264.59	12.47	-36.9	-37.9	20.7	0.00e+00	0	37	0	839909376	44	3962
2026-01-23 16:23:53.26	264.78	12.49	-36.9	-37.8	20.7	0.00e+00	0	38	0	847249408	44	3952
2026-01-23 16:23:54.26	264.97	12.51	-36.9	-37.8	20.7	0.00e+00	0	38	0	854589440	44	3954
2026-01-23 16:23:55.26	265.16	12.53	-36.9	-37.9	20.7	0.00e+00	0	38	0	861929472	44	3965
2026-01-23 16:23:56.26	265.36	12.55	-37.0	-37.9	20.6	0.00e+00	0	38	0	869269504	44	3992
2026-01-23 16:23:57.26	265.55	12.57	-37.2	-38.2	20.5	0.00e+00	0	38	0	876609536	44	4114
2026-01-23 16:23:58.26	265.74	12.59	-37.0	-37.9	20.7	0.00e+00	0	38	0	882900992	44	3983
2026-01-23 16:23:59.26	265.93	12.61	-37.0	-37.9	20.6	0.00e+00	0	38	0	890241024	44	3986
2026-01-23 16:24:00.27	266.13	12.62	-36.9	-37.8	20.7	0.00e+00	0	38	0	898629632	44	3958
2026-01-23 16:24:01.26	266.32	12.64	-36.9	-37.8	20.7	0.00e+00	0	38	0	904921088	44	3949
2026-01-23 16:24:02.26	266.51	12.66	-36.9	-37.8	20.7	0.00e+00	0	38	0	912261120	44	3947
2026-01-23 16:24:03.26	266.71	12.68	-36.9	-37.9	20.6	0.00e+00	0	38	0	919601152	44	3970
2026-01-23 16:24:04.26	266.90	12.69	-37.0	-37.9	20.6	0.00e+00	0	38	0	926941184	44	3976
2026-01-23 16:24:05.26	267.09	12.71	-36.9	-37.8	20.7	0.00e+00	0	38	0	934281216	44	3941
2026-01-23 16:24:06.26	267.29	12.73	-36.7	-37.7	20.8	0.00e+00	0	38	0	940572672	44	3878
2026-01-23 16:24:07.26	267.48	12.75	-36.7	-37.7	20.8	0.00e+00	0	38	0	947912704	44	3876
2026-01-23 16:24:08.26	267.68	12.76	-36.8	-37.7	20.8	0.00e+00	0	38	0	955252736	44	3889
2026-01-23 16:24:09.26	267.87	12.78	-36.7	-37.6	20.9	0.00e+00	0	38	0	962592768	44	3846
2026-01-23 16:24:10.26	268.07	12.79	-36.6	-37.5	20.9	0.00e+00	0	38	0	969932800	44	3821
2026-01-23 16:24:11.26	268.26	12.81	-36.4	-37.3	21.0	0.00e+00	0	38	0	977272832	43	3947
2026-01-23 16:24:12.26	268.46	12.82	-36.4	-37.3	20.9	0.00e+00	0	38	0	984612864	43	3956
2026-01-23 16:24:13.27	268.66	12.84	-36.4	-37.3	21.0	0.00e+00	0	38	0	991952896	43	3941
2026-01-23 16:24:14.27	268.85	12.85	-36.5	-37.5	20.8	0.00e+00	0	38	0	999292928	43	4010
2026-01-23 16:24:15.27	269.05	12.87	-36.5	-37.4	20.9	0.00e+00	0	38	0	1006632960	43	3992
2026-01-23 16:24:16.27	269.24	12.88	-36.5	-37.5	20.8	0.00e+00	0	37	0	1013972992	43	4018
2026-01-23 16:24:17.27	269.44	12.89	-36.6	-37.5	20.8	0.00e+00	0	38	0	1021313024	43	4041
2026-01-23 16:24:18.27	269.64	12.91	-36.6	-37.5	20.8	0.00e+00	0	38	0	1027604480	43	4027
2026-01-23 16:24:19.27	269.83	12.92	-36.6	-37.6	20.7	0.00e+00	0	37	0	1034944512	43	4065
2026-01-23 16:24:20.28	270.03	12.93	-36.7	-37.7	20.7	0.00e+00	0	38	0	1042284544	43	4104
2026-01-23 16:24:21.28	270.23	12.95	-36.8	-37.7	20.6	0.00e+00	0	38	0	1049624576	43	4145
2026-01-23 16:24:22.28	270.43	12.96	-36.7	-37.7	20.7	0.00e+00	0	38	0	1056964608	43	4100
2026-01-23 16:24:23.28	270.62	12.97	-36.5	-37.4	20.9	0.00e+00	0	38	0	1064304640	43	3990
2026-01-23 16:24:24.28	270.82	12.98	-36.5	-37.5	20.8	0.00e+00	0	38	0	1071644672	43	4015
2026-01-23 16:24:25.28	271.02	12.99	-36.5	-37.5	20.8	0.00e+00	0	38	0	1078984704	43	4015
2026-01-23 16:24:26.29	271.22	13.00	-36.5	-37.4	20.9	0.00e+00	0	38	0	1086324736	43	3986
2026-01-23 16:24:27.29	271.42	13.01	-36.5	-37.5	20.8	0.00e+00	0	38	0	1092616192	43	4014
2026-01-23 16:24:28.29	271.61	13.02	-36.6	-37.6	20.7	0.00e+00	0	38	0	1099956224	43	4063
2026-01-23 16:24:29.29	271.81	13.03	-36.7	-37.6	20.7	0.00e+00	0	38	0	1107296256	43	4072
2026-01-23 16:24:30.29	272.01	13.04	-36.8	-37.7	20.6	0.00e+00	0	38	0	1114636288	43	4124
2026-01-23 16:24:31.30	272.21	13.05	-36.7	-37.7	20.6	0.00e+00	0	38	0	1121976320	43	4113
2026-01-23 16:24:32.30	272.41	13.06	-36.7	-37.7	20.7	0.00e+00	0	38	0	1129316352	43	4115
2026-01-23 16:24:33.30	272.61	13.07	-36.7	-37.7	20.7	0.00e+00	0	38	0	1136656384	43	4112
2026-01-23 16:24:34.29	272.81	13.08	-36.8	-37.7	20.6	0.00e+00	0	38	0	1143996416	43	4132
2026-01-23 16:24:35.29	273.00	13.09	-36.7	-37.6	20.7	0.00e+00	0	38	0	1150287872	43	4093
2026-01-23 16:24:36.30	273.21	13.09	-36.7	-37.6	20.7	0.00e+00	0	38	0	1157627904	43	4090
2026-01-23 16:24:37.30	273.40	13.10	-36.5	-37.5	20.8	0.00e+00	0	38	0	1164967936	43	4015
2026-01-23 16:24:38.30	273.60	13.11	-36.5	-37.4	20.9	0.00e+00	0	38	0	1172307968	43	3987
2026-01-23 16:24:39.29	273.80	13.12	-36.6	-37.5	20.8	0.00e+00	0	38	0	1179648000	43	4030
2026-01-23 16:24:40.29	274.00	13.12	-36.5	-37.5	20.8	0.00e+00	0	38	0	1186988032	43	4017
2026-01-23 16:24:41.29	274.20	13.13	-36.7	-37.7	20.7	0.00e+00	0	38	0	1194328064	43	4109
2026-01-23 16:24:42.29	274.40	13.13	-36.6	-37.6	20.7	0.00e+00	0	38	0	1201668096	43	4065
2026-01-23 16:24:43.29	274.60	13.14	-36.7	-37.7	20.7	0.00e+00	0	38	0	1209008128	43	4102
2026-01-23 16:24:44.29	274.80	13.14	-36.8	-37.8	20.6	0.00e+00	0	38	0	1215299584	43	4158
2026-01-23 16:24:45.30	275.00	13.15	-36.9	-37.8	20.5	0.00e+00	0	38	0	1222639616	43	4173
2026-01-23 16:24:46.30	275.20	13.15	-36.8	-37.8	20.6	0.00e+00	0	38	0	1229979648	43	4159
2026-01-23 16:24:47.30	275.40	13.16	-36.9	-37.9	20.5	0.00e+00	0	38	0	1237319680	43	4200
2026-01-23 16:24:48.30	275.60	13.16	-36.7	-37.7	20.7	0.00e+00	0	38	0	1244659712	43	4100
2026-01-23 16:24:49.30	275.80	13.17	-36.6	-37.6	20.7	0.00e+00	0	38	0	1251999744	43	4072
2026-01-23 16:24:50.30	276.00	13.17	-36.5	-37.4	20.9	0.00e+00	0	38	0	1259339776	43	4001
2026-01-23 16:24:51.30	276.20	13.17	-36.5	-37.4	20.9	0.00e+00	0	38	0	1266679808	43	3997
2026-01-23 16:24:52.30	276.40	13.18	-36.4	-37.3	21.0	0.00e+00	0	38	0	1272971264	43	3945
2026-01-23 16:24:53.30	276.60	13.18	-36.4	-37.3	21.0	0.00e+00	0	38	0	1280311296	43	3947
2026-01-23 16:24:54.30	276.80	13.18	-36.5	-37.4	20.9	0.00e+00	0	38	0	1287651328	43	3978
2026-01-23 16:24:55.30	277.00	13.18	-36.5	-37.4	20.9	0.00e+00	0	38	0	1294991360	43	3980
2026-01-23 16:24:56.30	277.20	13.18	-36.6	-37.5	20.8	0.00e+00	0	38	0	1302331392	43	4041
2026-01-23 16:24:57.31	277.40	13.18	-36.7	-37.6	20.7	0.00e+00	0	38	0	1309671424	43	4084
2026-01-23 16:24:58.31	277.60	13.18	-36.6	-37.5	20.7	0.00e+00	0	38	0	1317011456	43	4046
2026-01-23 16:24:59.31	277.80	13.19	-36.7	-37.6	20.6	0.00e+00	0	38	0	1324351488	43	4094
2026-01-23 16:25:00.31	278.00	13.19	-36.7	-37.7	20.6	0.00e+00	0	38	0	1331691520	43	4119
2026-01-23 16:25:01.32	278.20	13.19	-36.6	-37.6	20.7	0.00e+00	0	38	0	1339031552	43	4068
2026-01-23 16:25:02.32	278.40	13.18	-36.6	-37.6	20.7	0.00e+00	0	38	0	1346371584	43	4072
2026-01-23 16:25:03.33	278.60	13.18	-36.6	-37.5	20.7	0.00e+00	0	38	0	1353711616	43	4039
2026-01-23 16:25:04.33	278.81	13.18	-36.4	-37.4	20.9	0.00e+00	0	38	0	1360003072	43	3970
2026-01-23 16:25:05.33	279.01	13.18	-36.5	-37.4	20.8	0.00e+00	0	38	0	1367343104	43	3993
2026-01-23 16:25:06.33	279.21	13.18	-36.6	-37.5	20.7	0.00e+00	0	38	0	1374683136	43	4047
2026-01-23 16:25:07.32	279.40	13.18	-36.5	-37.4	20.8	0.00e+00	0	38	0	1382023168	43	4002
2026-01-23 16:25:08.32	279.60	13.18	-36.5	-37.5	20.8	0.00e+00	0	38	0	1389363200	43	4015
2026-01-23 16:25:09.32	279.80	13.17	-36.6	-37.6	20.7	0.00e+00	0	38	0	1396703232	43	4056
2026-01-23 16:25:10.32	280.00	13.17	-36.7	-37.6	20.7	0.00e+00	0	38	0	1404043264	43	4070
2026-01-23 16:25:11.32	280.20	13.17	-36.6	-37.5	20.7	0.00e+00	0	38	0	1411383296	43	4026
2026-01-23 16:25:12.32	280.40	13.16	-36.7	-37.6	20.6	0.00e+00	0	38	0	1418723328	43	4083
2026-01-23 16:25:13.32	280.60	13.16	-36.6	-37.6	20.7	0.00e+00	0	38	0	1425014784	43	4062
2026-01-23 16:25:14.32	280.80	13.15	-36.6	-37.5	20.7	0.00e+00	0	38	0	1432354816	43	4028
2026-01-23 16:25:15.32	281.00	13.15	-36.6	-37.6	20.7	0.00e+00	0	38	0	1439694848	43	4065
2026-01-23 16:25:16.32	281.20	13.14	-36.4	-37.4	20.8	0.00e+00	0	38	0	1447034880	43	3960
2026-01-23 16:25:17.32	281.40	13.14	-36.5	-37.4	20.8	0.00e+00	0	38	0	1454374912	43	3993
2026-01-23 16:25:18.33	281.60	13.13	-36.5	-37.4	20.8	0.00e+00	0	38	0	1461714944	43	3982
2026-01-23 16:25:19.33	281.80	13.13	-36.4	-37.3	20.9	0.00e+00	0	38	0	1469054976	43	3939
2026-01-23 16:25:20.33	282.00	13.12	-36.5	-37.4	20.8	0.00e+00	0	38	0	1476395008	43	3978
2026-01-23 16:25:21.33	282.20	13.11	-36.6	-37.5	20.7	0.00e+00	0	38	0	1482686464	43	4034
2026-01-23 16:25:22.33	282.40	13.11	-36.5	-37.5	20.7	0.00e+00	0	38	0	1490026496	43	4017
2026-01-23 16:25:23.33	282.60	13.10	-36.6	-37.6	20.6	0.00e+00	0	38	0	1497366528	43	4055
2026-01-23 16:25:24.33	282.80	13.09	-36.6	-37.5	20.7	0.00e+00	0	38	0	1504706560	43	4039
2026-01-23 16:25:25.33	282.99	13.09	-36.7	-37.6	20.6	0.00e+00	0	38	0	1512046592	43	4075
2026-01-23 16:25:26.33	283.19	13.08	-36.6	-37.5	20.7	0.00e+00	0	38	0	1519386624	43	4051
2026-01-23 16:25:27.33	283.39	13.07	-36.6	-37.5	20.7	0.00e+00	0	38	0	1526726656	43	4023
2026-01-23 16:25:28.32	283.59	13.06	-36.6	-37.6	20.6	0.00e+00	0	38	0	1534066688	43	4052
2026-01-23 16:25:29.33	283.79	13.05	-36.5	-37.5	20.7	0.00e+00	0	38	0	1541406720	43	4016
2026-01-23 16:25:30.33	283.99	13.04	-36.6	-37.5	20.6	0.00e+00	0	38	0	1547698176	43	4047
2026-01-23 16:25:31.33	284.18	13.03	-36.6	-37.6	20.5	0.00e+00	0	38	0	1555038208	43	4077
2026-01-23 16:25:32.33	284.38	13.02	-36.6	-37.6	20.5	0.00e+00	0	38	0	1562378240	43	4069
2026-01-23 16:25:33.34	284.58	13.01	-36.6	-37.5	20.6	0.00e+00	0	38	0	1569718272	43	4050
2026-01-23 16:25:34.34	284.78	13.00	-36.5	-37.5	20.7	0.00e+00	0	38	0	1577058304	43	4014
2026-01-23 16:25:35.34	284.98	12.99	-36.5	-37.4	20.7	0.00e+00	0	38	0	1584398336	43	4002
2026-01-23 16:25:36.34	285.17	12.98	-36.6	-37.6	20.5	0.00e+00	0	38	0	1591738368	43	4056
2026-01-23 16:25:37.34	285.37	12.97	-36.5	-37.4	20.6	0.00e+00	0	38	0	1599078400	43	3982
2026-01-23 16:25:38.34	285.57	12.96	-36.5	-37.4	20.6	0.00e+00	0	38	0	1606418432	43	3998
2026-01-23 16:25:39.34	285.77	12.94	-36.5	-37.4	20.6	0.00e+00	0	38	0	1612709888	43	4004
2026-01-23 16:25:40.34	285.96	12.93	-36.5	-37.4	20.7	0.00e+00	0	38	0	1620049920	43	3982
2026-01-23 16:25:41.34	286.16	12.92	-36.4	-37.3	20.7	0.00e+00	0	38	0	1627389952	43	3958
2026-01-23 16:25:42.34	286.35	12.91	-36.5	-37.5	20.6	0.00e+00	0	38	0	1634729984	43	4020
2026-01-23 16:25:43.34	286.55	12.89	-36.5	-37.4	20.6	0.00e+00	0	38	0	1642070016	43	3994
2026-01-23 16:25:44.34	286.75	12.88	-36.5	-37.4	20.6	0.00e+00	0	38	0	1649410048	43	4001
2026-01-23 16:25:45.34	286.94	12.87	-36.5	-37.5	20.6	0.00e+00	0	38	0	1656750080	43	4010
2026-01-23 16:25:46.34	287.14	12.85	-36.4	-37.4	20.6	0.00e+00	0	38	0	1664090112	43	3971
2026-01-23 16:25:47.34	287.33	12.84	-36.5	-37.4	20.6	0.00e+00	0	38	0	1670381568	43	4003
2026-01-23 16:25:48.34	287.53	12.82	-36.5	-37.4	20.6	0.00e+00	0	38	0	1677721600	43	3999
2026-01-23 16:25:49.35	287.73	12.81	-36.5	-37.4	20.6	0.00e+00	0	38	0	1685061632	43	3978
2026-01-23 16:25:50.35	287.92	12.79	-36.5	-37.4	20.6	0.00e+00	0	38	0	1692401664	43	4004
2026-01-23 16:25:51.35	288.12	12.78	-36.5	-37.4	20.6	0.00e+00	0	38	0	1699741696	43	3976
2026-01-23 16:25:52.35	288.31	12.76	-36.5	-37.4	20.6	0.00e+00	0	38	0	1707081728	43	3986
2026-01-23 16:25:53.34	288.50	12.74	-36.4	-37.3	20.6	0.00e+00	0	38	0	1714421760	43	3951
2026-01-23 16:25:54.35	288.70	12.73	-36.4	-37.3	20.7	0.00e+00	0	38	0	1721761792	43	3941
2026-01-23 16:25:55.35	288.89	12.71	-36.4	-37.3	20.6	0.00e+00	0	38	0	1729101824	43	3940
2026-01-23 16:25:56.35	289.09	12.69	-36.4	-37.3	20.6	0.00e+00	0	38	0	1735393280	43	3943
2026-01-23 16:25:57.36	289.28	12.68	-36.4	-37.3	20.6	0.00e+00	0	38	0	1742733312	43	3957
2026-01-23 16:25:58.36	289.47	12.66	-36.5	-37.4	20.4	0.00e+00	0	38	0	1750073344	43	3991
2026-01-23 16:25:59.36	289.67	12.64	-36.6	-37.5	20.4	0.00e+00	0	38	0	1757413376	43	4041
2026-01-23 16:26:00.36	289.86	12.62	-36.6	-37.6	20.3	0.00e+00	0	38	0	1764753408	43	4063
2026-01-23 16:26:01.36	290.05	12.60	-36.8	-37.7	20.2	0.00e+00	0	38	0	1772093440	43	4136
2026-01-23 16:26:02.36	290.24	12.59	-36.8	-37.8	20.1	0.00e+00	0	38	0	1779433472	43	4168
2026-01-23 16:26:03.36	290.44	12.57	-36.9	-37.9	20.0	0.00e+00	0	38	0	1786773504	43	4205
2026-01-23 16:26:04.36	290.63	12.55	-36.9	-37.9	20.1	0.00e+00	0	38	0	1794113536	43	4205
2026-01-23 16:26:05.36	290.82	12.53	-37.0	-38.0	20.0	0.00e+00	0	38	0	1800404992	43	4259
2026-01-23 16:26:06.36	291.01	12.51	-36.9	-37.9	20.1	0.00e+00	0	38	0	1807745024	43	4218
2026-01-23 16:26:07.36	291.20	12.49	-36.9	-37.9	20.1	0.00e+00	0	38	0	1815085056	43	4200
2026-01-23 16:26:08.36	291.39	12.47	-36.8	-37.8	20.2	0.00e+00	0	38	0	1822425088	43	4159
2026-01-23 16:26:09.36	291.58	12.45	-36.7	-37.7	20.3	0.00e+00	0	38	0	1829765120	43	4112
2026-01-23 16:26:10.36	291.77	12.43	-36.8	-37.8	20.2	0.00e+00	0	38	0	1837105152	43	4146
2026-01-23 16:26:11.36	291.96	12.40	-36.8	-37.7	20.2	0.00e+00	0	38	0	1844445184	43	4140
2026-01-23 16:26:12.36	292.15	12.38	-36.8	-37.8	20.2	0.00e+00	0	38	0	1851785216	43	4152
2026-01-23 16:26:13.36	292.34	12.36	-36.7	-37.7	20.3	0.00e+00	0	38	0	1858076672	43	4112
2026-01-23 16:26:14.35	292.53	12.34	-36.7	-37.7	20.3	0.00e+00	0	38	0	1865416704	43	4114
2026-01-23 16:26:15.35	292.72	12.32	-36.8	-37.7	20.2	0.00e+00	0	38	0	1872756736	43	4137
2026-01-23 16:26:16.35	292.91	12.29	-36.8	-37.8	20.2	0.00e+00	0	38	0	1880096768	43	4149
2026-01-23 16:26:17.35	293.09	12.27	-36.9	-37.8	20.2	0.00e+00	0	38	0	1887436800	43	4190
2026-01-23 16:26:18.35	293.28	12.25	-36.9	-37.9	20.1	0.00e+00	0	38	0	1894776832	43	4229
2026-01-23 16:26:19.35	293.47	12.23	-36.8	-37.8	20.1	0.00e+00	0	38	0	1902116864	43	4159
2026-01-23 16:26:20.35	293.66	12.20	-37.0	-38.0	20.0	0.00e+00	0	38	0	1909456896	43	4280
2026-01-23 16:26:21.36	293.85	12.18	-37.1	-38.1	19.9	0.00e+00	0	38	0	1916796928	43	4296
2026-01-23 16:26:22.36	294.03	12.15	-37.1	-38.1	19.9	0.00e+00	0	38	0	1923088384	43	4305
2026-01-23 16:26:23.36	294.22	12.13	-37.1	-38.1	19.9	0.00e+00	0	38	0	1930428416	43	4319
2026-01-23 16:26:24.36	294.40	12.11	-37.2	-38.2	19.8	0.00e+00	0	38	0	1937768448	43	4342
2026-01-23 16:26:25.36	294.59	12.08	-37.1	-38.1	19.9	0.00e+00	0	38	0	1945108480	43	4322
2026-01-23 16:26:26.36	294.78	12.06	-37.2	-38.2	19.8	0.00e+00	0	38	0	1952448512	43	4349
2026-01-23 16:26:27.36	294.96	12.03	-37.2	-38.1	19.8	0.00e+00	0	38	0	1959788544	43	4340
2026-01-23 16:26:28.36	295.15	12.01	-37.1	-38.1	19.9	0.00e+00	0	38	0	1967128576	43	4321
2026-01-23 16:26:29.36	295.33	11.98	-37.1	-38.1	19.9	0.00e+00	0	38	0	1974468608	43	4325
2026-01-23 16:26:30.37	295.52	11.95	-37.1	-38.1	19.8	0.00e+00	0	38	0	1981808640	43	4326
2026-01-23 16:26:31.37	295.70	11.93	-37.2	-38.2	19.8	0.00e+00	0	38	0	1989148672	43	4373
2026-01-23 16:26:32.37	295.88	11.90	-37.2	-38.2	19.8	0.00e+00	0	38	0	1996488704	43	4383
2026-01-23 16:26:33.37	296.07	11.87	-37.4	-38.4	19.7	0.00e+00	0	38	0	2002780160	44	4238
2026-01-23 16:26:34.37	296.25	11.85	-37.5	-38.5	19.7	0.00e+00	0	38	0	2010120192	44	4261
2026-01-23 16:26:35.37	296.43	11.82	-37.6	-38.6	19.6	0.00e+00	0	38	0	2017460224	44	4302
2026-01-23 16:26:36.38	296.62	11.79	-37.6	-38.7	19.5	0.00e+00	0	38	0	2024800256	44	4344
2026-01-23 16:26:37.38	296.80	11.76	-37.7	-38.7	19.5	0.00e+00	0	38	0	2032140288	44	4371
2026-01-23 16:26:38.38	296.98	11.74	-37.8	-38.9	19.3	0.00e+00	0	38	0	2039480320	45	4206
2026-01-23 16:26:39.39	297.16	11.71	-37.8	-38.8	19.4	0.00e+00	0	38	0	2046820352	45	4188
2026-01-23 16:26:40.39	297.34	11.68	-37.7	-38.7	19.5	0.00e+00	0	38	0	2054160384	45	4107
2026-01-23 16:26:41.39	297.53	11.65	-37.7	-38.8	19.4	0.00e+00	0	38	0	2061500416	45	4161
2026-01-23 16:26:42.39	297.71	11.62	-37.7	-38.7	19.5	0.00e+00	0	38	0	2067791872	45	4121
2026-01-23 16:26:43.39	297.89	11.59	-37.7	-38.7	19.5	0.00e+00	0	38	0	2075131904	45	4139
2026-01-23 16:26:44.40	298.07	11.57	-37.7	-38.7	19.5	0.00e+00	0	38	0	2082471936	45	4134
2026-01-23 16:26:45.40	298.25	11.54	-37.6	-38.7	19.5	0.00e+00	0	38	0	2089811968	45	4107
2026-01-23 16:26:46.40	298.42	11.51	-37.6	-38.6	19.6	0.00e+00	0	38	0	2097152000	45	4085
2026-01-23 16:26:47.40	298.60	11.48	-37.6	-38.6	19.6	0.00e+00	0	38	0	2104492032	45	4066
2026-01-23 16:26:48.41	298.78	11.45	-37.6	-38.6	19.6	0.00e+00	0	38	0	2111832064	45	4090
2026-01-23 16:26:49.41	298.96	11.42	-37.6	-38.6	19.6	0.00e+00	0	38	0	2119172096	45	4080
2026-01-23 16:26:50.41	299.14	11.39	-37.6	-38.6	19.6	0.00e+00	0	38	0	2126512128	45	4062
2026-01-23 16:26:51.41	299.32	11.35	-37.5	-38.5	19.6	0.00e+00	0	38	0	2132803584	45	4041
2026-01-23 16:26:52.41	299.49	11.32	-37.6	-38.6	19.5	0.00e+00	0	38	0	2140143616	45	4095
2026-01-23 16:26:53.41	299.67	11.29	-37.8	-38.8	19.4	0.00e+00	0	38	0	2147483648	45	4161
2026-01-23 16:26:54.41	299.84	11.26	-37.7	-38.7	19.4	0.00e+00	0	38	0	2154823680	45	4120
2026-01-23 16:26:55.40	300.02	11.23	-37.7	-38.8	19.4	0.00e+00	0	38	0	2162163712	45	4148
2026-01-23 16:26:56.41	300.20	11.20	-37.9	-38.9	19.3	0.00e+00	0	38	0	2169503744	45	4211
2026-01-23 16:26:57.41	300.37	11.17	-38.0	-39.0	19.1	0.00e+00	0	38	0	2176843776	45	4267
2026-01-23 16:26:58.41	300.54	11.14	-38.0	-39.0	19.1	0.00e+00	0	38	0	2184183808	45	4287
2026-01-23 16:26:59.40	300.72	11.10	-38.0	-39.0	19.1	0.00e+00	0	38	0	2190475264	45	4276
2026-01-23 16:27:00.40	300.89	11.07	-38.0	-39.0	19.2	0.00e+00	0	38	0	2197815296	45	4282
2026-01-23 16:27:01.40	301.06	11.04	-38.0	-39.1	19.1	0.00e+00	0	38	0	2205155328	45	4292
2026-01-23 16:27:02.40	301.24	11.01	-38.1	-39.1	19.1	0.00e+00	0	38	0	2212495360	45	4336
2026-01-23 16:27:03.41	301.41	10.97	-38.1	-39.1	19.1	0.00e+00	0	38	0	2219835392	45	4318
2026-01-23 16:27:04.41	301.58	10.94	-38.1	-39.1	19.1	0.00e+00	0	38	0	2227175424	45	4333
2026-01-23 16:27:05.41	301.76	10.91	-38.1	-39.2	19.1	0.00e+00	0	38	0	2234515456	45	4341
2026-01-23 16:27:06.41	301.93	10.87	-38.1	-39.1	19.1	0.00e+00	0	38	0	2241855488	45	4339
2026-01-23 16:27:07.41	302.10	10.84	-38.2	-39.2	19.0	0.00e+00	0	38	0	2249195520	45	4366
2026-01-23 16:27:08.41	302.27	10.80	-38.3	-39.4	18.9	0.00e+00	0	38	0	2255486976	45	4446
2026-01-23 16:27:09.41	302.44	10.77	-38.1	-39.2	19.1	0.00e+00	0	38	0	2262827008	46	4117
2026-01-23 16:27:10.41	302.61	10.74	-38.3	-39.4	18.9	0.00e+00	0	38	0	2270167040	46	4208
2026-01-23 16:27:11.41	302.78	10.70	-38.2	-39.3	18.9	0.00e+00	0	38	0	2277507072	46	4179
2026-01-23 16:27:12.41	302.95	10.67	-38.2	-39.3	19.0	0.00e+00	0	38	0	2284847104	46	4152
2026-01-23 16:27:13.41	303.12	10.63	-38.2	-39.2	19.0	0.00e+00	0	38	0	2292187136	46	4127
2026-01-23 16:27:14.41	303.28	10.60	-38.1	-39.2	19.1	0.00e+00	0	38	0	2299527168	46	4119
2026-01-23 16:27:15.42	303.45	10.56	-38.1	-39.2	19.0	0.00e+00	0	38	0	2306867200	46	4110
2026-01-23 16:27:16.42	303.62	10.53	-38.2	-39.2	19.0	0.00e+00	0	38	0	2314207232	46	4145
2026-01-23 16:27:17.42	303.79	10.49	-38.1	-39.2	19.1	0.00e+00	0	38	0	2321547264	46	4107
2026-01-23 16:27:18.42	303.96	10.46	-38.1	-39.1	19.1	0.00e+00	0	38	0	2328887296	46	4078
2026-01-23 16:27:19.42	304.12	10.42	-38.1	-39.1	19.1	0.00e+00	0	38	0	2336227328	46	4081
2026-01-23 16:27:20.42	304.29	10.39	-38.1	-39.2	19.1	0.00e+00	0	38	0	2342518784	46	4117
2026-01-23 16:27:21.42	304.45	10.35	-38.2	-39.3	19.0	0.00e+00	0	38	0	2349858816	46	4148
2026-01-23 16:27:22.42	304.62	10.31	-38.2	-39.3	18.9	0.00e+00	0	38	0	2357198848	46	4155
2026-01-23 16:27:23.42	304.78	10.28	-38.2	-39.3	19.0	0.00e+00	0	38	0	2364538880	46	4158
2026-01-23 16:27:24.42	304.95	10.24	-38.3	-39.3	19.0	0.00e+00	0	38	0	2371878912	46	4175
2026-01-23 16:27:25.42	305.11	10.20	-38.4	-39.4	18.9	0.00e+00	0	38	0	2379218944	46	4238
2026-01-23 16:27:26.42	305.28	10.17	-38.4	-39.5	18.8	0.00e+00	0	38	0	2386558976	46	4276
2026-01-23 16:27:27.42	305.44	10.13	-38.5	-39.6	18.7	0.00e+00	0	38	0	2393899008	46	4305
2026-01-23 16:27:28.42	305.60	10.09	-38.6	-39.6	18.7	0.00e+00	0	38	0	2400190464	46	4337
2026-01-23 16:27:29.42	305.76	10.06	-38.7	-39.8	18.6	0.00e+00	0	38	0	2407530496	46	4392
2026-01-23 16:27:30.42	305.93	10.02	-38.6	-39.7	18.6	0.00e+00	0	38	0	2414870528	46	4356
2026-01-23 16:27:31.42	306.09	9.98	-38.5	-39.7	18.7	0.00e+00	0	38	0	2422210560	46	4342
2026-01-23 16:27:32.42	306.25	9.94	-38.5	-39.6	18.7	0.00e+00	0	38	0	2429550592	46	4327
2026-01-23 16:27:33.42	306.41	9.91	-38.5	-39.6	18.7	0.00e+00	0	38	0	2436890624	46	4306
2026-01-23 16:27:34.43	306.57	9.87	-38.5	-39.6	18.8	0.00e+00	0	38	0	2444230656	46	4299
2026-01-23 16:27:35.42	306.73	9.83	-38.4	-39.5	18.8	0.00e+00	0	38	0	2451570688	46	4277
2026-01-23 16:27:36.42	306.89	9.79	-38.5	-39.5	18.8	0.00e+00	0	38	0	2458910720	46	4281
2026-01-23 16:27:37.43	307.05	9.75	-38.5	-39.6	18.8	0.00e+00	0	38	0	2465202176	46	4308
2026-01-23 16:27:38.43	307.21	9.71	-38.5	-39.6	18.7	0.00e+00	0	38	0	2472542208	46	4330
2026-01-23 16:27:39.43	307.37	9.68	-38.5	-39.6	18.8	0.00e+00	0	38	0	2479882240	46	4298
2026-01-23 16:27:40.43	307.52	9.64	-38.5	-39.6	18.7	0.00e+00	0	38	0	2487222272	46	4323
2026-01-23 16:27:41.43	307.68	9.60	-38.7	-39.7	18.6	0.00e+00	0	38	0	2494562304	46	4391
2026-01-23 16:27:42.43	307.84	9.56	-38.6	-39.7	18.7	0.00e+00	0	38	0	2501902336	46	4346
2026-01-23 16:27:43.42	307.99	9.52	-38.8	-39.9	18.4	0.00e+00	0	38	0	2509242368	47	4204
2026-01-23 16:27:44.42	308.15	9.48	-38.8	-39.9	18.4	0.00e+00	0	38	0	2516582400	47	4239
2026-01-23 16:27:45.43	308.31	9.44	-38.8	-40.0	18.4	0.00e+00	0	38	0	2522873856	47	4244
2026-01-23 16:27:46.43	308.46	9.40	-38.9	-40.0	18.3	0.00e+00	0	38	0	2530213888	47	4281
2026-01-23 16:27:47.43	308.62	9.36	-38.9	-40.0	18.3	0.00e+00	0	38	0	2537553920	47	4279
2026-01-23 16:27:48.43	308.77	9.32	-38.9	-40.1	18.2	0.00e+00	0	38	0	2544893952	47	4315
2026-01-23 16:27:49.44	308.93	9.28	-39.0	-40.2	18.2	0.00e+00	0	38	0	2552233984	47	4349
2026-01-23 16:27:50.44	309.08	9.24	-39.0	-40.2	18.2	0.00e+00	0	38	0	2559574016	47	4361
2026-01-23 16:27:51.44	309.24	9.20	-38.9	-40.1	18.2	0.00e+00	0	38	0	2566914048	47	4328
2026-01-23 16:27:52.44	309.39	9.16	-39.0	-40.2	18.1	0.00e+00	0	38	0	2574254080	47	4366
2026-01-23 16:27:53.44	309.54	9.12	-38.9	-40.0	18.3	0.00e+00	0	38	0	2581594112	47	4283
2026-01-23 16:27:54.44	309.69	9.08	-38.9	-40.1	18.3	0.00e+00	0	38	0	2587885568	47	4294
2026-01-23 16:27:55.44	309.84	9.04	-39.0	-40.2	18.1	0.00e+00	0	38	0	2595225600	47	4353
2026-01-23 16:27:56.44	310.00	9.00	-38.9	-40.1	18.3	0.00e+00	0	38	0	2602565632	47	4303
2026-01-23 16:27:57.44	310.15	8.96	-48.9	-59.8	3.8	8.47e-01	0	38	104	2605711360	67	13153
2026-01-23 16:27:58.43	310.30	8.92	-49.5	-60.2	3.8	8.46e-01	0	38	104	2605711360	68	13039
2026-01-23 16:27:59.43	310.45	8.88	-49.6	-60.2	3.8	8.46e-01	0	38	104	2605711360	68	13100
2026-01-23 16:28:00.43	310.60	8.84	-49.8	-60.4	3.8	8.46e-01	0	38	104	2605711360	68	13378
2026-01-23 16:28:01.42	310.74	8.80	-49.6	-60.5	3.8	8.48e-01	0	38	104	2605711360	69	12726
2026-01-23 16:28:02.42	310.89	8.76	-49.7	-60.5	3.8	8.47e-01	0	38	104	2605711360	69	12782
2026-01-23 16:28:03.42	311.04	8.72	-49.7	-60.5	3.8	8.47e-01	0	38	104	2605711360	69	12745
2026-01-23 16:28:04.41	311.19	8.67	-49.9	-60.6	3.8	8.46e-01	0	38	104	2605711360	69	12813
2026-01-23 16:28:05.41	311.34	8.63	-49.9	-60.6	3.8	8.47e-01	0	38	104	2605711360	69	12823
2026-01-23 16:28:06.40	311.48	8.59	-49.8	-60.5	3.8	8.47e-01	0	38	104	2605711360	69	12804
2026-01-23 16:28:07.40	311.63	8.55	-49.9	-60.6	3.8	8.47e-01	0	38	104	2605711360	69	12847
2026-01-23 16:28:08.40	311.77	8.51	-49.8	-60.6	3.8	8.48e-01	0	38	104	2605711360	69	12850
2026-01-23 16:28:09.39	311.92	8.47	-49.8	-60.6	3.8	8.48e-01	0	38	104	2605711360	69	12900
2026-01-23 16:28:10.39	312.06	8.43	-49.9	-60.6	3.8	8.47e-01	0	38	104	2605711360	69	12830
2026-01-23 16:28:11.38	312.21	8.38	-49.8	-60.6	3.8	8.46e-01	0	38	104	2605711360	69	12829
2026-01-23 16:28:12.38	312.35	8.34	-49.8	-60.6	3.8	8.46e-01	0	38	104	2605711360	69	12925
2026-01-23 16:28:13.38	312.50	8.30	-49.8	-60.6	3.8	8.49e-01	0	38	104	2605711360	69	12844
2026-01-23 16:28:14.37	312.64	8.26	-49.8	-60.6	3.8	8.46e-01	0	38	104	2605711360	69	12819
2026-01-23 16:28:15.36	312.78	8.22	-49.8	-60.6	3.8	8.47e-01	0	38	104	2605711360	69	12845
2026-01-23 16:28:16.36	312.93	8.17	-49.7	-60.5	3.8	8.48e-01	0	38	104	2605711360	69	12736
2026-01-23 16:28:17.35	313.07	8.13	-49.6	-60.5	3.8	8.46e-01	0	38	104	2605711360	69	12779
2026-01-23 16:28:18.35	313.21	8.09	-49.6	-60.5	3.8	8.47e-01	0	38	104	2605711360	69	12773
2026-01-23 16:28:19.34	313.35	8.05	-49.6	-60.5	3.8	8.46e-01	0	38	104	2605711360	69	12683
2026-01-23 16:28:20.34	313.49	8.00	-49.6	-60.5	3.8	8.47e-01	0	38	104	2605711360	69	12694
2026-01-23 16:28:21.34	313.63	7.96	-49.6	-60.5	3.8	8.47e-01	0	38	104	2605711360	69	12742
2026-01-23 16:28:22.33	313.77	7.92	-49.6	-60.5	3.8	8.47e-01	0	38	104	2605711360	69	12725
2026-01-23 16:28:23.33	313.91	7.88	-49.6	-60.5	3.8	8.47e-01	0	38	104	2605711360	69	12707
2026-01-23 16:28:24.33	314.05	7.83	-49.6	-60.5	3.8	8.48e-01	0	38	104	2605711360	69	12739
2026-01-23 16:28:25.32	314.19	7.79	-49.6	-60.4	3.8	8.48e-01	0	38	104	2605711360	69	12654
2026-01-23 16:28:26.32	314.33	7.75	-49.6	-60.5	3.8	8.47e-01	0	38	104	2605711360	69	12731
2026-01-23 16:28:27.32	314.47	7.70	-49.6	-60.5	3.8	8.46e-01	0	38	104	2605711360	69	12681
2026-01-23 16:28:28.31	314.61	7.66	-49.6	-60.4	3.8	8.47e-01	0	38	104	2605711360	69	12622
2026-01-23 16:28:29.31	314.74	7.62	-49.6	-60.4	3.8	8.46e-01	0	38	104	2605711360	69	12629
2026-01-23 16:28:30.30	314.88	7.57	-49.6	-60.4	3.8	8.46e-01	0	38	104	2605711360	69	12652
2026-01-23 16:28:31.30	315.02	7.53	-49.6	-60.5	3.8	8.47e-01	0	38	104	2605711360	69	12763
2026-01-23 16:28:32.29	315.15	7.49	-49.6	-60.4	3.8	8.47e-01	0	38	104	2605711360	69	12598
2026-01-23 16:28:33.29	315.29	7.44	-49.6	-60.5	3.8	8.48e-01	0	38	104	2605711360	69	12682
2026-01-23 16:28:34.29	315.43	7.40	-49.6	-60.5	3.8	8.46e-01	0	38	104	2605711360	69	12697
2026-01-23 16:28:35.28	315.56	7.36	-49.6	-60.5	3.8	8.47e-01	0	38	104	2605711360	69	12736
2026-01-23 16:28:36.28	315.70	7.31	-49.6	-60.4	3.8	8.47e-01	0	38	104	2605711360	69	12658
2026-01-23 16:28:37.28	315.83	7.27	-49.6	-60.4	3.8	8.48e-01	0	38	104	2605711360	69	12637
2026-01-23 16:28:38.27	315.96	7.23	-49.6	-60.4	3.8	8.46e-01	0	38	104	2605711360	69	12649
2026-01-23 16:28:39.27	316.10	7.18	-49.5	-60.4	3.8	8.47e-01	0	38	104	2605711360	69	12580
2026-01-23 16:28:40.26	316.23	7.14	-49.5	-60.4	3.8	8.47e-01	0	38	104	2605711360	69	12647
2026-01-23 16:28:41.25	316.36	7.10	-49.6	-60.5	3.8	8.46e-01	0	38	104	2605711360	69	12689
2026-01-23 16:28:42.25	316.50	7.05	-49.5	-60.4	3.8	8.47e-01	0	38	104	2605711360	69	12654
2026-01-23 16:28:43.25	316.63	7.01	-49.5	-60.4	3.8	8.46e-01	0	38	104	2605711360	69	12579
2026-01-23 16:28:44.24	316.76	6.96	-49.5	-60.4	3.8	8.47e-01	0	38	104	2605711360	69	12628
2026-01-23 16:28:45.24	316.89	6.92	-49.5	-60.4	3.8	8.47e-01	0	38	104	2605711360	69	12593
2026-01-23 16:28:46.24	317.02	6.88	-49.5	-60.5	3.8	8.46e-01	0	38	104	2605711360	69	12703
2026-01-23 16:28:47.23	317.15	6.83	-49.5	-60.4	3.8	8.47e-01	0	38	104	2605711360	69	12661
2026-01-23 16:28:48.23	317.28	6.79	-49.5	-60.4	3.8	8.47e-01	0	38	104	2605711360	69	12614
2026-01-23 16:28:49.22	317.41	6.74	-49.5	-60.4	3.8	8.46e-01	0	38	104	2605711360	69	12620
2026-01-23 16:28:50.22	317.54	6.70	-49.5	-60.5	3.8	8.48e-01	0	38	104	2605711360	69	12678
2026-01-23 16:28:51.21	317.67	6.65	-49.5	-60.4	3.8	8.47e-01	0	38	104	2605711360	69	12616
2026-01-23 16:28:52.21	317.80	6.61	-49.5	-60.4	3.8	8.47e-01	0	38	104	2605711360	69	12645
2026-01-23 16:28:53.20	317.93	6.57	-49.5	-60.4	3.8	8.47e-01	0	38	104	2605711360	69	12645
2026-01-23 16:28:54.20	318.05	6.52	-49.5	-60.4	3.8	8.48e-01	0	38	104	2605711360	69	12650
2026-01-23 16:28:55.19	318.18	6.48	-49.5	-60.4	3.8	8.46e-01	0	38	104	2605711360	69	12577
2026-01-23 16:28:56.19	318.31	6.43	-49.5	-60.5	3.8	8.47e-01	0	38	104	2605711360	69	12705
2026-01-23 16:28:57.18	318.43	6.39	-49.5	-60.5	3.8	8.47e-01	0	38	104	2605711360	69	12708
2026-01-23 16:28:58.18	318.56	6.34	-49.5	-60.4	3.8	8.47e-01	0	38	104	2605711360	69	12663
2026-01-23 16:28:59.17	318.69	6.30	-49.5	-60.4	3.8	8.47e-01	0	38	104	2605711360	69	12639
2026-01-23 16:29:00.17	318.81	6.25	-49.5	-60.5	3.8	8.47e-01	0	38	104	2605711360	69	12670
2026-01-23 16:29:01.17	318.94	6.21	-49.5	-60.5	3.8	8.46e-01	0	38	104	2605711360	69	12674
2026-01-23 16:29:02.17	319.06	6.16	-49.5	-60.4	3.8	8.48e-01	0	38	104	2605711360	69	12572
2026-01-23 16:29:03.16	319.19	6.12	-49.5	-60.4	3.8	8.47e-01	0	38	104	2605711360	69	12600
2026-01-23 16:29:04.16	319.31	6.07	-49.5	-60.4	3.8	8.47e-01	0	38	104	2605711360	69	12606
2026-01-23 16:29:05.15	319.43	6.03	-49.5	-60.5	3.8	8.48e-01	0	38	104	2605711360	69	12668
2026-01-23 16:29:06.15	319.56	5.98	-49.5	-60.4	3.8	8.47e-01	0	38	104	2605711360	69	12649
2026-01-23 16:29:07.15	319.68	5.94	-49.5	-60.4	3.8	8.47e-01	0	38	104	2605711360	69	12624
2026-01-23 16:29:08.14	319.80	5.90	-49.5	-60.4	3.8	8.47e-01	0	38	104	2605711360	69	12609
2026-01-23 16:29:09.14	319.93	5.85	-49.5	-60.4	3.8	8.46e-01	0	38	104	2605711360	69	12563
2026-01-23 16:29:10.14	320.05	5.80	-49.5	-60.4	3.8	8.47e-01	0	38	104	2605711360	69	12582
2026-01-23 16:29:11.13	320.17	5.76	-49.5	-60.4	3.8	8.47e-01	0	38	104	2605711360	69	12588
2026-01-23 16:29:12.13	320.29	5.71	-49.5	-60.4	3.8	8.46e-01	0	38	104	2605711360	69	12641
2026-01-23 16:29:13.12	320.41	5.67	-49.5	-60.4	3.8	8.47e-01	0	38	104	2605711360	69	12616
2026-01-23 16:29:14.12	320.53	5.62	-49.5	-60.4	3.8	8.46e-01	0	38	104	2605711360	69	12613
2026-01-23 16:29:15.11	320.65	5.58	-49.5	-60.4	3.8	8.47e-01	0	38	104	2605711360	69	12562
2026-01-23 16:29:16.11	320.77	5.53	-49.5	-60.4	3.8	8.46e-01	0	38	104	2605711360	69	12583
2026-01-23 16:29:17.11	320.89	5.49	-49.5	-60.4	3.8	8.47e-01	0	38	104	2605711360	69	12595
2026-01-23 16:29:18.10	321.01	5.44	-49.5	-60.4	3.8	8.47e-01	0	38	104	2605711360	69	12599
2026-01-23 16:29:19.10	321.13	5.40	-49.5	-60.4	3.8	8.47e-01	0	38	104	2605711360	69	12597
2026-01-23 16:29:20.09	321.25	5.35	-49.5	-60.5	3.8	8.45e-01	0	38	104	2605711360	69	12689
2026-01-23 16:29:21.09	321.37	5.31	-49.5	-60.4	3.8	8.47e-01	0	38	104	2605711360	69	12652
2026-01-23 16:29:22.09	321.48	5.26	-49.5	-60.4	3.8	8.46e-01	0	38	104	2605711360	69	12632
2026-01-23 16:29:23.08	321.60	5.22	-49.5	-60.4	3.8	8.48e-01	0	38	104	2605711360	69	12572
2026-01-23 16:29:24.08	321.72	5.17	-49.5	-60.4	3.8	8.47e-01	0	38	104	2605711360	69	12612
2026-01-23 16:29:25.07	321.83	5.13	-49.5	-60.4	3.8	8.47e-01	0	38	104	2605711360	69	12628
2026-01-23 16:29:26.07	321.95	5.08	-49.5	-60.4	3.8	8.47e-01	0	38	104	2605711360	69	12615
2026-01-23 16:29:27.06	322.07	5.04	-49.5	-60.4	3.8	8.46e-01	0	38	104	2605711360	69	12657
2026-01-23 16:29:28.06	322.18	4.99	-49.5	-60.4	3.8	8.46e-01	0	38	104	2605711360	69	12622

#Closed at: 2026-01-23 16:29:29
#Recorded file [2605 MB]: D:/Data/31040_260123_192036.dat