passes_logs/2026/01/23/T1/T1__20260123_020624_SUOMI_NPP_rec.log

#Pass ID: 20260123_020624_SUOMI NPP
#Satellite: SUOMI NPP
#Configuration: NPP
#almurnet v.1.7.20251203
#Start time: 2026-01-23 02:06:24

#Version: 2.0.20230620
#Station: T1
#Location: 37.570604 lon 55.790049 lat
#TLE: 1 37849U 11061A   26022.50498765  .00000208  00000+0  11976-3 0  9992
#TLE: 2 37849  98.7820 324.4892 0002275  50.8149 309.3229 14.19528284737775

#Time	Az	El	Level	Level2	SNR	BER	BlckErr	Temp	State	Recorded	gain1	gain2
2026-01-23 02:06:24.98	2.68	5.03	-48.1	-64.7	3.8	1.49e+00	0	35	0	0	68	23496
2026-01-23 02:06:25.97	2.58	5.08	-44.9	-64.3	3.8	1.49e+00	0	35	104	0	61	33594
2026-01-23 02:06:26.96	2.47	5.13	-45.0	-64.4	3.8	1.49e+00	0	35	104	0	61	33771
2026-01-23 02:06:27.95	2.36	5.18	-45.0	-64.3	3.8	1.49e+00	0	35	104	0	61	33554
2026-01-23 02:06:28.95	2.25	5.23	-45.0	-64.4	3.8	1.49e+00	0	35	104	0	61	33699
2026-01-23 02:06:29.94	2.15	5.28	-45.0	-64.3	3.8	1.49e+00	0	35	104	0	61	33664
2026-01-23 02:06:30.93	2.04	5.33	-45.0	-64.3	3.8	1.49e+00	0	35	104	0	61	33495
2026-01-23 02:06:31.93	1.93	5.38	-44.9	-64.3	3.8	1.49e+00	0	35	104	0	61	33608
2026-01-23 02:06:32.92	1.82	5.43	-45.0	-64.3	3.8	1.49e+00	0	35	104	0	61	33637
2026-01-23 02:06:33.91	1.71	5.48	-45.0	-64.3	3.8	1.49e+00	0	35	104	0	61	33621
2026-01-23 02:06:34.91	1.60	5.53	-45.0	-64.3	3.8	1.49e+00	0	35	104	0	61	33647
2026-01-23 02:06:35.90	1.49	5.58	-45.0	-64.3	3.8	1.49e+00	0	35	104	0	61	33577
2026-01-23 02:06:36.89	1.38	5.63	-45.0	-64.3	3.8	1.49e+00	0	35	104	0	61	33579
2026-01-23 02:06:37.89	1.27	5.68	-45.0	-64.3	3.8	1.49e+00	0	35	104	0	61	33551
2026-01-23 02:06:38.88	1.16	5.73	-45.0	-64.3	3.8	1.49e+00	0	35	104	0	61	33403
2026-01-23 02:06:39.87	1.05	5.78	-45.0	-64.3	3.8	1.49e+00	0	35	104	0	61	33506
2026-01-23 02:06:40.87	0.93	5.83	-45.0	-64.3	3.8	1.49e+00	0	36	104	0	61	33413
2026-01-23 02:06:41.86	0.82	5.88	-45.0	-64.3	3.8	1.49e+00	0	36	104	0	61	33460
2026-01-23 02:06:42.85	0.71	5.93	-45.0	-64.3	3.8	1.49e+00	0	35	104	0	61	33493
2026-01-23 02:06:43.84	0.59	5.98	-45.0	-64.3	3.8	1.49e+00	0	36	104	0	61	33472
2026-01-23 02:06:44.84	0.48	6.03	-45.0	-64.3	3.8	1.49e+00	0	36	104	0	61	33524
2026-01-23 02:06:45.83	0.37	6.08	-45.0	-64.3	3.8	1.49e+00	0	36	104	0	61	33580
2026-01-23 02:06:46.82	0.25	6.13	-45.0	-64.3	3.8	1.49e+00	0	36	104	0	61	33664
2026-01-23 02:06:47.82	0.14	6.18	-44.9	-64.4	3.8	1.49e+00	0	36	104	0	61	33774
2026-01-23 02:06:48.81	0.02	6.23	-45.0	-64.3	3.8	1.49e+00	0	36	104	0	61	33556
2026-01-23 02:06:49.80	359.90	6.28	-45.0	-64.4	3.8	1.49e+00	0	36	104	0	61	33698
2026-01-23 02:06:50.80	359.79	6.33	-45.0	-64.3	3.8	1.49e+00	0	36	104	0	61	33555
2026-01-23 02:06:51.79	359.67	6.38	-45.0	-64.3	3.8	1.49e+00	0	36	104	0	61	33680
2026-01-23 02:06:52.79	359.55	6.43	-45.0	-64.3	3.8	1.49e+00	0	36	104	0	61	33651
2026-01-23 02:06:53.78	359.44	6.48	-45.1	-64.3	3.8	1.49e+00	0	36	104	0	61	33651
2026-01-23 02:06:54.77	359.32	6.53	-45.1	-64.3	3.8	1.49e+00	0	36	104	0	61	33630
2026-01-23 02:06:55.77	359.20	6.58	-45.0	-64.3	3.8	1.49e+00	0	36	104	0	61	33601
2026-01-23 02:06:56.76	359.08	6.62	-45.0	-64.3	3.8	1.49e+00	0	36	104	0	61	33570
2026-01-23 02:06:57.75	358.96	6.67	-45.0	-64.3	3.8	1.49e+00	0	36	104	0	61	33572
2026-01-23 02:06:58.75	358.84	6.72	-45.0	-64.3	3.8	1.49e+00	0	36	104	0	61	33555
2026-01-23 02:06:59.74	358.72	6.77	-45.0	-64.3	3.8	1.49e+00	0	36	104	0	61	33506
2026-01-23 02:07:00.73	358.60	6.82	-45.0	-64.3	3.8	1.49e+00	0	36	104	0	61	33541
2026-01-23 02:07:01.72	358.48	6.87	-45.0	-64.3	3.8	1.49e+00	0	36	104	0	61	33362
2026-01-23 02:07:02.72	358.36	6.92	-45.0	-64.3	3.8	1.49e+00	0	36	104	0	61	33413
2026-01-23 02:07:03.71	358.24	6.97	-45.0	-64.3	3.8	1.49e+00	0	36	104	0	61	33321
2026-01-23 02:07:04.70	358.12	7.02	-45.0	-64.3	3.8	1.49e+00	0	36	104	0	61	33372
2026-01-23 02:07:05.70	357.99	7.07	-45.1	-64.3	3.8	1.49e+00	0	36	104	0	61	33527
2026-01-23 02:07:06.69	357.87	7.12	-45.1	-64.3	3.8	1.49e+00	0	36	104	0	61	33549
2026-01-23 02:07:07.69	357.75	7.17	-45.1	-64.3	3.8	1.49e+00	0	36	104	0	61	33663
2026-01-23 02:07:08.68	357.62	7.22	-45.1	-64.3	3.8	1.49e+00	0	36	104	0	61	33643
2026-01-23 02:07:09.67	357.50	7.27	-45.1	-64.3	3.8	1.49e+00	0	36	104	0	61	33679
2026-01-23 02:07:10.66	357.37	7.32	-45.1	-64.3	3.8	1.49e+00	0	36	104	0	61	33524
2026-01-23 02:07:11.66	357.25	7.37	-45.1	-64.3	3.8	1.49e+00	0	37	104	0	61	33630
2026-01-23 02:07:12.65	357.12	7.41	-45.1	-64.3	3.8	1.49e+00	0	36	104	0	61	33635
2026-01-23 02:07:13.65	357.00	7.46	-45.1	-64.3	3.8	1.49e+00	0	36	104	0	61	33625
2026-01-23 02:07:14.64	356.87	7.51	-45.1	-64.3	3.8	1.49e+00	0	36	104	0	61	33647
2026-01-23 02:07:15.63	356.74	7.56	-45.1	-64.3	3.8	1.49e+00	0	36	104	0	61	33691
2026-01-23 02:07:16.63	356.61	7.61	-45.1	-64.3	3.8	1.49e+00	0	37	104	0	61	33471
2026-01-23 02:07:17.62	356.49	7.66	-45.1	-64.3	3.8	1.49e+00	0	36	104	0	61	33443
2026-01-23 02:07:18.61	356.36	7.71	-45.1	-64.2	3.8	1.49e+00	0	36	104	0	61	33196
2026-01-23 02:07:19.61	356.23	7.76	-45.1	-64.2	3.8	1.49e+00	0	36	104	0	61	33106
2026-01-23 02:07:20.60	356.10	7.81	-45.1	-64.2	3.8	1.49e+00	0	37	104	0	61	33061
2026-01-23 02:07:21.59	355.97	7.85	-45.1	-64.2	3.8	1.49e+00	0	36	104	0	61	33106
2026-01-23 02:07:22.59	355.84	7.90	-45.1	-64.2	3.8	1.49e+00	0	36	104	0	61	33215
2026-01-23 02:07:23.58	355.71	7.95	-45.1	-64.2	3.8	1.49e+00	0	37	104	0	61	33300
2026-01-23 02:07:24.57	355.58	8.00	-45.0	-64.2	3.8	1.49e+00	0	37	104	0	61	33095
2026-01-23 02:07:25.57	355.45	8.05	-45.0	-64.2	3.8	1.49e+00	0	37	104	0	61	33082
2026-01-23 02:07:26.56	355.32	8.10	-45.0	-64.2	3.8	1.49e+00	0	37	104	0	61	33207
2026-01-23 02:07:27.55	355.18	8.15	-45.1	-64.2	3.8	1.49e+00	0	37	104	0	61	33300
2026-01-23 02:07:28.55	355.05	8.19	-45.1	-64.2	3.8	1.49e+00	0	37	104	0	61	33145
2026-01-23 02:07:29.54	354.92	8.24	-45.1	-64.1	3.8	1.49e+00	0	37	104	0	61	32722
2026-01-23 02:07:30.53	354.79	8.29	-45.1	-63.9	3.8	1.49e+00	0	37	104	0	61	31852
2026-01-23 02:07:31.53	354.65	8.34	-45.1	-63.5	3.8	1.49e+00	0	37	104	0	61	30717
2026-01-23 02:07:32.52	354.52	8.39	-45.1	-63.2	3.8	1.49e+00	0	37	104	0	61	29679
2026-01-23 02:07:33.51	354.38	8.44	-45.1	-63.0	3.8	1.49e+00	0	37	104	0	61	28791
2026-01-23 02:07:34.51	354.25	8.48	-45.1	-62.9	3.8	1.49e+00	0	37	104	0	61	28355
2026-01-23 02:07:35.50	354.11	8.53	-45.0	-62.6	3.8	1.49e+00	0	37	104	0	61	27659
2026-01-23 02:07:36.50	353.97	8.58	-45.0	-62.5	3.8	1.49e+00	0	37	104	0	61	27253
2026-01-23 02:07:37.49	353.84	8.63	-45.0	-62.2	3.8	1.49e+00	0	37	104	0	61	26237
2026-01-23 02:07:38.48	353.70	8.68	-45.0	-61.7	4.0	1.47e+00	0	37	104	0	61	24695
2026-01-23 02:07:39.48	353.56	8.72	-45.0	-60.9	4.1	1.47e+00	0	37	104	0	61	22635
2026-01-23 02:07:40.47	353.42	8.77	-45.0	-59.9	4.5	1.32e+00	0	37	0	0	61	20162
2026-01-23 02:07:41.46	353.28	8.82	-44.9	-58.3	5.3	8.57e-01	0	37	0	2097152	61	16735
2026-01-23 02:07:42.46	353.14	8.87	-44.7	-56.5	6.5	3.04e-01	0	37	0	4194304	61	13646
2026-01-23 02:07:43.45	353.01	8.91	-44.5	-54.6	8.3	1.04e-01	0	37	0	6291456	61	11010
2026-01-23 02:07:44.44	352.87	8.96	-44.3	-53.2	9.7	2.83e-02	0	37	0	7340032	60	9879
2026-01-23 02:07:45.44	352.72	9.01	-44.2	-51.8	11.2	2.53e-03	0	37	0	9437184	59	8934
2026-01-23 02:07:46.43	352.58	9.06	-44.0	-51.2	11.7	4.71e-04	0	37	0	11534336	59	8303
2026-01-23 02:07:47.55	352.42	9.11	-44.9	-55.1	8.1	7.41e-04	0	37	0	13631488	60	12308
2026-01-23 02:07:48.40	352.30	9.15	-44.6	-53.5	9.1	4.38e-01	0	37	0	14680064	61	9714
2026-01-23 02:07:49.54	352.14	9.20	-44.3	-51.2	11.9	1.44e-05	0	37	0	17825792	59	8311
2026-01-23 02:07:50.39	352.02	9.24	-44.1	-50.5	12.4	1.24e-02	0	37	0	18874368	59	7656
2026-01-23 02:07:51.53	351.85	9.30	-43.4	-48.5	14.6	1.50e-06	0	37	0	20971520	58	6422
2026-01-23 02:07:52.38	351.73	9.34	-43.2	-48.2	14.8	0.00e+00	0	37	0	23068672	58	6213
2026-01-23 02:07:53.52	351.56	9.39	-43.1	-48.1	14.9	0.00e+00	0	37	0	25165824	58	6141
2026-01-23 02:07:54.37	351.44	9.43	-43.1	-48.0	14.9	0.00e+00	0	37	0	26214400	58	6131
2026-01-23 02:07:55.51	351.27	9.48	-43.3	-48.2	14.8	7.00e-07	0	37	0	28311552	58	6239
2026-01-23 02:07:56.36	351.15	9.52	-43.3	-48.2	14.8	7.00e-07	0	37	0	30408704	58	6205
2026-01-23 02:07:57.50	350.98	9.58	-43.3	-47.7	15.3	0.00e+00	0	37	0	32505856	58	5913
2026-01-23 02:07:58.35	350.85	9.62	-43.3	-47.7	15.3	0.00e+00	0	37	0	33554432	58	5889
2026-01-23 02:07:59.49	350.69	9.67	-43.2	-47.2	15.8	0.00e+00	0	37	0	35651584	58	5534
2026-01-23 02:08:00.34	350.56	9.71	-43.1	-46.9	16.1	0.00e+00	0	37	0	37748736	58	5372
2026-01-23 02:08:01.48	350.39	9.76	-43.0	-46.8	16.1	0.00e+00	0	37	0	39845888	57	5655
2026-01-23 02:08:02.33	350.26	9.80	-42.7	-46.5	16.5	0.00e+00	0	37	0	40894464	57	5405
2026-01-23 02:08:03.47	350.09	9.85	-42.8	-46.7	16.3	0.00e+00	0	37	0	42991616	57	5571
2026-01-23 02:08:04.32	349.96	9.89	-42.8	-46.8	16.2	0.00e+00	0	37	0	45088768	57	5618
2026-01-23 02:08:05.46	349.79	9.94	-42.7	-47.1	15.9	0.00e+00	0	37	0	47185920	57	5802
2026-01-23 02:08:06.31	349.66	9.98	-42.5	-47.2	15.8	0.00e+00	0	37	0	48234496	57	5921
2026-01-23 02:08:07.67	349.45	10.04	-42.2	-47.0	16.0	0.00e+00	0	37	0	51380224	56	6113
2026-01-23 02:08:08.38	349.35	10.08	-42.1	-46.7	16.2	0.00e+00	0	37	0	52428800	56	5899
2026-01-23 02:08:09.66	349.15	10.13	-42.0	-46.5	16.4	0.00e+00	0	37	0	54525952	56	5741
2026-01-23 02:08:10.40	349.04	10.17	-41.7	-46.0	16.7	0.00e+00	0	37	0	56623104	55	5752
2026-01-23 02:08:11.68	348.84	10.23	-41.7	-45.8	16.9	0.00e+00	0	37	0	58720256	55	5650
2026-01-23 02:08:12.42	348.73	10.26	-41.7	-45.8	17.0	0.00e+00	0	37	0	59768832	55	5602
2026-01-23 02:08:13.70	348.53	10.32	-41.7	-45.7	17.0	0.00e+00	0	37	0	62914560	55	5588
2026-01-23 02:08:14.41	348.42	10.35	-41.9	-45.9	16.9	0.00e+00	0	37	0	63963136	55	5669
2026-01-23 02:08:15.70	348.21	10.41	-42.0	-46.1	16.7	0.00e+00	0	37	0	66060288	55	5811
2026-01-23 02:08:16.42	348.10	10.44	-42.1	-46.2	16.5	0.00e+00	0	37	0	68157440	55	5918
2026-01-23 02:08:17.70	347.90	10.49	-42.1	-46.4	16.2	0.00e+00	0	37	0	70254592	55	6009
2026-01-23 02:08:18.57	347.76	10.53	-42.1	-46.5	16.3	0.00e+00	0	37	0	71303168	55	6075
2026-01-23 02:08:19.70	347.59	10.58	-42.0	-46.4	16.4	0.00e+00	0	37	0	73400320	55	6022
2026-01-23 02:08:20.79	347.41	10.63	-41.9	-46.2	16.6	0.00e+00	0	37	0	75497472	55	5898
2026-01-23 02:08:21.82	347.25	10.68	-41.9	-46.3	16.5	0.00e+00	0	37	0	77594624	55	5938
2026-01-23 02:08:22.81	347.09	10.72	-41.9	-46.2	16.6	0.00e+00	0	37	0	79691776	55	5857
2026-01-23 02:08:23.81	346.93	10.76	-42.2	-46.5	16.4	0.00e+00	0	37	0	81788928	55	6076
2026-01-23 02:08:24.80	346.77	10.81	-42.3	-46.4	16.4	0.00e+00	0	37	0	83886080	55	6022
2026-01-23 02:08:25.80	346.61	10.85	-42.3	-46.3	16.5	0.00e+00	0	37	0	84934656	55	5952
2026-01-23 02:08:26.79	346.45	10.89	-42.2	-46.2	16.6	0.00e+00	0	37	0	87031808	55	5903
2026-01-23 02:08:27.79	346.29	10.93	-42.2	-46.2	16.6	0.00e+00	0	37	0	89128960	55	5895
2026-01-23 02:08:28.78	346.13	10.98	-42.0	-45.9	16.9	0.00e+00	0	37	0	91226112	55	5685
2026-01-23 02:08:29.77	345.97	11.02	-41.8	-45.7	17.1	0.00e+00	0	37	0	92274688	55	5541
2026-01-23 02:08:30.77	345.80	11.06	-41.7	-45.4	17.4	0.00e+00	0	37	0	94371840	55	5348
2026-01-23 02:08:31.76	345.64	11.10	-41.5	-45.1	17.7	0.00e+00	0	37	0	96468992	54	5492
2026-01-23 02:08:32.76	345.48	11.15	-41.4	-44.8	17.9	0.00e+00	0	37	0	98566144	54	5338
2026-01-23 02:08:33.85	345.30	11.19	-41.6	-44.9	17.8	0.00e+00	0	37	0	100663296	54	5383
2026-01-23 02:08:34.73	345.15	11.23	-41.7	-45.0	17.8	0.00e+00	0	37	0	101711872	54	5433
2026-01-23 02:08:35.87	344.96	11.28	-42.0	-45.2	17.6	0.00e+00	0	37	0	103809024	54	5577
2026-01-23 02:08:36.72	344.82	11.31	-42.0	-45.2	17.5	0.00e+00	0	37	0	105906176	54	5588
2026-01-23 02:08:37.86	344.63	11.36	-42.2	-45.5	17.3	0.00e+00	0	37	0	108003328	55	5420
2026-01-23 02:08:38.71	344.49	11.39	-42.3	-45.6	17.2	0.00e+00	0	37	0	109051904	55	5467
2026-01-23 02:08:39.85	344.30	11.44	-42.3	-45.6	17.2	0.00e+00	0	37	0	111149056	55	5518
2026-01-23 02:08:40.70	344.15	11.47	-42.1	-45.4	17.4	0.00e+00	0	37	0	113246208	55	5376
2026-01-23 02:08:41.84	343.96	11.52	-42.2	-45.5	17.3	0.00e+00	0	37	0	115343360	55	5413
2026-01-23 02:08:42.70	343.82	11.56	-41.9	-45.2	17.6	0.00e+00	0	37	0	117440512	55	5230
2026-01-23 02:08:43.83	343.63	11.60	-41.8	-44.9	17.8	0.00e+00	0	37	0	119537664	55	5097
2026-01-23 02:08:44.69	343.48	11.64	-41.8	-44.9	17.8	0.00e+00	0	37	0	120586240	55	5096
2026-01-23 02:08:45.87	343.28	11.68	-41.9	-45.2	17.6	0.00e+00	0	38	0	122683392	55	5226
2026-01-23 02:08:46.73	343.13	11.72	-42.0	-45.3	17.6	0.00e+00	0	37	0	124780544	55	5285
2026-01-23 02:08:47.87	342.93	11.76	-41.8	-44.9	17.8	0.00e+00	0	37	0	126877696	55	5073
2026-01-23 02:08:48.72	342.79	11.80	-41.8	-44.9	17.9	0.00e+00	0	37	0	127926272	55	5052
2026-01-23 02:08:49.86	342.59	11.84	-41.7	-44.7	18.0	0.00e+00	0	37	0	130023424	55	4961
2026-01-23 02:08:50.71	342.45	11.87	-41.7	-44.6	18.1	0.00e+00	0	37	0	132120576	55	4905
2026-01-23 02:08:52.05	342.21	11.93	-41.6	-44.6	18.2	0.00e+00	0	37	0	134217728	55	4879
2026-01-23 02:08:52.76	342.09	11.95	-41.6	-44.6	18.2	0.00e+00	0	37	0	136314880	55	4881
2026-01-23 02:08:54.26	341.83	12.01	-42.0	-45.1	17.8	0.00e+00	0	37	0	138412032	55	5179
2026-01-23 02:08:54.97	341.70	12.04	-42.2	-45.3	17.5	0.00e+00	0	37	0	139460608	55	5327
2026-01-23 02:08:56.25	341.48	12.09	-42.5	-45.7	17.2	0.00e+00	0	37	0	142606336	55	5581
2026-01-23 02:08:56.96	341.35	12.11	-42.7	-46.0	16.9	0.00e+00	0	37	0	143654912	55	5739
2026-01-23 02:08:58.24	341.13	12.16	-42.7	-45.9	17.0	0.00e+00	0	37	0	145752064	56	5357
2026-01-23 02:08:58.96	341.00	12.19	-42.7	-45.8	17.2	0.00e+00	0	37	0	147849216	56	5319
2026-01-23 02:09:00.24	340.77	12.24	-42.5	-45.6	17.3	0.00e+00	0	37	0	149946368	56	5202
2026-01-23 02:09:00.97	340.64	12.26	-42.4	-45.4	17.6	0.00e+00	0	37	0	150994944	56	5088
2026-01-23 02:09:02.24	340.42	12.31	-42.4	-45.6	17.4	0.00e+00	0	37	0	154140672	56	5195
2026-01-23 02:09:02.95	340.29	12.34	-42.3	-45.6	17.3	0.00e+00	0	37	0	155189248	56	5214
2026-01-23 02:09:04.23	340.06	12.38	-42.2	-45.6	17.4	0.00e+00	0	38	0	157286400	56	5194
2026-01-23 02:09:05.12	339.90	12.41	-42.4	-45.9	17.1	0.00e+00	0	37	0	159383552	56	5344
2026-01-23 02:09:06.25	339.70	12.46	-42.6	-45.9	17.1	0.00e+00	0	37	0	161480704	56	5348
2026-01-23 02:09:07.11	339.54	12.49	-42.9	-46.2	16.9	0.00e+00	0	37	0	162529280	56	5552
2026-01-23 02:09:08.24	339.34	12.53	-43.0	-46.1	16.9	0.00e+00	0	37	0	164626432	56	5510
2026-01-23 02:09:09.10	339.18	12.56	-43.0	-46.1	16.9	0.00e+00	0	38	0	166723584	56	5507
2026-01-23 02:09:10.24	338.98	12.60	-43.0	-46.2	16.9	0.00e+00	0	38	0	168820736	56	5530
2026-01-23 02:09:11.09	338.82	12.63	-42.8	-46.1	17.0	0.00e+00	0	37	0	169869312	56	5495
2026-01-23 02:09:12.23	338.61	12.66	-42.7	-46.1	16.9	0.00e+00	0	38	0	171966464	56	5507
2026-01-23 02:09:13.08	338.46	12.69	-42.5	-46.0	17.1	0.00e+00	0	37	0	174063616	56	5405
2026-01-23 02:09:14.30	338.23	12.74	-42.3	-45.8	17.2	0.00e+00	0	38	0	176160768	56	5285
2026-01-23 02:09:15.15	338.08	12.76	-42.2	-45.7	17.3	0.00e+00	0	37	0	178257920	56	5233
2026-01-23 02:09:16.29	337.87	12.80	-42.3	-45.7	17.3	0.00e+00	0	37	0	180355072	56	5267
2026-01-23 02:09:17.14	337.71	12.83	-42.1	-45.3	17.6	0.00e+00	0	37	0	181403648	56	5014
2026-01-23 02:09:18.28	337.50	12.87	-42.2	-45.4	17.6	0.00e+00	0	37	0	183500800	56	5067
2026-01-23 02:09:19.13	337.34	12.90	-42.2	-45.3	17.6	0.00e+00	0	37	0	185597952	56	5030
2026-01-23 02:09:20.47	337.09	12.94	-42.2	-45.3	17.7	0.00e+00	0	37	0	187695104	56	5016
2026-01-23 02:09:21.19	336.96	12.96	-42.2	-45.3	17.7	0.00e+00	0	37	0	188743680	56	4992
2026-01-23 02:09:22.46	336.72	13.00	-42.4	-45.6	17.4	0.00e+00	0	38	0	191889408	56	5190
2026-01-23 02:09:23.18	336.58	13.03	-42.4	-45.5	17.5	0.00e+00	0	37	0	192937984	56	5107
2026-01-23 02:09:24.77	336.28	13.08	-42.5	-45.5	17.4	0.00e+00	0	37	0	196083712	56	5140
2026-01-23 02:09:25.35	336.18	13.09	-42.6	-45.6	17.4	0.00e+00	0	37	0	197132288	56	5187
2026-01-23 02:09:26.92	335.88	13.14	-42.4	-45.2	17.8	0.00e+00	0	37	0	200278016	56	4948
2026-01-23 02:09:27.63	335.75	13.16	-42.4	-45.2	17.8	0.00e+00	0	37	0	201326592	56	4937
2026-01-23 02:09:28.90	335.50	13.20	-42.2	-44.9	18.1	0.00e+00	0	37	0	203423744	56	4779
2026-01-23 02:09:29.63	335.37	13.22	-42.2	-44.9	18.1	0.00e+00	0	37	0	204472320	56	4786
2026-01-23 02:09:30.91	335.12	13.26	-42.4	-45.2	17.9	0.00e+00	0	38	0	207618048	56	4927
2026-01-23 02:09:31.63	334.98	13.28	-42.5	-45.4	17.6	0.00e+00	0	37	0	208666624	56	5071
2026-01-23 02:09:32.91	334.74	13.32	-42.7	-45.6	17.3	0.00e+00	0	37	0	210763776	56	5196
2026-01-23 02:09:33.62	334.60	13.34	-42.9	-46.0	17.0	0.00e+00	0	37	0	212860928	56	5456
2026-01-23 02:09:34.90	334.36	13.38	-43.2	-46.4	16.7	0.00e+00	0	37	0	214958080	57	5395
2026-01-23 02:09:35.61	334.22	13.40	-43.1	-46.2	16.8	0.00e+00	0	37	0	216006656	57	5272
2026-01-23 02:09:36.89	333.98	13.43	-43.1	-46.2	16.8	0.00e+00	0	37	0	218103808	57	5245
2026-01-23 02:09:37.62	333.83	13.45	-42.9	-45.9	17.1	0.00e+00	0	37	0	220200960	57	5045
2026-01-23 02:09:38.90	333.59	13.49	-42.7	-45.5	17.5	0.00e+00	0	37	0	222298112	57	4817
2026-01-23 02:09:39.62	333.45	13.51	-42.4	-45.1	17.9	0.00e+00	0	37	0	223346688	56	4874
2026-01-23 02:09:40.90	333.20	13.54	-42.4	-45.0	18.0	0.00e+00	0	37	0	226492416	56	4868
2026-01-23 02:09:41.61	333.06	13.56	-42.1	-44.6	18.3	0.00e+00	0	37	0	227540992	56	4648
2026-01-23 02:09:42.89	332.81	13.59	-41.8	-44.4	18.4	0.00e+00	0	37	0	229638144	55	4788
2026-01-23 02:09:43.64	332.66	13.61	-41.9	-44.6	18.2	0.00e+00	0	38	0	231735296	55	4878
2026-01-23 02:09:44.92	332.41	13.65	-41.9	-44.6	18.2	0.00e+00	0	37	0	233832448	55	4889
2026-01-23 02:09:45.63	332.28	13.66	-42.1	-44.7	18.1	0.00e+00	0	37	0	234881024	55	4955
2026-01-23 02:09:46.91	332.02	13.70	-42.2	-44.8	18.0	0.00e+00	0	37	0	236978176	55	5039
2026-01-23 02:09:47.63	331.88	13.71	-42.3	-44.9	17.9	0.00e+00	0	37	0	239075328	55	5087
2026-01-23 02:09:49.01	331.61	13.75	-42.0	-44.6	18.2	0.00e+00	0	37	0	241172480	55	4886
2026-01-23 02:09:49.72	331.47	13.77	-42.0	-44.6	18.2	0.00e+00	0	37	0	242221056	55	4903
2026-01-23 02:09:51.01	331.22	13.80	-41.7	-44.3	18.5	0.00e+00	0	37	0	245366784	55	4731
2026-01-23 02:09:51.73	331.07	13.81	-41.6	-44.1	18.7	0.00e+00	0	37	0	246415360	55	4612
2026-01-23 02:09:53.01	330.82	13.84	-41.7	-44.3	18.5	0.00e+00	0	37	0	248512512	55	4710
2026-01-23 02:09:53.72	330.68	13.86	-41.7	-44.2	18.6	0.00e+00	0	38	0	250609664	55	4702
2026-01-23 02:09:55.00	330.42	13.89	-41.7	-44.3	18.5	0.00e+00	0	37	0	252706816	55	4711
2026-01-23 02:09:55.71	330.28	13.90	-41.9	-44.5	18.3	0.00e+00	0	38	0	253755392	55	4847
2026-01-23 02:09:57.27	329.97	13.94	-42.3	-45.0	17.8	0.00e+00	0	37	0	256901120	55	5139
2026-01-23 02:09:57.98	329.83	13.95	-42.4	-45.1	17.7	0.00e+00	0	38	0	257949696	55	5193
2026-01-23 02:09:59.26	329.57	13.98	-42.5	-45.3	17.5	0.00e+00	0	37	0	260046848	55	5332
2026-01-23 02:09:59.97	329.43	13.99	-42.5	-45.4	17.4	0.00e+00	0	37	0	262144000	55	5350
2026-01-23 02:10:01.25	329.17	14.02	-42.5	-45.4	17.5	0.00e+00	0	38	0	264241152	55	5357
2026-01-23 02:10:01.97	329.03	14.03	-42.5	-45.3	17.5	0.00e+00	0	38	0	265289728	55	5310
2026-01-23 02:10:03.26	328.77	14.06	-42.5	-45.4	17.4	0.00e+00	0	37	0	268435456	55	5344
2026-01-23 02:10:03.98	328.63	14.07	-42.7	-45.6	17.4	0.00e+00	0	37	0	269484032	55	5474
2026-01-23 02:10:05.26	328.37	14.10	-43.1	-46.0	17.1	0.00e+00	0	37	0	271581184	56	5425
2026-01-23 02:10:05.97	328.22	14.11	-43.1	-46.1	17.0	0.00e+00	0	37	0	272629760	56	5470
2026-01-23 02:10:07.25	327.96	14.13	-43.2	-46.2	16.8	0.00e+00	0	37	0	275775488	57	5266
2026-01-23 02:10:07.99	327.82	14.15	-43.0	-46.0	17.0	0.00e+00	0	37	0	276824064	57	5113
2026-01-23 02:10:09.27	327.56	14.17	-42.8	-45.9	17.2	0.00e+00	0	37	0	278921216	57	5067
2026-01-23 02:10:09.98	327.41	14.18	-42.7	-45.8	17.2	0.00e+00	0	37	0	281018368	57	5003
2026-01-23 02:10:11.26	327.15	14.20	-42.6	-45.6	17.4	0.00e+00	0	37	0	283115520	57	4891
2026-01-23 02:10:11.97	327.01	14.22	-42.5	-45.5	17.5	0.00e+00	0	37	0	284164096	56	5112
2026-01-23 02:10:13.25	326.75	14.24	-42.6	-45.6	17.4	0.00e+00	0	37	0	286261248	56	5187
2026-01-23 02:10:13.96	326.60	14.25	-42.5	-45.4	17.6	0.00e+00	0	37	0	288358400	56	5090
2026-01-23 02:10:15.24	326.34	14.27	-42.5	-45.4	17.6	0.00e+00	0	37	0	290455552	56	5066
2026-01-23 02:10:15.96	326.19	14.28	-42.6	-45.5	17.5	0.00e+00	0	37	0	291504128	56	5124
2026-01-23 02:10:17.28	325.92	14.30	-42.5	-45.4	17.7	0.00e+00	0	37	0	294649856	56	5045
2026-01-23 02:10:17.99	325.78	14.31	-42.4	-45.3	17.7	0.00e+00	0	38	0	295698432	56	5029
2026-01-23 02:10:19.27	325.51	14.33	-42.2	-45.1	17.9	0.00e+00	0	37	0	297795584	56	4913
2026-01-23 02:10:19.98	325.37	14.34	-42.1	-45.0	18.0	0.00e+00	0	37	0	299892736	56	4825
2026-01-23 02:10:21.26	325.11	14.36	-41.7	-44.6	18.2	0.00e+00	0	38	0	301989888	55	4880
2026-01-23 02:10:21.97	324.96	14.36	-41.6	-44.5	18.2	0.00e+00	0	37	0	303038464	55	4850
2026-01-23 02:10:23.25	324.70	14.38	-41.7	-44.6	18.2	0.00e+00	0	37	0	305135616	55	4889
2026-01-23 02:10:23.97	324.55	14.39	-41.6	-44.5	18.3	0.00e+00	0	37	0	307232768	55	4824
2026-01-23 02:10:25.24	324.29	14.41	-41.8	-44.6	18.1	0.00e+00	0	38	0	309329920	55	4908
2026-01-23 02:10:26.09	324.11	14.42	-42.0	-44.8	18.0	0.00e+00	0	37	0	310378496	55	5033
2026-01-23 02:10:27.50	323.82	14.43	-42.2	-45.0	17.7	0.00e+00	0	37	0	313524224	55	5157
2026-01-23 02:10:28.22	323.67	14.44	-42.4	-45.3	17.5	0.00e+00	0	37	0	314572800	55	5291
2026-01-23 02:10:29.49	323.41	14.45	-42.5	-45.3	17.5	0.00e+00	0	37	0	317718528	55	5334
2026-01-23 02:10:30.22	323.26	14.46	-42.5	-45.2	17.5	0.00e+00	0	37	0	318767104	55	5275
2026-01-23 02:10:31.50	322.99	14.47	-42.4	-45.1	17.7	0.00e+00	0	38	0	320864256	55	5190
2026-01-23 02:10:32.24	322.84	14.48	-42.4	-45.1	17.6	0.00e+00	0	37	0	321912832	55	5206
2026-01-23 02:10:33.52	322.57	14.49	-42.4	-45.1	17.7	0.00e+00	0	38	0	325058560	55	5216
2026-01-23 02:10:34.23	322.43	14.50	-42.3	-45.0	17.8	0.00e+00	0	38	0	326107136	55	5125
2026-01-23 02:10:35.51	322.16	14.51	-42.1	-44.8	18.0	0.00e+00	0	38	0	328204288	55	5000
2026-01-23 02:10:36.22	322.01	14.51	-42.0	-44.7	18.1	0.00e+00	0	38	0	330301440	55	4970
2026-01-23 02:10:37.54	321.74	14.52	-42.2	-45.0	17.9	0.00e+00	0	37	0	332398592	55	5110
2026-01-23 02:10:38.25	321.59	14.53	-42.4	-45.3	17.6	0.00e+00	0	38	0	333447168	55	5295
2026-01-23 02:10:39.53	321.32	14.54	-42.5	-45.4	17.4	0.00e+00	0	37	0	336592896	55	5384
2026-01-23 02:10:40.24	321.18	14.54	-42.5	-45.4	17.4	0.00e+00	0	38	0	337641472	55	5393
2026-01-23 02:10:41.65	320.88	14.55	-42.9	-46.0	17.0	0.00e+00	0	37	0	339738624	56	5409
2026-01-23 02:10:42.36	320.73	14.55	-42.8	-45.8	17.1	0.00e+00	0	37	0	341835776	56	5336
2026-01-23 02:10:43.64	320.47	14.56	-43.0	-46.1	16.9	0.00e+00	0	37	0	343932928	56	5495
2026-01-23 02:10:44.38	320.31	14.56	-42.9	-46.0	17.0	0.00e+00	0	37	0	344981504	56	5450
2026-01-23 02:10:45.75	320.03	14.57	-42.9	-46.0	17.1	0.00e+00	0	37	0	348127232	56	5407
2026-01-23 02:10:46.46	319.88	14.57	-42.7	-45.7	17.4	0.00e+00	0	37	0	349175808	56	5240
2026-01-23 02:10:47.74	319.61	14.58	-42.8	-45.8	17.2	0.00e+00	0	38	0	351272960	56	5308
2026-01-23 02:10:48.45	319.46	14.58	-42.6	-45.5	17.5	0.00e+00	0	38	0	352321536	56	5111
2026-01-23 02:10:49.74	319.19	14.58	-42.5	-45.3	17.7	0.00e+00	0	37	0	355467264	56	4994
2026-01-23 02:10:50.45	319.05	14.58	-42.5	-45.4	17.6	0.00e+00	0	37	0	356515840	56	5047
2026-01-23 02:10:51.73	318.78	14.59	-42.4	-45.2	17.8	0.00e+00	0	37	0	358612992	56	4965
2026-01-23 02:10:52.47	318.62	14.59	-42.4	-45.1	17.8	0.00e+00	0	37	0	360710144	56	4884
2026-01-23 02:10:53.75	318.36	14.59	-42.3	-45.0	17.9	0.00e+00	0	38	0	362807296	56	4860
2026-01-23 02:10:54.53	318.19	14.59	-42.4	-45.1	17.9	0.00e+00	0	38	0	363855872	56	4897
2026-01-23 02:10:55.80	317.93	14.59	-42.4	-45.1	17.9	0.00e+00	0	38	0	367001600	56	4871
2026-01-23 02:10:56.59	317.76	14.59	-42.5	-45.3	17.8	0.00e+00	0	37	0	368050176	56	4995
2026-01-23 02:10:58.05	317.46	14.59	-42.6	-45.4	17.6	0.00e+00	0	38	0	371195904	56	5090
2026-01-23 02:10:58.76	317.31	14.59	-42.7	-45.6	17.4	0.00e+00	0	37	0	372244480	56	5166
2026-01-23 02:11:00.04	317.04	14.59	-42.7	-45.6	17.4	0.00e+00	0	38	0	374341632	56	5166
2026-01-23 02:11:00.76	316.89	14.59	-42.6	-45.6	17.4	0.00e+00	0	38	0	375390208	56	5169
2026-01-23 02:11:02.04	316.62	14.59	-42.7	-45.6	17.4	0.00e+00	0	38	0	378535936	56	5205
2026-01-23 02:11:02.76	316.47	14.59	-42.6	-45.5	17.5	0.00e+00	0	38	0	379584512	56	5140
2026-01-23 02:11:04.04	316.21	14.58	-42.5	-45.2	17.8	0.00e+00	0	38	0	381681664	56	4982
2026-01-23 02:11:04.76	316.06	14.58	-42.3	-45.0	18.0	0.00e+00	0	38	0	383778816	56	4832
2026-01-23 02:11:06.04	315.79	14.58	-42.1	-44.7	18.2	0.00e+00	0	38	0	385875968	56	4679
2026-01-23 02:11:06.75	315.64	14.57	-42.1	-44.6	18.3	0.00e+00	0	38	0	386924544	56	4640
2026-01-23 02:11:08.03	315.37	14.57	-42.0	-44.6	18.3	0.00e+00	0	38	0	389021696	56	4617
2026-01-23 02:11:08.75	315.22	14.56	-42.1	-44.7	18.3	0.00e+00	0	38	0	391118848	56	4658
2026-01-23 02:11:10.03	314.96	14.56	-42.2	-44.8	18.1	0.00e+00	0	37	0	393216000	56	4743
2026-01-23 02:11:10.75	314.81	14.55	-42.3	-45.0	18.0	0.00e+00	0	38	0	394264576	56	4850
2026-01-23 02:11:12.03	314.54	14.55	-42.6	-45.5	17.5	0.00e+00	0	38	0	397410304	56	5106
2026-01-23 02:11:12.75	314.39	14.54	-42.7	-45.6	17.4	0.00e+00	0	37	0	398458880	56	5194
2026-01-23 02:11:14.03	314.12	14.54	-42.8	-45.8	17.2	0.00e+00	0	38	0	400556032	56	5304
2026-01-23 02:11:14.76	313.97	14.53	-43.0	-46.0	17.0	0.00e+00	0	38	0	401604608	56	5448
2026-01-23 02:11:16.03	313.71	14.52	-43.0	-46.0	17.0	0.00e+00	0	37	0	404750336	56	5464
2026-01-23 02:11:16.76	313.55	14.52	-43.1	-46.1	16.9	0.00e+00	0	38	0	405798912	56	5519
2026-01-23 02:11:18.04	313.29	14.51	-43.0	-46.0	17.0	0.00e+00	0	38	0	407896064	56	5426
2026-01-23 02:11:18.75	313.14	14.50	-43.0	-46.0	17.0	0.00e+00	0	37	0	409993216	56	5452
2026-01-23 02:11:20.03	312.88	14.49	-43.0	-46.0	17.0	0.00e+00	0	38	0	412090368	57	5154
2026-01-23 02:11:20.74	312.73	14.48	-43.1	-46.2	16.9	0.00e+00	0	38	0	413138944	57	5224
2026-01-23 02:11:22.02	312.46	14.47	-43.2	-46.3	16.7	0.00e+00	0	37	0	415236096	57	5339
2026-01-23 02:11:22.73	312.32	14.46	-43.2	-46.3	16.7	0.00e+00	0	37	0	417333248	57	5336
2026-01-23 02:11:24.01	312.05	14.45	-43.1	-46.2	16.8	0.00e+00	0	37	0	419430400	57	5267
2026-01-23 02:11:24.72	311.90	14.44	-43.1	-46.2	16.9	0.00e+00	0	37	0	420478976	57	5221
2026-01-23 02:11:26.06	311.63	14.43	-42.8	-45.8	17.1	0.00e+00	0	38	0	423624704	57	5019
2026-01-23 02:11:26.77	311.48	14.42	-42.7	-45.7	17.3	0.00e+00	0	37	0	424673280	57	4934
2026-01-23 02:11:28.05	311.21	14.41	-42.7	-45.6	17.4	0.00e+00	0	38	0	426770432	57	4881
2026-01-23 02:11:28.79	311.06	14.40	-42.6	-45.4	17.5	0.00e+00	0	37	0	428867584	57	4805
2026-01-23 02:11:30.07	310.80	14.38	-42.6	-45.4	17.6	0.00e+00	0	37	0	430964736	57	4809
2026-01-23 02:11:31.19	310.57	14.37	-42.7	-45.6	17.5	0.00e+00	0	37	0	433061888	57	4872
2026-01-23 02:11:32.04	310.39	14.36	-42.7	-45.6	17.4	0.00e+00	0	38	0	434110464	57	4871
2026-01-23 02:11:33.18	310.16	14.34	-42.8	-45.7	17.3	0.00e+00	0	38	0	436207616	57	4964
2026-01-23 02:11:34.03	309.98	14.33	-42.9	-45.9	17.2	0.00e+00	0	38	0	438304768	57	5043
2026-01-23 02:11:35.17	309.75	14.31	-43.0	-46.1	16.9	0.00e+00	0	38	0	440401920	57	5166
2026-01-23 02:11:36.03	309.57	14.30	-43.2	-46.2	16.8	0.00e+00	0	37	0	441450496	57	5276
2026-01-23 02:11:37.17	309.34	14.28	-43.1	-46.1	16.9	0.00e+00	0	38	0	444596224	57	5197
2026-01-23 02:11:38.02	309.16	14.27	-43.2	-46.2	16.9	0.00e+00	0	38	0	445644800	57	5222
2026-01-23 02:11:39.16	308.93	14.25	-43.1	-46.0	17.1	0.00e+00	0	38	0	447741952	57	5104
2026-01-23 02:11:40.01	308.76	14.24	-43.0	-45.8	17.2	0.00e+00	0	38	0	449839104	57	5020
2026-01-23 02:11:41.15	308.53	14.22	-43.0	-45.8	17.2	0.00e+00	0	38	0	451936256	57	4988
2026-01-23 02:11:42.00	308.35	14.21	-42.6	-45.3	17.7	0.00e+00	0	37	0	452984832	57	4741
2026-01-23 02:11:43.14	308.12	14.19	-42.6	-45.2	17.8	0.00e+00	0	37	0	455081984	57	4705
2026-01-23 02:11:43.99	307.95	14.17	-42.4	-45.0	18.0	0.00e+00	0	37	0	457179136	56	4870
2026-01-23 02:11:45.13	307.72	14.15	-42.6	-45.3	17.7	0.00e+00	0	37	0	459276288	56	4985
2026-01-23 02:11:45.98	307.54	14.14	-42.5	-45.1	17.9	0.00e+00	0	38	0	460324864	56	4902
2026-01-23 02:11:47.12	307.31	14.12	-42.7	-45.4	17.7	0.00e+00	0	37	0	462422016	56	5045
2026-01-23 02:11:48.32	307.07	14.10	-42.6	-45.4	17.7	0.00e+00	0	37	0	464519168	56	5047
2026-01-23 02:11:49.36	306.86	14.08	-42.7	-45.5	17.5	0.00e+00	0	38	0	466616320	56	5118
2026-01-23 02:11:50.32	306.67	14.06	-42.8	-45.6	17.5	0.00e+00	0	37	0	468713472	56	5172
2026-01-23 02:11:51.32	306.46	14.04	-43.0	-45.7	17.3	0.00e+00	0	38	0	470810624	56	5271
2026-01-23 02:11:52.31	306.26	14.02	-42.9	-45.7	17.4	0.00e+00	0	38	0	472907776	56	5223
2026-01-23 02:11:53.31	306.06	14.00	-43.2	-46.1	17.0	0.00e+00	0	38	0	473956352	57	5190
2026-01-23 02:11:54.30	305.87	13.98	-43.1	-45.8	17.3	0.00e+00	0	37	0	476053504	57	5030
2026-01-23 02:11:55.30	305.66	13.96	-43.3	-46.2	16.9	0.00e+00	0	38	0	478150656	57	5224
2026-01-23 02:11:56.29	305.47	13.93	-43.3	-46.2	16.9	0.00e+00	0	38	0	480247808	57	5248
2026-01-23 02:11:57.28	305.27	13.91	-43.2	-46.1	16.9	0.00e+00	0	38	0	482344960	57	5204
2026-01-23 02:11:58.28	305.07	13.89	-43.3	-46.2	16.9	0.00e+00	0	38	0	483393536	57	5231
2026-01-23 02:11:59.27	304.87	13.87	-43.3	-46.3	16.8	0.00e+00	0	38	0	485490688	57	5288
2026-01-23 02:12:00.30	304.67	13.84	-43.6	-46.7	16.4	0.00e+00	0	38	0	487587840	57	5567
2026-01-23 02:12:01.29	304.47	13.82	-43.4	-46.4	16.7	0.00e+00	0	38	0	489684992	57	5390
2026-01-23 02:12:02.35	304.26	13.80	-43.5	-46.5	16.6	0.00e+00	0	38	0	491782144	57	5431
2026-01-23 02:12:03.25	304.08	13.78	-43.5	-46.5	16.6	0.00e+00	0	38	0	492830720	57	5463
2026-01-23 02:12:04.36	303.86	13.75	-43.3	-46.2	16.9	0.00e+00	0	38	0	494927872	57	5250
2026-01-23 02:12:05.21	303.69	13.73	-43.2	-46.1	17.0	0.00e+00	0	37	0	497025024	57	5192
2026-01-23 02:12:06.34	303.47	13.70	-43.0	-45.8	17.2	0.00e+00	0	37	0	499122176	57	5003
2026-01-23 02:12:07.20	303.30	13.68	-42.8	-45.6	17.4	0.00e+00	0	38	0	500170752	57	4909
2026-01-23 02:12:08.65	303.02	13.64	-42.6	-45.3	17.7	0.00e+00	0	38	0	503316480	57	4726
2026-01-23 02:12:09.36	302.88	13.62	-42.7	-45.3	17.7	0.00e+00	0	37	0	504365056	57	4742
2026-01-23 02:12:10.64	302.63	13.59	-42.6	-45.3	17.8	0.00e+00	0	37	0	506462208	57	4707
2026-01-23 02:12:11.36	302.49	13.57	-42.6	-45.2	17.8	0.00e+00	0	38	0	508559360	57	4693
2026-01-23 02:12:12.64	302.24	13.54	-42.5	-45.1	17.9	0.00e+00	0	37	0	510656512	57	4616
2026-01-23 02:12:13.35	302.10	13.52	-42.6	-45.2	17.8	0.00e+00	0	38	0	511705088	57	4688
2026-01-23 02:12:14.63	301.85	13.49	-42.5	-45.0	18.0	0.00e+00	0	38	0	513802240	56	4840
2026-01-23 02:12:15.37	301.71	13.47	-42.3	-44.8	18.1	0.00e+00	0	38	0	515899392	56	4757
2026-01-23 02:12:16.65	301.46	13.43	-42.5	-45.0	18.0	0.00e+00	0	37	0	517996544	56	4852
2026-01-23 02:12:17.58	301.28	13.40	-42.5	-45.0	17.9	0.00e+00	0	37	0	520093696	56	4865
2026-01-23 02:12:18.58	301.09	13.38	-42.6	-45.2	17.8	0.00e+00	0	37	0	522190848	56	4975
2026-01-23 02:12:19.57	300.90	13.35	-42.6	-45.3	17.7	0.00e+00	0	37	0	523239424	56	5005
2026-01-23 02:12:20.57	300.71	13.32	-43.0	-45.7	17.3	0.00e+00	0	37	0	525336576	56	5238
2026-01-23 02:12:21.56	300.52	13.29	-42.9	-45.6	17.4	0.00e+00	0	38	0	527433728	56	5194
2026-01-23 02:12:22.56	300.32	13.26	-43.1	-45.9	17.2	0.00e+00	0	37	0	529530880	56	5351
2026-01-23 02:12:23.55	300.14	13.23	-43.0	-45.8	17.2	0.00e+00	0	38	0	530579456	56	5326
2026-01-23 02:12:24.55	299.94	13.20	-43.1	-45.9	17.0	0.00e+00	0	38	0	532676608	56	5383
2026-01-23 02:12:25.55	299.75	13.17	-43.0	-45.8	17.2	0.00e+00	0	38	0	534773760	56	5316
2026-01-23 02:12:26.54	299.57	13.14	-43.1	-45.9	17.1	0.00e+00	0	38	0	536870912	57	5081
2026-01-23 02:12:27.54	299.38	13.11	-43.0	-45.8	17.2	0.00e+00	0	38	0	538968064	57	5030
2026-01-23 02:12:28.53	299.19	13.08	-43.0	-45.8	17.2	0.00e+00	0	37	0	540016640	57	5003
2026-01-23 02:12:29.53	299.00	13.05	-43.1	-46.0	17.0	0.00e+00	0	38	0	542113792	57	5112
2026-01-23 02:12:30.52	298.82	13.02	-43.1	-45.9	17.1	0.00e+00	0	37	0	544210944	57	5062
2026-01-23 02:12:31.52	298.63	12.98	-43.1	-45.9	17.1	0.00e+00	0	37	0	546308096	57	5080
2026-01-23 02:12:32.51	298.44	12.95	-43.2	-46.0	17.1	0.00e+00	0	37	0	547356672	57	5117
2026-01-23 02:12:33.51	298.26	12.92	-43.0	-45.8	17.2	0.00e+00	0	37	0	549453824	57	5033
2026-01-23 02:12:34.50	298.07	12.89	-43.0	-45.7	17.3	0.00e+00	0	37	0	551550976	57	4962
2026-01-23 02:12:35.50	297.88	12.86	-43.0	-45.8	17.2	0.00e+00	0	37	0	553648128	57	5002
2026-01-23 02:12:36.49	297.70	12.82	-42.8	-45.5	17.5	0.00e+00	0	37	0	555745280	57	4857
2026-01-23 02:12:37.49	297.52	12.79	-42.7	-45.4	17.6	0.00e+00	0	37	0	556793856	57	4765
2026-01-23 02:12:38.48	297.33	12.76	-42.8	-45.5	17.5	0.00e+00	0	37	0	558891008	57	4838
2026-01-23 02:12:39.48	297.15	12.72	-42.8	-45.5	17.5	0.00e+00	0	38	0	560988160	57	4816
2026-01-23 02:12:40.47	296.97	12.69	-43.0	-45.8	17.2	0.00e+00	0	37	0	563085312	57	5021
2026-01-23 02:12:41.47	296.78	12.65	-43.2	-46.0	17.1	0.00e+00	0	37	0	564133888	57	5115
2026-01-23 02:12:42.46	296.60	12.62	-42.9	-45.7	17.4	0.00e+00	0	38	0	566231040	57	4938
2026-01-23 02:12:43.46	296.42	12.59	-43.1	-45.9	17.2	0.00e+00	0	38	0	568328192	57	5045
2026-01-23 02:12:44.45	296.24	12.55	-43.0	-45.7	17.3	0.00e+00	0	37	0	570425344	57	4978
2026-01-23 02:12:45.45	296.06	12.52	-43.0	-45.8	17.2	0.00e+00	0	37	0	572522496	57	5020
2026-01-23 02:12:46.44	295.88	12.48	-42.9	-45.6	17.4	0.00e+00	0	37	0	573571072	57	4907
2026-01-23 02:12:47.44	295.70	12.44	-42.8	-45.5	17.4	0.00e+00	0	38	0	575668224	57	4845
2026-01-23 02:12:48.43	295.52	12.41	-42.7	-45.4	17.6	0.00e+00	0	38	0	577765376	57	4770
2026-01-23 02:12:49.43	295.34	12.37	-42.5	-45.2	17.8	0.00e+00	0	38	0	579862528	57	4667
2026-01-23 02:12:50.42	295.16	12.34	-42.7	-45.4	17.6	0.00e+00	0	38	0	580911104	57	4768
2026-01-23 02:12:51.43	294.98	12.30	-42.6	-45.2	17.8	0.00e+00	0	37	0	583008256	57	4670
2026-01-23 02:12:52.48	294.79	12.26	-42.5	-45.1	17.9	0.00e+00	0	37	0	585105408	57	4610
2026-01-23 02:12:53.44	294.62	12.23	-42.6	-45.1	17.9	0.00e+00	0	38	0	587202560	56	4919
2026-01-23 02:12:54.43	294.44	12.19	-42.8	-45.5	17.5	0.00e+00	0	38	0	589299712	56	5104
2026-01-23 02:12:55.43	294.27	12.15	-42.9	-45.6	17.4	0.00e+00	0	38	0	590348288	56	5180
2026-01-23 02:12:56.42	294.09	12.11	-42.9	-45.6	17.4	0.00e+00	0	37	0	592445440	56	5203
2026-01-23 02:12:57.42	293.91	12.08	-42.9	-45.7	17.3	0.00e+00	0	37	0	594542592	56	5239
2026-01-23 02:12:58.41	293.74	12.04	-43.1	-46.0	17.0	0.00e+00	0	38	0	596639744	56	5434
2026-01-23 02:12:59.41	293.56	12.00	-43.2	-46.1	17.0	0.00e+00	0	37	0	598736896	57	5169
2026-01-23 02:13:00.41	293.39	11.96	-43.4	-46.4	16.7	0.00e+00	0	37	0	599785472	57	5341
2026-01-23 02:13:01.40	293.22	11.92	-43.6	-46.7	16.4	0.00e+00	0	37	0	601882624	57	5537
2026-01-23 02:13:02.39	293.04	11.88	-43.7	-46.7	16.3	0.00e+00	0	38	0	603979776	58	5261
2026-01-23 02:13:03.39	292.87	11.85	-43.8	-46.9	16.1	0.00e+00	0	37	0	606076928	58	5392
2026-01-23 02:13:04.39	292.70	11.81	-43.9	-47.0	16.1	0.00e+00	0	37	0	608174080	58	5445
2026-01-23 02:13:05.38	292.53	11.77	-43.8	-46.9	16.2	0.00e+00	0	38	0	609222656	58	5359
2026-01-23 02:13:06.38	292.35	11.73	-43.6	-46.6	16.5	0.00e+00	0	38	0	611319808	58	5166
2026-01-23 02:13:07.37	292.18	11.69	-43.5	-46.5	16.5	0.00e+00	0	37	0	613416960	58	5159
2026-01-23 02:13:08.37	292.01	11.65	-43.4	-46.4	16.6	0.00e+00	0	37	0	615514112	58	5063
2026-01-23 02:13:09.46	291.83	11.60	-43.4	-46.3	16.7	0.00e+00	0	38	0	617611264	58	5040
2026-01-23 02:13:10.34	291.68	11.57	-43.5	-46.5	16.6	0.00e+00	0	38	0	618659840	58	5102
2026-01-23 02:13:11.48	291.48	11.52	-43.5	-46.5	16.6	0.00e+00	0	37	0	620756992	58	5124
2026-01-23 02:13:12.33	291.34	11.49	-43.6	-46.5	16.5	0.00e+00	0	37	0	622854144	58	5142
2026-01-23 02:13:13.47	291.15	11.44	-43.6	-46.5	16.5	0.00e+00	0	37	0	624951296	58	5142
2026-01-23 02:13:14.32	291.00	11.41	-43.7	-46.7	16.3	0.00e+00	0	37	0	625999872	58	5265
2026-01-23 02:13:15.46	290.81	11.36	-43.5	-46.4	16.6	0.00e+00	0	37	0	628097024	58	5084
2026-01-23 02:13:16.31	290.67	11.32	-43.5	-46.4	16.6	0.00e+00	0	37	0	630194176	58	5071
2026-01-23 02:13:17.45	290.48	11.28	-43.5	-46.5	16.5	0.00e+00	0	37	0	632291328	58	5117
2026-01-23 02:13:18.30	290.34	11.24	-43.5	-46.5	16.5	0.00e+00	0	37	0	633339904	58	5144
2026-01-23 02:13:19.44	290.15	11.19	-43.4	-46.4	16.6	0.00e+00	0	37	0	635437056	58	5062
2026-01-23 02:13:20.29	290.01	11.16	-43.5	-46.5	16.5	0.00e+00	0	38	0	637534208	58	5113
2026-01-23 02:13:21.43	289.82	11.11	-43.6	-46.5	16.5	0.00e+00	0	38	0	639631360	58	5146
2026-01-23 02:13:22.28	289.68	11.07	-43.5	-46.5	16.5	0.00e+00	0	38	0	641728512	58	5142
2026-01-23 02:13:23.42	289.49	11.03	-43.7	-46.7	16.3	0.00e+00	0	37	0	643825664	58	5277
2026-01-23 02:13:24.27	289.35	10.99	-43.9	-47.0	16.0	0.00e+00	0	37	0	644874240	58	5460
2026-01-23 02:13:25.41	289.17	10.94	-43.9	-47.0	16.0	0.00e+00	0	37	0	646971392	58	5459
2026-01-23 02:13:26.26	289.03	10.90	-44.0	-47.3	15.8	0.00e+00	0	38	0	649068544	58	5615
2026-01-23 02:13:27.40	288.84	10.85	-44.0	-47.2	15.9	0.00e+00	0	37	0	651165696	58	5554
2026-01-23 02:13:28.25	288.70	10.82	-43.9	-47.0	16.0	0.00e+00	0	38	0	652214272	58	5422
2026-01-23 02:13:29.39	288.52	10.77	-43.6	-46.6	16.5	0.00e+00	0	37	0	654311424	58	5170
2026-01-23 02:13:30.24	288.38	10.73	-43.5	-46.5	16.7	0.00e+00	0	37	0	656408576	58	5101
2026-01-23 02:13:31.38	288.20	10.68	-43.3	-46.2	16.9	0.00e+00	0	37	0	658505728	58	4934
2026-01-23 02:13:32.23	288.07	10.64	-43.3	-46.1	16.9	0.00e+00	0	37	0	659554304	58	4925
2026-01-23 02:13:33.36	287.88	10.59	-43.4	-46.3	16.8	0.00e+00	0	38	0	661651456	58	5004
2026-01-23 02:13:34.22	287.75	10.56	-43.4	-46.3	16.7	0.00e+00	0	38	0	663748608	58	5019
2026-01-23 02:13:35.36	287.57	10.51	-43.7	-46.7	16.2	0.00e+00	0	37	0	665845760	58	5255
2026-01-23 02:13:36.21	287.43	10.47	-43.9	-47.1	16.0	0.00e+00	0	37	0	666894336	58	5487
2026-01-23 02:13:37.34	287.26	10.42	-44.2	-47.5	15.6	0.00e+00	0	38	0	668991488	58	5740
2026-01-23 02:13:38.20	287.12	10.38	-44.3	-47.6	15.4	0.00e+00	0	38	0	671088640	59	5518
2026-01-23 02:13:39.33	286.94	10.33	-44.6	-48.2	14.8	0.00e+00	0	38	0	673185792	60	5590
2026-01-23 02:13:40.18	286.81	10.29	-44.7	-48.4	14.7	0.00e+00	0	38	0	675282944	60	5693
2026-01-23 02:13:41.51	286.60	10.23	-44.7	-48.4	14.8	0.00e+00	0	37	0	677380096	60	5669
2026-01-23 02:13:42.22	286.49	10.20	-44.7	-48.3	14.9	7.00e-07	0	37	0	678428672	60	5620
2026-01-23 02:13:43.50	286.30	10.14	-44.3	-47.8	15.3	0.00e+00	0	37	0	680525824	60	5292
2026-01-23 02:13:44.21	286.19	10.11	-44.4	-47.9	15.3	0.00e+00	0	37	0	682622976	60	5343
2026-01-23 02:13:45.49	285.99	10.05	-43.9	-47.0	16.0	0.00e+00	0	37	0	684720128	59	5154
2026-01-23 02:13:46.20	285.88	10.02	-43.9	-47.1	15.9	0.00e+00	0	38	0	685768704	59	5207
2026-01-23 02:13:47.48	285.69	9.96	-43.8	-46.9	16.1	0.00e+00	0	37	0	688914432	59	5087
2026-01-23 02:13:48.21	285.57	9.93	-43.9	-47.0	16.0	0.00e+00	0	37	0	689963008	59	5139
2026-01-23 02:13:49.49	285.38	9.87	-44.1	-47.4	15.7	0.00e+00	0	37	0	692060160	59	5356
2026-01-23 02:13:50.20	285.27	9.83	-44.2	-47.5	15.6	0.00e+00	0	37	0	693108736	59	5428
2026-01-23 02:13:51.48	285.08	9.78	-44.6	-48.2	14.8	0.00e+00	0	37	0	696254464	59	5869
2026-01-23 02:13:52.19	284.97	9.74	-44.9	-48.6	14.6	0.00e+00	0	38	0	697303040	60	5829
2026-01-23 02:13:53.49	284.78	9.68	-45.4	-49.5	13.6	5.30e-06	0	37	0	699400192	61	6062
2026-01-23 02:13:54.20	284.67	9.65	-45.5	-49.7	13.4	7.60e-06	0	37	0	701497344	61	6217
2026-01-23 02:13:55.51	284.48	9.59	-45.9	-50.5	12.7	4.04e-05	0	37	0	703594496	62	6433
2026-01-23 02:13:56.22	284.37	9.56	-45.9	-50.5	12.5	1.02e-04	0	38	0	704643072	62	6475
2026-01-23 02:13:57.50	284.18	9.50	-45.7	-50.2	12.8	5.56e-05	0	38	0	706740224	62	6250
2026-01-23 02:13:58.21	284.08	9.46	-45.7	-50.2	12.9	6.63e-05	0	38	0	708837376	62	6206
2026-01-23 02:13:59.49	283.89	9.40	-45.5	-49.7	13.3	4.50e-05	0	37	0	710934528	62	5902
2026-01-23 02:14:00.20	283.79	9.37	-45.4	-49.6	13.4	1.83e-05	0	38	0	711983104	62	5842
2026-01-23 02:14:01.64	283.58	9.30	-45.3	-49.4	13.7	9.90e-06	0	38	0	715128832	62	5694
2026-01-23 02:14:02.35	283.47	9.27	-45.4	-49.6	13.4	6.80e-06	0	38	0	716177408	62	5826
2026-01-23 02:14:03.63	283.29	9.21	-45.3	-49.3	13.8	1.14e-05	0	38	0	718274560	62	5632
2026-01-23 02:14:04.34	283.19	9.17	-45.3	-49.3	13.8	4.50e-06	0	38	0	720371712	62	5622
2026-01-23 02:14:05.72	282.99	9.11	-45.4	-49.4	13.6	1.14e-05	0	38	0	722468864	62	5712
2026-01-23 02:14:06.43	282.89	9.07	-45.3	-49.4	13.7	6.80e-06	0	38	0	723517440	62	5669
2026-01-23 02:14:07.78	282.69	9.01	-45.4	-49.5	13.6	2.20e-06	0	37	0	726663168	62	5731
2026-01-23 02:14:08.49	282.59	8.98	-45.6	-49.8	13.4	7.60e-06	0	38	0	727711744	62	5971
2026-01-23 02:14:09.76	282.41	8.92	-49.2	-64.7	3.8	1.49e+00	0	38	104	728760320	69	22038
2026-01-23 02:14:10.47	282.31	8.88	-49.3	-64.8	3.8	1.49e+00	0	38	104	728760320	69	22299
2026-01-23 02:14:11.75	282.13	8.82	-49.5	-64.9	3.8	1.49e+00	0	37	104	728760320	69	22522
2026-01-23 02:14:12.46	282.03	8.79	-49.6	-64.9	3.8	1.49e+00	0	38	104	728760320	69	22648
2026-01-23 02:14:13.74	281.85	8.73	-49.6	-65.0	3.8	1.49e+00	0	38	104	728760320	69	22886
2026-01-23 02:14:14.46	281.75	8.69	-49.6	-65.0	3.8	1.49e+00	0	38	104	728760320	70	21652
2026-01-23 02:14:15.74	281.57	8.63	-49.8	-65.0	3.8	1.49e+00	0	38	104	728760320	70	21597
2026-01-23 02:14:16.45	281.47	8.59	-49.8	-65.1	3.8	1.49e+00	0	38	104	728760320	70	21774
2026-01-23 02:14:17.73	281.30	8.53	-49.8	-65.1	3.8	1.49e+00	0	38	104	728760320	70	21849
2026-01-23 02:14:18.44	281.20	8.50	-49.8	-65.1	3.8	1.49e+00	0	38	104	728760320	70	21797
2026-01-23 02:14:19.72	281.02	8.44	-49.9	-65.1	3.8	1.49e+00	0	37	104	728760320	70	21898
2026-01-23 02:14:20.43	280.93	8.40	-49.8	-65.1	3.8	1.49e+00	0	38	104	728760320	70	21786
2026-01-23 02:14:21.70	280.75	8.34	-49.8	-65.1	3.8	1.49e+00	0	37	104	728760320	70	21770
2026-01-23 02:14:22.41	280.66	8.31	-49.7	-65.0	3.8	1.49e+00	0	38	104	728760320	70	21755
2026-01-23 02:14:23.69	280.48	8.24	-49.7	-65.1	3.8	1.49e+00	0	37	104	728760320	70	21827
2026-01-23 02:14:24.40	280.39	8.21	-49.7	-65.1	3.8	1.49e+00	0	38	104	728760320	70	21899
2026-01-23 02:14:25.68	280.21	8.15	-49.8	-65.1	3.8	1.49e+00	0	38	104	728760320	70	21816
2026-01-23 02:14:26.39	280.12	8.11	-49.8	-65.0	3.8	1.49e+00	0	37	104	728760320	70	21742
2026-01-23 02:14:27.79	279.93	8.04	-49.8	-65.0	3.8	1.49e+00	0	38	104	728760320	70	21645
2026-01-23 02:14:28.50	279.84	8.01	-49.8	-65.0	3.8	1.49e+00	0	38	104	728760320	70	21663
2026-01-23 02:14:29.86	279.66	7.94	-49.6	-65.0	3.8	1.49e+00	0	38	104	728760320	70	21558
2026-01-23 02:14:30.57	279.56	7.91	-49.6	-65.0	3.8	1.49e+00	0	38	104	728760320	70	21559
2026-01-23 02:14:31.85	279.39	7.84	-49.6	-65.0	3.8	1.49e+00	0	38	104	728760320	70	21578
2026-01-23 02:14:32.56	279.30	7.81	-49.6	-65.0	3.8	1.49e+00	0	38	104	728760320	70	21520
2026-01-23 02:14:33.85	279.13	7.75	-49.6	-65.0	3.8	1.49e+00	0	38	104	728760320	70	21547
2026-01-23 02:14:34.56	279.04	7.71	-49.6	-65.0	3.8	1.49e+00	0	38	104	728760320	70	21548
2026-01-23 02:14:35.83	278.88	7.65	-49.6	-65.0	3.8	1.49e+00	0	38	104	728760320	70	21599
2026-01-23 02:14:36.57	278.78	7.61	-49.6	-65.0	3.8	1.49e+00	0	38	104	728760320	70	21616
2026-01-23 02:14:37.85	278.61	7.55	-49.6	-65.0	3.8	1.49e+00	0	38	104	728760320	70	21536
2026-01-23 02:14:38.56	278.52	7.51	-49.6	-65.0	3.8	1.49e+00	0	38	104	728760320	70	21523
2026-01-23 02:14:39.84	278.36	7.45	-49.6	-64.9	3.8	1.49e+00	0	37	104	728760320	70	21466
2026-01-23 02:14:40.56	278.27	7.41	-49.6	-64.9	3.8	1.49e+00	0	38	104	728760320	70	21502
2026-01-23 02:14:41.84	278.10	7.35	-49.6	-65.0	3.8	1.49e+00	0	38	104	728760320	70	21539
2026-01-23 02:14:42.55	278.01	7.32	-49.6	-64.9	3.8	1.49e+00	0	38	104	728760320	70	21482
2026-01-23 02:14:43.83	277.85	7.25	-49.6	-65.0	3.8	1.49e+00	0	38	104	728760320	70	21543
2026-01-23 02:14:44.54	277.76	7.22	-49.6	-65.0	3.8	1.49e+00	0	38	104	728760320	70	21541
2026-01-23 02:14:45.81	277.60	7.15	-49.6	-64.9	3.8	1.49e+00	0	38	104	728760320	70	21496
2026-01-23 02:14:46.52	277.51	7.12	-49.6	-64.9	3.8	1.49e+00	0	38	104	728760320	70	21464
2026-01-23 02:14:47.80	277.35	7.05	-49.6	-65.0	3.8	1.49e+00	0	38	104	728760320	70	21564
2026-01-23 02:14:48.51	277.27	7.02	-49.6	-65.0	3.8	1.49e+00	0	38	104	728760320	70	21540
2026-01-23 02:14:49.79	277.11	6.96	-49.6	-64.9	3.8	1.49e+00	0	38	104	728760320	70	21499
2026-01-23 02:14:50.51	277.02	6.92	-49.6	-64.9	3.8	1.49e+00	0	38	104	728760320	70	21459
2026-01-23 02:14:51.79	276.86	6.86	-49.6	-65.0	3.8	1.49e+00	0	38	104	728760320	70	21535
2026-01-23 02:14:52.50	276.77	6.82	-49.6	-64.9	3.8	1.49e+00	0	38	104	728760320	70	21461
2026-01-23 02:14:53.78	276.62	6.76	-49.6	-64.9	3.8	1.49e+00	0	38	104	728760320	70	21452
2026-01-23 02:14:54.49	276.53	6.72	-49.6	-64.9	3.8	1.49e+00	0	38	104	728760320	70	21496
2026-01-23 02:14:55.76	276.38	6.66	-49.6	-64.9	3.8	1.49e+00	0	38	104	728760320	70	21411
2026-01-23 02:14:56.49	276.29	6.62	-49.6	-65.0	3.8	1.49e+00	0	38	104	728760320	70	21563
2026-01-23 02:14:57.77	276.13	6.56	-49.6	-65.0	3.8	1.49e+00	0	38	104	728760320	70	21521
2026-01-23 02:14:58.48	276.05	6.52	-49.6	-64.9	3.8	1.49e+00	0	38	104	728760320	70	21491
2026-01-23 02:14:59.75	275.90	6.46	-49.6	-64.9	3.8	1.49e+00	0	38	104	728760320	70	21438
2026-01-23 02:15:00.46	275.81	6.42	-49.6	-64.9	3.8	1.49e+00	0	38	104	728760320	70	21420
2026-01-23 02:15:01.74	275.66	6.36	-49.6	-65.0	3.8	1.49e+00	0	38	104	728760320	70	21553
2026-01-23 02:15:02.45	275.58	6.32	-49.6	-65.0	3.8	1.49e+00	0	38	104	728760320	70	21522
2026-01-23 02:15:03.74	275.42	6.26	-49.6	-64.9	3.8	1.49e+00	0	37	104	728760320	70	21484
2026-01-23 02:15:04.45	275.34	6.22	-49.6	-65.0	3.8	1.49e+00	0	38	104	728760320	70	21564
2026-01-23 02:15:05.73	275.19	6.16	-49.6	-64.9	3.8	1.49e+00	0	38	104	728760320	70	21444
2026-01-23 02:15:06.45	275.11	6.12	-49.6	-64.9	3.8	1.49e+00	0	38	104	728760320	70	21452
2026-01-23 02:15:07.73	274.96	6.06	-49.6	-65.0	3.8	1.49e+00	0	38	104	728760320	70	21523
2026-01-23 02:15:08.44	274.88	6.02	-49.6	-65.0	3.8	1.49e+00	0	38	104	728760320	70	21515
2026-01-23 02:15:09.72	274.73	5.96	-49.6	-64.9	3.8	1.49e+00	0	38	104	728760320	70	21486
2026-01-23 02:15:10.43	274.65	5.92	-49.6	-65.0	3.8	1.49e+00	0	38	104	728760320	70	21516
2026-01-23 02:15:11.70	274.50	5.86	-49.6	-64.9	3.8	1.49e+00	0	38	104	728760320	70	21502
2026-01-23 02:15:12.43	274.42	5.82	-49.6	-64.9	3.8	1.49e+00	0	38	104	728760320	70	21472
2026-01-23 02:15:13.71	274.27	5.76	-49.6	-65.0	3.8	1.49e+00	0	38	104	728760320	70	21530
2026-01-23 02:15:14.42	274.19	5.72	-49.6	-64.9	3.8	1.49e+00	0	38	104	728760320	70	21478
2026-01-23 02:15:15.70	274.05	5.66	-49.6	-65.0	3.8	1.49e+00	0	38	104	728760320	70	21530
2026-01-23 02:15:16.40	273.97	5.62	-49.6	-64.9	3.8	1.49e+00	0	38	104	728760320	70	21461
2026-01-23 02:15:17.68	273.82	5.56	-49.6	-64.9	3.8	1.49e+00	0	38	104	728760320	70	21505
2026-01-23 02:15:18.41	273.74	5.52	-49.6	-64.9	3.8	1.49e+00	0	38	104	728760320	70	21422
2026-01-23 02:15:19.68	273.60	5.46	-49.6	-64.9	3.8	1.49e+00	0	38	104	728760320	70	21475
2026-01-23 02:15:20.39	273.52	5.42	-49.6	-64.9	3.8	1.49e+00	0	38	104	728760320	70	21478
2026-01-23 02:15:21.67	273.38	5.36	-49.6	-64.9	3.8	1.49e+00	0	38	104	728760320	70	21480
2026-01-23 02:15:22.38	273.30	5.32	-49.6	-65.0	3.8	1.49e+00	0	38	104	728760320	70	21514
2026-01-23 02:15:23.66	273.16	5.26	-49.6	-65.0	3.8	1.49e+00	0	38	104	728760320	70	21524
2026-01-23 02:15:24.37	273.08	5.22	-49.6	-65.0	3.8	1.49e+00	0	38	104	728760320	70	21531
2026-01-23 02:15:25.64	272.94	5.16	-49.6	-64.9	3.8	1.49e+00	0	38	104	728760320	70	21464
2026-01-23 02:15:26.37	272.86	5.12	-49.6	-65.0	3.8	1.49e+00	0	38	104	728760320	70	21513
2026-01-23 02:15:27.65	272.72	5.06	-49.6	-64.9	3.8	1.49e+00	0	38	104	728760320	70	21452
2026-01-23 02:15:28.36	272.65	5.02	-49.6	-64.9	3.8	1.49e+00	0	38	104	728760320	70	21490
2026-01-23 02:15:29.63	272.51	4.96	-49.6	-65.0	3.8	1.49e+00	0	38	104	728760320	70	21610

#Closed at: 2026-01-23 02:15:30
#Recorded file [728 MB]: D:/Data/31040_260123_050624.dat