passes_logs/2026/01/23/T1/T1__20260123_044654_FENGYUN_3E_rec.log

#Pass ID: 20260123_044654_FENGYUN 3E
#Satellite: FENGYUN 3E
#Configuration: FENGYUN 3E
#almurnet v.1.7.20251203
#Start time: 2026-01-23 04:46:54

#Version: 2.0.20230620
#Station: T1
#Location: 37.570604 lon 55.790049 lat
#TLE: 1 49008U 21062A   26022.47529509  .00000460  00000+0  23724-3 0  9995
#TLE: 2 49008  98.7486  27.5157 0002334 123.7692 236.3707 14.19888297235908

#Time	Az	El	Level	Level2	SNR	BER	BlckErr	Temp	State	Recorded	gain1	gain2
2026-01-23 04:46:54.81	11.33	5.00	-48.7	-60.2	3.8	8.45e-01	0	36	0	0	67	13827
2026-01-23 04:46:55.80	11.29	5.07	-45.8	-60.1	3.8	8.47e-01	0	36	104	0	61	19360
2026-01-23 04:46:56.79	11.26	5.13	-45.9	-60.2	3.8	8.47e-01	0	36	104	0	61	19422
2026-01-23 04:46:57.78	11.22	5.20	-45.8	-60.1	3.8	8.47e-01	0	36	104	0	61	19348
2026-01-23 04:46:58.78	11.18	5.27	-45.8	-60.1	3.8	8.47e-01	0	36	104	0	61	19323
2026-01-23 04:46:59.77	11.14	5.34	-45.8	-60.1	3.8	8.47e-01	0	36	104	0	61	19318
2026-01-23 04:47:00.76	11.10	5.41	-45.8	-60.1	3.8	8.47e-01	0	36	104	0	61	19300
2026-01-23 04:47:01.76	11.06	5.48	-45.8	-60.1	3.8	8.47e-01	0	36	104	0	61	19249
2026-01-23 04:47:02.75	11.02	5.55	-45.8	-60.0	3.8	8.46e-01	0	36	104	0	61	19127
2026-01-23 04:47:03.74	10.98	5.62	-45.8	-60.1	3.8	8.46e-01	0	36	104	0	61	19248
2026-01-23 04:47:04.74	10.94	5.69	-45.8	-60.0	3.8	8.47e-01	0	36	104	0	61	19023
2026-01-23 04:47:05.73	10.90	5.76	-45.8	-60.0	3.8	8.48e-01	0	36	104	0	61	19128
2026-01-23 04:47:06.73	10.86	5.83	-45.8	-60.0	3.8	8.46e-01	0	36	104	0	61	19071
2026-01-23 04:47:07.72	10.81	5.90	-45.8	-60.0	3.8	8.46e-01	0	36	104	0	61	19099
2026-01-23 04:47:08.71	10.77	5.97	-45.8	-59.9	3.8	8.47e-01	0	36	104	0	61	18926
2026-01-23 04:47:09.71	10.73	6.04	-45.8	-60.1	3.8	8.47e-01	0	36	104	0	61	19210
2026-01-23 04:47:10.70	10.69	6.11	-45.8	-60.0	3.8	8.47e-01	0	37	104	0	61	19099
2026-01-23 04:47:11.69	10.65	6.18	-45.8	-60.1	3.8	8.46e-01	0	36	104	0	61	19185
2026-01-23 04:47:12.69	10.61	6.25	-45.8	-60.1	3.8	8.46e-01	0	37	104	0	61	19214
2026-01-23 04:47:13.68	10.56	6.33	-45.8	-60.1	3.8	8.47e-01	0	37	104	0	61	19184
2026-01-23 04:47:14.67	10.52	6.40	-45.8	-60.0	3.8	8.47e-01	0	36	104	0	61	19097
2026-01-23 04:47:15.67	10.48	6.47	-45.8	-59.9	3.8	8.47e-01	0	37	104	0	61	18872
2026-01-23 04:47:16.66	10.43	6.54	-45.8	-59.7	3.8	8.46e-01	0	36	104	0	61	18491
2026-01-23 04:47:17.65	10.39	6.61	-45.8	-59.5	3.8	8.47e-01	0	37	104	0	61	17945
2026-01-23 04:47:18.65	10.35	6.69	-45.8	-59.1	3.8	8.45e-01	0	37	104	0	61	17125
2026-01-23 04:47:19.64	10.30	6.76	-45.7	-58.6	3.8	8.46e-01	0	37	104	0	61	16227
2026-01-23 04:47:20.63	10.26	6.83	-45.7	-58.1	3.8	8.46e-01	0	37	104	0	61	15263
2026-01-23 04:47:21.63	10.22	6.90	-45.7	-57.6	3.8	8.44e-01	0	37	104	0	61	14502
2026-01-23 04:47:22.62	10.17	6.98	-45.6	-57.1	4.1	8.43e-01	0	37	0	0	61	13708
2026-01-23 04:47:23.61	10.13	7.05	-45.6	-56.8	4.2	8.40e-01	0	37	0	0	61	13174
2026-01-23 04:47:24.61	10.08	7.12	-45.6	-56.6	4.2	8.37e-01	0	37	0	0	61	12879
2026-01-23 04:47:25.60	10.04	7.20	-45.6	-56.7	4.2	8.37e-01	0	37	0	0	61	13051
2026-01-23 04:47:26.59	9.99	7.27	-45.5	-57.0	4.1	8.40e-01	0	37	0	0	61	13422
2026-01-23 04:47:27.58	9.94	7.34	-45.6	-57.3	4.1	8.43e-01	0	37	0	0	61	13908
2026-01-23 04:47:28.58	9.90	7.42	-45.6	-57.8	3.8	8.43e-01	0	37	104	0	61	14739
2026-01-23 04:47:29.57	9.85	7.49	-45.7	-58.5	3.8	8.46e-01	0	37	104	0	61	16067
2026-01-23 04:47:30.57	9.81	7.57	-45.7	-59.0	3.8	8.45e-01	0	37	104	0	61	16909
2026-01-23 04:47:31.56	9.76	7.64	-45.7	-59.4	3.8	8.46e-01	0	37	104	0	61	17833
2026-01-23 04:47:32.55	9.71	7.72	-45.7	-59.9	3.8	8.47e-01	0	37	104	0	61	18846
2026-01-23 04:47:33.55	9.66	7.79	-45.8	-60.2	3.8	8.47e-01	0	37	104	0	61	19391
2026-01-23 04:47:34.54	9.62	7.87	-45.8	-60.1	3.8	8.47e-01	0	37	104	0	61	19308
2026-01-23 04:47:35.54	9.57	7.95	-45.7	-59.5	3.8	8.46e-01	0	37	104	0	61	17929
2026-01-23 04:47:36.53	9.52	8.02	-45.7	-57.7	4.0	8.45e-01	0	37	104	0	61	14632
2026-01-23 04:47:37.52	9.47	8.10	-45.4	-55.2	4.7	8.28e-01	0	37	0	0	61	11025
2026-01-23 04:47:38.52	9.42	8.17	-45.0	-52.8	6.3	3.69e-01	0	37	0	2097152	60	8767
2026-01-23 04:47:39.51	9.37	8.25	-44.6	-50.8	8.1	9.25e-02	0	37	0	8388608	60	7008
2026-01-23 04:47:40.50	9.33	8.33	-44.1	-48.7	10.2	1.74e-02	0	37	0	15728640	59	5836
2026-01-23 04:47:41.50	9.28	8.40	-43.3	-47.1	11.9	7.15e-04	0	37	0	23068672	57	5432
2026-01-23 04:47:42.49	9.23	8.48	-42.7	-45.8	13.2	4.80e-05	0	37	0	30408704	56	4982
2026-01-23 04:47:43.48	9.18	8.56	-41.9	-44.6	14.3	2.20e-06	0	37	0	37748736	54	4836
2026-01-23 04:47:44.48	9.12	8.64	-41.3	-43.7	15.2	0.00e+00	0	37	0	45088768	53	4624
2026-01-23 04:47:45.47	9.07	8.71	-40.9	-43.1	15.8	0.00e+00	0	38	0	52428800	52	4594
2026-01-23 04:47:46.46	9.02	8.79	-40.7	-42.8	16.1	0.00e+00	0	37	0	58720256	52	4434
2026-01-23 04:47:47.46	8.97	8.87	-40.7	-42.8	16.2	0.00e+00	0	37	0	66060288	51	4676
2026-01-23 04:47:48.45	8.92	8.95	-40.8	-42.9	16.1	0.00e+00	0	37	0	73400320	51	4749
2026-01-23 04:47:49.44	8.87	9.03	-41.0	-43.2	15.8	0.00e+00	0	37	0	80740352	51	4906
2026-01-23 04:47:50.44	8.82	9.11	-41.4	-43.8	15.1	0.00e+00	0	37	0	88080384	52	4972
2026-01-23 04:47:51.43	8.76	9.19	-43.0	-46.5	12.4	4.34e-05	0	37	0	95420416	55	5705
2026-01-23 04:47:52.43	8.71	9.27	-42.2	-45.0	13.8	1.51e-02	0	38	0	101711872	55	4796
2026-01-23 04:47:53.43	8.66	9.35	-38.9	-40.3	18.6	0.00e+00	0	37	0	109051904	48	4182
2026-01-23 04:47:54.42	8.60	9.43	-38.7	-40.1	18.7	0.00e+00	0	38	0	116391936	47	4320
2026-01-23 04:47:55.42	8.55	9.51	-40.8	-42.7	16.2	9.23e-04	0	38	0	123731968	52	4352
2026-01-23 04:47:56.41	8.50	9.59	-38.2	-39.5	19.3	0.00e+00	0	38	0	131072000	47	4030
2026-01-23 04:47:57.41	8.44	9.67	-38.3	-39.6	19.2	0.00e+00	0	37	0	137363456	47	4076
2026-01-23 04:47:58.40	8.39	9.75	-38.3	-39.6	19.2	0.00e+00	0	38	0	144703488	47	4071
2026-01-23 04:47:59.43	8.33	9.83	-38.2	-39.5	19.3	0.00e+00	0	38	0	153092096	47	4007
2026-01-23 04:48:00.47	8.27	9.92	-38.3	-39.6	19.1	0.00e+00	0	38	0	160432128	47	4084
2026-01-23 04:48:01.46	8.22	10.00	-38.4	-39.7	19.0	0.00e+00	0	38	0	167772160	47	4141
2026-01-23 04:48:02.46	8.16	10.08	-38.2	-39.5	19.2	0.00e+00	0	38	0	174063616	47	4039
2026-01-23 04:48:03.45	8.10	10.16	-38.0	-39.2	19.5	0.00e+00	0	38	0	181403648	46	4144
2026-01-23 04:48:04.45	8.05	10.25	-38.1	-39.3	19.5	0.00e+00	0	38	0	188743680	46	4161
2026-01-23 04:48:05.44	7.99	10.33	-38.1	-39.3	19.5	0.00e+00	0	38	0	196083712	46	4186
2026-01-23 04:48:06.44	7.93	10.41	-38.1	-39.4	19.4	0.00e+00	0	38	0	203423744	46	4199
2026-01-23 04:48:07.43	7.87	10.49	-38.0	-39.2	19.6	0.00e+00	0	38	0	210763776	46	4133
2026-01-23 04:48:08.43	7.82	10.58	-38.1	-39.3	19.5	0.00e+00	0	38	0	218103808	46	4156
2026-01-23 04:48:09.42	7.76	10.66	-38.0	-39.3	19.6	0.00e+00	0	38	0	224395264	46	4146
2026-01-23 04:48:10.40	7.70	10.74	-37.9	-39.0	19.7	0.00e+00	0	38	0	231735296	46	4051
2026-01-23 04:48:11.39	7.64	10.83	-38.1	-39.3	19.5	0.00e+00	0	38	0	239075328	46	4170
2026-01-23 04:48:12.39	7.58	10.91	-38.0	-39.2	19.6	0.00e+00	0	38	0	246415360	46	4117
2026-01-23 04:48:13.38	7.52	11.00	-38.0	-39.2	19.6	0.00e+00	0	38	0	253755392	46	4105
2026-01-23 04:48:14.38	7.46	11.08	-38.0	-39.1	19.7	0.00e+00	0	38	0	261095424	46	4075
2026-01-23 04:48:15.37	7.40	11.17	-37.9	-39.0	19.8	0.00e+00	0	38	0	267386880	46	4045
2026-01-23 04:48:16.41	7.33	11.26	-38.1	-39.2	19.6	0.00e+00	0	38	0	275775488	46	4130
2026-01-23 04:48:17.38	7.27	11.34	-38.0	-39.1	19.7	0.00e+00	0	38	0	282066944	46	4090
2026-01-23 04:48:18.45	7.21	11.43	-37.9	-39.0	19.8	0.00e+00	0	38	0	290455552	46	4034
2026-01-23 04:48:19.30	7.16	11.51	-37.9	-39.0	19.8	0.00e+00	0	38	0	296747008	46	4024
2026-01-23 04:48:20.44	7.08	11.60	-37.9	-39.0	19.8	0.00e+00	0	38	0	305135616	46	4033
2026-01-23 04:48:21.29	7.03	11.68	-37.9	-39.0	19.8	0.00e+00	0	38	0	310378496	46	4038
2026-01-23 04:48:22.43	6.96	11.78	-37.8	-38.9	19.8	0.00e+00	0	38	0	318767104	46	4003
2026-01-23 04:48:23.28	6.90	11.85	-37.9	-39.0	19.8	0.00e+00	0	38	0	325058560	46	4016
2026-01-23 04:48:24.42	6.83	11.95	-37.9	-39.0	19.8	0.00e+00	0	38	0	333447168	46	4027
2026-01-23 04:48:25.27	6.77	12.03	-37.8	-38.9	19.9	0.00e+00	0	38	0	339738624	46	4004
2026-01-23 04:48:26.41	6.70	12.13	-37.8	-38.8	20.0	0.00e+00	0	38	0	347078656	46	3956
2026-01-23 04:48:27.26	6.64	12.21	-37.7	-38.8	20.0	0.00e+00	0	38	0	353370112	46	3941
2026-01-23 04:48:28.40	6.57	12.31	-37.7	-38.7	20.1	0.00e+00	0	38	0	361758720	45	4144
2026-01-23 04:48:29.25	6.51	12.38	-37.5	-38.6	20.2	0.00e+00	0	38	0	368050176	45	4082
2026-01-23 04:48:30.39	6.43	12.49	-37.5	-38.6	20.2	0.00e+00	0	38	0	376438784	45	4081
2026-01-23 04:48:31.24	6.38	12.56	-37.5	-38.6	20.2	0.00e+00	0	38	0	382730240	45	4070
2026-01-23 04:48:32.38	6.30	12.66	-37.7	-38.8	20.0	0.00e+00	0	38	0	390070272	45	4160
2026-01-23 04:48:33.23	6.24	12.74	-37.6	-38.6	20.2	0.00e+00	0	38	0	396361728	45	4094
2026-01-23 04:48:34.37	6.16	12.85	-37.6	-38.6	20.2	0.00e+00	0	38	0	404750336	45	4095
2026-01-23 04:48:35.28	6.10	12.93	-37.6	-38.6	20.2	0.00e+00	0	38	0	411041792	45	4096
2026-01-23 04:48:36.45	6.02	13.04	-37.4	-38.4	20.4	0.00e+00	0	38	0	420478976	45	3989
2026-01-23 04:48:37.30	5.96	13.11	-37.3	-38.4	20.5	0.00e+00	0	38	0	426770432	45	3967
2026-01-23 04:48:38.44	5.88	13.22	-37.4	-38.4	20.4	0.00e+00	0	38	0	434110464	45	3985
2026-01-23 04:48:39.29	5.82	13.30	-37.6	-38.6	20.2	0.00e+00	0	38	0	440401920	45	4066
2026-01-23 04:48:40.43	5.73	13.40	-37.3	-38.3	20.5	0.00e+00	0	38	0	448790528	45	3926
2026-01-23 04:48:41.28	5.67	13.48	-37.3	-38.3	20.5	0.00e+00	0	38	0	455081984	45	3925
2026-01-23 04:48:42.42	5.59	13.59	-37.4	-38.4	20.4	0.00e+00	0	38	0	463470592	45	4002
2026-01-23 04:48:43.27	5.53	13.67	-37.4	-38.4	20.4	0.00e+00	0	38	0	468713472	45	3975
2026-01-23 04:48:44.41	5.44	13.78	-37.3	-38.3	20.5	0.00e+00	0	38	0	477102080	45	3933
2026-01-23 04:48:45.26	5.38	13.86	-37.3	-38.3	20.5	0.00e+00	0	38	0	483393536	45	3943
2026-01-23 04:48:46.39	5.30	13.96	-37.3	-38.4	20.5	0.00e+00	0	38	0	491782144	45	3959
2026-01-23 04:48:47.25	5.23	14.04	-37.3	-38.3	20.5	0.00e+00	0	38	0	498073600	45	3934
2026-01-23 04:48:48.38	5.15	14.15	-37.1	-38.1	20.7	0.00e+00	0	38	0	506462208	45	3851
2026-01-23 04:48:49.24	5.08	14.23	-37.3	-38.3	20.5	0.00e+00	0	38	0	511705088	45	3943
2026-01-23 04:48:50.38	4.99	14.34	-37.2	-38.2	20.6	0.00e+00	0	38	0	520093696	44	4128
2026-01-23 04:48:51.23	4.93	14.43	-37.2	-38.2	20.6	0.00e+00	0	38	0	526385152	44	4138
2026-01-23 04:48:52.49	4.83	14.55	-37.2	-38.2	20.7	0.00e+00	0	38	0	535822336	44	4109
2026-01-23 04:48:53.29	4.77	14.62	-37.2	-38.3	20.6	0.00e+00	0	38	0	542113792	44	4157
2026-01-23 04:48:54.43	4.68	14.74	-37.1	-38.1	20.8	0.00e+00	0	38	0	549453824	44	4092
2026-01-23 04:48:55.28	4.61	14.82	-37.1	-38.1	20.8	0.00e+00	0	38	0	555745280	44	4057
2026-01-23 04:48:56.61	4.50	14.95	-37.0	-38.0	20.8	0.00e+00	0	38	0	565182464	44	4034
2026-01-23 04:48:57.74	4.41	15.06	-37.0	-38.0	20.9	0.00e+00	0	38	0	573571072	44	4013
2026-01-23 04:48:58.60	4.34	15.15	-37.2	-38.1	20.7	0.00e+00	0	38	0	579862528	44	4097
2026-01-23 04:48:59.73	4.25	15.26	-37.0	-38.0	20.9	0.00e+00	0	38	0	588251136	44	4026
2026-01-23 04:49:00.59	4.18	15.34	-37.0	-38.0	20.8	0.00e+00	0	38	0	594542592	44	4038
2026-01-23 04:49:01.73	4.09	15.46	-36.9	-37.9	21.0	0.00e+00	0	38	0	601882624	44	3980
2026-01-23 04:49:02.58	4.01	15.54	-36.9	-37.9	21.0	0.00e+00	0	38	0	608174080	44	3960
2026-01-23 04:49:03.72	3.92	15.66	-36.7	-37.6	21.2	0.00e+00	0	38	0	616562688	44	3857
2026-01-23 04:49:04.57	3.85	15.74	-36.8	-37.8	21.1	0.00e+00	0	38	0	622854144	44	3917
2026-01-23 04:49:05.93	3.73	15.88	-36.8	-37.8	21.1	0.00e+00	0	38	0	632291328	44	3919
2026-01-23 04:49:06.64	3.67	15.95	-36.8	-37.7	21.2	0.00e+00	0	38	0	637534208	44	3898
2026-01-23 04:49:08.12	3.54	16.10	-36.4	-37.4	21.3	0.00e+00	0	38	0	649068544	43	3966
2026-01-23 04:49:08.83	3.48	16.17	-36.3	-37.3	21.4	0.00e+00	0	38	0	653262848	43	3923
2026-01-23 04:49:10.11	3.37	16.31	-36.4	-37.3	21.4	0.00e+00	0	38	0	662700032	43	3948
2026-01-23 04:49:11.20	3.27	16.42	-36.4	-37.3	21.4	0.00e+00	0	38	0	671088640	43	3939
2026-01-23 04:49:12.05	3.19	16.51	-36.4	-37.3	21.4	0.00e+00	0	38	0	677380096	43	3950
2026-01-23 04:49:13.19	3.09	16.63	-36.5	-37.4	21.3	0.00e+00	0	38	0	684720128	43	3980
2026-01-23 04:49:14.04	3.02	16.71	-36.5	-37.5	21.3	0.00e+00	0	38	0	691011584	43	4009
2026-01-23 04:49:15.19	2.91	16.83	-36.4	-37.3	21.4	0.00e+00	0	38	0	699400192	43	3935
2026-01-23 04:49:16.05	2.83	16.92	-36.4	-37.4	21.3	0.00e+00	0	38	0	705691648	43	3970
2026-01-23 04:49:17.18	2.73	17.04	-36.5	-37.4	21.3	0.00e+00	0	38	0	714080256	43	3984
2026-01-23 04:49:18.04	2.65	17.13	-36.5	-37.4	21.3	0.00e+00	0	38	0	720371712	43	3980
2026-01-23 04:49:19.17	2.54	17.25	-36.5	-37.4	21.3	0.00e+00	0	38	0	728760320	43	3973
2026-01-23 04:49:20.07	2.46	17.35	-36.4	-37.3	21.4	0.00e+00	0	38	0	735051776	43	3944
2026-01-23 04:49:21.35	2.33	17.49	-36.5	-37.4	21.4	0.00e+00	0	38	0	744488960	43	3975
2026-01-23 04:49:22.06	2.27	17.56	-36.4	-37.4	21.4	0.00e+00	0	38	0	749731840	43	3961
2026-01-23 04:49:23.61	2.12	17.73	-36.5	-37.4	21.4	0.00e+00	0	38	0	760217600	43	3970
2026-01-23 04:49:24.32	2.05	17.81	-36.3	-37.2	21.5	0.00e+00	0	38	0	765460480	43	3913
2026-01-23 04:49:25.60	1.92	17.95	-36.5	-37.4	21.4	0.00e+00	0	38	0	774897664	43	3980
2026-01-23 04:49:26.67	1.81	18.06	-36.5	-37.4	21.3	0.00e+00	0	38	0	782237696	43	3998
2026-01-23 04:49:27.81	1.70	18.19	-36.5	-37.4	21.3	0.00e+00	0	38	0	790626304	43	3993
2026-01-23 04:49:28.83	1.60	18.30	-36.3	-37.2	21.5	0.00e+00	0	38	0	797966336	43	3909
2026-01-23 04:49:29.83	1.50	18.41	-36.3	-37.2	21.6	0.00e+00	0	38	0	805306368	43	3894
2026-01-23 04:49:30.82	1.39	18.52	-36.3	-37.2	21.6	0.00e+00	0	38	0	812646400	42	4100
2026-01-23 04:49:31.82	1.29	18.63	-36.2	-37.1	21.6	0.00e+00	0	38	0	819986432	42	4068
2026-01-23 04:49:32.81	1.19	18.74	-35.9	-36.8	21.9	0.00e+00	0	38	0	827326464	42	3940
2026-01-23 04:49:33.81	1.08	18.85	-35.8	-36.7	22.0	0.00e+00	0	38	0	833617920	42	3895
2026-01-23 04:49:34.80	0.98	18.96	-35.7	-36.6	22.2	0.00e+00	0	38	0	840957952	42	3830
2026-01-23 04:49:35.80	0.87	19.08	-35.6	-36.5	22.2	0.00e+00	0	38	0	848297984	42	3811
2026-01-23 04:49:36.79	0.77	19.19	-35.6	-36.4	22.2	0.00e+00	0	38	0	855638016	42	3779
2026-01-23 04:49:37.78	0.66	19.30	-35.6	-36.4	22.3	0.00e+00	0	38	0	862978048	41	3997
2026-01-23 04:49:38.78	0.55	19.41	-35.6	-36.4	22.2	0.00e+00	0	38	0	870318080	41	4003
2026-01-23 04:49:39.78	0.44	19.53	-35.4	-36.3	22.4	0.00e+00	0	38	0	876609536	41	3926
2026-01-23 04:49:40.77	0.33	19.64	-35.5	-36.4	22.3	0.00e+00	0	38	0	883949568	40	4223
2026-01-23 04:49:41.81	0.22	19.76	-35.3	-36.2	22.5	0.00e+00	0	38	0	892338176	40	4099
2026-01-23 04:49:42.79	0.11	19.88	-35.4	-36.2	22.4	0.00e+00	0	38	0	898629632	40	4140
2026-01-23 04:49:43.79	359.99	19.99	-35.3	-36.1	22.5	0.00e+00	0	38	0	905969664	40	4093
2026-01-23 04:49:44.91	359.86	20.12	-35.2	-36.1	22.6	0.00e+00	0	38	0	914358272	40	4071
2026-01-23 04:49:45.79	359.76	20.22	-35.2	-36.1	22.6	0.00e+00	0	38	0	920649728	40	4058
2026-01-23 04:49:47.10	359.61	20.38	-35.3	-36.1	22.5	0.00e+00	0	38	0	930086912	40	4080
2026-01-23 04:49:47.81	359.53	20.46	-35.3	-36.1	22.5	0.00e+00	0	38	0	935329792	40	4095
2026-01-23 04:49:49.09	359.38	20.61	-35.3	-36.1	22.5	0.00e+00	0	38	0	943718400	40	4098
2026-01-23 04:49:49.82	359.29	20.70	-35.4	-36.3	22.4	0.00e+00	0	38	0	950009856	40	4162
2026-01-23 04:49:51.10	359.14	20.85	-35.0	-35.9	22.8	0.00e+00	0	38	0	959447040	40	3963
2026-01-23 04:49:51.81	359.05	20.94	-35.5	-36.4	22.3	0.00e+00	0	38	0	963641344	41	3987
2026-01-23 04:49:53.09	358.90	21.09	-35.4	-36.3	22.4	0.00e+00	0	38	0	973078528	41	3923
2026-01-23 04:49:53.88	358.80	21.19	-35.3	-36.2	22.5	0.00e+00	0	38	0	979369984	41	3881
2026-01-23 04:49:55.06	358.65	21.33	-35.2	-36.0	22.6	0.00e+00	0	38	0	987758592	41	3821
2026-01-23 04:49:55.92	358.55	21.43	-35.1	-36.0	22.7	0.00e+00	0	38	0	994050048	40	4011
2026-01-23 04:49:57.06	358.40	21.57	-35.1	-35.9	22.7	0.00e+00	0	38	0	1002438656	40	3995
2026-01-23 04:49:57.91	358.30	21.68	-34.9	-35.8	22.9	0.00e+00	0	38	0	1007681536	40	3936
2026-01-23 04:49:59.05	358.15	21.82	-34.9	-35.7	22.9	0.00e+00	0	38	0	1016070144	40	3896
2026-01-23 04:49:59.90	358.04	21.92	-34.9	-35.7	22.9	0.00e+00	0	38	0	1022361600	40	3906
2026-01-23 04:50:01.04	357.89	22.06	-34.9	-35.7	22.9	0.00e+00	0	38	0	1030750208	40	3894
2026-01-23 04:50:01.89	357.78	22.17	-34.8	-35.6	23.1	0.00e+00	0	38	0	1037041664	39	4076
2026-01-23 04:50:03.03	357.63	22.31	-34.9	-35.7	23.0	0.00e+00	0	38	0	1044381696	39	4134
2026-01-23 04:50:03.88	357.52	22.41	-34.9	-35.7	23.0	0.00e+00	0	38	0	1050673152	39	4136
2026-01-23 04:50:05.01	357.37	22.55	-34.8	-35.6	23.1	0.00e+00	0	38	0	1059061760	39	4088
2026-01-23 04:50:05.87	357.25	22.66	-34.8	-35.7	23.1	0.00e+00	0	39	0	1065353216	39	4112
2026-01-23 04:50:07.10	357.08	22.82	-35.0	-35.9	22.9	0.00e+00	0	38	0	1074790400	39	4213
2026-01-23 04:50:07.95	356.97	22.93	-34.9	-35.8	22.9	0.00e+00	0	38	0	1081081856	39	4146
2026-01-23 04:50:09.09	356.81	23.07	-34.9	-35.8	23.0	0.00e+00	0	38	0	1088421888	39	4159
2026-01-23 04:50:09.94	356.69	23.18	-35.0	-35.9	22.9	0.00e+00	0	38	0	1094713344	39	4213
2026-01-23 04:50:11.08	356.53	23.32	-35.3	-36.1	22.6	0.00e+00	0	38	0	1103101952	39	4327
2026-01-23 04:50:12.00	356.40	23.44	-35.6	-36.5	22.2	0.00e+00	0	38	0	1109393408	40	4280
2026-01-23 04:50:12.99	356.25	23.57	-35.3	-36.2	22.5	0.00e+00	0	38	0	1116733440	40	4107
2026-01-23 04:50:13.99	356.11	23.70	-35.4	-36.2	22.5	0.00e+00	0	38	0	1124073472	40	4145
2026-01-23 04:50:14.98	355.97	23.83	-35.2	-36.1	22.6	0.00e+00	0	39	0	1131413504	40	4068
2026-01-23 04:50:15.98	355.82	23.96	-35.2	-36.1	22.6	0.00e+00	0	38	0	1138753536	40	4084
2026-01-23 04:50:16.97	355.67	24.09	-35.1	-36.0	22.7	0.00e+00	0	38	0	1146093568	40	4014
2026-01-23 04:50:17.97	355.52	24.22	-35.2	-36.1	22.6	0.00e+00	0	38	0	1152385024	40	4073
2026-01-23 04:50:18.96	355.37	24.35	-35.3	-36.1	22.6	0.00e+00	0	38	0	1159725056	40	4081
2026-01-23 04:50:19.96	355.22	24.48	-35.3	-36.1	22.6	0.00e+00	0	38	0	1167065088	40	4096
2026-01-23 04:50:20.95	355.07	24.61	-35.2	-36.0	22.7	0.00e+00	0	38	0	1174405120	40	4047
2026-01-23 04:50:21.95	354.91	24.74	-35.2	-36.1	22.7	0.00e+00	0	38	0	1181745152	40	4054
2026-01-23 04:50:22.94	354.76	24.88	-35.1	-35.9	22.8	0.00e+00	0	38	0	1188036608	40	3999
2026-01-23 04:50:23.94	354.60	25.01	-35.3	-36.2	22.6	0.00e+00	0	38	0	1195376640	40	4111
2026-01-23 04:50:24.93	354.44	25.14	-35.2	-36.1	22.6	0.00e+00	0	38	0	1202716672	40	4071
2026-01-23 04:50:25.92	354.29	25.28	-35.3	-36.1	22.6	0.00e+00	0	38	0	1210056704	40	4097
2026-01-23 04:50:26.92	354.12	25.41	-35.3	-36.1	22.6	0.00e+00	0	38	0	1217396736	40	4078
2026-01-23 04:50:27.92	353.96	25.55	-35.2	-36.0	22.8	0.00e+00	0	38	0	1224736768	40	4032
2026-01-23 04:50:28.91	353.80	25.68	-35.2	-36.1	22.7	0.00e+00	0	38	0	1232076800	40	4065
2026-01-23 04:50:29.90	353.63	25.81	-35.3	-36.1	22.6	0.00e+00	0	38	0	1239416832	40	4091
2026-01-23 04:50:30.90	353.47	25.95	-35.2	-36.1	22.6	0.00e+00	0	38	0	1246756864	40	4078
2026-01-23 04:50:31.89	353.30	26.09	-35.3	-36.2	22.6	0.00e+00	0	38	0	1253048320	40	4111
2026-01-23 04:50:32.89	353.13	26.22	-35.6	-36.5	22.3	0.00e+00	0	38	0	1260388352	40	4256
2026-01-23 04:50:33.91	352.95	26.37	-35.2	-36.1	22.7	0.00e+00	0	39	0	1267728384	40	4068
2026-01-23 04:50:34.92	352.78	26.51	-35.2	-36.0	22.7	0.00e+00	0	38	0	1275068416	40	4044
2026-01-23 04:50:35.93	352.60	26.65	-35.2	-36.1	22.7	0.00e+00	0	38	0	1282408448	40	4058
2026-01-23 04:50:36.96	352.42	26.79	-35.3	-36.1	22.6	0.00e+00	0	38	0	1289748480	40	4086
2026-01-23 04:50:37.99	352.24	26.93	-35.0	-35.8	22.9	0.00e+00	0	38	0	1297088512	40	3947
2026-01-23 04:50:38.98	352.06	27.07	-35.2	-36.1	22.7	0.00e+00	0	38	0	1304428544	40	4063
2026-01-23 04:50:39.97	351.88	27.21	-35.3	-36.1	22.7	0.00e+00	0	39	0	1311768576	40	4076
2026-01-23 04:50:40.97	351.70	27.35	-35.1	-36.0	22.8	0.00e+00	0	38	0	1319108608	40	4016
2026-01-23 04:50:41.97	351.51	27.49	-35.1	-36.0	22.8	0.00e+00	0	38	0	1326448640	40	4009
2026-01-23 04:50:42.96	351.33	27.63	-35.1	-36.0	22.8	0.00e+00	0	38	0	1333788672	40	4022
2026-01-23 04:50:43.96	351.14	27.77	-35.1	-36.0	22.7	0.00e+00	0	38	0	1340080128	40	4026
2026-01-23 04:50:44.95	350.95	27.92	-35.0	-35.9	22.9	0.00e+00	0	38	0	1347420160	40	3966
2026-01-23 04:50:45.94	350.76	28.06	-34.9	-35.8	23.0	0.00e+00	0	38	0	1354760192	40	3917
2026-01-23 04:50:46.94	350.57	28.20	-34.9	-35.7	23.0	0.00e+00	0	38	0	1362100224	40	3901
2026-01-23 04:50:47.93	350.38	28.34	-34.9	-35.7	23.0	0.00e+00	0	38	0	1369440256	40	3891
2026-01-23 04:50:48.93	350.18	28.49	-34.8	-35.6	23.1	0.00e+00	0	38	0	1375731712	39	4098
2026-01-23 04:50:49.92	349.98	28.63	-34.9	-35.8	23.0	0.00e+00	0	38	0	1383071744	39	4158
2026-01-23 04:50:50.92	349.78	28.77	-34.8	-35.6	23.2	0.00e+00	0	38	0	1390411776	39	4077
2026-01-23 04:50:51.96	349.57	28.92	-34.7	-35.6	23.2	0.00e+00	0	39	0	1397751808	39	4061
2026-01-23 04:50:52.94	349.37	29.07	-34.6	-35.4	23.3	0.00e+00	0	38	0	1405091840	39	3994
2026-01-23 04:50:53.94	349.17	29.21	-34.3	-35.1	23.7	0.00e+00	0	38	0	1412431872	39	3839
2026-01-23 04:50:54.93	348.96	29.36	-34.5	-35.3	23.4	0.00e+00	0	38	0	1419771904	39	3956
2026-01-23 04:50:55.92	348.75	29.50	-34.5	-35.4	23.4	0.00e+00	0	38	0	1427111936	39	3969
2026-01-23 04:50:56.92	348.54	29.65	-34.4	-35.3	23.5	0.00e+00	0	38	0	1434451968	39	3923
2026-01-23 04:50:57.91	348.33	29.79	-34.5	-35.3	23.4	0.00e+00	0	38	0	1440743424	39	3942
2026-01-23 04:50:58.90	348.12	29.94	-34.6	-35.5	23.3	0.00e+00	0	38	0	1448083456	39	4005
2026-01-23 04:50:59.90	347.90	30.09	-34.4	-35.2	23.6	0.00e+00	0	38	0	1455423488	39	3895
2026-01-23 04:51:00.89	347.68	30.23	-34.6	-35.4	23.3	0.00e+00	0	38	0	1462763520	39	3991
2026-01-23 04:51:01.92	347.45	30.39	-34.6	-35.4	23.3	0.00e+00	0	38	0	1470103552	39	4000
2026-01-23 04:51:02.96	347.22	30.54	-34.8	-35.6	23.2	0.00e+00	0	38	0	1477443584	39	4077
2026-01-23 04:51:03.91	347.00	30.68	-34.6	-35.4	23.3	0.00e+00	0	38	0	1484783616	39	3985
2026-01-23 04:51:04.90	346.78	30.83	-34.6	-35.4	23.4	0.00e+00	0	38	0	1492123648	39	3989
2026-01-23 04:51:05.90	346.55	30.98	-34.8	-35.7	23.1	0.00e+00	0	38	0	1499463680	39	4111
2026-01-23 04:51:06.89	346.32	31.13	-34.8	-35.6	23.2	0.00e+00	0	38	0	1505755136	39	4092
2026-01-23 04:51:07.89	346.08	31.28	-34.9	-35.8	23.0	0.00e+00	0	38	0	1513095168	39	4158
2026-01-23 04:51:08.88	345.85	31.43	-35.1	-35.9	22.9	0.00e+00	0	38	0	1520435200	39	4224
2026-01-23 04:51:09.88	345.61	31.58	-34.8	-35.7	23.1	0.00e+00	0	38	0	1527775232	40	3886
2026-01-23 04:51:10.87	345.37	31.72	-34.8	-35.7	23.1	0.00e+00	0	38	0	1535115264	40	3888
2026-01-23 04:51:11.87	345.13	31.87	-34.8	-35.7	23.1	0.00e+00	0	38	0	1541406720	40	3889
2026-01-23 04:51:12.86	344.89	32.02	-35.0	-35.8	22.9	0.00e+00	0	38	0	1548746752	40	3951
2026-01-23 04:51:13.86	344.64	32.17	-34.9	-35.8	23.0	0.00e+00	0	38	0	1556086784	40	3936
2026-01-23 04:51:14.85	344.39	32.32	-34.8	-35.7	23.1	0.00e+00	0	38	0	1563426816	40	3892
2026-01-23 04:51:15.85	344.14	32.48	-34.8	-35.7	23.1	0.00e+00	0	38	0	1570766848	40	3894
2026-01-23 04:51:16.85	343.88	32.63	-34.8	-35.7	23.1	0.00e+00	0	38	0	1578106880	40	3898
2026-01-23 04:51:17.84	343.63	32.78	-35.0	-35.8	22.9	0.00e+00	0	38	0	1584398336	40	3953
2026-01-23 04:51:18.84	343.37	32.93	-34.8	-35.6	23.1	0.00e+00	0	38	0	1591738368	40	3861
2026-01-23 04:51:19.83	343.11	33.08	-34.5	-35.3	23.4	0.00e+00	0	38	0	1599078400	39	3957
2026-01-23 04:51:20.83	342.84	33.23	-34.8	-35.6	23.1	0.00e+00	0	38	0	1606418432	39	4098
2026-01-23 04:51:21.82	342.58	33.38	-34.7	-35.6	23.2	0.00e+00	0	38	0	1613758464	39	4069
2026-01-23 04:51:22.82	342.31	33.53	-34.7	-35.5	23.3	0.00e+00	0	38	0	1621098496	39	4047
2026-01-23 04:51:23.81	342.04	33.68	-34.6	-35.4	23.3	0.00e+00	0	38	0	1628438528	39	4001
2026-01-23 04:51:24.81	341.76	33.83	-34.6	-35.4	22.9	0.00e+00	0	38	0	1635778560	39	4000
2026-01-23 04:51:25.81	341.48	33.99	-34.4	-35.2	23.5	0.00e+00	0	38	0	1643118592	39	3893
2026-01-23 04:51:26.82	341.20	34.14	-34.4	-35.2	23.5	0.00e+00	0	38	0	1649410048	39	3900
2026-01-23 04:51:27.81	340.92	34.29	-34.4	-35.2	23.6	0.00e+00	0	38	0	1656750080	39	3904
2026-01-23 04:51:28.81	340.64	34.44	-34.4	-35.2	23.6	0.00e+00	0	38	0	1664090112	39	3887
2026-01-23 04:51:29.80	340.35	34.59	-34.4	-35.2	23.5	0.00e+00	0	38	0	1671430144	39	3908
2026-01-23 04:51:30.79	340.06	34.74	-34.3	-35.2	23.6	0.00e+00	0	38	0	1678770176	39	3873
2026-01-23 04:51:31.79	339.77	34.89	-34.4	-35.2	23.5	0.00e+00	0	38	0	1685061632	39	3887
2026-01-23 04:51:32.78	339.47	35.04	-34.6	-35.4	23.4	0.00e+00	0	38	0	1692401664	39	3977
2026-01-23 04:51:33.78	339.18	35.19	-34.5	-35.3	23.5	0.00e+00	0	38	0	1699741696	39	3937
2026-01-23 04:51:34.77	338.88	35.34	-34.4	-35.2	23.5	0.00e+00	0	38	0	1707081728	39	3911
2026-01-23 04:51:35.77	338.57	35.49	-34.4	-35.3	23.5	0.00e+00	0	38	0	1714421760	39	3929
2026-01-23 04:51:36.76	338.27	35.64	-34.3	-35.2	23.6	0.00e+00	0	38	0	1721761792	39	3870
2026-01-23 04:51:37.76	337.96	35.79	-34.2	-35.1	23.7	0.00e+00	0	38	0	1729101824	39	3827
2026-01-23 04:51:38.75	337.65	35.94	-34.3	-35.2	23.6	0.00e+00	0	38	0	1736441856	39	3874
2026-01-23 04:51:39.82	337.31	36.10	-34.3	-35.1	23.7	0.00e+00	0	38	0	1743781888	39	3835
2026-01-23 04:51:40.71	337.02	36.23	-34.2	-35.0	23.8	0.00e+00	0	38	0	1750073344	39	3802
2026-01-23 04:51:42.00	336.61	36.42	-34.6	-35.4	23.4	0.00e+00	0	38	0	1759510528	39	3988
2026-01-23 04:51:42.72	336.37	36.53	-34.7	-35.5	23.3	0.00e+00	0	38	0	1764753408	39	4041
2026-01-23 04:51:43.99	335.95	36.72	-34.9	-35.7	23.1	0.00e+00	0	38	0	1774190592	39	4128
2026-01-23 04:51:44.72	335.71	36.83	-35.0	-35.9	23.0	0.00e+00	0	38	0	1779433472	39	4208
2026-01-23 04:51:46.00	335.28	37.02	-35.0	-35.9	23.0	0.00e+00	0	38	0	1788870656	39	4206
2026-01-23 04:51:46.71	335.04	37.12	-35.1	-35.9	22.9	0.00e+00	0	38	0	1793064960	39	4232
2026-01-23 04:51:47.99	334.61	37.31	-35.1	-35.9	22.9	0.00e+00	0	38	0	1802502144	39	4220
2026-01-23 04:51:48.70	334.36	37.41	-35.1	-35.9	23.0	0.00e+00	0	38	0	1807745024	39	4213
2026-01-23 04:51:49.98	333.92	37.60	-34.9	-35.7	23.1	0.00e+00	0	38	0	1817182208	39	4142
2026-01-23 04:51:50.72	333.66	37.70	-35.0	-35.9	23.0	0.00e+00	0	38	0	1822425088	39	4196
2026-01-23 04:51:52.00	333.21	37.89	-34.9	-35.8	23.1	0.00e+00	0	38	0	1831862272	39	4162
2026-01-23 04:51:52.72	332.95	37.99	-34.8	-35.6	23.2	0.00e+00	0	38	0	1837105152	39	4077
2026-01-23 04:51:54.00	332.49	38.18	-34.9	-35.8	23.1	0.00e+00	0	38	0	1846542336	39	4154
2026-01-23 04:51:54.71	332.23	38.28	-34.9	-35.7	23.1	0.00e+00	0	38	0	1850736640	39	4145
2026-01-23 04:51:55.99	331.76	38.46	-34.8	-35.6	23.2	0.00e+00	0	38	0	1860173824	39	4093
2026-01-23 04:51:56.71	331.50	38.56	-34.8	-35.7	23.2	0.00e+00	0	38	0	1865416704	39	4101
2026-01-23 04:51:58.20	330.94	38.77	-34.8	-35.6	23.2	0.00e+00	0	38	0	1876951040	39	4085
2026-01-23 04:51:58.92	330.67	38.87	-34.8	-35.7	23.2	0.00e+00	0	38	0	1881145344	39	4103
2026-01-23 04:52:00.19	330.19	39.04	-35.0	-35.8	23.0	0.00e+00	0	38	0	1890582528	39	4177
2026-01-23 04:52:00.91	329.91	39.14	-35.1	-35.9	22.9	0.00e+00	0	38	0	1895825408	39	4239
2026-01-23 04:52:02.19	329.42	39.32	-35.0	-35.9	22.9	0.00e+00	0	38	0	1905262592	40	3973
2026-01-23 04:52:02.90	329.14	39.41	-35.0	-35.9	22.9	0.00e+00	0	38	0	1910505472	40	3983
2026-01-23 04:52:04.18	328.64	39.58	-35.0	-35.9	22.9	0.00e+00	0	38	0	1919942656	40	3973
2026-01-23 04:52:04.89	328.36	39.68	-35.1	-36.0	22.9	0.00e+00	0	38	0	1924136960	40	4010
2026-01-23 04:52:06.17	327.85	39.85	-35.2	-36.0	22.8	0.00e+00	0	38	0	1933574144	40	4044
2026-01-23 04:52:06.88	327.56	39.94	-34.9	-35.8	23.0	0.00e+00	0	38	0	1938817024	40	3932
2026-01-23 04:52:08.16	327.04	40.11	-35.1	-36.0	22.8	0.00e+00	0	38	0	1948254208	40	4027
2026-01-23 04:52:08.87	326.75	40.20	-35.1	-35.9	22.9	0.00e+00	0	38	0	1953497088	40	3988
2026-01-23 04:52:10.15	326.22	40.36	-35.1	-35.9	22.9	0.00e+00	0	38	0	1962934272	40	3982
2026-01-23 04:52:11.08	325.84	40.48	-35.1	-35.9	22.9	0.00e+00	0	39	0	1969225728	40	4004
2026-01-23 04:52:12.08	325.42	40.60	-35.2	-36.0	22.8	0.00e+00	0	38	0	1976565760	40	4034
2026-01-23 04:52:13.07	325.00	40.73	-35.1	-36.0	22.8	0.00e+00	0	38	0	1983905792	40	4013
2026-01-23 04:52:14.07	324.57	40.85	-35.0	-35.8	23.0	0.00e+00	0	38	0	1991245824	40	3935
2026-01-23 04:52:15.06	324.15	40.97	-34.8	-35.7	23.1	0.00e+00	0	38	0	1998585856	40	3880
2026-01-23 04:52:16.12	323.69	41.09	-34.7	-35.5	23.3	0.00e+00	0	38	0	2005925888	40	3814
2026-01-23 04:52:16.99	323.31	41.20	-34.6	-35.4	23.3	0.00e+00	0	38	0	2012217344	40	3771
2026-01-23 04:52:18.12	322.82	41.33	-34.8	-35.6	23.2	0.00e+00	0	38	0	2020605952	39	4084
2026-01-23 04:52:18.98	322.44	41.43	-34.6	-35.4	23.4	0.00e+00	0	38	0	2025848832	39	3982
2026-01-23 04:52:20.12	321.93	41.56	-34.7	-35.5	23.3	0.00e+00	0	38	0	2034237440	39	4044
2026-01-23 04:52:21.19	321.45	41.68	-34.7	-35.5	23.3	0.00e+00	0	38	0	2042626048	39	4023
2026-01-23 04:52:22.24	320.98	41.79	-34.7	-35.5	23.3	0.00e+00	0	38	0	2049966080	39	4050
2026-01-23 04:52:23.18	320.55	41.89	-34.7	-35.6	23.2	0.00e+00	0	38	0	2056257536	39	4059
2026-01-23 04:52:24.18	320.09	42.00	-34.8	-35.6	23.2	0.00e+00	0	38	0	2063597568	39	4094
2026-01-23 04:52:25.18	319.63	42.10	-34.9	-35.8	23.1	0.00e+00	0	38	0	2070937600	39	4165
2026-01-23 04:52:26.17	319.17	42.21	-35.0	-35.8	23.0	0.00e+00	0	38	0	2078277632	39	4186
2026-01-23 04:52:27.17	318.71	42.31	-34.9	-35.8	23.1	0.00e+00	0	38	0	2085617664	39	4159
2026-01-23 04:52:28.16	318.24	42.41	-35.0	-35.8	23.0	0.00e+00	0	38	0	2092957696	39	4181
2026-01-23 04:52:29.16	317.77	42.50	-35.0	-35.9	23.0	0.00e+00	0	38	0	2100297728	39	4195
2026-01-23 04:52:30.15	317.30	42.60	-34.8	-35.6	23.2	0.00e+00	0	38	0	2107637760	39	4094
2026-01-23 04:52:31.15	316.82	42.69	-34.7	-35.5	23.3	0.00e+00	0	38	0	2113929216	39	4015
2026-01-23 04:52:32.19	316.32	42.79	-34.6	-35.4	23.4	0.00e+00	0	38	0	2121269248	39	3997
2026-01-23 04:52:33.19	315.84	42.87	-34.7	-35.6	23.3	0.00e+00	0	38	0	2128609280	39	4057
2026-01-23 04:52:34.18	315.36	42.96	-34.6	-35.4	23.4	0.00e+00	0	38	0	2135949312	39	3987
2026-01-23 04:52:35.32	314.80	43.06	-34.7	-35.5	23.3	0.00e+00	0	38	0	2144337920	39	4040
2026-01-23 04:52:36.22	314.36	43.13	-34.7	-35.5	23.3	0.00e+00	0	38	0	2150629376	39	4016
2026-01-23 04:52:37.24	313.85	43.21	-34.7	-35.6	23.3	0.00e+00	0	38	0	2157969408	39	4055
2026-01-23 04:52:38.41	313.27	43.31	-34.8	-35.7	23.2	0.00e+00	0	38	0	2166358016	39	4105
2026-01-23 04:52:39.31	312.82	43.37	-34.8	-35.6	23.2	0.00e+00	0	38	0	2173698048	39	4076
2026-01-23 04:52:40.34	312.30	43.45	-34.7	-35.6	23.3	0.00e+00	0	38	0	2179989504	39	4054
2026-01-23 04:52:41.33	311.81	43.52	-34.8	-35.6	23.3	0.00e+00	0	38	0	2187329536	39	4067
2026-01-23 04:52:42.33	311.30	43.59	-34.7	-35.5	23.3	0.00e+00	0	38	0	2194669568	39	4048
2026-01-23 04:52:43.32	310.80	43.65	-34.7	-35.5	23.3	0.00e+00	0	38	0	2202009600	39	4040
2026-01-23 04:52:44.32	310.29	43.72	-35.0	-35.8	23.1	0.00e+00	0	38	0	2209349632	39	4167
2026-01-23 04:52:45.31	309.78	43.78	-35.0	-35.9	23.0	0.00e+00	0	38	0	2216689664	39	4210
2026-01-23 04:52:46.31	309.26	43.84	-35.2	-36.0	22.9	0.00e+00	0	38	0	2224029696	39	4283
2026-01-23 04:52:47.30	308.75	43.89	-35.1	-35.9	22.9	0.00e+00	0	38	0	2231369728	40	3993
2026-01-23 04:52:48.30	308.23	43.95	-35.1	-36.0	22.9	0.00e+00	0	38	0	2237661184	40	4006
2026-01-23 04:52:49.31	307.71	44.00	-35.2	-36.0	22.8	0.00e+00	0	38	0	2245001216	40	4027
2026-01-23 04:52:50.34	307.17	44.05	-35.1	-35.9	22.9	0.00e+00	0	38	0	2252341248	40	3991
2026-01-23 04:52:51.37	306.63	44.10	-34.8	-35.6	23.2	0.00e+00	0	38	0	2259681280	40	3838
2026-01-23 04:52:52.36	306.11	44.14	-34.6	-35.4	23.4	0.00e+00	0	38	0	2267021312	39	3992
2026-01-23 04:52:53.44	305.55	44.19	-34.6	-35.4	23.4	0.00e+00	0	38	0	2275409920	39	3971
2026-01-23 04:52:54.32	305.08	44.22	-34.6	-35.4	23.4	0.00e+00	0	38	0	2281701376	39	3970
2026-01-23 04:52:55.46	304.48	44.26	-34.6	-35.4	23.4	0.00e+00	0	38	0	2290089984	39	3997
2026-01-23 04:52:56.31	304.03	44.29	-34.7	-35.5	23.3	0.00e+00	0	38	0	2296381440	39	4019
2026-01-23 04:52:57.45	303.42	44.32	-34.9	-35.8	23.1	0.00e+00	0	39	0	2303721472	39	4146
2026-01-23 04:52:58.30	302.97	44.34	-34.9	-35.7	23.1	0.00e+00	0	38	0	2310012928	39	4135
2026-01-23 04:52:59.44	302.36	44.37	-34.8	-35.6	23.2	0.00e+00	0	38	0	2318401536	39	4071
2026-01-23 04:53:00.30	301.91	44.39	-34.7	-35.5	23.3	0.00e+00	0	38	0	2324692992	39	4029
2026-01-23 04:53:01.43	301.30	44.41	-34.7	-35.5	23.3	0.00e+00	0	38	0	2333081600	39	4033
2026-01-23 04:53:02.29	300.84	44.43	-34.7	-35.6	23.3	0.00e+00	0	38	0	2339373056	39	4055
2026-01-23 04:53:03.42	300.24	44.44	-34.7	-35.5	23.3	0.00e+00	0	39	0	2346713088	39	4041
2026-01-23 04:53:04.27	299.78	44.45	-34.7	-35.5	23.2	0.00e+00	0	38	0	2353004544	39	4039
2026-01-23 04:53:05.46	299.14	44.46	-34.8	-35.6	23.2	0.00e+00	0	38	0	2362441728	39	4079
2026-01-23 04:53:06.31	298.69	44.47	-34.8	-35.6	23.2	0.00e+00	0	38	0	2367684608	39	4095
2026-01-23 04:53:07.45	298.08	44.47	-34.9	-35.7	23.1	0.00e+00	0	38	0	2376073216	39	4144
2026-01-23 04:53:08.30	297.62	44.47	-34.8	-35.6	23.2	0.00e+00	0	39	0	2382364672	39	4090
2026-01-23 04:53:09.67	296.89	44.46	-34.8	-35.7	23.2	0.00e+00	0	38	0	2391801856	39	4107
2026-01-23 04:53:10.39	296.50	44.46	-34.9	-35.8	23.1	0.00e+00	0	38	0	2397044736	39	4149
2026-01-23 04:53:11.66	295.82	44.45	-34.9	-35.7	23.1	0.00e+00	0	38	0	2406481920	39	4138
2026-01-23 04:53:12.39	295.43	44.44	-34.9	-35.7	23.1	0.00e+00	0	38	0	2411724800	39	4137
2026-01-23 04:53:13.67	294.74	44.42	-34.8	-35.6	23.2	0.00e+00	0	38	0	2421161984	39	4090
2026-01-23 04:53:14.40	294.35	44.41	-34.8	-35.6	23.2	0.00e+00	0	38	0	2426404864	39	4069
2026-01-23 04:53:15.67	293.67	44.38	-34.9	-35.7	23.2	0.00e+00	0	38	0	2435842048	39	4109
2026-01-23 04:53:16.38	293.29	44.36	-34.9	-35.7	23.1	0.00e+00	0	38	0	2441084928	39	4123
2026-01-23 04:53:17.66	292.61	44.33	-34.9	-35.7	23.2	0.00e+00	0	38	0	2450522112	39	4115
2026-01-23 04:53:18.48	292.18	44.31	-34.8	-35.6	23.2	0.00e+00	0	38	0	2455764992	39	4073
2026-01-23 04:53:19.62	291.57	44.27	-34.9	-35.7	23.1	0.00e+00	0	38	0	2464153600	39	4143
2026-01-23 04:53:20.47	291.12	44.24	-35.0	-35.8	23.0	0.00e+00	0	38	0	2470445056	39	4185
2026-01-23 04:53:21.61	290.52	44.20	-34.9	-35.7	23.2	0.00e+00	0	38	0	2478833664	39	4122
2026-01-23 04:53:22.46	290.07	44.17	-34.9	-35.8	23.1	0.00e+00	0	39	0	2485125120	39	4158
2026-01-23 04:53:23.60	289.47	44.12	-34.7	-35.5	23.3	0.00e+00	0	39	0	2492465152	39	4049
2026-01-23 04:53:24.45	289.03	44.08	-34.8	-35.6	23.2	0.00e+00	0	38	0	2498756608	39	4076
2026-01-23 04:53:25.60	288.42	44.03	-34.9	-35.7	23.1	0.00e+00	0	38	0	2507145216	39	4116
2026-01-23 04:53:26.45	287.98	43.98	-35.0	-35.9	23.0	0.00e+00	0	38	0	2513436672	39	4211
2026-01-23 04:53:27.59	287.39	43.92	-35.1	-36.0	22.9	0.00e+00	0	39	0	2521825280	39	4245
2026-01-23 04:53:28.44	286.95	43.88	-35.0	-35.8	23.1	0.00e+00	0	38	0	2528116736	39	4172
2026-01-23 04:53:29.58	286.36	43.81	-34.9	-35.7	23.2	0.00e+00	0	38	0	2535456768	39	4109
2026-01-23 04:53:30.43	285.92	43.76	-34.7	-35.5	23.3	0.00e+00	0	38	0	2541748224	39	4025
2026-01-23 04:53:31.57	285.34	43.69	-34.6	-35.4	23.4	0.00e+00	0	38	0	2550136832	39	3999
2026-01-23 04:53:32.42	284.91	43.63	-34.6	-35.4	23.4	0.00e+00	0	38	0	2556428288	39	3984
2026-01-23 04:53:33.56	284.33	43.56	-34.8	-35.6	23.2	0.00e+00	0	38	0	2564816896	39	4087
2026-01-23 04:53:34.41	283.90	43.50	-34.6	-35.5	23.4	0.00e+00	0	38	0	2571108352	39	4007
2026-01-23 04:53:35.55	283.32	43.42	-34.7	-35.5	23.4	0.00e+00	0	38	0	2579496960	39	4014
2026-01-23 04:53:36.40	282.90	43.35	-34.5	-35.3	23.5	0.00e+00	0	39	0	2585788416	39	3940
2026-01-23 04:53:37.54	282.33	43.26	-34.5	-35.4	23.5	0.00e+00	0	39	0	2593128448	39	3965
2026-01-23 04:53:38.39	281.90	43.20	-34.7	-35.5	23.3	0.00e+00	0	38	0	2599419904	39	4043
2026-01-23 04:53:39.53	281.34	43.11	-34.8	-35.6	23.2	0.00e+00	0	38	0	2607808512	39	4080
2026-01-23 04:53:40.38	280.92	43.03	-34.7	-35.6	23.3	0.00e+00	0	39	0	2614099968	39	4052
2026-01-23 04:53:41.52	280.36	42.94	-34.8	-35.7	23.2	0.00e+00	0	38	0	2622488576	39	4104
2026-01-23 04:53:42.38	279.95	42.86	-35.0	-35.8	23.0	0.00e+00	0	38	0	2628780032	39	4191
2026-01-23 04:53:43.62	279.35	42.75	-35.0	-35.8	23.1	0.00e+00	0	39	0	2637168640	39	4181
2026-01-23 04:53:44.48	278.93	42.67	-34.9	-35.8	23.1	0.00e+00	0	39	0	2643460096	39	4149
2026-01-23 04:53:45.62	278.39	42.56	-34.9	-35.8	23.1	0.00e+00	0	38	0	2651848704	39	4159
2026-01-23 04:53:46.47	277.98	42.48	-34.7	-35.6	23.3	0.00e+00	0	38	0	2658140160	39	4052
2026-01-23 04:53:47.61	277.44	42.37	-34.6	-35.4	23.4	0.00e+00	0	39	0	2666528768	39	3979
2026-01-23 04:53:48.46	277.05	42.28	-34.4	-35.2	23.6	0.00e+00	0	39	0	2672820224	39	3896
2026-01-23 04:53:49.60	276.51	42.17	-34.4	-35.2	23.6	0.00e+00	0	38	0	2680160256	39	3888
2026-01-23 04:53:50.45	276.12	42.08	-34.6	-35.5	23.4	0.00e+00	0	39	0	2686451712	39	4006
2026-01-23 04:53:51.59	275.59	41.96	-34.9	-35.7	23.1	0.00e+00	0	38	0	2694840320	39	4139
2026-01-23 04:53:52.44	275.20	41.87	-34.9	-35.8	23.1	0.00e+00	0	39	0	2701131776	39	4154
2026-01-23 04:53:53.58	274.69	41.74	-34.8	-35.7	23.2	0.00e+00	0	39	0	2709520384	39	4108
2026-01-23 04:53:54.68	274.19	41.62	-34.9	-35.7	23.2	0.00e+00	0	38	0	2716860416	39	4120
2026-01-23 04:53:55.71	273.73	41.51	-34.7	-35.6	23.3	0.00e+00	0	38	0	2724200448	39	4056
2026-01-23 04:53:56.88	273.21	41.37	-34.7	-35.5	23.3	0.00e+00	0	39	0	2732589056	39	4043
2026-01-23 04:53:57.73	272.83	41.27	-34.8	-35.6	23.2	0.00e+00	0	38	0	2738880512	39	4098
2026-01-23 04:53:59.05	272.26	41.12	-35.0	-35.9	23.0	0.00e+00	0	38	0	2749366272	39	4199
2026-01-23 04:53:59.76	271.95	41.03	-35.0	-35.8	23.0	0.00e+00	0	38	0	2753560576	39	4188
2026-01-23 04:54:01.25	271.30	40.85	-34.8	-35.6	23.2	0.00e+00	0	39	0	2765094912	39	4096
2026-01-23 04:54:01.96	271.00	40.77	-34.7	-35.5	23.3	0.00e+00	0	38	0	2769289216	39	4030
2026-01-23 04:54:03.23	270.46	40.61	-34.7	-35.5	23.3	0.00e+00	0	38	0	2778726400	39	4040
2026-01-23 04:54:03.95	270.16	40.52	-34.7	-35.5	23.3	0.00e+00	0	38	0	2783969280	39	4045
2026-01-23 04:54:05.23	269.62	40.36	-34.9	-35.7	23.1	0.00e+00	0	38	0	2793406464	39	4130
2026-01-23 04:54:05.94	269.33	40.27	-34.9	-35.8	23.0	0.00e+00	0	38	0	2798649344	39	4151
2026-01-23 04:54:07.21	268.81	40.10	-35.0	-35.8	23.1	0.00e+00	0	38	0	2808086528	39	4157
2026-01-23 04:54:07.93	268.51	40.01	-34.9	-35.7	23.1	0.00e+00	0	38	0	2812280832	39	4138
2026-01-23 04:54:09.21	268.00	39.84	-34.9	-35.7	23.1	0.00e+00	0	38	0	2821718016	39	4120
2026-01-23 04:54:09.92	267.71	39.75	-34.6	-35.4	23.4	0.00e+00	0	38	0	2826960896	39	3984
2026-01-23 04:54:11.20	267.20	39.58	-34.6	-35.4	23.3	0.00e+00	0	38	0	2836398080	39	4004
2026-01-23 04:54:11.93	266.91	39.48	-34.7	-35.5	23.3	0.00e+00	0	39	0	2841640960	39	4030
2026-01-23 04:54:13.21	266.41	39.31	-34.9	-35.7	23.1	0.00e+00	0	39	0	2851078144	39	4135
2026-01-23 04:54:13.93	266.13	39.21	-34.9	-35.7	23.1	0.00e+00	0	38	0	2856321024	39	4111
2026-01-23 04:54:15.21	265.64	39.03	-34.7	-35.5	23.3	0.00e+00	0	38	0	2865758208	39	4031
2026-01-23 04:54:15.93	265.36	38.93	-34.7	-35.5	23.3	0.00e+00	0	39	0	2871001088	39	4046
2026-01-23 04:54:17.23	264.87	38.75	-34.6	-35.4	23.4	0.00e+00	0	38	0	2879389696	39	3972
2026-01-23 04:54:17.94	264.61	38.65	-34.5	-35.3	23.5	0.00e+00	0	38	0	2885681152	39	3932
2026-01-23 04:54:19.22	264.13	38.47	-34.5	-35.4	23.4	0.00e+00	0	38	0	2894069760	39	3962
2026-01-23 04:54:19.95	263.86	38.37	-34.6	-35.4	23.4	0.00e+00	0	39	0	2899312640	39	3983
2026-01-23 04:54:21.23	263.39	38.19	-34.7	-35.6	23.2	0.00e+00	0	38	0	2908749824	39	4068
2026-01-23 04:54:21.94	263.13	38.09	-34.8	-35.7	23.2	0.00e+00	0	38	0	2913992704	39	4104
2026-01-23 04:54:23.22	262.67	37.90	-34.7	-35.5	23.3	0.00e+00	0	38	0	2923429888	39	4045
2026-01-23 04:54:23.93	262.42	37.80	-34.7	-35.5	23.3	0.00e+00	0	38	0	2928672768	39	4019
2026-01-23 04:54:25.21	261.97	37.61	-34.7	-35.5	23.3	0.00e+00	0	38	0	2938109952	39	4039
2026-01-23 04:54:25.95	261.71	37.51	-34.6	-35.4	23.4	0.00e+00	0	38	0	2943352832	39	3971
2026-01-23 04:54:27.23	261.27	37.32	-34.5	-35.3	23.5	0.00e+00	0	38	0	2951741440	39	3939
2026-01-23 04:54:27.96	261.02	37.21	-34.5	-35.3	23.4	0.00e+00	0	39	0	2956984320	39	3940
2026-01-23 04:54:29.24	260.58	37.02	-34.5	-35.3	23.5	0.00e+00	0	38	0	2966421504	39	3945
2026-01-23 04:54:29.95	260.34	36.92	-34.5	-35.3	23.5	0.00e+00	0	39	0	2971664384	39	3926
2026-01-23 04:54:31.23	259.91	36.73	-34.5	-35.3	23.5	0.00e+00	0	39	0	2981101568	39	3930
2026-01-23 04:54:32.16	259.61	36.59	-34.5	-35.3	23.4	0.00e+00	0	38	0	2987393024	39	3952
2026-01-23 04:54:33.46	259.18	36.40	-34.5	-35.4	23.4	0.00e+00	0	38	0	2996830208	39	3971
2026-01-23 04:54:34.17	258.95	36.29	-34.8	-35.6	23.2	0.00e+00	0	39	0	3002073088	39	4075
2026-01-23 04:54:35.45	258.54	36.10	-34.6	-35.5	23.3	0.00e+00	0	38	0	3011510272	39	4015
2026-01-23 04:54:36.16	258.31	35.99	-34.7	-35.6	23.2	0.00e+00	0	38	0	3016753152	39	4066
2026-01-23 04:54:37.44	257.91	35.80	-34.6	-35.5	23.3	0.00e+00	0	38	0	3026190336	39	4009
2026-01-23 04:54:38.15	257.68	35.69	-34.6	-35.4	23.4	0.00e+00	0	38	0	3031433216	39	3967
2026-01-23 04:54:39.43	257.29	35.50	-34.5	-35.3	23.5	0.00e+00	0	39	0	3039821824	39	3934
2026-01-23 04:54:40.14	257.07	35.39	-34.5	-35.3	23.5	0.00e+00	0	38	0	3045064704	39	3949
2026-01-23 04:54:41.45	256.67	35.19	-34.2	-35.0	23.7	0.00e+00	0	38	0	3054501888	39	3816
2026-01-23 04:54:42.16	256.46	35.09	-34.2	-35.0	23.7	0.00e+00	0	39	0	3059744768	39	3815
2026-01-23 04:54:43.50	256.06	34.88	-34.3	-35.1	23.6	0.00e+00	0	38	0	3070230528	39	3832
2026-01-23 04:54:44.21	255.85	34.77	-34.3	-35.1	23.6	0.00e+00	0	39	0	3074424832	38	4069
2026-01-23 04:54:45.49	255.47	34.58	-34.3	-35.2	23.6	0.00e+00	0	38	0	3083862016	38	4102
2026-01-23 04:54:46.22	255.26	34.47	-34.3	-35.1	23.6	0.00e+00	0	38	0	3089104896	38	4094
2026-01-23 04:54:47.50	254.89	34.27	-34.4	-35.2	23.5	0.00e+00	0	38	0	3098542080	38	4142
2026-01-23 04:54:48.22	254.69	34.16	-34.3	-35.2	23.6	0.00e+00	0	39	0	3103784960	38	4101
2026-01-23 04:54:49.74	254.26	33.93	-34.4	-35.2	23.6	0.00e+00	0	38	0	3114270720	38	4121
2026-01-23 04:54:50.45	254.06	33.82	-34.5	-35.3	23.5	0.00e+00	0	38	0	3119513600	38	4156
2026-01-23 04:54:51.73	253.71	33.63	-34.4	-35.2	23.5	0.00e+00	0	39	0	3128950784	38	4137
2026-01-23 04:54:52.46	253.51	33.52	-34.4	-35.2	23.5	0.00e+00	0	39	0	3134193664	38	4128
2026-01-23 04:54:53.74	253.16	33.32	-34.3	-35.1	23.6	0.00e+00	0	39	0	3143630848	38	4088
2026-01-23 04:54:54.48	252.96	33.21	-34.4	-35.2	23.5	0.00e+00	0	38	0	3148873728	38	4145
2026-01-23 04:54:55.76	252.62	33.02	-34.5	-35.3	23.4	0.00e+00	0	39	0	3158310912	38	4190
2026-01-23 04:54:56.48	252.43	32.91	-34.6	-35.4	23.4	0.00e+00	0	38	0	3163553792	38	4204
2026-01-23 04:54:57.77	252.10	32.71	-34.6	-35.4	23.4	0.00e+00	0	39	0	3172990976	38	4232
2026-01-23 04:54:58.48	251.91	32.60	-34.6	-35.4	23.4	0.00e+00	0	38	0	3177185280	38	4221
2026-01-23 04:54:59.77	251.58	32.41	-34.6	-35.4	23.3	0.00e+00	0	39	0	3186622464	38	4229
2026-01-23 04:55:00.48	251.40	32.30	-34.4	-35.3	23.5	0.00e+00	0	38	0	3191865344	38	4149
2026-01-23 04:55:01.76	251.08	32.10	-34.2	-35.0	23.7	0.00e+00	0	39	0	3201302528	38	4026
2026-01-23 04:55:02.47	250.90	32.00	-34.2	-35.0	23.7	0.00e+00	0	38	0	3206545408	38	4045
2026-01-23 04:55:03.75	250.59	31.80	-34.1	-34.9	23.8	0.00e+00	0	38	0	3215982592	38	3985
2026-01-23 04:55:04.47	250.41	31.69	-34.0	-34.8	23.8	0.00e+00	0	38	0	3221225472	38	3915
2026-01-23 04:55:05.76	250.10	31.50	-34.3	-35.1	23.6	0.00e+00	0	38	0	3230662656	38	4085
2026-01-23 04:55:06.47	249.93	31.39	-34.4	-35.2	23.6	0.00e+00	0	39	0	3235905536	38	4142
2026-01-23 04:55:07.75	249.62	31.20	-34.6	-35.4	23.4	0.00e+00	0	39	0	3244294144	38	4202
2026-01-23 04:55:08.49	249.45	31.09	-34.6	-35.4	23.4	0.00e+00	0	39	0	3249537024	38	4216
2026-01-23 04:55:09.77	249.15	30.89	-34.7	-35.5	23.3	0.00e+00	0	38	0	3258974208	38	4254
2026-01-23 04:55:10.49	248.99	30.79	-34.8	-35.6	23.2	0.00e+00	0	38	0	3264217088	39	4093
2026-01-23 04:55:11.77	248.69	30.60	-34.9	-35.8	23.1	0.00e+00	0	38	0	3273654272	39	4149
2026-01-23 04:55:12.50	248.53	30.49	-35.1	-35.9	22.9	0.00e+00	0	38	0	3278897152	39	4225
2026-01-23 04:55:13.77	248.24	30.30	-35.2	-36.0	22.9	0.00e+00	0	38	0	3288334336	39	4273
2026-01-23 04:55:14.48	248.08	30.19	-35.1	-36.0	22.9	0.00e+00	0	39	0	3293577216	39	4248
2026-01-23 04:55:15.76	247.80	30.00	-35.1	-35.9	22.9	0.00e+00	0	39	0	3303014400	39	4224
2026-01-23 04:55:16.48	247.65	29.89	-34.9	-35.8	23.1	0.00e+00	0	39	0	3307208704	39	4157
2026-01-23 04:55:17.75	247.37	29.71	-34.8	-35.6	23.2	0.00e+00	0	38	0	3316645888	39	4087
2026-01-23 04:55:18.56	247.20	29.59	-34.6	-35.4	23.3	0.00e+00	0	39	0	3322937344	39	3995
2026-01-23 04:55:19.70	246.95	29.42	-34.6	-35.4	23.4	0.00e+00	0	38	0	3331325952	39	3967
2026-01-23 04:55:20.55	246.78	29.29	-34.6	-35.4	23.4	0.00e+00	0	39	0	3337617408	39	3993
2026-01-23 04:55:21.69	246.54	29.13	-34.5	-35.4	23.4	0.00e+00	0	39	0	3344957440	39	3962
2026-01-23 04:55:22.78	246.31	28.97	-34.5	-35.4	23.4	0.00e+00	0	39	0	3353346048	39	3960
2026-01-23 04:55:23.80	246.10	28.82	-34.6	-35.4	23.3	0.00e+00	0	39	0	3360686080	39	4004
2026-01-23 04:55:24.80	245.90	28.67	-34.8	-35.6	23.1	0.00e+00	0	39	0	3368026112	39	4069
2026-01-23 04:55:25.79	245.70	28.53	-34.8	-35.6	23.2	0.00e+00	0	38	0	3375366144	39	4066
2026-01-23 04:55:26.79	245.50	28.38	-34.9	-35.7	23.1	0.00e+00	0	38	0	3381657600	39	4113
2026-01-23 04:55:27.79	245.31	28.24	-34.8	-35.6	23.2	0.00e+00	0	38	0	3388997632	39	4068
2026-01-23 04:55:28.78	245.11	28.10	-34.8	-35.6	23.2	0.00e+00	0	38	0	3396337664	39	4084
2026-01-23 04:55:29.78	244.92	27.95	-34.7	-35.5	23.2	0.00e+00	0	38	0	3403677696	39	4048
2026-01-23 04:55:30.77	244.73	27.81	-34.7	-35.5	23.2	0.00e+00	0	38	0	3411017728	39	4038
2026-01-23 04:55:31.76	244.54	27.67	-34.7	-35.5	23.2	0.00e+00	0	39	0	3418357760	39	4041
2026-01-23 04:55:32.82	244.34	27.52	-34.7	-35.5	23.3	0.00e+00	0	39	0	3425697792	39	4027
2026-01-23 04:55:33.72	244.17	27.39	-34.8	-35.6	23.2	0.00e+00	0	39	0	3431989248	39	4071
2026-01-23 04:55:34.84	243.97	27.23	-34.8	-35.6	23.2	0.00e+00	0	38	0	3440377856	39	4079
2026-01-23 04:55:35.69	243.81	27.11	-34.9	-35.7	23.1	0.00e+00	0	38	0	3446669312	39	4113
2026-01-23 04:55:37.07	243.56	26.92	-35.0	-35.8	23.0	0.00e+00	0	39	0	3456106496	39	4172
2026-01-23 04:55:37.78	243.43	26.82	-35.0	-35.9	22.9	0.00e+00	0	38	0	3461349376	39	4207
2026-01-23 04:55:39.06	243.20	26.64	-34.9	-35.8	23.0	0.00e+00	0	38	0	3470786560	39	4153
2026-01-23 04:55:39.77	243.08	26.54	-34.9	-35.8	23.0	0.00e+00	0	38	0	3476029440	39	4146
2026-01-23 04:55:41.05	242.85	26.36	-34.8	-35.6	23.1	0.00e+00	0	38	0	3485466624	39	4093
2026-01-23 04:55:41.79	242.73	26.26	-34.8	-35.6	23.1	0.00e+00	0	39	0	3490709504	39	4091
2026-01-23 04:55:43.07	242.51	26.08	-34.8	-35.6	23.2	0.00e+00	0	38	0	3499098112	39	4070
2026-01-23 04:55:43.78	242.38	25.98	-34.8	-35.6	23.1	0.00e+00	0	39	0	3504340992	39	4097
2026-01-23 04:55:45.08	242.16	25.80	-34.9	-35.8	23.0	0.00e+00	0	39	0	3513778176	39	4150
2026-01-23 04:55:45.87	242.03	25.70	-34.9	-35.8	23.0	0.00e+00	0	39	0	3520069632	39	4148
2026-01-23 04:55:47.07	241.83	25.53	-34.9	-35.7	23.0	0.00e+00	0	38	0	3528458240	39	4136
2026-01-23 04:55:47.92	241.69	25.42	-35.1	-35.9	22.9	0.00e+00	0	39	0	3534749696	39	4219
2026-01-23 04:55:49.06	241.51	25.26	-35.1	-35.9	22.8	0.00e+00	0	38	0	3543138304	39	4232
2026-01-23 04:55:49.91	241.37	25.15	-35.0	-35.8	23.0	0.00e+00	0	39	0	3549429760	39	4168
2026-01-23 04:55:51.05	241.19	24.99	-34.8	-35.7	23.1	0.00e+00	0	38	0	3557818368	39	4104
2026-01-23 04:55:51.90	241.05	24.88	-34.9	-35.7	23.1	0.00e+00	0	39	0	3563061248	39	4106
2026-01-23 04:55:53.04	240.87	24.72	-35.1	-35.9	22.9	0.00e+00	0	38	0	3571449856	39	4210
2026-01-23 04:55:53.89	240.74	24.61	-35.1	-36.0	22.8	0.00e+00	0	38	0	3577741312	39	4254
2026-01-23 04:55:55.12	240.55	24.45	-35.1	-36.0	22.8	0.00e+00	0	39	0	3586129920	39	4254
2026-01-23 04:55:55.98	240.42	24.33	-35.3	-36.1	22.6	0.00e+00	0	39	0	3592421376	39	4312
2026-01-23 04:55:57.11	240.24	24.18	-35.2	-36.0	22.8	0.00e+00	0	39	0	3600809984	39	4262
2026-01-23 04:55:57.97	240.11	24.07	-35.2	-36.0	22.7	0.00e+00	0	38	0	3607101440	39	4283
2026-01-23 04:55:59.10	239.94	23.92	-35.0	-35.8	23.0	0.00e+00	0	38	0	3615490048	39	4163
2026-01-23 04:55:59.96	239.82	23.81	-35.0	-35.8	22.8	0.00e+00	0	38	0	3621781504	39	4185
2026-01-23 04:56:01.10	239.65	23.66	-34.8	-35.6	23.1	0.00e+00	0	39	0	3630170112	39	4069
2026-01-23 04:56:01.95	239.52	23.55	-34.6	-35.4	23.3	0.00e+00	0	38	0	3636461568	39	3975
2026-01-23 04:56:03.09	239.36	23.40	-34.7	-35.5	23.2	0.00e+00	0	38	0	3643801600	39	4031
2026-01-23 04:56:03.94	239.24	23.29	-34.6	-35.4	23.2	0.00e+00	0	39	0	3650093056	39	4001
2026-01-23 04:56:05.08	239.08	23.15	-34.8	-35.6	23.1	0.00e+00	0	39	0	3658481664	39	4082
2026-01-23 04:56:05.93	238.96	23.04	-34.9	-35.7	23.0	0.00e+00	0	39	0	3664773120	39	4107
2026-01-23 04:56:07.07	238.80	22.89	-34.9	-35.8	22.9	0.00e+00	0	39	0	3673161728	39	4157
2026-01-23 04:56:07.92	238.68	22.78	-35.0	-35.8	22.9	0.00e+00	0	39	0	3679453184	39	4193
2026-01-23 04:56:09.06	238.52	22.64	-35.0	-35.9	22.9	0.00e+00	0	39	0	3686793216	39	4201
2026-01-23 04:56:10.32	238.35	22.48	-35.0	-35.9	22.8	0.00e+00	0	39	0	3696230400	39	4207
2026-01-23 04:56:11.13	238.24	22.38	-35.1	-35.9	22.8	0.00e+00	0	39	0	3702521856	39	4216
2026-01-23 04:56:12.26	238.09	22.24	-35.1	-36.0	22.8	0.00e+00	0	38	0	3709861888	39	4249
2026-01-23 04:56:13.12	237.97	22.13	-35.1	-35.9	22.8	0.00e+00	0	39	0	3716153344	39	4214
2026-01-23 04:56:14.26	237.82	21.99	-35.1	-35.9	22.8	0.00e+00	0	39	0	3724541952	39	4220
2026-01-23 04:56:15.11	237.71	21.88	-35.1	-35.9	22.8	0.00e+00	0	39	0	3730833408	39	4220
2026-01-23 04:56:16.25	237.56	21.74	-35.2	-36.0	22.7	0.00e+00	0	39	0	3739222016	39	4267
2026-01-23 04:56:17.10	237.45	21.64	-35.2	-36.0	22.6	0.00e+00	0	38	0	3745513472	40	4046
2026-01-23 04:56:18.27	237.30	21.49	-35.3	-36.2	22.5	0.00e+00	0	38	0	3753902080	40	4104
2026-01-23 04:56:19.12	237.20	21.39	-35.3	-36.2	22.5	0.00e+00	0	38	0	3760193536	40	4121
2026-01-23 04:56:20.31	237.05	21.24	-35.4	-36.2	22.4	0.00e+00	0	38	0	3768582144	40	4142
2026-01-23 04:56:21.16	236.94	21.14	-35.3	-36.2	22.5	0.00e+00	0	38	0	3774873600	40	4121
2026-01-23 04:56:22.30	236.80	21.00	-35.3	-36.2	22.5	0.00e+00	0	38	0	3783262208	40	4115
2026-01-23 04:56:23.15	236.70	20.90	-35.2	-36.1	22.6	0.00e+00	0	39	0	3789553664	40	4065
2026-01-23 04:56:24.28	236.56	20.76	-35.3	-36.1	22.5	0.00e+00	0	39	0	3796893696	40	4078
2026-01-23 04:56:25.14	236.45	20.66	-35.3	-36.2	22.5	0.00e+00	0	38	0	3803185152	40	4110
2026-01-23 04:56:26.46	236.30	20.50	-35.3	-36.1	22.5	0.00e+00	0	38	0	3812622336	40	4075
2026-01-23 04:56:27.17	236.21	20.42	-35.3	-36.1	22.4	0.00e+00	0	39	0	3817865216	40	4077
2026-01-23 04:56:28.46	236.06	20.27	-35.4	-36.2	22.4	0.00e+00	0	38	0	3827302400	40	4120
2026-01-23 04:56:29.17	235.98	20.18	-35.3	-36.1	22.5	0.00e+00	0	38	0	3832545280	40	4094
2026-01-23 04:56:30.45	235.83	20.03	-35.6	-36.4	22.2	0.00e+00	0	39	0	3841982464	40	4229
2026-01-23 04:56:31.16	235.75	19.95	-35.6	-36.5	22.2	0.00e+00	0	39	0	3847225344	40	4251
2026-01-23 04:56:32.78	235.56	19.76	-35.9	-36.8	21.9	0.00e+00	0	38	0	3858759680	41	4148
2026-01-23 04:56:33.35	235.50	19.69	-35.9	-36.8	21.9	0.00e+00	0	38	0	3862953984	41	4162
2026-01-23 04:56:35.27	235.28	19.47	-35.9	-36.8	21.9	0.00e+00	0	38	0	3876585472	41	4178
2026-01-23 04:56:35.83	235.22	19.41	-36.0	-36.8	21.9	0.00e+00	0	39	0	3880779776	41	4193
2026-01-23 04:56:37.54	235.03	19.21	-36.0	-36.9	21.8	0.00e+00	0	38	0	3892314112	41	4218
2026-01-23 04:56:38.11	234.97	19.15	-36.0	-36.9	21.8	0.00e+00	0	38	0	3896508416	41	4202
2026-01-23 04:56:39.81	234.78	18.95	-35.9	-36.8	21.9	0.00e+00	0	39	0	3909091328	41	4156
2026-01-23 04:56:40.38	234.72	18.89	-35.9	-36.7	21.9	0.00e+00	0	38	0	3913285632	41	4141
2026-01-23 04:56:42.08	234.54	18.70	-35.9	-36.7	21.9	0.00e+00	0	39	0	3925868544	41	4128
2026-01-23 04:56:42.65	234.48	18.63	-35.8	-36.7	22.0	0.00e+00	0	39	0	3930062848	41	4117
2026-01-23 04:56:44.36	234.30	18.44	-35.9	-36.8	21.9	0.00e+00	0	38	0	3941597184	41	4164
2026-01-23 04:56:44.93	234.24	18.38	-35.9	-36.7	22.0	0.00e+00	0	38	0	3945791488	41	4133
2026-01-23 04:56:46.66	234.07	18.19	-36.0	-36.9	21.7	0.00e+00	0	38	0	3958374400	41	4235
2026-01-23 04:56:47.23	234.01	18.12	-36.0	-36.9	21.8	0.00e+00	0	38	0	3962568704	41	4215
2026-01-23 04:56:48.93	233.84	17.94	-36.1	-37.0	21.7	0.00e+00	0	39	0	3975151616	41	4247
2026-01-23 04:56:49.50	233.78	17.88	-36.0	-36.9	21.8	0.00e+00	0	39	0	3979345920	41	4226
2026-01-23 04:56:51.21	233.61	17.69	-36.1	-37.0	21.7	0.00e+00	0	38	0	3991928832	41	4258
2026-01-23 04:56:51.78	233.55	17.63	-36.1	-37.0	21.6	0.00e+00	0	38	0	3995074560	41	4284
2026-01-23 04:56:53.48	233.39	17.44	-36.1	-37.0	21.7	0.00e+00	0	38	0	4007657472	41	4265
2026-01-23 04:56:54.05	233.33	17.38	-36.1	-37.0	21.7	0.00e+00	0	38	0	4011851776	41	4251
2026-01-23 04:56:55.76	233.17	17.20	-36.1	-37.0	21.7	0.00e+00	0	39	0	4024434688	41	4264
2026-01-23 04:56:56.34	233.11	17.14	-36.2	-37.1	21.6	0.00e+00	0	38	0	4028628992	41	4303
2026-01-23 04:56:57.90	232.97	16.97	-36.1	-37.0	21.7	0.00e+00	0	38	0	4040163328	41	4265
2026-01-23 04:56:58.55	232.91	16.90	-36.2	-37.0	21.6	0.00e+00	0	38	0	4044357632	41	4288
2026-01-23 04:56:59.97	232.77	16.75	-36.2	-37.1	21.6	0.00e+00	0	38	0	4054843392	41	4311
2026-01-23 04:57:00.68	232.71	16.68	-36.2	-37.1	21.5	0.00e+00	0	38	0	4060086272	41	4320
2026-01-23 04:57:02.15	232.57	16.52	-36.3	-37.2	21.5	0.00e+00	0	38	0	4070572032	42	4111
2026-01-23 04:57:02.86	232.51	16.45	-36.4	-37.3	21.4	0.00e+00	0	39	0	4075814912	42	4151
2026-01-23 04:57:04.22	232.39	16.31	-36.5	-37.3	21.4	0.00e+00	0	39	0	4085252096	42	4193
2026-01-23 04:57:04.93	232.32	16.23	-36.5	-37.4	21.3	0.00e+00	0	39	0	4090494976	42	4211
2026-01-23 04:57:06.27	232.20	16.10	-36.5	-37.4	21.3	0.00e+00	0	38	0	4099932160	42	4242
2026-01-23 04:57:06.98	232.14	16.02	-36.6	-37.6	21.2	0.00e+00	0	39	0	4105175040	42	4297
2026-01-23 04:57:08.26	232.03	15.89	-36.7	-37.6	21.1	0.00e+00	0	38	0	4114612224	42	4307
2026-01-23 04:57:08.99	231.96	15.82	-36.7	-37.6	21.1	0.00e+00	0	38	0	4119855104	42	4307
2026-01-23 04:57:10.27	231.85	15.69	-36.7	-37.7	21.1	0.00e+00	0	38	0	4129292288	42	4348
2026-01-23 04:57:10.99	231.79	15.61	-36.7	-37.7	21.0	0.00e+00	0	39	0	4134535168	42	4346
2026-01-23 04:57:12.27	231.68	15.48	-36.7	-37.7	21.0	0.00e+00	0	39	0	4143972352	42	4352
2026-01-23 04:57:12.98	231.62	15.41	-36.8	-37.7	21.0	0.00e+00	0	39	0	4148166656	43	4142
2026-01-23 04:57:14.26	231.51	15.28	-36.7	-37.6	21.0	0.00e+00	0	39	0	4157603840	43	4087
2026-01-23 04:57:14.97	231.45	15.21	-36.7	-37.6	21.1	0.00e+00	0	39	0	4162846720	43	4063
2026-01-23 04:57:16.25	231.35	15.09	-36.6	-37.6	21.1	0.00e+00	0	38	0	4172283904	43	4052
2026-01-23 04:57:16.96	231.29	15.02	-36.6	-37.5	21.1	0.00e+00	0	38	0	4177526784	43	4031
2026-01-23 04:57:18.24	231.19	14.89	-36.6	-37.5	21.1	0.00e+00	0	38	0	4185915392	43	4019
2026-01-23 04:57:18.95	231.13	14.82	-36.6	-37.5	21.1	0.00e+00	0	39	0	4192206848	43	4045
2026-01-23 04:57:20.23	231.02	14.69	-36.6	-37.5	21.2	0.00e+00	0	38	0	4200595456	43	4008
2026-01-23 04:57:20.95	230.97	14.62	-36.6	-37.5	21.2	0.00e+00	0	38	0	4205838336	43	4019
2026-01-23 04:57:22.23	230.86	14.50	-36.6	-37.5	21.2	0.00e+00	0	38	0	4215275520	43	4025
2026-01-23 04:57:22.94	230.81	14.43	-36.6	-37.5	21.2	0.00e+00	0	39	0	4220518400	43	4026
2026-01-23 04:57:24.22	230.71	14.30	-36.7	-37.6	21.1	0.00e+00	0	39	0	4229955584	43	4063
2026-01-23 04:57:25.27	230.63	14.20	-36.8	-37.7	21.0	0.00e+00	0	38	0	4237295616	43	4103
2026-01-23 04:57:26.20	230.55	14.11	-36.8	-37.7	20.9	0.00e+00	0	39	0	4244635648	43	4145
2026-01-23 04:57:27.19	230.48	14.02	-36.9	-37.8	20.8	0.00e+00	0	38	0	4250927104	43	4186
2026-01-23 04:57:28.19	230.40	13.92	-36.9	-37.8	20.8	0.00e+00	0	38	0	4258267136	43	4192
2026-01-23 04:57:29.18	230.33	13.83	-36.9	-37.9	20.8	0.00e+00	0	38	0	4265607168	43	4197
2026-01-23 04:57:30.18	230.25	13.73	-36.9	-37.8	20.8	0.00e+00	0	38	0	4272947200	43	4187
2026-01-23 04:57:31.17	230.18	13.64	-37.0	-37.9	20.7	0.00e+00	0	38	0	4280287232	43	4228
2026-01-23 04:57:32.25	230.10	13.54	-37.0	-38.0	20.7	0.00e+00	0	39	0	4287627264	43	4244
2026-01-23 04:57:33.10	230.03	13.46	-37.1	-38.0	20.7	0.00e+00	0	39	0	4293918720	43	4268
2026-01-23 04:57:34.24	229.95	13.35	-37.1	-38.1	20.6	0.00e+00	0	39	0	4302307328	43	4295
2026-01-23 04:57:35.09	229.89	13.27	-37.3	-38.2	20.5	0.00e+00	0	38	0	4307550208	43	4366
2026-01-23 04:57:36.23	229.80	13.17	-37.3	-38.3	20.5	0.00e+00	0	38	0	4315938816	44	4164
2026-01-23 04:57:37.25	229.73	13.07	-37.4	-38.4	20.4	0.00e+00	0	38	0	4324327424	44	4205
2026-01-23 04:57:38.25	229.66	12.98	-37.5	-38.5	20.4	0.00e+00	0	39	0	4331667456	44	4245
2026-01-23 04:57:39.24	229.59	12.89	-37.4	-38.4	20.4	0.00e+00	0	38	0	4337958912	44	4219
2026-01-23 04:57:40.24	229.52	12.80	-37.5	-38.5	20.2	0.00e+00	0	39	0	4345298944	44	4258
2026-01-23 04:57:41.50	229.43	12.68	-37.5	-38.5	20.3	0.00e+00	0	39	0	4354736128	44	4246
2026-01-23 04:57:42.29	229.37	12.61	-37.4	-38.4	20.4	0.00e+00	0	39	0	4359979008	44	4218
2026-01-23 04:57:43.50	229.29	12.50	-37.5	-38.5	20.3	0.00e+00	0	38	0	4369416192	44	4249
2026-01-23 04:57:44.36	229.23	12.42	-37.6	-38.5	20.3	0.00e+00	0	38	0	4375707648	44	4279
2026-01-23 04:57:45.49	229.15	12.32	-37.6	-38.6	20.2	0.00e+00	0	39	0	4383047680	44	4306
2026-01-23 04:57:46.35	229.10	12.24	-37.6	-38.5	20.3	0.00e+00	0	38	0	4389339136	44	4278
2026-01-23 04:57:47.48	229.02	12.14	-37.6	-38.6	20.2	0.00e+00	0	38	0	4397727744	44	4304
2026-01-23 04:57:48.34	228.96	12.06	-37.6	-38.6	20.2	0.00e+00	0	38	0	4404019200	44	4309
2026-01-23 04:57:49.47	228.89	11.96	-37.7	-38.7	20.1	0.00e+00	0	38	0	4412407808	44	4372
2026-01-23 04:57:50.32	228.83	11.89	-37.8	-38.8	20.0	0.00e+00	0	39	0	4417650688	45	4147
2026-01-23 04:57:51.46	228.75	11.79	-37.9	-38.8	19.9	0.00e+00	0	38	0	4426039296	45	4187
2026-01-23 04:57:52.31	228.70	11.71	-37.9	-38.9	19.9	0.00e+00	0	38	0	4432330752	45	4200
2026-01-23 04:57:53.52	228.62	11.60	-37.9	-38.9	19.9	0.00e+00	0	38	0	4440719360	45	4212
2026-01-23 04:57:54.37	228.57	11.53	-38.0	-39.0	19.8	0.00e+00	0	39	0	4447010816	45	4278
2026-01-23 04:57:55.57	228.49	11.42	-38.0	-39.1	19.7	0.00e+00	0	39	0	4456448000	45	4295
2026-01-23 04:57:56.42	228.43	11.35	-38.0	-39.0	19.8	0.00e+00	0	39	0	4461690880	45	4279
2026-01-23 04:57:57.60	228.36	11.25	-38.1	-39.1	19.7	0.00e+00	0	38	0	4471128064	45	4320
2026-01-23 04:57:58.46	228.30	11.17	-38.1	-39.2	19.6	0.00e+00	0	38	0	4477419520	45	4344
2026-01-23 04:57:59.59	228.23	11.08	-38.2	-39.2	19.6	0.00e+00	0	38	0	4484759552	45	4364
2026-01-23 04:58:00.45	228.18	11.00	-38.2	-39.2	19.6	0.00e+00	0	39	0	4491051008	45	4366
2026-01-23 04:58:01.58	228.11	10.91	-38.4	-39.4	19.4	0.00e+00	0	38	0	4499439616	46	4221
2026-01-23 04:58:02.43	228.06	10.83	-38.3	-39.3	19.4	0.00e+00	0	38	0	4505731072	46	4182
2026-01-23 04:58:03.57	227.99	10.74	-38.3	-39.3	19.5	0.00e+00	0	38	0	4514119680	46	4165
2026-01-23 04:58:04.42	227.94	10.66	-38.4	-39.4	19.4	0.00e+00	0	39	0	4520411136	46	4210
2026-01-23 04:58:05.56	227.87	10.57	-38.4	-39.4	19.4	0.00e+00	0	39	0	4527751168	46	4227
2026-01-23 04:58:06.41	227.82	10.49	-38.4	-39.4	19.3	0.00e+00	0	39	0	4534042624	46	4229
2026-01-23 04:58:07.55	227.75	10.40	-38.5	-39.6	19.2	0.00e+00	0	39	0	4542431232	46	4303
2026-01-23 04:58:08.40	227.70	10.33	-38.5	-39.5	19.3	0.00e+00	0	38	0	4548722688	46	4263
2026-01-23 04:58:09.54	227.63	10.23	-38.5	-39.5	19.2	0.00e+00	0	39	0	4557111296	46	4281
2026-01-23 04:58:10.39	227.58	10.16	-38.4	-39.4	19.3	0.00e+00	0	39	0	4562354176	46	4217
2026-01-23 04:58:11.53	227.52	10.07	-38.5	-39.5	19.3	0.00e+00	0	38	0	4570742784	46	4262
2026-01-23 04:58:12.38	227.47	10.00	-38.5	-39.6	19.2	0.00e+00	0	38	0	4577034240	46	4295
2026-01-23 04:58:13.52	227.40	9.90	-38.5	-39.6	19.2	0.00e+00	0	39	0	4585422848	46	4312
2026-01-23 04:58:14.37	227.35	9.83	-38.4	-39.5	19.3	0.00e+00	0	38	0	4591714304	46	4249
2026-01-23 04:58:15.67	227.28	9.72	-38.3	-39.3	19.4	0.00e+00	0	38	0	4601151488	46	4186
2026-01-23 04:58:16.38	227.24	9.67	-38.3	-39.4	19.3	0.00e+00	0	39	0	4606394368	46	4200
2026-01-23 04:58:17.66	227.17	9.56	-38.4	-39.5	19.2	0.00e+00	0	38	0	4615831552	46	4249
2026-01-23 04:58:18.37	227.13	9.50	-38.4	-39.4	19.2	0.00e+00	0	38	0	4621074432	46	4235
2026-01-23 04:58:19.65	227.05	9.40	-38.4	-39.4	19.3	0.00e+00	0	38	0	4630511616	46	4228
2026-01-23 04:58:20.46	227.01	9.33	-38.4	-39.4	19.2	0.00e+00	0	38	0	4635754496	46	4228
2026-01-23 04:58:21.59	226.95	9.24	-38.4	-39.4	19.2	0.00e+00	0	39	0	4644143104	46	4229
2026-01-23 04:58:22.45	226.90	9.17	-38.5	-39.5	19.1	0.00e+00	0	38	0	4650434560	46	4289
2026-01-23 04:58:23.58	226.84	9.08	-38.4	-39.5	19.2	0.00e+00	0	38	0	4657774592	46	4259
2026-01-23 04:58:24.69	226.78	8.99	-41.7	-43.1	16.1	0.00e+00	0	38	0	4666163200	52	4592
2026-01-23 04:58:25.54	226.73	8.93	-49.8	-60.4	3.8	8.47e-01	0	38	104	4667211776	68	13401
2026-01-23 04:58:26.68	226.67	8.84	-49.9	-60.6	3.8	8.47e-01	0	38	104	4667211776	69	12835
2026-01-23 04:58:27.53	226.63	8.77	-49.9	-60.7	3.8	8.47e-01	0	39	104	4667211776	69	13063
