passes_logs/2026/01/23/T1/T1__20260123_215711_NOAA_21_JPSS-2_rec.log

#Pass ID: 20260123_215711_NOAA 21 (JPSS-2)
#Satellite: NOAA 21 (JPSS-2)
#Configuration: NOAA 21
#almurnet v.1.7.20251203
#Start time: 2026-01-23 21:57:10

#Version: 2.0.20230620
#Station: T1
#Location: 37.570604 lon 55.790049 lat
#TLE: 1 54234U 22150A   26022.90705406  .00000208  00000+0  11937-3 0  9994
#TLE: 2 54234  98.7507 323.7115 0000669 231.3756 128.7360 14.19537879165931

#Time	Az	El	Level	Level2	SNR	BER	BlckErr	Temp	State	Recorded	gain1	gain2
2026-01-23 21:57:10.96	32.48	4.97	-48.6	-61.8	3.8	1.49e+00	0	35	0	0	69	15926
2026-01-23 21:57:11.95	32.58	5.02	-48.5	-61.6	3.8	1.49e+00	0	36	104	0	67	17456
2026-01-23 21:57:12.94	32.68	5.07	-48.5	-61.6	3.8	1.49e+00	0	36	104	0	67	17458
2026-01-23 21:57:13.94	32.78	5.13	-48.4	-61.6	3.8	1.49e+00	0	36	104	0	67	17452
2026-01-23 21:57:14.93	32.88	5.18	-48.4	-61.6	3.8	1.49e+00	0	36	104	0	67	17374
2026-01-23 21:57:15.92	32.98	5.23	-48.4	-61.6	3.8	1.49e+00	0	36	104	0	67	17440
2026-01-23 21:57:16.92	33.08	5.29	-48.4	-61.6	3.8	1.49e+00	0	36	104	0	67	17426
2026-01-23 21:57:17.91	33.18	5.34	-48.4	-61.6	3.8	1.49e+00	0	36	104	0	67	17444
2026-01-23 21:57:18.90	33.28	5.39	-48.4	-61.6	3.8	1.49e+00	0	36	104	0	67	17394
2026-01-23 21:57:19.89	33.38	5.45	-48.4	-61.6	3.8	1.49e+00	0	36	104	0	67	17410
2026-01-23 21:57:20.89	33.48	5.50	-48.4	-61.6	3.8	1.49e+00	0	36	104	0	67	17384
2026-01-23 21:57:21.88	33.58	5.55	-48.4	-61.6	3.8	1.49e+00	0	36	104	0	67	17403
2026-01-23 21:57:22.87	33.68	5.61	-48.4	-61.6	3.8	1.49e+00	0	36	104	0	67	17390
2026-01-23 21:57:23.87	33.79	5.66	-48.4	-61.6	3.8	1.49e+00	0	36	104	0	67	17437
2026-01-23 21:57:24.86	33.89	5.72	-48.4	-61.6	3.8	1.49e+00	0	36	104	0	67	17413
2026-01-23 21:57:25.85	33.99	5.77	-48.4	-61.6	3.8	1.49e+00	0	36	104	0	67	17446
2026-01-23 21:57:26.85	34.09	5.82	-48.4	-61.6	3.8	1.49e+00	0	36	104	0	67	17452
2026-01-23 21:57:27.84	34.20	5.88	-48.4	-61.6	3.8	1.49e+00	0	36	104	0	67	17384
2026-01-23 21:57:28.83	34.30	5.93	-48.4	-61.6	3.8	1.49e+00	0	36	104	0	67	17450
2026-01-23 21:57:29.83	34.41	5.98	-48.4	-61.6	3.8	1.49e+00	0	36	104	0	67	17427
2026-01-23 21:57:30.82	34.51	6.04	-48.4	-61.6	3.8	1.49e+00	0	36	104	0	67	17376
2026-01-23 21:57:31.81	34.62	6.09	-48.4	-61.6	3.8	1.49e+00	0	37	104	0	67	17411
2026-01-23 21:57:32.80	34.72	6.15	-48.4	-61.6	3.8	1.49e+00	0	36	104	0	67	17364
2026-01-23 21:57:33.80	34.83	6.20	-48.4	-61.6	3.8	1.49e+00	0	37	104	0	67	17428
2026-01-23 21:57:34.79	34.93	6.25	-48.4	-61.6	3.8	1.49e+00	0	37	104	0	67	17412
2026-01-23 21:57:35.78	35.04	6.31	-48.4	-61.6	3.8	1.49e+00	0	37	104	0	67	17427
2026-01-23 21:57:36.78	35.15	6.36	-48.4	-61.6	3.8	1.49e+00	0	37	104	0	67	17399
2026-01-23 21:57:37.77	35.26	6.42	-48.4	-61.6	3.8	1.49e+00	0	37	104	0	67	17381
2026-01-23 21:57:38.76	35.36	6.47	-48.4	-61.6	3.8	1.49e+00	0	37	104	0	67	17387
2026-01-23 21:57:39.76	35.47	6.53	-48.4	-61.6	3.8	1.49e+00	0	37	104	0	67	17408
2026-01-23 21:57:40.75	35.58	6.58	-48.4	-61.6	3.8	1.49e+00	0	37	104	0	67	17342
2026-01-23 21:57:41.74	35.69	6.63	-48.4	-61.6	3.8	1.49e+00	0	37	104	0	67	17348
2026-01-23 21:57:42.74	35.80	6.69	-48.4	-61.5	3.8	1.49e+00	0	37	104	0	67	17280
2026-01-23 21:57:43.73	35.91	6.74	-48.4	-61.5	3.8	1.49e+00	0	37	104	0	67	17205
2026-01-23 21:57:44.72	36.02	6.80	-48.4	-61.5	3.8	1.49e+00	0	37	104	0	67	17203
2026-01-23 21:57:45.72	36.13	6.85	-48.4	-61.5	3.8	1.49e+00	0	37	104	0	67	17235
2026-01-23 21:57:46.71	36.24	6.91	-48.4	-61.5	3.8	1.49e+00	0	37	104	0	67	17273
2026-01-23 21:57:47.70	36.35	6.96	-48.4	-61.5	3.8	1.49e+00	0	37	104	0	67	17255
2026-01-23 21:57:48.70	36.47	7.01	-48.4	-61.5	3.8	1.49e+00	0	37	104	0	67	17246
2026-01-23 21:57:49.69	36.58	7.07	-48.4	-61.6	3.8	1.49e+00	0	37	104	0	67	17328
2026-01-23 21:57:50.68	36.69	7.12	-48.4	-61.6	3.8	1.49e+00	0	37	104	0	67	17416
2026-01-23 21:57:51.68	36.80	7.18	-48.4	-61.6	3.8	1.49e+00	0	37	104	0	67	17336
2026-01-23 21:57:52.67	36.92	7.23	-48.4	-61.6	3.8	1.49e+00	0	37	104	0	67	17401
2026-01-23 21:57:53.66	37.03	7.29	-48.4	-61.6	3.8	1.49e+00	0	37	104	0	67	17399
2026-01-23 21:57:54.66	37.15	7.34	-48.4	-61.6	3.8	1.49e+00	0	37	104	0	67	17384
2026-01-23 21:57:55.65	37.26	7.40	-48.4	-61.6	3.8	1.49e+00	0	37	104	0	67	17344
2026-01-23 21:57:56.64	37.37	7.45	-48.4	-61.5	3.8	1.49e+00	0	37	104	0	67	17206
2026-01-23 21:57:57.64	37.49	7.51	-48.4	-61.5	3.8	1.49e+00	0	37	104	0	67	17148
2026-01-23 21:57:58.63	37.61	7.56	-48.4	-61.4	3.8	1.49e+00	0	37	104	0	67	17059
2026-01-23 21:57:59.63	37.72	7.62	-48.4	-61.4	3.8	1.49e+00	0	37	104	0	67	17026
2026-01-23 21:58:00.62	37.84	7.67	-48.4	-61.4	3.8	1.49e+00	0	37	104	0	67	16969
2026-01-23 21:58:01.61	37.96	7.72	-48.4	-61.4	3.8	1.49e+00	0	38	104	0	67	17018
2026-01-23 21:58:02.61	38.08	7.78	-48.4	-61.3	3.8	1.49e+00	0	37	104	0	67	16827
2026-01-23 21:58:03.60	38.19	7.83	-48.4	-61.2	3.8	1.49e+00	0	37	104	0	67	16516
2026-01-23 21:58:04.59	38.31	7.89	-48.4	-61.1	3.8	1.49e+00	0	37	104	0	67	16422
2026-01-23 21:58:05.59	38.43	7.94	-48.4	-61.1	3.8	1.49e+00	0	38	104	0	67	16386
2026-01-23 21:58:06.58	38.55	8.00	-48.4	-61.1	3.8	1.49e+00	0	37	104	0	67	16449
2026-01-23 21:58:07.57	38.67	8.05	-48.4	-61.2	3.8	1.49e+00	0	37	104	0	67	16609
2026-01-23 21:58:08.57	38.79	8.11	-48.4	-61.4	3.8	1.49e+00	0	38	104	0	67	16916
2026-01-23 21:58:09.56	38.91	8.16	-48.4	-61.5	3.8	1.49e+00	0	37	104	0	67	17093
2026-01-23 21:58:10.55	39.03	8.22	-48.4	-61.5	3.8	1.49e+00	0	38	104	0	67	17269
2026-01-23 21:58:11.55	39.15	8.27	-48.4	-61.5	3.8	1.49e+00	0	38	104	0	67	17255
2026-01-23 21:58:12.54	39.28	8.33	-48.4	-61.6	3.8	1.49e+00	0	38	104	0	67	17308
2026-01-23 21:58:13.53	39.40	8.38	-48.4	-61.5	3.8	1.49e+00	0	38	104	0	67	17179
2026-01-23 21:58:14.53	39.52	8.44	-48.4	-61.4	3.8	1.49e+00	0	37	104	0	67	17028
2026-01-23 21:58:15.52	39.64	8.49	-48.4	-61.3	3.8	1.49e+00	0	37	104	0	67	16717
2026-01-23 21:58:16.52	39.77	8.55	-48.4	-61.1	3.8	1.49e+00	0	38	104	0	67	16362
2026-01-23 21:58:17.51	39.89	8.60	-48.3	-60.9	3.8	1.49e+00	0	38	104	0	67	16021
2026-01-23 21:58:18.50	40.02	8.66	-48.3	-60.7	3.8	1.49e+00	0	38	104	0	67	15611
2026-01-23 21:58:19.50	40.14	8.71	-48.3	-60.4	3.8	1.49e+00	0	38	104	0	67	15059
2026-01-23 21:58:20.49	40.27	8.77	-48.2	-59.6	3.8	1.49e+00	0	38	104	0	67	13870
2026-01-23 21:58:21.48	40.39	8.82	-48.0	-57.3	4.4	1.46e+00	0	38	104	0	67	10617
2026-01-23 21:58:22.48	40.52	8.88	-47.4	-54.6	5.9	4.31e-01	0	38	0	0	66	8229
2026-01-23 21:58:23.47	40.65	8.93	-46.5	-51.8	8.4	1.07e-01	0	38	0	0	65	6344
2026-01-23 21:58:24.47	40.78	8.99	-45.5	-49.6	10.8	6.29e-03	0	38	0	0	63	5491
2026-01-23 21:58:25.46	40.90	9.04	-45.9	-50.3	10.3	4.02e-04	0	38	0	0	62	6287
2026-01-23 21:58:26.52	41.04	9.10	-47.1	-53.4	7.0	1.23e-01	0	38	0	0	65	7588
2026-01-23 21:58:27.44	41.16	9.15	-45.9	-50.1	10.1	4.91e-01	0	38	0	0	63	5827
2026-01-23 21:58:28.43	41.29	9.21	-45.2	-48.8	11.8	8.30e-06	0	38	0	0	60	5939
2026-01-23 21:58:29.43	41.42	9.26	-45.2	-48.9	11.5	4.86e-02	0	38	0	0	62	5400
2026-01-23 21:58:30.42	41.55	9.32	-41.1	-43.1	17.2	0.00e+00	0	38	0	0	54	4390
2026-01-23 21:58:31.42	41.68	9.37	-41.0	-43.1	17.2	0.00e+00	0	38	0	0	54	4385
2026-01-23 21:58:32.41	41.81	9.43	-40.8	-42.8	17.4	0.00e+00	0	38	0	0	53	4485
2026-01-23 21:58:33.41	41.94	9.48	-40.8	-42.8	17.5	0.00e+00	0	38	0	0	53	4468
2026-01-23 21:58:34.41	42.08	9.54	-40.6	-42.7	17.6	0.00e+00	0	38	0	0	53	4395
2026-01-23 21:58:35.40	42.21	9.59	-40.6	-42.6	17.7	0.00e+00	0	38	0	0	53	4342
2026-01-23 21:58:36.39	42.34	9.65	-40.5	-42.5	17.7	0.00e+00	0	38	0	0	53	4314
2026-01-23 21:58:37.39	42.48	9.70	-40.5	-42.5	17.7	0.00e+00	0	38	0	0	53	4331
2026-01-23 21:58:38.38	42.61	9.76	-40.5	-42.5	17.7	0.00e+00	0	38	0	0	53	4335
2026-01-23 21:58:39.38	42.75	9.81	-40.5	-42.5	17.7	0.00e+00	0	38	0	0	52	4571
2026-01-23 21:58:40.37	42.88	9.87	-40.5	-42.4	17.8	0.00e+00	0	38	0	0	52	4543
2026-01-23 21:58:41.37	43.02	9.92	-40.5	-42.5	17.8	0.00e+00	0	38	0	0	52	4553
2026-01-23 21:58:42.36	43.15	9.98	-40.4	-42.4	17.8	0.00e+00	0	38	0	0	52	4521
2026-01-23 21:58:43.35	43.29	10.03	-40.4	-42.4	17.8	0.00e+00	0	38	0	0	52	4516
2026-01-23 21:58:44.35	43.43	10.09	-40.4	-42.4	17.9	0.00e+00	0	38	0	0	52	4503
2026-01-23 21:58:45.34	43.56	10.14	-40.4	-42.4	17.8	0.00e+00	0	38	0	0	52	4517
2026-01-23 21:58:46.33	43.70	10.20	-40.5	-42.5	17.8	0.00e+00	0	38	0	0	52	4579
2026-01-23 21:58:47.33	43.84	10.25	-40.4	-42.4	17.8	0.00e+00	0	38	0	0	52	4529
2026-01-23 21:58:48.33	43.98	10.31	-40.3	-42.3	18.0	0.00e+00	0	38	0	0	52	4449
2026-01-23 21:58:49.32	44.12	10.36	-40.4	-42.3	18.0	0.00e+00	0	38	0	0	52	4471
2026-01-23 21:58:50.31	44.26	10.42	-40.2	-42.2	18.1	0.00e+00	0	38	0	0	52	4392
2026-01-23 21:58:51.39	44.41	10.48	-40.2	-42.1	18.1	0.00e+00	0	38	0	0	52	4384
2026-01-23 21:58:52.24	44.53	10.52	-40.3	-42.2	18.0	0.00e+00	0	38	0	0	52	4414
2026-01-23 21:58:53.58	44.73	10.60	-40.1	-42.0	18.1	0.00e+00	0	38	0	0	52	4338
2026-01-23 21:58:54.30	44.83	10.64	-40.0	-41.9	18.3	0.00e+00	0	38	0	0	52	4246
2026-01-23 21:58:55.58	45.01	10.71	-40.2	-42.1	18.2	0.00e+00	0	38	0	0	51	4616
2026-01-23 21:58:56.29	45.11	10.75	-40.0	-41.9	18.4	0.00e+00	0	38	0	0	51	4503
2026-01-23 21:58:57.57	45.30	10.82	-40.0	-41.8	18.5	0.00e+00	0	38	0	0	51	4480
2026-01-23 21:58:58.30	45.41	10.86	-40.0	-41.9	18.4	0.00e+00	0	38	0	0	51	4515
2026-01-23 21:58:59.58	45.59	10.93	-40.0	-41.9	18.4	0.00e+00	0	38	0	0	51	4522
2026-01-23 21:59:00.29	45.70	10.97	-40.0	-41.9	18.4	0.00e+00	0	38	0	0	51	4504
2026-01-23 21:59:01.57	45.88	11.04	-40.1	-41.9	18.3	0.00e+00	0	38	0	0	51	4534
2026-01-23 21:59:02.28	45.99	11.07	-40.0	-41.9	18.4	0.00e+00	0	38	0	0	51	4506
2026-01-23 21:59:03.56	46.18	11.14	-40.1	-41.9	18.3	0.00e+00	0	38	0	0	51	4537
2026-01-23 21:59:04.29	46.29	11.18	-40.1	-42.0	18.3	0.00e+00	0	38	0	0	51	4557
2026-01-23 21:59:05.57	46.48	11.25	-40.0	-41.9	18.4	0.00e+00	0	38	0	0	51	4501
2026-01-23 21:59:06.28	46.58	11.29	-40.0	-41.9	18.4	0.00e+00	0	38	0	0	51	4520
2026-01-23 21:59:07.56	46.78	11.36	-40.0	-41.9	18.4	0.00e+00	0	38	0	0	51	4507
2026-01-23 21:59:08.29	46.89	11.40	-40.0	-41.9	18.5	0.00e+00	0	38	0	0	51	4495
2026-01-23 21:59:09.56	47.08	11.47	-40.0	-41.9	18.5	0.00e+00	0	38	0	0	51	4506
2026-01-23 21:59:10.29	47.19	11.51	-40.0	-41.9	18.5	0.00e+00	0	38	0	0	51	4507
2026-01-23 21:59:11.57	47.38	11.58	-40.1	-42.0	18.4	0.00e+00	0	38	0	0	51	4562
2026-01-23 21:59:12.28	47.49	11.62	-40.0	-41.9	18.5	0.00e+00	0	38	0	0	51	4512
2026-01-23 21:59:13.56	47.69	11.69	-39.9	-41.8	18.6	0.00e+00	0	38	0	0	51	4449
2026-01-23 21:59:14.28	47.80	11.73	-39.9	-41.7	18.7	0.00e+00	0	38	0	0	51	4425
2026-01-23 21:59:15.56	48.00	11.80	-39.9	-41.7	18.7	0.00e+00	0	38	0	0	51	4434
2026-01-23 21:59:16.27	48.11	11.83	-39.8	-41.6	18.7	0.00e+00	0	38	0	0	51	4386
2026-01-23 21:59:17.55	48.31	11.90	-39.8	-41.7	18.7	0.00e+00	0	38	0	0	51	4393
2026-01-23 21:59:18.28	48.42	11.94	-39.9	-41.8	18.6	0.00e+00	0	38	0	0	51	4443
2026-01-23 21:59:19.56	48.62	12.01	-39.9	-41.7	18.7	0.00e+00	0	38	0	0	51	4418
2026-01-23 21:59:20.28	48.73	12.05	-39.8	-41.6	18.7	0.00e+00	0	38	0	0	51	4369
2026-01-23 21:59:21.56	48.94	12.12	-39.7	-41.5	18.8	0.00e+00	0	38	0	0	51	4340
2026-01-23 21:59:22.27	49.05	12.16	-39.7	-41.5	18.8	0.00e+00	0	38	0	0	51	4340
2026-01-23 21:59:23.55	49.25	12.22	-39.7	-41.5	18.8	0.00e+00	0	38	0	0	51	4331
2026-01-23 21:59:24.27	49.37	12.26	-39.8	-41.6	18.7	0.00e+00	0	38	0	0	51	4374
2026-01-23 21:59:25.55	49.57	12.33	-39.8	-41.6	18.8	0.00e+00	0	38	0	0	51	4378
2026-01-23 21:59:26.28	49.69	12.37	-39.7	-41.4	18.9	0.00e+00	0	38	0	0	51	4290
2026-01-23 21:59:27.56	49.89	12.44	-39.7	-41.5	18.9	0.00e+00	0	38	0	0	51	4304
2026-01-23 21:59:28.27	50.01	12.47	-39.7	-41.5	18.9	0.00e+00	0	38	0	0	51	4324
2026-01-23 21:59:29.55	50.22	12.54	-39.8	-41.6	18.8	0.00e+00	0	38	0	0	51	4358
2026-01-23 21:59:30.28	50.34	12.58	-39.7	-41.5	18.8	0.00e+00	0	38	0	0	51	4327
2026-01-23 21:59:31.55	50.54	12.65	-39.7	-41.5	18.9	0.00e+00	0	38	0	0	51	4335
2026-01-23 21:59:32.26	50.66	12.69	-39.7	-41.6	18.8	0.00e+00	0	38	0	0	51	4352
2026-01-23 21:59:33.54	50.87	12.75	-39.9	-41.8	18.7	0.00e+00	0	38	0	0	51	4456
2026-01-23 21:59:34.27	50.99	12.79	-39.8	-41.7	18.7	0.00e+00	0	38	0	0	51	4403
2026-01-23 21:59:35.55	51.20	12.86	-39.9	-41.7	18.7	0.00e+00	0	38	0	0	51	4417
2026-01-23 21:59:36.28	51.32	12.90	-39.7	-41.6	18.9	0.00e+00	0	38	0	0	51	4343
2026-01-23 21:59:37.56	51.54	12.96	-39.7	-41.5	18.9	0.00e+00	0	38	0	0	51	4331
2026-01-23 21:59:38.27	51.66	13.00	-39.7	-41.6	18.9	0.00e+00	0	38	0	0	51	4342
2026-01-23 21:59:39.61	51.88	13.07	-39.8	-41.6	18.8	0.00e+00	0	38	0	0	51	4369
2026-01-23 21:59:40.33	52.00	13.11	-39.8	-41.7	18.7	0.00e+00	0	38	0	0	51	4408
2026-01-23 21:59:41.62	52.22	13.17	-39.8	-41.6	18.8	0.00e+00	0	38	0	0	51	4351
2026-01-23 21:59:42.33	52.34	13.21	-39.7	-41.5	18.9	0.00e+00	0	38	0	0	51	4306
2026-01-23 21:59:43.72	52.58	13.28	-39.8	-41.6	18.7	0.00e+00	0	38	0	0	51	4372
2026-01-23 21:59:44.43	52.70	13.32	-39.8	-41.7	18.7	0.00e+00	0	38	0	0	51	4402
2026-01-23 21:59:45.71	52.92	13.38	-39.9	-41.8	18.6	0.00e+00	0	38	0	0	51	4444
2026-01-23 21:59:46.44	53.05	13.42	-39.9	-41.7	18.7	0.00e+00	0	38	0	0	51	4422
2026-01-23 21:59:47.71	53.26	13.48	-40.0	-41.8	18.5	0.00e+00	0	38	0	0	51	4492
2026-01-23 21:59:48.44	53.39	13.52	-40.1	-42.0	18.5	0.00e+00	0	38	0	0	51	4548
2026-01-23 21:59:49.72	53.61	13.59	-40.0	-41.9	18.5	0.00e+00	0	38	0	0	51	4510
2026-01-23 21:59:50.43	53.74	13.62	-40.1	-42.0	18.5	0.00e+00	0	38	0	0	51	4547
2026-01-23 21:59:51.72	53.96	13.69	-40.0	-41.9	18.5	0.00e+00	0	38	0	0	51	4516
2026-01-23 21:59:52.48	54.10	13.73	-40.2	-42.1	18.4	0.00e+00	0	38	0	0	51	4605
2026-01-23 21:59:53.76	54.32	13.79	-40.2	-42.1	18.4	0.00e+00	0	38	0	0	51	4621
2026-01-23 21:59:54.47	54.45	13.82	-40.1	-41.9	18.6	0.00e+00	0	38	0	0	51	4537
2026-01-23 21:59:55.75	54.68	13.89	-39.9	-41.8	18.7	0.00e+00	0	39	0	0	51	4448
2026-01-23 21:59:56.61	54.83	13.93	-39.8	-41.6	18.8	0.00e+00	0	38	0	0	51	4377
2026-01-23 21:59:58.02	55.08	14.00	-39.9	-41.7	18.7	0.00e+00	0	38	0	0	51	4406
2026-01-23 21:59:58.73	55.21	14.04	-39.8	-41.6	18.8	0.00e+00	0	38	0	0	51	4374
2026-01-23 22:00:00.22	55.48	14.11	-39.7	-41.5	18.9	0.00e+00	0	38	0	0	51	4318
2026-01-23 22:00:00.93	55.60	14.14	-39.7	-41.5	19.0	0.00e+00	0	38	0	0	51	4330
2026-01-23 22:00:02.24	55.84	14.21	-39.8	-41.7	18.8	0.00e+00	0	38	0	0	51	4405
2026-01-23 22:00:02.95	55.97	14.24	-39.8	-41.6	18.8	0.00e+00	0	38	0	0	51	4374
2026-01-23 22:00:04.23	56.20	14.30	-39.8	-41.6	18.8	0.00e+00	0	38	0	0	51	4389
2026-01-23 22:00:04.95	56.34	14.34	-39.8	-41.6	18.7	0.00e+00	0	38	0	0	51	4387
2026-01-23 22:00:06.23	56.57	14.40	-39.9	-41.8	18.7	0.00e+00	0	38	0	0	51	4460
2026-01-23 22:00:06.96	56.70	14.44	-39.8	-41.7	18.8	0.00e+00	0	38	0	0	51	4403
2026-01-23 22:00:08.24	56.94	14.50	-39.8	-41.6	18.8	0.00e+00	0	38	0	0	51	4383
2026-01-23 22:00:08.97	57.08	14.53	-39.7	-41.6	18.9	0.00e+00	0	38	0	0	51	4346
2026-01-23 22:00:10.25	57.31	14.59	-39.7	-41.5	19.0	0.00e+00	0	38	0	0	51	4328
2026-01-23 22:00:10.96	57.45	14.63	-39.7	-41.5	19.1	0.00e+00	0	38	0	0	51	4302
2026-01-23 22:00:12.24	57.69	14.69	-39.7	-41.5	18.9	0.00e+00	0	38	0	0	51	4334
2026-01-23 22:00:13.01	57.83	14.72	-39.7	-41.5	19.0	0.00e+00	0	38	0	0	51	4306
2026-01-23 22:00:14.29	58.07	14.78	-39.6	-41.4	19.0	0.00e+00	0	38	0	0	51	4275
2026-01-23 22:00:15.00	58.20	14.81	-39.8	-41.6	18.8	0.00e+00	0	38	0	0	51	4351
2026-01-23 22:00:16.29	58.45	14.87	-39.7	-41.5	18.9	0.00e+00	0	38	0	0	51	4308
2026-01-23 22:00:17.15	58.61	14.91	-39.6	-41.5	18.9	0.00e+00	0	38	0	0	51	4294
2026-01-23 22:00:18.61	58.89	14.98	-39.7	-41.5	18.9	0.00e+00	0	38	0	0	51	4326
2026-01-23 22:00:19.32	59.03	15.01	-39.8	-41.6	18.8	0.00e+00	0	39	0	0	51	4363
2026-01-23 22:00:20.83	59.32	15.08	-39.8	-41.6	18.8	0.00e+00	0	38	0	0	51	4363
2026-01-23 22:00:21.54	59.45	15.11	-39.8	-41.7	18.8	0.00e+00	0	39	0	0	51	4400
2026-01-23 22:00:22.82	59.70	15.17	-39.7	-41.5	19.0	0.00e+00	0	38	0	0	51	4308
2026-01-23 22:00:23.53	59.84	15.20	-39.6	-41.5	19.0	0.00e+00	0	38	0	0	51	4302
2026-01-23 22:00:24.81	60.09	15.26	-39.6	-41.4	19.1	0.00e+00	0	38	0	0	51	4258
2026-01-23 22:00:25.52	60.22	15.29	-39.5	-41.3	19.2	0.00e+00	0	38	0	0	51	4200
2026-01-23 22:00:26.80	60.47	15.35	-39.4	-41.3	19.2	0.00e+00	0	39	0	0	50	4443
2026-01-23 22:00:27.52	60.62	15.38	-39.5	-41.3	19.2	0.00e+00	0	38	0	0	50	4466
2026-01-23 22:00:28.80	60.87	15.43	-39.6	-41.4	19.1	0.00e+00	0	38	0	0	50	4514
2026-01-23 22:00:29.53	61.01	15.47	-39.5	-41.3	19.1	0.00e+00	0	38	0	0	50	4478
2026-01-23 22:00:30.80	61.26	15.52	-39.5	-41.2	19.2	0.00e+00	0	39	0	0	50	4437
2026-01-23 22:00:31.53	61.41	15.55	-39.5	-41.3	19.1	0.00e+00	0	38	0	0	50	4469
2026-01-23 22:00:32.81	61.66	15.61	-39.5	-41.3	19.1	0.00e+00	0	39	0	0	50	4489
2026-01-23 22:00:33.53	61.80	15.64	-39.5	-41.3	19.1	0.00e+00	0	38	0	0	50	4443
2026-01-23 22:00:34.81	62.06	15.69	-39.5	-41.3	19.2	0.00e+00	0	38	0	0	50	4447
2026-01-23 22:00:35.54	62.21	15.72	-39.4	-41.2	19.2	0.00e+00	0	38	0	0	50	4421
2026-01-23 22:00:36.82	62.46	15.77	-39.3	-41.1	19.4	0.00e+00	0	38	0	0	50	4343
2026-01-23 22:00:37.54	62.61	15.80	-39.2	-41.0	19.4	0.00e+00	0	39	0	0	50	4292
2026-01-23 22:00:38.82	62.87	15.86	-39.1	-40.9	19.6	0.00e+00	0	39	0	0	50	4255
2026-01-23 22:00:39.53	63.01	15.88	-39.1	-40.8	19.6	0.00e+00	0	38	0	0	50	4233
2026-01-23 22:00:40.81	63.27	15.94	-39.1	-40.8	19.5	0.00e+00	0	38	0	0	50	4242
2026-01-23 22:00:41.54	63.42	15.97	-39.1	-40.9	19.5	0.00e+00	0	38	0	0	50	4246
2026-01-23 22:00:42.82	63.68	16.02	-39.2	-41.0	19.4	0.00e+00	0	38	0	0	50	4317
2026-01-23 22:00:43.61	63.84	16.05	-39.3	-41.1	19.4	0.00e+00	0	38	0	0	50	4349
2026-01-23 22:00:45.08	64.14	16.11	-39.3	-41.1	19.4	0.00e+00	0	39	0	0	50	4347
2026-01-23 22:00:46.20	64.37	16.15	-39.4	-41.2	19.3	0.00e+00	0	39	0	0	50	4414
2026-01-23 22:00:47.05	64.55	16.18	-39.4	-41.2	19.3	0.00e+00	0	39	0	0	50	4407
2026-01-23 22:00:48.19	64.79	16.23	-39.3	-41.1	19.4	0.00e+00	0	39	0	0	50	4348
2026-01-23 22:00:49.04	64.96	16.26	-39.4	-41.2	19.3	0.00e+00	0	39	0	0	50	4403
2026-01-23 22:00:50.18	65.20	16.30	-39.4	-41.2	19.3	0.00e+00	0	39	0	0	50	4399
2026-01-23 22:00:51.03	65.38	16.33	-39.1	-40.9	19.6	0.00e+00	0	39	0	0	50	4244
2026-01-23 22:00:52.17	65.61	16.38	-39.1	-40.9	19.6	0.00e+00	0	39	0	0	50	4248
2026-01-23 22:00:53.02	65.79	16.41	-39.2	-40.9	19.5	0.00e+00	0	39	0	0	50	4263
2026-01-23 22:00:54.16	66.03	16.45	-39.1	-40.9	19.6	0.00e+00	0	39	0	0	50	4259
2026-01-23 22:00:55.14	66.24	16.48	-39.1	-40.8	19.6	0.00e+00	0	39	0	0	50	4236
2026-01-23 22:00:56.13	66.45	16.52	-39.0	-40.7	19.7	0.00e+00	0	38	0	0	50	4164
2026-01-23 22:00:57.12	66.66	16.56	-38.9	-40.6	19.8	0.00e+00	0	39	0	0	49	4381
2026-01-23 22:00:58.12	66.87	16.59	-39.0	-40.7	19.8	0.00e+00	0	39	0	0	49	4422
2026-01-23 22:00:59.11	67.08	16.63	-39.0	-40.7	19.8	0.00e+00	0	39	0	0	49	4411
2026-01-23 22:01:00.11	67.29	16.66	-39.0	-40.7	19.7	0.00e+00	0	39	0	0	49	4441
2026-01-23 22:01:01.10	67.50	16.69	-39.0	-40.7	19.7	0.00e+00	0	38	0	0	49	4410
2026-01-23 22:01:02.09	67.72	16.73	-39.0	-40.7	19.7	0.00e+00	0	38	0	0	49	4437
2026-01-23 22:01:03.09	67.93	16.76	-39.0	-40.7	19.7	0.00e+00	0	39	0	0	49	4418
2026-01-23 22:01:04.09	68.15	16.79	-39.0	-40.6	19.7	0.00e+00	0	39	0	0	49	4391
2026-01-23 22:01:05.08	68.36	16.83	-39.0	-40.7	19.7	0.00e+00	0	39	0	0	49	4407
2026-01-23 22:01:06.07	68.57	16.86	-39.1	-40.9	19.6	0.00e+00	0	38	0	0	49	4501
2026-01-23 22:01:07.07	68.79	16.89	-39.0	-40.7	19.7	0.00e+00	0	39	0	0	49	4399
2026-01-23 22:01:08.09	69.01	16.92	-39.0	-40.7	19.7	0.00e+00	0	39	0	0	49	4427
2026-01-23 22:01:09.09	69.23	16.96	-38.9	-40.6	19.8	0.00e+00	0	39	0	0	49	4382
2026-01-23 22:01:10.15	69.46	16.99	-38.8	-40.5	19.9	0.00e+00	0	39	0	0	49	4308
2026-01-23 22:01:11.05	69.65	17.02	-38.9	-40.6	19.7	0.00e+00	0	39	0	0	49	4352
2026-01-23 22:01:12.14	69.89	17.05	-38.9	-40.6	19.7	0.00e+00	0	39	0	0	49	4358
2026-01-23 22:01:12.99	70.08	17.08	-39.0	-40.7	19.7	0.00e+00	0	39	0	0	49	4402
2026-01-23 22:01:14.13	70.33	17.11	-39.0	-40.8	19.6	0.00e+00	0	39	0	0	49	4450
2026-01-23 22:01:14.98	70.52	17.14	-39.1	-40.8	19.6	0.00e+00	0	39	0	0	49	4483
2026-01-23 22:01:16.12	70.77	17.17	-39.2	-40.9	19.6	0.00e+00	0	39	0	0	49	4520
2026-01-23 22:01:16.97	70.95	17.19	-39.0	-40.7	19.7	0.00e+00	0	39	0	0	49	4438
2026-01-23 22:01:18.11	71.21	17.23	-38.8	-40.6	19.8	0.00e+00	0	39	0	0	49	4341
2026-01-23 22:01:19.29	71.47	17.26	-38.8	-40.5	19.9	0.00e+00	0	38	0	0	49	4325
2026-01-23 22:01:20.32	71.70	17.29	-38.8	-40.5	19.9	0.00e+00	0	39	0	0	49	4325
2026-01-23 22:01:21.32	71.92	17.31	-38.9	-40.6	19.8	0.00e+00	0	39	0	0	49	4354
2026-01-23 22:01:22.55	72.19	17.35	-38.9	-40.6	19.8	0.00e+00	0	39	0	0	49	4358
2026-01-23 22:01:23.40	72.38	17.37	-38.9	-40.7	19.7	0.00e+00	0	39	0	0	49	4392
2026-01-23 22:01:24.54	72.64	17.40	-39.0	-40.8	19.7	0.00e+00	0	39	0	0	49	4449
2026-01-23 22:01:25.39	72.83	17.42	-39.0	-40.7	19.7	0.00e+00	0	39	0	0	49	4432
2026-01-23 22:01:26.53	73.08	17.45	-38.9	-40.6	19.8	0.00e+00	0	38	0	0	49	4382
2026-01-23 22:01:27.38	73.28	17.47	-38.9	-40.6	19.9	0.00e+00	0	39	0	0	49	4350
2026-01-23 22:01:28.52	73.53	17.50	-38.9	-40.6	19.8	0.00e+00	0	39	0	0	49	4372
2026-01-23 22:01:29.37	73.72	17.52	-38.9	-40.6	19.9	0.00e+00	0	39	0	0	49	4353
2026-01-23 22:01:30.51	73.98	17.54	-38.9	-40.6	19.8	0.00e+00	0	39	0	0	49	4363
2026-01-23 22:01:31.36	74.17	17.56	-39.0	-40.7	19.7	0.00e+00	0	39	0	0	49	4402
2026-01-23 22:01:32.50	74.43	17.59	-39.0	-40.8	19.6	0.00e+00	0	39	0	0	49	4443
2026-01-23 22:01:33.35	74.62	17.61	-39.1	-40.9	19.6	0.00e+00	0	39	0	0	49	4501
2026-01-23 22:01:34.49	74.88	17.63	-39.2	-41.0	19.5	0.00e+00	0	39	0	0	49	4550
2026-01-23 22:01:35.34	75.08	17.65	-39.2	-40.9	19.6	0.00e+00	0	39	0	0	49	4541
2026-01-23 22:01:36.48	75.34	17.68	-39.2	-41.0	19.6	0.00e+00	0	39	0	0	49	4554
2026-01-23 22:01:37.33	75.53	17.69	-39.2	-40.9	19.6	0.00e+00	0	39	0	0	49	4521
2026-01-23 22:01:38.47	75.79	17.72	-39.1	-40.8	19.7	0.00e+00	0	38	0	0	49	4457
2026-01-23 22:01:39.32	75.99	17.73	-39.1	-40.8	19.6	0.00e+00	0	39	0	0	49	4486
2026-01-23 22:01:40.45	76.24	17.76	-39.1	-40.8	19.6	0.00e+00	0	39	0	0	49	4490
2026-01-23 22:01:41.31	76.44	17.77	-39.2	-40.9	19.5	0.00e+00	0	39	0	0	49	4531
2026-01-23 22:01:42.44	76.70	17.79	-39.3	-41.0	19.5	0.00e+00	0	39	0	0	49	4588
2026-01-23 22:01:43.30	76.90	17.81	-39.2	-40.9	19.5	0.00e+00	0	39	0	0	49	4541
2026-01-23 22:01:44.43	77.16	17.83	-39.1	-40.9	19.6	0.00e+00	0	39	0	0	49	4508
2026-01-23 22:01:45.29	77.36	17.84	-39.1	-40.8	19.7	0.00e+00	0	39	0	0	49	4488
2026-01-23 22:01:46.42	77.62	17.86	-39.1	-40.8	19.5	0.00e+00	0	39	0	0	49	4469
2026-01-23 22:01:47.28	77.82	17.88	-39.0	-40.7	19.8	0.00e+00	0	39	0	0	49	4422
2026-01-23 22:01:48.49	78.10	17.90	-39.0	-40.7	19.8	0.00e+00	0	39	0	0	49	4428
2026-01-23 22:01:49.35	78.30	17.91	-39.0	-40.7	19.8	0.00e+00	0	39	0	0	49	4397
2026-01-23 22:01:50.48	78.56	17.93	-39.1	-40.8	19.7	0.00e+00	0	39	0	0	49	4458
2026-01-23 22:01:51.35	78.76	17.94	-39.1	-40.8	19.7	0.00e+00	0	39	0	0	49	4461
2026-01-23 22:01:52.49	79.02	17.96	-39.1	-40.8	19.7	0.00e+00	0	39	0	0	49	4480
2026-01-23 22:01:53.35	79.22	17.97	-39.1	-40.8	19.7	0.00e+00	0	39	0	0	49	4472
2026-01-23 22:01:54.48	79.49	17.98	-39.1	-40.8	19.7	0.00e+00	0	39	0	0	49	4469
2026-01-23 22:01:55.34	79.69	17.99	-39.1	-40.8	19.7	0.00e+00	0	39	0	0	49	4492
2026-01-23 22:01:56.47	79.95	18.01	-39.1	-40.9	19.7	0.00e+00	0	39	0	0	49	4496
2026-01-23 22:01:57.33	80.15	18.02	-39.2	-40.9	19.5	0.00e+00	0	39	0	0	49	4535
2026-01-23 22:01:58.47	80.42	18.03	-39.1	-40.9	19.6	0.00e+00	0	39	0	0	49	4495
2026-01-23 22:01:59.32	80.61	18.04	-39.3	-41.0	19.5	0.00e+00	0	38	0	0	49	4583
2026-01-23 22:02:00.45	80.88	18.05	-39.1	-40.9	19.6	0.00e+00	0	39	0	0	49	4510
2026-01-23 22:02:01.31	81.08	18.06	-39.1	-40.8	19.7	0.00e+00	0	38	0	0	49	4469
2026-01-23 22:02:02.48	81.35	18.07	-39.0	-40.7	19.8	0.00e+00	0	39	0	0	49	4415
2026-01-23 22:02:03.33	81.55	18.08	-39.0	-40.7	19.7	0.00e+00	0	39	0	0	49	4422
2026-01-23 22:02:04.46	81.82	18.09	-39.0	-40.7	19.8	0.00e+00	0	39	0	0	49	4418
2026-01-23 22:02:05.32	82.02	18.10	-38.9	-40.7	19.8	0.00e+00	0	39	0	0	49	4408
2026-01-23 22:02:06.58	82.31	18.11	-39.0	-40.8	19.7	0.00e+00	0	39	0	0	49	4448
2026-01-23 22:02:07.37	82.50	18.11	-38.9	-40.7	19.8	0.00e+00	0	39	0	0	49	4400
2026-01-23 22:02:08.55	82.78	18.12	-38.9	-40.6	19.8	0.00e+00	0	39	0	0	49	4375
2026-01-23 22:02:09.40	82.98	18.13	-38.9	-40.6	19.9	0.00e+00	0	39	0	0	49	4381
2026-01-23 22:02:10.54	83.24	18.13	-38.9	-40.7	19.8	0.00e+00	0	39	0	0	49	4412
2026-01-23 22:02:11.39	83.44	18.14	-38.9	-40.6	19.9	0.00e+00	0	39	0	0	49	4380
2026-01-23 22:02:12.53	83.71	18.14	-39.0	-40.7	19.7	0.00e+00	0	39	0	0	49	4438
2026-01-23 22:02:13.38	83.91	18.15	-39.0	-40.7	19.7	0.00e+00	0	39	0	0	49	4436
2026-01-23 22:02:14.52	84.18	18.15	-39.0	-40.7	19.7	0.00e+00	0	39	0	0	49	4428
2026-01-23 22:02:15.37	84.38	18.16	-38.9	-40.7	19.8	0.00e+00	0	39	0	0	49	4420
2026-01-23 22:02:16.50	84.65	18.16	-38.9	-40.7	19.8	0.00e+00	0	39	0	0	49	4415
2026-01-23 22:02:17.36	84.85	18.16	-38.9	-40.7	19.8	0.00e+00	0	39	0	0	49	4413
2026-01-23 22:02:18.49	85.12	18.16	-38.9	-40.7	19.8	0.00e+00	0	39	0	0	49	4424
2026-01-23 22:02:19.34	85.32	18.17	-39.0	-40.7	19.7	0.00e+00	0	39	0	0	49	4423
2026-01-23 22:02:20.48	85.58	18.17	-39.0	-40.8	19.6	0.00e+00	0	39	0	0	49	4473
2026-01-23 22:02:21.33	85.78	18.17	-39.2	-40.9	19.5	0.00e+00	0	39	0	0	49	4543
2026-01-23 22:02:22.47	86.05	18.17	-39.1	-40.9	19.6	0.00e+00	0	39	0	0	49	4500
2026-01-23 22:02:23.33	86.26	18.17	-39.0	-40.8	19.7	0.00e+00	0	39	0	0	49	4471
2026-01-23 22:02:24.46	86.52	18.17	-39.1	-40.8	19.7	0.00e+00	0	39	0	0	49	4485
2026-01-23 22:02:25.35	86.73	18.17	-39.0	-40.8	19.7	0.00e+00	0	39	0	0	49	4470
2026-01-23 22:02:26.49	87.00	18.16	-39.1	-40.9	19.6	0.00e+00	0	39	0	0	49	4524
2026-01-23 22:02:27.34	87.20	18.16	-39.1	-40.9	19.6	0.00e+00	0	39	0	0	49	4533
2026-01-23 22:02:28.48	87.47	18.16	-39.2	-41.0	19.5	0.00e+00	0	39	0	0	49	4558
2026-01-23 22:02:29.33	87.67	18.16	-39.3	-41.1	19.5	0.00e+00	0	39	0	0	49	4611
2026-01-23 22:02:30.47	87.94	18.15	-39.2	-40.9	19.6	0.00e+00	0	39	0	0	49	4545
2026-01-23 22:02:31.32	88.14	18.15	-39.1	-40.9	19.6	0.00e+00	0	39	0	0	49	4495
2026-01-23 22:02:32.46	88.41	18.15	-39.1	-40.9	19.7	0.00e+00	0	39	0	0	49	4499
2026-01-23 22:02:33.31	88.61	18.14	-38.9	-40.6	19.8	0.00e+00	0	39	0	0	49	4391
2026-01-23 22:02:34.45	88.87	18.14	-39.0	-40.7	19.8	0.00e+00	0	39	0	0	49	4414
2026-01-23 22:02:35.30	89.07	18.13	-39.0	-40.8	19.7	0.00e+00	0	39	0	0	49	4445
2026-01-23 22:02:36.44	89.34	18.12	-39.1	-40.9	19.6	0.00e+00	0	39	0	0	49	4514
2026-01-23 22:02:37.29	89.54	18.12	-39.1	-40.9	19.6	0.00e+00	0	39	0	0	49	4516
2026-01-23 22:02:38.51	89.83	18.11	-39.2	-41.0	19.5	0.00e+00	0	39	0	0	49	4549
2026-01-23 22:02:39.36	90.03	18.10	-39.0	-40.7	19.7	0.00e+00	0	39	0	0	49	4434
2026-01-23 22:02:40.50	90.30	18.09	-39.0	-40.7	19.8	0.00e+00	0	39	0	0	49	4416
2026-01-23 22:02:41.35	90.50	18.09	-38.9	-40.7	19.8	0.00e+00	0	39	0	0	49	4394
2026-01-23 22:02:42.49	90.76	18.08	-38.9	-40.6	19.8	0.00e+00	0	39	0	0	49	4369
2026-01-23 22:02:43.34	90.96	18.07	-39.0	-40.7	19.7	0.00e+00	0	39	0	0	49	4441
2026-01-23 22:02:44.48	91.23	18.06	-39.2	-40.9	19.5	0.00e+00	0	39	0	0	49	4539
2026-01-23 22:02:45.33	91.43	18.05	-39.3	-41.0	19.5	0.00e+00	0	39	0	0	49	4595
2026-01-23 22:02:46.47	91.69	18.04	-39.3	-41.0	19.5	0.00e+00	0	39	0	0	49	4588
2026-01-23 22:02:47.32	91.89	18.03	-39.2	-40.9	19.6	0.00e+00	0	39	0	0	49	4533
2026-01-23 22:02:48.46	92.16	18.01	-39.1	-40.9	19.6	0.00e+00	0	39	0	0	49	4515
2026-01-23 22:02:49.31	92.36	18.00	-39.0	-40.8	19.6	0.00e+00	0	39	0	0	49	4447
2026-01-23 22:02:50.45	92.62	17.99	-38.9	-40.7	19.7	0.00e+00	0	39	0	0	49	4395
2026-01-23 22:02:51.30	92.82	17.98	-38.9	-40.6	19.7	0.00e+00	0	39	0	0	49	4384
2026-01-23 22:02:52.44	93.09	17.96	-38.9	-40.6	19.8	0.00e+00	0	39	0	0	49	4357
2026-01-23 22:02:53.29	93.29	17.95	-38.9	-40.6	19.8	0.00e+00	0	39	0	0	49	4344
2026-01-23 22:02:54.43	93.55	17.93	-38.9	-40.7	19.8	0.00e+00	0	39	0	0	49	4396
2026-01-23 22:02:55.28	93.75	17.92	-38.8	-40.5	19.9	0.00e+00	0	39	0	0	49	4340
2026-01-23 22:02:56.41	94.01	17.90	-38.8	-40.5	19.9	0.00e+00	0	39	0	0	49	4334
2026-01-23 22:02:57.27	94.21	17.89	-38.9	-40.6	19.8	0.00e+00	0	39	0	0	49	4388
2026-01-23 22:02:58.40	94.47	17.87	-38.9	-40.6	19.8	0.00e+00	0	39	0	0	49	4352
2026-01-23 22:02:59.26	94.67	17.86	-38.9	-40.6	19.7	0.00e+00	0	39	0	0	49	4354
2026-01-23 22:03:00.60	94.98	17.83	-39.0	-40.7	19.7	0.00e+00	0	39	0	0	49	4403
2026-01-23 22:03:01.31	95.14	17.82	-38.9	-40.6	19.8	0.00e+00	0	39	0	0	49	4367
2026-01-23 22:03:02.59	95.44	17.80	-38.9	-40.6	19.8	0.00e+00	0	39	0	0	49	4375
2026-01-23 22:03:03.32	95.61	17.78	-38.9	-40.5	19.9	0.00e+00	0	39	0	0	49	4339
2026-01-23 22:03:04.59	95.90	17.76	-38.8	-40.4	20.0	0.00e+00	0	39	0	0	49	4288
2026-01-23 22:03:05.31	96.06	17.75	-38.9	-40.6	19.8	0.00e+00	0	39	0	0	49	4366
2026-01-23 22:03:06.59	96.36	17.72	-38.9	-40.6	19.8	0.00e+00	0	39	0	0	49	4344
2026-01-23 22:03:07.30	96.52	17.71	-38.8	-40.5	19.9	0.00e+00	0	39	0	0	49	4321
2026-01-23 22:03:08.58	96.81	17.68	-38.9	-40.6	19.8	0.00e+00	0	39	0	0	49	4342
2026-01-23 22:03:09.30	96.98	17.67	-38.8	-40.5	19.8	0.00e+00	0	39	0	0	49	4311
2026-01-23 22:03:10.58	97.27	17.64	-38.9	-40.6	19.8	0.00e+00	0	39	0	0	49	4354
2026-01-23 22:03:11.29	97.43	17.62	-38.9	-40.6	19.8	0.00e+00	0	39	0	0	49	4371
2026-01-23 22:03:12.57	97.72	17.59	-38.9	-40.6	19.8	0.00e+00	0	39	0	0	49	4374
2026-01-23 22:03:13.30	97.89	17.58	-38.9	-40.6	19.8	0.00e+00	0	39	0	0	49	4362
2026-01-23 22:03:14.58	98.18	17.55	-38.9	-40.6	19.8	0.00e+00	0	39	0	0	49	4391
2026-01-23 22:03:15.29	98.34	17.53	-39.0	-40.7	19.8	0.00e+00	0	39	0	0	49	4399
2026-01-23 22:03:16.56	98.63	17.50	-39.0	-40.7	19.7	0.00e+00	0	39	0	0	49	4424
2026-01-23 22:03:17.29	98.79	17.48	-39.0	-40.7	19.8	0.00e+00	0	39	0	0	49	4429
2026-01-23 22:03:18.57	99.08	17.45	-39.0	-40.7	19.8	0.00e+00	0	39	0	0	49	4402
2026-01-23 22:03:19.29	99.24	17.43	-39.0	-40.7	19.8	0.00e+00	0	39	0	0	49	4421
2026-01-23 22:03:20.57	99.53	17.40	-39.0	-40.7	19.8	0.00e+00	0	39	0	0	49	4413
2026-01-23 22:03:21.28	99.69	17.38	-39.0	-40.7	19.8	0.00e+00	0	39	0	0	49	4434
2026-01-23 22:03:22.59	99.98	17.35	-38.9	-40.6	19.9	0.00e+00	0	39	0	0	49	4366
2026-01-23 22:03:23.46	100.18	17.33	-38.9	-40.6	19.9	0.00e+00	0	39	0	0	49	4377
2026-01-23 22:03:24.60	100.43	17.30	-38.9	-40.6	19.9	0.00e+00	0	39	0	0	49	4376
2026-01-23 22:03:25.66	100.67	17.27	-38.8	-40.5	20.0	0.00e+00	0	39	0	0	49	4315
2026-01-23 22:03:26.53	100.86	17.24	-38.8	-40.5	20.0	0.00e+00	0	39	0	0	49	4311
2026-01-23 22:03:27.67	101.12	17.21	-38.8	-40.5	20.0	0.00e+00	0	39	0	0	49	4312
2026-01-23 22:03:28.52	101.30	17.19	-38.8	-40.5	20.0	0.00e+00	0	39	0	0	49	4330
2026-01-23 22:03:29.65	101.55	17.15	-38.9	-40.5	20.0	0.00e+00	0	39	0	0	49	4337
2026-01-23 22:03:30.51	101.74	17.13	-38.8	-40.5	20.0	0.00e+00	0	39	0	0	49	4317
2026-01-23 22:03:31.65	102.00	17.09	-38.7	-40.4	20.1	0.00e+00	0	39	0	0	49	4275
2026-01-23 22:03:32.50	102.18	17.07	-38.8	-40.4	20.1	0.00e+00	0	39	0	0	49	4282
2026-01-23 22:03:33.70	102.45	17.03	-38.8	-40.5	20.0	0.00e+00	0	39	0	0	49	4313
2026-01-23 22:03:34.56	102.64	17.00	-39.0	-40.7	19.8	0.00e+00	0	39	0	0	49	4401
2026-01-23 22:03:35.70	102.88	16.97	-38.9	-40.6	19.9	0.00e+00	0	39	0	0	49	4378
2026-01-23 22:03:36.55	103.07	16.94	-39.0	-40.7	19.9	0.00e+00	0	39	0	0	49	4400
2026-01-23 22:03:37.69	103.32	16.91	-39.0	-40.7	19.8	0.00e+00	0	39	0	0	49	4402
2026-01-23 22:03:38.54	103.50	16.88	-38.9	-40.6	19.9	0.00e+00	0	39	0	0	49	4386
2026-01-23 22:03:39.68	103.75	16.84	-38.9	-40.6	19.9	0.00e+00	0	39	0	0	49	4343
2026-01-23 22:03:40.53	103.93	16.81	-38.9	-40.6	19.9	0.00e+00	0	39	0	0	49	4361
2026-01-23 22:03:41.67	104.18	16.77	-38.9	-40.6	19.9	0.00e+00	0	39	0	0	49	4374
2026-01-23 22:03:42.52	104.36	16.75	-38.9	-40.6	19.9	0.00e+00	0	39	0	0	49	4381
2026-01-23 22:03:43.66	104.61	16.71	-38.9	-40.6	19.9	0.00e+00	0	39	0	0	49	4349
2026-01-23 22:03:44.80	104.85	16.67	-38.9	-40.6	19.9	0.00e+00	0	39	0	0	49	4370
2026-01-23 22:03:45.83	105.07	16.63	-38.9	-40.7	19.8	0.00e+00	0	39	0	0	49	4397
2026-01-23 22:03:46.82	105.29	16.60	-38.9	-40.6	19.9	0.00e+00	0	39	0	0	49	4376
2026-01-23 22:03:47.82	105.50	16.56	-39.0	-40.7	19.8	0.00e+00	0	39	0	0	49	4406
2026-01-23 22:03:48.81	105.71	16.53	-39.0	-40.7	19.8	0.00e+00	0	39	0	0	49	4418
2026-01-23 22:03:49.81	105.92	16.49	-38.9	-40.6	19.9	0.00e+00	0	39	0	0	49	4387
2026-01-23 22:03:50.81	106.13	16.45	-38.9	-40.6	19.9	0.00e+00	0	39	0	0	49	4387
2026-01-23 22:03:51.80	106.34	16.42	-38.9	-40.6	19.9	0.00e+00	0	39	0	0	49	4391
2026-01-23 22:03:52.79	106.55	16.38	-39.0	-40.7	19.8	0.00e+00	0	39	0	0	49	4412
2026-01-23 22:03:53.79	106.76	16.34	-39.1	-40.8	19.7	0.00e+00	0	39	0	0	49	4456
2026-01-23 22:03:54.78	106.97	16.31	-39.1	-40.8	19.7	0.00e+00	0	39	0	0	49	4455
2026-01-23 22:03:55.78	107.18	16.27	-39.0	-40.7	19.8	0.00e+00	0	39	0	0	49	4408
2026-01-23 22:03:56.87	107.41	16.23	-39.1	-40.8	19.7	0.00e+00	0	39	0	0	49	4482
2026-01-23 22:03:57.75	107.59	16.19	-39.1	-40.9	19.6	0.00e+00	0	39	0	0	49	4519
2026-01-23 22:03:58.89	107.82	16.15	-39.2	-41.0	19.5	0.00e+00	0	39	0	0	49	4575
2026-01-23 22:03:59.74	108.00	16.12	-39.4	-41.2	19.4	0.00e+00	0	39	0	0	49	4673
2026-01-23 22:04:01.10	108.28	16.06	-39.4	-41.2	19.3	0.00e+00	0	39	0	0	49	4690
2026-01-23 22:04:01.81	108.43	16.03	-39.4	-41.2	19.3	0.00e+00	0	39	0	0	49	4672
2026-01-23 22:04:03.09	108.69	15.98	-39.4	-41.2	19.3	0.00e+00	0	39	0	0	49	4677
2026-01-23 22:04:03.81	108.84	15.95	-39.5	-41.2	19.3	0.00e+00	0	39	0	0	49	4705
2026-01-23 22:04:05.09	109.10	15.90	-39.5	-41.2	19.3	0.00e+00	0	39	0	0	49	4693
2026-01-23 22:04:05.80	109.24	15.87	-39.4	-41.2	19.4	0.00e+00	0	39	0	0	49	4659
2026-01-23 22:04:07.08	109.50	15.82	-39.3	-41.0	19.5	0.00e+00	0	39	0	0	49	4573
2026-01-23 22:04:07.81	109.65	15.79	-39.3	-41.0	19.5	0.00e+00	0	39	0	0	49	4573
2026-01-23 22:04:09.09	109.91	15.74	-39.4	-41.2	19.3	0.00e+00	0	39	0	0	49	4663
2026-01-23 22:04:09.81	110.06	15.71	-39.3	-41.1	19.4	0.00e+00	0	39	0	0	49	4618
2026-01-23 22:04:11.10	110.32	15.65	-39.6	-41.4	19.1	0.00e+00	0	39	0	0	49	4764
2026-01-23 22:04:11.81	110.46	15.62	-39.6	-41.3	19.1	0.00e+00	0	39	0	0	49	4756
2026-01-23 22:04:13.13	110.72	15.57	-39.7	-41.6	19.0	0.00e+00	0	39	0	0	50	4607
2026-01-23 22:04:14.13	110.92	15.52	-39.7	-41.5	19.1	0.00e+00	0	39	0	0	50	4575
2026-01-23 22:04:15.12	111.12	15.48	-39.7	-41.5	19.0	0.00e+00	0	39	0	0	50	4589
2026-01-23 22:04:16.12	111.32	15.44	-39.7	-41.5	19.1	0.00e+00	0	39	0	0	50	4552
2026-01-23 22:04:17.11	111.51	15.39	-39.7	-41.5	19.0	0.00e+00	0	39	0	0	50	4551
2026-01-23 22:04:18.52	111.79	15.33	-39.5	-41.3	19.2	0.00e+00	0	39	0	0	50	4451
2026-01-23 22:04:19.23	111.93	15.30	-39.4	-41.2	19.2	0.00e+00	0	39	0	0	50	4425
2026-01-23 22:04:20.51	112.18	15.24	-39.4	-41.1	19.3	0.00e+00	0	39	0	0	50	4391
2026-01-23 22:04:21.22	112.32	15.21	-39.4	-41.1	19.3	0.00e+00	0	39	0	0	50	4383
2026-01-23 22:04:22.50	112.57	15.15	-39.4	-41.1	19.3	0.00e+00	0	39	0	0	50	4383
2026-01-23 22:04:23.22	112.71	15.12	-39.4	-41.2	19.2	0.00e+00	0	39	0	0	50	4421
2026-01-23 22:04:24.50	112.96	15.06	-39.5	-41.3	19.2	0.00e+00	0	39	0	0	50	4471
2026-01-23 22:04:25.21	113.09	15.03	-39.6	-41.4	19.1	0.00e+00	0	39	0	0	50	4511
2026-01-23 22:04:26.54	113.35	14.97	-39.7	-41.5	19.0	0.00e+00	0	39	0	0	50	4566
2026-01-23 22:04:27.25	113.48	14.94	-39.6	-41.4	19.1	0.00e+00	0	39	0	0	50	4520
2026-01-23 22:04:28.59	113.74	14.87	-39.7	-41.5	19.0	0.00e+00	0	39	0	0	50	4547
2026-01-23 22:04:29.30	113.88	14.84	-39.8	-41.6	18.9	0.00e+00	0	39	0	0	50	4615
2026-01-23 22:04:30.63	114.13	14.78	-39.8	-41.6	18.9	0.00e+00	0	39	0	0	50	4599
2026-01-23 22:04:31.34	114.26	14.75	-39.7	-41.5	19.0	0.00e+00	0	39	0	0	50	4580
2026-01-23 22:04:32.62	114.50	14.69	-39.8	-41.6	18.9	0.00e+00	0	39	0	0	50	4610
2026-01-23 22:04:33.33	114.64	14.65	-39.7	-41.4	19.0	0.00e+00	0	39	0	0	50	4543
2026-01-23 22:04:34.73	114.90	14.59	-39.5	-41.3	19.2	0.00e+00	0	39	0	0	50	4447
2026-01-23 22:04:35.44	115.03	14.55	-39.4	-41.2	19.3	0.00e+00	0	39	0	0	50	4413
2026-01-23 22:04:36.79	115.29	14.49	-39.4	-41.1	19.3	0.00e+00	0	39	0	0	50	4385
2026-01-23 22:04:37.50	115.42	14.45	-39.3	-41.0	19.4	0.00e+00	0	39	0	0	50	4340
2026-01-23 22:04:38.78	115.65	14.39	-39.5	-41.3	19.2	0.00e+00	0	39	0	0	50	4446
2026-01-23 22:04:39.52	115.79	14.35	-39.6	-41.3	19.1	0.00e+00	0	39	0	0	50	4485
2026-01-23 22:04:40.80	116.03	14.29	-39.6	-41.4	19.1	0.00e+00	0	39	0	0	50	4506
2026-01-23 22:04:41.51	116.16	14.26	-39.6	-41.4	19.2	0.00e+00	0	39	0	0	50	4495
2026-01-23 22:04:42.79	116.39	14.20	-39.7	-41.5	19.0	0.00e+00	0	39	0	0	50	4555
2026-01-23 22:04:43.50	116.52	14.16	-39.7	-41.5	19.0	0.00e+00	0	39	0	0	50	4569
2026-01-23 22:04:44.78	116.75	14.10	-39.8	-41.6	18.9	0.00e+00	0	39	0	0	50	4628
2026-01-23 22:04:45.49	116.88	14.06	-39.8	-41.6	18.9	0.00e+00	0	39	0	0	50	4639
2026-01-23 22:04:46.77	117.11	14.00	-39.8	-41.6	18.8	0.00e+00	0	39	0	0	50	4648
2026-01-23 22:04:47.48	117.24	13.96	-39.9	-41.7	18.8	0.00e+00	0	39	0	0	50	4673
2026-01-23 22:04:48.76	117.47	13.90	-39.6	-41.4	19.0	0.00e+00	0	39	0	0	50	4534
2026-01-23 22:04:49.47	117.60	13.86	-39.6	-41.4	19.1	0.00e+00	0	39	0	0	50	4499
2026-01-23 22:04:50.75	117.83	13.80	-39.6	-41.3	19.1	0.00e+00	0	39	0	0	50	4493
2026-01-23 22:04:51.70	118.00	13.75	-39.5	-41.3	19.1	0.00e+00	0	39	0	0	50	4475
2026-01-23 22:04:52.69	118.17	13.70	-39.6	-41.4	19.1	0.00e+00	0	39	0	0	50	4512
2026-01-23 22:04:53.69	118.35	13.65	-39.6	-41.4	19.1	0.00e+00	0	39	0	0	50	4503
2026-01-23 22:04:54.68	118.52	13.60	-39.5	-41.3	19.2	0.00e+00	0	39	0	0	50	4442
2026-01-23 22:04:55.68	118.70	13.55	-39.6	-41.4	19.1	0.00e+00	0	39	0	0	50	4516
2026-01-23 22:04:56.67	118.87	13.50	-39.7	-41.5	19.0	0.00e+00	0	39	0	0	50	4557
2026-01-23 22:04:57.67	119.04	13.45	-39.7	-41.5	19.0	0.00e+00	0	39	0	0	50	4578
2026-01-23 22:04:58.74	119.23	13.39	-39.9	-41.7	18.8	0.00e+00	0	39	0	0	50	4670
2026-01-23 22:04:59.63	119.38	13.35	-39.8	-41.6	19.0	0.00e+00	0	39	0	0	50	4603
2026-01-23 22:05:00.77	119.58	13.29	-39.9	-41.7	18.9	0.00e+00	0	39	0	0	50	4659
2026-01-23 22:05:01.62	119.73	13.24	-39.9	-41.7	18.7	0.00e+00	0	39	0	0	50	4701
2026-01-23 22:05:02.76	119.92	13.18	-39.8	-41.6	18.8	0.00e+00	0	39	0	0	50	4642
2026-01-23 22:05:03.61	120.07	13.14	-39.8	-41.6	18.9	0.00e+00	0	39	0	0	50	4619
2026-01-23 22:05:04.75	120.26	13.08	-39.8	-41.6	18.9	0.00e+00	0	39	0	0	50	4625
2026-01-23 22:05:05.60	120.40	13.04	-39.8	-41.6	18.9	0.00e+00	0	39	0	0	50	4626
2026-01-23 22:05:06.73	120.59	12.98	-39.8	-41.6	18.8	0.00e+00	0	39	0	0	50	4645
2026-01-23 22:05:07.58	120.74	12.93	-39.8	-41.6	18.9	0.00e+00	0	39	0	0	50	4628
2026-01-23 22:05:08.72	120.93	12.87	-39.7	-41.5	19.0	0.00e+00	0	39	0	0	50	4575
2026-01-23 22:05:09.58	121.07	12.83	-39.7	-41.5	19.0	0.00e+00	0	39	0	0	50	4564
2026-01-23 22:05:10.71	121.26	12.77	-39.6	-41.4	19.1	0.00e+00	0	39	0	0	50	4496
2026-01-23 22:05:11.57	121.40	12.72	-39.5	-41.3	19.1	0.00e+00	0	39	0	0	50	4479
2026-01-23 22:05:12.70	121.59	12.66	-39.6	-41.4	19.1	0.00e+00	0	39	0	0	50	4512
2026-01-23 22:05:13.55	121.73	12.62	-39.7	-41.5	19.0	0.00e+00	0	39	0	0	50	4560
2026-01-23 22:05:14.69	121.92	12.56	-39.7	-41.5	19.0	0.00e+00	0	39	0	0	50	4565
2026-01-23 22:05:15.54	122.06	12.51	-39.7	-41.6	18.9	0.00e+00	0	39	0	0	50	4600
2026-01-23 22:05:16.68	122.24	12.45	-39.8	-41.6	18.8	0.00e+00	0	39	0	0	50	4651
2026-01-23 22:05:17.54	122.38	12.40	-39.8	-41.6	18.9	0.00e+00	0	39	0	0	50	4632
2026-01-23 22:05:18.67	122.57	12.34	-39.8	-41.6	18.8	0.00e+00	0	39	0	0	50	4649
2026-01-23 22:05:19.53	122.71	12.30	-39.8	-41.7	18.8	0.00e+00	0	39	0	0	50	4663
2026-01-23 22:05:20.67	122.89	12.24	-39.8	-41.7	18.8	0.00e+00	0	39	0	0	50	4659
2026-01-23 22:05:21.77	123.06	12.18	-39.9	-41.7	18.8	0.00e+00	0	39	0	0	50	4691
2026-01-23 22:05:22.80	123.23	12.12	-39.9	-41.8	18.7	0.00e+00	0	39	0	0	50	4724
2026-01-23 22:05:23.97	123.42	12.06	-39.9	-41.7	18.7	0.00e+00	0	39	0	0	50	4698
2026-01-23 22:05:24.82	123.55	12.01	-39.9	-41.8	18.7	0.00e+00	0	39	0	0	50	4721
2026-01-23 22:05:25.96	123.73	11.95	-40.0	-41.8	18.7	0.00e+00	0	39	0	0	50	4736
2026-01-23 22:05:26.82	123.87	11.90	-39.8	-41.6	18.9	0.00e+00	0	39	0	0	50	4635
2026-01-23 22:05:27.95	124.04	11.84	-39.7	-41.5	19.0	0.00e+00	0	39	0	0	50	4556
2026-01-23 22:05:28.80	124.18	11.80	-39.7	-41.5	19.0	0.00e+00	0	39	0	0	50	4567
2026-01-23 22:05:29.94	124.35	11.73	-39.8	-41.6	18.9	0.00e+00	0	39	0	0	50	4627
2026-01-23 22:05:30.79	124.48	11.69	-39.8	-41.6	18.8	0.00e+00	0	39	0	0	50	4636
2026-01-23 22:05:31.93	124.66	11.62	-39.8	-41.6	18.9	0.00e+00	0	39	0	0	50	4611
2026-01-23 22:05:32.78	124.79	11.58	-39.8	-41.6	18.8	0.00e+00	0	39	0	0	50	4627
2026-01-23 22:05:33.94	124.97	11.51	-39.8	-41.6	18.9	0.00e+00	0	39	0	0	50	4617
2026-01-23 22:05:34.79	125.10	11.47	-39.8	-41.6	18.8	0.00e+00	0	39	0	0	50	4647
2026-01-23 22:05:35.99	125.28	11.40	-39.8	-41.6	18.8	0.00e+00	0	39	0	0	50	4633
2026-01-23 22:05:36.84	125.41	11.36	-39.8	-41.6	18.8	0.00e+00	0	39	0	0	50	4638
2026-01-23 22:05:37.98	125.58	11.29	-39.8	-41.6	18.8	0.00e+00	0	39	0	0	50	4647
2026-01-23 22:05:38.83	125.71	11.25	-39.9	-41.7	18.7	0.00e+00	0	39	0	0	50	4704
2026-01-23 22:05:40.09	125.90	11.18	-40.1	-41.9	18.5	0.00e+00	0	39	0	0	50	4809
2026-01-23 22:05:40.90	126.02	11.13	-40.1	-42.0	18.5	0.00e+00	0	39	0	0	50	4821
2026-01-23 22:05:42.11	126.20	11.07	-40.1	-42.0	18.5	0.00e+00	0	39	0	0	50	4833
2026-01-23 22:05:42.97	126.33	11.02	-40.1	-42.0	18.5	0.00e+00	0	39	0	0	50	4831
2026-01-23 22:05:44.10	126.50	10.96	-40.2	-42.1	18.4	0.00e+00	0	39	0	0	51	4610
2026-01-23 22:05:44.96	126.62	10.91	-40.3	-42.2	18.2	0.00e+00	0	39	0	0	51	4682
2026-01-23 22:05:46.09	126.79	10.85	-40.2	-42.1	18.3	0.00e+00	0	39	0	0	51	4642
2026-01-23 22:05:46.95	126.92	10.80	-40.3	-42.1	18.3	0.00e+00	0	39	0	0	51	4648
2026-01-23 22:05:48.08	127.08	10.73	-40.4	-42.3	18.1	0.00e+00	0	39	0	0	51	4729
2026-01-23 22:05:49.06	127.22	10.68	-40.4	-42.4	18.0	0.00e+00	0	39	0	0	51	4771
2026-01-23 22:05:50.06	127.37	10.62	-40.5	-42.4	18.0	0.00e+00	0	39	0	0	51	4783
2026-01-23 22:05:51.05	127.51	10.57	-40.5	-42.4	18.0	0.00e+00	0	39	0	0	51	4792
2026-01-23 22:05:52.04	127.65	10.51	-40.5	-42.5	17.9	0.00e+00	0	39	0	0	51	4853
2026-01-23 22:05:53.04	127.79	10.46	-40.6	-42.6	17.8	0.00e+00	0	39	0	0	51	4910
2026-01-23 22:05:54.04	127.94	10.40	-40.5	-42.5	17.8	0.00e+00	0	39	0	0	52	4592
2026-01-23 22:05:55.03	128.08	10.35	-40.5	-42.5	17.8	0.00e+00	0	39	0	0	52	4561
2026-01-23 22:05:56.03	128.22	10.29	-40.6	-42.6	17.7	0.00e+00	0	39	0	0	52	4622
2026-01-23 22:05:57.02	128.36	10.24	-40.7	-42.8	17.5	0.00e+00	0	39	0	0	52	4715
2026-01-23 22:05:58.02	128.50	10.18	-40.8	-42.9	17.4	0.00e+00	0	39	0	0	52	4773
2026-01-23 22:05:59.02	128.64	10.13	-40.7	-42.8	17.4	0.00e+00	0	39	0	0	52	4747
2026-01-23 22:06:00.01	128.78	10.07	-40.7	-42.7	17.5	0.00e+00	0	39	0	0	52	4687
2026-01-23 22:06:01.01	128.92	10.01	-40.8	-42.8	17.4	0.00e+00	0	39	0	0	52	4757
2026-01-23 22:06:02.00	129.05	9.96	-40.7	-42.7	17.5	0.00e+00	0	39	0	0	52	4701
2026-01-23 22:06:03.00	129.19	9.90	-40.6	-42.6	17.6	0.00e+00	0	39	0	0	52	4645
2026-01-23 22:06:03.99	129.33	9.85	-40.6	-42.6	17.6	0.00e+00	0	39	0	0	52	4620
2026-01-23 22:06:04.98	129.46	9.79	-40.6	-42.5	17.7	0.00e+00	0	39	0	0	52	4597
2026-01-23 22:06:05.98	129.60	9.74	-40.7	-42.7	17.6	0.00e+00	0	39	0	0	52	4659
2026-01-23 22:06:06.97	129.73	9.68	-40.6	-42.7	17.6	0.00e+00	0	39	0	0	52	4655
2026-01-23 22:06:07.97	129.87	9.63	-40.7	-42.7	17.5	0.00e+00	0	39	0	0	52	4691
2026-01-23 22:06:08.96	130.00	9.57	-40.6	-42.5	17.6	0.00e+00	0	39	0	0	52	4598
2026-01-23 22:06:09.96	130.14	9.51	-40.6	-42.5	17.6	0.00e+00	0	39	0	0	52	4592
2026-01-23 22:06:10.95	130.27	9.46	-40.6	-42.5	17.6	0.00e+00	0	39	0	0	52	4582
2026-01-23 22:06:11.95	130.40	9.40	-40.6	-42.6	17.5	0.00e+00	0	40	0	0	52	4620
2026-01-23 22:06:12.94	130.53	9.35	-40.6	-42.6	17.5	0.00e+00	0	39	0	0	52	4630
2026-01-23 22:06:13.94	130.67	9.29	-40.6	-42.6	17.5	0.00e+00	0	39	0	0	52	4641
2026-01-23 22:06:14.99	130.81	9.23	-40.7	-42.7	17.5	0.00e+00	0	39	0	0	52	4684
2026-01-23 22:06:15.86	130.92	9.18	-40.8	-42.8	17.4	0.00e+00	0	39	0	0	52	4727
2026-01-23 22:06:17.00	131.07	9.12	-40.8	-42.8	17.3	0.00e+00	0	39	0	0	52	4755
2026-01-23 22:06:17.85	131.18	9.07	-40.8	-42.9	17.3	0.00e+00	0	39	0	0	52	4768
2026-01-23 22:06:18.99	131.33	9.01	-40.9	-42.9	17.2	0.00e+00	0	39	0	0	52	4814
2026-01-23 22:06:19.85	131.44	8.96	-47.6	-54.9	6.2	2.93e-02	0	39	0	0	65	9009
2026-01-23 22:06:20.98	131.59	8.90	-48.8	-62.0	3.8	1.49e+00	0	39	104	0	68	17226
2026-01-23 22:06:21.83	131.70	8.85	-49.2	-62.2	3.8	1.49e+00	0	39	104	0	69	16507
2026-01-23 22:06:22.97	131.84	8.79	-49.2	-62.2	3.8	1.49e+00	0	39	104	0	69	16666
2026-01-23 22:06:23.82	131.95	8.74	-49.3	-62.3	3.8	1.49e+00	0	39	104	0	69	16725
2026-01-23 22:06:24.96	132.09	8.67	-49.1	-62.2	3.8	1.49e+00	0	39	104	0	69	16691
2026-01-23 22:06:25.81	132.20	8.63	-49.3	-62.3	3.8	1.49e+00	0	39	104	0	69	16696
2026-01-23 22:06:26.94	132.34	8.56	-49.2	-62.2	3.8	1.49e+00	0	39	104	0	69	16688
2026-01-23 22:06:27.79	132.45	8.52	-49.2	-62.2	3.8	1.49e+00	0	39	104	0	69	16619
2026-01-23 22:06:28.93	132.59	8.45	-49.3	-62.2	3.8	1.49e+00	0	39	104	0	69	16600
2026-01-23 22:06:29.78	132.70	8.40	-49.3	-62.2	3.8	1.49e+00	0	39	104	0	69	16664
2026-01-23 22:06:30.92	132.84	8.34	-49.1	-62.2	3.8	1.49e+00	0	40	104	0	69	16589
2026-01-23 22:06:31.77	132.95	8.29	-49.3	-62.2	3.8	1.49e+00	0	39	104	0	69	16626
2026-01-23 22:06:32.90	133.09	8.23	-49.0	-62.2	3.8	1.49e+00	0	39	104	0	69	16619
2026-01-23 22:06:33.76	133.19	8.18	-49.0	-62.3	3.8	1.49e+00	0	39	104	0	69	16718
2026-01-23 22:06:34.89	133.33	8.12	-49.1	-62.2	3.8	1.49e+00	0	39	104	0	69	16658
2026-01-23 22:06:35.74	133.44	8.07	-48.9	-62.2	3.8	1.49e+00	0	40	104	0	69	16655
2026-01-23 22:06:36.88	133.57	8.01	-48.9	-62.2	3.8	1.49e+00	0	39	104	0	69	16646
2026-01-23 22:06:37.73	133.68	7.96	-48.9	-62.3	3.8	1.49e+00	0	39	104	0	69	16696
2026-01-23 22:06:38.86	133.81	7.90	-49.0	-62.2	3.8	1.49e+00	0	39	104	0	69	16675
2026-01-23 22:06:39.72	133.92	7.85	-49.1	-62.2	3.8	1.49e+00	0	39	104	0	69	16652
2026-01-23 22:06:40.85	134.05	7.78	-49.1	-62.2	3.8	1.49e+00	0	40	104	0	69	16561
2026-01-23 22:06:41.70	134.15	7.74	-49.1	-62.2	3.8	1.49e+00	0	39	104	0	69	16519
2026-01-23 22:06:42.84	134.29	7.67	-49.1	-62.2	3.8	1.49e+00	0	39	104	0	69	16560
2026-01-23 22:06:43.69	134.39	7.63	-49.1	-62.2	3.8	1.49e+00	0	39	104	0	69	16513
2026-01-23 22:06:44.83	134.53	7.56	-49.0	-62.1	3.8	1.49e+00	0	39	104	0	69	16491
2026-01-23 22:06:45.68	134.63	7.51	-49.0	-62.1	3.8	1.49e+00	0	39	104	0	69	16486
2026-01-23 22:06:46.81	134.76	7.45	-49.0	-62.1	3.8	1.49e+00	0	39	104	0	69	16498
2026-01-23 22:06:47.67	134.86	7.40	-49.0	-62.1	3.8	1.49e+00	0	39	104	0	69	16499
2026-01-23 22:06:48.80	134.99	7.34	-49.0	-62.1	3.8	1.49e+00	0	39	104	0	69	16478
2026-01-23 22:06:49.65	135.09	7.29	-49.0	-62.2	3.8	1.49e+00	0	39	104	0	69	16516
2026-01-23 22:06:50.79	135.22	7.23	-49.0	-62.1	3.8	1.49e+00	0	39	104	0	69	16437
2026-01-23 22:06:51.64	135.32	7.18	-49.0	-62.1	3.8	1.49e+00	0	40	104	0	69	16497
2026-01-23 22:06:52.78	135.45	7.12	-49.0	-62.1	3.8	1.49e+00	0	40	104	0	69	16444
2026-01-23 22:06:53.63	135.55	7.07	-49.0	-62.1	3.8	1.49e+00	0	40	104	0	69	16484
2026-01-23 22:06:54.76	135.67	7.01	-49.0	-62.1	3.8	1.49e+00	0	40	104	0	69	16434
2026-01-23 22:06:55.62	135.77	6.96	-49.0	-62.1	3.8	1.49e+00	0	39	104	0	69	16383
2026-01-23 22:06:56.75	135.90	6.90	-49.0	-62.1	3.8	1.49e+00	0	40	104	0	69	16480
2026-01-23 22:06:57.60	136.00	6.85	-49.0	-62.1	3.8	1.49e+00	0	39	104	0	69	16444
2026-01-23 22:06:58.74	136.12	6.79	-49.0	-62.1	3.8	1.49e+00	0	40	104	0	69	16433
2026-01-23 22:06:59.59	136.22	6.74	-49.0	-62.1	3.8	1.49e+00	0	39	104	0	69	16401
2026-01-23 22:07:00.73	136.35	6.68	-49.0	-62.1	3.8	1.49e+00	0	39	104	0	69	16435
2026-01-23 22:07:01.58	136.44	6.63	-49.0	-62.1	3.8	1.49e+00	0	39	104	0	69	16429
2026-01-23 22:07:02.71	136.56	6.57	-49.0	-62.1	3.8	1.49e+00	0	40	104	0	69	16395
2026-01-23 22:07:03.56	136.66	6.52	-49.0	-62.1	3.8	1.49e+00	0	40	104	0	69	16417
2026-01-23 22:07:04.70	136.78	6.46	-49.0	-62.1	3.8	1.49e+00	0	39	104	0	69	16419
2026-01-23 22:07:05.55	136.88	6.41	-49.0	-62.1	3.8	1.49e+00	0	39	104	0	69	16437
2026-01-23 22:07:06.69	137.00	6.35	-49.0	-62.2	3.8	1.49e+00	0	40	104	0	69	16506
2026-01-23 22:07:07.54	137.09	6.30	-49.0	-62.1	3.8	1.49e+00	0	40	104	0	69	16413
2026-01-23 22:07:08.67	137.22	6.24	-49.0	-62.1	3.8	1.49e+00	0	39	104	0	69	16396
2026-01-23 22:07:09.52	137.31	6.19	-49.0	-62.1	3.8	1.49e+00	0	40	104	0	69	16408
2026-01-23 22:07:10.66	137.43	6.13	-49.0	-62.1	3.8	1.49e+00	0	39	104	0	69	16412
2026-01-23 22:07:11.51	137.52	6.08	-49.0	-62.1	3.8	1.49e+00	0	40	104	0	69	16408
2026-01-23 22:07:12.65	137.64	6.02	-49.0	-62.1	3.8	1.49e+00	0	40	104	0	69	16424
2026-01-23 22:07:13.50	137.73	5.97	-49.0	-62.1	3.8	1.49e+00	0	39	104	0	69	16344
2026-01-23 22:07:14.63	137.85	5.91	-49.0	-62.1	3.8	1.49e+00	0	40	104	0	69	16404
2026-01-23 22:07:15.49	137.94	5.86	-49.0	-62.1	3.8	1.49e+00	0	40	104	0	69	16388
2026-01-23 22:07:16.62	138.06	5.80	-49.0	-62.1	3.8	1.49e+00	0	40	104	0	69	16407
2026-01-23 22:07:17.47	138.15	5.76	-49.0	-62.0	3.8	1.49e+00	0	40	104	0	69	16313
2026-01-23 22:07:18.61	138.27	5.69	-49.0	-62.1	3.8	1.49e+00	0	40	104	0	69	16391
2026-01-23 22:07:19.46	138.36	5.65	-49.0	-62.1	3.8	1.49e+00	0	40	104	0	69	16406
2026-01-23 22:07:20.60	138.48	5.58	-49.0	-62.0	3.8	1.49e+00	0	39	104	0	69	16294
2026-01-23 22:07:21.45	138.56	5.54	-49.0	-62.1	3.8	1.49e+00	0	40	104	0	69	16410
2026-01-23 22:07:22.58	138.68	5.48	-49.0	-62.1	3.8	1.49e+00	0	40	104	0	69	16418
2026-01-23 22:07:23.43	138.77	5.43	-49.0	-62.1	3.8	1.49e+00	0	40	104	0	69	16362
2026-01-23 22:07:24.57	138.88	5.37	-49.0	-62.1	3.8	1.49e+00	0	40	104	0	69	16372
2026-01-23 22:07:25.42	138.97	5.32	-49.0	-62.1	3.8	1.49e+00	0	40	104	0	69	16352
2026-01-23 22:07:26.56	139.09	5.26	-49.0	-62.1	3.8	1.49e+00	0	40	104	0	69	16360
2026-01-23 22:07:27.41	139.17	5.21	-49.0	-62.1	3.8	1.49e+00	0	39	104	0	69	16411
2026-01-23 22:07:28.54	139.29	5.15	-49.0	-62.1	3.8	1.49e+00	0	40	104	0	69	16343
2026-01-23 22:07:29.39	139.37	5.10	-49.0	-62.1	3.8	1.49e+00	0	40	104	0	69	16363
2026-01-23 22:07:30.53	139.49	5.04	-49.0	-62.1	3.8	1.49e+00	0	40	104	0	69	16387
2026-01-23 22:07:31.38	139.57	5.00	-49.0	-62.1	3.8	1.49e+00	0	40	104	0	69	16332

#Closed at: 2026-01-23 22:07:32
#Recorded file [0 MB]: D:/Data/31040_260124_005710.dat