passes_logs/2026/01/23/T1/T1__20260123_005830_AQUA_rec.log

#Pass ID: 20260123_005830_AQUA
#Satellite: AQUA
#Configuration: AQUA
#almurnet v.1.7.20251203
#Start time: 2026-01-23 00:58:30

#Version: 2.0.20230620
#Station: T1
#Location: 37.570604 lon 55.790049 lat
#TLE: 1 27424U 02022A   26022.49486490  .00002153  00000+0  44069-3 0  9997
#TLE: 2 27424  98.4099 349.0485 0001970  69.5876  43.4746 14.61847233261984

#Time	Az	El	Level	Level2	SNR	BER	BlckErr	Temp	State	Recorded	gain1	gain2
2026-01-23 00:58:30.88	19.66	5.09	-46.9	-70.9	3.8	7.45e-01	0	35	0	0	65	57090
2026-01-23 00:58:31.87	19.70	5.16	-46.9	-70.9	3.8	7.48e-01	0	35	104	0	64	60277
2026-01-23 00:58:32.86	19.73	5.24	-46.9	-70.9	3.8	7.48e-01	0	35	104	0	64	60324
2026-01-23 00:58:33.85	19.76	5.31	-46.9	-70.9	3.8	7.43e-01	0	35	104	0	64	60051
2026-01-23 00:58:34.85	19.79	5.38	-46.9	-70.9	3.8	7.44e-01	0	35	104	0	64	60124
2026-01-23 00:58:35.84	19.82	5.46	-46.9	-70.9	3.8	7.45e-01	0	35	104	0	64	59967
2026-01-23 00:58:36.83	19.86	5.53	-46.9	-70.8	3.8	7.43e-01	0	35	104	0	64	59834
2026-01-23 00:58:37.83	19.89	5.61	-46.9	-70.8	3.8	7.45e-01	0	35	104	0	64	59851
2026-01-23 00:58:38.82	19.92	5.68	-46.9	-70.9	3.8	7.43e-01	0	35	104	0	64	59980
2026-01-23 00:58:39.81	19.95	5.76	-46.9	-70.9	3.8	7.46e-01	0	35	104	0	64	60068
2026-01-23 00:58:40.81	19.99	5.83	-46.9	-70.9	3.8	7.45e-01	0	35	104	0	64	60063
2026-01-23 00:58:41.80	20.02	5.91	-46.9	-70.9	3.8	7.48e-01	0	35	104	0	64	60138
2026-01-23 00:58:42.79	20.05	5.98	-46.9	-70.9	3.8	7.49e-01	0	36	104	0	64	60262
2026-01-23 00:58:43.79	20.09	6.06	-46.9	-70.9	3.8	7.45e-01	0	36	104	0	64	60410
2026-01-23 00:58:44.78	20.12	6.13	-46.9	-70.9	3.8	7.43e-01	0	35	104	0	64	60429
2026-01-23 00:58:45.77	20.15	6.21	-46.9	-70.9	3.8	7.44e-01	0	35	104	0	64	60467
2026-01-23 00:58:46.77	20.19	6.29	-46.9	-70.9	3.8	7.48e-01	0	35	104	0	64	60466
2026-01-23 00:58:47.76	20.22	6.36	-46.9	-70.9	3.8	7.45e-01	0	36	104	0	64	60523
2026-01-23 00:58:48.75	20.26	6.44	-46.9	-70.9	3.8	7.45e-01	0	36	104	0	64	60458
2026-01-23 00:58:49.74	20.29	6.52	-46.9	-70.9	3.8	7.46e-01	0	35	104	0	64	60512
2026-01-23 00:58:50.74	20.33	6.60	-46.9	-70.9	3.8	7.48e-01	0	36	104	0	64	60543
2026-01-23 00:58:51.73	20.36	6.67	-46.9	-70.9	3.8	7.44e-01	0	36	104	0	64	60201
2026-01-23 00:58:52.72	20.40	6.75	-46.9	-70.8	3.8	7.43e-01	0	36	104	0	64	59767
2026-01-23 00:58:53.72	20.43	6.83	-46.9	-70.7	3.8	7.46e-01	0	36	104	0	64	59089
2026-01-23 00:58:54.71	20.47	6.91	-46.9	-70.6	3.8	7.45e-01	0	36	104	0	64	58185
2026-01-23 00:58:55.71	20.50	6.99	-46.9	-70.4	3.8	7.45e-01	0	36	104	0	64	57153
2026-01-23 00:58:56.70	20.54	7.07	-46.9	-70.3	3.8	7.43e-01	0	36	104	0	64	56011
2026-01-23 00:58:57.69	20.57	7.15	-46.8	-70.1	3.8	7.47e-01	0	36	104	0	64	54939
2026-01-23 00:58:58.69	20.61	7.23	-46.8	-69.9	3.8	7.46e-01	0	36	104	0	64	53734
2026-01-23 00:58:59.68	20.65	7.31	-46.8	-69.8	3.8	7.47e-01	0	36	104	0	64	52868
2026-01-23 00:59:00.67	20.68	7.39	-46.8	-69.6	3.8	7.47e-01	0	36	104	0	64	51913
2026-01-23 00:59:01.67	20.72	7.47	-46.8	-69.5	3.8	7.46e-01	0	36	104	0	64	51241
2026-01-23 00:59:02.66	20.76	7.55	-46.8	-69.4	3.8	7.45e-01	0	36	104	0	64	50778
2026-01-23 00:59:03.65	20.79	7.63	-46.8	-69.3	3.8	7.45e-01	0	36	104	0	64	50309
2026-01-23 00:59:04.65	20.83	7.71	-46.8	-69.3	3.8	7.48e-01	0	36	104	0	64	50181
2026-01-23 00:59:05.64	20.87	7.79	-46.8	-69.3	3.8	7.47e-01	0	36	104	0	64	50134
2026-01-23 00:59:06.63	20.91	7.87	-46.8	-69.3	3.8	7.43e-01	0	36	104	0	64	49949
2026-01-23 00:59:07.63	20.94	7.96	-46.8	-69.3	3.8	7.47e-01	0	36	104	0	64	50159
2026-01-23 00:59:08.62	20.98	8.04	-46.7	-69.2	3.8	7.47e-01	0	36	104	0	64	49708
2026-01-23 00:59:09.61	21.02	8.12	-46.8	-69.2	3.8	7.46e-01	0	36	104	0	64	49556
2026-01-23 00:59:10.60	21.06	8.21	-46.8	-69.1	3.8	7.48e-01	0	36	104	0	64	48709
2026-01-23 00:59:11.60	21.10	8.29	-46.8	-68.8	3.8	7.47e-01	0	36	104	0	64	47124
2026-01-23 00:59:12.59	21.14	8.37	-46.7	-68.3	3.8	7.46e-01	0	36	104	0	64	44892
2026-01-23 00:59:13.58	21.17	8.46	-46.7	-67.7	3.8	7.45e-01	0	36	104	0	64	41500
2026-01-23 00:59:14.58	21.21	8.54	-46.6	-66.9	3.8	7.47e-01	0	36	104	0	64	38016
2026-01-23 00:59:15.57	21.25	8.63	-46.5	-66.0	3.8	7.42e-01	0	36	104	0	64	34332
2026-01-23 00:59:16.56	21.29	8.71	-46.3	-65.0	3.8	7.46e-01	0	36	104	0	64	30647
2026-01-23 00:59:17.56	21.33	8.80	-46.1	-64.0	3.8	7.45e-01	0	36	104	0	64	27322
2026-01-23 00:59:18.55	21.37	8.88	-46.0	-63.2	3.8	7.48e-01	0	36	104	0	63	26289
2026-01-23 00:59:19.54	21.41	8.97	-45.8	-62.4	3.8	7.44e-01	0	36	104	0	63	24079
2026-01-23 00:59:20.54	21.46	9.05	-45.7	-61.3	3.8	7.47e-01	0	36	104	0	63	21046
2026-01-23 00:59:21.53	21.50	9.14	-46.3	-62.9	3.8	7.47e-01	0	36	104	0	63	25448
2026-01-23 00:59:22.53	21.54	9.23	-45.8	-61.9	3.9	7.44e-01	0	36	104	0	63	22751
2026-01-23 00:59:23.52	21.58	9.32	-45.4	-60.9	3.8	7.46e-01	0	36	104	0	61	22573
2026-01-23 00:59:24.52	21.62	9.40	-44.8	-59.5	3.9	7.40e-01	0	37	104	0	61	19280
2026-01-23 00:59:25.51	21.66	9.49	-44.1	-57.5	3.8	7.44e-01	0	36	104	0	59	17246
2026-01-23 00:59:26.50	21.70	9.58	-44.2	-57.7	3.8	7.44e-01	0	36	104	0	59	17614
2026-01-23 00:59:27.50	21.75	9.67	-44.1	-57.6	3.8	7.47e-01	0	37	104	0	59	17411
2026-01-23 00:59:28.49	21.79	9.76	-44.2	-57.7	3.7	7.42e-01	0	37	104	0	59	17582
2026-01-23 00:59:29.49	21.83	9.85	-43.8	-57.3	3.8	7.48e-01	0	37	104	0	59	16798
2026-01-23 00:59:30.49	21.88	9.94	-43.6	-47.5	20.3	6.03e-01	0	37	104	0	58	5741
2026-01-23 00:59:31.48	21.92	10.03	-46.0	-51.6	19.2	6.01e-01	0	36	0	1572864	62	7292
2026-01-23 00:59:32.48	21.96	10.12	-48.0	-55.4	14.1	6.03e-01	0	37	0	3145728	67	8528
2026-01-23 00:59:33.47	22.01	10.21	-45.6	-50.1	19.4	6.02e-01	0	37	0	5242880	63	5814
2026-01-23 00:59:34.47	22.05	10.30	-43.9	-47.7	22.2	6.01e-01	0	37	0	6815744	59	5578
2026-01-23 00:59:35.46	22.10	10.39	-43.9	-47.5	22.4	6.02e-01	0	37	0	8912896	59	5448
2026-01-23 00:59:36.51	22.14	10.49	-44.0	-47.6	22.3	6.02e-01	0	37	0	11010048	59	5504
2026-01-23 00:59:37.44	22.19	10.57	-43.9	-47.4	22.5	6.00e-01	0	37	0	12582912	59	5399
2026-01-23 00:59:38.56	22.24	10.68	-44.1	-47.6	22.2	6.01e-01	0	37	0	14680064	59	5505
2026-01-23 00:59:39.41	22.28	10.76	-44.3	-47.8	22.5	6.03e-01	0	37	0	16252928	59	5599
2026-01-23 00:59:40.55	22.33	10.87	-44.0	-47.2	22.8	6.01e-01	0	36	0	18350080	59	5261
2026-01-23 00:59:41.40	22.37	10.95	-43.7	-46.7	23.2	6.01e-01	0	36	0	19922944	59	4975
2026-01-23 00:59:42.53	22.42	11.05	-43.8	-46.8	23.2	6.00e-01	0	36	0	22020096	59	5007
2026-01-23 00:59:43.39	22.46	11.14	-43.6	-46.5	23.5	6.06e-01	0	37	0	23592960	59	4823
2026-01-23 00:59:44.52	22.52	11.24	-43.5	-46.3	23.7	6.04e-01	0	37	0	25690112	59	4738
2026-01-23 00:59:45.38	22.56	11.33	-43.5	-46.3	23.7	6.02e-01	0	37	0	27262976	59	4727
2026-01-23 00:59:46.51	22.61	11.43	-43.6	-46.3	23.7	6.01e-01	0	37	0	29360128	59	4715
2026-01-23 00:59:47.37	22.65	11.52	-43.6	-46.3	23.7	6.02e-01	0	37	0	31457280	59	4711
2026-01-23 00:59:48.52	22.71	11.63	-43.6	-46.3	23.7	6.05e-01	0	37	0	33554432	59	4741
2026-01-23 00:59:49.37	22.75	11.71	-43.7	-46.3	23.6	6.01e-01	0	37	0	35127296	59	4733
2026-01-23 00:59:50.51	22.81	11.82	-43.6	-46.2	23.8	6.02e-01	0	37	0	37224448	59	4694
2026-01-23 00:59:51.36	22.85	11.91	-43.6	-46.2	23.8	6.03e-01	0	37	0	38797312	59	4690
2026-01-23 00:59:52.61	22.91	12.03	-43.5	-46.1	23.8	6.02e-01	0	37	0	40894464	59	4636
2026-01-23 00:59:53.46	22.95	12.12	-43.6	-46.2	23.8	6.02e-01	0	37	0	42467328	59	4661
2026-01-23 00:59:54.60	23.01	12.23	-43.6	-46.2	23.8	6.02e-01	0	37	0	44564480	59	4705
2026-01-23 00:59:55.45	23.06	12.31	-43.6	-46.2	23.8	6.03e-01	0	37	0	46661632	59	4683
2026-01-23 00:59:56.59	23.11	12.43	-43.5	-46.2	23.9	6.01e-01	0	37	0	48758784	59	4652
2026-01-23 00:59:57.44	23.16	12.52	-43.6	-46.2	23.8	6.01e-01	0	37	0	50331648	59	4704
2026-01-23 00:59:58.58	23.22	12.63	-43.6	-46.2	23.8	6.01e-01	0	37	0	52428800	59	4695
2026-01-23 00:59:59.43	23.26	12.72	-43.7	-46.3	23.7	6.02e-01	0	37	0	54001664	59	4746
2026-01-23 01:00:00.56	23.32	12.83	-43.5	-46.1	23.9	6.03e-01	0	37	0	56098816	59	4638
2026-01-23 01:00:01.42	23.37	12.92	-43.5	-46.2	23.9	6.04e-01	0	37	0	57671680	59	4656
2026-01-23 01:00:02.55	23.43	13.04	-43.6	-46.2	23.8	6.02e-01	0	37	0	59768832	59	4686
2026-01-23 01:00:03.41	23.47	13.13	-43.6	-46.2	23.9	6.02e-01	0	37	0	61341696	59	4696
2026-01-23 01:00:04.55	23.54	13.25	-43.5	-46.2	23.9	6.03e-01	0	37	0	63438848	58	4931
2026-01-23 01:00:05.40	23.58	13.34	-43.5	-46.2	23.8	6.01e-01	0	37	0	65011712	58	4947
2026-01-23 01:00:06.54	23.64	13.46	-43.4	-46.0	24.0	6.00e-01	0	37	0	67108864	58	4848
2026-01-23 01:00:07.39	23.69	13.55	-43.4	-46.0	24.0	6.00e-01	0	37	0	68681728	58	4860
2026-01-23 01:00:08.53	23.75	13.67	-43.3	-45.9	24.1	6.05e-01	0	37	0	70778880	58	4798
2026-01-23 01:00:09.38	23.80	13.76	-43.2	-45.9	24.1	6.03e-01	0	37	0	72351744	58	4789
2026-01-23 01:00:10.52	23.87	13.88	-43.2	-45.9	24.1	6.00e-01	0	37	0	74448896	58	4784
2026-01-23 01:00:11.38	23.92	13.97	-43.1	-45.8	24.2	6.02e-01	0	37	0	76021760	58	4733
2026-01-23 01:00:12.52	23.98	14.10	-43.1	-45.8	24.2	6.02e-01	0	37	0	78118912	58	4708
2026-01-23 01:00:13.37	24.03	14.19	-43.1	-45.8	24.2	6.01e-01	0	37	0	80216064	58	4752
2026-01-23 01:00:14.50	24.10	14.31	-43.0	-45.8	24.2	6.00e-01	0	37	0	82313216	58	4710
2026-01-23 01:00:15.36	24.15	14.41	-43.0	-45.7	24.3	6.02e-01	0	37	0	83886080	57	4964
2026-01-23 01:00:16.49	24.21	14.53	-43.1	-45.8	24.2	6.02e-01	0	37	0	85983232	57	5010
2026-01-23 01:00:17.34	24.26	14.63	-43.1	-45.8	24.3	6.02e-01	0	37	0	87556096	57	5000
2026-01-23 01:00:18.48	24.33	14.75	-43.0	-45.7	24.3	6.04e-01	0	37	0	89653248	57	4956
2026-01-23 01:00:19.34	24.38	14.85	-43.1	-45.8	24.2	6.03e-01	0	37	0	91226112	57	5031
2026-01-23 01:00:20.47	24.45	14.98	-43.1	-45.8	24.2	6.00e-01	0	37	0	93323264	57	5023
2026-01-23 01:00:21.32	24.50	15.07	-43.1	-45.8	24.0	5.99e-01	0	37	0	94896128	57	5022
2026-01-23 01:00:22.62	24.59	15.22	-43.1	-45.7	24.3	5.99e-01	0	37	0	97517568	57	4983
2026-01-23 01:00:23.33	24.63	15.30	-43.1	-45.8	24.3	6.01e-01	0	37	0	98566144	57	4990
2026-01-23 01:00:24.61	24.71	15.45	-43.1	-45.7	24.3	6.03e-01	0	37	0	101187584	57	4945
2026-01-23 01:00:25.33	24.76	15.53	-43.2	-45.8	24.3	6.03e-01	0	37	0	102236160	57	5001
2026-01-23 01:00:26.61	24.84	15.68	-43.1	-45.7	24.4	6.04e-01	0	37	0	104857600	57	4948
2026-01-23 01:00:27.32	24.88	15.76	-43.2	-45.7	24.3	6.03e-01	0	37	0	105906176	57	4950
2026-01-23 01:00:28.60	24.97	15.91	-43.2	-45.7	24.4	6.06e-01	0	37	0	108527616	57	4937
2026-01-23 01:00:29.47	25.02	16.01	-43.2	-45.7	24.5	6.01e-01	0	37	0	110100480	57	4938
2026-01-23 01:00:30.61	25.10	16.15	-43.2	-45.7	24.5	6.00e-01	0	37	0	112197632	57	4943
2026-01-23 01:00:31.65	25.17	16.27	-43.1	-45.6	24.5	6.04e-01	0	37	0	114294784	57	4898
2026-01-23 01:00:32.59	25.23	16.39	-43.0	-45.5	24.6	6.02e-01	0	37	0	115867648	57	4835
2026-01-23 01:00:33.59	25.30	16.51	-43.0	-45.6	24.6	6.02e-01	0	37	0	117964800	57	4872
2026-01-23 01:00:34.58	25.36	16.63	-42.9	-45.4	24.6	6.02e-01	0	37	0	120061952	57	4806
2026-01-23 01:00:35.58	25.43	16.75	-43.0	-45.7	24.5	6.01e-01	0	37	0	121634816	57	4934
2026-01-23 01:00:36.57	25.50	16.87	-43.0	-45.6	24.5	6.03e-01	0	37	0	123207680	57	4901
2026-01-23 01:00:37.57	25.57	16.99	-43.0	-45.7	24.4	6.01e-01	0	37	0	125304832	57	4977
2026-01-23 01:00:38.56	25.64	17.11	-42.8	-45.6	24.5	6.00e-01	0	37	0	127401984	57	4902
2026-01-23 01:00:39.56	25.71	17.24	-42.9	-45.8	24.4	6.00e-01	0	37	0	128974848	57	4995
2026-01-23 01:00:40.55	25.78	17.36	-42.8	-45.7	24.5	6.01e-01	0	37	0	131072000	57	4944
2026-01-23 01:00:41.55	25.85	17.49	-42.8	-45.7	24.5	6.04e-01	0	37	0	132644864	57	4936
2026-01-23 01:00:42.54	25.92	17.61	-42.8	-45.7	24.4	6.00e-01	0	37	0	134742016	57	4973
2026-01-23 01:00:43.54	26.00	17.74	-42.7	-45.6	24.5	6.03e-01	0	37	0	136839168	57	4914
2026-01-23 01:00:44.53	26.07	17.86	-42.7	-45.6	24.5	6.02e-01	0	37	0	138412032	57	4899
2026-01-23 01:00:45.53	26.14	17.99	-42.7	-45.6	24.5	6.03e-01	0	37	0	140509184	57	4886
2026-01-23 01:00:46.53	26.22	18.12	-42.6	-45.5	24.6	6.01e-01	0	37	0	142082048	57	4816
2026-01-23 01:00:47.52	26.29	18.25	-42.6	-45.4	24.7	6.01e-01	0	37	0	144179200	57	4783
2026-01-23 01:00:48.52	26.37	18.38	-42.7	-45.5	24.6	6.00e-01	0	37	0	145752064	57	4824
2026-01-23 01:00:49.51	26.45	18.51	-42.7	-45.5	24.6	6.03e-01	0	37	0	147849216	57	4837
2026-01-23 01:00:50.51	26.52	18.64	-42.8	-45.6	24.5	6.04e-01	0	37	0	149422080	57	4914
2026-01-23 01:00:51.50	26.60	18.77	-42.9	-45.7	24.4	6.03e-01	0	37	0	151519232	57	4966
2026-01-23 01:00:52.50	26.68	18.90	-42.9	-45.8	24.4	6.03e-01	0	37	0	153616384	57	4984
2026-01-23 01:00:53.50	26.76	19.04	-43.0	-45.8	24.4	6.04e-01	0	37	0	155189248	57	4987
2026-01-23 01:00:54.49	26.84	19.17	-43.0	-45.7	24.4	6.02e-01	0	37	0	157286400	57	4954
2026-01-23 01:00:55.49	26.92	19.31	-42.9	-45.6	24.5	6.02e-01	0	37	0	158859264	57	4912
2026-01-23 01:00:56.48	27.00	19.44	-42.9	-45.7	24.5	6.01e-01	0	37	0	160956416	57	4940
2026-01-23 01:00:57.48	27.08	19.58	-42.9	-45.7	24.5	6.00e-01	0	37	0	162529280	57	4930
2026-01-23 01:00:58.47	27.17	19.71	-42.8	-45.5	24.7	5.99e-01	0	37	0	164626432	57	4850
2026-01-23 01:00:59.55	27.26	19.86	-42.8	-45.5	24.6	6.01e-01	0	37	0	166723584	57	4837
2026-01-23 01:01:00.40	27.33	19.98	-42.7	-45.4	24.6	6.00e-01	0	37	0	168296448	57	4783
2026-01-23 01:01:01.54	27.43	20.14	-42.7	-45.4	24.7	6.03e-01	0	37	0	170393600	57	4782
2026-01-23 01:01:02.39	27.50	20.26	-42.9	-45.6	24.6	6.00e-01	0	37	0	171966464	57	4887
2026-01-23 01:01:03.53	27.60	20.42	-43.0	-45.7	24.4	6.04e-01	0	37	0	174063616	57	4934
2026-01-23 01:01:04.38	27.67	20.54	-43.1	-45.8	24.4	6.01e-01	0	37	0	175636480	57	4993
2026-01-23 01:01:05.52	27.77	20.71	-42.9	-45.6	24.6	6.03e-01	0	37	0	177733632	57	4874
2026-01-23 01:01:06.37	27.85	20.83	-43.0	-45.6	24.5	6.00e-01	0	37	0	179306496	57	4893
2026-01-23 01:01:07.50	27.95	20.99	-43.0	-45.7	24.5	6.01e-01	0	37	0	181403648	57	4929
2026-01-23 01:01:08.36	28.03	21.12	-43.0	-45.5	24.6	6.07e-01	0	37	0	182976512	57	4867
2026-01-23 01:01:09.49	28.14	21.29	-42.9	-45.4	24.7	6.01e-01	0	37	0	185073664	57	4806
2026-01-23 01:01:10.35	28.22	21.41	-42.9	-45.5	24.7	6.02e-01	0	37	0	186646528	57	4827
2026-01-23 01:01:11.48	28.32	21.58	-43.0	-45.6	24.6	6.01e-01	0	37	0	188743680	57	4883
2026-01-23 01:01:12.34	28.40	21.71	-43.0	-45.6	24.6	6.05e-01	0	37	0	190840832	57	4890
2026-01-23 01:01:13.48	28.51	21.88	-43.0	-45.6	24.6	6.00e-01	0	37	0	192413696	57	4908
2026-01-23 01:01:14.33	28.59	22.01	-43.1	-45.7	24.6	6.02e-01	0	37	0	193986560	57	4934
2026-01-23 01:01:15.57	28.72	22.20	-43.1	-45.7	24.5	6.02e-01	0	37	0	196608000	57	4931
2026-01-23 01:01:16.43	28.80	22.33	-43.1	-45.7	24.5	6.00e-01	0	37	0	198180864	57	4972
2026-01-23 01:01:17.56	28.91	22.50	-43.2	-45.8	24.5	6.02e-01	0	37	0	200278016	57	4984
2026-01-23 01:01:18.42	29.00	22.64	-43.1	-45.7	24.5	6.01e-01	0	37	0	201850880	57	4955
2026-01-23 01:01:19.56	29.12	22.81	-43.2	-45.7	24.5	6.01e-01	0	37	0	203948032	57	4980
2026-01-23 01:01:20.41	29.20	22.95	-43.2	-45.7	24.5	6.00e-01	0	37	0	205520896	57	4953
2026-01-23 01:01:21.55	29.32	23.13	-43.2	-45.7	24.5	6.03e-01	0	37	0	207618048	57	4962
2026-01-23 01:01:22.40	29.41	23.26	-43.3	-45.8	24.5	6.03e-01	0	37	0	209190912	57	4989
2026-01-23 01:01:23.53	29.53	23.44	-43.4	-45.9	24.3	6.00e-01	0	37	0	211812352	57	5094
2026-01-23 01:01:24.38	29.62	23.58	-43.4	-45.9	24.3	6.04e-01	0	37	0	213385216	57	5085
2026-01-23 01:01:25.52	29.74	23.76	-43.4	-45.9	24.3	6.00e-01	0	37	0	215482368	57	5082
2026-01-23 01:01:26.37	29.84	23.90	-43.4	-46.0	24.3	6.03e-01	0	37	0	217055232	57	5104
2026-01-23 01:01:27.51	29.96	24.09	-43.4	-45.8	24.4	6.03e-01	0	37	0	219152384	57	5039
2026-01-23 01:01:28.36	30.06	24.23	-43.4	-45.9	24.4	6.00e-01	0	37	0	220725248	57	5046
2026-01-23 01:01:29.58	30.19	24.43	-43.3	-45.9	24.3	6.03e-01	0	37	0	222822400	57	5064
2026-01-23 01:01:30.43	30.29	24.57	-43.3	-45.9	24.3	6.03e-01	0	37	0	224395264	57	5057
2026-01-23 01:01:31.57	30.42	24.76	-43.3	-45.9	24.3	6.00e-01	0	37	0	226492416	57	5067
2026-01-23 01:01:32.42	30.52	24.91	-43.3	-45.9	24.4	6.00e-01	0	37	0	228065280	57	5055
2026-01-23 01:01:33.56	30.66	25.10	-43.4	-46.0	24.2	6.00e-01	0	37	0	230162432	57	5123
2026-01-23 01:01:34.41	30.76	25.25	-43.3	-45.8	24.4	6.01e-01	0	37	0	231735296	57	5038
2026-01-23 01:01:35.55	30.89	25.44	-43.4	-46.0	24.2	6.04e-01	0	37	0	233832448	57	5143
2026-01-23 01:01:36.40	31.00	25.59	-43.4	-45.9	24.3	6.03e-01	0	37	0	235929600	57	5086
2026-01-23 01:01:37.54	31.14	25.79	-43.4	-45.9	24.3	5.99e-01	0	37	0	238026752	57	5095
2026-01-23 01:01:38.39	31.24	25.94	-43.3	-45.9	24.4	6.01e-01	0	37	0	239599616	57	5049
2026-01-23 01:01:39.53	31.39	26.14	-43.0	-45.5	24.7	6.02e-01	0	37	0	241696768	57	4864
2026-01-23 01:01:40.38	31.49	26.29	-43.1	-45.7	24.6	6.04e-01	0	37	0	243269632	57	4928
2026-01-23 01:01:41.52	31.64	26.49	-43.2	-45.7	24.5	6.01e-01	0	37	0	245366784	57	4943
2026-01-23 01:01:42.37	31.75	26.65	-43.3	-45.9	24.4	6.00e-01	0	37	0	246939648	57	5043
2026-01-23 01:01:43.51	31.90	26.85	-43.3	-45.8	24.5	6.03e-01	0	37	0	249036800	57	5004
2026-01-23 01:01:44.36	32.01	27.01	-43.3	-45.8	24.5	6.00e-01	0	37	0	250609664	57	5015
2026-01-23 01:01:45.50	32.17	27.22	-43.1	-45.5	24.7	6.02e-01	0	37	0	252706816	57	4863
2026-01-23 01:01:46.35	32.28	27.38	-43.1	-45.5	24.7	6.03e-01	0	37	0	254279680	57	4866
2026-01-23 01:01:47.60	32.45	27.61	-43.2	-45.8	24.5	6.03e-01	0	37	0	256901120	57	4991
2026-01-23 01:01:48.45	32.57	27.77	-43.3	-45.8	24.4	6.01e-01	0	37	0	258473984	57	5025
2026-01-23 01:01:49.59	32.73	27.98	-43.2	-45.7	24.5	6.02e-01	0	37	0	260571136	57	4966
2026-01-23 01:01:50.44	32.86	28.14	-43.1	-45.5	24.7	6.04e-01	0	37	0	262144000	57	4859
2026-01-23 01:01:51.58	33.02	28.36	-42.9	-45.3	24.9	6.02e-01	0	37	0	264241152	57	4731
2026-01-23 01:01:52.43	33.14	28.52	-42.9	-45.3	24.9	6.03e-01	0	37	0	265814016	57	4727
2026-01-23 01:01:53.57	33.31	28.74	-43.0	-45.4	24.8	6.02e-01	0	37	0	267911168	57	4797
2026-01-23 01:01:54.43	33.44	28.91	-43.0	-45.4	24.8	6.02e-01	0	37	0	269484032	57	4811
2026-01-23 01:01:55.56	33.61	29.13	-43.0	-45.4	24.8	6.02e-01	0	37	0	271581184	57	4793
2026-01-23 01:01:56.41	33.74	29.30	-42.9	-45.3	24.9	6.03e-01	0	37	0	273154048	57	4721
2026-01-23 01:01:57.55	33.92	29.53	-42.9	-45.3	24.9	6.04e-01	0	37	0	275251200	57	4741
2026-01-23 01:01:58.40	34.05	29.70	-43.0	-45.4	24.8	6.00e-01	0	37	0	276824064	57	4785
2026-01-23 01:01:59.54	34.24	29.93	-43.1	-45.5	24.8	6.02e-01	0	37	0	278921216	57	4840
2026-01-23 01:02:00.39	34.37	30.10	-43.1	-45.5	24.7	6.04e-01	0	38	0	280494080	57	4857
2026-01-23 01:02:01.53	34.56	30.33	-42.8	-45.3	25.0	6.04e-01	0	37	0	282591232	57	4709
2026-01-23 01:02:02.38	34.70	30.50	-42.8	-45.2	25.0	6.03e-01	0	38	0	284688384	57	4698
2026-01-23 01:02:03.52	34.89	30.74	-43.0	-45.5	24.8	6.01e-01	0	37	0	286261248	57	4815
2026-01-23 01:02:04.37	35.04	30.92	-43.1	-45.6	24.7	6.01e-01	0	38	0	287834112	57	4884
2026-01-23 01:02:05.51	35.23	31.15	-42.9	-45.4	24.9	6.02e-01	0	37	0	290455552	57	4769
2026-01-23 01:02:06.36	35.38	31.33	-42.9	-45.4	24.8	5.98e-01	0	37	0	292028416	57	4789
2026-01-23 01:02:07.50	35.58	31.57	-42.9	-45.4	24.8	6.01e-01	0	38	0	294125568	57	4809
2026-01-23 01:02:08.35	35.73	31.75	-42.9	-45.4	24.8	6.03e-01	0	37	0	295698432	57	4801
2026-01-23 01:02:09.49	35.94	32.00	-42.9	-45.4	24.9	6.01e-01	0	37	0	297795584	57	4798
2026-01-23 01:02:10.34	36.09	32.18	-42.9	-45.4	24.8	6.05e-01	0	37	0	299368448	57	4806
2026-01-23 01:02:11.48	36.31	32.43	-43.0	-45.6	24.7	6.03e-01	0	37	0	301465600	57	4890
2026-01-23 01:02:12.33	36.47	32.62	-43.1	-45.6	24.6	6.03e-01	0	37	0	303038464	57	4907
2026-01-23 01:02:13.47	36.69	32.87	-43.2	-45.7	24.6	6.03e-01	0	37	0	305135616	57	4981
2026-01-23 01:02:14.32	36.85	33.05	-43.3	-45.8	24.6	6.02e-01	0	37	0	306708480	57	4996
2026-01-23 01:02:15.45	37.07	33.31	-43.3	-45.7	24.5	6.00e-01	0	37	0	308805632	57	4983
2026-01-23 01:02:16.31	37.24	33.50	-43.4	-45.8	24.5	6.03e-01	0	37	0	310378496	57	5040
2026-01-23 01:02:17.49	37.48	33.76	-43.4	-45.9	24.4	6.03e-01	0	37	0	312999936	57	5093
2026-01-23 01:02:18.34	37.66	33.96	-43.5	-46.0	24.3	6.02e-01	0	37	0	314572800	57	5132
2026-01-23 01:02:19.48	37.89	34.22	-43.5	-46.1	24.2	5.99e-01	0	37	0	316669952	57	5200
2026-01-23 01:02:20.33	38.07	34.41	-43.6	-46.2	24.1	5.99e-01	0	37	0	318242816	57	5232
2026-01-23 01:02:21.47	38.31	34.67	-43.5	-46.1	24.2	6.05e-01	0	38	0	320339968	57	5191
2026-01-23 01:02:22.32	38.50	34.87	-43.7	-46.3	24.1	6.04e-01	0	37	0	321912832	58	5024
2026-01-23 01:02:23.46	38.75	35.14	-44.1	-46.7	23.7	6.00e-01	0	37	0	324009984	58	5240
2026-01-23 01:02:24.31	38.94	35.34	-44.0	-46.6	23.8	5.99e-01	0	37	0	325582848	58	5188
2026-01-23 01:02:25.71	39.26	35.67	-43.9	-46.4	23.9	6.02e-01	0	37	0	328204288	58	5088
2026-01-23 01:02:26.42	39.42	35.84	-44.1	-46.6	23.8	6.02e-01	0	37	0	329252864	58	5210
2026-01-23 01:02:27.70	39.72	36.15	-44.4	-47.0	23.4	6.02e-01	0	37	0	331874304	59	5146
2026-01-23 01:02:28.41	39.89	36.32	-44.4	-47.0	23.4	6.04e-01	0	37	0	333447168	59	5134
2026-01-23 01:02:29.69	40.20	36.63	-44.4	-47.0	23.4	6.02e-01	0	37	0	335544320	59	5151
2026-01-23 01:02:30.40	40.37	36.80	-44.6	-47.3	23.1	6.01e-01	0	37	0	337117184	59	5303
2026-01-23 01:02:31.68	40.69	37.11	-44.2	-46.9	23.5	6.03e-01	0	37	0	339214336	59	5059
2026-01-23 01:02:32.53	40.90	37.32	-44.3	-46.9	23.5	6.03e-01	0	38	0	340787200	59	5090
2026-01-23 01:02:33.67	41.19	37.61	-44.6	-47.3	23.1	6.02e-01	0	37	0	342884352	59	5331
2026-01-23 01:02:34.69	41.46	37.86	-44.4	-47.2	23.2	6.03e-01	0	37	0	344981504	60	4946
2026-01-23 01:02:35.86	41.77	38.15	-44.1	-46.8	23.6	6.01e-01	0	37	0	347078656	60	4709
2026-01-23 01:02:36.71	42.00	38.37	-44.2	-46.9	23.5	6.02e-01	0	37	0	348651520	60	4762
2026-01-23 01:02:37.85	42.31	38.66	-44.3	-47.0	23.4	6.04e-01	0	37	0	350748672	60	4819
2026-01-23 01:02:38.70	42.54	38.87	-44.3	-46.9	23.4	6.05e-01	0	37	0	352321536	60	4812
2026-01-23 01:02:39.84	42.86	39.17	-44.0	-46.6	23.7	6.02e-01	0	37	0	354418688	60	4632
2026-01-23 01:02:40.69	43.11	39.38	-44.1	-46.6	23.7	6.03e-01	0	37	0	355991552	59	4921
2026-01-23 01:02:41.83	43.44	39.68	-44.1	-46.7	23.7	6.02e-01	0	37	0	358088704	59	4965
2026-01-23 01:02:42.68	43.69	39.90	-44.1	-46.7	23.7	6.00e-01	0	37	0	360185856	59	4934
2026-01-23 01:02:43.82	44.03	40.20	-44.1	-46.6	23.8	6.02e-01	0	37	0	362283008	59	4912
2026-01-23 01:02:44.67	44.29	40.42	-43.9	-46.4	24.0	6.01e-01	0	37	0	363855872	59	4810
2026-01-23 01:02:45.81	44.65	40.72	-43.7	-46.2	24.1	6.02e-01	0	37	0	365953024	59	4694
2026-01-23 01:02:46.66	44.91	40.95	-43.8	-46.3	24.1	6.04e-01	0	37	0	367525888	59	4713
2026-01-23 01:02:47.80	45.28	41.25	-43.7	-46.1	24.3	6.03e-01	0	37	0	369623040	59	4641
2026-01-23 01:02:48.65	45.56	41.48	-43.7	-46.2	24.2	6.05e-01	0	37	0	371195904	59	4687
2026-01-23 01:02:49.98	46.00	41.83	-43.4	-45.9	24.4	6.01e-01	0	38	0	373817344	58	4762
2026-01-23 01:02:50.69	46.24	42.02	-43.4	-45.9	24.5	6.06e-01	0	37	0	374865920	58	4768
2026-01-23 01:02:52.17	46.75	42.42	-43.2	-45.7	24.6	6.01e-01	0	37	0	377487360	58	4667
2026-01-23 01:02:52.89	47.00	42.62	-43.3	-45.8	24.6	6.03e-01	0	37	0	379060224	58	4723
2026-01-23 01:02:54.16	47.45	42.96	-43.3	-45.7	24.6	6.03e-01	0	37	0	381681664	58	4685
2026-01-23 01:02:54.89	47.71	43.16	-43.1	-45.5	24.8	6.03e-01	0	37	0	382730240	58	4551
2026-01-23 01:02:56.26	48.22	43.54	-42.8	-45.1	25.2	6.02e-01	0	37	0	385351680	57	4612
2026-01-23 01:02:56.97	48.49	43.73	-42.7	-45.0	25.1	6.01e-01	0	37	0	386924544	57	4593
2026-01-23 01:02:58.25	48.98	44.08	-42.7	-45.0	25.2	6.05e-01	0	37	0	389021696	57	4589
2026-01-23 01:02:58.96	49.25	44.28	-42.8	-45.2	25.1	6.01e-01	0	38	0	390594560	57	4663
2026-01-23 01:03:00.24	49.76	44.63	-42.6	-44.9	25.3	6.03e-01	0	37	0	392691712	57	4516
2026-01-23 01:03:00.96	50.05	44.83	-42.4	-44.7	25.5	6.02e-01	0	37	0	394264576	56	4671
2026-01-23 01:03:02.23	50.57	45.19	-42.2	-44.4	25.8	6.03e-01	0	37	0	396886016	56	4530
2026-01-23 01:03:02.95	50.87	45.39	-42.4	-44.7	25.5	6.04e-01	0	37	0	397934592	56	4693
2026-01-23 01:03:04.23	51.41	45.74	-42.4	-44.6	25.5	6.03e-01	0	37	0	400556032	56	4635
2026-01-23 01:03:04.94	51.72	45.94	-42.4	-44.7	25.5	6.03e-01	0	37	0	401604608	56	4678
2026-01-23 01:03:06.22	52.28	46.30	-42.3	-44.5	25.7	6.03e-01	0	37	0	404226048	56	4595
2026-01-23 01:03:07.15	52.70	46.56	-42.4	-44.6	25.6	6.05e-01	0	37	0	405798912	56	4648
2026-01-23 01:03:08.44	53.29	46.92	-42.3	-44.6	25.6	6.03e-01	0	37	0	408420352	56	4605
2026-01-23 01:03:09.15	53.62	47.12	-42.5	-44.8	25.4	6.01e-01	0	37	0	409468928	56	4716
2026-01-23 01:03:10.43	54.22	47.47	-42.4	-44.6	25.5	6.01e-01	0	37	0	412090368	56	4648
2026-01-23 01:03:11.14	54.57	47.67	-42.5	-44.8	25.5	6.03e-01	0	37	0	413138944	56	4719
2026-01-23 01:03:12.42	55.20	48.03	-42.6	-44.9	25.3	6.03e-01	0	37	0	415760384	56	4800
2026-01-23 01:03:13.13	55.55	48.23	-42.7	-45.0	25.3	5.99e-01	0	37	0	417333248	56	4831
2026-01-23 01:03:14.41	56.20	48.58	-42.7	-45.0	25.2	6.03e-01	0	37	0	419430400	56	4858
2026-01-23 01:03:15.12	56.57	48.78	-42.8	-45.1	25.2	6.03e-01	0	37	0	421003264	56	4896
2026-01-23 01:03:16.40	57.25	49.13	-43.1	-45.5	24.8	6.02e-01	0	37	0	423100416	57	4859
2026-01-23 01:03:17.19	57.67	49.35	-42.8	-45.2	25.1	6.03e-01	0	37	0	424673280	57	4666
2026-01-23 01:03:18.67	58.48	49.76	-42.7	-45.0	25.2	6.03e-01	0	38	0	427294720	57	4548
2026-01-23 01:03:19.38	58.88	49.95	-42.5	-44.7	25.5	6.02e-01	0	37	0	428867584	57	4441
2026-01-23 01:03:20.66	59.61	50.30	-42.6	-44.9	25.3	5.99e-01	0	37	0	430964736	57	4535
2026-01-23 01:03:21.37	60.02	50.49	-42.5	-44.8	25.4	6.01e-01	0	37	0	432537600	57	4469
2026-01-23 01:03:22.65	60.78	50.84	-42.5	-44.8	25.4	6.02e-01	0	37	0	435159040	57	4466
2026-01-23 01:03:23.38	61.22	51.04	-42.6	-44.8	25.4	6.06e-01	0	37	0	436207616	57	4488
2026-01-23 01:03:24.66	62.00	51.38	-42.4	-44.6	25.6	6.06e-01	0	37	0	438829056	56	4623
2026-01-23 01:03:25.38	62.45	51.57	-42.5	-44.8	25.5	6.04e-01	0	37	0	439877632	56	4715
2026-01-23 01:03:26.66	63.26	51.90	-42.5	-44.8	25.4	6.01e-01	0	37	0	442499072	56	4714
2026-01-23 01:03:27.39	63.74	52.09	-42.6	-44.9	25.4	6.01e-01	0	37	0	444071936	56	4760
2026-01-23 01:03:28.66	64.57	52.42	-42.5	-44.7	25.5	6.01e-01	0	37	0	446169088	56	4693
2026-01-23 01:03:29.39	65.06	52.61	-42.6	-44.9	25.4	6.03e-01	0	37	0	447741952	56	4771
2026-01-23 01:03:30.67	65.93	52.93	-42.8	-45.1	25.2	6.00e-01	0	37	0	449839104	56	4893
2026-01-23 01:03:31.38	66.42	53.11	-42.9	-45.2	25.0	6.05e-01	0	37	0	451411968	56	4970
2026-01-23 01:03:32.66	67.33	53.43	-42.7	-45.1	25.2	6.00e-01	0	37	0	453509120	56	4873
2026-01-23 01:03:33.39	67.85	53.61	-42.7	-45.0	25.3	6.02e-01	0	38	0	455081984	56	4829
2026-01-23 01:03:34.74	68.84	53.93	-43.2	-45.5	24.8	6.02e-01	0	38	0	457703424	56	5145
2026-01-23 01:03:35.45	69.36	54.10	-43.0	-45.3	24.9	6.03e-01	0	37	0	458752000	56	5040
2026-01-23 01:03:36.73	70.33	54.40	-43.1	-45.5	24.8	6.03e-01	0	37	0	461373440	56	5106
2026-01-23 01:03:37.45	70.88	54.57	-43.3	-45.7	24.6	6.01e-01	0	37	0	462422016	57	4929
2026-01-23 01:03:38.73	71.88	54.86	-43.4	-45.8	24.6	6.02e-01	0	37	0	465043456	57	4992
2026-01-23 01:03:39.45	72.45	55.02	-43.2	-45.6	24.7	6.03e-01	0	37	0	466616320	57	4876
2026-01-23 01:03:40.73	73.48	55.30	-43.6	-46.1	24.3	6.03e-01	0	37	0	468713472	57	5176
2026-01-23 01:03:41.47	74.08	55.45	-43.5	-45.9	24.4	6.02e-01	0	37	0	470286336	57	5098
2026-01-23 01:03:42.75	75.14	55.72	-43.3	-45.7	24.6	6.02e-01	0	38	0	472383488	58	4685
2026-01-23 01:03:43.46	75.74	55.86	-43.3	-45.8	24.6	6.03e-01	0	37	0	473956352	58	4721
2026-01-23 01:03:44.74	76.83	56.12	-43.8	-46.3	24.1	6.02e-01	0	38	0	476577792	58	5002
2026-01-23 01:03:45.45	77.45	56.25	-43.8	-46.3	24.1	6.03e-01	0	37	0	477626368	58	5020
2026-01-23 01:03:46.73	78.57	56.49	-44.0	-46.5	23.8	6.01e-01	0	37	0	480247808	59	4865
2026-01-23 01:03:47.45	79.21	56.62	-44.3	-46.9	23.6	6.04e-01	0	37	0	481296384	59	5046
2026-01-23 01:03:48.74	80.38	56.85	-44.2	-46.8	23.7	6.02e-01	0	37	0	483917824	59	4997
2026-01-23 01:03:49.67	81.23	57.00	-44.4	-47.1	23.3	6.00e-01	0	37	0	485490688	59	5176
2026-01-23 01:03:50.67	82.15	57.16	-44.3	-47.0	23.5	6.01e-01	0	37	0	487587840	59	5120
2026-01-23 01:03:51.66	83.08	57.32	-44.2	-46.8	23.6	6.02e-01	0	37	0	489160704	59	5005
2026-01-23 01:03:52.66	84.02	57.47	-44.3	-47.0	23.5	6.01e-01	0	38	0	491257856	59	5132
2026-01-23 01:03:53.65	84.97	57.61	-43.9	-46.6	23.8	6.02e-01	0	37	0	492830720	59	4881
2026-01-23 01:03:54.65	85.93	57.74	-44.3	-47.1	23.4	6.02e-01	0	38	0	494927872	59	5181
2026-01-23 01:03:55.64	86.90	57.87	-44.2	-46.9	23.5	6.01e-01	0	37	0	497025024	59	5053
2026-01-23 01:03:56.64	87.88	57.99	-44.4	-47.1	23.3	6.02e-01	0	38	0	498597888	59	5216
2026-01-23 01:03:57.63	88.86	58.10	-44.4	-47.1	23.4	6.02e-01	0	37	0	500695040	59	5194
2026-01-23 01:03:58.69	89.93	58.21	-44.4	-47.2	23.2	6.04e-01	0	37	0	502267904	59	5250
2026-01-23 01:03:59.63	90.87	58.30	-44.3	-47.0	23.4	6.02e-01	0	38	0	504365056	59	5142
2026-01-23 01:04:00.76	92.02	58.40	-44.4	-47.2	23.3	6.01e-01	0	37	0	506462208	59	5257
2026-01-23 01:04:01.61	92.89	58.46	-44.7	-47.5	23.0	6.03e-01	0	37	0	508035072	59	5453
2026-01-23 01:04:02.98	94.30	58.56	-44.6	-47.3	22.8	6.02e-01	0	38	0	510656512	60	4991
2026-01-23 01:04:03.69	95.03	58.60	-44.7	-47.5	22.8	6.02e-01	0	37	0	511705088	60	5128
2026-01-23 01:04:05.18	96.58	58.68	-44.4	-47.3	23.1	6.07e-01	0	38	0	514850816	60	5028
2026-01-23 01:04:05.89	97.32	58.71	-44.2	-47.1	23.2	6.01e-01	0	37	0	515899392	60	4899
2026-01-23 01:04:07.17	98.66	58.76	-44.7	-47.4	22.9	6.00e-01	0	37	0	518520832	60	5083
2026-01-23 01:04:07.89	99.41	58.77	-44.2	-46.8	23.5	5.99e-01	0	37	0	519569408	60	4710
2026-01-23 01:04:09.17	100.76	58.80	-44.5	-47.3	23.1	6.01e-01	0	37	0	522190848	60	5020
2026-01-23 01:04:09.88	101.50	58.80	-44.0	-46.6	23.7	6.01e-01	0	37	0	523239424	60	4646
2026-01-23 01:04:11.16	102.85	58.80	-44.4	-47.1	23.4	6.03e-01	0	37	0	525860864	59	5189
2026-01-23 01:04:11.91	103.64	58.79	-44.4	-47.0	23.4	5.98e-01	0	37	0	527433728	59	5130
2026-01-23 01:04:13.19	104.98	58.77	-44.4	-47.1	23.3	6.02e-01	0	38	0	529530880	59	5184
2026-01-23 01:04:13.92	105.75	58.75	-44.5	-47.1	23.4	6.04e-01	0	37	0	531103744	59	5196
2026-01-23 01:04:15.21	107.10	58.71	-44.3	-46.9	23.5	6.02e-01	0	37	0	533200896	60	4774
2026-01-23 01:04:15.92	107.84	58.67	-44.3	-46.8	23.6	6.02e-01	0	37	0	534773760	60	4746
2026-01-23 01:04:17.19	109.16	58.61	-44.1	-46.8	23.5	6.02e-01	0	37	0	537395200	60	4736
2026-01-23 01:04:18.11	110.11	58.55	-44.1	-46.9	23.6	6.02e-01	0	37	0	538968064	59	5057
2026-01-23 01:04:19.11	111.14	58.48	-44.5	-47.3	23.2	6.00e-01	0	37	0	540540928	59	5304
2026-01-23 01:04:20.10	112.15	58.40	-44.2	-46.8	23.5	6.03e-01	0	37	0	542638080	59	5039
2026-01-23 01:04:21.09	113.16	58.32	-44.0	-46.6	23.9	6.01e-01	0	38	0	544735232	59	4884
2026-01-23 01:04:22.09	114.17	58.22	-44.3	-47.1	23.4	6.00e-01	0	37	0	546308096	59	5183
2026-01-23 01:04:23.08	115.16	58.12	-44.1	-46.9	23.6	6.03e-01	0	37	0	548405248	59	5044
2026-01-23 01:04:24.08	116.15	58.01	-44.0	-46.5	23.8	6.01e-01	0	37	0	549978112	59	4856
2026-01-23 01:04:25.07	117.13	57.89	-44.2	-46.8	23.6	6.03e-01	0	37	0	552075264	59	5006
2026-01-23 01:04:26.07	118.11	57.77	-44.4	-47.0	23.5	5.99e-01	0	37	0	553648128	59	5118
2026-01-23 01:04:27.06	119.07	57.63	-44.2	-46.7	23.7	6.00e-01	0	38	0	555745280	59	4977
2026-01-23 01:04:28.06	120.03	57.49	-43.9	-46.4	23.9	6.02e-01	0	37	0	557318144	59	4811
2026-01-23 01:04:29.05	120.97	57.35	-43.9	-46.3	24.1	6.02e-01	0	37	0	559415296	59	4757
2026-01-23 01:04:30.04	121.90	57.20	-44.0	-46.6	23.9	6.04e-01	0	37	0	561512448	59	4872
2026-01-23 01:04:31.04	122.82	57.04	-44.0	-46.5	23.9	6.02e-01	0	37	0	563085312	59	4838
2026-01-23 01:04:32.03	123.73	56.87	-43.5	-46.0	24.4	6.03e-01	0	37	0	565182464	59	4551
2026-01-23 01:04:33.02	124.63	56.70	-43.6	-46.1	24.2	6.02e-01	0	37	0	566755328	59	4640
2026-01-23 01:04:34.02	125.52	56.52	-43.5	-46.0	24.4	6.03e-01	0	37	0	568852480	59	4547
2026-01-23 01:04:35.01	126.40	56.34	-43.8	-46.3	24.1	6.00e-01	0	37	0	570425344	59	4716
2026-01-23 01:04:36.01	127.27	56.15	-43.6	-46.1	24.2	6.05e-01	0	37	0	572522496	59	4606
2026-01-23 01:04:37.00	128.12	55.95	-42.7	-45.0	25.2	6.01e-01	0	37	0	574095360	57	4585
2026-01-23 01:04:38.00	128.96	55.75	-43.5	-46.0	24.4	6.04e-01	0	37	0	576192512	57	5103
2026-01-23 01:04:39.00	129.80	55.54	-43.3	-45.7	24.6	6.03e-01	0	38	0	578289664	57	4973
2026-01-23 01:04:39.99	130.61	55.33	-42.9	-45.3	25.0	6.01e-01	0	37	0	579862528	57	4738
2026-01-23 01:04:40.99	131.42	55.12	-42.9	-45.3	24.9	6.02e-01	0	37	0	581959680	57	4750
2026-01-23 01:04:41.98	132.21	54.90	-43.0	-45.4	24.8	6.02e-01	0	37	0	583532544	57	4804
2026-01-23 01:04:42.98	133.00	54.67	-43.0	-45.4	24.9	6.02e-01	0	37	0	585629696	57	4780
2026-01-23 01:04:43.97	133.76	54.45	-43.1	-45.5	24.8	6.01e-01	0	37	0	587202560	57	4828
2026-01-23 01:04:44.97	134.52	54.21	-42.8	-45.1	25.1	6.02e-01	0	37	0	589299712	57	4618
2026-01-23 01:04:45.96	135.26	53.98	-42.9	-45.2	25.0	6.02e-01	0	37	0	590872576	57	4699
2026-01-23 01:04:46.96	136.00	53.74	-42.7	-45.1	25.2	6.06e-01	0	37	0	592969728	57	4614
2026-01-23 01:04:47.95	136.72	53.50	-43.1	-45.6	24.8	6.00e-01	0	38	0	595066880	57	4874
2026-01-23 01:04:48.94	137.42	53.25	-43.2	-45.7	24.6	5.99e-01	0	37	0	596639744	57	4927
2026-01-23 01:04:49.94	138.12	53.00	-42.8	-45.2	25.0	6.04e-01	0	38	0	598736896	57	4654
2026-01-23 01:04:50.93	138.80	52.75	-42.7	-45.0	25.2	6.04e-01	0	37	0	600309760	57	4560
2026-01-23 01:04:51.93	139.48	52.49	-43.0	-45.3	24.9	6.01e-01	0	38	0	602406912	57	4749
2026-01-23 01:04:52.94	140.15	52.23	-43.2	-45.6	24.7	6.01e-01	0	37	0	603979776	57	4891
2026-01-23 01:04:53.96	140.82	51.97	-43.3	-45.7	24.2	6.01e-01	0	38	0	606076928	57	4967
2026-01-23 01:04:54.99	141.48	51.70	-42.9	-45.3	25.0	6.02e-01	0	38	0	608174080	57	4725
2026-01-23 01:04:55.98	142.10	51.43	-43.2	-45.6	24.7	6.01e-01	0	37	0	609746944	57	4896
2026-01-23 01:04:56.98	142.72	51.17	-43.2	-45.6	24.6	6.01e-01	0	37	0	611844096	57	4912
2026-01-23 01:04:57.97	143.32	50.90	-43.2	-45.6	24.7	6.00e-01	0	38	0	613416960	57	4888
2026-01-23 01:04:58.97	143.92	50.63	-43.5	-45.9	24.5	6.00e-01	0	38	0	615514112	57	5067
2026-01-23 01:04:59.96	144.50	50.36	-43.9	-46.4	24.0	6.01e-01	0	38	0	617086976	58	5072
2026-01-23 01:05:00.96	145.07	50.09	-43.6	-46.1	24.3	6.04e-01	0	38	0	619184128	58	4875
2026-01-23 01:05:01.95	145.63	49.82	-43.1	-45.5	24.8	6.02e-01	0	37	0	621281280	58	4550
2026-01-23 01:05:02.94	146.18	49.54	-43.6	-46.0	24.2	6.05e-01	0	37	0	622854144	58	4864
2026-01-23 01:05:03.94	146.73	49.27	-44.0	-46.6	23.9	6.03e-01	0	37	0	624951296	58	5167
2026-01-23 01:05:04.93	147.26	48.99	-43.9	-46.4	23.9	6.03e-01	0	37	0	626524160	58	5074
2026-01-23 01:05:05.93	147.78	48.71	-43.9	-46.4	24.0	6.03e-01	0	38	0	628621312	58	5058
2026-01-23 01:05:06.92	148.30	48.44	-43.8	-46.3	24.0	6.03e-01	0	37	0	630194176	58	5032
2026-01-23 01:05:07.92	148.80	48.16	-43.7	-46.2	24.2	6.00e-01	0	38	0	632291328	58	4946
2026-01-23 01:05:08.91	149.30	47.88	-43.8	-46.2	24.1	6.03e-01	0	38	0	633864192	58	4966
2026-01-23 01:05:09.95	149.81	47.59	-43.7	-46.2	23.8	6.04e-01	0	37	0	635961344	58	4952
2026-01-23 01:05:10.98	150.30	47.30	-43.7	-46.2	24.2	6.04e-01	0	37	0	638058496	58	4942
2026-01-23 01:05:12.00	150.78	47.02	-43.6	-46.1	24.3	6.03e-01	0	37	0	640155648	58	4912
2026-01-23 01:05:13.00	151.25	46.74	-43.7	-46.2	24.2	6.00e-01	0	37	0	641728512	58	4935
2026-01-23 01:05:14.00	151.70	46.46	-43.7	-46.2	24.2	6.02e-01	0	38	0	643825664	58	4938
2026-01-23 01:05:14.99	152.14	46.18	-43.2	-45.5	24.7	6.02e-01	0	38	0	645398528	58	4585
2026-01-23 01:05:15.99	152.58	45.90	-43.3	-45.6	24.7	6.02e-01	0	37	0	647495680	58	4631
2026-01-23 01:05:16.98	153.01	45.62	-43.6	-46.1	24.2	6.00e-01	0	37	0	649068544	58	4902
2026-01-23 01:05:17.98	153.43	45.34	-43.6	-46.0	24.3	6.02e-01	0	38	0	651165696	58	4868
2026-01-23 01:05:18.97	153.84	45.06	-43.2	-45.5	24.7	6.00e-01	0	38	0	652738560	58	4596
2026-01-23 01:05:19.97	154.25	44.79	-43.0	-45.3	25.0	6.03e-01	0	37	0	654835712	58	4464
2026-01-23 01:05:20.97	154.66	44.51	-43.2	-45.6	24.7	6.02e-01	0	37	0	656932864	58	4600
2026-01-23 01:05:21.96	155.05	44.23	-43.4	-45.8	24.5	6.03e-01	0	38	0	658505728	58	4722
2026-01-23 01:05:22.96	155.44	43.96	-43.6	-46.0	24.3	6.02e-01	0	38	0	660602880	58	4866
2026-01-23 01:05:23.95	155.81	43.68	-43.5	-46.0	24.3	6.03e-01	0	38	0	662175744	58	4853
2026-01-23 01:05:24.95	156.19	43.41	-43.6	-46.0	24.3	6.02e-01	0	37	0	664272896	58	4861
2026-01-23 01:05:25.94	156.55	43.13	-43.5	-46.0	24.4	6.01e-01	0	37	0	665845760	58	4821
2026-01-23 01:05:26.93	156.91	42.86	-43.5	-46.0	24.4	6.03e-01	0	38	0	667942912	58	4823
2026-01-23 01:05:27.96	157.28	42.58	-43.7	-46.1	24.2	6.01e-01	0	37	0	670040064	58	4897
2026-01-23 01:05:28.99	157.64	42.30	-43.8	-46.3	24.1	6.03e-01	0	38	0	671612928	58	4988
2026-01-23 01:05:29.98	157.98	42.03	-43.7	-46.2	24.1	6.03e-01	0	38	0	673710080	58	4958
2026-01-23 01:05:30.98	158.32	41.76	-43.7	-46.1	24.2	6.00e-01	0	38	0	675282944	58	4925
2026-01-23 01:05:31.97	158.65	41.50	-43.9	-46.5	23.9	6.02e-01	0	38	0	677380096	58	5105
2026-01-23 01:05:32.97	158.98	41.23	-44.0	-46.5	23.8	6.02e-01	0	37	0	679477248	58	5144
2026-01-23 01:05:33.96	159.29	40.96	-43.9	-46.4	23.9	6.02e-01	0	37	0	681050112	58	5078
2026-01-23 01:05:34.96	159.61	40.70	-44.0	-46.5	23.9	6.03e-01	0	37	0	683147264	58	5121
2026-01-23 01:05:35.95	159.92	40.43	-44.2	-46.8	23.6	6.03e-01	0	37	0	684720128	59	5014
2026-01-23 01:05:36.95	160.23	40.17	-44.2	-46.8	23.6	6.04e-01	0	37	0	686817280	59	5014
2026-01-23 01:05:37.94	160.53	39.91	-44.0	-46.5	23.9	6.00e-01	0	37	0	688390144	59	4848
2026-01-23 01:05:38.93	160.82	39.65	-44.0	-46.6	23.8	6.04e-01	0	38	0	690487296	59	4879
2026-01-23 01:05:39.93	161.11	39.39	-43.9	-46.4	23.9	6.00e-01	0	37	0	692584448	59	4785
2026-01-23 01:05:40.92	161.40	39.14	-43.6	-46.1	24.2	6.03e-01	0	37	0	694157312	59	4638
2026-01-23 01:05:41.92	161.68	38.88	-43.7	-46.2	24.1	6.03e-01	0	38	0	696254464	59	4694
2026-01-23 01:05:42.91	161.95	38.62	-43.9	-46.4	23.9	6.01e-01	0	37	0	697827328	59	4809
2026-01-23 01:05:44.00	162.25	38.35	-43.9	-46.4	23.9	6.01e-01	0	37	0	699924480	59	4807
2026-01-23 01:05:44.85	162.48	38.13	-43.9	-46.4	23.9	6.02e-01	0	38	0	701497344	59	4799
2026-01-23 01:05:45.99	162.79	37.84	-43.8	-46.3	24.0	6.03e-01	0	38	0	703594496	59	4749
2026-01-23 01:05:46.84	163.01	37.63	-43.8	-46.3	24.0	6.01e-01	0	37	0	705167360	59	4758
2026-01-23 01:05:47.98	163.30	37.35	-43.7	-46.3	24.1	6.02e-01	0	37	0	707264512	59	4720
2026-01-23 01:05:48.83	163.52	37.13	-43.6	-46.2	24.1	6.03e-01	0	37	0	708837376	59	4699
2026-01-23 01:05:49.97	163.80	36.85	-43.7	-46.3	24.1	6.03e-01	0	38	0	710934528	59	4720
2026-01-23 01:05:50.83	164.01	36.64	-43.5	-46.1	24.2	6.00e-01	0	37	0	712507392	59	4611
2026-01-23 01:05:51.96	164.29	36.37	-43.3	-45.9	24.4	6.04e-01	0	37	0	714604544	58	4769
2026-01-23 01:05:52.82	164.49	36.16	-43.1	-45.6	24.7	6.01e-01	0	37	0	716177408	58	4609
2026-01-23 01:05:53.95	164.76	35.88	-43.0	-45.5	24.8	6.02e-01	0	38	0	718798848	58	4560
2026-01-23 01:05:54.80	164.96	35.68	-43.1	-45.5	24.8	6.03e-01	0	37	0	720371712	58	4560
2026-01-23 01:05:55.94	165.22	35.41	-42.9	-45.3	24.9	6.00e-01	0	37	0	722468864	57	4713
2026-01-23 01:05:56.79	165.41	35.21	-42.9	-45.3	24.9	6.03e-01	0	38	0	724041728	57	4706
2026-01-23 01:05:58.02	165.68	34.92	-42.9	-45.2	24.9	6.03e-01	0	38	0	726138880	57	4698
2026-01-23 01:05:58.88	165.87	34.72	-42.5	-44.8	25.4	6.02e-01	0	38	0	727711744	57	4487
2026-01-23 01:06:00.08	166.13	34.44	-42.4	-44.7	25.5	6.01e-01	0	38	0	729808896	56	4695
2026-01-23 01:06:00.93	166.31	34.24	-42.4	-44.7	25.4	6.01e-01	0	37	0	731906048	56	4678
2026-01-23 01:06:02.13	166.56	33.96	-42.5	-44.8	25.3	6.03e-01	0	37	0	734003200	56	4750
2026-01-23 01:06:02.98	166.74	33.77	-42.6	-44.9	25.3	6.02e-01	0	38	0	735576064	56	4779
2026-01-23 01:06:04.12	166.97	33.51	-42.5	-44.9	25.3	6.04e-01	0	38	0	737673216	56	4780
2026-01-23 01:06:04.97	167.14	33.32	-42.5	-44.8	25.3	6.00e-01	0	38	0	739246080	56	4744
2026-01-23 01:06:06.11	167.36	33.06	-42.4	-44.7	25.4	6.02e-01	0	37	0	741343232	56	4703
2026-01-23 01:06:06.96	167.53	32.87	-42.3	-44.5	25.5	6.03e-01	0	38	0	742916096	56	4596
2026-01-23 01:06:08.10	167.75	32.62	-42.2	-44.4	25.6	6.04e-01	0	37	0	745013248	56	4539
2026-01-23 01:06:09.04	167.93	32.41	-42.1	-44.4	25.7	6.03e-01	0	38	0	747110400	56	4520
2026-01-23 01:06:10.04	168.11	32.20	-42.1	-44.4	25.7	6.00e-01	0	37	0	748683264	56	4544
2026-01-23 01:06:11.03	168.30	31.98	-42.2	-44.5	25.6	6.02e-01	0	38	0	750780416	56	4588
2026-01-23 01:06:12.03	168.48	31.76	-42.2	-44.4	25.7	6.02e-01	0	38	0	752353280	56	4541
2026-01-23 01:06:13.02	168.66	31.55	-42.2	-44.5	25.6	6.04e-01	0	38	0	754450432	56	4568
2026-01-23 01:06:14.02	168.83	31.34	-42.2	-44.5	25.4	6.04e-01	0	38	0	756023296	56	4553
2026-01-23 01:06:15.01	169.01	31.13	-42.0	-44.3	25.8	6.01e-01	0	37	0	758120448	56	4443
2026-01-23 01:06:16.01	169.18	30.92	-42.1	-44.3	25.8	6.04e-01	0	37	0	759693312	56	4473
2026-01-23 01:06:17.00	169.35	30.71	-42.0	-44.3	25.8	6.02e-01	0	38	0	761790464	56	4453
2026-01-23 01:06:18.00	169.52	30.50	-42.1	-44.4	25.7	6.06e-01	0	37	0	763887616	56	4524
2026-01-23 01:06:18.99	169.68	30.30	-42.1	-44.4	25.7	6.03e-01	0	38	0	765460480	56	4526
2026-01-23 01:06:19.99	169.85	30.09	-42.2	-44.5	24.3	6.03e-01	0	37	0	767557632	56	4581
2026-01-23 01:06:20.99	170.01	29.89	-42.2	-44.5	25.5	6.03e-01	0	38	0	769130496	56	4566
2026-01-23 01:06:21.98	170.17	29.69	-42.2	-44.5	25.5	6.04e-01	0	37	0	771227648	56	4582
2026-01-23 01:06:22.98	170.32	29.49	-42.1	-44.4	25.6	6.03e-01	0	38	0	772800512	56	4500
2026-01-23 01:06:23.97	170.48	29.29	-42.2	-44.5	25.6	6.03e-01	0	38	0	774897664	56	4564
2026-01-23 01:06:24.97	170.63	29.09	-42.2	-44.5	25.6	6.04e-01	0	38	0	776470528	56	4581
2026-01-23 01:06:25.96	170.78	28.90	-42.2	-44.5	25.6	6.03e-01	0	37	0	778567680	56	4585
2026-01-23 01:06:26.96	170.93	28.70	-42.2	-44.5	25.6	6.02e-01	0	37	0	780664832	56	4559
2026-01-23 01:06:27.95	171.08	28.51	-42.2	-44.5	25.6	6.04e-01	0	38	0	782237696	56	4573
2026-01-23 01:06:28.95	171.23	28.31	-42.2	-44.5	25.6	6.03e-01	0	37	0	784334848	56	4570
2026-01-23 01:06:29.94	171.37	28.12	-42.2	-44.5	25.0	6.03e-01	0	38	0	785907712	56	4592
2026-01-23 01:06:30.97	171.52	27.93	-42.4	-44.7	25.5	6.02e-01	0	37	0	788004864	56	4664
2026-01-23 01:06:31.97	171.66	27.74	-42.5	-44.8	25.3	6.03e-01	0	38	0	789577728	56	4719
2026-01-23 01:06:32.96	171.80	27.55	-42.5	-44.9	25.2	6.01e-01	0	37	0	791674880	56	4762
2026-01-23 01:06:33.96	171.94	27.36	-42.6	-44.9	25.2	6.04e-01	0	38	0	793772032	56	4809
2026-01-23 01:06:34.95	172.07	27.18	-42.6	-45.0	25.2	6.05e-01	0	37	0	795344896	56	4824
2026-01-23 01:06:35.95	172.21	26.99	-42.7	-45.1	25.1	6.01e-01	0	38	0	797442048	56	4878
2026-01-23 01:06:36.94	172.34	26.81	-42.8	-45.2	25.0	6.02e-01	0	38	0	799014912	56	4945
2026-01-23 01:06:37.94	172.47	26.63	-42.8	-45.1	25.0	6.02e-01	0	38	0	801112064	56	4907
2026-01-23 01:06:38.94	172.60	26.45	-42.9	-45.3	24.8	6.00e-01	0	37	0	803209216	56	4989
2026-01-23 01:06:39.93	172.73	26.27	-42.9	-45.3	24.8	6.02e-01	0	38	0	804782080	56	5029
2026-01-23 01:06:40.93	172.86	26.09	-42.9	-45.4	24.7	6.03e-01	0	38	0	806879232	56	5054
2026-01-23 01:06:41.92	172.98	25.91	-42.8	-45.2	24.9	6.01e-01	0	38	0	808452096	56	4977
2026-01-23 01:06:42.92	173.11	25.74	-42.7	-45.1	24.9	6.04e-01	0	38	0	810549248	56	4914
2026-01-23 01:06:43.95	173.23	25.56	-42.8	-45.2	24.9	5.99e-01	0	38	0	812122112	56	4971
2026-01-23 01:06:44.97	173.36	25.38	-42.8	-45.2	24.9	6.03e-01	0	37	0	814219264	56	4957
2026-01-23 01:06:46.00	173.48	25.20	-42.9	-45.3	24.8	6.02e-01	0	37	0	816316416	56	4998
2026-01-23 01:06:47.00	173.60	25.03	-43.0	-45.4	24.7	6.03e-01	0	38	0	817889280	56	5072
2026-01-23 01:06:47.99	173.72	24.86	-43.0	-45.4	24.7	6.01e-01	0	37	0	819986432	56	5090
2026-01-23 01:06:48.99	173.84	24.69	-43.0	-45.5	24.7	6.02e-01	0	37	0	821559296	56	5112
2026-01-23 01:06:49.98	173.95	24.52	-43.0	-45.5	24.7	6.02e-01	0	38	0	823656448	56	5139
2026-01-23 01:06:50.97	174.06	24.35	-43.1	-45.5	24.6	6.01e-01	0	38	0	825229312	56	5153
2026-01-23 01:06:51.97	174.18	24.19	-43.0	-45.4	24.7	6.03e-01	0	37	0	827326464	56	5096
2026-01-23 01:06:52.96	174.29	24.02	-43.1	-45.5	24.6	6.02e-01	0	37	0	829423616	56	5153
2026-01-23 01:06:53.96	174.40	23.86	-43.1	-45.6	24.6	6.04e-01	0	37	0	830996480	56	5168
2026-01-23 01:06:54.95	174.50	23.70	-43.1	-45.6	24.5	6.04e-01	0	38	0	833093632	57	4924
2026-01-23 01:06:55.95	174.61	23.53	-43.1	-45.6	24.5	6.01e-01	0	37	0	834666496	57	4898
2026-01-23 01:06:56.94	174.72	23.37	-43.1	-45.6	24.6	6.02e-01	0	37	0	836763648	57	4881
2026-01-23 01:06:57.94	174.82	23.21	-43.1	-45.6	24.6	6.02e-01	0	37	0	838336512	57	4909
2026-01-23 01:06:58.97	174.93	23.05	-43.1	-45.6	24.6	6.03e-01	0	37	0	840433664	57	4877
2026-01-23 01:06:59.96	175.04	22.89	-43.2	-45.7	24.4	6.01e-01	0	38	0	842530816	57	4980
2026-01-23 01:07:00.96	175.14	22.73	-43.0	-45.5	24.6	6.06e-01	0	38	0	844103680	57	4847
2026-01-23 01:07:01.95	175.24	22.58	-42.9	-45.4	24.7	6.01e-01	0	38	0	846200832	57	4814
2026-01-23 01:07:02.94	175.34	22.42	-42.9	-45.4	24.6	6.01e-01	0	37	0	847773696	57	4808
2026-01-23 01:07:03.94	175.44	22.27	-43.0	-45.5	24.6	6.00e-01	0	37	0	849870848	57	4848
2026-01-23 01:07:04.93	175.54	22.11	-43.0	-45.5	24.6	6.01e-01	0	38	0	851968000	57	4854
2026-01-23 01:07:05.93	175.63	21.96	-43.0	-45.5	24.6	6.03e-01	0	37	0	853540864	57	4845
2026-01-23 01:07:06.92	175.73	21.81	-43.0	-45.5	24.6	6.05e-01	0	37	0	855113728	57	4869
2026-01-23 01:07:07.92	175.83	21.66	-42.9	-45.4	24.7	6.00e-01	0	37	0	857210880	57	4782
2026-01-23 01:07:08.91	175.92	21.51	-42.8	-45.3	24.3	6.01e-01	0	37	0	859308032	57	4746
2026-01-23 01:07:09.91	176.01	21.36	-42.8	-45.3	24.8	6.05e-01	0	37	0	860880896	57	4739
2026-01-23 01:07:10.90	176.11	21.21	-42.9	-45.4	24.7	6.01e-01	0	37	0	862978048	57	4776
2026-01-23 01:07:11.90	176.20	21.06	-42.9	-45.4	24.7	6.02e-01	0	38	0	864550912	57	4773
2026-01-23 01:07:12.89	176.29	20.92	-42.9	-45.4	24.7	6.00e-01	0	37	0	866648064	57	4790
2026-01-23 01:07:13.95	176.38	20.76	-42.8	-45.3	24.8	6.04e-01	0	38	0	868745216	57	4726
2026-01-23 01:07:14.88	176.47	20.63	-42.7	-45.2	24.9	6.01e-01	0	38	0	870318080	57	4681
2026-01-23 01:07:15.87	176.55	20.49	-42.8	-45.2	24.9	6.01e-01	0	37	0	871890944	57	4693
2026-01-23 01:07:16.87	176.64	20.34	-42.8	-45.2	24.9	6.02e-01	0	37	0	873988096	57	4685
2026-01-23 01:07:17.86	176.73	20.20	-42.7	-45.1	24.6	6.03e-01	0	38	0	876085248	57	4648
2026-01-23 01:07:18.86	176.81	20.06	-42.7	-45.2	24.9	6.03e-01	0	38	0	877658112	57	4656
2026-01-23 01:07:19.86	176.90	19.92	-42.6	-45.1	25.0	6.03e-01	0	38	0	879755264	57	4600
2026-01-23 01:07:20.85	176.98	19.78	-42.6	-45.0	25.0	6.00e-01	0	37	0	881328128	57	4594
2026-01-23 01:07:21.84	177.07	19.64	-42.6	-45.0	25.1	6.03e-01	0	37	0	883425280	57	4574
2026-01-23 01:07:22.84	177.15	19.50	-42.6	-45.0	25.0	6.00e-01	0	37	0	885522432	57	4573
2026-01-23 01:07:23.83	177.23	19.37	-42.6	-45.1	25.0	6.02e-01	0	38	0	887095296	57	4618
2026-01-23 01:07:24.83	177.31	19.23	-42.7	-45.1	25.0	6.02e-01	0	37	0	888668160	57	4633
2026-01-23 01:07:25.82	177.39	19.09	-42.8	-45.2	24.9	6.01e-01	0	38	0	890765312	57	4701
2026-01-23 01:07:26.82	177.47	18.96	-42.7	-45.2	24.9	6.01e-01	0	37	0	892862464	57	4690
2026-01-23 01:07:27.86	177.56	18.82	-42.8	-45.2	24.8	6.03e-01	0	37	0	894435328	57	4703
2026-01-23 01:07:28.84	177.63	18.69	-42.7	-45.2	24.8	6.02e-01	0	37	0	896532480	57	4686
2026-01-23 01:07:29.91	177.72	18.54	-42.8	-45.3	24.8	6.04e-01	0	37	0	898629632	57	4712
2026-01-23 01:07:30.76	177.78	18.43	-42.7	-45.3	24.8	6.00e-01	0	38	0	900202496	57	4707
2026-01-23 01:07:32.11	177.89	18.25	-42.8	-45.3	24.7	6.03e-01	0	37	0	902823936	57	4751
2026-01-23 01:07:32.81	177.94	18.16	-42.8	-45.3	24.7	6.01e-01	0	38	0	903872512	57	4747
2026-01-23 01:07:34.30	178.05	17.97	-42.8	-45.4	24.6	6.02e-01	0	37	0	906493952	57	4804
2026-01-23 01:07:35.01	178.10	17.88	-42.8	-45.5	24.6	6.01e-01	0	37	0	908066816	57	4820
2026-01-23 01:07:36.29	178.20	17.71	-42.7	-45.3	24.8	6.02e-01	0	38	0	910688256	57	4739
2026-01-23 01:07:37.01	178.25	17.62	-42.7	-45.3	24.7	5.98e-01	0	37	0	911736832	57	4737
2026-01-23 01:07:38.29	178.34	17.46	-42.7	-45.3	24.7	6.01e-01	0	37	0	914358272	57	4748
2026-01-23 01:07:39.02	178.40	17.36	-42.7	-45.3	24.7	6.00e-01	0	37	0	915406848	57	4728
2026-01-23 01:07:40.30	178.49	17.20	-42.7	-45.3	24.7	6.01e-01	0	37	0	918028288	57	4717
2026-01-23 01:07:41.01	178.54	17.11	-42.8	-45.4	24.7	6.00e-01	0	38	0	919076864	57	4784
2026-01-23 01:07:42.29	178.63	16.95	-42.8	-45.4	24.7	6.03e-01	0	38	0	921698304	57	4761
2026-01-23 01:07:43.08	178.68	16.86	-42.7	-45.3	24.7	6.05e-01	0	37	0	923271168	57	4728
2026-01-23 01:07:44.56	178.79	16.67	-42.7	-45.2	24.8	6.01e-01	0	37	0	925892608	57	4674
2026-01-23 01:07:45.27	178.83	16.59	-42.7	-45.3	24.7	6.02e-01	0	38	0	927465472	57	4711
2026-01-23 01:07:46.55	178.92	16.43	-42.8	-45.3	24.7	6.01e-01	0	37	0	929562624	57	4748
2026-01-23 01:07:47.26	178.97	16.34	-42.8	-45.3	24.7	6.04e-01	0	38	0	931135488	57	4734
2026-01-23 01:07:48.54	179.05	16.19	-42.7	-45.2	24.8	6.03e-01	0	38	0	933232640	57	4686
2026-01-23 01:07:49.25	179.10	16.11	-42.7	-45.2	24.8	6.03e-01	0	37	0	934805504	57	4704
2026-01-23 01:07:50.83	179.20	15.92	-42.8	-45.3	24.7	6.03e-01	0	37	0	937426944	57	4745
2026-01-23 01:07:51.44	179.24	15.84	-42.8	-45.4	24.7	6.02e-01	0	38	0	938999808	57	4781
2026-01-23 01:07:53.01	179.34	15.66	-42.7	-45.3	24.7	6.04e-01	0	38	0	941621248	57	4748
2026-01-23 01:07:53.62	179.38	15.59	-42.7	-45.3	24.7	6.01e-01	0	38	0	942669824	57	4739
2026-01-23 01:07:55.19	179.48	15.40	-42.7	-45.3	24.7	6.04e-01	0	37	0	945815552	57	4736
2026-01-23 01:07:55.82	179.52	15.33	-42.7	-45.3	24.7	6.01e-01	0	37	0	946864128	57	4752
2026-01-23 01:07:57.37	179.62	15.15	-42.7	-45.3	24.7	6.02e-01	0	38	0	950009856	57	4756
2026-01-23 01:07:58.07	179.66	15.07	-42.7	-45.3	24.7	6.03e-01	0	37	0	951058432	57	4730
2026-01-23 01:07:59.58	179.75	14.90	-42.8	-45.4	24.6	6.02e-01	0	38	0	954204160	57	4775
2026-01-23 01:08:00.28	179.80	14.82	-42.7	-45.3	24.7	6.01e-01	0	37	0	955252736	57	4721
2026-01-23 01:08:01.66	179.88	14.66	-42.7	-45.3	24.7	6.01e-01	0	37	0	957874176	57	4720
2026-01-23 01:08:02.37	179.92	14.58	-42.7	-45.2	24.7	6.03e-01	0	37	0	959447040	57	4704
2026-01-23 01:08:03.65	180.00	14.44	-42.8	-45.3	24.7	6.01e-01	0	38	0	961544192	57	4750
2026-01-23 01:08:04.69	180.06	14.33	-42.8	-45.3	24.7	5.99e-01	0	38	0	963641344	57	4736
2026-01-23 01:08:05.94	180.13	14.19	-42.7	-45.2	24.7	6.00e-01	0	37	0	966262784	57	4694
2026-01-23 01:08:06.79	180.18	14.09	-42.7	-45.2	24.7	6.02e-01	0	38	0	967835648	57	4700
2026-01-23 01:08:07.93	180.25	13.97	-42.7	-45.3	24.7	6.02e-01	0	37	0	969932800	57	4713
2026-01-23 01:08:08.78	180.29	13.88	-42.8	-45.4	24.6	6.03e-01	0	38	0	971505664	57	4760
2026-01-23 01:08:09.92	180.36	13.75	-42.7	-45.3	24.6	6.02e-01	0	38	0	973602816	57	4739
2026-01-23 01:08:10.77	180.41	13.66	-42.8	-45.4	24.6	6.02e-01	0	38	0	975175680	57	4813
2026-01-23 01:08:11.91	180.47	13.54	-42.8	-45.5	24.5	5.98e-01	0	38	0	977272832	57	4815
2026-01-23 01:08:12.76	180.52	13.45	-42.8	-45.4	24.6	6.03e-01	0	38	0	978845696	57	4791
2026-01-23 01:08:13.90	180.58	13.33	-42.8	-45.5	24.5	6.01e-01	0	38	0	980942848	57	4830
2026-01-23 01:08:14.75	180.63	13.24	-42.7	-45.4	24.6	6.02e-01	0	38	0	982515712	57	4775
2026-01-23 01:08:15.98	180.69	13.11	-42.8	-45.5	24.5	6.00e-01	0	38	0	985137152	57	4835
2026-01-23 01:08:16.83	180.74	13.02	-42.7	-45.4	24.5	6.01e-01	0	37	0	986710016	57	4814
2026-01-23 01:08:18.03	180.80	12.89	-42.8	-45.5	24.4	5.99e-01	0	38	0	988807168	57	4857
2026-01-23 01:08:18.88	180.85	12.80	-42.7	-45.5	24.4	6.00e-01	0	37	0	990380032	57	4835
2026-01-23 01:08:20.08	180.91	12.68	-42.7	-45.5	24.5	6.02e-01	0	38	0	992477184	57	4839
2026-01-23 01:08:20.94	180.95	12.59	-42.7	-45.4	24.5	6.01e-01	0	38	0	994050048	57	4813
2026-01-23 01:08:22.14	181.02	12.47	-42.8	-45.6	24.4	6.00e-01	0	37	0	996671488	57	4875
2026-01-23 01:08:22.99	181.06	12.38	-42.8	-45.6	24.3	6.01e-01	0	37	0	998244352	57	4907
2026-01-23 01:08:24.13	181.12	12.27	-42.8	-45.6	24.3	6.00e-01	0	37	0	1000341504	57	4900
2026-01-23 01:08:24.98	181.16	12.18	-42.8	-45.7	24.3	6.02e-01	0	37	0	1001914368	57	4945
2026-01-23 01:08:26.12	181.22	12.07	-42.8	-45.6	24.3	6.04e-01	0	37	0	1004011520	57	4910
2026-01-23 01:08:26.97	181.26	11.98	-42.8	-45.5	24.4	6.02e-01	0	38	0	1005584384	57	4846
2026-01-23 01:08:28.11	181.32	11.87	-42.9	-45.7	24.2	6.01e-01	0	37	0	1007681536	57	4941
2026-01-23 01:08:28.96	181.36	11.78	-42.8	-45.6	24.3	6.05e-01	0	38	0	1009254400	57	4911
2026-01-23 01:08:30.10	181.42	11.67	-42.8	-45.6	24.3	5.99e-01	0	37	0	1011351552	57	4905
2026-01-23 01:08:31.15	181.47	11.57	-42.9	-45.7	24.2	6.06e-01	0	38	0	1013448704	57	4966
2026-01-23 01:08:32.04	181.51	11.48	-42.9	-45.6	24.2	6.02e-01	0	38	0	1015021568	57	4926
2026-01-23 01:08:33.17	181.56	11.37	-42.9	-45.7	24.2	6.01e-01	0	37	0	1017118720	57	4954
2026-01-23 01:08:34.03	181.60	11.28	-42.9	-45.6	24.2	6.05e-01	0	37	0	1018691584	57	4903
2026-01-23 01:08:35.16	181.66	11.18	-42.9	-45.6	24.2	6.02e-01	0	38	0	1020788736	57	4902
2026-01-23 01:08:36.36	181.71	11.06	-42.9	-45.7	24.1	6.01e-01	0	37	0	1022885888	57	4946
2026-01-23 01:08:37.22	181.75	10.98	-43.0	-45.8	24.0	6.02e-01	0	38	0	1024458752	57	5023
2026-01-23 01:08:38.35	181.81	10.87	-43.0	-45.8	24.0	6.01e-01	0	37	0	1027080192	57	5020
2026-01-23 01:08:39.20	181.85	10.79	-43.0	-45.8	24.0	6.03e-01	0	37	0	1028653056	57	5034
2026-01-23 01:08:40.34	181.90	10.68	-43.1	-45.8	24.0	6.00e-01	0	37	0	1030750208	57	5041
2026-01-23 01:08:41.19	181.94	10.60	-43.1	-45.9	23.9	6.02e-01	0	38	0	1032323072	57	5099
2026-01-23 01:08:42.35	181.99	10.49	-43.2	-46.0	23.8	6.03e-01	0	38	0	1034420224	57	5158
2026-01-23 01:08:43.20	182.03	10.41	-43.2	-46.0	23.9	6.05e-01	0	38	0	1035993088	57	5107
2026-01-23 01:08:44.34	182.08	10.31	-43.3	-46.1	23.8	6.01e-01	0	38	0	1038090240	57	5184
2026-01-23 01:08:45.19	182.12	10.23	-43.3	-46.1	23.7	6.01e-01	0	38	0	1039663104	57	5197
2026-01-23 01:08:46.33	182.17	10.12	-43.4	-46.2	23.6	6.03e-01	0	38	0	1041760256	57	5224
2026-01-23 01:08:47.18	182.20	10.04	-43.5	-46.2	23.6	5.99e-01	0	38	0	1043333120	57	5274
2026-01-23 01:08:48.52	182.26	9.92	-43.4	-46.1	23.7	6.02e-01	0	38	0	1045954560	57	5202
2026-01-23 01:08:49.24	182.29	9.85	-43.4	-46.1	23.7	6.00e-01	0	38	0	1047527424	57	5209
2026-01-23 01:08:50.51	182.35	9.74	-43.4	-46.2	23.7	6.04e-01	0	38	0	1049624576	57	5229
2026-01-23 01:08:51.24	182.38	9.67	-43.4	-46.2	23.6	6.03e-01	0	38	0	1051197440	57	5242
2026-01-23 01:08:52.51	182.43	9.56	-43.4	-46.2	22.9	6.02e-01	0	38	0	1053294592	57	5234
2026-01-23 01:08:53.24	182.46	9.49	-43.4	-46.2	23.7	6.03e-01	0	38	0	1054867456	57	5242
2026-01-23 01:08:54.52	182.52	9.38	-43.4	-46.2	23.7	6.03e-01	0	37	0	1056964608	57	5244
2026-01-23 01:08:55.26	182.55	9.31	-43.4	-46.2	23.6	6.04e-01	0	37	0	1058537472	57	5231
2026-01-23 01:08:56.54	182.60	9.20	-43.5	-46.3	23.6	6.03e-01	0	38	0	1061158912	57	5301
2026-01-23 01:08:57.25	182.63	9.14	-43.5	-46.3	23.6	6.01e-01	0	37	0	1062207488	57	5295
2026-01-23 01:08:58.53	182.68	9.02	-44.2	-47.3	22.9	6.01e-01	0	37	0	1064828928	58	5612
2026-01-23 01:08:59.24	182.71	8.96	-49.1	-68.8	3.9	7.58e-01	0	38	104	1065353216	69	35607
2026-01-23 01:09:00.52	182.76	8.85	-49.5	-70.6	3.8	7.43e-01	0	38	104	1065353216	70	41313
2026-01-23 01:09:01.22	182.79	8.79	-50.7	-71.3	3.8	7.46e-01	0	38	104	1065353216	71	42330
2026-01-23 01:09:02.55	182.84	8.67	-50.3	-71.5	3.8	7.42e-01	0	38	104	1065353216	71	43328
2026-01-23 01:09:03.26	182.87	8.61	-50.9	-71.5	3.8	7.45e-01	0	38	104	1065353216	72	40840
2026-01-23 01:09:04.60	182.92	8.50	-51.3	-71.6	3.8	7.47e-01	0	38	104	1065353216	73	38732
2026-01-23 01:09:05.31	182.95	8.43	-51.0	-71.6	3.8	7.47e-01	0	37	104	1065353216	73	38910
2026-01-23 01:09:06.65	183.00	8.32	-51.6	-71.6	3.8	7.45e-01	0	38	104	1065353216	73	39065
2026-01-23 01:09:07.36	183.03	8.26	-51.6	-71.6	3.8	7.44e-01	0	38	104	1065353216	73	39122
2026-01-23 01:09:08.70	183.08	8.15	-51.4	-71.6	3.8	7.43e-01	0	38	104	1065353216	73	39099
2026-01-23 01:09:09.41	183.11	8.09	-51.7	-71.7	3.8	7.48e-01	0	38	104	1065353216	73	39192
2026-01-23 01:09:10.75	183.16	7.97	-51.5	-71.7	3.8	7.47e-01	0	38	104	1065353216	74	37043
2026-01-23 01:09:11.46	183.19	7.91	-51.6	-71.7	3.8	7.49e-01	0	38	104	1065353216	74	37085
2026-01-23 01:09:12.81	183.24	7.80	-51.7	-71.7	3.8	7.46e-01	0	38	104	1065353216	74	37128
2026-01-23 01:09:13.52	183.26	7.74	-51.7	-71.7	3.8	7.46e-01	0	38	104	1065353216	74	37105
2026-01-23 01:09:14.85	183.31	7.63	-51.7	-71.7	3.8	7.44e-01	0	38	104	1065353216	74	37150
2026-01-23 01:09:15.56	183.34	7.57	-51.8	-71.7	3.8	7.48e-01	0	38	104	1065353216	74	37118
2026-01-23 01:09:16.84	183.39	7.47	-51.7	-71.7	3.8	7.49e-01	0	38	104	1065353216	74	37194
2026-01-23 01:09:17.56	183.41	7.41	-50.4	-71.2	3.8	7.46e-01	0	38	104	1065353216	73	37180
2026-01-23 01:09:18.84	183.46	7.30	-51.1	-71.7	3.8	7.47e-01	0	38	104	1065353216	73	39369
2026-01-23 01:09:19.56	183.49	7.24	-51.7	-71.7	3.8	7.48e-01	0	38	104	1065353216	74	37123
2026-01-23 01:09:20.84	183.53	7.14	-51.4	-71.7	3.8	7.45e-01	0	38	104	1065353216	74	37160
2026-01-23 01:09:21.56	183.56	7.08	-50.5	-71.7	3.8	7.47e-01	0	38	104	1065353216	73	39339
2026-01-23 01:09:22.84	183.60	6.98	-51.4	-71.7	3.8	7.45e-01	0	38	104	1065353216	73	39343
2026-01-23 01:09:23.55	183.63	6.92	-51.6	-71.7	3.8	7.48e-01	0	38	104	1065353216	73	39375
2026-01-23 01:09:24.84	183.67	6.82	-50.5	-71.7	3.8	7.46e-01	0	38	104	1065353216	73	39359
2026-01-23 01:09:25.55	183.70	6.76	-51.2	-71.7	3.8	7.44e-01	0	38	104	1065353216	73	39400
2026-01-23 01:09:26.83	183.74	6.66	-51.1	-71.7	3.8	7.47e-01	0	38	104	1065353216	73	39159
2026-01-23 01:09:27.54	183.77	6.60	-51.1	-71.7	3.8	7.41e-01	0	38	104	1065353216	73	39155
2026-01-23 01:09:28.82	183.81	6.50	-51.1	-71.7	3.8	7.48e-01	0	38	104	1065353216	73	39137
2026-01-23 01:09:29.53	183.83	6.45	-51.1	-71.6	3.8	7.46e-01	0	37	104	1065353216	73	39091
2026-01-23 01:09:30.80	183.88	6.35	-51.1	-71.7	3.8	7.49e-01	0	38	104	1065353216	73	39145
2026-01-23 01:09:31.53	183.90	6.29	-51.1	-71.7	3.8	7.47e-01	0	38	104	1065353216	73	39138
2026-01-23 01:09:32.81	183.94	6.19	-51.1	-71.6	3.8	7.48e-01	0	38	104	1065353216	73	39092
2026-01-23 01:09:33.53	183.97	6.13	-51.1	-71.6	3.8	7.48e-01	0	38	104	1065353216	73	39043
2026-01-23 01:09:34.81	184.01	6.03	-51.1	-71.6	3.8	7.44e-01	0	38	104	1065353216	73	39107
2026-01-23 01:09:35.52	184.03	5.98	-51.1	-71.6	3.8	7.46e-01	0	38	104	1065353216	73	39103
2026-01-23 01:09:36.80	184.08	5.88	-51.1	-71.6	3.8	7.48e-01	0	37	104	1065353216	73	39046
2026-01-23 01:09:37.51	184.10	5.83	-51.1	-71.6	3.8	7.49e-01	0	38	104	1065353216	73	39070
2026-01-23 01:09:38.78	184.14	5.73	-51.1	-71.6	3.8	7.48e-01	0	38	104	1065353216	73	39096
2026-01-23 01:09:39.51	184.16	5.67	-51.1	-71.6	3.8	7.46e-01	0	38	104	1065353216	73	39070
2026-01-23 01:09:40.78	184.21	5.58	-51.1	-71.6	3.8	7.48e-01	0	38	104	1065353216	73	39108
2026-01-23 01:09:41.51	184.23	5.52	-51.1	-71.7	3.8	7.45e-01	0	38	104	1065353216	73	39158
2026-01-23 01:09:42.79	184.27	5.42	-51.1	-71.6	3.8	7.47e-01	0	38	104	1065353216	73	39038
2026-01-23 01:09:43.50	184.29	5.37	-51.1	-71.6	3.8	7.48e-01	0	38	104	1065353216	73	39102
2026-01-23 01:09:44.77	184.33	5.28	-51.1	-71.6	3.8	7.44e-01	0	38	104	1065353216	73	39086
2026-01-23 01:09:45.50	184.36	5.22	-51.1	-71.6	3.8	7.48e-01	0	38	104	1065353216	73	39010
2026-01-23 01:09:46.77	184.39	5.13	-51.1	-71.6	3.8	7.46e-01	0	38	104	1065353216	73	39051
2026-01-23 01:09:47.50	184.42	5.07	-51.1	-71.6	3.8	7.44e-01	0	38	104	1065353216	73	39049
2026-01-23 01:09:48.77	184.46	4.98	-51.1	-71.6	3.8	7.45e-01	0	38	104	1065353216	73	39086
2026-01-23 01:09:49.49	184.48	4.92	-51.1	-71.6	3.8	7.51e-01	0	38	104	1065353216	73	39106

#Closed at: 2026-01-23 01:09:50
#Recorded file [1065 MB]: D:/Data/31040_260123_035830.dat