passes_logs/2026/01/23/T1/T1__20260123_125420_FENGYUN_3D_rec.log

#Pass ID: 20260123_125420_FENGYUN 3D
#Satellite: FENGYUN 3D
#Configuration: FENGYUN 3D
#almurnet v.1.7.20251203
#Start time: 2026-01-23 12:54:23

#Version: 2.0.20230620
#Station: T1
#Location: 37.570604 lon 55.790049 lat
#TLE: 1 43010U 17072A   26022.96745493  .00000490  00000+0  25355-3 0  9999
#TLE: 2 43010  98.9955 354.9072 0002484  95.6139 264.5320 14.19700039424383

#Time	Az	El	Level	Level2	SNR	BER	BlckErr	Temp	State	Recorded	gain1	gain2
2026-01-23 12:54:23.07	189.49	5.14	-47.3	-60.7	3.8	8.47e-01	0	35	0	0	66	16512
2026-01-23 12:54:24.06	189.54	5.21	-47.3	-60.5	3.8	8.47e-01	0	35	104	0	65	17140
2026-01-23 12:54:25.05	189.60	5.28	-47.3	-60.3	3.8	8.46e-01	0	36	104	0	65	16812
2026-01-23 12:54:26.04	189.65	5.35	-47.3	-60.1	3.8	8.46e-01	0	36	104	0	65	16455
2026-01-23 12:54:27.04	189.70	5.41	-47.3	-59.9	3.8	8.47e-01	0	36	104	0	65	16035
2026-01-23 12:54:28.03	189.76	5.48	-47.3	-59.8	3.8	8.48e-01	0	36	104	0	65	15773
2026-01-23 12:54:29.02	189.81	5.55	-47.3	-59.7	3.8	8.47e-01	0	36	104	0	65	15706
2026-01-23 12:54:30.01	189.87	5.62	-47.3	-59.7	3.8	8.48e-01	0	36	104	0	65	15583
2026-01-23 12:54:31.01	189.92	5.69	-47.3	-59.8	3.8	8.46e-01	0	36	104	0	65	15852
2026-01-23 12:54:32.00	189.98	5.76	-47.3	-59.9	3.8	8.47e-01	0	36	104	0	65	15948
2026-01-23 12:54:32.99	190.03	5.82	-47.3	-60.1	3.8	8.47e-01	0	36	104	0	65	16332
2026-01-23 12:54:33.99	190.09	5.89	-47.3	-60.2	3.8	8.47e-01	0	36	104	0	65	16524
2026-01-23 12:54:34.98	190.14	5.96	-47.3	-60.1	3.8	8.47e-01	0	36	104	0	65	16482
2026-01-23 12:54:35.97	190.20	6.03	-47.3	-60.1	3.8	8.47e-01	0	36	104	0	65	16415
2026-01-23 12:54:36.97	190.25	6.10	-47.3	-59.9	3.8	8.47e-01	0	36	104	0	65	16052
2026-01-23 12:54:37.96	190.31	6.17	-47.3	-59.9	3.8	8.47e-01	0	36	104	0	65	15952
2026-01-23 12:54:38.95	190.37	6.24	-47.3	-59.8	3.8	8.47e-01	0	36	104	0	65	15869
2026-01-23 12:54:39.95	190.42	6.31	-47.3	-59.5	3.8	8.47e-01	0	36	104	0	65	15384
2026-01-23 12:54:40.94	190.48	6.38	-47.3	-59.7	3.8	8.46e-01	0	36	104	0	65	15587
2026-01-23 12:54:41.93	190.54	6.45	-47.3	-59.6	3.8	8.46e-01	0	36	104	0	65	15501
2026-01-23 12:54:42.93	190.60	6.52	-47.3	-59.5	3.8	8.47e-01	0	36	104	0	65	15252
2026-01-23 12:54:43.92	190.65	6.59	-47.3	-60.1	3.8	8.46e-01	0	36	104	0	65	16401
2026-01-23 12:54:44.91	190.71	6.66	-47.3	-60.3	3.8	8.47e-01	0	36	104	0	65	16846
2026-01-23 12:54:45.91	190.77	6.73	-47.3	-60.1	3.8	8.46e-01	0	36	104	0	65	16366
2026-01-23 12:54:46.90	190.83	6.81	-47.3	-60.1	3.8	8.47e-01	0	36	104	0	65	16425
2026-01-23 12:54:47.89	190.89	6.88	-47.3	-60.2	3.8	8.47e-01	0	36	104	0	65	16664
2026-01-23 12:54:48.88	190.95	6.95	-47.3	-59.7	3.8	8.46e-01	0	36	104	0	65	15725
2026-01-23 12:54:49.88	191.01	7.02	-47.2	-58.7	3.8	8.46e-01	0	36	104	0	65	13944
2026-01-23 12:54:50.87	191.07	7.09	-47.0	-57.5	4.1	8.43e-01	0	37	0	0	65	12206
2026-01-23 12:54:51.86	191.13	7.16	-46.9	-57.0	4.2	8.38e-01	0	37	0	0	65	11444
2026-01-23 12:54:52.86	191.19	7.24	-46.9	-56.8	4.3	8.34e-01	0	37	0	0	65	11193
2026-01-23 12:54:53.85	191.25	7.31	-47.0	-57.3	4.1	8.37e-01	0	37	0	0	65	11905
2026-01-23 12:54:54.84	191.31	7.38	-47.2	-58.8	3.8	8.45e-01	0	37	104	0	65	14110
2026-01-23 12:54:55.84	191.37	7.45	-47.3	-60.4	3.8	8.46e-01	0	37	104	0	65	17000
2026-01-23 12:54:56.83	191.43	7.53	-47.3	-60.1	3.8	8.48e-01	0	37	104	0	65	16344
2026-01-23 12:54:57.82	191.49	7.60	-46.9	-56.5	4.3	8.44e-01	0	37	0	0	65	10877
2026-01-23 12:54:58.82	191.56	7.67	-46.1	-52.6	6.7	6.47e-01	0	37	0	1048576	64	7352
2026-01-23 12:54:59.81	191.62	7.75	-44.8	-49.4	9.9	2.52e-02	0	37	0	7340032	61	6059
2026-01-23 12:55:00.80	191.68	7.82	-43.5	-46.9	12.5	8.71e-04	0	37	0	12582912	59	5097
2026-01-23 12:55:01.80	191.75	7.89	-42.2	-45.1	14.4	3.40e-06	0	37	0	18874368	56	4884
2026-01-23 12:55:02.79	191.81	7.97	-40.7	-43.2	16.1	0.00e+00	0	37	0	24117248	53	4699
2026-01-23 12:55:03.78	191.87	8.04	-39.8	-42.1	17.3	0.00e+00	0	37	0	29360128	51	4644
2026-01-23 12:55:04.78	191.94	8.12	-39.2	-41.4	18.0	0.00e+00	0	37	0	35651584	50	4502
2026-01-23 12:55:05.77	192.00	8.19	-38.6	-40.7	18.5	0.00e+00	0	37	0	40894464	49	4441
2026-01-23 12:55:06.76	192.07	8.26	-38.4	-40.4	18.8	0.00e+00	0	37	0	46137344	48	4543
2026-01-23 12:55:07.76	192.13	8.34	-38.4	-40.5	18.7	0.00e+00	0	37	0	51380224	48	4575
2026-01-23 12:55:08.75	192.20	8.42	-38.6	-40.7	18.6	0.00e+00	0	37	0	57671680	48	4670
2026-01-23 12:55:09.74	192.26	8.49	-39.0	-41.1	18.2	0.00e+00	0	37	0	62914560	48	4921
2026-01-23 12:55:10.74	192.33	8.57	-39.5	-41.8	17.6	0.00e+00	0	37	0	69206016	49	5012
2026-01-23 12:55:11.73	192.39	8.64	-40.3	-42.8	16.7	0.00e+00	0	37	0	74448896	51	4991
2026-01-23 12:55:12.72	192.46	8.72	-41.2	-43.8	15.5	0.00e+00	0	37	0	79691776	53	5034
2026-01-23 12:55:13.72	192.53	8.79	-42.1	-45.0	14.4	1.10e-06	0	37	0	84934656	54	5430
2026-01-23 12:55:14.71	192.59	8.87	-43.3	-46.7	12.8	2.51e-05	0	37	0	91226112	57	5568
2026-01-23 12:55:15.70	192.66	8.95	-44.2	-48.2	11.3	6.09e-04	0	37	0	96468992	59	5878
2026-01-23 12:55:16.70	192.73	9.02	-45.0	-49.7	9.7	9.63e-03	0	37	0	101711872	60	6602
2026-01-23 12:55:17.69	192.80	9.10	-40.1	-42.5	16.9	8.95e-03	0	37	0	108003328	52	4549
2026-01-23 12:55:18.68	192.87	9.18	-40.5	-42.9	16.6	0.00e+00	0	37	0	113246208	51	5051
2026-01-23 12:55:19.68	192.94	9.26	-46.1	-52.7	6.9	8.00e-04	0	37	0	119537664	62	8285
2026-01-23 12:55:20.67	193.01	9.33	-45.4	-50.7	8.6	1.41e-01	0	37	0	123731968	62	6624
2026-01-23 12:55:21.67	193.08	9.41	-40.7	-43.1	16.3	2.68e-04	0	37	0	128974848	53	4621
2026-01-23 12:55:22.66	193.15	9.49	-40.6	-43.0	16.4	0.00e+00	0	37	0	135266304	53	4597
2026-01-23 12:55:23.66	193.22	9.57	-40.6	-43.0	16.4	0.00e+00	0	37	0	140509184	53	4590
2026-01-23 12:55:24.65	193.29	9.65	-39.9	-42.1	17.3	0.00e+00	0	37	0	145752064	51	4635
2026-01-23 12:55:25.64	193.36	9.72	-39.0	-41.1	18.3	0.00e+00	0	37	0	152043520	50	4350
2026-01-23 12:55:26.64	193.43	9.80	-38.9	-41.0	18.4	0.00e+00	0	37	0	157286400	49	4589
2026-01-23 12:55:27.63	193.50	9.88	-38.9	-41.1	18.3	0.00e+00	0	37	0	162529280	49	4602
2026-01-23 12:55:28.63	193.57	9.96	-38.5	-40.5	18.9	0.00e+00	0	37	0	168820736	49	4323
2026-01-23 12:55:29.62	193.65	10.04	-38.1	-40.1	19.3	0.00e+00	0	37	0	174063616	48	4357
2026-01-23 12:55:30.62	193.72	10.12	-37.7	-39.7	19.4	0.00e+00	0	37	0	179306496	47	4419
2026-01-23 12:55:31.61	193.79	10.20	-37.6	-39.6	19.5	0.00e+00	0	37	0	185597952	47	4361
2026-01-23 12:55:32.61	193.87	10.28	-37.7	-39.6	19.5	0.00e+00	0	37	0	190840832	47	4378
2026-01-23 12:55:33.61	193.94	10.36	-37.7	-39.7	19.4	0.00e+00	0	37	0	196083712	47	4425
2026-01-23 12:55:34.60	194.02	10.44	-37.7	-39.7	19.4	0.00e+00	0	37	0	202375168	47	4418
2026-01-23 12:55:35.59	194.09	10.52	-37.7	-39.7	19.4	0.00e+00	0	37	0	207618048	47	4436
2026-01-23 12:55:36.59	194.17	10.60	-37.7	-39.7	19.4	0.00e+00	0	37	0	212860928	47	4421
2026-01-23 12:55:37.59	194.24	10.69	-37.7	-39.8	19.4	0.00e+00	0	37	0	219152384	47	4446
2026-01-23 12:55:38.58	194.32	10.77	-37.8	-39.8	19.3	0.00e+00	0	37	0	224395264	47	4489
2026-01-23 12:55:39.58	194.40	10.85	-37.7	-39.7	19.4	0.00e+00	0	37	0	229638144	47	4406
2026-01-23 12:55:40.58	194.47	10.93	-37.6	-39.6	19.5	0.00e+00	0	37	0	235929600	47	4386
2026-01-23 12:55:41.57	194.55	11.01	-37.6	-39.6	19.5	0.00e+00	0	38	0	241172480	47	4386
2026-01-23 12:55:42.57	194.63	11.10	-37.7	-39.7	19.5	0.00e+00	0	38	0	246415360	47	4409
2026-01-23 12:55:43.56	194.71	11.18	-37.6	-39.6	19.5	0.00e+00	0	38	0	252706816	47	4352
2026-01-23 12:55:44.55	194.79	11.26	-37.6	-39.6	19.5	0.00e+00	0	37	0	257949696	47	4341
2026-01-23 12:55:45.55	194.86	11.35	-37.6	-39.6	19.6	0.00e+00	0	38	0	263192576	47	4343
2026-01-23 12:55:46.54	194.94	11.43	-37.6	-39.5	19.6	0.00e+00	0	37	0	269484032	47	4337
2026-01-23 12:55:47.54	195.02	11.51	-37.5	-39.5	19.6	0.00e+00	0	38	0	274726912	47	4314
2026-01-23 12:55:48.53	195.10	11.60	-37.6	-39.5	19.6	0.00e+00	0	37	0	279969792	47	4336
2026-01-23 12:55:49.53	195.19	11.68	-37.6	-39.5	19.6	0.00e+00	0	37	0	286261248	47	4335
2026-01-23 12:55:50.52	195.27	11.77	-37.5	-39.5	19.7	0.00e+00	0	38	0	291504128	47	4294
2026-01-23 12:55:51.52	195.35	11.85	-37.5	-39.5	19.6	0.00e+00	0	38	0	296747008	47	4306
2026-01-23 12:55:52.51	195.43	11.94	-37.5	-39.5	19.6	0.00e+00	0	37	0	303038464	47	4321
2026-01-23 12:55:53.51	195.51	12.02	-37.5	-39.5	19.6	0.00e+00	0	38	0	308281344	46	4579
2026-01-23 12:55:54.50	195.60	12.11	-37.6	-39.5	19.6	0.00e+00	0	38	0	313524224	46	4593
2026-01-23 12:55:55.50	195.68	12.19	-37.5	-39.5	19.7	0.00e+00	0	38	0	319815680	46	4546
2026-01-23 12:55:56.49	195.77	12.28	-37.4	-39.4	19.7	0.00e+00	0	38	0	325058560	46	4508
2026-01-23 12:55:57.48	195.85	12.36	-37.3	-39.3	19.8	0.00e+00	0	37	0	330301440	46	4456
2026-01-23 12:55:58.48	195.93	12.45	-37.3	-39.3	19.9	0.00e+00	0	37	0	336592896	46	4452
2026-01-23 12:55:59.47	196.02	12.54	-37.4	-39.4	19.8	0.00e+00	0	38	0	341835776	46	4509
2026-01-23 12:56:00.47	196.11	12.62	-37.3	-39.3	19.9	0.00e+00	0	38	0	347078656	46	4460
2026-01-23 12:56:01.46	196.19	12.71	-37.2	-39.2	20.0	0.00e+00	0	38	0	353370112	46	4408
2026-01-23 12:56:02.46	196.28	12.80	-37.2	-39.1	20.0	0.00e+00	0	38	0	358612992	46	4386
2026-01-23 12:56:03.45	196.37	12.89	-37.2	-39.1	20.0	0.00e+00	0	38	0	363855872	46	4381
2026-01-23 12:56:04.45	196.46	12.97	-37.2	-39.1	20.0	0.00e+00	0	38	0	370147328	46	4371
2026-01-23 12:56:05.44	196.54	13.06	-37.1	-39.1	20.1	0.00e+00	0	37	0	375390208	46	4342
2026-01-23 12:56:06.44	196.63	13.15	-37.2	-39.1	20.0	0.00e+00	0	38	0	380633088	46	4385
2026-01-23 12:56:07.43	196.72	13.24	-37.1	-39.1	20.1	0.00e+00	0	38	0	386924544	46	4349
2026-01-23 12:56:08.43	196.81	13.33	-37.2	-39.1	20.0	0.00e+00	0	37	0	392167424	46	4391
2026-01-23 12:56:09.42	196.90	13.42	-37.1	-39.1	20.1	0.00e+00	0	38	0	398458880	46	4343
2026-01-23 12:56:10.42	196.99	13.51	-37.0	-39.0	20.1	0.00e+00	0	37	0	403701760	46	4308
2026-01-23 12:56:11.41	197.09	13.60	-37.1	-39.0	20.1	0.00e+00	0	38	0	408944640	46	4338
2026-01-23 12:56:12.40	197.18	13.69	-37.0	-38.9	20.2	0.00e+00	0	38	0	414187520	45	4526
2026-01-23 12:56:13.40	197.27	13.78	-36.9	-38.9	20.2	0.00e+00	0	38	0	420478976	45	4515
2026-01-23 12:56:14.39	197.36	13.87	-37.1	-39.0	20.1	0.00e+00	0	38	0	425721856	45	4581
2026-01-23 12:56:15.39	197.46	13.96	-36.9	-38.9	20.2	0.00e+00	0	38	0	432013312	45	4500
2026-01-23 12:56:16.38	197.55	14.05	-36.8	-38.8	20.3	0.00e+00	0	37	0	437256192	45	4452
2026-01-23 12:56:17.38	197.65	14.14	-36.8	-38.7	20.4	0.00e+00	0	38	0	442499072	45	4406
2026-01-23 12:56:18.37	197.74	14.23	-36.8	-38.8	20.4	0.00e+00	0	38	0	448790528	45	4443
2026-01-23 12:56:19.37	197.84	14.32	-36.8	-38.8	20.3	0.00e+00	0	38	0	454033408	45	4448
2026-01-23 12:56:20.36	197.94	14.42	-36.8	-38.7	20.4	0.00e+00	0	38	0	459276288	45	4429
2026-01-23 12:56:21.36	198.03	14.51	-36.8	-38.7	20.4	0.00e+00	0	38	0	464519168	45	4438
2026-01-23 12:56:22.35	198.13	14.60	-36.7	-38.6	20.4	0.00e+00	0	38	0	470810624	45	4391
2026-01-23 12:56:23.35	198.23	14.70	-36.7	-38.6	20.4	0.00e+00	0	38	0	476053504	45	4387
2026-01-23 12:56:24.34	198.33	14.79	-36.7	-38.6	20.5	0.00e+00	0	38	0	482344960	45	4378
2026-01-23 12:56:25.34	198.43	14.88	-36.8	-38.7	20.5	0.00e+00	0	38	0	487587840	45	4401
2026-01-23 12:56:26.33	198.53	14.98	-36.7	-38.6	20.5	0.00e+00	0	38	0	492830720	45	4349
2026-01-23 12:56:27.32	198.63	15.07	-36.7	-38.6	20.5	0.00e+00	0	38	0	499122176	45	4356
2026-01-23 12:56:28.32	198.73	15.16	-36.6	-38.5	20.6	0.00e+00	0	38	0	504365056	45	4308
2026-01-23 12:56:29.32	198.83	15.26	-36.6	-38.5	20.6	0.00e+00	0	38	0	509607936	45	4327
2026-01-23 12:56:30.31	198.94	15.35	-36.5	-38.4	20.7	0.00e+00	0	38	0	514850816	45	4272
2026-01-23 12:56:31.30	199.04	15.45	-36.6	-38.4	20.7	0.00e+00	0	38	0	521142272	45	4268
2026-01-23 12:56:32.30	199.14	15.55	-36.4	-38.2	20.8	0.00e+00	0	38	0	526385152	44	4441
2026-01-23 12:56:33.29	199.25	15.64	-36.3	-38.1	21.0	0.00e+00	0	38	0	532676608	44	4365
2026-01-23 12:56:34.29	199.35	15.74	-36.2	-38.0	21.0	0.00e+00	0	38	0	537919488	44	4330
2026-01-23 12:56:35.28	199.46	15.83	-36.3	-38.1	21.0	0.00e+00	0	38	0	543162368	44	4369
2026-01-23 12:56:36.27	199.56	15.93	-36.3	-38.1	20.9	0.00e+00	0	38	0	549453824	44	4381
2026-01-23 12:56:37.27	199.67	16.03	-36.3	-38.2	20.9	0.00e+00	0	38	0	554696704	44	4404
2026-01-23 12:56:38.27	199.78	16.13	-36.4	-38.2	20.9	0.00e+00	0	38	0	559939584	44	4428
2026-01-23 12:56:39.26	199.89	16.22	-36.3	-38.2	20.9	0.00e+00	0	38	0	565182464	44	4412
2026-01-23 12:56:40.26	200.00	16.32	-36.4	-38.2	20.9	0.00e+00	0	38	0	571473920	44	4423
2026-01-23 12:56:41.25	200.11	16.42	-36.4	-38.2	20.9	0.00e+00	0	38	0	576716800	44	4430
2026-01-23 12:56:42.25	200.22	16.52	-36.3	-38.2	20.9	0.00e+00	0	38	0	583008256	44	4404
2026-01-23 12:56:43.24	200.33	16.62	-36.2	-38.0	21.1	0.00e+00	0	38	0	588251136	44	4320
2026-01-23 12:56:44.24	200.44	16.72	-36.1	-38.0	21.1	0.00e+00	0	38	0	593494016	44	4296
2026-01-23 12:56:45.23	200.56	16.82	-36.1	-38.0	21.1	0.00e+00	0	38	0	599785472	44	4302
2026-01-23 12:56:46.23	200.67	16.92	-36.2	-38.0	21.0	0.00e+00	0	38	0	605028352	44	4338
2026-01-23 12:56:47.23	200.78	17.02	-36.1	-38.0	21.1	0.00e+00	0	38	0	610271232	44	4313
2026-01-23 12:56:48.22	200.90	17.12	-36.0	-37.9	21.2	0.00e+00	0	38	0	616562688	44	4248
2026-01-23 12:56:49.22	201.02	17.22	-35.8	-37.6	21.3	0.00e+00	0	38	0	621805568	43	4379
2026-01-23 12:56:50.21	201.13	17.32	-35.8	-37.7	21.2	0.00e+00	0	38	0	627048448	43	4406
2026-01-23 12:56:51.20	201.25	17.42	-35.7	-37.5	21.3	0.00e+00	0	38	0	633339904	43	4331
2026-01-23 12:56:52.20	201.37	17.52	-35.6	-37.5	21.4	0.00e+00	0	38	0	638582784	43	4293
2026-01-23 12:56:53.19	201.49	17.62	-35.6	-37.4	21.5	0.00e+00	0	38	0	643825664	43	4256
2026-01-23 12:56:54.19	201.61	17.73	-35.6	-37.4	21.4	0.00e+00	0	38	0	650117120	43	4282
2026-01-23 12:56:55.18	201.73	17.83	-35.6	-37.4	21.5	0.00e+00	0	38	0	655360000	43	4273
2026-01-23 12:56:56.17	201.85	17.93	-35.5	-37.3	21.3	0.00e+00	0	38	0	660602880	43	4216
2026-01-23 12:56:57.17	201.97	18.03	-35.5	-37.3	21.6	0.00e+00	0	38	0	665845760	43	4217
2026-01-23 12:56:58.16	202.09	18.14	-35.5	-37.3	21.6	0.00e+00	0	38	0	672137216	43	4199
2026-01-23 12:56:59.16	202.22	18.24	-35.5	-37.2	21.7	0.00e+00	0	38	0	677380096	42	4425
2026-01-23 12:57:00.15	202.34	18.34	-35.3	-37.1	21.7	0.00e+00	0	38	0	683671552	42	4367
2026-01-23 12:57:01.15	202.47	18.45	-35.3	-37.1	21.7	0.00e+00	0	38	0	688914432	42	4372
2026-01-23 12:57:02.14	202.59	18.55	-35.4	-37.2	21.7	0.00e+00	0	38	0	694157312	42	4393
2026-01-23 12:57:03.14	202.72	18.66	-35.3	-37.1	21.8	0.00e+00	0	38	0	700448768	42	4356
2026-01-23 12:57:04.13	202.85	18.76	-35.4	-37.2	21.7	0.00e+00	0	38	0	705691648	42	4392
2026-01-23 12:57:05.12	202.97	18.87	-35.4	-37.2	21.7	0.00e+00	0	38	0	710934528	42	4419
2026-01-23 12:57:06.12	203.10	18.98	-35.5	-37.3	21.6	0.00e+00	0	38	0	717225984	42	4473
2026-01-23 12:57:07.11	203.23	19.08	-35.6	-37.4	21.6	0.00e+00	0	38	0	722468864	42	4503
2026-01-23 12:57:08.11	203.37	19.19	-35.7	-37.5	21.4	0.00e+00	0	38	0	727711744	42	4551
2026-01-23 12:57:09.11	203.50	19.30	-35.7	-37.6	21.4	0.00e+00	0	38	0	734003200	42	4601
2026-01-23 12:57:10.10	203.63	19.40	-35.7	-37.6	21.4	0.00e+00	0	38	0	739246080	42	4606
2026-01-23 12:57:11.10	203.77	19.51	-35.5	-37.4	21.6	0.00e+00	0	38	0	744488960	42	4497
2026-01-23 12:57:12.09	203.90	19.62	-35.5	-37.3	21.6	0.00e+00	0	38	0	750780416	42	4473
2026-01-23 12:57:13.09	204.04	19.73	-35.4	-37.2	21.7	0.00e+00	0	38	0	756023296	42	4438
2026-01-23 12:57:14.08	204.17	19.84	-35.3	-37.1	21.8	0.00e+00	0	38	0	761266176	42	4369
2026-01-23 12:57:15.08	204.31	19.94	-35.3	-37.1	21.8	0.00e+00	0	38	0	767557632	42	4361
2026-01-23 12:57:16.07	204.45	20.05	-35.4	-37.2	21.7	0.00e+00	0	38	0	772800512	42	4424
2026-01-23 12:57:17.07	204.59	20.16	-35.3	-37.1	21.7	0.00e+00	0	38	0	778043392	42	4385
2026-01-23 12:57:18.06	204.73	20.27	-35.1	-36.9	21.9	0.00e+00	0	38	0	784334848	42	4257
2026-01-23 12:57:19.05	204.87	20.38	-34.9	-36.7	22.1	0.00e+00	0	38	0	789577728	41	4415
2026-01-23 12:57:20.05	205.01	20.49	-34.9	-36.7	22.1	0.00e+00	0	38	0	794820608	41	4415
2026-01-23 12:57:21.05	205.16	20.60	-34.9	-36.7	22.1	0.00e+00	0	38	0	801112064	41	4419
2026-01-23 12:57:22.04	205.30	20.72	-34.8	-36.6	22.2	0.00e+00	0	38	0	806354944	41	4350
2026-01-23 12:57:23.04	205.45	20.83	-34.8	-36.5	22.2	0.00e+00	0	38	0	811597824	41	4323
2026-01-23 12:57:24.03	205.59	20.94	-34.8	-36.6	22.2	0.00e+00	0	38	0	817889280	41	4371
2026-01-23 12:57:25.03	205.74	21.05	-34.9	-36.6	22.1	0.00e+00	0	38	0	823132160	41	4381
2026-01-23 12:57:26.02	205.89	21.16	-35.0	-36.8	22.0	0.00e+00	0	38	0	829423616	41	4454
2026-01-23 12:57:27.02	206.04	21.28	-35.1	-36.9	21.9	0.00e+00	0	38	0	834666496	41	4509
2026-01-23 12:57:28.01	206.19	21.39	-35.2	-37.0	21.8	0.00e+00	0	38	0	839909376	41	4571
2026-01-23 12:57:29.01	206.34	21.50	-35.3	-37.0	21.8	0.00e+00	0	38	0	845152256	41	4594
2026-01-23 12:57:30.00	206.50	21.61	-35.3	-37.1	21.7	0.00e+00	0	38	0	851443712	41	4643
2026-01-23 12:57:31.00	206.65	21.73	-35.3	-37.1	21.8	0.00e+00	0	38	0	856686592	41	4614
2026-01-23 12:57:31.99	206.81	21.84	-35.3	-37.1	21.8	0.00e+00	0	38	0	861929472	41	4600
2026-01-23 12:57:32.99	206.96	21.96	-35.2	-37.0	21.8	0.00e+00	0	38	0	868220928	41	4559
2026-01-23 12:57:33.98	207.12	22.07	-35.2	-37.0	21.9	0.00e+00	0	38	0	873463808	41	4546
2026-01-23 12:57:34.98	207.28	22.19	-35.0	-36.8	22.0	0.00e+00	0	38	0	879755264	41	4463
2026-01-23 12:57:35.97	207.44	22.30	-34.9	-36.7	22.1	0.00e+00	0	38	0	884998144	41	4413
2026-01-23 12:57:36.96	207.60	22.42	-35.0	-36.7	22.1	0.00e+00	0	38	0	890241024	41	4437
2026-01-23 12:57:37.96	207.76	22.53	-34.8	-36.6	22.2	0.00e+00	0	38	0	895483904	41	4365
2026-01-23 12:57:38.95	207.92	22.65	-34.8	-36.6	22.2	0.00e+00	0	38	0	901775360	41	4362
2026-01-23 12:57:39.95	208.09	22.77	-34.9	-36.6	22.2	0.00e+00	0	38	0	907018240	41	4375
2026-01-23 12:57:40.95	208.26	22.88	-34.8	-36.5	22.2	0.00e+00	0	38	0	912261120	41	4333
2026-01-23 12:57:41.94	208.42	23.00	-34.7	-36.4	22.4	0.00e+00	0	38	0	918552576	41	4265
2026-01-23 12:57:42.94	208.59	23.12	-34.7	-36.4	22.4	0.00e+00	0	38	0	923795456	41	4266
2026-01-23 12:57:43.93	208.76	23.24	-34.6	-36.3	22.5	0.00e+00	0	38	0	930086912	41	4217
2026-01-23 12:57:44.92	208.93	23.35	-34.5	-36.2	22.6	0.00e+00	0	38	0	935329792	41	4173
2026-01-23 12:57:45.92	209.10	23.47	-34.4	-36.2	22.6	0.00e+00	0	38	0	940572672	40	4399
2026-01-23 12:57:46.92	209.28	23.59	-34.6	-36.3	22.5	0.00e+00	0	38	0	945815552	40	4479
2026-01-23 12:57:47.91	209.45	23.71	-34.6	-36.3	22.4	0.00e+00	0	38	0	952107008	40	4487
2026-01-23 12:57:48.90	209.63	23.83	-34.5	-36.2	22.5	0.00e+00	0	38	0	957349888	40	4416
2026-01-23 12:57:49.90	209.80	23.95	-34.5	-36.2	22.5	0.00e+00	0	38	0	962592768	40	4421
2026-01-23 12:57:50.89	209.98	24.07	-34.5	-36.2	22.5	0.00e+00	0	38	0	968884224	40	4412
2026-01-23 12:57:51.88	210.16	24.19	-34.5	-36.3	22.5	0.00e+00	0	38	0	974127104	40	4455
2026-01-23 12:57:52.88	210.34	24.31	-34.6	-36.4	22.4	0.00e+00	0	38	0	980418560	40	4507
2026-01-23 12:57:53.87	210.52	24.43	-34.7	-36.5	22.3	0.00e+00	0	38	0	985661440	40	4552
2026-01-23 12:57:54.87	210.71	24.55	-34.7	-36.5	22.3	0.00e+00	0	38	0	990904320	40	4567
2026-01-23 12:57:55.87	210.89	24.67	-34.7	-36.5	22.3	0.00e+00	0	38	0	996147200	40	4562
2026-01-23 12:57:56.86	211.08	24.79	-34.7	-36.4	22.4	0.00e+00	0	38	0	1002438656	40	4538
2026-01-23 12:57:57.85	211.27	24.91	-34.6	-36.3	22.4	0.00e+00	0	38	0	1007681536	40	4489
2026-01-23 12:57:58.85	211.46	25.03	-34.6	-36.4	22.4	0.00e+00	0	38	0	1012924416	40	4501
2026-01-23 12:57:59.84	211.65	25.15	-34.4	-36.2	22.6	0.00e+00	0	38	0	1019215872	40	4394
2026-01-23 12:58:00.84	211.84	25.28	-34.4	-36.1	22.7	0.00e+00	0	38	0	1024458752	40	4365
2026-01-23 12:58:01.83	212.03	25.40	-34.3	-36.1	22.7	0.00e+00	0	38	0	1030750208	40	4355
2026-01-23 12:58:02.83	212.23	25.52	-34.4	-36.1	22.7	0.00e+00	0	38	0	1035993088	40	4380
2026-01-23 12:58:03.82	212.42	25.64	-34.4	-36.1	22.7	0.00e+00	0	38	0	1041235968	40	4372
2026-01-23 12:58:04.82	212.62	25.77	-34.3	-36.1	22.7	0.00e+00	0	38	0	1046478848	40	4357
2026-01-23 12:58:05.81	212.82	25.89	-34.3	-36.0	22.7	0.00e+00	0	38	0	1052770304	40	4334
2026-01-23 12:58:06.80	213.02	26.01	-34.3	-36.1	22.7	0.00e+00	0	38	0	1058013184	40	4355
2026-01-23 12:58:07.80	213.23	26.14	-34.4	-36.2	22.6	0.00e+00	0	38	0	1063256064	40	4398
2026-01-23 12:58:08.79	213.43	26.26	-34.4	-36.1	22.6	0.00e+00	0	38	0	1069547520	40	4376
2026-01-23 12:58:09.79	213.64	26.39	-34.4	-36.2	22.5	0.00e+00	0	38	0	1074790400	40	4407
2026-01-23 12:58:10.78	213.84	26.51	-34.4	-36.2	22.5	0.00e+00	0	38	0	1081081856	40	4404
2026-01-23 12:58:11.78	214.05	26.63	-34.4	-36.1	22.6	0.00e+00	0	38	0	1086324736	40	4371
2026-01-23 12:58:12.78	214.26	26.76	-34.3	-36.0	22.7	0.00e+00	0	38	0	1091567616	40	4322
2026-01-23 12:58:13.77	214.48	26.88	-34.1	-35.8	22.8	0.00e+00	0	38	0	1097859072	40	4236
2026-01-23 12:58:14.77	214.69	27.01	-34.0	-35.8	22.9	0.00e+00	0	38	0	1103101952	40	4197
2026-01-23 12:58:15.76	214.91	27.13	-34.0	-35.7	23.0	0.00e+00	0	38	0	1108344832	39	4435
2026-01-23 12:58:16.76	215.12	27.26	-34.1	-35.8	22.7	0.00e+00	0	38	0	1113587712	39	4466
2026-01-23 12:58:17.75	215.34	27.38	-34.1	-35.9	22.9	0.00e+00	0	38	0	1119879168	39	4494
2026-01-23 12:58:18.75	215.56	27.51	-34.1	-35.8	22.9	0.00e+00	0	38	0	1125122048	39	4483
2026-01-23 12:58:19.74	215.78	27.63	-34.1	-35.8	22.9	0.00e+00	0	38	0	1131413504	39	4482
2026-01-23 12:58:20.74	216.01	27.76	-34.1	-35.8	22.9	0.00e+00	0	38	0	1136656384	39	4472
2026-01-23 12:58:21.73	216.23	27.89	-34.1	-35.9	22.9	0.00e+00	0	38	0	1141899264	39	4495
2026-01-23 12:58:22.73	216.46	28.01	-34.2	-36.0	22.8	0.00e+00	0	38	0	1148190720	39	4550
2026-01-23 12:58:23.73	216.69	28.14	-34.1	-35.8	22.9	0.00e+00	0	38	0	1153433600	39	4472
2026-01-23 12:58:24.72	216.92	28.27	-34.0	-35.8	23.0	0.00e+00	0	38	0	1158676480	39	4445
2026-01-23 12:58:25.72	217.16	28.39	-34.0	-35.7	23.0	0.00e+00	0	38	0	1163919360	39	4432
2026-01-23 12:58:26.71	217.39	28.52	-34.1	-35.8	23.0	0.00e+00	0	38	0	1170210816	39	4445
2026-01-23 12:58:27.71	217.63	28.64	-33.9	-35.6	23.0	0.00e+00	0	38	0	1175453696	39	4382
2026-01-23 12:58:28.70	217.87	28.77	-33.9	-35.6	23.1	0.00e+00	0	38	0	1181745152	39	4378
2026-01-23 12:58:29.70	218.11	28.90	-33.9	-35.6	23.1	0.00e+00	0	38	0	1186988032	39	4366
2026-01-23 12:58:30.69	218.35	29.02	-34.0	-35.7	23.1	0.00e+00	0	38	0	1192230912	39	4403
2026-01-23 12:58:31.69	218.59	29.15	-33.8	-35.5	23.2	0.00e+00	0	38	0	1198522368	39	4317
2026-01-23 12:58:32.68	218.84	29.28	-33.8	-35.5	23.2	0.00e+00	0	38	0	1203765248	39	4327
2026-01-23 12:58:33.68	219.09	29.40	-33.9	-35.6	23.1	0.00e+00	0	38	0	1209008128	39	4376
2026-01-23 12:58:34.67	219.33	29.53	-34.0	-35.7	23.1	0.00e+00	0	38	0	1215299584	39	4401
2026-01-23 12:58:35.67	219.59	29.66	-33.9	-35.7	23.1	0.00e+00	0	38	0	1220542464	39	4396
2026-01-23 12:58:36.66	219.84	29.78	-33.9	-35.6	23.2	0.00e+00	0	38	0	1225785344	39	4362
2026-01-23 12:58:37.65	220.09	29.91	-33.9	-35.6	23.1	0.00e+00	0	38	0	1232076800	39	4358
2026-01-23 12:58:38.65	220.35	30.03	-33.9	-35.6	23.2	0.00e+00	0	38	0	1237319680	39	4357
2026-01-23 12:58:39.64	220.61	30.16	-33.9	-35.6	23.2	0.00e+00	0	38	0	1242562560	39	4372
2026-01-23 12:58:40.64	220.87	30.29	-33.9	-35.6	23.2	0.00e+00	0	38	0	1248854016	39	4354
2026-01-23 12:58:41.63	221.13	30.41	-33.9	-35.6	23.2	0.00e+00	0	38	0	1254096896	39	4347
2026-01-23 12:58:42.63	221.40	30.54	-33.9	-35.6	23.2	0.00e+00	0	38	0	1259339776	39	4348
2026-01-23 12:58:43.62	221.67	30.66	-34.0	-35.7	23.1	0.00e+00	0	38	0	1265631232	39	4397
2026-01-23 12:58:44.62	221.94	30.79	-34.1	-35.8	23.0	0.00e+00	0	38	0	1270874112	39	4482
2026-01-23 12:58:45.61	222.21	30.91	-33.8	-35.5	23.2	0.00e+00	0	38	0	1276116992	39	4338
2026-01-23 12:58:46.60	222.48	31.04	-33.8	-35.5	23.2	0.00e+00	0	38	0	1282408448	39	4314
2026-01-23 12:58:47.60	222.76	31.17	-33.9	-35.6	23.2	0.00e+00	0	38	0	1287651328	39	4353
2026-01-23 12:58:48.59	223.03	31.29	-33.9	-35.6	23.2	0.00e+00	0	38	0	1292894208	39	4368
2026-01-23 12:58:49.59	223.31	31.42	-33.9	-35.6	23.2	0.00e+00	0	38	0	1299185664	39	4343
2026-01-23 12:58:50.58	223.59	31.54	-33.9	-35.6	23.2	0.00e+00	0	38	0	1304428544	39	4352
2026-01-23 12:58:51.58	223.88	31.66	-33.8	-35.5	23.3	0.00e+00	0	38	0	1309671424	39	4293
2026-01-23 12:58:52.57	224.16	31.79	-33.7	-35.4	23.4	0.00e+00	0	38	0	1315962880	39	4247
2026-01-23 12:58:53.57	224.45	31.91	-33.8	-35.5	23.3	0.00e+00	0	38	0	1321205760	39	4292
2026-01-23 12:58:54.56	224.74	32.04	-33.8	-35.5	23.3	0.00e+00	0	38	0	1326448640	39	4300
2026-01-23 12:58:55.56	225.04	32.16	-33.9	-35.6	23.2	0.00e+00	0	38	0	1332740096	39	4355
2026-01-23 12:58:56.55	225.33	32.28	-33.9	-35.6	23.1	0.00e+00	0	38	0	1337982976	39	4371
2026-01-23 12:58:57.55	225.63	32.40	-33.8	-35.5	23.2	0.00e+00	0	38	0	1343225856	39	4330
2026-01-23 12:58:58.55	225.93	32.53	-33.8	-35.5	23.2	0.00e+00	0	38	0	1349517312	39	4299
2026-01-23 12:58:59.54	226.23	32.65	-33.7	-35.4	23.2	0.00e+00	0	38	0	1354760192	39	4276
2026-01-23 12:59:00.54	226.54	32.77	-33.7	-35.4	23.2	0.00e+00	0	38	0	1360003072	39	4289
2026-01-23 12:59:01.53	226.84	32.89	-33.8	-35.5	23.2	0.00e+00	0	38	0	1366294528	39	4298
2026-01-23 12:59:02.53	227.15	33.01	-33.6	-35.3	23.4	0.00e+00	0	38	0	1371537408	39	4198
2026-01-23 12:59:03.52	227.46	33.13	-33.7	-35.4	23.2	0.00e+00	0	38	0	1377828864	39	4252
2026-01-23 12:59:04.52	227.77	33.25	-33.8	-35.5	23.1	0.00e+00	0	38	0	1383071744	39	4301
2026-01-23 12:59:05.51	228.09	33.37	-33.9	-35.6	23.0	0.00e+00	0	38	0	1388314624	39	4363
2026-01-23 12:59:06.51	228.41	33.49	-33.9	-35.7	23.0	0.00e+00	0	38	0	1393557504	39	4394
2026-01-23 12:59:07.50	228.72	33.61	-34.0	-35.7	23.0	0.00e+00	0	38	0	1399848960	39	4426
2026-01-23 12:59:08.49	229.04	33.73	-34.0	-35.8	22.9	0.00e+00	0	38	0	1405091840	39	4451
2026-01-23 12:59:09.49	229.37	33.85	-34.0	-35.7	23.0	0.00e+00	0	38	0	1410334720	39	4423
2026-01-23 12:59:10.48	229.69	33.96	-33.9	-35.6	23.1	0.00e+00	0	38	0	1416626176	39	4367
2026-01-23 12:59:11.48	230.03	34.08	-33.7	-35.5	23.2	0.00e+00	0	38	0	1421869056	39	4301
2026-01-23 12:59:12.47	230.35	34.19	-33.6	-35.3	23.3	0.00e+00	0	38	0	1428160512	39	4233
2026-01-23 12:59:13.47	230.69	34.31	-33.7	-35.4	23.3	0.00e+00	0	38	0	1433403392	39	4247
2026-01-23 12:59:14.46	231.02	34.42	-33.7	-35.5	23.2	0.00e+00	0	38	0	1438646272	39	4300
2026-01-23 12:59:15.46	231.36	34.54	-33.8	-35.5	23.1	0.00e+00	0	38	0	1443889152	39	4323
2026-01-23 12:59:16.45	231.70	34.65	-33.8	-35.6	23.1	0.00e+00	0	38	0	1450180608	39	4347
2026-01-23 12:59:17.45	232.05	34.76	-33.7	-35.4	23.2	0.00e+00	0	38	0	1455423488	39	4279
2026-01-23 12:59:18.44	232.39	34.87	-33.7	-35.4	23.3	0.00e+00	0	38	0	1460666368	39	4284
2026-01-23 12:59:19.43	232.74	34.98	-33.6	-35.3	23.4	0.00e+00	0	38	0	1466957824	39	4214
2026-01-23 12:59:20.43	233.09	35.09	-33.6	-35.3	23.4	0.00e+00	0	38	0	1472200704	39	4216
2026-01-23 12:59:21.42	233.44	35.20	-33.6	-35.3	23.4	0.00e+00	0	38	0	1478492160	39	4194
2026-01-23 12:59:22.42	233.79	35.31	-33.5	-35.2	23.5	0.00e+00	0	38	0	1483735040	39	4146
2026-01-23 12:59:23.41	234.15	35.42	-33.6	-35.2	23.5	0.00e+00	0	38	0	1488977920	39	4186
2026-01-23 12:59:24.41	234.51	35.53	-33.7	-35.4	23.3	0.00e+00	0	38	0	1494220800	39	4276
2026-01-23 12:59:25.40	234.87	35.63	-33.7	-35.4	23.3	0.00e+00	0	38	0	1500512256	39	4272
2026-01-23 12:59:26.40	235.23	35.74	-33.7	-35.4	23.3	0.00e+00	0	38	0	1505755136	39	4271
2026-01-23 12:59:27.39	235.60	35.84	-33.5	-35.2	23.4	0.00e+00	0	38	0	1510998016	39	4184
2026-01-23 12:59:28.39	235.97	35.94	-33.5	-35.2	23.4	0.00e+00	0	38	0	1517289472	39	4192
2026-01-23 12:59:29.38	236.34	36.05	-33.6	-35.3	23.3	0.00e+00	0	38	0	1522532352	39	4224
2026-01-23 12:59:30.38	236.71	36.15	-33.6	-35.3	23.3	0.00e+00	0	38	0	1528823808	39	4240
2026-01-23 12:59:31.37	237.08	36.25	-33.6	-35.3	23.4	0.00e+00	0	38	0	1534066688	39	4207
2026-01-23 12:59:32.37	237.46	36.35	-33.6	-35.3	23.3	0.00e+00	0	38	0	1539309568	39	4230
2026-01-23 12:59:33.36	237.84	36.44	-33.5	-35.2	23.4	0.00e+00	0	38	0	1544552448	39	4186
2026-01-23 12:59:34.35	238.22	36.54	-33.4	-35.1	23.5	0.00e+00	0	38	0	1550843904	38	4391
2026-01-23 12:59:35.35	238.61	36.64	-33.4	-35.0	23.6	0.00e+00	0	38	0	1556086784	38	4337
2026-01-23 12:59:36.35	238.99	36.73	-33.6	-35.3	23.4	0.00e+00	0	38	0	1561329664	38	4447
2026-01-23 12:59:37.34	239.38	36.82	-33.6	-35.3	23.4	0.00e+00	0	38	0	1567621120	38	4450
2026-01-23 12:59:38.34	239.77	36.92	-33.5	-35.2	23.5	0.00e+00	0	38	0	1572864000	38	4419
2026-01-23 12:59:39.33	240.16	37.01	-33.6	-35.3	23.5	0.00e+00	0	38	0	1579155456	38	4467
2026-01-23 12:59:40.33	240.56	37.10	-33.5	-35.2	23.5	0.00e+00	0	38	0	1584398336	38	4411
2026-01-23 12:59:41.32	240.95	37.19	-33.4	-35.1	23.6	0.00e+00	0	38	0	1589641216	38	4376
2026-01-23 12:59:42.32	241.36	37.27	-33.4	-35.1	23.6	0.00e+00	0	38	0	1594884096	38	4372
2026-01-23 12:59:43.31	241.75	37.36	-33.3	-35.0	23.7	0.00e+00	0	38	0	1601175552	38	4325
2026-01-23 12:59:44.31	242.16	37.44	-33.3	-35.0	23.7	0.00e+00	0	38	0	1606418432	38	4327
2026-01-23 12:59:45.30	242.56	37.53	-33.3	-35.0	23.7	0.00e+00	0	38	0	1612709888	38	4323
2026-01-23 12:59:46.30	242.97	37.61	-33.4	-35.0	23.7	0.00e+00	0	38	0	1617952768	38	4336
2026-01-23 12:59:47.29	243.38	37.69	-33.3	-35.0	23.6	0.00e+00	0	38	0	1623195648	38	4328
2026-01-23 12:59:48.28	243.79	37.77	-33.3	-35.0	23.7	0.00e+00	0	38	0	1629487104	38	4322
2026-01-23 12:59:49.28	244.20	37.84	-33.3	-34.9	23.7	0.00e+00	0	38	0	1634729984	38	4284
2026-01-23 12:59:50.28	244.62	37.92	-33.3	-35.0	23.7	0.00e+00	0	38	0	1639972864	38	4294
2026-01-23 12:59:51.27	245.04	38.00	-33.4	-35.1	23.6	0.00e+00	0	38	0	1645215744	38	4374
2026-01-23 12:59:52.26	245.45	38.07	-33.6	-35.3	23.4	0.00e+00	0	38	0	1651507200	38	4450
2026-01-23 12:59:53.26	245.88	38.14	-33.6	-35.3	23.4	0.00e+00	0	38	0	1656750080	38	4474
2026-01-23 12:59:54.25	246.30	38.21	-33.3	-35.0	23.6	0.00e+00	0	38	0	1663041536	38	4326
2026-01-23 12:59:55.25	246.72	38.28	-33.2	-34.8	23.7	0.00e+00	0	38	0	1668284416	38	4241
2026-01-23 12:59:56.24	247.15	38.34	-33.1	-34.8	23.8	0.00e+00	0	38	0	1673527296	38	4200
2026-01-23 12:59:57.23	247.57	38.41	-33.3	-35.0	23.6	0.00e+00	0	38	0	1679818752	38	4305
2026-01-23 12:59:58.23	248.00	38.47	-33.4	-35.0	23.5	0.00e+00	0	38	0	1685061632	38	4339
2026-01-23 12:59:59.22	248.43	38.53	-33.3	-35.0	23.6	0.00e+00	0	38	0	1690304512	38	4307
2026-01-23 13:00:00.22	248.87	38.59	-33.4	-35.1	23.6	0.00e+00	0	38	0	1695547392	38	4365
2026-01-23 13:00:01.21	249.30	38.65	-33.5	-35.2	23.5	0.00e+00	0	38	0	1701838848	38	4411
2026-01-23 13:00:02.21	249.74	38.71	-33.5	-35.2	23.5	0.00e+00	0	38	0	1707081728	38	4407
2026-01-23 13:00:03.20	250.17	38.76	-33.6	-35.3	23.4	0.00e+00	0	38	0	1713373184	38	4453
2026-01-23 13:00:04.20	250.61	38.82	-33.5	-35.2	23.5	0.00e+00	0	38	0	1718616064	38	4409
2026-01-23 13:00:05.19	251.05	38.87	-33.3	-35.0	23.7	0.00e+00	0	38	0	1723858944	38	4327
2026-01-23 13:00:06.19	251.49	38.92	-33.3	-35.0	23.7	0.00e+00	0	38	0	1730150400	38	4305
2026-01-23 13:00:07.18	251.93	38.97	-33.2	-34.9	23.7	0.00e+00	0	38	0	1735393280	38	4275
2026-01-23 13:00:08.18	252.38	39.01	-33.4	-35.1	23.6	0.00e+00	0	38	0	1740636160	38	4361
2026-01-23 13:00:09.18	252.83	39.06	-33.6	-35.3	23.4	0.00e+00	0	38	0	1746927616	38	4447
2026-01-23 13:00:10.17	253.27	39.10	-33.4	-35.1	23.5	0.00e+00	0	38	0	1752170496	38	4372
2026-01-23 13:00:11.17	253.72	39.14	-33.3	-35.0	23.6	0.00e+00	0	38	0	1757413376	38	4327
2026-01-23 13:00:12.16	254.16	39.18	-33.3	-35.0	23.7	0.00e+00	0	38	0	1763704832	38	4306
2026-01-23 13:00:13.16	254.62	39.21	-33.3	-34.9	23.7	0.00e+00	0	38	0	1768947712	38	4290
2026-01-23 13:00:14.15	255.06	39.25	-33.3	-35.0	23.7	0.00e+00	0	38	0	1774190592	38	4295
2026-01-23 13:00:15.15	255.52	39.28	-33.2	-34.9	23.7	0.00e+00	0	38	0	1780482048	38	4278
2026-01-23 13:00:16.14	255.97	39.31	-33.1	-34.8	23.7	0.00e+00	0	38	0	1785724928	38	4230
2026-01-23 13:00:17.14	256.42	39.34	-33.2	-34.9	23.7	0.00e+00	0	38	0	1790967808	38	4245
2026-01-23 13:00:18.13	256.87	39.37	-33.2	-34.9	23.7	0.00e+00	0	38	0	1797259264	38	4257
2026-01-23 13:00:19.12	257.33	39.39	-33.5	-35.2	23.5	0.00e+00	0	38	0	1802502144	38	4401
2026-01-23 13:00:20.12	257.78	39.42	-33.7	-35.4	23.3	0.00e+00	0	38	0	1807745024	38	4528
2026-01-23 13:00:21.11	258.24	39.44	-33.6	-35.3	23.3	0.00e+00	0	38	0	1814036480	38	4487
2026-01-23 13:00:22.11	258.69	39.46	-33.6	-35.3	23.4	0.00e+00	0	38	0	1819279360	38	4450
2026-01-23 13:00:23.10	259.15	39.47	-33.3	-35.0	23.6	0.00e+00	0	38	0	1824522240	38	4336
2026-01-23 13:00:24.10	259.61	39.49	-33.3	-35.0	23.6	0.00e+00	0	38	0	1830813696	38	4329
2026-01-23 13:00:25.09	260.06	39.50	-33.3	-35.0	23.6	0.00e+00	0	38	0	1836056576	38	4315
2026-01-23 13:00:26.08	260.52	39.51	-33.5	-35.2	23.5	0.00e+00	0	38	0	1841299456	38	4414
2026-01-23 13:00:27.08	260.98	39.52	-33.4	-35.1	23.5	0.00e+00	0	38	0	1847590912	38	4372
2026-01-23 13:00:28.07	261.43	39.53	-33.5	-35.2	23.4	0.00e+00	0	38	0	1852833792	38	4422
2026-01-23 13:00:29.07	261.89	39.53	-33.5	-35.2	23.4	0.00e+00	0	38	0	1858076672	38	4422
2026-01-23 13:00:30.06	262.35	39.54	-33.4	-35.1	23.5	0.00e+00	0	38	0	1864368128	38	4379
2026-01-23 13:00:31.05	262.81	39.54	-33.5	-35.2	23.4	0.00e+00	0	38	0	1869611008	38	4398
2026-01-23 13:00:32.05	263.27	39.54	-33.4	-35.1	23.5	0.00e+00	0	38	0	1874853888	38	4366
2026-01-23 13:00:33.04	263.72	39.53	-33.5	-35.1	23.5	0.00e+00	0	38	0	1881145344	38	4391
2026-01-23 13:00:34.04	264.18	39.53	-33.6	-35.3	23.4	0.00e+00	0	38	0	1886388224	38	4457
2026-01-23 13:00:35.03	264.64	39.52	-33.6	-35.3	23.4	0.00e+00	0	38	0	1891631104	38	4444
2026-01-23 13:00:36.03	265.10	39.51	-33.3	-35.0	23.7	0.00e+00	0	38	0	1897922560	38	4308
2026-01-23 13:00:37.02	265.55	39.50	-33.3	-35.0	23.6	0.00e+00	0	38	0	1903165440	38	4328
2026-01-23 13:00:38.02	266.01	39.49	-33.2	-34.9	23.7	0.00e+00	0	38	0	1908408320	38	4275
2026-01-23 13:00:39.01	266.47	39.47	-33.2	-34.9	23.7	0.00e+00	0	38	0	1914699776	38	4251
2026-01-23 13:00:40.01	266.93	39.45	-33.4	-35.0	24.3	0.00e+00	0	38	0	1919942656	38	4320
2026-01-23 13:00:41.01	267.39	39.44	-33.4	-35.1	24.2	0.00e+00	0	38	0	1925185536	38	4352
2026-01-23 13:00:42.00	267.84	39.41	-33.4	-35.0	24.2	0.00e+00	0	38	0	1931476992	38	4328
2026-01-23 13:00:43.00	268.30	39.39	-33.5	-35.1	24.2	0.00e+00	0	38	0	1936719872	38	4356
2026-01-23 13:00:43.99	268.75	39.37	-33.6	-35.2	24.1	0.00e+00	0	38	0	1941962752	38	4418
2026-01-23 13:00:44.99	269.20	39.34	-33.7	-35.3	24.1	0.00e+00	0	38	0	1948254208	38	4473
2026-01-23 13:00:45.98	269.65	39.31	-33.7	-35.3	24.0	0.00e+00	0	38	0	1953497088	38	4490
2026-01-23 13:00:46.98	270.11	39.28	-33.6	-35.2	24.1	0.00e+00	0	38	0	1958739968	38	4438
2026-01-23 13:00:47.97	270.55	39.25	-33.5	-35.1	24.1	0.00e+00	0	38	0	1965031424	38	4376
2026-01-23 13:00:48.97	271.01	39.21	-33.5	-35.1	24.2	0.00e+00	0	38	0	1970274304	38	4376
2026-01-23 13:00:49.96	271.45	39.18	-33.5	-35.1	24.3	0.00e+00	0	38	0	1975517184	38	4344
2026-01-23 13:00:50.96	271.90	39.14	-33.6	-35.2	24.1	0.00e+00	0	38	0	1981808640	38	4439
2026-01-23 13:00:51.95	272.35	39.10	-33.8	-35.5	23.9	0.00e+00	0	38	0	1987051520	38	4556
2026-01-23 13:00:52.95	272.79	39.05	-33.6	-35.3	24.1	0.00e+00	0	38	0	1992294400	38	4449
2026-01-23 13:00:53.94	273.24	39.01	-33.6	-35.2	24.1	0.00e+00	0	38	0	1998585856	38	4434
2026-01-23 13:00:54.93	273.68	38.96	-33.6	-35.2	24.1	0.00e+00	0	38	0	2003828736	38	4405
2026-01-23 13:00:55.93	274.12	38.92	-33.6	-35.2	24.1	0.00e+00	0	38	0	2009071616	38	4421
2026-01-23 13:00:56.92	274.56	38.87	-33.6	-35.2	24.1	0.00e+00	0	38	0	2015363072	38	4422
2026-01-23 13:00:57.92	275.00	38.81	-33.6	-35.2	24.1	0.00e+00	0	38	0	2020605952	38	4413
2026-01-23 13:00:58.91	275.44	38.76	-33.5	-35.1	24.2	0.00e+00	0	38	0	2025848832	38	4386
2026-01-23 13:00:59.91	275.88	38.71	-33.4	-35.0	24.3	0.00e+00	0	38	0	2032140288	38	4320
2026-01-23 13:01:00.90	276.31	38.65	-33.4	-35.0	24.3	0.00e+00	0	38	0	2037383168	38	4326
2026-01-23 13:01:01.90	276.74	38.59	-33.5	-35.1	24.3	0.00e+00	0	38	0	2042626048	38	4346
2026-01-23 13:01:02.89	277.17	38.53	-33.5	-35.2	24.2	0.00e+00	0	38	0	2048917504	38	4402
2026-01-23 13:01:03.89	277.60	38.47	-33.5	-35.1	24.2	0.00e+00	0	38	0	2054160384	38	4362
2026-01-23 13:01:04.88	278.03	38.41	-33.5	-35.1	24.2	0.00e+00	0	38	0	2060451840	38	4358
2026-01-23 13:01:05.87	278.46	38.34	-33.5	-35.1	24.2	0.00e+00	0	38	0	2065694720	38	4368
2026-01-23 13:01:06.87	278.88	38.28	-33.4	-35.0	24.3	0.00e+00	0	38	0	2070937600	38	4315
2026-01-23 13:01:07.87	279.31	38.21	-33.4	-35.0	24.3	0.00e+00	0	38	0	2076180480	38	4328
2026-01-23 13:01:08.86	279.73	38.14	-33.4	-35.0	24.3	0.00e+00	0	38	0	2082471936	38	4329
2026-01-23 13:01:09.85	280.15	38.07	-33.5	-35.2	24.2	0.00e+00	0	38	0	2087714816	38	4392
2026-01-23 13:01:10.85	280.57	37.99	-33.7	-35.3	24.1	0.00e+00	0	38	0	2092957696	38	4465
2026-01-23 13:01:11.84	280.98	37.92	-33.7	-35.3	24.1	0.00e+00	0	38	0	2099249152	38	4464
2026-01-23 13:01:12.84	281.40	37.84	-33.5	-35.1	24.2	0.00e+00	0	38	0	2104492032	38	4366
2026-01-23 13:01:13.83	281.81	37.77	-33.4	-35.0	24.3	0.00e+00	0	38	0	2110783488	38	4297
2026-01-23 13:01:14.83	282.22	37.69	-33.4	-34.9	24.4	0.00e+00	0	38	0	2116026368	38	4290
2026-01-23 13:01:15.82	282.62	37.61	-33.5	-35.1	24.2	0.00e+00	0	38	0	2121269248	38	4362
2026-01-23 13:01:16.82	283.03	37.53	-33.5	-35.2	24.2	0.00e+00	0	38	0	2127560704	38	4395
2026-01-23 13:01:17.82	283.44	37.44	-33.5	-35.1	24.2	0.00e+00	0	38	0	2132803584	38	4386
2026-01-23 13:01:18.81	283.84	37.36	-33.5	-35.1	24.2	0.00e+00	0	38	0	2138046464	38	4378
2026-01-23 13:01:19.80	284.24	37.27	-33.5	-35.1	24.2	0.00e+00	0	38	0	2143289344	38	4365
2026-01-23 13:01:20.80	284.64	37.19	-33.6	-35.2	24.1	0.00e+00	0	38	0	2149580800	38	4399
2026-01-23 13:01:21.80	285.03	37.10	-33.3	-34.9	24.4	0.00e+00	0	38	0	2154823680	38	4248
2026-01-23 13:01:22.79	285.43	37.01	-33.3	-34.9	24.4	0.00e+00	0	38	0	2161115136	38	4273
2026-01-23 13:01:23.78	285.82	36.92	-33.5	-35.1	24.2	0.00e+00	0	38	0	2166358016	38	4370
2026-01-23 13:01:24.78	286.21	36.83	-33.5	-35.1	24.2	0.00e+00	0	38	0	2171600896	38	4389
2026-01-23 13:01:25.77	286.59	36.73	-33.5	-35.1	24.2	0.00e+00	0	38	0	2177892352	38	4386
2026-01-23 13:01:26.77	286.98	36.64	-33.6	-35.2	24.1	0.00e+00	0	38	0	2183135232	38	4429
2026-01-23 13:01:27.76	287.36	36.54	-33.7	-35.3	24.0	0.00e+00	0	38	0	2188378112	38	4489
2026-01-23 13:01:28.76	287.74	36.45	-33.8	-35.4	23.9	0.00e+00	0	38	0	2193620992	38	4527
2026-01-23 13:01:29.75	288.12	36.35	-33.8	-35.4	23.9	0.00e+00	0	38	0	2199912448	38	4532
2026-01-23 13:01:30.75	288.50	36.25	-33.8	-35.4	23.9	0.00e+00	0	38	0	2205155328	38	4533
2026-01-23 13:01:31.74	288.87	36.15	-33.8	-35.4	23.9	0.00e+00	0	38	0	2211446784	38	4528
2026-01-23 13:01:32.74	289.24	36.05	-33.8	-35.4	24.0	0.00e+00	0	38	0	2216689664	38	4509
2026-01-23 13:01:33.73	289.61	35.95	-33.8	-35.5	23.9	0.00e+00	0	38	0	2221932544	38	4547
2026-01-23 13:01:34.72	289.97	35.85	-33.9	-35.5	23.9	0.00e+00	0	38	0	2228224000	38	4559
2026-01-23 13:01:35.72	290.34	35.74	-33.7	-35.3	24.0	0.00e+00	0	38	0	2233466880	38	4472
2026-01-23 13:01:36.71	290.70	35.64	-33.7	-35.3	24.0	0.00e+00	0	38	0	2238709760	38	4489
2026-01-23 13:01:37.71	291.06	35.53	-33.8	-35.4	24.0	0.00e+00	0	38	0	2243952640	38	4506
2026-01-23 13:01:38.70	291.42	35.43	-33.7	-35.3	24.1	0.00e+00	0	38	0	2250244096	38	4457
2026-01-23 13:01:39.70	291.78	35.32	-33.9	-35.5	23.9	0.00e+00	0	38	0	2255486976	38	4571
2026-01-23 13:01:40.70	292.13	35.21	-33.9	-35.6	23.8	0.00e+00	0	38	0	2261778432	38	4608
2026-01-23 13:01:41.69	292.48	35.10	-33.9	-35.6	23.8	0.00e+00	0	38	0	2267021312	38	4602
2026-01-23 13:01:42.68	292.83	34.99	-33.9	-35.5	23.9	0.00e+00	0	38	0	2272264192	38	4562
2026-01-23 13:01:43.68	293.18	34.88	-34.0	-35.6	23.7	0.00e+00	0	38	0	2278555648	38	4638
2026-01-23 13:01:44.67	293.52	34.77	-33.6	-35.2	24.2	0.00e+00	0	38	0	2283798528	38	4395
2026-01-23 13:01:45.67	293.86	34.66	-33.5	-35.1	24.2	0.00e+00	0	38	0	2289041408	38	4380
2026-01-23 13:01:46.66	294.20	34.55	-33.7	-35.3	24.1	0.00e+00	0	38	0	2294284288	38	4468
2026-01-23 13:01:47.66	294.54	34.44	-33.8	-35.4	23.9	0.00e+00	0	38	0	2300575744	38	4542
2026-01-23 13:01:48.65	294.87	34.32	-33.9	-35.6	23.8	0.00e+00	0	38	0	2305818624	38	4620
2026-01-23 13:01:49.65	295.20	34.21	-34.0	-35.6	23.8	0.00e+00	0	38	0	2312110080	38	4630
2026-01-23 13:01:50.64	295.53	34.09	-33.9	-35.5	23.8	0.00e+00	0	38	0	2317352960	38	4592
2026-01-23 13:01:51.64	295.86	33.98	-33.8	-35.5	23.9	0.00e+00	0	38	0	2322595840	38	4553
2026-01-23 13:01:52.63	296.19	33.86	-33.8	-35.5	23.9	0.00e+00	0	38	0	2328887296	38	4549
2026-01-23 13:01:53.63	296.51	33.74	-33.8	-35.4	24.0	0.00e+00	0	38	0	2334130176	38	4519
2026-01-23 13:01:54.62	296.83	33.63	-33.9	-35.5	23.9	0.00e+00	0	38	0	2339373056	38	4593
2026-01-23 13:01:55.62	297.15	33.51	-33.9	-35.5	23.9	0.00e+00	0	38	0	2344615936	38	4583
2026-01-23 13:01:56.61	297.46	33.39	-33.9	-35.5	23.9	0.00e+00	0	38	0	2350907392	38	4590
2026-01-23 13:01:57.61	297.78	33.27	-34.0	-35.6	23.8	0.00e+00	0	38	0	2356150272	38	4615
2026-01-23 13:01:58.60	298.09	33.15	-34.0	-35.6	23.7	0.00e+00	0	38	0	2362441728	38	4646
2026-01-23 13:01:59.60	298.40	33.03	-34.0	-35.6	23.7	0.00e+00	0	38	0	2367684608	38	4633
2026-01-23 13:02:00.59	298.71	32.91	-34.0	-35.6	23.8	0.00e+00	0	38	0	2372927488	38	4625
2026-01-23 13:02:01.59	299.01	32.79	-34.1	-35.7	23.7	0.00e+00	0	38	0	2379218944	38	4668
2026-01-23 13:02:02.58	299.31	32.67	-34.1	-35.8	23.7	0.00e+00	0	38	0	2384461824	38	4708
2026-01-23 13:02:03.57	299.61	32.55	-34.2	-35.8	23.6	0.00e+00	0	38	0	2389704704	39	4493
2026-01-23 13:02:04.57	299.91	32.43	-34.3	-35.9	23.5	0.00e+00	0	38	0	2394947584	39	4534
2026-01-23 13:02:05.57	300.21	32.31	-34.3	-35.9	23.6	0.00e+00	0	38	0	2401239040	39	4519
2026-01-23 13:02:06.56	300.50	32.18	-34.3	-36.0	23.5	0.00e+00	0	38	0	2406481920	39	4547
2026-01-23 13:02:07.55	300.79	32.06	-34.2	-35.9	23.6	0.00e+00	0	38	0	2412773376	39	4501
2026-01-23 13:02:08.55	301.09	31.94	-34.0	-35.7	23.8	0.00e+00	0	38	0	2418016256	39	4395
2026-01-23 13:02:09.54	301.37	31.82	-34.0	-35.6	23.8	0.00e+00	0	38	0	2423259136	39	4380
2026-01-23 13:02:10.54	301.66	31.69	-34.0	-35.6	23.8	0.00e+00	0	38	0	2429550592	39	4371
2026-01-23 13:02:11.54	301.94	31.57	-34.0	-35.7	23.8	0.00e+00	0	38	0	2434793472	39	4392
2026-01-23 13:02:12.53	302.22	31.44	-34.1	-35.8	23.7	0.00e+00	0	38	0	2440036352	39	4443
2026-01-23 13:02:13.53	302.50	31.32	-34.2	-35.9	23.6	0.00e+00	0	38	0	2446327808	39	4515
2026-01-23 13:02:14.52	302.78	31.20	-34.3	-35.9	23.6	0.00e+00	0	38	0	2451570688	39	4543
2026-01-23 13:02:15.51	303.05	31.07	-34.3	-36.0	23.5	0.00e+00	0	38	0	2456813568	39	4562
2026-01-23 13:02:16.51	303.33	30.95	-34.4	-36.1	23.4	0.00e+00	0	38	0	2463105024	39	4631
2026-01-23 13:02:17.50	303.59	30.82	-34.5	-36.1	23.4	0.00e+00	0	38	0	2468347904	39	4631
2026-01-23 13:02:18.50	303.86	30.70	-34.5	-36.2	23.4	0.00e+00	0	38	0	2473590784	39	4669
2026-01-23 13:02:19.49	304.13	30.57	-34.5	-36.2	23.4	0.00e+00	0	38	0	2479882240	39	4660
2026-01-23 13:02:20.49	304.40	30.45	-34.6	-36.3	23.3	0.00e+00	0	38	0	2485125120	39	4710
2026-01-23 13:02:21.48	304.66	30.32	-34.5	-36.1	23.4	0.00e+00	0	38	0	2490368000	39	4639
2026-01-23 13:02:22.48	304.92	30.20	-34.5	-36.1	23.4	0.00e+00	0	38	0	2496659456	39	4640
2026-01-23 13:02:23.47	305.18	30.07	-34.4	-36.0	23.5	0.00e+00	0	38	0	2501902336	39	4567
2026-01-23 13:02:24.47	305.43	29.95	-34.3	-35.9	23.6	0.00e+00	0	38	0	2507145216	39	4517
2026-01-23 13:02:25.46	305.69	29.82	-34.4	-36.0	23.5	0.00e+00	0	38	0	2513436672	39	4592
2026-01-23 13:02:26.46	305.94	29.69	-34.5	-36.1	23.4	0.00e+00	0	38	0	2518679552	39	4626
2026-01-23 13:02:27.45	306.19	29.57	-34.5	-36.2	23.4	0.00e+00	0	38	0	2523922432	39	4664
2026-01-23 13:02:28.45	306.44	29.44	-34.5	-36.2	23.4	0.00e+00	0	38	0	2530213888	39	4681
2026-01-23 13:02:29.44	306.69	29.32	-34.6	-36.3	23.3	0.00e+00	0	38	0	2535456768	39	4709
2026-01-23 13:02:30.44	306.93	29.19	-34.5	-36.2	23.4	0.00e+00	0	38	0	2540699648	39	4670
2026-01-23 13:02:31.43	307.17	29.07	-34.5	-36.1	23.4	0.00e+00	0	38	0	2546991104	39	4632
2026-01-23 13:02:32.43	307.42	28.94	-34.6	-36.2	23.3	0.00e+00	0	38	0	2552233984	39	4701
2026-01-23 13:02:33.42	307.65	28.82	-34.5	-36.2	23.3	0.00e+00	0	38	0	2558525440	39	4669
2026-01-23 13:02:34.42	307.89	28.69	-34.6	-36.3	23.3	0.00e+00	0	38	0	2563768320	39	4706
2026-01-23 13:02:35.41	308.13	28.57	-34.8	-36.4	23.1	0.00e+00	0	38	0	2569011200	40	4529
2026-01-23 13:02:36.41	308.36	28.44	-34.8	-36.5	23.0	0.00e+00	0	38	0	2574254080	40	4574
2026-01-23 13:02:37.40	308.59	28.31	-34.9	-36.6	22.9	0.00e+00	0	38	0	2580545536	40	4635
2026-01-23 13:02:38.40	308.83	28.19	-34.9	-36.6	23.0	0.00e+00	0	38	0	2585788416	40	4621
2026-01-23 13:02:39.39	309.05	28.06	-35.0	-36.7	22.9	0.00e+00	0	38	0	2591031296	40	4654
2026-01-23 13:02:40.39	309.28	27.94	-34.8	-36.5	23.1	0.00e+00	0	38	0	2597322752	40	4558
2026-01-23 13:02:41.38	309.50	27.81	-34.7	-36.4	23.1	0.00e+00	0	38	0	2602565632	40	4499
2026-01-23 13:02:42.38	309.73	27.69	-34.4	-36.0	23.4	0.00e+00	0	38	0	2608857088	40	4336
2026-01-23 13:02:43.37	309.95	27.56	-34.3	-36.0	23.5	0.00e+00	0	38	0	2614099968	40	4304
2026-01-23 13:02:44.36	310.17	27.44	-34.3	-35.9	23.5	0.00e+00	0	38	0	2619342848	40	4291
2026-01-23 13:02:45.36	310.39	27.32	-34.5	-36.1	23.4	0.00e+00	0	38	0	2624585728	40	4369
2026-01-23 13:02:46.35	310.60	27.19	-34.5	-36.1	23.3	0.00e+00	0	38	0	2630877184	40	4390
2026-01-23 13:02:47.35	310.82	27.07	-34.6	-36.3	23.3	0.00e+00	0	38	0	2636120064	40	4443
2026-01-23 13:02:48.34	311.03	26.94	-34.6	-36.3	23.2	0.00e+00	0	38	0	2641362944	40	4467
2026-01-23 13:02:49.34	311.25	26.82	-34.6	-36.3	23.2	0.00e+00	0	38	0	2647654400	40	4480
2026-01-23 13:02:50.33	311.45	26.70	-34.6	-36.3	23.3	0.00e+00	0	38	0	2652897280	40	4444
2026-01-23 13:02:51.33	311.66	26.57	-34.5	-36.2	23.3	0.00e+00	0	38	0	2659188736	40	4406
2026-01-23 13:02:52.32	311.87	26.45	-34.6	-36.3	23.2	0.00e+00	0	38	0	2664431616	40	4452
2026-01-23 13:02:53.32	312.08	26.33	-34.3	-36.0	23.5	0.00e+00	0	38	0	2669674496	40	4314
2026-01-23 13:02:54.32	312.28	26.20	-34.3	-36.0	23.5	0.00e+00	0	38	0	2674917376	40	4294
2026-01-23 13:02:55.31	312.48	26.08	-34.3	-35.9	23.5	0.00e+00	0	38	0	2681208832	40	4279
2026-01-23 13:02:56.31	312.68	25.96	-34.3	-36.0	23.5	0.00e+00	0	38	0	2686451712	40	4300
2026-01-23 13:02:57.30	312.88	25.83	-34.4	-36.0	23.4	0.00e+00	0	38	0	2691694592	40	4339
2026-01-23 13:02:58.30	313.08	25.71	-34.5	-36.1	23.3	0.00e+00	0	38	0	2697986048	40	4380
2026-01-23 13:02:59.29	313.28	25.59	-34.6	-36.3	23.2	0.00e+00	0	38	0	2703228928	40	4460
2026-01-23 13:03:00.29	313.47	25.47	-34.7	-36.4	23.1	0.00e+00	0	38	0	2709520384	40	4495
2026-01-23 13:03:01.28	313.67	25.35	-34.7	-36.4	23.1	0.00e+00	0	38	0	2714763264	40	4504
2026-01-23 13:03:02.28	313.86	25.23	-34.8	-36.5	23.0	0.00e+00	0	38	0	2720006144	40	4563
2026-01-23 13:03:03.27	314.05	25.10	-34.8	-36.5	23.0	0.00e+00	0	38	0	2726297600	40	4570
2026-01-23 13:03:04.27	314.24	24.98	-34.7	-36.4	23.1	0.00e+00	0	38	0	2731540480	40	4512
2026-01-23 13:03:05.26	314.42	24.86	-34.8	-36.5	23.1	0.00e+00	0	38	0	2736783360	40	4546
2026-01-23 13:03:06.26	314.61	24.74	-34.7	-36.4	23.1	0.00e+00	0	38	0	2742026240	40	4506
2026-01-23 13:03:07.25	314.80	24.62	-34.8	-36.5	23.0	0.00e+00	0	38	0	2748317696	40	4557
2026-01-23 13:03:08.25	314.98	24.50	-34.9	-36.5	23.0	0.00e+00	0	38	0	2753560576	40	4589
2026-01-23 13:03:09.24	315.16	24.38	-34.9	-36.5	23.0	0.00e+00	0	38	0	2759852032	40	4592
2026-01-23 13:03:10.24	315.34	24.26	-34.9	-36.6	23.0	0.00e+00	0	38	0	2765094912	40	4605
2026-01-23 13:03:11.23	315.52	24.15	-35.0	-36.7	22.8	0.00e+00	0	38	0	2770337792	40	4657
2026-01-23 13:03:12.23	315.70	24.03	-35.0	-36.7	22.8	0.00e+00	0	38	0	2776629248	40	4688
2026-01-23 13:03:13.22	315.88	23.91	-34.9	-36.6	22.9	0.00e+00	0	38	0	2781872128	40	4634
2026-01-23 13:03:14.22	316.05	23.79	-35.0	-36.6	22.9	0.00e+00	0	38	0	2787115008	40	4641
2026-01-23 13:03:15.21	316.23	23.67	-34.9	-36.6	22.9	0.00e+00	0	38	0	2792357888	40	4621
2026-01-23 13:03:16.21	316.40	23.55	-35.0	-36.6	22.8	0.00e+00	0	38	0	2798649344	40	4641
2026-01-23 13:03:17.20	316.57	23.44	-34.9	-36.6	22.9	0.00e+00	0	38	0	2803892224	40	4614
2026-01-23 13:03:18.20	316.74	23.32	-34.9	-36.6	22.9	0.00e+00	0	38	0	2810183680	40	4632
2026-01-23 13:03:19.19	316.91	23.20	-34.9	-36.6	22.9	0.00e+00	0	38	0	2815426560	40	4608
2026-01-23 13:03:20.19	317.08	23.09	-35.0	-36.7	22.8	0.00e+00	0	38	0	2820669440	40	4674
2026-01-23 13:03:21.18	317.25	22.97	-35.0	-36.7	22.8	0.00e+00	0	38	0	2826960896	40	4698
2026-01-23 13:03:22.17	317.41	22.85	-34.9	-36.6	22.9	0.00e+00	0	38	0	2832203776	40	4628
2026-01-23 13:03:23.17	317.58	22.74	-35.0	-36.7	22.8	0.00e+00	0	38	0	2837446656	40	4666
2026-01-23 13:03:24.16	317.74	22.62	-35.1	-36.8	22.7	0.00e+00	0	38	0	2842689536	40	4719
2026-01-23 13:03:25.16	317.90	22.51	-35.1	-36.8	22.7	0.00e+00	0	38	0	2848980992	40	4745
2026-01-23 13:03:26.15	318.06	22.39	-35.3	-37.0	22.5	0.00e+00	0	38	0	2854223872	41	4549
2026-01-23 13:03:27.15	318.22	22.28	-35.3	-37.0	22.6	0.00e+00	0	38	0	2860515328	41	4547
2026-01-23 13:03:28.14	318.38	22.16	-35.2	-36.9	22.6	0.00e+00	0	38	0	2865758208	41	4500
2026-01-23 13:03:29.14	318.54	22.05	-35.2	-36.8	22.7	0.00e+00	0	38	0	2871001088	41	4483
2026-01-23 13:03:30.13	318.69	21.94	-35.1	-36.8	22.7	0.00e+00	0	38	0	2877292544	41	4474
2026-01-23 13:03:31.13	318.85	21.82	-35.2	-36.8	22.7	0.00e+00	0	38	0	2882535424	41	4476
2026-01-23 13:03:32.12	319.00	21.71	-35.2	-36.9	22.7	0.00e+00	0	38	0	2887778304	41	4494
2026-01-23 13:03:33.12	319.16	21.60	-35.2	-36.8	22.7	0.00e+00	0	38	0	2894069760	41	4488
2026-01-23 13:03:34.11	319.31	21.48	-35.2	-36.9	22.5	0.00e+00	0	38	0	2899312640	41	4532
2026-01-23 13:03:35.11	319.46	21.37	-35.2	-37.0	22.6	0.00e+00	0	38	0	2904555520	41	4549
2026-01-23 13:03:36.10	319.61	21.26	-35.4	-37.1	22.1	0.00e+00	0	38	0	2910846976	41	4636
2026-01-23 13:03:37.10	319.76	21.15	-35.5	-37.2	22.4	0.00e+00	0	38	0	2916089856	41	4672
2026-01-23 13:03:38.09	319.90	21.04	-35.6	-37.4	22.2	0.00e+00	0	38	0	2921332736	41	4778
2026-01-23 13:03:39.08	320.05	20.93	-35.7	-37.4	22.1	0.00e+00	0	38	0	2927624192	42	4541
2026-01-23 13:03:40.08	320.20	20.82	-35.8	-37.5	22.0	0.00e+00	0	38	0	2932867072	42	4592
2026-01-23 13:03:41.07	320.34	20.71	-35.8	-37.6	22.0	0.00e+00	0	38	0	2938109952	42	4601
2026-01-23 13:03:42.07	320.49	20.60	-35.9	-37.6	22.0	0.00e+00	0	38	0	2944401408	42	4650
2026-01-23 13:03:43.06	320.63	20.49	-36.0	-37.7	21.9	0.00e+00	0	38	0	2949644288	42	4695
2026-01-23 13:03:44.05	320.77	20.38	-36.0	-37.7	21.9	0.00e+00	0	38	0	2954887168	42	4681
2026-01-23 13:03:45.05	320.91	20.27	-36.0	-37.7	21.9	0.00e+00	0	38	0	2961178624	42	4685
2026-01-23 13:03:46.04	321.05	20.16	-35.8	-37.6	22.0	0.00e+00	0	38	0	2966421504	42	4607
2026-01-23 13:03:47.04	321.19	20.05	-35.8	-37.5	22.1	0.00e+00	0	38	0	2971664384	42	4566
2026-01-23 13:03:48.03	321.33	19.94	-35.8	-37.6	22.0	0.00e+00	0	38	0	2977955840	42	4602
2026-01-23 13:03:49.03	321.46	19.84	-36.0	-37.7	21.9	0.00e+00	0	38	0	2983198720	42	4683
2026-01-23 13:03:50.02	321.60	19.73	-35.9	-37.7	21.9	0.00e+00	0	38	0	2988441600	42	4654
2026-01-23 13:03:51.02	321.73	19.62	-35.9	-37.7	21.9	0.00e+00	0	38	0	2994733056	42	4652
2026-01-23 13:03:52.01	321.87	19.51	-36.1	-37.8	21.8	0.00e+00	0	38	0	2999975936	42	4739
2026-01-23 13:03:53.01	322.00	19.41	-36.2	-37.9	21.7	0.00e+00	0	38	0	3005218816	42	4812
2026-01-23 13:03:54.00	322.13	19.30	-36.3	-38.1	21.6	0.00e+00	0	38	0	3011510272	43	4604
2026-01-23 13:03:55.00	322.27	19.20	-36.4	-38.2	21.5	0.00e+00	0	38	0	3016753152	43	4661
2026-01-23 13:03:55.99	322.40	19.09	-36.4	-38.2	21.4	0.00e+00	0	38	0	3021996032	43	4662
2026-01-23 13:03:56.99	322.53	18.98	-36.3	-38.1	21.5	0.00e+00	0	38	0	3028287488	43	4607
2026-01-23 13:03:57.98	322.65	18.88	-36.4	-38.2	21.4	0.00e+00	0	38	0	3033530368	43	4661
2026-01-23 13:03:58.98	322.78	18.77	-36.2	-38.0	21.6	0.00e+00	0	38	0	3038773248	43	4568
2026-01-23 13:03:59.97	322.91	18.67	-36.2	-37.9	21.6	0.00e+00	0	38	0	3045064704	43	4535
2026-01-23 13:04:00.97	323.04	18.57	-36.2	-38.0	21.6	0.00e+00	0	38	0	3050307584	43	4549
2026-01-23 13:04:01.97	323.16	18.46	-36.1	-37.9	21.7	0.00e+00	0	38	0	3055550464	43	4501
2026-01-23 13:04:02.96	323.29	18.36	-36.2	-37.9	21.6	0.00e+00	0	38	0	3061841920	43	4544
2026-01-23 13:04:03.96	323.41	18.26	-36.1	-37.9	21.7	0.00e+00	0	38	0	3067084800	43	4494
2026-01-23 13:04:04.95	323.53	18.15	-36.1	-37.9	21.7	0.00e+00	0	38	0	3072327680	43	4507
2026-01-23 13:04:05.94	323.65	18.05	-36.2	-37.9	21.6	0.00e+00	0	38	0	3078619136	43	4538
2026-01-23 13:04:06.94	323.78	17.95	-36.2	-37.9	21.6	0.00e+00	0	38	0	3083862016	43	4540
2026-01-23 13:04:07.93	323.90	17.85	-36.2	-38.0	21.6	0.00e+00	0	38	0	3089104896	43	4553
2026-01-23 13:04:08.93	324.02	17.74	-36.3	-38.0	21.5	0.00e+00	0	38	0	3095396352	43	4598
2026-01-23 13:04:09.92	324.14	17.64	-36.3	-38.0	21.5	0.00e+00	0	38	0	3100639232	43	4589
2026-01-23 13:04:10.92	324.26	17.54	-36.4	-38.1	21.4	0.00e+00	0	38	0	3105882112	43	4625
2026-01-23 13:04:11.91	324.37	17.44	-36.4	-38.1	21.5	0.00e+00	0	38	0	3112173568	43	4630
2026-01-23 13:04:12.91	324.49	17.34	-36.4	-38.1	21.4	0.00e+00	0	38	0	3117416448	43	4629
2026-01-23 13:04:13.90	324.60	17.24	-36.4	-38.1	21.4	0.00e+00	0	38	0	3122659328	43	4633
2026-01-23 13:04:14.90	324.72	17.14	-36.4	-38.2	21.4	0.00e+00	0	38	0	3128950784	43	4653
2026-01-23 13:04:15.89	324.84	17.04	-36.5	-38.2	21.3	0.00e+00	0	38	0	3134193664	43	4705
2026-01-23 13:04:16.89	324.95	16.94	-36.4	-38.2	21.4	0.00e+00	0	38	0	3139436544	43	4654
2026-01-23 13:04:17.88	325.06	16.84	-36.4	-38.2	21.4	0.00e+00	0	38	0	3145728000	43	4654
2026-01-23 13:04:18.88	325.18	16.75	-36.5	-38.3	21.3	0.00e+00	0	38	0	3150970880	43	4718
2026-01-23 13:04:19.87	325.29	16.65	-36.4	-38.2	21.4	0.00e+00	0	38	0	3157262336	43	4673
2026-01-23 13:04:20.86	325.40	16.55	-36.4	-38.2	21.3	0.00e+00	0	38	0	3162505216	43	4693
2026-01-23 13:04:21.86	325.51	16.45	-36.5	-38.4	21.2	0.00e+00	0	38	0	3167748096	43	4775
2026-01-23 13:04:22.86	325.62	16.35	-36.4	-38.3	21.2	0.00e+00	0	38	0	3172990976	43	4724
2026-01-23 13:04:23.85	325.73	16.26	-36.5	-38.4	21.2	0.00e+00	0	38	0	3179282432	43	4763
2026-01-23 13:04:24.85	325.84	16.16	-36.5	-38.3	21.2	0.00e+00	0	38	0	3184525312	43	4738
2026-01-23 13:04:25.84	325.94	16.06	-36.6	-38.4	21.1	0.00e+00	0	38	0	3189768192	43	4814
2026-01-23 13:04:26.84	326.05	15.97	-36.5	-38.3	21.2	0.00e+00	0	38	0	3196059648	43	4755
2026-01-23 13:04:27.83	326.16	15.87	-36.6	-38.5	21.1	0.00e+00	0	38	0	3201302528	43	4817
2026-01-23 13:04:28.82	326.26	15.78	-36.8	-38.6	21.1	0.00e+00	0	38	0	3207593984	44	4611
2026-01-23 13:04:29.82	326.37	15.68	-36.9	-38.7	21.1	0.00e+00	0	38	0	3212836864	44	4669
2026-01-23 13:04:30.82	326.47	15.59	-36.9	-38.7	21.0	0.00e+00	0	38	0	3218079744	44	4675
2026-01-23 13:04:31.81	326.58	15.49	-36.9	-38.7	21.0	0.00e+00	0	38	0	3223322624	44	4700
2026-01-23 13:04:32.80	326.68	15.40	-36.9	-38.7	21.0	0.00e+00	0	38	0	3229614080	44	4700
2026-01-23 13:04:33.80	326.78	15.30	-36.9	-38.7	21.0	0.00e+00	0	38	0	3234856960	44	4690
2026-01-23 13:04:34.80	326.88	15.21	-37.0	-38.8	20.9	0.00e+00	0	38	0	3240099840	44	4724
2026-01-23 13:04:35.79	326.98	15.12	-37.0	-38.8	20.9	0.00e+00	0	38	0	3246391296	44	4741
2026-01-23 13:04:36.79	327.09	15.02	-36.9	-38.8	20.9	0.00e+00	0	38	0	3251634176	44	4721
2026-01-23 13:04:37.78	327.18	14.93	-37.0	-38.9	20.9	0.00e+00	0	38	0	3257925632	44	4763
2026-01-23 13:04:38.78	327.28	14.84	-37.0	-38.8	20.9	0.00e+00	0	38	0	3263168512	44	4732
2026-01-23 13:04:39.77	327.38	14.74	-37.0	-38.8	20.9	0.00e+00	0	38	0	3268411392	44	4738
2026-01-23 13:04:40.77	327.48	14.65	-37.0	-38.9	20.9	0.00e+00	0	38	0	3273654272	44	4767
2026-01-23 13:04:41.76	327.58	14.56	-37.1	-39.0	20.7	0.00e+00	0	38	0	3279945728	44	4829
2026-01-23 13:04:42.76	327.68	14.47	-37.1	-38.9	20.8	0.00e+00	0	38	0	3285188608	44	4790
2026-01-23 13:04:43.75	327.77	14.38	-37.2	-39.0	20.7	0.00e+00	0	38	0	3290431488	44	4843
2026-01-23 13:04:44.75	327.87	14.29	-37.2	-39.1	20.6	0.00e+00	0	38	0	3296722944	45	4603
2026-01-23 13:04:45.74	327.96	14.19	-37.3	-39.1	20.6	0.00e+00	0	38	0	3301965824	45	4603
2026-01-23 13:04:46.74	328.06	14.10	-37.4	-39.2	20.5	0.00e+00	0	38	0	3308257280	45	4661
2026-01-23 13:04:47.73	328.15	14.01	-37.4	-39.3	20.4	0.00e+00	0	38	0	3313500160	45	4707
2026-01-23 13:04:48.73	328.25	13.92	-37.5	-39.3	20.5	0.00e+00	0	38	0	3318743040	45	4711
2026-01-23 13:04:49.72	328.34	13.83	-37.5	-39.3	20.4	0.00e+00	0	38	0	3325034496	45	4757
2026-01-23 13:04:50.72	328.43	13.74	-37.5	-39.4	20.3	0.00e+00	0	38	0	3330277376	45	4772
2026-01-23 13:04:51.71	328.53	13.66	-37.6	-39.4	20.3	0.00e+00	0	38	0	3335520256	45	4810
2026-01-23 13:04:52.70	328.62	13.57	-37.6	-39.4	20.2	0.00e+00	0	38	0	3341811712	45	4814
2026-01-23 13:04:53.70	328.71	13.48	-37.7	-39.6	20.2	0.00e+00	0	38	0	3347054592	46	4616
2026-01-23 13:04:54.69	328.80	13.39	-37.7	-39.6	20.1	0.00e+00	0	38	0	3352297472	46	4650
2026-01-23 13:04:55.69	328.89	13.30	-37.7	-39.6	20.1	0.00e+00	0	38	0	3358588928	46	4640
2026-01-23 13:04:56.68	328.98	13.21	-37.8	-39.7	19.9	0.00e+00	0	38	0	3363831808	46	4695
2026-01-23 13:04:57.68	329.07	13.13	-37.8	-39.7	20.0	0.00e+00	0	38	0	3369074688	46	4670
2026-01-23 13:04:58.67	329.16	13.04	-37.7	-39.6	20.1	0.00e+00	0	38	0	3374317568	46	4642
2026-01-23 13:04:59.66	329.24	12.95	-37.8	-39.7	20.0	0.00e+00	0	38	0	3380609024	46	4689
2026-01-23 13:05:00.66	329.33	12.86	-37.8	-39.7	20.0	0.00e+00	0	38	0	3385851904	46	4686
2026-01-23 13:05:01.65	329.42	12.78	-37.9	-39.7	19.9	0.00e+00	0	38	0	3392143360	46	4700
2026-01-23 13:05:02.64	329.51	12.69	-37.8	-39.7	20.0	0.00e+00	0	38	0	3397386240	46	4678
2026-01-23 13:05:03.64	329.59	12.61	-37.9	-39.7	20.0	0.00e+00	0	38	0	3402629120	46	4685
2026-01-23 13:05:04.63	329.68	12.52	-37.9	-39.7	19.9	0.00e+00	0	38	0	3408920576	46	4705
2026-01-23 13:05:05.63	329.76	12.43	-37.9	-39.7	20.0	0.00e+00	0	38	0	3414163456	46	4702
2026-01-23 13:05:06.62	329.85	12.35	-37.8	-39.6	20.1	0.00e+00	0	38	0	3419406336	46	4636
2026-01-23 13:05:07.62	329.93	12.26	-37.8	-39.7	20.0	0.00e+00	0	38	0	3425697792	46	4656
2026-01-23 13:05:08.61	330.02	12.18	-37.8	-39.7	20.0	0.00e+00	0	38	0	3430940672	46	4652
2026-01-23 13:05:09.61	330.10	12.09	-37.8	-39.7	20.0	0.00e+00	0	38	0	3436183552	46	4665
2026-01-23 13:05:10.60	330.18	12.01	-37.9	-39.8	19.9	0.00e+00	0	38	0	3442475008	46	4706
2026-01-23 13:05:11.60	330.27	11.93	-37.9	-39.7	20.0	0.00e+00	0	38	0	3447717888	46	4693
2026-01-23 13:05:12.59	330.35	11.84	-37.9	-39.8	19.9	0.00e+00	0	38	0	3452960768	46	4706
2026-01-23 13:05:13.59	330.43	11.76	-37.9	-39.8	19.9	0.00e+00	0	38	0	3459252224	46	4728
2026-01-23 13:05:14.58	330.51	11.67	-38.0	-39.9	19.8	0.00e+00	0	38	0	3464495104	46	4786
2026-01-23 13:05:15.58	330.59	11.59	-38.0	-39.9	19.8	0.00e+00	0	38	0	3469737984	46	4765
2026-01-23 13:05:16.57	330.67	11.51	-38.0	-39.8	19.8	0.00e+00	0	38	0	3476029440	46	4757
2026-01-23 13:05:17.57	330.75	11.43	-38.0	-39.9	19.8	0.00e+00	0	38	0	3481272320	46	4768
2026-01-23 13:05:18.56	330.83	11.34	-38.1	-40.0	19.7	0.00e+00	0	38	0	3486515200	46	4815
2026-01-23 13:05:19.55	330.91	11.26	-38.1	-40.0	19.6	0.00e+00	0	38	0	3492806656	47	4589
2026-01-23 13:05:20.55	330.99	11.18	-38.1	-39.9	19.7	0.00e+00	0	38	0	3498049536	47	4534
2026-01-23 13:05:21.55	331.07	11.10	-38.1	-40.0	19.7	0.00e+00	0	38	0	3503292416	47	4570
2026-01-23 13:05:22.54	331.14	11.02	-38.1	-40.0	19.6	0.00e+00	0	38	0	3509583872	47	4565
2026-01-23 13:05:23.54	331.22	10.93	-38.2	-40.1	19.6	0.00e+00	0	38	0	3514826752	47	4618
2026-01-23 13:05:24.53	331.30	10.85	-38.1	-40.0	19.6	0.00e+00	0	38	0	3520069632	47	4576
2026-01-23 13:05:25.53	331.38	10.77	-38.1	-40.1	19.6	0.00e+00	0	38	0	3526361088	47	4599
2026-01-23 13:05:26.52	331.45	10.69	-38.1	-40.0	19.6	0.00e+00	0	38	0	3531603968	47	4580
2026-01-23 13:05:27.52	331.53	10.61	-38.1	-40.1	19.6	0.00e+00	0	38	0	3536846848	47	4606
2026-01-23 13:05:28.51	331.60	10.53	-38.2	-40.1	19.5	0.00e+00	0	38	0	3543138304	47	4624
2026-01-23 13:05:29.51	331.68	10.45	-38.1	-40.0	19.6	0.00e+00	0	38	0	3548381184	47	4592
2026-01-23 13:05:30.50	331.75	10.37	-38.0	-39.9	19.7	0.00e+00	0	38	0	3553624064	47	4543
2026-01-23 13:05:31.50	331.83	10.29	-38.1	-40.0	19.5	0.00e+00	0	38	0	3559915520	47	4596
2026-01-23 13:05:32.49	331.90	10.21	-38.2	-40.1	19.5	0.00e+00	0	38	0	3565158400	47	4615
2026-01-23 13:05:33.49	331.97	10.13	-38.2	-40.2	19.4	0.00e+00	0	38	0	3570401280	47	4671
2026-01-23 13:05:34.48	332.05	10.05	-38.1	-40.1	19.5	0.00e+00	0	38	0	3576692736	47	4607
2026-01-23 13:05:35.48	332.12	9.97	-38.2	-40.2	19.4	0.00e+00	0	38	0	3581935616	47	4658
2026-01-23 13:05:36.47	332.19	9.90	-38.1	-40.0	19.5	0.00e+00	0	38	0	3587178496	47	4596
2026-01-23 13:05:37.47	332.26	9.82	-38.2	-40.1	19.5	0.00e+00	0	38	0	3593469952	47	4607
2026-01-23 13:05:38.46	332.34	9.74	-38.2	-40.1	19.4	0.00e+00	0	38	0	3598712832	47	4646
2026-01-23 13:05:39.46	332.41	9.66	-38.3	-40.2	19.4	0.00e+00	0	38	0	3603955712	47	4673
2026-01-23 13:05:40.45	332.48	9.58	-38.3	-40.2	19.4	0.00e+00	0	38	0	3610247168	47	4667
