passes_logs/2026/01/23/T1/T1__20260123_224700_NOAA_20_JPSS-1_rec.log

#Pass ID: 20260123_224700_NOAA 20 (JPSS-1)
#Satellite: NOAA 20 (JPSS-1)
#Configuration: NOAA 20
#almurnet v.1.7.20251203
#Start time: 2026-01-23 22:47:00

#Version: 2.0.20230620
#Station: T1
#Location: 37.570604 lon 55.790049 lat
#TLE: 1 43013U 17073A   26022.94240312  .00000200  00000+0  11574-3 0  9998
#TLE: 2 43013  98.7645 323.7982 0001179  28.0279 332.0961 14.19539020423863

#Time	Az	El	Level	Level2	SNR	BER	BlckErr	Temp	State	Recorded	gain1	gain2
2026-01-23 22:47:00.90	23.34	5.05	-47.7	-63.3	3.8	1.49e+00	0	39	0	0	67	21180
2026-01-23 22:47:01.89	23.39	5.12	-47.7	-63.3	3.8	1.49e+00	0	39	104	0	67	21048
2026-01-23 22:47:02.88	23.44	5.18	-47.7	-63.3	3.8	1.49e+00	0	39	104	0	67	21038
2026-01-23 22:47:03.88	23.50	5.25	-47.7	-63.2	3.8	1.49e+00	0	39	104	0	67	21000
2026-01-23 22:47:04.87	23.55	5.32	-47.7	-63.2	3.8	1.49e+00	0	39	104	0	67	21005
2026-01-23 22:47:05.86	23.61	5.38	-47.7	-63.2	3.8	1.49e+00	0	39	104	0	67	20904
2026-01-23 22:47:06.85	23.66	5.45	-47.7	-63.2	3.8	1.49e+00	0	39	104	0	67	20853
2026-01-23 22:47:07.85	23.72	5.52	-47.7	-63.2	3.8	1.49e+00	0	39	104	0	67	20786
2026-01-23 22:47:08.84	23.77	5.59	-47.7	-63.1	3.8	1.49e+00	0	39	104	0	67	20660
2026-01-23 22:47:09.84	23.83	5.65	-47.7	-63.1	3.8	1.49e+00	0	39	104	0	67	20732
2026-01-23 22:47:10.83	23.88	5.72	-47.7	-63.1	3.8	1.49e+00	0	39	104	0	67	20745
2026-01-23 22:47:11.82	23.94	5.79	-47.7	-63.1	3.8	1.49e+00	0	39	104	0	67	20698
2026-01-23 22:47:12.81	23.99	5.86	-47.7	-63.1	3.8	1.49e+00	0	39	104	0	67	20726
2026-01-23 22:47:13.81	24.05	5.92	-47.7	-63.2	3.8	1.49e+00	0	39	104	0	67	20821
2026-01-23 22:47:14.80	24.11	5.99	-47.7	-63.2	3.8	1.49e+00	0	39	104	0	67	20934
2026-01-23 22:47:15.80	24.17	6.06	-47.7	-63.2	3.8	1.49e+00	0	39	104	0	67	20853
2026-01-23 22:47:16.79	24.22	6.13	-47.7	-63.2	3.8	1.49e+00	0	39	104	0	67	20893
2026-01-23 22:47:17.78	24.28	6.20	-47.7	-63.2	3.8	1.49e+00	0	39	104	0	67	20988
2026-01-23 22:47:18.78	24.34	6.27	-47.7	-63.3	3.8	1.49e+00	0	40	104	0	67	21022
2026-01-23 22:47:19.77	24.40	6.33	-47.7	-63.2	3.8	1.49e+00	0	40	104	0	67	20985
2026-01-23 22:47:20.76	24.45	6.40	-47.7	-63.2	3.8	1.49e+00	0	39	104	0	67	20969
2026-01-23 22:47:21.76	24.51	6.47	-47.7	-63.2	3.8	1.49e+00	0	40	104	0	67	20911
2026-01-23 22:47:22.75	24.57	6.54	-47.7	-63.2	3.8	1.49e+00	0	39	104	0	67	20893
2026-01-23 22:47:23.74	24.63	6.61	-47.7	-63.2	3.8	1.49e+00	0	40	104	0	67	20794
2026-01-23 22:47:24.73	24.69	6.68	-47.7	-63.2	3.8	1.49e+00	0	39	104	0	67	20805
2026-01-23 22:47:25.73	24.75	6.75	-47.7	-63.2	3.8	1.49e+00	0	40	104	0	67	20808
2026-01-23 22:47:26.72	24.81	6.82	-47.7	-63.2	3.8	1.49e+00	0	40	104	0	67	20819
2026-01-23 22:47:27.71	24.87	6.89	-47.7	-63.2	3.8	1.49e+00	0	40	104	0	67	20893
2026-01-23 22:47:28.71	24.93	6.96	-47.7	-63.3	3.8	1.49e+00	0	40	104	0	67	21025
2026-01-23 22:47:29.70	24.99	7.03	-47.7	-63.3	3.8	1.49e+00	0	40	104	0	67	21055
2026-01-23 22:47:30.70	25.05	7.10	-47.7	-63.3	3.8	1.49e+00	0	40	104	0	67	21099
2026-01-23 22:47:31.69	25.11	7.17	-47.7	-63.3	3.8	1.49e+00	0	40	104	0	67	21064
2026-01-23 22:47:32.68	25.17	7.25	-47.7	-63.2	3.8	1.49e+00	0	40	104	0	67	20936
2026-01-23 22:47:33.68	25.23	7.32	-47.7	-63.1	3.8	1.49e+00	0	40	104	0	67	20650
2026-01-23 22:47:34.67	25.30	7.39	-47.7	-63.0	3.8	1.49e+00	0	40	104	0	67	20327
2026-01-23 22:47:35.66	25.36	7.46	-47.7	-62.9	3.8	1.49e+00	0	40	104	0	67	20072
2026-01-23 22:47:36.66	25.42	7.53	-47.7	-62.7	3.8	1.49e+00	0	40	104	0	67	19705
2026-01-23 22:47:37.65	25.48	7.60	-47.7	-62.6	3.8	1.49e+00	0	40	104	0	67	19481
2026-01-23 22:47:38.64	25.55	7.68	-47.7	-62.5	3.8	1.49e+00	0	40	104	0	67	19173
2026-01-23 22:47:39.64	25.61	7.75	-47.7	-62.4	3.8	1.49e+00	0	40	104	0	67	19054
2026-01-23 22:47:40.63	25.67	7.82	-47.7	-62.4	3.8	1.49e+00	0	40	104	0	67	19104
2026-01-23 22:47:41.62	25.74	7.89	-47.7	-62.4	3.8	1.49e+00	0	40	104	0	67	18988
2026-01-23 22:47:42.62	25.80	7.97	-47.7	-62.3	3.8	1.49e+00	0	40	104	0	67	18945
2026-01-23 22:47:43.61	25.87	8.04	-47.7	-62.3	3.8	1.49e+00	0	40	104	0	67	18768
2026-01-23 22:47:44.61	25.93	8.11	-47.7	-62.2	3.8	1.49e+00	0	40	104	0	67	18720
2026-01-23 22:47:45.60	26.00	8.19	-47.7	-62.2	3.8	1.49e+00	0	40	104	0	67	18604
2026-01-23 22:47:46.59	26.06	8.26	-47.7	-62.0	3.8	1.49e+00	0	40	104	0	67	18241
2026-01-23 22:47:47.59	26.13	8.33	-47.6	-61.8	3.8	1.49e+00	0	40	104	0	67	17803
2026-01-23 22:47:48.58	26.20	8.41	-47.6	-61.4	3.9	1.49e+00	0	41	104	0	67	16981
2026-01-23 22:47:49.58	26.26	8.48	-47.6	-60.8	3.9	1.48e+00	0	40	104	0	67	15817
2026-01-23 22:47:50.57	26.33	8.56	-47.5	-59.7	4.2	1.44e+00	0	40	0	0	67	13962
2026-01-23 22:47:51.56	26.40	8.63	-47.4	-58.4	4.6	1.30e+00	0	40	0	1048576	66	12754
2026-01-23 22:47:52.55	26.46	8.71	-47.2	-57.1	5.4	6.37e-01	0	40	0	2097152	66	10919
2026-01-23 22:47:53.55	26.53	8.78	-47.0	-55.6	6.5	3.32e-01	0	40	0	4194304	66	9205
2026-01-23 22:47:54.54	26.60	8.86	-46.6	-54.1	7.8	1.41e-01	0	40	0	6291456	65	8247
2026-01-23 22:47:55.53	26.67	8.93	-46.2	-52.8	9.2	4.69e-02	0	41	0	8388608	64	7464
2026-01-23 22:47:56.53	26.74	9.01	-46.0	-51.8	10.3	8.12e-03	0	40	0	9437184	63	7058
2026-01-23 22:47:57.52	26.80	9.08	-45.9	-51.5	10.6	2.44e-03	0	41	0	11534336	63	6813
2026-01-23 22:47:58.52	26.87	9.16	-46.7	-53.8	8.4	4.58e-03	0	40	0	13631488	64	8370
2026-01-23 22:47:59.51	26.94	9.23	-46.0	-51.8	9.9	1.91e-01	0	40	0	15728640	64	6705
2026-01-23 22:48:00.51	27.01	9.31	-46.6	-53.6	8.7	7.12e-04	0	40	0	17825792	63	8675
2026-01-23 22:48:01.50	27.08	9.39	-45.2	-49.8	12.0	7.81e-01	0	41	0	18874368	62	5972
2026-01-23 22:48:02.50	27.16	9.46	-43.1	-46.2	16.1	0.00e+00	0	40	0	20971520	58	4969
2026-01-23 22:48:03.49	27.23	9.54	-43.0	-46.0	16.2	0.00e+00	0	40	0	23068672	58	4869
2026-01-23 22:48:04.49	27.30	9.62	-42.9	-45.9	16.3	0.00e+00	0	40	0	25165824	57	5096
2026-01-23 22:48:05.48	27.37	9.70	-42.9	-45.9	16.4	0.00e+00	0	41	0	26214400	57	5043
2026-01-23 22:48:06.48	27.44	9.77	-42.8	-45.8	16.5	0.00e+00	0	41	0	28311552	57	5013
2026-01-23 22:48:07.47	27.51	9.85	-42.7	-45.7	16.6	0.00e+00	0	41	0	30408704	57	4940
2026-01-23 22:48:08.47	27.59	9.93	-42.5	-45.4	16.8	0.00e+00	0	41	0	32505856	57	4793
2026-01-23 22:48:09.46	27.66	10.01	-42.5	-45.4	16.8	0.00e+00	0	40	0	34603008	57	4792
2026-01-23 22:48:10.46	27.74	10.09	-42.5	-45.4	16.9	0.00e+00	0	41	0	35651584	57	4778
2026-01-23 22:48:11.45	27.81	10.16	-42.5	-45.4	16.8	0.00e+00	0	41	0	37748736	57	4783
2026-01-23 22:48:12.47	27.89	10.25	-42.5	-45.3	17.0	0.00e+00	0	41	0	39845888	56	5008
2026-01-23 22:48:13.47	27.96	10.33	-42.4	-45.3	17.0	0.00e+00	0	41	0	41943040	56	4986
2026-01-23 22:48:14.46	28.04	10.40	-42.5	-45.3	17.0	0.00e+00	0	41	0	44040192	56	5021
2026-01-23 22:48:15.45	28.11	10.48	-42.5	-45.3	17.0	0.00e+00	0	41	0	45088768	56	5007
2026-01-23 22:48:16.45	28.19	10.56	-42.5	-45.4	17.0	0.00e+00	0	41	0	47185920	56	5042
2026-01-23 22:48:17.45	28.26	10.64	-42.4	-45.3	17.1	0.00e+00	0	41	0	49283072	56	4991
2026-01-23 22:48:18.44	28.34	10.72	-42.4	-45.3	17.0	0.00e+00	0	41	0	51380224	56	5009
2026-01-23 22:48:19.43	28.42	10.80	-42.5	-45.3	17.0	0.00e+00	0	41	0	52428800	56	5022
2026-01-23 22:48:20.43	28.50	10.88	-42.5	-45.4	16.9	0.00e+00	0	41	0	54525952	56	5088
2026-01-23 22:48:21.42	28.57	10.97	-42.4	-45.2	17.1	0.00e+00	0	41	0	56623104	56	4949
2026-01-23 22:48:22.41	28.65	11.05	-42.4	-45.2	17.1	0.00e+00	0	41	0	58720256	56	4975
2026-01-23 22:48:23.41	28.73	11.13	-42.4	-45.3	17.1	0.00e+00	0	41	0	60817408	56	4990
2026-01-23 22:48:24.41	28.81	11.21	-42.3	-45.2	17.2	0.00e+00	0	41	0	61865984	56	4932
2026-01-23 22:48:25.40	28.89	11.29	-42.3	-45.1	17.2	0.00e+00	0	41	0	63963136	56	4923
2026-01-23 22:48:26.40	28.97	11.37	-42.2	-45.0	17.3	0.00e+00	0	41	0	66060288	56	4870
2026-01-23 22:48:27.39	29.05	11.46	-42.3	-45.1	17.2	0.00e+00	0	41	0	68157440	56	4885
2026-01-23 22:48:28.39	29.13	11.54	-42.3	-45.1	17.2	0.00e+00	0	41	0	69206016	56	4919
2026-01-23 22:48:29.38	29.21	11.62	-42.4	-45.2	17.1	0.00e+00	0	41	0	71303168	56	4962
2026-01-23 22:48:30.44	29.30	11.71	-42.2	-45.0	17.3	0.00e+00	0	41	0	73400320	56	4863
2026-01-23 22:48:31.37	29.38	11.79	-42.2	-44.9	17.4	0.00e+00	0	41	0	75497472	56	4790
2026-01-23 22:48:32.37	29.46	11.87	-42.3	-45.0	17.3	0.00e+00	0	41	0	77594624	56	4869
2026-01-23 22:48:33.36	29.54	11.95	-42.2	-44.9	17.3	0.00e+00	0	41	0	78643200	56	4791
2026-01-23 22:48:34.36	29.63	12.04	-42.1	-44.8	17.6	0.00e+00	0	41	0	80740352	56	4721
2026-01-23 22:48:35.36	29.71	12.12	-42.0	-44.7	17.7	0.00e+00	0	41	0	82837504	56	4662
2026-01-23 22:48:36.35	29.79	12.21	-42.0	-44.6	17.7	0.00e+00	0	41	0	84934656	56	4639
2026-01-23 22:48:37.34	29.88	12.29	-41.8	-44.4	17.8	0.00e+00	0	41	0	87031808	55	4769
2026-01-23 22:48:38.34	29.96	12.38	-41.8	-44.4	17.8	0.00e+00	0	41	0	88080384	55	4769
2026-01-23 22:48:39.34	30.05	12.46	-41.8	-44.4	17.8	0.00e+00	0	41	0	90177536	55	4802
2026-01-23 22:48:40.33	30.14	12.55	-41.8	-44.4	17.8	0.00e+00	0	41	0	92274688	55	4783
2026-01-23 22:48:41.32	30.22	12.63	-41.7	-44.2	18.0	0.00e+00	0	41	0	94371840	55	4682
2026-01-23 22:48:42.32	30.31	12.72	-41.7	-44.3	17.9	0.00e+00	0	41	0	95420416	55	4720
2026-01-23 22:48:43.31	30.40	12.80	-41.6	-44.1	18.1	0.00e+00	0	41	0	97517568	55	4624
2026-01-23 22:48:44.37	30.49	12.90	-41.7	-44.2	18.0	0.00e+00	0	41	0	99614720	55	4683
2026-01-23 22:48:45.26	30.57	12.97	-41.7	-44.2	18.0	0.00e+00	0	41	0	101711872	55	4670
2026-01-23 22:48:46.56	30.69	13.09	-41.5	-44.0	18.2	0.00e+00	0	41	0	103809024	55	4576
2026-01-23 22:48:47.27	30.75	13.15	-41.5	-44.0	18.2	0.00e+00	0	41	0	104857600	54	4815
2026-01-23 22:48:48.76	30.89	13.28	-41.5	-43.9	18.2	0.00e+00	0	41	0	108003328	54	4814
2026-01-23 22:48:49.47	30.95	13.34	-41.4	-43.8	18.4	0.00e+00	0	41	0	109051904	54	4744
2026-01-23 22:48:50.76	31.07	13.46	-41.3	-43.7	18.5	0.00e+00	0	41	0	111149056	54	4679
2026-01-23 22:48:51.47	31.14	13.52	-41.3	-43.7	18.5	0.00e+00	0	41	0	113246208	54	4700
2026-01-23 22:48:52.75	31.26	13.63	-41.2	-43.6	18.6	0.00e+00	0	41	0	115343360	54	4625
2026-01-23 22:48:53.48	31.32	13.70	-41.2	-43.6	18.6	0.00e+00	0	41	0	116391936	54	4640
2026-01-23 22:48:54.76	31.44	13.81	-41.2	-43.6	18.6	0.00e+00	0	41	0	119537664	54	4631
2026-01-23 22:48:55.49	31.51	13.88	-41.1	-43.5	18.7	0.00e+00	0	41	0	120586240	54	4566
2026-01-23 22:48:56.77	31.64	13.99	-41.2	-43.6	18.6	0.00e+00	0	41	0	122683392	54	4623
2026-01-23 22:48:57.48	31.70	14.06	-41.0	-43.5	18.8	0.00e+00	0	41	0	123731968	54	4547
2026-01-23 22:48:58.76	31.83	14.17	-41.1	-43.6	18.7	0.00e+00	0	41	0	126877696	54	4602
2026-01-23 22:48:59.52	31.90	14.24	-41.1	-43.6	18.6	0.00e+00	0	41	0	127926272	54	4605
2026-01-23 22:49:00.79	32.02	14.36	-41.1	-43.5	18.7	0.00e+00	0	41	0	130023424	54	4587
2026-01-23 22:49:01.52	32.10	14.42	-41.1	-43.6	18.7	0.00e+00	0	41	0	132120576	54	4604
2026-01-23 22:49:02.80	32.22	14.54	-41.2	-43.7	18.6	0.00e+00	0	41	0	134217728	54	4656
2026-01-23 22:49:03.57	32.30	14.61	-41.2	-43.7	18.6	0.00e+00	0	41	0	135266304	54	4669
2026-01-23 22:49:04.85	32.43	14.73	-41.2	-43.7	18.5	0.00e+00	0	41	0	138412032	54	4677
2026-01-23 22:49:05.56	32.50	14.79	-41.3	-43.7	18.5	0.00e+00	0	41	0	139460608	54	4680
2026-01-23 22:49:06.84	32.63	14.91	-41.3	-43.7	18.5	0.00e+00	0	41	0	141557760	54	4701
2026-01-23 22:49:07.73	32.72	15.00	-41.3	-43.7	18.6	0.00e+00	0	41	0	143654912	54	4676
2026-01-23 22:49:08.86	32.83	15.10	-41.4	-43.8	18.4	0.00e+00	0	41	0	145752064	54	4745
2026-01-23 22:49:09.72	32.92	15.18	-41.4	-43.9	18.4	0.00e+00	0	41	0	146800640	54	4767
2026-01-23 22:49:10.85	33.04	15.29	-41.4	-43.9	18.4	0.00e+00	0	41	0	148897792	54	4795
2026-01-23 22:49:11.71	33.13	15.37	-41.5	-44.0	18.3	0.00e+00	0	41	0	150994944	54	4826
2026-01-23 22:49:12.84	33.25	15.48	-41.5	-44.0	18.3	0.00e+00	0	41	0	153092096	54	4851
2026-01-23 22:49:13.69	33.33	15.56	-41.5	-44.0	18.3	0.00e+00	0	41	0	155189248	54	4825
2026-01-23 22:49:14.83	33.46	15.66	-41.4	-43.9	18.4	0.00e+00	0	41	0	156237824	54	4786
2026-01-23 22:49:15.69	33.55	15.75	-41.6	-44.1	18.2	0.00e+00	0	41	0	158334976	54	4887
2026-01-23 22:49:16.82	33.67	15.85	-41.5	-44.0	18.2	0.00e+00	0	41	0	160432128	54	4840
2026-01-23 22:49:17.67	33.76	15.93	-41.5	-44.0	18.3	0.00e+00	0	41	0	162529280	54	4849
2026-01-23 22:49:18.81	33.88	16.04	-41.4	-43.9	18.4	0.00e+00	0	41	0	164626432	54	4773
2026-01-23 22:49:19.66	33.98	16.13	-41.5	-43.9	18.3	0.00e+00	0	41	0	165675008	54	4811
2026-01-23 22:49:20.80	34.10	16.24	-41.5	-43.9	18.4	0.00e+00	0	41	0	167772160	54	4797
2026-01-23 22:49:21.66	34.20	16.32	-41.4	-43.9	18.4	0.00e+00	0	41	0	169869312	54	4791
2026-01-23 22:49:22.79	34.32	16.43	-41.5	-44.0	18.3	0.00e+00	0	41	0	171966464	54	4843
2026-01-23 22:49:23.64	34.42	16.51	-41.4	-43.9	18.4	0.00e+00	0	41	0	173015040	54	4794
2026-01-23 22:49:24.78	34.55	16.62	-41.5	-44.1	18.2	0.00e+00	0	41	0	175112192	54	4885
2026-01-23 22:49:25.63	34.64	16.71	-41.4	-44.0	18.3	0.00e+00	0	41	0	177209344	54	4841
2026-01-23 22:49:26.77	34.77	16.82	-41.5	-44.0	18.3	0.00e+00	0	41	0	179306496	54	4868
2026-01-23 22:49:27.62	34.87	16.90	-41.4	-44.0	18.3	0.00e+00	0	41	0	180355072	54	4840
2026-01-23 22:49:28.76	35.00	17.02	-41.5	-44.0	18.3	0.00e+00	0	41	0	182452224	54	4841
2026-01-23 22:49:29.61	35.10	17.10	-41.6	-44.1	18.2	0.00e+00	0	41	0	184549376	54	4906
2026-01-23 22:49:30.75	35.23	17.21	-41.6	-44.2	18.1	0.00e+00	0	41	0	186646528	54	4945
2026-01-23 22:49:31.60	35.33	17.30	-41.6	-44.1	18.2	0.00e+00	0	41	0	188743680	54	4886
2026-01-23 22:49:32.74	35.47	17.41	-41.6	-44.1	18.1	0.00e+00	0	41	0	189792256	54	4901
2026-01-23 22:49:33.59	35.57	17.50	-41.7	-44.2	18.2	0.00e+00	0	41	0	191889408	54	4947
2026-01-23 22:49:34.73	35.71	17.61	-41.8	-44.3	18.1	0.00e+00	0	41	0	193986560	54	5008
2026-01-23 22:49:35.60	35.81	17.70	-41.8	-44.3	18.0	0.00e+00	0	41	0	196083712	54	5040
2026-01-23 22:49:36.91	35.97	17.83	-41.9	-44.5	17.9	0.00e+00	0	41	0	198180864	54	5108
2026-01-23 22:49:37.62	36.06	17.91	-42.0	-44.5	17.8	0.00e+00	0	41	0	199229440	54	5136
2026-01-23 22:49:38.90	36.22	18.04	-42.1	-44.7	17.7	0.00e+00	0	41	0	202375168	54	5228
2026-01-23 22:49:39.63	36.31	18.11	-42.1	-44.7	17.7	0.00e+00	0	41	0	203423744	54	5241
2026-01-23 22:49:41.13	36.49	18.26	-42.2	-44.8	17.5	0.00e+00	0	41	0	206569472	55	5037
2026-01-23 22:49:41.84	36.58	18.34	-42.3	-45.0	17.4	0.00e+00	0	41	0	207618048	55	5103
2026-01-23 22:49:43.17	36.75	18.47	-42.2	-44.9	17.5	0.00e+00	0	41	0	209715200	55	5054
2026-01-23 22:49:43.88	36.84	18.55	-42.3	-44.9	17.4	0.00e+00	0	41	0	210763776	55	5082
2026-01-23 22:49:45.24	37.02	18.69	-42.3	-44.9	17.4	0.00e+00	0	41	0	213909504	55	5100
2026-01-23 22:49:45.95	37.11	18.76	-42.4	-45.0	17.3	0.00e+00	0	41	0	214958080	55	5147
2026-01-23 22:49:47.23	37.28	18.90	-42.4	-45.1	17.3	0.00e+00	0	41	0	217055232	55	5175
2026-01-23 22:49:47.94	37.37	18.97	-42.4	-45.0	17.3	0.00e+00	0	41	0	219152384	55	5144
2026-01-23 22:49:49.22	37.54	19.11	-42.4	-45.1	17.3	0.00e+00	0	41	0	221249536	55	5166
2026-01-23 22:49:49.95	37.63	19.18	-42.4	-45.1	17.2	0.00e+00	0	41	0	222298112	55	5197
2026-01-23 22:49:51.22	37.80	19.32	-42.4	-45.1	17.3	0.00e+00	0	41	0	225443840	55	5195
2026-01-23 22:49:51.93	37.90	19.39	-42.4	-45.1	17.3	0.00e+00	0	41	0	226492416	55	5190
2026-01-23 22:49:53.21	38.07	19.53	-42.4	-45.0	17.3	0.00e+00	0	41	0	228589568	55	5146
2026-01-23 22:49:53.95	38.17	19.61	-42.4	-45.0	17.3	0.00e+00	0	41	0	229638144	55	5153
2026-01-23 22:49:55.23	38.35	19.74	-42.4	-45.0	17.4	0.00e+00	0	41	0	232783872	55	5134
2026-01-23 22:49:55.94	38.45	19.82	-42.4	-45.0	17.3	0.00e+00	0	41	0	233832448	55	5155
2026-01-23 22:49:57.22	38.63	19.96	-42.3	-44.9	17.6	0.00e+00	0	41	0	235929600	55	5047
2026-01-23 22:49:58.09	38.75	20.05	-42.3	-44.9	17.5	0.00e+00	0	41	0	238026752	55	5054
2026-01-23 22:49:59.22	38.91	20.17	-42.2	-44.8	17.5	0.00e+00	0	41	0	240123904	55	5024
2026-01-23 22:50:00.07	39.03	20.27	-42.2	-44.9	17.5	0.00e+00	0	41	0	241172480	55	5055
2026-01-23 22:50:01.57	39.24	20.43	-42.2	-44.9	17.5	0.00e+00	0	41	0	244318208	55	5053
2026-01-23 22:50:02.28	39.34	20.51	-42.3	-44.9	17.4	0.00e+00	0	41	0	245366784	55	5097
2026-01-23 22:50:03.77	39.56	20.67	-42.3	-45.0	17.4	0.00e+00	0	41	0	248512512	55	5134
2026-01-23 22:50:04.48	39.67	20.75	-42.3	-45.0	17.4	0.00e+00	0	41	0	249561088	55	5106
2026-01-23 22:50:05.82	39.86	20.89	-42.3	-45.0	17.4	0.00e+00	0	41	0	252706816	55	5126
2026-01-23 22:50:06.53	39.97	20.97	-42.4	-45.0	17.4	0.00e+00	0	41	0	253755392	55	5132
2026-01-23 22:50:07.81	40.16	21.11	-42.4	-45.0	17.3	0.00e+00	0	41	0	255852544	55	5159
2026-01-23 22:50:08.52	40.27	21.19	-42.4	-45.1	17.3	0.00e+00	0	41	0	257949696	55	5184
2026-01-23 22:50:09.80	40.46	21.34	-42.4	-45.0	17.4	0.00e+00	0	41	0	260046848	55	5135
2026-01-23 22:50:10.51	40.57	21.42	-42.3	-45.0	17.4	0.00e+00	0	41	0	261095424	55	5115
2026-01-23 22:50:11.79	40.77	21.56	-42.4	-45.1	17.4	0.00e+00	0	41	0	263192576	55	5162
2026-01-23 22:50:12.52	40.88	21.64	-42.4	-45.1	17.4	0.00e+00	0	41	0	265289728	55	5165
2026-01-23 22:50:13.80	41.08	21.78	-42.4	-45.1	17.3	0.00e+00	0	41	0	267386880	55	5179
2026-01-23 22:50:14.51	41.19	21.86	-42.4	-45.1	17.3	0.00e+00	0	41	0	268435456	55	5174
2026-01-23 22:50:15.79	41.39	22.01	-42.4	-45.0	17.3	0.00e+00	0	41	0	270532608	55	5159
2026-01-23 22:50:16.50	41.51	22.09	-42.4	-45.0	17.4	0.00e+00	0	41	0	272629760	55	5128
2026-01-23 22:50:17.77	41.71	22.23	-42.3	-44.9	17.5	0.00e+00	0	41	0	274726912	55	5072
2026-01-23 22:50:18.50	41.83	22.32	-42.4	-45.0	17.4	0.00e+00	0	41	0	275775488	55	5126
2026-01-23 22:50:19.78	42.04	22.46	-42.2	-44.8	17.6	0.00e+00	0	41	0	278921216	55	5022
2026-01-23 22:50:20.77	42.20	22.58	-42.1	-44.6	17.8	0.00e+00	0	41	0	279969792	55	4905
2026-01-23 22:50:21.77	42.36	22.69	-42.1	-44.7	17.7	0.00e+00	0	41	0	282066944	55	4960
2026-01-23 22:50:22.76	42.53	22.80	-42.0	-44.6	17.8	0.00e+00	0	41	0	284164096	55	4881
2026-01-23 22:50:23.76	42.70	22.92	-42.1	-44.7	17.7	0.00e+00	0	41	0	286261248	55	4949
2026-01-23 22:50:24.75	42.86	23.03	-42.0	-44.6	17.8	0.00e+00	0	41	0	288358400	55	4905
2026-01-23 22:50:25.75	43.03	23.15	-42.2	-44.8	17.6	0.00e+00	0	41	0	289406976	55	4996
2026-01-23 22:50:26.74	43.20	23.27	-42.1	-44.7	17.7	0.00e+00	0	41	0	291504128	55	4938
2026-01-23 22:50:27.75	43.38	23.38	-42.1	-44.7	17.7	0.00e+00	0	41	0	293601280	55	4965
2026-01-23 22:50:28.78	43.56	23.50	-42.0	-44.6	17.8	0.00e+00	0	41	0	295698432	55	4875
2026-01-23 22:50:29.77	43.73	23.62	-42.0	-44.5	17.9	0.00e+00	0	41	0	297795584	55	4857
2026-01-23 22:50:30.83	43.92	23.74	-41.9	-44.4	18.0	0.00e+00	0	41	0	298844160	55	4788
2026-01-23 22:50:31.74	44.08	23.85	-41.8	-44.3	18.1	0.00e+00	0	41	0	300941312	55	4728
2026-01-23 22:50:32.88	44.28	23.98	-41.8	-44.2	18.2	0.00e+00	0	41	0	303038464	55	4698
2026-01-23 22:50:33.73	44.44	24.08	-41.6	-44.1	18.3	0.00e+00	0	41	0	305135616	55	4612
2026-01-23 22:50:35.07	44.68	24.24	-41.7	-44.1	18.2	0.00e+00	0	41	0	307232768	55	4640
2026-01-23 22:50:35.78	44.81	24.33	-41.6	-44.0	18.3	0.00e+00	0	41	0	308281344	55	4589
2026-01-23 22:50:37.27	45.09	24.50	-41.5	-43.9	18.5	0.00e+00	0	41	0	311427072	54	4770
2026-01-23 22:50:37.98	45.22	24.59	-41.4	-43.7	18.7	0.00e+00	0	41	0	312475648	54	4702
2026-01-23 22:50:39.26	45.46	24.74	-41.3	-43.7	18.8	0.00e+00	0	41	0	314572800	54	4655
2026-01-23 22:50:39.98	45.59	24.83	-41.3	-43.6	18.8	0.00e+00	0	41	0	316669952	54	4646
2026-01-23 22:50:41.26	45.84	24.98	-41.2	-43.6	18.8	0.00e+00	0	41	0	318767104	54	4616
2026-01-23 22:50:41.98	45.98	25.07	-41.3	-43.6	18.8	0.00e+00	0	41	0	319815680	54	4629
2026-01-23 22:50:43.26	46.22	25.22	-41.2	-43.6	18.9	0.00e+00	0	41	0	322961408	54	4600
2026-01-23 22:50:44.00	46.37	25.31	-41.1	-43.5	19.0	0.00e+00	0	41	0	324009984	54	4553
2026-01-23 22:50:45.28	46.62	25.46	-40.9	-43.2	19.2	0.00e+00	0	41	0	326107136	53	4679
2026-01-23 22:50:45.99	46.76	25.55	-41.0	-43.3	19.1	0.00e+00	0	41	0	328204288	53	4721
2026-01-23 22:50:47.27	47.01	25.70	-41.0	-43.3	19.1	0.00e+00	0	41	0	330301440	53	4707
2026-01-23 22:50:48.08	47.18	25.80	-41.1	-43.4	19.0	0.00e+00	0	42	0	331350016	53	4798
2026-01-23 22:50:49.52	47.47	25.98	-41.1	-43.4	19.0	0.00e+00	0	41	0	334495744	53	4785
2026-01-23 22:50:50.22	47.61	26.06	-41.2	-43.5	18.9	0.00e+00	0	41	0	335544320	53	4835
2026-01-23 22:50:51.71	47.92	26.24	-41.1	-43.4	19.0	0.00e+00	0	41	0	338690048	53	4801
2026-01-23 22:50:52.42	48.06	26.33	-41.1	-43.5	18.9	0.00e+00	0	41	0	339738624	53	4817
2026-01-23 22:50:53.70	48.33	26.49	-41.3	-43.6	18.8	0.00e+00	0	41	0	341835776	53	4895
2026-01-23 22:50:54.41	48.48	26.57	-41.3	-43.7	18.7	0.00e+00	0	41	0	343932928	53	4934
2026-01-23 22:50:55.69	48.75	26.73	-41.2	-43.6	18.8	0.00e+00	0	41	0	346030080	53	4891
2026-01-23 22:50:56.42	48.91	26.82	-41.3	-43.7	18.8	0.00e+00	0	41	0	347078656	53	4928
2026-01-23 22:50:57.70	49.19	26.98	-41.4	-43.8	18.6	0.00e+00	0	41	0	349175808	53	5017
2026-01-23 22:50:58.42	49.34	27.07	-41.6	-44.0	18.5	0.00e+00	0	41	0	351272960	53	5109
2026-01-23 22:50:59.70	49.62	27.22	-41.7	-44.2	18.3	0.00e+00	0	41	0	353370112	54	4934
2026-01-23 22:51:00.41	49.78	27.31	-41.7	-44.1	18.3	0.00e+00	0	41	0	354418688	54	4919
2026-01-23 22:51:01.69	50.06	27.47	-42.0	-44.5	18.0	0.00e+00	0	42	0	357564416	54	5131
2026-01-23 22:51:02.42	50.22	27.56	-42.0	-44.5	17.9	0.00e+00	0	41	0	358612992	54	5158
2026-01-23 22:51:03.69	50.51	27.72	-42.2	-44.7	17.8	0.00e+00	0	41	0	360710144	54	5279
2026-01-23 22:51:04.41	50.67	27.80	-42.0	-44.5	17.9	0.00e+00	0	41	0	361758720	54	5139
2026-01-23 22:51:05.70	50.97	27.96	-41.8	-44.2	18.2	0.00e+00	0	41	0	364904448	54	4968
2026-01-23 22:51:06.41	51.13	28.05	-41.7	-44.2	18.3	0.00e+00	0	41	0	365953024	54	4935
2026-01-23 22:51:07.69	51.43	28.21	-41.7	-44.2	18.3	0.00e+00	0	41	0	368050176	54	4942
2026-01-23 22:51:08.41	51.60	28.30	-41.8	-44.3	18.2	0.00e+00	0	41	0	370147328	54	5033
2026-01-23 22:51:09.72	51.91	28.46	-42.0	-44.6	17.9	0.00e+00	0	41	0	372244480	54	5173
2026-01-23 22:51:10.43	52.08	28.55	-42.2	-44.8	17.7	0.00e+00	0	41	0	373293056	55	5012
2026-01-23 22:51:11.71	52.38	28.71	-42.4	-45.1	17.4	0.00e+00	0	41	0	376438784	55	5168
2026-01-23 22:51:12.42	52.55	28.80	-42.5	-45.2	17.2	0.00e+00	0	41	0	377487360	55	5274
2026-01-23 22:51:13.70	52.87	28.95	-42.6	-45.3	17.2	0.00e+00	0	42	0	379584512	55	5338
2026-01-23 22:51:14.43	53.05	29.04	-42.9	-45.7	16.9	0.00e+00	0	41	0	380633088	56	5241
2026-01-23 22:51:15.71	53.36	29.20	-43.0	-45.8	16.9	0.00e+00	0	41	0	383778816	56	5300
2026-01-23 22:51:16.42	53.54	29.29	-43.0	-45.9	16.8	0.00e+00	0	41	0	384827392	56	5348
2026-01-23 22:51:17.70	53.86	29.45	-43.2	-46.0	16.6	0.00e+00	0	41	0	386924544	57	5147
2026-01-23 22:51:18.44	54.05	29.54	-43.2	-46.1	16.6	0.00e+00	0	41	0	389021696	57	5165
2026-01-23 22:51:19.72	54.37	29.70	-43.4	-46.4	16.3	0.00e+00	0	41	0	391118848	57	5356
2026-01-23 22:51:20.43	54.55	29.79	-43.5	-46.5	16.2	0.00e+00	0	41	0	392167424	57	5403
2026-01-23 22:51:21.70	54.88	29.95	-43.6	-46.6	16.1	0.00e+00	0	41	0	394264576	57	5500
2026-01-23 22:51:22.42	55.07	30.03	-43.5	-46.5	16.2	0.00e+00	0	41	0	396361728	57	5454
2026-01-23 22:51:23.70	55.40	30.19	-43.5	-46.5	16.2	0.00e+00	0	42	0	398458880	57	5407
2026-01-23 22:51:24.41	55.59	30.28	-43.5	-46.4	16.3	0.00e+00	0	41	0	399507456	57	5356
2026-01-23 22:51:25.69	55.93	30.44	-43.5	-46.5	16.2	0.00e+00	0	41	0	401604608	57	5411
2026-01-23 22:51:26.42	56.13	30.53	-43.5	-46.5	16.2	0.00e+00	0	42	0	403701760	57	5431
2026-01-23 22:51:27.70	56.47	30.68	-44.0	-47.1	15.6	0.00e+00	0	41	0	405798912	58	5518
2026-01-23 22:51:28.42	56.67	30.77	-44.2	-47.5	15.2	0.00e+00	0	41	0	406847488	59	5437
2026-01-23 22:51:29.70	57.02	30.93	-44.6	-48.1	14.6	0.00e+00	0	41	0	409993216	59	5841
2026-01-23 22:51:30.41	57.22	31.02	-44.7	-48.4	14.4	7.00e-07	0	42	0	411041792	60	5681
2026-01-23 22:51:31.69	57.57	31.17	-45.0	-48.9	13.8	3.00e-06	0	41	0	413138944	60	5994
2026-01-23 22:51:32.42	57.78	31.26	-45.1	-49.0	13.7	6.80e-06	0	41	0	415236096	60	6083
2026-01-23 22:51:33.69	58.14	31.42	-45.3	-49.3	13.4	6.10e-06	0	41	0	417333248	61	5940
2026-01-23 22:51:34.49	58.37	31.51	-45.4	-49.5	13.2	1.67e-05	0	41	0	418381824	61	6088
2026-01-23 22:51:35.64	58.70	31.65	-45.4	-49.5	13.2	1.52e-05	0	41	0	420478976	61	6080
2026-01-23 22:51:36.49	58.94	31.76	-45.2	-49.2	13.5	1.60e-05	0	42	0	422576128	61	5900
2026-01-23 22:51:37.63	59.27	31.89	-45.1	-49.0	13.7	2.20e-06	0	41	0	424673280	61	5772
2026-01-23 22:51:38.48	59.52	32.00	-44.8	-48.6	14.1	2.20e-06	0	41	0	425721856	61	5483
2026-01-23 22:51:39.62	59.86	32.13	-44.7	-48.4	14.3	1.50e-06	0	41	0	427819008	61	5380
2026-01-23 22:51:40.47	60.11	32.24	-44.8	-48.4	14.4	0.00e+00	0	42	0	429916160	61	5382
2026-01-23 22:51:41.61	60.45	32.37	-45.1	-48.9	13.8	6.10e-06	0	41	0	432013312	61	5690
2026-01-23 22:51:42.46	60.71	32.47	-45.4	-49.5	13.2	5.30e-06	0	42	0	434110464	61	6067
2026-01-23 22:51:43.60	61.06	32.61	-45.6	-49.9	12.8	4.04e-05	0	42	0	436207616	61	6383
2026-01-23 22:51:44.45	61.32	32.71	-45.7	-50.0	12.8	7.47e-05	0	41	0	437256192	62	6078
2026-01-23 22:51:45.59	61.67	32.84	-45.5	-49.7	13.1	4.65e-05	0	41	0	439353344	62	5860
2026-01-23 22:51:46.45	61.93	32.94	-45.4	-49.3	13.3	1.90e-05	0	42	0	441450496	62	5656
2026-01-23 22:51:47.59	62.29	33.08	-45.2	-49.1	13.7	9.10e-06	0	42	0	443547648	62	5478
2026-01-23 22:51:48.44	62.56	33.18	-45.0	-48.8	14.0	6.80e-06	0	42	0	444596224	62	5290
2026-01-23 22:51:49.58	62.92	33.31	-44.9	-48.6	14.2	3.80e-06	0	41	0	446693376	61	5477
2026-01-23 22:51:50.43	63.19	33.41	-44.9	-48.5	14.2	0.00e+00	0	41	0	448790528	61	5458
2026-01-23 22:51:51.57	63.56	33.54	-45.0	-48.7	14.0	3.80e-06	0	42	0	450887680	61	5590
2026-01-23 22:51:52.42	63.83	33.63	-45.0	-48.7	14.1	1.50e-06	0	41	0	451936256	61	5564
2026-01-23 22:51:53.56	64.21	33.76	-44.8	-48.4	14.3	0.00e+00	0	41	0	454033408	61	5372
2026-01-23 22:51:54.41	64.49	33.86	-44.9	-48.5	14.2	3.00e-06	0	41	0	456130560	61	5452
2026-01-23 22:51:55.55	64.86	33.99	-44.8	-48.4	14.3	0.00e+00	0	41	0	458227712	61	5349
2026-01-23 22:51:56.40	65.15	34.08	-44.7	-48.3	14.5	7.00e-07	0	41	0	459276288	61	5296
2026-01-23 22:51:57.54	65.53	34.21	-44.6	-48.1	14.6	1.50e-06	0	42	0	461373440	61	5208
2026-01-23 22:51:58.39	65.81	34.30	-44.6	-48.0	14.8	0.00e+00	0	41	0	463470592	61	5145
2026-01-23 22:51:59.53	66.20	34.43	-44.5	-48.0	14.8	0.00e+00	0	41	0	465567744	61	5133
2026-01-23 22:52:00.39	66.50	34.52	-44.5	-48.0	14.8	7.00e-07	0	42	0	467664896	61	5114
2026-01-23 22:52:01.57	66.90	34.65	-44.3	-47.6	15.1	0.00e+00	0	41	0	469762048	60	5215
2026-01-23 22:52:02.42	67.20	34.74	-44.2	-47.4	15.4	0.00e+00	0	42	0	470810624	60	5073
2026-01-23 22:52:03.56	67.59	34.86	-43.9	-47.0	15.7	0.00e+00	0	41	0	472907776	59	5138
2026-01-23 22:52:04.41	67.89	34.95	-43.7	-46.7	16.0	0.00e+00	0	42	0	475004928	59	4948
2026-01-23 22:52:05.55	68.29	35.07	-43.6	-46.5	16.1	0.00e+00	0	42	0	477102080	59	4859
2026-01-23 22:52:06.41	68.60	35.16	-43.7	-46.6	16.1	0.00e+00	0	42	0	478150656	59	4923
2026-01-23 22:52:07.54	69.00	35.28	-44.0	-47.1	15.6	0.00e+00	0	42	0	480247808	59	5183
2026-01-23 22:52:08.39	69.31	35.37	-43.9	-47.0	15.7	0.00e+00	0	42	0	482344960	59	5124
2026-01-23 22:52:09.53	69.72	35.48	-43.7	-46.7	16.0	0.00e+00	0	42	0	484442112	59	4965
2026-01-23 22:52:10.38	70.03	35.57	-43.5	-46.4	16.3	0.00e+00	0	42	0	485490688	58	5051
2026-01-23 22:52:11.52	70.45	35.68	-43.0	-45.7	17.0	0.00e+00	0	41	0	487587840	57	4946
2026-01-23 22:52:12.37	70.76	35.77	-42.5	-45.1	17.6	0.00e+00	0	41	0	489684992	57	4623
2026-01-23 22:52:13.51	71.19	35.88	-42.4	-45.0	17.7	0.00e+00	0	41	0	491782144	56	4850
2026-01-23 22:52:14.36	71.50	35.96	-42.2	-44.7	18.0	0.00e+00	0	41	0	493879296	56	4687
2026-01-23 22:52:15.50	71.93	36.07	-42.4	-44.9	17.8	0.00e+00	0	42	0	495976448	56	4790
2026-01-23 22:52:16.35	72.25	36.15	-42.6	-45.1	17.6	0.00e+00	0	41	0	497025024	56	4924
2026-01-23 22:52:17.49	72.69	36.26	-42.7	-45.3	17.4	0.00e+00	0	41	0	499122176	56	5011
2026-01-23 22:52:18.34	73.01	36.34	-42.8	-45.5	17.2	0.00e+00	0	42	0	501219328	56	5122
2026-01-23 22:52:19.60	73.50	36.45	-42.5	-45.1	17.6	0.00e+00	0	42	0	503316480	56	4884
2026-01-23 22:52:20.41	73.81	36.52	-42.3	-44.8	17.9	0.00e+00	0	41	0	504365056	56	4743
2026-01-23 22:52:21.54	74.25	36.62	-42.1	-44.7	18.1	0.00e+00	0	42	0	506462208	56	4653
2026-01-23 22:52:22.40	74.58	36.70	-42.2	-44.7	17.9	0.00e+00	0	42	0	508559360	56	4702
2026-01-23 22:52:23.54	75.03	36.80	-42.3	-44.9	17.8	0.00e+00	0	41	0	510656512	56	4785
2026-01-23 22:52:24.39	75.37	36.87	-42.6	-45.2	17.5	0.00e+00	0	41	0	511705088	56	4966
2026-01-23 22:52:25.53	75.82	36.97	-42.9	-45.7	17.1	0.00e+00	0	42	0	513802240	56	5233
2026-01-23 22:52:26.38	76.16	37.04	-43.1	-46.0	16.8	0.00e+00	0	42	0	515899392	56	5410
2026-01-23 22:52:27.52	76.61	37.13	-43.1	-45.9	16.8	0.00e+00	0	42	0	517996544	57	5100
2026-01-23 22:52:28.37	76.96	37.20	-43.2	-46.1	16.6	0.00e+00	0	41	0	520093696	57	5166
2026-01-23 22:52:29.51	77.42	37.29	-43.2	-46.0	16.8	0.00e+00	0	42	0	522190848	57	5125
2026-01-23 22:52:30.36	77.76	37.35	-43.2	-46.0	16.7	0.00e+00	0	42	0	523239424	57	5124
2026-01-23 22:52:31.50	78.23	37.44	-43.1	-45.8	16.9	0.00e+00	0	42	0	525336576	57	5041
2026-01-23 22:52:32.35	78.58	37.50	-43.0	-45.7	17.0	0.00e+00	0	42	0	527433728	57	4978
2026-01-23 22:52:33.54	79.07	37.59	-43.1	-45.9	16.9	0.00e+00	0	42	0	529530880	57	5050
2026-01-23 22:52:34.39	79.42	37.65	-43.0	-45.8	16.9	0.00e+00	0	42	0	530579456	57	5022
2026-01-23 22:52:35.52	79.89	37.73	-42.8	-45.5	17.2	0.00e+00	0	42	0	532676608	57	4837
2026-01-23 22:52:36.38	80.25	37.79	-42.8	-45.6	17.1	0.00e+00	0	42	0	534773760	57	4895
2026-01-23 22:52:37.52	80.72	37.86	-42.9	-45.6	17.1	0.00e+00	0	42	0	536870912	57	4907
2026-01-23 22:52:38.42	81.10	37.92	-43.1	-46.0	16.7	0.00e+00	0	42	0	538968064	57	5126
2026-01-23 22:52:39.43	81.53	37.99	-43.5	-46.5	16.2	0.00e+00	0	42	0	540016640	57	5437
2026-01-23 22:52:40.42	81.95	38.05	-43.9	-47.1	15.7	0.00e+00	0	41	0	542113792	58	5471
2026-01-23 22:52:41.42	82.38	38.11	-43.9	-47.2	15.6	0.00e+00	0	42	0	544210944	58	5535
2026-01-23 22:52:42.41	82.80	38.17	-43.8	-47.0	15.7	0.00e+00	0	42	0	546308096	58	5429
2026-01-23 22:52:43.40	83.22	38.22	-43.6	-46.7	16.1	0.00e+00	0	42	0	547356672	58	5229
2026-01-23 22:52:44.40	83.65	38.28	-43.3	-46.2	16.5	0.00e+00	0	42	0	549453824	58	4980
2026-01-23 22:52:45.40	84.09	38.33	-43.2	-46.1	16.7	0.00e+00	0	41	0	551550976	58	4895
2026-01-23 22:52:46.39	84.51	38.38	-43.1	-46.0	16.7	0.00e+00	0	42	0	553648128	58	4825
2026-01-23 22:52:47.39	84.95	38.43	-43.3	-46.3	16.5	0.00e+00	0	42	0	555745280	58	4992
2026-01-23 22:52:48.38	85.38	38.48	-43.7	-46.8	15.9	0.00e+00	0	42	0	556793856	58	5326
2026-01-23 22:52:49.44	85.84	38.53	-43.9	-47.3	15.5	0.00e+00	0	41	0	558891008	58	5593
2026-01-23 22:52:50.34	86.24	38.57	-43.9	-47.3	15.4	0.00e+00	0	41	0	560988160	58	5608
2026-01-23 22:52:51.44	86.72	38.62	-43.8	-47.1	15.7	7.00e-07	0	42	0	563085312	58	5475
2026-01-23 22:52:52.30	87.10	38.66	-43.6	-46.8	15.9	0.00e+00	0	42	0	564133888	58	5306
2026-01-23 22:52:53.43	87.60	38.70	-43.7	-46.9	15.8	0.00e+00	0	42	0	566231040	58	5360
2026-01-23 22:52:54.29	87.98	38.73	-43.7	-46.9	15.8	0.00e+00	0	41	0	568328192	58	5397
2026-01-23 22:52:55.42	88.48	38.77	-44.1	-47.5	15.3	0.00e+00	0	42	0	570425344	58	5748
2026-01-23 22:52:56.27	88.86	38.80	-44.3	-47.8	15.0	0.00e+00	0	42	0	571473920	59	5629
2026-01-23 22:52:57.41	89.37	38.84	-44.3	-47.7	15.0	0.00e+00	0	42	0	574619648	59	5587
2026-01-23 22:52:58.26	89.75	38.87	-44.3	-47.6	15.0	0.00e+00	0	42	0	575668224	59	5517
2026-01-23 22:52:59.40	90.26	38.90	-44.4	-47.9	14.8	0.00e+00	0	42	0	577765376	59	5665
2026-01-23 22:53:00.25	90.64	38.92	-44.3	-47.7	15.1	0.00e+00	0	41	0	579862528	59	5574
2026-01-23 22:53:01.39	91.15	38.95	-44.4	-47.7	15.0	0.00e+00	0	42	0	581959680	59	5570
2026-01-23 22:53:02.24	91.53	38.97	-44.4	-47.7	15.0	0.00e+00	0	42	0	583008256	59	5577
2026-01-23 22:53:03.49	92.09	39.00	-44.6	-48.1	14.5	1.50e-06	0	41	0	585105408	59	5838
2026-01-23 22:53:04.34	92.48	39.01	-44.7	-48.4	14.3	7.00e-07	0	41	0	587202560	60	5708
2026-01-23 22:53:05.48	92.99	39.03	-44.6	-48.2	14.5	0.00e+00	0	42	0	589299712	60	5578
2026-01-23 22:53:06.35	93.38	39.04	-44.6	-48.1	14.6	0.00e+00	0	42	0	591396864	60	5514
2026-01-23 22:53:07.49	93.90	39.06	-44.5	-48.0	14.8	0.00e+00	0	42	0	593494016	60	5416
2026-01-23 22:53:08.34	94.28	39.07	-44.5	-48.0	14.7	0.00e+00	0	41	0	594542592	60	5419
2026-01-23 22:53:09.48	94.80	39.08	-44.3	-47.7	15.0	7.00e-07	0	42	0	596639744	60	5252
2026-01-23 22:53:10.33	95.18	39.08	-44.4	-47.9	14.9	0.00e+00	0	41	0	598736896	60	5362
2026-01-23 22:53:11.47	95.70	39.09	-44.1	-47.4	15.3	0.00e+00	0	42	0	600834048	60	5088
2026-01-23 22:53:12.32	96.08	39.09	-44.2	-47.4	15.3	0.00e+00	0	42	0	601882624	60	5089
2026-01-23 22:53:13.46	96.60	39.09	-43.8	-46.9	15.8	0.00e+00	0	42	0	603979776	59	5095
2026-01-23 22:53:14.32	96.99	39.09	-43.7	-46.8	15.9	0.00e+00	0	42	0	606076928	59	4994
2026-01-23 22:53:15.47	97.51	39.09	-43.4	-46.3	16.3	0.00e+00	0	42	0	608174080	58	5038
2026-01-23 22:53:16.32	97.90	39.09	-43.2	-46.0	16.7	0.00e+00	0	42	0	609222656	58	4860
2026-01-23 22:53:17.46	98.41	39.08	-43.0	-45.7	16.9	0.00e+00	0	41	0	611319808	58	4702
2026-01-23 22:53:18.31	98.80	39.07	-43.0	-45.7	16.9	0.00e+00	0	42	0	613416960	57	4975
2026-01-23 22:53:19.44	99.31	39.06	-43.0	-45.7	16.9	0.00e+00	0	42	0	615514112	57	4972
2026-01-23 22:53:20.30	99.70	39.05	-43.2	-46.0	16.7	0.00e+00	0	41	0	616562688	57	5136
2026-01-23 22:53:21.43	100.21	39.03	-43.5	-46.5	16.2	0.00e+00	0	42	0	618659840	57	5457
2026-01-23 22:53:22.29	100.60	39.02	-44.0	-47.2	15.6	0.00e+00	0	41	0	620756992	58	5532
2026-01-23 22:53:23.42	101.11	39.00	-44.0	-47.1	15.6	0.00e+00	0	41	0	622854144	58	5487
2026-01-23 22:53:24.27	101.49	38.98	-43.8	-46.9	15.9	0.00e+00	0	41	0	624951296	58	5359
2026-01-23 22:53:25.41	102.00	38.95	-43.9	-47.0	15.7	0.00e+00	0	41	0	627048448	58	5455
2026-01-23 22:53:26.26	102.38	38.93	-44.0	-47.3	15.4	0.00e+00	0	41	0	628097024	58	5604
2026-01-23 22:53:27.40	102.90	38.90	-44.4	-47.9	14.9	0.00e+00	0	42	0	630194176	59	5677
2026-01-23 22:53:28.25	103.28	38.88	-44.6	-48.3	14.5	0.00e+00	0	42	0	632291328	59	5939
2026-01-23 22:53:29.39	103.79	38.85	-44.9	-48.7	14.1	3.00e-06	0	42	0	634388480	60	5912
2026-01-23 22:53:30.24	104.17	38.82	-45.1	-49.0	13.7	3.80e-06	0	42	0	635437056	60	6085
2026-01-23 22:53:31.41	104.69	38.78	-44.9	-48.7	14.0	9.90e-06	0	42	0	637534208	61	5583
2026-01-23 22:53:32.26	105.06	38.75	-44.9	-48.7	14.1	1.50e-06	0	42	0	639631360	61	5536
2026-01-23 22:53:33.40	105.57	38.71	-44.8	-48.4	14.4	0.00e+00	0	42	0	641728512	61	5357
2026-01-23 22:53:34.25	105.95	38.67	-44.7	-48.2	14.5	2.20e-06	0	42	0	642777088	61	5234
2026-01-23 22:53:35.51	106.50	38.62	-44.2	-47.5	15.3	0.00e+00	0	42	0	645922816	60	5109
2026-01-23 22:53:36.30	106.85	38.59	-44.2	-47.5	15.2	0.00e+00	0	42	0	646971392	60	5149
2026-01-23 22:53:37.52	107.39	38.53	-44.2	-47.5	15.4	0.00e+00	0	42	0	649068544	60	5104
2026-01-23 22:53:38.37	107.76	38.49	-44.4	-47.8	14.9	0.00e+00	0	41	0	651165696	60	5335
2026-01-23 22:53:39.51	108.26	38.44	-44.5	-47.9	14.8	0.00e+00	0	42	0	653262848	60	5360
2026-01-23 22:53:40.36	108.63	38.40	-43.9	-47.0	15.7	0.00e+00	0	42	0	654311424	59	5142
2026-01-23 22:53:41.68	109.20	38.33	-42.8	-45.5	17.2	0.00e+00	0	42	0	657457152	57	4835
2026-01-23 22:53:42.40	109.51	38.29	-42.7	-45.4	17.3	0.00e+00	0	42	0	658505728	57	4774
2026-01-23 22:53:43.68	110.06	38.22	-43.2	-46.0	16.7	0.00e+00	0	42	0	660602880	57	5108
2026-01-23 22:53:44.42	110.38	38.18	-43.2	-46.0	16.7	0.00e+00	0	42	0	662700032	57	5143
2026-01-23 22:53:45.70	110.93	38.10	-42.9	-45.7	16.9	0.00e+00	0	42	0	664797184	57	4953
2026-01-23 22:53:46.41	111.23	38.06	-42.4	-45.0	17.7	0.00e+00	0	42	0	665845760	56	4826
2026-01-23 22:53:47.69	111.77	37.98	-41.8	-44.2	18.3	0.00e+00	0	42	0	667942912	55	4697
2026-01-23 22:53:48.48	112.11	37.93	-41.9	-44.4	18.2	0.00e+00	0	41	0	670040064	55	4764
2026-01-23 22:53:49.67	112.61	37.85	-42.5	-45.2	17.4	0.00e+00	0	42	0	672137216	55	5239
2026-01-23 22:53:50.52	112.97	37.79	-43.0	-45.7	17.0	0.00e+00	0	42	0	673185792	56	5242
2026-01-23 22:53:51.66	113.44	37.71	-43.1	-45.9	16.8	0.00e+00	0	41	0	676331520	57	5087
2026-01-23 22:53:52.51	113.80	37.65	-42.8	-45.5	17.2	0.00e+00	0	41	0	677380096	57	4818
2026-01-23 22:53:53.64	114.27	37.57	-42.3	-44.9	17.8	0.00e+00	0	42	0	679477248	56	4763
2026-01-23 22:53:54.81	114.75	37.49	-42.2	-44.8	17.9	0.00e+00	0	42	0	681574400	56	4713
2026-01-23 22:53:55.84	115.17	37.41	-42.4	-45.0	17.7	0.00e+00	0	42	0	683671552	56	4831
2026-01-23 22:53:56.83	115.58	37.33	-42.1	-44.6	18.1	0.00e+00	0	42	0	685768704	56	4630
2026-01-23 22:53:57.83	115.98	37.26	-41.2	-43.5	18.9	0.00e+00	0	42	0	687865856	54	4593
2026-01-23 22:53:58.82	116.38	37.18	-41.0	-43.2	19.2	0.00e+00	0	41	0	688914432	53	4691
2026-01-23 22:53:59.82	116.79	37.10	-40.6	-42.8	19.6	0.00e+00	0	42	0	691011584	53	4484
2026-01-23 22:54:00.81	117.18	37.02	-40.6	-42.8	19.7	0.00e+00	0	42	0	693108736	53	4442
2026-01-23 22:54:01.80	117.58	36.93	-41.5	-43.9	18.7	0.00e+00	0	42	0	695205888	53	5059
2026-01-23 22:54:02.80	117.98	36.85	-42.0	-44.5	18.0	0.00e+00	0	42	0	696254464	54	5150
2026-01-23 22:54:03.79	118.37	36.76	-41.5	-43.9	18.5	0.00e+00	0	41	0	698351616	54	4806
2026-01-23 22:54:04.78	118.76	36.68	-40.8	-43.0	19.4	0.00e+00	0	42	0	700448768	53	4589
2026-01-23 22:54:05.78	119.15	36.59	-40.4	-42.6	19.9	0.00e+00	0	41	0	702545920	52	4615
2026-01-23 22:54:06.77	119.53	36.50	-40.5	-42.7	19.7	0.00e+00	0	42	0	704643072	52	4679
2026-01-23 22:54:07.77	119.92	36.41	-40.7	-42.9	19.5	0.00e+00	0	41	0	705691648	52	4769
2026-01-23 22:54:08.79	120.31	36.32	-40.6	-42.8	19.6	0.00e+00	0	42	0	707788800	52	4741
2026-01-23 22:54:09.79	120.69	36.22	-40.5	-42.7	19.7	0.00e+00	0	41	0	709885952	52	4684
2026-01-23 22:54:10.78	121.07	36.13	-40.4	-42.6	19.8	0.00e+00	0	42	0	711983104	52	4627
2026-01-23 22:54:11.87	121.48	36.03	-40.4	-42.5	19.9	0.00e+00	0	42	0	714080256	52	4578
2026-01-23 22:54:12.76	121.82	35.94	-41.1	-43.4	18.9	0.00e+00	0	42	0	715128832	52	5054
2026-01-23 22:54:13.89	122.24	35.83	-41.4	-43.8	18.7	0.00e+00	0	42	0	717225984	53	5023
2026-01-23 22:54:14.75	122.56	35.75	-41.3	-43.7	18.8	0.00e+00	0	42	0	719323136	53	4929
2026-01-23 22:54:16.10	123.06	35.61	-40.8	-43.1	19.3	0.00e+00	0	41	0	721420288	53	4606
2026-01-23 22:54:16.82	123.32	35.54	-40.6	-42.8	19.6	0.00e+00	0	42	0	723517440	53	4480
2026-01-23 22:54:18.09	123.78	35.41	-40.9	-43.2	19.3	0.00e+00	0	42	0	725614592	53	4655
2026-01-23 22:54:18.82	124.05	35.33	-41.3	-43.7	18.8	0.00e+00	0	42	0	726663168	53	4974
2026-01-23 22:54:20.10	124.51	35.20	-42.4	-45.0	17.5	0.00e+00	0	41	0	728760320	55	5139
2026-01-23 22:54:20.84	124.77	35.12	-42.5	-45.1	17.4	0.00e+00	0	41	0	730857472	55	5197
2026-01-23 22:54:22.12	125.23	34.99	-42.2	-44.8	17.7	0.00e+00	0	42	0	732954624	55	5010
2026-01-23 22:54:22.84	125.48	34.91	-42.0	-44.5	17.9	0.00e+00	0	42	0	734003200	55	4868
2026-01-23 22:54:24.12	125.93	34.78	-42.2	-44.8	17.8	0.00e+00	0	41	0	737148928	55	5016
2026-01-23 22:54:24.86	126.19	34.70	-42.6	-45.3	17.2	0.00e+00	0	42	0	738197504	55	5327
2026-01-23 22:54:26.13	126.63	34.56	-42.9	-45.7	17.0	0.00e+00	0	41	0	740294656	56	5257
2026-01-23 22:54:26.84	126.88	34.48	-42.5	-45.1	17.6	0.00e+00	0	42	0	741343232	56	4880
2026-01-23 22:54:28.12	127.31	34.34	-41.3	-43.7	18.8	0.00e+00	0	42	0	744488960	54	4668
2026-01-23 22:54:28.83	127.55	34.26	-41.3	-43.6	18.9	0.00e+00	0	41	0	745537536	54	4634
2026-01-23 22:54:30.14	128.00	34.12	-41.8	-44.2	18.3	0.00e+00	0	42	0	747634688	54	4965
2026-01-23 22:54:30.86	128.24	34.04	-42.3	-44.9	17.6	0.00e+00	0	42	0	749731840	55	5097
2026-01-23 22:54:32.13	128.66	33.89	-43.1	-45.9	16.8	0.00e+00	0	42	0	751828992	56	5353
2026-01-23 22:54:32.86	128.90	33.81	-43.0	-45.7	16.9	0.00e+00	0	42	0	752877568	56	5273
2026-01-23 22:54:34.25	129.36	33.65	-42.5	-45.1	17.6	0.00e+00	0	42	0	756023296	56	4888
2026-01-23 22:54:34.96	129.59	33.57	-42.5	-45.1	17.6	0.00e+00	0	42	0	757071872	56	4908
2026-01-23 22:54:36.24	130.00	33.42	-42.8	-45.6	17.1	0.00e+00	0	42	0	759169024	56	5169
2026-01-23 22:54:36.95	130.23	33.34	-43.2	-46.1	16.5	0.00e+00	0	42	0	761266176	57	5215
2026-01-23 22:54:38.23	130.64	33.19	-44.0	-47.3	15.4	0.00e+00	0	42	0	763363328	58	5612
2026-01-23 22:54:38.95	130.87	33.11	-43.8	-47.0	15.7	0.00e+00	0	41	0	764411904	58	5434
2026-01-23 22:54:40.23	131.27	32.96	-43.1	-45.9	16.8	0.00e+00	0	42	0	766509056	58	4779
2026-01-23 22:54:40.94	131.49	32.87	-42.7	-45.4	17.3	0.00e+00	0	41	0	768606208	57	4773
2026-01-23 22:54:42.22	131.89	32.72	-42.8	-45.5	17.2	0.00e+00	0	41	0	770703360	57	4836
2026-01-23 22:54:42.98	132.12	32.63	-43.4	-46.3	16.4	0.00e+00	0	41	0	771751936	57	5305
2026-01-23 22:54:44.26	132.51	32.48	-44.2	-47.7	15.0	7.00e-07	0	41	0	774897664	59	5553
2026-01-23 22:54:44.98	132.73	32.39	-44.2	-47.7	14.9	0.00e+00	0	42	0	775946240	59	5582
2026-01-23 22:54:46.26	133.12	32.24	-43.1	-46.1	16.6	0.00e+00	0	42	0	778043392	58	4884
2026-01-23 22:54:46.97	133.33	32.15	-42.5	-45.3	17.3	0.00e+00	0	42	0	779091968	57	4735
2026-01-23 22:54:48.25	133.71	32.00	-42.4	-45.1	17.6	0.00e+00	0	42	0	782237696	56	4884
2026-01-23 22:54:48.98	133.93	31.91	-42.8	-45.6	17.1	0.00e+00	0	42	0	783286272	56	5212
2026-01-23 22:54:50.26	134.30	31.76	-43.8	-47.0	15.6	0.00e+00	0	42	0	785383424	58	5439
2026-01-23 22:54:51.24	134.58	31.64	-44.6	-48.2	14.5	0.00e+00	0	42	0	787480576	59	5881
2026-01-23 22:54:52.23	134.87	31.52	-44.6	-48.2	14.5	7.00e-07	0	42	0	789577728	60	5570
2026-01-23 22:54:53.22	135.15	31.39	-44.0	-47.2	15.5	0.00e+00	0	42	0	791674880	60	4974
2026-01-23 22:54:54.22	135.44	31.27	-43.7	-46.7	16.0	0.00e+00	0	42	0	792723456	59	4955
2026-01-23 22:54:55.21	135.72	31.15	-43.5	-46.4	16.3	0.00e+00	0	42	0	794820608	58	5052
2026-01-23 22:54:56.21	136.00	31.03	-43.7	-46.7	16.0	0.00e+00	0	42	0	796917760	58	5228
2026-01-23 22:54:57.21	136.27	30.90	-44.2	-47.5	15.2	0.00e+00	0	41	0	799014912	59	5415
2026-01-23 22:54:58.20	136.55	30.78	-44.6	-48.1	14.6	0.00e+00	0	42	0	801112064	59	5810
2026-01-23 22:54:59.20	136.82	30.66	-44.3	-47.7	15.0	0.00e+00	0	42	0	802160640	60	5232
2026-01-23 22:55:00.19	137.09	30.54	-43.4	-46.3	16.4	0.00e+00	0	41	0	804257792	58	4990
2026-01-23 22:55:01.19	137.36	30.41	-42.3	-44.9	17.7	0.00e+00	0	42	0	806354944	56	4763
2026-01-23 22:55:02.18	137.62	30.29	-41.7	-44.1	18.4	0.00e+00	0	41	0	808452096	55	4614
2026-01-23 22:55:03.18	137.89	30.17	-41.9	-44.4	18.0	0.00e+00	0	42	0	809500672	55	4800
2026-01-23 22:55:04.17	138.15	30.04	-42.4	-45.1	17.4	0.00e+00	0	42	0	811597824	55	5165
2026-01-23 22:55:05.17	138.41	29.92	-43.2	-46.1	16.6	0.00e+00	0	42	0	813694976	57	5164
2026-01-23 22:55:06.16	138.67	29.79	-43.6	-46.6	16.0	0.00e+00	0	42	0	815792128	57	5514
2026-01-23 22:55:07.16	138.93	29.67	-43.3	-46.3	16.3	0.00e+00	0	42	0	817889280	57	5297
2026-01-23 22:55:08.15	139.18	29.55	-42.8	-45.6	17.0	0.00e+00	0	42	0	818937856	57	4879
2026-01-23 22:55:09.15	139.43	29.42	-42.7	-45.4	17.3	0.00e+00	0	42	0	821035008	57	4770
2026-01-23 22:55:10.14	139.68	29.30	-42.5	-45.1	17.5	0.00e+00	0	42	0	823132160	57	4644
2026-01-23 22:55:11.14	139.93	29.17	-42.7	-45.3	17.3	0.00e+00	0	42	0	825229312	56	5028
2026-01-23 22:55:12.15	140.18	29.05	-43.1	-45.9	16.7	0.00e+00	0	41	0	826277888	56	5397
2026-01-23 22:55:13.17	140.43	28.92	-43.6	-46.6	16.0	0.00e+00	0	42	0	828375040	57	5518
2026-01-23 22:55:14.17	140.68	28.80	-43.3	-46.2	16.3	0.00e+00	0	42	0	830472192	57	5279
2026-01-23 22:55:15.17	140.92	28.67	-42.8	-45.5	17.1	0.00e+00	0	42	0	832569344	57	4848
2026-01-23 22:55:16.16	141.16	28.55	-42.3	-44.9	17.7	0.00e+00	0	42	0	834666496	56	4766
2026-01-23 22:55:17.15	141.39	28.42	-41.5	-43.9	18.5	0.00e+00	0	42	0	835715072	55	4513
2026-01-23 22:55:18.15	141.63	28.30	-41.2	-43.5	18.9	0.00e+00	0	42	0	837812224	54	4585
2026-01-23 22:55:19.35	141.91	28.15	-41.1	-43.4	19.0	0.00e+00	0	42	0	839909376	54	4511
2026-01-23 22:55:20.23	142.12	28.04	-41.4	-43.8	18.6	0.00e+00	0	42	0	842006528	54	4717
2026-01-23 22:55:21.54	142.42	27.88	-42.0	-44.6	17.8	0.00e+00	0	42	0	844103680	54	5191
2026-01-23 22:55:22.25	142.58	27.79	-42.1	-44.6	17.8	0.00e+00	0	42	0	846200832	55	4921
2026-01-23 22:55:23.53	142.88	27.63	-41.0	-43.4	19.0	0.00e+00	0	42	0	848297984	54	4508
2026-01-23 22:55:24.24	143.04	27.54	-40.5	-42.7	19.6	0.00e+00	0	41	0	849346560	53	4409
2026-01-23 22:55:25.52	143.32	27.38	-39.8	-41.8	20.5	0.00e+00	0	42	0	851443712	51	4487
2026-01-23 22:55:26.23	143.48	27.29	-39.6	-41.7	20.7	0.00e+00	0	42	0	853540864	51	4395
2026-01-23 22:55:27.51	143.76	27.14	-39.7	-41.7	20.6	0.00e+00	0	42	0	855638016	50	4686
2026-01-23 22:55:28.22	143.92	27.05	-40.0	-42.1	20.3	0.00e+00	0	42	0	856686592	50	4921
2026-01-23 22:55:29.50	144.20	26.89	-40.9	-43.2	19.2	0.00e+00	0	42	0	859832320	52	4980
2026-01-23 22:55:30.23	144.36	26.80	-41.5	-43.9	18.5	0.00e+00	0	41	0	860880896	53	5099
2026-01-23 22:55:31.51	144.63	26.64	-41.8	-44.4	18.0	0.00e+00	0	42	0	862978048	54	5067
2026-01-23 22:55:32.22	144.78	26.55	-41.4	-44.0	18.4	0.00e+00	0	42	0	864026624	54	4821
2026-01-23 22:55:33.55	145.06	26.39	-40.9	-43.2	19.1	0.00e+00	0	42	0	867172352	53	4679
2026-01-23 22:55:34.26	145.21	26.30	-40.6	-42.9	19.5	0.00e+00	0	42	0	868220928	53	4499
2026-01-23 22:55:35.61	145.49	26.14	-40.5	-42.8	19.5	0.00e+00	0	42	0	870318080	52	4740
2026-01-23 22:55:36.32	145.64	26.05	-40.5	-42.7	19.7	0.00e+00	0	42	0	872415232	52	4681
2026-01-23 22:55:37.67	145.91	25.88	-40.5	-42.8	19.5	0.00e+00	0	42	0	874512384	52	4714
2026-01-23 22:55:38.38	146.06	25.80	-40.5	-42.8	19.6	0.00e+00	0	42	0	875560960	52	4716
2026-01-23 22:55:39.72	146.33	25.63	-41.1	-43.4	19.0	0.00e+00	0	42	0	878706688	52	5079
2026-01-23 22:55:40.43	146.47	25.55	-41.3	-43.7	18.7	0.00e+00	0	42	0	879755264	53	4977
2026-01-23 22:55:41.71	146.72	25.39	-41.1	-43.5	18.9	0.00e+00	0	42	0	881852416	53	4825
2026-01-23 22:55:42.43	146.87	25.30	-40.6	-42.9	19.4	0.00e+00	0	42	0	883949568	53	4517
2026-01-23 22:55:43.71	147.12	25.15	-39.8	-41.9	20.4	0.00e+00	0	42	0	886046720	51	4509
2026-01-23 22:55:44.44	147.26	25.06	-39.6	-41.6	20.7	0.00e+00	0	42	0	887095296	51	4379
2026-01-23 22:55:45.72	147.50	24.90	-39.5	-41.6	20.7	0.00e+00	0	42	0	889192448	51	4357
2026-01-23 22:55:46.43	147.64	24.82	-39.4	-41.5	20.8	0.00e+00	0	42	0	891289600	50	4572
2026-01-23 22:55:47.71	147.88	24.67	-39.9	-42.0	20.3	0.00e+00	0	42	0	893386752	50	4847
2026-01-23 22:55:48.41	148.01	24.58	-40.0	-42.2	20.1	0.00e+00	0	42	0	894435328	50	4966
2026-01-23 22:55:49.71	148.26	24.43	-40.4	-42.7	19.7	0.00e+00	0	42	0	897581056	51	4929
2026-01-23 22:55:50.42	148.39	24.34	-40.4	-42.7	19.7	0.00e+00	0	42	0	898629632	51	4960
2026-01-23 22:55:51.70	148.63	24.19	-40.4	-42.8	19.6	0.00e+00	0	42	0	900726784	51	4989
2026-01-23 22:55:52.41	148.75	24.10	-40.4	-42.7	19.7	0.00e+00	0	42	0	901775360	51	4944
2026-01-23 22:55:53.69	148.99	23.95	-40.2	-42.5	19.9	0.00e+00	0	42	0	904921088	51	4839
2026-01-23 22:55:54.40	149.12	23.87	-40.2	-42.4	20.0	0.00e+00	0	42	0	905969664	51	4783
2026-01-23 22:55:55.68	149.34	23.71	-40.2	-42.4	20.0	0.00e+00	0	42	0	908066816	51	4809
2026-01-23 22:55:56.39	149.47	23.63	-40.3	-42.5	19.8	0.00e+00	0	42	0	910163968	51	4856
2026-01-23 22:55:57.67	149.70	23.48	-40.5	-42.8	19.6	0.00e+00	0	42	0	912261120	51	4988
2026-01-23 22:55:58.39	149.82	23.39	-40.6	-42.9	19.5	0.00e+00	0	42	0	913309696	51	5064
2026-01-23 22:55:59.67	150.04	23.24	-40.7	-43.0	19.3	0.00e+00	0	42	0	915406848	52	4840
2026-01-23 22:56:00.41	150.17	23.16	-40.7	-43.0	19.3	0.00e+00	0	42	0	917504000	52	4836
2026-01-23 22:56:01.69	150.39	23.01	-40.8	-43.1	19.2	0.00e+00	0	42	0	919601152	52	4898
2026-01-23 22:56:02.41	150.51	22.92	-40.6	-42.9	19.4	0.00e+00	0	42	0	920649728	52	4777
2026-01-23 22:56:03.69	150.73	22.78	-40.4	-42.6	19.7	0.00e+00	0	42	0	923795456	52	4629
2026-01-23 22:56:04.47	150.86	22.68	-40.6	-42.8	19.5	0.00e+00	0	42	0	924844032	52	4727
2026-01-23 22:56:05.75	151.07	22.54	-40.7	-42.9	19.4	0.00e+00	0	42	0	926941184	52	4806
2026-01-23 22:56:06.47	151.19	22.45	-40.7	-43.0	19.3	0.00e+00	0	42	0	929038336	52	4844
2026-01-23 22:56:07.75	151.40	22.31	-41.1	-43.4	18.9	0.00e+00	0	42	0	931135488	52	5076
2026-01-23 22:56:08.59	151.54	22.21	-41.0	-43.3	19.0	0.00e+00	0	42	0	932184064	52	5036
2026-01-23 22:56:10.02	151.77	22.05	-41.0	-43.3	19.0	0.00e+00	0	42	0	935329792	52	5029
2026-01-23 22:56:10.74	151.88	21.96	-41.0	-43.4	18.9	0.00e+00	0	42	0	936378368	52	5053
2026-01-23 22:56:12.22	152.12	21.79	-40.9	-43.2	19.1	0.00e+00	0	42	0	939524096	52	4958
2026-01-23 22:56:12.93	152.23	21.71	-40.9	-43.2	19.1	0.00e+00	0	42	0	940572672	52	4951
2026-01-23 22:56:14.21	152.43	21.57	-40.6	-42.8	19.4	1.65e-04	0	42	0	942669824	52	4759
2026-01-23 22:56:14.93	152.54	21.49	-40.7	-43.0	19.3	0.00e+00	0	42	0	944766976	52	4842
2026-01-23 22:56:16.21	152.74	21.34	-40.9	-43.2	19.1	0.00e+00	0	42	0	946864128	52	4975
2026-01-23 22:56:16.92	152.85	21.26	-41.0	-43.4	18.9	0.00e+00	0	42	0	947912704	52	5057
2026-01-23 22:56:18.20	153.04	21.12	-41.5	-43.9	18.4	0.00e+00	0	42	0	951058432	53	5072
2026-01-23 22:56:18.92	153.15	21.04	-41.7	-44.1	18.2	0.00e+00	0	42	0	952107008	53	5212
2026-01-23 22:56:20.20	153.34	20.90	-41.9	-44.5	17.9	0.00e+00	0	42	0	954204160	54	5102
2026-01-23 22:56:20.91	153.45	20.82	-41.9	-44.5	17.9	0.00e+00	0	42	0	955252736	54	5115
2026-01-23 22:56:22.19	153.64	20.68	-41.9	-44.5	17.9	0.00e+00	0	42	0	958398464	54	5117
2026-01-23 22:56:22.99	153.75	20.59	-42.0	-44.6	17.8	0.00e+00	0	42	0	959447040	54	5172
2026-01-23 22:56:24.12	153.92	20.46	-41.7	-44.3	18.1	0.00e+00	0	42	0	961544192	54	4988
2026-01-23 22:56:24.98	154.04	20.37	-41.6	-44.1	18.2	0.00e+00	0	42	0	963641344	54	4902
2026-01-23 22:56:26.12	154.21	20.24	-41.4	-44.0	18.4	2.43e-04	0	42	0	965738496	54	4817
2026-01-23 22:56:27.25	154.37	20.12	-41.5	-44.0	18.3	0.00e+00	0	42	0	967835648	54	4840
2026-01-23 22:56:28.10	154.49	20.03	-41.3	-43.8	18.5	0.00e+00	0	42	0	968884224	54	4744
2026-01-23 22:56:29.64	154.71	19.86	-41.4	-43.8	18.5	0.00e+00	0	42	0	972029952	54	4732
2026-01-23 22:56:30.35	154.80	19.78	-41.4	-43.8	18.5	0.00e+00	0	42	0	973078528	54	4752
2026-01-23 22:56:31.83	155.01	19.62	-41.5	-44.0	18.3	0.00e+00	0	42	0	976224256	54	4818
2026-01-23 22:56:32.54	155.11	19.55	-41.7	-44.2	18.1	0.00e+00	0	42	0	977272832	54	4956
2026-01-23 22:56:33.82	155.28	19.41	-41.7	-44.2	18.1	0.00e+00	0	42	0	979369984	54	4951
2026-01-23 22:56:34.55	155.38	19.33	-41.7	-44.2	18.1	0.00e+00	0	42	0	981467136	54	4973
2026-01-23 22:56:35.83	155.55	19.19	-41.7	-44.3	18.1	0.00e+00	0	42	0	983564288	54	5001
2026-01-23 22:56:36.56	155.65	19.12	-41.8	-44.3	16.8	0.00e+00	0	42	0	984612864	54	5018
2026-01-23 22:56:37.84	155.82	18.98	-41.7	-44.2	18.1	0.00e+00	0	42	0	987758592	54	4974
2026-01-23 22:56:38.58	155.92	18.90	-41.7	-44.2	18.1	0.00e+00	0	42	0	988807168	54	4954
2026-01-23 22:56:39.86	156.09	18.77	-41.5	-43.9	18.3	0.00e+00	0	42	0	990904320	54	4811
2026-01-23 22:56:40.57	156.18	18.69	-41.5	-44.0	18.2	1.91e-04	0	42	0	993001472	54	4850
2026-01-23 22:56:41.85	156.34	18.56	-41.2	-43.6	18.7	0.00e+00	0	42	0	995098624	54	4618
2026-01-23 22:56:42.67	156.45	18.47	-41.1	-43.5	18.7	0.00e+00	0	42	0	996147200	54	4569
2026-01-23 22:56:44.12	156.63	18.32	-41.1	-43.5	18.8	0.00e+00	0	42	0	999292928	53	4838
2026-01-23 22:56:44.83	156.72	18.25	-41.0	-43.3	18.9	0.00e+00	0	42	0	1000341504	53	4757
2026-01-23 22:56:46.13	156.89	18.11	-41.2	-43.6	18.6	0.00e+00	0	42	0	1002438656	53	4884
2026-01-23 22:56:46.85	156.98	18.04	-41.3	-43.7	18.5	0.00e+00	0	42	0	1004535808	53	4971
2026-01-23 22:56:48.13	157.13	17.91	-41.3	-43.8	18.4	0.00e+00	0	42	0	1006632960	53	5002
2026-01-23 22:56:48.99	157.24	17.82	-41.5	-44.0	18.3	0.00e+00	0	42	0	1008730112	53	5102
2026-01-23 22:56:50.13	157.38	17.70	-41.5	-44.0	18.3	0.00e+00	0	42	0	1010827264	53	5112
2026-01-23 22:56:50.98	157.48	17.61	-41.6	-44.1	18.0	0.00e+00	0	42	0	1011875840	53	5185
2026-01-23 22:56:52.12	157.62	17.50	-41.7	-44.2	18.1	0.00e+00	0	42	0	1013972992	53	5235
2026-01-23 22:56:52.97	157.72	17.41	-41.6	-44.1	18.1	0.00e+00	0	42	0	1016070144	53	5196
2026-01-23 22:56:54.11	157.86	17.30	-41.7	-44.2	18.0	0.00e+00	0	42	0	1018167296	54	4976
2026-01-23 22:56:54.96	157.96	17.21	-41.6	-44.1	18.2	0.00e+00	0	42	0	1019215872	54	4888
2026-01-23 22:56:56.10	158.09	17.10	-41.7	-44.2	18.0	1.11e-04	0	42	0	1021313024	54	4962
2026-01-23 22:56:56.95	158.19	17.01	-41.7	-44.2	18.0	0.00e+00	0	42	0	1023410176	54	4981
2026-01-23 22:56:58.09	158.32	16.90	-41.6	-44.1	18.1	7.00e-07	0	42	0	1025507328	54	4913
2026-01-23 22:56:58.95	158.42	16.81	-41.4	-43.9	18.3	0.00e+00	0	42	0	1026555904	54	4814
2026-01-23 22:57:00.08	158.55	16.70	-41.5	-44.1	18.1	0.00e+00	0	42	0	1028653056	54	4892
2026-01-23 22:57:00.94	158.65	16.61	-41.6	-44.1	18.1	0.00e+00	0	42	0	1030750208	54	4919
2026-01-23 22:57:02.07	158.78	16.50	-41.7	-44.2	18.0	0.00e+00	0	42	0	1032847360	54	4973
2026-01-23 22:57:02.93	158.88	16.42	-41.7	-44.3	17.9	0.00e+00	0	42	0	1034944512	54	5000
2026-01-23 22:57:04.06	159.00	16.31	-41.8	-44.4	17.9	0.00e+00	0	42	0	1037041664	54	5046
2026-01-23 22:57:04.91	159.10	16.22	-41.9	-44.6	17.7	0.00e+00	0	42	0	1038090240	54	5173
2026-01-23 22:57:06.05	159.22	16.11	-42.1	-44.8	17.5	0.00e+00	0	42	0	1040187392	54	5311
2026-01-23 22:57:06.90	159.32	16.03	-42.2	-44.9	17.4	0.00e+00	0	42	0	1042284544	55	5056
2026-01-23 22:57:08.04	159.44	15.92	-42.3	-45.0	17.2	0.00e+00	0	42	0	1044381696	55	5148
2026-01-23 22:57:08.90	159.53	15.84	-42.4	-45.1	17.1	0.00e+00	0	42	0	1045430272	55	5181
2026-01-23 22:57:10.03	159.66	15.73	-42.4	-45.2	17.1	0.00e+00	0	42	0	1047527424	55	5219
2026-01-23 22:57:10.89	159.75	15.64	-42.3	-45.0	17.3	1.13e-04	0	42	0	1049624576	55	5103
2026-01-23 22:57:12.03	159.87	15.53	-42.3	-45.0	17.3	0.00e+00	0	41	0	1051721728	55	5116
2026-01-23 22:57:12.88	159.96	15.45	-42.2	-44.8	17.4	1.19e-04	0	41	0	1052770304	55	5029
2026-01-23 22:57:14.11	160.09	15.34	-42.0	-44.6	17.6	0.00e+00	0	42	0	1055916032	55	4916
2026-01-23 22:57:14.96	160.18	15.26	-42.0	-44.7	17.6	0.00e+00	0	41	0	1056964608	55	4927
2026-01-23 22:57:16.10	160.29	15.15	-41.8	-44.4	17.8	0.00e+00	0	42	0	1059061760	55	4796
2026-01-23 22:57:16.95	160.38	15.07	-41.8	-44.4	17.8	0.00e+00	0	42	0	1061158912	55	4787
2026-01-23 22:57:18.09	160.50	14.96	-41.8	-44.4	17.8	0.00e+00	0	41	0	1063256064	55	4780
2026-01-23 22:57:18.94	160.59	14.88	-41.6	-44.2	18.0	0.00e+00	0	42	0	1064304640	55	4668
2026-01-23 22:57:20.08	160.70	14.77	-41.6	-44.2	18.0	0.00e+00	0	42	0	1066401792	55	4652
2026-01-23 22:57:21.14	160.81	14.67	-41.6	-44.2	18.0	0.00e+00	0	42	0	1068498944	55	4667
2026-01-23 22:57:22.00	160.89	14.59	-41.7	-44.2	17.9	0.00e+00	0	42	0	1070596096	55	4701
2026-01-23 22:57:23.14	161.01	14.49	-41.7	-44.2	18.0	0.00e+00	0	41	0	1072693248	55	4683
2026-01-23 22:57:24.20	161.11	14.39	-41.6	-44.1	18.0	0.00e+00	0	42	0	1074790400	55	4635
2026-01-23 22:57:25.24	161.21	14.30	-41.5	-44.3	17.8	0.00e+00	0	42	0	1075838976	55	4738
2026-01-23 22:57:26.39	161.33	14.19	-41.7	-44.3	17.9	0.00e+00	0	42	0	1077936128	54	4996
2026-01-23 22:57:27.24	161.41	14.11	-41.8	-44.4	17.8	0.00e+00	0	42	0	1080033280	54	5054
2026-01-23 22:57:28.59	161.54	13.99	-41.8	-44.4	17.8	0.00e+00	0	42	0	1082130432	54	5086
2026-01-23 22:57:29.30	161.61	13.92	-41.8	-44.4	17.8	0.00e+00	0	42	0	1084227584	54	5059
2026-01-23 22:57:30.78	161.75	13.79	-41.9	-44.5	17.7	0.00e+00	0	42	0	1086324736	54	5128
2026-01-23 22:57:31.50	161.81	13.72	-41.9	-44.5	17.6	0.00e+00	0	42	0	1088421888	54	5159
2026-01-23 22:57:32.77	161.93	13.61	-42.0	-44.6	17.5	0.00e+00	0	42	0	1090519040	54	5193
2026-01-23 22:57:33.50	162.00	13.54	-42.0	-44.7	17.5	0.00e+00	0	41	0	1091567616	54	5235
2026-01-23 22:57:34.78	162.12	13.43	-42.1	-44.8	17.4	0.00e+00	0	42	0	1093664768	54	5302
2026-01-23 22:57:35.49	162.19	13.37	-42.1	-44.8	17.3	0.00e+00	0	42	0	1095761920	55	5041
2026-01-23 22:57:36.77	162.30	13.25	-42.2	-44.9	17.3	0.00e+00	0	42	0	1097859072	55	5057
2026-01-23 22:57:37.50	162.37	13.19	-42.3	-45.0	17.2	0.00e+00	0	42	0	1098907648	55	5109
2026-01-23 22:57:38.78	162.49	13.07	-42.3	-45.0	17.1	0.00e+00	0	41	0	1102053376	55	5158
2026-01-23 22:57:39.50	162.55	13.01	-42.3	-45.0	17.1	0.00e+00	0	42	0	1103101952	55	5159
2026-01-23 22:57:40.79	162.67	12.90	-42.4	-45.2	17.0	2.74e-04	0	42	0	1105199104	55	5233
2026-01-23 22:57:41.50	162.73	12.83	-42.3	-45.1	17.0	0.00e+00	0	42	0	1107296256	55	5190
2026-01-23 22:57:42.77	162.84	12.72	-42.4	-45.2	17.0	3.05e-05	0	42	0	1109393408	55	5219
2026-01-23 22:57:43.49	162.91	12.66	-42.4	-45.2	17.0	0.00e+00	0	42	0	1110441984	55	5226
2026-01-23 22:57:44.77	163.02	12.55	-42.4	-45.2	17.0	0.00e+00	0	42	0	1112539136	55	5232
2026-01-23 22:57:45.51	163.08	12.48	-42.4	-45.3	16.9	0.00e+00	0	42	0	1114636288	55	5293
2026-01-23 22:57:46.79	163.19	12.37	-42.4	-45.2	16.9	0.00e+00	0	42	0	1116733440	55	5267
2026-01-23 22:57:47.50	163.26	12.31	-42.4	-45.3	16.9	0.00e+00	0	42	0	1117782016	55	5293
2026-01-23 22:57:48.78	163.37	12.20	-42.5	-45.4	16.7	0.00e+00	0	42	0	1120927744	55	5376
2026-01-23 22:57:49.49	163.43	12.14	-42.6	-45.5	16.6	0.00e+00	0	42	0	1121976320	55	5448
2026-01-23 22:57:50.77	163.53	12.03	-42.5	-45.4	16.7	0.00e+00	0	42	0	1124073472	55	5388
2026-01-23 22:57:51.49	163.59	11.97	-42.5	-45.4	16.7	0.00e+00	0	42	0	1125122048	55	5391
2026-01-23 22:57:52.78	163.70	11.86	-42.6	-45.6	16.5	0.00e+00	0	42	0	1128267776	55	5511
2026-01-23 22:57:53.49	163.76	11.80	-42.6	-45.6	16.5	0.00e+00	0	42	0	1129316352	55	5508
2026-01-23 22:57:54.76	163.87	11.69	-42.9	-45.9	16.4	0.00e+00	0	42	0	1131413504	56	5387
2026-01-23 22:57:55.59	163.94	11.62	-42.9	-46.0	16.3	1.42e-04	0	42	0	1133510656	56	5406
2026-01-23 22:57:56.72	164.03	11.53	-42.9	-46.1	16.2	0.00e+00	0	42	0	1135607808	56	5476
2026-01-23 22:57:57.80	164.12	11.44	-43.0	-46.2	16.1	1.83e-04	0	42	0	1137704960	56	5559
2026-01-23 22:57:58.82	164.20	11.35	-43.0	-46.1	16.2	0.00e+00	0	42	0	1138753536	56	5511
2026-01-23 22:57:59.99	164.29	11.26	-42.9	-46.2	15.8	0.00e+00	0	42	0	1141899264	56	5534
2026-01-23 22:58:00.84	164.36	11.18	-42.9	-46.1	16.2	0.00e+00	0	42	0	1142947840	56	5491
2026-01-23 22:58:01.98	164.45	11.09	-43.0	-46.2	16.1	0.00e+00	0	42	0	1145044992	56	5553
2026-01-23 22:58:02.83	164.52	11.02	-43.1	-46.2	16.0	0.00e+00	0	42	0	1147142144	56	5583
2026-01-23 22:58:03.97	164.61	10.93	-42.9	-46.1	16.2	0.00e+00	0	42	0	1149239296	56	5478
2026-01-23 22:58:04.82	164.68	10.86	-43.0	-46.1	16.1	0.00e+00	0	42	0	1150287872	56	5511
2026-01-23 22:58:05.96	164.76	10.76	-42.9	-46.0	16.2	9.84e-03	0	42	0	1152385024	56	5427
2026-01-23 22:58:06.81	164.83	10.69	-42.9	-45.9	16.3	0.00e+00	0	42	0	1154482176	56	5388
2026-01-23 22:58:07.95	164.92	10.60	-42.8	-45.8	16.4	0.00e+00	0	42	0	1156579328	56	5332
2026-01-23 22:58:08.80	164.98	10.53	-42.7	-45.7	16.5	1.87e-02	0	42	0	1157627904	56	5264
2026-01-23 22:58:09.94	165.07	10.44	-42.6	-45.6	16.6	0.00e+00	0	42	0	1159725056	56	5181
2026-01-23 22:58:10.79	165.14	10.37	-42.6	-45.6	16.6	2.21e-05	0	42	0	1161822208	56	5204
2026-01-23 22:58:11.93	165.22	10.28	-42.6	-45.6	16.6	1.35e-02	0	41	0	1163919360	56	5197
2026-01-23 22:58:12.79	165.29	10.21	-42.5	-45.5	16.7	0.00e+00	0	42	0	1164967936	56	5127
2026-01-23 22:58:13.92	165.37	10.12	-42.5	-45.5	16.7	0.00e+00	0	42	0	1167065088	56	5140
2026-01-23 22:58:14.79	165.44	10.05	-42.5	-45.6	16.6	7.24e-05	0	42	0	1169162240	56	5166
2026-01-23 22:58:16.12	165.53	9.94	-42.5	-45.7	16.5	0.00e+00	0	42	0	1171259392	56	5232
2026-01-23 22:58:16.83	165.59	9.89	-42.4	-45.5	16.7	0.00e+00	0	42	0	1173356544	56	5129
2026-01-23 22:58:18.11	165.68	9.79	-42.2	-45.5	16.7	0.00e+00	0	42	0	1175453696	56	5120
2026-01-23 22:58:18.82	165.73	9.73	-42.2	-45.5	16.7	0.00e+00	0	42	0	1176502272	56	5137
2026-01-23 22:58:20.10	165.82	9.63	-42.2	-45.6	12.4	0.00e+00	0	42	0	1179648000	56	5204
2026-01-23 22:58:20.82	165.88	9.57	-42.2	-45.7	16.5	0.00e+00	0	42	0	1180696576	56	5230
2026-01-23 22:58:22.10	165.97	9.47	-42.2	-45.9	16.3	0.00e+00	0	42	0	1182793728	56	5379
2026-01-23 22:58:22.90	166.02	9.41	-42.2	-45.9	16.2	0.00e+00	0	42	0	1184890880	56	5379
2026-01-23 22:58:24.04	166.11	9.32	-42.2	-46.1	16.1	0.00e+00	0	42	0	1186988032	56	5484
2026-01-23 22:58:24.89	166.17	9.25	-42.3	-46.2	15.9	0.00e+00	0	42	0	1188036608	56	5542
2026-01-23 22:58:26.03	166.25	9.16	-42.4	-46.4	15.7	1.24e-02	0	42	0	1190133760	56	5710
2026-01-23 22:58:26.88	166.30	9.10	-42.5	-46.5	15.7	0.00e+00	0	42	0	1192230912	56	5755
2026-01-23 22:58:28.02	166.38	9.01	-42.6	-46.6	15.5	0.00e+00	0	42	0	1194328064	56	5845
2026-01-23 22:58:28.87	166.44	8.95	-45.4	-54.6	8.6	0.00e+00	0	42	0	1195376640	61	10987
2026-01-23 22:58:30.00	166.52	8.86	-47.8	-63.2	3.8	1.49e+00	0	42	104	1195376640	66	22247
2026-01-23 22:58:30.85	166.58	8.79	-48.1	-63.5	3.8	1.49e+00	0	42	104	1195376640	67	21652
2026-01-23 22:58:31.99	166.66	8.71	-48.4	-63.7	3.8	1.49e+00	0	42	104	1195376640	67	22066
2026-01-23 22:58:32.84	166.71	8.64	-48.6	-63.7	3.8	1.49e+00	0	42	104	1195376640	67	22224
2026-01-23 22:58:33.97	166.79	8.56	-48.6	-63.8	3.8	1.49e+00	0	42	104	1195376640	67	22474
2026-01-23 22:58:34.83	166.85	8.49	-48.8	-64.0	3.8	1.49e+00	0	42	104	1195376640	68	21652
2026-01-23 22:58:35.96	166.92	8.41	-48.6	-64.1	3.8	1.49e+00	0	42	104	1195376640	68	21807
2026-01-23 22:58:36.81	166.98	8.34	-48.8	-64.1	3.8	1.49e+00	0	42	104	1195376640	68	21893
