passes_logs/2026/01/23/T1/T1__20260123_002529_SUOMI_NPP_rec.log

#Pass ID: 20260123_002529_SUOMI NPP
#Satellite: SUOMI NPP
#Configuration: NPP
#almurnet v.1.7.20251203
#Start time: 2026-01-23 00:25:31

#Version: 2.0.20230620
#Station: T1
#Location: 37.570604 lon 55.790049 lat
#TLE: 1 37849U 11061A   26022.50498765  .00000208  00000+0  11976-3 0  9992
#TLE: 2 37849  98.7820 324.4892 0002275  50.8149 309.3229 14.19528284737775

#Time	Az	El	Level	Level2	SNR	BER	BlckErr	Temp	State	Recorded	gain1	gain2
2026-01-23 00:25:31.12	12.28	5.09	-46.4	-64.3	3.8	1.49e+00	0	35	0	0	64	28254
2026-01-23 00:25:32.11	12.25	5.16	-46.4	-64.3	3.8	1.49e+00	0	35	104	0	63	29958
2026-01-23 00:25:33.10	12.22	5.23	-46.5	-64.3	3.8	1.49e+00	0	35	104	0	63	29963
2026-01-23 00:25:34.09	12.19	5.30	-46.5	-64.3	3.8	1.49e+00	0	35	104	0	63	29994
2026-01-23 00:25:35.09	12.16	5.37	-46.5	-64.3	3.8	1.49e+00	0	35	104	0	63	29887
2026-01-23 00:25:36.08	12.13	5.44	-46.5	-64.3	3.8	1.49e+00	0	35	104	0	63	29872
2026-01-23 00:25:37.07	12.09	5.51	-46.5	-64.3	3.8	1.49e+00	0	36	104	0	63	29764
2026-01-23 00:25:38.06	12.06	5.58	-46.5	-64.3	3.8	1.49e+00	0	35	104	0	63	29789
2026-01-23 00:25:39.06	12.03	5.65	-46.5	-64.3	3.8	1.49e+00	0	35	104	0	63	29855
2026-01-23 00:25:40.05	12.00	5.72	-46.5	-64.3	3.8	1.49e+00	0	36	104	0	63	29939
2026-01-23 00:25:41.04	11.97	5.79	-46.5	-64.3	3.8	1.49e+00	0	36	104	0	63	29906
2026-01-23 00:25:42.04	11.93	5.86	-46.4	-64.3	3.8	1.49e+00	0	36	104	0	63	29925
2026-01-23 00:25:43.03	11.90	5.94	-46.4	-64.3	3.8	1.49e+00	0	36	104	0	63	29952
2026-01-23 00:25:44.02	11.87	6.01	-46.5	-64.3	3.8	1.49e+00	0	36	104	0	63	29933
2026-01-23 00:25:45.02	11.84	6.08	-46.5	-64.3	3.8	1.49e+00	0	36	104	0	63	29823
2026-01-23 00:25:46.01	11.80	6.15	-46.5	-64.3	3.8	1.49e+00	0	36	104	0	63	29723
2026-01-23 00:25:47.00	11.77	6.22	-46.4	-64.2	3.8	1.49e+00	0	36	104	0	63	29564
2026-01-23 00:25:48.00	11.74	6.30	-46.4	-64.1	3.8	1.49e+00	0	36	104	0	63	29307
2026-01-23 00:25:48.99	11.70	6.37	-46.4	-64.0	3.8	1.49e+00	0	36	104	0	63	28693
2026-01-23 00:25:49.98	11.67	6.44	-46.4	-63.8	3.8	1.49e+00	0	36	104	0	63	28159
2026-01-23 00:25:50.98	11.63	6.51	-46.4	-63.5	3.8	1.49e+00	0	36	104	0	63	27174
2026-01-23 00:25:51.97	11.60	6.59	-46.4	-63.2	3.8	1.49e+00	0	36	104	0	63	26366
2026-01-23 00:25:52.96	11.56	6.66	-46.4	-62.9	3.8	1.49e+00	0	36	104	0	63	25388
2026-01-23 00:25:53.95	11.53	6.73	-46.4	-62.5	3.8	1.49e+00	0	36	104	0	63	24406
2026-01-23 00:25:54.95	11.50	6.81	-46.4	-62.4	3.8	1.49e+00	0	36	104	0	63	24098
2026-01-23 00:25:55.94	11.46	6.88	-46.4	-62.3	3.8	1.49e+00	0	36	104	0	63	23614
2026-01-23 00:25:56.93	11.42	6.96	-46.4	-62.2	3.8	1.48e+00	0	36	104	0	63	23552
2026-01-23 00:25:57.93	11.39	7.03	-46.4	-62.2	3.9	1.48e+00	0	36	104	0	63	23378
2026-01-23 00:25:58.92	11.35	7.10	-46.4	-62.3	3.9	1.48e+00	0	36	104	0	63	23712
2026-01-23 00:25:59.91	11.32	7.18	-46.4	-62.6	3.8	1.49e+00	0	36	104	0	63	24517
2026-01-23 00:26:00.91	11.28	7.25	-46.4	-62.9	3.8	1.49e+00	0	36	104	0	63	25321
2026-01-23 00:26:01.90	11.25	7.33	-46.4	-63.2	3.8	1.49e+00	0	36	104	0	63	26375
2026-01-23 00:26:02.89	11.21	7.40	-46.4	-63.6	3.8	1.49e+00	0	36	104	0	63	27506
2026-01-23 00:26:03.89	11.17	7.48	-46.4	-63.9	3.8	1.49e+00	0	36	104	0	63	28437
2026-01-23 00:26:04.88	11.13	7.56	-46.4	-64.1	3.8	1.49e+00	0	36	104	0	63	29227
2026-01-23 00:26:05.88	11.10	7.63	-46.4	-64.3	3.8	1.49e+00	0	36	104	0	63	29719
2026-01-23 00:26:06.87	11.06	7.71	-46.4	-64.2	3.8	1.49e+00	0	37	104	0	63	29599
2026-01-23 00:26:07.86	11.02	7.79	-46.4	-63.9	3.8	1.49e+00	0	36	104	0	63	28608
2026-01-23 00:26:08.86	10.98	7.86	-46.4	-63.1	3.8	1.49e+00	0	36	104	0	63	26008
2026-01-23 00:26:09.85	10.95	7.94	-46.4	-61.7	3.9	1.49e+00	0	36	104	0	63	22201
2026-01-23 00:26:10.84	10.91	8.02	-46.3	-59.8	4.5	1.22e+00	0	37	0	0	63	17821
2026-01-23 00:26:11.83	10.87	8.09	-46.1	-57.8	5.6	6.15e-01	0	37	0	2097152	63	14083
2026-01-23 00:26:12.83	10.83	8.17	-45.9	-56.1	6.8	2.78e-01	0	37	0	4194304	63	11661
2026-01-23 00:26:13.82	10.79	8.25	-45.6	-54.5	8.4	1.06e-01	0	36	0	5242880	63	9710
2026-01-23 00:26:14.81	10.75	8.33	-45.3	-53.1	9.8	1.44e-02	0	37	0	7340032	62	8736
2026-01-23 00:26:15.81	10.71	8.41	-45.1	-52.0	11.0	2.96e-03	0	37	0	9437184	62	7682
2026-01-23 00:26:16.80	10.67	8.48	-44.7	-50.9	12.1	5.93e-04	0	37	0	11534336	61	7202
2026-01-23 00:26:17.80	10.63	8.56	-44.4	-50.0	13.1	1.04e-04	0	37	0	12582912	60	6828
2026-01-23 00:26:18.79	10.59	8.64	-44.2	-49.5	13.5	6.10e-06	0	37	0	14680064	60	6494
2026-01-23 00:26:19.78	10.55	8.72	-44.0	-49.2	13.9	5.30e-06	0	37	0	16777216	60	6213
2026-01-23 00:26:20.78	10.51	8.80	-44.1	-48.9	14.1	0.00e+00	0	37	0	18874368	59	6389
2026-01-23 00:26:21.77	10.47	8.88	-44.1	-48.9	14.1	7.00e-07	0	37	0	20971520	59	6406
2026-01-23 00:26:22.76	10.43	8.96	-44.2	-49.2	13.9	3.00e-06	0	37	0	22020096	59	6596
2026-01-23 00:26:23.76	10.39	9.04	-44.3	-49.5	13.6	7.60e-06	0	37	0	24117248	59	6836
2026-01-23 00:26:24.75	10.35	9.12	-44.6	-50.3	12.8	1.90e-05	0	37	0	26214400	60	7120
2026-01-23 00:26:26.04	10.29	9.22	-46.3	-56.8	6.4	1.86e-02	0	37	0	28311552	63	12618
2026-01-23 00:26:26.76	10.26	9.28	-42.9	-47.1	15.9	3.50e-02	0	37	0	29360128	57	5799
2026-01-23 00:26:28.04	10.21	9.39	-41.8	-45.5	17.4	0.00e+00	0	37	0	32505856	55	5434
2026-01-23 00:26:28.77	10.18	9.45	-44.6	-51.2	12.0	9.90e-06	0	37	0	33554432	59	8273
2026-01-23 00:26:30.05	10.12	9.55	-41.7	-45.3	17.5	4.14e-04	0	37	0	35651584	55	5322
2026-01-23 00:26:30.78	10.09	9.61	-41.7	-45.2	17.6	0.00e+00	0	37	0	37748736	55	5267
2026-01-23 00:26:32.06	10.03	9.72	-41.7	-45.2	17.7	0.00e+00	0	37	0	39845888	54	5555
2026-01-23 00:26:32.79	10.00	9.78	-41.6	-45.1	17.7	0.00e+00	0	37	0	40894464	54	5506
2026-01-23 00:26:34.07	9.94	9.89	-41.6	-45.1	17.7	0.00e+00	0	37	0	44040192	54	5520
2026-01-23 00:26:34.79	9.91	9.95	-41.6	-45.2	17.7	0.00e+00	0	37	0	45088768	54	5538
2026-01-23 00:26:36.17	9.85	10.06	-41.7	-45.2	17.6	0.00e+00	0	37	0	47185920	54	5575
2026-01-23 00:26:36.88	9.82	10.12	-41.7	-45.2	17.7	0.00e+00	0	37	0	49283072	54	5542
2026-01-23 00:26:38.16	9.76	10.23	-41.5	-44.9	17.9	0.00e+00	0	37	0	51380224	54	5397
2026-01-23 00:26:38.90	9.73	10.29	-41.5	-45.1	17.8	0.00e+00	0	37	0	52428800	54	5474
2026-01-23 00:26:40.25	9.66	10.41	-41.6	-45.0	17.9	0.00e+00	0	37	0	55574528	54	5440
2026-01-23 00:26:40.96	9.63	10.47	-41.6	-45.1	17.8	0.00e+00	0	37	0	56623104	54	5485
2026-01-23 00:26:42.24	9.57	10.58	-41.6	-45.1	17.8	0.00e+00	0	37	0	58720256	54	5491
2026-01-23 00:26:42.97	9.54	10.64	-41.6	-45.1	17.8	0.00e+00	0	37	0	59768832	54	5495
2026-01-23 00:26:44.25	9.48	10.75	-41.6	-45.0	17.9	0.00e+00	0	37	0	62914560	54	5408
2026-01-23 00:26:44.97	9.44	10.81	-41.6	-44.9	18.0	0.00e+00	0	37	0	63963136	54	5401
2026-01-23 00:26:46.25	9.38	10.92	-41.7	-45.1	17.8	0.00e+00	0	37	0	66060288	54	5492
2026-01-23 00:26:46.97	9.35	10.99	-41.6	-44.9	18.0	0.00e+00	0	37	0	68157440	54	5351
2026-01-23 00:26:48.25	9.28	11.10	-41.6	-44.8	18.1	0.00e+00	0	37	0	70254592	54	5321
2026-01-23 00:26:48.98	9.25	11.16	-41.6	-44.9	18.0	0.00e+00	0	37	0	71303168	54	5367
2026-01-23 00:26:50.26	9.19	11.27	-41.3	-44.4	18.5	0.00e+00	0	37	0	73400320	54	5074
2026-01-23 00:26:51.02	9.15	11.34	-41.5	-44.6	18.3	0.00e+00	0	37	0	75497472	54	5197
2026-01-23 00:26:52.29	9.08	11.45	-41.6	-44.8	18.2	0.00e+00	0	37	0	77594624	54	5281
2026-01-23 00:26:53.02	9.05	11.52	-41.6	-44.7	18.2	0.00e+00	0	37	0	78643200	54	5275
2026-01-23 00:26:54.30	8.98	11.63	-41.5	-44.5	18.4	0.00e+00	0	37	0	81788928	54	5119
2026-01-23 00:26:55.13	8.94	11.70	-41.7	-44.7	18.3	0.00e+00	0	37	0	82837504	54	5241
2026-01-23 00:26:56.27	8.88	11.81	-41.5	-44.4	18.5	0.00e+00	0	37	0	84934656	54	5062
2026-01-23 00:26:57.13	8.84	11.88	-41.4	-44.4	18.5	0.00e+00	0	37	0	87031808	54	5044
2026-01-23 00:26:58.26	8.78	11.99	-41.2	-44.1	18.8	0.00e+00	0	37	0	89128960	54	4881
2026-01-23 00:26:59.11	8.74	12.06	-41.5	-44.4	18.5	0.00e+00	0	37	0	90177536	54	5088
2026-01-23 00:27:00.25	8.68	12.17	-41.3	-44.1	18.8	0.00e+00	0	37	0	92274688	54	4917
2026-01-23 00:27:01.10	8.63	12.24	-41.3	-44.1	18.8	0.00e+00	0	37	0	94371840	54	4910
2026-01-23 00:27:02.24	8.57	12.35	-41.4	-44.3	18.6	0.00e+00	0	37	0	96468992	54	4993
2026-01-23 00:27:03.09	8.53	12.43	-41.4	-44.3	18.7	0.00e+00	0	37	0	97517568	54	4998
2026-01-23 00:27:04.29	8.46	12.54	-41.3	-44.1	18.8	0.00e+00	0	37	0	100663296	54	4906
2026-01-23 00:27:05.15	8.41	12.62	-41.5	-44.3	18.7	0.00e+00	0	37	0	101711872	54	5011
2026-01-23 00:27:06.28	8.35	12.72	-41.3	-44.0	18.9	0.00e+00	0	37	0	103809024	54	4859
2026-01-23 00:27:07.14	8.31	12.80	-41.3	-44.0	18.9	0.00e+00	0	37	0	105906176	54	4846
2026-01-23 00:27:08.27	8.24	12.91	-41.3	-44.0	18.9	0.00e+00	0	37	0	108003328	54	4850
2026-01-23 00:27:09.12	8.20	12.99	-41.2	-44.0	19.0	0.00e+00	0	37	0	109051904	54	4815
2026-01-23 00:27:10.26	8.13	13.09	-41.3	-44.0	19.0	0.00e+00	0	37	0	111149056	54	4821
2026-01-23 00:27:11.11	8.08	13.17	-41.4	-44.1	18.8	0.00e+00	0	37	0	113246208	54	4924
2026-01-23 00:27:12.25	8.02	13.28	-41.4	-44.1	18.9	0.00e+00	0	37	0	115343360	54	4900
2026-01-23 00:27:13.10	7.97	13.36	-41.3	-44.0	18.9	0.00e+00	0	37	0	116391936	54	4826
2026-01-23 00:27:14.24	7.90	13.47	-41.3	-43.9	19.0	0.00e+00	0	37	0	118489088	54	4781
2026-01-23 00:27:15.30	7.84	13.57	-41.4	-44.1	18.9	0.00e+00	0	37	0	120586240	54	4882
2026-01-23 00:27:16.37	7.78	13.67	-41.4	-44.0	18.9	0.00e+00	0	37	0	122683392	54	4836
2026-01-23 00:27:17.35	7.72	13.77	-41.3	-43.9	19.1	0.00e+00	0	37	0	124780544	54	4770
2026-01-23 00:27:18.34	7.66	13.87	-41.5	-44.1	18.9	0.00e+00	0	37	0	126877696	54	4882
2026-01-23 00:27:19.34	7.60	13.96	-41.6	-44.2	18.7	0.00e+00	0	37	0	128974848	54	4972
2026-01-23 00:27:20.33	7.54	14.06	-41.6	-44.3	18.7	0.00e+00	0	37	0	130023424	54	4985
2026-01-23 00:27:21.33	7.48	14.16	-41.5	-44.1	18.9	0.00e+00	0	37	0	132120576	54	4901
2026-01-23 00:27:22.32	7.42	14.25	-41.4	-43.9	19.0	0.00e+00	0	37	0	134217728	54	4807
2026-01-23 00:27:23.32	7.36	14.35	-41.4	-44.0	19.0	0.00e+00	0	37	0	136314880	54	4837
2026-01-23 00:27:24.31	7.30	14.45	-41.4	-44.0	19.0	0.00e+00	0	37	0	137363456	54	4829
2026-01-23 00:27:25.31	7.24	14.55	-41.3	-43.7	19.2	0.00e+00	0	37	0	139460608	54	4702
2026-01-23 00:27:26.30	7.18	14.65	-41.3	-43.7	19.2	0.00e+00	0	37	0	141557760	54	4696
2026-01-23 00:27:27.30	7.11	14.75	-41.3	-43.8	19.1	0.00e+00	0	37	0	143654912	54	4731
2026-01-23 00:27:28.29	7.05	14.85	-41.4	-43.9	19.1	0.00e+00	0	37	0	145752064	54	4780
2026-01-23 00:27:29.33	6.98	14.95	-41.5	-43.9	19.0	0.00e+00	0	37	0	146800640	54	4814
2026-01-23 00:27:30.36	6.92	15.06	-41.4	-43.9	19.1	0.00e+00	0	38	0	148897792	54	4767
2026-01-23 00:27:31.35	6.85	15.16	-41.4	-43.9	19.1	0.00e+00	0	37	0	150994944	54	4771
2026-01-23 00:27:32.35	6.79	15.26	-41.3	-43.8	19.2	0.00e+00	0	37	0	153092096	54	4730
2026-01-23 00:27:33.34	6.72	15.36	-41.4	-43.8	19.2	0.00e+00	0	37	0	155189248	54	4740
2026-01-23 00:27:34.34	6.65	15.46	-41.4	-43.8	19.1	0.00e+00	0	37	0	156237824	54	4738
2026-01-23 00:27:35.33	6.59	15.57	-41.3	-43.7	19.2	0.00e+00	0	37	0	158334976	54	4693
2026-01-23 00:27:36.33	6.52	15.67	-41.5	-43.9	19.0	0.00e+00	0	37	0	160432128	54	4804
2026-01-23 00:27:37.33	6.45	15.77	-41.4	-43.8	19.1	0.00e+00	0	37	0	162529280	54	4759
2026-01-23 00:27:38.32	6.38	15.88	-41.3	-43.7	19.2	0.00e+00	0	37	0	163577856	54	4695
2026-01-23 00:27:39.31	6.32	15.98	-41.4	-43.8	19.2	0.00e+00	0	37	0	165675008	54	4731
2026-01-23 00:27:40.31	6.25	16.09	-41.5	-43.9	19.1	0.00e+00	0	37	0	167772160	54	4784
2026-01-23 00:27:41.33	6.18	16.19	-41.4	-43.8	19.1	0.00e+00	0	37	0	169869312	54	4748
2026-01-23 00:27:42.38	6.10	16.30	-41.4	-43.8	19.2	0.00e+00	0	37	0	171966464	54	4717
2026-01-23 00:27:43.35	6.03	16.41	-41.4	-43.8	19.2	0.00e+00	0	38	0	173015040	54	4757
2026-01-23 00:27:44.35	5.96	16.52	-41.5	-43.9	19.1	0.00e+00	0	37	0	175112192	54	4777
2026-01-23 00:27:45.44	5.88	16.63	-41.4	-43.7	19.3	0.00e+00	0	37	0	177209344	54	4694
2026-01-23 00:27:46.32	5.82	16.73	-41.5	-43.8	19.2	0.00e+00	0	37	0	179306496	54	4738
2026-01-23 00:27:47.63	5.72	16.87	-41.5	-43.9	19.2	0.00e+00	0	37	0	181403648	54	4793
2026-01-23 00:27:48.34	5.67	16.95	-41.4	-43.8	19.2	0.00e+00	0	37	0	182452224	54	4707
2026-01-23 00:27:49.62	5.57	17.09	-41.5	-43.9	19.2	0.00e+00	0	38	0	185597952	54	4776
2026-01-23 00:27:50.33	5.52	17.16	-41.5	-43.9	19.2	0.00e+00	0	37	0	186646528	54	4771
2026-01-23 00:27:51.61	5.42	17.30	-41.3	-43.6	19.3	0.00e+00	0	37	0	188743680	54	4645
2026-01-23 00:27:52.36	5.37	17.39	-41.4	-43.8	19.3	0.00e+00	0	38	0	190840832	54	4707
2026-01-23 00:27:53.64	5.27	17.53	-41.6	-44.0	19.0	0.00e+00	0	38	0	192937984	54	4870
2026-01-23 00:27:54.48	5.20	17.62	-41.5	-43.9	19.1	0.00e+00	0	37	0	193986560	54	4797
2026-01-23 00:27:55.61	5.12	17.75	-41.7	-44.1	19.0	0.00e+00	0	38	0	196083712	54	4886
2026-01-23 00:27:56.47	5.05	17.84	-41.7	-44.1	18.9	0.00e+00	0	37	0	198180864	54	4926
2026-01-23 00:27:57.60	4.96	17.97	-41.7	-44.1	18.9	0.00e+00	0	38	0	200278016	54	4914
2026-01-23 00:27:58.45	4.89	18.07	-41.6	-44.0	19.1	0.00e+00	0	37	0	201326592	54	4833
2026-01-23 00:27:59.59	4.80	18.20	-41.8	-44.2	18.8	0.00e+00	0	37	0	203423744	54	4934
2026-01-23 00:28:00.44	4.73	18.29	-41.7	-44.2	18.9	0.00e+00	0	38	0	205520896	54	4934
2026-01-23 00:28:01.58	4.64	18.42	-41.7	-44.1	19.0	0.00e+00	0	37	0	207618048	54	4876
2026-01-23 00:28:02.43	4.57	18.52	-41.7	-44.1	18.9	0.00e+00	0	37	0	209715200	54	4925
2026-01-23 00:28:03.57	4.47	18.65	-41.7	-44.2	18.9	0.00e+00	0	38	0	211812352	54	4929
2026-01-23 00:28:04.42	4.40	18.75	-41.6	-44.0	19.1	0.00e+00	0	38	0	212860928	54	4817
2026-01-23 00:28:05.56	4.31	18.89	-41.4	-43.8	19.2	0.00e+00	0	38	0	214958080	54	4729
2026-01-23 00:28:06.41	4.23	18.98	-41.5	-43.8	19.2	0.00e+00	0	38	0	217055232	54	4757
2026-01-23 00:28:07.55	4.14	19.12	-41.5	-43.9	19.1	0.00e+00	0	37	0	219152384	54	4806
2026-01-23 00:28:08.40	4.06	19.22	-41.5	-43.9	19.1	0.00e+00	0	37	0	220200960	54	4776
2026-01-23 00:28:09.54	3.96	19.35	-41.6	-44.0	19.1	0.00e+00	0	37	0	222298112	54	4825
2026-01-23 00:28:10.39	3.89	19.45	-41.7	-44.1	19.0	0.00e+00	0	37	0	224395264	54	4916
2026-01-23 00:28:11.52	3.79	19.59	-41.7	-44.1	19.0	0.00e+00	0	37	0	226492416	54	4908
2026-01-23 00:28:12.38	3.71	19.69	-41.7	-44.1	19.0	0.00e+00	0	38	0	227540992	54	4917
2026-01-23 00:28:13.51	3.61	19.83	-41.8	-44.2	18.9	0.00e+00	0	37	0	229638144	54	4975
2026-01-23 00:28:14.37	3.53	19.93	-41.8	-44.2	18.9	0.00e+00	0	38	0	231735296	54	4941
2026-01-23 00:28:15.50	3.43	20.07	-42.0	-44.4	18.7	0.00e+00	0	38	0	233832448	54	5092
2026-01-23 00:28:16.36	3.35	20.17	-42.1	-44.6	18.6	0.00e+00	0	37	0	234881024	55	4872
2026-01-23 00:28:17.49	3.25	20.31	-42.1	-44.6	18.5	0.00e+00	0	38	0	236978176	55	4925
2026-01-23 00:28:18.34	3.17	20.42	-42.5	-45.1	18.1	0.00e+00	0	38	0	239075328	55	5197
2026-01-23 00:28:19.48	3.06	20.56	-42.4	-44.9	18.3	0.00e+00	0	37	0	241172480	55	5059
2026-01-23 00:28:20.33	2.98	20.66	-42.4	-44.9	18.3	0.00e+00	0	37	0	243269632	55	5085
2026-01-23 00:28:21.47	2.87	20.80	-42.8	-45.4	17.9	0.00e+00	0	37	0	245366784	56	5097
2026-01-23 00:28:22.40	2.78	20.92	-42.8	-45.4	18.0	0.00e+00	0	37	0	246415360	56	5053
2026-01-23 00:28:23.39	2.68	21.05	-42.7	-45.2	18.1	0.00e+00	0	37	0	248512512	56	4966
2026-01-23 00:28:24.39	2.58	21.17	-43.0	-45.7	17.7	0.00e+00	0	38	0	250609664	56	5230
2026-01-23 00:28:25.39	2.48	21.30	-43.0	-45.7	17.7	0.00e+00	0	38	0	252706816	56	5226
2026-01-23 00:28:26.38	2.39	21.42	-43.1	-45.8	17.6	0.00e+00	0	38	0	253755392	56	5287
2026-01-23 00:28:27.37	2.29	21.55	-42.8	-45.4	18.0	0.00e+00	0	38	0	255852544	56	5068
2026-01-23 00:28:28.37	2.18	21.68	-43.0	-45.6	17.7	0.00e+00	0	38	0	257949696	56	5190
2026-01-23 00:28:29.36	2.08	21.81	-43.0	-45.6	17.8	0.00e+00	0	37	0	260046848	57	4888
2026-01-23 00:28:30.36	1.98	21.93	-43.0	-45.6	17.7	0.00e+00	0	38	0	261095424	57	4921
2026-01-23 00:28:31.35	1.87	22.06	-42.9	-45.6	17.8	0.00e+00	0	38	0	263192576	57	4879
2026-01-23 00:28:32.34	1.77	22.19	-42.6	-45.2	18.1	0.00e+00	0	37	0	265289728	57	4698
2026-01-23 00:28:33.35	1.66	22.32	-42.6	-45.2	18.1	0.00e+00	0	38	0	267386880	57	4692
2026-01-23 00:28:34.38	1.55	22.46	-42.9	-45.6	17.8	0.00e+00	0	38	0	269484032	57	4910
2026-01-23 00:28:35.38	1.44	22.59	-42.5	-45.1	18.2	0.00e+00	0	37	0	270532608	57	4641
2026-01-23 00:28:36.38	1.34	22.73	-42.5	-45.1	18.2	0.00e+00	0	37	0	272629760	57	4645
2026-01-23 00:28:37.37	1.23	22.86	-42.6	-45.2	18.2	0.00e+00	0	37	0	274726912	56	4938
2026-01-23 00:28:38.51	1.10	23.01	-42.6	-45.2	18.2	0.00e+00	0	37	0	276824064	56	4952
2026-01-23 00:28:39.36	1.00	23.12	-42.6	-45.2	18.1	0.00e+00	0	37	0	278921216	56	4967
2026-01-23 00:28:40.49	0.88	23.28	-42.7	-45.3	18.0	0.00e+00	0	37	0	281018368	56	5020
2026-01-23 00:28:41.35	0.78	23.39	-42.7	-45.3	18.1	0.00e+00	0	38	0	282066944	56	5001
2026-01-23 00:28:42.48	0.65	23.55	-43.4	-46.2	17.2	0.00e+00	0	38	0	284164096	57	5225
2026-01-23 00:28:43.33	0.55	23.66	-43.2	-45.8	17.6	0.00e+00	0	38	0	286261248	57	5038
2026-01-23 00:28:44.47	0.42	23.82	-43.2	-45.9	17.5	0.00e+00	0	38	0	288358400	57	5076
2026-01-23 00:28:45.32	0.32	23.94	-43.5	-46.3	17.1	0.00e+00	0	38	0	289406976	58	5012
2026-01-23 00:28:46.46	0.18	24.10	-43.6	-46.5	17.0	0.00e+00	0	38	0	291504128	58	5101
2026-01-23 00:28:47.31	0.08	24.21	-43.6	-46.5	17.0	0.00e+00	0	37	0	293601280	58	5117
2026-01-23 00:28:48.45	359.94	24.37	-43.7	-46.5	16.9	0.00e+00	0	37	0	295698432	58	5144
2026-01-23 00:28:49.30	359.83	24.49	-43.5	-46.3	17.1	0.00e+00	0	38	0	296747008	58	5010
2026-01-23 00:28:50.43	359.69	24.65	-43.9	-46.9	16.6	0.00e+00	0	38	0	298844160	58	5365
2026-01-23 00:28:51.29	359.59	24.77	-43.3	-46.0	17.4	0.00e+00	0	38	0	300941312	58	4847
2026-01-23 00:28:52.58	359.42	24.96	-43.2	-45.9	17.6	0.00e+00	0	38	0	303038464	58	4775
2026-01-23 00:28:53.29	359.33	25.06	-43.3	-46.0	17.3	0.00e+00	0	38	0	305135616	58	4870
2026-01-23 00:28:54.57	359.17	25.24	-42.9	-45.5	17.9	0.00e+00	0	38	0	307232768	57	4848
2026-01-23 00:28:55.28	359.08	25.34	-43.1	-45.7	17.7	0.00e+00	0	38	0	308281344	57	4968
2026-01-23 00:28:56.84	358.87	25.57	-43.2	-45.9	17.5	0.00e+00	0	38	0	311427072	57	5068
2026-01-23 00:28:57.49	358.79	25.66	-43.0	-45.6	17.8	0.00e+00	0	38	0	312475648	57	4922
2026-01-23 00:28:58.91	358.60	25.87	-43.2	-45.8	17.7	0.00e+00	0	38	0	315621376	57	4998
2026-01-23 00:28:59.62	358.50	25.98	-43.3	-45.9	17.5	0.00e+00	0	38	0	316669952	57	5083
2026-01-23 00:29:00.90	358.33	26.17	-43.6	-46.4	17.1	0.00e+00	0	38	0	318767104	58	5052
2026-01-23 00:29:01.63	358.22	26.27	-43.7	-46.5	17.1	0.00e+00	0	37	0	319815680	58	5110
2026-01-23 00:29:03.03	358.03	26.48	-43.6	-46.3	17.1	0.00e+00	0	38	0	322961408	58	5041
2026-01-23 00:29:03.74	357.93	26.59	-44.0	-47.0	16.6	0.00e+00	0	37	0	324009984	58	5404
2026-01-23 00:29:05.07	357.74	26.79	-43.7	-46.4	17.1	0.00e+00	0	38	0	327155712	58	5071
2026-01-23 00:29:05.78	357.64	26.89	-43.5	-46.2	17.3	0.00e+00	0	37	0	328204288	58	4962
2026-01-23 00:29:07.14	357.44	27.10	-43.3	-45.9	17.6	0.00e+00	0	38	0	330301440	58	4789
2026-01-23 00:29:07.85	357.34	27.21	-43.3	-45.9	17.6	0.00e+00	0	38	0	332398592	58	4779
2026-01-23 00:29:09.13	357.15	27.40	-43.4	-46.0	17.4	0.00e+00	0	38	0	334495744	57	5154
2026-01-23 00:29:09.85	357.04	27.51	-43.0	-45.5	18.0	0.00e+00	0	38	0	335544320	57	4829
2026-01-23 00:29:11.12	356.85	27.71	-43.0	-45.5	18.0	0.00e+00	0	38	0	337641472	57	4856
2026-01-23 00:29:11.86	356.74	27.82	-43.4	-46.1	17.4	0.00e+00	0	38	0	339738624	57	5189
2026-01-23 00:29:13.15	356.54	28.02	-42.9	-45.4	18.0	0.00e+00	0	38	0	341835776	57	4810
2026-01-23 00:29:13.87	356.43	28.14	-43.0	-45.5	17.9	0.00e+00	0	38	0	342884352	57	4851
2026-01-23 00:29:15.15	356.23	28.34	-43.2	-45.8	17.7	0.00e+00	0	38	0	346030080	58	4714
2026-01-23 00:29:15.90	356.11	28.45	-43.3	-45.8	17.6	0.00e+00	0	38	0	347078656	58	4752
2026-01-23 00:29:17.18	355.90	28.66	-43.7	-46.4	17.1	0.00e+00	0	38	0	349175808	58	5096
2026-01-23 00:29:17.93	355.78	28.78	-43.5	-46.1	17.4	0.00e+00	0	38	0	351272960	58	4890
2026-01-23 00:29:19.21	355.57	28.98	-43.4	-46.0	17.5	0.00e+00	0	38	0	353370112	58	4825
2026-01-23 00:29:20.06	355.43	29.11	-43.4	-46.0	17.5	0.00e+00	0	38	0	354418688	58	4852
2026-01-23 00:29:21.50	355.19	29.35	-43.4	-46.0	17.6	0.00e+00	0	38	0	357564416	58	4857
2026-01-23 00:29:22.21	355.07	29.46	-43.2	-45.8	17.6	0.00e+00	0	38	0	358612992	58	4738
2026-01-23 00:29:23.49	354.85	29.67	-43.4	-46.2	17.4	0.00e+00	0	38	0	361758720	58	4927
2026-01-23 00:29:24.20	354.73	29.78	-43.5	-46.2	17.4	0.00e+00	0	38	0	362807296	58	4953
2026-01-23 00:29:25.48	354.51	29.99	-43.7	-46.6	17.0	0.00e+00	0	38	0	364904448	58	5171
2026-01-23 00:29:26.19	354.38	30.11	-43.9	-46.8	16.7	0.00e+00	0	38	0	365953024	58	5314
2026-01-23 00:29:27.46	354.16	30.32	-44.0	-46.9	16.7	0.00e+00	0	38	0	369098752	58	5349
2026-01-23 00:29:28.27	354.01	30.45	-44.2	-47.2	16.4	0.00e+00	0	38	0	370147328	59	5236
2026-01-23 00:29:29.41	353.81	30.64	-44.4	-47.4	16.2	0.00e+00	0	38	0	372244480	59	5353
2026-01-23 00:29:30.26	353.65	30.78	-44.0	-46.8	16.8	0.00e+00	0	38	0	374341632	59	5004
2026-01-23 00:29:31.40	353.44	30.97	-44.1	-47.0	16.6	0.00e+00	0	37	0	376438784	59	5135
2026-01-23 00:29:32.25	353.28	31.11	-44.2	-47.2	16.4	0.00e+00	0	38	0	377487360	59	5245
2026-01-23 00:29:33.38	353.07	31.30	-44.1	-47.1	16.4	0.00e+00	0	38	0	379584512	60	4919
2026-01-23 00:29:34.23	352.90	31.45	-44.3	-47.4	16.3	0.00e+00	0	38	0	381681664	60	5042
2026-01-23 00:29:35.39	352.68	31.64	-44.6	-47.8	15.8	0.00e+00	0	38	0	383778816	60	5327
2026-01-23 00:29:36.24	352.51	31.79	-44.7	-48.1	15.6	0.00e+00	0	38	0	384827392	60	5471
2026-01-23 00:29:37.44	352.28	31.99	-45.1	-48.7	15.0	0.00e+00	0	38	0	386924544	60	5884
2026-01-23 00:29:38.29	352.11	32.14	-45.4	-49.1	14.6	7.00e-07	0	37	0	389021696	61	5807
2026-01-23 00:29:39.49	351.86	32.34	-45.2	-48.8	14.9	0.00e+00	0	38	0	391118848	62	5290
2026-01-23 00:29:40.35	351.69	32.49	-45.2	-48.7	15.0	0.00e+00	0	38	0	393216000	62	5232
2026-01-23 00:29:41.48	351.46	32.69	-44.7	-48.0	15.7	0.00e+00	0	38	0	395313152	61	5114
2026-01-23 00:29:42.34	351.28	32.84	-44.6	-47.8	15.8	0.00e+00	0	38	0	396361728	61	5034
2026-01-23 00:29:43.60	351.01	33.06	-45.0	-48.5	15.3	0.00e+00	0	38	0	398458880	61	5415
2026-01-23 00:29:44.81	350.75	33.27	-45.0	-48.6	15.0	0.00e+00	0	38	0	401604608	61	5510
2026-01-23 00:29:45.67	350.57	33.42	-45.2	-49.0	14.7	0.00e+00	0	38	0	402653184	61	5724
2026-01-23 00:29:46.80	350.32	33.62	-45.3	-49.1	14.5	2.20e-06	0	38	0	404750336	62	5523
2026-01-23 00:29:47.65	350.13	33.77	-45.4	-49.3	14.3	7.00e-07	0	38	0	406847488	62	5641
2026-01-23 00:29:48.79	349.88	33.97	-44.9	-48.6	15.1	0.00e+00	0	37	0	408944640	61	5481
2026-01-23 00:29:49.64	349.68	34.12	-44.9	-48.4	15.3	0.00e+00	0	38	0	409993216	61	5390
2026-01-23 00:29:50.78	349.42	34.32	-44.7	-48.1	15.6	0.00e+00	0	37	0	412090368	61	5173
2026-01-23 00:29:51.63	349.23	34.47	-44.6	-47.9	15.7	0.00e+00	0	38	0	414187520	60	5401
2026-01-23 00:29:52.77	348.96	34.68	-44.7	-48.0	15.6	0.00e+00	0	38	0	416284672	60	5434
2026-01-23 00:29:53.62	348.76	34.83	-44.7	-47.9	15.8	0.00e+00	0	38	0	417333248	60	5377
2026-01-23 00:29:54.76	348.49	35.04	-44.6	-47.9	15.7	0.00e+00	0	38	0	419430400	60	5351
2026-01-23 00:29:55.61	348.28	35.19	-44.7	-48.0	15.7	0.00e+00	0	38	0	421527552	60	5403
2026-01-23 00:29:56.75	348.01	35.40	-44.5	-47.6	16.0	0.00e+00	0	38	0	423624704	60	5191
2026-01-23 00:29:57.60	347.80	35.55	-44.5	-47.6	16.1	0.00e+00	0	37	0	424673280	60	5177
2026-01-23 00:29:58.74	347.51	35.76	-44.4	-47.4	16.2	0.00e+00	0	38	0	427819008	60	5096
2026-01-23 00:29:59.80	347.24	35.95	-44.7	-47.9	15.8	0.00e+00	0	38	0	428867584	60	5350
2026-01-23 00:30:00.84	346.98	36.14	-44.6	-47.7	16.0	0.00e+00	0	38	0	430964736	60	5240
2026-01-23 00:30:01.79	346.73	36.31	-44.6	-47.7	15.9	0.00e+00	0	38	0	433061888	60	5268
2026-01-23 00:30:02.78	346.47	36.49	-44.7	-47.9	15.8	0.00e+00	0	38	0	435159040	60	5379
2026-01-23 00:30:03.78	346.21	36.68	-44.7	-48.1	15.6	0.00e+00	0	38	0	437256192	60	5524
2026-01-23 00:30:04.77	345.94	36.86	-44.5	-47.9	15.8	0.00e+00	0	38	0	438304768	60	5353
2026-01-23 00:30:05.77	345.67	37.04	-44.2	-47.4	16.3	0.00e+00	0	38	0	440401920	60	5045
2026-01-23 00:30:06.76	345.40	37.23	-44.4	-47.8	15.9	0.00e+00	0	38	0	442499072	60	5315
2026-01-23 00:30:07.76	345.12	37.41	-44.5	-47.9	15.7	0.00e+00	0	38	0	444596224	60	5379
2026-01-23 00:30:08.75	344.85	37.59	-44.8	-48.3	15.4	0.00e+00	0	38	0	445644800	60	5635
2026-01-23 00:30:09.74	344.57	37.78	-44.8	-48.3	15.4	0.00e+00	0	38	0	447741952	60	5602
2026-01-23 00:30:10.74	344.28	37.96	-44.7	-48.0	15.8	0.00e+00	0	38	0	449839104	60	5408
2026-01-23 00:30:11.74	343.99	38.15	-44.5	-47.5	16.1	0.00e+00	0	38	0	451936256	60	5156
2026-01-23 00:30:12.73	343.70	38.33	-44.4	-47.3	16.4	0.00e+00	0	38	0	454033408	60	5031
2026-01-23 00:30:13.98	343.33	38.56	-44.1	-46.9	16.7	0.00e+00	0	38	0	456130560	59	5087
2026-01-23 00:30:14.84	343.07	38.72	-44.6	-47.6	16.1	0.00e+00	0	38	0	457179136	60	5182
2026-01-23 00:30:15.98	342.72	38.94	-45.1	-48.4	15.4	0.00e+00	0	38	0	459276288	60	5685
2026-01-23 00:30:16.83	342.46	39.10	-44.9	-48.0	15.7	0.00e+00	0	38	0	461373440	61	5154
2026-01-23 00:30:17.97	342.11	39.31	-44.9	-48.1	15.7	0.00e+00	0	38	0	463470592	61	5179
2026-01-23 00:30:18.82	341.84	39.47	-44.4	-47.3	16.3	0.00e+00	0	38	0	464519168	60	5027
2026-01-23 00:30:19.96	341.48	39.68	-43.7	-46.4	17.2	0.00e+00	0	38	0	466616320	59	4782
2026-01-23 00:30:20.81	341.20	39.84	-43.5	-46.2	17.4	0.00e+00	0	38	0	468713472	59	4655
2026-01-23 00:30:21.95	340.83	40.05	-43.5	-46.2	17.5	0.00e+00	0	38	0	470810624	58	4933
2026-01-23 00:30:22.81	340.55	40.21	-43.5	-46.2	17.4	0.00e+00	0	38	0	472907776	58	4969
2026-01-23 00:30:23.94	340.17	40.42	-43.6	-46.4	17.2	0.00e+00	0	38	0	475004928	58	5066
2026-01-23 00:30:24.80	339.88	40.58	-43.4	-46.1	17.4	0.00e+00	0	38	0	476053504	58	4894
2026-01-23 00:30:25.94	339.49	40.79	-43.9	-46.8	16.9	0.00e+00	0	38	0	478150656	58	5304
2026-01-23 00:30:26.79	339.20	40.95	-44.2	-47.2	16.5	0.00e+00	0	38	0	480247808	59	5234
2026-01-23 00:30:27.93	338.80	41.16	-44.9	-48.2	15.5	0.00e+00	0	38	0	482344960	60	5554
2026-01-23 00:30:28.78	338.50	41.32	-45.1	-48.6	15.0	0.00e+00	0	38	0	483393536	61	5479
2026-01-23 00:30:30.13	338.01	41.57	-45.2	-48.7	15.0	7.00e-07	0	38	0	486539264	61	5565
2026-01-23 00:30:30.84	337.76	41.70	-44.9	-48.3	15.4	0.00e+00	0	38	0	487587840	61	5302
2026-01-23 00:30:32.12	337.29	41.93	-44.6	-47.8	15.9	0.00e+00	0	38	0	489684992	61	5016
2026-01-23 00:30:32.86	337.01	42.07	-44.4	-47.5	16.3	0.00e+00	0	38	0	491782144	60	5113
2026-01-23 00:30:34.14	336.53	42.30	-43.9	-46.8	16.9	0.00e+00	0	37	0	493879296	59	5010
2026-01-23 00:30:34.87	336.26	42.44	-43.9	-46.7	16.9	0.00e+00	0	38	0	494927872	59	4974
2026-01-23 00:30:36.14	335.77	42.67	-44.4	-47.5	16.1	0.00e+00	0	38	0	497025024	59	5433
2026-01-23 00:30:36.90	335.48	42.81	-44.6	-47.9	16.0	0.00e+00	0	38	0	499122176	60	5362
2026-01-23 00:30:38.18	334.97	43.04	-45.1	-48.8	15.0	0.00e+00	0	38	0	501219328	60	5970
2026-01-23 00:30:38.92	334.68	43.17	-45.5	-49.4	14.3	0.00e+00	0	38	0	502267904	61	6038
2026-01-23 00:30:40.20	334.16	43.40	-45.6	-49.6	14.1	2.20e-06	0	38	0	505413632	62	5829
2026-01-23 00:30:41.02	333.83	43.55	-45.9	-50.1	13.6	5.30e-06	0	38	0	506462208	62	6152
2026-01-23 00:30:42.16	333.36	43.75	-45.9	-49.9	13.7	2.20e-06	0	38	0	508559360	62	6051
2026-01-23 00:30:43.01	333.01	43.90	-46.0	-50.1	13.8	3.00e-06	0	38	0	510656512	63	5805
2026-01-23 00:30:44.15	332.53	44.10	-46.1	-50.0	13.8	6.10e-06	0	38	0	512753664	63	5785
2026-01-23 00:30:45.00	332.17	44.25	-46.3	-50.5	13.3	2.13e-05	0	38	0	513802240	63	6063
2026-01-23 00:30:46.14	331.68	44.45	-45.6	-49.3	14.3	5.30e-06	0	38	0	515899392	63	5337
2026-01-23 00:30:47.31	331.17	44.65	-45.2	-48.8	14.9	0.00e+00	0	38	0	517996544	62	5322
2026-01-23 00:30:48.34	330.72	44.83	-45.1	-48.7	14.9	0.00e+00	0	38	0	520093696	61	5583
2026-01-23 00:30:49.33	330.28	45.00	-45.3	-49.2	14.5	0.00e+00	0	38	0	522190848	61	5877
2026-01-23 00:30:50.33	329.83	45.17	-45.0	-48.7	15.0	7.00e-07	0	38	0	524288000	61	5555
2026-01-23 00:30:51.57	329.26	45.37	-44.2	-47.4	16.3	0.00e+00	0	38	0	526385152	60	5043
2026-01-23 00:30:52.43	328.87	45.52	-43.5	-46.3	17.2	0.00e+00	0	38	0	528482304	59	4710
2026-01-23 00:30:53.57	328.34	45.71	-43.1	-45.6	18.0	0.00e+00	0	38	0	530579456	58	4610
2026-01-23 00:30:54.42	327.94	45.84	-43.1	-45.6	18.0	0.00e+00	0	38	0	531628032	57	4879
2026-01-23 00:30:55.56	327.39	46.03	-43.3	-45.9	17.7	0.00e+00	0	38	0	533725184	57	5059
2026-01-23 00:30:56.41	326.99	46.17	-43.5	-46.2	17.4	0.00e+00	0	38	0	535822336	57	5254
2026-01-23 00:30:57.54	326.44	46.35	-44.5	-47.6	16.1	0.00e+00	0	38	0	537919488	59	5491
2026-01-23 00:30:58.40	326.02	46.48	-44.4	-47.4	16.2	0.00e+00	0	38	0	538968064	59	5381
2026-01-23 00:30:59.53	325.46	46.66	-43.7	-46.4	17.2	0.00e+00	0	38	0	541065216	59	4787
2026-01-23 00:31:00.39	325.03	46.79	-42.6	-45.0	18.4	0.00e+00	0	38	0	543162368	57	4582
2026-01-23 00:31:01.53	324.45	46.96	-41.9	-44.2	19.1	0.00e+00	0	38	0	545259520	55	4660
2026-01-23 00:31:02.38	324.02	47.09	-41.8	-44.0	19.3	0.00e+00	0	38	0	546308096	55	4578
2026-01-23 00:31:03.61	323.39	47.27	-42.9	-45.4	18.1	0.00e+00	0	38	0	548405248	56	5086
2026-01-23 00:31:04.46	322.94	47.40	-43.6	-46.3	17.3	0.00e+00	0	38	0	550502400	57	5314
2026-01-23 00:31:05.60	322.35	47.56	-44.0	-47.0	16.6	0.00e+00	0	38	0	552599552	59	5115
2026-01-23 00:31:06.45	321.90	47.68	-44.3	-47.3	16.4	0.00e+00	0	38	0	554696704	59	5310
2026-01-23 00:31:07.59	321.29	47.84	-44.2	-47.2	16.4	0.00e+00	0	37	0	556793856	59	5243
2026-01-23 00:31:08.44	320.83	47.95	-44.0	-46.8	16.8	0.00e+00	0	38	0	557842432	59	5022
2026-01-23 00:31:09.58	320.21	48.11	-43.9	-46.7	17.0	0.00e+00	0	38	0	559939584	59	4960
2026-01-23 00:31:10.43	319.74	48.22	-44.6	-47.8	15.9	0.00e+00	0	38	0	562036736	59	5620
2026-01-23 00:31:11.57	319.11	48.37	-45.3	-49.0	14.9	0.00e+00	0	38	0	564133888	61	5760
2026-01-23 00:31:12.42	318.64	48.48	-45.1	-48.7	14.9	1.50e-06	0	38	0	565182464	62	5245
2026-01-23 00:31:13.56	318.00	48.62	-44.0	-46.9	16.7	0.00e+00	0	38	0	567279616	59	5043
2026-01-23 00:31:14.41	317.51	48.72	-43.9	-46.7	17.0	0.00e+00	0	38	0	569376768	59	4965
2026-01-23 00:31:15.55	316.86	48.86	-43.7	-46.4	17.2	0.00e+00	0	38	0	571473920	58	5080
2026-01-23 00:31:16.40	316.37	48.96	-43.5	-46.1	17.5	0.00e+00	0	38	0	572522496	58	4894
2026-01-23 00:31:17.54	315.71	49.09	-43.3	-45.8	17.9	0.00e+00	0	38	0	574619648	58	4717
2026-01-23 00:31:18.39	315.21	49.18	-43.4	-45.9	17.7	0.00e+00	0	38	0	576716800	58	4806
2026-01-23 00:31:19.53	314.54	49.31	-44.6	-47.6	16.3	0.00e+00	0	38	0	578813952	60	5177
2026-01-23 00:31:20.38	314.04	49.39	-45.6	-49.1	14.7	0.00e+00	0	38	0	580911104	61	5839
2026-01-23 00:31:21.63	313.29	49.52	-46.4	-50.7	13.0	7.40e-05	0	38	0	583008256	64	5865
2026-01-23 00:31:22.48	312.78	49.61	-46.5	-50.9	12.9	1.03e-04	0	38	0	584056832	64	6020
2026-01-23 00:31:23.62	312.09	49.71	-46.0	-50.0	13.7	2.13e-05	0	38	0	586153984	64	5405
2026-01-23 00:31:24.47	311.57	49.79	-45.3	-48.8	15.0	0.00e+00	0	38	0	588251136	62	5280
2026-01-23 00:31:25.61	310.87	49.89	-44.9	-48.1	15.7	0.00e+00	0	38	0	590348288	61	5184
2026-01-23 00:31:26.46	310.35	49.97	-44.6	-47.6	16.2	0.00e+00	0	38	0	591396864	60	5192
2026-01-23 00:31:27.60	309.65	50.06	-43.6	-46.3	17.3	0.00e+00	0	38	0	593494016	59	4731
2026-01-23 00:31:28.45	309.12	50.13	-43.6	-46.2	17.5	0.00e+00	0	38	0	595591168	58	4968
2026-01-23 00:31:29.58	308.41	50.21	-44.1	-47.0	16.7	0.00e+00	0	38	0	597688320	58	5404
2026-01-23 00:31:30.44	307.87	50.27	-44.8	-48.0	15.9	0.00e+00	0	38	0	599785472	60	5436
2026-01-23 00:31:31.57	307.15	50.35	-45.7	-49.5	14.2	0.00e+00	0	38	0	601882624	62	5731
2026-01-23 00:31:32.43	306.61	50.41	-45.4	-48.8	15.0	1.50e-06	0	38	0	602931200	62	5335
2026-01-23 00:31:33.56	305.89	50.48	-44.5	-47.6	16.1	0.00e+00	0	38	0	605028352	61	4899
2026-01-23 00:31:34.42	305.34	50.52	-44.0	-47.0	16.7	0.00e+00	0	38	0	607125504	60	4834
2026-01-23 00:31:35.55	304.61	50.59	-43.7	-46.4	17.1	0.00e+00	0	38	0	609222656	59	4805
2026-01-23 00:31:36.40	304.06	50.63	-43.6	-46.3	17.4	0.00e+00	0	38	0	610271232	59	4709
2026-01-23 00:31:37.60	303.29	50.68	-43.0	-45.5	18.1	0.00e+00	0	38	0	612368384	58	4592
2026-01-23 00:31:38.46	302.73	50.72	-42.7	-45.1	18.5	0.00e+00	0	38	0	614465536	57	4608
2026-01-23 00:31:39.59	301.99	50.76	-41.7	-44.0	19.3	0.00e+00	0	38	0	616562688	55	4554
2026-01-23 00:31:40.44	301.44	50.79	-41.8	-44.1	19.2	0.00e+00	0	38	0	617611264	55	4623
2026-01-23 00:31:41.58	300.70	50.83	-42.0	-44.3	19.0	0.00e+00	0	38	0	619708416	55	4723
2026-01-23 00:31:42.43	300.14	50.85	-42.5	-44.9	18.5	0.00e+00	0	38	0	621805568	55	5059
2026-01-23 00:31:43.57	299.39	50.87	-41.8	-44.0	19.2	0.00e+00	0	38	0	623902720	55	4554
2026-01-23 00:31:44.42	298.83	50.89	-41.0	-43.1	20.1	0.00e+00	0	38	0	624951296	54	4353
2026-01-23 00:31:45.56	298.08	50.91	-40.8	-42.9	20.3	0.00e+00	0	38	0	628097024	52	4783
2026-01-23 00:31:46.41	297.53	50.92	-41.5	-43.8	19.5	0.00e+00	0	38	0	629145600	53	4984
2026-01-23 00:31:47.55	296.78	50.92	-42.0	-44.3	19.0	0.00e+00	0	38	0	631242752	55	4725
2026-01-23 00:31:48.40	296.22	50.93	-41.5	-43.7	19.6	0.00e+00	0	38	0	633339904	55	4428
2026-01-23 00:31:49.54	295.46	50.92	-41.5	-43.6	19.6	0.00e+00	0	38	0	635437056	54	4650
2026-01-23 00:31:50.39	294.90	50.92	-41.9	-44.2	19.1	0.00e+00	0	38	0	636485632	54	4942
2026-01-23 00:31:51.53	294.15	50.91	-42.7	-45.2	18.5	0.00e+00	0	38	0	638582784	56	4936
2026-01-23 00:31:52.38	293.60	50.90	-42.5	-44.9	18.7	0.00e+00	0	38	0	640679936	56	4788
2026-01-23 00:31:53.52	292.85	50.88	-42.2	-44.5	19.0	0.00e+00	0	38	0	642777088	56	4586
2026-01-23 00:31:54.37	292.29	50.86	-42.2	-44.5	19.0	0.00e+00	0	38	0	643825664	56	4583
2026-01-23 00:31:55.62	291.47	50.83	-42.6	-45.0	18.5	0.00e+00	0	37	0	645922816	56	4846
2026-01-23 00:31:56.47	290.91	50.81	-43.0	-45.5	18.2	0.00e+00	0	38	0	648019968	56	5106
2026-01-23 00:31:57.61	290.17	50.77	-42.6	-44.9	18.7	0.00e+00	0	38	0	650117120	56	4802
2026-01-23 00:31:58.46	289.62	50.74	-42.2	-44.5	19.0	0.00e+00	0	38	0	652214272	56	4580
2026-01-23 00:31:59.60	288.88	50.69	-41.9	-44.2	19.1	0.00e+00	0	38	0	654311424	55	4703
2026-01-23 00:32:00.45	288.33	50.65	-42.2	-44.6	18.8	0.00e+00	0	38	0	655360000	55	4903
2026-01-23 00:32:01.59	287.59	50.60	-42.6	-45.0	18.3	0.00e+00	0	38	0	657457152	55	5141
2026-01-23 00:32:02.44	287.04	50.55	-42.3	-44.6	18.9	0.00e+00	0	38	0	659554304	56	4643
2026-01-23 00:32:03.58	286.31	50.49	-42.4	-44.8	18.7	0.00e+00	0	38	0	661651456	56	4716
2026-01-23 00:32:04.43	285.77	50.44	-42.2	-44.5	19.1	0.00e+00	0	38	0	662700032	56	4580
2026-01-23 00:32:05.57	285.04	50.37	-42.7	-45.1	18.3	0.00e+00	0	38	0	664797184	55	5180
2026-01-23 00:32:06.42	284.50	50.31	-42.9	-45.4	18.2	0.00e+00	0	38	0	666894336	56	5051
2026-01-23 00:32:07.56	283.79	50.23	-43.0	-45.5	18.2	0.00e+00	0	38	0	668991488	57	4824
2026-01-23 00:32:08.41	283.25	50.17	-42.8	-45.2	18.3	0.00e+00	0	38	0	670040064	57	4678
2026-01-23 00:32:09.55	282.54	50.08	-42.4	-44.7	18.9	0.00e+00	0	38	0	672137216	56	4684
2026-01-23 00:32:10.40	282.01	50.01	-42.5	-44.9	18.6	0.00e+00	0	38	0	674234368	56	4802
2026-01-23 00:32:11.54	281.31	49.91	-42.5	-44.9	18.7	0.00e+00	0	38	0	676331520	56	4771
2026-01-23 00:32:12.39	280.78	49.84	-43.0	-45.6	18.0	0.00e+00	0	38	0	678428672	56	5202
2026-01-23 00:32:13.60	280.05	49.73	-43.4	-46.2	17.6	0.00e+00	0	38	0	680525824	58	4931
2026-01-23 00:32:14.46	279.52	49.65	-43.5	-46.2	17.5	0.00e+00	0	38	0	681574400	58	4932
2026-01-23 00:32:15.59	278.84	49.54	-43.6	-46.3	17.3	0.00e+00	0	38	0	683671552	58	5026
2026-01-23 00:32:16.45	278.33	49.45	-43.6	-46.2	17.4	0.00e+00	0	38	0	685768704	58	4964
2026-01-23 00:32:17.58	277.65	49.33	-43.7	-46.4	17.3	0.00e+00	0	38	0	687865856	58	5045
2026-01-23 00:32:18.43	277.15	49.24	-43.1	-45.6	18.0	0.00e+00	0	38	0	688914432	58	4646
2026-01-23 00:32:19.57	276.48	49.12	-42.5	-44.8	18.8	0.00e+00	0	38	0	691011584	56	4728
2026-01-23 00:32:20.43	275.98	49.02	-42.9	-45.4	18.1	0.00e+00	0	38	0	693108736	56	5085
2026-01-23 00:32:21.56	275.33	48.89	-43.8	-46.5	17.2	0.00e+00	0	38	0	695205888	58	5134
2026-01-23 00:32:22.42	274.83	48.79	-44.7	-47.8	15.9	0.00e+00	0	38	0	696254464	60	5327
2026-01-23 00:32:23.55	274.19	48.65	-44.6	-47.6	16.3	0.00e+00	0	38	0	698351616	60	5200
2026-01-23 00:32:24.40	273.71	48.54	-43.9	-46.6	17.0	0.00e+00	0	38	0	700448768	59	4917
2026-01-23 00:32:25.54	273.07	48.40	-43.4	-45.9	17.8	0.00e+00	0	38	0	702545920	58	4805
2026-01-23 00:32:26.39	272.60	48.29	-44.0	-46.7	17.0	0.00e+00	0	38	0	704643072	58	5231
2026-01-23 00:32:27.53	271.97	48.14	-44.7	-47.8	16.0	0.00e+00	0	38	0	706740224	60	5337
2026-01-23 00:32:28.38	271.50	48.03	-45.2	-48.6	15.2	0.00e+00	0	38	0	707788800	61	5499
2026-01-23 00:32:29.52	270.88	47.87	-44.3	-47.3	16.4	0.00e+00	0	38	0	709885952	60	5000
2026-01-23 00:32:30.37	270.43	47.75	-43.8	-46.6	17.1	0.00e+00	0	38	0	711983104	59	4879
2026-01-23 00:32:31.50	269.83	47.59	-43.6	-46.3	17.3	0.00e+00	0	38	0	714080256	59	4748
2026-01-23 00:32:32.36	269.37	47.47	-43.8	-46.6	17.0	0.00e+00	0	38	0	715128832	59	4877
2026-01-23 00:32:33.60	268.72	47.29	-43.8	-46.5	17.1	0.00e+00	0	38	0	717225984	59	4854
2026-01-23 00:32:34.45	268.28	47.16	-44.0	-46.8	16.8	0.00e+00	0	38	0	719323136	59	5030
2026-01-23 00:32:35.65	267.67	46.98	-44.3	-47.4	16.4	0.00e+00	0	38	0	721420288	59	5341
2026-01-23 00:32:36.51	267.23	46.85	-44.5	-47.6	16.0	0.00e+00	0	38	0	723517440	59	5499
2026-01-23 00:32:37.65	266.66	46.68	-44.5	-47.7	16.2	0.00e+00	0	38	0	725614592	60	5222
2026-01-23 00:32:38.50	266.24	46.55	-44.6	-47.8	16.0	0.00e+00	0	38	0	726663168	60	5289
2026-01-23 00:32:39.63	265.68	46.37	-44.0	-46.8	16.9	0.00e+00	0	38	0	728760320	59	4991
2026-01-23 00:32:40.49	265.26	46.23	-43.2	-45.7	17.9	0.00e+00	0	38	0	730857472	58	4683
2026-01-23 00:32:41.62	264.72	46.05	-43.5	-46.0	17.7	0.00e+00	0	38	0	732954624	58	4860
2026-01-23 00:32:42.62	264.24	45.89	-43.6	-46.3	17.4	0.00e+00	0	38	0	735051776	58	5034
2026-01-23 00:32:43.79	263.69	45.70	-43.4	-46.0	17.6	0.00e+00	0	38	0	737148928	58	4868
2026-01-23 00:32:44.64	263.29	45.56	-43.6	-46.3	17.4	0.00e+00	0	38	0	738197504	58	5018
2026-01-23 00:32:45.77	262.77	45.37	-44.0	-46.9	16.7	0.00e+00	0	38	0	740294656	58	5370
2026-01-23 00:32:46.62	262.38	45.23	-44.7	-48.0	15.8	0.00e+00	0	38	0	742391808	60	5406
2026-01-23 00:32:47.76	261.86	45.03	-45.0	-48.2	15.5	0.00e+00	0	38	0	744488960	61	5278
2026-01-23 00:32:48.61	261.48	44.89	-44.9	-48.0	15.7	0.00e+00	0	38	0	745537536	61	5143
2026-01-23 00:32:49.75	260.98	44.69	-43.8	-46.5	17.1	0.00e+00	0	38	0	747634688	59	4865
2026-01-23 00:32:50.60	260.60	44.54	-44.1	-46.9	16.7	0.00e+00	0	38	0	749731840	59	5072
2026-01-23 00:32:51.74	260.11	44.35	-44.5	-47.5	16.2	0.00e+00	0	38	0	751828992	59	5460
2026-01-23 00:32:52.69	259.70	44.18	-45.3	-48.8	15.0	0.00e+00	0	38	0	753926144	61	5612
2026-01-23 00:32:53.68	259.28	44.01	-44.8	-48.0	15.8	0.00e+00	0	38	0	754974720	61	5134
2026-01-23 00:32:54.93	258.76	43.78	-43.7	-46.3	17.4	0.00e+00	0	38	0	758120448	59	4736
2026-01-23 00:32:55.78	258.41	43.63	-43.0	-45.4	18.2	0.00e+00	0	38	0	759169024	58	4503
2026-01-23 00:32:56.92	257.94	43.43	-42.9	-45.4	18.3	0.00e+00	0	38	0	761266176	57	4770
2026-01-23 00:32:57.77	257.59	43.28	-42.7	-45.1	18.5	0.00e+00	0	38	0	763363328	57	4611
2026-01-23 00:32:58.90	257.14	43.07	-42.7	-45.2	18.4	0.00e+00	0	38	0	765460480	57	4664
2026-01-23 00:32:59.76	256.80	42.92	-42.4	-44.7	18.8	0.00e+00	0	38	0	766509056	56	4690
2026-01-23 00:33:00.89	256.36	42.71	-41.7	-43.9	19.3	0.00e+00	0	38	0	768606208	55	4517
2026-01-23 00:33:01.74	256.03	42.56	-41.9	-44.2	19.2	0.00e+00	0	38	0	770703360	55	4655
2026-01-23 00:33:02.88	255.59	42.35	-42.4	-44.8	18.6	0.00e+00	0	38	0	772800512	55	4992
2026-01-23 00:33:03.73	255.27	42.19	-42.5	-44.9	18.4	0.00e+00	0	38	0	773849088	55	5075
2026-01-23 00:33:04.87	254.85	41.98	-42.6	-45.0	18.5	0.00e+00	0	38	0	775946240	56	4857
2026-01-23 00:33:05.72	254.53	41.83	-42.6	-45.0	18.5	0.00e+00	0	38	0	778043392	56	4838
2026-01-23 00:33:07.05	254.05	41.58	-43.0	-45.4	18.2	0.00e+00	0	38	0	780140544	56	5100
2026-01-23 00:33:07.76	253.79	41.45	-43.3	-45.8	17.8	0.00e+00	0	38	0	781189120	57	5017
2026-01-23 00:33:09.04	253.33	41.21	-44.5	-47.4	16.2	0.00e+00	0	38	0	784334848	59	5356
2026-01-23 00:33:09.78	253.07	41.07	-44.9	-48.0	15.8	0.00e+00	0	38	0	785383424	60	5449
2026-01-23 00:33:11.06	252.63	40.84	-45.6	-49.1	14.7	0.00e+00	0	38	0	787480576	61	5841
2026-01-23 00:33:11.77	252.38	40.70	-45.7	-49.3	14.6	0.00e+00	0	38	0	789577728	62	5615
2026-01-23 00:33:13.04	251.95	40.47	-45.4	-48.9	14.9	2.20e-06	0	38	0	791674880	62	5385
2026-01-23 00:33:13.79	251.70	40.33	-45.0	-48.2	15.6	7.00e-07	0	38	0	792723456	62	4948
2026-01-23 00:33:15.07	251.27	40.09	-44.4	-47.3	16.4	0.00e+00	0	38	0	795869184	60	5025
2026-01-23 00:33:15.78	251.04	39.95	-44.2	-47.0	16.7	0.00e+00	0	38	0	796917760	60	4862
2026-01-23 00:33:17.05	250.62	39.72	-44.0	-46.7	16.9	0.00e+00	0	38	0	799014912	59	4970
2026-01-23 00:33:17.78	250.39	39.58	-43.9	-46.5	17.1	0.00e+00	0	38	0	800063488	59	4859
2026-01-23 00:33:19.06	249.98	39.34	-43.9	-46.6	17.1	0.00e+00	0	38	0	803209216	59	4905
2026-01-23 00:33:19.78	249.76	39.21	-44.4	-47.4	16.3	0.00e+00	0	38	0	804257792	59	5357
2026-01-23 00:33:21.06	249.36	38.97	-44.7	-47.8	15.9	0.00e+00	0	38	0	806354944	60	5340
2026-01-23 00:33:21.79	249.13	38.83	-44.9	-48.1	15.7	0.00e+00	0	38	0	808452096	60	5466
2026-01-23 00:33:23.07	248.75	38.59	-44.9	-48.1	15.7	0.00e+00	0	38	0	810549248	60	5495
2026-01-23 00:33:23.79	248.53	38.46	-44.5	-47.5	16.3	0.00e+00	0	38	0	811597824	60	5101
2026-01-23 00:33:25.15	248.13	38.20	-44.1	-46.9	16.9	0.00e+00	0	38	0	814743552	59	5069
2026-01-23 00:33:25.86	247.92	38.07	-43.9	-46.7	16.9	0.00e+00	0	38	0	815792128	59	4951
2026-01-23 00:33:27.23	247.52	37.82	-44.0	-46.7	16.9	0.00e+00	0	38	0	817889280	59	4983
2026-01-23 00:33:27.94	247.32	37.68	-44.4	-47.4	16.2	0.00e+00	0	38	0	819986432	59	5370
2026-01-23 00:33:29.27	246.94	37.44	-45.5	-49.0	14.7	0.00e+00	0	38	0	822083584	61	5745
2026-01-23 00:33:30.26	246.67	37.25	-45.8	-49.6	14.3	0.00e+00	0	38	0	824180736	62	5809
2026-01-23 00:33:31.26	246.39	37.07	-45.7	-49.3	14.5	7.00e-07	0	38	0	826277888	62	5637
2026-01-23 00:33:32.25	246.12	36.88	-45.5	-49.0	14.7	0.00e+00	0	38	0	827326464	62	5408
2026-01-23 00:33:33.25	245.85	36.70	-46.0	-49.7	14.1	0.00e+00	0	38	0	829423616	62	5881
2026-01-23 00:33:34.24	245.59	36.52	-46.6	-50.9	12.8	2.36e-05	0	38	0	831520768	63	6405
2026-01-23 00:33:35.24	245.32	36.33	-47.6	-53.1	10.5	1.38e-03	0	38	0	833617920	65	7366
2026-01-23 00:33:36.23	245.07	36.15	-47.3	-52.6	10.8	1.02e-02	0	38	0	834666496	66	6554
2026-01-23 00:33:37.23	244.81	35.97	-46.1	-50.1	13.5	1.53e-04	0	38	0	836763648	64	5521
2026-01-23 00:33:38.22	244.56	35.79	-45.5	-48.9	14.8	2.20e-06	0	37	0	838860800	62	5388
2026-01-23 00:33:39.22	244.30	35.60	-44.9	-48.1	15.6	0.00e+00	0	38	0	840957952	61	5177
2026-01-23 00:33:40.21	244.06	35.42	-44.5	-47.6	16.1	0.00e+00	0	38	0	843055104	61	4878
2026-01-23 00:33:41.27	243.80	35.23	-44.1	-47.0	16.7	0.00e+00	0	38	0	844103680	60	4819
2026-01-23 00:33:42.17	243.58	35.07	-44.1	-46.9	16.8	0.00e+00	0	38	0	846200832	60	4793
2026-01-23 00:33:43.20	243.33	34.88	-44.0	-46.8	17.0	0.00e+00	0	38	0	848297984	59	4990
2026-01-23 00:33:44.37	243.05	34.67	-44.1	-46.9	16.7	0.00e+00	0	38	0	850395136	59	5070
2026-01-23 00:33:45.22	242.85	34.52	-44.1	-46.8	16.8	0.00e+00	0	38	0	851443712	59	5016
2026-01-23 00:33:46.61	242.53	34.27	-43.8	-46.4	17.2	0.00e+00	0	38	0	854589440	59	4814
2026-01-23 00:33:47.32	242.37	34.14	-43.9	-46.6	17.0	0.00e+00	0	37	0	855638016	59	4888
2026-01-23 00:33:48.84	242.02	33.87	-43.9	-46.6	17.1	0.00e+00	0	38	0	858783744	59	4895
2026-01-23 00:33:49.55	241.86	33.75	-44.0	-46.7	16.9	0.00e+00	0	38	0	859832320	59	4975
2026-01-23 00:33:50.83	241.58	33.52	-44.9	-48.0	15.8	0.00e+00	0	38	0	862978048	60	5409
2026-01-23 00:33:51.57	241.42	33.39	-45.4	-48.7	15.4	0.00e+00	0	38	0	864026624	61	5574
2026-01-23 00:33:52.85	241.14	33.16	-45.6	-49.0	14.8	7.00e-07	0	38	0	866123776	62	5452
2026-01-23 00:33:53.57	240.98	33.04	-45.4	-48.7	15.0	7.00e-07	0	38	0	867172352	62	5235
2026-01-23 00:33:54.85	240.71	32.81	-45.1	-48.3	15.5	0.00e+00	0	38	0	870318080	62	4998
2026-01-23 00:33:55.58	240.56	32.69	-45.1	-48.2	15.5	0.00e+00	0	38	0	871366656	61	5275
2026-01-23 00:33:56.86	240.29	32.46	-45.0	-48.2	15.4	0.00e+00	0	38	0	873463808	61	5259
2026-01-23 00:33:57.60	240.14	32.34	-44.7	-47.7	16.0	0.00e+00	0	38	0	875560960	61	4968
2026-01-23 00:33:59.18	239.82	32.06	-44.6	-47.5	16.1	0.00e+00	0	38	0	877658112	61	4868
2026-01-23 00:33:59.82	239.69	31.95	-44.2	-47.0	16.6	0.00e+00	0	38	0	879755264	60	4839
2026-01-23 00:34:01.37	239.38	31.69	-44.2	-46.9	16.7	0.00e+00	0	38	0	881852416	59	5096
2026-01-23 00:34:02.08	239.25	31.57	-44.2	-47.0	16.7	0.00e+00	0	38	0	883949568	59	5112
2026-01-23 00:34:03.36	239.00	31.35	-44.7	-47.8	15.9	0.00e+00	0	38	0	886046720	60	5303
2026-01-23 00:34:04.08	238.86	31.23	-45.4	-48.8	14.9	0.00e+00	0	38	0	887095296	61	5633
2026-01-23 00:34:05.36	238.62	31.01	-46.4	-50.6	13.1	8.30e-06	0	37	0	889192448	63	6178
2026-01-23 00:34:06.07	238.48	30.89	-46.7	-51.1	12.5	4.11e-05	0	38	0	891289600	64	6199
2026-01-23 00:34:07.35	238.25	30.68	-46.6	-51.0	12.8	1.06e-04	0	38	0	893386752	64	6085
2026-01-23 00:34:08.09	238.11	30.55	-45.5	-49.0	14.6	3.81e-05	0	38	0	894435328	63	5140
2026-01-23 00:34:09.43	237.87	30.33	-45.1	-48.3	15.4	0.00e+00	0	38	0	897581056	62	5018
2026-01-23 00:34:10.14	237.74	30.21	-44.2	-47.1	16.4	0.00e+00	0	38	0	898629632	60	4921
2026-01-23 00:34:11.43	237.51	30.00	-43.6	-46.3	17.3	0.00e+00	0	38	0	900726784	59	4708
2026-01-23 00:34:12.15	237.38	29.88	-43.5	-46.1	17.5	0.00e+00	0	38	0	902823936	59	4629
2026-01-23 00:34:13.43	237.16	29.67	-43.5	-46.1	17.5	0.00e+00	0	38	0	904921088	58	4895
2026-01-23 00:34:14.14	237.04	29.56	-43.2	-45.7	17.8	0.00e+00	0	38	0	905969664	58	4699
2026-01-23 00:34:15.42	236.82	29.35	-43.5	-46.2	17.4	0.00e+00	0	37	0	908066816	58	4963
2026-01-23 00:34:16.14	236.70	29.23	-44.2	-47.2	16.4	0.00e+00	0	38	0	910163968	59	5221
2026-01-23 00:34:17.42	236.48	29.03	-44.8	-48.1	15.6	0.00e+00	0	38	0	912261120	60	5495
2026-01-23 00:34:18.15	236.36	28.91	-45.4	-49.1	14.7	0.00e+00	0	38	0	913309696	61	5795
2026-01-23 00:34:19.43	236.15	28.71	-45.7	-49.5	14.3	0.00e+00	0	38	0	916455424	61	6062
2026-01-23 00:34:20.14	236.04	28.59	-45.3	-48.8	14.9	0.00e+00	0	38	0	917504000	61	5643
2026-01-23 00:34:21.42	235.83	28.39	-44.7	-47.8	15.9	0.00e+00	0	38	0	919601152	61	5038
2026-01-23 00:34:22.15	235.71	28.28	-44.4	-47.4	16.3	0.00e+00	0	38	0	921698304	60	5054
2026-01-23 00:34:23.43	235.51	28.07	-43.5	-46.2	17.5	0.00e+00	0	38	0	923795456	59	4656
2026-01-23 00:34:24.13	235.40	27.96	-43.7	-46.3	17.3	0.00e+00	0	38	0	924844032	59	4753
2026-01-23 00:34:25.43	235.20	27.76	-43.4	-46.0	17.6	0.00e+00	0	38	0	926941184	58	4831
2026-01-23 00:34:26.14	235.09	27.65	-43.4	-46.0	17.6	0.00e+00	0	38	0	929038336	58	4850
2026-01-23 00:34:27.42	234.90	27.45	-43.4	-45.9	17.6	0.00e+00	0	38	0	931135488	58	4806
2026-01-23 00:34:28.16	234.79	27.34	-43.5	-46.1	17.5	0.00e+00	0	38	0	932184064	58	4881
2026-01-23 00:34:29.44	234.60	27.14	-43.7	-46.4	17.2	0.00e+00	0	38	0	935329792	58	5047
2026-01-23 00:34:30.17	234.49	27.03	-43.8	-46.5	17.1	0.00e+00	0	38	0	936378368	58	5124
2026-01-23 00:34:31.52	234.29	26.83	-43.3	-45.9	17.4	0.00e+00	0	38	0	938475520	58	4803
2026-01-23 00:34:32.23	234.19	26.72	-43.2	-45.7	17.8	0.00e+00	0	38	0	940572672	58	4704
2026-01-23 00:34:33.59	234.00	26.51	-43.4	-46.0	17.7	0.00e+00	0	38	0	942669824	58	4827
2026-01-23 00:34:34.30	233.90	26.41	-43.0	-45.5	18.0	0.00e+00	0	38	0	943718400	57	4842
2026-01-23 00:34:35.66	233.71	26.20	-43.0	-45.4	18.1	0.00e+00	0	38	0	946864128	57	4813
2026-01-23 00:34:36.66	233.57	26.06	-43.1	-45.7	17.8	0.00e+00	0	38	0	947912704	57	4946
2026-01-23 00:34:37.96	233.39	25.86	-43.4	-46.0	17.5	0.00e+00	0	38	0	951058432	57	5151
2026-01-23 00:34:38.69	233.29	25.76	-43.8	-46.5	17.1	0.00e+00	0	37	0	952107008	58	5138
2026-01-23 00:34:40.29	233.08	25.52	-44.7	-47.8	15.8	0.00e+00	0	38	0	955252736	60	5335
2026-01-23 00:34:40.86	233.00	25.44	-44.8	-48.0	15.6	0.00e+00	0	38	0	956301312	60	5454
2026-01-23 00:34:42.56	232.78	25.19	-44.7	-47.9	15.8	0.00e+00	0	38	0	959447040	60	5361
2026-01-23 00:34:43.13	232.70	25.11	-44.7	-47.9	15.8	0.00e+00	0	38	0	960495616	60	5342
2026-01-23 00:34:44.83	232.48	24.87	-44.2	-47.1	16.4	0.00e+00	0	38	0	963641344	60	4890
2026-01-23 00:34:45.40	232.41	24.78	-44.0	-46.9	16.8	0.00e+00	0	38	0	964689920	60	4760
2026-01-23 00:34:47.10	232.20	24.54	-44.1	-47.0	16.6	0.00e+00	0	38	0	967835648	60	4842
2026-01-23 00:34:47.67	232.13	24.46	-44.1	-47.0	16.6	0.00e+00	0	38	0	968884224	60	4835
2026-01-23 00:34:49.47	231.90	24.21	-43.9	-46.6	16.9	0.00e+00	0	38	0	972029952	59	4925
2026-01-23 00:34:50.04	231.84	24.13	-44.0	-46.8	16.7	0.00e+00	0	38	0	973078528	59	5039
2026-01-23 00:34:51.75	231.63	23.89	-43.7	-46.4	17.1	0.00e+00	0	38	0	976224256	59	4808
2026-01-23 00:34:52.46	231.54	23.79	-43.5	-46.2	17.3	0.00e+00	0	38	0	978321408	59	4671
2026-01-23 00:34:53.74	231.39	23.62	-43.5	-46.1	17.4	0.00e+00	0	38	0	980418560	58	4911
2026-01-23 00:34:54.70	231.28	23.48	-43.4	-46.0	17.5	0.00e+00	0	38	0	982515712	58	4846
2026-01-23 00:34:55.98	231.13	23.31	-43.4	-46.1	17.4	0.00e+00	0	38	0	984612864	58	4894
2026-01-23 00:34:56.69	231.05	23.21	-43.6	-46.3	17.2	0.00e+00	0	38	0	985661440	58	5007
2026-01-23 00:34:57.97	230.90	23.04	-43.8	-46.6	17.0	0.00e+00	0	38	0	988807168	58	5193
2026-01-23 00:34:58.70	230.82	22.94	-43.9	-46.8	16.7	0.00e+00	0	38	0	989855744	58	5304
2026-01-23 00:34:59.98	230.68	22.77	-44.0	-46.9	16.7	0.00e+00	0	38	0	991952896	58	5362
2026-01-23 00:35:00.69	230.60	22.67	-43.8	-46.6	16.9	0.00e+00	0	38	0	993001472	58	5180
2026-01-23 00:35:01.97	230.46	22.50	-43.7	-46.5	17.0	0.00e+00	0	38	0	996147200	58	5111
2026-01-23 00:35:02.68	230.38	22.41	-43.6	-46.3	17.2	0.00e+00	0	38	0	997195776	58	5035
2026-01-23 00:35:04.05	230.23	22.23	-43.3	-45.9	17.5	0.00e+00	0	38	0	999292928	58	4811
2026-01-23 00:35:04.76	230.16	22.13	-43.4	-46.0	17.4	0.00e+00	0	38	0	1001390080	58	4854
2026-01-23 00:35:06.04	230.02	21.97	-43.5	-46.2	17.2	0.00e+00	0	38	0	1003487232	58	4945
2026-01-23 00:35:06.78	229.94	21.87	-43.7	-46.5	17.0	0.00e+00	0	38	0	1004535808	58	5114
2026-01-23 00:35:08.15	229.80	21.69	-44.2	-47.1	16.4	0.00e+00	0	38	0	1007681536	59	5182
2026-01-23 00:35:08.86	229.73	21.60	-44.6	-47.7	15.9	0.00e+00	0	38	0	1008730112	59	5555
2026-01-23 00:35:10.14	229.60	21.44	-44.8	-48.0	15.5	0.00e+00	0	38	0	1010827264	60	5451
2026-01-23 00:35:10.87	229.52	21.34	-45.1	-48.4	15.2	0.00e+00	0	38	0	1012924416	60	5701
2026-01-23 00:35:12.26	229.38	21.16	-45.1	-48.5	15.1	0.00e+00	0	38	0	1015021568	61	5453
2026-01-23 00:35:12.96	229.31	21.08	-45.0	-48.4	15.1	0.00e+00	0	38	0	1016070144	61	5388
2026-01-23 00:35:14.24	229.18	20.91	-45.1	-48.6	15.2	0.00e+00	0	38	0	1019215872	61	5472
2026-01-23 00:35:14.97	229.11	20.82	-44.7	-47.9	15.7	0.00e+00	0	38	0	1020264448	61	5060
2026-01-23 00:35:16.25	228.99	20.66	-44.5	-47.7	15.9	0.00e+00	0	38	0	1022361600	61	4941
2026-01-23 00:35:16.97	228.92	20.57	-44.6	-47.8	15.7	0.00e+00	0	38	0	1024458752	60	5313
2026-01-23 00:35:18.25	228.80	20.41	-44.3	-47.4	16.1	0.00e+00	0	38	0	1026555904	60	5059
2026-01-23 00:35:18.98	228.73	20.32	-44.3	-47.3	16.2	0.00e+00	0	38	0	1027604480	60	5041
2026-01-23 00:35:20.25	228.61	20.17	-44.4	-47.4	16.1	0.00e+00	0	38	0	1029701632	60	5083
2026-01-23 00:35:20.98	228.54	20.08	-44.3	-47.4	16.2	0.00e+00	0	38	0	1031798784	60	5054
2026-01-23 00:35:22.26	228.42	19.92	-44.2	-47.2	16.3	0.00e+00	0	38	0	1033895936	60	4934
2026-01-23 00:35:22.98	228.35	19.83	-44.4	-47.4	16.1	0.00e+00	0	38	0	1034944512	60	5081
2026-01-23 00:35:24.26	228.24	19.68	-44.4	-47.4	16.1	0.00e+00	0	38	0	1038090240	60	5094
2026-01-23 00:35:25.13	228.16	19.57	-44.2	-47.2	16.3	0.00e+00	0	38	0	1039138816	60	4983
2026-01-23 00:35:26.27	228.06	19.44	-44.3	-47.3	16.2	0.00e+00	0	38	0	1041235968	60	5015
2026-01-23 00:35:27.32	227.96	19.31	-44.3	-47.3	16.2	0.00e+00	0	38	0	1043333120	60	5020
2026-01-23 00:35:28.37	227.87	19.19	-44.1	-47.1	16.4	0.00e+00	0	38	0	1045430272	60	4887
2026-01-23 00:35:29.31	227.79	19.07	-44.2	-47.2	16.3	0.00e+00	0	38	0	1047527424	60	4934
2026-01-23 00:35:30.31	227.70	18.96	-44.1	-47.0	16.5	0.00e+00	0	38	0	1048576000	60	4849
2026-01-23 00:35:31.30	227.62	18.84	-44.1	-47.1	16.4	0.00e+00	0	38	0	1050673152	60	4884
2026-01-23 00:35:32.30	227.53	18.72	-44.2	-47.1	16.4	0.00e+00	0	38	0	1052770304	60	4921
2026-01-23 00:35:33.29	227.45	18.61	-44.1	-47.0	16.5	0.00e+00	0	38	0	1054867456	60	4835
2026-01-23 00:35:34.28	227.36	18.49	-44.0	-46.9	16.6	0.00e+00	0	38	0	1056964608	60	4798
2026-01-23 00:35:35.28	227.28	18.38	-44.0	-46.9	16.6	0.00e+00	0	38	0	1058013184	60	4767
2026-01-23 00:35:36.27	227.20	18.26	-44.1	-46.9	16.5	0.00e+00	0	38	0	1060110336	59	5094
2026-01-23 00:35:37.27	227.12	18.15	-43.9	-46.8	16.7	0.00e+00	0	38	0	1062207488	59	4992
2026-01-23 00:35:38.29	227.03	18.03	-44.1	-47.0	16.4	0.00e+00	0	38	0	1064304640	59	5158
2026-01-23 00:35:39.29	226.95	17.92	-43.9	-46.7	16.8	0.00e+00	0	38	0	1065353216	59	4938
2026-01-23 00:35:40.28	226.87	17.81	-43.8	-46.6	16.8	0.00e+00	0	38	0	1067450368	59	4893
2026-01-23 00:35:41.28	226.79	17.69	-44.0	-46.9	16.5	0.00e+00	0	38	0	1069547520	59	5090
2026-01-23 00:35:42.28	226.71	17.58	-44.1	-47.1	16.4	0.00e+00	0	38	0	1071644672	59	5169
2026-01-23 00:35:43.27	226.64	17.47	-44.1	-47.0	16.4	0.00e+00	0	38	0	1073741824	59	5127
2026-01-23 00:35:44.26	226.56	17.36	-44.2	-47.2	16.3	0.00e+00	0	38	0	1074790400	59	5229
2026-01-23 00:35:45.26	226.48	17.25	-44.4	-47.4	16.1	0.00e+00	0	38	0	1076887552	59	5380
2026-01-23 00:35:46.25	226.40	17.14	-44.2	-47.2	16.2	0.00e+00	0	38	0	1078984704	59	5239
2026-01-23 00:35:47.25	226.33	17.03	-44.3	-47.3	16.1	0.00e+00	0	38	0	1081081856	59	5327
2026-01-23 00:35:48.24	226.25	16.92	-44.2	-47.2	16.2	0.00e+00	0	38	0	1082130432	59	5263
2026-01-23 00:35:49.24	226.18	16.81	-44.0	-46.9	16.5	0.00e+00	0	38	0	1084227584	59	5062
2026-01-23 00:35:50.23	226.11	16.70	-44.1	-46.9	16.5	0.00e+00	0	38	0	1086324736	59	5086
2026-01-23 00:35:51.23	226.03	16.60	-43.9	-46.7	16.7	0.00e+00	0	38	0	1088421888	59	4963
2026-01-23 00:35:52.22	225.96	16.49	-43.7	-46.5	16.8	0.00e+00	0	38	0	1090519040	59	4846
2026-01-23 00:35:53.22	225.89	16.38	-43.6	-46.3	17.1	0.00e+00	0	38	0	1091567616	59	4722
2026-01-23 00:35:54.26	225.81	16.27	-43.5	-46.1	17.3	0.00e+00	0	38	0	1093664768	58	4911
2026-01-23 00:35:55.25	225.74	16.16	-43.5	-46.2	17.1	0.00e+00	0	38	0	1095761920	58	4975
2026-01-23 00:35:56.25	225.67	16.06	-43.3	-46.0	17.4	0.00e+00	0	38	0	1097859072	58	4820
2026-01-23 00:35:57.24	225.60	15.95	-43.2	-45.8	17.5	0.00e+00	0	38	0	1099956224	58	4756
2026-01-23 00:35:58.24	225.53	15.85	-43.3	-45.9	17.5	0.00e+00	0	38	0	1101004800	58	4792
2026-01-23 00:35:59.23	225.46	15.74	-43.3	-45.9	17.5	0.00e+00	0	38	0	1103101952	58	4789
2026-01-23 00:36:00.23	225.39	15.64	-43.3	-45.9	17.4	0.00e+00	0	38	0	1105199104	58	4806
2026-01-23 00:36:01.44	225.31	15.51	-43.3	-46.0	17.4	0.00e+00	0	38	0	1107296256	58	4838
2026-01-23 00:36:02.33	225.25	15.42	-43.4	-46.0	17.3	0.00e+00	0	38	0	1109393408	58	4855
2026-01-23 00:36:03.47	225.17	15.30	-43.3	-46.0	17.4	0.00e+00	0	38	0	1111490560	58	4819
2026-01-23 00:36:04.32	225.11	15.22	-43.4	-46.1	17.3	0.00e+00	0	38	0	1112539136	58	4874
2026-01-23 00:36:05.45	225.04	15.10	-43.6	-46.3	17.0	0.00e+00	0	38	0	1114636288	58	5017
2026-01-23 00:36:06.31	224.98	15.01	-43.6	-46.4	17.0	0.00e+00	0	38	0	1116733440	58	5055
2026-01-23 00:36:07.44	224.91	14.90	-43.7	-46.5	16.9	0.00e+00	0	38	0	1118830592	58	5143
2026-01-23 00:36:08.30	224.85	14.81	-44.0	-46.8	16.6	0.00e+00	0	38	0	1119879168	58	5334
2026-01-23 00:36:09.43	224.78	14.70	-44.0	-46.8	16.5	0.00e+00	0	38	0	1121976320	58	5324
2026-01-23 00:36:10.29	224.72	14.61	-44.2	-47.2	16.2	0.00e+00	0	38	0	1124073472	59	5225
2026-01-23 00:36:11.42	224.65	14.50	-44.3	-47.3	16.0	0.00e+00	0	38	0	1126170624	59	5335
2026-01-23 00:36:12.28	224.59	14.41	-44.2	-47.2	16.2	0.00e+00	0	38	0	1127219200	59	5229
2026-01-23 00:36:13.41	224.52	14.30	-44.3	-47.3	16.1	0.00e+00	0	38	0	1129316352	59	5288
2026-01-23 00:36:14.26	224.47	14.21	-44.3	-47.3	16.0	0.00e+00	0	38	0	1131413504	59	5335
2026-01-23 00:36:15.51	224.39	14.09	-44.1	-47.1	16.3	0.00e+00	0	38	0	1133510656	59	5162
2026-01-23 00:36:16.36	224.34	14.01	-44.2	-47.1	16.2	0.00e+00	0	38	0	1135607808	59	5195
2026-01-23 00:36:17.50	224.27	13.89	-44.3	-47.3	16.0	0.00e+00	0	38	0	1137704960	59	5325
2026-01-23 00:36:18.35	224.22	13.81	-44.0	-46.9	16.5	0.00e+00	0	38	0	1138753536	59	5048
2026-01-23 00:36:19.61	224.14	13.69	-44.4	-47.4	15.9	0.00e+00	0	38	0	1141899264	59	5382
2026-01-23 00:36:20.42	224.09	13.61	-44.4	-47.5	15.9	0.00e+00	0	38	0	1142947840	59	5412
2026-01-23 00:36:21.56	224.02	13.50	-44.2	-47.2	16.1	0.00e+00	0	38	0	1145044992	59	5250
2026-01-23 00:36:22.41	223.97	13.42	-44.4	-47.4	15.9	0.00e+00	0	38	0	1147142144	59	5394
2026-01-23 00:36:23.54	223.91	13.31	-44.5	-47.5	15.7	0.00e+00	0	38	0	1149239296	59	5442
2026-01-23 00:36:24.40	223.86	13.23	-44.3	-47.3	16.0	0.00e+00	0	38	0	1150287872	59	5300
2026-01-23 00:36:25.53	223.79	13.12	-44.4	-47.4	15.9	0.00e+00	0	38	0	1152385024	59	5375
2026-01-23 00:36:26.38	223.74	13.04	-44.3	-47.3	15.9	0.00e+00	0	38	0	1154482176	59	5329
2026-01-23 00:36:27.52	223.68	12.93	-44.3	-47.3	16.0	0.00e+00	0	38	0	1156579328	59	5328
2026-01-23 00:36:28.37	223.63	12.85	-44.3	-47.3	16.0	0.00e+00	0	38	0	1157627904	59	5320
2026-01-23 00:36:29.51	223.57	12.75	-44.4	-47.5	15.8	0.00e+00	0	38	0	1159725056	59	5423
2026-01-23 00:36:30.36	223.52	12.67	-44.4	-47.4	15.9	0.00e+00	0	38	0	1161822208	59	5387
2026-01-23 00:36:31.50	223.45	12.56	-44.5	-47.6	15.7	0.00e+00	0	38	0	1163919360	59	5466
2026-01-23 00:36:32.36	223.41	12.48	-44.6	-47.7	15.5	0.00e+00	0	38	0	1164967936	59	5556
2026-01-23 00:36:33.50	223.34	12.37	-44.5	-47.6	15.7	0.00e+00	0	38	0	1167065088	59	5465
2026-01-23 00:36:34.35	223.30	12.30	-44.7	-47.9	15.4	0.00e+00	0	38	0	1169162240	60	5347
2026-01-23 00:36:35.49	223.23	12.19	-44.5	-47.7	15.6	0.00e+00	0	38	0	1171259392	60	5223
2026-01-23 00:36:36.34	223.19	12.11	-44.6	-47.8	15.5	0.00e+00	0	38	0	1172307968	60	5322
2026-01-23 00:36:37.59	223.12	12.00	-44.9	-48.1	15.2	0.00e+00	0	38	0	1175453696	60	5525
2026-01-23 00:36:38.44	223.08	11.92	-44.7	-47.9	15.4	0.00e+00	0	38	0	1176502272	60	5368
2026-01-23 00:36:39.58	223.02	11.82	-44.8	-48.1	15.2	0.00e+00	0	38	0	1178599424	60	5499
2026-01-23 00:36:40.43	222.97	11.74	-44.8	-48.0	15.3	0.00e+00	0	38	0	1180696576	60	5452
2026-01-23 00:36:41.57	222.91	11.64	-44.8	-48.0	15.3	0.00e+00	0	38	0	1182793728	60	5444
2026-01-23 00:36:42.42	222.87	11.56	-44.8	-48.1	15.2	0.00e+00	0	38	0	1183842304	60	5514
2026-01-23 00:36:43.56	222.81	11.46	-44.8	-48.1	15.2	0.00e+00	0	38	0	1185939456	60	5498
2026-01-23 00:36:44.41	222.77	11.39	-44.7	-48.0	15.3	0.00e+00	0	38	0	1188036608	60	5438
2026-01-23 00:36:45.55	222.71	11.28	-44.9	-48.2	15.1	0.00e+00	0	38	0	1190133760	60	5556
2026-01-23 00:36:46.40	222.66	11.21	-44.8	-48.1	15.1	0.00e+00	0	38	0	1191182336	60	5522
2026-01-23 00:36:47.53	222.61	11.11	-44.5	-47.7	15.5	0.00e+00	0	38	0	1194328064	60	5273
2026-01-23 00:36:48.38	222.57	11.04	-44.6	-47.9	15.4	0.00e+00	0	38	0	1195376640	60	5400
2026-01-23 00:36:49.52	222.51	10.94	-44.6	-47.9	15.3	0.00e+00	0	38	0	1197473792	60	5384
2026-01-23 00:36:50.37	222.47	10.86	-44.5	-47.8	15.4	0.00e+00	0	38	0	1199570944	60	5321
2026-01-23 00:36:51.51	222.41	10.76	-44.6	-47.9	15.3	0.00e+00	0	38	0	1201668096	60	5395
2026-01-23 00:36:52.36	222.37	10.69	-44.6	-48.0	15.3	0.00e+00	0	38	0	1202716672	60	5405
2026-01-23 00:36:53.50	222.31	10.59	-44.4	-47.6	15.6	0.00e+00	0	38	0	1204813824	60	5181
2026-01-23 00:36:54.35	222.27	10.52	-44.5	-47.8	15.4	0.00e+00	0	38	0	1206910976	60	5290
2026-01-23 00:36:55.49	222.22	10.42	-44.4	-47.6	15.6	0.00e+00	0	38	0	1209008128	60	5176
2026-01-23 00:36:56.34	222.18	10.35	-44.1	-47.2	16.0	0.00e+00	0	38	0	1210056704	60	4952
2026-01-23 00:36:57.48	222.12	10.25	-44.2	-47.3	15.9	0.00e+00	0	38	0	1212153856	60	5041
2026-01-23 00:36:58.33	222.08	10.18	-44.1	-47.2	16.0	0.00e+00	0	38	0	1214251008	60	4972
2026-01-23 00:36:59.61	222.02	10.07	-44.1	-47.3	15.9	0.00e+00	0	38	0	1216348160	60	4998
2026-01-23 00:37:00.34	221.99	10.01	-44.1	-47.3	15.9	0.00e+00	0	38	0	1217396736	60	5003
2026-01-23 00:37:01.61	221.93	9.90	-44.1	-47.4	15.8	0.00e+00	0	38	0	1220542464	60	5059
2026-01-23 00:37:02.34	221.90	9.84	-44.1	-47.4	15.8	0.00e+00	0	38	0	1221591040	60	5043
2026-01-23 00:37:03.62	221.84	9.73	-44.2	-47.5	15.5	0.00e+00	0	38	0	1223688192	60	5157
2026-01-23 00:37:04.36	221.81	9.67	-44.2	-47.5	15.6	0.00e+00	0	38	0	1225785344	60	5123
2026-01-23 00:37:05.64	221.75	9.56	-44.3	-47.7	15.4	0.00e+00	0	38	0	1227882496	60	5221
2026-01-23 00:37:06.37	221.72	9.50	-44.4	-47.8	15.3	0.00e+00	0	38	0	1228931072	60	5291
2026-01-23 00:37:07.65	221.66	9.40	-44.4	-47.8	15.3	7.00e-07	0	38	0	1231028224	60	5295
2026-01-23 00:37:08.37	221.63	9.34	-44.4	-47.9	15.2	0.00e+00	0	38	0	1233125376	60	5384
