passes_logs/2026/01/23/T1/T1__20260123_200530_KHAYYAM_rec.log

#Pass ID: 20260123_200530_KHAYYAM
#Satellite: KHAYYAM
#Configuration: KHAYYAM_480M
#almurnet v.1.7.20251203
#Start time: 2026-01-23 20:05:32

#Version: 2.0.20230620
#Station: T1
#Location: 37.570604 lon 55.790049 lat
#TLE: 1 53370U 22096A   26022.96384356  .00007562  00000+0  30850-3 0  9991
#TLE: 2 53370  97.3553 289.8311 0001899 107.2217 252.9229 15.24706910192458

#Time	Az	El	Level	Level2	SNR	BER	BlckErr	Temp	State	Recorded	gain1	gain2
2026-01-23 20:05:32.15	34.60	5.07	-48.4	-50.9	3.9	0.00e+00	0	40	0	0	68	19076
2026-01-23 20:05:33.14	34.73	5.14	-48.3	-50.8	4.1	0.00e+00	0	40	104	0	67	19955
2026-01-23 20:05:34.13	34.86	5.20	-48.3	-50.8	4.1	0.00e+00	0	40	104	0	67	19988
2026-01-23 20:05:35.13	34.99	5.27	-48.3	-50.8	4.1	0.00e+00	0	40	104	0	67	19994
2026-01-23 20:05:36.12	35.12	5.33	-48.3	-50.8	4.1	0.00e+00	0	40	104	0	67	19973
2026-01-23 20:05:37.11	35.25	5.39	-48.3	-50.8	4.1	0.00e+00	0	40	104	0	67	19957
2026-01-23 20:05:38.10	35.39	5.46	-48.3	-50.8	4.1	0.00e+00	0	40	104	0	67	19962
2026-01-23 20:05:39.10	35.52	5.52	-48.3	-50.8	4.1	0.00e+00	0	41	104	0	67	19991
2026-01-23 20:05:40.09	35.66	5.59	-48.3	-50.8	4.0	0.00e+00	0	41	104	0	67	19981
2026-01-23 20:05:41.08	35.79	5.65	-48.3	-50.8	4.1	0.00e+00	0	41	104	0	67	19988
2026-01-23 20:05:42.08	35.93	5.72	-48.3	-50.7	4.1	0.00e+00	0	41	104	0	67	19922
2026-01-23 20:05:43.07	36.06	5.78	-48.3	-50.8	4.1	0.00e+00	0	41	104	0	67	19946
2026-01-23 20:05:44.06	36.20	5.85	-48.3	-50.8	4.1	0.00e+00	0	41	104	0	67	19957
2026-01-23 20:05:45.06	36.34	5.91	-48.3	-50.8	4.1	0.00e+00	0	41	104	0	67	19956
2026-01-23 20:05:46.05	36.48	5.98	-48.3	-50.8	4.1	0.00e+00	0	41	104	0	67	19977
2026-01-23 20:05:47.04	36.61	6.04	-48.3	-50.8	4.0	0.00e+00	0	41	104	0	67	19968
2026-01-23 20:05:48.03	36.75	6.11	-48.3	-50.8	4.1	0.00e+00	0	41	104	0	67	19986
2026-01-23 20:05:49.03	36.90	6.17	-48.3	-50.7	4.1	0.00e+00	0	41	104	0	67	19926
2026-01-23 20:05:50.02	37.04	6.24	-48.3	-50.8	4.1	0.00e+00	0	42	104	0	67	19999
2026-01-23 20:05:51.02	37.18	6.30	-48.3	-50.7	4.1	0.00e+00	0	42	104	0	67	19917
2026-01-23 20:05:52.01	37.32	6.37	-48.3	-50.8	4.1	0.00e+00	0	42	104	0	67	19964
2026-01-23 20:05:53.00	37.47	6.44	-48.3	-50.8	4.1	0.00e+00	0	42	104	0	67	19970
2026-01-23 20:05:53.99	37.61	6.50	-48.3	-50.8	4.1	0.00e+00	0	42	104	0	67	19958
2026-01-23 20:05:54.99	37.76	6.57	-48.3	-50.8	4.1	0.00e+00	0	42	104	0	67	19951
2026-01-23 20:05:55.98	37.90	6.63	-48.3	-50.8	4.1	0.00e+00	0	42	104	0	67	19968
2026-01-23 20:05:56.97	38.05	6.70	-48.3	-50.8	4.1	0.00e+00	0	42	104	0	67	19945
2026-01-23 20:05:57.96	38.20	6.77	-48.3	-50.8	4.1	0.00e+00	0	42	104	0	67	19935
2026-01-23 20:05:58.96	38.35	6.83	-48.3	-50.7	4.1	0.00e+00	0	42	104	0	67	19898
2026-01-23 20:05:59.95	38.50	6.90	-48.3	-50.8	4.1	0.00e+00	0	42	104	0	67	19944
2026-01-23 20:06:00.94	38.65	6.97	-48.3	-50.8	4.1	0.00e+00	0	42	104	0	67	19938
2026-01-23 20:06:01.94	38.80	7.03	-48.3	-50.8	4.1	0.00e+00	0	42	104	0	67	20005
2026-01-23 20:06:02.93	38.95	7.10	-48.3	-50.8	4.1	0.00e+00	0	42	104	0	67	19957
2026-01-23 20:06:03.93	39.11	7.17	-48.3	-50.8	4.1	0.00e+00	0	42	104	0	67	19947
2026-01-23 20:06:04.92	39.26	7.24	-48.3	-50.8	4.1	0.00e+00	0	42	104	0	67	19974
2026-01-23 20:06:05.91	39.42	7.30	-48.3	-50.8	4.1	0.00e+00	0	43	104	0	67	20027
2026-01-23 20:06:06.91	39.57	7.37	-48.3	-50.8	4.1	0.00e+00	0	43	104	0	67	19978
2026-01-23 20:06:07.90	39.73	7.44	-48.3	-50.8	4.0	0.00e+00	0	42	104	0	67	19958
2026-01-23 20:06:08.89	39.89	7.50	-48.3	-50.8	4.1	0.00e+00	0	43	104	0	67	19976
2026-01-23 20:06:09.89	40.05	7.57	-48.3	-50.7	4.1	0.00e+00	0	42	104	0	67	19918
2026-01-23 20:06:10.88	40.21	7.64	-48.3	-50.7	4.1	0.00e+00	0	42	104	0	67	19912
2026-01-23 20:06:11.87	40.37	7.71	-48.3	-50.7	4.1	0.00e+00	0	43	104	0	67	19910
2026-01-23 20:06:12.87	40.53	7.78	-48.3	-50.7	4.0	0.00e+00	0	43	104	0	67	19924
2026-01-23 20:06:13.86	40.69	7.84	-48.3	-50.7	4.1	0.00e+00	0	43	104	0	67	19892
2026-01-23 20:06:14.85	40.85	7.91	-48.3	-50.8	4.0	0.00e+00	0	43	104	0	67	19946
2026-01-23 20:06:15.85	41.02	7.98	-48.3	-50.8	4.1	0.00e+00	0	43	104	0	67	19971
2026-01-23 20:06:16.84	41.18	8.05	-48.3	-50.7	4.1	0.00e+00	0	43	104	0	67	19930
2026-01-23 20:06:17.83	41.35	8.12	-48.3	-50.8	4.1	0.00e+00	0	43	104	0	67	19971
2026-01-23 20:06:18.83	41.52	8.18	-48.3	-50.8	4.1	0.00e+00	0	43	104	0	67	19975
2026-01-23 20:06:19.82	41.68	8.25	-48.3	-50.8	4.1	0.00e+00	0	43	104	0	67	19972
2026-01-23 20:06:20.81	41.85	8.32	-48.3	-50.7	4.0	0.00e+00	0	43	104	0	67	19932
2026-01-23 20:06:21.81	42.02	8.39	-48.3	-50.7	4.1	0.00e+00	0	43	104	0	67	19882
2026-01-23 20:06:22.80	42.19	8.46	-48.3	-50.7	4.1	0.00e+00	0	43	104	0	67	19889
2026-01-23 20:06:23.79	42.36	8.53	-48.3	-50.7	4.1	0.00e+00	0	43	104	0	67	19918
2026-01-23 20:06:24.79	42.54	8.60	-48.3	-50.7	4.1	0.00e+00	0	43	104	0	67	19924
2026-01-23 20:06:25.78	42.71	8.66	-48.3	-50.7	4.1	0.00e+00	0	43	104	0	67	19905
2026-01-23 20:06:26.78	42.89	8.73	-48.3	-50.8	4.1	0.00e+00	0	43	104	0	67	19946
2026-01-23 20:06:27.77	43.06	8.80	-48.3	-50.8	4.1	0.00e+00	0	43	104	0	67	19994
2026-01-23 20:06:28.76	43.24	8.87	-48.3	-50.8	4.1	0.00e+00	0	43	104	0	67	19963
2026-01-23 20:06:29.76	43.42	8.94	-48.3	-50.8	4.1	0.00e+00	0	43	104	0	67	19991
2026-01-23 20:06:30.75	43.60	9.01	-48.3	-50.8	4.1	0.00e+00	0	43	104	0	67	19943
2026-01-23 20:06:31.74	43.78	9.08	-48.4	-50.8	4.1	0.00e+00	0	43	104	0	67	20142
2026-01-23 20:06:32.73	43.96	9.15	-47.5	-49.6	4.3	0.00e+00	0	43	104	0	66	18595
2026-01-23 20:06:33.78	44.15	9.22	-47.4	-49.5	4.3	0.00e+00	0	43	104	0	66	18280
2026-01-23 20:06:34.74	44.33	9.29	-47.7	-50.0	4.2	0.00e+00	0	43	104	0	66	19258
2026-01-23 20:06:35.73	44.51	9.36	-48.5	-50.9	4.1	0.00e+00	0	44	104	0	67	20319
2026-01-23 20:06:36.73	44.70	9.43	-48.9	-51.4	4.0	0.00e+00	0	44	104	0	69	19203
2026-01-23 20:06:37.72	44.88	9.49	-49.7	-52.7	3.8	0.00e+00	0	44	104	0	70	21020
2026-01-23 20:06:38.72	45.07	9.56	-50.5	-54.0	3.7	0.00e+00	0	44	104	0	71	23003
2026-01-23 20:06:39.71	45.26	9.63	-50.6	-54.3	3.7	0.00e+00	0	44	104	0	72	22544
2026-01-23 20:06:40.71	45.45	9.70	-50.6	-54.2	3.7	0.00e+00	0	44	104	0	72	22230
2026-01-23 20:06:41.70	45.64	9.77	-50.5	-54.0	3.7	0.00e+00	0	44	104	0	72	21705
2026-01-23 20:06:42.69	45.83	9.84	-50.6	-54.0	3.7	0.00e+00	0	44	104	0	72	21784
2026-01-23 20:06:43.69	46.03	9.91	-51.4	-55.9	3.7	0.00e+00	0	44	104	0	73	25446
2026-01-23 20:06:44.68	46.22	9.98	-51.2	-55.4	3.7	0.00e+00	0	44	104	0	73	24203
2026-01-23 20:06:45.67	46.41	10.05	-51.5	-56.0	3.7	0.00e+00	0	44	104	0	73	25756
2026-01-23 20:06:46.67	46.61	10.12	-51.3	-55.7	3.7	0.00e+00	0	44	104	0	73	24964
2026-01-23 20:06:47.66	46.81	10.19	-51.1	-55.6	3.7	0.00e+00	0	44	104	0	73	24662
2026-01-23 20:06:48.66	47.01	10.26	-51.0	-55.3	3.7	0.00e+00	0	44	104	0	73	23958
2026-01-23 20:06:49.66	47.21	10.33	-50.9	-55.1	3.7	0.00e+00	0	44	104	0	73	23212
2026-01-23 20:06:50.73	47.43	10.41	-51.1	-55.7	3.7	0.00e+00	0	44	104	0	73	24841
2026-01-23 20:06:51.62	47.61	10.47	-50.9	-55.3	3.7	0.00e+00	0	44	104	0	73	23761
2026-01-23 20:06:52.76	47.84	10.55	-51.0	-55.2	3.7	0.00e+00	0	44	104	0	73	23436
2026-01-23 20:06:53.69	48.03	10.61	-50.7	-54.4	3.7	0.00e+00	0	44	104	0	73	21481
2026-01-23 20:06:54.86	48.27	10.70	-50.5	-54.2	3.7	0.00e+00	0	44	104	0	72	22148
2026-01-23 20:06:55.71	48.45	10.75	-50.5	-54.2	3.7	0.00e+00	0	44	104	0	72	22240
2026-01-23 20:06:57.09	48.74	10.85	-51.0	-55.1	3.7	0.00e+00	0	44	104	0	72	24680
2026-01-23 20:06:57.80	48.89	10.90	-51.0	-55.1	3.7	0.00e+00	0	44	104	0	72	24746
2026-01-23 20:06:59.08	49.16	10.99	-50.8	-54.7	3.7	0.00e+00	0	44	104	0	72	23625
2026-01-23 20:06:59.80	49.32	11.04	-50.6	-54.4	3.7	0.00e+00	0	44	104	0	72	22801
2026-01-23 20:07:01.08	49.59	11.13	-50.8	-54.5	3.7	0.00e+00	0	44	104	0	72	22946
2026-01-23 20:07:01.81	49.75	11.18	-51.3	-55.7	3.7	0.00e+00	0	44	104	0	73	24819
2026-01-23 20:07:03.09	50.03	11.27	-51.4	-55.6	3.7	0.00e+00	0	44	104	0	73	24775
2026-01-23 20:07:03.86	50.20	11.32	-51.1	-55.1	3.7	0.00e+00	0	44	104	0	73	23303
2026-01-23 20:07:05.14	50.48	11.41	-51.3	-55.5	3.7	0.00e+00	0	44	104	0	73	24436
2026-01-23 20:07:05.87	50.64	11.46	-51.3	-55.6	3.7	0.00e+00	0	44	104	0	73	24680
2026-01-23 20:07:07.14	50.92	11.55	-51.3	-55.5	3.7	0.00e+00	0	44	104	0	73	24363
2026-01-23 20:07:07.87	51.08	11.60	-51.2	-55.3	3.7	0.00e+00	0	44	104	0	73	23791
2026-01-23 20:07:09.15	51.37	11.69	-51.3	-55.4	3.7	0.00e+00	0	44	104	0	73	24043
2026-01-23 20:07:09.86	51.53	11.74	-51.3	-55.5	3.7	0.00e+00	0	44	104	0	73	24252
2026-01-23 20:07:11.14	51.82	11.83	-51.1	-55.1	3.7	0.00e+00	0	44	104	0	73	23365
2026-01-23 20:07:11.88	51.99	11.88	-51.3	-55.6	3.7	0.00e+00	0	44	104	0	73	24758
2026-01-23 20:07:13.16	52.29	11.97	-51.4	-55.7	3.7	0.00e+00	0	44	104	0	73	25007
2026-01-23 20:07:13.87	52.45	12.02	-51.3	-55.8	3.7	0.00e+00	0	44	104	0	73	25150
2026-01-23 20:07:15.15	52.75	12.11	-50.9	-54.9	3.7	0.00e+00	0	44	104	0	73	22870
2026-01-23 20:07:15.89	52.92	12.16	-51.1	-55.2	3.7	0.00e+00	0	44	104	0	73	23498
2026-01-23 20:07:17.17	53.22	12.25	-51.4	-56.0	3.7	0.00e+00	0	45	104	0	73	25825
2026-01-23 20:07:17.91	53.40	12.30	-51.3	-55.8	3.7	0.00e+00	0	44	104	0	73	25367
2026-01-23 20:07:19.19	53.70	12.38	-51.4	-56.0	3.7	0.00e+00	0	44	104	0	73	25729
2026-01-23 20:07:19.98	53.89	12.44	-51.5	-56.0	3.7	0.00e+00	0	44	104	0	73	25769
2026-01-23 20:07:21.18	54.18	12.52	-51.5	-55.9	3.7	0.00e+00	0	44	104	0	73	25562
2026-01-23 20:07:22.03	54.39	12.58	-51.4	-55.9	3.7	0.00e+00	0	44	104	0	73	25386
2026-01-23 20:07:23.16	54.66	12.65	-51.6	-56.0	3.7	0.00e+00	0	44	104	0	73	25974
2026-01-23 20:07:24.02	54.87	12.71	-51.6	-56.4	3.7	0.00e+00	0	44	104	0	73	26946
2026-01-23 20:07:25.16	55.15	12.79	-51.6	-56.2	3.7	0.00e+00	0	44	104	0	73	26524
2026-01-23 20:07:26.01	55.36	12.85	-51.6	-56.3	3.7	0.00e+00	0	45	104	0	74	25174
2026-01-23 20:07:27.15	55.65	12.92	-51.8	-56.4	3.7	0.00e+00	0	44	104	0	74	25611
2026-01-23 20:07:28.00	55.86	12.98	-51.9	-56.5	3.7	0.00e+00	0	44	104	0	74	25850
2026-01-23 20:07:29.14	56.15	13.06	-52.0	-56.6	3.7	0.00e+00	0	44	104	0	74	26043
2026-01-23 20:07:30.00	56.36	13.11	-52.0	-56.5	3.7	0.00e+00	0	45	104	0	74	25931
2026-01-23 20:07:31.14	56.65	13.19	-51.9	-56.5	3.7	0.00e+00	0	45	104	0	74	25846
2026-01-23 20:07:31.99	56.87	13.25	-51.8	-56.4	3.7	0.00e+00	0	45	104	0	74	25588
2026-01-23 20:07:33.13	57.16	13.32	-51.9	-56.5	3.7	0.00e+00	0	45	104	0	74	25749
2026-01-23 20:07:33.98	57.38	13.38	-51.7	-56.5	3.7	0.00e+00	0	45	104	0	74	25691
2026-01-23 20:07:35.11	57.68	13.45	-51.6	-56.4	3.7	0.00e+00	0	45	104	0	74	25515
2026-01-23 20:07:36.13	57.94	13.52	-51.7	-56.1	3.7	0.00e+00	0	44	104	0	74	24634
2026-01-23 20:07:37.12	58.20	13.58	-51.6	-56.3	3.7	0.00e+00	0	45	104	0	74	25304
2026-01-23 20:07:38.12	58.47	13.65	-51.7	-55.9	3.7	0.00e+00	0	44	104	0	74	24045
2026-01-23 20:07:39.11	58.73	13.71	-52.1	-56.5	3.7	0.00e+00	0	45	104	0	74	25917
2026-01-23 20:07:40.11	59.00	13.78	-51.8	-56.4	3.7	0.00e+00	0	45	104	0	74	25521
2026-01-23 20:07:41.10	59.26	13.84	-51.6	-56.2	3.7	0.00e+00	0	45	104	0	74	25002
2026-01-23 20:07:42.10	59.53	13.90	-51.5	-56.0	3.7	0.00e+00	0	45	104	0	74	24450
2026-01-23 20:07:43.09	59.80	13.97	-51.1	-55.7	3.7	0.00e+00	0	45	104	0	74	23430
2026-01-23 20:07:44.14	60.09	14.03	-51.2	-55.8	3.7	0.00e+00	0	45	104	0	74	23877
2026-01-23 20:07:45.11	60.35	14.09	-51.5	-56.2	3.7	0.00e+00	0	45	104	0	74	25008
2026-01-23 20:07:46.19	60.65	14.16	-51.6	-56.3	3.7	0.00e+00	0	45	104	0	74	25143
2026-01-23 20:07:47.04	60.88	14.21	-51.6	-56.2	3.7	0.00e+00	0	45	104	0	74	24876
2026-01-23 20:07:48.18	61.20	14.28	-51.6	-56.4	3.7	0.00e+00	0	45	104	0	74	25474
2026-01-23 20:07:49.14	61.47	14.34	-51.6	-56.1	3.7	0.00e+00	0	45	104	0	74	24741
2026-01-23 20:07:50.14	61.75	14.40	-51.8	-56.4	3.7	0.00e+00	0	44	104	0	74	25485
2026-01-23 20:07:51.13	62.03	14.46	-51.8	-56.4	3.7	0.00e+00	0	45	104	0	74	25513
2026-01-23 20:07:52.12	62.31	14.52	-51.8	-56.5	3.7	0.00e+00	0	45	104	0	74	25711
2026-01-23 20:07:53.12	62.59	14.58	-51.9	-56.5	3.7	0.00e+00	0	45	104	0	74	25920
2026-01-23 20:07:54.11	62.87	14.64	-51.9	-56.5	3.7	0.00e+00	0	45	104	0	74	25900
2026-01-23 20:07:55.11	63.16	14.70	-52.1	-56.6	3.6	0.00e+00	0	45	104	0	74	26013
2026-01-23 20:07:56.10	63.45	14.76	-51.9	-56.4	3.7	0.00e+00	0	45	104	0	74	25592
2026-01-23 20:07:57.10	63.74	14.82	-51.7	-56.2	3.7	0.00e+00	0	45	104	0	74	24985
2026-01-23 20:07:58.10	64.03	14.88	-51.8	-56.4	3.7	0.00e+00	0	45	104	0	74	25478
2026-01-23 20:07:59.09	64.32	14.93	-51.9	-56.6	3.7	0.00e+00	0	45	104	0	74	25979
2026-01-23 20:08:00.09	64.61	14.99	-51.9	-56.4	3.7	0.00e+00	0	45	104	0	74	25434
2026-01-23 20:08:01.30	64.97	15.06	-51.7	-56.4	3.7	0.00e+00	0	45	104	0	74	25634
2026-01-23 20:08:02.16	65.22	15.11	-51.8	-56.3	3.7	0.00e+00	0	45	104	0	74	25364
2026-01-23 20:08:03.50	65.62	15.18	-52.0	-56.5	3.7	0.00e+00	0	45	104	0	74	25772
2026-01-23 20:08:04.21	65.84	15.22	-51.8	-56.3	3.7	0.00e+00	0	45	104	0	74	25123
2026-01-23 20:08:05.49	66.22	15.29	-51.9	-56.3	3.7	0.00e+00	0	45	104	0	74	25234
2026-01-23 20:08:06.20	66.44	15.33	-51.7	-56.1	3.7	0.00e+00	0	45	104	0	74	24616
2026-01-23 20:08:07.48	66.83	15.40	-51.9	-56.5	3.7	0.00e+00	0	45	104	0	74	25743
2026-01-23 20:08:08.19	67.04	15.44	-52.0	-56.6	3.7	0.00e+00	0	45	104	0	74	26163
2026-01-23 20:08:09.47	67.43	15.51	-51.9	-56.5	3.7	0.00e+00	0	45	104	0	74	25880
2026-01-23 20:08:10.20	67.66	15.54	-52.1	-56.6	3.7	0.00e+00	0	45	104	0	74	26166
2026-01-23 20:08:11.48	68.05	15.61	-52.1	-56.5	3.7	0.00e+00	0	45	104	0	74	25917
2026-01-23 20:08:12.22	68.28	15.65	-52.1	-56.5	3.7	0.00e+00	0	45	104	0	74	25913
2026-01-23 20:08:13.50	68.68	15.71	-52.2	-56.6	3.7	0.00e+00	0	45	104	0	74	26132
2026-01-23 20:08:14.22	68.91	15.75	-52.0	-56.4	3.7	0.00e+00	0	45	104	0	74	25573
2026-01-23 20:08:15.50	69.31	15.81	-51.9	-56.1	3.7	0.00e+00	0	45	104	0	74	24774
2026-01-23 20:08:16.21	69.53	15.85	-51.9	-56.4	3.7	0.00e+00	0	45	104	0	74	25454
2026-01-23 20:08:17.52	69.94	15.91	-51.8	-56.3	3.7	0.00e+00	0	45	104	0	74	25123
2026-01-23 20:08:18.23	70.17	15.94	-51.7	-56.4	3.7	0.00e+00	0	45	104	0	74	25557
2026-01-23 20:08:19.53	70.58	16.00	-51.8	-56.4	3.7	0.00e+00	0	45	104	0	74	25385
2026-01-23 20:08:20.24	70.81	16.04	-51.8	-56.4	3.7	0.00e+00	0	45	104	0	74	25434
2026-01-23 20:08:21.62	71.25	16.10	-51.8	-56.4	3.7	0.00e+00	0	45	104	0	74	25468
2026-01-23 20:08:22.33	71.48	16.13	-52.1	-56.6	3.7	0.00e+00	0	45	104	0	74	26033
2026-01-23 20:08:23.68	71.92	16.19	-52.3	-56.8	3.7	0.00e+00	0	45	104	0	75	25161
2026-01-23 20:08:24.39	72.15	16.22	-52.2	-56.7	3.7	0.00e+00	0	45	104	0	75	25005
2026-01-23 20:08:25.74	72.59	16.28	-52.1	-56.7	3.7	0.00e+00	0	45	104	0	75	24938
2026-01-23 20:08:26.45	72.82	16.31	-52.0	-56.6	3.7	0.00e+00	0	45	104	0	75	24643
2026-01-23 20:08:27.73	73.24	16.36	-51.9	-56.4	3.7	0.00e+00	0	45	104	0	75	24031
2026-01-23 20:08:28.49	73.49	16.40	-51.9	-56.4	3.7	0.00e+00	0	45	104	0	75	24017
2026-01-23 20:08:29.77	73.91	16.45	-51.8	-56.3	3.7	0.00e+00	0	45	104	0	75	23708
2026-01-23 20:08:30.50	74.15	16.48	-51.9	-56.4	3.7	0.00e+00	0	45	104	0	75	24019
2026-01-23 20:08:31.78	74.58	16.52	-52.2	-56.8	3.7	0.00e+00	0	45	104	0	75	25104
2026-01-23 20:08:32.50	74.82	16.55	-52.2	-56.7	3.7	0.00e+00	0	45	104	0	75	25008
2026-01-23 20:08:33.78	75.24	16.60	-52.2	-56.8	3.7	0.00e+00	0	45	104	0	75	25106
2026-01-23 20:08:34.53	75.49	16.63	-52.1	-56.7	3.7	0.00e+00	0	45	104	0	75	24858
2026-01-23 20:08:35.82	75.93	16.67	-51.6	-56.3	3.7	0.00e+00	0	45	104	0	75	23939
2026-01-23 20:08:36.54	76.17	16.70	-51.6	-56.4	3.7	0.00e+00	0	45	104	0	75	24158
2026-01-23 20:08:37.83	76.61	16.74	-51.9	-56.5	3.7	0.00e+00	0	45	104	0	75	24393
2026-01-23 20:08:38.54	76.85	16.77	-51.8	-56.3	3.7	0.00e+00	0	45	104	0	75	23892
2026-01-23 20:08:39.82	77.28	16.81	-52.0	-56.5	3.7	0.00e+00	0	45	104	0	75	24511
2026-01-23 20:08:40.57	77.54	16.83	-52.0	-56.5	3.7	0.00e+00	0	45	104	0	75	24394
2026-01-23 20:08:41.85	77.97	16.87	-51.9	-56.4	3.6	0.00e+00	0	45	104	0	75	24123
2026-01-23 20:08:42.57	78.22	16.89	-51.9	-56.5	3.7	0.00e+00	0	45	104	0	75	24506
2026-01-23 20:08:43.85	78.66	16.93	-51.8	-56.6	3.7	0.00e+00	0	45	104	0	75	24531
2026-01-23 20:08:44.57	78.90	16.95	-51.8	-56.5	3.7	0.00e+00	0	45	104	0	75	24462
2026-01-23 20:08:45.85	79.34	16.99	-52.0	-56.6	3.7	0.00e+00	0	45	104	0	75	24614
2026-01-23 20:08:46.57	79.59	17.01	-52.0	-56.6	3.7	0.00e+00	0	45	104	0	75	24782
2026-01-23 20:08:47.86	80.04	17.04	-51.5	-56.1	3.7	0.00e+00	0	45	104	0	75	23325
2026-01-23 20:08:48.60	80.30	17.06	-51.7	-56.3	3.7	0.00e+00	0	45	104	0	75	23706
2026-01-23 20:08:49.88	80.74	17.09	-51.5	-56.3	3.7	0.00e+00	0	45	104	0	75	23721
2026-01-23 20:08:50.60	80.99	17.11	-51.2	-56.0	3.7	0.00e+00	0	45	104	0	74	24457
2026-01-23 20:08:51.88	81.44	17.13	-51.6	-56.4	3.7	0.00e+00	0	45	104	0	74	25573
2026-01-23 20:08:52.59	81.68	17.15	-51.4	-56.3	3.7	0.00e+00	0	45	104	0	74	25147
2026-01-23 20:08:53.88	82.13	17.18	-51.8	-56.5	3.7	0.00e+00	0	45	104	0	74	25762
2026-01-23 20:08:54.59	82.38	17.19	-51.7	-56.6	3.7	0.00e+00	0	45	104	0	74	26036
2026-01-23 20:08:55.88	82.84	17.21	-51.2	-56.2	3.7	0.00e+00	0	45	104	0	74	24817
2026-01-23 20:08:56.59	83.09	17.23	-51.3	-56.3	3.7	0.00e+00	0	45	104	0	74	25220
2026-01-23 20:08:57.87	83.54	17.25	-51.0	-56.0	3.7	0.00e+00	0	45	104	0	74	24450
2026-01-23 20:08:58.58	83.79	17.26	-51.1	-55.7	3.7	0.00e+00	0	45	104	0	73	24967
2026-01-23 20:08:59.86	84.24	17.28	-51.3	-55.8	3.7	0.00e+00	0	45	104	0	73	25299
2026-01-23 20:09:00.60	84.50	17.29	-51.2	-55.7	3.7	0.00e+00	0	45	104	0	73	25027
2026-01-23 20:09:01.88	84.95	17.31	-51.3	-55.7	3.7	0.00e+00	0	45	104	0	73	24953
2026-01-23 20:09:02.61	85.21	17.32	-51.3	-55.9	3.7	0.00e+00	0	45	104	0	73	25571
2026-01-23 20:09:03.89	85.66	17.33	-51.2	-55.7	3.7	0.00e+00	0	45	104	0	73	25053
2026-01-23 20:09:04.61	85.92	17.34	-51.1	-55.6	3.7	0.00e+00	0	45	104	0	73	24657
2026-01-23 20:09:05.89	86.37	17.35	-51.2	-56.0	3.7	0.00e+00	0	45	104	0	73	25870
2026-01-23 20:09:06.60	86.62	17.36	-51.4	-56.1	3.7	0.00e+00	0	45	104	0	73	26272
2026-01-23 20:09:07.89	87.08	17.37	-51.7	-56.3	3.7	0.00e+00	0	45	104	0	74	25354
2026-01-23 20:09:08.60	87.33	17.37	-51.7	-56.3	3.7	0.00e+00	0	45	104	0	74	25205
2026-01-23 20:09:09.88	87.79	17.38	-51.4	-55.8	3.7	0.00e+00	0	45	104	0	74	23956
2026-01-23 20:09:10.60	88.04	17.39	-51.4	-55.9	3.7	0.00e+00	0	45	104	0	74	24226
2026-01-23 20:09:11.88	88.50	17.39	-51.4	-55.9	3.7	0.00e+00	0	45	104	0	74	24127
2026-01-23 20:09:12.60	88.76	17.39	-51.4	-56.1	3.7	0.00e+00	0	45	104	0	74	24739
2026-01-23 20:09:13.88	89.21	17.40	-51.4	-56.1	3.7	0.00e+00	0	45	104	0	74	24556
2026-01-23 20:09:14.61	89.47	17.40	-51.7	-56.3	3.7	0.00e+00	0	45	104	0	74	25377
2026-01-23 20:09:15.89	89.93	17.40	-51.9	-56.5	3.7	0.00e+00	0	45	104	0	74	25826
2026-01-23 20:09:16.61	90.18	17.40	-51.9	-56.5	3.7	0.00e+00	0	45	104	0	74	25934
2026-01-23 20:09:17.89	90.64	17.39	-51.7	-56.5	3.7	0.00e+00	0	45	104	0	74	25800
2026-01-23 20:09:18.60	90.89	17.39	-51.8	-56.6	3.7	0.00e+00	0	45	104	0	74	26040
2026-01-23 20:09:19.88	91.35	17.39	-51.9	-56.5	3.7	0.00e+00	0	45	104	0	74	25802
2026-01-23 20:09:20.60	91.61	17.38	-52.0	-56.6	3.7	0.00e+00	0	45	104	0	74	26049
2026-01-23 20:09:21.87	92.06	17.38	-52.0	-56.6	3.7	0.00e+00	0	45	104	0	74	26056
2026-01-23 20:09:22.62	92.32	17.37	-52.0	-56.7	3.7	0.00e+00	0	45	104	0	74	26286
2026-01-23 20:09:23.90	92.78	17.36	-52.1	-56.5	3.7	0.00e+00	0	45	104	0	74	25786
2026-01-23 20:09:24.61	93.03	17.36	-51.9	-56.4	3.7	0.00e+00	0	45	104	0	74	25530
2026-01-23 20:09:25.89	93.49	17.35	-52.0	-56.4	3.7	0.00e+00	0	45	104	0	74	25558
2026-01-23 20:09:26.61	93.74	17.34	-51.9	-56.4	3.7	0.00e+00	0	45	104	0	74	25488
2026-01-23 20:09:27.89	94.20	17.32	-51.9	-56.5	3.7	0.00e+00	0	45	104	0	74	25812
2026-01-23 20:09:28.61	94.45	17.32	-52.3	-56.6	3.7	0.00e+00	0	45	104	0	75	24691
2026-01-23 20:09:29.89	94.90	17.30	-52.2	-56.6	3.7	0.00e+00	0	45	104	0	75	24747
2026-01-23 20:09:30.62	95.16	17.29	-52.3	-56.7	3.7	0.00e+00	0	45	104	0	75	24885
2026-01-23 20:09:31.90	95.61	17.27	-52.0	-56.5	3.7	0.00e+00	0	45	104	0	75	24266
2026-01-23 20:09:32.62	95.87	17.26	-52.1	-56.6	3.7	0.00e+00	0	45	104	0	75	24648
2026-01-23 20:09:33.90	96.32	17.24	-52.0	-56.5	3.7	0.00e+00	0	45	104	0	75	24518
2026-01-23 20:09:34.64	96.58	17.22	-52.3	-56.7	3.7	0.00e+00	0	45	104	0	75	25058
2026-01-23 20:09:35.93	97.03	17.20	-52.1	-56.7	3.7	0.00e+00	0	45	104	0	75	25030
2026-01-23 20:09:36.64	97.28	17.19	-52.1	-56.5	3.7	0.00e+00	0	45	104	0	75	24323
2026-01-23 20:09:37.92	97.73	17.16	-52.0	-56.4	3.7	0.00e+00	0	45	104	0	75	24228
2026-01-23 20:09:38.63	97.98	17.15	-52.0	-56.4	3.7	0.00e+00	0	45	104	0	75	24038
2026-01-23 20:09:39.92	98.43	17.12	-52.3	-56.8	3.7	0.00e+00	0	45	104	0	75	25189
2026-01-23 20:09:40.63	98.68	17.10	-52.3	-56.7	3.7	0.00e+00	0	45	104	0	75	25052
2026-01-23 20:09:41.91	99.12	17.07	-52.3	-56.7	3.7	0.00e+00	0	45	104	0	75	24875
2026-01-23 20:09:42.64	99.38	17.05	-52.3	-56.6	3.7	0.00e+00	0	45	104	0	75	24793
2026-01-23 20:09:43.91	99.82	17.02	-52.1	-56.5	3.7	0.00e+00	0	45	104	0	75	24352
2026-01-23 20:09:44.64	100.07	17.00	-52.2	-56.5	3.7	0.00e+00	0	45	104	0	75	24406
2026-01-23 20:09:45.93	100.52	16.97	-52.1	-56.5	3.7	0.00e+00	0	45	104	0	75	24288
2026-01-23 20:09:46.64	100.76	16.95	-52.3	-56.6	3.7	0.00e+00	0	45	104	0	75	24639
2026-01-23 20:09:47.92	101.20	16.91	-52.4	-56.8	3.7	0.00e+00	0	45	104	0	75	25298
2026-01-23 20:09:48.68	101.46	16.89	-52.4	-56.8	3.7	0.00e+00	0	45	104	0	75	25121
2026-01-23 20:09:49.96	101.90	16.85	-52.3	-56.7	3.7	0.00e+00	0	46	104	0	75	25011
2026-01-23 20:09:50.69	102.15	16.82	-52.3	-56.8	3.7	0.00e+00	0	45	104	0	75	25206
2026-01-23 20:09:51.97	102.59	16.78	-52.3	-56.8	3.7	0.00e+00	0	45	104	0	75	25288
2026-01-23 20:09:52.70	102.84	16.76	-52.2	-56.8	3.7	0.00e+00	0	45	104	0	75	25122
2026-01-23 20:09:53.98	103.27	16.72	-52.2	-56.8	3.7	0.00e+00	0	45	104	0	75	25116
2026-01-23 20:09:54.73	103.52	16.69	-52.1	-56.7	3.7	0.00e+00	0	46	104	0	75	24900
2026-01-23 20:09:56.02	103.96	16.64	-52.3	-56.9	3.7	0.00e+00	0	45	104	0	75	25412
2026-01-23 20:09:56.73	104.20	16.62	-52.3	-56.9	3.7	0.00e+00	0	45	104	0	75	25445
2026-01-23 20:09:58.01	104.63	16.57	-52.3	-56.8	3.7	0.00e+00	0	45	104	0	75	25298
2026-01-23 20:09:58.76	104.88	16.54	-52.3	-56.8	3.7	0.00e+00	0	45	104	0	75	25338
2026-01-23 20:10:00.04	105.31	16.49	-52.3	-56.8	3.7	0.00e+00	0	45	104	0	75	25148
2026-01-23 20:10:00.75	105.54	16.47	-52.2	-56.6	3.7	0.00e+00	0	45	104	0	75	24758
2026-01-23 20:10:02.04	105.97	16.41	-52.2	-56.5	3.7	0.00e+00	0	45	104	0	75	24426
2026-01-23 20:10:02.75	106.20	16.38	-52.1	-56.6	3.7	0.00e+00	0	45	104	0	75	24638
2026-01-23 20:10:04.03	106.63	16.33	-51.8	-56.5	3.7	0.00e+00	0	45	104	0	75	24292
2026-01-23 20:10:04.75	106.86	16.30	-51.8	-56.5	3.7	0.00e+00	0	45	104	0	75	24299
2026-01-23 20:10:06.03	107.28	16.25	-51.6	-56.2	3.7	0.00e+00	0	45	104	0	75	23461
2026-01-23 20:10:06.74	107.51	16.22	-52.0	-56.6	3.7	0.00e+00	0	45	104	0	75	24622
2026-01-23 20:10:08.03	107.93	16.16	-52.1	-56.6	3.7	0.00e+00	0	45	104	0	75	24664
2026-01-23 20:10:08.74	108.16	16.13	-52.4	-56.8	3.7	0.00e+00	0	45	104	0	75	25371
2026-01-23 20:10:10.03	108.58	16.07	-52.1	-56.4	3.7	0.00e+00	0	45	104	0	75	24155
2026-01-23 20:10:10.75	108.81	16.04	-52.3	-56.8	3.7	0.00e+00	0	45	104	0	75	25106
2026-01-23 20:10:12.03	109.22	15.98	-52.1	-56.6	3.7	0.00e+00	0	45	104	0	75	24545
2026-01-23 20:10:12.75	109.45	15.94	-52.1	-56.7	3.7	0.00e+00	0	45	104	0	75	25052
2026-01-23 20:10:14.04	109.86	15.88	-52.0	-56.4	3.7	0.00e+00	0	45	104	0	75	24038
2026-01-23 20:10:14.75	110.09	15.84	-52.1	-56.7	3.7	0.00e+00	0	45	104	0	75	24985
2026-01-23 20:10:16.03	110.49	15.78	-52.1	-56.7	3.7	0.00e+00	0	45	104	0	75	24865
2026-01-23 20:10:16.78	110.73	15.74	-52.0	-56.6	3.7	0.00e+00	0	45	104	0	75	24712
2026-01-23 20:10:18.06	111.13	15.68	-51.9	-56.5	3.7	0.00e+00	0	45	104	0	75	24385
2026-01-23 20:10:18.77	111.35	15.64	-51.7	-56.4	3.7	0.00e+00	0	45	104	0	75	24084
2026-01-23 20:10:20.06	111.75	15.58	-51.8	-56.5	3.7	0.00e+00	0	45	104	0	75	24303
2026-01-23 20:10:20.77	111.97	15.54	-51.8	-56.5	3.7	0.00e+00	0	45	104	0	75	24368
2026-01-23 20:10:22.06	112.37	15.47	-51.7	-56.4	3.7	0.00e+00	0	46	104	0	75	24054
2026-01-23 20:10:22.77	112.59	15.43	-51.8	-56.6	3.7	0.00e+00	0	45	104	0	75	24541
2026-01-23 20:10:24.06	112.99	15.36	-52.2	-56.7	3.7	0.00e+00	0	45	104	0	75	25018
2026-01-23 20:10:24.77	113.20	15.33	-52.4	-56.8	3.7	0.00e+00	0	45	104	0	75	25164
2026-01-23 20:10:26.07	113.60	15.25	-52.3	-56.7	3.7	0.00e+00	0	45	104	0	75	25085
2026-01-23 20:10:26.78	113.81	15.22	-52.3	-56.8	3.7	0.00e+00	0	45	104	0	75	25144
2026-01-23 20:10:28.06	114.20	15.14	-52.4	-56.9	3.7	0.00e+00	0	45	104	0	75	25490
2026-01-23 20:10:28.78	114.41	15.10	-52.3	-56.8	3.7	0.00e+00	0	45	104	0	75	25183
2026-01-23 20:10:30.06	114.79	15.03	-52.3	-56.8	3.7	0.00e+00	0	45	104	0	75	25199
2026-01-23 20:10:30.78	115.01	14.99	-52.3	-56.7	3.7	0.00e+00	0	45	104	0	75	25037
2026-01-23 20:10:32.06	115.39	14.92	-52.3	-56.7	3.7	0.00e+00	0	45	104	0	75	24900
2026-01-23 20:10:32.78	115.60	14.87	-52.3	-56.7	3.7	0.00e+00	0	45	104	0	75	25014
2026-01-23 20:10:34.06	115.97	14.80	-52.3	-56.6	3.7	0.00e+00	0	45	104	0	75	24761
2026-01-23 20:10:34.81	116.19	14.76	-52.4	-56.8	3.7	0.00e+00	0	45	104	0	75	25296
2026-01-23 20:10:36.09	116.56	14.68	-52.2	-56.7	3.7	0.00e+00	0	45	104	0	75	24881
2026-01-23 20:10:36.80	116.77	14.64	-52.0	-56.6	3.7	0.00e+00	0	45	104	0	75	24609
2026-01-23 20:10:38.08	117.14	14.56	-52.1	-56.6	3.7	0.00e+00	0	46	104	0	75	24801
2026-01-23 20:10:38.81	117.34	14.52	-52.0	-56.6	3.7	0.00e+00	0	45	104	0	75	24584
2026-01-23 20:10:40.10	117.71	14.44	-52.0	-56.5	3.7	0.00e+00	0	45	104	0	75	24504
2026-01-23 20:10:40.81	117.91	14.39	-51.9	-56.5	3.7	0.00e+00	0	45	104	0	75	24426
2026-01-23 20:10:42.09	118.27	14.31	-51.8	-56.4	3.7	0.00e+00	0	45	104	0	75	24096
2026-01-23 20:10:42.80	118.47	14.27	-52.1	-56.6	3.7	0.00e+00	0	45	104	0	75	24655
2026-01-23 20:10:44.09	118.83	14.19	-52.2	-56.7	3.7	0.00e+00	0	45	104	0	75	24962
2026-01-23 20:10:44.80	119.03	14.15	-52.3	-56.7	3.7	0.00e+00	0	45	104	0	75	24967
2026-01-23 20:10:46.08	119.38	14.06	-52.1	-56.4	3.7	0.00e+00	0	45	104	0	75	24234
2026-01-23 20:10:46.79	119.58	14.02	-52.3	-56.7	3.7	0.00e+00	0	45	104	0	75	24826
2026-01-23 20:10:48.08	119.93	13.94	-52.2	-56.7	3.7	0.00e+00	0	45	104	0	75	24952
2026-01-23 20:10:48.79	120.13	13.89	-52.1	-56.6	3.7	0.00e+00	0	45	104	0	75	24678
2026-01-23 20:10:50.07	120.47	13.81	-52.1	-56.6	3.7	0.00e+00	0	45	104	0	75	24547
2026-01-23 20:10:50.82	120.68	13.76	-52.0	-56.5	3.7	0.00e+00	0	45	104	0	75	24308
2026-01-23 20:10:52.10	121.02	13.68	-52.0	-56.5	3.7	0.00e+00	0	45	104	0	75	24406
2026-01-23 20:10:52.82	121.21	13.63	-51.9	-56.4	3.7	0.00e+00	0	45	104	0	75	24009
2026-01-23 20:10:54.11	121.55	13.55	-51.8	-56.3	3.7	0.00e+00	0	45	104	0	75	23933
2026-01-23 20:10:54.82	121.74	13.50	-51.8	-56.4	3.7	0.00e+00	0	45	104	0	75	24022
2026-01-23 20:10:56.10	122.08	13.42	-52.0	-56.5	3.7	0.00e+00	0	46	104	0	75	24278
2026-01-23 20:10:56.82	122.27	13.37	-52.2	-56.5	3.7	0.00e+00	0	45	104	0	75	24488
2026-01-23 20:10:58.10	122.60	13.28	-52.0	-56.3	3.7	0.00e+00	0	45	104	0	75	23857
2026-01-23 20:10:58.83	122.79	13.23	-52.2	-56.6	3.7	0.00e+00	0	45	104	0	75	24626
2026-01-23 20:11:00.11	123.12	13.15	-52.2	-56.6	3.7	0.00e+00	0	45	104	0	75	24678
2026-01-23 20:11:00.83	123.30	13.10	-52.0	-56.5	3.7	0.00e+00	0	45	104	0	75	24446
2026-01-23 20:11:02.11	123.63	13.01	-52.0	-56.4	3.7	0.00e+00	0	45	104	0	75	24099
2026-01-23 20:11:02.85	123.81	12.96	-52.0	-56.6	3.7	0.00e+00	0	45	104	0	75	24594
2026-01-23 20:11:04.13	124.14	12.88	-52.0	-56.4	3.7	0.00e+00	0	45	104	0	75	24040
2026-01-23 20:11:04.87	124.32	12.83	-52.0	-56.4	3.7	0.00e+00	0	45	104	0	75	24104
2026-01-23 20:11:06.15	124.64	12.74	-51.7	-55.8	3.7	0.00e+00	0	45	104	0	75	22566
2026-01-23 20:11:06.89	124.82	12.69	-52.0	-56.4	3.7	0.00e+00	0	45	104	0	75	24039
2026-01-23 20:11:08.17	125.14	12.60	-51.9	-56.3	3.7	0.00e+00	0	45	104	0	75	23831
2026-01-23 20:11:08.88	125.31	12.55	-52.1	-56.6	3.7	0.00e+00	0	45	104	0	75	24573
2026-01-23 20:11:10.17	125.63	12.47	-51.7	-55.8	3.7	0.00e+00	0	46	104	0	75	22524
2026-01-23 20:11:10.88	125.80	12.42	-51.7	-55.8	3.7	0.00e+00	0	45	104	0	75	22612
2026-01-23 20:11:12.16	126.11	12.33	-51.7	-55.7	3.7	0.00e+00	0	45	104	0	75	22126
2026-01-23 20:11:12.88	126.28	12.28	-51.6	-55.6	3.7	0.00e+00	0	45	104	0	75	21974
2026-01-23 20:11:14.17	126.59	12.19	-51.6	-55.6	3.7	0.00e+00	0	46	104	0	75	22012
2026-01-23 20:11:14.88	126.75	12.14	-51.6	-55.6	3.7	0.00e+00	0	45	104	0	75	21889
2026-01-23 20:11:16.17	127.06	12.05	-51.5	-55.8	3.7	0.00e+00	0	45	104	0	75	22422
2026-01-23 20:11:16.89	127.23	12.00	-51.2	-56.0	3.7	0.00e+00	0	45	104	0	74	24422
2026-01-23 20:11:18.18	127.53	11.91	-51.1	-56.0	3.7	0.00e+00	0	46	104	0	74	24352
2026-01-23 20:11:18.89	127.69	11.86	-51.2	-55.9	3.7	0.00e+00	0	45	104	0	74	24077
2026-01-23 20:11:20.18	127.99	11.77	-51.4	-56.1	3.7	0.00e+00	0	45	104	0	74	24773
2026-01-23 20:11:20.90	128.15	11.72	-51.1	-55.8	3.7	0.00e+00	0	45	104	0	74	23956
2026-01-23 20:11:22.18	128.44	11.63	-51.4	-56.1	3.7	0.00e+00	0	45	104	0	74	24669
2026-01-23 20:11:22.90	128.61	11.58	-51.6	-56.2	3.7	0.00e+00	0	45	104	0	74	24853
2026-01-23 20:11:24.19	128.90	11.49	-51.7	-56.2	3.7	0.00e+00	0	46	104	0	74	24999
2026-01-23 20:11:24.90	129.06	11.44	-51.5	-56.0	3.7	0.00e+00	0	46	104	0	74	24386
2026-01-23 20:11:26.19	129.34	11.35	-51.7	-56.3	3.7	0.00e+00	0	45	104	0	74	25228
2026-01-23 20:11:26.91	129.50	11.30	-51.7	-56.1	3.7	0.00e+00	0	45	104	0	74	24703
2026-01-23 20:11:28.19	129.78	11.21	-51.5	-56.0	3.7	0.00e+00	0	45	104	0	74	24418
2026-01-23 20:11:28.91	129.94	11.16	-51.5	-56.0	3.7	0.00e+00	0	45	104	0	74	24358
2026-01-23 20:11:30.20	130.22	11.07	-51.2	-55.8	3.7	0.00e+00	0	45	104	0	74	23867
2026-01-23 20:11:30.91	130.38	11.02	-51.4	-55.9	3.7	0.00e+00	0	45	104	0	74	24157
2026-01-23 20:11:32.20	130.65	10.92	-51.4	-56.1	3.7	0.00e+00	0	45	104	0	74	24576
2026-01-23 20:11:32.91	130.80	10.87	-51.2	-55.7	3.7	0.00e+00	0	45	104	0	74	23596
2026-01-23 20:11:34.20	131.08	10.78	-50.9	-55.7	3.7	0.00e+00	0	45	104	0	73	24922
2026-01-23 20:11:34.91	131.23	10.73	-51.4	-56.1	3.7	0.00e+00	0	45	104	0	73	26265
2026-01-23 20:11:36.20	131.50	10.64	-51.6	-56.2	3.7	0.00e+00	0	45	104	0	73	26289
2026-01-23 20:11:36.92	131.65	10.59	-51.3	-56.0	3.7	0.00e+00	0	45	104	0	73	25704
2026-01-23 20:11:38.20	131.91	10.50	-51.7	-56.2	3.7	0.00e+00	0	46	104	0	74	25068
2026-01-23 20:11:38.91	132.06	10.45	-51.8	-56.3	3.7	0.00e+00	0	46	104	0	74	25096
2026-01-23 20:11:40.20	132.33	10.36	-51.8	-56.3	3.7	0.00e+00	0	45	104	0	74	25095
2026-01-23 20:11:40.92	132.47	10.31	-51.8	-56.2	3.7	0.00e+00	0	45	104	0	74	25041
2026-01-23 20:11:42.21	132.73	10.22	-51.6	-56.2	3.7	0.00e+00	0	45	104	0	74	24834
2026-01-23 20:11:42.92	132.88	10.17	-51.7	-56.2	3.7	0.00e+00	0	45	104	0	74	24982
2026-01-23 20:11:44.20	133.13	10.07	-51.3	-55.9	3.7	0.00e+00	0	45	104	0	74	24074
2026-01-23 20:11:44.92	133.28	10.02	-51.4	-56.0	3.7	0.00e+00	0	45	104	0	74	24370
2026-01-23 20:11:46.20	133.53	9.93	-51.4	-55.9	3.7	0.00e+00	0	46	104	0	74	23966
2026-01-23 20:11:46.92	133.67	9.88	-51.7	-56.2	3.7	0.00e+00	0	45	104	0	74	24870
2026-01-23 20:11:48.21	133.93	9.79	-51.7	-56.2	3.7	0.00e+00	0	45	104	0	74	25047
2026-01-23 20:11:48.92	134.06	9.74	-51.5	-56.0	3.7	0.00e+00	0	45	104	0	74	24264
2026-01-23 20:11:50.21	134.31	9.65	-51.5	-56.0	3.7	0.00e+00	0	46	104	0	74	24428
2026-01-23 20:11:50.93	134.45	9.60	-51.6	-56.2	3.7	0.00e+00	0	46	104	0	74	24830
2026-01-23 20:11:52.21	134.70	9.51	-51.6	-56.2	3.7	0.00e+00	0	46	104	0	74	24818
2026-01-23 20:11:52.93	134.83	9.46	-51.6	-56.1	3.7	0.00e+00	0	46	104	0	74	24774
2026-01-23 20:11:54.22	135.08	9.37	-51.7	-56.2	3.7	0.00e+00	0	45	104	0	74	24873
2026-01-23 20:11:54.94	135.21	9.31	-51.8	-56.2	3.7	0.00e+00	0	46	104	0	74	25079
2026-01-23 20:11:56.22	135.45	9.22	-51.6	-56.1	3.7	0.00e+00	0	46	104	0	74	24653
2026-01-23 20:11:56.94	135.58	9.17	-51.6	-56.1	3.7	0.00e+00	0	46	104	0	74	24577
2026-01-23 20:11:58.23	135.82	9.08	-51.6	-56.1	3.7	0.00e+00	0	45	104	0	74	24582
2026-01-23 20:11:58.94	135.95	9.03	-51.5	-56.1	3.7	0.00e+00	0	45	104	0	74	24730
2026-01-23 20:12:00.22	136.19	8.94	-51.6	-56.0	3.6	0.00e+00	0	46	104	0	74	24296
2026-01-23 20:12:00.93	136.31	8.89	-51.9	-56.3	3.7	0.00e+00	0	45	104	0	74	25309
2026-01-23 20:12:02.21	136.55	8.80	-52.1	-56.5	3.7	0.00e+00	0	46	104	0	74	25780
2026-01-23 20:12:02.92	136.67	8.75	-52.0	-56.5	3.7	0.00e+00	0	46	104	0	75	24273
2026-01-23 20:12:04.20	136.90	8.66	-51.8	-56.5	3.7	0.00e+00	0	45	104	0	74	25952
2026-01-23 20:12:04.92	137.03	8.61	-51.8	-56.2	3.7	0.00e+00	0	45	104	0	75	23573
2026-01-23 20:12:06.20	137.25	8.52	-52.5	-56.9	3.7	0.00e+00	0	46	104	0	75	25400
2026-01-23 20:12:06.92	137.38	8.47	-51.8	-56.6	3.7	0.00e+00	0	46	104	0	75	24675
2026-01-23 20:12:08.21	137.60	8.38	-52.3	-56.8	3.7	0.00e+00	0	46	104	0	75	25349
2026-01-23 20:12:08.92	137.73	8.33	-52.4	-56.9	3.7	0.00e+00	0	45	104	0	75	25520
2026-01-23 20:12:10.20	137.95	8.24	-52.5	-57.0	3.7	0.00e+00	0	46	104	0	75	25829
2026-01-23 20:12:10.91	138.07	8.20	-52.5	-56.9	3.7	0.00e+00	0	45	104	0	75	25612
2026-01-23 20:12:12.19	138.29	8.11	-51.3	-56.3	3.7	0.00e+00	0	46	104	0	74	25370
2026-01-23 20:12:12.92	138.41	8.06	-51.5	-56.5	3.7	0.00e+00	0	46	104	0	74	25709
2026-01-23 20:12:14.20	138.63	7.97	-52.1	-56.8	3.7	0.00e+00	0	46	104	0	76	23907
2026-01-23 20:12:14.91	138.74	7.92	-52.5	-57.1	3.7	0.00e+00	0	46	104	0	76	24572
2026-01-23 20:12:16.19	138.96	7.83	-51.5	-56.5	3.7	0.00e+00	0	46	104	0	74	25721
2026-01-23 20:12:16.90	139.07	7.78	-51.7	-56.6	3.7	0.00e+00	0	46	104	0	75	24687
2026-01-23 20:12:18.19	139.29	7.69	-51.6	-56.4	3.7	0.00e+00	0	45	104	0	74	25602
2026-01-23 20:12:18.90	139.40	7.64	-51.6	-56.2	3.7	0.00e+00	0	46	104	0	74	24952
2026-01-23 20:12:20.18	139.61	7.55	-52.0	-56.5	3.7	0.00e+00	0	45	104	0	74	25733
2026-01-23 20:12:20.90	139.73	7.50	-52.0	-56.5	3.7	0.00e+00	0	45	104	0	74	25706
2026-01-23 20:12:22.17	139.93	7.42	-52.0	-56.4	3.7	0.00e+00	0	46	104	0	74	25674
2026-01-23 20:12:22.89	140.04	7.37	-52.0	-56.5	3.7	0.00e+00	0	46	104	0	74	25746
2026-01-23 20:12:24.17	140.25	7.28	-52.0	-56.5	3.7	0.00e+00	0	45	104	0	74	25714
2026-01-23 20:12:24.89	140.36	7.23	-52.0	-56.4	3.7	0.00e+00	0	46	104	0	74	25664
2026-01-23 20:12:26.18	140.56	7.14	-51.9	-56.4	3.7	0.00e+00	0	45	104	0	74	25608
2026-01-23 20:12:26.89	140.67	7.09	-52.0	-56.4	3.7	0.00e+00	0	46	104	0	74	25653
2026-01-23 20:12:28.17	140.87	7.01	-51.9	-56.4	3.7	0.00e+00	0	45	104	0	74	25605
2026-01-23 20:12:28.90	140.99	6.96	-52.0	-56.5	3.7	0.00e+00	0	45	104	0	74	25697
2026-01-23 20:12:30.18	141.18	6.87	-51.9	-56.4	3.7	0.00e+00	0	45	104	0	74	25659
2026-01-23 20:12:30.90	141.29	6.82	-51.9	-56.4	3.7	0.00e+00	0	45	104	0	74	25649
2026-01-23 20:12:32.19	141.49	6.73	-51.9	-56.4	3.7	0.00e+00	0	45	104	0	74	25562
2026-01-23 20:12:32.90	141.59	6.69	-51.9	-56.5	3.7	0.00e+00	0	46	104	0	74	25682
2026-01-23 20:12:34.18	141.78	6.60	-51.9	-56.4	3.7	0.00e+00	0	45	104	0	74	25615
2026-01-23 20:12:34.91	141.89	6.55	-51.9	-56.4	3.7	0.00e+00	0	45	104	0	74	25612
2026-01-23 20:12:36.19	142.08	6.46	-51.9	-56.4	3.7	0.00e+00	0	46	104	0	74	25610
2026-01-23 20:12:36.91	142.19	6.41	-51.9	-56.4	3.7	0.00e+00	0	45	104	0	74	25607
2026-01-23 20:12:38.20	142.38	6.33	-51.9	-56.4	3.7	0.00e+00	0	46	104	0	74	25603
2026-01-23 20:12:38.91	142.48	6.28	-51.9	-56.4	3.7	0.00e+00	0	45	104	0	74	25596
2026-01-23 20:12:40.19	142.67	6.19	-51.9	-56.4	3.7	0.00e+00	0	45	104	0	74	25541
2026-01-23 20:12:40.90	142.77	6.15	-51.9	-56.4	3.7	0.00e+00	0	46	104	0	74	25674
2026-01-23 20:12:42.18	142.95	6.06	-51.9	-56.4	3.7	0.00e+00	0	46	104	0	74	25648
2026-01-23 20:12:42.91	143.06	6.01	-51.9	-56.4	3.7	0.00e+00	0	46	104	0	74	25570
2026-01-23 20:12:44.19	143.24	5.93	-51.9	-56.4	3.7	0.00e+00	0	46	104	0	74	25606
2026-01-23 20:12:44.90	143.34	5.88	-51.9	-56.4	3.7	0.00e+00	0	46	104	0	74	25561
2026-01-23 20:12:46.18	143.52	5.80	-51.9	-56.4	3.7	0.00e+00	0	45	104	0	74	25543
2026-01-23 20:12:46.91	143.62	5.75	-51.9	-56.4	3.7	0.00e+00	0	45	104	0	74	25606
2026-01-23 20:12:48.19	143.79	5.66	-51.9	-56.4	3.7	0.00e+00	0	46	104	0	74	25565
2026-01-23 20:12:48.90	143.89	5.62	-51.9	-56.4	3.7	0.00e+00	0	45	104	0	74	25536
2026-01-23 20:12:50.19	144.07	5.53	-51.9	-56.4	3.7	0.00e+00	0	46	104	0	74	25478
2026-01-23 20:12:50.90	144.17	5.48	-51.9	-56.4	3.7	0.00e+00	0	45	104	0	74	25558
2026-01-23 20:12:52.18	144.34	5.40	-51.9	-56.4	3.7	0.00e+00	0	46	104	0	74	25506
2026-01-23 20:12:52.91	144.44	5.35	-51.9	-56.4	3.7	0.00e+00	0	46	104	0	74	25509
2026-01-23 20:12:54.19	144.61	5.27	-51.9	-56.5	3.7	0.00e+00	0	46	104	0	74	25692
2026-01-23 20:12:54.90	144.70	5.22	-51.9	-56.4	3.7	0.00e+00	0	45	104	0	74	25563
2026-01-23 20:12:56.18	144.87	5.14	-51.9	-56.4	3.7	0.00e+00	0	45	104	0	74	25510
2026-01-23 20:12:56.89	144.96	5.09	-51.9	-56.4	3.7	0.00e+00	0	45	104	0	74	25470
2026-01-23 20:12:58.18	145.13	5.01	-51.9	-56.4	3.7	0.00e+00	0	45	104	0	74	25565

#Closed at: 2026-01-23 20:12:58
#Recorded file [0 MB]: D:/Data/31040_260123_230532.dat