passes_logs/2026/01/23/T1/T1__20260123_115851_SUOMI_NPP_rec.log

#Pass ID: 20260123_115851_SUOMI NPP
#Satellite: SUOMI NPP
#Configuration: NPP
#almurnet v.1.7.20251203
#Start time: 2026-01-23 11:58:53

#Version: 2.0.20230620
#Station: T1
#Location: 37.570604 lon 55.790049 lat
#TLE: 1 37849U 11061A   26022.50498765  .00000208  00000+0  11976-3 0  9992
#TLE: 2 37849  98.7820 324.4892 0002275  50.8149 309.3229 14.19528284737775

#Time	Az	El	Level	Level2	SNR	BER	BlckErr	Temp	State	Recorded	gain1	gain2
2026-01-23 11:58:53.40	227.63	5.09	-49.0	-64.3	3.8	1.49e+00	0	35	0	0	70	19924
2026-01-23 11:58:54.39	227.74	5.14	-49.0	-64.3	3.8	1.49e+00	0	36	104	0	70	19883
2026-01-23 11:58:55.38	227.84	5.19	-49.0	-64.2	3.8	1.49e+00	0	36	104	0	70	19805
2026-01-23 11:58:56.37	227.95	5.24	-49.0	-64.3	3.8	1.49e+00	0	35	104	0	70	19859
2026-01-23 11:58:57.37	228.07	5.29	-49.0	-64.3	3.8	1.49e+00	0	36	104	0	70	19865
2026-01-23 11:58:58.36	228.18	5.34	-49.0	-64.3	3.8	1.49e+00	0	36	104	0	70	19897
2026-01-23 11:58:59.35	228.29	5.39	-49.0	-64.3	3.8	1.49e+00	0	36	104	0	70	19868
2026-01-23 11:59:00.35	228.40	5.44	-49.0	-64.3	3.8	1.49e+00	0	36	104	0	70	19900
2026-01-23 11:59:01.34	228.51	5.49	-49.0	-64.2	3.8	1.49e+00	0	36	104	0	70	19810
2026-01-23 11:59:02.33	228.62	5.54	-49.0	-64.3	3.8	1.49e+00	0	36	104	0	70	19857
2026-01-23 11:59:03.33	228.73	5.59	-49.0	-64.3	3.8	1.49e+00	0	36	104	0	70	19885
2026-01-23 11:59:04.32	228.85	5.64	-49.0	-64.3	3.8	1.49e+00	0	36	104	0	70	19885
2026-01-23 11:59:05.31	228.96	5.69	-49.0	-64.3	3.8	1.49e+00	0	36	104	0	70	19856
2026-01-23 11:59:06.30	229.07	5.74	-49.0	-64.3	3.8	1.49e+00	0	36	104	0	70	19846
2026-01-23 11:59:07.30	229.19	5.79	-49.0	-64.2	3.8	1.49e+00	0	36	104	0	70	19805
2026-01-23 11:59:08.29	229.30	5.84	-49.0	-64.2	3.8	1.49e+00	0	36	104	0	70	19728
2026-01-23 11:59:09.28	229.41	5.89	-49.0	-64.2	3.8	1.49e+00	0	36	104	0	70	19741
2026-01-23 11:59:10.28	229.53	5.94	-49.0	-64.2	3.8	1.49e+00	0	36	104	0	70	19821
2026-01-23 11:59:11.27	229.64	5.99	-49.0	-64.2	3.8	1.49e+00	0	36	104	0	70	19812
2026-01-23 11:59:12.26	229.76	6.04	-49.0	-64.2	3.8	1.49e+00	0	36	104	0	70	19822
2026-01-23 11:59:13.26	229.88	6.09	-49.0	-64.2	3.8	1.49e+00	0	36	104	0	70	19841
2026-01-23 11:59:14.25	229.99	6.14	-49.0	-64.2	3.8	1.49e+00	0	36	104	0	70	19815
2026-01-23 11:59:15.24	230.11	6.19	-49.0	-64.2	3.8	1.49e+00	0	36	104	0	70	19789
2026-01-23 11:59:16.23	230.23	6.24	-49.0	-64.2	3.8	1.49e+00	0	37	104	0	70	19742
2026-01-23 11:59:17.23	230.34	6.29	-49.0	-64.2	3.8	1.49e+00	0	36	104	0	70	19723
2026-01-23 11:59:18.22	230.46	6.34	-49.0	-64.2	3.8	1.49e+00	0	36	104	0	70	19720
2026-01-23 11:59:19.21	230.58	6.39	-49.0	-64.2	3.8	1.49e+00	0	36	104	0	70	19680
2026-01-23 11:59:20.21	230.70	6.44	-49.0	-64.2	3.8	1.49e+00	0	36	104	0	70	19726
2026-01-23 11:59:21.20	230.82	6.49	-49.0	-64.2	3.8	1.49e+00	0	37	104	0	70	19719
2026-01-23 11:59:22.19	230.94	6.54	-49.0	-64.2	3.8	1.49e+00	0	37	104	0	70	19680
2026-01-23 11:59:23.18	231.06	6.59	-49.0	-64.2	3.8	1.49e+00	0	37	104	0	70	19835
2026-01-23 11:59:24.18	231.18	6.64	-49.0	-64.2	3.8	1.49e+00	0	37	104	0	70	19793
2026-01-23 11:59:25.17	231.30	6.69	-49.0	-64.2	3.8	1.49e+00	0	36	104	0	70	19768
2026-01-23 11:59:26.16	231.42	6.74	-49.0	-64.2	3.8	1.49e+00	0	37	104	0	70	19716
2026-01-23 11:59:27.16	231.54	6.79	-49.0	-64.2	3.8	1.49e+00	0	37	104	0	70	19676
2026-01-23 11:59:28.15	231.66	6.84	-49.0	-64.2	3.8	1.49e+00	0	37	104	0	70	19634
2026-01-23 11:59:29.14	231.78	6.89	-49.0	-64.2	3.8	1.49e+00	0	37	104	0	70	19626
2026-01-23 11:59:30.14	231.91	6.94	-49.0	-64.2	3.8	1.49e+00	0	37	104	0	70	19709
2026-01-23 11:59:31.13	232.03	6.99	-49.0	-64.2	3.8	1.49e+00	0	37	104	0	70	19785
2026-01-23 11:59:32.12	232.15	7.04	-49.0	-64.2	3.8	1.49e+00	0	37	104	0	70	19776
2026-01-23 11:59:33.12	232.28	7.09	-49.0	-64.2	3.8	1.49e+00	0	37	104	0	70	19653
2026-01-23 11:59:34.11	232.40	7.14	-49.0	-64.1	3.8	1.49e+00	0	37	104	0	70	19547
2026-01-23 11:59:35.10	232.53	7.19	-49.0	-64.0	3.8	1.49e+00	0	37	104	0	70	19288
2026-01-23 11:59:36.10	232.65	7.24	-49.0	-63.9	3.8	1.49e+00	0	37	104	0	70	19060
2026-01-23 11:59:37.09	232.78	7.29	-49.0	-63.9	3.8	1.49e+00	0	37	104	0	70	19067
2026-01-23 11:59:38.08	232.90	7.34	-49.0	-63.9	3.8	1.49e+00	0	37	104	0	70	19083
2026-01-23 11:59:39.08	233.03	7.39	-49.0	-64.0	3.8	1.49e+00	0	37	104	0	70	19362
2026-01-23 11:59:40.07	233.16	7.44	-49.0	-64.2	3.8	1.49e+00	0	37	104	0	70	19642
2026-01-23 11:59:41.06	233.29	7.49	-49.0	-64.3	3.8	1.49e+00	0	37	104	0	70	19872
2026-01-23 11:59:42.05	233.41	7.53	-49.0	-64.2	3.8	1.49e+00	0	37	104	0	70	19835
2026-01-23 11:59:43.05	233.54	7.58	-49.0	-64.2	3.8	1.49e+00	0	37	104	0	70	19789
2026-01-23 11:59:44.04	233.67	7.63	-49.0	-64.2	3.8	1.49e+00	0	37	104	0	70	19665
2026-01-23 11:59:45.03	233.80	7.68	-49.0	-64.2	3.8	1.49e+00	0	37	104	0	70	19723
2026-01-23 11:59:46.03	233.93	7.73	-49.0	-64.2	3.8	1.49e+00	0	37	104	0	69	20844
2026-01-23 11:59:47.02	234.06	7.78	-48.9	-64.2	3.8	1.49e+00	0	37	104	0	69	20924
2026-01-23 11:59:48.02	234.19	7.83	-48.9	-64.3	3.8	1.49e+00	0	37	104	0	69	21021
2026-01-23 11:59:49.01	234.32	7.88	-48.9	-64.2	3.8	1.49e+00	0	37	104	0	69	20997
2026-01-23 11:59:50.00	234.45	7.93	-48.9	-64.2	3.8	1.49e+00	0	37	104	0	69	20887
2026-01-23 11:59:51.00	234.58	7.98	-48.9	-64.2	3.8	1.49e+00	0	37	104	0	69	20798
2026-01-23 11:59:51.99	234.71	8.03	-48.9	-64.2	3.8	1.49e+00	0	37	104	0	69	20900
2026-01-23 11:59:52.98	234.85	8.08	-49.0	-64.2	3.8	1.49e+00	0	37	104	0	69	20994
2026-01-23 11:59:53.98	234.98	8.13	-49.0	-64.0	3.8	1.49e+00	0	37	104	0	69	20344
2026-01-23 11:59:54.97	235.11	8.18	-48.9	-63.2	3.8	1.49e+00	0	37	104	0	69	18672
2026-01-23 11:59:55.96	235.25	8.23	-48.9	-62.4	3.8	1.49e+00	0	37	104	0	69	16910
2026-01-23 11:59:56.96	235.38	8.28	-48.8	-62.0	3.8	1.49e+00	0	37	104	0	69	16149
2026-01-23 11:59:57.95	235.51	8.32	-48.9	-62.5	3.8	1.48e+00	0	37	104	0	69	17143
2026-01-23 11:59:58.94	235.65	8.37	-49.0	-63.7	3.8	1.49e+00	0	37	104	0	69	19749
2026-01-23 11:59:59.94	235.79	8.42	-49.0	-63.7	3.8	1.49e+00	0	37	104	0	69	19667
2026-01-23 12:00:00.93	235.92	8.47	-48.6	-59.5	4.5	1.49e+00	0	37	104	0	69	12216
2026-01-23 12:00:01.92	236.06	8.52	-47.8	-55.2	7.4	4.28e-01	0	37	0	1048576	67	8307
2026-01-23 12:00:02.91	236.19	8.57	-46.7	-52.1	10.6	9.20e-03	0	37	0	3145728	65	6526
2026-01-23 12:00:03.91	236.33	8.62	-45.8	-50.0	12.9	2.52e-04	0	37	0	5242880	63	5739
2026-01-23 12:00:04.90	236.47	8.67	-44.9	-48.4	14.5	6.10e-06	0	38	0	7340032	61	5397
2026-01-23 12:00:05.89	236.61	8.72	-44.5	-47.8	15.1	0.00e+00	0	37	0	8388608	61	5013
2026-01-23 12:00:06.89	236.75	8.76	-44.5	-47.8	15.1	0.00e+00	0	38	0	10485760	60	5303
2026-01-23 12:00:07.88	236.88	8.81	-44.9	-48.5	14.5	7.00e-07	0	37	0	12582912	60	5728
2026-01-23 12:00:08.87	237.02	8.86	-45.3	-49.2	13.7	1.50e-06	0	38	0	14680064	61	5900
2026-01-23 12:00:09.86	237.16	8.91	-46.2	-50.7	12.2	2.36e-05	0	37	0	15728640	62	6635
2026-01-23 12:00:10.86	237.30	8.96	-46.8	-52.3	10.5	1.72e-03	0	37	0	17825792	64	7072
2026-01-23 12:00:11.85	237.44	9.01	-47.5	-54.1	8.6	1.38e-02	0	37	0	19922944	65	8262
2026-01-23 12:00:12.85	237.59	9.06	-47.4	-54.0	8.7	6.35e-02	0	38	0	22020096	65	8171
2026-01-23 12:00:13.84	237.73	9.10	-45.7	-49.9	13.0	3.55e-02	0	38	0	23068672	63	5667
2026-01-23 12:00:14.84	237.87	9.15	-48.2	-57.2	5.9	5.14e-02	0	38	0	25165824	67	10524
2026-01-23 12:00:15.83	238.01	9.20	-48.5	-59.7	4.4	6.73e-01	0	37	0	27262976	67	13993
2026-01-23 12:00:16.82	238.16	9.25	-45.7	-49.9	13.1	7.79e-01	0	38	0	28311552	63	5665
2026-01-23 12:00:17.82	238.30	9.30	-45.7	-49.8	13.1	4.65e-05	0	37	0	30408704	63	5650
2026-01-23 12:00:18.81	238.44	9.34	-46.0	-50.3	12.7	5.11e-05	0	38	0	32505856	63	5935
2026-01-23 12:00:19.81	238.59	9.39	-46.1	-50.5	12.5	1.15e-04	0	37	0	34603008	63	6078
2026-01-23 12:00:20.81	238.74	9.44	-45.8	-49.9	13.0	2.21e-05	0	37	0	35651584	63	5716
2026-01-23 12:00:21.80	238.88	9.49	-45.7	-49.7	13.2	1.37e-05	0	37	0	37748736	63	5579
2026-01-23 12:00:22.79	239.03	9.54	-45.7	-49.8	13.2	2.05e-05	0	38	0	39845888	63	5649
2026-01-23 12:00:23.79	239.17	9.58	-45.1	-48.7	14.2	3.80e-06	0	37	0	41943040	62	5272
2026-01-23 12:00:24.79	239.32	9.63	-44.6	-48.0	15.0	0.00e+00	0	37	0	44040192	61	5122
2026-01-23 12:00:25.78	239.47	9.68	-44.4	-47.6	15.3	0.00e+00	0	38	0	45088768	60	5173
2026-01-23 12:00:26.78	239.62	9.73	-43.6	-46.5	16.4	0.00e+00	0	38	0	47185920	59	4843
2026-01-23 12:00:27.78	239.77	9.78	-43.1	-45.8	17.2	0.00e+00	0	38	0	49283072	58	4738
2026-01-23 12:00:28.77	239.91	9.82	-43.1	-45.8	17.2	0.00e+00	0	38	0	51380224	58	4727
2026-01-23 12:00:29.76	240.06	9.87	-43.1	-45.9	17.0	0.00e+00	0	37	0	52428800	58	4760
2026-01-23 12:00:30.76	240.21	9.92	-43.2	-45.9	17.0	0.00e+00	0	37	0	54525952	57	5059
2026-01-23 12:00:31.75	240.36	9.96	-43.1	-45.8	17.1	0.00e+00	0	38	0	56623104	57	4992
2026-01-23 12:00:32.75	240.51	10.01	-43.0	-45.7	17.2	0.00e+00	0	38	0	58720256	57	4940
2026-01-23 12:00:33.74	240.66	10.06	-42.9	-45.6	17.3	0.00e+00	0	38	0	60817408	57	4879
2026-01-23 12:00:34.74	240.82	10.11	-42.9	-45.6	17.4	0.00e+00	0	38	0	61865984	57	4877
2026-01-23 12:00:35.73	240.97	10.15	-42.9	-45.5	17.4	0.00e+00	0	38	0	63963136	57	4840
2026-01-23 12:00:36.73	241.12	10.20	-43.1	-45.7	17.2	0.00e+00	0	38	0	66060288	57	4977
2026-01-23 12:00:37.73	241.28	10.25	-42.9	-45.5	17.4	0.00e+00	0	38	0	68157440	57	4851
2026-01-23 12:00:38.72	241.43	10.29	-42.8	-45.4	17.5	0.00e+00	0	38	0	70254592	57	4772
2026-01-23 12:00:39.72	241.58	10.34	-42.7	-45.3	17.6	0.00e+00	0	38	0	71303168	57	4741
2026-01-23 12:00:40.71	241.74	10.38	-42.5	-45.0	17.9	0.00e+00	0	38	0	73400320	56	4845
2026-01-23 12:00:41.71	241.89	10.43	-42.5	-45.1	17.8	0.00e+00	0	38	0	75497472	56	4882
2026-01-23 12:00:42.70	242.05	10.48	-42.6	-45.1	17.8	0.00e+00	0	38	0	77594624	56	4891
2026-01-23 12:00:43.70	242.20	10.52	-42.5	-45.0	17.9	0.00e+00	0	38	0	78643200	56	4867
2026-01-23 12:00:44.70	242.36	10.57	-42.6	-45.1	17.8	0.00e+00	0	37	0	80740352	56	4915
2026-01-23 12:00:45.69	242.52	10.61	-42.6	-45.2	17.7	0.00e+00	0	38	0	82837504	56	4943
2026-01-23 12:00:46.68	242.67	10.66	-42.5	-45.0	17.8	0.00e+00	0	38	0	84934656	56	4867
2026-01-23 12:00:47.68	242.83	10.71	-42.6	-45.2	17.8	0.00e+00	0	38	0	87031808	56	4937
2026-01-23 12:00:48.67	242.99	10.75	-42.6	-45.2	17.7	0.00e+00	0	38	0	88080384	56	4927
2026-01-23 12:00:49.67	243.15	10.80	-42.6	-45.1	17.8	0.00e+00	0	38	0	90177536	56	4891
2026-01-23 12:00:50.66	243.31	10.84	-42.4	-44.9	18.0	0.00e+00	0	38	0	92274688	56	4778
2026-01-23 12:00:51.66	243.47	10.89	-42.6	-45.0	17.9	0.00e+00	0	38	0	94371840	56	4870
2026-01-23 12:00:52.65	243.63	10.93	-42.5	-45.0	18.0	0.00e+00	0	38	0	95420416	56	4815
2026-01-23 12:00:53.65	243.79	10.98	-42.5	-44.9	18.0	0.00e+00	0	38	0	97517568	56	4810
2026-01-23 12:00:54.64	243.95	11.02	-42.6	-45.1	17.9	0.00e+00	0	38	0	99614720	56	4888
2026-01-23 12:00:55.63	244.11	11.07	-42.7	-45.2	17.7	0.00e+00	0	38	0	101711872	56	4968
2026-01-23 12:00:56.63	244.28	11.11	-42.7	-45.3	17.7	0.00e+00	0	38	0	103809024	56	4987
2026-01-23 12:00:57.62	244.44	11.16	-42.6	-45.1	17.8	0.00e+00	0	38	0	104857600	56	4918
2026-01-23 12:00:58.62	244.60	11.20	-42.6	-45.2	17.8	0.00e+00	0	37	0	106954752	56	4936
2026-01-23 12:00:59.61	244.76	11.24	-42.6	-45.1	17.8	0.00e+00	0	38	0	109051904	56	4918
2026-01-23 12:01:00.61	244.93	11.29	-42.6	-45.1	17.9	0.00e+00	0	38	0	111149056	56	4889
2026-01-23 12:01:01.61	245.09	11.33	-42.4	-44.9	18.1	0.00e+00	0	38	0	112197632	56	4762
2026-01-23 12:01:02.60	245.26	11.38	-42.4	-44.9	18.1	0.00e+00	0	38	0	114294784	56	4780
2026-01-23 12:01:03.60	245.42	11.42	-42.4	-44.8	18.1	0.00e+00	0	37	0	116391936	56	4734
2026-01-23 12:01:04.59	245.59	11.46	-42.4	-44.9	18.1	0.00e+00	0	38	0	118489088	56	4762
2026-01-23 12:01:05.58	245.76	11.51	-42.6	-45.1	17.9	0.00e+00	0	38	0	120586240	56	4892
2026-01-23 12:01:06.58	245.92	11.55	-42.8	-45.3	17.7	0.00e+00	0	38	0	121634816	56	5020
2026-01-23 12:01:07.57	246.09	11.59	-42.9	-45.5	17.5	0.00e+00	0	38	0	123731968	56	5136
2026-01-23 12:01:08.57	246.26	11.64	-42.9	-45.5	17.4	0.00e+00	0	38	0	125829120	56	5146
2026-01-23 12:01:09.56	246.43	11.68	-42.9	-45.5	17.5	0.00e+00	0	38	0	127926272	56	5124
2026-01-23 12:01:10.56	246.60	11.72	-43.0	-45.6	17.4	0.00e+00	0	38	0	128974848	56	5180
2026-01-23 12:01:11.55	246.76	11.76	-42.8	-45.4	17.5	0.00e+00	0	38	0	131072000	56	5065
2026-01-23 12:01:12.55	246.94	11.81	-42.6	-45.1	17.8	0.00e+00	0	38	0	133169152	56	4919
2026-01-23 12:01:13.54	247.10	11.85	-42.7	-45.3	17.7	0.00e+00	0	38	0	135266304	56	4997
2026-01-23 12:01:14.53	247.27	11.89	-42.8	-45.4	17.6	0.00e+00	0	38	0	137363456	56	5070
2026-01-23 12:01:15.53	247.45	11.93	-42.7	-45.3	17.7	0.00e+00	0	38	0	138412032	56	4994
2026-01-23 12:01:16.52	247.62	11.97	-42.8	-45.4	17.6	0.00e+00	0	38	0	140509184	56	5086
2026-01-23 12:01:17.52	247.79	12.02	-42.9	-45.5	17.5	0.00e+00	0	38	0	142606336	56	5147
2026-01-23 12:01:18.51	247.96	12.06	-42.9	-45.5	17.5	0.00e+00	0	38	0	144703488	56	5154
2026-01-23 12:01:19.51	248.14	12.10	-43.1	-45.7	17.3	0.00e+00	0	38	0	145752064	56	5262
2026-01-23 12:01:20.50	248.31	12.14	-43.1	-45.7	17.3	0.00e+00	0	38	0	147849216	56	5261
2026-01-23 12:01:21.50	248.48	12.18	-42.9	-45.6	17.4	0.00e+00	0	38	0	149946368	56	5167
2026-01-23 12:01:22.49	248.66	12.22	-43.0	-45.7	17.4	0.00e+00	0	38	0	152043520	56	5224
2026-01-23 12:01:23.49	248.83	12.26	-43.0	-45.7	17.4	0.00e+00	0	38	0	154140672	56	5239
2026-01-23 12:01:24.48	249.01	12.30	-43.0	-45.6	17.4	0.00e+00	0	38	0	155189248	57	4917
2026-01-23 12:01:25.48	249.18	12.34	-43.1	-45.8	17.2	0.00e+00	0	38	0	157286400	57	5041
2026-01-23 12:01:26.47	249.36	12.38	-43.0	-45.7	17.4	0.00e+00	0	38	0	159383552	57	4931
2026-01-23 12:01:27.47	249.54	12.42	-43.0	-45.7	17.4	0.00e+00	0	38	0	161480704	57	4934
2026-01-23 12:01:28.46	249.71	12.46	-43.0	-45.7	17.3	0.00e+00	0	38	0	162529280	57	4967
2026-01-23 12:01:29.46	249.89	12.50	-43.1	-45.8	17.2	0.00e+00	0	38	0	164626432	57	5037
2026-01-23 12:01:30.46	250.07	12.54	-43.3	-46.0	17.1	0.00e+00	0	38	0	166723584	57	5123
2026-01-23 12:01:31.45	250.25	12.58	-43.2	-45.8	17.2	0.00e+00	0	38	0	168820736	57	5038
2026-01-23 12:01:32.45	250.43	12.62	-43.3	-46.0	17.1	0.00e+00	0	38	0	170917888	57	5158
2026-01-23 12:01:33.44	250.61	12.66	-43.3	-46.0	17.0	0.00e+00	0	38	0	171966464	57	5131
2026-01-23 12:01:34.44	250.79	12.70	-43.5	-46.4	16.8	0.00e+00	0	38	0	174063616	57	5356
2026-01-23 12:01:35.43	250.97	12.74	-43.6	-46.4	16.7	0.00e+00	0	38	0	176160768	57	5360
2026-01-23 12:01:36.43	251.15	12.77	-43.7	-46.5	16.6	0.00e+00	0	38	0	178257920	57	5442
2026-01-23 12:01:37.43	251.33	12.81	-43.7	-46.5	16.6	0.00e+00	0	38	0	179306496	57	5448
2026-01-23 12:01:38.42	251.51	12.85	-43.7	-46.6	16.5	0.00e+00	0	38	0	181403648	58	5160
2026-01-23 12:01:39.41	251.70	12.89	-43.7	-46.5	16.6	0.00e+00	0	38	0	183500800	58	5151
2026-01-23 12:01:40.41	251.88	12.92	-43.6	-46.4	16.7	0.00e+00	0	38	0	185597952	58	5082
2026-01-23 12:01:41.40	252.06	12.96	-43.7	-46.6	16.5	0.00e+00	0	38	0	187695104	58	5165
2026-01-23 12:01:42.40	252.25	13.00	-43.7	-46.7	16.5	0.00e+00	0	38	0	188743680	58	5223
2026-01-23 12:01:43.39	252.43	13.03	-43.8	-46.8	16.3	0.00e+00	0	38	0	190840832	58	5306
2026-01-23 12:01:44.39	252.61	13.07	-43.8	-46.7	16.4	0.00e+00	0	38	0	192937984	58	5275
2026-01-23 12:01:45.38	252.80	13.11	-44.0	-47.0	16.1	0.00e+00	0	38	0	195035136	58	5432
2026-01-23 12:01:46.38	252.99	13.14	-44.1	-47.2	15.9	0.00e+00	0	38	0	196083712	58	5549
2026-01-23 12:01:47.38	253.17	13.18	-44.1	-47.1	16.0	0.00e+00	0	38	0	198180864	58	5511
2026-01-23 12:01:48.37	253.36	13.22	-44.1	-47.1	16.0	0.00e+00	0	38	0	200278016	59	5205
2026-01-23 12:01:49.37	253.54	13.25	-44.2	-47.2	15.9	0.00e+00	0	38	0	202375168	59	5249
2026-01-23 12:01:50.36	253.73	13.29	-44.2	-47.3	15.8	0.00e+00	0	38	0	204472320	59	5299
2026-01-23 12:01:51.35	253.92	13.32	-44.1	-47.1	16.0	0.00e+00	0	38	0	205520896	59	5211
2026-01-23 12:01:52.35	254.11	13.36	-44.0	-47.1	16.1	0.00e+00	0	38	0	207618048	59	5180
2026-01-23 12:01:53.34	254.29	13.39	-44.0	-47.1	16.1	0.00e+00	0	38	0	209715200	59	5166
2026-01-23 12:01:54.34	254.48	13.42	-44.2	-47.4	15.7	0.00e+00	0	38	0	211812352	59	5373
2026-01-23 12:01:55.33	254.67	13.46	-44.2	-47.4	15.7	0.00e+00	0	38	0	212860928	59	5367
2026-01-23 12:01:56.33	254.86	13.49	-44.3	-47.4	15.7	0.00e+00	0	38	0	214958080	59	5385
2026-01-23 12:01:57.32	255.05	13.53	-44.5	-47.7	15.4	0.00e+00	0	38	0	217055232	59	5592
2026-01-23 12:01:58.31	255.24	13.56	-44.4	-47.6	15.5	0.00e+00	0	38	0	219152384	59	5490
2026-01-23 12:01:59.31	255.43	13.59	-44.4	-47.6	15.6	0.00e+00	0	38	0	221249536	59	5465
2026-01-23 12:02:00.30	255.62	13.62	-44.1	-47.1	16.0	0.00e+00	0	38	0	222298112	59	5206
2026-01-23 12:02:01.30	255.82	13.66	-44.0	-47.0	16.1	0.00e+00	0	38	0	224395264	59	5111
2026-01-23 12:02:02.30	256.01	13.69	-43.9	-46.8	16.3	0.00e+00	0	38	0	226492416	59	5038
2026-01-23 12:02:03.29	256.20	13.72	-44.2	-47.2	15.9	0.00e+00	0	38	0	228589568	59	5274
2026-01-23 12:02:04.28	256.39	13.75	-44.0	-47.0	16.2	0.00e+00	0	38	0	229638144	59	5108
2026-01-23 12:02:05.28	256.59	13.78	-44.3	-47.4	15.7	0.00e+00	0	38	0	231735296	59	5393
2026-01-23 12:02:06.27	256.78	13.82	-44.3	-47.4	15.7	0.00e+00	0	38	0	233832448	59	5366
2026-01-23 12:02:07.27	256.98	13.85	-44.2	-47.3	15.8	0.00e+00	0	38	0	235929600	59	5336
2026-01-23 12:02:08.26	257.17	13.88	-44.2	-47.3	15.8	0.00e+00	0	38	0	238026752	59	5336
2026-01-23 12:02:09.26	257.37	13.91	-44.1	-47.1	16.0	0.00e+00	0	38	0	239075328	59	5179
2026-01-23 12:02:10.26	257.56	13.94	-44.1	-47.1	16.0	0.00e+00	0	38	0	241172480	59	5204
2026-01-23 12:02:11.25	257.76	13.97	-43.9	-46.8	16.3	0.00e+00	0	38	0	243269632	59	5026
2026-01-23 12:02:12.25	257.95	14.00	-43.9	-46.8	16.3	0.00e+00	0	38	0	245366784	59	5039
2026-01-23 12:02:13.24	258.15	14.03	-43.9	-46.8	16.3	0.00e+00	0	38	0	246415360	59	5033
2026-01-23 12:02:14.24	258.35	14.06	-43.8	-46.7	16.4	0.00e+00	0	38	0	248512512	59	4937
2026-01-23 12:02:15.23	258.54	14.08	-43.7	-46.5	16.6	0.00e+00	0	38	0	250609664	59	4842
2026-01-23 12:02:16.23	258.74	14.11	-43.6	-46.4	16.7	0.00e+00	0	38	0	252706816	59	4789
2026-01-23 12:02:17.22	258.94	14.14	-43.4	-46.2	17.0	0.00e+00	0	38	0	254803968	58	4938
2026-01-23 12:02:18.22	259.14	14.17	-43.0	-45.6	17.4	0.00e+00	0	38	0	255852544	58	4651
2026-01-23 12:02:19.21	259.34	14.20	-43.0	-45.6	17.2	0.00e+00	0	38	0	257949696	57	4908
2026-01-23 12:02:20.21	259.54	14.22	-42.7	-45.2	17.8	0.00e+00	0	38	0	260046848	57	4687
2026-01-23 12:02:21.20	259.73	14.25	-42.5	-45.0	18.1	0.00e+00	0	38	0	262144000	56	4829
2026-01-23 12:02:22.19	259.93	14.28	-42.5	-45.0	18.1	0.00e+00	0	38	0	263192576	56	4845
2026-01-23 12:02:23.19	260.13	14.30	-42.4	-44.9	18.1	0.00e+00	0	38	0	265289728	56	4810
2026-01-23 12:02:24.18	260.33	14.33	-42.3	-44.8	18.3	0.00e+00	0	38	0	267386880	56	4718
2026-01-23 12:02:25.18	260.53	14.36	-42.4	-44.9	18.1	0.00e+00	0	38	0	269484032	56	4812
2026-01-23 12:02:26.17	260.74	14.38	-42.5	-45.1	18.0	0.00e+00	0	38	0	271581184	56	4881
2026-01-23 12:02:27.17	260.94	14.41	-42.5	-45.1	18.0	0.00e+00	0	38	0	272629760	56	4884
2026-01-23 12:02:28.16	261.14	14.43	-42.6	-45.2	17.9	0.00e+00	0	38	0	274726912	56	4944
2026-01-23 12:02:29.15	261.34	14.46	-42.7	-45.3	17.8	0.00e+00	0	38	0	276824064	56	4997
2026-01-23 12:02:30.15	261.54	14.48	-42.8	-45.4	17.7	0.00e+00	0	38	0	278921216	56	5066
2026-01-23 12:02:31.15	261.75	14.51	-42.9	-45.5	17.6	0.00e+00	0	38	0	279969792	56	5127
2026-01-23 12:02:32.14	261.95	14.53	-42.8	-45.3	17.8	0.00e+00	0	38	0	282066944	56	5028
2026-01-23 12:02:33.13	262.15	14.55	-42.7	-45.2	17.9	0.00e+00	0	38	0	284164096	56	4951
2026-01-23 12:02:34.13	262.36	14.58	-42.4	-44.9	18.2	0.00e+00	0	38	0	286261248	56	4804
2026-01-23 12:02:35.12	262.56	14.60	-42.2	-44.6	18.4	0.00e+00	0	38	0	288358400	56	4645
2026-01-23 12:02:36.12	262.76	14.62	-42.3	-44.7	18.3	0.00e+00	0	38	0	289406976	56	4700
2026-01-23 12:02:37.11	262.97	14.64	-42.4	-44.9	18.1	0.00e+00	0	38	0	291504128	56	4792
2026-01-23 12:02:38.11	263.17	14.67	-42.4	-44.9	18.1	0.00e+00	0	38	0	293601280	56	4814
2026-01-23 12:02:39.10	263.38	14.69	-42.7	-45.3	17.8	0.00e+00	0	38	0	295698432	56	5031
2026-01-23 12:02:40.10	263.58	14.71	-42.9	-45.5	17.6	0.00e+00	0	38	0	297795584	56	5129
2026-01-23 12:02:41.09	263.79	14.73	-42.9	-45.5	17.6	0.00e+00	0	38	0	298844160	56	5146
2026-01-23 12:02:42.09	264.00	14.75	-42.8	-45.4	17.7	0.00e+00	0	38	0	300941312	56	5081
2026-01-23 12:02:43.09	264.20	14.77	-42.7	-45.3	17.8	0.00e+00	0	38	0	303038464	56	4997
2026-01-23 12:02:44.08	264.41	14.79	-42.5	-44.9	18.2	0.00e+00	0	38	0	305135616	56	4802
2026-01-23 12:02:45.08	264.62	14.81	-42.5	-45.0	18.1	0.00e+00	0	38	0	306184192	56	4828
2026-01-23 12:02:46.07	264.82	14.83	-42.7	-45.3	17.8	0.00e+00	0	38	0	308281344	56	5009
2026-01-23 12:02:47.07	265.03	14.85	-42.9	-45.5	17.6	0.00e+00	0	38	0	310378496	56	5150
2026-01-23 12:02:48.06	265.24	14.87	-43.2	-45.9	17.2	0.00e+00	0	38	0	312475648	57	5076
2026-01-23 12:02:49.06	265.45	14.89	-43.4	-46.1	17.0	0.00e+00	0	38	0	314572800	57	5204
2026-01-23 12:02:50.05	265.65	14.90	-43.4	-46.2	17.0	0.00e+00	0	38	0	315621376	57	5248
2026-01-23 12:02:51.05	265.86	14.92	-43.1	-45.8	17.2	0.00e+00	0	38	0	317718528	57	5022
2026-01-23 12:02:52.04	266.07	14.94	-43.1	-45.7	17.4	0.00e+00	0	38	0	319815680	57	4975
2026-01-23 12:02:53.04	266.28	14.96	-43.1	-45.7	17.4	0.00e+00	0	38	0	321912832	57	4968
2026-01-23 12:02:54.03	266.49	14.97	-43.1	-45.8	17.3	0.00e+00	0	38	0	322961408	57	5019
2026-01-23 12:02:55.02	266.69	14.99	-43.5	-46.4	16.7	0.00e+00	0	38	0	325058560	57	5360
2026-01-23 12:02:56.02	266.91	15.00	-44.0	-47.0	16.1	0.00e+00	0	38	0	327155712	58	5419
2026-01-23 12:02:57.01	267.11	15.02	-44.4	-47.5	15.6	0.00e+00	0	38	0	329252864	59	5460
2026-01-23 12:02:58.01	267.32	15.03	-44.4	-47.5	15.6	0.00e+00	0	38	0	331350016	59	5449
2026-01-23 12:02:59.00	267.53	15.05	-44.1	-47.1	16.1	0.00e+00	0	38	0	332398592	59	5194
2026-01-23 12:03:00.00	267.74	15.06	-43.7	-46.6	16.6	0.00e+00	0	38	0	334495744	59	4900
2026-01-23 12:03:00.99	267.95	15.08	-43.1	-45.7	17.4	0.00e+00	0	38	0	336592896	58	4697
2026-01-23 12:03:01.99	268.17	15.09	-42.9	-45.5	17.7	0.00e+00	0	38	0	338690048	57	4826
2026-01-23 12:03:02.98	268.38	15.10	-42.7	-45.3	17.8	0.00e+00	0	38	0	339738624	57	4716
2026-01-23 12:03:03.97	268.59	15.12	-42.6	-45.2	17.8	0.00e+00	0	38	0	341835776	57	4681
2026-01-23 12:03:04.97	268.80	15.13	-42.9	-45.5	17.6	0.00e+00	0	38	0	343932928	57	4867
2026-01-23 12:03:05.96	269.01	15.14	-43.3	-46.0	17.1	0.00e+00	0	38	0	346030080	57	5151
2026-01-23 12:03:06.96	269.22	15.16	-43.4	-46.1	17.0	0.00e+00	0	38	0	348127232	57	5199
2026-01-23 12:03:07.95	269.43	15.17	-43.3	-46.0	17.1	0.00e+00	0	38	0	349175808	57	5115
2026-01-23 12:03:08.95	269.64	15.18	-43.1	-45.7	17.4	0.00e+00	0	38	0	351272960	57	4968
2026-01-23 12:03:09.94	269.85	15.19	-42.9	-45.6	17.6	0.00e+00	0	38	0	353370112	57	4877
2026-01-23 12:03:10.94	270.07	15.20	-42.6	-45.1	17.9	0.00e+00	0	38	0	355467264	57	4649
2026-01-23 12:03:11.93	270.28	15.21	-42.4	-44.9	18.2	0.00e+00	0	38	0	356515840	56	4797
2026-01-23 12:03:12.93	270.49	15.22	-42.4	-44.9	18.1	0.00e+00	0	38	0	358612992	56	4805
2026-01-23 12:03:13.92	270.70	15.23	-42.5	-45.1	18.0	0.00e+00	0	38	0	360710144	56	4873
2026-01-23 12:03:14.92	270.92	15.24	-42.6	-45.2	17.9	0.00e+00	0	38	0	362807296	56	4961
2026-01-23 12:03:15.91	271.13	15.25	-42.7	-45.3	17.8	0.00e+00	0	38	0	364904448	56	5020
2026-01-23 12:03:16.91	271.34	15.26	-42.6	-45.1	17.9	0.00e+00	0	38	0	365953024	56	4910
2026-01-23 12:03:17.90	271.55	15.26	-42.6	-45.1	18.0	0.00e+00	0	38	0	368050176	56	4889
2026-01-23 12:03:18.90	271.77	15.27	-42.3	-44.7	18.4	0.00e+00	0	38	0	370147328	56	4682
2026-01-23 12:03:19.90	271.98	15.28	-42.4	-44.9	18.2	0.00e+00	0	38	0	372244480	56	4768
2026-01-23 12:03:20.89	272.19	15.28	-42.5	-45.0	18.1	0.00e+00	0	38	0	373293056	56	4831
2026-01-23 12:03:21.89	272.41	15.29	-42.7	-45.3	17.9	0.00e+00	0	38	0	375390208	56	4989
2026-01-23 12:03:22.88	272.62	15.30	-43.1	-45.7	17.5	0.00e+00	0	38	0	377487360	56	5248
2026-01-23 12:03:23.88	272.84	15.30	-43.2	-45.9	17.2	0.00e+00	0	38	0	379584512	57	5056
2026-01-23 12:03:24.87	273.05	15.31	-43.0	-45.6	17.4	0.00e+00	0	38	0	381681664	57	4925
2026-01-23 12:03:25.87	273.26	15.31	-42.8	-45.4	17.7	0.00e+00	0	38	0	382730240	57	4775
2026-01-23 12:03:26.86	273.48	15.32	-42.8	-45.4	17.7	0.00e+00	0	38	0	384827392	57	4791
2026-01-23 12:03:27.86	273.69	15.32	-42.7	-45.2	17.9	0.00e+00	0	38	0	386924544	57	4670
2026-01-23 12:03:28.85	273.90	15.33	-42.8	-45.3	17.8	0.00e+00	0	38	0	389021696	57	4743
2026-01-23 12:03:29.84	274.12	15.33	-42.9	-45.5	17.6	0.00e+00	0	38	0	390070272	57	4838
2026-01-23 12:03:30.84	274.33	15.33	-43.1	-45.8	17.3	0.00e+00	0	38	0	392167424	57	5029
2026-01-23 12:03:31.83	274.54	15.34	-43.4	-46.1	17.0	0.00e+00	0	38	0	394264576	57	5199
2026-01-23 12:03:32.83	274.76	15.34	-43.5	-46.3	16.8	0.00e+00	0	38	0	396361728	57	5329
2026-01-23 12:03:33.82	274.97	15.34	-43.6	-46.4	16.7	0.00e+00	0	38	0	398458880	57	5395
2026-01-23 12:03:34.82	275.19	15.34	-43.4	-46.1	17.0	0.00e+00	0	38	0	399507456	57	5196
2026-01-23 12:03:35.81	275.40	15.34	-43.3	-46.0	17.1	0.00e+00	0	38	0	401604608	57	5142
2026-01-23 12:03:36.81	275.61	15.34	-43.2	-45.9	17.3	0.00e+00	0	38	0	403701760	57	5046
2026-01-23 12:03:37.80	275.83	15.34	-43.3	-46.0	17.2	0.00e+00	0	38	0	405798912	57	5112
2026-01-23 12:03:38.79	276.04	15.35	-43.2	-46.0	17.2	0.00e+00	0	38	0	406847488	57	5106
2026-01-23 12:03:39.79	276.25	15.34	-43.2	-45.9	17.3	0.00e+00	0	38	0	408944640	57	5050
2026-01-23 12:03:40.78	276.47	15.34	-43.1	-45.8	17.3	0.00e+00	0	38	0	411041792	57	5013
2026-01-23 12:03:41.78	276.68	15.34	-43.1	-45.7	17.4	0.00e+00	0	38	0	413138944	57	4976
2026-01-23 12:03:42.77	276.90	15.34	-43.0	-45.6	17.5	0.00e+00	0	38	0	415236096	57	4903
2026-01-23 12:03:43.77	277.11	15.34	-42.9	-45.5	17.7	0.00e+00	0	38	0	416284672	57	4828
2026-01-23 12:03:44.76	277.32	15.34	-42.9	-45.5	17.6	0.00e+00	0	38	0	418381824	57	4861
2026-01-23 12:03:45.76	277.54	15.34	-43.0	-45.6	17.5	0.00e+00	0	38	0	420478976	57	4925
2026-01-23 12:03:46.75	277.75	15.33	-43.2	-46.0	17.2	0.00e+00	0	38	0	422576128	57	5107
2026-01-23 12:03:47.74	277.96	15.33	-43.4	-46.1	17.0	0.00e+00	0	38	0	423624704	57	5215
2026-01-23 12:03:48.74	278.18	15.33	-43.3	-46.1	17.1	0.00e+00	0	38	0	425721856	57	5205
2026-01-23 12:03:49.73	278.39	15.32	-43.1	-45.7	17.4	0.00e+00	0	38	0	427819008	57	4957
2026-01-23 12:03:50.73	278.61	15.32	-42.7	-45.2	17.9	0.00e+00	0	38	0	429916160	57	4690
2026-01-23 12:03:51.72	278.82	15.31	-42.4	-44.9	18.2	0.00e+00	0	38	0	432013312	56	4776
2026-01-23 12:03:52.72	279.03	15.31	-42.4	-44.9	18.2	0.00e+00	0	38	0	433061888	56	4783
2026-01-23 12:03:53.72	279.25	15.30	-42.5	-45.0	18.1	0.00e+00	0	38	0	435159040	56	4828
2026-01-23 12:03:54.71	279.46	15.30	-42.7	-45.2	17.9	0.00e+00	0	38	0	437256192	56	4953
2026-01-23 12:03:55.71	279.67	15.29	-42.8	-45.3	17.8	0.00e+00	0	38	0	439353344	56	5039
2026-01-23 12:03:56.70	279.89	15.28	-42.8	-45.4	17.7	0.00e+00	0	38	0	441450496	56	5078
2026-01-23 12:03:57.70	280.10	15.28	-42.8	-45.3	17.7	0.00e+00	0	38	0	442499072	56	5040
2026-01-23 12:03:58.69	280.31	15.27	-42.7	-45.3	17.8	0.00e+00	0	38	0	444596224	56	4985
2026-01-23 12:03:59.69	280.53	15.26	-42.5	-45.0	18.1	0.00e+00	0	38	0	446693376	56	4821
2026-01-23 12:04:00.68	280.74	15.25	-42.4	-44.9	18.2	0.00e+00	0	38	0	448790528	56	4785
2026-01-23 12:04:01.68	280.95	15.25	-42.5	-44.9	18.2	0.00e+00	0	38	0	449839104	56	4807
2026-01-23 12:04:02.67	281.16	15.24	-42.5	-45.0	18.1	0.00e+00	0	38	0	451936256	56	4827
2026-01-23 12:04:03.67	281.38	15.23	-42.7	-45.2	17.9	0.00e+00	0	38	0	454033408	56	4947
2026-01-23 12:04:04.66	281.59	15.22	-42.8	-45.3	17.8	0.00e+00	0	38	0	456130560	56	5006
2026-01-23 12:04:05.66	281.80	15.21	-42.7	-45.2	17.9	0.00e+00	0	38	0	458227712	56	4952
2026-01-23 12:04:06.65	282.01	15.20	-42.5	-45.0	18.1	0.00e+00	0	38	0	459276288	56	4840
2026-01-23 12:04:07.65	282.22	15.19	-42.3	-44.8	18.4	0.00e+00	0	38	0	461373440	56	4713
2026-01-23 12:04:08.65	282.44	15.18	-42.2	-44.6	18.4	0.00e+00	0	38	0	463470592	56	4640
2026-01-23 12:04:09.64	282.65	15.17	-41.8	-44.1	18.8	0.00e+00	0	38	0	465567744	55	4644
2026-01-23 12:04:10.63	282.86	15.15	-41.8	-44.1	18.8	0.00e+00	0	38	0	466616320	55	4643
2026-01-23 12:04:11.63	283.07	15.14	-41.7	-44.0	18.8	0.00e+00	0	38	0	468713472	55	4593
2026-01-23 12:04:12.62	283.28	15.13	-41.9	-44.3	18.7	0.00e+00	0	38	0	470810624	55	4708
2026-01-23 12:04:13.62	283.49	15.12	-42.0	-44.4	18.5	0.00e+00	0	38	0	472907776	55	4788
2026-01-23 12:04:14.61	283.70	15.10	-42.3	-44.7	18.2	0.00e+00	0	38	0	475004928	55	4956
2026-01-23 12:04:15.61	283.91	15.09	-42.3	-44.7	18.2	0.00e+00	0	38	0	476053504	55	4966
2026-01-23 12:04:16.60	284.12	15.08	-42.3	-44.8	18.2	0.00e+00	0	38	0	478150656	55	4989
2026-01-23 12:04:17.60	284.33	15.06	-42.5	-45.0	18.0	0.00e+00	0	38	0	480247808	55	5105
2026-01-23 12:04:18.59	284.54	15.05	-42.4	-44.9	18.0	0.00e+00	0	38	0	482344960	55	5099
2026-01-23 12:04:19.59	284.75	15.03	-42.3	-44.8	18.1	0.00e+00	0	38	0	483393536	55	5015
2026-01-23 12:04:20.58	284.96	15.02	-42.4	-44.8	18.1	0.00e+00	0	38	0	485490688	55	5017
2026-01-23 12:04:21.58	285.17	15.00	-42.3	-44.8	18.1	0.00e+00	0	38	0	487587840	55	5005
2026-01-23 12:04:22.57	285.38	14.99	-42.3	-44.8	18.2	0.00e+00	0	38	0	489684992	55	4995
2026-01-23 12:04:23.57	285.59	14.97	-42.5	-45.0	17.9	0.00e+00	0	38	0	491782144	55	5104
2026-01-23 12:04:24.56	285.79	14.96	-42.4	-44.8	18.1	0.00e+00	0	38	0	492830720	55	5029
2026-01-23 12:04:25.56	286.00	14.94	-42.4	-44.9	18.0	0.00e+00	0	38	0	494927872	55	5097
2026-01-23 12:04:26.55	286.21	14.92	-42.5	-45.1	17.9	0.00e+00	0	38	0	497025024	55	5173
2026-01-23 12:04:27.55	286.42	14.90	-42.6	-45.1	17.8	0.00e+00	0	38	0	499122176	55	5196
2026-01-23 12:04:28.54	286.63	14.89	-42.5	-45.1	17.9	0.00e+00	0	38	0	500170752	55	5186
2026-01-23 12:04:29.54	286.83	14.87	-42.9	-45.5	17.6	0.00e+00	0	38	0	502267904	56	5126
2026-01-23 12:04:30.53	287.04	14.85	-42.9	-45.5	17.6	0.00e+00	0	38	0	504365056	56	5133
2026-01-23 12:04:31.53	287.25	14.83	-42.8	-45.4	17.7	0.00e+00	0	38	0	506462208	56	5086
2026-01-23 12:04:32.52	287.45	14.81	-43.0	-45.6	17.5	0.00e+00	0	38	0	508559360	56	5206
2026-01-23 12:04:33.51	287.66	14.79	-42.9	-45.5	17.6	0.00e+00	0	38	0	509607936	56	5133
2026-01-23 12:04:34.51	287.87	14.77	-42.8	-45.4	17.7	0.00e+00	0	38	0	511705088	56	5077
2026-01-23 12:04:35.50	288.07	14.75	-42.7	-45.2	17.9	0.00e+00	0	38	0	513802240	56	4963
2026-01-23 12:04:36.50	288.28	14.73	-42.5	-45.0	18.1	0.00e+00	0	38	0	515899392	56	4844
2026-01-23 12:04:37.49	288.48	14.71	-42.4	-44.9	18.1	0.00e+00	0	38	0	516947968	56	4798
2026-01-23 12:04:38.48	288.68	14.69	-42.4	-44.9	18.2	0.00e+00	0	38	0	519045120	56	4796
2026-01-23 12:04:39.48	288.89	14.67	-42.2	-44.6	18.4	0.00e+00	0	38	0	521142272	56	4644
2026-01-23 12:04:40.47	289.09	14.65	-42.2	-44.6	18.4	0.00e+00	0	38	0	523239424	56	4622
2026-01-23 12:04:41.47	289.30	14.62	-41.8	-44.1	18.8	0.00e+00	0	38	0	525336576	55	4636
2026-01-23 12:04:42.47	289.50	14.60	-41.6	-43.9	18.9	0.00e+00	0	38	0	526385152	55	4529
2026-01-23 12:04:43.46	289.70	14.58	-41.5	-43.8	19.0	0.00e+00	0	38	0	528482304	55	4487
2026-01-23 12:04:44.45	289.91	14.56	-41.4	-43.7	19.2	0.00e+00	0	38	0	530579456	54	4667
2026-01-23 12:04:45.45	290.11	14.53	-41.5	-43.8	19.1	0.00e+00	0	38	0	532676608	54	4717
2026-01-23 12:04:46.44	290.31	14.51	-41.6	-43.9	18.9	0.00e+00	0	38	0	533725184	54	4785
2026-01-23 12:04:47.44	290.51	14.48	-41.7	-44.1	18.8	0.00e+00	0	38	0	535822336	54	4871
2026-01-23 12:04:48.44	290.72	14.46	-41.7	-44.0	18.8	0.00e+00	0	38	0	537919488	54	4863
2026-01-23 12:04:49.43	290.92	14.44	-41.6	-43.8	19.0	0.00e+00	0	38	0	540016640	54	4757
2026-01-23 12:04:50.43	291.12	14.41	-41.5	-43.7	19.1	0.00e+00	0	38	0	542113792	54	4687
2026-01-23 12:04:51.42	291.32	14.39	-41.4	-43.7	19.2	0.00e+00	0	38	0	543162368	54	4653
2026-01-23 12:04:52.42	291.52	14.36	-41.6	-43.8	19.1	0.00e+00	0	38	0	545259520	54	4756
2026-01-23 12:04:53.41	291.72	14.33	-41.6	-43.9	18.9	0.00e+00	0	38	0	547356672	54	4803
2026-01-23 12:04:54.41	291.92	14.31	-41.8	-44.2	18.7	0.00e+00	0	38	0	549453824	54	4944
2026-01-23 12:04:55.40	292.12	14.28	-41.9	-44.3	18.6	0.00e+00	0	38	0	551550976	54	4992
2026-01-23 12:04:56.40	292.32	14.26	-42.1	-44.5	18.4	0.00e+00	0	38	0	552599552	54	5112
2026-01-23 12:04:57.39	292.52	14.23	-42.2	-44.7	18.2	0.00e+00	0	38	0	554696704	55	4946
2026-01-23 12:04:58.39	292.72	14.20	-42.2	-44.7	18.2	0.00e+00	0	38	0	556793856	55	4936
2026-01-23 12:04:59.38	292.91	14.17	-42.2	-44.7	18.2	0.00e+00	0	38	0	558891008	55	4952
2026-01-23 12:05:00.38	293.11	14.15	-42.3	-44.8	18.1	0.00e+00	0	38	0	559939584	55	5019
2026-01-23 12:05:01.37	293.31	14.12	-42.4	-44.8	18.1	0.00e+00	0	38	0	562036736	55	5029
2026-01-23 12:05:02.37	293.51	14.09	-42.4	-44.9	18.0	0.00e+00	0	38	0	564133888	55	5087
2026-01-23 12:05:03.36	293.70	14.06	-42.4	-44.8	18.0	0.00e+00	0	38	0	566231040	55	5040
2026-01-23 12:05:04.36	293.90	14.03	-42.3	-44.8	18.1	0.00e+00	0	38	0	568328192	55	5012
2026-01-23 12:05:05.35	294.09	14.00	-42.2	-44.7	18.2	0.00e+00	0	38	0	569376768	55	4939
2026-01-23 12:05:06.35	294.29	13.97	-42.3	-44.8	18.1	0.00e+00	0	38	0	571473920	55	4993
2026-01-23 12:05:07.34	294.48	13.94	-42.1	-44.5	18.4	0.00e+00	0	38	0	573571072	55	4851
2026-01-23 12:05:08.34	294.68	13.91	-41.9	-44.3	18.5	0.00e+00	0	38	0	575668224	55	4738
2026-01-23 12:05:09.33	294.87	13.88	-42.0	-44.3	18.6	0.00e+00	0	38	0	576716800	55	4741
2026-01-23 12:05:10.33	295.07	13.85	-41.8	-44.1	18.7	0.00e+00	0	38	0	578813952	55	4625
2026-01-23 12:05:11.32	295.26	13.82	-41.7	-44.0	18.9	0.00e+00	0	38	0	580911104	55	4553
2026-01-23 12:05:12.32	295.45	13.79	-41.5	-43.7	19.1	0.00e+00	0	38	0	583008256	54	4688
2026-01-23 12:05:13.31	295.65	13.76	-41.3	-43.6	19.2	0.00e+00	0	38	0	585105408	54	4612
2026-01-23 12:05:14.31	295.84	13.73	-41.3	-43.6	19.2	0.00e+00	0	38	0	586153984	54	4608
2026-01-23 12:05:15.30	296.03	13.70	-41.3	-43.5	19.3	0.00e+00	0	38	0	588251136	54	4569
2026-01-23 12:05:16.30	296.22	13.66	-41.3	-43.6	19.2	0.00e+00	0	38	0	590348288	54	4613
2026-01-23 12:05:17.29	296.41	13.63	-41.5	-43.8	19.0	0.00e+00	0	38	0	592445440	54	4748
2026-01-23 12:05:18.29	296.60	13.60	-41.6	-43.9	18.9	0.00e+00	0	38	0	593494016	54	4801
2026-01-23 12:05:19.28	296.79	13.57	-41.7	-44.0	18.8	0.00e+00	0	38	0	595591168	54	4830
2026-01-23 12:05:20.28	296.98	13.53	-41.6	-43.9	18.9	0.00e+00	0	38	0	597688320	54	4789
2026-01-23 12:05:21.27	297.17	13.50	-41.6	-43.9	18.9	0.00e+00	0	38	0	599785472	54	4789
2026-01-23 12:05:22.26	297.36	13.47	-41.7	-44.0	18.8	0.00e+00	0	38	0	601882624	54	4859
2026-01-23 12:05:23.26	297.55	13.43	-41.7	-44.0	18.8	0.00e+00	0	38	0	602931200	54	4852
2026-01-23 12:05:24.25	297.74	13.40	-41.8	-44.1	18.7	0.00e+00	0	38	0	605028352	54	4915
2026-01-23 12:05:25.25	297.92	13.36	-41.9	-44.2	18.6	0.00e+00	0	38	0	607125504	54	4982
2026-01-23 12:05:26.24	298.11	13.33	-42.0	-44.4	18.4	0.00e+00	0	38	0	609222656	54	5053
2026-01-23 12:05:27.24	298.30	13.30	-42.1	-44.6	18.3	0.00e+00	0	38	0	610271232	54	5176
2026-01-23 12:05:28.23	298.48	13.26	-42.1	-44.5	18.3	0.00e+00	0	38	0	612368384	55	4849
2026-01-23 12:05:29.23	298.67	13.23	-42.1	-44.5	18.3	0.00e+00	0	38	0	614465536	55	4844
2026-01-23 12:05:30.22	298.86	13.19	-42.0	-44.4	18.4	0.00e+00	0	38	0	616562688	55	4805
2026-01-23 12:05:31.22	299.04	13.16	-41.8	-44.1	18.7	0.00e+00	0	38	0	618659840	55	4629
2026-01-23 12:05:32.21	299.22	13.12	-41.9	-44.3	18.5	0.00e+00	0	38	0	619708416	55	4741
2026-01-23 12:05:33.21	299.41	13.08	-42.0	-44.3	18.4	0.00e+00	0	38	0	621805568	55	4753
2026-01-23 12:05:34.20	299.59	13.05	-42.0	-44.4	18.4	0.00e+00	0	38	0	623902720	55	4814
2026-01-23 12:05:35.20	299.78	13.01	-42.1	-44.6	18.2	0.00e+00	0	38	0	625999872	55	4891
2026-01-23 12:05:36.19	299.96	12.97	-42.2	-44.6	18.2	0.00e+00	0	38	0	627048448	55	4916
2026-01-23 12:05:37.19	300.14	12.94	-42.3	-44.8	18.1	0.00e+00	0	39	0	629145600	55	4996
2026-01-23 12:05:38.18	300.32	12.90	-42.4	-44.9	18.0	0.00e+00	0	38	0	631242752	55	5062
2026-01-23 12:05:39.18	300.51	12.86	-42.4	-44.9	17.9	0.00e+00	0	38	0	633339904	55	5086
2026-01-23 12:05:40.17	300.69	12.83	-42.3	-44.7	18.1	0.00e+00	0	38	0	635437056	55	4959
2026-01-23 12:05:41.17	300.87	12.79	-42.3	-44.8	18.1	0.00e+00	0	38	0	636485632	55	4991
2026-01-23 12:05:42.16	301.05	12.75	-42.4	-44.9	18.0	0.00e+00	0	38	0	638582784	55	5056
2026-01-23 12:05:43.15	301.23	12.71	-42.4	-44.9	17.9	0.00e+00	0	38	0	640679936	55	5086
2026-01-23 12:05:44.15	301.41	12.67	-42.6	-45.2	17.7	0.00e+00	0	38	0	642777088	55	5256
2026-01-23 12:05:45.15	301.58	12.64	-42.9	-45.5	17.5	0.00e+00	0	38	0	643825664	56	5128
2026-01-23 12:05:46.14	301.76	12.60	-42.9	-45.6	17.5	0.00e+00	0	38	0	645922816	56	5165
2026-01-23 12:05:47.14	301.94	12.56	-43.3	-46.0	17.1	0.00e+00	0	38	0	648019968	57	5134
2026-01-23 12:05:48.13	302.12	12.52	-43.3	-46.0	17.1	0.00e+00	0	38	0	650117120	57	5114
2026-01-23 12:05:49.13	302.30	12.48	-43.1	-45.8	17.1	0.00e+00	0	38	0	652214272	57	5033
2026-01-23 12:05:50.12	302.47	12.44	-43.1	-45.8	17.2	0.00e+00	0	38	0	653262848	57	5021
2026-01-23 12:05:51.12	302.65	12.40	-43.1	-45.8	17.2	0.00e+00	0	38	0	655360000	57	5024
2026-01-23 12:05:52.11	302.82	12.36	-43.2	-45.9	17.2	0.00e+00	0	38	0	657457152	57	5062
2026-01-23 12:05:53.10	303.00	12.32	-43.0	-45.7	17.4	0.00e+00	0	38	0	659554304	57	4954
2026-01-23 12:05:54.10	303.17	12.28	-43.1	-45.8	17.3	0.00e+00	0	38	0	660602880	57	4992
2026-01-23 12:05:55.09	303.35	12.24	-43.1	-45.8	17.2	0.00e+00	0	38	0	662700032	57	5033
2026-01-23 12:05:56.09	303.52	12.20	-43.3	-46.1	17.0	0.00e+00	0	38	0	664797184	57	5188
2026-01-23 12:05:57.08	303.69	12.16	-43.6	-46.5	16.7	0.00e+00	0	38	0	666894336	57	5408
2026-01-23 12:05:58.08	303.87	12.12	-43.8	-46.8	16.3	0.00e+00	0	38	0	668991488	58	5308
2026-01-23 12:05:59.07	304.04	12.08	-44.0	-47.1	16.0	0.00e+00	0	38	0	670040064	58	5507
2026-01-23 12:06:00.06	304.21	12.04	-44.2	-47.3	15.8	0.00e+00	0	38	0	672137216	59	5321
2026-01-23 12:06:01.06	304.38	12.00	-44.1	-47.2	15.9	0.00e+00	0	38	0	674234368	59	5244
2026-01-23 12:06:02.05	304.55	11.96	-44.1	-47.2	15.9	0.00e+00	0	38	0	676331520	59	5259
2026-01-23 12:06:03.05	304.72	11.91	-44.1	-47.1	15.9	0.00e+00	0	38	0	677380096	59	5213
2026-01-23 12:06:04.05	304.89	11.87	-44.1	-47.1	16.0	0.00e+00	0	38	0	679477248	59	5197
2026-01-23 12:06:05.04	305.06	11.83	-44.1	-47.1	16.0	0.00e+00	0	38	0	681574400	59	5217
2026-01-23 12:06:06.04	305.23	11.79	-44.3	-47.4	15.7	0.00e+00	0	38	0	683671552	59	5368
2026-01-23 12:06:07.03	305.40	11.75	-44.4	-47.5	15.6	0.00e+00	0	38	0	685768704	59	5449
2026-01-23 12:06:08.03	305.57	11.70	-44.4	-47.6	15.5	0.00e+00	0	38	0	686817280	59	5476
2026-01-23 12:06:09.02	305.73	11.66	-44.4	-47.6	15.5	0.00e+00	0	38	0	688914432	59	5492
2026-01-23 12:06:10.02	305.90	11.62	-44.5	-47.8	15.3	0.00e+00	0	38	0	691011584	59	5608
2026-01-23 12:06:11.01	306.07	11.58	-44.2	-47.3	15.7	0.00e+00	0	38	0	693108736	59	5328
2026-01-23 12:06:12.01	306.24	11.53	-43.9	-47.0	16.1	0.00e+00	0	38	0	694157312	59	5102
2026-01-23 12:06:13.00	306.40	11.49	-43.8	-46.7	16.3	0.00e+00	0	38	0	696254464	59	4962
2026-01-23 12:06:14.00	306.57	11.45	-43.5	-46.3	16.7	0.00e+00	0	38	0	698351616	59	4740
2026-01-23 12:06:14.99	306.73	11.40	-43.5	-46.3	16.8	0.00e+00	0	38	0	700448768	58	4992
2026-01-23 12:06:15.99	306.90	11.36	-43.6	-46.4	16.6	0.00e+00	0	38	0	702545920	58	5087
2026-01-23 12:06:16.98	307.06	11.32	-43.8	-46.7	16.4	0.00e+00	0	38	0	703594496	58	5224
2026-01-23 12:06:17.98	307.22	11.27	-43.9	-46.8	16.3	0.00e+00	0	38	0	705691648	58	5307
2026-01-23 12:06:18.97	307.38	11.23	-44.1	-47.2	15.9	0.00e+00	0	38	0	707788800	58	5532
2026-01-23 12:06:19.96	307.55	11.19	-44.3	-47.4	15.7	0.00e+00	0	38	0	709885952	59	5398
2026-01-23 12:06:20.96	307.71	11.14	-44.5	-47.7	15.4	0.00e+00	0	38	0	710934528	59	5555
2026-01-23 12:06:21.95	307.87	11.10	-44.6	-47.9	15.2	0.00e+00	0	38	0	713031680	59	5692
2026-01-23 12:06:22.95	308.03	11.05	-44.6	-48.0	15.1	0.00e+00	0	38	0	715128832	59	5766
2026-01-23 12:06:23.94	308.19	11.01	-44.6	-48.0	15.1	0.00e+00	0	38	0	717225984	60	5430
2026-01-23 12:06:24.93	308.35	10.97	-44.6	-48.0	15.1	0.00e+00	0	38	0	719323136	60	5411
2026-01-23 12:06:25.93	308.51	10.92	-44.5	-47.8	15.3	7.00e-07	0	38	0	720371712	60	5338
2026-01-23 12:06:26.92	308.67	10.88	-44.6	-48.0	15.1	0.00e+00	0	38	0	722468864	60	5459
2026-01-23 12:06:27.92	308.83	10.83	-44.6	-48.1	15.1	0.00e+00	0	38	0	724566016	60	5474
2026-01-23 12:06:28.91	308.98	10.79	-44.7	-48.2	14.9	0.00e+00	0	38	0	726663168	60	5575
2026-01-23 12:06:29.91	309.14	10.74	-44.5	-47.9	15.2	0.00e+00	0	38	0	727711744	60	5398
2026-01-23 12:06:30.90	309.30	10.70	-44.6	-48.1	15.0	0.00e+00	0	38	0	729808896	60	5493
2026-01-23 12:06:31.90	309.46	10.65	-44.4	-47.8	15.3	0.00e+00	0	38	0	731906048	60	5284
2026-01-23 12:06:32.90	309.61	10.61	-44.2	-47.5	15.6	0.00e+00	0	38	0	734003200	60	5106
2026-01-23 12:06:33.89	309.77	10.56	-44.2	-47.5	15.5	0.00e+00	0	38	0	736100352	60	5159
2026-01-23 12:06:34.89	309.93	10.51	-44.2	-47.4	15.6	0.00e+00	0	38	0	737148928	60	5096
2026-01-23 12:06:35.88	310.08	10.47	-44.2	-47.5	15.6	0.00e+00	0	38	0	739246080	60	5127
2026-01-23 12:06:36.88	310.23	10.42	-44.2	-47.5	15.5	0.00e+00	0	38	0	741343232	60	5153
2026-01-23 12:06:37.87	310.39	10.38	-44.3	-47.5	15.5	0.00e+00	0	38	0	743440384	60	5146
2026-01-23 12:06:38.87	310.54	10.33	-44.4	-47.7	15.4	0.00e+00	0	38	0	744488960	60	5278
2026-01-23 12:06:39.87	310.70	10.29	-44.4	-47.7	15.4	0.00e+00	0	38	0	746586112	60	5279
2026-01-23 12:06:40.86	310.85	10.24	-44.3	-47.5	15.5	0.00e+00	0	38	0	748683264	60	5159
2026-01-23 12:06:41.86	311.00	10.19	-44.2	-47.3	15.7	0.00e+00	0	38	0	750780416	60	5034
2026-01-23 12:06:42.85	311.15	10.15	-44.1	-47.2	15.8	0.00e+00	0	38	0	752877568	59	5258
2026-01-23 12:06:43.85	311.30	10.10	-43.8	-46.9	16.1	0.00e+00	0	38	0	753926144	59	5052
2026-01-23 12:06:44.84	311.45	10.05	-43.6	-46.5	16.5	0.00e+00	0	38	0	756023296	59	4842
2026-01-23 12:06:45.83	311.60	10.01	-43.7	-46.7	16.3	0.00e+00	0	38	0	758120448	59	4976
2026-01-23 12:06:46.83	311.75	9.96	-43.7	-46.6	16.4	0.00e+00	0	38	0	760217600	59	4925
2026-01-23 12:06:47.82	311.90	9.91	-43.7	-46.8	16.2	0.00e+00	0	38	0	761266176	59	5005
2026-01-23 12:06:48.82	312.05	9.87	-44.1	-47.2	15.8	0.00e+00	0	38	0	763363328	59	5276
2026-01-23 12:06:49.81	312.20	9.82	-44.1	-47.3	15.7	0.00e+00	0	38	0	765460480	59	5332
2026-01-23 12:06:50.80	312.34	9.77	-44.2	-47.5	15.6	0.00e+00	0	38	0	767557632	59	5431
2026-01-23 12:06:51.80	312.49	9.73	-44.3	-47.7	15.3	0.00e+00	0	38	0	769654784	59	5571
2026-01-23 12:06:52.79	312.64	9.68	-44.4	-47.9	15.2	0.00e+00	0	38	0	770703360	59	5685
2026-01-23 12:06:53.79	312.79	9.63	-44.6	-48.2	14.9	0.00e+00	0	38	0	772800512	59	5856
2026-01-23 12:06:54.78	312.93	9.59	-44.6	-48.2	14.8	7.00e-07	0	38	0	774897664	59	5895
2026-01-23 12:06:55.78	313.08	9.54	-44.7	-48.3	14.8	7.00e-07	0	38	0	776994816	59	5933
2026-01-23 12:06:56.77	313.22	9.49	-44.7	-48.3	14.7	0.00e+00	0	38	0	778043392	60	5602
2026-01-23 12:06:57.77	313.37	9.44	-44.5	-47.9	15.0	0.00e+00	0	38	0	780140544	60	5398
2026-01-23 12:06:58.76	313.51	9.40	-44.4	-47.9	15.2	0.00e+00	0	38	0	782237696	60	5352
2026-01-23 12:06:59.76	313.65	9.35	-44.2	-47.4	15.6	0.00e+00	0	38	0	784334848	60	5084
2026-01-23 12:07:00.75	313.80	9.30	-44.2	-47.5	15.6	0.00e+00	0	38	0	786432000	60	5134
2026-01-23 12:07:01.75	313.94	9.25	-44.2	-47.4	15.6	0.00e+00	0	38	0	787480576	60	5066
2026-01-23 12:07:02.74	314.08	9.21	-43.9	-47.0	16.0	0.00e+00	0	38	0	789577728	59	5126
2026-01-23 12:07:03.74	314.23	9.16	-43.9	-46.9	16.1	0.00e+00	0	38	0	791674880	59	5082
2026-01-23 12:07:04.73	314.37	9.11	-43.9	-47.0	16.0	0.00e+00	0	38	0	793772032	59	5124
2026-01-23 12:07:05.72	314.51	9.06	-43.8	-46.8	16.2	0.00e+00	0	38	0	795869184	59	4997
2026-01-23 12:07:06.72	314.65	9.01	-43.7	-46.7	16.3	0.00e+00	0	38	0	796917760	59	4929
2026-01-23 12:07:07.71	314.79	8.97	-46.5	-51.5	12.3	0.00e+00	0	38	0	799014912	63	6841
2026-01-23 12:07:08.71	314.93	8.92	-49.0	-64.4	3.8	1.49e+00	0	38	104	799014912	68	22710
2026-01-23 12:07:09.70	315.07	8.87	-49.1	-64.7	3.8	1.49e+00	0	38	104	799014912	69	22046
2026-01-23 12:07:10.69	315.20	8.82	-49.5	-64.8	3.8	1.49e+00	0	38	104	799014912	69	22350
2026-01-23 12:07:11.69	315.34	8.77	-49.5	-64.9	3.8	1.49e+00	0	38	104	799014912	69	22640
2026-01-23 12:07:12.68	315.48	8.73	-49.8	-64.9	3.8	1.49e+00	0	38	104	799014912	70	21494
2026-01-23 12:07:13.67	315.62	8.68	-49.6	-65.0	3.8	1.49e+00	0	38	104	799014912	70	21568
2026-01-23 12:07:14.67	315.75	8.63	-49.6	-65.0	3.8	1.49e+00	0	38	104	799014912	70	21629
2026-01-23 12:07:15.66	315.89	8.58	-49.7	-65.0	3.8	1.49e+00	0	38	104	799014912	70	21748
2026-01-23 12:07:16.65	316.03	8.53	-49.6	-65.0	3.8	1.49e+00	0	38	104	799014912	70	21725
2026-01-23 12:07:17.65	316.16	8.48	-49.8	-65.0	3.8	1.49e+00	0	38	104	799014912	70	21669
2026-01-23 12:07:18.64	316.30	8.44	-49.6	-65.0	3.8	1.49e+00	0	38	104	799014912	70	21722
2026-01-23 12:07:19.63	316.43	8.39	-49.7	-65.0	3.8	1.49e+00	0	38	104	799014912	70	21680
2026-01-23 12:07:20.63	316.57	8.34	-49.9	-65.0	3.8	1.49e+00	0	38	104	799014912	70	21710
2026-01-23 12:07:21.62	316.70	8.29	-49.8	-65.0	3.8	1.49e+00	0	38	104	799014912	70	21740
2026-01-23 12:07:22.61	316.83	8.24	-49.8	-65.1	3.8	1.49e+00	0	38	104	799014912	70	21759
2026-01-23 12:07:23.60	316.96	8.19	-49.8	-65.0	3.8	1.49e+00	0	38	104	799014912	70	21666
2026-01-23 12:07:24.60	317.10	8.14	-49.8	-65.0	3.8	1.49e+00	0	38	104	799014912	70	21675
2026-01-23 12:07:25.59	317.23	8.10	-49.8	-65.0	3.8	1.49e+00	0	38	104	799014912	70	21667
2026-01-23 12:07:26.58	317.36	8.05	-49.7	-65.0	3.8	1.49e+00	0	38	104	799014912	70	21687
2026-01-23 12:07:27.57	317.49	8.00	-49.6	-65.0	3.8	1.49e+00	0	38	104	799014912	70	21586
2026-01-23 12:07:28.57	317.62	7.95	-49.6	-65.0	3.8	1.49e+00	0	38	104	799014912	70	21562
2026-01-23 12:07:29.56	317.75	7.90	-49.6	-65.0	3.8	1.49e+00	0	38	104	799014912	70	21560
2026-01-23 12:07:30.55	317.88	7.85	-49.6	-65.0	3.8	1.49e+00	0	38	104	799014912	70	21510
2026-01-23 12:07:31.55	318.01	7.80	-49.6	-65.0	3.8	1.49e+00	0	38	104	799014912	70	21545
2026-01-23 12:07:32.54	318.14	7.75	-49.6	-65.0	3.8	1.49e+00	0	38	104	799014912	70	21525
2026-01-23 12:07:33.54	318.27	7.70	-49.6	-64.9	3.8	1.49e+00	0	38	104	799014912	70	21483
2026-01-23 12:07:34.53	318.40	7.66	-49.6	-65.0	3.8	1.49e+00	0	38	104	799014912	70	21529
2026-01-23 12:07:35.52	318.53	7.61	-49.6	-65.0	3.8	1.49e+00	0	38	104	799014912	70	21617
2026-01-23 12:07:36.51	318.65	7.56	-49.6	-64.9	3.8	1.49e+00	0	38	104	799014912	70	21429
2026-01-23 12:07:37.51	318.78	7.51	-49.6	-65.0	3.8	1.49e+00	0	38	104	799014912	70	21528
2026-01-23 12:07:38.50	318.91	7.46	-49.6	-64.9	3.8	1.49e+00	0	38	104	799014912	70	21498
2026-01-23 12:07:39.49	319.03	7.41	-49.5	-64.9	3.8	1.49e+00	0	38	104	799014912	70	21447
2026-01-23 12:07:40.49	319.16	7.36	-49.6	-64.9	3.8	1.49e+00	0	38	104	799014912	70	21468
2026-01-23 12:07:41.48	319.28	7.31	-49.5	-64.9	3.8	1.49e+00	0	38	104	799014912	70	21467
2026-01-23 12:07:42.47	319.41	7.26	-49.6	-64.9	3.8	1.49e+00	0	38	104	799014912	70	21457
2026-01-23 12:07:43.46	319.53	7.21	-49.5	-64.9	3.8	1.49e+00	0	38	104	799014912	70	21429
2026-01-23 12:07:44.46	319.66	7.17	-49.6	-64.9	3.8	1.49e+00	0	38	104	799014912	70	21470
2026-01-23 12:07:45.45	319.78	7.12	-49.5	-64.9	3.8	1.49e+00	0	38	104	799014912	70	21451
2026-01-23 12:07:46.44	319.90	7.07	-49.5	-64.9	3.8	1.49e+00	0	38	104	799014912	70	21436
2026-01-23 12:07:47.44	320.03	7.02	-49.6	-64.9	3.8	1.49e+00	0	38	104	799014912	70	21407
2026-01-23 12:07:48.43	320.15	6.97	-49.5	-64.9	3.8	1.49e+00	0	38	104	799014912	70	21400
2026-01-23 12:07:49.42	320.27	6.92	-49.6	-64.9	3.8	1.49e+00	0	38	104	799014912	70	21352
2026-01-23 12:07:50.42	320.39	6.87	-49.6	-64.9	3.8	1.49e+00	0	38	104	799014912	70	21459
2026-01-23 12:07:51.41	320.51	6.82	-49.5	-64.9	3.8	1.49e+00	0	38	104	799014912	70	21484
2026-01-23 12:07:52.40	320.63	6.77	-49.5	-64.9	3.8	1.49e+00	0	38	104	799014912	70	21389
2026-01-23 12:07:53.39	320.75	6.72	-49.5	-65.0	3.8	1.49e+00	0	38	104	799014912	70	21510
2026-01-23 12:07:54.39	320.88	6.67	-49.5	-64.9	3.8	1.49e+00	0	38	104	799014912	70	21421
2026-01-23 12:07:55.38	320.99	6.62	-49.5	-64.9	3.8	1.49e+00	0	38	104	799014912	70	21462
2026-01-23 12:07:56.37	321.11	6.57	-49.5	-64.9	3.8	1.49e+00	0	38	104	799014912	70	21379
2026-01-23 12:07:57.36	321.23	6.53	-49.5	-64.9	3.8	1.49e+00	0	38	104	799014912	70	21397
2026-01-23 12:07:58.36	321.35	6.48	-49.5	-64.9	3.8	1.49e+00	0	38	104	799014912	70	21379
2026-01-23 12:07:59.35	321.47	6.43	-49.5	-64.9	3.8	1.49e+00	0	38	104	799014912	70	21463
2026-01-23 12:08:00.34	321.59	6.38	-49.5	-64.9	3.8	1.49e+00	0	38	104	799014912	70	21397
2026-01-23 12:08:01.34	321.70	6.33	-49.5	-64.9	3.8	1.49e+00	0	38	104	799014912	70	21420
2026-01-23 12:08:02.33	321.82	6.28	-49.5	-64.9	3.8	1.49e+00	0	38	104	799014912	70	21293
2026-01-23 12:08:03.32	321.94	6.23	-49.5	-64.9	3.8	1.49e+00	0	38	104	799014912	70	21440
2026-01-23 12:08:04.32	322.05	6.18	-49.5	-64.9	3.8	1.49e+00	0	38	104	799014912	70	21416
2026-01-23 12:08:05.31	322.17	6.13	-49.5	-64.9	3.8	1.49e+00	0	38	104	799014912	70	21406
2026-01-23 12:08:06.30	322.29	6.08	-49.5	-64.9	3.8	1.49e+00	0	38	104	799014912	70	21441
2026-01-23 12:08:07.30	322.40	6.03	-49.5	-64.9	3.8	1.49e+00	0	38	104	799014912	70	21401
2026-01-23 12:08:08.29	322.52	5.98	-49.5	-65.0	3.8	1.49e+00	0	38	104	799014912	70	21513
2026-01-23 12:08:09.28	322.63	5.93	-49.5	-64.9	3.8	1.49e+00	0	38	104	799014912	70	21337
2026-01-23 12:08:10.28	322.74	5.88	-49.5	-64.9	3.8	1.49e+00	0	38	104	799014912	70	21389
2026-01-23 12:08:11.27	322.86	5.83	-49.5	-64.9	3.8	1.49e+00	0	38	104	799014912	70	21440
2026-01-23 12:08:12.26	322.97	5.79	-49.5	-64.9	3.8	1.49e+00	0	38	104	799014912	70	21411
2026-01-23 12:08:13.26	323.08	5.74	-49.5	-64.9	3.8	1.49e+00	0	38	104	799014912	70	21413
2026-01-23 12:08:14.25	323.20	5.69	-49.5	-64.9	3.8	1.49e+00	0	38	104	799014912	70	21404
2026-01-23 12:08:15.24	323.31	5.64	-49.5	-64.9	3.8	1.49e+00	0	38	104	799014912	70	21435
2026-01-23 12:08:16.24	323.42	5.59	-49.5	-64.9	3.8	1.49e+00	0	38	104	799014912	70	21353
2026-01-23 12:08:17.23	323.53	5.54	-49.5	-64.9	3.8	1.49e+00	0	38	104	799014912	70	21406
2026-01-23 12:08:18.22	323.64	5.49	-49.5	-64.9	3.8	1.49e+00	0	38	104	799014912	70	21385
2026-01-23 12:08:19.22	323.75	5.44	-49.5	-64.9	3.8	1.49e+00	0	38	104	799014912	70	21413
2026-01-23 12:08:20.21	323.86	5.39	-49.5	-64.9	3.8	1.49e+00	0	38	104	799014912	70	21382
2026-01-23 12:08:21.20	323.97	5.34	-49.5	-64.9	3.8	1.49e+00	0	38	104	799014912	70	21430
2026-01-23 12:08:22.20	324.08	5.29	-49.5	-64.9	3.8	1.49e+00	0	38	104	799014912	70	21425
2026-01-23 12:08:23.19	324.19	5.24	-49.5	-64.9	3.8	1.49e+00	0	38	104	799014912	70	21386
2026-01-23 12:08:24.18	324.30	5.19	-49.5	-64.9	3.8	1.49e+00	0	38	104	799014912	70	21373
2026-01-23 12:08:25.17	324.41	5.14	-49.5	-64.9	3.8	1.49e+00	0	38	104	799014912	70	21333
2026-01-23 12:08:26.17	324.52	5.10	-49.5	-64.9	3.8	1.49e+00	0	38	104	799014912	70	21413
2026-01-23 12:08:27.16	324.63	5.05	-49.5	-64.9	3.8	1.49e+00	0	38	104	799014912	70	21322
2026-01-23 12:08:28.15	324.73	5.00	-49.5	-64.9	3.8	1.49e+00	0	38	104	799014912	70	21311

#Closed at: 2026-01-23 12:08:29
#Recorded file [799 MB]: D:/Data/31040_260123_145853.dat