passes_logs/2026/01/23/T1/T1__20260123_085655_NOAA_20_JPSS-1_rec.log

#Pass ID: 20260123_085655_NOAA 20 (JPSS-1)
#Satellite: NOAA 20 (JPSS-1)
#Configuration: NOAA 20
#almurnet v.1.7.20251203
#Start time: 2026-01-23 08:56:56

#Version: 2.0.20230620
#Station: T1
#Location: 37.570604 lon 55.790049 lat
#TLE: 1 43013U 17073A   26022.44900781  .00000193  00000+0  11233-3 0  9999
#TLE: 2 43013  98.7645 323.3100 0001197  28.8413 331.2829 14.19538802423792

#Time	Az	El	Level	Level2	SNR	BER	BlckErr	Temp	State	Recorded	gain1	gain2
2026-01-23 08:56:56.12	129.43	5.03	-48.9	-64.1	3.8	1.49e+00	0	35	0	0	69	20606
2026-01-23 08:56:57.12	129.38	5.10	-48.9	-64.0	3.8	1.49e+00	0	36	104	0	69	20496
2026-01-23 08:56:58.12	129.33	5.17	-48.9	-64.1	3.8	1.49e+00	0	36	104	0	69	20577
2026-01-23 08:56:59.12	129.28	5.23	-48.9	-64.1	3.8	1.49e+00	0	36	104	0	69	20573
2026-01-23 08:57:00.13	129.23	5.30	-48.9	-64.0	3.8	1.49e+00	0	35	104	0	69	20515
2026-01-23 08:57:01.13	129.17	5.37	-48.9	-64.1	3.8	1.49e+00	0	36	104	0	69	20583
2026-01-23 08:57:02.13	129.12	5.44	-48.9	-64.1	3.8	1.49e+00	0	36	104	0	69	20595
2026-01-23 08:57:03.13	129.07	5.51	-48.9	-64.1	3.8	1.49e+00	0	36	104	0	69	20658
2026-01-23 08:57:04.13	129.02	5.58	-48.9	-64.1	3.8	1.49e+00	0	36	104	0	69	20698
2026-01-23 08:57:05.14	128.96	5.65	-48.9	-64.1	3.8	1.49e+00	0	36	104	0	69	20678
2026-01-23 08:57:06.14	128.91	5.72	-48.9	-64.2	3.8	1.49e+00	0	36	104	0	69	20810
2026-01-23 08:57:07.14	128.86	5.79	-48.9	-64.1	3.8	1.49e+00	0	36	104	0	69	20755
2026-01-23 08:57:08.14	128.81	5.86	-48.9	-64.1	3.8	1.49e+00	0	36	104	0	69	20770
2026-01-23 08:57:09.14	128.75	5.93	-48.9	-64.1	3.8	1.49e+00	0	36	104	0	69	20709
2026-01-23 08:57:10.14	128.70	6.00	-48.9	-64.2	3.8	1.49e+00	0	36	104	0	69	20815
2026-01-23 08:57:11.14	128.64	6.07	-48.9	-64.1	3.8	1.49e+00	0	36	104	0	69	20740
2026-01-23 08:57:12.15	128.59	6.14	-48.9	-64.1	3.8	1.49e+00	0	36	104	0	69	20707
2026-01-23 08:57:13.15	128.53	6.21	-48.9	-64.1	3.8	1.49e+00	0	36	104	0	69	20608
2026-01-23 08:57:14.15	128.48	6.28	-48.9	-64.0	3.8	1.49e+00	0	36	104	0	69	20482
2026-01-23 08:57:15.15	128.42	6.35	-48.9	-63.9	3.8	1.49e+00	0	36	104	0	69	20302
2026-01-23 08:57:16.16	128.37	6.42	-48.9	-63.9	3.8	1.49e+00	0	36	104	0	69	20238
2026-01-23 08:57:17.16	128.31	6.49	-48.9	-63.9	3.8	1.49e+00	0	36	104	0	69	20084
2026-01-23 08:57:18.16	128.26	6.56	-48.9	-63.8	3.8	1.49e+00	0	36	104	0	69	19978
2026-01-23 08:57:19.16	128.20	6.64	-48.9	-63.8	3.8	1.49e+00	0	36	104	0	69	19889
2026-01-23 08:57:20.16	128.14	6.71	-48.9	-63.8	3.8	1.49e+00	0	36	104	0	69	19938
2026-01-23 08:57:21.16	128.09	6.78	-48.9	-63.8	3.8	1.49e+00	0	36	104	0	69	20060
2026-01-23 08:57:22.17	128.03	6.85	-48.9	-64.0	3.8	1.49e+00	0	36	104	0	69	20360
2026-01-23 08:57:23.17	127.97	6.92	-48.9	-64.1	3.8	1.49e+00	0	36	104	0	69	20677
2026-01-23 08:57:24.17	127.91	7.00	-48.9	-64.1	3.8	1.49e+00	0	36	104	0	69	20766
2026-01-23 08:57:25.17	127.85	7.07	-48.9	-64.0	3.8	1.49e+00	0	36	104	0	69	20472
2026-01-23 08:57:26.17	127.80	7.14	-48.9	-63.8	3.8	1.49e+00	0	36	104	0	69	20067
2026-01-23 08:57:27.17	127.74	7.21	-48.9	-63.5	3.8	1.49e+00	0	37	104	0	69	19188
2026-01-23 08:57:28.18	127.68	7.29	-48.8	-63.0	3.8	1.49e+00	0	37	104	0	69	18245
2026-01-23 08:57:29.18	127.62	7.36	-48.8	-62.7	3.8	1.49e+00	0	36	104	0	69	17520
2026-01-23 08:57:30.18	127.56	7.43	-48.8	-62.2	3.8	1.49e+00	0	37	104	0	69	16619
2026-01-23 08:57:31.19	127.50	7.51	-48.7	-61.8	3.8	1.49e+00	0	37	104	0	69	15770
2026-01-23 08:57:32.19	127.44	7.58	-48.7	-61.0	3.9	1.47e+00	0	37	104	0	69	14510
2026-01-23 08:57:33.19	127.38	7.66	-48.6	-59.7	4.5	1.37e+00	0	37	0	0	69	12495
2026-01-23 08:57:34.19	127.31	7.73	-48.4	-58.2	5.2	7.18e-01	0	37	0	2097152	68	11134
2026-01-23 08:57:35.20	127.25	7.81	-48.0	-56.3	6.6	3.39e-01	0	37	0	4194304	68	8867
2026-01-23 08:57:36.20	127.19	7.88	-47.4	-54.2	8.4	1.14e-01	0	37	0	5242880	66	7865
2026-01-23 08:57:37.20	127.13	7.95	-46.8	-52.5	10.1	1.07e-02	0	37	0	7340032	65	6828
2026-01-23 08:57:38.21	127.07	8.03	-46.2	-50.9	11.8	1.26e-03	0	37	0	9437184	64	6047
2026-01-23 08:57:39.21	127.00	8.11	-45.5	-49.6	13.3	6.33e-05	0	37	0	11534336	63	5472
2026-01-23 08:57:40.21	126.94	8.18	-45.0	-48.7	14.2	9.10e-06	0	37	0	13631488	62	5231
2026-01-23 08:57:41.22	126.88	8.26	-44.5	-47.9	15.0	7.00e-07	0	37	0	14680064	61	5062
2026-01-23 08:57:42.22	126.81	8.33	-44.4	-47.6	15.3	0.00e+00	0	37	0	16777216	60	5210
2026-01-23 08:57:43.22	126.75	8.41	-44.3	-47.6	15.3	0.00e+00	0	37	0	18874368	60	5174
2026-01-23 08:57:44.22	126.68	8.48	-44.5	-47.9	15.1	0.00e+00	0	37	0	20971520	60	5346
2026-01-23 08:57:45.22	126.62	8.56	-44.8	-48.4	14.5	0.00e+00	0	37	0	23068672	60	5701
2026-01-23 08:57:46.23	126.55	8.64	-45.3	-49.2	13.7	7.00e-07	0	37	0	24117248	61	5886
2026-01-23 08:57:47.23	126.49	8.71	-45.8	-50.2	12.7	3.89e-05	0	37	0	26214400	62	6262
2026-01-23 08:57:48.23	126.42	8.79	-46.4	-51.4	11.4	4.81e-04	0	37	0	28311552	63	6778
2026-01-23 08:57:49.23	126.36	8.87	-46.8	-52.6	10.1	2.82e-03	0	37	0	30408704	64	7310
2026-01-23 08:57:50.24	126.29	8.95	-47.3	-54.0	8.6	1.41e-02	0	37	0	32505856	65	8142
2026-01-23 08:57:51.24	126.22	9.02	-47.6	-55.0	7.6	1.02e-01	0	37	0	33554432	66	8567
2026-01-23 08:57:52.24	126.16	9.10	-45.4	-49.4	13.5	3.12e-05	0	37	0	35651584	62	5666
2026-01-23 08:57:53.25	126.09	9.18	-45.6	-49.7	13.3	3.00e-06	0	37	0	37748736	62	5882
2026-01-23 08:57:54.25	126.02	9.26	-48.5	-61.1	3.9	1.46e+00	0	37	104	38797312	67	16402
2026-01-23 08:57:55.25	125.95	9.34	-46.1	-50.6	12.1	1.62e-03	0	37	0	39845888	64	5809
2026-01-23 08:57:56.25	125.88	9.41	-45.9	-50.3	12.5	1.90e-05	0	37	0	41943040	62	6345
2026-01-23 08:57:57.25	125.81	9.49	-45.3	-49.2	13.8	7.60e-06	0	37	0	42991616	62	5532
2026-01-23 08:57:58.26	125.74	9.57	-45.1	-48.9	14.1	1.50e-06	0	37	0	45088768	62	5359
2026-01-23 08:57:59.26	125.67	9.65	-44.7	-48.2	14.7	0.00e+00	0	37	0	47185920	61	5276
2026-01-23 08:58:00.26	125.60	9.73	-44.5	-47.8	15.1	0.00e+00	0	37	0	49283072	61	5037
2026-01-23 08:58:01.27	125.53	9.81	-44.3	-47.6	15.4	0.00e+00	0	37	0	50331648	60	5193
2026-01-23 08:58:02.27	125.46	9.89	-44.1	-47.3	15.7	0.00e+00	0	37	0	52428800	60	5032
2026-01-23 08:58:03.27	125.39	9.97	-44.1	-47.2	15.8	0.00e+00	0	37	0	54525952	60	4970
2026-01-23 08:58:04.27	125.32	10.05	-44.1	-47.3	15.8	0.00e+00	0	37	0	56623104	60	4990
2026-01-23 08:58:05.27	125.24	10.13	-44.0	-47.1	15.9	0.00e+00	0	37	0	58720256	60	4902
2026-01-23 08:58:06.27	125.17	10.21	-43.8	-46.8	16.2	0.00e+00	0	37	0	59768832	59	5011
2026-01-23 08:58:07.26	125.10	10.29	-43.6	-46.5	16.5	0.00e+00	0	37	0	61865984	59	4854
2026-01-23 08:58:08.26	125.03	10.37	-43.7	-46.5	16.5	0.00e+00	0	37	0	63963136	59	4866
2026-01-23 08:58:09.26	124.95	10.45	-43.7	-46.7	16.3	0.00e+00	0	37	0	66060288	59	4934
2026-01-23 08:58:10.26	124.88	10.54	-43.9	-46.8	16.2	0.00e+00	0	37	0	68157440	59	5028
2026-01-23 08:58:11.26	124.80	10.62	-43.9	-46.9	16.1	0.00e+00	0	37	0	69206016	59	5066
2026-01-23 08:58:12.25	124.73	10.70	-43.9	-47.0	16.1	0.00e+00	0	37	0	71303168	59	5105
2026-01-23 08:58:13.25	124.65	10.78	-44.0	-47.0	16.0	0.00e+00	0	37	0	73400320	59	5124
2026-01-23 08:58:14.25	124.58	10.86	-44.0	-47.0	16.1	0.00e+00	0	37	0	75497472	59	5122
2026-01-23 08:58:15.25	124.50	10.95	-43.8	-46.8	16.2	0.00e+00	0	37	0	76546048	59	5039
2026-01-23 08:58:16.25	124.42	11.03	-43.9	-46.8	16.2	0.00e+00	0	37	0	78643200	59	5011
2026-01-23 08:58:17.24	124.35	11.11	-43.8	-46.7	16.3	0.00e+00	0	37	0	80740352	59	4976
2026-01-23 08:58:18.24	124.27	11.19	-43.7	-46.6	16.4	0.00e+00	0	37	0	82837504	59	4924
2026-01-23 08:58:19.23	124.19	11.28	-43.7	-46.6	16.5	0.00e+00	0	37	0	84934656	59	4878
2026-01-23 08:58:20.23	124.11	11.36	-43.7	-46.6	16.4	0.00e+00	0	37	0	85983232	59	4918
2026-01-23 08:58:21.22	124.03	11.44	-43.8	-46.7	16.3	0.00e+00	0	37	0	88080384	59	4961
2026-01-23 08:58:22.22	123.95	11.53	-43.8	-46.6	16.4	0.00e+00	0	37	0	90177536	59	4925
2026-01-23 08:58:23.22	123.87	11.61	-43.8	-46.8	16.3	0.00e+00	0	37	0	92274688	59	4993
2026-01-23 08:58:24.22	123.79	11.70	-43.7	-46.5	16.6	0.00e+00	0	37	0	93323264	59	4861
2026-01-23 08:58:25.22	123.71	11.78	-43.5	-46.2	16.8	0.00e+00	0	37	0	95420416	59	4700
2026-01-23 08:58:26.21	123.63	11.87	-43.5	-46.2	16.9	0.00e+00	0	37	0	97517568	58	4972
2026-01-23 08:58:27.21	123.55	11.95	-43.5	-46.3	16.8	0.00e+00	0	37	0	99614720	58	5007
2026-01-23 08:58:28.21	123.47	12.04	-43.4	-46.2	16.9	0.00e+00	0	37	0	101711872	58	4933
2026-01-23 08:58:29.21	123.38	12.12	-43.3	-46.1	17.0	0.00e+00	0	37	0	102760448	58	4892
2026-01-23 08:58:30.20	123.30	12.21	-43.4	-46.1	17.0	0.00e+00	0	38	0	104857600	58	4908
2026-01-23 08:58:31.21	123.21	12.29	-43.4	-46.1	17.0	0.00e+00	0	37	0	106954752	58	4914
2026-01-23 08:58:32.21	123.13	12.38	-43.3	-46.1	17.0	0.00e+00	0	37	0	109051904	58	4871
2026-01-23 08:58:33.20	123.05	12.47	-43.3	-46.0	17.1	0.00e+00	0	37	0	111149056	58	4860
2026-01-23 08:58:34.20	122.96	12.55	-43.3	-46.0	17.1	0.00e+00	0	37	0	112197632	58	4845
2026-01-23 08:58:35.20	122.87	12.64	-43.1	-45.7	17.4	0.00e+00	0	37	0	114294784	58	4701
2026-01-23 08:58:36.20	122.79	12.73	-43.0	-45.6	17.5	0.00e+00	0	37	0	116391936	58	4618
2026-01-23 08:58:37.20	122.70	12.82	-43.0	-45.6	17.5	0.00e+00	0	37	0	118489088	58	4648
2026-01-23 08:58:38.20	122.61	12.91	-42.9	-45.5	17.6	0.00e+00	0	37	0	120586240	57	4856
2026-01-23 08:58:39.19	122.52	12.99	-43.0	-45.7	17.4	0.00e+00	0	37	0	121634816	57	4949
2026-01-23 08:58:40.19	122.44	13.08	-43.1	-45.9	17.3	0.00e+00	0	37	0	123731968	57	5061
2026-01-23 08:58:41.19	122.35	13.17	-43.3	-46.0	17.1	0.00e+00	0	37	0	125829120	57	5142
2026-01-23 08:58:42.19	122.26	13.26	-43.3	-46.0	17.1	0.00e+00	0	38	0	127926272	57	5138
2026-01-23 08:58:43.19	122.17	13.35	-43.2	-45.9	17.2	0.00e+00	0	37	0	128974848	57	5068
2026-01-23 08:58:44.18	122.08	13.44	-43.2	-45.9	17.3	0.00e+00	0	37	0	131072000	57	5042
2026-01-23 08:58:45.18	121.98	13.53	-42.9	-45.6	17.5	0.00e+00	0	38	0	133169152	57	4877
2026-01-23 08:58:46.18	121.89	13.62	-42.8	-45.4	17.7	0.00e+00	0	37	0	135266304	57	4791
2026-01-23 08:58:47.18	121.80	13.71	-43.0	-45.6	17.5	0.00e+00	0	37	0	137363456	57	4900
2026-01-23 08:58:48.17	121.71	13.80	-43.0	-45.7	17.5	0.00e+00	0	37	0	138412032	57	4928
2026-01-23 08:58:49.17	121.61	13.89	-43.0	-45.7	17.4	0.00e+00	0	37	0	140509184	57	4957
2026-01-23 08:58:50.18	121.52	13.98	-43.1	-45.8	17.4	0.00e+00	0	37	0	142606336	57	5012
2026-01-23 08:58:51.17	121.42	14.07	-43.1	-45.9	17.3	0.00e+00	0	37	0	144703488	57	5042
2026-01-23 08:58:52.17	121.33	14.16	-43.1	-45.8	17.4	0.00e+00	0	37	0	145752064	57	5019
2026-01-23 08:58:53.17	121.23	14.25	-43.0	-45.7	17.5	0.00e+00	0	37	0	147849216	57	4932
2026-01-23 08:58:54.17	121.13	14.35	-43.0	-45.6	17.6	0.00e+00	0	37	0	149946368	57	4883
2026-01-23 08:58:55.17	121.04	14.44	-42.9	-45.5	17.6	0.00e+00	0	37	0	152043520	57	4865
2026-01-23 08:58:56.17	120.94	14.53	-42.9	-45.5	17.7	0.00e+00	0	37	0	154140672	57	4837
2026-01-23 08:58:57.17	120.84	14.62	-42.9	-45.5	17.7	0.00e+00	0	37	0	155189248	57	4833
2026-01-23 08:58:58.17	120.74	14.72	-42.8	-45.4	17.8	0.00e+00	0	37	0	157286400	57	4790
2026-01-23 08:58:59.17	120.64	14.81	-43.0	-45.6	17.6	0.00e+00	0	37	0	159383552	57	4907
2026-01-23 08:59:00.17	120.54	14.90	-43.0	-45.6	17.6	0.00e+00	0	38	0	161480704	57	4883
2026-01-23 08:59:01.16	120.44	15.00	-43.0	-45.6	17.6	0.00e+00	0	37	0	163577856	57	4883
2026-01-23 08:59:02.16	120.34	15.09	-42.9	-45.6	17.6	0.00e+00	0	37	0	164626432	57	4875
2026-01-23 08:59:03.16	120.23	15.19	-42.8	-45.4	17.8	0.00e+00	0	37	0	166723584	57	4774
2026-01-23 08:59:04.16	120.13	15.28	-42.8	-45.4	17.8	0.00e+00	0	38	0	168820736	57	4762
2026-01-23 08:59:05.16	120.03	15.38	-42.8	-45.3	17.8	0.00e+00	0	37	0	170917888	57	4738
2026-01-23 08:59:06.15	119.92	15.47	-42.6	-45.1	18.1	0.00e+00	0	37	0	173015040	57	4601
2026-01-23 08:59:07.15	119.82	15.57	-42.6	-45.1	18.1	0.00e+00	0	37	0	174063616	57	4629
2026-01-23 08:59:08.15	119.71	15.66	-42.7	-45.2	17.9	0.00e+00	0	37	0	176160768	57	4702
2026-01-23 08:59:09.15	119.60	15.76	-42.9	-45.5	17.8	0.00e+00	0	38	0	178257920	57	4815
2026-01-23 08:59:10.15	119.50	15.86	-42.9	-45.5	17.7	0.00e+00	0	37	0	180355072	57	4829
2026-01-23 08:59:11.15	119.39	15.95	-42.9	-45.5	17.6	0.00e+00	0	37	0	181403648	57	4859
2026-01-23 08:59:12.15	119.28	16.05	-42.8	-45.4	17.8	0.00e+00	0	37	0	183500800	57	4767
2026-01-23 08:59:13.14	119.17	16.15	-42.8	-45.3	17.9	0.00e+00	0	37	0	185597952	57	4745
2026-01-23 08:59:14.14	119.06	16.24	-42.7	-45.2	18.0	0.00e+00	0	38	0	187695104	57	4702
2026-01-23 08:59:15.13	118.95	16.34	-42.8	-45.3	17.9	0.00e+00	0	37	0	189792256	57	4747
2026-01-23 08:59:16.14	118.84	16.44	-42.8	-45.4	17.8	0.00e+00	0	38	0	190840832	57	4777
2026-01-23 08:59:17.14	118.72	16.54	-43.0	-45.6	17.6	0.00e+00	0	37	0	192937984	57	4896
2026-01-23 08:59:18.13	118.61	16.64	-43.0	-45.6	17.7	0.00e+00	0	37	0	195035136	57	4880
2026-01-23 08:59:19.13	118.50	16.74	-42.9	-45.5	17.7	0.00e+00	0	37	0	197132288	57	4827
2026-01-23 08:59:20.13	118.38	16.84	-42.8	-45.4	17.8	0.00e+00	0	37	0	199229440	57	4778
2026-01-23 08:59:21.13	118.27	16.93	-42.8	-45.3	17.9	0.00e+00	0	37	0	200278016	57	4750
2026-01-23 08:59:22.13	118.15	17.03	-42.7	-45.2	18.0	0.00e+00	0	38	0	202375168	57	4658
2026-01-23 08:59:23.12	118.03	17.13	-42.8	-45.3	17.9	0.00e+00	0	37	0	204472320	57	4743
2026-01-23 08:59:24.11	117.92	17.23	-42.9	-45.5	17.7	0.00e+00	0	37	0	206569472	57	4819
2026-01-23 08:59:25.09	117.80	17.33	-43.0	-45.6	17.6	0.00e+00	0	37	0	207618048	57	4872
2026-01-23 08:59:26.08	117.68	17.43	-42.9	-45.5	17.6	0.00e+00	0	37	0	209715200	57	4847
2026-01-23 08:59:27.06	117.56	17.53	-42.9	-45.4	17.7	0.00e+00	0	37	0	211812352	57	4812
2026-01-23 08:59:28.05	117.44	17.63	-42.8	-45.3	17.8	0.00e+00	0	37	0	213909504	57	4752
2026-01-23 08:59:29.04	117.32	17.73	-42.8	-45.3	17.8	0.00e+00	0	38	0	214958080	57	4713
2026-01-23 08:59:30.03	117.20	17.83	-42.9	-45.4	17.7	0.00e+00	0	38	0	217055232	57	4804
2026-01-23 08:59:31.02	117.08	17.94	-43.0	-45.6	17.6	0.00e+00	0	37	0	219152384	57	4903
2026-01-23 08:59:32.01	116.96	18.04	-43.1	-45.7	17.5	0.00e+00	0	37	0	221249536	57	4962
2026-01-23 08:59:33.00	116.83	18.14	-43.1	-45.7	17.6	0.00e+00	0	37	0	223346688	57	4944
2026-01-23 08:59:33.99	116.71	18.24	-43.0	-45.6	17.6	0.00e+00	0	37	0	224395264	57	4914
2026-01-23 08:59:34.98	116.58	18.34	-42.9	-45.4	17.8	0.00e+00	0	37	0	226492416	57	4806
2026-01-23 08:59:35.96	116.46	18.45	-43.0	-45.5	17.7	0.00e+00	0	37	0	228589568	57	4854
2026-01-23 08:59:36.96	116.33	18.55	-43.0	-45.6	17.7	0.00e+00	0	37	0	230686720	57	4902
2026-01-23 08:59:37.96	116.20	18.66	-43.1	-45.7	17.5	0.00e+00	0	37	0	231735296	57	4979
2026-01-23 08:59:38.95	116.07	18.76	-43.1	-45.7	17.6	0.00e+00	0	37	0	233832448	57	4950
2026-01-23 08:59:39.95	115.94	18.86	-43.2	-45.8	17.5	0.00e+00	0	37	0	235929600	57	4996
2026-01-23 08:59:40.94	115.80	18.97	-43.2	-45.9	17.4	0.00e+00	0	37	0	238026752	57	5053
2026-01-23 08:59:41.93	115.67	19.07	-43.3	-46.0	17.2	0.00e+00	0	37	0	240123904	57	5150
2026-01-23 08:59:42.93	115.54	19.18	-43.3	-46.0	17.3	0.00e+00	0	37	0	241172480	57	5140
2026-01-23 08:59:43.93	115.40	19.29	-43.3	-46.0	17.3	0.00e+00	0	38	0	243269632	57	5136
2026-01-23 08:59:44.93	115.27	19.39	-43.3	-45.9	17.4	0.00e+00	0	37	0	245366784	57	5085
2026-01-23 08:59:45.93	115.13	19.50	-43.3	-46.0	17.3	0.00e+00	0	37	0	247463936	57	5121
2026-01-23 08:59:46.92	114.99	19.60	-43.5	-46.3	17.0	0.00e+00	0	37	0	248512512	57	5287
2026-01-23 08:59:47.92	114.85	19.71	-43.6	-46.4	17.0	0.00e+00	0	37	0	250609664	57	5356
2026-01-23 08:59:48.92	114.71	19.82	-43.5	-46.2	17.1	0.00e+00	0	38	0	252706816	57	5241
2026-01-23 08:59:49.91	114.57	19.93	-43.5	-46.2	17.0	0.00e+00	0	37	0	254803968	57	5277
2026-01-23 08:59:50.91	114.43	20.03	-43.4	-46.2	17.2	0.00e+00	0	37	0	256901120	57	5219
2026-01-23 08:59:51.90	114.29	20.14	-43.3	-46.1	17.3	0.00e+00	0	37	0	257949696	57	5162
2026-01-23 08:59:52.90	114.14	20.25	-43.4	-46.2	17.2	0.00e+00	0	37	0	260046848	57	5224
2026-01-23 08:59:53.90	114.00	20.36	-43.3	-46.1	17.3	0.00e+00	0	37	0	262144000	57	5168
2026-01-23 08:59:54.90	113.85	20.47	-43.2	-45.8	17.5	0.00e+00	0	37	0	264241152	57	5035
2026-01-23 08:59:55.89	113.71	20.58	-43.0	-45.6	17.7	0.00e+00	0	37	0	265289728	57	4898
2026-01-23 08:59:56.89	113.56	20.69	-43.1	-45.7	17.6	0.00e+00	0	37	0	267386880	57	4977
2026-01-23 08:59:57.89	113.41	20.80	-43.1	-45.8	17.5	0.00e+00	0	37	0	269484032	57	5003
2026-01-23 08:59:58.89	113.26	20.91	-43.2	-45.8	17.5	0.00e+00	0	37	0	271581184	57	5036
2026-01-23 08:59:59.89	113.11	21.02	-43.1	-45.7	17.6	0.00e+00	0	37	0	273678336	57	4959
2026-01-23 09:00:00.88	112.95	21.13	-43.1	-45.7	17.6	0.00e+00	0	38	0	274726912	57	4976
2026-01-23 09:00:01.88	112.80	21.24	-43.1	-45.7	17.7	0.00e+00	0	38	0	276824064	57	4932
2026-01-23 09:00:02.87	112.65	21.35	-43.0	-45.5	17.7	0.00e+00	0	37	0	278921216	57	4870
2026-01-23 09:00:03.87	112.49	21.46	-42.9	-45.4	17.9	0.00e+00	0	38	0	281018368	57	4791
2026-01-23 09:00:04.87	112.33	21.57	-42.9	-45.5	17.8	0.00e+00	0	37	0	282066944	57	4837
2026-01-23 09:00:05.87	112.17	21.69	-43.1	-45.8	17.6	0.00e+00	0	38	0	284164096	57	4988
2026-01-23 09:00:06.86	112.02	21.80	-43.0	-45.6	17.7	0.00e+00	0	38	0	286261248	57	4909
2026-01-23 09:00:07.86	111.86	21.91	-43.0	-45.5	17.8	0.00e+00	0	37	0	288358400	57	4866
2026-01-23 09:00:08.86	111.69	22.02	-42.8	-45.4	18.0	0.00e+00	0	37	0	290455552	57	4760
2026-01-23 09:00:09.85	111.53	22.14	-42.8	-45.4	17.9	0.00e+00	0	38	0	291504128	57	4786
2026-01-23 09:00:10.85	111.37	22.25	-42.9	-45.5	17.8	0.00e+00	0	38	0	293601280	57	4861
2026-01-23 09:00:11.85	111.20	22.36	-43.0	-45.6	17.7	0.00e+00	0	37	0	295698432	57	4917
2026-01-23 09:00:12.84	111.04	22.48	-43.0	-45.5	17.8	0.00e+00	0	37	0	297795584	57	4861
2026-01-23 09:00:13.84	110.87	22.59	-43.0	-45.6	17.8	0.00e+00	0	37	0	299892736	57	4873
2026-01-23 09:00:14.84	110.70	22.70	-42.8	-45.3	18.0	0.00e+00	0	38	0	300941312	57	4738
2026-01-23 09:00:15.84	110.53	22.82	-42.8	-45.3	18.1	0.00e+00	0	37	0	303038464	57	4708
2026-01-23 09:00:16.83	110.36	22.93	-42.8	-45.4	18.0	0.00e+00	0	37	0	305135616	57	4773
2026-01-23 09:00:17.83	110.18	23.05	-42.9	-45.5	17.8	0.00e+00	0	37	0	307232768	57	4815
2026-01-23 09:00:18.82	110.01	23.16	-43.0	-45.6	17.8	0.00e+00	0	38	0	308281344	57	4878
2026-01-23 09:00:19.82	109.84	23.28	-42.9	-45.4	17.9	0.00e+00	0	37	0	310378496	57	4795
2026-01-23 09:00:20.82	109.66	23.39	-42.8	-45.3	18.0	0.00e+00	0	37	0	312475648	57	4729
2026-01-23 09:00:21.82	109.48	23.51	-42.8	-45.4	18.0	0.00e+00	0	37	0	314572800	57	4766
2026-01-23 09:00:22.81	109.30	23.63	-42.9	-45.4	17.9	0.00e+00	0	37	0	316669952	57	4806
2026-01-23 09:00:23.81	109.12	23.74	-42.9	-45.5	17.9	0.00e+00	0	37	0	317718528	57	4816
2026-01-23 09:00:24.81	108.94	23.86	-42.9	-45.4	17.9	0.00e+00	0	38	0	319815680	57	4801
2026-01-23 09:00:25.81	108.75	23.98	-43.0	-45.5	17.9	0.00e+00	0	38	0	321912832	57	4846
2026-01-23 09:00:26.81	108.57	24.09	-42.9	-45.4	18.0	0.00e+00	0	37	0	324009984	57	4783
2026-01-23 09:00:27.80	108.38	24.21	-43.1	-45.6	17.7	0.00e+00	0	38	0	326107136	57	4914
2026-01-23 09:00:28.80	108.20	24.33	-43.1	-45.8	17.6	0.00e+00	0	37	0	327155712	57	4986
2026-01-23 09:00:29.79	108.01	24.44	-43.4	-46.1	17.3	0.00e+00	0	37	0	329252864	57	5168
2026-01-23 09:00:30.79	107.82	24.56	-43.3	-46.0	17.3	0.00e+00	0	37	0	331350016	57	5143
2026-01-23 09:00:31.79	107.63	24.68	-43.5	-46.2	17.2	0.00e+00	0	38	0	333447168	57	5223
2026-01-23 09:00:32.79	107.43	24.80	-43.6	-46.3	17.1	0.00e+00	0	38	0	334495744	57	5325
2026-01-23 09:00:33.78	107.24	24.92	-43.6	-46.4	17.0	0.00e+00	0	38	0	336592896	57	5368
2026-01-23 09:00:34.78	107.04	25.03	-43.7	-46.6	16.8	0.00e+00	0	37	0	338690048	58	5165
2026-01-23 09:00:35.77	106.85	25.15	-43.8	-46.6	16.8	0.00e+00	0	37	0	340787200	58	5209
2026-01-23 09:00:36.77	106.65	25.27	-43.8	-46.6	16.8	0.00e+00	0	37	0	342884352	58	5199
2026-01-23 09:00:37.76	106.45	25.39	-43.9	-46.7	16.7	0.00e+00	0	38	0	343932928	58	5266
2026-01-23 09:00:38.76	106.24	25.51	-43.9	-46.8	16.6	0.00e+00	0	37	0	346030080	58	5299
2026-01-23 09:00:39.76	106.04	25.63	-44.0	-47.0	16.4	0.00e+00	0	38	0	348127232	58	5411
2026-01-23 09:00:40.75	105.84	25.75	-44.1	-47.0	16.4	0.00e+00	0	37	0	350224384	58	5422
2026-01-23 09:00:41.76	105.63	25.87	-44.2	-47.1	16.3	0.00e+00	0	37	0	351272960	58	5518
2026-01-23 09:00:42.75	105.42	25.98	-44.3	-47.3	16.1	0.00e+00	0	38	0	353370112	59	5322
2026-01-23 09:00:43.75	105.21	26.10	-44.1	-47.1	16.3	0.00e+00	0	38	0	355467264	59	5191
2026-01-23 09:00:44.75	105.00	26.22	-44.1	-47.1	16.3	0.00e+00	0	37	0	357564416	59	5183
2026-01-23 09:00:45.75	104.78	26.34	-44.0	-46.9	16.6	0.00e+00	0	37	0	359661568	59	5046
2026-01-23 09:00:46.74	104.57	26.46	-43.8	-46.6	16.8	0.00e+00	0	37	0	360710144	59	4923
2026-01-23 09:00:47.74	104.35	26.58	-43.9	-46.7	16.7	0.00e+00	0	38	0	362807296	59	4945
2026-01-23 09:00:48.74	104.13	26.70	-44.0	-46.9	16.5	0.00e+00	0	37	0	364904448	59	5048
2026-01-23 09:00:49.73	103.91	26.82	-44.2	-47.1	16.3	0.00e+00	0	37	0	367001600	59	5184
2026-01-23 09:00:50.73	103.69	26.94	-44.1	-47.0	16.5	0.00e+00	0	38	0	369098752	59	5105
2026-01-23 09:00:51.73	103.47	27.06	-44.2	-47.1	16.3	0.00e+00	0	38	0	370147328	59	5176
2026-01-23 09:00:52.72	103.24	27.18	-44.2	-47.1	16.3	0.00e+00	0	37	0	372244480	59	5180
2026-01-23 09:00:53.72	103.02	27.30	-44.1	-47.1	16.3	0.00e+00	0	38	0	374341632	59	5167
2026-01-23 09:00:54.72	102.79	27.42	-44.2	-47.2	16.3	0.00e+00	0	37	0	376438784	59	5238
2026-01-23 09:00:55.72	102.56	27.55	-44.2	-47.1	16.3	0.00e+00	0	38	0	377487360	59	5176
2026-01-23 09:00:56.72	102.33	27.67	-44.3	-47.3	16.1	0.00e+00	0	38	0	379584512	59	5333
2026-01-23 09:00:57.71	102.09	27.79	-44.2	-47.1	16.3	0.00e+00	0	38	0	381681664	59	5217
2026-01-23 09:00:58.71	101.86	27.91	-44.2	-47.2	16.3	0.00e+00	0	38	0	383778816	59	5220
2026-01-23 09:00:59.71	101.62	28.03	-44.2	-47.1	16.3	0.00e+00	0	38	0	385875968	59	5199
2026-01-23 09:01:00.71	101.38	28.15	-44.2	-47.1	16.4	0.00e+00	0	37	0	386924544	59	5187
2026-01-23 09:01:01.71	101.14	28.27	-44.1	-46.9	16.5	0.00e+00	0	37	0	389021696	59	5093
2026-01-23 09:01:02.70	100.90	28.39	-44.1	-47.0	16.4	0.00e+00	0	38	0	391118848	59	5139
2026-01-23 09:01:03.70	100.65	28.51	-44.2	-47.2	16.2	0.00e+00	0	37	0	393216000	59	5267
2026-01-23 09:01:04.69	100.41	28.63	-44.2	-47.2	16.2	0.00e+00	0	38	0	395313152	59	5255
2026-01-23 09:01:05.69	100.16	28.75	-44.1	-47.0	16.4	0.00e+00	0	38	0	396361728	59	5155
2026-01-23 09:01:06.69	99.91	28.87	-44.1	-47.0	16.5	0.00e+00	0	38	0	398458880	59	5116
2026-01-23 09:01:07.68	99.66	28.99	-44.1	-47.1	16.4	0.00e+00	0	38	0	400556032	59	5178
2026-01-23 09:01:08.68	99.40	29.11	-44.2	-47.2	16.2	0.00e+00	0	38	0	402653184	59	5252
2026-01-23 09:01:09.67	99.15	29.22	-44.2	-47.1	16.4	0.00e+00	0	38	0	403701760	59	5175
2026-01-23 09:01:10.67	98.89	29.34	-44.2	-47.1	16.4	0.00e+00	0	38	0	405798912	59	5186
2026-01-23 09:01:11.67	98.63	29.46	-44.2	-47.1	16.3	0.00e+00	0	38	0	407896064	59	5187
2026-01-23 09:01:12.67	98.37	29.58	-44.2	-47.1	16.3	0.00e+00	0	38	0	409993216	59	5193
2026-01-23 09:01:13.67	98.10	29.70	-44.2	-47.1	16.4	0.00e+00	0	38	0	412090368	59	5178
2026-01-23 09:01:14.67	97.84	29.82	-44.0	-46.9	16.5	0.00e+00	0	38	0	413138944	59	5080
2026-01-23 09:01:15.67	97.57	29.94	-44.1	-47.0	16.5	0.00e+00	0	38	0	415236096	59	5104
2026-01-23 09:01:16.66	97.30	30.06	-44.0	-46.9	16.5	0.00e+00	0	38	0	417333248	59	5079
2026-01-23 09:01:17.66	97.03	30.18	-44.1	-47.0	16.4	0.00e+00	0	38	0	419430400	59	5135
2026-01-23 09:01:18.65	96.76	30.29	-44.2	-47.2	16.3	0.00e+00	0	38	0	420478976	59	5231
2026-01-23 09:01:19.65	96.48	30.41	-44.4	-47.4	16.0	0.00e+00	0	38	0	422576128	59	5395
2026-01-23 09:01:20.65	96.21	30.53	-44.6	-47.7	15.7	0.00e+00	0	38	0	424673280	59	5580
2026-01-23 09:01:21.65	95.93	30.65	-45.0	-48.3	15.2	0.00e+00	0	38	0	426770432	60	5630
2026-01-23 09:01:22.65	95.64	30.76	-45.3	-48.8	14.7	0.00e+00	0	38	0	428867584	61	5610
2026-01-23 09:01:23.65	95.36	30.88	-45.3	-48.9	14.6	0.00e+00	0	38	0	429916160	61	5658
2026-01-23 09:01:24.64	95.08	30.99	-45.5	-49.1	14.5	7.00e-07	0	38	0	432013312	61	5818
2026-01-23 09:01:25.64	94.79	31.11	-45.5	-49.1	14.4	7.00e-07	0	38	0	434110464	61	5816
2026-01-23 09:01:26.64	94.50	31.23	-45.4	-49.0	14.5	7.00e-07	0	37	0	436207616	61	5737
2026-01-23 09:01:27.64	94.20	31.34	-45.6	-49.3	14.2	0.00e+00	0	38	0	438304768	61	5965
2026-01-23 09:01:28.64	93.91	31.46	-45.7	-49.6	13.9	7.00e-07	0	38	0	439353344	62	5799
2026-01-23 09:01:29.64	93.61	31.57	-45.7	-49.5	14.0	4.50e-06	0	38	0	441450496	62	5776
2026-01-23 09:01:30.63	93.32	31.68	-45.8	-49.7	13.8	6.80e-06	0	38	0	443547648	62	5875
2026-01-23 09:01:31.63	93.02	31.80	-45.8	-49.7	13.8	1.50e-06	0	38	0	445644800	62	5861
2026-01-23 09:01:32.63	92.71	31.91	-45.9	-49.7	13.8	3.80e-06	0	37	0	446693376	62	5919
2026-01-23 09:01:33.63	92.41	32.02	-46.0	-49.9	13.5	6.10e-06	0	37	0	448790528	62	6058
2026-01-23 09:01:34.63	92.10	32.13	-46.2	-50.3	13.2	2.59e-05	0	38	0	450887680	63	5971
2026-01-23 09:01:35.62	91.79	32.24	-46.2	-50.3	13.1	3.89e-05	0	38	0	452984832	63	5991
2026-01-23 09:01:36.61	91.49	32.35	-46.2	-50.3	13.2	3.20e-05	0	38	0	455081984	63	5968
2026-01-23 09:01:37.61	91.17	32.46	-46.4	-50.7	12.7	3.05e-05	0	38	0	456130560	63	6266
2026-01-23 09:01:38.61	90.86	32.57	-46.5	-50.9	12.6	8.46e-05	0	37	0	458227712	63	6402
2026-01-23 09:01:39.60	90.54	32.68	-46.5	-50.9	12.5	1.07e-04	0	38	0	460324864	63	6398
2026-01-23 09:01:40.60	90.22	32.79	-46.7	-51.4	11.9	2.23e-04	0	38	0	462422016	64	6402
2026-01-23 09:01:41.60	89.90	32.90	-46.7	-51.5	11.9	4.90e-04	0	38	0	463470592	64	6481
2026-01-23 09:01:42.59	89.58	33.01	-46.7	-51.4	11.9	3.30e-04	0	38	0	465567744	64	6412
2026-01-23 09:01:43.60	89.25	33.11	-46.7	-51.6	11.8	4.07e-04	0	37	0	467664896	64	6534
2026-01-23 09:01:44.59	88.92	33.22	-46.8	-51.8	11.6	6.06e-04	0	38	0	469762048	64	6665
2026-01-23 09:01:45.59	88.59	33.32	-46.9	-52.1	11.3	9.98e-04	0	38	0	471859200	64	6914
2026-01-23 09:01:46.58	88.26	33.43	-46.8	-51.9	11.4	1.11e-03	0	38	0	472907776	64	6781
2026-01-23 09:01:47.58	87.93	33.53	-46.6	-51.5	11.9	8.29e-04	0	38	0	475004928	64	6488
2026-01-23 09:01:48.58	87.59	33.63	-46.3	-50.9	12.5	1.46e-04	0	38	0	477102080	64	5999
2026-01-23 09:01:49.58	87.25	33.74	-46.0	-50.3	13.0	7.01e-05	0	37	0	479199232	64	5654
2026-01-23 09:01:50.57	86.91	33.84	-45.6	-49.6	13.9	1.06e-05	0	38	0	481296384	63	5507
2026-01-23 09:01:51.57	86.57	33.94	-45.4	-49.3	14.3	0.00e+00	0	38	0	482344960	62	5600
2026-01-23 09:01:52.56	86.23	34.04	-45.4	-49.3	14.2	0.00e+00	0	38	0	484442112	62	5594
2026-01-23 09:01:53.56	85.88	34.13	-45.5	-49.3	14.2	7.00e-07	0	38	0	486539264	62	5622
2026-01-23 09:01:54.56	85.53	34.23	-45.4	-49.2	14.4	0.00e+00	0	38	0	488636416	62	5565
2026-01-23 09:01:55.55	85.18	34.33	-45.1	-48.7	14.8	7.00e-07	0	38	0	489684992	62	5262
2026-01-23 09:01:56.55	84.83	34.43	-45.0	-48.6	14.9	0.00e+00	0	38	0	491782144	62	5160
2026-01-23 09:01:57.55	84.47	34.52	-44.9	-48.3	15.3	0.00e+00	0	38	0	493879296	61	5280
2026-01-23 09:01:58.54	84.12	34.61	-44.8	-48.2	15.4	0.00e+00	0	38	0	495976448	61	5240
2026-01-23 09:01:59.54	83.76	34.71	-44.8	-48.2	15.3	0.00e+00	0	38	0	498073600	61	5249
2026-01-23 09:02:00.53	83.40	34.80	-44.7	-48.1	15.4	0.00e+00	0	38	0	499122176	61	5202
2026-01-23 09:02:01.53	83.03	34.89	-44.5	-47.7	15.8	0.00e+00	0	38	0	501219328	60	5274
2026-01-23 09:02:02.52	82.67	34.98	-44.2	-47.3	16.2	0.00e+00	0	38	0	503316480	60	5021
2026-01-23 09:02:03.52	82.30	35.07	-43.8	-46.7	16.8	0.00e+00	0	38	0	505413632	59	4932
2026-01-23 09:02:04.51	81.94	35.15	-43.6	-46.4	17.1	0.00e+00	0	38	0	506462208	59	4770
2026-01-23 09:02:05.51	81.56	35.24	-43.6	-46.4	17.2	0.00e+00	0	37	0	508559360	59	4771
2026-01-23 09:02:06.50	81.19	35.33	-43.5	-46.2	17.2	0.00e+00	0	37	0	510656512	58	4980
2026-01-23 09:02:07.50	80.82	35.41	-43.5	-46.3	17.2	0.00e+00	0	38	0	512753664	58	5011
2026-01-23 09:02:08.50	80.44	35.49	-43.4	-46.1	17.4	0.00e+00	0	38	0	514850816	58	4920
2026-01-23 09:02:09.49	80.06	35.58	-43.4	-46.1	17.4	0.00e+00	0	38	0	515899392	58	4901
2026-01-23 09:02:10.48	79.69	35.66	-43.4	-46.0	17.5	0.00e+00	0	38	0	517996544	58	4862
2026-01-23 09:02:11.48	79.30	35.74	-43.5	-46.2	17.3	0.00e+00	0	37	0	520093696	58	4982
2026-01-23 09:02:12.48	78.92	35.81	-43.5	-46.1	17.4	0.00e+00	0	38	0	522190848	58	4909
2026-01-23 09:02:13.47	78.53	35.89	-43.3	-45.9	17.6	0.00e+00	0	38	0	524288000	58	4802
2026-01-23 09:02:14.47	78.14	35.97	-43.3	-45.9	17.6	0.00e+00	0	37	0	525336576	58	4771
2026-01-23 09:02:15.47	77.75	36.04	-43.1	-45.6	17.8	0.00e+00	0	38	0	527433728	58	4630
2026-01-23 09:02:16.47	77.36	36.11	-43.0	-45.5	17.9	0.00e+00	0	38	0	529530880	57	4833
2026-01-23 09:02:17.46	76.97	36.18	-42.9	-45.4	18.0	0.00e+00	0	38	0	531628032	57	4801
2026-01-23 09:02:18.46	76.57	36.25	-42.8	-45.2	18.3	0.00e+00	0	38	0	532676608	57	4692
2026-01-23 09:02:19.46	76.17	36.32	-42.7	-45.1	18.3	0.00e+00	0	37	0	534773760	57	4650
2026-01-23 09:02:20.46	75.77	36.39	-42.6	-45.0	18.4	0.00e+00	0	38	0	536870912	57	4587
2026-01-23 09:02:21.45	75.38	36.46	-42.5	-44.9	18.5	0.00e+00	0	38	0	538968064	57	4536
2026-01-23 09:02:22.46	74.97	36.52	-42.3	-44.6	18.8	0.00e+00	0	38	0	541065216	56	4620
2026-01-23 09:02:23.46	74.56	36.58	-42.3	-44.6	18.9	0.00e+00	0	38	0	542113792	56	4631
2026-01-23 09:02:24.45	74.16	36.64	-42.2	-44.5	19.0	0.00e+00	0	37	0	544210944	56	4554
2026-01-23 09:02:25.45	73.76	36.70	-41.8	-44.0	19.3	0.00e+00	0	38	0	546308096	55	4581
2026-01-23 09:02:26.45	73.35	36.76	-41.7	-44.0	19.3	0.00e+00	0	37	0	548405248	55	4554
2026-01-23 09:02:27.45	72.94	36.82	-41.6	-43.8	19.4	0.00e+00	0	38	0	549453824	55	4489
2026-01-23 09:02:28.45	72.52	36.88	-41.7	-43.9	19.4	0.00e+00	0	38	0	551550976	55	4528
2026-01-23 09:02:29.44	72.11	36.93	-41.7	-43.9	19.3	0.00e+00	0	38	0	553648128	55	4525
2026-01-23 09:02:30.44	71.70	36.98	-41.8	-44.1	19.2	0.00e+00	0	38	0	555745280	55	4638
2026-01-23 09:02:31.44	71.28	37.03	-42.1	-44.4	18.9	0.00e+00	0	37	0	557842432	55	4796
2026-01-23 09:02:32.43	70.87	37.08	-42.0	-44.4	18.9	0.00e+00	0	37	0	558891008	55	4772
2026-01-23 09:02:33.42	70.46	37.13	-42.1	-44.4	18.8	0.00e+00	0	38	0	560988160	55	4809
2026-01-23 09:02:34.42	70.04	37.17	-41.8	-44.1	19.2	0.00e+00	0	38	0	563085312	55	4620
2026-01-23 09:02:35.42	69.62	37.21	-41.6	-43.9	19.4	0.00e+00	0	38	0	565182464	55	4500
2026-01-23 09:02:36.41	69.20	37.26	-41.4	-43.6	19.6	0.00e+00	0	37	0	566231040	54	4640
2026-01-23 09:02:37.41	68.78	37.30	-41.3	-43.5	19.8	0.00e+00	0	38	0	568328192	54	4560
2026-01-23 09:02:38.40	68.36	37.33	-41.3	-43.5	19.7	0.00e+00	0	38	0	570425344	54	4590
2026-01-23 09:02:39.40	67.93	37.37	-41.3	-43.5	19.7	0.00e+00	0	38	0	572522496	54	4584
2026-01-23 09:02:40.39	67.51	37.41	-41.3	-43.5	19.7	0.00e+00	0	38	0	574619648	54	4563
2026-01-23 09:02:41.39	67.08	37.44	-41.3	-43.5	19.8	0.00e+00	0	38	0	575668224	54	4576
2026-01-23 09:02:42.39	66.66	37.47	-41.5	-43.7	19.6	0.00e+00	0	38	0	577765376	54	4660
2026-01-23 09:02:43.39	66.23	37.50	-41.8	-44.1	19.2	0.00e+00	0	38	0	579862528	54	4899
2026-01-23 09:02:44.38	65.80	37.53	-42.1	-44.4	19.0	0.00e+00	0	38	0	581959680	54	5052
2026-01-23 09:02:45.38	65.37	37.55	-42.0	-44.3	19.0	0.00e+00	0	38	0	584056832	54	5032
2026-01-23 09:02:46.37	64.95	37.58	-42.1	-44.4	18.8	0.00e+00	0	38	0	585105408	55	4805
2026-01-23 09:02:47.37	64.52	37.60	-42.2	-44.6	18.7	0.00e+00	0	38	0	587202560	55	4900
2026-01-23 09:02:48.36	64.09	37.62	-42.4	-44.8	18.5	0.00e+00	0	38	0	589299712	55	5025
2026-01-23 09:02:49.36	63.66	37.64	-42.5	-45.0	18.3	0.00e+00	0	38	0	591396864	55	5122
2026-01-23 09:02:50.36	63.22	37.66	-43.1	-45.6	17.9	0.00e+00	0	38	0	592445440	56	5194
2026-01-23 09:02:51.36	62.79	37.67	-43.3	-45.9	17.6	0.00e+00	0	38	0	594542592	57	5094
2026-01-23 09:02:52.36	62.36	37.69	-43.4	-46.0	17.5	0.00e+00	0	38	0	596639744	57	5142
2026-01-23 09:02:53.36	61.92	37.70	-43.0	-45.5	17.9	0.00e+00	0	38	0	598736896	57	4868
2026-01-23 09:02:54.35	61.50	37.71	-43.0	-45.5	18.0	0.00e+00	0	37	0	600834048	57	4822
2026-01-23 09:02:55.35	61.06	37.72	-43.1	-45.6	17.9	0.00e+00	0	38	0	601882624	57	4898
2026-01-23 09:02:56.35	60.63	37.72	-43.3	-45.9	17.6	0.00e+00	0	38	0	603979776	57	5062
2026-01-23 09:02:57.35	60.19	37.73	-43.3	-45.9	17.6	0.00e+00	0	38	0	606076928	57	5051
2026-01-23 09:02:58.35	59.76	37.73	-43.2	-45.8	17.7	0.00e+00	0	38	0	608174080	57	5037
2026-01-23 09:02:59.34	59.33	37.73	-43.4	-46.1	17.5	0.00e+00	0	38	0	610271232	57	5188
2026-01-23 09:03:00.34	58.89	37.73	-43.5	-46.2	17.3	0.00e+00	0	38	0	611319808	57	5246
2026-01-23 09:03:01.34	58.46	37.72	-43.5	-46.1	17.3	0.00e+00	0	38	0	613416960	57	5218
2026-01-23 09:03:02.34	58.02	37.72	-43.4	-46.1	17.4	0.00e+00	0	38	0	615514112	57	5187
2026-01-23 09:03:03.33	57.59	37.71	-43.5	-46.2	17.3	0.00e+00	0	38	0	617611264	57	5248
2026-01-23 09:03:04.33	57.16	37.70	-43.5	-46.2	17.3	0.00e+00	0	38	0	618659840	57	5231
2026-01-23 09:03:05.32	56.73	37.69	-43.4	-46.0	17.5	0.00e+00	0	38	0	620756992	57	5118
2026-01-23 09:03:06.32	56.30	37.68	-43.3	-45.9	17.6	0.00e+00	0	38	0	622854144	57	5048
2026-01-23 09:03:07.32	55.87	37.66	-43.4	-46.1	17.4	0.00e+00	0	38	0	624951296	57	5165
2026-01-23 09:03:08.32	55.43	37.65	-43.8	-46.6	17.0	0.00e+00	0	38	0	627048448	58	5163
2026-01-23 09:03:09.32	55.00	37.63	-44.0	-46.8	16.7	0.00e+00	0	38	0	628097024	58	5313
2026-01-23 09:03:10.31	54.57	37.61	-44.0	-46.8	16.8	0.00e+00	0	38	0	630194176	58	5292
2026-01-23 09:03:11.31	54.14	37.59	-44.1	-46.9	16.6	0.00e+00	0	37	0	632291328	58	5388
2026-01-23 09:03:12.30	53.72	37.56	-44.3	-47.2	16.3	0.00e+00	0	38	0	634388480	59	5255
2026-01-23 09:03:13.30	53.29	37.54	-44.2	-47.1	16.3	0.00e+00	0	38	0	635437056	59	5204
2026-01-23 09:03:14.29	52.86	37.51	-44.3	-47.2	16.4	0.00e+00	0	37	0	637534208	59	5231
2026-01-23 09:03:15.29	52.44	37.48	-44.1	-47.0	16.5	0.00e+00	0	38	0	639631360	59	5127
2026-01-23 09:03:16.29	52.01	37.45	-44.5	-47.5	16.1	0.00e+00	0	38	0	641728512	59	5423
2026-01-23 09:03:17.29	51.58	37.42	-44.6	-47.6	15.9	0.00e+00	0	38	0	643825664	59	5498
2026-01-23 09:03:18.29	51.16	37.38	-44.4	-47.4	16.1	0.00e+00	0	38	0	644874240	59	5360
2026-01-23 09:03:19.29	50.73	37.35	-44.5	-47.5	16.0	0.00e+00	0	38	0	646971392	59	5453
2026-01-23 09:03:20.29	50.31	37.31	-44.7	-47.8	15.7	0.00e+00	0	38	0	649068544	60	5335
2026-01-23 09:03:21.29	49.88	37.27	-44.8	-48.1	15.5	0.00e+00	0	38	0	651165696	60	5465
2026-01-23 09:03:22.29	49.46	37.23	-44.7	-47.9	15.7	0.00e+00	0	38	0	653262848	60	5362
2026-01-23 09:03:23.28	49.05	37.18	-44.6	-47.7	15.8	0.00e+00	0	38	0	654311424	60	5263
2026-01-23 09:03:24.28	48.63	37.14	-44.8	-48.0	15.5	0.00e+00	0	38	0	656408576	60	5417
2026-01-23 09:03:25.27	48.21	37.09	-44.9	-48.2	15.4	0.00e+00	0	38	0	658505728	60	5535
2026-01-23 09:03:26.27	47.80	37.04	-45.0	-48.2	15.3	0.00e+00	0	38	0	660602880	60	5592
2026-01-23 09:03:27.26	47.39	36.99	-44.7	-47.9	15.6	0.00e+00	0	38	0	661651456	60	5383
2026-01-23 09:03:28.25	46.98	36.94	-44.5	-47.6	15.9	0.00e+00	0	38	0	663748608	60	5195
2026-01-23 09:03:29.25	46.56	36.89	-44.3	-47.3	16.3	0.00e+00	0	38	0	665845760	60	4985
2026-01-23 09:03:30.25	46.15	36.84	-44.3	-47.3	16.2	0.00e+00	0	38	0	667942912	60	5029
2026-01-23 09:03:31.24	45.74	36.78	-44.2	-47.2	16.3	0.00e+00	0	38	0	670040064	60	4970
2026-01-23 09:03:32.24	45.34	36.72	-44.1	-47.0	16.5	0.00e+00	0	38	0	671088640	60	4857
2026-01-23 09:03:33.24	44.93	36.66	-43.9	-46.7	16.8	0.00e+00	0	38	0	673185792	59	4947
2026-01-23 09:03:34.23	44.53	36.60	-43.6	-46.3	17.2	0.00e+00	0	38	0	675282944	59	4728
2026-01-23 09:03:35.23	44.12	36.54	-43.4	-46.1	17.4	0.00e+00	0	38	0	677380096	58	4875
2026-01-23 09:03:36.23	43.72	36.48	-43.3	-46.0	17.5	0.00e+00	0	38	0	678428672	58	4819
2026-01-23 09:03:37.22	43.32	36.41	-43.3	-45.9	17.6	0.00e+00	0	38	0	680525824	58	4796
2026-01-23 09:03:38.22	42.92	36.34	-43.1	-45.7	17.8	0.00e+00	0	38	0	682622976	58	4664
2026-01-23 09:03:39.22	42.53	36.28	-43.1	-45.6	17.9	0.00e+00	0	38	0	684720128	57	4895
2026-01-23 09:03:40.21	42.13	36.21	-42.6	-45.0	18.4	0.00e+00	0	38	0	686817280	57	4592
2026-01-23 09:03:41.21	41.74	36.14	-42.5	-44.9	18.6	0.00e+00	0	37	0	687865856	57	4495
2026-01-23 09:03:42.21	41.35	36.06	-42.6	-45.0	18.5	0.00e+00	0	37	0	689963008	57	4558
2026-01-23 09:03:43.20	40.96	35.99	-42.6	-45.1	18.4	0.00e+00	0	38	0	692060160	57	4608
2026-01-23 09:03:44.20	40.57	35.92	-42.5	-44.9	18.6	0.00e+00	0	38	0	694157312	56	4768
2026-01-23 09:03:45.20	40.18	35.84	-42.4	-44.7	18.8	0.00e+00	0	38	0	695205888	56	4687
2026-01-23 09:03:46.19	39.80	35.76	-42.3	-44.6	18.8	0.00e+00	0	38	0	697303040	56	4644
2026-01-23 09:03:47.19	39.42	35.68	-42.2	-44.5	18.9	0.00e+00	0	37	0	699400192	56	4591
2026-01-23 09:03:48.19	39.04	35.60	-42.3	-44.6	18.9	0.00e+00	0	38	0	701497344	56	4616
2026-01-23 09:03:49.19	38.66	35.52	-42.4	-44.8	18.6	0.00e+00	0	38	0	703594496	56	4743
2026-01-23 09:03:50.18	38.28	35.44	-42.5	-44.9	18.5	0.00e+00	0	38	0	704643072	56	4808
2026-01-23 09:03:51.18	37.91	35.36	-42.7	-45.1	18.4	0.00e+00	0	37	0	706740224	56	4921
2026-01-23 09:03:52.18	37.53	35.27	-42.9	-45.4	18.2	0.00e+00	0	37	0	708837376	56	5053
2026-01-23 09:03:53.17	37.17	35.19	-43.0	-45.5	18.0	0.00e+00	0	38	0	710934528	56	5146
2026-01-23 09:03:54.17	36.80	35.10	-43.1	-45.6	17.8	0.00e+00	0	38	0	713031680	56	5217
2026-01-23 09:03:55.16	36.43	35.01	-43.3	-45.9	17.6	0.00e+00	0	38	0	714080256	57	5062
2026-01-23 09:03:56.16	36.07	34.92	-43.3	-46.0	17.5	0.00e+00	0	38	0	716177408	57	5117
2026-01-23 09:03:57.16	35.70	34.83	-43.6	-46.3	17.2	0.00e+00	0	37	0	718274560	57	5328
2026-01-23 09:03:58.16	35.34	34.74	-43.7	-46.4	17.1	0.00e+00	0	38	0	720371712	58	5074
2026-01-23 09:03:59.15	34.98	34.65	-43.6	-46.3	17.2	0.00e+00	0	37	0	721420288	58	5041
2026-01-23 09:04:00.14	34.63	34.55	-43.5	-46.2	17.3	0.00e+00	0	38	0	723517440	58	4933
2026-01-23 09:04:01.14	34.27	34.46	-43.6	-46.3	17.2	0.00e+00	0	38	0	725614592	58	4993
2026-01-23 09:04:02.14	33.92	34.36	-43.6	-46.2	17.3	0.00e+00	0	38	0	727711744	58	4973
2026-01-23 09:04:03.14	33.57	34.27	-43.6	-46.3	17.2	0.00e+00	0	38	0	729808896	58	5015
2026-01-23 09:04:04.13	33.22	34.17	-43.5	-46.2	17.4	0.00e+00	0	37	0	730857472	58	4927
2026-01-23 09:04:05.13	32.88	34.07	-43.5	-46.2	17.3	0.00e+00	0	38	0	732954624	58	4962
2026-01-23 09:04:06.13	32.53	33.97	-43.6	-46.3	17.2	0.00e+00	0	38	0	735051776	58	4999
2026-01-23 09:04:07.12	32.19	33.87	-43.7	-46.4	17.0	0.00e+00	0	38	0	737148928	58	5083
2026-01-23 09:04:08.12	31.85	33.77	-43.7	-46.4	17.1	0.00e+00	0	38	0	738197504	58	5067
2026-01-23 09:04:09.11	31.52	33.67	-43.7	-46.5	17.1	0.00e+00	0	38	0	740294656	58	5108
2026-01-23 09:04:10.11	31.18	33.57	-43.7	-46.4	17.0	0.00e+00	0	38	0	742391808	58	5082
2026-01-23 09:04:11.11	30.84	33.47	-43.9	-46.6	16.9	0.00e+00	0	38	0	744488960	58	5206
2026-01-23 09:04:12.11	30.51	33.36	-43.8	-46.6	16.9	0.00e+00	0	38	0	746586112	58	5172
2026-01-23 09:04:13.11	30.18	33.26	-43.7	-46.5	17.0	0.00e+00	0	38	0	747634688	58	5122
2026-01-23 09:04:14.11	29.85	33.15	-43.6	-46.4	17.1	0.00e+00	0	38	0	749731840	58	5046
2026-01-23 09:04:15.11	29.53	33.05	-43.7	-46.4	17.0	0.00e+00	0	38	0	751828992	58	5093
2026-01-23 09:04:16.10	29.21	32.94	-43.6	-46.4	17.1	0.00e+00	0	38	0	753926144	58	5045
2026-01-23 09:04:17.10	28.89	32.83	-43.5	-46.2	17.3	0.00e+00	0	38	0	756023296	58	4971
2026-01-23 09:04:18.09	28.57	32.73	-43.6	-46.4	17.2	0.00e+00	0	38	0	757071872	58	5058
2026-01-23 09:04:19.09	28.25	32.62	-43.9	-46.7	16.8	0.00e+00	0	38	0	759169024	58	5256
2026-01-23 09:04:20.09	27.94	32.51	-44.1	-47.0	16.5	0.00e+00	0	38	0	761266176	58	5434
2026-01-23 09:04:21.08	27.63	32.40	-44.2	-47.2	16.3	0.00e+00	0	38	0	763363328	59	5263
2026-01-23 09:04:22.08	27.32	32.29	-44.3	-47.3	16.2	0.00e+00	0	38	0	764411904	59	5336
2026-01-23 09:04:23.08	27.01	32.18	-44.3	-47.4	16.1	0.00e+00	0	38	0	766509056	59	5354
2026-01-23 09:04:24.08	26.70	32.07	-44.2	-47.2	16.3	0.00e+00	0	38	0	768606208	59	5238
2026-01-23 09:04:25.08	26.40	31.96	-44.2	-47.3	16.2	0.00e+00	0	37	0	770703360	59	5294
2026-01-23 09:04:26.07	26.10	31.84	-44.3	-47.4	16.1	0.00e+00	0	38	0	772800512	59	5391
2026-01-23 09:04:27.08	25.79	31.73	-44.4	-47.6	15.9	0.00e+00	0	38	0	773849088	59	5470
2026-01-23 09:04:28.07	25.50	31.62	-44.6	-47.8	15.6	0.00e+00	0	38	0	775946240	59	5656
2026-01-23 09:04:29.07	25.20	31.51	-44.6	-47.9	15.6	0.00e+00	0	38	0	778043392	60	5401
2026-01-23 09:04:30.07	24.91	31.39	-44.6	-47.8	15.7	0.00e+00	0	38	0	780140544	60	5331
2026-01-23 09:04:31.07	24.62	31.28	-44.7	-48.0	15.6	0.00e+00	0	38	0	781189120	60	5436
2026-01-23 09:04:32.06	24.33	31.16	-44.7	-48.0	15.6	0.00e+00	0	37	0	783286272	60	5420
2026-01-23 09:04:33.07	24.04	31.05	-44.8	-48.1	15.5	0.00e+00	0	38	0	785383424	60	5472
2026-01-23 09:04:34.06	23.76	30.93	-44.9	-48.2	15.4	0.00e+00	0	38	0	787480576	60	5540
2026-01-23 09:04:35.06	23.47	30.82	-44.8	-48.1	15.4	0.00e+00	0	38	0	789577728	60	5475
2026-01-23 09:04:36.06	23.19	30.70	-44.8	-48.0	15.5	0.00e+00	0	38	0	790626304	60	5439
2026-01-23 09:04:37.05	22.91	30.58	-44.6	-47.8	15.8	0.00e+00	0	38	0	792723456	60	5303
2026-01-23 09:04:38.05	22.64	30.47	-44.3	-47.3	16.2	0.00e+00	0	38	0	794820608	60	5026
2026-01-23 09:04:39.05	22.36	30.35	-44.1	-47.1	16.5	0.00e+00	0	38	0	796917760	60	4882
2026-01-23 09:04:40.04	22.09	30.23	-44.0	-46.9	16.6	0.00e+00	0	38	0	799014912	60	4798
2026-01-23 09:04:41.04	21.82	30.12	-44.1	-47.1	16.5	0.00e+00	0	38	0	800063488	60	4883
2026-01-23 09:04:42.04	21.55	30.00	-44.2	-47.2	16.3	0.00e+00	0	38	0	802160640	60	4973
2026-01-23 09:04:43.03	21.28	29.88	-44.2	-47.1	16.4	0.00e+00	0	38	0	804257792	60	4920
2026-01-23 09:04:44.03	21.02	29.76	-44.1	-47.1	16.4	0.00e+00	0	38	0	806354944	60	4914
2026-01-23 09:04:45.02	20.76	29.64	-44.1	-47.0	16.5	0.00e+00	0	38	0	808452096	60	4858
2026-01-23 09:04:46.02	20.50	29.53	-43.8	-46.6	16.9	0.00e+00	0	37	0	809500672	59	4921
2026-01-23 09:04:47.01	20.24	29.41	-43.7	-46.5	17.0	0.00e+00	0	37	0	811597824	59	4839
2026-01-23 09:04:48.01	19.98	29.29	-43.7	-46.5	17.0	0.00e+00	0	38	0	813694976	59	4839
2026-01-23 09:04:49.01	19.73	29.17	-43.5	-46.2	17.3	0.00e+00	0	38	0	815792128	58	4969
2026-01-23 09:04:50.01	19.47	29.05	-43.4	-46.1	17.4	0.00e+00	0	38	0	816840704	58	4899
2026-01-23 09:04:51.01	19.22	28.93	-43.2	-45.9	17.5	0.00e+00	0	38	0	818937856	58	4810
2026-01-23 09:04:52.00	18.97	28.81	-43.2	-45.9	17.6	0.00e+00	0	38	0	821035008	58	4773
2026-01-23 09:04:53.00	18.72	28.69	-43.2	-46.0	17.6	0.00e+00	0	38	0	823132160	58	4815
2026-01-23 09:04:54.00	18.48	28.57	-43.1	-45.8	17.7	0.00e+00	0	38	0	825229312	58	4713
2026-01-23 09:04:54.99	18.24	28.46	-43.2	-45.9	17.6	0.00e+00	0	38	0	826277888	58	4768
2026-01-23 09:04:55.99	17.99	28.34	-43.0	-45.7	17.8	0.00e+00	0	38	0	828375040	58	4668
2026-01-23 09:04:56.99	17.75	28.22	-43.1	-45.7	17.7	0.00e+00	0	38	0	830472192	58	4690
2026-01-23 09:04:57.99	17.51	28.10	-43.0	-45.7	17.8	0.00e+00	0	38	0	832569344	58	4676
2026-01-23 09:04:58.99	17.28	27.98	-43.1	-45.7	17.7	0.00e+00	0	38	0	833617920	58	4694
2026-01-23 09:04:59.98	17.04	27.86	-43.2	-45.9	17.6	0.00e+00	0	38	0	835715072	58	4784
2026-01-23 09:05:00.97	16.81	27.74	-43.0	-45.6	17.8	0.00e+00	0	38	0	837812224	58	4643
2026-01-23 09:05:01.97	16.58	27.62	-42.7	-45.3	18.2	0.00e+00	0	38	0	839909376	57	4714
2026-01-23 09:05:02.97	16.35	27.50	-42.7	-45.3	18.2	0.00e+00	0	38	0	842006528	57	4711
2026-01-23 09:05:03.97	16.12	27.38	-42.7	-45.3	18.2	0.00e+00	0	38	0	843055104	57	4723
2026-01-23 09:05:04.97	15.89	27.26	-42.8	-45.4	18.1	0.00e+00	0	38	0	845152256	57	4768
2026-01-23 09:05:05.96	15.67	27.14	-42.8	-45.3	18.2	0.00e+00	0	38	0	847249408	57	4730
2026-01-23 09:05:06.96	15.45	27.02	-42.9	-45.4	18.0	0.00e+00	0	38	0	849346560	57	4797
2026-01-23 09:05:07.96	15.23	26.90	-42.9	-45.4	18.0	0.00e+00	0	38	0	850395136	57	4807
2026-01-23 09:05:08.95	15.01	26.78	-42.9	-45.4	18.1	0.00e+00	0	38	0	852492288	57	4776
2026-01-23 09:05:09.94	14.79	26.66	-42.9	-45.5	18.0	0.00e+00	0	38	0	854589440	57	4821
2026-01-23 09:05:10.94	14.58	26.54	-42.8	-45.4	18.1	0.00e+00	0	38	0	856686592	57	4777
2026-01-23 09:05:11.94	14.36	26.42	-42.8	-45.4	18.1	0.00e+00	0	38	0	858783744	57	4775
2026-01-23 09:05:12.94	14.15	26.30	-42.6	-45.1	18.3	0.00e+00	0	38	0	859832320	57	4641
2026-01-23 09:05:13.94	13.94	26.18	-42.6	-45.2	18.2	0.00e+00	0	38	0	861929472	57	4699
2026-01-23 09:05:14.94	13.73	26.06	-42.7	-45.4	18.1	0.00e+00	0	38	0	864026624	57	4765
2026-01-23 09:05:15.93	13.52	25.95	-42.7	-45.3	18.1	0.00e+00	0	38	0	866123776	57	4739
2026-01-23 09:05:16.93	13.31	25.83	-42.7	-45.2	18.2	0.00e+00	0	38	0	868220928	57	4693
2026-01-23 09:05:17.93	13.11	25.71	-42.8	-45.4	18.0	0.00e+00	0	38	0	869269504	57	4776
2026-01-23 09:05:18.92	12.91	25.59	-42.8	-45.4	18.1	0.00e+00	0	38	0	871366656	57	4778
2026-01-23 09:05:19.92	12.70	25.47	-42.9	-45.5	18.0	0.00e+00	0	38	0	873463808	57	4843
2026-01-23 09:05:20.92	12.50	25.35	-42.8	-45.3	18.1	0.00e+00	0	38	0	875560960	57	4746
2026-01-23 09:05:21.91	12.31	25.24	-42.8	-45.3	18.1	0.00e+00	0	37	0	876609536	57	4747
2026-01-23 09:05:22.91	12.11	25.12	-42.7	-45.3	18.1	0.00e+00	0	37	0	878706688	57	4712
2026-01-23 09:05:23.91	11.91	25.00	-42.7	-45.2	18.2	0.00e+00	0	38	0	880803840	57	4687
2026-01-23 09:05:24.90	11.72	24.88	-42.8	-45.3	18.1	0.00e+00	0	38	0	882900992	57	4744
2026-01-23 09:05:25.90	11.53	24.77	-42.8	-45.3	18.1	0.00e+00	0	38	0	884998144	57	4726
2026-01-23 09:05:26.90	11.33	24.65	-42.5	-45.0	18.4	0.00e+00	0	38	0	886046720	57	4565
2026-01-23 09:05:27.90	11.14	24.53	-42.5	-45.0	18.4	0.00e+00	0	38	0	888143872	57	4563
2026-01-23 09:05:28.90	10.95	24.41	-42.6	-45.1	18.3	0.00e+00	0	38	0	890241024	57	4626
2026-01-23 09:05:29.90	10.77	24.30	-42.7	-45.2	18.2	0.00e+00	0	38	0	892338176	57	4690
2026-01-23 09:05:30.90	10.58	24.18	-42.9	-45.4	18.1	0.00e+00	0	38	0	894435328	57	4780
2026-01-23 09:05:31.89	10.40	24.06	-42.9	-45.4	18.1	0.00e+00	0	38	0	895483904	57	4780
2026-01-23 09:05:32.89	10.22	23.95	-43.0	-45.5	17.9	0.00e+00	0	38	0	897581056	57	4853
2026-01-23 09:05:33.88	10.04	23.83	-42.9	-45.5	17.9	0.00e+00	0	37	0	899678208	57	4833
2026-01-23 09:05:34.88	9.85	23.72	-43.0	-45.6	17.8	0.00e+00	0	38	0	901775360	57	4901
2026-01-23 09:05:35.88	9.68	23.60	-43.1	-45.7	17.8	0.00e+00	0	38	0	902823936	57	4941
2026-01-23 09:05:36.87	9.50	23.49	-42.9	-45.5	17.9	0.00e+00	0	38	0	904921088	57	4847
2026-01-23 09:05:37.87	9.32	23.37	-42.9	-45.6	17.9	0.00e+00	0	38	0	907018240	57	4885
2026-01-23 09:05:38.87	9.15	23.26	-42.8	-45.5	17.9	0.00e+00	0	38	0	909115392	57	4829
2026-01-23 09:05:39.87	8.97	23.14	-42.8	-45.6	17.9	0.00e+00	0	38	0	911212544	57	4874
2026-01-23 09:05:40.87	8.80	23.03	-42.9	-45.7	17.8	0.00e+00	0	38	0	912261120	57	4950
2026-01-23 09:05:41.86	8.63	22.91	-43.1	-46.0	17.4	0.00e+00	0	38	0	914358272	57	5134
2026-01-23 09:05:42.86	8.46	22.80	-43.2	-46.1	17.3	0.00e+00	0	38	0	916455424	57	5197
2026-01-23 09:05:43.86	8.29	22.68	-43.4	-46.3	17.1	0.00e+00	0	38	0	918552576	57	5333
2026-01-23 09:05:44.86	8.13	22.57	-43.5	-46.5	17.0	0.00e+00	0	38	0	919601152	57	5409
2026-01-23 09:05:45.86	7.96	22.46	-43.6	-46.6	16.9	0.00e+00	0	38	0	921698304	57	5476
2026-01-23 09:05:46.85	7.80	22.34	-43.6	-46.6	16.9	0.00e+00	0	38	0	923795456	58	5175
2026-01-23 09:05:47.85	7.63	22.23	-43.6	-46.5	17.0	0.00e+00	0	38	0	925892608	58	5118
2026-01-23 09:05:48.85	7.47	22.12	-43.5	-46.5	17.0	0.00e+00	0	38	0	927989760	58	5105
2026-01-23 09:05:49.85	7.31	22.01	-43.4	-46.4	17.0	0.00e+00	0	38	0	929038336	58	5053
2026-01-23 09:05:50.85	7.15	21.89	-43.3	-46.3	17.1	0.00e+00	0	38	0	931135488	58	5035
2026-01-23 09:05:51.84	6.99	21.78	-43.3	-46.3	17.2	0.00e+00	0	38	0	933232640	58	4986
2026-01-23 09:05:52.84	6.83	21.67	-43.4	-46.3	17.1	0.00e+00	0	38	0	935329792	58	5037
2026-01-23 09:05:53.84	6.68	21.56	-43.4	-46.3	17.1	0.00e+00	0	38	0	937426944	58	5035
2026-01-23 09:05:54.83	6.52	21.45	-43.5	-46.4	17.0	0.00e+00	0	38	0	938475520	58	5046
2026-01-23 09:05:55.82	6.37	21.34	-43.5	-46.4	17.1	0.00e+00	0	38	0	940572672	58	5067
2026-01-23 09:05:56.82	6.22	21.23	-43.5	-46.4	17.1	0.00e+00	0	38	0	942669824	58	5044
2026-01-23 09:05:57.82	6.06	21.12	-43.5	-46.3	17.1	0.00e+00	0	38	0	944766976	58	5028
2026-01-23 09:05:58.81	5.91	21.01	-43.4	-46.3	17.2	0.00e+00	0	38	0	945815552	58	4995
2026-01-23 09:05:59.80	5.77	20.90	-43.4	-46.3	17.1	0.00e+00	0	38	0	947912704	58	5019
2026-01-23 09:06:00.80	5.62	20.79	-43.3	-46.2	17.2	0.00e+00	0	38	0	950009856	58	4977
2026-01-23 09:06:01.80	5.47	20.68	-43.2	-46.2	17.1	0.00e+00	0	38	0	952107008	58	4982
2026-01-23 09:06:02.79	5.32	20.57	-43.3	-46.3	17.1	0.00e+00	0	38	0	954204160	58	5018
2026-01-23 09:06:03.79	5.18	20.46	-43.4	-46.4	17.0	0.00e+00	0	38	0	955252736	58	5083
2026-01-23 09:06:04.79	5.03	20.36	-43.4	-46.5	17.0	0.00e+00	0	38	0	957349888	58	5108
2026-01-23 09:06:05.78	4.89	20.25	-43.7	-46.7	16.8	0.00e+00	0	38	0	959447040	58	5229
2026-01-23 09:06:06.78	4.75	20.14	-43.7	-46.7	16.7	0.00e+00	0	38	0	961544192	58	5230
2026-01-23 09:06:07.78	4.61	20.03	-43.7	-46.6	16.8	0.00e+00	0	38	0	962592768	58	5195
2026-01-23 09:06:08.78	4.47	19.92	-43.7	-46.5	16.9	0.00e+00	0	38	0	964689920	58	5145
2026-01-23 09:06:09.77	4.33	19.82	-43.6	-46.5	16.9	0.00e+00	0	38	0	966787072	58	5137
2026-01-23 09:06:10.77	4.19	19.71	-43.6	-46.6	16.8	0.00e+00	0	38	0	968884224	58	5165
2026-01-23 09:06:11.77	4.05	19.61	-43.4	-46.3	17.1	0.00e+00	0	38	0	970981376	58	5040
2026-01-23 09:06:12.77	3.91	19.50	-43.4	-46.3	17.1	0.00e+00	0	38	0	972029952	58	5027
2026-01-23 09:06:13.77	3.78	19.39	-43.3	-46.3	17.1	0.00e+00	0	38	0	974127104	58	5011
2026-01-23 09:06:14.77	3.64	19.29	-43.5	-46.4	17.0	0.00e+00	0	38	0	976224256	58	5083
2026-01-23 09:06:15.76	3.51	19.18	-43.5	-46.4	17.0	0.00e+00	0	38	0	978321408	58	5067
2026-01-23 09:06:16.76	3.38	19.08	-43.5	-46.4	17.0	0.00e+00	0	38	0	979369984	58	5075
2026-01-23 09:06:17.75	3.25	18.97	-43.4	-46.2	17.1	0.00e+00	0	38	0	981467136	58	4972
2026-01-23 09:06:18.75	3.12	18.87	-43.4	-46.2	17.2	0.00e+00	0	38	0	983564288	58	4935
2026-01-23 09:06:19.74	2.99	18.77	-43.4	-46.2	17.2	0.00e+00	0	38	0	985661440	58	4969
2026-01-23 09:06:20.74	2.86	18.66	-43.3	-46.1	17.3	0.00e+00	0	38	0	987758592	58	4919
2026-01-23 09:06:21.74	2.73	18.56	-43.2	-46.1	17.3	0.00e+00	0	38	0	988807168	58	4909
2026-01-23 09:06:22.73	2.61	18.45	-43.2	-46.1	17.2	0.00e+00	0	38	0	990904320	58	4926
2026-01-23 09:06:23.73	2.48	18.35	-43.3	-46.2	17.2	0.00e+00	0	38	0	993001472	58	4947
2026-01-23 09:06:24.73	2.35	18.25	-43.4	-46.3	17.1	0.00e+00	0	38	0	995098624	58	4987
2026-01-23 09:06:25.73	2.23	18.15	-43.5	-46.3	17.0	0.00e+00	0	38	0	997195776	58	5038
2026-01-23 09:06:26.73	2.10	18.04	-43.6	-46.4	17.0	0.00e+00	0	38	0	998244352	58	5073
2026-01-23 09:06:27.72	1.98	17.94	-43.6	-46.4	17.0	0.00e+00	0	38	0	1000341504	58	5087
2026-01-23 09:06:28.72	1.86	17.84	-43.6	-46.4	17.0	0.00e+00	0	38	0	1002438656	58	5079
2026-01-23 09:06:29.72	1.74	17.74	-43.6	-46.4	16.9	0.00e+00	0	38	0	1004535808	58	5100
2026-01-23 09:06:30.72	1.62	17.64	-43.5	-46.4	17.0	0.00e+00	0	38	0	1005584384	58	5063
2026-01-23 09:06:31.71	1.50	17.54	-43.6	-46.5	16.9	0.00e+00	0	38	0	1007681536	58	5115
2026-01-23 09:06:32.71	1.38	17.44	-43.4	-46.4	17.0	0.00e+00	0	38	0	1009778688	58	5052
2026-01-23 09:06:33.71	1.26	17.34	-43.3	-46.3	17.1	0.00e+00	0	38	0	1011875840	58	5020
2026-01-23 09:06:34.71	1.15	17.24	-43.2	-46.2	17.1	0.00e+00	0	38	0	1013972992	58	4974
2026-01-23 09:06:35.70	1.03	17.14	-43.2	-46.2	17.1	0.00e+00	0	38	0	1015021568	58	4965
2026-01-23 09:06:36.70	0.92	17.04	-43.3	-46.3	17.1	0.00e+00	0	38	0	1017118720	58	4989
2026-01-23 09:06:37.69	0.80	16.94	-43.3	-46.2	17.2	0.00e+00	0	38	0	1019215872	58	4959
2026-01-23 09:06:38.69	0.69	16.84	-43.3	-46.2	17.2	0.00e+00	0	38	0	1021313024	58	4948
2026-01-23 09:06:39.69	0.57	16.74	-43.4	-46.3	17.1	0.00e+00	0	38	0	1023410176	58	5022
2026-01-23 09:06:40.69	0.46	16.64	-43.3	-46.2	17.1	0.00e+00	0	38	0	1024458752	58	4978
2026-01-23 09:06:41.69	0.35	16.55	-43.3	-46.2	17.1	0.00e+00	0	38	0	1026555904	58	4955
2026-01-23 09:06:42.68	0.24	16.45	-43.2	-46.1	17.2	0.00e+00	0	38	0	1028653056	58	4907
2026-01-23 09:06:43.68	0.13	16.35	-43.1	-46.0	17.3	0.00e+00	0	38	0	1030750208	58	4866
2026-01-23 09:06:44.68	0.02	16.25	-43.0	-46.0	17.3	0.00e+00	0	38	0	1031798784	58	4851
2026-01-23 09:06:45.68	359.91	16.16	-42.9	-45.9	17.4	0.00e+00	0	38	0	1033895936	57	5087
2026-01-23 09:06:46.67	359.80	16.06	-43.0	-45.9	17.4	0.00e+00	0	38	0	1035993088	57	5070
2026-01-23 09:06:47.67	359.70	15.96	-43.1	-45.9	17.4	0.00e+00	0	38	0	1038090240	57	5089
2026-01-23 09:06:48.67	359.59	15.87	-43.1	-45.9	17.4	0.00e+00	0	38	0	1040187392	57	5097
2026-01-23 09:06:49.67	359.48	15.77	-43.1	-46.0	17.3	0.00e+00	0	38	0	1041235968	57	5112
2026-01-23 09:06:50.66	359.38	15.68	-43.2	-46.1	17.2	0.00e+00	0	38	0	1043333120	57	5187
2026-01-23 09:06:51.66	359.28	15.58	-43.3	-46.3	17.1	0.00e+00	0	38	0	1045430272	57	5289
2026-01-23 09:06:52.66	359.17	15.49	-43.5	-46.5	16.8	0.00e+00	0	38	0	1047527424	57	5412
2026-01-23 09:06:53.65	359.07	15.39	-43.5	-46.4	16.9	0.00e+00	0	38	0	1048576000	57	5392
2026-01-23 09:06:54.65	358.97	15.30	-43.6	-46.6	16.7	0.00e+00	0	38	0	1050673152	57	5516
2026-01-23 09:06:55.64	358.87	15.21	-43.7	-46.8	16.5	0.00e+00	0	38	0	1052770304	58	5325
2026-01-23 09:06:56.64	358.76	15.11	-43.7	-46.8	16.6	0.00e+00	0	38	0	1054867456	58	5289
2026-01-23 09:06:57.64	358.66	15.02	-43.7	-46.9	16.5	0.00e+00	0	38	0	1056964608	58	5344
2026-01-23 09:06:58.63	358.57	14.93	-43.7	-46.8	16.5	0.00e+00	0	37	0	1058013184	58	5312
2026-01-23 09:06:59.63	358.47	14.83	-43.7	-46.8	16.5	0.00e+00	0	38	0	1060110336	58	5325
2026-01-23 09:07:00.63	358.37	14.74	-43.7	-46.9	16.4	0.00e+00	0	38	0	1062207488	58	5343
2026-01-23 09:07:01.63	358.27	14.65	-43.7	-46.7	16.6	0.00e+00	0	38	0	1064304640	58	5245
2026-01-23 09:07:02.62	358.17	14.56	-43.8	-46.7	16.6	0.00e+00	0	38	0	1065353216	58	5263
2026-01-23 09:07:03.62	358.08	14.46	-43.8	-46.8	16.5	0.00e+00	0	38	0	1067450368	58	5288
2026-01-23 09:07:04.62	357.98	14.37	-43.7	-46.6	16.6	0.00e+00	0	38	0	1069547520	58	5205
2026-01-23 09:07:05.62	357.88	14.28	-43.6	-46.6	16.7	0.00e+00	0	38	0	1071644672	58	5176
2026-01-23 09:07:06.62	357.79	14.19	-43.6	-46.6	16.7	0.00e+00	0	38	0	1073741824	58	5204
2026-01-23 09:07:07.61	357.70	14.10	-43.7	-46.8	16.5	0.00e+00	0	38	0	1074790400	58	5285
2026-01-23 09:07:08.61	357.60	14.01	-43.8	-46.9	16.4	0.00e+00	0	38	0	1076887552	58	5399
2026-01-23 09:07:09.61	357.51	13.92	-43.8	-46.9	16.4	0.00e+00	0	38	0	1078984704	58	5398
2026-01-23 09:07:10.60	357.42	13.83	-43.8	-47.0	16.2	0.00e+00	0	38	0	1081081856	58	5458
2026-01-23 09:07:11.60	357.33	13.74	-43.8	-47.0	16.3	0.00e+00	0	38	0	1083179008	58	5437
2026-01-23 09:07:12.60	357.23	13.65	-43.9	-47.1	16.2	0.00e+00	0	38	0	1084227584	58	5488
2026-01-23 09:07:13.60	357.14	13.56	-44.0	-47.3	16.0	0.00e+00	0	38	0	1086324736	58	5606
2026-01-23 09:07:14.59	357.05	13.47	-44.1	-47.3	16.0	0.00e+00	0	38	0	1088421888	58	5628
2026-01-23 09:07:15.59	356.96	13.38	-44.1	-47.4	15.9	0.00e+00	0	38	0	1090519040	58	5660
2026-01-23 09:07:16.59	356.88	13.29	-44.2	-47.5	15.8	0.00e+00	0	38	0	1092616192	59	5456
2026-01-23 09:07:17.58	356.79	13.20	-44.1	-47.4	15.8	0.00e+00	0	38	0	1093664768	59	5394
2026-01-23 09:07:18.58	356.70	13.12	-44.2	-47.6	15.7	0.00e+00	0	38	0	1095761920	59	5467
2026-01-23 09:07:19.58	356.61	13.03	-44.3	-47.7	15.6	0.00e+00	0	38	0	1097859072	59	5534
2026-01-23 09:07:20.57	356.53	12.94	-44.2	-47.7	15.6	0.00e+00	0	38	0	1099956224	59	5536
2026-01-23 09:07:21.57	356.44	12.85	-44.2	-47.7	15.6	0.00e+00	0	38	0	1101004800	59	5554
2026-01-23 09:07:22.56	356.35	12.77	-44.1	-47.8	15.5	0.00e+00	0	38	0	1103101952	59	5599
2026-01-23 09:07:23.56	356.27	12.68	-43.9	-47.8	15.5	0.00e+00	0	37	0	1105199104	59	5596
2026-01-23 09:07:24.56	356.18	12.59	-43.9	-48.0	15.3	0.00e+00	0	38	0	1107296256	59	5734
2026-01-23 09:07:25.55	356.10	12.51	-43.7	-47.9	15.3	0.00e+00	0	38	0	1109393408	59	5721
2026-01-23 09:07:26.55	356.02	12.42	-43.7	-47.9	15.3	0.00e+00	0	38	0	1110441984	59	5706
2026-01-23 09:07:27.55	355.93	12.34	-43.6	-47.9	15.4	0.00e+00	0	38	0	1112539136	59	5686
2026-01-23 09:07:28.55	355.85	12.25	-43.6	-47.9	15.3	0.00e+00	0	38	0	1114636288	59	5706
2026-01-23 09:07:29.55	355.77	12.16	-43.7	-47.9	15.3	0.00e+00	0	38	0	1116733440	59	5717
2026-01-23 09:07:30.54	355.69	12.08	-43.7	-48.0	15.2	0.00e+00	0	38	0	1117782016	59	5737
2026-01-23 09:07:31.54	355.61	11.99	-43.9	-48.1	15.1	0.00e+00	0	38	0	1119879168	59	5801
2026-01-23 09:07:32.54	355.53	11.91	-43.9	-48.1	15.2	0.00e+00	0	38	0	1121976320	59	5798
2026-01-23 09:07:33.54	355.45	11.82	-44.0	-48.2	15.1	0.00e+00	0	38	0	1124073472	59	5901
2026-01-23 09:07:34.53	355.37	11.74	-44.0	-48.2	15.0	0.00e+00	0	38	0	1126170624	59	5861
2026-01-23 09:07:35.53	355.29	11.66	-44.0	-48.2	15.0	0.00e+00	0	38	0	1127219200	59	5871
2026-01-23 09:07:36.53	355.21	11.57	-44.1	-48.2	14.9	0.00e+00	0	38	0	1129316352	59	5919
2026-01-23 09:07:37.52	355.13	11.49	-44.1	-48.3	14.9	0.00e+00	0	38	0	1131413504	59	5986
2026-01-23 09:07:38.52	355.05	11.41	-44.0	-48.4	14.8	0.00e+00	0	38	0	1133510656	59	6006
2026-01-23 09:07:39.52	354.98	11.32	-43.9	-48.3	14.9	0.00e+00	0	38	0	1134559232	59	5970
2026-01-23 09:07:40.51	354.90	11.24	-43.9	-48.3	14.9	0.00e+00	0	38	0	1136656384	59	5941
2026-01-23 09:07:41.51	354.82	11.16	-43.7	-48.2	15.0	0.00e+00	0	38	0	1138753536	59	5877
2026-01-23 09:07:42.51	354.75	11.08	-43.6	-48.2	15.0	0.00e+00	0	38	0	1140850688	59	5875
2026-01-23 09:07:43.51	354.67	10.99	-43.3	-48.3	14.8	0.00e+00	0	38	0	1142947840	58	6344
2026-01-23 09:07:44.51	354.60	10.91	-43.2	-48.3	14.9	0.00e+00	0	38	0	1143996416	58	6291
2026-01-23 09:07:45.51	354.52	10.83	-43.0	-48.2	14.9	0.00e+00	0	38	0	1146093568	57	6645
2026-01-23 09:07:46.51	354.45	10.75	-42.8	-48.3	14.8	0.00e+00	0	38	0	1148190720	57	6705
2026-01-23 09:07:47.51	354.37	10.67	-42.7	-48.3	14.8	7.00e-07	0	38	0	1150287872	57	6693
2026-01-23 09:07:48.50	354.30	10.59	-42.6	-48.2	14.9	0.00e+00	0	38	0	1152385024	57	6605
2026-01-23 09:07:49.50	354.23	10.51	-42.5	-48.2	14.9	0.00e+00	0	38	0	1153433600	57	6599
2026-01-23 09:07:50.50	354.15	10.42	-42.7	-48.3	14.8	0.00e+00	0	38	0	1155530752	57	6695
2026-01-23 09:07:51.49	354.08	10.34	-42.9	-48.3	14.8	0.00e+00	0	38	0	1157627904	57	6695
2026-01-23 09:07:52.49	354.01	10.26	-43.0	-48.3	14.8	7.00e-07	0	38	0	1159725056	57	6708
2026-01-23 09:07:53.49	353.94	10.18	-43.0	-48.3	14.8	7.00e-07	0	38	0	1160773632	57	6708
2026-01-23 09:07:54.48	353.87	10.11	-42.9	-48.2	14.9	0.00e+00	0	38	0	1162870784	57	6598
2026-01-23 09:07:55.48	353.80	10.03	-43.0	-48.2	14.9	0.00e+00	0	38	0	1164967936	57	6637
2026-01-23 09:07:56.47	353.73	9.95	-42.8	-48.2	14.9	0.00e+00	0	38	0	1167065088	57	6613
2026-01-23 09:07:57.47	353.66	9.87	-42.8	-48.2	14.9	0.00e+00	0	38	0	1169162240	57	6585
2026-01-23 09:07:58.47	353.59	9.79	-42.7	-48.3	14.8	0.00e+00	0	38	0	1170210816	57	6683
2026-01-23 09:07:59.46	353.52	9.71	-42.5	-48.3	14.7	0.00e+00	0	38	0	1172307968	57	6718
2026-01-23 09:08:00.46	353.45	9.63	-42.5	-48.4	14.7	0.00e+00	0	38	0	1174405120	56	7165
2026-01-23 09:08:01.46	353.38	9.55	-42.6	-48.5	14.6	0.00e+00	0	38	0	1176502272	56	7242
2026-01-23 09:08:02.45	353.32	9.48	-42.6	-48.5	14.6	1.50e-06	0	38	0	1177550848	56	7206
2026-01-23 09:08:03.45	353.25	9.40	-42.7	-48.4	14.7	0.00e+00	0	38	0	1179648000	56	7172
2026-01-23 09:08:04.45	353.18	9.32	-43.1	-48.5	14.6	0.00e+00	0	38	0	1181745152	56	7210
2026-01-23 09:08:05.44	353.12	9.24	-43.2	-48.4	14.7	0.00e+00	0	38	0	1183842304	57	6755
2026-01-23 09:08:06.44	353.05	9.17	-43.3	-48.5	14.6	0.00e+00	0	38	0	1185939456	57	6839
2026-01-23 09:08:07.44	352.98	9.09	-43.6	-48.5	14.6	7.00e-07	0	38	0	1186988032	57	6839
2026-01-23 09:08:08.44	352.92	9.01	-43.7	-48.5	14.4	0.00e+00	0	38	0	1189085184	58	6489
2026-01-23 09:08:09.44	352.85	8.93	-45.1	-64.3	3.8	1.11e+00	0	38	104	1190133760	60	35505
2026-01-23 09:08:10.43	352.79	8.86	-48.7	-64.4	3.8	1.49e+00	0	38	104	1190133760	67	24092
2026-01-23 09:08:11.43	352.73	8.78	-49.0	-64.6	3.8	1.49e+00	0	38	104	1190133760	68	23267
2026-01-23 09:08:12.42	352.66	8.71	-49.2	-64.7	3.8	1.49e+00	0	38	104	1190133760	68	23513
2026-01-23 09:08:13.42	352.60	8.63	-49.3	-64.8	3.8	1.49e+00	0	38	104	1190133760	69	22321
2026-01-23 09:08:14.42	352.53	8.55	-49.1	-64.8	3.8	1.49e+00	0	38	104	1190133760	69	22446
2026-01-23 09:08:15.42	352.47	8.48	-49.6	-64.8	3.8	1.49e+00	0	38	104	1190133760	69	22449
2026-01-23 09:08:16.42	352.41	8.40	-49.3	-64.8	3.8	1.49e+00	0	38	104	1190133760	69	22504
2026-01-23 09:08:17.41	352.35	8.33	-49.2	-64.9	3.8	1.49e+00	0	38	104	1190133760	69	22677
2026-01-23 09:08:18.41	352.28	8.25	-49.0	-64.9	3.8	1.49e+00	0	38	104	1190133760	69	22636
2026-01-23 09:08:19.41	352.22	8.18	-49.7	-64.9	3.8	1.49e+00	0	38	104	1190133760	70	21500
2026-01-23 09:08:20.41	352.16	8.10	-49.4	-65.0	3.8	1.49e+00	0	38	104	1190133760	70	21536
2026-01-23 09:08:21.40	352.10	8.03	-49.3	-65.0	3.8	1.49e+00	0	38	104	1190133760	70	21522
2026-01-23 09:08:22.40	352.04	7.96	-49.5	-64.9	3.8	1.49e+00	0	38	104	1190133760	70	21504
2026-01-23 09:08:23.40	351.98	7.88	-49.7	-64.9	3.8	1.49e+00	0	38	104	1190133760	70	21488
2026-01-23 09:08:24.39	351.92	7.81	-49.6	-64.9	3.8	1.49e+00	0	38	104	1190133760	70	21458
