passes_logs/2026/01/26/T1/T1__20260126_112142_NOAA_20_JPSS-1_rec.log

#Pass ID: 20260126_112142_NOAA 20 (JPSS-1)
#Satellite: NOAA 20 (JPSS-1)
#Configuration: NOAA 20
#almurnet v.1.7.20251203
#Start time: 2026-01-26 11:21:43

#Version: 2.0.20230620
#Station: T1
#Location: 37.570604 lon 55.790049 lat
#TLE: 1 43013U 17073A   26025.83228772  .00000162  00000+0  97663-4 0  9996
#TLE: 2 43013  98.7646 326.6579 0001036  23.5840 336.5383 14.19540376424273

#Time	Az	El	Level	Level2	SNR	BER	BlckErr	Temp	State	Recorded	gain1	gain2
2026-01-26 11:21:43.09	207.04	5.05	-49.6	-65.0	3.8	1.49e+00	0	40	0	0	70	21667
2026-01-26 11:21:44.08	207.12	5.11	-49.6	-65.0	3.8	1.49e+00	0	40	104	0	71	20360
2026-01-26 11:21:45.07	207.20	5.17	-49.6	-65.0	3.8	1.49e+00	0	40	104	0	71	20349
2026-01-26 11:21:46.06	207.28	5.23	-49.6	-65.0	3.8	1.49e+00	0	40	104	0	71	20469
2026-01-26 11:21:47.06	207.36	5.29	-49.6	-65.0	3.8	1.49e+00	0	40	104	0	71	20392
2026-01-26 11:21:48.05	207.44	5.35	-49.6	-65.0	3.8	1.49e+00	0	40	104	0	71	20411
2026-01-26 11:21:49.05	207.52	5.41	-49.6	-65.0	3.8	1.49e+00	0	40	104	0	71	20326
2026-01-26 11:21:50.04	207.61	5.47	-49.6	-65.0	3.8	1.49e+00	0	40	104	0	71	20407
2026-01-26 11:21:51.03	207.69	5.53	-49.6	-65.0	3.8	1.49e+00	0	40	104	0	71	20357
2026-01-26 11:21:52.02	207.77	5.60	-49.6	-64.9	3.8	1.49e+00	0	40	104	0	71	20249
2026-01-26 11:21:53.02	207.85	5.66	-49.6	-65.0	3.8	1.49e+00	0	40	104	0	71	20334
2026-01-26 11:21:54.01	207.94	5.72	-49.6	-64.9	3.8	1.49e+00	0	40	104	0	71	20289
2026-01-26 11:21:55.00	208.02	5.78	-49.6	-64.9	3.8	1.49e+00	0	41	104	0	71	20224
2026-01-26 11:21:56.00	208.11	5.84	-49.6	-64.9	3.8	1.49e+00	0	41	104	0	71	20264
2026-01-26 11:21:56.99	208.19	5.90	-49.6	-65.0	3.8	1.49e+00	0	41	104	0	71	20309
2026-01-26 11:21:57.98	208.27	5.97	-49.5	-65.0	3.8	1.49e+00	0	40	104	0	71	20367
2026-01-26 11:21:58.98	208.36	6.03	-49.6	-65.0	3.8	1.49e+00	0	41	104	0	71	20409
2026-01-26 11:21:59.97	208.45	6.09	-49.6	-64.9	3.8	1.49e+00	0	41	104	0	71	20263
2026-01-26 11:22:00.96	208.53	6.15	-49.6	-64.9	3.8	1.49e+00	0	41	104	0	71	20298
2026-01-26 11:22:01.96	208.62	6.22	-49.6	-65.0	3.8	1.49e+00	0	41	104	0	71	20396
2026-01-26 11:22:02.95	208.70	6.28	-49.6	-65.0	3.8	1.49e+00	0	41	104	0	71	20311
2026-01-26 11:22:03.94	208.79	6.34	-49.6	-64.9	3.8	1.49e+00	0	41	104	0	71	20121
2026-01-26 11:22:04.93	208.88	6.40	-49.6	-64.8	3.8	1.49e+00	0	41	104	0	71	19943
2026-01-26 11:22:05.93	208.97	6.47	-49.5	-64.6	3.8	1.49e+00	0	41	104	0	71	19520
2026-01-26 11:22:06.92	209.05	6.53	-49.5	-64.4	3.8	1.49e+00	0	41	104	0	71	19000
2026-01-26 11:22:07.91	209.14	6.59	-49.5	-64.3	3.8	1.49e+00	0	41	104	0	71	18804
2026-01-26 11:22:08.91	209.23	6.66	-49.5	-64.3	3.8	1.49e+00	0	41	104	0	71	18920
2026-01-26 11:22:09.90	209.32	6.72	-49.5	-64.4	3.8	1.49e+00	0	41	104	0	71	19097
2026-01-26 11:22:10.89	209.41	6.78	-49.5	-64.6	3.8	1.49e+00	0	41	104	0	71	19408
2026-01-26 11:22:11.89	209.50	6.85	-49.5	-64.6	3.8	1.49e+00	0	41	104	0	71	19608
2026-01-26 11:22:12.88	209.59	6.91	-49.5	-64.6	3.8	1.49e+00	0	41	104	0	71	19527
2026-01-26 11:22:13.87	209.68	6.97	-49.5	-64.5	3.8	1.49e+00	0	41	104	0	71	19200
2026-01-26 11:22:14.87	209.77	7.04	-49.5	-64.4	3.8	1.49e+00	0	41	104	0	71	19047
2026-01-26 11:22:15.86	209.86	7.10	-49.5	-64.3	3.8	1.49e+00	0	41	104	0	70	20067
2026-01-26 11:22:16.85	209.95	7.17	-49.5	-64.3	3.8	1.49e+00	0	41	104	0	70	19897
2026-01-26 11:22:17.85	210.05	7.23	-49.5	-64.2	3.8	1.49e+00	0	41	104	0	70	19765
2026-01-26 11:22:18.84	210.14	7.29	-49.5	-64.2	3.8	1.49e+00	0	41	104	0	70	19667
2026-01-26 11:22:19.83	210.23	7.36	-49.5	-64.2	3.8	1.49e+00	0	41	104	0	70	19782
2026-01-26 11:22:20.83	210.32	7.42	-49.5	-64.3	3.8	1.49e+00	0	41	104	0	70	20066
2026-01-26 11:22:21.82	210.42	7.49	-49.5	-64.4	3.8	1.49e+00	0	41	104	0	70	20085
2026-01-26 11:22:22.81	210.51	7.55	-49.5	-64.1	3.8	1.49e+00	0	41	104	0	70	19611
2026-01-26 11:22:23.81	210.61	7.62	-49.5	-63.8	3.8	1.49e+00	0	41	104	0	70	18777
2026-01-26 11:22:24.80	210.70	7.68	-49.4	-63.3	3.8	1.49e+00	0	41	104	0	70	17773
2026-01-26 11:22:25.79	210.80	7.75	-49.5	-63.2	3.8	1.49e+00	0	41	104	0	70	17489
2026-01-26 11:22:26.78	210.89	7.81	-49.5	-63.5	3.8	1.49e+00	0	41	104	0	70	18271
2026-01-26 11:22:27.78	210.99	7.88	-49.5	-64.3	3.8	1.49e+00	0	41	104	0	70	19975
2026-01-26 11:22:28.77	211.08	7.94	-49.5	-64.9	3.8	1.49e+00	0	42	104	0	70	21411
2026-01-26 11:22:29.76	211.18	8.01	-49.4	-63.5	3.8	1.49e+00	0	41	104	0	70	18268
2026-01-26 11:22:30.76	211.28	8.07	-49.1	-59.6	4.9	1.13e+00	0	41	0	0	70	11614
2026-01-26 11:22:31.75	211.38	8.14	-48.5	-55.9	7.6	2.29e-01	0	42	0	2097152	69	8063
2026-01-26 11:22:32.74	211.47	8.20	-47.4	-52.8	10.6	2.19e-02	0	42	0	4194304	66	6701
2026-01-26 11:22:33.74	211.57	8.27	-46.4	-50.7	12.8	8.17e-04	0	42	0	5242880	64	5886
2026-01-26 11:22:34.73	211.67	8.33	-45.5	-49.2	14.5	3.00e-06	0	41	0	7340032	63	5234
2026-01-26 11:22:35.72	211.77	8.40	-44.9	-48.1	15.6	0.00e+00	0	41	0	9437184	61	5199
2026-01-26 11:22:36.72	211.87	8.47	-44.3	-47.3	16.3	0.00e+00	0	42	0	11534336	60	5035
2026-01-26 11:22:37.71	211.97	8.53	-44.2	-47.1	16.5	0.00e+00	0	42	0	13631488	60	4924
2026-01-26 11:22:38.70	212.07	8.60	-44.3	-47.4	16.3	0.00e+00	0	42	0	14680064	60	5045
2026-01-26 11:22:39.70	212.18	8.66	-44.6	-47.7	16.0	0.00e+00	0	42	0	16777216	60	5241
2026-01-26 11:22:40.69	212.28	8.73	-45.1	-48.5	15.2	1.51e-04	0	42	0	18874368	60	5771
2026-01-26 11:22:41.68	212.38	8.80	-45.9	-49.8	14.0	1.50e-06	0	42	0	20971520	62	5933
2026-01-26 11:22:42.67	212.48	8.86	-46.7	-51.3	12.3	4.65e-05	0	42	0	22020096	64	6280
2026-01-26 11:22:43.67	212.58	8.93	-47.5	-53.2	10.3	1.36e-03	0	42	0	24117248	65	7384
2026-01-26 11:22:44.66	212.69	9.00	-48.1	-55.1	8.3	1.44e-02	0	42	0	26214400	66	8724
2026-01-26 11:22:45.65	212.79	9.06	-48.2	-55.2	8.3	9.01e-02	0	42	0	28311552	67	8279
2026-01-26 11:22:46.65	212.90	9.13	-46.6	-51.0	12.5	4.39e-02	0	42	0	30408704	65	5752
2026-01-26 11:22:47.64	213.00	9.20	-48.9	-58.1	5.9	1.94e-04	0	42	0	31457280	68	10977
2026-01-26 11:22:48.64	213.11	9.27	-48.8	-57.3	6.3	9.67e-01	0	42	0	33554432	69	9399
2026-01-26 11:22:49.63	213.21	9.33	-46.0	-49.8	13.8	2.64e-02	0	42	0	35651584	63	5641
2026-01-26 11:22:50.62	213.32	9.40	-46.2	-50.2	13.5	7.85e-05	0	42	0	37748736	64	5579
2026-01-26 11:22:51.62	213.43	9.47	-46.1	-50.2	13.5	1.29e-05	0	42	0	38797312	64	5549
2026-01-26 11:22:52.61	213.53	9.53	-46.1	-50.2	13.5	1.75e-05	0	42	0	40894464	64	5540
2026-01-26 11:22:53.60	213.64	9.60	-45.6	-49.3	14.4	2.20e-06	0	42	0	42991616	63	5314
2026-01-26 11:22:54.60	213.75	9.67	-45.2	-48.6	15.2	0.00e+00	0	42	0	45088768	62	5212
2026-01-26 11:22:55.59	213.86	9.74	-44.9	-48.2	15.6	0.00e+00	0	42	0	47185920	61	5255
2026-01-26 11:22:56.59	213.97	9.81	-45.0	-48.3	15.5	0.00e+00	0	42	0	48234496	61	5296
2026-01-26 11:22:57.58	214.08	9.87	-44.8	-48.0	15.8	0.00e+00	0	42	0	50331648	61	5130
2026-01-26 11:22:58.58	214.19	9.94	-44.4	-47.6	16.2	0.00e+00	0	42	0	52428800	60	5162
2026-01-26 11:22:59.57	214.30	10.01	-44.3	-47.3	16.5	0.00e+00	0	42	0	54525952	60	4996
2026-01-26 11:23:00.57	214.41	10.08	-44.0	-46.9	16.8	0.00e+00	0	42	0	55574528	60	4811
2026-01-26 11:23:01.56	214.52	10.15	-44.1	-47.0	16.8	0.00e+00	0	42	0	57671680	60	4836
2026-01-26 11:23:02.55	214.63	10.22	-44.0	-46.9	16.9	0.00e+00	0	42	0	59768832	60	4800
2026-01-26 11:23:03.55	214.75	10.29	-44.0	-46.8	16.9	0.00e+00	0	42	0	61865984	59	5012
2026-01-26 11:23:04.54	214.86	10.35	-44.0	-46.8	16.9	0.00e+00	0	42	0	63963136	59	5029
2026-01-26 11:23:05.54	214.97	10.42	-44.0	-46.8	17.0	0.00e+00	0	42	0	65011712	59	4995
2026-01-26 11:23:06.53	215.09	10.49	-43.8	-46.5	17.2	0.00e+00	0	42	0	67108864	59	4866
2026-01-26 11:23:07.53	215.20	10.56	-43.7	-46.4	17.3	0.00e+00	0	42	0	69206016	59	4786
2026-01-26 11:23:08.52	215.32	10.63	-43.7	-46.4	17.3	0.00e+00	0	42	0	71303168	59	4788
2026-01-26 11:23:09.52	215.43	10.70	-43.7	-46.3	17.4	0.00e+00	0	42	0	72351744	59	4744
2026-01-26 11:23:10.51	215.55	10.77	-43.6	-46.3	17.4	0.00e+00	0	42	0	74448896	59	4751
2026-01-26 11:23:11.51	215.67	10.84	-43.7	-46.4	17.4	0.00e+00	0	42	0	76546048	59	4790
2026-01-26 11:23:12.50	215.79	10.91	-43.6	-46.3	17.5	0.00e+00	0	42	0	78643200	59	4714
2026-01-26 11:23:13.49	215.90	10.98	-43.6	-46.3	17.4	0.00e+00	0	42	0	80740352	59	4730
2026-01-26 11:23:14.49	216.02	11.05	-43.6	-46.3	17.4	0.00e+00	0	42	0	81788928	59	4750
2026-01-26 11:23:15.48	216.14	11.12	-43.6	-46.3	17.4	0.00e+00	0	42	0	83886080	59	4740
2026-01-26 11:23:16.48	216.26	11.19	-43.5	-46.2	17.6	0.00e+00	0	42	0	85983232	59	4681
2026-01-26 11:23:17.47	216.38	11.26	-43.5	-46.2	17.6	0.00e+00	0	42	0	88080384	59	4675
2026-01-26 11:23:18.47	216.50	11.33	-43.6	-46.3	17.4	0.00e+00	0	42	0	89128960	59	4747
2026-01-26 11:23:19.47	216.62	11.40	-43.5	-46.2	17.5	0.00e+00	0	42	0	91226112	59	4700
2026-01-26 11:23:20.46	216.75	11.47	-43.5	-46.2	17.6	0.00e+00	0	42	0	93323264	59	4691
2026-01-26 11:23:21.46	216.87	11.54	-43.6	-46.2	17.6	0.00e+00	0	42	0	95420416	59	4697
2026-01-26 11:23:22.45	216.99	11.61	-43.5	-46.2	17.7	0.00e+00	0	42	0	97517568	59	4657
2026-01-26 11:23:23.45	217.12	11.68	-43.6	-46.2	17.5	0.00e+00	0	42	0	98566144	59	4705
2026-01-26 11:23:24.44	217.24	11.75	-43.6	-46.3	17.5	0.00e+00	0	42	0	100663296	59	4730
2026-01-26 11:23:25.44	217.37	11.82	-43.6	-46.3	17.5	0.00e+00	0	42	0	102760448	59	4734
2026-01-26 11:23:26.43	217.49	11.89	-43.6	-46.2	17.6	0.00e+00	0	42	0	104857600	59	4672
2026-01-26 11:23:27.43	217.62	11.96	-43.7	-46.4	17.4	0.00e+00	0	42	0	105906176	59	4785
2026-01-26 11:23:28.42	217.74	12.03	-43.7	-46.4	17.4	0.00e+00	0	42	0	108003328	59	4780
2026-01-26 11:23:29.42	217.87	12.10	-43.8	-46.5	17.3	0.00e+00	0	42	0	110100480	59	4849
2026-01-26 11:23:30.42	218.00	12.18	-43.9	-46.6	17.2	0.00e+00	0	42	0	112197632	59	4901
2026-01-26 11:23:31.41	218.13	12.25	-43.9	-46.6	17.2	0.00e+00	0	42	0	114294784	59	4917
2026-01-26 11:23:32.40	218.26	12.32	-44.0	-46.8	17.1	0.00e+00	0	42	0	115343360	59	4984
2026-01-26 11:23:33.40	218.39	12.39	-44.0	-46.7	17.2	0.00e+00	0	42	0	117440512	59	4950
2026-01-26 11:23:34.40	218.52	12.46	-43.9	-46.6	17.2	0.00e+00	0	42	0	119537664	59	4893
2026-01-26 11:23:35.39	218.65	12.53	-43.9	-46.6	17.2	0.00e+00	0	42	0	121634816	59	4922
2026-01-26 11:23:36.38	218.78	12.60	-43.9	-46.6	17.2	0.00e+00	0	42	0	122683392	59	4914
2026-01-26 11:23:37.38	218.91	12.68	-43.8	-46.4	17.4	0.00e+00	0	42	0	124780544	59	4788
2026-01-26 11:23:38.37	219.04	12.75	-43.6	-46.2	17.7	0.00e+00	0	42	0	126877696	59	4661
2026-01-26 11:23:39.37	219.18	12.82	-43.6	-46.2	17.7	0.00e+00	0	42	0	128974848	59	4658
2026-01-26 11:23:40.37	219.31	12.89	-43.6	-46.2	17.7	0.00e+00	0	42	0	131072000	59	4672
2026-01-26 11:23:41.36	219.45	12.96	-43.5	-46.1	17.7	0.00e+00	0	42	0	132120576	59	4636
2026-01-26 11:23:42.36	219.58	13.03	-43.5	-46.0	17.8	0.00e+00	0	42	0	134217728	58	4856
2026-01-26 11:23:43.35	219.72	13.11	-43.5	-46.1	17.8	0.00e+00	0	42	0	136314880	58	4884
2026-01-26 11:23:44.35	219.85	13.18	-43.5	-46.1	17.8	0.00e+00	0	42	0	138412032	58	4884
2026-01-26 11:23:45.34	219.99	13.25	-43.5	-46.1	17.7	0.00e+00	0	42	0	139460608	58	4912
2026-01-26 11:23:46.34	220.13	13.32	-43.4	-46.0	17.9	0.00e+00	0	42	0	141557760	58	4836
2026-01-26 11:23:47.33	220.27	13.40	-43.4	-45.9	17.9	0.00e+00	0	42	0	143654912	58	4811
2026-01-26 11:23:48.33	220.41	13.47	-43.4	-45.9	17.9	0.00e+00	0	42	0	145752064	58	4793
2026-01-26 11:23:49.32	220.55	13.54	-43.5	-46.0	17.8	0.00e+00	0	42	0	147849216	58	4863
2026-01-26 11:23:50.31	220.69	13.61	-43.5	-46.1	17.8	0.00e+00	0	42	0	148897792	58	4881
2026-01-26 11:23:51.31	220.83	13.69	-43.3	-45.9	18.0	0.00e+00	0	42	0	150994944	58	4762
2026-01-26 11:23:52.31	220.97	13.76	-43.3	-45.9	18.0	0.00e+00	0	42	0	153092096	58	4776
2026-01-26 11:23:53.30	221.11	13.83	-43.3	-45.8	18.0	0.00e+00	0	42	0	155189248	58	4752
2026-01-26 11:23:54.30	221.26	13.90	-43.3	-45.8	18.0	0.00e+00	0	42	0	156237824	58	4741
2026-01-26 11:23:55.29	221.40	13.98	-43.4	-45.9	18.0	0.00e+00	0	42	0	158334976	58	4806
2026-01-26 11:23:56.29	221.55	14.05	-43.4	-46.0	17.9	0.00e+00	0	42	0	160432128	58	4827
2026-01-26 11:23:57.28	221.69	14.12	-43.4	-46.0	17.9	0.00e+00	0	42	0	162529280	58	4846
2026-01-26 11:23:58.28	221.84	14.20	-43.5	-46.1	17.8	0.00e+00	0	42	0	164626432	58	4915
2026-01-26 11:23:59.27	221.98	14.27	-43.6	-46.2	17.7	0.00e+00	0	42	0	165675008	58	4933
2026-01-26 11:24:00.27	222.13	14.34	-43.5	-46.1	17.8	0.00e+00	0	42	0	167772160	58	4883
2026-01-26 11:24:01.26	222.28	14.41	-43.6	-46.2	17.7	0.00e+00	0	42	0	169869312	58	4951
2026-01-26 11:24:02.26	222.43	14.49	-43.6	-46.2	17.7	0.00e+00	0	42	0	171966464	58	4964
2026-01-26 11:24:03.25	222.58	14.56	-43.5	-46.1	17.8	0.00e+00	0	42	0	173015040	58	4908
2026-01-26 11:24:04.24	222.73	14.63	-43.5	-46.0	17.9	0.00e+00	0	42	0	175112192	58	4858
2026-01-26 11:24:05.24	222.88	14.71	-43.4	-45.9	17.9	0.00e+00	0	42	0	177209344	58	4807
2026-01-26 11:24:06.23	223.03	14.78	-43.4	-45.9	18.0	0.00e+00	0	42	0	179306496	58	4788
2026-01-26 11:24:07.23	223.18	14.85	-43.5	-46.0	17.9	0.00e+00	0	42	0	181403648	58	4845
2026-01-26 11:24:08.22	223.33	14.93	-43.4	-45.9	18.0	0.00e+00	0	42	0	182452224	58	4785
2026-01-26 11:24:09.22	223.49	15.00	-43.3	-45.7	18.1	0.00e+00	0	42	0	184549376	58	4695
2026-01-26 11:24:10.21	223.64	15.07	-43.3	-45.8	18.1	0.00e+00	0	42	0	186646528	58	4742
2026-01-26 11:24:11.21	223.80	15.15	-43.3	-45.8	18.1	0.00e+00	0	42	0	188743680	58	4736
2026-01-26 11:24:12.20	223.95	15.22	-43.4	-45.9	18.0	0.00e+00	0	42	0	189792256	58	4777
2026-01-26 11:24:13.20	224.11	15.29	-43.3	-45.8	18.1	0.00e+00	0	42	0	191889408	58	4727
2026-01-26 11:24:14.19	224.27	15.37	-43.2	-45.7	18.2	0.00e+00	0	42	0	193986560	58	4689
2026-01-26 11:24:15.18	224.43	15.44	-43.2	-45.8	18.1	0.00e+00	0	42	0	196083712	58	4710
2026-01-26 11:24:16.18	224.58	15.51	-43.2	-45.7	18.1	0.00e+00	0	42	0	198180864	58	4691
2026-01-26 11:24:17.17	224.74	15.59	-43.2	-45.6	18.2	0.00e+00	0	42	0	199229440	58	4651
2026-01-26 11:24:18.17	224.91	15.66	-43.1	-45.6	18.3	0.00e+00	0	42	0	201326592	58	4601
2026-01-26 11:24:19.16	225.07	15.73	-43.2	-45.6	18.2	0.00e+00	0	42	0	203423744	58	4650
2026-01-26 11:24:20.16	225.23	15.81	-43.1	-45.6	18.3	0.00e+00	0	42	0	205520896	58	4604
2026-01-26 11:24:21.16	225.39	15.88	-43.2	-45.6	18.3	0.00e+00	0	42	0	206569472	58	4639
2026-01-26 11:24:22.15	225.56	15.96	-43.1	-45.6	18.3	0.00e+00	0	42	0	208666624	58	4613
2026-01-26 11:24:23.15	225.72	16.03	-43.2	-45.7	18.3	0.00e+00	0	42	0	210763776	58	4652
2026-01-26 11:24:24.14	225.89	16.10	-43.0	-45.4	18.5	0.00e+00	0	42	0	212860928	58	4533
2026-01-26 11:24:25.14	226.05	16.18	-42.9	-45.3	18.5	0.00e+00	0	42	0	214958080	57	4754
2026-01-26 11:24:26.13	226.22	16.25	-42.9	-45.3	18.5	0.00e+00	0	42	0	216006656	57	4742
2026-01-26 11:24:27.13	226.39	16.32	-42.9	-45.3	18.6	0.00e+00	0	42	0	218103808	57	4717
2026-01-26 11:24:28.12	226.55	16.40	-42.8	-45.2	18.7	0.00e+00	0	42	0	220200960	57	4686
2026-01-26 11:24:29.12	226.72	16.47	-42.8	-45.1	18.7	0.00e+00	0	42	0	222298112	57	4634
2026-01-26 11:24:30.11	226.89	16.54	-42.8	-45.1	18.7	0.00e+00	0	42	0	224395264	57	4644
2026-01-26 11:24:31.11	227.07	16.62	-42.7	-45.1	18.8	0.00e+00	0	42	0	225443840	57	4623
2026-01-26 11:24:32.10	227.24	16.69	-42.8	-45.1	18.7	0.00e+00	0	42	0	227540992	57	4628
2026-01-26 11:24:33.10	227.41	16.77	-42.9	-45.2	18.6	0.00e+00	0	42	0	229638144	57	4697
2026-01-26 11:24:34.09	227.58	16.84	-42.8	-45.2	18.7	0.00e+00	0	42	0	231735296	57	4669
2026-01-26 11:24:35.08	227.76	16.91	-42.9	-45.3	18.6	0.00e+00	0	42	0	232783872	57	4714
2026-01-26 11:24:36.08	227.93	16.99	-42.8	-45.2	18.7	0.00e+00	0	42	0	234881024	57	4683
2026-01-26 11:24:37.07	228.11	17.06	-42.8	-45.2	18.7	0.00e+00	0	42	0	236978176	57	4665
2026-01-26 11:24:38.07	228.28	17.13	-42.9	-45.3	18.6	0.00e+00	0	42	0	239075328	57	4725
2026-01-26 11:24:39.06	228.46	17.20	-42.8	-45.1	18.8	0.00e+00	0	42	0	241172480	57	4637
2026-01-26 11:24:40.06	228.64	17.28	-42.8	-45.2	18.7	0.00e+00	0	42	0	242221056	57	4679
2026-01-26 11:24:41.05	228.82	17.35	-42.9	-45.3	18.6	0.00e+00	0	42	0	244318208	57	4742
2026-01-26 11:24:42.04	229.00	17.42	-42.9	-45.3	18.6	0.00e+00	0	42	0	246415360	57	4730
2026-01-26 11:24:43.04	229.18	17.50	-42.9	-45.3	18.5	0.00e+00	0	42	0	248512512	57	4758
2026-01-26 11:24:44.03	229.36	17.57	-43.0	-45.5	18.4	0.00e+00	0	42	0	249561088	57	4818
2026-01-26 11:24:45.03	229.54	17.64	-43.2	-45.6	18.3	0.00e+00	0	42	0	251658240	57	4924
2026-01-26 11:24:46.03	229.73	17.72	-43.1	-45.6	18.3	0.00e+00	0	42	0	253755392	57	4896
2026-01-26 11:24:47.02	229.91	17.79	-43.1	-45.6	18.3	0.00e+00	0	43	0	255852544	57	4905
2026-01-26 11:24:48.01	230.09	17.86	-43.2	-45.7	18.2	0.00e+00	0	43	0	257949696	57	4964
2026-01-26 11:24:49.01	230.28	17.93	-43.2	-45.7	18.2	0.00e+00	0	42	0	258998272	57	4962
2026-01-26 11:24:50.00	230.47	18.01	-43.3	-45.8	18.1	0.00e+00	0	43	0	261095424	57	5028
2026-01-26 11:24:51.00	230.66	18.08	-43.4	-45.9	18.0	0.00e+00	0	43	0	263192576	57	5048
2026-01-26 11:24:51.99	230.84	18.15	-43.2	-45.7	18.2	0.00e+00	0	42	0	265289728	57	4952
2026-01-26 11:24:52.98	231.03	18.22	-43.1	-45.5	18.4	0.00e+00	0	42	0	266338304	57	4830
2026-01-26 11:24:53.98	231.22	18.30	-43.0	-45.4	18.5	0.00e+00	0	42	0	268435456	57	4764
2026-01-26 11:24:54.97	231.41	18.37	-42.9	-45.3	18.6	0.00e+00	0	43	0	270532608	57	4720
2026-01-26 11:24:55.96	231.60	18.44	-42.8	-45.2	18.7	0.00e+00	0	43	0	272629760	57	4661
2026-01-26 11:24:56.96	231.80	18.51	-42.8	-45.1	18.8	0.00e+00	0	42	0	274726912	57	4640
2026-01-26 11:24:57.95	231.99	18.58	-42.8	-45.2	18.7	0.00e+00	0	42	0	275775488	57	4673
2026-01-26 11:24:58.95	232.19	18.66	-42.8	-45.2	18.7	0.00e+00	0	43	0	277872640	57	4653
2026-01-26 11:24:59.94	232.38	18.73	-42.6	-45.0	18.9	0.00e+00	0	42	0	279969792	57	4561
2026-01-26 11:25:00.93	232.58	18.80	-42.6	-44.9	19.0	0.00e+00	0	42	0	282066944	57	4515
2026-01-26 11:25:01.93	232.78	18.87	-42.5	-44.8	19.0	0.00e+00	0	42	0	283115520	57	4485
2026-01-26 11:25:02.92	232.97	18.94	-42.5	-44.9	19.0	0.00e+00	0	43	0	285212672	57	4495
2026-01-26 11:25:03.92	233.17	19.01	-42.4	-44.7	19.2	0.00e+00	0	42	0	287309824	56	4670
2026-01-26 11:25:04.91	233.37	19.08	-42.3	-44.6	19.3	0.00e+00	0	42	0	289406976	56	4626
2026-01-26 11:25:05.91	233.58	19.15	-42.2	-44.5	19.4	0.00e+00	0	42	0	291504128	56	4567
2026-01-26 11:25:06.90	233.78	19.22	-42.2	-44.4	19.5	0.00e+00	0	42	0	292552704	56	4525
2026-01-26 11:25:07.89	233.98	19.29	-42.0	-44.3	19.6	0.00e+00	0	43	0	294649856	56	4461
2026-01-26 11:25:08.89	234.18	19.37	-41.9	-44.1	19.6	0.00e+00	0	43	0	296747008	55	4617
2026-01-26 11:25:09.88	234.39	19.44	-41.8	-44.0	19.7	0.00e+00	0	42	0	298844160	55	4592
2026-01-26 11:25:10.88	234.59	19.51	-41.8	-44.0	19.7	0.00e+00	0	42	0	299892736	55	4560
2026-01-26 11:25:11.87	234.80	19.58	-41.9	-44.1	19.6	0.00e+00	0	42	0	301989888	55	4633
2026-01-26 11:25:12.87	235.01	19.65	-41.8	-44.0	19.7	0.00e+00	0	43	0	304087040	55	4589
2026-01-26 11:25:13.86	235.21	19.71	-41.9	-44.1	19.6	0.00e+00	0	42	0	306184192	55	4617
2026-01-26 11:25:14.86	235.43	19.78	-41.8	-44.0	19.6	0.00e+00	0	42	0	308281344	55	4588
2026-01-26 11:25:15.85	235.63	19.85	-41.7	-43.9	19.8	0.00e+00	0	43	0	309329920	55	4522
2026-01-26 11:25:16.85	235.85	19.92	-41.6	-43.8	19.9	0.00e+00	0	42	0	311427072	55	4482
2026-01-26 11:25:17.84	236.06	19.99	-41.5	-43.7	20.0	0.00e+00	0	42	0	313524224	55	4425
2026-01-26 11:25:18.84	236.27	20.06	-41.6	-43.7	19.9	0.00e+00	0	43	0	315621376	55	4441
2026-01-26 11:25:19.83	236.48	20.13	-41.6	-43.8	19.9	0.00e+00	0	42	0	316669952	55	4461
2026-01-26 11:25:20.83	236.70	20.20	-41.7	-43.9	19.8	0.00e+00	0	42	0	318767104	55	4518
2026-01-26 11:25:21.82	236.92	20.26	-41.7	-44.0	19.7	0.00e+00	0	42	0	320864256	55	4576
2026-01-26 11:25:22.82	237.13	20.33	-41.8	-44.0	19.6	0.00e+00	0	42	0	322961408	55	4597
2026-01-26 11:25:23.81	237.35	20.40	-41.9	-44.2	19.6	0.00e+00	0	43	0	325058560	55	4655
2026-01-26 11:25:24.81	237.57	20.47	-41.9	-44.1	19.6	0.00e+00	0	43	0	326107136	55	4637
2026-01-26 11:25:25.80	237.79	20.53	-41.9	-44.1	19.6	0.00e+00	0	43	0	328204288	55	4637
2026-01-26 11:25:26.79	238.01	20.60	-42.0	-44.2	19.5	0.00e+00	0	42	0	330301440	55	4682
2026-01-26 11:25:27.79	238.23	20.67	-42.0	-44.2	19.5	0.00e+00	0	43	0	332398592	55	4700
2026-01-26 11:25:28.79	238.45	20.73	-41.8	-44.0	19.7	0.00e+00	0	42	0	333447168	55	4583
2026-01-26 11:25:29.78	238.68	20.80	-41.8	-44.0	19.7	0.00e+00	0	43	0	335544320	55	4571
2026-01-26 11:25:30.78	238.90	20.87	-41.9	-44.2	19.5	0.00e+00	0	43	0	337641472	55	4662
2026-01-26 11:25:31.77	239.13	20.93	-42.0	-44.2	19.5	0.00e+00	0	43	0	339738624	55	4700
2026-01-26 11:25:32.76	239.35	21.00	-42.0	-44.2	19.5	0.00e+00	0	42	0	341835776	55	4688
2026-01-26 11:25:33.76	239.58	21.06	-42.0	-44.2	19.5	0.00e+00	0	43	0	342884352	55	4697
2026-01-26 11:25:34.76	239.81	21.13	-42.0	-44.3	19.4	0.00e+00	0	43	0	344981504	55	4712
2026-01-26 11:25:35.75	240.04	21.19	-42.1	-44.3	19.4	0.00e+00	0	42	0	347078656	55	4740
2026-01-26 11:25:36.75	240.27	21.26	-42.1	-44.4	19.3	0.00e+00	0	43	0	349175808	55	4773
2026-01-26 11:25:37.74	240.50	21.32	-42.1	-44.3	19.4	0.00e+00	0	42	0	350224384	55	4730
2026-01-26 11:25:38.74	240.73	21.38	-42.2	-44.4	19.3	0.00e+00	0	42	0	352321536	55	4799
2026-01-26 11:25:39.73	240.96	21.45	-42.2	-44.5	19.2	0.00e+00	0	42	0	354418688	55	4837
2026-01-26 11:25:40.73	241.20	21.51	-42.4	-44.7	19.1	0.00e+00	0	42	0	356515840	55	4945
2026-01-26 11:25:41.72	241.43	21.57	-42.4	-44.8	19.0	0.00e+00	0	42	0	358612992	55	4994
2026-01-26 11:25:42.72	241.67	21.63	-42.6	-45.0	18.8	0.00e+00	0	42	0	359661568	55	5106
2026-01-26 11:25:43.71	241.90	21.70	-42.9	-45.2	18.7	0.00e+00	0	42	0	361758720	56	4980
2026-01-26 11:25:44.70	242.14	21.76	-42.8	-45.2	18.7	0.00e+00	0	42	0	363855872	56	4979
2026-01-26 11:25:45.70	242.38	21.82	-42.9	-45.3	18.7	0.00e+00	0	43	0	365953024	56	4995
2026-01-26 11:25:46.69	242.61	21.88	-42.9	-45.2	18.7	0.00e+00	0	43	0	367001600	56	4974
2026-01-26 11:25:47.69	242.85	21.94	-42.9	-45.3	18.7	0.00e+00	0	42	0	369098752	56	5004
2026-01-26 11:25:48.68	243.09	22.00	-42.9	-45.3	18.6	0.00e+00	0	43	0	371195904	56	5003
2026-01-26 11:25:49.68	243.34	22.06	-42.8	-45.1	18.8	0.00e+00	0	43	0	373293056	56	4911
2026-01-26 11:25:50.67	243.58	22.12	-42.8	-45.1	18.8	0.00e+00	0	43	0	375390208	56	4913
2026-01-26 11:25:51.67	243.82	22.18	-42.9	-45.3	18.6	0.00e+00	0	43	0	376438784	56	5009
2026-01-26 11:25:52.66	244.07	22.24	-43.0	-45.4	18.5	0.00e+00	0	43	0	378535936	56	5085
2026-01-26 11:25:53.66	244.31	22.29	-43.0	-45.5	18.4	0.00e+00	0	43	0	380633088	56	5103
2026-01-26 11:25:54.66	244.56	22.35	-43.0	-45.5	18.4	0.00e+00	0	43	0	382730240	56	5130
2026-01-26 11:25:55.65	244.81	22.41	-42.9	-45.4	18.5	0.00e+00	0	43	0	383778816	56	5073
2026-01-26 11:25:56.65	245.06	22.47	-42.7	-45.2	18.7	0.00e+00	0	43	0	385875968	56	4958
2026-01-26 11:25:57.65	245.31	22.52	-42.8	-45.2	18.7	0.00e+00	0	43	0	387973120	56	4965
2026-01-26 11:25:58.64	245.56	22.58	-42.7	-45.1	18.8	0.00e+00	0	43	0	390070272	56	4915
2026-01-26 11:25:59.63	245.80	22.64	-42.6	-45.0	18.9	0.00e+00	0	42	0	392167424	56	4851
2026-01-26 11:26:00.63	246.06	22.69	-42.6	-45.0	18.9	0.00e+00	0	43	0	393216000	56	4850
2026-01-26 11:26:01.63	246.31	22.75	-42.7	-45.0	18.9	0.00e+00	0	43	0	395313152	56	4867
2026-01-26 11:26:02.62	246.56	22.80	-42.8	-45.2	18.7	0.00e+00	0	43	0	397410304	56	4935
2026-01-26 11:26:03.62	246.82	22.85	-43.0	-45.4	18.5	0.00e+00	0	43	0	399507456	56	5063
2026-01-26 11:26:04.61	247.07	22.91	-43.2	-45.6	18.3	0.00e+00	0	43	0	400556032	57	4923
2026-01-26 11:26:05.61	247.33	22.96	-43.3	-45.7	18.2	0.00e+00	0	42	0	402653184	57	4965
2026-01-26 11:26:06.60	247.59	23.01	-43.5	-46.0	17.9	0.00e+00	0	43	0	404750336	57	5147
2026-01-26 11:26:07.60	247.84	23.07	-43.4	-45.9	18.0	0.00e+00	0	43	0	406847488	57	5065
2026-01-26 11:26:08.59	248.10	23.12	-43.4	-45.9	18.0	0.00e+00	0	43	0	408944640	57	5072
2026-01-26 11:26:09.58	248.36	23.17	-43.4	-46.0	18.0	0.00e+00	0	43	0	409993216	57	5112
2026-01-26 11:26:10.58	248.62	23.22	-43.5	-46.1	17.9	0.00e+00	0	43	0	412090368	57	5182
2026-01-26 11:26:11.57	248.88	23.27	-43.5	-46.1	17.8	0.00e+00	0	43	0	414187520	57	5210
2026-01-26 11:26:12.57	249.14	23.32	-43.5	-46.1	17.8	0.00e+00	0	42	0	416284672	57	5195
2026-01-26 11:26:13.56	249.40	23.37	-43.5	-46.0	17.9	0.00e+00	0	43	0	417333248	57	5139
2026-01-26 11:26:14.56	249.67	23.42	-43.6	-46.2	17.7	0.00e+00	0	43	0	419430400	57	5270
2026-01-26 11:26:15.55	249.93	23.46	-43.8	-46.4	17.6	0.00e+00	0	43	0	421527552	58	5086
2026-01-26 11:26:16.54	250.19	23.51	-44.0	-46.7	17.3	0.00e+00	0	43	0	423624704	58	5229
2026-01-26 11:26:17.54	250.46	23.56	-44.1	-46.8	17.2	0.00e+00	0	43	0	425721856	58	5337
2026-01-26 11:26:18.53	250.73	23.60	-44.2	-46.9	17.1	0.00e+00	0	43	0	426770432	59	5092
2026-01-26 11:26:19.53	251.00	23.65	-44.2	-47.0	17.0	0.00e+00	0	43	0	428867584	59	5151
2026-01-26 11:26:20.52	251.26	23.69	-44.2	-47.0	17.0	0.00e+00	0	43	0	430964736	59	5118
2026-01-26 11:26:21.52	251.53	23.74	-44.0	-46.8	17.1	0.00e+00	0	43	0	433061888	59	5006
2026-01-26 11:26:22.51	251.80	23.78	-43.8	-46.5	17.5	0.00e+00	0	43	0	434110464	59	4844
2026-01-26 11:26:23.51	252.07	23.83	-43.7	-46.4	17.6	0.00e+00	0	43	0	436207616	59	4799
2026-01-26 11:26:24.50	252.34	23.87	-43.6	-46.2	17.8	0.00e+00	0	43	0	438304768	59	4697
2026-01-26 11:26:25.50	252.61	23.91	-43.5	-46.1	17.8	0.00e+00	0	43	0	440401920	59	4645
2026-01-26 11:26:26.49	252.88	23.95	-43.4	-46.0	18.0	0.00e+00	0	43	0	442499072	58	4853
2026-01-26 11:26:27.49	253.16	24.00	-43.5	-46.1	17.9	0.00e+00	0	43	0	443547648	58	4908
2026-01-26 11:26:28.48	253.43	24.04	-43.7	-46.3	17.7	0.00e+00	0	43	0	445644800	58	5003
2026-01-26 11:26:29.48	253.71	24.08	-43.9	-46.5	17.4	0.00e+00	0	43	0	447741952	58	5153
2026-01-26 11:26:30.47	253.98	24.11	-44.1	-46.8	17.2	0.00e+00	0	43	0	449839104	58	5320
2026-01-26 11:26:31.47	254.26	24.15	-44.3	-47.1	16.9	0.00e+00	0	43	0	450887680	59	5185
2026-01-26 11:26:32.46	254.53	24.19	-44.5	-47.3	16.7	0.00e+00	0	43	0	452984832	59	5334
2026-01-26 11:26:33.46	254.81	24.23	-44.5	-47.3	16.7	0.00e+00	0	43	0	455081984	59	5324
2026-01-26 11:26:34.45	255.09	24.27	-44.3	-47.1	16.9	0.00e+00	0	43	0	457179136	59	5196
2026-01-26 11:26:35.45	255.37	24.30	-44.1	-46.8	17.2	0.00e+00	0	43	0	459276288	59	5026
2026-01-26 11:26:36.44	255.64	24.34	-44.0	-46.7	17.3	0.00e+00	0	43	0	460324864	59	4977
2026-01-26 11:26:37.44	255.93	24.37	-44.0	-46.8	17.2	0.00e+00	0	43	0	462422016	59	4991
2026-01-26 11:26:38.43	256.20	24.41	-44.0	-46.8	17.2	0.00e+00	0	43	0	464519168	59	4992
2026-01-26 11:26:39.43	256.49	24.44	-44.2	-47.1	17.0	0.00e+00	0	43	0	466616320	59	5167
2026-01-26 11:26:40.42	256.77	24.47	-44.4	-47.4	16.7	0.00e+00	0	43	0	467664896	59	5354
2026-01-26 11:26:41.42	257.05	24.51	-44.6	-47.6	16.4	0.00e+00	0	43	0	469762048	59	5487
2026-01-26 11:26:42.41	257.33	24.54	-44.7	-47.6	16.4	0.00e+00	0	43	0	471859200	60	5211
2026-01-26 11:26:43.41	257.61	24.57	-44.8	-47.8	16.3	0.00e+00	0	43	0	473956352	60	5281
2026-01-26 11:26:44.40	257.90	24.60	-44.8	-47.8	16.3	0.00e+00	0	43	0	476053504	60	5297
2026-01-26 11:26:45.39	258.18	24.63	-44.6	-47.5	16.5	0.00e+00	0	43	0	477102080	60	5144
2026-01-26 11:26:46.39	258.46	24.66	-44.5	-47.4	16.7	0.00e+00	0	43	0	479199232	60	5046
2026-01-26 11:26:47.38	258.75	24.68	-44.4	-47.3	16.8	0.00e+00	0	43	0	481296384	60	4998
2026-01-26 11:26:48.38	259.04	24.71	-44.3	-47.2	16.8	0.00e+00	0	43	0	483393536	60	4960
2026-01-26 11:26:49.37	259.32	24.74	-44.3	-47.2	16.8	0.00e+00	0	43	0	485490688	60	4958
2026-01-26 11:26:50.37	259.61	24.76	-44.1	-46.8	17.2	0.00e+00	0	43	0	486539264	60	4756
2026-01-26 11:26:51.36	259.89	24.79	-44.2	-47.0	17.0	0.00e+00	0	43	0	488636416	60	4843
2026-01-26 11:26:52.35	260.18	24.81	-44.3	-47.1	16.9	0.00e+00	0	43	0	490733568	60	4922
2026-01-26 11:26:53.35	260.47	24.84	-44.3	-47.2	16.9	0.00e+00	0	43	0	492830720	60	4929
2026-01-26 11:26:54.34	260.75	24.86	-44.4	-47.2	16.8	0.00e+00	0	43	0	493879296	60	4977
2026-01-26 11:26:55.34	261.04	24.88	-44.3	-47.2	16.9	0.00e+00	0	43	0	495976448	60	4940
2026-01-26 11:26:56.33	261.33	24.90	-44.1	-46.9	17.2	0.00e+00	0	43	0	498073600	60	4781
2026-01-26 11:26:57.33	261.62	24.92	-44.0	-46.7	17.3	0.00e+00	0	43	0	500170752	60	4699
2026-01-26 11:26:58.32	261.91	24.94	-43.8	-46.5	17.5	0.00e+00	0	43	0	502267904	59	4820
2026-01-26 11:26:59.31	262.20	24.96	-43.6	-46.2	17.8	0.00e+00	0	43	0	503316480	59	4685
2026-01-26 11:27:00.31	262.49	24.98	-43.5	-46.0	17.9	0.00e+00	0	42	0	505413632	59	4580
2026-01-26 11:27:01.31	262.78	25.00	-43.3	-45.8	18.1	0.00e+00	0	43	0	507510784	58	4756
2026-01-26 11:27:02.30	263.07	25.02	-43.2	-45.7	18.3	0.00e+00	0	43	0	509607936	58	4655
2026-01-26 11:27:03.30	263.36	25.03	-43.2	-45.7	18.3	0.00e+00	0	43	0	510656512	58	4659
2026-01-26 11:27:04.29	263.65	25.05	-43.3	-45.9	18.1	0.00e+00	0	43	0	512753664	58	4765
2026-01-26 11:27:05.29	263.95	25.06	-43.3	-45.9	18.1	0.00e+00	0	43	0	514850816	58	4779
2026-01-26 11:27:06.28	264.24	25.08	-43.3	-45.8	18.2	0.00e+00	0	43	0	516947968	58	4749
2026-01-26 11:27:07.28	264.53	25.09	-43.3	-45.8	18.2	0.00e+00	0	43	0	519045120	58	4717
2026-01-26 11:27:08.27	264.82	25.10	-43.2	-45.7	18.2	0.00e+00	0	43	0	520093696	58	4696
2026-01-26 11:27:09.26	265.11	25.11	-43.3	-45.8	18.3	0.00e+00	0	43	0	522190848	58	4712
2026-01-26 11:27:10.26	265.41	25.13	-43.2	-45.7	18.3	0.00e+00	0	43	0	524288000	58	4653
2026-01-26 11:27:11.25	265.70	25.14	-43.3	-45.8	18.1	0.00e+00	0	43	0	526385152	58	4740
2026-01-26 11:27:12.25	266.00	25.15	-43.5	-46.0	18.0	0.00e+00	0	43	0	527433728	58	4863
2026-01-26 11:27:13.24	266.29	25.15	-43.7	-46.3	17.7	0.00e+00	0	42	0	529530880	58	5024
2026-01-26 11:27:14.23	266.58	25.16	-43.9	-46.5	17.5	0.00e+00	0	43	0	531628032	58	5134
2026-01-26 11:27:15.23	266.87	25.17	-44.2	-46.9	17.1	0.00e+00	0	43	0	533725184	58	5358
2026-01-26 11:27:16.22	267.17	25.17	-44.2	-46.9	17.0	0.00e+00	0	43	0	535822336	59	5094
2026-01-26 11:27:17.22	267.46	25.18	-44.3	-47.1	16.9	0.00e+00	0	43	0	536870912	59	5181
2026-01-26 11:27:18.21	267.75	25.19	-44.1	-46.8	17.1	0.00e+00	0	43	0	538968064	59	5026
2026-01-26 11:27:19.21	268.05	25.19	-43.9	-46.6	17.4	0.00e+00	0	43	0	541065216	59	4886
2026-01-26 11:27:20.20	268.34	25.19	-43.7	-46.4	17.6	0.00e+00	0	43	0	543162368	59	4775
2026-01-26 11:27:21.20	268.64	25.19	-43.6	-46.2	17.7	0.00e+00	0	43	0	544210944	59	4699
2026-01-26 11:27:22.19	268.93	25.20	-43.5	-46.1	17.9	0.00e+00	0	43	0	546308096	59	4619
2026-01-26 11:27:23.19	269.23	25.20	-43.6	-46.2	17.8	0.00e+00	0	43	0	548405248	59	4665
2026-01-26 11:27:24.18	269.52	25.20	-43.6	-46.2	17.8	0.00e+00	0	43	0	550502400	59	4669
2026-01-26 11:27:25.18	269.81	25.20	-43.7	-46.3	17.7	0.00e+00	0	43	0	552599552	59	4723
2026-01-26 11:27:26.17	270.11	25.19	-43.7	-46.4	17.6	0.00e+00	0	42	0	553648128	59	4760
2026-01-26 11:27:27.17	270.40	25.19	-43.5	-46.1	17.9	0.00e+00	0	43	0	555745280	59	4604
2026-01-26 11:27:28.16	270.69	25.19	-43.5	-46.0	17.9	0.00e+00	0	43	0	557842432	58	4839
2026-01-26 11:27:29.16	270.99	25.19	-43.4	-46.0	18.0	0.00e+00	0	43	0	559939584	58	4821
2026-01-26 11:27:30.15	271.28	25.18	-43.4	-45.9	18.0	0.00e+00	0	43	0	560988160	58	4808
2026-01-26 11:27:31.15	271.58	25.17	-43.3	-45.8	18.1	0.00e+00	0	43	0	563085312	58	4739
2026-01-26 11:27:32.14	271.87	25.17	-43.1	-45.6	18.4	0.00e+00	0	43	0	565182464	58	4603
2026-01-26 11:27:33.13	272.16	25.16	-43.0	-45.4	18.6	0.00e+00	0	43	0	567279616	58	4498
2026-01-26 11:27:34.13	272.46	25.15	-42.9	-45.3	18.7	0.00e+00	0	43	0	569376768	57	4719
2026-01-26 11:27:35.12	272.75	25.15	-43.0	-45.4	18.5	0.00e+00	0	43	0	570425344	57	4784
2026-01-26 11:27:36.12	273.04	25.14	-43.1	-45.6	18.4	0.00e+00	0	42	0	572522496	57	4881
2026-01-26 11:27:37.11	273.33	25.13	-43.3	-45.9	18.1	0.00e+00	0	43	0	574619648	57	5047
2026-01-26 11:27:38.10	273.63	25.12	-43.4	-45.9	18.1	0.00e+00	0	43	0	576716800	57	5090
2026-01-26 11:27:39.09	273.92	25.10	-43.4	-46.0	18.0	0.00e+00	0	43	0	577765376	57	5119
2026-01-26 11:27:40.09	274.21	25.09	-43.5	-46.0	17.9	0.00e+00	0	43	0	579862528	57	5149
2026-01-26 11:27:41.08	274.50	25.08	-43.4	-45.8	18.1	0.00e+00	0	43	0	581959680	57	5039
2026-01-26 11:27:42.08	274.79	25.06	-43.3	-45.7	18.2	0.00e+00	0	43	0	584056832	57	4970
2026-01-26 11:27:43.07	275.08	25.05	-43.1	-45.6	18.4	0.00e+00	0	43	0	586153984	57	4877
2026-01-26 11:27:44.07	275.38	25.03	-43.1	-45.5	18.4	0.00e+00	0	43	0	587202560	57	4863
2026-01-26 11:27:45.06	275.67	25.02	-43.0	-45.4	18.5	0.00e+00	0	43	0	589299712	57	4795
2026-01-26 11:27:46.06	275.96	25.00	-43.0	-45.4	18.6	0.00e+00	0	43	0	591396864	57	4760
2026-01-26 11:27:47.05	276.25	24.98	-43.3	-45.8	18.2	0.00e+00	0	43	0	593494016	57	4984
2026-01-26 11:27:48.05	276.54	24.96	-43.8	-46.3	17.7	0.00e+00	0	43	0	594542592	58	5036
2026-01-26 11:27:49.04	276.83	24.94	-44.1	-46.7	17.3	0.00e+00	0	43	0	596639744	58	5275
2026-01-26 11:27:50.04	277.12	24.92	-44.1	-46.7	17.3	0.00e+00	0	43	0	598736896	58	5277
2026-01-26 11:27:51.03	277.40	24.90	-44.0	-46.7	17.4	0.00e+00	0	43	0	600834048	58	5220
2026-01-26 11:27:52.03	277.69	24.88	-43.9	-46.6	17.4	0.00e+00	0	43	0	602931200	58	5177
2026-01-26 11:27:53.02	277.98	24.86	-43.9	-46.6	17.4	0.00e+00	0	43	0	603979776	58	5166
2026-01-26 11:27:54.02	278.27	24.84	-43.9	-46.6	17.4	0.00e+00	0	43	0	606076928	58	5167
2026-01-26 11:27:55.01	278.56	24.81	-43.8	-46.5	17.6	0.00e+00	0	43	0	608174080	58	5123
2026-01-26 11:27:56.01	278.84	24.79	-43.8	-46.4	17.6	0.00e+00	0	43	0	610271232	58	5052
2026-01-26 11:27:57.00	279.13	24.76	-43.7	-46.3	17.7	0.00e+00	0	43	0	611319808	58	5037
2026-01-26 11:27:57.99	279.41	24.74	-43.6	-46.1	17.8	0.00e+00	0	43	0	613416960	58	4915
2026-01-26 11:27:58.99	279.70	24.71	-43.3	-45.8	18.2	0.00e+00	0	43	0	615514112	58	4709
2026-01-26 11:27:59.98	279.98	24.69	-43.5	-46.0	18.0	0.00e+00	0	43	0	617611264	58	4844
2026-01-26 11:28:00.98	280.27	24.66	-43.6	-46.1	17.9	0.00e+00	0	43	0	619708416	58	4896
2026-01-26 11:28:01.97	280.55	24.63	-43.7	-46.3	17.7	0.00e+00	0	43	0	620756992	58	5032
2026-01-26 11:28:02.97	280.84	24.60	-43.8	-46.4	17.7	0.00e+00	0	43	0	622854144	58	5043
2026-01-26 11:28:03.96	281.12	24.57	-43.8	-46.4	17.7	0.00e+00	0	43	0	624951296	58	5057
2026-01-26 11:28:04.96	281.40	24.54	-43.7	-46.3	17.7	0.00e+00	0	43	0	627048448	58	5016
2026-01-26 11:28:05.95	281.68	24.51	-43.7	-46.3	17.8	0.00e+00	0	43	0	628097024	58	4990
2026-01-26 11:28:06.95	281.96	24.48	-43.4	-45.9	18.0	0.00e+00	0	43	0	630194176	58	4796
2026-01-26 11:28:07.94	282.24	24.44	-43.4	-45.8	18.2	0.00e+00	0	43	0	632291328	58	4753
2026-01-26 11:28:08.94	282.52	24.41	-43.3	-45.8	18.2	0.00e+00	0	43	0	634388480	58	4715
2026-01-26 11:28:09.93	282.80	24.38	-43.3	-45.8	18.2	0.00e+00	0	43	0	636485632	58	4728
2026-01-26 11:28:10.93	283.08	24.34	-43.6	-46.1	17.9	0.00e+00	0	43	0	637534208	58	4900
2026-01-26 11:28:11.92	283.36	24.31	-43.5	-46.0	18.0	0.00e+00	0	43	0	639631360	58	4862
2026-01-26 11:28:12.92	283.64	24.27	-43.4	-45.9	18.2	0.00e+00	0	43	0	641728512	58	4764
2026-01-26 11:28:13.92	283.92	24.23	-43.2	-45.7	18.4	0.00e+00	0	42	0	643825664	58	4652
2026-01-26 11:28:14.91	284.19	24.20	-43.2	-45.6	18.4	0.00e+00	0	43	0	644874240	58	4604
2026-01-26 11:28:15.91	284.47	24.16	-43.2	-45.6	18.3	0.00e+00	0	43	0	646971392	58	4636
2026-01-26 11:28:16.90	284.74	24.12	-43.1	-45.5	18.5	0.00e+00	0	43	0	649068544	58	4570
2026-01-26 11:28:17.89	285.01	24.08	-43.0	-45.4	18.6	0.00e+00	0	43	0	651165696	57	4760
2026-01-26 11:28:18.89	285.29	24.04	-42.9	-45.2	18.7	0.00e+00	0	43	0	653262848	57	4694
2026-01-26 11:28:19.88	285.56	24.00	-43.0	-45.4	18.6	0.00e+00	0	43	0	654311424	57	4764
2026-01-26 11:28:20.88	285.83	23.96	-42.9	-45.3	18.7	0.00e+00	0	43	0	656408576	57	4725
2026-01-26 11:28:21.87	286.10	23.92	-42.9	-45.3	18.7	0.00e+00	0	43	0	658505728	57	4733
2026-01-26 11:28:22.87	286.38	23.88	-42.9	-45.3	18.7	0.00e+00	0	42	0	660602880	57	4734
2026-01-26 11:28:23.86	286.65	23.83	-42.9	-45.3	18.6	0.00e+00	0	43	0	661651456	57	4748
2026-01-26 11:28:24.86	286.92	23.79	-42.8	-45.2	18.7	0.00e+00	0	43	0	663748608	57	4698
2026-01-26 11:28:25.85	287.18	23.75	-42.8	-45.2	18.8	0.00e+00	0	43	0	665845760	57	4685
2026-01-26 11:28:26.85	287.45	23.70	-42.7	-45.1	18.9	0.00e+00	0	43	0	667942912	57	4602
2026-01-26 11:28:27.84	287.72	23.66	-42.7	-45.1	18.9	0.00e+00	0	43	0	670040064	57	4624
2026-01-26 11:28:28.84	287.99	23.61	-42.5	-44.8	19.1	0.00e+00	0	43	0	671088640	57	4478
2026-01-26 11:28:29.83	288.25	23.57	-42.5	-44.8	19.2	0.00e+00	0	43	0	673185792	56	4734
2026-01-26 11:28:30.83	288.52	23.52	-42.6	-44.9	19.1	0.00e+00	0	43	0	675282944	56	4770
2026-01-26 11:28:31.82	288.78	23.47	-42.5	-44.8	19.2	0.00e+00	0	43	0	677380096	56	4734
2026-01-26 11:28:32.81	289.04	23.42	-42.5	-44.8	19.1	0.00e+00	0	43	0	678428672	56	4752
2026-01-26 11:28:33.81	289.30	23.38	-42.3	-44.5	19.4	0.00e+00	0	43	0	680525824	56	4580
2026-01-26 11:28:34.80	289.56	23.33	-42.1	-44.3	19.6	0.00e+00	0	43	0	682622976	56	4480
2026-01-26 11:28:35.80	289.83	23.28	-41.7	-43.8	19.9	0.00e+00	0	43	0	684720128	55	4477
2026-01-26 11:28:36.79	290.09	23.23	-41.7	-43.9	19.9	0.00e+00	0	43	0	686817280	55	4505
2026-01-26 11:28:37.79	290.35	23.18	-41.5	-43.7	20.0	0.00e+00	0	43	0	687865856	55	4405
2026-01-26 11:28:38.78	290.60	23.13	-41.5	-43.7	20.1	0.00e+00	0	43	0	689963008	55	4413
2026-01-26 11:28:39.77	290.86	23.08	-41.6	-43.7	20.0	0.00e+00	0	43	0	692060160	55	4427
2026-01-26 11:28:40.77	291.12	23.02	-41.6	-43.7	19.9	0.00e+00	0	43	0	694157312	55	4441
2026-01-26 11:28:41.76	291.37	22.97	-41.6	-43.8	19.9	0.00e+00	0	43	0	695205888	55	4472
2026-01-26 11:28:42.76	291.63	22.92	-41.6	-43.7	20.0	0.00e+00	0	43	0	697303040	55	4423
2026-01-26 11:28:43.75	291.88	22.87	-41.4	-43.5	20.2	0.00e+00	0	43	0	699400192	54	4583
2026-01-26 11:28:44.75	292.14	22.81	-41.4	-43.5	20.2	0.00e+00	0	43	0	701497344	54	4578
2026-01-26 11:28:45.74	292.39	22.76	-41.4	-43.5	20.2	0.00e+00	0	43	0	703594496	54	4569
2026-01-26 11:28:46.74	292.64	22.70	-41.5	-43.6	20.1	0.00e+00	0	43	0	704643072	54	4651
2026-01-26 11:28:47.73	292.89	22.65	-41.8	-44.0	19.8	0.00e+00	0	43	0	706740224	54	4819
2026-01-26 11:28:48.73	293.14	22.59	-42.0	-44.2	19.6	0.00e+00	0	43	0	708837376	54	4940
2026-01-26 11:28:49.72	293.39	22.54	-42.1	-44.4	19.4	0.00e+00	0	43	0	710934528	54	5062
2026-01-26 11:28:50.71	293.63	22.48	-42.3	-44.6	19.2	0.00e+00	0	43	0	711983104	55	4889
2026-01-26 11:28:51.71	293.88	22.43	-42.4	-44.7	19.1	0.00e+00	0	43	0	714080256	55	4927
2026-01-26 11:28:52.70	294.13	22.37	-42.2	-44.4	19.4	0.00e+00	0	43	0	716177408	55	4798
2026-01-26 11:28:53.70	294.37	22.31	-42.1	-44.3	19.4	0.00e+00	0	43	0	718274560	55	4739
2026-01-26 11:28:54.70	294.62	22.25	-42.2	-44.4	19.4	0.00e+00	0	43	0	720371712	55	4793
2026-01-26 11:28:55.69	294.86	22.20	-41.9	-44.1	19.6	0.00e+00	0	43	0	721420288	55	4631
2026-01-26 11:28:56.69	295.11	22.14	-41.7	-43.9	19.8	0.00e+00	0	43	0	723517440	55	4523
2026-01-26 11:28:57.68	295.35	22.08	-41.7	-43.9	19.9	0.00e+00	0	43	0	725614592	55	4512
2026-01-26 11:28:58.67	295.59	22.02	-41.9	-44.1	19.6	0.00e+00	0	43	0	727711744	55	4643
2026-01-26 11:28:59.67	295.83	21.96	-41.9	-44.0	19.7	0.00e+00	0	43	0	728760320	55	4595
2026-01-26 11:29:00.67	296.07	21.90	-41.9	-44.1	19.7	0.00e+00	0	43	0	730857472	55	4623
2026-01-26 11:29:01.66	296.30	21.84	-42.0	-44.2	19.6	0.00e+00	0	43	0	732954624	55	4664
2026-01-26 11:29:02.65	296.54	21.78	-42.2	-44.4	19.4	0.00e+00	0	43	0	735051776	55	4786
2026-01-26 11:29:03.65	296.78	21.72	-42.4	-44.7	19.1	0.00e+00	0	43	0	737148928	55	4961
2026-01-26 11:29:04.65	297.01	21.65	-42.7	-45.0	18.8	0.00e+00	0	43	0	738197504	55	5159
2026-01-26 11:29:05.64	297.25	21.59	-43.1	-45.6	18.4	0.00e+00	0	43	0	740294656	56	5174
2026-01-26 11:29:06.63	297.48	21.53	-43.4	-45.9	18.2	0.00e+00	0	43	0	742391808	57	5053
2026-01-26 11:29:07.63	297.71	21.47	-43.5	-46.1	18.0	0.00e+00	0	43	0	744488960	57	5165
2026-01-26 11:29:08.62	297.94	21.41	-43.7	-46.2	17.8	0.00e+00	0	43	0	746586112	57	5254
2026-01-26 11:29:09.62	298.18	21.34	-43.6	-46.1	17.9	0.00e+00	0	43	0	747634688	57	5212
2026-01-26 11:29:10.61	298.41	21.28	-43.7	-46.3	17.8	0.00e+00	0	43	0	749731840	58	4993
2026-01-26 11:29:11.61	298.64	21.22	-43.7	-46.3	17.8	0.00e+00	0	43	0	751828992	58	5001
2026-01-26 11:29:12.60	298.86	21.15	-43.7	-46.2	17.8	0.00e+00	0	43	0	753926144	58	4973
2026-01-26 11:29:13.59	299.09	21.09	-43.6	-46.1	17.9	0.00e+00	0	43	0	754974720	58	4918
2026-01-26 11:29:14.59	299.32	21.02	-43.5	-46.0	18.0	0.00e+00	0	43	0	757071872	58	4848
2026-01-26 11:29:15.59	299.54	20.96	-43.4	-45.8	18.2	0.00e+00	0	43	0	759169024	58	4751
2026-01-26 11:29:16.58	299.76	20.89	-43.2	-45.7	18.3	0.00e+00	0	43	0	761266176	58	4661
2026-01-26 11:29:17.57	299.99	20.83	-43.1	-45.5	18.5	0.00e+00	0	43	0	763363328	58	4555
2026-01-26 11:29:18.57	300.21	20.76	-42.9	-45.3	18.7	0.00e+00	0	43	0	764411904	57	4746
2026-01-26 11:29:19.56	300.43	20.70	-42.9	-45.3	18.7	0.00e+00	0	43	0	766509056	57	4735
2026-01-26 11:29:20.56	300.65	20.63	-42.9	-45.3	18.7	0.00e+00	0	43	0	768606208	57	4718
2026-01-26 11:29:21.55	300.87	20.57	-43.1	-45.4	18.6	0.00e+00	0	43	0	770703360	57	4803
2026-01-26 11:29:22.55	301.09	20.50	-43.2	-45.6	18.4	0.00e+00	0	43	0	771751936	57	4905
2026-01-26 11:29:23.54	301.31	20.43	-43.3	-45.8	18.2	0.00e+00	0	43	0	773849088	57	5017
2026-01-26 11:29:24.54	301.53	20.37	-43.4	-45.8	18.2	0.00e+00	0	43	0	775946240	57	5028
2026-01-26 11:29:25.53	301.74	20.30	-43.3	-45.7	18.2	0.00e+00	0	43	0	778043392	57	4982
2026-01-26 11:29:26.53	301.96	20.23	-43.4	-45.9	18.1	0.00e+00	0	43	0	780140544	57	5084
2026-01-26 11:29:27.52	302.17	20.16	-43.5	-46.0	18.0	0.00e+00	0	43	0	781189120	57	5132
2026-01-26 11:29:28.52	302.38	20.10	-43.5	-46.0	18.0	0.00e+00	0	43	0	783286272	57	5155
2026-01-26 11:29:29.51	302.59	20.03	-43.6	-46.1	17.9	0.00e+00	0	43	0	785383424	57	5193
2026-01-26 11:29:30.51	302.81	19.96	-43.6	-46.1	17.9	0.00e+00	0	43	0	787480576	57	5198
2026-01-26 11:29:31.50	303.02	19.89	-43.5	-46.1	18.0	0.00e+00	0	43	0	788529152	57	5162
2026-01-26 11:29:32.50	303.23	19.82	-43.4	-45.9	18.1	0.00e+00	0	43	0	790626304	57	5047
2026-01-26 11:29:33.49	303.43	19.75	-43.4	-45.9	18.1	0.00e+00	0	43	0	792723456	57	5043
2026-01-26 11:29:34.49	303.64	19.68	-43.3	-45.7	18.2	0.00e+00	0	43	0	794820608	57	4983
2026-01-26 11:29:35.49	303.85	19.61	-43.2	-45.6	18.4	0.00e+00	0	43	0	796917760	57	4877
2026-01-26 11:29:36.48	304.06	19.55	-43.0	-45.3	18.6	0.00e+00	0	43	0	797966336	57	4754
2026-01-26 11:29:37.47	304.26	19.48	-42.9	-45.3	18.7	0.00e+00	0	43	0	800063488	57	4727
2026-01-26 11:29:38.47	304.46	19.41	-43.1	-45.6	18.4	0.00e+00	0	42	0	802160640	57	4879
2026-01-26 11:29:39.46	304.67	19.34	-43.2	-45.6	18.4	0.00e+00	0	43	0	804257792	57	4917
2026-01-26 11:29:40.46	304.87	19.27	-43.2	-45.7	18.3	0.00e+00	0	43	0	805306368	57	4960
2026-01-26 11:29:41.45	305.07	19.20	-43.2	-45.7	18.3	0.00e+00	0	43	0	807403520	57	4955
2026-01-26 11:29:42.44	305.27	19.13	-43.3	-45.8	18.2	0.00e+00	0	43	0	809500672	57	4989
2026-01-26 11:29:43.44	305.47	19.06	-43.1	-45.5	18.5	0.00e+00	0	43	0	811597824	57	4845
2026-01-26 11:29:44.43	305.67	18.99	-43.0	-45.5	18.5	0.00e+00	0	43	0	813694976	57	4824
2026-01-26 11:29:45.43	305.87	18.92	-43.1	-45.5	18.5	0.00e+00	0	43	0	814743552	57	4851
2026-01-26 11:29:46.42	306.06	18.85	-43.1	-45.6	18.4	0.00e+00	0	43	0	816840704	57	4908
2026-01-26 11:29:47.42	306.26	18.77	-43.2	-45.7	18.2	0.00e+00	0	43	0	818937856	57	4976
2026-01-26 11:29:48.41	306.45	18.70	-43.3	-45.8	18.2	0.00e+00	0	43	0	821035008	57	5029
2026-01-26 11:29:49.41	306.65	18.63	-43.3	-45.8	18.2	0.00e+00	0	43	0	822083584	57	5018
2026-01-26 11:29:50.40	306.84	18.56	-43.4	-45.9	18.0	0.00e+00	0	43	0	824180736	57	5082
2026-01-26 11:29:51.40	307.03	18.49	-43.4	-45.9	18.0	0.00e+00	0	43	0	826277888	57	5091
2026-01-26 11:29:52.39	307.22	18.42	-43.5	-46.0	18.0	0.00e+00	0	43	0	828375040	57	5114
2026-01-26 11:29:53.39	307.41	18.35	-43.7	-46.4	17.6	0.00e+00	0	43	0	830472192	58	5048
2026-01-26 11:29:54.38	307.60	18.28	-43.9	-46.6	17.4	0.00e+00	0	43	0	831520768	58	5167
2026-01-26 11:29:55.37	307.79	18.20	-44.2	-46.9	17.1	0.00e+00	0	43	0	833617920	58	5378
2026-01-26 11:29:56.37	307.98	18.13	-44.3	-47.0	17.0	0.00e+00	0	43	0	835715072	59	5142
2026-01-26 11:29:57.36	308.17	18.06	-44.1	-46.8	17.2	0.00e+00	0	43	0	837812224	59	5002
2026-01-26 11:29:58.36	308.35	17.99	-43.9	-46.5	17.5	0.00e+00	0	43	0	838860800	59	4850
2026-01-26 11:29:59.35	308.54	17.92	-43.6	-46.2	17.8	0.00e+00	0	43	0	840957952	59	4672
2026-01-26 11:30:00.35	308.72	17.84	-43.4	-46.0	18.0	0.00e+00	0	43	0	843055104	58	4828
2026-01-26 11:30:01.34	308.90	17.77	-43.3	-45.8	18.2	0.00e+00	0	43	0	845152256	58	4711
2026-01-26 11:30:02.34	309.09	17.70	-43.1	-45.5	18.4	0.00e+00	0	43	0	847249408	58	4584
2026-01-26 11:30:03.33	309.27	17.63	-43.3	-45.8	18.2	0.00e+00	0	42	0	848297984	58	4728
2026-01-26 11:30:04.32	309.45	17.56	-43.6	-46.2	17.8	0.00e+00	0	43	0	850395136	58	4947
2026-01-26 11:30:05.32	309.63	17.48	-44.0	-46.7	17.3	0.00e+00	0	43	0	852492288	58	5250
2026-01-26 11:30:06.32	309.81	17.41	-44.2	-47.0	17.0	0.00e+00	0	43	0	854589440	58	5421
2026-01-26 11:30:07.31	309.99	17.34	-44.2	-47.0	17.0	0.00e+00	0	43	0	855638016	59	5110
2026-01-26 11:30:08.31	310.17	17.27	-44.0	-46.7	17.3	0.00e+00	0	43	0	857735168	59	4974
2026-01-26 11:30:09.30	310.34	17.19	-43.8	-46.5	17.5	0.00e+00	0	43	0	859832320	59	4853
2026-01-26 11:30:10.30	310.52	17.12	-43.7	-46.3	17.6	0.00e+00	0	43	0	861929472	59	4721
2026-01-26 11:30:11.29	310.69	17.05	-43.5	-46.0	17.9	0.00e+00	0	43	0	864026624	58	4863
2026-01-26 11:30:12.29	310.87	16.97	-43.3	-45.8	18.1	0.00e+00	0	43	0	865075200	58	4751
2026-01-26 11:30:13.28	311.04	16.90	-43.4	-46.0	18.0	0.00e+00	0	43	0	867172352	58	4839
2026-01-26 11:30:14.27	311.21	16.83	-43.6	-46.2	17.7	0.00e+00	0	43	0	869269504	58	4983
2026-01-26 11:30:15.27	311.39	16.76	-43.7	-46.3	17.6	0.00e+00	0	43	0	871366656	58	5032
2026-01-26 11:30:16.26	311.56	16.68	-43.8	-46.5	17.4	0.00e+00	0	43	0	872415232	58	5153
2026-01-26 11:30:17.26	311.73	16.61	-43.9	-46.7	17.3	0.00e+00	0	43	0	874512384	58	5221
2026-01-26 11:30:18.25	311.90	16.54	-43.8	-46.5	17.5	0.00e+00	0	43	0	876609536	58	5113
2026-01-26 11:30:19.25	312.07	16.47	-43.7	-46.3	17.6	0.00e+00	0	43	0	878706688	58	5020
2026-01-26 11:30:20.24	312.23	16.39	-43.6	-46.2	17.7	0.00e+00	0	43	0	880803840	58	4967
2026-01-26 11:30:21.23	312.40	16.32	-43.3	-45.9	18.0	0.00e+00	0	43	0	881852416	58	4814
2026-01-26 11:30:22.23	312.57	16.25	-43.2	-45.8	18.1	0.00e+00	0	43	0	883949568	58	4726
2026-01-26 11:30:23.23	312.73	16.17	-43.4	-46.0	17.9	0.00e+00	0	43	0	886046720	58	4832
2026-01-26 11:30:24.22	312.90	16.10	-43.2	-46.2	17.6	0.00e+00	0	43	0	888143872	58	4956
2026-01-26 11:30:25.22	313.06	16.03	-43.7	-46.5	17.5	0.00e+00	0	43	0	889192448	58	5118
2026-01-26 11:30:26.21	313.22	15.96	-43.7	-46.7	17.2	0.00e+00	0	43	0	891289600	58	5251
2026-01-26 11:30:27.21	313.39	15.88	-41.4	-46.6	16.4	0.00e+00	0	43	0	893386752	54	6569
2026-01-26 11:30:28.20	313.55	15.81	-30.4	-45.4	9.8	2.32e-04	0	43	0	895483904	32	20253
2026-01-26 11:30:29.20	313.71	15.74	-28.7	-45.2	8.6	5.70e-02	0	43	0	897581056	28	24892
2026-01-26 11:30:30.19	313.87	15.66	-41.6	-46.2	16.4	4.25e-03	0	43	0	898629632	53	6644
2026-01-26 11:30:31.18	314.03	15.59	-42.4	-46.1	17.3	0.00e+00	0	43	0	900726784	56	5501
2026-01-26 11:30:32.18	314.19	15.52	-43.3	-46.0	17.8	0.00e+00	0	43	0	902823936	57	5130
2026-01-26 11:30:33.17	314.34	15.45	-43.2	-46.0	17.8	0.00e+00	0	43	0	904921088	57	5139
2026-01-26 11:30:34.17	314.50	15.37	-43.4	-46.1	17.8	0.00e+00	0	43	0	905969664	57	5165
2026-01-26 11:30:35.16	314.66	15.30	-43.7	-46.4	17.5	0.00e+00	0	43	0	908066816	57	5367
2026-01-26 11:30:36.16	314.81	15.23	-43.9	-46.7	17.2	0.00e+00	0	43	0	910163968	58	5244
2026-01-26 11:30:37.15	314.97	15.16	-44.0	-46.9	17.0	0.00e+00	0	43	0	912261120	58	5382
2026-01-26 11:30:38.14	315.12	15.08	-44.3	-47.2	16.7	0.00e+00	0	43	0	914358272	59	5252
2026-01-26 11:30:39.14	315.28	15.01	-44.3	-47.2	16.7	0.00e+00	0	43	0	915406848	59	5271
2026-01-26 11:30:40.13	315.43	14.94	-44.2	-47.1	16.8	0.00e+00	0	43	0	917504000	59	5196
2026-01-26 11:30:41.13	315.58	14.87	-44.0	-46.8	17.1	0.00e+00	0	43	0	919601152	59	5037
2026-01-26 11:30:42.12	315.73	14.79	-43.8	-46.5	17.4	0.00e+00	0	43	0	921698304	59	4830
2026-01-26 11:30:43.12	315.88	14.72	-43.7	-46.4	17.5	0.00e+00	0	43	0	922746880	59	4783
2026-01-26 11:30:44.11	316.03	14.65	-43.7	-46.4	17.5	0.00e+00	0	43	0	924844032	59	4800
2026-01-26 11:30:45.10	316.18	14.58	-43.7	-46.4	17.5	0.00e+00	0	43	0	926941184	59	4793
2026-01-26 11:30:46.10	316.33	14.50	-43.6	-46.4	17.5	0.00e+00	0	43	0	929038336	59	4769
2026-01-26 11:30:47.09	316.48	14.43	-43.8	-46.7	17.3	0.00e+00	0	43	0	931135488	59	4938
2026-01-26 11:30:48.09	316.62	14.36	-44.0	-47.0	16.9	0.00e+00	0	43	0	932184064	59	5129
2026-01-26 11:30:49.08	316.77	14.29	-44.2	-47.2	16.8	0.00e+00	0	43	0	934281216	59	5239
2026-01-26 11:30:50.08	316.92	14.21	-44.2	-47.2	16.7	0.00e+00	0	43	0	936378368	59	5261
2026-01-26 11:30:51.07	317.06	14.14	-44.3	-47.2	16.7	0.00e+00	0	43	0	938475520	59	5277
2026-01-26 11:30:52.07	317.21	14.07	-44.1	-46.9	17.0	0.00e+00	0	43	0	939524096	59	5081
2026-01-26 11:30:53.06	317.35	14.00	-44.0	-46.8	17.1	0.00e+00	0	43	0	941621248	59	4993
2026-01-26 11:30:54.05	317.49	13.93	-44.0	-46.8	17.1	0.00e+00	0	42	0	943718400	59	4991
2026-01-26 11:30:55.05	317.63	13.85	-43.8	-46.5	17.3	0.00e+00	0	43	0	945815552	59	4869
2026-01-26 11:30:56.04	317.78	13.78	-43.7	-46.3	17.6	0.00e+00	0	43	0	947912704	59	4750
2026-01-26 11:30:57.04	317.92	13.71	-43.6	-46.3	17.6	0.00e+00	0	43	0	948961280	59	4723
2026-01-26 11:30:58.03	318.06	13.64	-43.6	-46.3	17.6	0.00e+00	0	43	0	951058432	59	4721
2026-01-26 11:30:59.03	318.20	13.57	-43.8	-46.5	17.4	0.00e+00	0	43	0	953155584	59	4840
2026-01-26 11:31:00.02	318.33	13.50	-43.9	-46.6	17.3	0.00e+00	0	43	0	955252736	59	4908
2026-01-26 11:31:01.02	318.47	13.42	-44.1	-46.9	17.0	0.00e+00	0	43	0	956301312	59	5075
2026-01-26 11:31:02.01	318.61	13.35	-44.1	-47.0	16.9	0.00e+00	0	43	0	958398464	59	5133
2026-01-26 11:31:03.00	318.75	13.28	-44.2	-47.1	16.8	0.00e+00	0	43	0	960495616	59	5167
2026-01-26 11:31:04.00	318.88	13.21	-44.2	-47.0	16.9	0.00e+00	0	43	0	962592768	59	5148
2026-01-26 11:31:04.99	319.02	13.14	-44.1	-47.0	16.9	0.00e+00	0	43	0	964689920	59	5105
2026-01-26 11:31:05.99	319.16	13.07	-44.1	-47.0	16.9	0.00e+00	0	43	0	965738496	59	5115
2026-01-26 11:31:06.98	319.29	13.00	-44.1	-47.0	16.9	0.00e+00	0	43	0	967835648	59	5112
2026-01-26 11:31:07.98	319.42	12.92	-44.1	-47.1	16.8	0.00e+00	0	43	0	969932800	59	5164
2026-01-26 11:31:08.97	319.56	12.85	-44.1	-47.0	16.9	0.00e+00	0	43	0	972029952	59	5121
2026-01-26 11:31:09.97	319.69	12.78	-43.8	-46.6	17.2	0.00e+00	0	43	0	973078528	59	4908
2026-01-26 11:31:10.96	319.82	12.71	-43.8	-46.7	17.2	0.00e+00	0	43	0	975175680	59	4945
2026-01-26 11:31:11.95	319.95	12.64	-44.0	-46.9	17.0	0.00e+00	0	43	0	977272832	59	5093
2026-01-26 11:31:12.95	320.08	12.57	-44.0	-47.0	16.9	0.00e+00	0	43	0	979369984	59	5143
2026-01-26 11:31:13.94	320.21	12.50	-44.2	-47.3	16.6	0.00e+00	0	43	0	981467136	59	5305
2026-01-26 11:31:14.94	320.34	12.43	-44.3	-47.4	16.5	0.00e+00	0	43	0	982515712	59	5366
2026-01-26 11:31:15.93	320.47	12.36	-44.4	-47.5	16.4	0.00e+00	0	43	0	984612864	59	5411
2026-01-26 11:31:16.93	320.60	12.29	-44.5	-47.6	16.3	0.00e+00	0	43	0	986710016	59	5477
2026-01-26 11:31:17.92	320.73	12.22	-44.5	-47.6	16.3	0.00e+00	0	43	0	988807168	59	5483
2026-01-26 11:31:18.92	320.86	12.15	-44.4	-47.4	16.5	0.00e+00	0	43	0	989855744	59	5365
2026-01-26 11:31:19.91	320.98	12.08	-44.3	-47.2	16.7	0.00e+00	0	43	0	991952896	59	5246
2026-01-26 11:31:20.91	321.11	12.01	-44.2	-47.0	16.8	0.00e+00	0	43	0	994050048	59	5150
2026-01-26 11:31:21.90	321.23	11.94	-44.2	-47.1	16.8	0.00e+00	0	43	0	996147200	59	5182
2026-01-26 11:31:22.90	321.36	11.87	-43.9	-46.8	17.1	0.00e+00	0	43	0	998244352	59	5000
2026-01-26 11:31:23.89	321.48	11.80	-43.8	-46.7	17.2	0.00e+00	0	43	0	999292928	59	4966
2026-01-26 11:31:24.89	321.61	11.73	-43.8	-46.7	17.2	0.00e+00	0	43	0	1001390080	59	4931
2026-01-26 11:31:25.88	321.73	11.66	-43.8	-46.7	17.2	0.00e+00	0	43	0	1003487232	59	4946
2026-01-26 11:31:26.87	321.85	11.59	-43.9	-46.7	17.1	0.00e+00	0	43	0	1005584384	59	4972
2026-01-26 11:31:27.87	321.97	11.52	-43.9	-46.8	17.0	0.00e+00	0	43	0	1006632960	59	5011
2026-01-26 11:31:28.86	322.10	11.45	-44.1	-47.0	16.9	0.00e+00	0	43	0	1008730112	59	5105
2026-01-26 11:31:29.86	322.22	11.38	-44.1	-47.0	16.8	0.00e+00	0	43	0	1010827264	59	5134
2026-01-26 11:31:30.85	322.34	11.31	-44.1	-46.9	16.9	0.00e+00	0	43	0	1012924416	59	5071
2026-01-26 11:31:31.85	322.46	11.24	-44.2	-47.0	16.8	0.00e+00	0	43	0	1015021568	59	5151
2026-01-26 11:31:32.84	322.58	11.17	-44.2	-47.0	16.8	0.00e+00	0	43	0	1016070144	59	5150
2026-01-26 11:31:33.83	322.69	11.10	-44.1	-47.0	16.8	0.00e+00	0	43	0	1018167296	59	5157
2026-01-26 11:31:34.83	322.81	11.03	-44.1	-47.1	16.7	0.00e+00	0	43	0	1020264448	59	5198
2026-01-26 11:31:35.82	322.93	10.97	-44.0	-47.1	16.7	0.00e+00	0	43	0	1022361600	59	5188
2026-01-26 11:31:36.82	323.05	10.90	-44.1	-47.2	16.6	0.00e+00	0	43	0	1024458752	59	5260
2026-01-26 11:31:37.81	323.16	10.83	-44.1	-47.3	16.5	0.00e+00	0	43	0	1025507328	59	5329
2026-01-26 11:31:38.81	323.28	10.76	-44.1	-47.4	16.4	0.00e+00	0	43	0	1027604480	59	5365
2026-01-26 11:31:39.80	323.40	10.69	-44.2	-47.6	16.2	0.00e+00	0	43	0	1029701632	59	5484
2026-01-26 11:31:40.80	323.51	10.62	-44.2	-47.6	16.3	0.00e+00	0	43	0	1031798784	59	5474
2026-01-26 11:31:41.79	323.63	10.55	-44.3	-47.8	16.1	0.00e+00	0	43	0	1032847360	59	5599
2026-01-26 11:31:42.79	323.74	10.49	-44.3	-47.8	16.0	0.00e+00	0	43	0	1034944512	59	5619
2026-01-26 11:31:43.78	323.85	10.42	-44.4	-47.9	15.9	0.00e+00	0	43	0	1037041664	59	5718
2026-01-26 11:31:44.78	323.97	10.35	-44.4	-48.0	15.8	0.00e+00	0	43	0	1039138816	59	5778
2026-01-26 11:31:45.77	324.08	10.28	-44.4	-47.9	15.9	0.00e+00	0	43	0	1041235968	59	5711
2026-01-26 11:31:46.77	324.19	10.21	-44.4	-47.9	15.9	0.00e+00	0	43	0	1042284544	59	5671
2026-01-26 11:31:47.76	324.30	10.15	-44.2	-47.7	16.1	0.00e+00	0	43	0	1044381696	59	5591
2026-01-26 11:31:48.76	324.41	10.08	-44.2	-47.7	16.2	0.00e+00	0	43	0	1046478848	59	5529
2026-01-26 11:31:49.75	324.52	10.01	-44.3	-47.8	16.0	0.00e+00	0	43	0	1048576000	59	5641
2026-01-26 11:31:50.75	324.63	9.94	-44.3	-48.0	15.8	0.00e+00	0	43	0	1049624576	59	5738
2026-01-26 11:31:51.74	324.74	9.88	-43.9	-47.7	16.1	0.00e+00	0	43	0	1051721728	59	5552
2026-01-26 11:31:52.74	324.85	9.81	-43.5	-47.6	16.1	0.00e+00	0	43	0	1053818880	59	5524
2026-01-26 11:31:53.73	324.96	9.74	-42.9	-47.6	16.1	0.00e+00	0	43	0	1055916032	57	6156
2026-01-26 11:31:54.73	325.07	9.67	-43.0	-47.7	16.0	0.00e+00	0	43	0	1058013184	57	6221
2026-01-26 11:31:55.72	325.18	9.61	-43.7	-47.8	15.9	0.00e+00	0	43	0	1059061760	57	6327
2026-01-26 11:31:56.72	325.28	9.54	-44.0	-47.6	16.1	0.00e+00	0	43	0	1061158912	58	5846
2026-01-26 11:31:57.71	325.39	9.47	-44.3	-47.9	15.8	0.00e+00	0	43	0	1063256064	59	5709
2026-01-26 11:31:58.70	325.50	9.41	-44.3	-48.0	15.8	0.00e+00	0	43	0	1065353216	59	5731
2026-01-26 11:31:59.70	325.60	9.34	-44.4	-48.1	15.7	0.00e+00	0	43	0	1066401792	59	5792
2026-01-26 11:32:00.69	325.71	9.27	-44.5	-48.2	15.6	0.00e+00	0	43	0	1068498944	59	5874
2026-01-26 11:32:01.69	325.81	9.21	-44.6	-48.3	15.5	0.00e+00	0	43	0	1070596096	59	5929
2026-01-26 11:32:02.68	325.92	9.14	-44.6	-48.3	15.5	0.00e+00	0	43	0	1072693248	59	5933
2026-01-26 11:32:03.67	326.02	9.08	-44.7	-48.4	15.4	0.00e+00	0	43	0	1074790400	60	5700
2026-01-26 11:32:04.67	326.12	9.01	-46.2	-51.8	12.4	1.67e-05	0	43	0	1075838976	62	7536
2026-01-26 11:32:05.66	326.23	8.94	-48.1	-64.9	3.8	1.49e+00	0	43	104	1076887552	67	25552
2026-01-26 11:32:06.65	326.33	8.88	-49.6	-65.3	3.8	1.49e+00	0	43	104	1076887552	70	22389
2026-01-26 11:32:07.65	326.43	8.81	-49.7	-65.4	3.8	1.49e+00	0	43	104	1076887552	70	22778
2026-01-26 11:32:08.64	326.53	8.75	-49.7	-65.5	3.8	1.49e+00	0	43	104	1076887552	70	23016
2026-01-26 11:32:09.63	326.63	8.68	-49.7	-65.6	3.8	1.49e+00	0	43	104	1076887552	70	23148
2026-01-26 11:32:10.63	326.74	8.61	-49.4	-65.4	3.8	1.49e+00	0	43	104	1076887552	70	22724
2026-01-26 11:32:11.62	326.84	8.55	-50.3	-65.6	3.8	1.49e+00	0	43	104	1076887552	71	21997
2026-01-26 11:32:12.61	326.94	8.48	-50.3	-65.6	3.8	1.49e+00	0	43	104	1076887552	71	22005
2026-01-26 11:32:13.61	327.04	8.42	-50.2	-65.6	3.8	1.49e+00	0	42	104	1076887552	71	21993
2026-01-26 11:32:14.60	327.13	8.35	-50.2	-65.7	3.8	1.49e+00	0	43	104	1076887552	71	22112
2026-01-26 11:32:15.59	327.23	8.29	-50.2	-65.7	3.8	1.49e+00	0	43	104	1076887552	71	22065
2026-01-26 11:32:16.58	327.33	8.22	-50.3	-65.7	3.8	1.49e+00	0	43	104	1076887552	71	22060
2026-01-26 11:32:17.58	327.43	8.16	-50.1	-65.7	3.8	1.49e+00	0	43	104	1076887552	71	22072
2026-01-26 11:32:18.57	327.53	8.09	-50.5	-65.7	3.8	1.49e+00	0	43	104	1076887552	71	22032
2026-01-26 11:32:19.56	327.62	8.03	-50.5	-65.7	3.8	1.49e+00	0	43	104	1076887552	71	22137
2026-01-26 11:32:20.56	327.72	7.97	-50.6	-65.7	3.8	1.49e+00	0	43	104	1076887552	71	22097
2026-01-26 11:32:21.55	327.82	7.90	-50.4	-65.7	3.8	1.49e+00	0	43	104	1076887552	71	22089
2026-01-26 11:32:22.54	327.91	7.84	-50.3	-65.7	3.8	1.49e+00	0	43	104	1076887552	71	22034
2026-01-26 11:32:23.54	328.01	7.77	-50.3	-65.6	3.8	1.49e+00	0	43	104	1076887552	71	21874
2026-01-26 11:32:24.53	328.10	7.71	-50.1	-65.6	3.8	1.49e+00	0	43	104	1076887552	71	21923
2026-01-26 11:32:25.52	328.20	7.65	-50.3	-65.6	3.8	1.49e+00	0	43	104	1076887552	71	21943
2026-01-26 11:32:26.52	328.29	7.58	-50.2	-65.6	3.8	1.49e+00	0	43	104	1076887552	71	21929
2026-01-26 11:32:27.51	328.38	7.52	-50.2	-65.6	3.8	1.49e+00	0	43	104	1076887552	71	21895
2026-01-26 11:32:28.50	328.48	7.45	-50.2	-65.6	3.8	1.49e+00	0	43	104	1076887552	71	21848
2026-01-26 11:32:29.50	328.57	7.39	-50.2	-65.6	3.8	1.49e+00	0	43	104	1076887552	71	21827
2026-01-26 11:32:30.49	328.66	7.33	-50.2	-65.6	3.8	1.49e+00	0	43	104	1076887552	71	21854
2026-01-26 11:32:31.48	328.75	7.26	-50.1	-65.5	3.8	1.49e+00	0	43	104	1076887552	71	21734
2026-01-26 11:32:32.48	328.85	7.20	-50.1	-65.6	3.8	1.49e+00	0	43	104	1076887552	71	21809
2026-01-26 11:32:33.47	328.94	7.14	-50.1	-65.6	3.8	1.49e+00	0	43	104	1076887552	71	21821
2026-01-26 11:32:34.46	329.03	7.07	-50.1	-65.5	3.8	1.49e+00	0	43	104	1076887552	71	21704
2026-01-26 11:32:35.45	329.12	7.01	-50.1	-65.6	3.8	1.49e+00	0	43	104	1076887552	71	21788
2026-01-26 11:32:36.45	329.21	6.95	-50.1	-65.5	3.8	1.49e+00	0	43	104	1076887552	71	21746
2026-01-26 11:32:37.44	329.30	6.89	-50.1	-65.6	3.8	1.49e+00	0	43	104	1076887552	71	21769
2026-01-26 11:32:38.43	329.39	6.82	-50.1	-65.5	3.8	1.49e+00	0	43	104	1076887552	71	21744
2026-01-26 11:32:39.42	329.48	6.76	-50.1	-65.6	3.8	1.49e+00	0	43	104	1076887552	71	21780
2026-01-26 11:32:40.42	329.57	6.70	-50.1	-65.5	3.8	1.49e+00	0	43	104	1076887552	71	21713
2026-01-26 11:32:41.41	329.66	6.64	-50.1	-65.6	3.8	1.49e+00	0	43	104	1076887552	71	21765
2026-01-26 11:32:42.40	329.74	6.57	-50.1	-65.5	3.8	1.49e+00	0	43	104	1076887552	71	21680
2026-01-26 11:32:43.39	329.83	6.51	-50.1	-65.6	3.8	1.49e+00	0	43	104	1076887552	71	21821
2026-01-26 11:32:44.39	329.92	6.45	-50.1	-65.6	3.8	1.49e+00	0	43	104	1076887552	71	21763
2026-01-26 11:32:45.38	330.01	6.39	-50.1	-65.6	3.8	1.49e+00	0	43	104	1076887552	71	21846
2026-01-26 11:32:46.37	330.09	6.33	-50.1	-65.6	3.8	1.49e+00	0	43	104	1076887552	71	21757
2026-01-26 11:32:47.37	330.18	6.26	-50.1	-65.5	3.8	1.49e+00	0	43	104	1076887552	71	21734
2026-01-26 11:32:48.36	330.27	6.20	-50.1	-65.5	3.8	1.49e+00	0	43	104	1076887552	71	21696
2026-01-26 11:32:49.35	330.35	6.14	-50.1	-65.6	3.8	1.49e+00	0	43	104	1076887552	71	21803
2026-01-26 11:32:50.34	330.44	6.08	-50.1	-65.5	3.8	1.49e+00	0	43	104	1076887552	71	21743
2026-01-26 11:32:51.34	330.52	6.02	-50.1	-65.5	3.8	1.49e+00	0	43	104	1076887552	71	21723
2026-01-26 11:32:52.33	330.61	5.96	-50.1	-65.5	3.8	1.49e+00	0	43	104	1076887552	71	21656
2026-01-26 11:32:53.32	330.69	5.89	-50.1	-65.6	3.8	1.49e+00	0	43	104	1076887552	71	21766
2026-01-26 11:32:54.31	330.77	5.83	-50.1	-65.5	3.8	1.49e+00	0	43	104	1076887552	71	21718
2026-01-26 11:32:55.31	330.86	5.77	-50.1	-65.5	3.8	1.49e+00	0	43	104	1076887552	71	21685
2026-01-26 11:32:56.30	330.94	5.71	-50.1	-65.5	3.8	1.49e+00	0	43	104	1076887552	71	21641
2026-01-26 11:32:57.29	331.02	5.65	-50.1	-65.5	3.8	1.49e+00	0	43	104	1076887552	71	21653
2026-01-26 11:32:58.28	331.11	5.59	-50.1	-65.5	3.8	1.49e+00	0	43	104	1076887552	71	21627
2026-01-26 11:32:59.28	331.19	5.53	-50.1	-65.5	3.8	1.49e+00	0	43	104	1076887552	71	21659
2026-01-26 11:33:00.27	331.27	5.47	-50.1	-65.5	3.8	1.49e+00	0	43	104	1076887552	71	21687
2026-01-26 11:33:01.26	331.35	5.41	-50.1	-65.5	3.8	1.49e+00	0	43	104	1076887552	71	21708
2026-01-26 11:33:02.25	331.43	5.35	-50.1	-65.5	3.8	1.49e+00	0	43	104	1076887552	71	21733
2026-01-26 11:33:03.25	331.52	5.29	-50.1	-65.6	3.8	1.49e+00	0	43	104	1076887552	71	21785
2026-01-26 11:33:04.24	331.60	5.23	-50.1	-65.5	3.8	1.49e+00	0	43	104	1076887552	71	21695
2026-01-26 11:33:05.23	331.68	5.17	-50.1	-65.5	3.8	1.49e+00	0	43	104	1076887552	71	21688
