passes_logs/2026/01/26/T1/T1__20260126_013020_NOAA_20_JPSS-1_rec.log

#Pass ID: 20260126_013020_NOAA 20 (JPSS-1)
#Satellite: NOAA 20 (JPSS-1)
#Configuration: NOAA 20
#almurnet v.1.7.20251203
#Start time: 2026-01-26 01:30:23

#Version: 2.0.20230620
#Station: T1
#Location: 37.570604 lon 55.790049 lat
#TLE: 1 43013U 17073A   26025.47986292  .00000161  00000+0  97249-4 0  9993
#TLE: 2 43013  98.7646 326.3091 0001052  24.2709 335.8516 14.19540188424225

#Time	Az	El	Level	Level2	SNR	BER	BlckErr	Temp	State	Recorded	gain1	gain2
2026-01-26 01:30:23.19	5.59	5.14	-46.6	-62.9	3.8	1.49e+00	0	36	0	0	65	22760
2026-01-26 01:30:24.18	5.51	5.20	-46.6	-63.0	3.8	1.49e+00	0	36	104	0	65	22800
2026-01-26 01:30:25.17	5.42	5.26	-46.6	-62.9	3.8	1.49e+00	0	36	104	0	65	22716
2026-01-26 01:30:26.17	5.33	5.32	-46.6	-62.9	3.8	1.49e+00	0	36	104	0	65	22699
2026-01-26 01:30:27.16	5.25	5.37	-46.6	-62.9	3.8	1.49e+00	0	36	104	0	65	22756
2026-01-26 01:30:28.15	5.16	5.43	-46.5	-62.9	3.8	1.49e+00	0	36	104	0	65	22769
2026-01-26 01:30:29.14	5.07	5.49	-46.6	-63.0	3.8	1.49e+00	0	36	104	0	65	22828
2026-01-26 01:30:30.14	4.98	5.55	-46.6	-63.0	3.8	1.49e+00	0	36	104	0	65	22859
2026-01-26 01:30:31.13	4.90	5.61	-46.6	-63.0	3.8	1.49e+00	0	36	104	0	65	22901
2026-01-26 01:30:32.12	4.81	5.67	-46.6	-63.0	3.8	1.49e+00	0	37	104	0	65	22918
2026-01-26 01:30:33.11	4.72	5.73	-46.6	-63.0	3.8	1.49e+00	0	36	104	0	65	22977
2026-01-26 01:30:34.11	4.63	5.79	-46.6	-63.0	3.8	1.49e+00	0	36	104	0	65	22964
2026-01-26 01:30:35.10	4.54	5.85	-46.6	-63.0	3.8	1.49e+00	0	36	104	0	65	22933
2026-01-26 01:30:36.09	4.45	5.90	-46.6	-63.0	3.8	1.49e+00	0	36	104	0	65	22997
2026-01-26 01:30:37.09	4.36	5.96	-46.6	-63.0	3.8	1.49e+00	0	37	104	0	65	22976
2026-01-26 01:30:38.08	4.27	6.02	-46.6	-63.0	3.8	1.49e+00	0	37	104	0	65	22979
2026-01-26 01:30:39.07	4.18	6.08	-46.6	-63.1	3.8	1.49e+00	0	37	104	0	65	23116
2026-01-26 01:30:40.07	4.08	6.14	-46.6	-63.0	3.8	1.49e+00	0	37	104	0	65	23034
2026-01-26 01:30:41.06	3.99	6.20	-46.6	-63.1	3.8	1.49e+00	0	37	104	0	65	23092
2026-01-26 01:30:42.05	3.90	6.26	-46.6	-63.1	3.8	1.49e+00	0	37	104	0	65	23084
2026-01-26 01:30:43.04	3.81	6.32	-46.6	-63.1	3.8	1.49e+00	0	37	104	0	65	23107
2026-01-26 01:30:44.04	3.71	6.38	-46.6	-63.0	3.8	1.49e+00	0	37	104	0	65	22982
2026-01-26 01:30:45.03	3.62	6.44	-46.6	-63.0	3.8	1.49e+00	0	37	104	0	65	23003
2026-01-26 01:30:46.02	3.52	6.50	-46.5	-63.0	3.8	1.49e+00	0	37	104	0	65	23000
2026-01-26 01:30:47.02	3.43	6.56	-46.5	-63.0	3.8	1.49e+00	0	37	104	0	65	22953
2026-01-26 01:30:48.01	3.33	6.62	-46.6	-63.0	3.8	1.49e+00	0	37	104	0	65	22883
2026-01-26 01:30:49.00	3.24	6.68	-46.6	-63.0	3.8	1.49e+00	0	37	104	0	65	22905
2026-01-26 01:30:49.99	3.14	6.74	-46.6	-63.0	3.8	1.49e+00	0	37	104	0	65	22815
2026-01-26 01:30:50.99	3.05	6.80	-46.5	-63.0	3.8	1.49e+00	0	37	104	0	65	22890
2026-01-26 01:30:51.98	2.95	6.86	-46.5	-63.0	3.8	1.49e+00	0	37	104	0	65	22852
2026-01-26 01:30:52.97	2.85	6.92	-46.6	-63.0	3.8	1.49e+00	0	37	104	0	65	22933
2026-01-26 01:30:53.97	2.75	6.98	-46.5	-63.0	3.8	1.49e+00	0	37	104	0	65	23001
2026-01-26 01:30:54.96	2.66	7.04	-46.6	-63.1	3.8	1.49e+00	0	37	104	0	65	23112
2026-01-26 01:30:55.95	2.56	7.10	-46.6	-63.1	3.8	1.49e+00	0	37	104	0	65	23058
2026-01-26 01:30:56.95	2.46	7.16	-46.6	-63.1	3.8	1.49e+00	0	37	104	0	65	23071
2026-01-26 01:30:57.94	2.36	7.22	-46.6	-63.0	3.8	1.49e+00	0	37	104	0	65	23044
2026-01-26 01:30:58.93	2.26	7.28	-46.5	-63.0	3.8	1.49e+00	0	37	104	0	65	22872
2026-01-26 01:30:59.93	2.16	7.34	-46.6	-63.0	3.8	1.49e+00	0	37	104	0	65	22843
2026-01-26 01:31:00.92	2.06	7.40	-46.5	-62.9	3.8	1.49e+00	0	37	104	0	65	22778
2026-01-26 01:31:01.91	1.96	7.46	-46.5	-62.9	3.8	1.49e+00	0	37	104	0	65	22671
2026-01-26 01:31:02.91	1.86	7.52	-46.5	-62.9	3.8	1.49e+00	0	37	104	0	65	22623
2026-01-26 01:31:03.90	1.75	7.59	-46.5	-62.9	3.8	1.49e+00	0	37	104	0	65	22642
2026-01-26 01:31:04.89	1.65	7.65	-46.5	-62.9	3.8	1.49e+00	0	37	104	0	65	22587
2026-01-26 01:31:05.89	1.55	7.71	-46.6	-62.8	3.8	1.49e+00	0	37	104	0	65	22399
2026-01-26 01:31:06.88	1.45	7.77	-46.5	-62.7	3.8	1.49e+00	0	38	104	0	65	22108
2026-01-26 01:31:07.87	1.34	7.83	-46.5	-62.5	3.8	1.49e+00	0	37	104	0	65	21655
2026-01-26 01:31:08.87	1.24	7.89	-46.5	-62.4	3.8	1.49e+00	0	37	104	0	65	21316
2026-01-26 01:31:09.86	1.13	7.95	-46.5	-62.3	3.8	1.49e+00	0	37	104	0	65	21092
2026-01-26 01:31:10.85	1.03	8.01	-46.5	-62.2	3.8	1.49e+00	0	38	104	0	65	20972
2026-01-26 01:31:11.85	0.92	8.07	-46.5	-62.3	3.8	1.49e+00	0	37	104	0	65	21200
2026-01-26 01:31:12.84	0.82	8.14	-46.5	-62.5	3.8	1.49e+00	0	38	104	0	65	21720
2026-01-26 01:31:13.83	0.71	8.20	-46.5	-62.7	3.8	1.49e+00	0	38	104	0	65	22200
2026-01-26 01:31:14.83	0.60	8.26	-46.5	-62.9	3.8	1.49e+00	0	38	104	0	65	22638
2026-01-26 01:31:15.82	0.50	8.32	-46.6	-63.0	3.8	1.49e+00	0	37	104	0	65	22811
2026-01-26 01:31:16.81	0.39	8.38	-46.6	-62.7	3.8	1.49e+00	0	38	104	0	65	22236
2026-01-26 01:31:17.81	0.28	8.44	-46.5	-62.1	3.8	1.49e+00	0	37	104	0	65	20636
2026-01-26 01:31:18.80	0.17	8.51	-46.4	-60.6	3.9	1.49e+00	0	37	104	0	64	18417
2026-01-26 01:31:19.79	0.06	8.57	-46.3	-58.4	4.6	1.39e+00	0	38	0	0	64	14229
2026-01-26 01:31:20.78	359.95	8.63	-46.0	-56.2	5.8	7.06e-01	0	38	0	2097152	64	11032
2026-01-26 01:31:21.78	359.84	8.69	-45.8	-54.2	7.6	1.55e-01	0	38	0	4194304	63	9330
2026-01-26 01:31:22.77	359.73	8.75	-45.4	-52.6	9.3	4.02e-02	0	38	0	5242880	62	8197
2026-01-26 01:31:23.76	359.62	8.81	-45.1	-51.4	10.4	1.05e-02	0	38	0	7340032	62	7192
2026-01-26 01:31:24.76	359.51	8.88	-44.8	-50.6	11.3	1.48e-03	0	38	0	9437184	61	6895
2026-01-26 01:31:25.75	359.40	8.94	-44.6	-50.2	11.7	6.62e-04	0	38	0	11534336	61	6631
2026-01-26 01:31:26.74	359.28	9.00	-44.6	-50.1	11.8	4.81e-04	0	38	0	12582912	61	6567
2026-01-26 01:31:27.74	359.17	9.06	-45.1	-51.9	10.0	7.57e-04	0	38	0	14680064	61	8042
2026-01-26 01:31:28.73	359.06	9.13	-46.2	-57.7	5.0	2.09e-01	0	38	0	16777216	62	14833
2026-01-26 01:31:29.73	358.94	9.19	-43.7	-47.7	14.1	3.68e-01	0	38	0	18874368	59	5588
2026-01-26 01:31:30.72	358.83	9.25	-43.6	-47.5	14.6	0.00e+00	0	38	0	20971520	58	5757
2026-01-26 01:31:31.72	358.71	9.31	-44.1	-48.5	13.6	7.00e-07	0	38	0	22020096	58	6469
2026-01-26 01:31:32.71	358.60	9.37	-43.4	-47.2	14.7	2.27e-04	0	38	0	24117248	58	5578
2026-01-26 01:31:33.71	358.48	9.44	-43.1	-46.9	15.1	0.00e+00	0	38	0	26214400	58	5387
2026-01-26 01:31:34.70	358.36	9.50	-43.0	-46.8	15.2	0.00e+00	0	38	0	28311552	58	5280
2026-01-26 01:31:35.69	358.25	9.56	-42.9	-46.7	15.3	0.00e+00	0	38	0	29360128	57	5545
2026-01-26 01:31:36.69	358.13	9.63	-42.9	-46.7	15.3	0.00e+00	0	38	0	31457280	57	5570
2026-01-26 01:31:37.69	358.01	9.69	-42.8	-46.7	15.3	0.00e+00	0	38	0	33554432	57	5553
2026-01-26 01:31:38.68	357.89	9.75	-42.7	-46.6	15.5	0.00e+00	0	38	0	35651584	57	5469
2026-01-26 01:31:39.67	357.77	9.81	-42.7	-46.6	15.4	0.00e+00	0	38	0	37748736	57	5526
2026-01-26 01:31:40.67	357.65	9.88	-42.7	-46.6	15.3	0.00e+00	0	38	0	38797312	57	5511
2026-01-26 01:31:41.74	357.52	9.94	-42.7	-46.6	15.4	0.00e+00	0	38	0	40894464	57	5513
2026-01-26 01:31:42.63	357.41	10.00	-42.6	-46.5	15.5	0.00e+00	0	38	0	42991616	57	5416
2026-01-26 01:31:43.76	357.28	10.07	-42.4	-46.4	15.6	0.00e+00	0	38	0	45088768	56	5660
2026-01-26 01:31:44.61	357.17	10.13	-42.4	-46.3	15.8	0.00e+00	0	38	0	46137344	56	5634
2026-01-26 01:31:45.75	357.03	10.20	-42.4	-46.4	15.6	0.00e+00	0	38	0	49283072	56	5704
2026-01-26 01:31:46.60	356.92	10.25	-42.4	-46.5	15.6	0.00e+00	0	38	0	50331648	56	5760
2026-01-26 01:31:47.74	356.78	10.32	-42.3	-46.5	15.6	0.00e+00	0	38	0	52428800	56	5747
2026-01-26 01:31:48.59	356.68	10.38	-42.3	-46.6	15.5	0.00e+00	0	38	0	54525952	56	5806
2026-01-26 01:31:49.73	356.53	10.45	-42.3	-46.7	15.4	0.00e+00	0	38	0	56623104	56	5872
2026-01-26 01:31:50.58	356.43	10.50	-42.3	-46.6	15.5	0.00e+00	0	38	0	57671680	56	5805
2026-01-26 01:31:51.72	356.28	10.58	-42.2	-46.7	15.4	0.00e+00	0	38	0	59768832	56	5889
2026-01-26 01:31:52.57	356.17	10.63	-42.3	-46.8	15.3	7.00e-07	0	38	0	61865984	56	5965
2026-01-26 01:31:53.71	356.03	10.70	-42.1	-46.5	15.5	0.00e+00	0	38	0	63963136	56	5765
2026-01-26 01:31:54.57	355.92	10.76	-42.2	-46.8	15.3	0.00e+00	0	38	0	65011712	56	5951
2026-01-26 01:31:55.70	355.77	10.83	-42.2	-46.6	15.4	7.00e-07	0	38	0	67108864	56	5852
2026-01-26 01:31:56.55	355.66	10.88	-42.1	-46.7	15.3	0.00e+00	0	38	0	69206016	56	5897
2026-01-26 01:31:57.69	355.51	10.96	-41.8	-46.4	15.5	0.00e+00	0	38	0	71303168	55	6041
2026-01-26 01:31:58.59	355.40	11.01	-41.6	-46.0	15.9	0.00e+00	0	38	0	72351744	55	5770
2026-01-26 01:31:59.79	355.24	11.09	-41.6	-45.9	16.0	0.00e+00	0	38	0	75497472	55	5689
2026-01-26 01:32:00.64	355.13	11.14	-41.6	-46.0	16.0	0.00e+00	0	38	0	76546048	55	5729
2026-01-26 01:32:01.78	354.98	11.22	-41.6	-45.9	16.0	0.00e+00	0	38	0	78643200	55	5704
2026-01-26 01:32:02.69	354.85	11.27	-41.5	-45.8	16.1	0.00e+00	0	38	0	80740352	55	5638
2026-01-26 01:32:03.87	354.70	11.35	-41.5	-45.7	16.2	0.00e+00	0	38	0	82837504	54	5907
2026-01-26 01:32:04.72	354.58	11.40	-41.6	-45.7	16.2	0.00e+00	0	38	0	83886080	54	5888
2026-01-26 01:32:06.09	354.40	11.49	-41.5	-45.6	16.3	0.00e+00	0	38	0	87031808	54	5842
2026-01-26 01:32:06.80	354.30	11.54	-41.5	-45.6	16.4	0.00e+00	0	38	0	88080384	54	5810
2026-01-26 01:32:08.08	354.13	11.62	-41.5	-45.5	16.4	0.00e+00	0	38	0	90177536	54	5741
2026-01-26 01:32:08.80	354.03	11.66	-41.4	-45.2	16.7	0.00e+00	0	38	0	92274688	54	5580
2026-01-26 01:32:10.08	353.85	11.74	-41.4	-45.3	16.6	0.00e+00	0	38	0	94371840	54	5628
2026-01-26 01:32:10.81	353.75	11.79	-41.4	-45.3	16.7	0.00e+00	0	38	0	95420416	54	5603
2026-01-26 01:32:12.09	353.57	11.87	-41.5	-45.3	16.7	0.00e+00	0	38	0	98566144	54	5593
2026-01-26 01:32:12.80	353.47	11.92	-41.5	-45.2	16.7	0.00e+00	0	38	0	99614720	54	5585
2026-01-26 01:32:14.08	353.30	12.00	-41.4	-45.3	16.7	0.00e+00	0	38	0	101711872	54	5594
2026-01-26 01:32:14.81	353.19	12.05	-41.5	-45.2	16.7	0.00e+00	0	38	0	102760448	54	5565
2026-01-26 01:32:16.08	353.01	12.13	-41.4	-45.2	16.7	0.00e+00	0	38	0	105906176	54	5565
2026-01-26 01:32:17.01	352.88	12.19	-41.4	-45.2	16.7	0.00e+00	0	38	0	106954752	54	5581
2026-01-26 01:32:18.01	352.74	12.25	-41.5	-45.3	16.7	0.00e+00	0	38	0	109051904	54	5620
2026-01-26 01:32:19.00	352.60	12.31	-41.6	-45.5	16.5	0.00e+00	0	38	0	111149056	54	5735
2026-01-26 01:32:20.00	352.45	12.38	-41.4	-45.3	16.7	0.00e+00	0	38	0	113246208	54	5639
2026-01-26 01:32:20.99	352.31	12.44	-41.5	-45.4	16.6	0.00e+00	0	38	0	114294784	54	5677
2026-01-26 01:32:21.98	352.17	12.50	-41.4	-45.2	16.8	0.00e+00	0	38	0	116391936	54	5546
2026-01-26 01:32:22.98	352.02	12.57	-41.4	-45.1	16.8	0.00e+00	0	38	0	118489088	54	5528
2026-01-26 01:32:23.97	351.88	12.63	-41.5	-45.3	16.7	0.00e+00	0	38	0	120586240	54	5615
2026-01-26 01:32:24.97	351.73	12.69	-41.5	-45.3	16.7	0.00e+00	0	38	0	122683392	54	5633
2026-01-26 01:32:25.96	351.58	12.76	-41.6	-45.3	16.6	0.00e+00	0	38	0	123731968	54	5651
2026-01-26 01:32:26.96	351.44	12.82	-41.5	-45.2	16.8	0.00e+00	0	38	0	125829120	54	5548
2026-01-26 01:32:27.95	351.29	12.88	-41.6	-45.3	16.7	0.00e+00	0	38	0	127926272	54	5637
2026-01-26 01:32:28.95	351.14	12.95	-41.6	-45.3	16.7	0.00e+00	0	38	0	130023424	54	5610
2026-01-26 01:32:29.94	350.99	13.01	-41.7	-45.2	16.8	0.00e+00	0	38	0	131072000	54	5591
2026-01-26 01:32:30.94	350.84	13.07	-41.9	-45.3	16.7	0.00e+00	0	38	0	133169152	54	5611
2026-01-26 01:32:31.93	350.69	13.13	-41.9	-45.2	16.8	0.00e+00	0	38	0	135266304	54	5546
2026-01-26 01:32:32.93	350.54	13.20	-42.0	-45.2	16.8	0.00e+00	0	38	0	137363456	54	5579
2026-01-26 01:32:33.93	350.38	13.26	-42.1	-45.2	16.8	0.00e+00	0	38	0	139460608	54	5565
2026-01-26 01:32:34.92	350.23	13.32	-42.2	-45.3	16.7	0.00e+00	0	38	0	140509184	55	5291
2026-01-26 01:32:35.92	350.08	13.39	-42.3	-45.3	16.7	0.00e+00	0	38	0	142606336	55	5329
2026-01-26 01:32:36.91	349.93	13.45	-42.3	-45.4	16.6	0.00e+00	0	38	0	144703488	55	5377
2026-01-26 01:32:37.91	349.77	13.51	-42.3	-45.5	16.5	0.00e+00	0	38	0	146800640	55	5463
2026-01-26 01:32:38.91	349.61	13.58	-42.2	-45.4	16.6	0.00e+00	0	38	0	148897792	55	5398
2026-01-26 01:32:39.90	349.46	13.64	-42.2	-45.5	16.5	0.00e+00	0	38	0	149946368	55	5454
2026-01-26 01:32:40.89	349.30	13.70	-42.2	-45.6	16.4	0.00e+00	0	38	0	152043520	55	5465
2026-01-26 01:32:41.89	349.14	13.76	-42.2	-45.6	16.5	0.00e+00	0	38	0	154140672	55	5468
2026-01-26 01:32:42.89	348.99	13.83	-42.1	-45.5	16.5	0.00e+00	0	38	0	156237824	55	5462
2026-01-26 01:32:43.89	348.83	13.89	-42.1	-45.5	16.5	0.00e+00	0	38	0	157286400	55	5457
2026-01-26 01:32:44.88	348.67	13.95	-42.1	-45.5	16.5	0.00e+00	0	38	0	159383552	55	5457
2026-01-26 01:32:45.87	348.51	14.01	-41.9	-45.4	16.6	0.00e+00	0	38	0	161480704	55	5386
2026-01-26 01:32:46.87	348.35	14.08	-41.9	-45.3	16.7	0.00e+00	0	38	0	163577856	55	5323
2026-01-26 01:32:47.86	348.19	14.14	-41.9	-45.3	16.7	0.00e+00	0	38	0	165675008	55	5339
2026-01-26 01:32:48.94	348.01	14.21	-41.9	-45.3	16.7	0.00e+00	0	38	0	166723584	55	5336
2026-01-26 01:32:49.82	347.86	14.26	-42.1	-45.4	16.6	0.00e+00	0	38	0	168820736	55	5391
2026-01-26 01:32:51.12	347.65	14.34	-42.2	-45.5	16.5	0.00e+00	0	38	0	170917888	55	5457
2026-01-26 01:32:51.83	347.53	14.39	-42.3	-45.6	16.5	0.00e+00	0	38	0	173015040	55	5465
2026-01-26 01:32:53.11	347.32	14.47	-42.3	-45.5	16.5	0.00e+00	0	38	0	175112192	55	5432
2026-01-26 01:32:54.29	347.12	14.54	-42.4	-45.6	16.5	0.00e+00	0	38	0	177209344	55	5480
2026-01-26 01:32:55.15	346.98	14.59	-42.4	-45.7	16.4	0.00e+00	0	38	0	179306496	55	5539
2026-01-26 01:32:56.28	346.79	14.66	-42.4	-45.8	16.3	0.00e+00	0	38	0	181403648	55	5593
2026-01-26 01:32:57.14	346.64	14.72	-42.4	-45.7	16.3	0.00e+00	0	38	0	182452224	55	5576
2026-01-26 01:32:58.29	346.45	14.79	-42.5	-45.9	16.2	0.00e+00	0	38	0	184549376	55	5715
2026-01-26 01:32:59.14	346.30	14.84	-42.4	-45.9	16.2	0.00e+00	0	38	0	186646528	55	5665
2026-01-26 01:33:00.28	346.11	14.91	-42.3	-45.9	16.2	0.00e+00	0	38	0	188743680	55	5670
2026-01-26 01:33:01.13	345.96	14.96	-42.3	-45.9	16.2	0.00e+00	0	38	0	189792256	55	5679
2026-01-26 01:33:02.27	345.77	15.03	-42.2	-45.7	16.3	0.00e+00	0	38	0	191889408	55	5592
2026-01-26 01:33:03.25	345.60	15.09	-42.2	-45.8	16.3	0.00e+00	0	38	0	193986560	55	5607
2026-01-26 01:33:04.24	345.42	15.15	-42.3	-45.8	16.3	0.00e+00	0	38	0	196083712	55	5619
2026-01-26 01:33:05.24	345.25	15.21	-42.3	-45.7	16.4	0.00e+00	0	38	0	198180864	55	5562
2026-01-26 01:33:06.23	345.08	15.27	-42.3	-45.7	16.4	0.00e+00	0	38	0	199229440	55	5542
2026-01-26 01:33:07.23	344.90	15.33	-42.4	-45.7	16.3	0.00e+00	0	38	0	201326592	55	5586
2026-01-26 01:33:08.22	344.72	15.39	-42.5	-45.8	16.3	0.00e+00	0	38	0	203423744	55	5616
2026-01-26 01:33:09.22	344.55	15.46	-42.4	-45.7	16.4	0.00e+00	0	38	0	205520896	55	5575
2026-01-26 01:33:10.21	344.37	15.52	-42.4	-45.8	16.3	0.00e+00	0	38	0	207618048	55	5632
2026-01-26 01:33:11.21	344.19	15.58	-42.3	-45.7	16.4	0.00e+00	0	38	0	208666624	55	5545
2026-01-26 01:33:12.20	344.01	15.63	-42.2	-45.6	16.5	0.00e+00	0	38	0	210763776	55	5506
2026-01-26 01:33:13.20	343.83	15.69	-42.1	-45.5	16.6	0.00e+00	0	38	0	212860928	55	5433
2026-01-26 01:33:14.24	343.64	15.76	-42.1	-45.5	16.5	0.00e+00	0	38	0	214958080	55	5463
2026-01-26 01:33:15.22	343.47	15.82	-42.1	-45.4	16.6	0.00e+00	0	38	0	216006656	55	5392
2026-01-26 01:33:16.21	343.28	15.87	-41.9	-45.1	17.0	0.00e+00	0	38	0	218103808	55	5164
2026-01-26 01:33:17.34	343.08	15.94	-42.1	-45.1	17.0	0.00e+00	0	38	0	220200960	55	5165
2026-01-26 01:33:18.22	342.91	15.99	-42.2	-45.0	17.1	0.00e+00	0	38	0	222298112	55	5110
2026-01-26 01:33:19.36	342.70	16.06	-42.0	-44.8	17.3	0.00e+00	0	38	0	224395264	55	4988
2026-01-26 01:33:20.21	342.55	16.11	-42.0	-44.7	17.4	0.00e+00	0	38	0	225443840	55	4979
2026-01-26 01:33:21.35	342.33	16.18	-41.7	-44.5	17.6	0.00e+00	0	38	0	227540992	55	4863
2026-01-26 01:33:22.20	342.17	16.23	-41.6	-44.5	17.6	0.00e+00	0	38	0	229638144	55	4844
2026-01-26 01:33:23.34	341.96	16.29	-41.5	-44.4	17.7	0.00e+00	0	38	0	231735296	55	4799
2026-01-26 01:33:24.19	341.80	16.34	-41.5	-44.4	17.7	0.00e+00	0	38	0	232783872	55	4801
2026-01-26 01:33:25.33	341.58	16.41	-41.5	-44.4	17.7	0.00e+00	0	38	0	235929600	54	5098
2026-01-26 01:33:26.18	341.42	16.46	-41.5	-44.3	17.8	0.00e+00	0	38	0	236978176	54	5027
2026-01-26 01:33:27.32	341.20	16.53	-41.5	-44.3	17.8	0.00e+00	0	38	0	239075328	54	5025
2026-01-26 01:33:28.17	341.04	16.57	-41.5	-44.2	17.8	0.00e+00	0	38	0	241172480	54	4983
2026-01-26 01:33:29.31	340.82	16.64	-41.3	-44.0	18.1	0.00e+00	0	38	0	243269632	54	4824
2026-01-26 01:33:30.16	340.66	16.69	-41.3	-43.9	18.2	0.00e+00	0	39	0	244318208	54	4764
2026-01-26 01:33:31.33	340.43	16.75	-41.1	-43.6	18.4	0.00e+00	0	38	0	246415360	54	4639
2026-01-26 01:33:32.18	340.26	16.80	-41.1	-43.6	18.5	0.00e+00	0	38	0	248512512	54	4646
2026-01-26 01:33:33.32	340.04	16.87	-41.0	-43.6	18.5	0.00e+00	0	38	0	250609664	54	4605
2026-01-26 01:33:34.18	339.87	16.92	-41.0	-43.5	18.5	0.00e+00	0	38	0	251658240	53	4851
2026-01-26 01:33:35.31	339.65	16.98	-41.0	-43.6	18.5	0.00e+00	0	38	0	253755392	53	4876
2026-01-26 01:33:36.17	339.48	17.03	-40.9	-43.3	18.7	0.00e+00	0	38	0	255852544	53	4750
2026-01-26 01:33:37.31	339.25	17.09	-40.8	-43.2	18.9	0.00e+00	0	38	0	257949696	53	4661
2026-01-26 01:33:38.16	339.08	17.14	-40.8	-43.2	18.9	0.00e+00	0	38	0	260046848	53	4659
2026-01-26 01:33:39.30	338.86	17.20	-40.7	-43.0	19.0	0.00e+00	0	38	0	262144000	53	4574
2026-01-26 01:33:40.15	338.69	17.25	-40.7	-43.0	19.0	0.00e+00	0	38	0	263192576	53	4594
2026-01-26 01:33:41.29	338.46	17.31	-40.7	-43.2	18.9	0.00e+00	0	39	0	265289728	53	4658
2026-01-26 01:33:42.14	338.28	17.36	-40.6	-43.1	18.9	0.00e+00	0	39	0	267386880	53	4635
2026-01-26 01:33:43.32	338.04	17.42	-40.4	-42.8	19.2	0.00e+00	0	38	0	269484032	52	4757
2026-01-26 01:33:44.18	337.87	17.47	-40.3	-42.7	19.3	0.00e+00	0	38	0	270532608	52	4693
2026-01-26 01:33:45.38	337.62	17.53	-40.3	-42.8	19.2	0.00e+00	0	38	0	272629760	52	4735
2026-01-26 01:33:46.23	337.45	17.58	-40.4	-42.8	19.2	0.00e+00	0	38	0	274726912	52	4759
2026-01-26 01:33:47.37	337.21	17.64	-40.3	-42.7	19.3	0.00e+00	0	38	0	276824064	52	4693
2026-01-26 01:33:48.22	337.04	17.68	-40.4	-42.9	19.2	0.00e+00	0	38	0	277872640	52	4762
2026-01-26 01:33:49.48	336.78	17.75	-40.4	-42.8	19.2	0.00e+00	0	38	0	281018368	52	4755
2026-01-26 01:33:50.28	336.61	17.79	-40.3	-42.6	19.4	0.00e+00	0	38	0	282066944	52	4635
2026-01-26 01:33:51.43	336.37	17.85	-40.2	-42.6	19.5	0.00e+00	0	38	0	284164096	52	4615
2026-01-26 01:33:52.29	336.19	17.89	-40.2	-42.5	19.5	0.00e+00	0	38	0	286261248	52	4594
2026-01-26 01:33:53.42	335.95	17.95	-40.1	-42.6	19.5	0.00e+00	0	38	0	288358400	52	4602
2026-01-26 01:33:54.28	335.77	18.00	-40.2	-42.6	19.4	0.00e+00	0	38	0	289406976	52	4638
2026-01-26 01:33:55.41	335.53	18.05	-40.1	-42.6	19.4	0.00e+00	0	38	0	291504128	52	4651
2026-01-26 01:33:56.27	335.35	18.10	-40.0	-42.6	19.4	0.00e+00	0	39	0	293601280	52	4631
2026-01-26 01:33:57.40	335.11	18.15	-40.1	-42.7	19.3	0.00e+00	0	38	0	295698432	52	4691
2026-01-26 01:33:58.26	334.92	18.20	-40.2	-42.8	19.2	0.00e+00	0	38	0	296747008	52	4748
2026-01-26 01:33:59.39	334.68	18.25	-40.3	-42.9	19.2	0.00e+00	0	38	0	298844160	52	4776
2026-01-26 01:34:00.25	334.50	18.29	-40.4	-42.9	19.1	0.00e+00	0	38	0	300941312	52	4811
2026-01-26 01:34:01.38	334.25	18.35	-40.4	-42.9	19.2	0.00e+00	0	38	0	303038464	52	4773
2026-01-26 01:34:02.23	334.07	18.39	-40.4	-42.9	19.1	0.00e+00	0	38	0	305135616	52	4800
2026-01-26 01:34:03.37	333.82	18.45	-40.5	-43.0	19.1	0.00e+00	0	38	0	307232768	52	4851
2026-01-26 01:34:04.22	333.63	18.49	-40.5	-43.0	19.1	0.00e+00	0	38	0	308281344	52	4856
2026-01-26 01:34:05.44	333.37	18.54	-40.6	-43.1	18.9	0.00e+00	0	38	0	310378496	52	4902
2026-01-26 01:34:06.29	333.18	18.59	-40.6	-43.2	18.9	0.00e+00	0	38	0	312475648	52	4949
2026-01-26 01:34:07.49	332.92	18.64	-40.6	-43.2	18.9	0.00e+00	0	38	0	314572800	52	4928
2026-01-26 01:34:08.35	332.73	18.68	-40.7	-43.2	18.9	0.00e+00	0	38	0	316669952	52	4930
2026-01-26 01:34:09.48	332.47	18.73	-40.7	-43.2	18.9	0.00e+00	0	38	0	317718528	52	4929
2026-01-26 01:34:10.33	332.29	18.77	-40.7	-43.2	18.9	0.00e+00	0	38	0	319815680	52	4951
2026-01-26 01:34:11.60	332.00	18.83	-40.7	-43.1	18.9	0.00e+00	0	38	0	321912832	52	4916
2026-01-26 01:34:12.40	331.82	18.87	-40.5	-42.9	19.1	0.00e+00	0	38	0	324009984	52	4798
2026-01-26 01:34:13.54	331.57	18.92	-40.6	-42.9	19.1	0.00e+00	0	39	0	326107136	52	4804
2026-01-26 01:34:14.39	331.38	18.96	-40.6	-42.9	19.1	0.00e+00	0	38	0	327155712	52	4795
2026-01-26 01:34:15.53	331.12	19.01	-40.4	-42.7	19.3	0.00e+00	0	38	0	329252864	52	4695
2026-01-26 01:34:16.38	330.93	19.04	-40.3	-42.6	19.5	0.00e+00	0	38	0	331350016	52	4607
2026-01-26 01:34:17.52	330.67	19.09	-40.4	-42.6	19.4	0.00e+00	0	38	0	333447168	52	4637
2026-01-26 01:34:18.37	330.47	19.13	-40.4	-42.7	19.3	0.00e+00	0	39	0	334495744	52	4703
2026-01-26 01:34:19.51	330.21	19.18	-40.2	-42.5	19.6	0.00e+00	0	38	0	336592896	52	4554
2026-01-26 01:34:20.36	330.02	19.21	-40.1	-42.5	19.6	0.00e+00	0	38	0	338690048	52	4546
2026-01-26 01:34:21.50	329.76	19.26	-40.0	-42.4	19.8	0.00e+00	0	38	0	340787200	51	4768
2026-01-26 01:34:22.35	329.56	19.29	-39.9	-42.4	19.8	0.00e+00	0	38	0	342884352	51	4767
2026-01-26 01:34:23.49	329.30	19.34	-39.9	-42.4	19.7	0.00e+00	0	38	0	344981504	51	4780
2026-01-26 01:34:24.34	329.10	19.38	-39.8	-42.1	19.9	0.00e+00	0	38	0	346030080	51	4648
2026-01-26 01:34:25.48	328.84	19.42	-39.9	-42.3	19.9	0.00e+00	0	38	0	348127232	51	4718
2026-01-26 01:34:26.33	328.64	19.45	-39.9	-42.2	19.9	0.00e+00	0	38	0	350224384	51	4697
2026-01-26 01:34:27.47	328.37	19.50	-39.9	-42.2	19.9	0.00e+00	0	38	0	352321536	51	4689
2026-01-26 01:34:28.32	328.17	19.53	-40.0	-42.3	19.8	0.00e+00	0	38	0	353370112	51	4738
2026-01-26 01:34:29.46	327.91	19.58	-40.0	-42.3	19.8	0.00e+00	0	38	0	355467264	51	4745
2026-01-26 01:34:30.31	327.71	19.61	-40.0	-42.4	19.7	0.00e+00	0	38	0	357564416	51	4781
2026-01-26 01:34:31.45	327.44	19.65	-40.0	-42.3	19.8	0.00e+00	0	38	0	359661568	51	4745
2026-01-26 01:34:32.30	327.24	19.68	-40.0	-42.4	19.7	0.00e+00	0	38	0	360710144	51	4771
2026-01-26 01:34:33.43	326.97	19.72	-39.8	-42.1	20.0	0.00e+00	0	38	0	362807296	51	4620
2026-01-26 01:34:34.29	326.76	19.75	-39.9	-42.1	20.0	0.00e+00	0	38	0	364904448	51	4614
2026-01-26 01:34:35.42	326.50	19.79	-39.9	-42.1	20.0	0.00e+00	0	38	0	367001600	51	4613
2026-01-26 01:34:36.28	326.29	19.82	-39.8	-42.0	20.1	0.00e+00	0	38	0	368050176	51	4577
2026-01-26 01:34:37.41	326.02	19.86	-39.9	-42.1	20.0	0.00e+00	0	38	0	370147328	51	4637
2026-01-26 01:34:38.27	325.81	19.89	-40.0	-42.2	19.9	0.00e+00	0	38	0	372244480	51	4680
2026-01-26 01:34:39.40	325.54	19.93	-40.1	-42.3	19.8	0.00e+00	0	38	0	374341632	51	4716
2026-01-26 01:34:40.26	325.34	19.96	-40.1	-42.3	19.8	0.00e+00	0	38	0	376438784	51	4738
2026-01-26 01:34:41.39	325.06	19.99	-40.1	-42.4	19.7	0.00e+00	0	38	0	378535936	51	4796
2026-01-26 01:34:42.25	324.85	20.02	-40.1	-42.4	19.7	0.00e+00	0	38	0	379584512	51	4810
2026-01-26 01:34:43.38	324.58	20.06	-40.1	-42.5	19.7	0.00e+00	0	38	0	381681664	51	4817
2026-01-26 01:34:44.24	324.37	20.09	-40.1	-42.5	19.6	0.00e+00	0	38	0	383778816	51	4840
2026-01-26 01:34:45.60	324.04	20.13	-40.2	-42.6	19.5	0.00e+00	0	38	0	385875968	51	4910
2026-01-26 01:34:46.31	323.87	20.15	-40.2	-42.7	19.5	0.00e+00	0	38	0	386924544	51	4931
2026-01-26 01:34:47.59	323.56	20.19	-40.4	-42.8	19.4	0.00e+00	0	38	0	390070272	51	5013
2026-01-26 01:34:48.33	323.37	20.21	-40.5	-42.9	19.2	0.00e+00	0	38	0	391118848	51	5095
2026-01-26 01:34:49.61	323.06	20.24	-40.6	-43.0	19.2	0.00e+00	0	38	0	393216000	51	5130
2026-01-26 01:34:50.35	322.88	20.26	-40.7	-43.1	18.2	0.00e+00	0	38	0	395313152	51	5182
2026-01-26 01:34:51.62	322.57	20.30	-40.4	-42.8	19.4	0.00e+00	0	38	0	397410304	51	5009
2026-01-26 01:34:52.34	322.39	20.32	-40.5	-42.8	19.3	0.00e+00	0	38	0	398458880	51	5028
2026-01-26 01:34:53.61	322.07	20.35	-40.4	-42.8	19.4	0.00e+00	0	38	0	400556032	51	4984
2026-01-26 01:34:54.34	321.89	20.37	-40.5	-42.8	19.3	0.00e+00	0	38	0	402653184	51	5034
2026-01-26 01:34:55.62	321.58	20.40	-40.5	-42.9	19.3	0.00e+00	0	39	0	404750336	51	5058
2026-01-26 01:34:56.57	321.34	20.43	-40.7	-43.1	19.1	0.00e+00	0	39	0	406847488	51	5195
2026-01-26 01:34:57.56	321.09	20.45	-40.6	-43.1	19.0	0.00e+00	0	38	0	407896064	52	4926
2026-01-26 01:34:58.56	320.84	20.47	-40.7	-43.2	18.9	0.00e+00	0	38	0	409993216	52	4979
2026-01-26 01:34:59.55	320.60	20.50	-40.7	-43.2	18.9	0.00e+00	0	38	0	412090368	52	4976
2026-01-26 01:35:00.54	320.35	20.52	-40.8	-43.3	18.8	0.00e+00	0	38	0	414187520	52	5038
2026-01-26 01:35:01.54	320.10	20.54	-40.8	-43.4	18.7	0.00e+00	0	38	0	416284672	52	5057
2026-01-26 01:35:02.54	319.85	20.56	-40.9	-43.5	18.6	0.00e+00	0	38	0	417333248	52	5115
2026-01-26 01:35:03.53	319.60	20.58	-40.9	-43.6	18.6	0.00e+00	0	38	0	419430400	52	5172
2026-01-26 01:35:04.52	319.35	20.60	-40.9	-43.6	18.5	0.00e+00	0	38	0	421527552	52	5188
2026-01-26 01:35:05.52	319.10	20.62	-40.9	-43.7	18.4	0.00e+00	0	38	0	423624704	52	5266
2026-01-26 01:35:06.51	318.85	20.64	-41.0	-43.8	18.4	0.00e+00	0	38	0	424673280	52	5302
2026-01-26 01:35:07.51	318.60	20.66	-41.1	-43.9	18.2	0.00e+00	0	38	0	426770432	52	5397
2026-01-26 01:35:08.50	318.35	20.68	-41.2	-44.0	18.2	0.00e+00	0	38	0	428867584	53	5114
2026-01-26 01:35:09.50	318.09	20.70	-41.3	-44.0	18.1	0.00e+00	0	38	0	430964736	53	5143
2026-01-26 01:35:10.49	317.84	20.71	-41.4	-44.0	18.1	0.00e+00	0	38	0	433061888	53	5158
2026-01-26 01:35:11.49	317.59	20.73	-41.4	-44.0	18.2	0.00e+00	0	38	0	434110464	53	5107
2026-01-26 01:35:12.49	317.34	20.75	-41.3	-43.9	18.2	0.00e+00	0	38	0	436207616	53	5079
2026-01-26 01:35:13.48	317.09	20.76	-41.4	-44.0	18.1	0.00e+00	0	38	0	438304768	53	5144
2026-01-26 01:35:14.48	316.83	20.78	-41.4	-44.0	18.1	0.00e+00	0	38	0	440401920	53	5159
2026-01-26 01:35:15.47	316.58	20.79	-41.6	-44.3	17.8	0.00e+00	0	38	0	441450496	53	5324
2026-01-26 01:35:16.47	316.32	20.80	-41.7	-44.4	17.7	0.00e+00	0	38	0	443547648	54	5085
2026-01-26 01:35:17.46	316.07	20.82	-41.8	-44.5	17.7	0.00e+00	0	38	0	445644800	54	5124
2026-01-26 01:35:18.46	315.82	20.83	-41.8	-44.5	17.7	0.00e+00	0	38	0	447741952	54	5136
2026-01-26 01:35:19.45	315.56	20.84	-41.8	-44.5	17.7	0.00e+00	0	39	0	449839104	54	5134
2026-01-26 01:35:20.45	315.31	20.85	-41.8	-44.5	17.6	0.00e+00	0	38	0	450887680	54	5154
2026-01-26 01:35:21.44	315.05	20.86	-41.8	-44.5	17.6	0.00e+00	0	38	0	452984832	54	5150
2026-01-26 01:35:22.44	314.80	20.87	-41.6	-44.4	17.8	0.00e+00	0	38	0	455081984	54	5064
2026-01-26 01:35:23.43	314.55	20.88	-41.6	-44.3	17.8	0.00e+00	0	39	0	457179136	54	5016
2026-01-26 01:35:24.42	314.29	20.89	-41.5	-44.1	18.0	0.00e+00	0	38	0	459276288	54	4903
2026-01-26 01:35:25.42	314.03	20.90	-41.4	-44.0	18.1	0.00e+00	0	38	0	460324864	54	4856
2026-01-26 01:35:26.41	313.78	20.90	-41.4	-44.0	18.2	0.00e+00	0	38	0	462422016	54	4843
2026-01-26 01:35:27.47	313.51	20.91	-41.6	-44.2	18.0	0.00e+00	0	38	0	464519168	54	4934
2026-01-26 01:35:28.33	313.29	20.92	-41.7	-44.3	17.9	0.00e+00	0	38	0	465567744	54	4999
2026-01-26 01:35:29.46	313.00	20.92	-41.8	-44.5	17.7	0.00e+00	0	38	0	468713472	54	5118
2026-01-26 01:35:30.31	312.78	20.93	-41.9	-44.6	17.6	0.00e+00	0	38	0	469762048	54	5163
2026-01-26 01:35:31.45	312.49	20.93	-41.8	-44.5	17.7	0.00e+00	0	38	0	471859200	54	5106
2026-01-26 01:35:32.31	312.26	20.94	-41.9	-44.6	17.6	0.00e+00	0	39	0	473956352	54	5168
2026-01-26 01:35:33.44	311.97	20.94	-41.7	-44.3	17.8	0.00e+00	0	38	0	476053504	54	5040
2026-01-26 01:35:34.29	311.76	20.94	-41.8	-44.5	17.7	0.00e+00	0	38	0	477102080	54	5122
2026-01-26 01:35:35.43	311.46	20.94	-41.8	-44.5	17.6	0.00e+00	0	38	0	479199232	54	5104
2026-01-26 01:35:36.29	311.24	20.95	-41.7	-44.3	17.8	0.00e+00	0	38	0	481296384	54	5029
2026-01-26 01:35:37.43	310.95	20.95	-41.7	-44.3	17.8	0.00e+00	0	38	0	483393536	54	5029
2026-01-26 01:35:38.28	310.73	20.95	-41.7	-44.4	17.8	0.00e+00	0	38	0	484442112	54	5050
2026-01-26 01:35:39.42	310.44	20.95	-41.6	-44.2	17.9	0.00e+00	0	38	0	486539264	54	4970
2026-01-26 01:35:40.27	310.22	20.94	-41.6	-44.3	17.9	0.00e+00	0	38	0	488636416	54	4989
2026-01-26 01:35:41.48	309.90	20.94	-41.6	-44.2	18.0	0.00e+00	0	38	0	490733568	54	4949
2026-01-26 01:35:42.34	309.68	20.94	-41.6	-44.2	18.0	0.00e+00	0	38	0	492830720	54	4932
2026-01-26 01:35:43.54	309.37	20.94	-41.6	-44.1	18.0	0.00e+00	0	38	0	494927872	54	4923
2026-01-26 01:35:44.39	309.16	20.93	-41.5	-44.0	18.1	0.00e+00	0	38	0	495976448	54	4861
2026-01-26 01:35:45.59	308.85	20.93	-41.5	-44.0	18.2	0.00e+00	0	38	0	498073600	54	4832
2026-01-26 01:35:46.44	308.63	20.93	-41.5	-43.9	18.2	0.00e+00	0	38	0	500170752	54	4814
2026-01-26 01:35:47.64	308.32	20.92	-41.4	-43.9	18.2	0.00e+00	0	38	0	502267904	54	4801
2026-01-26 01:35:48.49	308.10	20.91	-41.3	-43.8	18.3	0.00e+00	0	38	0	504365056	54	4729
2026-01-26 01:35:49.71	307.79	20.91	-41.4	-43.9	18.3	0.00e+00	0	38	0	506462208	54	4781
2026-01-26 01:35:50.57	307.57	20.90	-41.3	-43.7	18.4	0.00e+00	0	38	0	507510784	54	4688
2026-01-26 01:35:51.70	307.28	20.89	-41.1	-43.6	18.6	0.00e+00	0	38	0	509607936	54	4608
2026-01-26 01:35:52.56	307.06	20.88	-41.2	-43.6	18.5	0.00e+00	0	38	0	511705088	54	4629
2026-01-26 01:35:53.69	306.77	20.87	-41.3	-43.8	18.4	0.00e+00	0	38	0	513802240	54	4719
2026-01-26 01:35:54.59	306.54	20.86	-41.2	-43.7	18.4	0.00e+00	0	38	0	514850816	54	4669
2026-01-26 01:35:55.87	306.21	20.85	-41.2	-43.6	18.6	0.00e+00	0	39	0	517996544	54	4614
2026-01-26 01:35:56.58	306.03	20.84	-41.2	-43.6	18.6	0.00e+00	0	38	0	519045120	54	4625
2026-01-26 01:35:57.86	305.70	20.83	-41.2	-43.7	18.5	0.00e+00	0	38	0	521142272	54	4661
2026-01-26 01:35:58.57	305.52	20.82	-41.0	-43.3	18.8	0.00e+00	0	38	0	523239424	54	4483
2026-01-26 01:35:59.85	305.19	20.80	-40.7	-43.0	19.1	0.00e+00	0	38	0	525336576	53	4592
2026-01-26 01:36:00.56	305.01	20.79	-40.7	-43.0	19.1	0.00e+00	0	39	0	526385152	53	4578
2026-01-26 01:36:01.84	304.69	20.78	-40.7	-43.0	19.1	0.00e+00	0	38	0	528482304	53	4571
2026-01-26 01:36:02.71	304.46	20.76	-40.6	-42.9	19.2	0.00e+00	0	38	0	530579456	53	4534
2026-01-26 01:36:03.85	304.17	20.75	-40.3	-42.6	19.5	0.00e+00	0	38	0	532676608	52	4621
2026-01-26 01:36:04.70	303.96	20.73	-40.3	-42.6	19.5	0.00e+00	0	38	0	534773760	52	4602
2026-01-26 01:36:05.83	303.67	20.71	-40.3	-42.5	19.5	0.00e+00	0	38	0	536870912	52	4578
2026-01-26 01:36:06.69	303.45	20.70	-40.3	-42.6	19.5	0.00e+00	0	38	0	537919488	52	4606
2026-01-26 01:36:07.83	303.16	20.68	-40.4	-42.6	19.4	0.00e+00	0	38	0	540016640	52	4648
2026-01-26 01:36:08.68	302.95	20.67	-40.4	-42.6	19.5	0.00e+00	0	38	0	542113792	52	4648
2026-01-26 01:36:09.81	302.66	20.64	-40.4	-42.7	19.4	0.00e+00	0	38	0	544210944	52	4667
2026-01-26 01:36:10.67	302.45	20.63	-40.5	-42.8	19.4	0.00e+00	0	38	0	545259520	52	4711
2026-01-26 01:36:11.88	302.14	20.60	-40.4	-42.6	19.5	0.00e+00	0	38	0	547356672	52	4629
2026-01-26 01:36:12.74	301.93	20.59	-40.4	-42.6	19.5	0.00e+00	0	38	0	549453824	52	4612
2026-01-26 01:36:13.88	301.64	20.56	-40.2	-42.4	19.7	0.00e+00	0	39	0	551550976	52	4510
2026-01-26 01:36:14.73	301.43	20.54	-40.1	-42.3	19.8	0.00e+00	0	38	0	552599552	52	4486
2026-01-26 01:36:15.86	301.14	20.52	-40.2	-42.4	19.7	0.00e+00	0	38	0	555745280	52	4500
2026-01-26 01:36:16.71	300.93	20.50	-40.1	-42.3	19.8	0.00e+00	0	38	0	556793856	52	4470
2026-01-26 01:36:18.09	300.58	20.47	-40.0	-42.1	19.9	0.00e+00	0	39	0	558891008	52	4379
2026-01-26 01:36:18.80	300.41	20.45	-39.9	-42.0	20.1	0.00e+00	0	38	0	560988160	51	4596
2026-01-26 01:36:20.08	300.09	20.42	-39.9	-42.1	20.1	0.00e+00	0	38	0	563085312	51	4602
2026-01-26 01:36:20.79	299.91	20.40	-39.9	-42.1	20.1	0.00e+00	0	38	0	564133888	51	4608
2026-01-26 01:36:22.07	299.59	20.37	-39.8	-41.9	20.3	0.00e+00	0	38	0	567279616	51	4519
2026-01-26 01:36:22.83	299.41	20.35	-39.7	-41.8	20.4	0.00e+00	0	38	0	568328192	51	4452
2026-01-26 01:36:24.11	299.09	20.32	-39.7	-41.8	20.3	0.00e+00	0	38	0	570425344	51	4477
2026-01-26 01:36:24.82	298.91	20.30	-39.7	-41.8	20.3	0.00e+00	0	38	0	572522496	51	4479
2026-01-26 01:36:26.10	298.60	20.26	-39.9	-42.0	20.2	0.00e+00	0	38	0	574619648	51	4568
2026-01-26 01:36:26.81	298.42	20.24	-40.0	-42.2	19.9	0.00e+00	0	38	0	575668224	51	4671
2026-01-26 01:36:28.09	298.11	20.21	-40.2	-42.4	19.8	0.00e+00	0	38	0	577765376	51	4777
2026-01-26 01:36:28.99	297.89	20.18	-40.3	-42.5	19.7	0.00e+00	0	38	0	579862528	51	4828
2026-01-26 01:36:30.09	297.62	20.15	-40.2	-42.4	19.7	0.00e+00	0	38	0	581959680	51	4797
2026-01-26 01:36:30.95	297.41	20.12	-40.0	-42.2	20.0	0.00e+00	0	38	0	584056832	51	4670
2026-01-26 01:36:32.08	297.13	20.09	-39.9	-42.0	20.1	0.00e+00	0	38	0	585105408	51	4586
2026-01-26 01:36:32.94	296.92	20.06	-39.9	-42.1	20.1	0.00e+00	0	38	0	587202560	51	4603
2026-01-26 01:36:34.07	296.65	20.02	-39.8	-42.0	20.2	0.00e+00	0	38	0	589299712	51	4559
2026-01-26 01:36:35.32	296.35	19.98	-39.9	-42.0	20.1	0.00e+00	0	38	0	591396864	51	4587
2026-01-26 01:36:36.17	296.14	19.96	-40.0	-42.1	20.0	0.00e+00	0	38	0	593494016	51	4623
2026-01-26 01:36:37.31	295.87	19.92	-40.0	-42.2	20.0	0.00e+00	0	38	0	595591168	51	4676
2026-01-26 01:36:38.16	295.66	19.89	-40.3	-42.5	19.7	0.00e+00	0	38	0	596639744	51	4818
2026-01-26 01:36:39.30	295.39	19.85	-40.3	-42.5	19.7	0.00e+00	0	38	0	598736896	51	4857
2026-01-26 01:36:40.15	295.18	19.82	-40.5	-42.7	19.5	0.00e+00	0	38	0	600834048	51	4959
2026-01-26 01:36:41.29	294.91	19.78	-40.6	-42.9	19.2	0.00e+00	0	38	0	602931200	52	4774
2026-01-26 01:36:42.14	294.71	19.75	-40.7	-43.0	19.1	0.00e+00	0	38	0	603979776	52	4848
2026-01-26 01:36:43.31	294.43	19.71	-40.8	-43.1	19.1	0.00e+00	0	38	0	607125504	52	4880
2026-01-26 01:36:44.16	294.23	19.68	-40.9	-43.2	18.9	0.00e+00	0	38	0	608174080	52	4947
2026-01-26 01:36:45.30	293.96	19.63	-41.0	-43.3	18.8	0.00e+00	0	38	0	610271232	52	5024
2026-01-26 01:36:46.15	293.76	19.60	-40.9	-43.3	18.8	0.00e+00	0	38	0	612368384	52	5008
2026-01-26 01:36:47.29	293.49	19.56	-40.9	-43.3	18.8	0.00e+00	0	38	0	614465536	52	5008
2026-01-26 01:36:48.14	293.29	19.53	-41.0	-43.3	18.8	0.00e+00	0	38	0	615514112	52	5027
2026-01-26 01:36:49.28	293.02	19.48	-40.8	-43.2	19.0	0.00e+00	0	38	0	617611264	52	4935
2026-01-26 01:36:50.13	292.82	19.45	-40.8	-43.1	19.1	0.00e+00	0	38	0	619708416	52	4888
2026-01-26 01:36:51.27	292.56	19.40	-40.9	-43.2	19.0	0.00e+00	0	38	0	621805568	52	4948
2026-01-26 01:36:52.12	292.36	19.37	-41.0	-43.3	18.8	0.00e+00	0	38	0	622854144	52	5032
2026-01-26 01:36:53.59	292.02	19.31	-41.2	-43.6	18.5	0.00e+00	0	38	0	625999872	53	4895
2026-01-26 01:36:54.30	291.85	19.28	-41.3	-43.7	18.4	0.00e+00	0	38	0	627048448	53	4954
2026-01-26 01:36:55.80	291.51	19.22	-41.4	-43.9	18.2	0.00e+00	0	38	0	630194176	53	5068
2026-01-26 01:36:56.51	291.34	19.19	-41.5	-44.0	18.1	0.00e+00	0	38	0	631242752	53	5134
2026-01-26 01:36:57.79	291.05	19.13	-41.3	-43.8	18.4	0.00e+00	0	38	0	633339904	53	5005
2026-01-26 01:36:58.52	290.88	19.10	-41.3	-43.8	18.4	0.00e+00	0	38	0	635437056	53	4999
2026-01-26 01:36:59.80	290.59	19.05	-41.3	-43.8	18.2	0.00e+00	0	38	0	637534208	53	4987
2026-01-26 01:37:00.51	290.43	19.02	-41.3	-43.8	18.3	0.00e+00	0	38	0	638582784	53	5013
2026-01-26 01:37:01.79	290.14	18.96	-41.3	-43.8	18.3	0.00e+00	0	38	0	641728512	53	5014
2026-01-26 01:37:02.51	289.98	18.93	-41.4	-43.8	18.3	0.00e+00	0	39	0	642777088	53	5040
2026-01-26 01:37:03.79	289.69	18.87	-41.3	-43.8	18.4	0.00e+00	0	38	0	644874240	53	4997
2026-01-26 01:37:04.53	289.52	18.84	-41.4	-43.9	18.2	0.00e+00	0	39	0	645922816	53	5076
2026-01-26 01:37:05.81	289.24	18.78	-41.4	-43.8	18.3	0.00e+00	0	38	0	649068544	53	5035
2026-01-26 01:37:06.54	289.07	18.75	-41.3	-43.8	18.4	0.00e+00	0	38	0	650117120	53	4990
2026-01-26 01:37:07.82	288.79	18.69	-41.3	-43.8	18.4	0.00e+00	0	38	0	652214272	53	5002
2026-01-26 01:37:08.53	288.63	18.65	-41.4	-43.9	18.3	0.00e+00	0	38	0	654311424	53	5062
2026-01-26 01:37:09.81	288.35	18.59	-41.5	-44.0	18.2	0.00e+00	0	39	0	656408576	53	5112
2026-01-26 01:37:10.53	288.19	18.56	-41.6	-44.1	18.1	0.00e+00	0	38	0	657457152	53	5164
2026-01-26 01:37:11.81	287.91	18.50	-41.7	-44.3	17.8	0.00e+00	0	38	0	660602880	54	4984
2026-01-26 01:37:12.54	287.75	18.46	-41.7	-44.3	17.9	0.00e+00	0	38	0	661651456	54	4999
2026-01-26 01:37:13.82	287.47	18.40	-41.8	-44.3	17.8	0.00e+00	0	38	0	663748608	54	5038
2026-01-26 01:37:14.54	287.31	18.37	-41.7	-44.3	17.9	0.00e+00	0	38	0	664797184	54	5012
2026-01-26 01:37:15.82	287.03	18.30	-41.7	-44.3	17.9	0.00e+00	0	39	0	667942912	54	4995
2026-01-26 01:37:16.55	286.87	18.27	-41.5	-43.9	18.2	0.00e+00	0	38	0	668991488	54	4808
2026-01-26 01:37:17.83	286.60	18.21	-41.3	-43.7	18.5	0.00e+00	0	39	0	671088640	54	4665
2026-01-26 01:37:18.55	286.44	18.17	-41.2	-43.6	18.5	0.00e+00	0	38	0	673185792	54	4637
2026-01-26 01:37:19.83	286.17	18.11	-41.3	-43.7	18.5	0.00e+00	0	38	0	675282944	54	4657
2026-01-26 01:37:20.55	286.02	18.07	-41.4	-43.8	18.4	0.00e+00	0	38	0	676331520	54	4724
2026-01-26 01:37:21.83	285.74	18.00	-41.4	-43.9	18.3	0.00e+00	0	38	0	678428672	54	4782
2026-01-26 01:37:22.55	285.59	17.97	-41.5	-44.0	18.2	0.00e+00	0	38	0	680525824	54	4837
2026-01-26 01:37:23.82	285.32	17.90	-41.7	-44.3	17.9	0.00e+00	0	38	0	682622976	54	5001
2026-01-26 01:37:24.56	285.17	17.86	-41.7	-44.3	17.9	0.00e+00	0	38	0	683671552	54	4993
2026-01-26 01:37:25.84	284.90	17.80	-41.8	-44.3	17.9	0.00e+00	0	38	0	686817280	54	5036
2026-01-26 01:37:26.55	284.75	17.76	-41.8	-44.5	17.7	0.00e+00	0	38	0	687865856	54	5103
2026-01-26 01:37:27.83	284.48	17.69	-41.9	-44.5	17.7	0.00e+00	0	38	0	689963008	54	5117
2026-01-26 01:37:28.56	284.33	17.65	-41.8	-44.4	17.8	0.00e+00	0	38	0	692060160	54	5075
2026-01-26 01:37:29.83	284.07	17.59	-41.8	-44.3	17.8	0.00e+00	0	38	0	694157312	54	5040
2026-01-26 01:37:30.58	283.91	17.55	-41.7	-44.2	17.9	0.00e+00	0	38	0	695205888	54	4977
2026-01-26 01:37:31.85	283.65	17.48	-41.7	-44.2	18.0	0.00e+00	0	38	0	697303040	54	4953
2026-01-26 01:37:32.58	283.50	17.44	-41.7	-44.2	17.9	0.00e+00	0	38	0	699400192	54	4983
2026-01-26 01:37:33.86	283.24	17.37	-41.8	-44.4	17.8	0.00e+00	0	39	0	701497344	54	5046
2026-01-26 01:37:34.57	283.10	17.33	-41.8	-44.4	17.8	0.00e+00	0	38	0	702545920	54	5052
2026-01-26 01:37:35.85	282.84	17.26	-41.9	-44.6	17.6	0.00e+00	0	38	0	705691648	54	5174
2026-01-26 01:37:36.61	282.68	17.22	-41.8	-44.4	17.8	0.00e+00	0	38	0	706740224	54	5071
2026-01-26 01:37:37.88	282.43	17.15	-41.8	-44.4	17.8	0.00e+00	0	38	0	708837376	54	5050
2026-01-26 01:37:38.62	282.28	17.11	-41.8	-44.4	17.8	0.00e+00	0	38	0	709885952	54	5045
2026-01-26 01:37:40.04	282.00	17.03	-41.8	-44.4	17.8	0.00e+00	0	38	0	713031680	54	5070
2026-01-26 01:37:40.76	281.85	16.99	-41.8	-44.5	17.7	0.00e+00	0	38	0	714080256	54	5104
2026-01-26 01:37:42.04	281.60	16.92	-41.9	-44.5	17.7	0.00e+00	0	38	0	717225984	54	5128
2026-01-26 01:37:42.75	281.46	16.88	-41.8	-44.4	17.8	0.00e+00	0	38	0	718274560	54	5044
2026-01-26 01:37:44.02	281.21	16.80	-41.7	-44.3	17.9	0.00e+00	0	38	0	720371712	54	4997
2026-01-26 01:37:44.76	281.06	16.76	-41.7	-44.3	17.9	0.00e+00	0	38	0	721420288	54	4992
2026-01-26 01:37:46.25	280.77	16.68	-41.6	-44.1	18.0	0.00e+00	0	38	0	724566016	54	4913
2026-01-26 01:37:46.96	280.64	16.64	-41.5	-44.0	18.1	0.00e+00	0	38	0	725614592	54	4837
2026-01-26 01:37:48.24	280.39	16.56	-41.7	-44.3	17.9	0.00e+00	0	38	0	728760320	54	5005
2026-01-26 01:37:48.97	280.25	16.52	-41.8	-44.3	17.8	0.00e+00	0	38	0	729808896	54	5026
2026-01-26 01:37:50.24	280.00	16.45	-41.9	-44.5	17.6	0.00e+00	0	38	0	731906048	54	5135
2026-01-26 01:37:50.95	279.87	16.41	-41.9	-44.6	17.6	0.00e+00	0	38	0	734003200	54	5166
2026-01-26 01:37:52.23	279.62	16.33	-41.9	-44.6	17.6	0.00e+00	0	38	0	736100352	54	5190
2026-01-26 01:37:52.95	279.49	16.29	-42.0	-44.6	17.5	0.00e+00	0	38	0	737148928	54	5206
2026-01-26 01:37:54.23	279.25	16.21	-41.9	-44.6	17.6	0.00e+00	0	38	0	739246080	54	5164
2026-01-26 01:37:54.96	279.11	16.17	-41.9	-44.5	17.7	0.00e+00	0	38	0	741343232	54	5144
2026-01-26 01:37:56.24	278.87	16.10	-41.8	-44.4	17.7	0.00e+00	0	38	0	743440384	54	5098
2026-01-26 01:37:56.96	278.73	16.05	-41.7	-44.3	17.9	0.00e+00	0	38	0	744488960	54	4995
2026-01-26 01:37:58.24	278.50	15.98	-41.5	-44.0	18.1	0.00e+00	0	39	0	747634688	54	4829
2026-01-26 01:37:58.95	278.36	15.94	-41.4	-43.9	18.2	0.00e+00	0	38	0	748683264	54	4796
2026-01-26 01:38:00.23	278.13	15.86	-41.5	-44.1	18.1	0.00e+00	0	38	0	750780416	54	4884
2026-01-26 01:38:00.99	277.99	15.81	-41.6	-44.1	18.0	0.00e+00	0	39	0	751828992	54	4901
2026-01-26 01:38:02.30	277.75	15.74	-41.8	-44.4	17.7	0.00e+00	0	39	0	754974720	54	5084
2026-01-26 01:38:03.01	277.62	15.69	-42.0	-44.6	17.6	0.00e+00	0	38	0	756023296	54	5193
2026-01-26 01:38:04.29	277.39	15.62	-42.2	-44.9	17.3	0.00e+00	0	38	0	758120448	54	5362
2026-01-26 01:38:05.00	277.26	15.57	-42.2	-45.0	17.2	0.00e+00	0	38	0	760217600	55	5105
2026-01-26 01:38:06.28	277.03	15.50	-42.2	-45.0	17.2	0.00e+00	0	39	0	762314752	55	5112
2026-01-26 01:38:07.01	276.90	15.45	-42.2	-45.0	17.2	0.00e+00	0	38	0	763363328	55	5116
2026-01-26 01:38:08.29	276.67	15.37	-42.2	-44.9	17.2	0.00e+00	0	39	0	765460480	55	5079
2026-01-26 01:38:09.00	276.54	15.33	-42.2	-44.9	17.2	0.00e+00	0	38	0	767557632	55	5054
2026-01-26 01:38:10.28	276.32	15.25	-42.2	-44.9	17.3	0.00e+00	0	39	0	769654784	55	5076
2026-01-26 01:38:11.01	276.19	15.21	-42.2	-44.9	17.2	0.00e+00	0	38	0	770703360	55	5100
2026-01-26 01:38:12.29	275.96	15.13	-42.4	-45.1	17.0	0.00e+00	0	39	0	773849088	55	5202
2026-01-26 01:38:13.00	275.84	15.09	-42.4	-45.2	16.9	0.00e+00	0	38	0	774897664	55	5257
2026-01-26 01:38:14.28	275.62	15.01	-42.5	-45.3	16.8	0.00e+00	0	38	0	776994816	55	5307
2026-01-26 01:38:15.14	275.47	14.95	-42.5	-45.3	16.9	0.00e+00	0	39	0	779091968	55	5284
2026-01-26 01:38:16.28	275.27	14.88	-42.5	-45.3	16.9	0.00e+00	0	39	0	781189120	55	5287
2026-01-26 01:38:17.13	275.12	14.83	-42.5	-45.3	16.8	0.00e+00	0	38	0	782237696	55	5302
2026-01-26 01:38:18.27	274.93	14.76	-42.4	-45.2	16.9	0.00e+00	0	38	0	784334848	55	5258
2026-01-26 01:38:19.38	274.74	14.69	-42.3	-45.1	17.1	0.00e+00	0	38	0	786432000	55	5169
2026-01-26 01:38:20.23	274.59	14.64	-42.2	-45.0	17.2	0.00e+00	0	38	0	788529152	55	5117
2026-01-26 01:38:21.37	274.40	14.57	-42.2	-45.0	17.2	0.00e+00	0	38	0	790626304	55	5107
2026-01-26 01:38:22.22	274.26	14.52	-42.2	-44.9	17.2	0.00e+00	0	39	0	791674880	55	5073
2026-01-26 01:38:23.35	274.07	14.45	-42.2	-44.9	17.2	0.00e+00	0	38	0	793772032	55	5086
2026-01-26 01:38:24.21	273.92	14.39	-42.3	-45.0	17.1	0.00e+00	0	38	0	795869184	55	5154
2026-01-26 01:38:25.35	273.74	14.32	-42.4	-45.1	17.0	0.00e+00	0	38	0	797966336	55	5218
2026-01-26 01:38:26.20	273.59	14.27	-42.5	-45.3	16.8	0.00e+00	0	38	0	800063488	55	5314
2026-01-26 01:38:27.38	273.40	14.19	-42.5	-45.4	16.7	0.00e+00	0	39	0	802160640	55	5375
2026-01-26 01:38:28.24	273.26	14.14	-42.5	-45.4	16.8	0.00e+00	0	39	0	803209216	55	5343
2026-01-26 01:38:29.37	273.07	14.07	-42.4	-45.2	16.9	0.00e+00	0	39	0	805306368	55	5223
2026-01-26 01:38:30.22	272.94	14.01	-42.4	-45.1	17.0	0.00e+00	0	38	0	807403520	55	5209
2026-01-26 01:38:31.36	272.75	13.94	-42.3	-45.0	17.1	0.00e+00	0	38	0	809500672	55	5135
2026-01-26 01:38:32.22	272.61	13.89	-42.2	-45.0	17.1	0.00e+00	0	38	0	810549248	55	5112
2026-01-26 01:38:33.35	272.43	13.82	-42.0	-44.7	17.4	0.00e+00	0	39	0	812646400	55	4968
2026-01-26 01:38:34.21	272.29	13.76	-42.1	-44.7	17.4	0.00e+00	0	38	0	814743552	55	4975
2026-01-26 01:38:35.34	272.11	13.69	-41.9	-44.5	17.6	0.00e+00	0	38	0	816840704	55	4857
2026-01-26 01:38:36.19	271.98	13.64	-41.8	-44.4	17.7	0.00e+00	0	38	0	817889280	55	4779
2026-01-26 01:38:37.33	271.80	13.57	-41.9	-44.5	17.6	0.00e+00	0	38	0	819986432	55	4854
2026-01-26 01:38:38.18	271.66	13.51	-41.9	-44.5	17.6	0.00e+00	0	38	0	822083584	55	4822
2026-01-26 01:38:39.32	271.49	13.44	-41.8	-44.4	17.7	0.00e+00	0	38	0	824180736	55	4797
2026-01-26 01:38:40.17	271.35	13.39	-41.8	-44.5	17.6	0.00e+00	0	38	0	826277888	55	4827
2026-01-26 01:38:41.31	271.18	13.31	-41.8	-44.4	17.6	0.00e+00	0	38	0	828375040	55	4814
2026-01-26 01:38:42.16	271.05	13.26	-41.8	-44.4	17.6	0.00e+00	0	38	0	829423616	55	4812
2026-01-26 01:38:43.30	270.87	13.19	-41.8	-44.5	17.6	0.00e+00	0	38	0	831520768	55	4824
2026-01-26 01:38:44.15	270.74	13.13	-41.7	-44.3	17.7	0.00e+00	0	39	0	833617920	55	4739
2026-01-26 01:38:45.29	270.57	13.06	-41.8	-44.4	17.6	0.00e+00	0	38	0	835715072	55	4813
2026-01-26 01:38:46.22	270.42	13.00	-41.7	-44.4	17.7	0.00e+00	0	38	0	836763648	55	4773
2026-01-26 01:38:47.22	270.27	12.94	-41.6	-44.2	17.9	0.00e+00	0	38	0	838860800	55	4660
2026-01-26 01:38:48.21	270.12	12.87	-41.6	-44.1	17.9	0.00e+00	0	38	0	840957952	55	4648
2026-01-26 01:38:49.21	269.97	12.81	-41.6	-44.1	17.9	0.00e+00	0	38	0	843055104	55	4640
2026-01-26 01:38:50.20	269.83	12.75	-41.5	-44.1	18.0	0.00e+00	0	38	0	845152256	54	4874
2026-01-26 01:38:51.20	269.68	12.68	-41.4	-43.9	18.1	0.00e+00	0	38	0	846200832	54	4784
2026-01-26 01:38:52.20	269.53	12.62	-41.4	-43.9	18.1	0.00e+00	0	39	0	848297984	54	4786
2026-01-26 01:38:53.19	269.38	12.56	-41.4	-43.9	18.1	0.00e+00	0	38	0	850395136	54	4789
2026-01-26 01:38:54.19	269.24	12.49	-41.4	-43.9	18.1	0.00e+00	0	38	0	852492288	54	4802
2026-01-26 01:38:55.18	269.09	12.43	-41.3	-43.8	18.2	0.00e+00	0	38	0	853540864	54	4758
2026-01-26 01:38:56.18	268.95	12.37	-41.3	-43.8	18.2	0.00e+00	0	38	0	855638016	54	4723
2026-01-26 01:38:57.17	268.80	12.30	-41.3	-43.8	18.2	0.00e+00	0	38	0	857735168	54	4725
2026-01-26 01:38:58.24	268.65	12.23	-41.3	-43.8	18.2	0.00e+00	0	38	0	859832320	54	4743
2026-01-26 01:38:59.13	268.52	12.18	-41.4	-43.9	18.1	0.00e+00	0	38	0	860880896	54	4793
2026-01-26 01:39:00.26	268.36	12.10	-41.2	-43.6	18.4	0.00e+00	0	38	0	862978048	54	4645
2026-01-26 01:39:01.11	268.24	12.05	-41.0	-43.5	18.5	0.00e+00	0	38	0	865075200	54	4569
2026-01-26 01:39:02.25	268.08	11.98	-41.1	-43.5	18.5	0.00e+00	0	39	0	867172352	54	4586
2026-01-26 01:39:03.10	267.96	11.92	-41.0	-43.5	18.5	0.00e+00	0	38	0	869269504	54	4562
2026-01-26 01:39:04.24	267.80	11.85	-41.0	-43.5	18.5	0.00e+00	0	38	0	871366656	54	4562
2026-01-26 01:39:05.09	267.68	11.80	-40.9	-43.4	18.6	0.00e+00	0	38	0	872415232	53	4781
2026-01-26 01:39:06.59	267.47	11.70	-41.0	-43.4	18.5	0.00e+00	0	39	0	875560960	53	4792
2026-01-26 01:39:07.30	267.37	11.65	-41.0	-43.4	18.5	0.00e+00	0	38	0	876609536	53	4800
2026-01-26 01:39:08.58	267.20	11.57	-41.1	-43.5	18.4	0.00e+00	0	38	0	878706688	53	4869
2026-01-26 01:39:09.30	267.10	11.53	-41.1	-43.5	18.4	0.00e+00	0	38	0	880803840	53	4850
2026-01-26 01:39:10.57	266.92	11.45	-41.1	-43.5	18.5	0.00e+00	0	38	0	882900992	53	4836
2026-01-26 01:39:11.28	266.83	11.40	-41.1	-43.6	18.4	0.00e+00	0	39	0	883949568	53	4885
2026-01-26 01:39:12.56	266.65	11.32	-41.2	-43.6	18.3	0.00e+00	0	39	0	886046720	53	4896
2026-01-26 01:39:13.29	266.55	11.27	-41.1	-43.6	18.4	0.00e+00	0	39	0	888143872	53	4873
2026-01-26 01:39:14.57	266.38	11.19	-40.9	-43.3	18.6	0.00e+00	0	38	0	890241024	53	4740
2026-01-26 01:39:15.28	266.29	11.14	-40.9	-43.3	18.6	0.00e+00	0	38	0	891289600	53	4759
2026-01-26 01:39:16.55	266.12	11.06	-40.9	-43.4	18.5	0.00e+00	0	38	0	894435328	53	4777
2026-01-26 01:39:17.26	266.03	11.02	-40.9	-43.3	18.6	0.00e+00	0	38	0	895483904	53	4752
2026-01-26 01:39:18.55	265.86	10.94	-41.1	-43.6	18.4	0.00e+00	0	38	0	897581056	53	4878
2026-01-26 01:39:19.27	265.76	10.89	-41.2	-43.7	18.2	0.00e+00	0	38	0	898629632	53	4957
2026-01-26 01:39:20.55	265.59	10.81	-41.2	-43.7	18.2	0.00e+00	0	38	0	901775360	53	4954
2026-01-26 01:39:21.26	265.50	10.76	-41.2	-43.8	18.1	0.00e+00	0	38	0	902823936	53	5005
2026-01-26 01:39:22.67	265.32	10.67	-41.3	-43.8	18.1	0.00e+00	0	38	0	905969664	53	5030
2026-01-26 01:39:23.63	265.19	10.61	-41.2	-43.8	18.1	0.00e+00	0	39	0	907018240	53	4991
2026-01-26 01:39:24.94	265.03	10.53	-41.3	-43.8	18.0	0.00e+00	0	38	0	910163968	53	5032
2026-01-26 01:39:25.70	264.93	10.48	-41.3	-43.9	18.0	0.00e+00	0	38	0	911212544	53	5060
2026-01-26 01:39:26.98	264.77	10.40	-41.4	-44.0	17.9	0.00e+00	0	38	0	913309696	53	5107
2026-01-26 01:39:27.69	264.68	10.35	-41.4	-44.0	17.9	0.00e+00	0	39	0	914358272	53	5122
2026-01-26 01:39:28.97	264.52	10.27	-41.5	-44.1	17.8	0.00e+00	0	39	0	917504000	53	5185
2026-01-26 01:39:29.69	264.43	10.23	-41.5	-44.1	17.8	0.00e+00	0	39	0	918552576	53	5189
2026-01-26 01:39:30.97	264.27	10.14	-41.4	-44.0	17.8	0.00e+00	0	38	0	920649728	53	5155
2026-01-26 01:39:31.71	264.17	10.10	-41.4	-44.1	17.8	0.00e+00	0	38	0	922746880	53	5161
2026-01-26 01:39:32.99	264.02	10.02	-41.4	-44.0	17.8	0.00e+00	0	38	0	924844032	53	5140
2026-01-26 01:39:33.70	263.93	9.97	-41.4	-44.0	17.9	0.00e+00	0	38	0	925892608	53	5140
2026-01-26 01:39:35.07	263.76	9.88	-41.4	-44.0	17.8	0.00e+00	0	39	0	929038336	53	5154
2026-01-26 01:39:35.79	263.67	9.84	-41.4	-44.0	17.8	0.00e+00	0	38	0	930086912	53	5132
2026-01-26 01:39:37.06	263.52	9.76	-41.4	-44.1	17.8	0.00e+00	0	38	0	932184064	53	5177
2026-01-26 01:39:37.79	263.43	9.71	-41.4	-44.1	17.8	0.00e+00	0	38	0	934281216	53	5167
2026-01-26 01:39:39.16	263.26	9.63	-41.4	-44.0	17.8	0.00e+00	0	38	0	936378368	53	5156
2026-01-26 01:39:39.88	263.18	9.58	-41.4	-44.1	17.8	0.00e+00	0	38	0	937426944	53	5161
2026-01-26 01:39:41.23	263.02	9.50	-41.4	-44.0	17.8	0.00e+00	0	38	0	940572672	53	5146
2026-01-26 01:39:41.95	262.93	9.45	-41.5	-44.2	17.7	0.00e+00	0	38	0	941621248	53	5230
2026-01-26 01:39:43.23	262.78	9.37	-41.4	-43.9	17.9	0.00e+00	0	38	0	943718400	53	5097
2026-01-26 01:39:44.29	262.66	9.30	-41.3	-43.9	17.9	0.00e+00	0	38	0	945815552	53	5079
2026-01-26 01:39:45.14	262.56	9.25	-41.4	-43.9	17.8	0.00e+00	0	38	0	947912704	53	5097
2026-01-26 01:39:46.28	262.42	9.18	-41.4	-44.0	17.8	0.00e+00	0	38	0	950009856	53	5148
2026-01-26 01:39:47.13	262.32	9.12	-41.4	-44.0	17.8	0.00e+00	0	38	0	951058432	53	5131
2026-01-26 01:39:48.30	262.19	9.05	-41.5	-44.1	17.7	0.00e+00	0	38	0	953155584	53	5163
2026-01-26 01:39:49.15	262.09	9.00	-41.6	-44.2	17.6	0.00e+00	0	38	0	955252736	53	5241
2026-01-26 01:39:50.35	261.95	8.92	-47.8	-63.1	3.8	8.10e-01	0	38	104	956301312	66	21968
2026-01-26 01:39:51.20	261.86	8.87	-48.0	-63.4	3.8	1.49e+00	0	38	104	956301312	66	22612
2026-01-26 01:39:52.39	261.72	8.79	-48.1	-63.5	3.8	1.49e+00	0	38	104	956301312	66	22987
2026-01-26 01:39:53.24	261.63	8.74	-48.3	-63.6	3.8	1.49e+00	0	39	104	956301312	67	21919
2026-01-26 01:39:54.44	261.49	8.67	-48.4	-63.7	3.8	1.49e+00	0	38	104	956301312	67	22196
2026-01-26 01:39:55.30	261.39	8.61	-48.5	-63.8	3.8	1.49e+00	0	38	104	956301312	67	22343
2026-01-26 01:39:56.49	261.26	8.54	-48.5	-63.8	3.8	1.49e+00	0	38	104	956301312	67	22386
2026-01-26 01:39:57.34	261.17	8.48	-48.6	-63.8	3.8	1.49e+00	0	38	104	956301312	67	22397
2026-01-26 01:39:58.54	261.03	8.41	-48.7	-63.9	3.8	1.49e+00	0	38	104	956301312	67	22521
2026-01-26 01:39:59.40	260.94	8.36	-48.8	-64.1	3.8	1.49e+00	0	38	104	956301312	68	21766
2026-01-26 01:40:00.59	260.81	8.28	-48.8	-64.0	3.8	1.49e+00	0	39	104	956301312	68	21753
2026-01-26 01:40:01.45	260.72	8.23	-48.8	-64.1	3.8	1.49e+00	0	38	104	956301312	68	21767
2026-01-26 01:40:02.65	260.58	8.15	-48.7	-64.1	3.8	1.49e+00	0	38	104	956301312	68	21840
2026-01-26 01:40:03.50	260.49	8.10	-48.7	-64.1	3.8	1.49e+00	0	39	104	956301312	68	21859
2026-01-26 01:40:04.69	260.36	8.03	-48.7	-64.0	3.8	1.49e+00	0	38	104	956301312	68	21713
2026-01-26 01:40:05.55	260.27	7.97	-48.6	-64.1	3.8	1.49e+00	0	38	104	956301312	68	21829
2026-01-26 01:40:06.68	260.15	7.90	-48.8	-64.1	3.8	1.49e+00	0	38	104	956301312	68	21767
2026-01-26 01:40:07.53	260.06	7.85	-48.8	-64.0	3.8	1.49e+00	0	38	104	956301312	68	21726
2026-01-26 01:40:08.67	259.94	7.78	-48.7	-64.1	3.8	1.49e+00	0	39	104	956301312	68	21786
2026-01-26 01:40:09.52	259.85	7.73	-48.8	-64.1	3.8	1.49e+00	0	38	104	956301312	68	21822
2026-01-26 01:40:10.66	259.73	7.66	-48.6	-64.0	3.8	1.49e+00	0	38	104	956301312	68	21656
2026-01-26 01:40:11.51	259.64	7.61	-48.6	-64.0	3.8	1.49e+00	0	39	104	956301312	68	21638
2026-01-26 01:40:12.64	259.53	7.54	-48.6	-64.0	3.8	1.49e+00	0	38	104	956301312	68	21566
2026-01-26 01:40:13.49	259.44	7.48	-48.6	-63.9	3.8	1.49e+00	0	38	104	956301312	68	21489
2026-01-26 01:40:14.63	259.32	7.41	-48.5	-63.9	3.8	1.49e+00	0	39	104	956301312	68	21482
2026-01-26 01:40:15.48	259.23	7.36	-48.5	-63.9	3.8	1.49e+00	0	38	104	956301312	68	21501
2026-01-26 01:40:16.62	259.12	7.29	-48.5	-63.9	3.8	1.49e+00	0	39	104	956301312	68	21497
2026-01-26 01:40:17.47	259.03	7.24	-48.5	-63.9	3.8	1.49e+00	0	38	104	956301312	68	21434
2026-01-26 01:40:18.61	258.91	7.17	-48.5	-63.9	3.8	1.49e+00	0	38	104	956301312	68	21497
2026-01-26 01:40:19.46	258.83	7.12	-48.5	-63.9	3.8	1.49e+00	0	38	104	956301312	68	21450
2026-01-26 01:40:20.59	258.71	7.05	-48.5	-63.9	3.8	1.49e+00	0	39	104	956301312	68	21401
2026-01-26 01:40:21.44	258.63	7.00	-48.5	-63.9	3.8	1.49e+00	0	39	104	956301312	68	21499
2026-01-26 01:40:22.58	258.52	6.93	-48.5	-63.9	3.8	1.49e+00	0	38	104	956301312	68	21483
2026-01-26 01:40:23.43	258.43	6.88	-48.5	-63.9	3.8	1.49e+00	0	38	104	956301312	68	21466
2026-01-26 01:40:24.57	258.32	6.81	-48.5	-63.9	3.8	1.49e+00	0	38	104	956301312	68	21439
2026-01-26 01:40:25.42	258.24	6.76	-48.5	-63.9	3.8	1.49e+00	0	38	104	956301312	68	21375
2026-01-26 01:40:26.55	258.12	6.69	-48.5	-63.9	3.8	1.49e+00	0	38	104	956301312	68	21444
2026-01-26 01:40:27.41	258.04	6.64	-48.5	-64.0	3.8	1.49e+00	0	39	104	956301312	68	21529
2026-01-26 01:40:28.54	257.93	6.57	-48.5	-63.9	3.8	1.49e+00	0	38	104	956301312	68	21299
2026-01-26 01:40:29.39	257.85	6.52	-48.5	-63.9	3.8	1.49e+00	0	38	104	956301312	68	21405
2026-01-26 01:40:30.53	257.74	6.45	-48.5	-63.9	3.8	1.49e+00	0	39	104	956301312	68	21404
2026-01-26 01:40:31.38	257.66	6.40	-48.5	-63.9	3.8	1.49e+00	0	38	104	956301312	68	21368
2026-01-26 01:40:32.52	257.55	6.33	-48.5	-63.9	3.8	1.49e+00	0	38	104	956301312	68	21315
2026-01-26 01:40:33.37	257.47	6.28	-48.5	-63.9	3.8	1.49e+00	0	39	104	956301312	68	21328
2026-01-26 01:40:34.50	257.36	6.21	-48.5	-63.9	3.8	1.49e+00	0	38	104	956301312	68	21458
2026-01-26 01:40:35.36	257.28	6.16	-48.5	-63.9	3.8	1.49e+00	0	38	104	956301312	68	21376
2026-01-26 01:40:36.49	257.17	6.09	-48.5	-63.9	3.8	1.49e+00	0	39	104	956301312	68	21392
2026-01-26 01:40:37.34	257.09	6.04	-48.5	-63.9	3.8	1.49e+00	0	38	104	956301312	68	21387
2026-01-26 01:40:38.47	256.99	5.97	-48.5	-63.9	3.8	1.49e+00	0	38	104	956301312	68	21359
2026-01-26 01:40:39.33	256.91	5.92	-48.5	-63.9	3.8	1.49e+00	0	38	104	956301312	68	21389
2026-01-26 01:40:40.46	256.80	5.85	-48.5	-63.9	3.8	1.49e+00	0	38	104	956301312	68	21328
2026-01-26 01:40:41.31	256.73	5.80	-48.5	-63.9	3.8	1.49e+00	0	39	104	956301312	68	21347
2026-01-26 01:40:42.45	256.62	5.73	-48.5	-63.9	3.8	1.49e+00	0	38	104	956301312	68	21405
2026-01-26 01:40:43.30	256.54	5.68	-48.5	-63.9	3.8	1.49e+00	0	39	104	956301312	68	21387
2026-01-26 01:40:44.43	256.44	5.61	-48.5	-63.9	3.8	1.49e+00	0	38	104	956301312	68	21330
2026-01-26 01:40:45.28	256.36	5.56	-48.5	-63.9	3.8	1.49e+00	0	39	104	956301312	68	21385
2026-01-26 01:40:46.42	256.26	5.50	-48.5	-63.9	3.8	1.49e+00	0	38	104	956301312	68	21346
2026-01-26 01:40:47.27	256.19	5.45	-48.5	-63.8	3.8	1.49e+00	0	38	104	956301312	68	21239
2026-01-26 01:40:48.40	256.08	5.38	-48.5	-63.9	3.8	1.49e+00	0	38	104	956301312	68	21311
2026-01-26 01:40:49.26	256.01	5.33	-48.5	-63.9	3.8	1.49e+00	0	38	104	956301312	68	21289
2026-01-26 01:40:50.39	255.91	5.26	-48.5	-63.9	3.8	1.49e+00	0	38	104	956301312	68	21281
2026-01-26 01:40:51.24	255.83	5.21	-48.5	-63.9	3.8	1.49e+00	0	39	104	956301312	68	21357
2026-01-26 01:40:52.38	255.73	5.14	-48.5	-63.9	3.8	1.49e+00	0	38	104	956301312	68	21327
2026-01-26 01:40:53.23	255.66	5.09	-48.5	-63.9	3.8	1.49e+00	0	39	104	956301312	68	21304
2026-01-26 01:40:54.36	255.56	5.03	-48.5	-63.9	3.8	1.49e+00	0	38	104	956301312	68	21370
2026-01-26 01:40:55.22	255.48	4.98	-48.5	-63.9	3.8	1.49e+00	0	39	104	956301312	68	21283

#Closed at: 2026-01-26 01:40:56
#Recorded file [956 MB]: D:/Data/31040_260126_043023.dat