passes_logs/2026/01/26/T1/T1__20260126_224038_NOAA_21_JPSS-2_rec.log

#Pass ID: 20260126_224038_NOAA 21 (JPSS-2)
#Satellite: NOAA 21 (JPSS-2)
#Configuration: NOAA 21
#almurnet v.1.7.20251203
#Start time: 2026-01-26 22:40:39

#Version: 2.0.20230620
#Station: T1
#Location: 37.570604 lon 55.790049 lat
#TLE: 1 54234U 22150A   26026.43130734  .00000179  00000+0  10559-3 0  9998
#TLE: 2 54234  98.7509 327.1934 0000805 209.8356 150.2774 14.19539635166435

#Time	Az	El	Level	Level2	SNR	BER	BlckErr	Temp	State	Recorded	gain1	gain2
2026-01-26 22:40:39.33	24.22	5.03	-48.8	-62.2	3.8	1.49e+00	0	40	0	0	69	16626
2026-01-26 22:40:40.32	24.28	5.09	-48.8	-62.2	3.8	1.49e+00	0	41	104	0	68	17560
2026-01-26 22:40:41.31	24.34	5.16	-48.8	-62.2	3.8	1.49e+00	0	41	104	0	68	17588
2026-01-26 22:40:42.31	24.40	5.22	-48.8	-62.2	3.8	1.49e+00	0	41	104	0	68	17535
2026-01-26 22:40:43.30	24.46	5.29	-48.8	-62.2	3.8	1.49e+00	0	41	104	0	68	17572
2026-01-26 22:40:44.29	24.52	5.35	-48.8	-62.2	3.8	1.49e+00	0	41	104	0	68	17633
2026-01-26 22:40:45.28	24.58	5.42	-48.8	-62.2	3.8	1.49e+00	0	41	104	0	68	17618
2026-01-26 22:40:46.28	24.64	5.49	-48.8	-62.2	3.8	1.49e+00	0	41	104	0	68	17627
2026-01-26 22:40:47.27	24.70	5.55	-48.8	-62.2	3.8	1.49e+00	0	41	104	0	68	17515
2026-01-26 22:40:48.26	24.76	5.62	-48.8	-62.2	3.8	1.49e+00	0	41	104	0	68	17494
2026-01-26 22:40:49.26	24.82	5.68	-48.8	-62.1	3.8	1.49e+00	0	41	104	0	68	17412
2026-01-26 22:40:50.25	24.88	5.75	-48.8	-62.1	3.8	1.49e+00	0	41	104	0	68	17390
2026-01-26 22:40:51.24	24.95	5.82	-48.8	-62.1	3.8	1.49e+00	0	41	104	0	68	17344
2026-01-26 22:40:52.24	25.01	5.88	-48.8	-62.1	3.8	1.49e+00	0	41	104	0	68	17377
2026-01-26 22:40:53.23	25.07	5.95	-48.8	-62.1	3.8	1.49e+00	0	41	104	0	68	17320
2026-01-26 22:40:54.22	25.13	6.02	-48.8	-62.1	3.8	1.49e+00	0	41	104	0	68	17385
2026-01-26 22:40:55.22	25.20	6.08	-48.8	-62.1	3.8	1.49e+00	0	41	104	0	68	17338
2026-01-26 22:40:56.21	25.26	6.15	-48.8	-62.1	3.8	1.49e+00	0	42	104	0	68	17481
2026-01-26 22:40:57.20	25.32	6.22	-48.8	-62.2	3.8	1.49e+00	0	41	104	0	68	17532
2026-01-26 22:40:58.20	25.39	6.29	-48.8	-62.2	3.8	1.49e+00	0	42	104	0	68	17494
2026-01-26 22:40:59.19	25.45	6.35	-48.8	-62.2	3.8	1.49e+00	0	41	104	0	68	17523
2026-01-26 22:41:00.18	25.52	6.42	-48.8	-62.2	3.8	1.49e+00	0	42	104	0	68	17603
2026-01-26 22:41:01.17	25.58	6.49	-48.8	-62.2	3.8	1.49e+00	0	41	104	0	68	17547
2026-01-26 22:41:02.17	25.65	6.56	-48.8	-62.2	3.8	1.49e+00	0	42	104	0	68	17566
2026-01-26 22:41:03.16	25.71	6.63	-48.8	-62.2	3.8	1.49e+00	0	42	104	0	68	17607
2026-01-26 22:41:04.15	25.78	6.69	-48.8	-62.2	3.8	1.49e+00	0	42	104	0	68	17578
2026-01-26 22:41:05.15	25.84	6.76	-48.8	-62.1	3.8	1.49e+00	0	42	104	0	68	17440
2026-01-26 22:41:06.14	25.91	6.83	-48.8	-62.1	3.8	1.49e+00	0	42	104	0	68	17313
2026-01-26 22:41:07.13	25.97	6.90	-48.8	-62.0	3.8	1.49e+00	0	42	104	0	68	17204
2026-01-26 22:41:08.13	26.04	6.97	-48.8	-62.0	3.8	1.49e+00	0	42	104	0	68	17187
2026-01-26 22:41:09.12	26.11	7.04	-48.8	-62.0	3.8	1.49e+00	0	42	104	0	68	17111
2026-01-26 22:41:10.11	26.18	7.11	-48.8	-62.0	3.8	1.49e+00	0	42	104	0	68	17151
2026-01-26 22:41:11.11	26.24	7.18	-48.8	-62.1	3.8	1.49e+00	0	42	104	0	68	17291
2026-01-26 22:41:12.10	26.31	7.25	-48.8	-62.1	3.8	1.49e+00	0	42	104	0	68	17372
2026-01-26 22:41:13.09	26.38	7.32	-48.8	-62.2	3.8	1.49e+00	0	42	104	0	68	17503
2026-01-26 22:41:14.09	26.45	7.39	-48.8	-62.2	3.8	1.49e+00	0	42	104	0	68	17615
2026-01-26 22:41:15.08	26.52	7.46	-48.8	-62.2	3.8	1.49e+00	0	42	104	0	68	17634
2026-01-26 22:41:16.07	26.58	7.53	-48.8	-62.2	3.8	1.49e+00	0	42	104	0	68	17510
2026-01-26 22:41:17.07	26.65	7.60	-48.8	-62.1	3.8	1.49e+00	0	42	104	0	68	17290
2026-01-26 22:41:18.06	26.72	7.67	-48.8	-62.0	3.8	1.49e+00	0	42	104	0	68	17155
2026-01-26 22:41:19.05	26.79	7.74	-48.8	-61.9	3.8	1.49e+00	0	42	104	0	68	17082
2026-01-26 22:41:20.04	26.86	7.81	-48.8	-61.9	3.8	1.49e+00	0	42	104	0	68	16891
2026-01-26 22:41:21.04	26.94	7.88	-48.8	-61.8	3.8	1.49e+00	0	42	104	0	68	16801
2026-01-26 22:41:22.03	27.01	7.95	-48.8	-61.8	3.8	1.49e+00	0	42	104	0	68	16726
2026-01-26 22:41:23.02	27.08	8.02	-48.8	-61.8	3.8	1.49e+00	0	42	104	0	68	16843
2026-01-26 22:41:24.01	27.15	8.10	-48.8	-61.8	3.8	1.49e+00	0	42	104	0	68	16825
2026-01-26 22:41:25.01	27.22	8.17	-48.8	-61.7	3.8	1.49e+00	0	42	104	0	68	16659
2026-01-26 22:41:26.00	27.29	8.24	-48.8	-61.6	3.8	1.49e+00	0	42	104	0	68	16449
2026-01-26 22:41:26.99	27.37	8.31	-48.8	-61.4	3.8	1.49e+00	0	42	104	0	68	16077
2026-01-26 22:41:27.99	27.44	8.39	-48.7	-61.2	3.8	1.49e+00	0	42	104	0	68	15750
2026-01-26 22:41:28.98	27.51	8.46	-48.7	-60.9	3.8	1.49e+00	0	42	104	0	68	15165
2026-01-26 22:41:29.97	27.59	8.53	-48.6	-60.5	3.8	1.49e+00	0	42	104	0	68	14442
2026-01-26 22:41:30.97	27.66	8.60	-48.5	-59.4	3.9	1.48e+00	0	43	104	0	68	12723
2026-01-26 22:41:31.96	27.73	8.68	-48.3	-58.3	4.0	1.46e+00	0	42	104	0	68	11260
2026-01-26 22:41:32.95	27.81	8.75	-48.1	-56.4	5.1	7.47e-01	0	42	0	0	68	9047
2026-01-26 22:41:33.95	27.88	8.82	-47.5	-54.2	6.5	2.76e-01	0	43	0	0	67	7443
2026-01-26 22:41:34.94	27.96	8.90	-47.0	-52.6	8.0	6.94e-02	0	42	0	0	65	6900
2026-01-26 22:41:35.93	28.03	8.97	-46.3	-51.0	9.6	2.75e-02	0	42	0	0	64	6127
2026-01-26 22:41:36.93	28.11	9.04	-46.0	-50.5	10.3	7.67e-03	0	42	0	0	64	5726
2026-01-26 22:41:37.92	28.19	9.12	-45.2	-48.9	12.0	3.53e-04	0	43	0	0	62	5373
2026-01-26 22:41:38.91	28.26	9.19	-48.1	-57.1	4.7	2.06e-01	0	43	0	0	66	11003
2026-01-26 22:41:39.96	28.35	9.27	-43.6	-46.3	14.7	4.27e-05	0	43	0	0	59	4734
2026-01-26 22:41:40.95	28.42	9.35	-46.7	-52.0	8.9	1.02e-02	0	42	0	0	64	6857
2026-01-26 22:41:41.94	28.50	9.42	-41.4	-43.6	17.2	0.00e+00	0	42	0	0	54	4599
2026-01-26 22:41:42.94	28.58	9.50	-41.3	-43.4	17.3	0.00e+00	0	43	0	0	54	4522
2026-01-26 22:41:43.93	28.66	9.57	-41.2	-43.3	17.4	0.00e+00	0	42	0	0	54	4456
2026-01-26 22:41:44.93	28.74	9.65	-41.2	-43.3	17.5	0.00e+00	0	42	0	0	54	4444
2026-01-26 22:41:45.92	28.82	9.72	-41.0	-43.0	17.6	0.00e+00	0	43	0	0	53	4596
2026-01-26 22:41:46.92	28.90	9.80	-41.0	-43.1	17.6	0.00e+00	0	43	0	0	53	4600
2026-01-26 22:41:47.92	28.98	9.87	-40.9	-43.0	17.7	0.00e+00	0	43	0	0	53	4559
2026-01-26 22:41:48.91	29.06	9.95	-41.0	-43.0	17.7	0.00e+00	0	43	0	0	53	4575
2026-01-26 22:41:49.91	29.14	10.03	-40.9	-43.0	17.7	0.00e+00	0	43	0	0	53	4566
2026-01-26 22:41:50.90	29.22	10.10	-40.9	-43.0	17.8	0.00e+00	0	43	0	0	53	4552
2026-01-26 22:41:51.90	29.30	10.18	-40.8	-42.9	17.8	0.00e+00	0	43	0	0	53	4509
2026-01-26 22:41:52.89	29.39	10.26	-40.7	-42.7	17.9	0.00e+00	0	43	0	0	53	4414
2026-01-26 22:41:53.97	29.48	10.34	-40.6	-42.6	18.1	0.00e+00	0	43	0	0	53	4352
2026-01-26 22:41:54.82	29.55	10.41	-40.6	-42.5	18.1	0.00e+00	0	43	0	0	53	4324
2026-01-26 22:41:55.96	29.64	10.50	-40.5	-42.5	18.2	0.00e+00	0	43	0	0	52	4570
2026-01-26 22:41:56.81	29.72	10.56	-40.6	-42.5	18.2	0.00e+00	0	43	0	0	52	4584
2026-01-26 22:41:57.95	29.81	10.65	-40.5	-42.5	18.2	0.00e+00	0	43	0	0	52	4561
2026-01-26 22:41:58.80	29.89	10.72	-40.4	-42.3	18.3	0.00e+00	0	43	0	0	52	4486
2026-01-26 22:41:59.93	29.98	10.81	-40.4	-42.4	18.3	0.00e+00	0	43	0	0	52	4502
2026-01-26 22:42:00.78	30.06	10.87	-40.4	-42.3	18.4	0.00e+00	0	43	0	0	52	4473
2026-01-26 22:42:01.92	30.15	10.97	-40.3	-42.3	18.4	0.00e+00	0	43	0	0	52	4443
2026-01-26 22:42:02.77	30.23	11.03	-40.4	-42.3	18.4	0.00e+00	0	43	0	0	52	4484
2026-01-26 22:42:03.93	30.33	11.12	-40.5	-42.5	18.3	0.00e+00	0	43	0	0	52	4558
2026-01-26 22:42:04.78	30.41	11.19	-40.5	-42.4	18.3	0.00e+00	0	43	0	0	52	4533
2026-01-26 22:42:05.92	30.51	11.28	-40.4	-42.3	18.4	0.00e+00	0	43	0	0	52	4459
2026-01-26 22:42:06.77	30.58	11.35	-40.4	-42.3	18.4	0.00e+00	0	43	0	0	52	4480
2026-01-26 22:42:07.91	30.68	11.44	-40.4	-42.3	18.4	0.00e+00	0	43	0	0	52	4464
2026-01-26 22:42:08.76	30.76	11.51	-40.3	-42.2	18.5	0.00e+00	0	43	0	0	52	4414
2026-01-26 22:42:10.10	30.88	11.62	-40.1	-41.9	18.7	0.00e+00	0	43	0	0	52	4285
2026-01-26 22:42:10.81	30.95	11.68	-40.2	-42.1	18.6	0.00e+00	0	43	0	0	52	4361
2026-01-26 22:42:12.26	31.08	11.80	-40.1	-42.1	18.6	0.00e+00	0	43	0	0	52	4344
2026-01-26 22:42:12.98	31.14	11.85	-40.1	-42.0	18.6	0.00e+00	0	43	0	0	52	4325
2026-01-26 22:42:14.26	31.26	11.96	-40.2	-42.1	18.5	0.00e+00	0	43	0	0	52	4377
2026-01-26 22:42:15.28	31.36	12.04	-40.2	-42.1	18.6	0.00e+00	0	43	0	0	52	4359
2026-01-26 22:42:16.28	31.45	12.13	-40.1	-42.0	18.7	0.00e+00	0	43	0	0	52	4306
2026-01-26 22:42:17.27	31.54	12.21	-40.1	-42.0	18.7	0.00e+00	0	43	0	0	52	4316
2026-01-26 22:42:18.27	31.64	12.29	-40.1	-42.0	18.8	0.00e+00	0	43	0	0	51	4562
2026-01-26 22:42:19.26	31.73	12.37	-40.1	-42.0	18.8	0.00e+00	0	43	0	0	51	4563
2026-01-26 22:42:20.26	31.83	12.45	-40.2	-42.1	18.7	0.00e+00	0	43	0	0	51	4625
2026-01-26 22:42:21.26	31.92	12.54	-40.1	-42.0	18.8	0.00e+00	0	43	0	0	51	4555
2026-01-26 22:42:22.25	32.02	12.62	-40.0	-41.9	18.8	0.00e+00	0	43	0	0	51	4504
2026-01-26 22:42:23.24	32.12	12.70	-40.1	-42.0	18.8	0.00e+00	0	43	0	0	51	4555
2026-01-26 22:42:24.24	32.21	12.79	-40.0	-41.9	18.8	0.00e+00	0	43	0	0	51	4523
2026-01-26 22:42:25.34	32.32	12.88	-40.1	-41.9	18.8	0.00e+00	0	43	0	0	51	4539
2026-01-26 22:42:26.23	32.41	12.95	-39.9	-41.8	19.0	0.00e+00	0	43	0	0	51	4446
2026-01-26 22:42:27.54	32.54	13.07	-40.0	-41.8	18.9	0.00e+00	0	43	0	0	51	4490
2026-01-26 22:42:28.25	32.61	13.13	-40.0	-41.8	19.0	0.00e+00	0	43	0	0	51	4471
2026-01-26 22:42:29.73	32.76	13.25	-40.0	-41.8	19.0	0.00e+00	0	43	0	0	51	4465
2026-01-26 22:42:30.44	32.83	13.31	-39.9	-41.8	19.0	0.00e+00	0	43	0	0	51	4446
2026-01-26 22:42:31.72	32.96	13.42	-40.0	-41.8	19.0	0.00e+00	0	43	0	0	51	4459
2026-01-26 22:42:32.43	33.03	13.48	-40.0	-41.8	19.0	0.00e+00	0	43	0	0	51	4456
2026-01-26 22:42:33.71	33.17	13.59	-40.0	-41.8	18.9	0.00e+00	0	43	0	0	51	4491
2026-01-26 22:42:34.44	33.24	13.66	-39.9	-41.8	19.0	0.00e+00	0	43	0	0	51	4444
2026-01-26 22:42:35.71	33.37	13.76	-40.1	-41.9	18.9	0.00e+00	0	43	0	0	51	4534
2026-01-26 22:42:36.44	33.45	13.83	-40.0	-41.8	19.0	0.00e+00	0	43	0	0	51	4474
2026-01-26 22:42:37.72	33.58	13.94	-40.0	-41.8	19.0	0.00e+00	0	43	0	0	51	4459
2026-01-26 22:42:38.43	33.66	14.00	-39.9	-41.7	19.1	0.00e+00	0	43	0	0	51	4409
2026-01-26 22:42:39.71	33.79	14.11	-39.9	-41.7	19.1	0.00e+00	0	43	0	0	51	4417
2026-01-26 22:42:40.48	33.88	14.18	-39.9	-41.7	19.1	0.00e+00	0	43	0	0	51	4420
2026-01-26 22:42:41.76	34.01	14.29	-39.9	-41.7	19.1	0.00e+00	0	43	0	0	51	4415
2026-01-26 22:42:42.50	34.09	14.36	-39.9	-41.6	19.1	0.00e+00	0	43	0	0	51	4390
2026-01-26 22:42:43.78	34.23	14.47	-39.9	-41.7	19.1	0.00e+00	0	43	0	0	51	4436
2026-01-26 22:42:44.51	34.31	14.54	-40.0	-41.8	19.0	0.00e+00	0	43	0	0	51	4465
2026-01-26 22:42:45.78	34.45	14.65	-40.0	-41.8	19.1	0.00e+00	0	43	0	0	51	4463
2026-01-26 22:42:46.51	34.53	14.71	-40.0	-41.8	19.1	0.00e+00	0	43	0	0	51	4450
2026-01-26 22:42:47.79	34.68	14.83	-39.9	-41.8	19.1	0.00e+00	0	43	0	0	51	4448
2026-01-26 22:42:48.50	34.76	14.89	-39.9	-41.7	19.1	0.00e+00	0	43	0	0	51	4423
2026-01-26 22:42:49.78	34.90	15.01	-40.0	-41.8	19.1	0.00e+00	0	43	0	0	51	4476
2026-01-26 22:42:50.49	34.98	15.07	-40.0	-41.8	19.0	0.00e+00	0	43	0	0	51	4464
2026-01-26 22:42:51.77	35.13	15.18	-40.0	-41.8	19.1	0.00e+00	0	43	0	0	51	4455
2026-01-26 22:42:52.52	35.21	15.25	-40.0	-41.8	19.0	0.00e+00	0	43	0	0	51	4461
2026-01-26 22:42:53.80	35.36	15.37	-40.1	-41.9	19.0	0.00e+00	0	43	0	0	51	4524
2026-01-26 22:42:54.54	35.44	15.44	-40.0	-41.8	19.1	0.00e+00	0	43	0	0	51	4463
2026-01-26 22:42:55.82	35.59	15.55	-39.9	-41.7	19.2	0.00e+00	0	43	0	0	51	4414
2026-01-26 22:42:56.55	35.68	15.62	-39.9	-41.7	19.2	0.00e+00	0	43	0	0	51	4422
2026-01-26 22:42:57.83	35.83	15.74	-39.9	-41.7	19.1	0.00e+00	0	43	0	0	51	4432
2026-01-26 22:42:58.54	35.91	15.80	-39.9	-41.7	19.1	0.00e+00	0	43	0	0	51	4415
2026-01-26 22:42:59.82	36.07	15.92	-39.9	-41.7	19.2	0.00e+00	0	43	0	0	51	4413
2026-01-26 22:43:00.55	36.16	15.99	-40.0	-41.8	19.1	0.00e+00	0	43	0	0	51	4452
2026-01-26 22:43:01.83	36.31	16.10	-39.9	-41.7	19.2	0.00e+00	0	43	0	0	51	4439
2026-01-26 22:43:02.54	36.40	16.17	-40.0	-41.8	19.1	0.00e+00	0	43	0	0	51	4465
2026-01-26 22:43:03.82	36.55	16.29	-40.0	-41.8	19.1	0.00e+00	0	43	0	0	51	4473
2026-01-26 22:43:04.53	36.64	16.35	-40.0	-41.8	19.1	0.00e+00	0	43	0	0	51	4478
2026-01-26 22:43:05.85	36.80	16.48	-40.0	-41.8	19.1	0.00e+00	0	43	0	0	51	4461
2026-01-26 22:43:06.56	36.89	16.54	-39.9	-41.7	19.2	0.00e+00	0	43	0	0	51	4406
2026-01-26 22:43:07.84	37.05	16.66	-40.0	-41.8	19.1	0.00e+00	0	43	0	0	51	4483
2026-01-26 22:43:08.57	37.14	16.73	-40.1	-41.9	19.0	0.00e+00	0	43	0	0	51	4524
2026-01-26 22:43:09.84	37.30	16.85	-39.9	-41.7	19.2	0.00e+00	0	43	0	0	51	4407
2026-01-26 22:43:10.56	37.40	16.92	-39.9	-41.7	19.2	0.00e+00	0	43	0	0	51	4430
2026-01-26 22:43:11.83	37.56	17.04	-39.9	-41.7	19.1	0.00e+00	0	43	0	0	51	4422
2026-01-26 22:43:12.54	37.65	17.11	-39.8	-41.6	19.2	0.00e+00	0	43	0	0	51	4352
2026-01-26 22:43:13.82	37.82	17.23	-39.9	-41.6	19.2	0.00e+00	0	43	0	0	51	4383
2026-01-26 22:43:14.54	37.91	17.30	-39.9	-41.7	19.2	0.00e+00	0	43	0	0	51	4426
2026-01-26 22:43:15.81	38.08	17.42	-39.9	-41.6	19.2	0.00e+00	0	43	0	0	51	4389
2026-01-26 22:43:16.52	38.17	17.49	-39.7	-41.5	19.3	0.00e+00	0	43	0	0	51	4308
2026-01-26 22:43:17.81	38.34	17.61	-39.8	-41.5	19.3	0.00e+00	0	43	0	0	51	4335
2026-01-26 22:43:18.52	38.44	17.68	-39.9	-41.6	19.2	0.00e+00	0	43	0	0	51	4386
2026-01-26 22:43:19.79	38.61	17.81	-39.8	-41.6	19.3	0.00e+00	0	43	0	0	51	4344
2026-01-26 22:43:20.60	38.72	17.88	-39.8	-41.6	19.3	0.00e+00	0	43	0	0	51	4356
2026-01-26 22:43:22.02	38.91	18.02	-39.8	-41.6	19.3	0.00e+00	0	43	0	0	51	4352
2026-01-26 22:43:22.73	39.01	18.09	-39.7	-41.5	19.3	0.00e+00	0	43	0	0	51	4315
2026-01-26 22:43:24.23	39.22	18.24	-39.8	-41.6	19.2	0.00e+00	0	43	0	0	51	4352
2026-01-26 22:43:24.95	39.32	18.31	-39.7	-41.4	19.4	0.00e+00	0	43	0	0	51	4282
2026-01-26 22:43:26.22	39.50	18.43	-39.7	-41.5	19.4	0.00e+00	0	43	0	0	51	4302
2026-01-26 22:43:26.94	39.60	18.50	-39.8	-41.5	19.3	0.00e+00	0	43	0	0	51	4340
2026-01-26 22:43:28.21	39.78	18.63	-39.7	-41.4	19.4	0.00e+00	0	43	0	0	51	4291
2026-01-26 22:43:28.93	39.88	18.70	-39.7	-41.4	19.4	0.00e+00	0	43	0	0	51	4283
2026-01-26 22:43:30.21	40.06	18.83	-39.7	-41.4	19.4	0.00e+00	0	43	0	0	51	4276
2026-01-26 22:43:30.92	40.17	18.90	-39.7	-41.4	19.4	0.00e+00	0	43	0	0	51	4276
2026-01-26 22:43:32.20	40.35	19.02	-39.7	-41.5	19.4	0.00e+00	0	43	0	0	51	4317
2026-01-26 22:43:32.99	40.47	19.10	-39.8	-41.6	19.3	0.00e+00	0	43	0	0	51	4354
2026-01-26 22:43:34.16	40.64	19.22	-39.9	-41.7	19.2	0.00e+00	0	43	0	0	51	4406
2026-01-26 22:43:35.19	40.79	19.32	-39.7	-41.5	19.4	0.00e+00	0	43	0	0	51	4303
2026-01-26 22:43:36.37	40.97	19.44	-39.6	-41.4	19.4	0.00e+00	0	43	0	0	51	4261
2026-01-26 22:43:37.23	41.10	19.53	-39.7	-41.4	19.5	0.00e+00	0	43	0	0	51	4279
2026-01-26 22:43:38.57	41.30	19.66	-39.5	-41.3	19.5	0.00e+00	0	43	0	0	51	4194
2026-01-26 22:43:39.28	41.41	19.74	-39.4	-41.1	19.6	0.00e+00	0	43	0	0	50	4374
2026-01-26 22:43:40.56	41.61	19.87	-39.4	-41.1	19.6	0.00e+00	0	43	0	0	50	4361
2026-01-26 22:43:41.27	41.72	19.94	-39.3	-41.0	19.7	0.00e+00	0	43	0	0	50	4329
2026-01-26 22:43:42.55	41.92	20.07	-39.4	-41.1	19.6	0.00e+00	0	43	0	0	50	4365
2026-01-26 22:43:43.28	42.03	20.14	-39.3	-41.0	19.7	0.00e+00	0	43	0	0	50	4316
2026-01-26 22:43:44.56	42.23	20.27	-39.3	-41.0	19.8	0.00e+00	0	43	0	0	50	4306
2026-01-26 22:43:45.27	42.35	20.35	-39.2	-40.9	19.8	0.00e+00	0	43	0	0	50	4278
2026-01-26 22:43:46.55	42.55	20.48	-39.1	-40.8	20.0	0.00e+00	0	43	0	0	50	4223
2026-01-26 22:43:47.29	42.67	20.55	-39.1	-40.8	20.0	0.00e+00	0	43	0	0	50	4228
2026-01-26 22:43:48.57	42.88	20.69	-39.2	-40.9	19.9	0.00e+00	0	43	0	0	50	4259
2026-01-26 22:43:49.28	42.99	20.76	-39.2	-40.9	19.9	0.00e+00	0	43	0	0	50	4254
2026-01-26 22:43:50.56	43.20	20.89	-39.2	-41.0	19.9	0.00e+00	0	43	0	0	50	4297
2026-01-26 22:43:51.27	43.32	20.97	-39.2	-40.9	19.9	0.00e+00	0	43	0	0	50	4257
2026-01-26 22:43:52.55	43.53	21.10	-39.0	-40.7	20.0	0.00e+00	0	43	0	0	50	4190
2026-01-26 22:43:53.28	43.65	21.18	-39.0	-40.7	20.1	0.00e+00	0	43	0	0	50	4171
2026-01-26 22:43:54.56	43.87	21.31	-38.9	-40.6	20.2	0.00e+00	0	43	0	0	49	4358
2026-01-26 22:43:55.28	43.99	21.38	-38.8	-40.5	20.2	0.00e+00	0	43	0	0	49	4321
2026-01-26 22:43:56.56	44.21	21.52	-38.9	-40.5	20.2	0.00e+00	0	43	0	0	49	4333
2026-01-26 22:43:57.27	44.33	21.59	-38.7	-40.4	20.4	0.00e+00	0	43	0	0	49	4266
2026-01-26 22:43:58.85	44.60	21.76	-38.6	-40.2	20.5	0.00e+00	0	43	0	0	49	4193
2026-01-26 22:43:59.48	44.71	21.82	-38.7	-40.3	20.4	0.00e+00	0	43	0	0	49	4241
2026-01-26 22:44:01.01	44.98	21.99	-38.7	-40.4	20.4	0.00e+00	0	43	0	0	49	4261
2026-01-26 22:44:01.72	45.11	22.06	-38.8	-40.5	20.3	0.00e+00	0	43	0	0	49	4313
2026-01-26 22:44:03.00	45.33	22.20	-38.7	-40.3	20.4	0.00e+00	0	43	0	0	49	4229
2026-01-26 22:44:03.73	45.46	22.27	-38.7	-40.3	20.4	0.00e+00	0	43	0	0	49	4231
2026-01-26 22:44:05.04	45.70	22.41	-38.7	-40.4	20.4	0.00e+00	0	43	0	0	49	4249
2026-01-26 22:44:05.76	45.83	22.49	-38.8	-40.4	20.3	0.00e+00	0	43	0	0	49	4272
2026-01-26 22:44:07.04	46.06	22.63	-38.5	-40.2	20.5	0.00e+00	0	43	0	0	49	4160
2026-01-26 22:44:07.76	46.20	22.70	-38.5	-40.1	20.5	0.00e+00	0	43	0	0	49	4134
2026-01-26 22:44:09.04	46.43	22.84	-38.5	-40.1	20.6	0.00e+00	0	43	0	0	48	4362
2026-01-26 22:44:09.75	46.57	22.92	-38.5	-40.1	20.6	0.00e+00	0	43	0	0	48	4365
2026-01-26 22:44:11.04	46.81	23.05	-38.4	-40.1	20.6	0.00e+00	0	43	0	0	48	4347
2026-01-26 22:44:11.76	46.94	23.13	-38.5	-40.1	20.6	0.00e+00	0	43	0	0	48	4389
2026-01-26 22:44:13.03	47.19	23.27	-38.5	-40.2	20.6	0.00e+00	0	43	0	0	48	4394
2026-01-26 22:44:13.74	47.32	23.34	-38.5	-40.2	20.6	0.00e+00	0	43	0	0	48	4411
2026-01-26 22:44:15.02	47.57	23.48	-38.6	-40.2	20.5	0.00e+00	0	43	0	0	48	4436
2026-01-26 22:44:15.76	47.71	23.56	-38.6	-40.2	20.5	0.00e+00	0	43	0	0	48	4436
2026-01-26 22:44:17.04	47.96	23.70	-38.6	-40.3	20.4	0.00e+00	0	43	0	0	48	4466
2026-01-26 22:44:17.75	48.10	23.78	-38.5	-40.2	20.5	0.00e+00	0	43	0	0	48	4413
2026-01-26 22:44:19.03	48.35	23.91	-38.5	-40.1	20.5	0.00e+00	0	43	0	0	48	4371
2026-01-26 22:44:19.76	48.50	23.99	-38.5	-40.2	20.4	0.00e+00	0	43	0	0	48	4410
2026-01-26 22:44:21.03	48.76	24.13	-38.5	-40.1	20.5	0.00e+00	0	43	0	0	48	4363
2026-01-26 22:44:21.77	48.90	24.21	-38.5	-40.2	20.5	0.00e+00	0	43	0	0	48	4395
2026-01-26 22:44:23.05	49.17	24.35	-38.6	-40.2	20.5	0.00e+00	0	43	0	0	48	4420
2026-01-26 22:44:23.76	49.31	24.43	-38.7	-40.3	20.4	0.00e+00	0	43	0	0	48	4479
2026-01-26 22:44:25.15	49.60	24.58	-38.7	-40.4	20.4	0.00e+00	0	43	0	0	48	4522
2026-01-26 22:44:25.86	49.74	24.65	-38.7	-40.4	20.4	0.00e+00	0	43	0	0	48	4512
2026-01-26 22:44:27.17	50.02	24.80	-38.8	-40.4	20.4	0.00e+00	0	43	0	0	48	4530
2026-01-26 22:44:27.88	50.17	24.87	-38.7	-40.4	20.5	0.00e+00	0	43	0	0	48	4503
2026-01-26 22:44:29.16	50.44	25.01	-38.8	-40.4	20.4	0.00e+00	0	43	0	0	48	4540
2026-01-26 22:44:29.87	50.59	25.09	-38.8	-40.5	20.3	0.00e+00	0	43	0	0	48	4567
2026-01-26 22:44:31.28	50.89	25.24	-38.9	-40.5	20.3	0.00e+00	0	43	0	0	48	4582
2026-01-26 22:44:31.99	51.05	25.32	-39.0	-40.7	20.1	0.00e+00	0	43	0	0	48	4656
2026-01-26 22:44:33.27	51.33	25.46	-39.0	-40.7	20.1	0.00e+00	0	43	0	0	48	4656
2026-01-26 22:44:33.98	51.48	25.54	-39.1	-40.8	20.0	0.00e+00	0	43	0	0	48	4732
2026-01-26 22:44:35.26	51.77	25.68	-39.2	-40.9	19.9	0.00e+00	0	43	0	0	49	4516
2026-01-26 22:44:35.98	51.93	25.76	-39.2	-40.9	19.9	0.00e+00	0	43	0	0	49	4525
2026-01-26 22:44:37.26	52.21	25.90	-39.2	-41.0	19.9	0.00e+00	0	43	0	0	49	4548
2026-01-26 22:44:37.97	52.37	25.97	-39.3	-41.0	19.9	0.00e+00	0	43	0	0	49	4568
2026-01-26 22:44:39.25	52.66	26.11	-39.3	-41.1	19.8	0.00e+00	0	43	0	0	49	4603
2026-01-26 22:44:39.96	52.83	26.19	-39.4	-41.1	19.8	0.00e+00	0	43	0	0	49	4649
2026-01-26 22:44:41.24	53.12	26.33	-39.4	-41.1	19.8	0.00e+00	0	43	0	0	49	4630
2026-01-26 22:44:41.98	53.29	26.41	-39.4	-41.2	19.8	0.00e+00	0	43	0	0	49	4655
2026-01-26 22:44:43.26	53.59	26.55	-39.3	-41.0	19.9	0.00e+00	0	43	0	0	49	4580
2026-01-26 22:44:43.99	53.76	26.63	-39.2	-41.0	19.9	0.00e+00	0	43	0	0	49	4550
2026-01-26 22:44:45.27	54.06	26.77	-39.2	-40.9	20.0	0.00e+00	0	43	0	0	49	4520
2026-01-26 22:44:45.98	54.23	26.85	-39.3	-41.0	19.9	0.00e+00	0	43	0	0	49	4561
2026-01-26 22:44:47.26	54.54	26.98	-39.6	-41.4	19.6	0.00e+00	0	43	0	0	50	4506
2026-01-26 22:44:47.99	54.72	27.06	-39.6	-41.3	19.6	0.00e+00	0	43	0	0	50	4487
2026-01-26 22:44:49.26	55.02	27.20	-39.5	-41.3	19.7	0.00e+00	0	43	0	0	50	4457
2026-01-26 22:44:50.00	55.20	27.28	-39.5	-41.2	19.8	0.00e+00	0	43	0	0	50	4422
2026-01-26 22:44:51.28	55.52	27.42	-39.6	-41.4	19.6	0.00e+00	0	43	0	0	50	4498
2026-01-26 22:44:51.99	55.70	27.50	-39.7	-41.4	19.6	0.00e+00	0	43	0	0	50	4520
2026-01-26 22:44:53.27	56.01	27.64	-39.7	-41.4	19.5	0.00e+00	0	43	0	0	50	4533
2026-01-26 22:44:54.00	56.20	27.71	-39.7	-41.5	19.5	0.00e+00	0	43	0	0	50	4565
2026-01-26 22:44:55.28	56.52	27.85	-39.8	-41.6	19.4	0.00e+00	0	43	0	0	50	4615
2026-01-26 22:44:56.02	56.71	27.93	-39.8	-41.5	19.5	0.00e+00	0	43	0	0	50	4594
2026-01-26 22:44:57.30	57.04	28.07	-39.8	-41.5	19.5	0.00e+00	0	43	0	0	50	4587
2026-01-26 22:44:58.01	57.22	28.14	-39.7	-41.4	19.6	0.00e+00	0	43	0	0	50	4517
2026-01-26 22:44:59.29	57.55	28.28	-39.5	-41.2	19.5	0.00e+00	0	43	0	0	50	4406
2026-01-26 22:45:00.01	57.74	28.36	-39.4	-41.1	19.8	0.00e+00	0	43	0	0	50	4387
2026-01-26 22:45:01.29	58.08	28.49	-39.4	-41.1	19.8	0.00e+00	0	43	0	0	50	4365
2026-01-26 22:45:02.02	58.27	28.57	-39.3	-41.0	19.8	0.00e+00	0	43	0	0	50	4335
2026-01-26 22:45:03.30	58.61	28.71	-39.5	-41.2	19.7	0.00e+00	0	43	0	0	50	4418
2026-01-26 22:45:04.01	58.80	28.78	-39.6	-41.4	19.5	0.00e+00	0	43	0	0	50	4505
2026-01-26 22:45:05.29	59.15	28.92	-39.7	-41.4	19.5	0.00e+00	0	43	0	0	50	4518
2026-01-26 22:45:06.02	59.35	28.99	-39.7	-41.5	19.5	0.00e+00	0	43	0	0	50	4548
2026-01-26 22:45:07.30	59.69	29.13	-39.6	-41.3	19.6	0.00e+00	0	43	0	0	50	4473
2026-01-26 22:45:08.01	59.89	29.20	-39.6	-41.3	19.5	0.00e+00	0	43	0	0	50	4481
2026-01-26 22:45:09.29	60.24	29.34	-39.6	-41.3	19.6	0.00e+00	0	43	0	0	50	4484
2026-01-26 22:45:10.00	60.44	29.41	-39.6	-41.3	19.6	0.00e+00	0	43	0	0	50	4470
2026-01-26 22:45:11.29	60.80	29.54	-39.4	-41.2	19.8	0.00e+00	0	43	0	0	50	4392
2026-01-26 22:45:12.01	61.01	29.62	-39.2	-40.9	19.9	0.00e+00	0	43	0	0	50	4266
2026-01-26 22:45:13.28	61.37	29.75	-39.2	-40.9	20.0	0.00e+00	0	43	0	0	50	4273
2026-01-26 22:45:14.00	61.57	29.82	-39.3	-40.9	19.9	0.00e+00	0	43	0	0	50	4291
2026-01-26 22:45:15.27	61.94	29.95	-39.3	-41.0	19.8	0.00e+00	0	43	0	0	50	4327
2026-01-26 22:45:15.98	62.14	30.02	-39.4	-41.2	19.7	0.00e+00	0	43	0	0	50	4395
2026-01-26 22:45:17.27	62.52	30.15	-39.4	-41.1	19.8	0.00e+00	0	43	0	0	50	4367
2026-01-26 22:45:18.26	62.81	30.25	-39.5	-41.3	19.7	0.00e+00	0	43	0	0	50	4456
2026-01-26 22:45:19.25	63.10	30.35	-39.5	-41.2	19.8	0.00e+00	0	43	0	0	50	4417
2026-01-26 22:45:20.24	63.40	30.45	-39.4	-41.2	19.8	0.00e+00	0	43	0	0	50	4404
2026-01-26 22:45:21.24	63.69	30.55	-39.5	-41.2	19.8	0.00e+00	0	43	0	0	50	4413
2026-01-26 22:45:22.23	63.99	30.65	-39.5	-41.2	19.8	0.00e+00	0	43	0	0	50	4421
2026-01-26 22:45:23.23	64.29	30.75	-39.3	-41.0	19.9	0.00e+00	0	44	0	0	50	4335
2026-01-26 22:45:24.22	64.60	30.85	-39.4	-41.1	19.9	0.00e+00	0	43	0	0	50	4348
2026-01-26 22:45:25.22	64.90	30.94	-39.4	-41.1	19.8	0.00e+00	0	43	0	0	50	4354
2026-01-26 22:45:26.21	65.21	31.04	-39.3	-41.0	19.9	0.00e+00	0	43	0	0	50	4332
2026-01-26 22:45:27.20	65.51	31.13	-39.2	-41.0	20.0	0.00e+00	0	44	0	0	50	4294
2026-01-26 22:45:28.24	65.84	31.23	-39.1	-40.8	20.2	0.00e+00	0	43	0	0	50	4226
2026-01-26 22:45:29.25	66.15	31.33	-39.2	-40.9	20.1	0.00e+00	0	43	0	0	50	4249
2026-01-26 22:45:30.25	66.47	31.42	-39.2	-40.9	20.1	0.00e+00	0	43	0	0	50	4269
2026-01-26 22:45:31.24	66.78	31.52	-39.4	-41.1	19.9	0.00e+00	0	43	0	0	50	4356
2026-01-26 22:45:32.24	67.10	31.61	-39.4	-41.2	19.8	0.00e+00	0	43	0	0	50	4399
2026-01-26 22:45:33.23	67.42	31.70	-39.5	-41.3	19.7	0.00e+00	0	43	0	0	50	4445
2026-01-26 22:45:34.23	67.74	31.79	-39.6	-41.3	19.6	0.00e+00	0	44	0	0	50	4479
2026-01-26 22:45:35.22	68.06	31.88	-39.5	-41.3	19.7	0.00e+00	0	43	0	0	50	4444
2026-01-26 22:45:36.22	68.38	31.97	-39.5	-41.2	19.7	0.00e+00	0	44	0	0	50	4441
2026-01-26 22:45:37.45	68.79	32.08	-39.5	-41.2	19.8	0.00e+00	0	43	0	0	50	4409
2026-01-26 22:45:38.33	69.08	32.16	-39.4	-41.1	19.8	0.00e+00	0	43	0	0	50	4391
2026-01-26 22:45:39.47	69.46	32.26	-39.6	-41.3	19.6	0.00e+00	0	43	0	0	50	4485
2026-01-26 22:45:40.32	69.74	32.33	-39.9	-41.6	19.3	0.00e+00	0	43	0	0	50	4632
2026-01-26 22:45:41.46	70.12	32.43	-40.1	-41.9	19.1	0.00e+00	0	43	0	0	50	4760
2026-01-26 22:45:42.32	70.41	32.51	-40.2	-42.0	19.0	0.00e+00	0	43	0	0	51	4562
2026-01-26 22:45:43.45	70.79	32.60	-40.2	-42.0	19.0	0.00e+00	0	43	0	0	51	4570
2026-01-26 22:45:44.31	71.08	32.67	-40.2	-42.0	19.0	0.00e+00	0	43	0	0	51	4554
2026-01-26 22:45:45.44	71.47	32.77	-40.0	-41.7	19.3	0.00e+00	0	43	0	0	51	4436
2026-01-26 22:45:46.30	71.77	32.84	-39.9	-41.7	19.3	0.00e+00	0	44	0	0	51	4416
2026-01-26 22:45:47.43	72.16	32.93	-39.9	-41.6	19.3	0.00e+00	0	43	0	0	51	4380
2026-01-26 22:45:48.29	72.46	33.00	-40.1	-41.8	19.1	0.00e+00	0	43	0	0	51	4493
2026-01-26 22:45:49.43	72.85	33.09	-40.3	-42.1	18.9	0.00e+00	0	43	0	0	51	4628
2026-01-26 22:45:50.28	73.15	33.16	-40.3	-42.1	18.9	0.00e+00	0	43	0	0	51	4648
2026-01-26 22:45:51.41	73.55	33.24	-40.2	-42.0	19.0	0.00e+00	0	43	0	0	51	4592
2026-01-26 22:45:52.27	73.85	33.31	-40.2	-42.0	19.1	0.00e+00	0	43	0	0	51	4581
2026-01-26 22:45:53.41	74.26	33.40	-40.2	-42.0	19.1	0.00e+00	0	43	0	0	51	4562
2026-01-26 22:45:54.26	74.56	33.46	-40.2	-42.0	19.0	0.00e+00	0	43	0	0	51	4563
2026-01-26 22:45:55.59	75.04	33.56	-40.1	-41.9	18.9	0.00e+00	0	43	0	0	51	4514
2026-01-26 22:45:56.30	75.29	33.61	-40.1	-41.9	18.9	0.00e+00	0	43	0	0	51	4514
2026-01-26 22:45:57.58	75.76	33.70	-40.1	-41.9	19.0	0.00e+00	0	43	0	0	51	4514
2026-01-26 22:45:58.30	76.02	33.75	-40.1	-41.9	19.1	0.00e+00	0	43	0	0	51	4521
2026-01-26 22:45:59.58	76.49	33.84	-40.0	-41.8	19.2	0.00e+00	0	43	0	0	51	4459
2026-01-26 22:46:00.29	76.75	33.89	-40.0	-41.8	19.2	0.00e+00	0	44	0	0	51	4443
2026-01-26 22:46:01.57	77.22	33.97	-39.8	-41.6	19.3	0.00e+00	0	43	0	0	51	4355
2026-01-26 22:46:02.29	77.48	34.02	-40.0	-41.8	19.1	0.00e+00	0	43	0	0	51	4460
2026-01-26 22:46:03.57	77.96	34.10	-40.1	-41.9	19.1	0.00e+00	0	43	0	0	51	4495
2026-01-26 22:46:04.29	78.23	34.15	-40.2	-42.0	19.0	0.00e+00	0	43	0	0	51	4580
2026-01-26 22:46:05.56	78.70	34.23	-40.3	-42.1	19.0	0.00e+00	0	44	0	0	51	4618
2026-01-26 22:46:06.27	78.97	34.27	-40.3	-42.1	19.1	0.00e+00	0	43	0	0	51	4611
2026-01-26 22:46:07.55	79.45	34.34	-40.4	-42.2	18.9	0.00e+00	0	43	0	0	51	4698
2026-01-26 22:46:08.28	79.73	34.39	-40.4	-42.3	18.8	0.00e+00	0	43	0	0	51	4721
2026-01-26 22:46:09.56	80.21	34.46	-40.2	-42.0	19.0	0.00e+00	0	43	0	0	51	4596
2026-01-26 22:46:10.28	80.48	34.50	-40.1	-41.9	19.2	0.00e+00	0	43	0	0	51	4513
2026-01-26 22:46:11.56	80.97	34.57	-40.0	-41.8	19.3	0.00e+00	0	44	0	0	51	4461
2026-01-26 22:46:12.27	81.25	34.61	-40.1	-41.9	19.2	0.00e+00	0	43	0	0	51	4505
2026-01-26 22:46:13.55	81.74	34.67	-40.1	-41.9	19.2	0.00e+00	0	43	0	0	51	4519
2026-01-26 22:46:14.26	82.01	34.71	-40.1	-41.9	19.1	0.00e+00	0	44	0	0	51	4520
2026-01-26 22:46:15.54	82.51	34.77	-40.1	-41.9	19.0	0.00e+00	0	43	0	0	51	4538
2026-01-26 22:46:16.25	82.78	34.81	-40.0	-41.9	19.1	0.00e+00	0	43	0	0	51	4494
2026-01-26 22:46:17.53	83.28	34.87	-40.0	-41.8	19.2	0.00e+00	0	43	0	0	51	4467
2026-01-26 22:46:18.24	83.56	34.90	-40.0	-41.8	19.2	0.00e+00	0	43	0	0	51	4483
2026-01-26 22:46:19.52	84.06	34.95	-40.1	-42.0	19.1	0.00e+00	0	44	0	0	51	4561
2026-01-26 22:46:20.23	84.34	34.98	-40.2	-42.1	19.0	0.00e+00	0	43	0	0	51	4599
2026-01-26 22:46:21.51	84.84	35.04	-40.6	-42.5	18.6	0.00e+00	0	44	0	0	51	4848
2026-01-26 22:46:22.22	85.12	35.07	-40.7	-42.6	18.4	0.00e+00	0	43	0	0	52	4637
2026-01-26 22:46:23.52	85.63	35.11	-40.6	-42.5	18.5	0.00e+00	0	43	0	0	52	4568
2026-01-26 22:46:24.23	85.91	35.14	-40.5	-42.5	18.5	0.00e+00	0	43	0	0	52	4554
2026-01-26 22:46:25.51	86.42	35.19	-40.6	-42.6	18.4	0.00e+00	0	43	0	0	52	4616
2026-01-26 22:46:26.24	86.71	35.21	-40.7	-42.6	18.4	0.00e+00	0	43	0	0	52	4615
2026-01-26 22:46:27.52	87.22	35.25	-40.3	-42.2	18.8	0.00e+00	0	43	0	0	52	4407
2026-01-26 22:46:28.23	87.51	35.27	-40.3	-42.1	18.9	0.00e+00	0	43	0	0	52	4369
2026-01-26 22:46:29.51	88.02	35.31	-40.4	-42.2	18.8	0.00e+00	0	43	0	0	52	4441
2026-01-26 22:46:30.22	88.30	35.33	-40.3	-42.2	18.8	0.00e+00	0	43	0	0	52	4408
2026-01-26 22:46:31.50	88.82	35.36	-40.3	-42.1	18.8	0.00e+00	0	43	0	0	52	4368
2026-01-26 22:46:32.21	89.10	35.38	-40.4	-42.2	18.8	0.00e+00	0	43	0	0	52	4425
2026-01-26 22:46:33.49	89.62	35.41	-40.4	-42.2	18.8	0.00e+00	0	43	0	0	52	4431
2026-01-26 22:46:34.22	89.91	35.43	-40.2	-42.1	18.9	0.00e+00	0	43	0	0	52	4354
2026-01-26 22:46:35.49	90.42	35.45	-40.2	-42.0	19.0	0.00e+00	0	44	0	0	52	4330
2026-01-26 22:46:36.20	90.71	35.46	-40.3	-42.1	18.9	0.00e+00	0	43	0	0	52	4380
2026-01-26 22:46:37.49	91.23	35.49	-40.3	-42.1	18.9	0.00e+00	0	43	0	0	52	4380
2026-01-26 22:46:38.21	91.52	35.50	-40.2	-42.0	18.9	0.00e+00	0	43	0	0	52	4329
2026-01-26 22:46:39.49	92.04	35.52	-40.0	-41.8	19.2	0.00e+00	0	43	0	0	52	4221
2026-01-26 22:46:40.21	92.34	35.52	-40.1	-41.9	19.2	0.00e+00	0	43	0	0	51	4522
2026-01-26 22:46:41.57	92.89	35.54	-40.3	-42.1	19.0	0.00e+00	0	43	0	0	51	4608
2026-01-26 22:46:42.28	93.18	35.54	-40.2	-42.0	19.0	0.00e+00	0	43	0	0	51	4567
2026-01-26 22:46:43.56	93.70	35.55	-40.1	-41.9	19.1	0.00e+00	0	43	0	0	51	4529
2026-01-26 22:46:44.27	93.99	35.56	-40.1	-41.9	19.1	0.00e+00	0	43	0	0	51	4499
2026-01-26 22:46:45.68	94.56	35.56	-40.2	-41.9	19.1	0.00e+00	0	43	0	0	51	4540
2026-01-26 22:46:46.65	94.95	35.57	-40.3	-42.1	18.9	0.00e+00	0	43	0	0	51	4620
2026-01-26 22:46:47.95	95.48	35.57	-40.4	-42.3	18.8	0.00e+00	0	43	0	0	51	4707
2026-01-26 22:46:48.66	95.77	35.57	-40.2	-42.0	19.1	0.00e+00	0	43	0	0	51	4573
2026-01-26 22:46:50.29	96.43	35.56	-40.0	-41.8	19.2	0.00e+00	0	44	0	0	51	4463
2026-01-26 22:46:50.86	96.67	35.56	-40.1	-41.9	19.2	0.00e+00	0	43	0	0	51	4494
2026-01-26 22:46:52.57	97.36	35.55	-40.2	-42.0	19.0	0.00e+00	0	44	0	0	51	4572
2026-01-26 22:46:53.13	97.59	35.54	-40.2	-42.0	19.0	0.00e+00	0	43	0	0	51	4572
2026-01-26 22:46:54.87	98.30	35.52	-40.3	-42.1	19.0	0.00e+00	0	44	0	0	51	4599
2026-01-26 22:46:55.44	98.53	35.52	-40.2	-42.0	19.0	0.00e+00	0	43	0	0	51	4591
2026-01-26 22:46:57.14	99.22	35.49	-40.4	-42.3	18.9	0.00e+00	0	43	0	0	51	4711
2026-01-26 22:46:57.71	99.45	35.49	-40.4	-42.3	18.8	0.00e+00	0	43	0	0	51	4708
2026-01-26 22:46:59.50	100.17	35.45	-40.3	-42.0	19.0	0.00e+00	0	44	0	0	51	4595
2026-01-26 22:47:00.06	100.40	35.44	-40.2	-42.0	19.1	0.00e+00	0	43	0	0	51	4566
2026-01-26 22:47:02.07	101.21	35.40	-40.3	-42.1	19.0	0.00e+00	0	43	0	0	51	4606
2026-01-26 22:47:02.64	101.44	35.39	-40.2	-42.0	19.0	0.00e+00	0	44	0	0	51	4584
2026-01-26 22:47:04.65	102.25	35.34	-40.2	-42.1	19.0	0.00e+00	0	43	0	0	51	4613
2026-01-26 22:47:05.22	102.48	35.32	-40.3	-42.2	18.9	0.00e+00	0	43	0	0	51	4656
2026-01-26 22:47:06.92	103.16	35.27	-40.6	-42.5	18.6	0.00e+00	0	44	0	0	51	4833
2026-01-26 22:47:07.49	103.39	35.25	-40.7	-42.6	18.4	0.00e+00	0	44	0	0	52	4613
2026-01-26 22:47:09.19	104.06	35.20	-40.6	-42.5	18.5	0.00e+00	0	43	0	0	52	4573
2026-01-26 22:47:09.76	104.29	35.18	-40.5	-42.3	18.6	0.00e+00	0	43	0	0	52	4488
2026-01-26 22:47:11.46	104.97	35.12	-40.4	-42.2	18.7	0.00e+00	0	44	0	0	52	4421
2026-01-26 22:47:12.03	105.19	35.10	-40.3	-42.1	18.8	0.00e+00	0	43	0	0	52	4386
2026-01-26 22:47:13.74	105.87	35.03	-40.3	-42.1	18.9	0.00e+00	0	44	0	0	52	4347
2026-01-26 22:47:14.37	106.12	35.00	-40.2	-42.0	18.9	0.00e+00	0	43	0	0	52	4325
2026-01-26 22:47:15.82	106.69	34.94	-40.2	-42.1	18.9	0.00e+00	0	44	0	0	52	4342
2026-01-26 22:47:16.56	106.98	34.91	-40.1	-41.9	19.1	0.00e+00	0	44	0	0	52	4252
2026-01-26 22:47:17.84	107.48	34.85	-40.3	-42.1	18.9	0.00e+00	0	43	0	0	52	4358
2026-01-26 22:47:18.63	107.78	34.82	-40.3	-42.1	18.9	0.00e+00	0	44	0	0	52	4379
2026-01-26 22:47:20.18	108.39	34.74	-40.4	-42.3	18.7	0.00e+00	0	44	0	0	52	4450
2026-01-26 22:47:20.89	108.66	34.71	-40.7	-42.5	18.5	0.00e+00	0	43	0	0	52	4595
2026-01-26 22:47:22.17	109.15	34.64	-40.7	-42.6	18.5	0.00e+00	0	44	0	0	52	4609
2026-01-26 22:47:22.88	109.43	34.60	-40.6	-42.4	18.6	0.00e+00	0	44	0	0	52	4528
2026-01-26 22:47:24.27	109.96	34.53	-40.4	-42.2	18.8	0.00e+00	0	43	0	0	52	4432
2026-01-26 22:47:24.98	110.23	34.49	-40.3	-42.1	18.9	0.00e+00	0	44	0	0	52	4351
2026-01-26 22:47:26.26	110.72	34.42	-40.5	-42.3	18.7	0.00e+00	0	43	0	0	52	4470
2026-01-26 22:47:26.98	110.99	34.38	-40.6	-42.4	18.6	0.00e+00	0	43	0	0	52	4541
2026-01-26 22:47:28.27	111.48	34.30	-40.5	-42.4	18.6	0.00e+00	0	43	0	0	52	4517
2026-01-26 22:47:28.99	111.75	34.26	-40.5	-42.3	18.7	0.00e+00	0	43	0	0	52	4470
2026-01-26 22:47:30.27	112.23	34.18	-40.2	-42.0	18.9	0.00e+00	0	44	0	0	52	4324
2026-01-26 22:47:30.98	112.50	34.13	-40.1	-41.9	19.0	0.00e+00	0	44	0	0	52	4279
2026-01-26 22:47:32.26	112.98	34.05	-40.2	-42.0	18.9	0.00e+00	0	44	0	0	52	4325
2026-01-26 22:47:32.97	113.24	34.00	-40.2	-42.0	18.9	0.00e+00	0	44	0	0	52	4321
2026-01-26 22:47:34.25	113.71	33.92	-40.0	-41.8	19.2	0.00e+00	0	43	0	0	52	4210
2026-01-26 22:47:35.07	114.01	33.86	-40.0	-41.8	19.3	0.00e+00	0	43	0	0	51	4479
2026-01-26 22:47:36.53	114.55	33.76	-40.3	-42.1	18.9	0.00e+00	0	43	0	0	51	4638
2026-01-26 22:47:37.24	114.81	33.71	-40.6	-42.5	18.5	0.00e+00	0	43	0	0	51	4828
2026-01-26 22:47:38.72	115.35	33.61	-40.5	-42.4	18.6	0.00e+00	0	44	0	0	52	4508
2026-01-26 22:47:39.43	115.60	33.56	-40.2	-42.0	18.8	0.00e+00	0	43	0	0	52	4340
2026-01-26 22:47:40.71	116.06	33.46	-40.0	-41.8	19.0	0.00e+00	0	43	0	0	52	4210
2026-01-26 22:47:41.42	116.32	33.41	-40.0	-41.8	19.1	0.00e+00	0	43	0	0	51	4442
2026-01-26 22:47:42.70	116.77	33.31	-40.1	-41.9	19.1	0.00e+00	0	43	0	0	51	4507
2026-01-26 22:47:43.41	117.03	33.26	-40.1	-41.9	19.1	0.00e+00	0	43	0	0	51	4535
2026-01-26 22:47:44.69	117.48	33.16	-40.2	-42.0	19.1	0.00e+00	0	44	0	0	51	4559
2026-01-26 22:47:45.40	117.73	33.10	-40.3	-42.1	18.9	0.00e+00	0	43	0	0	51	4605
2026-01-26 22:47:46.68	118.18	33.00	-40.3	-42.2	18.9	0.00e+00	0	44	0	0	51	4661
2026-01-26 22:47:47.41	118.43	32.94	-40.2	-42.0	19.0	0.00e+00	0	44	0	0	51	4589
2026-01-26 22:47:48.69	118.87	32.84	-40.1	-41.9	19.2	0.00e+00	0	44	0	0	51	4503
2026-01-26 22:47:49.48	119.15	32.77	-40.1	-41.9	19.2	0.00e+00	0	44	0	0	51	4505
2026-01-26 22:47:50.66	119.55	32.68	-39.8	-41.6	19.4	0.00e+00	0	43	0	0	51	4362
2026-01-26 22:47:51.66	119.89	32.59	-39.7	-41.4	19.5	0.00e+00	0	44	0	0	51	4284
2026-01-26 22:47:52.65	120.23	32.51	-39.5	-41.2	19.7	0.00e+00	0	44	0	0	51	4169
2026-01-26 22:47:53.85	120.64	32.40	-39.5	-41.2	19.8	0.00e+00	0	44	0	0	50	4430
2026-01-26 22:47:54.74	120.93	32.33	-39.6	-41.3	19.7	0.00e+00	0	43	0	0	50	4484
2026-01-26 22:47:55.88	121.31	32.23	-39.7	-41.5	19.5	0.00e+00	0	44	0	0	50	4561
2026-01-26 22:47:56.73	121.60	32.15	-39.6	-41.4	19.5	0.00e+00	0	44	0	0	50	4529
2026-01-26 22:47:57.87	121.97	32.05	-39.6	-41.3	19.6	0.00e+00	0	43	0	0	50	4478
2026-01-26 22:47:58.72	122.25	31.97	-39.6	-41.3	19.6	0.00e+00	0	43	0	0	50	4473
2026-01-26 22:47:59.85	122.62	31.87	-39.5	-41.3	19.6	0.00e+00	0	43	0	0	50	4461
2026-01-26 22:48:00.71	122.90	31.79	-39.5	-41.2	19.7	0.00e+00	0	43	0	0	50	4416
2026-01-26 22:48:01.84	123.27	31.69	-39.5	-41.2	19.7	0.00e+00	0	43	0	0	50	4434
2026-01-26 22:48:02.70	123.54	31.61	-39.3	-41.1	19.8	0.00e+00	0	43	0	0	50	4350
2026-01-26 22:48:03.83	123.91	31.50	-39.2	-40.9	19.9	0.00e+00	0	43	0	0	50	4288
2026-01-26 22:48:04.69	124.18	31.42	-39.2	-40.9	20.0	0.00e+00	0	44	0	0	50	4279
2026-01-26 22:48:05.82	124.54	31.31	-39.3	-41.0	19.8	0.00e+00	0	43	0	0	50	4330
2026-01-26 22:48:06.68	124.81	31.23	-39.4	-41.1	19.7	0.00e+00	0	43	0	0	50	4356
2026-01-26 22:48:07.81	125.16	31.12	-39.6	-41.3	19.6	0.00e+00	0	44	0	0	50	4470
2026-01-26 22:48:08.66	125.42	31.04	-39.5	-41.2	19.7	0.00e+00	0	44	0	0	50	4417
2026-01-26 22:48:09.91	125.81	30.92	-39.5	-41.2	19.7	0.00e+00	0	44	0	0	50	4415
2026-01-26 22:48:10.77	126.07	30.83	-39.5	-41.3	19.7	0.00e+00	0	43	0	0	50	4450
2026-01-26 22:48:11.99	126.45	30.71	-39.4	-41.1	19.8	0.00e+00	0	43	0	0	50	4386
2026-01-26 22:48:12.84	126.70	30.63	-39.2	-40.9	20.1	0.00e+00	0	43	0	0	50	4247
2026-01-26 22:48:13.97	127.05	30.52	-39.3	-41.0	19.9	0.00e+00	0	44	0	0	50	4308
2026-01-26 22:48:14.83	127.30	30.43	-39.3	-41.0	19.9	0.00e+00	0	43	0	0	50	4330
2026-01-26 22:48:16.11	127.68	30.30	-39.4	-41.1	19.8	0.00e+00	0	43	0	0	50	4386
2026-01-26 22:48:16.83	127.90	30.23	-39.5	-41.2	19.7	0.00e+00	0	44	0	0	50	4440
2026-01-26 22:48:18.11	128.27	30.10	-39.6	-41.4	19.6	0.00e+00	0	43	0	0	50	4519
2026-01-26 22:48:18.82	128.48	30.03	-39.6	-41.4	19.6	0.00e+00	0	43	0	0	50	4497
2026-01-26 22:48:20.10	128.85	29.90	-39.5	-41.3	19.7	0.00e+00	0	43	0	0	50	4455
2026-01-26 22:48:20.83	129.06	29.82	-39.4	-41.1	19.8	0.00e+00	0	44	0	0	50	4375
2026-01-26 22:48:22.11	129.43	29.69	-39.4	-41.1	19.7	0.00e+00	0	44	0	0	50	4355
2026-01-26 22:48:22.90	129.66	29.61	-39.3	-41.0	19.8	0.00e+00	0	44	0	0	50	4300
2026-01-26 22:48:24.11	130.00	29.48	-38.9	-40.6	20.1	0.00e+00	0	44	0	0	49	4346
2026-01-26 22:48:24.97	130.24	29.39	-38.8	-40.5	20.2	0.00e+00	0	44	0	0	49	4299
2026-01-26 22:48:26.10	130.56	29.27	-38.9	-40.6	20.1	0.00e+00	0	44	0	0	49	4349
2026-01-26 22:48:26.94	130.79	29.19	-38.7	-40.4	20.3	0.00e+00	0	44	0	0	49	4268
2026-01-26 22:48:28.08	131.10	29.07	-38.7	-40.4	20.4	0.00e+00	0	43	0	0	49	4259
2026-01-26 22:48:28.94	131.34	28.97	-38.8	-40.5	20.3	0.00e+00	0	44	0	0	49	4297
2026-01-26 22:48:30.07	131.65	28.85	-38.8	-40.5	20.3	0.00e+00	0	44	0	0	49	4309
2026-01-26 22:48:31.23	131.96	28.73	-38.9	-40.6	20.2	0.00e+00	0	43	0	0	49	4345
2026-01-26 22:48:32.08	132.19	28.64	-39.0	-40.7	20.0	0.00e+00	0	44	0	0	49	4426
2026-01-26 22:48:33.21	132.49	28.52	-39.2	-40.9	19.8	0.00e+00	0	43	0	0	49	4531
2026-01-26 22:48:34.07	132.72	28.43	-39.4	-41.1	19.6	0.00e+00	0	44	0	0	49	4651
2026-01-26 22:48:35.20	133.02	28.31	-39.4	-41.1	19.7	0.00e+00	0	44	0	0	49	4613
2026-01-26 22:48:36.34	133.32	28.18	-39.3	-41.1	19.8	0.00e+00	0	44	0	0	49	4599
2026-01-26 22:48:37.20	133.54	28.09	-39.2	-40.9	20.0	0.00e+00	0	44	0	0	49	4501
2026-01-26 22:48:38.33	133.83	27.97	-39.1	-40.8	20.0	0.00e+00	0	43	0	0	49	4474
2026-01-26 22:48:39.19	134.05	27.88	-39.0	-40.7	20.1	0.00e+00	0	43	0	0	49	4413
2026-01-26 22:48:40.33	134.34	27.75	-38.9	-40.6	20.2	0.00e+00	0	44	0	0	49	4364
2026-01-26 22:48:41.18	134.56	27.66	-38.9	-40.5	20.2	0.00e+00	0	44	0	0	49	4331
2026-01-26 22:48:42.32	134.84	27.54	-38.8	-40.5	20.3	0.00e+00	0	43	0	0	49	4317
2026-01-26 22:48:43.17	135.06	27.44	-38.9	-40.5	20.3	0.00e+00	0	43	0	0	49	4320
2026-01-26 22:48:44.31	135.34	27.32	-38.9	-40.5	20.3	0.00e+00	0	43	0	0	49	4334
2026-01-26 22:48:45.16	135.55	27.23	-38.8	-40.5	20.3	0.00e+00	0	44	0	0	49	4306
2026-01-26 22:48:46.41	135.85	27.09	-38.9	-40.6	20.3	0.00e+00	0	43	0	0	49	4364
2026-01-26 22:48:47.26	136.06	27.00	-39.0	-40.6	20.2	0.00e+00	0	43	0	0	49	4377
2026-01-26 22:48:48.40	136.34	26.87	-38.8	-40.5	20.2	0.00e+00	0	44	0	0	49	4315
2026-01-26 22:48:49.25	136.54	26.78	-38.8	-40.5	20.3	0.00e+00	0	44	0	0	49	4298
2026-01-26 22:48:50.52	136.84	26.64	-38.8	-40.4	20.4	0.00e+00	0	44	0	0	49	4268
2026-01-26 22:48:51.30	137.03	26.56	-38.8	-40.4	20.4	0.00e+00	0	43	0	0	49	4280
2026-01-26 22:48:52.51	137.31	26.42	-38.8	-40.4	20.3	0.00e+00	0	44	0	0	49	4276
2026-01-26 22:48:53.36	137.51	26.33	-38.8	-40.5	20.3	0.00e+00	0	44	0	0	49	4326
2026-01-26 22:48:54.49	137.77	26.21	-39.0	-40.7	20.1	0.00e+00	0	44	0	0	49	4430
2026-01-26 22:48:55.35	137.97	26.11	-39.1	-40.8	20.1	0.00e+00	0	43	0	0	49	4445
2026-01-26 22:48:56.48	138.23	25.99	-39.1	-40.8	20.1	0.00e+00	0	43	0	0	49	4489
2026-01-26 22:48:57.34	138.42	25.89	-39.1	-40.8	20.1	0.00e+00	0	43	0	0	49	4478
2026-01-26 22:48:58.47	138.68	25.77	-39.1	-40.8	20.0	0.00e+00	0	43	0	0	49	4474
2026-01-26 22:48:59.33	138.87	25.67	-39.0	-40.7	20.2	0.00e+00	0	43	0	0	49	4395
2026-01-26 22:49:00.46	139.12	25.55	-38.9	-40.6	20.3	0.00e+00	0	44	0	0	49	4342
2026-01-26 22:49:01.31	139.31	25.46	-38.7	-40.3	20.5	0.00e+00	0	44	0	0	49	4222
2026-01-26 22:49:02.45	139.56	25.33	-38.6	-40.2	20.6	0.00e+00	0	44	0	0	49	4160
2026-01-26 22:49:03.30	139.74	25.24	-38.6	-40.3	20.6	0.00e+00	0	43	0	0	49	4199
2026-01-26 22:49:04.44	139.99	25.11	-38.6	-40.2	20.6	0.00e+00	0	43	0	0	49	4175
2026-01-26 22:49:05.29	140.17	25.02	-38.5	-40.1	20.7	0.00e+00	0	43	0	0	49	4130
2026-01-26 22:49:06.43	140.42	24.89	-38.6	-40.2	20.6	0.00e+00	0	43	0	0	49	4164
2026-01-26 22:49:07.28	140.60	24.80	-38.6	-40.3	20.5	0.00e+00	0	44	0	0	49	4199
2026-01-26 22:49:08.51	140.86	24.67	-38.7	-40.3	20.5	0.00e+00	0	44	0	0	49	4228
2026-01-26 22:49:09.37	141.04	24.57	-38.6	-40.3	20.5	0.00e+00	0	43	0	0	49	4210
2026-01-26 22:49:10.50	141.27	24.45	-38.5	-40.2	20.6	0.00e+00	0	44	0	0	49	4161
2026-01-26 22:49:11.37	141.45	24.35	-38.6	-40.2	20.5	0.00e+00	0	43	0	0	49	4175
2026-01-26 22:49:12.70	141.72	24.21	-38.6	-40.2	20.5	0.00e+00	0	43	0	0	49	4175
2026-01-26 22:49:13.41	141.87	24.13	-38.6	-40.2	20.5	0.00e+00	0	43	0	0	49	4190
2026-01-26 22:49:14.69	142.13	23.99	-38.5	-40.2	20.5	0.00e+00	0	44	0	0	49	4155
2026-01-26 22:49:15.40	142.27	23.91	-38.6	-40.3	19.9	0.00e+00	0	43	0	0	49	4208
2026-01-26 22:49:16.68	142.52	23.77	-38.7	-40.3	20.3	0.00e+00	0	43	0	0	49	4241
2026-01-26 22:49:17.39	142.67	23.70	-38.7	-40.4	20.3	0.00e+00	0	43	0	0	49	4253
2026-01-26 22:49:18.67	142.92	23.56	-38.8	-40.5	20.3	0.00e+00	0	43	0	0	49	4303
2026-01-26 22:49:19.48	143.08	23.47	-38.9	-40.6	20.2	0.00e+00	0	43	0	0	49	4370
2026-01-26 22:49:20.62	143.30	23.34	-38.8	-40.5	20.3	0.00e+00	0	43	0	0	49	4305
2026-01-26 22:49:21.69	143.50	23.23	-38.8	-40.5	20.3	0.00e+00	0	44	0	0	49	4314
2026-01-26 22:49:22.72	143.70	23.12	-38.8	-40.5	20.3	0.00e+00	0	43	0	0	49	4323
2026-01-26 22:49:23.71	143.89	23.01	-38.9	-40.6	20.2	0.00e+00	0	43	0	0	49	4353
2026-01-26 22:49:24.70	144.07	22.90	-39.1	-40.7	20.1	0.00e+00	0	44	0	0	49	4440
2026-01-26 22:49:25.70	144.26	22.79	-39.1	-40.8	20.0	0.00e+00	0	44	0	0	49	4482
2026-01-26 22:49:26.70	144.45	22.69	-39.2	-40.8	19.9	0.00e+00	0	43	0	0	49	4491
2026-01-26 22:49:27.69	144.63	22.58	-39.1	-40.8	20.0	0.00e+00	0	44	0	0	49	4473
2026-01-26 22:49:28.69	144.82	22.47	-39.2	-40.9	19.9	0.00e+00	0	44	0	0	49	4506
2026-01-26 22:49:29.68	145.00	22.37	-39.2	-40.9	19.9	0.00e+00	0	44	0	0	49	4517
2026-01-26 22:49:30.68	145.18	22.26	-39.3	-41.1	19.7	0.00e+00	0	43	0	0	49	4617
2026-01-26 22:49:31.68	145.36	22.15	-39.2	-40.9	19.9	0.00e+00	0	43	0	0	49	4512
2026-01-26 22:49:32.67	145.53	22.05	-39.3	-41.0	19.8	0.00e+00	0	43	0	0	49	4577
2026-01-26 22:49:33.66	145.71	21.94	-39.2	-40.9	19.9	0.00e+00	0	43	0	0	49	4531
2026-01-26 22:49:34.66	145.89	21.83	-39.1	-40.8	20.0	0.00e+00	0	43	0	0	49	4468
2026-01-26 22:49:35.65	146.06	21.73	-39.0	-40.7	20.0	0.00e+00	0	43	0	0	49	4441
2026-01-26 22:49:36.65	146.23	21.62	-39.0	-40.8	19.9	0.00e+00	0	44	0	0	49	4461
2026-01-26 22:49:37.64	146.41	21.52	-39.1	-40.9	19.8	0.00e+00	0	44	0	0	49	4514
2026-01-26 22:49:38.64	146.58	21.41	-39.2	-41.0	19.8	0.00e+00	0	43	0	0	49	4571
2026-01-26 22:49:39.64	146.75	21.31	-39.3	-41.1	19.7	0.00e+00	0	44	0	0	49	4610
2026-01-26 22:49:40.63	146.92	21.20	-39.4	-41.2	19.7	0.00e+00	0	44	0	0	49	4654
2026-01-26 22:49:41.62	147.08	21.10	-39.4	-41.2	19.6	0.00e+00	0	43	0	0	49	4675
2026-01-26 22:49:42.62	147.25	20.99	-39.4	-41.2	19.6	0.00e+00	0	44	0	0	49	4691
2026-01-26 22:49:43.61	147.41	20.89	-39.4	-41.2	19.7	0.00e+00	0	44	0	0	49	4688
2026-01-26 22:49:44.61	147.58	20.79	-39.4	-41.2	19.7	0.00e+00	0	43	0	0	49	4662
2026-01-26 22:49:45.60	147.74	20.68	-39.3	-41.1	19.7	0.00e+00	0	44	0	0	49	4620
2026-01-26 22:49:46.60	147.91	20.58	-39.3	-41.0	19.8	0.00e+00	0	44	0	0	49	4574
2026-01-26 22:49:47.60	148.07	20.47	-39.3	-41.0	19.8	0.00e+00	0	43	0	0	49	4587
2026-01-26 22:49:48.60	148.23	20.37	-39.3	-41.1	19.7	0.00e+00	0	43	0	0	49	4603
2026-01-26 22:49:49.59	148.39	20.27	-39.3	-41.0	19.7	0.00e+00	0	44	0	0	49	4586
2026-01-26 22:49:50.59	148.55	20.16	-39.4	-41.1	19.7	0.00e+00	0	43	0	0	49	4633
2026-01-26 22:49:51.76	148.73	20.04	-39.4	-41.2	19.7	0.00e+00	0	43	0	0	49	4671
2026-01-26 22:49:52.61	148.86	19.96	-39.4	-41.1	19.7	0.00e+00	0	43	0	0	49	4616
2026-01-26 22:49:53.97	149.07	19.82	-39.2	-40.9	19.9	0.00e+00	0	43	0	0	49	4544
2026-01-26 22:49:54.68	149.18	19.74	-39.1	-40.8	20.0	0.00e+00	0	43	0	0	49	4484
2026-01-26 22:49:56.18	149.41	19.59	-39.0	-40.7	20.1	0.00e+00	0	44	0	0	49	4393
2026-01-26 22:49:56.89	149.52	19.52	-38.9	-40.6	20.2	0.00e+00	0	44	0	0	49	4341
2026-01-26 22:49:58.25	149.73	19.38	-38.9	-40.6	20.2	0.00e+00	0	43	0	0	49	4371
2026-01-26 22:49:58.95	149.83	19.31	-38.9	-40.6	20.1	0.00e+00	0	43	0	0	49	4370
2026-01-26 22:50:00.23	150.02	19.18	-38.9	-40.6	20.2	0.00e+00	0	44	0	0	49	4358
2026-01-26 22:50:00.95	150.13	19.11	-39.0	-40.7	20.1	0.00e+00	0	43	0	0	49	4402
2026-01-26 22:50:02.23	150.32	18.98	-39.0	-40.7	20.1	0.00e+00	0	44	0	0	49	4422
2026-01-26 22:50:02.95	150.43	18.91	-38.9	-40.6	20.2	0.00e+00	0	43	0	0	49	4365
2026-01-26 22:50:04.23	150.61	18.78	-38.8	-40.4	20.3	0.00e+00	0	44	0	0	49	4281
2026-01-26 22:50:04.94	150.71	18.71	-38.7	-40.4	20.3	0.00e+00	0	44	0	0	49	4274
2026-01-26 22:50:06.22	150.90	18.58	-38.9	-40.6	20.2	0.00e+00	0	43	0	0	49	4363
2026-01-26 22:50:07.01	151.01	18.50	-39.0	-40.6	20.1	0.00e+00	0	43	0	0	49	4383
2026-01-26 22:50:08.19	151.18	18.38	-39.0	-40.7	20.1	0.00e+00	0	44	0	0	49	4418
2026-01-26 22:50:09.05	151.30	18.30	-39.1	-40.8	20.0	0.00e+00	0	44	0	0	49	4485
2026-01-26 22:50:10.18	151.46	18.18	-39.1	-40.9	19.9	0.00e+00	0	44	0	0	49	4504
2026-01-26 22:50:11.24	151.61	18.08	-39.2	-40.9	19.9	0.00e+00	0	43	0	0	49	4527
2026-01-26 22:50:12.11	151.73	17.99	-39.2	-40.9	19.9	0.00e+00	0	44	0	0	49	4510
2026-01-26 22:50:13.24	151.88	17.88	-39.2	-40.9	19.8	0.00e+00	0	43	0	0	49	4525
2026-01-26 22:50:14.10	152.00	17.80	-39.2	-40.9	19.8	0.00e+00	0	44	0	0	49	4525
2026-01-26 22:50:15.23	152.15	17.69	-39.3	-41.0	19.8	0.00e+00	0	44	0	0	49	4583
2026-01-26 22:50:16.09	152.27	17.60	-39.3	-41.0	19.7	0.00e+00	0	43	0	0	49	4589
2026-01-26 22:50:17.22	152.42	17.49	-39.3	-41.0	19.8	0.00e+00	0	44	0	0	49	4562
2026-01-26 22:50:18.08	152.53	17.41	-39.3	-41.1	19.7	0.00e+00	0	44	0	0	49	4599
2026-01-26 22:50:19.22	152.68	17.30	-39.3	-41.1	19.6	0.00e+00	0	43	0	0	49	4618
2026-01-26 22:50:20.07	152.80	17.22	-39.3	-41.1	19.7	0.00e+00	0	43	0	0	49	4611
2026-01-26 22:50:21.30	152.96	17.10	-39.5	-41.2	19.5	0.00e+00	0	43	0	0	49	4704
2026-01-26 22:50:22.15	153.07	17.02	-39.4	-41.1	19.6	0.00e+00	0	43	0	0	49	4648
2026-01-26 22:50:23.37	153.22	16.90	-39.5	-41.3	19.4	0.00e+00	0	44	0	0	49	4745
2026-01-26 22:50:24.22	153.33	16.82	-39.6	-41.4	19.4	0.00e+00	0	44	0	0	49	4763
2026-01-26 22:50:25.36	153.48	16.71	-39.6	-41.4	19.4	0.00e+00	0	44	0	0	49	4775
2026-01-26 22:50:26.21	153.59	16.63	-39.6	-41.4	19.4	0.00e+00	0	43	0	0	49	4777
2026-01-26 22:50:27.35	153.73	16.52	-39.6	-41.4	19.4	0.00e+00	0	43	0	0	49	4769
2026-01-26 22:50:28.21	153.84	16.44	-39.5	-41.3	19.5	0.00e+00	0	43	0	0	49	4723
2026-01-26 22:50:29.34	153.98	16.33	-39.6	-41.4	19.4	0.00e+00	0	43	0	0	49	4774
2026-01-26 22:50:30.29	154.10	16.24	-39.6	-41.4	19.4	0.00e+00	0	43	0	0	49	4807
2026-01-26 22:50:31.46	154.24	16.13	-39.6	-41.4	19.4	0.00e+00	0	43	0	0	49	4775
2026-01-26 22:50:32.31	154.34	16.06	-39.6	-41.5	19.3	0.00e+00	0	43	0	0	49	4815
2026-01-26 22:50:33.45	154.48	15.95	-39.6	-41.4	19.3	0.00e+00	0	43	0	0	49	4809
2026-01-26 22:50:34.30	154.58	15.87	-39.7	-41.5	19.3	0.00e+00	0	44	0	0	49	4840
2026-01-26 22:50:35.44	154.72	15.76	-39.7	-41.5	19.2	0.00e+00	0	44	0	0	50	4597
2026-01-26 22:50:36.29	154.82	15.68	-39.7	-41.6	19.2	0.00e+00	0	43	0	0	50	4615
2026-01-26 22:50:37.42	154.96	15.58	-39.9	-41.7	19.0	0.00e+00	0	44	0	0	50	4681
2026-01-26 22:50:38.28	155.06	15.50	-39.8	-41.7	19.1	0.00e+00	0	44	0	0	50	4674
2026-01-26 22:50:39.41	155.19	15.40	-39.8	-41.7	19.1	0.00e+00	0	43	0	0	50	4658
2026-01-26 22:50:40.27	155.29	15.32	-39.8	-41.7	19.1	0.00e+00	0	43	0	0	50	4657
2026-01-26 22:50:41.40	155.42	15.21	-40.0	-41.8	18.9	0.00e+00	0	43	0	0	50	4744
2026-01-26 22:50:42.25	155.52	15.14	-39.9	-41.8	18.9	0.00e+00	0	43	0	0	50	4720
2026-01-26 22:50:43.41	155.65	15.03	-40.0	-41.9	18.9	0.00e+00	0	43	0	0	50	4784
2026-01-26 22:50:44.26	155.75	14.95	-40.1	-41.9	18.8	0.00e+00	0	43	0	0	50	4814
2026-01-26 22:50:45.40	155.88	14.85	-40.1	-42.0	18.8	0.00e+00	0	44	0	0	50	4819
2026-01-26 22:50:46.25	155.97	14.77	-40.0	-41.9	18.9	0.00e+00	0	43	0	0	50	4784
2026-01-26 22:50:47.52	156.11	14.66	-40.1	-42.0	18.5	0.00e+00	0	44	0	0	50	4825
2026-01-26 22:50:48.23	156.19	14.60	-40.0	-41.8	19.0	0.00e+00	0	43	0	0	50	4748
2026-01-26 22:50:49.51	156.33	14.48	-39.9	-41.8	19.0	0.00e+00	0	44	0	0	50	4730
2026-01-26 22:50:50.23	156.41	14.42	-39.9	-41.8	19.0	0.00e+00	0	44	0	0	50	4726
2026-01-26 22:50:51.51	156.55	14.30	-39.9	-41.7	19.1	0.00e+00	0	44	0	0	50	4696
2026-01-26 22:50:52.24	156.63	14.24	-39.9	-41.8	19.0	0.00e+00	0	44	0	0	50	4717
2026-01-26 22:50:53.52	156.77	14.12	-40.0	-41.8	19.0	2.07e-04	0	43	0	0	50	4755
2026-01-26 22:50:54.25	156.85	14.06	-39.9	-41.7	19.1	0.00e+00	0	43	0	0	50	4668
2026-01-26 22:50:55.53	156.98	13.95	-39.9	-41.7	19.1	0.00e+00	0	44	0	0	50	4678
2026-01-26 22:50:56.25	157.06	13.88	-39.9	-41.7	19.1	2.18e-03	0	44	0	0	50	4696
2026-01-26 22:50:57.53	157.19	13.77	-40.0	-41.8	19.0	0.00e+00	0	43	0	0	50	4737
2026-01-26 22:50:58.24	157.27	13.71	-39.9	-41.8	19.1	0.00e+00	0	43	0	0	50	4706
2026-01-26 22:50:59.55	157.41	13.59	-40.1	-41.9	18.9	0.00e+00	0	44	0	0	50	4774
2026-01-26 22:51:00.26	157.48	13.53	-40.1	-41.9	18.9	0.00e+00	0	44	0	0	50	4771
2026-01-26 22:51:01.59	157.62	13.42	-40.1	-41.9	18.8	0.00e+00	0	43	0	0	50	4805
2026-01-26 22:51:02.30	157.69	13.36	-40.1	-41.9	18.9	0.00e+00	0	44	0	0	51	4538
2026-01-26 22:51:03.65	157.83	13.24	-40.1	-42.0	18.8	0.00e+00	0	44	0	0	51	4549
2026-01-26 22:51:04.36	157.90	13.18	-40.2	-42.0	18.7	0.00e+00	0	43	0	0	51	4597
2026-01-26 22:51:05.64	158.03	13.07	-40.2	-42.0	18.7	0.00e+00	0	43	0	0	51	4594
2026-01-26 22:51:06.69	158.13	12.98	-40.3	-42.1	18.6	0.00e+00	0	43	0	0	51	4636
2026-01-26 22:51:07.55	158.22	12.90	-40.3	-42.2	18.5	0.00e+00	0	44	0	0	51	4672
2026-01-26 22:51:08.68	158.33	12.81	-40.4	-42.2	18.4	0.00e+00	0	44	0	0	51	4695
2026-01-26 22:51:09.53	158.41	12.74	-40.4	-42.3	18.4	0.00e+00	0	44	0	0	51	4707
2026-01-26 22:51:10.67	158.52	12.64	-40.3	-42.2	18.5	4.80e-03	0	43	0	0	51	4678
2026-01-26 22:51:11.52	158.61	12.57	-40.4	-42.2	18.5	0.00e+00	0	44	0	0	51	4695
2026-01-26 22:51:12.66	158.72	12.47	-40.5	-42.3	18.4	0.00e+00	0	44	0	0	51	4750
2026-01-26 22:51:13.52	158.80	12.40	-40.4	-42.3	18.4	1.18e-02	0	43	0	0	51	4734
2026-01-26 22:51:14.65	158.91	12.30	-40.4	-42.3	18.4	0.00e+00	0	43	0	0	51	4732
2026-01-26 22:51:15.50	158.99	12.23	-40.4	-42.3	18.5	0.00e+00	0	43	0	0	51	4724
2026-01-26 22:51:16.64	159.10	12.14	-40.3	-42.2	18.5	0.00e+00	0	43	0	0	51	4686
2026-01-26 22:51:17.49	159.18	12.07	-40.3	-42.2	18.5	0.00e+00	0	44	0	0	51	4680
2026-01-26 22:51:18.63	159.28	11.97	-40.3	-42.1	18.6	0.00e+00	0	44	0	0	51	4648
2026-01-26 22:51:19.48	159.36	11.90	-40.3	-42.1	18.6	0.00e+00	0	43	0	0	51	4642
2026-01-26 22:51:20.62	159.47	11.81	-40.4	-42.2	18.5	0.00e+00	0	44	0	0	51	4705
2026-01-26 22:51:21.47	159.55	11.74	-40.4	-42.3	18.4	0.00e+00	0	44	0	0	51	4751
2026-01-26 22:51:22.61	159.65	11.64	-40.4	-42.3	18.4	0.00e+00	0	44	0	0	51	4738
2026-01-26 22:51:23.46	159.73	11.57	-40.4	-42.3	18.4	0.00e+00	0	44	0	0	51	4736
2026-01-26 22:51:24.60	159.83	11.48	-40.5	-42.4	18.4	0.00e+00	0	43	0	0	51	4777
2026-01-26 22:51:25.82	159.94	11.38	-40.4	-42.2	18.5	0.00e+00	0	44	0	0	51	4692
2026-01-26 22:51:26.67	160.02	11.31	-40.3	-42.2	18.5	0.00e+00	0	43	0	0	51	4684
2026-01-26 22:51:27.81	160.12	11.22	-40.4	-42.3	18.4	0.00e+00	0	44	0	0	51	4716
2026-01-26 22:51:28.66	160.20	11.15	-40.4	-42.3	18.4	0.00e+00	0	44	0	0	51	4736
2026-01-26 22:51:29.79	160.30	11.06	-40.4	-42.3	18.4	0.00e+00	0	44	0	0	51	4722
2026-01-26 22:51:30.65	160.37	10.99	-40.5	-42.5	18.0	0.00e+00	0	44	0	0	51	4820
2026-01-26 22:51:31.79	160.47	10.90	-40.6	-42.5	18.2	0.00e+00	0	43	0	0	51	4868
2026-01-26 22:51:32.64	160.54	10.83	-40.7	-42.7	18.0	0.00e+00	0	43	0	0	52	4672
2026-01-26 22:51:33.77	160.64	10.74	-40.7	-42.6	18.0	0.00e+00	0	44	0	0	52	4647
2026-01-26 22:51:34.63	160.72	10.67	-40.8	-42.8	17.9	0.00e+00	0	43	0	0	52	4723
2026-01-26 22:51:35.76	160.81	10.58	-40.9	-42.9	17.7	0.00e+00	0	44	0	0	52	4781
2026-01-26 22:51:36.62	160.89	10.51	-40.9	-42.9	17.7	0.00e+00	0	44	0	0	52	4803
2026-01-26 22:51:37.75	160.98	10.42	-41.0	-43.0	17.6	0.00e+00	0	44	0	0	52	4861
2026-01-26 22:51:38.60	161.05	10.36	-41.1	-43.1	17.6	0.00e+00	0	44	0	0	52	4906
2026-01-26 22:51:39.74	161.15	10.27	-41.2	-43.2	17.5	0.00e+00	0	43	0	0	52	4957
2026-01-26 22:51:40.60	161.22	10.20	-41.2	-43.3	17.4	0.00e+00	0	43	0	0	53	4718
2026-01-26 22:51:41.74	161.31	10.11	-41.2	-43.2	17.4	0.00e+00	0	43	0	0	53	4692
2026-01-26 22:51:42.59	161.38	10.04	-41.1	-43.2	17.5	0.00e+00	0	44	0	0	53	4677
2026-01-26 22:51:43.72	161.48	9.96	-41.2	-43.3	17.4	0.00e+00	0	44	0	0	53	4716
2026-01-26 22:51:44.57	161.55	9.89	-41.2	-43.3	17.4	0.00e+00	0	43	0	0	53	4718
2026-01-26 22:51:45.71	161.64	9.80	-41.2	-43.3	17.3	0.00e+00	0	44	0	0	53	4748
2026-01-26 22:51:46.60	161.71	9.73	-41.3	-43.4	17.3	0.00e+00	0	43	0	0	53	4772
2026-01-26 22:51:47.91	161.82	9.63	-41.3	-43.4	16.0	0.00e+00	0	44	0	0	53	4772
2026-01-26 22:51:48.62	161.87	9.58	-41.2	-43.3	17.3	0.00e+00	0	44	0	0	53	4718
2026-01-26 22:51:49.90	161.97	9.48	-41.2	-43.3	17.3	0.00e+00	0	44	0	0	53	4708
2026-01-26 22:51:50.67	162.04	9.42	-41.2	-43.3	17.3	0.00e+00	0	44	0	0	53	4726
2026-01-26 22:51:52.23	162.16	9.30	-41.1	-43.2	17.4	0.00e+00	0	44	0	0	53	4671
2026-01-26 22:51:52.85	162.21	9.25	-41.2	-43.3	17.2	0.00e+00	0	44	0	0	53	4734
2026-01-26 22:51:54.41	162.33	9.14	-41.3	-43.4	17.2	0.00e+00	0	44	0	0	53	4769
2026-01-26 22:51:55.03	162.38	9.09	-41.1	-43.2	17.4	0.00e+00	0	43	0	0	53	4671
2026-01-26 22:51:56.59	162.50	8.97	-41.7	-43.9	16.8	0.00e+00	0	43	0	0	53	5046
2026-01-26 22:51:57.30	162.55	8.92	-49.0	-61.2	3.8	1.40e+00	0	44	104	0	68	15687
2026-01-26 22:51:58.58	162.65	8.82	-49.0	-62.4	3.8	1.49e+00	0	44	104	0	68	17916
2026-01-26 22:51:59.29	162.70	8.77	-49.2	-62.5	3.8	1.49e+00	0	44	104	0	69	17125
2026-01-26 22:52:00.57	162.80	8.67	-49.2	-62.6	3.8	1.49e+00	0	44	104	0	69	17429
2026-01-26 22:52:01.28	162.85	8.62	-49.5	-62.6	3.8	1.49e+00	0	44	104	0	69	17439
2026-01-26 22:52:02.55	162.95	8.53	-49.6	-62.7	3.8	1.49e+00	0	44	104	0	69	17679
2026-01-26 22:52:03.26	163.00	8.47	-49.3	-62.8	3.8	1.49e+00	0	44	104	0	69	17697
2026-01-26 22:52:04.54	163.09	8.38	-49.7	-62.8	3.8	1.49e+00	0	44	104	0	70	16842
2026-01-26 22:52:05.27	163.15	8.32	-49.8	-62.8	3.8	1.49e+00	0	44	104	0	70	16798
2026-01-26 22:52:06.59	163.24	8.23	-49.9	-62.9	3.8	1.49e+00	0	44	104	0	70	16893
2026-01-26 22:52:07.30	163.30	8.18	-49.8	-62.8	3.8	1.49e+00	0	44	104	0	70	16873
2026-01-26 22:52:08.65	163.39	8.08	-49.8	-62.9	3.8	1.49e+00	0	44	104	0	70	16933
2026-01-26 22:52:09.36	163.45	8.02	-49.9	-62.9	3.8	1.49e+00	0	44	104	0	70	16911
2026-01-26 22:52:10.70	163.54	7.93	-49.7	-62.9	3.8	1.49e+00	0	44	104	0	70	16925
2026-01-26 22:52:11.41	163.59	7.87	-49.9	-62.9	3.8	1.49e+00	0	44	104	0	70	16928
2026-01-26 22:52:12.75	163.69	7.78	-49.9	-62.9	3.8	1.49e+00	0	44	104	0	70	16936
2026-01-26 22:52:13.46	163.74	7.73	-49.9	-62.9	3.8	1.49e+00	0	44	104	0	70	16903
2026-01-26 22:52:14.81	163.83	7.63	-49.8	-62.9	3.8	1.49e+00	0	44	104	0	70	16920
2026-01-26 22:52:15.51	163.88	7.58	-49.8	-62.9	3.8	1.49e+00	0	44	104	0	70	16914
2026-01-26 22:52:16.86	163.98	7.48	-49.9	-62.9	3.8	1.49e+00	0	44	104	0	70	16919
2026-01-26 22:52:17.57	164.03	7.43	-49.7	-62.9	3.8	1.49e+00	0	44	104	0	70	16906
2026-01-26 22:52:18.84	164.11	7.34	-49.7	-62.9	3.8	1.49e+00	0	43	104	0	70	16937
2026-01-26 22:52:19.57	164.16	7.29	-49.7	-62.8	3.8	1.49e+00	0	44	104	0	70	16838
2026-01-26 22:52:20.85	164.25	7.20	-49.7	-62.9	3.8	1.49e+00	0	44	104	0	70	16913
2026-01-26 22:52:21.55	164.30	7.15	-49.6	-62.9	3.8	1.49e+00	0	44	104	0	70	16916
2026-01-26 22:52:22.83	164.39	7.06	-49.4	-62.8	3.8	1.49e+00	0	44	104	0	70	16840
2026-01-26 22:52:23.56	164.44	7.00	-49.5	-62.8	3.8	1.49e+00	0	44	104	0	70	16845
2026-01-26 22:52:24.83	164.52	6.91	-49.5	-62.8	3.8	1.49e+00	0	44	104	0	70	16810
2026-01-26 22:52:25.54	164.57	6.86	-49.4	-62.8	3.8	1.49e+00	0	44	104	0	70	16846
2026-01-26 22:52:26.82	164.65	6.77	-49.4	-62.8	3.8	1.49e+00	0	44	104	0	70	16796
2026-01-26 22:52:27.53	164.70	6.72	-49.4	-62.8	3.8	1.49e+00	0	44	104	0	70	16804
2026-01-26 22:52:28.81	164.78	6.64	-49.4	-62.8	3.8	1.49e+00	0	44	104	0	70	16848
2026-01-26 22:52:29.52	164.83	6.59	-49.4	-62.8	3.8	1.49e+00	0	43	104	0	70	16827
2026-01-26 22:52:30.80	164.92	6.50	-49.5	-62.8	3.8	1.49e+00	0	44	104	0	70	16883
2026-01-26 22:52:31.51	164.96	6.45	-49.4	-62.8	3.8	1.49e+00	0	44	104	0	70	16813
2026-01-26 22:52:32.78	165.04	6.36	-49.4	-62.8	3.8	1.49e+00	0	44	104	0	70	16774
2026-01-26 22:52:33.49	165.09	6.31	-49.4	-62.8	3.8	1.49e+00	0	44	104	0	70	16866
2026-01-26 22:52:34.77	165.17	6.22	-49.4	-62.8	3.8	1.49e+00	0	44	104	0	70	16828
2026-01-26 22:52:35.48	165.22	6.17	-49.4	-62.8	3.8	1.49e+00	0	44	104	0	70	16755
2026-01-26 22:52:36.76	165.30	6.09	-49.5	-62.8	3.8	1.49e+00	0	44	104	0	70	16781
2026-01-26 22:52:37.47	165.34	6.04	-49.4	-62.8	3.8	1.49e+00	0	44	104	0	70	16813
2026-01-26 22:52:38.74	165.42	5.95	-49.4	-62.8	3.8	1.49e+00	0	43	104	0	70	16771
2026-01-26 22:52:39.45	165.47	5.90	-49.4	-62.8	3.8	1.49e+00	0	44	104	0	70	16836
2026-01-26 22:52:40.73	165.55	5.81	-49.4	-62.8	3.8	1.49e+00	0	44	104	0	70	16792
2026-01-26 22:52:41.44	165.59	5.77	-49.5	-62.8	3.8	1.49e+00	0	44	104	0	70	16817
2026-01-26 22:52:42.72	165.67	5.68	-49.4	-62.8	3.8	1.49e+00	0	44	104	0	70	16781
2026-01-26 22:52:43.44	165.72	5.63	-49.4	-62.8	3.8	1.49e+00	0	44	104	0	70	16809
2026-01-26 22:52:44.72	165.80	5.54	-49.4	-62.8	3.8	1.49e+00	0	44	104	0	70	16836
2026-01-26 22:52:45.43	165.84	5.50	-49.4	-62.8	3.8	1.49e+00	0	44	104	0	70	16778
2026-01-26 22:52:46.70	165.92	5.41	-49.4	-62.8	3.8	1.49e+00	0	44	104	0	70	16837
2026-01-26 22:52:47.41	165.96	5.36	-49.4	-62.8	3.8	1.49e+00	0	44	104	0	70	16789
2026-01-26 22:52:48.69	166.04	5.28	-49.4	-62.8	3.8	1.49e+00	0	44	104	0	70	16828
2026-01-26 22:52:49.41	166.08	5.23	-49.4	-62.8	3.8	1.49e+00	0	44	104	0	70	16820
2026-01-26 22:52:50.69	166.16	5.14	-49.4	-62.8	3.8	1.49e+00	0	44	104	0	70	16823
2026-01-26 22:52:51.42	166.20	5.10	-49.4	-62.8	3.8	1.49e+00	0	44	104	0	70	16790
2026-01-26 22:52:52.69	166.28	5.01	-49.4	-62.8	3.8	1.49e+00	0	44	104	0	70	16827
2026-01-26 22:52:53.40	166.32	4.96	-49.4	-62.8	3.8	1.49e+00	0	44	104	0	70	16793

#Closed at: 2026-01-26 22:52:54
#Recorded file [0 MB]: D:/Data/31040_260127_014039.dat