passes_logs/2026/01/26/T1/T1__20260126_011504_AQUA_rec.log

#Pass ID: 20260126_011504_AQUA
#Satellite: AQUA
#Configuration: AQUA
#almurnet v.1.7.20251203
#Start time: 2026-01-26 01:15:06

#Version: 2.0.20230620
#Station: T1
#Location: 37.570604 lon 55.790049 lat
#TLE: 1 27424U 02022A   26025.50647354  .00001868  00000+0  38363-3 0  9992
#TLE: 2 27424  98.4099 352.1114 0001896  65.7986  47.0097 14.61858879262422

#Time	Az	El	Level	Level2	SNR	BER	BlckErr	Temp	State	Recorded	gain1	gain2
2026-01-26 01:15:06.05	17.10	5.12	-46.6	-69.7	3.7	7.51e-01	0	35	0	0	65	49831
2026-01-26 01:15:07.04	17.11	5.19	-47.7	-69.4	3.8	7.45e-01	0	35	104	0	66	45371
2026-01-26 01:15:08.03	17.12	5.27	-47.7	-69.4	3.8	7.48e-01	0	36	104	0	66	45345
2026-01-26 01:15:09.02	17.13	5.34	-47.7	-69.4	3.8	7.45e-01	0	36	104	0	66	45361
2026-01-26 01:15:10.02	17.15	5.42	-47.7	-69.4	3.8	7.43e-01	0	36	104	0	66	45295
2026-01-26 01:15:11.01	17.16	5.49	-47.7	-69.4	3.8	7.48e-01	0	36	104	0	66	45128
2026-01-26 01:15:12.00	17.18	5.57	-47.7	-69.4	3.8	7.43e-01	0	36	104	0	66	45085
2026-01-26 01:15:13.00	17.19	5.64	-47.7	-69.3	3.8	7.47e-01	0	36	104	0	66	44746
2026-01-26 01:15:13.99	17.20	5.72	-47.7	-69.3	3.8	7.46e-01	0	36	104	0	66	44613
2026-01-26 01:15:14.98	17.22	5.79	-47.7	-69.2	3.8	7.47e-01	0	36	104	0	66	44374
2026-01-26 01:15:15.97	17.23	5.87	-47.7	-69.2	3.8	7.50e-01	0	36	104	0	66	44177
2026-01-26 01:15:16.97	17.24	5.95	-47.7	-69.2	3.8	7.47e-01	0	36	104	0	66	44095
2026-01-26 01:15:17.96	17.26	6.02	-47.7	-69.2	3.8	7.46e-01	0	36	104	0	66	44034
2026-01-26 01:15:18.96	17.27	6.10	-47.7	-69.2	3.8	7.52e-01	0	36	104	0	66	44091
2026-01-26 01:15:19.95	17.28	6.18	-47.7	-69.2	3.8	7.47e-01	0	36	104	0	66	44112
2026-01-26 01:15:20.94	17.30	6.26	-47.7	-69.2	3.8	7.45e-01	0	36	104	0	66	44077
2026-01-26 01:15:21.94	17.31	6.34	-47.7	-69.2	3.8	7.42e-01	0	36	104	0	66	44097
2026-01-26 01:15:22.93	17.33	6.41	-47.7	-69.2	3.8	7.46e-01	0	36	104	0	66	44168
2026-01-26 01:15:23.92	17.34	6.49	-47.7	-69.2	3.8	7.47e-01	0	36	104	0	66	43990
2026-01-26 01:15:24.92	17.35	6.57	-47.7	-69.1	3.8	7.44e-01	0	36	104	0	66	43852
2026-01-26 01:15:25.91	17.37	6.65	-47.7	-69.1	3.8	7.43e-01	0	36	104	0	66	43644
2026-01-26 01:15:26.90	17.38	6.73	-47.7	-69.1	3.8	7.47e-01	0	36	104	0	66	43417
2026-01-26 01:15:27.90	17.40	6.81	-47.7	-69.0	3.8	7.43e-01	0	36	104	0	66	43344
2026-01-26 01:15:28.89	17.41	6.89	-47.7	-69.0	3.8	7.48e-01	0	36	104	0	66	43228
2026-01-26 01:15:29.88	17.43	6.97	-47.7	-68.9	3.8	7.49e-01	0	36	104	0	66	42805
2026-01-26 01:15:30.87	17.44	7.05	-47.6	-68.8	3.8	7.46e-01	0	36	104	0	66	42115
2026-01-26 01:15:31.87	17.45	7.13	-47.6	-68.7	3.8	7.47e-01	0	36	104	0	66	41501
2026-01-26 01:15:32.86	17.47	7.21	-47.6	-68.5	3.8	7.45e-01	0	37	104	0	66	40713
2026-01-26 01:15:33.85	17.48	7.29	-47.6	-68.3	3.8	7.45e-01	0	36	104	0	66	39903
2026-01-26 01:15:34.85	17.50	7.37	-47.6	-68.2	3.8	7.45e-01	0	36	104	0	66	39171
2026-01-26 01:15:35.84	17.51	7.46	-47.5	-68.0	3.8	7.48e-01	0	37	104	0	66	38626
2026-01-26 01:15:36.84	17.53	7.54	-47.5	-67.9	3.8	7.44e-01	0	37	104	0	66	37931
2026-01-26 01:15:37.83	17.54	7.62	-47.5	-67.8	3.8	7.46e-01	0	37	104	0	66	37599
2026-01-26 01:15:38.82	17.56	7.70	-47.5	-67.7	3.8	7.45e-01	0	37	104	0	66	37273
2026-01-26 01:15:39.82	17.57	7.79	-47.5	-67.7	3.8	7.43e-01	0	37	104	0	66	36989
2026-01-26 01:15:40.81	17.59	7.87	-47.5	-67.6	3.8	7.46e-01	0	37	104	0	66	36803
2026-01-26 01:15:41.80	17.60	7.95	-47.5	-67.6	3.8	7.43e-01	0	36	104	0	66	36652
2026-01-26 01:15:42.80	17.62	8.04	-47.4	-67.4	3.8	7.46e-01	0	37	104	0	66	36062
2026-01-26 01:15:43.79	17.63	8.12	-47.4	-67.2	3.8	7.44e-01	0	37	104	0	66	35204
2026-01-26 01:15:44.78	17.65	8.21	-47.4	-66.9	3.8	7.45e-01	0	37	104	0	66	34008
2026-01-26 01:15:45.78	17.67	8.29	-47.3	-66.5	3.8	7.45e-01	0	37	104	0	66	32312
2026-01-26 01:15:46.77	17.68	8.38	-47.2	-66.0	3.8	7.45e-01	0	37	104	0	66	30684
2026-01-26 01:15:47.76	17.70	8.46	-47.1	-65.4	3.8	7.45e-01	0	37	104	0	66	28401
2026-01-26 01:15:48.76	17.71	8.55	-47.0	-64.7	3.8	7.46e-01	0	37	104	0	66	26320
2026-01-26 01:15:49.75	17.73	8.64	-46.8	-64.0	3.8	7.44e-01	0	37	104	0	65	25638
2026-01-26 01:15:50.74	17.74	8.72	-46.6	-63.3	3.8	7.45e-01	0	37	104	0	65	23852
2026-01-26 01:15:51.74	17.76	8.81	-46.5	-62.8	3.8	7.47e-01	0	37	104	0	64	23615
2026-01-26 01:15:52.73	17.78	8.90	-46.3	-62.3	3.8	7.43e-01	0	37	104	0	64	22406
2026-01-26 01:15:53.72	17.79	8.98	-46.2	-61.9	3.8	7.48e-01	0	37	104	0	64	21370
2026-01-26 01:15:54.72	17.81	9.07	-46.0	-61.2	3.8	7.47e-01	0	37	104	0	64	19621
2026-01-26 01:15:55.87	17.83	9.17	-47.2	-67.5	3.8	7.45e-01	0	37	104	0	65	38534
2026-01-26 01:15:56.72	17.84	9.25	-45.0	-58.7	3.8	7.41e-01	0	37	104	0	62	16683
2026-01-26 01:15:58.05	17.86	9.37	-46.2	-60.6	3.8	7.47e-01	0	37	104	0	63	19395
2026-01-26 01:15:58.76	17.87	9.43	-44.3	-57.2	3.8	7.45e-01	0	37	104	0	59	16631
2026-01-26 01:16:00.26	17.90	9.57	-43.8	-56.4	3.8	7.45e-01	0	37	104	0	59	15056
2026-01-26 01:16:00.97	17.91	9.63	-43.5	-55.9	3.8	7.45e-01	0	37	104	0	59	14344
2026-01-26 01:16:02.25	17.93	9.75	-43.1	-55.3	3.8	7.49e-01	0	37	104	0	58	14207
2026-01-26 01:16:02.97	17.95	9.82	-42.9	-55.1	3.8	7.43e-01	0	37	104	0	57	14597
2026-01-26 01:16:04.25	17.97	9.93	-43.8	-56.3	3.8	7.47e-01	0	37	104	0	58	15803
2026-01-26 01:16:04.98	17.98	10.00	-43.6	-56.1	3.8	7.45e-01	0	37	104	0	58	15478
2026-01-26 01:16:06.26	18.00	10.12	-47.7	-67.1	3.9	7.47e-01	0	37	104	0	66	34773
2026-01-26 01:16:06.98	18.01	10.19	-46.2	-61.1	3.8	7.47e-01	0	37	104	0	64	19422
2026-01-26 01:16:08.26	18.04	10.31	-44.8	-58.0	3.8	7.44e-01	0	37	104	0	60	17197
2026-01-26 01:16:08.97	18.05	10.37	-43.8	-56.5	3.8	7.47e-01	0	37	104	0	59	15290
2026-01-26 01:16:10.25	18.07	10.49	-43.6	-56.2	3.8	7.41e-01	0	37	104	0	59	14832
2026-01-26 01:16:10.96	18.08	10.56	-43.7	-56.2	3.8	7.47e-01	0	37	104	0	58	15727
2026-01-26 01:16:12.24	18.11	10.68	-43.6	-56.3	3.8	7.45e-01	0	37	104	0	58	15800
2026-01-26 01:16:12.95	18.12	10.75	-43.4	-55.9	3.8	7.48e-01	0	37	104	0	58	15197
2026-01-26 01:16:14.23	18.14	10.87	-44.0	-56.6	3.8	7.43e-01	0	37	104	0	58	16484
2026-01-26 01:16:14.94	18.16	10.94	-47.7	-67.1	3.7	7.45e-01	0	37	104	0	66	34797
2026-01-26 01:16:16.23	18.18	11.07	-48.0	-67.4	3.8	7.45e-01	0	37	104	0	67	33797
2026-01-26 01:16:16.94	18.19	11.14	-47.5	-65.4	3.8	7.45e-01	0	37	104	0	66	28397
2026-01-26 01:16:18.22	18.21	11.26	-47.2	-55.4	13.0	6.08e-01	0	37	104	0	66	9005
2026-01-26 01:16:18.94	18.23	11.33	-47.2	-55.2	13.6	6.05e-01	0	37	0	524288	66	8842
2026-01-26 01:16:20.23	18.25	11.46	-46.7	-53.6	14.7	6.03e-01	0	37	0	3145728	65	7782
2026-01-26 01:16:20.95	18.27	11.53	-46.9	-54.4	14.3	6.05e-01	0	37	0	4718592	65	8542
2026-01-26 01:16:22.23	18.29	11.66	-46.6	-52.7	16.2	6.02e-01	0	37	0	6815744	65	6968
2026-01-26 01:16:22.94	18.30	11.73	-46.2	-51.3	17.4	6.04e-01	0	38	0	8388608	64	6345
2026-01-26 01:16:24.22	18.33	11.86	-46.1	-51.0	18.0	6.05e-01	0	37	0	10485760	63	6470
2026-01-26 01:16:24.95	18.34	11.93	-45.6	-50.0	19.0	6.04e-01	0	38	0	12058624	63	5770
2026-01-26 01:16:26.23	18.37	12.06	-45.8	-50.4	18.5	6.04e-01	0	38	0	14680064	62	6364
2026-01-26 01:16:26.99	18.38	12.14	-45.5	-50.0	18.8	6.03e-01	0	37	0	15728640	62	6092
2026-01-26 01:16:28.26	18.41	12.27	-45.1	-49.4	19.3	6.04e-01	0	37	0	18350080	61	6035
2026-01-26 01:16:29.04	18.42	12.35	-45.1	-49.4	19.5	6.06e-01	0	37	0	19922944	61	6048
2026-01-26 01:16:30.32	18.45	12.48	-45.2	-49.7	19.6	6.04e-01	0	38	0	22020096	61	6206
2026-01-26 01:16:31.09	18.46	12.56	-44.6	-48.4	20.5	6.05e-01	0	38	0	23592960	61	5376
2026-01-26 01:16:32.37	18.49	12.69	-44.1	-47.5	21.6	6.06e-01	0	37	0	26214400	59	5408
2026-01-26 01:16:33.16	18.50	12.78	-44.0	-47.4	21.7	6.03e-01	0	38	0	27262976	59	5401
2026-01-26 01:16:34.64	18.53	12.93	-43.8	-47.1	21.9	6.04e-01	0	37	0	30408704	59	5214
2026-01-26 01:16:35.35	18.55	13.01	-43.8	-47.1	21.7	6.01e-01	0	37	0	31457280	59	5196
2026-01-26 01:16:36.63	18.57	13.14	-43.9	-47.3	22.0	6.04e-01	0	38	0	34078720	58	5618
2026-01-26 01:16:37.34	18.59	13.22	-43.8	-47.1	22.0	6.01e-01	0	38	0	35127296	58	5522
2026-01-26 01:16:38.62	18.61	13.36	-42.9	-45.9	23.1	6.04e-01	0	38	0	37748736	57	5059
2026-01-26 01:16:39.33	18.63	13.43	-42.7	-45.5	23.4	6.05e-01	0	37	0	38797312	57	4858
2026-01-26 01:16:40.61	18.66	13.57	-42.5	-45.4	23.7	6.02e-01	0	38	0	41418752	57	4795
2026-01-26 01:16:41.34	18.67	13.65	-42.4	-45.2	23.9	6.00e-01	0	38	0	42991616	56	4945
2026-01-26 01:16:42.61	18.70	13.79	-42.0	-44.7	24.3	6.04e-01	0	38	0	45088768	56	4686
2026-01-26 01:16:43.32	18.71	13.87	-41.8	-44.5	24.3	6.01e-01	0	38	0	46661632	55	4823
2026-01-26 01:16:44.60	18.74	14.01	-41.4	-44.1	24.8	6.02e-01	0	38	0	48758784	54	4880
2026-01-26 01:16:45.31	18.76	14.09	-41.4	-44.0	24.8	6.04e-01	0	38	0	50331648	54	4858
2026-01-26 01:16:46.59	18.78	14.23	-41.4	-44.1	24.8	6.03e-01	0	38	0	52428800	54	4919
2026-01-26 01:16:47.30	18.80	14.31	-41.4	-44.1	24.7	6.04e-01	0	38	0	54001664	54	4926
2026-01-26 01:16:48.66	18.83	14.47	-41.2	-43.9	25.0	6.01e-01	0	38	0	56623104	54	4778
2026-01-26 01:16:49.37	18.85	14.55	-41.1	-43.8	25.0	6.01e-01	0	38	0	57671680	54	4752
2026-01-26 01:16:50.65	18.87	14.69	-41.2	-43.9	25.0	6.04e-01	0	38	0	60293120	54	4770
2026-01-26 01:16:51.36	18.89	14.77	-41.1	-43.8	25.0	6.04e-01	0	38	0	61341696	54	4727
2026-01-26 01:16:52.64	18.92	14.92	-41.0	-43.9	25.0	6.00e-01	0	38	0	63963136	54	4760
2026-01-26 01:16:53.35	18.93	15.00	-41.0	-43.9	25.0	6.02e-01	0	37	0	65536000	54	4761
2026-01-26 01:16:54.63	18.96	15.15	-41.1	-43.8	25.0	6.02e-01	0	38	0	67633152	54	4754
2026-01-26 01:16:55.36	18.98	15.24	-41.1	-43.9	25.0	6.06e-01	0	38	0	69206016	54	4762
2026-01-26 01:16:56.64	19.01	15.39	-41.1	-43.9	25.0	6.03e-01	0	38	0	71303168	54	4777
2026-01-26 01:16:57.46	19.03	15.49	-41.2	-44.0	24.9	6.02e-01	0	38	0	72876032	54	4828
2026-01-26 01:16:58.60	19.06	15.62	-41.2	-43.9	25.0	6.03e-01	0	38	0	74973184	54	4803
2026-01-26 01:16:59.45	19.08	15.72	-41.3	-44.0	24.9	6.04e-01	0	38	0	76546048	54	4870
2026-01-26 01:17:00.59	19.10	15.86	-41.2	-44.0	24.1	6.01e-01	0	38	0	78643200	54	4843
2026-01-26 01:17:01.73	19.13	16.00	-41.2	-43.9	25.0	6.04e-01	0	38	0	80740352	54	4793
2026-01-26 01:17:02.58	19.15	16.10	-41.2	-43.9	25.0	6.02e-01	0	38	0	82837504	54	4797
2026-01-26 01:17:03.72	19.18	16.24	-41.3	-44.0	24.9	6.04e-01	0	38	0	84934656	54	4829
2026-01-26 01:17:04.57	19.20	16.35	-41.4	-44.0	24.9	6.03e-01	0	38	0	86507520	54	4850
2026-01-26 01:17:05.71	19.23	16.49	-41.4	-44.0	24.9	6.03e-01	0	38	0	88604672	54	4827
2026-01-26 01:17:06.56	19.25	16.59	-41.2	-43.8	25.1	6.04e-01	0	38	0	90177536	54	4726
2026-01-26 01:17:07.70	19.28	16.74	-41.3	-43.8	25.0	6.04e-01	0	38	0	92274688	54	4758
2026-01-26 01:17:08.56	19.30	16.84	-41.3	-43.9	25.0	6.04e-01	0	38	0	93847552	54	4766
2026-01-26 01:17:09.69	19.33	16.99	-41.4	-43.9	25.0	6.04e-01	0	38	0	95944704	54	4766
2026-01-26 01:17:10.55	19.35	17.10	-41.4	-43.8	25.0	6.04e-01	0	38	0	97517568	54	4753
2026-01-26 01:17:11.68	19.38	17.24	-41.2	-43.7	25.1	6.04e-01	0	38	0	99614720	54	4681
2026-01-26 01:17:12.54	19.41	17.35	-41.3	-43.8	25.1	6.07e-01	0	38	0	101187584	54	4724
2026-01-26 01:17:13.67	19.44	17.50	-41.3	-43.8	25.1	6.02e-01	0	38	0	103284736	54	4714
2026-01-26 01:17:14.53	19.46	17.61	-41.4	-43.9	25.0	6.04e-01	0	38	0	104857600	54	4767
2026-01-26 01:17:15.66	19.49	17.76	-41.3	-43.7	25.1	6.04e-01	0	38	0	106954752	54	4701
2026-01-26 01:17:16.63	19.51	17.89	-41.3	-43.8	25.1	6.06e-01	0	38	0	109051904	54	4725
2026-01-26 01:17:17.78	19.55	18.04	-41.4	-43.8	25.1	6.02e-01	0	38	0	111149056	54	4748
2026-01-26 01:17:18.64	19.57	18.15	-41.4	-43.9	25.1	6.03e-01	0	38	0	112721920	54	4762
2026-01-26 01:17:19.77	19.60	18.31	-41.3	-43.8	25.1	6.05e-01	0	38	0	114819072	54	4739
2026-01-26 01:17:20.62	19.62	18.42	-41.4	-43.9	25.0	6.04e-01	0	38	0	116391936	54	4778
2026-01-26 01:17:21.76	19.66	18.57	-41.2	-43.7	25.2	6.04e-01	0	38	0	118489088	54	4691
2026-01-26 01:17:22.61	19.68	18.69	-41.2	-43.7	25.2	6.04e-01	0	38	0	120061952	54	4699
2026-01-26 01:17:23.75	19.71	18.85	-41.2	-43.7	25.2	6.04e-01	0	38	0	122159104	54	4682
2026-01-26 01:17:24.60	19.74	18.97	-41.2	-43.7	25.1	6.03e-01	0	38	0	123731968	54	4696
2026-01-26 01:17:25.74	19.77	19.12	-41.1	-43.7	25.2	6.04e-01	0	38	0	125829120	54	4703
2026-01-26 01:17:26.59	19.80	19.24	-41.1	-43.8	25.1	6.03e-01	0	38	0	127401984	54	4706
2026-01-26 01:17:27.73	19.83	19.40	-41.1	-43.7	25.1	6.03e-01	0	38	0	129499136	54	4689
2026-01-26 01:17:28.58	19.86	19.52	-41.2	-43.9	25.1	6.03e-01	0	38	0	131596288	54	4760
2026-01-26 01:17:29.72	19.89	19.69	-41.1	-43.8	25.0	6.01e-01	0	38	0	133693440	54	4754
2026-01-26 01:17:30.58	19.92	19.81	-41.1	-43.8	25.1	6.03e-01	0	38	0	135266304	54	4757
2026-01-26 01:17:31.71	19.95	19.97	-41.2	-43.9	25.0	6.02e-01	0	38	0	137363456	54	4803
2026-01-26 01:17:32.57	19.98	20.10	-41.2	-43.9	25.0	6.03e-01	0	38	0	138936320	54	4786
2026-01-26 01:17:33.71	20.01	20.27	-41.2	-43.8	25.0	6.06e-01	0	38	0	141033472	54	4753
2026-01-26 01:17:34.59	20.04	20.40	-41.2	-43.8	25.1	6.03e-01	0	38	0	142606336	54	4737
2026-01-26 01:17:35.90	20.08	20.59	-41.3	-43.8	25.1	6.04e-01	0	38	0	145227776	54	4746
2026-01-26 01:17:36.61	20.10	20.70	-41.3	-43.8	25.1	6.04e-01	0	38	0	146276352	54	4736
2026-01-26 01:17:37.89	20.15	20.89	-41.3	-43.9	25.1	6.04e-01	0	38	0	148897792	54	4760
2026-01-26 01:17:38.60	20.17	21.00	-41.3	-43.8	25.2	6.02e-01	0	38	0	149946368	54	4741
2026-01-26 01:17:40.21	20.22	21.24	-41.5	-44.0	25.0	6.05e-01	0	38	0	153092096	54	4822
2026-01-26 01:17:40.79	20.24	21.33	-41.4	-43.9	25.1	6.02e-01	0	38	0	154140672	54	4795
2026-01-26 01:17:42.49	20.30	21.59	-41.5	-44.0	25.0	6.02e-01	0	38	0	157286400	54	4867
2026-01-26 01:17:43.06	20.32	21.68	-41.5	-44.0	25.0	6.05e-01	0	38	0	158334976	54	4839
2026-01-26 01:17:44.76	20.38	21.95	-41.6	-44.1	24.9	6.03e-01	0	38	0	161480704	54	4908
2026-01-26 01:17:45.33	20.40	22.04	-41.7	-44.2	24.8	6.01e-01	0	38	0	162529280	54	4940
2026-01-26 01:17:47.02	20.45	22.31	-41.5	-43.9	25.0	6.05e-01	0	38	0	166199296	54	4808
2026-01-26 01:17:47.59	20.47	22.40	-41.5	-43.9	25.0	6.01e-01	0	38	0	166723584	54	4795
2026-01-26 01:17:49.30	20.54	22.68	-41.4	-43.8	25.1	6.01e-01	0	38	0	170393600	54	4736
2026-01-26 01:17:49.87	20.56	22.77	-41.4	-43.8	25.1	6.05e-01	0	38	0	171442176	54	4727
2026-01-26 01:17:51.57	20.62	23.05	-41.4	-43.8	25.1	6.04e-01	0	38	0	174587904	54	4751
2026-01-26 01:17:52.14	20.64	23.14	-41.4	-43.8	25.1	6.04e-01	0	38	0	175636480	54	4756
2026-01-26 01:17:53.85	20.70	23.43	-41.6	-44.0	25.0	6.03e-01	0	38	0	178782208	54	4855
2026-01-26 01:17:54.45	20.73	23.53	-41.6	-44.1	25.0	6.04e-01	0	38	0	179830784	54	4871
2026-01-26 01:17:56.01	20.79	23.80	-41.6	-44.2	24.8	6.04e-01	0	38	0	182976512	54	4937
2026-01-26 01:17:56.64	20.81	23.90	-41.6	-44.2	24.8	6.05e-01	0	38	0	184025088	54	4939
2026-01-26 01:17:58.17	20.87	24.17	-41.5	-44.1	24.9	6.03e-01	0	38	0	186646528	54	4890
2026-01-26 01:17:59.23	20.91	24.35	-41.4	-44.1	24.9	6.03e-01	0	38	0	188743680	54	4881
2026-01-26 01:18:00.44	20.96	24.56	-41.4	-44.2	24.8	6.03e-01	0	38	0	190840832	54	4950
2026-01-26 01:18:01.30	21.00	24.72	-41.4	-44.2	24.8	6.03e-01	0	38	0	192413696	54	4963
2026-01-26 01:18:02.44	21.04	24.92	-41.4	-44.3	24.7	6.04e-01	0	38	0	195035136	54	4994
2026-01-26 01:18:03.29	21.08	25.07	-41.4	-44.2	24.8	6.01e-01	0	38	0	196608000	54	4978
2026-01-26 01:18:04.43	21.13	25.28	-41.5	-44.3	24.6	6.02e-01	0	38	0	198705152	54	4995
2026-01-26 01:18:05.28	21.16	25.43	-41.5	-44.3	24.6	6.03e-01	0	38	0	200278016	54	5014
2026-01-26 01:18:06.42	21.21	25.64	-41.4	-44.1	24.8	6.03e-01	0	38	0	202375168	54	4926
2026-01-26 01:18:07.27	21.25	25.80	-41.4	-44.1	24.9	6.04e-01	0	38	0	203948032	54	4884
2026-01-26 01:18:08.41	21.30	26.01	-41.5	-44.2	24.8	6.02e-01	0	38	0	206045184	54	4960
2026-01-26 01:18:09.27	21.34	26.17	-41.4	-44.1	24.9	6.03e-01	0	38	0	207618048	54	4911
2026-01-26 01:18:10.40	21.39	26.39	-41.5	-44.2	24.8	6.05e-01	0	38	0	209715200	54	4952
2026-01-26 01:18:11.26	21.43	26.55	-41.4	-44.1	24.9	6.02e-01	0	38	0	211288064	54	4885
2026-01-26 01:18:12.39	21.48	26.77	-41.3	-44.0	25.0	6.04e-01	0	38	0	213385216	54	4822
2026-01-26 01:18:13.25	21.52	26.93	-41.3	-43.9	25.1	6.04e-01	0	38	0	214958080	54	4788
2026-01-26 01:18:14.38	21.57	27.15	-41.4	-43.9	25.1	6.03e-01	0	38	0	217055232	54	4814
2026-01-26 01:18:15.24	21.61	27.32	-41.2	-43.8	25.2	6.03e-01	0	38	0	218628096	54	4730
2026-01-26 01:18:16.37	21.67	27.55	-41.3	-43.8	25.2	6.02e-01	0	38	0	220725248	54	4728
2026-01-26 01:18:17.23	21.71	27.72	-41.1	-43.6	25.4	6.03e-01	0	38	0	222822400	54	4610
2026-01-26 01:18:18.36	21.76	27.94	-41.2	-43.6	25.4	6.01e-01	0	38	0	224919552	54	4645
2026-01-26 01:18:19.22	21.81	28.12	-41.2	-43.6	25.4	6.05e-01	0	38	0	226492416	54	4640
2026-01-26 01:18:20.35	21.86	28.35	-41.3	-43.7	25.3	6.05e-01	0	38	0	228589568	54	4662
2026-01-26 01:18:21.21	21.91	28.52	-41.3	-43.7	25.3	6.06e-01	0	38	0	230162432	54	4686
2026-01-26 01:18:22.34	21.97	28.76	-41.2	-43.5	25.4	6.04e-01	0	38	0	232259584	54	4582
2026-01-26 01:18:23.20	22.01	28.94	-41.0	-43.3	25.7	6.04e-01	0	38	0	233832448	54	4471
2026-01-26 01:18:24.41	22.07	29.19	-41.0	-43.4	25.6	6.02e-01	0	38	0	235929600	53	4767
2026-01-26 01:18:25.27	22.12	29.38	-41.0	-43.4	25.6	6.03e-01	0	38	0	237502464	53	4810
2026-01-26 01:18:26.41	22.18	29.62	-41.1	-43.6	25.4	6.04e-01	0	38	0	239599616	53	4881
2026-01-26 01:18:27.26	22.23	29.80	-41.2	-43.6	25.4	6.04e-01	0	38	0	241172480	53	4910
2026-01-26 01:18:28.40	22.29	30.05	-41.1	-43.5	25.4	6.05e-01	0	38	0	243269632	53	4852
2026-01-26 01:18:29.25	22.34	30.24	-41.1	-43.5	25.4	6.02e-01	0	38	0	244842496	53	4851
2026-01-26 01:18:30.59	22.42	30.53	-41.2	-43.5	25.3	6.03e-01	0	38	0	247463936	53	4864
2026-01-26 01:18:31.30	22.46	30.69	-41.2	-43.5	25.5	6.01e-01	0	38	0	249036800	53	4839
2026-01-26 01:18:32.79	22.55	31.03	-41.3	-43.7	25.3	6.04e-01	0	38	0	251658240	53	4942
2026-01-26 01:18:33.50	22.59	31.19	-41.3	-43.6	25.4	6.03e-01	0	38	0	253231104	53	4900
2026-01-26 01:18:34.77	22.67	31.48	-41.1	-43.4	25.5	6.02e-01	0	38	0	255328256	53	4796
2026-01-26 01:18:35.48	22.71	31.64	-41.1	-43.5	25.2	6.02e-01	0	38	0	256901120	53	4833
2026-01-26 01:18:36.77	22.79	31.94	-41.1	-43.5	25.5	6.03e-01	0	38	0	258998272	53	4822
2026-01-26 01:18:37.49	22.84	32.11	-41.1	-43.5	25.5	6.03e-01	0	38	0	260571136	53	4840
2026-01-26 01:18:38.77	22.92	32.42	-41.2	-43.6	25.4	6.04e-01	0	38	0	263192576	53	4926
2026-01-26 01:18:39.50	22.96	32.59	-41.4	-43.8	25.3	6.03e-01	0	38	0	264241152	53	5011
2026-01-26 01:18:40.78	23.05	32.90	-41.3	-43.7	25.3	6.04e-01	0	38	0	266862592	53	4975
2026-01-26 01:18:41.49	23.10	33.07	-41.3	-43.8	25.2	6.04e-01	0	38	0	267911168	53	5024
2026-01-26 01:18:42.77	23.18	33.38	-41.3	-43.9	25.1	6.05e-01	0	38	0	270532608	53	5063
2026-01-26 01:18:43.48	23.23	33.56	-41.3	-43.9	25.1	6.02e-01	0	38	0	271581184	53	5087
2026-01-26 01:18:44.75	23.32	33.87	-41.3	-43.9	25.1	6.04e-01	0	38	0	274202624	53	5081
2026-01-26 01:18:45.61	23.38	34.09	-41.3	-43.9	25.1	6.02e-01	0	38	0	275775488	53	5098
2026-01-26 01:18:47.07	23.49	34.46	-41.6	-44.2	24.9	6.05e-01	0	38	0	278396928	53	5228
2026-01-26 01:18:47.78	23.54	34.64	-41.7	-44.3	24.8	6.04e-01	0	38	0	279969792	53	5294
2026-01-26 01:18:49.28	23.65	35.03	-41.9	-44.5	24.6	6.04e-01	0	38	0	282591232	54	5140
2026-01-26 01:18:49.99	23.71	35.22	-41.9	-44.5	24.6	6.04e-01	0	38	0	284164096	54	5157
2026-01-26 01:18:51.27	23.80	35.55	-41.9	-44.5	24.6	6.04e-01	0	38	0	286261248	54	5149
2026-01-26 01:18:51.98	23.86	35.74	-42.0	-44.7	24.5	6.01e-01	0	38	0	287834112	54	5223
2026-01-26 01:18:53.26	23.96	36.08	-42.2	-44.9	24.3	6.04e-01	0	38	0	289931264	55	5045
2026-01-26 01:18:53.97	24.02	36.28	-42.4	-45.0	24.2	6.03e-01	0	38	0	291504128	55	5136
2026-01-26 01:18:55.25	24.12	36.63	-42.5	-45.2	24.0	6.01e-01	0	38	0	293601280	55	5229
2026-01-26 01:18:55.96	24.18	36.82	-42.6	-45.3	23.9	6.04e-01	0	38	0	295174144	55	5299
2026-01-26 01:18:57.24	24.29	37.18	-42.6	-45.4	23.8	6.03e-01	0	38	0	297795584	55	5363
2026-01-26 01:18:58.01	24.36	37.39	-42.6	-45.3	23.9	6.00e-01	0	38	0	298844160	55	5317
2026-01-26 01:18:59.29	24.47	37.75	-42.5	-45.3	23.9	6.03e-01	0	38	0	301465600	55	5291
2026-01-26 01:19:00.00	24.54	37.95	-42.7	-45.4	23.8	6.01e-01	0	38	0	303038464	55	5396
2026-01-26 01:19:01.28	24.65	38.32	-43.2	-46.1	23.3	6.01e-01	0	38	0	305135616	57	5164
2026-01-26 01:19:02.10	24.73	38.56	-43.2	-45.9	23.3	6.04e-01	0	38	0	306708480	57	5065
2026-01-26 01:19:03.52	24.86	38.98	-43.2	-45.9	23.5	6.05e-01	0	38	0	309329920	57	5080
2026-01-26 01:19:04.23	24.93	39.19	-43.3	-45.9	23.5	6.03e-01	0	38	0	310902784	57	5093
2026-01-26 01:19:05.78	25.08	39.65	-43.1	-45.8	23.6	6.02e-01	0	38	0	313524224	57	5003
2026-01-26 01:19:06.49	25.15	39.86	-43.2	-45.9	23.5	6.02e-01	0	38	0	315097088	57	5081
2026-01-26 01:19:07.77	25.28	40.25	-43.2	-45.9	23.4	6.04e-01	0	38	0	317194240	57	5096
2026-01-26 01:19:08.50	25.36	40.48	-43.1	-45.8	23.6	6.04e-01	0	38	0	318767104	57	4988
2026-01-26 01:19:09.78	25.50	40.87	-42.9	-45.4	23.9	6.03e-01	0	38	0	320864256	57	4807
2026-01-26 01:19:10.51	25.57	41.10	-42.8	-45.3	24.0	6.03e-01	0	38	0	322437120	57	4745
2026-01-26 01:19:11.79	25.72	41.50	-42.4	-44.9	24.3	6.03e-01	0	38	0	325058560	56	4795
2026-01-26 01:19:12.49	25.79	41.73	-42.4	-44.9	24.4	6.04e-01	0	38	0	326107136	56	4809
2026-01-26 01:19:13.77	25.94	42.14	-42.4	-44.9	24.4	6.04e-01	0	38	0	328728576	56	4788
2026-01-26 01:19:14.48	26.02	42.37	-42.1	-44.7	24.6	6.06e-01	0	38	0	329777152	56	4661
2026-01-26 01:19:15.77	26.18	42.79	-41.7	-44.2	25.0	6.05e-01	0	38	0	332398592	55	4672
2026-01-26 01:19:16.51	26.27	43.03	-41.5	-44.0	25.2	6.04e-01	0	38	0	333971456	55	4570
2026-01-26 01:19:17.79	26.43	43.46	-41.5	-44.0	25.1	6.02e-01	0	38	0	336068608	55	4582
2026-01-26 01:19:18.50	26.52	43.69	-41.5	-44.0	25.2	6.02e-01	0	38	0	337641472	55	4561
2026-01-26 01:19:19.77	26.68	44.12	-41.2	-43.6	25.5	6.03e-01	0	38	0	339738624	54	4610
2026-01-26 01:19:20.68	26.80	44.43	-41.2	-43.6	25.5	6.04e-01	0	38	0	341311488	54	4618
2026-01-26 01:19:22.02	26.98	44.90	-41.3	-43.6	25.4	6.02e-01	0	38	0	343932928	54	4643
2026-01-26 01:19:22.73	27.08	45.14	-41.3	-43.7	25.3	6.06e-01	0	38	0	345505792	54	4701
2026-01-26 01:19:24.01	27.26	45.59	-41.1	-43.5	25.6	6.04e-01	0	38	0	347602944	54	4565
2026-01-26 01:19:24.73	27.37	45.85	-40.9	-43.2	25.8	6.02e-01	0	38	0	349175808	53	4683
2026-01-26 01:19:26.01	27.55	46.30	-41.2	-43.6	25.5	6.07e-01	0	38	0	351797248	53	4881
2026-01-26 01:19:26.72	27.66	46.56	-41.5	-43.8	25.3	6.04e-01	0	38	0	352845824	53	5041
2026-01-26 01:19:28.00	27.86	47.03	-41.1	-43.4	25.7	6.04e-01	0	38	0	355467264	53	4783
2026-01-26 01:19:28.72	27.97	47.29	-41.0	-43.4	25.6	6.04e-01	0	38	0	356515840	53	4764
2026-01-26 01:19:30.05	28.19	47.78	-41.3	-43.8	25.3	6.03e-01	0	38	0	359137280	53	4997
2026-01-26 01:19:30.76	28.31	48.05	-41.2	-43.6	25.4	6.06e-01	0	38	0	360710144	53	4916
2026-01-26 01:19:32.04	28.52	48.53	-41.2	-43.8	25.3	6.04e-01	0	38	0	362807296	53	4985
2026-01-26 01:19:32.75	28.65	48.80	-40.8	-43.3	25.7	6.03e-01	0	38	0	364380160	53	4730
2026-01-26 01:19:34.15	28.90	49.33	-41.0	-43.5	25.6	6.02e-01	0	38	0	367001600	53	4823
2026-01-26 01:19:34.86	29.03	49.60	-41.2	-43.8	25.3	6.02e-01	0	38	0	368050176	53	5027
2026-01-26 01:19:36.22	29.29	50.13	-41.0	-43.5	25.5	6.04e-01	0	38	0	370671616	53	4850
2026-01-26 01:19:36.93	29.42	50.41	-40.9	-43.3	25.7	6.03e-01	0	38	0	372244480	53	4720
2026-01-26 01:19:38.26	29.69	50.94	-40.7	-43.0	26.0	5.99e-01	0	38	0	374341632	53	4596
2026-01-26 01:19:38.97	29.83	51.22	-40.8	-43.1	25.9	6.03e-01	0	38	0	375914496	53	4642
2026-01-26 01:19:40.28	30.11	51.75	-40.7	-43.0	26.0	6.04e-01	0	38	0	378535936	53	4577
2026-01-26 01:19:40.99	30.26	52.04	-40.6	-42.9	26.1	6.03e-01	0	38	0	379584512	53	4519
2026-01-26 01:19:42.28	30.54	52.56	-40.4	-42.6	26.4	6.02e-01	0	38	0	382205952	52	4629
2026-01-26 01:19:42.99	30.71	52.86	-40.5	-42.7	26.2	6.00e-01	0	38	0	383254528	52	4691
2026-01-26 01:19:44.27	31.00	53.39	-40.6	-42.9	26.1	6.05e-01	0	38	0	385875968	52	4792
2026-01-26 01:19:44.98	31.18	53.68	-40.8	-43.1	26.1	6.04e-01	0	38	0	386924544	52	4890
2026-01-26 01:19:46.27	31.50	54.23	-40.7	-43.0	26.1	6.03e-01	0	38	0	389545984	52	4831
2026-01-26 01:19:46.98	31.68	54.53	-40.7	-42.9	26.1	6.03e-01	0	38	0	390594560	52	4809
2026-01-26 01:19:48.25	32.01	55.07	-41.0	-43.3	25.7	6.03e-01	0	38	0	393216000	52	5035
2026-01-26 01:19:48.97	32.20	55.38	-41.0	-43.4	25.7	6.03e-01	0	38	0	394788864	52	5057
2026-01-26 01:19:50.25	32.56	55.93	-41.1	-43.4	25.3	6.03e-01	0	38	0	396886016	52	5058
2026-01-26 01:19:50.96	32.77	56.24	-41.3	-43.7	25.4	6.03e-01	0	38	0	398458880	53	4971
2026-01-26 01:19:52.24	33.14	56.80	-41.3	-43.7	25.5	6.03e-01	0	38	0	400556032	53	4932
2026-01-26 01:19:52.95	33.36	57.12	-41.8	-44.2	24.9	6.02e-01	0	38	0	402128896	54	4953
2026-01-26 01:19:54.23	33.77	57.69	-41.7	-44.1	25.1	6.04e-01	0	38	0	404226048	54	4891
2026-01-26 01:19:54.94	34.00	58.00	-41.8	-44.3	24.9	6.01e-01	0	38	0	405798912	54	4998
2026-01-26 01:19:56.22	34.43	58.58	-42.2	-44.6	24.6	6.05e-01	0	38	0	408420352	54	5206
2026-01-26 01:19:56.95	34.69	58.91	-42.5	-45.0	24.2	6.03e-01	0	38	0	409468928	55	5156
2026-01-26 01:19:58.27	35.16	59.51	-42.4	-45.0	24.2	6.06e-01	0	38	0	412090368	55	5134
2026-01-26 01:19:58.98	35.43	59.84	-42.6	-45.2	24.1	6.04e-01	0	38	0	413138944	55	5259
2026-01-26 01:20:00.26	35.93	60.43	-43.2	-45.9	23.5	6.03e-01	0	38	0	415760384	57	5074
2026-01-26 01:20:00.97	36.21	60.75	-43.0	-45.6	23.8	6.04e-01	0	38	0	417333248	57	4886
2026-01-26 01:20:02.25	36.75	61.35	-43.2	-45.8	23.6	6.04e-01	0	38	0	419430400	57	5030
2026-01-26 01:20:02.96	37.06	61.68	-43.3	-46.1	23.4	6.05e-01	0	38	0	421003264	57	5191
2026-01-26 01:20:04.24	37.63	62.28	-43.8	-46.7	22.7	6.03e-01	0	38	0	423100416	58	5248
2026-01-26 01:20:04.96	37.97	62.62	-43.8	-46.7	22.8	6.00e-01	0	38	0	424673280	58	5224
2026-01-26 01:20:06.24	38.59	63.22	-44.2	-47.1	22.3	6.02e-01	0	38	0	426770432	59	5188
2026-01-26 01:20:07.09	39.02	63.63	-44.6	-47.7	21.7	6.06e-01	0	38	0	428343296	60	5254
2026-01-26 01:20:08.53	39.79	64.31	-44.6	-47.7	21.7	6.07e-01	0	38	0	431489024	60	5277
2026-01-26 01:20:09.24	40.18	64.65	-44.9	-48.2	21.3	6.04e-01	0	38	0	432537600	60	5548
2026-01-26 01:20:10.52	40.92	65.26	-44.9	-48.1	21.3	6.03e-01	0	38	0	435159040	61	5194
2026-01-26 01:20:11.23	41.35	65.60	-45.0	-48.2	21.2	6.01e-01	0	38	0	436207616	61	5272
2026-01-26 01:20:12.51	42.16	66.21	-45.0	-48.1	21.3	6.03e-01	0	38	0	438829056	61	5207
2026-01-26 01:20:13.24	42.64	66.56	-45.7	-49.2	20.3	6.01e-01	0	38	0	439877632	62	5533
2026-01-26 01:20:14.52	43.52	67.18	-45.5	-48.9	20.6	6.03e-01	0	38	0	442499072	62	5373
2026-01-26 01:20:15.23	44.04	67.52	-45.6	-49.1	20.4	6.05e-01	0	38	0	444071936	62	5516
2026-01-26 01:20:16.51	45.00	68.13	-46.2	-50.0	19.5	6.00e-01	0	38	0	446169088	63	5756
2026-01-26 01:20:17.24	45.58	68.48	-45.7	-49.2	20.2	6.03e-01	0	38	0	447741952	63	5225
2026-01-26 01:20:18.51	46.64	69.08	-46.2	-50.2	19.3	6.04e-01	0	38	0	449839104	63	5887
2026-01-26 01:20:19.23	47.27	69.42	-46.2	-50.2	19.3	6.04e-01	0	38	0	451411968	63	5862
2026-01-26 01:20:20.50	48.43	70.02	-46.1	-49.9	19.6	6.04e-01	0	38	0	453509120	63	5666
2026-01-26 01:20:21.21	49.12	70.36	-45.5	-48.9	20.5	6.03e-01	0	38	0	455081984	62	5365
2026-01-26 01:20:22.49	50.42	70.95	-45.9	-49.4	20.0	6.02e-01	0	38	0	457179136	63	5376
2026-01-26 01:20:23.22	51.20	71.29	-45.3	-48.5	20.9	6.03e-01	0	38	0	458752000	62	5132
2026-01-26 01:20:24.50	52.64	71.88	-45.0	-48.3	21.2	6.04e-01	0	38	0	461373440	61	5320
2026-01-26 01:20:25.22	53.49	72.21	-44.9	-48.2	21.1	6.03e-01	0	38	0	462422016	61	5250
2026-01-26 01:20:26.50	55.10	72.78	-44.4	-47.4	21.9	6.03e-01	0	38	0	465043456	60	5080
2026-01-26 01:20:27.23	56.06	73.10	-44.0	-46.9	22.5	6.05e-01	0	38	0	466092032	60	4769
2026-01-26 01:20:28.51	57.85	73.66	-44.2	-47.1	22.3	6.03e-01	0	38	0	468713472	60	4887
2026-01-26 01:20:29.26	58.96	73.98	-43.9	-46.7	22.8	6.02e-01	0	38	0	470286336	59	4933
2026-01-26 01:20:30.82	61.41	74.62	-44.1	-46.9	22.5	6.04e-01	0	38	0	472907776	59	5099
2026-01-26 01:20:31.46	62.49	74.88	-44.3	-47.3	22.3	6.04e-01	0	38	0	474480640	59	5294
2026-01-26 01:20:32.96	65.15	75.47	-44.2	-47.1	22.4	6.03e-01	0	38	0	477102080	59	5176
2026-01-26 01:20:33.67	66.49	75.74	-44.0	-46.8	22.7	6.02e-01	0	38	0	478150656	59	5037
2026-01-26 01:20:34.94	69.01	76.20	-43.9	-46.8	22.6	6.02e-01	0	38	0	480772096	59	5011
2026-01-26 01:20:35.67	70.54	76.45	-44.1	-47.1	22.5	6.04e-01	0	38	0	482344960	59	5177
2026-01-26 01:20:37.03	73.55	76.90	-43.8	-46.6	22.9	6.03e-01	0	38	0	484442112	59	4911
2026-01-26 01:20:37.74	75.20	77.12	-43.6	-46.4	23.0	6.02e-01	0	38	0	486014976	59	4788
2026-01-26 01:20:39.02	78.33	77.48	-43.2	-45.9	23.5	6.04e-01	0	38	0	488636416	58	4775
2026-01-26 01:20:39.74	80.17	77.67	-43.0	-45.7	23.8	6.03e-01	0	38	0	489684992	57	4933
2026-01-26 01:20:41.02	83.58	77.98	-42.2	-44.7	24.6	6.03e-01	0	38	0	492306432	56	4682
2026-01-26 01:20:41.74	85.57	78.14	-42.9	-45.6	23.8	6.03e-01	0	38	0	493355008	56	5165
2026-01-26 01:20:43.24	89.88	78.41	-42.5	-45.1	24.2	6.00e-01	0	38	0	496500736	56	4908
2026-01-26 01:20:43.95	92.00	78.52	-42.0	-44.5	24.8	6.02e-01	0	38	0	497549312	56	4562
2026-01-26 01:20:45.23	95.89	78.67	-43.1	-45.8	23.7	6.03e-01	0	38	0	500170752	56	5304
2026-01-26 01:20:45.94	98.10	78.74	-42.6	-45.2	24.0	6.01e-01	0	38	0	501219328	56	4964
2026-01-26 01:20:47.22	102.12	78.81	-42.7	-45.3	24.1	6.04e-01	0	38	0	503840768	56	5005
2026-01-26 01:20:47.93	104.37	78.82	-42.9	-45.6	23.8	6.04e-01	0	38	0	504889344	56	5197
2026-01-26 01:20:49.21	108.43	78.81	-42.5	-45.2	24.1	6.06e-01	0	38	0	507510784	56	4927
2026-01-26 01:20:49.92	110.67	78.78	-42.4	-45.0	24.3	6.03e-01	0	38	0	509083648	56	4851
2026-01-26 01:20:51.20	114.66	78.68	-43.1	-45.8	23.7	6.05e-01	0	38	0	511180800	56	5286
2026-01-26 01:20:51.91	116.84	78.61	-42.7	-45.3	24.1	6.02e-01	0	38	0	512753664	56	4998
2026-01-26 01:20:53.19	120.69	78.43	-42.6	-45.2	24.2	6.04e-01	0	38	0	514850816	56	4971
2026-01-26 01:20:53.90	122.77	78.31	-43.2	-46.0	22.4	6.03e-01	0	38	0	516423680	57	5110
2026-01-26 01:20:55.18	126.39	78.06	-43.0	-45.5	23.9	6.05e-01	0	38	0	518520832	57	4864
2026-01-26 01:20:55.91	128.39	77.89	-43.1	-45.7	23.7	6.01e-01	0	38	0	520093696	57	4972
2026-01-26 01:20:57.19	131.74	77.57	-43.1	-45.7	23.7	6.05e-01	0	38	0	522715136	57	4958
2026-01-26 01:20:57.90	133.53	77.38	-43.6	-46.5	23.0	6.03e-01	0	38	0	523763712	57	5415
2026-01-26 01:20:59.18	136.60	77.00	-43.4	-46.1	23.4	6.03e-01	0	38	0	526385152	57	5175
2026-01-26 01:20:59.89	138.23	76.78	-43.9	-46.8	22.8	6.02e-01	0	38	0	527433728	58	5301
2026-01-26 01:21:01.25	141.18	76.32	-43.5	-46.2	23.3	6.05e-01	0	38	0	530055168	58	4966
2026-01-26 01:21:01.96	142.64	76.07	-44.0	-46.9	22.6	6.03e-01	0	38	0	531628032	58	5401
2026-01-26 01:21:03.23	145.12	75.60	-44.0	-46.7	22.7	6.05e-01	0	38	0	533725184	59	4976
2026-01-26 01:21:03.98	146.50	75.32	-43.5	-46.3	23.2	6.04e-01	0	38	0	535298048	58	4988
2026-01-26 01:21:05.25	148.73	74.81	-43.6	-46.6	23.0	6.01e-01	0	38	0	537395200	58	5165
2026-01-26 01:21:05.96	149.90	74.53	-43.9	-47.0	22.5	6.02e-01	0	38	0	538968064	58	5422
2026-01-26 01:21:07.24	151.91	73.99	-43.6	-46.4	23.0	6.01e-01	0	38	0	541065216	58	5100
2026-01-26 01:21:07.97	152.99	73.68	-43.5	-46.2	23.3	6.02e-01	0	38	0	542638080	58	4938
2026-01-26 01:21:09.24	154.77	73.13	-43.8	-46.7	22.7	6.05e-01	0	38	0	545259520	58	5265
2026-01-26 01:21:09.97	155.74	72.81	-44.0	-47.0	22.2	6.04e-01	0	38	0	546308096	59	5125
2026-01-26 01:21:11.25	157.36	72.23	-44.1	-46.9	22.6	6.02e-01	0	38	0	548929536	59	5082
2026-01-26 01:21:12.10	158.37	71.85	-44.4	-47.3	22.2	6.05e-01	0	38	0	550502400	59	5324
2026-01-26 01:21:13.24	159.65	71.32	-44.4	-47.4	22.0	6.03e-01	0	38	0	552599552	60	5054
2026-01-26 01:21:14.09	160.56	70.93	-44.2	-47.1	22.1	6.04e-01	0	38	0	554172416	60	4892
2026-01-26 01:21:15.23	161.72	70.40	-44.6	-47.6	21.8	6.02e-01	0	38	0	556269568	60	5198
2026-01-26 01:21:16.08	162.54	70.00	-44.4	-47.3	22.1	6.02e-01	0	38	0	557842432	60	5033
2026-01-26 01:21:17.22	163.59	69.46	-44.9	-48.0	21.4	6.03e-01	0	38	0	559939584	60	5443
2026-01-26 01:21:18.07	164.33	69.05	-45.0	-48.3	21.1	6.03e-01	0	38	0	561512448	60	5622
2026-01-26 01:21:19.21	165.29	68.51	-44.7	-48.0	21.4	6.03e-01	0	38	0	563609600	60	5463
2026-01-26 01:21:20.06	165.96	68.10	-44.4	-47.7	21.7	6.03e-01	0	38	0	565182464	60	5266
2026-01-26 01:21:21.20	166.82	67.56	-44.3	-47.4	22.0	6.04e-01	0	38	0	567279616	60	5082
2026-01-26 01:21:22.05	167.44	67.15	-44.3	-47.2	22.3	6.03e-01	0	38	0	569376768	60	4964
2026-01-26 01:21:23.19	168.23	66.60	-44.3	-47.3	22.0	6.03e-01	0	38	0	571473920	60	5036
2026-01-26 01:21:24.06	168.80	66.18	-43.9	-46.8	22.7	6.04e-01	0	38	0	573046784	59	5006
2026-01-26 01:21:25.20	169.52	65.63	-44.2	-47.2	22.3	6.06e-01	0	38	0	575143936	59	5250
2026-01-26 01:21:26.05	170.04	65.23	-44.0	-46.9	22.6	6.05e-01	0	38	0	576716800	59	5097
2026-01-26 01:21:27.19	170.70	64.68	-43.8	-46.9	22.6	6.04e-01	0	38	0	578813952	59	5058
2026-01-26 01:21:28.04	171.17	64.27	-43.5	-46.4	23.2	6.04e-01	0	38	0	580386816	58	5051
2026-01-26 01:21:29.18	171.78	63.73	-43.2	-45.8	23.6	6.02e-01	0	38	0	582483968	58	4758
2026-01-26 01:21:30.27	172.34	63.21	-43.4	-46.1	23.4	6.03e-01	0	38	0	584581120	58	4912
2026-01-26 01:21:31.12	172.76	62.81	-43.3	-45.9	23.6	6.03e-01	0	38	0	586153984	58	4792
2026-01-26 01:21:32.61	173.46	62.11	-42.6	-45.1	24.2	6.02e-01	0	38	0	588775424	57	4621
2026-01-26 01:21:33.73	173.96	61.58	-42.6	-45.1	24.2	6.00e-01	0	38	0	590872576	57	4639
2026-01-26 01:21:34.59	174.33	61.18	-42.5	-45.0	24.3	6.04e-01	0	38	0	592445440	57	4581
2026-01-26 01:21:35.72	174.79	60.65	-42.4	-44.9	24.4	6.05e-01	0	38	0	594542592	56	4811
2026-01-26 01:21:36.57	175.13	60.26	-42.4	-44.8	24.6	6.03e-01	0	38	0	596115456	56	4728
2026-01-26 01:21:37.71	175.57	59.73	-42.4	-44.8	24.6	6.05e-01	0	38	0	598736896	56	4717
2026-01-26 01:21:38.56	175.89	59.34	-42.2	-44.6	24.8	6.04e-01	0	38	0	600309760	56	4635
2026-01-26 01:21:39.70	176.30	58.82	-41.9	-44.2	24.9	6.06e-01	0	38	0	602406912	55	4678
2026-01-26 01:21:40.62	176.62	58.41	-41.9	-44.2	25.0	6.04e-01	0	38	0	603979776	55	4678
2026-01-26 01:21:41.80	177.01	57.87	-42.0	-44.4	24.8	6.04e-01	0	38	0	606076928	55	4776
2026-01-26 01:21:42.65	177.29	57.49	-41.7	-44.1	25.1	6.02e-01	0	38	0	607649792	55	4618
2026-01-26 01:21:43.79	177.65	56.99	-41.7	-44.1	25.1	6.04e-01	0	38	0	609746944	55	4626
2026-01-26 01:21:44.64	177.90	56.61	-41.5	-43.8	25.4	6.02e-01	0	38	0	611319808	55	4459
2026-01-26 01:21:45.78	178.24	56.11	-41.3	-43.6	25.4	6.02e-01	0	38	0	613416960	54	4642
2026-01-26 01:21:46.63	178.48	55.74	-41.1	-43.4	25.8	6.02e-01	0	38	0	614989824	54	4515
2026-01-26 01:21:47.77	178.80	55.24	-41.1	-43.5	25.6	6.03e-01	0	38	0	617086976	54	4558
2026-01-26 01:21:48.62	179.03	54.88	-40.7	-43.0	26.0	6.02e-01	0	38	0	619184128	53	4586
2026-01-26 01:21:49.76	179.32	54.39	-40.7	-43.0	26.1	6.05e-01	0	38	0	621281280	53	4574
2026-01-26 01:21:50.61	179.54	54.03	-40.7	-43.1	26.0	6.02e-01	0	38	0	622854144	53	4607
2026-01-26 01:21:51.75	179.82	53.55	-41.0	-43.4	25.7	6.03e-01	0	39	0	624951296	53	4764
2026-01-26 01:21:52.60	180.02	53.19	-40.9	-43.1	25.9	6.03e-01	0	38	0	626524160	53	4651
2026-01-26 01:21:53.74	180.28	52.72	-41.0	-43.2	25.8	6.03e-01	0	38	0	628621312	53	4690
2026-01-26 01:21:54.59	180.48	52.37	-41.1	-43.4	25.6	6.01e-01	0	38	0	630194176	53	4781
2026-01-26 01:21:55.73	180.73	51.90	-41.1	-43.4	25.7	6.03e-01	0	38	0	632291328	53	4778
2026-01-26 01:21:56.58	180.91	51.56	-41.1	-43.4	25.7	6.03e-01	0	39	0	633864192	53	4767
2026-01-26 01:21:57.72	181.15	51.10	-41.1	-43.3	25.8	6.03e-01	0	38	0	635961344	53	4730
2026-01-26 01:21:58.57	181.32	50.76	-41.2	-43.4	25.6	6.03e-01	0	38	0	637534208	53	4813
2026-01-26 01:21:59.71	181.54	50.31	-41.6	-43.9	25.2	6.04e-01	0	38	0	639631360	53	5073
2026-01-26 01:22:00.64	181.72	49.94	-41.8	-44.1	25.0	6.01e-01	0	38	0	641204224	54	4915
2026-01-26 01:22:01.80	181.94	49.49	-41.6	-44.0	25.0	6.02e-01	0	38	0	643825664	54	4860
2026-01-26 01:22:02.65	182.09	49.16	-41.6	-44.0	25.0	6.06e-01	0	38	0	645398528	54	4869
2026-01-26 01:22:04.00	182.33	48.64	-41.7	-44.1	25.0	6.03e-01	0	38	0	648019968	54	4889
2026-01-26 01:22:04.72	182.46	48.37	-41.7	-44.1	25.0	6.04e-01	0	38	0	649068544	54	4911
2026-01-26 01:22:06.00	182.67	47.89	-41.6	-44.0	25.1	6.04e-01	0	38	0	651689984	54	4824
2026-01-26 01:22:06.71	182.79	47.62	-41.5	-43.9	25.2	6.01e-01	0	38	0	652738560	54	4773
2026-01-26 01:22:07.99	183.00	47.15	-41.5	-43.8	25.3	6.02e-01	0	38	0	655360000	54	4749
2026-01-26 01:22:08.71	183.11	46.89	-41.6	-44.0	25.1	6.02e-01	0	38	0	656408576	54	4822
2026-01-26 01:22:10.00	183.31	46.42	-41.8	-44.2	25.0	6.06e-01	0	38	0	659030016	54	4930
2026-01-26 01:22:10.71	183.42	46.16	-41.9	-44.3	24.8	6.04e-01	0	38	0	660602880	54	5028
2026-01-26 01:22:11.99	183.60	45.70	-42.0	-44.4	24.6	6.03e-01	0	38	0	662700032	54	5068
2026-01-26 01:22:12.71	183.71	45.45	-41.9	-44.3	24.8	6.02e-01	0	39	0	664272896	54	5013
2026-01-26 01:22:13.99	183.89	45.00	-41.7	-44.1	24.8	6.03e-01	0	38	0	666370048	54	4916
2026-01-26 01:22:14.72	183.99	44.74	-41.7	-44.1	25.0	6.03e-01	0	38	0	667942912	54	4900
2026-01-26 01:22:15.99	184.16	44.30	-41.8	-44.2	24.9	6.05e-01	0	38	0	670040064	54	4962
2026-01-26 01:22:16.70	184.25	44.06	-41.9	-44.3	24.8	6.03e-01	0	38	0	671612928	54	5041
2026-01-26 01:22:17.98	184.42	43.62	-41.9	-44.3	24.8	6.04e-01	0	38	0	673710080	54	5006
2026-01-26 01:22:18.73	184.51	43.37	-41.9	-44.3	24.8	6.03e-01	0	38	0	675282944	54	5005
2026-01-26 01:22:20.00	184.67	42.95	-41.9	-44.3	24.8	6.02e-01	0	38	0	677904384	54	5023
2026-01-26 01:22:20.71	184.76	42.71	-42.3	-44.8	24.4	6.03e-01	0	38	0	678952960	55	5021
2026-01-26 01:22:21.99	184.91	42.29	-42.3	-44.8	24.4	6.03e-01	0	38	0	681574400	55	4988
2026-01-26 01:22:22.71	184.99	42.06	-42.3	-44.8	24.4	6.05e-01	0	38	0	682622976	55	4986
2026-01-26 01:22:23.99	185.14	41.65	-42.2	-44.6	24.5	6.03e-01	0	38	0	685244416	55	4899
2026-01-26 01:22:24.71	185.22	41.42	-42.2	-44.6	24.6	6.04e-01	0	38	0	686817280	55	4889
2026-01-26 01:22:25.99	185.36	41.01	-42.3	-44.7	24.5	6.02e-01	0	38	0	688914432	55	4956
2026-01-26 01:22:26.72	185.44	40.78	-42.2	-44.7	24.5	6.02e-01	0	38	0	690487296	55	4939
2026-01-26 01:22:27.99	185.57	40.39	-42.5	-44.9	24.2	6.02e-01	0	38	0	692584448	55	5100
2026-01-26 01:22:28.72	185.65	40.16	-42.9	-45.4	23.9	6.04e-01	0	38	0	694157312	56	5079
2026-01-26 01:22:30.00	185.78	39.77	-42.9	-45.4	23.8	6.03e-01	0	38	0	696254464	56	5087
2026-01-26 01:22:30.71	185.85	39.56	-42.8	-45.3	23.9	6.04e-01	0	38	0	697827328	56	5029
2026-01-26 01:22:31.99	185.98	39.17	-42.6	-45.2	24.0	6.05e-01	0	38	0	700448768	56	4958
2026-01-26 01:22:32.72	186.05	38.96	-42.6	-45.2	24.1	6.04e-01	0	38	0	701497344	56	4965
2026-01-26 01:22:34.00	186.17	38.58	-42.7	-45.3	24.0	6.04e-01	0	38	0	704118784	56	5039
2026-01-26 01:22:34.71	186.24	38.37	-42.8	-45.4	23.9	6.03e-01	0	38	0	705167360	56	5098
2026-01-26 01:22:36.29	186.38	37.92	-42.9	-45.4	23.9	6.07e-01	0	38	0	708313088	56	5096
2026-01-26 01:22:36.92	186.44	37.73	-42.9	-45.5	23.8	6.02e-01	0	38	0	709361664	56	5101
2026-01-26 01:22:38.44	186.57	37.30	-42.4	-44.8	24.4	6.02e-01	0	38	0	712507392	56	4756
2026-01-26 01:22:39.15	186.63	37.10	-42.3	-44.8	24.5	6.05e-01	0	38	0	713555968	56	4731
2026-01-26 01:22:40.43	186.74	36.75	-42.1	-44.6	24.7	6.03e-01	0	38	0	716177408	56	4622
2026-01-26 01:22:41.15	186.80	36.55	-42.1	-44.5	24.7	6.02e-01	0	38	0	717225984	56	4581
2026-01-26 01:22:42.43	186.90	36.20	-41.9	-44.3	24.8	6.07e-01	0	38	0	719847424	55	4723
2026-01-26 01:22:43.16	186.96	36.00	-41.8	-44.2	24.9	6.06e-01	0	38	0	721420288	55	4685
2026-01-26 01:22:44.44	187.07	35.66	-41.6	-44.1	25.0	6.03e-01	0	38	0	723517440	55	4611
2026-01-26 01:22:45.15	187.12	35.47	-41.5	-44.0	25.1	6.04e-01	0	38	0	725090304	55	4573
2026-01-26 01:22:46.43	187.22	35.13	-41.5	-43.9	25.2	6.05e-01	0	38	0	727187456	54	4792
2026-01-26 01:22:47.18	187.28	34.93	-41.5	-43.9	25.2	6.03e-01	0	38	0	728760320	54	4812
2026-01-26 01:22:48.76	187.39	34.52	-41.4	-43.9	25.3	6.04e-01	0	38	0	731906048	54	4760
2026-01-26 01:22:49.41	187.44	34.35	-41.4	-43.8	25.3	6.04e-01	0	38	0	732954624	54	4734
2026-01-26 01:22:50.83	187.54	33.99	-41.4	-43.8	25.2	6.02e-01	0	38	0	735576064	54	4750
2026-01-26 01:22:51.54	187.59	33.81	-41.3	-43.7	25.4	6.02e-01	0	38	0	736624640	54	4659
2026-01-26 01:22:52.82	187.68	33.49	-41.1	-43.4	25.6	6.04e-01	0	38	0	739246080	54	4532
2026-01-26 01:22:53.54	187.73	33.31	-41.0	-43.2	25.8	6.03e-01	0	38	0	740818944	54	4440
2026-01-26 01:22:54.82	187.82	33.00	-40.8	-43.1	25.9	6.00e-01	0	38	0	742916096	53	4618
2026-01-26 01:22:55.53	187.87	32.83	-40.8	-43.0	26.0	6.04e-01	0	38	0	744488960	53	4576
2026-01-26 01:22:56.82	187.95	32.51	-40.7	-43.0	26.0	6.02e-01	0	38	0	746586112	53	4548
2026-01-26 01:22:57.54	188.00	32.34	-40.7	-42.9	26.1	6.04e-01	0	38	0	748158976	53	4528
2026-01-26 01:22:58.82	188.08	32.04	-40.5	-42.7	26.1	6.03e-01	0	38	0	750780416	53	4436
2026-01-26 01:22:59.54	188.12	31.87	-40.6	-42.8	26.1	6.04e-01	0	38	0	751828992	53	4467
2026-01-26 01:23:00.83	188.20	31.56	-40.6	-42.9	26.0	6.04e-01	0	38	0	754450432	53	4522
2026-01-26 01:23:01.59	188.25	31.39	-40.7	-42.9	26.0	6.02e-01	0	38	0	755499008	53	4544
2026-01-26 01:23:02.86	188.33	31.10	-40.6	-42.9	26.1	6.03e-01	0	38	0	758120448	53	4505
2026-01-26 01:23:03.61	188.37	30.93	-40.6	-42.8	26.1	6.01e-01	0	38	0	759693312	53	4477
2026-01-26 01:23:05.19	188.46	30.57	-40.6	-42.9	26.1	6.04e-01	0	38	0	762314752	53	4520
2026-01-26 01:23:05.82	188.50	30.43	-40.6	-42.9	25.8	6.05e-01	0	38	0	763887616	53	4523
2026-01-26 01:23:07.33	188.59	30.09	-40.7	-43.0	26.0	6.05e-01	0	38	0	766509056	53	4555
2026-01-26 01:23:08.04	188.63	29.94	-40.7	-42.9	26.0	6.03e-01	0	38	0	767557632	53	4537
2026-01-26 01:23:09.32	188.70	29.66	-40.8	-43.1	25.9	6.04e-01	0	38	0	770179072	53	4630
2026-01-26 01:23:10.03	188.74	29.50	-40.9	-43.2	25.8	6.03e-01	0	38	0	771751936	53	4658
2026-01-26 01:23:11.31	188.81	29.23	-40.9	-43.2	25.8	6.02e-01	0	38	0	773849088	53	4687
2026-01-26 01:23:12.04	188.84	29.07	-41.0	-43.3	25.6	6.05e-01	0	38	0	775421952	53	4749
2026-01-26 01:23:13.32	188.91	28.80	-40.9	-43.2	25.7	6.02e-01	0	38	0	777519104	53	4685
2026-01-26 01:23:14.04	188.95	28.65	-40.9	-43.2	25.7	6.03e-01	0	38	0	779091968	53	4691
2026-01-26 01:23:15.32	189.01	28.38	-40.9	-43.2	25.7	6.03e-01	0	38	0	781713408	53	4665
2026-01-26 01:23:16.03	189.05	28.24	-40.9	-43.2	25.7	6.03e-01	0	38	0	782761984	53	4696
2026-01-26 01:23:17.31	189.11	27.98	-41.0	-43.3	25.6	6.04e-01	0	38	0	785383424	53	4713
2026-01-26 01:23:18.04	189.15	27.83	-40.8	-43.0	25.8	6.04e-01	0	38	0	786432000	53	4587
2026-01-26 01:23:19.32	189.21	27.57	-40.7	-43.0	25.9	6.03e-01	0	38	0	789053440	53	4559
2026-01-26 01:23:20.04	189.25	27.43	-40.8	-43.1	25.8	6.04e-01	0	38	0	790102016	53	4620
2026-01-26 01:23:21.32	189.31	27.17	-40.9	-43.2	25.7	6.02e-01	0	38	0	792723456	53	4669
2026-01-26 01:23:22.17	189.35	27.00	-41.0	-43.3	25.6	6.01e-01	0	38	0	794296320	53	4735
2026-01-26 01:23:23.63	189.42	26.72	-41.0	-43.3	25.6	6.03e-01	0	38	0	796917760	53	4752
2026-01-26 01:23:24.34	189.45	26.58	-41.0	-43.3	25.6	6.06e-01	0	39	0	798490624	53	4757
2026-01-26 01:23:25.62	189.51	26.34	-41.1	-43.5	25.5	6.02e-01	0	38	0	800587776	53	4833
2026-01-26 01:23:26.34	189.54	26.20	-41.2	-43.5	25.5	6.05e-01	0	38	0	802160640	53	4854
2026-01-26 01:23:27.62	189.59	25.96	-41.2	-43.6	25.4	6.03e-01	0	38	0	804782080	53	4894
2026-01-26 01:23:28.33	189.63	25.82	-41.3	-43.7	25.3	6.05e-01	0	38	0	805830656	53	4953
2026-01-26 01:23:29.61	189.68	25.59	-41.4	-43.8	25.2	6.02e-01	0	38	0	808452096	53	5027
2026-01-26 01:23:30.32	189.71	25.45	-41.4	-43.9	25.1	6.04e-01	0	38	0	809500672	53	5067
2026-01-26 01:23:31.61	189.77	25.22	-41.5	-44.1	25.0	6.03e-01	0	38	0	812122112	53	5177
2026-01-26 01:23:32.33	189.80	25.09	-41.6	-44.2	24.9	6.01e-01	0	38	0	813170688	53	5227
2026-01-26 01:23:33.61	189.85	24.85	-41.6	-44.2	24.8	6.02e-01	0	38	0	815792128	53	5253
2026-01-26 01:23:34.33	189.88	24.73	-41.6	-44.2	24.8	6.06e-01	0	38	0	817364992	53	5276
2026-01-26 01:23:35.60	189.93	24.50	-41.7	-44.2	24.8	6.02e-01	0	38	0	819462144	54	4983
2026-01-26 01:23:36.33	189.96	24.37	-41.8	-44.3	24.8	6.03e-01	0	38	0	821035008	54	4988
2026-01-26 01:23:37.68	190.01	24.13	-41.9	-44.4	24.7	6.04e-01	0	38	0	823656448	54	5055
2026-01-26 01:23:38.39	190.04	24.01	-41.8	-44.3	24.7	6.05e-01	0	38	0	824705024	54	5033
2026-01-26 01:23:39.74	190.09	23.78	-41.8	-44.2	24.8	6.03e-01	0	38	0	827326464	54	4977
2026-01-26 01:23:40.45	190.12	23.65	-41.7	-44.2	24.8	6.05e-01	0	38	0	828899328	54	4950
2026-01-26 01:23:41.73	190.17	23.44	-41.8	-44.3	24.7	6.03e-01	0	38	0	830996480	54	5038
2026-01-26 01:23:42.44	190.19	23.31	-41.8	-44.2	24.8	6.01e-01	0	38	0	832569344	54	4977
2026-01-26 01:23:43.72	190.24	23.10	-41.7	-44.2	24.8	6.02e-01	0	38	0	834666496	54	4975
2026-01-26 01:23:44.44	190.27	22.98	-41.8	-44.3	24.7	6.04e-01	0	38	0	836239360	54	4995
2026-01-26 01:23:45.72	190.31	22.77	-41.7	-44.2	24.8	6.03e-01	0	38	0	838336512	54	4960
2026-01-26 01:23:46.43	190.34	22.65	-41.7	-44.2	24.8	6.03e-01	0	38	0	839909376	54	4948
2026-01-26 01:23:47.70	190.39	22.44	-41.6	-44.1	24.9	6.02e-01	0	38	0	842006528	54	4890
2026-01-26 01:23:48.42	190.41	22.33	-41.5	-44.0	24.9	6.03e-01	0	38	0	843579392	54	4826
2026-01-26 01:23:49.70	190.46	22.12	-41.5	-44.0	25.0	6.05e-01	0	38	0	845676544	54	4839
2026-01-26 01:23:50.52	190.48	21.99	-41.4	-43.9	25.0	6.03e-01	0	38	0	847249408	54	4783
2026-01-26 01:23:51.65	190.52	21.81	-41.4	-43.8	25.1	6.03e-01	0	38	0	849870848	54	4757
2026-01-26 01:23:52.81	190.56	21.62	-41.3	-43.8	25.2	6.05e-01	0	38	0	851968000	54	4706
2026-01-26 01:23:53.83	190.60	21.46	-41.3	-43.7	25.2	6.04e-01	0	38	0	853540864	54	4705
2026-01-26 01:23:54.83	190.63	21.31	-41.3	-43.8	25.1	6.05e-01	0	38	0	855638016	54	4731
2026-01-26 01:23:55.82	190.66	21.16	-41.4	-43.9	25.0	6.03e-01	0	38	0	857210880	54	4803
2026-01-26 01:23:56.81	190.69	21.00	-41.3	-43.9	25.1	6.04e-01	0	38	0	859308032	54	4764
2026-01-26 01:23:57.81	190.73	20.85	-41.4	-43.9	25.1	6.02e-01	0	38	0	861405184	54	4773
2026-01-26 01:23:58.81	190.76	20.70	-41.3	-43.8	25.1	6.06e-01	0	38	0	862978048	54	4734
2026-01-26 01:23:59.80	190.79	20.55	-41.3	-43.8	25.1	6.03e-01	0	38	0	865075200	54	4736
2026-01-26 01:24:00.79	190.82	20.40	-41.3	-43.8	25.1	6.06e-01	0	38	0	866648064	54	4745
2026-01-26 01:24:01.79	190.85	20.25	-41.3	-43.9	25.0	6.03e-01	0	38	0	868745216	54	4762
2026-01-26 01:24:02.79	190.88	20.11	-41.4	-44.0	25.0	6.03e-01	0	38	0	870318080	54	4836
2026-01-26 01:24:03.78	190.91	19.96	-41.5	-44.0	24.9	6.03e-01	0	38	0	872415232	54	4844
2026-01-26 01:24:04.86	190.95	19.80	-41.5	-44.1	24.9	6.03e-01	0	38	0	874512384	54	4873
2026-01-26 01:24:05.76	190.97	19.67	-41.5	-44.0	23.8	6.01e-01	0	38	0	876085248	54	4851
2026-01-26 01:24:06.79	191.00	19.52	-41.5	-44.0	24.9	6.01e-01	0	38	0	878182400	54	4867
2026-01-26 01:24:07.94	191.04	19.36	-41.4	-44.0	25.0	6.02e-01	0	38	0	880279552	54	4829
2026-01-26 01:24:08.85	191.06	19.23	-41.4	-43.9	25.0	6.04e-01	0	38	0	881852416	54	4788
2026-01-26 01:24:09.85	191.09	19.09	-41.4	-44.0	24.9	6.03e-01	0	38	0	883425280	54	4844
2026-01-26 01:24:10.85	191.12	18.95	-41.4	-44.0	24.9	6.05e-01	0	38	0	885522432	54	4859
2026-01-26 01:24:11.84	191.15	18.81	-41.5	-44.0	24.9	6.03e-01	0	38	0	887619584	54	4868
2026-01-26 01:24:12.84	191.18	18.67	-41.4	-44.0	24.9	6.04e-01	0	38	0	889192448	54	4847
2026-01-26 01:24:13.83	191.21	18.53	-41.4	-44.0	24.9	6.02e-01	0	38	0	891289600	54	4831
2026-01-26 01:24:14.82	191.23	18.40	-41.4	-44.0	24.7	6.01e-01	0	38	0	892862464	54	4866
2026-01-26 01:24:15.82	191.26	18.26	-41.5	-44.1	24.8	6.04e-01	0	38	0	894959616	54	4925
2026-01-26 01:24:16.81	191.29	18.13	-41.4	-44.1	24.9	6.03e-01	0	38	0	897056768	54	4881
2026-01-26 01:24:17.81	191.31	17.99	-41.4	-44.0	24.9	6.06e-01	0	38	0	898629632	54	4867
2026-01-26 01:24:18.88	191.34	17.85	-41.5	-44.2	24.8	6.03e-01	0	39	0	900726784	54	4942
2026-01-26 01:24:19.77	191.37	17.73	-41.5	-44.3	24.7	6.04e-01	0	38	0	902299648	54	4984
2026-01-26 01:24:20.90	191.40	17.58	-41.5	-44.2	24.7	6.02e-01	0	38	0	904396800	54	4975
2026-01-26 01:24:21.80	191.42	17.46	-41.5	-44.2	24.7	6.03e-01	0	38	0	905969664	54	4944
2026-01-26 01:24:22.83	191.45	17.33	-41.6	-44.3	24.6	6.04e-01	0	38	0	908066816	54	5009
2026-01-26 01:24:23.82	191.47	17.20	-41.6	-44.3	24.6	6.04e-01	0	38	0	910163968	54	5038
2026-01-26 01:24:24.82	191.50	17.07	-41.6	-44.3	24.6	6.05e-01	0	38	0	911736832	54	5003
2026-01-26 01:24:25.82	191.52	16.94	-41.6	-44.3	24.6	6.05e-01	0	38	0	913833984	54	5001
2026-01-26 01:24:26.81	191.55	16.82	-41.5	-44.1	24.8	6.04e-01	0	38	0	915406848	54	4905
2026-01-26 01:24:27.80	191.57	16.69	-41.5	-44.1	24.7	6.03e-01	0	38	0	917504000	54	4925
2026-01-26 01:24:28.80	191.60	16.56	-41.5	-44.1	24.7	6.03e-01	0	38	0	919076864	54	4903
2026-01-26 01:24:29.79	191.62	16.44	-41.5	-44.1	24.7	6.03e-01	0	38	0	921174016	54	4925
2026-01-26 01:24:30.79	191.65	16.32	-41.4	-44.1	24.8	6.03e-01	0	38	0	922746880	54	4897
2026-01-26 01:24:31.86	191.67	16.18	-41.3	-44.0	24.9	6.04e-01	0	38	0	924844032	54	4841
2026-01-26 01:24:32.76	191.69	16.07	-41.3	-44.0	24.8	6.05e-01	0	38	0	926941184	54	4866
2026-01-26 01:24:33.86	191.72	15.94	-41.3	-44.0	24.8	6.04e-01	0	38	0	928514048	54	4839
2026-01-26 01:24:34.72	191.74	15.83	-41.3	-44.0	24.8	6.02e-01	0	38	0	930611200	54	4837
2026-01-26 01:24:36.09	191.77	15.67	-41.3	-44.1	24.7	6.03e-01	0	38	0	932708352	54	4891
2026-01-26 01:24:36.80	191.79	15.58	-41.2	-44.0	24.8	6.04e-01	0	38	0	934281216	54	4829
2026-01-26 01:24:38.08	191.82	15.43	-41.1	-43.9	24.8	6.04e-01	0	38	0	936902656	54	4810
2026-01-26 01:24:38.81	191.83	15.34	-41.1	-43.9	24.9	6.03e-01	0	38	0	937951232	54	4787
2026-01-26 01:24:40.08	191.86	15.19	-41.1	-43.9	24.9	6.00e-01	0	38	0	940572672	54	4805
2026-01-26 01:24:40.80	191.88	15.10	-41.1	-43.9	24.9	6.04e-01	0	38	0	941621248	54	4781
2026-01-26 01:24:42.08	191.91	14.95	-41.1	-43.9	24.9	6.05e-01	0	38	0	944242688	54	4763
2026-01-26 01:24:42.79	191.92	14.87	-41.1	-43.9	24.9	6.00e-01	0	38	0	945291264	54	4765
2026-01-26 01:24:44.07	191.95	14.72	-41.0	-43.8	25.0	6.03e-01	0	38	0	947912704	54	4728
2026-01-26 01:24:44.78	191.97	14.64	-41.0	-43.8	24.9	6.05e-01	0	39	0	948961280	53	5006
2026-01-26 01:24:46.05	192.00	14.49	-41.0	-43.8	24.9	6.03e-01	0	38	0	951582720	53	5004
2026-01-26 01:24:46.77	192.01	14.41	-41.0	-43.8	24.9	6.01e-01	0	38	0	953155584	53	5024
2026-01-26 01:24:48.04	192.04	14.27	-41.0	-43.8	24.9	6.03e-01	0	38	0	955252736	53	5017
2026-01-26 01:24:48.77	192.05	14.18	-41.1	-43.9	24.9	6.03e-01	0	38	0	956825600	53	5049
2026-01-26 01:24:50.05	192.08	14.04	-41.1	-43.8	25.0	6.04e-01	0	38	0	958922752	53	5010
2026-01-26 01:24:50.77	192.10	13.96	-41.1	-43.9	24.9	6.05e-01	0	38	0	960495616	53	5053
2026-01-26 01:24:52.06	192.12	13.81	-41.1	-43.8	25.0	6.03e-01	0	38	0	963117056	53	5014
2026-01-26 01:24:52.78	192.14	13.73	-41.1	-43.8	24.9	6.02e-01	0	38	0	964165632	53	5012
2026-01-26 01:24:54.06	192.16	13.59	-41.2	-43.9	24.8	6.05e-01	0	38	0	966787072	53	5055
2026-01-26 01:24:54.79	192.18	13.51	-41.1	-43.8	24.9	6.03e-01	0	38	0	967835648	53	5030
2026-01-26 01:24:56.07	192.21	13.37	-41.2	-43.9	24.9	6.04e-01	0	38	0	970457088	53	5051
2026-01-26 01:24:56.79	192.22	13.29	-41.1	-43.7	25.0	6.03e-01	0	38	0	971505664	53	4970
2026-01-26 01:24:58.07	192.25	13.16	-41.1	-43.9	24.9	6.06e-01	0	38	0	974127104	53	5050
2026-01-26 01:24:58.80	192.26	13.08	-41.2	-43.9	24.9	6.03e-01	0	38	0	975699968	53	5087
2026-01-26 01:25:00.08	192.29	12.94	-41.2	-43.9	24.9	6.02e-01	0	38	0	977797120	53	5056
2026-01-26 01:25:00.80	192.30	12.86	-41.2	-43.9	24.7	6.01e-01	0	38	0	979369984	53	5095
2026-01-26 01:25:02.16	192.33	12.72	-41.1	-43.9	24.9	6.03e-01	0	39	0	981991424	53	5053
2026-01-26 01:25:02.87	192.34	12.64	-41.1	-43.9	24.8	6.02e-01	0	38	0	983040000	53	5074
2026-01-26 01:25:04.31	192.37	12.49	-41.0	-43.8	24.9	5.99e-01	0	38	0	985661440	53	5017
2026-01-26 01:25:05.02	192.38	12.42	-41.1	-43.9	24.8	6.02e-01	0	38	0	987234304	53	5098
2026-01-26 01:25:06.30	192.41	12.29	-41.1	-43.9	24.9	6.02e-01	0	38	0	989331456	53	5075
2026-01-26 01:25:07.02	192.42	12.21	-41.2	-44.0	24.7	6.04e-01	0	38	0	990904320	53	5140
2026-01-26 01:25:08.30	192.44	12.08	-41.2	-44.0	24.8	6.05e-01	0	38	0	993525760	53	5102
2026-01-26 01:25:09.01	192.46	12.01	-41.3	-44.1	24.6	6.03e-01	0	38	0	994574336	53	5201
2026-01-26 01:25:10.30	192.48	11.87	-41.1	-43.9	24.7	6.03e-01	0	39	0	997195776	53	5095
2026-01-26 01:25:11.01	192.49	11.80	-41.3	-44.1	24.6	6.04e-01	0	38	0	998244352	53	5185
2026-01-26 01:25:12.29	192.52	11.67	-41.2	-44.0	24.7	6.04e-01	0	38	0	1000865792	53	5146
2026-01-26 01:25:13.01	192.53	11.60	-41.2	-44.0	24.7	6.06e-01	0	38	0	1002438656	53	5131
2026-01-26 01:25:14.29	192.55	11.47	-41.3	-44.1	24.6	6.02e-01	0	38	0	1004535808	53	5162
2026-01-26 01:25:15.13	192.57	11.39	-41.3	-44.1	24.6	6.02e-01	0	38	0	1006108672	53	5177
2026-01-26 01:25:16.26	192.59	11.28	-41.2	-44.0	24.7	6.03e-01	0	38	0	1008205824	53	5131
2026-01-26 01:25:17.12	192.60	11.19	-41.3	-44.1	24.6	6.03e-01	0	38	0	1009778688	53	5194
2026-01-26 01:25:18.26	192.62	11.08	-41.3	-44.1	24.6	6.03e-01	0	38	0	1011875840	53	5188
2026-01-26 01:25:19.11	192.64	11.00	-41.3	-44.1	24.5	6.04e-01	0	38	0	1013448704	53	5210
2026-01-26 01:25:20.25	192.66	10.88	-41.3	-44.2	24.5	6.01e-01	0	38	0	1015545856	53	5254
2026-01-26 01:25:21.10	192.67	10.80	-41.3	-44.2	24.5	6.02e-01	0	38	0	1017118720	53	5219
2026-01-26 01:25:22.24	192.69	10.69	-41.4	-44.2	24.4	6.03e-01	0	38	0	1019215872	53	5256
2026-01-26 01:25:23.09	192.71	10.61	-41.4	-44.3	24.4	6.04e-01	0	38	0	1020788736	53	5285
2026-01-26 01:25:24.23	192.73	10.50	-41.4	-44.3	24.4	6.03e-01	0	38	0	1023410176	53	5311
2026-01-26 01:25:25.08	192.74	10.42	-41.5	-44.4	24.3	6.01e-01	0	38	0	1024983040	53	5342
2026-01-26 01:25:26.53	192.77	10.28	-41.5	-44.4	24.3	6.04e-01	0	38	0	1027604480	53	5347
2026-01-26 01:25:27.24	192.78	10.21	-41.5	-44.3	24.4	6.05e-01	0	38	0	1028653056	53	5318
2026-01-26 01:25:28.73	192.80	10.07	-41.5	-44.4	24.3	6.03e-01	0	38	0	1031798784	53	5377
2026-01-26 01:25:29.44	192.81	10.01	-41.5	-44.4	24.2	6.03e-01	0	38	0	1032847360	53	5365
2026-01-26 01:25:30.72	192.83	9.89	-41.5	-44.4	24.2	6.03e-01	0	38	0	1035468800	53	5394
2026-01-26 01:25:31.76	192.85	9.79	-41.5	-44.5	24.1	6.02e-01	0	38	0	1037565952	53	5422
2026-01-26 01:25:32.71	192.87	9.70	-41.6	-44.5	24.1	6.03e-01	0	38	0	1039138816	53	5446
2026-01-26 01:25:33.71	192.88	9.61	-41.6	-44.5	24.1	6.03e-01	0	38	0	1041235968	53	5443
2026-01-26 01:25:34.70	192.90	9.52	-41.6	-44.6	24.0	6.04e-01	0	38	0	1042808832	53	5465
2026-01-26 01:25:35.69	192.91	9.43	-41.6	-44.6	24.0	6.03e-01	0	38	0	1044905984	53	5488
2026-01-26 01:25:36.69	192.93	9.34	-41.6	-44.6	24.0	6.05e-01	0	38	0	1046478848	53	5504
2026-01-26 01:25:37.68	192.95	9.25	-41.6	-44.6	24.0	6.06e-01	0	39	0	1048576000	54	5202
2026-01-26 01:25:38.68	192.96	9.16	-41.6	-44.7	23.9	6.05e-01	0	38	0	1050148864	54	5246
2026-01-26 01:25:39.75	192.98	9.06	-41.6	-44.7	23.9	6.01e-01	0	38	0	1052246016	54	5254
2026-01-26 01:25:40.64	192.99	8.98	-43.4	-47.2	22.1	6.04e-01	0	38	0	1053818880	57	5908
2026-01-26 01:25:41.77	193.01	8.88	-47.9	-66.8	4.4	7.38e-01	0	38	104	1054343168	66	33311
2026-01-26 01:25:42.62	193.02	8.81	-47.9	-70.1	3.8	7.44e-01	0	38	104	1054343168	67	46311
2026-01-26 01:25:43.76	193.04	8.71	-49.4	-70.4	3.8	7.48e-01	0	38	104	1054343168	69	42831
2026-01-26 01:25:44.61	193.05	8.63	-49.5	-70.5	3.8	7.46e-01	0	38	104	1054343168	70	40752
2026-01-26 01:25:45.75	193.07	8.53	-50.4	-70.5	3.9	7.48e-01	0	38	104	1054343168	71	38654
2026-01-26 01:25:46.60	193.08	8.46	-49.8	-70.6	3.8	7.45e-01	0	38	104	1054343168	71	38825
2026-01-26 01:25:47.73	193.10	8.36	-50.5	-70.7	3.8	7.47e-01	0	38	104	1054343168	71	39277
2026-01-26 01:25:48.59	193.11	8.28	-50.2	-70.7	3.8	7.48e-01	0	38	104	1054343168	71	39387
2026-01-26 01:25:49.72	193.13	8.19	-50.4	-70.7	3.8	7.49e-01	0	39	104	1054343168	71	39582
2026-01-26 01:25:50.57	193.14	8.11	-50.2	-70.8	3.8	7.42e-01	0	39	104	1054343168	71	39691
2026-01-26 01:25:51.71	193.16	8.02	-50.7	-70.8	3.8	7.48e-01	0	38	104	1054343168	71	39706
2026-01-26 01:25:52.56	193.17	7.94	-50.6	-70.8	3.8	7.46e-01	0	38	104	1054343168	71	39745
2026-01-26 01:25:53.70	193.19	7.85	-50.4	-70.8	3.9	7.44e-01	0	38	104	1054343168	71	39808
2026-01-26 01:25:54.55	193.20	7.77	-50.7	-70.8	3.8	7.43e-01	0	38	104	1054343168	71	39776
2026-01-26 01:25:55.68	193.21	7.68	-50.3	-70.8	3.8	7.49e-01	0	38	104	1054343168	72	37413
2026-01-26 01:25:56.53	193.23	7.61	-50.1	-70.7	3.8	7.43e-01	0	38	104	1054343168	72	37374
2026-01-26 01:25:57.67	193.24	7.51	-50.5	-70.8	3.8	7.44e-01	0	38	104	1054343168	71	39782
2026-01-26 01:25:58.52	193.26	7.44	-50.7	-70.9	3.8	7.45e-01	0	38	104	1054343168	72	38217
2026-01-26 01:25:59.66	193.27	7.35	-50.4	-70.7	3.8	7.46e-01	0	38	104	1054343168	72	37364
2026-01-26 01:26:00.51	193.28	7.27	-50.0	-70.7	3.8	7.46e-01	0	38	104	1054343168	72	37344
2026-01-26 01:26:01.64	193.30	7.18	-50.3	-70.8	3.8	7.46e-01	0	38	104	1054343168	71	39716
2026-01-26 01:26:02.50	193.31	7.11	-50.1	-70.8	3.8	7.50e-01	0	39	104	1054343168	71	39795
2026-01-26 01:26:03.63	193.33	7.02	-50.3	-70.8	3.8	7.46e-01	0	38	104	1054343168	71	39789
2026-01-26 01:26:04.48	193.34	6.95	-50.0	-70.8	3.8	7.47e-01	0	38	104	1054343168	70	42061
2026-01-26 01:26:05.62	193.35	6.86	-49.7	-70.7	3.8	7.45e-01	0	39	104	1054343168	71	39545
2026-01-26 01:26:06.47	193.36	6.79	-49.9	-70.7	3.8	7.49e-01	0	38	104	1054343168	71	39409
2026-01-26 01:26:07.64	193.38	6.69	-49.9	-70.7	3.8	7.45e-01	0	39	104	1054343168	71	39438
2026-01-26 01:26:08.49	193.39	6.62	-49.9	-70.7	3.8	7.49e-01	0	38	104	1054343168	71	39390
2026-01-26 01:26:09.62	193.41	6.53	-49.9	-70.7	3.8	7.44e-01	0	39	104	1054343168	71	39405
2026-01-26 01:26:10.48	193.42	6.46	-49.9	-70.7	3.8	7.46e-01	0	38	104	1054343168	71	39357
2026-01-26 01:26:11.61	193.43	6.37	-49.9	-70.7	3.8	7.45e-01	0	38	104	1054343168	71	39387
2026-01-26 01:26:12.46	193.44	6.31	-49.9	-70.7	3.8	7.50e-01	0	39	104	1054343168	71	39382
2026-01-26 01:26:13.60	193.46	6.21	-49.9	-70.7	3.8	7.48e-01	0	39	104	1054343168	71	39349
2026-01-26 01:26:14.45	193.47	6.15	-49.9	-70.7	3.8	7.45e-01	0	38	104	1054343168	71	39307
2026-01-26 01:26:15.59	193.49	6.06	-49.9	-70.7	3.8	7.47e-01	0	38	104	1054343168	71	39312
2026-01-26 01:26:16.44	193.50	5.99	-49.9	-70.7	3.8	7.44e-01	0	38	104	1054343168	71	39321
2026-01-26 01:26:17.57	193.51	5.90	-49.9	-70.7	3.8	7.47e-01	0	38	104	1054343168	71	39340
2026-01-26 01:26:18.43	193.52	5.84	-49.9	-70.7	3.8	7.47e-01	0	38	104	1054343168	71	39321
2026-01-26 01:26:19.56	193.54	5.75	-49.9	-70.7	3.8	7.45e-01	0	38	104	1054343168	71	39373
2026-01-26 01:26:20.41	193.55	5.68	-49.9	-70.7	3.8	7.44e-01	0	38	104	1054343168	71	39309
2026-01-26 01:26:21.55	193.56	5.59	-49.8	-70.7	3.8	7.43e-01	0	38	104	1054343168	71	39267
2026-01-26 01:26:22.40	193.57	5.53	-49.8	-70.7	3.8	7.48e-01	0	39	104	1054343168	71	39323
2026-01-26 01:26:23.54	193.59	5.44	-49.9	-70.7	3.8	7.45e-01	0	39	104	1054343168	71	39351
2026-01-26 01:26:24.39	193.60	5.38	-49.8	-70.7	3.8	7.47e-01	0	38	104	1054343168	71	39220
2026-01-26 01:26:25.52	193.61	5.29	-49.8	-70.7	3.8	7.47e-01	0	38	104	1054343168	71	39326
2026-01-26 01:26:26.37	193.62	5.23	-49.8	-70.7	3.8	7.46e-01	0	38	104	1054343168	71	39222
2026-01-26 01:26:27.51	193.64	5.14	-49.9	-70.7	3.8	7.45e-01	0	38	104	1054343168	71	39313
2026-01-26 01:26:28.36	193.65	5.07	-49.9	-70.7	3.8	7.48e-01	0	38	104	1054343168	71	39291
2026-01-26 01:26:29.49	193.66	4.99	-49.8	-70.7	3.8	7.45e-01	0	38	104	1054343168	71	39320

#Closed at: 2026-01-26 01:26:30
#Recorded file [1054 MB]: D:/Data/31040_260126_041506.dat