passes_logs/2026/01/26/T1/T1__20260126_164626_FENGYUN_3G_rec.log

#Pass ID: 20260126_164626_FENGYUN 3G
#Satellite: FENGYUN 3G
#Configuration: FENGYUN 3G
#almurnet v.1.7.20251203
#Start time: 2026-01-26 16:46:27

#Version: 2.0.20230620
#Station: T1
#Location: 37.570604 lon 55.790049 lat
#TLE: 1 56232U 23055A   26025.91671677  .00046094  00000+0  69205-3 0  9999
#TLE: 2 56232  49.9949 359.5770 0004051  85.3034 274.8396 15.54373411157896

#Time	Az	El	Level	Level2	SNR	BER	BlckErr	Temp	State	Recorded	gain1	gain2
2026-01-26 16:46:27.92	211.71	5.06	-48.5	-67.9	3.8	8.48e-01	0	40	0	0	68	33991
2026-01-26 16:46:28.91	211.58	5.13	-48.5	-67.9	3.8	8.39e-01	0	40	104	0	69	31917
2026-01-26 16:46:29.91	211.45	5.20	-48.5	-67.9	3.8	8.48e-01	0	41	104	0	69	31914
2026-01-26 16:46:30.91	211.31	5.26	-48.5	-67.9	3.8	8.47e-01	0	40	104	0	69	31973
2026-01-26 16:46:31.90	211.18	5.33	-48.5	-67.9	3.8	8.47e-01	0	40	104	0	69	31979
2026-01-26 16:46:32.90	211.04	5.40	-48.5	-67.9	3.8	8.47e-01	0	41	104	0	69	31885
2026-01-26 16:46:33.90	210.90	5.47	-48.5	-67.9	3.8	8.46e-01	0	41	104	0	69	32025
2026-01-26 16:46:34.89	210.76	5.53	-48.5	-67.9	3.8	8.46e-01	0	41	104	0	69	31921
2026-01-26 16:46:35.89	210.62	5.60	-48.5	-67.9	3.8	8.47e-01	0	41	104	0	69	31973
2026-01-26 16:46:36.89	210.48	5.67	-48.5	-67.9	3.8	8.46e-01	0	41	104	0	69	31925
2026-01-26 16:46:37.88	210.34	5.74	-48.5	-67.9	3.8	8.46e-01	0	41	104	0	69	31849
2026-01-26 16:46:38.88	210.20	5.81	-48.5	-67.9	3.8	8.46e-01	0	41	104	0	69	31925
2026-01-26 16:46:39.88	210.06	5.87	-48.5	-67.8	3.8	8.47e-01	0	41	104	0	69	31601
2026-01-26 16:46:40.87	209.91	5.94	-48.5	-67.8	3.8	8.47e-01	0	41	104	0	69	31574
2026-01-26 16:46:41.87	209.77	6.01	-48.5	-67.7	3.8	8.48e-01	0	41	104	0	69	31420
2026-01-26 16:46:42.87	209.62	6.08	-48.5	-67.8	3.8	8.46e-01	0	41	104	0	68	33356
2026-01-26 16:46:43.86	209.48	6.15	-48.5	-67.7	3.8	8.46e-01	0	41	104	0	68	33260
2026-01-26 16:46:44.86	209.33	6.22	-48.5	-67.8	3.8	8.47e-01	0	41	104	0	68	33409
2026-01-26 16:46:45.86	209.18	6.29	-48.5	-67.7	3.8	8.46e-01	0	41	104	0	68	33287
2026-01-26 16:46:46.85	209.03	6.36	-48.5	-67.7	3.8	8.47e-01	0	41	104	0	68	33034
2026-01-26 16:46:47.85	208.88	6.43	-48.5	-67.6	3.8	8.47e-01	0	41	104	0	68	32909
2026-01-26 16:46:48.85	208.72	6.50	-48.5	-67.7	3.8	8.46e-01	0	41	104	0	68	32934
2026-01-26 16:46:49.84	208.57	6.57	-48.5	-67.7	3.8	8.47e-01	0	41	104	0	68	33024
2026-01-26 16:46:50.84	208.42	6.64	-48.5	-67.8	3.8	8.47e-01	0	41	104	0	68	33550
2026-01-26 16:46:51.83	208.26	6.71	-48.5	-67.9	3.8	8.46e-01	0	41	104	0	68	33739
2026-01-26 16:46:52.83	208.11	6.78	-48.5	-67.8	3.8	8.45e-01	0	41	104	0	68	33659
2026-01-26 16:46:53.82	207.95	6.85	-48.5	-67.9	3.8	8.45e-01	0	41	104	0	68	33727
2026-01-26 16:46:54.82	207.79	6.92	-48.5	-67.8	3.8	8.47e-01	0	42	104	0	68	33576
2026-01-26 16:46:55.82	207.63	6.99	-48.5	-67.8	3.8	8.46e-01	0	42	104	0	68	33488
2026-01-26 16:46:56.81	207.47	7.06	-48.5	-67.7	3.8	8.46e-01	0	41	104	0	68	33158
2026-01-26 16:46:57.81	207.31	7.13	-48.5	-67.7	3.8	8.46e-01	0	41	104	0	68	33129
2026-01-26 16:46:58.81	207.15	7.20	-48.5	-67.5	3.8	8.47e-01	0	42	104	0	68	32523
2026-01-26 16:46:59.80	206.98	7.28	-48.5	-67.4	3.8	8.47e-01	0	41	104	0	68	32082
2026-01-26 16:47:00.77	206.82	7.34	-48.4	-67.4	3.8	8.47e-01	0	42	104	0	68	32098
2026-01-26 16:47:01.76	206.66	7.42	-48.4	-67.3	3.8	8.47e-01	0	41	104	0	68	31724
2026-01-26 16:47:02.76	206.49	7.49	-48.5	-67.1	3.8	8.47e-01	0	42	104	0	68	31068
2026-01-26 16:47:03.76	206.32	7.56	-48.5	-66.8	3.8	8.47e-01	0	42	104	0	68	30030
2026-01-26 16:47:04.75	206.15	7.63	-48.5	-66.9	3.8	8.46e-01	0	41	104	0	68	30149
2026-01-26 16:47:05.75	205.98	7.70	-48.5	-67.0	3.8	8.47e-01	0	42	104	0	68	30485
2026-01-26 16:47:06.75	205.81	7.78	-48.5	-67.4	3.8	8.47e-01	0	42	104	0	68	32082
2026-01-26 16:47:07.74	205.63	7.85	-48.5	-67.7	3.8	8.47e-01	0	42	104	0	68	33046
2026-01-26 16:47:08.74	205.46	7.92	-48.5	-67.8	3.8	8.47e-01	0	41	104	0	68	33500
2026-01-26 16:47:09.74	205.28	7.99	-48.5	-67.8	3.8	8.47e-01	0	42	104	0	68	33539
2026-01-26 16:47:10.73	205.11	8.07	-48.5	-67.8	3.8	8.47e-01	0	42	104	0	68	33694
2026-01-26 16:47:11.73	204.93	8.14	-48.5	-67.5	3.8	8.47e-01	0	42	104	0	68	32402
2026-01-26 16:47:12.73	204.75	8.21	-48.5	-66.6	3.8	8.47e-01	0	42	104	0	68	29263
2026-01-26 16:47:13.72	204.57	8.29	-48.5	-65.8	3.8	8.49e-01	0	42	104	0	68	26707
2026-01-26 16:47:14.72	204.39	8.36	-48.4	-65.7	3.8	8.47e-01	0	42	104	0	68	26217
2026-01-26 16:47:15.72	204.20	8.43	-48.4	-66.3	3.8	8.47e-01	0	42	104	0	68	28293
2026-01-26 16:47:16.71	204.02	8.51	-48.5	-67.2	3.8	8.46e-01	0	42	104	0	68	31257
2026-01-26 16:47:17.71	203.83	8.58	-48.4	-67.0	3.8	8.48e-01	0	42	104	0	68	30483
2026-01-26 16:47:18.70	203.65	8.65	-48.4	-65.6	3.9	8.48e-01	0	42	104	0	68	26041
2026-01-26 16:47:19.69	203.46	8.73	-48.4	-65.0	3.9	8.46e-01	0	42	104	0	68	24410
2026-01-26 16:47:20.69	203.27	8.80	-48.4	-65.1	3.9	8.43e-01	0	42	104	0	68	24487
2026-01-26 16:47:21.69	203.08	8.88	-48.3	-62.0	5.0	8.43e-01	0	42	0	0	68	17280
2026-01-26 16:47:22.68	202.89	8.95	-47.6	-57.4	8.8	8.27e-01	0	42	0	0	67	10691
2026-01-26 16:47:23.68	202.69	9.02	-47.1	-54.6	11.7	1.73e-01	0	42	0	0	66	8222
2026-01-26 16:47:24.68	202.50	9.10	-46.5	-52.7	14.0	1.22e-03	0	42	0	0	65	6973
2026-01-26 16:47:25.68	202.30	9.17	-45.1	-49.3	17.5	1.22e-03	0	42	0	0	62	5600
2026-01-26 16:47:26.68	202.10	9.25	-47.5	-55.9	11.6	2.20e-06	0	42	0	0	65	10143
2026-01-26 16:47:27.68	201.90	9.32	-47.5	-55.9	10.8	2.93e-02	0	42	0	0	66	9561
2026-01-26 16:47:28.68	201.70	9.40	-44.0	-47.4	19.1	2.93e-02	0	42	0	0	59	5383
2026-01-26 16:47:29.68	201.50	9.47	-42.9	-46.0	20.9	4.05e-03	0	42	0	0	57	5111
2026-01-26 16:47:30.68	201.29	9.55	-42.8	-45.7	21.0	0.00e+00	0	42	0	0	57	4969
2026-01-26 16:47:31.68	201.09	9.62	-42.9	-45.9	20.9	0.00e+00	0	42	0	0	57	5085
2026-01-26 16:47:32.68	200.88	9.70	-42.8	-45.8	21.1	0.00e+00	0	42	0	0	57	4987
2026-01-26 16:47:33.68	200.67	9.77	-42.4	-45.3	21.6	0.00e+00	0	42	0	0	56	4993
2026-01-26 16:47:34.68	200.46	9.85	-42.0	-44.9	21.8	0.00e+00	0	42	0	0	55	5046
2026-01-26 16:47:35.68	200.25	9.92	-42.0	-44.8	21.7	0.00e+00	0	42	0	0	55	5011
2026-01-26 16:47:36.68	200.04	10.00	-42.3	-45.3	21.2	0.00e+00	0	42	0	0	55	5297
2026-01-26 16:47:37.68	199.82	10.08	-42.0	-44.9	21.6	0.00e+00	0	42	0	0	55	5062
2026-01-26 16:47:38.69	199.61	10.15	-41.5	-44.2	22.3	0.00e+00	0	42	0	0	54	4935
2026-01-26 16:47:39.69	199.39	10.23	-40.8	-43.3	23.2	0.00e+00	0	42	0	0	53	4732
2026-01-26 16:47:40.69	199.17	10.30	-40.4	-42.9	23.7	0.00e+00	0	42	0	0	52	4767
2026-01-26 16:47:41.69	198.95	10.38	-40.3	-42.7	23.8	0.00e+00	0	42	0	0	52	4683
2026-01-26 16:47:42.69	198.73	10.46	-40.2	-42.6	23.9	0.00e+00	0	42	0	0	52	4651
2026-01-26 16:47:43.69	198.50	10.53	-40.0	-42.4	24.1	0.00e+00	0	42	0	0	52	4534
2026-01-26 16:47:44.70	198.28	10.61	-40.1	-42.5	24.1	0.00e+00	0	42	0	0	51	4821
2026-01-26 16:47:45.70	198.05	10.68	-40.0	-42.4	24.1	0.00e+00	0	42	0	0	51	4805
2026-01-26 16:47:46.70	197.82	10.76	-39.9	-42.3	24.3	0.00e+00	0	42	0	0	51	4737
2026-01-26 16:47:47.70	197.59	10.84	-39.9	-42.2	24.4	0.00e+00	0	42	0	0	51	4689
2026-01-26 16:47:48.70	197.36	10.91	-39.9	-42.3	24.4	0.00e+00	0	42	0	0	51	4710
2026-01-26 16:47:49.71	197.13	10.99	-40.1	-42.5	24.1	0.00e+00	0	42	0	0	51	4821
2026-01-26 16:47:50.71	196.89	11.06	-40.1	-42.5	24.1	0.00e+00	0	42	0	0	51	4846
2026-01-26 16:47:51.71	196.65	11.14	-40.2	-42.6	24.1	0.00e+00	0	42	0	0	51	4913
2026-01-26 16:47:52.71	196.42	11.21	-40.2	-42.6	24.1	0.00e+00	0	42	0	0	51	4906
2026-01-26 16:47:53.71	196.18	11.29	-40.1	-42.5	24.1	0.00e+00	0	42	0	0	51	4818
2026-01-26 16:47:54.71	195.93	11.37	-40.1	-42.5	24.1	0.00e+00	0	42	0	0	51	4834
2026-01-26 16:47:55.71	195.69	11.44	-39.9	-42.3	24.3	0.00e+00	0	42	0	0	51	4711
2026-01-26 16:47:56.71	195.45	11.52	-39.9	-42.3	24.3	0.00e+00	0	42	0	0	51	4710
2026-01-26 16:47:57.72	195.20	11.59	-39.7	-42.0	24.5	0.00e+00	0	42	0	0	51	4552
2026-01-26 16:47:58.71	194.95	11.67	-39.6	-41.8	24.7	0.00e+00	0	43	0	0	51	4489
2026-01-26 16:47:59.72	194.70	11.75	-39.5	-41.7	24.9	0.00e+00	0	42	0	0	50	4694
2026-01-26 16:48:00.72	194.45	11.82	-39.6	-41.9	24.7	0.00e+00	0	42	0	0	50	4780
2026-01-26 16:48:01.72	194.20	11.90	-39.7	-42.0	24.7	0.00e+00	0	42	0	0	50	4830
2026-01-26 16:48:02.72	193.94	11.97	-39.8	-42.1	24.6	0.00e+00	0	42	0	0	50	4911
2026-01-26 16:48:03.72	193.68	12.05	-39.8	-42.1	24.5	0.00e+00	0	42	0	0	50	4925
2026-01-26 16:48:04.72	193.43	12.12	-40.0	-42.3	24.4	0.00e+00	0	42	0	0	50	5017
2026-01-26 16:48:05.72	193.17	12.20	-39.8	-42.1	24.4	0.00e+00	0	42	0	0	50	4914
2026-01-26 16:48:06.72	192.90	12.27	-39.8	-42.0	24.6	0.00e+00	0	42	0	0	50	4862
2026-01-26 16:48:07.72	192.64	12.35	-39.6	-41.9	24.8	0.00e+00	0	43	0	0	50	4763
2026-01-26 16:48:08.72	192.37	12.42	-39.5	-41.8	24.9	0.00e+00	0	42	0	0	50	4720
2026-01-26 16:48:09.72	192.11	12.49	-39.4	-41.6	25.0	0.00e+00	0	42	0	0	50	4617
2026-01-26 16:48:10.72	191.84	12.57	-39.1	-41.3	25.3	0.00e+00	0	43	0	0	50	4453
2026-01-26 16:48:11.72	191.57	12.64	-39.1	-41.3	25.3	0.00e+00	0	43	0	0	50	4482
2026-01-26 16:48:12.72	191.30	12.72	-39.1	-41.3	25.3	0.00e+00	0	42	0	0	50	4468
2026-01-26 16:48:13.72	191.02	12.79	-39.2	-41.4	25.3	0.00e+00	0	43	0	0	50	4498
2026-01-26 16:48:14.73	190.74	12.86	-39.2	-41.4	25.2	0.00e+00	0	42	0	0	50	4538
2026-01-26 16:48:15.73	190.46	12.94	-39.4	-41.6	25.0	0.00e+00	0	42	0	0	50	4651
2026-01-26 16:48:16.73	190.18	13.01	-39.5	-41.8	24.9	0.00e+00	0	42	0	0	50	4716
2026-01-26 16:48:17.73	189.90	13.08	-39.6	-41.8	24.8	0.00e+00	0	43	0	0	50	4756
2026-01-26 16:48:18.74	189.62	13.16	-39.6	-41.9	24.8	0.00e+00	0	42	0	0	50	4764
2026-01-26 16:48:19.74	189.33	13.23	-39.5	-41.8	24.9	0.00e+00	0	42	0	0	50	4737
2026-01-26 16:48:20.74	189.04	13.30	-39.5	-41.8	24.9	0.00e+00	0	43	0	0	50	4711
2026-01-26 16:48:21.74	188.76	13.37	-39.4	-41.6	25.0	0.00e+00	0	42	0	0	50	4624
2026-01-26 16:48:22.75	188.46	13.45	-39.2	-41.4	25.1	0.00e+00	0	42	0	0	50	4517
2026-01-26 16:48:23.75	188.17	13.52	-39.2	-41.4	25.3	0.00e+00	0	42	0	0	50	4510
2026-01-26 16:48:24.75	187.87	13.59	-39.3	-41.5	25.2	0.00e+00	0	42	0	0	50	4584
2026-01-26 16:48:25.72	187.59	13.66	-39.3	-41.4	25.2	0.00e+00	0	42	0	0	50	4538
2026-01-26 16:48:26.73	187.29	13.73	-39.3	-41.5	25.2	0.00e+00	0	42	0	0	50	4563
2026-01-26 16:48:27.72	186.99	13.80	-39.3	-41.4	25.2	0.00e+00	0	42	0	0	50	4535
2026-01-26 16:48:28.73	186.68	13.87	-39.4	-41.5	25.2	0.00e+00	0	42	0	0	50	4588
2026-01-26 16:48:29.73	186.38	13.94	-39.3	-41.4	25.2	0.00e+00	0	42	0	0	50	4541
2026-01-26 16:48:30.73	186.08	14.01	-39.2	-41.3	25.4	0.00e+00	0	43	0	0	50	4460
2026-01-26 16:48:31.73	185.77	14.08	-39.1	-41.3	25.4	0.00e+00	0	43	0	0	50	4444
2026-01-26 16:48:32.73	185.46	14.14	-39.0	-41.1	25.5	0.00e+00	0	42	0	0	50	4375
2026-01-26 16:48:33.73	185.15	14.21	-38.9	-41.0	25.6	0.00e+00	0	42	0	0	49	4580
2026-01-26 16:48:34.73	184.84	14.28	-38.8	-40.9	25.7	0.00e+00	0	42	0	0	49	4525
2026-01-26 16:48:35.73	184.52	14.35	-38.7	-40.8	25.8	0.00e+00	0	42	0	0	49	4481
2026-01-26 16:48:36.74	184.20	14.42	-38.6	-40.7	25.9	0.00e+00	0	42	0	0	49	4416
2026-01-26 16:48:37.74	183.88	14.48	-38.7	-40.9	25.7	0.00e+00	0	43	0	0	49	4514
2026-01-26 16:48:38.74	183.56	14.55	-38.9	-41.1	25.6	0.00e+00	0	42	0	0	49	4626
2026-01-26 16:48:39.74	183.24	14.61	-39.0	-41.1	25.5	0.00e+00	0	43	0	0	49	4648
2026-01-26 16:48:40.75	182.91	14.68	-38.9	-41.0	25.6	0.00e+00	0	42	0	0	49	4595
2026-01-26 16:48:41.75	182.59	14.74	-39.0	-41.1	25.5	0.00e+00	0	42	0	0	49	4633
2026-01-26 16:48:42.75	182.26	14.81	-38.8	-41.0	25.6	0.00e+00	0	42	0	0	49	4549
2026-01-26 16:48:43.75	181.93	14.87	-38.7	-40.8	25.8	0.00e+00	0	43	0	0	49	4487
2026-01-26 16:48:44.75	181.60	14.93	-38.5	-40.6	26.0	0.00e+00	0	42	0	0	49	4355
2026-01-26 16:48:45.76	181.27	15.00	-38.4	-40.5	26.1	0.00e+00	0	42	0	0	48	4570
2026-01-26 16:48:46.76	180.93	15.06	-38.2	-40.3	26.3	0.00e+00	0	43	0	0	48	4465
2026-01-26 16:48:47.76	180.60	15.12	-38.2	-40.3	26.3	0.00e+00	0	43	0	0	48	4463
2026-01-26 16:48:48.76	180.26	15.18	-38.2	-40.3	26.2	0.00e+00	0	42	0	0	48	4468
2026-01-26 16:48:49.76	179.92	15.24	-38.1	-40.2	26.3	0.00e+00	0	42	0	0	48	4412
2026-01-26 16:48:50.77	179.57	15.30	-38.1	-40.2	26.3	0.00e+00	0	43	0	0	48	4412
2026-01-26 16:48:51.77	179.23	15.36	-38.3	-40.4	26.1	0.00e+00	0	43	0	0	48	4519
2026-01-26 16:48:52.77	178.88	15.42	-38.5	-40.6	26.0	0.00e+00	0	43	0	0	48	4639
2026-01-26 16:48:53.77	178.54	15.47	-38.6	-40.7	25.9	0.00e+00	0	43	0	0	48	4688
2026-01-26 16:48:54.77	178.19	15.53	-38.8	-40.9	25.8	0.00e+00	0	42	0	0	48	4800
2026-01-26 16:48:55.77	177.84	15.59	-38.7	-40.8	25.8	0.00e+00	0	42	0	0	48	4748
2026-01-26 16:48:56.77	177.49	15.64	-38.4	-40.5	26.1	0.00e+00	0	42	0	0	48	4553
2026-01-26 16:48:57.78	177.13	15.70	-38.6	-40.7	25.9	0.00e+00	0	42	0	0	48	4687
2026-01-26 16:48:58.78	176.78	15.75	-38.4	-40.5	26.0	0.00e+00	0	42	0	0	48	4578
2026-01-26 16:48:59.78	176.42	15.81	-38.3	-40.4	26.2	0.00e+00	0	42	0	0	48	4508
2026-01-26 16:49:00.78	176.06	15.86	-38.4	-40.5	26.0	0.00e+00	0	42	0	0	48	4551
2026-01-26 16:49:01.78	175.70	15.91	-38.4	-40.4	26.1	0.00e+00	0	42	0	0	48	4540
2026-01-26 16:49:02.78	175.34	15.96	-38.5	-40.5	26.1	0.00e+00	0	43	0	0	48	4592
2026-01-26 16:49:03.78	174.98	16.01	-38.5	-40.6	26.0	0.00e+00	0	42	0	0	48	4634
2026-01-26 16:49:04.78	174.61	16.06	-38.5	-40.6	26.0	0.00e+00	0	43	0	0	48	4612
2026-01-26 16:49:05.78	174.25	16.11	-38.7	-40.8	25.8	0.00e+00	0	43	0	0	48	4739
2026-01-26 16:49:06.78	173.88	16.16	-38.7	-40.9	25.8	0.00e+00	0	42	0	0	48	4762
2026-01-26 16:49:07.78	173.51	16.20	-38.8	-40.9	25.7	0.00e+00	0	43	0	0	48	4804
2026-01-26 16:49:08.78	173.14	16.25	-38.7	-40.8	25.8	0.00e+00	0	43	0	0	48	4757
2026-01-26 16:49:09.78	172.77	16.29	-38.5	-40.6	26.0	0.00e+00	0	42	0	0	48	4614
2026-01-26 16:49:10.78	172.40	16.34	-38.3	-40.4	26.2	0.00e+00	0	43	0	0	48	4494
2026-01-26 16:49:11.78	172.02	16.38	-38.3	-40.3	26.3	0.00e+00	0	43	0	0	48	4481
2026-01-26 16:49:12.77	171.65	16.42	-38.3	-40.3	26.3	0.00e+00	0	43	0	0	48	4473
2026-01-26 16:49:13.77	171.27	16.47	-38.2	-40.2	26.3	0.00e+00	0	42	0	0	48	4439
2026-01-26 16:49:14.77	170.90	16.51	-38.3	-40.3	26.2	0.00e+00	0	43	0	0	48	4473
2026-01-26 16:49:15.78	170.51	16.55	-38.5	-40.6	26.0	0.00e+00	0	43	0	0	48	4630
2026-01-26 16:49:16.78	170.13	16.58	-38.8	-40.9	25.6	0.00e+00	0	43	0	0	48	4797
2026-01-26 16:49:17.78	169.75	16.62	-38.8	-40.9	25.6	0.00e+00	0	43	0	0	48	4762
2026-01-26 16:49:18.78	169.37	16.66	-39.1	-41.2	25.5	0.00e+00	0	43	0	0	48	4950
2026-01-26 16:49:19.78	168.98	16.70	-39.0	-41.1	25.6	0.00e+00	0	43	0	0	48	4898
2026-01-26 16:49:20.79	168.59	16.73	-38.7	-40.8	25.8	0.00e+00	0	42	0	0	48	4748
2026-01-26 16:49:21.79	168.21	16.76	-39.0	-41.1	25.6	0.00e+00	0	42	0	0	48	4912
2026-01-26 16:49:22.79	167.82	16.80	-38.6	-40.7	25.9	0.00e+00	0	43	0	0	48	4660
2026-01-26 16:49:23.79	167.43	16.83	-38.4	-40.4	26.1	0.00e+00	0	42	0	0	48	4535
2026-01-26 16:49:24.80	167.04	16.86	-38.4	-40.4	26.1	0.00e+00	0	43	0	0	48	4532
2026-01-26 16:49:25.80	166.65	16.89	-38.2	-40.2	26.3	0.00e+00	0	43	0	0	48	4427
2026-01-26 16:49:26.80	166.25	16.92	-37.9	-39.9	26.5	0.00e+00	0	43	0	0	47	4537
2026-01-26 16:49:27.80	165.86	16.94	-37.8	-39.8	26.7	0.00e+00	0	43	0	0	47	4477
2026-01-26 16:49:28.81	165.46	16.97	-37.6	-39.6	26.7	0.00e+00	0	42	0	0	47	4378
2026-01-26 16:49:29.81	165.07	17.00	-37.8	-39.8	26.6	0.00e+00	0	43	0	0	47	4486
2026-01-26 16:49:30.81	164.67	17.02	-37.9	-39.9	26.5	0.00e+00	0	43	0	0	47	4541
2026-01-26 16:49:31.81	164.28	17.04	-37.9	-40.0	26.5	0.00e+00	0	43	0	0	47	4553
2026-01-26 16:49:32.81	163.88	17.06	-38.1	-40.2	26.4	0.00e+00	0	43	0	0	47	4660
2026-01-26 16:49:33.81	163.49	17.09	-37.8	-39.8	26.6	0.00e+00	0	42	0	0	47	4487
2026-01-26 16:49:34.81	163.09	17.10	-37.8	-39.8	26.6	0.00e+00	0	43	0	0	47	4483
2026-01-26 16:49:35.81	162.69	17.12	-37.8	-39.8	26.6	0.00e+00	0	43	0	0	47	4465
2026-01-26 16:49:36.82	162.29	17.14	-37.6	-39.6	26.8	0.00e+00	0	43	0	0	47	4381
2026-01-26 16:49:37.82	161.89	17.16	-37.4	-39.4	27.0	0.00e+00	0	43	0	0	46	4501
2026-01-26 16:49:38.82	161.49	17.17	-37.5	-39.6	26.9	0.00e+00	0	42	0	0	46	4602
2026-01-26 16:49:39.82	161.09	17.19	-37.5	-39.4	26.9	0.00e+00	0	43	0	0	46	4539
2026-01-26 16:49:40.82	160.68	17.20	-37.1	-39.1	27.2	0.00e+00	0	43	0	0	46	4341
2026-01-26 16:49:41.82	160.28	17.21	-37.0	-39.0	27.2	0.00e+00	0	42	0	0	45	4554
2026-01-26 16:49:42.82	159.88	17.22	-37.2	-39.2	27.1	0.00e+00	0	42	0	0	45	4698
2026-01-26 16:49:43.82	159.48	17.23	-37.0	-39.1	27.3	0.00e+00	0	43	0	0	45	4601
2026-01-26 16:49:44.82	159.08	17.24	-37.1	-39.1	27.2	0.00e+00	0	43	0	0	45	4635
2026-01-26 16:49:45.82	158.68	17.24	-37.4	-39.4	27.0	0.00e+00	0	43	0	0	45	4806
2026-01-26 16:49:46.82	158.27	17.25	-37.7	-39.8	26.5	0.00e+00	0	43	0	0	46	4715
2026-01-26 16:49:47.82	157.87	17.25	-37.8	-39.9	26.5	0.00e+00	0	42	0	0	46	4768
2026-01-26 16:49:48.82	157.47	17.26	-38.1	-40.2	26.2	0.00e+00	0	43	0	0	46	4970
2026-01-26 16:49:49.82	157.06	17.26	-38.2	-40.3	26.2	0.00e+00	0	43	0	0	47	4732
2026-01-26 16:49:50.83	156.66	17.26	-38.0	-40.1	26.4	0.00e+00	0	43	0	0	47	4603
2026-01-26 16:49:51.83	156.25	17.26	-37.9	-39.9	26.5	0.00e+00	0	43	0	0	47	4528
2026-01-26 16:49:52.83	155.85	17.26	-37.6	-39.7	26.8	0.00e+00	0	43	0	0	47	4394
2026-01-26 16:49:53.83	155.45	17.25	-37.5	-39.5	26.8	0.00e+00	0	43	0	0	47	4326
2026-01-26 16:49:54.83	155.04	17.25	-37.4	-39.4	27.0	0.00e+00	0	43	0	0	46	4518
2026-01-26 16:49:55.83	154.64	17.24	-37.4	-39.4	26.9	0.00e+00	0	42	0	0	46	4533
2026-01-26 16:49:56.83	154.24	17.24	-37.6	-39.6	26.8	0.00e+00	0	43	0	0	46	4617
2026-01-26 16:49:57.83	153.84	17.23	-37.6	-39.6	26.8	0.00e+00	0	43	0	0	46	4643
2026-01-26 16:49:58.83	153.44	17.22	-37.5	-39.5	26.9	0.00e+00	0	42	0	0	46	4584
2026-01-26 16:49:59.83	153.03	17.21	-37.4	-39.4	26.9	0.00e+00	0	43	0	0	46	4514
2026-01-26 16:50:00.84	152.63	17.20	-37.5	-39.5	26.7	0.00e+00	0	43	0	0	46	4591
2026-01-26 16:50:01.84	152.23	17.19	-37.8	-39.9	26.6	0.00e+00	0	43	0	0	46	4764
2026-01-26 16:50:02.84	151.83	17.17	-37.6	-39.7	26.7	0.00e+00	0	43	0	0	46	4662
2026-01-26 16:50:03.84	151.43	17.16	-37.6	-39.6	26.8	0.00e+00	0	43	0	0	46	4637
2026-01-26 16:50:04.83	151.03	17.14	-37.6	-39.6	26.8	0.00e+00	0	43	0	0	46	4627
2026-01-26 16:50:05.84	150.63	17.13	-37.5	-39.5	26.9	0.00e+00	0	43	0	0	46	4585
2026-01-26 16:50:06.84	150.23	17.11	-37.6	-39.6	26.8	0.00e+00	0	43	0	0	46	4647
2026-01-26 16:50:07.84	149.83	17.09	-37.6	-39.6	26.8	0.00e+00	0	43	0	0	46	4599
2026-01-26 16:50:08.85	149.43	17.07	-37.7	-39.7	26.7	0.00e+00	0	43	0	0	46	4684
2026-01-26 16:50:09.85	149.04	17.05	-37.7	-39.7	26.7	0.00e+00	0	43	0	0	46	4669
2026-01-26 16:50:10.85	148.64	17.02	-37.7	-39.7	26.7	0.00e+00	0	43	0	0	46	4680
2026-01-26 16:50:11.85	148.25	17.00	-37.7	-39.8	26.6	0.00e+00	0	43	0	0	46	4717
2026-01-26 16:50:12.85	147.85	16.97	-37.8	-39.9	26.5	0.00e+00	0	43	0	0	46	4774
2026-01-26 16:50:13.85	147.46	16.95	-37.9	-39.9	26.5	0.00e+00	0	43	0	0	46	4789
2026-01-26 16:50:14.85	147.07	16.92	-37.7	-39.8	26.6	0.00e+00	0	43	0	0	46	4709
2026-01-26 16:50:15.86	146.67	16.89	-37.9	-39.9	26.5	0.00e+00	0	43	0	0	46	4800
2026-01-26 16:50:16.86	146.28	16.86	-37.7	-39.8	26.6	0.00e+00	0	43	0	0	46	4708
2026-01-26 16:50:17.86	145.89	16.83	-37.8	-39.8	26.6	0.00e+00	0	42	0	0	46	4739
2026-01-26 16:50:18.86	145.50	16.80	-38.0	-40.0	26.5	0.00e+00	0	43	0	0	46	4843
2026-01-26 16:50:19.86	145.12	16.77	-37.8	-39.8	26.6	0.00e+00	0	42	0	0	46	4759
2026-01-26 16:50:20.87	144.73	16.73	-38.0	-40.1	25.1	0.00e+00	0	43	0	0	46	4882
2026-01-26 16:50:21.87	144.34	16.70	-38.1	-40.2	26.2	0.00e+00	0	42	0	0	46	4980
2026-01-26 16:50:22.87	143.96	16.66	-38.0	-40.1	26.3	0.00e+00	0	43	0	0	46	4895
2026-01-26 16:50:23.87	143.57	16.63	-38.2	-40.3	26.1	0.00e+00	0	43	0	0	47	4741
2026-01-26 16:50:24.87	143.19	16.59	-38.4	-40.5	26.0	0.00e+00	0	42	0	0	47	4841
2026-01-26 16:50:25.87	142.81	16.55	-38.6	-40.7	25.8	0.00e+00	0	43	0	0	47	4955
2026-01-26 16:50:26.87	142.43	16.51	-38.7	-40.8	25.8	0.00e+00	0	43	0	0	48	4725
2026-01-26 16:50:27.88	142.05	16.47	-38.8	-40.9	25.7	0.00e+00	0	43	0	0	48	4780
2026-01-26 16:50:28.88	141.67	16.43	-38.7	-40.8	25.8	0.00e+00	0	43	0	0	48	4712
2026-01-26 16:50:29.88	141.30	16.39	-38.2	-40.2	26.2	0.00e+00	0	43	0	0	48	4440
2026-01-26 16:50:30.88	140.92	16.34	-38.1	-40.2	26.3	0.00e+00	0	43	0	0	48	4395
2026-01-26 16:50:31.88	140.55	16.30	-38.3	-40.3	26.2	0.00e+00	0	43	0	0	48	4476
2026-01-26 16:50:32.88	140.18	16.26	-38.6	-40.7	25.8	0.00e+00	0	43	0	0	48	4684
2026-01-26 16:50:33.89	139.81	16.21	-38.4	-40.4	26.1	0.00e+00	0	43	0	0	48	4531
2026-01-26 16:50:34.89	139.44	16.16	-38.6	-40.7	25.9	0.00e+00	0	43	0	0	48	4693
2026-01-26 16:50:35.89	139.07	16.11	-38.8	-40.9	25.6	0.00e+00	0	43	0	0	48	4789
2026-01-26 16:50:36.89	138.71	16.07	-38.7	-40.8	25.7	0.00e+00	0	43	0	0	48	4734
2026-01-26 16:50:37.89	138.34	16.02	-38.5	-40.6	26.0	0.00e+00	0	43	0	0	48	4602
2026-01-26 16:50:38.89	137.98	15.97	-38.6	-40.6	25.9	0.00e+00	0	43	0	0	48	4646
2026-01-26 16:50:39.89	137.62	15.92	-38.2	-40.2	26.3	0.00e+00	0	43	0	0	48	4414
2026-01-26 16:50:40.89	137.26	15.86	-38.2	-40.3	26.3	0.00e+00	0	43	0	0	48	4452
2026-01-26 16:50:41.90	136.90	15.81	-38.4	-40.5	26.1	0.00e+00	0	43	0	0	48	4575
2026-01-26 16:50:42.90	136.54	15.76	-38.4	-40.4	26.1	0.00e+00	0	43	0	0	48	4531
2026-01-26 16:50:43.90	136.19	15.70	-38.4	-40.4	25.9	0.00e+00	0	43	0	0	48	4532
2026-01-26 16:50:44.91	135.83	15.65	-38.2	-40.3	26.3	0.00e+00	0	43	0	0	48	4442
2026-01-26 16:50:45.91	135.48	15.59	-38.2	-40.2	26.2	0.00e+00	0	43	0	0	48	4441
2026-01-26 16:50:46.91	135.13	15.54	-38.0	-40.0	26.5	0.00e+00	0	43	0	0	48	4330
2026-01-26 16:50:47.91	134.79	15.48	-38.3	-40.3	26.2	0.00e+00	0	42	0	0	48	4467
2026-01-26 16:50:48.91	134.44	15.42	-38.5	-40.5	26.0	0.00e+00	0	43	0	0	48	4598
2026-01-26 16:50:49.91	134.09	15.37	-38.3	-40.4	26.0	0.00e+00	0	43	0	0	48	4517
2026-01-26 16:50:50.91	133.75	15.31	-38.3	-40.3	26.2	0.00e+00	0	43	0	0	48	4485
2026-01-26 16:50:51.91	133.41	15.25	-38.3	-40.4	26.1	0.00e+00	0	43	0	0	48	4502
2026-01-26 16:50:52.91	133.07	15.19	-38.3	-40.3	26.2	0.00e+00	0	43	0	0	48	4480
2026-01-26 16:50:53.91	132.73	15.13	-38.2	-40.3	26.2	0.00e+00	0	43	0	0	48	4455
2026-01-26 16:50:54.92	132.40	15.07	-38.3	-40.4	26.1	0.00e+00	0	43	0	0	48	4519
2026-01-26 16:50:55.92	132.06	15.01	-38.4	-40.5	26.0	0.00e+00	0	43	0	0	48	4555
2026-01-26 16:50:56.92	131.73	14.94	-38.8	-40.9	25.7	0.00e+00	0	43	0	0	48	4803
2026-01-26 16:50:57.93	131.40	14.88	-39.1	-41.3	25.3	0.00e+00	0	42	0	0	48	4986
2026-01-26 16:50:58.93	131.07	14.82	-39.4	-41.6	25.1	0.00e+00	0	43	0	0	49	4884
2026-01-26 16:50:59.93	130.74	14.75	-39.3	-41.5	25.1	0.00e+00	0	43	0	0	49	4828
2026-01-26 16:51:00.93	130.42	14.69	-39.0	-41.1	25.4	0.00e+00	0	43	0	0	49	4643
2026-01-26 16:51:01.93	130.09	14.62	-39.1	-41.3	25.3	0.00e+00	0	43	0	0	49	4713
2026-01-26 16:51:02.93	129.77	14.56	-39.0	-41.1	25.5	0.00e+00	0	43	0	0	49	4633
2026-01-26 16:51:03.93	129.45	14.49	-38.9	-41.0	25.6	0.00e+00	0	43	0	0	49	4559
2026-01-26 16:51:04.93	129.13	14.43	-38.9	-41.0	25.5	0.00e+00	0	43	0	0	49	4562
2026-01-26 16:51:05.93	128.82	14.36	-38.8	-40.9	25.6	0.00e+00	0	43	0	0	49	4518
2026-01-26 16:51:06.93	128.50	14.29	-38.8	-40.9	25.5	0.00e+00	0	43	0	0	49	4535
2026-01-26 16:51:07.94	128.19	14.23	-39.1	-41.2	25.4	0.00e+00	0	43	0	0	49	4679
2026-01-26 16:51:08.94	127.88	14.16	-39.3	-41.5	25.0	0.00e+00	0	43	0	0	49	4830
2026-01-26 16:51:09.94	127.57	14.09	-39.0	-41.1	25.4	0.00e+00	0	43	0	0	49	4651
2026-01-26 16:51:10.94	127.26	14.02	-38.8	-40.9	25.7	0.00e+00	0	43	0	0	49	4500
2026-01-26 16:51:11.94	126.96	13.95	-38.7	-40.8	25.7	0.00e+00	0	43	0	0	49	4469
2026-01-26 16:51:12.94	126.66	13.88	-38.6	-40.7	25.8	0.00e+00	0	43	0	0	49	4398
2026-01-26 16:51:13.94	126.36	13.81	-38.5	-40.6	25.9	0.00e+00	0	43	0	0	49	4372
2026-01-26 16:51:14.95	126.05	13.74	-38.8	-40.9	25.7	0.00e+00	0	43	0	0	49	4500
2026-01-26 16:51:15.95	125.76	13.67	-39.0	-41.2	25.4	0.00e+00	0	43	0	0	49	4652
2026-01-26 16:51:16.95	125.46	13.60	-39.1	-41.3	25.2	0.00e+00	0	43	0	0	49	4716
2026-01-26 16:51:17.95	125.17	13.53	-39.2	-41.4	25.2	0.00e+00	0	42	0	0	49	4763
2026-01-26 16:51:18.95	124.87	13.46	-39.3	-41.4	25.1	0.00e+00	0	43	0	0	49	4797
2026-01-26 16:51:19.95	124.58	13.39	-39.5	-41.7	24.9	0.00e+00	0	43	0	0	49	4956
2026-01-26 16:51:20.95	124.30	13.32	-39.5	-41.7	24.9	0.00e+00	0	43	0	0	49	4942
2026-01-26 16:51:21.95	124.01	13.24	-39.7	-41.9	24.7	0.00e+00	0	43	0	0	50	4783
2026-01-26 16:51:22.95	123.73	13.17	-39.3	-41.5	25.1	0.00e+00	0	43	0	0	50	4570
2026-01-26 16:51:23.95	123.44	13.10	-39.1	-41.2	25.3	0.00e+00	0	43	0	0	50	4427
2026-01-26 16:51:24.95	123.16	13.03	-39.1	-41.2	25.4	0.00e+00	0	43	0	0	50	4417
2026-01-26 16:51:25.95	122.88	12.95	-38.7	-40.8	25.7	0.00e+00	0	43	0	0	49	4486
2026-01-26 16:51:26.95	122.61	12.88	-38.9	-41.0	25.5	0.00e+00	0	43	0	0	49	4582
2026-01-26 16:51:27.96	122.33	12.81	-38.9	-41.1	25.4	0.00e+00	0	43	0	0	49	4612
2026-01-26 16:51:28.95	122.06	12.73	-39.2	-41.4	25.1	0.00e+00	0	43	0	0	49	4786
2026-01-26 16:51:29.95	121.78	12.66	-39.5	-41.7	24.7	0.00e+00	0	43	0	0	49	4939
2026-01-26 16:51:30.96	121.51	12.59	-39.5	-41.6	24.8	0.00e+00	0	43	0	0	49	4924
2026-01-26 16:51:31.95	121.25	12.51	-39.5	-41.7	24.8	0.00e+00	0	43	0	0	49	4935
2026-01-26 16:51:32.95	120.98	12.44	-39.7	-41.8	24.7	0.00e+00	0	43	0	0	50	4758
2026-01-26 16:51:33.95	120.71	12.36	-39.6	-41.8	24.8	0.00e+00	0	43	0	0	50	4726
2026-01-26 16:51:34.95	120.45	12.29	-39.6	-41.8	24.8	0.00e+00	0	43	0	0	50	4737
2026-01-26 16:51:35.95	120.19	12.21	-39.6	-41.8	24.8	0.00e+00	0	43	0	0	50	4737
2026-01-26 16:51:36.95	119.93	12.14	-39.7	-41.9	24.7	0.00e+00	0	43	0	0	50	4792
2026-01-26 16:51:37.95	119.67	12.06	-39.8	-42.1	24.5	0.00e+00	0	43	0	0	50	4874
2026-01-26 16:51:38.96	119.41	11.99	-39.9	-42.1	24.5	0.00e+00	0	43	0	0	50	4911
2026-01-26 16:51:39.96	119.16	11.91	-40.1	-42.3	24.3	0.00e+00	0	43	0	0	50	5036
2026-01-26 16:51:40.96	118.91	11.84	-40.0	-42.3	24.3	0.00e+00	0	43	0	0	50	4993
2026-01-26 16:51:41.96	118.66	11.76	-40.0	-42.3	24.3	0.00e+00	0	43	0	0	50	4990
2026-01-26 16:51:42.96	118.41	11.69	-39.8	-42.0	24.5	0.00e+00	0	43	0	0	50	4865
2026-01-26 16:51:43.96	118.16	11.61	-39.7	-41.9	24.7	0.00e+00	0	43	0	0	50	4785
2026-01-26 16:51:44.96	117.91	11.54	-39.8	-42.0	24.5	0.00e+00	0	43	0	0	50	4860
2026-01-26 16:51:45.97	117.67	11.46	-39.7	-41.9	24.6	0.00e+00	0	43	0	0	50	4774
2026-01-26 16:51:46.96	117.43	11.39	-39.9	-42.2	24.4	0.00e+00	0	43	0	0	50	4934
2026-01-26 16:51:47.97	117.19	11.31	-40.0	-42.2	24.3	0.00e+00	0	43	0	0	50	4983
2026-01-26 16:51:48.97	116.95	11.24	-40.0	-42.3	24.3	0.00e+00	0	43	0	0	50	4990
2026-01-26 16:51:49.97	116.71	11.16	-39.9	-42.2	24.4	0.00e+00	0	43	0	0	50	4928
2026-01-26 16:51:50.97	116.47	11.08	-40.1	-42.3	24.3	0.00e+00	0	43	0	0	50	5024
2026-01-26 16:51:51.97	116.24	11.01	-40.1	-42.3	24.3	0.00e+00	0	43	0	0	50	5037
2026-01-26 16:51:52.97	116.01	10.93	-40.1	-42.4	23.8	0.00e+00	0	43	0	0	51	4772
2026-01-26 16:51:53.97	115.78	10.86	-40.5	-42.8	23.9	0.00e+00	0	43	0	0	51	5015
2026-01-26 16:51:54.98	115.54	10.78	-40.5	-42.8	23.8	0.00e+00	0	43	0	0	51	5037
2026-01-26 16:51:55.97	115.32	10.71	-40.5	-42.8	23.8	0.00e+00	0	43	0	0	51	5012
2026-01-26 16:51:56.98	115.09	10.63	-40.3	-42.6	24.0	0.00e+00	0	43	0	0	51	4920
2026-01-26 16:51:57.98	114.87	10.55	-40.4	-42.8	23.8	0.00e+00	0	43	0	0	51	4984
2026-01-26 16:51:58.98	114.64	10.48	-40.4	-42.7	23.9	0.00e+00	0	43	0	0	51	4947
2026-01-26 16:51:59.98	114.42	10.40	-40.2	-42.5	24.0	0.00e+00	0	43	0	0	51	4850
2026-01-26 16:52:00.99	114.20	10.33	-40.4	-42.7	23.9	0.00e+00	0	43	0	0	51	4948
2026-01-26 16:52:01.99	113.98	10.25	-40.3	-42.6	23.9	0.00e+00	0	43	0	0	51	4895
2026-01-26 16:52:02.99	113.76	10.18	-40.3	-42.6	24.0	0.00e+00	0	43	0	0	51	4917
2026-01-26 16:52:03.99	113.55	10.10	-40.2	-42.5	24.0	0.00e+00	0	43	0	0	51	4858
2026-01-26 16:52:04.99	113.33	10.03	-40.2	-42.5	24.0	0.00e+00	0	43	0	0	51	4838
2026-01-26 16:52:05.99	113.12	9.95	-40.3	-42.6	24.0	0.00e+00	0	43	0	0	51	4880
2026-01-26 16:52:06.99	112.91	9.87	-40.2	-42.5	24.0	0.00e+00	0	43	0	0	51	4844
2026-01-26 16:52:07.99	112.70	9.80	-40.6	-42.9	23.7	0.00e+00	0	43	0	0	51	5065
2026-01-26 16:52:08.99	112.49	9.72	-40.6	-43.0	23.6	0.00e+00	0	43	0	0	51	5135
2026-01-26 16:52:09.99	112.29	9.65	-40.9	-43.3	23.2	0.00e+00	0	43	0	0	52	5012
2026-01-26 16:52:10.99	112.08	9.57	-41.0	-43.5	23.0	0.00e+00	0	43	0	0	52	5121
2026-01-26 16:52:12.00	111.88	9.50	-41.0	-43.5	23.0	0.00e+00	0	43	0	0	53	4860
2026-01-26 16:52:13.00	111.68	9.42	-41.1	-43.6	22.9	0.00e+00	0	43	0	0	53	4893
2026-01-26 16:52:14.00	111.48	9.35	-41.1	-43.6	22.9	0.00e+00	0	43	0	0	53	4886
2026-01-26 16:52:15.00	111.28	9.27	-41.0	-43.5	23.1	0.00e+00	0	43	0	0	53	4832
2026-01-26 16:52:16.01	111.08	9.20	-41.2	-43.7	22.8	0.00e+00	0	43	0	0	53	4982
2026-01-26 16:52:17.01	110.88	9.12	-41.4	-43.9	22.6	0.00e+00	0	43	0	0	53	5093
2026-01-26 16:52:18.01	110.68	9.05	-41.3	-43.9	22.6	0.00e+00	0	43	0	0	53	5046
2026-01-26 16:52:19.00	110.49	8.98	-49.1	-65.9	4.3	2.76e-02	0	43	0	0	68	26825
2026-01-26 16:52:20.00	110.30	8.90	-49.2	-67.9	3.8	2.76e-02	0	43	104	0	69	31961
2026-01-26 16:52:20.99	110.11	8.83	-49.4	-68.1	3.8	8.45e-01	0	43	104	0	69	32830
2026-01-26 16:52:21.98	109.92	8.76	-49.5	-68.4	3.8	8.47e-01	0	43	104	0	69	33925
2026-01-26 16:52:22.98	109.74	8.68	-49.5	-68.5	3.8	8.47e-01	0	43	104	0	69	34092
2026-01-26 16:52:23.97	109.55	8.61	-49.5	-68.5	3.8	8.48e-01	0	43	104	0	69	34321
2026-01-26 16:52:24.97	109.36	8.54	-49.5	-68.5	3.8	8.47e-01	0	43	104	0	69	34401
2026-01-26 16:52:25.97	109.18	8.46	-49.5	-68.6	3.8	8.47e-01	0	43	104	0	69	34624
2026-01-26 16:52:26.96	109.00	8.39	-49.4	-68.6	3.8	8.47e-01	0	43	104	0	69	34753
2026-01-26 16:52:27.96	108.82	8.32	-49.3	-68.6	3.8	8.47e-01	0	43	104	0	69	34798
2026-01-26 16:52:28.95	108.64	8.24	-49.4	-68.6	3.8	8.47e-01	0	43	104	0	69	34832
2026-01-26 16:52:29.95	108.46	8.17	-49.5	-68.6	3.8	8.46e-01	0	43	104	0	69	34817
2026-01-26 16:52:30.95	108.28	8.10	-49.5	-68.7	3.8	8.47e-01	0	43	104	0	69	34951
2026-01-26 16:52:31.94	108.10	8.02	-49.4	-68.7	3.8	8.47e-01	0	43	104	0	69	34954
2026-01-26 16:52:32.94	107.93	7.95	-49.4	-68.7	3.8	8.47e-01	0	43	104	0	69	34901
2026-01-26 16:52:33.94	107.75	7.88	-49.5	-68.6	3.8	8.47e-01	0	43	104	0	69	34819
2026-01-26 16:52:34.93	107.58	7.81	-49.4	-68.7	3.8	8.47e-01	0	43	104	0	69	35016
2026-01-26 16:52:35.93	107.41	7.73	-49.3	-68.7	3.8	8.47e-01	0	43	104	0	69	34925
2026-01-26 16:52:36.92	107.24	7.66	-49.3	-68.7	3.8	8.47e-01	0	43	104	0	69	34928
2026-01-26 16:52:37.92	107.07	7.59	-49.4	-68.7	3.8	8.47e-01	0	43	104	0	69	34943
2026-01-26 16:52:38.92	106.90	7.52	-49.4	-68.7	3.8	8.47e-01	0	43	104	0	69	34972
2026-01-26 16:52:39.91	106.74	7.45	-49.5	-68.6	3.8	8.47e-01	0	43	104	0	69	34851
2026-01-26 16:52:40.91	106.57	7.38	-49.5	-68.6	3.8	8.45e-01	0	43	104	0	69	34790
2026-01-26 16:52:41.91	106.41	7.30	-49.4	-68.6	3.8	8.45e-01	0	43	104	0	69	34719
2026-01-26 16:52:42.90	106.24	7.23	-49.4	-68.6	3.8	8.48e-01	0	43	104	0	69	34611
2026-01-26 16:52:43.90	106.08	7.16	-49.4	-68.6	3.8	8.47e-01	0	43	104	0	69	34783
2026-01-26 16:52:44.89	105.92	7.09	-49.4	-68.6	3.8	8.47e-01	0	43	104	0	69	34683
2026-01-26 16:52:45.89	105.76	7.02	-49.4	-68.6	3.8	8.47e-01	0	43	104	0	69	34550
2026-01-26 16:52:46.89	105.60	6.95	-49.4	-68.6	3.8	8.48e-01	0	43	104	0	69	34662
2026-01-26 16:52:47.88	105.44	6.88	-49.4	-68.6	3.8	8.48e-01	0	43	104	0	69	34521
2026-01-26 16:52:48.88	105.29	6.81	-49.4	-68.6	3.8	8.47e-01	0	43	104	0	69	34595
2026-01-26 16:52:49.88	105.13	6.74	-49.4	-68.6	3.8	8.47e-01	0	43	104	0	69	34549
2026-01-26 16:52:50.88	104.98	6.67	-49.4	-68.6	3.8	8.47e-01	0	43	104	0	69	34549
2026-01-26 16:52:51.87	104.82	6.60	-49.4	-68.6	3.8	8.46e-01	0	43	104	0	69	34558
2026-01-26 16:52:52.87	104.67	6.53	-49.4	-68.6	3.8	8.47e-01	0	43	104	0	69	34489
2026-01-26 16:52:53.87	104.52	6.46	-49.4	-68.6	3.8	8.47e-01	0	43	104	0	69	34512
2026-01-26 16:52:54.86	104.37	6.39	-49.4	-68.6	3.8	8.47e-01	0	43	104	0	69	34543
2026-01-26 16:52:55.86	104.22	6.32	-49.4	-68.6	3.8	8.48e-01	0	43	104	0	69	34497
2026-01-26 16:52:56.86	104.07	6.25	-49.4	-68.5	3.8	8.46e-01	0	43	104	0	69	34421
2026-01-26 16:52:57.85	103.92	6.18	-49.4	-68.6	3.8	8.46e-01	0	43	104	0	69	34584
2026-01-26 16:52:58.85	103.78	6.11	-49.4	-68.6	3.8	8.48e-01	0	43	104	0	69	34499
2026-01-26 16:52:59.85	103.63	6.04	-49.4	-68.6	3.8	8.46e-01	0	43	104	0	69	34544
2026-01-26 16:53:00.84	103.49	5.98	-49.4	-68.5	3.8	8.46e-01	0	43	104	0	69	34316
2026-01-26 16:53:01.84	103.34	5.91	-49.4	-68.6	3.8	8.47e-01	0	43	104	0	69	34485
2026-01-26 16:53:02.84	103.20	5.84	-49.4	-68.5	3.8	8.47e-01	0	43	104	0	69	34331
2026-01-26 16:53:03.84	103.06	5.77	-49.4	-68.6	3.8	8.47e-01	0	43	104	0	69	34576
2026-01-26 16:53:04.84	102.92	5.70	-49.4	-68.5	3.8	8.46e-01	0	43	104	0	69	34461
2026-01-26 16:53:05.83	102.78	5.63	-49.4	-68.6	3.8	8.45e-01	0	43	104	0	69	34526
2026-01-26 16:53:06.83	102.64	5.57	-49.4	-68.6	3.8	8.45e-01	0	43	104	0	69	34518
2026-01-26 16:53:07.83	102.50	5.50	-49.4	-68.5	3.8	8.48e-01	0	43	104	0	69	34450
2026-01-26 16:53:08.83	102.36	5.43	-49.4	-68.5	3.8	8.47e-01	0	43	104	0	69	34445
2026-01-26 16:53:09.82	102.23	5.36	-49.4	-68.5	3.8	8.47e-01	0	43	104	0	69	34443
2026-01-26 16:53:10.82	102.09	5.30	-49.3	-68.5	3.8	8.47e-01	0	43	104	0	69	34402
2026-01-26 16:53:11.82	101.96	5.23	-49.4	-68.5	3.8	8.48e-01	0	43	104	0	69	34455
2026-01-26 16:53:12.81	101.82	5.16	-49.4	-68.6	3.8	8.48e-01	0	43	104	0	69	34604
2026-01-26 16:53:13.81	101.69	5.10	-49.4	-68.6	3.8	8.47e-01	0	43	104	0	69	34673
2026-01-26 16:53:14.82	101.56	5.03	-49.4	-68.6	3.8	8.47e-01	0	43	104	0	69	34583

#Closed at: 2026-01-26 16:53:15
#Recorded file [0 MB]: D:/Data/31040_260126_194627.dat