passes_logs/2026/01/26/T1/T1__20260126_002632_FENGYUN_3D_rec.log

#Pass ID: 20260126_002632_FENGYUN 3D
#Satellite: FENGYUN 3D
#Configuration: FENGYUN 3D
#almurnet v.1.7.20251203
#Start time: 2026-01-26 00:26:34

#Version: 2.0.20230620
#Station: T1
#Location: 37.570604 lon 55.790049 lat
#TLE: 1 43010U 17072A   26025.50461972  .00000046  00000+0  43592-4 0  9990
#TLE: 2 43010  98.9962 357.4844 0002523  89.7890 270.3575 14.19699798424744

#Time	Az	El	Level	Level2	SNR	BER	BlckErr	Temp	State	Recorded	gain1	gain2
2026-01-26 00:26:34.45	28.32	5.11	-47.7	-59.9	3.8	8.48e-01	0	36	0	0	67	14314
2026-01-26 00:26:35.44	28.40	5.17	-47.7	-59.9	3.8	8.47e-01	0	35	104	0	67	14283
2026-01-26 00:26:36.44	28.48	5.24	-47.7	-59.9	3.8	8.48e-01	0	35	104	0	67	14306
2026-01-26 00:26:37.43	28.55	5.30	-47.7	-59.9	3.8	8.47e-01	0	36	104	0	67	14276
2026-01-26 00:26:38.42	28.63	5.36	-47.7	-59.9	3.8	8.46e-01	0	36	104	0	67	14252
2026-01-26 00:26:39.42	28.71	5.42	-47.7	-59.9	3.8	8.47e-01	0	36	104	0	67	14313
2026-01-26 00:26:40.41	28.79	5.48	-47.7	-59.9	3.8	8.47e-01	0	36	104	0	67	14244
2026-01-26 00:26:41.40	28.87	5.54	-47.7	-59.8	3.8	8.47e-01	0	36	104	0	67	14177
2026-01-26 00:26:42.40	28.96	5.60	-47.7	-59.8	3.8	8.47e-01	0	36	104	0	67	14176
2026-01-26 00:26:43.39	29.04	5.66	-47.7	-59.8	3.8	8.47e-01	0	36	104	0	67	14100
2026-01-26 00:26:44.38	29.12	5.72	-47.7	-59.8	3.8	8.46e-01	0	36	104	0	67	14147
2026-01-26 00:26:45.38	29.20	5.79	-47.7	-59.8	3.8	8.46e-01	0	36	104	0	67	14072
2026-01-26 00:26:46.37	29.28	5.85	-47.7	-59.7	3.8	8.48e-01	0	36	104	0	67	14040
2026-01-26 00:26:47.36	29.36	5.91	-47.7	-59.7	3.8	8.47e-01	0	36	104	0	67	14029
2026-01-26 00:26:48.36	29.45	5.97	-47.7	-59.7	3.8	8.46e-01	0	36	104	0	67	13945
2026-01-26 00:26:49.35	29.53	6.03	-47.7	-59.7	3.8	8.47e-01	0	36	104	0	67	13980
2026-01-26 00:26:50.34	29.61	6.10	-47.7	-59.7	3.8	8.48e-01	0	36	104	0	67	13961
2026-01-26 00:26:51.34	29.70	6.16	-47.7	-59.7	3.8	8.48e-01	0	36	104	0	67	13923
2026-01-26 00:26:52.33	29.78	6.22	-47.7	-59.7	3.8	8.46e-01	0	37	104	0	67	13924
2026-01-26 00:26:53.32	29.86	6.28	-47.7	-59.7	3.8	8.47e-01	0	36	104	0	67	13940
2026-01-26 00:26:54.32	29.95	6.35	-47.7	-59.7	3.8	8.46e-01	0	37	104	0	67	14011
2026-01-26 00:26:55.31	30.03	6.41	-47.7	-59.7	3.8	8.47e-01	0	36	104	0	67	13951
2026-01-26 00:26:56.30	30.12	6.47	-47.7	-59.7	3.8	8.47e-01	0	36	104	0	67	14009
2026-01-26 00:26:57.30	30.21	6.53	-47.7	-59.8	3.8	8.47e-01	0	37	104	0	67	14052
2026-01-26 00:26:58.29	30.29	6.60	-47.7	-59.7	3.8	8.46e-01	0	37	104	0	67	14044
2026-01-26 00:26:59.28	30.38	6.66	-47.7	-59.8	3.8	8.48e-01	0	37	104	0	67	14075
2026-01-26 00:27:00.28	30.47	6.72	-47.7	-59.8	3.8	8.48e-01	0	37	104	0	67	14057
2026-01-26 00:27:01.27	30.55	6.79	-47.7	-59.7	3.8	8.46e-01	0	37	104	0	67	13946
2026-01-26 00:27:02.26	30.64	6.85	-47.7	-59.6	3.8	8.46e-01	0	37	104	0	67	13878
2026-01-26 00:27:03.25	30.73	6.91	-47.7	-59.6	3.8	8.47e-01	0	37	104	0	67	13808
2026-01-26 00:27:04.25	30.82	6.98	-47.7	-59.5	3.8	8.47e-01	0	37	104	0	67	13707
2026-01-26 00:27:05.24	30.90	7.04	-47.7	-59.5	3.8	8.47e-01	0	37	104	0	67	13655
2026-01-26 00:27:06.23	30.99	7.10	-47.7	-59.6	3.8	8.47e-01	0	37	104	0	67	13762
2026-01-26 00:27:07.23	31.08	7.17	-47.7	-59.6	3.8	8.47e-01	0	37	104	0	67	13797
2026-01-26 00:27:08.22	31.17	7.23	-47.7	-59.7	3.8	8.46e-01	0	37	104	0	67	13910
2026-01-26 00:27:09.22	31.26	7.30	-47.7	-59.7	3.8	8.46e-01	0	37	104	0	67	13965
2026-01-26 00:27:10.21	31.35	7.36	-47.7	-59.6	3.8	8.46e-01	0	37	104	0	67	13852
2026-01-26 00:27:11.20	31.44	7.42	-47.7	-59.5	3.8	8.47e-01	0	37	104	0	67	13599
2026-01-26 00:27:12.19	31.54	7.49	-47.6	-59.3	3.8	8.46e-01	0	37	104	0	67	13394
2026-01-26 00:27:13.19	31.63	7.55	-47.6	-59.2	3.8	8.46e-01	0	37	104	0	67	13187
2026-01-26 00:27:14.18	31.72	7.62	-47.6	-59.2	3.8	8.48e-01	0	37	104	0	67	13193
2026-01-26 00:27:15.17	31.81	7.68	-47.6	-59.3	3.8	8.46e-01	0	37	104	0	67	13375
2026-01-26 00:27:16.17	31.90	7.75	-47.6	-59.5	3.8	8.47e-01	0	37	104	0	67	13573
2026-01-26 00:27:17.16	32.00	7.81	-47.7	-59.7	3.8	8.47e-01	0	37	104	0	67	13898
2026-01-26 00:27:18.16	32.09	7.88	-47.7	-59.7	3.8	8.45e-01	0	37	104	0	67	14012
2026-01-26 00:27:19.15	32.19	7.94	-47.7	-59.8	3.8	8.45e-01	0	37	104	0	67	14126
2026-01-26 00:27:20.14	32.28	8.01	-47.7	-59.8	3.8	8.46e-01	0	37	104	0	67	14105
2026-01-26 00:27:21.14	32.38	8.07	-47.7	-59.7	3.8	8.47e-01	0	37	104	0	67	14045
2026-01-26 00:27:22.13	32.47	8.14	-47.7	-59.7	3.8	8.47e-01	0	37	104	0	67	14021
2026-01-26 00:27:23.12	32.57	8.20	-47.7	-59.7	3.8	8.47e-01	0	37	104	0	67	13975
2026-01-26 00:27:24.11	32.66	8.27	-47.7	-59.7	3.8	8.47e-01	0	37	104	0	67	13916
2026-01-26 00:27:25.11	32.76	8.34	-47.7	-59.6	3.8	8.48e-01	0	37	104	0	67	13840
2026-01-26 00:27:26.10	32.85	8.40	-47.6	-59.5	3.8	8.47e-01	0	37	104	0	67	13688
2026-01-26 00:27:27.09	32.95	8.47	-47.6	-59.4	3.8	8.47e-01	0	37	104	0	67	13539
2026-01-26 00:27:28.09	33.05	8.53	-47.6	-59.3	3.8	8.47e-01	0	37	104	0	67	13316
2026-01-26 00:27:29.08	33.15	8.60	-47.6	-59.2	3.8	8.47e-01	0	37	104	0	67	13116
2026-01-26 00:27:30.07	33.25	8.67	-47.6	-58.9	3.8	8.47e-01	0	37	104	0	67	12697
2026-01-26 00:27:31.07	33.35	8.73	-47.5	-58.2	3.8	8.46e-01	0	37	104	0	67	11769
2026-01-26 00:27:32.06	33.44	8.80	-47.2	-56.5	3.9	8.44e-01	0	37	104	0	66	10254
2026-01-26 00:27:33.05	33.54	8.86	-46.7	-54.0	5.1	7.92e-01	0	37	0	0	65	8140
2026-01-26 00:27:34.05	33.65	8.93	-45.9	-51.3	7.3	2.82e-01	0	37	0	3145728	63	6722
2026-01-26 00:27:35.04	33.75	9.00	-44.8	-48.9	9.7	2.42e-02	0	37	0	9437184	61	5700
2026-01-26 00:27:36.03	33.85	9.07	-43.7	-47.0	11.8	2.11e-03	0	37	0	14680064	59	5115
2026-01-26 00:27:37.02	33.95	9.13	-42.4	-45.2	13.6	2.74e-05	0	37	0	19922944	56	4964
2026-01-26 00:27:38.02	34.05	9.20	-46.7	-54.4	4.9	3.69e-01	0	37	0	25165824	64	9034
2026-01-26 00:27:39.01	34.15	9.27	-41.1	-43.5	15.3	2.27e-04	0	37	0	30408704	54	4594
2026-01-26 00:27:40.01	34.26	9.33	-45.5	-50.4	8.4	2.60e-02	0	37	0	35651584	61	6762
2026-01-26 00:27:41.00	34.36	9.40	-38.3	-40.2	18.6	0.00e+00	0	37	0	40894464	48	4429
2026-01-26 00:27:42.00	34.46	9.47	-37.9	-39.9	18.7	0.00e+00	0	37	0	46137344	47	4503
2026-01-26 00:27:42.99	34.57	9.54	-37.6	-39.6	19.0	0.00e+00	0	38	0	52428800	47	4359
2026-01-26 00:27:43.99	34.67	9.61	-37.4	-39.3	19.3	0.00e+00	0	37	0	57671680	46	4485
2026-01-26 00:27:44.99	34.78	9.67	-37.4	-39.3	19.4	0.00e+00	0	37	0	62914560	46	4451
2026-01-26 00:27:45.98	34.88	9.74	-37.3	-39.2	19.4	0.00e+00	0	37	0	69206016	46	4431
2026-01-26 00:27:46.98	34.99	9.81	-37.3	-39.2	19.4	0.00e+00	0	38	0	74448896	46	4412
2026-01-26 00:27:47.97	35.10	9.88	-37.3	-39.2	19.4	0.00e+00	0	37	0	80740352	46	4410
2026-01-26 00:27:48.97	35.21	9.95	-37.2	-39.1	19.5	0.00e+00	0	38	0	85983232	46	4370
2026-01-26 00:27:49.97	35.31	10.02	-37.2	-39.0	19.6	0.00e+00	0	37	0	91226112	46	4337
2026-01-26 00:27:50.96	35.42	10.08	-37.1	-39.0	19.7	0.00e+00	0	37	0	97517568	46	4298
2026-01-26 00:27:51.96	35.53	10.15	-36.9	-38.8	19.8	0.00e+00	0	38	0	102760448	45	4453
2026-01-26 00:27:52.95	35.64	10.22	-37.0	-38.8	19.8	0.00e+00	0	37	0	108003328	45	4483
2026-01-26 00:27:53.95	35.75	10.29	-36.9	-38.8	19.9	0.00e+00	0	38	0	114294784	45	4447
2026-01-26 00:27:54.94	35.86	10.36	-36.8	-38.7	20.0	0.00e+00	0	37	0	119537664	45	4402
2026-01-26 00:27:55.93	35.97	10.43	-36.8	-38.7	19.9	0.00e+00	0	38	0	124780544	45	4401
2026-01-26 00:27:56.93	36.08	10.50	-36.9	-38.7	19.9	0.00e+00	0	37	0	131072000	45	4432
2026-01-26 00:27:57.93	36.19	10.57	-36.9	-38.8	19.9	0.00e+00	0	37	0	136314880	45	4442
2026-01-26 00:27:58.92	36.31	10.64	-36.9	-38.7	19.9	0.00e+00	0	37	0	141557760	45	4437
2026-01-26 00:27:59.98	36.43	10.71	-37.0	-38.9	19.7	0.00e+00	0	37	0	147849216	45	4516
2026-01-26 00:28:00.85	36.53	10.77	-37.0	-38.9	19.7	0.00e+00	0	37	0	153092096	45	4531
2026-01-26 00:28:01.99	36.66	10.85	-36.9	-38.8	19.9	0.00e+00	0	37	0	159383552	45	4451
2026-01-26 00:28:02.84	36.75	10.91	-36.8	-38.7	20.0	0.00e+00	0	37	0	163577856	45	4394
2026-01-26 00:28:03.98	36.89	10.99	-36.8	-38.6	20.0	0.00e+00	0	38	0	169869312	45	4373
2026-01-26 00:28:04.83	36.98	11.05	-36.8	-38.6	20.0	0.00e+00	0	38	0	175112192	45	4364
2026-01-26 00:28:05.96	37.12	11.13	-36.7	-38.5	20.2	0.00e+00	0	38	0	181403648	45	4314
2026-01-26 00:28:06.82	37.22	11.19	-36.6	-38.5	20.2	0.00e+00	0	37	0	186646528	45	4306
2026-01-26 00:28:07.96	37.35	11.27	-36.6	-38.4	20.2	0.00e+00	0	38	0	192937984	45	4291
2026-01-26 00:28:08.81	37.45	11.33	-36.6	-38.4	20.3	0.00e+00	0	38	0	197132288	45	4260
2026-01-26 00:28:09.98	37.59	11.42	-36.6	-38.5	20.2	0.00e+00	0	38	0	204472320	45	4300
2026-01-26 00:28:10.83	37.69	11.48	-36.5	-38.3	20.3	0.00e+00	0	38	0	208666624	45	4237
2026-01-26 00:28:11.97	37.83	11.56	-36.5	-38.3	20.3	0.00e+00	0	38	0	214958080	45	4229
2026-01-26 00:28:12.82	37.93	11.62	-36.5	-38.3	20.3	0.00e+00	0	38	0	220200960	45	4234
2026-01-26 00:28:13.96	38.07	11.70	-36.5	-38.4	20.3	0.00e+00	0	38	0	226492416	45	4247
2026-01-26 00:28:14.81	38.17	11.76	-36.6	-38.4	20.3	0.00e+00	0	38	0	231735296	45	4271
2026-01-26 00:28:15.95	38.31	11.84	-36.6	-38.4	20.2	0.00e+00	0	38	0	238026752	45	4273
2026-01-26 00:28:16.80	38.42	11.90	-36.6	-38.4	20.3	0.00e+00	0	38	0	242221056	45	4264
2026-01-26 00:28:17.94	38.56	11.98	-36.6	-38.4	20.2	0.00e+00	0	38	0	248512512	45	4279
2026-01-26 00:28:18.80	38.66	12.05	-36.6	-38.4	20.3	0.00e+00	0	38	0	253755392	45	4248
2026-01-26 00:28:19.93	38.80	12.13	-36.7	-38.5	20.2	0.00e+00	0	38	0	260046848	45	4302
2026-01-26 00:28:20.78	38.91	12.19	-36.6	-38.4	20.2	0.00e+00	0	38	0	265289728	45	4286
2026-01-26 00:28:21.92	39.05	12.27	-36.5	-38.3	20.3	0.00e+00	0	38	0	271581184	45	4220
2026-01-26 00:28:22.78	39.16	12.33	-36.5	-38.3	20.3	0.00e+00	0	38	0	275775488	45	4227
2026-01-26 00:28:23.91	39.30	12.41	-36.5	-38.3	20.5	0.00e+00	0	38	0	282066944	44	4448
2026-01-26 00:28:24.76	39.41	12.48	-36.5	-38.3	20.4	0.00e+00	0	38	0	287309824	44	4456
2026-01-26 00:28:25.90	39.56	12.56	-36.5	-38.4	20.3	0.00e+00	0	38	0	293601280	44	4494
2026-01-26 00:28:26.85	39.68	12.63	-36.5	-38.3	20.4	0.00e+00	0	38	0	298844160	44	4470
2026-01-26 00:28:27.84	39.81	12.70	-36.5	-38.3	20.4	0.00e+00	0	38	0	304087040	44	4484
2026-01-26 00:28:28.84	39.94	12.77	-36.6	-38.4	20.4	0.00e+00	0	38	0	310378496	44	4503
2026-01-26 00:28:29.83	40.07	12.84	-36.5	-38.2	20.5	0.00e+00	0	38	0	315621376	44	4438
2026-01-26 00:28:30.83	40.20	12.92	-36.5	-38.3	20.4	0.00e+00	0	38	0	320864256	44	4480
2026-01-26 00:28:31.82	40.33	12.99	-36.4	-38.2	20.5	0.00e+00	0	38	0	327155712	44	4432
2026-01-26 00:28:32.82	40.46	13.06	-36.4	-38.2	20.5	0.00e+00	0	38	0	332398592	44	4410
2026-01-26 00:28:33.81	40.59	13.13	-36.3	-38.0	20.6	0.00e+00	0	38	0	338690048	44	4340
2026-01-26 00:28:34.80	40.73	13.21	-36.2	-38.0	20.8	0.00e+00	0	38	0	343932928	44	4293
2026-01-26 00:28:35.80	40.86	13.28	-36.2	-38.0	20.7	0.00e+00	0	38	0	349175808	44	4324
2026-01-26 00:28:36.84	41.00	13.36	-36.2	-38.0	20.7	0.00e+00	0	38	0	355467264	44	4333
2026-01-26 00:28:37.82	41.13	13.43	-36.3	-38.1	20.6	0.00e+00	0	38	0	360710144	44	4381
2026-01-26 00:28:38.81	41.27	13.50	-36.4	-38.2	20.5	0.00e+00	0	38	0	365953024	44	4410
2026-01-26 00:28:39.81	41.40	13.58	-36.4	-38.2	20.6	0.00e+00	0	38	0	372244480	44	4409
2026-01-26 00:28:40.80	41.54	13.65	-36.3	-38.1	20.6	0.00e+00	0	38	0	377487360	44	4386
2026-01-26 00:28:41.80	41.68	13.72	-36.3	-38.0	20.7	0.00e+00	0	38	0	382730240	44	4339
2026-01-26 00:28:42.80	41.82	13.80	-36.1	-37.9	20.8	0.00e+00	0	38	0	389021696	44	4280
2026-01-26 00:28:43.79	41.96	13.87	-36.2	-38.0	20.7	0.00e+00	0	38	0	394264576	44	4311
2026-01-26 00:28:44.79	42.10	13.94	-36.0	-37.7	21.0	0.00e+00	0	38	0	399507456	44	4189
2026-01-26 00:28:45.78	42.24	14.02	-35.6	-37.4	21.1	0.00e+00	0	38	0	405798912	43	4268
2026-01-26 00:28:46.78	42.38	14.09	-35.5	-37.3	21.3	0.00e+00	0	38	0	411041792	43	4199
2026-01-26 00:28:47.77	42.52	14.16	-35.5	-37.2	21.3	0.00e+00	0	38	0	416284672	42	4422
2026-01-26 00:28:48.77	42.66	14.24	-35.4	-37.2	21.4	0.00e+00	0	38	0	422576128	42	4396
2026-01-26 00:28:49.76	42.80	14.31	-35.4	-37.1	21.4	0.00e+00	0	38	0	427819008	42	4379
2026-01-26 00:28:50.76	42.95	14.39	-35.4	-37.1	21.4	0.00e+00	0	38	0	433061888	42	4380
2026-01-26 00:28:51.75	43.09	14.46	-35.4	-37.1	21.4	0.00e+00	0	38	0	439353344	42	4388
2026-01-26 00:28:52.75	43.24	14.54	-35.3	-37.1	21.4	0.00e+00	0	38	0	444596224	42	4350
2026-01-26 00:28:53.75	43.38	14.61	-35.4	-37.1	21.4	0.00e+00	0	38	0	449839104	42	4375
2026-01-26 00:28:54.74	43.53	14.68	-35.5	-37.2	21.3	0.00e+00	0	38	0	456130560	42	4435
2026-01-26 00:28:55.73	43.68	14.76	-35.4	-37.2	21.4	0.00e+00	0	38	0	461373440	42	4395
2026-01-26 00:28:56.90	43.85	14.85	-35.5	-37.2	21.4	0.00e+00	0	38	0	467664896	42	4409
2026-01-26 00:28:57.79	43.98	14.91	-35.4	-37.1	21.4	0.00e+00	0	38	0	472907776	42	4379
2026-01-26 00:28:59.11	44.18	15.01	-35.5	-37.2	21.4	0.00e+00	0	38	0	480247808	42	4417
2026-01-26 00:28:59.82	44.29	15.06	-35.4	-37.1	21.4	0.00e+00	0	38	0	484442112	42	4387
2026-01-26 00:29:01.10	44.48	15.16	-35.5	-37.2	21.4	0.00e+00	0	38	0	491782144	42	4410
2026-01-26 00:29:01.81	44.59	15.21	-35.5	-37.3	21.3	0.00e+00	0	38	0	495976448	42	4443
2026-01-26 00:29:03.09	44.79	15.31	-35.5	-37.3	21.3	0.00e+00	0	38	0	502267904	42	4449
2026-01-26 00:29:03.80	44.90	15.36	-35.6	-37.4	21.2	0.00e+00	0	38	0	506462208	42	4514
2026-01-26 00:29:05.08	45.09	15.46	-35.7	-37.4	21.1	0.00e+00	0	38	0	513802240	42	4540
2026-01-26 00:29:05.82	45.21	15.51	-35.7	-37.4	21.1	0.00e+00	0	38	0	517996544	42	4539
2026-01-26 00:29:07.10	45.41	15.61	-35.8	-37.5	21.0	0.00e+00	0	38	0	525336576	42	4587
2026-01-26 00:29:08.02	45.55	15.68	-35.8	-37.5	21.0	0.00e+00	0	38	0	530579456	42	4595
2026-01-26 00:29:09.01	45.71	15.76	-35.5	-37.3	21.3	0.00e+00	0	38	0	535822336	42	4447
2026-01-26 00:29:10.01	45.87	15.83	-35.3	-37.0	21.5	0.00e+00	0	38	0	542113792	42	4340
2026-01-26 00:29:11.00	46.02	15.91	-35.3	-37.0	21.5	0.00e+00	0	38	0	547356672	42	4338
2026-01-26 00:29:12.00	46.18	15.98	-35.3	-37.0	21.5	0.00e+00	0	38	0	552599552	42	4327
2026-01-26 00:29:12.99	46.34	16.06	-35.3	-37.0	21.5	0.00e+00	0	38	0	558891008	42	4305
2026-01-26 00:29:13.99	46.51	16.13	-35.3	-37.1	21.5	0.00e+00	0	38	0	564133888	42	4351
2026-01-26 00:29:14.98	46.67	16.21	-35.3	-37.0	21.6	0.00e+00	0	38	0	569376768	42	4312
2026-01-26 00:29:15.98	46.83	16.28	-35.3	-37.1	21.5	0.00e+00	0	38	0	575668224	42	4353
2026-01-26 00:29:16.97	46.99	16.36	-35.2	-37.0	21.6	0.00e+00	0	38	0	580911104	42	4303
2026-01-26 00:29:17.96	47.16	16.43	-35.1	-36.8	21.7	0.00e+00	0	38	0	586153984	42	4237
2026-01-26 00:29:18.96	47.32	16.51	-35.2	-36.9	21.7	0.00e+00	0	38	0	592445440	42	4259
2026-01-26 00:29:19.96	47.49	16.58	-35.2	-36.9	21.7	0.00e+00	0	38	0	597688320	42	4258
2026-01-26 00:29:20.95	47.65	16.66	-35.3	-37.0	21.6	0.00e+00	0	38	0	602931200	42	4304
2026-01-26 00:29:21.94	47.82	16.73	-35.1	-36.8	21.7	0.00e+00	0	38	0	609222656	42	4213
2026-01-26 00:29:22.94	47.99	16.81	-35.0	-36.7	21.9	0.00e+00	0	38	0	614465536	42	4155
2026-01-26 00:29:23.93	48.16	16.88	-35.0	-36.7	21.8	0.00e+00	0	38	0	619708416	41	4398
2026-01-26 00:29:24.92	48.33	16.96	-35.1	-36.7	21.8	0.00e+00	0	38	0	625999872	41	4441
2026-01-26 00:29:25.92	48.50	17.03	-35.0	-36.7	21.9	0.00e+00	0	38	0	631242752	41	4397
2026-01-26 00:29:26.92	48.67	17.11	-35.0	-36.7	21.8	0.00e+00	0	38	0	636485632	41	4435
2026-01-26 00:29:27.93	48.84	17.18	-35.0	-36.7	21.8	0.00e+00	0	38	0	642777088	41	4409
2026-01-26 00:29:28.96	49.02	17.26	-34.8	-36.5	22.0	0.00e+00	0	38	0	648019968	41	4323
2026-01-26 00:29:29.95	49.20	17.34	-34.9	-36.6	21.9	0.00e+00	0	38	0	653262848	41	4359
2026-01-26 00:29:30.94	49.37	17.41	-34.9	-36.6	21.9	0.00e+00	0	38	0	659554304	41	4362
2026-01-26 00:29:31.94	49.55	17.49	-35.0	-36.7	21.9	0.00e+00	0	38	0	664797184	41	4394
2026-01-26 00:29:32.93	49.72	17.56	-34.9	-36.6	21.9	0.00e+00	0	38	0	671088640	41	4360
2026-01-26 00:29:33.93	49.90	17.64	-35.0	-36.7	21.8	0.00e+00	0	38	0	676331520	41	4419
2026-01-26 00:29:34.92	50.08	17.71	-35.0	-36.7	21.8	0.00e+00	0	38	0	681574400	41	4434
2026-01-26 00:29:35.92	50.26	17.79	-34.9	-36.7	21.9	0.00e+00	0	38	0	687865856	41	4393
2026-01-26 00:29:36.91	50.44	17.86	-34.9	-36.6	21.9	0.00e+00	0	38	0	693108736	41	4377
2026-01-26 00:29:37.91	50.62	17.94	-34.8	-36.5	22.0	0.00e+00	0	38	0	698351616	41	4318
2026-01-26 00:29:38.90	50.80	18.01	-34.8	-36.5	22.1	0.00e+00	0	38	0	704643072	41	4292
2026-01-26 00:29:39.90	50.98	18.09	-34.7	-36.4	22.2	0.00e+00	0	38	0	709885952	41	4258
2026-01-26 00:29:40.89	51.16	18.16	-34.8	-36.5	22.1	0.00e+00	0	38	0	715128832	41	4298
2026-01-26 00:29:41.93	51.36	18.24	-34.8	-36.5	22.1	0.00e+00	0	38	0	721420288	41	4309
2026-01-26 00:29:42.96	51.55	18.32	-34.8	-36.5	22.0	0.00e+00	0	38	0	727711744	41	4306
2026-01-26 00:29:43.96	51.74	18.39	-34.7	-36.4	22.1	0.00e+00	0	38	0	732954624	41	4259
2026-01-26 00:29:44.95	51.92	18.47	-34.7	-36.4	22.1	0.00e+00	0	38	0	738197504	41	4289
2026-01-26 00:29:45.95	52.11	18.54	-34.8	-36.5	22.1	0.00e+00	0	38	0	743440384	41	4292
2026-01-26 00:29:46.94	52.30	18.62	-34.5	-36.2	22.3	0.00e+00	0	38	0	749731840	41	4170
2026-01-26 00:29:47.93	52.49	18.69	-34.5	-36.2	22.3	0.00e+00	0	38	0	754974720	41	4176
2026-01-26 00:29:48.93	52.68	18.76	-34.6	-36.2	22.3	0.00e+00	0	38	0	760217600	41	4191
2026-01-26 00:29:49.92	52.87	18.84	-34.5	-36.1	22.4	0.00e+00	0	38	0	766509056	40	4391
2026-01-26 00:29:50.92	53.06	18.91	-34.6	-36.3	22.3	0.00e+00	0	38	0	771751936	40	4452
2026-01-26 00:29:51.91	53.26	18.99	-34.5	-36.1	22.4	0.00e+00	0	38	0	778043392	40	4384
2026-01-26 00:29:52.91	53.45	19.06	-34.4	-36.0	22.5	0.00e+00	0	38	0	783286272	40	4326
2026-01-26 00:29:53.90	53.65	19.13	-34.4	-36.1	22.4	0.00e+00	0	38	0	788529152	40	4356
2026-01-26 00:29:54.90	53.84	19.21	-34.5	-36.2	22.4	0.00e+00	0	38	0	793772032	40	4400
2026-01-26 00:29:55.89	54.04	19.28	-34.5	-36.2	22.4	0.00e+00	0	38	0	800063488	40	4395
2026-01-26 00:29:56.89	54.24	19.36	-34.4	-36.1	22.4	0.00e+00	0	38	0	805306368	40	4357
2026-01-26 00:29:57.93	54.45	19.43	-34.5	-36.2	22.4	0.00e+00	0	38	0	811597824	40	4406
2026-01-26 00:29:58.89	54.64	19.50	-34.5	-36.2	22.3	0.00e+00	0	38	0	816840704	40	4430
2026-01-26 00:29:59.99	54.86	19.58	-34.5	-36.2	22.3	0.00e+00	0	38	0	823132160	40	4431
2026-01-26 00:30:00.85	55.04	19.65	-34.5	-36.2	22.3	0.00e+00	0	38	0	827326464	40	4420
2026-01-26 00:30:01.99	55.27	19.73	-34.5	-36.2	22.3	0.00e+00	0	38	0	833617920	40	4407
2026-01-26 00:30:02.84	55.44	19.79	-34.6	-36.3	22.3	0.00e+00	0	38	0	838860800	40	4451
2026-01-26 00:30:03.98	55.68	19.88	-34.5	-36.2	22.4	0.00e+00	0	38	0	845152256	40	4423
2026-01-26 00:30:04.83	55.85	19.94	-34.6	-36.2	22.3	0.00e+00	0	38	0	850395136	40	4439
2026-01-26 00:30:05.97	56.09	20.02	-34.5	-36.2	22.3	0.00e+00	0	38	0	856686592	40	4430
2026-01-26 00:30:06.82	56.27	20.08	-34.6	-36.3	22.2	0.00e+00	0	38	0	860880896	40	4480
2026-01-26 00:30:07.96	56.51	20.16	-34.4	-36.1	22.4	0.00e+00	0	38	0	868220928	40	4378
2026-01-26 00:30:08.81	56.69	20.23	-34.4	-36.1	22.5	0.00e+00	0	38	0	872415232	40	4343
2026-01-26 00:30:09.95	56.93	20.31	-34.3	-36.0	22.5	0.00e+00	0	38	0	878706688	40	4331
2026-01-26 00:30:10.80	57.11	20.37	-34.4	-36.0	22.5	0.00e+00	0	38	0	883949568	40	4336
2026-01-26 00:30:11.97	57.36	20.45	-34.4	-36.1	22.4	0.00e+00	0	38	0	890241024	40	4384
2026-01-26 00:30:12.83	57.54	20.51	-34.4	-36.1	22.4	0.00e+00	0	38	0	895483904	40	4358
2026-01-26 00:30:13.96	57.78	20.59	-34.5	-36.1	22.4	0.00e+00	0	38	0	901775360	40	4386
2026-01-26 00:30:14.81	57.97	20.66	-34.4	-36.1	22.5	0.00e+00	0	38	0	905969664	40	4367
2026-01-26 00:30:15.95	58.22	20.74	-34.4	-36.1	22.5	0.00e+00	0	38	0	912261120	40	4342
2026-01-26 00:30:16.81	58.40	20.80	-34.2	-35.9	22.7	0.00e+00	0	38	0	917504000	40	4243
2026-01-26 00:30:17.94	58.65	20.88	-34.1	-35.8	22.7	0.00e+00	0	38	0	923795456	40	4224
2026-01-26 00:30:18.80	58.84	20.94	-34.1	-35.8	22.7	0.00e+00	0	38	0	929038336	40	4220
2026-01-26 00:30:19.93	59.09	21.02	-34.0	-35.8	22.3	0.00e+00	0	38	0	935329792	39	4449
2026-01-26 00:30:20.79	59.28	21.08	-34.2	-35.9	22.1	0.00e+00	0	38	0	939524096	39	4545
2026-01-26 00:30:21.93	59.54	21.16	-34.3	-36.0	22.0	0.00e+00	0	38	0	945815552	39	4598
2026-01-26 00:30:22.78	59.73	21.21	-34.2	-36.0	22.0	0.00e+00	0	38	0	951058432	39	4597
2026-01-26 00:30:23.92	59.99	21.29	-34.3	-36.1	22.0	0.00e+00	0	38	0	957349888	39	4649
2026-01-26 00:30:24.77	60.18	21.35	-34.2	-36.0	22.0	0.00e+00	0	38	0	962592768	39	4587
2026-01-26 00:30:25.92	60.44	21.43	-34.0	-35.8	22.3	0.00e+00	0	38	0	968884224	39	4447
2026-01-26 00:30:26.78	60.64	21.49	-34.0	-35.7	22.3	0.00e+00	0	38	0	973078528	39	4421
2026-01-26 00:30:27.91	60.89	21.57	-33.9	-35.6	22.4	0.00e+00	0	38	0	980418560	39	4382
2026-01-26 00:30:28.77	61.09	21.62	-33.8	-35.6	22.5	0.00e+00	0	38	0	984612864	39	4342
2026-01-26 00:30:29.90	61.35	21.70	-33.7	-35.4	22.6	0.00e+00	0	38	0	990904320	39	4257
2026-01-26 00:30:30.76	61.55	21.76	-33.8	-35.5	22.5	0.00e+00	0	38	0	996147200	39	4333
2026-01-26 00:30:31.89	61.82	21.83	-34.0	-35.8	22.3	0.00e+00	0	38	0	1002438656	39	4446
2026-01-26 00:30:32.75	62.02	21.89	-34.1	-35.9	22.2	0.00e+00	0	38	0	1006632960	39	4519
2026-01-26 00:30:33.89	62.29	21.97	-34.1	-35.9	22.1	0.00e+00	0	38	0	1013972992	39	4533
2026-01-26 00:30:34.74	62.49	22.02	-34.0	-35.8	22.2	0.00e+00	0	38	0	1018167296	39	4475
2026-01-26 00:30:35.87	62.75	22.10	-34.0	-35.8	22.2	0.00e+00	0	38	0	1024458752	39	4472
2026-01-26 00:30:36.73	62.96	22.15	-34.0	-35.8	22.3	0.00e+00	0	38	0	1029701632	39	4453
2026-01-26 00:30:37.89	63.24	22.23	-34.0	-35.7	22.3	0.00e+00	0	38	0	1035993088	39	4427
2026-01-26 00:30:38.75	63.44	22.28	-33.9	-35.7	22.3	0.00e+00	0	38	0	1041235968	39	4402
2026-01-26 00:30:39.95	63.73	22.36	-33.8	-35.6	22.4	0.00e+00	0	38	0	1047527424	39	4359
2026-01-26 00:30:40.80	63.94	22.42	-33.8	-35.6	22.4	0.00e+00	0	38	0	1052770304	39	4374
2026-01-26 00:30:42.02	64.23	22.49	-33.9	-35.6	22.4	0.00e+00	0	38	0	1059061760	39	4373
2026-01-26 00:30:42.87	64.44	22.55	-33.8	-35.5	22.5	0.00e+00	0	38	0	1064304640	39	4328
2026-01-26 00:30:44.01	64.72	22.62	-33.8	-35.5	22.5	0.00e+00	0	38	0	1070596096	39	4337
2026-01-26 00:30:44.86	64.93	22.67	-33.7	-35.5	22.5	0.00e+00	0	38	0	1075838976	39	4313
2026-01-26 00:30:46.11	65.24	22.75	-33.8	-35.6	22.5	0.00e+00	0	38	0	1082130432	39	4341
2026-01-26 00:30:46.96	65.45	22.80	-33.7	-35.5	22.5	0.00e+00	0	38	0	1087373312	39	4304
2026-01-26 00:30:48.21	65.76	22.88	-33.7	-35.5	22.5	0.00e+00	0	38	0	1094713344	39	4313
2026-01-26 00:30:49.06	65.97	22.93	-33.7	-35.5	22.5	0.00e+00	0	38	0	1098907648	39	4301
2026-01-26 00:30:50.29	66.28	23.00	-33.7	-35.5	22.6	0.00e+00	0	38	0	1106247680	39	4301
2026-01-26 00:30:51.14	66.50	23.06	-33.6	-35.3	22.7	0.00e+00	0	38	0	1110441984	39	4233
2026-01-26 00:30:52.28	66.79	23.12	-33.8	-35.6	22.5	0.00e+00	0	38	0	1116733440	39	4342
2026-01-26 00:30:53.13	67.00	23.17	-33.7	-35.5	22.5	0.00e+00	0	38	0	1121976320	39	4306
2026-01-26 00:30:54.27	67.29	23.24	-33.6	-35.3	22.6	0.00e+00	0	38	0	1128267776	39	4241
2026-01-26 00:30:55.12	67.51	23.29	-33.6	-35.3	22.6	0.00e+00	0	38	0	1133510656	39	4228
2026-01-26 00:30:56.26	67.80	23.36	-33.6	-35.3	22.6	0.00e+00	0	38	0	1139802112	39	4235
2026-01-26 00:30:57.19	68.04	23.41	-33.6	-35.3	22.6	0.00e+00	0	38	0	1145044992	39	4235
2026-01-26 00:30:58.38	68.35	23.48	-33.7	-35.4	22.6	0.00e+00	0	38	0	1151336448	39	4281
2026-01-26 00:30:59.23	68.57	23.52	-33.7	-35.4	22.6	0.00e+00	0	38	0	1156579328	39	4283
2026-01-26 00:31:00.37	68.87	23.59	-33.6	-35.4	22.6	0.00e+00	0	38	0	1162870784	39	4245
2026-01-26 00:31:01.30	69.11	23.64	-33.5	-35.2	22.8	0.00e+00	0	38	0	1168113664	39	4170
2026-01-26 00:31:02.47	69.42	23.70	-33.5	-35.2	22.8	0.00e+00	0	38	0	1174405120	38	4409
2026-01-26 00:31:03.35	69.65	23.75	-33.5	-35.3	22.7	0.00e+00	0	38	0	1179648000	38	4454
2026-01-26 00:31:04.49	69.95	23.81	-33.6	-35.3	22.7	0.00e+00	0	38	0	1185939456	38	4479
2026-01-26 00:31:05.40	70.19	23.86	-33.6	-35.3	22.7	0.00e+00	0	38	0	1191182336	38	4469
2026-01-26 00:31:06.40	70.46	23.91	-33.6	-35.3	22.7	0.00e+00	0	38	0	1196425216	38	4488
2026-01-26 00:31:07.40	70.73	23.97	-33.5	-35.2	22.8	0.00e+00	0	38	0	1201668096	38	4425
2026-01-26 00:31:08.39	70.99	24.02	-33.4	-35.1	22.9	0.00e+00	0	38	0	1207959552	38	4386
2026-01-26 00:31:09.38	71.26	24.07	-33.4	-35.1	22.9	0.00e+00	0	38	0	1213202432	38	4375
2026-01-26 00:31:10.38	71.53	24.12	-33.4	-35.1	22.9	0.00e+00	0	38	0	1218445312	38	4370
2026-01-26 00:31:11.37	71.80	24.17	-33.4	-35.1	22.4	0.00e+00	0	38	0	1224736768	38	4387
2026-01-26 00:31:12.37	72.07	24.22	-33.4	-35.1	22.8	0.00e+00	0	38	0	1229979648	38	4368
2026-01-26 00:31:13.36	72.34	24.27	-33.4	-35.2	22.8	0.00e+00	0	38	0	1235222528	38	4404
2026-01-26 00:31:14.35	72.61	24.31	-33.4	-35.1	22.8	0.00e+00	0	38	0	1241513984	38	4377
2026-01-26 00:31:15.40	72.89	24.36	-33.4	-35.2	22.8	0.00e+00	0	38	0	1246756864	38	4401
2026-01-26 00:31:16.34	73.15	24.41	-33.3	-35.1	22.9	0.00e+00	0	38	0	1251999744	38	4344
2026-01-26 00:31:17.47	73.46	24.46	-33.2	-34.9	23.0	0.00e+00	0	38	0	1258291200	38	4275
2026-01-26 00:31:18.32	73.70	24.50	-33.2	-34.9	23.0	0.00e+00	0	38	0	1263534080	38	4284
2026-01-26 00:31:19.45	74.01	24.55	-33.2	-34.9	23.0	0.00e+00	0	38	0	1269825536	38	4260
2026-01-26 00:31:20.31	74.25	24.59	-33.2	-35.0	23.0	0.00e+00	0	38	0	1275068416	38	4299
2026-01-26 00:31:21.44	74.57	24.64	-33.3	-35.1	22.9	0.00e+00	0	38	0	1281359872	38	4346
2026-01-26 00:31:22.30	74.81	24.68	-33.2	-34.9	23.0	0.00e+00	0	38	0	1285554176	38	4262
2026-01-26 00:31:23.44	75.13	24.73	-33.2	-34.9	23.0	0.00e+00	0	38	0	1291845632	38	4279
2026-01-26 00:31:24.29	75.36	24.76	-33.2	-34.9	23.1	0.00e+00	0	38	0	1297088512	38	4243
2026-01-26 00:31:25.42	75.68	24.81	-33.2	-34.9	23.1	0.00e+00	0	38	0	1303379968	38	4266
2026-01-26 00:31:26.28	75.93	24.84	-33.3	-35.0	23.0	0.00e+00	0	38	0	1308622848	38	4296
2026-01-26 00:31:27.41	76.25	24.89	-33.3	-35.0	22.9	0.00e+00	0	38	0	1314914304	38	4340
2026-01-26 00:31:28.27	76.49	24.92	-33.4	-35.1	22.8	0.00e+00	0	38	0	1319108608	38	4372
2026-01-26 00:31:29.40	76.81	24.97	-33.3	-35.1	22.9	0.00e+00	0	38	0	1325400064	38	4347
2026-01-26 00:31:30.26	77.06	25.00	-33.1	-34.8	23.0	0.00e+00	0	38	0	1330642944	38	4234
2026-01-26 00:31:31.39	77.38	25.04	-33.1	-34.9	23.1	0.00e+00	0	38	0	1336934400	38	4246
2026-01-26 00:31:32.24	77.62	25.08	-33.3	-35.0	23.0	0.00e+00	0	38	0	1342177280	38	4316
2026-01-26 00:31:33.59	78.01	25.12	-33.2	-35.0	22.9	0.00e+00	0	38	0	1349517312	38	4298
2026-01-26 00:31:34.30	78.22	25.15	-33.2	-34.9	23.0	0.00e+00	0	38	0	1353711616	38	4262
2026-01-26 00:31:35.76	78.64	25.20	-33.1	-34.8	23.1	0.00e+00	0	38	0	1362100224	38	4233
2026-01-26 00:31:36.48	78.85	25.22	-33.1	-34.8	23.1	0.00e+00	0	38	0	1365245952	38	4232
2026-01-26 00:31:37.75	79.21	25.27	-33.0	-34.7	23.2	0.00e+00	0	38	0	1372585984	38	4160
2026-01-26 00:31:38.48	79.43	25.29	-33.1	-34.8	23.1	0.00e+00	0	38	0	1376780288	38	4208
2026-01-26 00:31:39.76	79.80	25.33	-33.1	-34.8	23.1	0.00e+00	0	38	0	1384120320	38	4209
2026-01-26 00:31:40.47	80.01	25.35	-33.2	-34.9	23.1	0.00e+00	0	38	0	1388314624	38	4266
2026-01-26 00:31:41.75	80.38	25.39	-33.1	-34.8	23.1	0.00e+00	0	38	0	1395654656	38	4229
2026-01-26 00:31:42.47	80.59	25.41	-33.1	-34.8	23.1	0.00e+00	0	38	0	1399848960	38	4225
2026-01-26 00:31:43.75	80.97	25.45	-33.1	-34.8	23.1	0.00e+00	0	38	0	1406140416	38	4214
2026-01-26 00:31:44.47	81.18	25.47	-33.0	-34.7	23.1	0.00e+00	0	38	0	1410334720	38	4192
2026-01-26 00:31:45.75	81.55	25.51	-33.0	-34.7	23.1	0.00e+00	0	38	0	1417674752	38	4192
2026-01-26 00:31:46.52	81.78	25.53	-33.1	-34.9	23.0	0.00e+00	0	38	0	1421869056	38	4252
2026-01-26 00:31:47.80	82.16	25.56	-33.2	-34.9	23.0	0.00e+00	0	38	0	1429209088	38	4289
2026-01-26 00:31:48.55	82.38	25.58	-33.2	-34.9	23.1	0.00e+00	0	38	0	1433403392	38	4260
2026-01-26 00:31:49.83	82.76	25.61	-33.2	-34.9	23.0	0.00e+00	0	38	0	1440743424	38	4277
2026-01-26 00:31:50.57	82.98	25.63	-33.2	-34.9	23.1	0.00e+00	0	38	0	1444937728	38	4262
2026-01-26 00:31:51.84	83.36	25.66	-33.0	-34.7	23.2	0.00e+00	0	38	0	1452277760	38	4183
2026-01-26 00:31:52.68	83.61	25.67	-33.0	-34.7	23.2	0.00e+00	0	38	0	1456472064	38	4193
2026-01-26 00:31:54.12	84.04	25.70	-33.2	-35.0	23.0	0.00e+00	0	38	0	1464860672	38	4303
2026-01-26 00:31:54.83	84.25	25.72	-33.3	-35.1	22.9	0.00e+00	0	38	0	1469054976	38	4350
2026-01-26 00:31:56.11	84.63	25.74	-33.4	-35.1	22.8	0.00e+00	0	38	0	1476395008	38	4380
2026-01-26 00:31:56.84	84.85	25.76	-33.4	-35.2	22.8	0.00e+00	0	38	0	1480589312	38	4395
2026-01-26 00:31:58.12	85.23	25.78	-33.3	-35.0	23.0	0.00e+00	0	38	0	1487929344	38	4321
2026-01-26 00:31:58.87	85.46	25.79	-33.3	-35.0	22.9	0.00e+00	0	38	0	1492123648	38	4336
2026-01-26 00:32:00.15	85.84	25.81	-33.3	-35.0	22.9	0.00e+00	0	38	0	1498415104	38	4332
2026-01-26 00:32:00.88	86.06	25.82	-33.2	-34.9	23.0	0.00e+00	0	38	0	1502609408	38	4275
2026-01-26 00:32:02.15	86.44	25.84	-33.2	-34.9	23.0	0.00e+00	0	38	0	1509949440	38	4274
2026-01-26 00:32:02.89	86.67	25.85	-33.2	-35.0	23.0	0.00e+00	0	38	0	1514143744	38	4306
2026-01-26 00:32:04.17	87.05	25.87	-33.2	-34.9	23.0	0.00e+00	0	38	0	1521483776	38	4277
2026-01-26 00:32:05.07	87.32	25.88	-33.2	-34.9	23.0	0.00e+00	0	38	0	1526726656	38	4276
2026-01-26 00:32:06.49	87.75	25.89	-33.2	-34.9	23.0	0.00e+00	0	38	0	1534066688	38	4262
2026-01-26 00:32:07.20	87.97	25.90	-33.2	-34.9	23.0	0.00e+00	0	38	0	1538260992	38	4291
2026-01-26 00:32:08.48	88.35	25.91	-33.1	-34.8	23.1	0.00e+00	0	38	0	1545601024	38	4210
2026-01-26 00:32:09.20	88.57	25.92	-33.0	-34.7	23.2	0.00e+00	0	38	0	1549795328	38	4167
2026-01-26 00:32:10.83	89.07	25.93	-33.2	-35.0	23.0	0.00e+00	0	38	0	1559232512	38	4293
2026-01-26 00:32:11.40	89.24	25.93	-33.2	-34.9	23.0	0.00e+00	0	38	0	1562378240	38	4267
2026-01-26 00:32:13.10	89.75	25.94	-33.1	-34.8	23.1	0.00e+00	0	38	0	1571815424	38	4217
2026-01-26 00:32:13.67	89.93	25.95	-33.1	-34.8	23.1	0.00e+00	0	38	0	1574961152	38	4218
2026-01-26 00:32:15.38	90.44	25.95	-33.1	-34.8	23.0	0.00e+00	0	38	0	1584398336	38	4233
2026-01-26 00:32:15.95	90.62	25.95	-33.1	-34.8	23.1	0.00e+00	0	38	0	1587544064	38	4218
2026-01-26 00:32:17.65	91.13	25.96	-33.2	-34.9	23.0	0.00e+00	0	38	0	1596981248	38	4281
2026-01-26 00:32:18.33	91.34	25.96	-33.2	-34.9	23.0	0.00e+00	0	38	0	1601175552	38	4268
2026-01-26 00:32:19.75	91.77	25.96	-33.1	-34.8	23.1	0.00e+00	0	38	0	1608515584	38	4217
2026-01-26 00:32:20.46	91.99	25.96	-33.1	-34.8	23.1	0.00e+00	0	38	0	1612709888	38	4228
2026-01-26 00:32:21.76	92.38	25.95	-33.1	-34.8	23.1	0.00e+00	0	38	0	1620049920	38	4215
2026-01-26 00:32:22.58	92.63	25.95	-33.0	-34.7	23.2	0.00e+00	0	38	0	1625292800	38	4186
2026-01-26 00:32:23.72	92.97	25.95	-33.0	-34.8	23.2	0.00e+00	0	38	0	1631584256	38	4201
2026-01-26 00:32:24.79	93.30	25.94	-33.0	-34.7	23.2	0.00e+00	0	38	0	1636827136	38	4193
2026-01-26 00:32:25.83	93.61	25.94	-33.0	-34.6	23.3	0.00e+00	0	38	0	1643118592	38	4138
2026-01-26 00:32:26.78	93.90	25.93	-33.0	-34.7	23.2	0.00e+00	0	38	0	1648361472	37	4394
2026-01-26 00:32:28.01	94.27	25.92	-33.0	-34.7	23.2	0.00e+00	0	38	0	1655701504	37	4434
2026-01-26 00:32:28.87	94.53	25.91	-33.1	-34.8	23.1	0.00e+00	0	38	0	1659895808	37	4454
2026-01-26 00:32:30.01	94.88	25.90	-33.1	-34.9	23.1	0.00e+00	0	38	0	1667235840	37	4504
2026-01-26 00:32:30.86	95.14	25.90	-33.2	-34.9	23.0	0.00e+00	0	38	0	1671430144	37	4534
2026-01-26 00:32:32.00	95.48	25.88	-33.2	-34.9	23.0	0.00e+00	0	38	0	1677721600	37	4539
2026-01-26 00:32:32.85	95.74	25.87	-33.2	-34.9	23.0	0.00e+00	0	38	0	1682964480	37	4536
2026-01-26 00:32:33.99	96.08	25.86	-33.1	-34.8	23.0	0.00e+00	0	38	0	1689255936	37	4489
2026-01-26 00:32:34.84	96.34	25.85	-33.2	-34.9	23.0	0.00e+00	0	38	0	1693450240	37	4525
2026-01-26 00:32:35.98	96.68	25.83	-33.3	-35.1	22.8	0.00e+00	0	38	0	1700790272	37	4613
2026-01-26 00:32:36.83	96.94	25.82	-33.3	-35.0	22.9	0.00e+00	0	38	0	1704984576	37	4557
2026-01-26 00:32:37.98	97.28	25.80	-33.2	-34.9	23.0	0.00e+00	0	38	0	1711276032	37	4524
2026-01-26 00:32:38.84	97.54	25.79	-33.2	-34.9	23.0	0.00e+00	0	38	0	1716518912	37	4506
2026-01-26 00:32:39.98	97.88	25.77	-33.3	-35.0	22.9	0.00e+00	0	38	0	1722810368	37	4567
2026-01-26 00:32:40.83	98.14	25.75	-33.1	-34.9	23.1	0.00e+00	0	38	0	1728053248	37	4496
2026-01-26 00:32:41.96	98.48	25.73	-33.2	-34.9	23.0	0.00e+00	0	38	0	1734344704	37	4501
2026-01-26 00:32:42.82	98.73	25.72	-33.2	-35.0	23.0	0.00e+00	0	38	0	1738539008	37	4546
2026-01-26 00:32:43.96	99.07	25.69	-33.1	-34.8	23.1	0.00e+00	0	38	0	1744830464	37	4470
2026-01-26 00:32:44.81	99.33	25.68	-33.1	-34.9	23.0	0.00e+00	0	38	0	1750073344	37	4500
2026-01-26 00:32:45.95	99.67	25.65	-33.1	-34.8	23.1	0.00e+00	0	38	0	1756364800	37	4479
2026-01-26 00:32:46.80	99.92	25.63	-33.2	-34.9	23.0	0.00e+00	0	38	0	1760559104	37	4511
2026-01-26 00:32:47.94	100.26	25.61	-33.2	-34.9	23.0	0.00e+00	0	38	0	1767899136	37	4539
2026-01-26 00:32:48.79	100.51	25.58	-33.2	-34.9	23.0	0.00e+00	0	38	0	1772093440	37	4512
2026-01-26 00:32:49.92	100.85	25.56	-33.3	-35.0	22.9	0.00e+00	0	38	0	1778384896	37	4574
2026-01-26 00:32:50.78	101.10	25.53	-33.3	-35.0	22.9	0.00e+00	0	38	0	1783627776	37	4594
2026-01-26 00:32:51.91	101.44	25.50	-33.4	-35.2	22.7	0.00e+00	0	38	0	1789919232	37	4674
2026-01-26 00:32:52.77	101.69	25.48	-33.5	-35.3	22.7	0.00e+00	0	38	0	1795162112	37	4716
2026-01-26 00:32:54.00	102.05	25.45	-33.5	-35.3	22.7	0.00e+00	0	38	0	1801453568	37	4713
2026-01-26 00:32:54.85	102.30	25.42	-33.4	-35.1	22.8	0.00e+00	0	38	0	1806696448	37	4631
2026-01-26 00:32:55.99	102.64	25.39	-33.3	-35.0	22.9	0.00e+00	0	38	0	1812987904	37	4567
2026-01-26 00:32:56.85	102.89	25.36	-33.2	-34.9	23.0	0.00e+00	0	38	0	1817182208	37	4533
2026-01-26 00:32:57.99	103.22	25.33	-33.2	-34.8	23.0	0.00e+00	0	38	0	1824522240	37	4493
2026-01-26 00:32:58.84	103.47	25.30	-33.3	-35.0	22.9	0.00e+00	0	38	0	1828716544	37	4552
2026-01-26 00:32:59.98	103.80	25.26	-33.4	-35.1	22.8	0.00e+00	0	38	0	1835008000	37	4618
2026-01-26 00:33:00.83	104.05	25.23	-33.4	-35.2	22.7	0.00e+00	0	38	0	1840250880	37	4667
2026-01-26 00:33:01.97	104.38	25.20	-33.4	-35.2	22.7	0.00e+00	0	38	0	1846542336	37	4669
2026-01-26 00:33:02.82	104.62	25.17	-33.5	-35.3	22.7	0.00e+00	0	38	0	1851785216	37	4712
2026-01-26 00:33:03.96	104.95	25.13	-33.3	-35.1	22.8	0.00e+00	0	38	0	1858076672	37	4602
2026-01-26 00:33:04.81	105.20	25.09	-33.3	-35.0	22.8	0.00e+00	0	38	0	1862270976	37	4594
2026-01-26 00:33:05.95	105.53	25.05	-33.3	-35.0	22.9	0.00e+00	0	38	0	1868562432	37	4590
2026-01-26 00:33:06.81	105.77	25.02	-33.3	-35.1	22.8	0.00e+00	0	38	0	1873805312	37	4606
2026-01-26 00:33:07.94	106.10	24.98	-33.2	-35.0	22.9	0.00e+00	0	38	0	1880096768	37	4552
2026-01-26 00:33:08.80	106.34	24.94	-33.3	-35.1	22.8	0.00e+00	0	38	0	1885339648	37	4604
2026-01-26 00:33:09.98	106.68	24.90	-33.1	-34.9	23.0	0.00e+00	0	38	0	1891631104	37	4502
2026-01-26 00:33:10.83	106.92	24.86	-33.1	-34.8	23.1	0.00e+00	0	38	0	1895825408	37	4463
2026-01-26 00:33:11.97	107.24	24.82	-33.1	-34.8	23.0	0.00e+00	0	38	0	1903165440	37	4485
2026-01-26 00:33:12.82	107.48	24.78	-33.2	-34.9	23.0	0.00e+00	0	38	0	1907359744	37	4500
2026-01-26 00:33:14.09	107.84	24.73	-33.1	-34.8	23.1	0.00e+00	0	38	0	1914699776	37	4473
2026-01-26 00:33:14.89	108.07	24.69	-33.2	-34.9	23.0	0.00e+00	0	38	0	1918894080	37	4529
2026-01-26 00:33:16.02	108.38	24.64	-33.4	-35.1	22.8	0.00e+00	0	38	0	1925185536	37	4625
2026-01-26 00:33:16.88	108.62	24.61	-33.4	-35.2	22.8	0.00e+00	0	38	0	1930428416	37	4656
2026-01-26 00:33:18.01	108.94	24.55	-33.5	-35.3	22.7	0.00e+00	0	38	0	1936719872	37	4727
2026-01-26 00:33:18.87	109.18	24.52	-33.6	-35.3	22.6	0.00e+00	0	38	0	1941962752	37	4754
2026-01-26 00:33:20.01	109.49	24.46	-33.5	-35.2	22.7	0.00e+00	0	38	0	1948254208	37	4701
2026-01-26 00:33:20.86	109.73	24.42	-33.5	-35.2	22.7	0.00e+00	0	38	0	1952448512	37	4687
2026-01-26 00:33:22.00	110.04	24.37	-33.5	-35.3	22.6	0.00e+00	0	38	0	1958739968	37	4706
2026-01-26 00:33:22.85	110.28	24.33	-33.5	-35.3	22.7	0.00e+00	0	38	0	1963982848	37	4710
2026-01-26 00:33:23.99	110.59	24.27	-33.5	-35.2	22.7	0.00e+00	0	38	0	1970274304	37	4704
2026-01-26 00:33:24.84	110.82	24.23	-33.5	-35.2	22.7	0.00e+00	0	38	0	1975517184	37	4702
2026-01-26 00:33:25.98	111.13	24.18	-33.6	-35.4	22.6	0.00e+00	0	38	0	1981808640	37	4763
2026-01-26 00:33:26.83	111.36	24.13	-33.6	-35.4	22.5	0.00e+00	0	38	0	1986002944	37	4778
2026-01-26 00:33:27.96	111.67	24.08	-33.7	-35.4	22.5	0.00e+00	0	38	0	1992294400	38	4526
2026-01-26 00:33:28.82	111.90	24.03	-33.5	-35.3	22.7	0.00e+00	0	38	0	1997537280	38	4448
2026-01-26 00:33:30.13	112.25	23.96	-33.5	-35.2	22.7	0.00e+00	0	38	0	2004877312	38	4412
2026-01-26 00:33:31.25	112.55	23.90	-33.5	-35.3	22.7	0.00e+00	0	38	0	2011168768	38	4444
2026-01-26 00:33:32.10	112.78	23.86	-33.6	-35.4	22.6	0.00e+00	0	38	0	2015363072	38	4497
2026-01-26 00:33:33.24	113.08	23.80	-33.7	-35.4	22.6	0.00e+00	0	38	0	2022703104	38	4522
2026-01-26 00:33:34.10	113.31	23.75	-33.7	-35.5	22.5	0.00e+00	0	38	0	2026897408	38	4563
2026-01-26 00:33:35.23	113.61	23.69	-33.7	-35.4	22.5	0.00e+00	0	38	0	2033188864	38	4538
2026-01-26 00:33:36.08	113.83	23.64	-33.6	-35.3	22.6	0.00e+00	0	38	0	2038431744	38	4486
2026-01-26 00:33:37.22	114.13	23.58	-33.6	-35.3	22.6	0.00e+00	0	38	0	2044723200	38	4493
2026-01-26 00:33:38.07	114.36	23.53	-33.6	-35.3	22.6	0.00e+00	0	38	0	2049966080	38	4465
2026-01-26 00:33:39.21	114.65	23.47	-33.7	-35.5	22.5	0.00e+00	0	38	0	2056257536	38	4556
2026-01-26 00:33:40.06	114.87	23.42	-33.8	-35.6	22.4	0.00e+00	0	38	0	2060451840	38	4616
2026-01-26 00:33:41.42	115.23	23.34	-33.9	-35.6	22.3	0.00e+00	0	38	0	2068840448	38	4648
2026-01-26 00:33:42.13	115.41	23.30	-33.9	-35.7	22.3	0.00e+00	0	38	0	2071986176	38	4668
2026-01-26 00:33:43.41	115.74	23.23	-34.0	-35.7	22.2	0.00e+00	0	38	0	2079326208	38	4693
2026-01-26 00:33:44.12	115.92	23.18	-34.0	-35.7	22.3	0.00e+00	0	38	0	2083520512	38	4684
2026-01-26 00:33:45.40	116.25	23.11	-33.9	-35.7	22.3	0.00e+00	0	38	0	2090860544	38	4662
2026-01-26 00:33:46.17	116.44	23.06	-33.8	-35.5	22.4	0.00e+00	0	38	0	2095054848	38	4591
2026-01-26 00:33:47.75	116.84	22.97	-33.7	-35.5	22.5	0.00e+00	0	38	0	2103443456	38	4555
2026-01-26 00:33:48.38	117.00	22.93	-33.6	-35.3	22.6	0.00e+00	0	38	0	2107637760	38	4493
2026-01-26 00:33:49.91	117.38	22.83	-33.6	-35.4	22.6	0.00e+00	0	38	0	2116026368	38	4506
2026-01-26 00:33:50.63	117.56	22.79	-33.7	-35.4	22.6	0.00e+00	0	38	0	2120220672	38	4530
2026-01-26 00:33:51.91	117.88	22.71	-33.8	-35.6	22.4	0.00e+00	0	38	0	2127560704	38	4601
2026-01-26 00:33:52.62	118.06	22.67	-33.8	-35.6	22.4	0.00e+00	0	38	0	2131755008	38	4634
2026-01-26 00:33:53.90	118.37	22.58	-34.0	-35.7	22.2	0.00e+00	0	38	0	2138046464	38	4705
2026-01-26 00:33:54.62	118.55	22.54	-34.0	-35.8	22.2	0.00e+00	0	38	0	2142240768	38	4739
2026-01-26 00:33:55.90	118.86	22.46	-34.0	-35.8	22.1	0.00e+00	0	38	0	2149580800	38	4749
2026-01-26 00:33:56.61	119.04	22.41	-34.0	-35.8	22.1	0.00e+00	0	38	0	2153775104	38	4735
2026-01-26 00:33:57.89	119.35	22.33	-34.0	-35.8	22.1	0.00e+00	0	38	0	2161115136	38	4745
2026-01-26 00:33:58.60	119.52	22.28	-34.1	-35.9	22.1	0.00e+00	0	38	0	2165309440	38	4784
2026-01-26 00:33:59.89	119.83	22.20	-34.0	-35.8	22.1	0.00e+00	0	38	0	2172649472	38	4730
2026-01-26 00:34:00.61	120.00	22.15	-34.1	-35.8	22.1	0.00e+00	0	38	0	2176843776	38	4756
2026-01-26 00:34:02.19	120.38	22.05	-34.0	-35.8	22.1	0.00e+00	0	38	0	2185232384	38	4736
2026-01-26 00:34:02.82	120.53	22.01	-34.1	-35.9	22.1	0.00e+00	0	38	0	2188378112	38	4765
2026-01-26 00:34:04.45	120.92	21.90	-34.1	-35.8	22.1	0.00e+00	0	38	0	2197815296	38	4759
2026-01-26 00:34:05.02	121.05	21.86	-34.0	-35.8	22.2	0.00e+00	0	38	0	2200961024	38	4738
2026-01-26 00:34:06.72	121.45	21.75	-34.1	-35.9	22.1	0.00e+00	0	38	0	2210398208	38	4773
2026-01-26 00:34:07.29	121.58	21.71	-34.1	-35.8	22.1	0.00e+00	0	38	0	2213543936	38	4752
2026-01-26 00:34:09.00	121.98	21.59	-34.0	-35.8	22.2	0.00e+00	0	38	0	2222981120	38	4712
2026-01-26 00:34:09.57	122.11	21.55	-34.0	-35.7	22.3	0.00e+00	0	38	0	2227175424	38	4688
2026-01-26 00:34:11.27	122.50	21.44	-33.9	-35.7	22.3	0.00e+00	0	38	0	2236612608	38	4660
2026-01-26 00:34:11.84	122.63	21.40	-34.0	-35.7	22.3	0.00e+00	0	38	0	2239758336	38	4694
2026-01-26 00:34:13.55	123.02	21.28	-34.0	-35.7	22.2	0.00e+00	0	38	0	2249195520	38	4700
2026-01-26 00:34:14.12	123.15	21.24	-34.1	-35.8	22.1	0.00e+00	0	38	0	2252341248	38	4753
2026-01-26 00:34:15.82	123.53	21.12	-34.2	-36.0	22.0	0.00e+00	0	38	0	2261778432	39	4556
2026-01-26 00:34:16.44	123.67	21.08	-34.2	-36.0	22.0	0.00e+00	0	39	0	2264924160	39	4580
2026-01-26 00:34:18.00	124.02	20.97	-34.3	-36.1	21.9	0.00e+00	0	38	0	2274361344	39	4640
2026-01-26 00:34:18.64	124.16	20.92	-34.3	-36.1	21.9	0.00e+00	0	38	0	2277507072	39	4614
2026-01-26 00:34:20.38	124.55	20.80	-34.3	-36.1	21.8	0.00e+00	0	38	0	2287992832	39	4643
2026-01-26 00:34:20.95	124.67	20.76	-34.4	-36.2	21.8	0.00e+00	0	38	0	2291138560	39	4656
2026-01-26 00:34:22.66	125.05	20.64	-34.4	-36.2	21.7	0.00e+00	0	38	0	2300575744	39	4703
2026-01-26 00:34:23.22	125.17	20.60	-34.5	-36.3	21.7	0.00e+00	0	38	0	2303721472	39	4727
2026-01-26 00:34:24.93	125.54	20.47	-34.5	-36.3	21.7	0.00e+00	0	38	0	2313158656	39	4710
2026-01-26 00:34:25.50	125.66	20.43	-34.5	-36.3	21.7	0.00e+00	0	38	0	2316304384	39	4728
2026-01-26 00:34:27.20	126.03	20.31	-34.6	-36.4	21.5	0.00e+00	0	38	0	2325741568	40	4521
2026-01-26 00:34:27.77	126.15	20.27	-34.6	-36.5	21.5	0.00e+00	0	38	0	2328887296	40	4564
2026-01-26 00:34:29.48	126.51	20.14	-34.7	-36.6	21.4	0.00e+00	0	38	0	2338324480	40	4601
2026-01-26 00:34:30.05	126.63	20.10	-34.6	-36.5	21.5	0.00e+00	0	38	0	2341470208	40	4556
2026-01-26 00:34:31.75	126.99	19.98	-34.5	-36.3	21.6	0.00e+00	0	38	0	2350907392	40	4484
2026-01-26 00:34:32.41	127.12	19.93	-34.3	-36.1	21.8	0.00e+00	0	38	0	2355101696	40	4382
2026-01-26 00:34:33.83	127.42	19.82	-34.4	-36.2	21.8	0.00e+00	0	38	0	2363490304	40	4393
2026-01-26 00:34:34.61	127.58	19.77	-34.4	-36.1	21.8	0.00e+00	0	38	0	2367684608	40	4380
2026-01-26 00:34:35.89	127.84	19.67	-34.2	-35.9	22.0	0.00e+00	0	38	0	2375024640	40	4276
2026-01-26 00:34:36.71	128.01	19.61	-34.2	-36.0	21.9	0.00e+00	0	38	0	2379218944	40	4306
2026-01-26 00:34:38.13	128.30	19.51	-34.3	-36.1	21.8	0.00e+00	0	38	0	2387607552	40	4369
2026-01-26 00:34:38.84	128.44	19.45	-34.4	-36.2	21.8	0.00e+00	0	38	0	2391801856	40	4392
2026-01-26 00:34:40.12	128.70	19.36	-34.6	-36.4	21.6	0.00e+00	0	38	0	2399141888	40	4526
2026-01-26 00:34:40.83	128.84	19.31	-34.7	-36.5	21.5	0.00e+00	0	38	0	2402287616	40	4565
2026-01-26 00:34:42.11	129.10	19.21	-34.8	-36.6	21.3	0.00e+00	0	38	0	2409627648	40	4651
2026-01-26 00:34:42.82	129.24	19.16	-34.8	-36.6	21.4	0.00e+00	0	38	0	2413821952	40	4618
2026-01-26 00:34:44.10	129.49	19.06	-34.7	-36.5	21.5	0.00e+00	0	38	0	2421161984	40	4581
2026-01-26 00:34:44.82	129.63	19.01	-34.7	-36.5	21.4	0.00e+00	0	38	0	2425356288	40	4589
2026-01-26 00:34:46.09	129.88	18.91	-34.7	-36.5	21.5	0.00e+00	0	38	0	2431647744	40	4555
2026-01-26 00:34:46.80	130.02	18.86	-34.6	-36.4	21.5	0.00e+00	0	38	0	2435842048	40	4536
2026-01-26 00:34:48.08	130.27	18.76	-34.8	-36.6	21.4	0.00e+00	0	38	0	2443182080	40	4615
2026-01-26 00:34:48.79	130.41	18.71	-34.9	-36.7	21.3	0.00e+00	0	38	0	2447376384	40	4672
2026-01-26 00:34:50.08	130.65	18.61	-34.9	-36.7	21.2	0.00e+00	0	38	0	2454716416	40	4695
2026-01-26 00:34:50.79	130.79	18.56	-34.9	-36.7	21.2	0.00e+00	0	38	0	2458910720	40	4701
2026-01-26 00:34:52.22	131.06	18.45	-35.0	-36.9	21.1	0.00e+00	0	38	0	2466250752	40	4763
2026-01-26 00:34:52.93	131.20	18.40	-34.9	-36.7	21.2	0.00e+00	0	38	0	2470445056	40	4687
2026-01-26 00:34:54.28	131.45	18.30	-34.9	-36.8	21.2	0.00e+00	0	38	0	2477785088	40	4709
2026-01-26 00:34:54.98	131.58	18.24	-34.9	-36.7	21.3	0.00e+00	0	38	0	2481979392	40	4685
2026-01-26 00:34:56.28	131.82	18.14	-35.0	-36.8	21.2	0.00e+00	0	38	0	2489319424	40	4720
2026-01-26 00:34:56.99	131.96	18.09	-35.0	-36.9	21.1	0.00e+00	0	38	0	2493513728	40	4761
2026-01-26 00:34:58.27	132.19	17.99	-35.0	-36.9	21.1	0.00e+00	0	38	0	2500853760	40	4771
2026-01-26 00:34:58.99	132.32	17.94	-35.2	-37.0	21.0	0.00e+00	0	38	0	2505048064	40	4844
2026-01-26 00:35:00.27	132.56	17.84	-35.2	-37.0	21.0	0.00e+00	0	38	0	2512388096	40	4853
2026-01-26 00:35:00.98	132.69	17.79	-35.2	-37.1	21.0	0.00e+00	0	38	0	2515533824	41	4599
2026-01-26 00:35:02.26	132.92	17.69	-35.1	-36.9	21.1	0.00e+00	0	38	0	2522873856	41	4523
2026-01-26 00:35:02.97	133.05	17.64	-35.1	-37.0	21.0	0.00e+00	0	38	0	2527068160	41	4553
2026-01-26 00:35:04.25	133.28	17.54	-35.2	-37.0	21.0	0.00e+00	0	38	0	2534408192	41	4579
2026-01-26 00:35:04.96	133.40	17.49	-35.1	-37.0	21.0	0.00e+00	0	38	0	2538602496	41	4557
2026-01-26 00:35:06.23	133.63	17.39	-35.2	-37.1	20.9	0.00e+00	0	38	0	2545942528	41	4600
2026-01-26 00:35:07.10	133.78	17.32	-35.2	-37.1	20.9	0.00e+00	0	38	0	2550136832	41	4634
2026-01-26 00:35:08.52	134.03	17.21	-35.2	-37.1	20.9	0.00e+00	0	38	0	2558525440	41	4633
2026-01-26 00:35:09.23	134.16	17.16	-35.2	-37.0	21.0	0.00e+00	0	38	0	2562719744	41	4585
2026-01-26 00:35:10.51	134.38	17.06	-35.1	-36.9	21.1	0.00e+00	0	38	0	2570059776	41	4528
2026-01-26 00:35:11.22	134.50	17.01	-35.1	-37.0	21.0	0.00e+00	0	38	0	2573205504	41	4559
2026-01-26 00:35:12.50	134.72	16.91	-35.2	-37.0	21.0	0.00e+00	0	38	0	2580545536	41	4575
2026-01-26 00:35:13.22	134.84	16.86	-35.1	-37.0	21.0	0.00e+00	0	38	0	2584739840	41	4555
2026-01-26 00:35:14.50	135.06	16.76	-35.2	-37.0	21.0	0.00e+00	0	38	0	2592079872	41	4588
2026-01-26 00:35:15.21	135.18	16.70	-35.2	-37.1	20.9	0.00e+00	0	38	0	2596274176	41	4600
2026-01-26 00:35:16.49	135.40	16.61	-35.4	-37.2	20.8	0.00e+00	0	38	0	2603614208	41	4695
2026-01-26 00:35:17.23	135.52	16.55	-35.4	-37.3	20.8	0.00e+00	0	38	0	2607808512	41	4717
2026-01-26 00:35:18.51	135.74	16.45	-35.4	-37.3	20.8	0.00e+00	0	38	0	2615148544	41	4710
2026-01-26 00:35:19.22	135.86	16.40	-35.4	-37.2	20.8	0.00e+00	0	38	0	2618294272	41	4682
2026-01-26 00:35:20.50	136.07	16.30	-35.4	-37.2	20.8	0.00e+00	0	38	0	2625634304	41	4675
2026-01-26 00:35:21.21	136.18	16.25	-35.4	-37.2	20.8	0.00e+00	0	38	0	2629828608	41	4694
2026-01-26 00:35:22.56	136.41	16.14	-35.2	-37.0	21.0	0.00e+00	0	38	0	2637168640	41	4588
2026-01-26 00:35:23.27	136.52	16.09	-35.2	-37.1	21.0	0.00e+00	0	38	0	2641362944	41	4599
2026-01-26 00:35:24.62	136.74	15.99	-35.2	-37.1	21.0	0.00e+00	0	38	0	2648702976	41	4601
2026-01-26 00:35:25.33	136.85	15.93	-35.2	-37.1	21.0	0.00e+00	0	38	0	2652897280	41	4608
2026-01-26 00:35:26.68	137.07	15.83	-35.3	-37.2	20.9	0.00e+00	0	38	0	2660237312	41	4657
2026-01-26 00:35:27.39	137.18	15.78	-35.3	-37.1	20.9	0.00e+00	0	38	0	2664431616	41	4650
2026-01-26 00:35:28.74	137.40	15.67	-35.4	-37.3	20.8	0.00e+00	0	38	0	2671771648	41	4708
2026-01-26 00:35:29.46	137.51	15.62	-35.4	-37.3	20.8	0.00e+00	0	38	0	2675965952	41	4707
2026-01-26 00:35:30.74	137.71	15.52	-35.5	-37.3	20.8	0.00e+00	0	38	0	2683305984	41	4751
2026-01-26 00:35:31.45	137.83	15.47	-35.4	-37.3	20.8	0.00e+00	0	38	0	2687500288	41	4712
2026-01-26 00:35:32.73	138.02	15.37	-35.4	-37.2	20.8	0.00e+00	0	38	0	2694840320	41	4697
2026-01-26 00:35:33.45	138.14	15.31	-35.4	-37.3	20.8	0.00e+00	0	38	0	2697986048	41	4722
2026-01-26 00:35:34.73	138.33	15.22	-35.5	-37.3	20.7	0.00e+00	0	38	0	2705326080	41	4752
2026-01-26 00:35:35.46	138.45	15.16	-35.5	-37.4	20.7	0.00e+00	0	38	0	2709520384	41	4769
2026-01-26 00:35:36.73	138.64	15.07	-35.6	-37.4	20.6	0.00e+00	0	38	0	2716860416	41	4811
2026-01-26 00:35:37.46	138.75	15.01	-35.6	-37.5	20.6	0.00e+00	0	38	0	2721054720	41	4849
2026-01-26 00:35:38.74	138.94	14.91	-35.7	-37.6	20.5	0.00e+00	0	38	0	2728394752	42	4613
2026-01-26 00:35:39.50	139.06	14.86	-35.8	-37.7	20.4	0.00e+00	0	38	0	2732589056	42	4660
2026-01-26 00:35:40.78	139.25	14.76	-35.7	-37.5	20.5	0.00e+00	0	38	0	2739929088	42	4593
2026-01-26 00:35:41.50	139.36	14.71	-35.7	-37.5	20.5	0.00e+00	0	38	0	2744123392	42	4592
2026-01-26 00:35:42.78	139.55	14.61	-35.7	-37.6	20.5	0.00e+00	0	38	0	2751463424	42	4601
2026-01-26 00:35:43.52	139.66	14.55	-35.8	-37.6	20.5	0.00e+00	0	38	0	2755657728	42	4638
2026-01-26 00:35:44.80	139.84	14.46	-35.8	-37.7	20.4	0.00e+00	0	38	0	2761949184	42	4675
2026-01-26 00:35:45.67	139.97	14.39	-35.9	-37.7	20.3	0.00e+00	0	38	0	2767192064	42	4702
2026-01-26 00:35:47.11	140.18	14.28	-35.9	-37.8	20.3	0.00e+00	0	38	0	2775580672	42	4712
2026-01-26 00:35:48.23	140.34	14.20	-36.0	-37.9	20.3	0.00e+00	0	38	0	2781872128	42	4761
2026-01-26 00:35:49.08	140.46	14.14	-36.0	-37.9	20.2	0.00e+00	0	38	0	2786066432	42	4771
2026-01-26 00:35:50.22	140.63	14.05	-36.1	-38.0	20.1	0.00e+00	0	38	0	2793406464	42	4837
2026-01-26 00:35:51.07	140.75	13.99	-36.0	-37.9	20.2	0.00e+00	0	38	0	2797600768	42	4796
2026-01-26 00:35:52.21	140.91	13.90	-36.1	-38.0	20.2	0.00e+00	0	38	0	2803892224	42	4824
2026-01-26 00:35:53.07	141.03	13.84	-36.2	-38.1	20.0	0.00e+00	0	38	0	2809135104	42	4896
2026-01-26 00:35:54.36	141.21	13.74	-36.2	-38.1	20.0	0.00e+00	0	38	0	2816475136	43	4639
2026-01-26 00:35:55.07	141.31	13.69	-36.2	-38.1	20.0	0.00e+00	0	38	0	2820669440	43	4639
2026-01-26 00:35:56.35	141.49	13.59	-36.2	-38.1	20.0	0.00e+00	0	38	0	2826960896	43	4618
2026-01-26 00:35:57.08	141.59	13.54	-36.2	-38.1	20.0	0.00e+00	0	38	0	2831155200	43	4627
2026-01-26 00:35:58.35	141.76	13.44	-36.2	-38.1	20.0	0.00e+00	0	38	0	2838495232	43	4634
2026-01-26 00:35:59.08	141.86	13.39	-36.1	-38.0	20.1	0.00e+00	0	38	0	2842689536	43	4588
2026-01-26 00:36:00.67	142.08	13.27	-36.1	-38.0	20.1	0.00e+00	0	38	0	2852126720	43	4569
2026-01-26 00:36:01.24	142.15	13.23	-36.1	-38.1	20.1	0.00e+00	0	38	0	2855272448	43	4608
2026-01-26 00:36:02.95	142.38	13.10	-36.1	-38.0	20.1	0.00e+00	0	38	0	2864709632	43	4571
2026-01-26 00:36:03.56	142.47	13.06	-36.2	-38.1	20.0	0.00e+00	0	38	0	2867855360	43	4639
2026-01-26 00:36:05.12	142.67	12.94	-36.2	-38.1	20.1	0.00e+00	0	38	0	2877292544	43	4602
2026-01-26 00:36:05.83	142.77	12.89	-36.0	-37.9	20.2	0.00e+00	0	38	0	2880438272	43	4522
2026-01-26 00:36:07.14	142.94	12.79	-36.0	-37.8	20.2	0.00e+00	0	38	0	2887778304	43	4492
2026-01-26 00:36:07.85	143.03	12.74	-36.0	-37.8	20.2	0.00e+00	0	38	0	2891972608	43	4492
2026-01-26 00:36:09.13	143.20	12.65	-36.0	-37.9	20.1	0.00e+00	0	38	0	2899312640	43	4534
2026-01-26 00:36:09.92	143.30	12.59	-36.2	-38.1	20.0	0.00e+00	0	38	0	2903506944	43	4607
2026-01-26 00:36:11.18	143.47	12.50	-36.2	-38.1	20.0	0.00e+00	0	38	0	2910846976	43	4610
2026-01-26 00:36:12.06	143.58	12.43	-36.2	-38.1	19.9	0.00e+00	0	38	0	2916089856	43	4651
2026-01-26 00:36:13.20	143.72	12.35	-36.3	-38.3	19.8	0.00e+00	0	38	0	2922381312	43	4706
2026-01-26 00:36:14.05	143.83	12.29	-36.3	-38.2	19.9	0.00e+00	0	38	0	2926575616	43	4676
2026-01-26 00:36:15.19	143.98	12.20	-36.3	-38.3	19.8	0.00e+00	0	38	0	2932867072	43	4709
2026-01-26 00:36:16.04	144.08	12.14	-36.3	-38.2	19.9	0.00e+00	0	38	0	2938109952	43	4689
2026-01-26 00:36:17.17	144.22	12.06	-36.5	-38.4	19.7	0.00e+00	0	38	0	2944401408	43	4786
2026-01-26 00:36:18.03	144.33	12.00	-36.4	-38.3	19.8	0.00e+00	0	38	0	2949644288	43	4743
2026-01-26 00:36:19.16	144.47	11.91	-36.4	-38.3	19.8	0.00e+00	0	38	0	2955935744	43	4723
2026-01-26 00:36:20.41	144.63	11.82	-36.2	-38.1	19.9	0.00e+00	0	38	0	2963275776	43	4644
2026-01-26 00:36:21.27	144.73	11.76	-36.3	-38.2	19.9	0.00e+00	0	38	0	2967470080	43	4687
2026-01-26 00:36:22.40	144.87	11.68	-36.4	-38.3	19.8	0.00e+00	0	38	0	2973761536	43	4737
2026-01-26 00:36:23.26	144.98	11.62	-36.5	-38.4	19.7	0.00e+00	0	38	0	2979004416	43	4773
2026-01-26 00:36:24.39	145.11	11.54	-36.5	-38.4	19.7	0.00e+00	0	38	0	2985295872	43	4782
2026-01-26 00:36:25.25	145.22	11.48	-36.4	-38.4	19.7	0.00e+00	0	38	0	2989490176	43	4765
2026-01-26 00:36:26.39	145.35	11.39	-36.5	-38.5	19.6	0.00e+00	0	38	0	2995781632	43	4822
2026-01-26 00:36:27.24	145.45	11.33	-36.6	-38.6	19.5	0.00e+00	0	38	0	3001024512	43	4900
2026-01-26 00:36:28.38	145.59	11.25	-36.6	-38.6	19.5	0.00e+00	0	38	0	3007315968	43	4900
2026-01-26 00:36:29.23	145.69	11.19	-36.7	-38.7	19.4	0.00e+00	0	38	0	3012558848	43	4947
2026-01-26 00:36:30.37	145.82	11.11	-36.9	-39.0	19.3	0.00e+00	0	38	0	3018850304	44	4843
2026-01-26 00:36:31.22	145.92	11.05	-37.0	-39.0	19.3	0.00e+00	0	38	0	3024093184	44	4833
2026-01-26 00:36:32.35	146.06	10.97	-37.1	-39.1	19.2	0.00e+00	0	38	0	3029336064	44	4889
2026-01-26 00:36:33.21	146.16	10.91	-37.1	-39.1	19.2	0.00e+00	0	38	0	3034578944	44	4884
2026-01-26 00:36:34.34	146.29	10.83	-37.0	-39.0	19.3	0.00e+00	0	38	0	3040870400	44	4818
2026-01-26 00:36:35.20	146.38	10.77	-37.0	-39.0	19.3	0.00e+00	0	38	0	3046113280	44	4820
2026-01-26 00:36:36.33	146.51	10.69	-37.1	-39.1	15.6	0.00e+00	0	38	0	3052404736	44	4882
2026-01-26 00:36:37.19	146.61	10.62	-37.0	-39.0	19.3	0.00e+00	0	38	0	3056599040	44	4818
2026-01-26 00:36:38.32	146.74	10.54	-37.0	-39.0	19.3	0.00e+00	0	38	0	3063939072	44	4820
2026-01-26 00:36:39.18	146.84	10.48	-37.1	-39.1	16.5	0.00e+00	0	38	0	3068133376	44	4872
2026-01-26 00:36:40.31	146.96	10.40	-37.1	-39.1	19.2	0.00e+00	0	38	0	3074424832	44	4879
2026-01-26 00:36:41.17	147.06	10.34	-37.1	-39.1	19.1	0.00e+00	0	38	0	3079667712	44	4883
2026-01-26 00:36:42.34	147.19	10.26	-37.2	-39.2	19.1	5.73e-04	0	38	0	3085959168	45	4654
2026-01-26 00:36:43.19	147.29	10.20	-37.2	-39.2	19.0	0.00e+00	0	38	0	3091202048	45	4667
2026-01-26 00:36:44.33	147.41	10.12	-37.3	-39.4	18.9	0.00e+00	0	38	0	3097493504	45	4777
2026-01-26 00:36:45.18	147.50	10.06	-37.3	-39.3	18.9	0.00e+00	0	38	0	3101687808	45	4732
2026-01-26 00:36:46.43	147.64	9.98	-37.4	-39.5	18.7	0.00e+00	0	38	0	3109027840	45	4839
2026-01-26 00:36:47.28	147.73	9.92	-37.4	-39.5	18.7	0.00e+00	0	38	0	3114270720	45	4823
2026-01-26 00:36:48.48	147.86	9.83	-37.5	-39.5	18.7	0.00e+00	0	38	0	3120562176	45	4865
2026-01-26 00:36:49.33	147.95	9.77	-37.5	-39.5	18.7	0.00e+00	0	38	0	3125805056	45	4846
2026-01-26 00:36:50.53	148.08	9.69	-37.5	-39.5	18.7	0.00e+00	0	38	0	3132096512	45	4856
2026-01-26 00:36:51.39	148.18	9.63	-37.5	-39.6	18.6	0.00e+00	0	38	0	3137339392	45	4876
2026-01-26 00:36:52.52	148.30	9.55	-37.6	-39.6	18.6	0.00e+00	0	38	0	3143630848	45	4906
2026-01-26 00:36:53.37	148.39	9.50	-37.6	-39.7	18.5	0.00e+00	0	38	0	3147825152	45	4933
2026-01-26 00:36:54.51	148.51	9.42	-37.7	-39.8	18.5	0.00e+00	0	38	0	3154116608	45	4992
2026-01-26 00:36:55.36	148.59	9.36	-37.6	-39.7	18.5	0.00e+00	0	38	0	3159359488	46	4681
2026-01-26 00:36:56.66	148.73	9.27	-37.6	-39.6	18.5	0.00e+00	0	38	0	3166699520	46	4651
2026-01-26 00:36:57.37	148.80	9.22	-37.6	-39.7	18.5	0.00e+00	0	38	0	3170893824	46	4652
2026-01-26 00:36:58.65	148.94	9.13	-37.6	-39.7	18.5	0.00e+00	0	38	0	3177185280	46	4663
2026-01-26 00:36:59.36	149.01	9.08	-37.7	-39.8	18.4	0.00e+00	0	38	0	3182428160	46	4721
2026-01-26 00:37:00.64	149.14	9.00	-39.3	-41.6	17.0	0.00e+00	0	38	0	3188719616	49	4912
2026-01-26 00:37:01.35	149.21	8.95	-47.4	-59.1	3.8	7.50e-01	0	38	104	3190816768	65	14570
2026-01-26 00:37:02.63	149.34	8.86	-47.9	-59.9	3.8	8.46e-01	0	38	104	3190816768	66	15161
2026-01-26 00:37:03.34	149.41	8.81	-47.8	-60.3	3.8	8.47e-01	0	38	104	3190816768	66	15805
2026-01-26 00:37:04.62	149.54	8.73	-48.2	-60.4	3.8	8.47e-01	0	38	104	3190816768	67	15071
2026-01-26 00:37:05.34	149.61	8.68	-48.2	-60.4	3.8	8.47e-01	0	38	104	3190816768	67	15213
2026-01-26 00:37:06.62	149.74	8.59	-48.4	-60.5	3.8	8.48e-01	0	38	104	3190816768	67	15345
2026-01-26 00:37:07.33	149.81	8.54	-48.4	-60.5	3.8	8.48e-01	0	38	104	3190816768	67	15374
2026-01-26 00:37:08.64	149.94	8.46	-48.3	-60.5	3.8	8.47e-01	0	38	104	3190816768	67	15392
2026-01-26 00:37:09.35	150.01	8.41	-48.5	-60.6	3.8	8.46e-01	0	38	104	3190816768	67	15447
2026-01-26 00:37:10.70	150.14	8.32	-48.5	-60.6	3.8	8.48e-01	0	38	104	3190816768	67	15536
2026-01-26 00:37:11.41	150.21	8.27	-48.5	-60.6	3.8	8.47e-01	0	38	104	3190816768	67	15518
2026-01-26 00:37:12.75	150.34	8.18	-48.3	-60.6	3.8	8.48e-01	0	38	104	3190816768	67	15551
2026-01-26 00:37:13.46	150.41	8.13	-48.6	-60.7	3.8	8.47e-01	0	38	104	3190816768	67	15616
2026-01-26 00:37:14.77	150.54	8.04	-48.4	-60.7	3.8	8.46e-01	0	38	104	3190816768	67	15648
2026-01-26 00:37:15.48	150.61	8.00	-48.4	-60.7	3.8	8.46e-01	0	38	104	3190816768	67	15614
2026-01-26 00:37:16.85	150.74	7.91	-48.6	-60.7	3.8	8.47e-01	0	38	104	3190816768	67	15699
2026-01-26 00:37:17.56	150.80	7.86	-48.4	-60.7	3.8	8.47e-01	0	39	104	3190816768	67	15657
2026-01-26 00:37:18.84	150.93	7.77	-48.7	-60.9	3.8	8.49e-01	0	38	104	3190816768	68	15186
2026-01-26 00:37:19.55	150.99	7.73	-48.8	-60.9	3.8	8.47e-01	0	38	104	3190816768	68	15126
2026-01-26 00:37:20.83	151.11	7.64	-48.4	-60.9	3.8	8.46e-01	0	38	104	3190816768	68	15108
2026-01-26 00:37:21.54	151.18	7.60	-48.6	-60.9	3.8	8.47e-01	0	38	104	3190816768	68	15085
2026-01-26 00:37:22.81	151.30	7.51	-48.5	-60.8	3.8	8.46e-01	0	38	104	3190816768	68	14985
2026-01-26 00:37:23.52	151.36	7.47	-48.5	-60.8	3.8	8.46e-01	0	38	104	3190816768	68	15039
2026-01-26 00:37:24.80	151.48	7.38	-48.5	-60.8	3.8	8.47e-01	0	38	104	3190816768	68	14999
2026-01-26 00:37:25.51	151.54	7.34	-48.5	-60.8	3.8	8.46e-01	0	38	104	3190816768	68	14998
2026-01-26 00:37:26.79	151.66	7.25	-48.5	-60.8	3.8	8.46e-01	0	38	104	3190816768	68	15013
2026-01-26 00:37:27.50	151.73	7.21	-48.5	-60.8	3.8	8.46e-01	0	38	104	3190816768	68	14964
2026-01-26 00:37:28.77	151.84	7.12	-48.5	-60.8	3.8	8.46e-01	0	38	104	3190816768	68	14957
2026-01-26 00:37:29.50	151.91	7.08	-48.5	-60.8	3.8	8.46e-01	0	38	104	3190816768	68	14948
2026-01-26 00:37:30.78	152.02	6.99	-48.5	-60.8	3.8	8.48e-01	0	38	104	3190816768	68	14990
2026-01-26 00:37:31.49	152.08	6.95	-48.5	-60.8	3.8	8.48e-01	0	38	104	3190816768	68	14985
2026-01-26 00:37:32.76	152.20	6.86	-48.5	-60.8	3.8	8.47e-01	0	38	104	3190816768	68	14933
2026-01-26 00:37:33.47	152.26	6.82	-48.5	-60.8	3.8	8.48e-01	0	38	104	3190816768	68	14919
2026-01-26 00:37:34.76	152.37	6.73	-48.5	-60.8	3.8	8.48e-01	0	38	104	3190816768	68	14996
2026-01-26 00:37:35.47	152.44	6.69	-48.5	-60.8	3.8	8.45e-01	0	38	104	3190816768	68	14932
2026-01-26 00:37:36.75	152.55	6.61	-48.5	-60.8	3.8	8.46e-01	0	38	104	3190816768	68	14918
2026-01-26 00:37:37.46	152.61	6.56	-48.5	-60.8	3.8	8.47e-01	0	38	104	3190816768	68	14898
2026-01-26 00:37:38.74	152.72	6.48	-48.5	-60.8	3.8	8.47e-01	0	38	104	3190816768	68	14913
2026-01-26 00:37:39.45	152.78	6.43	-48.5	-60.8	3.8	8.48e-01	0	38	104	3190816768	68	14921
2026-01-26 00:37:40.72	152.89	6.35	-48.4	-60.8	3.8	8.47e-01	0	38	104	3190816768	68	14885
2026-01-26 00:37:41.43	152.95	6.31	-48.5	-60.8	3.8	8.48e-01	0	38	104	3190816768	68	14918
2026-01-26 00:37:42.71	153.06	6.23	-48.4	-60.8	3.8	8.47e-01	0	38	104	3190816768	68	14887
2026-01-26 00:37:43.42	153.12	6.18	-48.4	-60.7	3.8	8.47e-01	0	39	104	3190816768	68	14873
2026-01-26 00:37:44.70	153.23	6.10	-48.4	-60.8	3.8	8.47e-01	0	38	104	3190816768	68	14890
2026-01-26 00:37:45.41	153.29	6.05	-48.4	-60.8	3.8	8.46e-01	0	39	104	3190816768	68	14908
2026-01-26 00:37:46.68	153.40	5.97	-48.4	-60.8	3.8	8.47e-01	0	38	104	3190816768	68	14893
2026-01-26 00:37:47.39	153.46	5.93	-48.4	-60.7	3.8	8.46e-01	0	38	104	3190816768	68	14859
2026-01-26 00:37:48.67	153.56	5.85	-48.4	-60.8	3.8	8.47e-01	0	38	104	3190816768	68	14940
2026-01-26 00:37:49.38	153.62	5.80	-48.4	-60.7	3.8	8.47e-01	0	38	104	3190816768	68	14836
2026-01-26 00:37:50.65	153.73	5.72	-48.4	-60.8	3.8	8.48e-01	0	38	104	3190816768	68	14896
2026-01-26 00:37:51.36	153.78	5.68	-48.4	-60.8	3.8	8.46e-01	0	38	104	3190816768	68	14894
2026-01-26 00:37:52.64	153.89	5.60	-48.4	-60.7	3.8	8.47e-01	0	38	104	3190816768	68	14873
2026-01-26 00:37:53.35	153.95	5.55	-48.4	-60.8	3.8	8.47e-01	0	38	104	3190816768	68	14882
2026-01-26 00:37:54.63	154.05	5.47	-48.4	-60.7	3.8	8.46e-01	0	38	104	3190816768	68	14813
2026-01-26 00:37:55.34	154.11	5.43	-48.4	-60.7	3.8	8.47e-01	0	38	104	3190816768	68	14862
2026-01-26 00:37:56.61	154.21	5.35	-48.4	-60.7	3.8	8.46e-01	0	38	104	3190816768	68	14836
2026-01-26 00:37:57.32	154.27	5.31	-48.4	-60.7	3.8	8.47e-01	0	38	104	3190816768	68	14868
2026-01-26 00:37:58.60	154.37	5.23	-48.4	-60.8	3.8	8.48e-01	0	38	104	3190816768	68	14899
2026-01-26 00:37:59.31	154.43	5.18	-48.4	-60.7	3.8	8.47e-01	0	38	104	3190816768	68	14827
2026-01-26 00:38:00.59	154.53	5.10	-48.4	-60.7	3.8	8.48e-01	0	38	104	3190816768	68	14836
2026-01-26 00:38:01.30	154.58	5.06	-48.4	-60.7	3.8	8.47e-01	0	38	104	3190816768	68	14775
2026-01-26 00:38:02.59	154.68	4.98	-48.4	-60.7	3.8	8.47e-01	0	38	104	3190816768	68	14836

#Closed at: 2026-01-26 00:38:03
#Recorded file [3190 MB]: D:/Data/31040_260126_032634.dat