passes_logs/2026/01/26/T1/T1__20260126_231017_SUOMI_NPP_rec.log

#Pass ID: 20260126_231017_SUOMI NPP
#Satellite: SUOMI NPP
#Configuration: NPP
#almurnet v.1.7.20251203
#Start time: 2026-01-26 23:10:18

#Version: 2.0.20230620
#Station: T1
#Location: 37.570604 lon 55.790049 lat
#TLE: 1 37849U 11061A   26026.52266023  .00000173  00000+0  10323-3 0  9994
#TLE: 2 37849  98.7822 328.4727 0002140  43.9411 316.1934 14.19530258738341

#Time	Az	El	Level	Level2	SNR	BER	BlckErr	Temp	State	Recorded	gain1	gain2
2026-01-26 23:10:18.87	20.76	5.09	-48.7	-64.5	3.8	1.49e+00	0	41	0	0	68	22874
2026-01-26 23:10:19.86	20.80	5.16	-48.5	-64.3	3.8	1.49e+00	0	41	104	0	67	23705
2026-01-26 23:10:20.86	20.84	5.22	-48.5	-64.3	3.8	1.49e+00	0	41	104	0	67	23699
2026-01-26 23:10:21.86	20.87	5.29	-48.5	-64.3	3.8	1.49e+00	0	41	104	0	67	23718
2026-01-26 23:10:22.85	20.91	5.36	-48.5	-64.3	3.8	1.49e+00	0	41	104	0	67	23769
2026-01-26 23:10:23.85	20.95	5.43	-48.5	-64.3	3.8	1.49e+00	0	41	104	0	67	23705
2026-01-26 23:10:24.85	20.99	5.50	-48.5	-64.3	3.8	1.49e+00	0	41	104	0	67	23678
2026-01-26 23:10:25.84	21.02	5.57	-48.5	-64.3	3.8	1.49e+00	0	41	104	0	67	23828
2026-01-26 23:10:26.84	21.06	5.64	-48.5	-64.3	3.8	1.49e+00	0	41	104	0	67	23692
2026-01-26 23:10:27.84	21.10	5.71	-48.5	-64.3	3.8	1.49e+00	0	41	104	0	67	23688
2026-01-26 23:10:28.83	21.14	5.78	-48.5	-64.3	3.8	1.49e+00	0	41	104	0	67	23634
2026-01-26 23:10:29.83	21.18	5.86	-48.5	-64.3	3.8	1.49e+00	0	42	104	0	67	23807
2026-01-26 23:10:30.83	21.22	5.93	-48.5	-64.3	3.8	1.49e+00	0	42	104	0	67	23829
2026-01-26 23:10:31.82	21.25	6.00	-48.5	-64.3	3.8	1.49e+00	0	42	104	0	67	23784
2026-01-26 23:10:32.82	21.29	6.07	-48.5	-64.3	3.8	1.49e+00	0	42	104	0	67	23729
2026-01-26 23:10:33.82	21.33	6.14	-48.5	-64.3	3.8	1.49e+00	0	42	104	0	67	23748
2026-01-26 23:10:34.81	21.37	6.21	-48.5	-64.3	3.8	1.49e+00	0	42	104	0	67	23767
2026-01-26 23:10:35.81	21.41	6.28	-48.5	-64.3	3.8	1.49e+00	0	42	104	0	67	23721
2026-01-26 23:10:36.81	21.45	6.36	-48.5	-64.3	3.8	1.49e+00	0	42	104	0	67	23716
2026-01-26 23:10:37.80	21.49	6.43	-48.5	-64.3	3.8	1.49e+00	0	42	104	0	67	23642
2026-01-26 23:10:38.80	21.53	6.50	-48.5	-64.3	3.8	1.49e+00	0	42	104	0	67	23693
2026-01-26 23:10:39.80	21.57	6.57	-48.5	-64.2	3.8	1.49e+00	0	42	104	0	67	23496
2026-01-26 23:10:40.79	21.61	6.65	-48.5	-64.2	3.8	1.49e+00	0	42	104	0	67	23545
2026-01-26 23:10:41.79	21.65	6.72	-48.5	-64.1	3.8	1.49e+00	0	42	104	0	67	23294
2026-01-26 23:10:42.79	21.69	6.79	-48.5	-64.1	3.8	1.49e+00	0	42	104	0	67	23071
2026-01-26 23:10:43.78	21.73	6.87	-48.5	-64.0	3.8	1.49e+00	0	42	104	0	67	22827
2026-01-26 23:10:44.78	21.77	6.94	-48.5	-63.8	3.8	1.49e+00	0	42	104	0	67	22447
2026-01-26 23:10:45.78	21.82	7.02	-48.5	-63.6	3.8	1.49e+00	0	42	104	0	67	21885
2026-01-26 23:10:46.77	21.86	7.09	-48.4	-63.4	3.8	1.49e+00	0	42	104	0	67	21410
2026-01-26 23:10:47.77	21.90	7.16	-48.4	-63.1	3.8	1.49e+00	0	42	104	0	67	20741
2026-01-26 23:10:48.77	21.94	7.24	-48.4	-62.9	3.8	1.49e+00	0	42	104	0	67	20107
2026-01-26 23:10:49.77	21.98	7.31	-48.4	-62.8	3.8	1.49e+00	0	42	104	0	67	19905
2026-01-26 23:10:50.76	22.02	7.39	-48.4	-62.5	3.8	1.49e+00	0	42	104	0	67	19242
2026-01-26 23:10:51.76	22.07	7.46	-48.4	-62.4	3.8	1.49e+00	0	42	104	0	67	19070
2026-01-26 23:10:52.75	22.11	7.54	-48.4	-62.3	3.8	1.49e+00	0	42	104	0	67	18870
2026-01-26 23:10:53.75	22.15	7.61	-48.4	-62.3	3.8	1.49e+00	0	42	104	0	67	18746
2026-01-26 23:10:54.75	22.20	7.69	-48.4	-62.3	3.8	1.49e+00	0	42	104	0	67	18920
2026-01-26 23:10:55.74	22.24	7.77	-48.4	-62.4	3.8	1.49e+00	0	42	104	0	67	19102
2026-01-26 23:10:56.74	22.28	7.84	-48.4	-62.4	3.8	1.49e+00	0	42	104	0	67	19041
2026-01-26 23:10:57.74	22.33	7.92	-48.4	-62.5	3.8	1.49e+00	0	42	104	0	67	19356
2026-01-26 23:10:58.73	22.37	7.99	-48.4	-62.6	3.8	1.49e+00	0	42	104	0	67	19582
2026-01-26 23:10:59.73	22.41	8.07	-48.4	-62.6	3.8	1.49e+00	0	42	104	0	67	19479
2026-01-26 23:11:00.73	22.46	8.15	-48.4	-62.6	3.8	1.49e+00	0	42	104	0	67	19428
2026-01-26 23:11:01.72	22.50	8.23	-48.4	-62.4	3.8	1.49e+00	0	42	104	0	67	18997
2026-01-26 23:11:02.72	22.55	8.30	-48.4	-62.0	3.9	1.49e+00	0	42	104	0	67	18144
2026-01-26 23:11:03.71	22.59	8.38	-48.3	-61.5	3.8	1.48e+00	0	42	104	0	67	17234
2026-01-26 23:11:04.71	22.64	8.46	-48.3	-60.8	4.2	1.44e+00	0	43	0	0	67	15857
2026-01-26 23:11:05.71	22.68	8.54	-48.2	-59.7	4.5	1.18e+00	0	43	0	1048576	67	13997
2026-01-26 23:11:06.70	22.73	8.62	-48.1	-58.7	5.0	8.03e-01	0	42	0	2097152	67	12418
2026-01-26 23:11:07.70	22.77	8.69	-47.9	-57.5	5.8	5.57e-01	0	42	0	4194304	67	10825
2026-01-26 23:11:08.69	22.82	8.77	-47.7	-56.4	6.6	2.50e-01	0	42	0	6291456	67	9597
2026-01-26 23:11:09.69	22.86	8.85	-47.6	-55.5	7.4	1.39e-01	0	43	0	8388608	67	8655
2026-01-26 23:11:10.68	22.91	8.93	-47.3	-54.4	8.5	6.63e-02	0	43	0	9437184	66	8021
2026-01-26 23:11:11.68	22.96	9.01	-47.1	-53.9	9.0	3.04e-02	0	43	0	11534336	66	7606
2026-01-26 23:11:12.68	23.00	9.09	-47.1	-54.1	8.9	2.35e-02	0	43	0	13631488	66	7730
2026-01-26 23:11:13.68	23.05	9.17	-47.9	-57.6	5.8	5.63e-02	0	43	0	15728640	66	11591
2026-01-26 23:11:14.68	23.10	9.25	-47.0	-53.5	9.4	5.24e-01	0	43	0	17825792	66	7265
2026-01-26 23:11:15.68	23.15	9.33	-48.1	-59.5	4.7	3.14e-01	0	43	0	18874368	66	14431
2026-01-26 23:11:16.68	23.19	9.41	-45.5	-49.7	13.2	6.14e-01	0	42	0	19922944	63	5546
2026-01-26 23:11:17.68	23.24	9.50	-44.7	-48.2	15.0	0.00e+00	0	42	0	22020096	61	5244
2026-01-26 23:11:18.68	23.29	9.58	-44.3	-47.5	15.6	0.00e+00	0	43	0	24117248	60	5137
2026-01-26 23:11:19.68	23.34	9.66	-44.2	-47.4	15.8	0.00e+00	0	43	0	26214400	60	5050
2026-01-26 23:11:20.68	23.39	9.74	-44.1	-47.2	15.9	0.00e+00	0	43	0	28311552	60	4983
2026-01-26 23:11:21.68	23.44	9.82	-44.1	-47.3	15.9	0.00e+00	0	43	0	29360128	60	5009
2026-01-26 23:11:22.68	23.49	9.91	-44.0	-47.1	16.1	0.00e+00	0	43	0	31457280	59	5193
2026-01-26 23:11:23.69	23.54	9.99	-44.0	-47.0	16.1	0.00e+00	0	43	0	33554432	59	5153
2026-01-26 23:11:24.69	23.59	10.07	-44.0	-47.1	16.1	0.00e+00	0	43	0	35651584	59	5163
2026-01-26 23:11:25.69	23.64	10.16	-43.9	-47.0	16.1	0.00e+00	0	43	0	37748736	59	5128
2026-01-26 23:11:26.69	23.69	10.24	-43.9	-47.0	16.2	0.00e+00	0	43	0	38797312	59	5111
2026-01-26 23:11:27.69	23.74	10.32	-43.8	-46.9	16.3	0.00e+00	0	43	0	40894464	59	5050
2026-01-26 23:11:28.69	23.79	10.41	-43.8	-46.8	16.3	0.00e+00	0	43	0	42991616	59	5015
2026-01-26 23:11:29.69	23.84	10.49	-43.7	-46.8	16.4	0.00e+00	0	43	0	45088768	59	4996
2026-01-26 23:11:30.70	23.89	10.58	-43.6	-46.6	16.5	0.00e+00	0	43	0	47185920	59	4903
2026-01-26 23:11:31.69	23.94	10.66	-43.6	-46.6	16.5	0.00e+00	0	43	0	48234496	59	4910
2026-01-26 23:11:32.70	24.00	10.75	-43.7	-46.8	16.4	0.00e+00	0	43	0	50331648	59	4996
2026-01-26 23:11:33.70	24.05	10.84	-43.7	-46.7	16.5	0.00e+00	0	43	0	52428800	59	4947
2026-01-26 23:11:34.70	24.10	10.92	-43.8	-46.8	16.4	0.00e+00	0	43	0	54525952	59	5010
2026-01-26 23:11:35.70	24.16	11.01	-43.5	-46.4	16.7	0.00e+00	0	43	0	55574528	59	4797
2026-01-26 23:11:36.70	24.21	11.09	-43.7	-46.7	16.5	0.00e+00	0	43	0	57671680	58	5241
2026-01-26 23:11:37.70	24.26	11.18	-43.5	-46.5	16.8	0.00e+00	0	43	0	59768832	58	5107
2026-01-26 23:11:38.71	24.32	11.27	-43.5	-46.5	16.8	0.00e+00	0	43	0	61865984	58	5117
2026-01-26 23:11:39.71	24.37	11.36	-43.4	-46.3	16.9	0.00e+00	0	43	0	63963136	58	5037
2026-01-26 23:11:40.71	24.42	11.44	-43.7	-46.6	16.6	0.00e+00	0	43	0	65011712	58	5214
2026-01-26 23:11:41.71	24.48	11.53	-43.5	-46.4	16.8	0.00e+00	0	43	0	67108864	58	5048
2026-01-26 23:11:42.71	24.53	11.62	-43.5	-46.4	16.9	0.00e+00	0	43	0	69206016	58	5044
2026-01-26 23:11:43.71	24.59	11.71	-43.3	-46.1	17.1	0.00e+00	0	43	0	71303168	58	4902
2026-01-26 23:11:44.71	24.65	11.80	-43.2	-46.0	17.2	0.00e+00	0	43	0	73400320	58	4842
2026-01-26 23:11:45.71	24.70	11.89	-43.1	-45.9	17.2	0.00e+00	0	43	0	74448896	58	4802
2026-01-26 23:11:46.71	24.76	11.98	-43.1	-45.9	17.3	0.00e+00	0	43	0	76546048	57	5067
2026-01-26 23:11:47.71	24.81	12.07	-43.1	-45.9	17.3	0.00e+00	0	43	0	78643200	57	5086
2026-01-26 23:11:48.71	24.87	12.16	-43.0	-45.8	17.4	0.00e+00	0	43	0	80740352	57	5022
2026-01-26 23:11:49.71	24.93	12.25	-42.9	-45.6	17.6	0.00e+00	0	43	0	81788928	57	4925
2026-01-26 23:11:50.71	24.99	12.34	-42.9	-45.6	17.6	0.00e+00	0	43	0	83886080	57	4898
2026-01-26 23:11:51.71	25.04	12.43	-42.8	-45.6	17.6	0.00e+00	0	43	0	85983232	57	4885
2026-01-26 23:11:52.71	25.10	12.52	-42.5	-45.2	17.9	0.00e+00	0	43	0	88080384	57	4691
2026-01-26 23:11:53.72	25.16	12.61	-42.6	-45.3	17.9	0.00e+00	0	43	0	90177536	57	4724
2026-01-26 23:11:54.72	25.22	12.70	-42.6	-45.3	17.8	0.00e+00	0	43	0	91226112	57	4758
2026-01-26 23:11:55.72	25.28	12.80	-42.4	-45.0	18.1	0.00e+00	0	43	0	93323264	56	4867
2026-01-26 23:11:56.72	25.34	12.89	-42.3	-45.0	18.2	0.00e+00	0	43	0	95420416	56	4817
2026-01-26 23:11:57.72	25.40	12.98	-42.4	-45.0	18.2	0.00e+00	0	43	0	97517568	56	4861
2026-01-26 23:11:58.72	25.46	13.08	-42.3	-44.9	18.2	0.00e+00	0	43	0	99614720	56	4790
2026-01-26 23:11:59.73	25.52	13.17	-42.4	-45.0	18.2	0.00e+00	0	43	0	100663296	56	4826
2026-01-26 23:12:00.73	25.58	13.26	-42.3	-44.9	18.2	0.00e+00	0	43	0	102760448	56	4791
2026-01-26 23:12:01.73	25.64	13.36	-42.2	-44.7	18.5	0.00e+00	0	43	0	104857600	56	4668
2026-01-26 23:12:02.73	25.70	13.45	-42.4	-45.0	18.2	0.00e+00	0	43	0	106954752	56	4820
2026-01-26 23:12:03.73	25.77	13.55	-42.2	-44.7	18.5	0.00e+00	0	43	0	109051904	56	4659
2026-01-26 23:12:04.73	25.83	13.64	-42.2	-44.7	18.5	0.00e+00	0	43	0	110100480	56	4696
2026-01-26 23:12:05.73	25.89	13.74	-42.2	-44.7	18.5	0.00e+00	0	43	0	112197632	56	4683
2026-01-26 23:12:06.73	25.95	13.84	-42.1	-44.5	18.6	0.00e+00	0	43	0	114294784	56	4578
2026-01-26 23:12:07.73	26.02	13.93	-42.1	-44.5	18.6	0.00e+00	0	43	0	116391936	56	4587
2026-01-26 23:12:08.74	26.08	14.03	-42.2	-44.7	18.5	0.00e+00	0	43	0	118489088	56	4658
2026-01-26 23:12:09.73	26.15	14.13	-42.1	-44.6	18.5	0.00e+00	0	43	0	119537664	56	4619
2026-01-26 23:12:10.73	26.21	14.22	-42.2	-44.7	18.5	0.00e+00	0	43	0	121634816	56	4691
2026-01-26 23:12:11.73	26.28	14.32	-42.1	-44.5	18.6	0.00e+00	0	43	0	123731968	56	4591
2026-01-26 23:12:12.73	26.34	14.42	-42.2	-44.7	18.5	0.00e+00	0	43	0	125829120	56	4679
2026-01-26 23:12:13.73	26.41	14.52	-42.0	-44.5	18.7	0.00e+00	0	43	0	126877696	56	4568
2026-01-26 23:12:14.73	26.47	14.62	-42.0	-44.5	18.7	0.00e+00	0	43	0	128974848	56	4562
2026-01-26 23:12:15.74	26.54	14.72	-41.8	-44.2	18.8	0.00e+00	0	43	0	131072000	55	4700
2026-01-26 23:12:16.74	26.61	14.82	-41.7	-44.2	18.8	0.00e+00	0	43	0	133169152	55	4685
2026-01-26 23:12:17.74	26.68	14.92	-41.8	-44.3	18.7	0.00e+00	0	43	0	135266304	55	4715
2026-01-26 23:12:18.74	26.74	15.02	-41.8	-44.3	18.7	0.00e+00	0	43	0	136314880	55	4713
2026-01-26 23:12:19.74	26.81	15.12	-41.6	-44.1	18.9	0.00e+00	0	43	0	138412032	55	4627
2026-01-26 23:12:20.74	26.88	15.22	-41.6	-44.1	18.9	0.00e+00	0	43	0	140509184	55	4629
2026-01-26 23:12:21.74	26.95	15.32	-41.6	-44.1	18.9	0.00e+00	0	43	0	142606336	55	4614
2026-01-26 23:12:22.74	27.02	15.42	-41.7	-44.2	18.8	0.00e+00	0	43	0	144703488	55	4692
2026-01-26 23:12:23.75	27.09	15.53	-41.6	-44.0	19.0	0.00e+00	0	43	0	145752064	55	4573
2026-01-26 23:12:24.75	27.16	15.63	-41.6	-44.0	19.0	0.00e+00	0	43	0	147849216	55	4592
2026-01-26 23:12:25.75	27.23	15.73	-41.7	-44.1	18.9	0.00e+00	0	43	0	149946368	55	4640
2026-01-26 23:12:26.75	27.31	15.84	-41.5	-44.0	19.0	0.00e+00	0	43	0	152043520	55	4558
2026-01-26 23:12:27.75	27.38	15.94	-41.7	-44.1	18.9	0.00e+00	0	43	0	154140672	55	4640
2026-01-26 23:12:28.75	27.45	16.04	-41.6	-44.1	18.9	0.00e+00	0	43	0	155189248	55	4614
2026-01-26 23:12:29.75	27.52	16.15	-41.5	-44.0	19.0	0.00e+00	0	43	0	157286400	54	4834
2026-01-26 23:12:30.76	27.60	16.26	-41.6	-44.1	18.9	0.00e+00	0	43	0	159383552	54	4881
2026-01-26 23:12:31.76	27.67	16.36	-41.6	-44.0	18.9	0.00e+00	0	43	0	161480704	54	4865
2026-01-26 23:12:32.76	27.75	16.47	-41.6	-44.1	19.0	0.00e+00	0	43	0	162529280	54	4886
2026-01-26 23:12:33.76	27.82	16.57	-41.5	-43.9	19.1	0.00e+00	0	43	0	164626432	54	4809
2026-01-26 23:12:34.76	27.90	16.68	-41.5	-44.0	19.1	0.00e+00	0	43	0	166723584	54	4818
2026-01-26 23:12:35.76	27.97	16.79	-41.4	-43.8	19.1	0.00e+00	0	43	0	168820736	54	4758
2026-01-26 23:12:36.77	28.05	16.90	-41.6	-44.0	19.0	0.00e+00	0	43	0	170917888	54	4831
2026-01-26 23:12:37.77	28.13	17.01	-41.6	-44.0	19.1	0.00e+00	0	43	0	171966464	54	4820
2026-01-26 23:12:38.77	28.20	17.11	-41.5	-43.9	19.2	0.00e+00	0	43	0	174063616	54	4767
2026-01-26 23:12:39.77	28.28	17.22	-41.6	-44.0	19.1	0.00e+00	0	43	0	176160768	54	4816
2026-01-26 23:12:40.77	28.36	17.33	-41.5	-43.9	19.2	0.00e+00	0	43	0	178257920	54	4761
2026-01-26 23:12:41.77	28.44	17.44	-41.4	-43.7	19.3	0.00e+00	0	43	0	180355072	54	4688
2026-01-26 23:12:42.77	28.52	17.55	-41.6	-43.9	19.2	0.00e+00	0	43	0	181403648	54	4763
2026-01-26 23:12:43.77	28.60	17.66	-41.6	-43.9	19.2	0.00e+00	0	43	0	183500800	54	4786
2026-01-26 23:12:44.77	28.68	17.78	-41.8	-44.1	19.0	0.00e+00	0	43	0	185597952	54	4882
2026-01-26 23:12:45.78	28.76	17.89	-41.7	-43.9	19.1	0.00e+00	0	43	0	187695104	54	4802
2026-01-26 23:12:46.78	28.85	18.00	-41.8	-44.0	19.0	0.00e+00	0	43	0	189792256	54	4865
2026-01-26 23:12:47.78	28.93	18.11	-41.8	-44.1	19.0	0.00e+00	0	43	0	190840832	54	4883
2026-01-26 23:12:48.78	29.01	18.23	-41.8	-44.2	18.9	0.00e+00	0	43	0	192937984	54	4936
2026-01-26 23:12:49.78	29.10	18.34	-41.8	-44.1	19.0	0.00e+00	0	43	0	195035136	54	4879
2026-01-26 23:12:50.78	29.18	18.45	-41.8	-44.1	19.0	0.00e+00	0	43	0	197132288	54	4883
2026-01-26 23:12:51.79	29.27	18.57	-41.6	-43.9	19.2	0.00e+00	0	43	0	199229440	54	4779
2026-01-26 23:12:52.78	29.35	18.68	-41.6	-43.9	19.1	0.00e+00	0	43	0	200278016	54	4765
2026-01-26 23:12:53.79	29.44	18.80	-41.6	-43.9	19.2	0.00e+00	0	44	0	202375168	54	4797
2026-01-26 23:12:54.79	29.52	18.92	-41.7	-43.9	19.2	0.00e+00	0	43	0	204472320	54	4809
2026-01-26 23:12:55.79	29.61	19.03	-41.6	-43.8	19.2	0.00e+00	0	43	0	206569472	54	4751
2026-01-26 23:12:56.79	29.70	19.15	-41.7	-44.0	19.1	0.00e+00	0	43	0	207618048	54	4815
2026-01-26 23:12:57.79	29.79	19.27	-41.6	-43.9	19.2	0.00e+00	0	44	0	209715200	54	4790
2026-01-26 23:12:58.79	29.88	19.39	-41.4	-43.6	19.4	0.00e+00	0	43	0	211812352	54	4646
2026-01-26 23:12:59.79	29.97	19.50	-41.5	-43.8	19.2	0.00e+00	0	43	0	213909504	54	4729
2026-01-26 23:13:00.79	30.06	19.62	-41.4	-43.7	19.4	0.00e+00	0	43	0	216006656	54	4665
2026-01-26 23:13:01.79	30.15	19.74	-41.4	-43.7	19.4	0.00e+00	0	43	0	217055232	54	4657
2026-01-26 23:13:02.79	30.24	19.86	-41.6	-43.9	19.1	0.00e+00	0	43	0	219152384	54	4793
2026-01-26 23:13:03.80	30.34	19.99	-41.5	-43.8	19.3	0.00e+00	0	43	0	221249536	54	4729
2026-01-26 23:13:04.79	30.43	20.11	-41.6	-43.8	19.2	0.00e+00	0	43	0	223346688	54	4754
2026-01-26 23:13:05.80	30.52	20.23	-41.6	-43.9	19.2	0.00e+00	0	43	0	225443840	54	4770
2026-01-26 23:13:06.80	30.62	20.35	-41.7	-44.0	19.1	0.00e+00	0	43	0	226492416	54	4837
2026-01-26 23:13:07.80	30.71	20.47	-41.8	-44.1	19.0	0.00e+00	0	43	0	228589568	54	4903
2026-01-26 23:13:08.80	30.81	20.60	-41.8	-44.1	19.1	0.00e+00	0	43	0	230686720	54	4872
2026-01-26 23:13:09.80	30.91	20.72	-41.6	-43.9	19.2	0.00e+00	0	43	0	232783872	54	4774
2026-01-26 23:13:10.80	31.01	20.84	-41.6	-43.8	19.3	0.00e+00	0	43	0	234881024	54	4726
2026-01-26 23:13:11.81	31.11	20.97	-41.6	-43.9	19.2	0.00e+00	0	43	0	235929600	54	4776
2026-01-26 23:13:12.81	31.20	21.10	-41.5	-43.8	19.3	0.00e+00	0	43	0	238026752	54	4709
2026-01-26 23:13:13.81	31.30	21.22	-41.5	-43.7	19.4	0.00e+00	0	43	0	240123904	54	4697
2026-01-26 23:13:14.80	31.40	21.35	-41.9	-44.3	18.9	0.00e+00	0	43	0	242221056	54	4987
2026-01-26 23:13:15.81	31.51	21.48	-41.5	-43.8	19.3	0.00e+00	0	43	0	243269632	54	4728
2026-01-26 23:13:16.81	31.61	21.60	-41.7	-44.0	19.1	0.00e+00	0	44	0	245366784	54	4827
2026-01-26 23:13:17.81	31.71	21.73	-41.6	-43.9	19.2	0.00e+00	0	43	0	247463936	54	4801
2026-01-26 23:13:18.81	31.82	21.86	-41.9	-44.2	18.9	0.00e+00	0	43	0	249561088	54	4967
2026-01-26 23:13:19.81	31.92	21.99	-41.8	-44.1	19.1	0.00e+00	0	43	0	251658240	54	4878
2026-01-26 23:13:20.81	32.03	22.12	-41.7	-44.0	19.2	0.00e+00	0	43	0	252706816	54	4828
2026-01-26 23:13:21.81	32.14	22.25	-41.5	-43.8	19.3	0.00e+00	0	43	0	254803968	54	4737
2026-01-26 23:13:22.81	32.24	22.38	-41.4	-43.7	19.0	0.00e+00	0	43	0	256901120	54	4663
2026-01-26 23:13:23.82	32.35	22.51	-41.6	-43.9	19.2	0.00e+00	0	43	0	258998272	54	4784
2026-01-26 23:13:24.82	32.46	22.65	-41.5	-43.8	19.3	0.00e+00	0	44	0	261095424	54	4729
2026-01-26 23:13:25.82	32.57	22.78	-41.3	-43.6	19.5	0.00e+00	0	43	0	262144000	54	4614
2026-01-26 23:13:26.82	32.68	22.91	-41.4	-43.7	19.4	0.00e+00	0	44	0	264241152	54	4657
2026-01-26 23:13:27.82	32.80	23.05	-41.6	-43.9	19.2	0.00e+00	0	43	0	266338304	54	4785
2026-01-26 23:13:28.82	32.91	23.18	-41.8	-44.2	19.0	0.00e+00	0	43	0	268435456	54	4932
2026-01-26 23:13:29.83	33.02	23.32	-41.9	-44.2	18.9	0.00e+00	0	43	0	270532608	54	4980
2026-01-26 23:13:30.83	33.14	23.45	-41.9	-44.3	18.9	0.00e+00	0	43	0	271581184	54	4994
2026-01-26 23:13:31.83	33.25	23.59	-41.6	-43.9	19.2	0.00e+00	0	43	0	273678336	54	4778
2026-01-26 23:13:32.83	33.37	23.73	-41.8	-44.2	18.9	0.00e+00	0	43	0	275775488	54	4947
2026-01-26 23:13:33.84	33.49	23.86	-42.0	-44.3	18.8	0.00e+00	0	43	0	277872640	54	5041
2026-01-26 23:13:34.83	33.61	24.00	-41.6	-43.9	19.3	0.00e+00	0	43	0	279969792	54	4774
2026-01-26 23:13:35.83	33.73	24.14	-41.7	-44.0	19.1	0.00e+00	0	43	0	281018368	54	4869
2026-01-26 23:13:36.84	33.85	24.28	-41.8	-44.1	19.1	0.00e+00	0	43	0	283115520	54	4885
2026-01-26 23:13:37.84	33.97	24.42	-41.6	-43.9	19.2	0.00e+00	0	43	0	285212672	54	4788
2026-01-26 23:13:38.84	34.10	24.56	-41.8	-44.1	19.0	0.00e+00	0	43	0	287309824	54	4892
2026-01-26 23:13:39.84	34.22	24.70	-41.9	-44.2	18.9	0.00e+00	0	43	0	288358400	54	4968
2026-01-26 23:13:40.84	34.34	24.84	-42.0	-44.3	18.9	0.00e+00	0	43	0	290455552	54	5022
2026-01-26 23:13:41.84	34.47	24.99	-41.8	-44.1	19.0	0.00e+00	0	43	0	292552704	54	4873
2026-01-26 23:13:42.84	34.60	25.13	-42.0	-44.4	18.8	0.00e+00	0	44	0	294649856	54	5053
2026-01-26 23:13:43.84	34.73	25.27	-42.3	-44.7	18.5	0.00e+00	0	43	0	296747008	55	4955
2026-01-26 23:13:44.84	34.86	25.42	-42.1	-44.4	18.8	0.00e+00	0	43	0	297795584	55	4800
2026-01-26 23:13:45.85	34.99	25.57	-42.0	-44.4	18.8	0.00e+00	0	43	0	299892736	55	4794
2026-01-26 23:13:46.85	35.12	25.71	-42.2	-44.6	18.6	0.00e+00	0	43	0	301989888	55	4875
2026-01-26 23:13:47.85	35.25	25.86	-42.5	-45.0	18.2	0.00e+00	0	43	0	304087040	55	5142
2026-01-26 23:13:48.85	35.39	26.00	-42.4	-44.9	18.3	0.00e+00	0	43	0	306184192	55	5046
2026-01-26 23:13:49.85	35.52	26.15	-42.4	-44.9	18.4	0.00e+00	0	43	0	307232768	55	5044
2026-01-26 23:13:50.85	35.66	26.30	-42.3	-44.7	18.5	0.00e+00	0	44	0	309329920	55	4947
2026-01-26 23:13:51.86	35.80	26.45	-42.4	-44.7	18.6	0.00e+00	0	43	0	311427072	56	4699
2026-01-26 23:13:52.86	35.94	26.60	-42.6	-45.0	18.5	0.00e+00	0	43	0	313524224	56	4843
2026-01-26 23:13:53.86	36.08	26.75	-42.9	-45.4	18.0	0.00e+00	0	44	0	314572800	56	5086
2026-01-26 23:13:54.86	36.22	26.90	-42.7	-45.1	18.3	0.00e+00	0	43	0	316669952	56	4889
2026-01-26 23:13:55.86	36.36	27.05	-42.6	-45.0	18.4	0.00e+00	0	44	0	318767104	56	4855
2026-01-26 23:13:56.86	36.51	27.21	-42.7	-45.1	18.3	0.00e+00	0	43	0	320864256	56	4913
2026-01-26 23:13:57.86	36.66	27.36	-42.7	-45.0	18.3	0.00e+00	0	44	0	322961408	56	4865
2026-01-26 23:13:58.86	36.80	27.51	-43.0	-45.5	18.0	0.00e+00	0	43	0	324009984	56	5136
2026-01-26 23:13:59.87	36.95	27.67	-42.9	-45.4	18.1	0.00e+00	0	43	0	326107136	56	5078
2026-01-26 23:14:00.87	37.10	27.82	-42.8	-45.3	18.1	0.00e+00	0	44	0	328204288	56	4996
2026-01-26 23:14:01.87	37.25	27.98	-43.0	-45.5	17.9	0.00e+00	0	43	0	330301440	56	5109
2026-01-26 23:14:02.87	37.41	28.14	-43.0	-45.5	17.9	0.00e+00	0	43	0	332398592	56	5119
2026-01-26 23:14:03.87	37.56	28.29	-43.1	-45.7	17.8	0.00e+00	0	43	0	333447168	56	5227
2026-01-26 23:14:04.87	37.72	28.45	-43.3	-45.9	17.6	0.00e+00	0	43	0	335544320	57	5068
2026-01-26 23:14:05.88	37.88	28.61	-43.7	-46.4	17.1	0.00e+00	0	44	0	337641472	57	5375
2026-01-26 23:14:06.88	38.04	28.77	-43.9	-46.6	16.9	0.00e+00	0	43	0	339738624	58	5217
2026-01-26 23:14:07.88	38.20	28.93	-43.8	-46.6	16.9	0.00e+00	0	43	0	341835776	58	5178
2026-01-26 23:14:08.88	38.36	29.09	-44.0	-46.9	16.6	0.00e+00	0	44	0	342884352	59	5074
2026-01-26 23:14:09.88	38.52	29.25	-44.2	-47.2	16.3	0.00e+00	0	44	0	344981504	59	5234
2026-01-26 23:14:10.89	38.69	29.42	-44.2	-47.2	16.4	0.00e+00	0	43	0	347078656	59	5246
2026-01-26 23:14:11.89	38.86	29.58	-44.2	-47.2	16.4	0.00e+00	0	43	0	349175808	59	5231
2026-01-26 23:14:12.89	39.02	29.74	-44.1	-47.0	16.5	0.00e+00	0	43	0	351272960	59	5127
2026-01-26 23:14:13.89	39.19	29.91	-43.9	-46.8	16.7	0.00e+00	0	43	0	352321536	59	4985
2026-01-26 23:14:14.89	39.37	30.07	-43.9	-46.7	16.8	0.00e+00	0	44	0	354418688	59	4935
2026-01-26 23:14:15.89	39.54	30.24	-44.0	-46.9	16.6	0.00e+00	0	43	0	356515840	59	5069
2026-01-26 23:14:16.89	39.72	30.40	-44.1	-46.9	16.6	0.00e+00	0	44	0	358612992	59	5099
2026-01-26 23:14:17.89	39.89	30.57	-44.1	-47.0	16.5	0.00e+00	0	43	0	359661568	59	5109
2026-01-26 23:14:18.90	40.07	30.74	-43.7	-46.5	17.0	0.00e+00	0	44	0	361758720	59	4820
2026-01-26 23:14:19.90	40.25	30.90	-43.7	-46.4	17.1	0.00e+00	0	43	0	363855872	59	4802
2026-01-26 23:14:20.90	40.44	31.07	-43.8	-46.6	16.9	0.00e+00	0	44	0	365953024	59	4874
2026-01-26 23:14:21.90	40.62	31.24	-43.4	-46.1	17.4	0.00e+00	0	43	0	368050176	58	4875
2026-01-26 23:14:22.90	40.81	31.41	-43.4	-46.1	17.4	0.00e+00	0	44	0	369098752	58	4904
2026-01-26 23:14:23.90	41.00	31.58	-43.5	-46.2	17.4	0.00e+00	0	43	0	371195904	58	4961
2026-01-26 23:14:24.90	41.19	31.75	-43.6	-46.3	17.2	0.00e+00	0	44	0	373293056	58	4986
2026-01-26 23:14:25.90	41.38	31.93	-43.7	-46.4	17.0	0.00e+00	0	44	0	375390208	58	5071
2026-01-26 23:14:26.90	41.57	32.10	-44.0	-46.9	16.6	0.00e+00	0	43	0	377487360	58	5350
2026-01-26 23:14:27.90	41.77	32.27	-43.9	-46.7	16.8	0.00e+00	0	44	0	378535936	58	5239
2026-01-26 23:14:28.90	41.97	32.45	-44.0	-46.9	16.6	0.00e+00	0	44	0	380633088	59	5063
2026-01-26 23:14:29.90	42.17	32.62	-44.0	-46.8	16.8	0.00e+00	0	44	0	382730240	59	5013
2026-01-26 23:14:30.90	42.37	32.80	-43.6	-46.3	17.3	0.00e+00	0	43	0	384827392	58	4984
2026-01-26 23:14:31.91	42.58	32.97	-43.2	-45.7	17.8	0.00e+00	0	44	0	386924544	58	4702
2026-01-26 23:14:32.91	42.78	33.15	-43.0	-45.5	18.0	0.00e+00	0	43	0	387973120	57	4819
2026-01-26 23:14:33.91	42.99	33.33	-42.7	-45.1	18.3	0.00e+00	0	44	0	390070272	57	4633
2026-01-26 23:14:34.91	43.21	33.51	-42.5	-44.9	18.5	0.00e+00	0	43	0	392167424	56	4776
2026-01-26 23:14:35.91	43.42	33.68	-42.7	-45.1	18.3	0.00e+00	0	44	0	394264576	56	4880
2026-01-26 23:14:36.92	43.64	33.87	-43.2	-45.7	17.9	0.00e+00	0	43	0	395313152	56	5240
2026-01-26 23:14:37.92	43.86	34.05	-43.1	-45.7	17.7	0.00e+00	0	43	0	397410304	57	4943
2026-01-26 23:14:38.92	44.08	34.23	-43.1	-45.6	17.9	0.00e+00	0	44	0	399507456	57	4888
2026-01-26 23:14:39.92	44.30	34.41	-43.1	-45.6	17.8	0.00e+00	0	43	0	401604608	57	4884
2026-01-26 23:14:40.91	44.52	34.59	-43.3	-45.9	17.5	0.00e+00	0	44	0	403701760	57	5081
2026-01-26 23:14:41.92	44.75	34.77	-43.0	-45.5	17.9	0.00e+00	0	43	0	404750336	57	4870
2026-01-26 23:14:42.92	44.98	34.95	-43.3	-46.0	17.5	0.00e+00	0	44	0	406847488	57	5116
2026-01-26 23:14:43.92	45.22	35.14	-43.4	-46.1	17.4	0.00e+00	0	44	0	408944640	57	5189
2026-01-26 23:14:44.93	45.46	35.32	-43.3	-45.9	17.7	0.00e+00	0	43	0	411041792	57	5065
2026-01-26 23:14:45.93	45.69	35.51	-43.0	-45.5	18.0	0.00e+00	0	43	0	413138944	57	4820
2026-01-26 23:14:46.93	45.94	35.69	-42.9	-45.4	18.1	0.00e+00	0	44	0	414187520	57	4765
2026-01-26 23:14:47.93	46.18	35.88	-42.8	-45.3	18.1	0.00e+00	0	43	0	416284672	57	4733
2026-01-26 23:14:48.93	46.43	36.06	-42.8	-45.2	18.2	0.00e+00	0	44	0	418381824	56	4978
2026-01-26 23:14:49.94	46.68	36.25	-42.7	-45.1	18.3	0.00e+00	0	43	0	420478976	56	4908
2026-01-26 23:14:50.94	46.93	36.44	-42.7	-45.2	18.2	0.00e+00	0	43	0	422576128	56	4936
2026-01-26 23:14:51.94	47.18	36.62	-43.0	-45.5	17.9	0.00e+00	0	44	0	423624704	56	5148
2026-01-26 23:14:52.94	47.44	36.81	-42.9	-45.4	18.0	0.00e+00	0	43	0	425721856	56	5095
2026-01-26 23:14:53.94	47.70	37.00	-42.6	-45.0	18.4	0.00e+00	0	43	0	427819008	56	4827
2026-01-26 23:14:54.94	47.97	37.19	-42.6	-45.0	18.4	0.00e+00	0	44	0	429916160	56	4852
2026-01-26 23:14:55.94	48.23	37.38	-42.2	-44.5	18.9	0.00e+00	0	43	0	432013312	56	4576
2026-01-26 23:14:56.94	48.50	37.57	-42.0	-44.3	19.0	0.00e+00	0	43	0	433061888	56	4485
2026-01-26 23:14:57.94	48.78	37.76	-42.3	-44.7	18.7	0.00e+00	0	44	0	435159040	56	4670
2026-01-26 23:14:58.94	49.05	37.95	-42.4	-44.8	18.6	0.00e+00	0	43	0	437256192	56	4738
2026-01-26 23:14:59.94	49.33	38.14	-42.3	-44.8	18.6	0.00e+00	0	43	0	439353344	56	4731
2026-01-26 23:15:00.95	49.62	38.33	-42.4	-44.8	18.6	0.00e+00	0	43	0	440401920	56	4755
2026-01-26 23:15:01.95	49.91	38.52	-42.2	-44.6	18.8	0.00e+00	0	44	0	442499072	56	4604
2026-01-26 23:15:02.95	50.19	38.71	-42.5	-44.9	18.5	0.00e+00	0	44	0	444596224	56	4795
2026-01-26 23:15:03.95	50.49	38.91	-42.6	-45.0	18.4	0.00e+00	0	44	0	446693376	56	4843
2026-01-26 23:15:04.95	50.78	39.10	-42.7	-45.1	18.3	0.00e+00	0	44	0	448790528	56	4892
2026-01-26 23:15:05.95	51.08	39.29	-42.5	-44.8	18.6	0.00e+00	0	44	0	449839104	56	4742
2026-01-26 23:15:06.95	51.39	39.48	-42.6	-45.0	18.5	0.00e+00	0	43	0	451936256	56	4826
2026-01-26 23:15:07.95	51.69	39.68	-42.6	-45.0	18.5	0.00e+00	0	43	0	454033408	56	4816
2026-01-26 23:15:08.96	52.01	39.87	-42.6	-45.0	18.5	0.00e+00	0	44	0	456130560	56	4847
2026-01-26 23:15:09.96	52.32	40.06	-42.7	-45.2	18.3	0.00e+00	0	44	0	458227712	56	4934
2026-01-26 23:15:10.95	52.64	40.25	-42.4	-44.7	18.6	0.00e+00	0	44	0	459276288	56	4696
2026-01-26 23:15:11.96	52.96	40.45	-42.4	-44.7	18.7	0.00e+00	0	44	0	461373440	56	4682
2026-01-26 23:15:12.96	53.29	40.64	-42.0	-44.2	18.9	0.00e+00	0	44	0	463470592	55	4704
2026-01-26 23:15:13.96	53.61	40.84	-42.2	-44.5	18.7	0.00e+00	0	43	0	465567744	55	4845
2026-01-26 23:15:14.97	53.95	41.03	-42.4	-44.8	18.5	0.00e+00	0	43	0	466616320	55	4994
2026-01-26 23:15:15.97	54.29	41.22	-42.9	-45.4	18.1	0.00e+00	0	44	0	468713472	56	5050
2026-01-26 23:15:16.97	54.63	41.42	-43.1	-45.7	17.8	0.00e+00	0	43	0	470810624	57	4947
2026-01-26 23:15:17.97	54.97	41.61	-43.0	-45.5	17.9	0.00e+00	0	43	0	472907776	57	4841
2026-01-26 23:15:18.97	55.32	41.80	-42.6	-45.0	18.4	0.00e+00	0	44	0	475004928	57	4570
2026-01-26 23:15:19.97	55.68	42.00	-42.5	-44.9	18.5	0.00e+00	0	44	0	477102080	56	4766
2026-01-26 23:15:20.98	56.04	42.19	-42.6	-44.9	18.4	0.00e+00	0	44	0	478150656	56	4804
2026-01-26 23:15:21.98	56.40	42.38	-42.8	-45.3	18.2	0.00e+00	0	44	0	480247808	56	4992
2026-01-26 23:15:22.98	56.77	42.58	-42.7	-45.2	18.2	0.00e+00	0	44	0	482344960	56	4951
2026-01-26 23:15:23.98	57.14	42.77	-42.7	-45.1	18.3	0.00e+00	0	44	0	484442112	56	4893
2026-01-26 23:15:24.99	57.52	42.96	-42.4	-44.7	18.6	0.00e+00	0	44	0	485490688	56	4701
2026-01-26 23:15:25.99	57.90	43.15	-42.2	-44.5	18.9	0.00e+00	0	43	0	487587840	56	4564
2026-01-26 23:15:26.99	58.28	43.34	-41.9	-44.2	19.1	0.00e+00	0	43	0	489684992	56	4419
2026-01-26 23:15:27.99	58.67	43.53	-42.1	-44.4	18.9	0.00e+00	0	44	0	491782144	55	4763
2026-01-26 23:15:28.99	59.06	43.72	-42.6	-45.0	18.3	0.00e+00	0	44	0	493879296	55	5106
2026-01-26 23:15:29.99	59.46	43.91	-42.9	-45.4	18.1	0.00e+00	0	43	0	494927872	56	5055
2026-01-26 23:15:31.00	59.87	44.10	-42.6	-45.0	18.3	0.00e+00	0	44	0	497025024	56	4857
2026-01-26 23:15:32.00	60.27	44.29	-42.6	-45.1	18.4	0.00e+00	0	43	0	499122176	56	4871
2026-01-26 23:15:33.00	60.68	44.48	-42.8	-45.3	18.1	0.00e+00	0	43	0	501219328	56	5013
2026-01-26 23:15:34.00	61.10	44.66	-42.8	-45.2	18.1	0.00e+00	0	43	0	503316480	56	4982
2026-01-26 23:15:35.00	61.52	44.85	-43.1	-45.5	17.9	0.00e+00	0	44	0	504365056	57	4869
2026-01-26 23:15:36.01	61.95	45.04	-43.3	-45.8	17.6	0.00e+00	0	44	0	506462208	57	5040
2026-01-26 23:15:37.01	62.39	45.22	-43.9	-46.7	16.8	0.00e+00	0	44	0	508559360	58	5237
2026-01-26 23:15:38.01	62.82	45.40	-44.1	-46.9	16.7	0.00e+00	0	43	0	510656512	58	5379
2026-01-26 23:15:39.01	63.26	45.59	-43.9	-46.7	16.8	0.00e+00	0	43	0	512753664	59	4947
2026-01-26 23:15:40.01	63.71	45.77	-43.2	-45.7	17.7	0.00e+00	0	44	0	513802240	58	4697
2026-01-26 23:15:41.01	64.16	45.95	-42.8	-45.2	18.1	0.00e+00	0	43	0	515899392	57	4677
2026-01-26 23:15:42.02	64.62	46.13	-42.6	-45.0	18.4	0.00e+00	0	44	0	517996544	57	4578
2026-01-26 23:15:43.02	65.09	46.31	-42.4	-44.7	18.7	0.00e+00	0	44	0	520093696	56	4700
2026-01-26 23:15:44.02	65.55	46.48	-42.3	-44.6	18.9	0.00e+00	0	43	0	522190848	56	4613
2026-01-26 23:15:45.02	66.03	46.66	-42.3	-44.6	18.8	0.00e+00	0	44	0	523239424	56	4636
2026-01-26 23:15:46.03	66.51	46.83	-41.8	-44.1	19.2	0.00e+00	0	43	0	525336576	55	4606
2026-01-26 23:15:47.03	66.99	47.01	-41.6	-43.8	19.3	0.00e+00	0	44	0	527433728	55	4486
2026-01-26 23:15:48.03	67.48	47.18	-41.7	-43.9	19.3	0.00e+00	0	44	0	529530880	55	4534
2026-01-26 23:15:49.03	67.97	47.35	-41.7	-44.0	19.2	0.00e+00	0	44	0	530579456	55	4548
2026-01-26 23:15:50.03	68.47	47.51	-41.8	-44.0	19.1	0.00e+00	0	44	0	532676608	55	4594
2026-01-26 23:15:51.03	68.98	47.68	-41.8	-44.1	19.1	0.00e+00	0	44	0	534773760	55	4608
2026-01-26 23:15:52.04	69.49	47.84	-41.9	-44.2	19.1	0.00e+00	0	44	0	536870912	55	4683
2026-01-26 23:15:53.04	70.01	48.01	-42.2	-44.6	18.7	0.00e+00	0	44	0	538968064	55	4897
2026-01-26 23:15:54.04	70.53	48.17	-42.4	-44.8	18.5	0.00e+00	0	44	0	540016640	55	5011
2026-01-26 23:15:55.05	71.06	48.33	-42.4	-44.7	18.7	0.00e+00	0	43	0	542113792	56	4669
2026-01-26 23:15:56.05	71.59	48.48	-42.4	-44.8	18.7	0.00e+00	0	44	0	544210944	56	4724
2026-01-26 23:15:57.05	72.13	48.64	-42.3	-44.6	18.8	0.00e+00	0	44	0	546308096	56	4632
2026-01-26 23:15:58.05	72.67	48.79	-42.7	-45.1	18.4	0.00e+00	0	44	0	548405248	56	4902
2026-01-26 23:15:59.05	73.22	48.94	-42.5	-44.9	18.5	0.00e+00	0	44	0	549453824	56	4799
2026-01-26 23:16:00.05	73.77	49.09	-41.7	-44.0	19.3	0.00e+00	0	43	0	551550976	55	4550
2026-01-26 23:16:01.05	74.33	49.24	-41.3	-43.5	19.7	0.00e+00	0	43	0	553648128	54	4546
2026-01-26 23:16:02.05	74.89	49.38	-41.8	-44.1	19.2	0.00e+00	0	44	0	555745280	54	4872
2026-01-26 23:16:03.05	75.46	49.52	-42.0	-44.3	18.9	0.00e+00	0	44	0	557842432	55	4758
2026-01-26 23:16:04.06	76.04	49.66	-42.3	-44.7	18.6	0.00e+00	0	44	0	558891008	55	4950
2026-01-26 23:16:05.05	76.61	49.79	-41.9	-44.2	19.1	0.00e+00	0	44	0	560988160	55	4657
2026-01-26 23:16:06.05	77.20	49.93	-42.3	-44.6	18.6	0.00e+00	0	44	0	563085312	55	4922
2026-01-26 23:16:07.06	77.79	50.06	-42.8	-45.3	18.2	0.00e+00	0	43	0	565182464	56	4984
2026-01-26 23:16:08.06	78.38	50.19	-42.5	-44.9	18.5	0.00e+00	0	43	0	566231040	56	4772
2026-01-26 23:16:09.06	78.98	50.31	-42.3	-44.6	18.7	0.00e+00	0	44	0	568328192	56	4612
2026-01-26 23:16:10.06	79.59	50.43	-42.9	-45.4	18.1	0.00e+00	0	44	0	570425344	56	5068
2026-01-26 23:16:11.06	80.20	50.55	-43.4	-46.0	17.5	0.00e+00	0	44	0	572522496	57	5149
2026-01-26 23:16:12.06	80.81	50.67	-43.5	-46.3	17.3	0.00e+00	0	44	0	574619648	58	4988
2026-01-26 23:16:13.07	81.43	50.78	-43.1	-45.8	17.7	0.00e+00	0	44	0	575668224	58	4710
2026-01-26 23:16:14.07	82.06	50.89	-43.1	-45.7	17.7	0.00e+00	0	44	0	577765376	57	4955
2026-01-26 23:16:15.07	82.68	50.99	-42.7	-45.3	18.2	0.00e+00	0	44	0	579862528	57	4712
2026-01-26 23:16:16.07	83.31	51.10	-42.6	-45.1	18.4	0.00e+00	0	43	0	581959680	56	4919
2026-01-26 23:16:17.07	83.95	51.20	-42.1	-44.5	19.0	0.00e+00	0	44	0	584056832	56	4561
2026-01-26 23:16:18.07	84.59	51.29	-41.9	-44.2	19.0	0.00e+00	0	43	0	585105408	55	4703
2026-01-26 23:16:19.07	85.23	51.38	-41.7	-44.0	19.2	0.00e+00	0	44	0	587202560	55	4568
2026-01-26 23:16:20.07	85.88	51.47	-41.3	-43.5	19.6	0.00e+00	0	44	0	589299712	54	4583
2026-01-26 23:16:21.07	86.53	51.56	-40.7	-42.8	20.3	0.00e+00	0	43	0	591396864	53	4476
2026-01-26 23:16:22.08	87.19	51.64	-40.9	-43.1	20.0	0.00e+00	0	44	0	593494016	53	4606
2026-01-26 23:16:23.08	87.85	51.72	-41.8	-44.2	19.1	0.00e+00	0	43	0	594542592	54	4939
2026-01-26 23:16:24.08	88.51	51.79	-42.4	-44.8	18.5	0.00e+00	0	44	0	596639744	55	5011
2026-01-26 23:16:25.09	89.19	51.86	-42.4	-44.8	18.5	0.00e+00	0	43	0	598736896	55	5031
2026-01-26 23:16:26.09	89.85	51.93	-42.3	-44.8	18.4	0.00e+00	0	44	0	600834048	55	4995
2026-01-26 23:16:27.09	90.52	51.99	-42.0	-44.4	18.9	0.00e+00	0	43	0	602931200	55	4778
2026-01-26 23:16:28.10	91.21	52.05	-41.5	-43.8	19.4	0.00e+00	0	44	0	603979776	55	4452
2026-01-26 23:16:29.10	91.88	52.10	-41.5	-43.7	19.5	0.00e+00	0	43	0	606076928	54	4671
2026-01-26 23:16:30.10	92.56	52.15	-41.3	-43.5	19.6	0.00e+00	0	43	0	608174080	53	4852
2026-01-26 23:16:31.10	93.24	52.20	-42.1	-44.5	18.8	0.00e+00	0	44	0	610271232	54	5117
2026-01-26 23:16:32.10	93.92	52.24	-42.9	-45.6	18.0	0.00e+00	0	44	0	611319808	56	5160
2026-01-26 23:16:33.11	94.62	52.28	-42.6	-45.1	18.5	0.00e+00	0	44	0	613416960	56	4876
2026-01-26 23:16:34.11	95.30	52.31	-42.4	-44.8	18.6	0.00e+00	0	44	0	615514112	56	4731
2026-01-26 23:16:35.11	95.99	52.34	-43.0	-45.5	18.0	0.00e+00	0	43	0	617611264	56	5108
2026-01-26 23:16:36.11	96.68	52.37	-42.8	-45.2	18.3	0.00e+00	0	44	0	619708416	56	4951
2026-01-26 23:16:37.11	97.37	52.39	-42.3	-44.6	18.8	0.00e+00	0	43	0	620756992	56	4632
2026-01-26 23:16:38.11	98.06	52.41	-41.8	-44.1	19.1	0.00e+00	0	44	0	622854144	55	4618
2026-01-26 23:16:39.11	98.75	52.42	-43.0	-45.5	18.0	0.00e+00	0	43	0	624951296	56	5148
2026-01-26 23:16:40.12	99.45	52.43	-43.0	-45.5	18.0	0.00e+00	0	43	0	627048448	57	4838
2026-01-26 23:16:41.12	100.15	52.43	-42.4	-44.8	18.7	0.00e+00	0	43	0	629145600	56	4733
2026-01-26 23:16:42.12	100.84	52.43	-41.8	-44.1	19.2	0.00e+00	0	44	0	630194176	55	4607
2026-01-26 23:16:43.12	101.53	52.43	-42.7	-45.1	18.2	0.00e+00	0	44	0	632291328	55	5212
2026-01-26 23:16:44.12	102.23	52.42	-43.7	-46.5	17.1	0.00e+00	0	43	0	634388480	58	5115
2026-01-26 23:16:45.12	102.92	52.41	-43.3	-46.0	17.6	0.00e+00	0	44	0	636485632	58	4818
2026-01-26 23:16:46.12	103.61	52.39	-43.1	-45.7	17.8	0.00e+00	0	43	0	637534208	58	4674
2026-01-26 23:16:47.12	104.30	52.37	-42.4	-44.7	18.6	0.00e+00	0	44	0	639631360	56	4701
2026-01-26 23:16:48.12	104.99	52.35	-41.5	-43.7	19.5	0.00e+00	0	43	0	641728512	55	4415
2026-01-26 23:16:49.12	105.68	52.32	-41.0	-43.1	20.0	0.00e+00	0	44	0	643825664	53	4629
2026-01-26 23:16:50.12	106.37	52.28	-41.0	-43.2	19.9	0.00e+00	0	44	0	645922816	53	4679
2026-01-26 23:16:51.12	107.05	52.24	-41.4	-43.7	19.4	0.00e+00	0	43	0	648019968	53	4932
2026-01-26 23:16:52.13	107.74	52.20	-41.3	-43.5	19.7	0.00e+00	0	44	0	649068544	53	4868
2026-01-26 23:16:53.12	108.42	52.16	-41.0	-43.1	19.9	0.00e+00	0	44	0	651165696	53	4648
2026-01-26 23:16:54.13	109.10	52.11	-40.7	-42.8	20.3	0.00e+00	0	44	0	653262848	53	4469
2026-01-26 23:16:55.13	109.78	52.05	-40.6	-42.7	20.4	0.00e+00	0	44	0	655360000	52	4671
2026-01-26 23:16:56.13	110.45	51.99	-40.3	-42.3	20.7	0.00e+00	0	44	0	656408576	52	4482
2026-01-26 23:16:57.13	111.13	51.93	-40.7	-42.8	20.4	0.00e+00	0	44	0	658505728	52	4708
2026-01-26 23:16:58.13	111.79	51.87	-41.0	-43.1	20.0	0.00e+00	0	44	0	660602880	52	4920
2026-01-26 23:16:59.13	112.46	51.80	-41.4	-43.6	19.5	0.00e+00	0	43	0	662700032	53	4921
2026-01-26 23:17:00.14	113.13	51.72	-41.8	-44.1	19.1	0.00e+00	0	44	0	664797184	54	4910
2026-01-26 23:17:01.14	113.79	51.64	-41.4	-43.6	19.5	0.00e+00	0	43	0	665845760	54	4651
2026-01-26 23:17:02.14	114.45	51.56	-41.6	-43.8	19.4	0.00e+00	0	44	0	667942912	54	4728
2026-01-26 23:17:03.14	115.10	51.48	-42.5	-44.9	18.4	0.00e+00	0	44	0	670040064	55	5095
2026-01-26 23:17:04.14	115.75	51.39	-43.3	-45.9	17.7	0.00e+00	0	43	0	672137216	57	5087
2026-01-26 23:17:05.14	116.39	51.30	-42.9	-45.4	18.1	0.00e+00	0	44	0	674234368	57	4776
2026-01-26 23:17:06.14	117.03	51.20	-42.1	-44.4	19.0	0.00e+00	0	44	0	675282944	56	4504
2026-01-26 23:17:07.14	117.67	51.10	-41.6	-43.8	19.4	0.00e+00	0	44	0	677380096	55	4486
2026-01-26 23:17:08.14	118.30	51.00	-41.9	-44.1	19.1	0.00e+00	0	44	0	679477248	55	4649
2026-01-26 23:17:09.14	118.93	50.89	-41.7	-43.9	19.3	0.00e+00	0	43	0	681574400	55	4512
2026-01-26 23:17:10.15	119.56	50.78	-41.1	-43.2	19.9	0.00e+00	0	44	0	682622976	53	4660
2026-01-26 23:17:11.15	120.18	50.67	-40.7	-42.7	20.4	0.00e+00	0	44	0	684720128	53	4421
2026-01-26 23:17:12.15	120.79	50.56	-41.9	-44.1	19.1	0.00e+00	0	44	0	686817280	54	4913
2026-01-26 23:17:13.15	121.40	50.44	-42.5	-45.0	18.4	0.00e+00	0	44	0	688914432	55	5102
2026-01-26 23:17:14.15	122.01	50.32	-43.5	-46.2	17.3	0.00e+00	0	44	0	691011584	57	5246
2026-01-26 23:17:15.15	122.61	50.19	-42.8	-45.3	18.2	0.00e+00	0	44	0	692060160	57	4756
2026-01-26 23:17:16.16	123.21	50.06	-42.2	-44.6	18.8	0.00e+00	0	44	0	694157312	56	4617
2026-01-26 23:17:17.16	123.80	49.93	-41.9	-44.3	19.0	0.00e+00	0	44	0	696254464	55	4717
2026-01-26 23:17:18.16	124.38	49.80	-42.0	-44.4	18.9	0.00e+00	0	44	0	698351616	55	4771
2026-01-26 23:17:19.16	124.96	49.66	-42.1	-44.4	18.8	0.00e+00	0	44	0	700448768	55	4814
2026-01-26 23:17:20.16	125.54	49.52	-42.3	-44.7	18.5	0.00e+00	0	43	0	701497344	55	4957
2026-01-26 23:17:21.17	126.11	49.38	-42.3	-44.7	18.6	0.00e+00	0	44	0	703594496	55	4932
2026-01-26 23:17:22.17	126.68	49.24	-42.5	-45.0	18.4	0.00e+00	0	44	0	705691648	55	5106
2026-01-26 23:17:23.17	127.24	49.09	-43.0	-45.6	18.0	0.00e+00	0	44	0	707788800	56	5163
2026-01-26 23:17:24.17	127.79	48.94	-43.1	-45.6	17.9	0.00e+00	0	44	0	709885952	57	4926
2026-01-26 23:17:25.17	128.34	48.79	-42.2	-44.5	18.9	0.00e+00	0	44	0	710934528	56	4557
2026-01-26 23:17:26.18	128.89	48.64	-41.5	-43.7	19.5	0.00e+00	0	44	0	713031680	54	4674
2026-01-26 23:17:27.18	129.43	48.48	-41.2	-43.4	19.8	0.00e+00	0	43	0	715128832	54	4506
2026-01-26 23:17:28.18	129.96	48.33	-42.2	-44.6	18.7	0.00e+00	0	44	0	717225984	55	4899
2026-01-26 23:17:29.18	130.49	48.17	-43.7	-46.4	17.1	0.00e+00	0	43	0	719323136	58	5097
2026-01-26 23:17:30.18	131.01	48.01	-44.1	-47.0	16.5	0.00e+00	0	43	0	720371712	59	5101
2026-01-26 23:17:31.19	131.53	47.84	-44.2	-47.1	16.5	0.00e+00	0	43	0	722468864	59	5206
2026-01-26 23:17:32.19	132.04	47.68	-44.4	-47.4	16.2	0.00e+00	0	43	0	724566016	59	5347
2026-01-26 23:17:33.19	132.55	47.51	-44.1	-47.0	16.5	0.00e+00	0	43	0	726663168	59	5150
2026-01-26 23:17:34.19	133.05	47.34	-44.2	-47.0	16.4	0.00e+00	0	43	0	727711744	59	5140
2026-01-26 23:17:35.19	133.54	47.17	-45.1	-48.4	15.4	0.00e+00	0	43	0	729808896	60	5665
2026-01-26 23:17:36.20	134.04	47.00	-46.1	-50.1	13.6	7.00e-07	0	44	0	731906048	62	6191
2026-01-26 23:17:37.20	134.52	46.83	-46.7	-51.3	12.2	9.68e-05	0	44	0	734003200	64	6317
2026-01-26 23:17:38.20	135.00	46.65	-46.2	-50.3	13.3	4.57e-05	0	43	0	736100352	64	5621
2026-01-26 23:17:39.20	135.47	46.48	-45.6	-49.3	14.5	8.30e-06	0	44	0	737148928	63	5284
2026-01-26 23:17:40.20	135.94	46.30	-45.6	-49.3	14.3	0.00e+00	0	43	0	739246080	62	5612
2026-01-26 23:17:41.20	136.41	46.12	-46.3	-50.5	13.2	1.50e-06	0	43	0	741343232	63	6072
2026-01-26 23:17:42.20	136.86	45.94	-45.8	-49.5	14.2	3.00e-06	0	44	0	743440384	63	5407
2026-01-26 23:17:43.20	137.32	45.76	-45.0	-48.3	15.3	0.00e+00	0	44	0	745537536	61	5294
2026-01-26 23:17:44.20	137.77	45.58	-45.4	-49.0	14.6	0.00e+00	0	44	0	746586112	61	5756
2026-01-26 23:17:45.20	138.21	45.39	-46.1	-50.2	13.5	2.20e-06	0	44	0	748683264	62	6217
2026-01-26 23:17:46.21	138.65	45.21	-46.9	-51.7	12.1	2.26e-04	0	44	0	750780416	64	6635
2026-01-26 23:17:47.21	139.08	45.02	-46.9	-51.7	11.8	4.92e-04	0	43	0	752877568	64	6617
2026-01-26 23:17:48.21	139.51	44.84	-46.3	-50.5	13.2	1.51e-04	0	43	0	754974720	64	5731
2026-01-26 23:17:49.21	139.93	44.65	-46.0	-49.8	13.8	1.98e-05	0	44	0	756023296	63	5635
2026-01-26 23:17:50.21	140.35	44.46	-46.2	-50.2	13.5	1.06e-05	0	43	0	758120448	63	5878
2026-01-26 23:17:51.21	140.77	44.28	-47.2	-52.2	11.4	1.17e-04	0	44	0	760217600	64	7020
2026-01-26 23:17:52.22	141.18	44.09	-47.0	-52.0	11.4	1.55e-03	0	44	0	762314752	65	6448
2026-01-26 23:17:53.22	141.58	43.90	-46.9	-51.9	11.5	6.13e-04	0	44	0	763363328	65	6376
2026-01-26 23:17:54.22	141.98	43.71	-46.8	-51.6	11.9	9.34e-04	0	44	0	765460480	65	6164
2026-01-26 23:17:55.21	142.37	43.52	-47.0	-52.1	11.6	3.67e-04	0	44	0	767557632	65	6496
2026-01-26 23:17:56.21	142.76	43.33	-47.1	-52.2	11.4	2.15e-03	0	43	0	769654784	65	6645
2026-01-26 23:17:57.22	143.15	43.13	-48.1	-55.3	8.3	7.17e-03	0	44	0	771751936	66	8895
2026-01-26 23:17:58.21	143.53	42.94	-48.4	-56.1	7.3	1.28e-01	0	44	0	772800512	67	9183
2026-01-26 23:17:59.21	143.90	42.75	-47.1	-52.3	11.3	3.87e-03	0	44	0	774897664	66	6276
2026-01-26 23:18:00.21	144.27	42.56	-46.2	-50.3	13.4	5.72e-05	0	43	0	776994816	64	5593
2026-01-26 23:18:01.21	144.64	42.36	-45.7	-49.3	14.3	5.30e-06	0	44	0	779091968	63	5330
2026-01-26 23:18:02.21	145.00	42.17	-45.6	-49.3	14.2	7.00e-07	0	44	0	781189120	62	5640
2026-01-26 23:18:03.21	145.36	41.98	-46.6	-51.1	12.5	1.83e-05	0	44	0	782237696	63	6565
2026-01-26 23:18:04.22	145.72	41.78	-47.6	-53.5	9.9	2.99e-03	0	43	0	784334848	65	7675
2026-01-26 23:18:05.21	146.07	41.59	-46.6	-51.0	12.4	2.18e-03	0	44	0	786432000	65	5787
2026-01-26 23:18:06.22	146.42	41.39	-45.7	-49.3	14.4	0.00e+00	0	44	0	788529152	63	5302
2026-01-26 23:18:07.22	146.76	41.20	-45.1	-48.4	15.2	1.50e-06	0	44	0	790626304	62	5085
2026-01-26 23:18:08.22	147.10	41.01	-44.6	-47.7	15.9	0.00e+00	0	44	0	791674880	60	5258
2026-01-26 23:18:09.22	147.43	40.81	-44.9	-48.1	15.5	0.00e+00	0	44	0	793772032	60	5501
2026-01-26 23:18:10.22	147.76	40.62	-45.7	-49.5	14.3	0.00e+00	0	44	0	795869184	62	5743
2026-01-26 23:18:11.22	148.09	40.42	-45.7	-49.6	14.0	6.80e-06	0	44	0	797966336	62	5794
2026-01-26 23:18:12.23	148.41	40.23	-44.0	-46.9	16.6	7.00e-07	0	44	0	800063488	60	4768
2026-01-26 23:18:13.23	148.73	40.03	-43.4	-46.1	17.4	0.00e+00	0	44	0	801112064	58	4896
2026-01-26 23:18:14.23	149.05	39.84	-42.9	-45.4	18.1	0.00e+00	0	43	0	803209216	57	4764
2026-01-26 23:18:15.23	149.36	39.65	-43.6	-46.3	17.2	0.00e+00	0	44	0	805306368	57	5308
2026-01-26 23:18:16.23	149.66	39.45	-45.1	-48.4	15.2	0.00e+00	0	44	0	807403520	60	5712
2026-01-26 23:18:17.23	149.97	39.26	-46.5	-51.0	12.4	3.12e-05	0	44	0	808452096	64	6113
2026-01-26 23:18:18.23	150.27	39.07	-44.9	-48.1	15.3	1.83e-05	0	43	0	810549248	61	5199
2026-01-26 23:18:19.23	150.57	38.87	-44.1	-47.0	16.6	0.00e+00	0	44	0	812646400	60	4820
2026-01-26 23:18:20.24	150.86	38.68	-43.6	-46.3	17.2	0.00e+00	0	44	0	814743552	59	4717
2026-01-26 23:18:21.24	151.15	38.49	-43.7	-46.4	17.2	0.00e+00	0	44	0	816840704	58	5044
2026-01-26 23:18:22.24	151.44	38.29	-44.0	-46.8	16.8	0.00e+00	0	44	0	817889280	58	5323
2026-01-26 23:18:23.24	151.72	38.10	-44.1	-46.8	16.7	0.00e+00	0	44	0	819986432	59	5037
2026-01-26 23:18:24.24	152.00	37.91	-44.4	-47.3	16.2	0.00e+00	0	44	0	822083584	59	5329
2026-01-26 23:18:25.24	152.28	37.72	-44.6	-47.7	15.9	0.00e+00	0	44	0	824180736	60	5269
2026-01-26 23:18:26.24	152.55	37.53	-44.2	-47.1	16.4	0.00e+00	0	44	0	826277888	60	4916
2026-01-26 23:18:27.23	152.82	37.34	-43.2	-45.7	17.7	0.00e+00	0	44	0	827326464	58	4703
2026-01-26 23:18:28.23	153.09	37.15	-42.6	-45.1	18.3	0.00e+00	0	44	0	829423616	57	4602
2026-01-26 23:18:29.23	153.35	36.96	-42.3	-44.6	18.8	0.00e+00	0	44	0	831520768	56	4636
2026-01-26 23:18:30.22	153.61	36.77	-42.4	-44.8	18.7	0.00e+00	0	44	0	833617920	56	4716
2026-01-26 23:18:31.22	153.87	36.58	-42.6	-45.0	18.4	0.00e+00	0	44	0	835715072	56	4838
2026-01-26 23:18:32.23	154.13	36.39	-42.6	-45.0	18.4	0.00e+00	0	44	0	836763648	56	4868
2026-01-26 23:18:33.23	154.38	36.20	-43.0	-45.5	17.9	0.00e+00	0	43	0	838860800	56	5158
2026-01-26 23:18:34.23	154.63	36.02	-43.0	-45.5	17.9	0.00e+00	0	43	0	840957952	56	5129
2026-01-26 23:18:35.23	154.88	35.83	-42.4	-44.8	18.7	0.00e+00	0	43	0	843055104	56	4710
2026-01-26 23:18:36.23	155.12	35.64	-42.0	-44.2	19.0	0.00e+00	0	43	0	844103680	55	4694
2026-01-26 23:18:37.24	155.37	35.46	-42.4	-44.8	18.5	0.00e+00	0	44	0	846200832	55	5004
2026-01-26 23:18:38.24	155.61	35.27	-43.0	-45.5	17.9	0.00e+00	0	44	0	848297984	56	5153
2026-01-26 23:18:39.24	155.84	35.09	-43.6	-46.2	17.3	0.00e+00	0	44	0	850395136	57	5261
2026-01-26 23:18:40.24	156.08	34.90	-44.3	-47.3	16.3	0.00e+00	0	44	0	852492288	59	5290
2026-01-26 23:18:41.24	156.31	34.72	-44.6	-47.8	15.8	0.00e+00	0	44	0	853540864	59	5606
2026-01-26 23:18:42.24	156.54	34.54	-45.0	-48.4	15.3	0.00e+00	0	43	0	855638016	61	5371
2026-01-26 23:18:43.24	156.76	34.35	-45.6	-49.4	14.5	0.00e+00	0	44	0	857735168	61	6010
2026-01-26 23:18:44.24	156.99	34.17	-45.7	-49.6	14.0	0.00e+00	0	44	0	859832320	62	5845
2026-01-26 23:18:45.24	157.21	33.99	-45.6	-49.4	14.2	0.00e+00	0	44	0	861929472	62	5679
2026-01-26 23:18:46.24	157.43	33.81	-45.0	-48.4	15.2	0.00e+00	0	44	0	862978048	62	5066
2026-01-26 23:18:47.24	157.64	33.63	-44.3	-47.3	16.3	0.00e+00	0	44	0	865075200	60	4994
2026-01-26 23:18:48.25	157.86	33.45	-44.1	-46.9	16.6	0.00e+00	0	44	0	867172352	60	4800
2026-01-26 23:18:49.25	158.07	33.27	-43.6	-46.2	17.3	0.00e+00	0	44	0	869269504	59	4689
2026-01-26 23:18:50.25	158.28	33.09	-44.0	-46.7	16.7	0.00e+00	0	44	0	870318080	59	4967
2026-01-26 23:18:51.25	158.49	32.91	-43.9	-46.7	16.8	0.00e+00	0	44	0	872415232	59	4974
2026-01-26 23:18:52.25	158.69	32.74	-44.7	-47.8	15.8	0.00e+00	0	44	0	874512384	59	5623
2026-01-26 23:18:53.25	158.90	32.56	-45.2	-48.7	14.9	0.00e+00	0	44	0	876609536	61	5572
2026-01-26 23:18:54.25	159.10	32.38	-45.1	-48.8	14.8	0.00e+00	0	43	0	878706688	61	5601
2026-01-26 23:18:55.25	159.30	32.21	-44.9	-48.3	15.3	0.00e+00	0	43	0	879755264	61	5332
2026-01-26 23:18:56.25	159.49	32.03	-44.1	-47.2	16.4	0.00e+00	0	43	0	881852416	60	4951
2026-01-26 23:18:57.25	159.69	31.86	-43.7	-46.5	16.9	0.00e+00	0	44	0	883949568	59	4861
2026-01-26 23:18:58.25	159.88	31.69	-43.9	-46.7	16.7	0.00e+00	0	43	0	886046720	59	4980
2026-01-26 23:18:59.25	160.07	31.52	-43.3	-45.9	17.5	0.00e+00	0	43	0	888143872	58	4808
2026-01-26 23:19:00.26	160.26	31.34	-43.3	-45.9	17.6	0.00e+00	0	44	0	889192448	58	4773
2026-01-26 23:19:01.26	160.45	31.17	-42.8	-45.3	18.1	0.00e+00	0	44	0	891289600	57	4733
2026-01-26 23:19:02.26	160.63	31.00	-42.9	-45.4	18.0	0.00e+00	0	44	0	893386752	57	4767
2026-01-26 23:19:03.26	160.81	30.83	-42.9	-45.4	18.0	0.00e+00	0	43	0	895483904	57	4768
2026-01-26 23:19:04.26	160.99	30.66	-43.0	-45.6	17.8	0.00e+00	0	44	0	897581056	57	4889
2026-01-26 23:19:05.26	161.17	30.49	-43.6	-46.4	17.1	0.00e+00	0	44	0	898629632	57	5364
2026-01-26 23:19:06.26	161.35	30.33	-43.9	-46.8	16.7	0.00e+00	0	44	0	900726784	58	5321
2026-01-26 23:19:07.26	161.53	30.16	-44.6	-47.7	15.8	0.00e+00	0	44	0	902823936	59	5588
2026-01-26 23:19:08.26	161.70	29.99	-44.9	-48.2	15.3	0.00e+00	0	43	0	904921088	60	5591
2026-01-26 23:19:09.26	161.87	29.83	-45.6	-49.5	14.2	0.00e+00	0	44	0	907018240	61	6075
2026-01-26 23:19:10.26	162.04	29.66	-46.0	-50.0	13.5	2.20e-06	0	44	0	908066816	62	6090
2026-01-26 23:19:11.26	162.21	29.50	-45.4	-49.0	14.6	1.50e-06	0	44	0	910163968	62	5425
2026-01-26 23:19:12.27	162.38	29.33	-45.4	-48.9	14.7	0.00e+00	0	44	0	912261120	62	5367
2026-01-26 23:19:13.26	162.54	29.17	-44.4	-47.4	16.1	0.00e+00	0	44	0	914358272	60	5083
2026-01-26 23:19:14.27	162.71	29.01	-44.0	-46.8	16.7	0.00e+00	0	44	0	915406848	59	5010
2026-01-26 23:19:15.27	162.87	28.85	-43.5	-46.2	17.2	0.00e+00	0	44	0	917504000	59	4658
2026-01-26 23:19:16.27	163.03	28.69	-42.7	-45.1	18.3	0.00e+00	0	44	0	919601152	57	4629
2026-01-26 23:19:17.27	163.19	28.53	-42.8	-45.3	18.1	0.00e+00	0	44	0	921698304	57	4719
2026-01-26 23:19:18.27	163.35	28.37	-42.6	-45.1	18.3	0.00e+00	0	44	0	923795456	57	4612
2026-01-26 23:19:19.27	163.50	28.21	-42.7	-45.2	18.2	0.00e+00	0	44	0	924844032	56	4962
2026-01-26 23:19:20.27	163.66	28.05	-43.0	-45.6	17.8	0.00e+00	0	44	0	926941184	56	5210
2026-01-26 23:19:21.27	163.81	27.89	-42.8	-45.4	18.1	0.00e+00	0	44	0	929038336	56	5052
2026-01-26 23:19:22.27	163.96	27.74	-43.0	-45.6	17.8	0.00e+00	0	43	0	931135488	56	5187
2026-01-26 23:19:23.27	164.11	27.58	-42.7	-45.3	18.0	0.00e+00	0	43	0	933232640	56	4997
2026-01-26 23:19:24.27	164.26	27.43	-42.7	-45.3	18.1	0.00e+00	0	44	0	934281216	56	4984
2026-01-26 23:19:25.28	164.41	27.27	-42.4	-44.9	18.5	0.00e+00	0	44	0	936378368	56	4778
2026-01-26 23:19:26.28	164.56	27.12	-42.1	-44.5	18.8	0.00e+00	0	44	0	938475520	56	4552
2026-01-26 23:19:27.28	164.70	26.96	-42.1	-44.4	18.9	0.00e+00	0	44	0	940572672	56	4527
2026-01-26 23:19:28.28	164.84	26.81	-42.0	-44.3	18.9	0.00e+00	0	44	0	942669824	55	4725
2026-01-26 23:19:29.28	164.99	26.66	-42.0	-44.4	18.8	0.00e+00	0	44	0	943718400	55	4765
2026-01-26 23:19:30.28	165.13	26.51	-42.1	-44.4	18.8	0.00e+00	0	44	0	945815552	55	4777
2026-01-26 23:19:31.28	165.27	26.36	-42.2	-44.5	18.7	0.00e+00	0	44	0	947912704	55	4850
2026-01-26 23:19:32.28	165.40	26.21	-43.1	-45.6	17.8	0.00e+00	0	44	0	950009856	56	5210
2026-01-26 23:19:33.29	165.54	26.06	-43.2	-45.8	17.6	0.00e+00	0	44	0	951058432	57	5018
2026-01-26 23:19:34.29	165.68	25.91	-43.9	-46.7	16.8	0.00e+00	0	44	0	953155584	58	5246
2026-01-26 23:19:35.29	165.81	25.76	-44.4	-47.4	16.0	0.00e+00	0	44	0	955252736	59	5392
2026-01-26 23:19:36.29	165.94	25.61	-44.6	-47.7	15.8	0.00e+00	0	44	0	957349888	60	5262
2026-01-26 23:19:37.29	166.08	25.46	-45.2	-48.7	14.9	0.00e+00	0	44	0	959447040	60	5862
2026-01-26 23:19:38.29	166.21	25.32	-45.1	-48.5	15.0	7.00e-07	0	43	0	960495616	61	5416
2026-01-26 23:19:39.29	166.34	25.17	-45.0	-48.3	15.2	0.00e+00	0	43	0	962592768	61	5320
2026-01-26 23:19:40.29	166.46	25.03	-45.2	-48.7	14.8	2.20e-06	0	44	0	964689920	61	5538
2026-01-26 23:19:41.29	166.59	24.88	-44.9	-48.1	15.4	0.00e+00	0	44	0	966787072	61	5204
2026-01-26 23:19:42.30	166.72	24.74	-44.6	-47.7	15.7	0.00e+00	0	44	0	968884224	61	4978
2026-01-26 23:19:43.30	166.84	24.60	-44.2	-47.2	16.3	0.00e+00	0	44	0	969932800	60	4937
2026-01-26 23:19:44.30	166.97	24.46	-43.5	-46.2	17.2	0.00e+00	0	44	0	972029952	59	4695
2026-01-26 23:19:45.30	167.09	24.31	-43.4	-46.1	17.3	0.00e+00	0	44	0	974127104	58	4900
2026-01-26 23:19:46.31	167.21	24.17	-43.1	-45.6	17.7	0.00e+00	0	44	0	976224256	58	4650
2026-01-26 23:19:47.31	167.33	24.03	-42.7	-45.2	18.1	0.00e+00	0	44	0	978321408	57	4677
2026-01-26 23:19:48.31	167.45	23.89	-42.6	-45.1	18.2	0.00e+00	0	44	0	979369984	57	4627
2026-01-26 23:19:49.31	167.57	23.75	-42.5	-44.9	18.4	0.00e+00	0	44	0	981467136	56	4773
2026-01-26 23:19:50.31	167.69	23.61	-42.8	-45.3	18.1	0.00e+00	0	44	0	983564288	56	5009
2026-01-26 23:19:51.31	167.81	23.48	-43.0	-45.6	17.8	0.00e+00	0	44	0	985661440	56	5167
2026-01-26 23:19:52.31	167.92	23.34	-43.3	-45.9	17.4	0.00e+00	0	44	0	987758592	57	5087
2026-01-26 23:19:53.31	168.04	23.20	-43.7	-46.5	17.0	0.00e+00	0	44	0	988807168	58	5115
2026-01-26 23:19:54.31	168.15	23.07	-44.0	-46.9	16.5	0.00e+00	0	44	0	990904320	58	5390
2026-01-26 23:19:55.31	168.26	22.93	-43.9	-46.8	16.6	0.00e+00	0	43	0	993001472	58	5333
2026-01-26 23:19:56.31	168.38	22.80	-43.9	-46.8	16.6	0.00e+00	0	44	0	995098624	58	5316
2026-01-26 23:19:57.32	168.49	22.66	-44.0	-47.0	16.5	0.00e+00	0	44	0	996147200	59	5119
2026-01-26 23:19:58.32	168.60	22.53	-44.0	-47.1	16.3	0.00e+00	0	44	0	998244352	59	5163
2026-01-26 23:19:59.32	168.71	22.40	-43.8	-46.8	16.6	0.00e+00	0	44	0	1000341504	59	5004
2026-01-26 23:20:00.32	168.81	22.26	-43.5	-46.3	17.1	0.00e+00	0	44	0	1002438656	59	4742
2026-01-26 23:20:01.32	168.92	22.13	-43.2	-45.8	17.5	0.00e+00	0	44	0	1004535808	58	4754
2026-01-26 23:20:02.32	169.03	22.00	-42.8	-45.4	17.9	0.00e+00	0	44	0	1005584384	57	4794
2026-01-26 23:20:03.32	169.13	21.87	-42.7	-45.2	18.1	0.00e+00	0	44	0	1007681536	57	4695
2026-01-26 23:20:04.32	169.24	21.74	-42.6	-45.1	18.2	0.00e+00	0	44	0	1009778688	56	4880
2026-01-26 23:20:05.32	169.34	21.61	-42.5	-45.0	18.2	0.00e+00	0	44	0	1011875840	56	4864
2026-01-26 23:20:06.32	169.45	21.48	-42.5	-45.1	18.2	0.00e+00	0	44	0	1013972992	56	4873
2026-01-26 23:20:07.33	169.55	21.35	-42.6	-45.2	18.1	0.00e+00	0	44	0	1015021568	56	4941
2026-01-26 23:20:08.33	169.65	21.23	-42.9	-45.6	17.8	0.00e+00	0	44	0	1017118720	56	5172
2026-01-26 23:20:09.33	169.75	21.10	-42.7	-45.3	18.0	0.00e+00	0	43	0	1019215872	56	5024
2026-01-26 23:20:10.33	169.85	20.97	-42.9	-45.5	17.9	0.00e+00	0	44	0	1021313024	56	5132
2026-01-26 23:20:11.33	169.95	20.85	-42.9	-45.5	17.9	0.00e+00	0	44	0	1022361600	56	5109
2026-01-26 23:20:12.33	170.05	20.72	-42.7	-45.3	18.0	0.00e+00	0	44	0	1024458752	56	4997
2026-01-26 23:20:13.33	170.15	20.59	-42.8	-45.3	18.0	0.00e+00	0	44	0	1026555904	56	5024
2026-01-26 23:20:14.34	170.24	20.47	-42.7	-45.2	18.1	0.00e+00	0	44	0	1028653056	56	4972
2026-01-26 23:20:15.34	170.34	20.35	-42.6	-45.1	18.1	0.00e+00	0	43	0	1030750208	56	4916
2026-01-26 23:20:16.34	170.43	20.22	-42.5	-45.0	18.2	0.00e+00	0	44	0	1031798784	56	4866
2026-01-26 23:20:17.33	170.53	20.10	-42.4	-44.8	18.4	0.00e+00	0	44	0	1033895936	56	4743
2026-01-26 23:20:18.34	170.62	19.98	-42.0	-44.4	18.8	0.00e+00	0	44	0	1035993088	56	4536
2026-01-26 23:20:19.34	170.72	19.86	-42.1	-44.6	18.7	0.00e+00	0	44	0	1038090240	56	4603
2026-01-26 23:20:20.34	170.81	19.73	-41.7	-44.1	18.9	0.00e+00	0	44	0	1040187392	55	4622
2026-01-26 23:20:21.34	170.90	19.61	-41.9	-44.3	18.8	0.00e+00	0	44	0	1041235968	55	4713
2026-01-26 23:20:22.34	170.99	19.49	-41.7	-44.0	19.0	0.00e+00	0	44	0	1043333120	55	4586
2026-01-26 23:20:23.34	171.08	19.37	-41.6	-43.9	19.1	0.00e+00	0	44	0	1045430272	55	4507
2026-01-26 23:20:24.34	171.17	19.25	-41.8	-44.1	18.9	0.00e+00	0	44	0	1047527424	55	4645
2026-01-26 23:20:25.34	171.26	19.14	-41.6	-43.9	19.1	0.00e+00	0	44	0	1049624576	55	4545
2026-01-26 23:20:26.35	171.35	19.02	-41.6	-43.9	19.1	0.00e+00	0	44	0	1050673152	55	4541
2026-01-26 23:20:27.35	171.44	18.90	-41.8	-44.2	18.9	0.00e+00	0	44	0	1052770304	55	4657
2026-01-26 23:20:28.35	171.52	18.78	-41.9	-44.3	18.8	0.00e+00	0	44	0	1054867456	55	4713
2026-01-26 23:20:29.35	171.61	18.66	-42.1	-44.6	18.5	0.00e+00	0	44	0	1056964608	55	4896
2026-01-26 23:20:30.36	171.70	18.55	-42.0	-44.5	18.6	0.00e+00	0	44	0	1059061760	55	4835
2026-01-26 23:20:31.36	171.78	18.43	-42.3	-44.8	18.3	0.00e+00	0	44	0	1060110336	55	4994
2026-01-26 23:20:32.36	171.87	18.32	-42.6	-45.1	18.0	0.00e+00	0	44	0	1062207488	55	5198
2026-01-26 23:20:33.36	171.95	18.20	-42.6	-45.1	18.0	0.00e+00	0	44	0	1064304640	55	5214
2026-01-26 23:20:34.36	172.03	18.09	-42.8	-45.4	17.9	0.00e+00	0	44	0	1066401792	56	5078
2026-01-26 23:20:35.36	172.12	17.97	-43.1	-45.7	17.6	0.00e+00	0	44	0	1067450368	56	5270
2026-01-26 23:20:36.36	172.20	17.86	-43.3	-46.0	17.3	0.00e+00	0	44	0	1069547520	57	5138
2026-01-26 23:20:37.36	172.28	17.75	-43.6	-46.4	16.9	0.00e+00	0	44	0	1071644672	57	5377
2026-01-26 23:20:38.36	172.36	17.64	-43.6	-46.4	16.9	0.00e+00	0	43	0	1073741824	57	5399
2026-01-26 23:20:39.36	172.44	17.52	-43.7	-46.5	16.8	0.00e+00	0	44	0	1075838976	58	5145
2026-01-26 23:20:40.36	172.52	17.41	-43.6	-46.4	16.9	0.00e+00	0	44	0	1076887552	58	5088
2026-01-26 23:20:41.36	172.60	17.30	-43.7	-46.5	16.8	0.00e+00	0	44	0	1078984704	58	5148
2026-01-26 23:20:42.36	172.68	17.19	-43.6	-46.4	16.9	0.00e+00	0	44	0	1081081856	58	5079
2026-01-26 23:20:43.36	172.76	17.08	-43.5	-46.3	17.0	0.00e+00	0	43	0	1083179008	58	5031
2026-01-26 23:20:44.36	172.83	16.97	-43.7	-46.5	16.8	0.00e+00	0	43	0	1085276160	58	5151
2026-01-26 23:20:45.37	172.91	16.86	-43.6	-46.5	16.8	0.00e+00	0	44	0	1086324736	58	5132
2026-01-26 23:20:46.37	172.99	16.75	-43.5	-46.4	17.0	0.00e+00	0	44	0	1088421888	58	5048
2026-01-26 23:20:47.37	173.06	16.64	-43.4	-46.2	17.1	0.00e+00	0	44	0	1090519040	58	4969
2026-01-26 23:20:48.37	173.14	16.54	-43.2	-46.0	17.3	0.00e+00	0	44	0	1092616192	58	4835
2026-01-26 23:20:49.37	173.21	16.43	-43.2	-45.9	17.3	0.00e+00	0	43	0	1094713344	58	4799
2026-01-26 23:20:50.37	173.29	16.32	-43.1	-45.9	17.4	0.00e+00	0	44	0	1095761920	58	4766
2026-01-26 23:20:51.37	173.36	16.21	-42.9	-45.7	17.5	0.00e+00	0	44	0	1097859072	57	4948
2026-01-26 23:20:52.38	173.44	16.11	-42.8	-45.5	17.8	0.00e+00	0	43	0	1099956224	57	4840
2026-01-26 23:20:53.38	173.51	16.00	-42.8	-45.5	17.7	0.00e+00	0	44	0	1102053376	57	4828
2026-01-26 23:20:54.38	173.58	15.90	-42.5	-45.1	18.1	0.00e+00	0	44	0	1103101952	56	4922
2026-01-26 23:20:55.38	173.65	15.79	-42.5	-45.1	18.1	0.00e+00	0	44	0	1105199104	56	4921
2026-01-26 23:20:56.38	173.72	15.69	-42.6	-45.2	18.0	0.00e+00	0	44	0	1107296256	56	4968
2026-01-26 23:20:57.38	173.80	15.58	-42.4	-45.1	18.1	0.00e+00	0	44	0	1109393408	56	4893
2026-01-26 23:20:58.38	173.87	15.48	-42.4	-45.0	18.2	0.00e+00	0	44	0	1111490560	56	4818
2026-01-26 23:20:59.38	173.94	15.38	-42.2	-44.8	18.4	0.00e+00	0	44	0	1112539136	56	4720
2026-01-26 23:21:00.38	174.01	15.27	-42.2	-44.7	18.4	0.00e+00	0	44	0	1114636288	56	4700
2026-01-26 23:21:01.38	174.07	15.17	-42.2	-44.7	18.4	0.00e+00	0	44	0	1116733440	56	4665
2026-01-26 23:21:02.38	174.14	15.07	-42.1	-44.5	18.6	0.00e+00	0	44	0	1118830592	56	4597
2026-01-26 23:21:03.38	174.21	14.97	-42.2	-44.7	18.4	0.00e+00	0	43	0	1120927744	56	4701
2026-01-26 23:21:04.38	174.28	14.86	-42.1	-44.6	18.6	0.00e+00	0	44	0	1121976320	56	4622
2026-01-26 23:21:05.38	174.35	14.76	-42.2	-44.7	18.4	0.00e+00	0	44	0	1124073472	56	4664
2026-01-26 23:21:06.39	174.41	14.66	-42.1	-44.6	18.5	0.00e+00	0	44	0	1126170624	56	4637
2026-01-26 23:21:07.39	174.48	14.56	-42.2	-44.7	18.4	0.00e+00	0	44	0	1128267776	56	4704
2026-01-26 23:21:08.39	174.55	14.46	-42.2	-44.6	18.5	0.00e+00	0	44	0	1130364928	56	4643
2026-01-26 23:21:09.39	174.61	14.36	-42.2	-44.7	18.4	0.00e+00	0	43	0	1131413504	56	4675
2026-01-26 23:21:10.39	174.68	14.26	-42.1	-44.6	18.6	0.00e+00	0	44	0	1133510656	56	4635
2026-01-26 23:21:11.39	174.74	14.17	-42.0	-44.5	18.6	0.00e+00	0	44	0	1135607808	56	4571
2026-01-26 23:21:12.39	174.81	14.07	-42.0	-44.5	18.6	0.00e+00	0	44	0	1137704960	56	4551
2026-01-26 23:21:13.39	174.87	13.97	-42.2	-44.7	18.4	0.00e+00	0	43	0	1138753536	56	4678
2026-01-26 23:21:14.40	174.94	13.87	-42.1	-44.6	18.5	0.00e+00	0	43	0	1140850688	56	4629
2026-01-26 23:21:15.40	175.00	13.77	-42.2	-44.7	18.5	0.00e+00	0	44	0	1142947840	56	4662
2026-01-26 23:21:16.40	175.06	13.68	-42.4	-44.9	18.2	0.00e+00	0	44	0	1145044992	56	4803
2026-01-26 23:21:17.40	175.12	13.58	-42.3	-44.8	18.3	0.00e+00	0	44	0	1147142144	56	4757
2026-01-26 23:21:18.40	175.19	13.48	-42.4	-45.0	18.2	0.00e+00	0	44	0	1148190720	56	4825
2026-01-26 23:21:19.40	175.25	13.39	-42.5	-45.0	18.1	0.00e+00	0	44	0	1150287872	56	4838
2026-01-26 23:21:20.40	175.31	13.29	-42.5	-45.0	18.2	0.00e+00	0	44	0	1152385024	56	4844
2026-01-26 23:21:21.40	175.37	13.20	-42.6	-45.1	18.0	0.00e+00	0	44	0	1154482176	56	4926
2026-01-26 23:21:22.40	175.43	13.10	-42.5	-45.0	18.1	0.00e+00	0	43	0	1156579328	56	4862
2026-01-26 23:21:23.40	175.49	13.01	-42.5	-45.0	18.1	0.00e+00	0	44	0	1157627904	56	4847
2026-01-26 23:21:24.40	175.55	12.91	-42.6	-45.1	18.1	0.00e+00	0	44	0	1159725056	56	4882
2026-01-26 23:21:25.40	175.61	12.82	-42.5	-45.0	18.1	0.00e+00	0	44	0	1161822208	56	4852
2026-01-26 23:21:26.40	175.67	12.73	-42.5	-45.0	18.2	0.00e+00	0	44	0	1163919360	56	4850
2026-01-26 23:21:27.40	175.73	12.63	-42.6	-45.2	17.9	0.00e+00	0	44	0	1164967936	56	4962
2026-01-26 23:21:28.40	175.79	12.54	-42.5	-45.1	18.0	0.00e+00	0	43	0	1167065088	56	4883
2026-01-26 23:21:29.40	175.84	12.45	-42.6	-45.1	18.0	0.00e+00	0	44	0	1169162240	56	4916
2026-01-26 23:21:30.40	175.90	12.36	-42.6	-45.2	17.9	0.00e+00	0	43	0	1171259392	56	4970
2026-01-26 23:21:31.40	175.96	12.26	-42.6	-45.2	17.9	0.00e+00	0	44	0	1173356544	56	4981
2026-01-26 23:21:32.40	176.02	12.17	-42.6	-45.2	17.9	0.00e+00	0	44	0	1174405120	56	4946
2026-01-26 23:21:33.40	176.07	12.08	-42.5	-45.0	18.1	0.00e+00	0	44	0	1176502272	56	4847
2026-01-26 23:21:34.40	176.13	11.99	-42.5	-45.0	18.1	0.00e+00	0	44	0	1178599424	56	4850
2026-01-26 23:21:35.40	176.19	11.90	-42.4	-44.9	18.2	0.00e+00	0	44	0	1180696576	56	4785
2026-01-26 23:21:36.40	176.24	11.81	-42.3	-44.8	18.3	0.00e+00	0	44	0	1182793728	56	4735
2026-01-26 23:21:37.41	176.30	11.72	-42.3	-44.8	18.3	0.00e+00	0	44	0	1183842304	56	4726
2026-01-26 23:21:38.41	176.35	11.63	-42.2	-44.8	18.2	0.00e+00	0	44	0	1185939456	56	4732
2026-01-26 23:21:39.41	176.41	11.54	-42.3	-44.8	18.2	0.00e+00	0	44	0	1188036608	56	4753
2026-01-26 23:21:40.41	176.46	11.45	-42.4	-45.0	18.1	0.00e+00	0	44	0	1190133760	56	4860
2026-01-26 23:21:41.41	176.52	11.36	-42.3	-45.0	18.1	0.00e+00	0	44	0	1192230912	56	4823
2026-01-26 23:21:42.41	176.57	11.27	-42.3	-45.0	18.1	0.00e+00	0	44	0	1193279488	56	4817
2026-01-26 23:21:43.41	176.62	11.19	-42.4	-45.1	18.0	0.00e+00	0	44	0	1195376640	56	4904
2026-01-26 23:21:44.41	176.68	11.10	-42.3	-45.1	18.0	0.00e+00	0	44	0	1197473792	56	4883
2026-01-26 23:21:45.42	176.73	11.01	-42.5	-45.3	17.8	0.00e+00	0	44	0	1199570944	56	4993
2026-01-26 23:21:46.42	176.78	10.92	-42.3	-45.1	17.9	0.00e+00	0	44	0	1201668096	56	4903
2026-01-26 23:21:47.42	176.84	10.84	-42.3	-45.2	17.9	0.00e+00	0	44	0	1202716672	56	4948
2026-01-26 23:21:48.42	176.89	10.75	-42.4	-45.4	17.7	0.00e+00	0	43	0	1204813824	56	5065
2026-01-26 23:21:49.42	176.94	10.66	-42.5	-45.6	17.4	0.00e+00	0	43	0	1206910976	56	5186
2026-01-26 23:21:50.42	176.99	10.58	-42.5	-45.8	17.3	0.00e+00	0	44	0	1209008128	56	5281
