passes_logs/2026/01/26/T1/T1__20260126_025257_AQUA_rec.log

#Pass ID: 20260126_025257_AQUA
#Satellite: AQUA
#Configuration: AQUA
#almurnet v.1.7.20251203
#Start time: 2026-01-26 02:52:57

#Version: 2.0.20230620
#Station: T1
#Location: 37.570604 lon 55.790049 lat
#TLE: 1 27424U 02022A   26025.50647354  .00001868  00000+0  38363-3 0  9992
#TLE: 2 27424  98.4099 352.1114 0001896  65.7986  47.0097 14.61858879262422

#Time	Az	El	Level	Level2	SNR	BER	BlckErr	Temp	State	Recorded	gain1	gain2
2026-01-26 02:52:57.24	3.40	5.00	-48.7	-70.6	3.8	7.43e-01	0	37	0	0	69	43690
2026-01-26 02:52:58.23	3.31	5.07	-45.5	-69.8	3.7	7.49e-01	0	38	104	0	62	59821
2026-01-26 02:52:59.22	3.22	5.13	-44.5	-69.6	3.7	7.47e-01	0	38	104	0	60	65534
2026-01-26 02:53:00.22	3.13	5.19	-44.4	-69.6	3.7	7.53e-01	0	37	104	0	60	65534
2026-01-26 02:53:01.21	3.03	5.26	-44.5	-69.6	3.7	7.52e-01	0	38	104	0	60	65533
2026-01-26 02:53:02.20	2.94	5.32	-44.4	-69.6	3.7	7.54e-01	0	38	104	0	60	65534
2026-01-26 02:53:03.20	2.85	5.38	-44.4	-69.6	3.7	7.52e-01	0	38	104	0	60	65533
2026-01-26 02:53:04.19	2.76	5.45	-44.4	-69.6	3.7	7.51e-01	0	38	104	0	60	65535
2026-01-26 02:53:05.18	2.67	5.51	-44.5	-69.6	3.7	7.50e-01	0	38	104	0	60	65535
2026-01-26 02:53:06.18	2.57	5.57	-44.5	-69.6	3.8	7.50e-01	0	38	104	0	60	65532
2026-01-26 02:53:07.17	2.48	5.64	-44.4	-69.6	3.8	7.43e-01	0	38	104	0	60	65409
2026-01-26 02:53:08.16	2.38	5.70	-44.4	-69.5	3.8	7.46e-01	0	38	104	0	60	64704
2026-01-26 02:53:09.16	2.29	5.77	-44.4	-69.5	3.8	7.45e-01	0	38	104	0	60	64314
2026-01-26 02:53:10.15	2.19	5.83	-44.4	-69.5	3.8	7.46e-01	0	38	104	0	60	64226
2026-01-26 02:53:11.14	2.10	5.89	-44.4	-69.5	3.8	7.45e-01	0	38	104	0	60	64714
2026-01-26 02:53:12.13	2.00	5.96	-44.4	-69.6	3.8	7.47e-01	0	38	104	0	60	65384
2026-01-26 02:53:13.12	1.91	6.02	-44.4	-69.6	3.8	7.46e-01	0	38	104	0	60	65529
2026-01-26 02:53:14.12	1.81	6.09	-44.4	-69.6	3.7	7.52e-01	0	38	104	0	60	65532
2026-01-26 02:53:15.11	1.71	6.15	-44.4	-69.6	3.7	7.49e-01	0	38	104	0	60	65534
2026-01-26 02:53:16.10	1.61	6.22	-44.4	-69.6	3.7	7.49e-01	0	38	104	0	60	65533
2026-01-26 02:53:17.10	1.52	6.28	-44.4	-69.6	3.7	7.48e-01	0	38	104	0	60	65535
2026-01-26 02:53:18.09	1.42	6.35	-44.4	-69.6	3.7	7.46e-01	0	39	104	0	60	65534
2026-01-26 02:53:19.08	1.32	6.41	-44.4	-69.6	3.7	7.51e-01	0	38	104	0	60	65533
2026-01-26 02:53:20.08	1.22	6.48	-44.4	-69.6	3.7	7.52e-01	0	38	104	0	60	65534
2026-01-26 02:53:21.07	1.12	6.54	-44.4	-69.6	3.7	7.49e-01	0	38	104	0	60	65534
2026-01-26 02:53:22.06	1.02	6.61	-44.4	-69.6	3.7	7.49e-01	0	38	104	0	60	65533
2026-01-26 02:53:23.06	0.91	6.67	-44.4	-69.6	3.8	7.49e-01	0	39	104	0	60	65532
2026-01-26 02:53:24.05	0.81	6.74	-44.4	-69.6	3.8	7.47e-01	0	38	104	0	60	65534
2026-01-26 02:53:25.04	0.71	6.80	-44.4	-69.6	3.8	7.44e-01	0	39	104	0	60	65532
2026-01-26 02:53:26.04	0.61	6.87	-44.4	-69.6	3.8	7.49e-01	0	39	104	0	60	65532
2026-01-26 02:53:27.03	0.50	6.94	-44.4	-69.6	3.8	7.48e-01	0	39	104	0	60	65533
2026-01-26 02:53:28.02	0.40	7.00	-44.4	-69.6	3.8	7.48e-01	0	39	104	0	60	65530
2026-01-26 02:53:29.01	0.29	7.07	-44.4	-69.6	3.8	7.48e-01	0	39	104	0	60	65525
2026-01-26 02:53:30.01	0.19	7.14	-44.4	-69.6	3.8	7.46e-01	0	39	104	0	60	65525
2026-01-26 02:53:31.00	0.08	7.20	-44.4	-69.5	3.8	7.43e-01	0	39	104	0	60	64366
2026-01-26 02:53:31.99	359.98	7.27	-44.4	-69.3	3.8	7.45e-01	0	39	104	0	60	62795
2026-01-26 02:53:32.99	359.87	7.33	-44.4	-69.0	3.8	7.47e-01	0	39	104	0	60	61265
2026-01-26 02:53:33.98	359.76	7.40	-44.4	-69.0	3.8	7.46e-01	0	39	104	0	60	60699
2026-01-26 02:53:34.97	359.65	7.47	-44.4	-69.0	3.8	7.44e-01	0	39	104	0	60	60774
2026-01-26 02:53:35.97	359.54	7.54	-44.4	-69.2	3.8	7.46e-01	0	39	104	0	60	62283
2026-01-26 02:53:36.96	359.44	7.60	-44.4	-69.4	3.8	7.46e-01	0	39	104	0	60	64141
2026-01-26 02:53:37.95	359.33	7.67	-44.4	-69.6	3.8	7.45e-01	0	39	104	0	60	65534
2026-01-26 02:53:38.95	359.21	7.74	-44.4	-69.6	3.7	7.52e-01	0	39	104	0	60	65534
2026-01-26 02:53:39.94	359.10	7.80	-44.4	-69.6	3.7	7.52e-01	0	39	104	0	60	65535
2026-01-26 02:53:40.93	358.99	7.87	-44.3	-69.6	3.7	7.52e-01	0	39	104	0	60	65534
2026-01-26 02:53:41.93	358.88	7.94	-44.3	-69.6	3.7	7.48e-01	0	39	104	0	60	65531
2026-01-26 02:53:42.92	358.77	8.01	-44.3	-69.6	3.8	7.45e-01	0	39	104	0	60	65344
2026-01-26 02:53:43.91	358.66	8.07	-44.3	-69.4	3.8	7.46e-01	0	39	104	0	60	63610
2026-01-26 02:53:44.90	358.54	8.14	-44.3	-69.2	3.8	7.46e-01	0	39	104	0	60	62088
2026-01-26 02:53:45.90	358.43	8.21	-44.3	-69.0	3.8	7.44e-01	0	39	104	0	60	61120
2026-01-26 02:53:46.89	358.31	8.28	-44.3	-69.0	3.8	7.48e-01	0	39	104	0	60	60637
2026-01-26 02:53:47.88	358.20	8.35	-44.3	-68.8	3.8	7.47e-01	0	39	104	0	60	59820
2026-01-26 02:53:48.88	358.08	8.41	-44.3	-68.7	3.8	7.47e-01	0	39	104	0	60	58657
2026-01-26 02:53:49.87	357.96	8.48	-44.3	-68.3	3.8	7.46e-01	0	39	104	0	60	56052
2026-01-26 02:53:50.86	357.85	8.55	-44.2	-67.5	3.8	7.45e-01	0	39	104	0	60	51337
2026-01-26 02:53:51.86	357.73	8.62	-44.1	-66.4	3.8	7.46e-01	0	39	104	0	60	45047
2026-01-26 02:53:52.85	357.61	8.69	-44.0	-64.7	3.8	7.45e-01	0	39	104	0	60	37256
2026-01-26 02:53:53.85	357.49	8.76	-44.1	-63.1	3.8	7.47e-01	0	39	104	0	59	32823
2026-01-26 02:53:54.84	357.37	8.83	-43.8	-61.4	3.8	7.46e-01	0	39	104	0	59	26959
2026-01-26 02:53:55.83	357.25	8.89	-43.4	-60.0	3.8	7.44e-01	0	39	104	0	58	24295
2026-01-26 02:53:56.83	357.13	8.96	-43.1	-59.0	3.8	7.44e-01	0	39	104	0	58	21654
2026-01-26 02:53:57.82	357.01	9.03	-42.8	-58.3	3.8	7.45e-01	0	39	104	0	57	21031
2026-01-26 02:53:58.82	356.88	9.10	-43.5	-59.3	3.8	7.46e-01	0	39	104	0	57	23599
2026-01-26 02:53:59.81	356.76	9.17	-43.9	-60.4	3.8	7.41e-01	0	39	104	0	58	25425
2026-01-26 02:54:00.80	356.64	9.24	-42.9	-58.4	3.8	7.48e-01	0	39	104	0	57	21358
2026-01-26 02:54:01.80	356.51	9.31	-44.8	-65.9	3.7	7.47e-01	0	39	104	0	60	42487
2026-01-26 02:54:02.79	356.39	9.38	-39.7	-55.3	3.8	7.47e-01	0	39	104	0	51	21147
2026-01-26 02:54:03.79	356.26	9.45	-39.6	-55.3	3.8	7.50e-01	0	39	104	0	50	22285
2026-01-26 02:54:04.79	356.13	9.52	-39.4	-55.2	3.8	7.44e-01	0	39	104	0	50	22107
2026-01-26 02:54:05.78	356.01	9.59	-39.4	-54.9	3.8	7.47e-01	0	39	104	0	50	21451
2026-01-26 02:54:06.85	355.87	9.66	-39.8	-54.9	3.8	7.49e-01	0	39	104	0	50	21482
2026-01-26 02:54:07.74	355.75	9.73	-39.9	-54.9	3.7	7.50e-01	0	40	104	0	50	21333
2026-01-26 02:54:08.88	355.61	9.81	-40.1	-54.9	3.9	7.49e-01	0	40	104	0	50	21420
2026-01-26 02:54:09.84	355.48	9.88	-43.6	-57.3	12.3	6.10e-01	0	40	0	1048576	57	18776
2026-01-26 02:54:10.84	355.35	9.95	-42.5	-48.6	20.6	6.07e-01	0	40	0	3145728	56	7311
2026-01-26 02:54:11.83	355.22	10.02	-40.5	-45.1	23.7	6.04e-01	0	40	0	4718592	52	6191
2026-01-26 02:54:12.83	355.08	10.09	-40.6	-44.8	23.8	6.02e-01	0	40	0	6815744	52	5980
2026-01-26 02:54:13.82	354.95	10.16	-40.5	-44.6	24.1	6.05e-01	0	40	0	8388608	52	5814
2026-01-26 02:54:14.82	354.82	10.23	-40.5	-44.6	24.1	6.04e-01	0	40	0	10485760	52	5841
2026-01-26 02:54:15.81	354.68	10.30	-40.5	-44.6	24.1	6.02e-01	0	40	0	12058624	52	5838
2026-01-26 02:54:16.81	354.55	10.37	-40.2	-44.6	24.0	6.04e-01	0	40	0	14155776	52	5852
2026-01-26 02:54:17.80	354.41	10.44	-40.0	-44.7	24.0	6.04e-01	0	40	0	15728640	51	6250
2026-01-26 02:54:18.80	354.28	10.51	-40.0	-44.6	24.2	6.05e-01	0	40	0	17825792	51	6147
2026-01-26 02:54:19.84	354.13	10.59	-39.8	-44.5	24.2	6.04e-01	0	40	0	19922944	51	6110
2026-01-26 02:54:20.82	354.00	10.66	-39.6	-44.5	24.3	6.06e-01	0	40	0	21495808	51	6078
2026-01-26 02:54:21.81	353.86	10.73	-39.4	-44.5	24.3	6.00e-01	0	40	0	23592960	50	6477
2026-01-26 02:54:22.81	353.72	10.80	-39.2	-44.4	24.4	6.04e-01	0	40	0	25165824	50	6393
2026-01-26 02:54:23.81	353.58	10.87	-39.3	-44.4	24.2	6.06e-01	0	40	0	27262976	50	6418
2026-01-26 02:54:24.80	353.44	10.94	-39.3	-44.3	24.4	6.02e-01	0	40	0	28835840	50	6291
2026-01-26 02:54:26.00	353.26	11.03	-39.2	-44.4	24.2	6.03e-01	0	40	0	31457280	50	6366
2026-01-26 02:54:26.86	353.14	11.09	-39.3	-44.3	24.2	6.05e-01	0	40	0	33030144	50	6296
2026-01-26 02:54:28.00	352.98	11.17	-39.5	-44.3	24.2	6.03e-01	0	40	0	35127296	50	6281
2026-01-26 02:54:28.85	352.85	11.23	-39.7	-44.4	24.1	6.06e-01	0	40	0	36700160	50	6349
2026-01-26 02:54:29.99	352.69	11.32	-39.9	-44.3	24.1	6.03e-01	0	40	0	38797312	50	6286
2026-01-26 02:54:30.84	352.56	11.38	-39.9	-44.3	24.1	6.02e-01	0	40	0	40370176	50	6286
2026-01-26 02:54:31.98	352.39	11.46	-40.0	-44.2	24.1	6.04e-01	0	40	0	42467328	50	6264
2026-01-26 02:54:32.83	352.27	11.52	-40.3	-44.3	24.0	6.04e-01	0	40	0	44040192	51	5966
2026-01-26 02:54:33.96	352.10	11.60	-40.5	-44.4	24.0	6.04e-01	0	40	0	46137344	51	6048
2026-01-26 02:54:34.82	351.97	11.67	-40.5	-44.4	24.0	6.04e-01	0	40	0	47710208	51	6052
2026-01-26 02:54:35.95	351.80	11.75	-40.5	-44.5	24.0	6.05e-01	0	40	0	49807360	51	6083
2026-01-26 02:54:36.80	351.67	11.81	-40.6	-44.5	24.1	6.02e-01	0	40	0	51380224	51	6119
2026-01-26 02:54:37.94	351.50	11.89	-40.6	-44.4	24.2	6.05e-01	0	40	0	53477376	51	6049
2026-01-26 02:54:38.79	351.37	11.96	-40.6	-44.4	24.2	6.07e-01	0	40	0	55050240	51	6037
2026-01-26 02:54:40.12	351.16	12.05	-40.7	-44.4	24.2	6.06e-01	0	40	0	57671680	52	5700
2026-01-26 02:54:40.83	351.05	12.10	-40.5	-44.2	24.4	6.03e-01	0	40	0	59244544	52	5533
2026-01-26 02:54:42.11	350.85	12.20	-40.4	-44.0	24.7	6.04e-01	0	40	0	61341696	52	5441
2026-01-26 02:54:42.83	350.74	12.25	-40.4	-44.0	24.7	6.03e-01	0	40	0	62914560	52	5444
2026-01-26 02:54:44.11	350.54	12.34	-40.5	-44.1	24.7	6.04e-01	0	40	0	65011712	52	5465
2026-01-26 02:54:44.85	350.42	12.40	-40.5	-44.0	24.7	6.01e-01	0	40	0	66584576	52	5461
2026-01-26 02:54:46.13	350.22	12.49	-40.5	-44.2	24.4	6.03e-01	0	40	0	69206016	52	5569
2026-01-26 02:54:46.92	350.09	12.55	-40.6	-44.2	24.5	6.05e-01	0	40	0	70254592	52	5584
2026-01-26 02:54:48.12	349.90	12.64	-40.7	-44.0	24.8	6.00e-01	0	40	0	72876032	52	5451
2026-01-26 02:54:49.10	349.74	12.71	-40.7	-44.0	24.9	6.04e-01	0	40	0	74448896	52	5424
2026-01-26 02:54:50.27	349.55	12.79	-40.8	-44.0	24.8	6.02e-01	0	40	0	76546048	52	5461
2026-01-26 02:54:51.12	349.41	12.86	-41.0	-44.0	24.9	6.04e-01	0	40	0	78118912	52	5419
2026-01-26 02:54:52.26	349.22	12.94	-41.2	-43.9	25.0	6.05e-01	0	40	0	80740352	53	5051
2026-01-26 02:54:53.11	349.08	13.00	-41.5	-44.0	25.0	6.05e-01	0	40	0	82313216	53	5116
2026-01-26 02:54:54.25	348.89	13.09	-41.5	-44.0	24.9	6.02e-01	0	40	0	84410368	53	5135
2026-01-26 02:54:55.10	348.75	13.15	-41.5	-44.1	24.9	6.04e-01	0	40	0	85983232	53	5180
2026-01-26 02:54:56.24	348.56	13.23	-41.4	-44.1	24.8	6.02e-01	0	40	0	88080384	53	5189
2026-01-26 02:54:57.09	348.42	13.29	-41.4	-44.3	24.7	6.03e-01	0	40	0	89653248	53	5287
2026-01-26 02:54:58.23	348.22	13.38	-41.3	-44.2	24.6	6.05e-01	0	40	0	91750400	53	5251
2026-01-26 02:54:59.09	348.08	13.44	-41.1	-44.0	24.8	6.06e-01	0	40	0	93323264	53	5156
2026-01-26 02:55:00.23	347.88	13.52	-41.0	-44.0	24.9	6.05e-01	0	40	0	95420416	53	5123
2026-01-26 02:55:01.08	347.73	13.59	-40.9	-43.9	24.9	6.03e-01	0	40	0	96993280	53	5087
2026-01-26 02:55:02.22	347.53	13.67	-40.8	-43.8	25.0	6.03e-01	0	40	0	99090432	53	5000
2026-01-26 02:55:03.07	347.39	13.73	-40.9	-43.9	25.0	6.03e-01	0	40	0	100663296	53	5062
2026-01-26 02:55:04.20	347.19	13.81	-41.0	-43.9	25.0	6.05e-01	0	40	0	102760448	53	5043
2026-01-26 02:55:05.06	347.04	13.88	-41.0	-43.9	25.0	6.04e-01	0	40	0	104333312	53	5044
2026-01-26 02:55:06.19	346.84	13.96	-41.3	-44.1	24.8	6.03e-01	0	40	0	106430464	53	5164
2026-01-26 02:55:07.19	346.66	14.03	-41.4	-44.0	24.9	6.06e-01	0	40	0	108527616	53	5149
2026-01-26 02:55:08.37	346.44	14.12	-41.4	-44.1	24.8	6.04e-01	0	40	0	110624768	53	5193
2026-01-26 02:55:09.22	346.29	14.18	-41.4	-44.1	24.8	6.04e-01	0	40	0	112197632	53	5203
2026-01-26 02:55:10.58	346.04	14.28	-41.2	-44.0	24.9	6.01e-01	0	40	0	114819072	53	5120
2026-01-26 02:55:11.29	345.91	14.33	-41.1	-44.0	24.9	6.05e-01	0	40	0	116391936	53	5146
2026-01-26 02:55:12.57	345.68	14.43	-41.1	-44.1	24.9	6.01e-01	0	40	0	118489088	53	5162
2026-01-26 02:55:13.30	345.54	14.48	-41.0	-44.0	24.9	6.02e-01	0	40	0	120061952	53	5101
2026-01-26 02:55:14.58	345.31	14.57	-40.8	-43.9	25.0	6.08e-01	0	40	0	122159104	53	5054
2026-01-26 02:55:15.29	345.17	14.63	-40.7	-43.9	25.0	6.03e-01	0	40	0	123731968	53	5046
2026-01-26 02:55:16.56	344.94	14.72	-40.7	-43.8	25.0	6.05e-01	0	40	0	125829120	53	5033
2026-01-26 02:55:17.29	344.80	14.77	-40.7	-43.8	25.0	6.02e-01	0	40	0	127401984	53	5000
2026-01-26 02:55:18.57	344.56	14.87	-40.7	-43.7	25.2	6.04e-01	0	40	0	130023424	53	4933
2026-01-26 02:55:19.28	344.42	14.92	-40.8	-43.8	25.1	6.04e-01	0	40	0	131072000	53	5011
2026-01-26 02:55:20.56	344.18	15.01	-41.0	-43.6	25.2	6.04e-01	0	40	0	133693440	53	4926
2026-01-26 02:55:21.27	344.04	15.06	-41.0	-43.7	25.2	6.04e-01	0	40	0	134742016	53	4945
2026-01-26 02:55:22.63	343.78	15.16	-41.2	-43.9	25.0	6.04e-01	0	40	0	137363456	53	5093
2026-01-26 02:55:23.34	343.64	15.21	-41.1	-43.9	25.0	6.04e-01	0	40	0	138936320	53	5092
2026-01-26 02:55:24.62	343.39	15.31	-40.9	-43.9	25.0	6.04e-01	0	40	0	141033472	53	5082
2026-01-26 02:55:25.35	343.24	15.36	-40.9	-43.9	25.0	6.04e-01	0	40	0	142606336	53	5062
2026-01-26 02:55:26.63	342.99	15.45	-40.9	-43.7	25.1	6.05e-01	0	40	0	144703488	53	4981
2026-01-26 02:55:27.37	342.84	15.50	-41.1	-43.8	25.0	6.04e-01	0	40	0	146276352	53	4986
2026-01-26 02:55:28.65	342.59	15.60	-41.3	-43.8	25.0	6.05e-01	0	40	0	148897792	53	5004
2026-01-26 02:55:29.36	342.44	15.65	-41.4	-43.9	25.0	6.03e-01	0	40	0	149946368	53	5060
2026-01-26 02:55:30.64	342.18	15.74	-41.3	-43.8	25.0	6.02e-01	0	40	0	152567808	53	5000
2026-01-26 02:55:31.36	342.04	15.79	-41.3	-43.9	24.9	6.08e-01	0	40	0	153616384	53	5051
2026-01-26 02:55:32.64	341.78	15.88	-41.0	-43.9	24.9	6.04e-01	0	40	0	156237824	53	5059
2026-01-26 02:55:33.48	341.60	15.94	-41.0	-43.9	24.9	6.05e-01	0	40	0	157810688	53	5088
2026-01-26 02:55:34.61	341.37	16.02	-41.0	-43.9	24.9	6.04e-01	0	40	0	159907840	53	5085
2026-01-26 02:55:35.47	341.19	16.08	-41.0	-43.9	24.9	6.02e-01	0	40	0	161480704	53	5066
2026-01-26 02:55:36.60	340.96	16.16	-40.9	-43.8	25.0	6.06e-01	0	40	0	163577856	53	5012
2026-01-26 02:55:37.46	340.78	16.23	-41.0	-43.8	25.0	6.04e-01	0	40	0	165150720	53	5012
2026-01-26 02:55:38.59	340.54	16.31	-41.2	-43.7	25.1	6.03e-01	0	40	0	167247872	53	4982
2026-01-26 02:55:39.45	340.36	16.37	-41.2	-43.7	25.2	6.07e-01	0	40	0	168820736	53	4938
2026-01-26 02:55:40.58	340.12	16.45	-41.2	-43.7	25.2	6.04e-01	0	40	0	170917888	53	4931
2026-01-26 02:55:41.81	339.85	16.53	-41.2	-43.7	25.1	6.03e-01	0	40	0	173539328	53	4962
2026-01-26 02:55:42.67	339.67	16.59	-41.2	-43.8	25.0	6.06e-01	0	40	0	175112192	53	5005
2026-01-26 02:55:43.80	339.42	16.67	-41.3	-43.8	25.1	6.05e-01	0	40	0	177209344	53	5041
2026-01-26 02:55:44.66	339.24	16.73	-41.3	-43.8	25.1	6.04e-01	0	40	0	178782208	53	4993
2026-01-26 02:55:45.80	338.99	16.81	-41.4	-43.8	25.1	6.03e-01	0	40	0	180879360	53	5022
2026-01-26 02:55:46.65	338.80	16.87	-41.4	-43.8	25.1	6.05e-01	0	40	0	182452224	53	5028
2026-01-26 02:55:47.78	338.55	16.95	-41.3	-43.7	24.3	6.05e-01	0	40	0	184549376	53	4982
2026-01-26 02:55:48.64	338.36	17.01	-41.2	-43.7	25.2	6.04e-01	0	40	0	186122240	53	4964
2026-01-26 02:55:49.78	338.11	17.09	-41.2	-43.8	25.1	6.04e-01	0	40	0	188219392	53	4986
2026-01-26 02:55:50.63	337.92	17.15	-41.1	-43.7	25.1	6.05e-01	0	40	0	189792256	53	4969
2026-01-26 02:55:51.88	337.64	17.23	-41.1	-43.8	25.1	6.06e-01	0	40	0	192413696	53	5006
2026-01-26 02:55:52.73	337.44	17.29	-41.2	-43.9	25.1	6.04e-01	0	40	0	193986560	53	5054
2026-01-26 02:55:53.87	337.18	17.37	-41.3	-44.0	24.9	6.05e-01	0	40	0	196083712	53	5108
2026-01-26 02:55:54.72	336.99	17.42	-41.2	-43.9	25.0	6.03e-01	0	40	0	197656576	53	5053
2026-01-26 02:55:55.86	336.73	17.50	-41.2	-43.8	25.1	6.03e-01	0	40	0	199753728	53	5016
2026-01-26 02:55:56.71	336.53	17.56	-41.3	-43.8	25.1	6.03e-01	0	40	0	201326592	53	5040
2026-01-26 02:55:58.09	336.21	17.65	-41.3	-44.0	25.0	6.03e-01	0	40	0	203948032	53	5116
2026-01-26 02:55:58.80	336.05	17.70	-41.2	-43.8	25.0	6.03e-01	0	40	0	205520896	53	5030
2026-01-26 02:56:00.08	335.75	17.78	-41.0	-43.8	25.2	6.04e-01	0	40	0	207618048	53	4993
2026-01-26 02:56:00.79	335.58	17.83	-41.0	-43.8	25.1	6.03e-01	0	40	0	209190912	53	5033
2026-01-26 02:56:02.07	335.28	17.91	-40.8	-43.8	25.1	6.06e-01	0	40	0	211288064	53	5018
2026-01-26 02:56:02.78	335.11	17.96	-40.7	-43.8	25.2	6.02e-01	0	40	0	212860928	53	4988
2026-01-26 02:56:04.06	334.81	18.04	-40.7	-43.8	25.1	6.03e-01	0	40	0	214958080	53	5011
2026-01-26 02:56:04.89	334.61	18.10	-40.8	-43.8	25.1	6.04e-01	0	40	0	216530944	53	5003
2026-01-26 02:56:06.02	334.33	18.17	-41.1	-43.9	25.0	6.05e-01	0	40	0	218628096	53	5079
2026-01-26 02:56:06.88	334.13	18.23	-41.1	-43.7	25.2	6.06e-01	0	40	0	220200960	53	4980
2026-01-26 02:56:08.01	333.85	18.30	-41.2	-43.8	25.0	6.05e-01	0	40	0	222298112	53	5040
2026-01-26 02:56:08.87	333.64	18.35	-41.2	-43.9	25.0	6.04e-01	0	40	0	224395264	53	5085
2026-01-26 02:56:10.00	333.37	18.43	-41.3	-44.1	24.9	6.03e-01	0	40	0	226492416	53	5173
2026-01-26 02:56:10.86	333.15	18.48	-41.4	-44.2	24.7	6.06e-01	0	40	0	228065280	53	5262
2026-01-26 02:56:11.99	332.87	18.55	-41.4	-44.1	24.9	6.03e-01	0	40	0	230162432	53	5170
2026-01-26 02:56:12.85	332.66	18.60	-41.4	-43.9	25.0	6.05e-01	0	40	0	231735296	53	5100
2026-01-26 02:56:13.98	332.38	18.67	-41.6	-44.1	24.8	6.03e-01	0	40	0	233832448	53	5217
2026-01-26 02:56:14.84	332.16	18.73	-41.6	-44.1	24.8	6.02e-01	0	40	0	235405312	53	5177
2026-01-26 02:56:16.10	331.85	18.80	-41.4	-43.9	25.0	6.05e-01	0	40	0	237502464	53	5049
2026-01-26 02:56:16.88	331.65	18.85	-41.4	-43.8	25.1	6.04e-01	0	40	0	239075328	53	5011
2026-01-26 02:56:18.16	331.32	18.93	-41.4	-43.9	25.1	6.03e-01	0	40	0	241696768	53	5051
2026-01-26 02:56:18.90	331.14	18.97	-41.5	-43.9	25.1	6.02e-01	0	40	0	242745344	53	5054
2026-01-26 02:56:20.18	330.81	19.05	-41.6	-44.0	24.9	6.04e-01	0	40	0	245366784	53	5131
2026-01-26 02:56:20.89	330.62	19.09	-41.6	-44.0	24.9	6.02e-01	0	40	0	246415360	53	5143
2026-01-26 02:56:22.17	330.29	19.17	-41.3	-44.0	24.9	6.03e-01	0	40	0	249036800	53	5114
2026-01-26 02:56:22.91	330.10	19.21	-41.2	-44.0	24.9	6.04e-01	0	40	0	250609664	53	5144
2026-01-26 02:56:24.19	329.77	19.28	-41.1	-44.0	24.9	6.06e-01	0	41	0	252706816	53	5134
2026-01-26 02:56:24.90	329.58	19.32	-41.1	-44.0	24.8	6.05e-01	0	40	0	254279680	53	5141
2026-01-26 02:56:26.18	329.25	19.40	-41.1	-44.1	24.7	6.01e-01	0	40	0	256376832	53	5185
2026-01-26 02:56:26.89	329.06	19.44	-41.1	-44.0	24.8	6.06e-01	0	40	0	257949696	53	5142
2026-01-26 02:56:28.17	328.72	19.51	-41.2	-44.0	24.9	6.02e-01	0	40	0	260571136	53	5147
2026-01-26 02:56:28.90	328.53	19.55	-41.3	-44.0	24.9	6.06e-01	0	40	0	261619712	53	5157
2026-01-26 02:56:30.18	328.19	19.62	-41.3	-44.0	24.8	6.04e-01	0	40	0	264241152	53	5155
2026-01-26 02:56:30.89	328.00	19.66	-41.3	-44.0	24.8	6.04e-01	0	40	0	265289728	53	5135
2026-01-26 02:56:32.22	327.64	19.73	-41.3	-44.1	24.6	6.05e-01	0	40	0	267911168	53	5177
2026-01-26 02:56:32.93	327.45	19.77	-41.2	-44.1	24.4	6.02e-01	0	40	0	269484032	53	5164
2026-01-26 02:56:34.21	327.10	19.84	-41.4	-44.1	24.6	6.05e-01	0	40	0	271581184	53	5167
2026-01-26 02:56:35.28	326.81	19.89	-41.5	-44.0	24.8	6.06e-01	0	40	0	273678336	53	5147
2026-01-26 02:56:36.14	326.58	19.94	-41.5	-44.0	24.9	6.02e-01	0	40	0	275251200	53	5127
2026-01-26 02:56:37.28	326.26	20.00	-41.7	-44.2	24.6	6.06e-01	0	40	0	277348352	53	5233
2026-01-26 02:56:38.13	326.03	20.04	-41.7	-44.2	24.7	6.04e-01	0	40	0	278921216	53	5238
2026-01-26 02:56:39.30	325.71	20.10	-41.6	-44.2	24.8	6.03e-01	0	40	0	281018368	54	4928
2026-01-26 02:56:40.15	325.47	20.14	-41.5	-44.1	24.8	6.04e-01	0	40	0	282591232	54	4915
2026-01-26 02:56:41.29	325.16	20.20	-41.6	-44.3	24.6	6.04e-01	0	40	0	285212672	54	5005
2026-01-26 02:56:42.14	324.92	20.24	-41.4	-44.1	24.8	6.05e-01	0	41	0	286785536	54	4913
2026-01-26 02:56:43.28	324.60	20.29	-41.4	-44.2	24.7	6.01e-01	0	40	0	288882688	54	4932
2026-01-26 02:56:44.18	324.35	20.34	-41.5	-44.3	24.7	6.03e-01	0	40	0	290455552	54	5002
2026-01-26 02:56:45.41	324.00	20.39	-41.5	-44.3	24.7	6.03e-01	0	41	0	292552704	54	4986
2026-01-26 02:56:46.27	323.76	20.43	-41.4	-44.2	24.8	6.04e-01	0	40	0	294125568	54	4938
2026-01-26 02:56:47.40	323.44	20.48	-41.5	-44.2	24.8	6.03e-01	0	40	0	296222720	54	4966
2026-01-26 02:56:48.29	323.19	20.52	-41.5	-44.1	24.8	6.04e-01	0	40	0	298319872	54	4890
2026-01-26 02:56:49.62	322.81	20.58	-41.6	-44.2	24.8	6.05e-01	0	40	0	300417024	54	4929
2026-01-26 02:56:50.33	322.60	20.61	-41.7	-44.3	24.7	6.05e-01	0	40	0	301989888	54	5004
2026-01-26 02:56:51.60	322.24	20.67	-41.6	-44.2	24.8	6.06e-01	0	41	0	304087040	54	4979
2026-01-26 02:56:52.33	322.03	20.70	-41.7	-44.3	24.7	6.06e-01	0	40	0	305659904	54	5026
2026-01-26 02:56:53.61	321.66	20.75	-41.5	-44.3	24.8	6.03e-01	0	40	0	308281344	54	4984
2026-01-26 02:56:54.32	321.45	20.78	-41.6	-44.4	24.7	6.06e-01	0	40	0	309329920	54	5056
2026-01-26 02:56:55.60	321.08	20.83	-41.6	-44.5	24.5	6.03e-01	0	40	0	311951360	54	5131
2026-01-26 02:56:56.48	320.83	20.87	-41.6	-44.4	24.7	6.03e-01	0	40	0	313524224	54	5064
2026-01-26 02:56:57.62	320.49	20.91	-41.6	-44.3	24.8	6.02e-01	0	40	0	315621376	54	5041
2026-01-26 02:56:58.48	320.24	20.95	-41.6	-44.4	24.7	6.02e-01	0	40	0	317194240	54	5061
2026-01-26 02:56:59.62	319.91	20.99	-41.5	-44.3	24.8	6.03e-01	0	40	0	319291392	54	5008
2026-01-26 02:57:00.70	319.59	21.03	-41.4	-44.4	24.7	6.04e-01	0	41	0	321388544	54	5054
2026-01-26 02:57:01.71	319.29	21.06	-41.4	-44.4	24.7	6.04e-01	0	40	0	323485696	54	5081
2026-01-26 02:57:02.88	318.94	21.11	-41.4	-44.4	24.7	6.02e-01	0	41	0	325582848	54	5076
2026-01-26 02:57:03.74	318.69	21.14	-41.5	-44.4	24.7	6.02e-01	0	40	0	327155712	54	5076
2026-01-26 02:57:05.10	318.29	21.18	-41.8	-44.5	24.7	6.02e-01	0	40	0	329777152	54	5110
2026-01-26 02:57:05.81	318.07	21.20	-41.8	-44.4	24.6	6.04e-01	0	41	0	330825728	54	5095
2026-01-26 02:57:07.09	317.69	21.25	-42.0	-44.6	24.6	6.05e-01	0	40	0	333447168	54	5184
2026-01-26 02:57:08.26	317.34	21.28	-41.7	-44.3	24.8	6.04e-01	0	40	0	335544320	54	5024
2026-01-26 02:57:09.11	317.09	21.31	-41.7	-44.4	24.7	6.04e-01	0	40	0	337117184	54	5063
2026-01-26 02:57:10.25	316.74	21.34	-41.8	-44.5	24.6	6.04e-01	0	40	0	339214336	54	5102
2026-01-26 02:57:11.10	316.49	21.37	-41.8	-44.3	24.7	6.07e-01	0	41	0	340787200	54	5039
2026-01-26 02:57:12.24	316.14	21.40	-41.8	-44.4	24.7	6.03e-01	0	41	0	342884352	54	5049
2026-01-26 02:57:13.09	315.88	21.42	-41.8	-44.4	24.7	6.04e-01	0	40	0	344457216	54	5085
2026-01-26 02:57:14.23	315.54	21.45	-41.6	-44.3	24.8	6.08e-01	0	40	0	346554368	54	4987
2026-01-26 02:57:15.08	315.28	21.47	-41.7	-44.4	24.7	6.03e-01	0	41	0	348127232	54	5085
2026-01-26 02:57:16.22	314.93	21.50	-41.7	-44.5	24.5	6.03e-01	0	40	0	350224384	54	5133
2026-01-26 02:57:17.07	314.67	21.52	-41.9	-44.7	24.4	6.06e-01	0	40	0	351797248	54	5219
2026-01-26 02:57:18.41	314.27	21.56	-41.7	-44.3	24.7	6.05e-01	0	41	0	354418688	54	5039
2026-01-26 02:57:19.12	314.05	21.57	-41.8	-44.5	24.6	6.07e-01	0	41	0	355991552	54	5134
2026-01-26 02:57:20.40	313.66	21.60	-41.9	-44.5	24.5	6.03e-01	0	40	0	358088704	54	5111
2026-01-26 02:57:21.11	313.44	21.61	-42.0	-44.7	24.3	6.04e-01	0	40	0	359661568	54	5231
2026-01-26 02:57:22.66	312.96	21.65	-42.1	-44.8	24.3	6.05e-01	0	40	0	362283008	54	5290
2026-01-26 02:57:23.37	312.74	21.66	-41.9	-44.5	24.5	6.03e-01	0	40	0	363855872	54	5125
2026-01-26 02:57:24.74	312.32	21.68	-41.9	-44.5	24.5	6.01e-01	0	40	0	366477312	54	5134
2026-01-26 02:57:25.45	312.10	21.70	-41.8	-44.4	24.7	6.02e-01	0	41	0	367525888	54	5061
2026-01-26 02:57:26.78	311.69	21.72	-41.9	-44.6	24.3	6.05e-01	0	40	0	370147328	54	5217
2026-01-26 02:57:27.49	311.47	21.73	-41.9	-44.6	24.5	6.03e-01	0	40	0	371720192	54	5199
2026-01-26 02:57:28.77	311.08	21.75	-41.5	-44.1	24.9	6.01e-01	0	41	0	373817344	54	4887
2026-01-26 02:57:29.48	310.86	21.76	-41.8	-44.5	24.6	6.04e-01	0	41	0	375390208	54	5103
2026-01-26 02:57:30.76	310.46	21.77	-41.7	-44.3	24.8	6.04e-01	0	40	0	377487360	54	5037
2026-01-26 02:57:31.50	310.23	21.78	-42.3	-45.0	24.2	6.04e-01	0	40	0	379060224	55	5109
2026-01-26 02:57:32.78	309.83	21.80	-42.2	-44.8	24.3	6.03e-01	0	40	0	381681664	55	5035
2026-01-26 02:57:33.49	309.61	21.81	-42.1	-44.6	24.4	6.03e-01	0	40	0	382730240	55	4926
2026-01-26 02:57:34.77	309.21	21.82	-42.3	-44.8	24.2	6.02e-01	0	40	0	385351680	55	5038
2026-01-26 02:57:35.50	308.98	21.82	-41.8	-44.2	24.8	6.06e-01	0	40	0	386400256	55	4692
2026-01-26 02:57:36.77	308.59	21.84	-41.9	-44.4	24.6	6.04e-01	0	41	0	389021696	55	4805
2026-01-26 02:57:37.52	308.35	21.84	-42.1	-44.6	24.5	6.05e-01	0	40	0	390594560	55	4884
2026-01-26 02:57:38.79	307.96	21.85	-42.4	-45.0	24.0	6.02e-01	0	40	0	392691712	55	5110
2026-01-26 02:57:39.51	307.73	21.85	-42.8	-45.4	23.6	6.04e-01	0	40	0	394264576	56	5069
2026-01-26 02:57:40.78	307.34	21.86	-42.5	-45.1	23.9	6.02e-01	0	41	0	396361728	56	4910
2026-01-26 02:57:41.49	307.12	21.86	-42.3	-44.8	24.1	6.03e-01	0	40	0	397934592	56	4734
2026-01-26 02:57:42.78	306.71	21.86	-42.9	-45.5	23.5	6.02e-01	0	40	0	400031744	56	5152
2026-01-26 02:57:43.49	306.49	21.87	-42.5	-45.0	24.0	6.04e-01	0	40	0	401604608	56	4853
2026-01-26 02:57:44.77	306.09	21.87	-42.9	-45.6	23.5	6.02e-01	0	40	0	404226048	57	4884
2026-01-26 02:57:45.48	305.87	21.87	-43.4	-46.3	23.0	6.05e-01	0	40	0	405274624	57	5305
2026-01-26 02:57:46.77	305.47	21.87	-42.4	-45.0	24.1	6.04e-01	0	41	0	407896064	56	4870
2026-01-26 02:57:47.48	305.24	21.87	-42.8	-45.4	23.7	6.06e-01	0	40	0	408944640	56	5094
2026-01-26 02:57:48.76	304.84	21.86	-42.6	-45.2	23.9	6.03e-01	0	40	0	411566080	56	4982
2026-01-26 02:57:49.50	304.61	21.86	-42.5	-45.0	24.2	6.05e-01	0	40	0	412614656	56	4832
2026-01-26 02:57:50.78	304.21	21.85	-42.3	-44.8	24.4	6.06e-01	0	40	0	415236096	56	4712
2026-01-26 02:57:51.49	303.99	21.85	-42.2	-44.7	24.5	6.04e-01	0	41	0	416808960	56	4662
2026-01-26 02:57:52.77	303.59	21.84	-42.5	-45.0	24.3	6.01e-01	0	41	0	418906112	56	4847
2026-01-26 02:57:53.60	303.33	21.84	-42.2	-44.6	24.6	6.03e-01	0	41	0	420478976	56	4633
2026-01-26 02:57:54.74	302.98	21.83	-42.3	-44.8	24.3	6.03e-01	0	40	0	422576128	56	4732
2026-01-26 02:57:55.60	302.71	21.82	-42.3	-44.7	24.5	6.03e-01	0	41	0	424148992	55	4980
2026-01-26 02:57:56.73	302.36	21.81	-41.9	-44.3	24.9	6.02e-01	0	41	0	426246144	55	4709
2026-01-26 02:57:57.59	302.09	21.80	-42.4	-44.9	24.3	6.03e-01	0	41	0	427819008	55	5078
2026-01-26 02:57:58.72	301.74	21.79	-42.4	-44.9	24.3	6.05e-01	0	40	0	429916160	55	5055
2026-01-26 02:57:59.57	301.47	21.78	-42.7	-45.2	24.0	6.04e-01	0	40	0	431489024	55	5268
2026-01-26 02:58:00.71	301.12	21.76	-41.7	-44.0	25.1	6.04e-01	0	41	0	434110464	55	4597
2026-01-26 02:58:01.57	300.85	21.75	-43.0	-45.6	23.7	6.05e-01	0	40	0	435683328	56	5206
2026-01-26 02:58:02.70	300.50	21.74	-42.3	-44.8	24.4	6.05e-01	0	40	0	437780480	55	5039
2026-01-26 02:58:03.56	300.24	21.72	-42.2	-44.8	24.4	6.03e-01	0	40	0	439353344	55	4992
2026-01-26 02:58:04.69	299.89	21.71	-41.9	-44.3	24.8	6.02e-01	0	40	0	441450496	55	4743
2026-01-26 02:58:05.55	299.62	21.69	-43.0	-45.8	23.6	6.05e-01	0	40	0	443023360	56	5283
2026-01-26 02:58:06.68	299.27	21.67	-42.0	-44.4	24.8	6.01e-01	0	41	0	445120512	55	4791
2026-01-26 02:58:07.54	299.01	21.65	-42.7	-45.3	23.9	6.03e-01	0	41	0	446693376	56	5038
2026-01-26 02:58:08.67	298.66	21.63	-42.0	-44.5	24.6	6.04e-01	0	40	0	448790528	55	4825
2026-01-26 02:58:09.52	298.40	21.62	-43.1	-45.8	23.3	6.03e-01	0	41	0	450363392	57	5001
2026-01-26 02:58:10.66	298.05	21.59	-43.1	-45.9	23.5	6.05e-01	0	40	0	452460544	56	5364
2026-01-26 02:58:11.51	297.79	21.57	-42.3	-44.8	24.1	6.04e-01	0	40	0	454033408	56	4749
2026-01-26 02:58:12.65	297.44	21.55	-42.4	-45.0	24.3	6.04e-01	0	41	0	456130560	56	4833
2026-01-26 02:58:13.61	297.14	21.52	-42.9	-45.6	23.7	6.04e-01	0	41	0	458227712	56	5170
2026-01-26 02:58:14.78	296.79	21.50	-42.6	-45.2	24.0	6.04e-01	0	41	0	460324864	55	5224
2026-01-26 02:58:15.63	296.53	21.47	-42.6	-45.1	23.7	6.04e-01	0	40	0	461897728	57	4643
2026-01-26 02:58:16.77	296.18	21.44	-42.9	-45.5	23.8	6.02e-01	0	40	0	463994880	56	5106
2026-01-26 02:58:17.62	295.92	21.42	-42.2	-44.5	24.4	6.05e-01	0	40	0	465567744	56	4595
2026-01-26 02:58:18.76	295.58	21.39	-42.9	-45.4	23.9	6.03e-01	0	40	0	467664896	56	5084
2026-01-26 02:58:19.61	295.32	21.37	-42.5	-45.0	24.1	6.02e-01	0	40	0	469237760	56	4856
2026-01-26 02:58:20.75	294.98	21.33	-42.5	-45.0	24.3	6.03e-01	0	41	0	471334912	56	4852
2026-01-26 02:58:21.60	294.72	21.31	-42.8	-45.4	24.0	6.05e-01	0	41	0	472907776	56	5043
2026-01-26 02:58:22.74	294.38	21.27	-41.8	-44.1	24.9	6.04e-01	0	41	0	475004928	55	4650
2026-01-26 02:58:23.60	294.12	21.25	-43.3	-46.1	23.1	6.04e-01	0	40	0	476577792	57	5163
2026-01-26 02:58:24.73	293.78	21.21	-41.8	-44.1	24.9	6.03e-01	0	40	0	478674944	55	4651
2026-01-26 02:58:25.58	293.53	21.18	-43.4	-46.2	22.9	6.05e-01	0	40	0	480247808	57	5269
2026-01-26 02:58:26.72	293.19	21.14	-42.0	-44.4	24.6	6.05e-01	0	41	0	482869248	55	4779
2026-01-26 02:58:27.57	292.93	21.11	-42.8	-45.5	23.7	6.03e-01	0	41	0	484442112	56	5118
2026-01-26 02:58:28.71	292.60	21.07	-42.2	-44.6	24.6	6.07e-01	0	41	0	486539264	56	4633
2026-01-26 02:58:29.56	292.34	21.04	-42.6	-45.2	24.1	6.05e-01	0	41	0	488112128	56	4927
2026-01-26 02:58:30.70	292.01	21.00	-42.3	-44.7	24.3	6.03e-01	0	41	0	490209280	56	4699
2026-01-26 02:58:31.55	291.76	20.97	-42.5	-45.0	24.3	6.04e-01	0	40	0	491782144	56	4843
2026-01-26 02:58:32.69	291.42	20.93	-42.4	-44.9	24.3	6.03e-01	0	40	0	493879296	56	4812
2026-01-26 02:58:33.54	291.17	20.89	-42.9	-45.5	23.8	6.07e-01	0	40	0	495452160	56	5143
2026-01-26 02:58:34.68	290.84	20.85	-42.5	-45.0	24.3	6.05e-01	0	40	0	497549312	56	4834
2026-01-26 02:58:35.53	290.59	20.81	-42.6	-45.2	24.1	6.03e-01	0	41	0	499122176	56	4933
2026-01-26 02:58:36.67	290.26	20.77	-42.4	-44.9	24.4	6.04e-01	0	40	0	501219328	56	4774
2026-01-26 02:58:37.82	289.93	20.72	-42.6	-45.2	24.1	6.02e-01	0	40	0	503316480	56	4949
2026-01-26 02:58:38.68	289.68	20.68	-42.2	-44.7	24.6	6.04e-01	0	41	0	504889344	56	4670
2026-01-26 02:58:39.81	289.35	20.64	-42.6	-45.1	24.1	6.04e-01	0	41	0	506986496	56	4914
2026-01-26 02:58:40.67	289.11	20.60	-42.3	-44.8	24.5	6.05e-01	0	41	0	508559360	56	4709
2026-01-26 02:58:41.81	288.78	20.55	-42.6	-45.1	24.3	6.01e-01	0	41	0	511180800	56	4887
2026-01-26 02:58:42.66	288.54	20.51	-42.5	-45.0	24.3	6.05e-01	0	40	0	512753664	56	4829
2026-01-26 02:58:43.80	288.21	20.46	-42.6	-45.0	24.3	6.02e-01	0	40	0	514850816	56	4869
2026-01-26 02:58:44.65	287.97	20.42	-42.8	-45.3	24.0	6.03e-01	0	41	0	516423680	56	5012
2026-01-26 02:58:45.79	287.65	20.37	-42.9	-45.4	23.9	6.03e-01	0	41	0	518520832	56	5091
2026-01-26 02:58:46.64	287.41	20.33	-42.8	-45.4	23.9	6.02e-01	0	41	0	520093696	56	5072
2026-01-26 02:58:47.92	287.05	20.27	-42.5	-45.0	24.3	6.05e-01	0	41	0	522190848	56	4838
2026-01-26 02:58:48.64	286.85	20.23	-42.0	-44.4	24.9	6.04e-01	0	41	0	523763712	56	4512
2026-01-26 02:58:49.92	286.49	20.17	-42.7	-45.2	24.1	6.05e-01	0	41	0	525860864	56	4961
2026-01-26 02:58:50.65	286.29	20.13	-42.3	-44.8	24.4	6.05e-01	0	41	0	527433728	56	4723
2026-01-26 02:58:52.26	285.84	20.05	-42.7	-45.3	24.0	6.03e-01	0	41	0	530579456	56	5041
2026-01-26 02:58:52.85	285.68	20.02	-42.8	-45.4	23.7	6.05e-01	0	41	0	531628032	56	5061
2026-01-26 02:58:54.41	285.25	19.94	-42.3	-44.8	24.5	6.03e-01	0	41	0	534773760	56	4753
2026-01-26 02:58:55.03	285.08	19.91	-42.6	-45.1	24.2	6.03e-01	0	41	0	535822336	56	4924
2026-01-26 02:58:56.60	284.65	19.83	-42.6	-45.1	24.2	6.05e-01	0	41	0	538443776	56	4894
2026-01-26 02:58:57.23	284.48	19.79	-42.8	-45.4	23.9	6.04e-01	0	41	0	540016640	56	5089
2026-01-26 02:58:58.76	284.07	19.71	-42.6	-45.1	24.2	6.05e-01	0	40	0	542638080	56	4907
2026-01-26 02:58:59.47	283.87	19.67	-43.0	-45.7	23.7	6.02e-01	0	41	0	544210944	56	5228
2026-01-26 02:59:00.75	283.53	19.60	-42.8	-45.3	24.0	6.01e-01	0	40	0	546308096	56	5023
2026-01-26 02:59:01.47	283.34	19.56	-43.0	-45.7	23.6	6.02e-01	0	41	0	547880960	56	5230
2026-01-26 02:59:02.75	283.00	19.49	-43.3	-46.1	23.0	6.02e-01	0	41	0	549978112	57	5198
2026-01-26 02:59:03.48	282.80	19.45	-42.8	-45.4	23.8	6.03e-01	0	41	0	551550976	57	4801
2026-01-26 02:59:04.76	282.46	19.38	-43.4	-46.2	23.2	6.03e-01	0	41	0	554172416	57	5277
2026-01-26 02:59:05.47	282.28	19.34	-43.1	-45.8	23.3	6.05e-01	0	41	0	555220992	57	5005
2026-01-26 02:59:06.75	281.94	19.26	-42.6	-45.1	24.2	6.04e-01	0	41	0	557842432	56	4873
2026-01-26 02:59:07.72	281.69	19.21	-43.4	-46.2	23.2	6.03e-01	0	40	0	559415296	57	5249
2026-01-26 02:59:08.99	281.36	19.13	-42.8	-45.3	24.0	6.04e-01	0	41	0	562036736	57	4743
2026-01-26 02:59:09.70	281.17	19.09	-43.2	-45.9	23.5	6.07e-01	0	41	0	563085312	57	5055
2026-01-26 02:59:10.98	280.84	19.01	-43.8	-46.7	22.5	6.02e-01	0	41	0	565706752	58	5273
2026-01-26 02:59:11.70	280.66	18.97	-43.0	-45.6	23.5	6.02e-01	0	41	0	566755328	58	4650
2026-01-26 02:59:12.98	280.33	18.89	-43.4	-46.2	23.2	6.05e-01	0	41	0	569376768	57	5255
2026-01-26 02:59:13.72	280.14	18.85	-43.6	-46.5	22.9	6.04e-01	0	40	0	570949632	58	5113
2026-01-26 02:59:15.00	279.82	18.77	-42.6	-45.0	24.3	6.05e-01	0	40	0	573046784	57	4593
2026-01-26 02:59:15.73	279.63	18.73	-42.8	-45.3	24.0	6.03e-01	0	40	0	574619648	57	4734
2026-01-26 02:59:17.01	279.31	18.65	-42.5	-45.0	24.3	6.04e-01	0	41	0	576716800	57	4559
2026-01-26 02:59:17.72	279.14	18.60	-42.1	-44.5	24.7	6.07e-01	0	40	0	578289664	56	4576
2026-01-26 02:59:19.00	278.82	18.52	-42.7	-45.3	24.1	6.05e-01	0	41	0	580911104	56	4998
2026-01-26 02:59:19.73	278.63	18.48	-42.6	-45.2	24.1	6.05e-01	0	41	0	581959680	56	4929
2026-01-26 02:59:21.01	278.32	18.40	-42.2	-44.7	24.6	6.04e-01	0	40	0	584581120	56	4662
2026-01-26 02:59:21.72	278.14	18.35	-42.4	-44.9	24.3	6.05e-01	0	40	0	585629696	56	4809
2026-01-26 02:59:23.00	277.83	18.27	-42.9	-45.6	23.7	6.06e-01	0	41	0	588251136	56	5212
2026-01-26 02:59:23.71	277.66	18.22	-42.8	-45.4	23.9	6.04e-01	0	41	0	589299712	56	5079
2026-01-26 02:59:24.99	277.35	18.14	-42.6	-45.1	24.1	6.04e-01	0	41	0	591921152	56	4924
2026-01-26 02:59:25.72	277.17	18.09	-42.6	-45.1	24.1	6.02e-01	0	40	0	593494016	56	4924
2026-01-26 02:59:27.00	276.86	18.01	-42.3	-44.8	24.5	6.05e-01	0	40	0	595591168	56	4712
2026-01-26 02:59:27.73	276.69	17.96	-42.1	-44.5	24.7	6.06e-01	0	41	0	597164032	56	4579
2026-01-26 02:59:29.00	276.39	17.88	-42.4	-44.8	24.5	6.03e-01	0	41	0	599261184	56	4736
2026-01-26 02:59:29.72	276.21	17.83	-42.6	-45.1	24.2	6.04e-01	0	40	0	600834048	56	4913
2026-01-26 02:59:31.00	275.91	17.75	-42.5	-45.0	24.3	6.05e-01	0	41	0	602931200	56	4826
2026-01-26 02:59:31.71	275.75	17.70	-42.4	-44.8	24.4	6.04e-01	0	41	0	604504064	56	4759
2026-01-26 02:59:33.16	275.41	17.60	-42.2	-44.6	24.7	6.05e-01	0	40	0	607125504	56	4622
2026-01-26 02:59:33.87	275.24	17.55	-42.2	-44.7	24.6	6.04e-01	0	41	0	608698368	56	4664
2026-01-26 02:59:35.22	274.93	17.46	-42.1	-44.6	24.7	6.05e-01	0	40	0	610795520	56	4619
2026-01-26 02:59:35.93	274.77	17.41	-42.2	-44.6	24.6	6.04e-01	0	41	0	612368384	56	4637
2026-01-26 02:59:37.21	274.47	17.33	-42.2	-44.6	24.6	6.06e-01	0	41	0	614989824	56	4642
2026-01-26 02:59:37.93	274.31	17.28	-42.2	-44.7	24.6	6.05e-01	0	41	0	616038400	56	4661
2026-01-26 02:59:39.21	274.02	17.19	-42.3	-44.8	24.4	6.04e-01	0	41	0	618659840	56	4706
2026-01-26 02:59:39.92	273.86	17.14	-42.3	-44.9	24.4	6.03e-01	0	41	0	619708416	56	4777
2026-01-26 02:59:41.20	273.57	17.05	-42.3	-44.8	24.4	6.02e-01	0	41	0	622329856	56	4751
2026-01-26 02:59:41.92	273.41	17.00	-42.2	-44.8	24.4	6.05e-01	0	41	0	623378432	56	4733
2026-01-26 02:59:43.19	273.12	16.91	-42.1	-44.6	24.6	6.03e-01	0	41	0	625999872	56	4614
2026-01-26 02:59:43.92	272.96	16.86	-42.1	-44.6	24.5	6.00e-01	0	41	0	627572736	56	4645
2026-01-26 02:59:45.20	272.68	16.77	-42.1	-44.6	24.5	6.05e-01	0	41	0	629669888	56	4645
2026-01-26 02:59:46.00	272.51	16.72	-42.2	-44.8	24.4	6.06e-01	0	41	0	631242752	56	4718
2026-01-26 02:59:47.14	272.26	16.64	-42.3	-44.8	24.4	6.04e-01	0	41	0	633339904	56	4709
2026-01-26 02:59:48.20	272.03	16.56	-42.3	-44.8	24.4	6.01e-01	0	41	0	635437056	56	4735
2026-01-26 02:59:49.26	271.80	16.49	-42.3	-44.8	24.4	6.04e-01	0	41	0	637534208	56	4744
2026-01-26 02:59:50.27	271.58	16.42	-42.3	-44.8	24.4	6.07e-01	0	41	0	639107072	56	4737
2026-01-26 02:59:51.26	271.37	16.35	-42.3	-44.8	24.5	6.05e-01	0	41	0	641204224	56	4709
2026-01-26 02:59:52.45	271.12	16.26	-42.2	-44.7	24.5	6.03e-01	0	41	0	643301376	56	4664
2026-01-26 02:59:53.33	270.93	16.20	-42.3	-44.7	24.5	6.05e-01	0	41	0	644874240	56	4703
2026-01-26 02:59:54.66	270.65	16.11	-42.3	-44.9	24.4	6.02e-01	0	41	0	647495680	56	4774
2026-01-26 02:59:55.37	270.50	16.06	-42.3	-44.9	24.4	6.05e-01	0	41	0	649068544	56	4769
2026-01-26 02:59:56.65	270.23	15.96	-42.5	-45.1	24.2	6.05e-01	0	41	0	651165696	56	4894
2026-01-26 02:59:57.36	270.09	15.91	-42.4	-45.0	24.3	6.01e-01	0	41	0	652738560	56	4820
2026-01-26 02:59:58.64	269.82	15.82	-42.5	-45.0	24.2	6.02e-01	0	41	0	654835712	56	4837
2026-01-26 02:59:59.35	269.68	15.77	-42.5	-45.0	24.2	6.03e-01	0	41	0	656408576	56	4856
2026-01-26 03:00:00.63	269.42	15.68	-42.4	-45.0	24.2	6.04e-01	0	41	0	658505728	56	4822
2026-01-26 03:00:01.34	269.27	15.63	-42.3	-44.8	24.5	6.04e-01	0	41	0	660078592	56	4723
2026-01-26 03:00:02.62	269.02	15.53	-42.2	-44.7	24.5	6.00e-01	0	41	0	662175744	56	4670
2026-01-26 03:00:03.35	268.87	15.48	-42.3	-44.8	24.4	6.04e-01	0	41	0	663748608	56	4732
2026-01-26 03:00:04.62	268.62	15.39	-42.2	-44.8	24.4	6.06e-01	0	41	0	666370048	56	4754
2026-01-26 03:00:05.33	268.47	15.34	-42.2	-44.8	24.3	6.04e-01	0	41	0	667418624	56	4753
2026-01-26 03:00:06.65	268.21	15.24	-42.3	-44.8	24.3	6.04e-01	0	41	0	670040064	56	4751
2026-01-26 03:00:07.36	268.07	15.19	-42.2	-44.8	24.4	6.00e-01	0	41	0	671088640	56	4740
2026-01-26 03:00:08.64	267.82	15.10	-42.3	-44.8	24.4	6.04e-01	0	41	0	673710080	56	4757
2026-01-26 03:00:09.71	267.62	15.02	-42.3	-44.8	24.4	6.04e-01	0	41	0	675807232	56	4741
2026-01-26 03:00:10.56	267.45	14.96	-42.3	-44.8	24.3	6.02e-01	0	41	0	677380096	56	4751
2026-01-26 03:00:11.70	267.23	14.87	-42.3	-44.8	24.3	6.04e-01	0	41	0	679477248	56	4759
2026-01-26 03:00:12.55	267.07	14.81	-42.2	-44.7	24.4	6.03e-01	0	41	0	681050112	56	4681
2026-01-26 03:00:13.69	266.85	14.73	-42.2	-44.7	24.4	6.06e-01	0	41	0	683147264	56	4685
2026-01-26 03:00:14.54	266.69	14.66	-42.3	-44.8	24.3	6.07e-01	0	41	0	684720128	56	4749
2026-01-26 03:00:15.68	266.48	14.58	-42.4	-45.0	24.2	6.05e-01	0	41	0	686817280	56	4815
2026-01-26 03:00:16.62	266.30	14.51	-42.4	-44.9	24.2	6.04e-01	0	41	0	688914432	56	4809
2026-01-26 03:00:17.62	266.11	14.44	-42.3	-44.9	24.3	6.03e-01	0	41	0	690487296	56	4771
2026-01-26 03:00:18.61	265.93	14.37	-42.3	-44.9	24.2	6.08e-01	0	41	0	692584448	56	4805
2026-01-26 03:00:19.61	265.75	14.29	-42.4	-45.0	24.1	6.03e-01	0	41	0	694157312	56	4827
2026-01-26 03:00:20.60	265.56	14.22	-42.3	-44.9	24.1	6.02e-01	0	41	0	696254464	56	4804
2026-01-26 03:00:21.60	265.38	14.15	-42.4	-45.0	24.0	6.04e-01	0	41	0	697827328	56	4828
2026-01-26 03:00:22.59	265.20	14.07	-42.3	-44.9	24.3	6.04e-01	0	41	0	699924480	56	4760
2026-01-26 03:00:23.59	265.02	14.00	-42.2	-44.7	24.4	6.03e-01	0	41	0	701497344	56	4670
2026-01-26 03:00:24.58	264.84	13.93	-42.3	-44.8	24.2	6.01e-01	0	41	0	703594496	56	4725
2026-01-26 03:00:25.58	264.67	13.85	-42.3	-44.9	24.1	6.02e-01	0	41	0	705691648	56	4762
2026-01-26 03:00:26.57	264.49	13.78	-42.4	-45.0	24.1	6.05e-01	0	41	0	707264512	56	4826
2026-01-26 03:00:27.57	264.31	13.71	-42.4	-45.0	24.0	6.08e-01	0	41	0	709361664	56	4845
2026-01-26 03:00:28.56	264.14	13.63	-42.5	-45.1	24.0	6.03e-01	0	41	0	710934528	56	4877
2026-01-26 03:00:29.55	263.97	13.56	-42.2	-44.8	24.3	6.05e-01	0	41	0	713031680	56	4746
2026-01-26 03:00:30.55	263.79	13.49	-42.1	-44.7	24.4	6.03e-01	0	41	0	714604544	56	4676
2026-01-26 03:00:31.54	263.62	13.41	-42.3	-44.9	24.2	6.06e-01	0	41	0	716701696	56	4790
2026-01-26 03:00:32.53	263.45	13.34	-42.3	-45.0	24.1	6.03e-01	0	41	0	718274560	56	4846
2026-01-26 03:00:33.53	263.28	13.27	-42.4	-45.1	24.1	6.02e-01	0	41	0	720371712	56	4910
2026-01-26 03:00:34.53	263.11	13.19	-42.5	-45.1	24.0	6.04e-01	0	41	0	722468864	56	4913
2026-01-26 03:00:35.52	262.94	13.12	-42.4	-45.0	24.1	6.03e-01	0	41	0	724041728	56	4853
2026-01-26 03:00:36.52	262.77	13.05	-42.5	-45.0	24.1	6.04e-01	0	41	0	726138880	56	4862
2026-01-26 03:00:37.51	262.61	12.97	-42.5	-45.0	24.1	6.01e-01	0	41	0	727711744	56	4866
2026-01-26 03:00:38.51	262.44	12.90	-42.5	-45.1	24.1	6.02e-01	0	41	0	729808896	56	4888
2026-01-26 03:00:39.50	262.28	12.83	-42.4	-45.0	24.2	6.02e-01	0	41	0	731381760	56	4819
2026-01-26 03:00:40.50	262.11	12.75	-42.5	-45.1	24.1	6.04e-01	0	41	0	733478912	56	4881
2026-01-26 03:00:41.49	261.95	12.68	-42.6	-45.2	24.0	6.04e-01	0	41	0	735576064	56	4946
2026-01-26 03:00:42.49	261.79	12.61	-42.6	-45.2	23.9	6.06e-01	0	41	0	737148928	56	4956
2026-01-26 03:00:43.48	261.63	12.54	-42.6	-45.1	24.0	6.05e-01	0	41	0	739246080	56	4923
2026-01-26 03:00:44.48	261.46	12.46	-42.6	-45.1	24.0	6.02e-01	0	41	0	740818944	56	4926
2026-01-26 03:00:45.47	261.31	12.39	-42.5	-45.1	24.0	6.04e-01	0	41	0	742916096	56	4907
2026-01-26 03:00:46.47	261.15	12.32	-42.5	-45.1	24.0	6.05e-01	0	41	0	744488960	56	4883
2026-01-26 03:00:47.46	260.99	12.24	-42.4	-45.0	24.1	6.02e-01	0	41	0	746586112	56	4860
2026-01-26 03:00:48.45	260.83	12.17	-42.4	-45.0	24.0	6.03e-01	0	41	0	748158976	56	4867
2026-01-26 03:00:49.45	260.68	12.10	-42.4	-45.1	24.0	6.03e-01	0	41	0	750256128	56	4885
2026-01-26 03:00:50.44	260.52	12.03	-42.5	-45.2	23.9	6.05e-01	0	41	0	752353280	56	4975
2026-01-26 03:00:51.44	260.37	11.95	-42.6	-45.3	23.8	6.03e-01	0	41	0	753926144	56	5011
2026-01-26 03:00:52.43	260.21	11.88	-42.7	-45.4	23.7	6.04e-01	0	41	0	756023296	56	5070
2026-01-26 03:00:53.42	260.06	11.81	-42.8	-45.5	23.6	6.04e-01	0	41	0	757596160	56	5132
2026-01-26 03:00:54.42	259.91	11.74	-42.5	-45.2	23.8	6.02e-01	0	41	0	759693312	56	4977
2026-01-26 03:00:55.42	259.76	11.66	-42.5	-45.2	23.9	6.04e-01	0	41	0	761266176	56	4955
2026-01-26 03:00:56.44	259.60	11.59	-42.6	-45.3	23.8	6.05e-01	0	41	0	763363328	56	5031
2026-01-26 03:00:57.47	259.45	11.51	-42.6	-45.3	23.8	6.05e-01	0	41	0	765460480	56	5035
2026-01-26 03:00:58.49	259.29	11.44	-42.6	-45.4	23.7	6.03e-01	0	41	0	767033344	56	5063
2026-01-26 03:00:59.49	259.15	11.37	-42.7	-45.5	23.6	6.04e-01	0	41	0	769130496	56	5123
2026-01-26 03:01:00.48	259.00	11.29	-42.7	-45.5	23.6	6.02e-01	0	41	0	770703360	56	5120
2026-01-26 03:01:01.54	258.84	11.22	-42.8	-45.5	23.6	6.03e-01	0	41	0	772800512	56	5148
2026-01-26 03:01:02.42	258.71	11.15	-42.8	-45.5	23.5	6.03e-01	0	41	0	774373376	56	5149
2026-01-26 03:01:03.56	258.55	11.07	-42.8	-45.5	23.6	6.04e-01	0	41	0	776470528	56	5120
2026-01-26 03:01:04.41	258.42	11.01	-42.9	-45.6	23.5	6.03e-01	0	41	0	778043392	56	5180
2026-01-26 03:01:05.55	258.26	10.93	-42.9	-45.7	23.4	6.05e-01	0	41	0	780664832	56	5230
2026-01-26 03:01:06.41	258.14	10.86	-42.9	-45.6	23.5	6.01e-01	0	41	0	782237696	56	5178
2026-01-26 03:01:07.54	257.98	10.78	-43.0	-45.7	23.3	6.03e-01	0	41	0	784334848	56	5264
2026-01-26 03:01:08.39	257.86	10.72	-43.0	-45.8	23.3	6.05e-01	0	41	0	785907712	56	5280
2026-01-26 03:01:09.53	257.70	10.64	-42.9	-45.6	23.5	6.03e-01	0	41	0	788004864	56	5173
2026-01-26 03:01:10.39	257.57	10.58	-42.8	-45.5	23.5	6.04e-01	0	41	0	789577728	56	5155
2026-01-26 03:01:11.52	257.42	10.50	-42.8	-45.6	23.5	6.06e-01	0	41	0	791674880	56	5173
2026-01-26 03:01:12.38	257.30	10.44	-42.8	-45.5	23.5	6.03e-01	0	41	0	793247744	56	5150
2026-01-26 03:01:13.52	257.14	10.35	-42.8	-45.6	23.5	6.07e-01	0	41	0	795344896	56	5178
2026-01-26 03:01:14.37	257.02	10.29	-42.8	-45.6	23.4	6.02e-01	0	41	0	796917760	56	5190
2026-01-26 03:01:15.51	256.87	10.21	-42.8	-45.6	23.4	6.04e-01	0	41	0	799014912	56	5179
2026-01-26 03:01:16.36	256.75	10.15	-42.8	-45.7	23.4	6.07e-01	0	41	0	800587776	56	5222
2026-01-26 03:01:17.49	256.60	10.07	-42.8	-45.7	23.4	6.04e-01	0	41	0	802684928	56	5224
2026-01-26 03:01:18.40	256.48	10.01	-42.8	-45.6	23.4	6.03e-01	0	41	0	804782080	56	5188
2026-01-26 03:01:19.42	256.34	9.93	-42.9	-45.7	23.3	6.03e-01	0	41	0	806354944	56	5238
2026-01-26 03:01:20.42	256.21	9.86	-42.9	-45.7	23.3	6.05e-01	0	41	0	808452096	56	5222
2026-01-26 03:01:21.41	256.08	9.79	-42.9	-45.7	23.3	6.02e-01	0	41	0	810024960	56	5232
2026-01-26 03:01:22.41	255.95	9.72	-43.0	-45.8	23.2	6.05e-01	0	41	0	812122112	56	5304
2026-01-26 03:01:23.40	255.82	9.65	-43.1	-45.9	23.1	6.04e-01	0	41	0	813694976	56	5385
2026-01-26 03:01:24.40	255.69	9.58	-43.0	-45.9	23.1	6.04e-01	0	41	0	815792128	56	5362
2026-01-26 03:01:25.40	255.56	9.51	-43.1	-45.9	23.1	6.05e-01	0	41	0	817889280	56	5397
2026-01-26 03:01:26.39	255.43	9.44	-43.2	-46.0	22.9	6.04e-01	0	41	0	819462144	57	5158
2026-01-26 03:01:27.39	255.30	9.37	-43.2	-46.0	23.0	6.04e-01	0	41	0	821559296	57	5154
2026-01-26 03:01:28.38	255.18	9.30	-43.1	-45.9	23.0	6.08e-01	0	41	0	823132160	57	5090
2026-01-26 03:01:29.38	255.05	9.23	-43.1	-45.9	23.1	6.03e-01	0	41	0	825229312	57	5083
2026-01-26 03:01:30.37	254.92	9.16	-43.1	-45.9	23.0	6.04e-01	0	41	0	826802176	57	5092
2026-01-26 03:01:31.44	254.79	9.08	-43.0	-45.8	23.2	6.04e-01	0	41	0	828899328	57	5005
2026-01-26 03:01:32.33	254.68	9.02	-43.0	-45.8	23.2	6.02e-01	0	41	0	830472192	57	5014
2026-01-26 03:01:33.63	254.52	8.93	-49.9	-70.3	3.9	7.44e-01	0	41	104	831520768	70	39875
2026-01-26 03:01:34.34	254.43	8.88	-49.6	-70.5	3.8	7.46e-01	0	41	104	831520768	71	38681
2026-01-26 03:01:35.84	254.25	8.78	-50.1	-70.7	3.8	7.45e-01	0	41	104	831520768	71	39448
2026-01-26 03:01:36.55	254.16	8.73	-50.4	-70.8	3.8	7.47e-01	0	41	104	831520768	71	39957
2026-01-26 03:01:37.83	254.01	8.64	-50.5	-70.9	3.8	7.45e-01	0	41	104	831520768	71	40210
2026-01-26 03:01:38.55	253.92	8.59	-50.6	-70.9	3.8	7.48e-01	0	41	104	831520768	71	40408
2026-01-26 03:01:39.83	253.76	8.50	-50.5	-70.9	3.8	7.45e-01	0	41	104	831520768	72	38073
2026-01-26 03:01:40.54	253.68	8.45	-50.7	-70.9	3.8	7.43e-01	0	41	104	831520768	72	38222
2026-01-26 03:01:41.85	253.52	8.36	-50.6	-71.0	3.8	7.43e-01	0	41	104	831520768	72	38283
2026-01-26 03:01:42.56	253.44	8.31	-50.7	-71.0	3.8	7.47e-01	0	41	104	831520768	72	38324
2026-01-26 03:01:43.83	253.29	8.22	-50.6	-71.0	3.8	7.46e-01	0	41	104	831520768	72	38312
2026-01-26 03:01:44.54	253.21	8.18	-50.6	-71.0	3.8	7.47e-01	0	41	104	831520768	72	38418
2026-01-26 03:01:45.82	253.06	8.09	-50.3	-71.0	3.8	7.46e-01	0	41	104	831520768	72	38455
2026-01-26 03:01:46.55	252.97	8.04	-50.2	-71.0	3.8	7.44e-01	0	41	104	831520768	72	38486
2026-01-26 03:01:47.82	252.83	7.95	-50.2	-71.0	3.8	7.46e-01	0	41	104	831520768	72	38559
2026-01-26 03:01:48.53	252.75	7.90	-50.1	-71.0	3.8	7.48e-01	0	41	104	831520768	72	38501
2026-01-26 03:01:49.81	252.60	7.81	-50.5	-71.0	3.8	7.45e-01	0	41	104	831520768	72	38478
2026-01-26 03:01:50.52	252.52	7.77	-50.5	-71.0	3.8	7.48e-01	0	41	104	831520768	72	38441
2026-01-26 03:01:51.80	252.38	7.68	-50.5	-71.0	3.8	7.46e-01	0	41	104	831520768	72	38450
2026-01-26 03:01:52.51	252.30	7.63	-50.5	-71.0	3.8	7.44e-01	0	41	104	831520768	72	38402
2026-01-26 03:01:53.85	252.15	7.54	-50.2	-71.0	3.8	7.43e-01	0	41	104	831520768	72	38338
2026-01-26 03:01:54.56	252.07	7.49	-50.1	-70.9	3.8	7.45e-01	0	41	104	831520768	72	38155
2026-01-26 03:01:55.83	251.93	7.41	-50.0	-70.9	3.8	7.48e-01	0	41	104	831520768	72	37983
2026-01-26 03:01:56.56	251.85	7.36	-50.0	-70.9	3.8	7.44e-01	0	41	104	831520768	72	37991
2026-01-26 03:01:57.83	251.71	7.27	-50.0	-70.9	3.8	7.44e-01	0	41	104	831520768	72	38003
2026-01-26 03:01:58.54	251.63	7.22	-50.0	-70.9	3.8	7.43e-01	0	41	104	831520768	72	37929
2026-01-26 03:01:59.82	251.49	7.14	-50.0	-70.9	3.8	7.44e-01	0	41	104	831520768	72	37955
2026-01-26 03:02:00.53	251.42	7.09	-50.0	-70.9	3.8	7.46e-01	0	41	104	831520768	72	37981
2026-01-26 03:02:01.81	251.28	7.00	-50.0	-70.9	3.8	7.44e-01	0	41	104	831520768	72	37952
2026-01-26 03:02:02.52	251.20	6.96	-50.0	-70.9	3.8	7.44e-01	0	41	104	831520768	72	37849
2026-01-26 03:02:03.80	251.07	6.87	-50.0	-70.9	3.8	7.46e-01	0	41	104	831520768	72	37926
2026-01-26 03:02:04.50	251.00	6.82	-50.0	-70.9	3.8	7.47e-01	0	41	104	831520768	72	37932
2026-01-26 03:02:05.78	250.86	6.74	-50.0	-70.9	3.8	7.48e-01	0	41	104	831520768	72	37933
2026-01-26 03:02:06.51	250.78	6.69	-50.0	-70.9	3.8	7.48e-01	0	41	104	831520768	72	37927
2026-01-26 03:02:07.78	250.65	6.61	-50.0	-70.9	3.8	7.44e-01	0	41	104	831520768	72	37887
2026-01-26 03:02:08.51	250.58	6.56	-50.0	-70.9	3.8	7.45e-01	0	41	104	831520768	72	37840
2026-01-26 03:02:09.78	250.45	6.47	-50.0	-70.9	3.8	7.45e-01	0	41	104	831520768	72	37841
2026-01-26 03:02:10.49	250.37	6.43	-50.0	-70.9	3.8	7.48e-01	0	41	104	831520768	72	37850
2026-01-26 03:02:11.77	250.24	6.34	-50.0	-70.9	3.8	7.45e-01	0	41	104	831520768	72	37840
2026-01-26 03:02:12.49	250.17	6.30	-50.0	-70.8	3.8	7.45e-01	0	41	104	831520768	72	37753
2026-01-26 03:02:13.77	250.04	6.21	-50.0	-70.9	3.8	7.45e-01	0	41	104	831520768	72	37891
2026-01-26 03:02:14.48	249.97	6.17	-50.0	-70.8	3.8	7.43e-01	0	41	104	831520768	72	37762
2026-01-26 03:02:15.76	249.84	6.08	-50.0	-70.8	3.8	7.47e-01	0	41	104	831520768	72	37796
2026-01-26 03:02:16.49	249.77	6.03	-50.0	-70.8	3.8	7.48e-01	0	41	104	831520768	72	37740
2026-01-26 03:02:17.76	249.64	5.95	-50.0	-70.9	3.8	7.46e-01	0	41	104	831520768	72	37850
2026-01-26 03:02:18.47	249.57	5.90	-50.0	-70.9	3.8	7.45e-01	0	41	104	831520768	72	37827
2026-01-26 03:02:19.75	249.45	5.82	-50.0	-70.8	3.8	7.51e-01	0	41	104	831520768	72	37782
2026-01-26 03:02:20.47	249.38	5.77	-50.0	-70.8	3.8	7.48e-01	0	41	104	831520768	72	37738
2026-01-26 03:02:21.75	249.26	5.69	-50.0	-70.8	3.8	7.45e-01	0	41	104	831520768	72	37775
2026-01-26 03:02:22.46	249.19	5.65	-50.0	-70.8	3.8	7.47e-01	0	41	104	831520768	72	37735
2026-01-26 03:02:23.74	249.06	5.56	-50.0	-70.8	3.8	7.46e-01	0	41	104	831520768	72	37742
2026-01-26 03:02:24.45	249.00	5.52	-50.0	-70.8	3.8	7.44e-01	0	41	104	831520768	72	37792
2026-01-26 03:02:25.72	248.88	5.44	-50.0	-70.8	3.8	7.44e-01	0	41	104	831520768	72	37756
2026-01-26 03:02:26.43	248.81	5.39	-50.0	-70.8	3.8	7.46e-01	0	41	104	831520768	72	37731
2026-01-26 03:02:27.71	248.69	5.31	-50.0	-70.8	3.8	7.48e-01	0	41	104	831520768	72	37714
2026-01-26 03:02:28.42	248.62	5.26	-50.0	-70.8	3.8	7.46e-01	0	41	104	831520768	72	37735
2026-01-26 03:02:29.70	248.50	5.18	-50.0	-70.8	3.8	7.45e-01	0	41	104	831520768	72	37703
2026-01-26 03:02:30.41	248.44	5.13	-50.0	-70.8	3.8	7.44e-01	0	41	104	831520768	72	37788
2026-01-26 03:02:31.69	248.32	5.05	-50.0	-70.8	3.8	7.47e-01	0	41	104	831520768	72	37740
2026-01-26 03:02:32.40	248.25	5.01	-50.0	-70.8	3.8	7.44e-01	0	41	104	831520768	72	37688
2026-01-26 03:02:33.67	248.14	4.93	-50.0	-70.9	3.8	7.49e-01	0	41	104	831520768	71	40118

#Closed at: 2026-01-26 03:02:34
#Recorded file [831 MB]: D:/Data/31040_260126_055257.dat