passes_logs/2026/01/26/T1/T1__20260126_195811_FENGYUN_3G_rec.log

#Pass ID: 20260126_195811_FENGYUN 3G
#Satellite: FENGYUN 3G
#Configuration: FENGYUN 3G
#almurnet v.1.7.20251203
#Start time: 2026-01-26 19:58:13

#Version: 2.0.20230620
#Station: T1
#Location: 37.570604 lon 55.790049 lat
#TLE: 1 56232U 23055A   26025.91671677  .00046094  00000+0  69205-3 0  9999
#TLE: 2 56232  49.9949 359.5770 0004051  85.3034 274.8396 15.54373411157896

#Time	Az	El	Level	Level2	SNR	BER	BlckErr	Temp	State	Recorded	gain1	gain2
2026-01-26 19:58:13.95	258.10	5.13	-48.8	-67.9	3.8	8.48e-01	0	40	0	0	69	32164
2026-01-26 19:58:14.94	258.00	5.20	-48.8	-68.1	3.8	8.37e-01	0	41	104	0	69	32625
2026-01-26 19:58:15.94	257.89	5.27	-48.8	-68.1	3.8	8.47e-01	0	41	104	0	69	32662
2026-01-26 19:58:16.93	257.79	5.34	-48.8	-68.1	3.8	8.48e-01	0	41	104	0	69	32572
2026-01-26 19:58:17.92	257.68	5.42	-48.8	-68.0	3.8	8.48e-01	0	41	104	0	69	32443
2026-01-26 19:58:18.91	257.57	5.49	-48.7	-67.9	3.8	8.48e-01	0	41	104	0	69	32118
2026-01-26 19:58:19.91	257.47	5.56	-48.7	-67.9	3.8	8.47e-01	0	41	104	0	69	31958
2026-01-26 19:58:20.90	257.36	5.64	-48.7	-67.9	3.8	8.47e-01	0	41	104	0	69	31955
2026-01-26 19:58:21.89	257.25	5.71	-48.8	-67.9	3.8	8.45e-01	0	41	104	0	69	31812
2026-01-26 19:58:22.89	257.14	5.79	-48.7	-67.9	3.8	8.46e-01	0	41	104	0	69	31990
2026-01-26 19:58:23.88	257.02	5.86	-48.8	-68.0	3.8	8.46e-01	0	41	104	0	69	32291
2026-01-26 19:58:24.87	256.91	5.94	-48.8	-68.0	3.8	8.47e-01	0	41	104	0	69	32312
2026-01-26 19:58:25.87	256.80	6.01	-48.8	-68.0	3.8	8.46e-01	0	41	104	0	69	32463
2026-01-26 19:58:26.86	256.68	6.09	-48.8	-68.0	3.8	8.46e-01	0	41	104	0	69	32541
2026-01-26 19:58:27.85	256.57	6.16	-48.7	-68.1	3.8	8.46e-01	0	41	104	0	69	32572
2026-01-26 19:58:28.85	256.45	6.24	-48.8	-68.1	3.8	8.48e-01	0	41	104	0	69	32611
2026-01-26 19:58:29.84	256.34	6.31	-48.8	-68.1	3.8	8.48e-01	0	41	104	0	69	32588
2026-01-26 19:58:30.83	256.22	6.39	-48.8	-68.0	3.8	8.48e-01	0	41	104	0	69	32506
2026-01-26 19:58:31.83	256.10	6.47	-48.7	-68.0	3.8	8.47e-01	0	41	104	0	69	32377
2026-01-26 19:58:32.82	255.98	6.54	-48.7	-68.0	3.8	8.47e-01	0	41	104	0	69	32203
2026-01-26 19:58:33.81	255.86	6.62	-48.7	-67.9	3.8	8.47e-01	0	41	104	0	69	31970
2026-01-26 19:58:34.81	255.74	6.70	-48.8	-67.8	3.8	8.47e-01	0	41	104	0	69	31777
2026-01-26 19:58:35.80	255.62	6.78	-48.8	-67.8	3.8	8.47e-01	0	41	104	0	69	31578
2026-01-26 19:58:36.80	255.49	6.86	-48.8	-67.7	3.8	8.47e-01	0	41	104	0	69	31162
2026-01-26 19:58:37.79	255.37	6.93	-48.8	-67.6	3.8	8.47e-01	0	42	104	0	69	31014
2026-01-26 19:58:38.78	255.25	7.01	-48.8	-67.6	3.8	8.47e-01	0	41	104	0	69	30935
2026-01-26 19:58:39.77	255.12	7.09	-48.8	-67.6	3.8	8.47e-01	0	41	104	0	69	30992
2026-01-26 19:58:40.77	254.99	7.17	-48.7	-67.7	3.8	8.47e-01	0	42	104	0	69	31441
2026-01-26 19:58:41.76	254.87	7.25	-48.8	-67.9	3.8	8.47e-01	0	42	104	0	69	32028
2026-01-26 19:58:42.75	254.74	7.33	-48.8	-68.0	3.8	8.47e-01	0	42	104	0	69	32431
2026-01-26 19:58:43.75	254.61	7.41	-48.8	-68.1	3.8	8.48e-01	0	42	104	0	69	32788
2026-01-26 19:58:44.74	254.48	7.49	-48.8	-68.1	3.8	8.47e-01	0	41	104	0	69	32925
2026-01-26 19:58:45.73	254.34	7.57	-48.8	-68.2	3.8	8.47e-01	0	42	104	0	69	33018
2026-01-26 19:58:46.73	254.21	7.65	-48.8	-68.1	3.8	8.47e-01	0	42	104	0	69	32665
2026-01-26 19:58:47.72	254.08	7.73	-48.8	-67.9	3.8	8.47e-01	0	42	104	0	69	31891
2026-01-26 19:58:48.71	253.94	7.81	-48.8	-67.3	3.8	8.47e-01	0	42	104	0	69	29814
2026-01-26 19:58:49.71	253.81	7.89	-48.8	-66.6	3.8	8.47e-01	0	42	104	0	69	27502
2026-01-26 19:58:50.70	253.67	7.98	-48.7	-66.1	3.8	8.47e-01	0	42	104	0	69	25963
2026-01-26 19:58:51.70	253.53	8.06	-48.8	-66.1	3.8	8.47e-01	0	42	104	0	69	25897
2026-01-26 19:58:52.69	253.39	8.14	-48.8	-66.5	3.8	8.45e-01	0	42	104	0	69	27263
2026-01-26 19:58:53.69	253.25	8.22	-48.8	-67.3	3.8	8.45e-01	0	42	104	0	69	29906
2026-01-26 19:58:54.68	253.11	8.31	-48.8	-67.5	3.8	8.47e-01	0	42	104	0	69	30642
2026-01-26 19:58:55.67	252.97	8.39	-48.8	-66.4	3.8	8.47e-01	0	42	104	0	69	27024
2026-01-26 19:58:56.67	252.82	8.47	-48.7	-65.6	3.8	8.46e-01	0	42	104	0	69	24456
2026-01-26 19:58:57.66	252.68	8.56	-48.7	-64.8	4.2	8.44e-01	0	42	0	0	69	22318
2026-01-26 19:58:58.65	252.53	8.64	-48.7	-64.8	4.1	8.44e-01	0	42	0	0	69	22287
2026-01-26 19:58:59.65	252.38	8.73	-48.6	-62.9	4.8	8.39e-01	0	42	0	0	69	17981
2026-01-26 19:59:00.64	252.24	8.81	-48.3	-58.8	7.9	6.26e-01	0	42	0	0	68	11894
2026-01-26 19:59:01.64	252.08	8.90	-47.4	-54.7	12.0	6.26e-01	0	42	0	0	66	8333
2026-01-26 19:59:02.63	251.93	8.98	-46.5	-52.0	14.8	2.23e-02	0	42	0	0	65	6473
2026-01-26 19:59:03.62	251.78	9.07	-46.2	-51.1	16.3	4.50e-06	0	42	0	0	62	6924
2026-01-26 19:59:04.62	251.63	9.15	-45.6	-50.0	16.9	4.50e-06	0	42	0	0	63	5741
2026-01-26 19:59:05.61	251.47	9.24	-46.6	-52.4	15.3	0.00e+00	0	42	0	0	63	7625
2026-01-26 19:59:06.61	251.32	9.33	-47.1	-54.0	13.1	3.14e-03	0	42	0	0	66	7689
2026-01-26 19:59:07.93	251.11	9.44	-43.4	-46.5	20.5	4.78e-04	0	42	0	0	58	5121
2026-01-26 19:59:08.69	250.99	9.51	-43.3	-46.3	20.8	4.78e-04	0	42	0	0	58	4991
2026-01-26 19:59:09.97	250.78	9.62	-42.8	-45.7	21.3	0.00e+00	0	42	0	0	57	4927
2026-01-26 19:59:10.70	250.66	9.69	-42.2	-44.9	22.1	0.00e+00	0	42	0	0	56	4780
2026-01-26 19:59:11.98	250.45	9.80	-41.5	-44.0	22.7	0.00e+00	0	42	0	0	54	4833
2026-01-26 19:59:12.69	250.33	9.86	-41.2	-43.7	23.0	0.00e+00	0	42	0	0	54	4697
2026-01-26 19:59:13.97	250.12	9.98	-41.0	-43.5	23.1	0.00e+00	0	42	0	0	54	4571
2026-01-26 19:59:14.69	250.00	10.04	-40.9	-43.3	23.4	0.00e+00	0	42	0	0	53	4717
2026-01-26 19:59:15.97	249.78	10.16	-41.1	-43.5	23.3	0.00e+00	0	42	0	0	53	4854
2026-01-26 19:59:16.68	249.66	10.22	-41.0	-43.4	23.4	0.00e+00	0	42	0	0	53	4777
2026-01-26 19:59:17.96	249.44	10.34	-40.8	-43.2	23.5	0.00e+00	0	42	0	0	53	4695
2026-01-26 19:59:18.69	249.31	10.40	-40.9	-43.3	23.5	0.00e+00	0	42	0	0	53	4743
2026-01-26 19:59:20.03	249.08	10.53	-40.8	-43.2	23.6	0.00e+00	0	42	0	0	53	4665
2026-01-26 19:59:20.74	248.95	10.59	-40.5	-42.9	23.9	0.00e+00	0	42	0	0	53	4517
2026-01-26 19:59:22.02	248.73	10.71	-40.4	-42.8	24.0	0.00e+00	0	42	0	0	52	4722
2026-01-26 19:59:22.73	248.60	10.77	-40.2	-42.6	24.2	0.00e+00	0	42	0	0	52	4603
2026-01-26 19:59:24.00	248.37	10.89	-40.2	-42.5	24.2	0.00e+00	0	42	0	0	52	4590
2026-01-26 19:59:24.72	248.24	10.96	-40.3	-42.6	24.1	0.00e+00	0	42	0	0	52	4643
2026-01-26 19:59:26.00	248.00	11.08	-40.2	-42.5	24.3	0.00e+00	0	42	0	0	52	4578
2026-01-26 19:59:26.72	247.87	11.14	-40.2	-42.5	24.3	0.00e+00	0	42	0	0	52	4568
2026-01-26 19:59:28.29	247.57	11.29	-40.1	-42.4	24.4	0.00e+00	0	42	0	0	52	4507
2026-01-26 19:59:28.92	247.45	11.35	-40.0	-42.3	24.4	0.00e+00	0	42	0	0	52	4468
2026-01-26 19:59:30.45	247.16	11.49	-40.0	-42.3	24.5	0.00e+00	0	42	0	0	52	4449
2026-01-26 19:59:31.16	247.02	11.56	-39.9	-42.2	24.7	0.00e+00	0	42	0	0	51	4665
2026-01-26 19:59:32.44	246.77	11.68	-39.8	-42.1	24.7	0.00e+00	0	42	0	0	51	4612
2026-01-26 19:59:33.15	246.63	11.75	-39.8	-42.1	24.7	0.00e+00	0	42	0	0	51	4615
2026-01-26 19:59:34.43	246.38	11.87	-39.6	-41.8	25.0	0.00e+00	0	42	0	0	51	4470
2026-01-26 19:59:35.16	246.23	11.94	-39.5	-41.8	25.1	0.00e+00	0	42	0	0	51	4460
2026-01-26 19:59:36.43	245.97	12.06	-39.4	-41.7	25.1	0.00e+00	0	42	0	0	50	4665
2026-01-26 19:59:37.14	245.83	12.13	-39.2	-41.5	25.3	0.00e+00	0	42	0	0	50	4569
2026-01-26 19:59:38.42	245.57	12.26	-39.3	-41.6	25.2	0.00e+00	0	42	0	0	50	4613
2026-01-26 19:59:39.16	245.41	12.33	-39.4	-41.7	25.2	0.00e+00	0	42	0	0	50	4653
2026-01-26 19:59:40.44	245.15	12.45	-39.5	-41.6	25.2	0.00e+00	0	42	0	0	50	4648
2026-01-26 19:59:41.15	245.00	12.52	-39.6	-41.8	25.0	0.00e+00	0	42	0	0	50	4732
2026-01-26 19:59:42.73	244.66	12.68	-39.6	-41.8	25.1	0.00e+00	0	42	0	0	50	4722
2026-01-26 19:59:43.36	244.52	12.74	-39.7	-41.9	25.0	0.00e+00	0	43	0	0	50	4768
2026-01-26 19:59:44.97	244.17	12.90	-39.5	-41.6	25.2	0.00e+00	0	42	0	0	50	4638
2026-01-26 19:59:45.54	244.05	12.95	-39.4	-41.5	25.3	0.00e+00	0	42	0	0	50	4585
2026-01-26 19:59:47.25	243.67	13.12	-39.2	-41.3	25.5	0.00e+00	0	42	0	0	50	4474
2026-01-26 19:59:47.82	243.54	13.18	-39.2	-41.3	25.5	0.00e+00	0	42	0	0	50	4492
2026-01-26 19:59:49.52	243.16	13.35	-39.4	-41.5	25.3	0.00e+00	0	42	0	0	50	4594
2026-01-26 19:59:50.09	243.03	13.40	-39.3	-41.5	25.3	0.00e+00	0	43	0	0	50	4560
2026-01-26 19:59:51.86	242.62	13.58	-39.3	-41.4	25.3	0.00e+00	0	42	0	0	50	4544
2026-01-26 19:59:52.43	242.49	13.64	-39.3	-41.4	25.4	0.00e+00	0	43	0	0	50	4509
2026-01-26 19:59:54.13	242.09	13.81	-39.4	-41.5	25.2	0.00e+00	0	43	0	0	50	4559
2026-01-26 19:59:54.83	241.92	13.88	-39.2	-41.3	25.6	0.00e+00	0	43	0	0	50	4450
2026-01-26 19:59:56.23	241.58	14.02	-39.1	-41.2	25.6	0.00e+00	0	42	0	0	50	4425
2026-01-26 19:59:56.94	241.41	14.09	-39.0	-41.1	25.7	0.00e+00	0	42	0	0	50	4391
2026-01-26 19:59:58.24	241.09	14.23	-38.7	-40.9	25.9	0.00e+00	0	43	0	0	49	4506
2026-01-26 19:59:58.95	240.92	14.30	-38.7	-40.8	26.0	0.00e+00	0	42	0	0	49	4486
2026-01-26 20:00:00.23	240.60	14.43	-38.6	-40.7	26.0	0.00e+00	0	43	0	0	49	4436
2026-01-26 20:00:01.16	240.36	14.52	-38.7	-40.8	26.0	0.00e+00	0	43	0	0	49	4465
2026-01-26 20:00:02.45	240.04	14.66	-38.8	-40.9	26.0	0.00e+00	0	43	0	0	49	4497
2026-01-26 20:00:03.16	239.85	14.73	-38.6	-40.7	26.1	0.00e+00	0	42	0	0	49	4415
2026-01-26 20:00:04.45	239.52	14.86	-38.5	-40.5	26.2	0.00e+00	0	43	0	0	48	4597
2026-01-26 20:00:05.16	239.34	14.93	-38.6	-40.6	26.2	0.00e+00	0	42	0	0	48	4637
2026-01-26 20:00:06.44	239.00	15.07	-38.6	-40.7	26.1	0.00e+00	0	43	0	0	48	4655
2026-01-26 20:00:07.16	238.81	15.14	-38.7	-40.7	26.1	0.00e+00	0	43	0	0	48	4693
2026-01-26 20:00:08.44	238.47	15.27	-38.4	-40.4	26.3	0.00e+00	0	43	0	0	48	4536
2026-01-26 20:00:09.18	238.27	15.35	-38.2	-40.2	26.5	0.00e+00	0	43	0	0	48	4439
2026-01-26 20:00:10.54	237.89	15.49	-38.2	-40.2	26.5	0.00e+00	0	43	0	0	48	4413
2026-01-26 20:00:11.25	237.70	15.56	-38.2	-40.2	26.5	0.00e+00	0	43	0	0	48	4433
2026-01-26 20:00:12.53	237.34	15.70	-38.4	-40.5	26.3	0.00e+00	0	43	0	0	48	4581
2026-01-26 20:00:13.24	237.14	15.77	-38.4	-40.5	26.2	0.00e+00	0	42	0	0	48	4560
2026-01-26 20:00:14.66	236.74	15.92	-38.5	-40.5	26.3	0.00e+00	0	43	0	0	48	4592
2026-01-26 20:00:15.37	236.54	15.99	-38.6	-40.7	26.1	0.00e+00	0	42	0	0	48	4686
2026-01-26 20:00:16.65	236.17	16.12	-38.8	-40.9	25.9	0.00e+00	0	43	0	0	48	4779
2026-01-26 20:00:17.36	235.96	16.20	-38.6	-40.7	26.1	0.00e+00	0	43	0	0	48	4667
2026-01-26 20:00:18.75	235.56	16.34	-38.7	-40.8	26.0	0.00e+00	0	43	0	0	48	4729
2026-01-26 20:00:19.46	235.35	16.42	-38.6	-40.7	26.1	0.00e+00	0	43	0	0	48	4680
2026-01-26 20:00:20.73	234.97	16.55	-38.5	-40.5	26.3	0.00e+00	0	43	0	0	48	4578
2026-01-26 20:00:21.45	234.75	16.62	-38.4	-40.4	26.3	0.00e+00	0	43	0	0	48	4544
2026-01-26 20:00:22.73	234.36	16.76	-38.1	-40.1	26.6	0.00e+00	0	43	0	0	48	4388
2026-01-26 20:00:23.44	234.14	16.83	-37.8	-39.8	26.8	0.00e+00	0	43	0	0	47	4463
2026-01-26 20:00:24.72	233.75	16.96	-37.7	-39.7	26.9	0.00e+00	0	43	0	0	47	4401
2026-01-26 20:00:25.43	233.53	17.04	-37.9	-39.9	26.8	0.00e+00	0	43	0	0	47	4507
2026-01-26 20:00:26.71	233.12	17.17	-37.9	-39.9	26.7	0.00e+00	0	43	0	0	47	4523
2026-01-26 20:00:27.48	232.88	17.25	-38.0	-40.1	26.6	0.00e+00	0	43	0	0	47	4600
2026-01-26 20:00:28.76	232.47	17.38	-38.2	-40.3	26.3	0.00e+00	0	43	0	0	47	4724
2026-01-26 20:00:29.47	232.24	17.45	-38.1	-40.2	26.5	0.00e+00	0	43	0	0	47	4674
2026-01-26 20:00:30.76	231.82	17.59	-38.1	-40.1	26.5	0.00e+00	0	43	0	0	47	4625
2026-01-26 20:00:31.47	231.59	17.66	-37.9	-40.0	26.7	0.00e+00	0	43	0	0	47	4547
2026-01-26 20:00:32.75	231.16	17.79	-37.6	-39.6	27.0	0.00e+00	0	43	0	0	47	4357
2026-01-26 20:00:33.46	230.93	17.86	-37.5	-39.5	27.1	0.00e+00	0	43	0	0	46	4565
2026-01-26 20:00:34.74	230.50	17.99	-37.3	-39.3	27.3	0.00e+00	0	43	0	0	46	4463
2026-01-26 20:00:35.45	230.26	18.07	-37.1	-39.1	27.4	0.00e+00	0	43	0	0	46	4361
2026-01-26 20:00:36.73	229.82	18.20	-37.0	-38.9	27.5	0.00e+00	0	43	0	0	45	4543
2026-01-26 20:00:37.44	229.57	18.27	-36.9	-38.9	27.6	0.00e+00	0	43	0	0	45	4509
2026-01-26 20:00:38.73	229.12	18.40	-37.3	-39.3	27.3	0.00e+00	0	43	0	0	45	4716
2026-01-26 20:00:39.44	228.87	18.47	-37.3	-39.3	27.2	0.00e+00	0	43	0	0	45	4727
2026-01-26 20:00:40.72	228.42	18.60	-37.8	-39.8	26.8	0.00e+00	0	43	0	0	46	4743
2026-01-26 20:00:41.50	228.14	18.68	-37.9	-40.0	26.6	0.00e+00	0	43	0	0	46	4820
2026-01-26 20:00:42.77	227.69	18.80	-37.9	-39.9	26.8	0.00e+00	0	43	0	0	46	4792
2026-01-26 20:00:43.49	227.43	18.87	-37.8	-39.8	26.8	0.00e+00	0	43	0	0	46	4749
2026-01-26 20:00:44.76	226.96	19.00	-37.6	-39.6	27.0	0.00e+00	0	43	0	0	46	4629
2026-01-26 20:00:45.59	226.66	19.08	-37.5	-39.4	27.2	0.00e+00	0	43	0	0	46	4533
2026-01-26 20:00:47.02	226.12	19.22	-36.8	-38.7	27.6	0.00e+00	0	43	0	0	45	4440
2026-01-26 20:00:47.73	225.86	19.29	-36.9	-38.9	27.6	0.00e+00	0	43	0	0	45	4505
2026-01-26 20:00:49.22	225.29	19.43	-37.0	-39.0	27.6	0.00e+00	0	43	0	0	45	4554
2026-01-26 20:00:49.93	225.02	19.50	-36.9	-38.8	27.6	0.00e+00	0	43	0	0	45	4492
2026-01-26 20:00:51.21	224.53	19.62	-36.9	-38.8	27.6	0.00e+00	0	43	0	0	45	4486
2026-01-26 20:00:52.27	224.12	19.72	-37.1	-39.0	27.5	0.00e+00	0	43	0	0	45	4579
2026-01-26 20:00:53.14	223.78	19.80	-36.8	-38.8	27.7	0.00e+00	0	43	0	0	45	4453
2026-01-26 20:00:54.28	223.33	19.91	-37.2	-39.1	27.4	0.00e+00	0	43	0	0	45	4631
2026-01-26 20:00:55.13	222.99	19.99	-37.3	-39.3	27.3	0.00e+00	0	43	0	0	45	4724
2026-01-26 20:00:56.28	222.54	20.09	-37.3	-39.2	27.3	0.00e+00	0	43	0	0	45	4690
2026-01-26 20:00:57.13	222.19	20.17	-37.3	-39.3	27.2	0.00e+00	0	43	0	0	45	4737
2026-01-26 20:00:58.27	221.73	20.27	-37.4	-39.4	27.0	0.00e+00	0	43	0	0	45	4766
2026-01-26 20:00:59.12	221.39	20.35	-37.5	-39.5	27.1	0.00e+00	0	43	0	0	45	4820
2026-01-26 20:01:00.26	220.92	20.45	-37.4	-39.4	27.2	0.00e+00	0	43	0	0	45	4778
2026-01-26 20:01:01.11	220.57	20.53	-37.4	-39.4	27.2	0.00e+00	0	43	0	0	45	4787
2026-01-26 20:01:02.49	219.99	20.64	-37.1	-39.1	27.4	0.00e+00	0	43	0	0	45	4615
2026-01-26 20:01:03.20	219.69	20.71	-37.0	-39.0	27.6	0.00e+00	0	43	0	0	45	4546
2026-01-26 20:01:04.48	219.15	20.81	-36.9	-38.8	27.7	0.00e+00	0	43	0	0	45	4484
2026-01-26 20:01:05.21	218.84	20.87	-36.7	-38.6	27.9	0.00e+00	0	43	0	0	45	4353
2026-01-26 20:01:06.49	218.29	20.98	-36.6	-38.5	27.8	0.00e+00	0	43	0	0	45	4337
2026-01-26 20:01:07.20	217.99	21.04	-36.8	-38.7	27.7	0.00e+00	0	43	0	0	45	4439
2026-01-26 20:01:08.47	217.44	21.14	-36.8	-38.8	27.8	0.00e+00	0	43	0	0	45	4446
2026-01-26 20:01:09.19	217.12	21.20	-36.7	-38.6	27.8	0.00e+00	0	43	0	0	45	4367
2026-01-26 20:01:10.47	216.56	21.30	-36.6	-38.5	27.9	0.00e+00	0	43	0	0	45	4340
2026-01-26 20:01:11.18	216.25	21.35	-36.7	-38.6	27.9	0.00e+00	0	43	0	0	45	4352
2026-01-26 20:01:12.46	215.68	21.45	-36.4	-38.3	28.0	0.00e+00	0	43	0	0	44	4472
2026-01-26 20:01:13.17	215.36	21.50	-36.4	-38.3	28.0	0.00e+00	0	43	0	0	44	4491
2026-01-26 20:01:14.45	214.79	21.59	-36.4	-38.4	28.0	0.00e+00	0	43	0	0	44	4504
2026-01-26 20:01:15.17	214.46	21.64	-36.4	-38.3	28.0	0.00e+00	0	43	0	0	44	4470
2026-01-26 20:01:16.46	213.88	21.73	-36.3	-38.2	28.1	0.00e+00	0	43	0	0	44	4435
2026-01-26 20:01:17.16	213.56	21.78	-36.3	-38.2	28.1	0.00e+00	0	43	0	0	44	4418
2026-01-26 20:01:18.44	212.97	21.87	-36.4	-38.3	28.1	0.00e+00	0	43	0	0	44	4448
2026-01-26 20:01:19.17	212.63	21.92	-36.5	-38.4	28.0	0.00e+00	0	43	0	0	44	4540
2026-01-26 20:01:20.45	212.04	22.00	-36.9	-38.8	27.7	0.00e+00	0	43	0	0	44	4724
2026-01-26 20:01:21.17	211.70	22.04	-36.9	-38.8	27.7	0.00e+00	0	43	0	0	44	4743
2026-01-26 20:01:22.77	210.95	22.14	-36.6	-38.5	27.9	0.00e+00	0	43	0	0	44	4574
2026-01-26 20:01:23.34	210.69	22.18	-36.6	-38.6	27.9	0.00e+00	0	43	0	0	44	4602
2026-01-26 20:01:25.04	209.88	22.27	-36.5	-38.5	27.9	0.00e+00	0	43	0	0	44	4547
2026-01-26 20:01:25.61	209.61	22.31	-36.4	-38.3	28.1	0.00e+00	0	43	0	0	44	4481
2026-01-26 20:01:27.31	208.80	22.40	-36.4	-38.3	28.0	0.00e+00	0	43	0	0	44	4470
2026-01-26 20:01:27.88	208.52	22.43	-36.2	-38.1	28.1	0.00e+00	0	43	0	0	44	4371
2026-01-26 20:01:29.57	207.71	22.51	-36.3	-38.2	28.2	0.00e+00	0	43	0	0	44	4407
2026-01-26 20:01:30.14	207.43	22.54	-36.4	-38.3	28.1	0.00e+00	0	43	0	0	44	4492
2026-01-26 20:01:31.85	206.60	22.62	-36.3	-38.1	28.3	0.00e+00	0	43	0	0	44	4390
2026-01-26 20:01:32.41	206.33	22.64	-36.4	-38.3	28.0	0.00e+00	0	43	0	0	44	4485
2026-01-26 20:01:34.12	205.49	22.71	-35.8	-37.7	28.4	0.00e+00	0	43	0	0	43	4430
2026-01-26 20:01:34.69	205.21	22.74	-35.9	-37.8	28.4	0.00e+00	0	43	0	0	43	4447
2026-01-26 20:01:36.39	204.37	22.80	-35.9	-37.8	28.4	0.00e+00	0	43	0	0	43	4463
2026-01-26 20:01:36.96	204.09	22.82	-35.9	-37.8	28.4	0.00e+00	0	43	0	0	43	4485
2026-01-26 20:01:38.67	203.24	22.88	-36.2	-38.1	28.1	0.00e+00	0	43	0	0	43	4632
2026-01-26 20:01:39.50	202.83	22.90	-36.1	-38.0	28.2	0.00e+00	0	43	0	0	43	4546
2026-01-26 20:01:40.64	202.26	22.94	-35.8	-37.6	28.5	0.00e+00	0	43	0	0	43	4391
2026-01-26 20:01:41.49	201.83	22.96	-35.8	-37.7	28.5	0.00e+00	0	43	0	0	43	4436
2026-01-26 20:01:42.65	201.25	22.99	-35.9	-37.8	28.4	0.00e+00	0	43	0	0	43	4461
2026-01-26 20:01:43.50	200.83	23.01	-35.9	-37.7	28.3	0.00e+00	0	43	0	0	43	4438
2026-01-26 20:01:44.64	200.25	23.03	-36.0	-37.9	28.3	0.00e+00	0	43	0	0	43	4520
2026-01-26 20:01:45.49	199.83	23.05	-36.0	-37.9	28.4	0.00e+00	0	43	0	0	43	4500
2026-01-26 20:01:46.62	199.26	23.07	-36.2	-38.0	28.2	0.00e+00	0	43	0	0	43	4589
2026-01-26 20:01:47.48	198.82	23.08	-36.4	-38.4	27.9	0.00e+00	0	43	0	0	43	4761
2026-01-26 20:01:48.62	198.25	23.09	-36.5	-38.4	27.8	0.00e+00	0	43	0	0	43	4807
2026-01-26 20:01:49.61	197.74	23.10	-36.5	-38.4	27.9	0.00e+00	0	43	0	0	43	4796
2026-01-26 20:01:50.78	197.15	23.11	-36.9	-38.8	27.7	0.00e+00	0	43	0	0	44	4730
2026-01-26 20:01:51.63	196.72	23.12	-37.0	-38.9	27.6	0.00e+00	0	43	0	0	44	4792
2026-01-26 20:01:52.97	196.04	23.12	-36.6	-38.6	27.9	0.00e+00	0	43	0	0	44	4613
2026-01-26 20:01:53.68	195.68	23.13	-36.6	-38.5	28.0	0.00e+00	0	43	0	0	44	4564
2026-01-26 20:01:55.17	194.93	23.13	-36.4	-38.4	28.1	0.00e+00	0	43	0	0	44	4498
2026-01-26 20:01:55.88	194.57	23.12	-36.3	-38.2	28.2	0.00e+00	0	43	0	0	44	4424
2026-01-26 20:01:57.22	193.89	23.12	-36.5	-38.4	28.0	0.00e+00	0	43	0	0	44	4537
2026-01-26 20:01:57.93	193.53	23.11	-36.5	-38.5	28.0	0.00e+00	0	43	0	0	44	4551
2026-01-26 20:01:59.27	192.85	23.10	-36.6	-38.5	28.0	0.00e+00	0	43	0	0	44	4587
2026-01-26 20:01:59.98	192.49	23.09	-36.9	-38.8	27.8	0.00e+00	0	43	0	0	44	4753
2026-01-26 20:02:01.26	191.84	23.07	-37.2	-39.1	27.5	0.00e+00	0	43	0	0	45	4641
2026-01-26 20:02:01.99	191.48	23.06	-36.9	-38.8	27.6	0.00e+00	0	43	0	0	45	4491
2026-01-26 20:02:03.27	190.83	23.04	-37.3	-39.2	27.4	0.00e+00	0	43	0	0	45	4691
2026-01-26 20:02:03.99	190.47	23.03	-37.5	-39.5	27.0	0.00e+00	0	43	0	0	45	4831
2026-01-26 20:02:05.27	189.82	23.00	-37.4	-39.4	27.2	0.00e+00	0	43	0	0	46	4508
2026-01-26 20:02:05.99	189.46	22.98	-37.0	-38.9	27.7	0.00e+00	0	43	0	0	45	4540
2026-01-26 20:02:07.26	188.83	22.95	-36.7	-38.7	27.8	0.00e+00	0	43	0	0	45	4411
2026-01-26 20:02:07.98	188.47	22.93	-36.6	-38.5	27.9	0.00e+00	0	43	0	0	45	4331
2026-01-26 20:02:09.25	187.83	22.89	-36.2	-38.1	28.2	0.00e+00	0	43	0	0	44	4372
2026-01-26 20:02:10.11	187.40	22.87	-36.3	-38.2	28.2	0.00e+00	0	43	0	0	44	4410
2026-01-26 20:02:11.24	186.84	22.83	-35.6	-37.5	28.6	0.00e+00	0	43	0	0	43	4316
2026-01-26 20:02:12.09	186.42	22.80	-35.6	-37.5	28.6	0.00e+00	0	43	0	0	43	4319
2026-01-26 20:02:13.23	185.86	22.76	-35.8	-37.6	28.5	0.00e+00	0	43	0	0	43	4386
2026-01-26 20:02:14.09	185.44	22.72	-35.8	-37.7	28.4	0.00e+00	0	43	0	0	43	4427
2026-01-26 20:02:15.22	184.88	22.68	-35.9	-37.8	28.3	0.00e+00	0	43	0	0	43	4485
2026-01-26 20:02:16.07	184.47	22.64	-35.9	-37.8	28.3	0.00e+00	0	43	0	0	43	4464
2026-01-26 20:02:17.21	183.91	22.59	-35.7	-37.5	28.6	0.00e+00	0	43	0	0	43	4331
2026-01-26 20:02:18.07	183.49	22.55	-35.5	-37.4	28.6	0.00e+00	0	43	0	0	43	4266
2026-01-26 20:02:19.20	182.94	22.49	-35.4	-37.2	28.8	0.00e+00	0	43	0	0	42	4426
2026-01-26 20:02:20.06	182.53	22.45	-35.3	-37.1	28.9	0.00e+00	0	43	0	0	42	4379
2026-01-26 20:02:21.19	181.99	22.39	-35.7	-37.5	28.5	0.00e+00	0	43	0	0	42	4587
2026-01-26 20:02:22.05	181.57	22.35	-36.0	-37.9	28.3	0.00e+00	0	43	0	0	42	4800
2026-01-26 20:02:23.19	181.03	22.28	-36.3	-38.2	28.0	0.00e+00	0	43	0	0	43	4655
2026-01-26 20:02:24.04	180.63	22.24	-36.3	-38.2	28.1	0.00e+00	0	43	0	0	43	4660
2026-01-26 20:02:25.17	180.09	22.17	-36.3	-38.2	28.0	0.00e+00	0	43	0	0	43	4703
2026-01-26 20:02:26.03	179.69	22.12	-36.2	-38.1	28.1	0.00e+00	0	43	0	0	43	4640
2026-01-26 20:02:27.16	179.16	22.05	-35.9	-37.8	28.2	0.00e+00	0	43	0	0	43	4486
2026-01-26 20:02:28.33	178.61	21.97	-35.7	-37.6	28.5	0.00e+00	0	43	0	0	43	4374
2026-01-26 20:02:29.19	178.21	21.92	-35.8	-37.7	28.4	0.00e+00	0	43	0	0	43	4402
2026-01-26 20:02:30.32	177.69	21.84	-36.1	-38.0	28.2	0.00e+00	0	43	0	0	43	4570
2026-01-26 20:02:31.40	177.20	21.77	-36.4	-38.3	27.9	0.00e+00	0	42	0	0	43	4746
2026-01-26 20:02:32.25	176.81	21.71	-36.6	-38.5	27.7	0.00e+00	0	43	0	0	43	4857
2026-01-26 20:02:33.38	176.30	21.63	-36.6	-38.5	27.8	0.00e+00	0	43	0	0	43	4868
2026-01-26 20:02:34.24	175.91	21.57	-36.4	-38.3	27.9	0.00e+00	0	43	0	0	43	4717
2026-01-26 20:02:35.37	175.40	21.49	-36.1	-38.0	28.1	0.00e+00	0	43	0	0	43	4596
2026-01-26 20:02:36.22	175.02	21.42	-36.2	-38.1	28.1	0.00e+00	0	43	0	0	43	4606
2026-01-26 20:02:37.36	174.51	21.34	-36.4	-38.3	28.0	0.00e+00	0	43	0	0	43	4730
2026-01-26 20:02:38.22	174.13	21.27	-36.6	-38.6	27.7	0.00e+00	0	43	0	0	43	4890
2026-01-26 20:02:39.35	173.64	21.18	-36.9	-38.8	27.6	0.00e+00	0	43	0	0	44	4741
2026-01-26 20:02:40.21	173.26	21.12	-36.8	-38.8	27.7	0.00e+00	0	43	0	0	44	4712
2026-01-26 20:02:41.42	172.74	21.02	-36.6	-38.5	27.7	0.00e+00	0	43	0	0	44	4593
2026-01-26 20:02:42.28	172.37	20.95	-36.6	-38.6	27.8	0.00e+00	0	43	0	0	44	4606
2026-01-26 20:02:43.51	171.84	20.85	-36.9	-38.9	27.6	0.00e+00	0	43	0	0	44	4770
2026-01-26 20:02:44.36	171.48	20.78	-36.9	-38.8	24.6	0.00e+00	0	43	0	0	44	4744
2026-01-26 20:02:45.50	171.00	20.68	-37.1	-39.0	27.5	0.00e+00	0	43	0	0	44	4843
2026-01-26 20:02:46.35	170.65	20.61	-37.0	-39.0	27.5	0.00e+00	0	43	0	0	44	4843
2026-01-26 20:02:47.48	170.17	20.51	-37.0	-39.0	27.5	0.00e+00	0	43	0	0	44	4834
2026-01-26 20:02:48.34	169.82	20.43	-37.0	-39.0	27.5	0.00e+00	0	43	0	0	44	4833
2026-01-26 20:02:49.47	169.36	20.33	-37.3	-39.2	27.2	0.00e+00	0	43	0	0	45	4703
2026-01-26 20:02:50.33	169.00	20.25	-37.5	-39.5	27.1	0.00e+00	0	43	0	0	45	4830
2026-01-26 20:02:51.46	168.55	20.15	-37.4	-39.4	27.2	0.00e+00	0	43	0	0	45	4772
2026-01-26 20:02:52.32	168.20	20.07	-37.4	-39.4	27.1	0.00e+00	0	43	0	0	45	4791
2026-01-26 20:02:53.45	167.75	19.97	-37.2	-39.2	27.2	0.00e+00	0	43	0	0	45	4686
2026-01-26 20:02:54.30	167.41	19.89	-37.1	-39.0	27.4	0.00e+00	0	43	0	0	45	4596
2026-01-26 20:02:55.44	166.96	19.79	-36.9	-38.9	27.5	0.00e+00	0	43	0	0	45	4512
2026-01-26 20:02:56.30	166.63	19.70	-37.1	-39.1	27.4	0.00e+00	0	43	0	0	45	4604
2026-01-26 20:02:57.43	166.19	19.60	-37.5	-39.5	27.1	0.00e+00	0	43	0	0	45	4822
2026-01-26 20:02:58.29	165.86	19.52	-37.7	-39.7	26.8	0.00e+00	0	43	0	0	46	4675
2026-01-26 20:02:59.52	165.39	19.40	-38.1	-40.2	26.5	0.00e+00	0	43	0	0	47	4662
2026-01-26 20:03:00.37	165.07	19.32	-38.2	-40.3	26.4	0.00e+00	0	43	0	0	47	4730
2026-01-26 20:03:01.59	164.61	19.20	-37.7	-39.7	25.1	0.00e+00	0	43	0	0	47	4423
2026-01-26 20:03:02.44	164.29	19.11	-37.4	-39.4	27.2	0.00e+00	0	43	0	0	46	4523
2026-01-26 20:03:03.62	163.86	19.00	-37.0	-39.0	27.5	0.00e+00	0	43	0	0	46	4296
2026-01-26 20:03:04.48	163.54	18.91	-37.0	-38.9	22.1	0.00e+00	0	43	0	0	46	4277
2026-01-26 20:03:05.61	163.13	18.80	-37.0	-39.0	27.5	0.00e+00	0	43	0	0	45	4579
2026-01-26 20:03:06.47	162.82	18.72	-37.0	-39.0	27.5	0.00e+00	0	43	0	0	45	4548
2026-01-26 20:03:07.60	162.42	18.60	-37.1	-39.1	27.4	0.00e+00	0	43	0	0	45	4629
2026-01-26 20:03:08.46	162.11	18.52	-37.2	-39.2	27.3	0.00e+00	0	43	0	0	45	4668
2026-01-26 20:03:09.60	161.71	18.40	-37.4	-39.4	27.1	0.00e+00	0	43	0	0	45	4763
2026-01-26 20:03:10.45	161.41	18.32	-37.4	-39.4	27.1	0.00e+00	0	43	0	0	45	4794
2026-01-26 20:03:11.59	161.02	18.20	-37.4	-39.5	27.1	0.00e+00	0	43	0	0	45	4821
2026-01-26 20:03:12.44	160.72	18.11	-37.4	-39.4	27.1	0.00e+00	0	43	0	0	45	4779
2026-01-26 20:03:13.57	160.34	18.00	-37.3	-39.3	27.2	0.00e+00	0	43	0	0	45	4742
2026-01-26 20:03:14.43	160.05	17.91	-37.3	-39.3	27.1	0.00e+00	0	43	0	0	45	4756
2026-01-26 20:03:15.56	159.67	17.79	-37.3	-39.3	27.1	0.00e+00	0	43	0	0	45	4749
2026-01-26 20:03:16.42	159.38	17.71	-37.5	-39.5	26.9	0.00e+00	0	43	0	0	45	4839
2026-01-26 20:03:17.55	159.01	17.59	-37.6	-39.6	26.9	0.00e+00	0	43	0	0	45	4897
2026-01-26 20:03:18.40	158.73	17.50	-37.5	-39.5	27.0	0.00e+00	0	43	0	0	45	4869
2026-01-26 20:03:19.54	158.36	17.38	-37.6	-39.6	26.9	0.00e+00	0	43	0	0	45	4897
2026-01-26 20:03:20.40	158.09	17.29	-37.5	-39.5	27.0	0.00e+00	0	43	0	0	45	4866
2026-01-26 20:03:21.53	157.73	17.18	-37.5	-39.5	27.0	0.00e+00	0	43	0	0	45	4836
2026-01-26 20:03:22.39	157.45	17.09	-37.6	-39.7	26.9	0.00e+00	0	43	0	0	45	4932
2026-01-26 20:03:23.64	157.06	16.96	-37.8	-39.8	26.8	0.00e+00	0	43	0	0	46	4735
2026-01-26 20:03:24.44	156.81	16.88	-37.9	-39.9	26.7	0.00e+00	0	43	0	0	46	4793
2026-01-26 20:03:25.58	156.46	16.76	-37.8	-39.9	26.7	0.00e+00	0	43	0	0	46	4760
2026-01-26 20:03:26.43	156.20	16.67	-37.8	-39.8	26.8	0.00e+00	0	43	0	0	46	4747
2026-01-26 20:03:27.57	155.86	16.55	-37.7	-39.7	26.8	0.00e+00	0	43	0	0	46	4693
2026-01-26 20:03:28.42	155.60	16.46	-37.7	-39.7	26.9	0.00e+00	0	43	0	0	46	4674
2026-01-26 20:03:29.56	155.27	16.34	-37.8	-39.9	26.7	0.00e+00	0	43	0	0	46	4768
2026-01-26 20:03:30.41	155.01	16.25	-38.0	-40.1	26.6	0.00e+00	0	43	0	0	46	4892
2026-01-26 20:03:31.55	154.68	16.13	-38.3	-40.4	26.3	0.00e+00	0	43	0	0	47	4777
2026-01-26 20:03:32.40	154.44	16.05	-38.2	-40.2	26.3	0.00e+00	0	43	0	0	47	4703
2026-01-26 20:03:33.54	154.11	15.93	-38.1	-40.1	26.5	0.00e+00	0	43	0	0	47	4631
2026-01-26 20:03:34.39	153.87	15.84	-38.0	-40.0	26.5	0.00e+00	0	43	0	0	47	4582
2026-01-26 20:03:35.62	153.52	15.71	-38.2	-40.2	26.4	0.00e+00	0	43	0	0	47	4701
2026-01-26 20:03:36.48	153.28	15.62	-38.3	-40.4	26.3	0.00e+00	0	43	0	0	47	4772
2026-01-26 20:03:37.61	152.97	15.50	-38.4	-40.5	26.2	0.00e+00	0	43	0	0	47	4849
2026-01-26 20:03:38.47	152.73	15.42	-38.4	-40.5	26.1	0.00e+00	0	43	0	0	47	4862
2026-01-26 20:03:39.60	152.42	15.30	-38.5	-40.6	26.0	0.00e+00	0	43	0	0	47	4878
2026-01-26 20:03:40.46	152.19	15.21	-38.3	-40.4	26.1	0.00e+00	0	43	0	0	47	4801
2026-01-26 20:03:41.59	151.89	15.09	-38.2	-40.3	26.3	0.00e+00	0	43	0	0	47	4743
2026-01-26 20:03:42.45	151.66	15.00	-38.3	-40.3	26.2	0.00e+00	0	43	0	0	47	4759
2026-01-26 20:03:43.58	151.36	14.89	-38.3	-40.4	26.2	0.00e+00	0	43	0	0	47	4793
2026-01-26 20:03:44.44	151.14	14.80	-38.6	-40.7	26.0	0.00e+00	0	43	0	0	47	4943
2026-01-26 20:03:45.57	150.85	14.68	-38.7	-40.8	26.0	0.00e+00	0	43	0	0	48	4707
2026-01-26 20:03:46.42	150.63	14.60	-38.8	-40.9	25.9	0.00e+00	0	43	0	0	48	4770
2026-01-26 20:03:47.56	150.34	14.48	-38.8	-40.9	25.8	0.00e+00	0	43	0	0	48	4796
2026-01-26 20:03:48.41	150.13	14.39	-38.7	-40.8	26.0	0.00e+00	0	43	0	0	48	4732
2026-01-26 20:03:49.55	149.84	14.28	-38.8	-40.9	25.9	0.00e+00	0	43	0	0	48	4769
2026-01-26 20:03:50.40	149.63	14.19	-39.0	-41.1	25.7	0.00e+00	0	43	0	0	48	4893
2026-01-26 20:03:51.54	149.35	14.07	-39.1	-41.2	25.5	0.00e+00	0	43	0	0	48	4978
2026-01-26 20:03:52.39	149.15	13.99	-39.2	-41.3	25.4	0.00e+00	0	43	0	0	48	5037
2026-01-26 20:03:53.59	148.86	13.86	-39.0	-41.2	25.5	0.00e+00	0	43	0	0	49	4667
2026-01-26 20:03:54.45	148.65	13.78	-39.1	-41.3	25.5	0.00e+00	0	43	0	0	49	4708
2026-01-26 20:03:55.59	148.38	13.66	-38.8	-40.9	25.8	0.00e+00	0	43	0	0	49	4515
2026-01-26 20:03:56.44	148.19	13.58	-39.0	-41.1	25.6	0.00e+00	0	43	0	0	49	4644
2026-01-26 20:03:57.58	147.92	13.46	-38.9	-41.0	25.7	0.00e+00	0	43	0	0	49	4577
2026-01-26 20:03:58.43	147.73	13.38	-39.1	-41.2	25.6	0.00e+00	0	43	0	0	49	4682
2026-01-26 20:03:59.57	147.47	13.26	-39.3	-41.4	25.4	0.00e+00	0	43	0	0	49	4778
2026-01-26 20:04:00.42	147.27	13.18	-39.4	-41.6	25.2	0.00e+00	0	43	0	0	49	4894
2026-01-26 20:04:01.56	147.02	13.07	-39.6	-41.8	25.0	0.00e+00	0	43	0	0	49	5013
2026-01-26 20:04:02.41	146.83	12.98	-39.6	-41.8	25.0	0.00e+00	0	43	0	0	49	5011
2026-01-26 20:04:03.55	146.58	12.87	-39.7	-41.9	24.9	0.00e+00	0	43	0	0	50	4766
2026-01-26 20:04:04.41	146.39	12.78	-39.6	-41.8	25.0	0.00e+00	0	43	0	0	50	4726
2026-01-26 20:04:05.54	146.15	12.67	-39.8	-42.0	24.8	0.00e+00	0	43	0	0	50	4863
2026-01-26 20:04:06.40	145.96	12.59	-39.7	-42.0	24.9	0.00e+00	0	43	0	0	50	4826
2026-01-26 20:04:07.53	145.72	12.48	-39.8	-42.1	24.8	0.00e+00	0	43	0	0	50	4878
2026-01-26 20:04:08.38	145.54	12.40	-39.9	-42.1	24.7	0.00e+00	0	43	0	0	50	4921
2026-01-26 20:04:09.52	145.30	12.28	-39.8	-42.0	24.7	0.00e+00	0	43	0	0	50	4861
2026-01-26 20:04:10.37	145.13	12.20	-39.9	-42.1	24.7	0.00e+00	0	43	0	0	50	4879
2026-01-26 20:04:11.51	144.89	12.09	-39.7	-41.9	24.8	0.00e+00	0	43	0	0	50	4796
2026-01-26 20:04:12.36	144.72	12.01	-39.8	-42.0	24.8	0.00e+00	0	43	0	0	50	4829
2026-01-26 20:04:13.50	144.49	11.90	-39.8	-41.9	24.9	0.00e+00	0	43	0	0	50	4806
2026-01-26 20:04:14.35	144.32	11.82	-39.9	-42.1	24.7	0.00e+00	0	43	0	0	50	4897
2026-01-26 20:04:15.49	144.09	11.71	-40.1	-42.4	24.5	0.00e+00	0	43	0	0	50	5045
2026-01-26 20:04:16.34	143.93	11.63	-40.0	-42.3	24.5	0.00e+00	0	43	0	0	50	4985
2026-01-26 20:04:17.48	143.71	11.52	-39.9	-42.2	24.6	0.00e+00	0	43	0	0	50	4931
2026-01-26 20:04:18.33	143.54	11.44	-40.0	-42.3	24.6	0.00e+00	0	43	0	0	50	4984
2026-01-26 20:04:19.47	143.32	11.33	-39.9	-42.1	24.7	0.00e+00	0	43	0	0	50	4902
2026-01-26 20:04:20.32	143.16	11.25	-40.0	-42.2	24.6	0.00e+00	0	43	0	0	50	4943
2026-01-26 20:04:21.46	142.95	11.15	-39.9	-42.1	24.6	0.00e+00	0	43	0	0	50	4902
2026-01-26 20:04:22.31	142.79	11.07	-40.0	-42.2	24.6	0.00e+00	0	43	0	0	50	4947
2026-01-26 20:04:23.45	142.58	10.96	-40.1	-42.3	24.5	0.00e+00	0	43	0	0	50	5033
2026-01-26 20:04:24.31	142.42	10.88	-40.2	-42.5	24.3	0.00e+00	0	43	0	0	51	4837
2026-01-26 20:04:25.44	142.21	10.78	-40.4	-42.7	24.1	0.00e+00	0	43	0	0	51	4960
2026-01-26 20:04:26.30	142.06	10.70	-40.4	-42.7	24.0	0.00e+00	0	43	0	0	51	4982
2026-01-26 20:04:27.44	141.85	10.59	-40.5	-42.9	23.9	0.00e+00	0	43	0	0	51	5071
2026-01-26 20:04:28.29	141.70	10.51	-40.5	-42.8	24.0	0.00e+00	0	43	0	0	51	5014
2026-01-26 20:04:29.43	141.50	10.41	-40.5	-42.8	23.9	0.00e+00	0	43	0	0	51	5027
2026-01-26 20:04:30.28	141.35	10.33	-40.5	-42.8	23.9	0.00e+00	0	43	0	0	51	5016
2026-01-26 20:04:31.42	141.16	10.23	-40.7	-43.1	23.6	0.00e+00	0	43	0	0	52	4902
2026-01-26 20:04:32.27	141.01	10.15	-40.8	-43.2	23.5	0.00e+00	0	43	0	0	52	4974
2026-01-26 20:04:33.41	140.82	10.05	-40.8	-43.2	23.5	0.00e+00	0	43	0	0	52	4940
2026-01-26 20:04:34.27	140.67	9.97	-40.8	-43.2	23.5	0.00e+00	0	43	0	0	52	4955
2026-01-26 20:04:35.40	140.48	9.87	-40.8	-43.2	23.5	0.00e+00	0	43	0	0	52	4947
2026-01-26 20:04:36.26	140.34	9.79	-40.8	-43.2	23.5	0.00e+00	0	43	0	0	52	4928
2026-01-26 20:04:37.39	140.15	9.69	-40.8	-43.2	23.5	0.00e+00	0	43	0	0	52	4929
2026-01-26 20:04:38.25	140.01	9.62	-40.8	-43.2	23.5	0.00e+00	0	43	0	0	52	4965
2026-01-26 20:04:39.39	139.83	9.52	-40.9	-43.3	23.3	0.00e+00	0	43	0	0	52	5040
2026-01-26 20:04:40.24	139.69	9.44	-41.1	-43.5	23.2	0.00e+00	0	43	0	0	52	5152
2026-01-26 20:04:41.59	139.48	9.32	-41.2	-43.7	23.0	0.00e+00	0	43	0	0	53	4966
2026-01-26 20:04:42.30	139.36	9.26	-41.2	-43.7	23.0	0.00e+00	0	43	0	0	53	4956
2026-01-26 20:04:43.58	139.16	9.15	-41.3	-43.8	23.0	0.00e+00	0	43	0	0	53	4992
2026-01-26 20:04:44.31	139.05	9.09	-41.3	-43.7	22.9	0.00e+00	0	43	0	0	53	4982
2026-01-26 20:04:45.59	138.85	8.98	-41.9	-44.5	22.6	0.00e+00	0	43	0	0	54	5109
2026-01-26 20:04:46.31	138.74	8.91	-49.3	-66.3	3.9	0.00e+00	0	43	104	0	69	26678
2026-01-26 20:04:47.59	138.55	8.80	-49.5	-68.2	3.8	7.39e-01	0	43	104	0	69	32951
2026-01-26 20:04:48.30	138.44	8.74	-49.5	-68.5	3.8	7.39e-01	0	43	104	0	69	34161
2026-01-26 20:04:49.58	138.25	8.63	-49.7	-68.6	3.8	8.47e-01	0	43	104	0	70	32672
2026-01-26 20:04:50.29	138.15	8.57	-49.7	-68.6	3.8	8.46e-01	0	43	104	0	70	32894
2026-01-26 20:04:51.57	137.96	8.46	-49.6	-68.7	3.8	8.46e-01	0	43	104	0	70	33055
2026-01-26 20:04:52.28	137.86	8.40	-49.9	-68.7	3.8	8.48e-01	0	43	104	0	70	33144
2026-01-26 20:04:53.55	137.67	8.30	-49.8	-68.7	3.8	8.48e-01	0	43	104	0	70	33232
2026-01-26 20:04:54.26	137.57	8.24	-49.9	-68.8	3.8	8.48e-01	0	43	104	0	70	33376
2026-01-26 20:04:55.54	137.39	8.13	-49.9	-68.8	3.8	8.46e-01	0	43	104	0	70	33349
2026-01-26 20:04:56.25	137.29	8.07	-49.9	-68.8	3.8	8.46e-01	0	43	104	0	70	33401
2026-01-26 20:04:57.67	137.09	7.95	-50.0	-68.8	3.8	8.48e-01	0	43	104	0	70	33312
2026-01-26 20:04:58.38	136.99	7.90	-49.9	-68.8	3.8	8.48e-01	0	43	104	0	70	33406
2026-01-26 20:04:59.72	136.81	7.79	-49.7	-68.8	3.8	8.46e-01	0	43	104	0	70	33437
2026-01-26 20:05:00.43	136.71	7.73	-49.9	-68.8	3.8	8.47e-01	0	43	104	0	70	33437
2026-01-26 20:05:01.74	136.53	7.62	-49.8	-68.8	3.8	8.47e-01	0	43	104	0	70	33393
2026-01-26 20:05:02.45	136.44	7.56	-49.7	-68.8	3.8	8.47e-01	0	43	104	0	70	33394
2026-01-26 20:05:03.82	136.26	7.45	-49.4	-68.8	3.8	8.47e-01	0	43	104	0	70	33338
2026-01-26 20:05:04.53	136.16	7.39	-49.5	-68.8	3.8	8.47e-01	0	43	104	0	70	33374
2026-01-26 20:05:05.85	135.99	7.29	-49.6	-68.8	3.8	8.47e-01	0	43	104	0	70	33461
2026-01-26 20:05:06.56	135.90	7.23	-49.6	-68.8	3.8	8.47e-01	0	43	104	0	70	33380
2026-01-26 20:05:07.84	135.73	7.13	-49.6	-68.8	3.8	8.47e-01	0	43	104	0	70	33364
2026-01-26 20:05:08.55	135.64	7.07	-49.6	-68.8	3.8	8.47e-01	0	43	104	0	70	33344
2026-01-26 20:05:09.82	135.48	6.97	-49.6	-68.7	3.8	8.47e-01	0	43	104	0	70	33260
2026-01-26 20:05:10.53	135.39	6.91	-49.6	-68.7	3.8	8.47e-01	0	43	104	0	70	33257
2026-01-26 20:05:11.81	135.23	6.81	-49.6	-68.7	3.8	8.46e-01	0	43	104	0	70	33290
2026-01-26 20:05:12.52	135.14	6.76	-49.6	-68.7	3.8	8.48e-01	0	43	104	0	70	33262
2026-01-26 20:05:13.80	134.99	6.66	-49.6	-68.7	3.8	8.47e-01	0	43	104	0	70	33284
2026-01-26 20:05:14.52	134.90	6.60	-49.6	-68.7	3.8	8.47e-01	0	43	104	0	70	33214
2026-01-26 20:05:15.80	134.74	6.50	-49.6	-68.7	3.8	8.47e-01	0	43	104	0	70	33175
2026-01-26 20:05:16.51	134.66	6.45	-49.5	-68.7	3.8	8.48e-01	0	43	104	0	70	33245
2026-01-26 20:05:17.79	134.50	6.35	-49.5	-68.7	3.8	8.48e-01	0	43	104	0	70	33185
2026-01-26 20:05:18.50	134.42	6.29	-49.5	-68.7	3.8	8.48e-01	0	43	104	0	70	33189
2026-01-26 20:05:19.77	134.27	6.20	-49.6	-68.7	3.8	8.48e-01	0	43	104	0	70	33150
2026-01-26 20:05:20.48	134.19	6.14	-49.5	-68.7	3.8	8.48e-01	0	43	104	0	70	33135
2026-01-26 20:05:21.76	134.04	6.04	-49.5	-68.8	3.8	8.47e-01	0	43	104	0	70	33359
2026-01-26 20:05:22.47	133.96	5.99	-49.5	-68.7	3.8	8.48e-01	0	43	104	0	70	33192
2026-01-26 20:05:23.75	133.81	5.89	-49.6	-68.7	3.8	8.47e-01	0	43	104	0	70	33162
2026-01-26 20:05:24.47	133.73	5.84	-49.6	-68.7	3.8	8.47e-01	0	43	104	0	70	33187
2026-01-26 20:05:25.75	133.58	5.74	-49.6	-68.7	3.8	8.46e-01	0	43	104	0	70	33151
2026-01-26 20:05:26.46	133.50	5.69	-49.6	-68.7	3.8	8.46e-01	0	43	104	0	70	33168
2026-01-26 20:05:27.74	133.36	5.59	-49.6	-68.7	3.8	8.47e-01	0	43	104	0	70	33053
2026-01-26 20:05:28.46	133.28	5.54	-49.6	-68.7	3.8	8.47e-01	0	43	104	0	70	33287
2026-01-26 20:05:29.74	133.14	5.44	-49.6	-68.7	3.8	8.46e-01	0	43	104	0	70	33089
2026-01-26 20:05:30.45	133.07	5.39	-49.6	-68.7	3.8	8.46e-01	0	43	104	0	70	33106
2026-01-26 20:05:31.74	132.93	5.30	-49.5	-68.7	3.8	8.48e-01	0	43	104	0	70	33144
2026-01-26 20:05:32.45	132.85	5.24	-49.5	-68.7	3.8	8.48e-01	0	43	104	0	70	33151
2026-01-26 20:05:33.73	132.72	5.15	-49.5	-68.7	3.8	8.46e-01	0	43	104	0	70	33129
2026-01-26 20:05:34.44	132.64	5.10	-49.5	-68.7	3.8	8.47e-01	0	43	104	0	70	33139
2026-01-26 20:05:35.71	132.51	5.01	-49.6	-68.7	3.8	8.46e-01	0	43	104	0	70	33112

#Closed at: 2026-01-26 20:05:36
#Recorded file [0 MB]: D:/Data/31040_260126_225813.dat