passes_logs/2026/01/26/T1/T1__20260126_094014_NOAA_20_JPSS-1_rec.log

#Pass ID: 20260126_094014_NOAA 20 (JPSS-1)
#Satellite: NOAA 20 (JPSS-1)
#Configuration: NOAA 20
#almurnet v.1.7.20251203
#Start time: 2026-01-26 09:40:13

#Version: 2.0.20230620
#Station: T1
#Location: 37.570604 lon 55.790049 lat
#TLE: 1 43013U 17073A   26025.83228772  .00000162  00000+0  97663-4 0  9996
#TLE: 2 43013  98.7646 326.6579 0001036  23.5840 336.5383 14.19540376424273

#Time	Az	El	Level	Level2	SNR	BER	BlckErr	Temp	State	Recorded	gain1	gain2
2026-01-26 09:40:13.88	152.11	4.96	-49.2	-64.5	3.8	1.49e+00	0	40	0	0	70	20325
2026-01-26 09:40:14.87	152.10	5.03	-49.2	-64.4	3.8	1.49e+00	0	40	104	0	70	20251
2026-01-26 09:40:15.86	152.08	5.11	-49.2	-64.4	3.8	1.49e+00	0	41	104	0	70	20234
2026-01-26 09:40:16.85	152.07	5.18	-49.2	-64.4	3.8	1.49e+00	0	41	104	0	70	20181
2026-01-26 09:40:17.85	152.06	5.25	-49.2	-64.4	3.8	1.49e+00	0	41	104	0	70	20285
2026-01-26 09:40:18.84	152.05	5.32	-49.2	-64.5	3.8	1.49e+00	0	41	104	0	70	20438
2026-01-26 09:40:19.83	152.03	5.39	-49.2	-64.5	3.8	1.49e+00	0	41	104	0	70	20518
2026-01-26 09:40:20.83	152.02	5.47	-49.2	-64.6	3.8	1.49e+00	0	41	104	0	70	20589
2026-01-26 09:40:21.82	152.01	5.54	-49.2	-64.6	3.8	1.49e+00	0	41	104	0	70	20574
2026-01-26 09:40:22.81	151.99	5.61	-49.2	-64.6	3.8	1.49e+00	0	41	104	0	70	20608
2026-01-26 09:40:23.81	151.98	5.68	-49.2	-64.5	3.8	1.49e+00	0	41	104	0	70	20443
2026-01-26 09:40:24.80	151.97	5.76	-49.2	-64.3	3.8	1.49e+00	0	41	104	0	70	20001
2026-01-26 09:40:25.79	151.95	5.83	-49.2	-64.1	3.8	1.49e+00	0	41	104	0	70	19604
2026-01-26 09:40:26.79	151.94	5.90	-49.1	-63.9	3.8	1.49e+00	0	41	104	0	70	19055
2026-01-26 09:40:27.78	151.93	5.98	-49.1	-63.6	3.8	1.49e+00	0	41	104	0	70	18424
2026-01-26 09:40:28.77	151.91	6.05	-49.1	-63.4	3.8	1.49e+00	0	41	104	0	70	18011
2026-01-26 09:40:29.77	151.90	6.12	-49.1	-63.2	3.8	1.49e+00	0	41	104	0	70	17682
2026-01-26 09:40:30.76	151.89	6.20	-49.1	-63.2	3.8	1.49e+00	0	41	104	0	70	17484
2026-01-26 09:40:31.75	151.87	6.27	-49.1	-63.2	3.8	1.49e+00	0	41	104	0	70	17631
2026-01-26 09:40:32.74	151.86	6.35	-49.1	-63.3	3.8	1.49e+00	0	41	104	0	70	17744
2026-01-26 09:40:33.74	151.84	6.42	-49.1	-63.5	3.8	1.49e+00	0	41	104	0	70	18233
2026-01-26 09:40:34.73	151.83	6.50	-49.1	-63.8	3.8	1.49e+00	0	41	104	0	70	18945
2026-01-26 09:40:35.73	151.82	6.57	-49.2	-64.2	3.8	1.49e+00	0	41	104	0	70	19622
2026-01-26 09:40:36.72	151.80	6.65	-49.1	-64.4	3.8	1.49e+00	0	41	104	0	70	20202
2026-01-26 09:40:37.71	151.79	6.72	-49.2	-64.5	3.8	1.49e+00	0	41	104	0	70	20477
2026-01-26 09:40:38.71	151.77	6.80	-49.2	-64.5	3.8	1.49e+00	0	42	104	0	70	20489
2026-01-26 09:40:39.70	151.76	6.88	-49.2	-64.4	3.8	1.49e+00	0	42	104	0	70	20129
2026-01-26 09:40:40.69	151.74	6.95	-49.1	-64.0	3.8	1.49e+00	0	42	104	0	70	19364
2026-01-26 09:40:41.69	151.73	7.03	-49.1	-63.6	3.8	1.49e+00	0	42	104	0	70	18486
2026-01-26 09:40:42.68	151.71	7.11	-49.1	-63.1	3.8	1.49e+00	0	41	104	0	70	17408
2026-01-26 09:40:43.67	151.70	7.18	-49.0	-62.5	3.8	1.49e+00	0	42	104	0	70	16220
2026-01-26 09:40:44.66	151.69	7.26	-49.0	-61.7	4.1	1.47e+00	0	42	104	0	70	14792
2026-01-26 09:40:45.66	151.67	7.34	-48.9	-60.7	4.3	1.40e+00	0	42	0	0	69	13967
2026-01-26 09:40:46.65	151.66	7.42	-48.8	-59.6	4.7	9.36e-01	0	42	0	1048576	69	12321
2026-01-26 09:40:47.64	151.64	7.49	-48.6	-58.3	5.4	6.40e-01	0	42	0	3145728	69	10636
2026-01-26 09:40:48.64	151.62	7.57	-48.4	-57.1	6.3	3.69e-01	0	42	0	5242880	68	9782
2026-01-26 09:40:49.63	151.61	7.65	-48.2	-55.8	7.4	1.86e-01	0	42	0	7340032	68	8450
2026-01-26 09:40:50.62	151.59	7.73	-47.7	-54.5	8.5	5.44e-02	0	42	0	8388608	67	7709
2026-01-26 09:40:51.62	151.58	7.81	-47.4	-53.4	9.7	1.84e-02	0	42	0	10485760	66	7175
2026-01-26 09:40:52.61	151.56	7.89	-47.0	-52.5	10.6	5.75e-03	0	42	0	12582912	66	6479
2026-01-26 09:40:53.60	151.55	7.97	-46.6	-51.6	11.6	1.89e-03	0	42	0	14680064	65	6158
2026-01-26 09:40:54.60	151.53	8.05	-46.3	-50.9	12.3	2.57e-04	0	42	0	15728640	64	6008
2026-01-26 09:40:55.59	151.51	8.13	-46.0	-50.3	13.0	6.79e-05	0	42	0	17825792	64	5612
2026-01-26 09:40:56.58	151.50	8.21	-45.9	-50.1	13.3	2.59e-05	0	42	0	19922944	63	5789
2026-01-26 09:40:57.58	151.48	8.29	-45.7	-49.7	13.7	9.10e-06	0	42	0	22020096	63	5557
2026-01-26 09:40:58.57	151.47	8.37	-45.7	-49.6	13.7	5.30e-06	0	42	0	23068672	63	5503
2026-01-26 09:40:59.56	151.45	8.45	-45.8	-49.8	13.6	5.30e-06	0	42	0	25165824	63	5622
2026-01-26 09:41:00.56	151.43	8.53	-45.8	-49.9	13.4	1.14e-05	0	42	0	27262976	63	5706
2026-01-26 09:41:01.55	151.42	8.61	-46.1	-50.5	12.8	4.19e-05	0	42	0	29360128	63	6110
2026-01-26 09:41:02.54	151.40	8.70	-46.5	-51.2	12.1	1.54e-04	0	42	0	31457280	63	6636
2026-01-26 09:41:03.54	151.38	8.78	-46.8	-51.9	11.3	4.13e-04	0	42	0	32505856	64	6748
2026-01-26 09:41:04.53	151.37	8.86	-47.2	-52.9	10.3	2.02e-03	0	42	0	34603008	64	7602
2026-01-26 09:41:05.52	151.35	8.94	-47.5	-54.0	9.1	1.46e-02	0	42	0	36700160	65	8149
2026-01-26 09:41:06.52	151.33	9.03	-48.0	-55.5	7.6	5.62e-02	0	42	0	38797312	66	9140
2026-01-26 09:41:07.51	151.31	9.11	-46.9	-52.0	10.7	1.77e-01	0	42	0	39845888	65	6486
2026-01-26 09:41:08.50	151.30	9.19	-47.3	-53.3	10.3	1.50e-06	0	42	0	41943040	65	7498
2026-01-26 09:41:09.50	151.28	9.28	-48.2	-56.5	6.3	1.10e+00	0	42	0	44040192	67	9672
2026-01-26 09:41:10.49	151.26	9.36	-46.1	-50.3	12.7	1.98e-02	0	42	0	46137344	64	5653
2026-01-26 09:41:11.49	151.24	9.45	-47.8	-53.4	10.9	0.00e+00	0	42	0	47185920	65	7568
2026-01-26 09:41:12.48	151.23	9.53	-48.2	-55.7	6.3	1.48e+00	0	42	104	48234496	68	8273
2026-01-26 09:41:13.48	151.21	9.62	-44.6	-47.8	15.6	0.00e+00	0	42	0	49283072	61	5032
2026-01-26 09:41:14.47	151.19	9.70	-43.9	-46.8	16.6	0.00e+00	0	42	0	51380224	59	5006
2026-01-26 09:41:15.47	151.17	9.79	-43.7	-46.5	16.9	0.00e+00	0	42	0	52428800	59	4831
2026-01-26 09:41:16.46	151.15	9.87	-43.5	-46.2	17.2	0.00e+00	0	42	0	54525952	58	4967
2026-01-26 09:41:17.45	151.14	9.96	-43.5	-46.2	17.2	0.00e+00	0	42	0	56623104	58	4965
2026-01-26 09:41:18.45	151.12	10.05	-43.3	-46.0	17.5	0.00e+00	0	42	0	58720256	58	4825
2026-01-26 09:41:19.45	151.10	10.13	-43.3	-45.9	17.5	0.00e+00	0	42	0	60817408	58	4786
2026-01-26 09:41:20.44	151.08	10.22	-43.4	-46.0	17.5	0.00e+00	0	42	0	61865984	58	4852
2026-01-26 09:41:21.44	151.06	10.31	-43.2	-45.8	17.6	0.00e+00	0	42	0	63963136	58	4748
2026-01-26 09:41:22.43	151.04	10.39	-43.1	-45.7	17.8	0.00e+00	0	42	0	66060288	58	4692
2026-01-26 09:41:23.42	151.02	10.48	-43.2	-45.8	17.7	0.00e+00	0	43	0	68157440	58	4714
2026-01-26 09:41:24.42	151.00	10.57	-43.1	-45.7	17.8	0.00e+00	0	42	0	69206016	58	4657
2026-01-26 09:41:25.41	150.98	10.66	-43.1	-45.7	17.7	0.00e+00	0	42	0	71303168	58	4688
2026-01-26 09:41:26.41	150.96	10.75	-43.1	-45.7	17.7	0.00e+00	0	43	0	73400320	58	4685
2026-01-26 09:41:27.40	150.94	10.84	-43.2	-45.8	17.7	0.00e+00	0	42	0	75497472	58	4752
2026-01-26 09:41:28.40	150.92	10.93	-43.1	-45.6	17.9	0.00e+00	0	43	0	77594624	58	4641
2026-01-26 09:41:29.39	150.90	11.02	-42.9	-45.5	18.0	0.00e+00	0	43	0	78643200	57	4819
2026-01-26 09:41:30.39	150.88	11.11	-42.9	-45.4	18.0	0.00e+00	0	43	0	80740352	57	4785
2026-01-26 09:41:31.38	150.86	11.20	-42.9	-45.4	18.1	0.00e+00	0	43	0	82837504	57	4778
2026-01-26 09:41:32.38	150.84	11.29	-42.9	-45.4	18.0	0.00e+00	0	42	0	84934656	57	4800
2026-01-26 09:41:33.37	150.82	11.38	-42.8	-45.3	18.2	0.00e+00	0	43	0	85983232	57	4730
2026-01-26 09:41:34.37	150.80	11.47	-42.8	-45.3	18.2	0.00e+00	0	43	0	88080384	57	4723
2026-01-26 09:41:35.36	150.78	11.56	-42.7	-45.2	18.3	0.00e+00	0	43	0	90177536	57	4693
2026-01-26 09:41:36.36	150.76	11.66	-42.7	-45.2	18.3	0.00e+00	0	43	0	92274688	57	4678
2026-01-26 09:41:37.35	150.74	11.75	-42.8	-45.3	18.2	0.00e+00	0	43	0	94371840	57	4723
2026-01-26 09:41:38.35	150.72	11.84	-42.8	-45.3	18.2	0.00e+00	0	43	0	95420416	57	4756
2026-01-26 09:41:39.34	150.69	11.93	-42.8	-45.3	18.2	0.00e+00	0	42	0	97517568	57	4726
2026-01-26 09:41:40.33	150.67	12.03	-42.7	-45.2	18.3	0.00e+00	0	43	0	99614720	57	4679
2026-01-26 09:41:41.33	150.65	12.12	-42.6	-45.0	18.5	0.00e+00	0	43	0	101711872	57	4598
2026-01-26 09:41:42.33	150.63	12.22	-42.6	-45.1	18.4	0.00e+00	0	42	0	102760448	57	4637
2026-01-26 09:41:43.32	150.61	12.31	-42.6	-45.1	18.4	0.00e+00	0	43	0	104857600	57	4632
2026-01-26 09:41:44.32	150.58	12.41	-42.5	-45.0	18.5	0.00e+00	0	42	0	106954752	57	4563
2026-01-26 09:41:45.31	150.56	12.50	-42.5	-45.0	18.5	0.00e+00	0	43	0	109051904	57	4583
2026-01-26 09:41:46.31	150.54	12.60	-42.5	-45.0	18.5	0.00e+00	0	42	0	111149056	57	4563
2026-01-26 09:41:47.30	150.52	12.69	-42.5	-45.0	18.6	0.00e+00	0	42	0	112197632	56	4819
2026-01-26 09:41:48.30	150.49	12.79	-42.4	-44.9	18.6	0.00e+00	0	43	0	114294784	56	4771
2026-01-26 09:41:49.29	150.47	12.89	-42.5	-44.9	18.6	0.00e+00	0	42	0	116391936	56	4811
2026-01-26 09:41:50.29	150.45	12.99	-42.5	-44.9	18.6	0.00e+00	0	43	0	118489088	56	4802
2026-01-26 09:41:51.28	150.42	13.08	-42.4	-44.8	18.7	0.00e+00	0	43	0	120586240	56	4749
2026-01-26 09:41:52.28	150.40	13.18	-42.5	-44.9	18.6	0.00e+00	0	43	0	121634816	56	4787
2026-01-26 09:41:53.27	150.38	13.28	-42.4	-44.8	18.7	0.00e+00	0	43	0	123731968	56	4727
2026-01-26 09:41:54.27	150.35	13.38	-42.4	-44.7	18.8	0.00e+00	0	43	0	125829120	56	4691
2026-01-26 09:41:55.26	150.33	13.48	-42.4	-44.8	18.7	0.00e+00	0	43	0	127926272	56	4720
2026-01-26 09:41:56.26	150.30	13.58	-42.3	-44.6	18.9	0.00e+00	0	43	0	128974848	56	4621
2026-01-26 09:41:57.25	150.28	13.68	-42.3	-44.6	18.9	0.00e+00	0	43	0	131072000	56	4633
2026-01-26 09:41:58.25	150.25	13.78	-42.4	-44.7	18.8	0.00e+00	0	43	0	133169152	56	4694
2026-01-26 09:41:59.24	150.23	13.88	-42.3	-44.6	18.9	0.00e+00	0	43	0	135266304	56	4636
2026-01-26 09:42:00.24	150.20	13.98	-42.3	-44.6	18.9	0.00e+00	0	43	0	137363456	56	4627
2026-01-26 09:42:01.23	150.18	14.08	-42.3	-44.6	18.9	0.00e+00	0	43	0	138412032	56	4634
2026-01-26 09:42:02.22	150.15	14.19	-42.2	-44.6	19.0	0.00e+00	0	43	0	140509184	56	4606
2026-01-26 09:42:03.22	150.13	14.29	-42.3	-44.6	18.9	0.00e+00	0	43	0	142606336	56	4619
2026-01-26 09:42:04.21	150.10	14.39	-42.3	-44.6	18.9	0.00e+00	0	43	0	144703488	56	4630
2026-01-26 09:42:05.21	150.08	14.50	-42.1	-44.4	19.1	0.00e+00	0	43	0	145752064	56	4539
2026-01-26 09:42:06.20	150.05	14.60	-42.0	-44.3	19.2	0.00e+00	0	43	0	147849216	56	4477
2026-01-26 09:42:07.20	150.02	14.70	-41.8	-44.1	19.3	0.00e+00	0	43	0	149946368	55	4601
2026-01-26 09:42:08.19	150.00	14.81	-41.7	-44.0	19.3	0.00e+00	0	43	0	152043520	55	4580
2026-01-26 09:42:09.19	149.97	14.91	-41.7	-44.0	19.3	0.00e+00	0	43	0	154140672	55	4592
2026-01-26 09:42:10.18	149.94	15.02	-41.7	-44.0	19.3	0.00e+00	0	43	0	155189248	55	4590
2026-01-26 09:42:11.18	149.92	15.13	-41.7	-44.0	19.4	0.00e+00	0	43	0	157286400	55	4574
2026-01-26 09:42:12.17	149.89	15.23	-41.7	-44.0	19.3	0.00e+00	0	43	0	159383552	55	4593
2026-01-26 09:42:13.16	149.86	15.34	-41.7	-44.1	19.3	0.00e+00	0	43	0	161480704	55	4614
2026-01-26 09:42:14.16	149.83	15.45	-41.8	-44.2	19.2	0.00e+00	0	43	0	162529280	55	4655
2026-01-26 09:42:15.15	149.80	15.55	-41.9	-44.3	19.1	0.00e+00	0	43	0	164626432	55	4740
2026-01-26 09:42:16.15	149.78	15.66	-41.9	-44.2	19.2	0.00e+00	0	43	0	166723584	55	4680
2026-01-26 09:42:17.14	149.75	15.77	-41.8	-44.2	19.2	0.00e+00	0	43	0	168820736	55	4665
2026-01-26 09:42:18.13	149.72	15.88	-41.9	-44.2	19.2	0.00e+00	0	43	0	170917888	55	4704
2026-01-26 09:42:19.13	149.69	15.99	-41.8	-44.1	19.3	0.00e+00	0	43	0	171966464	55	4648
2026-01-26 09:42:20.12	149.66	16.10	-41.9	-44.2	19.2	0.00e+00	0	43	0	174063616	55	4662
2026-01-26 09:42:21.12	149.63	16.21	-41.9	-44.2	19.2	0.00e+00	0	43	0	176160768	55	4696
2026-01-26 09:42:22.11	149.60	16.32	-41.9	-44.2	19.2	0.00e+00	0	43	0	178257920	55	4660
2026-01-26 09:42:23.11	149.57	16.44	-41.8	-44.0	19.4	0.00e+00	0	43	0	179306496	55	4566
2026-01-26 09:42:24.10	149.54	16.55	-41.7	-44.0	19.4	0.00e+00	0	43	0	181403648	55	4551
2026-01-26 09:42:25.10	149.51	16.66	-41.8	-44.0	19.4	0.00e+00	0	43	0	183500800	55	4588
2026-01-26 09:42:26.10	149.48	16.78	-41.8	-44.0	19.4	0.00e+00	0	43	0	185597952	55	4588
2026-01-26 09:42:27.09	149.45	16.89	-41.8	-44.0	19.4	0.00e+00	0	43	0	187695104	55	4595
2026-01-26 09:42:28.09	149.42	17.00	-41.8	-44.1	19.4	0.00e+00	0	43	0	188743680	55	4606
2026-01-26 09:42:29.08	149.39	17.12	-41.8	-44.1	19.3	0.00e+00	0	43	0	190840832	55	4632
2026-01-26 09:42:30.08	149.35	17.24	-41.9	-44.3	19.2	0.00e+00	0	43	0	192937984	55	4710
2026-01-26 09:42:31.08	149.32	17.35	-41.8	-44.1	19.3	0.00e+00	0	43	0	195035136	55	4605
2026-01-26 09:42:32.07	149.29	17.47	-41.8	-44.1	19.3	0.00e+00	0	43	0	196083712	55	4610
2026-01-26 09:42:33.06	149.26	17.59	-41.7	-43.9	19.5	0.00e+00	0	43	0	198180864	55	4539
2026-01-26 09:42:34.06	149.22	17.70	-41.7	-44.0	19.5	0.00e+00	0	43	0	200278016	55	4555
2026-01-26 09:42:35.05	149.19	17.82	-41.7	-44.0	19.4	0.00e+00	0	43	0	202375168	55	4561
2026-01-26 09:42:36.05	149.16	17.94	-41.6	-43.8	19.6	0.00e+00	0	43	0	204472320	55	4477
2026-01-26 09:42:37.04	149.12	18.06	-41.6	-43.8	19.6	0.00e+00	0	43	0	205520896	55	4477
2026-01-26 09:42:38.04	149.09	18.18	-41.6	-43.8	19.5	0.00e+00	0	43	0	207618048	55	4486
2026-01-26 09:42:39.03	149.05	18.30	-41.6	-43.8	19.5	0.00e+00	0	43	0	209715200	55	4490
2026-01-26 09:42:40.03	149.02	18.42	-41.6	-43.9	19.5	0.00e+00	0	43	0	211812352	55	4503
2026-01-26 09:42:41.02	148.99	18.54	-41.5	-43.8	19.6	0.00e+00	0	43	0	212860928	55	4453
2026-01-26 09:42:42.01	148.95	18.67	-41.5	-43.8	19.6	0.00e+00	0	43	0	214958080	55	4445
2026-01-26 09:42:43.01	148.91	18.79	-41.6	-43.8	19.6	0.00e+00	0	43	0	217055232	55	4464
2026-01-26 09:42:44.01	148.88	18.91	-41.6	-43.8	19.6	0.00e+00	0	43	0	219152384	55	4469
2026-01-26 09:42:45.00	148.84	19.04	-41.6	-43.9	19.6	0.00e+00	0	43	0	221249536	55	4498
2026-01-26 09:42:46.00	148.81	19.16	-41.7	-43.9	19.5	0.00e+00	0	43	0	222298112	55	4529
2026-01-26 09:42:46.99	148.77	19.29	-41.7	-43.9	19.5	0.00e+00	0	43	0	224395264	55	4506
2026-01-26 09:42:47.98	148.73	19.41	-41.6	-43.8	19.6	0.00e+00	0	43	0	226492416	55	4483
2026-01-26 09:42:48.98	148.69	19.54	-41.6	-43.8	19.6	0.00e+00	0	43	0	228589568	55	4458
2026-01-26 09:42:49.98	148.66	19.67	-41.6	-43.8	19.6	0.00e+00	0	43	0	229638144	55	4477
2026-01-26 09:42:50.97	148.62	19.80	-41.6	-43.8	19.6	0.00e+00	0	43	0	231735296	55	4465
2026-01-26 09:42:51.97	148.58	19.93	-41.6	-43.8	19.6	0.00e+00	0	43	0	233832448	55	4460
2026-01-26 09:42:52.96	148.54	20.05	-41.6	-43.9	19.6	0.00e+00	0	43	0	235929600	55	4499
2026-01-26 09:42:53.96	148.50	20.18	-41.7	-43.9	19.5	0.00e+00	0	43	0	238026752	55	4535
2026-01-26 09:42:54.95	148.46	20.31	-41.6	-43.8	19.6	0.00e+00	0	43	0	239075328	55	4473
2026-01-26 09:42:55.95	148.42	20.45	-41.6	-43.9	19.4	0.00e+00	0	43	0	241172480	55	4495
2026-01-26 09:42:56.94	148.38	20.58	-41.6	-43.8	19.6	0.00e+00	0	43	0	243269632	55	4465
2026-01-26 09:42:57.93	148.34	20.71	-41.6	-43.9	19.5	0.00e+00	0	43	0	245366784	55	4515
2026-01-26 09:42:58.93	148.30	20.84	-41.6	-43.8	19.6	0.00e+00	0	43	0	246415360	55	4490
2026-01-26 09:42:59.92	148.26	20.98	-41.4	-43.6	19.9	0.00e+00	0	43	0	248512512	54	4606
2026-01-26 09:43:00.92	148.22	21.11	-41.3	-43.5	19.9	0.00e+00	0	43	0	250609664	54	4564
2026-01-26 09:43:01.92	148.18	21.25	-41.4	-43.6	19.8	0.00e+00	0	43	0	252706816	54	4646
2026-01-26 09:43:02.91	148.13	21.38	-41.3	-43.5	19.9	0.00e+00	0	43	0	254803968	54	4571
2026-01-26 09:43:03.91	148.09	21.52	-41.3	-43.4	20.0	0.00e+00	0	43	0	255852544	54	4541
2026-01-26 09:43:04.90	148.05	21.66	-41.3	-43.5	19.9	0.00e+00	0	43	0	257949696	54	4563
2026-01-26 09:43:05.90	148.00	21.80	-41.3	-43.5	19.9	0.00e+00	0	43	0	260046848	54	4571
2026-01-26 09:43:06.89	147.96	21.94	-41.4	-43.6	19.9	0.00e+00	0	43	0	262144000	54	4607
2026-01-26 09:43:07.89	147.91	22.08	-41.4	-43.7	19.7	0.00e+00	0	43	0	263192576	54	4671
2026-01-26 09:43:08.88	147.87	22.22	-41.4	-43.7	19.8	0.00e+00	0	43	0	265289728	54	4663
2026-01-26 09:43:09.88	147.82	22.36	-41.5	-43.8	19.6	0.00e+00	0	43	0	267386880	54	4746
2026-01-26 09:43:10.87	147.78	22.50	-41.5	-43.8	19.7	0.00e+00	0	43	0	269484032	54	4713
2026-01-26 09:43:11.86	147.73	22.64	-41.5	-43.9	19.6	0.00e+00	0	43	0	271581184	54	4763
2026-01-26 09:43:12.86	147.69	22.79	-41.5	-43.8	19.6	0.00e+00	0	43	0	272629760	54	4724
2026-01-26 09:43:13.85	147.64	22.93	-41.4	-43.7	19.8	0.00e+00	0	43	0	274726912	54	4660
2026-01-26 09:43:14.85	147.59	23.08	-41.3	-43.6	19.8	0.00e+00	0	43	0	276824064	54	4639
2026-01-26 09:43:15.84	147.54	23.22	-41.4	-43.7	19.8	0.00e+00	0	43	0	278921216	54	4666
2026-01-26 09:43:16.84	147.49	23.37	-41.4	-43.6	19.8	0.00e+00	0	43	0	279969792	54	4648
2026-01-26 09:43:17.83	147.44	23.52	-41.5	-43.8	19.6	0.00e+00	0	43	0	282066944	54	4741
2026-01-26 09:43:18.82	147.40	23.66	-41.5	-43.7	19.7	0.00e+00	0	43	0	284164096	54	4703
2026-01-26 09:43:19.82	147.34	23.81	-41.6	-43.9	19.5	0.00e+00	0	43	0	286261248	54	4797
2026-01-26 09:43:20.81	147.29	23.96	-41.7	-44.1	19.4	0.00e+00	0	43	0	288358400	54	4874
2026-01-26 09:43:21.81	147.24	24.11	-41.8	-44.2	19.3	0.00e+00	0	43	0	289406976	54	4935
2026-01-26 09:43:22.80	147.19	24.27	-41.9	-44.3	19.2	0.00e+00	0	43	0	291504128	54	4999
2026-01-26 09:43:23.79	147.14	24.42	-41.8	-44.1	19.3	0.00e+00	0	43	0	293601280	54	4916
2026-01-26 09:43:24.79	147.09	24.57	-41.9	-44.2	19.3	0.00e+00	0	43	0	295698432	54	4952
2026-01-26 09:43:25.78	147.03	24.73	-42.0	-44.4	19.1	0.00e+00	0	43	0	296747008	54	5067
2026-01-26 09:43:26.78	146.98	24.88	-41.8	-44.0	19.4	0.00e+00	0	43	0	298844160	54	4862
2026-01-26 09:43:27.77	146.93	25.04	-41.8	-44.1	19.4	0.00e+00	0	43	0	300941312	54	4882
2026-01-26 09:43:28.77	146.87	25.20	-41.9	-44.1	19.3	0.00e+00	0	43	0	303038464	54	4913
2026-01-26 09:43:29.76	146.81	25.35	-42.0	-44.3	19.2	0.00e+00	0	43	0	305135616	54	5012
2026-01-26 09:43:30.76	146.76	25.51	-42.2	-44.6	18.9	0.00e+00	0	43	0	306184192	55	4891
2026-01-26 09:43:31.75	146.70	25.67	-42.4	-44.8	18.7	0.00e+00	0	43	0	308281344	55	5001
2026-01-26 09:43:32.75	146.64	25.83	-42.6	-45.0	18.5	0.00e+00	0	43	0	310378496	55	5154
2026-01-26 09:43:33.74	146.59	25.99	-42.9	-45.5	18.2	0.00e+00	0	43	0	312475648	56	5101
2026-01-26 09:43:34.74	146.53	26.16	-42.9	-45.5	18.2	0.00e+00	0	43	0	313524224	56	5108
2026-01-26 09:43:35.74	146.47	26.32	-43.0	-45.5	18.1	0.00e+00	0	43	0	315621376	56	5156
2026-01-26 09:43:36.73	146.41	26.49	-43.0	-45.6	18.1	0.00e+00	0	43	0	317718528	56	5188
2026-01-26 09:43:37.73	146.35	26.65	-42.9	-45.4	18.2	0.00e+00	0	43	0	319815680	56	5098
2026-01-26 09:43:38.72	146.29	26.82	-42.9	-45.4	18.3	0.00e+00	0	43	0	321912832	56	5046
2026-01-26 09:43:39.72	146.23	26.99	-42.9	-45.4	18.3	0.00e+00	0	43	0	322961408	56	5086
2026-01-26 09:43:40.71	146.16	27.15	-43.0	-45.5	18.1	0.00e+00	0	43	0	325058560	56	5147
2026-01-26 09:43:41.71	146.10	27.32	-43.0	-45.6	18.1	0.00e+00	0	43	0	327155712	56	5176
2026-01-26 09:43:42.70	146.04	27.49	-43.2	-45.8	17.9	0.00e+00	0	43	0	329252864	57	4995
2026-01-26 09:43:43.70	145.97	27.67	-43.4	-46.0	17.7	0.00e+00	0	43	0	330301440	57	5139
2026-01-26 09:43:44.69	145.91	27.84	-43.6	-46.4	17.3	0.00e+00	0	43	0	332398592	57	5341
2026-01-26 09:43:45.68	145.84	28.01	-43.8	-46.6	17.1	0.00e+00	0	43	0	334495744	58	5211
2026-01-26 09:43:46.68	145.77	28.19	-43.9	-46.8	17.0	0.00e+00	0	43	0	336592896	58	5291
2026-01-26 09:43:47.67	145.71	28.36	-44.0	-46.8	16.9	0.00e+00	0	43	0	338690048	58	5319
2026-01-26 09:43:48.67	145.64	28.54	-44.1	-47.0	16.8	0.00e+00	0	43	0	339738624	58	5437
2026-01-26 09:43:49.66	145.57	28.72	-44.2	-47.0	16.8	0.00e+00	0	43	0	341835776	59	5121
2026-01-26 09:43:50.66	145.50	28.90	-44.2	-47.0	16.8	0.00e+00	0	43	0	343932928	59	5113
2026-01-26 09:43:51.65	145.43	29.08	-44.3	-47.2	16.6	0.00e+00	0	43	0	346030080	59	5225
2026-01-26 09:43:52.65	145.36	29.26	-44.5	-47.4	16.3	0.00e+00	0	43	0	347078656	59	5390
2026-01-26 09:43:53.64	145.28	29.44	-44.5	-47.5	16.3	0.00e+00	0	43	0	349175808	59	5421
2026-01-26 09:43:54.64	145.21	29.62	-44.7	-47.8	16.0	0.00e+00	0	43	0	351272960	60	5287
2026-01-26 09:43:55.63	145.14	29.81	-44.8	-48.0	15.8	0.00e+00	0	43	0	353370112	60	5419
2026-01-26 09:43:56.63	145.06	29.99	-44.9	-48.1	15.7	0.00e+00	0	43	0	355467264	60	5501
2026-01-26 09:43:57.63	144.98	30.18	-44.8	-48.0	15.8	0.00e+00	0	43	0	356515840	60	5436
2026-01-26 09:43:58.62	144.91	30.37	-44.9	-48.1	15.7	0.00e+00	0	43	0	358612992	60	5480
2026-01-26 09:43:59.62	144.83	30.56	-44.9	-48.1	15.7	0.00e+00	0	43	0	360710144	60	5521
2026-01-26 09:44:00.61	144.75	30.75	-45.1	-48.3	15.6	0.00e+00	0	43	0	362807296	60	5600
2026-01-26 09:44:01.60	144.67	30.94	-44.9	-48.1	15.7	0.00e+00	0	43	0	364904448	60	5508
2026-01-26 09:44:02.60	144.59	31.13	-45.1	-48.3	15.5	0.00e+00	0	43	0	365953024	60	5642
2026-01-26 09:44:03.59	144.51	31.33	-45.3	-48.6	15.2	0.00e+00	0	43	0	368050176	61	5492
2026-01-26 09:44:04.59	144.43	31.52	-45.3	-48.6	15.2	0.00e+00	0	43	0	370147328	61	5511
2026-01-26 09:44:05.58	144.34	31.72	-45.4	-48.9	14.8	0.00e+00	0	43	0	372244480	61	5685
2026-01-26 09:44:06.58	144.26	31.92	-45.6	-49.1	14.7	7.00e-07	0	43	0	373293056	61	5824
2026-01-26 09:44:07.57	144.17	32.11	-45.6	-49.1	14.7	7.00e-07	0	43	0	375390208	61	5829
2026-01-26 09:44:08.57	144.08	32.32	-45.8	-49.4	14.4	7.00e-07	0	43	0	377487360	62	5712
2026-01-26 09:44:09.57	144.00	32.52	-45.7	-49.2	14.6	1.50e-06	0	43	0	379584512	62	5583
2026-01-26 09:44:10.56	143.91	32.72	-45.7	-49.2	14.6	0.00e+00	0	43	0	381681664	62	5542
2026-01-26 09:44:11.56	143.82	32.92	-45.8	-49.5	14.4	1.50e-06	0	43	0	382730240	62	5736
2026-01-26 09:44:12.55	143.73	33.13	-45.7	-49.3	14.6	0.00e+00	0	43	0	384827392	62	5598
2026-01-26 09:44:13.55	143.63	33.34	-45.8	-49.4	14.4	7.00e-07	0	43	0	386924544	62	5703
2026-01-26 09:44:14.54	143.54	33.54	-45.9	-49.5	14.3	0.00e+00	0	43	0	389021696	62	5775
2026-01-26 09:44:15.54	143.44	33.75	-45.8	-49.5	14.3	4.50e-06	0	43	0	390070272	62	5777
2026-01-26 09:44:16.53	143.35	33.96	-45.9	-49.7	14.1	0.00e+00	0	43	0	392167424	62	5914
2026-01-26 09:44:17.53	143.25	34.18	-45.9	-49.7	14.1	7.00e-07	0	43	0	394264576	62	5867
2026-01-26 09:44:18.52	143.15	34.39	-46.0	-49.7	14.1	1.50e-06	0	43	0	396361728	62	5908
2026-01-26 09:44:19.51	143.05	34.60	-45.9	-49.6	14.2	1.50e-06	0	43	0	398458880	62	5819
2026-01-26 09:44:20.51	142.95	34.82	-45.9	-49.5	14.3	0.00e+00	0	43	0	399507456	62	5757
2026-01-26 09:44:21.51	142.84	35.04	-45.8	-49.4	14.4	2.20e-06	0	43	0	401604608	62	5689
2026-01-26 09:44:22.50	142.74	35.26	-45.6	-49.2	14.7	2.20e-06	0	43	0	403701760	62	5532
2026-01-26 09:44:23.50	142.63	35.48	-45.6	-49.1	14.7	7.00e-07	0	43	0	405798912	62	5522
2026-01-26 09:44:24.49	142.53	35.70	-45.5	-48.9	14.9	7.00e-07	0	43	0	406847488	62	5371
2026-01-26 09:44:25.49	142.42	35.92	-45.5	-48.9	14.9	7.00e-07	0	43	0	408944640	62	5387
2026-01-26 09:44:26.48	142.31	36.15	-45.4	-48.9	14.9	0.00e+00	0	43	0	411041792	62	5367
2026-01-26 09:44:27.48	142.19	36.37	-45.4	-48.8	15.0	0.00e+00	0	43	0	413138944	62	5321
2026-01-26 09:44:28.47	142.08	36.60	-45.5	-49.0	14.8	0.00e+00	0	43	0	415236096	62	5421
2026-01-26 09:44:29.47	141.96	36.83	-45.6	-49.1	14.8	0.00e+00	0	43	0	416284672	62	5497
2026-01-26 09:44:30.46	141.85	37.06	-45.8	-49.4	14.5	7.00e-07	0	43	0	418381824	62	5675
2026-01-26 09:44:31.46	141.73	37.29	-45.8	-49.5	14.3	0.00e+00	0	43	0	420478976	62	5747
2026-01-26 09:44:32.45	141.61	37.52	-45.9	-49.6	14.2	0.00e+00	0	43	0	422576128	62	5823
2026-01-26 09:44:33.45	141.49	37.76	-45.9	-49.6	14.1	7.00e-07	0	43	0	423624704	62	5853
2026-01-26 09:44:34.44	141.36	38.00	-46.0	-49.8	14.1	2.20e-06	0	43	0	425721856	62	5932
2026-01-26 09:44:35.44	141.23	38.24	-45.9	-49.5	14.3	0.00e+00	0	43	0	427819008	62	5773
2026-01-26 09:44:36.43	141.11	38.47	-45.9	-49.6	14.2	0.00e+00	0	43	0	429916160	62	5812
2026-01-26 09:44:37.43	140.98	38.72	-45.9	-49.6	14.2	2.20e-06	0	43	0	432013312	62	5840
2026-01-26 09:44:38.42	140.85	38.96	-45.9	-49.9	14.0	2.20e-06	0	43	0	433061888	62	5996
2026-01-26 09:44:39.42	140.71	39.20	-45.9	-49.8	14.0	3.00e-06	0	43	0	435159040	62	5984
2026-01-26 09:44:40.41	140.58	39.45	-46.0	-50.0	13.9	3.80e-06	0	43	0	437256192	62	6081
2026-01-26 09:44:41.41	140.44	39.69	-45.8	-49.6	14.3	7.00e-07	0	43	0	439353344	62	5796
2026-01-26 09:44:42.40	140.30	39.94	-45.8	-49.4	14.2	3.00e-06	0	43	0	440401920	62	5711
2026-01-26 09:44:43.40	140.15	40.19	-45.7	-49.2	14.5	0.00e+00	0	43	0	442499072	62	5584
2026-01-26 09:44:44.39	140.01	40.44	-45.6	-49.1	14.8	0.00e+00	0	43	0	444596224	62	5481
2026-01-26 09:44:45.39	139.86	40.70	-45.8	-49.3	14.5	7.00e-07	0	43	0	446693376	62	5636
2026-01-26 09:44:46.38	139.71	40.95	-45.4	-48.8	15.0	7.00e-07	0	43	0	448790528	62	5317
2026-01-26 09:44:47.38	139.56	41.21	-45.4	-48.8	15.0	0.00e+00	0	43	0	449839104	62	5324
2026-01-26 09:44:48.37	139.41	41.47	-45.2	-48.5	15.3	0.00e+00	0	43	0	451936256	62	5135
2026-01-26 09:44:49.37	139.25	41.73	-45.0	-48.2	15.6	0.00e+00	0	43	0	454033408	62	4978
2026-01-26 09:44:50.36	139.09	41.99	-44.9	-48.1	15.8	0.00e+00	0	43	0	456130560	61	5168
2026-01-26 09:44:51.36	138.93	42.25	-44.8	-48.0	15.9	0.00e+00	0	43	0	457179136	61	5109
2026-01-26 09:44:52.35	138.76	42.52	-44.8	-47.9	16.0	0.00e+00	0	43	0	459276288	61	5053
2026-01-26 09:44:53.34	138.60	42.78	-44.6	-47.5	16.3	0.00e+00	0	43	0	461373440	61	4849
2026-01-26 09:44:54.34	138.43	43.05	-44.6	-47.5	16.3	0.00e+00	0	43	0	463470592	61	4867
2026-01-26 09:44:55.33	138.25	43.32	-44.6	-47.5	16.3	0.00e+00	0	43	0	465567744	60	5140
2026-01-26 09:44:56.33	138.08	43.59	-44.7	-47.7	16.2	0.00e+00	0	43	0	466616320	60	5227
2026-01-26 09:44:57.32	137.90	43.86	-44.4	-47.3	16.6	0.00e+00	0	43	0	468713472	60	5000
2026-01-26 09:44:58.32	137.71	44.14	-44.2	-47.0	16.8	0.00e+00	0	43	0	470810624	60	4816
2026-01-26 09:44:59.32	137.53	44.41	-43.9	-46.6	17.2	0.00e+00	0	43	0	472907776	59	4899
2026-01-26 09:45:00.31	137.34	44.69	-44.1	-46.8	16.9	0.00e+00	0	43	0	473956352	59	5013
2026-01-26 09:45:01.31	137.15	44.97	-43.9	-46.6	17.2	0.00e+00	0	43	0	476053504	59	4902
2026-01-26 09:45:02.30	136.95	45.25	-43.9	-46.7	17.2	0.00e+00	0	43	0	478150656	59	4931
2026-01-26 09:45:03.30	136.75	45.53	-43.7	-46.4	17.4	0.00e+00	0	43	0	480247808	59	4769
2026-01-26 09:45:04.29	136.55	45.82	-43.3	-45.8	17.9	0.00e+00	0	43	0	482344960	58	4757
2026-01-26 09:45:05.29	136.34	46.10	-43.2	-45.7	18.1	0.00e+00	0	43	0	483393536	58	4685
2026-01-26 09:45:06.28	136.13	46.39	-43.3	-45.9	17.9	0.00e+00	0	43	0	485490688	58	4781
2026-01-26 09:45:07.28	135.92	46.68	-43.2	-45.7	18.1	0.00e+00	0	43	0	487587840	58	4666
2026-01-26 09:45:08.27	135.70	46.97	-43.1	-45.5	18.2	0.00e+00	0	43	0	489684992	58	4593
2026-01-26 09:45:09.27	135.47	47.26	-42.9	-45.3	18.4	0.00e+00	0	43	0	490733568	57	4736
2026-01-26 09:45:10.26	135.25	47.55	-43.1	-45.6	18.2	0.00e+00	0	43	0	492830720	57	4874
2026-01-26 09:45:11.26	135.02	47.85	-43.4	-46.0	17.8	0.00e+00	0	43	0	494927872	57	5119
2026-01-26 09:45:12.25	134.78	48.14	-43.6	-46.2	17.6	0.00e+00	0	43	0	497025024	57	5222
2026-01-26 09:45:13.25	134.54	48.44	-43.5	-46.1	17.7	0.00e+00	0	43	0	499122176	57	5193
2026-01-26 09:45:14.24	134.30	48.74	-43.5	-46.0	17.8	0.00e+00	0	43	0	500170752	57	5152
2026-01-26 09:45:15.24	134.04	49.04	-43.5	-46.1	17.7	0.00e+00	0	43	0	502267904	57	5182
2026-01-26 09:45:16.23	133.79	49.34	-43.5	-46.1	17.7	0.00e+00	0	43	0	504365056	57	5194
2026-01-26 09:45:17.22	133.53	49.64	-43.2	-45.7	18.1	0.00e+00	0	43	0	506462208	57	4957
2026-01-26 09:45:18.22	133.26	49.95	-43.0	-45.5	18.3	0.00e+00	0	43	0	507510784	57	4834
2026-01-26 09:45:19.21	132.99	50.25	-42.8	-45.2	18.6	0.00e+00	0	43	0	509607936	57	4667
2026-01-26 09:45:20.21	132.72	50.56	-42.4	-44.7	19.0	0.00e+00	0	43	0	511705088	56	4701
2026-01-26 09:45:21.20	132.44	50.87	-42.1	-44.4	19.3	0.00e+00	0	43	0	513802240	56	4498
2026-01-26 09:45:22.20	132.15	51.18	-42.0	-44.3	19.5	0.00e+00	0	43	0	515899392	56	4455
2026-01-26 09:45:23.20	131.85	51.49	-42.2	-44.4	19.3	0.00e+00	0	43	0	516947968	56	4538
2026-01-26 09:45:24.19	131.55	51.80	-42.2	-44.5	19.2	0.00e+00	0	43	0	519045120	56	4571
2026-01-26 09:45:25.19	131.24	52.12	-42.0	-44.3	19.5	0.00e+00	0	43	0	521142272	56	4446
2026-01-26 09:45:26.18	130.93	52.43	-41.8	-44.0	19.6	0.00e+00	0	43	0	523239424	55	4586
2026-01-26 09:45:27.17	130.61	52.75	-41.8	-44.1	19.5	0.00e+00	0	43	0	524288000	55	4618
2026-01-26 09:45:28.17	130.28	53.07	-41.8	-44.1	19.6	0.00e+00	0	43	0	526385152	55	4615
2026-01-26 09:45:29.17	129.95	53.38	-41.7	-43.9	19.7	0.00e+00	0	43	0	528482304	55	4495
2026-01-26 09:45:30.16	129.60	53.70	-41.6	-43.8	19.7	0.00e+00	0	43	0	530579456	55	4450
2026-01-26 09:45:31.15	129.26	54.02	-41.8	-44.0	19.6	0.00e+00	0	43	0	532676608	55	4572
2026-01-26 09:45:32.15	128.90	54.34	-42.2	-44.5	19.1	0.00e+00	0	43	0	533725184	55	4826
2026-01-26 09:45:33.14	128.53	54.66	-42.3	-44.6	18.9	0.00e+00	0	43	0	535822336	55	4920
2026-01-26 09:45:34.13	128.16	54.98	-42.4	-44.7	18.9	0.00e+00	0	43	0	537919488	55	4963
2026-01-26 09:45:35.13	127.78	55.31	-42.8	-45.2	18.5	0.00e+00	0	43	0	540016640	56	4981
2026-01-26 09:45:36.12	127.39	55.63	-43.2	-45.8	18.0	0.00e+00	0	43	0	541065216	57	4990
2026-01-26 09:45:37.12	126.98	55.96	-43.6	-46.2	17.6	0.00e+00	0	43	0	543162368	57	5241
2026-01-26 09:45:38.11	126.57	56.28	-43.7	-46.3	17.5	0.00e+00	0	44	0	545259520	58	5027
2026-01-26 09:45:39.10	126.16	56.60	-44.4	-47.3	16.6	0.00e+00	0	43	0	547356672	59	5290
2026-01-26 09:45:40.10	125.72	56.93	-45.2	-48.5	15.5	0.00e+00	0	43	0	549453824	60	5732
2026-01-26 09:45:41.09	125.28	57.25	-45.6	-49.1	14.8	0.00e+00	0	43	0	550502400	61	5847
2026-01-26 09:45:42.09	124.83	57.58	-46.2	-50.1	13.9	2.20e-06	0	43	0	552599552	63	5818
2026-01-26 09:45:43.08	124.37	57.91	-46.5	-50.6	13.3	2.13e-05	0	43	0	554696704	63	6146
2026-01-26 09:45:44.08	123.89	58.23	-46.4	-50.3	13.6	2.59e-05	0	43	0	556793856	63	5959
2026-01-26 09:45:45.08	123.40	58.56	-45.9	-49.5	14.4	3.00e-06	0	43	0	557842432	63	5416
2026-01-26 09:45:46.07	122.91	58.89	-45.6	-49.0	14.9	0.00e+00	0	43	0	559939584	63	5122
2026-01-26 09:45:47.07	122.40	59.21	-45.4	-48.7	15.2	0.00e+00	0	43	0	562036736	62	5263
2026-01-26 09:45:48.06	121.87	59.54	-44.9	-48.0	15.9	0.00e+00	0	43	0	564133888	61	5106
2026-01-26 09:45:49.06	121.34	59.86	-44.4	-47.2	16.7	0.00e+00	0	43	0	566231040	60	4974
2026-01-26 09:45:50.05	120.79	60.19	-44.2	-47.0	17.0	0.00e+00	0	43	0	567279616	60	4820
2026-01-26 09:45:51.05	120.22	60.51	-44.0	-46.7	17.1	0.00e+00	0	43	0	569376768	59	4958
2026-01-26 09:45:52.04	119.64	60.83	-43.4	-45.9	17.9	0.00e+00	0	43	0	571473920	58	4789
2026-01-26 09:45:53.04	119.05	61.15	-42.9	-45.3	18.4	0.00e+00	0	43	0	573571072	57	4756
2026-01-26 09:45:54.04	118.43	61.47	-42.6	-45.0	18.8	0.00e+00	0	43	0	575668224	57	4589
2026-01-26 09:45:55.03	117.81	61.79	-42.4	-44.7	19.1	0.00e+00	0	43	0	576716800	56	4681
2026-01-26 09:45:56.03	117.17	62.11	-41.8	-44.0	19.6	0.00e+00	0	43	0	578813952	55	4593
2026-01-26 09:45:57.02	116.51	62.42	-41.5	-43.7	19.9	0.00e+00	0	43	0	580911104	55	4407
2026-01-26 09:45:58.02	115.83	62.74	-41.7	-44.0	19.6	0.00e+00	0	43	0	583008256	54	4818
2026-01-26 09:45:59.01	115.14	63.05	-41.9	-44.2	19.5	0.00e+00	0	43	0	584056832	54	4963
2026-01-26 09:46:00.01	114.42	63.36	-42.1	-44.4	19.2	0.00e+00	0	43	0	586153984	55	4777
2026-01-26 09:46:01.00	113.70	63.66	-42.0	-44.2	19.4	0.00e+00	0	43	0	588251136	55	4688
2026-01-26 09:46:02.00	112.94	63.97	-42.2	-44.5	19.1	0.00e+00	0	43	0	590348288	55	4855
2026-01-26 09:46:02.99	112.17	64.27	-42.2	-44.5	19.1	0.00e+00	0	43	0	592445440	55	4851
2026-01-26 09:46:03.98	111.39	64.56	-42.0	-44.2	19.3	0.00e+00	0	43	0	593494016	55	4689
2026-01-26 09:46:04.98	110.57	64.86	-42.4	-44.7	18.9	0.00e+00	0	43	0	595591168	55	4982
2026-01-26 09:46:05.98	109.73	65.15	-43.0	-45.4	18.4	0.00e+00	0	43	0	597688320	56	5076
2026-01-26 09:46:06.97	108.88	65.44	-43.2	-45.6	18.2	0.00e+00	0	43	0	599785472	57	4916
2026-01-26 09:46:07.97	108.00	65.72	-43.3	-45.9	18.0	0.00e+00	0	43	0	600834048	57	5051
2026-01-26 09:46:08.96	107.10	66.00	-44.0	-46.8	17.1	0.00e+00	0	43	0	602931200	58	5306
2026-01-26 09:46:09.95	106.19	66.27	-44.2	-47.1	16.7	0.00e+00	0	43	0	605028352	59	5192
2026-01-26 09:46:10.95	105.23	66.54	-44.7	-47.6	16.3	0.00e+00	0	43	0	607125504	60	5212
2026-01-26 09:46:11.94	104.27	66.81	-44.8	-47.8	16.2	0.00e+00	0	43	0	609222656	60	5328
2026-01-26 09:46:12.94	103.27	67.07	-45.0	-48.2	15.7	0.00e+00	0	44	0	610271232	60	5555
2026-01-26 09:46:13.93	102.25	67.32	-44.9	-48.2	15.7	0.00e+00	0	43	0	612368384	60	5540
2026-01-26 09:46:14.93	101.20	67.57	-45.0	-48.3	15.8	0.00e+00	0	43	0	614465536	60	5597
2026-01-26 09:46:15.92	100.14	67.81	-45.0	-48.2	15.8	0.00e+00	0	43	0	616562688	60	5584
2026-01-26 09:46:16.92	99.04	68.04	-45.0	-48.2	15.8	0.00e+00	0	43	0	617611264	60	5574
2026-01-26 09:46:17.91	97.92	68.27	-44.7	-47.9	16.1	0.00e+00	0	43	0	619708416	60	5345
2026-01-26 09:46:18.91	96.77	68.49	-44.4	-47.5	16.5	0.00e+00	0	43	0	621805568	60	5123
2026-01-26 09:46:19.90	95.60	68.70	-44.2	-47.2	16.8	0.00e+00	0	43	0	623902720	60	4970
2026-01-26 09:46:20.90	94.40	68.90	-43.8	-46.7	17.2	0.00e+00	0	43	0	625999872	59	4933
2026-01-26 09:46:21.89	93.19	69.10	-43.3	-45.9	17.9	0.00e+00	0	43	0	627048448	58	4810
2026-01-26 09:46:22.89	91.94	69.29	-42.9	-45.4	18.4	0.00e+00	0	43	0	629145600	57	4774
2026-01-26 09:46:23.88	90.67	69.46	-43.3	-45.9	17.9	0.00e+00	0	43	0	631242752	57	5083
2026-01-26 09:46:24.88	89.38	69.63	-43.7	-46.4	17.5	0.00e+00	0	43	0	633339904	58	5058
2026-01-26 09:46:25.87	88.07	69.79	-43.6	-46.3	17.6	0.00e+00	0	43	0	634388480	58	4996
2026-01-26 09:46:26.87	86.72	69.94	-43.5	-46.1	17.8	0.00e+00	0	43	0	636485632	58	4915
2026-01-26 09:46:27.87	85.36	70.08	-43.1	-45.6	18.2	0.00e+00	0	43	0	638582784	58	4612
2026-01-26 09:46:28.86	83.99	70.21	-43.6	-46.3	17.6	0.00e+00	0	43	0	640679936	58	5020
2026-01-26 09:46:29.86	82.59	70.33	-43.9	-46.6	17.3	0.00e+00	0	43	0	642777088	58	5178
2026-01-26 09:46:30.85	81.18	70.44	-43.8	-46.4	17.6	0.00e+00	0	43	0	643825664	58	5053
2026-01-26 09:46:31.84	79.76	70.53	-43.9	-46.5	17.3	0.00e+00	0	43	0	645922816	58	5143
2026-01-26 09:46:32.84	78.31	70.62	-44.0	-46.7	17.1	0.00e+00	0	43	0	648019968	59	4964
2026-01-26 09:46:33.83	76.87	70.69	-44.2	-46.9	17.0	0.00e+00	0	43	0	650117120	59	5096
2026-01-26 09:46:34.83	75.39	70.75	-44.4	-47.3	16.6	0.00e+00	0	43	0	651165696	59	5314
2026-01-26 09:46:35.82	73.93	70.80	-43.9	-46.5	17.3	0.00e+00	0	43	0	653262848	59	4854
2026-01-26 09:46:36.82	72.44	70.84	-43.9	-46.7	17.3	0.00e+00	0	44	0	655360000	59	4928
2026-01-26 09:46:37.81	70.96	70.86	-44.4	-47.2	16.7	0.00e+00	0	44	0	657457152	59	5238
2026-01-26 09:46:38.80	69.48	70.87	-44.7	-47.6	16.4	0.00e+00	0	43	0	659554304	60	5201
2026-01-26 09:46:39.80	67.98	70.87	-44.3	-47.1	16.8	0.00e+00	0	43	0	660602880	60	4925
2026-01-26 09:46:40.79	66.50	70.86	-43.8	-46.5	17.4	0.00e+00	0	44	0	662700032	59	4831
2026-01-26 09:46:41.79	65.00	70.84	-43.2	-45.7	18.2	0.00e+00	0	43	0	664797184	58	4659
2026-01-26 09:46:42.78	63.53	70.80	-43.0	-45.5	18.4	0.00e+00	0	43	0	666894336	58	4552
2026-01-26 09:46:43.78	62.05	70.75	-43.5	-46.1	17.8	0.00e+00	0	43	0	668991488	58	4896
2026-01-26 09:46:44.78	60.57	70.69	-43.5	-46.0	17.9	0.00e+00	0	43	0	670040064	58	4861
2026-01-26 09:46:45.77	59.12	70.62	-43.4	-45.9	18.0	0.00e+00	0	43	0	672137216	58	4787
2026-01-26 09:46:46.76	57.69	70.54	-43.2	-45.7	18.2	0.00e+00	0	43	0	674234368	58	4668
2026-01-26 09:46:47.76	56.25	70.45	-43.4	-45.9	18.0	0.00e+00	0	43	0	676331520	58	4769
2026-01-26 09:46:48.75	54.85	70.34	-43.2	-45.6	18.2	0.00e+00	0	43	0	677380096	58	4635
2026-01-26 09:46:49.75	53.44	70.22	-43.1	-45.5	18.4	0.00e+00	0	43	0	679477248	58	4564
2026-01-26 09:46:50.74	52.07	70.10	-43.2	-45.6	18.2	0.00e+00	0	43	0	681574400	58	4642
2026-01-26 09:46:51.73	50.72	69.96	-44.0	-46.6	17.3	0.00e+00	0	43	0	683671552	58	5217
2026-01-26 09:46:52.73	49.38	69.81	-44.5	-47.4	16.6	0.00e+00	0	43	0	684720128	59	5379
2026-01-26 09:46:53.72	48.07	69.65	-44.8	-47.7	16.2	0.00e+00	0	43	0	686817280	60	5277
2026-01-26 09:46:54.72	46.77	69.48	-44.6	-47.5	16.5	0.00e+00	0	43	0	688914432	60	5149
2026-01-26 09:46:55.71	45.50	69.31	-44.7	-47.7	16.3	0.00e+00	0	43	0	691011584	60	5264
2026-01-26 09:46:56.71	44.25	69.12	-45.4	-48.7	15.4	0.00e+00	0	43	0	693108736	61	5557
2026-01-26 09:46:57.70	43.03	68.93	-45.7	-49.1	14.8	0.00e+00	0	43	0	694157312	62	5505
2026-01-26 09:46:58.69	41.84	68.73	-45.7	-49.2	14.8	0.00e+00	0	44	0	696254464	62	5540
2026-01-26 09:46:59.69	40.66	68.51	-45.9	-49.5	14.6	0.00e+00	0	43	0	698351616	62	5732
2026-01-26 09:47:00.65	39.56	68.30	-45.7	-49.1	14.8	0.00e+00	0	43	0	700448768	62	5491
2026-01-26 09:47:01.65	38.43	68.08	-45.7	-49.2	14.8	7.00e-07	0	43	0	701497344	62	5529
2026-01-26 09:47:02.64	37.34	67.85	-45.6	-49.0	14.9	0.00e+00	0	43	0	703594496	62	5460
2026-01-26 09:47:03.64	36.26	67.60	-45.8	-49.4	14.6	0.00e+00	0	43	0	705691648	62	5673
2026-01-26 09:47:04.63	35.22	67.36	-45.9	-49.4	14.6	1.50e-06	0	43	0	707788800	62	5719
2026-01-26 09:47:05.63	34.19	67.11	-46.1	-49.9	14.1	0.00e+00	0	43	0	709885952	62	6000
2026-01-26 09:47:06.62	33.20	66.85	-45.9	-49.4	14.6	3.00e-06	0	43	0	710934528	63	5393
2026-01-26 09:47:07.62	32.22	66.59	-45.0	-48.0	16.0	0.00e+00	0	43	0	713031680	62	4843
2026-01-26 09:47:08.61	31.27	66.32	-44.4	-47.2	16.8	0.00e+00	0	43	0	715128832	60	4960
2026-01-26 09:47:09.61	30.34	66.05	-43.9	-46.6	17.3	0.00e+00	0	43	0	717225984	59	4890
2026-01-26 09:47:10.60	29.44	65.77	-43.6	-46.1	17.8	0.00e+00	0	43	0	718274560	59	4639
2026-01-26 09:47:11.60	28.56	65.49	-43.5	-46.1	17.8	0.00e+00	0	44	0	720371712	59	4644
2026-01-26 09:47:12.59	27.71	65.20	-43.3	-45.8	18.1	0.00e+00	0	44	0	722468864	58	4739
2026-01-26 09:47:13.59	26.87	64.91	-42.7	-45.0	18.8	0.00e+00	0	44	0	724566016	57	4583
2026-01-26 09:47:14.58	26.06	64.62	-42.3	-44.5	19.3	0.00e+00	0	43	0	726663168	56	4587
2026-01-26 09:47:15.58	25.26	64.32	-41.9	-44.0	19.6	0.00e+00	0	43	0	727711744	55	4597
2026-01-26 09:47:16.58	24.49	64.02	-41.8	-43.9	19.8	0.00e+00	0	43	0	729808896	55	4542
2026-01-26 09:47:17.57	23.74	63.72	-41.9	-44.1	19.6	0.00e+00	0	44	0	731906048	55	4599
2026-01-26 09:47:18.56	23.01	63.41	-41.9	-44.1	19.6	0.00e+00	0	44	0	734003200	55	4648
2026-01-26 09:47:19.56	22.29	63.11	-41.9	-44.1	19.6	0.00e+00	0	43	0	735051776	55	4603
2026-01-26 09:47:20.55	21.60	62.80	-41.9	-44.1	19.6	0.00e+00	0	43	0	737148928	55	4618
2026-01-26 09:47:21.55	20.92	62.48	-42.1	-44.4	19.3	0.00e+00	0	43	0	739246080	55	4784
2026-01-26 09:47:22.54	20.26	62.17	-42.1	-44.4	19.3	0.00e+00	0	44	0	741343232	55	4785
2026-01-26 09:47:23.54	19.61	61.85	-42.4	-44.7	19.0	0.00e+00	0	43	0	743440384	55	4957
2026-01-26 09:47:24.53	18.99	61.54	-42.5	-44.8	18.9	0.00e+00	0	43	0	744488960	55	5028
2026-01-26 09:47:25.53	18.37	61.22	-42.9	-45.3	18.6	0.00e+00	0	43	0	746586112	56	5033
2026-01-26 09:47:26.52	17.78	60.90	-43.1	-45.6	18.4	0.00e+00	0	43	0	748683264	56	5179
2026-01-26 09:47:27.52	17.20	60.58	-43.3	-45.8	18.2	0.00e+00	0	43	0	750780416	57	5014
2026-01-26 09:47:28.51	16.64	60.26	-43.5	-46.0	17.9	0.00e+00	0	43	0	751828992	57	5139
2026-01-26 09:47:29.51	16.08	59.93	-43.5	-46.1	17.8	0.00e+00	0	43	0	753926144	57	5184
2026-01-26 09:47:30.50	15.55	59.61	-43.8	-46.4	17.4	0.00e+00	0	43	0	756023296	58	5098
2026-01-26 09:47:31.50	15.02	59.28	-44.4	-47.2	16.8	0.00e+00	0	43	0	758120448	59	5276
2026-01-26 09:47:32.49	14.51	58.96	-45.0	-48.0	16.0	0.00e+00	0	43	0	760217600	60	5449
2026-01-26 09:47:33.49	14.01	58.63	-45.0	-48.1	16.0	0.00e+00	0	43	0	761266176	60	5482
2026-01-26 09:47:34.48	13.52	58.31	-44.6	-47.6	16.4	0.00e+00	0	43	0	763363328	60	5173
2026-01-26 09:47:35.48	13.05	57.98	-44.6	-47.5	16.5	0.00e+00	0	43	0	765460480	60	5134
2026-01-26 09:47:36.47	12.58	57.66	-44.8	-47.8	16.2	0.00e+00	0	43	0	767557632	60	5327
2026-01-26 09:47:37.47	12.13	57.33	-44.8	-47.8	16.3	0.00e+00	0	43	0	768606208	60	5282
2026-01-26 09:47:38.46	11.69	57.01	-45.1	-48.4	15.7	0.00e+00	0	43	0	770703360	60	5667
2026-01-26 09:47:39.46	11.26	56.69	-45.0	-48.2	15.8	0.00e+00	0	43	0	772800512	61	5247
2026-01-26 09:47:40.45	10.84	56.36	-44.2	-47.0	17.0	0.00e+00	0	43	0	774897664	60	4843
2026-01-26 09:47:41.45	10.42	56.04	-43.6	-46.2	17.7	0.00e+00	0	43	0	776994816	59	4675
2026-01-26 09:47:42.44	10.02	55.72	-43.4	-46.0	17.9	0.00e+00	0	43	0	778043392	58	4820
2026-01-26 09:47:43.44	9.63	55.39	-43.0	-45.4	18.5	0.00e+00	0	43	0	780140544	57	4781
2026-01-26 09:47:44.43	9.25	55.07	-42.5	-44.8	19.1	0.00e+00	0	43	0	782237696	56	4741
2026-01-26 09:47:45.43	8.87	54.75	-42.4	-44.7	19.2	0.00e+00	0	43	0	784334848	56	4658
2026-01-26 09:47:46.42	8.51	54.43	-42.4	-44.7	19.2	0.00e+00	0	43	0	785383424	56	4668
2026-01-26 09:47:47.42	8.15	54.11	-42.2	-44.5	19.3	0.00e+00	0	43	0	787480576	56	4591
2026-01-26 09:47:48.41	7.80	53.79	-42.3	-44.6	19.4	0.00e+00	0	43	0	789577728	56	4599
2026-01-26 09:47:49.40	7.46	53.47	-42.1	-44.4	19.5	0.00e+00	0	43	0	791674880	56	4509
2026-01-26 09:47:50.40	7.12	53.16	-41.8	-44.0	19.7	0.00e+00	0	43	0	793772032	55	4576
2026-01-26 09:47:51.39	6.79	52.84	-41.8	-43.9	19.7	0.00e+00	0	43	0	794820608	55	4538
2026-01-26 09:47:52.39	6.47	52.53	-42.0	-44.2	19.5	0.00e+00	0	43	0	796917760	55	4662
2026-01-26 09:47:53.38	6.16	52.21	-42.2	-44.5	19.3	0.00e+00	0	43	0	799014912	55	4816
2026-01-26 09:47:54.38	5.85	51.90	-42.3	-44.6	19.1	0.00e+00	0	43	0	801112064	55	4910
2026-01-26 09:47:55.37	5.55	51.59	-42.6	-45.0	18.8	0.00e+00	0	43	0	802160640	55	5103
2026-01-26 09:47:56.37	5.25	51.28	-43.1	-45.6	18.3	0.00e+00	0	43	0	804257792	56	5192
2026-01-26 09:47:57.36	4.96	50.97	-43.5	-46.0	17.9	0.00e+00	0	43	0	806354944	57	5141
2026-01-26 09:47:58.36	4.68	50.66	-43.8	-46.4	17.6	0.00e+00	0	43	0	808452096	58	5073
2026-01-26 09:47:59.35	4.41	50.36	-43.9	-46.5	17.4	0.00e+00	0	43	0	810549248	58	5152
2026-01-26 09:48:00.34	4.14	50.05	-44.2	-46.9	17.1	0.00e+00	0	43	0	811597824	59	5049
2026-01-26 09:48:01.34	3.87	49.75	-44.4	-47.2	16.8	0.00e+00	0	43	0	813694976	59	5233
2026-01-26 09:48:02.33	3.61	49.45	-44.7	-47.7	16.4	0.00e+00	0	43	0	815792128	60	5223
2026-01-26 09:48:03.33	3.35	49.14	-44.7	-47.7	16.3	0.00e+00	0	43	0	817889280	60	5236
2026-01-26 09:48:04.32	3.10	48.85	-44.6	-47.5	16.5	0.00e+00	0	43	0	818937856	60	5142
2026-01-26 09:48:05.32	2.86	48.55	-44.6	-47.5	16.5	0.00e+00	0	43	0	821035008	60	5110
2026-01-26 09:48:06.31	2.62	48.25	-44.9	-47.9	16.1	0.00e+00	0	43	0	823132160	60	5395
2026-01-26 09:48:07.31	2.38	47.95	-44.9	-48.0	16.0	0.00e+00	0	43	0	825229312	60	5438
2026-01-26 09:48:08.30	2.15	47.66	-44.9	-48.1	16.0	0.00e+00	0	43	0	827326464	60	5472
2026-01-26 09:48:09.30	1.92	47.37	-44.8	-47.9	16.1	0.00e+00	0	43	0	828375040	60	5373
2026-01-26 09:48:10.30	1.70	47.08	-44.8	-47.8	16.1	0.00e+00	0	43	0	830472192	60	5338
2026-01-26 09:48:11.29	1.48	46.79	-44.8	-47.9	16.2	0.00e+00	0	43	0	832569344	60	5350
2026-01-26 09:48:12.29	1.26	46.50	-44.6	-47.6	16.4	0.00e+00	0	43	0	834666496	60	5174
2026-01-26 09:48:13.28	1.05	46.21	-44.4	-47.4	16.7	0.00e+00	0	43	0	836763648	60	5049
2026-01-26 09:48:14.28	0.85	45.93	-44.2	-47.1	16.9	0.00e+00	0	43	0	837812224	60	4897
2026-01-26 09:48:15.27	0.64	45.65	-44.1	-46.9	17.2	0.00e+00	0	43	0	839909376	60	4761
2026-01-26 09:48:16.27	0.44	45.37	-44.2	-46.9	17.1	0.00e+00	0	43	0	842006528	60	4799
2026-01-26 09:48:17.27	0.25	45.08	-44.3	-47.0	17.0	0.00e+00	0	43	0	844103680	60	4863
2026-01-26 09:48:18.26	0.05	44.81	-44.4	-47.3	16.8	0.00e+00	0	43	0	845152256	60	4992
2026-01-26 09:48:19.25	359.87	44.53	-44.3	-47.3	16.7	0.00e+00	0	43	0	847249408	60	4995
2026-01-26 09:48:20.25	359.68	44.26	-44.5	-47.5	16.5	0.00e+00	0	43	0	849346560	60	5127
2026-01-26 09:48:21.24	359.50	43.98	-44.5	-47.6	16.4	0.00e+00	0	43	0	851443712	60	5218
2026-01-26 09:48:22.24	359.32	43.71	-44.6	-47.7	16.3	0.00e+00	0	43	0	853540864	60	5252
2026-01-26 09:48:23.23	359.14	43.44	-44.6	-47.7	16.4	0.00e+00	0	43	0	854589440	60	5239
2026-01-26 09:48:24.23	358.97	43.17	-44.8	-48.0	16.0	0.00e+00	0	43	0	856686592	60	5410
2026-01-26 09:48:25.21	358.80	42.91	-45.2	-48.5	15.6	0.00e+00	0	44	0	858783744	61	5406
2026-01-26 09:48:26.20	358.63	42.65	-45.6	-49.1	15.0	0.00e+00	0	43	0	860880896	61	5822
2026-01-26 09:48:27.19	358.47	42.38	-45.8	-49.4	14.6	0.00e+00	0	43	0	861929472	62	5695
2026-01-26 09:48:28.19	358.31	42.12	-45.8	-49.3	14.7	0.00e+00	0	43	0	864026624	62	5652
2026-01-26 09:48:29.18	358.15	41.86	-45.8	-49.4	14.7	0.00e+00	0	44	0	866123776	62	5674
2026-01-26 09:48:30.18	357.99	41.60	-45.7	-49.1	14.9	7.00e-07	0	43	0	868220928	62	5523
2026-01-26 09:48:31.17	357.84	41.34	-45.5	-48.8	15.2	0.00e+00	0	43	0	870318080	62	5313
2026-01-26 09:48:32.17	357.68	41.09	-45.2	-48.5	15.6	0.00e+00	0	43	0	871366656	62	5127
2026-01-26 09:48:33.16	357.54	40.83	-45.3	-48.5	15.5	0.00e+00	0	43	0	873463808	62	5148
2026-01-26 09:48:34.15	357.39	40.58	-45.3	-48.6	15.5	0.00e+00	0	43	0	875560960	62	5175
2026-01-26 09:48:35.15	357.24	40.33	-45.2	-48.5	15.6	0.00e+00	0	43	0	877658112	62	5106
2026-01-26 09:48:36.14	357.10	40.08	-45.2	-48.5	15.6	0.00e+00	0	43	0	878706688	62	5106
2026-01-26 09:48:37.14	356.96	39.83	-45.4	-48.6	15.4	0.00e+00	0	43	0	880803840	62	5186
2026-01-26 09:48:38.13	356.82	39.59	-45.1	-48.2	15.8	0.00e+00	0	43	0	882900992	62	4973
2026-01-26 09:48:39.13	356.69	39.34	-45.2	-48.3	15.7	0.00e+00	0	43	0	884998144	62	5010
2026-01-26 09:48:40.12	356.56	39.10	-45.1	-48.2	15.9	0.00e+00	0	43	0	887095296	62	4959
2026-01-26 09:48:41.12	356.42	38.86	-45.0	-48.1	15.9	0.00e+00	0	43	0	888143872	61	5181
2026-01-26 09:48:42.12	356.29	38.61	-44.6	-47.5	16.5	0.00e+00	0	43	0	890241024	61	4851
2026-01-26 09:48:43.11	356.17	38.38	-44.4	-47.3	16.7	0.00e+00	0	43	0	892338176	60	5007
2026-01-26 09:48:44.11	356.04	38.14	-44.2	-47.1	16.9	0.00e+00	0	43	0	894435328	60	4921
2026-01-26 09:48:45.10	355.92	37.90	-44.1	-47.2	16.8	0.00e+00	0	43	0	895483904	60	4947
2026-01-26 09:48:46.10	355.79	37.67	-44.2	-47.4	16.7	0.00e+00	0	44	0	897581056	60	5050
2026-01-26 09:48:47.10	355.67	37.43	-44.3	-47.5	16.6	0.00e+00	0	43	0	899678208	60	5113
2026-01-26 09:48:48.09	355.55	37.20	-44.4	-47.6	16.4	0.00e+00	0	43	0	901775360	60	5188
2026-01-26 09:48:49.08	355.44	36.98	-44.4	-47.5	16.6	0.00e+00	0	43	0	903872512	60	5152
2026-01-26 09:48:50.08	355.32	36.75	-44.4	-47.5	16.6	0.00e+00	0	43	0	904921088	60	5107
2026-01-26 09:48:51.07	355.21	36.52	-44.4	-47.4	16.7	0.00e+00	0	43	0	907018240	60	5047
2026-01-26 09:48:52.07	355.10	36.29	-44.6	-47.7	16.3	0.00e+00	0	43	0	909115392	60	5233
2026-01-26 09:48:53.06	354.99	36.07	-44.8	-48.0	16.1	0.00e+00	0	44	0	911212544	60	5405
2026-01-26 09:48:54.06	354.88	35.85	-45.1	-48.3	15.7	0.00e+00	0	43	0	912261120	60	5646
2026-01-26 09:48:55.05	354.77	35.63	-44.9	-48.1	15.9	0.00e+00	0	43	0	914358272	60	5517
2026-01-26 09:48:56.04	354.66	35.41	-44.9	-48.1	15.9	0.00e+00	0	43	0	916455424	60	5497
2026-01-26 09:48:57.04	354.56	35.19	-44.8	-47.9	16.1	0.00e+00	0	44	0	918552576	60	5391
2026-01-26 09:48:58.03	354.46	34.97	-44.9	-48.0	16.0	0.00e+00	0	43	0	920649728	60	5424
2026-01-26 09:48:59.03	354.35	34.76	-44.8	-47.9	16.1	0.00e+00	0	43	0	921698304	60	5380
2026-01-26 09:49:00.02	354.25	34.54	-45.0	-48.2	15.9	0.00e+00	0	44	0	923795456	60	5540
2026-01-26 09:49:01.02	354.16	34.33	-44.9	-48.2	15.9	0.00e+00	0	43	0	925892608	60	5546
2026-01-26 09:49:02.01	354.06	34.12	-45.0	-48.4	15.7	0.00e+00	0	43	0	927989760	60	5661
2026-01-26 09:49:03.00	353.96	33.91	-44.9	-48.3	15.8	0.00e+00	0	43	0	929038336	60	5610
2026-01-26 09:49:04.00	353.87	33.70	-44.9	-48.4	15.7	0.00e+00	0	44	0	931135488	60	5667
2026-01-26 09:49:04.99	353.77	33.49	-45.1	-48.6	15.4	0.00e+00	0	43	0	933232640	60	5851
2026-01-26 09:49:05.99	353.68	33.29	-45.1	-48.7	15.4	0.00e+00	0	43	0	935329792	60	5863
2026-01-26 09:49:06.98	353.59	33.08	-45.5	-49.1	14.9	0.00e+00	0	43	0	937426944	61	5836
2026-01-26 09:49:07.97	353.50	32.88	-45.6	-49.2	14.9	0.00e+00	0	44	0	938475520	61	5865
2026-01-26 09:49:08.97	353.41	32.68	-45.7	-49.3	14.8	2.20e-06	0	43	0	940572672	62	5636
2026-01-26 09:49:09.97	353.32	32.48	-45.8	-49.3	14.7	0.00e+00	0	43	0	942669824	62	5651
2026-01-26 09:49:10.96	353.24	32.28	-45.7	-49.3	14.7	0.00e+00	0	44	0	944766976	62	5605
2026-01-26 09:49:11.95	353.15	32.08	-45.6	-49.1	15.0	0.00e+00	0	43	0	945815552	62	5476
2026-01-26 09:49:12.95	353.07	31.88	-45.4	-48.8	15.2	0.00e+00	0	43	0	947912704	62	5327
2026-01-26 09:49:13.94	352.98	31.69	-45.5	-48.9	15.1	0.00e+00	0	43	0	950009856	62	5373
2026-01-26 09:49:14.94	352.90	31.49	-45.5	-49.0	15.1	0.00e+00	0	43	0	952107008	62	5418
2026-01-26 09:49:15.94	352.82	31.30	-45.6	-49.0	15.1	0.00e+00	0	43	0	954204160	62	5410
2026-01-26 09:49:16.93	352.74	31.10	-45.6	-48.9	15.1	0.00e+00	0	44	0	955252736	62	5394
2026-01-26 09:49:17.93	352.66	30.91	-45.6	-49.0	15.0	0.00e+00	0	43	0	957349888	62	5429
2026-01-26 09:49:18.93	352.58	30.72	-45.7	-49.2	14.9	1.50e-06	0	44	0	959447040	62	5529
2026-01-26 09:49:19.92	352.50	30.53	-45.7	-49.3	14.8	0.00e+00	0	43	0	961544192	62	5597
2026-01-26 09:49:20.91	352.43	30.35	-45.7	-49.2	14.8	0.00e+00	0	43	0	963641344	62	5571
2026-01-26 09:49:21.91	352.35	30.16	-45.7	-49.3	14.8	7.00e-07	0	43	0	964689920	62	5594
2026-01-26 09:49:22.91	352.28	29.97	-45.6	-49.0	15.0	0.00e+00	0	43	0	966787072	62	5446
2026-01-26 09:49:23.90	352.20	29.79	-45.6	-49.0	15.0	0.00e+00	0	43	0	968884224	62	5446
2026-01-26 09:49:24.89	352.13	29.61	-45.6	-49.0	15.0	0.00e+00	0	44	0	970981376	62	5438
2026-01-26 09:49:25.89	352.06	29.43	-45.5	-48.8	15.2	7.00e-07	0	43	0	972029952	62	5327
2026-01-26 09:49:26.88	351.99	29.25	-45.4	-48.7	15.3	0.00e+00	0	43	0	974127104	62	5260
2026-01-26 09:49:27.88	351.92	29.07	-45.5	-48.8	15.2	0.00e+00	0	43	0	976224256	62	5283
2026-01-26 09:49:28.88	351.85	28.89	-45.4	-48.6	15.4	0.00e+00	0	44	0	978321408	62	5214
2026-01-26 09:49:29.87	351.78	28.71	-45.5	-48.8	15.3	0.00e+00	0	44	0	980418560	62	5303
2026-01-26 09:49:30.86	351.71	28.53	-45.5	-48.9	15.2	0.00e+00	0	43	0	981467136	62	5346
2026-01-26 09:49:31.86	351.64	28.36	-45.5	-48.9	15.1	7.00e-07	0	43	0	983564288	62	5373
2026-01-26 09:49:32.85	351.58	28.18	-45.5	-48.8	15.2	0.00e+00	0	44	0	985661440	62	5328
2026-01-26 09:49:33.85	351.51	28.01	-45.5	-48.8	15.3	0.00e+00	0	43	0	987758592	62	5325
2026-01-26 09:49:34.84	351.45	27.84	-45.5	-48.8	15.2	0.00e+00	0	43	0	988807168	62	5338
2026-01-26 09:49:35.84	351.38	27.67	-45.3	-48.6	15.4	0.00e+00	0	44	0	990904320	62	5212
2026-01-26 09:49:36.84	351.32	27.50	-45.1	-48.3	15.7	0.00e+00	0	44	0	993001472	62	5037
2026-01-26 09:49:37.83	351.26	27.33	-45.0	-48.2	15.9	0.00e+00	0	43	0	995098624	62	4927
2026-01-26 09:49:38.83	351.19	27.16	-44.8	-48.0	16.0	0.00e+00	0	44	0	997195776	61	5102
2026-01-26 09:49:39.82	351.13	26.99	-44.6	-47.7	16.3	0.00e+00	0	43	0	998244352	61	4953
2026-01-26 09:49:40.81	351.07	26.83	-44.6	-47.7	16.3	0.00e+00	0	43	0	1000341504	61	4981
2026-01-26 09:49:41.81	351.01	26.66	-44.6	-47.7	16.4	0.00e+00	0	43	0	1002438656	61	4931
2026-01-26 09:49:42.80	350.95	26.50	-44.6	-47.7	16.3	0.00e+00	0	43	0	1004535808	61	4974
2026-01-26 09:49:43.80	350.89	26.33	-44.7	-47.8	16.2	0.00e+00	0	44	0	1005584384	61	5022
2026-01-26 09:49:44.79	350.84	26.17	-44.7	-47.8	16.2	0.00e+00	0	43	0	1007681536	61	5032
2026-01-26 09:49:45.79	350.78	26.01	-44.6	-47.7	16.3	0.00e+00	0	43	0	1009778688	61	4977
2026-01-26 09:49:46.79	350.72	25.85	-44.6	-47.7	16.3	0.00e+00	0	44	0	1011875840	61	4943
2026-01-26 09:49:47.78	350.66	25.69	-44.6	-47.6	16.4	0.00e+00	0	43	0	1013972992	61	4925
2026-01-26 09:49:48.78	350.61	25.53	-44.5	-47.5	16.5	0.00e+00	0	43	0	1015021568	61	4868
2026-01-26 09:49:49.78	350.55	25.37	-44.5	-47.6	16.4	0.00e+00	0	43	0	1017118720	61	4882
2026-01-26 09:49:50.77	350.50	25.22	-44.6	-47.6	16.4	0.00e+00	0	43	0	1019215872	61	4899
2026-01-26 09:49:51.76	350.45	25.06	-44.4	-47.3	16.7	0.00e+00	0	43	0	1021313024	60	5008
2026-01-26 09:49:52.76	350.39	24.91	-44.3	-47.1	16.9	0.00e+00	0	43	0	1022361600	60	4925
2026-01-26 09:49:53.76	350.34	24.75	-44.1	-47.0	17.0	0.00e+00	0	43	0	1024458752	60	4837
2026-01-26 09:49:54.75	350.29	24.60	-44.2	-47.1	16.9	0.00e+00	0	43	0	1026555904	60	4884
2026-01-26 09:49:55.74	350.24	24.45	-43.9	-46.7	17.2	0.00e+00	0	43	0	1028653056	59	4981
2026-01-26 09:49:56.74	350.18	24.29	-43.7	-46.5	17.4	0.00e+00	0	43	0	1030750208	59	4852
2026-01-26 09:49:57.73	350.13	24.14	-43.5	-46.3	17.6	0.00e+00	0	43	0	1031798784	58	5017
2026-01-26 09:49:58.73	350.08	23.99	-43.4	-46.3	17.6	0.00e+00	0	43	0	1033895936	58	5030
2026-01-26 09:49:59.72	350.03	23.85	-43.4	-46.3	17.7	0.00e+00	0	43	0	1035993088	58	5003
2026-01-26 09:50:00.72	349.98	23.70	-43.4	-46.2	17.7	0.00e+00	0	43	0	1038090240	58	4953
2026-01-26 09:50:01.71	349.94	23.55	-43.4	-46.1	17.8	0.00e+00	0	43	0	1039138816	58	4910
2026-01-26 09:50:02.71	349.89	23.40	-43.4	-46.1	17.8	0.00e+00	0	43	0	1041235968	58	4920
2026-01-26 09:50:03.70	349.84	23.26	-43.5	-46.2	17.8	0.00e+00	0	43	0	1043333120	58	4948
2026-01-26 09:50:04.69	349.79	23.11	-43.5	-46.2	17.8	0.00e+00	0	43	0	1045430272	58	4931
2026-01-26 09:50:05.69	349.75	22.97	-43.6	-46.2	17.7	0.00e+00	0	43	0	1047527424	58	4958
2026-01-26 09:50:06.68	349.70	22.83	-43.7	-46.3	17.6	0.00e+00	0	44	0	1048576000	58	5025
2026-01-26 09:50:07.68	349.66	22.68	-43.7	-46.4	17.5	0.00e+00	0	43	0	1050673152	58	5072
2026-01-26 09:50:08.67	349.61	22.54	-43.7	-46.3	17.6	0.00e+00	0	43	0	1052770304	58	5036
2026-01-26 09:50:09.66	349.57	22.40	-43.7	-46.4	17.5	0.00e+00	0	43	0	1054867456	58	5042
2026-01-26 09:50:10.66	349.52	22.26	-43.7	-46.4	17.5	0.00e+00	0	43	0	1055916032	58	5056
2026-01-26 09:50:11.66	349.48	22.12	-43.7	-46.4	17.5	0.00e+00	0	43	0	1058013184	58	5079
2026-01-26 09:50:12.65	349.43	21.98	-43.6	-46.3	17.5	0.00e+00	0	43	0	1060110336	58	5037
2026-01-26 09:50:13.64	349.39	21.84	-43.9	-46.6	17.3	0.00e+00	0	43	0	1062207488	58	5210
2026-01-26 09:50:14.64	349.35	21.71	-44.0	-46.8	17.1	0.00e+00	0	44	0	1064304640	58	5303
2026-01-26 09:50:15.63	349.31	21.57	-43.9	-46.6	17.3	0.00e+00	0	43	0	1065353216	58	5189
2026-01-26 09:50:16.62	349.26	21.44	-43.9	-46.6	17.3	0.00e+00	0	44	0	1067450368	58	5197
2026-01-26 09:50:17.62	349.22	21.30	-43.9	-46.6	17.3	0.00e+00	0	43	0	1069547520	58	5212
2026-01-26 09:50:18.61	349.18	21.17	-43.9	-46.6	17.3	0.00e+00	0	43	0	1071644672	58	5212
2026-01-26 09:50:19.61	349.14	21.03	-44.0	-46.7	17.2	0.00e+00	0	43	0	1072693248	58	5243
2026-01-26 09:50:20.60	349.10	20.90	-44.0	-46.8	17.1	0.00e+00	0	43	0	1074790400	58	5300
2026-01-26 09:50:21.60	349.06	20.77	-44.1	-46.9	17.1	0.00e+00	0	43	0	1076887552	58	5346
2026-01-26 09:50:22.59	349.02	20.64	-44.1	-46.9	17.0	0.00e+00	0	44	0	1078984704	58	5386
2026-01-26 09:50:23.59	348.98	20.50	-44.1	-47.0	16.9	0.00e+00	0	43	0	1081081856	58	5434
2026-01-26 09:50:24.58	348.94	20.37	-44.1	-47.0	16.9	0.00e+00	0	43	0	1082130432	58	5441
2026-01-26 09:50:25.58	348.90	20.24	-44.1	-47.1	16.8	0.00e+00	0	43	0	1084227584	58	5473
2026-01-26 09:50:26.57	348.87	20.12	-44.2	-47.2	16.7	0.00e+00	0	43	0	1086324736	58	5554
2026-01-26 09:50:27.57	348.83	19.99	-44.1	-47.1	16.9	0.00e+00	0	43	0	1088421888	58	5471
2026-01-26 09:50:28.56	348.79	19.86	-44.2	-47.3	16.6	0.00e+00	0	43	0	1089470464	59	5313
2026-01-26 09:50:29.56	348.75	19.73	-44.2	-47.3	16.6	0.00e+00	0	44	0	1091567616	59	5302
2026-01-26 09:50:30.56	348.72	19.60	-44.3	-47.3	16.6	0.00e+00	0	43	0	1093664768	59	5325
2026-01-26 09:50:31.55	348.68	19.48	-44.4	-47.4	16.4	0.00e+00	0	43	0	1095761920	59	5402
2026-01-26 09:50:32.54	348.64	19.35	-44.4	-47.5	16.4	0.00e+00	0	44	0	1097859072	59	5408
2026-01-26 09:50:33.54	348.61	19.23	-44.5	-47.5	16.4	0.00e+00	0	43	0	1098907648	59	5456
2026-01-26 09:50:34.54	348.57	19.10	-44.4	-47.4	16.4	0.00e+00	0	43	0	1101004800	59	5402
2026-01-26 09:50:35.53	348.54	18.98	-44.4	-47.4	16.5	0.00e+00	0	43	0	1103101952	59	5385
2026-01-26 09:50:36.52	348.50	18.86	-44.3	-47.5	16.4	0.00e+00	0	43	0	1105199104	59	5421
2026-01-26 09:50:37.52	348.47	18.74	-44.4	-47.6	16.4	0.00e+00	0	43	0	1107296256	59	5479
2026-01-26 09:50:38.51	348.43	18.62	-44.3	-47.5	16.3	0.00e+00	0	43	0	1108344832	59	5458
2026-01-26 09:50:39.51	348.40	18.49	-44.3	-47.5	16.3	0.00e+00	0	43	0	1110441984	59	5459
2026-01-26 09:50:40.50	348.37	18.37	-44.3	-47.7	16.2	0.00e+00	0	43	0	1112539136	59	5537
2026-01-26 09:50:41.50	348.33	18.25	-44.2	-47.7	16.2	0.00e+00	0	43	0	1114636288	59	5534
2026-01-26 09:50:42.49	348.30	18.14	-44.1	-47.6	16.3	0.00e+00	0	43	0	1115684864	59	5516
2026-01-26 09:50:43.49	348.27	18.02	-44.2	-47.7	16.2	0.00e+00	0	44	0	1117782016	59	5578
2026-01-26 09:50:44.48	348.23	17.90	-44.1	-47.7	16.2	0.00e+00	0	43	0	1119879168	59	5540
2026-01-26 09:50:45.48	348.20	17.78	-44.2	-47.8	16.1	0.00e+00	0	43	0	1121976320	59	5606
2026-01-26 09:50:46.47	348.17	17.66	-44.2	-47.7	16.1	0.00e+00	0	44	0	1124073472	59	5579
2026-01-26 09:50:47.47	348.14	17.55	-44.3	-47.8	16.1	0.00e+00	0	43	0	1125122048	59	5626
2026-01-26 09:50:48.46	348.11	17.43	-44.4	-47.8	16.1	0.00e+00	0	43	0	1127219200	59	5650
2026-01-26 09:50:49.46	348.08	17.32	-44.5	-47.9	16.0	0.00e+00	0	43	0	1129316352	59	5661
2026-01-26 09:50:50.45	348.05	17.20	-44.4	-47.7	16.2	0.00e+00	0	43	0	1131413504	59	5568
2026-01-26 09:50:51.45	348.01	17.09	-44.5	-47.7	16.1	0.00e+00	0	44	0	1132462080	59	5581
2026-01-26 09:50:52.44	347.98	16.97	-44.6	-47.9	16.0	0.00e+00	0	43	0	1134559232	59	5695
2026-01-26 09:50:53.44	347.95	16.86	-44.6	-47.8	16.0	0.00e+00	0	44	0	1136656384	59	5644
2026-01-26 09:50:54.43	347.92	16.75	-44.6	-47.9	16.0	0.00e+00	0	43	0	1138753536	59	5702
2026-01-26 09:50:55.43	347.89	16.63	-44.7	-48.1	15.8	0.00e+00	0	43	0	1140850688	60	5483
2026-01-26 09:50:56.42	347.87	16.52	-44.6	-48.0	15.9	0.00e+00	0	43	0	1141899264	60	5453
2026-01-26 09:50:57.41	347.84	16.41	-44.6	-48.1	15.8	0.00e+00	0	43	0	1143996416	60	5517
2026-01-26 09:50:58.41	347.81	16.30	-44.7	-48.2	15.7	0.00e+00	0	43	0	1146093568	60	5571
2026-01-26 09:50:59.40	347.78	16.19	-44.7	-48.2	15.7	0.00e+00	0	43	0	1148190720	60	5570
2026-01-26 09:51:00.40	347.75	16.08	-44.7	-48.4	15.5	0.00e+00	0	43	0	1149239296	60	5682
2026-01-26 09:51:01.40	347.72	15.97	-44.8	-48.4	15.5	0.00e+00	0	44	0	1151336448	60	5709
2026-01-26 09:51:02.39	347.70	15.86	-44.7	-48.4	15.5	0.00e+00	0	44	0	1153433600	60	5673
2026-01-26 09:51:03.39	347.67	15.75	-44.8	-48.5	15.4	0.00e+00	0	43	0	1155530752	60	5774
2026-01-26 09:51:04.38	347.64	15.65	-44.8	-48.4	15.5	0.00e+00	0	43	0	1157627904	60	5708
2026-01-26 09:51:05.38	347.61	15.54	-44.8	-48.5	15.4	0.00e+00	0	43	0	1158676480	60	5755
2026-01-26 09:51:06.38	347.59	15.43	-44.9	-48.6	15.3	0.00e+00	0	43	0	1160773632	60	5820
2026-01-26 09:51:07.37	347.56	15.32	-45.0	-48.6	15.2	0.00e+00	0	43	0	1162870784	60	5854
2026-01-26 09:51:08.37	347.53	15.22	-45.0	-48.6	15.2	0.00e+00	0	43	0	1164967936	60	5834
2026-01-26 09:51:09.36	347.51	15.11	-45.0	-48.6	15.3	0.00e+00	0	43	0	1166016512	60	5819
2026-01-26 09:51:10.36	347.48	15.01	-45.1	-48.6	15.3	0.00e+00	0	43	0	1168113664	60	5850
2026-01-26 09:51:11.35	347.45	14.90	-45.0	-48.6	15.3	0.00e+00	0	43	0	1170210816	60	5832
2026-01-26 09:51:12.35	347.43	14.80	-45.0	-48.6	15.3	7.00e-07	0	43	0	1172307968	60	5823
2026-01-26 09:51:13.34	347.40	14.70	-45.2	-48.9	15.0	0.00e+00	0	44	0	1174405120	60	6002
2026-01-26 09:51:14.34	347.38	14.59	-45.2	-48.9	14.9	7.00e-07	0	43	0	1175453696	61	5714
2026-01-26 09:51:15.33	347.35	14.49	-45.1	-48.9	15.0	0.00e+00	0	44	0	1177550848	61	5667
2026-01-26 09:51:16.33	347.33	14.39	-44.9	-48.6	15.2	0.00e+00	0	43	0	1179648000	61	5528
2026-01-26 09:51:17.33	347.30	14.28	-44.8	-48.7	15.1	0.00e+00	0	44	0	1181745152	61	5587
2026-01-26 09:51:18.32	347.28	14.18	-44.7	-48.8	15.1	0.00e+00	0	44	0	1182793728	61	5621
2026-01-26 09:51:19.31	347.25	14.08	-44.6	-48.7	15.2	0.00e+00	0	43	0	1184890880	61	5536
2026-01-26 09:51:20.31	347.23	13.98	-44.6	-48.8	15.0	0.00e+00	0	44	0	1186988032	61	5629
2026-01-26 09:51:21.30	347.21	13.88	-44.6	-48.7	15.1	0.00e+00	0	43	0	1189085184	61	5577
2026-01-26 09:51:22.30	347.18	13.78	-44.5	-48.6	15.3	0.00e+00	0	44	0	1191182336	60	5789
2026-01-26 09:51:23.29	347.16	13.68	-44.5	-48.6	15.2	0.00e+00	0	44	0	1192230912	60	5818
2026-01-26 09:51:24.29	347.14	13.58	-44.5	-48.6	15.2	0.00e+00	0	43	0	1194328064	60	5838
2026-01-26 09:51:25.28	347.11	13.48	-44.6	-48.5	15.3	0.00e+00	0	43	0	1196425216	60	5731
2026-01-26 09:51:26.28	347.09	13.38	-44.7	-48.6	15.2	0.00e+00	0	43	0	1198522368	60	5830
2026-01-26 09:51:27.27	347.07	13.29	-44.8	-48.6	15.2	0.00e+00	0	44	0	1199570944	60	5803
2026-01-26 09:51:28.27	347.04	13.19	-44.8	-48.5	15.3	0.00e+00	0	43	0	1201668096	60	5772
2026-01-26 09:51:29.26	347.02	13.09	-44.8	-48.5	15.3	0.00e+00	0	44	0	1203765248	60	5732
2026-01-26 09:51:30.26	347.00	12.99	-44.7	-48.3	15.5	0.00e+00	0	44	0	1205862400	60	5594
2026-01-26 09:51:31.25	346.98	12.90	-44.7	-48.2	15.6	0.00e+00	0	44	0	1207959552	60	5581
2026-01-26 09:51:32.25	346.96	12.80	-44.8	-48.2	15.6	0.00e+00	0	44	0	1209008128	60	5555
2026-01-26 09:51:33.24	346.93	12.71	-44.7	-48.1	15.7	0.00e+00	0	44	0	1211105280	60	5499
2026-01-26 09:51:34.23	346.91	12.61	-44.9	-48.3	15.5	0.00e+00	0	44	0	1213202432	60	5642
2026-01-26 09:51:35.23	346.89	12.52	-44.8	-48.1	15.7	0.00e+00	0	43	0	1215299584	60	5478
2026-01-26 09:51:36.22	346.87	12.42	-44.7	-48.1	15.8	0.00e+00	0	44	0	1216348160	60	5470
2026-01-26 09:51:37.22	346.85	12.33	-44.7	-48.1	15.7	0.00e+00	0	43	0	1218445312	60	5466
