passes_logs/2026/01/26/T1/T1__20260126_110029_SUOMI_NPP_rec.log

#Pass ID: 20260126_110029_SUOMI NPP
#Satellite: SUOMI NPP
#Configuration: NPP
#almurnet v.1.7.20251203
#Start time: 2026-01-26 11:00:31

#Version: 2.0.20230620
#Station: T1
#Location: 37.570604 lon 55.790049 lat
#TLE: 1 37849U 11061A   26025.81780576  .00000180  00000+0  10635-3 0  9993
#TLE: 2 37849  98.7822 327.7738 0002159  45.0809 315.0541 14.19529973738242

#Time	Az	El	Level	Level2	SNR	BER	BlckErr	Temp	State	Recorded	gain1	gain2
2026-01-26 11:00:31.61	192.49	5.16	-48.9	-64.9	3.8	1.49e+00	0	40	0	0	69	22624
2026-01-26 11:00:32.60	192.55	5.22	-48.9	-64.9	3.8	1.49e+00	0	40	104	0	68	23997
2026-01-26 11:00:33.59	192.61	5.29	-48.8	-64.9	3.8	1.49e+00	0	40	104	0	68	23874
2026-01-26 11:00:34.58	192.66	5.35	-48.8	-64.8	3.8	1.49e+00	0	40	104	0	68	23737
2026-01-26 11:00:35.58	192.72	5.42	-48.8	-64.8	3.8	1.49e+00	0	40	104	0	68	23706
2026-01-26 11:00:36.57	192.78	5.49	-48.8	-64.7	3.8	1.49e+00	0	40	104	0	68	23512
2026-01-26 11:00:37.56	192.84	5.56	-48.8	-64.6	3.8	1.49e+00	0	40	104	0	68	23263
2026-01-26 11:00:38.56	192.90	5.62	-48.8	-64.5	3.8	1.49e+00	0	40	104	0	68	22946
2026-01-26 11:00:39.55	192.96	5.69	-48.8	-64.5	3.8	1.49e+00	0	40	104	0	68	22907
2026-01-26 11:00:40.54	193.02	5.76	-48.8	-64.5	3.8	1.49e+00	0	40	104	0	68	22788
2026-01-26 11:00:41.54	193.08	5.83	-48.8	-64.4	3.8	1.49e+00	0	40	104	0	68	22751
2026-01-26 11:00:42.53	193.14	5.90	-48.8	-64.5	3.8	1.49e+00	0	40	104	0	68	22976
2026-01-26 11:00:43.52	193.20	5.96	-48.8	-64.6	3.8	1.49e+00	0	40	104	0	68	23046
2026-01-26 11:00:44.52	193.26	6.03	-48.8	-64.6	3.8	1.49e+00	0	41	104	0	68	23283
2026-01-26 11:00:45.51	193.32	6.10	-48.8	-64.6	3.8	1.49e+00	0	41	104	0	68	23308
2026-01-26 11:00:46.50	193.38	6.17	-48.8	-64.6	3.8	1.49e+00	0	41	104	0	68	23209
2026-01-26 11:00:47.50	193.44	6.24	-48.8	-64.5	3.8	1.49e+00	0	40	104	0	68	22926
2026-01-26 11:00:48.49	193.50	6.31	-48.8	-64.5	3.8	1.49e+00	0	41	104	0	68	22839
2026-01-26 11:00:49.48	193.56	6.38	-48.8	-64.2	3.8	1.49e+00	0	41	104	0	68	22220
2026-01-26 11:00:50.48	193.63	6.45	-48.8	-64.2	3.8	1.49e+00	0	41	104	0	68	22104
2026-01-26 11:00:51.47	193.69	6.52	-48.8	-64.2	3.8	1.49e+00	0	41	104	0	68	22027
2026-01-26 11:00:52.46	193.75	6.59	-48.8	-64.1	3.8	1.49e+00	0	41	104	0	68	21956
2026-01-26 11:00:53.46	193.81	6.66	-48.7	-64.1	3.8	1.49e+00	0	41	104	0	68	21985
2026-01-26 11:00:54.45	193.88	6.73	-48.8	-64.2	3.8	1.49e+00	0	41	104	0	68	22210
2026-01-26 11:00:55.44	193.94	6.80	-48.7	-64.3	3.8	1.49e+00	0	41	104	0	68	22293
2026-01-26 11:00:56.43	194.00	6.87	-48.8	-64.3	3.8	1.49e+00	0	41	104	0	68	22462
2026-01-26 11:00:57.43	194.07	6.94	-48.8	-64.4	3.8	1.49e+00	0	41	104	0	68	22556
2026-01-26 11:00:58.42	194.13	7.01	-48.7	-64.3	3.8	1.49e+00	0	41	104	0	68	22319
2026-01-26 11:00:59.41	194.20	7.08	-48.7	-64.1	3.8	1.49e+00	0	41	104	0	68	21800
2026-01-26 11:01:00.41	194.26	7.15	-48.7	-63.8	3.8	1.49e+00	0	41	104	0	68	21232
2026-01-26 11:01:01.40	194.33	7.22	-48.7	-63.5	3.8	1.49e+00	0	41	104	0	68	20438
2026-01-26 11:01:02.39	194.39	7.29	-48.7	-63.5	3.8	1.49e+00	0	41	104	0	68	20350
2026-01-26 11:01:03.38	194.46	7.36	-48.7	-63.6	3.8	1.49e+00	0	41	104	0	68	20632
2026-01-26 11:01:04.38	194.53	7.43	-48.7	-64.0	3.8	1.49e+00	0	41	104	0	68	21671
2026-01-26 11:01:05.37	194.59	7.51	-48.8	-64.7	3.8	1.49e+00	0	41	104	0	68	23370
2026-01-26 11:01:06.37	194.66	7.58	-48.8	-64.7	3.8	1.49e+00	0	41	104	0	68	23551
2026-01-26 11:01:07.36	194.73	7.65	-48.7	-63.4	3.8	1.49e+00	0	41	104	0	68	20291
2026-01-26 11:01:08.35	194.79	7.72	-48.5	-60.5	4.4	1.37e+00	0	41	0	0	68	14532
2026-01-26 11:01:09.34	194.86	7.79	-48.2	-57.8	5.9	5.59e-01	0	41	0	1048576	68	10586
2026-01-26 11:01:10.34	194.93	7.87	-47.5	-54.9	8.3	1.44e-01	0	42	0	3145728	67	8082
2026-01-26 11:01:11.33	195.00	7.94	-46.8	-52.8	10.5	2.14e-02	0	41	0	5242880	65	7116
2026-01-26 11:01:12.32	195.07	8.01	-46.4	-51.6	11.7	7.79e-04	0	41	0	7340032	64	6557
2026-01-26 11:01:13.32	195.14	8.09	-45.7	-50.1	13.4	9.84e-05	0	41	0	9437184	63	5837
2026-01-26 11:01:14.31	195.21	8.16	-45.3	-49.4	14.1	3.80e-06	0	41	0	10485760	62	5688
2026-01-26 11:01:15.30	195.28	8.23	-44.9	-48.7	14.8	7.00e-07	0	41	0	12582912	61	5588
2026-01-26 11:01:16.30	195.35	8.31	-44.7	-48.3	15.2	0.00e+00	0	41	0	14680064	61	5331
2026-01-26 11:01:17.29	195.42	8.38	-44.7	-48.3	15.2	0.00e+00	0	41	0	16777216	61	5301
2026-01-26 11:01:18.28	195.49	8.46	-44.7	-48.4	15.1	0.00e+00	0	41	0	17825792	61	5366
2026-01-26 11:01:19.28	195.56	8.53	-44.9	-48.7	14.8	0.00e+00	0	41	0	19922944	61	5535
2026-01-26 11:01:20.27	195.63	8.60	-45.5	-49.7	13.8	7.00e-07	0	41	0	22020096	61	6239
2026-01-26 11:01:21.26	195.70	8.68	-45.9	-50.5	13.0	5.30e-06	0	41	0	24117248	62	6439
2026-01-26 11:01:22.26	195.77	8.75	-46.4	-51.7	11.8	1.04e-04	0	41	0	26214400	63	6995
2026-01-26 11:01:23.25	195.85	8.83	-46.9	-53.0	10.3	3.13e-03	0	41	0	27262976	64	7704
2026-01-26 11:01:24.24	195.92	8.90	-47.4	-54.5	8.7	1.71e-02	0	42	0	29360128	65	8637
2026-01-26 11:01:25.24	195.99	8.98	-47.8	-56.3	7.1	7.58e-02	0	42	0	31457280	66	9979
2026-01-26 11:01:26.23	196.07	9.06	-48.0	-57.6	5.9	2.34e-01	0	42	0	33554432	66	11623
2026-01-26 11:01:27.22	196.14	9.13	-48.0	-57.0	6.3	3.20e-01	0	41	0	34603008	66	10844
2026-01-26 11:01:28.22	196.22	9.21	-46.8	-52.4	11.1	2.08e-03	0	42	0	36700160	64	7139
2026-01-26 11:01:29.21	196.29	9.28	-48.4	-61.0	4.2	7.45e-01	0	42	0	37748736	67	16255
2026-01-26 11:01:30.21	196.37	9.36	-47.8	-55.7	7.4	1.73e-01	0	42	0	39845888	67	8859
2026-01-26 11:01:31.20	196.44	9.44	-46.7	-52.1	11.2	4.55e-04	0	42	0	41943040	64	6956
2026-01-26 11:01:32.20	196.52	9.51	-46.2	-50.9	12.6	1.03e-04	0	42	0	42991616	64	6037
2026-01-26 11:01:33.19	196.59	9.59	-46.1	-50.7	12.7	5.79e-05	0	42	0	45088768	64	5910
2026-01-26 11:01:34.19	196.67	9.67	-45.8	-50.0	13.6	1.44e-05	0	42	0	47185920	63	5762
2026-01-26 11:01:35.18	196.75	9.75	-45.6	-49.7	13.9	1.22e-05	0	42	0	49283072	63	5540
2026-01-26 11:01:36.18	196.83	9.82	-45.4	-49.3	14.2	1.50e-06	0	42	0	51380224	62	5600
2026-01-26 11:01:37.17	196.90	9.90	-45.3	-49.2	14.2	2.20e-06	0	42	0	52428800	62	5581
2026-01-26 11:01:38.17	196.98	9.98	-44.9	-48.5	15.0	0.00e+00	0	42	0	54525952	61	5454
2026-01-26 11:01:39.16	197.06	10.06	-44.7	-48.2	15.3	0.00e+00	0	42	0	56623104	61	5262
2026-01-26 11:01:40.16	197.14	10.14	-44.3	-47.7	15.9	0.00e+00	0	42	0	58720256	60	5219
2026-01-26 11:01:41.15	197.22	10.21	-44.0	-47.0	16.4	0.00e+00	0	42	0	59768832	59	5156
2026-01-26 11:01:42.15	197.30	10.29	-44.0	-47.0	16.4	0.00e+00	0	42	0	61865984	59	5152
2026-01-26 11:01:43.14	197.38	10.37	-44.2	-47.3	16.1	0.00e+00	0	42	0	63963136	59	5332
2026-01-26 11:01:44.14	197.46	10.45	-44.3	-47.5	16.0	0.00e+00	0	42	0	66060288	59	5438
2026-01-26 11:01:45.14	197.54	10.53	-44.2	-47.4	16.1	0.00e+00	0	42	0	68157440	59	5347
2026-01-26 11:01:46.13	197.63	10.61	-44.1	-47.2	16.2	0.00e+00	0	42	0	69206016	59	5276
2026-01-26 11:01:47.13	197.71	10.69	-43.9	-47.0	16.5	0.00e+00	0	42	0	71303168	59	5127
2026-01-26 11:01:48.12	197.79	10.77	-43.7	-46.6	16.9	0.00e+00	0	42	0	73400320	59	4886
2026-01-26 11:01:49.12	197.87	10.85	-43.6	-46.5	17.0	0.00e+00	0	42	0	75497472	59	4868
2026-01-26 11:01:50.11	197.96	10.93	-43.8	-46.8	16.8	0.00e+00	0	42	0	76546048	59	5013
2026-01-26 11:01:51.11	198.04	11.01	-43.8	-46.7	16.8	0.00e+00	0	42	0	78643200	59	4975
2026-01-26 11:01:52.10	198.12	11.09	-43.7	-46.6	16.8	0.00e+00	0	42	0	80740352	59	4922
2026-01-26 11:01:53.10	198.21	11.18	-43.6	-46.6	16.9	0.00e+00	0	42	0	82837504	59	4909
2026-01-26 11:01:54.09	198.29	11.26	-43.6	-46.6	16.9	0.00e+00	0	42	0	84934656	58	5168
2026-01-26 11:01:55.09	198.38	11.34	-43.4	-46.4	16.9	0.00e+00	0	42	0	85983232	58	5079
2026-01-26 11:01:56.08	198.47	11.42	-43.4	-46.4	16.9	0.00e+00	0	42	0	88080384	58	5051
2026-01-26 11:01:57.08	198.55	11.50	-43.4	-46.4	16.7	0.00e+00	0	42	0	90177536	58	5085
2026-01-26 11:01:58.07	198.64	11.59	-43.3	-46.4	16.5	0.00e+00	0	42	0	92274688	58	5044
2026-01-26 11:01:59.06	198.73	11.67	-43.1	-46.2	16.5	0.00e+00	0	42	0	93323264	58	4931
2026-01-26 11:02:00.06	198.82	11.75	-43.2	-46.3	16.3	0.00e+00	0	42	0	95420416	58	5029
2026-01-26 11:02:01.05	198.90	11.83	-43.3	-46.5	16.2	0.00e+00	0	42	0	97517568	58	5109
2026-01-26 11:02:02.05	198.99	11.92	-43.2	-46.3	16.3	0.00e+00	0	42	0	99614720	58	5003
2026-01-26 11:02:03.04	199.08	12.00	-43.2	-46.3	16.3	0.00e+00	0	42	0	101711872	58	5012
2026-01-26 11:02:04.04	199.17	12.08	-43.3	-46.4	16.4	0.00e+00	0	42	0	102760448	58	5060
2026-01-26 11:02:05.03	199.26	12.17	-43.3	-46.3	16.5	0.00e+00	0	42	0	104857600	58	5028
2026-01-26 11:02:06.03	199.36	12.25	-43.4	-46.5	16.5	0.00e+00	0	42	0	106954752	58	5106
2026-01-26 11:02:07.02	199.45	12.34	-43.4	-46.4	16.5	0.00e+00	0	42	0	109051904	58	5065
2026-01-26 11:02:08.01	199.54	12.42	-43.4	-46.4	16.3	0.00e+00	0	42	0	110100480	58	5078
2026-01-26 11:02:09.01	199.63	12.51	-43.3	-46.3	16.3	0.00e+00	0	42	0	112197632	58	5001
2026-01-26 11:02:10.00	199.72	12.59	-42.9	-46.1	15.6	0.00e+00	0	42	0	114294784	57	5194
2026-01-26 11:02:11.00	199.82	12.68	-42.6	-45.9	15.1	0.00e+00	0	42	0	116391936	57	5095
2026-01-26 11:02:11.99	199.91	12.76	-42.4	-46.0	14.0	0.00e+00	0	42	0	118489088	56	5464
2026-01-26 11:02:12.99	200.01	12.85	-42.1	-46.1	13.2	1.06e-05	0	42	0	119537664	56	5469
2026-01-26 11:02:13.98	200.10	12.93	-41.7	-45.8	12.8	2.13e-05	0	42	0	121634816	55	5639
2026-01-26 11:02:14.97	200.20	13.02	-41.5	-45.7	12.5	8.01e-05	0	42	0	123731968	54	5909
2026-01-26 11:02:15.97	200.29	13.10	-41.0	-45.5	11.9	2.91e-04	0	42	0	125829120	53	6113
2026-01-26 11:02:16.97	200.39	13.19	-41.4	-45.6	12.6	7.32e-05	0	42	0	126877696	53	6198
2026-01-26 11:02:17.96	200.49	13.28	-41.5	-45.4	13.4	7.17e-05	0	42	0	128974848	53	6032
2026-01-26 11:02:18.96	200.59	13.37	-42.1	-45.7	14.3	5.30e-06	0	42	0	131072000	54	5868
2026-01-26 11:02:19.95	200.68	13.45	-42.2	-45.5	15.0	0.00e+00	0	42	0	133169152	55	5459
2026-01-26 11:02:20.95	200.78	13.54	-42.6	-45.6	16.1	0.00e+00	0	42	0	135266304	55	5493
2026-01-26 11:02:21.95	200.88	13.63	-43.1	-46.0	16.4	0.00e+00	0	42	0	136314880	56	5416
2026-01-26 11:02:22.94	200.98	13.72	-42.9	-45.5	17.4	0.00e+00	0	42	0	138412032	56	5142
2026-01-26 11:02:23.94	201.08	13.81	-42.8	-45.5	17.4	0.00e+00	0	42	0	140509184	56	5112
2026-01-26 11:02:24.93	201.18	13.89	-43.1	-45.8	17.2	0.00e+00	0	42	0	142606336	56	5319
2026-01-26 11:02:25.93	201.29	13.98	-42.9	-45.5	17.5	0.00e+00	0	42	0	143654912	56	5158
2026-01-26 11:02:26.92	201.39	14.07	-42.9	-45.6	17.6	0.00e+00	0	42	0	145752064	56	5177
2026-01-26 11:02:27.92	201.49	14.16	-43.1	-45.8	17.5	0.00e+00	0	42	0	147849216	56	5331
2026-01-26 11:02:28.91	201.60	14.25	-43.0	-45.7	17.7	0.00e+00	0	42	0	149946368	56	5249
2026-01-26 11:02:29.90	201.70	14.34	-43.1	-45.8	17.6	0.00e+00	0	42	0	152043520	56	5293
2026-01-26 11:02:30.90	201.80	14.43	-43.1	-45.8	17.6	0.00e+00	0	42	0	153092096	56	5289
2026-01-26 11:02:31.89	201.91	14.52	-43.0	-45.6	17.7	0.00e+00	0	42	0	155189248	57	4910
2026-01-26 11:02:32.89	202.02	14.61	-43.0	-45.7	17.6	0.00e+00	0	42	0	157286400	57	4943
2026-01-26 11:02:33.88	202.12	14.70	-43.1	-45.8	17.5	0.00e+00	0	42	0	159383552	57	5003
2026-01-26 11:02:34.88	202.23	14.79	-43.0	-45.7	17.5	0.00e+00	0	42	0	161480704	57	4970
2026-01-26 11:02:35.87	202.34	14.88	-43.3	-46.0	17.3	0.00e+00	0	42	0	162529280	57	5142
2026-01-26 11:02:36.87	202.45	14.98	-43.2	-45.9	17.5	0.00e+00	0	42	0	164626432	57	5073
2026-01-26 11:02:37.86	202.56	15.07	-43.0	-45.7	17.7	0.00e+00	0	42	0	166723584	57	4958
2026-01-26 11:02:38.86	202.67	15.16	-43.1	-45.7	17.7	0.00e+00	0	42	0	168820736	57	4968
2026-01-26 11:02:39.85	202.78	15.25	-43.1	-45.7	17.8	0.00e+00	0	42	0	169869312	57	4973
2026-01-26 11:02:40.85	202.89	15.34	-43.0	-45.5	18.0	0.00e+00	0	42	0	171966464	57	4866
2026-01-26 11:02:41.84	203.00	15.44	-43.1	-45.6	18.0	0.00e+00	0	42	0	174063616	57	4910
2026-01-26 11:02:42.83	203.11	15.53	-43.3	-46.0	17.6	0.00e+00	0	42	0	176160768	57	5101
2026-01-26 11:02:43.83	203.23	15.62	-43.3	-45.9	17.7	0.00e+00	0	42	0	178257920	57	5074
2026-01-26 11:02:44.82	203.34	15.72	-43.1	-45.7	17.9	0.00e+00	0	42	0	179306496	57	4935
2026-01-26 11:02:45.82	203.45	15.81	-43.3	-45.9	17.6	0.00e+00	0	42	0	181403648	57	5074
2026-01-26 11:02:46.81	203.57	15.90	-43.3	-45.9	17.7	0.00e+00	0	42	0	183500800	57	5069
2026-01-26 11:02:47.80	203.68	16.00	-43.1	-45.7	17.9	0.00e+00	0	42	0	185597952	57	4933
2026-01-26 11:02:48.80	203.80	16.09	-43.3	-45.9	17.6	0.00e+00	0	42	0	186646528	57	5081
2026-01-26 11:02:49.80	203.92	16.19	-43.3	-45.9	17.7	0.00e+00	0	42	0	188743680	57	5046
2026-01-26 11:02:50.79	204.04	16.28	-43.4	-46.0	17.5	0.00e+00	0	42	0	190840832	57	5115
2026-01-26 11:02:51.79	204.16	16.38	-43.4	-46.0	17.5	0.00e+00	0	42	0	192937984	57	5132
2026-01-26 11:02:52.79	204.28	16.48	-43.5	-46.1	17.3	0.00e+00	0	42	0	195035136	57	5213
2026-01-26 11:02:53.78	204.40	16.57	-43.4	-45.9	17.6	0.00e+00	0	42	0	196083712	57	5083
2026-01-26 11:02:54.77	204.52	16.67	-43.4	-45.9	17.7	0.00e+00	0	42	0	198180864	57	5073
2026-01-26 11:02:55.77	204.64	16.76	-43.5	-46.1	17.5	0.00e+00	0	42	0	200278016	57	5183
2026-01-26 11:02:56.77	204.76	16.86	-43.5	-46.1	17.5	0.00e+00	0	42	0	202375168	57	5177
2026-01-26 11:02:57.76	204.89	16.96	-43.6	-46.2	17.4	0.00e+00	0	42	0	203423744	57	5252
2026-01-26 11:02:58.75	205.01	17.05	-43.6	-46.3	17.4	0.00e+00	0	42	0	205520896	58	5005
2026-01-26 11:02:59.75	205.14	17.15	-43.6	-46.3	17.4	0.00e+00	0	42	0	207618048	58	4995
2026-01-26 11:03:00.74	205.26	17.25	-43.7	-46.4	17.3	0.00e+00	0	42	0	209715200	58	5056
2026-01-26 11:03:01.74	205.39	17.35	-43.8	-46.5	17.1	0.00e+00	0	42	0	211812352	58	5158
2026-01-26 11:03:02.73	205.51	17.45	-43.7	-46.4	17.4	0.00e+00	0	42	0	212860928	58	5045
2026-01-26 11:03:03.73	205.64	17.54	-43.5	-46.1	17.5	0.00e+00	0	42	0	214958080	58	4925
2026-01-26 11:03:04.72	205.77	17.64	-43.6	-46.3	17.4	0.00e+00	0	42	0	217055232	58	5003
2026-01-26 11:03:05.71	205.90	17.74	-43.5	-46.1	17.6	0.00e+00	0	42	0	219152384	58	4871
2026-01-26 11:03:06.71	206.03	17.84	-43.6	-46.2	17.5	0.00e+00	0	42	0	220200960	58	4941
2026-01-26 11:03:07.70	206.16	17.94	-43.4	-45.9	17.8	0.00e+00	0	42	0	222298112	58	4789
2026-01-26 11:03:08.70	206.30	18.04	-43.2	-45.8	17.9	0.00e+00	0	42	0	224395264	58	4720
2026-01-26 11:03:09.69	206.43	18.14	-43.1	-45.6	18.1	0.00e+00	0	42	0	226492416	58	4641
2026-01-26 11:03:10.68	206.56	18.24	-43.1	-45.6	18.1	0.00e+00	0	42	0	228589568	58	4612
2026-01-26 11:03:11.68	206.70	18.34	-43.3	-45.8	17.9	0.00e+00	0	42	0	229638144	58	4754
2026-01-26 11:03:12.67	206.83	18.44	-43.1	-45.6	18.1	0.00e+00	0	42	0	231735296	58	4629
2026-01-26 11:03:13.67	206.97	18.54	-43.2	-45.7	18.0	0.00e+00	0	42	0	233832448	58	4657
2026-01-26 11:03:14.66	207.11	18.64	-43.4	-46.0	17.7	0.00e+00	0	42	0	235929600	58	4848
2026-01-26 11:03:15.66	207.25	18.75	-43.6	-46.3	17.5	0.00e+00	0	42	0	236978176	58	4995
2026-01-26 11:03:16.65	207.38	18.85	-43.6	-46.3	17.4	0.00e+00	0	42	0	239075328	58	5027
2026-01-26 11:03:17.65	207.53	18.95	-43.6	-46.3	17.4	0.00e+00	0	42	0	241172480	58	5029
2026-01-26 11:03:18.64	207.67	19.05	-43.6	-46.3	17.4	0.00e+00	0	42	0	243269632	58	5015
2026-01-26 11:03:19.64	207.81	19.15	-43.8	-46.5	17.2	0.00e+00	0	42	0	245366784	58	5151
2026-01-26 11:03:20.63	207.95	19.26	-43.9	-46.7	17.1	0.00e+00	0	42	0	246415360	58	5226
2026-01-26 11:03:21.63	208.10	19.36	-43.9	-46.7	17.0	0.00e+00	0	42	0	248512512	58	5253
2026-01-26 11:03:22.62	208.24	19.46	-43.9	-46.7	17.0	0.00e+00	0	42	0	250609664	58	5245
2026-01-26 11:03:23.62	208.39	19.57	-43.8	-46.6	17.2	0.00e+00	0	42	0	252706816	58	5160
2026-01-26 11:03:24.61	208.53	19.67	-43.9	-46.6	17.1	0.00e+00	0	42	0	253755392	58	5206
2026-01-26 11:03:25.61	208.68	19.78	-44.0	-46.7	17.0	0.00e+00	0	42	0	255852544	58	5264
2026-01-26 11:03:26.61	208.83	19.88	-44.0	-46.7	17.0	0.00e+00	0	42	0	257949696	58	5270
2026-01-26 11:03:27.60	208.98	19.98	-43.8	-46.5	17.2	0.00e+00	0	42	0	260046848	58	5135
2026-01-26 11:03:28.60	209.13	20.09	-43.7	-46.3	17.4	0.00e+00	0	42	0	262144000	58	5039
2026-01-26 11:03:29.59	209.28	20.19	-43.9	-46.6	17.2	0.00e+00	0	42	0	263192576	58	5162
2026-01-26 11:03:30.59	209.44	20.30	-43.7	-46.3	17.4	0.00e+00	0	42	0	265289728	58	5026
2026-01-26 11:03:31.58	209.59	20.41	-43.4	-46.0	17.7	0.00e+00	0	42	0	267386880	58	4841
2026-01-26 11:03:32.58	209.74	20.51	-43.6	-46.1	17.6	0.00e+00	0	42	0	269484032	58	4924
2026-01-26 11:03:33.57	209.90	20.62	-43.6	-46.2	17.5	0.00e+00	0	42	0	270532608	58	4978
2026-01-26 11:03:34.57	210.06	20.72	-43.6	-46.2	17.5	0.00e+00	0	42	0	272629760	58	4976
2026-01-26 11:03:35.56	210.21	20.83	-43.6	-46.2	17.5	0.00e+00	0	42	0	274726912	58	4983
2026-01-26 11:03:36.56	210.37	20.94	-43.6	-46.3	17.4	0.00e+00	0	42	0	276824064	58	5009
2026-01-26 11:03:37.55	210.53	21.04	-43.8	-46.5	17.3	0.00e+00	0	42	0	278921216	58	5109
2026-01-26 11:03:38.54	210.69	21.15	-43.7	-46.4	17.3	0.00e+00	0	42	0	279969792	58	5071
2026-01-26 11:03:39.54	210.86	21.26	-43.9	-46.6	17.2	0.00e+00	0	43	0	282066944	58	5174
2026-01-26 11:03:40.53	211.02	21.37	-44.0	-46.8	17.0	0.00e+00	0	42	0	284164096	58	5309
2026-01-26 11:03:41.53	211.18	21.48	-43.8	-46.5	17.2	0.00e+00	0	42	0	286261248	58	5159
2026-01-26 11:03:42.52	211.35	21.58	-44.0	-46.8	17.0	0.00e+00	0	42	0	287309824	58	5301
2026-01-26 11:03:43.52	211.52	21.69	-44.0	-46.7	17.0	0.00e+00	0	43	0	289406976	58	5244
2026-01-26 11:03:44.51	211.68	21.80	-44.0	-46.7	17.1	0.00e+00	0	42	0	291504128	58	5243
2026-01-26 11:03:45.51	211.85	21.91	-44.0	-46.7	17.1	0.00e+00	0	42	0	293601280	58	5258
2026-01-26 11:03:46.50	212.02	22.02	-44.0	-46.7	17.1	0.00e+00	0	43	0	295698432	58	5249
2026-01-26 11:03:47.49	212.19	22.13	-43.8	-46.5	17.3	0.00e+00	0	42	0	296747008	58	5131
2026-01-26 11:03:48.49	212.37	22.24	-43.7	-46.4	17.5	0.00e+00	0	42	0	298844160	58	5060
2026-01-26 11:03:49.49	212.54	22.35	-43.5	-46.1	17.7	0.00e+00	0	43	0	300941312	58	4894
2026-01-26 11:03:50.48	212.72	22.46	-43.4	-45.9	17.8	0.00e+00	0	42	0	303038464	58	4794
2026-01-26 11:03:51.47	212.89	22.57	-43.3	-45.8	17.9	0.00e+00	0	42	0	304087040	58	4724
2026-01-26 11:03:52.47	213.07	22.68	-43.2	-45.7	18.1	0.00e+00	0	42	0	306184192	58	4657
2026-01-26 11:03:53.47	213.25	22.79	-43.2	-45.7	18.1	0.00e+00	0	42	0	308281344	58	4653
2026-01-26 11:03:54.46	213.43	22.90	-43.0	-45.5	18.3	0.00e+00	0	42	0	310378496	57	4818
2026-01-26 11:03:55.45	213.61	23.01	-43.3	-45.8	17.9	0.00e+00	0	42	0	312475648	57	5041
2026-01-26 11:03:56.45	213.79	23.12	-43.4	-46.0	17.7	0.00e+00	0	42	0	313524224	57	5138
2026-01-26 11:03:57.44	213.97	23.23	-43.5	-46.1	17.7	0.00e+00	0	42	0	315621376	57	5161
2026-01-26 11:03:58.44	214.16	23.34	-43.6	-46.3	17.6	0.00e+00	0	42	0	317718528	57	5286
2026-01-26 11:03:59.43	214.35	23.45	-43.4	-46.0	17.8	0.00e+00	0	43	0	319815680	57	5102
2026-01-26 11:04:00.43	214.53	23.57	-43.2	-45.8	18.0	0.00e+00	0	43	0	320864256	57	4990
2026-01-26 11:04:01.43	214.72	23.68	-43.3	-45.8	18.0	0.00e+00	0	42	0	322961408	57	5011
2026-01-26 11:04:02.42	214.91	23.79	-43.1	-45.6	18.2	0.00e+00	0	42	0	325058560	57	4894
2026-01-26 11:04:03.42	215.11	23.90	-42.9	-45.3	18.4	0.00e+00	0	42	0	327155712	57	4742
2026-01-26 11:04:04.42	215.30	24.02	-42.9	-45.3	18.5	0.00e+00	0	43	0	329252864	57	4711
2026-01-26 11:04:05.41	215.49	24.13	-42.5	-44.9	18.8	0.00e+00	0	42	0	330301440	57	4504
2026-01-26 11:04:06.41	215.69	24.24	-42.6	-45.0	18.7	0.00e+00	0	42	0	332398592	57	4570
2026-01-26 11:04:07.40	215.89	24.36	-42.9	-45.3	18.4	0.00e+00	0	42	0	334495744	57	4727
2026-01-26 11:04:08.40	216.08	24.47	-43.1	-45.5	18.2	0.00e+00	0	43	0	336592896	57	4861
2026-01-26 11:04:09.39	216.28	24.58	-43.2	-45.7	18.0	0.00e+00	0	42	0	337641472	57	4958
2026-01-26 11:04:10.38	216.48	24.69	-43.5	-46.1	17.7	0.00e+00	0	42	0	339738624	57	5184
2026-01-26 11:04:11.38	216.69	24.81	-43.7	-46.3	17.4	0.00e+00	0	43	0	341835776	58	5033
2026-01-26 11:04:12.38	216.89	24.92	-43.6	-46.3	17.6	0.00e+00	0	42	0	343932928	58	4984
2026-01-26 11:04:13.37	217.10	25.04	-43.7	-46.4	17.5	0.00e+00	0	42	0	346030080	58	5042
2026-01-26 11:04:14.36	217.30	25.15	-43.6	-46.2	17.6	0.00e+00	0	42	0	347078656	58	4949
2026-01-26 11:04:15.36	217.51	25.26	-43.3	-45.8	17.9	0.00e+00	0	42	0	349175808	58	4748
2026-01-26 11:04:16.35	217.72	25.38	-43.1	-45.5	18.2	0.00e+00	0	42	0	351272960	58	4575
2026-01-26 11:04:17.35	217.93	25.49	-43.1	-45.6	18.2	0.00e+00	0	42	0	353370112	58	4620
2026-01-26 11:04:18.34	218.14	25.61	-43.1	-45.6	18.1	0.00e+00	0	42	0	354418688	58	4629
2026-01-26 11:04:19.34	218.36	25.72	-43.2	-45.6	18.1	0.00e+00	0	42	0	356515840	58	4645
2026-01-26 11:04:20.33	218.57	25.83	-43.1	-45.6	18.2	0.00e+00	0	42	0	358612992	57	4901
2026-01-26 11:04:21.33	218.79	25.95	-43.4	-45.9	17.8	0.00e+00	0	42	0	360710144	57	5073
2026-01-26 11:04:22.32	219.01	26.06	-43.5	-46.1	17.7	0.00e+00	0	42	0	362807296	57	5169
2026-01-26 11:04:23.32	219.23	26.18	-43.4	-45.9	17.8	0.00e+00	0	42	0	363855872	57	5074
2026-01-26 11:04:24.31	219.45	26.29	-43.4	-45.9	17.9	0.00e+00	0	43	0	365953024	57	5068
2026-01-26 11:04:25.31	219.68	26.41	-43.3	-45.8	18.0	0.00e+00	0	42	0	368050176	57	5021
2026-01-26 11:04:26.30	219.90	26.52	-43.2	-45.7	18.1	0.00e+00	0	42	0	370147328	57	4932
2026-01-26 11:04:27.29	220.13	26.63	-43.3	-45.8	18.0	0.00e+00	0	43	0	371195904	57	5006
2026-01-26 11:04:28.29	220.36	26.75	-43.2	-45.7	18.1	0.00e+00	0	43	0	373293056	57	4957
2026-01-26 11:04:29.28	220.59	26.86	-43.3	-45.7	18.1	0.00e+00	0	43	0	375390208	57	4964
2026-01-26 11:04:30.28	220.82	26.98	-43.2	-45.7	18.0	0.00e+00	0	43	0	377487360	57	4936
2026-01-26 11:04:31.27	221.05	27.09	-42.9	-45.2	18.5	0.00e+00	0	42	0	379584512	57	4696
2026-01-26 11:04:32.27	221.29	27.21	-43.1	-45.5	18.2	0.00e+00	0	42	0	380633088	57	4850
2026-01-26 11:04:33.26	221.52	27.32	-42.9	-45.3	18.5	0.00e+00	0	42	0	382730240	57	4720
2026-01-26 11:04:34.26	221.76	27.44	-42.9	-45.3	18.5	0.00e+00	0	42	0	384827392	57	4715
2026-01-26 11:04:35.25	222.00	27.55	-42.7	-45.0	18.7	0.00e+00	0	43	0	386924544	57	4571
2026-01-26 11:04:36.25	222.24	27.67	-42.6	-44.9	18.8	0.00e+00	0	43	0	387973120	57	4536
2026-01-26 11:04:37.24	222.48	27.78	-42.6	-44.9	18.8	0.00e+00	0	42	0	390070272	57	4528
2026-01-26 11:04:38.24	222.73	27.90	-42.6	-45.0	18.8	0.00e+00	0	42	0	392167424	56	4819
2026-01-26 11:04:39.23	222.98	28.01	-42.8	-45.2	18.6	0.00e+00	0	42	0	394264576	56	4929
2026-01-26 11:04:40.23	223.23	28.12	-42.8	-45.2	18.6	0.00e+00	0	42	0	396361728	56	4929
2026-01-26 11:04:41.22	223.47	28.24	-42.9	-45.3	18.4	0.00e+00	0	42	0	397410304	56	5033
2026-01-26 11:04:42.21	223.73	28.35	-43.0	-45.4	18.2	0.00e+00	0	43	0	399507456	57	4768
2026-01-26 11:04:43.21	223.98	28.47	-43.0	-45.5	18.3	0.00e+00	0	42	0	401604608	57	4827
2026-01-26 11:04:44.20	224.23	28.58	-43.1	-45.5	18.2	0.00e+00	0	42	0	403701760	57	4866
2026-01-26 11:04:45.20	224.49	28.69	-43.0	-45.4	18.3	0.00e+00	0	42	0	404750336	57	4813
2026-01-26 11:04:46.19	224.75	28.81	-43.0	-45.4	18.3	0.00e+00	0	42	0	406847488	57	4812
2026-01-26 11:04:47.19	225.01	28.92	-43.3	-45.7	18.0	0.00e+00	0	42	0	408944640	57	4970
2026-01-26 11:04:48.18	225.27	29.03	-43.4	-45.9	17.9	0.00e+00	0	43	0	411041792	57	5085
2026-01-26 11:04:49.18	225.54	29.14	-43.5	-46.0	17.8	0.00e+00	0	42	0	413138944	57	5135
2026-01-26 11:04:50.17	225.80	29.26	-43.7	-46.2	17.6	0.00e+00	0	43	0	414187520	58	4975
2026-01-26 11:04:51.17	226.07	29.37	-43.8	-46.4	17.5	0.00e+00	0	42	0	416284672	58	5059
2026-01-26 11:04:52.16	226.34	29.48	-44.1	-46.8	17.1	0.00e+00	0	43	0	418381824	58	5281
2026-01-26 11:04:53.16	226.62	29.59	-44.2	-46.9	16.9	0.00e+00	0	42	0	420478976	59	5069
2026-01-26 11:04:54.16	226.89	29.71	-44.3	-47.1	16.7	0.00e+00	0	43	0	422576128	59	5211
2026-01-26 11:04:55.15	227.16	29.82	-44.5	-47.4	16.5	0.00e+00	0	43	0	423624704	59	5375
2026-01-26 11:04:56.14	227.44	29.93	-44.3	-47.1	16.8	0.00e+00	0	42	0	425721856	59	5206
2026-01-26 11:04:57.14	227.72	30.04	-44.1	-46.8	17.0	0.00e+00	0	43	0	427819008	59	5033
2026-01-26 11:04:58.13	228.00	30.15	-44.2	-47.0	16.9	0.00e+00	0	42	0	429916160	59	5124
2026-01-26 11:04:59.12	228.28	30.26	-44.4	-47.3	16.7	0.00e+00	0	43	0	430964736	59	5296
2026-01-26 11:05:00.12	228.57	30.37	-44.6	-47.6	16.3	0.00e+00	0	43	0	433061888	60	5208
2026-01-26 11:05:01.11	228.85	30.48	-45.1	-48.4	15.6	0.00e+00	0	43	0	435159040	61	5371
2026-01-26 11:05:02.11	229.14	30.59	-45.3	-48.6	15.3	0.00e+00	0	42	0	437256192	61	5519
2026-01-26 11:05:03.10	229.43	30.70	-45.6	-49.0	15.0	0.00e+00	0	43	0	439353344	61	5774
2026-01-26 11:05:04.10	229.73	30.80	-45.7	-49.2	14.8	0.00e+00	0	43	0	440401920	62	5539
2026-01-26 11:05:05.09	230.02	30.91	-45.8	-49.4	14.6	0.00e+00	0	42	0	442499072	62	5690
2026-01-26 11:05:06.09	230.32	31.02	-45.9	-49.6	14.4	0.00e+00	0	43	0	444596224	62	5814
2026-01-26 11:05:07.08	230.61	31.13	-45.9	-49.5	14.5	3.00e-06	0	43	0	446693376	62	5763
2026-01-26 11:05:08.08	230.92	31.23	-45.5	-49.0	14.9	1.50e-06	0	43	0	447741952	62	5451
2026-01-26 11:05:09.07	231.22	31.34	-45.7	-49.3	14.7	0.00e+00	0	43	0	449839104	62	5626
2026-01-26 11:05:10.07	231.52	31.45	-46.0	-49.7	14.3	7.00e-07	0	43	0	451936256	62	5922
2026-01-26 11:05:11.07	231.83	31.55	-46.2	-50.2	13.8	3.80e-06	0	42	0	454033408	63	5887
2026-01-26 11:05:12.06	232.14	31.66	-46.4	-50.5	13.5	6.80e-06	0	43	0	456130560	63	6077
2026-01-26 11:05:13.05	232.44	31.76	-46.3	-50.2	13.7	1.44e-05	0	43	0	457179136	63	5899
2026-01-26 11:05:14.05	232.76	31.86	-46.4	-50.4	13.6	4.50e-06	0	42	0	459276288	63	6024
2026-01-26 11:05:15.04	233.07	31.97	-46.0	-49.6	14.3	3.00e-06	0	42	0	461373440	63	5519
2026-01-26 11:05:16.04	233.39	32.07	-45.8	-49.3	14.7	1.50e-06	0	43	0	463470592	63	5322
2026-01-26 11:05:17.04	233.71	32.17	-45.7	-49.1	14.8	0.00e+00	0	43	0	464519168	62	5523
2026-01-26 11:05:18.03	234.02	32.27	-45.7	-49.3	14.7	7.00e-07	0	43	0	466616320	62	5616
2026-01-26 11:05:19.02	234.34	32.37	-45.7	-49.3	14.8	0.00e+00	0	43	0	468713472	62	5594
2026-01-26 11:05:20.02	234.67	32.47	-46.0	-49.7	14.3	7.00e-07	0	43	0	470810624	62	5917
2026-01-26 11:05:21.01	234.99	32.57	-45.7	-49.3	14.7	0.00e+00	0	43	0	472907776	62	5630
2026-01-26 11:05:22.00	235.32	32.67	-46.1	-49.9	14.1	3.80e-06	0	43	0	473956352	63	5702
2026-01-26 11:05:23.00	235.65	32.77	-46.3	-50.5	13.5	3.80e-06	0	43	0	476053504	63	6089
2026-01-26 11:05:23.99	235.98	32.86	-46.1	-50.2	14.0	9.10e-06	0	43	0	478150656	63	5861
2026-01-26 11:05:24.99	236.32	32.96	-46.1	-50.0	14.0	4.50e-06	0	43	0	480247808	63	5780
2026-01-26 11:05:25.98	236.65	33.06	-46.0	-49.8	14.2	4.50e-06	0	43	0	481296384	63	5640
2026-01-26 11:05:26.98	236.99	33.15	-46.0	-49.8	14.2	1.50e-06	0	43	0	483393536	63	5627
2026-01-26 11:05:27.97	237.33	33.25	-46.0	-49.7	14.2	7.00e-07	0	43	0	485490688	63	5571
2026-01-26 11:05:28.97	237.67	33.34	-45.6	-49.1	14.8	1.50e-06	0	43	0	487587840	63	5185
2026-01-26 11:05:29.96	238.01	33.43	-45.8	-49.3	14.6	0.00e+00	0	42	0	489684992	63	5340
2026-01-26 11:05:30.95	238.35	33.52	-45.8	-49.3	14.7	1.50e-06	0	43	0	490733568	63	5317
2026-01-26 11:05:31.95	238.70	33.61	-46.1	-49.8	14.2	1.50e-06	0	43	0	492830720	63	5620
2026-01-26 11:05:32.94	239.05	33.70	-46.5	-50.4	13.7	6.80e-06	0	43	0	494927872	63	6001
2026-01-26 11:05:33.94	239.40	33.79	-46.2	-49.9	14.2	2.20e-06	0	42	0	497025024	63	5704
2026-01-26 11:05:34.93	239.75	33.88	-45.5	-48.9	15.2	0.00e+00	0	43	0	498073600	63	5063
2026-01-26 11:05:35.92	240.10	33.97	-44.6	-47.6	16.4	0.00e+00	0	43	0	500170752	61	4872
2026-01-26 11:05:36.92	240.46	34.05	-44.1	-46.7	17.2	0.00e+00	0	43	0	502267904	60	4700
2026-01-26 11:05:37.92	240.82	34.14	-44.0	-46.6	17.2	0.00e+00	0	43	0	504365056	59	4910
2026-01-26 11:05:38.91	241.18	34.22	-44.3	-47.1	16.8	0.00e+00	0	43	0	506462208	59	5162
2026-01-26 11:05:39.91	241.54	34.31	-45.0	-48.1	15.9	0.00e+00	0	43	0	507510784	60	5508
2026-01-26 11:05:40.90	241.91	34.39	-45.6	-48.9	15.0	0.00e+00	0	43	0	509607936	61	5720
2026-01-26 11:05:41.90	242.27	34.47	-45.9	-49.4	14.5	1.50e-06	0	43	0	511705088	62	5717
2026-01-26 11:05:42.89	242.64	34.55	-45.5	-48.8	15.2	0.00e+00	0	43	0	513802240	62	5326
2026-01-26 11:05:43.89	243.01	34.63	-44.9	-47.9	15.9	0.00e+00	0	43	0	514850816	61	5081
2026-01-26 11:05:44.88	243.38	34.70	-44.6	-47.5	16.4	0.00e+00	0	42	0	516947968	61	4832
2026-01-26 11:05:45.87	243.75	34.78	-43.9	-46.6	17.3	0.00e+00	0	43	0	519045120	59	4912
2026-01-26 11:05:46.87	244.12	34.86	-43.7	-46.3	17.6	0.00e+00	0	42	0	521142272	59	4710
2026-01-26 11:05:47.87	244.50	34.93	-43.4	-46.0	17.8	0.00e+00	0	43	0	523239424	58	4855
2026-01-26 11:05:48.86	244.88	35.00	-43.2	-45.7	18.0	0.00e+00	0	42	0	524288000	58	4673
2026-01-26 11:05:49.86	245.26	35.08	-43.5	-46.0	17.8	0.00e+00	0	43	0	526385152	58	4864
2026-01-26 11:05:50.85	245.64	35.15	-43.8	-46.5	17.4	0.00e+00	0	42	0	528482304	58	5135
2026-01-26 11:05:51.85	246.02	35.22	-44.2	-47.0	16.9	0.00e+00	0	43	0	530579456	59	5130
2026-01-26 11:05:52.84	246.40	35.28	-44.2	-47.0	16.9	0.00e+00	0	43	0	531628032	59	5109
2026-01-26 11:05:53.84	246.79	35.35	-43.8	-46.5	17.3	0.00e+00	0	43	0	533725184	59	4824
2026-01-26 11:05:54.83	247.17	35.42	-43.3	-45.8	17.9	0.00e+00	0	43	0	535822336	58	4754
2026-01-26 11:05:55.83	247.56	35.48	-43.0	-45.4	18.4	0.00e+00	0	43	0	537919488	58	4513
2026-01-26 11:05:56.82	247.95	35.54	-43.3	-45.7	18.1	0.00e+00	0	43	0	540016640	58	4704
2026-01-26 11:05:57.82	248.35	35.61	-43.8	-46.4	17.5	0.00e+00	0	43	0	541065216	58	5085
2026-01-26 11:05:58.81	248.74	35.67	-43.8	-46.5	17.3	0.00e+00	0	43	0	543162368	58	5102
2026-01-26 11:05:59.80	249.13	35.72	-43.8	-46.4	17.4	0.00e+00	0	42	0	545259520	58	5063
2026-01-26 11:06:00.80	249.53	35.78	-43.4	-45.9	17.9	0.00e+00	0	42	0	547356672	58	4788
2026-01-26 11:06:01.79	249.92	35.84	-43.2	-45.7	18.0	0.00e+00	0	43	0	548405248	58	4695
2026-01-26 11:06:02.79	250.32	35.89	-43.5	-46.0	17.7	0.00e+00	0	43	0	550502400	58	4867
2026-01-26 11:06:03.78	250.72	35.95	-43.7	-46.4	17.5	0.00e+00	0	43	0	552599552	58	5045
2026-01-26 11:06:04.78	251.12	36.00	-43.9	-46.5	17.4	0.00e+00	0	42	0	554696704	58	5131
2026-01-26 11:06:05.77	251.52	36.05	-43.6	-46.1	17.8	0.00e+00	0	43	0	556793856	58	4895
2026-01-26 11:06:06.76	251.92	36.10	-43.5	-46.0	17.8	0.00e+00	0	42	0	557842432	58	4856
2026-01-26 11:06:07.76	252.33	36.14	-43.5	-46.0	17.8	0.00e+00	0	42	0	559939584	58	4858
2026-01-26 11:06:08.75	252.73	36.19	-44.0	-46.7	17.2	0.00e+00	0	43	0	562036736	58	5232
2026-01-26 11:06:09.75	253.14	36.23	-44.2	-47.0	16.9	0.00e+00	0	43	0	564133888	59	5128
2026-01-26 11:06:10.74	253.55	36.28	-44.6	-47.5	16.4	0.00e+00	0	43	0	565182464	60	5150
2026-01-26 11:06:11.74	253.96	36.32	-44.2	-47.0	16.9	0.00e+00	0	42	0	567279616	60	4854
2026-01-26 11:06:12.73	254.37	36.36	-44.0	-46.6	17.2	0.00e+00	0	43	0	569376768	59	4895
2026-01-26 11:06:13.73	254.78	36.40	-43.9	-46.5	17.4	0.00e+00	0	43	0	571473920	59	4860
2026-01-26 11:06:14.72	255.19	36.43	-44.0	-46.7	17.2	0.00e+00	0	43	0	573571072	59	4945
2026-01-26 11:06:15.72	255.60	36.47	-44.1	-46.8	17.1	0.00e+00	0	43	0	574619648	59	5016
2026-01-26 11:06:16.71	256.01	36.50	-43.8	-46.5	17.4	0.00e+00	0	42	0	576716800	59	4833
2026-01-26 11:06:17.71	256.43	36.53	-43.9	-46.5	17.4	0.00e+00	0	42	0	578813952	59	4835
2026-01-26 11:06:18.71	256.85	36.56	-43.8	-46.5	17.4	0.00e+00	0	43	0	580911104	59	4820
2026-01-26 11:06:19.70	257.26	36.59	-44.0	-46.7	17.2	0.00e+00	0	42	0	581959680	59	4945
2026-01-26 11:06:20.70	257.68	36.62	-44.5	-47.3	16.6	0.00e+00	0	43	0	584056832	59	5333
2026-01-26 11:06:21.69	258.09	36.64	-44.7	-47.8	16.2	0.00e+00	0	42	0	586153984	60	5286
2026-01-26 11:06:22.69	258.51	36.67	-44.7	-47.8	16.2	0.00e+00	0	42	0	588251136	60	5287
2026-01-26 11:06:23.69	258.93	36.69	-44.8	-47.8	16.1	0.00e+00	0	43	0	590348288	60	5337
2026-01-26 11:06:24.68	259.35	36.71	-44.5	-47.3	16.6	0.00e+00	0	43	0	591396864	60	5011
2026-01-26 11:06:25.68	259.77	36.73	-44.3	-47.1	16.9	0.00e+00	0	43	0	593494016	60	4880
2026-01-26 11:06:26.67	260.19	36.74	-44.4	-47.2	16.7	0.00e+00	0	43	0	595591168	60	4968
2026-01-26 11:06:27.67	260.61	36.76	-44.6	-47.6	16.3	0.00e+00	0	43	0	597688320	60	5217
2026-01-26 11:06:28.66	261.03	36.77	-44.4	-47.3	16.5	0.00e+00	0	43	0	599785472	60	5037
2026-01-26 11:06:29.66	261.45	36.78	-44.4	-47.2	16.7	0.00e+00	0	43	0	600834048	60	4979
2026-01-26 11:06:30.65	261.87	36.79	-44.6	-47.6	16.4	0.00e+00	0	43	0	602931200	60	5162
2026-01-26 11:06:31.65	262.29	36.80	-44.9	-47.9	16.0	0.00e+00	0	43	0	605028352	60	5393
2026-01-26 11:06:32.64	262.71	36.81	-44.8	-47.9	16.1	0.00e+00	0	43	0	607125504	60	5378
2026-01-26 11:06:33.63	263.13	36.81	-44.5	-47.6	16.4	0.00e+00	0	43	0	608174080	60	5162
2026-01-26 11:06:34.63	263.55	36.82	-44.6	-47.7	16.3	0.00e+00	0	43	0	610271232	60	5258
2026-01-26 11:06:35.62	263.97	36.82	-44.9	-48.1	15.9	0.00e+00	0	43	0	612368384	60	5508
2026-01-26 11:06:36.62	264.40	36.82	-44.7	-47.7	16.3	0.00e+00	0	43	0	614465536	60	5238
2026-01-26 11:06:37.61	264.82	36.82	-44.3	-47.1	16.8	0.00e+00	0	43	0	616562688	60	4923
2026-01-26 11:06:38.61	265.24	36.81	-44.3	-47.1	16.8	0.00e+00	0	43	0	617611264	60	4925
2026-01-26 11:06:39.60	265.66	36.81	-44.9	-47.9	16.1	0.00e+00	0	42	0	619708416	60	5382
2026-01-26 11:06:40.60	266.08	36.80	-45.1	-48.3	15.8	0.00e+00	0	43	0	621805568	60	5614
2026-01-26 11:06:41.59	266.50	36.79	-45.0	-48.2	15.9	0.00e+00	0	42	0	623902720	60	5534
2026-01-26 11:06:42.59	266.92	36.78	-44.9	-48.0	15.9	0.00e+00	0	43	0	624951296	60	5416
2026-01-26 11:06:43.58	267.34	36.77	-45.2	-48.4	15.7	0.00e+00	0	43	0	627048448	61	5382
2026-01-26 11:06:44.57	267.76	36.76	-45.6	-49.0	15.0	0.00e+00	0	43	0	629145600	61	5761
2026-01-26 11:06:45.57	268.18	36.74	-45.9	-49.4	14.6	0.00e+00	0	43	0	631242752	62	5715
2026-01-26 11:06:46.56	268.60	36.72	-45.6	-49.0	15.1	0.00e+00	0	42	0	633339904	62	5447
2026-01-26 11:06:47.56	269.02	36.70	-45.2	-48.5	15.6	0.00e+00	0	43	0	634388480	62	5103
2026-01-26 11:06:48.55	269.44	36.68	-44.8	-47.9	16.0	0.00e+00	0	42	0	636485632	61	5078
2026-01-26 11:06:49.54	269.85	36.66	-44.7	-47.8	16.3	0.00e+00	0	43	0	638582784	61	4991
2026-01-26 11:06:50.54	270.27	36.64	-44.8	-47.8	16.2	0.00e+00	0	43	0	640679936	61	5002
2026-01-26 11:06:51.53	270.68	36.61	-44.5	-47.4	16.5	0.00e+00	0	43	0	641728512	60	5084
2026-01-26 11:06:52.53	271.10	36.59	-44.6	-47.6	16.4	0.00e+00	0	43	0	643825664	60	5185
2026-01-26 11:06:53.52	271.52	36.56	-45.0	-48.1	15.8	0.00e+00	0	43	0	645922816	60	5522
2026-01-26 11:06:54.52	271.93	36.53	-45.8	-49.4	14.7	0.00e+00	0	43	0	648019968	62	5690
2026-01-26 11:06:55.51	272.34	36.49	-46.3	-50.3	13.6	4.50e-06	0	42	0	650117120	63	5956
2026-01-26 11:06:56.51	272.76	36.46	-46.3	-50.3	13.6	2.74e-05	0	43	0	651165696	64	5611
2026-01-26 11:06:57.50	273.17	36.43	-45.9	-49.5	14.5	7.00e-07	0	42	0	653262848	63	5430
2026-01-26 11:06:58.50	273.58	36.39	-45.6	-49.1	15.0	7.00e-07	0	43	0	655360000	62	5478
2026-01-26 11:06:59.50	273.99	36.35	-45.9	-49.4	14.7	0.00e+00	0	43	0	657457152	62	5694
2026-01-26 11:07:00.49	274.40	36.31	-45.9	-49.6	14.4	0.00e+00	0	43	0	658505728	62	5800
2026-01-26 11:07:01.49	274.81	36.27	-45.7	-49.1	15.0	7.00e-07	0	43	0	660602880	63	5183
2026-01-26 11:07:02.48	275.21	36.23	-45.1	-48.1	15.9	0.00e+00	0	42	0	662700032	62	4913
2026-01-26 11:07:03.48	275.62	36.18	-44.9	-47.9	16.3	0.00e+00	0	43	0	664797184	61	5047
2026-01-26 11:07:04.47	276.02	36.14	-45.1	-48.2	15.7	0.00e+00	0	42	0	666894336	61	5264
2026-01-26 11:07:05.47	276.43	36.09	-46.0	-49.6	14.4	0.00e+00	0	43	0	667942912	62	5814
2026-01-26 11:07:06.46	276.83	36.04	-46.4	-50.3	13.8	2.20e-06	0	43	0	670040064	63	5964
2026-01-26 11:07:07.46	277.23	35.99	-46.1	-49.7	14.2	1.50e-06	0	42	0	672137216	63	5576
2026-01-26 11:07:08.46	277.63	35.94	-45.5	-48.8	15.2	0.00e+00	0	43	0	674234368	63	5027
2026-01-26 11:07:09.45	278.03	35.88	-45.4	-48.5	15.5	0.00e+00	0	43	0	675282944	62	5151
2026-01-26 11:07:10.45	278.43	35.83	-45.9	-49.3	14.7	0.00e+00	0	42	0	677380096	62	5593
2026-01-26 11:07:11.44	278.82	35.77	-46.6	-50.5	13.4	4.50e-06	0	43	0	679477248	64	5751
2026-01-26 11:07:12.43	279.22	35.71	-47.0	-51.4	12.5	1.04e-04	0	43	0	681574400	64	6381
2026-01-26 11:07:13.43	279.61	35.66	-46.6	-50.6	13.3	2.82e-05	0	43	0	683671552	64	5812
2026-01-26 11:07:14.42	280.00	35.60	-46.5	-50.4	13.5	1.90e-05	0	42	0	684720128	64	5692
2026-01-26 11:07:15.42	280.39	35.53	-47.2	-52.0	12.0	6.40e-05	0	43	0	686817280	65	6436
2026-01-26 11:07:16.41	280.78	35.47	-47.7	-53.0	10.8	1.74e-03	0	43	0	688914432	66	6842
2026-01-26 11:07:17.41	281.17	35.41	-47.7	-53.0	10.9	2.94e-03	0	43	0	691011584	66	6831
2026-01-26 11:07:18.40	281.55	35.34	-47.3	-51.9	12.1	1.18e-03	0	43	0	692060160	66	6027
2026-01-26 11:07:19.40	281.94	35.27	-47.0	-51.4	12.5	1.91e-04	0	43	0	694157312	65	6042
2026-01-26 11:07:20.39	282.32	35.21	-46.9	-51.2	12.8	6.33e-05	0	43	0	696254464	65	5870
2026-01-26 11:07:21.39	282.70	35.14	-47.1	-51.7	12.2	1.27e-04	0	42	0	698351616	65	6204
2026-01-26 11:07:22.38	283.08	35.07	-47.6	-52.7	11.3	7.78e-04	0	43	0	700448768	65	7040
2026-01-26 11:07:23.38	283.46	34.99	-48.2	-54.0	9.8	6.86e-03	0	42	0	701497344	67	7269
2026-01-26 11:07:24.38	283.84	34.92	-48.0	-53.4	10.5	1.30e-02	0	43	0	703594496	67	6800
2026-01-26 11:07:25.37	284.21	34.85	-47.8	-53.1	10.7	5.38e-03	0	43	0	705691648	67	6527
2026-01-26 11:07:26.37	284.58	34.77	-47.2	-51.7	12.1	1.17e-03	0	43	0	707788800	66	5919
2026-01-26 11:07:27.36	284.95	34.69	-46.3	-50.2	13.7	1.83e-05	0	43	0	709885952	64	5561
2026-01-26 11:07:28.36	285.32	34.62	-46.0	-49.6	14.5	5.30e-06	0	43	0	710934528	63	5477
2026-01-26 11:07:29.35	285.69	34.54	-45.3	-48.5	15.5	0.00e+00	0	43	0	713031680	62	5134
2026-01-26 11:07:30.35	286.06	34.46	-45.1	-48.2	15.8	0.00e+00	0	43	0	715128832	61	5265
2026-01-26 11:07:31.34	286.42	34.38	-44.6	-47.6	16.4	0.00e+00	0	43	0	717225984	61	4876
2026-01-26 11:07:32.34	286.78	34.30	-45.1	-48.2	15.8	0.00e+00	0	43	0	718274560	61	5261
2026-01-26 11:07:33.33	287.14	34.21	-44.8	-47.8	16.3	0.00e+00	0	43	0	720371712	61	4984
2026-01-26 11:07:34.33	287.50	34.13	-44.7	-47.6	16.3	0.00e+00	0	43	0	722468864	61	4922
2026-01-26 11:07:35.32	287.86	34.04	-44.7	-47.6	16.4	0.00e+00	0	43	0	724566016	61	4887
2026-01-26 11:07:36.32	288.21	33.96	-45.3	-48.4	15.6	0.00e+00	0	43	0	726663168	61	5361
2026-01-26 11:07:37.31	288.56	33.87	-45.8	-49.2	14.8	0.00e+00	0	43	0	727711744	62	5566
2026-01-26 11:07:38.31	288.92	33.78	-46.1	-49.7	14.3	7.00e-07	0	43	0	729808896	62	5878
2026-01-26 11:07:39.31	289.27	33.69	-45.5	-48.8	15.2	0.00e+00	0	43	0	731906048	62	5333
2026-01-26 11:07:40.30	289.61	33.60	-45.0	-48.1	15.9	7.00e-07	0	43	0	734003200	62	4879
2026-01-26 11:07:41.30	289.96	33.51	-44.8	-47.8	16.2	0.00e+00	0	43	0	735051776	61	5024
2026-01-26 11:07:42.29	290.30	33.42	-44.8	-47.8	16.1	0.00e+00	0	43	0	737148928	61	5037
2026-01-26 11:07:43.29	290.65	33.33	-45.2	-48.4	15.6	0.00e+00	0	43	0	739246080	61	5353
2026-01-26 11:07:44.28	290.98	33.24	-45.2	-48.4	15.6	0.00e+00	0	43	0	741343232	61	5388
2026-01-26 11:07:45.28	291.32	33.14	-45.1	-48.2	15.7	0.00e+00	0	43	0	743440384	61	5264
2026-01-26 11:07:46.27	291.66	33.05	-44.5	-47.5	16.5	0.00e+00	0	43	0	744488960	60	5107
2026-01-26 11:07:47.27	291.99	32.95	-44.0	-46.6	17.3	0.00e+00	0	43	0	746586112	59	4920
2026-01-26 11:07:48.26	292.32	32.86	-43.5	-46.0	17.9	0.00e+00	0	43	0	748683264	58	4825
2026-01-26 11:07:49.25	292.65	32.76	-43.8	-46.5	17.4	0.00e+00	0	43	0	750780416	58	5110
2026-01-26 11:07:50.25	292.98	32.66	-44.3	-47.1	16.8	0.00e+00	0	43	0	751828992	59	5208
2026-01-26 11:07:51.24	293.30	32.57	-44.2	-46.9	17.0	0.00e+00	0	43	0	753926144	59	5064
2026-01-26 11:07:52.24	293.63	32.47	-44.2	-47.0	16.9	0.00e+00	0	43	0	756023296	59	5107
2026-01-26 11:07:53.23	293.95	32.37	-44.2	-46.9	17.1	0.00e+00	0	43	0	758120448	59	5051
2026-01-26 11:07:54.23	294.27	32.27	-44.3	-47.1	16.8	0.00e+00	0	43	0	760217600	59	5187
2026-01-26 11:07:55.22	294.59	32.17	-45.2	-48.4	15.6	0.00e+00	0	43	0	761266176	61	5384
2026-01-26 11:07:56.22	294.91	32.07	-46.0	-49.8	14.2	0.00e+00	0	43	0	763363328	62	5924
2026-01-26 11:07:57.21	295.22	31.96	-46.0	-49.8	14.1	0.00e+00	0	43	0	765460480	62	5966
2026-01-26 11:07:58.21	295.53	31.86	-45.1	-48.4	15.6	0.00e+00	0	43	0	767557632	62	5052
2026-01-26 11:07:59.20	295.84	31.76	-43.9	-46.6	17.3	0.00e+00	0	43	0	768606208	59	4892
2026-01-26 11:08:00.20	296.15	31.65	-43.0	-45.4	18.5	0.00e+00	0	43	0	770703360	57	4794
2026-01-26 11:08:01.19	296.46	31.55	-42.6	-45.0	18.8	0.00e+00	0	43	0	772800512	57	4561
2026-01-26 11:08:02.19	296.76	31.45	-43.0	-45.4	18.4	0.00e+00	0	43	0	774897664	57	4797
2026-01-26 11:08:03.18	297.06	31.34	-43.7	-46.3	17.5	0.00e+00	0	42	0	776994816	58	5039
2026-01-26 11:08:04.17	297.36	31.24	-44.3	-47.2	16.6	0.00e+00	0	43	0	778043392	59	5258
2026-01-26 11:08:05.17	297.66	31.13	-44.1	-46.9	17.0	0.00e+00	0	43	0	780140544	59	5063
2026-01-26 11:08:06.17	297.96	31.02	-43.3	-45.9	17.9	0.00e+00	0	43	0	782237696	58	4769
2026-01-26 11:08:07.16	298.26	30.92	-42.9	-45.3	18.4	0.00e+00	0	43	0	784334848	57	4729
2026-01-26 11:08:08.15	298.55	30.81	-43.0	-45.4	18.4	0.00e+00	0	43	0	785383424	57	4784
2026-01-26 11:08:09.15	298.84	30.70	-43.1	-45.6	18.1	0.00e+00	0	43	0	787480576	57	4914
2026-01-26 11:08:10.14	299.13	30.59	-43.8	-46.5	17.3	0.00e+00	0	43	0	789577728	58	5156
2026-01-26 11:08:11.14	299.42	30.48	-44.2	-47.1	16.7	0.00e+00	0	42	0	791674880	59	5187
2026-01-26 11:08:12.13	299.70	30.38	-43.7	-46.4	17.4	0.00e+00	0	43	0	793772032	59	4804
2026-01-26 11:08:13.13	299.98	30.27	-43.1	-45.6	18.2	0.00e+00	0	43	0	794820608	58	4616
2026-01-26 11:08:14.12	300.26	30.16	-42.5	-44.9	18.8	0.00e+00	0	43	0	796917760	56	4800
2026-01-26 11:08:15.12	300.55	30.05	-41.9	-44.1	19.4	0.00e+00	0	43	0	799014912	55	4646
2026-01-26 11:08:16.11	300.82	29.94	-42.3	-44.6	18.9	0.00e+00	0	43	0	801112064	55	4896
2026-01-26 11:08:17.11	301.10	29.83	-43.2	-45.7	18.2	0.00e+00	0	43	0	802160640	56	5228
2026-01-26 11:08:18.11	301.37	29.72	-43.8	-46.5	17.4	0.00e+00	0	43	0	804257792	58	5149
2026-01-26 11:08:19.10	301.65	29.61	-43.9	-46.7	17.2	0.00e+00	0	43	0	806354944	58	5228
2026-01-26 11:08:20.10	301.92	29.49	-42.8	-45.2	18.6	0.00e+00	0	43	0	808452096	57	4681
2026-01-26 11:08:21.09	302.18	29.38	-42.3	-44.6	19.1	0.00e+00	0	43	0	810549248	56	4626
2026-01-26 11:08:22.09	302.45	29.27	-42.1	-44.4	19.3	0.00e+00	0	43	0	811597824	56	4508
2026-01-26 11:08:23.08	302.72	29.16	-42.9	-45.3	18.5	0.00e+00	0	43	0	813694976	56	4997
2026-01-26 11:08:24.07	302.98	29.05	-43.8	-46.4	17.4	0.00e+00	0	43	0	815792128	58	5095
2026-01-26 11:08:25.07	303.24	28.93	-44.4	-47.2	16.7	0.00e+00	0	43	0	817889280	59	5278
2026-01-26 11:08:26.06	303.50	28.82	-44.2	-47.0	16.9	0.00e+00	0	43	0	818937856	59	5110
2026-01-26 11:08:27.06	303.76	28.71	-43.2	-45.7	18.1	0.00e+00	0	43	0	821035008	58	4673
2026-01-26 11:08:28.06	304.02	28.60	-42.7	-45.1	18.7	0.00e+00	0	43	0	823132160	57	4607
2026-01-26 11:08:29.05	304.27	28.48	-42.7	-45.0	18.7	0.00e+00	0	43	0	825229312	57	4574
2026-01-26 11:08:30.04	304.52	28.37	-43.1	-45.6	18.2	0.00e+00	0	43	0	827326464	57	4913
2026-01-26 11:08:31.04	304.77	28.26	-43.9	-46.5	17.3	0.00e+00	0	43	0	828375040	58	5131
2026-01-26 11:08:32.03	305.02	28.15	-44.3	-47.1	16.8	0.00e+00	0	43	0	830472192	59	5190
2026-01-26 11:08:33.03	305.27	28.03	-44.2	-47.0	16.9	0.00e+00	0	42	0	832569344	59	5124
2026-01-26 11:08:34.02	305.51	27.92	-43.6	-46.1	17.7	0.00e+00	0	43	0	834666496	59	4647
2026-01-26 11:08:35.02	305.76	27.80	-42.9	-45.2	18.5	0.00e+00	0	43	0	835715072	57	4704
2026-01-26 11:08:36.01	306.00	27.69	-42.1	-44.4	19.3	0.00e+00	0	43	0	837812224	56	4495
2026-01-26 11:08:37.01	306.24	27.58	-41.9	-44.1	19.4	0.00e+00	0	43	0	839909376	55	4626
2026-01-26 11:08:38.00	306.48	27.46	-42.3	-44.5	19.0	0.00e+00	0	43	0	842006528	55	4858
2026-01-26 11:08:39.00	306.71	27.35	-42.6	-44.9	18.6	0.00e+00	0	42	0	844103680	55	5077
2026-01-26 11:08:39.99	306.95	27.24	-43.4	-45.9	17.9	0.00e+00	0	42	0	845152256	57	5066
2026-01-26 11:08:40.99	307.18	27.12	-43.7	-46.3	17.5	0.00e+00	0	43	0	847249408	58	5030
2026-01-26 11:08:41.98	307.41	27.01	-43.4	-46.0	17.8	0.00e+00	0	43	0	849346560	58	4825
2026-01-26 11:08:42.98	307.65	26.90	-43.1	-45.5	18.2	0.00e+00	0	43	0	851443712	58	4591
2026-01-26 11:08:43.97	307.87	26.78	-42.9	-45.4	18.4	0.00e+00	0	43	0	853540864	57	4761
2026-01-26 11:08:44.97	308.10	26.67	-43.2	-45.8	18.0	0.00e+00	0	43	0	854589440	57	4989
2026-01-26 11:08:45.97	308.33	26.55	-43.9	-46.6	17.4	0.00e+00	0	43	0	856686592	58	5196
2026-01-26 11:08:46.96	308.55	26.44	-44.5	-47.4	16.5	0.00e+00	0	43	0	858783744	59	5371
2026-01-26 11:08:47.96	308.78	26.33	-44.6	-47.6	16.3	0.00e+00	0	43	0	860880896	60	5191
2026-01-26 11:08:48.95	309.00	26.21	-44.3	-47.2	16.7	0.00e+00	0	42	0	861929472	60	4960
2026-01-26 11:08:49.95	309.22	26.10	-43.9	-46.6	17.3	0.00e+00	0	43	0	864026624	59	4894
2026-01-26 11:08:50.94	309.43	25.99	-43.1	-45.6	18.2	0.00e+00	0	43	0	866123776	58	4635
2026-01-26 11:08:51.93	309.65	25.87	-42.9	-45.3	18.4	0.00e+00	0	43	0	868220928	57	4736
2026-01-26 11:08:52.93	309.86	25.76	-43.0	-45.5	18.3	0.00e+00	0	43	0	870318080	57	4827
2026-01-26 11:08:53.93	310.08	25.64	-43.7	-46.3	17.5	0.00e+00	0	42	0	871366656	58	5038
2026-01-26 11:08:54.92	310.29	25.53	-44.6	-47.6	16.3	0.00e+00	0	43	0	873463808	59	5507
2026-01-26 11:08:55.91	310.50	25.42	-45.0	-48.2	15.8	0.00e+00	0	43	0	875560960	60	5559
2026-01-26 11:08:56.91	310.71	25.31	-45.0	-48.2	15.8	0.00e+00	0	42	0	877658112	60	5552
2026-01-26 11:08:57.90	310.92	25.19	-44.4	-47.4	16.5	0.00e+00	0	43	0	878706688	60	5056
2026-01-26 11:08:58.90	311.12	25.08	-43.5	-46.1	17.7	0.00e+00	0	43	0	880803840	59	4647
2026-01-26 11:08:59.89	311.33	24.97	-42.9	-45.3	18.4	0.00e+00	0	43	0	882900992	57	4748
2026-01-26 11:09:00.88	311.53	24.86	-42.5	-44.9	18.8	0.00e+00	0	43	0	884998144	57	4522
2026-01-26 11:09:01.88	311.73	24.74	-42.2	-44.4	19.3	0.00e+00	0	43	0	887095296	56	4536
2026-01-26 11:09:02.87	311.93	24.63	-42.2	-44.5	19.2	0.00e+00	0	43	0	888143872	56	4559
2026-01-26 11:09:03.87	312.13	24.52	-42.7	-45.1	18.7	0.00e+00	0	43	0	890241024	56	4906
2026-01-26 11:09:04.86	312.33	24.41	-43.1	-45.8	18.0	0.00e+00	0	42	0	892338176	56	5285
2026-01-26 11:09:05.86	312.52	24.29	-43.5	-46.2	17.5	0.00e+00	0	42	0	894435328	57	5272
2026-01-26 11:09:06.85	312.72	24.18	-43.5	-46.2	17.5	0.00e+00	0	43	0	895483904	57	5278
2026-01-26 11:09:07.85	312.91	24.07	-43.4	-46.2	17.6	0.00e+00	0	42	0	897581056	57	5238
2026-01-26 11:09:08.84	313.10	23.96	-43.1	-45.7	18.1	0.00e+00	0	43	0	899678208	57	4927
2026-01-26 11:09:09.84	313.29	23.85	-42.6	-45.0	18.7	0.00e+00	0	43	0	901775360	57	4575
2026-01-26 11:09:10.83	313.48	23.74	-42.3	-44.6	19.0	0.00e+00	0	43	0	903872512	56	4650
2026-01-26 11:09:11.83	313.67	23.62	-42.2	-44.5	19.1	0.00e+00	0	43	0	904921088	56	4590
2026-01-26 11:09:12.82	313.86	23.51	-42.4	-44.7	19.0	0.00e+00	0	43	0	907018240	56	4664
2026-01-26 11:09:13.82	314.04	23.40	-42.6	-44.9	18.8	0.00e+00	0	43	0	909115392	56	4778
2026-01-26 11:09:14.81	314.23	23.29	-42.8	-45.2	18.5	0.00e+00	0	43	0	911212544	56	4952
2026-01-26 11:09:15.81	314.41	23.18	-42.9	-45.3	18.4	0.00e+00	0	43	0	912261120	56	5016
2026-01-26 11:09:16.81	314.59	23.07	-42.8	-45.2	18.5	0.00e+00	0	43	0	914358272	56	4962
2026-01-26 11:09:17.80	314.77	22.96	-42.5	-44.8	18.8	0.00e+00	0	43	0	916455424	56	4753
2026-01-26 11:09:18.79	314.95	22.85	-42.2	-44.4	19.2	0.00e+00	0	43	0	918552576	56	4541
2026-01-26 11:09:19.79	315.13	22.74	-41.7	-44.0	19.4	0.00e+00	0	43	0	920649728	55	4565
2026-01-26 11:09:20.78	315.31	22.63	-41.6	-43.8	19.6	0.00e+00	0	43	0	921698304	55	4465
2026-01-26 11:09:21.78	315.48	22.52	-41.6	-43.9	19.6	0.00e+00	0	43	0	923795456	54	4761
2026-01-26 11:09:22.77	315.66	22.41	-41.7	-44.0	19.5	0.00e+00	0	43	0	925892608	54	4820
2026-01-26 11:09:23.77	315.83	22.31	-41.9	-44.2	19.3	0.00e+00	0	43	0	927989760	54	4971
2026-01-26 11:09:24.76	316.00	22.20	-42.1	-44.5	19.0	0.00e+00	0	43	0	929038336	55	4851
2026-01-26 11:09:25.75	316.17	22.09	-42.5	-45.0	18.6	0.00e+00	0	43	0	931135488	55	5104
2026-01-26 11:09:26.75	316.34	21.98	-42.5	-45.0	18.5	0.00e+00	0	43	0	933232640	55	5122
2026-01-26 11:09:27.74	316.51	21.87	-42.7	-45.1	18.4	0.00e+00	0	43	0	935329792	55	5215
2026-01-26 11:09:28.74	316.68	21.76	-42.5	-44.9	18.6	0.00e+00	0	43	0	937426944	55	5080
2026-01-26 11:09:29.73	316.84	21.66	-42.4	-44.8	18.7	0.00e+00	0	43	0	938475520	55	5028
2026-01-26 11:09:30.72	317.01	21.55	-42.0	-44.4	19.0	0.00e+00	0	43	0	940572672	55	4810
2026-01-26 11:09:31.72	317.17	21.44	-41.9	-44.3	19.2	0.00e+00	0	43	0	942669824	55	4744
2026-01-26 11:09:32.71	317.34	21.34	-41.8	-44.2	19.3	0.00e+00	0	43	0	944766976	55	4654
2026-01-26 11:09:33.71	317.50	21.23	-41.8	-44.2	19.3	0.00e+00	0	43	0	945815552	55	4660
2026-01-26 11:09:34.70	317.66	21.12	-41.8	-44.1	19.3	0.00e+00	0	43	0	947912704	55	4648
2026-01-26 11:09:35.70	317.82	21.02	-41.9	-44.3	19.2	0.00e+00	0	43	0	950009856	55	4706
2026-01-26 11:09:36.69	317.98	20.91	-42.0	-44.4	19.1	0.00e+00	0	43	0	952107008	55	4775
2026-01-26 11:09:37.69	318.14	20.81	-42.1	-44.4	19.1	0.00e+00	0	43	0	954204160	55	4801
2026-01-26 11:09:38.68	318.29	20.70	-42.2	-44.6	18.9	0.00e+00	0	43	0	955252736	55	4911
2026-01-26 11:09:39.68	318.45	20.59	-42.3	-44.8	18.7	0.00e+00	0	43	0	957349888	55	5016
2026-01-26 11:09:40.68	318.60	20.49	-42.3	-44.9	18.6	0.00e+00	0	43	0	959447040	55	5052
2026-01-26 11:09:41.67	318.76	20.39	-42.4	-44.9	18.6	0.00e+00	0	43	0	961544192	55	5084
2026-01-26 11:09:42.66	318.91	20.28	-42.3	-44.8	18.7	0.00e+00	0	43	0	962592768	55	5023
2026-01-26 11:09:43.66	319.06	20.18	-42.2	-44.8	18.7	0.00e+00	0	43	0	964689920	55	5001
2026-01-26 11:09:44.66	319.21	20.07	-42.2	-44.8	18.7	0.00e+00	0	43	0	966787072	55	5003
2026-01-26 11:09:45.65	319.36	19.97	-42.0	-44.5	19.0	0.00e+00	0	43	0	968884224	55	4824
2026-01-26 11:09:46.64	319.51	19.87	-42.0	-44.5	19.0	0.00e+00	0	43	0	970981376	55	4835
2026-01-26 11:09:47.64	319.66	19.76	-42.0	-44.3	19.2	0.00e+00	0	43	0	972029952	55	4745
2026-01-26 11:09:48.64	319.80	19.66	-41.9	-44.2	19.2	0.00e+00	0	43	0	974127104	55	4703
2026-01-26 11:09:49.63	319.95	19.56	-42.1	-44.5	19.0	0.00e+00	0	43	0	976224256	55	4836
2026-01-26 11:09:50.63	320.09	19.45	-42.1	-44.4	19.0	0.00e+00	0	43	0	978321408	55	4811
2026-01-26 11:09:51.62	320.24	19.35	-42.1	-44.5	19.0	0.00e+00	0	43	0	979369984	55	4841
2026-01-26 11:09:52.62	320.38	19.25	-42.2	-44.6	18.9	0.00e+00	0	43	0	981467136	55	4880
2026-01-26 11:09:53.61	320.52	19.15	-42.2	-44.6	18.9	0.00e+00	0	43	0	983564288	55	4918
2026-01-26 11:09:54.61	320.66	19.04	-42.1	-44.5	19.0	0.00e+00	0	43	0	985661440	55	4859
2026-01-26 11:09:55.60	320.80	18.94	-42.0	-44.3	19.1	0.00e+00	0	43	0	987758592	55	4757
2026-01-26 11:09:56.60	320.94	18.84	-41.9	-44.2	19.2	0.00e+00	0	43	0	988807168	55	4682
2026-01-26 11:09:57.59	321.08	18.74	-41.8	-44.1	19.3	0.00e+00	0	42	0	990904320	55	4648
2026-01-26 11:09:58.59	321.22	18.64	-41.9	-44.1	19.4	0.00e+00	0	42	0	993001472	55	4641
2026-01-26 11:09:59.58	321.35	18.54	-41.8	-44.1	19.4	0.00e+00	0	43	0	995098624	55	4600
2026-01-26 11:10:00.58	321.49	18.44	-41.7	-43.9	19.5	0.00e+00	0	43	0	996147200	55	4532
2026-01-26 11:10:01.57	321.62	18.34	-41.9	-44.2	19.2	0.00e+00	0	43	0	998244352	55	4674
2026-01-26 11:10:02.56	321.76	18.24	-42.1	-44.4	19.1	0.00e+00	0	43	0	1000341504	55	4765
2026-01-26 11:10:03.56	321.89	18.14	-42.2	-44.6	18.9	0.00e+00	0	43	0	1002438656	55	4891
2026-01-26 11:10:04.56	322.02	18.04	-42.8	-45.2	18.4	0.00e+00	0	43	0	1004535808	56	4969
2026-01-26 11:10:05.55	322.15	17.95	-43.0	-45.6	18.1	0.00e+00	0	43	0	1005584384	56	5188
2026-01-26 11:10:06.55	322.29	17.85	-43.5	-46.2	17.6	0.00e+00	0	43	0	1007681536	57	5227
2026-01-26 11:10:07.54	322.41	17.75	-43.9	-46.7	17.1	0.00e+00	0	43	0	1009778688	58	5275
2026-01-26 11:10:08.53	322.54	17.65	-43.8	-46.7	17.1	0.00e+00	0	43	0	1011875840	58	5244
2026-01-26 11:10:09.53	322.67	17.55	-44.2	-47.2	16.6	0.00e+00	0	43	0	1012924416	58	5551
2026-01-26 11:10:10.52	322.80	17.46	-44.3	-47.4	16.4	0.00e+00	0	43	0	1015021568	59	5363
2026-01-26 11:10:11.52	322.93	17.36	-44.2	-47.3	16.5	0.00e+00	0	43	0	1017118720	59	5334
2026-01-26 11:10:12.51	323.05	17.26	-44.5	-47.7	16.1	0.00e+00	0	43	0	1019215872	60	5275
2026-01-26 11:10:13.51	323.18	17.16	-44.3	-47.5	16.4	0.00e+00	0	43	0	1021313024	60	5108
2026-01-26 11:10:14.50	323.30	17.07	-44.5	-47.6	16.2	0.00e+00	0	43	0	1022361600	60	5213
2026-01-26 11:10:15.50	323.42	16.97	-44.4	-47.5	16.3	0.00e+00	0	43	0	1024458752	60	5112
2026-01-26 11:10:16.49	323.55	16.88	-44.2	-47.2	16.6	0.00e+00	0	43	0	1026555904	60	4947
2026-01-26 11:10:17.49	323.67	16.78	-44.1	-47.0	16.8	0.00e+00	0	43	0	1028653056	60	4824
2026-01-26 11:10:18.48	323.79	16.69	-43.9	-46.6	17.1	0.00e+00	0	43	0	1029701632	59	4897
2026-01-26 11:10:19.47	323.91	16.59	-43.4	-46.0	17.8	0.00e+00	0	43	0	1031798784	58	4816
2026-01-26 11:10:20.47	324.03	16.50	-43.4	-46.0	17.7	0.00e+00	0	43	0	1033895936	58	4819
2026-01-26 11:10:21.47	324.15	16.40	-43.1	-45.6	18.1	0.00e+00	0	43	0	1035993088	58	4606
2026-01-26 11:10:22.46	324.27	16.31	-43.2	-45.7	18.0	0.00e+00	0	43	0	1038090240	58	4697
2026-01-26 11:10:23.46	324.38	16.21	-43.3	-45.9	17.8	0.00e+00	0	43	0	1039138816	58	4787
2026-01-26 11:10:24.45	324.50	16.12	-43.3	-45.9	17.7	0.00e+00	0	43	0	1041235968	58	4797
2026-01-26 11:10:25.45	324.62	16.03	-43.4	-46.2	17.5	0.00e+00	0	43	0	1043333120	58	4948
2026-01-26 11:10:26.44	324.73	15.93	-43.6	-46.5	17.3	0.00e+00	0	43	0	1045430272	58	5113
2026-01-26 11:10:27.44	324.85	15.84	-43.6	-46.6	17.1	0.00e+00	0	43	0	1046478848	58	5218
2026-01-26 11:10:28.43	324.96	15.75	-43.8	-46.9	16.8	0.00e+00	0	43	0	1048576000	58	5390
2026-01-26 11:10:29.43	325.08	15.65	-43.6	-46.8	16.9	0.00e+00	0	42	0	1050673152	58	5308
2026-01-26 11:10:30.42	325.19	15.56	-43.8	-47.0	16.7	0.00e+00	0	43	0	1052770304	58	5447
2026-01-26 11:10:31.41	325.30	15.47	-43.8	-47.0	16.7	0.00e+00	0	43	0	1054867456	58	5425
2026-01-26 11:10:32.41	325.41	15.38	-43.5	-46.6	17.1	0.00e+00	0	43	0	1055916032	58	5167
2026-01-26 11:10:33.40	325.52	15.29	-43.5	-46.5	17.2	0.00e+00	0	43	0	1058013184	58	5141
2026-01-26 11:10:34.40	325.63	15.19	-43.4	-46.3	17.3	0.00e+00	0	43	0	1060110336	58	5009
2026-01-26 11:10:35.39	325.74	15.10	-43.1	-45.9	17.8	0.00e+00	0	43	0	1062207488	58	4762
2026-01-26 11:10:36.39	325.85	15.01	-43.1	-45.9	17.8	0.00e+00	0	43	0	1063256064	58	4768
2026-01-26 11:10:37.38	325.96	14.92	-42.9	-45.6	18.0	0.00e+00	0	43	0	1065353216	57	4880
2026-01-26 11:10:38.38	326.07	14.83	-43.0	-45.7	18.0	0.00e+00	0	43	0	1067450368	57	4940
2026-01-26 11:10:39.37	326.17	14.74	-42.9	-45.5	18.1	0.00e+00	0	43	0	1069547520	57	4859
2026-01-26 11:10:40.37	326.28	14.65	-42.8	-45.4	18.2	0.00e+00	0	43	0	1071644672	57	4780
2026-01-26 11:10:41.36	326.38	14.56	-43.1	-45.8	17.8	0.00e+00	0	43	0	1072693248	57	5028
2026-01-26 11:10:42.36	326.49	14.47	-43.1	-45.9	17.7	0.00e+00	0	42	0	1074790400	57	5052
2026-01-26 11:10:43.35	326.59	14.38	-43.1	-45.8	17.8	0.00e+00	0	43	0	1076887552	57	5016
2026-01-26 11:10:44.35	326.70	14.30	-43.4	-46.2	17.4	0.00e+00	0	43	0	1078984704	57	5260
2026-01-26 11:10:45.34	326.80	14.21	-43.3	-46.2	17.4	0.00e+00	0	43	0	1080033280	57	5249
2026-01-26 11:10:46.33	326.90	14.12	-43.4	-46.3	17.4	0.00e+00	0	43	0	1082130432	57	5281
2026-01-26 11:10:47.33	327.01	14.03	-43.5	-46.4	17.2	0.00e+00	0	43	0	1084227584	57	5379
2026-01-26 11:10:48.32	327.11	13.94	-43.3	-46.1	17.5	0.00e+00	0	43	0	1086324736	57	5164
2026-01-26 11:10:49.32	327.21	13.85	-43.3	-46.1	17.5	0.00e+00	0	43	0	1088421888	57	5162
2026-01-26 11:10:50.31	327.31	13.77	-43.2	-46.0	17.6	0.00e+00	0	43	0	1089470464	57	5104
2026-01-26 11:10:51.31	327.41	13.68	-43.1	-45.8	17.8	0.00e+00	0	43	0	1091567616	57	5013
2026-01-26 11:10:52.30	327.51	13.59	-43.2	-45.9	17.7	0.00e+00	0	43	0	1093664768	57	5046
2026-01-26 11:10:53.30	327.61	13.51	-43.1	-45.6	17.9	0.00e+00	0	43	0	1095761920	57	4924
2026-01-26 11:10:54.29	327.71	13.42	-43.0	-45.6	18.0	0.00e+00	0	43	0	1096810496	57	4885
2026-01-26 11:10:55.29	327.80	13.33	-42.9	-45.4	18.1	0.00e+00	0	43	0	1098907648	57	4778
2026-01-26 11:10:56.28	327.90	13.25	-42.7	-45.1	18.4	0.00e+00	0	43	0	1101004800	57	4622
2026-01-26 11:10:57.28	328.00	13.16	-42.8	-45.2	18.3	0.00e+00	0	43	0	1103101952	57	4703
2026-01-26 11:10:58.27	328.09	13.08	-42.9	-45.4	18.1	0.00e+00	0	43	0	1105199104	57	4808
2026-01-26 11:10:59.27	328.19	12.99	-43.0	-45.5	18.0	0.00e+00	0	42	0	1106247680	57	4847
2026-01-26 11:11:00.26	328.28	12.91	-43.2	-45.8	17.8	0.00e+00	0	43	0	1108344832	57	4987
2026-01-26 11:11:01.26	328.38	12.82	-43.3	-45.9	17.7	0.00e+00	0	43	0	1110441984	57	5070
2026-01-26 11:11:02.25	328.47	12.74	-43.3	-45.9	17.6	0.00e+00	0	43	0	1112539136	57	5090
2026-01-26 11:11:03.25	328.57	12.65	-43.5	-46.3	17.3	0.00e+00	0	43	0	1113587712	57	5315
2026-01-26 11:11:04.24	328.66	12.57	-43.4	-46.2	17.4	0.00e+00	0	43	0	1115684864	57	5234
2026-01-26 11:11:05.24	328.75	12.48	-43.6	-46.4	17.2	0.00e+00	0	43	0	1117782016	57	5383
2026-01-26 11:11:06.23	328.84	12.40	-43.6	-46.3	17.3	0.00e+00	0	43	0	1119879168	58	5007
2026-01-26 11:11:07.23	328.93	12.32	-43.7	-46.4	17.1	0.00e+00	0	43	0	1121976320	58	5096
2026-01-26 11:11:08.22	329.02	12.23	-43.7	-46.5	17.1	0.00e+00	0	42	0	1123024896	58	5135
2026-01-26 11:11:09.22	329.12	12.15	-43.9	-46.8	16.8	0.00e+00	0	42	0	1125122048	58	5304
2026-01-26 11:11:10.21	329.21	12.07	-43.7	-46.5	17.0	0.00e+00	0	43	0	1127219200	58	5145
2026-01-26 11:11:11.20	329.29	11.99	-43.7	-46.5	17.0	0.00e+00	0	43	0	1129316352	58	5146
2026-01-26 11:11:12.20	329.38	11.90	-43.6	-46.4	17.1	0.00e+00	0	43	0	1130364928	58	5092
2026-01-26 11:11:13.20	329.47	11.82	-43.7	-46.5	17.0	0.00e+00	0	43	0	1132462080	58	5119
2026-01-26 11:11:14.19	329.56	11.74	-43.6	-46.4	17.1	0.00e+00	0	43	0	1134559232	58	5091
2026-01-26 11:11:15.18	329.65	11.66	-43.6	-46.4	17.1	0.00e+00	0	43	0	1136656384	58	5098
2026-01-26 11:11:16.18	329.74	11.58	-43.6	-46.4	17.1	0.00e+00	0	43	0	1138753536	58	5092
2026-01-26 11:11:17.17	329.82	11.50	-43.8	-46.7	16.9	0.00e+00	0	43	0	1139802112	58	5221
2026-01-26 11:11:18.17	329.91	11.41	-43.7	-46.5	17.1	0.00e+00	0	43	0	1141899264	58	5145
2026-01-26 11:11:19.17	329.99	11.33	-43.7	-46.5	17.1	0.00e+00	0	43	0	1143996416	58	5134
2026-01-26 11:11:20.16	330.08	11.25	-43.8	-46.6	16.9	0.00e+00	0	43	0	1146093568	58	5191
2026-01-26 11:11:21.15	330.16	11.17	-43.8	-46.6	16.9	0.00e+00	0	43	0	1147142144	58	5198
2026-01-26 11:11:22.15	330.25	11.09	-43.8	-46.6	17.0	0.00e+00	0	43	0	1149239296	58	5176
2026-01-26 11:11:23.14	330.33	11.01	-43.7	-46.5	17.1	0.00e+00	0	42	0	1151336448	58	5114
2026-01-26 11:11:24.14	330.42	10.93	-43.7	-46.5	17.0	0.00e+00	0	43	0	1153433600	58	5121
2026-01-26 11:11:25.13	330.50	10.85	-43.9	-46.7	16.9	0.00e+00	0	43	0	1155530752	58	5246
2026-01-26 11:11:26.13	330.58	10.77	-43.8	-46.6	16.9	0.00e+00	0	43	0	1156579328	58	5185
2026-01-26 11:11:27.12	330.66	10.69	-43.7	-46.4	17.1	0.00e+00	0	43	0	1158676480	58	5098
2026-01-26 11:11:28.12	330.75	10.62	-43.7	-46.4	17.1	0.00e+00	0	43	0	1160773632	58	5082
2026-01-26 11:11:29.11	330.83	10.54	-43.7	-46.5	17.0	0.00e+00	0	43	0	1162870784	58	5115
2026-01-26 11:11:30.11	330.91	10.46	-43.6	-46.3	17.1	0.00e+00	0	43	0	1164967936	58	5041
2026-01-26 11:11:31.10	330.99	10.38	-43.6	-46.4	17.2	0.00e+00	0	43	0	1166016512	58	5052
2026-01-26 11:11:32.10	331.07	10.30	-43.5	-46.2	17.2	0.00e+00	0	43	0	1168113664	58	4974
2026-01-26 11:11:33.09	331.15	10.22	-43.5	-46.3	17.2	0.00e+00	0	43	0	1170210816	58	5012
2026-01-26 11:11:34.09	331.23	10.15	-43.5	-46.4	17.2	0.00e+00	0	43	0	1172307968	58	5042
2026-01-26 11:11:35.08	331.31	10.07	-43.5	-46.3	17.2	0.00e+00	0	43	0	1173356544	58	5005
2026-01-26 11:11:36.08	331.39	9.99	-43.5	-46.3	17.2	0.00e+00	0	43	0	1175453696	58	4998
2026-01-26 11:11:37.07	331.47	9.91	-43.5	-46.3	17.1	0.00e+00	0	43	0	1177550848	58	5027
2026-01-26 11:11:38.06	331.54	9.84	-43.3	-46.0	17.5	0.00e+00	0	43	0	1179648000	58	4838
2026-01-26 11:11:39.06	331.62	9.76	-43.2	-45.9	17.6	0.00e+00	0	43	0	1181745152	58	4774
2026-01-26 11:11:40.05	331.70	9.68	-43.1	-45.8	17.6	0.00e+00	0	43	0	1182793728	58	4716
2026-01-26 11:11:41.05	331.77	9.61	-43.2	-45.9	17.5	0.00e+00	0	43	0	1184890880	58	4813
2026-01-26 11:11:42.04	331.85	9.53	-43.2	-45.9	17.6	0.00e+00	0	43	0	1186988032	58	4774
2026-01-26 11:11:43.04	331.93	9.46	-43.2	-45.9	17.5	0.00e+00	0	43	0	1189085184	58	4810
2026-01-26 11:11:44.03	332.00	9.38	-43.1	-45.8	17.6	0.00e+00	0	43	0	1190133760	58	4721
2026-01-26 11:11:45.02	332.08	9.30	-43.2	-45.9	17.5	0.00e+00	0	43	0	1192230912	58	4760
2026-01-26 11:11:46.02	332.15	9.23	-43.1	-45.8	17.6	0.00e+00	0	43	0	1194328064	58	4714
2026-01-26 11:11:47.01	332.23	9.15	-43.1	-45.8	17.6	0.00e+00	0	43	0	1196425216	58	4748
2026-01-26 11:11:48.01	332.30	9.08	-43.2	-46.0	17.4	0.00e+00	0	43	0	1198522368	58	4833
2026-01-26 11:11:49.00	332.37	9.00	-43.3	-46.1	17.3	0.00e+00	0	43	0	1199570944	58	4871
2026-01-26 11:11:50.00	332.45	8.93	-49.0	-61.3	4.4	0.00e+00	0	43	0	1201668096	68	15917
2026-01-26 11:11:50.99	332.52	8.86	-49.3	-64.7	3.8	1.49e+00	0	43	104	1201668096	69	22104
2026-01-26 11:11:51.98	332.59	8.78	-49.5	-65.1	3.8	1.49e+00	0	43	104	1201668096	70	21870
2026-01-26 11:11:52.97	332.67	8.71	-49.3	-65.3	3.8	1.49e+00	0	43	104	1201668096	69	23712
2026-01-26 11:11:53.97	332.74	8.63	-49.5	-65.4	3.8	1.49e+00	0	43	104	1201668096	70	22533
