passes_logs/2026/01/26/T1/T1__20260126_101833_FENGYUN_3D_rec.log

#Pass ID: 20260126_101833_FENGYUN 3D
#Satellite: FENGYUN 3D
#Configuration: FENGYUN 3D
#almurnet v.1.7.20251203
#Start time: 2026-01-26 10:18:35

#Version: 2.0.20230620
#Station: T1
#Location: 37.570604 lon 55.790049 lat
#TLE: 1 43010U 17072A   26025.85700374 -.00000071  00000+0 -11715-4 0  9992
#TLE: 2 43010  98.9962 357.8423 0002518  90.2035 269.9429 14.19699460424796

#Time	Az	El	Level	Level2	SNR	BER	BlckErr	Temp	State	Recorded	gain1	gain2
2026-01-26 10:18:35.48	106.50	5.13	-49.4	-61.4	3.8	8.47e-01	0	41	0	0	70	14354
2026-01-26 10:18:36.47	106.41	5.19	-49.4	-61.4	3.8	8.47e-01	0	41	104	0	70	14275
2026-01-26 10:18:37.46	106.33	5.25	-49.4	-61.5	3.8	8.46e-01	0	41	104	0	70	14374
2026-01-26 10:18:38.46	106.24	5.31	-49.4	-61.4	3.8	8.48e-01	0	41	104	0	70	14328
2026-01-26 10:18:39.45	106.16	5.37	-49.4	-61.4	3.8	8.47e-01	0	41	104	0	70	14280
2026-01-26 10:18:40.44	106.07	5.43	-49.4	-61.5	3.8	8.47e-01	0	41	104	0	70	14379
2026-01-26 10:18:41.44	105.99	5.49	-49.4	-61.5	3.8	8.47e-01	0	41	104	0	70	14375
2026-01-26 10:18:42.43	105.90	5.55	-49.3	-61.5	3.8	8.48e-01	0	41	104	0	70	14380
2026-01-26 10:18:43.42	105.82	5.61	-49.4	-61.5	3.8	8.47e-01	0	41	104	0	70	14401
2026-01-26 10:18:44.41	105.73	5.67	-49.4	-61.5	3.8	8.46e-01	0	41	104	0	70	14459
2026-01-26 10:18:45.41	105.64	5.73	-49.4	-61.5	3.8	8.46e-01	0	41	104	0	70	14398
2026-01-26 10:18:46.40	105.55	5.79	-49.4	-61.5	3.8	8.47e-01	0	41	104	0	70	14432
2026-01-26 10:18:47.39	105.47	5.85	-49.4	-61.5	3.8	8.46e-01	0	41	104	0	70	14422
2026-01-26 10:18:48.39	105.38	5.91	-49.4	-61.5	3.8	8.47e-01	0	41	104	0	70	14407
2026-01-26 10:18:49.38	105.29	5.97	-49.4	-61.5	3.8	8.47e-01	0	41	104	0	70	14423
2026-01-26 10:18:50.37	105.20	6.03	-49.4	-61.4	3.8	8.47e-01	0	41	104	0	70	14300
2026-01-26 10:18:51.36	105.11	6.10	-49.4	-61.4	3.8	8.48e-01	0	41	104	0	70	14340
2026-01-26 10:18:52.36	105.02	6.16	-49.4	-61.4	3.8	8.46e-01	0	41	104	0	70	14275
2026-01-26 10:18:53.35	104.93	6.22	-49.3	-61.4	3.8	8.47e-01	0	42	104	0	70	14278
2026-01-26 10:18:54.34	104.84	6.28	-49.4	-61.4	3.8	8.47e-01	0	41	104	0	70	14260
2026-01-26 10:18:55.34	104.75	6.34	-49.3	-61.4	3.8	8.46e-01	0	41	104	0	70	14330
2026-01-26 10:18:56.33	104.66	6.40	-49.3	-61.4	3.8	8.47e-01	0	42	104	0	70	14330
2026-01-26 10:18:57.32	104.57	6.46	-49.4	-61.5	3.8	8.47e-01	0	42	104	0	70	14420
2026-01-26 10:18:58.32	104.48	6.52	-49.4	-61.4	3.8	8.47e-01	0	42	104	0	70	14373
2026-01-26 10:18:59.31	104.38	6.59	-49.3	-61.4	3.8	8.46e-01	0	42	104	0	70	14321
2026-01-26 10:19:00.31	104.29	6.65	-49.3	-61.4	3.8	8.46e-01	0	42	104	0	70	14239
2026-01-26 10:19:01.30	104.20	6.71	-49.3	-61.3	3.8	8.45e-01	0	42	104	0	70	14202
2026-01-26 10:19:02.29	104.10	6.77	-49.3	-61.3	3.8	8.47e-01	0	42	104	0	70	14146
2026-01-26 10:19:03.29	104.01	6.83	-49.3	-61.2	3.8	8.47e-01	0	42	104	0	70	13999
2026-01-26 10:19:04.28	103.92	6.89	-49.3	-61.1	3.8	8.46e-01	0	42	104	0	70	13764
2026-01-26 10:19:05.27	103.82	6.96	-49.3	-60.9	3.8	8.46e-01	0	42	104	0	70	13456
2026-01-26 10:19:06.26	103.73	7.02	-49.3	-60.7	3.8	8.47e-01	0	42	104	0	70	13115
2026-01-26 10:19:07.26	103.63	7.08	-49.3	-60.5	3.8	8.46e-01	0	42	104	0	70	12954
2026-01-26 10:19:08.25	103.53	7.14	-49.2	-60.5	3.8	8.47e-01	0	42	104	0	70	12907
2026-01-26 10:19:09.24	103.44	7.21	-49.3	-60.6	3.8	8.47e-01	0	42	104	0	70	13043
2026-01-26 10:19:10.24	103.34	7.27	-49.3	-60.8	3.8	8.46e-01	0	42	104	0	70	13297
2026-01-26 10:19:11.23	103.24	7.33	-49.3	-61.0	3.8	8.47e-01	0	42	104	0	70	13573
2026-01-26 10:19:12.22	103.15	7.39	-49.3	-61.2	3.8	8.48e-01	0	42	104	0	70	13892
2026-01-26 10:19:13.22	103.05	7.46	-49.3	-61.2	3.8	8.47e-01	0	42	104	0	70	13986
2026-01-26 10:19:14.21	102.95	7.52	-49.3	-61.2	3.8	8.46e-01	0	42	104	0	70	13977
2026-01-26 10:19:15.20	102.85	7.58	-49.3	-61.1	3.8	8.47e-01	0	42	104	0	70	13808
2026-01-26 10:19:16.20	102.75	7.64	-49.3	-60.8	3.8	8.47e-01	0	42	104	0	70	13292
2026-01-26 10:19:17.19	102.65	7.71	-49.2	-60.3	3.8	8.47e-01	0	42	104	0	70	12582
2026-01-26 10:19:18.18	102.55	7.77	-49.2	-59.8	3.8	8.46e-01	0	42	104	0	70	11874
2026-01-26 10:19:19.18	102.45	7.83	-49.1	-59.5	3.9	8.46e-01	0	42	104	0	70	11530
2026-01-26 10:19:20.17	102.35	7.90	-49.2	-59.8	3.8	8.47e-01	0	42	104	0	70	11843
2026-01-26 10:19:21.17	102.24	7.96	-49.2	-60.5	3.8	8.46e-01	0	42	104	0	70	12864
2026-01-26 10:19:22.16	102.14	8.02	-49.2	-60.5	3.8	8.46e-01	0	42	104	0	70	12873
2026-01-26 10:19:23.15	102.04	8.09	-48.9	-58.2	4.1	8.46e-01	0	42	0	0	69	10425
2026-01-26 10:19:24.15	101.94	8.15	-48.0	-54.4	5.9	7.11e-01	0	42	0	0	68	7190
2026-01-26 10:19:25.14	101.83	8.21	-46.5	-50.9	9.0	9.39e-02	0	43	0	6291456	65	5696
2026-01-26 10:19:26.13	101.73	8.28	-45.1	-48.5	11.7	1.70e-03	0	42	0	11534336	62	5114
2026-01-26 10:19:27.13	101.62	8.34	-43.7	-46.5	13.6	5.60e-05	0	43	0	16777216	59	4848
2026-01-26 10:19:28.12	101.52	8.40	-42.4	-44.9	15.3	1.10e-06	0	43	0	22020096	56	4769
2026-01-26 10:19:29.11	101.41	8.47	-41.3	-43.6	16.3	0.00e+00	0	42	0	28311552	54	4638
2026-01-26 10:19:30.10	101.31	8.53	-40.7	-43.0	16.9	0.00e+00	0	42	0	33554432	53	4550
2026-01-26 10:19:31.10	101.20	8.60	-40.5	-42.7	17.2	0.00e+00	0	42	0	38797312	53	4440
2026-01-26 10:19:32.09	101.10	8.66	-40.7	-43.0	17.0	0.00e+00	0	42	0	45088768	53	4549
2026-01-26 10:19:33.08	100.99	8.72	-41.1	-43.4	16.5	0.00e+00	0	43	0	50331648	53	4790
2026-01-26 10:19:34.08	100.88	8.79	-42.0	-44.4	15.6	0.00e+00	0	43	0	55574528	54	5054
2026-01-26 10:19:35.07	100.77	8.85	-43.1	-45.8	14.4	1.10e-06	0	42	0	61865984	56	5298
2026-01-26 10:19:36.06	100.66	8.92	-44.6	-47.8	12.4	1.17e-04	0	43	0	67108864	59	5622
2026-01-26 10:19:37.06	100.55	8.98	-46.2	-50.3	9.8	4.24e-03	0	43	0	72351744	63	5962
2026-01-26 10:19:38.05	100.44	9.04	-47.5	-53.2	6.9	1.37e-01	0	43	0	78643200	65	7374
2026-01-26 10:19:39.04	100.33	9.11	-45.5	-49.1	11.2	4.61e-04	0	43	0	83886080	61	5796
2026-01-26 10:19:40.04	100.22	9.17	-46.1	-50.0	10.2	1.03e-04	0	43	0	90177536	62	6116
2026-01-26 10:19:41.03	100.11	9.24	-49.3	-60.7	3.8	8.36e-01	0	43	104	93323264	69	13958
2026-01-26 10:19:42.03	100.00	9.30	-42.3	-44.7	15.6	1.26e-02	0	42	0	94371840	56	4684
2026-01-26 10:19:43.02	99.89	9.37	-49.0	-58.2	4.1	7.80e-01	0	43	0	98566144	68	11106
2026-01-26 10:19:44.01	99.77	9.43	-42.4	-44.8	15.4	2.46e-04	0	43	0	101711872	56	4719
2026-01-26 10:19:45.01	99.66	9.50	-40.8	-43.0	17.0	0.00e+00	0	43	0	106954752	53	4565
2026-01-26 10:19:46.00	99.55	9.56	-40.1	-42.2	17.8	0.00e+00	0	43	0	113246208	52	4439
2026-01-26 10:19:47.00	99.43	9.63	-40.2	-42.3	17.8	0.00e+00	0	43	0	118489088	51	4711
2026-01-26 10:19:47.99	99.32	9.69	-39.7	-41.7	18.3	0.00e+00	0	43	0	124780544	51	4436
2026-01-26 10:19:48.99	99.20	9.76	-39.4	-41.4	18.6	0.00e+00	0	43	0	130023424	50	4519
2026-01-26 10:19:49.98	99.08	9.82	-39.5	-41.5	18.5	0.00e+00	0	43	0	135266304	50	4561
2026-01-26 10:19:50.98	98.97	9.89	-39.3	-41.3	18.7	0.00e+00	0	43	0	140509184	50	4484
2026-01-26 10:19:51.97	98.85	9.95	-39.3	-41.3	18.7	0.00e+00	0	42	0	146800640	50	4481
2026-01-26 10:19:52.97	98.73	10.02	-39.4	-41.4	18.7	0.00e+00	0	43	0	152043520	50	4502
2026-01-26 10:19:53.96	98.62	10.08	-39.4	-41.4	18.6	0.00e+00	0	43	0	157286400	50	4544
2026-01-26 10:19:54.95	98.50	10.15	-39.3	-41.3	18.7	0.00e+00	0	43	0	163577856	50	4489
2026-01-26 10:19:55.95	98.38	10.22	-39.3	-41.3	18.7	0.00e+00	0	43	0	168820736	50	4473
2026-01-26 10:19:56.94	98.26	10.28	-39.3	-41.3	18.7	0.00e+00	0	43	0	175112192	50	4490
2026-01-26 10:19:57.94	98.14	10.35	-39.3	-41.3	18.8	0.00e+00	0	43	0	180355072	50	4458
2026-01-26 10:19:58.93	98.02	10.41	-39.2	-41.3	18.8	0.00e+00	0	43	0	185597952	50	4444
2026-01-26 10:19:59.93	97.89	10.48	-39.2	-41.3	18.8	0.00e+00	0	43	0	190840832	50	4446
2026-01-26 10:20:00.92	97.77	10.54	-39.2	-41.2	18.9	0.00e+00	0	43	0	197132288	50	4416
2026-01-26 10:20:01.92	97.65	10.61	-39.3	-41.3	18.7	0.00e+00	0	43	0	202375168	50	4473
2026-01-26 10:20:02.91	97.53	10.68	-39.2	-41.2	18.8	0.00e+00	0	43	0	207618048	50	4435
2026-01-26 10:20:03.91	97.40	10.74	-39.2	-41.2	18.9	0.00e+00	0	43	0	213909504	50	4411
2026-01-26 10:20:04.90	97.28	10.81	-39.2	-41.2	18.8	0.00e+00	0	43	0	219152384	50	4431
2026-01-26 10:20:05.90	97.15	10.87	-39.1	-41.1	19.0	0.00e+00	0	43	0	225443840	50	4360
2026-01-26 10:20:06.89	97.03	10.94	-39.0	-41.0	19.1	0.00e+00	0	43	0	230686720	50	4322
2026-01-26 10:20:07.89	96.90	11.01	-39.0	-41.0	19.0	0.00e+00	0	43	0	235929600	50	4328
2026-01-26 10:20:08.88	96.77	11.07	-39.0	-41.0	19.1	0.00e+00	0	43	0	241172480	50	4305
2026-01-26 10:20:09.87	96.65	11.14	-38.8	-40.7	19.3	0.00e+00	0	43	0	247463936	49	4433
2026-01-26 10:20:10.86	96.52	11.20	-38.7	-40.6	19.4	0.00e+00	0	43	0	252706816	49	4390
2026-01-26 10:20:11.86	96.39	11.27	-38.7	-40.7	19.4	0.00e+00	0	43	0	257949696	49	4395
2026-01-26 10:20:12.85	96.26	11.34	-38.7	-40.6	19.5	0.00e+00	0	43	0	264241152	49	4353
2026-01-26 10:20:13.85	96.13	11.40	-38.7	-40.7	19.4	0.00e+00	0	43	0	269484032	49	4401
2026-01-26 10:20:14.84	96.00	11.47	-38.8	-40.7	19.3	0.00e+00	0	43	0	275775488	49	4430
2026-01-26 10:20:15.83	95.87	11.54	-38.9	-40.9	19.2	0.00e+00	0	43	0	281018368	49	4494
2026-01-26 10:20:16.83	95.74	11.60	-38.9	-40.9	19.2	0.00e+00	0	43	0	286261248	49	4504
2026-01-26 10:20:17.82	95.61	11.67	-38.9	-40.8	19.2	0.00e+00	0	43	0	291504128	49	4479
2026-01-26 10:20:18.82	95.48	11.74	-39.0	-41.0	19.1	0.00e+00	0	43	0	297795584	49	4581
2026-01-26 10:20:19.81	95.34	11.80	-38.9	-40.8	19.2	0.00e+00	0	43	0	303038464	49	4487
2026-01-26 10:20:20.81	95.21	11.87	-38.9	-40.8	19.2	0.00e+00	0	43	0	308281344	49	4482
2026-01-26 10:20:21.80	95.08	11.93	-39.0	-40.9	19.1	0.00e+00	0	43	0	314572800	49	4544
2026-01-26 10:20:22.80	94.94	12.00	-38.8	-40.8	19.3	0.00e+00	0	43	0	319815680	49	4458
2026-01-26 10:20:23.79	94.81	12.07	-38.8	-40.8	19.3	0.00e+00	0	43	0	326107136	49	4461
2026-01-26 10:20:24.78	94.67	12.13	-38.8	-40.8	19.3	0.00e+00	0	43	0	331350016	49	4457
2026-01-26 10:20:25.78	94.53	12.20	-38.7	-40.7	19.4	0.00e+00	0	43	0	336592896	49	4403
2026-01-26 10:20:26.77	94.39	12.27	-38.7	-40.7	19.4	0.00e+00	0	43	0	341835776	49	4413
2026-01-26 10:20:27.77	94.26	12.34	-38.7	-40.6	19.5	0.00e+00	0	43	0	348127232	49	4364
2026-01-26 10:20:28.76	94.12	12.40	-38.5	-40.4	19.6	0.00e+00	0	43	0	353370112	49	4286
2026-01-26 10:20:29.76	93.98	12.47	-38.4	-40.4	19.7	0.00e+00	0	43	0	358612992	48	4494
2026-01-26 10:20:30.75	93.84	12.54	-38.4	-40.3	19.8	0.00e+00	0	43	0	364904448	48	4463
2026-01-26 10:20:31.75	93.70	12.60	-38.3	-40.2	19.8	0.00e+00	0	43	0	370147328	48	4431
2026-01-26 10:20:32.74	93.56	12.67	-38.4	-40.3	19.8	0.00e+00	0	43	0	376438784	48	4454
2026-01-26 10:20:33.74	93.41	12.74	-38.3	-40.2	19.9	0.00e+00	0	43	0	381681664	48	4428
2026-01-26 10:20:34.73	93.27	12.80	-38.4	-40.4	19.7	0.00e+00	0	43	0	386924544	48	4495
2026-01-26 10:20:35.73	93.13	12.87	-38.4	-40.3	19.8	0.00e+00	0	43	0	392167424	48	4452
2026-01-26 10:20:36.72	92.98	12.94	-38.2	-40.0	20.0	0.00e+00	0	43	0	398458880	48	4339
2026-01-26 10:20:37.72	92.84	13.00	-38.3	-40.2	19.9	0.00e+00	0	43	0	403701760	48	4404
2026-01-26 10:20:38.71	92.69	13.07	-38.1	-40.0	20.0	0.00e+00	0	43	0	408944640	48	4328
2026-01-26 10:20:39.71	92.55	13.14	-38.1	-40.0	20.0	0.00e+00	0	43	0	415236096	48	4321
2026-01-26 10:20:40.70	92.40	13.20	-38.1	-40.0	20.0	0.00e+00	0	43	0	420478976	48	4304
2026-01-26 10:20:41.70	92.25	13.27	-38.1	-40.0	20.1	0.00e+00	0	43	0	426770432	48	4293
2026-01-26 10:20:42.69	92.10	13.34	-38.2	-40.1	20.0	0.00e+00	0	43	0	432013312	48	4363
2026-01-26 10:20:43.69	91.96	13.41	-38.2	-40.1	19.9	0.00e+00	0	43	0	437256192	48	4385
2026-01-26 10:20:44.68	91.81	13.47	-38.3	-40.2	19.9	0.00e+00	0	43	0	442499072	48	4417
2026-01-26 10:20:45.67	91.66	13.54	-38.2	-40.1	20.0	0.00e+00	0	43	0	448790528	48	4342
2026-01-26 10:20:46.67	91.51	13.61	-38.1	-40.0	20.1	0.00e+00	0	43	0	454033408	48	4322
2026-01-26 10:20:47.66	91.35	13.67	-38.1	-40.0	20.1	0.00e+00	0	43	0	460324864	48	4313
2026-01-26 10:20:48.66	91.20	13.74	-38.1	-40.0	20.1	0.00e+00	0	43	0	465567744	48	4294
2026-01-26 10:20:49.65	91.05	13.81	-38.1	-39.9	20.1	0.00e+00	0	43	0	470810624	48	4290
2026-01-26 10:20:50.65	90.90	13.87	-38.0	-39.9	20.2	0.00e+00	0	43	0	477102080	48	4262
2026-01-26 10:20:51.64	90.74	13.94	-38.1	-40.0	20.1	0.00e+00	0	43	0	482344960	48	4293
2026-01-26 10:20:52.64	90.59	14.01	-38.0	-39.8	20.2	0.00e+00	0	43	0	487587840	48	4239
2026-01-26 10:20:53.63	90.43	14.07	-38.1	-40.0	20.1	0.00e+00	0	43	0	492830720	48	4294
2026-01-26 10:20:54.62	90.28	14.14	-38.1	-39.9	20.1	0.00e+00	0	43	0	499122176	48	4290
2026-01-26 10:20:55.62	90.12	14.21	-38.1	-40.0	20.1	0.00e+00	0	43	0	504365056	48	4329
2026-01-26 10:20:56.61	89.96	14.27	-38.1	-40.0	20.1	0.00e+00	0	43	0	510656512	48	4320
2026-01-26 10:20:57.61	89.80	14.34	-38.0	-39.9	20.1	0.00e+00	0	43	0	515899392	48	4280
2026-01-26 10:20:58.60	89.64	14.41	-38.1	-40.0	20.1	0.00e+00	0	43	0	521142272	48	4304
2026-01-26 10:20:59.60	89.48	14.47	-38.1	-40.0	20.1	0.00e+00	0	43	0	527433728	48	4322
2026-01-26 10:21:00.59	89.32	14.54	-38.1	-40.1	20.0	0.00e+00	0	43	0	532676608	48	4343
2026-01-26 10:21:01.59	89.16	14.61	-38.0	-39.9	20.1	0.00e+00	0	43	0	537919488	48	4280
2026-01-26 10:21:02.58	89.00	14.67	-38.0	-39.9	20.2	0.00e+00	0	43	0	543162368	48	4247
2026-01-26 10:21:03.58	88.83	14.74	-37.8	-39.7	20.1	0.00e+00	0	43	0	549453824	47	4416
2026-01-26 10:21:04.57	88.67	14.80	-37.7	-39.6	20.2	0.00e+00	0	43	0	554696704	47	4379
2026-01-26 10:21:05.57	88.51	14.87	-37.7	-39.6	20.2	0.00e+00	0	43	0	560988160	47	4385
2026-01-26 10:21:06.56	88.34	14.94	-37.7	-39.6	20.3	0.00e+00	0	43	0	566231040	47	4343
2026-01-26 10:21:07.56	88.17	15.00	-37.6	-39.5	20.3	0.00e+00	0	44	0	571473920	47	4303
2026-01-26 10:21:08.55	88.01	15.07	-37.6	-39.5	20.3	0.00e+00	0	43	0	577765376	47	4305
2026-01-26 10:21:09.55	87.84	15.14	-37.7	-39.6	20.2	0.00e+00	0	43	0	583008256	47	4346
2026-01-26 10:21:10.54	87.67	15.20	-37.6	-39.5	20.3	0.00e+00	0	43	0	588251136	47	4304
2026-01-26 10:21:11.54	87.50	15.27	-37.6	-39.4	20.4	0.00e+00	0	43	0	594542592	47	4287
2026-01-26 10:21:12.53	87.33	15.33	-37.6	-39.5	20.3	0.00e+00	0	44	0	599785472	47	4320
2026-01-26 10:21:13.53	87.16	15.40	-37.6	-39.5	20.3	0.00e+00	0	43	0	605028352	47	4333
2026-01-26 10:21:14.52	86.99	15.46	-37.5	-39.4	20.4	0.00e+00	0	43	0	611319808	47	4279
2026-01-26 10:21:15.52	86.82	15.53	-37.5	-39.4	20.4	0.00e+00	0	43	0	616562688	47	4262
2026-01-26 10:21:16.51	86.65	15.60	-37.6	-39.5	20.3	0.00e+00	0	43	0	621805568	47	4303
2026-01-26 10:21:17.50	86.48	15.66	-37.7	-39.6	20.3	0.00e+00	0	43	0	628097024	47	4347
2026-01-26 10:21:18.50	86.30	15.73	-37.7	-39.6	20.2	0.00e+00	0	43	0	633339904	47	4366
2026-01-26 10:21:19.49	86.13	15.79	-37.6	-39.5	20.3	0.00e+00	0	43	0	638582784	47	4302
2026-01-26 10:21:20.49	85.95	15.86	-37.5	-39.4	20.4	0.00e+00	0	43	0	644874240	47	4274
2026-01-26 10:21:21.48	85.77	15.92	-37.6	-39.5	20.3	0.00e+00	0	43	0	650117120	47	4309
2026-01-26 10:21:22.48	85.60	15.99	-37.6	-39.5	20.3	0.00e+00	0	43	0	655360000	47	4310
2026-01-26 10:21:23.47	85.42	16.05	-37.5	-39.4	20.4	0.00e+00	0	44	0	661651456	47	4276
2026-01-26 10:21:24.47	85.24	16.12	-37.5	-39.4	20.4	0.00e+00	0	43	0	666894336	47	4268
2026-01-26 10:21:25.46	85.06	16.18	-37.4	-39.3	20.5	0.00e+00	0	43	0	672137216	46	4447
2026-01-26 10:21:26.46	84.88	16.24	-37.3	-39.2	20.6	0.00e+00	0	43	0	678428672	46	4428
2026-01-26 10:21:27.45	84.70	16.31	-37.3	-39.2	20.6	0.00e+00	0	43	0	683671552	46	4399
2026-01-26 10:21:28.44	84.52	16.37	-37.4	-39.3	20.5	0.00e+00	0	43	0	688914432	46	4442
2026-01-26 10:21:29.44	84.33	16.44	-37.3	-39.2	20.6	0.00e+00	0	43	0	695205888	46	4415
2026-01-26 10:21:30.43	84.15	16.50	-37.3	-39.2	20.7	0.00e+00	0	43	0	700448768	46	4393
2026-01-26 10:21:31.43	83.97	16.56	-37.4	-39.3	20.5	0.00e+00	0	43	0	705691648	46	4446
2026-01-26 10:21:32.42	83.78	16.63	-37.3	-39.2	20.6	0.00e+00	0	44	0	711983104	46	4419
2026-01-26 10:21:33.41	83.60	16.69	-37.3	-39.2	20.6	0.00e+00	0	43	0	717225984	46	4410
2026-01-26 10:21:34.41	83.41	16.75	-37.4	-39.3	20.5	0.00e+00	0	43	0	722468864	46	4449
2026-01-26 10:21:35.40	83.22	16.82	-37.4	-39.3	20.5	0.00e+00	0	43	0	728760320	46	4446
2026-01-26 10:21:36.40	83.03	16.88	-37.4	-39.3	20.5	0.00e+00	0	43	0	734003200	46	4466
2026-01-26 10:21:37.39	82.85	16.94	-37.5	-39.4	20.4	0.00e+00	0	43	0	739246080	46	4503
2026-01-26 10:21:38.39	82.65	17.01	-37.2	-39.1	20.6	0.00e+00	0	43	0	745537536	46	4381
2026-01-26 10:21:39.38	82.46	17.07	-37.2	-39.1	20.7	0.00e+00	0	43	0	750780416	46	4354
2026-01-26 10:21:40.38	82.27	17.13	-37.2	-39.1	20.7	0.00e+00	0	43	0	756023296	46	4346
2026-01-26 10:21:41.37	82.08	17.19	-37.1	-38.9	20.9	0.00e+00	0	43	0	762314752	46	4276
2026-01-26 10:21:42.36	81.89	17.26	-36.9	-38.8	21.0	0.00e+00	0	43	0	767557632	45	4447
2026-01-26 10:21:43.36	81.69	17.32	-36.8	-38.6	21.1	0.00e+00	0	43	0	772800512	45	4367
2026-01-26 10:21:44.36	81.50	17.38	-36.8	-38.7	21.1	0.00e+00	0	43	0	779091968	45	4406
2026-01-26 10:21:45.35	81.30	17.44	-36.9	-38.8	21.0	0.00e+00	0	43	0	784334848	45	4447
2026-01-26 10:21:46.35	81.11	17.50	-37.0	-38.9	20.9	0.00e+00	0	43	0	789577728	45	4497
2026-01-26 10:21:47.34	80.91	17.56	-37.2	-39.0	20.7	0.00e+00	0	43	0	795869184	45	4595
2026-01-26 10:21:48.33	80.71	17.62	-37.2	-39.0	20.7	0.00e+00	0	44	0	801112064	45	4592
2026-01-26 10:21:49.33	80.51	17.69	-37.1	-39.0	20.8	0.00e+00	0	43	0	806354944	45	4565
2026-01-26 10:21:50.32	80.31	17.75	-37.2	-39.0	20.7	0.00e+00	0	43	0	812646400	45	4595
2026-01-26 10:21:51.32	80.11	17.81	-37.2	-39.0	20.7	0.00e+00	0	43	0	817889280	45	4589
2026-01-26 10:21:52.31	79.91	17.87	-37.0	-38.8	20.9	0.00e+00	0	43	0	823132160	45	4493
2026-01-26 10:21:53.31	79.71	17.93	-37.0	-38.8	20.9	0.00e+00	0	43	0	829423616	45	4478
2026-01-26 10:21:54.31	79.51	17.99	-37.0	-38.9	20.8	0.00e+00	0	43	0	834666496	45	4499
2026-01-26 10:21:55.30	79.30	18.05	-37.1	-38.9	20.8	0.00e+00	0	43	0	839909376	45	4540
2026-01-26 10:21:56.29	79.10	18.10	-37.0	-38.9	20.9	0.00e+00	0	43	0	846200832	45	4502
2026-01-26 10:21:57.29	78.89	18.16	-37.0	-38.8	20.9	0.00e+00	0	44	0	851443712	45	4472
2026-01-26 10:21:58.28	78.69	18.22	-36.9	-38.7	21.0	0.00e+00	0	43	0	857735168	45	4424
2026-01-26 10:21:59.28	78.48	18.28	-36.8	-38.6	21.1	0.00e+00	0	43	0	862978048	45	4366
2026-01-26 10:22:00.27	78.28	18.34	-36.7	-38.5	21.2	0.00e+00	0	43	0	868220928	45	4340
2026-01-26 10:22:01.27	78.07	18.40	-36.7	-38.5	21.3	0.00e+00	0	43	0	873463808	45	4295
2026-01-26 10:22:02.26	77.86	18.45	-36.7	-38.5	21.2	0.00e+00	0	43	0	879755264	45	4319
2026-01-26 10:22:03.26	77.65	18.51	-36.6	-38.4	21.4	0.00e+00	0	44	0	884998144	45	4253
2026-01-26 10:22:04.25	77.44	18.57	-36.7	-38.5	21.3	0.00e+00	0	43	0	890241024	45	4302
2026-01-26 10:22:05.24	77.23	18.63	-36.6	-38.4	21.3	0.00e+00	0	43	0	896532480	45	4277
2026-01-26 10:22:06.24	77.01	18.68	-36.5	-38.4	21.4	0.00e+00	0	43	0	901775360	45	4253
2026-01-26 10:22:07.23	76.80	18.74	-36.5	-38.3	21.4	0.00e+00	0	43	0	907018240	44	4455
2026-01-26 10:22:08.23	76.59	18.80	-36.5	-38.3	21.4	0.00e+00	0	44	0	913309696	44	4471
2026-01-26 10:22:09.22	76.37	18.85	-36.5	-38.3	21.4	0.00e+00	0	43	0	918552576	44	4471
2026-01-26 10:22:10.22	76.16	18.91	-36.5	-38.3	21.4	0.00e+00	0	43	0	923795456	44	4454
2026-01-26 10:22:11.21	75.94	18.96	-36.5	-38.3	21.4	0.00e+00	0	43	0	930086912	44	4468
2026-01-26 10:22:12.21	75.72	19.02	-36.4	-38.2	21.5	0.00e+00	0	43	0	935329792	44	4421
2026-01-26 10:22:13.20	75.51	19.07	-36.3	-38.1	21.5	0.00e+00	0	44	0	940572672	44	4376
2026-01-26 10:22:14.19	75.29	19.13	-36.3	-38.1	21.6	0.00e+00	0	44	0	946864128	44	4361
2026-01-26 10:22:15.19	75.07	19.18	-36.2	-38.0	21.6	0.00e+00	0	44	0	952107008	44	4324
2026-01-26 10:22:16.18	74.85	19.23	-36.1	-37.9	21.7	0.00e+00	0	43	0	958398464	44	4255
2026-01-26 10:22:17.18	74.63	19.29	-36.2	-38.0	21.7	0.00e+00	0	44	0	963641344	44	4296
2026-01-26 10:22:18.18	74.40	19.34	-36.2	-38.0	21.7	0.00e+00	0	43	0	968884224	44	4300
2026-01-26 10:22:19.17	74.18	19.39	-36.2	-38.0	21.7	0.00e+00	0	44	0	974127104	44	4303
2026-01-26 10:22:20.17	73.96	19.45	-36.3	-38.1	21.6	0.00e+00	0	44	0	980418560	44	4345
2026-01-26 10:22:21.16	73.73	19.50	-36.2	-38.0	21.5	0.00e+00	0	43	0	985661440	44	4312
2026-01-26 10:22:22.16	73.51	19.55	-36.3	-38.1	21.6	0.00e+00	0	43	0	990904320	44	4353
2026-01-26 10:22:23.15	73.28	19.60	-36.3	-38.1	21.6	0.00e+00	0	43	0	997195776	44	4356
2026-01-26 10:22:24.15	73.06	19.65	-36.1	-37.9	21.8	0.00e+00	0	44	0	1002438656	44	4271
2026-01-26 10:22:25.14	72.83	19.70	-36.2	-38.0	21.6	0.00e+00	0	44	0	1008730112	44	4323
2026-01-26 10:22:26.13	72.60	19.75	-36.4	-38.2	21.5	0.00e+00	0	43	0	1013972992	44	4409
2026-01-26 10:22:27.13	72.37	19.80	-36.5	-38.3	21.4	0.00e+00	0	43	0	1019215872	44	4469
2026-01-26 10:22:28.12	72.15	19.85	-36.4	-38.3	21.4	0.00e+00	0	44	0	1024458752	44	4443
2026-01-26 10:22:29.11	71.92	19.90	-36.5	-38.3	21.4	0.00e+00	0	43	0	1030750208	44	4454
2026-01-26 10:22:30.11	71.69	19.95	-36.4	-38.2	21.5	0.00e+00	0	43	0	1035993088	44	4404
2026-01-26 10:22:31.10	71.45	20.00	-36.5	-38.3	21.4	0.00e+00	0	43	0	1041235968	44	4478
2026-01-26 10:22:32.10	71.22	20.04	-36.4	-38.2	21.5	0.00e+00	0	44	0	1047527424	44	4412
2026-01-26 10:22:33.09	70.99	20.09	-36.4	-38.2	21.5	0.00e+00	0	43	0	1052770304	44	4407
2026-01-26 10:22:34.08	70.76	20.14	-36.5	-38.3	21.4	0.00e+00	0	43	0	1059061760	44	4448
2026-01-26 10:22:35.08	70.52	20.19	-36.4	-38.2	21.4	0.00e+00	0	43	0	1064304640	44	4438
2026-01-26 10:22:36.07	70.29	20.23	-36.4	-38.2	21.4	0.00e+00	0	43	0	1069547520	44	4437
2026-01-26 10:22:37.07	70.05	20.28	-36.4	-38.2	21.4	0.00e+00	0	43	0	1074790400	44	4431
2026-01-26 10:22:38.06	69.81	20.32	-36.4	-38.2	21.5	0.00e+00	0	44	0	1081081856	44	4406
2026-01-26 10:22:39.06	69.58	20.37	-36.5	-38.3	21.4	0.00e+00	0	44	0	1086324736	44	4454
2026-01-26 10:22:40.05	69.34	20.41	-36.3	-38.2	21.5	0.00e+00	0	43	0	1091567616	44	4398
2026-01-26 10:22:41.05	69.10	20.46	-36.3	-38.1	21.6	0.00e+00	0	43	0	1097859072	44	4354
2026-01-26 10:22:42.04	68.86	20.50	-36.2	-38.0	21.7	0.00e+00	0	43	0	1103101952	44	4310
2026-01-26 10:22:43.03	68.62	20.54	-36.2	-38.0	21.7	0.00e+00	0	44	0	1109393408	44	4316
2026-01-26 10:22:44.03	68.38	20.59	-36.2	-38.0	21.7	0.00e+00	0	43	0	1114636288	44	4323
2026-01-26 10:22:45.03	68.14	20.63	-36.1	-37.9	21.7	0.00e+00	0	44	0	1119879168	44	4282
2026-01-26 10:22:46.02	67.90	20.67	-35.8	-37.6	21.9	0.00e+00	0	43	0	1125122048	43	4351
2026-01-26 10:22:47.02	67.65	20.71	-35.6	-37.4	22.0	0.00e+00	0	44	0	1131413504	43	4255
2026-01-26 10:22:48.01	67.41	20.75	-35.7	-37.5	22.0	0.00e+00	0	43	0	1136656384	43	4299
2026-01-26 10:22:49.00	67.17	20.79	-35.6	-37.4	22.0	0.00e+00	0	43	0	1141899264	43	4254
2026-01-26 10:22:50.00	66.92	20.83	-35.6	-37.4	22.0	0.00e+00	0	43	0	1148190720	43	4247
2026-01-26 10:22:51.00	66.68	20.87	-35.7	-37.4	22.0	0.00e+00	0	44	0	1153433600	43	4288
2026-01-26 10:22:51.99	66.43	20.91	-35.6	-37.4	22.0	0.00e+00	0	43	0	1159725056	43	4276
2026-01-26 10:22:52.99	66.18	20.95	-35.5	-37.3	22.1	0.00e+00	0	43	0	1164967936	43	4222
2026-01-26 10:22:53.99	65.94	20.99	-35.6	-37.4	22.0	0.00e+00	0	43	0	1170210816	43	4267
2026-01-26 10:22:54.98	65.69	21.02	-35.6	-37.4	22.0	0.00e+00	0	44	0	1175453696	43	4273
2026-01-26 10:22:55.98	65.44	21.06	-35.6	-37.4	22.0	0.00e+00	0	44	0	1181745152	43	4268
2026-01-26 10:22:56.97	65.19	21.10	-35.6	-37.4	22.0	0.00e+00	0	44	0	1186988032	43	4250
2026-01-26 10:22:57.97	64.94	21.13	-35.7	-37.4	22.0	0.00e+00	0	43	0	1192230912	43	4285
2026-01-26 10:22:58.96	64.69	21.17	-35.8	-37.5	21.9	0.00e+00	0	44	0	1198522368	43	4331
2026-01-26 10:22:59.96	64.44	21.20	-35.8	-37.6	21.9	0.00e+00	0	44	0	1203765248	43	4350
2026-01-26 10:23:00.95	64.19	21.24	-35.7	-37.4	22.0	0.00e+00	0	43	0	1210056704	43	4275
2026-01-26 10:23:01.94	63.94	21.27	-35.8	-37.6	21.8	0.00e+00	0	44	0	1215299584	43	4356
2026-01-26 10:23:02.93	63.69	21.30	-35.8	-37.6	21.8	0.00e+00	0	44	0	1220542464	43	4373
2026-01-26 10:23:03.93	63.44	21.34	-35.8	-37.6	21.9	0.00e+00	0	44	0	1225785344	43	4349
2026-01-26 10:23:04.92	63.18	21.37	-35.8	-37.6	21.9	0.00e+00	0	43	0	1232076800	43	4350
2026-01-26 10:23:05.92	62.93	21.40	-35.7	-37.5	21.9	0.00e+00	0	44	0	1237319680	43	4312
2026-01-26 10:23:06.91	62.67	21.43	-35.8	-37.6	21.8	0.00e+00	0	43	0	1243611136	43	4357
2026-01-26 10:23:07.91	62.42	21.46	-35.8	-37.5	21.8	0.00e+00	0	44	0	1248854016	43	4334
2026-01-26 10:23:08.90	62.16	21.49	-35.9	-37.7	21.7	0.00e+00	0	44	0	1254096896	43	4417
2026-01-26 10:23:09.89	61.91	21.52	-36.0	-37.8	21.6	0.00e+00	0	43	0	1260388352	43	4448
2026-01-26 10:23:10.89	61.65	21.55	-36.0	-37.8	21.6	0.00e+00	0	43	0	1265631232	43	4452
2026-01-26 10:23:11.89	61.39	21.58	-36.0	-37.8	21.6	0.00e+00	0	43	0	1270874112	43	4459
2026-01-26 10:23:12.88	61.14	21.60	-36.0	-37.9	21.6	0.00e+00	0	44	0	1276116992	43	4501
2026-01-26 10:23:13.88	60.88	21.63	-35.7	-37.5	21.9	0.00e+00	0	43	0	1282408448	43	4293
2026-01-26 10:23:14.87	60.62	21.66	-35.7	-37.5	21.9	0.00e+00	0	43	0	1287651328	43	4320
2026-01-26 10:23:15.87	60.36	21.68	-35.5	-37.3	22.1	0.00e+00	0	44	0	1293942784	43	4208
2026-01-26 10:23:16.86	60.10	21.71	-35.5	-37.3	22.1	0.00e+00	0	43	0	1299185664	43	4208
2026-01-26 10:23:17.86	59.84	21.73	-35.6	-37.3	22.0	0.00e+00	0	44	0	1304428544	43	4236
2026-01-26 10:23:18.85	59.59	21.76	-35.5	-37.2	22.1	0.00e+00	0	43	0	1310720000	42	4440
2026-01-26 10:23:19.85	59.32	21.78	-35.5	-37.3	22.1	0.00e+00	0	43	0	1315962880	42	4449
2026-01-26 10:23:20.84	59.06	21.80	-35.5	-37.2	22.1	0.00e+00	0	44	0	1321205760	42	4438
2026-01-26 10:23:21.84	58.80	21.83	-35.5	-37.3	22.1	0.00e+00	0	43	0	1327497216	42	4454
2026-01-26 10:23:22.83	58.54	21.85	-35.4	-37.2	22.2	0.00e+00	0	43	0	1332740096	42	4400
2026-01-26 10:23:23.82	58.28	21.87	-35.5	-37.3	22.1	0.00e+00	0	43	0	1337982976	42	4444
2026-01-26 10:23:24.82	58.02	21.89	-35.5	-37.3	22.1	0.00e+00	0	43	0	1344274432	42	4463
2026-01-26 10:23:25.81	57.76	21.91	-35.5	-37.3	22.1	0.00e+00	0	43	0	1349517312	42	4447
2026-01-26 10:23:26.81	57.49	21.93	-35.5	-37.3	22.1	0.00e+00	0	43	0	1354760192	42	4480
2026-01-26 10:23:27.80	57.23	21.95	-35.4	-37.2	22.2	0.00e+00	0	44	0	1361051648	42	4400
2026-01-26 10:23:28.80	56.97	21.96	-35.3	-37.0	22.3	0.00e+00	0	43	0	1366294528	42	4338
2026-01-26 10:23:29.79	56.70	21.98	-35.3	-37.0	22.4	0.00e+00	0	43	0	1371537408	42	4312
2026-01-26 10:23:30.79	56.44	22.00	-35.3	-37.1	22.3	0.00e+00	0	43	0	1377828864	42	4355
2026-01-26 10:23:31.78	56.18	22.01	-35.4	-37.2	22.1	0.00e+00	0	44	0	1383071744	42	4406
2026-01-26 10:23:32.78	55.91	22.03	-35.5	-37.3	22.0	0.00e+00	0	43	0	1388314624	42	4468
2026-01-26 10:23:33.77	55.65	22.04	-35.7	-37.4	22.5	0.00e+00	0	43	0	1394606080	42	4512
2026-01-26 10:23:34.77	55.38	22.06	-35.7	-37.4	22.5	0.00e+00	0	44	0	1399848960	42	4525
2026-01-26 10:23:35.76	55.12	22.07	-35.9	-37.6	22.4	0.00e+00	0	43	0	1405091840	42	4605
2026-01-26 10:23:36.75	54.85	22.08	-35.8	-37.5	22.5	0.00e+00	0	43	0	1411383296	42	4553
2026-01-26 10:23:37.75	54.59	22.09	-35.9	-37.6	22.3	0.00e+00	0	44	0	1416626176	42	4632
2026-01-26 10:23:38.74	54.32	22.11	-35.7	-37.4	22.5	0.00e+00	0	44	0	1421869056	42	4511
2026-01-26 10:23:39.74	54.05	22.12	-35.6	-37.3	22.6	0.00e+00	0	44	0	1428160512	42	4480
2026-01-26 10:23:40.73	53.79	22.13	-35.6	-37.3	22.6	0.00e+00	0	43	0	1433403392	42	4474
2026-01-26 10:23:41.73	53.52	22.14	-35.5	-37.2	22.7	0.00e+00	0	43	0	1438646272	42	4404
2026-01-26 10:23:42.72	53.26	22.14	-35.3	-37.0	22.9	0.00e+00	0	43	0	1444937728	42	4316
2026-01-26 10:23:43.72	52.99	22.15	-35.4	-37.0	22.8	0.00e+00	0	43	0	1450180608	42	4334
2026-01-26 10:23:44.71	52.72	22.16	-35.4	-37.1	22.8	0.00e+00	0	43	0	1455423488	42	4351
2026-01-26 10:23:45.71	52.46	22.17	-35.4	-37.0	22.8	0.00e+00	0	43	0	1461714944	42	4335
2026-01-26 10:23:46.70	52.19	22.17	-35.4	-37.1	22.8	0.00e+00	0	43	0	1466957824	42	4343
2026-01-26 10:23:47.70	51.92	22.18	-35.5	-37.2	22.7	0.00e+00	0	43	0	1472200704	42	4403
2026-01-26 10:23:48.69	51.66	22.18	-35.5	-37.2	22.7	0.00e+00	0	43	0	1478492160	42	4414
2026-01-26 10:23:49.69	51.39	22.19	-35.6	-37.3	22.7	0.00e+00	0	43	0	1483735040	42	4446
2026-01-26 10:23:50.68	51.12	22.19	-35.6	-37.2	22.7	0.00e+00	0	44	0	1488977920	42	4430
2026-01-26 10:23:51.68	50.85	22.19	-35.6	-37.2	22.6	0.00e+00	0	43	0	1495269376	42	4436
2026-01-26 10:23:52.67	50.59	22.20	-35.7	-37.4	22.5	0.00e+00	0	43	0	1500512256	42	4529
2026-01-26 10:23:53.66	50.32	22.20	-35.8	-37.4	22.4	0.00e+00	0	43	0	1505755136	42	4541
2026-01-26 10:23:54.66	50.05	22.20	-35.8	-37.5	22.4	0.00e+00	0	43	0	1512046592	42	4577
2026-01-26 10:23:55.66	49.78	22.20	-35.8	-37.5	22.4	0.00e+00	0	43	0	1517289472	42	4583
2026-01-26 10:23:56.65	49.52	22.20	-35.8	-37.5	22.5	0.00e+00	0	43	0	1522532352	42	4555
2026-01-26 10:23:57.65	49.25	22.20	-35.8	-37.5	22.5	0.00e+00	0	44	0	1528823808	42	4550
2026-01-26 10:23:58.64	48.98	22.19	-35.7	-37.3	22.6	0.00e+00	0	44	0	1534066688	42	4472
2026-01-26 10:23:59.64	48.71	22.19	-35.7	-37.4	22.5	0.00e+00	0	44	0	1539309568	42	4515
2026-01-26 10:24:00.63	48.45	22.19	-35.7	-37.4	22.5	0.00e+00	0	43	0	1545601024	42	4501
2026-01-26 10:24:01.63	48.18	22.18	-35.8	-37.4	22.5	0.00e+00	0	43	0	1550843904	42	4545
2026-01-26 10:24:02.62	47.91	22.18	-35.7	-37.4	22.5	0.00e+00	0	43	0	1556086784	42	4529
2026-01-26 10:24:03.62	47.65	22.18	-35.6	-37.2	22.6	0.00e+00	0	44	0	1562378240	42	4441
2026-01-26 10:24:04.61	47.38	22.17	-35.5	-37.2	22.7	0.00e+00	0	43	0	1567621120	42	4400
2026-01-26 10:24:05.61	47.11	22.16	-35.6	-37.3	22.7	0.00e+00	0	43	0	1572864000	42	4442
2026-01-26 10:24:06.60	46.85	22.16	-35.6	-37.3	22.6	0.00e+00	0	43	0	1579155456	42	4464
2026-01-26 10:24:07.60	46.58	22.15	-35.5	-37.2	22.3	0.00e+00	0	43	0	1584398336	42	4421
2026-01-26 10:24:08.59	46.31	22.14	-35.5	-37.2	22.7	0.00e+00	0	43	0	1589641216	42	4409
2026-01-26 10:24:09.59	46.05	22.13	-35.4	-37.0	22.9	0.00e+00	0	43	0	1595932672	42	4326
2026-01-26 10:24:10.58	45.78	22.12	-35.4	-37.1	22.8	0.00e+00	0	43	0	1601175552	42	4355
2026-01-26 10:24:11.58	45.51	22.11	-35.5	-37.1	22.7	0.00e+00	0	43	0	1606418432	42	4386
2026-01-26 10:24:12.57	45.25	22.10	-35.6	-37.2	22.7	0.00e+00	0	43	0	1612709888	42	4434
2026-01-26 10:24:13.57	44.98	22.09	-35.5	-37.1	22.7	0.00e+00	0	43	0	1617952768	42	4385
2026-01-26 10:24:14.56	44.72	22.07	-35.4	-37.1	22.8	0.00e+00	0	43	0	1623195648	42	4352
2026-01-26 10:24:15.56	44.45	22.06	-35.3	-37.0	22.9	0.00e+00	0	43	0	1629487104	42	4306
2026-01-26 10:24:16.55	44.19	22.05	-35.4	-37.1	22.8	0.00e+00	0	44	0	1634729984	42	4356
2026-01-26 10:24:17.55	43.92	22.03	-35.5	-37.1	22.8	0.00e+00	0	43	0	1641021440	42	4382
2026-01-26 10:24:18.54	43.66	22.02	-35.5	-37.1	22.8	0.00e+00	0	43	0	1646264320	42	4375
2026-01-26 10:24:19.54	43.39	22.00	-35.4	-37.1	22.8	0.00e+00	0	43	0	1651507200	42	4360
2026-01-26 10:24:20.53	43.13	21.99	-35.4	-37.1	22.8	0.00e+00	0	43	0	1656750080	42	4357
2026-01-26 10:24:21.53	42.87	21.97	-35.4	-37.1	22.8	0.00e+00	0	43	0	1663041536	42	4368
2026-01-26 10:24:22.52	42.61	21.95	-35.2	-36.9	22.9	0.00e+00	0	43	0	1668284416	42	4267
2026-01-26 10:24:23.52	42.34	21.93	-35.2	-36.9	23.0	0.00e+00	0	43	0	1673527296	42	4256
2026-01-26 10:24:24.51	42.08	21.92	-35.3	-37.0	22.9	0.00e+00	0	43	0	1679818752	42	4299
2026-01-26 10:24:25.50	41.82	21.90	-35.4	-37.1	22.8	0.00e+00	0	43	0	1685061632	42	4341
2026-01-26 10:24:26.50	41.56	21.88	-35.5	-37.2	22.7	0.00e+00	0	43	0	1691353088	42	4394
2026-01-26 10:24:27.49	41.30	21.86	-35.5	-37.1	22.8	0.00e+00	0	44	0	1696595968	42	4387
2026-01-26 10:24:28.49	41.03	21.83	-35.5	-37.1	22.8	0.00e+00	0	43	0	1701838848	42	4388
2026-01-26 10:24:29.49	40.77	21.81	-35.5	-37.1	22.8	0.00e+00	0	43	0	1708130304	42	4371
2026-01-26 10:24:30.48	40.51	21.79	-35.5	-37.2	22.7	0.00e+00	0	43	0	1713373184	42	4399
2026-01-26 10:24:31.47	40.25	21.77	-35.5	-37.1	22.8	0.00e+00	0	43	0	1718616064	42	4378
2026-01-26 10:24:32.47	39.99	21.74	-35.5	-37.1	22.8	0.00e+00	0	43	0	1723858944	42	4380
2026-01-26 10:24:33.47	39.73	21.72	-35.4	-37.1	22.7	0.00e+00	0	43	0	1730150400	42	4377
2026-01-26 10:24:34.46	39.48	21.69	-35.5	-37.2	22.7	0.00e+00	0	43	0	1735393280	42	4393
2026-01-26 10:24:35.46	39.22	21.67	-35.4	-37.0	22.8	0.00e+00	0	43	0	1741684736	42	4326
2026-01-26 10:24:36.45	38.96	21.64	-35.4	-37.1	22.8	0.00e+00	0	43	0	1746927616	42	4353
2026-01-26 10:24:37.45	38.70	21.61	-35.5	-37.2	22.7	0.00e+00	0	43	0	1752170496	42	4398
2026-01-26 10:24:38.44	38.44	21.59	-35.6	-37.2	22.7	0.00e+00	0	43	0	1758461952	42	4426
2026-01-26 10:24:39.44	38.19	21.56	-35.7	-37.3	22.6	0.00e+00	0	43	0	1763704832	42	4482
2026-01-26 10:24:40.43	37.93	21.53	-35.7	-37.4	22.5	0.00e+00	0	44	0	1768947712	42	4519
2026-01-26 10:24:41.43	37.67	21.50	-35.9	-37.6	22.4	0.00e+00	0	43	0	1774190592	42	4603
2026-01-26 10:24:42.42	37.42	21.47	-35.7	-37.4	22.5	0.00e+00	0	43	0	1780482048	42	4528
2026-01-26 10:24:43.42	37.17	21.44	-35.6	-37.2	22.7	0.00e+00	0	43	0	1785724928	42	4429
2026-01-26 10:24:44.41	36.91	21.41	-35.7	-37.3	22.6	0.00e+00	0	43	0	1792016384	42	4482
2026-01-26 10:24:45.41	36.66	21.38	-35.6	-37.3	22.6	0.00e+00	0	44	0	1797259264	42	4466
2026-01-26 10:24:46.40	36.41	21.35	-35.7	-37.4	22.6	0.00e+00	0	44	0	1802502144	42	4497
2026-01-26 10:24:47.40	36.15	21.32	-35.8	-37.5	22.5	0.00e+00	0	43	0	1808793600	42	4560
2026-01-26 10:24:48.39	35.90	21.28	-35.8	-37.5	22.4	0.00e+00	0	43	0	1814036480	42	4585
2026-01-26 10:24:49.38	35.65	21.25	-35.8	-37.4	22.5	0.00e+00	0	43	0	1819279360	42	4545
2026-01-26 10:24:50.38	35.40	21.22	-35.6	-37.3	22.6	0.00e+00	0	43	0	1824522240	42	4480
2026-01-26 10:24:51.37	35.15	21.18	-35.6	-37.3	22.6	0.00e+00	0	43	0	1830813696	42	4467
2026-01-26 10:24:52.37	34.90	21.15	-35.7	-37.4	22.5	0.00e+00	0	43	0	1836056576	42	4502
2026-01-26 10:24:53.36	34.65	21.11	-35.6	-37.2	22.7	0.00e+00	0	43	0	1842348032	42	4432
2026-01-26 10:24:54.36	34.40	21.07	-35.5	-37.2	22.7	0.00e+00	0	43	0	1847590912	42	4406
2026-01-26 10:24:55.35	34.15	21.04	-35.6	-37.3	22.7	0.00e+00	0	43	0	1852833792	42	4446
2026-01-26 10:24:56.35	33.91	21.00	-35.7	-37.3	22.6	0.00e+00	0	43	0	1859125248	42	4492
2026-01-26 10:24:57.34	33.66	20.96	-35.6	-37.3	22.6	0.00e+00	0	43	0	1864368128	42	4482
2026-01-26 10:24:58.34	33.41	20.93	-35.8	-37.4	22.5	0.00e+00	0	43	0	1869611008	42	4537
2026-01-26 10:24:59.33	33.17	20.89	-35.7	-37.4	22.6	0.00e+00	0	43	0	1874853888	42	4500
2026-01-26 10:25:00.33	32.92	20.85	-35.6	-37.3	22.6	0.00e+00	0	43	0	1881145344	42	4467
2026-01-26 10:25:01.32	32.68	20.81	-35.7	-37.4	22.5	0.00e+00	0	43	0	1886388224	42	4533
2026-01-26 10:25:02.32	32.44	20.77	-35.8	-37.5	22.4	0.00e+00	0	43	0	1892679680	42	4592
2026-01-26 10:25:03.31	32.19	20.73	-35.8	-37.5	22.5	0.00e+00	0	43	0	1897922560	42	4568
2026-01-26 10:25:04.30	31.95	20.69	-35.8	-37.5	22.5	0.00e+00	0	43	0	1903165440	42	4553
2026-01-26 10:25:05.30	31.71	20.64	-35.8	-37.5	22.4	0.00e+00	0	43	0	1909456896	42	4580
2026-01-26 10:25:06.30	31.47	20.60	-35.8	-37.5	22.4	0.00e+00	0	43	0	1914699776	42	4584
2026-01-26 10:25:07.29	31.23	20.56	-35.9	-37.6	22.4	0.00e+00	0	43	0	1919942656	42	4615
2026-01-26 10:25:08.29	30.99	20.52	-35.9	-37.6	22.3	0.00e+00	0	43	0	1926234112	42	4650
2026-01-26 10:25:09.28	30.75	20.47	-36.0	-37.7	22.3	0.00e+00	0	43	0	1931476992	42	4659
2026-01-26 10:25:10.28	30.51	20.43	-36.0	-37.7	22.3	0.00e+00	0	43	0	1936719872	42	4664
2026-01-26 10:25:11.27	30.27	20.39	-35.9	-37.6	22.3	0.00e+00	0	43	0	1943011328	42	4632
2026-01-26 10:25:12.27	30.04	20.34	-35.9	-37.5	22.4	0.00e+00	0	43	0	1948254208	42	4592
2026-01-26 10:25:13.27	29.80	20.30	-35.7	-37.4	22.6	0.00e+00	0	43	0	1953497088	42	4501
2026-01-26 10:25:14.26	29.56	20.25	-35.8	-37.5	22.5	0.00e+00	0	43	0	1959788544	42	4553
2026-01-26 10:25:15.26	29.33	20.20	-35.9	-37.6	22.4	0.00e+00	0	43	0	1965031424	42	4600
2026-01-26 10:25:16.25	29.10	20.16	-35.9	-37.6	22.4	0.00e+00	0	43	0	1970274304	42	4603
2026-01-26 10:25:17.25	28.86	20.11	-35.9	-37.6	22.4	0.00e+00	0	43	0	1976565760	42	4614
2026-01-26 10:25:18.24	28.63	20.06	-36.0	-37.6	22.3	0.00e+00	0	43	0	1981808640	42	4641
2026-01-26 10:25:19.23	28.40	20.02	-35.9	-37.6	22.3	0.00e+00	0	43	0	1987051520	42	4630
2026-01-26 10:25:20.23	28.17	19.97	-35.9	-37.6	22.4	0.00e+00	0	43	0	1993342976	42	4612
2026-01-26 10:25:21.22	27.94	19.92	-35.9	-37.6	22.3	0.00e+00	0	43	0	1998585856	42	4632
2026-01-26 10:25:22.22	27.71	19.87	-36.0	-37.7	22.3	0.00e+00	0	43	0	2003828736	42	4664
2026-01-26 10:25:23.21	27.48	19.82	-36.0	-37.7	22.3	0.00e+00	0	43	0	2010120192	42	4653
2026-01-26 10:25:24.21	27.25	19.77	-36.0	-37.6	22.3	0.00e+00	0	43	0	2015363072	42	4649
2026-01-26 10:25:25.20	27.02	19.72	-36.0	-37.7	22.2	0.00e+00	0	43	0	2020605952	42	4683
2026-01-26 10:25:26.20	26.80	19.67	-36.0	-37.7	22.2	0.00e+00	0	43	0	2026897408	42	4700
2026-01-26 10:25:27.19	26.57	19.62	-36.1	-37.9	22.1	0.00e+00	0	43	0	2032140288	42	4768
2026-01-26 10:25:28.19	26.35	19.57	-36.2	-38.0	22.0	0.00e+00	0	43	0	2037383168	43	4558
2026-01-26 10:25:29.18	26.12	19.52	-36.2	-38.0	22.0	0.00e+00	0	43	0	2043674624	43	4556
2026-01-26 10:25:30.18	25.90	19.47	-36.1	-37.8	22.2	0.00e+00	0	43	0	2048917504	43	4483
2026-01-26 10:25:31.17	25.68	19.42	-36.1	-37.9	22.1	0.00e+00	0	43	0	2054160384	43	4498
2026-01-26 10:25:32.17	25.45	19.36	-36.2	-37.9	22.1	0.00e+00	0	43	0	2060451840	43	4526
2026-01-26 10:25:33.16	25.23	19.31	-36.2	-38.0	22.0	0.00e+00	0	43	0	2065694720	43	4556
2026-01-26 10:25:34.16	25.01	19.26	-36.3	-38.0	22.0	0.00e+00	0	43	0	2070937600	43	4568
2026-01-26 10:25:35.15	24.79	19.20	-36.4	-38.1	21.9	0.00e+00	0	43	0	2077229056	43	4643
2026-01-26 10:25:36.15	24.57	19.15	-36.4	-38.2	21.8	0.00e+00	0	43	0	2082471936	43	4672
2026-01-26 10:25:37.14	24.35	19.10	-36.4	-38.1	21.9	0.00e+00	0	43	0	2088763392	43	4627
2026-01-26 10:25:38.13	24.14	19.04	-36.3	-38.1	21.9	0.00e+00	0	43	0	2094006272	43	4600
2026-01-26 10:25:39.13	23.92	18.99	-36.2	-37.9	22.1	0.00e+00	0	43	0	2099249152	43	4498
2026-01-26 10:25:40.12	23.71	18.93	-36.2	-37.8	22.1	0.00e+00	0	43	0	2104492032	43	4492
2026-01-26 10:25:41.12	23.49	18.88	-36.3	-38.0	22.0	0.00e+00	0	43	0	2110783488	43	4577
2026-01-26 10:25:42.11	23.28	18.82	-36.3	-38.0	21.9	0.00e+00	0	43	0	2116026368	43	4580
2026-01-26 10:25:43.11	23.06	18.77	-36.4	-38.1	21.9	0.00e+00	0	43	0	2121269248	43	4618
2026-01-26 10:25:44.10	22.85	18.71	-36.3	-38.1	21.9	0.00e+00	0	43	0	2127560704	43	4612
2026-01-26 10:25:45.10	22.64	18.65	-36.4	-38.1	21.9	0.00e+00	0	43	0	2132803584	43	4618
2026-01-26 10:25:46.10	22.43	18.60	-36.4	-38.1	21.9	0.00e+00	0	43	0	2139095040	43	4619
2026-01-26 10:25:47.09	22.22	18.54	-36.3	-38.0	21.9	0.00e+00	0	43	0	2144337920	43	4590
2026-01-26 10:25:48.09	22.01	18.48	-36.3	-38.0	21.9	0.00e+00	0	43	0	2149580800	43	4578
2026-01-26 10:25:49.08	21.80	18.42	-36.4	-38.2	21.8	0.00e+00	0	43	0	2155872256	43	4655
2026-01-26 10:25:50.08	21.59	18.37	-36.5	-38.2	21.8	0.00e+00	0	43	0	2161115136	43	4674
2026-01-26 10:25:51.07	21.38	18.31	-36.5	-38.3	21.7	0.00e+00	0	43	0	2166358016	43	4713
2026-01-26 10:25:52.06	21.18	18.25	-36.7	-38.4	21.6	0.00e+00	0	43	0	2171600896	43	4806
2026-01-26 10:25:53.06	20.97	18.19	-36.9	-38.6	21.5	0.00e+00	0	43	0	2177892352	44	4644
2026-01-26 10:25:54.05	20.77	18.13	-37.1	-38.9	18.1	0.00e+00	0	43	0	2183135232	44	4768
2026-01-26 10:25:55.05	20.56	18.07	-37.1	-38.9	21.2	0.00e+00	0	43	0	2189426688	44	4806
2026-01-26 10:25:56.04	20.36	18.02	-36.9	-38.7	21.4	0.00e+00	0	43	0	2194669568	44	4687
2026-01-26 10:25:57.04	20.16	17.96	-36.8	-38.6	21.5	0.00e+00	0	43	0	2199912448	44	4613
2026-01-26 10:25:58.03	19.96	17.90	-36.8	-38.5	21.6	0.00e+00	0	43	0	2206203904	44	4585
2026-01-26 10:25:59.03	19.76	17.84	-36.9	-38.6	21.6	0.00e+00	0	43	0	2211446784	44	4612
2026-01-26 10:26:00.03	19.56	17.78	-37.0	-38.7	21.4	0.00e+00	0	43	0	2216689664	44	4696
2026-01-26 10:26:01.02	19.36	17.72	-37.0	-38.7	21.4	0.00e+00	0	43	0	2221932544	44	4693
2026-01-26 10:26:02.01	19.16	17.66	-37.0	-38.7	21.4	0.00e+00	0	43	0	2228224000	44	4703
2026-01-26 10:26:03.01	18.96	17.59	-36.8	-38.5	21.6	0.00e+00	0	43	0	2233466880	44	4575
2026-01-26 10:26:04.01	18.77	17.53	-36.6	-38.3	21.8	0.00e+00	0	43	0	2239758336	44	4465
2026-01-26 10:26:05.00	18.57	17.47	-36.5	-38.2	21.9	0.00e+00	0	43	0	2245001216	44	4398
2026-01-26 10:26:06.00	18.38	17.41	-36.7	-38.4	21.7	0.00e+00	0	43	0	2250244096	44	4506
2026-01-26 10:26:06.99	18.18	17.35	-36.7	-38.4	21.7	0.00e+00	0	43	0	2256535552	44	4512
2026-01-26 10:26:07.99	17.99	17.29	-36.8	-38.5	21.6	0.00e+00	0	43	0	2261778432	44	4571
2026-01-26 10:26:08.98	17.80	17.23	-36.8	-38.5	21.6	0.00e+00	0	43	0	2267021312	44	4592
2026-01-26 10:26:09.98	17.60	17.16	-36.7	-38.5	21.6	0.00e+00	0	43	0	2272264192	44	4562
2026-01-26 10:26:10.97	17.41	17.10	-36.7	-38.4	21.7	0.00e+00	0	43	0	2278555648	44	4520
2026-01-26 10:26:11.96	17.23	17.04	-36.6	-38.3	21.8	0.00e+00	0	43	0	2283798528	44	4478
2026-01-26 10:26:12.96	17.04	16.98	-36.7	-38.5	21.6	0.00e+00	0	43	0	2290089984	44	4551
2026-01-26 10:26:13.95	16.85	16.91	-36.8	-38.5	21.6	0.00e+00	0	43	0	2295332864	44	4556
2026-01-26 10:26:14.95	16.66	16.85	-36.8	-38.5	21.6	0.00e+00	0	43	0	2300575744	44	4574
2026-01-26 10:26:15.94	16.47	16.79	-36.9	-38.6	21.5	0.00e+00	0	43	0	2306867200	44	4615
2026-01-26 10:26:16.94	16.29	16.73	-36.9	-38.6	21.5	0.00e+00	0	43	0	2312110080	44	4647
2026-01-26 10:26:17.94	16.10	16.66	-36.9	-38.6	21.5	0.00e+00	0	43	0	2317352960	44	4644
2026-01-26 10:26:18.93	15.92	16.60	-36.9	-38.7	21.5	0.00e+00	0	43	0	2322595840	44	4661
2026-01-26 10:26:19.93	15.73	16.54	-36.8	-38.5	21.5	0.00e+00	0	43	0	2328887296	44	4593
2026-01-26 10:26:20.92	15.55	16.47	-36.7	-38.5	21.6	0.00e+00	0	43	0	2334130176	44	4561
2026-01-26 10:26:21.92	15.37	16.41	-36.9	-38.7	21.4	0.00e+00	0	43	0	2340421632	44	4655
2026-01-26 10:26:22.91	15.19	16.34	-36.8	-38.6	21.5	0.00e+00	0	43	0	2345664512	44	4638
2026-01-26 10:26:23.91	15.00	16.28	-36.8	-38.6	21.5	0.00e+00	0	43	0	2350907392	44	4615
2026-01-26 10:26:24.90	14.83	16.22	-36.8	-38.6	21.5	0.00e+00	0	43	0	2357198848	44	4640
2026-01-26 10:26:25.89	14.65	16.15	-36.8	-38.6	21.5	0.00e+00	0	43	0	2362441728	44	4636
2026-01-26 10:26:26.89	14.47	16.09	-36.9	-38.7	21.5	0.00e+00	0	43	0	2367684608	44	4662
2026-01-26 10:26:27.89	14.29	16.02	-36.8	-38.6	21.5	0.00e+00	0	43	0	2373976064	44	4631
2026-01-26 10:26:28.88	14.11	15.96	-36.8	-38.6	21.4	0.00e+00	0	43	0	2379218944	44	4642
2026-01-26 10:26:29.87	13.94	15.89	-36.9	-38.7	21.4	0.00e+00	0	43	0	2384461824	44	4668
2026-01-26 10:26:30.87	13.76	15.83	-36.9	-38.8	21.3	0.00e+00	0	43	0	2390753280	44	4717
2026-01-26 10:26:31.86	13.59	15.76	-37.0	-38.8	21.3	0.00e+00	0	43	0	2395996160	44	4736
2026-01-26 10:26:32.86	13.42	15.70	-37.0	-38.9	21.3	0.00e+00	0	43	0	2401239040	44	4764
2026-01-26 10:26:33.85	13.24	15.63	-37.0	-38.9	21.3	0.00e+00	0	43	0	2407530496	44	4761
2026-01-26 10:26:34.85	13.07	15.57	-37.1	-38.9	21.2	0.00e+00	0	43	0	2412773376	44	4781
2026-01-26 10:26:35.84	12.90	15.50	-37.2	-39.0	21.1	0.00e+00	0	43	0	2418016256	44	4833
2026-01-26 10:26:36.84	12.73	15.44	-37.3	-39.1	21.0	0.00e+00	0	43	0	2424307712	45	4609
2026-01-26 10:26:37.83	12.56	15.37	-37.3	-39.1	21.0	0.00e+00	0	43	0	2429550592	45	4628
2026-01-26 10:26:38.83	12.39	15.31	-37.4	-39.2	20.9	0.00e+00	0	43	0	2434793472	45	4702
2026-01-26 10:26:39.82	12.22	15.24	-37.4	-39.2	20.9	0.00e+00	0	43	0	2441084928	45	4689
2026-01-26 10:26:40.82	12.06	15.18	-37.5	-39.3	20.8	0.00e+00	0	43	0	2446327808	45	4737
2026-01-26 10:26:41.81	11.89	15.11	-37.4	-39.2	20.9	0.00e+00	0	43	0	2451570688	45	4677
2026-01-26 10:26:42.80	11.72	15.04	-37.5	-39.3	20.9	0.00e+00	0	43	0	2457862144	45	4712
2026-01-26 10:26:43.80	11.56	14.98	-37.4	-39.3	20.9	0.00e+00	0	43	0	2463105024	45	4712
2026-01-26 10:26:44.80	11.39	14.91	-37.4	-39.3	20.9	0.00e+00	0	43	0	2468347904	45	4714
2026-01-26 10:26:45.79	11.23	14.85	-37.5	-39.4	20.8	0.00e+00	0	43	0	2474639360	45	4765
2026-01-26 10:26:46.79	11.07	14.78	-37.6	-39.4	20.7	0.00e+00	0	43	0	2479882240	45	4803
2026-01-26 10:26:47.78	10.90	14.71	-37.4	-39.2	20.9	0.00e+00	0	43	0	2485125120	45	4696
2026-01-26 10:26:48.78	10.74	14.65	-37.4	-39.3	20.8	0.00e+00	0	43	0	2491416576	45	4707
2026-01-26 10:26:49.77	10.58	14.58	-37.4	-39.3	20.9	0.00e+00	0	43	0	2496659456	45	4708
2026-01-26 10:26:50.76	10.42	14.52	-37.3	-39.1	21.0	0.00e+00	0	43	0	2501902336	45	4623
2026-01-26 10:26:51.76	10.26	14.45	-37.3	-39.1	21.0	0.00e+00	0	43	0	2508193792	45	4640
2026-01-26 10:26:52.76	10.10	14.38	-37.3	-39.1	21.0	0.00e+00	0	43	0	2513436672	45	4619
2026-01-26 10:26:53.75	9.95	14.32	-37.3	-39.2	21.0	0.00e+00	0	43	0	2518679552	45	4654
2026-01-26 10:26:54.75	9.79	14.25	-37.4	-39.3	20.8	0.00e+00	0	43	0	2524971008	45	4720
2026-01-26 10:26:55.74	9.63	14.18	-37.4	-39.3	20.8	0.00e+00	0	43	0	2530213888	45	4742
2026-01-26 10:26:56.74	9.48	14.12	-37.5	-39.4	20.7	0.00e+00	0	43	0	2536505344	45	4768
2026-01-26 10:26:57.73	9.32	14.05	-37.5	-39.4	20.7	0.00e+00	0	43	0	2541748224	45	4790
2026-01-26 10:26:58.73	9.17	13.98	-37.6	-39.5	20.7	0.00e+00	0	43	0	2546991104	45	4822
2026-01-26 10:26:59.72	9.01	13.92	-37.6	-39.5	20.7	0.00e+00	0	43	0	2552233984	45	4819
2026-01-26 10:27:00.72	8.86	13.85	-37.7	-39.6	20.6	0.00e+00	0	43	0	2558525440	46	4624
2026-01-26 10:27:01.71	8.71	13.78	-37.8	-39.6	20.5	0.00e+00	0	43	0	2563768320	46	4649
2026-01-26 10:27:02.70	8.56	13.72	-37.9	-39.7	20.4	0.00e+00	0	43	0	2569011200	46	4704
2026-01-26 10:27:03.70	8.41	13.65	-37.7	-39.6	20.5	0.00e+00	0	43	0	2575302656	46	4637
2026-01-26 10:27:04.69	8.26	13.59	-37.7	-39.6	20.6	0.00e+00	0	43	0	2580545536	46	4608
2026-01-26 10:27:05.69	8.11	13.52	-37.7	-39.6	20.5	0.00e+00	0	43	0	2586836992	46	4633
2026-01-26 10:27:06.68	7.96	13.45	-37.6	-39.5	20.7	0.00e+00	0	43	0	2592079872	46	4550
2026-01-26 10:27:07.67	7.81	13.39	-37.6	-39.5	20.6	0.00e+00	0	43	0	2597322752	46	4554
2026-01-26 10:27:08.67	7.66	13.32	-37.6	-39.5	20.6	0.00e+00	0	43	0	2602565632	46	4579
2026-01-26 10:27:09.66	7.52	13.25	-37.7	-39.5	20.6	0.00e+00	0	43	0	2608857088	46	4595
2026-01-26 10:27:10.66	7.37	13.19	-37.7	-39.6	20.5	0.00e+00	0	43	0	2614099968	46	4639
2026-01-26 10:27:11.65	7.23	13.12	-37.8	-39.7	20.4	0.00e+00	0	43	0	2619342848	46	4691
2026-01-26 10:27:12.64	7.08	13.05	-37.8	-39.7	20.4	0.00e+00	0	43	0	2625634304	46	4701
2026-01-26 10:27:13.64	6.94	12.99	-37.9	-39.8	20.3	0.00e+00	0	43	0	2630877184	46	4759
2026-01-26 10:27:14.64	6.79	12.92	-37.9	-39.8	20.3	0.00e+00	0	43	0	2637168640	46	4745
2026-01-26 10:27:15.63	6.65	12.85	-38.0	-39.9	20.3	0.00e+00	0	43	0	2642411520	46	4762
2026-01-26 10:27:16.63	6.51	12.79	-38.0	-39.8	20.3	0.00e+00	0	43	0	2647654400	46	4748
2026-01-26 10:27:17.62	6.37	12.72	-38.1	-40.0	20.2	0.00e+00	0	43	0	2652897280	46	4848
2026-01-26 10:27:18.61	6.23	12.65	-38.1	-39.9	20.2	0.00e+00	0	43	0	2659188736	47	4533
2026-01-26 10:27:19.61	6.09	12.59	-38.1	-40.0	20.1	0.00e+00	0	43	0	2664431616	47	4580
2026-01-26 10:27:20.60	5.95	12.52	-38.2	-40.1	20.0	0.00e+00	0	43	0	2669674496	47	4626
2026-01-26 10:27:21.60	5.81	12.45	-38.3	-40.2	20.0	0.00e+00	0	43	0	2675965952	47	4670
2026-01-26 10:27:22.60	5.67	12.39	-38.2	-40.2	20.0	0.00e+00	0	43	0	2681208832	47	4675
2026-01-26 10:27:23.59	5.53	12.32	-38.3	-40.3	19.9	0.00e+00	0	43	0	2687500288	47	4730
2026-01-26 10:27:24.59	5.40	12.25	-38.2	-40.2	20.0	0.00e+00	0	43	0	2692743168	47	4668
2026-01-26 10:27:25.58	5.26	12.19	-38.2	-40.2	20.0	0.00e+00	0	43	0	2697986048	47	4659
2026-01-26 10:27:26.57	5.13	12.12	-38.2	-40.1	20.0	0.00e+00	0	43	0	2703228928	47	4638
2026-01-26 10:27:27.57	4.99	12.05	-38.1	-40.0	20.1	0.00e+00	0	43	0	2709520384	47	4595
2026-01-26 10:27:28.57	4.86	11.99	-38.2	-40.0	20.1	0.00e+00	0	43	0	2714763264	47	4592
2026-01-26 10:27:29.56	4.72	11.92	-38.2	-40.1	20.0	0.00e+00	0	43	0	2720006144	47	4629
2026-01-26 10:27:30.56	4.59	11.85	-38.3	-40.2	20.0	0.00e+00	0	43	0	2726297600	47	4667
2026-01-26 10:27:31.55	4.46	11.79	-38.5	-40.3	19.8	0.00e+00	0	43	0	2731540480	47	4753
2026-01-26 10:27:32.55	4.32	11.72	-38.6	-40.5	19.7	0.00e+00	0	43	0	2737831936	47	4835
2026-01-26 10:27:33.55	4.19	11.65	-38.6	-40.4	19.7	0.00e+00	0	43	0	2743074816	47	4805
2026-01-26 10:27:34.54	4.06	11.59	-38.5	-40.4	19.7	0.00e+00	0	43	0	2748317696	47	4802
2026-01-26 10:27:35.53	3.93	11.52	-38.5	-40.4	19.7	0.00e+00	0	43	0	2753560576	47	4791
2026-01-26 10:27:36.53	3.80	11.46	-38.5	-40.4	19.7	0.00e+00	0	43	0	2759852032	47	4793
2026-01-26 10:27:37.52	3.67	11.39	-38.5	-40.4	19.8	0.00e+00	0	43	0	2765094912	47	4771
2026-01-26 10:27:38.51	3.55	11.32	-38.5	-40.4	19.7	0.00e+00	0	43	0	2770337792	47	4807
2026-01-26 10:27:39.51	3.42	11.26	-38.6	-40.5	19.6	0.00e+00	0	43	0	2776629248	47	4834
2026-01-26 10:27:40.51	3.29	11.19	-38.6	-40.5	19.4	0.00e+00	0	43	0	2781872128	47	4853
2026-01-26 10:27:41.50	3.17	11.13	-38.6	-40.5	19.6	0.00e+00	0	43	0	2788163584	47	4845
2026-01-26 10:27:42.49	3.04	11.06	-38.7	-40.6	19.5	0.00e+00	0	43	0	2793406464	47	4905
2026-01-26 10:27:43.49	2.91	10.99	-38.7	-40.6	19.6	0.00e+00	0	43	0	2798649344	47	4878
2026-01-26 10:27:44.48	2.79	10.93	-38.6	-40.5	19.6	0.00e+00	0	43	0	2804940800	47	4853
2026-01-26 10:27:45.48	2.67	10.86	-38.6	-40.5	19.6	0.00e+00	0	43	0	2810183680	47	4857
2026-01-26 10:27:46.47	2.54	10.80	-38.5	-40.5	19.6	0.00e+00	0	43	0	2815426560	47	4839
2026-01-26 10:27:47.47	2.42	10.73	-38.6	-40.6	19.6	0.00e+00	0	43	0	2820669440	47	4884
2026-01-26 10:27:48.46	2.30	10.66	-38.6	-40.6	19.5	0.00e+00	0	43	0	2826960896	47	4916
2026-01-26 10:27:49.45	2.18	10.60	-38.6	-40.7	19.5	0.00e+00	0	43	0	2832203776	47	4939
2026-01-26 10:27:50.45	2.05	10.53	-38.8	-40.8	19.5	0.00e+00	0	43	0	2838495232	48	4757
2026-01-26 10:27:51.44	1.93	10.47	-38.9	-40.9	19.4	0.00e+00	0	43	0	2843738112	48	4806
2026-01-26 10:27:52.44	1.81	10.40	-38.9	-40.9	19.5	0.00e+00	0	43	0	2848980992	48	4781
2026-01-26 10:27:53.43	1.69	10.34	-39.1	-41.1	19.3	0.00e+00	0	43	0	2854223872	48	4884
2026-01-26 10:27:54.43	1.57	10.27	-39.1	-41.0	19.3	0.00e+00	0	43	0	2860515328	49	4570
2026-01-26 10:27:55.42	1.46	10.21	-39.1	-41.1	19.3	0.00e+00	0	43	0	2865758208	49	4606
2026-01-26 10:27:56.42	1.34	10.14	-39.2	-41.2	19.1	0.00e+00	0	43	0	2871001088	49	4677
2026-01-26 10:27:57.41	1.22	10.08	-39.2	-41.2	19.1	0.00e+00	0	43	0	2877292544	49	4693
2026-01-26 10:27:58.41	1.10	10.01	-39.2	-41.2	19.1	0.00e+00	0	43	0	2882535424	49	4705
2026-01-26 10:27:59.41	0.99	9.94	-39.2	-41.2	19.1	0.00e+00	0	43	0	2888826880	49	4693
2026-01-26 10:28:00.40	0.87	9.88	-39.3	-41.3	19.0	0.00e+00	0	43	0	2894069760	49	4754
2026-01-26 10:28:01.39	0.76	9.81	-39.3	-41.3	19.0	0.00e+00	0	43	0	2899312640	49	4744
2026-01-26 10:28:02.39	0.64	9.75	-39.2	-41.3	19.1	0.00e+00	0	43	0	2905604096	49	4715
2026-01-26 10:28:03.39	0.53	9.68	-39.2	-41.2	19.2	0.00e+00	0	43	0	2910846976	49	4659
2026-01-26 10:28:04.38	0.41	9.62	-39.2	-41.3	19.0	0.00e+00	0	43	0	2916089856	49	4720
2026-01-26 10:28:05.38	0.30	9.55	-39.1	-41.2	19.1	0.00e+00	0	43	0	2922381312	49	4663
2026-01-26 10:28:06.37	0.19	9.49	-39.1	-41.2	19.1	0.00e+00	0	43	0	2927624192	49	4663
2026-01-26 10:28:07.36	0.08	9.43	-39.2	-41.2	19.1	0.00e+00	0	43	0	2932867072	49	4684
2026-01-26 10:28:08.36	359.96	9.36	-39.2	-41.2	19.1	0.00e+00	0	43	0	2939158528	49	4676
2026-01-26 10:28:09.35	359.85	9.30	-39.2	-41.2	19.1	0.00e+00	0	43	0	2944401408	49	4664
2026-01-26 10:28:10.34	359.74	9.23	-39.2	-41.2	19.1	0.00e+00	0	43	0	2949644288	49	4672
2026-01-26 10:28:11.34	359.63	9.17	-39.2	-41.2	19.1	0.00e+00	0	43	0	2955935744	49	4680
2026-01-26 10:28:12.34	359.52	9.10	-39.3	-41.2	19.1	0.00e+00	0	43	0	2961178624	49	4701
2026-01-26 10:28:13.33	359.41	9.04	-39.3	-41.3	19.0	0.00e+00	0	43	0	2966421504	49	4718
2026-01-26 10:28:14.32	359.30	8.98	-48.9	-61.0	3.8	3.85e-01	0	43	104	2970615808	68	15288
2026-01-26 10:28:15.32	359.20	8.91	-49.5	-61.9	3.8	8.47e-01	0	43	104	2970615808	69	16042
2026-01-26 10:28:16.31	359.09	8.85	-48.8	-62.0	3.8	8.46e-01	0	43	104	2970615808	69	16308
2026-01-26 10:28:17.30	358.98	8.78	-49.6	-62.1	3.8	8.45e-01	0	43	104	2970615808	70	15480
2026-01-26 10:28:18.30	358.87	8.72	-49.8	-62.2	3.8	8.47e-01	0	43	104	2970615808	70	15609
2026-01-26 10:28:19.29	358.77	8.66	-49.7	-62.2	3.8	8.46e-01	0	43	104	2970615808	70	15678
2026-01-26 10:28:20.28	358.66	8.59	-50.1	-62.2	3.8	8.47e-01	0	43	104	2970615808	70	15729
2026-01-26 10:28:21.28	358.56	8.53	-50.0	-62.3	3.8	8.47e-01	0	43	104	2970615808	70	15776
2026-01-26 10:28:22.27	358.45	8.46	-49.7	-62.2	3.8	8.48e-01	0	43	104	2970615808	70	15754
2026-01-26 10:28:23.26	358.35	8.40	-49.6	-62.3	3.8	8.46e-01	0	43	104	2970615808	70	15883
2026-01-26 10:28:24.26	358.25	8.34	-50.2	-62.3	3.8	8.47e-01	0	43	104	2970615808	71	15002
2026-01-26 10:28:25.25	358.14	8.27	-50.0	-62.3	3.8	8.46e-01	0	43	104	2970615808	71	15014
2026-01-26 10:28:26.24	358.04	8.21	-50.1	-62.3	3.8	8.46e-01	0	43	104	2970615808	71	15029
2026-01-26 10:28:27.24	357.94	8.15	-50.2	-62.4	3.8	8.46e-01	0	43	104	2970615808	71	15081
2026-01-26 10:28:28.23	357.84	8.08	-50.2	-62.3	3.8	8.47e-01	0	43	104	2970615808	71	14983
2026-01-26 10:28:29.22	357.73	8.02	-50.1	-62.4	3.8	8.47e-01	0	43	104	2970615808	71	15167
2026-01-26 10:28:30.22	357.63	7.96	-49.8	-62.4	3.8	8.46e-01	0	43	104	2970615808	71	15078
2026-01-26 10:28:31.21	357.53	7.90	-50.1	-62.4	3.8	8.48e-01	0	43	104	2970615808	71	15078
2026-01-26 10:28:32.20	357.43	7.83	-50.2	-62.4	3.8	8.47e-01	0	43	104	2970615808	71	15055
2026-01-26 10:28:33.20	357.33	7.77	-50.2	-62.4	3.8	8.47e-01	0	43	104	2970615808	71	15111
2026-01-26 10:28:34.19	357.23	7.71	-50.2	-62.4	3.8	8.46e-01	0	43	104	2970615808	71	15080
2026-01-26 10:28:35.18	357.14	7.64	-50.1	-62.3	3.8	8.47e-01	0	43	104	2970615808	71	15031
2026-01-26 10:28:36.18	357.04	7.58	-50.1	-62.4	3.8	8.47e-01	0	43	104	
