passes_logs/2026/01/26/T1/T1__20260126_085040_NOAA_21_JPSS-2_rec.log

#Pass ID: 20260126_085040_NOAA 21 (JPSS-2)
#Satellite: NOAA 21 (JPSS-2)
#Configuration: NOAA 21
#almurnet v.1.7.20251203
#Start time: 2026-01-26 08:50:39

#Version: 2.0.20230620
#Station: T1
#Location: 37.570604 lon 55.790049 lat
#TLE: 1 54234U 22150A   26025.79694208  .00000182  00000+0  10700-3 0  9999
#TLE: 2 54234  98.7509 326.5666 0000777 213.2444 146.8684 14.19539347166346

#Time	Az	El	Level	Level2	SNR	BER	BlckErr	Temp	State	Recorded	gain1	gain2
2026-01-26 08:50:39.76	126.24	4.98	-48.7	-61.9	3.8	1.49e+00	0	40	0	0	69	15988
2026-01-26 08:50:40.75	126.19	5.05	-48.8	-61.9	3.8	1.49e+00	0	40	104	0	69	15949
2026-01-26 08:50:41.75	126.13	5.12	-48.7	-61.8	3.8	1.49e+00	0	40	104	0	69	15849
2026-01-26 08:50:42.74	126.08	5.18	-48.8	-61.8	3.8	1.49e+00	0	40	104	0	69	15837
2026-01-26 08:50:43.73	126.02	5.25	-48.7	-61.8	3.8	1.49e+00	0	40	104	0	69	15857
2026-01-26 08:50:44.72	125.97	5.32	-48.7	-61.8	3.8	1.49e+00	0	40	104	0	69	15799
2026-01-26 08:50:45.72	125.91	5.39	-48.8	-61.7	3.8	1.49e+00	0	40	104	0	69	15724
2026-01-26 08:50:46.71	125.85	5.45	-48.7	-61.7	3.8	1.49e+00	0	41	104	0	69	15674
2026-01-26 08:50:47.70	125.80	5.52	-48.8	-61.7	3.8	1.49e+00	0	41	104	0	69	15694
2026-01-26 08:50:48.70	125.74	5.59	-48.7	-61.8	3.8	1.49e+00	0	41	104	0	69	15769
2026-01-26 08:50:49.69	125.68	5.65	-48.8	-61.8	3.8	1.49e+00	0	41	104	0	69	15778
2026-01-26 08:50:50.68	125.62	5.72	-48.8	-61.7	3.8	1.49e+00	0	41	104	0	69	15745
2026-01-26 08:50:51.68	125.56	5.79	-48.7	-61.8	3.8	1.49e+00	0	41	104	0	69	15907
2026-01-26 08:50:52.67	125.51	5.86	-48.8	-61.9	3.8	1.49e+00	0	41	104	0	69	15970
2026-01-26 08:50:53.66	125.45	5.93	-48.7	-61.9	3.8	1.49e+00	0	41	104	0	69	15978
2026-01-26 08:50:54.65	125.39	5.99	-48.8	-61.8	3.8	1.49e+00	0	41	104	0	69	15927
2026-01-26 08:50:55.65	125.33	6.06	-48.7	-61.9	3.8	1.49e+00	0	41	104	0	69	15982
2026-01-26 08:50:56.64	125.27	6.13	-48.7	-61.9	3.8	1.49e+00	0	41	104	0	69	15986
2026-01-26 08:50:57.63	125.21	6.20	-48.8	-61.8	3.8	1.49e+00	0	41	104	0	69	15880
2026-01-26 08:50:58.63	125.15	6.27	-48.7	-61.8	3.8	1.49e+00	0	41	104	0	69	15801
2026-01-26 08:50:59.62	125.09	6.34	-48.8	-61.7	3.8	1.49e+00	0	41	104	0	69	15687
2026-01-26 08:51:00.61	125.03	6.41	-48.7	-61.6	3.8	1.49e+00	0	41	104	0	69	15565
2026-01-26 08:51:01.61	124.97	6.48	-48.7	-61.5	3.8	1.49e+00	0	41	104	0	69	15344
2026-01-26 08:51:02.60	124.91	6.55	-48.7	-61.4	3.8	1.49e+00	0	41	104	0	69	15169
2026-01-26 08:51:03.59	124.85	6.62	-48.7	-61.3	3.8	1.49e+00	0	41	104	0	69	14985
2026-01-26 08:51:04.59	124.78	6.69	-48.6	-61.2	3.8	1.49e+00	0	41	104	0	69	14872
2026-01-26 08:51:05.58	124.72	6.76	-48.6	-61.2	3.8	1.49e+00	0	41	104	0	69	14844
2026-01-26 08:51:06.57	124.66	6.83	-48.6	-61.3	3.8	1.49e+00	0	41	104	0	69	14924
2026-01-26 08:51:07.57	124.60	6.90	-48.7	-61.4	3.8	1.49e+00	0	41	104	0	69	15102
2026-01-26 08:51:08.56	124.53	6.97	-48.7	-61.6	3.8	1.49e+00	0	41	104	0	69	15402
2026-01-26 08:51:09.55	124.47	7.04	-48.8	-61.7	3.8	1.49e+00	0	41	104	0	69	15750
2026-01-26 08:51:10.54	124.41	7.11	-48.8	-61.8	3.8	1.49e+00	0	41	104	0	69	15812
2026-01-26 08:51:11.54	124.34	7.18	-48.7	-61.7	3.8	1.49e+00	0	41	104	0	69	15737
2026-01-26 08:51:12.53	124.28	7.25	-48.7	-61.4	3.8	1.49e+00	0	41	104	0	69	15195
2026-01-26 08:51:13.52	124.21	7.32	-48.6	-61.0	3.8	1.49e+00	0	42	104	0	69	14417
2026-01-26 08:51:14.52	124.15	7.40	-48.6	-60.5	3.8	1.49e+00	0	41	104	0	69	13607
2026-01-26 08:51:15.51	124.08	7.47	-48.5	-59.8	3.9	1.49e+00	0	41	104	0	68	13303
2026-01-26 08:51:16.50	124.02	7.54	-48.4	-58.5	4.1	1.48e+00	0	42	104	0	68	11472
2026-01-26 08:51:17.50	123.95	7.61	-48.2	-57.2	4.5	1.32e+00	0	42	104	0	68	9922
2026-01-26 08:51:18.49	123.89	7.68	-47.8	-55.4	5.4	6.98e-01	0	42	0	0	67	8553
2026-01-26 08:51:19.48	123.82	7.76	-47.3	-53.5	6.9	2.75e-01	0	42	0	0	66	7266
2026-01-26 08:51:20.47	123.75	7.83	-46.5	-51.7	8.6	5.88e-02	0	42	0	0	65	6215
2026-01-26 08:51:21.47	123.68	7.90	-45.7	-49.8	10.7	5.56e-03	0	42	0	0	63	5622
2026-01-26 08:51:22.46	123.62	7.97	-44.7	-48.1	12.5	1.75e-04	0	42	0	0	61	5163
2026-01-26 08:51:23.45	123.55	8.05	-43.8	-46.6	13.9	6.80e-06	0	42	0	0	59	4897
2026-01-26 08:51:24.45	123.48	8.12	-42.9	-45.4	15.2	1.50e-06	0	42	0	0	57	4761
2026-01-26 08:51:25.44	123.41	8.19	-42.2	-44.6	15.9	0.00e+00	0	42	0	0	56	4613
2026-01-26 08:51:26.43	123.34	8.27	-41.5	-43.6	16.7	0.00e+00	0	42	0	0	55	4391
2026-01-26 08:51:27.43	123.27	8.34	-41.0	-43.1	17.2	0.00e+00	0	42	0	0	54	4368
2026-01-26 08:51:28.42	123.20	8.42	-40.9	-43.0	17.3	0.00e+00	0	42	0	0	53	4556
2026-01-26 08:51:29.41	123.13	8.49	-41.0	-43.0	17.3	0.00e+00	0	42	0	0	53	4590
2026-01-26 08:51:30.41	123.06	8.56	-41.2	-43.3	17.0	0.00e+00	0	42	0	0	53	4751
2026-01-26 08:51:31.40	122.99	8.64	-41.6	-43.8	16.6	0.00e+00	0	42	0	0	53	4994
2026-01-26 08:51:32.39	122.92	8.71	-42.4	-44.8	15.6	0.00e+00	0	42	0	0	55	4993
2026-01-26 08:51:33.39	122.85	8.79	-43.2	-45.9	14.7	0.00e+00	0	42	0	0	57	5055
2026-01-26 08:51:34.38	122.78	8.86	-44.3	-47.4	13.2	7.60e-06	0	42	0	0	59	5341
2026-01-26 08:51:35.37	122.70	8.94	-45.4	-49.1	11.4	4.82e-04	0	42	0	0	61	5832
2026-01-26 08:51:36.36	122.63	9.01	-46.3	-51.1	9.3	1.23e-02	0	42	0	0	63	6536
2026-01-26 08:51:37.36	122.56	9.09	-46.7	-52.2	8.1	7.48e-02	0	42	0	0	64	6962
2026-01-26 08:51:38.35	122.48	9.16	-45.3	-49.1	11.4	5.71e-03	0	42	0	0	62	5475
2026-01-26 08:51:39.35	122.41	9.24	-43.9	-46.8	13.9	0.00e+00	0	42	0	0	58	5300
2026-01-26 08:51:40.34	122.33	9.32	-48.3	-59.7	3.8	1.49e+00	0	42	104	0	67	13956
2026-01-26 08:51:41.33	122.26	9.39	-46.4	-51.3	9.0	3.83e-02	0	42	0	0	64	6304
2026-01-26 08:51:42.33	122.18	9.47	-47.5	-54.6	5.9	5.12e-01	0	42	0	0	66	8184
2026-01-26 08:51:43.32	122.11	9.55	-46.2	-51.0	9.3	1.69e-02	0	42	0	0	64	6086
2026-01-26 08:51:44.32	122.03	9.62	-45.8	-49.9	10.5	7.39e-03	0	42	0	0	63	5706
2026-01-26 08:51:45.32	121.95	9.70	-45.1	-48.8	11.7	9.31e-04	0	42	0	0	62	5294
2026-01-26 08:51:46.31	121.88	9.78	-44.3	-47.4	13.1	1.07e-04	0	42	0	0	60	5073
2026-01-26 08:51:47.31	121.80	9.86	-43.3	-46.0	14.5	1.50e-06	0	42	0	0	58	4863
2026-01-26 08:51:48.30	121.72	9.93	-42.4	-44.9	15.6	0.00e+00	0	42	0	0	56	4768
2026-01-26 08:51:49.30	121.64	10.01	-42.4	-44.8	15.7	0.00e+00	0	42	0	0	56	4707
2026-01-26 08:51:50.29	121.57	10.09	-41.6	-43.8	16.5	0.00e+00	0	42	0	0	55	4480
2026-01-26 08:51:51.29	121.49	10.17	-41.1	-43.2	17.1	0.00e+00	0	42	0	0	54	4426
2026-01-26 08:51:52.28	121.41	10.25	-40.6	-42.6	17.6	0.00e+00	0	42	0	0	53	4382
2026-01-26 08:51:53.28	121.33	10.33	-40.3	-42.2	18.0	0.00e+00	0	42	0	0	52	4431
2026-01-26 08:51:54.27	121.25	10.40	-40.0	-41.9	18.4	0.00e+00	0	42	0	0	51	4523
2026-01-26 08:51:55.27	121.16	10.48	-39.9	-41.7	18.6	0.00e+00	0	42	0	0	51	4437
2026-01-26 08:51:56.26	121.08	10.56	-39.9	-41.8	18.5	0.00e+00	0	42	0	0	51	4448
2026-01-26 08:51:57.26	121.00	10.64	-39.9	-41.7	18.5	0.00e+00	0	42	0	0	51	4441
2026-01-26 08:51:58.25	120.92	10.72	-39.9	-41.7	18.5	0.00e+00	0	42	0	0	51	4434
2026-01-26 08:51:59.24	120.84	10.80	-39.9	-41.7	18.5	0.00e+00	0	42	0	0	51	4441
2026-01-26 08:52:00.24	120.75	10.88	-39.9	-41.8	18.5	0.00e+00	0	42	0	0	51	4442
2026-01-26 08:52:01.24	120.67	10.96	-39.8	-41.6	18.6	0.00e+00	0	42	0	0	51	4369
2026-01-26 08:52:02.23	120.58	11.04	-39.7	-41.5	18.7	0.00e+00	0	42	0	0	51	4334
2026-01-26 08:52:03.23	120.50	11.12	-39.8	-41.7	18.6	0.00e+00	0	42	0	0	51	4395
2026-01-26 08:52:04.22	120.41	11.21	-39.8	-41.6	18.6	0.00e+00	0	42	0	0	51	4387
2026-01-26 08:52:05.22	120.33	11.29	-39.7	-41.6	18.6	0.00e+00	0	42	0	0	51	4374
2026-01-26 08:52:06.21	120.24	11.37	-39.7	-41.5	18.7	0.00e+00	0	42	0	0	51	4330
2026-01-26 08:52:07.20	120.16	11.45	-39.7	-41.6	18.7	0.00e+00	0	42	0	0	51	4341
2026-01-26 08:52:08.20	120.07	11.53	-39.8	-41.7	18.6	0.00e+00	0	42	0	0	51	4404
2026-01-26 08:52:09.19	119.98	11.61	-39.8	-41.6	18.6	0.00e+00	0	42	0	0	51	4391
2026-01-26 08:52:10.19	119.89	11.70	-39.5	-41.4	18.9	0.00e+00	0	42	0	0	51	4252
2026-01-26 08:52:11.19	119.80	11.78	-39.5	-41.4	18.9	0.00e+00	0	42	0	0	51	4249
2026-01-26 08:52:12.18	119.72	11.86	-39.5	-41.3	18.9	0.00e+00	0	42	0	0	51	4229
2026-01-26 08:52:13.18	119.63	11.94	-39.5	-41.4	18.9	0.00e+00	0	42	0	0	51	4250
2026-01-26 08:52:14.18	119.53	12.03	-39.6	-41.4	18.8	0.00e+00	0	42	0	0	51	4282
2026-01-26 08:52:15.17	119.44	12.11	-39.6	-41.4	18.8	0.00e+00	0	42	0	0	51	4277
2026-01-26 08:52:16.17	119.35	12.19	-39.6	-41.4	18.9	0.00e+00	0	42	0	0	51	4265
2026-01-26 08:52:17.17	119.26	12.28	-39.6	-41.5	18.8	0.00e+00	0	42	0	0	51	4298
2026-01-26 08:52:18.16	119.17	12.36	-39.4	-41.2	19.1	0.00e+00	0	42	0	0	50	4394
2026-01-26 08:52:19.16	119.08	12.45	-39.3	-41.1	19.1	0.00e+00	0	42	0	0	50	4366
2026-01-26 08:52:20.16	118.98	12.53	-39.4	-41.2	19.0	0.00e+00	0	43	0	0	50	4420
2026-01-26 08:52:21.15	118.89	12.61	-39.4	-41.2	19.0	0.00e+00	0	42	0	0	50	4426
2026-01-26 08:52:22.15	118.79	12.70	-39.3	-41.1	19.1	0.00e+00	0	43	0	0	50	4363
2026-01-26 08:52:23.14	118.70	12.78	-39.2	-41.0	19.2	0.00e+00	0	43	0	0	50	4297
2026-01-26 08:52:24.13	118.60	12.87	-39.2	-41.0	19.2	0.00e+00	0	42	0	0	50	4298
2026-01-26 08:52:25.13	118.51	12.95	-39.2	-41.0	19.1	0.00e+00	0	42	0	0	50	4324
2026-01-26 08:52:26.13	118.41	13.04	-39.3	-41.1	19.1	0.00e+00	0	42	0	0	50	4363
2026-01-26 08:52:27.12	118.31	13.13	-39.2	-41.0	19.2	0.00e+00	0	42	0	0	50	4319
2026-01-26 08:52:28.12	118.21	13.21	-39.2	-41.0	19.2	0.00e+00	0	43	0	0	50	4317
2026-01-26 08:52:29.11	118.12	13.30	-39.3	-41.1	19.1	0.00e+00	0	42	0	0	50	4386
2026-01-26 08:52:30.11	118.02	13.39	-39.3	-41.1	19.1	0.00e+00	0	42	0	0	50	4356
2026-01-26 08:52:31.10	117.92	13.47	-39.4	-41.2	19.1	0.00e+00	0	43	0	0	50	4400
2026-01-26 08:52:32.10	117.82	13.56	-39.2	-40.9	19.3	0.00e+00	0	43	0	0	50	4287
2026-01-26 08:52:33.09	117.72	13.65	-39.1	-40.8	19.3	0.00e+00	0	43	0	0	50	4240
2026-01-26 08:52:34.09	117.61	13.73	-39.1	-40.9	19.4	0.00e+00	0	43	0	0	50	4244
2026-01-26 08:52:35.08	117.51	13.82	-39.1	-40.9	19.3	0.00e+00	0	43	0	0	50	4258
2026-01-26 08:52:36.08	117.41	13.91	-39.1	-40.8	19.4	0.00e+00	0	42	0	0	50	4227
2026-01-26 08:52:37.07	117.31	14.00	-38.9	-40.7	19.5	0.00e+00	0	42	0	0	49	4399
2026-01-26 08:52:38.07	117.20	14.09	-39.0	-40.8	19.4	0.00e+00	0	43	0	0	49	4459
2026-01-26 08:52:39.06	117.10	14.17	-39.1	-40.9	19.2	0.00e+00	0	43	0	0	49	4505
2026-01-26 08:52:40.06	116.99	14.26	-39.1	-40.8	19.3	0.00e+00	0	42	0	0	49	4492
2026-01-26 08:52:41.06	116.89	14.35	-39.1	-40.9	19.3	0.00e+00	0	42	0	0	49	4496
2026-01-26 08:52:42.05	116.78	14.44	-39.1	-40.9	19.2	0.00e+00	0	43	0	0	49	4528
2026-01-26 08:52:43.05	116.67	14.53	-39.2	-40.9	19.2	0.00e+00	0	43	0	0	49	4531
2026-01-26 08:52:44.04	116.56	14.62	-39.1	-40.8	19.3	0.00e+00	0	43	0	0	49	4480
2026-01-26 08:52:45.04	116.45	14.71	-39.0	-40.8	19.4	0.00e+00	0	43	0	0	49	4459
2026-01-26 08:52:46.03	116.35	14.80	-39.0	-40.7	19.5	0.00e+00	0	43	0	0	49	4424
2026-01-26 08:52:47.03	116.24	14.89	-39.0	-40.8	19.4	0.00e+00	0	43	0	0	49	4444
2026-01-26 08:52:48.02	116.13	14.98	-39.0	-40.8	19.4	0.00e+00	0	43	0	0	49	4458
2026-01-26 08:52:49.02	116.01	15.07	-39.1	-40.8	19.4	0.00e+00	0	43	0	0	49	4474
2026-01-26 08:52:50.01	115.90	15.16	-39.2	-41.0	19.3	0.00e+00	0	43	0	0	49	4557
2026-01-26 08:52:51.01	115.79	15.25	-39.2	-41.0	19.2	0.00e+00	0	43	0	0	49	4580
2026-01-26 08:52:52.00	115.68	15.35	-39.3	-41.1	19.1	0.00e+00	0	43	0	0	49	4600
2026-01-26 08:52:53.00	115.56	15.44	-39.0	-40.8	19.4	0.00e+00	0	43	0	0	49	4453
2026-01-26 08:52:53.99	115.45	15.53	-39.1	-40.8	19.4	0.00e+00	0	43	0	0	49	4477
2026-01-26 08:52:54.99	115.33	15.62	-39.2	-40.9	19.3	0.00e+00	0	43	0	0	49	4524
2026-01-26 08:52:55.98	115.22	15.71	-39.1	-40.8	19.4	0.00e+00	0	43	0	0	49	4482
2026-01-26 08:52:56.98	115.10	15.81	-39.1	-40.8	19.4	0.00e+00	0	43	0	0	49	4469
2026-01-26 08:52:57.97	114.98	15.90	-39.1	-40.9	19.3	0.00e+00	0	43	0	0	49	4514
2026-01-26 08:52:58.96	114.86	15.99	-39.0	-40.8	19.4	0.00e+00	0	43	0	0	49	4450
2026-01-26 08:52:59.96	114.74	16.09	-39.1	-40.8	19.3	0.00e+00	0	43	0	0	49	4463
2026-01-26 08:53:00.95	114.62	16.18	-39.1	-40.8	19.3	0.00e+00	0	43	0	0	49	4488
2026-01-26 08:53:01.94	114.50	16.27	-39.2	-41.0	19.2	0.00e+00	0	43	0	0	49	4553
2026-01-26 08:53:02.94	114.38	16.37	-39.3	-41.1	19.1	0.00e+00	0	43	0	0	49	4603
2026-01-26 08:53:03.93	114.26	16.46	-39.3	-41.1	19.1	0.00e+00	0	43	0	0	49	4619
2026-01-26 08:53:04.93	114.14	16.56	-39.4	-41.2	19.0	0.00e+00	0	43	0	0	49	4680
2026-01-26 08:53:05.92	114.01	16.65	-39.4	-41.2	19.0	0.00e+00	0	43	0	0	49	4690
2026-01-26 08:53:06.92	113.89	16.74	-39.3	-41.1	19.1	0.00e+00	0	43	0	0	49	4625
2026-01-26 08:53:07.91	113.76	16.84	-39.3	-41.1	19.1	0.00e+00	0	43	0	0	49	4648
2026-01-26 08:53:08.91	113.64	16.94	-39.4	-41.2	19.1	0.00e+00	0	42	0	0	49	4662
2026-01-26 08:53:09.91	113.51	17.03	-39.4	-41.2	19.0	0.00e+00	0	43	0	0	49	4689
2026-01-26 08:53:10.90	113.38	17.13	-39.3	-41.1	19.1	0.00e+00	0	43	0	0	49	4637
2026-01-26 08:53:11.90	113.25	17.22	-39.3	-41.0	19.2	0.00e+00	0	43	0	0	49	4598
2026-01-26 08:53:12.89	113.12	17.32	-39.1	-40.9	19.3	0.00e+00	0	43	0	0	49	4528
2026-01-26 08:53:13.89	112.99	17.42	-39.1	-40.9	19.3	0.00e+00	0	43	0	0	49	4516
2026-01-26 08:53:14.88	112.86	17.51	-39.2	-41.0	19.2	0.00e+00	0	43	0	0	49	4574
2026-01-26 08:53:15.88	112.73	17.61	-39.2	-41.0	19.2	0.00e+00	0	43	0	0	49	4571
2026-01-26 08:53:16.87	112.60	17.71	-39.3	-41.1	19.1	0.00e+00	0	42	0	0	49	4624
2026-01-26 08:53:17.87	112.46	17.80	-39.3	-41.1	19.1	0.00e+00	0	43	0	0	49	4635
2026-01-26 08:53:18.87	112.33	17.90	-39.3	-41.1	19.1	0.00e+00	0	43	0	0	49	4625
2026-01-26 08:53:19.86	112.19	18.00	-39.2	-41.0	19.1	0.00e+00	0	43	0	0	49	4578
2026-01-26 08:53:20.86	112.05	18.10	-39.3	-41.1	19.1	0.00e+00	0	43	0	0	49	4643
2026-01-26 08:53:21.86	111.92	18.20	-39.2	-41.0	19.2	0.00e+00	0	43	0	0	49	4575
2026-01-26 08:53:22.85	111.78	18.30	-39.2	-41.0	19.2	0.00e+00	0	43	0	0	49	4576
2026-01-26 08:53:23.85	111.64	18.39	-39.3	-41.1	19.2	0.00e+00	0	43	0	0	49	4627
2026-01-26 08:53:24.84	111.50	18.49	-39.2	-41.0	19.3	0.00e+00	0	43	0	0	49	4558
2026-01-26 08:53:25.84	111.36	18.59	-39.0	-40.7	19.5	0.00e+00	0	43	0	0	49	4437
2026-01-26 08:53:26.83	111.22	18.69	-38.9	-40.7	19.6	0.00e+00	0	43	0	0	49	4416
2026-01-26 08:53:27.83	111.07	18.79	-38.9	-40.7	19.6	0.00e+00	0	43	0	0	49	4402
2026-01-26 08:53:28.82	110.93	18.89	-38.8	-40.5	19.7	0.00e+00	0	43	0	0	49	4319
2026-01-26 08:53:29.82	110.78	18.99	-38.8	-40.5	19.7	0.00e+00	0	43	0	0	49	4318
2026-01-26 08:53:30.81	110.64	19.09	-38.9	-40.6	19.6	0.00e+00	0	43	0	0	49	4374
2026-01-26 08:53:31.81	110.49	19.19	-38.8	-40.5	19.7	0.00e+00	0	43	0	0	49	4311
2026-01-26 08:53:32.80	110.34	19.29	-38.7	-40.4	19.8	0.00e+00	0	43	0	0	49	4282
2026-01-26 08:53:33.80	110.20	19.39	-38.7	-40.4	19.8	0.00e+00	0	43	0	0	49	4270
2026-01-26 08:53:34.79	110.05	19.49	-38.6	-40.3	19.8	0.00e+00	0	43	0	0	49	4231
2026-01-26 08:53:35.79	109.89	19.60	-38.7	-40.4	19.8	0.00e+00	0	43	0	0	49	4276
2026-01-26 08:53:36.78	109.74	19.70	-38.7	-40.4	19.8	0.00e+00	0	43	0	0	49	4245
2026-01-26 08:53:37.78	109.59	19.80	-38.7	-40.4	19.8	0.00e+00	0	43	0	0	49	4285
2026-01-26 08:53:38.77	109.44	19.90	-38.6	-40.3	19.9	0.00e+00	0	43	0	0	49	4237
2026-01-26 08:53:39.77	109.28	20.00	-38.5	-40.2	20.0	0.00e+00	0	43	0	0	49	4178
2026-01-26 08:53:40.76	109.13	20.10	-38.5	-40.1	20.1	0.00e+00	0	43	0	0	48	4388
2026-01-26 08:53:41.75	108.97	20.21	-38.3	-39.9	20.3	0.00e+00	0	43	0	0	48	4283
2026-01-26 08:53:42.75	108.81	20.31	-38.2	-39.8	20.4	0.00e+00	0	43	0	0	48	4222
2026-01-26 08:53:43.75	108.65	20.41	-38.1	-39.8	20.4	0.00e+00	0	43	0	0	48	4197
2026-01-26 08:53:44.74	108.49	20.52	-38.1	-39.8	20.4	0.00e+00	0	43	0	0	48	4221
2026-01-26 08:53:45.74	108.33	20.62	-38.1	-39.7	20.5	0.00e+00	0	43	0	0	48	4173
2026-01-26 08:53:46.73	108.17	20.72	-38.0	-39.6	20.5	0.00e+00	0	43	0	0	48	4126
2026-01-26 08:53:47.73	108.00	20.83	-37.8	-39.5	20.4	0.00e+00	0	43	0	0	47	4320
2026-01-26 08:53:48.73	107.84	20.93	-37.9	-39.5	20.4	0.00e+00	0	43	0	0	47	4332
2026-01-26 08:53:49.72	107.67	21.03	-37.8	-39.4	20.5	0.00e+00	0	43	0	0	47	4282
2026-01-26 08:53:50.72	107.51	21.14	-37.8	-39.5	20.5	0.00e+00	0	43	0	0	47	4324
2026-01-26 08:53:51.71	107.34	21.24	-37.9	-39.5	20.4	0.00e+00	0	43	0	0	47	4332
2026-01-26 08:53:52.71	107.17	21.35	-37.9	-39.6	20.4	0.00e+00	0	43	0	0	47	4355
2026-01-26 08:53:53.70	107.00	21.45	-37.8	-39.4	20.5	0.00e+00	0	43	0	0	47	4284
2026-01-26 08:53:54.69	106.83	21.56	-37.8	-39.5	20.5	0.00e+00	0	43	0	0	47	4309
2026-01-26 08:53:55.69	106.66	21.66	-37.9	-39.6	20.4	0.00e+00	0	43	0	0	47	4343
2026-01-26 08:53:56.68	106.48	21.77	-37.8	-39.5	20.5	0.00e+00	0	43	0	0	47	4292
2026-01-26 08:53:57.68	106.31	21.87	-37.8	-39.5	20.4	0.00e+00	0	43	0	0	47	4306
2026-01-26 08:53:58.68	106.13	21.98	-37.9	-39.6	20.4	0.00e+00	0	43	0	0	47	4359
2026-01-26 08:53:59.67	105.95	22.08	-37.8	-39.5	20.5	0.00e+00	0	43	0	0	47	4312
2026-01-26 08:54:00.66	105.78	22.19	-37.9	-39.5	20.5	0.00e+00	0	43	0	0	47	4325
2026-01-26 08:54:01.66	105.59	22.29	-38.0	-39.6	20.3	0.00e+00	0	43	0	0	47	4371
2026-01-26 08:54:02.66	105.41	22.40	-38.0	-39.7	20.3	0.00e+00	0	43	0	0	47	4404
2026-01-26 08:54:03.65	105.23	22.51	-38.1	-39.8	20.1	0.00e+00	0	43	0	0	47	4450
2026-01-26 08:54:04.64	105.05	22.61	-38.2	-39.8	20.1	0.00e+00	0	43	0	0	47	4493
2026-01-26 08:54:05.64	104.86	22.72	-38.2	-39.9	20.0	0.00e+00	0	43	0	0	47	4541
2026-01-26 08:54:06.63	104.68	22.82	-38.2	-39.9	20.1	0.00e+00	0	43	0	0	47	4525
2026-01-26 08:54:07.63	104.49	22.93	-38.2	-39.9	20.1	0.00e+00	0	43	0	0	47	4511
2026-01-26 08:54:08.62	104.30	23.04	-37.9	-39.6	20.4	0.00e+00	0	43	0	0	47	4360
2026-01-26 08:54:09.62	104.11	23.14	-37.9	-39.5	20.5	0.00e+00	0	43	0	0	47	4313
2026-01-26 08:54:10.61	103.92	23.25	-37.9	-39.5	20.5	0.00e+00	0	43	0	0	47	4334
2026-01-26 08:54:11.61	103.73	23.36	-37.7	-39.4	20.6	0.00e+00	0	43	0	0	47	4256
2026-01-26 08:54:12.60	103.53	23.46	-37.8	-39.5	20.5	0.00e+00	0	43	0	0	47	4298
2026-01-26 08:54:13.60	103.34	23.57	-37.7	-39.4	20.6	0.00e+00	0	43	0	0	47	4243
2026-01-26 08:54:14.59	103.14	23.68	-37.9	-39.5	20.4	0.00e+00	0	43	0	0	47	4312
2026-01-26 08:54:15.58	102.94	23.79	-37.8	-39.5	20.4	0.00e+00	0	43	0	0	47	4302
2026-01-26 08:54:16.58	102.74	23.89	-37.9	-39.6	20.3	0.00e+00	0	43	0	0	47	4347
2026-01-26 08:54:17.58	102.54	24.00	-37.9	-39.6	20.3	0.00e+00	0	43	0	0	47	4350
2026-01-26 08:54:18.57	102.34	24.11	-38.0	-39.6	20.4	0.00e+00	0	43	0	0	47	4374
2026-01-26 08:54:19.57	102.14	24.22	-37.9	-39.6	20.4	0.00e+00	0	43	0	0	47	4364
2026-01-26 08:54:20.56	101.93	24.32	-38.0	-39.6	20.4	0.00e+00	0	43	0	0	47	4379
2026-01-26 08:54:21.56	101.72	24.43	-37.9	-39.6	20.4	0.00e+00	0	43	0	0	47	4355
2026-01-26 08:54:22.55	101.52	24.54	-38.0	-39.7	20.3	0.00e+00	0	43	0	0	47	4424
2026-01-26 08:54:23.55	101.31	24.65	-38.0	-39.6	20.4	0.00e+00	0	43	0	0	47	4383
2026-01-26 08:54:24.54	101.10	24.75	-38.1	-39.7	20.2	0.00e+00	0	43	0	0	47	4435
2026-01-26 08:54:25.54	100.88	24.86	-38.1	-39.8	20.2	0.00e+00	0	43	0	0	47	4448
2026-01-26 08:54:26.53	100.67	24.97	-38.0	-39.7	20.3	0.00e+00	0	43	0	0	47	4399
2026-01-26 08:54:27.53	100.46	25.08	-38.1	-39.8	20.1	0.00e+00	0	43	0	0	47	4479
2026-01-26 08:54:28.52	100.24	25.18	-38.2	-39.9	20.1	0.00e+00	0	43	0	0	47	4506
2026-01-26 08:54:29.52	100.02	25.29	-38.3	-40.0	20.0	0.00e+00	0	43	0	0	47	4552
2026-01-26 08:54:30.51	99.80	25.40	-38.4	-40.1	20.0	0.00e+00	0	43	0	0	47	4613
2026-01-26 08:54:31.51	99.58	25.51	-38.5	-40.2	19.9	0.00e+00	0	43	0	0	47	4687
2026-01-26 08:54:32.50	99.36	25.61	-38.4	-40.2	20.0	0.00e+00	0	43	0	0	47	4654
2026-01-26 08:54:33.49	99.14	25.72	-38.3	-40.0	20.1	0.00e+00	0	43	0	0	47	4589
2026-01-26 08:54:34.49	98.91	25.83	-38.4	-40.1	20.0	0.00e+00	0	43	0	0	47	4619
2026-01-26 08:54:35.48	98.68	25.94	-38.5	-40.2	19.9	0.00e+00	0	43	0	0	47	4689
2026-01-26 08:54:36.48	98.45	26.04	-38.6	-40.3	19.8	0.00e+00	0	43	0	0	47	4756
2026-01-26 08:54:37.47	98.22	26.15	-38.6	-40.4	19.8	0.00e+00	0	43	0	0	47	4766
2026-01-26 08:54:38.47	97.99	26.26	-38.9	-40.6	19.7	0.00e+00	0	43	0	0	48	4624
2026-01-26 08:54:39.46	97.76	26.37	-38.9	-40.6	19.7	0.00e+00	0	43	0	0	48	4647
2026-01-26 08:54:40.46	97.52	26.47	-38.8	-40.5	19.9	0.00e+00	0	43	0	0	48	4556
2026-01-26 08:54:41.46	97.28	26.58	-38.9	-40.6	19.8	0.00e+00	0	43	0	0	48	4620
2026-01-26 08:54:42.45	97.05	26.69	-38.9	-40.6	19.7	0.00e+00	0	43	0	0	48	4636
2026-01-26 08:54:43.45	96.81	26.79	-38.8	-40.5	19.8	0.00e+00	0	43	0	0	48	4569
2026-01-26 08:54:44.44	96.57	26.90	-38.9	-40.6	19.7	0.00e+00	0	43	0	0	48	4632
2026-01-26 08:54:45.44	96.32	27.01	-38.8	-40.5	19.8	0.00e+00	0	43	0	0	48	4583
2026-01-26 08:54:46.44	96.07	27.11	-38.8	-40.5	19.8	0.00e+00	0	43	0	0	48	4573
2026-01-26 08:54:47.43	95.83	27.22	-38.8	-40.5	19.8	0.00e+00	0	43	0	0	48	4590
2026-01-26 08:54:48.42	95.58	27.32	-38.8	-40.5	19.8	0.00e+00	0	43	0	0	48	4579
2026-01-26 08:54:49.42	95.33	27.43	-38.7	-40.3	20.0	0.00e+00	0	43	0	0	48	4493
2026-01-26 08:54:50.41	95.08	27.53	-38.6	-40.3	20.0	0.00e+00	0	43	0	0	48	4459
2026-01-26 08:54:51.41	94.83	27.64	-38.4	-40.1	20.2	0.00e+00	0	43	0	0	48	4375
2026-01-26 08:54:52.40	94.57	27.74	-38.5	-40.2	20.1	0.00e+00	0	43	0	0	48	4401
2026-01-26 08:54:53.40	94.32	27.85	-38.5	-40.2	20.0	0.00e+00	0	43	0	0	48	4411
2026-01-26 08:54:54.40	94.06	27.95	-38.3	-40.0	20.2	0.00e+00	0	43	0	0	48	4316
2026-01-26 08:54:55.39	93.80	28.06	-38.3	-40.0	20.2	0.00e+00	0	43	0	0	48	4293
2026-01-26 08:54:56.39	93.54	28.16	-38.4	-40.1	20.1	0.00e+00	0	43	0	0	48	4343
2026-01-26 08:54:57.38	93.27	28.27	-38.3	-40.0	20.2	0.00e+00	0	43	0	0	48	4292
2026-01-26 08:54:58.38	93.01	28.37	-38.3	-40.0	20.2	0.00e+00	0	43	0	0	48	4306
2026-01-26 08:54:59.37	92.74	28.47	-38.4	-40.0	20.2	0.00e+00	0	43	0	0	48	4333
2026-01-26 08:55:00.37	92.47	28.58	-38.5	-40.2	20.0	0.00e+00	0	43	0	0	48	4413
2026-01-26 08:55:01.36	92.20	28.68	-38.7	-40.4	19.8	0.00e+00	0	43	0	0	48	4536
2026-01-26 08:55:02.36	91.93	28.78	-38.8	-40.5	19.7	0.00e+00	0	43	0	0	48	4582
2026-01-26 08:55:03.35	91.66	28.88	-39.0	-40.7	19.5	0.00e+00	0	43	0	0	48	4688
2026-01-26 08:55:04.35	91.38	28.98	-39.0	-40.8	19.5	0.00e+00	0	43	0	0	48	4714
2026-01-26 08:55:05.34	91.11	29.08	-38.8	-40.6	19.7	0.00e+00	0	43	0	0	48	4617
2026-01-26 08:55:06.33	90.83	29.18	-38.7	-40.5	19.8	0.00e+00	0	43	0	0	48	4563
2026-01-26 08:55:07.33	90.55	29.28	-38.6	-40.4	19.9	0.00e+00	0	43	0	0	48	4496
2026-01-26 08:55:08.32	90.27	29.38	-38.6	-40.3	20.0	0.00e+00	0	43	0	0	48	4484
2026-01-26 08:55:09.31	89.98	29.48	-38.5	-40.2	20.1	0.00e+00	0	43	0	0	48	4417
2026-01-26 08:55:10.31	89.70	29.58	-38.6	-40.3	20.1	0.00e+00	0	43	0	0	48	4452
2026-01-26 08:55:11.30	89.41	29.68	-38.5	-40.2	20.1	0.00e+00	0	43	0	0	48	4437
2026-01-26 08:55:12.30	89.12	29.78	-38.4	-40.1	20.2	0.00e+00	0	43	0	0	48	4386
2026-01-26 08:55:13.29	88.83	29.87	-38.4	-40.1	20.2	0.00e+00	0	43	0	0	48	4382
2026-01-26 08:55:14.28	88.54	29.97	-38.4	-40.1	20.2	0.00e+00	0	43	0	0	48	4366
2026-01-26 08:55:15.28	88.24	30.07	-38.4	-40.1	20.2	0.00e+00	0	43	0	0	48	4364
2026-01-26 08:55:16.27	87.95	30.16	-38.4	-40.0	20.2	0.00e+00	0	43	0	0	48	4338
2026-01-26 08:55:17.27	87.65	30.26	-38.6	-40.3	19.9	0.00e+00	0	43	0	0	48	4473
2026-01-26 08:55:18.26	87.35	30.35	-38.7	-40.4	19.9	0.00e+00	0	43	0	0	48	4536
2026-01-26 08:55:19.26	87.05	30.45	-38.8	-40.6	19.8	0.00e+00	0	43	0	0	48	4604
2026-01-26 08:55:20.25	86.74	30.54	-38.8	-40.6	19.8	0.00e+00	0	43	0	0	48	4614
2026-01-26 08:55:21.25	86.44	30.63	-38.9	-40.7	19.7	0.00e+00	0	43	0	0	48	4653
2026-01-26 08:55:22.24	86.13	30.73	-38.8	-40.5	19.9	0.00e+00	0	43	0	0	48	4576
2026-01-26 08:55:23.24	85.82	30.82	-38.8	-40.5	19.8	0.00e+00	0	43	0	0	48	4593
2026-01-26 08:55:24.23	85.51	30.91	-38.8	-40.5	19.8	0.00e+00	0	43	0	0	48	4594
2026-01-26 08:55:25.23	85.20	31.00	-38.8	-40.6	19.8	0.00e+00	0	43	0	0	48	4605
2026-01-26 08:55:26.22	84.89	31.09	-38.7	-40.4	20.0	0.00e+00	0	43	0	0	48	4502
2026-01-26 08:55:27.22	84.57	31.18	-38.7	-40.4	20.0	0.00e+00	0	43	0	0	48	4517
2026-01-26 08:55:28.22	84.25	31.27	-38.6	-40.3	20.0	0.00e+00	0	43	0	0	48	4487
2026-01-26 08:55:29.21	83.93	31.35	-38.7	-40.4	20.0	0.00e+00	0	43	0	0	48	4507
2026-01-26 08:55:30.21	83.61	31.44	-38.6	-40.3	20.0	0.00e+00	0	43	0	0	48	4475
2026-01-26 08:55:31.21	83.29	31.53	-38.8	-40.6	19.8	0.00e+00	0	43	0	0	48	4599
2026-01-26 08:55:32.20	82.96	31.61	-39.0	-40.7	19.6	0.00e+00	0	43	0	0	48	4700
2026-01-26 08:55:33.19	82.64	31.70	-39.2	-41.0	19.5	0.00e+00	0	43	0	0	49	4546
2026-01-26 08:55:34.19	82.31	31.78	-39.3	-41.1	19.3	0.00e+00	0	43	0	0	49	4641
2026-01-26 08:55:35.18	81.98	31.86	-39.3	-41.1	19.4	0.00e+00	0	43	0	0	49	4635
2026-01-26 08:55:36.18	81.65	31.94	-39.4	-41.2	19.3	0.00e+00	0	43	0	0	49	4672
2026-01-26 08:55:37.17	81.32	32.03	-39.5	-41.3	19.2	0.00e+00	0	43	0	0	49	4707
2026-01-26 08:55:38.17	80.98	32.11	-39.4	-41.1	19.3	0.00e+00	0	43	0	0	49	4651
2026-01-26 08:55:39.16	80.65	32.18	-39.3	-41.1	19.4	0.00e+00	0	43	0	0	49	4630
2026-01-26 08:55:40.16	80.31	32.26	-39.3	-41.1	19.4	0.00e+00	0	43	0	0	49	4607
2026-01-26 08:55:41.15	79.97	32.34	-39.2	-41.0	19.5	0.00e+00	0	43	0	0	49	4547
2026-01-26 08:55:42.14	79.63	32.42	-39.1	-40.8	19.7	0.00e+00	0	43	0	0	49	4484
2026-01-26 08:55:43.14	79.29	32.49	-39.1	-40.8	19.6	0.00e+00	0	43	0	0	49	4489
2026-01-26 08:55:44.13	78.95	32.57	-39.1	-40.8	19.7	0.00e+00	0	43	0	0	49	4473
2026-01-26 08:55:45.13	78.60	32.64	-39.3	-41.0	19.5	0.00e+00	0	43	0	0	49	4575
2026-01-26 08:55:46.12	78.25	32.71	-39.3	-41.1	19.4	0.00e+00	0	43	0	0	49	4621
2026-01-26 08:55:47.11	77.91	32.78	-39.3	-41.1	19.4	0.00e+00	0	43	0	0	49	4613
2026-01-26 08:55:48.11	77.56	32.86	-39.4	-41.1	19.1	0.00e+00	0	43	0	0	49	4638
2026-01-26 08:55:49.11	77.20	32.92	-39.4	-41.1	19.4	0.00e+00	0	43	0	0	49	4643
2026-01-26 08:55:50.10	76.85	32.99	-39.4	-41.1	19.4	0.00e+00	0	43	0	0	49	4651
2026-01-26 08:55:51.09	76.50	33.06	-39.4	-41.1	19.3	0.00e+00	0	43	0	0	49	4648
2026-01-26 08:55:52.09	76.14	33.13	-39.4	-41.2	19.3	0.00e+00	0	43	0	0	49	4687
2026-01-26 08:55:53.08	75.78	33.19	-39.4	-41.1	19.3	0.00e+00	0	43	0	0	49	4651
2026-01-26 08:55:54.08	75.42	33.26	-39.6	-41.4	19.1	0.00e+00	0	43	0	0	49	4773
2026-01-26 08:55:55.07	75.06	33.32	-39.7	-41.6	19.0	0.00e+00	0	43	0	0	50	4604
2026-01-26 08:55:56.07	74.70	33.38	-39.8	-41.6	18.9	0.00e+00	0	43	0	0	50	4609
2026-01-26 08:55:57.06	74.34	33.44	-39.8	-41.6	18.9	0.00e+00	0	43	0	0	50	4621
2026-01-26 08:55:58.06	73.97	33.50	-39.9	-41.7	18.9	0.00e+00	0	43	0	0	50	4670
2026-01-26 08:55:59.05	73.61	33.56	-39.8	-41.6	19.0	0.00e+00	0	43	0	0	50	4605
2026-01-26 08:56:00.05	73.24	33.61	-39.7	-41.5	19.0	0.00e+00	0	43	0	0	50	4579
2026-01-26 08:56:01.04	72.87	33.67	-39.7	-41.5	19.0	0.00e+00	0	43	0	0	50	4590
2026-01-26 08:56:02.03	72.51	33.72	-39.6	-41.4	19.1	0.00e+00	0	43	0	0	50	4527
2026-01-26 08:56:03.03	72.13	33.78	-39.6	-41.4	19.2	0.00e+00	0	43	0	0	50	4506
2026-01-26 08:56:04.02	71.76	33.83	-39.7	-41.5	19.1	0.00e+00	0	43	0	0	50	4572
2026-01-26 08:56:05.02	71.39	33.88	-39.7	-41.5	19.1	0.00e+00	0	43	0	0	50	4550
2026-01-26 08:56:06.01	71.02	33.93	-39.6	-41.4	19.2	0.00e+00	0	43	0	0	50	4509
2026-01-26 08:56:07.01	70.64	33.98	-39.6	-41.4	19.0	0.00e+00	0	43	0	0	50	4526
2026-01-26 08:56:08.00	70.26	34.02	-39.7	-41.5	19.0	0.00e+00	0	43	0	0	50	4583
2026-01-26 08:56:09.00	69.88	34.07	-39.8	-41.6	18.9	0.00e+00	0	43	0	0	50	4624
2026-01-26 08:56:09.99	69.51	34.11	-40.1	-41.9	18.7	0.00e+00	0	43	0	0	50	4794
2026-01-26 08:56:10.99	69.13	34.15	-40.1	-41.9	18.6	0.00e+00	0	43	0	0	50	4799
2026-01-26 08:56:11.98	68.75	34.19	-40.1	-42.0	18.6	0.00e+00	0	43	0	0	50	4825
2026-01-26 08:56:12.98	68.36	34.23	-39.9	-41.7	18.9	0.00e+00	0	43	0	0	50	4661
2026-01-26 08:56:13.97	67.98	34.27	-39.8	-41.6	18.7	0.00e+00	0	43	0	0	50	4620
2026-01-26 08:56:14.97	67.60	34.31	-39.9	-41.7	18.9	0.00e+00	0	43	0	0	50	4654
2026-01-26 08:56:15.96	67.22	34.35	-40.0	-41.9	18.7	0.00e+00	0	43	0	0	50	4768
2026-01-26 08:56:16.95	66.83	34.38	-39.9	-41.7	18.9	0.00e+00	0	43	0	0	50	4659
2026-01-26 08:56:17.95	66.44	34.41	-39.9	-41.7	18.9	0.00e+00	0	43	0	0	50	4669
2026-01-26 08:56:18.95	66.06	34.44	-39.8	-41.6	19.0	0.00e+00	0	43	0	0	50	4627
2026-01-26 08:56:19.94	65.67	34.47	-39.8	-41.6	19.1	0.00e+00	0	43	0	0	50	4605
2026-01-26 08:56:20.93	65.28	34.50	-39.8	-41.6	19.0	0.00e+00	0	43	0	0	50	4626
2026-01-26 08:56:21.93	64.89	34.53	-39.9	-41.7	18.9	0.00e+00	0	43	0	0	50	4678
2026-01-26 08:56:22.92	64.51	34.55	-39.8	-41.6	19.0	0.00e+00	0	43	0	0	50	4623
2026-01-26 08:56:23.92	64.12	34.58	-39.8	-41.5	19.1	0.00e+00	0	43	0	0	50	4582
2026-01-26 08:56:24.91	63.73	34.60	-39.8	-41.6	19.0	0.00e+00	0	43	0	0	50	4641
2026-01-26 08:56:25.90	63.34	34.62	-39.8	-41.6	19.0	0.00e+00	0	43	0	0	50	4647
2026-01-26 08:56:26.90	62.95	34.64	-40.1	-41.9	18.8	0.00e+00	0	43	0	0	50	4779
2026-01-26 08:56:27.90	62.55	34.66	-40.1	-41.9	18.7	0.00e+00	0	43	0	0	50	4776
2026-01-26 08:56:28.89	62.16	34.67	-40.1	-42.0	18.7	0.00e+00	0	43	0	0	50	4816
2026-01-26 08:56:29.89	61.77	34.69	-40.3	-42.1	18.5	0.00e+00	0	43	0	0	51	4641
2026-01-26 08:56:30.88	61.38	34.70	-40.1	-41.9	18.7	0.00e+00	0	43	0	0	51	4538
2026-01-26 08:56:31.87	60.98	34.71	-40.0	-41.8	18.8	0.00e+00	0	43	0	0	51	4451
2026-01-26 08:56:32.87	60.59	34.72	-40.1	-42.0	18.7	0.00e+00	0	43	0	0	51	4548
2026-01-26 08:56:33.86	60.20	34.73	-40.0	-41.8	18.8	0.00e+00	0	43	0	0	51	4477
2026-01-26 08:56:34.86	59.80	34.74	-39.8	-41.6	19.0	0.00e+00	0	43	0	0	51	4376
2026-01-26 08:56:35.86	59.41	34.74	-39.6	-41.3	19.2	0.00e+00	0	43	0	0	51	4233
2026-01-26 08:56:36.85	59.01	34.75	-39.7	-41.5	19.1	0.00e+00	0	43	0	0	51	4313
2026-01-26 08:56:37.85	58.62	34.75	-39.9	-41.7	18.9	0.00e+00	0	43	0	0	51	4421
2026-01-26 08:56:38.84	58.23	34.75	-39.9	-41.7	19.0	0.00e+00	0	43	0	0	51	4397
2026-01-26 08:56:39.83	57.83	34.75	-39.9	-41.8	18.8	0.00e+00	0	43	0	0	51	4443
2026-01-26 08:56:40.83	57.44	34.75	-40.0	-41.8	18.7	0.00e+00	0	43	0	0	51	4480
2026-01-26 08:56:41.83	57.04	34.75	-40.0	-41.9	18.6	0.00e+00	0	43	0	0	51	4502
2026-01-26 08:56:42.82	56.65	34.74	-40.2	-42.1	18.4	0.00e+00	0	43	0	0	51	4623
2026-01-26 08:56:43.82	56.25	34.73	-40.3	-42.1	18.4	0.00e+00	0	43	0	0	51	4649
2026-01-26 08:56:44.81	55.86	34.73	-40.2	-42.1	18.5	0.00e+00	0	43	0	0	51	4608
2026-01-26 08:56:45.80	55.47	34.72	-40.2	-42.0	18.6	0.00e+00	0	43	0	0	51	4585
2026-01-26 08:56:46.80	55.08	34.70	-40.2	-42.0	18.6	0.00e+00	0	43	0	0	51	4586
2026-01-26 08:56:47.79	54.69	34.69	-40.0	-41.8	18.8	0.00e+00	0	43	0	0	51	4476
2026-01-26 08:56:48.79	54.29	34.68	-39.9	-41.7	18.9	0.00e+00	0	43	0	0	51	4436
2026-01-26 08:56:49.79	53.90	34.66	-40.1	-41.9	18.7	0.00e+00	0	43	0	0	51	4520
2026-01-26 08:56:50.78	53.51	34.64	-40.2	-42.0	18.6	0.00e+00	0	43	0	0	51	4587
2026-01-26 08:56:51.78	53.12	34.62	-40.1	-41.9	18.7	0.00e+00	0	43	0	0	51	4526
2026-01-26 08:56:52.77	52.73	34.60	-40.1	-41.9	18.7	0.00e+00	0	43	0	0	51	4535
2026-01-26 08:56:53.77	52.33	34.58	-39.9	-41.8	18.9	0.00e+00	0	43	0	0	51	4446
2026-01-26 08:56:54.76	51.95	34.56	-39.9	-41.7	18.9	0.00e+00	0	43	0	0	51	4420
2026-01-26 08:56:55.76	51.56	34.53	-40.0	-41.8	18.8	0.00e+00	0	43	0	0	51	4474
2026-01-26 08:56:56.75	51.17	34.51	-40.0	-41.8	18.8	0.00e+00	0	43	0	0	51	4481
2026-01-26 08:56:57.75	50.78	34.48	-40.1	-41.9	18.7	0.00e+00	0	43	0	0	51	4533
2026-01-26 08:56:58.74	50.39	34.45	-40.2	-42.0	18.6	0.00e+00	0	43	0	0	51	4595
2026-01-26 08:56:59.74	50.01	34.42	-40.3	-42.1	18.5	0.00e+00	0	43	0	0	51	4644
2026-01-26 08:57:00.74	49.62	34.39	-40.2	-42.1	18.6	0.00e+00	0	43	0	0	51	4601
2026-01-26 08:57:01.73	49.24	34.35	-40.1	-42.0	18.6	0.00e+00	0	43	0	0	51	4568
2026-01-26 08:57:02.73	48.85	34.32	-40.1	-41.9	18.7	0.00e+00	0	43	0	0	51	4522
2026-01-26 08:57:03.72	48.47	34.28	-39.9	-41.8	18.9	0.00e+00	0	43	0	0	51	4442
2026-01-26 08:57:04.72	48.09	34.24	-39.5	-41.3	19.3	0.00e+00	0	43	0	0	51	4196
2026-01-26 08:57:05.71	47.71	34.20	-39.3	-41.0	19.5	0.00e+00	0	43	0	0	50	4320
2026-01-26 08:57:06.71	47.32	34.16	-39.2	-41.0	19.5	0.00e+00	0	43	0	0	50	4307
2026-01-26 08:57:07.70	46.95	34.12	-39.3	-41.1	19.5	0.00e+00	0	43	0	0	50	4367
2026-01-26 08:57:08.70	46.57	34.08	-39.4	-41.2	19.4	0.00e+00	0	43	0	0	50	4418
2026-01-26 08:57:09.69	46.19	34.03	-39.6	-41.4	19.2	0.00e+00	0	43	0	0	50	4514
2026-01-26 08:57:10.69	45.81	33.99	-39.7	-41.5	19.0	0.00e+00	0	43	0	0	50	4565
2026-01-26 08:57:11.68	45.44	33.94	-39.8	-41.6	18.9	0.00e+00	0	43	0	0	50	4613
2026-01-26 08:57:12.68	45.06	33.89	-39.7	-41.6	18.9	0.00e+00	0	43	0	0	50	4601
2026-01-26 08:57:13.67	44.69	33.84	-39.7	-41.5	18.9	0.00e+00	0	43	0	0	50	4595
2026-01-26 08:57:14.67	44.32	33.79	-39.8	-41.6	18.9	0.00e+00	0	43	0	0	50	4600
2026-01-26 08:57:15.66	43.95	33.74	-39.7	-41.5	19.0	0.00e+00	0	43	0	0	50	4561
2026-01-26 08:57:16.66	43.58	33.68	-39.8	-41.6	18.9	0.00e+00	0	43	0	0	50	4617
2026-01-26 08:57:17.65	43.21	33.63	-39.9	-41.7	18.8	0.00e+00	0	43	0	0	50	4670
2026-01-26 08:57:18.65	42.84	33.57	-39.7	-41.5	19.1	0.00e+00	0	43	0	0	50	4553
2026-01-26 08:57:19.65	42.48	33.51	-39.7	-41.5	19.1	0.00e+00	0	43	0	0	50	4578
2026-01-26 08:57:20.64	42.12	33.45	-39.8	-41.6	19.0	0.00e+00	0	43	0	0	50	4619
2026-01-26 08:57:21.63	41.75	33.39	-40.0	-41.9	18.8	0.00e+00	0	43	0	0	50	4777
2026-01-26 08:57:22.63	41.39	33.33	-40.1	-42.0	18.7	0.00e+00	0	43	0	0	50	4842
2026-01-26 08:57:23.62	41.03	33.27	-40.0	-41.8	18.8	0.00e+00	0	43	0	0	51	4486
2026-01-26 08:57:24.61	40.68	33.21	-39.8	-41.6	19.0	0.00e+00	0	43	0	0	51	4355
2026-01-26 08:57:25.60	40.32	33.14	-39.8	-41.6	18.9	0.00e+00	0	43	0	0	51	4380
2026-01-26 08:57:26.60	39.96	33.08	-39.8	-41.7	18.9	0.00e+00	0	43	0	0	51	4393
2026-01-26 08:57:27.60	39.61	33.01	-39.8	-41.6	18.9	0.00e+00	0	43	0	0	51	4379
2026-01-26 08:57:28.59	39.26	32.94	-39.9	-41.8	18.8	0.00e+00	0	43	0	0	51	4449
2026-01-26 08:57:29.59	38.90	32.87	-40.0	-41.8	18.8	0.00e+00	0	43	0	0	51	4477
2026-01-26 08:57:30.58	38.56	32.80	-40.1	-41.9	18.7	0.00e+00	0	43	0	0	51	4545
2026-01-26 08:57:31.57	38.21	32.73	-40.2	-42.1	18.6	0.00e+00	0	43	0	0	51	4618
2026-01-26 08:57:32.57	37.86	32.66	-40.2	-42.1	18.6	0.00e+00	0	43	0	0	51	4602
2026-01-26 08:57:33.56	37.52	32.59	-39.9	-41.7	18.9	0.00e+00	0	43	0	0	51	4425
2026-01-26 08:57:34.56	37.17	32.51	-39.3	-41.1	19.4	0.00e+00	0	43	0	0	50	4375
2026-01-26 08:57:35.55	36.83	32.44	-39.3	-41.1	19.4	0.00e+00	0	43	0	0	50	4348
2026-01-26 08:57:36.55	36.49	32.36	-39.4	-41.1	19.4	0.00e+00	0	43	0	0	50	4372
2026-01-26 08:57:37.54	36.15	32.29	-39.4	-41.1	19.3	0.00e+00	0	43	0	0	50	4381
2026-01-26 08:57:38.54	35.81	32.21	-39.5	-41.3	19.2	0.00e+00	0	43	0	0	50	4468
2026-01-26 08:57:39.53	35.48	32.13	-39.8	-41.7	18.9	0.00e+00	0	43	0	0	50	4653
2026-01-26 08:57:40.53	35.14	32.05	-40.0	-41.8	18.7	0.00e+00	0	43	0	0	50	4752
2026-01-26 08:57:41.52	34.81	31.97	-39.7	-41.5	19.0	0.00e+00	0	43	0	0	50	4595
2026-01-26 08:57:42.52	34.48	31.89	-39.7	-41.5	19.1	0.00e+00	0	43	0	0	50	4553
2026-01-26 08:57:43.51	34.15	31.80	-39.4	-41.1	19.3	0.00e+00	0	43	0	0	50	4389
2026-01-26 08:57:44.51	33.83	31.72	-39.1	-40.8	19.6	0.00e+00	0	43	0	0	50	4235
2026-01-26 08:57:45.50	33.50	31.64	-39.0	-40.7	19.8	0.00e+00	0	43	0	0	50	4177
2026-01-26 08:57:46.50	33.18	31.55	-39.2	-40.9	19.6	0.00e+00	0	43	0	0	50	4281
2026-01-26 08:57:47.49	32.86	31.47	-39.5	-41.3	19.1	0.00e+00	0	43	0	0	50	4474
2026-01-26 08:57:48.48	32.54	31.38	-39.6	-41.4	18.9	0.00e+00	0	43	0	0	50	4537
2026-01-26 08:57:49.48	32.22	31.29	-39.6	-41.4	19.0	0.00e+00	0	43	0	0	50	4505
2026-01-26 08:57:50.47	31.90	31.21	-39.3	-41.1	19.2	0.00e+00	0	43	0	0	50	4359
2026-01-26 08:57:51.47	31.59	31.12	-39.0	-40.8	19.5	0.00e+00	0	43	0	0	50	4194
2026-01-26 08:57:52.46	31.27	31.03	-38.9	-40.6	19.6	0.00e+00	0	43	0	0	49	4385
2026-01-26 08:57:53.46	30.96	30.94	-38.8	-40.6	19.7	0.00e+00	0	43	0	0	49	4350
2026-01-26 08:57:54.46	30.65	30.85	-39.0	-40.7	19.7	0.00e+00	0	43	0	0	49	4409
2026-01-26 08:57:55.45	30.34	30.76	-39.1	-40.8	19.6	0.00e+00	0	43	0	0	49	4478
2026-01-26 08:57:56.45	30.04	30.66	-39.5	-41.3	19.2	0.00e+00	0	43	0	0	49	4737
2026-01-26 08:57:57.44	29.73	30.57	-39.7	-41.6	18.9	0.00e+00	0	43	0	0	50	4606
2026-01-26 08:57:58.44	29.43	30.48	-39.8	-41.6	18.8	0.00e+00	0	43	0	0	50	4636
2026-01-26 08:57:59.43	29.13	30.39	-39.9	-41.7	18.7	0.00e+00	0	43	0	0	50	4689
2026-01-26 08:58:00.42	28.83	30.29	-39.4	-41.2	19.2	0.00e+00	0	43	0	0	50	4423
2026-01-26 08:58:01.42	28.53	30.20	-39.1	-40.9	19.5	0.00e+00	0	43	0	0	50	4268
2026-01-26 08:58:02.41	28.24	30.10	-38.9	-40.7	19.8	0.00e+00	0	43	0	0	49	4393
2026-01-26 08:58:03.41	27.94	30.01	-39.0	-40.7	19.7	0.00e+00	0	43	0	0	49	4424
2026-01-26 08:58:04.40	27.65	29.91	-39.1	-40.9	19.6	0.00e+00	0	43	0	0	49	4518
2026-01-26 08:58:05.40	27.36	29.81	-39.2	-41.0	19.5	0.00e+00	0	43	0	0	49	4559
2026-01-26 08:58:06.39	27.07	29.72	-39.1	-40.9	19.5	0.00e+00	0	43	0	0	49	4509
2026-01-26 08:58:07.39	26.78	29.62	-39.1	-40.8	19.6	0.00e+00	0	43	0	0	49	4487
2026-01-26 08:58:08.39	26.50	29.52	-38.9	-40.7	19.7	0.00e+00	0	43	0	0	49	4393
2026-01-26 08:58:09.38	26.22	29.42	-38.8	-40.6	19.8	0.00e+00	0	43	0	0	49	4345
2026-01-26 08:58:10.37	25.94	29.32	-38.9	-40.6	19.8	0.00e+00	0	43	0	0	49	4361
2026-01-26 08:58:11.37	25.65	29.22	-39.0	-40.7	19.7	0.00e+00	0	43	0	0	49	4422
2026-01-26 08:58:12.36	25.38	29.12	-39.2	-41.0	19.5	0.00e+00	0	43	0	0	49	4552
2026-01-26 08:58:13.36	25.10	29.02	-39.3	-41.1	19.4	0.00e+00	0	43	0	0	49	4636
2026-01-26 08:58:14.35	24.83	28.92	-39.2	-41.0	19.4	0.00e+00	0	43	0	0	49	4575
2026-01-26 08:58:15.35	24.55	28.82	-39.2	-41.0	19.5	0.00e+00	0	43	0	0	49	4567
2026-01-26 08:58:16.34	24.28	28.72	-39.1	-40.8	19.6	0.00e+00	0	43	0	0	49	4483
2026-01-26 08:58:17.34	24.01	28.62	-39.0	-40.7	19.8	0.00e+00	0	43	0	0	49	4421
2026-01-26 08:58:18.33	23.75	28.51	-38.7	-40.4	20.0	0.00e+00	0	43	0	0	49	4255
2026-01-26 08:58:19.33	23.48	28.41	-38.5	-40.2	20.2	0.00e+00	0	43	0	0	49	4181
2026-01-26 08:58:20.32	23.22	28.31	-38.5	-40.1	20.3	0.00e+00	0	43	0	0	48	4384
2026-01-26 08:58:21.32	22.95	28.20	-38.5	-40.1	20.3	0.00e+00	0	43	0	0	48	4391
2026-01-26 08:58:22.31	22.69	28.10	-38.6	-40.3	20.2	0.00e+00	0	43	0	0	48	4444
2026-01-26 08:58:23.31	22.43	28.00	-38.6	-40.3	20.1	0.00e+00	0	43	0	0	48	4490
2026-01-26 08:58:24.30	22.18	27.89	-38.7	-40.4	20.1	0.00e+00	0	43	0	0	48	4510
2026-01-26 08:58:25.29	21.92	27.79	-38.7	-40.5	20.0	0.00e+00	0	43	0	0	48	4549
2026-01-26 08:58:26.29	21.67	27.69	-38.7	-40.4	20.0	0.00e+00	0	43	0	0	48	4514
2026-01-26 08:58:27.29	21.41	27.58	-38.5	-40.2	20.3	0.00e+00	0	43	0	0	48	4395
2026-01-26 08:58:28.28	21.16	27.48	-38.5	-40.2	20.2	0.00e+00	0	43	0	0	48	4401
2026-01-26 08:58:29.27	20.92	27.37	-38.6	-40.3	20.2	0.00e+00	0	43	0	0	48	4469
2026-01-26 08:58:30.27	20.67	27.27	-38.9	-40.6	19.9	0.00e+00	0	43	0	0	48	4633
2026-01-26 08:58:31.26	20.42	27.16	-39.0	-40.8	19.7	0.00e+00	0	43	0	0	48	4735
2026-01-26 08:58:32.26	20.18	27.05	-39.0	-40.8	19.7	0.00e+00	0	43	0	0	48	4759
2026-01-26 08:58:33.25	19.94	26.95	-39.0	-40.8	19.7	0.00e+00	0	43	0	0	48	4750
2026-01-26 08:58:34.25	19.69	26.84	-38.9	-40.7	19.8	0.00e+00	0	43	0	0	48	4700
2026-01-26 08:58:35.24	19.46	26.74	-38.8	-40.6	19.8	0.00e+00	0	43	0	0	48	4637
2026-01-26 08:58:36.23	19.22	26.63	-38.6	-40.3	20.1	0.00e+00	0	43	0	0	48	4475
2026-01-26 08:58:37.23	18.98	26.52	-38.5	-40.2	20.1	0.00e+00	0	43	0	0	48	4424
2026-01-26 08:58:38.22	18.75	26.42	-38.5	-40.2	20.1	0.00e+00	0	43	0	0	48	4429
2026-01-26 08:58:39.22	18.52	26.31	-38.3	-40.0	20.2	0.00e+00	0	43	0	0	48	4324
2026-01-26 08:58:40.21	18.29	26.21	-38.4	-40.1	20.2	0.00e+00	0	43	0	0	48	4353
2026-01-26 08:58:41.21	18.05	26.10	-38.4	-40.1	20.2	0.00e+00	0	43	0	0	48	4364
2026-01-26 08:58:42.20	17.83	25.99	-38.5	-40.2	20.2	0.00e+00	0	43	0	0	48	4399
2026-01-26 08:58:43.20	17.60	25.88	-38.4	-40.1	20.2	0.00e+00	0	43	0	0	48	4370
2026-01-26 08:58:44.19	17.38	25.78	-38.4	-40.1	20.3	0.00e+00	0	43	0	0	48	4349
2026-01-26 08:58:45.19	17.15	25.67	-38.4	-40.1	20.3	0.00e+00	0	43	0	0	48	4349
2026-01-26 08:58:46.18	16.93	25.56	-38.4	-40.0	20.4	0.00e+00	0	43	0	0	48	4334
2026-01-26 08:58:47.18	16.71	25.46	-38.5	-40.2	20.2	0.00e+00	0	43	0	0	48	4432
2026-01-26 08:58:48.17	16.49	25.35	-38.8	-40.5	19.9	0.00e+00	0	43	0	0	48	4578
2026-01-26 08:58:49.17	16.27	25.24	-39.0	-40.8	19.7	0.00e+00	0	43	0	0	48	4710
2026-01-26 08:58:50.16	16.06	25.14	-39.1	-40.9	19.6	0.00e+00	0	43	0	0	48	4795
2026-01-26 08:58:51.16	15.84	25.03	-39.3	-41.1	19.4	0.00e+00	0	43	0	0	49	4621
2026-01-26 08:58:52.15	15.63	24.92	-39.1	-40.9	19.6	0.00e+00	0	43	0	0	49	4502
2026-01-26 08:58:53.15	15.42	24.81	-39.0	-40.8	19.6	0.00e+00	0	43	0	0	49	4488
2026-01-26 08:58:54.14	15.21	24.71	-38.9	-40.7	19.7	0.00e+00	0	43	0	0	49	4423
2026-01-26 08:58:55.14	15.00	24.60	-38.6	-40.4	20.0	0.00e+00	0	43	0	0	49	4244
2026-01-26 08:58:56.14	14.79	24.49	-38.3	-39.9	20.3	0.00e+00	0	43	0	0	48	4285
2026-01-26 08:58:57.13	14.59	24.39	-38.1	-39.7	20.5	0.00e+00	0	43	0	0	48	4189
2026-01-26 08:58:58.13	14.38	24.28	-38.0	-39.7	20.6	0.00e+00	0	43	0	0	48	4155
2026-01-26 08:58:59.12	14.18	24.17	-37.9	-39.5	20.6	0.00e+00	0	43	0	0	47	4329
2026-01-26 08:59:00.11	13.98	24.06	-37.8	-39.5	20.7	0.00e+00	0	43	0	0	47	4302
2026-01-26 08:59:01.11	13.78	23.96	-38.0	-39.7	20.5	0.00e+00	0	43	0	0	47	4405
2026-01-26 08:59:02.10	13.58	23.85	-38.1	-39.8	20.4	0.00e+00	0	43	0	0	47	4448
2026-01-26 08:59:03.10	13.38	23.74	-38.1	-39.8	20.3	0.00e+00	0	43	0	0	47	4469
2026-01-26 08:59:04.09	13.19	23.64	-38.1	-39.8	20.3	0.00e+00	0	43	0	0	47	4485
2026-01-26 08:59:05.09	12.99	23.53	-38.1	-39.8	20.2	0.00e+00	0	43	0	0	47	4467
2026-01-26 08:59:06.08	12.80	23.42	-38.1	-39.8	20.2	0.00e+00	0	43	0	0	47	4462
2026-01-26 08:59:07.08	12.61	23.32	-38.2	-39.9	20.1	0.00e+00	0	43	0	0	47	4514
2026-01-26 08:59:08.07	12.42	23.21	-38.1	-39.8	20.2	0.00e+00	0	43	0	0	47	4456
2026-01-26 08:59:09.06	12.23	23.11	-38.2	-39.9	20.1	0.00e+00	0	43	0	0	47	4517
2026-01-26 08:59:10.06	12.04	23.00	-38.2	-39.9	20.1	0.00e+00	0	43	0	0	47	4532
2026-01-26 08:59:11.06	11.85	22.89	-38.3	-40.0	20.0	0.00e+00	0	43	0	0	47	4580
2026-01-26 08:59:12.05	11.67	22.79	-38.4	-40.1	19.9	0.00e+00	0	43	0	0	47	4639
2026-01-26 08:59:13.05	11.48	22.68	-38.5	-40.2	19.8	0.00e+00	0	43	0	0	47	4683
2026-01-26 08:59:14.05	11.30	22.57	-38.6	-40.3	19.8	0.00e+00	0	43	0	0	47	4718
2026-01-26 08:59:15.04	11.12	22.47	-38.6	-40.3	19.7	0.00e+00	0	43	0	0	47	4753
2026-01-26 08:59:16.04	10.94	22.36	-38.5	-40.3	19.8	0.00e+00	0	43	0	0	47	4711
2026-01-26 08:59:17.03	10.76	22.26	-38.6	-40.3	19.8	0.00e+00	0	43	0	0	47	4745
2026-01-26 08:59:18.03	10.58	22.15	-38.5	-40.3	19.9	0.00e+00	0	43	0	0	47	4712
2026-01-26 08:59:19.02	10.40	22.05	-38.5	-40.2	19.9	0.00e+00	0	43	0	0	47	4693
2026-01-26 08:59:20.02	10.23	21.94	-38.4	-40.1	20.0	0.00e+00	0	43	0	0	47	4646
2026-01-26 08:59:21.02	10.05	21.84	-38.4	-40.2	20.0	0.00e+00	0	43	0	0	47	4663
2026-01-26 08:59:22.01	9.88	21.73	-38.5	-40.3	19.9	0.00e+00	0	43	0	0	47	4708
2026-01-26 08:59:23.00	9.71	21.63	-38.5	-40.3	19.9	0.00e+00	0	43	0	0	47	4728
2026-01-26 08:59:24.00	9.54	21.53	-38.8	-40.5	19.9	0.00e+00	0	43	0	0	48	4580
2026-01-26 08:59:24.99	9.37	21.42	-38.9	-40.7	19.8	0.00e+00	0	43	0	0	48	4658
2026-01-26 08:59:25.99	9.20	21.32	-38.9	-40.7	19.7	0.00e+00	0	43	0	0	48	4699
2026-01-26 08:59:26.98	9.03	21.21	-39.0	-40.8	19.6	0.00e+00	0	43	0	0	48	4730
2026-01-26 08:59:27.98	8.86	21.11	-38.9	-40.7	19.6	0.00e+00	0	43	0	0	48	4692
2026-01-26 08:59:28.97	8.70	21.01	-38.9	-40.7	19.6	0.00e+00	0	43	0	0	48	4697
2026-01-26 08:59:29.97	8.54	20.90	-38.8	-40.6	19.7	0.00e+00	0	43	0	0	48	4605
2026-01-26 08:59:30.96	8.37	20.80	-38.7	-40.5	19.8	0.00e+00	0	43	0	0	48	4588
2026-01-26 08:59:31.96	8.21	20.70	-38.8	-40.6	19.7	0.00e+00	0	43	0	0	48	4610
2026-01-26 08:59:32.95	8.05	20.59	-38.7	-40.5	19.8	0.00e+00	0	43	0	0	48	4573
2026-01-26 08:59:33.95	7.89	20.49	-38.8	-40.6	19.8	0.00e+00	0	43	0	0	48	4623
2026-01-26 08:59:34.94	7.73	20.39	-38.8	-40.6	19.8	0.00e+00	0	43	0	0	48	4608
2026-01-26 08:59:35.94	7.58	20.29	-38.9	-40.6	19.8	0.00e+00	0	43	0	0	48	4643
2026-01-26 08:59:36.93	7.42	20.18	-38.8	-40.6	19.8	0.00e+00	0	43	0	0	48	4614
2026-01-26 08:59:37.93	7.26	20.08	-38.8	-40.6	19.8	0.00e+00	0	43	0	0	48	4638
2026-01-26 08:59:38.92	7.11	19.98	-38.8	-40.7	19.7	0.00e+00	0	43	0	0	48	4652
2026-01-26 08:59:39.91	6.96	19.88	-38.8	-40.6	19.7	0.00e+00	0	43	0	0	48	4640
2026-01-26 08:59:40.90	6.81	19.78	-38.8	-40.6	19.7	0.00e+00	0	43	0	0	48	4638
2026-01-26 08:59:41.90	6.66	19.68	-38.8	-40.7	19.6	0.00e+00	0	43	0	0	48	4665
2026-01-26 08:59:42.89	6.51	19.58	-38.8	-40.7	19.6	0.00e+00	0	43	0	0	48	4676
2026-01-26 08:59:43.89	6.36	19.48	-38.9	-40.7	19.5	0.00e+00	0	43	0	0	48	4687
2026-01-26 08:59:44.88	6.21	19.38	-38.8	-40.6	19.6	0.00e+00	0	43	0	0	48	4634
2026-01-26 08:59:45.87	6.06	19.28	-38.6	-40.4	19.8	0.00e+00	0	43	0	0	48	4495
2026-01-26 08:59:46.87	5.92	19.18	-38.5	-40.2	19.9	0.00e+00	0	43	0	0	48	4433
2026-01-26 08:59:47.86	5.77	19.08	-38.4	-40.1	20.0	0.00e+00	0	43	0	0	48	4370
2026-01-26 08:59:48.86	5.63	18.98	-38.4	-40.1	20.0	0.00e+00	0	43	0	0	48	4361
2026-01-26 08:59:49.85	5.48	18.88	-38.1	-39.8	20.3	0.00e+00	0	43	0	0	48	4242
2026-01-26 08:59:50.84	5.34	18.78	-38.1	-39.8	20.3	0.00e+00	0	43	0	0	48	4200
2026-01-26 08:59:51.84	5.20	18.68	-38.0	-39.8	20.3	0.00e+00	0	43	0	0	48	4194
2026-01-26 08:59:52.83	5.06	18.58	-38.1	-39.9	20.3	0.00e+00	0	43	0	0	48	4244
2026-01-26 08:59:53.83	4.92	18.48	-38.2	-39.9	20.2	0.00e+00	0	43	0	0	48	4279
2026-01-26 08:59:54.82	4.78	18.38	-38.4	-40.1	20.1	0.00e+00	0	43	0	0	48	4344
2026-01-26 08:59:55.82	4.65	18.29	-38.4	-40.1	20.1	0.00e+00	0	43	0	0	48	4377
2026-01-26 08:59:56.82	4.51	18.19	-38.5	-40.2	20.0	0.00e+00	0	43	0	0	48	4411
2026-01-26 08:59:57.81	4.37	18.09	-38.5	-40.3	20.0	0.00e+00	0	43	0	0	48	4448
2026-01-26 08:59:58.81	4.24	17.99	-38.6	-40.3	20.0	0.00e+00	0	43	0	0	48	4465
2026-01-26 08:59:59.80	4.10	17.90	-38.7	-40.4	19.8	0.00e+00	0	43	0	0	48	4543
2026-01-26 09:00:00.79	3.97	17.80	-38.6	-40.4	19.8	0.00e+00	0	43	0	0	48	4516
2026-01-26 09:00:01.79	3.84	17.70	-38.8	-40.6	19.6	0.00e+00	0	43	0	0	48	4611
2026-01-26 09:00:02.79	3.71	17.60	-38.7	-40.5	19.7	0.00e+00	0	43	0	0	48	4584
2026-01-26 09:00:03.78	3.58	17.51	-38.7	-40.5	19.8	0.00e+00	0	43	0	0	48	4563
2026-01-26 09:00:04.78	3.45	17.41	-38.7	-40.5	19.8	0.00e+00	0	43	0	0	48	4565
2026-01-26 09:00:05.77	3.32	17.32	-38.8	-40.6	19.7	0.00e+00	0	43	0	0	48	4601
2026-01-26 09:00:06.77	3.19	17.22	-38.8	-40.5	19.8	0.00e+00	0	43	0	0	48	4575
2026-01-26 09:00:07.76	3.06	17.13	-38.8	-40.6	19.7	0.00e+00	0	43	0	0	48	4613
2026-01-26 09:00:08.76	2.94	17.03	-38.9	-40.6	19.7	0.00e+00	0	43	0	0	48	4634
2026-01-26 09:00:09.76	2.81	16.93	-38.9	-40.7	19.7	0.00e+00	0	43	0	0	48	4672
2026-01-26 09:00:10.75	2.69	16.84	-39.0	-40.8	19.6	0.00e+00	0	43	0	0	48	4710
2026-01-26 09:00:11.74	2.56	16.75	-39.1	-40.9	19.5	0.00e+00	0	43	0	0	48	4785
2026-01-26 09:00:12.74	2.44	16.65	-39.3	-41.1	19.2	0.00e+00	0	43	0	0	49	4641
2026-01-26 09:00:13.74	2.32	16.56	-39.3	-41.2	19.2	0.00e+00	0	43	0	0	49	4668
2026-01-26 09:00:14.73	2.20	16.46	-39.4	-41.3	19.1	0.00e+00	0	43	0	0	49	4724
2026-01-26 09:00:15.72	2.08	16.37	-39.6	-41.4	19.0	0.00e+00	0	43	0	0	49	4803
2026-01-26 09:00:16.71	1.96	16.28	-39.6	-41.4	19.0	0.00e+00	0	43	0	0	49	4805
2026-01-26 09:00:17.71	1.84	16.18	-39.6	-41.5	19.0	0.00e+00	0	43	0	0	49	4819
2026-01-26 09:00:18.70	1.72	16.09	-39.6	-41.5	19.0	0.00e+00	0	43	0	0	49	4824
2026-01-26 09:00:19.70	1.60	16.00	-39.5	-41.4	19.0	0.00e+00	0	43	0	0	49	4810
2026-01-26 09:00:20.69	1.48	15.91	-39.4	-41.4	19.0	0.00e+00	0	43	0	0	49	4788
2026-01-26 09:00:21.69	1.37	15.81	-39.5	-41.5	18.9	0.00e+00	0	43	0	0	49	4840
2026-01-26 09:00:22.69	1.25	15.72	-39.4	-41.4	19.0	0.00e+00	0	43	0	0	49	4802
2026-01-26 09:00:23.68	1.14	15.63	-39.4	-41.3	19.0	0.00e+00	0	43	0	0	49	4757
2026-01-26 09:00:24.68	1.02	15.54	-39.3	-41.3	19.1	0.00e+00	0	43	0	0	49	4725
2026-01-26 09:00:25.67	0.91	15.45	-39.5	-41.4	18.9	0.00e+00	0	43	0	0	49	4805
2026-01-26 09:00:26.67	0.80	15.35	-39.5	-41.3	19.0	0.00e+00	0	43	0	0	49	4748
2026-01-26 09:00:27.66	0.69	15.26	-39.4	-41.2	19.1	0.00e+00	0	43	0	0	49	4689
2026-01-26 09:00:28.66	0.57	15.17	-39.3	-41.2	19.2	0.00e+00	0	43	0	0	49	4683
2026-01-26 09:00:29.65	0.46	15.08	-39.4	-41.3	19.1	0.00e+00	0	43	0	0	49	4727
2026-01-26 09:00:30.64	0.35	14.99	-39.4	-41.3	19.1	0.00e+00	0	43	0	0	49	4729
2026-01-26 09:00:31.64	0.24	14.90	-39.5	-41.4	19.0	0.00e+00	0	43	0	0	49	4775
2026-01-26 09:00:32.63	0.14	14.81	-39.6	-41.5	18.9	0.00e+00	0	43	0	0	49	4850
2026-01-26 09:00:33.63	0.03	14.72	-39.6	-41.5	18.9	0.00e+00	0	43	0	0	49	4843
2026-01-26 09:00:34.62	359.92	14.63	-39.8	-41.7	18.8	0.00e+00	0	43	0	0	50	4664
2026-01-26 09:00:35.62	359.82	14.54	-39.8	-41.8	18.7	0.00e+00	0	43	0	0	50	4720
2026-01-26 09:00:36.61	359.71	14.46	-39.9	-41.8	18.7	0.00e+00	0	43	0	0	50	4747
2026-01-26 09:00:37.60	359.61	14.37	-40.0	-41.9	18.6	0.00e+00	0	43	0	0	50	4801
2026-01-26 09:00:38.60	359.50	14.28	-40.0	-41.9	18.6	0.00e+00	0	43	0	0	50	4801
2026-01-26 09:00:39.59	359.40	14.19	-40.1	-42.0	18.5	0.00e+00	0	43	0	0	50	4833
2026-01-26 09:00:40.59	359.29	14.10	-40.2	-42.1	18.4	0.00e+00	0	43	0	0	50	4890
2026-01-26 09:00:41.58	359.19	14.01	-40.1	-42.0	18.4	0.00e+00	0	43	0	0	51	4556
2026-01-26 09:00:42.58	359.09	13.93	-40.1	-42.0	18.4	0.00e+00	0	43	0	0	51	4563
2026-01-26 09:00:43.57	358.99	13.84	-40.1	-42.0	18.3	0.00e+00	0	43	0	0	51	4593
2026-01-26 09:00:44.57	358.89	13.75	-40.0	-41.9	18.4	0.00e+00	0	43	0	0	51	4512
2026-01-26 09:00:45.56	358.79	13.67	-39.8	-41.7	18.5	0.00e+00	0	43	0	0	51	4411
2026-01-26 09:00:46.55	358.69	13.58	-39.6	-41.5	18.6	0.00e+00	0	43	0	0	51	4324
2026-01-26 09:00:47.55	358.59	13.49	-39.6	-41.5	18.7	0.00e+00	0	43	0	0	51	4313
2026-01-26 09:00:48.54	358.49	13.41	-39.6	-41.6	18.6	0.00e+00	0	43	0	0	51	4350
2026-01-26 09:00:49.54	358.39	13.32	-39.5	-41.4	18.8	0.00e+00	0	43	0	0	50	4507
2026-01-26 09:00:50.53	358.30	13.24	-39.5	-41.4	18.8	0.00e+00	0	43	0	0	50	4515
2026-01-26 09:00:51.53	358.20	13.15	-39.4	-41.3	18.9	0.00e+00	0	43	0	0	50	4476
2026-01-26 09:00:52.52	358.10	13.06	-39.4	-41.3	19.0	0.00e+00	0	43	0	0	50	4451
2026-01-26 09:00:53.52	358.01	12.98	-39.4	-41.2	19.0	0.00e+00	0	43	0	0	50	4437
2026-01-26 09:00:54.51	357.91	12.89	-39.5	-41.3	19.0	0.00e+00	0	43	0	0	50	4481
2026-01-26 09:00:55.51	357.82	12.81	-39.5	-41.3	19.0	0.00e+00	0	43	0	0	50	4490
2026-01-26 09:00:56.50	357.73	12.72	-39.6	-41.4	18.9	0.00e+00	0	43	0	0	50	4540
2026-01-26 09:00:57.49	357.63	12.64	-39.7	-41.5	18.8	0.00e+00	0	43	0	0	50	4576
2026-01-26 09:00:58.49	357.54	12.56	-39.8	-41.7	18.7	0.00e+00	0	43	0	0	50	4660
2026-01-26 09:00:59.48	357.45	12.47	-39.8	-41.8	18.7	0.00e+00	0	43	0	0	50	4709
2026-01-26 09:01:00.48	357.36	12.39	-39.9	-41.8	18.6	0.00e+00	0	43	0	0	50	4753
2026-01-26 09:01:01.47	357.27	12.31	-39.9	-41.9	18.5	0.00e+00	0	43	0	0	50	4808
2026-01-26 09:01:02.47	357.17	12.22	-39.9	-42.0	18.4	0.00e+00	0	43	0	0	50	4826
2026-01-26 09:01:03.46	357.08	12.14	-40.0	-42.1	18.3	0.00e+00	0	43	0	0	50	4908
2026-01-26 09:01:04.45	357.00	12.06	-40.0	-42.2	18.3	0.00e+00	0	43	0	0	50	4931
2026-01-26 09:01:05.45	356.91	11.97	-40.1	-42.3	18.1	0.00e+00	0	43	0	0	50	5039
2026-01-26 09:01:06.44	356.82	11.89	-40.1	-42.4	18.1	0.00e+00	0	43	0	0	50	5054
2026-01-26 09:01:07.44	356.73	11.81	-40.1	-42.4	18.0	0.00e+00	0	43	0	0	50	5068
2026-01-26 09:01:08.43	356.64	11.73	-40.2	-42.5	17.9	0.00e+00	0	43	0	0	51	4858
2026-01-26 09:01:09.43	356.56	11.65	-40.2	-42.4	18.0	0.00e+00	0	43	0	0	51	4796
2026-01-26 09:01:10.42	356.47	11.56	-40.1	-42.4	18.0	0.00e+00	0	43	0	0	51	4786
2026-01-26 09:01:11.42	356.38	11.48	-40.2	-42.5	17.9	0.00e+00	0	43	0	0	51	4827
2026-01-26 09:01:12.41	356.30	11.40	-40.1	-42.4	18.0	0.00e+00	0	43	0	0	51	4803
2026-01-26 09:01:13.41	356.21	11.32	-40.0	-42.3	18.0	0.00e+00	0	43	0	0	51	4733
2026-01-26 09:01:14.40	356.13	11.24	-39.9	-42.2	18.1	0.00e+00	0	43	0	0	51	4680
2026-01-26 09:01:15.40	356.05	11.16	-39.8	-42.2	18.1	0.00e+00	0	43	0	0	51	4658
2026-01-26 09:01:16.39	355.96	11.08	-39.8	-42.2	18.1	0.00e+00	0	43	0	0	51	4655
2026-01-26 09:01:17.39	355.88	11.00	-39.7	-42.0	18.2	0.00e+00	0	43	0	0	51	4591
2026-01-26 09:01:18.38	355.80	10.92	-39.6	-42.0	18.2	0.00e+00	0	43	0	0	51	4589
2026-01-26 09:01:19.38	355.72	10.84	-39.5	-42.0	18.2	0.00e+00	0	43	0	0	51	4575
2026-01-26 09:01:20.37	355.63	10.76	-39.6	-42.1	18.2	0.00e+00	0	43	0	0	51	4619
2026-01-26 09:01:21.37	355.55	10.68	-39.6	-42.1	18.2	0.00e+00	0	43	0	0	51	4630
2026-01-26 09:01:22.36	355.47	10.60	-39.5	-42.0	18.2	0.00e+00	0	43	0	0	50	4866
2026-01-26 09:01:23.36	355.39	10.52	-39.4	-42.1	18.2	0.00e+00	0	43	0	0	50	4872
2026-01-26 09:01:24.35	355.31	10.44	-39.4	-42.0	18.3	0.00e+00	0	43	0	0	50	4864
2026-01-26 09:01:25.35	355.23	10.37	-39.4	-42.0	18.2	0.00e+00	0	43	0	0	50	4868
2026-01-26 09:01:26.34	355.15	10.29	-39.5	-42.0	18.2	0.00e+00	0	43	0	0	50	4868
2026-01-26 09:01:27.34	355.08	10.21	-39.5	-42.1	18.2	0.00e+00	0	43	0	0	50	4872
2026-01-26 09:01:28.33	355.00	10.13	-39.5	-42.1	18.2	0.00e+00	0	43	0	0	50	4883
2026-01-26 09:01:29.33	354.92	10.05	-39.5	-42.2	18.1	0.00e+00	0	43	0	0	50	4928
2026-01-26 09:01:30.32	354.84	9.98	-39.4	-42.1	18.2	0.00e+00	0	43	0	0	50	4911
2026-01-26 09:01:31.31	354.77	9.90	-39.3	-42.1	18.2	0.00e+00	0	43	0	0	50	4877
2026-01-26 09:01:32.31	354.69	9.82	-39.2	-42.1	18.2	0.00e+00	0	43	0	0	50	4887
2026-01-26 09:01:33.30	354.62	9.74	-39.3	-42.2	18.1	0.00e+00	0	43	0	0	50	4957
2026-01-26 09:01:34.30	354.54	9.67	-39.3	-42.2	18.1	0.00e+00	0	43	0	0	50	4974
2026-01-26 09:01:35.30	354.46	9.59	-39.4	-42.4	17.9	0.00e+00	0	43	0	0	50	5045
2026-01-26 09:01:36.29	354.39	9.51	-39.4	-42.4	18.0	0.00e+00	0	43	0	0	50	5043
2026-01-26 09:01:37.29	354.32	9.44	-39.5	-42.3	18.0	0.00e+00	0	43	0	0	50	5036
2026-01-26 09:01:38.29	354.24	9.36	-39.5	-42.3	18.0	0.00e+00	0	43	0	0	50	5009
2026-01-26 09:01:39.28	354.17	9.29	-39.7	-42.4	17.9	0.00e+00	0	43	0	0	50	5090
2026-01-26 09:01:40.27	354.10	9.21	-39.9	-42.6	17.7	0.00e+00	0	43	0	0	50	5171
2026-01-26 09:01:41.27	354.02	9.13	-40.0	-42.6	17.7	0.00e+00	0	43	0	0	50	5206
2026-01-26 09:01:42.26	353.95	9.06	-40.2	-42.7	17.6	0.00e+00	0	43	0	0	51	4948
2026-01-26 09:01:43.26	353.88	8.98	-40.2	-42.7	17.6	0.00e+00	0	43	0	0	51	4933
2026-01-26 09:01:44.25	353.81	8.91	-44.1	-60.0	3.9	2.27e-01	0	43	104	0	59	22895
2026-01-26 09:01:45.25	353.74	8.83	-48.3	-61.9	3.8	1.49e+00	0	43	104	0	67	17980
2026-01-26 09:01:46.24	353.67	8.76	-48.3	-62.0	3.8	1.49e+00	0	43	104	0	67	18136
2026-01-26 09:01:47.23	353.60	8.69	-48.3	-62.0	3.8	1.49e+00	0	43	104	0	67	18258
2026-01-26 09:01:48.23	353.53	8.61	-48.8	-62.3	3.8	1.49e+00	0	43	104	0	68	17711
2026-01-26 09:01:49.22	353.46	8.54	-49.0	-62.3	3.8	1.49e+00	0	43	104	0	68	17795
2026-01-26 09:01:50.21	353.39	8.46	-49.2	-62.3	3.8	1.49e+00	0	43	104	0	69	16821
2026-01-26 09:01:51.21	353.32	8.39	-49.1	-62.4	3.8	1.49e+00	0	43	104	0	69	16917
2026-01-26 09:01:52.20	353.25	8.32	-48.6	-62.4	3.8	1.49e+00	0	43	104	0	69	16955
2026-01-26 09:01:53.19	353.18	8.24	-49.1	-62.4	3.8	1.49e+00	0	43	104	0	69	16974
2026-01-26 09:01:54.18	353.12	8.17	-49.4	-62.4	3.8	1.49e+00	0	43	104	0	69	17063
2026-01-26 09:01:55.18	353.05	8.10	-49.3	-62.4	3.8	1.49e+00	0	43	104	0	69	17055
2026-01-26 09:01:56.17	352.98	8.03	-48.9	-62.4	3.8	1.49e+00	0	43	104	0	69	17071
2026-01-26 09:01:57.16	352.92	7.95	-49.3	-62.5	3.8	1.49e+00	0	43	104	0	69	17112
2026-01-26 09:01:58.15	352.85	7.88	-49.4	-62.5	3.8	1.49e+00	0	43	104	0	69	17123
2026-01-26 09:01:59.15	352.78	7.81	-49.2	-62.5	3.8	1.49e+00	0	43	104	0	69	17140
2026-01-26 09:02:00.14	352.72	7.74	-49.3	-62.5	3.8	1.49e+00	0	43	104	0	69	17138
2026-01-26 09:02:01.13	352.65	7.66	-49.1	-62.4	3.8	1.49e+00	0	43	104	0	69	17051
2026-01-26 09:02:02.13	352.59	7.59	-49.4	-62.5	3.8	1.49e+00	0	43	104	0	69	17121
2026-01-26 09:02:03.12	352.52	7.52	-49.4	-62.5	3.8	1.49e+00	0	43	104	0	69	17142
2026-01-26 09:02:04.11	352.46	7.45	-49.4	-62.5	3.8	1.49e+00	0	43	104	0	69	17128
2026-01-26 09:02:05.11	352.40	7.38	-49.4	-62.4	3.8	1.49e+00	0	43	104	0	69	17076
2026-01-26 09:02:06.10	352.33	7.31	-49.4	-62.4	3.8	1.49e+00	0	43	104	0	69	17075
2026-01-26 09:02:07.09	352.27	7.24	-49.5	-62.5	3.8	1.49e+00	0	43	104	0	69	17106
2026-01-26 09:02:08.09	352.21	7.16	-49.3	-62.4	3.8	1.49e+00	0	43	104	0	69	17078
2026-01-26 09:02:09.08	352.15	7.09	-49.4	-62.5	3.8	1.49e+00	0	43	104	0	69	17087
2026-01-26 09:02:10.07	352.08	7.02	-49.4	-62.4	3.8	1.49e+00	0	43	104	0	69	17064
2026-01-26 09:02:11.06	352.02	6.95	-49.4	-62.4	3.8	1.49e+00	0	43	104	0	69	17015
2026-01-26 09:02:12.06	351.96	6.88	-49.4	-62.4	3.8	1.49e+00	0	43	104	0	69	17003
2026-01-26 09:02:13.05	351.90	6.81	-49.2	-62.4	3.8	1.49e+00	0	43	104	0	69	16944
2026-01-26 09:02:14.04	351.84	6.74	-49.2	-62.4	3.8	1.49e+00	0	43	104	0	69	16928
2026-01-26 09:02:15.04	351.78	6.67	-49.2	-62.4	3.8	1.49e+00	0	43	104	0	69	16912
2026-01-26 09:02:16.03	351.72	6.61	-49.2	-62.4	3.8	1.49e+00	0	43	104	0	69	16909
2026-01-26 09:02:17.02	351.66	6.54	-49.1	-62.3	3.8	1.49e+00	0	43	104	0	69	16812
2026-01-26 09:02:18.02	351.60	6.47	-49.1	-62.3	3.8	1.49e+00	0	43	104	0	69	16820
2026-01-26 09:02:19.01	351.54	6.40	-49.1	-62.3	3.8	1.49e+00	0	43	104	0	69	16817
2026-01-26 09:02:20.00	351.48	6.33	-49.1	-62.3	3.8	1.49e+00	0	43	104	0	69	16832
2026-01-26 09:02:21.00	351.42	6.26	-49.1	-62.3	3.8	1.49e+00	0	43	104	0	69	16842
2026-01-26 09:02:21.99	351.36	6.19	-49.1	-62.3	3.8	1.49e+00	0	43	104	0	69	16847
2026-01-26 09:02:22.98	351.30	6.12	-49.1	-62.3	3.8	1.49e+00	0	43	104	0	69	16800
2026-01-26 09:02:23.97	351.25	6.05	-49.1	-62.3	3.8	1.49e+00	0	43	104	0	69	16779
2026-01-26 09:02:24.97	351.19	5.99	-49.1	-62.3	3.8	1.49e+00	0	43	104	0	69	16738
2026-01-26 09:02:25.96	351.13	5.92	-49.1	-62.3	3.8	1.49e+00	0	43	104	0	69	16856
2026-01-26 09:02:26.95	351.07	5.85	-49.1	-62.3	3.8	1.49e+00	0	43	104	0	69	16759
2026-01-26 09:02:27.95	351.02	5.78	-49.1	-62.3	3.8	1.49e+00	0	43	104	0	69	16779
2026-01-26 09:02:28.94	350.96	5.72	-49.1	-62.3	3.8	1.49e+00	0	43	104	0	69	16809
2026-01-26 09:02:29.93	350.91	5.65	-49.1	-62.3	3.8	1.49e+00	0	43	104	0	69	16766
2026-01-26 09:02:30.93	350.85	5.58	-49.1	-62.3	3.8	1.49e+00	0	43	104	0	69	16824
2026-01-26 09:02:31.92	350.79	5.51	-49.1	-62.3	3.8	1.49e+00	0	43	104	0	69	16737
2026-01-26 09:02:32.91	350.74	5.45	-49.1	-62.3	3.8	1.49e+00	0	43	104	0	69	16737
2026-01-26 09:02:33.90	350.68	5.38	-49.1	-62.3	3.8	1.49e+00	0	43	104	0	69	16742
2026-01-26 09:02:34.90	350.63	5.31	-49.1	-62.3	3.8	1.49e+00	0	43	104	0	69	16713
2026-01-26 09:02:35.89	350.57	5.25	-49.1	-62.3	3.8	1.49e+00	0	43	104	0	69	16764
2026-01-26 09:02:36.88	350.52	5.18	-49.1	-62.3	3.8	1.49e+00	0	43	104	0	69	16732
2026-01-26 09:02:37.88	350.47	5.11	-49.1	-62.3	3.8	1.49e+00	0	43	104	0	69	16757
2026-01-26 09:02:38.87	350.41	5.05	-49.1	-62.2	3.8	1.49e+00	0	43	104	0	69	16663
2026-01-26 09:02:39.86	350.36	4.98	-49.1	-62.3	3.8	1.49e+00	0	43	104	0	69	16765

#Closed at: 2026-01-26 09:02:40
#Recorded file [0 MB]: D:/Data/31040_260126_115039.dat