passes_logs/2026/01/26/T1/T1__20260126_071408_NOAA_21_JPSS-2_rec.log

#Pass ID: 20260126_071408_NOAA 21 (JPSS-2)
#Satellite: NOAA 21 (JPSS-2)
#Configuration: NOAA 21
#almurnet v.1.7.20251203
#Start time: 2026-01-26 07:14:08

#Version: 2.0.20230620
#Station: T1
#Location: 37.570604 lon 55.790049 lat
#TLE: 1 54234U 22150A   26025.79694208  .00000182  00000+0  10700-3 0  9999
#TLE: 2 54234  98.7509 326.5666 0000777 213.2444 146.8684 14.19539347166346

#Time	Az	El	Level	Level2	SNR	BER	BlckErr	Temp	State	Recorded	gain1	gain2
2026-01-26 07:14:08.61	71.45	5.02	-48.1	-61.2	3.8	1.49e+00	0	39	0	0	68	15645
2026-01-26 07:14:09.60	71.33	5.06	-48.1	-61.1	3.8	1.49e+00	0	39	104	0	68	15541
2026-01-26 07:14:10.59	71.21	5.11	-48.0	-61.1	3.8	1.49e+00	0	39	104	0	68	15522
2026-01-26 07:14:11.58	71.08	5.15	-48.1	-61.1	3.8	1.49e+00	0	39	104	0	68	15546
2026-01-26 07:14:12.57	70.96	5.19	-48.0	-61.1	3.8	1.49e+00	0	39	104	0	68	15570
2026-01-26 07:14:13.57	70.83	5.23	-48.0	-61.1	3.8	1.49e+00	0	39	104	0	68	15543
2026-01-26 07:14:14.56	70.71	5.27	-48.0	-61.1	3.8	1.49e+00	0	39	104	0	68	15533
2026-01-26 07:14:15.55	70.58	5.31	-48.0	-61.1	3.8	1.49e+00	0	39	104	0	68	15550
2026-01-26 07:14:16.55	70.46	5.35	-48.0	-61.1	3.8	1.49e+00	0	39	104	0	68	15479
2026-01-26 07:14:17.54	70.33	5.39	-48.0	-61.1	3.8	1.49e+00	0	40	104	0	68	15550
2026-01-26 07:14:18.53	70.21	5.43	-48.0	-61.1	3.8	1.49e+00	0	40	104	0	68	15525
2026-01-26 07:14:19.53	70.08	5.47	-48.0	-61.1	3.8	1.49e+00	0	40	104	0	68	15458
2026-01-26 07:14:20.52	69.95	5.51	-48.0	-61.1	3.8	1.49e+00	0	40	104	0	68	15501
2026-01-26 07:14:21.51	69.82	5.55	-48.0	-61.1	3.8	1.49e+00	0	39	104	0	68	15497
2026-01-26 07:14:22.51	69.70	5.59	-48.0	-61.1	3.8	1.49e+00	0	40	104	0	68	15538
2026-01-26 07:14:23.50	69.57	5.63	-48.0	-61.1	3.8	1.49e+00	0	40	104	0	68	15479
2026-01-26 07:14:24.49	69.44	5.67	-48.0	-61.1	3.8	1.49e+00	0	40	104	0	68	15475
2026-01-26 07:14:25.48	69.31	5.71	-48.0	-61.1	3.8	1.49e+00	0	40	104	0	68	15465
2026-01-26 07:14:26.48	69.18	5.75	-48.0	-61.1	3.8	1.49e+00	0	40	104	0	68	15458
2026-01-26 07:14:27.47	69.05	5.78	-48.0	-61.1	3.8	1.49e+00	0	40	104	0	68	15462
2026-01-26 07:14:28.46	68.92	5.82	-48.0	-61.0	3.8	1.49e+00	0	40	104	0	68	15399
2026-01-26 07:14:29.46	68.79	5.86	-48.0	-61.1	3.8	1.49e+00	0	40	104	0	68	15469
2026-01-26 07:14:30.45	68.66	5.90	-48.0	-61.0	3.8	1.49e+00	0	40	104	0	68	15332
2026-01-26 07:14:31.44	68.53	5.94	-48.0	-61.0	3.8	1.49e+00	0	40	104	0	68	15367
2026-01-26 07:14:32.44	68.40	5.98	-48.0	-61.0	3.8	1.49e+00	0	40	104	0	68	15318
2026-01-26 07:14:33.43	68.26	6.02	-48.0	-61.0	3.8	1.49e+00	0	40	104	0	68	15301
2026-01-26 07:14:34.42	68.13	6.06	-48.0	-61.0	3.8	1.49e+00	0	40	104	0	68	15299
2026-01-26 07:14:35.42	68.00	6.10	-48.0	-61.0	3.8	1.49e+00	0	40	104	0	68	15389
2026-01-26 07:14:36.41	67.87	6.14	-48.0	-61.0	3.8	1.49e+00	0	40	104	0	68	15391
2026-01-26 07:14:37.40	67.73	6.17	-48.0	-61.1	3.8	1.49e+00	0	40	104	0	68	15402
2026-01-26 07:14:38.40	67.60	6.21	-48.0	-61.0	3.8	1.49e+00	0	40	104	0	68	15394
2026-01-26 07:14:39.39	67.47	6.25	-48.0	-61.1	3.8	1.49e+00	0	40	104	0	68	15441
2026-01-26 07:14:40.38	67.33	6.29	-48.0	-61.1	3.8	1.49e+00	0	40	104	0	68	15430
2026-01-26 07:14:41.38	67.20	6.33	-48.0	-61.0	3.8	1.49e+00	0	40	104	0	68	15376
2026-01-26 07:14:42.37	67.06	6.37	-48.0	-61.1	3.8	1.49e+00	0	40	104	0	68	15420
2026-01-26 07:14:43.36	66.93	6.40	-48.0	-61.0	3.8	1.49e+00	0	40	104	0	68	15395
2026-01-26 07:14:44.35	66.79	6.44	-48.0	-61.0	3.8	1.49e+00	0	40	104	0	68	15373
2026-01-26 07:14:45.34	66.65	6.48	-48.0	-61.1	3.8	1.49e+00	0	40	104	0	68	15439
2026-01-26 07:14:46.34	66.52	6.52	-48.0	-61.1	3.8	1.49e+00	0	40	104	0	68	15455
2026-01-26 07:14:47.33	66.38	6.55	-48.0	-61.0	3.8	1.49e+00	0	40	104	0	68	15370
2026-01-26 07:14:48.33	66.24	6.59	-48.0	-61.1	3.8	1.49e+00	0	41	104	0	68	15416
2026-01-26 07:14:49.32	66.10	6.63	-48.0	-61.1	3.8	1.49e+00	0	41	104	0	68	15402
2026-01-26 07:14:50.31	65.97	6.67	-48.0	-61.0	3.8	1.49e+00	0	41	104	0	68	15382
2026-01-26 07:14:51.31	65.83	6.70	-48.0	-61.0	3.8	1.49e+00	0	41	104	0	68	15373
2026-01-26 07:14:52.30	65.69	6.74	-48.0	-61.0	3.8	1.49e+00	0	41	104	0	68	15382
2026-01-26 07:14:53.29	65.55	6.78	-48.0	-61.0	3.8	1.49e+00	0	41	104	0	68	15368
2026-01-26 07:14:54.29	65.41	6.82	-48.0	-61.0	3.8	1.49e+00	0	41	104	0	68	15355
2026-01-26 07:14:55.28	65.27	6.85	-48.0	-61.0	3.8	1.49e+00	0	41	104	0	68	15332
2026-01-26 07:14:56.27	65.13	6.89	-48.0	-61.0	3.8	1.49e+00	0	41	104	0	68	15360
2026-01-26 07:14:57.27	64.99	6.93	-48.0	-61.0	3.8	1.49e+00	0	41	104	0	68	15397
2026-01-26 07:14:58.26	64.85	6.96	-48.0	-61.0	3.8	1.49e+00	0	41	104	0	68	15352
2026-01-26 07:14:59.25	64.71	7.00	-48.0	-61.0	3.8	1.49e+00	0	41	104	0	68	15385
2026-01-26 07:15:00.24	64.57	7.03	-48.0	-61.1	3.8	1.49e+00	0	41	104	0	68	15405
2026-01-26 07:15:01.24	64.42	7.07	-48.0	-61.1	3.8	1.49e+00	0	41	104	0	68	15416
2026-01-26 07:15:02.23	64.28	7.11	-48.0	-61.0	3.8	1.49e+00	0	41	104	0	68	15363
2026-01-26 07:15:03.22	64.14	7.14	-48.0	-61.1	3.8	1.49e+00	0	41	104	0	68	15403
2026-01-26 07:15:04.22	64.00	7.18	-48.0	-61.0	3.8	1.49e+00	0	41	104	0	68	15343
2026-01-26 07:15:05.21	63.85	7.21	-48.0	-61.0	3.8	1.49e+00	0	41	104	0	68	15316
2026-01-26 07:15:06.20	63.71	7.25	-48.0	-61.0	3.8	1.49e+00	0	41	104	0	68	15294
2026-01-26 07:15:07.19	63.57	7.29	-48.0	-61.0	3.8	1.49e+00	0	41	104	0	68	15379
2026-01-26 07:15:08.19	63.42	7.32	-48.0	-61.0	3.8	1.49e+00	0	41	104	0	68	15337
2026-01-26 07:15:09.18	63.28	7.36	-48.0	-61.0	3.8	1.49e+00	0	41	104	0	68	15389
2026-01-26 07:15:10.18	63.13	7.39	-48.0	-61.0	3.8	1.49e+00	0	41	104	0	68	15301
2026-01-26 07:15:11.17	62.99	7.43	-48.0	-61.0	3.8	1.49e+00	0	41	104	0	68	15254
2026-01-26 07:15:12.16	62.84	7.46	-48.0	-61.0	3.8	1.49e+00	0	41	104	0	68	15258
2026-01-26 07:15:13.16	62.69	7.50	-47.8	-60.8	3.8	1.49e+00	0	41	104	0	67	15825
2026-01-26 07:15:14.15	62.55	7.53	-47.8	-60.8	3.8	1.49e+00	0	41	104	0	67	15828
2026-01-26 07:15:15.14	62.40	7.56	-47.8	-60.8	3.8	1.49e+00	0	41	104	0	67	15762
2026-01-26 07:15:16.14	62.25	7.60	-47.8	-60.7	3.8	1.49e+00	0	41	104	0	67	15724
2026-01-26 07:15:17.13	62.11	7.63	-47.8	-60.7	3.8	1.49e+00	0	41	104	0	67	15648
2026-01-26 07:15:18.12	61.96	7.67	-47.8	-60.7	3.8	1.49e+00	0	41	104	0	67	15603
2026-01-26 07:15:19.12	61.81	7.70	-47.8	-60.6	3.8	1.49e+00	0	41	104	0	67	15536
2026-01-26 07:15:20.11	61.66	7.74	-47.8	-60.6	3.8	1.49e+00	0	41	104	0	67	15467
2026-01-26 07:15:21.10	61.51	7.77	-47.8	-60.6	3.8	1.49e+00	0	41	104	0	67	15554
2026-01-26 07:15:22.10	61.36	7.80	-47.8	-60.7	3.8	1.49e+00	0	41	104	0	67	15594
2026-01-26 07:15:23.09	61.21	7.84	-47.8	-60.7	3.8	1.49e+00	0	41	104	0	67	15652
2026-01-26 07:15:24.08	61.06	7.87	-47.8	-60.7	3.8	1.49e+00	0	41	104	0	67	15723
2026-01-26 07:15:25.08	60.91	7.90	-47.8	-60.7	3.8	1.49e+00	0	41	104	0	67	15681
2026-01-26 07:15:26.07	60.76	7.94	-47.8	-60.6	3.8	1.49e+00	0	41	104	0	67	15575
2026-01-26 07:15:27.06	60.61	7.97	-47.8	-60.6	3.8	1.49e+00	0	41	104	0	67	15513
2026-01-26 07:15:28.05	60.46	8.00	-47.8	-60.5	3.8	1.49e+00	0	41	104	0	67	15326
2026-01-26 07:15:29.05	60.31	8.03	-47.8	-60.4	3.8	1.49e+00	0	41	104	0	67	15138
2026-01-26 07:15:30.04	60.15	8.07	-47.8	-60.3	3.8	1.49e+00	0	41	104	0	67	15047
2026-01-26 07:15:31.03	60.00	8.10	-47.8	-60.4	3.8	1.49e+00	0	41	104	0	67	15124
2026-01-26 07:15:32.03	59.85	8.13	-47.8	-60.5	3.8	1.49e+00	0	41	104	0	67	15371
2026-01-26 07:15:33.02	59.70	8.16	-47.8	-60.7	3.8	1.49e+00	0	41	104	0	67	15625
2026-01-26 07:15:34.01	59.54	8.19	-47.8	-60.7	3.8	1.49e+00	0	41	104	0	67	15740
2026-01-26 07:15:35.00	59.39	8.23	-47.8	-60.8	3.8	1.49e+00	0	41	104	0	67	15805
2026-01-26 07:15:36.00	59.23	8.26	-47.8	-60.7	3.8	1.49e+00	0	41	104	0	67	15664
2026-01-26 07:15:36.99	59.08	8.29	-47.8	-60.5	3.8	1.49e+00	0	41	104	0	67	15401
2026-01-26 07:15:37.98	58.93	8.32	-47.8	-60.3	3.8	1.49e+00	0	41	104	0	67	14985
2026-01-26 07:15:38.98	58.77	8.35	-47.7	-60.0	3.8	1.49e+00	0	41	104	0	67	14506
2026-01-26 07:15:39.97	58.61	8.38	-47.7	-60.0	3.8	1.49e+00	0	41	104	0	67	14382
2026-01-26 07:15:40.96	58.46	8.41	-47.8	-60.1	3.8	1.49e+00	0	41	104	0	67	14622
2026-01-26 07:15:41.96	58.30	8.44	-47.8	-60.4	3.8	1.49e+00	0	42	104	0	67	15131
2026-01-26 07:15:42.95	58.15	8.47	-47.8	-60.7	3.8	1.49e+00	0	41	104	0	67	15610
2026-01-26 07:15:43.94	57.99	8.50	-47.8	-60.8	3.8	1.49e+00	0	42	104	0	67	15920
2026-01-26 07:15:44.94	57.83	8.53	-47.8	-60.8	3.8	1.49e+00	0	41	104	0	67	15928
2026-01-26 07:15:45.93	57.67	8.56	-47.8	-60.7	3.8	1.49e+00	0	41	104	0	67	15748
2026-01-26 07:15:46.92	57.52	8.59	-47.8	-60.3	3.8	1.49e+00	0	42	104	0	67	14970
2026-01-26 07:15:47.92	57.36	8.62	-47.7	-59.4	3.8	1.49e+00	0	42	104	0	67	13553
2026-01-26 07:15:48.91	57.20	8.65	-47.6	-58.5	4.0	1.49e+00	0	42	104	0	67	12234
2026-01-26 07:15:49.90	57.04	8.68	-47.7	-59.2	3.8	1.48e+00	0	42	104	0	67	13225
2026-01-26 07:15:50.89	56.88	8.71	-47.8	-60.5	3.8	1.49e+00	0	41	104	0	67	15384
2026-01-26 07:15:51.89	56.72	8.74	-47.6	-58.9	3.9	1.49e+00	0	41	104	0	67	12702
2026-01-26 07:15:52.88	56.56	8.77	-46.5	-53.0	6.6	5.86e-01	0	41	0	0	65	7210
2026-01-26 07:15:53.87	56.40	8.79	-44.8	-48.7	10.9	1.18e-02	0	41	0	0	61	5581
2026-01-26 07:15:54.87	56.24	8.82	-43.1	-46.0	13.8	2.67e-05	0	41	0	0	58	4816
2026-01-26 07:15:55.86	56.08	8.85	-41.5	-43.9	15.6	0.00e+00	0	41	0	0	55	4524
2026-01-26 07:15:56.85	55.92	8.88	-40.9	-43.1	16.4	0.00e+00	0	41	0	0	53	4632
2026-01-26 07:15:57.85	55.76	8.91	-40.8	-43.0	16.5	0.00e+00	0	42	0	0	53	4590
2026-01-26 07:15:58.84	55.60	8.93	-41.4	-43.7	15.8	0.00e+00	0	42	0	0	53	4961
2026-01-26 07:15:59.83	55.44	8.96	-42.4	-45.1	14.5	7.00e-07	0	42	0	0	55	5203
2026-01-26 07:16:00.82	55.28	8.99	-44.1	-47.5	12.2	8.92e-05	0	42	0	0	58	5760
2026-01-26 07:16:01.82	55.11	9.02	-45.8	-50.7	9.0	1.66e-02	0	42	0	0	62	6575
2026-01-26 07:16:02.81	54.95	9.04	-48.2	-61.0	3.9	1.32e-01	0	42	104	0	67	16179
2026-01-26 07:16:03.81	54.79	9.07	-45.6	-50.1	9.7	1.43e+00	0	41	104	0	63	5846
2026-01-26 07:16:04.80	54.62	9.10	-47.3	-55.8	4.9	1.71e-01	0	41	0	0	65	10054
2026-01-26 07:16:05.80	54.46	9.12	-42.7	-45.4	14.4	1.24e-03	0	42	0	0	57	4775
2026-01-26 07:16:06.79	54.29	9.15	-47.1	-54.7	5.5	1.04e-03	0	42	0	0	64	9303
2026-01-26 07:16:07.79	54.13	9.17	-43.0	-45.8	14.0	1.83e-01	0	41	0	0	58	4743
2026-01-26 07:16:08.78	53.96	9.20	-41.3	-43.6	16.1	0.00e+00	0	42	0	0	54	4601
2026-01-26 07:16:09.78	53.80	9.23	-40.6	-42.7	16.9	0.00e+00	0	42	0	0	53	4419
2026-01-26 07:16:10.77	53.63	9.25	-40.4	-42.4	17.2	0.00e+00	0	42	0	0	52	4535
2026-01-26 07:16:11.77	53.47	9.28	-40.4	-42.5	17.2	0.00e+00	0	42	0	0	52	4565
2026-01-26 07:16:12.76	53.30	9.30	-40.3	-42.4	17.2	0.00e+00	0	42	0	0	52	4527
2026-01-26 07:16:13.76	53.14	9.32	-40.2	-42.2	17.4	0.00e+00	0	42	0	0	52	4438
2026-01-26 07:16:14.76	52.97	9.35	-40.1	-42.1	17.5	0.00e+00	0	42	0	0	52	4358
2026-01-26 07:16:15.75	52.80	9.37	-40.0	-42.0	17.7	0.00e+00	0	42	0	0	51	4555
2026-01-26 07:16:16.75	52.63	9.40	-40.0	-42.0	17.7	0.00e+00	0	42	0	0	51	4584
2026-01-26 07:16:17.74	52.47	9.42	-40.1	-42.1	17.6	0.00e+00	0	42	0	0	51	4612
2026-01-26 07:16:18.73	52.30	9.44	-40.1	-42.2	17.5	0.00e+00	0	42	0	0	51	4662
2026-01-26 07:16:19.73	52.13	9.47	-40.1	-42.1	17.6	0.00e+00	0	42	0	0	51	4615
2026-01-26 07:16:20.72	51.96	9.49	-40.1	-42.1	17.5	0.00e+00	0	42	0	0	51	4636
2026-01-26 07:16:21.72	51.79	9.51	-40.2	-42.2	17.5	0.00e+00	0	42	0	0	51	4674
2026-01-26 07:16:22.71	51.63	9.54	-40.1	-42.2	17.5	0.00e+00	0	42	0	0	51	4660
2026-01-26 07:16:23.71	51.46	9.56	-40.1	-42.1	17.5	0.00e+00	0	42	0	0	51	4641
2026-01-26 07:16:24.70	51.29	9.58	-40.0	-42.0	17.6	0.00e+00	0	42	0	0	51	4578
2026-01-26 07:16:25.69	51.12	9.60	-40.0	-42.1	17.6	0.00e+00	0	42	0	0	51	4603
2026-01-26 07:16:26.69	50.95	9.63	-40.0	-42.0	17.6	0.00e+00	0	41	0	0	51	4593
2026-01-26 07:16:27.68	50.78	9.65	-40.0	-42.0	17.6	0.00e+00	0	42	0	0	51	4565
2026-01-26 07:16:28.68	50.61	9.67	-40.0	-42.0	17.6	0.00e+00	0	42	0	0	51	4585
2026-01-26 07:16:29.67	50.44	9.69	-40.0	-41.9	17.6	0.00e+00	0	42	0	0	51	4544
2026-01-26 07:16:30.66	50.27	9.71	-40.0	-42.0	17.6	0.00e+00	0	42	0	0	51	4581
2026-01-26 07:16:31.66	50.10	9.73	-40.1	-42.1	17.5	0.00e+00	0	42	0	0	51	4601
2026-01-26 07:16:32.65	49.93	9.75	-40.0	-42.0	17.6	0.00e+00	0	42	0	0	51	4583
2026-01-26 07:16:33.65	49.75	9.77	-40.0	-42.0	17.6	0.00e+00	0	42	0	0	51	4562
2026-01-26 07:16:34.64	49.58	9.79	-40.0	-42.0	17.6	0.00e+00	0	42	0	0	51	4584
2026-01-26 07:16:35.64	49.41	9.81	-40.1	-42.1	17.5	0.00e+00	0	42	0	0	51	4629
2026-01-26 07:16:36.63	49.24	9.83	-40.1	-42.1	17.5	0.00e+00	0	42	0	0	51	4631
2026-01-26 07:16:37.63	49.07	9.85	-40.1	-42.2	17.4	0.00e+00	0	42	0	0	51	4652
2026-01-26 07:16:38.62	48.89	9.87	-40.1	-42.2	17.5	0.00e+00	0	42	0	0	51	4655
2026-01-26 07:16:39.62	48.72	9.89	-40.1	-42.2	17.5	0.00e+00	0	42	0	0	51	4654
2026-01-26 07:16:40.61	48.55	9.91	-40.2	-42.2	17.4	0.00e+00	0	42	0	0	51	4684
2026-01-26 07:16:41.60	48.37	9.93	-40.1	-42.2	17.5	0.00e+00	0	42	0	0	51	4654
2026-01-26 07:16:42.60	48.20	9.94	-40.2	-42.3	17.4	0.00e+00	0	42	0	0	51	4729
2026-01-26 07:16:43.59	48.03	9.96	-40.2	-42.3	17.4	0.00e+00	0	42	0	0	51	4707
2026-01-26 07:16:44.59	47.85	9.98	-40.3	-42.3	17.3	0.00e+00	0	42	0	0	51	4758
2026-01-26 07:16:45.58	47.68	10.00	-40.3	-42.3	17.3	0.00e+00	0	42	0	0	51	4753
2026-01-26 07:16:46.58	47.50	10.02	-40.2	-42.2	17.4	0.00e+00	0	42	0	0	51	4701
2026-01-26 07:16:47.57	47.33	10.03	-40.1	-42.2	17.5	0.00e+00	0	42	0	0	51	4660
2026-01-26 07:16:48.57	47.15	10.05	-40.2	-42.2	17.4	0.00e+00	0	42	0	0	51	4695
2026-01-26 07:16:49.56	46.98	10.07	-40.1	-42.1	17.5	0.00e+00	0	42	0	0	51	4643
2026-01-26 07:16:50.56	46.80	10.08	-40.1	-42.2	17.5	0.00e+00	0	42	0	0	51	4653
2026-01-26 07:16:51.55	46.63	10.10	-40.0	-42.0	17.6	0.00e+00	0	42	0	0	51	4574
2026-01-26 07:16:52.55	46.45	10.11	-40.1	-42.0	17.6	0.00e+00	0	42	0	0	51	4590
2026-01-26 07:16:53.54	46.28	10.13	-39.9	-41.9	17.7	0.00e+00	0	42	0	0	51	4523
2026-01-26 07:16:54.54	46.10	10.14	-40.0	-41.9	17.7	0.00e+00	0	42	0	0	51	4538
2026-01-26 07:16:55.53	45.93	10.16	-39.9	-41.9	17.8	0.00e+00	0	42	0	0	51	4501
2026-01-26 07:16:56.53	45.75	10.17	-40.0	-41.9	17.7	0.00e+00	0	42	0	0	51	4536
2026-01-26 07:16:57.52	45.57	10.19	-39.9	-41.9	17.8	0.00e+00	0	42	0	0	51	4509
2026-01-26 07:16:58.51	45.40	10.20	-39.8	-41.8	17.8	0.00e+00	0	42	0	0	51	4471
2026-01-26 07:16:59.51	45.22	10.22	-39.9	-41.8	17.8	0.00e+00	0	42	0	0	51	4480
2026-01-26 07:17:00.50	45.04	10.23	-40.0	-42.0	17.6	0.00e+00	0	42	0	0	51	4567
2026-01-26 07:17:01.50	44.86	10.24	-39.9	-41.8	17.8	0.00e+00	0	42	0	0	51	4479
2026-01-26 07:17:02.49	44.69	10.26	-39.9	-41.8	17.7	0.00e+00	0	42	0	0	51	4488
2026-01-26 07:17:03.49	44.51	10.27	-39.9	-41.9	17.5	0.00e+00	0	42	0	0	51	4518
2026-01-26 07:17:04.48	44.33	10.28	-40.0	-41.9	17.6	0.00e+00	0	42	0	0	51	4541
2026-01-26 07:17:05.48	44.15	10.30	-39.9	-41.9	17.8	0.00e+00	0	42	0	0	51	4505
2026-01-26 07:17:06.47	43.98	10.31	-39.9	-41.8	17.8	0.00e+00	0	42	0	0	51	4479
2026-01-26 07:17:07.46	43.80	10.32	-39.9	-41.9	17.7	0.00e+00	0	42	0	0	51	4517
2026-01-26 07:17:08.46	43.62	10.33	-39.9	-41.8	17.8	0.00e+00	0	42	0	0	51	4493
2026-01-26 07:17:09.45	43.44	10.34	-39.9	-41.8	17.8	0.00e+00	0	42	0	0	51	4490
2026-01-26 07:17:10.44	43.27	10.35	-39.9	-41.9	17.8	0.00e+00	0	42	0	0	51	4501
2026-01-26 07:17:11.44	43.09	10.36	-39.9	-41.8	17.8	0.00e+00	0	42	0	0	51	4490
2026-01-26 07:17:12.43	42.91	10.37	-39.9	-41.9	17.8	0.00e+00	0	42	0	0	51	4515
2026-01-26 07:17:13.43	42.73	10.39	-40.0	-42.0	17.7	0.00e+00	0	42	0	0	51	4564
2026-01-26 07:17:14.42	42.55	10.40	-40.0	-42.0	17.7	0.00e+00	0	42	0	0	51	4580
2026-01-26 07:17:15.42	42.37	10.41	-40.0	-42.0	17.7	0.00e+00	0	42	0	0	51	4557
2026-01-26 07:17:16.41	42.19	10.41	-39.9	-41.9	17.7	0.00e+00	0	42	0	0	51	4542
2026-01-26 07:17:17.41	42.01	10.42	-39.9	-41.9	17.8	0.00e+00	0	42	0	0	51	4502
2026-01-26 07:17:18.40	41.83	10.43	-39.8	-41.8	17.9	0.00e+00	0	42	0	0	51	4466
2026-01-26 07:17:19.40	41.65	10.44	-39.9	-41.8	17.8	0.00e+00	0	42	0	0	51	4488
2026-01-26 07:17:20.40	41.47	10.45	-39.8	-41.8	17.9	0.00e+00	0	42	0	0	51	4462
2026-01-26 07:17:21.39	41.29	10.46	-39.8	-41.7	18.0	0.00e+00	0	42	0	0	51	4425
2026-01-26 07:17:22.39	41.11	10.47	-39.7	-41.6	18.0	0.00e+00	0	42	0	0	51	4388
2026-01-26 07:17:23.39	40.93	10.47	-39.7	-41.6	18.1	0.00e+00	0	42	0	0	51	4366
2026-01-26 07:17:24.38	40.75	10.48	-39.6	-41.5	18.1	0.00e+00	0	42	0	0	51	4326
2026-01-26 07:17:25.38	40.57	10.49	-39.6	-41.6	18.1	0.00e+00	0	42	0	0	51	4345
2026-01-26 07:17:26.37	40.39	10.50	-39.6	-41.6	18.1	0.00e+00	0	42	0	0	51	4361
2026-01-26 07:17:27.37	40.21	10.50	-39.6	-41.5	18.2	0.00e+00	0	42	0	0	51	4317
2026-01-26 07:17:28.36	40.03	10.51	-39.6	-41.6	18.2	0.00e+00	0	42	0	0	51	4341
2026-01-26 07:17:29.36	39.85	10.52	-39.6	-41.5	18.2	0.00e+00	0	42	0	0	51	4326
2026-01-26 07:17:30.35	39.67	10.52	-39.5	-41.4	18.3	0.00e+00	0	42	0	0	50	4524
2026-01-26 07:17:31.35	39.49	10.53	-39.6	-41.5	18.2	0.00e+00	0	42	0	0	50	4572
2026-01-26 07:17:32.34	39.31	10.53	-39.4	-41.3	18.3	0.00e+00	0	42	0	0	50	4473
2026-01-26 07:17:33.34	39.13	10.54	-39.4	-41.3	18.4	0.00e+00	0	42	0	0	50	4454
2026-01-26 07:17:34.33	38.95	10.54	-39.5	-41.4	18.3	0.00e+00	0	42	0	0	50	4499
2026-01-26 07:17:35.32	38.77	10.55	-39.4	-41.4	18.3	0.00e+00	0	42	0	0	50	4500
2026-01-26 07:17:36.32	38.58	10.55	-39.5	-41.4	18.2	0.00e+00	0	42	0	0	50	4524
2026-01-26 07:17:37.31	38.40	10.55	-39.5	-41.5	18.2	0.00e+00	0	42	0	0	50	4568
2026-01-26 07:17:38.31	38.22	10.56	-39.6	-41.5	18.1	0.00e+00	0	42	0	0	50	4576
2026-01-26 07:17:39.30	38.04	10.56	-39.7	-41.6	18.0	0.00e+00	0	42	0	0	50	4650
2026-01-26 07:17:40.30	37.86	10.56	-39.6	-41.5	18.1	0.00e+00	0	42	0	0	50	4593
2026-01-26 07:17:41.29	37.68	10.57	-39.6	-41.5	18.1	0.00e+00	0	42	0	0	50	4594
2026-01-26 07:17:42.29	37.50	10.57	-39.5	-41.4	18.2	0.00e+00	0	42	0	0	50	4545
2026-01-26 07:17:43.28	37.32	10.57	-39.5	-41.4	18.2	0.00e+00	0	42	0	0	50	4531
2026-01-26 07:17:44.28	37.13	10.57	-39.6	-41.5	18.1	0.00e+00	0	42	0	0	50	4574
2026-01-26 07:17:45.27	36.95	10.58	-39.6	-41.5	18.1	0.00e+00	0	42	0	0	50	4594
2026-01-26 07:17:46.27	36.77	10.58	-39.6	-41.5	18.1	0.00e+00	0	42	0	0	50	4589
2026-01-26 07:17:47.26	36.59	10.58	-39.6	-41.6	18.1	0.00e+00	0	41	0	0	50	4621
2026-01-26 07:17:48.26	36.41	10.58	-39.6	-41.6	18.0	0.00e+00	0	42	0	0	50	4628
2026-01-26 07:17:49.25	36.23	10.58	-39.6	-41.7	18.0	0.00e+00	0	42	0	0	50	4653
2026-01-26 07:17:50.25	36.05	10.58	-39.7	-41.8	17.9	0.00e+00	0	42	0	0	50	4721
2026-01-26 07:17:51.24	35.87	10.58	-39.7	-41.7	18.0	0.00e+00	0	42	0	0	50	4672
2026-01-26 07:17:52.24	35.68	10.58	-39.8	-41.8	17.9	0.00e+00	0	42	0	0	50	4727
2026-01-26 07:17:53.23	35.50	10.58	-39.8	-41.8	17.9	0.00e+00	0	42	0	0	50	4715
2026-01-26 07:17:54.23	35.32	10.58	-39.9	-41.8	17.9	0.00e+00	0	42	0	0	50	4752
2026-01-26 07:17:55.22	35.14	10.58	-39.8	-41.8	17.9	0.00e+00	0	42	0	0	50	4711
2026-01-26 07:17:56.22	34.96	10.58	-39.8	-41.8	17.9	0.00e+00	0	42	0	0	50	4715
2026-01-26 07:17:57.21	34.78	10.57	-39.9	-41.9	17.8	0.00e+00	0	42	0	0	50	4801
2026-01-26 07:17:58.20	34.60	10.57	-39.9	-41.9	17.8	0.00e+00	0	42	0	0	50	4767
2026-01-26 07:17:59.20	34.41	10.57	-39.9	-41.9	17.7	0.00e+00	0	42	0	0	50	4795
2026-01-26 07:18:00.20	34.23	10.57	-39.9	-41.9	17.7	0.00e+00	0	42	0	0	50	4801
2026-01-26 07:18:01.19	34.05	10.56	-39.9	-41.9	17.7	0.00e+00	0	42	0	0	50	4805
2026-01-26 07:18:02.19	33.87	10.56	-40.0	-42.0	17.6	0.00e+00	0	42	0	0	50	4863
2026-01-26 07:18:03.18	33.69	10.56	-40.0	-42.1	17.6	0.00e+00	0	42	0	0	50	4878
2026-01-26 07:18:04.18	33.51	10.55	-39.9	-41.9	17.8	0.00e+00	0	42	0	0	50	4771
2026-01-26 07:18:05.17	33.33	10.55	-39.8	-41.9	17.8	0.00e+00	0	42	0	0	50	4772
2026-01-26 07:18:06.17	33.15	10.55	-39.8	-41.9	17.8	0.00e+00	0	42	0	0	50	4763
2026-01-26 07:18:07.16	32.97	10.54	-39.8	-41.8	17.9	0.00e+00	0	42	0	0	50	4736
2026-01-26 07:18:08.15	32.79	10.54	-39.8	-41.9	17.8	0.00e+00	0	42	0	0	50	4767
2026-01-26 07:18:09.15	32.60	10.53	-39.9	-41.9	17.8	0.00e+00	0	42	0	0	50	4807
2026-01-26 07:18:10.14	32.42	10.53	-39.9	-42.0	17.7	0.00e+00	0	42	0	0	50	4817
2026-01-26 07:18:11.14	32.24	10.52	-40.0	-42.0	17.7	0.00e+00	0	42	0	0	50	4855
2026-01-26 07:18:12.13	32.06	10.52	-40.0	-42.1	17.6	0.00e+00	0	42	0	0	50	4877
2026-01-26 07:18:13.13	31.88	10.51	-40.0	-42.1	17.6	0.00e+00	0	42	0	0	50	4893
2026-01-26 07:18:14.12	31.70	10.50	-40.1	-42.1	17.5	0.00e+00	0	42	0	0	50	4922
2026-01-26 07:18:15.12	31.52	10.50	-40.1	-42.2	17.6	0.00e+00	0	42	0	0	50	4946
2026-01-26 07:18:16.11	31.34	10.49	-40.0	-42.1	17.7	0.00e+00	0	42	0	0	50	4878
2026-01-26 07:18:17.10	31.16	10.48	-40.0	-42.0	17.7	0.00e+00	0	42	0	0	50	4850
2026-01-26 07:18:18.10	30.98	10.48	-39.9	-42.0	17.7	0.00e+00	0	42	0	0	50	4823
2026-01-26 07:18:19.10	30.80	10.47	-40.0	-42.0	17.7	0.00e+00	0	42	0	0	50	4858
2026-01-26 07:18:20.09	30.62	10.46	-40.0	-42.0	17.7	0.00e+00	0	42	0	0	50	4851
2026-01-26 07:18:21.09	30.44	10.45	-40.0	-42.0	17.7	0.00e+00	0	42	0	0	50	4839
2026-01-26 07:18:22.08	30.26	10.44	-39.9	-41.9	17.8	0.00e+00	0	42	0	0	50	4808
2026-01-26 07:18:23.08	30.08	10.44	-39.9	-41.9	17.8	0.00e+00	0	42	0	0	50	4774
2026-01-26 07:18:24.07	29.90	10.43	-39.9	-41.9	17.7	0.00e+00	0	42	0	0	50	4806
2026-01-26 07:18:25.04	29.73	10.42	-39.9	-42.0	17.7	0.00e+00	0	42	0	0	50	4823
2026-01-26 07:18:26.03	29.55	10.41	-39.9	-41.9	17.8	0.00e+00	0	42	0	0	50	4801
2026-01-26 07:18:27.03	29.37	10.40	-39.9	-41.9	17.8	0.00e+00	0	42	0	0	50	4801
2026-01-26 07:18:28.02	29.19	10.39	-39.8	-41.9	17.8	0.00e+00	0	42	0	0	50	4779
2026-01-26 07:18:29.02	29.01	10.38	-39.7	-41.8	17.9	0.00e+00	0	42	0	0	50	4728
2026-01-26 07:18:30.01	28.83	10.37	-39.7	-41.8	17.9	0.00e+00	0	42	0	0	50	4718
2026-01-26 07:18:31.01	28.66	10.36	-39.6	-41.6	18.0	0.00e+00	0	42	0	0	50	4629
2026-01-26 07:18:32.00	28.48	10.35	-39.6	-41.6	18.1	0.00e+00	0	42	0	0	50	4604
2026-01-26 07:18:32.99	28.30	10.33	-39.6	-41.6	18.0	0.00e+00	0	42	0	0	50	4634
2026-01-26 07:18:33.99	28.12	10.32	-39.7	-41.7	17.9	0.00e+00	0	42	0	0	50	4681
2026-01-26 07:18:34.98	27.94	10.31	-39.7	-41.7	17.9	0.00e+00	0	42	0	0	50	4655
2026-01-26 07:18:35.98	27.77	10.30	-39.7	-41.7	17.9	0.00e+00	0	42	0	0	50	4664
2026-01-26 07:18:36.97	27.59	10.29	-39.6	-41.6	18.0	0.00e+00	0	42	0	0	50	4639
2026-01-26 07:18:37.96	27.41	10.27	-39.7	-41.7	18.0	0.00e+00	0	42	0	0	50	4664
2026-01-26 07:18:38.96	27.23	10.26	-39.8	-41.8	17.9	0.00e+00	0	42	0	0	50	4710
2026-01-26 07:18:39.95	27.06	10.25	-39.7	-41.7	17.9	0.00e+00	0	42	0	0	50	4697
2026-01-26 07:18:40.95	26.88	10.23	-39.7	-41.8	18.0	0.00e+00	0	42	0	0	50	4707
2026-01-26 07:18:41.94	26.70	10.22	-39.7	-41.8	17.9	0.00e+00	0	42	0	0	50	4728
2026-01-26 07:18:42.94	26.53	10.21	-39.8	-41.9	17.9	0.00e+00	0	42	0	0	50	4763
2026-01-26 07:18:43.93	26.35	10.19	-39.8	-41.8	17.8	0.00e+00	0	42	0	0	50	4756
2026-01-26 07:18:44.93	26.17	10.18	-39.8	-42.0	17.7	0.00e+00	0	42	0	0	50	4821
2026-01-26 07:18:45.92	26.00	10.16	-39.9	-42.0	17.7	0.00e+00	0	42	0	0	50	4861
2026-01-26 07:18:46.91	25.82	10.15	-39.9	-42.0	17.7	0.00e+00	0	42	0	0	50	4843
2026-01-26 07:18:47.91	25.65	10.13	-39.8	-41.9	17.8	0.00e+00	0	42	0	0	50	4788
2026-01-26 07:18:48.90	25.47	10.12	-39.9	-42.0	17.7	0.00e+00	0	42	0	0	50	4853
2026-01-26 07:18:49.90	25.30	10.10	-40.0	-42.1	17.6	0.00e+00	0	42	0	0	50	4895
2026-01-26 07:18:50.89	25.12	10.09	-39.9	-41.9	17.8	0.00e+00	0	42	0	0	50	4799
2026-01-26 07:18:51.89	24.94	10.07	-39.9	-41.9	17.8	0.00e+00	0	42	0	0	50	4782
2026-01-26 07:18:52.88	24.77	10.05	-39.9	-41.9	17.8	0.00e+00	0	42	0	0	50	4808
2026-01-26 07:18:53.88	24.60	10.04	-39.9	-41.9	17.8	0.00e+00	0	42	0	0	50	4794
2026-01-26 07:18:54.87	24.42	10.02	-39.9	-42.0	17.7	0.00e+00	0	42	0	0	50	4829
2026-01-26 07:18:55.86	24.25	10.00	-39.9	-42.0	17.7	0.00e+00	0	42	0	0	50	4822
2026-01-26 07:18:56.86	24.07	9.99	-39.9	-41.9	17.8	0.00e+00	0	42	0	0	50	4793
2026-01-26 07:18:57.86	23.90	9.97	-39.8	-41.8	17.8	0.00e+00	0	42	0	0	50	4754
2026-01-26 07:18:58.85	23.73	9.95	-39.9	-41.9	17.7	0.00e+00	0	42	0	0	50	4808
2026-01-26 07:18:59.84	23.55	9.93	-40.0	-42.0	17.7	0.00e+00	0	42	0	0	50	4825
2026-01-26 07:19:00.84	23.38	9.91	-40.0	-42.1	17.6	0.00e+00	0	42	0	0	50	4891
2026-01-26 07:19:01.83	23.21	9.89	-40.1	-42.1	17.6	0.00e+00	0	42	0	0	50	4903
2026-01-26 07:19:02.83	23.03	9.88	-40.0	-42.1	17.6	0.00e+00	0	42	0	0	50	4871
2026-01-26 07:19:03.82	22.86	9.86	-39.9	-42.1	17.6	0.00e+00	0	42	0	0	50	4872
2026-01-26 07:19:04.82	22.69	9.84	-40.0	-42.2	17.5	0.00e+00	0	42	0	0	50	4954
2026-01-26 07:19:05.81	22.52	9.82	-39.9	-42.2	17.4	0.00e+00	0	42	0	0	50	4964
2026-01-26 07:19:06.81	22.35	9.80	-39.9	-42.2	17.4	0.00e+00	0	42	0	0	50	4983
2026-01-26 07:19:07.81	22.17	9.78	-40.0	-42.4	17.3	0.00e+00	0	42	0	0	50	5052
2026-01-26 07:19:08.80	22.00	9.76	-39.9	-42.4	17.3	0.00e+00	0	42	0	0	50	5043
2026-01-26 07:19:09.80	21.83	9.74	-39.8	-42.2	17.4	0.00e+00	0	42	0	0	50	4976
2026-01-26 07:19:10.79	21.66	9.72	-39.8	-42.2	17.5	0.00e+00	0	42	0	0	50	4958
2026-01-26 07:19:11.79	21.49	9.70	-39.8	-42.2	17.5	0.00e+00	0	42	0	0	50	4932
2026-01-26 07:19:12.78	21.32	9.67	-39.8	-42.2	17.5	0.00e+00	0	42	0	0	50	4929
2026-01-26 07:19:13.78	21.15	9.65	-39.8	-42.2	17.5	0.00e+00	0	42	0	0	50	4934
2026-01-26 07:19:14.77	20.98	9.63	-39.6	-42.0	17.6	0.00e+00	0	42	0	0	50	4856
2026-01-26 07:19:15.77	20.81	9.61	-39.6	-42.0	17.7	0.00e+00	0	42	0	0	50	4831
2026-01-26 07:19:16.76	20.64	9.59	-39.8	-42.1	17.6	0.00e+00	0	42	0	0	50	4901
2026-01-26 07:19:17.76	20.47	9.57	-39.6	-41.9	17.7	0.00e+00	0	42	0	0	50	4809
2026-01-26 07:19:18.75	20.30	9.54	-39.7	-42.0	17.6	0.00e+00	0	42	0	0	50	4869
2026-01-26 07:19:19.75	20.13	9.52	-39.8	-42.1	17.6	0.00e+00	0	42	0	0	50	4921
2026-01-26 07:19:20.74	19.97	9.50	-39.8	-42.1	17.6	0.00e+00	0	42	0	0	50	4884
2026-01-26 07:19:21.73	19.80	9.48	-39.8	-42.0	17.7	0.00e+00	0	42	0	0	50	4815
2026-01-26 07:19:22.73	19.63	9.45	-39.9	-42.0	17.7	0.00e+00	0	42	0	0	50	4868
2026-01-26 07:19:23.72	19.47	9.43	-39.9	-42.0	17.7	0.00e+00	0	42	0	0	50	4862
2026-01-26 07:19:24.72	19.30	9.40	-39.8	-41.9	17.7	0.00e+00	0	42	0	0	50	4811
2026-01-26 07:19:25.71	19.13	9.38	-39.9	-42.0	17.7	0.00e+00	0	42	0	0	50	4821
2026-01-26 07:19:26.70	18.97	9.36	-39.9	-41.9	17.7	0.00e+00	0	42	0	0	50	4808
2026-01-26 07:19:27.70	18.80	9.33	-39.9	-42.0	17.7	0.00e+00	0	42	0	0	50	4827
2026-01-26 07:19:28.69	18.63	9.31	-40.0	-42.1	17.6	0.00e+00	0	42	0	0	50	4898
2026-01-26 07:19:29.69	18.47	9.28	-40.0	-42.1	17.5	0.00e+00	0	42	0	0	50	4907
2026-01-26 07:19:30.68	18.30	9.26	-40.0	-42.1	17.6	0.00e+00	0	42	0	0	50	4880
2026-01-26 07:19:31.68	18.14	9.23	-40.0	-42.1	17.6	0.00e+00	0	42	0	0	50	4874
2026-01-26 07:19:32.67	17.97	9.21	-39.9	-42.0	17.6	0.00e+00	0	42	0	0	50	4848
2026-01-26 07:19:33.67	17.81	9.18	-39.9	-42.1	17.5	0.00e+00	0	42	0	0	50	4874
2026-01-26 07:19:34.66	17.64	9.16	-39.9	-42.0	17.6	0.00e+00	0	42	0	0	50	4847
2026-01-26 07:19:35.66	17.48	9.13	-39.9	-42.0	17.6	0.00e+00	0	42	0	0	50	4858
2026-01-26 07:19:36.65	17.32	9.10	-39.8	-42.0	17.6	0.00e+00	0	42	0	0	50	4827
2026-01-26 07:19:37.64	17.15	9.08	-39.7	-41.8	17.8	0.00e+00	0	42	0	0	50	4740
2026-01-26 07:19:38.64	16.99	9.05	-39.7	-41.8	17.7	0.00e+00	0	42	0	0	50	4750
2026-01-26 07:19:39.64	16.83	9.02	-39.7	-41.9	17.7	0.00e+00	0	42	0	0	50	4762
2026-01-26 07:19:40.63	16.66	9.00	-42.2	-45.2	14.6	0.00e+00	0	42	0	0	54	5562
2026-01-26 07:19:41.63	16.50	8.97	-47.9	-60.9	3.8	1.49e+00	0	42	104	0	66	16949
2026-01-26 07:19:42.62	16.34	8.94	-47.3	-61.2	3.8	1.49e+00	0	42	104	0	65	18697
2026-01-26 07:19:43.61	16.18	8.92	-47.6	-61.4	3.8	1.49e+00	0	42	104	0	66	17992
2026-01-26 07:19:44.60	16.02	8.89	-48.2	-61.5	3.8	1.49e+00	0	42	104	0	67	17141
2026-01-26 07:19:45.60	15.86	8.86	-48.0	-61.5	3.8	1.49e+00	0	42	104	0	67	17184
2026-01-26 07:19:46.59	15.70	8.83	-48.5	-61.6	3.8	1.49e+00	0	42	104	0	67	17292
2026-01-26 07:19:47.58	15.54	8.80	-48.0	-61.6	3.8	1.49e+00	0	42	104	0	67	17472
2026-01-26 07:19:48.58	15.38	8.78	-48.4	-61.6	3.8	1.49e+00	0	42	104	0	67	17481
2026-01-26 07:19:49.57	15.22	8.75	-48.8	-61.9	3.8	1.49e+00	0	42	104	0	68	16935
2026-01-26 07:19:50.56	15.06	8.72	-48.7	-61.9	3.8	1.49e+00	0	42	104	0	68	16943
2026-01-26 07:19:51.56	14.90	8.69	-48.8	-61.9	3.8	1.49e+00	0	42	104	0	68	17023
2026-01-26 07:19:52.55	14.74	8.66	-48.7	-62.0	3.8	1.49e+00	0	42	104	0	68	17128
2026-01-26 07:19:53.54	14.59	8.63	-48.6	-62.0	3.8	1.49e+00	0	42	104	0	68	17103
2026-01-26 07:19:54.54	14.43	8.60	-48.9	-62.0	3.8	1.49e+00	0	42	104	0	68	17122
2026-01-26 07:19:55.53	14.27	8.57	-48.9	-62.0	3.8	1.49e+00	0	42	104	0	68	17124
2026-01-26 07:19:56.52	14.11	8.54	-48.9	-62.0	3.8	1.49e+00	0	42	104	0	68	17186
2026-01-26 07:19:57.52	13.96	8.51	-48.9	-62.0	3.8	1.49e+00	0	42	104	0	68	17163
2026-01-26 07:19:58.51	13.80	8.48	-48.9	-62.0	3.8	1.49e+00	0	42	104	0	68	17102
2026-01-26 07:19:59.50	13.64	8.45	-49.0	-61.9	3.8	1.49e+00	0	42	104	0	68	17074
2026-01-26 07:20:00.50	13.49	8.42	-48.7	-62.0	3.8	1.49e+00	0	42	104	0	68	17096
2026-01-26 07:20:01.49	13.33	8.39	-48.9	-62.0	3.8	1.49e+00	0	42	104	0	68	17143
2026-01-26 07:20:02.48	13.18	8.36	-48.8	-62.0	3.8	1.49e+00	0	42	104	0	68	17103
2026-01-26 07:20:03.48	13.02	8.33	-48.8	-61.9	3.8	1.49e+00	0	42	104	0	68	17029
2026-01-26 07:20:04.47	12.87	8.30	-48.7	-61.9	3.8	1.49e+00	0	42	104	0	68	16986
2026-01-26 07:20:05.46	12.71	8.27	-48.7	-61.9	3.8	1.49e+00	0	42	104	0	68	16971
2026-01-26 07:20:06.46	12.56	8.24	-48.7	-61.9	3.8	1.49e+00	0	42	104	0	68	16969
2026-01-26 07:20:07.45	12.41	8.20	-48.7	-61.9	3.8	1.49e+00	0	42	104	0	68	16962
2026-01-26 07:20:08.44	12.25	8.17	-48.7	-61.9	3.8	1.49e+00	0	42	104	0	68	16929
2026-01-26 07:20:09.44	12.10	8.14	-48.7	-61.9	3.8	1.49e+00	0	42	104	0	68	16927
2026-01-26 07:20:10.43	11.95	8.11	-48.7	-61.9	3.8	1.49e+00	0	42	104	0	68	16960
2026-01-26 07:20:11.42	11.80	8.08	-48.7	-61.8	3.8	1.49e+00	0	42	104	0	68	16851
2026-01-26 07:20:12.42	11.64	8.04	-48.7	-61.8	3.8	1.49e+00	0	42	104	0	68	16869
2026-01-26 07:20:13.41	11.49	8.01	-48.7	-61.8	3.8	1.49e+00	0	42	104	0	68	16856
2026-01-26 07:20:14.40	11.34	7.98	-48.7	-61.8	3.8	1.49e+00	0	42	104	0	68	16860
2026-01-26 07:20:15.39	11.19	7.95	-48.6	-61.8	3.8	1.49e+00	0	42	104	0	68	16850
2026-01-26 07:20:16.39	11.04	7.91	-48.7	-61.8	3.8	1.49e+00	0	42	104	0	68	16849
2026-01-26 07:20:17.38	10.89	7.88	-48.7	-61.8	3.8	1.49e+00	0	42	104	0	68	16831
2026-01-26 07:20:18.37	10.74	7.85	-48.6	-61.8	3.8	1.49e+00	0	42	104	0	68	16855
2026-01-26 07:20:19.37	10.59	7.81	-48.7	-61.9	3.8	1.49e+00	0	42	104	0	68	16912
2026-01-26 07:20:20.36	10.44	7.78	-48.7	-61.8	3.8	1.49e+00	0	42	104	0	68	16829
2026-01-26 07:20:21.35	10.30	7.75	-48.6	-61.8	3.8	1.49e+00	0	42	104	0	68	16852
2026-01-26 07:20:22.34	10.15	7.71	-48.6	-61.8	3.8	1.49e+00	0	42	104	0	68	16856
2026-01-26 07:20:23.34	10.00	7.68	-48.7	-61.8	3.8	1.49e+00	0	42	104	0	68	16860
2026-01-26 07:20:24.33	9.85	7.65	-48.7	-61.8	3.8	1.49e+00	0	42	104	0	68	16846
2026-01-26 07:20:25.32	9.71	7.61	-48.6	-61.8	3.8	1.49e+00	0	42	104	0	68	16883
2026-01-26 07:20:26.32	9.56	7.58	-48.6	-61.8	3.8	1.49e+00	0	42	104	0	68	16809
2026-01-26 07:20:27.31	9.41	7.54	-48.6	-61.8	3.8	1.49e+00	0	42	104	0	68	16832
2026-01-26 07:20:28.30	9.27	7.51	-48.6	-61.8	3.8	1.49e+00	0	42	104	0	68	16775
2026-01-26 07:20:29.30	9.12	7.47	-48.6	-61.8	3.8	1.49e+00	0	42	104	0	68	16778
2026-01-26 07:20:30.29	8.98	7.44	-48.6	-61.8	3.8	1.49e+00	0	42	104	0	68	16823
2026-01-26 07:20:31.28	8.83	7.40	-48.6	-61.8	3.8	1.49e+00	0	42	104	0	68	16801
2026-01-26 07:20:32.28	8.69	7.37	-48.6	-61.8	3.8	1.49e+00	0	42	104	0	68	16811
2026-01-26 07:20:33.27	8.54	7.33	-48.6	-61.8	3.8	1.49e+00	0	42	104	0	68	16836
2026-01-26 07:20:34.26	8.40	7.30	-48.6	-61.8	3.8	1.49e+00	0	42	104	0	68	16832
2026-01-26 07:20:35.25	8.25	7.26	-48.6	-61.8	3.8	1.49e+00	0	42	104	0	68	16796
2026-01-26 07:20:36.25	8.11	7.23	-48.6	-61.8	3.8	1.49e+00	0	42	104	0	68	16774
2026-01-26 07:20:37.24	7.97	7.19	-48.6	-61.8	3.8	1.49e+00	0	42	104	0	68	16823
2026-01-26 07:20:38.23	7.83	7.16	-48.6	-61.8	3.8	1.49e+00	0	42	104	0	68	16762
2026-01-26 07:20:39.23	7.68	7.12	-48.6	-61.8	3.8	1.49e+00	0	42	104	0	68	16820
2026-01-26 07:20:40.22	7.54	7.08	-48.6	-61.8	3.8	1.49e+00	0	42	104	0	68	16838
2026-01-26 07:20:41.21	7.40	7.05	-48.6	-61.8	3.8	1.49e+00	0	42	104	0	68	16809
2026-01-26 07:20:42.20	7.26	7.01	-48.6	-61.8	3.8	1.49e+00	0	42	104	0	68	16789
2026-01-26 07:20:43.20	7.12	6.98	-48.6	-61.8	3.8	1.49e+00	0	42	104	0	68	16780
2026-01-26 07:20:44.19	6.98	6.94	-48.6	-61.8	3.8	1.49e+00	0	42	104	0	68	16772
2026-01-26 07:20:45.18	6.84	6.90	-48.6	-61.8	3.8	1.49e+00	0	42	104	0	68	16784
2026-01-26 07:20:46.17	6.70	6.87	-48.6	-61.8	3.8	1.49e+00	0	42	104	0	68	16811
2026-01-26 07:20:47.17	6.56	6.83	-48.6	-61.8	3.8	1.49e+00	0	42	104	0	68	16788
2026-01-26 07:20:48.16	6.42	6.79	-48.6	-61.8	3.8	1.49e+00	0	42	104	0	68	16796
2026-01-26 07:20:49.16	6.28	6.76	-48.6	-61.8	3.8	1.49e+00	0	42	104	0	68	16764
2026-01-26 07:20:50.15	6.14	6.72	-48.6	-61.8	3.8	1.49e+00	0	42	104	0	68	16775
2026-01-26 07:20:51.14	6.01	6.68	-48.6	-61.8	3.8	1.49e+00	0	42	104	0	68	16773
2026-01-26 07:20:52.13	5.87	6.64	-48.6	-61.8	3.8	1.49e+00	0	42	104	0	68	16784
2026-01-26 07:20:53.13	5.73	6.61	-48.6	-61.8	3.8	1.49e+00	0	42	104	0	68	16791
2026-01-26 07:20:54.12	5.59	6.57	-48.6	-61.8	3.8	1.49e+00	0	42	104	0	68	16788
2026-01-26 07:20:55.11	5.46	6.53	-48.6	-61.8	3.8	1.49e+00	0	42	104	0	68	16773
2026-01-26 07:20:56.11	5.32	6.49	-48.6	-61.8	3.8	1.49e+00	0	42	104	0	68	16805
2026-01-26 07:20:57.10	5.19	6.46	-48.6	-61.8	3.8	1.49e+00	0	42	104	0	68	16752
2026-01-26 07:20:58.09	5.05	6.42	-48.6	-61.8	3.8	1.49e+00	0	42	104	0	68	16856
2026-01-26 07:20:59.08	4.92	6.38	-48.6	-61.8	3.8	1.49e+00	0	42	104	0	68	16793
2026-01-26 07:21:00.08	4.78	6.34	-48.6	-61.8	3.8	1.49e+00	0	42	104	0	68	16786
2026-01-26 07:21:01.07	4.65	6.30	-48.6	-61.7	3.8	1.49e+00	0	42	104	0	68	16672
2026-01-26 07:21:02.06	4.51	6.27	-48.6	-61.7	3.8	1.49e+00	0	42	104	0	68	16688
2026-01-26 07:21:03.06	4.38	6.23	-48.6	-61.8	3.8	1.49e+00	0	42	104	0	68	16721
2026-01-26 07:21:04.05	4.25	6.19	-48.6	-61.8	3.8	1.49e+00	0	42	104	0	68	16723
2026-01-26 07:21:05.04	4.12	6.15	-48.6	-61.8	3.8	1.49e+00	0	42	104	0	68	16703
2026-01-26 07:21:06.04	3.98	6.11	-48.6	-61.8	3.8	1.49e+00	0	42	104	0	68	16695
2026-01-26 07:21:07.03	3.85	6.07	-48.6	-61.8	3.8	1.49e+00	0	43	104	0	68	16731
2026-01-26 07:21:08.02	3.72	6.04	-48.6	-61.8	3.8	1.49e+00	0	42	104	0	68	16748
2026-01-26 07:21:09.01	3.59	6.00	-48.6	-61.8	3.8	1.49e+00	0	42	104	0	68	16703
2026-01-26 07:21:10.01	3.46	5.96	-48.6	-61.8	3.8	1.49e+00	0	42	104	0	68	16731
2026-01-26 07:21:11.00	3.33	5.92	-48.6	-61.7	3.8	1.49e+00	0	42	104	0	68	16678
2026-01-26 07:21:11.99	3.20	5.88	-48.6	-61.8	3.8	1.49e+00	0	42	104	0	68	16746
2026-01-26 07:21:12.99	3.07	5.84	-48.5	-61.8	3.8	1.49e+00	0	42	104	0	68	16703
2026-01-26 07:21:13.98	2.94	5.80	-48.6	-61.8	3.8	1.49e+00	0	42	104	0	68	16720
2026-01-26 07:21:14.97	2.81	5.76	-48.6	-61.8	3.8	1.49e+00	0	42	104	0	68	16701
2026-01-26 07:21:15.97	2.68	5.72	-48.6	-61.7	3.8	1.49e+00	0	42	104	0	68	16646
2026-01-26 07:21:16.96	2.55	5.68	-48.6	-61.8	3.8	1.49e+00	0	42	104	0	68	16737
2026-01-26 07:21:17.95	2.42	5.64	-48.6	-61.7	3.8	1.49e+00	0	42	104	0	68	16655
2026-01-26 07:21:18.95	2.29	5.60	-48.6	-61.8	3.8	1.49e+00	0	42	104	0	68	16708
2026-01-26 07:21:19.94	2.17	5.56	-48.6	-61.7	3.8	1.49e+00	0	42	104	0	68	16651
2026-01-26 07:21:20.93	2.04	5.52	-48.6	-61.8	3.8	1.49e+00	0	42	104	0	68	16735
2026-01-26 07:21:21.93	1.91	5.48	-48.6	-61.8	3.8	1.49e+00	0	42	104	0	68	16708
2026-01-26 07:21:22.92	1.79	5.44	-48.6	-61.8	3.8	1.49e+00	0	42	104	0	68	16721
2026-01-26 07:21:23.91	1.66	5.40	-48.5	-61.8	3.8	1.49e+00	0	42	104	0	68	16701
2026-01-26 07:21:24.90	1.54	5.36	-48.6	-61.7	3.8	1.49e+00	0	42	104	0	68	16694
2026-01-26 07:21:25.89	1.41	5.32	-48.6	-61.7	3.8	1.49e+00	0	42	104	0	68	16615
2026-01-26 07:21:26.89	1.28	5.28	-48.6	-61.7	3.8	1.49e+00	0	42	104	0	68	16651
2026-01-26 07:21:27.88	1.16	5.24	-48.5	-61.7	3.8	1.49e+00	0	42	104	0	68	16693
2026-01-26 07:21:28.87	1.04	5.20	-48.6	-61.7	3.8	1.49e+00	0	42	104	0	68	16651
2026-01-26 07:21:29.87	0.91	5.16	-48.6	-61.8	3.8	1.49e+00	0	42	104	0	68	16702
2026-01-26 07:21:30.86	0.79	5.12	-48.6	-61.7	3.8	1.49e+00	0	42	104	0	68	16691
2026-01-26 07:21:31.85	0.67	5.08	-48.6	-61.8	3.8	1.49e+00	0	42	104	0	68	16710
2026-01-26 07:21:32.84	0.54	5.04	-48.5	-61.7	3.8	1.49e+00	0	42	104	0	68	16681
2026-01-26 07:21:33.84	0.42	5.00	-48.6	-61.8	3.8	1.49e+00	0	42	104	0	68	16702

#Closed at: 2026-01-26 07:21:34
#Recorded file [0 MB]: D:/Data/31040_260126_101408.dat