passes_logs/2026/01/26/T1/T1__20260126_122631_AQUA_rec.log

#Pass ID: 20260126_122631_AQUA
#Satellite: AQUA
#Configuration: AQUA
#almurnet v.1.7.20251203
#Start time: 2026-01-26 12:26:30

#Version: 2.0.20230620
#Station: T1
#Location: 37.570604 lon 55.790049 lat
#TLE: 1 27424U 02022A   26025.63222646  .00001891  00000+0  38818-3 0  9990
#TLE: 2 27424  98.4099 352.2393 0001892  65.6900 348.5270 14.61859542262445

#Time	Az	El	Level	Level2	SNR	BER	BlckErr	Temp	State	Recorded	gain1	gain2
2026-01-26 12:26:30.89	186.29	4.96	-49.5	-71.4	3.8	7.43e-01	0	40	0	0	70	45341
2026-01-26 12:26:31.88	186.35	5.03	-48.7	-70.3	3.8	7.47e-01	0	40	104	0	68	44760
2026-01-26 12:26:32.87	186.40	5.10	-48.8	-70.5	3.8	7.46e-01	0	40	104	0	68	45720
2026-01-26 12:26:33.86	186.45	5.17	-48.7	-70.8	3.8	7.48e-01	0	40	104	0	68	47305
2026-01-26 12:26:34.86	186.50	5.24	-48.8	-71.1	3.8	7.48e-01	0	40	104	0	68	48741
2026-01-26 12:26:35.85	186.56	5.31	-48.8	-71.2	3.8	7.46e-01	0	40	104	0	68	49448
2026-01-26 12:26:36.84	186.61	5.39	-48.7	-71.1	3.8	7.47e-01	0	40	104	0	68	48911
2026-01-26 12:26:37.84	186.66	5.46	-48.7	-70.8	3.8	7.43e-01	0	40	104	0	68	47529
2026-01-26 12:26:38.83	186.72	5.53	-48.7	-70.4	3.8	7.44e-01	0	41	104	0	68	45354
2026-01-26 12:26:39.82	186.77	5.60	-48.7	-70.0	3.8	7.48e-01	0	41	104	0	68	42966
2026-01-26 12:26:40.82	186.83	5.68	-48.7	-69.8	3.8	7.46e-01	0	41	104	0	68	42015
2026-01-26 12:26:41.81	186.88	5.75	-48.7	-69.4	3.9	7.46e-01	0	41	104	0	68	40074
2026-01-26 12:26:42.80	186.94	5.82	-48.6	-69.5	3.8	7.46e-01	0	41	104	0	68	40628
2026-01-26 12:26:43.80	186.99	5.90	-48.7	-69.5	3.9	7.44e-01	0	41	104	0	68	40531
2026-01-26 12:26:44.79	187.05	5.97	-48.6	-69.8	3.8	7.45e-01	0	41	104	0	68	42226
2026-01-26 12:26:45.78	187.10	6.05	-48.7	-70.0	3.8	7.45e-01	0	41	104	0	68	43192
2026-01-26 12:26:46.78	187.16	6.12	-48.6	-70.1	3.8	7.45e-01	0	41	104	0	68	43610
2026-01-26 12:26:47.77	187.22	6.20	-48.7	-70.0	3.8	7.43e-01	0	41	104	0	68	43354
2026-01-26 12:26:48.76	187.27	6.27	-48.7	-69.8	3.8	7.46e-01	0	41	104	0	68	42348
2026-01-26 12:26:49.76	187.33	6.35	-48.7	-69.6	3.8	7.47e-01	0	41	104	0	68	41208
2026-01-26 12:26:50.75	187.39	6.42	-48.7	-69.3	3.8	7.43e-01	0	41	104	0	68	39695
2026-01-26 12:26:51.74	187.44	6.50	-48.8	-69.2	3.9	7.41e-01	0	41	104	0	68	39179
2026-01-26 12:26:52.73	187.50	6.57	-48.8	-69.0	3.9	7.40e-01	0	41	104	0	68	38472
2026-01-26 12:26:53.73	187.56	6.65	-48.7	-69.2	3.9	7.45e-01	0	41	104	0	68	39396
2026-01-26 12:26:54.72	187.62	6.72	-48.7	-69.5	3.8	7.48e-01	0	41	104	0	68	40969
2026-01-26 12:26:55.71	187.68	6.80	-48.7	-69.8	3.8	7.46e-01	0	41	104	0	68	42094
2026-01-26 12:26:56.71	187.74	6.88	-48.8	-69.7	3.8	7.44e-01	0	41	104	0	68	41718
2026-01-26 12:26:57.70	187.80	6.95	-48.6	-68.9	3.9	7.38e-01	0	41	104	0	68	37835
2026-01-26 12:26:58.69	187.86	7.03	-48.6	-67.7	3.9	7.40e-01	0	41	104	0	68	33244
2026-01-26 12:26:59.68	187.92	7.11	-48.6	-66.1	4.7	7.20e-01	0	41	104	0	68	27500
2026-01-26 12:27:00.68	187.98	7.19	-48.5	-65.4	5.1	7.05e-01	0	41	0	0	68	25363
2026-01-26 12:27:01.67	188.04	7.26	-48.6	-65.2	5.2	7.04e-01	0	41	0	0	68	24720
2026-01-26 12:27:02.66	188.10	7.34	-48.6	-66.6	4.0	7.39e-01	0	41	104	0	68	29341
2026-01-26 12:27:03.66	188.16	7.42	-48.6	-69.0	3.8	7.42e-01	0	41	104	0	68	38335
2026-01-26 12:27:04.65	188.22	7.50	-48.7	-71.0	3.8	7.42e-01	0	41	104	0	68	48504
2026-01-26 12:27:05.64	188.28	7.58	-48.6	-66.7	3.9	7.37e-01	0	41	104	0	68	29365
2026-01-26 12:27:06.64	188.35	7.66	-48.3	-60.6	9.2	6.34e-01	0	41	0	1048576	68	14566
2026-01-26 12:27:07.63	188.41	7.74	-47.8	-56.7	13.1	6.11e-01	0	42	0	2621440	67	9906
2026-01-26 12:27:08.62	188.47	7.82	-46.9	-53.6	16.3	6.07e-01	0	41	0	4718592	65	7750
2026-01-26 12:27:09.62	188.54	7.90	-46.2	-51.6	18.3	6.06e-01	0	42	0	6291456	64	6499
2026-01-26 12:27:10.61	188.60	7.98	-45.4	-49.9	20.0	6.05e-01	0	42	0	8388608	62	6036
2026-01-26 12:27:11.60	188.67	8.06	-44.7	-48.6	21.1	6.07e-01	0	41	0	9961472	61	5470
2026-01-26 12:27:12.60	188.73	8.14	-44.2	-47.7	22.1	6.07e-01	0	41	0	12058624	60	5267
2026-01-26 12:27:13.59	188.80	8.22	-44.0	-47.3	22.6	6.08e-01	0	41	0	14155776	59	5321
2026-01-26 12:27:14.58	188.86	8.30	-44.0	-47.3	22.7	6.09e-01	0	42	0	15728640	59	5288
2026-01-26 12:27:15.58	188.93	8.38	-44.0	-47.3	22.7	6.07e-01	0	42	0	17825792	59	5311
2026-01-26 12:27:16.57	188.99	8.46	-44.4	-47.9	22.1	6.07e-01	0	42	0	19398656	59	5713
2026-01-26 12:27:17.56	189.06	8.54	-44.7	-48.6	21.4	6.06e-01	0	42	0	21495808	60	5814
2026-01-26 12:27:18.56	189.13	8.63	-45.3	-49.7	20.3	6.06e-01	0	42	0	23068672	61	6217
2026-01-26 12:27:19.55	189.20	8.71	-46.0	-51.0	19.1	6.08e-01	0	42	0	25165824	62	6824
2026-01-26 12:27:20.54	189.26	8.79	-46.6	-52.6	17.5	6.05e-01	0	41	0	26738688	63	7771
2026-01-26 12:27:21.53	189.33	8.87	-47.1	-54.2	15.8	6.09e-01	0	42	0	28835840	64	8845
2026-01-26 12:27:22.53	189.40	8.96	-47.7	-56.6	13.4	6.09e-01	0	42	0	30408704	66	10327
2026-01-26 12:27:23.52	189.47	9.04	-48.1	-58.6	11.3	6.17e-01	0	42	0	32505856	66	13087
2026-01-26 12:27:24.52	189.54	9.13	-48.1	-59.2	10.4	6.23e-01	0	42	0	34603008	67	13260
2026-01-26 12:27:25.51	189.61	9.21	-47.5	-55.3	14.2	6.08e-01	0	42	0	36175872	67	8396
2026-01-26 12:27:26.50	189.68	9.29	-48.1	-59.0	11.9	6.20e-01	0	42	0	38273024	66	13688
2026-01-26 12:27:27.50	189.75	9.38	-48.2	-61.2	8.2	6.43e-01	0	42	0	39845888	67	16610
2026-01-26 12:27:28.50	189.82	9.46	-47.4	-54.4	15.3	6.08e-01	0	42	0	41943040	66	8025
2026-01-26 12:27:29.49	189.89	9.55	-47.5	-54.5	15.6	6.07e-01	0	42	0	43515904	66	8087
2026-01-26 12:27:30.49	189.97	9.64	-47.5	-54.4	15.6	6.06e-01	0	42	0	45613056	66	8036
2026-01-26 12:27:31.48	190.04	9.72	-47.2	-53.5	16.4	6.08e-01	0	42	0	47185920	66	7210
2026-01-26 12:27:32.48	190.11	9.81	-46.8	-52.5	17.5	6.06e-01	0	42	0	49283072	65	6852
2026-01-26 12:27:33.47	190.18	9.89	-46.5	-52.0	18.1	6.07e-01	0	42	0	51380224	64	6879
2026-01-26 12:27:34.47	190.26	9.98	-46.3	-51.7	18.2	6.07e-01	0	42	0	52953088	64	6617
2026-01-26 12:27:35.47	190.33	10.07	-46.2	-51.5	18.5	6.08e-01	0	42	0	55050240	64	6435
2026-01-26 12:27:36.46	190.41	10.16	-46.4	-52.2	18.1	6.06e-01	0	42	0	56623104	64	6985
2026-01-26 12:27:37.46	190.48	10.25	-45.9	-51.1	18.8	6.08e-01	0	42	0	58720256	64	6199
2026-01-26 12:27:38.45	190.56	10.33	-45.6	-50.3	19.7	6.06e-01	0	42	0	60293120	63	5982
2026-01-26 12:27:39.45	190.64	10.42	-45.0	-49.3	20.8	6.08e-01	0	42	0	62390272	62	5619
2026-01-26 12:27:40.44	190.71	10.51	-44.5	-48.5	21.6	6.08e-01	0	42	0	64487424	61	5443
2026-01-26 12:27:41.44	190.79	10.60	-44.3	-48.1	22.0	6.08e-01	0	42	0	66060288	60	5525
2026-01-26 12:27:42.43	190.87	10.69	-44.1	-47.8	22.2	6.05e-01	0	42	0	68157440	60	5319
2026-01-26 12:27:43.43	190.95	10.78	-44.3	-47.9	22.3	6.08e-01	0	42	0	69730304	59	5687
2026-01-26 12:27:44.42	191.02	10.87	-43.9	-47.4	22.7	6.07e-01	0	42	0	71827456	59	5364
2026-01-26 12:27:45.42	191.10	10.96	-43.8	-47.2	22.9	6.08e-01	0	42	0	73400320	59	5250
2026-01-26 12:27:46.41	191.18	11.05	-43.7	-47.1	23.0	6.05e-01	0	42	0	75497472	59	5190
2026-01-26 12:27:47.41	191.26	11.14	-44.0	-47.4	22.8	6.08e-01	0	42	0	77070336	59	5344
2026-01-26 12:27:48.40	191.34	11.23	-43.8	-47.1	23.1	6.05e-01	0	42	0	79167488	59	5196
2026-01-26 12:27:49.40	191.43	11.32	-43.8	-47.0	23.2	6.06e-01	0	42	0	81264640	59	5114
2026-01-26 12:27:50.39	191.51	11.42	-43.7	-46.9	23.2	6.04e-01	0	42	0	82837504	59	5067
2026-01-26 12:27:51.39	191.59	11.51	-43.6	-46.7	23.4	6.07e-01	0	42	0	84934656	59	4965
2026-01-26 12:27:52.38	191.67	11.60	-43.5	-46.5	23.6	6.05e-01	0	42	0	86507520	59	4865
2026-01-26 12:27:53.37	191.76	11.69	-43.5	-46.5	23.6	6.04e-01	0	42	0	88604672	59	4867
2026-01-26 12:27:54.37	191.84	11.79	-43.6	-46.5	23.5	6.07e-01	0	42	0	90177536	59	4870
2026-01-26 12:27:55.37	191.92	11.88	-43.5	-46.6	23.6	6.05e-01	0	42	0	92274688	59	4872
2026-01-26 12:27:56.36	192.01	11.98	-43.6	-46.5	23.6	6.08e-01	0	42	0	93847552	59	4863
2026-01-26 12:27:57.36	192.10	12.07	-43.5	-46.4	23.7	6.06e-01	0	42	0	95944704	59	4797
2026-01-26 12:27:58.36	192.18	12.17	-43.6	-46.5	23.6	6.10e-01	0	42	0	98041856	59	4847
2026-01-26 12:27:59.35	192.27	12.26	-43.6	-46.5	23.6	6.06e-01	0	42	0	99614720	59	4856
2026-01-26 12:28:00.35	192.36	12.36	-43.5	-46.4	23.8	6.09e-01	0	42	0	101711872	59	4775
2026-01-26 12:28:01.34	192.44	12.45	-43.5	-46.4	23.7	6.04e-01	0	42	0	103284736	58	5072
2026-01-26 12:28:02.34	192.53	12.55	-43.6	-46.5	23.7	6.06e-01	0	42	0	105381888	58	5109
2026-01-26 12:28:03.33	192.62	12.64	-43.5	-46.4	23.8	6.05e-01	0	42	0	106954752	58	5065
2026-01-26 12:28:04.33	192.71	12.74	-43.4	-46.3	23.8	6.06e-01	0	42	0	109051904	58	5008
2026-01-26 12:28:05.32	192.80	12.84	-43.5	-46.4	23.6	6.04e-01	0	42	0	110624768	58	5067
2026-01-26 12:28:06.31	192.89	12.94	-43.4	-46.2	23.9	6.04e-01	0	42	0	112721920	58	4957
2026-01-26 12:28:07.31	192.98	13.04	-43.4	-46.3	23.9	6.07e-01	0	42	0	114819072	58	4992
2026-01-26 12:28:08.30	193.08	13.13	-43.4	-46.3	23.9	6.08e-01	0	42	0	116391936	58	4996
2026-01-26 12:28:09.30	193.17	13.23	-43.3	-46.2	24.0	6.09e-01	0	42	0	118489088	58	4930
2026-01-26 12:28:10.29	193.26	13.33	-43.4	-46.2	23.9	6.07e-01	0	42	0	120061952	58	4979
2026-01-26 12:28:11.29	193.36	13.43	-43.4	-46.3	23.9	6.08e-01	0	42	0	122159104	58	4993
2026-01-26 12:28:12.28	193.45	13.53	-43.3	-46.2	24.0	6.06e-01	0	42	0	123731968	58	4960
2026-01-26 12:28:13.28	193.55	13.63	-43.3	-46.2	24.0	6.06e-01	0	42	0	125829120	58	4949
2026-01-26 12:28:14.27	193.64	13.73	-43.3	-46.2	24.0	6.05e-01	0	42	0	127401984	58	4936
2026-01-26 12:28:15.27	193.74	13.83	-43.3	-46.2	23.9	6.06e-01	0	42	0	129499136	58	4954
2026-01-26 12:28:16.26	193.84	13.94	-43.3	-46.1	24.0	6.06e-01	0	42	0	131596288	58	4917
2026-01-26 12:28:17.25	193.94	14.04	-43.3	-46.1	24.1	6.05e-01	0	42	0	133169152	58	4884
2026-01-26 12:28:18.25	194.04	14.14	-43.3	-46.2	24.0	6.06e-01	0	42	0	135266304	58	4931
2026-01-26 12:28:19.24	194.13	14.24	-43.3	-46.1	24.0	6.05e-01	0	42	0	136839168	58	4919
2026-01-26 12:28:20.24	194.24	14.35	-43.4	-46.2	24.0	6.07e-01	0	42	0	138936320	58	4947
2026-01-26 12:28:21.23	194.34	14.45	-43.3	-46.0	24.2	6.09e-01	0	42	0	140509184	58	4851
2026-01-26 12:28:22.23	194.44	14.55	-43.3	-46.0	24.1	6.03e-01	0	42	0	142606336	58	4838
2026-01-26 12:28:23.22	194.54	14.66	-43.2	-45.9	24.2	6.08e-01	0	42	0	144703488	58	4802
2026-01-26 12:28:24.22	194.64	14.76	-43.1	-45.8	24.4	6.09e-01	0	42	0	146276352	58	4733
2026-01-26 12:28:25.21	194.75	14.87	-43.1	-45.8	24.3	6.05e-01	0	42	0	148373504	58	4758
2026-01-26 12:28:26.21	194.85	14.97	-43.0	-45.7	24.4	6.07e-01	0	42	0	149946368	58	4695
2026-01-26 12:28:27.20	194.96	15.08	-43.0	-45.7	24.4	6.06e-01	0	42	0	152043520	58	4701
2026-01-26 12:28:28.20	195.07	15.19	-43.1	-45.8	24.4	6.06e-01	0	42	0	153616384	58	4711
2026-01-26 12:28:29.19	195.17	15.29	-43.1	-45.8	24.3	6.06e-01	0	42	0	155713536	58	4751
2026-01-26 12:28:30.19	195.28	15.40	-43.1	-45.8	24.4	6.05e-01	0	42	0	157286400	58	4751
2026-01-26 12:28:31.18	195.39	15.51	-43.2	-45.9	24.2	6.05e-01	0	42	0	159383552	58	4812
2026-01-26 12:28:32.17	195.50	15.62	-43.2	-45.9	24.2	6.07e-01	0	42	0	161480704	58	4806
2026-01-26 12:28:33.17	195.61	15.73	-43.2	-45.9	24.3	6.06e-01	0	42	0	163053568	58	4799
2026-01-26 12:28:34.16	195.72	15.84	-43.1	-45.9	24.3	6.07e-01	0	42	0	165150720	58	4790
2026-01-26 12:28:35.16	195.83	15.95	-43.2	-45.9	24.3	6.06e-01	0	42	0	166723584	58	4795
2026-01-26 12:28:36.15	195.94	16.06	-43.1	-45.8	24.4	6.07e-01	0	42	0	168820736	58	4751
2026-01-26 12:28:37.14	196.06	16.17	-43.0	-45.7	24.4	6.06e-01	0	42	0	170393600	58	4702
2026-01-26 12:28:38.14	196.17	16.28	-43.2	-45.8	24.4	6.06e-01	0	42	0	172490752	58	4757
2026-01-26 12:28:39.13	196.29	16.39	-43.1	-45.8	24.4	6.07e-01	0	42	0	174063616	58	4726
2026-01-26 12:28:40.13	196.40	16.50	-43.2	-45.9	24.3	6.06e-01	0	42	0	176160768	58	4773
2026-01-26 12:28:41.12	196.52	16.61	-43.3	-45.9	24.3	6.07e-01	0	42	0	178257920	58	4804
2026-01-26 12:28:42.12	196.64	16.73	-43.1	-45.8	24.5	6.06e-01	0	43	0	179830784	58	4708
2026-01-26 12:28:43.11	196.76	16.84	-43.1	-45.7	24.6	6.06e-01	0	42	0	181927936	58	4657
2026-01-26 12:28:44.11	196.88	16.95	-43.2	-45.8	24.4	6.05e-01	0	42	0	183500800	58	4732
2026-01-26 12:28:45.10	197.00	17.07	-43.1	-45.7	24.5	6.07e-01	0	42	0	185597952	58	4669
2026-01-26 12:28:46.10	197.12	17.18	-43.0	-45.6	24.6	6.06e-01	0	42	0	187170816	58	4613
2026-01-26 12:28:47.09	197.24	17.30	-43.1	-45.6	24.6	6.07e-01	0	42	0	189267968	58	4603
2026-01-26 12:28:48.08	197.37	17.41	-43.2	-45.7	24.6	6.04e-01	0	42	0	190840832	58	4660
2026-01-26 12:28:49.08	197.49	17.53	-43.2	-45.7	24.5	6.03e-01	0	42	0	192937984	58	4688
2026-01-26 12:28:50.07	197.62	17.65	-43.3	-45.7	24.5	6.06e-01	0	42	0	195035136	58	4697
2026-01-26 12:28:51.07	197.75	17.76	-43.2	-45.7	24.5	6.07e-01	0	42	0	196608000	58	4683
2026-01-26 12:28:52.06	197.87	17.88	-43.2	-45.7	24.5	6.06e-01	0	42	0	198705152	58	4683
2026-01-26 12:28:53.06	198.00	18.00	-43.3	-45.7	24.4	6.04e-01	0	42	0	200278016	58	4703
2026-01-26 12:28:54.05	198.13	18.12	-43.1	-45.6	24.6	6.09e-01	0	42	0	202375168	58	4603
2026-01-26 12:28:55.05	198.26	18.24	-43.2	-45.6	24.6	6.05e-01	0	42	0	203948032	58	4645
2026-01-26 12:28:56.04	198.40	18.36	-43.2	-45.7	24.5	6.05e-01	0	42	0	206045184	58	4678
2026-01-26 12:28:57.04	198.53	18.48	-43.3	-45.8	24.4	6.07e-01	0	42	0	207618048	58	4722
2026-01-26 12:28:58.03	198.66	18.60	-43.4	-45.9	24.3	6.07e-01	0	42	0	209715200	58	4794
2026-01-26 12:28:59.03	198.80	18.72	-43.3	-45.8	24.4	6.06e-01	0	43	0	211812352	58	4737
2026-01-26 12:29:00.02	198.93	18.84	-43.2	-45.7	24.5	6.04e-01	0	42	0	213385216	58	4705
2026-01-26 12:29:01.02	199.07	18.96	-43.2	-45.7	24.5	6.04e-01	0	42	0	215482368	58	4685
2026-01-26 12:29:02.01	199.21	19.09	-43.2	-45.7	24.5	6.07e-01	0	42	0	217055232	58	4696
2026-01-26 12:29:03.01	199.35	19.21	-43.2	-45.7	24.5	6.07e-01	0	42	0	219152384	58	4681
2026-01-26 12:29:04.00	199.49	19.33	-43.2	-45.8	24.4	6.04e-01	0	42	0	220725248	58	4736
2026-01-26 12:29:05.00	199.64	19.46	-43.2	-45.9	24.4	6.07e-01	0	42	0	222822400	58	4768
2026-01-26 12:29:05.99	199.78	19.58	-43.2	-45.9	24.4	6.07e-01	0	42	0	224919552	58	4768
2026-01-26 12:29:06.99	199.92	19.71	-43.2	-45.8	24.4	6.07e-01	0	42	0	226492416	58	4751
2026-01-26 12:29:07.98	200.07	19.83	-43.2	-45.7	24.5	6.07e-01	0	42	0	228589568	58	4702
2026-01-26 12:29:08.97	200.21	19.96	-43.3	-45.8	24.5	6.10e-01	0	42	0	230162432	58	4724
2026-01-26 12:29:09.97	200.36	20.09	-43.2	-45.6	24.6	6.04e-01	0	43	0	232259584	58	4649
2026-01-26 12:29:10.96	200.51	20.21	-43.2	-45.7	24.5	6.07e-01	0	42	0	233832448	58	4671
2026-01-26 12:29:11.96	200.66	20.34	-43.3	-45.8	24.5	6.06e-01	0	42	0	235929600	58	4745
2026-01-26 12:29:12.96	200.82	20.47	-43.4	-45.9	24.3	6.06e-01	0	42	0	237502464	58	4796
2026-01-26 12:29:13.95	200.97	20.60	-43.4	-45.9	24.4	6.05e-01	0	42	0	239599616	58	4803
2026-01-26 12:29:14.94	201.12	20.73	-43.4	-45.9	24.4	6.06e-01	0	42	0	241696768	58	4769
2026-01-26 12:29:15.94	201.28	20.86	-43.4	-45.8	24.4	6.05e-01	0	42	0	243269632	58	4743
2026-01-26 12:29:16.93	201.44	20.99	-43.4	-45.9	24.4	6.06e-01	0	43	0	245366784	58	4785
2026-01-26 12:29:17.93	201.60	21.12	-43.5	-45.9	24.3	6.06e-01	0	43	0	246939648	58	4811
2026-01-26 12:29:18.92	201.76	21.25	-43.7	-46.1	24.2	6.10e-01	0	42	0	249036800	58	4910
2026-01-26 12:29:19.92	201.92	21.39	-43.8	-46.3	24.0	6.06e-01	0	43	0	250609664	58	5014
2026-01-26 12:29:20.91	202.08	21.52	-43.7	-46.2	24.1	6.06e-01	0	43	0	252706816	58	4944
2026-01-26 12:29:21.91	202.25	21.65	-43.7	-46.1	24.2	6.08e-01	0	42	0	254279680	58	4915
2026-01-26 12:29:22.90	202.41	21.79	-43.5	-46.0	24.3	6.05e-01	0	42	0	256376832	58	4825
2026-01-26 12:29:23.90	202.58	21.92	-43.5	-46.0	24.3	6.06e-01	0	43	0	258473984	58	4839
2026-01-26 12:29:24.89	202.75	22.06	-43.5	-46.0	24.3	6.07e-01	0	42	0	260046848	58	4833
2026-01-26 12:29:25.89	202.92	22.19	-43.5	-46.0	23.8	6.05e-01	0	42	0	262144000	58	4841
2026-01-26 12:29:26.88	203.09	22.33	-43.5	-46.0	24.2	6.08e-01	0	42	0	263716864	58	4868
2026-01-26 12:29:27.88	203.27	22.46	-43.5	-46.0	24.4	6.06e-01	0	43	0	265814016	58	4819
2026-01-26 12:29:28.87	203.44	22.60	-43.4	-45.8	24.4	6.04e-01	0	43	0	267386880	58	4744
2026-01-26 12:29:29.86	203.62	22.74	-43.5	-46.0	24.3	6.07e-01	0	42	0	269484032	58	4831
2026-01-26 12:29:30.86	203.80	22.88	-43.5	-46.0	24.3	6.06e-01	0	42	0	271056896	58	4834
2026-01-26 12:29:31.85	203.97	23.01	-43.7	-46.3	24.0	6.04e-01	0	42	0	273154048	58	4996
2026-01-26 12:29:32.85	204.16	23.15	-43.6	-46.1	24.2	6.08e-01	0	43	0	275251200	58	4883
2026-01-26 12:29:33.84	204.34	23.29	-43.5	-46.0	24.3	6.06e-01	0	43	0	276824064	58	4834
2026-01-26 12:29:34.84	204.53	23.43	-43.4	-45.9	24.4	6.07e-01	0	43	0	278921216	58	4793
2026-01-26 12:29:35.83	204.71	23.58	-43.4	-45.9	24.4	6.08e-01	0	43	0	280494080	58	4794
2026-01-26 12:29:36.83	204.90	23.72	-43.5	-46.0	24.3	6.05e-01	0	42	0	282591232	58	4847
2026-01-26 12:29:37.82	205.09	23.86	-43.5	-46.0	24.3	6.07e-01	0	42	0	284164096	58	4826
2026-01-26 12:29:38.82	205.28	24.00	-43.5	-46.0	24.3	6.08e-01	0	43	0	286261248	58	4846
2026-01-26 12:29:39.81	205.48	24.14	-43.6	-46.1	24.2	6.08e-01	0	43	0	287834112	58	4873
2026-01-26 12:29:40.81	205.67	24.29	-43.7	-46.2	24.2	6.09e-01	0	42	0	289931264	58	4932
2026-01-26 12:29:41.80	205.87	24.43	-43.6	-46.1	22.7	6.06e-01	0	42	0	292028416	58	4872
2026-01-26 12:29:42.80	206.07	24.58	-43.4	-45.9	24.4	6.06e-01	0	43	0	293601280	58	4777
2026-01-26 12:29:43.80	206.27	24.72	-43.5	-46.0	24.3	6.05e-01	0	43	0	295698432	58	4823
2026-01-26 12:29:44.79	206.47	24.87	-43.4	-45.9	24.5	6.07e-01	0	42	0	297271296	58	4762
2026-01-26 12:29:45.78	206.68	25.01	-43.5	-46.0	24.3	6.07e-01	0	42	0	299368448	58	4828
2026-01-26 12:29:46.78	206.88	25.16	-43.5	-45.9	24.4	6.06e-01	0	42	0	300941312	58	4802
2026-01-26 12:29:47.77	207.09	25.31	-43.5	-45.9	24.4	6.07e-01	0	43	0	303038464	58	4804
2026-01-26 12:29:48.77	207.30	25.46	-43.5	-46.0	24.3	6.04e-01	0	42	0	304611328	58	4823
2026-01-26 12:29:49.77	207.52	25.60	-43.4	-45.8	24.5	6.07e-01	0	42	0	306708480	58	4747
2026-01-26 12:29:50.76	207.73	25.75	-43.4	-45.9	24.4	6.05e-01	0	42	0	308805632	58	4785
2026-01-26 12:29:51.76	207.95	25.90	-43.5	-46.0	24.3	6.06e-01	0	42	0	310378496	58	4829
2026-01-26 12:29:52.75	208.17	26.05	-43.6	-46.0	24.0	6.07e-01	0	42	0	312475648	58	4847
2026-01-26 12:29:53.75	208.39	26.20	-43.6	-46.0	24.3	6.07e-01	0	43	0	314048512	58	4845
2026-01-26 12:29:54.74	208.61	26.35	-43.5	-46.0	24.4	6.05e-01	0	43	0	316145664	58	4822
2026-01-26 12:29:55.74	208.84	26.50	-43.4	-45.9	24.4	6.06e-01	0	42	0	317718528	58	4776
2026-01-26 12:29:56.73	209.07	26.65	-43.5	-46.0	24.4	6.05e-01	0	43	0	319815680	58	4817
2026-01-26 12:29:57.73	209.30	26.81	-43.5	-45.9	24.4	6.07e-01	0	43	0	321388544	58	4803
2026-01-26 12:29:58.72	209.53	26.96	-43.4	-45.8	24.5	6.06e-01	0	43	0	323485696	58	4759
2026-01-26 12:29:59.72	209.76	27.11	-43.4	-45.8	24.5	6.05e-01	0	42	0	325582848	58	4736
2026-01-26 12:30:00.71	210.00	27.27	-43.4	-45.9	24.4	6.06e-01	0	42	0	327155712	58	4762
2026-01-26 12:30:01.71	210.24	27.42	-43.5	-46.0	24.4	6.04e-01	0	42	0	329252864	58	4818
2026-01-26 12:30:02.70	210.48	27.57	-43.5	-46.0	24.4	6.07e-01	0	43	0	330825728	58	4821
2026-01-26 12:30:03.70	210.72	27.73	-43.4	-45.9	24.4	6.04e-01	0	42	0	332922880	58	4778
2026-01-26 12:30:04.70	210.97	27.88	-43.6	-46.0	24.3	6.06e-01	0	43	0	335020032	58	4850
2026-01-26 12:30:05.69	211.22	28.04	-43.5	-46.0	24.4	6.06e-01	0	43	0	336592896	58	4819
2026-01-26 12:30:06.69	211.47	28.20	-43.4	-45.9	24.5	6.07e-01	0	42	0	338165760	58	4769
2026-01-26 12:30:07.68	211.72	28.35	-43.4	-45.8	24.5	6.07e-01	0	42	0	340262912	58	4756
2026-01-26 12:30:08.68	211.98	28.51	-43.4	-45.8	24.5	6.06e-01	0	42	0	342360064	58	4738
2026-01-26 12:30:09.67	212.24	28.66	-43.4	-45.9	24.4	6.09e-01	0	43	0	343932928	58	4774
2026-01-26 12:30:10.67	212.50	28.82	-43.5	-46.0	24.4	6.07e-01	0	43	0	346030080	58	4837
2026-01-26 12:30:11.66	212.76	28.98	-43.4	-45.8	24.5	6.05e-01	0	42	0	347602944	58	4747
2026-01-26 12:30:12.66	213.03	29.14	-43.4	-45.9	24.4	6.06e-01	0	43	0	349700096	58	4765
2026-01-26 12:30:13.65	213.30	29.29	-43.4	-45.9	24.4	6.06e-01	0	43	0	351797248	58	4791
2026-01-26 12:30:14.65	213.57	29.45	-43.5	-46.0	24.4	6.05e-01	0	42	0	353370112	58	4820
2026-01-26 12:30:15.64	213.85	29.61	-43.5	-46.0	24.4	6.07e-01	0	43	0	355467264	58	4825
2026-01-26 12:30:16.64	214.12	29.77	-43.6	-46.1	24.3	6.03e-01	0	42	0	357040128	58	4898
2026-01-26 12:30:17.63	214.40	29.93	-43.4	-45.8	24.5	6.05e-01	0	43	0	359137280	58	4757
2026-01-26 12:30:18.63	214.69	30.09	-43.5	-45.9	24.4	6.07e-01	0	42	0	360710144	58	4801
2026-01-26 12:30:19.62	214.97	30.25	-43.5	-45.9	24.4	6.04e-01	0	43	0	362807296	58	4783
2026-01-26 12:30:20.61	215.26	30.41	-43.4	-45.8	24.6	6.06e-01	0	43	0	364380160	58	4728
2026-01-26 12:30:21.61	215.55	30.57	-43.5	-45.9	24.4	6.05e-01	0	42	0	366477312	58	4802
2026-01-26 12:30:22.61	215.85	30.73	-43.6	-46.0	24.3	6.09e-01	0	43	0	368574464	58	4858
2026-01-26 12:30:23.60	216.14	30.89	-43.5	-46.0	24.3	6.07e-01	0	43	0	370147328	58	4855
2026-01-26 12:30:24.60	216.45	31.05	-43.4	-45.9	24.5	6.05e-01	0	43	0	372244480	58	4768
2026-01-26 12:30:25.59	216.75	31.21	-43.5	-45.9	24.4	6.07e-01	0	43	0	373817344	58	4806
2026-01-26 12:30:26.59	217.06	31.37	-43.5	-45.9	24.4	6.05e-01	0	43	0	375914496	58	4807
2026-01-26 12:30:27.58	217.37	31.53	-43.6	-46.0	24.4	6.06e-01	0	43	0	377487360	58	4840
2026-01-26 12:30:28.58	217.68	31.69	-43.5	-45.9	24.4	6.07e-01	0	43	0	379584512	58	4802
2026-01-26 12:30:29.57	217.99	31.85	-43.5	-45.9	24.5	6.08e-01	0	42	0	381157376	58	4777
2026-01-26 12:30:30.56	218.31	32.01	-43.5	-46.0	24.4	6.05e-01	0	42	0	383254528	58	4825
2026-01-26 12:30:31.56	218.64	32.17	-43.7	-46.2	24.2	6.05e-01	0	42	0	385351680	58	4959
2026-01-26 12:30:32.55	218.96	32.33	-43.6	-46.1	24.3	6.05e-01	0	43	0	386924544	58	4876
2026-01-26 12:30:33.55	219.29	32.49	-43.4	-45.9	24.5	6.08e-01	0	43	0	389021696	58	4780
2026-01-26 12:30:34.54	219.62	32.65	-43.6	-46.1	24.3	6.06e-01	0	43	0	390594560	58	4890
2026-01-26 12:30:35.54	219.96	32.81	-43.7	-46.2	24.1	6.04e-01	0	43	0	392691712	58	4981
2026-01-26 12:30:36.53	220.30	32.97	-43.6	-46.1	24.3	6.08e-01	0	42	0	394264576	58	4885
2026-01-26 12:30:37.53	220.64	33.13	-43.7	-46.2	24.2	6.05e-01	0	42	0	396361728	58	4943
2026-01-26 12:30:38.52	220.98	33.29	-43.8	-46.3	24.1	6.05e-01	0	43	0	397934592	58	4986
2026-01-26 12:30:39.52	221.33	33.45	-43.7	-46.1	24.2	6.06e-01	0	43	0	400031744	58	4920
2026-01-26 12:30:40.51	221.69	33.61	-43.6	-46.2	24.2	6.05e-01	0	43	0	402128896	58	4928
2026-01-26 12:30:41.51	222.04	33.77	-43.7	-46.3	24.1	6.06e-01	0	43	0	403701760	58	4989
2026-01-26 12:30:42.50	222.40	33.93	-43.8	-46.4	24.0	6.05e-01	0	43	0	405798912	58	5075
2026-01-26 12:30:43.50	222.77	34.09	-43.9	-46.5	24.0	6.07e-01	0	42	0	407371776	58	5106
2026-01-26 12:30:44.49	223.13	34.25	-43.9	-46.5	23.9	6.07e-01	0	42	0	409468928	58	5105
2026-01-26 12:30:45.49	223.50	34.40	-43.8	-46.3	24.1	6.06e-01	0	43	0	411041792	58	4996
2026-01-26 12:30:46.48	223.88	34.56	-43.9	-46.5	23.9	6.06e-01	0	42	0	413138944	58	5134
2026-01-26 12:30:47.48	224.26	34.72	-43.9	-46.5	23.9	6.07e-01	0	43	0	414711808	58	5142
2026-01-26 12:30:48.47	224.64	34.87	-43.9	-46.5	23.9	6.05e-01	0	42	0	416808960	58	5137
2026-01-26 12:30:49.47	225.02	35.03	-43.9	-46.6	23.8	6.05e-01	0	42	0	418906112	58	5170
2026-01-26 12:30:50.47	225.41	35.19	-43.9	-46.7	23.8	6.07e-01	0	42	0	420478976	58	5236
2026-01-26 12:30:51.46	225.80	35.34	-43.7	-46.3	24.0	6.05e-01	0	42	0	422576128	58	5026
2026-01-26 12:30:52.45	226.20	35.49	-43.9	-46.5	23.9	6.05e-01	0	43	0	424148992	58	5135
2026-01-26 12:30:53.45	226.60	35.64	-43.9	-46.5	23.9	6.07e-01	0	42	0	426246144	58	5120
2026-01-26 12:30:54.44	227.00	35.80	-44.1	-46.6	23.8	6.06e-01	0	43	0	427819008	58	5201
2026-01-26 12:30:55.43	227.41	35.95	-43.9	-46.4	24.0	6.05e-01	0	43	0	429916160	58	5081
2026-01-26 12:30:56.43	227.82	36.10	-43.8	-46.4	24.0	6.06e-01	0	42	0	431489024	58	5065
2026-01-26 12:30:57.42	228.23	36.25	-43.8	-46.5	23.9	6.05e-01	0	43	0	433586176	58	5131
2026-01-26 12:30:58.42	228.66	36.40	-43.7	-46.3	24.1	6.07e-01	0	42	0	435683328	58	4984
2026-01-26 12:30:59.41	229.08	36.54	-43.9	-46.5	23.9	6.05e-01	0	43	0	437256192	58	5109
2026-01-26 12:31:00.41	229.51	36.69	-43.8	-46.3	24.0	6.07e-01	0	42	0	439353344	58	5010
2026-01-26 12:31:01.40	229.93	36.84	-43.9	-46.5	24.0	6.05e-01	0	42	0	440926208	58	5107
2026-01-26 12:31:02.40	230.37	36.98	-43.8	-46.3	24.0	6.08e-01	0	43	0	443023360	58	5017
2026-01-26 12:31:03.39	230.81	37.12	-43.8	-46.3	24.1	6.07e-01	0	42	0	444596224	58	4988
2026-01-26 12:31:04.39	231.25	37.27	-44.0	-46.5	23.9	6.04e-01	0	43	0	446693376	58	5138
2026-01-26 12:31:05.38	231.70	37.41	-44.1	-46.6	23.8	6.05e-01	0	43	0	448266240	58	5162
2026-01-26 12:31:06.38	232.15	37.55	-43.9	-46.3	24.1	6.04e-01	0	43	0	450363392	58	5038
2026-01-26 12:31:07.37	232.60	37.68	-43.8	-46.3	24.1	6.10e-01	0	42	0	452460544	58	5034
2026-01-26 12:31:08.36	233.06	37.82	-43.8	-46.3	24.1	6.06e-01	0	43	0	454033408	58	5039
2026-01-26 12:31:09.36	233.52	37.96	-43.8	-46.4	24.1	6.04e-01	0	43	0	456130560	58	5056
2026-01-26 12:31:10.35	233.98	38.09	-43.8	-46.4	24.0	6.05e-01	0	43	0	457703424	58	5072
2026-01-26 12:31:11.35	234.46	38.22	-43.8	-46.4	24.0	6.03e-01	0	42	0	459800576	58	5063
2026-01-26 12:31:12.34	234.93	38.35	-43.8	-46.3	24.0	6.08e-01	0	43	0	461373440	58	5037
2026-01-26 12:31:13.34	235.41	38.48	-43.9	-46.4	24.0	6.03e-01	0	42	0	463470592	58	5059
2026-01-26 12:31:14.33	235.89	38.61	-44.0	-46.5	24.0	6.08e-01	0	43	0	465043456	58	5111
2026-01-26 12:31:15.33	236.37	38.74	-43.9	-46.3	24.1	6.05e-01	0	43	0	467140608	58	5029
2026-01-26 12:31:16.32	236.86	38.86	-43.6	-46.0	24.4	6.08e-01	0	43	0	469237760	58	4844
2026-01-26 12:31:17.31	237.35	38.98	-43.5	-45.9	24.3	6.06e-01	0	43	0	470810624	58	4796
2026-01-26 12:31:18.31	237.85	39.10	-43.6	-46.1	24.3	6.05e-01	0	43	0	472907776	58	4902
2026-01-26 12:31:19.30	238.34	39.22	-43.6	-46.1	24.2	6.06e-01	0	42	0	474480640	58	4902
2026-01-26 12:31:20.30	238.85	39.34	-43.3	-45.7	24.6	6.08e-01	0	43	0	476577792	58	4702
2026-01-26 12:31:21.29	239.35	39.45	-43.4	-45.8	24.5	6.05e-01	0	43	0	478150656	58	4739
2026-01-26 12:31:22.29	239.87	39.57	-43.3	-45.7	24.6	6.07e-01	0	43	0	480247808	58	4690
2026-01-26 12:31:23.28	240.38	39.68	-43.4	-45.9	24.5	6.05e-01	0	43	0	481820672	58	4765
2026-01-26 12:31:24.28	240.90	39.79	-43.4	-45.8	24.6	6.07e-01	0	43	0	483917824	58	4736
2026-01-26 12:31:25.27	241.42	39.89	-43.5	-45.9	24.5	6.04e-01	0	42	0	486014976	58	4798
2026-01-26 12:31:26.27	241.95	40.00	-43.1	-45.5	24.8	6.07e-01	0	43	0	487587840	58	4565
2026-01-26 12:31:27.26	242.47	40.10	-43.5	-45.9	24.5	6.06e-01	0	42	0	489684992	58	4806
2026-01-26 12:31:28.26	243.00	40.20	-43.3	-45.8	24.5	6.09e-01	0	43	0	491257856	58	4748
2026-01-26 12:31:29.25	243.54	40.29	-43.2	-45.6	24.8	6.05e-01	0	43	0	493355008	58	4624
2026-01-26 12:31:30.25	244.08	40.39	-43.5	-45.9	24.4	6.06e-01	0	43	0	494927872	58	4814
2026-01-26 12:31:31.24	244.61	40.48	-43.4	-45.8	24.6	6.08e-01	0	43	0	497025024	58	4710
2026-01-26 12:31:32.24	245.16	40.57	-43.5	-46.0	24.5	6.05e-01	0	43	0	499122176	58	4821
2026-01-26 12:31:33.23	245.70	40.65	-43.1	-45.4	24.9	6.06e-01	0	42	0	500695040	58	4544
2026-01-26 12:31:34.23	246.26	40.74	-43.3	-45.7	24.7	6.05e-01	0	42	0	502792192	58	4672
2026-01-26 12:31:35.22	246.81	40.82	-43.2	-45.7	24.6	6.08e-01	0	43	0	504365056	58	4663
2026-01-26 12:31:36.22	247.36	40.90	-43.2	-45.6	24.8	6.07e-01	0	43	0	506462208	58	4607
2026-01-26 12:31:37.22	247.92	40.98	-43.4	-45.9	24.5	6.05e-01	0	43	0	508035072	58	4781
2026-01-26 12:31:38.21	248.48	41.05	-43.0	-45.4	24.9	6.07e-01	0	43	0	510132224	58	4529
2026-01-26 12:31:39.20	249.04	41.12	-43.0	-45.5	24.9	6.07e-01	0	43	0	511705088	58	4546
2026-01-26 12:31:40.20	249.61	41.19	-43.3	-45.7	24.7	6.05e-01	0	43	0	513802240	58	4680
2026-01-26 12:31:41.20	250.18	41.25	-43.2	-45.5	24.8	6.05e-01	0	43	0	515899392	58	4579
2026-01-26 12:31:42.19	250.75	41.31	-43.0	-45.3	25.0	6.05e-01	0	43	0	517472256	58	4465
2026-01-26 12:31:43.19	251.32	41.37	-43.1	-45.4	24.9	6.05e-01	0	43	0	519569408	58	4534
2026-01-26 12:31:44.18	251.89	41.43	-43.2	-45.6	24.8	6.09e-01	0	43	0	521142272	58	4610
2026-01-26 12:31:45.17	252.47	41.48	-43.2	-45.7	24.7	6.05e-01	0	43	0	523239424	58	4654
2026-01-26 12:31:46.17	253.05	41.53	-43.3	-45.6	24.7	6.06e-01	0	43	0	524812288	58	4650
2026-01-26 12:31:47.16	253.62	41.57	-43.8	-46.3	24.2	6.05e-01	0	42	0	526909440	58	4987
2026-01-26 12:31:48.16	254.21	41.62	-43.2	-45.6	24.7	6.07e-01	0	43	0	528482304	58	4647
2026-01-26 12:31:49.15	254.79	41.66	-43.2	-45.6	24.8	6.07e-01	0	42	0	530579456	58	4610
2026-01-26 12:31:50.15	255.37	41.69	-43.3	-45.7	24.6	6.07e-01	0	43	0	532676608	58	4675
2026-01-26 12:31:51.14	255.95	41.73	-43.3	-45.7	24.6	6.06e-01	0	42	0	534249472	58	4677
2026-01-26 12:31:52.14	256.54	41.76	-43.2	-45.5	24.8	6.06e-01	0	43	0	536346624	58	4571
2026-01-26 12:31:53.14	257.13	41.78	-43.2	-45.5	24.8	6.06e-01	0	42	0	537919488	58	4592
2026-01-26 12:31:54.13	257.72	41.81	-43.0	-45.4	25.0	6.06e-01	0	42	0	540016640	57	4762
2026-01-26 12:31:55.12	258.30	41.83	-43.2	-45.6	24.8	6.06e-01	0	43	0	541589504	57	4906
2026-01-26 12:31:56.12	258.90	41.85	-43.1	-45.4	24.9	6.04e-01	0	42	0	543686656	57	4791
2026-01-26 12:31:57.11	259.48	41.86	-43.1	-45.5	24.8	6.04e-01	0	43	0	545259520	57	4841
2026-01-26 12:31:58.11	260.08	41.87	-43.3	-45.7	24.7	6.06e-01	0	42	0	547356672	57	4961
2026-01-26 12:31:59.10	260.67	41.88	-43.3	-45.8	24.5	6.06e-01	0	43	0	549453824	57	5030
2026-01-26 12:32:00.10	261.26	41.88	-43.2	-45.6	24.8	6.05e-01	0	43	0	551026688	57	4897
2026-01-26 12:32:01.09	261.85	41.88	-43.2	-45.6	24.8	6.07e-01	0	43	0	553123840	57	4885
2026-01-26 12:32:02.09	262.44	41.88	-43.0	-45.4	24.9	6.07e-01	0	42	0	554696704	57	4788
2026-01-26 12:32:03.08	263.03	41.88	-43.1	-45.6	24.8	6.09e-01	0	43	0	556793856	57	4886
2026-01-26 12:32:04.08	263.62	41.87	-43.1	-45.5	24.8	6.04e-01	0	43	0	558366720	57	4860
2026-01-26 12:32:05.07	264.21	41.85	-43.1	-45.5	24.9	6.07e-01	0	43	0	560463872	57	4818
2026-01-26 12:32:06.06	264.80	41.84	-43.2	-45.6	24.8	6.05e-01	0	42	0	562036736	57	4879
2026-01-26 12:32:07.06	265.39	41.82	-43.2	-45.6	24.8	6.08e-01	0	43	0	564133888	57	4875
2026-01-26 12:32:08.05	265.97	41.80	-43.3	-45.8	24.5	6.04e-01	0	43	0	566231040	57	4997
2026-01-26 12:32:09.05	266.56	41.77	-43.0	-45.3	24.9	6.07e-01	0	43	0	567803904	57	4754
2026-01-26 12:32:10.04	267.15	41.74	-43.1	-45.6	24.8	6.08e-01	0	42	0	569901056	57	4874
2026-01-26 12:32:11.04	267.74	41.71	-43.4	-45.8	24.6	6.06e-01	0	43	0	571473920	57	5031
2026-01-26 12:32:12.03	268.32	41.68	-43.2	-45.5	24.8	6.05e-01	0	43	0	573571072	57	4858
2026-01-26 12:32:13.03	268.90	41.64	-43.4	-45.8	24.7	6.07e-01	0	43	0	575143936	57	4987
2026-01-26 12:32:14.02	269.48	41.60	-43.3	-45.7	24.7	6.06e-01	0	42	0	577241088	57	4937
2026-01-26 12:32:15.02	270.06	41.55	-43.4	-45.9	24.5	6.07e-01	0	43	0	578813952	57	5062
2026-01-26 12:32:16.01	270.64	41.50	-43.8	-46.3	24.1	6.06e-01	0	43	0	580911104	58	5041
2026-01-26 12:32:17.01	271.22	41.45	-43.5	-45.9	24.5	6.06e-01	0	43	0	583008256	58	4780
2026-01-26 12:32:18.00	271.79	41.40	-43.7	-46.2	24.2	6.07e-01	0	43	0	584581120	58	4976
2026-01-26 12:32:19.00	272.36	41.34	-43.6	-46.1	24.3	6.07e-01	0	42	0	586678272	58	4893
2026-01-26 12:32:19.99	272.93	41.28	-43.4	-45.8	24.6	6.06e-01	0	43	0	588251136	58	4726
2026-01-26 12:32:20.99	273.50	41.22	-43.5	-46.0	24.5	6.05e-01	0	43	0	590348288	58	4820
2026-01-26 12:32:21.98	274.06	41.15	-43.4	-45.8	24.5	6.08e-01	0	43	0	591921152	58	4741
2026-01-26 12:32:22.98	274.63	41.08	-43.2	-45.6	24.8	6.06e-01	0	43	0	594018304	58	4631
2026-01-26 12:32:23.97	275.19	41.01	-43.6	-46.1	24.3	6.07e-01	0	43	0	595591168	58	4926
2026-01-26 12:32:24.97	275.75	40.94	-43.5	-45.9	24.4	6.06e-01	0	42	0	597688320	58	4811
2026-01-26 12:32:25.96	276.30	40.86	-43.4	-45.8	24.6	6.05e-01	0	43	0	599785472	58	4742
2026-01-26 12:32:26.96	276.86	40.78	-43.6	-46.0	24.4	6.07e-01	0	43	0	601358336	58	4862
2026-01-26 12:32:27.95	277.40	40.70	-43.3	-45.8	24.6	6.07e-01	0	42	0	603455488	58	4740
2026-01-26 12:32:28.95	277.95	40.61	-43.4	-45.9	24.4	6.08e-01	0	43	0	605028352	58	4806
2026-01-26 12:32:29.94	278.50	40.53	-43.5	-46.0	24.3	6.07e-01	0	42	0	607125504	58	4833
2026-01-26 12:32:30.94	279.04	40.44	-43.5	-46.0	24.4	6.05e-01	0	43	0	608698368	58	4815
2026-01-26 12:32:31.93	279.57	40.34	-43.6	-46.0	24.3	6.09e-01	0	42	0	610795520	58	4850
2026-01-26 12:32:32.93	280.11	40.25	-43.5	-46.0	24.4	6.06e-01	0	43	0	612892672	58	4834
2026-01-26 12:32:33.92	280.64	40.15	-43.5	-46.0	24.4	6.04e-01	0	43	0	614465536	58	4845
2026-01-26 12:32:34.91	281.17	40.05	-43.5	-46.0	24.4	6.07e-01	0	43	0	616562688	58	4848
2026-01-26 12:32:35.91	281.69	39.95	-43.6	-46.0	24.4	6.06e-01	0	43	0	618135552	58	4831
2026-01-26 12:32:36.90	282.21	39.85	-43.8	-46.2	24.1	6.08e-01	0	43	0	620232704	58	4981
2026-01-26 12:32:37.90	282.73	39.74	-43.5	-45.9	24.5	6.02e-01	0	43	0	621805568	58	4768
2026-01-26 12:32:38.89	283.25	39.63	-43.5	-46.0	24.4	6.06e-01	0	43	0	623902720	58	4821
2026-01-26 12:32:39.89	283.76	39.52	-43.5	-46.0	24.3	6.06e-01	0	43	0	625475584	58	4819
2026-01-26 12:32:40.88	284.26	39.41	-43.4	-45.9	24.4	6.08e-01	0	43	0	627572736	58	4779
2026-01-26 12:32:41.87	284.77	39.29	-43.7	-46.2	24.2	6.07e-01	0	42	0	629669888	58	4952
2026-01-26 12:32:42.87	285.27	39.17	-43.8	-46.2	24.1	6.04e-01	0	43	0	631242752	58	4981
2026-01-26 12:32:43.86	285.76	39.05	-43.5	-45.9	24.4	6.06e-01	0	42	0	633339904	58	4809
2026-01-26 12:32:44.85	286.25	38.93	-43.6	-46.0	24.4	6.07e-01	0	43	0	634912768	58	4865
2026-01-26 12:32:45.85	286.74	38.81	-43.7	-46.2	24.3	6.06e-01	0	42	0	637009920	58	4927
2026-01-26 12:32:46.85	287.23	38.69	-43.6	-46.1	24.3	6.05e-01	0	43	0	638582784	58	4910
2026-01-26 12:32:47.84	287.71	38.56	-43.6	-46.1	24.2	6.09e-01	0	43	0	640679936	58	4885
2026-01-26 12:32:48.83	288.19	38.43	-43.4	-45.8	24.4	6.04e-01	0	43	0	642252800	58	4731
2026-01-26 12:32:49.83	288.66	38.30	-43.4	-45.9	24.4	6.07e-01	0	43	0	644349952	58	4762
2026-01-26 12:32:50.82	289.13	38.17	-43.6	-46.1	24.1	6.06e-01	0	43	0	646447104	58	4875
2026-01-26 12:32:51.82	289.60	38.04	-43.7	-46.2	24.0	6.04e-01	0	43	0	648019968	58	4960
2026-01-26 12:32:52.81	290.06	37.90	-43.4	-45.7	24.4	6.06e-01	0	43	0	650117120	58	4696
2026-01-26 12:32:53.81	290.52	37.77	-43.6	-46.0	24.1	6.07e-01	0	43	0	651689984	58	4843
2026-01-26 12:32:54.80	290.97	37.63	-43.7	-46.1	24.1	6.08e-01	0	43	0	653787136	58	4909
2026-01-26 12:32:55.80	291.43	37.49	-43.8	-46.2	24.0	6.05e-01	0	43	0	655360000	58	4969
2026-01-26 12:32:56.79	291.87	37.35	-43.5	-45.9	24.4	6.06e-01	0	43	0	657457152	58	4779
2026-01-26 12:32:57.79	292.32	37.21	-43.3	-45.7	24.6	6.07e-01	0	43	0	659554304	58	4653
2026-01-26 12:32:58.79	292.76	37.07	-43.3	-45.7	24.6	6.07e-01	0	43	0	661127168	58	4701
2026-01-26 12:32:59.78	293.19	36.93	-43.3	-45.7	24.5	6.06e-01	0	43	0	663224320	58	4702
2026-01-26 12:33:00.78	293.63	36.78	-43.2	-45.6	24.7	6.06e-01	0	43	0	664797184	58	4647
2026-01-26 12:33:01.77	294.05	36.64	-43.1	-45.5	24.8	6.06e-01	0	43	0	666894336	58	4587
2026-01-26 12:33:02.77	294.48	36.49	-42.9	-45.3	24.9	6.07e-01	0	43	0	668467200	57	4744
2026-01-26 12:33:03.76	294.89	36.34	-42.9	-45.3	25.0	6.07e-01	0	43	0	670564352	57	4751
2026-01-26 12:33:04.76	295.31	36.20	-42.9	-45.3	25.0	6.05e-01	0	42	0	672137216	57	4756
2026-01-26 12:33:05.76	295.73	36.05	-43.1	-45.5	24.9	6.06e-01	0	43	0	674234368	57	4829
2026-01-26 12:33:06.75	296.13	35.90	-43.1	-45.6	24.8	6.07e-01	0	43	0	676331520	57	4874
2026-01-26 12:33:07.74	296.54	35.75	-42.9	-45.3	25.0	6.07e-01	0	43	0	677904384	57	4754
2026-01-26 12:33:08.74	296.94	35.59	-42.8	-45.2	25.1	6.07e-01	0	42	0	680001536	57	4682
2026-01-26 12:33:09.73	297.33	35.44	-42.9	-45.3	25.0	6.06e-01	0	42	0	681574400	57	4751
2026-01-26 12:33:10.72	297.72	35.29	-42.8	-45.2	25.1	6.05e-01	0	43	0	683671552	57	4665
2026-01-26 12:33:11.72	298.12	35.14	-42.8	-45.2	25.1	6.05e-01	0	43	0	685244416	57	4688
2026-01-26 12:33:12.71	298.50	34.98	-42.7	-45.1	25.2	6.07e-01	0	43	0	687341568	57	4613
2026-01-26 12:33:13.71	298.88	34.83	-42.8	-45.2	25.1	6.07e-01	0	43	0	688914432	57	4665
2026-01-26 12:33:14.70	299.26	34.67	-42.6	-45.0	25.3	6.07e-01	0	43	0	691011584	57	4552
2026-01-26 12:33:15.70	299.64	34.52	-42.3	-44.7	25.5	6.05e-01	0	43	0	693108736	56	4691
2026-01-26 12:33:16.69	300.01	34.36	-42.4	-44.8	25.4	6.06e-01	0	42	0	694681600	56	4757
2026-01-26 12:33:17.69	300.38	34.20	-42.4	-44.8	25.5	6.06e-01	0	43	0	696778752	56	4713
2026-01-26 12:33:18.68	300.74	34.05	-42.3	-44.6	25.6	6.05e-01	0	43	0	698351616	56	4633
2026-01-26 12:33:19.68	301.10	33.89	-42.4	-44.7	25.5	6.08e-01	0	43	0	700448768	56	4699
2026-01-26 12:33:20.68	301.46	33.73	-42.5	-44.8	25.4	6.06e-01	0	43	0	702021632	56	4741
2026-01-26 12:33:21.67	301.81	33.57	-42.3	-44.7	25.5	6.08e-01	0	43	0	704118784	56	4654
2026-01-26 12:33:22.66	302.16	33.42	-42.3	-44.6	25.5	6.06e-01	0	43	0	705691648	56	4636
2026-01-26 12:33:23.66	302.51	33.26	-42.3	-44.6	25.6	6.07e-01	0	43	0	707788800	56	4623
2026-01-26 12:33:24.65	302.85	33.10	-42.4	-44.7	25.4	6.05e-01	0	42	0	709885952	56	4690
2026-01-26 12:33:25.65	303.19	32.94	-42.1	-44.4	25.7	6.06e-01	0	43	0	711458816	56	4540
2026-01-26 12:33:26.65	303.53	32.78	-42.2	-44.5	25.6	6.05e-01	0	43	0	713555968	56	4578
2026-01-26 12:33:27.64	303.86	32.62	-42.2	-44.5	25.6	6.07e-01	0	43	0	715128832	56	4592
2026-01-26 12:33:28.63	304.19	32.46	-42.3	-44.7	25.4	6.04e-01	0	43	0	717225984	56	4653
2026-01-26 12:33:29.63	304.51	32.30	-42.1	-44.4	25.6	6.04e-01	0	43	0	718798848	56	4519
2026-01-26 12:33:30.62	304.84	32.14	-42.1	-44.4	25.6	6.06e-01	0	43	0	720896000	56	4514
2026-01-26 12:33:31.62	305.16	31.98	-42.1	-44.4	25.7	6.05e-01	0	42	0	722468864	56	4504
2026-01-26 12:33:32.61	305.47	31.82	-42.1	-44.4	25.6	6.05e-01	0	43	0	724566016	56	4502
2026-01-26 12:33:33.60	305.78	31.66	-42.2	-44.5	25.5	6.07e-01	0	42	0	726663168	56	4564
2026-01-26 12:33:34.60	306.10	31.50	-42.2	-44.5	25.6	6.05e-01	0	43	0	728236032	56	4572
2026-01-26 12:33:35.60	306.41	31.34	-42.3	-44.5	25.5	6.05e-01	0	43	0	730333184	56	4597
2026-01-26 12:33:36.59	306.71	31.18	-42.2	-44.5	25.6	6.05e-01	0	43	0	731906048	56	4555
2026-01-26 12:33:37.59	307.01	31.02	-42.1	-44.3	25.7	6.06e-01	0	43	0	734003200	56	4463
2026-01-26 12:33:38.58	307.31	30.87	-42.1	-44.3	25.7	6.05e-01	0	43	0	735576064	56	4472
2026-01-26 12:33:39.58	307.60	30.71	-42.2	-44.4	25.7	6.06e-01	0	43	0	737673216	56	4515
2026-01-26 12:33:40.58	307.90	30.55	-42.2	-44.5	25.6	6.03e-01	0	43	0	739246080	56	4577
2026-01-26 12:33:41.57	308.19	30.39	-42.2	-44.4	25.7	6.05e-01	0	43	0	741343232	56	4527
2026-01-26 12:33:42.57	308.47	30.23	-42.1	-44.4	25.7	6.04e-01	0	43	0	743440384	56	4514
2026-01-26 12:33:43.56	308.76	30.07	-42.2	-44.4	25.7	6.06e-01	0	43	0	745013248	56	4537
2026-01-26 12:33:44.56	309.04	29.91	-42.2	-44.5	25.6	6.03e-01	0	43	0	747110400	56	4556
2026-01-26 12:33:45.55	309.32	29.76	-42.3	-44.6	25.6	6.05e-01	0	43	0	748683264	56	4613
2026-01-26 12:33:46.55	309.59	29.60	-42.5	-44.8	25.3	6.06e-01	0	43	0	750780416	56	4750
2026-01-26 12:33:47.54	309.86	29.44	-42.5	-44.8	25.3	6.05e-01	0	43	0	752353280	56	4752
2026-01-26 12:33:48.54	310.13	29.28	-42.6	-45.0	25.2	6.06e-01	0	42	0	754450432	56	4815
2026-01-26 12:33:49.53	310.40	29.13	-42.4	-44.7	25.4	6.06e-01	0	43	0	756023296	56	4685
2026-01-26 12:33:50.52	310.66	28.97	-42.3	-44.6	25.5	6.05e-01	0	43	0	758120448	56	4621
2026-01-26 12:33:51.52	310.93	28.81	-42.3	-44.5	25.6	6.06e-01	0	43	0	760217600	56	4593
2026-01-26 12:33:52.51	311.18	28.66	-42.3	-44.6	25.5	6.06e-01	0	43	0	761790464	56	4617
2026-01-26 12:33:53.51	311.44	28.50	-42.9	-54.6	3.7	7.45e-01	0	43	104	763363328	56	14689
2026-01-26 12:33:54.50	311.70	28.35	-43.1	-54.7	3.9	7.43e-01	0	43	104	763363328	56	14727
2026-01-26 12:33:55.50	311.95	28.19	-43.1	-54.7	3.8	7.46e-01	0	43	104	763363328	56	14879
2026-01-26 12:33:56.49	312.20	28.04	-43.1	-54.6	3.9	7.44e-01	0	43	104	763363328	57	13874
2026-01-26 12:33:57.49	312.45	27.88	-43.2	-54.8	3.8	7.45e-01	0	43	104	763363328	57	14201
2026-01-26 12:33:58.48	312.69	27.73	-45.7	-57.9	3.7	7.44e-01	0	43	104	763363328	61	15994
2026-01-26 12:33:59.48	312.93	27.58	-49.4	-64.0	3.9	7.41e-01	0	43	104	763363328	71	18170
2026-01-26 12:34:00.47	313.17	27.42	-44.6	-56.6	3.9	7.44e-01	0	43	104	763363328	61	13838
2026-01-26 12:34:01.47	313.41	27.27	-44.5	-56.5	3.9	7.42e-01	0	43	104	763363328	61	13646
2026-01-26 12:34:02.46	313.64	27.12	-45.1	-57.6	3.9	7.39e-01	0	43	104	763363328	61	15414
2026-01-26 12:34:03.46	313.88	26.97	-44.7	-57.5	3.8	7.44e-01	0	43	104	763363328	61	15335
2026-01-26 12:34:04.45	314.11	26.82	-44.5	-57.6	3.7	7.47e-01	0	43	104	763363328	60	16383
2026-01-26 12:34:05.45	314.34	26.67	-44.7	-57.8	3.7	7.48e-01	0	43	104	763363328	60	16726
2026-01-26 12:34:06.44	314.56	26.52	-44.7	-57.8	3.5	7.60e-01	0	43	104	763363328	61	15780
2026-01-26 12:34:07.44	314.79	26.36	-45.2	-58.1	4.1	7.41e-01	0	43	104	763363328	60	17474
2026-01-26 12:34:08.43	315.01	26.22	-47.6	-64.9	3.7	7.41e-01	0	43	104	763363328	67	25402
2026-01-26 12:34:09.43	315.23	26.07	-44.3	-56.2	3.8	7.62e-01	0	43	104	763363328	60	14043
2026-01-26 12:34:10.42	315.44	25.92	-44.7	-56.5	4.1	7.36e-01	0	43	104	763363328	61	13696
2026-01-26 12:34:11.42	315.66	25.77	-43.7	-55.2	3.8	7.38e-01	0	43	104	763363328	59	13220
2026-01-26 12:34:12.42	315.88	25.62	-43.7	-55.3	3.5	7.49e-01	0	43	104	763363328	59	13284
2026-01-26 12:34:13.41	316.09	25.48	-43.7	-55.5	3.9	7.64e-01	0	43	104	763363328	59	13599
2026-01-26 12:34:14.40	316.29	25.33	-43.7	-55.3	4.1	7.33e-01	0	43	104	763363328	59	13322
2026-01-26 12:34:15.40	316.50	25.18	-44.0	-55.6	4.0	7.41e-01	0	43	104	763363328	59	13858
2026-01-26 12:34:16.39	316.71	25.04	-45.3	-57.7	4.0	7.37e-01	0	43	104	763363328	61	15743
2026-01-26 12:34:17.38	316.91	24.89	-50.4	-68.6	3.8	7.43e-01	0	43	104	763363328	72	29228
2026-01-26 12:34:18.38	317.11	24.75	-49.1	-64.4	3.9	7.42e-01	0	43	104	763363328	70	20288
2026-01-26 12:34:19.38	317.31	24.60	-50.1	-68.7	3.8	7.44e-01	0	43	104	763363328	71	31172
2026-01-26 12:34:20.37	317.51	24.46	-48.8	-64.3	3.8	7.44e-01	0	43	104	763363328	69	21030
2026-01-26 12:34:21.36	317.71	24.32	-47.8	-62.0	3.9	7.45e-01	0	43	104	763363328	67	18282
2026-01-26 12:34:22.36	317.90	24.18	-47.2	-61.0	3.8	7.44e-01	0	43	104	763363328	66	17087
2026-01-26 12:34:23.35	318.09	24.04	-46.7	-60.0	3.8	7.45e-01	0	43	104	763363328	65	16143
2026-01-26 12:34:24.35	318.28	23.89	-47.0	-60.6	3.8	7.44e-01	0	43	104	763363328	65	17295
2026-01-26 12:34:25.34	318.47	23.75	-46.8	-60.2	3.8	7.45e-01	0	43	104	763363328	65	16536
2026-01-26 12:34:26.34	318.66	23.61	-47.5	-61.9	3.8	7.43e-01	0	43	104	763363328	67	17985
2026-01-26 12:34:27.33	318.85	23.47	-44.5	-56.6	3.8	7.45e-01	0	43	104	763363328	59	15445
2026-01-26 12:34:28.33	319.03	23.33	-49.6	-69.1	3.8	7.44e-01	0	43	104	763363328	70	34564
2026-01-26 12:34:29.33	319.21	23.19	-45.0	-57.6	3.8	7.43e-01	0	43	104	763363328	61	15497
2026-01-26 12:34:30.32	319.39	23.06	-45.0	-57.5	3.8	7.44e-01	0	43	104	763363328	61	15336
2026-01-26 12:34:31.32	319.57	22.92	-44.2	-56.6	3.8	7.43e-01	0	43	104	763363328	60	14579
2026-01-26 12:34:32.31	319.75	22.78	-43.9	-56.1	3.8	7.47e-01	0	43	104	763363328	59	14615
2026-01-26 12:34:33.31	319.93	22.65	-44.2	-56.6	3.8	7.46e-01	0	43	104	763363328	59	15477
2026-01-26 12:34:34.30	320.10	22.51	-44.3	-56.9	3.8	7.48e-01	0	43	104	763363328	59	16037
2026-01-26 12:34:35.30	320.27	22.37	-48.8	-65.8	3.9	7.46e-01	0	43	104	763363328	69	25143
2026-01-26 12:34:36.30	320.45	22.24	-44.7	-57.6	3.9	7.49e-01	0	43	104	763363328	61	15517
2026-01-26 12:34:37.29	320.61	22.10	-44.7	-57.5	3.8	7.45e-01	0	43	104	763363328	60	16177
2026-01-26 12:34:38.28	320.78	21.97	-43.5	-55.5	3.8	7.43e-01	0	43	104	763363328	59	13686
2026-01-26 12:34:39.28	320.95	21.84	-43.4	-55.3	3.8	7.41e-01	0	43	104	763363328	58	14089
2026-01-26 12:34:40.27	321.11	21.71	-43.5	-55.4	3.8	7.48e-01	0	43	104	763363328	58	14280
2026-01-26 12:34:41.27	321.28	21.57	-43.5	-55.3	3.8	7.47e-01	0	43	104	763363328	58	14178
2026-01-26 12:34:42.26	321.44	21.44	-43.7	-55.7	3.8	7.46e-01	0	43	104	763363328	58	14849
2026-01-26 12:34:43.26	321.60	21.31	-44.0	-56.2	3.8	7.48e-01	0	43	104	763363328	58	15624
2026-01-26 12:34:44.25	321.76	21.18	-49.6	-66.9	3.9	7.45e-01	0	43	104	763363328	70	26950
2026-01-26 12:34:45.25	321.92	21.05	-44.9	-57.8	3.9	7.44e-01	0	43	104	763363328	62	14941
2026-01-26 12:34:46.24	322.08	20.92	-44.7	-57.1	3.8	7.47e-01	0	43	104	763363328	60	15544
2026-01-26 12:34:47.24	322.23	20.79	-43.5	-55.4	3.8	7.46e-01	0	43	104	763363328	58	14360
2026-01-26 12:34:48.23	322.39	20.66	-43.4	-55.4	3.8	7.44e-01	0	43	104	763363328	58	14268
2026-01-26 12:34:49.23	322.54	20.53	-43.3	-55.2	3.8	7.46e-01	0	43	104	763363328	58	13944
2026-01-26 12:34:50.22	322.69	20.41	-43.2	-55.1	3.8	7.45e-01	0	43	104	763363328	58	13759
2026-01-26 12:34:51.22	322.84	20.28	-43.3	-55.2	3.8	7.45e-01	0	43	104	763363328	58	14043
2026-01-26 12:34:52.21	322.99	20.15	-43.8	-55.7	3.8	7.47e-01	0	43	104	763363328	58	14849
2026-01-26 12:34:53.21	323.14	20.03	-49.5	-67.3	3.9	7.44e-01	0	43	104	763363328	70	28289
2026-01-26 12:34:54.20	323.28	19.90	-45.9	-58.9	3.8	7.41e-01	0	43	104	763363328	63	16085
2026-01-26 12:34:55.20	323.43	19.78	-44.5	-57.1	3.8	7.43e-01	0	43	104	763363328	60	15430
2026-01-26 12:34:56.19	323.57	19.65	-43.3	-55.2	3.8	7.48e-01	0	43	104	763363328	58	13994
2026-01-26 12:34:57.19	323.72	19.53	-43.2	-55.2	3.8	7.44e-01	0	43	104	763363328	58	13924
2026-01-26 12:34:58.18	323.86	19.41	-43.2	-55.3	3.8	7.50e-01	0	43	104	763363328	58	14055
2026-01-26 12:34:59.17	324.00	19.28	-43.0	-55.0	3.8	7.44e-01	0	43	104	763363328	58	13617
2026-01-26 12:35:00.17	324.14	19.16	-43.0	-54.9	3.8	7.48e-01	0	43	104	763363328	58	13488
2026-01-26 12:35:01.16	324.28	19.04	-43.5	-55.4	3.8	7.45e-01	0	43	104	763363328	58	14353
2026-01-26 12:35:02.16	324.41	18.92	-49.7	-68.9	3.9	7.46e-01	0	43	104	763363328	70	33853
2026-01-26 12:35:03.15	324.55	18.80	-49.2	-66.2	3.8	7.44e-01	0	43	104	763363328	70	24934
2026-01-26 12:35:04.15	324.69	18.68	-49.6	-69.9	3.8	7.45e-01	0	43	104	763363328	70	37934
2026-01-26 12:35:05.15	324.82	18.56	-49.1	-65.9	3.8	7.45e-01	0	43	104	763363328	70	24094
2026-01-26 12:35:06.14	324.95	18.44	-49.2	-66.1	3.8	7.45e-01	0	43	104	763363328	70	24679
2026-01-26 12:35:07.13	325.08	18.32	-49.2	-65.6	3.8	7.45e-01	0	43	104	763363328	70	23311
2026-01-26 12:35:08.13	325.21	18.20	-49.1	-64.3	3.8	7.45e-01	0	43	104	763363328	70	19933
2026-01-26 12:35:09.12	325.34	18.08	-49.2	-64.4	3.8	7.46e-01	0	43	104	763363328	69	21486
2026-01-26 12:35:10.12	325.47	17.97	-48.4	-62.2	3.8	7.43e-01	0	42	104	763363328	68	17637
2026-01-26 12:35:11.11	325.60	17.85	-49.0	-63.5	3.8	7.46e-01	0	42	104	763363328	68	20443
2026-01-26 12:35:12.11	325.73	17.73	-43.4	-55.3	3.8	7.44e-01	0	43	104	763363328	58	14095
2026-01-26 12:35:13.10	325.85	17.62	-50.8	-69.5	3.8	7.49e-01	0	43	104	763363328	72	32547
2026-01-26 12:35:14.10	325.98	17.50	-43.5	-55.6	3.9	7.48e-01	0	43	104	763363328	58	14663
2026-01-26 12:35:15.09	326.10	17.39	-42.9	-55.0	3.8	7.46e-01	0	43	104	763363328	57	14469
2026-01-26 12:35:16.09	326.22	17.27	-42.8	-54.9	3.8	7.47e-01	0	43	104	763363328	57	14337
2026-01-26 12:35:17.09	326.35	17.16	-42.7	-54.8	3.8	7.47e-01	0	43	104	763363328	57	14193
2026-01-26 12:35:18.08	326.47	17.04	-44.5	-57.0	3.8	7.47e-01	0	43	104	763363328	59	16264
2026-01-26 12:35:19.07	326.59	16.93	-43.2	-55.5	3.8	7.47e-01	0	43	104	763363328	57	15294
2026-01-26 12:35:20.07	326.71	16.82	-48.9	-68.6	3.7	7.47e-01	0	43	104	763363328	68	36659
2026-01-26 12:35:21.06	326.82	16.71	-46.5	-60.5	3.8	7.46e-01	0	43	104	763363328	63	19200
2026-01-26 12:35:22.06	326.94	16.60	-44.5	-56.9	3.8	7.50e-01	0	43	104	763363328	59	16053
2026-01-26 12:35:23.06	327.06	16.48	-43.2	-55.2	3.8	7.47e-01	0	43	104	763363328	58	13927
2026-01-26 12:35:24.05	327.17	16.37	-43.2	-55.2	3.8	7.44e-01	0	43	104	763363328	58	14011
2026-01-26 12:35:25.04	327.29	16.26	-43.0	-55.1	3.8	7.48e-01	0	43	104	763363328	58	13797
2026-01-26 12:35:26.04	327.40	16.15	-43.0	-55.0	3.8	7.47e-01	0	43	104	763363328	57	14517
2026-01-26 12:35:27.03	327.51	16.04	-44.5	-57.2	3.8	7.49e-01	0	43	104	763363328	59	16627
2026-01-26 12:35:28.03	327.63	15.94	-43.2	-55.4	3.8	7.45e-01	0	43	104	763363328	57	15117
2026-01-26 12:35:29.02	327.74	15.83	-48.9	-68.0	3.8	7.48e-01	0	43	104	763363328	68	34319
2026-01-26 12:35:30.02	327.85	15.72	-46.5	-60.7	3.8	7.49e-01	0	43	104	763363328	63	19782
2026-01-26 12:35:31.01	327.96	15.61	-44.4	-56.8	3.8	7.45e-01	0	43	104	763363328	59	15790
2026-01-26 12:35:32.01	328.07	15.50	-43.5	-55.4	3.8	7.46e-01	0	43	104	763363328	58	14335
2026-01-26 12:35:33.00	328.17	15.40	-43.5	-55.3	3.8	7.48e-01	0	43	104	763363328	58	14206
2026-01-26 12:35:34.00	328.28	15.29	-43.5	-55.3	3.8	7.45e-01	0	43	104	763363328	58	14093
2026-01-26 12:35:34.99	328.39	15.19	-43.5	-55.2	3.8	7.48e-01	0	43	104	763363328	58	14036
2026-01-26 12:35:35.99	328.49	15.08	-43.5	-55.2	3.8	7.47e-01	0	43	104	763363328	58	14024
2026-01-26 12:35:36.98	328.60	14.98	-43.8	-55.6	3.8	7.45e-01	0	43	104	763363328	58	14665
2026-01-26 12:35:37.98	328.70	14.87	-49.7	-67.9	3.7	7.46e-01	0	43	104	763363328	70	30314
2026-01-26 12:35:38.97	328.80	14.77	-49.3	-66.0	3.8	7.45e-01	0	43	104	763363328	70	24363
2026-01-26 12:35:39.97	328.91	14.66	-50.8	-69.6	3.8	7.43e-01	0	43	104	763363328	72	32610
2026-01-26 12:35:40.96	329.01	14.56	-49.7	-65.9	3.8	7.47e-01	0	43	104	763363328	71	22554
2026-01-26 12:35:41.96	329.11	14.46	-49.9	-66.2	3.8	7.45e-01	0	43	104	763363328	71	23379
2026-01-26 12:35:42.95	329.21	14.35	-50.0	-66.2	3.8	7.49e-01	0	43	104	763363328	71	23433
2026-01-26 12:35:43.95	329.31	14.25	-49.6	-64.9	3.8	7.46e-01	0	43	104	763363328	71	20086
2026-01-26 12:35:44.94	329.41	14.15	-50.6	-69.5	3.9	7.50e-01	0	43	104	763363328	72	32361
2026-01-26 12:35:45.94	329.51	14.05	-48.0	-62.3	3.8	7.49e-01	0	43	104	763363328	68	17833
2026-01-26 12:35:46.93	329.61	13.95	-47.6	-61.5	3.8	7.45e-01	0	43	104	763363328	65	19259
2026-01-26 12:35:47.93	329.70	13.85	-43.4	-55.3	3.7	7.45e-01	0	43	104	763363328	58	14099
2026-01-26 12:35:48.92	329.80	13.75	-49.9	-67.7	3.7	7.51e-01	0	43	104	763363328	70	29652
2026-01-26 12:35:49.92	329.89	13.65	-43.7	-55.7	3.8	7.43e-01	0	43	104	763363328	59	13953
2026-01-26 12:35:50.91	329.99	13.55	-43.4	-55.2	3.8	7.44e-01	0	43	104	763363328	58	14003
2026-01-26 12:35:51.91	330.08	13.45	-43.4	-55.3	3.8	7.43e-01	0	43	104	763363328	58	14084
2026-01-26 12:35:52.90	330.18	13.35	-43.3	-55.2	3.8	7.47e-01	0	43	104	763363328	58	13904
2026-01-26 12:35:53.90	330.27	13.25	-43.4	-55.5	3.8	7.44e-01	0	43	104	763363328	58	14458
2026-01-26 12:35:54.89	330.36	13.16	-43.9	-55.9	3.8	7.44e-01	0	43	104	763363328	58	15104
2026-01-26 12:35:55.89	330.46	13.06	-50.0	-67.3	3.8	7.48e-01	0	43	104	763363328	70	28226
2026-01-26 12:35:56.89	330.55	12.96	-49.3	-64.6	3.8	7.46e-01	0	43	104	763363328	70	20642
2026-01-26 12:35:57.88	330.64	12.86	-49.6	-66.6	3.8	7.50e-01	0	43	104	763363328	69	27435
2026-01-26 12:35:58.87	330.73	12.77	-48.7	-63.7	3.8	7.46e-01	0	43	104	763363328	69	19619
2026-01-26 12:35:59.87	330.82	12.67	-48.7	-63.9	3.8	7.47e-01	0	43	104	763363328	69	20142
2026-01-26 12:36:00.86	330.91	12.58	-48.4	-63.6	3.8	7.42e-01	0	43	104	763363328	68	20764
2026-01-26 12:36:01.86	330.99	12.48	-47.6	-62.2	3.8	7.44e-01	0	43	104	763363328	67	18580
2026-01-26 12:36:02.85	331.08	12.39	-47.6	-61.7	3.8	7.48e-01	0	43	104	763363328	66	18718
2026-01-26 12:36:03.85	331.17	12.29	-49.4	-67.5	3.8	7.49e-01	0	43	104	763363328	69	30580
2026-01-26 12:36:04.84	331.25	12.20	-44.4	-56.5	3.8	7.45e-01	0	43	104	763363328	61	13616
2026-01-26 12:36:05.83	331.34	12.10	-47.8	-61.4	3.8	7.44e-01	0	43	104	763363328	66	17908
2026-01-26 12:36:06.83	331.43	12.01	-44.2	-56.0	3.8	7.45e-01	0	43	104	763363328	59	14443
2026-01-26 12:36:07.82	331.51	11.92	-43.9	-55.7	3.8	7.49e-01	0	43	104	763363328	59	14046
2026-01-26 12:36:08.82	331.60	11.82	-44.0	-55.8	3.8	7.47e-01	0	43	104	763363328	59	14130
2026-01-26 12:36:09.81	331.68	11.73	-43.7	-55.5	3.8	7.45e-01	0	43	104	763363328	59	13611
2026-01-26 12:36:10.81	331.76	11.64	-43.6	-55.4	3.8	7.48e-01	0	43	104	763363328	59	13550
2026-01-26 12:36:11.80	331.84	11.55	-43.7	-55.5	3.8	7.44e-01	0	43	104	763363328	59	13573
2026-01-26 12:36:12.80	331.93	11.46	-44.3	-56.2	3.9	7.42e-01	0	43	104	763363328	59	14877
2026-01-26 12:36:13.79	332.01	11.37	-49.8	-66.0	3.8	7.47e-01	0	43	104	763363328	70	24194
2026-01-26 12:36:14.79	332.09	11.27	-49.8	-66.7	3.8	7.45e-01	0	43	104	763363328	71	24886
2026-01-26 12:36:15.78	332.17	11.18	-50.4	-69.0	3.8	7.49e-01	0	43	104	763363328	71	32356
2026-01-26 12:36:16.78	332.25	11.09	-50.4	-69.4	3.8	7.43e-01	0	43	104	763363328	71	33763
2026-01-26 12:36:17.77	332.33	11.01	-50.4	-69.6	3.8	7.49e-01	0	43	104	763363328	71	34739
2026-01-26 12:36:18.77	332.41	10.92	-50.4	-69.7	3.8	7.47e-01	0	43	104	763363328	71	34890
2026-01-26 12:36:19.76	332.49	10.83	-50.5	-69.8	3.8	7.47e-01	0	43	104	763363328	71	35370
2026-01-26 12:36:20.76	332.57	10.74	-50.5	-69.5	3.8	7.44e-01	0	43	104	763363328	71	34317
2026-01-26 12:36:21.75	332.64	10.65	-50.4	-68.7	3.8	7.43e-01	0	43	104	763363328	71	31423
2026-01-26 12:36:22.75	332.72	10.56	-45.3	-57.8	3.9	7.49e-01	0	43	104	763363328	62	14945
2026-01-26 12:36:23.74	332.80	10.47	-48.0	-62.0	3.8	7.48e-01	0	43	104	763363328	66	19226
2026-01-26 12:36:24.74	332.87	10.39	-44.1	-56.2	3.8	7.46e-01	0	43	104	763363328	59	14734
2026-01-26 12:36:25.73	332.95	10.30	-44.2	-56.3	3.8	7.46e-01	0	43	104	763363328	59	14994
2026-01-26 12:36:26.73	333.03	10.21	-44.0	-56.1	3.8	7.46e-01	0	43	104	763363328	59	14673
2026-01-26 12:36:27.73	333.10	10.12	-43.9	-56.0	3.8	7.44e-01	0	43	104	763363328	59	14525
2026-01-26 12:36:28.72	333.17	10.04	-43.9	-56.2	3.8	7.43e-01	0	43	104	763363328	59	14725
2026-01-26 12:36:29.71	333.25	9.95	-43.9	-56.2	3.8	7.46e-01	0	43	104	763363328	59	14803
2026-01-26 12:36:30.71	333.32	9.87	-44.5	-57.1	3.8	7.46e-01	0	43	104	763363328	59	16406
2026-01-26 12:36:31.71	333.40	9.78	-48.2	-63.5	3.8	7.48e-01	0	43	104	763363328	66	22847
2026-01-26 12:36:32.70	333.47	9.70	-49.6	-67.0	3.8	7.45e-01	0	43	104	763363328	70	27342
2026-01-26 12:36:33.70	333.54	9.61	-49.5	-68.5	3.8	7.45e-01	0	43	104	763363328	70	32445
2026-01-26 12:36:34.69	333.61	9.53	-49.1	-66.8	3.8	7.45e-01	0	43	104	763363328	70	26517
2026-01-26 12:36:35.68	333.68	9.44	-49.2	-67.2	3.8	7.48e-01	0	43	104	763363328	70	27793
2026-01-26 12:36:36.68	333.75	9.36	-49.0	-66.8	3.8	7.49e-01	0	43	104	763363328	69	28262
2026-01-26 12:36:37.68	333.83	9.27	-48.9	-67.0	3.8	7.43e-01	0	43	104	763363328	69	28812
2026-01-26 12:36:38.67	333.90	9.19	-48.9	-68.3	3.8	7.49e-01	0	43	104	763363328	69	33472
2026-01-26 12:36:39.66	333.96	9.11	-47.7	-63.3	3.8	7.42e-01	0	43	104	763363328	67	21202
2026-01-26 12:36:40.66	334.03	9.02	-48.9	-67.7	3.7	7.48e-01	0	43	104	763363328	68	33129
2026-01-26 12:36:41.65	334.10	8.94	-50.6	-71.1	3.8	7.45e-01	0	43	104	763363328	72	38870
2026-01-26 12:36:42.64	334.17	8.86	-50.3	-71.3	3.8	7.47e-01	0	43	104	763363328	72	39778
2026-01-26 12:36:43.64	334.24	8.78	-49.2	-71.6	3.8	7.46e-01	0	43	104	763363328	70	46112
2026-01-26 12:36:44.63	334.31	8.70	-50.7	-71.6	3.8	7.44e-01	0	43	104	763363328	72	41259
2026-01-26 12:36:45.62	334.37	8.62	-50.5	-71.7	3.8	7.48e-01	0	43	104	763363328	72	41550
2026-01-26 12:36:46.62	334.44	8.53	-49.6	-71.8	3.8	7.47e-01	0	43	104	763363328	71	44614
2026-01-26 12:36:47.61	334.51	8.45	-50.0	-71.8	3.8	7.50e-01	0	43	104	763363328	71	44708
2026-01-26 12:36:48.60	334.57	8.37	-50.9	-71.8	3.8	7.45e-01	0	43	104	763363328	73	39884
2026-01-26 12:36:49.59	334.64	8.29	-51.7	-71.8	3.8	7.45e-01	0	43	104	763363328	73	39992
2026-01-26 12:36:50.59	334.71	8.21	-51.6	-71.9	3.8	7.48e-01	0	43	104	763363328	74	37856
2026-01-26 12:36:51.58	334.77	8.13	-51.4	-71.9	3.8	7.45e-01	0	43	104	763363328	74	37891
2026-01-26 12:36:52.57	334.83	8.05	-50.8	-71.9	3.8	7.46e-01	0	43	104	763363328	73	40108
2026-01-26 12:36:53.57	334.90	7.97	-51.7	-72.2	3.8	7.47e-01	0	43	104	763363328	74	39228
2026-01-26 12:36:54.56	334.96	7.89	-51.7	-71.9	3.8	7.46e-01	0	43	104	763363328	74	37947
2026-01-26 12:36:55.56	335.03	7.82	-51.7	-71.9	3.8	7.48e-01	0	43	104	763363328	74	38033
2026-01-26 12:36:56.55	335.09	7.74	-51.9	-71.9	3.8	7.43e-01	0	43	104	763363328	74	38064
2026-01-26 12:36:57.54	335.15	7.66	-52.0	-71.9	3.8	7.45e-01	0	43	104	763363328	74	38016
2026-01-26 12:36:58.53	335.22	7.58	-51.9	-71.9	3.8	7.45e-01	0	43	104	763363328	74	37933
2026-01-26 12:36:59.53	335.28	7.50	-51.8	-71.8	3.8	7.45e-01	0	43	104	763363328	74	37753
2026-01-26 12:37:00.52	335.34	7.43	-51.7	-71.8	3.8	7.48e-01	0	43	104	763363328	74	37740
2026-01-26 12:37:01.51	335.40	7.35	-51.5	-71.8	3.8	7.45e-01	0	43	104	763363328	74	37721
2026-01-26 12:37:02.51	335.46	7.27	-51.7	-71.8	3.8	7.48e-01	0	43	104	763363328	74	37671
2026-01-26 12:37:03.50	335.52	7.19	-51.5	-71.8	3.8	7.47e-01	0	43	104	763363328	73	39853
2026-01-26 12:37:04.49	335.58	7.12	-51.1	-71.8	3.8	7.50e-01	0	43	104	763363328	73	39756
2026-01-26 12:37:05.49	335.64	7.04	-51.1	-71.8	3.8	7.45e-01	0	43	104	763363328	73	39757
2026-01-26 12:37:06.48	335.70	6.96	-51.1	-71.8	3.8	7.44e-01	0	43	104	763363328	73	39762
2026-01-26 12:37:07.47	335.76	6.89	-51.1	-71.8	3.8	7.45e-01	0	43	104	763363328	73	39734
2026-01-26 12:37:08.46	335.82	6.81	-51.1	-71.8	3.8	7.43e-01	0	43	104	763363328	73	39637
2026-01-26 12:37:09.46	335.88	6.74	-51.1	-71.8	3.8	7.45e-01	0	43	104	763363328	73	39675
2026-01-26 12:37:10.45	335.94	6.66	-51.1	-71.8	3.8	7.47e-01	0	43	104	763363328	73	39633
2026-01-26 12:37:11.44	336.00	6.59	-51.0	-71.7	3.8	7.43e-01	0	43	104	763363328	73	39567
2026-01-26 12:37:12.44	336.06	6.51	-51.0	-71.7	3.8	7.47e-01	0	43	104	763363328	73	39584
2026-01-26 12:37:13.43	336.12	6.44	-51.1	-71.8	3.8	7.46e-01	0	43	104	763363328	73	39611
2026-01-26 12:37:14.42	336.17	6.36	-51.1	-71.7	3.8	7.46e-01	0	43	104	763363328	73	39501
2026-01-26 12:37:15.42	336.23	6.29	-51.1	-71.8	3.8	7.46e-01	0	43	104	763363328	73	39602
2026-01-26 12:37:16.41	336.29	6.22	-51.0	-71.8	3.8	7.48e-01	0	43	104	763363328	73	39650
2026-01-26 12:37:17.40	336.34	6.14	-51.0	-71.7	3.8	7.48e-01	0	43	104	763363328	73	39555
2026-01-26 12:37:18.39	336.40	6.07	-51.0	-71.8	3.8	7.47e-01	0	43	104	763363328	73	39637
2026-01-26 12:37:19.39	336.46	5.99	-51.0	-71.7	3.8	7.47e-01	0	43	104	763363328	73	39520
2026-01-26 12:37:20.38	336.51	5.92	-51.0	-71.7	3.8	7.45e-01	0	43	104	763363328	73	39528
2026-01-26 12:37:21.37	336.57	5.85	-51.0	-71.7	3.8	7.45e-01	0	43	104	763363328	73	39448
2026-01-26 12:37:22.37	336.62	5.78	-51.0	-71.7	3.8	7.45e-01	0	43	104	763363328	73	39477
2026-01-26 12:37:23.36	336.68	5.70	-51.0	-71.7	3.8	7.46e-01	0	43	104	763363328	73	39487
2026-01-26 12:37:24.35	336.73	5.63	-51.1	-71.7	3.8	7.47e-01	0	43	104	763363328	73	39506
2026-01-26 12:37:25.35	336.79	5.56	-51.0	-71.7	3.8	7.46e-01	0	43	104	763363328	73	39481
2026-01-26 12:37:26.34	336.84	5.49	-51.1	-71.7	3.8	7.45e-01	0	43	104	763363328	73	39488
2026-01-26 12:37:27.33	336.90	5.42	-51.1	-71.7	3.8	7.47e-01	0	43	104	763363328	73	39540
2026-01-26 12:37:28.33	336.95	5.34	-51.0	-71.7	3.8	7.46e-01	0	43	104	763363328	73	39458
2026-01-26 12:37:29.32	337.00	5.27	-51.0	-71.7	3.8	7.45e-01	0	43	104	763363328	73	39397
2026-01-26 12:37:30.31	337.06	5.20	-51.0	-71.7	3.8	7.46e-01	0	43	104	763363328	73	39451
2026-01-26 12:37:31.30	337.11	5.13	-51.0	-71.7	3.8	7.46e-01	0	43	104	763363328	73	39382
2026-01-26 12:37:32.30	337.16	5.06	-51.0	-71.7	3.8	7.46e-01	0	43	104	763363328	73	39453
2026-01-26 12:37:33.29	337.21	4.99	-51.0	-71.7	3.8	7.42e-01	0	43	104	763363328	73	39436

#Closed at: 2026-01-26 12:37:34
#Recorded file [763 MB]: D:/Data/31040_260126_152630.dat