passes_logs/2026/01/26/T1/T1__20260126_034922_FENGYUN_3E_rec.log

#Pass ID: 20260126_034922_FENGYUN 3E
#Satellite: FENGYUN 3E
#Configuration: FENGYUN 3E
#almurnet v.1.7.20251203
#Start time: 2026-01-26 03:49:23

#Version: 2.0.20230620
#Station: T1
#Location: 37.570604 lon 55.790049 lat
#TLE: 1 49008U 21062A   26025.50541212  .00000123  00000+0  78606-4 0  9993
#TLE: 2 49008  98.7497  30.5110 0002440 117.2537 242.8888 14.19886993236338

#Time	Az	El	Level	Level2	SNR	BER	BlckErr	Temp	State	Recorded	gain1	gain2
2026-01-26 03:49:23.30	17.34	5.05	-47.5	-59.2	3.8	8.46e-01	0	40	0	0	64	14697
2026-01-26 03:49:24.29	17.35	5.12	-47.5	-59.1	3.8	8.47e-01	0	40	104	0	64	14539
2026-01-26 03:49:25.28	17.36	5.19	-47.5	-59.1	3.8	8.48e-01	0	40	104	0	64	14441
2026-01-26 03:49:26.27	17.38	5.26	-47.4	-59.0	3.8	8.46e-01	0	40	104	0	64	14329
2026-01-26 03:49:27.27	17.39	5.34	-47.4	-59.0	3.8	8.47e-01	0	40	104	0	64	14311
2026-01-26 03:49:28.26	17.40	5.41	-47.4	-59.0	3.8	8.46e-01	0	40	104	0	64	14222
2026-01-26 03:49:29.25	17.41	5.48	-47.4	-58.9	3.8	8.47e-01	0	40	104	0	64	14146
2026-01-26 03:49:30.25	17.42	5.55	-47.4	-58.9	3.8	8.47e-01	0	40	104	0	64	14052
2026-01-26 03:49:31.24	17.44	5.62	-47.4	-58.8	3.8	8.48e-01	0	40	104	0	64	13978
2026-01-26 03:49:32.23	17.45	5.69	-47.4	-58.8	3.8	8.47e-01	0	40	104	0	64	14018
2026-01-26 03:49:33.22	17.46	5.77	-47.4	-58.8	3.8	8.47e-01	0	40	104	0	64	13893
2026-01-26 03:49:34.22	17.47	5.84	-47.4	-58.8	3.8	8.47e-01	0	40	104	0	64	13939
2026-01-26 03:49:35.21	17.49	5.91	-47.4	-58.8	3.8	8.47e-01	0	40	104	0	64	14030
2026-01-26 03:49:36.20	17.50	5.99	-47.4	-59.0	3.8	8.45e-01	0	40	104	0	64	14214
2026-01-26 03:49:37.20	17.51	6.06	-47.4	-59.0	3.8	8.47e-01	0	40	104	0	64	14322
2026-01-26 03:49:38.19	17.52	6.13	-47.5	-59.1	3.8	8.48e-01	0	40	104	0	64	14391
2026-01-26 03:49:39.18	17.53	6.21	-47.5	-59.1	3.8	8.46e-01	0	41	104	0	64	14488
2026-01-26 03:49:40.18	17.55	6.28	-47.5	-59.1	3.8	8.47e-01	0	40	104	0	64	14516
2026-01-26 03:49:41.17	17.56	6.35	-47.5	-59.2	3.8	8.47e-01	0	41	104	0	64	14626
2026-01-26 03:49:42.16	17.57	6.43	-47.5	-59.1	3.8	8.48e-01	0	41	104	0	64	14482
2026-01-26 03:49:43.16	17.59	6.50	-47.4	-59.1	3.8	8.46e-01	0	40	104	0	64	14399
2026-01-26 03:49:44.15	17.60	6.58	-47.4	-58.8	3.8	8.47e-01	0	40	104	0	64	14040
2026-01-26 03:49:45.14	17.61	6.65	-47.4	-58.7	3.8	8.47e-01	0	41	104	0	64	13816
2026-01-26 03:49:46.14	17.62	6.73	-47.4	-58.4	3.8	8.48e-01	0	41	104	0	64	13389
2026-01-26 03:49:47.13	17.64	6.80	-47.4	-58.2	3.8	8.46e-01	0	41	104	0	64	12987
2026-01-26 03:49:48.12	17.65	6.88	-47.3	-57.8	3.8	8.45e-01	0	41	104	0	64	12436
2026-01-26 03:49:49.11	17.66	6.95	-47.3	-57.3	3.8	8.45e-01	0	41	104	0	64	11797
2026-01-26 03:49:50.11	17.68	7.03	-47.2	-56.8	4.0	8.44e-01	0	41	104	0	64	11129
2026-01-26 03:49:51.10	17.69	7.11	-47.2	-56.6	3.9	8.46e-01	0	41	104	0	64	10866
2026-01-26 03:49:52.09	17.70	7.18	-47.1	-55.9	4.1	8.41e-01	0	41	0	0	64	10020
2026-01-26 03:49:53.09	17.71	7.26	-47.0	-55.5	4.3	8.37e-01	0	41	0	0	64	9527
2026-01-26 03:49:54.08	17.73	7.34	-47.0	-55.1	4.4	8.30e-01	0	41	0	0	64	9138
2026-01-26 03:49:55.07	17.74	7.41	-46.9	-54.7	4.5	8.23e-01	0	41	0	0	64	8749
2026-01-26 03:49:56.06	17.75	7.49	-46.8	-54.3	4.7	8.11e-01	0	41	0	0	64	8306
2026-01-26 03:49:57.06	17.77	7.57	-46.8	-54.1	4.8	8.02e-01	0	41	0	0	64	8124
2026-01-26 03:49:58.05	17.78	7.65	-46.7	-53.8	5.0	7.88e-01	0	41	0	0	64	7839
2026-01-26 03:49:59.04	17.79	7.72	-46.6	-53.5	5.1	7.59e-01	0	41	0	0	64	7590
2026-01-26 03:50:00.03	17.81	7.80	-46.6	-53.3	5.3	7.43e-01	0	41	0	0	64	7389
2026-01-26 03:50:01.03	17.82	7.88	-46.6	-52.9	5.5	7.15e-01	0	41	0	0	63	7526
2026-01-26 03:50:02.02	17.83	7.96	-46.5	-52.6	5.8	5.46e-01	0	41	0	1048576	63	7210
2026-01-26 03:50:03.01	17.85	8.04	-46.4	-52.2	6.1	3.17e-01	0	41	0	8388608	63	6889
2026-01-26 03:50:04.01	17.86	8.12	-46.2	-51.6	6.5	2.39e-01	0	42	0	15728640	63	6448
2026-01-26 03:50:05.00	17.88	8.20	-45.9	-50.8	7.3	1.59e-01	0	41	0	23068672	62	6246
2026-01-26 03:50:05.99	17.89	8.28	-45.7	-50.2	7.8	8.91e-02	0	41	0	29360128	62	5831
2026-01-26 03:50:06.99	17.90	8.36	-45.3	-49.3	8.7	4.45e-02	0	41	0	36700160	61	5560
2026-01-26 03:50:07.98	17.92	8.44	-44.9	-48.5	9.6	1.98e-02	0	41	0	44040192	60	5382
2026-01-26 03:50:08.97	17.93	8.52	-44.5	-47.7	10.3	7.74e-03	0	41	0	51380224	59	5179
2026-01-26 03:50:09.97	17.94	8.60	-44.2	-47.1	11.0	2.64e-03	0	41	0	58720256	59	4825
2026-01-26 03:50:10.96	17.96	8.68	-43.7	-46.3	11.7	8.35e-04	0	41	0	66060288	58	4699
2026-01-26 03:50:11.95	17.97	8.76	-43.2	-45.6	12.5	2.23e-04	0	41	0	73400320	57	4597
2026-01-26 03:50:12.95	17.99	8.84	-43.1	-45.4	12.7	1.12e-04	0	41	0	79691776	57	4487
2026-01-26 03:50:13.94	18.00	8.93	-42.8	-45.0	13.1	3.66e-05	0	42	0	87031808	56	4538
2026-01-26 03:50:14.93	18.01	9.01	-42.4	-44.5	13.5	9.10e-06	0	41	0	94371840	55	4522
2026-01-26 03:50:15.93	18.03	9.09	-42.2	-44.2	14.0	0.00e+00	0	41	0	101711872	54	4605
2026-01-26 03:50:16.92	18.04	9.17	-44.3	-47.2	10.9	4.54e-04	0	41	0	109051904	57	5508
2026-01-26 03:50:17.91	18.06	9.26	-44.3	-47.3	10.8	4.74e-04	0	42	0	115343360	57	5583
2026-01-26 03:50:18.91	18.07	9.34	-46.4	-52.9	5.5	1.63e-01	0	42	0	122683392	62	7965
2026-01-26 03:50:19.91	18.09	9.42	-39.0	-40.2	17.9	0.00e+00	0	42	0	128974848	48	4138
2026-01-26 03:50:20.90	18.10	9.51	-38.6	-39.8	18.4	0.00e+00	0	42	0	136314880	48	3922
2026-01-26 03:50:21.94	18.12	9.60	-38.0	-39.1	18.8	0.00e+00	0	42	0	143654912	46	4076
2026-01-26 03:50:22.94	18.13	9.68	-37.5	-38.6	19.3	0.00e+00	0	42	0	150994944	45	4070
2026-01-26 03:50:23.99	18.15	9.77	-37.2	-38.2	19.7	0.00e+00	0	42	0	158334976	45	3912
2026-01-26 03:50:24.86	18.16	9.85	-37.3	-38.3	19.6	0.00e+00	0	42	0	164626432	45	3955
2026-01-26 03:50:26.00	18.18	9.94	-37.2	-38.2	19.7	0.00e+00	0	42	0	173015040	45	3889
2026-01-26 03:50:26.86	18.19	10.02	-37.2	-38.2	19.6	0.00e+00	0	42	0	179306496	45	3899
2026-01-26 03:50:27.99	18.21	10.12	-37.2	-38.3	19.7	0.00e+00	0	42	0	186646528	44	4159
2026-01-26 03:50:28.85	18.22	10.19	-37.2	-38.2	19.7	0.00e+00	0	42	0	192937984	44	4138
2026-01-26 03:50:29.99	18.24	10.29	-37.0	-38.0	19.9	0.00e+00	0	42	0	201326592	44	4045
2026-01-26 03:50:30.84	18.25	10.36	-36.9	-37.9	20.0	0.00e+00	0	42	0	207618048	44	3982
2026-01-26 03:50:31.98	18.27	10.46	-36.9	-37.9	20.0	0.00e+00	0	42	0	216006656	44	3990
2026-01-26 03:50:32.83	18.28	10.54	-36.8	-37.9	20.0	0.00e+00	0	42	0	222298112	44	3960
2026-01-26 03:50:33.97	18.30	10.64	-36.8	-37.8	20.0	0.00e+00	0	42	0	230686720	44	3953
2026-01-26 03:50:34.82	18.31	10.71	-36.9	-37.9	20.0	0.00e+00	0	42	0	236978176	44	3977
2026-01-26 03:50:36.07	18.33	10.83	-36.9	-37.9	20.0	0.00e+00	0	42	0	245366784	44	3968
2026-01-26 03:50:36.92	18.34	10.90	-36.8	-37.9	20.1	0.00e+00	0	42	0	251658240	44	3962
2026-01-26 03:50:38.06	18.36	11.00	-36.6	-37.6	20.3	0.00e+00	0	42	0	260046848	44	3859
2026-01-26 03:50:38.91	18.38	11.08	-36.8	-37.8	20.1	0.00e+00	0	42	0	266338304	44	3935
2026-01-26 03:50:40.05	18.39	11.18	-36.8	-37.8	20.2	0.00e+00	0	42	0	273678336	44	3934
2026-01-26 03:50:40.90	18.41	11.26	-36.7	-37.7	20.3	0.00e+00	0	42	0	279969792	44	3906
2026-01-26 03:50:42.04	18.43	11.36	-36.8	-37.8	20.2	0.00e+00	0	42	0	288358400	44	3922
2026-01-26 03:50:42.89	18.44	11.44	-36.7	-37.7	20.3	0.00e+00	0	42	0	294649856	44	3889
2026-01-26 03:50:44.03	18.46	11.55	-36.6	-37.6	20.4	0.00e+00	0	42	0	303038464	44	3837
2026-01-26 03:50:44.88	18.47	11.63	-36.6	-37.5	20.3	0.00e+00	0	42	0	309329920	43	4043
2026-01-26 03:50:46.01	18.49	11.73	-36.4	-37.4	20.4	0.00e+00	0	42	0	317718528	43	3992
2026-01-26 03:50:46.86	18.50	11.81	-36.5	-37.5	20.4	0.00e+00	0	42	0	324009984	43	4006
2026-01-26 03:50:48.00	18.52	11.91	-36.5	-37.5	20.4	0.00e+00	0	42	0	331350016	43	4008
2026-01-26 03:50:48.86	18.54	11.99	-36.3	-37.3	20.5	0.00e+00	0	42	0	337641472	43	3919
2026-01-26 03:50:50.01	18.56	12.10	-36.4	-37.3	20.5	0.00e+00	0	42	0	346030080	43	3958
2026-01-26 03:50:50.86	18.57	12.18	-36.3	-37.2	20.6	0.00e+00	0	42	0	352321536	43	3911
2026-01-26 03:50:52.08	18.59	12.30	-36.4	-37.3	20.5	0.00e+00	0	42	0	360710144	43	3948
2026-01-26 03:50:52.93	18.61	12.38	-36.4	-37.4	20.5	0.00e+00	0	42	0	367001600	43	3978
2026-01-26 03:50:54.13	18.63	12.49	-36.1	-37.0	20.8	0.00e+00	0	42	0	375390208	42	4048
2026-01-26 03:50:54.98	18.64	12.57	-36.2	-37.2	20.6	0.00e+00	0	42	0	381681664	42	4114
2026-01-26 03:50:56.12	18.66	12.68	-36.1	-37.0	20.8	0.00e+00	0	42	0	390070272	42	4040
2026-01-26 03:50:56.98	18.68	12.77	-36.0	-37.0	20.9	0.00e+00	0	42	0	396361728	42	4012
2026-01-26 03:50:58.11	18.70	12.88	-36.0	-36.9	20.9	0.00e+00	0	42	0	404750336	42	4004
2026-01-26 03:50:58.97	18.71	12.96	-36.2	-37.1	20.8	0.00e+00	0	42	0	411041792	42	4082
2026-01-26 03:51:00.10	18.73	13.07	-36.0	-37.0	20.9	0.00e+00	0	42	0	419430400	42	4018
2026-01-26 03:51:00.95	18.74	13.15	-35.9	-36.8	21.0	0.00e+00	0	42	0	425721856	42	3947
2026-01-26 03:51:02.09	18.77	13.27	-36.0	-36.9	21.0	0.00e+00	0	42	0	433061888	42	3980
2026-01-26 03:51:02.94	18.78	13.35	-35.9	-36.8	21.0	0.00e+00	0	42	0	439353344	42	3932
2026-01-26 03:51:04.08	18.80	13.46	-35.8	-36.8	21.1	0.00e+00	0	42	0	447741952	42	3920
2026-01-26 03:51:05.22	18.82	13.58	-35.8	-36.8	21.1	0.00e+00	0	42	0	456130560	42	3925
2026-01-26 03:51:06.25	18.84	13.68	-35.8	-36.8	21.1	0.00e+00	0	42	0	463470592	42	3915
2026-01-26 03:51:07.24	18.86	13.78	-35.7	-36.6	21.2	0.00e+00	0	42	0	470810624	42	3856
2026-01-26 03:51:08.23	18.88	13.88	-35.6	-36.6	21.3	0.00e+00	0	42	0	478150656	42	3836
2026-01-26 03:51:09.23	18.89	13.98	-35.6	-36.5	21.3	0.00e+00	0	42	0	484442112	41	4043
2026-01-26 03:51:10.22	18.91	14.08	-35.5	-36.5	21.3	0.00e+00	0	42	0	491782144	41	4018
2026-01-26 03:51:11.22	18.93	14.18	-35.4	-36.4	21.4	0.00e+00	0	42	0	499122176	41	3968
2026-01-26 03:51:12.21	18.95	14.29	-35.5	-36.4	21.4	0.00e+00	0	42	0	506462208	41	4000
2026-01-26 03:51:13.21	18.97	14.39	-35.4	-36.3	21.5	0.00e+00	0	42	0	513802240	41	3943
2026-01-26 03:51:14.20	18.99	14.49	-35.3	-36.3	21.6	0.00e+00	0	42	0	521142272	41	3925
2026-01-26 03:51:15.20	19.01	14.59	-35.3	-36.3	21.5	0.00e+00	0	42	0	527433728	41	3937
2026-01-26 03:51:16.19	19.02	14.70	-35.1	-36.1	21.7	0.00e+00	0	42	0	534773760	41	3846
2026-01-26 03:51:17.23	19.04	14.81	-35.2	-36.1	21.7	0.00e+00	0	42	0	542113792	41	3867
2026-01-26 03:51:18.25	19.06	14.91	-35.3	-36.2	21.6	0.00e+00	0	42	0	550502400	41	3910
2026-01-26 03:51:19.28	19.08	15.02	-35.2	-36.1	21.7	0.00e+00	0	42	0	557842432	41	3862
2026-01-26 03:51:20.28	19.10	15.13	-35.0	-36.0	21.8	0.00e+00	0	42	0	564133888	40	4022
2026-01-26 03:51:21.33	19.12	15.24	-35.1	-36.0	21.8	0.00e+00	0	42	0	572522496	40	4033
2026-01-26 03:51:22.25	19.14	15.34	-35.0	-36.0	21.8	0.00e+00	0	42	0	578813952	40	4015
2026-01-26 03:51:23.38	19.16	15.46	-35.0	-36.0	21.8	0.00e+00	0	42	0	587202560	40	4008
2026-01-26 03:51:24.24	19.18	15.56	-35.0	-35.9	21.9	0.00e+00	0	42	0	593494016	40	4003
2026-01-26 03:51:25.37	19.20	15.68	-34.8	-35.7	22.1	0.00e+00	0	42	0	601882624	40	3909
2026-01-26 03:51:26.23	19.22	15.77	-34.9	-35.8	22.0	0.00e+00	0	42	0	607125504	40	3954
2026-01-26 03:51:27.36	19.24	15.90	-34.9	-35.9	21.9	0.00e+00	0	42	0	615514112	40	3970
2026-01-26 03:51:28.22	19.26	15.99	-34.9	-35.9	22.0	0.00e+00	0	42	0	621805568	40	3959
2026-01-26 03:51:29.35	19.29	16.12	-34.9	-35.8	22.0	0.00e+00	0	42	0	630194176	40	3949
2026-01-26 03:51:30.21	19.30	16.21	-34.9	-35.8	22.0	0.00e+00	0	42	0	636485632	40	3950
2026-01-26 03:51:31.34	19.33	16.34	-34.8	-35.7	22.1	0.00e+00	0	42	0	644874240	40	3907
2026-01-26 03:51:32.20	19.34	16.43	-34.8	-35.7	22.1	0.00e+00	0	42	0	650117120	40	3898
2026-01-26 03:51:33.34	19.37	16.56	-34.9	-35.8	22.1	0.00e+00	0	42	0	658505728	40	3923
2026-01-26 03:51:34.19	19.39	16.66	-34.8	-35.7	22.1	0.00e+00	0	42	0	664797184	40	3894
2026-01-26 03:51:35.33	19.41	16.79	-34.9	-35.8	22.1	0.00e+00	0	42	0	673185792	40	3921
2026-01-26 03:51:36.18	19.43	16.88	-34.8	-35.7	22.1	0.00e+00	0	42	0	679477248	40	3885
2026-01-26 03:51:37.43	19.46	17.03	-34.8	-35.7	22.1	0.00e+00	0	42	0	688914432	40	3890
2026-01-26 03:51:38.28	19.47	17.13	-34.7	-35.6	22.2	0.00e+00	0	42	0	694157312	40	3837
2026-01-26 03:51:39.48	19.50	17.27	-34.7	-35.6	22.2	0.00e+00	0	42	0	703594496	40	3850
2026-01-26 03:51:40.34	19.52	17.37	-34.7	-35.5	22.3	0.00e+00	0	42	0	709885952	40	3814
2026-01-26 03:51:41.47	19.54	17.50	-34.7	-35.6	22.3	0.00e+00	0	42	0	717225984	39	4056
2026-01-26 03:51:42.33	19.56	17.60	-34.7	-35.5	22.4	0.00e+00	0	42	0	723517440	39	4038
2026-01-26 03:51:43.46	19.59	17.73	-34.6	-35.5	22.4	0.00e+00	0	42	0	731906048	39	4028
2026-01-26 03:51:44.32	19.61	17.83	-34.7	-35.6	22.3	0.00e+00	0	42	0	738197504	39	4077
2026-01-26 03:51:45.46	19.63	17.97	-34.7	-35.5	22.4	0.00e+00	0	42	0	746586112	39	4038
2026-01-26 03:51:46.31	19.65	18.07	-34.5	-35.3	22.6	0.00e+00	0	42	0	752877568	39	3939
2026-01-26 03:51:47.45	19.68	18.21	-34.7	-35.6	22.3	0.00e+00	0	42	0	760217600	39	4072
2026-01-26 03:51:48.30	19.70	18.31	-34.7	-35.6	22.3	0.00e+00	0	42	0	766509056	39	4070
2026-01-26 03:51:49.43	19.73	18.45	-34.6	-35.5	22.4	0.00e+00	0	43	0	774897664	39	4032
2026-01-26 03:51:50.29	19.75	18.56	-34.8	-35.6	22.2	0.00e+00	0	42	0	781189120	39	4094
2026-01-26 03:51:51.42	19.77	18.69	-34.7	-35.5	22.4	0.00e+00	0	42	0	789577728	39	4040
2026-01-26 03:51:52.28	19.79	18.80	-34.7	-35.6	22.3	0.00e+00	0	43	0	795869184	39	4068
2026-01-26 03:51:53.42	19.82	18.94	-34.7	-35.6	22.3	0.00e+00	0	42	0	804257792	39	4072
2026-01-26 03:51:54.27	19.84	19.05	-34.7	-35.6	22.3	0.00e+00	0	42	0	810549248	39	4059
2026-01-26 03:51:55.41	19.87	19.19	-34.7	-35.6	22.3	0.00e+00	0	42	0	817889280	39	4072
2026-01-26 03:51:56.26	19.89	19.30	-34.8	-35.7	22.2	0.00e+00	0	42	0	824180736	39	4137
2026-01-26 03:51:57.40	19.92	19.44	-34.8	-35.7	22.2	0.00e+00	0	42	0	832569344	39	4106
2026-01-26 03:51:58.25	19.94	19.55	-34.8	-35.7	22.2	0.00e+00	0	42	0	838860800	39	4110
2026-01-26 03:51:59.57	19.97	19.72	-34.7	-35.6	22.3	0.00e+00	0	42	0	848297984	39	4067
2026-01-26 03:52:00.28	19.99	19.81	-34.6	-35.5	22.3	0.00e+00	0	42	0	853540864	39	4051
2026-01-26 03:52:01.75	20.03	20.00	-34.6	-35.5	22.3	0.00e+00	0	42	0	864026624	39	4046
2026-01-26 03:52:02.46	20.04	20.09	-34.6	-35.5	22.4	0.00e+00	0	42	0	869269504	39	4041
2026-01-26 03:52:03.74	20.08	20.26	-34.6	-35.5	22.4	0.00e+00	0	42	0	878706688	39	4011
2026-01-26 03:52:04.45	20.10	20.35	-34.7	-35.6	22.3	0.00e+00	0	42	0	883949568	39	4078
2026-01-26 03:52:05.73	20.13	20.52	-34.6	-35.5	22.4	0.00e+00	0	42	0	892338176	39	4012
2026-01-26 03:52:06.47	20.15	20.62	-34.5	-35.4	22.5	0.00e+00	0	42	0	898629632	39	3993
2026-01-26 03:52:07.75	20.18	20.79	-34.5	-35.3	22.5	0.00e+00	0	42	0	907018240	39	3953
2026-01-26 03:52:08.47	20.20	20.89	-34.5	-35.4	22.5	0.00e+00	0	42	0	912261120	39	3970
2026-01-26 03:52:09.74	20.24	21.06	-34.6	-35.5	22.4	0.00e+00	0	42	0	921698304	39	4036
2026-01-26 03:52:10.49	20.26	21.16	-34.5	-35.4	22.5	0.00e+00	0	42	0	926941184	39	3981
2026-01-26 03:52:11.77	20.29	21.34	-34.4	-35.3	22.6	0.00e+00	0	42	0	936378368	39	3941
2026-01-26 03:52:12.49	20.31	21.44	-34.5	-35.4	22.5	0.00e+00	0	42	0	941621248	39	3974
2026-01-26 03:52:13.77	20.35	21.61	-34.3	-35.2	22.7	0.00e+00	0	42	0	951058432	39	3893
2026-01-26 03:52:14.48	20.37	21.71	-34.4	-35.2	22.7	0.00e+00	0	42	0	956301312	39	3907
2026-01-26 03:52:15.76	20.40	21.89	-34.3	-35.2	22.7	0.00e+00	0	42	0	965738496	39	3877
2026-01-26 03:52:16.47	20.42	21.99	-34.4	-35.3	22.6	0.00e+00	0	42	0	969932800	39	3940
2026-01-26 03:52:17.75	20.46	22.17	-34.3	-35.1	22.6	0.00e+00	0	43	0	979369984	39	3855
2026-01-26 03:52:18.71	20.49	22.31	-34.3	-35.2	22.7	0.00e+00	0	42	0	986710016	39	3883
2026-01-26 03:52:19.71	20.51	22.45	-34.4	-35.2	22.7	0.00e+00	0	42	0	994050048	39	3903
2026-01-26 03:52:20.70	20.54	22.59	-34.3	-35.1	22.7	0.00e+00	0	42	0	1001390080	39	3856
2026-01-26 03:52:21.70	20.57	22.74	-34.3	-35.1	22.8	0.00e+00	0	42	0	1007681536	39	3855
2026-01-26 03:52:22.69	20.60	22.88	-34.4	-35.2	22.7	0.00e+00	0	42	0	1015021568	39	3897
2026-01-26 03:52:23.69	20.63	23.03	-34.4	-35.3	22.6	0.00e+00	0	42	0	1022361600	39	3928
2026-01-26 03:52:24.68	20.66	23.17	-34.2	-35.1	22.8	0.00e+00	0	43	0	1029701632	39	3830
2026-01-26 03:52:25.68	20.69	23.32	-34.2	-35.0	22.9	0.00e+00	0	42	0	1037041664	39	3808
2026-01-26 03:52:26.73	20.72	23.47	-34.1	-34.9	22.9	0.00e+00	0	43	0	1044381696	39	3780
2026-01-26 03:52:27.66	20.75	23.61	-34.2	-35.1	22.9	0.00e+00	0	42	0	1050673152	38	4056
2026-01-26 03:52:28.79	20.79	23.78	-34.1	-34.9	23.0	0.00e+00	0	42	0	1059061760	38	3984
2026-01-26 03:52:29.64	20.82	23.91	-34.0	-34.9	23.0	0.00e+00	0	42	0	1065353216	38	3981
2026-01-26 03:52:30.98	20.86	24.11	-34.0	-34.9	22.8	0.00e+00	0	43	0	1074790400	38	3973
2026-01-26 03:52:31.69	20.88	24.22	-34.0	-34.9	22.9	0.00e+00	0	43	0	1080033280	38	3976
2026-01-26 03:52:33.16	20.93	24.45	-33.9	-34.8	23.1	0.00e+00	0	43	0	1090519040	38	3915
2026-01-26 03:52:33.87	20.95	24.56	-33.9	-34.7	23.1	0.00e+00	0	42	0	1095761920	38	3903
2026-01-26 03:52:35.15	20.99	24.76	-34.0	-34.8	23.0	0.00e+00	0	43	0	1105199104	38	3955
2026-01-26 03:52:36.19	21.03	24.92	-34.0	-34.9	23.0	0.00e+00	0	42	0	1112539136	38	3967
2026-01-26 03:52:37.47	21.07	25.12	-34.2	-35.0	22.8	0.00e+00	0	42	0	1121976320	38	4043
2026-01-26 03:52:38.21	21.10	25.24	-34.1	-35.0	22.9	0.00e+00	0	42	0	1127219200	38	4033
2026-01-26 03:52:39.49	21.14	25.45	-34.1	-34.9	22.9	0.00e+00	0	42	0	1136656384	38	3994
2026-01-26 03:52:40.28	21.17	25.57	-34.0	-34.8	23.0	0.00e+00	0	43	0	1141899264	38	3949
2026-01-26 03:52:41.44	21.21	25.76	-33.9	-34.8	23.1	0.00e+00	0	43	0	1150287872	38	3934
2026-01-26 03:52:42.29	21.24	25.90	-34.1	-34.9	23.0	0.00e+00	0	43	0	1156579328	38	3994
2026-01-26 03:52:43.43	21.28	26.09	-34.0	-34.8	23.1	0.00e+00	0	42	0	1164967936	38	3937
2026-01-26 03:52:44.28	21.31	26.23	-33.9	-34.7	23.2	0.00e+00	0	42	0	1171259392	38	3895
2026-01-26 03:52:45.41	21.35	26.41	-33.8	-34.6	23.2	0.00e+00	0	43	0	1179648000	38	3862
2026-01-26 03:52:46.27	21.38	26.56	-33.7	-34.6	23.3	0.00e+00	0	42	0	1185939456	38	3825
2026-01-26 03:52:47.40	21.42	26.75	-33.6	-34.4	23.4	0.00e+00	0	43	0	1193279488	38	3761
2026-01-26 03:52:48.26	21.45	26.89	-33.6	-34.4	23.4	0.00e+00	0	42	0	1199570944	37	3994
2026-01-26 03:52:49.40	21.50	27.09	-33.5	-34.4	23.4	0.00e+00	0	43	0	1207959552	37	3974
2026-01-26 03:52:50.25	21.53	27.23	-33.5	-34.3	23.5	0.00e+00	0	43	0	1214251008	37	3942
2026-01-26 03:52:51.51	21.58	27.45	-33.4	-34.2	23.6	0.00e+00	0	42	0	1223688192	37	3907
2026-01-26 03:52:52.29	21.61	27.58	-33.5	-34.3	23.5	0.00e+00	0	43	0	1228931072	37	3929
2026-01-26 03:52:53.57	21.66	27.81	-33.4	-34.2	23.5	0.00e+00	0	42	0	1238368256	37	3906
2026-01-26 03:52:54.29	21.69	27.93	-33.4	-34.2	23.7	0.00e+00	0	43	0	1243611136	37	3884
2026-01-26 03:52:55.57	21.74	28.16	-33.3	-34.1	23.7	0.00e+00	0	43	0	1253048320	37	3839
2026-01-26 03:52:56.28	21.76	28.29	-33.3	-34.1	23.7	0.00e+00	0	43	0	1257242624	37	3841
2026-01-26 03:52:57.56	21.82	28.51	-33.2	-34.0	23.8	0.00e+00	0	42	0	1266679808	37	3804
2026-01-26 03:52:58.29	21.85	28.65	-33.2	-34.0	23.8	0.00e+00	0	43	0	1271922688	37	3818
2026-01-26 03:52:59.57	21.90	28.88	-33.2	-34.0	23.8	0.00e+00	0	42	0	1281359872	37	3805
2026-01-26 03:53:00.30	21.93	29.01	-33.2	-34.0	23.8	0.00e+00	0	43	0	1286602752	36	4018
2026-01-26 03:53:01.58	21.98	29.25	-33.2	-34.0	23.8	0.00e+00	0	43	0	1296039936	36	4008
2026-01-26 03:53:02.29	22.01	29.38	-33.2	-34.0	23.7	0.00e+00	0	43	0	1301282816	36	4039
2026-01-26 03:53:03.56	22.07	29.61	-33.2	-34.0	23.8	0.00e+00	0	42	0	1310720000	36	4036
2026-01-26 03:53:04.29	22.10	29.75	-33.2	-34.0	23.8	0.00e+00	0	43	0	1314914304	36	4038
2026-01-26 03:53:05.57	22.16	29.99	-33.1	-34.0	23.9	0.00e+00	0	43	0	1324351488	36	4007
2026-01-26 03:53:06.28	22.19	30.13	-33.1	-33.9	23.9	0.00e+00	0	42	0	1329594368	36	3982
2026-01-26 03:53:07.56	22.25	30.37	-33.1	-33.9	23.9	0.00e+00	0	42	0	1339031552	36	3963
2026-01-26 03:53:08.29	22.28	30.51	-33.1	-33.9	23.9	0.00e+00	0	43	0	1344274432	36	3998
2026-01-26 03:53:09.56	22.34	30.76	-33.2	-34.0	23.9	0.00e+00	0	43	0	1353711616	36	4020
2026-01-26 03:53:10.27	22.37	30.89	-33.3	-34.1	23.7	0.00e+00	0	42	0	1358954496	36	4095
2026-01-26 03:53:11.56	22.43	31.15	-33.1	-33.9	23.9	0.00e+00	0	43	0	1368391680	36	4002
2026-01-26 03:53:12.28	22.47	31.29	-33.3	-34.1	23.7	0.00e+00	0	43	0	1373634560	36	4062
2026-01-26 03:53:13.56	22.53	31.54	-33.4	-34.2	23.7	0.00e+00	0	42	0	1382023168	36	4128
2026-01-26 03:53:14.27	22.56	31.69	-33.5	-34.3	23.5	0.00e+00	0	43	0	1387266048	36	4184
2026-01-26 03:53:15.55	22.63	31.94	-33.5	-34.3	23.5	0.00e+00	0	43	0	1396703232	36	4191
2026-01-26 03:53:16.26	22.66	32.09	-33.6	-34.5	23.4	0.00e+00	0	43	0	1401946112	36	4247
2026-01-26 03:53:17.54	22.73	32.35	-33.8	-34.6	23.2	0.00e+00	0	43	0	1411383296	37	4097
2026-01-26 03:53:18.25	22.76	32.49	-33.8	-34.7	23.3	0.00e+00	0	43	0	1415577600	37	4100
2026-01-26 03:53:19.53	22.83	32.76	-33.8	-34.6	23.3	0.00e+00	0	43	0	1425014784	37	4067
2026-01-26 03:53:20.24	22.87	32.91	-33.9	-34.7	23.3	0.00e+00	0	43	0	1430257664	37	4118
2026-01-26 03:53:21.66	22.94	33.20	-33.8	-34.7	23.3	0.00e+00	0	42	0	1440743424	37	4101
2026-01-26 03:53:22.37	22.98	33.35	-33.9	-34.7	23.2	0.00e+00	0	42	0	1445986304	37	4121
2026-01-26 03:53:23.65	23.05	33.63	-33.7	-34.6	23.3	0.00e+00	0	43	0	1455423488	37	4065
2026-01-26 03:53:24.37	23.09	33.78	-33.7	-34.5	23.4	0.00e+00	0	43	0	1460666368	37	4043
2026-01-26 03:53:25.75	23.16	34.08	-33.6	-34.4	23.5	0.00e+00	0	42	0	1470103552	37	3984
2026-01-26 03:53:26.73	23.22	34.29	-33.6	-34.4	23.5	0.00e+00	0	43	0	1477443584	37	3985
2026-01-26 03:53:27.72	23.28	34.51	-33.5	-34.4	23.5	0.00e+00	0	43	0	1484783616	37	3966
2026-01-26 03:53:28.72	23.33	34.73	-33.5	-34.4	23.6	0.00e+00	0	43	0	1492123648	37	3967
2026-01-26 03:53:29.71	23.39	34.95	-33.4	-34.2	23.7	0.00e+00	0	43	0	1499463680	37	3912
2026-01-26 03:53:30.70	23.45	35.17	-33.3	-34.1	23.8	0.00e+00	0	42	0	1506803712	37	3844
2026-01-26 03:53:31.69	23.51	35.39	-33.3	-34.1	23.8	0.00e+00	0	43	0	1513095168	37	3852
2026-01-26 03:53:32.69	23.57	35.62	-33.2	-34.0	23.9	0.00e+00	0	42	0	1520435200	37	3821
2026-01-26 03:53:33.73	23.63	35.86	-33.2	-34.0	23.8	0.00e+00	0	43	0	1527775232	37	3815
2026-01-26 03:53:34.71	23.70	36.08	-33.1	-33.9	23.9	0.00e+00	0	43	0	1535115264	37	3773
2026-01-26 03:53:35.80	23.76	36.34	-33.1	-33.9	24.0	0.00e+00	0	43	0	1543503872	36	3968
2026-01-26 03:53:36.70	23.82	36.55	-33.2	-34.0	23.9	0.00e+00	0	43	0	1549795328	36	4051
2026-01-26 03:53:37.96	23.90	36.84	-33.3	-34.1	23.8	0.00e+00	0	42	0	1558183936	36	4060
2026-01-26 03:53:38.75	23.96	37.03	-33.2	-34.0	23.9	0.00e+00	0	43	0	1564475392	36	4047
2026-01-26 03:53:40.16	24.05	37.37	-33.4	-34.2	23.7	0.00e+00	0	43	0	1574961152	36	4142
2026-01-26 03:53:40.87	24.10	37.54	-33.5	-34.4	23.5	0.00e+00	0	43	0	1579155456	36	4212
2026-01-26 03:53:42.27	24.20	37.88	-33.7	-34.5	23.5	0.00e+00	0	43	0	1589641216	36	4269
2026-01-26 03:53:42.98	24.25	38.05	-33.7	-34.6	23.3	0.00e+00	0	43	0	1594884096	37	4067
2026-01-26 03:53:44.26	24.34	38.37	-33.6	-34.5	23.5	0.00e+00	0	43	0	1604321280	37	4006
2026-01-26 03:53:44.97	24.39	38.54	-33.7	-34.5	23.4	0.00e+00	0	43	0	1609564160	37	4033
2026-01-26 03:53:46.25	24.48	38.86	-33.7	-34.5	23.5	0.00e+00	0	42	0	1619001344	37	4026
2026-01-26 03:53:46.96	24.53	39.04	-33.9	-34.7	23.3	0.00e+00	0	43	0	1623195648	37	4122
2026-01-26 03:53:48.24	24.63	39.36	-33.8	-34.6	23.4	0.00e+00	0	43	0	1632632832	37	4075
2026-01-26 03:53:48.97	24.69	39.55	-33.9	-34.7	23.3	0.00e+00	0	43	0	1637875712	37	4138
2026-01-26 03:53:50.24	24.78	39.88	-34.0	-34.8	23.2	0.00e+00	0	43	0	1647312896	37	4189
2026-01-26 03:53:50.96	24.84	40.06	-34.0	-34.9	23.2	0.00e+00	0	43	0	1652555776	37	4200
2026-01-26 03:53:52.24	24.94	40.40	-33.9	-34.8	23.2	0.00e+00	0	43	0	1661992960	37	4149
2026-01-26 03:53:52.95	25.00	40.58	-33.9	-34.8	23.2	0.00e+00	0	43	0	1666187264	37	4157
2026-01-26 03:53:54.23	25.11	40.92	-33.8	-34.7	23.3	0.00e+00	0	43	0	1675624448	37	4103
2026-01-26 03:53:55.06	25.18	41.14	-33.8	-34.6	23.4	0.00e+00	0	43	0	1681915904	37	4091
2026-01-26 03:53:56.20	25.27	41.45	-33.8	-34.6	23.3	0.00e+00	0	43	0	1690304512	37	4072
2026-01-26 03:53:57.29	25.37	41.74	-33.7	-34.5	23.4	0.00e+00	0	43	0	1697644544	37	4029
2026-01-26 03:53:58.32	25.46	42.02	-33.6	-34.5	23.5	0.00e+00	0	43	0	1706033152	37	4009
2026-01-26 03:53:59.31	25.55	42.29	-33.6	-34.4	23.5	0.00e+00	0	43	0	1712324608	37	4001
2026-01-26 03:54:00.31	25.64	42.57	-33.8	-34.6	23.4	0.00e+00	0	43	0	1719664640	37	4077
2026-01-26 03:54:01.30	25.73	42.84	-33.9	-34.7	23.3	0.00e+00	0	43	0	1727004672	37	4133
2026-01-26 03:54:02.30	25.82	43.13	-33.7	-34.6	23.4	0.00e+00	0	42	0	1734344704	37	4057
2026-01-26 03:54:03.30	25.92	43.41	-33.7	-34.5	23.5	0.00e+00	0	43	0	1741684736	37	4037
2026-01-26 03:54:04.29	26.02	43.69	-33.6	-34.4	23.5	0.00e+00	0	43	0	1749024768	37	4004
2026-01-26 03:54:05.29	26.11	43.98	-33.7	-34.6	23.4	0.00e+00	0	43	0	1755316224	37	4066
2026-01-26 03:54:06.28	26.21	44.26	-33.9	-34.7	23.2	0.00e+00	0	43	0	1762656256	37	4139
2026-01-26 03:54:07.28	26.32	44.55	-34.0	-34.9	23.1	0.00e+00	0	43	0	1769996288	37	4211
2026-01-26 03:54:08.27	26.42	44.84	-33.9	-34.7	23.3	0.00e+00	0	43	0	1777336320	38	3888
2026-01-26 03:54:09.27	26.53	45.14	-34.3	-35.2	22.9	0.00e+00	0	43	0	1784676352	38	4116
2026-01-26 03:54:10.26	26.63	45.43	-34.2	-35.1	23.0	0.00e+00	0	43	0	1792016384	38	4059
2026-01-26 03:54:11.34	26.75	45.75	-34.3	-35.2	22.9	0.00e+00	0	43	0	1799356416	38	4104
2026-01-26 03:54:12.22	26.85	46.02	-34.4	-35.2	22.9	0.00e+00	0	43	0	1805647872	38	4129
2026-01-26 03:54:13.36	26.98	46.36	-34.3	-35.1	22.9	0.00e+00	0	43	0	1814036480	38	4083
2026-01-26 03:54:14.21	27.08	46.62	-34.1	-34.9	23.1	0.00e+00	0	43	0	1820327936	38	3984
2026-01-26 03:54:15.59	27.24	47.05	-34.3	-35.1	23.0	0.00e+00	0	43	0	1829765120	38	4080
2026-01-26 03:54:16.30	27.33	47.27	-34.4	-35.2	22.8	0.00e+00	0	43	0	1835008000	38	4130
2026-01-26 03:54:17.58	27.49	47.67	-34.8	-35.6	22.4	0.00e+00	0	43	0	1844445184	39	4097
2026-01-26 03:54:18.30	27.58	47.89	-34.9	-35.8	22.4	0.00e+00	0	43	0	1849688064	39	4150
2026-01-26 03:54:19.58	27.74	48.30	-35.3	-36.3	21.8	0.00e+00	0	43	0	1859125248	40	4155
2026-01-26 03:54:20.32	27.84	48.53	-35.0	-35.9	22.1	0.00e+00	0	43	0	1864368128	40	3996
2026-01-26 03:54:21.60	28.01	48.94	-35.1	-36.0	22.0	0.00e+00	0	43	0	1873805312	40	4046
2026-01-26 03:54:22.31	28.11	49.17	-35.2	-36.1	21.9	0.00e+00	0	43	0	1879048192	40	4091
2026-01-26 03:54:23.59	28.29	49.59	-35.1	-36.0	22.1	0.00e+00	0	43	0	1887436800	40	4005
2026-01-26 03:54:24.32	28.39	49.83	-34.9	-35.7	22.3	0.00e+00	0	43	0	1893728256	40	3911
2026-01-26 03:54:25.60	28.58	50.25	-34.9	-35.8	22.3	0.00e+00	0	43	0	1902116864	39	4167
2026-01-26 03:54:26.31	28.68	50.49	-35.1	-36.0	22.2	0.00e+00	0	43	0	1907359744	39	4250
2026-01-26 03:54:27.59	28.88	50.91	-35.1	-36.0	22.2	0.00e+00	0	42	0	1916796928	39	4264
2026-01-26 03:54:28.30	28.99	51.15	-35.1	-36.0	22.2	0.00e+00	0	43	0	1922039808	39	4278
2026-01-26 03:54:29.58	29.19	51.58	-35.2	-36.1	22.0	0.00e+00	0	43	0	1931476992	40	4076
2026-01-26 03:54:30.31	29.31	51.83	-35.1	-36.0	22.0	0.00e+00	0	43	0	1936719872	40	4024
2026-01-26 03:54:31.59	29.52	52.27	-34.9	-35.7	22.3	0.00e+00	0	43	0	1945108480	40	3909
2026-01-26 03:54:32.69	29.71	52.65	-34.7	-35.6	22.5	0.00e+00	0	43	0	1953497088	40	3827
2026-01-26 03:54:33.54	29.86	52.95	-34.7	-35.5	22.5	0.00e+00	0	43	0	1959788544	40	3819
2026-01-26 03:54:34.68	30.06	53.35	-34.7	-35.5	22.5	0.00e+00	0	43	0	1968177152	40	3804
2026-01-26 03:54:35.53	30.22	53.65	-35.2	-36.1	22.0	0.00e+00	0	43	0	1974468608	40	4062
2026-01-26 03:54:36.67	30.43	54.05	-35.2	-36.1	22.1	0.00e+00	0	43	0	1982857216	40	4056
2026-01-26 03:54:37.52	30.59	54.35	-34.9	-35.7	22.3	0.00e+00	0	43	0	1988100096	40	3903
2026-01-26 03:54:38.66	30.82	54.76	-34.8	-35.7	22.4	0.00e+00	0	43	0	1996488704	40	3894
2026-01-26 03:54:39.51	30.99	55.07	-35.1	-35.9	22.2	0.00e+00	0	43	0	2002780160	40	3997
2026-01-26 03:54:40.65	31.22	55.48	-35.9	-36.8	21.0	0.00e+00	0	43	0	2011168768	41	4175
2026-01-26 03:54:41.61	31.43	55.83	-35.2	-36.1	22.0	0.00e+00	0	43	0	2018508800	40	4058
2026-01-26 03:54:42.78	31.68	56.26	-35.4	-36.3	21.8	0.00e+00	0	43	0	2026897408	40	4148
2026-01-26 03:54:43.63	31.87	56.57	-35.4	-36.3	21.9	0.00e+00	0	43	0	2032140288	40	4151
2026-01-26 03:54:44.77	32.13	57.00	-35.5	-36.4	21.7	0.00e+00	0	43	0	2040528896	40	4223
2026-01-26 03:54:45.62	32.33	57.32	-35.3	-36.2	21.9	0.00e+00	0	43	0	2046820352	40	4128
2026-01-26 03:54:46.76	32.61	57.74	-35.3	-36.1	22.0	0.00e+00	0	43	0	2055208960	40	4096
2026-01-26 03:54:47.62	32.82	58.07	-35.1	-36.0	22.1	0.00e+00	0	43	0	2061500416	40	4008
2026-01-26 03:54:49.09	33.20	58.63	-34.9	-35.8	22.3	0.00e+00	0	43	0	2071986176	40	3924
2026-01-26 03:54:49.80	33.39	58.90	-35.2	-36.0	22.1	0.00e+00	0	43	0	2077229056	40	4042
2026-01-26 03:54:51.08	33.74	59.39	-35.4	-36.3	21.8	0.00e+00	0	43	0	2086666240	41	3934
2026-01-26 03:54:51.80	33.94	59.67	-35.3	-36.2	21.9	0.00e+00	0	43	0	2091909120	41	3884
2026-01-26 03:54:53.08	34.31	60.16	-35.0	-35.8	22.3	0.00e+00	0	43	0	2100297728	40	3949
2026-01-26 03:54:53.79	34.52	60.44	-34.9	-35.7	22.3	0.00e+00	0	43	0	2105540608	40	3909
2026-01-26 03:54:55.07	34.92	60.94	-34.8	-35.7	22.4	0.00e+00	0	43	0	2114977792	40	3884
2026-01-26 03:54:55.91	35.18	61.27	-34.8	-35.7	22.4	0.00e+00	0	43	0	2121269248	40	3886
2026-01-26 03:54:57.05	35.56	61.72	-35.2	-36.1	22.1	0.00e+00	0	43	0	2129657856	40	4063
2026-01-26 03:54:57.90	35.84	62.05	-34.7	-35.6	22.5	0.00e+00	0	43	0	2135949312	40	3836
2026-01-26 03:54:59.04	36.24	62.50	-34.7	-35.5	22.6	0.00e+00	0	43	0	2143289344	39	4051
2026-01-26 03:54:59.89	36.55	62.84	-34.8	-35.6	22.5	0.00e+00	0	43	0	2149580800	39	4088
2026-01-26 03:55:01.03	36.97	63.30	-34.5	-35.4	22.7	0.00e+00	0	43	0	2157969408	39	3977
2026-01-26 03:55:01.89	37.30	63.64	-34.4	-35.3	22.8	0.00e+00	0	43	0	2164260864	39	3922
2026-01-26 03:55:03.02	37.75	64.10	-34.0	-34.8	23.3	0.00e+00	0	43	0	2172649472	38	3926
2026-01-26 03:55:03.88	38.11	64.44	-33.9	-34.8	23.3	0.00e+00	0	43	0	2178940928	38	3922
2026-01-26 03:55:05.01	38.59	64.90	-34.0	-34.8	23.2	0.00e+00	0	43	0	2187329536	38	3952
2026-01-26 03:55:05.87	38.97	65.25	-33.9	-34.7	23.3	0.00e+00	0	43	0	2193620992	38	3909
2026-01-26 03:55:07.18	39.57	65.78	-34.0	-34.9	23.1	0.00e+00	0	43	0	2203058176	37	4200
2026-01-26 03:55:07.89	39.91	66.07	-33.6	-34.4	23.6	0.00e+00	0	43	0	2207252480	37	3986
2026-01-26 03:55:09.17	40.54	66.59	-34.0	-34.9	23.2	0.00e+00	0	43	0	2216689664	37	4195
2026-01-26 03:55:09.91	40.93	66.89	-34.1	-35.0	23.1	0.00e+00	0	43	0	2221932544	37	4245
2026-01-26 03:55:11.19	41.61	67.41	-33.7	-34.5	23.5	0.00e+00	0	43	0	2231369728	37	4045
2026-01-26 03:55:11.91	42.01	67.71	-34.1	-35.0	23.0	0.00e+00	0	43	0	2236612608	38	4007
2026-01-26 03:55:13.19	42.75	68.23	-33.8	-34.6	23.4	0.00e+00	0	43	0	2246049792	37	4073
2026-01-26 03:55:14.00	43.24	68.56	-33.6	-34.4	23.5	0.00e+00	0	43	0	2251292672	37	4002
2026-01-26 03:55:15.13	43.95	69.02	-33.5	-34.3	23.6	0.00e+00	0	43	0	2259681280	37	3955
2026-01-26 03:55:16.19	44.65	69.45	-33.5	-34.3	23.7	0.00e+00	0	43	0	2267021312	37	3921
2026-01-26 03:55:17.25	45.38	69.88	-33.4	-34.2	23.7	0.00e+00	0	43	0	2275409920	37	3903
2026-01-26 03:55:18.26	46.10	70.29	-33.9	-34.8	23.2	0.00e+00	0	43	0	2282749952	37	4154
2026-01-26 03:55:19.25	46.84	70.69	-34.0	-34.8	23.3	0.00e+00	0	43	0	2290089984	37	4169
2026-01-26 03:55:20.25	47.63	71.09	-33.7	-34.5	23.5	0.00e+00	0	43	0	2296381440	37	4020
2026-01-26 03:55:21.24	48.44	71.49	-33.8	-34.7	23.4	0.00e+00	0	43	0	2303721472	37	4104
2026-01-26 03:55:22.24	49.30	71.88	-33.9	-34.7	23.3	0.00e+00	0	43	0	2311061504	37	4138
2026-01-26 03:55:23.23	50.19	72.28	-33.7	-34.5	23.5	0.00e+00	0	43	0	2318401536	37	4016
2026-01-26 03:55:24.23	51.13	72.67	-33.5	-34.3	23.7	0.00e+00	0	43	0	2325741568	37	3938
2026-01-26 03:55:25.22	52.11	73.05	-33.6	-34.4	23.6	0.00e+00	0	43	0	2333081600	37	3974
2026-01-26 03:55:26.22	53.14	73.44	-33.4	-34.2	23.7	0.00e+00	0	43	0	2340421632	37	3895
2026-01-26 03:55:27.21	54.22	73.82	-33.7	-34.5	23.5	0.00e+00	0	43	0	2347761664	37	4037
2026-01-26 03:55:28.21	55.36	74.19	-33.7	-34.5	23.4	0.00e+00	0	43	0	2354053120	37	4033
2026-01-26 03:55:29.24	56.59	74.58	-33.3	-34.1	23.8	0.00e+00	0	43	0	2361393152	37	3865
2026-01-26 03:55:30.26	57.88	74.95	-33.0	-33.8	24.1	0.00e+00	0	43	0	2369781760	36	3926
2026-01-26 03:55:31.29	59.24	75.32	-32.7	-33.5	24.1	0.00e+00	0	43	0	2376073216	36	3815
2026-01-26 03:55:32.28	60.63	75.67	-32.8	-33.6	24.2	0.00e+00	0	43	0	2383413248	36	3862
2026-01-26 03:55:33.37	62.23	76.04	-32.0	-32.8	23.9	0.00e+00	0	43	0	2391801856	34	3952
2026-01-26 03:55:34.25	63.59	76.34	-31.7	-32.5	24.1	0.00e+00	0	43	0	2398093312	33	4023
2026-01-26 03:55:35.39	65.44	76.71	-31.8	-32.6	24.1	0.00e+00	0	43	0	2406481920	33	4091
2026-01-26 03:55:36.29	66.98	77.00	-31.7	-32.5	24.2	0.00e+00	0	43	0	2412773376	33	4039
2026-01-26 03:55:37.49	69.14	77.36	-31.7	-32.5	24.2	0.00e+00	0	43	0	2421161984	33	4020
2026-01-26 03:55:38.34	70.75	77.61	-31.5	-32.3	24.4	0.00e+00	0	43	0	2427453440	33	3953
2026-01-26 03:55:39.48	73.01	77.93	-31.7	-32.5	24.1	0.00e+00	0	43	0	2435842048	33	4011
2026-01-26 03:55:40.33	74.78	78.15	-31.8	-32.6	24.1	0.00e+00	0	43	0	2442133504	33	4076
2026-01-26 03:55:41.47	77.25	78.44	-31.5	-32.3	24.4	0.00e+00	0	43	0	2450522112	33	3921
2026-01-26 03:55:42.33	79.20	78.64	-31.5	-32.3	24.4	0.00e+00	0	43	0	2456813568	33	3919
2026-01-26 03:55:43.46	81.86	78.88	-31.8	-32.6	24.1	0.00e+00	0	43	0	2464153600	33	4074
2026-01-26 03:55:44.32	83.97	79.05	-31.7	-32.5	24.2	0.00e+00	0	43	0	2470445056	33	4013
2026-01-26 03:55:45.45	86.83	79.25	-31.5	-32.3	24.4	0.00e+00	0	43	0	2478833664	33	3940
2026-01-26 03:55:46.30	89.05	79.38	-31.4	-32.2	24.4	0.00e+00	0	43	0	2485125120	33	3908
2026-01-26 03:55:47.44	92.12	79.53	-31.4	-32.2	24.4	0.00e+00	0	43	0	2493513728	33	3877
2026-01-26 03:55:48.29	94.46	79.63	-30.9	-31.7	24.9	0.00e+00	0	43	0	2498756608	32	3871
2026-01-26 03:55:49.43	97.65	79.73	-31.3	-32.1	24.6	0.00e+00	0	43	0	2507145216	32	4071
2026-01-26 03:55:50.28	100.07	79.78	-31.7	-32.5	24.2	0.00e+00	0	43	0	2513436672	32	4247
2026-01-26 03:55:51.42	103.35	79.82	-31.5	-32.3	24.4	0.00e+00	0	43	0	2521825280	32	4193
2026-01-26 03:55:52.27	105.81	79.83	-31.7	-32.5	24.2	0.00e+00	0	43	0	2528116736	32	4250
2026-01-26 03:55:53.58	109.59	79.81	-31.4	-32.1	24.5	0.00e+00	0	43	0	2537553920	32	4098
2026-01-26 03:55:54.29	111.63	79.79	-31.5	-32.3	23.9	0.00e+00	0	43	0	2542796800	32	4170
2026-01-26 03:55:55.77	115.83	79.69	-31.5	-32.3	24.3	0.00e+00	0	43	0	2553282560	32	4168
2026-01-26 03:55:56.48	117.82	79.62	-31.5	-32.3	24.3	0.00e+00	0	43	0	2558525440	32	4192
2026-01-26 03:55:57.78	121.37	79.47	-31.4	-32.2	24.4	0.00e+00	0	43	0	2567962624	32	4113
2026-01-26 03:55:58.49	123.26	79.37	-31.2	-32.0	24.6	0.00e+00	0	43	0	2573205504	32	4044
2026-01-26 03:55:59.77	126.58	79.16	-31.0	-31.8	24.9	0.00e+00	0	43	0	2582642688	32	3931
2026-01-26 03:56:00.49	128.38	79.03	-31.3	-32.1	24.6	0.00e+00	0	43	0	2586836992	32	4053
2026-01-26 03:56:01.77	131.48	78.77	-31.5	-32.3	24.4	0.00e+00	0	43	0	2596274176	32	4147
2026-01-26 03:56:02.49	133.15	78.61	-31.4	-32.1	24.5	0.00e+00	0	43	0	2601517056	32	4098
2026-01-26 03:56:03.77	136.01	78.30	-31.3	-32.1	24.5	0.00e+00	0	43	0	2610954240	32	4085
2026-01-26 03:56:04.48	137.53	78.12	-31.3	-32.1	24.5	0.00e+00	0	43	0	2616197120	32	4068
2026-01-26 03:56:05.76	140.15	77.77	-31.3	-32.0	24.6	0.00e+00	0	43	0	2625634304	32	4047
2026-01-26 03:56:06.47	141.54	77.57	-31.4	-32.1	24.5	0.00e+00	0	43	0	2630877184	32	4098
2026-01-26 03:56:07.75	143.92	77.19	-32.0	-32.8	23.9	0.00e+00	0	43	0	2640314368	33	4178
2026-01-26 03:56:08.60	145.42	76.93	-32.1	-32.9	23.8	0.00e+00	0	43	0	2646605824	33	4224
2026-01-26 03:56:10.02	147.80	76.47	-32.1	-33.0	23.9	0.00e+00	0	43	0	2656043008	33	4246
2026-01-26 03:56:10.74	148.94	76.23	-31.9	-32.7	24.0	0.00e+00	0	43	0	2661285888	33	4141
2026-01-26 03:56:12.22	151.16	75.73	-32.3	-33.1	23.7	0.00e+00	0	43	0	2671771648	33	4309
2026-01-26 03:56:12.93	152.17	75.48	-32.0	-32.9	23.9	0.00e+00	0	43	0	2677014528	33	4195
2026-01-26 03:56:14.21	153.90	75.02	-32.2	-33.1	23.7	0.00e+00	0	43	0	2686451712	33	4295
2026-01-26 03:56:14.92	154.81	74.76	-32.5	-33.3	23.5	0.00e+00	0	43	0	2691694592	34	4186
2026-01-26 03:56:16.20	156.38	74.29	-32.7	-33.6	23.4	0.00e+00	0	43	0	2701131776	35	4055
2026-01-26 03:56:16.92	157.22	74.02	-32.7	-33.6	23.3	0.00e+00	0	43	0	2706374656	35	4052
2026-01-26 03:56:18.19	158.62	73.54	-32.7	-33.6	23.3	0.00e+00	0	43	0	2714763264	35	4053
2026-01-26 03:56:18.90	159.38	73.26	-33.1	-33.9	23.1	0.00e+00	0	43	0	2720006144	35	4215
2026-01-26 03:56:20.18	160.66	72.77	-34.3	-35.1	22.9	0.00e+00	0	43	0	2729443328	37	4336
2026-01-26 03:56:20.89	161.35	72.49	-34.5	-35.4	22.8	0.00e+00	0	43	0	2734686208	38	4195
2026-01-26 03:56:22.17	162.52	71.98	-34.6	-35.5	22.6	0.00e+00	0	43	0	2744123392	38	4250
2026-01-26 03:56:22.91	163.17	71.69	-34.7	-35.6	22.5	0.00e+00	0	43	0	2749366272	38	4316
2026-01-26 03:56:24.20	164.24	71.17	-34.5	-35.4	22.7	0.00e+00	0	43	0	2758803456	38	4199
2026-01-26 03:56:24.92	164.82	70.88	-34.5	-35.4	22.8	0.00e+00	0	43	0	2764046336	38	4204
2026-01-26 03:56:26.20	165.80	70.37	-34.8	-35.7	22.5	0.00e+00	0	43	0	2773483520	39	4107
2026-01-26 03:56:26.93	166.33	70.07	-34.8	-35.7	22.5	0.00e+00	0	43	0	2778726400	39	4102
2026-01-26 03:56:28.20	167.22	69.56	-34.8	-35.6	22.6	0.00e+00	0	43	0	2787115008	39	4085
2026-01-26 03:56:29.18	167.87	69.16	-34.4	-35.2	22.6	0.00e+00	0	43	0	2794455040	39	3912
2026-01-26 03:56:30.50	168.71	68.62	-33.8	-34.6	23.4	0.00e+00	0	43	0	2803892224	38	3864
2026-01-26 03:56:31.21	169.14	68.33	-34.0	-34.8	23.2	0.00e+00	0	43	0	2809135104	38	3958
2026-01-26 03:56:32.49	169.89	67.80	-34.0	-34.9	23.2	0.00e+00	0	43	0	2818572288	38	3961
2026-01-26 03:56:33.21	170.30	67.51	-33.8	-34.6	23.5	0.00e+00	0	43	0	2823815168	38	3860
2026-01-26 03:56:34.49	170.99	66.99	-33.5	-34.3	23.7	0.00e+00	0	43	0	2833252352	37	3955
2026-01-26 03:56:35.20	171.36	66.70	-33.6	-34.4	23.6	0.00e+00	0	43	0	2837446656	37	4000
2026-01-26 03:56:36.48	172.00	66.17	-34.0	-34.8	23.2	0.00e+00	0	43	0	2846883840	37	4180
2026-01-26 03:56:37.21	172.35	65.88	-34.1	-35.0	23.1	0.00e+00	0	43	0	2852126720	37	4246
2026-01-26 03:56:38.49	172.95	65.36	-34.0	-34.8	23.3	0.00e+00	0	43	0	2861563904	37	4184
2026-01-26 03:56:39.20	173.27	65.07	-33.9	-34.7	23.4	0.00e+00	0	43	0	2866806784	37	4118
2026-01-26 03:56:40.54	173.85	64.52	-33.9	-34.7	23.3	0.00e+00	0	43	0	2876243968	37	4128
2026-01-26 03:56:41.25	174.14	64.24	-34.1	-34.9	23.2	0.00e+00	0	43	0	2881486848	37	4231
2026-01-26 03:56:42.53	174.66	63.72	-34.2	-35.1	23.0	0.00e+00	0	43	0	2890924032	37	4296
2026-01-26 03:56:43.25	174.94	63.43	-34.3	-35.1	23.0	0.00e+00	0	43	0	2896166912	37	4327
2026-01-26 03:56:44.65	175.47	62.87	-34.3	-35.1	23.0	0.00e+00	0	43	0	2905604096	38	4085
2026-01-26 03:56:45.36	175.72	62.58	-34.4	-35.2	22.9	0.00e+00	0	43	0	2911895552	38	4138
2026-01-26 03:56:46.71	176.20	62.05	-34.5	-35.4	22.8	0.00e+00	0	43	0	2921332736	38	4203
2026-01-26 03:56:47.43	176.44	61.76	-34.9	-35.7	22.5	0.00e+00	0	43	0	2926575616	39	4124
2026-01-26 03:56:48.71	176.86	61.25	-35.1	-35.9	22.3	0.00e+00	0	43	0	2936012800	39	4227
2026-01-26 03:56:49.43	177.09	60.97	-35.2	-36.1	22.0	0.00e+00	0	43	0	2940207104	39	4304
2026-01-26 03:56:50.71	177.49	60.47	-35.2	-36.1	22.1	0.00e+00	0	43	0	2949644288	39	4319
2026-01-26 03:56:51.42	177.70	60.19	-35.1	-36.0	22.3	0.00e+00	0	43	0	2954887168	39	4244
2026-01-26 03:56:52.70	178.07	59.69	-34.8	-35.6	22.5	0.00e+00	0	43	0	2964324352	39	4082
2026-01-26 03:56:53.41	178.27	59.42	-34.8	-35.7	22.5	0.00e+00	0	43	0	2969567232	39	4106
2026-01-26 03:56:54.69	178.62	58.93	-35.1	-36.0	22.0	0.00e+00	0	43	0	2979004416	39	4269
2026-01-26 03:56:55.47	178.83	58.63	-35.2	-36.1	22.1	0.00e+00	0	43	0	2984247296	39	4325
2026-01-26 03:56:56.74	179.16	58.14	-35.3	-36.1	21.9	0.00e+00	0	43	0	2993684480	40	4097
2026-01-26 03:56:57.50	179.35	57.85	-35.4	-36.2	21.7	0.00e+00	0	43	0	2998927360	40	4139
2026-01-26 03:56:58.78	179.66	57.37	-35.4	-36.3	21.9	0.00e+00	0	43	0	3008364544	40	4159
2026-01-26 03:56:59.57	179.85	57.08	-35.4	-36.3	21.9	0.00e+00	0	43	0	3013607424	40	4161
2026-01-26 03:57:00.76	180.13	56.63	-35.7	-36.6	21.6	0.00e+00	0	43	0	3023044608	40	4330
2026-01-26 03:57:01.61	180.32	56.32	-35.7	-36.6	21.6	0.00e+00	0	43	0	3028287488	40	4300
2026-01-26 03:57:02.75	180.57	55.90	-35.6	-36.5	21.5	0.00e+00	0	43	0	3036676096	41	4014
2026-01-26 03:57:03.60	180.75	55.58	-35.4	-36.2	21.9	0.00e+00	0	43	0	3042967552	41	3908
2026-01-26 03:57:04.74	180.99	55.17	-35.0	-35.9	22.2	0.00e+00	0	43	0	3051356160	40	3984
2026-01-26 03:57:05.59	181.16	54.86	-35.0	-35.9	22.1	0.00e+00	0	43	0	3057647616	40	3976
2026-01-26 03:57:06.73	181.39	54.45	-35.0	-35.8	22.3	0.00e+00	0	43	0	3066036224	40	3949
2026-01-26 03:57:07.59	181.55	54.14	-35.1	-35.9	22.2	0.00e+00	0	43	0	3071279104	40	4003
2026-01-26 03:57:08.73	181.77	53.73	-35.2	-36.1	22.1	0.00e+00	0	43	0	3079667712	40	4071
2026-01-26 03:57:09.58	181.93	53.43	-35.3	-36.2	21.9	0.00e+00	0	43	0	3085959168	40	4112
2026-01-26 03:57:10.72	182.13	53.03	-35.2	-36.1	22.1	0.00e+00	0	43	0	3094347776	40	4062
2026-01-26 03:57:11.57	182.28	52.73	-35.1	-36.0	22.1	0.00e+00	0	43	0	3100639232	40	4031
2026-01-26 03:57:12.71	182.48	52.34	-35.1	-36.0	21.5	0.00e+00	0	43	0	3109027840	40	4014
2026-01-26 03:57:13.59	182.62	52.03	-35.2	-36.1	22.0	0.00e+00	0	43	0	3115319296	40	4071
2026-01-26 03:57:14.90	182.84	51.58	-35.5	-36.4	21.7	0.00e+00	0	43	0	3124756480	40	4211
2026-01-26 03:57:15.61	182.95	51.34	-35.4	-36.3	21.8	0.00e+00	0	43	0	3129999360	40	4169
2026-01-26 03:57:16.89	183.15	50.91	-35.3	-36.2	21.9	0.00e+00	0	43	0	3138387968	40	4128
2026-01-26 03:57:17.60	183.26	50.67	-35.3	-36.2	21.9	0.00e+00	0	43	0	3144679424	40	4109
2026-01-26 03:57:19.15	183.49	50.15	-34.9	-35.8	22.3	0.00e+00	0	43	0	3155165184	40	3933
2026-01-26 03:57:19.86	183.60	49.92	-35.0	-35.9	22.2	0.00e+00	0	43	0	3160408064	40	3967
2026-01-26 03:57:21.14	183.78	49.50	-35.0	-35.9	22.2	0.00e+00	0	43	0	3169845248	40	3982
2026-01-26 03:57:22.21	183.93	49.15	-35.2	-36.1	22.0	0.00e+00	0	43	0	3177185280	40	4069
2026-01-26 03:57:23.07	184.05	48.87	-35.1	-36.0	22.0	0.00e+00	0	43	0	3183476736	40	4019
2026-01-26 03:57:24.20	184.20	48.50	-35.3	-36.2	21.9	0.00e+00	0	43	0	3191865344	40	4114
2026-01-26 03:57:25.05	184.31	48.23	-35.1	-36.0	21.6	0.00e+00	0	43	0	3198156800	40	4038
2026-01-26 03:57:26.19	184.46	47.87	-34.9	-35.8	22.3	0.00e+00	0	43	0	3205496832	40	3923
2026-01-26 03:57:27.05	184.56	47.60	-34.7	-35.6	22.5	0.00e+00	0	43	0	3211788288	40	3829
2026-01-26 03:57:28.18	184.70	47.24	-34.4	-35.2	22.8	0.00e+00	0	43	0	3220176896	39	3907
2026-01-26 03:57:29.04	184.81	46.98	-34.3	-35.1	22.8	0.00e+00	0	43	0	3226468352	39	3854
2026-01-26 03:57:30.18	184.94	46.62	-34.0	-34.9	23.2	0.00e+00	0	43	0	3234856960	38	3959
2026-01-26 03:57:31.03	185.04	46.36	-34.1	-34.9	23.1	0.00e+00	0	43	0	3241148416	38	3989
2026-01-26 03:57:32.16	185.17	46.02	-34.2	-35.1	22.9	0.00e+00	0	43	0	3249537024	38	4067
2026-01-26 03:57:33.16	185.29	45.72	-34.3	-35.1	23.0	0.00e+00	0	43	0	3256877056	38	4082
2026-01-26 03:57:34.34	185.42	45.36	-34.2	-35.1	22.9	0.00e+00	0	43	0	3265265664	38	4058
2026-01-26 03:57:35.23	185.51	45.10	-34.2	-35.0	23.1	0.00e+00	0	43	0	3271557120	38	4026
2026-01-26 03:57:36.37	185.63	44.76	-34.1	-34.9	23.2	0.00e+00	0	43	0	3279945728	38	3987
2026-01-26 03:57:37.22	185.72	44.51	-34.0	-34.8	23.2	0.00e+00	0	43	0	3286237184	38	3956
2026-01-26 03:57:38.36	185.84	44.18	-33.8	-34.6	23.5	0.00e+00	0	43	0	3293577216	38	3839
2026-01-26 03:57:39.21	185.92	43.93	-33.6	-34.4	23.6	0.00e+00	0	43	0	3299868672	37	3969
2026-01-26 03:57:40.35	186.04	43.60	-33.5	-34.3	23.7	0.00e+00	0	43	0	3308257280	37	3923
2026-01-26 03:57:41.20	186.12	43.36	-33.5	-34.3	23.6	0.00e+00	0	43	0	3314548736	37	3940
2026-01-26 03:57:42.34	186.23	43.04	-33.6	-34.4	23.5	0.00e+00	0	43	0	3322937344	37	3996
2026-01-26 03:57:43.19	186.31	42.80	-33.7	-34.6	23.4	0.00e+00	0	43	0	3328180224	37	4054
2026-01-26 03:57:44.33	186.41	42.48	-33.8	-34.6	23.2	0.00e+00	0	43	0	3336568832	37	4095
2026-01-26 03:57:45.18	186.49	42.24	-33.9	-34.7	23.3	0.00e+00	0	43	0	3342860288	37	4145
2026-01-26 03:57:46.32	186.59	41.93	-34.0	-34.9	23.1	0.00e+00	0	43	0	3351248896	37	4206
2026-01-26 03:57:47.17	186.67	41.69	-34.0	-34.8	23.2	0.00e+00	0	43	0	3357540352	37	4184
2026-01-26 03:57:48.31	186.77	41.39	-34.0	-34.8	23.2	0.00e+00	0	43	0	3365928960	37	4187
2026-01-26 03:57:49.16	186.84	41.16	-33.9	-34.8	23.2	0.00e+00	0	43	0	3372220416	37	4164
2026-01-26 03:57:50.30	186.93	40.85	-33.9	-34.8	23.2	0.00e+00	0	43	0	3380609024	37	4159
2026-01-26 03:57:51.15	187.00	40.62	-33.9	-34.7	23.3	0.00e+00	0	43	0	3386900480	37	4137
2026-01-26 03:57:52.29	187.10	40.32	-34.0	-34.8	23.2	0.00e+00	0	43	0	3394240512	37	4171
2026-01-26 03:57:53.14	187.17	40.10	-34.1	-34.9	23.1	0.00e+00	0	43	0	3400531968	37	4214
2026-01-26 03:57:54.50	187.27	39.75	-34.2	-35.0	22.9	0.00e+00	0	43	0	3411017728	37	4278
2026-01-26 03:57:55.21	187.33	39.56	-34.2	-35.0	22.8	0.00e+00	0	43	0	3415212032	38	4041
2026-01-26 03:57:56.49	187.42	39.24	-34.3	-35.2	22.9	0.00e+00	0	43	0	3424649216	38	4124
2026-01-26 03:57:57.20	187.48	39.05	-34.3	-35.2	22.9	0.00e+00	0	43	0	3429892096	38	4108
2026-01-26 03:57:58.48	187.57	38.73	-34.2	-35.1	22.9	0.00e+00	0	43	0	3439329280	38	4074
2026-01-26 03:57:59.20	187.63	38.55	-34.1	-35.0	23.0	0.00e+00	0	43	0	3444572160	38	4024
2026-01-26 03:58:00.48	187.72	38.23	-34.1	-35.0	23.0	0.00e+00	0	43	0	3454009344	38	4021
2026-01-26 03:58:01.19	187.77	38.06	-34.0	-34.8	23.2	0.00e+00	0	43	0	3458203648	38	3945
2026-01-26 03:58:02.46	187.86	37.74	-34.1	-34.9	23.2	0.00e+00	0	43	0	3467640832	38	3978
2026-01-26 03:58:03.17	187.91	37.57	-33.9	-34.7	23.3	0.00e+00	0	43	0	3472883712	38	3886
2026-01-26 03:58:04.45	187.99	37.26	-33.4	-34.3	23.0	0.00e+00	0	43	0	3482320896	37	3915
2026-01-26 03:58:05.16	188.04	37.09	-33.3	-34.2	23.8	0.00e+00	0	43	0	3487563776	37	3869
2026-01-26 03:58:06.44	188.12	36.79	-33.3	-34.1	23.8	0.00e+00	0	43	0	3497000960	37	3848
2026-01-26 03:58:07.17	188.17	36.61	-33.3	-34.1	23.8	0.00e+00	0	43	0	3502243840	37	3853
2026-01-26 03:58:08.45	188.25	36.31	-33.3	-34.1	23.8	0.00e+00	0	43	0	3510632448	37	3856
2026-01-26 03:58:09.17	188.30	36.14	-33.4	-34.2	23.7	0.00e+00	0	43	0	3515875328	37	3889
2026-01-26 03:58:10.45	188.38	35.85	-33.4	-34.3	23.6	0.00e+00	0	43	0	3525312512	37	3924
2026-01-26 03:58:11.16	188.42	35.68	-33.4	-34.3	23.7	0.00e+00	0	43	0	3530555392	37	3915
2026-01-26 03:58:12.65	188.51	35.34	-33.6	-34.4	23.5	0.00e+00	0	43	0	3541041152	37	3977
2026-01-26 03:58:13.36	188.56	35.18	-33.5	-34.3	23.6	0.00e+00	0	43	0	3546284032	37	3957
2026-01-26 03:58:14.64	188.63	34.89	-33.5	-34.3	23.6	0.00e+00	0	43	0	3555721216	37	3948
2026-01-26 03:58:15.66	188.69	34.66	-33.5	-34.3	23.6	0.00e+00	0	43	0	3563061248	37	3956
2026-01-26 03:58:16.96	188.77	34.38	-33.4	-34.2	23.7	0.00e+00	0	43	0	3572498432	37	3886
2026-01-26 03:58:17.68	188.81	34.22	-33.5	-34.3	23.6	0.00e+00	0	43	0	3577741312	37	3931
2026-01-26 03:58:19.26	188.90	33.87	-33.5	-34.3	23.7	0.00e+00	0	43	0	3589275648	37	3924
2026-01-26 03:58:19.89	188.93	33.74	-33.4	-34.2	23.7	0.00e+00	0	43	0	3593469952	37	3880
2026-01-26 03:58:21.41	189.01	33.41	-33.3	-34.1	23.8	0.00e+00	0	43	0	3605004288	37	3842
2026-01-26 03:58:22.12	189.05	33.26	-33.4	-34.3	23.7	0.00e+00	0	43	0	3610247168	37	3914
2026-01-26 03:58:23.39	189.12	32.99	-33.4	-34.2	23.7	0.00e+00	0	43	0	3618635776	37	3886
2026-01-26 03:58:24.12	189.16	32.84	-33.4	-34.2	23.7	0.00e+00	0	43	0	3623878656	37	3876
2026-01-26 03:58:25.40	189.22	32.57	-33.2	-34.0	23.8	0.00e+00	0	43	0	3633315840	37	3799
2026-01-26 03:58:26.12	189.26	32.42	-33.3	-34.1	23.8	0.00e+00	0	43	0	3638558720	37	3827
2026-01-26 03:58:27.40	189.32	32.15	-33.3	-34.1	23.7	0.00e+00	0	43	0	3647995904	37	3853
2026-01-26 03:58:28.12	189.36	32.01	-33.3	-34.1	23.8	0.00e+00	0	43	0	3653238784	37	3853
2026-01-26 03:58:29.40	189.42	31.75	-33.5	-34.3	23.6	0.00e+00	0	43	0	3662675968	37	3933
2026-01-26 03:58:30.11	189.46	31.60	-33.4	-34.3	23.7	0.00e+00	0	43	0	3667918848	37	3917
2026-01-26 03:58:31.39	189.52	31.35	-33.5	-34.3	23.6	0.00e+00	0	43	0	3676307456	37	3957
2026-01-26 03:58:32.11	189.55	31.20	-33.6	-34.4	23.5	0.00e+00	0	43	0	3681550336	37	3967
2026-01-26 03:58:33.39	189.61	30.95	-33.7	-34.5	23.4	0.00e+00	0	43	0	3690987520	37	4048
2026-01-26 03:58:34.13	189.65	30.80	-33.7	-34.5	23.4	0.00e+00	0	43	0	3696230400	37	4027
2026-01-26 03:58:35.67	189.72	30.50	-33.7	-34.5	23.4	0.00e+00	0	43	0	3707764736	37	4027
2026-01-26 03:58:36.38	189.75	30.36	-33.7	-34.5	23.4	0.00e+00	0	43	0	3713007616	37	4035
2026-01-26 03:58:37.66	189.81	30.12	-33.8	-34.6	23.3	0.00e+00	0	43	0	3722444800	37	4083
2026-01-26 03:58:38.38	189.84	29.98	-33.7	-34.5	23.4	0.00e+00	0	43	0	3726639104	37	4050
2026-01-26 03:58:39.66	189.90	29.74	-33.7	-34.6	23.4	0.00e+00	0	43	0	3736076288	37	4064
2026-01-26 03:58:40.40	189.93	29.60	-33.8	-34.7	23.3	0.00e+00	0	43	0	3742367744	37	4101
2026-01-26 03:58:41.68	189.99	29.36	-33.6	-34.4	23.5	0.00e+00	0	43	0	3750756352	37	3987
2026-01-26 03:58:42.41	190.02	29.22	-33.6	-34.4	23.5	0.00e+00	0	43	0	3755999232	37	4004
2026-01-26 03:58:43.69	190.07	28.99	-33.6	-34.4	23.5	0.00e+00	0	43	0	3765436416	37	3996
2026-01-26 03:58:44.40	190.10	28.85	-33.7	-34.5	23.4	0.00e+00	0	43	0	3770679296	37	4014
2026-01-26 03:58:45.68	190.15	28.62	-33.7	-34.5	23.5	0.00e+00	0	43	0	3780116480	37	4019
2026-01-26 03:58:46.39	190.18	28.49	-33.7	-34.6	23.4	0.00e+00	0	43	0	3785359360	37	4059
2026-01-26 03:58:47.66	190.23	28.26	-33.7	-34.5	23.4	0.00e+00	0	43	0	3793747968	37	4033
2026-01-26 03:58:48.39	190.26	28.13	-33.7	-34.5	23.4	0.00e+00	0	43	0	3798990848	37	4023
2026-01-26 03:58:49.67	190.31	27.90	-33.7	-34.6	23.3	0.00e+00	0	43	0	3808428032	37	4058
2026-01-26 03:58:50.60	190.35	27.74	-33.8	-34.6	23.3	0.00e+00	0	43	0	3814719488	37	4068
2026-01-26 03:58:51.88	190.40	27.52	-33.8	-34.6	23.3	0.00e+00	0	43	0	3824156672	37	4071
2026-01-26 03:58:52.60	190.43	27.39	-33.8	-34.7	23.3	0.00e+00	0	43	0	3830448128	37	4107
2026-01-26 03:58:53.88	190.47	27.17	-33.8	-34.7	23.3	0.00e+00	0	43	0	3838836736	37	4106
2026-01-26 03:58:54.70	190.50	27.03	-33.9	-34.7	23.2	0.00e+00	0	43	0	3845128192	37	4115
2026-01-26 03:58:56.11	190.56	26.79	-33.9	-34.7	23.2	0.00e+00	0	43	0	3855613952	37	4143
2026-01-26 03:58:56.82	190.58	26.66	-33.9	-34.8	23.2	0.00e+00	0	43	0	3859808256	37	4157
2026-01-26 03:58:58.10	190.63	26.45	-33.9	-34.8	23.2	0.00e+00	0	43	0	3869245440	37	4159
2026-01-26 03:58:58.84	190.66	26.32	-33.9	-34.8	23.2	0.00e+00	0	43	0	3874488320	37	4151
2026-01-26 03:59:00.12	190.70	26.11	-33.9	-34.8	23.2	0.00e+00	0	43	0	3883925504	37	4152
2026-01-26 03:59:00.86	190.73	25.99	-34.0	-34.8	23.1	0.00e+00	0	43	0	3889168384	37	4178
2026-01-26 03:59:02.14	190.77	25.78	-34.0	-34.8	23.1	0.00e+00	0	43	0	3898605568	37	4188
2026-01-26 03:59:02.91	190.80	25.65	-34.0	-34.9	23.1	0.00e+00	0	43	0	3903848448	37	4209
2026-01-26 03:59:04.18	190.84	25.45	-34.1	-34.9	23.0	0.00e+00	0	43	0	3913285632	37	4223
2026-01-26 03:59:04.89	190.87	25.33	-34.1	-35.0	23.0	0.00e+00	0	43	0	3918528512	37	4247
2026-01-26 03:59:06.17	190.91	25.12	-34.1	-34.9	23.1	0.00e+00	0	43	0	3927965696	37	4233
2026-01-26 03:59:06.89	190.93	25.01	-34.1	-35.0	22.9	0.00e+00	0	43	0	3933208576	37	4255
2026-01-26 03:59:08.17	190.98	24.81	-34.1	-35.0	23.0	0.00e+00	0	43	0	3942645760	37	4253
2026-01-26 03:59:08.89	191.00	24.69	-34.1	-35.0	22.7	0.00e+00	0	43	0	3946840064	37	4266
2026-01-26 03:59:10.17	191.04	24.49	-34.2	-35.0	22.9	0.00e+00	0	43	0	3956277248	37	4284
2026-01-26 03:59:10.90	191.07	24.38	-34.1	-35.0	22.9	0.00e+00	0	43	0	3961520128	37	4268
2026-01-26 03:59:12.22	191.11	24.17	-34.3	-35.1	22.8	0.00e+00	0	43	0	3970957312	37	4328
2026-01-26 03:59:12.93	191.13	24.06	-34.3	-35.1	22.9	0.00e+00	0	43	0	3976200192	38	4082
2026-01-26 03:59:14.21	191.17	23.87	-34.2	-35.1	22.9	0.00e+00	0	43	0	3985637376	38	4066
2026-01-26 03:59:14.94	191.19	23.76	-34.2	-35.1	22.9	0.00e+00	0	43	0	3990880256	38	4065
2026-01-26 03:59:16.21	191.23	23.56	-34.2	-35.0	22.9	0.00e+00	0	43	0	4000317440	38	4039
2026-01-26 03:59:16.95	191.25	23.45	-34.3	-35.1	22.9	0.00e+00	0	43	0	4005560320	38	4071
2026-01-26 03:59:18.23	191.29	23.26	-34.3	-35.1	22.9	0.00e+00	0	43	0	4014997504	38	4083
2026-01-26 03:59:18.95	191.31	23.15	-34.3	-35.1	22.8	0.00e+00	0	43	0	4020240384	38	4097
2026-01-26 03:59:20.22	191.35	22.97	-34.2	-35.1	22.9	0.00e+00	0	43	0	4029677568	38	4065
2026-01-26 03:59:20.93	191.37	22.86	-34.2	-35.0	22.9	0.00e+00	0	43	0	4033871872	38	4051
2026-01-26 03:59:22.21	191.41	22.67	-34.3	-35.2	22.8	0.00e+00	0	43	0	4043309056	38	4109
2026-01-26 03:59:22.94	191.43	22.57	-34.2	-35.0	22.9	0.00e+00	0	43	0	4048551936	38	4048
2026-01-26 03:59:24.21	191.47	22.38	-34.2	-35.1	22.9	0.00e+00	0	43	0	4057989120	38	4057
2026-01-26 03:59:25.00	191.49	22.27	-34.2	-35.1	22.9	0.00e+00	0	43	0	4064280576	38	4053
2026-01-26 03:59:26.23	191.53	22.09	-34.2	-35.1	22.8	0.00e+00	0	43	0	4072669184	38	4062
2026-01-26 03:59:27.09	191.55	21.97	-34.3	-35.1	22.8	0.00e+00	0	43	0	4078960640	38	4078
2026-01-26 03:59:28.22	191.58	21.81	-34.3	-35.1	22.8	0.00e+00	0	43	0	4087349248	38	4096
2026-01-26 03:59:29.07	191.61	21.69	-34.2	-35.1	22.8	0.00e+00	0	43	0	4092592128	38	4061
2026-01-26 03:59:30.21	191.64	21.53	-34.3	-35.2	22.7	0.00e+00	0	43	0	4100980736	38	4116
2026-01-26 03:59:31.31	191.67	21.38	-34.4	-35.2	22.7	0.00e+00	0	43	0	4109369344	38	4131
2026-01-26 03:59:32.34	191.69	21.24	-34.4	-35.2	22.7	0.00e+00	0	43	0	4116709376	38	4124
2026-01-26 03:59:33.51	191.73	21.08	-34.3	-35.2	22.8	0.00e+00	0	43	0	4125097984	38	4103
2026-01-26 03:59:34.36	191.75	20.96	-34.3	-35.1	22.8	0.00e+00	0	43	0	4131389440	38	4080
2026-01-26 03:59:35.50	191.78	20.81	-34.3	-35.2	22.8	0.00e+00	0	43	0	4139778048	38	4101
2026-01-26 03:59:36.35	191.80	20.69	-34.4	-35.2	22.8	0.00e+00	0	43	0	4146069504	38	4131
2026-01-26 03:59:37.49	191.83	20.54	-34.4	-35.2	22.7	0.00e+00	0	43	0	4153409536	38	4136
2026-01-26 03:59:38.34	191.85	20.42	-34.3	-35.1	22.8	0.00e+00	0	43	0	4159700992	38	4091
2026-01-26 03:59:39.48	191.88	20.27	-34.3	-35.2	22.8	0.00e+00	0	43	0	4168089600	38	4121
2026-01-26 03:59:40.33	191.90	20.16	-34.4	-35.2	22.7	0.00e+00	0	43	0	4174381056	38	4145
2026-01-26 03:59:41.47	191.93	20.01	-34.3	-35.2	22.8	0.00e+00	0	43	0	4182769664	38	4104
2026-01-26 03:59:42.32	191.95	19.90	-34.3	-35.2	22.8	0.00e+00	0	43	0	4189061120	38	4119
2026-01-26 03:59:43.46	191.98	19.75	-34.4	-35.3	22.6	0.00e+00	0	43	0	4197449728	38	4159
2026-01-26 03:59:44.31	192.00	19.64	-34.4	-35.3	22.6	0.00e+00	0	43	0	4202692608	38	4172
2026-01-26 03:59:45.48	192.03	19.49	-34.4	-35.3	22.6	0.00e+00	0	43	0	4211081216	38	4156
2026-01-26 03:59:46.33	192.05	19.38	-34.5	-35.3	22.6	0.00e+00	0	43	0	4217372672	38	4187
2026-01-26 03:59:47.47	192.08	19.24	-34.5	-35.3	22.6	0.00e+00	0	43	0	4225761280	38	4189
2026-01-26 03:59:48.32	192.10	19.13	-34.5	-35.4	22.5	0.00e+00	0	43	0	4232052736	38	4225
2026-01-26 03:59:49.59	192.13	18.97	-34.6	-35.4	22.5	0.00e+00	0	43	0	4241489920	38	4240
2026-01-26 03:59:50.38	192.15	18.87	-34.6	-35.5	22.4	0.00e+00	0	43	0	4246732800	38	4259
2026-01-26 03:59:51.56	192.17	18.72	-34.7	-35.6	22.4	0.00e+00	0	43	0	4255121408	38	4308
2026-01-26 03:59:52.41	192.19	18.61	-34.7	-35.6	22.3	0.00e+00	0	43	0	4261412864	38	4304
2026-01-26 03:59:53.55	192.22	18.47	-34.8	-35.7	22.3	0.00e+00	0	43	0	4269801472	39	4116
2026-01-26 03:59:54.40	192.24	18.37	-34.8	-35.7	22.3	0.00e+00	0	43	0	4276092928	39	4131
2026-01-26 03:59:55.54	192.26	18.23	-34.8	-35.7	22.2	0.00e+00	0	43	0	4284481536	39	4119
2026-01-26 03:59:56.39	192.28	18.13	-34.9	-35.7	22.2	0.00e+00	0	43	0	4289724416	39	4143
2026-01-26 03:59:57.53	192.31	17.99	-34.9	-35.8	22.2	0.00e+00	0	43	0	4298113024	39	4158
2026-01-26 03:59:58.38	192.33	17.88	-35.0	-35.9	22.1	0.00e+00	0	43	0	4304404480	39	4195
2026-01-26 03:59:59.52	192.35	17.75	-35.1	-35.9	22.0	0.00e+00	0	43	0	4312793088	39	4242
2026-01-26 04:00:00.37	192.37	17.65	-35.1	-36.0	22.0	0.00e+00	0	43	0	4319084544	39	4276
2026-01-26 04:00:01.51	192.40	17.51	-35.1	-36.0	21.9	0.00e+00	0	43	0	4327473152	39	4273
2026-01-26 04:00:02.36	192.41	17.41	-35.1	-36.0	21.9	0.00e+00	0	43	0	4333764608	39	4273
2026-01-26 04:00:03.50	192.44	17.28	-35.3	-36.2	21.8	0.00e+00	0	43	0	4341104640	39	4351
2026-01-26 04:00:04.35	192.46	17.18	-35.2	-36.1	21.8	0.00e+00	0	43	0	4347396096	40	4079
2026-01-26 04:00:05.48	192.48	17.04	-35.3	-36.2	21.7	0.00e+00	0	43	0	4355784704	40	4109
2026-01-26 04:00:06.33	192.50	16.94	-35.3	-36.2	21.8	0.00e+00	0	43	0	4362076160	40	4111
2026-01-26 04:00:07.50	192.52	16.81	-35.3	-36.2	21.7	0.00e+00	0	43	0	4370464768	40	4138
2026-01-26 04:00:08.36	192.54	16.71	-35.3	-36.2	21.7	0.00e+00	0	43	0	4376756224	40	4123
2026-01-26 04:00:09.49	192.56	16.58	-35.4	-36.3	21.6	0.00e+00	0	43	0	4385144832	40	4171
2026-01-26 04:00:10.35	192.58	16.48	-35.4	-36.3	21.6	0.00e+00	0	43	0	4390387712	40	4188
2026-01-26 04:00:11.61	192.61	16.34	-35.4	-36.3	21.6	0.00e+00	0	43	0	4399824896	40	4182
2026-01-26 04:00:12.37	192.62	16.25	-35.4	-36.4	21.5	0.00e+00	0	43	0	4406116352	40	4200
2026-01-26 04:00:13.84	192.65	16.09	-35.5	-36.5	21.4	0.00e+00	0	43	0	4416602112	40	4245
2026-01-26 04:00:14.55	192.67	16.01	-35.6	-36.5	21.4	0.00e+00	0	43	0	4421844992	40	4271
2026-01-26 04:00:15.83	192.69	15.87	-35.6	-36.5	21.4	0.00e+00	0	43	0	4430233600	40	4277
2026-01-26 04:00:16.57	192.71	15.79	-35.7	-36.6	21.3	0.00e+00	0	43	0	4435476480	40	4321
2026-01-26 04:00:17.85	192.73	15.64	-35.6	-36.5	21.4	0.00e+00	0	43	0	4444913664	40	4283
2026-01-26 04:00:18.56	192.75	15.57	-35.6	-36.5	21.3	0.00e+00	0	43	0	4450156544	40	4286
2026-01-26 04:00:19.84	192.77	15.43	-35.7	-36.6	21.2	0.00e+00	0	43	0	4459593728	40	4339
2026-01-26 04:00:20.55	192.78	15.35	-35.7	-36.7	21.2	0.00e+00	0	43	0	4464836608	40	4353
2026-01-26 04:00:21.83	192.81	15.21	-35.8	-36.8	21.1	0.00e+00	0	43	0	4474273792	41	4152
2026-01-26 04:00:22.59	192.82	15.13	-35.8	-36.7	21.2	0.00e+00	0	43	0	4479516672	41	4130
2026-01-26 04:00:23.87	192.85	14.99	-35.7	-36.6	21.2	0.00e+00	0	43	0	4488953856	41	4096
2026-01-26 04:00:24.67	192.86	14.91	-35.8	-36.8	21.1	0.00e+00	0	43	0	4494196736	41	4146
2026-01-26 04:00:26.09	192.89	14.75	-35.9	-36.9	21.0	0.00e+00	0	43	0	4504682496	41	4217
2026-01-26 04:00:26.80	192.90	14.68	-35.8	-36.8	21.1	0.00e+00	0	43	0	4509925376	41	4171
2026-01-26 04:00:28.08	192.92	14.54	-35.8	-36.8	21.1	0.00e+00	0	43	0	4519362560	41	4157
2026-01-26 04:00:28.80	192.94	14.47	-35.8	-36.8	21.1	0.00e+00	0	43	0	4524605440	41	4178
2026-01-26 04:00:30.08	192.96	14.34	-36.0	-37.0	20.9	0.00e+00	0	43	0	4532994048	41	4250
2026-01-26 04:00:30.80	192.97	14.26	-35.9	-36.9	21.0	0.00e+00	0	43	0	4538236928	41	4222
2026-01-26 04:00:32.07	193.00	14.13	-35.9	-36.9	21.0	0.00e+00	0	43	0	4547674112	41	4209
2026-01-26 04:00:32.78	193.01	14.06	-35.9	-36.9	21.0	0.00e+00	0	43	0	4552916992	41	4215
2026-01-26 04:00:34.06	193.03	13.92	-35.9	-36.9	21.0	0.00e+00	0	43	0	4562354176	41	4230
2026-01-26 04:00:34.77	193.04	13.85	-36.0	-37.0	20.8	0.00e+00	0	43	0	4567597056	41	4257
2026-01-26 04:00:36.05	193.07	13.72	-36.0	-37.0	20.9	0.00e+00	0	43	0	4577034240	41	4250
2026-01-26 04:00:36.78	193.08	13.65	-36.0	-37.0	20.8	0.00e+00	0	43	0	4582277120	41	4280
2026-01-26 04:00:38.09	193.10	13.51	-36.0	-37.0	20.8	0.00e+00	0	43	0	4590665728	41	4278
2026-01-26 04:00:38.80	193.11	13.44	-36.0	-37.0	20.9	0.00e+00	0	43	0	4595908608	41	4255
2026-01-26 04:00:40.14	193.14	13.31	-36.0	-37.0	20.9	0.00e+00	0	43	0	4606394368	41	4275
2026-01-26 04:00:40.85	193.15	13.24	-36.0	-37.1	20.8	0.00e+00	0	43	0	4611637248	41	4300
2026-01-26 04:00:42.19	193.17	13.11	-36.1	-37.1	20.7	0.00e+00	0	43	0	4621074432	41	4332
2026-01-26 04:00:43.16	193.19	13.01	-36.1	-37.1	20.8	0.00e+00	0	43	0	4628414464	41	4315
2026-01-26 04:00:44.47	193.21	12.88	-36.1	-37.1	20.8	0.00e+00	0	43	0	4637851648	41	4307
2026-01-26 04:00:45.18	193.22	12.81	-36.1	-37.2	20.7	0.00e+00	0	43	0	4642045952	41	4344
2026-01-26 04:00:46.86	193.25	12.65	-36.2	-37.2	20.7	0.00e+00	0	43	0	4654628864	41	4352
2026-01-26 04:00:47.42	193.26	12.59	-36.1	-37.2	20.7	0.00e+00	0	43	0	4658823168	41	4348
2026-01-26 04:00:49.13	193.29	12.43	-36.3	-37.3	20.5	0.00e+00	0	43	0	4671406080	41	4420
2026-01-26 04:00:49.70	193.30	12.37	-36.3	-37.4	20.5	0.00e+00	0	43	0	4674551808	42	4195
2026-01-26 04:00:51.40	193.32	12.21	-36.3	-37.3	20.5	0.00e+00	0	43	0	4687134720	42	4172
2026-01-26 04:00:51.97	193.33	12.16	-36.3	-37.3	20.6	0.00e+00	0	43	0	4691329024	42	4170
2026-01-26 04:00:53.68	193.36	11.99	-36.4	-37.4	20.4	0.00e+00	0	43	0	4703911936	42	4232
2026-01-26 04:00:54.25	193.37	11.94	-36.4	-37.4	20.5	0.00e+00	0	43	0	4708106240	42	4216
2026-01-26 04:00:56.10	193.40	11.76	-36.4	-37.5	20.4	0.00e+00	0	43	0	4720689152	42	4244
2026-01-26 04:00:56.67	193.41	11.71	-36.6	-37.6	20.3	0.00e+00	0	43	0	4725932032	42	4320
2026-01-26 04:00:58.65	193.44	11.53	-36.4	-37.4	20.4	0.00e+00	0	43	0	4739563520	42	4235
2026-01-26 04:00:59.22	193.45	11.47	-36.5	-37.5	20.3	0.00e+00	0	43	0	4743757824	42	4263
