passes_logs/2026/01/26/T1/T1__20260126_020632_FENGYUN_3D_rec.log

#Pass ID: 20260126_020632_FENGYUN 3D
#Satellite: FENGYUN 3D
#Configuration: FENGYUN 3D
#almurnet v.1.7.20251203
#Start time: 2026-01-26 02:06:32

#Version: 2.0.20230620
#Station: T1
#Location: 37.570604 lon 55.790049 lat
#TLE: 1 43010U 17072A   26025.50461972  .00000046  00000+0  43592-4 0  9990
#TLE: 2 43010  98.9962 357.4844 0002523  89.7890 270.3575 14.19699798424744

#Time	Az	El	Level	Level2	SNR	BER	BlckErr	Temp	State	Recorded	gain1	gain2
2026-01-26 02:06:32.84	14.76	5.03	-46.7	-59.9	3.8	8.47e-01	0	35	0	0	64	17079
2026-01-26 02:06:33.83	14.75	5.10	-46.8	-59.7	3.8	8.46e-01	0	35	104	0	64	16618
2026-01-26 02:06:34.83	14.74	5.17	-46.8	-59.8	3.8	8.47e-01	0	35	104	0	64	16698
2026-01-26 02:06:35.82	14.73	5.24	-46.8	-59.7	3.8	8.46e-01	0	36	104	0	64	16667
2026-01-26 02:06:36.81	14.71	5.31	-46.8	-59.8	3.8	8.47e-01	0	36	104	0	64	16799
2026-01-26 02:06:37.81	14.70	5.38	-46.8	-59.8	3.8	8.47e-01	0	36	104	0	64	16800
2026-01-26 02:06:38.80	14.69	5.45	-46.8	-59.9	3.8	8.47e-01	0	36	104	0	64	16974
2026-01-26 02:06:39.79	14.67	5.52	-46.8	-59.9	3.8	8.47e-01	0	36	104	0	64	16997
2026-01-26 02:06:40.78	14.66	5.60	-46.8	-59.9	3.8	8.46e-01	0	36	104	0	64	17064
2026-01-26 02:06:41.78	14.65	5.67	-46.8	-60.0	3.8	8.47e-01	0	36	104	0	64	17124
2026-01-26 02:06:42.77	14.63	5.74	-46.8	-60.0	3.8	8.47e-01	0	36	104	0	64	17211
2026-01-26 02:06:43.77	14.62	5.81	-46.8	-60.0	3.8	8.47e-01	0	36	104	0	64	17201
2026-01-26 02:06:44.76	14.60	5.89	-46.8	-60.0	3.8	8.47e-01	0	36	104	0	64	17102
2026-01-26 02:06:45.75	14.59	5.96	-46.8	-59.9	3.8	8.47e-01	0	36	104	0	64	17064
2026-01-26 02:06:46.75	14.58	6.03	-46.8	-59.9	3.8	8.46e-01	0	36	104	0	64	17006
2026-01-26 02:06:47.74	14.56	6.11	-46.8	-59.9	3.8	8.48e-01	0	36	104	0	64	16932
2026-01-26 02:06:48.74	14.55	6.18	-46.8	-59.8	3.8	8.48e-01	0	36	104	0	64	16736
2026-01-26 02:06:49.73	14.53	6.25	-46.8	-59.7	3.8	8.47e-01	0	36	104	0	64	16581
2026-01-26 02:06:50.72	14.52	6.33	-46.7	-59.6	3.8	8.47e-01	0	36	104	0	64	16326
2026-01-26 02:06:51.72	14.51	6.40	-46.7	-59.4	3.8	8.48e-01	0	36	104	0	64	16119
2026-01-26 02:06:52.71	14.49	6.48	-46.7	-59.3	3.8	8.46e-01	0	36	104	0	64	15865
2026-01-26 02:06:53.70	14.48	6.55	-46.7	-59.2	3.8	8.46e-01	0	36	104	0	64	15652
2026-01-26 02:06:54.70	14.46	6.62	-46.7	-59.0	3.8	8.47e-01	0	36	104	0	64	15393
2026-01-26 02:06:55.69	14.45	6.70	-46.7	-59.0	3.8	8.47e-01	0	37	104	0	64	15266
2026-01-26 02:06:56.68	14.43	6.77	-46.7	-58.9	3.8	8.46e-01	0	36	104	0	64	15204
2026-01-26 02:06:57.68	14.42	6.85	-46.7	-59.0	3.8	8.47e-01	0	36	104	0	64	15279
2026-01-26 02:06:58.67	14.40	6.93	-46.7	-59.0	3.8	8.46e-01	0	37	104	0	64	15335
2026-01-26 02:06:59.66	14.39	7.00	-46.7	-59.2	3.8	8.46e-01	0	37	104	0	64	15603
2026-01-26 02:07:00.66	14.37	7.08	-46.7	-59.2	3.8	8.46e-01	0	37	104	0	64	15711
2026-01-26 02:07:01.65	14.36	7.15	-46.7	-59.3	3.8	8.47e-01	0	37	104	0	64	15831
2026-01-26 02:07:02.64	14.34	7.23	-46.7	-59.3	3.8	8.46e-01	0	37	104	0	64	15867
2026-01-26 02:07:03.63	14.32	7.31	-46.7	-59.2	3.8	8.46e-01	0	37	104	0	64	15637
2026-01-26 02:07:04.63	14.31	7.38	-46.7	-58.9	3.8	8.46e-01	0	37	104	0	64	15222
2026-01-26 02:07:05.62	14.29	7.46	-46.6	-58.5	3.8	8.46e-01	0	37	104	0	64	14505
2026-01-26 02:07:06.62	14.28	7.54	-46.6	-58.1	3.8	8.46e-01	0	37	104	0	64	13755
2026-01-26 02:07:07.61	14.26	7.62	-46.5	-57.3	3.9	8.45e-01	0	37	104	0	64	12619
2026-01-26 02:07:08.60	14.24	7.69	-46.4	-56.3	4.2	8.40e-01	0	36	0	0	64	11267
2026-01-26 02:07:09.60	14.23	7.77	-46.2	-55.3	4.5	8.25e-01	0	37	0	0	64	10044
2026-01-26 02:07:10.59	14.21	7.85	-46.0	-54.1	5.1	7.86e-01	0	37	0	0	64	8744
2026-01-26 02:07:11.58	14.20	7.93	-45.8	-53.0	6.0	4.50e-01	0	37	0	2097152	63	8156
2026-01-26 02:07:12.58	14.18	8.01	-45.5	-51.8	6.9	2.31e-01	0	37	0	7340032	63	7113
2026-01-26 02:07:13.57	14.16	8.09	-45.0	-50.6	8.1	8.54e-02	0	37	0	12582912	62	6509
2026-01-26 02:07:14.56	14.14	8.17	-44.5	-49.4	9.3	3.39e-02	0	37	0	18874368	61	6044
2026-01-26 02:07:15.56	14.13	8.25	-44.1	-48.5	10.3	1.21e-02	0	37	0	24117248	60	5753
2026-01-26 02:07:16.55	14.11	8.33	-43.6	-47.5	11.3	2.38e-03	0	37	0	30408704	59	5438
2026-01-26 02:07:17.54	14.09	8.41	-43.2	-46.8	12.0	7.64e-04	0	37	0	35651584	58	5330
2026-01-26 02:07:18.54	14.08	8.49	-42.8	-46.2	12.7	1.56e-04	0	37	0	40894464	57	5257
2026-01-26 02:07:19.53	14.06	8.57	-42.5	-45.7	13.2	4.23e-05	0	37	0	46137344	57	4959
2026-01-26 02:07:20.52	14.04	8.65	-42.2	-45.3	13.6	2.28e-05	0	37	0	52428800	56	5024
2026-01-26 02:07:21.52	14.02	8.73	-42.1	-45.2	13.8	6.80e-06	0	37	0	57671680	56	4931
2026-01-26 02:07:22.51	14.01	8.81	-42.0	-45.0	13.9	3.40e-06	0	37	0	62914560	56	4834
2026-01-26 02:07:23.50	13.99	8.89	-42.1	-45.1	13.8	8.00e-06	0	37	0	69206016	56	4908
2026-01-26 02:07:24.50	13.97	8.98	-42.2	-45.3	13.6	1.37e-05	0	37	0	74448896	56	5038
2026-01-26 02:07:25.49	13.95	9.06	-41.4	-44.1	14.6	1.60e-05	0	37	0	79691776	54	4925
2026-01-26 02:07:26.48	13.93	9.14	-42.3	-45.4	13.4	3.20e-05	0	37	0	85983232	55	5353
2026-01-26 02:07:27.49	13.91	9.22	-41.9	-44.9	14.0	1.14e-05	0	37	0	91226112	55	5049
2026-01-26 02:07:28.49	13.90	9.31	-44.4	-49.1	9.7	3.90e-02	0	37	0	96468992	60	6182
2026-01-26 02:07:29.56	13.88	9.40	-41.5	-44.2	14.4	7.43e-03	0	37	0	102760448	55	4683
2026-01-26 02:07:30.41	13.86	9.47	-38.2	-40.2	18.6	0.00e+00	0	37	0	108003328	48	4434
2026-01-26 02:07:31.55	13.84	9.57	-37.8	-39.8	18.8	0.00e+00	0	37	0	114294784	47	4478
2026-01-26 02:07:32.41	13.82	9.64	-37.3	-39.2	19.4	0.00e+00	0	37	0	119537664	46	4432
2026-01-26 02:07:33.54	13.80	9.73	-37.3	-39.2	19.4	0.00e+00	0	37	0	125829120	46	4429
2026-01-26 02:07:34.40	13.78	9.81	-37.3	-39.2	19.5	0.00e+00	0	37	0	130023424	46	4408
2026-01-26 02:07:35.54	13.76	9.91	-37.2	-39.1	19.6	0.00e+00	0	37	0	136314880	46	4362
2026-01-26 02:07:36.39	13.74	9.98	-37.2	-39.2	19.5	0.00e+00	0	37	0	141557760	46	4399
2026-01-26 02:07:37.52	13.72	10.08	-37.2	-39.1	19.6	0.00e+00	0	37	0	147849216	46	4353
2026-01-26 02:07:38.38	13.70	10.15	-37.1	-39.1	19.6	0.00e+00	0	37	0	153092096	46	4344
2026-01-26 02:07:39.51	13.68	10.25	-37.3	-39.2	19.5	0.00e+00	0	37	0	159383552	46	4422
2026-01-26 02:07:40.36	13.66	10.32	-37.2	-39.2	19.5	0.00e+00	0	37	0	163577856	46	4396
2026-01-26 02:07:41.55	13.64	10.43	-37.2	-39.1	19.6	0.00e+00	0	37	0	170917888	46	4373
2026-01-26 02:07:42.40	13.62	10.50	-37.1	-39.0	19.7	0.00e+00	0	37	0	175112192	46	4310
2026-01-26 02:07:43.54	13.60	10.60	-37.1	-39.0	19.7	0.00e+00	0	37	0	181403648	46	4310
2026-01-26 02:07:44.39	13.58	10.68	-36.9	-38.8	19.9	0.00e+00	0	37	0	186646528	45	4462
2026-01-26 02:07:45.53	13.56	10.78	-36.9	-38.7	20.0	0.00e+00	0	37	0	192937984	45	4431
2026-01-26 02:07:46.38	13.54	10.85	-37.0	-38.9	19.9	0.00e+00	0	37	0	197132288	45	4494
2026-01-26 02:07:47.52	13.51	10.95	-37.0	-38.9	19.9	0.00e+00	0	37	0	204472320	45	4494
2026-01-26 02:07:48.37	13.50	11.03	-36.9	-38.8	19.9	0.00e+00	0	37	0	208666624	45	4446
2026-01-26 02:07:49.50	13.47	11.13	-36.9	-38.8	19.9	0.00e+00	0	37	0	214958080	45	4467
2026-01-26 02:07:50.36	13.45	11.21	-36.8	-38.7	20.0	0.00e+00	0	37	0	220200960	45	4409
2026-01-26 02:07:51.49	13.43	11.31	-36.8	-38.7	20.0	0.00e+00	0	37	0	226492416	45	4420
2026-01-26 02:07:52.35	13.41	11.39	-36.8	-38.7	20.0	0.00e+00	0	37	0	231735296	45	4410
2026-01-26 02:07:53.48	13.38	11.49	-36.8	-38.7	20.0	0.00e+00	0	37	0	238026752	45	4407
2026-01-26 02:07:54.33	13.36	11.57	-36.7	-38.5	20.2	0.00e+00	0	38	0	242221056	45	4327
2026-01-26 02:07:55.47	13.34	11.68	-36.7	-38.6	20.2	0.00e+00	0	38	0	248512512	45	4350
2026-01-26 02:07:56.32	13.32	11.75	-36.7	-38.6	20.1	0.00e+00	0	37	0	253755392	45	4368
2026-01-26 02:07:57.46	13.29	11.86	-36.8	-38.6	20.0	0.00e+00	0	37	0	260046848	45	4379
2026-01-26 02:07:58.31	13.27	11.94	-36.7	-38.6	20.2	0.00e+00	0	37	0	265289728	45	4351
2026-01-26 02:07:59.53	13.24	12.05	-36.6	-38.5	20.2	0.00e+00	0	37	0	271581184	45	4313
2026-01-26 02:08:00.39	13.22	12.13	-36.7	-38.6	19.8	0.00e+00	0	38	0	276824064	45	4352
2026-01-26 02:08:01.52	13.20	12.24	-36.7	-38.6	20.1	0.00e+00	0	38	0	283115520	45	4368
2026-01-26 02:08:02.38	13.18	12.32	-36.7	-38.6	20.2	0.00e+00	0	37	0	287309824	45	4355
2026-01-26 02:08:03.62	13.15	12.44	-36.7	-38.5	20.2	0.00e+00	0	37	0	294649856	45	4322
2026-01-26 02:08:04.48	13.13	12.52	-36.7	-38.5	20.2	0.00e+00	0	38	0	299892736	45	4318
2026-01-26 02:08:05.70	13.10	12.64	-36.7	-38.5	20.2	0.00e+00	0	38	0	306184192	45	4315
2026-01-26 02:08:06.55	13.08	12.72	-36.6	-38.4	20.3	0.00e+00	0	37	0	311427072	45	4288
2026-01-26 02:08:07.69	13.05	12.83	-36.6	-38.5	20.3	0.00e+00	0	37	0	317718528	45	4305
2026-01-26 02:08:08.54	13.03	12.91	-36.5	-38.4	20.4	0.00e+00	0	38	0	321912832	45	4264
2026-01-26 02:08:09.68	13.00	13.02	-36.7	-38.5	20.2	0.00e+00	0	37	0	328204288	45	4328
2026-01-26 02:08:10.56	12.97	13.11	-36.6	-38.4	20.4	0.00e+00	0	38	0	333447168	45	4264
2026-01-26 02:08:11.70	12.95	13.22	-36.6	-38.4	20.3	0.00e+00	0	37	0	339738624	45	4282
2026-01-26 02:08:12.62	12.92	13.31	-36.6	-38.5	20.3	0.00e+00	0	37	0	344981504	45	4298
2026-01-26 02:08:13.61	12.90	13.41	-36.6	-38.5	20.3	0.00e+00	0	38	0	351272960	45	4301
2026-01-26 02:08:14.61	12.87	13.50	-36.5	-38.4	20.4	0.00e+00	0	38	0	356515840	45	4270
2026-01-26 02:08:15.60	12.84	13.60	-36.6	-38.5	20.3	0.00e+00	0	38	0	361758720	45	4315
2026-01-26 02:08:16.60	12.82	13.70	-36.7	-38.6	20.2	0.00e+00	0	38	0	368050176	45	4352
2026-01-26 02:08:17.59	12.79	13.80	-36.6	-38.5	19.8	0.00e+00	0	38	0	373293056	45	4334
2026-01-26 02:08:18.59	12.76	13.90	-36.6	-38.4	20.3	0.00e+00	0	38	0	378535936	45	4288
2026-01-26 02:08:19.58	12.74	14.00	-36.5	-38.4	20.4	0.00e+00	0	38	0	384827392	45	4253
2026-01-26 02:08:20.58	12.71	14.10	-36.6	-38.5	20.3	0.00e+00	0	38	0	390070272	45	4294
2026-01-26 02:08:21.57	12.68	14.20	-36.5	-38.4	20.4	0.00e+00	0	38	0	395313152	45	4248
2026-01-26 02:08:22.56	12.65	14.31	-36.5	-38.4	20.4	0.00e+00	0	38	0	401604608	45	4277
2026-01-26 02:08:23.56	12.63	14.41	-36.5	-38.4	20.4	0.00e+00	0	38	0	406847488	45	4283
2026-01-26 02:08:24.56	12.60	14.51	-36.5	-38.4	20.4	0.00e+00	0	38	0	412090368	45	4269
2026-01-26 02:08:25.55	12.57	14.61	-36.5	-38.5	20.3	0.00e+00	0	38	0	418381824	45	4292
2026-01-26 02:08:26.54	12.54	14.72	-36.6	-38.5	20.3	0.00e+00	0	38	0	423624704	45	4332
2026-01-26 02:08:27.54	12.51	14.82	-36.5	-38.4	20.4	0.00e+00	0	38	0	428867584	45	4265
2026-01-26 02:08:28.53	12.48	14.92	-36.4	-38.3	20.4	0.00e+00	0	38	0	435159040	44	4493
2026-01-26 02:08:29.52	12.45	15.03	-36.4	-38.3	20.5	0.00e+00	0	38	0	440401920	44	4452
2026-01-26 02:08:30.52	12.42	15.13	-36.3	-38.2	20.5	0.00e+00	0	38	0	445644800	44	4434
2026-01-26 02:08:31.51	12.39	15.24	-36.2	-38.1	20.7	0.00e+00	0	38	0	451936256	44	4366
2026-01-26 02:08:32.51	12.36	15.35	-36.2	-38.1	20.7	0.00e+00	0	38	0	457179136	44	4347
2026-01-26 02:08:33.50	12.33	15.45	-36.2	-38.0	20.7	0.00e+00	0	38	0	462422016	44	4333
2026-01-26 02:08:34.49	12.30	15.56	-36.1	-38.0	20.8	0.00e+00	0	38	0	468713472	44	4297
2026-01-26 02:08:35.49	12.27	15.67	-36.1	-38.0	20.8	0.00e+00	0	38	0	473956352	44	4311
2026-01-26 02:08:36.48	12.24	15.77	-36.1	-38.0	20.8	0.00e+00	0	38	0	479199232	44	4317
2026-01-26 02:08:37.48	12.21	15.88	-36.1	-37.9	20.9	0.00e+00	0	38	0	485490688	44	4279
2026-01-26 02:08:38.48	12.18	15.99	-36.0	-37.9	20.9	0.00e+00	0	38	0	490733568	44	4244
2026-01-26 02:08:39.49	12.15	16.10	-35.8	-37.6	21.0	0.00e+00	0	38	0	495976448	43	4370
2026-01-26 02:08:40.48	12.11	16.21	-35.8	-37.7	21.0	0.00e+00	0	38	0	502267904	43	4401
2026-01-26 02:08:41.56	12.08	16.33	-35.7	-37.5	21.1	0.00e+00	0	38	0	508559360	43	4334
2026-01-26 02:08:42.41	12.05	16.43	-35.6	-37.5	21.2	0.00e+00	0	38	0	512753664	43	4298
2026-01-26 02:08:43.55	12.01	16.55	-35.5	-37.3	21.3	0.00e+00	0	38	0	519045120	43	4241
2026-01-26 02:08:44.41	11.99	16.65	-35.7	-37.5	21.1	0.00e+00	0	38	0	524288000	43	4338
2026-01-26 02:08:45.54	11.95	16.78	-35.5	-37.4	21.2	0.00e+00	0	38	0	530579456	43	4265
2026-01-26 02:08:46.40	11.92	16.88	-35.4	-37.3	21.4	0.00e+00	0	38	0	535822336	42	4454
2026-01-26 02:08:47.54	11.88	17.01	-35.4	-37.2	21.4	0.00e+00	0	38	0	541065216	42	4434
2026-01-26 02:08:48.39	11.85	17.10	-35.4	-37.2	21.4	0.00e+00	0	38	0	546308096	42	4412
2026-01-26 02:08:49.53	11.81	17.23	-35.3	-37.1	21.6	0.00e+00	0	38	0	552599552	42	4348
2026-01-26 02:08:50.38	11.78	17.33	-35.1	-36.9	21.7	0.00e+00	0	38	0	557842432	42	4270
2026-01-26 02:08:51.52	11.74	17.47	-35.2	-37.0	21.6	0.00e+00	0	38	0	564133888	42	4308
2026-01-26 02:08:52.37	11.71	17.56	-35.2	-37.0	21.6	0.00e+00	0	38	0	568328192	42	4333
2026-01-26 02:08:53.51	11.67	17.70	-35.1	-37.0	21.6	0.00e+00	0	38	0	575668224	42	4292
2026-01-26 02:08:54.36	11.64	17.80	-35.0	-36.8	21.8	0.00e+00	0	38	0	579862528	42	4204
2026-01-26 02:08:55.60	11.59	17.94	-34.8	-36.6	21.9	0.00e+00	0	38	0	587202560	41	4372
2026-01-26 02:08:56.46	11.56	18.05	-34.9	-36.7	21.9	0.00e+00	0	38	0	591396864	41	4395
2026-01-26 02:08:57.59	11.52	18.18	-34.8	-36.5	22.0	0.00e+00	0	38	0	598736896	41	4328
2026-01-26 02:08:58.45	11.49	18.28	-34.7	-36.5	22.1	0.00e+00	0	38	0	602931200	41	4305
2026-01-26 02:08:59.58	11.44	18.42	-34.6	-36.3	22.2	0.00e+00	0	38	0	609222656	41	4233
2026-01-26 02:09:00.44	11.41	18.53	-34.6	-36.3	22.2	0.00e+00	0	38	0	614465536	41	4239
2026-01-26 02:09:01.57	11.37	18.66	-34.5	-36.2	22.3	0.00e+00	0	38	0	620756992	41	4164
2026-01-26 02:09:02.42	11.34	18.77	-34.4	-36.1	22.4	0.00e+00	0	38	0	624951296	40	4385
2026-01-26 02:09:03.56	11.29	18.91	-34.5	-36.2	22.4	0.00e+00	0	38	0	632291328	40	4403
2026-01-26 02:09:04.42	11.26	19.01	-34.4	-36.1	22.4	0.00e+00	0	38	0	636485632	40	4360
2026-01-26 02:09:05.55	11.21	19.15	-34.4	-36.1	22.4	0.00e+00	0	38	0	642777088	40	4386
2026-01-26 02:09:06.40	11.18	19.26	-34.5	-36.2	22.3	0.00e+00	0	38	0	648019968	40	4418
2026-01-26 02:09:07.54	11.13	19.40	-34.4	-36.1	22.4	0.00e+00	0	38	0	654311424	40	4371
2026-01-26 02:09:08.39	11.10	19.51	-34.4	-36.2	22.4	0.00e+00	0	38	0	659554304	40	4396
2026-01-26 02:09:09.53	11.05	19.65	-34.4	-36.2	22.4	0.00e+00	0	38	0	664797184	40	4395
2026-01-26 02:09:10.38	11.01	19.76	-34.6	-36.3	22.2	0.00e+00	0	38	0	670040064	40	4489
2026-01-26 02:09:11.52	10.97	19.91	-34.6	-36.3	22.2	0.00e+00	0	38	0	676331520	40	4489
2026-01-26 02:09:12.38	10.93	20.02	-34.6	-36.3	22.2	0.00e+00	0	38	0	681574400	40	4466
2026-01-26 02:09:13.51	10.88	20.16	-34.6	-36.4	22.2	0.00e+00	0	38	0	687865856	40	4494
2026-01-26 02:09:14.37	10.84	20.27	-34.7	-36.4	22.2	0.00e+00	0	38	0	693108736	40	4534
2026-01-26 02:09:15.50	10.79	20.42	-34.8	-36.6	22.0	0.00e+00	0	38	0	699400192	40	4612
2026-01-26 02:09:16.35	10.76	20.53	-34.8	-36.5	22.1	0.00e+00	0	38	0	703594496	40	4579
2026-01-26 02:09:17.49	10.71	20.68	-34.8	-36.5	22.1	0.00e+00	0	38	0	709885952	40	4574
2026-01-26 02:09:18.34	10.67	20.80	-34.8	-36.6	22.0	0.00e+00	0	38	0	715128832	40	4619
2026-01-26 02:09:19.48	10.62	20.95	-34.8	-36.6	22.0	0.00e+00	0	38	0	721420288	40	4624
2026-01-26 02:09:20.33	10.58	21.06	-34.8	-36.6	22.0	0.00e+00	0	38	0	725614592	40	4628
2026-01-26 02:09:21.47	10.52	21.22	-34.8	-36.6	22.0	0.00e+00	0	38	0	732954624	40	4601
2026-01-26 02:09:22.32	10.48	21.33	-34.7	-36.5	22.1	0.00e+00	0	38	0	737148928	40	4555
2026-01-26 02:09:23.46	10.43	21.48	-34.8	-36.6	22.0	0.00e+00	0	38	0	743440384	40	4609
2026-01-26 02:09:24.32	10.39	21.60	-34.6	-36.4	22.2	0.00e+00	0	38	0	748683264	40	4511
2026-01-26 02:09:25.47	10.33	21.76	-34.5	-36.2	22.3	0.00e+00	0	38	0	754974720	40	4438
2026-01-26 02:09:26.32	10.29	21.88	-34.4	-36.2	22.4	0.00e+00	0	38	0	760217600	40	4392
2026-01-26 02:09:27.46	10.24	22.04	-34.3	-36.0	22.5	0.00e+00	0	38	0	766509056	40	4317
2026-01-26 02:09:28.31	10.20	22.15	-34.2	-35.9	22.7	0.00e+00	0	38	0	770703360	40	4265
2026-01-26 02:09:29.45	10.14	22.31	-34.3	-36.0	22.5	0.00e+00	0	38	0	778043392	40	4308
2026-01-26 02:09:30.30	10.10	22.43	-34.2	-35.9	22.7	0.00e+00	0	38	0	782237696	40	4249
2026-01-26 02:09:31.43	10.04	22.59	-34.1	-35.7	22.8	0.00e+00	0	38	0	788529152	40	4193
2026-01-26 02:09:32.28	10.00	22.72	-34.0	-35.7	22.9	0.00e+00	0	38	0	793772032	39	4401
2026-01-26 02:09:33.42	9.94	22.88	-33.9	-35.5	23.1	0.00e+00	0	38	0	800063488	39	4328
2026-01-26 02:09:34.27	9.89	23.00	-33.9	-35.5	23.1	0.00e+00	0	38	0	804257792	39	4316
2026-01-26 02:09:35.41	9.83	23.17	-34.0	-35.6	23.0	0.00e+00	0	38	0	810549248	39	4373
2026-01-26 02:09:36.26	9.79	23.29	-33.8	-35.5	23.1	0.00e+00	0	38	0	815792128	39	4312
2026-01-26 02:09:37.40	9.72	23.46	-33.8	-35.5	23.2	0.00e+00	0	38	0	822083584	39	4299
2026-01-26 02:09:38.25	9.68	23.58	-33.7	-35.4	23.2	0.00e+00	0	38	0	827326464	39	4263
2026-01-26 02:09:39.39	9.62	23.75	-33.9	-35.5	23.1	0.00e+00	0	38	0	833617920	39	4330
2026-01-26 02:09:40.24	9.57	23.88	-33.8	-35.5	23.1	0.00e+00	0	38	0	837812224	39	4309
2026-01-26 02:09:41.38	9.50	24.05	-33.9	-35.6	23.1	0.00e+00	0	38	0	844103680	39	4350
2026-01-26 02:09:42.24	9.46	24.18	-34.0	-35.6	23.0	0.00e+00	0	38	0	849346560	39	4366
2026-01-26 02:09:43.52	9.38	24.37	-33.9	-35.6	23.0	0.00e+00	0	38	0	856686592	39	4356
2026-01-26 02:09:44.23	9.34	24.48	-34.0	-35.7	23.0	0.00e+00	0	38	0	860880896	39	4399
2026-01-26 02:09:45.51	9.27	24.67	-34.0	-35.6	23.0	0.00e+00	0	38	0	868220928	39	4388
2026-01-26 02:09:46.23	9.22	24.79	-34.0	-35.6	23.1	0.00e+00	0	38	0	871366656	39	4362
2026-01-26 02:09:47.51	9.15	24.98	-34.1	-35.7	23.0	0.00e+00	0	38	0	878706688	39	4417
2026-01-26 02:09:48.23	9.10	25.10	-34.0	-35.7	23.0	0.00e+00	0	38	0	882900992	39	4410
2026-01-26 02:09:49.50	9.03	25.29	-33.9	-35.5	23.1	0.00e+00	0	38	0	890241024	39	4339
2026-01-26 02:09:50.28	8.98	25.42	-33.9	-35.6	23.1	0.00e+00	0	38	0	894435328	39	4345
2026-01-26 02:09:51.56	8.90	25.62	-33.9	-35.5	23.1	0.00e+00	0	38	0	901775360	39	4333
2026-01-26 02:09:52.28	8.85	25.73	-33.8	-35.5	23.2	0.00e+00	0	38	0	905969664	39	4294
2026-01-26 02:09:53.57	8.77	25.94	-33.8	-35.4	23.2	0.00e+00	0	38	0	913309696	39	4280
2026-01-26 02:09:54.28	8.73	26.06	-33.7	-35.4	23.3	0.00e+00	0	38	0	917504000	39	4251
2026-01-26 02:09:55.56	8.64	26.26	-33.8	-35.4	23.3	0.00e+00	0	38	0	924844032	39	4272
2026-01-26 02:09:56.27	8.60	26.38	-33.6	-35.3	23.4	0.00e+00	0	38	0	927989760	39	4202
2026-01-26 02:09:57.56	8.51	26.59	-33.6	-35.3	23.4	0.00e+00	0	38	0	935329792	39	4197
2026-01-26 02:09:58.27	8.46	26.71	-33.6	-35.2	22.9	0.00e+00	0	38	0	939524096	39	4170
2026-01-26 02:09:59.55	8.38	26.92	-33.6	-35.2	23.4	0.00e+00	0	38	0	946864128	39	4185
2026-01-26 02:10:00.27	8.33	27.04	-33.6	-35.2	23.4	0.00e+00	0	38	0	951058432	39	4193
2026-01-26 02:10:01.54	8.24	27.25	-33.7	-35.3	23.3	0.00e+00	0	38	0	958398464	39	4218
2026-01-26 02:10:02.26	8.19	27.38	-33.7	-35.3	23.3	0.00e+00	0	38	0	961544192	39	4240
2026-01-26 02:10:03.54	8.10	27.59	-33.7	-35.4	23.3	0.00e+00	0	38	0	968884224	39	4252
2026-01-26 02:10:04.26	8.04	27.72	-33.8	-35.5	23.2	0.00e+00	0	38	0	973078528	39	4310
2026-01-26 02:10:05.75	7.94	27.97	-33.8	-35.5	23.2	0.00e+00	0	38	0	981467136	39	4307
2026-01-26 02:10:06.46	7.88	28.10	-33.8	-35.4	23.2	0.00e+00	0	38	0	985661440	39	4280
2026-01-26 02:10:07.74	7.79	28.32	-33.8	-35.5	23.2	0.00e+00	0	38	0	993001472	39	4296
2026-01-26 02:10:08.45	7.73	28.44	-33.9	-35.5	23.2	0.00e+00	0	38	0	997195776	39	4333
2026-01-26 02:10:09.73	7.64	28.67	-33.8	-35.4	23.2	0.00e+00	0	38	0	1003487232	39	4285
2026-01-26 02:10:10.44	7.58	28.79	-33.8	-35.4	23.3	0.00e+00	0	38	0	1007681536	39	4289
2026-01-26 02:10:11.72	7.48	29.02	-33.7	-35.4	23.3	0.00e+00	0	38	0	1015021568	39	4266
2026-01-26 02:10:12.43	7.43	29.15	-33.8	-35.4	23.2	0.00e+00	0	38	0	1019215872	39	4288
2026-01-26 02:10:13.71	7.32	29.38	-33.7	-35.4	23.3	0.00e+00	0	38	0	1026555904	39	4268
2026-01-26 02:10:14.42	7.27	29.51	-33.8	-35.5	23.2	0.00e+00	0	38	0	1030750208	39	4297
2026-01-26 02:10:15.70	7.16	29.74	-33.7	-35.4	23.3	0.00e+00	0	38	0	1038090240	39	4262
2026-01-26 02:10:16.41	7.10	29.87	-33.8	-35.4	23.3	0.00e+00	0	38	0	1041235968	39	4285
2026-01-26 02:10:17.69	7.00	30.11	-33.7	-35.3	23.3	0.00e+00	0	38	0	1048576000	39	4239
2026-01-26 02:10:18.41	6.94	30.25	-33.7	-35.4	23.1	0.00e+00	0	38	0	1052770304	39	4260
2026-01-26 02:10:19.69	6.83	30.48	-33.7	-35.4	23.3	0.00e+00	0	38	0	1060110336	39	4285
2026-01-26 02:10:20.42	6.76	30.62	-33.7	-35.3	23.3	0.00e+00	0	38	0	1064304640	39	4235
2026-01-26 02:10:21.69	6.65	30.86	-33.7	-35.4	23.3	0.00e+00	0	38	0	1071644672	39	4276
2026-01-26 02:10:22.40	6.59	31.00	-33.6	-35.2	23.4	0.00e+00	0	38	0	1075838976	39	4185
2026-01-26 02:10:23.76	6.47	31.26	-33.5	-35.2	23.5	0.00e+00	0	38	0	1083179008	39	4146
2026-01-26 02:10:24.47	6.40	31.40	-33.4	-35.1	23.6	0.00e+00	0	38	0	1087373312	38	4348
2026-01-26 02:10:25.75	6.28	31.65	-33.4	-35.0	23.6	0.00e+00	0	38	0	1094713344	38	4327
2026-01-26 02:10:26.46	6.22	31.78	-33.4	-35.0	23.6	0.00e+00	0	38	0	1097859072	38	4334
2026-01-26 02:10:27.74	6.10	32.04	-33.3	-35.0	23.7	0.00e+00	0	38	0	1105199104	38	4310
2026-01-26 02:10:28.47	6.03	32.18	-33.4	-35.0	23.6	0.00e+00	0	38	0	1109393408	38	4335
2026-01-26 02:10:29.75	5.90	32.44	-33.3	-34.9	23.7	0.00e+00	0	38	0	1116733440	38	4285
2026-01-26 02:10:30.47	5.83	32.58	-33.2	-34.9	23.8	0.00e+00	0	38	0	1120927744	38	4246
2026-01-26 02:10:31.76	5.70	32.84	-33.0	-34.6	24.0	0.00e+00	0	38	0	1128267776	38	4135
2026-01-26 02:10:32.47	5.63	32.98	-33.0	-34.7	24.0	0.00e+00	0	38	0	1131413504	38	4152
2026-01-26 02:10:33.75	5.50	33.25	-32.8	-34.4	24.2	0.00e+00	0	38	0	1138753536	37	4262
2026-01-26 02:10:34.46	5.43	33.39	-32.8	-34.4	24.1	0.00e+00	0	38	0	1142947840	37	4283
2026-01-26 02:10:35.73	5.29	33.65	-32.8	-34.4	24.2	0.00e+00	0	38	0	1150287872	37	4261
2026-01-26 02:10:36.46	5.22	33.81	-32.8	-34.5	24.1	0.00e+00	0	38	0	1154482176	37	4292
2026-01-26 02:10:37.74	5.08	34.07	-33.0	-34.7	24.0	0.00e+00	0	38	0	1161822208	37	4398
2026-01-26 02:10:38.61	4.98	34.26	-33.0	-34.6	24.0	0.00e+00	0	38	0	1166016512	37	4384
2026-01-26 02:10:39.74	4.86	34.50	-33.2	-34.8	23.8	0.00e+00	0	38	0	1173356544	37	4473
2026-01-26 02:10:40.60	4.76	34.68	-33.0	-34.7	23.9	0.00e+00	0	38	0	1177550848	37	4408
2026-01-26 02:10:42.08	4.59	35.00	-32.9	-34.5	24.1	0.00e+00	0	38	0	1185939456	37	4304
2026-01-26 02:10:42.79	4.51	35.15	-32.9	-34.5	24.0	0.00e+00	0	38	0	1190133760	37	4337
2026-01-26 02:10:44.07	4.36	35.43	-32.9	-34.5	24.1	0.00e+00	0	38	0	1197473792	37	4321
2026-01-26 02:10:44.78	4.28	35.59	-32.8	-34.5	24.1	0.00e+00	0	38	0	1200619520	37	4293
2026-01-26 02:10:46.06	4.12	35.87	-32.7	-34.3	24.3	0.00e+00	0	38	0	1207959552	37	4222
2026-01-26 02:10:46.80	4.03	36.03	-32.7	-34.3	24.3	0.00e+00	0	38	0	1212153856	37	4213
2026-01-26 02:10:48.07	3.87	36.32	-32.7	-34.3	24.3	0.00e+00	0	38	0	1219493888	37	4214
2026-01-26 02:10:48.91	3.77	36.51	-32.7	-34.3	24.3	0.00e+00	0	38	0	1224736768	37	4213
2026-01-26 02:10:50.04	3.62	36.76	-32.7	-34.3	23.2	0.00e+00	0	38	0	1231028224	37	4240
2026-01-26 02:10:50.90	3.51	36.96	-32.9	-34.5	24.1	0.00e+00	0	38	0	1235222528	37	4314
2026-01-26 02:10:52.04	3.36	37.22	-33.0	-34.7	23.9	0.00e+00	0	38	0	1241513984	37	4409
2026-01-26 02:10:52.89	3.25	37.42	-33.1	-34.7	23.9	0.00e+00	0	38	0	1246756864	37	4419
2026-01-26 02:10:54.03	3.09	37.68	-33.1	-34.8	23.9	0.00e+00	0	38	0	1253048320	37	4463
2026-01-26 02:10:54.88	2.98	37.88	-33.1	-34.8	23.8	0.00e+00	0	38	0	1258291200	37	4455
2026-01-26 02:10:56.01	2.82	38.14	-33.2	-34.8	23.8	0.00e+00	0	38	0	1264582656	37	4486
2026-01-26 02:10:56.87	2.70	38.35	-33.0	-34.7	24.0	0.00e+00	0	38	0	1268776960	37	4392
2026-01-26 02:10:58.00	2.54	38.62	-33.0	-34.6	24.0	0.00e+00	0	38	0	1276116992	37	4386
2026-01-26 02:10:58.86	2.41	38.82	-33.2	-34.8	23.8	0.00e+00	0	38	0	1280311296	37	4471
2026-01-26 02:10:59.99	2.25	39.09	-33.2	-34.8	23.9	0.00e+00	0	38	0	1286602752	37	4452
2026-01-26 02:11:00.85	2.12	39.30	-33.3	-34.9	23.8	0.00e+00	0	38	0	1291845632	37	4515
2026-01-26 02:11:01.98	1.94	39.58	-33.4	-35.1	23.6	0.00e+00	0	38	0	1298137088	37	4602
2026-01-26 02:11:02.84	1.81	39.79	-33.6	-35.2	23.5	0.00e+00	0	38	0	1302331392	37	4696
2026-01-26 02:11:03.97	1.63	40.07	-33.7	-35.4	23.4	0.00e+00	0	38	0	1308622848	38	4503
2026-01-26 02:11:04.83	1.50	40.28	-33.7	-35.3	23.4	0.00e+00	0	38	0	1313865728	38	4477
2026-01-26 02:11:05.96	1.31	40.56	-33.7	-35.3	23.4	0.00e+00	0	38	0	1320157184	38	4472
2026-01-26 02:11:06.82	1.17	40.78	-33.7	-35.3	23.4	0.00e+00	0	38	0	1325400064	38	4486
2026-01-26 02:11:07.95	0.98	41.06	-33.7	-35.4	23.4	0.00e+00	0	38	0	1331691520	38	4495
2026-01-26 02:11:08.80	0.84	41.28	-33.7	-35.3	23.5	0.00e+00	0	38	0	1335885824	38	4468
2026-01-26 02:11:10.01	0.63	41.59	-33.8	-35.4	23.3	0.00e+00	0	38	0	1343225856	38	4541
2026-01-26 02:11:10.86	0.48	41.81	-33.7	-35.4	23.4	0.00e+00	0	38	0	1347420160	38	4500
2026-01-26 02:11:12.07	0.26	42.12	-33.6	-35.2	23.5	0.00e+00	0	38	0	1354760192	38	4406
2026-01-26 02:11:12.93	0.11	42.34	-33.4	-35.0	23.7	0.00e+00	0	38	0	1358954496	38	4323
2026-01-26 02:11:14.13	359.89	42.66	-33.4	-35.0	23.7	0.00e+00	0	38	0	1366294528	38	4340
2026-01-26 02:11:14.98	359.73	42.88	-33.3	-35.0	23.7	0.00e+00	0	38	0	1370488832	38	4298
2026-01-26 02:11:16.12	359.51	43.18	-33.4	-35.0	23.6	0.00e+00	0	38	0	1377828864	38	4336
2026-01-26 02:11:16.97	359.34	43.41	-33.4	-35.0	23.7	0.00e+00	0	38	0	1382023168	38	4315
2026-01-26 02:11:18.11	359.12	43.71	-33.4	-35.0	23.7	0.00e+00	0	38	0	1388314624	38	4316
2026-01-26 02:11:19.04	358.93	43.96	-33.2	-34.8	23.9	0.00e+00	0	38	0	1393557504	38	4218
2026-01-26 02:11:20.03	358.73	44.23	-33.3	-34.9	23.8	0.00e+00	0	38	0	1399848960	38	4270
2026-01-26 02:11:21.03	358.52	44.50	-33.5	-35.1	23.7	0.00e+00	0	38	0	1405091840	38	4379
2026-01-26 02:11:22.02	358.31	44.77	-33.6	-35.3	23.5	0.00e+00	0	38	0	1410334720	38	4445
2026-01-26 02:11:23.02	358.10	45.05	-33.7	-35.3	23.4	0.00e+00	0	38	0	1416626176	38	4492
2026-01-26 02:11:24.01	357.88	45.32	-33.7	-35.4	23.3	0.00e+00	0	38	0	1421869056	38	4521
2026-01-26 02:11:25.01	357.65	45.60	-33.7	-35.4	23.4	0.00e+00	0	38	0	1427111936	38	4518
2026-01-26 02:11:26.01	357.43	45.88	-33.8	-35.4	23.3	0.00e+00	0	38	0	1433403392	38	4544
2026-01-26 02:11:27.00	357.20	46.16	-33.6	-35.2	23.5	0.00e+00	0	38	0	1438646272	38	4426
2026-01-26 02:11:27.99	356.97	46.44	-33.6	-35.2	23.5	0.00e+00	0	38	0	1443889152	38	4431
2026-01-26 02:11:28.99	356.73	46.72	-33.6	-35.2	23.6	0.00e+00	0	38	0	1450180608	38	4410
2026-01-26 02:11:29.98	356.48	47.00	-33.5	-35.1	23.6	0.00e+00	0	38	0	1455423488	38	4379
2026-01-26 02:11:30.98	356.23	47.29	-33.5	-35.2	23.6	0.00e+00	0	38	0	1460666368	38	4410
2026-01-26 02:11:31.98	355.98	47.58	-33.7	-35.4	23.4	0.00e+00	0	38	0	1466957824	38	4498
2026-01-26 02:11:32.97	355.73	47.86	-33.7	-35.3	23.5	0.00e+00	0	38	0	1472200704	38	4479
2026-01-26 02:11:33.97	355.46	48.15	-33.7	-35.4	23.4	0.00e+00	0	38	0	1477443584	38	4508
2026-01-26 02:11:34.96	355.20	48.44	-33.7	-35.4	23.4	0.00e+00	0	38	0	1483735040	38	4507
2026-01-26 02:11:35.96	354.92	48.73	-33.9	-35.6	23.3	0.00e+00	0	38	0	1488977920	38	4600
2026-01-26 02:11:36.95	354.65	49.03	-33.9	-35.6	23.2	0.00e+00	0	38	0	1494220800	38	4616
2026-01-26 02:11:37.95	354.36	49.32	-34.2	-35.8	23.0	0.00e+00	0	38	0	1500512256	39	4493
2026-01-26 02:11:38.94	354.08	49.61	-34.3	-36.0	22.9	0.00e+00	0	38	0	1505755136	39	4554
2026-01-26 02:11:39.93	353.78	49.91	-34.5	-36.1	22.7	0.00e+00	0	38	0	1510998016	39	4633
2026-01-26 02:11:40.93	353.48	50.21	-34.6	-36.3	22.6	0.00e+00	0	38	0	1517289472	39	4711
2026-01-26 02:11:41.92	353.18	50.50	-34.7	-36.4	22.5	0.00e+00	0	38	0	1522532352	39	4762
2026-01-26 02:11:42.92	352.87	50.80	-34.5	-36.2	22.6	0.00e+00	0	38	0	1527775232	40	4421
2026-01-26 02:11:43.93	352.54	51.11	-34.5	-36.2	22.6	0.00e+00	0	38	0	1534066688	40	4425
2026-01-26 02:11:44.96	352.21	51.42	-34.7	-36.4	22.4	0.00e+00	0	38	0	1539309568	40	4518
2026-01-26 02:11:45.98	351.87	51.73	-34.8	-36.5	22.3	0.00e+00	0	38	0	1545601024	40	4548
2026-01-26 02:11:46.98	351.52	52.04	-34.7	-36.3	22.5	0.00e+00	0	38	0	1550843904	40	4477
2026-01-26 02:11:47.98	351.18	52.34	-34.4	-36.1	22.7	0.00e+00	0	38	0	1556086784	40	4360
2026-01-26 02:11:48.97	350.83	52.64	-34.3	-35.9	22.8	0.00e+00	0	38	0	1562378240	40	4280
2026-01-26 02:11:49.97	350.46	52.95	-34.4	-36.0	22.8	0.00e+00	0	38	0	1567621120	40	4324
2026-01-26 02:11:50.96	350.10	53.26	-34.6	-36.3	22.5	0.00e+00	0	38	0	1573912576	40	4442
2026-01-26 02:11:51.96	349.72	53.56	-34.5	-36.1	22.7	0.00e+00	0	38	0	1579155456	40	4383
2026-01-26 02:11:52.95	349.33	53.87	-34.4	-36.1	22.7	0.00e+00	0	38	0	1584398336	40	4363
2026-01-26 02:11:53.95	348.94	54.18	-34.4	-36.0	22.8	0.00e+00	0	38	0	1590689792	40	4321
2026-01-26 02:11:54.94	348.54	54.49	-34.3	-36.0	22.8	0.00e+00	0	38	0	1595932672	40	4300
2026-01-26 02:11:55.93	348.13	54.79	-34.4	-36.0	22.7	0.00e+00	0	38	0	1601175552	40	4319
2026-01-26 02:11:56.93	347.71	55.10	-34.4	-36.0	22.7	0.00e+00	0	38	0	1607467008	40	4331
2026-01-26 02:11:57.92	347.28	55.41	-34.3	-36.0	22.3	0.00e+00	0	38	0	1612709888	40	4317
2026-01-26 02:11:58.95	346.83	55.73	-34.3	-36.0	22.3	0.00e+00	0	38	0	1617952768	40	4333
2026-01-26 02:11:59.99	346.36	56.06	-34.0	-35.7	22.5	0.00e+00	0	38	0	1624244224	40	4179
2026-01-26 02:12:00.94	345.92	56.35	-33.8	-35.5	22.7	0.00e+00	0	38	0	1629487104	39	4338
2026-01-26 02:12:01.94	345.45	56.66	-33.8	-35.5	22.8	0.00e+00	0	38	0	1634729984	39	4321
2026-01-26 02:12:02.93	344.97	56.97	-33.7	-35.5	22.8	0.00e+00	0	38	0	1641021440	39	4308
2026-01-26 02:12:03.92	344.48	57.28	-33.9	-35.6	22.7	0.00e+00	0	38	0	1646264320	39	4366
2026-01-26 02:12:04.92	343.98	57.59	-33.8	-35.5	22.8	0.00e+00	0	38	0	1651507200	39	4320
2026-01-26 02:12:05.91	343.47	57.89	-33.7	-35.5	22.8	0.00e+00	0	38	0	1657798656	39	4296
2026-01-26 02:12:06.91	342.94	58.20	-33.8	-35.5	22.9	0.00e+00	0	38	0	1663041536	39	4304
2026-01-26 02:12:07.91	342.40	58.51	-33.9	-35.6	22.7	0.00e+00	0	38	0	1669332992	39	4389
2026-01-26 02:12:08.90	341.85	58.82	-33.9	-35.6	22.7	0.00e+00	0	38	0	1674575872	39	4388
2026-01-26 02:12:09.90	341.28	59.12	-33.9	-35.7	22.7	0.00e+00	0	38	0	1679818752	39	4396
2026-01-26 02:12:10.89	340.71	59.42	-33.8	-35.5	22.9	0.00e+00	0	38	0	1686110208	39	4304
2026-01-26 02:12:11.97	340.07	59.75	-33.5	-35.2	23.1	0.00e+00	0	38	0	1691353088	39	4165
2026-01-26 02:12:12.86	339.53	60.02	-33.7	-35.4	22.9	0.00e+00	0	38	0	1696595968	38	4531
2026-01-26 02:12:13.99	338.82	60.36	-34.1	-35.8	22.5	0.00e+00	0	38	0	1702887424	38	4749
2026-01-26 02:12:14.85	338.27	60.62	-33.9	-35.6	22.7	0.00e+00	0	38	0	1708130304	38	4629
2026-01-26 02:12:15.98	337.54	60.96	-33.9	-35.6	22.8	0.00e+00	0	38	0	1714421760	38	4612
2026-01-26 02:12:16.84	336.96	61.21	-33.6	-35.3	23.1	0.00e+00	0	38	0	1718616064	38	4452
2026-01-26 02:12:17.98	336.18	61.55	-33.2	-34.8	23.4	0.00e+00	0	38	0	1724907520	38	4233
2026-01-26 02:12:18.83	335.58	61.79	-33.2	-34.9	23.4	0.00e+00	0	38	0	1730150400	38	4248
2026-01-26 02:12:19.97	334.77	62.12	-33.3	-35.0	23.2	0.00e+00	0	38	0	1736441856	38	4317
2026-01-26 02:12:20.82	334.14	62.37	-33.3	-35.0	23.2	0.00e+00	0	38	0	1741684736	38	4334
2026-01-26 02:12:21.96	333.28	62.69	-33.2	-34.8	23.4	0.00e+00	0	38	0	1747976192	38	4233
2026-01-26 02:12:22.81	332.63	62.93	-33.1	-34.8	23.4	0.00e+00	0	38	0	1752170496	38	4203
2026-01-26 02:12:23.94	331.74	63.24	-32.9	-34.6	23.5	0.00e+00	0	38	0	1759510528	37	4342
2026-01-26 02:12:24.80	331.04	63.47	-33.0	-34.7	23.4	0.00e+00	0	38	0	1763704832	37	4420
2026-01-26 02:12:26.03	330.03	63.80	-32.7	-34.4	23.6	0.00e+00	0	38	0	1771044864	37	4281
2026-01-26 02:12:26.88	329.31	64.03	-32.6	-34.2	23.8	0.00e+00	0	38	0	1775239168	37	4193
2026-01-26 02:12:28.02	328.32	64.33	-32.6	-34.2	23.8	0.00e+00	0	38	0	1781530624	37	4190
2026-01-26 02:12:28.87	327.57	64.54	-32.8	-34.5	23.6	0.00e+00	0	38	0	1786773504	37	4319
2026-01-26 02:12:30.12	326.44	64.86	-32.7	-34.4	23.7	0.00e+00	0	38	0	1794113536	37	4247
2026-01-26 02:12:30.98	325.64	65.07	-32.7	-34.3	23.8	0.00e+00	0	38	0	1798307840	37	4242
2026-01-26 02:12:32.11	324.57	65.34	-32.7	-34.3	23.9	0.00e+00	0	38	0	1804599296	37	4238
2026-01-26 02:12:32.96	323.74	65.54	-32.5	-34.2	23.9	0.00e+00	0	38	0	1809842176	37	4170
2026-01-26 02:12:34.10	322.61	65.80	-31.2	-32.9	24.1	0.00e+00	0	38	0	1816133632	34	4254
2026-01-26 02:12:35.05	321.65	66.02	-31.5	-33.1	23.9	0.00e+00	0	38	0	1821376512	34	4388
2026-01-26 02:12:36.04	320.63	66.23	-31.8	-33.5	23.4	0.00e+00	0	38	0	1827667968	34	4591
2026-01-26 02:12:37.04	319.58	66.44	-31.8	-33.5	23.3	0.00e+00	0	38	0	1832910848	34	4597
2026-01-26 02:12:38.03	318.52	66.64	-31.7	-33.4	23.5	0.00e+00	0	38	0	1838153728	34	4501
2026-01-26 02:12:39.03	317.43	66.84	-31.7	-33.4	23.5	0.00e+00	0	38	0	1843396608	34	4528
2026-01-26 02:12:40.02	316.32	67.03	-31.5	-33.1	23.8	0.00e+00	0	38	0	1849688064	34	4377
2026-01-26 02:12:41.02	315.19	67.21	-31.4	-33.0	23.8	0.00e+00	0	38	0	1854930944	34	4331
2026-01-26 02:12:42.01	314.05	67.38	-31.5	-33.2	23.7	0.00e+00	0	38	0	1860173824	34	4395
2026-01-26 02:12:43.01	312.88	67.55	-31.5	-33.2	23.7	0.00e+00	0	38	0	1866465280	34	4423
2026-01-26 02:12:44.00	311.70	67.70	-31.6	-33.2	23.7	0.00e+00	0	38	0	1871708160	34	4435
2026-01-26 02:12:45.00	310.49	67.85	-31.5	-33.2	23.8	0.00e+00	0	38	0	1877999616	34	4404
2026-01-26 02:12:46.00	309.27	67.99	-31.6	-33.3	23.7	0.00e+00	0	38	0	1883242496	34	4451
2026-01-26 02:12:46.99	308.04	68.12	-31.5	-33.2	23.7	0.00e+00	0	38	0	1888485376	34	4429
2026-01-26 02:12:47.99	306.79	68.24	-31.6	-33.3	23.6	0.00e+00	0	38	0	1893728256	34	4476
2026-01-26 02:12:48.98	305.53	68.35	-31.7	-33.4	23.5	0.00e+00	0	38	0	1900019712	34	4515
2026-01-26 02:12:49.98	304.24	68.45	-31.6	-33.3	23.6	0.00e+00	0	38	0	1905262592	34	4467
2026-01-26 02:12:50.98	302.94	68.54	-31.4	-33.1	23.8	0.00e+00	0	38	0	1910505472	34	4376
2026-01-26 02:12:51.97	301.65	68.62	-31.5	-33.1	23.8	0.00e+00	0	38	0	1916796928	34	4388
2026-01-26 02:12:52.96	300.34	68.69	-31.5	-33.2	23.8	0.00e+00	0	38	0	1922039808	34	4421
2026-01-26 02:12:53.96	299.02	68.75	-31.2	-32.9	24.0	0.00e+00	0	38	0	1928331264	34	4270
2026-01-26 02:12:54.95	297.69	68.80	-31.2	-32.9	24.0	0.00e+00	0	38	0	1933574144	34	4274
2026-01-26 02:12:55.95	296.35	68.84	-31.4	-33.1	23.8	0.00e+00	0	38	0	1938817024	34	4342
2026-01-26 02:12:56.94	295.02	68.87	-31.4	-33.1	23.7	0.00e+00	0	38	0	1945108480	34	4380
2026-01-26 02:12:57.94	293.67	68.89	-31.5	-33.2	23.7	0.00e+00	0	38	0	1950351360	34	4393
2026-01-26 02:12:58.93	292.34	68.89	-31.4	-33.0	23.8	0.00e+00	0	38	0	1955594240	34	4324
2026-01-26 02:12:59.99	290.90	68.89	-31.5	-33.2	23.6	0.00e+00	0	38	0	1961885696	34	4441
2026-01-26 02:13:00.86	289.73	68.88	-31.5	-33.2	23.6	0.00e+00	0	38	0	1967128576	34	4427
2026-01-26 02:13:02.00	288.19	68.85	-31.5	-33.1	23.7	0.00e+00	0	38	0	1973420032	34	4388
2026-01-26 02:13:02.85	287.05	68.82	-31.3	-33.0	23.8	0.00e+00	0	38	0	1977614336	34	4315
2026-01-26 02:13:03.99	285.53	68.76	-31.4	-33.1	23.8	0.00e+00	0	38	0	1983905792	34	4374
2026-01-26 02:13:04.84	284.40	68.71	-31.5	-33.2	23.7	0.00e+00	0	38	0	1989148672	34	4433
2026-01-26 02:13:05.98	282.89	68.63	-31.4	-33.1	23.9	0.00e+00	0	38	0	1995440128	34	4346
2026-01-26 02:13:06.83	281.78	68.57	-31.3	-33.0	24.0	0.00e+00	0	38	0	1999634432	34	4302
2026-01-26 02:13:07.97	280.29	68.47	-31.5	-33.2	23.8	0.00e+00	0	38	0	2006974464	34	4394
2026-01-26 02:13:08.82	279.20	68.38	-31.5	-33.1	23.7	0.00e+00	0	38	0	2011168768	34	4380
2026-01-26 02:13:09.96	277.75	68.26	-31.3	-33.0	23.8	0.00e+00	0	38	0	2017460224	34	4294
2026-01-26 02:13:10.81	276.67	68.16	-31.3	-33.0	23.8	0.00e+00	0	38	0	2022703104	34	4329
2026-01-26 02:13:12.02	275.17	68.00	-31.4	-33.1	23.8	0.00e+00	0	38	0	2028994560	34	4353
2026-01-26 02:13:12.87	274.12	67.88	-31.2	-32.9	24.0	0.00e+00	0	38	0	2034237440	34	4250
2026-01-26 02:13:14.12	272.61	67.70	-31.3	-33.0	24.0	0.00e+00	0	38	0	2041577472	34	4301
2026-01-26 02:13:14.97	271.60	67.57	-31.3	-33.0	23.9	0.00e+00	0	38	0	2045771776	34	4301
2026-01-26 02:13:16.14	270.23	67.37	-31.5	-33.2	23.7	0.00e+00	0	38	0	2053111808	34	4427
2026-01-26 02:13:17.00	269.23	67.22	-31.5	-33.2	23.7	0.00e+00	0	38	0	2057306112	34	4408
2026-01-26 02:13:18.13	267.95	67.02	-31.4	-33.1	23.8	0.00e+00	0	38	0	2063597568	34	4343
2026-01-26 02:13:18.99	266.99	66.86	-31.7	-33.4	23.5	0.00e+00	0	38	0	2068840448	34	4508
2026-01-26 02:13:20.13	265.75	66.63	-31.7	-33.4	23.6	0.00e+00	0	38	0	2075131904	34	4520
2026-01-26 02:13:20.98	264.83	66.46	-31.6	-33.3	23.6	0.00e+00	0	38	0	2079326208	34	4482
2026-01-26 02:13:22.12	263.63	66.22	-31.6	-33.3	23.7	0.00e+00	0	38	0	2086666240	34	4451
2026-01-26 02:13:22.97	262.75	66.03	-31.8	-33.5	23.5	0.00e+00	0	38	0	2090860544	34	4574
2026-01-26 02:13:24.10	261.61	65.78	-31.6	-33.3	23.7	0.00e+00	0	38	0	2097152000	34	4470
2026-01-26 02:13:24.96	260.76	65.58	-31.5	-33.2	23.8	0.00e+00	0	38	0	2102394880	34	4411
2026-01-26 02:13:26.09	259.66	65.32	-31.5	-33.2	23.8	0.00e+00	0	38	0	2108686336	34	4406
2026-01-26 02:13:26.95	258.84	65.11	-31.6	-33.3	23.7	0.00e+00	0	38	0	2113929216	34	4445
2026-01-26 02:13:28.08	257.79	64.83	-31.6	-33.3	23.6	0.00e+00	0	38	0	2119172096	34	4487
2026-01-26 02:13:29.22	256.76	64.54	-31.5	-33.1	23.8	0.00e+00	0	38	0	2126512128	34	4388
2026-01-26 02:13:30.24	255.85	64.28	-31.6	-33.3	23.8	0.00e+00	0	38	0	2131755008	34	4452
2026-01-26 02:13:31.24	254.99	64.02	-31.7	-33.4	23.7	0.00e+00	0	38	0	2136997888	34	4509
2026-01-26 02:13:32.23	254.15	63.76	-31.9	-33.6	23.5	0.00e+00	0	38	0	2143289344	34	4625
2026-01-26 02:13:33.23	253.32	63.49	-32.1	-33.8	23.2	0.00e+00	0	38	0	2148532224	34	4755
2026-01-26 02:13:34.22	252.52	63.22	-32.1	-33.8	23.2	0.00e+00	0	38	0	2153775104	34	4745
2026-01-26 02:13:35.22	251.73	62.94	-32.1	-33.8	23.2	0.00e+00	0	38	0	2160066560	35	4492
2026-01-26 02:13:36.53	250.73	62.57	-32.2	-33.9	23.2	0.00e+00	0	38	0	2167406592	35	4523
2026-01-26 02:13:37.24	250.20	62.37	-32.3	-34.0	23.2	0.00e+00	0	38	0	2171600896	35	4563
2026-01-26 02:13:38.52	249.26	62.00	-32.1	-33.7	23.4	0.00e+00	0	38	0	2178940928	35	4425
2026-01-26 02:13:39.23	248.75	61.80	-32.0	-33.7	23.4	0.00e+00	0	38	0	2182086656	35	4396
2026-01-26 02:13:40.52	247.85	61.42	-32.2	-33.9	23.3	0.00e+00	0	38	0	2189426688	35	4495
2026-01-26 02:13:41.24	247.35	61.21	-32.1	-33.7	23.4	0.00e+00	0	38	0	2193620992	35	4431
2026-01-26 02:13:42.51	246.51	60.83	-32.2	-33.9	23.3	0.00e+00	0	38	0	2200961024	35	4496
2026-01-26 02:13:43.23	246.04	60.62	-32.5	-34.1	23.1	0.00e+00	0	38	0	2205155328	35	4646
2026-01-26 02:13:44.53	245.21	60.22	-33.8	-35.5	22.8	0.00e+00	0	38	0	2212495360	38	4586
2026-01-26 02:13:45.25	244.77	60.01	-33.8	-35.6	22.7	0.00e+00	0	38	0	2216689664	38	4609
2026-01-26 02:13:46.59	243.95	59.60	-33.6	-35.4	22.9	0.00e+00	0	38	0	2224029696	38	4498
2026-01-26 02:13:47.30	243.53	59.38	-33.6	-35.3	22.9	0.00e+00	0	38	0	2228224000	38	4482
2026-01-26 02:13:48.64	242.76	58.97	-33.8	-35.5	22.8	0.00e+00	0	38	0	2235564032	38	4593
2026-01-26 02:13:49.35	242.36	58.75	-33.9	-35.7	22.7	0.00e+00	0	38	0	2239758336	38	4668
2026-01-26 02:13:50.63	241.65	58.36	-33.8	-35.5	22.8	0.00e+00	0	38	0	2246049792	38	4594
2026-01-26 02:13:51.34	241.27	58.14	-33.4	-35.1	23.2	0.00e+00	0	38	0	2250244096	38	4360
2026-01-26 02:13:52.75	240.53	57.70	-33.5	-35.1	23.2	0.00e+00	0	38	0	2258632704	38	4382
2026-01-26 02:13:53.46	240.17	57.48	-33.5	-35.2	23.1	0.00e+00	0	38	0	2262827008	38	4424
2026-01-26 02:13:54.74	239.53	57.08	-33.6	-35.3	23.0	0.00e+00	0	38	0	2269118464	38	4467
2026-01-26 02:13:55.46	239.17	56.86	-33.6	-35.3	23.0	0.00e+00	0	38	0	2273312768	38	4446
2026-01-26 02:13:56.74	238.56	56.46	-33.7	-35.4	22.9	0.00e+00	0	38	0	2280652800	38	4518
2026-01-26 02:13:57.46	238.23	56.23	-33.9	-35.6	22.7	0.00e+00	0	38	0	2284847104	38	4622
2026-01-26 02:13:58.73	237.64	55.84	-33.9	-35.6	22.7	0.00e+00	0	38	0	2292187136	38	4649
2026-01-26 02:13:59.45	237.32	55.61	-34.0	-35.7	22.6	0.00e+00	0	38	0	2296381440	38	4689
2026-01-26 02:14:00.73	236.76	55.21	-34.0	-35.7	22.7	0.00e+00	0	38	0	2303721472	38	4670
2026-01-26 02:14:01.47	236.45	54.98	-33.8	-35.5	22.8	0.00e+00	0	38	0	2307915776	38	4598
2026-01-26 02:14:02.74	235.91	54.59	-33.9	-35.6	22.9	0.00e+00	0	38	0	2315255808	38	4607
2026-01-26 02:14:03.50	235.60	54.35	-33.8	-35.6	22.9	0.00e+00	0	38	0	2319450112	38	4603
2026-01-26 02:14:04.78	235.09	53.95	-33.9	-35.6	22.8	0.00e+00	0	38	0	2325741568	38	4630
2026-01-26 02:14:05.57	234.78	53.71	-34.0	-35.8	22.7	0.00e+00	0	38	0	2330984448	38	4722
2026-01-26 02:14:06.74	234.33	53.35	-34.0	-35.7	22.7	0.00e+00	0	38	0	2337275904	38	4694
2026-01-26 02:14:07.60	234.01	53.08	-34.2	-35.9	22.5	0.00e+00	0	38	0	2342518784	38	4794
2026-01-26 02:14:08.73	233.60	52.73	-34.2	-36.0	22.4	0.00e+00	0	38	0	2348810240	39	4546
2026-01-26 02:14:09.58	233.29	52.47	-34.1	-35.8	22.6	0.00e+00	0	38	0	2353004544	39	4462
2026-01-26 02:14:10.72	232.89	52.12	-34.0	-35.6	22.7	0.00e+00	0	38	0	2359296000	39	4389
2026-01-26 02:14:11.57	232.60	51.86	-34.0	-35.7	22.7	0.00e+00	0	38	0	2364538880	39	4414
2026-01-26 02:14:12.71	232.21	51.51	-34.2	-36.0	22.4	0.00e+00	0	38	0	2370830336	39	4552
2026-01-26 02:14:13.56	231.93	51.25	-34.3	-36.1	22.3	0.00e+00	0	38	0	2376073216	39	4611
2026-01-26 02:14:14.70	231.56	50.91	-34.1	-35.8	22.4	0.00e+00	0	38	0	2382364672	39	4492
2026-01-26 02:14:15.55	231.29	50.65	-33.9	-35.6	22.6	0.00e+00	0	38	0	2386558976	39	4362
2026-01-26 02:14:16.69	230.94	50.31	-33.8	-35.5	22.8	0.00e+00	0	38	0	2392850432	39	4326
2026-01-26 02:14:17.54	230.68	50.05	-33.9	-35.6	22.8	0.00e+00	0	38	0	2398093312	39	4345
2026-01-26 02:14:18.68	230.34	49.71	-33.5	-35.2	23.1	0.00e+00	0	38	0	2404384768	39	4153
2026-01-26 02:14:19.53	230.09	49.46	-33.5	-35.1	23.1	0.00e+00	0	38	0	2408579072	38	4384
2026-01-26 02:14:20.67	229.76	49.12	-33.7	-35.3	22.9	0.00e+00	0	38	0	2415919104	38	4490
2026-01-26 02:14:21.61	229.49	48.84	-33.7	-35.4	22.9	0.00e+00	0	38	0	2421161984	38	4518
2026-01-26 02:14:22.78	229.17	48.50	-33.6	-35.4	22.9	0.00e+00	0	38	0	2427453440	38	4511
2026-01-26 02:14:23.64	228.94	48.25	-33.5	-35.3	23.0	0.00e+00	0	38	0	2431647744	38	4454
2026-01-26 02:14:24.78	228.63	47.91	-33.4	-35.1	23.1	0.00e+00	0	38	0	2438987776	38	4353
2026-01-26 02:14:25.63	228.41	47.67	-33.4	-35.1	23.1	0.00e+00	0	38	0	2443182080	38	4344
2026-01-26 02:14:26.77	228.12	47.34	-33.2	-34.9	23.3	0.00e+00	0	38	0	2449473536	38	4265
2026-01-26 02:14:27.62	227.91	47.09	-33.2	-34.9	23.2	0.00e+00	0	38	0	2454716416	38	4289
2026-01-26 02:14:28.76	227.63	46.77	-32.9	-34.7	23.5	0.00e+00	0	38	0	2461007872	37	4392
2026-01-26 02:14:29.61	227.42	46.52	-32.8	-34.5	23.6	0.00e+00	0	38	0	2466250752	37	4298
2026-01-26 02:14:30.75	227.15	46.20	-32.8	-34.5	23.6	0.00e+00	0	38	0	2472542208	37	4299
2026-01-26 02:14:31.60	226.95	45.96	-32.6	-34.3	23.8	0.00e+00	0	38	0	2476736512	37	4194
2026-01-26 02:14:32.74	226.69	45.64	-32.9	-34.6	23.5	0.00e+00	0	38	0	2484076544	37	4347
2026-01-26 02:14:33.60	226.49	45.40	-33.1	-34.8	23.3	0.00e+00	0	38	0	2488270848	37	4469
2026-01-26 02:14:34.73	226.24	45.09	-33.2	-34.9	23.2	0.00e+00	0	38	0	2494562304	37	4534
2026-01-26 02:14:35.58	226.06	44.85	-33.2	-34.9	23.2	0.00e+00	0	38	0	2499805184	37	4525
2026-01-26 02:14:36.72	225.82	44.54	-33.3	-35.0	23.2	0.00e+00	0	38	0	2506096640	37	4556
2026-01-26 02:14:37.57	225.64	44.30	-33.3	-35.0	23.2	0.00e+00	0	38	0	2510290944	37	4563
2026-01-26 02:14:38.71	225.40	43.99	-33.1	-34.8	23.3	0.00e+00	0	38	0	2516582400	37	4477
2026-01-26 02:14:39.57	225.23	43.76	-33.2	-34.9	23.3	0.00e+00	0	38	0	2521825280	37	4502
2026-01-26 02:14:40.70	225.00	43.46	-33.2	-34.9	23.2	0.00e+00	0	38	0	2528116736	37	4545
2026-01-26 02:14:41.73	224.80	43.18	-33.1	-34.8	23.2	0.00e+00	0	38	0	2534408192	37	4479
2026-01-26 02:14:42.72	224.61	42.92	-33.0	-34.7	23.3	0.00e+00	0	38	0	2539651072	37	4431
2026-01-26 02:14:43.72	224.42	42.65	-33.0	-34.7	23.4	0.00e+00	0	38	0	2544893952	37	4419
2026-01-26 02:14:44.71	224.23	42.39	-33.0	-34.7	23.4	0.00e+00	0	38	0	2551185408	37	4416
2026-01-26 02:14:45.71	224.05	42.13	-33.0	-34.7	23.4	0.00e+00	0	38	0	2556428288	37	4403
2026-01-26 02:14:46.70	223.87	41.87	-33.0	-34.7	23.4	0.00e+00	0	38	0	2561671168	37	4400
2026-01-26 02:14:47.70	223.70	41.61	-32.8	-34.5	23.5	0.00e+00	0	38	0	2567962624	37	4320
2026-01-26 02:14:48.69	223.52	41.36	-32.5	-34.2	23.7	0.00e+00	0	38	0	2573205504	37	4171
2026-01-26 02:14:49.69	223.35	41.10	-32.5	-34.2	23.8	0.00e+00	0	38	0	2578448384	37	4170
2026-01-26 02:14:50.69	223.18	40.85	-32.6	-34.3	23.7	0.00e+00	0	38	0	2584739840	37	4221
2026-01-26 02:14:51.68	223.02	40.60	-32.7	-34.4	23.6	0.00e+00	0	38	0	2589982720	37	4270
2026-01-26 02:14:52.68	222.85	40.35	-32.8	-34.5	23.4	0.00e+00	0	38	0	2595225600	37	4336
2026-01-26 02:14:53.67	222.69	40.10	-32.8	-34.5	23.4	0.00e+00	0	38	0	2601517056	37	4304
2026-01-26 02:14:54.67	222.53	39.85	-32.8	-34.5	23.4	0.00e+00	0	38	0	2606759936	37	4337
2026-01-26 02:14:55.66	222.38	39.61	-32.8	-34.5	23.4	0.00e+00	0	38	0	2612002816	37	4330
2026-01-26 02:14:56.75	222.21	39.34	-32.8	-34.5	23.3	0.00e+00	0	38	0	2618294272	37	4339
2026-01-26 02:14:57.62	222.08	39.13	-33.0	-34.7	23.2	0.00e+00	0	38	0	2623537152	37	4399
2026-01-26 02:14:58.93	221.88	38.81	-33.0	-34.7	23.2	0.00e+00	0	38	0	2630877184	37	4429
2026-01-26 02:14:59.64	221.78	38.64	-32.9	-34.7	23.3	0.00e+00	0	38	0	2635071488	37	4403
2026-01-26 02:15:01.13	221.56	38.29	-32.8	-34.5	23.4	0.00e+00	0	38	0	2643460096	37	4317
2026-01-26 02:15:01.84	221.46	38.12	-32.7	-34.4	23.4	0.00e+00	0	38	0	2646605824	37	4272
2026-01-26 02:15:03.12	221.28	37.82	-32.6	-34.3	23.5	0.00e+00	0	38	0	2653945856	37	4227
2026-01-26 02:15:03.83	221.19	37.65	-32.6	-34.3	23.6	0.00e+00	0	38	0	2658140160	37	4232
2026-01-26 02:15:05.25	220.99	37.32	-32.6	-34.3	23.6	0.00e+00	0	38	0	2666528768	37	4208
2026-01-26 02:15:05.96	220.90	37.15	-32.6	-34.3	23.6	0.00e+00	0	38	0	2670723072	37	4195
2026-01-26 02:15:07.24	220.73	36.86	-32.7	-34.4	23.5	0.00e+00	0	38	0	2678063104	37	4250
2026-01-26 02:15:07.97	220.63	36.69	-32.5	-34.2	23.6	0.00e+00	0	38	0	2681208832	37	4169
2026-01-26 02:15:09.25	220.47	36.40	-32.5	-34.2	23.6	0.00e+00	0	38	0	2688548864	36	4392
2026-01-26 02:15:09.96	220.38	36.24	-32.5	-34.2	23.6	0.00e+00	0	38	0	2692743168	36	4396
2026-01-26 02:15:11.24	220.22	35.96	-32.5	-34.1	23.6	0.00e+00	0	38	0	2700083200	36	4381
2026-01-26 02:15:11.95	220.13	35.80	-32.5	-34.2	23.6	0.00e+00	0	38	0	2704277504	36	4405
2026-01-26 02:15:13.23	219.98	35.51	-32.7	-34.4	23.5	0.00e+00	0	38	0	2711617536	36	4497
2026-01-26 02:15:14.01	219.89	35.34	-32.7	-34.4	23.5	0.00e+00	0	38	0	2715811840	36	4503
2026-01-26 02:15:15.20	219.75	35.08	-32.8	-34.5	23.4	0.00e+00	0	38	0	2722103296	36	4563
2026-01-26 02:15:16.05	219.65	34.90	-32.9	-34.6	23.3	0.00e+00	0	38	0	2727346176	36	4604
2026-01-26 02:15:17.19	219.52	34.65	-32.7	-34.4	23.5	0.00e+00	0	38	0	2733637632	36	4515
2026-01-26 02:15:18.05	219.42	34.47	-32.7	-34.4	23.5	0.00e+00	0	38	0	2738880512	36	4514
2026-01-26 02:15:19.18	219.29	34.22	-32.7	-34.4	23.5	0.00e+00	0	38	0	2744123392	36	4522
2026-01-26 02:15:20.03	219.20	34.04	-32.8	-34.5	23.5	0.00e+00	0	38	0	2749366272	36	4555
2026-01-26 02:15:21.17	219.07	33.80	-32.8	-34.5	23.5	0.00e+00	0	38	0	2755657728	36	4568
2026-01-26 02:15:22.02	218.98	33.63	-32.7	-34.4	23.5	0.00e+00	0	38	0	2760900608	36	4530
2026-01-26 02:15:23.16	218.86	33.39	-32.7	-34.4	23.5	0.00e+00	0	38	0	2767192064	36	4528
2026-01-26 02:15:24.01	218.77	33.21	-32.7	-34.5	23.4	0.00e+00	0	38	0	2771386368	36	4549
2026-01-26 02:15:25.15	218.66	32.98	-32.8	-34.5	23.4	0.00e+00	0	38	0	2778726400	36	4598
2026-01-26 02:15:26.00	218.57	32.81	-32.9	-34.7	23.3	0.00e+00	0	38	0	2782920704	36	4658
2026-01-26 02:15:27.14	218.45	32.57	-32.8	-34.6	23.3	0.00e+00	0	38	0	2789212160	36	4605
2026-01-26 02:15:28.05	218.36	32.39	-32.8	-34.5	23.3	0.00e+00	0	38	0	2794455040	36	4581
2026-01-26 02:15:29.05	218.27	32.19	-32.9	-34.6	23.3	0.00e+00	0	38	0	2800746496	36	4614
2026-01-26 02:15:30.04	218.17	31.99	-32.9	-34.6	23.3	0.00e+00	0	38	0	2805989376	36	4636
2026-01-26 02:15:31.04	218.07	31.79	-32.9	-34.6	23.3	0.00e+00	0	38	0	2811232256	36	4618
2026-01-26 02:15:32.03	217.98	31.60	-33.0	-34.7	23.2	0.00e+00	0	39	0	2816475136	36	4653
2026-01-26 02:15:33.03	217.89	31.40	-33.0	-34.6	23.2	0.00e+00	0	38	0	2822766592	36	4649
2026-01-26 02:15:34.03	217.80	31.21	-33.0	-34.6	23.2	0.00e+00	0	38	0	2828009472	36	4647
2026-01-26 02:15:35.02	217.70	31.02	-33.0	-34.7	23.2	0.00e+00	0	38	0	2833252352	36	4657
2026-01-26 02:15:36.02	217.61	30.83	-32.9	-34.6	23.3	0.00e+00	0	38	0	2839543808	36	4630
2026-01-26 02:15:37.01	217.53	30.64	-33.0	-34.7	23.3	0.00e+00	0	38	0	2844786688	36	4663
2026-01-26 02:15:38.01	217.44	30.45	-33.0	-34.7	23.2	0.00e+00	0	38	0	2851078144	36	4698
2026-01-26 02:15:39.00	217.35	30.26	-33.1	-34.8	23.2	0.00e+00	0	38	0	2856321024	36	4708
2026-01-26 02:15:40.00	217.27	30.07	-33.0	-34.7	23.2	0.00e+00	0	38	0	2861563904	36	4660
2026-01-26 02:15:41.00	217.18	29.89	-33.1	-34.8	23.2	0.00e+00	0	38	0	2867855360	36	4720
2026-01-26 02:15:41.99	217.10	29.70	-33.0	-34.8	23.2	0.00e+00	0	38	0	2873098240	36	4711
2026-01-26 02:15:42.99	217.02	29.52	-33.2	-34.9	23.0	0.00e+00	0	38	0	2878341120	36	4780
2026-01-26 02:15:43.98	216.94	29.34	-33.1	-34.9	23.1	0.00e+00	0	38	0	2883584000	37	4497
2026-01-26 02:15:44.98	216.86	29.16	-33.2	-35.0	23.0	0.00e+00	0	38	0	2889875456	37	4554
2026-01-26 02:15:45.98	216.78	28.98	-33.3	-35.1	22.9	0.00e+00	0	38	0	2895118336	37	4604
2026-01-26 02:15:46.97	216.70	28.80	-33.4	-35.1	22.8	0.00e+00	0	38	0	2901409792	37	4651
2026-01-26 02:15:47.96	216.62	28.62	-33.4	-35.2	22.8	0.00e+00	0	38	0	2906652672	37	4658
2026-01-26 02:15:48.96	216.54	28.45	-33.4	-35.2	22.7	0.00e+00	0	38	0	2911895552	37	4660
2026-01-26 02:15:49.95	216.47	28.27	-33.5	-35.3	22.6	0.00e+00	0	38	0	2918187008	37	4709
2026-01-26 02:15:50.95	216.39	28.10	-33.4	-35.2	22.7	0.00e+00	0	38	0	2923429888	37	4662
2026-01-26 02:15:51.97	216.32	27.92	-33.4	-35.1	22.7	0.00e+00	0	38	0	2928672768	37	4651
2026-01-26 02:15:52.97	216.24	27.74	-33.4	-35.1	22.8	0.00e+00	0	38	0	2934964224	37	4629
2026-01-26 02:15:53.96	216.17	27.57	-33.4	-35.2	22.7	0.00e+00	0	38	0	2940207104	37	4674
2026-01-26 02:15:54.96	216.10	27.40	-33.4	-35.1	22.8	0.00e+00	0	38	0	2945449984	37	4625
2026-01-26 02:15:55.95	216.03	27.23	-33.3	-35.0	22.8	0.00e+00	0	38	0	2951741440	37	4579
2026-01-26 02:15:56.95	215.96	27.07	-33.3	-35.0	22.9	0.00e+00	0	38	0	2956984320	37	4581
2026-01-26 02:15:57.94	215.89	26.90	-33.3	-35.1	22.9	0.00e+00	0	38	0	2963275776	37	4599
2026-01-26 02:15:58.94	215.82	26.73	-33.2	-35.0	22.9	0.00e+00	0	38	0	2968518656	37	4555
2026-01-26 02:15:59.93	215.75	26.57	-33.3	-35.1	22.9	0.00e+00	0	38	0	2973761536	37	4600
2026-01-26 02:16:00.93	215.68	26.40	-33.2	-35.0	22.9	0.00e+00	0	38	0	2979004416	37	4553
2026-01-26 02:16:01.92	215.62	26.24	-33.4	-35.1	22.8	0.00e+00	0	38	0	2985295872	37	4628
2026-01-26 02:16:02.92	215.55	26.08	-33.4	-35.1	22.8	0.00e+00	0	38	0	2990538752	37	4642
2026-01-26 02:16:03.92	215.48	25.91	-33.3	-35.1	22.8	0.00e+00	0	38	0	2995781632	37	4611
2026-01-26 02:16:04.91	215.42	25.75	-33.5	-35.2	22.7	0.00e+00	0	38	0	3002073088	37	4686
2026-01-26 02:16:05.91	215.36	25.59	-33.5	-35.2	22.7	0.00e+00	0	38	0	3007315968	37	4677
2026-01-26 02:16:06.91	215.29	25.43	-33.5	-35.2	22.7	0.00e+00	0	38	0	3013607424	37	4705
2026-01-26 02:16:07.90	215.23	25.28	-33.5	-35.2	22.7	0.00e+00	0	38	0	3018850304	37	4690
2026-01-26 02:16:08.90	215.17	25.12	-33.5	-35.2	22.7	0.00e+00	0	38	0	3024093184	37	4698
2026-01-26 02:16:09.90	215.11	24.96	-33.5	-35.3	22.7	0.00e+00	0	38	0	3030384640	37	4708
2026-01-26 02:16:10.97	215.04	24.79	-33.5	-35.3	22.7	0.00e+00	0	38	0	3035627520	37	4738
2026-01-26 02:16:11.82	214.99	24.66	-33.6	-35.4	22.6	0.00e+00	0	38	0	3040870400	37	4786
2026-01-26 02:16:12.96	214.92	24.49	-33.7	-35.4	22.6	0.00e+00	0	38	0	3047161856	38	4526
2026-01-26 02:16:13.81	214.87	24.36	-33.7	-35.4	22.6	0.00e+00	0	38	0	3052404736	38	4516
2026-01-26 02:16:14.95	214.81	24.18	-33.6	-35.4	22.6	0.00e+00	0	38	0	3058696192	38	4510
2026-01-26 02:16:15.80	214.76	24.05	-33.7	-35.5	22.5	0.00e+00	0	38	0	3062890496	38	4549
2026-01-26 02:16:16.94	214.69	23.88	-33.6	-35.3	22.7	0.00e+00	0	38	0	3069181952	38	4481
2026-01-26 02:16:17.79	214.64	23.75	-33.6	-35.3	22.7	0.00e+00	0	38	0	3074424832	38	4475
2026-01-26 02:16:18.93	214.58	23.58	-33.6	-35.3	22.7	0.00e+00	0	38	0	3080716288	38	4470
2026-01-26 02:16:19.78	214.53	23.46	-33.6	-35.3	22.7	0.00e+00	0	38	0	3085959168	38	4485
2026-01-26 02:16:20.93	214.47	23.29	-33.7	-35.4	22.7	0.00e+00	0	38	0	3092250624	38	4511
2026-01-26 02:16:21.79	214.42	23.16	-33.7	-35.4	22.6	0.00e+00	0	38	0	3096444928	38	4540
2026-01-26 02:16:22.99	214.36	22.99	-33.9	-35.6	22.5	0.00e+00	0	38	0	3103784960	38	4630
2026-01-26 02:16:23.84	214.31	22.86	-33.9	-35.7	22.4	0.00e+00	0	38	0	3107979264	38	4658
2026-01-26 02:16:25.09	214.25	22.68	-34.0	-35.7	22.4	0.00e+00	0	38	0	3115319296	38	4688
2026-01-26 02:16:25.94	214.20	22.56	-34.0	-35.8	22.4	0.00e+00	0	38	0	3120562176	38	4706
2026-01-26 02:16:27.08	214.14	22.40	-34.1	-35.9	22.2	0.00e+00	0	38	0	3126853632	38	4797
2026-01-26 02:16:27.93	214.10	22.28	-34.1	-35.8	22.3	0.00e+00	0	38	0	3131047936	39	4485
2026-01-26 02:16:29.07	214.04	22.12	-34.0	-35.8	22.3	0.00e+00	0	38	0	3137339392	39	4464
2026-01-26 02:16:29.92	214.00	22.00	-34.1	-35.9	22.2	0.00e+00	0	38	0	3142582272	39	4513
2026-01-26 02:16:31.06	213.94	21.84	-34.2	-36.0	22.2	0.00e+00	0	38	0	3148873728	39	4568
2026-01-26 02:16:31.91	213.90	21.72	-34.1	-35.9	22.2	0.00e+00	0	38	0	3154116608	39	4510
2026-01-26 02:16:33.04	213.84	21.56	-34.2	-36.0	22.1	0.00e+00	0	38	0	3160408064	39	4551
2026-01-26 02:16:33.90	213.80	21.45	-34.1	-35.9	22.2	0.00e+00	0	38	0	3164602368	39	4506
2026-01-26 02:16:35.03	213.75	21.29	-34.1	-35.8	22.3	0.00e+00	0	38	0	3170893824	39	4493
2026-01-26 02:16:35.89	213.71	21.17	-34.0	-35.8	22.3	0.00e+00	0	38	0	3176136704	39	4442
2026-01-26 02:16:37.02	213.65	21.02	-34.0	-35.7	22.3	0.00e+00	0	38	0	3182428160	39	4433
2026-01-26 02:16:37.88	213.61	20.91	-34.0	-35.7	22.4	0.00e+00	0	38	0	3187671040	39	4419
2026-01-26 02:16:39.02	213.56	20.75	-34.0	-35.7	22.3	0.00e+00	0	38	0	3193962496	39	4441
2026-01-26 02:16:39.87	213.52	20.64	-33.9	-35.7	22.4	0.00e+00	0	38	0	3198156800	39	4402
2026-01-26 02:16:41.01	213.47	20.49	-33.9	-35.6	22.4	0.00e+00	0	38	0	3205496832	39	4374
2026-01-26 02:16:41.86	213.43	20.38	-33.9	-35.6	22.4	0.00e+00	0	38	0	3209691136	39	4382
2026-01-26 02:16:43.00	213.38	20.23	-33.9	-35.6	22.4	0.00e+00	0	38	0	3215982592	39	4386
2026-01-26 02:16:43.85	213.34	20.12	-33.9	-35.7	22.4	0.00e+00	0	38	0	3221225472	39	4392
2026-01-26 02:16:44.99	213.29	19.97	-33.9	-35.6	22.4	0.00e+00	0	38	0	3227516928	39	4391
2026-01-26 02:16:45.84	213.25	19.86	-33.9	-35.7	22.4	0.00e+00	0	38	0	3232759808	39	4395
2026-01-26 02:16:46.98	213.21	19.71	-34.0	-35.7	22.4	0.00e+00	0	38	0	3238002688	39	4421
2026-01-26 02:16:47.83	213.17	19.60	-34.0	-35.8	22.3	0.00e+00	0	38	0	3243245568	39	4447
2026-01-26 02:16:48.97	213.12	19.46	-34.2	-35.9	22.2	0.00e+00	0	39	0	3249537024	39	4509
2026-01-26 02:16:49.82	213.09	19.35	-34.1	-35.9	22.2	0.00e+00	0	38	0	3254779904	39	4497
2026-01-26 02:16:50.96	213.04	19.21	-34.3	-36.0	22.1	0.00e+00	0	38	0	3261071360	39	4590
2026-01-26 02:16:51.82	213.00	19.10	-34.3	-36.0	22.1	0.00e+00	0	39	0	3265265664	39	4590
2026-01-26 02:16:52.97	212.96	18.95	-34.3	-36.0	22.1	0.00e+00	0	38	0	3272605696	39	4585
2026-01-26 02:16:53.82	212.92	18.85	-34.4	-36.2	21.9	0.00e+00	0	38	0	3276800000	39	4662
2026-01-26 02:16:54.96	212.88	18.71	-34.5	-36.3	21.9	0.00e+00	0	38	0	3283091456	39	4708
2026-01-26 02:16:55.81	212.84	18.60	-34.5	-36.3	21.9	0.00e+00	0	38	0	3288334336	39	4720
2026-01-26 02:16:56.95	212.80	18.46	-34.6	-36.4	21.8	0.00e+00	0	38	0	3294625792	39	4783
2026-01-26 02:16:57.80	212.76	18.36	-34.7	-36.4	21.7	0.00e+00	0	38	0	3299868672	39	4805
2026-01-26 02:16:58.94	212.72	18.22	-34.6	-36.4	21.7	0.00e+00	0	38	0	3306160128	40	4529
2026-01-26 02:16:59.79	212.69	18.12	-34.7	-36.5	21.6	0.00e+00	0	38	0	3310354432	40	4581
2026-01-26 02:17:00.93	212.64	17.98	-34.8	-36.6	21.5	0.00e+00	0	38	0	3316645888	40	4627
2026-01-26 02:17:01.78	212.61	17.88	-34.8	-36.6	21.5	0.00e+00	0	38	0	3321888768	40	4644
2026-01-26 02:17:02.92	212.57	17.75	-34.8	-36.7	21.5	0.00e+00	0	39	0	3328180224	40	4653
2026-01-26 02:17:03.77	212.54	17.64	-34.8	-36.7	21.5	0.00e+00	0	38	0	3333423104	40	4653
2026-01-26 02:17:04.91	212.49	17.51	-34.9	-36.7	21.4	0.00e+00	0	38	0	3339714560	40	4689
2026-01-26 02:17:05.76	212.46	17.41	-34.9	-36.7	21.4	0.00e+00	0	38	0	3343908864	40	4672
2026-01-26 02:17:06.90	212.42	17.28	-35.0	-36.8	21.4	0.00e+00	0	38	0	3350200320	40	4719
2026-01-26 02:17:07.75	212.39	17.18	-35.0	-36.8	21.3	0.00e+00	0	38	0	3355443200	40	4722
2026-01-26 02:17:08.88	212.35	17.05	-35.0	-36.9	21.3	0.00e+00	0	39	0	3361734656	40	4774
2026-01-26 02:17:09.74	212.32	16.95	-35.1	-36.9	21.2	0.00e+00	0	39	0	3365928960	40	4797
2026-01-26 02:17:10.87	212.28	16.82	-35.0	-36.8	21.3	0.00e+00	0	38	0	3373268992	40	4759
2026-01-26 02:17:11.72	212.25	16.72	-35.0	-36.8	21.3	0.00e+00	0	38	0	3377463296	40	4745
2026-01-26 02:17:12.86	212.21	16.59	-35.1	-36.9	21.3	0.00e+00	0	38	0	3383754752	40	4767
2026-01-26 02:17:13.71	212.18	16.50	-35.1	-36.9	21.2	0.00e+00	0	38	0	3388997632	40	4809
2026-01-26 02:17:14.85	212.14	16.37	-35.1	-36.9	21.2	0.00e+00	0	38	0	3395289088	40	4803
2026-01-26 02:17:15.70	212.11	16.27	-35.2	-37.0	21.2	0.00e+00	0	38	0	3400531968	40	4830
2026-01-26 02:17:16.84	212.08	16.15	-35.2	-37.1	21.1	0.00e+00	0	38	0	3406823424	41	4609
2026-01-26 02:17:17.70	212.05	16.05	-35.2	-37.0	21.2	0.00e+00	0	39	0	3411017728	41	4559
2026-01-26 02:17:18.83	212.01	15.93	-35.2	-37.1	21.1	0.00e+00	0	38	0	3417309184	41	4603
2026-01-26 02:17:19.69	211.98	15.83	-35.2	-37.0	21.1	0.00e+00	0	38	0	3422552064	41	4581
2026-01-26 02:17:20.82	211.95	15.71	-35.3	-37.1	21.0	0.00e+00	0	38	0	3428843520	41	4637
2026-01-26 02:17:21.67	211.92	15.61	-35.3	-37.2	21.0	0.00e+00	0	38	0	3434086400	41	4656
2026-01-26 02:17:22.81	211.88	15.49	-35.4	-37.2	21.0	0.00e+00	0	38	0	3440377856	41	4684
2026-01-26 02:17:23.66	211.85	15.40	-35.5	-37.3	20.9	0.00e+00	0	38	0	3444572160	41	4724
2026-01-26 02:17:24.99	211.81	15.25	-35.4	-37.3	20.9	0.00e+00	0	38	0	3451912192	41	4709
2026-01-26 02:17:25.70	211.79	15.18	-35.5	-37.3	20.9	0.00e+00	0	38	0	3456106496	41	4737
2026-01-26 02:17:26.98	211.75	15.04	-35.5	-37.3	20.8	0.00e+00	0	38	0	3463446528	41	4746
2026-01-26 02:17:27.69	211.73	14.97	-35.5	-37.3	20.8	0.00e+00	0	38	0	3467640832	41	4755
2026-01-26 02:17:28.97	211.69	14.83	-35.5	-37.4	20.8	0.00e+00	0	38	0	3474980864	41	4762
2026-01-26 02:17:29.70	211.67	14.75	-35.6	-37.5	20.7	0.00e+00	0	38	0	3479175168	41	4827
2026-01-26 02:17:30.97	211.63	14.62	-35.6	-37.5	20.7	0.00e+00	0	38	0	3485466624	42	4556
2026-01-26 02:17:31.69	211.61	14.55	-35.6	-37.5	20.7	0.00e+00	0	38	0	3489660928	42	4559
2026-01-26 02:17:32.96	211.57	14.41	-35.7	-37.6	20.6	0.00e+00	0	38	0	3497000960	42	4607
2026-01-26 02:17:33.68	211.55	14.34	-35.8	-37.6	20.6	0.00e+00	0	38	0	3501195264	42	4638
2026-01-26 02:17:34.96	211.51	14.21	-35.8	-37.6	20.6	0.00e+00	0	38	0	3508535296	42	4638
2026-01-26 02:17:35.67	211.49	14.13	-35.8	-37.6	20.6	0.00e+00	0	38	0	3512729600	42	4644
2026-01-26 02:17:36.94	211.46	14.00	-35.8	-37.6	20.6	0.00e+00	0	38	0	3520069632	42	4637
2026-01-26 02:17:37.67	211.43	13.93	-35.7	-37.6	20.6	0.00e+00	0	38	0	3523215360	42	4630
2026-01-26 02:17:38.95	211.40	13.80	-35.8	-37.7	20.5	0.00e+00	0	38	0	3530555392	42	4668
2026-01-26 02:17:39.66	211.38	13.73	-35.8	-37.7	20.5	0.00e+00	0	38	0	3534749696	42	4675
2026-01-26 02:17:40.94	211.34	13.60	-35.9	-37.7	20.4	0.00e+00	0	38	0	3542089728	42	4701
2026-01-26 02:17:41.65	211.32	13.53	-35.8	-37.7	20.5	0.00e+00	0	38	0	3546284032	42	4658
2026-01-26 02:17:43.23	211.28	13.37	-36.0	-37.9	20.3	0.00e+00	0	38	0	3554672640	42	4777
2026-01-26 02:17:43.86	211.26	13.31	-35.9	-37.8	20.3	0.00e+00	0	38	0	3558866944	42	4743
2026-01-26 02:17:45.62	211.22	13.13	-35.9	-37.8	20.3	0.00e+00	0	38	0	3568304128	42	4748
2026-01-26 02:17:46.20	211.20	13.08	-35.9	-37.8	20.4	0.00e+00	0	38	0	3571449856	42	4741
2026-01-26 02:17:47.88	211.16	12.91	-35.9	-37.8	20.4	0.00e+00	0	38	0	3580887040	42	4721
2026-01-26 02:17:48.45	211.14	12.86	-36.0	-37.9	20.3	0.00e+00	0	38	0	3584032768	42	4762
2026-01-26 02:17:50.16	211.10	12.69	-35.9	-37.8	20.3	0.00e+00	0	38	0	3593469952	42	4736
2026-01-26 02:17:50.73	211.08	12.63	-35.9	-37.8	20.3	0.00e+00	0	38	0	3596615680	42	4741
2026-01-26 02:17:52.58	211.03	12.46	-36.1	-37.9	20.2	0.00e+00	0	38	0	3607101440	42	4806
2026-01-26 02:17:53.14	211.02	12.40	-36.1	-38.0	20.2	0.00e+00	0	38	0	3611295744	42	4846
2026-01-26 02:17:54.85	210.98	12.24	-36.1	-38.0	20.2	0.00e+00	0	38	0	3620732928	43	4577
2026-01-26 02:17:55.56	210.96	12.17	-36.1	-38.0	20.2	0.00e+00	0	38	0	3623878656	43	4556
2026-01-26 02:17:56.84	210.93	12.05	-36.1	-38.0	20.1	0.00e+00	0	38	0	3631218688	43	4570
2026-01-26 02:17:57.57	210.91	11.98	-36.2	-38.1	20.0	0.00e+00	0	38	0	3635412992	43	4635
2026-01-26 02:17:58.85	210.88	11.86	-36.2	-38.1	20.1	0.00e+00	0	38	0	3642753024	43	4603
2026-01-26 02:17:59.58	210.86	11.79	-36.3	-38.2	19.9	0.00e+00	0	38	0	3646947328	43	4676
2026-01-26 02:18:00.85	210.83	11.68	-36.3	-38.3	19.9	0.00e+00	0	38	0	3654287360	43	4714
2026-01-26 02:18:01.56	210.81	11.61	-36.3	-38.2	20.0	0.00e+00	0	38	0	3658481664	43	4661
