passes_logs/2026/01/26/T1/T1__20260126_115701_FENGYUN_3D_rec.log

#Pass ID: 20260126_115701_FENGYUN 3D
#Satellite: FENGYUN 3D
#Configuration: FENGYUN 3D
#almurnet v.1.7.20251203
#Start time: 2026-01-26 11:57:01

#Version: 2.0.20230620
#Station: T1
#Location: 37.570604 lon 55.790049 lat
#TLE: 1 43010U 17072A   26025.85700374 -.00000071  00000+0 -11715-4 0  9992
#TLE: 2 43010  98.9962 357.8423 0002518  90.2035 269.9429 14.19699460424796

#Time	Az	El	Level	Level2	SNR	BER	BlckErr	Temp	State	Recorded	gain1	gain2
2026-01-26 11:57:01.43	158.72	5.00	-49.7	-61.9	3.8	8.47e-01	0	40	0	0	70	15143
2026-01-26 11:57:02.41	158.72	5.07	-49.5	-61.6	3.8	8.47e-01	0	40	104	0	71	13813
2026-01-26 11:57:03.41	158.72	5.14	-49.5	-61.6	3.8	8.48e-01	0	40	104	0	71	13785
2026-01-26 11:57:04.40	158.72	5.22	-49.5	-61.6	3.8	8.47e-01	0	40	104	0	71	13766
2026-01-26 11:57:05.39	158.72	5.29	-49.5	-61.7	3.8	8.48e-01	0	40	104	0	71	13889
2026-01-26 11:57:06.39	158.72	5.36	-49.6	-61.7	3.8	8.47e-01	0	40	104	0	71	13972
2026-01-26 11:57:07.38	158.72	5.43	-49.6	-61.8	3.8	8.47e-01	0	40	104	0	71	14155
2026-01-26 11:57:08.37	158.72	5.50	-49.6	-61.9	3.8	8.46e-01	0	40	104	0	71	14219
2026-01-26 11:57:09.37	158.72	5.58	-49.6	-61.9	3.8	8.48e-01	0	40	104	0	71	14213
2026-01-26 11:57:10.36	158.72	5.65	-49.5	-61.7	3.8	8.47e-01	0	40	104	0	71	13971
2026-01-26 11:57:11.35	158.72	5.72	-49.5	-61.5	3.8	8.47e-01	0	41	104	0	71	13622
2026-01-26 11:57:12.35	158.72	5.80	-49.5	-61.2	3.8	8.48e-01	0	40	104	0	71	13194
2026-01-26 11:57:13.34	158.72	5.87	-49.4	-60.7	3.8	8.46e-01	0	41	104	0	70	13228
2026-01-26 11:57:14.33	158.71	5.94	-49.4	-60.3	3.8	8.46e-01	0	41	104	0	70	12651
2026-01-26 11:57:15.33	158.71	6.02	-49.3	-59.9	3.8	8.45e-01	0	41	104	0	70	12091
2026-01-26 11:57:16.32	158.71	6.09	-49.3	-59.6	3.9	8.45e-01	0	41	104	0	70	11588
2026-01-26 11:57:17.31	158.71	6.17	-49.3	-59.4	3.8	8.45e-01	0	41	104	0	70	11315
2026-01-26 11:57:18.31	158.71	6.24	-49.3	-59.3	4.0	8.44e-01	0	41	104	0	70	11231
2026-01-26 11:57:19.30	158.71	6.32	-49.3	-59.4	3.8	8.44e-01	0	41	104	0	70	11310
2026-01-26 11:57:20.29	158.71	6.39	-49.3	-59.7	3.8	8.47e-01	0	41	104	0	70	11818
2026-01-26 11:57:21.28	158.71	6.47	-49.4	-60.1	3.8	8.46e-01	0	41	104	0	70	12244
2026-01-26 11:57:22.28	158.71	6.54	-49.4	-60.5	3.8	8.47e-01	0	41	104	0	70	12936
2026-01-26 11:57:23.27	158.71	6.62	-49.5	-60.9	3.8	8.47e-01	0	41	104	0	70	13469
2026-01-26 11:57:24.27	158.71	6.70	-49.5	-61.3	3.8	8.48e-01	0	41	104	0	70	14152
2026-01-26 11:57:25.26	158.71	6.77	-49.5	-61.6	3.8	8.47e-01	0	41	104	0	70	14619
2026-01-26 11:57:26.25	158.71	6.85	-49.6	-61.7	3.8	8.47e-01	0	41	104	0	70	14858
2026-01-26 11:57:27.25	158.71	6.93	-49.6	-61.7	3.8	8.46e-01	0	41	104	0	70	14786
2026-01-26 11:57:28.24	158.71	7.00	-49.5	-61.4	3.8	8.47e-01	0	41	104	0	70	14372
2026-01-26 11:57:29.23	158.71	7.08	-49.5	-61.0	3.8	8.47e-01	0	41	104	0	70	13631
2026-01-26 11:57:30.23	158.70	7.16	-49.4	-60.4	3.8	8.47e-01	0	41	104	0	70	12790
2026-01-26 11:57:31.22	158.70	7.23	-49.3	-59.5	3.9	8.45e-01	0	41	104	0	70	11544
2026-01-26 11:57:32.21	158.70	7.31	-49.1	-58.2	4.2	8.44e-01	0	41	104	0	70	9936
2026-01-26 11:57:33.21	158.70	7.39	-48.8	-56.9	4.6	8.21e-01	0	41	0	0	69	9009
2026-01-26 11:57:34.20	158.70	7.47	-48.5	-55.5	5.4	7.56e-01	0	41	0	0	69	7713
2026-01-26 11:57:35.19	158.70	7.55	-48.0	-54.0	6.6	2.91e-01	0	41	0	4194304	68	6837
2026-01-26 11:57:36.19	158.70	7.63	-47.2	-52.2	8.0	1.31e-01	0	41	0	9437184	66	6263
2026-01-26 11:57:37.18	158.70	7.71	-46.6	-51.0	9.3	2.89e-02	0	41	0	14680064	65	5774
2026-01-26 11:57:38.17	158.70	7.78	-46.0	-49.9	10.5	9.25e-03	0	41	0	20971520	64	5365
2026-01-26 11:57:39.17	158.70	7.86	-45.5	-49.0	11.5	4.55e-03	0	41	0	26214400	62	5408
2026-01-26 11:57:40.16	158.70	7.94	-44.9	-48.1	12.3	2.93e-04	0	41	0	31457280	61	5207
2026-01-26 11:57:41.15	158.69	8.02	-44.5	-47.5	13.0	9.72e-05	0	41	0	37748736	61	4860
2026-01-26 11:57:42.15	158.69	8.11	-44.0	-46.9	13.6	1.48e-05	0	41	0	42991616	60	4810
2026-01-26 11:57:43.14	158.69	8.19	-43.7	-46.5	14.0	8.00e-06	0	41	0	48234496	59	4839
2026-01-26 11:57:44.13	158.69	8.27	-43.6	-46.3	14.2	2.20e-06	0	41	0	54525952	59	4724
2026-01-26 11:57:45.13	158.69	8.35	-43.7	-46.5	14.0	5.70e-06	0	41	0	59768832	59	4823
2026-01-26 11:57:46.12	158.69	8.43	-43.8	-46.6	13.9	5.70e-06	0	41	0	65011712	59	4873
2026-01-26 11:57:47.11	158.69	8.51	-43.8	-46.6	13.9	2.20e-06	0	41	0	71303168	59	4916
2026-01-26 11:57:48.11	158.69	8.59	-44.3	-47.2	13.3	2.05e-05	0	41	0	76546048	59	5258
2026-01-26 11:57:49.10	158.69	8.67	-44.9	-48.1	12.4	1.10e-04	0	41	0	81788928	60	5479
2026-01-26 11:57:50.10	158.69	8.76	-45.5	-49.1	11.4	9.45e-04	0	42	0	88080384	61	5813
2026-01-26 11:57:51.09	158.68	8.84	-46.3	-50.3	10.2	4.85e-03	0	41	0	93323264	63	5945
2026-01-26 11:57:52.08	158.68	8.92	-46.9	-51.6	8.6	3.16e-02	0	42	0	98566144	64	6557
2026-01-26 11:57:53.07	158.68	9.01	-47.6	-53.2	7.1	1.14e-01	0	41	0	103809024	65	7436
2026-01-26 11:57:54.07	158.68	9.09	-47.0	-51.7	8.6	6.51e-02	0	42	0	110100480	65	6267
2026-01-26 11:57:55.06	158.68	9.17	-49.2	-59.1	4.0	8.31e-01	0	42	0	112197632	69	11592
2026-01-26 11:57:56.06	158.68	9.26	-46.0	-49.7	10.8	6.69e-02	0	42	0	114294784	63	5532
2026-01-26 11:57:57.05	158.68	9.34	-40.6	-42.7	17.6	0.00e+00	0	42	0	119537664	53	4409
2026-01-26 11:57:58.05	158.68	9.43	-49.4	-60.6	3.8	5.53e-01	0	42	104	123731968	69	13853
2026-01-26 11:57:59.04	158.67	9.51	-40.5	-42.7	17.7	7.42e-03	0	42	0	124780544	53	4402
2026-01-26 11:58:00.04	158.67	9.60	-40.2	-42.3	18.1	0.00e+00	0	42	0	130023424	51	4714
2026-01-26 11:58:01.03	158.67	9.68	-40.0	-42.1	18.3	0.00e+00	0	42	0	136314880	51	4602
2026-01-26 11:58:02.03	158.67	9.77	-40.0	-42.1	18.3	8.10e-03	0	42	0	141557760	51	4628
2026-01-26 11:58:03.02	158.67	9.86	-39.9	-41.9	18.5	0.00e+00	0	42	0	146800640	51	4515
2026-01-26 11:58:04.02	158.67	9.94	-39.5	-41.5	18.8	0.00e+00	0	42	0	153092096	51	4315
2026-01-26 11:58:05.01	158.67	10.03	-39.4	-41.5	18.9	8.78e-03	0	42	0	158334976	50	4547
2026-01-26 11:58:06.01	158.66	10.12	-39.3	-41.3	19.1	0.00e+00	0	42	0	163577856	50	4453
2026-01-26 11:58:07.00	158.66	10.21	-39.2	-41.1	19.2	0.00e+00	0	42	0	169869312	50	4386
2026-01-26 11:58:08.00	158.66	10.29	-39.2	-41.2	19.1	1.23e-02	0	42	0	175112192	50	4417
2026-01-26 11:58:08.99	158.66	10.38	-39.2	-41.2	19.2	0.00e+00	0	42	0	180355072	50	4393
2026-01-26 11:58:09.99	158.66	10.47	-39.2	-41.1	19.2	0.00e+00	0	42	0	186646528	50	4367
2026-01-26 11:58:10.98	158.66	10.56	-39.3	-41.3	19.0	0.00e+00	0	42	0	191889408	50	4460
2026-01-26 11:58:11.98	158.65	10.65	-39.2	-41.1	19.2	0.00e+00	0	42	0	197132288	50	4377
2026-01-26 11:58:12.97	158.65	10.74	-39.1	-41.0	19.3	0.00e+00	0	42	0	203423744	50	4333
2026-01-26 11:58:13.97	158.65	10.83	-39.1	-41.0	19.3	0.00e+00	0	42	0	208666624	50	4315
2026-01-26 11:58:14.96	158.65	10.92	-39.1	-41.0	19.3	0.00e+00	0	42	0	213909504	50	4338
2026-01-26 11:58:15.96	158.65	11.01	-39.0	-41.0	19.3	0.00e+00	0	42	0	220200960	50	4302
2026-01-26 11:58:16.95	158.65	11.10	-39.1	-41.0	19.3	0.00e+00	0	42	0	225443840	50	4319
2026-01-26 11:58:17.95	158.64	11.19	-39.1	-41.1	19.2	0.00e+00	0	42	0	230686720	50	4353
2026-01-26 11:58:18.94	158.64	11.28	-39.2	-41.1	19.2	0.00e+00	0	42	0	236978176	50	4376
2026-01-26 11:58:19.93	158.64	11.37	-39.0	-41.0	19.3	0.00e+00	0	42	0	242221056	50	4307
2026-01-26 11:58:20.93	158.64	11.47	-39.1	-41.1	19.2	0.00e+00	0	42	0	248512512	50	4360
2026-01-26 11:58:21.92	158.64	11.56	-39.1	-41.0	19.3	0.00e+00	0	42	0	253755392	50	4313
2026-01-26 11:58:22.92	158.63	11.65	-39.0	-40.9	19.4	0.00e+00	0	42	0	258998272	50	4289
2026-01-26 11:58:23.91	158.63	11.74	-39.0	-40.9	19.4	0.00e+00	0	42	0	264241152	49	4522
2026-01-26 11:58:24.91	158.63	11.84	-39.0	-40.9	19.4	0.00e+00	0	42	0	270532608	49	4524
2026-01-26 11:58:25.90	158.63	11.93	-38.8	-40.7	19.6	0.00e+00	0	42	0	275775488	49	4437
2026-01-26 11:58:26.90	158.63	12.03	-38.9	-40.8	19.5	0.00e+00	0	42	0	281018368	49	4475
2026-01-26 11:58:27.89	158.62	12.12	-38.8	-40.7	19.6	7.88e-03	0	42	0	287309824	49	4436
2026-01-26 11:58:28.89	158.62	12.22	-38.7	-40.6	19.7	0.00e+00	0	42	0	292552704	49	4390
2026-01-26 11:58:29.88	158.62	12.31	-38.8	-40.7	19.6	0.00e+00	0	42	0	298844160	49	4440
2026-01-26 11:58:30.88	158.62	12.41	-38.8	-40.7	19.6	5.55e-03	0	42	0	304087040	49	4397
2026-01-26 11:58:31.87	158.61	12.50	-38.7	-40.6	19.7	0.00e+00	0	42	0	309329920	49	4361
2026-01-26 11:58:32.86	158.61	12.60	-38.7	-40.6	19.7	0.00e+00	0	42	0	314572800	49	4359
2026-01-26 11:58:33.86	158.61	12.70	-38.7	-40.7	19.6	4.44e-03	0	42	0	320864256	49	4396
2026-01-26 11:58:34.86	158.61	12.80	-38.8	-40.7	19.7	0.00e+00	0	42	0	326107136	49	4396
2026-01-26 11:58:35.85	158.61	12.89	-38.7	-40.6	19.7	0.00e+00	0	42	0	331350016	49	4378
2026-01-26 11:58:36.84	158.60	12.99	-38.6	-40.5	19.9	1.47e-03	0	42	0	337641472	49	4292
2026-01-26 11:58:37.84	158.60	13.09	-38.4	-40.3	20.0	0.00e+00	0	42	0	342884352	48	4464
2026-01-26 11:58:38.83	158.60	13.19	-38.4	-40.3	20.0	0.00e+00	0	42	0	349175808	48	4478
2026-01-26 11:58:39.83	158.60	13.29	-38.3	-40.2	20.1	0.00e+00	0	42	0	354418688	48	4422
2026-01-26 11:58:40.83	158.59	13.39	-38.3	-40.1	20.2	0.00e+00	0	42	0	359661568	48	4382
2026-01-26 11:58:41.83	158.59	13.49	-38.3	-40.1	20.2	0.00e+00	0	42	0	364904448	48	4383
2026-01-26 11:58:42.82	158.59	13.59	-38.2	-40.0	20.3	0.00e+00	0	42	0	371195904	48	4338
2026-01-26 11:58:43.82	158.58	13.69	-38.2	-40.1	20.2	0.00e+00	0	42	0	376438784	48	4357
2026-01-26 11:58:44.81	158.58	13.79	-38.2	-40.1	20.2	0.00e+00	0	42	0	381681664	48	4361
2026-01-26 11:58:45.81	158.58	13.89	-38.3	-40.1	20.2	0.00e+00	0	42	0	387973120	48	4383
2026-01-26 11:58:46.80	158.58	14.00	-38.1	-40.0	20.3	0.00e+00	0	42	0	393216000	48	4319
2026-01-26 11:58:47.80	158.57	14.10	-37.9	-39.7	20.3	0.00e+00	0	42	0	399507456	47	4422
2026-01-26 11:58:48.79	158.57	14.20	-37.8	-39.6	20.4	0.00e+00	0	42	0	404750336	47	4379
2026-01-26 11:58:49.78	158.57	14.30	-37.8	-39.6	20.4	0.00e+00	0	42	0	409993216	47	4379
2026-01-26 11:58:50.78	158.56	14.41	-37.8	-39.6	14.5	0.00e+00	0	42	0	415236096	47	4369
2026-01-26 11:58:51.77	158.56	14.51	-37.7	-39.6	20.5	0.00e+00	0	42	0	421527552	47	4343
2026-01-26 11:58:52.76	158.56	14.62	-37.6	-39.5	20.5	0.00e+00	0	42	0	426770432	47	4299
2026-01-26 11:58:53.76	158.56	14.72	-37.7	-39.5	20.5	0.00e+00	0	42	0	432013312	47	4313
2026-01-26 11:58:54.75	158.55	14.83	-37.7	-39.5	20.5	0.00e+00	0	42	0	438304768	47	4332
2026-01-26 11:58:55.74	158.55	14.93	-37.6	-39.4	20.6	0.00e+00	0	42	0	443547648	47	4279
2026-01-26 11:58:56.74	158.55	15.04	-37.5	-39.4	20.6	0.00e+00	0	42	0	449839104	47	4251
2026-01-26 11:58:57.73	158.54	15.15	-37.6	-39.5	20.5	0.00e+00	0	42	0	455081984	47	4293
2026-01-26 11:58:58.73	158.54	15.26	-37.5	-39.4	20.6	0.00e+00	0	42	0	460324864	47	4245
2026-01-26 11:58:59.72	158.54	15.36	-37.5	-39.3	20.7	0.00e+00	0	42	0	465567744	47	4225
2026-01-26 11:59:00.72	158.53	15.47	-37.5	-39.3	20.7	0.00e+00	0	42	0	471859200	46	4483
2026-01-26 11:59:01.71	158.53	15.58	-37.5	-39.3	20.7	0.00e+00	0	42	0	477102080	46	4462
2026-01-26 11:59:02.71	158.53	15.69	-37.5	-39.3	20.7	0.00e+00	0	42	0	482344960	46	4470
2026-01-26 11:59:03.71	158.52	15.80	-37.5	-39.3	20.7	0.00e+00	0	42	0	488636416	46	4465
2026-01-26 11:59:04.70	158.52	15.91	-37.3	-39.2	20.8	0.00e+00	0	42	0	493879296	46	4403
2026-01-26 11:59:05.70	158.52	16.03	-37.4	-39.3	20.8	0.00e+00	0	43	0	500170752	46	4444
2026-01-26 11:59:06.69	158.51	16.14	-37.4	-39.2	20.8	0.00e+00	0	42	0	505413632	46	4416
2026-01-26 11:59:07.69	158.51	16.25	-37.4	-39.2	20.8	0.00e+00	0	42	0	510656512	46	4431
2026-01-26 11:59:08.68	158.50	16.36	-37.4	-39.2	20.8	0.00e+00	0	42	0	516947968	46	4418
2026-01-26 11:59:09.68	158.50	16.48	-37.5	-39.3	20.7	0.00e+00	0	42	0	522190848	46	4471
2026-01-26 11:59:10.68	158.50	16.59	-37.3	-39.1	20.9	0.00e+00	0	42	0	527433728	46	4365
2026-01-26 11:59:11.67	158.49	16.70	-37.2	-39.0	21.0	0.00e+00	0	42	0	533725184	46	4319
2026-01-26 11:59:12.67	158.49	16.82	-37.1	-39.0	21.0	0.00e+00	0	42	0	538968064	46	4294
2026-01-26 11:59:13.66	158.48	16.93	-37.1	-39.0	21.0	0.00e+00	0	42	0	544210944	46	4301
2026-01-26 11:59:14.66	158.48	17.05	-37.2	-39.0	21.0	0.00e+00	0	43	0	550502400	46	4317
2026-01-26 11:59:15.65	158.48	17.17	-37.0	-38.9	21.1	0.00e+00	0	43	0	555745280	46	4253
2026-01-26 11:59:16.65	158.47	17.28	-37.1	-38.9	18.5	0.00e+00	0	43	0	560988160	46	4266
2026-01-26 11:59:17.64	158.47	17.40	-36.9	-38.7	21.2	0.00e+00	0	42	0	567279616	45	4437
2026-01-26 11:59:18.64	158.46	17.52	-36.9	-38.7	21.3	0.00e+00	0	42	0	572522496	45	4407
2026-01-26 11:59:19.63	158.46	17.64	-36.8	-38.6	21.3	0.00e+00	0	43	0	577765376	45	4354
2026-01-26 11:59:20.63	158.46	17.76	-36.7	-38.5	21.4	0.00e+00	0	42	0	584056832	45	4309
2026-01-26 11:59:21.62	158.45	17.88	-36.7	-38.5	21.4	0.00e+00	0	43	0	589299712	45	4302
2026-01-26 11:59:22.62	158.45	18.00	-36.7	-38.5	21.5	0.00e+00	0	42	0	594542592	45	4304
2026-01-26 11:59:23.61	158.44	18.12	-36.6	-38.4	21.5	0.00e+00	0	42	0	600834048	45	4250
2026-01-26 11:59:24.61	158.44	18.24	-36.5	-38.3	21.6	0.00e+00	0	42	0	606076928	45	4212
2026-01-26 11:59:25.60	158.43	18.36	-36.6	-38.4	21.5	0.00e+00	0	42	0	611319808	45	4253
2026-01-26 11:59:26.60	158.43	18.49	-36.5	-38.3	21.6	0.00e+00	0	43	0	617611264	45	4209
2026-01-26 11:59:27.59	158.42	18.61	-36.4	-38.2	21.7	0.00e+00	0	42	0	622854144	44	4414
2026-01-26 11:59:28.59	158.42	18.74	-36.4	-38.2	21.7	0.00e+00	0	42	0	628097024	44	4412
2026-01-26 11:59:29.58	158.41	18.86	-36.4	-38.2	21.7	0.00e+00	0	42	0	634388480	44	4406
2026-01-26 11:59:30.58	158.41	18.99	-36.4	-38.1	21.7	0.00e+00	0	42	0	639631360	44	4370
2026-01-26 11:59:31.57	158.40	19.11	-36.4	-38.2	21.7	0.00e+00	0	42	0	644874240	44	4413
2026-01-26 11:59:32.56	158.40	19.24	-36.4	-38.2	21.7	0.00e+00	0	42	0	651165696	44	4396
2026-01-26 11:59:33.56	158.39	19.37	-36.5	-38.2	21.6	0.00e+00	0	42	0	656408576	44	4438
2026-01-26 11:59:34.55	158.39	19.49	-36.4	-38.2	21.7	0.00e+00	0	43	0	661651456	44	4419
2026-01-26 11:59:35.55	158.38	19.62	-36.5	-38.2	21.6	0.00e+00	0	43	0	667942912	44	4436
2026-01-26 11:59:36.54	158.38	19.75	-36.6	-38.4	21.5	0.00e+00	0	42	0	673185792	44	4500
2026-01-26 11:59:37.54	158.37	19.88	-36.6	-38.4	21.5	0.00e+00	0	42	0	678428672	44	4498
2026-01-26 11:59:38.53	158.37	20.01	-36.5	-38.3	21.6	0.00e+00	0	42	0	684720128	44	4461
2026-01-26 11:59:39.53	158.36	20.14	-36.6	-38.3	21.5	0.00e+00	0	42	0	689963008	44	4489
2026-01-26 11:59:40.52	158.35	20.28	-36.6	-38.4	21.5	0.00e+00	0	43	0	695205888	44	4521
2026-01-26 11:59:41.52	158.35	20.41	-36.7	-38.5	21.4	0.00e+00	0	42	0	701497344	44	4565
2026-01-26 11:59:42.51	158.34	20.54	-36.6	-38.4	21.4	0.00e+00	0	42	0	706740224	44	4528
2026-01-26 11:59:43.51	158.34	20.68	-36.5	-38.4	21.5	0.00e+00	0	42	0	711983104	44	4494
2026-01-26 11:59:44.50	158.33	20.81	-36.6	-38.4	21.4	0.00e+00	0	42	0	718274560	44	4520
2026-01-26 11:59:45.50	158.33	20.95	-36.6	-38.4	21.4	0.00e+00	0	43	0	723517440	44	4541
2026-01-26 11:59:46.49	158.32	21.08	-36.6	-38.4	21.4	0.00e+00	0	43	0	728760320	44	4523
2026-01-26 11:59:47.49	158.31	21.22	-36.5	-38.3	21.5	0.00e+00	0	43	0	735051776	44	4449
2026-01-26 11:59:48.48	158.31	21.36	-36.5	-38.3	21.5	0.00e+00	0	43	0	740294656	44	4478
2026-01-26 11:59:49.48	158.30	21.50	-36.5	-38.3	21.5	0.00e+00	0	43	0	745537536	44	4463
2026-01-26 11:59:50.47	158.29	21.64	-36.3	-38.1	21.7	0.00e+00	0	43	0	751828992	44	4364
2026-01-26 11:59:51.47	158.29	21.78	-36.3	-38.1	21.7	0.00e+00	0	43	0	757071872	44	4359
2026-01-26 11:59:52.47	158.28	21.92	-36.4	-38.2	21.7	0.00e+00	0	42	0	762314752	44	4393
2026-01-26 11:59:53.46	158.27	22.06	-36.3	-38.1	21.7	0.00e+00	0	42	0	768606208	44	4358
2026-01-26 11:59:54.46	158.27	22.20	-36.1	-37.9	21.8	0.00e+00	0	43	0	773849088	44	4267
2026-01-26 11:59:55.45	158.26	22.35	-36.1	-37.8	21.9	0.00e+00	0	42	0	779091968	44	4239
2026-01-26 11:59:56.44	158.25	22.49	-36.1	-37.9	21.9	0.00e+00	0	43	0	785383424	44	4248
2026-01-26 11:59:57.44	158.25	22.64	-36.1	-37.9	21.9	0.00e+00	0	42	0	790626304	44	4248
2026-01-26 11:59:58.43	158.24	22.78	-36.2	-38.0	21.8	0.00e+00	0	42	0	796917760	44	4308
2026-01-26 11:59:59.43	158.23	22.93	-36.0	-37.8	21.9	0.00e+00	0	43	0	802160640	44	4228
2026-01-26 12:00:00.42	158.22	23.08	-35.8	-37.6	22.1	0.00e+00	0	42	0	807403520	43	4343
2026-01-26 12:00:01.42	158.22	23.23	-35.9	-37.7	22.0	0.00e+00	0	43	0	812646400	43	4394
2026-01-26 12:00:02.42	158.21	23.38	-35.8	-37.5	22.0	0.00e+00	0	42	0	818937856	43	4327
2026-01-26 12:00:03.41	158.20	23.52	-35.7	-37.4	22.1	0.00e+00	0	42	0	824180736	43	4284
2026-01-26 12:00:04.41	158.19	23.68	-35.7	-37.4	22.2	0.00e+00	0	43	0	829423616	43	4283
2026-01-26 12:00:05.40	158.19	23.83	-35.7	-37.4	22.1	0.00e+00	0	43	0	835715072	43	4285
2026-01-26 12:00:06.40	158.18	23.98	-35.6	-37.4	22.3	0.00e+00	0	42	0	840957952	43	4252
2026-01-26 12:00:07.39	158.17	24.13	-35.6	-37.4	22.3	0.00e+00	0	43	0	847249408	43	4255
2026-01-26 12:00:08.39	158.16	24.29	-35.7	-37.5	22.2	0.00e+00	0	43	0	852492288	43	4299
2026-01-26 12:00:09.38	158.15	24.44	-35.7	-37.4	22.2	0.00e+00	0	43	0	857735168	43	4287
2026-01-26 12:00:10.38	158.15	24.60	-35.6	-37.3	22.3	0.00e+00	0	42	0	864026624	43	4237
2026-01-26 12:00:11.38	158.14	24.76	-35.5	-37.3	21.1	0.00e+00	0	43	0	869269504	43	4202
2026-01-26 12:00:12.37	158.13	24.92	-35.6	-37.4	22.2	0.00e+00	0	43	0	874512384	43	4261
2026-01-26 12:00:13.37	158.12	25.08	-35.7	-37.4	22.2	0.00e+00	0	43	0	879755264	43	4283
2026-01-26 12:00:14.36	158.11	25.24	-35.7	-37.5	22.2	0.00e+00	0	43	0	886046720	43	4298
2026-01-26 12:00:15.36	158.10	25.40	-35.8	-37.6	22.1	0.00e+00	0	43	0	891289600	43	4348
2026-01-26 12:00:16.35	158.09	25.56	-35.7	-37.4	22.2	0.00e+00	0	43	0	897581056	43	4276
2026-01-26 12:00:17.35	158.08	25.72	-35.7	-37.4	22.2	0.00e+00	0	43	0	902823936	43	4280
2026-01-26 12:00:18.34	158.07	25.89	-35.6	-37.3	22.3	0.00e+00	0	42	0	908066816	43	4222
2026-01-26 12:00:19.34	158.06	26.05	-35.6	-37.3	22.3	0.00e+00	0	43	0	914358272	43	4225
2026-01-26 12:00:20.33	158.06	26.22	-35.7	-37.4	22.3	0.00e+00	0	43	0	919601152	43	4270
2026-01-26 12:00:21.33	158.05	26.39	-35.6	-37.4	22.3	0.00e+00	0	43	0	924844032	43	4254
2026-01-26 12:00:22.33	158.04	26.56	-35.4	-37.2	22.5	0.00e+00	0	43	0	931135488	42	4394
2026-01-26 12:00:23.32	158.03	26.73	-35.5	-37.2	22.4	0.00e+00	0	43	0	936378368	42	4412
2026-01-26 12:00:24.31	158.02	26.90	-35.4	-37.1	22.5	0.00e+00	0	43	0	941621248	42	4389
2026-01-26 12:00:25.31	158.00	27.07	-35.4	-37.2	22.4	0.00e+00	0	43	0	947912704	42	4401
2026-01-26 12:00:26.30	157.99	27.24	-35.5	-37.2	22.3	0.00e+00	0	43	0	953155584	42	4431
2026-01-26 12:00:27.30	157.98	27.41	-35.5	-37.3	22.3	0.00e+00	0	43	0	958398464	42	4466
2026-01-26 12:00:28.30	157.97	27.59	-35.6	-37.4	22.2	0.00e+00	0	43	0	964689920	42	4496
2026-01-26 12:00:29.29	157.96	27.77	-35.6	-37.3	22.2	0.00e+00	0	43	0	969932800	42	4484
2026-01-26 12:00:30.28	157.95	27.94	-35.5	-37.2	22.3	0.00e+00	0	43	0	975175680	42	4438
2026-01-26 12:00:31.28	157.94	28.12	-35.5	-37.2	22.3	0.00e+00	0	43	0	981467136	42	4426
2026-01-26 12:00:32.27	157.93	28.30	-35.6	-37.4	22.2	0.00e+00	0	43	0	986710016	42	4502
2026-01-26 12:00:33.27	157.92	28.48	-35.6	-37.4	22.2	0.00e+00	0	43	0	991952896	42	4504
2026-01-26 12:00:34.26	157.91	28.66	-35.6	-37.4	22.1	0.00e+00	0	43	0	998244352	42	4508
2026-01-26 12:00:35.26	157.89	28.85	-35.6	-37.4	22.1	0.00e+00	0	42	0	1003487232	42	4507
2026-01-26 12:00:36.25	157.88	29.03	-35.6	-37.4	22.1	0.00e+00	0	42	0	1008730112	42	4524
2026-01-26 12:00:37.25	157.87	29.22	-35.6	-37.4	21.6	0.00e+00	0	43	0	1015021568	42	4528
2026-01-26 12:00:38.24	157.86	29.40	-35.6	-37.4	22.1	0.00e+00	0	42	0	1020264448	42	4545
2026-01-26 12:00:39.23	157.84	29.59	-35.5	-37.3	22.2	0.00e+00	0	43	0	1025507328	42	4485
2026-01-26 12:00:40.23	157.83	29.78	-35.5	-37.3	22.2	0.00e+00	0	43	0	1031798784	42	4463
2026-01-26 12:00:41.22	157.82	29.97	-35.4	-37.2	22.3	0.00e+00	0	43	0	1037041664	42	4414
2026-01-26 12:00:42.22	157.81	30.16	-35.4	-37.2	22.3	0.00e+00	0	43	0	1042284544	42	4413
2026-01-26 12:00:43.21	157.79	30.35	-35.3	-37.1	22.4	0.00e+00	0	43	0	1048576000	42	4362
2026-01-26 12:00:44.20	157.78	30.55	-35.0	-36.8	22.6	0.00e+00	0	43	0	1053818880	42	4217
2026-01-26 12:00:45.20	157.77	30.74	-35.0	-36.8	22.7	0.00e+00	0	43	0	1059061760	42	4199
2026-01-26 12:00:46.20	157.75	30.94	-34.9	-36.7	22.8	0.00e+00	0	42	0	1065353216	41	4398
2026-01-26 12:00:47.19	157.74	31.14	-34.9	-36.6	22.8	0.00e+00	0	43	0	1070596096	41	4389
2026-01-26 12:00:48.18	157.72	31.34	-34.8	-36.5	22.9	0.00e+00	0	43	0	1075838976	41	4331
2026-01-26 12:00:49.18	157.71	31.54	-34.9	-36.6	22.8	0.00e+00	0	43	0	1082130432	41	4379
2026-01-26 12:00:50.17	157.69	31.74	-34.9	-36.6	22.8	0.00e+00	0	43	0	1087373312	41	4369
2026-01-26 12:00:51.17	157.68	31.94	-34.9	-36.6	22.8	0.00e+00	0	43	0	1092616192	41	4385
2026-01-26 12:00:52.17	157.66	32.15	-35.0	-36.7	22.7	0.00e+00	0	43	0	1098907648	41	4432
2026-01-26 12:00:53.16	157.65	32.35	-35.0	-36.8	22.7	0.00e+00	0	43	0	1104150528	41	4444
2026-01-26 12:00:54.16	157.63	32.56	-35.1	-36.9	22.6	0.00e+00	0	43	0	1109393408	41	4494
2026-01-26 12:00:55.15	157.62	32.77	-35.1	-36.9	22.6	0.00e+00	0	43	0	1115684864	41	4501
2026-01-26 12:00:56.15	157.60	32.98	-35.2	-36.9	22.5	0.00e+00	0	43	0	1120927744	41	4535
2026-01-26 12:00:57.14	157.58	33.20	-35.2	-36.9	22.5	0.00e+00	0	43	0	1126170624	41	4537
2026-01-26 12:00:58.14	157.57	33.41	-35.2	-36.9	22.5	0.00e+00	0	43	0	1132462080	41	4522
2026-01-26 12:00:59.13	157.55	33.62	-35.1	-36.8	22.6	0.00e+00	0	43	0	1137704960	41	4481
2026-01-26 12:01:00.13	157.53	33.84	-35.1	-36.8	22.7	0.00e+00	0	43	0	1143996416	41	4484
2026-01-26 12:01:01.13	157.52	34.06	-35.0	-36.7	22.8	0.00e+00	0	43	0	1149239296	41	4424
2026-01-26 12:01:02.12	157.50	34.28	-34.9	-36.6	22.9	0.00e+00	0	43	0	1154482176	41	4362
2026-01-26 12:01:03.12	157.48	34.50	-34.9	-36.7	22.8	0.00e+00	0	43	0	1159725056	41	4404
2026-01-26 12:01:04.11	157.46	34.73	-34.8	-36.6	22.9	0.00e+00	0	43	0	1166016512	41	4354
2026-01-26 12:01:05.10	157.44	34.95	-34.9	-36.7	22.8	0.00e+00	0	43	0	1171259392	41	4394
2026-01-26 12:01:06.10	157.42	35.18	-34.9	-36.6	22.8	0.00e+00	0	43	0	1176502272	41	4373
2026-01-26 12:01:07.09	157.41	35.40	-34.7	-36.4	23.0	0.00e+00	0	43	0	1182793728	41	4286
2026-01-26 12:01:08.09	157.39	35.63	-34.7	-36.4	23.0	0.00e+00	0	43	0	1188036608	41	4257
2026-01-26 12:01:09.08	157.37	35.86	-34.7	-36.4	23.0	0.00e+00	0	43	0	1194328064	41	4285
2026-01-26 12:01:10.07	157.35	36.10	-34.7	-36.4	23.0	0.00e+00	0	43	0	1199570944	41	4286
2026-01-26 12:01:11.07	157.33	36.33	-34.7	-36.4	23.0	0.00e+00	0	43	0	1204813824	41	4271
2026-01-26 12:01:12.06	157.30	36.57	-34.7	-36.4	23.0	0.00e+00	0	42	0	1210056704	41	4286
2026-01-26 12:01:13.06	157.28	36.81	-34.7	-36.4	23.0	0.00e+00	0	43	0	1216348160	41	4278
2026-01-26 12:01:14.05	157.26	37.04	-34.8	-36.6	22.9	0.00e+00	0	43	0	1221591040	41	4351
2026-01-26 12:01:15.05	157.24	37.29	-34.8	-36.6	22.9	0.00e+00	0	43	0	1226833920	41	4349
2026-01-26 12:01:16.04	157.22	37.53	-34.7	-36.4	23.0	0.00e+00	0	43	0	1233125376	41	4266
2026-01-26 12:01:17.04	157.19	37.78	-34.6	-36.3	23.1	0.00e+00	0	43	0	1238368256	41	4215
2026-01-26 12:01:18.03	157.17	38.02	-34.5	-36.2	23.2	0.00e+00	0	43	0	1244659712	41	4158
2026-01-26 12:01:19.03	157.15	38.27	-34.5	-36.2	23.2	0.00e+00	0	43	0	1249902592	40	4408
2026-01-26 12:01:20.02	157.12	38.52	-34.6	-36.3	23.1	0.00e+00	0	43	0	1255145472	40	4486
2026-01-26 12:01:21.02	157.10	38.77	-34.7	-36.4	23.0	0.00e+00	0	42	0	1260388352	40	4514
2026-01-26 12:01:22.01	157.08	39.03	-34.9	-36.6	22.8	0.00e+00	0	43	0	1266679808	40	4628
2026-01-26 12:01:23.01	157.05	39.28	-35.1	-36.9	22.6	0.00e+00	0	43	0	1271922688	40	4760
2026-01-26 12:01:24.00	157.02	39.54	-35.3	-37.0	22.5	0.00e+00	0	43	0	1278214144	41	4581
2026-01-26 12:01:25.00	157.00	39.80	-35.4	-37.2	22.3	0.00e+00	0	43	0	1283457024	41	4683
2026-01-26 12:01:25.99	156.97	40.06	-35.5	-37.2	22.3	0.00e+00	0	43	0	1288699904	41	4702
2026-01-26 12:01:26.99	156.95	40.33	-35.6	-37.3	22.3	0.00e+00	0	43	0	1294991360	41	4743
2026-01-26 12:01:27.99	156.92	40.60	-35.7	-37.5	22.2	0.00e+00	0	43	0	1300234240	42	4555
2026-01-26 12:01:28.98	156.89	40.86	-35.7	-37.5	22.1	0.00e+00	0	43	0	1305477120	42	4572
2026-01-26 12:01:29.98	156.86	41.13	-35.7	-37.5	22.1	0.00e+00	0	42	0	1311768576	42	4580
2026-01-26 12:01:30.97	156.83	41.40	-35.7	-37.4	22.2	0.00e+00	0	43	0	1317011456	42	4534
2026-01-26 12:01:31.97	156.80	41.68	-35.6	-37.3	22.3	0.00e+00	0	43	0	1322254336	42	4482
2026-01-26 12:01:32.96	156.77	41.95	-35.4	-37.1	22.5	0.00e+00	0	43	0	1328545792	42	4346
2026-01-26 12:01:33.96	156.74	42.23	-35.4	-37.1	22.5	0.00e+00	0	43	0	1333788672	42	4388
2026-01-26 12:01:34.96	156.71	42.51	-35.4	-37.1	22.5	0.00e+00	0	43	0	1339031552	42	4391
2026-01-26 12:01:35.95	156.68	42.79	-35.2	-36.9	22.7	0.00e+00	0	43	0	1345323008	42	4255
2026-01-26 12:01:36.95	156.65	43.08	-35.2	-36.9	22.7	0.00e+00	0	43	0	1350565888	42	4259
2026-01-26 12:01:37.94	156.61	43.37	-35.1	-36.8	22.8	0.00e+00	0	43	0	1355808768	42	4217
2026-01-26 12:01:38.94	156.58	43.66	-35.2	-36.9	22.7	0.00e+00	0	43	0	1362100224	42	4245
2026-01-26 12:01:39.93	156.54	43.95	-35.2	-36.9	22.7	0.00e+00	0	43	0	1367343104	42	4285
2026-01-26 12:01:40.92	156.51	44.24	-35.3	-37.0	22.7	0.00e+00	0	43	0	1372585984	42	4328
2026-01-26 12:01:41.92	156.47	44.53	-35.4	-37.2	22.5	0.00e+00	0	43	0	1378877440	42	4404
2026-01-26 12:01:42.91	156.44	44.83	-35.4	-37.1	22.6	0.00e+00	0	43	0	1384120320	42	4357
2026-01-26 12:01:43.91	156.40	45.13	-35.4	-37.1	22.6	0.00e+00	0	43	0	1389363200	42	4370
2026-01-26 12:01:44.90	156.36	45.43	-35.4	-37.1	22.6	0.00e+00	0	43	0	1395654656	42	4373
2026-01-26 12:01:45.90	156.32	45.74	-35.5	-37.2	22.5	0.00e+00	0	43	0	1400897536	42	4408
2026-01-26 12:01:46.89	156.28	46.04	-35.3	-37.0	22.7	0.00e+00	0	43	0	1406140416	42	4301
2026-01-26 12:01:47.89	156.24	46.35	-35.2	-36.9	22.8	0.00e+00	0	43	0	1412431872	42	4257
2026-01-26 12:01:48.88	156.20	46.66	-35.0	-36.7	22.9	0.00e+00	0	43	0	1417674752	42	4182
2026-01-26 12:01:49.87	156.16	46.97	-34.8	-36.5	23.1	0.00e+00	0	43	0	1422917632	41	4319
2026-01-26 12:01:50.87	156.11	47.29	-34.8	-36.5	23.1	0.00e+00	0	43	0	1429209088	41	4316
2026-01-26 12:01:51.86	156.07	47.61	-34.9	-36.6	23.0	0.00e+00	0	43	0	1434451968	41	4363
2026-01-26 12:01:52.86	156.02	47.93	-35.1	-36.8	22.8	0.00e+00	0	43	0	1439694848	41	4457
2026-01-26 12:01:53.85	155.98	48.25	-35.4	-37.1	22.6	0.00e+00	0	43	0	1445986304	41	4630
2026-01-26 12:01:54.85	155.93	48.58	-35.5	-37.2	22.6	0.00e+00	0	43	0	1451229184	41	4672
2026-01-26 12:01:55.84	155.88	48.90	-35.4	-37.2	22.6	0.00e+00	0	43	0	1456472064	41	4654
2026-01-26 12:01:56.84	155.83	49.23	-35.5	-37.2	22.5	0.00e+00	0	43	0	1462763520	41	4702
2026-01-26 12:01:57.83	155.78	49.56	-35.9	-37.6	22.2	0.00e+00	0	43	0	1468006400	42	4647
2026-01-26 12:01:58.83	155.73	49.90	-36.2	-37.9	22.0	0.00e+00	0	43	0	1473249280	42	4800
2026-01-26 12:01:59.82	155.68	50.24	-36.1	-37.8	22.1	0.00e+00	0	43	0	1479540736	43	4475
2026-01-26 12:02:00.82	155.62	50.58	-36.1	-37.8	22.1	0.00e+00	0	43	0	1484783616	43	4484
2026-01-26 12:02:01.81	155.57	50.92	-35.7	-37.4	22.4	0.00e+00	0	43	0	1490026496	43	4280
2026-01-26 12:02:02.81	155.51	51.26	-35.9	-37.6	22.3	0.00e+00	0	43	0	1496317952	43	4363
2026-01-26 12:02:03.81	155.45	51.61	-36.2	-37.9	22.0	0.00e+00	0	43	0	1501560832	43	4535
2026-01-26 12:02:04.80	155.39	51.96	-36.4	-38.1	21.8	0.00e+00	0	43	0	1506803712	43	4649
2026-01-26 12:02:05.80	155.33	52.31	-36.4	-38.1	21.7	0.00e+00	0	42	0	1513095168	43	4638
2026-01-26 12:02:06.79	155.27	52.67	-36.3	-38.1	21.8	0.00e+00	0	43	0	1518338048	43	4610
2026-01-26 12:02:07.79	155.20	53.03	-36.2	-37.9	21.9	0.00e+00	0	43	0	1523580928	43	4525
2026-01-26 12:02:08.78	155.14	53.38	-36.1	-37.8	21.9	0.00e+00	0	43	0	1529872384	43	4472
2026-01-26 12:02:09.78	155.07	53.75	-36.3	-38.1	21.7	0.00e+00	0	43	0	1535115264	43	4617
2026-01-26 12:02:10.77	155.00	54.11	-36.5	-38.3	21.5	0.00e+00	0	43	0	1540358144	43	4709
2026-01-26 12:02:11.77	154.93	54.48	-36.6	-38.4	21.5	0.00e+00	0	43	0	1546649600	43	4762
2026-01-26 12:02:12.76	154.85	54.85	-36.6	-38.4	21.5	0.00e+00	0	43	0	1551892480	43	4804
2026-01-26 12:02:13.76	154.78	55.22	-36.6	-38.4	21.5	0.00e+00	0	43	0	1557135360	43	4797
2026-01-26 12:02:14.75	154.70	55.60	-36.5	-38.2	21.8	0.00e+00	0	43	0	1563426816	44	4439
2026-01-26 12:02:15.75	154.62	55.98	-36.1	-37.9	22.1	0.00e+00	0	43	0	1568669696	44	4262
2026-01-26 12:02:16.74	154.54	56.35	-36.2	-37.9	22.2	0.00e+00	0	43	0	1573912576	44	4264
2026-01-26 12:02:17.74	154.45	56.74	-36.2	-37.9	22.1	0.00e+00	0	43	0	1580204032	44	4269
2026-01-26 12:02:18.73	154.37	57.12	-36.5	-38.2	21.9	0.00e+00	0	43	0	1585446912	44	4424
2026-01-26 12:02:19.73	154.28	57.51	-36.1	-37.9	22.2	0.00e+00	0	43	0	1590689792	44	4246
2026-01-26 12:02:20.72	154.18	57.90	-35.5	-37.2	22.6	0.00e+00	0	43	0	1596981248	43	4190
2026-01-26 12:02:21.72	154.09	58.30	-35.2	-36.9	22.9	0.00e+00	0	43	0	1602224128	42	4259
2026-01-26 12:02:22.71	153.99	58.69	-35.3	-37.0	22.8	0.00e+00	0	43	0	1607467008	42	4306
2026-01-26 12:02:23.71	153.89	59.09	-35.5	-37.2	22.5	0.00e+00	0	43	0	1613758464	42	4400
2026-01-26 12:02:24.70	153.78	59.49	-35.3	-37.0	22.7	0.00e+00	0	43	0	1619001344	42	4325
2026-01-26 12:02:25.70	153.68	59.89	-35.2	-36.9	22.8	0.00e+00	0	43	0	1624244224	42	4273
2026-01-26 12:02:26.70	153.56	60.30	-35.2	-36.9	22.7	0.00e+00	0	43	0	1630535680	42	4290
2026-01-26 12:02:27.69	153.45	60.71	-35.4	-37.1	22.6	0.00e+00	0	43	0	1635778560	42	4354
2026-01-26 12:02:28.69	153.33	61.12	-35.4	-37.1	22.6	0.00e+00	0	43	0	1642070016	42	4362
2026-01-26 12:02:29.68	153.21	61.53	-35.3	-37.0	22.7	0.00e+00	0	43	0	1647312896	42	4329
2026-01-26 12:02:30.68	153.08	61.95	-35.4	-37.2	22.6	0.00e+00	0	43	0	1652555776	42	4407
2026-01-26 12:02:31.67	152.95	62.36	-35.5	-37.2	22.6	0.00e+00	0	43	0	1657798656	42	4426
2026-01-26 12:02:32.67	152.81	62.79	-35.2	-36.9	22.8	0.00e+00	0	43	0	1664090112	42	4273
2026-01-26 12:02:33.66	152.67	63.21	-35.2	-36.9	22.8	0.00e+00	0	43	0	1669332992	42	4247
2026-01-26 12:02:34.66	152.52	63.63	-34.7	-36.5	23.1	0.00e+00	0	43	0	1675624448	41	4299
2026-01-26 12:02:35.65	152.37	64.06	-34.5	-36.1	23.4	0.00e+00	0	43	0	1680867328	41	4144
2026-01-26 12:02:36.64	152.21	64.49	-34.5	-36.1	23.4	0.00e+00	0	43	0	1686110208	40	4385
2026-01-26 12:02:37.64	152.05	64.92	-34.7	-36.4	23.2	0.00e+00	0	43	0	1692401664	40	4516
2026-01-26 12:02:38.63	151.88	65.35	-34.6	-36.3	23.2	0.00e+00	0	43	0	1697644544	40	4445
2026-01-26 12:02:39.63	151.70	65.79	-34.6	-36.3	23.2	0.00e+00	0	43	0	1702887424	40	4493
2026-01-26 12:02:40.62	151.51	66.23	-34.8	-36.5	23.1	0.00e+00	0	43	0	1708130304	40	4565
2026-01-26 12:02:41.62	151.32	66.67	-35.0	-36.7	23.0	0.00e+00	0	43	0	1714421760	40	4668
2026-01-26 12:02:42.61	151.12	67.11	-34.9	-36.6	23.0	0.00e+00	0	43	0	1719664640	40	4611
2026-01-26 12:02:43.61	150.91	67.56	-34.7	-36.5	23.1	0.00e+00	0	43	0	1725956096	40	4551
2026-01-26 12:02:44.60	150.69	68.00	-34.3	-36.0	23.5	0.00e+00	0	43	0	1731198976	40	4310
2026-01-26 12:02:45.60	150.46	68.46	-34.2	-35.9	23.5	0.00e+00	0	43	0	1736441856	40	4249
2026-01-26 12:02:46.59	150.22	68.90	-34.1	-35.8	23.6	0.00e+00	0	43	0	1742733312	40	4199
2026-01-26 12:02:47.59	149.96	69.36	-33.9	-35.5	23.9	0.00e+00	0	43	0	1747976192	39	4312
2026-01-26 12:02:48.58	149.70	69.81	-33.9	-35.5	23.9	0.00e+00	0	43	0	1753219072	39	4318
2026-01-26 12:02:49.58	149.42	70.27	-34.0	-35.7	23.8	0.00e+00	0	43	0	1758461952	39	4393
2026-01-26 12:02:50.57	149.13	70.73	-34.2	-35.8	23.6	0.00e+00	0	43	0	1764753408	39	4487
2026-01-26 12:02:51.56	148.82	71.18	-33.9	-35.6	23.8	0.00e+00	0	43	0	1769996288	39	4370
2026-01-26 12:02:52.56	148.50	71.65	-33.9	-35.6	23.9	0.00e+00	0	43	0	1776287744	39	4345
2026-01-26 12:02:53.56	148.15	72.11	-33.9	-35.5	23.9	0.00e+00	0	43	0	1781530624	39	4333
2026-01-26 12:02:54.55	147.80	72.57	-33.9	-35.6	23.9	0.00e+00	0	43	0	1786773504	39	4368
2026-01-26 12:02:55.55	147.41	73.04	-33.8	-35.5	24.0	0.00e+00	0	43	0	1793064960	39	4296
2026-01-26 12:02:56.54	147.01	73.50	-33.5	-35.2	24.1	0.00e+00	0	43	0	1798307840	39	4153
2026-01-26 12:02:57.53	146.58	73.97	-33.4	-35.1	24.1	0.00e+00	0	43	0	1803550720	38	4354
2026-01-26 12:02:58.53	146.12	74.44	-33.6	-35.3	24.0	0.00e+00	0	43	0	1809842176	38	4444
2026-01-26 12:02:59.52	145.63	74.90	-33.6	-35.3	23.9	0.00e+00	0	43	0	1815085056	38	4465
2026-01-26 12:03:00.52	145.11	75.38	-33.7	-35.3	23.9	0.00e+00	0	43	0	1820327936	38	4487
2026-01-26 12:03:01.51	144.56	75.84	-33.6	-35.3	23.9	0.00e+00	0	43	0	1826619392	38	4476
2026-01-26 12:03:02.51	143.96	76.32	-33.7	-35.4	23.9	0.00e+00	0	43	0	1831862272	38	4503
2026-01-26 12:03:03.50	143.32	76.78	-33.4	-35.1	24.0	0.00e+00	0	43	0	1837105152	38	4363
2026-01-26 12:03:04.50	142.63	77.25	-33.1	-34.7	24.4	0.00e+00	0	43	0	1843396608	38	4177
2026-01-26 12:03:05.50	141.89	77.73	-33.0	-34.7	24.6	0.00e+00	0	43	0	1848639488	38	4149
2026-01-26 12:03:06.49	141.09	78.19	-33.1	-34.7	24.4	0.00e+00	0	43	0	1853882368	37	4433
2026-01-26 12:03:07.48	140.22	78.66	-32.8	-34.5	24.5	0.00e+00	0	43	0	1860173824	37	4304
2026-01-26 12:03:08.48	139.26	79.12	-32.4	-34.0	24.9	0.00e+00	0	43	0	1865416704	36	4316
2026-01-26 12:03:09.47	138.23	79.58	-32.5	-34.1	24.8	0.00e+00	0	43	0	1870659584	36	4357
2026-01-26 12:03:10.47	137.10	80.05	-32.6	-34.2	24.7	0.00e+00	0	43	0	1876951040	36	4430
2026-01-26 12:03:11.46	135.86	80.50	-32.3	-34.0	24.9	0.00e+00	0	43	0	1882193920	36	4293
2026-01-26 12:03:12.46	134.48	80.96	-32.4	-34.0	24.9	0.00e+00	0	43	0	1887436800	36	4336
2026-01-26 12:03:13.45	132.96	81.41	-32.1	-33.8	25.0	0.00e+00	0	43	0	1893728256	36	4195
2026-01-26 12:03:14.45	131.27	81.85	-32.3	-33.9	24.9	0.00e+00	0	43	0	1898971136	36	4267
2026-01-26 12:03:15.44	129.39	82.29	-32.1	-33.8	25.0	0.00e+00	0	42	0	1904214016	36	4209
2026-01-26 12:03:16.44	127.27	82.71	-31.2	-32.9	24.8	0.00e+00	0	43	0	1910505472	34	4246
2026-01-26 12:03:17.43	124.91	83.13	-31.5	-33.1	24.6	0.00e+00	0	43	0	1915748352	34	4380
2026-01-26 12:03:18.43	122.22	83.54	-31.5	-33.2	24.6	0.00e+00	0	43	0	1920991232	34	4398
2026-01-26 12:03:19.42	119.21	83.92	-31.7	-33.3	24.5	0.00e+00	0	43	0	1927282688	34	4487
2026-01-26 12:03:20.42	115.75	84.30	-32.2	-33.9	24.1	0.00e+00	0	43	0	1932525568	35	4507
2026-01-26 12:03:21.41	111.87	84.64	-32.3	-34.0	24.0	0.00e+00	0	43	0	1937768448	35	4561
2026-01-26 12:03:22.41	107.43	84.96	-32.5	-34.2	23.9	0.00e+00	0	43	0	1944059904	35	4654
2026-01-26 12:03:23.40	102.46	85.25	-32.5	-34.2	23.9	0.00e+00	0	43	0	1949302784	35	4691
2026-01-26 12:03:24.40	96.85	85.49	-32.4	-34.1	23.9	0.00e+00	0	43	0	1954545664	35	4608
2026-01-26 12:03:25.39	90.72	85.69	-32.4	-34.1	23.8	0.00e+00	0	43	0	1960837120	35	4641
2026-01-26 12:03:26.39	84.01	85.84	-32.3	-34.0	23.9	0.00e+00	0	43	0	1966080000	35	4570
2026-01-26 12:03:27.38	77.00	85.92	-32.5	-34.1	23.8	0.00e+00	0	43	0	1971322880	35	4646
2026-01-26 12:03:28.37	69.80	85.94	-33.3	-35.0	24.1	0.00e+00	0	43	0	1977614336	37	4563
2026-01-26 12:03:29.37	62.57	85.90	-33.3	-34.9	24.1	0.00e+00	0	43	0	1982857216	37	4539
2026-01-26 12:03:30.36	55.66	85.79	-33.3	-35.0	24.0	0.00e+00	0	43	0	1988100096	37	4577
2026-01-26 12:03:31.35	49.19	85.63	-33.3	-35.0	24.1	0.00e+00	0	43	0	1994391552	37	4561
2026-01-26 12:03:32.35	43.19	85.41	-33.3	-35.0	24.2	0.00e+00	0	43	0	1999634432	37	4551
2026-01-26 12:03:33.34	37.84	85.15	-33.2	-34.9	24.3	0.00e+00	0	43	0	2004877312	37	4495
2026-01-26 12:03:34.34	33.03	84.85	-33.0	-34.7	24.3	0.00e+00	0	43	0	2011168768	37	4402
2026-01-26 12:03:35.34	28.78	84.52	-32.8	-34.4	24.5	0.00e+00	0	43	0	2016411648	37	4277
2026-01-26 12:03:36.33	25.07	84.17	-32.6	-34.2	24.7	0.00e+00	0	43	0	2021654528	37	4192
2026-01-26 12:03:37.33	21.76	83.79	-32.6	-34.2	24.7	0.00e+00	0	43	0	2027945984	36	4421
2026-01-26 12:03:38.32	18.88	83.40	-32.7	-34.4	24.6	0.00e+00	0	43	0	2033188864	36	4502
2026-01-26 12:03:39.31	16.32	82.99	-32.7	-34.4	24.7	0.00e+00	0	43	0	2038431744	36	4502
2026-01-26 12:03:40.31	14.04	82.57	-32.7	-34.3	24.7	0.00e+00	0	43	0	2044723200	36	4486
2026-01-26 12:03:41.30	12.02	82.14	-32.6	-34.3	24.7	0.00e+00	0	43	0	2049966080	36	4455
2026-01-26 12:03:42.30	10.20	81.70	-32.3	-33.9	25.0	0.00e+00	0	43	0	2055208960	36	4256
2026-01-26 12:03:43.29	8.58	81.26	-32.3	-33.9	25.0	0.00e+00	0	43	0	2061500416	36	4262
2026-01-26 12:03:44.29	7.10	80.80	-32.5	-34.1	24.7	0.00e+00	0	43	0	2066743296	36	4373
2026-01-26 12:03:45.28	5.78	80.35	-32.4	-34.1	24.8	0.00e+00	0	43	0	2071986176	36	4342
2026-01-26 12:03:46.28	4.57	79.89	-32.3	-33.9	24.9	0.00e+00	0	43	0	2078277632	36	4260
2026-01-26 12:03:47.28	3.47	79.43	-32.5	-34.1	24.9	0.00e+00	0	43	0	2083520512	36	4355
2026-01-26 12:03:48.27	2.47	78.97	-32.6	-34.2	24.7	0.00e+00	0	43	0	2088763392	36	4430
2026-01-26 12:03:49.27	1.54	78.50	-32.7	-34.3	24.8	0.00e+00	0	43	0	2095054848	36	4468
2026-01-26 12:03:50.26	0.70	78.03	-32.9	-34.5	24.6	0.00e+00	0	43	0	2100297728	36	4592
2026-01-26 12:03:51.26	359.92	77.56	-33.2	-34.9	24.3	0.00e+00	0	43	0	2105540608	37	4534
2026-01-26 12:03:52.25	359.20	77.10	-33.3	-35.0	24.2	0.00e+00	0	43	0	2111832064	37	4572
2026-01-26 12:03:53.25	358.52	76.63	-33.4	-35.0	24.2	0.00e+00	0	43	0	2117074944	37	4595
2026-01-26 12:03:54.24	357.90	76.16	-33.3	-35.0	24.3	0.00e+00	0	43	0	2123366400	37	4562
2026-01-26 12:03:55.24	357.32	75.69	-33.4	-35.0	24.2	0.00e+00	0	43	0	2128609280	37	4598
2026-01-26 12:03:56.23	356.78	75.22	-33.4	-35.1	24.2	0.00e+00	0	43	0	2133852160	37	4616
2026-01-26 12:03:57.22	356.27	74.76	-33.4	-35.0	24.2	0.00e+00	0	43	0	2139095040	37	4597
2026-01-26 12:03:58.22	355.79	74.29	-33.3	-34.9	24.3	0.00e+00	0	43	0	2145386496	37	4540
2026-01-26 12:03:59.21	355.35	73.82	-33.7	-35.4	24.0	0.00e+00	0	43	0	2150629376	38	4514
2026-01-26 12:04:00.21	354.93	73.35	-33.9	-35.6	23.8	0.00e+00	0	43	0	2155872256	38	4649
2026-01-26 12:04:01.20	354.53	72.89	-33.6	-35.2	24.1	0.00e+00	0	43	0	2162163712	38	4427
2026-01-26 12:04:02.20	354.15	72.42	-33.7	-35.3	24.0	0.00e+00	0	43	0	2167406592	38	4477
2026-01-26 12:04:03.19	353.80	71.96	-33.9	-35.5	23.8	0.00e+00	0	43	0	2173698048	38	4598
2026-01-26 12:04:04.19	353.46	71.50	-33.9	-35.5	23.9	0.00e+00	0	43	0	2178940928	38	4594
2026-01-26 12:04:05.18	353.15	71.04	-34.0	-35.7	23.8	0.00e+00	0	43	0	2184183808	38	4674
2026-01-26 12:04:06.17	352.85	70.59	-34.1	-35.8	23.7	0.00e+00	0	43	0	2189426688	38	4748
2026-01-26 12:04:07.17	352.56	70.13	-34.1	-35.8	23.7	0.00e+00	0	43	0	2195718144	38	4725
2026-01-26 12:04:08.16	352.29	69.68	-34.6	-36.4	23.3	0.00e+00	0	43	0	2200961024	40	4500
2026-01-26 12:04:09.16	352.03	69.22	-34.9	-36.7	23.0	0.00e+00	0	43	0	2206203904	40	4672
2026-01-26 12:04:10.15	351.78	68.77	-34.4	-36.1	23.5	0.00e+00	0	43	0	2212495360	40	4359
2026-01-26 12:04:11.15	351.54	68.32	-34.2	-35.9	23.6	0.00e+00	0	43	0	2217738240	40	4259
2026-01-26 12:04:12.15	351.31	67.87	-34.7	-36.5	23.1	0.00e+00	0	43	0	2224029696	40	4547
2026-01-26 12:04:13.14	351.10	67.43	-34.4	-36.2	23.3	0.00e+00	0	43	0	2229272576	40	4392
2026-01-26 12:04:14.14	350.89	66.98	-34.2	-35.9	23.6	0.00e+00	0	43	0	2234515456	40	4251
2026-01-26 12:04:15.13	350.69	66.54	-34.1	-35.8	23.6	0.00e+00	0	43	0	2240806912	40	4217
2026-01-26 12:04:16.13	350.50	66.10	-34.2	-35.9	23.5	0.00e+00	0	43	0	2246049792	40	4284
2026-01-26 12:04:17.12	350.32	65.67	-34.1	-35.8	23.6	0.00e+00	0	43	0	2251292672	40	4224
2026-01-26 12:04:18.11	350.14	65.24	-34.1	-35.8	23.7	0.00e+00	0	43	0	2256535552	40	4195
2026-01-26 12:04:19.11	349.97	64.80	-34.2	-35.8	23.7	0.00e+00	0	43	0	2262827008	40	4241
2026-01-26 12:04:20.11	349.81	64.37	-34.2	-35.9	23.7	0.00e+00	0	43	0	2268069888	40	4258
2026-01-26 12:04:21.10	349.66	63.94	-34.3	-35.9	23.7	0.00e+00	0	43	0	2274361344	40	4275
2026-01-26 12:04:22.10	349.51	63.52	-34.2	-35.9	23.7	0.00e+00	0	43	0	2279604224	40	4261
2026-01-26 12:04:23.09	349.36	63.09	-34.2	-35.9	23.7	0.00e+00	0	43	0	2284847104	40	4243
2026-01-26 12:04:24.09	349.22	62.67	-34.2	-35.9	23.7	0.00e+00	0	43	0	2291138560	40	4245
2026-01-26 12:04:25.08	349.09	62.26	-34.3	-35.9	23.7	0.00e+00	0	43	0	2296381440	40	4279
2026-01-26 12:04:26.08	348.96	61.84	-34.5	-36.1	23.5	0.00e+00	0	43	0	2301624320	40	4377
2026-01-26 12:04:27.07	348.83	61.43	-34.6	-36.3	23.4	0.00e+00	0	43	0	2306867200	40	4478
2026-01-26 12:04:28.07	348.71	61.01	-34.8	-36.5	23.2	0.00e+00	0	43	0	2313158656	40	4557
2026-01-26 12:04:29.06	348.59	60.61	-34.7	-36.4	23.2	0.00e+00	0	43	0	2318401536	40	4529
2026-01-26 12:04:30.06	348.48	60.20	-34.9	-36.5	23.1	0.00e+00	0	43	0	2324692992	40	4596
2026-01-26 12:04:31.05	348.37	59.80	-35.3	-37.0	22.7	0.00e+00	0	43	0	2329935872	41	4561
2026-01-26 12:04:32.05	348.26	59.39	-35.4	-37.1	22.6	0.00e+00	0	43	0	2335178752	41	4621
2026-01-26 12:04:33.04	348.16	59.00	-35.4	-37.2	22.6	0.00e+00	0	43	0	2341470208	41	4660
2026-01-26 12:04:34.04	348.06	58.60	-35.4	-37.1	22.7	0.00e+00	0	43	0	2346713088	41	4644
2026-01-26 12:04:35.03	347.96	58.21	-35.6	-37.4	22.5	0.00e+00	0	43	0	2351955968	41	4780
2026-01-26 12:04:36.03	347.87	57.81	-36.0	-37.8	22.1	0.00e+00	0	43	0	2358247424	42	4725
2026-01-26 12:04:37.02	347.78	57.43	-35.8	-37.6	22.3	0.00e+00	0	43	0	2363490304	42	4633
2026-01-26 12:04:38.02	347.69	57.04	-35.7	-37.5	22.4	0.00e+00	0	43	0	2368733184	42	4547
2026-01-26 12:04:39.02	347.60	56.65	-35.8	-37.6	22.3	0.00e+00	0	43	0	2375024640	42	4610
2026-01-26 12:04:40.01	347.52	56.28	-36.1	-37.9	22.0	0.00e+00	0	43	0	2380267520	42	4782
2026-01-26 12:04:41.01	347.44	55.90	-36.4	-38.2	21.8	0.00e+00	0	43	0	2385510400	43	4662
2026-01-26 12:04:42.01	347.36	55.52	-36.4	-38.2	21.7	0.00e+00	0	43	0	2391801856	43	4678
2026-01-26 12:04:43.00	347.28	55.15	-36.2	-38.0	21.9	0.00e+00	0	43	0	2397044736	43	4572
2026-01-26 12:04:43.99	347.21	54.78	-36.2	-38.0	21.9	0.00e+00	0	43	0	2402287616	43	4574
2026-01-26 12:04:44.99	347.13	54.41	-36.4	-38.2	21.7	0.00e+00	0	43	0	2408579072	43	4665
2026-01-26 12:04:45.99	347.06	54.04	-36.2	-38.0	21.8	0.00e+00	0	43	0	2413821952	43	4581
2026-01-26 12:04:46.98	346.99	53.68	-36.3	-38.0	21.9	0.00e+00	0	43	0	2419064832	43	4565
2026-01-26 12:04:47.97	346.93	53.32	-36.1	-37.9	21.9	0.00e+00	0	43	0	2425356288	43	4517
2026-01-26 12:04:48.97	346.86	52.96	-36.3	-38.1	21.8	0.00e+00	0	43	0	2430599168	43	4607
2026-01-26 12:04:49.97	346.80	52.61	-36.2	-37.9	22.5	0.00e+00	0	43	0	2435842048	43	4512
2026-01-26 12:04:50.96	346.74	52.25	-35.8	-37.5	22.7	0.00e+00	0	43	0	2442133504	43	4311
2026-01-26 12:04:51.96	346.67	51.90	-35.7	-37.3	22.9	0.00e+00	0	43	0	2447376384	43	4220
2026-01-26 12:04:52.96	346.61	51.55	-35.8	-37.4	22.8	0.00e+00	0	43	0	2452619264	43	4260
2026-01-26 12:04:53.95	346.56	51.21	-35.6	-37.2	23.0	0.00e+00	0	43	0	2458910720	43	4172
2026-01-26 12:04:54.95	346.50	50.87	-35.5	-37.2	23.1	0.00e+00	0	43	0	2464153600	43	4156
2026-01-26 12:04:55.94	346.45	50.53	-35.3	-36.9	23.2	0.00e+00	0	43	0	2469396480	42	4288
2026-01-26 12:04:56.93	346.39	50.19	-35.0	-36.6	23.5	0.00e+00	0	43	0	2475687936	42	4119
2026-01-26 12:04:57.93	346.34	49.85	-34.9	-36.5	23.6	0.00e+00	0	42	0	2480930816	41	4315
2026-01-26 12:04:58.92	346.29	49.52	-35.0	-36.7	23.5	0.00e+00	0	43	0	2486173696	41	4394
2026-01-26 12:04:59.92	346.24	49.19	-35.3	-37.0	23.2	0.00e+00	0	42	0	2492465152	41	4548
2026-01-26 12:05:00.91	346.19	48.86	-35.3	-36.9	23.2	0.00e+00	0	43	0	2497708032	41	4538
2026-01-26 12:05:01.91	346.14	48.54	-35.0	-36.6	23.5	0.00e+00	0	43	0	2502950912	41	4387
2026-01-26 12:05:02.90	346.10	48.22	-34.9	-36.5	23.6	0.00e+00	0	43	0	2509242368	41	4326
2026-01-26 12:05:03.90	346.05	47.89	-34.9	-36.5	23.6	0.00e+00	0	43	0	2514485248	41	4324
2026-01-26 12:05:04.89	346.01	47.58	-34.9	-36.5	23.5	0.00e+00	0	43	0	2519728128	41	4337
2026-01-26 12:05:05.89	345.96	47.26	-35.0	-36.7	23.5	0.00e+00	0	43	0	2526019584	41	4394
2026-01-26 12:05:06.88	345.92	46.95	-35.2	-36.8	23.3	0.00e+00	0	43	0	2531262464	41	4488
2026-01-26 12:05:07.88	345.88	46.63	-35.2	-36.8	23.3	0.00e+00	0	43	0	2537553920	41	4479
2026-01-26 12:05:08.87	345.84	46.33	-35.3	-37.0	23.2	0.00e+00	0	43	0	2542796800	41	4554
2026-01-26 12:05:09.87	345.80	46.02	-35.4	-37.1	23.1	0.00e+00	0	43	0	2548039680	41	4635
2026-01-26 12:05:10.86	345.76	45.71	-35.1	-36.8	23.4	0.00e+00	0	43	0	2553282560	41	4465
2026-01-26 12:05:11.86	345.72	45.41	-35.1	-36.7	23.4	0.00e+00	0	43	0	2559574016	41	4435
2026-01-26 12:05:12.85	345.68	45.11	-35.0	-36.6	23.5	0.00e+00	0	43	0	2564816896	41	4391
2026-01-26 12:05:13.85	345.64	44.81	-35.1	-36.8	23.4	0.00e+00	0	43	0	2571108352	41	4447
2026-01-26 12:05:14.84	345.61	44.52	-35.2	-36.8	23.4	0.00e+00	0	43	0	2576351232	41	4463
2026-01-26 12:05:15.84	345.57	44.22	-35.0	-36.6	23.5	0.00e+00	0	43	0	2581594112	41	4364
2026-01-26 12:05:16.83	345.54	43.93	-35.1	-36.8	23.3	0.00e+00	0	43	0	2587885568	41	4451
2026-01-26 12:05:17.83	345.50	43.64	-35.2	-36.8	23.3	0.00e+00	0	43	0	2593128448	41	4490
2026-01-26 12:05:18.82	345.47	43.36	-35.3	-36.9	23.2	0.00e+00	0	43	0	2598371328	41	4539
2026-01-26 12:05:19.81	345.44	43.07	-35.3	-36.9	23.2	0.00e+00	0	43	0	2603614208	41	4540
2026-01-26 12:05:20.81	345.41	42.79	-35.2	-36.9	23.3	0.00e+00	0	43	0	2609905664	41	4509
2026-01-26 12:05:21.80	345.38	42.51	-35.2	-36.9	23.2	0.00e+00	0	43	0	2615148544	41	4507
2026-01-26 12:05:22.79	345.34	42.23	-35.2	-36.8	23.3	0.00e+00	0	43	0	2621440000	41	4471
2026-01-26 12:05:23.79	345.31	41.96	-34.7	-36.3	23.7	0.00e+00	0	42	0	2626682880	41	4240
2026-01-26 12:05:24.79	345.28	41.68	-34.6	-36.2	23.9	0.00e+00	0	43	0	2631925760	41	4168
2026-01-26 12:05:25.78	345.26	41.41	-34.6	-36.2	23.8	0.00e+00	0	43	0	2638217216	41	4166
2026-01-26 12:05:26.78	345.23	41.14	-34.6	-36.2	23.8	0.00e+00	0	43	0	2643460096	41	4193
2026-01-26 12:05:27.77	345.20	40.87	-34.7	-36.3	23.8	0.00e+00	0	43	0	2648702976	41	4212
2026-01-26 12:05:28.77	345.17	40.60	-34.7	-36.4	23.7	0.00e+00	0	43	0	2653945856	41	4252
2026-01-26 12:05:29.76	345.14	40.34	-34.7	-36.3	23.8	0.00e+00	0	43	0	2660237312	41	4242
2026-01-26 12:05:30.75	345.12	40.08	-34.6	-36.2	23.6	0.00e+00	0	42	0	2665480192	41	4183
2026-01-26 12:05:31.75	345.09	39.82	-34.5	-36.1	23.9	0.00e+00	0	43	0	2671771648	41	4138
2026-01-26 12:05:32.75	345.07	39.56	-34.4	-36.0	24.0	0.00e+00	0	43	0	2677014528	40	4335
2026-01-26 12:05:33.74	345.04	39.30	-34.3	-35.9	24.1	0.00e+00	0	43	0	2682257408	40	4271
2026-01-26 12:05:34.74	345.02	39.05	-34.2	-35.8	24.2	0.00e+00	0	43	0	2688548864	40	4216
2026-01-26 12:05:35.73	344.99	38.80	-34.2	-35.8	24.2	0.00e+00	0	43	0	2693791744	40	4229
2026-01-26 12:05:36.73	344.97	38.54	-34.1	-35.7	24.2	0.00e+00	0	43	0	2699034624	40	4158
2026-01-26 12:05:37.72	344.95	38.30	-34.0	-35.6	24.3	0.00e+00	0	43	0	2704277504	40	4134
2026-01-26 12:05:38.72	344.92	38.05	-34.1	-35.6	24.3	0.00e+00	0	43	0	2710568960	40	4143
2026-01-26 12:05:39.71	344.90	37.80	-34.3	-35.9	24.1	0.00e+00	0	43	0	2715811840	40	4257
2026-01-26 12:05:40.71	344.88	37.56	-34.4	-36.0	24.0	0.00e+00	0	43	0	2722103296	40	4333
2026-01-26 12:05:41.70	344.86	37.32	-34.6	-36.3	23.8	0.00e+00	0	43	0	2727346176	40	4454
2026-01-26 12:05:42.69	344.84	37.08	-34.7	-36.4	23.7	0.00e+00	0	43	0	2732589056	40	4529
2026-01-26 12:05:43.69	344.81	36.84	-34.9	-36.5	23.5	0.00e+00	0	43	0	2738880512	40	4598
2026-01-26 12:05:44.68	344.79	36.60	-34.8	-36.5	23.5	0.00e+00	0	43	0	2744123392	40	4586
2026-01-26 12:05:45.68	344.77	36.37	-34.8	-36.5	23.6	0.00e+00	0	43	0	2749366272	40	4569
2026-01-26 12:05:46.68	344.75	36.13	-34.9	-36.6	23.5	0.00e+00	0	43	0	2754609152	40	4619
2026-01-26 12:05:47.67	344.73	35.90	-34.8	-36.4	23.6	0.00e+00	0	43	0	2760900608	40	4526
2026-01-26 12:05:48.66	344.71	35.67	-34.7	-36.3	23.7	0.00e+00	0	43	0	2766143488	40	4480
2026-01-26 12:05:49.66	344.70	35.44	-34.5	-36.2	23.9	0.00e+00	0	43	0	2772434944	40	4394
2026-01-26 12:05:50.66	344.68	35.22	-34.5	-36.1	23.9	0.00e+00	0	43	0	2777677824	40	4361
2026-01-26 12:05:51.65	344.66	34.99	-34.4	-36.0	24.0	0.00e+00	0	43	0	2782920704	40	4320
2026-01-26 12:05:52.64	344.64	34.77	-34.5	-36.1	23.9	0.00e+00	0	43	0	2789212160	40	4364
2026-01-26 12:05:53.64	344.62	34.55	-34.5	-36.1	23.9	0.00e+00	0	43	0	2794455040	40	4365
2026-01-26 12:05:54.64	344.61	34.33	-34.5	-36.1	23.9	0.00e+00	0	43	0	2799697920	40	4375
2026-01-26 12:05:55.63	344.59	34.11	-34.6	-36.2	23.8	0.00e+00	0	43	0	2805989376	40	4422
2026-01-26 12:05:56.63	344.57	33.89	-34.8	-36.4	23.6	0.00e+00	0	43	0	2811232256	40	4524
2026-01-26 12:05:57.62	344.55	33.68	-34.8	-36.4	23.6	0.00e+00	0	43	0	2816475136	40	4528
2026-01-26 12:05:58.61	344.54	33.46	-34.9	-36.6	23.5	0.00e+00	0	43	0	2822766592	40	4604
2026-01-26 12:05:59.61	344.52	33.25	-35.0	-36.7	23.4	0.00e+00	0	43	0	2828009472	40	4658
2026-01-26 12:06:00.60	344.51	33.04	-35.1	-36.8	23.2	0.00e+00	0	43	0	2833252352	40	4741
2026-01-26 12:06:01.60	344.49	32.83	-35.2	-36.8	23.2	0.00e+00	0	43	0	2839543808	41	4491
2026-01-26 12:06:02.59	344.48	32.62	-35.2	-37.0	23.2	0.00e+00	0	43	0	2844786688	41	4547
2026-01-26 12:06:03.59	344.46	32.41	-35.2	-36.9	23.1	0.00e+00	0	43	0	2850029568	41	4544
2026-01-26 12:06:04.58	344.45	32.21	-35.2	-36.9	23.2	0.00e+00	0	43	0	2856321024	41	4535
2026-01-26 12:06:05.58	344.43	32.00	-35.3	-36.9	23.1	0.00e+00	0	43	0	2861563904	41	4545
2026-01-26 12:06:06.57	344.42	31.80	-35.2	-36.9	23.2	0.00e+00	0	43	0	2866806784	41	4498
2026-01-26 12:06:07.57	344.40	31.60	-35.1	-36.8	23.3	0.00e+00	0	43	0	2873098240	41	4442
2026-01-26 12:06:08.57	344.39	31.40	-35.1	-36.8	23.3	0.00e+00	0	43	0	2878341120	41	4443
2026-01-26 12:06:09.56	344.37	31.20	-35.0	-36.7	23.4	0.00e+00	0	43	0	2883584000	41	4408
2026-01-26 12:06:10.55	344.36	31.01	-35.0	-36.7	23.4	0.00e+00	0	43	0	2889875456	41	4409
2026-01-26 12:06:11.55	344.35	30.81	-35.0	-36.6	23.4	0.00e+00	0	43	0	2895118336	41	4380
2026-01-26 12:06:12.55	344.33	30.61	-34.9	-36.5	23.5	0.00e+00	0	43	0	2900361216	41	4324
2026-01-26 12:06:13.54	344.32	30.42	-34.9	-36.5	23.5	0.00e+00	0	43	0	2906652672	41	4320
2026-01-26 12:06:14.53	344.31	30.23	-34.9	-36.5	23.5	0.00e+00	0	43	0	2911895552	41	4336
2026-01-26 12:06:15.53	344.30	30.04	-35.0	-36.7	23.4	0.00e+00	0	43	0	2917138432	41	4401
2026-01-26 12:06:16.52	344.28	29.85	-34.9	-36.6	23.5	0.00e+00	0	43	0	2923429888	41	4352
2026-01-26 12:06:17.52	344.27	29.66	-35.0	-36.7	23.4	0.00e+00	0	43	0	2928672768	41	4396
2026-01-26 12:06:18.51	344.26	29.48	-35.0	-36.6	23.4	0.00e+00	0	43	0	2933915648	41	4384
2026-01-26 12:06:19.51	344.25	29.29	-35.0	-36.6	23.4	0.00e+00	0	43	0	2940207104	41	4382
2026-01-26 12:06:20.51	344.24	29.10	-35.0	-36.6	23.4	0.00e+00	0	43	0	2945449984	41	4387
2026-01-26 12:06:21.50	344.23	28.92	-35.0	-36.6	23.4	0.00e+00	0	43	0	2950692864	41	4383
2026-01-26 12:06:22.50	344.21	28.74	-34.9	-36.6	23.4	0.00e+00	0	43	0	2956984320	41	4377
2026-01-26 12:06:23.49	344.20	28.56	-34.9	-36.6	23.4	0.00e+00	0	43	0	2962227200	41	4354
2026-01-26 12:06:24.48	344.19	28.38	-35.0	-36.6	23.4	0.00e+00	0	43	0	2967470080	41	4374
2026-01-26 12:06:25.48	344.18	28.20	-35.0	-36.6	23.4	0.00e+00	0	43	0	2973761536	41	4360
2026-01-26 12:06:26.47	344.17	28.02	-35.0	-36.6	23.4	0.00e+00	0	43	0	2979004416	41	4367
2026-01-26 12:06:27.47	344.16	27.85	-34.9	-36.5	23.5	0.00e+00	0	43	0	2984247296	41	4326
2026-01-26 12:06:28.46	344.15	27.67	-34.9	-36.5	23.5	0.00e+00	0	43	0	2990538752	41	4303
2026-01-26 12:06:29.46	344.14	27.50	-34.8	-36.4	23.6	0.00e+00	0	43	0	2995781632	41	4280
2026-01-26 12:06:30.45	344.13	27.33	-34.8	-36.4	23.6	0.00e+00	0	43	0	3001024512	41	4264
2026-01-26 12:06:31.45	344.12	27.15	-34.8	-36.5	23.6	0.00e+00	0	43	0	3007315968	41	4303
2026-01-26 12:06:32.44	344.11	26.98	-34.8	-36.5	23.5	0.00e+00	0	43	0	3012558848	41	4298
2026-01-26 12:06:33.44	344.10	26.81	-34.9	-36.6	23.5	0.00e+00	0	43	0	3018850304	41	4347
2026-01-26 12:06:34.43	344.09	26.64	-35.0	-36.7	23.4	0.00e+00	0	43	0	3024093184	41	4393
2026-01-26 12:06:35.43	344.08	26.48	-35.0	-36.7	23.4	0.00e+00	0	43	0	3029336064	41	4413
2026-01-26 12:06:36.42	344.07	26.31	-35.2	-36.8	23.3	0.00e+00	0	43	0	3034578944	41	4477
2026-01-26 12:06:37.42	344.06	26.14	-35.2	-36.8	23.2	0.00e+00	0	43	0	3040870400	41	4479
2026-01-26 12:06:38.41	344.06	25.98	-35.2	-36.9	23.2	0.00e+00	0	43	0	3046113280	41	4514
2026-01-26 12:06:39.41	344.05	25.82	-35.3	-36.9	23.2	0.00e+00	0	43	0	3051356160	41	4545
2026-01-26 12:06:40.40	344.04	25.65	-35.3	-37.0	23.1	0.00e+00	0	43	0	3057647616	41	4551
2026-01-26 12:06:41.40	344.03	25.49	-35.4	-37.1	23.0	0.00e+00	0	43	0	3062890496	41	4608
2026-01-26 12:06:42.40	344.02	25.33	-35.5	-37.2	22.9	0.00e+00	0	43	0	3069181952	41	4657
2026-01-26 12:06:43.39	344.01	25.17	-35.4	-37.1	23.0	0.00e+00	0	43	0	3074424832	41	4634
2026-01-26 12:06:44.39	344.00	25.01	-35.4	-37.1	23.0	0.00e+00	0	43	0	3079667712	41	4617
2026-01-26 12:06:45.38	344.00	24.86	-35.5	-37.2	22.9	0.00e+00	0	43	0	3085959168	41	4665
2026-01-26 12:06:46.38	343.99	24.70	-35.4	-37.1	23.0	0.00e+00	0	43	0	3091202048	41	4616
2026-01-26 12:06:47.37	343.98	24.54	-35.5	-37.2	22.9	0.00e+00	0	43	0	3096444928	41	4684
2026-01-26 12:06:48.36	343.97	24.39	-35.5	-37.2	22.9	0.00e+00	0	43	0	3101687808	41	4697
2026-01-26 12:06:49.36	343.97	24.24	-35.5	-37.2	22.9	0.00e+00	0	43	0	3107979264	41	4665
2026-01-26 12:06:50.36	343.96	24.08	-35.5	-37.2	22.9	0.00e+00	0	43	0	3113222144	41	4661
2026-01-26 12:06:51.35	343.95	23.93	-35.4	-37.1	22.9	0.00e+00	0	43	0	3119513600	41	4621
2026-01-26 12:06:52.35	343.94	23.78	-35.5	-37.2	22.9	0.00e+00	0	43	0	3124756480	41	4683
2026-01-26 12:06:53.34	343.94	23.63	-35.6	-37.2	22.9	0.00e+00	0	43	0	3129999360	41	4702
2026-01-26 12:06:54.33	343.93	23.48	-35.6	-37.2	22.9	0.00e+00	0	43	0	3136290816	41	4686
2026-01-26 12:06:55.33	343.92	23.33	-35.6	-37.3	22.8	0.00e+00	0	43	0	3141533696	41	4716
2026-01-26 12:06:56.32	343.92	23.18	-35.7	-37.4	22.8	0.00e+00	0	43	0	3146776576	41	4764
2026-01-26 12:06:57.32	343.91	23.04	-35.7	-37.4	22.7	0.00e+00	0	43	0	3152019456	42	4528
2026-01-26 12:06:58.31	343.90	22.89	-35.8	-37.5	22.7	0.00e+00	0	43	0	3158310912	42	4565
2026-01-26 12:06:59.31	343.90	22.74	-35.7	-37.4	22.7	0.00e+00	0	43	0	3163553792	42	4543
2026-01-26 12:07:00.30	343.89	22.60	-35.8	-37.6	22.6	0.00e+00	0	43	0	3169845248	42	4620
2026-01-26 12:07:01.30	343.88	22.46	-35.9	-37.6	22.6	0.00e+00	0	43	0	3175088128	42	4632
2026-01-26 12:07:02.29	343.88	22.31	-35.9	-37.6	22.5	0.00e+00	0	43	0	3180331008	42	4637
2026-01-26 12:07:03.29	343.87	22.17	-35.9	-37.6	22.5	0.00e+00	0	43	0	3186622464	42	4650
2026-01-26 12:07:04.28	343.87	22.03	-35.9	-37.6	22.5	0.00e+00	0	43	0	3191865344	42	4648
2026-01-26 12:07:05.28	343.86	21.89	-36.0	-37.7	22.4	0.00e+00	0	43	0	3197108224	42	4701
2026-01-26 12:07:06.28	343.85	21.75	-36.1	-37.9	22.3	0.00e+00	0	43	0	3202351104	42	4791
2026-01-26 12:07:07.27	343.85	21.61	-36.1	-37.8	22.3	0.00e+00	0	43	0	3208642560	42	4740
2026-01-26 12:07:08.26	343.84	21.47	-36.0	-37.8	22.4	0.00e+00	0	43	0	3213885440	42	4711
2026-01-26 12:07:09.26	343.84	21.34	-36.1	-37.8	22.4	0.00e+00	0	43	0	3220176896	42	4716
2026-01-26 12:07:10.26	343.83	21.20	-36.1	-37.8	22.3	0.00e+00	0	43	0	3225419776	42	4756
2026-01-26 12:07:11.25	343.83	21.06	-36.1	-37.8	22.3	0.00e+00	0	43	0	3230662656	42	4727
2026-01-26 12:07:12.24	343.82	20.93	-36.2	-37.9	22.3	0.00e+00	0	43	0	3236954112	43	4502
2026-01-26 12:07:13.24	343.82	20.79	-36.1	-37.8	22.3	0.00e+00	0	43	0	3242196992	43	4467
2026-01-26 12:07:14.23	343.81	20.66	-36.1	-37.8	22.4	0.00e+00	0	43	0	3247439872	43	4447
2026-01-26 12:07:15.23	343.81	20.53	-36.1	-37.8	22.3	0.00e+00	0	43	0	3253731328	43	4483
2026-01-26 12:07:16.22	343.80	20.40	-36.1	-37.8	22.4	0.00e+00	0	43	0	3258974208	43	4453
2026-01-26 12:07:17.22	343.80	20.26	-36.1	-37.8	22.3	0.00e+00	0	43	0	3264217088	43	4488
2026-01-26 12:07:18.21	343.79	20.13	-36.2	-37.9	22.2	0.00e+00	0	43	0	3270508544	43	4539
2026-01-26 12:07:19.21	343.79	20.00	-36.2	-37.9	22.2	0.00e+00	0	43	0	3275751424	43	4506
2026-01-26 12:07:20.20	343.78	19.87	-36.2	-37.8	22.3	0.00e+00	0	43	0	3280994304	43	4491
2026-01-26 12:07:21.20	343.78	19.74	-36.2	-37.9	22.2	0.00e+00	0	43	0	3287285760	43	4539
2026-01-26 12:07:22.19	343.77	19.62	-36.3	-38.0	22.2	0.00e+00	0	43	0	3292528640	43	4557
2026-01-26 12:07:23.18	343.77	19.49	-36.2	-37.9	22.2	0.00e+00	0	43	0	3297771520	43	4537
2026-01-26 12:07:24.18	343.76	19.36	-36.3	-38.0	22.2	0.00e+00	0	43	0	3304062976	43	4570
2026-01-26 12:07:25.17	343.76	19.24	-36.4	-38.1	22.1	0.00e+00	0	43	0	3309305856	43	4611
2026-01-26 12:07:26.16	343.75	19.11	-36.5	-38.1	22.0	0.00e+00	0	43	0	3314548736	43	4649
2026-01-26 12:07:27.16	343.75	18.99	-36.4	-38.1	22.1	0.00e+00	0	43	0	3320840192	43	4608
2026-01-26 12:07:28.15	343.75	18.86	-36.5	-38.2	22.0	0.00e+00	0	43	0	3326083072	43	4669
2026-01-26 12:07:29.15	343.74	18.74	-36.6	-38.3	21.9	0.00e+00	0	43	0	3331325952	43	4715
2026-01-26 12:07:30.14	343.74	18.61	-36.5	-38.2	22.0	0.00e+00	0	43	0	3337617408	43	4666
2026-01-26 12:07:31.14	343.73	18.49	-36.6	-38.3	21.9	0.00e+00	0	43	0	3342860288	43	4718
2026-01-26 12:07:32.13	343.73	18.37	-36.6	-38.4	21.8	0.00e+00	0	43	0	3348103168	43	4763
2026-01-26 12:07:33.13	343.73	18.25	-36.6	-38.4	21.8	0.00e+00	0	43	0	3353346048	43	4780
2026-01-26 12:07:34.12	343.72	18.13	-36.6	-38.3	21.9	0.00e+00	0	43	0	3359637504	43	4746
2026-01-26 12:07:35.11	343.72	18.01	-36.8	-38.6	21.7	0.00e+00	0	43	0	3364880384	44	4616
2026-01-26 12:07:36.11	343.71	17.89	-36.8	-38.6	21.7	0.00e+00	0	43	0	3371171840	44	4629
2026-01-26 12:07:37.10	343.71	17.77	-36.8	-38.6	21.7	0.00e+00	0	43	0	3376414720	44	4642
2026-01-26 12:07:38.10	343.71	17.65	-36.9	-38.7	21.6	0.00e+00	0	43	0	3381657600	44	4687
2026-01-26 12:07:39.09	343.70	17.53	-37.0	-38.7	21.6	0.00e+00	0	43	0	3387949056	44	4703
2026-01-26 12:07:40.08	343.70	17.42	-37.1	-38.8	21.6	0.00e+00	0	43	0	3393191936	44	4746
2026-01-26 12:07:41.08	343.70	17.30	-37.1	-38.8	21.5	0.00e+00	0	43	0	3398434816	44	4748
2026-01-26 12:07:42.07	343.69	17.19	-37.1	-38.9	21.5	0.00e+00	0	43	0	3403677696	44	4782
2026-01-26 12:07:43.07	343.69	17.07	-37.2	-38.9	21.4	0.00e+00	0	43	0	3409969152	45	4535
2026-01-26 12:07:44.06	343.69	16.95	-37.2	-38.9	21.5	0.00e+00	0	43	0	3415212032	45	4524
2026-01-26 12:07:45.06	343.68	16.84	-37.2	-38.9	21.4	0.00e+00	0	43	0	3421503488	45	4530
2026-01-26 12:07:46.05	343.68	16.73	-37.2	-39.0	21.3	0.00e+00	0	43	0	3426746368	45	4580
2026-01-26 12:07:47.05	343.68	16.61	-37.2	-39.0	21.3	0.00e+00	0	43	0	3431989248	45	4576
2026-01-26 12:07:48.04	343.68	16.50	-37.2	-39.0	21.3	0.00e+00	0	43	0	3438280704	45	4585
2026-01-26 12:07:49.04	343.67	16.39	-37.3	-39.1	21.3	0.00e+00	0	43	0	3443523584	45	4613
2026-01-26 12:07:50.03	343.67	16.28	-37.3	-39.1	21.2	0.00e+00	0	43	0	3448766464	45	4644
2026-01-26 12:07:51.03	343.67	16.16	-37.3	-39.2	21.2	0.00e+00	0	43	0	3455057920	45	4666
2026-01-26 12:07:52.03	343.66	16.05	-37.2	-39.1	21.2	0.00e+00	0	43	0	3460300800	45	4625
2026-01-26 12:07:53.02	343.66	15.94	-37.2	-39.1	21.2	0.00e+00	0	43	0	3465543680	45	4647
2026-01-26 12:07:54.02	343.66	15.83	-37.3	-39.2	21.2	0.00e+00	0	43	0	3471835136	45	4671
2026-01-26 12:07:55.01	343.66	15.72	-37.4	-39.3	21.1	0.00e+00	0	43	0	3477078016	45	4712
2026-01-26 12:07:56.01	343.65	15.61	-37.3	-39.2	21.1	0.00e+00	0	43	0	3482320896	45	4693
2026-01-26 12:07:57.00	343.65	15.51	-37.3	-39.2	21.1	0.00e+00	0	43	0	3488612352	45	4690
2026-01-26 12:07:58.00	343.65	15.40	-37.4	-39.2	21.1	0.00e+00	0	43	0	3493855232	45	4701
2026-01-26 12:07:58.99	343.65	15.29	-37.4	-39.3	21.1	0.00e+00	0	43	0	3499098112	45	4716
2026-01-26 12:07:59.99	343.64	15.18	-37.5	-39.3	21.0	0.00e+00	0	43	0	3505389568	45	4756
2026-01-26 12:08:00.98	343.64	15.08	-37.6	-39.4	20.9	0.00e+00	0	43	0	3510632448	45	4807
2026-01-26 12:08:01.97	343.64	14.97	-37.6	-39.4	20.9	0.00e+00	0	43	0	3515875328	45	4793
2026-01-26 12:08:02.97	343.64	14.87	-37.6	-39.5	20.9	0.00e+00	0	43	0	3522166784	45	4816
2026-01-26 12:08:03.96	343.63	14.76	-37.6	-39.4	21.0	0.00e+00	0	43	0	3527409664	45	4771
2026-01-26 12:08:04.96	343.63	14.66	-37.6	-39.4	20.9	0.00e+00	0	43	0	3532652544	45	4809
2026-01-26 12:08:05.95	343.63	14.55	-37.6	-39.4	20.9	0.00e+00	0	43	0	3538944000	45	4801
2026-01-26 12:08:06.94	343.63	14.45	-37.6	-39.5	20.9	0.00e+00	0	43	0	3544186880	45	4831
2026-01-26 12:08:07.94	343.63	14.35	-37.6	-39.5	20.8	0.00e+00	0	43	0	3549429760	46	4580
2026-01-26 12:08:08.93	343.62	14.24	-37.6	-39.5	20.8	0.00e+00	0	43	0	3555721216	46	4589
2026-01-26 12:08:09.93	343.62	14.14	-37.6	-39.6	20.8	0.00e+00	0	43	0	3560964096	46	4618
2026-01-26 12:08:10.92	343.62	14.04	-37.6	-39.6	20.7	0.00e+00	0	43	0	3566206976	46	4624
2026-01-26 12:08:11.92	343.62	13.94	-37.7	-39.7	20.7	0.00e+00	0	43	0	3572498432	46	4660
2026-01-26 12:08:12.91	343.62	13.84	-37.7	-39.7	20.6	0.00e+00	0	43	0	3577741312	46	4697
2026-01-26 12:08:13.91	343.61	13.74	-37.7	-39.7	20.7	0.00e+00	0	43	0	3582984192	46	4654
2026-01-26 12:08:14.91	343.61	13.64	-37.8	-39.8	20.6	0.00e+00	0	43	0	3589275648	46	4721
2026-01-26 12:08:15.90	343.61	13.54	-37.8	-39.8	20.5	0.00e+00	0	43	0	3594518528	46	4729
2026-01-26 12:08:16.89	343.61	13.44	-37.8	-39.8	20.6	0.00e+00	0	43	0	3599761408	46	4724
2026-01-26 12:08:17.89	343.61	13.34	-37.8	-39.8	20.6	0.00e+00	0	43	0	3606052864	46	4709
2026-01-26 12:08:18.89	343.61	13.24	-38.0	-39.9	20.4	0.00e+00	0	43	0	3611295744	46	4791
2026-01-26 12:08:19.88	343.60	13.14	-37.9	-39.8	20.5	0.00e+00	0	43	0	3617587200	46	4731
