passes_logs/2026/01/26/T1/T1__20260126_215112_NOAA_20_JPSS-1_rec.log

#Pass ID: 20260126_215112_NOAA 20 (JPSS-1)
#Satellite: NOAA 20 (JPSS-1)
#Configuration: NOAA 20
#almurnet v.1.7.20251203
#Start time: 2026-01-26 21:51:13

#Version: 2.0.20230620
#Station: T1
#Location: 37.570604 lon 55.790049 lat
#TLE: 1 43013U 17073A   26026.46665230  .00000148  00000+0  91302-4 0  9998
#TLE: 2 43013  98.7646 327.2856 0001008  22.9532 337.1688 14.19540616424360

#Time	Az	El	Level	Level2	SNR	BER	BlckErr	Temp	State	Recorded	gain1	gain2
2026-01-26 21:51:13.87	34.31	5.06	-49.0	-64.4	3.8	1.49e+00	0	41	0	0	70	20190
2026-01-26 21:51:14.87	34.41	5.11	-49.0	-64.4	3.8	1.49e+00	0	41	104	0	68	22612
2026-01-26 21:51:15.86	34.52	5.16	-49.0	-64.3	3.8	1.49e+00	0	41	104	0	68	22476
2026-01-26 21:51:16.85	34.62	5.21	-49.0	-64.4	3.8	1.49e+00	0	41	104	0	68	22606
2026-01-26 21:51:17.84	34.73	5.27	-49.0	-64.4	3.8	1.49e+00	0	41	104	0	68	22589
2026-01-26 21:51:18.84	34.83	5.32	-49.0	-64.4	3.8	1.49e+00	0	41	104	0	68	22600
2026-01-26 21:51:19.83	34.94	5.37	-49.0	-64.4	3.8	1.49e+00	0	41	104	0	68	22540
2026-01-26 21:51:20.82	35.04	5.42	-49.0	-64.4	3.8	1.49e+00	0	41	104	0	68	22577
2026-01-26 21:51:21.82	35.15	5.47	-49.0	-64.4	3.8	1.49e+00	0	41	104	0	68	22625
2026-01-26 21:51:22.81	35.26	5.52	-49.0	-64.4	3.8	1.49e+00	0	41	104	0	68	22548
2026-01-26 21:51:23.80	35.37	5.57	-49.0	-64.3	3.8	1.49e+00	0	41	104	0	68	22427
2026-01-26 21:51:24.80	35.48	5.62	-49.0	-64.4	3.8	1.49e+00	0	41	104	0	68	22524
2026-01-26 21:51:25.79	35.58	5.67	-49.0	-64.3	3.8	1.49e+00	0	41	104	0	68	22449
2026-01-26 21:51:26.78	35.69	5.72	-49.0	-64.3	3.8	1.49e+00	0	41	104	0	68	22497
2026-01-26 21:51:27.78	35.80	5.78	-49.0	-64.3	3.8	1.49e+00	0	41	104	0	68	22501
2026-01-26 21:51:28.77	35.91	5.83	-49.0	-64.3	3.8	1.49e+00	0	41	104	0	68	22462
2026-01-26 21:51:29.77	36.02	5.88	-49.0	-64.3	3.8	1.49e+00	0	41	104	0	68	22479
2026-01-26 21:51:30.76	36.13	5.93	-49.0	-64.3	3.8	1.49e+00	0	41	104	0	68	22493
2026-01-26 21:51:31.75	36.24	5.98	-49.0	-64.4	3.8	1.49e+00	0	41	104	0	68	22560
2026-01-26 21:51:32.75	36.35	6.03	-49.0	-64.4	3.8	1.49e+00	0	41	104	0	68	22565
2026-01-26 21:51:33.74	36.46	6.08	-49.0	-64.4	3.8	1.49e+00	0	42	104	0	68	22561
2026-01-26 21:51:34.73	36.58	6.13	-49.0	-64.3	3.8	1.49e+00	0	41	104	0	68	22456
2026-01-26 21:51:35.73	36.69	6.19	-49.0	-64.4	3.8	1.49e+00	0	42	104	0	68	22571
2026-01-26 21:51:36.72	36.80	6.24	-49.0	-64.3	3.8	1.49e+00	0	42	104	0	68	22498
2026-01-26 21:51:37.71	36.91	6.29	-49.0	-64.3	3.8	1.49e+00	0	42	104	0	68	22501
2026-01-26 21:51:38.70	37.03	6.34	-49.0	-64.3	3.8	1.49e+00	0	42	104	0	68	22482
2026-01-26 21:51:39.70	37.14	6.39	-49.0	-64.4	3.8	1.49e+00	0	42	104	0	68	22532
2026-01-26 21:51:40.69	37.25	6.44	-49.0	-64.3	3.8	1.49e+00	0	42	104	0	68	22504
2026-01-26 21:51:41.68	37.37	6.49	-49.0	-64.3	3.8	1.49e+00	0	42	104	0	68	22497
2026-01-26 21:51:42.68	37.48	6.54	-49.0	-64.3	3.8	1.49e+00	0	42	104	0	68	22420
2026-01-26 21:51:43.67	37.60	6.59	-49.0	-64.3	3.8	1.49e+00	0	42	104	0	68	22429
2026-01-26 21:51:44.66	37.71	6.65	-49.0	-64.4	3.8	1.49e+00	0	42	104	0	68	22530
2026-01-26 21:51:45.66	37.83	6.70	-49.0	-64.4	3.8	1.49e+00	0	42	104	0	68	22572
2026-01-26 21:51:46.65	37.95	6.75	-49.0	-64.3	3.8	1.49e+00	0	42	104	0	68	22498
2026-01-26 21:51:47.64	38.06	6.80	-49.0	-64.3	3.8	1.49e+00	0	42	104	0	68	22440
2026-01-26 21:51:48.64	38.18	6.85	-49.0	-64.3	3.8	1.49e+00	0	42	104	0	68	22460
2026-01-26 21:51:49.63	38.30	6.90	-49.0	-64.3	3.8	1.49e+00	0	42	104	0	68	22432
2026-01-26 21:51:50.62	38.42	6.95	-49.0	-64.3	3.8	1.49e+00	0	42	104	0	68	22428
2026-01-26 21:51:51.62	38.53	7.01	-49.0	-64.3	3.8	1.49e+00	0	42	104	0	68	22297
2026-01-26 21:51:52.61	38.65	7.06	-49.0	-64.3	3.8	1.49e+00	0	42	104	0	68	22339
2026-01-26 21:51:53.60	38.77	7.11	-49.0	-64.2	3.8	1.49e+00	0	42	104	0	68	22217
2026-01-26 21:51:54.59	38.89	7.16	-49.0	-64.2	3.8	1.49e+00	0	42	104	0	68	22218
2026-01-26 21:51:55.59	39.01	7.21	-49.0	-64.2	3.8	1.49e+00	0	42	104	0	68	22231
2026-01-26 21:51:56.58	39.13	7.26	-48.9	-64.2	3.8	1.49e+00	0	42	104	0	68	22126
2026-01-26 21:51:57.58	39.25	7.31	-49.0	-64.3	3.8	1.49e+00	0	42	104	0	68	22301
2026-01-26 21:51:58.57	39.37	7.36	-48.9	-64.2	3.8	1.49e+00	0	42	104	0	68	22189
2026-01-26 21:51:59.56	39.49	7.42	-48.9	-64.2	3.8	1.49e+00	0	42	104	0	68	22116
2026-01-26 21:52:00.56	39.62	7.47	-48.9	-64.2	3.8	1.49e+00	0	42	104	0	68	22193
2026-01-26 21:52:01.55	39.74	7.52	-48.9	-64.2	3.8	1.49e+00	0	42	104	0	68	22241
2026-01-26 21:52:02.54	39.86	7.57	-48.9	-64.3	3.8	1.49e+00	0	42	104	0	68	22341
2026-01-26 21:52:03.54	39.99	7.62	-48.9	-64.3	3.8	1.49e+00	0	42	104	0	68	22335
2026-01-26 21:52:04.53	40.11	7.67	-48.9	-64.2	3.8	1.49e+00	0	42	104	0	68	22240
2026-01-26 21:52:05.52	40.23	7.72	-48.9	-64.3	3.8	1.49e+00	0	42	104	0	68	22290
2026-01-26 21:52:06.52	40.36	7.77	-48.9	-64.3	3.8	1.49e+00	0	42	104	0	68	22303
2026-01-26 21:52:07.51	40.48	7.83	-48.9	-64.3	3.8	1.49e+00	0	42	104	0	68	22347
2026-01-26 21:52:08.50	40.61	7.88	-48.9	-64.3	3.8	1.49e+00	0	42	104	0	68	22291
2026-01-26 21:52:09.50	40.73	7.93	-48.9	-64.1	3.8	1.49e+00	0	42	104	0	68	21969
2026-01-26 21:52:10.49	40.86	7.98	-48.9	-64.0	3.8	1.49e+00	0	42	104	0	68	21680
2026-01-26 21:52:11.48	40.99	8.03	-48.9	-64.0	3.8	1.49e+00	0	42	104	0	68	21536
2026-01-26 21:52:12.48	41.11	8.08	-48.9	-64.0	3.8	1.49e+00	0	42	104	0	68	21508
2026-01-26 21:52:13.47	41.24	8.13	-48.9	-64.0	3.8	1.49e+00	0	42	104	0	68	21578
2026-01-26 21:52:14.46	41.37	8.18	-48.9	-64.1	3.8	1.49e+00	0	43	104	0	68	21851
2026-01-26 21:52:15.46	41.50	8.24	-48.9	-64.2	3.8	1.49e+00	0	42	104	0	68	22074
2026-01-26 21:52:16.45	41.63	8.29	-48.9	-64.2	3.8	1.49e+00	0	42	104	0	68	22235
2026-01-26 21:52:17.44	41.76	8.34	-48.9	-64.2	3.8	1.49e+00	0	42	104	0	68	22261
2026-01-26 21:52:18.44	41.89	8.39	-48.9	-64.3	3.8	1.49e+00	0	43	104	0	68	22343
2026-01-26 21:52:19.43	42.02	8.44	-48.9	-64.2	3.8	1.49e+00	0	42	104	0	68	22191
2026-01-26 21:52:20.43	42.15	8.49	-48.9	-64.2	3.8	1.49e+00	0	42	104	0	68	22060
2026-01-26 21:52:21.42	42.28	8.54	-48.9	-64.1	3.8	1.49e+00	0	43	104	0	68	21801
2026-01-26 21:52:22.41	42.41	8.59	-48.9	-63.9	3.8	1.49e+00	0	43	104	0	68	21308
2026-01-26 21:52:23.41	42.54	8.64	-48.9	-63.5	3.8	1.49e+00	0	43	104	0	68	20419
2026-01-26 21:52:24.40	42.67	8.70	-48.8	-63.1	3.8	1.49e+00	0	42	104	0	68	19610
2026-01-26 21:52:25.40	42.81	8.75	-48.8	-62.9	3.8	1.49e+00	0	43	104	0	68	19007
2026-01-26 21:52:26.39	42.94	8.80	-48.8	-62.5	3.8	1.49e+00	0	43	104	0	68	18256
2026-01-26 21:52:27.38	43.07	8.85	-48.7	-61.6	3.8	1.48e+00	0	43	104	0	68	16381
2026-01-26 21:52:28.37	43.21	8.90	-48.6	-59.7	4.5	1.41e+00	0	42	0	0	68	13235
2026-01-26 21:52:29.37	43.34	8.95	-48.3	-57.4	5.8	6.54e-01	0	43	0	2097152	68	10106
2026-01-26 21:52:30.36	43.48	9.00	-47.6	-54.7	8.0	2.24e-01	0	43	0	3145728	67	7831
2026-01-26 21:52:31.35	43.61	9.05	-47.1	-53.0	9.8	1.36e-02	0	43	0	5242880	66	6872
2026-01-26 21:52:32.35	43.75	9.10	-47.6	-54.4	8.6	1.59e-02	0	43	0	7340032	66	8024
2026-01-26 21:52:33.34	43.88	9.15	-48.2	-57.4	5.6	7.70e-01	0	43	0	9437184	67	10739
2026-01-26 21:52:34.33	44.02	9.20	-46.6	-51.6	11.4	1.33e-04	0	43	0	10485760	63	6945
2026-01-26 21:52:35.33	44.16	9.25	-47.9	-55.6	6.7	1.35e+00	0	43	104	11534336	67	8759
2026-01-26 21:52:36.32	44.30	9.30	-43.7	-46.5	16.5	0.00e+00	0	43	0	12582912	59	4867
2026-01-26 21:52:37.32	44.44	9.36	-43.7	-46.6	16.5	0.00e+00	0	43	0	14680064	59	4873
2026-01-26 21:52:38.31	44.57	9.41	-43.5	-46.4	16.7	0.00e+00	0	43	0	15728640	59	4794
2026-01-26 21:52:39.31	44.71	9.46	-43.3	-46.0	17.1	0.00e+00	0	43	0	17825792	58	4863
2026-01-26 21:52:40.30	44.85	9.51	-43.0	-45.7	17.4	0.00e+00	0	43	0	19922944	58	4676
2026-01-26 21:52:41.30	44.99	9.56	-43.0	-45.6	17.5	0.00e+00	0	43	0	22020096	57	4926
2026-01-26 21:52:42.34	45.14	9.61	-43.0	-45.6	17.5	0.00e+00	0	43	0	24117248	57	4916
2026-01-26 21:52:43.33	45.28	9.66	-42.9	-45.6	17.5	0.00e+00	0	43	0	26214400	57	4871
2026-01-26 21:52:44.33	45.42	9.71	-43.1	-45.8	17.3	0.00e+00	0	43	0	27262976	57	5001
2026-01-26 21:52:45.32	45.57	9.76	-43.0	-45.7	17.4	0.00e+00	0	43	0	29360128	57	4935
2026-01-26 21:52:46.31	45.71	9.81	-43.1	-45.8	17.4	0.00e+00	0	43	0	31457280	57	4995
2026-01-26 21:52:47.31	45.85	9.86	-43.1	-45.8	17.3	0.00e+00	0	43	0	33554432	57	5032
2026-01-26 21:52:48.30	46.00	9.91	-43.0	-45.7	17.4	0.00e+00	0	43	0	34603008	57	4928
2026-01-26 21:52:49.30	46.14	9.96	-43.1	-45.8	17.3	0.00e+00	0	43	0	36700160	57	5001
2026-01-26 21:52:50.30	46.29	10.01	-43.1	-45.8	17.3	0.00e+00	0	43	0	38797312	57	5012
2026-01-26 21:52:51.29	46.43	10.06	-43.1	-45.8	17.3	0.00e+00	0	43	0	40894464	57	5041
2026-01-26 21:52:52.29	46.58	10.11	-42.9	-45.6	17.6	0.00e+00	0	43	0	42991616	57	4875
2026-01-26 21:52:53.29	46.72	10.16	-43.1	-45.7	17.4	0.00e+00	0	43	0	44040192	57	4965
2026-01-26 21:52:54.28	46.87	10.21	-43.0	-45.6	17.5	0.00e+00	0	43	0	46137344	57	4920
2026-01-26 21:52:55.27	47.02	10.26	-43.0	-45.7	17.4	0.00e+00	0	43	0	48234496	57	4944
2026-01-26 21:52:56.27	47.16	10.31	-43.0	-45.6	17.5	0.00e+00	0	43	0	50331648	57	4920
2026-01-26 21:52:57.26	47.31	10.36	-43.0	-45.7	17.4	0.00e+00	0	43	0	51380224	57	4952
2026-01-26 21:52:58.26	47.46	10.41	-43.0	-45.6	17.5	0.00e+00	0	43	0	53477376	57	4916
2026-01-26 21:52:59.25	47.61	10.46	-43.1	-45.7	17.4	0.00e+00	0	43	0	55574528	57	4977
2026-01-26 21:53:00.25	47.76	10.51	-43.1	-45.8	17.3	0.00e+00	0	43	0	57671680	57	5037
2026-01-26 21:53:01.24	47.91	10.56	-43.2	-45.9	17.3	0.00e+00	0	43	0	59768832	57	5053
2026-01-26 21:53:02.24	48.06	10.61	-43.0	-45.6	17.5	0.00e+00	0	43	0	60817408	57	4919
2026-01-26 21:53:03.23	48.21	10.66	-43.0	-45.7	17.5	0.00e+00	0	43	0	62914560	57	4953
2026-01-26 21:53:04.23	48.36	10.71	-42.9	-45.6	17.6	0.00e+00	0	43	0	65011712	57	4888
2026-01-26 21:53:05.23	48.51	10.75	-43.0	-45.7	17.5	0.00e+00	0	43	0	67108864	57	4946
2026-01-26 21:53:06.22	48.67	10.80	-42.9	-45.5	17.7	0.00e+00	0	43	0	68157440	57	4833
2026-01-26 21:53:07.22	48.82	10.85	-42.9	-45.5	17.6	0.00e+00	0	43	0	70254592	57	4859
2026-01-26 21:53:08.21	48.97	10.90	-42.9	-45.5	17.6	0.00e+00	0	43	0	72351744	57	4865
2026-01-26 21:53:09.20	49.13	10.95	-43.0	-45.6	17.6	0.00e+00	0	43	0	74448896	57	4887
2026-01-26 21:53:10.20	49.28	11.00	-43.0	-45.6	17.5	0.00e+00	0	43	0	76546048	57	4925
2026-01-26 21:53:11.19	49.44	11.05	-43.0	-45.7	17.5	0.00e+00	0	43	0	77594624	57	4935
2026-01-26 21:53:12.23	49.60	11.10	-42.9	-45.6	17.6	0.00e+00	0	43	0	79691776	57	4872
2026-01-26 21:53:13.26	49.76	11.15	-43.1	-45.8	17.4	0.00e+00	0	43	0	81788928	57	5023
2026-01-26 21:53:14.25	49.91	11.19	-43.1	-45.7	17.4	0.00e+00	0	43	0	83886080	57	4975
2026-01-26 21:53:15.25	50.07	11.24	-43.1	-45.8	17.4	0.00e+00	0	43	0	85983232	57	4993
2026-01-26 21:53:16.24	50.23	11.29	-43.1	-45.7	17.5	0.00e+00	0	43	0	87031808	57	4955
2026-01-26 21:53:17.24	50.39	11.34	-43.0	-45.6	17.6	0.00e+00	0	43	0	89128960	57	4911
2026-01-26 21:53:18.23	50.55	11.39	-43.1	-45.8	17.4	0.00e+00	0	43	0	91226112	57	4988
2026-01-26 21:53:19.23	50.71	11.43	-43.0	-45.6	17.6	0.00e+00	0	43	0	93323264	57	4910
2026-01-26 21:53:20.22	50.86	11.48	-43.1	-45.7	17.5	0.00e+00	0	43	0	94371840	57	4948
2026-01-26 21:53:21.22	51.03	11.53	-43.1	-45.7	17.5	0.00e+00	0	43	0	96468992	57	4963
2026-01-26 21:53:22.21	51.18	11.58	-43.2	-45.8	17.4	0.00e+00	0	43	0	98566144	57	5027
2026-01-26 21:53:23.20	51.34	11.62	-43.2	-45.9	17.3	0.00e+00	0	43	0	100663296	57	5095
2026-01-26 21:53:24.20	51.51	11.67	-43.1	-45.8	17.4	0.00e+00	0	43	0	102760448	57	5004
2026-01-26 21:53:25.19	51.67	11.72	-43.3	-46.0	17.3	0.00e+00	0	43	0	103809024	57	5109
2026-01-26 21:53:26.19	51.83	11.77	-43.3	-46.0	17.2	0.00e+00	0	43	0	105906176	57	5113
2026-01-26 21:53:27.18	51.99	11.81	-43.3	-46.0	17.2	0.00e+00	0	43	0	108003328	57	5132
2026-01-26 21:53:28.18	52.16	11.86	-43.3	-46.0	17.2	0.00e+00	0	43	0	110100480	57	5126
2026-01-26 21:53:29.17	52.32	11.91	-43.3	-46.1	17.2	0.00e+00	0	43	0	111149056	57	5164
2026-01-26 21:53:30.25	52.50	11.96	-43.4	-46.1	17.1	0.00e+00	0	43	0	113246208	57	5170
2026-01-26 21:53:31.13	52.65	12.00	-43.4	-46.1	17.1	0.00e+00	0	43	0	115343360	57	5198
2026-01-26 21:53:32.44	52.86	12.06	-43.4	-46.1	17.1	0.00e+00	0	43	0	117440512	57	5201
2026-01-26 21:53:33.15	52.98	12.09	-43.4	-46.2	17.1	0.00e+00	0	43	0	119537664	57	5227
2026-01-26 21:53:34.43	53.20	12.15	-43.4	-46.2	17.0	0.00e+00	0	43	0	121634816	57	5256
2026-01-26 21:53:35.14	53.32	12.18	-43.6	-46.4	16.8	0.00e+00	0	43	0	122683392	57	5355
2026-01-26 21:53:36.42	53.53	12.24	-43.6	-46.4	16.8	0.00e+00	0	43	0	124780544	57	5394
2026-01-26 21:53:37.16	53.66	12.28	-43.5	-46.3	16.9	0.00e+00	0	43	0	126877696	57	5332
2026-01-26 21:53:38.78	53.93	12.35	-43.8	-46.7	16.6	0.00e+00	0	43	0	130023424	58	5229
2026-01-26 21:53:39.35	54.03	12.38	-43.8	-46.6	16.7	0.00e+00	0	43	0	131072000	58	5206
2026-01-26 21:53:41.28	54.36	12.46	-43.9	-46.8	16.4	0.00e+00	0	43	0	134217728	58	5327
2026-01-26 21:53:41.85	54.46	12.49	-43.9	-46.8	16.5	0.00e+00	0	43	0	135266304	58	5331
2026-01-26 21:53:43.55	54.75	12.57	-43.9	-46.9	16.4	0.00e+00	0	43	0	138412032	58	5355
2026-01-26 21:53:44.12	54.85	12.59	-44.0	-47.0	16.3	0.00e+00	0	43	0	139460608	58	5403
2026-01-26 21:53:45.83	55.14	12.67	-43.9	-46.8	16.4	0.00e+00	0	43	0	142606336	58	5336
2026-01-26 21:53:46.40	55.24	12.69	-43.9	-46.9	16.4	0.00e+00	0	43	0	143654912	58	5341
2026-01-26 21:53:48.10	55.54	12.77	-44.0	-47.0	16.3	0.00e+00	0	43	0	146800640	58	5418
2026-01-26 21:53:48.91	55.68	12.80	-44.0	-46.9	16.4	0.00e+00	0	43	0	148897792	58	5378
2026-01-26 21:53:50.04	55.88	12.85	-44.0	-47.0	16.3	0.00e+00	0	43	0	150994944	58	5440
2026-01-26 21:53:50.90	56.03	12.89	-44.0	-47.1	16.2	0.00e+00	0	43	0	152043520	58	5469
2026-01-26 21:53:52.04	56.23	12.94	-44.0	-47.0	16.2	0.00e+00	0	43	0	154140672	58	5461
2026-01-26 21:53:52.89	56.38	12.98	-44.1	-47.2	16.1	0.00e+00	0	43	0	156237824	58	5545
2026-01-26 21:53:54.12	56.60	13.03	-44.2	-47.2	16.0	0.00e+00	0	43	0	158334976	59	5271
2026-01-26 21:53:54.98	56.75	13.07	-44.2	-47.3	16.0	0.00e+00	0	43	0	160432128	59	5298
2026-01-26 21:53:56.12	56.96	13.12	-44.2	-47.3	16.0	0.00e+00	0	43	0	162529280	59	5306
2026-01-26 21:53:57.00	57.12	13.15	-44.3	-47.3	15.9	0.00e+00	0	43	0	163577856	59	5334
2026-01-26 21:53:58.14	57.32	13.20	-44.3	-47.3	16.0	0.00e+00	0	43	0	165675008	59	5321
2026-01-26 21:53:58.99	57.47	13.24	-44.4	-47.4	15.9	0.00e+00	0	43	0	167772160	59	5400
2026-01-26 21:54:00.12	57.68	13.29	-44.3	-47.3	16.0	0.00e+00	0	43	0	169869312	59	5302
2026-01-26 21:54:00.98	57.83	13.32	-44.2	-47.2	16.2	0.00e+00	0	43	0	170917888	59	5220
2026-01-26 21:54:02.11	58.04	13.37	-44.1	-47.2	16.1	0.00e+00	0	43	0	173015040	59	5231
2026-01-26 21:54:03.20	58.24	13.42	-44.3	-47.4	16.0	0.00e+00	0	43	0	175112192	59	5357
2026-01-26 21:54:04.23	58.43	13.46	-44.2	-47.3	16.0	0.00e+00	0	43	0	177209344	59	5320
2026-01-26 21:54:05.23	58.61	13.50	-44.3	-47.4	15.9	0.00e+00	0	43	0	179306496	59	5382
2026-01-26 21:54:06.22	58.79	13.54	-44.4	-47.5	15.9	0.00e+00	0	43	0	181403648	59	5418
2026-01-26 21:54:07.22	58.98	13.58	-44.4	-47.5	15.8	0.00e+00	0	43	0	182452224	59	5424
2026-01-26 21:54:08.21	59.16	13.62	-44.6	-47.8	15.5	0.00e+00	0	43	0	184549376	59	5602
2026-01-26 21:54:09.21	59.34	13.66	-44.6	-47.8	15.6	0.00e+00	0	43	0	186646528	60	5292
2026-01-26 21:54:10.20	59.53	13.70	-44.7	-47.9	15.4	0.00e+00	0	43	0	188743680	60	5395
2026-01-26 21:54:11.20	59.71	13.74	-44.7	-48.0	15.4	0.00e+00	0	43	0	190840832	60	5406
2026-01-26 21:54:12.19	59.90	13.78	-44.6	-47.9	15.4	0.00e+00	0	43	0	191889408	60	5395
2026-01-26 21:54:13.19	60.09	13.82	-44.6	-47.9	15.5	0.00e+00	0	43	0	193986560	60	5342
2026-01-26 21:54:14.18	60.27	13.86	-44.5	-47.9	15.5	0.00e+00	0	43	0	196083712	60	5341
2026-01-26 21:54:15.17	60.46	13.90	-44.4	-47.6	15.7	0.00e+00	0	43	0	198180864	60	5189
2026-01-26 21:54:16.23	60.66	13.94	-44.3	-47.4	15.9	0.00e+00	0	43	0	200278016	60	5088
2026-01-26 21:54:17.16	60.83	13.98	-44.3	-47.5	15.9	0.00e+00	0	43	0	201326592	60	5111
2026-01-26 21:54:18.16	61.02	14.01	-44.2	-47.3	16.0	0.00e+00	0	43	0	203423744	60	4994
2026-01-26 21:54:19.15	61.21	14.05	-44.1	-47.1	16.2	0.00e+00	0	43	0	205520896	60	4902
2026-01-26 21:54:20.15	61.40	14.09	-44.1	-47.1	16.3	0.00e+00	0	43	0	207618048	60	4886
2026-01-26 21:54:21.14	61.59	14.13	-44.0	-47.0	16.3	0.00e+00	0	43	0	208666624	60	4854
2026-01-26 21:54:22.14	61.78	14.16	-44.1	-47.1	16.2	0.00e+00	0	43	0	210763776	60	4912
2026-01-26 21:54:23.13	61.97	14.20	-44.0	-47.0	16.4	0.00e+00	0	43	0	212860928	60	4835
2026-01-26 21:54:24.12	62.16	14.24	-44.0	-47.0	16.3	0.00e+00	0	43	0	214958080	59	5126
2026-01-26 21:54:25.12	62.36	14.27	-44.1	-47.1	16.2	0.00e+00	0	43	0	216006656	59	5165
2026-01-26 21:54:26.12	62.55	14.31	-44.1	-47.1	16.2	0.00e+00	0	43	0	218103808	59	5163
2026-01-26 21:54:27.54	62.82	14.36	-44.0	-47.0	16.3	0.00e+00	0	43	0	221249536	59	5117
2026-01-26 21:54:28.25	62.96	14.39	-43.9	-46.9	16.4	0.00e+00	0	43	0	222298112	59	5044
2026-01-26 21:54:29.53	63.21	14.43	-43.7	-46.6	16.7	0.00e+00	0	43	0	224395264	59	4885
2026-01-26 21:54:30.26	63.36	14.46	-43.6	-46.4	16.9	0.00e+00	0	43	0	226492416	59	4796
2026-01-26 21:54:31.53	63.60	14.51	-43.5	-46.3	17.0	0.00e+00	0	43	0	228589568	59	4713
2026-01-26 21:54:32.24	63.74	14.53	-43.5	-46.2	17.1	0.00e+00	0	43	0	229638144	59	4683
2026-01-26 21:54:33.52	63.99	14.57	-43.1	-45.7	17.6	0.00e+00	0	43	0	231735296	58	4693
2026-01-26 21:54:34.25	64.14	14.60	-42.9	-45.5	17.8	0.00e+00	0	43	0	233832448	57	4821
2026-01-26 21:54:35.58	64.40	14.65	-42.7	-45.2	18.0	0.00e+00	0	43	0	235929600	57	4704
2026-01-26 21:54:36.29	64.54	14.67	-42.7	-45.3	18.0	0.00e+00	0	43	0	236978176	57	4716
2026-01-26 21:54:37.56	64.79	14.71	-42.8	-45.3	17.9	0.00e+00	0	43	0	240123904	57	4758
2026-01-26 21:54:38.28	64.94	14.74	-42.8	-45.3	17.9	0.00e+00	0	43	0	241172480	57	4754
2026-01-26 21:54:39.56	65.19	14.78	-42.9	-45.5	17.8	0.00e+00	0	43	0	243269632	57	4820
2026-01-26 21:54:40.27	65.34	14.80	-42.8	-45.3	18.0	0.00e+00	0	43	0	245366784	57	4753
2026-01-26 21:54:41.54	65.59	14.84	-42.9	-45.4	17.9	0.00e+00	0	43	0	247463936	57	4791
2026-01-26 21:54:42.25	65.73	14.87	-42.9	-45.4	17.9	0.00e+00	0	43	0	248512512	57	4814
2026-01-26 21:54:43.82	66.05	14.92	-42.9	-45.4	17.9	0.00e+00	0	43	0	251658240	57	4791
2026-01-26 21:54:44.53	66.19	14.94	-43.0	-45.5	17.8	0.00e+00	0	43	0	252706816	57	4870
2026-01-26 21:54:45.81	66.45	14.98	-43.0	-45.5	17.8	0.00e+00	0	43	0	254803968	57	4857
2026-01-26 21:54:46.53	66.60	15.00	-42.9	-45.4	17.9	0.00e+00	0	43	0	256901120	57	4782
2026-01-26 21:54:47.81	66.86	15.04	-42.8	-45.4	17.9	0.00e+00	0	43	0	258998272	57	4771
2026-01-26 21:54:48.52	67.00	15.06	-42.9	-45.5	17.8	0.00e+00	0	43	0	260046848	57	4826
2026-01-26 21:54:49.80	67.26	15.10	-42.8	-45.4	18.0	0.00e+00	0	43	0	263192576	57	4769
2026-01-26 21:54:50.51	67.41	15.12	-42.7	-45.3	18.0	0.00e+00	0	43	0	264241152	57	4711
2026-01-26 21:54:51.79	67.67	15.16	-42.8	-45.3	18.0	0.00e+00	0	43	0	266338304	57	4756
2026-01-26 21:54:52.51	67.81	15.18	-42.8	-45.3	18.0	0.00e+00	0	43	0	267386880	57	4739
2026-01-26 21:54:53.78	68.08	15.22	-42.9	-45.5	17.8	0.00e+00	0	43	0	270532608	57	4852
2026-01-26 21:54:54.59	68.24	15.24	-42.9	-45.5	17.7	0.00e+00	0	43	0	271581184	57	4866
2026-01-26 21:54:55.73	68.48	15.27	-43.1	-45.7	17.6	0.00e+00	0	43	0	273678336	57	4950
2026-01-26 21:54:56.58	68.65	15.30	-43.2	-45.8	17.5	0.00e+00	0	43	0	275775488	57	5027
2026-01-26 21:54:57.72	68.89	15.33	-43.2	-45.9	17.4	0.00e+00	0	43	0	277872640	57	5080
2026-01-26 21:54:58.57	69.06	15.35	-43.3	-46.0	17.4	0.00e+00	0	43	0	278921216	57	5101
2026-01-26 21:54:59.71	69.30	15.38	-43.3	-45.9	17.4	0.00e+00	0	43	0	281018368	57	5086
2026-01-26 21:55:00.56	69.48	15.41	-43.3	-46.0	17.4	0.00e+00	0	43	0	283115520	57	5101
2026-01-26 21:55:01.70	69.72	15.44	-43.4	-46.1	17.2	0.00e+00	0	43	0	285212672	57	5199
2026-01-26 21:55:02.55	69.89	15.46	-43.5	-46.2	17.2	0.00e+00	0	43	0	286261248	57	5247
2026-01-26 21:55:03.69	70.13	15.49	-43.4	-46.2	16.9	0.00e+00	0	43	0	288358400	57	5235
2026-01-26 21:55:04.54	70.31	15.51	-43.4	-46.2	17.2	0.00e+00	0	43	0	290455552	57	5233
2026-01-26 21:55:05.67	70.55	15.54	-43.5	-46.3	17.1	0.00e+00	0	43	0	292552704	57	5295
2026-01-26 21:55:06.53	70.73	15.56	-43.5	-46.3	17.0	0.00e+00	0	43	0	294649856	57	5290
2026-01-26 21:55:07.67	70.97	15.59	-43.6	-46.4	17.0	0.00e+00	0	43	0	296747008	57	5358
2026-01-26 21:55:08.52	71.15	15.61	-43.5	-46.3	17.0	0.00e+00	0	43	0	297795584	57	5302
2026-01-26 21:55:09.66	71.39	15.63	-43.6	-46.4	17.0	0.00e+00	0	43	0	299892736	57	5351
2026-01-26 21:55:10.74	71.62	15.66	-43.5	-46.2	17.1	0.00e+00	0	43	0	301989888	57	5266
2026-01-26 21:55:11.59	71.80	15.68	-43.4	-46.1	17.2	0.00e+00	0	43	0	304087040	57	5215
2026-01-26 21:55:12.73	72.04	15.71	-43.4	-46.2	17.2	0.00e+00	0	43	0	306184192	57	5219
2026-01-26 21:55:13.58	72.22	15.72	-43.4	-46.1	17.2	0.00e+00	0	43	0	307232768	57	5193
2026-01-26 21:55:14.72	72.46	15.75	-43.3	-46.0	17.3	0.00e+00	0	43	0	309329920	57	5136
2026-01-26 21:55:15.57	72.64	15.77	-43.4	-46.1	17.3	0.00e+00	0	43	0	311427072	57	5166
2026-01-26 21:55:16.71	72.89	15.79	-43.3	-46.0	17.4	0.00e+00	0	43	0	313524224	57	5124
2026-01-26 21:55:17.56	73.07	15.81	-43.4	-46.2	17.2	0.00e+00	0	43	0	314572800	57	5225
2026-01-26 21:55:18.70	73.31	15.83	-43.4	-46.1	17.2	0.00e+00	0	43	0	316669952	57	5204
2026-01-26 21:55:19.55	73.49	15.85	-43.6	-46.3	17.1	0.00e+00	0	43	0	318767104	57	5320
2026-01-26 21:55:20.69	73.74	15.87	-43.6	-46.4	16.9	0.00e+00	0	43	0	320864256	58	5082
2026-01-26 21:55:21.59	73.93	15.89	-43.6	-46.3	17.0	0.00e+00	0	43	0	321912832	58	5032
2026-01-26 21:55:22.87	74.21	15.92	-43.5	-46.2	17.1	0.00e+00	0	43	0	325058560	58	4981
2026-01-26 21:55:23.58	74.36	15.93	-43.5	-46.2	17.2	0.00e+00	0	43	0	326107136	58	4946
2026-01-26 21:55:24.86	74.64	15.95	-43.4	-46.1	17.4	0.00e+00	0	43	0	328204288	58	4873
2026-01-26 21:55:25.57	74.79	15.97	-43.3	-46.0	17.3	0.00e+00	0	43	0	330301440	58	4837
2026-01-26 21:55:26.85	75.07	15.99	-43.1	-45.7	17.7	0.00e+00	0	43	0	332398592	58	4683
2026-01-26 21:55:27.67	75.24	16.00	-43.1	-45.7	17.6	0.00e+00	0	43	0	333447168	58	4701
2026-01-26 21:55:29.11	75.56	16.03	-43.2	-45.8	17.6	0.00e+00	0	43	0	336592896	58	4710
2026-01-26 21:55:29.82	75.71	16.04	-43.2	-45.8	17.6	0.00e+00	0	43	0	337641472	58	4725
2026-01-26 21:55:31.10	75.99	16.06	-43.2	-45.8	17.5	0.00e+00	0	43	0	339738624	58	4742
2026-01-26 21:55:31.81	76.14	16.07	-43.1	-45.7	17.6	0.00e+00	0	43	0	341835776	58	4687
2026-01-26 21:55:33.09	76.42	16.09	-43.2	-45.8	17.6	0.00e+00	0	43	0	343932928	58	4737
2026-01-26 21:55:33.81	76.58	16.10	-43.2	-45.9	17.5	0.00e+00	0	43	0	344981504	58	4788
2026-01-26 21:55:35.09	76.86	16.12	-43.4	-46.1	17.3	0.00e+00	0	43	0	348127232	58	4883
2026-01-26 21:55:35.92	77.04	16.13	-43.3	-46.0	17.4	0.00e+00	0	43	0	349175808	58	4819
2026-01-26 21:55:37.06	77.29	16.15	-43.4	-46.1	17.3	0.00e+00	0	43	0	351272960	58	4902
2026-01-26 21:55:37.91	77.47	16.16	-43.4	-46.1	17.3	0.00e+00	0	43	0	353370112	58	4916
2026-01-26 21:55:39.05	77.72	16.17	-43.4	-46.0	17.3	0.00e+00	0	43	0	355467264	58	4865
2026-01-26 21:55:39.90	77.91	16.18	-43.4	-46.1	17.3	0.00e+00	0	43	0	356515840	58	4894
2026-01-26 21:55:41.04	78.16	16.20	-43.4	-46.1	17.3	0.00e+00	0	43	0	358612992	58	4871
2026-01-26 21:55:41.90	78.35	16.21	-43.3	-45.9	17.4	0.00e+00	0	43	0	360710144	58	4812
2026-01-26 21:55:43.03	78.60	16.22	-43.3	-46.0	17.4	0.00e+00	0	43	0	362807296	58	4829
2026-01-26 21:55:43.89	78.78	16.23	-43.1	-45.8	17.6	0.00e+00	0	43	0	363855872	58	4706
2026-01-26 21:55:45.03	79.04	16.24	-43.1	-45.7	17.6	0.00e+00	0	43	0	365953024	58	4671
2026-01-26 21:55:45.88	79.22	16.25	-43.0	-45.7	17.7	0.00e+00	0	43	0	368050176	58	4655
2026-01-26 21:55:47.10	79.49	16.26	-43.0	-45.6	17.8	0.00e+00	0	43	0	370147328	57	4877
2026-01-26 21:55:47.95	79.68	16.27	-43.0	-45.6	17.8	0.00e+00	0	43	0	372244480	57	4896
2026-01-26 21:55:49.09	79.93	16.28	-43.0	-45.5	17.8	0.00e+00	0	43	0	374341632	57	4869
2026-01-26 21:55:49.94	80.12	16.29	-43.0	-45.6	17.7	0.00e+00	0	43	0	375390208	57	4914
2026-01-26 21:55:51.08	80.37	16.30	-43.1	-45.8	17.5	0.00e+00	0	43	0	377487360	57	4997
2026-01-26 21:55:51.93	80.56	16.30	-43.0	-45.6	17.7	0.00e+00	0	43	0	379584512	57	4913
2026-01-26 21:55:53.07	80.81	16.31	-43.0	-45.7	17.7	0.00e+00	0	43	0	381681664	57	4945
2026-01-26 21:55:54.07	81.03	16.32	-43.1	-45.8	17.6	0.00e+00	0	43	0	383778816	57	4996
2026-01-26 21:55:55.06	81.25	16.33	-43.1	-45.7	17.7	0.00e+00	0	43	0	384827392	57	4964
2026-01-26 21:55:56.05	81.47	16.33	-43.0	-45.7	17.6	0.00e+00	0	43	0	386924544	57	4949
2026-01-26 21:55:57.05	81.69	16.34	-43.0	-45.7	17.6	0.00e+00	0	43	0	389021696	57	4959
2026-01-26 21:55:58.04	81.91	16.34	-43.0	-45.7	17.7	0.00e+00	0	43	0	391118848	57	4947
2026-01-26 21:55:59.04	82.13	16.35	-43.1	-45.7	17.6	0.00e+00	0	43	0	392167424	57	4973
2026-01-26 21:56:00.04	82.35	16.35	-42.9	-45.6	17.7	0.00e+00	0	43	0	394264576	57	4896
2026-01-26 21:56:01.03	82.57	16.36	-42.9	-45.5	17.9	0.00e+00	0	43	0	396361728	57	4825
2026-01-26 21:56:02.02	82.79	16.36	-42.8	-45.4	17.9	0.00e+00	0	43	0	398458880	57	4789
2026-01-26 21:56:03.02	83.01	16.37	-42.9	-45.5	17.9	0.00e+00	0	43	0	400556032	57	4822
2026-01-26 21:56:04.01	83.23	16.37	-42.8	-45.4	18.0	0.00e+00	0	43	0	401604608	57	4770
2026-01-26 21:56:05.01	83.46	16.37	-42.9	-45.5	17.9	0.00e+00	0	43	0	403701760	57	4830
2026-01-26 21:56:06.01	83.68	16.37	-42.9	-45.5	17.8	0.00e+00	0	43	0	405798912	57	4832
2026-01-26 21:56:07.00	83.90	16.37	-43.0	-45.7	17.6	0.00e+00	0	43	0	407896064	57	4955
2026-01-26 21:56:08.00	84.12	16.38	-42.9	-45.6	17.7	0.00e+00	0	43	0	408944640	57	4905
2026-01-26 21:56:08.99	84.34	16.38	-42.9	-45.6	17.7	0.00e+00	0	43	0	411041792	57	4924
2026-01-26 21:56:09.99	84.56	16.38	-42.9	-45.5	17.8	0.00e+00	0	43	0	413138944	57	4857
2026-01-26 21:56:10.98	84.78	16.38	-42.9	-45.6	17.7	0.00e+00	0	43	0	415236096	57	4917
2026-01-26 21:56:11.98	85.00	16.38	-42.9	-45.5	17.9	0.00e+00	0	43	0	417333248	57	4828
2026-01-26 21:56:12.97	85.22	16.38	-42.9	-45.4	17.9	0.00e+00	0	43	0	418381824	57	4809
2026-01-26 21:56:13.97	85.45	16.38	-42.9	-45.5	17.9	0.00e+00	0	43	0	420478976	57	4824
2026-01-26 21:56:14.96	85.67	16.37	-42.7	-45.2	18.1	0.00e+00	0	43	0	422576128	57	4697
2026-01-26 21:56:15.96	85.89	16.37	-42.6	-45.1	18.2	0.00e+00	0	43	0	424673280	57	4642
2026-01-26 21:56:16.95	86.11	16.37	-42.6	-45.2	18.1	0.00e+00	0	43	0	425721856	57	4658
2026-01-26 21:56:17.95	86.33	16.37	-42.7	-45.2	18.1	0.00e+00	0	43	0	427819008	57	4690
2026-01-26 21:56:18.94	86.55	16.36	-42.7	-45.2	18.1	0.00e+00	0	43	0	429916160	57	4692
2026-01-26 21:56:19.93	86.77	16.36	-42.7	-45.3	18.1	0.00e+00	0	43	0	432013312	57	4723
2026-01-26 21:56:20.96	87.00	16.36	-42.7	-45.2	18.1	0.00e+00	0	43	0	434110464	57	4686
2026-01-26 21:56:21.99	87.23	16.35	-42.8	-45.3	18.0	0.00e+00	0	43	0	435159040	57	4751
2026-01-26 21:56:22.98	87.45	16.35	-42.8	-45.4	17.9	0.00e+00	0	43	0	437256192	57	4802
2026-01-26 21:56:23.98	87.67	16.34	-42.9	-45.4	17.9	0.00e+00	0	43	0	439353344	57	4807
2026-01-26 21:56:24.97	87.89	16.34	-43.0	-45.5	17.8	0.00e+00	0	43	0	441450496	57	4867
2026-01-26 21:56:25.97	88.11	16.33	-43.1	-45.7	17.7	0.00e+00	0	43	0	443547648	57	4941
2026-01-26 21:56:26.96	88.33	16.33	-43.0	-45.6	17.8	0.00e+00	0	43	0	444596224	57	4895
2026-01-26 21:56:27.95	88.55	16.32	-43.0	-45.7	17.7	0.00e+00	0	43	0	446693376	57	4952
2026-01-26 21:56:28.95	88.77	16.31	-43.0	-45.6	17.8	0.00e+00	0	43	0	448790528	57	4883
2026-01-26 21:56:29.94	88.99	16.30	-42.9	-45.5	17.9	0.00e+00	0	43	0	450887680	57	4820
2026-01-26 21:56:30.94	89.21	16.30	-42.7	-45.3	18.1	0.00e+00	0	43	0	451936256	57	4712
2026-01-26 21:56:31.93	89.43	16.29	-42.6	-45.2	18.2	0.00e+00	0	43	0	454033408	57	4659
2026-01-26 21:56:32.92	89.65	16.28	-42.6	-45.1	18.3	0.00e+00	0	43	0	456130560	57	4614
2026-01-26 21:56:33.92	89.87	16.27	-42.6	-45.1	18.2	0.00e+00	0	43	0	458227712	57	4646
2026-01-26 21:56:34.93	90.09	16.26	-42.7	-45.3	18.1	0.00e+00	0	43	0	460324864	57	4728
2026-01-26 21:56:35.96	90.32	16.25	-42.7	-45.3	18.1	0.00e+00	0	43	0	461373440	57	4712
2026-01-26 21:56:36.98	90.54	16.24	-42.8	-45.4	18.0	0.00e+00	0	43	0	463470592	57	4790
2026-01-26 21:56:37.98	90.76	16.23	-42.8	-45.3	18.0	0.00e+00	0	43	0	465567744	57	4744
2026-01-26 21:56:38.97	90.98	16.22	-42.8	-45.4	18.0	0.00e+00	0	43	0	467664896	57	4780
2026-01-26 21:56:39.97	91.20	16.21	-42.7	-45.3	18.1	0.00e+00	0	44	0	469762048	57	4716
2026-01-26 21:56:40.96	91.42	16.19	-42.8	-45.3	18.0	0.00e+00	0	43	0	470810624	57	4743
2026-01-26 21:56:41.95	91.63	16.18	-42.7	-45.1	18.2	0.00e+00	0	43	0	472907776	57	4648
2026-01-26 21:56:42.95	91.85	16.17	-42.6	-45.1	18.2	0.00e+00	0	43	0	475004928	57	4640
2026-01-26 21:56:43.94	92.07	16.16	-42.5	-45.0	18.4	0.00e+00	0	43	0	477102080	57	4546
2026-01-26 21:56:44.94	92.29	16.14	-42.5	-44.9	18.4	0.00e+00	0	43	0	479199232	56	4814
2026-01-26 21:56:45.93	92.51	16.13	-42.4	-44.8	18.5	0.00e+00	0	43	0	480247808	56	4725
2026-01-26 21:56:46.92	92.72	16.11	-42.5	-44.9	18.4	0.00e+00	0	43	0	482344960	56	4803
2026-01-26 21:56:47.92	92.94	16.10	-42.5	-44.9	18.5	0.00e+00	0	43	0	484442112	56	4786
2026-01-26 21:56:48.96	93.17	16.08	-42.5	-45.0	18.4	0.00e+00	0	43	0	486539264	56	4815
2026-01-26 21:56:49.99	93.39	16.07	-42.5	-45.0	18.4	0.00e+00	0	43	0	488636416	56	4825
2026-01-26 21:56:50.98	93.61	16.05	-42.3	-44.7	18.6	0.00e+00	0	43	0	489684992	56	4676
2026-01-26 21:56:51.97	93.82	16.04	-42.3	-44.7	18.7	0.00e+00	0	44	0	491782144	56	4663
2026-01-26 21:56:52.97	94.04	16.02	-42.4	-44.8	18.6	0.00e+00	0	43	0	493879296	56	4721
2026-01-26 21:56:53.97	94.26	16.00	-42.3	-44.7	18.7	0.00e+00	0	43	0	495976448	56	4668
2026-01-26 21:56:54.96	94.47	15.99	-42.2	-44.6	18.7	0.00e+00	0	43	0	497025024	56	4631
2026-01-26 21:56:55.95	94.69	15.97	-42.3	-44.7	18.7	0.00e+00	0	43	0	499122176	56	4655
2026-01-26 21:56:56.95	94.90	15.95	-42.1	-44.5	18.8	0.00e+00	0	43	0	501219328	56	4555
2026-01-26 21:56:57.94	95.12	15.93	-42.1	-44.5	18.9	0.00e+00	0	43	0	503316480	56	4553
2026-01-26 21:56:58.94	95.33	15.91	-42.1	-44.4	19.0	0.00e+00	0	43	0	505413632	56	4503
2026-01-26 21:56:59.94	95.55	15.89	-42.0	-44.3	19.0	0.00e+00	0	43	0	506462208	56	4478
2026-01-26 21:57:00.93	95.76	15.88	-42.1	-44.4	18.9	0.00e+00	0	43	0	508559360	56	4524
2026-01-26 21:57:01.93	95.98	15.86	-42.2	-44.6	18.7	0.00e+00	0	43	0	510656512	56	4635
2026-01-26 21:57:02.97	96.20	15.83	-42.4	-44.8	18.6	0.00e+00	0	43	0	512753664	56	4708
2026-01-26 21:57:03.95	96.41	15.81	-42.5	-44.9	18.4	0.00e+00	0	43	0	514850816	56	4803
2026-01-26 21:57:04.94	96.62	15.79	-42.6	-45.0	18.4	0.00e+00	0	43	0	515899392	56	4846
2026-01-26 21:57:05.94	96.84	15.77	-42.5	-45.0	18.4	0.00e+00	0	43	0	517996544	56	4815
2026-01-26 21:57:06.93	97.05	15.75	-42.5	-44.9	18.5	0.00e+00	0	43	0	520093696	56	4782
2026-01-26 21:57:07.93	97.26	15.73	-42.3	-44.7	18.6	0.00e+00	0	43	0	522190848	56	4694
2026-01-26 21:57:08.92	97.47	15.71	-42.2	-44.5	18.8	0.00e+00	0	43	0	523239424	56	4583
2026-01-26 21:57:09.92	97.69	15.68	-42.1	-44.4	18.9	0.00e+00	0	43	0	525336576	56	4535
2026-01-26 21:57:10.91	97.90	15.66	-42.0	-44.4	19.0	0.00e+00	0	43	0	527433728	56	4497
2026-01-26 21:57:11.91	98.11	15.64	-41.8	-44.1	19.0	0.00e+00	0	43	0	529530880	55	4635
2026-01-26 21:57:12.90	98.32	15.61	-41.6	-43.9	19.2	0.00e+00	0	43	0	531628032	55	4521
2026-01-26 21:57:13.90	98.53	15.59	-41.5	-43.8	19.3	0.00e+00	0	43	0	532676608	55	4456
2026-01-26 21:57:14.89	98.74	15.56	-41.5	-43.7	19.4	0.00e+00	0	43	0	534773760	54	4692
2026-01-26 21:57:15.89	98.95	15.54	-41.5	-43.7	19.4	0.00e+00	0	44	0	536870912	54	4684
2026-01-26 21:57:16.88	99.16	15.52	-41.6	-43.8	19.3	0.00e+00	0	43	0	538968064	54	4750
2026-01-26 21:57:17.94	99.38	15.49	-41.7	-43.9	19.2	0.00e+00	0	43	0	541065216	54	4804
2026-01-26 21:57:18.87	99.58	15.46	-41.6	-43.8	19.3	0.00e+00	0	43	0	542113792	54	4742
2026-01-26 21:57:19.86	99.78	15.44	-41.5	-43.7	19.4	0.00e+00	0	43	0	544210944	54	4701
2026-01-26 21:57:20.86	99.99	15.41	-41.6	-43.8	19.3	0.00e+00	0	43	0	546308096	54	4752
2026-01-26 21:57:21.86	100.20	15.38	-41.7	-44.0	19.1	0.00e+00	0	43	0	548405248	54	4840
2026-01-26 21:57:22.85	100.41	15.36	-41.7	-44.0	19.1	0.00e+00	0	43	0	549453824	54	4853
2026-01-26 21:57:23.85	100.62	15.33	-41.8	-44.1	19.0	0.00e+00	0	43	0	551550976	54	4907
2026-01-26 21:57:24.84	100.82	15.30	-41.9	-44.3	18.8	0.00e+00	0	43	0	553648128	54	5013
2026-01-26 21:57:25.84	101.03	15.27	-41.9	-44.3	18.9	0.00e+00	0	43	0	555745280	54	4992
2026-01-26 21:57:26.83	101.23	15.25	-41.7	-44.0	19.1	0.00e+00	0	44	0	556793856	54	4849
2026-01-26 21:57:27.82	101.44	15.22	-41.7	-44.0	19.1	0.00e+00	0	43	0	558891008	54	4856
2026-01-26 21:57:28.82	101.64	15.19	-41.6	-44.0	19.2	0.00e+00	0	43	0	560988160	54	4819
2026-01-26 21:57:29.81	101.85	15.16	-41.5	-43.8	19.3	0.00e+00	0	44	0	563085312	54	4733
2026-01-26 21:57:30.84	102.06	15.13	-41.5	-43.7	19.4	0.00e+00	0	43	0	565182464	54	4699
2026-01-26 21:57:31.87	102.27	15.10	-41.4	-43.7	19.4	0.00e+00	0	43	0	566231040	54	4665
2026-01-26 21:57:32.89	102.48	15.07	-41.4	-43.6	19.5	0.00e+00	0	43	0	568328192	54	4640
2026-01-26 21:57:33.89	102.68	15.04	-41.5	-43.7	19.4	0.00e+00	0	43	0	570425344	54	4692
2026-01-26 21:57:34.96	102.90	15.00	-41.6	-43.9	19.3	0.00e+00	0	43	0	572522496	54	4762
2026-01-26 21:57:35.82	103.08	14.98	-41.6	-43.9	19.2	0.00e+00	0	43	0	573571072	54	4810
2026-01-26 21:57:36.95	103.31	14.94	-41.8	-44.2	19.0	0.00e+00	0	43	0	576716800	54	4934
2026-01-26 21:57:37.81	103.48	14.91	-42.0	-44.4	18.7	0.00e+00	0	44	0	577765376	54	5070
2026-01-26 21:57:38.95	103.71	14.88	-42.2	-44.7	18.5	0.00e+00	0	43	0	579862528	55	4938
2026-01-26 21:57:39.80	103.88	14.85	-42.4	-44.9	18.3	0.00e+00	0	43	0	581959680	55	5045
2026-01-26 21:57:40.94	104.11	14.81	-42.4	-44.9	18.3	0.00e+00	0	43	0	584056832	55	5056
2026-01-26 21:57:41.79	104.28	14.79	-42.4	-44.9	18.3	0.00e+00	0	43	0	585105408	55	5054
2026-01-26 21:57:42.93	104.51	14.75	-42.5	-44.9	18.2	0.00e+00	0	43	0	587202560	55	5096
2026-01-26 21:57:43.78	104.68	14.72	-42.3	-44.8	18.4	0.00e+00	0	43	0	589299712	55	4996
2026-01-26 21:57:44.92	104.91	14.68	-42.3	-44.7	18.4	0.00e+00	0	43	0	591396864	55	4962
2026-01-26 21:57:45.77	105.08	14.65	-42.2	-44.6	18.6	0.00e+00	0	43	0	592445440	55	4905
2026-01-26 21:57:46.91	105.30	14.61	-42.4	-44.9	18.2	0.00e+00	0	43	0	594542592	55	5081
2026-01-26 21:57:47.76	105.47	14.58	-42.4	-44.9	18.2	0.00e+00	0	43	0	596639744	55	5084
2026-01-26 21:57:49.01	105.72	14.54	-42.4	-44.9	18.3	0.00e+00	0	44	0	598736896	55	5058
2026-01-26 21:57:49.86	105.89	14.51	-42.4	-44.9	18.3	0.00e+00	0	43	0	600834048	55	5045
2026-01-26 21:57:50.99	106.11	14.47	-42.4	-44.8	18.3	0.00e+00	0	43	0	602931200	55	5029
2026-01-26 21:57:51.85	106.28	14.44	-42.3	-44.7	18.4	0.00e+00	0	43	0	603979776	55	4977
2026-01-26 21:57:53.11	106.52	14.39	-42.2	-44.7	18.4	0.00e+00	0	43	0	606076928	55	4941
2026-01-26 21:57:53.88	106.67	14.37	-42.2	-44.7	18.5	0.00e+00	0	43	0	608174080	55	4927
2026-01-26 21:57:55.16	106.92	14.32	-42.4	-44.9	18.3	0.00e+00	0	43	0	610271232	55	5067
2026-01-26 21:57:55.87	107.06	14.29	-42.5	-45.1	18.1	0.00e+00	0	43	0	611319808	55	5171
2026-01-26 21:57:57.15	107.31	14.25	-43.0	-45.7	17.7	0.00e+00	0	43	0	614465536	56	5231
2026-01-26 21:57:57.88	107.45	14.22	-43.2	-45.9	17.4	0.00e+00	0	43	0	615514112	57	5055
2026-01-26 21:57:59.16	107.70	14.17	-43.5	-46.4	16.9	0.00e+00	0	43	0	617611264	57	5350
2026-01-26 21:57:59.88	107.84	14.14	-43.7	-46.6	16.8	0.00e+00	0	43	0	619708416	58	5187
2026-01-26 21:58:01.16	108.08	14.09	-44.0	-47.0	16.4	0.00e+00	0	43	0	621805568	58	5424
2026-01-26 21:58:01.87	108.22	14.07	-44.0	-47.0	16.3	0.00e+00	0	43	0	622854144	58	5426
2026-01-26 21:58:03.15	108.46	14.02	-44.1	-47.1	16.3	0.00e+00	0	43	0	624951296	58	5490
2026-01-26 21:58:03.86	108.60	13.99	-44.2	-47.3	16.1	0.00e+00	0	43	0	627048448	59	5291
2026-01-26 21:58:05.14	108.84	13.94	-44.3	-47.3	16.0	0.00e+00	0	43	0	629145600	59	5335
2026-01-26 21:58:05.86	108.98	13.91	-44.3	-47.3	16.0	0.00e+00	0	43	0	630194176	59	5303
2026-01-26 21:58:07.14	109.22	13.86	-44.3	-47.4	15.9	0.00e+00	0	43	0	633339904	59	5360
2026-01-26 21:58:07.86	109.36	13.83	-44.3	-47.4	16.0	0.00e+00	0	43	0	634388480	59	5388
2026-01-26 21:58:09.14	109.60	13.78	-44.3	-47.3	16.0	0.00e+00	0	43	0	636485632	59	5340
2026-01-26 21:58:09.87	109.74	13.75	-44.2	-47.2	16.1	0.00e+00	0	43	0	637534208	59	5254
2026-01-26 21:58:11.15	109.98	13.70	-44.2	-47.2	16.1	0.00e+00	0	43	0	640679936	59	5272
2026-01-26 21:58:11.90	110.12	13.67	-44.1	-47.1	16.3	0.00e+00	0	43	0	641728512	59	5171
2026-01-26 21:58:13.18	110.35	13.62	-43.8	-46.8	16.6	0.00e+00	0	43	0	643825664	59	4984
2026-01-26 21:58:13.90	110.49	13.59	-43.8	-46.7	16.6	0.00e+00	0	43	0	645922816	59	4934
2026-01-26 21:58:15.18	110.72	13.54	-43.7	-46.6	16.6	0.00e+00	0	43	0	648019968	59	4922
2026-01-26 21:58:15.89	110.86	13.51	-43.8	-46.7	16.6	0.00e+00	0	43	0	649068544	59	4956
2026-01-26 21:58:17.17	111.09	13.46	-43.8	-46.7	16.6	0.00e+00	0	43	0	651165696	59	4955
2026-01-26 21:58:17.89	111.22	13.43	-43.8	-46.7	16.6	0.00e+00	0	43	0	653262848	59	4953
2026-01-26 21:58:19.16	111.46	13.37	-44.0	-46.9	16.3	0.00e+00	0	43	0	655360000	59	5099
2026-01-26 21:58:20.11	111.63	13.33	-44.0	-47.0	16.3	0.00e+00	0	43	0	657457152	59	5119
2026-01-26 21:58:21.11	111.81	13.29	-44.1	-47.1	16.2	0.00e+00	0	43	0	658505728	59	5164
2026-01-26 21:58:22.10	111.99	13.25	-44.2	-47.3	16.0	0.00e+00	0	43	0	660602880	59	5326
2026-01-26 21:58:23.09	112.17	13.21	-44.3	-47.4	15.9	0.00e+00	0	43	0	662700032	59	5368
2026-01-26 21:58:24.09	112.35	13.16	-44.4	-47.5	15.8	0.00e+00	0	43	0	664797184	59	5439
2026-01-26 21:58:25.08	112.53	13.12	-44.5	-47.8	15.5	0.00e+00	0	43	0	666894336	59	5609
2026-01-26 21:58:26.08	112.71	13.08	-44.6	-47.9	15.4	0.00e+00	0	43	0	667942912	59	5667
2026-01-26 21:58:27.07	112.89	13.03	-44.4	-47.6	15.6	0.00e+00	0	44	0	670040064	59	5527
2026-01-26 21:58:28.08	113.07	12.99	-44.4	-47.6	15.7	7.00e-07	0	43	0	672137216	59	5481
2026-01-26 21:58:29.07	113.25	12.95	-44.3	-47.4	15.9	0.00e+00	0	43	0	674234368	59	5366
2026-01-26 21:58:30.15	113.44	12.90	-44.2	-47.2	16.1	0.00e+00	0	43	0	676331520	59	5256
2026-01-26 21:58:31.03	113.59	12.86	-44.1	-47.1	16.1	0.00e+00	0	43	0	677380096	59	5217
2026-01-26 21:58:32.17	113.79	12.81	-44.0	-47.0	16.3	0.00e+00	0	43	0	679477248	59	5120
2026-01-26 21:58:33.02	113.94	12.77	-43.9	-46.8	16.5	0.00e+00	0	43	0	681574400	59	5024
2026-01-26 21:58:34.16	114.14	12.72	-44.0	-47.0	16.3	0.00e+00	0	43	0	683671552	59	5114
2026-01-26 21:58:35.01	114.29	12.68	-44.0	-47.0	16.2	0.00e+00	0	43	0	684720128	59	5143
2026-01-26 21:58:36.15	114.49	12.63	-44.0	-46.9	16.4	0.00e+00	0	43	0	686817280	59	5077
2026-01-26 21:58:37.00	114.64	12.59	-44.0	-46.9	16.3	0.00e+00	0	43	0	688914432	59	5096
2026-01-26 21:58:38.14	114.84	12.54	-43.8	-46.7	16.6	0.00e+00	0	43	0	691011584	59	4947
2026-01-26 21:58:38.99	114.99	12.50	-43.6	-46.5	16.8	0.00e+00	0	43	0	692060160	59	4832
2026-01-26 21:58:40.13	115.18	12.45	-43.6	-46.4	16.8	0.00e+00	0	44	0	695205888	59	4811
2026-01-26 21:58:40.98	115.33	12.41	-43.6	-46.4	16.9	0.00e+00	0	44	0	696254464	59	4771
2026-01-26 21:58:42.12	115.52	12.36	-43.2	-45.9	17.4	0.00e+00	0	44	0	698351616	58	4779
2026-01-26 21:58:43.02	115.68	12.32	-43.2	-45.9	17.3	0.00e+00	0	43	0	700448768	58	4804
2026-01-26 21:58:44.13	115.87	12.27	-43.1	-45.8	17.5	0.00e+00	0	43	0	702545920	58	4708
2026-01-26 21:58:44.99	116.01	12.23	-43.3	-46.0	17.3	0.00e+00	0	43	0	703594496	58	4829
2026-01-26 21:58:46.12	116.20	12.18	-43.3	-46.0	17.2	0.00e+00	0	43	0	705691648	58	4848
2026-01-26 21:58:46.98	116.35	12.14	-43.5	-46.3	17.1	0.00e+00	0	43	0	707788800	58	4986
2026-01-26 21:58:48.12	116.54	12.08	-43.5	-46.2	17.0	0.00e+00	0	43	0	709885952	58	4968
2026-01-26 21:58:48.97	116.68	12.04	-43.6	-46.4	16.9	0.00e+00	0	43	0	710934528	58	5058
2026-01-26 21:58:50.10	116.87	11.99	-43.6	-46.5	16.8	0.00e+00	0	43	0	713031680	58	5115
2026-01-26 21:58:50.96	117.02	11.95	-43.6	-46.4	16.8	0.00e+00	0	44	0	715128832	58	5100
2026-01-26 21:58:52.09	117.20	11.90	-43.7	-46.6	16.7	0.00e+00	0	43	0	717225984	58	5195
2026-01-26 21:58:52.95	117.35	11.86	-43.8	-46.7	16.6	0.00e+00	0	43	0	718274560	58	5238
2026-01-26 21:58:54.09	117.54	11.80	-43.9	-46.8	16.4	0.00e+00	0	43	0	720371712	58	5310
2026-01-26 21:58:54.94	117.68	11.76	-44.0	-46.9	16.4	0.00e+00	0	43	0	722468864	58	5381
2026-01-26 21:58:56.08	117.86	11.71	-43.9	-46.8	16.4	0.00e+00	0	43	0	724566016	58	5340
2026-01-26 21:58:56.93	118.00	11.67	-43.8	-46.6	16.6	0.00e+00	0	43	0	726663168	58	5205
2026-01-26 21:58:58.06	118.19	11.61	-43.6	-46.4	16.9	0.00e+00	0	43	0	728760320	58	5063
2026-01-26 21:58:58.92	118.33	11.57	-43.4	-46.1	17.1	0.00e+00	0	43	0	729808896	58	4902
2026-01-26 21:59:00.05	118.51	11.52	-43.2	-45.8	17.4	0.00e+00	0	43	0	731906048	58	4746
2026-01-26 21:59:00.91	118.65	11.48	-42.9	-45.4	17.8	0.00e+00	0	44	0	734003200	57	4812
2026-01-26 21:59:02.04	118.83	11.42	-42.9	-45.5	17.8	0.00e+00	0	43	0	736100352	57	4815
2026-01-26 21:59:02.89	118.97	11.38	-42.7	-45.3	17.9	0.00e+00	0	43	0	737148928	57	4738
2026-01-26 21:59:04.03	119.15	11.33	-42.7	-45.2	18.0	0.00e+00	0	43	0	739246080	57	4696
2026-01-26 21:59:04.89	119.29	11.28	-42.9	-45.4	17.8	0.00e+00	0	44	0	741343232	57	4809
2026-01-26 21:59:06.03	119.47	11.23	-43.0	-45.7	17.5	0.00e+00	0	43	0	743440384	57	4941
2026-01-26 21:59:06.88	119.60	11.19	-43.1	-45.8	17.5	0.00e+00	0	43	0	744488960	57	4988
2026-01-26 21:59:08.13	119.80	11.13	-43.2	-45.9	17.3	0.00e+00	0	43	0	747634688	57	5100
2026-01-26 21:59:08.98	119.94	11.08	-43.3	-46.0	17.2	0.00e+00	0	43	0	748683264	57	5123
2026-01-26 21:59:10.12	120.12	11.03	-43.2	-46.1	17.2	0.00e+00	0	43	0	750780416	57	5162
2026-01-26 21:59:10.97	120.25	10.99	-43.2	-46.0	17.3	0.00e+00	0	43	0	752877568	57	5103
2026-01-26 21:59:12.11	120.43	10.93	-43.1	-45.9	17.3	0.00e+00	0	43	0	754974720	57	5050
2026-01-26 21:59:12.96	120.56	10.89	-43.1	-45.8	17.4	0.00e+00	0	43	0	756023296	57	5023
2026-01-26 21:59:14.10	120.74	10.83	-43.2	-45.9	17.3	0.00e+00	0	44	0	758120448	57	5060
2026-01-26 21:59:15.06	120.88	10.78	-43.3	-46.0	17.2	0.00e+00	0	43	0	760217600	57	5127
2026-01-26 21:59:16.05	121.04	10.73	-43.4	-46.1	17.1	0.00e+00	0	44	0	762314752	57	5200
2026-01-26 21:59:17.05	121.19	10.68	-43.5	-46.3	16.9	0.00e+00	0	43	0	764411904	57	5293
2026-01-26 21:59:18.04	121.34	10.64	-43.6	-46.4	16.7	0.00e+00	0	43	0	765460480	57	5400
2026-01-26 21:59:19.04	121.49	10.59	-43.4	-46.2	17.0	0.00e+00	0	43	0	767557632	57	5265
2026-01-26 21:59:20.03	121.64	10.54	-43.3	-46.0	17.2	0.00e+00	0	43	0	769654784	57	5146
2026-01-26 21:59:21.03	121.80	10.49	-43.2	-45.9	17.2	0.00e+00	0	43	0	771751936	57	5100
2026-01-26 21:59:22.02	121.95	10.44	-43.0	-45.8	17.3	0.00e+00	0	43	0	772800512	57	5034
2026-01-26 21:59:23.02	122.10	10.39	-43.1	-45.8	17.4	0.00e+00	0	43	0	774897664	57	5010
2026-01-26 21:59:24.02	122.25	10.34	-43.1	-45.8	17.4	0.00e+00	0	43	0	776994816	57	4993
2026-01-26 21:59:25.01	122.39	10.29	-42.8	-45.7	17.5	0.00e+00	0	43	0	779091968	57	4931
2026-01-26 21:59:26.01	122.54	10.24	-43.0	-45.7	17.5	0.00e+00	0	43	0	781189120	57	4946
2026-01-26 21:59:27.00	122.69	10.19	-43.0	-45.8	17.4	0.00e+00	0	43	0	782237696	57	5001
2026-01-26 21:59:27.99	122.84	10.14	-43.2	-46.0	17.2	0.00e+00	0	43	0	784334848	57	5129
2026-01-26 21:59:28.99	122.98	10.08	-43.5	-46.2	17.0	0.00e+00	0	43	0	786432000	57	5259
2026-01-26 21:59:29.99	123.13	10.03	-43.5	-46.4	16.8	0.00e+00	0	43	0	788529152	57	5392
2026-01-26 21:59:30.98	123.28	9.98	-43.6	-46.5	16.7	0.00e+00	0	43	0	789577728	58	5106
2026-01-26 21:59:31.97	123.42	9.93	-43.6	-46.4	16.7	0.00e+00	0	43	0	791674880	58	5094
2026-01-26 21:59:32.97	123.57	9.88	-43.6	-46.4	16.8	0.00e+00	0	44	0	793772032	58	5060
2026-01-26 21:59:33.96	123.71	9.83	-43.6	-46.4	16.8	0.00e+00	0	43	0	795869184	58	5055
2026-01-26 21:59:34.96	123.86	9.78	-43.3	-46.1	17.1	0.00e+00	0	43	0	797966336	58	4889
2026-01-26 21:59:35.95	124.00	9.73	-43.2	-45.9	17.2	0.00e+00	0	43	0	799014912	58	4804
2026-01-26 21:59:36.95	124.14	9.68	-43.3	-46.0	17.2	0.00e+00	0	43	0	801112064	58	4840
2026-01-26 21:59:37.99	124.29	9.63	-43.3	-46.0	17.2	0.00e+00	0	43	0	803209216	58	4838
2026-01-26 21:59:38.94	124.43	9.58	-43.3	-46.0	17.1	0.00e+00	0	43	0	805306368	58	4850
2026-01-26 21:59:39.94	124.57	9.53	-43.3	-46.1	16.9	0.00e+00	0	43	0	806354944	58	4896
2026-01-26 21:59:40.93	124.71	9.48	-43.5	-46.4	16.7	0.00e+00	0	44	0	808452096	58	5057
2026-01-26 21:59:41.93	124.85	9.42	-43.7	-46.5	16.6	0.00e+00	0	43	0	810549248	58	5147
2026-01-26 21:59:42.92	124.99	9.37	-43.8	-46.8	16.3	0.00e+00	0	43	0	812646400	58	5286
2026-01-26 21:59:43.91	125.13	9.32	-43.9	-46.8	16.2	0.00e+00	0	43	0	814743552	58	5340
2026-01-26 21:59:44.91	125.27	9.27	-43.9	-46.9	16.2	0.00e+00	0	43	0	815792128	58	5357
2026-01-26 21:59:45.90	125.41	9.22	-43.8	-46.9	16.3	0.00e+00	0	44	0	817889280	58	5342
2026-01-26 21:59:46.90	125.55	9.17	-43.7	-46.6	16.5	0.00e+00	0	43	0	819986432	58	5193
2026-01-26 21:59:47.89	125.68	9.12	-43.5	-46.4	16.7	0.00e+00	0	43	0	822083584	58	5050
2026-01-26 21:59:48.89	125.82	9.07	-43.5	-46.3	16.8	0.00e+00	0	43	0	823132160	58	5033
2026-01-26 21:59:49.88	125.96	9.02	-43.4	-46.3	16.8	0.00e+00	0	43	0	825229312	58	5025
2026-01-26 21:59:50.88	126.09	8.96	-48.9	-60.9	4.4	0.00e+00	0	43	0	827326464	68	15112
2026-01-26 21:59:51.87	126.23	8.91	-49.4	-64.6	3.8	1.49e+00	0	43	104	827326464	69	21932
2026-01-26 21:59:52.86	126.36	8.86	-49.5	-64.7	3.8	1.49e+00	0	43	104	827326464	69	22218
2026-01-26 21:59:53.86	126.50	8.81	-49.6	-64.8	3.8	1.49e+00	0	43	104	827326464	69	22451
2026-01-26 21:59:54.85	126.63	8.76	-49.6	-64.9	3.8	1.49e+00	0	43	104	827326464	69	22575
2026-01-26 21:59:55.84	126.77	8.71	-49.7	-65.0	3.8	1.49e+00	0	43	104	827326464	70	21566
2026-01-26 21:59:56.84	126.90	8.66	-49.6	-65.0	3.8	1.49e+00	0	43	104	827326464	70	21614
2026-01-26 21:59:57.83	127.03	8.60	-49.7	-65.0	3.8	1.49e+00	0	43	104	827326464	70	21639
2026-01-26 21:59:58.83	127.17	8.55	-49.8	-65.0	3.8	1.49e+00	0	43	104	827326464	70	21677
2026-01-26 21:59:59.82	127.30	8.50	-49.4	-65.1	3.8	1.49e+00	0	43	104	827326464	70	21832
2026-01-26 22:00:00.81	127.43	8.45	-49.7	-65.0	3.8	1.49e+00	0	43	104	827326464	70	21724
2026-01-26 22:00:01.81	127.56	8.40	-49.7	-65.1	3.8	1.49e+00	0	43	104	827326464	70	21763
2026-01-26 22:00:02.80	127.69	8.35	-49.3	-65.0	3.8	1.49e+00	0	43	104	827326464	70	21703
2026-01-26 22:00:03.79	127.82	8.29	-49.5	-65.1	3.8	1.49e+00	0	43	104	827326464	70	21889
2026-01-26 22:00:04.79	127.95	8.24	-49.4	-65.1	3.8	1.49e+00	0	43	104	827326464	70	21882
2026-01-26 22:00:05.78	128.08	8.19	-49.5	-65.1	3.8	1.49e+00	0	44	104	827326464	70	21837
2026-01-26 22:00:06.78	128.21	8.14	-49.5	-65.1	3.8	1.49e+00	0	43	104	827326464	70	21904
2026-01-26 22:00:07.77	128.34	8.09	-49.3	-65.1	3.8	1.49e+00	0	43	104	827326464	70	21801
2026-01-26 22:00:08.76	128.47	8.04	-49.3	-65.1	3.8	1.49e+00	0	44	104	827326464	70	21801
2026-01-26 22:00:09.76	128.59	7.98	-49.4	-65.1	3.8	1.49e+00	0	43	104	827326464	70	21796
2026-01-26 22:00:10.75	128.72	7.93	-49.4	-65.1	3.8	1.49e+00	0	44	104	827326464	70	21923
2026-01-26 22:00:11.74	128.85	7.88	-49.5	-65.1	3.8	1.49e+00	0	43	104	827326464	70	21763
2026-01-26 22:00:12.74	128.97	7.83	-49.5	-65.0	3.8	1.49e+00	0	44	104	827326464	70	21735
2026-01-26 22:00:13.73	129.10	7.78	-49.5	-65.0	3.8	1.49e+00	0	43	104	827326464	70	21723
2026-01-26 22:00:14.72	129.22	7.72	-49.5	-65.0	3.8	1.49e+00	0	43	104	827326464	70	21721
2026-01-26 22:00:15.72	129.35	7.67	-49.5	-65.0	3.8	1.49e+00	0	43	104	827326464	70	21675
2026-01-26 22:00:16.71	129.47	7.62	-49.5	-65.0	3.8	1.49e+00	0	43	104	827326464	70	21735
2026-01-26 22:00:17.70	129.60	7.57	-49.5	-65.1	3.8	1.49e+00	0	43	104	827326464	70	21778
2026-01-26 22:00:18.70	129.72	7.52	-49.4	-65.0	3.8	1.49e+00	0	43	104	827326464	70	21628
2026-01-26 22:00:19.69	129.85	7.46	-49.4	-65.0	3.8	1.49e+00	0	43	104	827326464	70	21576
2026-01-26 22:00:20.68	129.97	7.41	-49.4	-65.0	3.8	1.49e+00	0	43	104	827326464	70	21625
2026-01-26 22:00:21.68	130.09	7.36	-49.4	-65.0	3.8	1.49e+00	0	44	104	827326464	70	21597
2026-01-26 22:00:22.67	130.21	7.31	-49.5	-65.0	3.8	1.49e+00	0	43	104	827326464	70	21685
2026-01-26 22:00:23.66	130.33	7.26	-49.4	-65.0	3.8	1.49e+00	0	43	104	827326464	70	21628
2026-01-26 22:00:24.66	130.46	7.21	-49.4	-65.0	3.8	1.49e+00	0	43	104	827326464	70	21614
2026-01-26 22:00:25.65	130.58	7.15	-49.4	-65.0	3.8	1.49e+00	0	43	104	827326464	70	21559
2026-01-26 22:00:26.65	130.70	7.10	-49.4	-65.0	3.8	1.49e+00	0	43	104	827326464	70	21584
2026-01-26 22:00:27.64	130.82	7.05	-49.4	-65.0	3.8	1.49e+00	0	43	104	827326464	70	21626
2026-01-26 22:00:28.63	130.94	7.00	-49.4	-65.0	3.8	1.49e+00	0	43	104	827326464	70	21656
2026-01-26 22:00:29.63	131.06	6.95	-49.4	-65.0	3.8	1.49e+00	0	43	104	827326464	70	21614
2026-01-26 22:00:30.62	131.17	6.89	-49.4	-65.0	3.8	1.49e+00	0	43	104	827326464	70	21643
2026-01-26 22:00:31.62	131.29	6.84	-49.4	-65.0	3.8	1.49e+00	0	43	104	827326464	70	21587
2026-01-26 22:00:32.61	131.41	6.79	-49.4	-65.0	3.8	1.49e+00	0	43	104	827326464	70	21574
2026-01-26 22:00:33.60	131.53	6.74	-49.4	-65.0	3.8	1.49e+00	0	43	104	827326464	70	21543
2026-01-26 22:00:34.60	131.65	6.69	-49.4	-65.0	3.8	1.49e+00	0	43	104	827326464	70	21573
2026-01-26 22:00:35.59	131.76	6.63	-49.4	-65.0	3.8	1.49e+00	0	43	104	827326464	70	21551
2026-01-26 22:00:36.58	131.88	6.58	-49.4	-64.9	3.8	1.49e+00	0	43	104	827326464	70	21445
2026-01-26 22:00:37.58	131.99	6.53	-49.4	-65.0	3.8	1.49e+00	0	44	104	827326464	70	21528
2026-01-26 22:00:38.57	132.11	6.48	-49.4	-65.0	3.8	1.49e+00	0	43	104	827326464	70	21539
2026-01-26 22:00:39.57	132.23	6.43	-49.4	-65.0	3.8	1.49e+00	0	43	104	827326464	70	21578
2026-01-26 22:00:40.56	132.34	6.37	-49.4	-65.0	3.8	1.49e+00	0	43	104	827326464	70	21581
2026-01-26 22:00:41.55	132.45	6.32	-49.4	-65.0	3.8	1.49e+00	0	43	104	827326464	70	21627
2026-01-26 22:00:42.55	132.57	6.27	-49.4	-65.0	3.8	1.49e+00	0	43	104	827326464	70	21526
2026-01-26 22:00:43.54	132.68	6.22	-49.4	-65.0	3.8	1.49e+00	0	43	104	827326464	70	21570
2026-01-26 22:00:44.53	132.79	6.17	-49.5	-65.0	3.8	1.49e+00	0	43	104	827326464	70	21664
2026-01-26 22:00:45.53	132.91	6.12	-49.4	-65.0	3.8	1.49e+00	0	44	104	827326464	70	21659
2026-01-26 22:00:46.52	133.02	6.06	-49.4	-65.0	3.8	1.49e+00	0	43	104	827326464	70	21538
2026-01-26 22:00:47.52	133.13	6.01	-49.4	-65.0	3.8	1.49e+00	0	43	104	827326464	70	21536
2026-01-26 22:00:48.51	133.24	5.96	-49.4	-65.0	3.8	1.49e+00	0	43	104	827326464	70	21559
2026-01-26 22:00:49.50	133.35	5.91	-49.4	-65.0	3.8	1.49e+00	0	43	104	827326464	70	21572
2026-01-26 22:00:50.50	133.47	5.86	-49.4	-65.0	3.8	1.49e+00	0	43	104	827326464	70	21572
2026-01-26 22:00:51.49	133.58	5.80	-49.4	-65.0	3.8	1.49e+00	0	43	104	827326464	70	21523
2026-01-26 22:00:52.49	133.69	5.75	-49.4	-65.0	3.8	1.49e+00	0	44	104	827326464	70	21555
2026-01-26 22:00:53.48	133.80	5.70	-49.4	-65.0	3.8	1.49e+00	0	43	104	827326464	70	21507
2026-01-26 22:00:54.47	133.90	5.65	-49.4	-65.0	3.8	1.49e+00	0	43	104	827326464	70	21527
2026-01-26 22:00:55.47	134.01	5.60	-49.4	-65.0	3.8	1.49e+00	0	43	104	827326464	70	21568
2026-01-26 22:00:56.46	134.12	5.55	-49.4	-65.0	3.8	1.49e+00	0	43	104	827326464	70	21546
2026-01-26 22:00:57.45	134.23	5.49	-49.4	-64.9	3.8	1.49e+00	0	43	104	827326464	70	21479
2026-01-26 22:00:58.45	134.34	5.44	-49.4	-65.0	3.8	1.49e+00	0	43	104	827326464	70	21529
2026-01-26 22:00:59.44	134.45	5.39	-49.4	-64.9	3.8	1.49e+00	0	44	104	827326464	70	21505
2026-01-26 22:01:00.43	134.55	5.34	-49.4	-65.0	3.8	1.49e+00	0	43	104	827326464	70	21526
2026-01-26 22:01:01.43	134.66	5.29	-49.4	-64.9	3.8	1.49e+00	0	43	104	827326464	70	21431
2026-01-26 22:01:02.42	134.77	5.24	-49.4	-64.9	3.8	1.49e+00	0	43	104	827326464	70	21459
2026-01-26 22:01:03.41	134.87	5.18	-49.4	-64.9	3.8	1.49e+00	0	44	104	827326464	70	21429
2026-01-26 22:01:04.41	134.98	5.13	-49.4	-64.9	3.8	1.49e+00	0	43	104	827326464	70	21482
2026-01-26 22:01:05.40	135.08	5.08	-49.4	-64.9	3.8	1.49e+00	0	43	104	827326464	70	21466
2026-01-26 22:01:06.40	135.19	5.03	-49.4	-64.9	3.8	1.49e+00	0	44	104	827326464	70	21448
2026-01-26 22:01:07.39	135.29	4.98	-49.4	-64.9	3.8	1.49e+00	0	43	104	827326464	70	21488

#Closed at: 2026-01-26 22:01:08
#Recorded file [827 MB]: D:/Data/31040_260127_005113.dat