passes_logs/2026/01/26/T1/T1__20260126_152049_FENGYUN_3E_rec.log

#Pass ID: 20260126_152049_FENGYUN 3E
#Satellite: FENGYUN 3E
#Configuration: FENGYUN 3E
#almurnet v.1.7.20251203
#Start time: 2026-01-26 15:20:49

#Version: 2.0.20230620
#Station: T1
#Location: 37.570604 lon 55.790049 lat
#TLE: 1 49008U 21062A   26025.99868676  .00000027  00000+0  33666-4 0  9992
#TLE: 2 49008  98.7499  30.9985 0002454 117.4834 242.6592 14.19886826236404

#Time	Az	El	Level	Level2	SNR	BER	BlckErr	Temp	State	Recorded	gain1	gain2
2026-01-26 15:20:49.86	196.92	5.07	-48.7	-60.1	3.8	8.47e-01	0	40	0	0	67	13615
2026-01-26 15:20:50.85	196.99	5.13	-48.6	-60.0	3.8	8.47e-01	0	41	104	0	67	13468
2026-01-26 15:20:51.84	197.05	5.19	-48.6	-60.0	3.8	8.48e-01	0	41	104	0	67	13562
2026-01-26 15:20:52.83	197.12	5.26	-48.6	-60.1	3.8	8.47e-01	0	41	104	0	67	13689
2026-01-26 15:20:53.82	197.18	5.32	-48.7	-60.1	3.8	8.46e-01	0	41	104	0	67	13616
2026-01-26 15:20:54.82	197.25	5.39	-48.7	-60.1	3.8	8.47e-01	0	41	104	0	67	13709
2026-01-26 15:20:55.81	197.31	5.46	-48.7	-60.1	3.8	8.48e-01	0	41	104	0	67	13705
2026-01-26 15:20:56.81	197.38	5.52	-48.7	-60.1	3.8	8.46e-01	0	41	104	0	67	13658
2026-01-26 15:20:57.80	197.44	5.59	-48.7	-60.1	3.8	8.47e-01	0	41	104	0	67	13626
2026-01-26 15:20:58.79	197.51	5.65	-48.6	-60.0	3.8	8.48e-01	0	41	104	0	67	13431
2026-01-26 15:20:59.79	197.58	5.72	-48.6	-59.9	3.8	8.46e-01	0	41	104	0	67	13302
2026-01-26 15:21:00.78	197.65	5.79	-48.6	-59.7	3.8	8.48e-01	0	41	104	0	67	13001
2026-01-26 15:21:01.78	197.71	5.85	-48.6	-59.5	3.8	8.46e-01	0	41	104	0	67	12753
2026-01-26 15:21:02.77	197.78	5.92	-48.5	-59.3	3.8	8.46e-01	0	41	104	0	67	12489
2026-01-26 15:21:03.76	197.85	5.99	-48.5	-59.3	3.8	8.47e-01	0	41	104	0	67	12430
2026-01-26 15:21:04.75	197.92	6.05	-48.5	-59.2	3.8	8.47e-01	0	41	104	0	67	12283
2026-01-26 15:21:05.75	197.99	6.12	-48.5	-59.1	3.8	8.47e-01	0	41	104	0	67	12155
2026-01-26 15:21:06.74	198.05	6.19	-48.5	-59.2	3.8	8.46e-01	0	41	104	0	67	12360
2026-01-26 15:21:07.73	198.12	6.25	-48.5	-59.2	3.8	8.46e-01	0	41	104	0	67	12331
2026-01-26 15:21:08.73	198.19	6.32	-48.5	-59.1	3.8	8.48e-01	0	41	104	0	67	12103
2026-01-26 15:21:09.72	198.26	6.39	-48.5	-58.8	3.8	8.48e-01	0	41	104	0	67	11757
2026-01-26 15:21:10.71	198.33	6.46	-48.4	-58.5	3.8	8.46e-01	0	42	104	0	67	11362
2026-01-26 15:21:11.71	198.40	6.52	-48.4	-58.3	3.8	8.45e-01	0	41	104	0	67	11040
2026-01-26 15:21:12.70	198.47	6.59	-48.4	-58.1	3.8	8.45e-01	0	41	104	0	67	10834
2026-01-26 15:21:13.69	198.55	6.66	-48.3	-58.1	3.8	8.45e-01	0	42	104	0	67	10786
2026-01-26 15:21:14.69	198.62	6.73	-48.4	-58.2	3.8	8.46e-01	0	41	104	0	67	10973
2026-01-26 15:21:15.68	198.69	6.80	-48.4	-58.2	3.8	8.47e-01	0	42	104	0	67	10987
2026-01-26 15:21:16.67	198.76	6.86	-48.4	-58.3	3.8	8.45e-01	0	42	104	0	67	11055
2026-01-26 15:21:17.67	198.83	6.93	-48.5	-58.8	3.8	8.46e-01	0	42	104	0	67	11725
2026-01-26 15:21:18.66	198.91	7.00	-48.5	-58.8	3.8	8.47e-01	0	42	104	0	67	11790
2026-01-26 15:21:19.65	198.98	7.07	-48.5	-59.1	3.8	8.46e-01	0	42	104	0	67	12224
2026-01-26 15:21:20.65	199.05	7.14	-48.5	-59.1	3.8	8.46e-01	0	42	104	0	67	12178
2026-01-26 15:21:21.64	199.13	7.21	-48.5	-58.8	3.8	8.46e-01	0	42	104	0	67	11699
2026-01-26 15:21:22.63	199.20	7.28	-48.4	-58.3	3.8	8.46e-01	0	42	104	0	67	11059
2026-01-26 15:21:23.63	199.27	7.35	-48.3	-57.7	4.0	8.45e-01	0	42	104	0	67	10360
2026-01-26 15:21:24.62	199.35	7.42	-48.2	-57.2	4.0	8.44e-01	0	42	104	0	67	9790
2026-01-26 15:21:25.61	199.42	7.49	-48.2	-57.3	4.0	8.42e-01	0	42	0	0	67	9940
2026-01-26 15:21:26.61	199.50	7.56	-48.4	-58.2	3.8	8.46e-01	0	42	104	0	66	11575
2026-01-26 15:21:27.60	199.57	7.63	-48.6	-59.7	3.8	8.48e-01	0	42	104	0	66	13837
2026-01-26 15:21:28.59	199.65	7.70	-48.6	-59.8	3.8	8.47e-01	0	42	104	0	66	13977
2026-01-26 15:21:29.59	199.73	7.77	-48.2	-56.5	4.2	8.43e-01	0	42	0	0	66	9553
2026-01-26 15:21:30.58	199.80	7.84	-46.9	-52.0	6.9	4.90e-01	0	42	0	2097152	64	6375
2026-01-26 15:21:31.57	199.88	7.91	-45.2	-48.6	10.5	1.10e-02	0	42	0	9437184	61	5102
2026-01-26 15:21:32.57	199.96	7.98	-43.4	-45.8	13.3	1.13e-04	0	42	0	16777216	57	4655
2026-01-26 15:21:33.56	200.04	8.05	-41.5	-43.3	15.4	0.00e+00	0	42	0	24117248	53	4441
2026-01-26 15:21:34.55	200.11	8.12	-40.5	-42.3	16.6	0.00e+00	0	42	0	30408704	51	4396
2026-01-26 15:21:35.55	200.19	8.19	-39.6	-41.3	17.5	0.00e+00	0	42	0	37748736	50	4162
2026-01-26 15:21:36.54	200.27	8.27	-38.8	-40.3	18.3	0.00e+00	0	42	0	45088768	48	4172
2026-01-26 15:21:37.53	200.35	8.34	-38.3	-39.9	18.5	0.00e+00	0	42	0	52428800	47	4208
2026-01-26 15:21:38.52	200.43	8.41	-38.0	-39.6	18.7	0.00e+00	0	42	0	59768832	46	4316
2026-01-26 15:21:39.52	200.51	8.48	-38.4	-40.0	18.4	0.00e+00	0	42	0	67108864	46	4521
2026-01-26 15:21:40.51	200.59	8.55	-38.8	-40.4	18.0	0.00e+00	0	42	0	73400320	46	4728
2026-01-26 15:21:41.51	200.67	8.63	-39.5	-41.2	17.6	0.00e+00	0	42	0	80740352	48	4610
2026-01-26 15:21:42.50	200.75	8.70	-40.5	-42.2	16.6	0.00e+00	0	42	0	88080384	50	4643
2026-01-26 15:21:43.49	200.84	8.77	-41.5	-43.5	15.4	0.00e+00	0	42	0	95420416	52	4772
2026-01-26 15:21:44.49	200.92	8.84	-42.6	-44.8	14.1	0.00e+00	0	42	0	102760448	54	4934
2026-01-26 15:21:45.48	201.00	8.92	-44.1	-46.8	12.2	5.26e-05	0	42	0	110100480	57	5246
2026-01-26 15:21:46.47	201.08	8.99	-45.2	-48.4	10.6	2.28e-03	0	43	0	116391936	59	5620
2026-01-26 15:21:47.47	201.17	9.06	-43.9	-46.4	12.6	5.56e-03	0	42	0	123731968	58	4716
2026-01-26 15:21:48.46	201.25	9.14	-41.3	-43.1	15.7	0.00e+00	0	42	0	131072000	53	4307
2026-01-26 15:21:49.46	201.34	9.21	-44.4	-47.0	12.1	2.86e-05	0	42	0	138412032	58	5098
2026-01-26 15:21:50.45	201.42	9.28	-47.6	-54.1	5.4	7.27e-01	0	42	0	142606336	64	8130
2026-01-26 15:21:51.44	201.50	9.36	-47.6	-54.0	5.4	8.16e-01	0	42	0	142606336	65	7546
2026-01-26 15:21:52.44	201.59	9.43	-48.0	-55.2	4.8	8.29e-01	0	42	0	143654912	66	8189
2026-01-26 15:21:53.43	201.68	9.51	-47.6	-53.9	5.5	6.62e-01	0	42	0	146800640	65	7474
2026-01-26 15:21:54.43	201.76	9.58	-47.6	-53.8	5.5	6.81e-01	0	42	0	148897792	65	7452
2026-01-26 15:21:55.42	201.85	9.66	-47.6	-53.6	5.7	4.74e-01	0	42	0	155189248	65	7274
2026-01-26 15:21:56.41	201.94	9.73	-47.7	-53.4	5.9	4.97e-01	0	43	0	161480704	65	7076
2026-01-26 15:21:57.41	202.02	9.81	-47.7	-53.4	5.8	3.81e-01	0	43	0	168820736	65	7113
2026-01-26 15:21:58.41	202.11	9.88	-47.1	-51.9	7.0	6.11e-01	0	42	0	171966464	65	5958
2026-01-26 15:21:59.40	202.20	9.96	-41.9	-43.8	15.2	0.00e+00	0	43	0	179306496	53	4684
2026-01-26 15:22:00.40	202.29	10.03	-43.1	-45.2	13.8	1.26e-03	0	43	0	186646528	57	4350
2026-01-26 15:22:01.39	202.38	10.11	-41.4	-43.2	15.7	0.00e+00	0	43	0	193986560	53	4376
2026-01-26 15:22:02.39	202.47	10.18	-41.0	-42.8	16.2	0.00e+00	0	43	0	201326592	52	4393
2026-01-26 15:22:03.38	202.56	10.26	-40.7	-42.4	16.6	0.00e+00	0	42	0	207618048	51	4449
2026-01-26 15:22:04.37	202.65	10.34	-40.6	-42.2	16.7	0.00e+00	0	43	0	214958080	51	4388
2026-01-26 15:22:05.38	202.74	10.41	-40.7	-42.4	16.6	0.00e+00	0	43	0	222298112	51	4446
2026-01-26 15:22:06.38	202.83	10.49	-40.5	-42.2	16.8	0.00e+00	0	43	0	229638144	51	4354
2026-01-26 15:22:07.38	202.92	10.57	-39.7	-41.3	17.6	0.00e+00	0	43	0	236978176	50	4152
2026-01-26 15:22:08.45	203.02	10.65	-39.6	-41.2	17.7	0.00e+00	0	43	0	244318208	50	4118
2026-01-26 15:22:09.34	203.11	10.72	-39.3	-40.8	18.0	0.00e+00	0	43	0	250609664	49	4191
2026-01-26 15:22:10.48	203.21	10.81	-39.2	-40.8	18.1	0.00e+00	0	43	0	258998272	49	4153
2026-01-26 15:22:11.33	203.30	10.87	-39.5	-41.1	17.7	0.00e+00	0	43	0	265289728	49	4317
2026-01-26 15:22:12.47	203.40	10.96	-39.5	-41.1	17.8	0.00e+00	0	43	0	273678336	49	4311
2026-01-26 15:22:13.32	203.48	11.03	-39.1	-40.6	18.3	0.00e+00	0	43	0	279969792	49	4053
2026-01-26 15:22:14.46	203.59	11.12	-38.3	-39.7	18.8	0.00e+00	0	43	0	287309824	47	4129
2026-01-26 15:22:15.31	203.68	11.19	-38.3	-39.8	18.7	0.00e+00	0	43	0	293601280	47	4175
2026-01-26 15:22:16.44	203.79	11.28	-38.2	-39.7	18.9	0.00e+00	0	43	0	301989888	47	4105
2026-01-26 15:22:17.30	203.87	11.34	-38.3	-39.8	18.7	0.00e+00	0	43	0	308281344	47	4173
2026-01-26 15:22:18.50	203.99	11.44	-38.2	-39.6	18.9	0.00e+00	0	43	0	316669952	47	4086
2026-01-26 15:22:19.35	204.07	11.51	-37.9	-39.3	19.2	0.00e+00	0	43	0	322961408	46	4192
2026-01-26 15:22:20.49	204.18	11.60	-38.1	-39.5	19.0	0.00e+00	0	43	0	331350016	46	4282
2026-01-26 15:22:21.34	204.27	11.66	-37.8	-39.2	19.3	0.00e+00	0	43	0	337641472	46	4130
2026-01-26 15:22:22.48	204.38	11.76	-37.8	-39.2	19.3	0.00e+00	0	43	0	346030080	46	4115
2026-01-26 15:22:23.33	204.47	11.82	-37.8	-39.3	19.3	0.00e+00	0	43	0	352321536	46	4150
2026-01-26 15:22:24.70	204.61	11.93	-37.5	-38.9	19.6	0.00e+00	0	43	0	361758720	45	4234
2026-01-26 15:22:25.41	204.68	11.99	-37.7	-39.1	19.4	0.00e+00	0	43	0	367001600	45	4306
2026-01-26 15:22:26.69	204.81	12.09	-37.4	-38.8	19.7	0.00e+00	0	43	0	376438784	45	4159
2026-01-26 15:22:27.40	204.88	12.15	-37.5	-38.9	19.5	0.00e+00	0	43	0	381681664	45	4230
2026-01-26 15:22:28.68	205.01	12.26	-37.5	-38.9	19.6	0.00e+00	0	43	0	391118848	45	4202
2026-01-26 15:22:29.52	205.10	12.32	-37.4	-38.8	19.7	0.00e+00	0	43	0	396361728	45	4168
2026-01-26 15:22:30.65	205.22	12.42	-37.3	-38.7	19.7	0.00e+00	0	43	0	404750336	45	4139
2026-01-26 15:22:31.50	205.31	12.49	-37.4	-38.8	19.7	0.00e+00	0	43	0	411041792	45	4167
2026-01-26 15:22:32.64	205.43	12.58	-37.3	-38.7	19.8	0.00e+00	0	43	0	419430400	45	4123
2026-01-26 15:22:33.50	205.52	12.65	-37.3	-38.7	19.8	0.00e+00	0	43	0	425721856	45	4143
2026-01-26 15:22:34.63	205.64	12.74	-37.3	-38.7	19.8	0.00e+00	0	43	0	434110464	45	4124
2026-01-26 15:22:35.82	205.77	12.84	-37.4	-38.8	19.7	0.00e+00	0	43	0	442499072	45	4167
2026-01-26 15:22:36.83	205.88	12.92	-37.2	-38.6	20.0	0.00e+00	0	43	0	449839104	44	4302
2026-01-26 15:22:37.98	206.00	13.02	-37.3	-38.7	19.8	0.00e+00	0	43	0	458227712	44	4370
2026-01-26 15:22:38.84	206.10	13.09	-37.1	-38.5	20.0	0.00e+00	0	43	0	463470592	44	4273
2026-01-26 15:22:39.97	206.22	13.18	-37.2	-38.6	19.9	0.00e+00	0	43	0	471859200	44	4317
2026-01-26 15:22:40.83	206.31	13.26	-37.0	-38.4	20.1	0.00e+00	0	43	0	478150656	44	4226
2026-01-26 15:22:41.96	206.44	13.35	-37.1	-38.6	19.9	0.00e+00	0	43	0	486539264	44	4303
2026-01-26 15:22:42.82	206.54	13.42	-37.2	-38.6	19.9	0.00e+00	0	43	0	492830720	44	4316
2026-01-26 15:22:43.95	206.66	13.52	-37.0	-38.5	20.0	0.00e+00	0	43	0	501219328	44	4252
2026-01-26 15:22:44.80	206.76	13.59	-37.1	-38.5	19.9	0.00e+00	0	43	0	506462208	44	4283
2026-01-26 15:22:45.94	206.89	13.69	-37.2	-38.6	19.8	0.00e+00	0	43	0	514850816	44	4338
2026-01-26 15:22:46.79	206.98	13.76	-37.1	-38.6	19.9	0.00e+00	0	43	0	521142272	44	4314
2026-01-26 15:22:47.93	207.12	13.85	-37.2	-38.6	19.9	0.00e+00	0	43	0	529530880	44	4331
2026-01-26 15:22:48.79	207.21	13.93	-37.1	-38.6	19.8	0.00e+00	0	43	0	535822336	44	4339
2026-01-26 15:22:49.97	207.35	14.03	-37.0	-38.5	19.9	0.00e+00	0	43	0	544210944	44	4274
2026-01-26 15:22:50.82	207.45	14.10	-37.0	-38.5	19.9	0.00e+00	0	43	0	550502400	44	4268
2026-01-26 15:22:51.96	207.58	14.20	-36.8	-38.3	20.1	0.00e+00	0	43	0	558891008	44	4172
2026-01-26 15:22:52.81	207.68	14.27	-36.8	-38.3	20.1	0.00e+00	0	43	0	565182464	44	4188
2026-01-26 15:22:53.95	207.82	14.37	-36.9	-38.5	20.0	0.00e+00	0	43	0	572522496	44	4243
2026-01-26 15:22:54.80	207.92	14.44	-37.0	-38.5	19.9	0.00e+00	0	43	0	578813952	44	4253
2026-01-26 15:22:55.94	208.06	14.54	-37.0	-38.5	19.9	0.00e+00	0	43	0	587202560	44	4282
2026-01-26 15:22:56.79	208.16	14.61	-36.8	-38.3	20.0	0.00e+00	0	43	0	593494016	44	4169
2026-01-26 15:22:57.93	208.30	14.71	-36.8	-38.3	20.0	0.00e+00	0	43	0	601882624	44	4180
2026-01-26 15:22:58.78	208.40	14.79	-36.8	-38.3	20.0	0.00e+00	0	43	0	608174080	44	4173
2026-01-26 15:22:59.92	208.54	14.89	-36.8	-38.3	20.0	0.00e+00	0	43	0	616562688	44	4160
2026-01-26 15:23:00.77	208.65	14.96	-36.7	-38.2	20.1	0.00e+00	0	43	0	622854144	44	4113
2026-01-26 15:23:01.91	208.79	15.06	-36.4	-37.9	20.2	0.00e+00	0	43	0	631242752	43	4225
2026-01-26 15:23:02.76	208.89	15.13	-36.4	-37.9	20.2	0.00e+00	0	43	0	636485632	43	4208
2026-01-26 15:23:03.90	209.04	15.23	-36.1	-37.6	20.5	0.00e+00	0	43	0	644874240	43	4054
2026-01-26 15:23:04.75	209.15	15.31	-36.1	-37.6	20.5	0.00e+00	0	43	0	651165696	43	4069
2026-01-26 15:23:06.00	209.30	15.42	-36.1	-37.5	20.5	0.00e+00	0	43	0	659554304	43	4043
2026-01-26 15:23:06.85	209.41	15.49	-36.0	-37.4	20.7	0.00e+00	0	43	0	665845760	42	4224
2026-01-26 15:23:07.99	209.56	15.60	-36.1	-37.4	20.7	0.00e+00	0	43	0	674234368	42	4240
2026-01-26 15:23:08.84	209.67	15.67	-35.8	-37.1	20.9	0.00e+00	0	43	0	680525824	42	4092
2026-01-26 15:23:10.10	209.83	15.78	-35.9	-37.3	20.8	0.00e+00	0	43	0	689963008	42	4160
2026-01-26 15:23:10.83	209.93	15.85	-36.0	-37.3	20.7	0.00e+00	0	43	0	695205888	42	4175
2026-01-26 15:23:12.11	210.10	15.96	-36.1	-37.4	20.7	0.00e+00	0	43	0	704643072	42	4222
2026-01-26 15:23:12.84	210.19	16.03	-35.9	-37.2	20.9	0.00e+00	0	43	0	709885952	42	4130
2026-01-26 15:23:14.12	210.36	16.14	-36.0	-37.3	20.8	0.00e+00	0	43	0	718274560	42	4170
2026-01-26 15:23:14.83	210.46	16.21	-36.0	-37.3	20.8	0.00e+00	0	43	0	723517440	42	4183
2026-01-26 15:23:16.11	210.63	16.32	-36.0	-37.4	20.7	0.00e+00	0	43	0	732954624	42	4207
2026-01-26 15:23:16.88	210.73	16.39	-36.1	-37.5	20.6	0.00e+00	0	43	0	738197504	42	4248
2026-01-26 15:23:18.16	210.91	16.51	-36.2	-37.5	20.6	0.00e+00	0	43	0	747634688	42	4275
2026-01-26 15:23:18.87	211.01	16.57	-36.1	-37.5	20.6	0.00e+00	0	43	0	752877568	42	4268
2026-01-26 15:23:20.15	211.18	16.69	-36.1	-37.4	20.7	0.00e+00	0	43	0	762314752	42	4241
2026-01-26 15:23:20.88	211.28	16.76	-36.1	-37.5	20.7	0.00e+00	0	43	0	767557632	42	4254
2026-01-26 15:23:22.16	211.46	16.87	-36.1	-37.5	20.7	0.00e+00	0	43	0	776994816	42	4246
2026-01-26 15:23:22.88	211.56	16.94	-36.1	-37.4	20.7	0.00e+00	0	43	0	782237696	42	4214
2026-01-26 15:23:24.16	211.74	17.06	-36.1	-37.4	20.7	0.00e+00	0	43	0	791674880	42	4238
2026-01-26 15:23:24.88	211.85	17.12	-36.0	-37.4	20.8	0.00e+00	0	43	0	795869184	42	4197
2026-01-26 15:23:26.16	212.03	17.24	-36.0	-37.3	20.8	0.00e+00	0	43	0	805306368	42	4183
2026-01-26 15:23:26.87	212.13	17.30	-35.9	-37.3	20.9	0.00e+00	0	43	0	810549248	42	4146
2026-01-26 15:23:28.24	212.33	17.43	-36.1	-37.4	20.8	0.00e+00	0	43	0	821035008	42	4212
2026-01-26 15:23:28.95	212.43	17.50	-36.0	-37.3	20.9	0.00e+00	0	43	0	825229312	42	4167
2026-01-26 15:23:30.23	212.62	17.62	-36.0	-37.2	20.9	0.00e+00	0	43	0	834666496	42	4137
2026-01-26 15:23:30.96	212.73	17.68	-35.8	-37.0	21.1	0.00e+00	0	43	0	839909376	42	4047
2026-01-26 15:23:32.24	212.92	17.80	-35.6	-36.9	21.3	0.00e+00	0	43	0	849346560	42	3962
2026-01-26 15:23:32.95	213.02	17.87	-35.6	-36.9	21.2	0.00e+00	0	43	0	854589440	41	4209
2026-01-26 15:23:34.23	213.21	17.99	-35.5	-36.7	21.4	0.00e+00	0	43	0	864026624	41	4136
2026-01-26 15:23:34.96	213.32	18.06	-35.4	-36.6	21.5	0.00e+00	0	43	0	869269504	41	4068
2026-01-26 15:23:36.24	213.52	18.18	-35.3	-36.5	21.6	0.00e+00	0	43	0	878706688	41	4045
2026-01-26 15:23:36.95	213.63	18.24	-35.3	-36.5	21.6	0.00e+00	0	43	0	882900992	41	4037
2026-01-26 15:23:38.23	213.82	18.36	-35.3	-36.6	21.6	0.00e+00	0	43	0	892338176	41	4052
2026-01-26 15:23:38.94	213.93	18.43	-35.4	-36.7	21.5	0.00e+00	0	43	0	897581056	41	4104
2026-01-26 15:23:40.23	214.13	18.55	-35.4	-36.7	21.5	0.00e+00	0	43	0	907018240	41	4104
2026-01-26 15:23:40.94	214.24	18.62	-35.4	-36.7	21.5	0.00e+00	0	43	0	912261120	41	4114
2026-01-26 15:23:42.25	214.45	18.74	-35.5	-36.8	21.5	0.00e+00	0	43	0	921698304	41	4146
2026-01-26 15:23:42.96	214.56	18.81	-35.5	-36.7	21.5	0.00e+00	0	43	0	926941184	41	4142
2026-01-26 15:23:44.28	214.77	18.94	-35.5	-36.8	21.4	0.00e+00	0	43	0	936378368	41	4160
2026-01-26 15:23:44.99	214.88	19.00	-35.4	-36.8	21.4	0.00e+00	0	43	0	941621248	41	4152
2026-01-26 15:23:46.29	215.09	19.13	-35.5	-36.8	21.4	0.00e+00	0	43	0	951058432	41	4161
2026-01-26 15:23:47.00	215.21	19.19	-35.4	-36.8	21.4	0.00e+00	0	43	0	956301312	41	4153
2026-01-26 15:23:48.28	215.42	19.32	-35.4	-36.7	21.4	0.00e+00	0	43	0	965738496	41	4140
2026-01-26 15:23:49.00	215.54	19.39	-35.3	-36.7	21.4	0.00e+00	0	43	0	969932800	41	4116
2026-01-26 15:23:50.29	215.75	19.51	-35.2	-36.5	21.5	0.00e+00	0	43	0	979369984	41	4046
2026-01-26 15:23:51.01	215.87	19.58	-35.3	-36.6	21.4	0.00e+00	0	43	0	985661440	41	4088
2026-01-26 15:23:52.29	216.08	19.70	-35.2	-36.5	21.5	0.00e+00	0	43	0	994050048	41	4043
2026-01-26 15:23:53.00	216.20	19.77	-35.1	-36.5	21.5	0.00e+00	0	43	0	999292928	41	4028
2026-01-26 15:23:54.28	216.42	19.89	-35.1	-36.5	21.5	0.00e+00	0	43	0	1008730112	40	4251
2026-01-26 15:23:55.01	216.54	19.96	-35.2	-36.5	21.5	0.00e+00	0	43	0	1013972992	40	4273
2026-01-26 15:23:56.29	216.76	20.09	-35.0	-36.3	21.7	0.00e+00	0	43	0	1023410176	40	4156
2026-01-26 15:23:57.00	216.88	20.16	-34.9	-36.2	21.8	0.00e+00	0	43	0	1027604480	40	4113
2026-01-26 15:23:58.28	217.11	20.28	-34.9	-36.2	21.8	0.00e+00	0	43	0	1037041664	40	4121
2026-01-26 15:23:58.99	217.23	20.35	-35.0	-36.3	21.7	0.00e+00	0	43	0	1042284544	40	4162
2026-01-26 15:24:00.27	217.45	20.47	-35.0	-36.2	21.7	0.00e+00	0	43	0	1051721728	40	4145
2026-01-26 15:24:00.98	217.58	20.54	-35.1	-36.4	21.6	0.00e+00	0	43	0	1056964608	40	4224
2026-01-26 15:24:02.26	217.81	20.67	-35.2	-36.5	21.5	0.00e+00	0	43	0	1066401792	40	4254
2026-01-26 15:24:02.97	217.93	20.74	-35.2	-36.5	21.5	0.00e+00	0	43	0	1071644672	40	4285
2026-01-26 15:24:04.27	218.17	20.86	-35.4	-36.8	21.2	0.00e+00	0	43	0	1081081856	40	4395
2026-01-26 15:24:04.98	218.30	20.93	-35.3	-36.6	21.4	0.00e+00	0	43	0	1086324736	40	4326
2026-01-26 15:24:06.26	218.53	21.06	-35.2	-36.6	21.4	0.00e+00	0	43	0	1095761920	40	4317
2026-01-26 15:24:06.97	218.66	21.13	-35.2	-36.6	21.4	0.00e+00	0	43	0	1099956224	40	4303
2026-01-26 15:24:08.25	218.90	21.25	-35.1	-36.5	21.5	0.00e+00	0	43	0	1109393408	40	4250
2026-01-26 15:24:08.98	219.03	21.32	-35.0	-36.3	21.6	0.00e+00	0	43	0	1114636288	40	4170
2026-01-26 15:24:10.26	219.27	21.45	-34.9	-36.2	21.7	0.00e+00	0	43	0	1124073472	40	4131
2026-01-26 15:24:10.98	219.41	21.52	-34.8	-36.1	21.8	0.00e+00	0	43	0	1129316352	40	4075
2026-01-26 15:24:12.26	219.65	21.65	-34.9	-36.2	21.8	0.00e+00	0	43	0	1137704960	40	4104
2026-01-26 15:24:12.98	219.78	21.72	-34.9	-36.2	21.7	0.00e+00	0	43	0	1143996416	40	4119
2026-01-26 15:24:14.26	220.03	21.84	-34.9	-36.2	21.7	0.00e+00	0	43	0	1153433600	40	4121
2026-01-26 15:24:14.97	220.17	21.91	-35.0	-36.3	21.6	0.00e+00	0	43	0	1157627904	40	4177
2026-01-26 15:24:16.27	220.42	22.04	-35.0	-36.3	21.6	0.00e+00	0	43	0	1167065088	40	4174
2026-01-26 15:24:16.98	220.56	22.11	-34.9	-36.2	21.7	0.00e+00	0	43	0	1172307968	40	4125
2026-01-26 15:24:18.26	220.81	22.24	-34.9	-36.2	21.7	0.00e+00	0	43	0	1181745152	40	4132
2026-01-26 15:24:19.28	221.01	22.34	-35.0	-36.3	21.7	0.00e+00	0	43	0	1189085184	40	4151
2026-01-26 15:24:20.28	221.21	22.44	-34.9	-36.1	21.8	0.00e+00	0	43	0	1196425216	40	4090
2026-01-26 15:24:21.27	221.41	22.53	-35.0	-36.3	21.7	0.00e+00	0	43	0	1203765248	40	4162
2026-01-26 15:24:22.27	221.61	22.63	-34.9	-36.2	21.8	0.00e+00	0	43	0	1211105280	40	4126
2026-01-26 15:24:23.26	221.81	22.73	-35.0	-36.3	21.7	0.00e+00	0	43	0	1218445312	40	4152
2026-01-26 15:24:24.26	222.01	22.83	-35.0	-36.3	21.6	0.00e+00	0	43	0	1224736768	40	4193
2026-01-26 15:24:25.25	222.21	22.93	-35.1	-36.4	21.6	0.00e+00	0	44	0	1232076800	40	4219
2026-01-26 15:24:26.25	222.42	23.03	-35.0	-36.3	21.7	0.00e+00	0	43	0	1239416832	40	4179
2026-01-26 15:24:27.24	222.63	23.12	-34.9	-36.2	21.8	0.00e+00	0	43	0	1246756864	40	4141
2026-01-26 15:24:28.24	222.83	23.22	-34.9	-36.3	21.8	0.00e+00	0	43	0	1254096896	40	4146
2026-01-26 15:24:29.28	223.05	23.33	-34.9	-36.2	21.8	0.00e+00	0	43	0	1261436928	40	4133
2026-01-26 15:24:30.26	223.26	23.42	-34.9	-36.2	21.8	0.00e+00	0	43	0	1267728384	40	4124
2026-01-26 15:24:31.25	223.47	23.52	-35.0	-36.3	21.7	0.00e+00	0	44	0	1275068416	40	4187
2026-01-26 15:24:32.25	223.68	23.62	-34.9	-36.3	21.8	0.00e+00	0	43	0	1282408448	40	4153
2026-01-26 15:24:33.24	223.90	23.72	-34.9	-36.2	21.8	0.00e+00	0	44	0	1289748480	40	4145
2026-01-26 15:24:34.23	224.11	23.81	-34.9	-36.3	21.8	0.00e+00	0	43	0	1297088512	40	4150
2026-01-26 15:24:35.43	224.37	23.93	-34.8	-36.2	21.9	0.00e+00	0	43	0	1305477120	40	4104
2026-01-26 15:24:36.32	224.57	24.02	-34.7	-36.0	22.0	0.00e+00	0	44	0	1311768576	40	4023
2026-01-26 15:24:37.46	224.82	24.13	-34.6	-35.9	22.1	0.00e+00	0	44	0	1320157184	40	3980
2026-01-26 15:24:38.31	225.01	24.22	-34.6	-35.9	22.1	0.00e+00	0	44	0	1326448640	39	4225
2026-01-26 15:24:39.45	225.27	24.33	-34.7	-36.0	22.0	0.00e+00	0	43	0	1334837248	39	4266
2026-01-26 15:24:40.30	225.46	24.41	-34.7	-35.9	22.1	0.00e+00	0	43	0	1341128704	39	4226
2026-01-26 15:24:41.43	225.71	24.52	-34.7	-35.9	22.1	0.00e+00	0	43	0	1348468736	39	4229
2026-01-26 15:24:42.29	225.91	24.61	-34.7	-35.9	22.1	0.00e+00	0	43	0	1354760192	39	4234
2026-01-26 15:24:43.42	226.17	24.72	-34.9	-36.2	21.9	0.00e+00	0	44	0	1363148800	39	4363
2026-01-26 15:24:44.27	226.36	24.80	-34.8	-36.1	21.9	0.00e+00	0	43	0	1369440256	39	4317
2026-01-26 15:24:45.41	226.63	24.91	-34.8	-36.2	21.9	0.00e+00	0	43	0	1377828864	39	4349
2026-01-26 15:24:46.27	226.83	25.00	-34.9	-36.2	21.8	0.00e+00	0	43	0	1384120320	39	4390
2026-01-26 15:24:47.40	227.09	25.11	-34.9	-36.2	21.8	0.00e+00	0	43	0	1391460352	39	4376
2026-01-26 15:24:48.25	227.29	25.19	-35.0	-36.4	21.7	0.00e+00	0	43	0	1397751808	39	4445
2026-01-26 15:24:49.39	227.56	25.30	-34.8	-36.2	21.8	0.00e+00	0	43	0	1406140416	39	4344
2026-01-26 15:24:50.24	227.77	25.38	-34.8	-36.1	21.9	0.00e+00	0	43	0	1412431872	39	4318
2026-01-26 15:24:51.38	228.04	25.49	-34.7	-36.0	22.0	0.00e+00	0	43	0	1420820480	39	4269
2026-01-26 15:24:52.24	228.25	25.58	-34.8	-36.1	22.0	0.00e+00	0	43	0	1427111936	39	4318
2026-01-26 15:24:53.37	228.52	25.68	-34.7	-36.0	22.0	0.00e+00	0	43	0	1435500544	39	4275
2026-01-26 15:24:54.23	228.73	25.77	-34.8	-36.1	22.0	0.00e+00	0	43	0	1441792000	39	4325
2026-01-26 15:24:55.36	229.01	25.88	-34.9	-36.3	21.8	0.00e+00	0	44	0	1450180608	39	4400
2026-01-26 15:24:56.22	229.23	25.96	-34.9	-36.3	21.8	0.00e+00	0	43	0	1455423488	39	4407
2026-01-26 15:24:57.37	229.51	26.07	-34.8	-36.1	22.0	0.00e+00	0	43	0	1463812096	39	4296
2026-01-26 15:24:58.22	229.73	26.15	-34.6	-35.9	22.1	0.00e+00	0	43	0	1470103552	39	4210
2026-01-26 15:24:59.42	230.03	26.26	-34.6	-35.9	22.1	0.00e+00	0	44	0	1478492160	39	4233
2026-01-26 15:25:00.28	230.25	26.35	-34.5	-35.8	22.1	0.00e+00	0	43	0	1484783616	39	4179
2026-01-26 15:25:01.41	230.53	26.45	-34.4	-35.7	22.2	0.00e+00	0	43	0	1493172224	39	4110
2026-01-26 15:25:02.26	230.75	26.53	-34.4	-35.6	22.3	0.00e+00	0	43	0	1499463680	39	4089
2026-01-26 15:25:03.40	231.05	26.64	-34.4	-35.7	22.2	0.00e+00	0	43	0	1507852288	39	4125
2026-01-26 15:25:04.26	231.27	26.72	-34.5	-35.7	22.2	0.00e+00	0	43	0	1513095168	39	4137
2026-01-26 15:25:05.62	231.62	26.85	-34.5	-35.7	22.1	0.00e+00	0	44	0	1523580928	39	4138
2026-01-26 15:25:06.33	231.81	26.91	-34.5	-35.8	22.2	0.00e+00	0	43	0	1528823808	39	4151
2026-01-26 15:25:07.61	232.15	27.03	-34.3	-35.5	22.4	0.00e+00	0	44	0	1538260992	39	4033
2026-01-26 15:25:08.32	232.34	27.10	-34.3	-35.5	22.4	0.00e+00	0	43	0	1543503872	39	4035
2026-01-26 15:25:09.60	232.68	27.22	-34.2	-35.5	22.4	0.00e+00	0	43	0	1551892480	39	4022
2026-01-26 15:25:10.31	232.87	27.28	-34.3	-35.6	22.3	0.00e+00	0	43	0	1557135360	39	4080
2026-01-26 15:25:11.59	233.22	27.40	-34.4	-35.7	22.3	0.00e+00	0	43	0	1566572544	39	4132
2026-01-26 15:25:12.32	233.42	27.47	-34.6	-35.9	22.1	0.00e+00	0	43	0	1571815424	39	4229
2026-01-26 15:25:13.60	233.77	27.58	-34.5	-35.8	22.3	0.00e+00	0	43	0	1581252608	39	4183
2026-01-26 15:25:14.45	234.00	27.66	-34.6	-36.0	22.2	0.00e+00	0	43	0	1587544064	39	4252
2026-01-26 15:25:15.59	234.31	27.76	-34.7	-36.0	22.2	0.00e+00	0	43	0	1595932672	39	4254
2026-01-26 15:25:16.44	234.55	27.84	-34.5	-35.8	22.3	0.00e+00	0	43	0	1601175552	39	4173
2026-01-26 15:25:17.58	234.87	27.94	-34.4	-35.7	22.3	0.00e+00	0	43	0	1609564160	39	4120
2026-01-26 15:25:18.43	235.11	28.01	-34.4	-35.7	22.3	0.00e+00	0	43	0	1615855616	39	4141
2026-01-26 15:25:19.62	235.44	28.12	-34.6	-35.9	22.2	0.00e+00	0	43	0	1624244224	39	4220
2026-01-26 15:25:20.47	235.69	28.19	-34.4	-35.7	22.3	0.00e+00	0	43	0	1630535680	39	4128
2026-01-26 15:25:21.61	236.01	28.29	-34.4	-35.7	22.3	0.00e+00	0	43	0	1638924288	39	4124
2026-01-26 15:25:22.46	236.26	28.37	-34.4	-35.7	22.3	0.00e+00	0	43	0	1645215744	39	4140
2026-01-26 15:25:23.60	236.59	28.47	-34.4	-35.7	22.3	0.00e+00	0	43	0	1653604352	39	4127
2026-01-26 15:25:24.45	236.83	28.54	-34.3	-35.6	22.4	0.00e+00	0	43	0	1659895808	39	4056
2026-01-26 15:25:25.59	237.16	28.64	-34.3	-35.5	22.4	0.00e+00	0	43	0	1667235840	39	4037
2026-01-26 15:25:26.44	237.41	28.71	-34.2	-35.4	22.5	0.00e+00	0	43	0	1673527296	39	3991
2026-01-26 15:25:27.57	237.75	28.80	-34.1	-35.4	22.5	0.00e+00	0	43	0	1681915904	39	3973
2026-01-26 15:25:28.43	238.00	28.87	-34.2	-35.4	22.4	0.00e+00	0	43	0	1688207360	39	4003
2026-01-26 15:25:29.57	238.34	28.97	-34.2	-35.4	22.4	0.00e+00	0	43	0	1696595968	39	3993
2026-01-26 15:25:30.42	238.60	29.04	-34.2	-35.5	22.5	0.00e+00	0	43	0	1702887424	39	4010
2026-01-26 15:25:31.56	238.94	29.13	-34.3	-35.5	22.4	0.00e+00	0	43	0	1710227456	39	4041
2026-01-26 15:25:32.41	239.20	29.20	-34.3	-35.6	22.4	0.00e+00	0	43	0	1717567488	39	4061
2026-01-26 15:25:33.55	239.54	29.29	-34.3	-35.6	22.5	0.00e+00	0	43	0	1724907520	39	4054
2026-01-26 15:25:34.40	239.80	29.36	-34.4	-35.7	22.3	0.00e+00	0	43	0	1731198976	39	4100
2026-01-26 15:25:35.54	240.15	29.45	-34.4	-35.7	22.3	0.00e+00	0	43	0	1739587584	39	4109
2026-01-26 15:25:36.39	240.41	29.52	-34.4	-35.7	22.3	0.00e+00	0	43	0	1745879040	39	4121
2026-01-26 15:25:37.53	240.77	29.61	-34.4	-35.6	22.3	0.00e+00	0	43	0	1754267648	39	4095
2026-01-26 15:25:38.38	241.03	29.67	-34.3	-35.6	22.4	0.00e+00	0	44	0	1760559104	39	4073
2026-01-26 15:25:39.52	241.39	29.76	-34.2	-35.5	22.4	0.00e+00	0	43	0	1767899136	39	4038
2026-01-26 15:25:40.37	241.65	29.83	-34.4	-35.7	22.3	0.00e+00	0	43	0	1774190592	39	4109
2026-01-26 15:25:41.51	242.01	29.91	-34.4	-35.7	22.3	0.00e+00	0	43	0	1782579200	39	4107
2026-01-26 15:25:42.36	242.28	29.97	-34.3	-35.6	22.3	0.00e+00	0	43	0	1788870656	39	4098
2026-01-26 15:25:43.50	242.64	30.06	-34.3	-35.6	22.3	0.00e+00	0	43	0	1797259264	39	4081
2026-01-26 15:25:44.36	242.92	30.12	-34.4	-35.7	22.2	0.00e+00	0	43	0	1803550720	39	4134
2026-01-26 15:25:45.49	243.28	30.20	-34.5	-35.8	22.2	0.00e+00	0	43	0	1810890752	39	4167
2026-01-26 15:25:46.35	243.56	30.26	-34.4	-35.7	22.2	0.00e+00	0	43	0	1817182208	39	4130
2026-01-26 15:25:47.48	243.93	30.34	-34.3	-35.6	22.3	0.00e+00	0	43	0	1825570816	39	4068
2026-01-26 15:25:48.34	244.21	30.40	-34.3	-35.6	22.3	0.00e+00	0	43	0	1831862272	39	4053
2026-01-26 15:25:49.62	244.62	30.49	-34.3	-35.6	22.3	0.00e+00	0	44	0	1841299456	39	4064
2026-01-26 15:25:50.34	244.86	30.54	-34.3	-35.6	22.3	0.00e+00	0	43	0	1846542336	39	4078
2026-01-26 15:25:51.62	245.28	30.63	-34.3	-35.6	22.3	0.00e+00	0	43	0	1855979520	39	4068
2026-01-26 15:25:52.33	245.52	30.67	-34.3	-35.7	22.3	0.00e+00	0	43	0	1861222400	39	4099
2026-01-26 15:25:53.62	245.94	30.76	-34.2	-35.4	22.4	0.00e+00	0	43	0	1870659584	39	4002
2026-01-26 15:25:54.35	246.19	30.81	-34.2	-35.5	22.4	0.00e+00	0	43	0	1874853888	39	4037
2026-01-26 15:25:55.63	246.62	30.89	-34.2	-35.4	22.5	0.00e+00	0	43	0	1884291072	39	4001
2026-01-26 15:25:56.47	246.90	30.94	-34.2	-35.4	22.4	0.00e+00	0	43	0	1890582528	38	4231
2026-01-26 15:25:57.60	247.28	31.01	-34.2	-35.4	22.5	0.00e+00	0	43	0	1898971136	38	4231
2026-01-26 15:25:58.64	247.63	31.07	-34.3	-35.6	22.4	0.00e+00	0	43	0	1906311168	38	4292
2026-01-26 15:25:59.61	247.96	31.13	-34.2	-35.5	22.4	0.00e+00	0	43	0	1913651200	38	4253
2026-01-26 15:26:00.83	248.38	31.20	-34.1	-35.3	22.6	0.00e+00	0	43	0	1922039808	38	4185
2026-01-26 15:26:01.72	248.68	31.25	-34.0	-35.2	22.7	0.00e+00	0	43	0	1928331264	38	4129
2026-01-26 15:26:03.03	249.13	31.33	-33.8	-35.0	22.9	0.00e+00	0	44	0	1937768448	38	4011
2026-01-26 15:26:03.74	249.38	31.37	-33.8	-35.0	22.9	0.00e+00	0	43	0	1943011328	38	4026
2026-01-26 15:26:05.24	249.90	31.45	-33.9	-35.1	22.7	0.00e+00	0	43	0	1953497088	38	4092
2026-01-26 15:26:05.95	250.14	31.48	-33.9	-35.2	22.7	0.00e+00	0	43	0	1958739968	38	4126
2026-01-26 15:26:07.28	250.61	31.55	-34.1	-35.4	22.5	0.00e+00	0	44	0	1969225728	38	4199
2026-01-26 15:26:07.99	250.86	31.59	-34.2	-35.5	22.4	0.00e+00	0	43	0	1973420032	38	4268
2026-01-26 15:26:09.27	251.30	31.65	-34.4	-35.7	22.2	0.00e+00	0	43	0	1982857216	38	4386
2026-01-26 15:26:09.98	251.55	31.69	-34.5	-35.8	22.2	0.00e+00	0	43	0	1988100096	38	4409
2026-01-26 15:26:11.26	252.01	31.75	-34.4	-35.7	22.2	0.00e+00	0	44	0	1997537280	38	4355
2026-01-26 15:26:11.98	252.26	31.78	-34.4	-35.7	22.2	0.00e+00	0	43	0	2002780160	38	4372
2026-01-26 15:26:13.26	252.72	31.84	-34.2	-35.4	22.4	0.00e+00	0	43	0	2012217344	38	4238
2026-01-26 15:26:13.99	252.97	31.87	-34.2	-35.5	22.3	0.00e+00	0	43	0	2017460224	38	4277
2026-01-26 15:26:15.27	253.43	31.93	-34.3	-35.7	22.2	0.00e+00	0	43	0	2026897408	38	4350
2026-01-26 15:26:16.09	253.72	31.96	-34.8	-35.7	23.2	0.00e+00	0	43	0	2032140288	39	4105
2026-01-26 15:26:17.54	254.25	32.02	-34.8	-35.6	23.2	0.00e+00	0	43	0	2042626048	39	4091
2026-01-26 15:26:18.25	254.50	32.05	-34.9	-35.7	23.1	0.00e+00	0	43	0	2047868928	39	4135
2026-01-26 15:26:19.53	254.96	32.10	-34.7	-35.5	23.3	0.00e+00	0	43	0	2057306112	39	4024
2026-01-26 15:26:20.25	255.22	32.13	-34.6	-35.5	23.4	0.00e+00	0	43	0	2062548992	39	4008
2026-01-26 15:26:21.82	255.79	32.18	-34.5	-35.4	23.4	0.00e+00	0	43	0	2074083328	39	3962
2026-01-26 15:26:22.45	256.02	32.20	-34.5	-35.3	23.5	0.00e+00	0	43	0	2078277632	39	3942
2026-01-26 15:26:23.95	256.57	32.25	-34.5	-35.4	23.5	0.00e+00	0	43	0	2088763392	39	3963
2026-01-26 15:26:24.66	256.82	32.28	-34.6	-35.4	23.4	0.00e+00	0	44	0	2094006272	39	3992
2026-01-26 15:26:25.95	257.30	32.32	-34.6	-35.4	23.4	0.00e+00	0	43	0	2103443456	39	3978
2026-01-26 15:26:26.66	257.56	32.34	-34.6	-35.4	23.4	0.00e+00	0	44	0	2108686336	39	3976
2026-01-26 15:26:28.05	258.06	32.38	-34.5	-35.3	23.5	0.00e+00	0	43	0	2118123520	39	3943
2026-01-26 15:26:28.76	258.33	32.39	-34.5	-35.4	23.4	0.00e+00	0	43	0	2124414976	39	3966
2026-01-26 15:26:30.04	258.80	32.43	-34.7	-35.5	23.3	0.00e+00	0	43	0	2132803584	39	4019
2026-01-26 15:26:30.76	259.06	32.44	-34.7	-35.5	23.3	0.00e+00	0	43	0	2138046464	39	4043
2026-01-26 15:26:32.04	259.53	32.47	-34.8	-35.6	23.2	0.00e+00	0	43	0	2147483648	39	4081
2026-01-26 15:26:32.77	259.80	32.49	-34.7	-35.6	23.3	0.00e+00	0	43	0	2152726528	39	4064
2026-01-26 15:26:34.04	260.27	32.52	-34.6	-35.5	23.3	0.00e+00	0	43	0	2162163712	39	4014
2026-01-26 15:26:34.75	260.54	32.53	-34.6	-35.4	23.4	0.00e+00	0	43	0	2166358016	39	3980
2026-01-26 15:26:36.03	261.01	32.55	-34.4	-35.3	23.5	0.00e+00	0	43	0	2175795200	39	3917
2026-01-26 15:26:36.76	261.28	32.56	-34.4	-35.2	23.5	0.00e+00	0	43	0	2181038080	39	3903
2026-01-26 15:26:38.03	261.75	32.58	-34.5	-35.3	23.5	0.00e+00	0	43	0	2190475264	39	3922
2026-01-26 15:26:38.75	262.02	32.59	-34.7	-35.5	23.3	0.00e+00	0	43	0	2195718144	39	4037
2026-01-26 15:26:40.02	262.49	32.61	-34.7	-35.6	23.3	0.00e+00	0	43	0	2205155328	39	4061
2026-01-26 15:26:40.75	262.76	32.62	-34.6	-35.4	23.4	0.00e+00	0	43	0	2210398208	39	4001
2026-01-26 15:26:42.03	263.24	32.63	-34.6	-35.4	23.4	0.00e+00	0	43	0	2219835392	39	3987
2026-01-26 15:26:42.75	263.51	32.64	-34.6	-35.5	23.4	0.00e+00	0	43	0	2225078272	39	4006
2026-01-26 15:26:44.03	263.99	32.65	-34.6	-35.4	23.4	0.00e+00	0	43	0	2234515456	39	3993
2026-01-26 15:26:44.74	264.25	32.65	-34.6	-35.4	23.4	0.00e+00	0	43	0	2238709760	39	4003
2026-01-26 15:26:46.04	264.74	32.66	-34.6	-35.4	23.4	0.00e+00	0	43	0	2248146944	39	3979
2026-01-26 15:26:46.75	265.00	32.66	-34.4	-35.2	23.5	0.00e+00	0	43	0	2253389824	39	3907
2026-01-26 15:26:48.03	265.48	32.66	-34.4	-35.2	23.6	0.00e+00	0	43	0	2262827008	39	3896
2026-01-26 15:26:48.74	265.74	32.66	-34.4	-35.2	23.5	0.00e+00	0	43	0	2268069888	39	3875
2026-01-26 15:26:50.16	266.27	32.66	-34.4	-35.2	23.6	0.00e+00	0	44	0	2278555648	39	3875
2026-01-26 15:26:50.87	266.54	32.66	-34.4	-35.2	23.6	0.00e+00	0	43	0	2283798528	39	3912
2026-01-26 15:26:52.15	267.02	32.65	-34.3	-35.1	23.7	0.00e+00	0	43	0	2292187136	39	3857
2026-01-26 15:26:52.86	267.28	32.65	-34.3	-35.1	23.7	0.00e+00	0	43	0	2297430016	39	3850
2026-01-26 15:26:54.15	267.76	32.64	-34.3	-35.1	23.7	0.00e+00	0	43	0	2306867200	39	3841
2026-01-26 15:26:55.27	268.18	32.63	-34.1	-34.9	23.9	0.00e+00	0	43	0	2315255808	39	3741
2026-01-26 15:26:56.12	268.50	32.63	-34.1	-34.9	23.8	0.00e+00	0	43	0	2321547264	38	3985
2026-01-26 15:26:57.26	268.92	32.61	-34.2	-35.0	23.8	0.00e+00	0	44	0	2328887296	38	4007
2026-01-26 15:26:58.11	269.24	32.60	-34.4	-35.1	23.6	0.00e+00	0	43	0	2335178752	38	4097
2026-01-26 15:26:59.33	269.69	32.59	-34.6	-35.5	23.4	0.00e+00	0	43	0	2344615936	38	4245
2026-01-26 15:27:00.18	270.01	32.58	-34.7	-35.6	23.3	0.00e+00	0	43	0	2350907392	38	4303
2026-01-26 15:27:01.31	270.43	32.56	-34.9	-35.7	23.1	0.00e+00	0	43	0	2359296000	39	4130
2026-01-26 15:27:02.17	270.74	32.54	-34.9	-35.7	23.2	0.00e+00	0	43	0	2364538880	39	4115
2026-01-26 15:27:03.48	271.23	32.52	-34.7	-35.5	23.3	0.00e+00	0	44	0	2373976064	39	4043
2026-01-26 15:27:04.19	271.49	32.51	-34.7	-35.6	23.3	0.00e+00	0	43	0	2379218944	39	4065
2026-01-26 15:27:05.67	272.04	32.48	-34.6	-35.4	23.4	0.00e+00	0	44	0	2390753280	39	3989
2026-01-26 15:27:06.38	272.30	32.46	-34.6	-35.4	23.4	0.00e+00	0	43	0	2394947584	39	3971
2026-01-26 15:27:07.72	272.79	32.43	-34.7	-35.5	23.4	0.00e+00	0	43	0	2405433344	39	4019
2026-01-26 15:27:08.43	273.05	32.41	-34.7	-35.5	23.4	0.00e+00	0	44	0	2409627648	39	4025
2026-01-26 15:27:09.77	273.55	32.37	-34.7	-35.6	23.3	0.00e+00	0	43	0	2420113408	39	4059
2026-01-26 15:27:10.48	273.81	32.35	-34.9	-35.7	23.1	0.00e+00	0	43	0	2425356288	39	4134
2026-01-26 15:27:11.83	274.30	32.32	-34.6	-35.4	23.4	0.00e+00	0	43	0	2434793472	39	3987
2026-01-26 15:27:12.54	274.56	32.29	-34.5	-35.3	23.5	0.00e+00	0	44	0	2440036352	39	3930
2026-01-26 15:27:13.83	275.03	32.25	-34.5	-35.3	23.5	0.00e+00	0	43	0	2449473536	39	3936
2026-01-26 15:27:14.54	275.29	32.23	-34.5	-35.2	23.6	0.00e+00	0	43	0	2453667840	39	3913
2026-01-26 15:27:15.82	275.75	32.19	-34.2	-35.0	23.8	0.00e+00	0	43	0	2463105024	39	3807
2026-01-26 15:27:16.53	276.01	32.16	-34.2	-35.0	23.8	0.00e+00	0	43	0	2468347904	39	3808
2026-01-26 15:27:17.81	276.47	32.12	-34.3	-35.1	23.6	0.00e+00	0	43	0	2477785088	39	3867
2026-01-26 15:27:18.55	276.74	32.09	-34.5	-35.3	23.6	0.00e+00	0	43	0	2483027968	39	3923
2026-01-26 15:27:19.83	277.20	32.04	-34.6	-35.4	23.4	0.00e+00	0	44	0	2492465152	39	3994
2026-01-26 15:27:20.54	277.45	32.01	-34.7	-35.5	23.3	0.00e+00	0	43	0	2497708032	39	4039
2026-01-26 15:27:21.82	277.91	31.96	-34.6	-35.4	23.4	0.00e+00	0	44	0	2507145216	39	3997
2026-01-26 15:27:22.53	278.16	31.93	-34.6	-35.4	23.4	0.00e+00	0	43	0	2512388096	39	3993
2026-01-26 15:27:23.81	278.62	31.87	-34.7	-35.5	23.3	0.00e+00	0	43	0	2520776704	39	4035
2026-01-26 15:27:24.60	278.90	31.84	-34.7	-35.6	23.2	0.00e+00	0	44	0	2527068160	39	4062
2026-01-26 15:27:25.78	279.32	31.78	-34.8	-35.6	23.2	0.00e+00	0	44	0	2535456768	39	4064
2026-01-26 15:27:26.64	279.62	31.74	-34.8	-35.7	23.1	0.00e+00	0	44	0	2541748224	39	4105
2026-01-26 15:27:28.11	280.14	31.67	-34.8	-35.7	23.2	0.00e+00	0	43	0	2552233984	39	4109
2026-01-26 15:27:28.82	280.39	31.64	-34.9	-35.8	23.1	0.00e+00	0	44	0	2557476864	39	4156
2026-01-26 15:27:30.11	280.84	31.57	-34.9	-35.7	23.2	0.00e+00	0	43	0	2566914048	39	4123
2026-01-26 15:27:30.83	281.09	31.54	-34.9	-35.7	23.1	0.00e+00	0	44	0	2572156928	39	4132
2026-01-26 15:27:32.10	281.53	31.47	-34.9	-35.7	23.2	0.00e+00	0	43	0	2580545536	39	4130
2026-01-26 15:27:32.83	281.79	31.43	-34.7	-35.5	23.3	0.00e+00	0	43	0	2585788416	39	4048
2026-01-26 15:27:34.11	282.23	31.36	-34.7	-35.6	23.2	0.00e+00	0	43	0	2595225600	39	4064
2026-01-26 15:27:34.91	282.50	31.32	-34.7	-35.6	23.3	0.00e+00	0	44	0	2601517056	39	4062
2026-01-26 15:27:36.05	282.89	31.25	-34.8	-35.6	23.2	0.00e+00	0	43	0	2608857088	39	4065
2026-01-26 15:27:36.90	283.18	31.21	-34.6	-35.5	23.4	0.00e+00	0	44	0	2615148544	39	4010
2026-01-26 15:27:38.04	283.57	31.14	-34.7	-35.5	23.3	0.00e+00	0	43	0	2623537152	39	4027
2026-01-26 15:27:38.89	283.86	31.09	-34.7	-35.5	23.2	0.00e+00	0	43	0	2629828608	39	4042
2026-01-26 15:27:40.03	284.25	31.02	-34.7	-35.5	23.3	0.00e+00	0	43	0	2638217216	39	4049
2026-01-26 15:27:40.88	284.53	30.97	-34.9	-35.7	23.2	0.00e+00	0	44	0	2644508672	39	4113
2026-01-26 15:27:42.02	284.91	30.90	-34.8	-35.6	23.2	0.00e+00	0	43	0	2652897280	39	4070
2026-01-26 15:27:42.87	285.20	30.84	-34.8	-35.7	23.1	0.00e+00	0	43	0	2659188736	39	4108
2026-01-26 15:27:44.08	285.60	30.77	-35.0	-35.8	23.0	0.00e+00	0	43	0	2667577344	39	4184
2026-01-26 15:27:44.94	285.89	30.71	-35.1	-35.9	23.0	0.00e+00	0	43	0	2673868800	39	4213
2026-01-26 15:27:46.14	286.28	30.63	-35.0	-35.9	22.9	0.00e+00	0	43	0	2682257408	39	4195
2026-01-26 15:27:46.99	286.56	30.58	-34.7	-35.5	23.3	0.00e+00	0	44	0	2688548864	39	4038
2026-01-26 15:27:48.13	286.94	30.50	-34.6	-35.4	23.4	0.00e+00	0	43	0	2696937472	39	3982
2026-01-26 15:27:48.98	287.21	30.44	-34.5	-35.3	23.4	0.00e+00	0	43	0	2703228928	39	3958
2026-01-26 15:27:50.12	287.58	30.36	-34.6	-35.4	23.4	0.00e+00	0	43	0	2711617536	39	3965
2026-01-26 15:27:50.97	287.86	30.30	-34.5	-35.3	23.5	0.00e+00	0	43	0	2716860416	39	3917
2026-01-26 15:27:52.10	288.22	30.22	-34.4	-35.2	23.6	0.00e+00	0	43	0	2725249024	39	3912
2026-01-26 15:27:53.05	288.53	30.15	-34.6	-35.4	23.4	0.00e+00	0	44	0	2732589056	39	3972
2026-01-26 15:27:54.05	288.85	30.08	-34.7	-35.5	23.3	0.00e+00	0	43	0	2738880512	39	4028
2026-01-26 15:27:55.04	289.16	30.01	-34.7	-35.5	23.3	0.00e+00	0	43	0	2746220544	39	4035
2026-01-26 15:27:56.04	289.48	29.94	-34.8	-35.6	23.2	0.00e+00	0	43	0	2753560576	39	4077
2026-01-26 15:27:57.03	289.79	29.86	-34.7	-35.5	23.2	0.00e+00	0	43	0	2760900608	39	4027
2026-01-26 15:27:58.03	290.10	29.79	-34.8	-35.6	23.2	0.00e+00	0	43	0	2768240640	39	4087
2026-01-26 15:27:59.02	290.41	29.71	-34.7	-35.6	23.3	0.00e+00	0	43	0	2775580672	39	4056
2026-01-26 15:28:00.02	290.72	29.63	-34.8	-35.6	23.2	0.00e+00	0	44	0	2782920704	39	4090
2026-01-26 15:28:01.01	291.03	29.56	-34.8	-35.6	23.2	0.00e+00	0	43	0	2790260736	39	4084
2026-01-26 15:28:02.01	291.34	29.48	-34.9	-35.7	23.1	0.00e+00	0	43	0	2796552192	39	4114
2026-01-26 15:28:03.00	291.64	29.40	-34.7	-35.6	23.3	0.00e+00	0	43	0	2803892224	39	4057
2026-01-26 15:28:04.00	291.94	29.32	-34.8	-35.6	23.2	0.00e+00	0	43	0	2811232256	39	4094
2026-01-26 15:28:04.99	292.24	29.24	-34.7	-35.6	23.2	0.00e+00	0	43	0	2818572288	39	4060
2026-01-26 15:28:05.99	292.55	29.16	-34.7	-35.5	23.3	0.00e+00	0	43	0	2825912320	39	4027
2026-01-26 15:28:06.98	292.84	29.08	-34.7	-35.6	23.2	0.00e+00	0	43	0	2833252352	39	4062
2026-01-26 15:28:07.98	293.14	29.00	-34.6	-35.5	23.3	0.00e+00	0	43	0	2839543808	39	4008
2026-01-26 15:28:08.97	293.44	28.92	-34.8	-35.6	23.2	0.00e+00	0	43	0	2846883840	39	4075
2026-01-26 15:28:09.97	293.73	28.84	-34.9	-35.7	23.1	0.00e+00	0	44	0	2854223872	39	4133
2026-01-26 15:28:10.96	294.02	28.75	-34.9	-35.8	23.0	0.00e+00	0	43	0	2861563904	39	4159
2026-01-26 15:28:11.96	294.32	28.67	-35.0	-35.9	23.0	0.00e+00	0	43	0	2868903936	39	4210
2026-01-26 15:28:12.95	294.60	28.59	-35.0	-35.8	23.0	0.00e+00	0	43	0	2876243968	39	4188
2026-01-26 15:28:13.95	294.89	28.50	-34.9	-35.8	23.1	0.00e+00	0	43	0	2882535424	39	4151
2026-01-26 15:28:14.94	295.18	28.42	-34.9	-35.7	23.1	0.00e+00	0	43	0	2889875456	39	4118
2026-01-26 15:28:15.93	295.46	28.33	-34.7	-35.6	23.2	0.00e+00	0	44	0	2897215488	39	4058
2026-01-26 15:28:16.93	295.75	28.24	-34.7	-35.6	23.3	0.00e+00	0	43	0	2904555520	39	4058
2026-01-26 15:28:17.92	296.03	28.16	-34.7	-35.6	23.1	0.00e+00	0	43	0	2911895552	39	4061
2026-01-26 15:28:18.93	296.31	28.07	-34.9	-35.7	23.1	0.00e+00	0	43	0	2919235584	39	4125
2026-01-26 15:28:19.94	296.60	27.98	-34.9	-35.8	23.1	0.00e+00	0	43	0	2926575616	39	4154
2026-01-26 15:28:20.97	296.88	27.89	-34.9	-35.8	23.0	0.00e+00	0	43	0	2933915648	39	4149
2026-01-26 15:28:22.00	297.17	27.80	-34.9	-35.7	23.1	0.00e+00	0	43	0	2941255680	39	4128
2026-01-26 15:28:22.99	297.44	27.71	-34.8	-35.6	23.2	0.00e+00	0	44	0	2948595712	39	4087
2026-01-26 15:28:23.99	297.72	27.62	-34.8	-35.6	23.2	0.00e+00	0	43	0	2955935744	39	4080
2026-01-26 15:28:24.98	297.99	27.53	-34.8	-35.6	23.2	0.00e+00	0	43	0	2962227200	39	4068
2026-01-26 15:28:25.98	298.26	27.44	-34.8	-35.6	23.2	0.00e+00	0	44	0	2969567232	39	4070
2026-01-26 15:28:26.97	298.53	27.35	-34.7	-35.6	23.2	0.00e+00	0	44	0	2976907264	39	4054
2026-01-26 15:28:27.97	298.80	27.26	-34.8	-35.7	23.1	0.00e+00	0	43	0	2984247296	39	4105
2026-01-26 15:28:28.96	299.06	27.17	-34.9	-35.7	23.0	0.00e+00	0	43	0	2991587328	39	4137
2026-01-26 15:28:29.95	299.32	27.08	-35.0	-35.8	23.0	0.00e+00	0	43	0	2998927360	39	4190
2026-01-26 15:28:30.95	299.59	26.98	-34.9	-35.8	23.1	0.00e+00	0	44	0	3005218816	39	4150
2026-01-26 15:28:31.94	299.85	26.89	-35.0	-35.8	23.0	0.00e+00	0	44	0	3012558848	39	4167
2026-01-26 15:28:32.94	300.11	26.80	-35.0	-35.8	23.0	0.00e+00	0	43	0	3019898880	39	4186
2026-01-26 15:28:33.93	300.36	26.71	-34.9	-35.8	23.1	0.00e+00	0	43	0	3027238912	39	4159
2026-01-26 15:28:34.92	300.62	26.62	-35.1	-35.9	22.9	0.00e+00	0	44	0	3034578944	39	4219
2026-01-26 15:28:36.00	300.90	26.51	-35.0	-35.8	23.0	0.00e+00	0	43	0	3041918976	39	4185
2026-01-26 15:28:36.85	301.11	26.43	-34.9	-35.8	23.1	0.00e+00	0	43	0	3048210432	39	4148
2026-01-26 15:28:37.99	301.40	26.33	-35.1	-35.9	23.0	0.00e+00	0	43	0	3056599040	39	4216
2026-01-26 15:28:38.84	301.62	26.25	-35.0	-35.8	23.0	0.00e+00	0	43	0	3062890496	39	4166
2026-01-26 15:28:39.98	301.90	26.14	-34.9	-35.8	23.0	0.00e+00	0	44	0	3071279104	39	4162
2026-01-26 15:28:40.83	302.11	26.06	-35.1	-35.9	22.9	0.00e+00	0	43	0	3077570560	39	4219
2026-01-26 15:28:41.97	302.40	25.95	-35.2	-36.0	22.8	0.00e+00	0	44	0	3084910592	39	4277
2026-01-26 15:28:42.82	302.61	25.87	-35.2	-36.1	22.7	0.00e+00	0	43	0	3091202048	40	4054
2026-01-26 15:28:43.95	302.88	25.76	-35.3	-36.2	22.6	0.00e+00	0	43	0	3099590656	40	4116
2026-01-26 15:28:44.81	303.09	25.68	-35.3	-36.2	22.6	0.00e+00	0	43	0	3105882112	40	4101
2026-01-26 15:28:45.94	303.37	25.57	-35.1	-36.0	22.8	0.00e+00	0	44	0	3114270720	40	4022
2026-01-26 15:28:46.79	303.57	25.49	-35.0	-35.8	23.0	0.00e+00	0	44	0	3120562176	40	3936
2026-01-26 15:28:48.03	303.87	25.37	-35.0	-35.8	23.0	0.00e+00	0	43	0	3128950784	40	3925
2026-01-26 15:28:48.88	304.07	25.29	-34.9	-35.7	23.0	0.00e+00	0	43	0	3135242240	40	3903
2026-01-26 15:28:50.01	304.33	25.18	-34.9	-35.7	23.0	0.00e+00	0	43	0	3143630848	40	3880
2026-01-26 15:28:50.87	304.54	25.10	-34.9	-35.7	23.1	0.00e+00	0	43	0	3149922304	40	3875
2026-01-26 15:28:52.13	304.83	24.97	-34.9	-35.7	23.1	0.00e+00	0	43	0	3158310912	40	3882
2026-01-26 15:28:52.92	305.01	24.90	-35.0	-35.8	23.0	0.00e+00	0	44	0	3164602368	40	3928
2026-01-26 15:28:54.09	305.28	24.78	-35.0	-35.8	23.0	0.00e+00	0	43	0	3172990976	40	3932
2026-01-26 15:28:54.94	305.48	24.70	-35.0	-35.8	22.8	0.00e+00	0	43	0	3179282432	40	3926
2026-01-26 15:28:56.08	305.74	24.59	-35.1	-35.9	22.9	0.00e+00	0	43	0	3187671040	40	3988
2026-01-26 15:28:57.01	305.95	24.50	-35.1	-36.0	22.8	0.00e+00	0	43	0	3193962496	40	4006
2026-01-26 15:28:58.00	306.17	24.40	-35.2	-36.0	22.8	0.00e+00	0	43	0	3201302528	40	4042
2026-01-26 15:28:59.00	306.39	24.30	-35.3	-36.1	22.7	0.00e+00	0	43	0	3208642560	40	4093
2026-01-26 15:29:00.00	306.62	24.21	-35.4	-36.3	22.5	0.00e+00	0	43	0	3214934016	40	4157
2026-01-26 15:29:00.99	306.83	24.11	-35.4	-36.2	22.6	0.00e+00	0	44	0	3222274048	40	4141
2026-01-26 15:29:01.98	307.05	24.01	-35.3	-36.2	22.6	0.00e+00	0	43	0	3229614080	40	4122
2026-01-26 15:29:02.98	307.27	23.92	-35.3	-36.2	22.6	0.00e+00	0	43	0	3236954112	40	4103
2026-01-26 15:29:03.98	307.49	23.82	-35.3	-36.1	22.6	0.00e+00	0	43	0	3244294144	40	4085
2026-01-26 15:29:04.97	307.70	23.72	-35.3	-36.1	22.7	0.00e+00	0	44	0	3251634176	40	4079
2026-01-26 15:29:05.97	307.91	23.62	-35.3	-36.1	22.7	0.00e+00	0	44	0	3258974208	40	4084
2026-01-26 15:29:06.96	308.12	23.53	-35.2	-36.1	22.7	0.00e+00	0	43	0	3266314240	40	4063
2026-01-26 15:29:07.95	308.33	23.43	-35.2	-36.1	22.7	0.00e+00	0	43	0	3272605696	40	4057
2026-01-26 15:29:08.95	308.54	23.33	-35.3	-36.1	22.7	0.00e+00	0	44	0	3279945728	40	4080
2026-01-26 15:29:09.97	308.76	23.23	-35.2	-36.0	22.7	0.00e+00	0	44	0	3287285760	40	4043
2026-01-26 15:29:11.00	308.97	23.13	-35.1	-35.9	22.8	0.00e+00	0	43	0	3294625792	40	3983
2026-01-26 15:29:11.99	309.18	23.03	-35.2	-36.1	22.7	0.00e+00	0	44	0	3301965824	40	4061
2026-01-26 15:29:12.99	309.38	22.93	-35.4	-36.2	22.6	0.00e+00	0	43	0	3309305856	40	4126
2026-01-26 15:29:13.98	309.58	22.84	-35.5	-36.3	22.4	0.00e+00	0	44	0	3316645888	40	4183
2026-01-26 15:29:14.98	309.79	22.74	-35.6	-36.5	22.3	0.00e+00	0	43	0	3323985920	40	4267
2026-01-26 15:29:15.97	309.98	22.64	-35.6	-36.5	22.3	0.00e+00	0	43	0	3331325952	40	4249
2026-01-26 15:29:16.97	310.19	22.54	-35.6	-36.5	22.3	0.00e+00	0	43	0	3337617408	40	4251
2026-01-26 15:29:17.96	310.38	22.45	-35.7	-36.6	22.2	0.00e+00	0	44	0	3344957440	40	4298
2026-01-26 15:29:18.96	310.58	22.35	-35.7	-36.6	22.2	0.00e+00	0	44	0	3352297472	40	4316
2026-01-26 15:29:19.95	310.77	22.25	-35.8	-36.7	22.1	0.00e+00	0	43	0	3359637504	41	4119
2026-01-26 15:29:20.94	310.97	22.16	-35.9	-36.7	22.0	0.00e+00	0	43	0	3366977536	41	4144
2026-01-26 15:29:21.94	311.16	22.06	-35.7	-36.6	22.2	0.00e+00	0	43	0	3374317568	41	4059
2026-01-26 15:29:22.93	311.35	21.96	-35.6	-36.4	22.3	0.00e+00	0	44	0	3380609024	41	4004
2026-01-26 15:29:23.94	311.55	21.86	-35.5	-36.3	22.4	0.00e+00	0	43	0	3387949056	41	3952
2026-01-26 15:29:24.96	311.74	21.76	-35.5	-36.4	22.3	0.00e+00	0	43	0	3396337664	41	3981
2026-01-26 15:29:25.99	311.94	21.66	-35.6	-36.5	22.3	0.00e+00	0	43	0	3402629120	41	4008
2026-01-26 15:29:26.99	312.12	21.57	-35.5	-36.4	22.3	0.00e+00	0	43	0	3409969152	41	3995
2026-01-26 15:29:27.98	312.31	21.47	-35.6	-36.5	22.3	0.00e+00	0	44	0	3417309184	41	4006
2026-01-26 15:29:28.98	312.50	21.37	-35.8	-36.7	22.1	0.00e+00	0	44	0	3424649216	41	4104
2026-01-26 15:29:29.97	312.68	21.28	-35.8	-36.7	22.1	0.00e+00	0	43	0	3431989248	41	4121
2026-01-26 15:29:30.96	312.86	21.18	-35.9	-36.8	22.0	0.00e+00	0	43	0	3439329280	41	4156
2026-01-26 15:29:31.96	313.04	21.08	-36.0	-36.9	22.0	0.00e+00	0	43	0	3445620736	41	4198
2026-01-26 15:29:32.95	313.22	20.99	-36.1	-36.9	21.9	0.00e+00	0	43	0	3452960768	41	4235
2026-01-26 15:29:33.94	313.40	20.89	-36.1	-37.0	21.8	0.00e+00	0	43	0	3460300800	41	4268
2026-01-26 15:29:34.93	313.58	20.79	-36.2	-37.1	21.8	0.00e+00	0	44	0	3467640832	41	4314
2026-01-26 15:29:35.93	313.76	20.70	-36.2	-37.0	21.8	0.00e+00	0	43	0	3474980864	41	4287
2026-01-26 15:29:36.93	313.93	20.60	-36.1	-37.0	21.8	0.00e+00	0	43	0	3482320896	41	4279
2026-01-26 15:29:37.95	314.11	20.50	-36.0	-36.9	21.9	0.00e+00	0	43	0	3489660928	41	4208
2026-01-26 15:29:38.98	314.29	20.40	-35.9	-36.8	22.0	0.00e+00	0	43	0	3497000960	41	4177
2026-01-26 15:29:40.01	314.47	20.30	-35.9	-36.8	22.0	0.00e+00	0	43	0	3504340992	41	4160
2026-01-26 15:29:41.00	314.64	20.21	-35.9	-36.8	21.9	0.00e+00	0	43	0	3511681024	41	4167
2026-01-26 15:29:42.00	314.81	20.11	-35.9	-36.8	22.0	0.00e+00	0	43	0	3519021056	41	4179
2026-01-26 15:29:42.99	314.98	20.02	-35.7	-36.6	22.2	0.00e+00	0	43	0	3525312512	41	4053
2026-01-26 15:29:43.98	315.15	19.92	-35.5	-36.4	22.4	0.00e+00	0	44	0	3532652544	41	3963
2026-01-26 15:29:44.98	315.32	19.83	-35.6	-36.5	22.2	0.00e+00	0	43	0	3539992576	41	4013
2026-01-26 15:29:45.97	315.49	19.73	-35.7	-36.6	22.2	0.00e+00	0	44	0	3547332608	41	4061
2026-01-26 15:29:46.97	315.65	19.64	-35.7	-36.6	22.1	0.00e+00	0	43	0	3554672640	41	4064
2026-01-26 15:29:47.96	315.82	19.54	-35.8	-36.7	22.1	0.00e+00	0	43	0	3562012672	41	4102
2026-01-26 15:29:48.96	315.98	19.45	-35.8	-36.7	22.0	0.00e+00	0	43	0	3569352704	41	4134
2026-01-26 15:29:49.95	316.14	19.35	-36.0	-36.9	21.9	0.00e+00	0	44	0	3575644160	41	4205
2026-01-26 15:29:50.95	316.31	19.26	-36.2	-37.1	21.7	0.00e+00	0	43	0	3582984192	41	4321
2026-01-26 15:29:51.94	316.47	19.17	-36.4	-37.3	21.5	0.00e+00	0	43	0	3590324224	42	4183
2026-01-26 15:29:52.94	316.63	19.07	-36.4	-37.4	21.5	0.00e+00	0	43	0	3597664256	42	4194
2026-01-26 15:29:53.93	316.78	18.98	-36.4	-37.3	21.5	0.00e+00	0	44	0	3605004288	42	4191
2026-01-26 15:29:54.93	316.94	18.88	-36.6	-37.5	21.3	0.00e+00	0	43	0	3612344320	42	4260
2026-01-26 15:29:55.92	317.10	18.79	-36.6	-37.5	21.4	0.00e+00	0	44	0	3619684352	42	4256
2026-01-26 15:29:56.92	317.26	18.70	-36.6	-37.6	21.3	0.00e+00	0	43	0	3625975808	42	4303
2026-01-26 15:29:57.91	317.41	18.60	-36.8	-37.7	21.1	0.00e+00	0	43	0	3633315840	42	4384
2026-01-26 15:29:58.90	317.56	18.51	-36.6	-37.5	21.3	0.00e+00	0	44	0	3640655872	42	4280
2026-01-26 15:29:59.90	317.72	18.42	-36.5	-37.5	21.4	0.00e+00	0	44	0	3647995904	42	4248
2026-01-26 15:30:00.89	317.87	18.33	-36.6	-37.5	21.3	0.00e+00	0	43	0	3655335936	42	4287
2026-01-26 15:30:01.88	318.02	18.23	-36.5	-37.5	21.3	0.00e+00	0	44	0	3662675968	42	4258
2026-01-26 15:30:02.88	318.17	18.14	-36.3	-37.2	21.6	0.00e+00	0	43	0	3668967424	42	4125
2026-01-26 15:30:03.87	318.32	18.05	-36.4	-37.3	21.5	0.00e+00	0	43	0	3676307456	42	4181
2026-01-26 15:30:04.88	318.47	17.95	-36.3	-37.2	21.6	0.00e+00	0	43	0	3683647488	42	4131
2026-01-26 15:30:05.89	318.62	17.86	-36.3	-37.2	21.6	0.00e+00	0	44	0	3690987520	42	4127
2026-01-26 15:30:07.00	318.79	17.76	-36.5	-37.4	21.4	0.00e+00	0	43	0	3699376128	42	4228
2026-01-26 15:30:07.86	318.91	17.68	-36.4	-37.3	21.5	0.00e+00	0	43	0	3704619008	42	4191
2026-01-26 15:30:08.99	319.08	17.58	-36.4	-37.4	21.5	0.00e+00	0	44	0	3713007616	42	4200
2026-01-26 15:30:09.85	319.20	17.50	-36.6	-37.5	21.3	0.00e+00	0	43	0	3719299072	42	4285
2026-01-26 15:30:10.99	319.37	17.39	-36.6	-37.6	21.3	0.00e+00	0	43	0	3727687680	42	4304
2026-01-26 15:30:11.84	319.49	17.31	-36.7	-37.6	21.2	0.00e+00	0	43	0	3733979136	42	4335
2026-01-26 15:30:12.97	319.65	17.21	-36.7	-37.6	21.2	0.00e+00	0	43	0	3742367744	42	4336
2026-01-26 15:30:13.83	319.77	17.13	-36.7	-37.7	21.1	0.00e+00	0	43	0	3748659200	42	4357
2026-01-26 15:30:14.96	319.93	17.03	-36.7	-37.7	21.1	0.00e+00	0	43	0	3757047808	42	4353
2026-01-26 15:30:15.81	320.05	16.95	-36.8	-37.7	21.1	0.00e+00	0	44	0	3763339264	43	4136
2026-01-26 15:30:16.95	320.21	16.85	-36.8	-37.8	21.0	0.00e+00	0	44	0	3770679296	43	4165
2026-01-26 15:30:17.81	320.33	16.77	-36.8	-37.8	21.1	0.00e+00	0	43	0	3776970752	43	4158
2026-01-26 15:30:18.94	320.48	16.67	-37.0	-38.0	20.9	0.00e+00	0	43	0	3785359360	43	4243
2026-01-26 15:30:19.79	320.60	16.59	-37.1	-38.1	20.8	0.00e+00	0	43	0	3791650816	43	4314
2026-01-26 15:30:21.01	320.77	16.48	-37.1	-38.1	20.8	0.00e+00	0	43	0	3800039424	43	4306
2026-01-26 15:30:21.86	320.88	16.41	-37.1	-38.0	20.8	0.00e+00	0	43	0	3806330880	43	4290
2026-01-26 15:30:23.08	321.04	16.30	-37.1	-38.1	20.7	0.00e+00	0	43	0	3814719488	43	4325
2026-01-26 15:30:23.93	321.16	16.22	-37.2	-38.1	20.7	0.00e+00	0	43	0	3821010944	43	4340
2026-01-26 15:30:25.07	321.31	16.12	-37.1	-38.0	20.8	0.00e+00	0	44	0	3829399552	43	4286
2026-01-26 15:30:25.92	321.42	16.05	-37.0	-38.0	20.8	0.00e+00	0	43	0	3835691008	43	4253
2026-01-26 15:30:27.06	321.57	15.94	-36.9	-37.9	20.9	0.00e+00	0	43	0	3844079616	43	4216
2026-01-26 15:30:27.91	321.68	15.87	-37.0	-37.9	20.9	0.00e+00	0	43	0	3850371072	43	4240
2026-01-26 15:30:29.05	321.83	15.77	-36.9	-37.8	21.0	0.00e+00	0	44	0	3857711104	43	4178
2026-01-26 15:30:29.90	321.94	15.69	-36.9	-37.8	21.0	0.00e+00	0	44	0	3864002560	43	4177
2026-01-26 15:30:31.04	322.09	15.59	-36.8	-37.8	21.0	0.00e+00	0	44	0	3872391168	43	4160
2026-01-26 15:30:31.89	322.20	15.52	-36.8	-37.8	21.1	0.00e+00	0	43	0	3878682624	43	4157
2026-01-26 15:30:33.02	322.34	15.42	-36.9	-37.8	20.9	0.00e+00	0	43	0	3887071232	43	4175
2026-01-26 15:30:33.88	322.45	15.35	-36.9	-37.9	20.9	0.00e+00	0	43	0	3893362688	43	4202
2026-01-26 15:30:35.02	322.59	15.25	-36.8	-37.7	21.1	0.00e+00	0	43	0	3901751296	43	4141
2026-01-26 15:30:35.87	322.70	15.17	-36.8	-37.7	21.0	0.00e+00	0	43	0	3908042752	43	4139
2026-01-26 15:30:37.01	322.84	15.07	-36.7	-37.6	21.2	0.00e+00	0	43	0	3915382784	43	4082
2026-01-26 15:30:37.86	322.94	15.00	-36.9	-37.8	21.0	0.00e+00	0	43	0	3921674240	43	4159
2026-01-26 15:30:39.00	323.08	14.90	-37.0	-37.9	20.9	0.00e+00	0	43	0	3930062848	43	4219
2026-01-26 15:30:39.85	323.19	14.83	-37.0	-38.0	20.8	0.00e+00	0	44	0	3936354304	43	4245
2026-01-26 15:30:41.08	323.34	14.72	-37.1	-38.0	20.8	0.00e+00	0	43	0	3944742912	43	4283
2026-01-26 15:30:41.94	323.44	14.65	-37.1	-38.0	20.7	0.00e+00	0	44	0	3951034368	43	4279
2026-01-26 15:30:43.11	323.58	14.55	-37.2	-38.1	20.6	0.00e+00	0	44	0	3959422976	43	4335
2026-01-26 15:30:43.96	323.68	14.47	-37.3	-38.2	20.5	0.00e+00	0	44	0	3965714432	43	4387
2026-01-26 15:30:45.10	323.82	14.38	-37.6	-38.6	20.4	0.00e+00	0	44	0	3974103040	44	4297
2026-01-26 15:30:45.95	323.92	14.31	-37.5	-38.5	20.4	0.00e+00	0	43	0	3980394496	44	4254
2026-01-26 15:30:47.09	324.05	14.21	-37.6	-38.6	20.4	0.00e+00	0	44	0	3988783104	44	4317
2026-01-26 15:30:48.04	324.16	14.13	-37.5	-38.5	20.5	0.00e+00	0	43	0	3995074560	44	4267
2026-01-26 15:30:49.03	324.28	14.04	-37.5	-38.5	20.4	0.00e+00	0	44	0	4002414592	44	4283
2026-01-26 15:30:50.03	324.39	13.96	-37.6	-38.7	20.3	0.00e+00	0	44	0	4009754624	44	4347
2026-01-26 15:30:51.02	324.51	13.88	-37.6	-38.7	20.3	0.00e+00	0	43	0	4017094656	44	4359
2026-01-26 15:30:52.02	324.62	13.79	-37.4	-38.5	20.4	0.00e+00	0	43	0	4024434688	44	4267
2026-01-26 15:30:53.01	324.74	13.71	-37.4	-38.5	20.4	0.00e+00	0	43	0	4031774720	44	4259
2026-01-26 15:30:54.01	324.85	13.63	-37.4	-38.5	20.5	0.00e+00	0	44	0	4039114752	44	4243
2026-01-26 15:30:55.01	324.96	13.54	-37.3	-38.4	20.5	0.00e+00	0	44	0	4045406208	44	4214
2026-01-26 15:30:56.00	325.07	13.46	-37.4	-38.4	20.5	0.00e+00	0	44	0	4052746240	44	4228
2026-01-26 15:30:56.99	325.18	13.38	-37.3	-38.4	20.5	0.00e+00	0	44	0	4060086272	44	4209
2026-01-26 15:30:57.99	325.29	13.30	-37.6	-38.7	20.3	0.00e+00	0	43	0	4067426304	44	4344
2026-01-26 15:30:58.99	325.40	13.21	-37.5	-38.6	20.3	0.00e+00	0	43	0	4074766336	44	4321
2026-01-26 15:30:59.98	325.51	13.13	-37.8	-38.9	20.1	0.00e+00	0	44	0	4082106368	44	4445
2026-01-26 15:31:00.98	325.62	13.05	-37.7	-38.8	20.1	0.00e+00	0	43	0	4088397824	44	4424
2026-01-26 15:31:01.97	325.73	12.97	-37.7	-38.8	20.2	0.00e+00	0	44	0	4095737856	44	4414
2026-01-26 15:31:02.96	325.83	12.89	-37.9	-39.0	19.9	0.00e+00	0	44	0	4103077888	45	4272
2026-01-26 15:31:03.96	325.94	12.80	-37.8	-38.9	20.0	0.00e+00	0	44	0	4110417920	45	4226
2026-01-26 15:31:04.95	326.05	12.72	-37.9	-38.9	20.0	0.00e+00	0	43	0	4117757952	45	4238
2026-01-26 15:31:05.94	326.15	12.64	-37.9	-38.9	20.0	0.00e+00	0	43	0	4124049408	45	4228
2026-01-26 15:31:06.94	326.26	12.56	-38.0	-39.1	19.8	0.00e+00	0	43	0	4131389440	45	4311
2026-01-26 15:31:07.93	326.36	12.48	-37.9	-38.9	19.9	0.00e+00	0	43	0	4138729472	45	4233
2026-01-26 15:31:08.93	326.47	12.40	-37.9	-39.0	19.9	0.00e+00	0	44	0	4146069504	45	4275
2026-01-26 15:31:09.93	326.57	12.32	-37.9	-39.0	19.9	0.00e+00	0	44	0	4153409536	45	4256
2026-01-26 15:31:10.95	326.67	12.24	-37.9	-39.0	19.9	0.00e+00	0	44	0	4160749568	45	4253
2026-01-26 15:31:11.96	326.78	12.16	-37.9	-38.9	19.9	0.00e+00	0	43	0	4168089600	45	4236
2026-01-26 15:31:12.96	326.88	12.08	-37.9	-39.0	19.9	0.00e+00	0	44	0	4175429632	45	4258
2026-01-26 15:31:13.95	326.98	12.00	-38.1	-39.2	19.7	0.00e+00	0	44	0	4182769664	45	4351
2026-01-26 15:31:14.95	327.08	11.92	-38.1	-39.1	19.8	0.00e+00	0	43	0	4189061120	45	4328
2026-01-26 15:31:15.94	327.18	11.84	-38.1	-39.2	19.7	0.00e+00	0	43	0	4196401152	45	4363
2026-01-26 15:31:16.94	327.28	11.76	-38.1	-39.1	19.8	0.00e+00	0	44	0	4203741184	46	4075
2026-01-26 15:31:17.93	327.38	11.68	-38.0	-39.0	19.9	0.00e+00	0	43	0	4211081216	46	4016
2026-01-26 15:31:18.93	327.48	11.60	-37.8	-38.8	20.1	0.00e+00	0	44	0	4218421248	46	3924
2026-01-26 15:31:19.92	327.58	11.53	-37.9	-38.9	20.0	0.00e+00	0	44	0	4225761280	46	3989
2026-01-26 15:31:20.92	327.68	11.45	-37.8	-38.8	20.0	0.00e+00	0	44	0	4233101312	46	3944
2026-01-26 15:31:21.91	327.77	11.37	-37.9	-38.9	20.0	0.00e+00	0	43	0	4240441344	46	3977
2026-01-26 15:31:22.94	327.87	11.29	-37.9	-38.9	20.0	0.00e+00	0	44	0	4246732800	46	3973
2026-01-26 15:31:23.97	327.97	11.21	-37.9	-38.9	20.0	0.00e+00	0	44	0	4255121408	46	3974
2026-01-26 15:31:24.96	328.07	11.13	-38.0	-39.0	19.8	0.00e+00	0	43	0	4262461440	46	4041
2026-01-26 15:31:25.96	328.16	11.05	-38.0	-39.0	19.8	0.00e+00	0	43	0	4268752896	46	4047
2026-01-26 15:31:26.96	328.26	10.98	-38.0	-39.1	19.8	0.00e+00	0	44	0	4276092928	46	4053
2026-01-26 15:31:27.95	328.35	10.90	-38.0	-39.1	19.7	0.00e+00	0	43	0	4283432960	46	4060
2026-01-26 15:31:28.95	328.45	10.82	-38.0	-39.1	19.7	0.00e+00	0	44	0	4290772992	46	4073
2026-01-26 15:31:29.94	328.54	10.75	-38.2	-39.2	19.6	0.00e+00	0	43	0	4298113024	46	4138
2026-01-26 15:31:30.94	328.63	10.67	-38.2	-39.3	19.6	0.00e+00	0	43	0	4305453056	46	4146
2026-01-26 15:31:31.93	328.72	10.59	-38.4	-39.5	19.3	0.00e+00	0	44	0	4311744512	46	4261
2026-01-26 15:31:32.93	328.82	10.52	-38.2	-39.3	19.6	0.00e+00	0	43	0	4319084544	46	4149
2026-01-26 15:31:33.92	328.91	10.44	-38.6	-39.6	19.2	0.00e+00	0	44	0	4326424576	46	4340
2026-01-26 15:31:34.91	329.00	10.37	-38.4	-39.5	19.3	0.00e+00	0	43	0	4333764608	46	4264
2026-01-26 15:31:35.91	329.09	10.29	-38.4	-39.5	19.3	0.00e+00	0	43	0	4341104640	46	4274
2026-01-26 15:31:36.90	329.18	10.22	-38.5	-39.6	19.2	0.00e+00	0	44	0	4348444672	46	4323
2026-01-26 15:31:37.90	329.27	10.14	-38.7	-39.8	19.0	0.00e+00	0	44	0	4354736128	46	4429
2026-01-26 15:31:38.89	329.36	10.07	-38.5	-39.6	19.2	0.00e+00	0	43	0	4362076160	46	4328
2026-01-26 15:31:39.89	329.45	9.99	-38.6	-39.7	19.1	0.00e+00	0	44	0	4369416192	46	4384
2026-01-26 15:31:40.95	329.54	9.91	-38.5	-39.6	19.2	0.00e+00	0	43	0	4376756224	47	4065
2026-01-26 15:31:41.83	329.62	9.85	-38.6	-39.7	19.1	0.00e+00	0	44	0	4384096256	47	4138
2026-01-26 15:31:42.97	329.72	9.76	-38.5	-39.7	19.1	0.00e+00	0	43	0	4392484864	47	4102
2026-01-26 15:31:43.82	329.79	9.70	-38.8	-39.9	18.9	0.00e+00	0	43	0	4397727744	47	4218
2026-01-26 15:31:44.96	329.89	9.61	-38.5	-39.6	19.1	0.00e+00	0	44	0	4406116352	47	4087
2026-01-26 15:31:45.81	329.97	9.55	-38.9	-40.0	18.8	0.00e+00	0	43	0	4412407808	47	4272
2026-01-26 15:31:46.95	330.07	9.47	-38.8	-39.9	18.9	0.00e+00	0	43	0	4420796416	47	4222
2026-01-26 15:31:47.80	330.14	9.40	-38.6	-39.7	19.0	0.00e+00	0	44	0	4427087872	47	4144
2026-01-26 15:31:48.94	330.24	9.32	-39.0	-40.1	18.7	0.00e+00	0	44	0	4434427904	47	4320
2026-01-26 15:31:49.79	330.31	9.26	-38.7	-39.9	18.9	0.00e+00	0	43	0	4440719360	47	4197
2026-01-26 15:31:50.93	330.40	9.17	-39.0	-40.1	18.6	0.00e+00	0	43	0	4449107968	47	4323
2026-01-26 15:31:51.78	330.48	9.11	-38.9	-40.0	18.7	0.00e+00	0	44	0	4455399424	47	4274
2026-01-26 15:31:52.94	330.57	9.03	-38.7	-39.8	18.9	0.00e+00	0	44	0	4463788032	47	4157
2026-01-26 15:31:53.79	330.64	8.96	-45.0	-46.9	12.6	0.00e+00	0	43	0	4470079488	58	5013
2026-01-26 15:31:54.93	330.74	8.88	-49.5	-60.3	3.8	8.46e-01	0	44	104	4471128064	68	13253
2026-01-26 15:31:55.78	330.81	8.82	-48.8	-60.4	3.8	8.46e-01	0	44	104	4471128064	67	14107
2026-01-26 15:31:56.91	330.90	8.74	-49.7	-60.8	3.8	8.47e-01	0	43	104	4471128064	69	13167
2026-01-26 15:31:57.76	330.97	8.68	-49.5	-60.8	3.8	8.47e-01	0	44	104	4471128064	69	13158
2026-01-26 15:31:58.90	331.06	8.59	-49.1	-61.0	3.8	8.47e-01	0	44	104	4471128064	68	14217
2026-01-26 15:31:59.75	331.13	8.53	-49.5	-61.0	3.8	8.47e-01	0	44	104	4471128064	69	13465
2026-01-26 15:32:00.89	331.23	8.45	-49.0	-61.0	3.8	8.46e-01	0	44	104	4471128064	68	14266
2026-01-26 15:32:01.74	331.29	8.39	-50.1	-61.0	3.8	8.46e-01	0	44	104	4471128064	69	13534
2026-01-26 15:32:02.88	331.39	8.31	-50.2	-61.1	3.8	8.46e-01	0	44	104	4471128064	69	13572
2026-01-26 15:32:03.73	331.45	8.25	-49.8	-61.0	3.8	8.48e-01	0	44	104	4471128064	69	13561
2026-01-26 15:32:04.86	331.54	8.17	-50.1	-61.1	3.8	8.46e-01	0	44	104	4471128064	69	13615
2026-01-26 15:32:05.71	331.61	8.11	-50.2	-61.1	3.8	8.46e-01	0	44	104	4471128064	70	12824
2026-01-26 15:32:06.85	331.70	8.03	-50.1	-61.1	3.8	8.47e-01	0	44	104	4471128064	70	12915
2026-01-26 15:32:07.70	331.77	7.97	-50.3	-61.1	3.8	8.46e-01	0	44	104	4471128064	70	12872
2026-01-26 15:32:08.84	331.85	7.89	-50.3	-61.1	3.8	8.46e-01	0	44	104	4471128064	70	12860
2026-01-26 15:32:09.69	331.92	7.83	-50.4	-61.0	3.8	8.47e-01	0	44	104	4471128064	70	12758
2026-01-26 15:32:10.82	332.01	7.75	-50.4	-61.0	3.8	8.46e-01	0	43	104	4471128064	70	12809
2026-01-26 15:32:11.67	332.07	7.69	-50.2	-61.0	3.8	8.46e-01	0	44	104	4471128064	70	12726
2026-01-26 15:32:12.81	332.16	7.61	-50.2	-61.0	3.8	8.47e-01	0	44	104	4471128064	70	12756
2026-01-26 15:32:13.66	332.23	7.55	-50.1	-61.0	3.8	8.46e-01	0	44	104	4471128064	70	12670
