passes_logs/2026/01/26/T1/T1__20260126_080209_NOAA_20_JPSS-1_rec.log

#Pass ID: 20260126_080209_NOAA 20 (JPSS-1)
#Satellite: NOAA 20 (JPSS-1)
#Configuration: NOAA 20
#almurnet v.1.7.20251203
#Start time: 2026-01-26 08:02:09

#Version: 2.0.20230620
#Station: T1
#Location: 37.570604 lon 55.790049 lat
#TLE: 1 43013U 17073A   26025.83228772  .00000162  00000+0  97663-4 0  9996
#TLE: 2 43013  98.7646 326.6579 0001036  23.5840 336.5383 14.19540376424273

#Time	Az	El	Level	Level2	SNR	BER	BlckErr	Temp	State	Recorded	gain1	gain2
2026-01-26 08:02:09.55	99.72	4.98	-48.1	-63.5	3.8	1.49e+00	0	39	0	0	68	20408
2026-01-26 08:02:10.53	99.63	5.04	-48.1	-63.4	3.8	1.49e+00	0	40	104	0	68	20184
2026-01-26 08:02:11.53	99.53	5.09	-48.1	-63.4	3.8	1.49e+00	0	40	104	0	68	20144
2026-01-26 08:02:12.52	99.44	5.15	-48.1	-63.4	3.8	1.49e+00	0	40	104	0	68	20153
2026-01-26 08:02:13.51	99.35	5.21	-48.1	-63.4	3.8	1.49e+00	0	40	104	0	68	20169
2026-01-26 08:02:14.51	99.25	5.26	-48.1	-63.4	3.8	1.49e+00	0	40	104	0	68	20174
2026-01-26 08:02:15.50	99.16	5.32	-48.1	-63.4	3.8	1.49e+00	0	40	104	0	68	20138
2026-01-26 08:02:16.49	99.06	5.37	-48.1	-63.4	3.8	1.49e+00	0	40	104	0	68	20184
2026-01-26 08:02:17.49	98.97	5.43	-48.1	-63.4	3.8	1.49e+00	0	40	104	0	68	20191
2026-01-26 08:02:18.48	98.87	5.49	-48.1	-63.4	3.8	1.49e+00	0	40	104	0	68	20195
2026-01-26 08:02:19.47	98.77	5.54	-48.1	-63.4	3.8	1.49e+00	0	40	104	0	68	20236
2026-01-26 08:02:20.47	98.68	5.60	-48.1	-63.4	3.8	1.49e+00	0	40	104	0	68	20226
2026-01-26 08:02:21.46	98.58	5.66	-48.1	-63.4	3.8	1.49e+00	0	40	104	0	68	20191
2026-01-26 08:02:22.45	98.48	5.71	-48.1	-63.4	3.8	1.49e+00	0	40	104	0	68	20231
2026-01-26 08:02:23.45	98.39	5.77	-48.1	-63.4	3.8	1.49e+00	0	40	104	0	68	20231
2026-01-26 08:02:24.44	98.29	5.83	-48.1	-63.4	3.8	1.49e+00	0	40	104	0	68	20127
2026-01-26 08:02:25.43	98.19	5.89	-48.1	-63.4	3.8	1.49e+00	0	41	104	0	68	20256
2026-01-26 08:02:26.42	98.09	5.94	-48.1	-63.4	3.8	1.49e+00	0	40	104	0	68	20188
2026-01-26 08:02:27.42	97.99	6.00	-48.1	-63.4	3.8	1.49e+00	0	41	104	0	68	20179
2026-01-26 08:02:28.41	97.89	6.06	-48.1	-63.4	3.8	1.49e+00	0	40	104	0	68	20238
2026-01-26 08:02:29.40	97.79	6.11	-48.1	-63.5	3.8	1.49e+00	0	41	104	0	68	20354
2026-01-26 08:02:30.40	97.69	6.17	-48.1	-63.4	3.8	1.49e+00	0	41	104	0	68	20239
2026-01-26 08:02:31.39	97.59	6.23	-48.1	-63.4	3.8	1.49e+00	0	41	104	0	68	20229
2026-01-26 08:02:32.38	97.49	6.28	-48.1	-63.4	3.8	1.49e+00	0	41	104	0	68	20164
2026-01-26 08:02:33.38	97.39	6.34	-48.1	-63.4	3.8	1.49e+00	0	41	104	0	68	20094
2026-01-26 08:02:34.37	97.29	6.40	-48.1	-63.4	3.8	1.49e+00	0	41	104	0	68	20142
2026-01-26 08:02:35.36	97.19	6.46	-48.1	-63.3	3.8	1.49e+00	0	41	104	0	68	20044
2026-01-26 08:02:36.36	97.08	6.51	-48.1	-63.3	3.8	1.49e+00	0	41	104	0	68	20003
2026-01-26 08:02:37.35	96.98	6.57	-48.1	-63.3	3.8	1.49e+00	0	41	104	0	68	19874
2026-01-26 08:02:38.34	96.88	6.63	-48.1	-63.3	3.8	1.49e+00	0	41	104	0	68	19923
2026-01-26 08:02:39.33	96.77	6.69	-48.1	-63.3	3.8	1.49e+00	0	41	104	0	68	19889
2026-01-26 08:02:40.33	96.67	6.74	-48.1	-63.3	3.8	1.49e+00	0	41	104	0	68	19998
2026-01-26 08:02:41.32	96.56	6.80	-48.1	-63.3	3.8	1.49e+00	0	41	104	0	68	20038
2026-01-26 08:02:42.31	96.46	6.86	-48.1	-63.4	3.8	1.49e+00	0	41	104	0	68	20083
2026-01-26 08:02:43.31	96.35	6.92	-48.1	-63.3	3.8	1.49e+00	0	41	104	0	68	20039
2026-01-26 08:02:44.30	96.25	6.97	-48.1	-63.4	3.8	1.49e+00	0	41	104	0	68	20111
2026-01-26 08:02:45.29	96.14	7.03	-48.1	-63.3	3.8	1.49e+00	0	41	104	0	68	19953
2026-01-26 08:02:46.29	96.03	7.09	-48.1	-63.3	3.8	1.49e+00	0	41	104	0	68	19936
2026-01-26 08:02:47.28	95.93	7.15	-48.1	-63.2	3.8	1.49e+00	0	41	104	0	68	19717
2026-01-26 08:02:48.27	95.82	7.21	-48.0	-63.1	3.8	1.49e+00	0	41	104	0	68	19540
2026-01-26 08:02:49.27	95.71	7.26	-48.0	-63.0	3.8	1.49e+00	0	41	104	0	68	19226
2026-01-26 08:02:50.26	95.60	7.32	-48.0	-62.8	3.8	1.49e+00	0	41	104	0	68	18877
2026-01-26 08:02:51.25	95.49	7.38	-48.0	-62.8	3.8	1.49e+00	0	41	104	0	68	18735
2026-01-26 08:02:52.25	95.38	7.44	-48.0	-62.7	3.8	1.49e+00	0	41	104	0	68	18712
2026-01-26 08:02:53.24	95.27	7.50	-48.0	-62.9	3.8	1.49e+00	0	41	104	0	68	18982
2026-01-26 08:02:54.23	95.16	7.55	-48.1	-63.0	3.8	1.49e+00	0	41	104	0	68	19314
2026-01-26 08:02:55.23	95.05	7.61	-48.1	-63.2	3.8	1.49e+00	0	41	104	0	68	19624
2026-01-26 08:02:56.22	94.94	7.67	-48.1	-63.2	3.8	1.49e+00	0	41	104	0	68	19742
2026-01-26 08:02:57.21	94.83	7.73	-48.0	-63.3	3.8	1.49e+00	0	41	104	0	68	19892
2026-01-26 08:02:58.21	94.72	7.79	-48.0	-63.2	3.8	1.49e+00	0	41	104	0	68	19813
2026-01-26 08:02:59.20	94.60	7.84	-48.1	-63.1	3.8	1.49e+00	0	41	104	0	68	19414
2026-01-26 08:03:00.19	94.49	7.90	-48.0	-62.8	3.8	1.49e+00	0	41	104	0	68	18935
2026-01-26 08:03:01.18	94.38	7.96	-48.0	-62.6	3.8	1.49e+00	0	41	104	0	68	18449
2026-01-26 08:03:02.18	94.26	8.02	-48.0	-62.6	3.8	1.49e+00	0	41	104	0	68	18412
2026-01-26 08:03:03.17	94.15	8.08	-48.0	-62.9	3.8	1.49e+00	0	42	104	0	68	18981
2026-01-26 08:03:04.16	94.03	8.14	-48.1	-63.2	3.8	1.49e+00	0	41	104	0	68	19800
2026-01-26 08:03:05.16	93.92	8.19	-48.0	-62.6	3.8	1.49e+00	0	42	104	0	68	18372
2026-01-26 08:03:06.15	93.80	8.25	-47.7	-59.6	4.2	1.49e+00	0	42	0	0	67	13880
2026-01-26 08:03:07.14	93.69	8.31	-47.3	-56.4	5.8	8.44e-01	0	42	0	1048576	66	10126
2026-01-26 08:03:08.14	93.57	8.37	-46.6	-53.3	8.6	6.97e-02	0	42	0	3145728	65	7523
2026-01-26 08:03:09.13	93.45	8.43	-45.9	-51.2	10.8	7.46e-03	0	42	0	5242880	63	6638
2026-01-26 08:03:10.12	93.33	8.49	-45.1	-49.5	12.7	4.07e-04	0	42	0	6291456	62	5748
2026-01-26 08:03:11.12	93.21	8.54	-44.5	-48.5	13.7	3.12e-05	0	42	0	8388608	61	5422
2026-01-26 08:03:12.11	93.10	8.60	-44.3	-48.0	14.2	2.20e-06	0	42	0	10485760	60	5450
2026-01-26 08:03:13.10	92.98	8.66	-44.2	-47.9	14.3	7.00e-07	0	42	0	12582912	60	5378
2026-01-26 08:03:14.10	92.86	8.72	-44.3	-48.1	14.2	1.50e-06	0	42	0	13631488	60	5467
2026-01-26 08:03:15.09	92.74	8.78	-44.6	-48.6	13.6	0.00e+00	0	42	0	15728640	60	5792
2026-01-26 08:03:16.08	92.62	8.84	-45.2	-49.7	12.4	5.95e-05	0	42	0	17825792	61	6238
2026-01-26 08:03:17.08	92.49	8.90	-46.0	-51.6	10.6	1.08e-03	0	42	0	19922944	62	7291
2026-01-26 08:03:18.07	92.37	8.95	-46.7	-53.8	8.1	1.61e-02	0	42	0	22020096	64	8457
2026-01-26 08:03:19.06	92.25	9.01	-47.3	-56.9	5.5	3.30e-01	0	42	0	23068672	65	11291
2026-01-26 08:03:20.06	92.13	9.07	-45.2	-49.5	12.7	2.86e-03	0	41	0	25165824	62	5779
2026-01-26 08:03:21.05	92.00	9.13	-45.7	-50.7	11.5	2.53e-04	0	42	0	27262976	62	6607
2026-01-26 08:03:22.05	91.88	9.19	-47.9	-62.4	3.8	2.42e-01	0	42	104	28311552	66	20212
2026-01-26 08:03:23.04	91.75	9.25	-45.5	-50.2	12.0	1.99e-02	0	42	0	28311552	62	6271
2026-01-26 08:03:24.04	91.63	9.31	-47.4	-57.5	5.1	4.47e-02	0	42	0	30408704	65	12206
2026-01-26 08:03:25.03	91.50	9.37	-45.1	-49.2	13.1	3.72e-02	0	42	0	32505856	62	5583
2026-01-26 08:03:26.03	91.38	9.42	-45.1	-49.4	12.9	6.33e-05	0	42	0	33554432	62	5676
2026-01-26 08:03:27.02	91.25	9.48	-45.0	-49.2	13.1	2.44e-05	0	42	0	35651584	61	5878
2026-01-26 08:03:28.01	91.13	9.54	-45.2	-49.4	12.8	3.66e-05	0	42	0	37748736	61	6055
2026-01-26 08:03:29.01	91.00	9.60	-44.9	-48.9	13.3	2.51e-05	0	42	0	39845888	61	5686
2026-01-26 08:03:30.00	90.87	9.66	-44.8	-48.7	13.6	7.60e-06	0	42	0	41943040	61	5561
2026-01-26 08:03:30.99	90.74	9.72	-44.7	-48.5	13.8	9.90e-06	0	42	0	42991616	61	5440
2026-01-26 08:03:31.99	90.61	9.78	-44.4	-48.0	14.3	2.20e-06	0	42	0	45088768	60	5463
2026-01-26 08:03:32.98	90.48	9.84	-44.2	-47.7	14.6	0.00e+00	0	42	0	47185920	60	5263
2026-01-26 08:03:33.98	90.35	9.89	-44.2	-47.9	14.5	0.00e+00	0	42	0	49283072	60	5349
2026-01-26 08:03:34.97	90.22	9.95	-44.2	-47.9	14.5	0.00e+00	0	42	0	50331648	60	5357
2026-01-26 08:03:35.97	90.09	10.01	-44.2	-47.8	14.6	7.00e-07	0	42	0	52428800	60	5317
2026-01-26 08:03:36.96	89.96	10.07	-44.0	-47.6	14.8	7.00e-07	0	42	0	54525952	60	5162
2026-01-26 08:03:37.96	89.83	10.13	-43.9	-47.3	15.0	7.00e-07	0	42	0	56623104	59	5329
2026-01-26 08:03:38.95	89.69	10.19	-43.7	-47.0	15.4	0.00e+00	0	42	0	58720256	59	5124
2026-01-26 08:03:39.94	89.56	10.25	-43.6	-46.9	15.4	0.00e+00	0	42	0	59768832	59	5068
2026-01-26 08:03:40.94	89.43	10.31	-43.6	-46.8	15.5	0.00e+00	0	42	0	61865984	59	5023
2026-01-26 08:03:41.94	89.29	10.36	-43.5	-46.7	15.6	0.00e+00	0	42	0	63963136	59	4958
2026-01-26 08:03:42.93	89.16	10.42	-43.5	-46.8	15.6	0.00e+00	0	42	0	66060288	59	4998
2026-01-26 08:03:43.93	89.02	10.48	-43.5	-46.7	15.7	0.00e+00	0	42	0	67108864	59	4957
2026-01-26 08:03:44.92	88.88	10.54	-43.4	-46.6	15.8	0.00e+00	0	42	0	69206016	58	5178
2026-01-26 08:03:45.92	88.75	10.60	-43.3	-46.3	16.1	0.00e+00	0	42	0	71303168	58	5013
2026-01-26 08:03:46.91	88.61	10.66	-43.4	-46.4	16.0	0.00e+00	0	42	0	73400320	58	5083
2026-01-26 08:03:47.91	88.47	10.72	-43.4	-46.5	15.8	0.00e+00	0	42	0	75497472	58	5141
2026-01-26 08:03:48.90	88.33	10.77	-43.4	-46.6	15.8	0.00e+00	0	42	0	76546048	58	5162
2026-01-26 08:03:49.90	88.19	10.83	-43.4	-46.6	15.8	0.00e+00	0	42	0	78643200	58	5167
2026-01-26 08:03:50.89	88.05	10.89	-43.5	-46.6	15.8	0.00e+00	0	42	0	80740352	58	5203
2026-01-26 08:03:51.88	87.92	10.95	-43.4	-46.5	15.8	0.00e+00	0	42	0	82837504	58	5150
2026-01-26 08:03:52.88	87.77	11.01	-43.3	-46.3	16.1	0.00e+00	0	42	0	83886080	58	5027
2026-01-26 08:03:53.87	87.63	11.07	-43.3	-46.4	16.0	0.00e+00	0	42	0	85983232	58	5071
2026-01-26 08:03:54.87	87.49	11.13	-43.4	-46.6	15.8	0.00e+00	0	42	0	88080384	58	5176
2026-01-26 08:03:55.86	87.35	11.18	-43.4	-46.6	15.8	0.00e+00	0	42	0	90177536	58	5211
2026-01-26 08:03:56.86	87.20	11.24	-43.5	-46.7	15.8	0.00e+00	0	42	0	92274688	58	5236
2026-01-26 08:03:57.85	87.06	11.30	-43.5	-46.7	15.7	0.00e+00	0	42	0	93323264	58	5223
2026-01-26 08:03:58.85	86.92	11.36	-43.4	-46.6	15.8	0.00e+00	0	42	0	95420416	58	5207
2026-01-26 08:03:59.84	86.77	11.42	-43.5	-46.7	15.6	0.00e+00	0	42	0	97517568	58	5259
2026-01-26 08:04:00.83	86.63	11.48	-43.5	-46.7	15.7	0.00e+00	0	42	0	99614720	58	5236
2026-01-26 08:04:01.83	86.48	11.53	-43.5	-46.7	15.6	0.00e+00	0	42	0	100663296	58	5272
2026-01-26 08:04:02.82	86.34	11.59	-43.4	-46.6	15.8	0.00e+00	0	42	0	102760448	58	5179
2026-01-26 08:04:03.82	86.19	11.65	-43.3	-46.4	16.0	0.00e+00	0	42	0	104857600	58	5076
2026-01-26 08:04:04.81	86.04	11.71	-43.2	-46.2	16.2	0.00e+00	0	42	0	106954752	58	4980
2026-01-26 08:04:05.81	85.89	11.77	-43.3	-46.3	16.1	0.00e+00	0	42	0	109051904	58	5040
2026-01-26 08:04:06.80	85.74	11.82	-43.3	-46.4	16.0	0.00e+00	0	42	0	110100480	58	5068
2026-01-26 08:04:07.80	85.59	11.88	-43.2	-46.3	16.1	0.00e+00	0	42	0	112197632	58	5019
2026-01-26 08:04:08.79	85.44	11.94	-43.3	-46.4	16.0	0.00e+00	0	42	0	114294784	58	5062
2026-01-26 08:04:09.79	85.29	12.00	-43.3	-46.5	16.0	0.00e+00	0	42	0	116391936	58	5113
2026-01-26 08:04:10.78	85.14	12.06	-43.3	-46.4	16.0	0.00e+00	0	42	0	117440512	58	5096
2026-01-26 08:04:11.78	84.99	12.11	-43.4	-46.6	15.9	0.00e+00	0	42	0	119537664	58	5180
2026-01-26 08:04:12.77	84.84	12.17	-43.4	-46.7	15.8	0.00e+00	0	42	0	121634816	58	5229
2026-01-26 08:04:13.77	84.68	12.23	-43.4	-46.6	15.8	0.00e+00	0	42	0	123731968	58	5208
2026-01-26 08:04:14.76	84.53	12.29	-43.3	-46.6	15.9	0.00e+00	0	42	0	125829120	58	5164
2026-01-26 08:04:15.76	84.38	12.34	-43.2	-46.4	16.1	0.00e+00	0	42	0	126877696	58	5066
2026-01-26 08:04:16.75	84.22	12.40	-43.1	-46.3	16.2	0.00e+00	0	42	0	128974848	58	4996
2026-01-26 08:04:17.75	84.07	12.46	-43.1	-46.3	16.2	0.00e+00	0	42	0	131072000	58	5005
2026-01-26 08:04:18.74	83.91	12.52	-43.1	-46.3	16.2	0.00e+00	0	42	0	133169152	58	5001
2026-01-26 08:04:19.74	83.75	12.57	-43.0	-46.1	16.3	0.00e+00	0	42	0	134217728	58	4904
2026-01-26 08:04:20.73	83.60	12.63	-43.0	-45.9	16.5	0.00e+00	0	42	0	136314880	57	5092
2026-01-26 08:04:21.73	83.44	12.69	-43.0	-45.9	16.5	0.00e+00	0	42	0	138412032	57	5093
2026-01-26 08:04:22.72	83.28	12.74	-42.9	-45.9	16.6	0.00e+00	0	42	0	140509184	57	5042
2026-01-26 08:04:23.72	83.12	12.80	-42.9	-45.8	16.6	0.00e+00	0	42	0	142606336	57	5027
2026-01-26 08:04:24.71	82.96	12.86	-42.9	-45.7	16.8	0.00e+00	0	42	0	143654912	57	4976
2026-01-26 08:04:25.70	82.80	12.91	-42.8	-45.6	16.8	0.00e+00	0	42	0	145752064	57	4921
2026-01-26 08:04:26.69	82.64	12.97	-42.7	-45.6	16.9	0.00e+00	0	42	0	147849216	57	4873
2026-01-26 08:04:27.69	82.48	13.03	-42.6	-45.4	17.1	0.00e+00	0	42	0	149946368	57	4777
2026-01-26 08:04:28.68	82.32	13.08	-42.5	-45.4	17.1	0.00e+00	0	42	0	150994944	57	4764
2026-01-26 08:04:29.68	82.15	13.14	-42.6	-45.4	17.0	0.00e+00	0	42	0	153092096	57	4795
2026-01-26 08:04:30.68	81.99	13.20	-42.5	-45.4	17.1	0.00e+00	0	42	0	155189248	57	4786
2026-01-26 08:04:31.67	81.83	13.25	-42.4	-45.2	17.3	0.00e+00	0	42	0	157286400	56	4952
2026-01-26 08:04:32.67	81.66	13.31	-42.4	-45.2	17.3	0.00e+00	0	42	0	159383552	56	4947
2026-01-26 08:04:33.66	81.50	13.36	-42.2	-45.0	17.5	0.00e+00	0	42	0	160432128	56	4831
2026-01-26 08:04:34.65	81.33	13.42	-42.2	-45.0	17.5	0.00e+00	0	42	0	162529280	56	4841
2026-01-26 08:04:35.65	81.16	13.47	-42.3	-45.0	17.5	0.00e+00	0	42	0	164626432	56	4844
2026-01-26 08:04:36.64	81.00	13.53	-42.1	-44.8	17.7	0.00e+00	0	42	0	166723584	56	4739
2026-01-26 08:04:37.64	80.83	13.59	-42.1	-44.7	17.7	0.00e+00	0	42	0	168820736	56	4702
2026-01-26 08:04:38.63	80.66	13.64	-42.1	-44.7	17.7	0.00e+00	0	42	0	169869312	56	4683
2026-01-26 08:04:39.63	80.49	13.70	-42.1	-44.7	17.8	0.00e+00	0	42	0	171966464	56	4672
2026-01-26 08:04:40.62	80.32	13.75	-42.1	-44.7	17.8	0.00e+00	0	42	0	174063616	56	4692
2026-01-26 08:04:41.61	80.15	13.81	-42.1	-44.7	17.8	0.00e+00	0	42	0	176160768	56	4686
2026-01-26 08:04:42.61	79.98	13.86	-42.1	-44.6	17.9	0.00e+00	0	42	0	177209344	56	4642
2026-01-26 08:04:43.60	79.81	13.91	-42.0	-44.6	17.9	0.00e+00	0	42	0	179306496	56	4619
2026-01-26 08:04:44.60	79.64	13.97	-42.1	-44.7	17.7	0.00e+00	0	42	0	181403648	56	4688
2026-01-26 08:04:45.59	79.46	14.02	-42.1	-44.6	17.8	0.00e+00	0	42	0	183500800	56	4645
2026-01-26 08:04:46.59	79.29	14.08	-42.0	-44.6	17.9	0.00e+00	0	42	0	185597952	56	4611
2026-01-26 08:04:47.58	79.11	14.13	-42.0	-44.6	17.9	0.00e+00	0	42	0	186646528	56	4617
2026-01-26 08:04:48.58	78.94	14.19	-41.8	-44.3	18.0	0.00e+00	0	42	0	188743680	55	4743
2026-01-26 08:04:49.57	78.76	14.24	-41.7	-44.2	18.1	0.00e+00	0	42	0	190840832	55	4677
2026-01-26 08:04:50.57	78.59	14.29	-41.7	-44.3	18.0	0.00e+00	0	42	0	192937984	55	4720
2026-01-26 08:04:51.56	78.41	14.35	-41.7	-44.3	18.1	0.00e+00	0	42	0	193986560	55	4708
2026-01-26 08:04:52.56	78.23	14.40	-41.5	-43.9	18.4	0.00e+00	0	42	0	196083712	55	4541
2026-01-26 08:04:53.55	78.06	14.45	-41.5	-43.9	18.4	0.00e+00	0	42	0	198180864	54	4807
2026-01-26 08:04:54.55	77.88	14.51	-41.5	-44.0	18.3	0.00e+00	0	42	0	200278016	54	4840
2026-01-26 08:04:55.54	77.70	14.56	-41.6	-44.1	18.3	0.00e+00	0	42	0	202375168	54	4884
2026-01-26 08:04:56.53	77.52	14.61	-41.5	-43.9	18.4	0.00e+00	0	42	0	203423744	54	4811
2026-01-26 08:04:57.53	77.34	14.66	-41.4	-43.9	18.5	0.00e+00	0	42	0	205520896	54	4766
2026-01-26 08:04:58.52	77.16	14.72	-41.3	-43.8	18.5	0.00e+00	0	42	0	207618048	54	4711
2026-01-26 08:04:59.52	76.97	14.77	-41.3	-43.7	18.6	0.00e+00	0	42	0	209715200	54	4693
2026-01-26 08:05:00.51	76.79	14.82	-41.3	-43.7	18.6	0.00e+00	0	42	0	210763776	54	4698
2026-01-26 08:05:01.51	76.61	14.87	-41.3	-43.7	18.6	0.00e+00	0	42	0	212860928	54	4697
2026-01-26 08:05:02.50	76.42	14.92	-41.4	-43.8	18.5	0.00e+00	0	42	0	214958080	54	4717
2026-01-26 08:05:03.50	76.24	14.98	-41.3	-43.7	18.6	0.00e+00	0	42	0	217055232	54	4693
2026-01-26 08:05:04.49	76.05	15.03	-41.2	-43.6	18.7	0.00e+00	0	42	0	219152384	54	4633
2026-01-26 08:05:05.49	75.87	15.08	-41.3	-43.6	18.7	0.00e+00	0	42	0	220200960	54	4641
2026-01-26 08:05:06.48	75.68	15.13	-41.2	-43.6	18.7	0.00e+00	0	42	0	222298112	54	4629
2026-01-26 08:05:07.48	75.49	15.18	-41.2	-43.6	18.7	0.00e+00	0	42	0	224395264	54	4626
2026-01-26 08:05:08.47	75.31	15.23	-41.4	-43.8	18.6	0.00e+00	0	42	0	226492416	54	4716
2026-01-26 08:05:09.47	75.12	15.28	-41.4	-43.8	18.5	0.00e+00	0	42	0	227540992	54	4710
2026-01-26 08:05:10.46	74.93	15.33	-41.4	-43.8	18.5	0.00e+00	0	42	0	229638144	54	4717
2026-01-26 08:05:11.46	74.74	15.38	-41.4	-43.8	18.5	0.00e+00	0	42	0	231735296	54	4732
2026-01-26 08:05:12.45	74.55	15.43	-41.5	-43.9	18.4	0.00e+00	0	42	0	233832448	54	4807
2026-01-26 08:05:13.45	74.36	15.48	-41.5	-44.0	18.4	0.00e+00	0	42	0	235929600	54	4827
2026-01-26 08:05:14.44	74.17	15.53	-41.6	-44.1	18.2	0.00e+00	0	43	0	236978176	54	4896
2026-01-26 08:05:15.44	73.97	15.58	-41.8	-44.3	18.1	0.00e+00	0	42	0	239075328	54	5000
2026-01-26 08:05:16.43	73.78	15.63	-41.7	-44.3	18.1	0.00e+00	0	42	0	241172480	54	4986
2026-01-26 08:05:17.43	73.59	15.67	-41.7	-44.2	18.2	0.00e+00	0	42	0	243269632	54	4932
2026-01-26 08:05:18.42	73.39	15.72	-41.7	-44.2	18.1	0.00e+00	0	42	0	244318208	54	4974
2026-01-26 08:05:19.41	73.20	15.77	-41.8	-44.3	18.1	0.00e+00	0	42	0	246415360	54	5000
2026-01-26 08:05:20.41	73.00	15.82	-41.8	-44.3	18.1	0.00e+00	0	42	0	248512512	54	4990
2026-01-26 08:05:21.41	72.81	15.87	-41.7	-44.2	18.2	0.00e+00	0	42	0	250609664	54	4956
2026-01-26 08:05:22.40	72.61	15.91	-41.6	-44.1	18.3	0.00e+00	0	42	0	252706816	54	4889
2026-01-26 08:05:23.40	72.41	15.96	-41.6	-44.0	18.3	0.00e+00	0	42	0	253755392	54	4858
2026-01-26 08:05:24.40	72.21	16.01	-41.5	-44.0	18.4	0.00e+00	0	42	0	255852544	54	4816
2026-01-26 08:05:25.39	72.02	16.05	-41.6	-44.1	18.3	0.00e+00	0	42	0	257949696	54	4883
2026-01-26 08:05:26.39	71.82	16.10	-41.6	-44.0	18.3	0.00e+00	0	42	0	260046848	54	4851
2026-01-26 08:05:27.38	71.62	16.15	-41.5	-43.9	18.4	0.00e+00	0	42	0	261095424	54	4808
2026-01-26 08:05:28.38	71.42	16.19	-41.4	-43.8	18.5	0.00e+00	0	42	0	263192576	54	4758
2026-01-26 08:05:29.37	71.22	16.24	-41.4	-43.8	18.5	0.00e+00	0	42	0	265289728	54	4753
2026-01-26 08:05:30.37	71.01	16.28	-41.3	-43.7	18.6	0.00e+00	0	43	0	267386880	54	4700
2026-01-26 08:05:31.36	70.81	16.33	-41.3	-43.6	18.7	0.00e+00	0	42	0	269484032	54	4651
2026-01-26 08:05:32.36	70.61	16.37	-41.2	-43.5	18.8	0.00e+00	0	42	0	270532608	54	4585
2026-01-26 08:05:33.35	70.41	16.42	-41.0	-43.3	19.0	0.00e+00	0	42	0	272629760	54	4476
2026-01-26 08:05:34.35	70.20	16.46	-41.0	-43.3	19.0	0.00e+00	0	42	0	274726912	53	4716
2026-01-26 08:05:35.34	70.00	16.50	-40.9	-43.2	19.1	0.00e+00	0	42	0	276824064	53	4691
2026-01-26 08:05:36.34	69.79	16.55	-41.0	-43.3	19.0	0.00e+00	0	42	0	277872640	53	4717
2026-01-26 08:05:37.33	69.59	16.59	-41.0	-43.3	19.1	0.00e+00	0	42	0	279969792	53	4714
2026-01-26 08:05:38.33	69.38	16.63	-41.0	-43.3	19.1	0.00e+00	0	42	0	282066944	53	4707
2026-01-26 08:05:39.32	69.17	16.68	-40.9	-43.2	19.1	0.00e+00	0	42	0	284164096	53	4676
2026-01-26 08:05:40.32	68.96	16.72	-41.0	-43.3	19.0	0.00e+00	0	42	0	286261248	53	4756
2026-01-26 08:05:41.31	68.76	16.76	-41.0	-43.3	19.0	0.00e+00	0	42	0	287309824	53	4752
2026-01-26 08:05:42.31	68.55	16.80	-41.0	-43.3	19.1	0.00e+00	0	42	0	289406976	53	4713
2026-01-26 08:05:43.30	68.34	16.84	-40.9	-43.2	19.1	0.00e+00	0	42	0	291504128	53	4667
2026-01-26 08:05:44.29	68.13	16.88	-40.9	-43.2	19.1	0.00e+00	0	42	0	293601280	53	4674
2026-01-26 08:05:45.29	67.92	16.92	-40.9	-43.2	19.1	0.00e+00	0	42	0	294649856	53	4690
2026-01-26 08:05:46.29	67.71	16.96	-41.1	-43.4	19.0	0.00e+00	0	42	0	296747008	53	4771
2026-01-26 08:05:47.28	67.50	17.00	-40.9	-43.2	19.1	0.00e+00	0	42	0	298844160	53	4679
2026-01-26 08:05:48.27	67.28	17.04	-40.9	-43.2	19.1	0.00e+00	0	42	0	300941312	53	4662
2026-01-26 08:05:49.27	67.07	17.08	-40.9	-43.2	19.2	0.00e+00	0	42	0	303038464	53	4677
2026-01-26 08:05:50.26	66.86	17.12	-40.9	-43.2	19.2	0.00e+00	0	42	0	304087040	53	4654
2026-01-26 08:05:51.26	66.64	17.16	-40.9	-43.2	19.2	0.00e+00	0	43	0	306184192	53	4654
2026-01-26 08:05:52.25	66.43	17.20	-40.9	-43.2	19.2	0.00e+00	0	42	0	308281344	53	4662
2026-01-26 08:05:53.25	66.21	17.24	-40.8	-43.1	19.3	0.00e+00	0	42	0	310378496	53	4622
2026-01-26 08:05:54.24	66.00	17.27	-40.9	-43.2	19.2	0.00e+00	0	43	0	311427072	53	4660
2026-01-26 08:05:55.24	65.78	17.31	-40.9	-43.2	19.2	0.00e+00	0	42	0	313524224	53	4652
2026-01-26 08:05:56.23	65.57	17.35	-40.8	-43.1	19.2	0.00e+00	0	42	0	315621376	53	4628
2026-01-26 08:05:57.23	65.35	17.39	-40.8	-43.1	19.3	0.00e+00	0	42	0	317718528	53	4614
2026-01-26 08:05:58.23	65.13	17.42	-40.9	-43.2	19.1	0.00e+00	0	42	0	319815680	53	4666
2026-01-26 08:05:59.22	64.91	17.46	-41.0	-43.3	19.1	0.00e+00	0	43	0	320864256	53	4720
2026-01-26 08:06:00.21	64.70	17.49	-41.0	-43.4	19.0	0.00e+00	0	42	0	322961408	53	4771
2026-01-26 08:06:01.21	64.48	17.53	-41.1	-43.5	18.9	0.00e+00	0	43	0	325058560	53	4844
2026-01-26 08:06:02.20	64.26	17.56	-41.1	-43.5	18.9	0.00e+00	0	43	0	327155712	53	4816
2026-01-26 08:06:03.20	64.04	17.60	-41.0	-43.3	19.0	0.00e+00	0	42	0	329252864	53	4752
2026-01-26 08:06:04.19	63.82	17.63	-41.1	-43.4	18.9	0.00e+00	0	42	0	330301440	53	4797
2026-01-26 08:06:05.19	63.59	17.66	-41.0	-43.3	19.1	0.00e+00	0	42	0	332398592	53	4713
2026-01-26 08:06:06.18	63.37	17.70	-40.9	-43.2	19.1	0.00e+00	0	42	0	334495744	53	4679
2026-01-26 08:06:07.18	63.15	17.73	-40.9	-43.2	19.2	0.00e+00	0	43	0	336592896	53	4655
2026-01-26 08:06:08.17	62.93	17.76	-40.9	-43.3	19.1	0.00e+00	0	43	0	337641472	53	4708
2026-01-26 08:06:09.17	62.70	17.79	-40.9	-43.2	19.1	0.00e+00	0	42	0	339738624	53	4691
2026-01-26 08:06:10.16	62.48	17.82	-40.9	-43.1	19.2	0.00e+00	0	43	0	341835776	53	4649
2026-01-26 08:06:11.15	62.26	17.86	-40.9	-43.1	19.2	0.00e+00	0	42	0	343932928	53	4636
2026-01-26 08:06:12.15	62.03	17.89	-41.0	-43.3	19.0	0.00e+00	0	43	0	346030080	53	4754
2026-01-26 08:06:13.15	61.81	17.92	-41.1	-43.5	18.9	0.00e+00	0	43	0	347078656	53	4815
2026-01-26 08:06:14.14	61.58	17.95	-41.1	-43.5	18.9	0.00e+00	0	42	0	349175808	53	4835
2026-01-26 08:06:15.13	61.36	17.98	-41.1	-43.4	18.9	0.00e+00	0	42	0	351272960	53	4808
2026-01-26 08:06:16.13	61.13	18.00	-41.2	-43.5	18.8	0.00e+00	0	42	0	353370112	53	4869
2026-01-26 08:06:17.13	60.90	18.03	-41.3	-43.7	18.7	0.00e+00	0	43	0	354418688	53	4946
2026-01-26 08:06:18.12	60.68	18.06	-41.3	-43.7	18.6	0.00e+00	0	43	0	356515840	53	4981
2026-01-26 08:06:19.12	60.45	18.09	-41.3	-43.8	18.6	0.00e+00	0	42	0	358612992	53	4993
2026-01-26 08:06:20.11	60.22	18.12	-41.5	-44.0	18.3	0.00e+00	0	43	0	360710144	53	5139
2026-01-26 08:06:21.11	59.99	18.14	-41.7	-44.2	18.2	0.00e+00	0	42	0	362807296	54	4971
2026-01-26 08:06:22.10	59.77	18.17	-41.8	-44.4	18.0	0.00e+00	0	43	0	363855872	54	5060
2026-01-26 08:06:23.09	59.54	18.20	-41.9	-44.5	17.9	0.00e+00	0	42	0	365953024	54	5124
2026-01-26 08:06:24.09	59.31	18.22	-41.9	-44.4	18.0	0.00e+00	0	43	0	368050176	54	5083
2026-01-26 08:06:25.08	59.08	18.25	-41.9	-44.4	18.0	0.00e+00	0	43	0	370147328	54	5089
2026-01-26 08:06:26.08	58.85	18.27	-41.8	-44.3	18.1	0.00e+00	0	43	0	371195904	54	5027
2026-01-26 08:06:27.08	58.62	18.29	-41.7	-44.2	18.2	0.00e+00	0	42	0	373293056	54	4958
2026-01-26 08:06:28.07	58.39	18.32	-41.6	-44.0	18.4	0.00e+00	0	42	0	375390208	54	4867
2026-01-26 08:06:29.06	58.16	18.34	-41.5	-43.9	18.5	0.00e+00	0	43	0	377487360	54	4809
2026-01-26 08:06:30.06	57.92	18.36	-41.5	-43.9	18.5	0.00e+00	0	42	0	379584512	54	4776
2026-01-26 08:06:31.05	57.69	18.39	-41.5	-44.0	18.4	0.00e+00	0	43	0	380633088	54	4815
2026-01-26 08:06:32.05	57.46	18.41	-41.6	-44.0	18.4	0.00e+00	0	43	0	382730240	54	4863
2026-01-26 08:06:33.04	57.23	18.43	-41.6	-44.1	18.3	0.00e+00	0	43	0	384827392	54	4872
2026-01-26 08:06:34.04	56.99	18.45	-41.7	-44.1	18.3	0.00e+00	0	42	0	386924544	54	4924
2026-01-26 08:06:35.03	56.76	18.47	-41.9	-44.4	18.0	0.00e+00	0	43	0	387973120	54	5081
2026-01-26 08:06:36.03	56.53	18.49	-41.9	-44.4	18.0	0.00e+00	0	43	0	390070272	54	5067
2026-01-26 08:06:37.02	56.29	18.51	-42.0	-44.6	17.9	0.00e+00	0	43	0	392167424	54	5160
2026-01-26 08:06:38.01	56.06	18.53	-42.1	-44.7	17.7	0.00e+00	0	43	0	394264576	54	5254
2026-01-26 08:06:39.01	55.83	18.55	-42.2	-44.8	17.6	0.00e+00	0	43	0	396361728	55	5007
2026-01-26 08:06:40.01	55.59	18.57	-42.2	-44.8	17.6	0.00e+00	0	43	0	397410304	55	4997
2026-01-26 08:06:41.00	55.36	18.58	-42.2	-44.8	17.6	0.00e+00	0	42	0	399507456	55	5028
2026-01-26 08:06:42.00	55.12	18.60	-42.3	-44.9	17.5	0.00e+00	0	42	0	401604608	55	5064
2026-01-26 08:06:42.99	54.88	18.62	-42.3	-45.0	17.4	0.00e+00	0	42	0	403701760	55	5136
2026-01-26 08:06:43.99	54.65	18.63	-42.2	-44.8	17.6	0.00e+00	0	43	0	404750336	55	5014
2026-01-26 08:06:44.98	54.41	18.65	-42.2	-44.8	17.6	0.00e+00	0	43	0	406847488	55	4996
2026-01-26 08:06:45.98	54.18	18.66	-42.1	-44.7	17.7	0.00e+00	0	42	0	408944640	55	4942
2026-01-26 08:06:46.97	53.94	18.68	-42.0	-44.5	17.9	0.00e+00	0	42	0	411041792	55	4843
2026-01-26 08:06:47.97	53.70	18.69	-42.0	-44.6	17.8	0.00e+00	0	43	0	413138944	55	4907
2026-01-26 08:06:48.96	53.47	18.71	-42.1	-44.7	17.7	0.00e+00	0	42	0	414187520	55	4941
2026-01-26 08:06:49.95	53.23	18.72	-42.2	-44.8	17.6	0.00e+00	0	43	0	416284672	55	4996
2026-01-26 08:06:50.95	52.99	18.73	-42.2	-44.9	17.6	0.00e+00	0	43	0	418381824	55	5059
2026-01-26 08:06:51.94	52.76	18.74	-42.1	-44.7	17.7	0.00e+00	0	42	0	420478976	55	4975
2026-01-26 08:06:52.94	52.52	18.75	-42.1	-44.6	17.8	0.00e+00	0	43	0	421527552	55	4913
2026-01-26 08:06:53.93	52.28	18.77	-42.1	-44.7	17.7	0.00e+00	0	43	0	423624704	55	4965
2026-01-26 08:06:54.93	52.04	18.78	-42.1	-44.7	17.7	0.00e+00	0	43	0	425721856	55	4957
2026-01-26 08:06:55.92	51.80	18.79	-42.1	-44.7	17.7	0.00e+00	0	43	0	427819008	55	4952
2026-01-26 08:06:56.92	51.56	18.80	-42.2	-44.8	17.6	0.00e+00	0	43	0	429916160	55	4994
2026-01-26 08:06:57.91	51.33	18.80	-42.2	-44.8	17.6	0.00e+00	0	43	0	430964736	55	4992
2026-01-26 08:06:58.91	51.09	18.81	-42.0	-44.6	17.8	0.00e+00	0	43	0	433061888	55	4898
2026-01-26 08:06:59.90	50.85	18.82	-41.9	-44.5	17.9	0.00e+00	0	43	0	435159040	55	4834
2026-01-26 08:07:00.90	50.61	18.83	-42.0	-44.5	17.9	0.00e+00	0	42	0	437256192	55	4859
2026-01-26 08:07:01.89	50.37	18.84	-42.0	-44.6	17.9	0.00e+00	0	42	0	438304768	55	4882
2026-01-26 08:07:02.89	50.13	18.84	-42.0	-44.5	17.9	0.00e+00	0	43	0	440401920	55	4859
2026-01-26 08:07:03.88	49.89	18.85	-41.9	-44.4	18.0	0.00e+00	0	43	0	442499072	55	4773
2026-01-26 08:07:04.88	49.65	18.85	-41.9	-44.4	18.0	0.00e+00	0	43	0	444596224	55	4806
2026-01-26 08:07:05.88	49.41	18.86	-42.1	-44.7	17.8	0.00e+00	0	42	0	446693376	55	4937
2026-01-26 08:07:06.87	49.17	18.86	-42.2	-44.8	17.6	0.00e+00	0	43	0	447741952	55	5005
2026-01-26 08:07:07.86	48.94	18.87	-42.2	-44.8	17.7	0.00e+00	0	43	0	449839104	55	5011
2026-01-26 08:07:08.86	48.70	18.87	-42.1	-44.7	17.7	0.00e+00	0	42	0	451936256	55	4960
2026-01-26 08:07:09.85	48.46	18.87	-42.0	-44.5	17.9	0.00e+00	0	42	0	454033408	55	4856
2026-01-26 08:07:10.85	48.22	18.87	-41.8	-44.3	18.1	0.00e+00	0	42	0	456130560	55	4712
2026-01-26 08:07:11.84	47.98	18.88	-41.8	-44.2	18.2	0.00e+00	0	43	0	457179136	55	4703
2026-01-26 08:07:12.84	47.74	18.88	-41.7	-44.1	18.3	0.00e+00	0	43	0	459276288	55	4636
2026-01-26 08:07:13.83	47.50	18.88	-41.6	-44.0	18.4	0.00e+00	0	42	0	461373440	55	4581
2026-01-26 08:07:14.83	47.26	18.88	-41.6	-44.1	18.3	0.00e+00	0	43	0	463470592	55	4611
2026-01-26 08:07:15.82	47.02	18.88	-41.5	-43.9	18.4	0.00e+00	0	42	0	464519168	55	4542
2026-01-26 08:07:16.82	46.78	18.88	-41.5	-43.9	18.5	0.00e+00	0	43	0	466616320	55	4529
2026-01-26 08:07:17.81	46.54	18.88	-41.4	-43.8	18.6	0.00e+00	0	42	0	468713472	54	4727
2026-01-26 08:07:18.80	46.30	18.87	-41.6	-44.0	18.4	0.00e+00	0	43	0	470810624	54	4863
2026-01-26 08:07:19.80	46.06	18.87	-41.6	-44.0	18.4	0.00e+00	0	43	0	472907776	54	4853
2026-01-26 08:07:20.79	45.82	18.87	-41.6	-44.0	18.4	0.00e+00	0	43	0	473956352	54	4856
2026-01-26 08:07:21.79	45.58	18.87	-41.6	-44.0	18.4	0.00e+00	0	43	0	476053504	54	4832
2026-01-26 08:07:22.78	45.34	18.86	-41.4	-43.8	18.6	0.00e+00	0	43	0	478150656	54	4717
2026-01-26 08:07:23.78	45.10	18.86	-41.3	-43.7	18.7	0.00e+00	0	43	0	480247808	54	4666
2026-01-26 08:07:24.77	44.87	18.85	-41.3	-43.7	18.7	0.00e+00	0	43	0	481296384	54	4685
2026-01-26 08:07:25.77	44.63	18.85	-41.3	-43.7	18.7	0.00e+00	0	42	0	483393536	54	4689
2026-01-26 08:07:26.77	44.39	18.84	-41.2	-43.6	18.8	0.00e+00	0	42	0	485490688	54	4608
2026-01-26 08:07:27.76	44.15	18.83	-41.2	-43.5	18.9	0.00e+00	0	43	0	487587840	54	4582
2026-01-26 08:07:28.76	43.91	18.83	-41.2	-43.6	18.8	0.00e+00	0	43	0	489684992	54	4606
2026-01-26 08:07:29.75	43.67	18.82	-41.2	-43.5	18.8	0.00e+00	0	43	0	490733568	54	4586
2026-01-26 08:07:30.75	43.43	18.81	-41.1	-43.5	18.9	0.00e+00	0	43	0	492830720	54	4555
2026-01-26 08:07:31.74	43.19	18.80	-41.0	-43.3	19.1	0.00e+00	0	43	0	494927872	54	4479
2026-01-26 08:07:32.74	42.95	18.79	-41.1	-43.5	19.0	0.00e+00	0	43	0	497025024	54	4559
2026-01-26 08:07:33.73	42.72	18.78	-41.2	-43.5	18.9	0.00e+00	0	43	0	498073600	54	4592
2026-01-26 08:07:34.73	42.48	18.77	-41.1	-43.4	18.9	0.00e+00	0	43	0	500170752	54	4543
2026-01-26 08:07:35.72	42.24	18.76	-41.1	-43.4	19.0	0.00e+00	0	43	0	502267904	54	4529
2026-01-26 08:07:36.71	42.00	18.75	-41.0	-43.3	19.1	0.00e+00	0	43	0	504365056	54	4458
2026-01-26 08:07:37.71	41.77	18.74	-40.9	-43.2	19.2	0.00e+00	0	43	0	506462208	53	4659
2026-01-26 08:07:38.71	41.53	18.73	-40.8	-43.0	19.3	0.00e+00	0	43	0	507510784	53	4587
2026-01-26 08:07:39.70	41.29	18.72	-40.7	-43.0	19.2	0.00e+00	0	43	0	509607936	53	4582
2026-01-26 08:07:40.70	41.05	18.70	-40.8	-43.1	19.3	0.00e+00	0	43	0	511705088	53	4613
2026-01-26 08:07:41.70	40.82	18.69	-40.8	-43.1	19.3	0.00e+00	0	43	0	513802240	53	4614
2026-01-26 08:07:42.69	40.58	18.67	-40.9	-43.1	19.2	0.00e+00	0	43	0	514850816	53	4636
2026-01-26 08:07:43.69	40.34	18.66	-40.8	-43.0	19.3	0.00e+00	0	43	0	516947968	53	4590
2026-01-26 08:07:44.68	40.11	18.65	-40.5	-42.8	19.6	0.00e+00	0	43	0	519045120	53	4452
2026-01-26 08:07:45.68	39.87	18.63	-40.5	-42.7	19.6	0.00e+00	0	43	0	521142272	53	4400
2026-01-26 08:07:46.67	39.64	18.61	-40.4	-42.6	19.7	0.00e+00	0	43	0	523239424	52	4635
2026-01-26 08:07:47.67	39.40	18.60	-40.5	-42.7	19.7	0.00e+00	0	43	0	524288000	52	4664
2026-01-26 08:07:48.67	39.17	18.58	-40.5	-42.7	19.6	0.00e+00	0	43	0	526385152	52	4703
2026-01-26 08:07:49.66	38.93	18.56	-40.6	-42.8	19.5	0.00e+00	0	43	0	528482304	52	4745
2026-01-26 08:07:50.65	38.70	18.54	-40.7	-42.9	19.4	0.00e+00	0	42	0	530579456	52	4812
2026-01-26 08:07:51.65	38.46	18.53	-40.8	-43.0	19.3	0.00e+00	0	43	0	531628032	52	4862
2026-01-26 08:07:52.64	38.23	18.51	-40.8	-43.1	19.2	0.00e+00	0	43	0	533725184	52	4907
2026-01-26 08:07:53.63	38.00	18.49	-40.8	-43.0	19.3	0.00e+00	0	43	0	535822336	52	4861
2026-01-26 08:07:54.63	37.76	18.47	-40.8	-43.0	19.3	0.00e+00	0	43	0	537919488	52	4868
2026-01-26 08:07:55.62	37.53	18.45	-40.7	-43.0	19.3	0.00e+00	0	43	0	540016640	52	4848
2026-01-26 08:07:56.62	37.30	18.43	-40.9	-43.1	19.2	0.00e+00	0	43	0	541065216	52	4922
2026-01-26 08:07:57.62	37.07	18.40	-40.8	-43.1	19.3	0.00e+00	0	43	0	543162368	52	4881
2026-01-26 08:07:58.61	36.84	18.38	-40.9	-43.2	19.2	0.00e+00	0	43	0	545259520	52	4941
2026-01-26 08:07:59.61	36.60	18.36	-41.0	-43.3	19.0	0.00e+00	0	43	0	547356672	52	5023
2026-01-26 08:08:00.60	36.37	18.34	-41.0	-43.3	19.0	0.00e+00	0	43	0	548405248	52	5024
2026-01-26 08:08:01.59	36.14	18.31	-41.0	-43.3	19.0	0.00e+00	0	43	0	550502400	52	5025
2026-01-26 08:08:02.59	35.91	18.29	-41.0	-43.3	19.1	0.00e+00	0	43	0	552599552	52	5014
2026-01-26 08:08:03.59	35.68	18.27	-41.0	-43.4	19.1	0.00e+00	0	43	0	554696704	52	5048
2026-01-26 08:08:04.58	35.45	18.24	-41.0	-43.3	19.1	0.00e+00	0	43	0	556793856	52	5004
2026-01-26 08:08:05.58	35.22	18.22	-41.1	-43.4	19.0	0.00e+00	0	43	0	557842432	52	5073
2026-01-26 08:08:06.57	34.99	18.19	-41.1	-43.5	18.9	0.00e+00	0	43	0	559939584	52	5126
2026-01-26 08:08:07.57	34.76	18.17	-41.2	-43.7	18.7	0.00e+00	0	42	0	562036736	53	4938
2026-01-26 08:08:08.56	34.54	18.14	-41.3	-43.8	18.6	0.00e+00	0	43	0	564133888	53	5019
2026-01-26 08:08:09.56	34.31	18.11	-41.4	-44.0	18.4	0.00e+00	0	43	0	566231040	53	5108
2026-01-26 08:08:10.56	34.08	18.08	-41.4	-44.0	18.4	0.00e+00	0	43	0	567279616	53	5125
2026-01-26 08:08:11.55	33.85	18.06	-41.4	-44.0	18.4	0.00e+00	0	43	0	569376768	53	5120
2026-01-26 08:08:12.55	33.63	18.03	-41.5	-44.0	18.4	0.00e+00	0	43	0	571473920	53	5140
2026-01-26 08:08:13.54	33.40	18.00	-41.5	-44.0	18.4	0.00e+00	0	43	0	573571072	53	5105
2026-01-26 08:08:14.54	33.17	17.97	-41.3	-43.8	18.6	0.00e+00	0	43	0	574619648	53	4996
2026-01-26 08:08:15.53	32.95	17.94	-41.4	-43.8	18.6	0.00e+00	0	43	0	576716800	53	5035
2026-01-26 08:08:16.53	32.72	17.91	-41.5	-44.0	18.4	0.00e+00	0	43	0	578813952	53	5113
2026-01-26 08:08:17.52	32.50	17.88	-41.7	-44.2	18.2	0.00e+00	0	43	0	580911104	53	5229
2026-01-26 08:08:18.51	32.28	17.85	-41.8	-44.3	18.1	0.00e+00	0	42	0	583008256	54	5011
2026-01-26 08:08:19.51	32.05	17.82	-41.9	-44.4	18.0	0.00e+00	0	43	0	584056832	54	5090
2026-01-26 08:08:20.50	31.83	17.79	-41.8	-44.4	18.0	0.00e+00	0	43	0	586153984	54	5052
2026-01-26 08:08:21.50	31.61	17.76	-41.9	-44.5	17.9	0.00e+00	0	43	0	588251136	54	5116
2026-01-26 08:08:22.49	31.39	17.72	-41.8	-44.4	18.1	0.00e+00	0	43	0	590348288	54	5048
2026-01-26 08:08:23.48	31.17	17.69	-41.6	-44.1	18.3	0.00e+00	0	43	0	591396864	54	4884
2026-01-26 08:08:24.48	30.95	17.66	-41.5	-44.0	18.4	0.00e+00	0	43	0	593494016	54	4832
2026-01-26 08:08:25.48	30.73	17.63	-41.5	-44.0	18.4	0.00e+00	0	43	0	595591168	54	4818
2026-01-26 08:08:26.47	30.51	17.59	-41.4	-43.9	18.4	0.00e+00	0	43	0	597688320	54	4812
2026-01-26 08:08:27.47	30.29	17.56	-41.5	-44.0	18.4	0.00e+00	0	43	0	599785472	54	4839
2026-01-26 08:08:28.46	30.07	17.52	-41.6	-44.1	18.3	0.00e+00	0	43	0	600834048	54	4895
2026-01-26 08:08:29.46	29.85	17.49	-41.7	-44.2	18.2	0.00e+00	0	43	0	602931200	54	4948
2026-01-26 08:08:30.45	29.63	17.45	-41.7	-44.1	18.3	0.00e+00	0	43	0	605028352	54	4906
2026-01-26 08:08:31.44	29.42	17.42	-41.7	-44.2	18.2	0.00e+00	0	43	0	607125504	54	4961
2026-01-26 08:08:32.44	29.20	17.38	-41.8	-44.3	18.1	0.00e+00	0	43	0	608174080	54	4986
2026-01-26 08:08:33.43	28.98	17.34	-41.6	-44.0	18.4	0.00e+00	0	42	0	610271232	54	4857
2026-01-26 08:08:34.43	28.77	17.31	-41.5	-44.0	18.4	0.00e+00	0	43	0	612368384	54	4830
2026-01-26 08:08:35.42	28.55	17.27	-41.5	-44.0	18.4	0.00e+00	0	42	0	614465536	54	4847
2026-01-26 08:08:36.42	28.34	17.23	-41.6	-44.1	18.3	0.00e+00	0	43	0	616562688	54	4908
2026-01-26 08:08:37.41	28.12	17.20	-41.6	-44.2	18.2	0.00e+00	0	43	0	617611264	54	4967
2026-01-26 08:08:38.41	27.91	17.16	-41.6	-44.3	18.1	0.00e+00	0	43	0	619708416	54	5005
2026-01-26 08:08:39.40	27.70	17.12	-41.7	-44.4	18.0	0.00e+00	0	43	0	621805568	54	5045
2026-01-26 08:08:40.39	27.48	17.08	-41.5	-44.2	18.3	0.00e+00	0	43	0	623902720	54	4932
2026-01-26 08:08:41.39	27.27	17.04	-41.4	-44.1	18.2	0.00e+00	0	43	0	624951296	54	4924
2026-01-26 08:08:42.38	27.06	17.00	-41.3	-44.0	18.4	0.00e+00	0	43	0	627048448	54	4853
2026-01-26 08:08:43.38	26.85	16.96	-41.3	-44.0	18.3	0.00e+00	0	43	0	629145600	54	4864
2026-01-26 08:08:44.37	26.64	16.92	-41.3	-44.1	18.3	0.00e+00	0	43	0	631242752	54	4878
2026-01-26 08:08:45.36	26.43	16.88	-41.4	-44.1	18.3	0.00e+00	0	43	0	633339904	54	4893
2026-01-26 08:08:46.36	26.22	16.84	-41.6	-44.3	18.1	0.00e+00	0	43	0	634388480	54	5033
2026-01-26 08:08:47.36	26.01	16.80	-41.7	-44.4	18.0	0.00e+00	0	43	0	636485632	54	5070
2026-01-26 08:08:48.35	25.81	16.76	-41.8	-44.4	17.9	0.00e+00	0	43	0	638582784	54	5093
2026-01-26 08:08:49.35	25.60	16.71	-41.9	-44.6	17.9	0.00e+00	0	43	0	640679936	54	5165
2026-01-26 08:08:50.34	25.39	16.67	-42.0	-44.6	17.8	0.00e+00	0	43	0	641728512	54	5209
2026-01-26 08:08:51.34	25.18	16.63	-42.0	-44.6	17.8	0.00e+00	0	43	0	643825664	54	5217
2026-01-26 08:08:52.33	24.98	16.59	-42.1	-44.7	17.7	0.00e+00	0	43	0	645922816	54	5256
2026-01-26 08:08:53.33	24.77	16.54	-42.1	-44.8	17.6	0.00e+00	0	43	0	648019968	54	5303
2026-01-26 08:08:54.32	24.57	16.50	-42.2	-44.8	17.6	0.00e+00	0	43	0	650117120	55	5037
2026-01-26 08:08:55.32	24.37	16.46	-42.1	-44.8	17.7	0.00e+00	0	43	0	651165696	55	4986
2026-01-26 08:08:56.31	24.16	16.41	-42.0	-44.7	17.7	0.00e+00	0	43	0	653262848	55	4958
2026-01-26 08:08:57.30	23.96	16.37	-42.0	-44.7	17.6	0.00e+00	0	43	0	655360000	55	4983
2026-01-26 08:08:58.30	23.76	16.32	-42.1	-44.9	17.5	0.00e+00	0	43	0	657457152	55	5084
2026-01-26 08:08:59.30	23.56	16.28	-42.2	-45.0	17.4	0.00e+00	0	43	0	658505728	55	5138
2026-01-26 08:09:00.29	23.36	16.23	-42.1	-45.0	17.4	0.00e+00	0	43	0	660602880	55	5109
2026-01-26 08:09:01.29	23.16	16.19	-42.2	-45.0	17.4	0.00e+00	0	43	0	662700032	55	5130
2026-01-26 08:09:02.28	22.96	16.14	-42.2	-45.1	17.3	0.00e+00	0	43	0	664797184	55	5168
2026-01-26 08:09:03.27	22.76	16.10	-42.0	-44.8	17.6	0.00e+00	0	43	0	666894336	55	4990
2026-01-26 08:09:04.27	22.56	16.05	-41.9	-44.6	17.8	0.00e+00	0	43	0	667942912	55	4891
2026-01-26 08:09:05.26	22.36	16.01	-41.8	-44.5	17.9	0.00e+00	0	43	0	670040064	55	4852
2026-01-26 08:09:06.26	22.17	15.96	-41.8	-44.5	17.8	0.00e+00	0	43	0	672137216	55	4865
2026-01-26 08:09:07.25	21.97	15.91	-41.9	-44.6	17.8	0.00e+00	0	43	0	674234368	55	4896
2026-01-26 08:09:08.25	21.77	15.86	-42.0	-44.7	17.7	0.00e+00	0	43	0	675282944	55	4947
2026-01-26 08:09:09.24	21.58	15.82	-42.0	-44.7	17.7	0.00e+00	0	43	0	677380096	55	4946
2026-01-26 08:09:10.24	21.38	15.77	-42.1	-44.7	17.6	0.00e+00	0	43	0	679477248	55	4977
2026-01-26 08:09:11.23	21.19	15.72	-42.1	-44.7	17.7	0.00e+00	0	43	0	681574400	55	4970
2026-01-26 08:09:12.23	21.00	15.67	-42.1	-44.8	17.6	0.00e+00	0	43	0	683671552	55	5029
2026-01-26 08:09:13.22	20.81	15.62	-42.2	-44.9	17.5	0.00e+00	0	43	0	684720128	55	5048
2026-01-26 08:09:14.21	20.62	15.58	-42.3	-45.1	17.3	0.00e+00	0	43	0	686817280	55	5169
2026-01-26 08:09:15.21	20.42	15.53	-42.2	-44.9	17.5	0.00e+00	0	43	0	688914432	55	5094
2026-01-26 08:09:16.21	20.23	15.48	-42.3	-45.1	17.3	0.00e+00	0	43	0	691011584	55	5205
2026-01-26 08:09:17.20	20.04	15.43	-42.3	-45.2	17.2	0.00e+00	0	43	0	692060160	55	5234
2026-01-26 08:09:18.19	19.85	15.38	-42.2	-45.1	17.2	0.00e+00	0	43	0	694157312	55	5192
2026-01-26 08:09:19.19	19.66	15.33	-42.3	-45.3	17.1	0.00e+00	0	43	0	696254464	55	5312
2026-01-26 08:09:20.18	19.48	15.28	-42.2	-45.2	17.2	0.00e+00	0	43	0	698351616	55	5256
2026-01-26 08:09:21.18	19.29	15.23	-42.2	-45.2	17.2	0.00e+00	0	43	0	700448768	55	5256
2026-01-26 08:09:22.17	19.10	15.18	-42.3	-45.3	17.1	0.00e+00	0	43	0	701497344	55	5286
2026-01-26 08:09:23.17	18.92	15.13	-42.1	-45.0	17.4	0.00e+00	0	43	0	703594496	55	5138
2026-01-26 08:09:24.16	18.73	15.08	-42.0	-44.8	17.6	0.00e+00	0	43	0	705691648	55	4990
2026-01-26 08:09:25.16	18.55	15.03	-42.0	-44.7	17.7	0.00e+00	0	43	0	707788800	55	4943
2026-01-26 08:09:26.15	18.36	14.98	-42.1	-44.8	17.6	0.00e+00	0	43	0	708837376	55	4988
2026-01-26 08:09:27.15	18.18	14.93	-42.2	-44.8	17.6	0.00e+00	0	43	0	710934528	55	5027
2026-01-26 08:09:28.14	18.00	14.87	-42.3	-45.0	17.4	0.00e+00	0	43	0	713031680	55	5102
2026-01-26 08:09:29.14	17.81	14.82	-42.5	-45.2	17.2	0.00e+00	0	43	0	715128832	55	5222
2026-01-26 08:09:30.13	17.63	14.77	-42.7	-45.4	17.0	0.00e+00	0	43	0	717225984	55	5391
2026-01-26 08:09:31.13	17.45	14.72	-42.9	-45.7	16.8	0.00e+00	0	43	0	718274560	56	5250
2026-01-26 08:09:32.12	17.27	14.67	-43.0	-45.8	16.7	0.00e+00	0	43	0	720371712	56	5323
2026-01-26 08:09:33.12	17.09	14.61	-42.9	-45.8	16.8	0.00e+00	0	43	0	722468864	56	5290
2026-01-26 08:09:34.11	16.91	14.56	-42.9	-45.9	16.7	0.00e+00	0	43	0	724566016	56	5365
2026-01-26 08:09:35.10	16.73	14.51	-43.0	-46.0	16.6	0.00e+00	0	43	0	725614592	56	5409
2026-01-26 08:09:36.10	16.55	14.46	-42.9	-45.9	16.6	0.00e+00	0	43	0	727711744	56	5367
2026-01-26 08:09:37.09	16.38	14.40	-42.8	-45.9	16.7	0.00e+00	0	43	0	729808896	56	5353
2026-01-26 08:09:38.09	16.20	14.35	-42.9	-46.0	16.5	0.00e+00	0	43	0	731906048	56	5451
2026-01-26 08:09:39.08	16.03	14.30	-42.9	-46.2	16.3	0.00e+00	0	42	0	734003200	56	5563
2026-01-26 08:09:40.08	15.85	14.24	-42.8	-46.1	16.4	0.00e+00	0	43	0	735051776	56	5494
2026-01-26 08:09:41.07	15.68	14.19	-42.8	-46.2	16.4	0.00e+00	0	43	0	737148928	56	5553
2026-01-26 08:09:42.07	15.50	14.14	-42.7	-46.1	16.4	0.00e+00	0	43	0	739246080	56	5513
2026-01-26 08:09:43.06	15.33	14.08	-42.6	-46.0	16.5	0.00e+00	0	43	0	741343232	56	5416
2026-01-26 08:09:44.05	15.16	14.03	-42.5	-45.9	16.4	0.00e+00	0	43	0	742391808	56	5372
2026-01-26 08:09:45.05	14.98	13.97	-42.4	-45.9	16.7	0.00e+00	0	43	0	744488960	56	5362
2026-01-26 08:09:46.04	14.81	13.92	-42.4	-45.8	16.7	0.00e+00	0	43	0	746586112	56	5340
2026-01-26 08:09:47.04	14.64	13.86	-42.4	-45.8	16.7	0.00e+00	0	43	0	748683264	56	5330
2026-01-26 08:09:48.03	14.47	13.81	-42.4	-45.8	16.7	0.00e+00	0	43	0	750780416	56	5330
2026-01-26 08:09:49.03	14.30	13.76	-42.5	-46.0	16.6	0.00e+00	0	43	0	751828992	56	5406
2026-01-26 08:09:50.02	14.13	13.70	-42.5	-46.0	16.6	0.00e+00	0	43	0	753926144	56	5403
2026-01-26 08:09:51.02	13.97	13.65	-42.6	-46.0	16.5	0.00e+00	0	43	0	756023296	56	5433
2026-01-26 08:09:52.01	13.80	13.59	-42.7	-46.1	16.4	0.00e+00	0	43	0	758120448	56	5519
2026-01-26 08:09:53.00	13.63	13.54	-42.7	-46.0	16.5	0.00e+00	0	43	0	759169024	56	5429
2026-01-26 08:09:54.00	13.47	13.48	-42.8	-45.9	16.6	0.00e+00	0	43	0	761266176	56	5393
2026-01-26 08:09:55.00	13.30	13.42	-42.8	-45.9	16.6	0.00e+00	0	43	0	763363328	56	5376
2026-01-26 08:09:55.99	13.14	13.37	-42.7	-45.7	16.8	0.00e+00	0	43	0	765460480	56	5251
2026-01-26 08:09:56.99	12.97	13.31	-42.6	-45.6	16.9	0.00e+00	0	43	0	767557632	56	5182
2026-01-26 08:09:57.98	12.81	13.26	-42.7	-45.6	16.9	0.00e+00	0	43	0	768606208	56	5198
2026-01-26 08:09:58.97	12.65	13.20	-42.6	-45.4	17.1	0.00e+00	0	43	0	770703360	56	5098
2026-01-26 08:09:59.97	12.48	13.15	-42.4	-45.3	17.2	0.00e+00	0	43	0	772800512	56	5000
2026-01-26 08:10:00.96	12.32	13.09	-42.4	-45.3	17.2	0.00e+00	0	43	0	774897664	56	5012
2026-01-26 08:10:01.96	12.16	13.03	-42.4	-45.4	17.1	0.00e+00	0	43	0	775946240	56	5042
2026-01-26 08:10:02.95	12.00	12.98	-42.3	-45.3	17.2	0.00e+00	0	43	0	778043392	56	5008
2026-01-26 08:10:03.94	11.84	12.92	-42.3	-45.3	17.2	0.00e+00	0	43	0	780140544	56	5017
2026-01-26 08:10:04.94	11.68	12.86	-42.2	-45.2	17.2	0.00e+00	0	43	0	782237696	56	4981
2026-01-26 08:10:05.93	11.52	12.81	-42.2	-45.2	17.3	0.00e+00	0	43	0	784334848	56	4943
2026-01-26 08:10:06.93	11.36	12.75	-42.2	-45.1	17.4	0.00e+00	0	43	0	785383424	56	4874
2026-01-26 08:10:07.92	11.21	12.70	-42.2	-45.1	17.4	0.00e+00	0	43	0	787480576	56	4875
2026-01-26 08:10:08.92	11.05	12.64	-42.1	-45.0	17.5	0.00e+00	0	43	0	789577728	56	4846
2026-01-26 08:10:09.91	10.89	12.58	-42.0	-45.0	17.5	0.00e+00	0	43	0	791674880	56	4849
2026-01-26 08:10:10.91	10.74	12.52	-41.8	-44.9	17.5	0.00e+00	0	43	0	792723456	55	5054
2026-01-26 08:10:11.90	10.58	12.47	-41.8	-44.9	17.4	0.00e+00	0	43	0	794820608	55	5086
2026-01-26 08:10:12.90	10.43	12.41	-41.7	-44.9	17.5	0.00e+00	0	43	0	796917760	55	5048
2026-01-26 08:10:13.89	10.27	12.35	-41.6	-44.8	17.4	0.00e+00	0	43	0	799014912	55	5028
2026-01-26 08:10:14.89	10.12	12.30	-41.7	-44.8	17.5	0.00e+00	0	43	0	801112064	54	5332
2026-01-26 08:10:15.88	9.97	12.24	-41.7	-44.8	17.5	0.00e+00	0	43	0	802160640	54	5334
2026-01-26 08:10:16.88	9.82	12.18	-41.8	-44.8	17.5	0.00e+00	0	43	0	804257792	54	5289
2026-01-26 08:10:17.87	9.66	12.12	-41.7	-44.6	17.7	0.00e+00	0	43	0	806354944	54	5182
2026-01-26 08:10:18.87	9.51	12.07	-41.5	-44.5	17.8	0.00e+00	0	43	0	808452096	54	5114
2026-01-26 08:10:19.86	9.36	12.01	-41.3	-44.2	18.0	0.00e+00	0	43	0	809500672	54	4982
2026-01-26 08:10:20.85	9.22	11.95	-41.3	-44.3	18.1	0.00e+00	0	43	0	811597824	54	4985
2026-01-26 08:10:21.85	9.07	11.89	-41.2	-44.2	18.1	0.00e+00	0	43	0	813694976	54	4967
2026-01-26 08:10:22.84	8.92	11.84	-41.0	-44.0	18.2	0.00e+00	0	43	0	815792128	54	4864
2026-01-26 08:10:23.84	8.77	11.78	-41.0	-44.0	18.3	0.00e+00	0	43	0	817889280	54	4866
2026-01-26 08:10:24.83	8.62	11.72	-41.0	-44.1	18.2	0.00e+00	0	43	0	818937856	53	5175
2026-01-26 08:10:25.83	8.48	11.66	-41.1	-44.1	18.1	0.00e+00	0	43	0	821035008	53	5216
2026-01-26 08:10:26.82	8.33	11.61	-41.2	-44.2	18.1	0.00e+00	0	43	0	823132160	53	5253
2026-01-26 08:10:27.82	8.18	11.55	-41.1	-44.1	18.2	0.00e+00	0	43	0	825229312	53	5196
2026-01-26 08:10:28.81	8.04	11.49	-41.1	-44.0	18.2	0.00e+00	0	43	0	826277888	53	5144
2026-01-26 08:10:29.80	7.90	11.43	-41.1	-43.9	18.3	0.00e+00	0	43	0	828375040	53	5082
2026-01-26 08:10:30.80	7.75	11.37	-41.1	-43.8	18.4	0.00e+00	0	43	0	830472192	53	5034
2026-01-26 08:10:31.80	7.61	11.31	-41.1	-43.9	18.4	0.00e+00	0	43	0	832569344	53	5071
2026-01-26 08:10:32.79	7.47	11.26	-41.0	-43.8	18.5	0.00e+00	0	43	0	834666496	53	4987
2026-01-26 08:10:33.78	7.33	11.20	-41.0	-43.7	18.5	0.00e+00	0	43	0	835715072	53	4971
2026-01-26 08:10:34.78	7.18	11.14	-41.0	-43.7	18.5	0.00e+00	0	43	0	837812224	53	4952
2026-01-26 08:10:35.77	7.04	11.08	-40.9	-43.7	18.6	0.00e+00	0	43	0	839909376	53	4930
2026-01-26 08:10:36.77	6.90	11.02	-40.9	-43.7	18.5	0.00e+00	0	43	0	842006528	53	4928
2026-01-26 08:10:37.76	6.76	10.97	-41.0	-43.7	18.5	0.00e+00	0	43	0	844103680	53	4962
2026-01-26 08:10:38.76	6.62	10.91	-41.1	-43.9	18.3	0.00e+00	0	43	0	845152256	53	5070
2026-01-26 08:10:39.75	6.49	10.85	-41.1	-43.9	18.3	0.00e+00	0	43	0	847249408	53	5071
2026-01-26 08:10:40.75	6.35	10.79	-41.2	-43.9	18.3	0.00e+00	0	43	0	849346560	53	5079
2026-01-26 08:10:41.74	6.21	10.73	-41.2	-44.0	18.3	0.00e+00	0	43	0	851443712	53	5120
2026-01-26 08:10:42.74	6.07	10.67	-41.2	-44.0	18.2	0.00e+00	0	43	0	852492288	53	5133
2026-01-26 08:10:43.73	5.94	10.62	-41.3	-44.1	18.2	0.00e+00	0	43	0	854589440	53	5168
2026-01-26 08:10:44.73	5.80	10.56	-41.2	-44.0	18.2	0.00e+00	0	43	0	856686592	53	5157
2026-01-26 08:10:45.72	5.67	10.50	-41.2	-44.0	18.2	0.00e+00	0	43	0	858783744	53	5146
2026-01-26 08:10:46.72	5.53	10.44	-41.3	-44.1	18.1	0.00e+00	0	43	0	860880896	53	5210
2026-01-26 08:10:47.71	5.40	10.38	-41.2	-44.2	18.1	0.00e+00	0	43	0	861929472	53	5227
2026-01-26 08:10:48.70	5.27	10.32	-41.3	-44.3	17.9	0.00e+00	0	43	0	864026624	53	5302
2026-01-26 08:10:49.70	5.13	10.26	-41.3	-44.4	17.8	0.00e+00	0	43	0	866123776	53	5360
2026-01-26 08:10:50.69	5.00	10.21	-41.4	-44.4	17.8	0.00e+00	0	43	0	868220928	53	5389
2026-01-26 08:10:51.69	4.87	10.15	-41.5	-44.5	17.7	0.00e+00	0	43	0	869269504	53	5451
2026-01-26 08:10:52.68	4.74	10.09	-41.6	-44.6	17.6	0.00e+00	0	43	0	871366656	53	5496
2026-01-26 08:10:53.68	4.61	10.03	-41.7	-44.7	17.5	0.00e+00	0	43	0	873463808	54	5254
2026-01-26 08:10:54.67	4.48	9.97	-41.7	-44.8	17.5	0.00e+00	0	43	0	875560960	54	5296
2026-01-26 08:10:55.67	4.35	9.91	-41.8	-44.8	17.4	0.00e+00	0	43	0	877658112	54	5331
2026-01-26 08:10:56.67	4.22	9.85	-41.9	-44.8	17.4	0.00e+00	0	43	0	878706688	54	5339
2026-01-26 08:10:57.66	4.09	9.80	-41.8	-44.7	17.5	0.00e+00	0	43	0	880803840	54	5232
2026-01-26 08:10:58.65	3.96	9.74	-41.9	-44.5	17.6	0.00e+00	0	43	0	882900992	54	5159
2026-01-26 08:10:59.65	3.83	9.68	-41.9	-44.5	17.8	0.00e+00	0	43	0	884998144	54	5105
2026-01-26 08:11:00.64	3.71	9.62	-41.9	-44.5	17.7	0.00e+00	0	43	0	886046720	54	5156
2026-01-26 08:11:01.64	3.58	9.56	-41.7	-44.4	17.8	0.00e+00	0	43	0	888143872	54	5074
2026-01-26 08:11:02.63	3.45	9.50	-41.6	-44.4	17.8	0.00e+00	0	43	0	890241024	54	5079
2026-01-26 08:11:03.63	3.33	9.44	-41.6	-44.4	17.8	0.00e+00	0	43	0	892338176	54	5069
2026-01-26 08:11:04.62	3.20	9.39	-41.5	-44.2	17.9	0.00e+00	0	43	0	894435328	54	4981
2026-01-26 08:11:05.61	3.08	9.33	-41.6	-44.4	17.8	0.00e+00	0	43	0	895483904	54	5074
2026-01-26 08:11:06.61	2.95	9.27	-41.7	-44.5	17.7	0.00e+00	0	43	0	897581056	54	5127
2026-01-26 08:11:07.60	2.83	9.21	-41.8	-44.5	17.7	0.00e+00	0	43	0	899678208	54	5111
2026-01-26 08:11:08.60	2.71	9.15	-41.8	-44.5	17.6	0.00e+00	0	43	0	901775360	54	5150
2026-01-26 08:11:09.59	2.59	9.09	-41.8	-44.6	17.6	0.00e+00	0	43	0	902823936	54	5162
2026-01-26 08:11:10.59	2.46	9.03	-41.9	-44.7	17.4	0.00e+00	0	43	0	904921088	54	5250
2026-01-26 08:11:11.58	2.34	8.98	-42.9	-46.0	16.5	0.00e+00	0	43	0	907018240	56	5460
2026-01-26 08:11:12.57	2.22	8.92	-47.2	-63.4	3.8	1.45e+00	0	43	104	908066816	66	22759
2026-01-26 08:11:13.57	2.10	8.86	-47.6	-63.6	3.8	1.49e+00	0	43	104	908066816	66	23189
2026-01-26 08:11:14.56	1.98	8.80	-47.8	-63.8	3.8	1.49e+00	0	43	104	908066816	67	22502
2026-01-26 08:11:15.55	1.86	8.74	-48.2	-63.9	3.8	1.49e+00	0	43	104	908066816	67	22683
2026-01-26 08:11:16.55	1.74	8.68	-48.4	-64.0	3.8	1.49e+00	0	43	104	908066816	67	22805
2026-01-26 08:11:17.54	1.63	8.63	-48.9	-64.2	3.8	1.49e+00	0	43	104	908066816	68	22100
2026-01-26 08:11:18.53	1.51	8.57	-48.8	-64.2	3.8	1.49e+00	0	43	104	908066816	68	22178
2026-01-26 08:11:19.53	1.39	8.51	-48.4	-64.3	3.8	1.49e+00	0	43	104	908066816	68	22287
2026-01-26 08:11:20.52	1.27	8.45	-48.8	-64.3	3.8	1.49e+00	0	43	104	908066816	68	22401
2026-01-26 08:11:21.51	1.16	8.39	-49.0	-64.3	3.8	1.49e+00	0	43	104	908066816	68	22387
2026-01-26 08:11:22.51	1.04	8.33	-49.0	-64.3	3.8	1.49e+00	0	43	104	908066816	68	22434
2026-01-26 08:11:23.50	0.93	8.28	-48.6	-64.3	3.8	1.49e+00	0	43	104	908066816	68	22399
2026-01-26 08:11:24.49	0.81	8.22	-49.0	-64.4	3.8	1.49e+00	0	43	104	908066816	68	22529
2026-01-26 08:11:25.48	0.70	8.16	-49.2	-64.4	3.8	1.49e+00	0	43	104	908066816	68	22557
2026-01-26 08:11:26.48	0.58	8.10	-48.9	-64.4	3.8	1.49e+00	0	43	104	908066816	69	21268
2026-01-26 08:11:27.47	0.47	8.04	-49.1	-64.4	3.8	1.49e+00	0	43	104	908066816	69	21321
2026-01-26 08:11:28.46	0.36	7.99	-48.7	-64.3	3.8	1.49e+00	0	43	104	908066816	69	21257
2026-01-26 08:11:29.46	0.24	7.93	-49.0	-64.3	3.8	1.49e+00	0	43	104	908066816	69	21150
2026-01-26 08:11:30.45	0.13	7.87	-49.0	-64.3	3.8	1.49e+00	0	43	104	908066816	69	21159
2026-01-26 08:11:31.45	0.02	7.81	-49.0	-64.3	3.8	1.49e+00	0	43	104	908066816	69	21176
2026-01-26 08:11:32.44	359.91	7.75	-49.2	-64.3	3.8	1.49e+00	0	43	104	908066816	69	21250
2026-01-26 08:11:33.43	359.80	7.70	-49.1	-64.4	3.8	1.49e+00	0	43	104	908066816	69	21283
2026-01-26 08:11:34.42	359.69	7.64	-49.2	-64.3	3.8	1.49e+00	0	43	104	908066816	69	21247
2026-01-26 08:11:35.42	359.58	7.58	-48.9	-64.4	3.8	1.49e+00	0	43	104	908066816	69	21284
2026-01-26 08:11:36.41	359.47	7.52	-49.1	-64.3	3.8	1.49e+00	0	43	104	908066816	69	21249
2026-01-26 08:11:37.40	359.36	7.47	-49.1	-64.3	3.8	1.49e+00	0	43	104	908066816	69	21142
2026-01-26 08:11:38.40	359.25	7.41	-49.1	-64.4	3.8	1.49e+00	0	43	104	908066816	69	21261
2026-01-26 08:11:39.39	359.14	7.35	-49.0	-64.3	3.8	1.49e+00	0	43	104	908066816	69	21255
2026-01-26 08:11:40.38	359.04	7.29	-48.9	-64.3	3.8	1.49e+00	0	43	104	908066816	69	21157
2026-01-26 08:11:41.38	358.93	7.23	-48.9	-64.3	3.8	1.49e+00	0	43	104	908066816	69	21043
2026-01-26 08:11:42.37	358.82	7.18	-48.9	-64.3	3.8	1.49e+00	0	43	104	908066816	69	21084
2026-01-26 08:11:43.36	358.72	7.12	-48.9	-64.3	3.8	1.49e+00	0	43	104	908066816	69	21039
2026-01-26 08:11:44.35	358.61	7.06	-48.9	-64.3	3.8	1.49e+00	0	43	104	908066816	69	21032
2026-01-26 08:11:45.35	358.51	7.00	-48.9	-64.3	3.8	1.49e+00	0	43	104	908066816	69	21045
2026-01-26 08:11:46.34	358.40	6.95	-48.9	-64.3	3.8	1.49e+00	0	43	104	908066816	69	21049
2026-01-26 08:11:47.33	358.30	6.89	-48.9	-64.3	3.8	1.49e+00	0	43	104	908066816	69	21087
2026-01-26 08:11:48.32	358.19	6.83	-48.9	-64.3	3.8	1.49e+00	0	43	104	908066816	69	21079
2026-01-26 08:11:49.32	358.09	6.77	-48.9	-64.2	3.8	1.49e+00	0	43	104	908066816	69	21016
2026-01-26 08:11:50.31	357.99	6.72	-48.9	-64.3	3.8	1.49e+00	0	43	104	908066816	69	21026
2026-01-26 08:11:51.30	357.88	6.66	-48.9	-64.3	3.8	1.49e+00	0	43	104	908066816	69	21060
2026-01-26 08:11:52.30	357.78	6.60	-48.9	-64.2	3.8	1.49e+00	0	43	104	908066816	69	21004
2026-01-26 08:11:53.29	357.68	6.55	-48.9	-64.3	3.8	1.49e+00	0	43	104	908066816	69	21029
2026-01-26 08:11:54.28	357.58	6.49	-48.9	-64.2	3.8	1.49e+00	0	43	104	908066816	69	20925
2026-01-26 08:11:55.28	357.48	6.43	-48.9	-64.3	3.8	1.49e+00	0	43	104	908066816	69	21077
2026-01-26 08:11:56.27	357.37	6.37	-48.9	-64.2	3.8	1.49e+00	0	43	104	908066816	69	20968
2026-01-26 08:11:57.26	357.27	6.32	-48.9	-64.3	3.8	1.49e+00	0	43	104	908066816	69	21022
2026-01-26 08:11:58.25	357.18	6.26	-48.8	-64.2	3.8	1.49e+00	0	43	104	908066816	69	20978
2026-01-26 08:11:59.25	357.08	6.20	-48.8	-64.2	3.8	1.49e+00	0	43	104	908066816	69	20888
2026-01-26 08:12:00.24	356.98	6.15	-48.8	-64.2	3.8	1.49e+00	0	43	104	908066816	69	20881
2026-01-26 08:12:01.23	356.88	6.09	-48.8	-64.2	3.8	1.49e+00	0	43	104	908066816	69	20936
2026-01-26 08:12:02.23	356.78	6.03	-48.8	-64.2	3.8	1.49e+00	0	43	104	908066816	69	20862
2026-01-26 08:12:03.22	356.68	5.98	-48.8	-64.2	3.8	1.49e+00	0	43	104	908066816	69	20903
2026-01-26 08:12:04.21	356.58	5.92	-48.8	-64.2	3.8	1.49e+00	0	43	104	908066816	69	20910
2026-01-26 08:12:05.20	356.49	5.86	-48.8	-64.2	3.8	1.49e+00	0	43	104	908066816	69	20892
2026-01-26 08:12:06.20	356.39	5.81	-48.8	-64.2	3.8	1.49e+00	0	43	104	908066816	69	20843
2026-01-26 08:12:07.19	356.29	5.75	-48.8	-64.2	3.8	1.49e+00	0	43	104	908066816	69	20929
2026-01-26 08:12:08.18	356.20	5.69	-48.8	-64.2	3.8	1.49e+00	0	43	104	908066816	69	20813
2026-01-26 08:12:09.18	356.10	5.64	-48.8	-64.2	3.8	1.49e+00	0	43	104	908066816	69	20814
2026-01-26 08:12:10.17	356.01	5.58	-48.8	-64.2	3.8	1.49e+00	0	43	104	908066816	69	20816
2026-01-26 08:12:11.16	355.91	5.52	-48.8	-64.2	3.8	1.49e+00	0	43	104	908066816	69	20916
2026-01-26 08:12:12.16	355.82	5.47	-48.8	-64.2	3.8	1.49e+00	0	43	104	908066816	69	20911
2026-01-26 08:12:13.15	355.72	5.41	-48.8	-64.2	3.8	1.49e+00	0	43	104	908066816	69	20822
2026-01-26 08:12:14.14	355.63	5.35	-48.8	-64.2	3.8	1.49e+00	0	43	104	908066816	69	20781
2026-01-26 08:12:15.14	355.54	5.30	-48.8	-64.2	3.8	1.49e+00	0	43	104	908066816	69	20883
2026-01-26 08:12:16.13	355.44	5.24	-48.8	-64.2	3.8	1.49e+00	0	43	104	908066816	69	20856
2026-01-26 08:12:17.12	355.35	5.18	-48.8	-64.2	3.8	1.49e+00	0	43	104	908066816	69	20803
2026-01-26 08:12:18.12	355.26	5.13	-48.8	-64.2	3.8	1.49e+00	0	43	104	908066816	69	20877
2026-01-26 08:12:19.11	355.17	5.07	-48.8	-64.2	3.8	1.49e+00	0	43	104	908066816	69	20795
2026-01-26 08:12:20.10	355.08	5.02	-48.8	-64.2	3.8	1.49e+00	0	43	104	908066816	69	20812
2026-01-26 08:12:21.09	354.98	4.96	-48.8	-64.2	3.8	1.49e+00	0	43	104	908066816	69	20788

#Closed at: 2026-01-26 08:12:22
#Recorded file [908 MB]: D:/Data/31040_260126_110209.dat