passes_logs/2026/01/26/T1/T1__20260126_103020_NOAA_21_JPSS-2_rec.log

#Pass ID: 20260126_103020_NOAA 21 (JPSS-2)
#Satellite: NOAA 21 (JPSS-2)
#Configuration: NOAA 21
#almurnet v.1.7.20251203
#Start time: 2026-01-26 10:30:21

#Version: 2.0.20230620
#Station: T1
#Location: 37.570604 lon 55.790049 lat
#TLE: 1 54234U 22150A   26025.79694208  .00000182  00000+0  10700-3 0  9999
#TLE: 2 54234  98.7509 326.5666 0000777 213.2444 146.8684 14.19539347166346

#Time	Az	El	Level	Level2	SNR	BER	BlckErr	Temp	State	Recorded	gain1	gain2
2026-01-26 10:30:21.04	178.53	5.06	-49.1	-62.8	3.8	1.49e+00	0	42	0	0	69	17814
2026-01-26 10:30:22.03	178.56	5.13	-47.3	-62.2	3.8	1.49e+00	0	42	104	0	65	20818
2026-01-26 10:30:23.02	178.60	5.20	-47.4	-62.1	3.8	1.49e+00	0	42	104	0	65	20555
2026-01-26 10:30:24.01	178.63	5.27	-47.3	-62.1	3.8	1.49e+00	0	42	104	0	65	20590
2026-01-26 10:30:25.01	178.66	5.34	-47.3	-62.0	3.8	1.49e+00	0	42	104	0	65	20323
2026-01-26 10:30:26.00	178.70	5.41	-47.2	-61.9	3.8	1.49e+00	0	42	104	0	65	20126
2026-01-26 10:30:26.99	178.73	5.48	-47.3	-61.8	3.8	1.49e+00	0	42	104	0	65	20065
2026-01-26 10:30:27.98	178.77	5.55	-47.2	-61.8	3.8	1.49e+00	0	42	104	0	65	20061
2026-01-26 10:30:28.98	178.80	5.62	-47.2	-61.9	3.8	1.49e+00	0	42	104	0	65	20113
2026-01-26 10:30:29.97	178.84	5.70	-47.2	-62.0	3.8	1.49e+00	0	42	104	0	65	20341
2026-01-26 10:30:30.96	178.87	5.77	-47.3	-62.0	3.8	1.49e+00	0	42	104	0	65	20478
2026-01-26 10:30:31.96	178.91	5.84	-47.2	-62.1	3.8	1.49e+00	0	42	104	0	65	20726
2026-01-26 10:30:32.95	178.94	5.91	-47.2	-62.2	3.8	1.49e+00	0	42	104	0	65	20875
2026-01-26 10:30:33.94	178.98	5.98	-47.2	-62.2	3.8	1.49e+00	0	42	104	0	65	20986
2026-01-26 10:30:34.94	179.01	6.05	-47.3	-62.3	3.8	1.49e+00	0	42	104	0	65	21023
2026-01-26 10:30:35.93	179.05	6.13	-47.3	-62.3	3.8	1.49e+00	0	42	104	0	65	21182
2026-01-26 10:30:36.92	179.08	6.20	-47.4	-62.3	3.8	1.49e+00	0	42	104	0	65	21171
2026-01-26 10:30:37.92	179.12	6.27	-47.4	-62.3	3.8	1.49e+00	0	42	104	0	65	21190
2026-01-26 10:30:38.91	179.15	6.35	-47.3	-62.2	3.8	1.49e+00	0	42	104	0	65	20986
2026-01-26 10:30:39.90	179.19	6.42	-47.3	-62.1	3.8	1.49e+00	0	42	104	0	65	20610
2026-01-26 10:30:40.90	179.23	6.49	-47.3	-61.8	3.8	1.49e+00	0	42	104	0	65	19998
2026-01-26 10:30:41.89	179.26	6.57	-47.2	-61.5	3.8	1.49e+00	0	42	104	0	65	19196
2026-01-26 10:30:42.88	179.30	6.64	-47.3	-61.2	3.8	1.49e+00	0	42	104	0	65	18646
2026-01-26 10:30:43.87	179.34	6.71	-47.2	-60.9	3.8	1.49e+00	0	42	104	0	65	18043
2026-01-26 10:30:44.87	179.37	6.79	-47.2	-60.7	3.8	1.49e+00	0	42	104	0	65	17598
2026-01-26 10:30:45.86	179.41	6.86	-47.2	-60.5	3.9	1.49e+00	0	42	104	0	65	17164
2026-01-26 10:30:46.85	179.45	6.94	-47.2	-60.9	3.9	1.49e+00	0	42	104	0	65	17923
2026-01-26 10:30:47.85	179.49	7.01	-47.3	-61.6	3.8	1.49e+00	0	42	104	0	65	19526
2026-01-26 10:30:48.84	179.52	7.09	-47.2	-61.8	3.8	1.49e+00	0	42	104	0	65	20021
2026-01-26 10:30:49.83	179.56	7.16	-47.3	-61.4	3.8	1.49e+00	0	42	104	0	65	19064
2026-01-26 10:30:50.83	179.60	7.24	-47.1	-59.8	3.9	1.49e+00	0	42	104	0	65	15800
2026-01-26 10:30:51.82	179.64	7.31	-46.8	-56.8	5.0	1.21e+00	0	42	104	0	65	11256
2026-01-26 10:30:52.81	179.68	7.39	-46.4	-54.4	6.7	2.89e-01	0	42	0	0	64	9028
2026-01-26 10:30:53.81	179.72	7.47	-45.9	-52.2	8.9	4.05e-02	0	42	0	0	63	7423
2026-01-26 10:30:54.80	179.75	7.54	-45.2	-50.3	10.9	3.41e-03	0	42	0	0	62	6325
2026-01-26 10:30:55.79	179.79	7.62	-44.5	-48.8	12.4	3.69e-04	0	42	0	0	61	5629
2026-01-26 10:30:56.79	179.83	7.69	-43.9	-47.5	13.7	7.60e-06	0	42	0	0	59	5439
2026-01-26 10:30:57.78	179.87	7.77	-43.3	-46.5	14.7	7.00e-07	0	42	0	0	58	5150
2026-01-26 10:30:58.77	179.91	7.85	-42.7	-45.6	15.6	0.00e+00	0	42	0	0	57	4901
2026-01-26 10:30:59.77	179.95	7.93	-42.4	-45.1	16.1	0.00e+00	0	42	0	0	56	4901
2026-01-26 10:31:00.76	179.99	8.00	-42.0	-44.7	16.5	0.00e+00	0	43	0	0	56	4653
2026-01-26 10:31:01.75	180.03	8.08	-41.7	-44.3	16.7	0.00e+00	0	42	0	0	55	4737
2026-01-26 10:31:02.75	180.07	8.16	-41.8	-44.4	16.6	0.00e+00	0	42	0	0	55	4770
2026-01-26 10:31:03.74	180.11	8.24	-41.9	-44.6	16.4	0.00e+00	0	42	0	0	55	4884
2026-01-26 10:31:04.73	180.15	8.32	-42.2	-44.9	16.1	0.00e+00	0	42	0	0	55	5073
2026-01-26 10:31:05.72	180.20	8.40	-42.6	-45.5	15.5	0.00e+00	0	42	0	0	55	5461
2026-01-26 10:31:06.72	180.24	8.47	-43.2	-46.5	14.7	7.00e-07	0	43	0	0	57	5412
2026-01-26 10:31:07.71	180.28	8.55	-44.0	-47.6	13.6	2.20e-06	0	42	0	0	58	5834
2026-01-26 10:31:08.70	180.32	8.63	-44.6	-48.7	12.5	8.39e-05	0	42	0	0	59	6255
2026-01-26 10:31:09.70	180.36	8.71	-45.2	-50.2	11.0	7.63e-04	0	42	0	0	61	6617
2026-01-26 10:31:10.69	180.40	8.79	-45.7	-51.7	9.5	8.43e-03	0	42	0	0	62	7425
2026-01-26 10:31:11.68	180.45	8.87	-46.3	-53.5	7.6	6.69e-02	0	42	0	0	63	8617
2026-01-26 10:31:12.68	180.49	8.95	-46.6	-55.2	6.2	2.49e-01	0	42	0	0	63	10423
2026-01-26 10:31:13.67	180.53	9.04	-46.9	-56.5	5.2	5.14e-01	0	42	0	0	64	11534
2026-01-26 10:31:14.66	180.57	9.12	-45.3	-50.3	10.7	1.36e+00	0	42	104	0	62	6298
2026-01-26 10:31:15.65	180.62	9.20	-44.7	-48.9	12.4	2.57e-04	0	42	0	0	61	5679
2026-01-26 10:31:16.65	180.66	9.28	-47.2	-60.2	3.9	2.91e-01	0	43	104	0	65	16643
2026-01-26 10:31:17.64	180.70	9.36	-46.9	-55.3	6.0	1.45e+00	0	43	104	0	65	9448
2026-01-26 10:31:18.64	180.75	9.44	-44.5	-48.5	12.7	6.50e-02	0	42	0	0	61	5438
2026-01-26 10:31:19.63	180.79	9.53	-43.7	-47.0	14.3	8.23e-05	0	42	0	0	59	5153
2026-01-26 10:31:20.62	180.84	9.61	-43.8	-47.1	14.2	2.20e-06	0	43	0	0	59	5198
2026-01-26 10:31:21.62	180.88	9.69	-43.8	-46.9	14.4	0.00e+00	0	43	0	0	59	5077
2026-01-26 10:31:22.61	180.93	9.77	-43.6	-46.6	14.7	7.00e-07	0	43	0	0	59	4915
2026-01-26 10:31:23.61	180.97	9.86	-43.5	-46.3	15.0	7.00e-07	0	42	0	0	58	5030
2026-01-26 10:31:24.60	181.02	9.94	-43.4	-46.1	15.2	0.00e+00	0	42	0	0	58	4917
2026-01-26 10:31:25.60	181.06	10.03	-43.2	-45.9	15.4	0.00e+00	0	42	0	0	58	4780
2026-01-26 10:31:26.60	181.11	10.11	-43.1	-45.7	15.6	0.00e+00	0	43	0	0	58	4663
2026-01-26 10:31:27.59	181.15	10.19	-43.0	-45.5	15.8	0.00e+00	0	42	0	0	57	4859
2026-01-26 10:31:28.58	181.20	10.28	-43.1	-45.6	15.7	0.00e+00	0	42	0	0	57	4926
2026-01-26 10:31:29.58	181.25	10.36	-42.8	-45.2	16.1	0.00e+00	0	43	0	0	57	4670
2026-01-26 10:31:30.57	181.29	10.45	-42.5	-44.8	16.6	0.00e+00	0	43	0	0	57	4457
2026-01-26 10:31:31.57	181.34	10.54	-42.2	-44.4	16.9	0.00e+00	0	43	0	0	56	4521
2026-01-26 10:31:32.56	181.39	10.62	-41.6	-43.7	17.4	0.00e+00	0	42	0	0	55	4435
2026-01-26 10:31:33.56	181.44	10.71	-41.4	-43.4	17.5	0.00e+00	0	42	0	0	54	4541
2026-01-26 10:31:34.56	181.49	10.79	-41.2	-43.2	17.9	0.00e+00	0	42	0	0	54	4403
2026-01-26 10:31:35.55	181.53	10.88	-41.1	-43.1	18.0	0.00e+00	0	43	0	0	54	4388
2026-01-26 10:31:36.54	181.58	10.97	-40.8	-42.8	18.2	0.00e+00	0	43	0	0	53	4476
2026-01-26 10:31:37.54	181.63	11.06	-40.8	-42.7	18.3	0.00e+00	0	43	0	0	53	4432
2026-01-26 10:31:38.53	181.68	11.14	-40.8	-42.7	18.3	0.00e+00	0	43	0	0	53	4429
2026-01-26 10:31:39.53	181.73	11.23	-40.6	-42.6	18.5	0.00e+00	0	42	0	0	53	4354
2026-01-26 10:31:40.52	181.78	11.32	-40.6	-42.6	18.5	0.00e+00	0	42	0	0	53	4370
2026-01-26 10:31:41.52	181.83	11.41	-40.7	-42.7	18.4	0.00e+00	0	42	0	0	53	4401
2026-01-26 10:31:42.51	181.88	11.50	-40.6	-42.5	18.5	0.00e+00	0	43	0	0	53	4334
2026-01-26 10:31:43.51	181.93	11.59	-40.6	-42.5	18.5	0.00e+00	0	42	0	0	53	4327
2026-01-26 10:31:44.50	181.98	11.68	-40.7	-42.6	18.5	0.00e+00	0	42	0	0	53	4382
2026-01-26 10:31:45.49	182.03	11.77	-40.5	-42.5	18.6	0.00e+00	0	42	0	0	53	4301
2026-01-26 10:31:46.49	182.08	11.86	-40.5	-42.4	18.6	0.00e+00	0	42	0	0	53	4283
2026-01-26 10:31:47.48	182.13	11.95	-40.6	-42.5	18.6	0.00e+00	0	42	0	0	53	4311
2026-01-26 10:31:48.48	182.18	12.04	-40.5	-42.5	18.6	0.00e+00	0	43	0	0	53	4300
2026-01-26 10:31:49.47	182.24	12.13	-40.5	-42.4	18.7	0.00e+00	0	43	0	0	52	4507
2026-01-26 10:31:50.47	182.29	12.22	-40.4	-42.3	18.7	0.00e+00	0	42	0	0	52	4479
2026-01-26 10:31:51.46	182.34	12.31	-40.5	-42.4	18.7	0.00e+00	0	43	0	0	52	4526
2026-01-26 10:31:52.46	182.40	12.40	-40.4	-42.3	18.8	0.00e+00	0	42	0	0	52	4453
2026-01-26 10:31:53.45	182.45	12.50	-40.4	-42.3	18.7	0.00e+00	0	42	0	0	52	4479
2026-01-26 10:31:54.45	182.50	12.59	-40.4	-42.3	18.8	0.00e+00	0	43	0	0	52	4474
2026-01-26 10:31:55.44	182.56	12.68	-40.4	-42.3	18.8	0.00e+00	0	43	0	0	52	4463
2026-01-26 10:31:56.44	182.61	12.78	-40.4	-42.3	18.8	0.00e+00	0	42	0	0	52	4476
2026-01-26 10:31:57.43	182.67	12.87	-40.4	-42.4	18.7	0.00e+00	0	43	0	0	52	4501
2026-01-26 10:31:58.43	182.72	12.96	-40.5	-42.4	18.6	0.00e+00	0	43	0	0	52	4532
2026-01-26 10:31:59.42	182.78	13.06	-40.4	-42.4	18.7	0.00e+00	0	43	0	0	52	4519
2026-01-26 10:32:00.42	182.83	13.15	-40.2	-42.1	18.9	0.00e+00	0	43	0	0	52	4384
2026-01-26 10:32:01.41	182.89	13.25	-40.2	-42.1	19.0	0.00e+00	0	43	0	0	52	4370
2026-01-26 10:32:02.41	182.94	13.34	-40.2	-42.1	18.9	0.00e+00	0	43	0	0	52	4368
2026-01-26 10:32:03.41	183.00	13.44	-40.2	-42.1	18.9	0.00e+00	0	42	0	0	52	4378
2026-01-26 10:32:04.40	183.06	13.54	-40.2	-42.1	18.9	0.00e+00	0	43	0	0	52	4380
2026-01-26 10:32:05.40	183.12	13.63	-40.1	-41.9	19.1	0.00e+00	0	42	0	0	52	4284
2026-01-26 10:32:06.39	183.17	13.73	-40.1	-41.9	19.1	0.00e+00	0	42	0	0	52	4287
2026-01-26 10:32:07.39	183.23	13.83	-40.1	-41.9	19.1	0.00e+00	0	43	0	0	52	4288
2026-01-26 10:32:08.38	183.29	13.92	-40.0	-41.8	19.2	0.00e+00	0	42	0	0	52	4229
2026-01-26 10:32:09.38	183.35	14.02	-40.1	-41.9	19.2	0.00e+00	0	43	0	0	51	4539
2026-01-26 10:32:10.37	183.41	14.12	-40.1	-41.9	19.2	0.00e+00	0	43	0	0	51	4525
2026-01-26 10:32:11.37	183.47	14.22	-40.1	-41.9	19.2	0.00e+00	0	43	0	0	51	4535
2026-01-26 10:32:12.36	183.53	14.32	-40.1	-41.9	19.2	0.00e+00	0	43	0	0	51	4532
2026-01-26 10:32:13.36	183.59	14.42	-40.1	-41.9	19.2	0.00e+00	0	42	0	0	51	4532
2026-01-26 10:32:14.35	183.65	14.52	-40.0	-41.9	19.2	0.00e+00	0	42	0	0	51	4512
2026-01-26 10:32:15.35	183.71	14.62	-40.0	-41.9	19.2	0.00e+00	0	42	0	0	51	4524
2026-01-26 10:32:16.34	183.77	14.72	-40.1	-42.0	19.1	0.00e+00	0	42	0	0	51	4565
2026-01-26 10:32:17.34	183.83	14.82	-40.1	-42.0	19.1	0.00e+00	0	42	0	0	51	4576
2026-01-26 10:32:18.33	183.90	14.92	-40.1	-42.0	19.2	0.00e+00	0	43	0	0	51	4561
2026-01-26 10:32:19.33	183.96	15.02	-40.1	-42.0	19.1	0.00e+00	0	43	0	0	51	4583
2026-01-26 10:32:20.32	184.02	15.12	-40.2	-42.1	19.1	0.00e+00	0	43	0	0	51	4630
2026-01-26 10:32:21.32	184.09	15.23	-40.1	-42.0	19.2	0.00e+00	0	42	0	0	51	4562
2026-01-26 10:32:22.32	184.15	15.33	-40.0	-41.8	19.3	0.00e+00	0	43	0	0	51	4493
2026-01-26 10:32:23.31	184.21	15.43	-40.1	-41.9	19.2	0.00e+00	0	42	0	0	51	4539
2026-01-26 10:32:24.31	184.28	15.54	-40.1	-41.9	19.2	0.00e+00	0	43	0	0	51	4536
2026-01-26 10:32:25.30	184.34	15.64	-40.1	-41.9	19.3	0.00e+00	0	42	0	0	51	4498
2026-01-26 10:32:26.30	184.41	15.75	-40.1	-41.9	19.3	0.00e+00	0	43	0	0	51	4508
2026-01-26 10:32:27.29	184.48	15.85	-40.1	-41.9	19.3	0.00e+00	0	43	0	0	51	4514
2026-01-26 10:32:28.29	184.54	15.96	-40.0	-41.8	19.3	0.00e+00	0	43	0	0	51	4455
2026-01-26 10:32:29.28	184.61	16.06	-40.0	-41.8	19.4	0.00e+00	0	42	0	0	51	4449
2026-01-26 10:32:30.28	184.68	16.17	-40.0	-41.8	19.3	0.00e+00	0	42	0	0	51	4464
2026-01-26 10:32:31.27	184.74	16.28	-40.1	-41.9	19.3	0.00e+00	0	42	0	0	51	4501
2026-01-26 10:32:32.26	184.81	16.38	-40.0	-41.7	19.4	0.00e+00	0	42	0	0	51	4434
2026-01-26 10:32:33.26	184.88	16.49	-40.0	-41.8	19.4	0.00e+00	0	42	0	0	51	4450
2026-01-26 10:32:34.26	184.95	16.60	-39.9	-41.7	19.5	0.00e+00	0	43	0	0	51	4414
2026-01-26 10:32:35.25	185.02	16.71	-39.9	-41.7	19.5	0.00e+00	0	42	0	0	51	4396
2026-01-26 10:32:36.25	185.09	16.82	-39.9	-41.7	19.5	0.00e+00	0	43	0	0	51	4431
2026-01-26 10:32:37.24	185.16	16.93	-39.8	-41.6	19.5	0.00e+00	0	43	0	0	51	4372
2026-01-26 10:32:38.24	185.23	17.04	-39.9	-41.7	19.5	0.00e+00	0	42	0	0	51	4410
2026-01-26 10:32:39.23	185.31	17.15	-39.9	-41.7	19.5	0.00e+00	0	42	0	0	51	4424
2026-01-26 10:32:40.23	185.38	17.26	-39.9	-41.7	19.5	0.00e+00	0	43	0	0	51	4406
2026-01-26 10:32:41.22	185.45	17.37	-39.9	-41.7	19.5	0.00e+00	0	42	0	0	51	4424
2026-01-26 10:32:42.22	185.52	17.48	-39.9	-41.6	19.5	0.00e+00	0	43	0	0	51	4389
2026-01-26 10:32:43.21	185.60	17.59	-39.9	-41.7	19.4	0.00e+00	0	43	0	0	51	4436
2026-01-26 10:32:44.21	185.67	17.71	-39.9	-41.7	19.5	0.00e+00	0	42	0	0	51	4421
2026-01-26 10:32:45.20	185.75	17.82	-39.9	-41.8	19.5	0.00e+00	0	42	0	0	51	4442
2026-01-26 10:32:46.20	185.82	17.93	-40.1	-41.9	19.3	0.00e+00	0	43	0	0	51	4530
2026-01-26 10:32:47.19	185.90	18.05	-40.0	-41.8	19.4	0.00e+00	0	42	0	0	51	4457
2026-01-26 10:32:48.19	185.97	18.16	-40.0	-41.9	19.3	0.00e+00	0	43	0	0	51	4506
2026-01-26 10:32:49.18	186.05	18.28	-40.1	-41.9	19.3	0.00e+00	0	42	0	0	51	4526
2026-01-26 10:32:50.18	186.13	18.39	-40.0	-41.8	19.4	0.00e+00	0	43	0	0	51	4488
2026-01-26 10:32:51.17	186.21	18.51	-40.1	-41.9	19.3	0.00e+00	0	42	0	0	51	4509
2026-01-26 10:32:52.17	186.29	18.63	-40.0	-41.8	19.3	0.00e+00	0	43	0	0	51	4483
2026-01-26 10:32:53.16	186.37	18.74	-40.2	-42.0	19.2	0.00e+00	0	42	0	0	51	4563
2026-01-26 10:32:54.16	186.45	18.86	-40.1	-42.0	19.2	0.00e+00	0	42	0	0	51	4546
2026-01-26 10:32:55.15	186.53	18.98	-40.2	-42.1	19.1	0.00e+00	0	42	0	0	51	4599
2026-01-26 10:32:56.14	186.61	19.10	-40.2	-42.0	19.2	0.00e+00	0	43	0	0	51	4578
2026-01-26 10:32:57.14	186.69	19.22	-40.2	-42.1	19.1	0.00e+00	0	42	0	0	51	4615
2026-01-26 10:32:58.13	186.77	19.34	-40.3	-42.1	19.1	0.00e+00	0	43	0	0	51	4633
2026-01-26 10:32:59.13	186.85	19.46	-40.3	-42.2	19.0	0.00e+00	0	43	0	0	51	4653
2026-01-26 10:33:00.12	186.94	19.58	-40.3	-42.1	19.0	0.00e+00	0	42	0	0	51	4628
2026-01-26 10:33:01.12	187.02	19.70	-40.3	-42.1	19.0	0.00e+00	0	43	0	0	51	4649
2026-01-26 10:33:02.11	187.11	19.82	-40.3	-42.2	19.0	0.00e+00	0	43	0	0	51	4667
2026-01-26 10:33:03.11	187.19	19.94	-40.4	-42.2	19.0	0.00e+00	0	43	0	0	51	4688
2026-01-26 10:33:04.11	187.28	20.07	-40.3	-42.2	19.0	0.00e+00	0	43	0	0	51	4659
2026-01-26 10:33:05.10	187.37	20.19	-40.2	-42.1	19.1	0.00e+00	0	43	0	0	51	4609
2026-01-26 10:33:06.10	187.45	20.31	-40.3	-42.2	19.0	0.00e+00	0	43	0	0	51	4658
2026-01-26 10:33:07.09	187.54	20.44	-40.3	-42.1	19.1	0.00e+00	0	43	0	0	51	4638
2026-01-26 10:33:08.09	187.63	20.56	-40.2	-42.0	19.1	0.00e+00	0	43	0	0	51	4584
2026-01-26 10:33:09.09	187.72	20.69	-40.0	-41.8	19.4	0.00e+00	0	43	0	0	51	4446
2026-01-26 10:33:10.08	187.81	20.81	-39.9	-41.6	19.5	0.00e+00	0	43	0	0	51	4389
2026-01-26 10:33:11.08	187.90	20.94	-39.7	-41.5	19.6	0.00e+00	0	43	0	0	51	4324
2026-01-26 10:33:12.07	187.99	21.07	-39.6	-41.4	19.7	0.00e+00	0	42	0	0	51	4273
2026-01-26 10:33:13.07	188.09	21.20	-39.5	-41.3	19.8	0.00e+00	0	43	0	0	51	4205
2026-01-26 10:33:14.06	188.18	21.33	-39.4	-41.2	19.9	0.00e+00	0	43	0	0	50	4400
2026-01-26 10:33:15.06	188.27	21.46	-39.4	-41.1	20.0	0.00e+00	0	43	0	0	50	4373
2026-01-26 10:33:16.05	188.37	21.58	-39.4	-41.1	20.0	0.00e+00	0	43	0	0	50	4359
2026-01-26 10:33:17.05	188.46	21.72	-39.4	-41.1	20.0	0.00e+00	0	42	0	0	50	4383
2026-01-26 10:33:18.04	188.56	21.85	-39.4	-41.1	20.0	0.00e+00	0	42	0	0	50	4383
2026-01-26 10:33:19.03	188.66	21.98	-39.3	-41.0	20.1	0.00e+00	0	42	0	0	50	4317
2026-01-26 10:33:20.03	188.75	22.11	-39.1	-40.8	20.3	0.00e+00	0	42	0	0	50	4210
2026-01-26 10:33:21.02	188.85	22.24	-38.9	-40.6	20.5	0.00e+00	0	42	0	0	49	4361
2026-01-26 10:33:22.02	188.95	22.37	-39.0	-40.6	20.5	0.00e+00	0	43	0	0	49	4373
2026-01-26 10:33:23.01	189.05	22.51	-38.9	-40.5	20.5	0.00e+00	0	42	0	0	49	4338
2026-01-26 10:33:24.00	189.15	22.64	-38.9	-40.6	20.5	0.00e+00	0	42	0	0	49	4342
2026-01-26 10:33:25.00	189.25	22.78	-38.8	-40.5	20.5	0.00e+00	0	43	0	0	49	4301
2026-01-26 10:33:25.99	189.36	22.91	-38.8	-40.5	20.6	0.00e+00	0	42	0	0	49	4300
2026-01-26 10:33:26.99	189.46	23.05	-38.8	-40.4	20.6	0.00e+00	0	43	0	0	49	4288
2026-01-26 10:33:27.99	189.57	23.19	-38.7	-40.4	20.7	0.00e+00	0	43	0	0	49	4246
2026-01-26 10:33:28.98	189.67	23.32	-38.8	-40.4	20.6	0.00e+00	0	43	0	0	49	4276
2026-01-26 10:33:29.98	189.78	23.46	-38.8	-40.4	20.7	0.00e+00	0	43	0	0	49	4281
2026-01-26 10:33:30.97	189.89	23.60	-38.8	-40.4	20.7	0.00e+00	0	43	0	0	49	4273
2026-01-26 10:33:31.96	189.99	23.74	-38.8	-40.5	20.6	0.00e+00	0	43	0	0	49	4309
2026-01-26 10:33:32.96	190.10	23.88	-38.9	-40.5	20.6	0.00e+00	0	43	0	0	49	4307
2026-01-26 10:33:33.96	190.21	24.02	-38.9	-40.6	20.6	0.00e+00	0	43	0	0	49	4357
2026-01-26 10:33:34.95	190.32	24.16	-39.0	-40.6	20.5	0.00e+00	0	43	0	0	49	4369
2026-01-26 10:33:35.95	190.44	24.31	-39.0	-40.6	20.5	0.00e+00	0	43	0	0	49	4381
2026-01-26 10:33:36.94	190.55	24.45	-39.0	-40.6	20.5	0.00e+00	0	43	0	0	49	4367
2026-01-26 10:33:37.94	190.66	24.59	-39.0	-40.6	20.5	0.00e+00	0	43	0	0	49	4368
2026-01-26 10:33:38.93	190.78	24.74	-39.0	-40.7	20.5	0.00e+00	0	43	0	0	49	4392
2026-01-26 10:33:39.93	190.89	24.88	-39.2	-40.8	20.4	0.00e+00	0	43	0	0	49	4485
2026-01-26 10:33:40.92	191.01	25.03	-39.1	-40.8	20.4	0.00e+00	0	43	0	0	49	4448
2026-01-26 10:33:41.92	191.13	25.17	-39.2	-40.9	20.3	0.00e+00	0	43	0	0	49	4510
2026-01-26 10:33:42.91	191.25	25.32	-39.3	-41.0	20.2	0.00e+00	0	43	0	0	49	4566
2026-01-26 10:33:43.91	191.37	25.47	-39.2	-40.9	20.4	0.00e+00	0	42	0	0	49	4507
2026-01-26 10:33:44.91	191.49	25.62	-39.3	-41.0	20.2	0.00e+00	0	43	0	0	49	4568
2026-01-26 10:33:45.90	191.61	25.77	-39.4	-41.0	20.2	0.00e+00	0	43	0	0	49	4578
2026-01-26 10:33:46.90	191.74	25.92	-39.4	-41.0	20.2	0.00e+00	0	43	0	0	49	4584
2026-01-26 10:33:47.89	191.86	26.07	-39.4	-41.1	20.2	0.00e+00	0	43	0	0	49	4615
2026-01-26 10:33:48.89	191.99	26.22	-39.5	-41.2	20.1	0.00e+00	0	43	0	0	49	4674
2026-01-26 10:33:49.89	192.12	26.37	-39.6	-41.3	20.0	0.00e+00	0	43	0	0	49	4712
2026-01-26 10:33:50.88	192.24	26.52	-39.6	-41.3	20.0	0.00e+00	0	43	0	0	49	4715
2026-01-26 10:33:51.88	192.37	26.68	-39.7	-41.4	19.9	0.00e+00	0	42	0	0	50	4533
2026-01-26 10:33:52.87	192.50	26.83	-39.8	-41.5	19.8	0.00e+00	0	43	0	0	50	4575
2026-01-26 10:33:53.87	192.64	26.99	-39.8	-41.6	19.7	0.00e+00	0	43	0	0	50	4601
2026-01-26 10:33:54.86	192.77	27.14	-39.9	-41.6	19.7	0.00e+00	0	43	0	0	50	4641
2026-01-26 10:33:55.86	192.90	27.30	-40.0	-41.7	19.6	0.00e+00	0	43	0	0	50	4691
2026-01-26 10:33:56.85	193.04	27.45	-40.0	-41.7	19.6	0.00e+00	0	43	0	0	50	4668
2026-01-26 10:33:57.84	193.17	27.61	-40.1	-41.8	19.4	0.00e+00	0	43	0	0	50	4732
2026-01-26 10:33:58.84	193.31	27.77	-40.2	-41.9	19.3	0.00e+00	0	42	0	0	51	4537
2026-01-26 10:33:59.83	193.45	27.93	-40.2	-42.0	19.2	0.00e+00	0	43	0	0	51	4561
2026-01-26 10:34:00.83	193.59	28.09	-40.4	-42.2	19.1	0.00e+00	0	42	0	0	51	4686
2026-01-26 10:34:01.82	193.74	28.25	-40.4	-42.2	19.1	0.00e+00	0	43	0	0	51	4676
2026-01-26 10:34:02.82	193.88	28.41	-40.3	-42.1	19.2	0.00e+00	0	43	0	0	51	4625
2026-01-26 10:34:03.81	194.02	28.57	-40.3	-42.1	19.2	0.00e+00	0	43	0	0	51	4621
2026-01-26 10:34:04.81	194.17	28.74	-40.3	-42.1	19.2	0.00e+00	0	43	0	0	51	4624
2026-01-26 10:34:05.81	194.32	28.90	-40.4	-42.1	19.2	0.00e+00	0	42	0	0	51	4647
2026-01-26 10:34:06.80	194.47	29.06	-40.4	-42.1	19.2	0.00e+00	0	42	0	0	51	4630
2026-01-26 10:34:07.79	194.62	29.23	-40.4	-42.1	19.2	0.00e+00	0	42	0	0	51	4636
2026-01-26 10:34:08.79	194.77	29.39	-40.3	-42.0	19.3	0.00e+00	0	43	0	0	51	4589
2026-01-26 10:34:09.78	194.93	29.56	-40.1	-41.9	19.4	0.00e+00	0	43	0	0	51	4501
2026-01-26 10:34:10.78	195.08	29.73	-40.0	-41.8	19.5	0.00e+00	0	42	0	0	51	4453
2026-01-26 10:34:11.77	195.24	29.90	-40.1	-41.9	19.4	0.00e+00	0	43	0	0	51	4512
2026-01-26 10:34:12.77	195.40	30.07	-40.1	-41.9	19.4	0.00e+00	0	43	0	0	51	4499
2026-01-26 10:34:13.76	195.56	30.23	-40.1	-41.9	19.5	0.00e+00	0	42	0	0	51	4503
2026-01-26 10:34:14.76	195.72	30.41	-40.2	-41.9	19.4	0.00e+00	0	42	0	0	51	4543
2026-01-26 10:34:15.75	195.89	30.58	-40.0	-41.8	19.6	0.00e+00	0	43	0	0	51	4450
2026-01-26 10:34:16.75	196.05	30.75	-40.1	-41.9	19.5	0.00e+00	0	43	0	0	51	4517
2026-01-26 10:34:17.75	196.22	30.92	-40.0	-41.8	19.5	0.00e+00	0	42	0	0	51	4466
2026-01-26 10:34:18.74	196.39	31.10	-40.0	-41.8	19.6	0.00e+00	0	43	0	0	51	4459
2026-01-26 10:34:19.74	196.56	31.27	-39.9	-41.6	19.7	0.00e+00	0	43	0	0	51	4385
2026-01-26 10:34:20.73	196.73	31.44	-39.8	-41.6	19.7	0.00e+00	0	42	0	0	51	4349
2026-01-26 10:34:21.73	196.91	31.62	-39.7	-41.4	19.9	0.00e+00	0	43	0	0	51	4273
2026-01-26 10:34:22.72	197.08	31.80	-39.7	-41.5	19.9	0.00e+00	0	43	0	0	51	4302
2026-01-26 10:34:23.72	197.26	31.98	-39.7	-41.4	19.9	0.00e+00	0	43	0	0	51	4279
2026-01-26 10:34:24.71	197.44	32.15	-39.8	-41.5	19.9	0.00e+00	0	42	0	0	51	4321
2026-01-26 10:34:25.71	197.62	32.33	-39.8	-41.5	19.9	0.00e+00	0	43	0	0	51	4331
2026-01-26 10:34:26.70	197.81	32.51	-39.8	-41.5	19.8	0.00e+00	0	43	0	0	51	4334
2026-01-26 10:34:27.69	197.99	32.69	-39.8	-41.5	19.9	0.00e+00	0	42	0	0	51	4298
2026-01-26 10:34:28.69	198.18	32.87	-39.9	-41.6	19.8	0.00e+00	0	42	0	0	51	4356
2026-01-26 10:34:29.68	198.37	33.05	-39.8	-41.6	19.8	0.00e+00	0	43	0	0	51	4341
2026-01-26 10:34:30.68	198.56	33.24	-40.0	-41.7	19.7	0.00e+00	0	43	0	0	51	4416
2026-01-26 10:34:31.67	198.76	33.42	-40.0	-41.7	19.6	0.00e+00	0	43	0	0	51	4441
2026-01-26 10:34:32.67	198.95	33.61	-40.3	-42.0	19.4	0.00e+00	0	43	0	0	51	4592
2026-01-26 10:34:33.66	199.15	33.79	-40.4	-42.2	19.2	0.00e+00	0	43	0	0	51	4686
2026-01-26 10:34:34.66	199.35	33.98	-40.7	-42.5	19.0	0.00e+00	0	43	0	0	51	4832
2026-01-26 10:34:35.65	199.56	34.16	-40.8	-42.6	18.8	0.00e+00	0	43	0	0	52	4650
2026-01-26 10:34:36.65	199.76	34.35	-41.0	-42.9	18.5	0.00e+00	0	43	0	0	52	4787
2026-01-26 10:34:37.64	199.97	34.54	-41.2	-43.1	18.3	0.00e+00	0	43	0	0	53	4619
2026-01-26 10:34:38.64	200.18	34.73	-41.4	-43.3	18.1	0.00e+00	0	43	0	0	53	4738
2026-01-26 10:34:39.63	200.39	34.91	-41.5	-43.4	18.1	0.00e+00	0	43	0	0	53	4782
2026-01-26 10:34:40.62	200.61	35.10	-41.6	-43.6	17.9	0.00e+00	0	43	0	0	53	4891
2026-01-26 10:34:41.62	200.83	35.29	-41.6	-43.6	17.9	0.00e+00	0	42	0	0	53	4880
2026-01-26 10:34:42.61	201.04	35.49	-41.7	-43.7	17.8	0.00e+00	0	43	0	0	54	4671
2026-01-26 10:34:43.61	201.27	35.68	-41.7	-43.6	17.9	0.00e+00	0	43	0	0	54	4630
2026-01-26 10:34:44.60	201.49	35.87	-41.7	-43.6	17.9	0.00e+00	0	43	0	0	54	4628
2026-01-26 10:34:45.60	201.72	36.06	-41.6	-43.6	17.9	0.00e+00	0	43	0	0	54	4619
2026-01-26 10:34:46.59	201.95	36.26	-41.6	-43.5	18.0	0.00e+00	0	43	0	0	54	4589
2026-01-26 10:34:47.59	202.18	36.45	-41.7	-43.6	17.9	0.00e+00	0	42	0	0	54	4633
2026-01-26 10:34:48.59	202.42	36.65	-41.6	-43.6	18.0	0.00e+00	0	43	0	0	54	4629
2026-01-26 10:34:49.58	202.66	36.84	-41.7	-43.7	17.9	0.00e+00	0	43	0	0	54	4655
2026-01-26 10:34:50.58	202.90	37.04	-41.8	-43.8	17.8	0.00e+00	0	43	0	0	54	4741
2026-01-26 10:34:51.57	203.15	37.24	-41.7	-43.6	17.9	0.00e+00	0	43	0	0	54	4648
2026-01-26 10:34:52.57	203.39	37.44	-41.5	-43.4	18.1	0.00e+00	0	43	0	0	54	4535
2026-01-26 10:34:53.57	203.65	37.64	-41.4	-43.3	18.3	0.00e+00	0	43	0	0	54	4452
2026-01-26 10:34:54.56	203.90	37.84	-41.4	-43.3	18.2	0.00e+00	0	43	0	0	54	4451
2026-01-26 10:34:55.56	204.16	38.04	-41.4	-43.3	18.2	0.00e+00	0	43	0	0	54	4457
2026-01-26 10:34:56.55	204.41	38.24	-41.5	-43.4	18.1	0.00e+00	0	43	0	0	54	4502
2026-01-26 10:34:57.55	204.68	38.44	-41.6	-43.6	17.8	0.00e+00	0	42	0	0	54	4606
2026-01-26 10:34:58.54	204.94	38.64	-41.9	-43.9	17.4	0.00e+00	0	43	0	0	54	4799
2026-01-26 10:34:59.54	205.21	38.84	-42.0	-44.1	17.2	0.00e+00	0	43	0	0	54	4906
2026-01-26 10:35:00.53	205.48	39.04	-41.9	-44.0	17.3	0.00e+00	0	43	0	0	54	4845
2026-01-26 10:35:01.53	205.76	39.24	-42.1	-44.2	17.2	0.00e+00	0	43	0	0	54	4935
2026-01-26 10:35:02.52	206.04	39.45	-42.2	-44.3	17.1	0.00e+00	0	43	0	0	55	4758
2026-01-26 10:35:03.52	206.32	39.65	-42.2	-44.3	17.2	0.00e+00	0	43	0	0	55	4758
2026-01-26 10:35:04.51	206.61	39.85	-42.3	-44.4	17.2	0.00e+00	0	43	0	0	55	4785
2026-01-26 10:35:05.50	206.90	40.06	-42.3	-44.3	17.2	0.00e+00	0	43	0	0	55	4753
2026-01-26 10:35:06.50	207.19	40.26	-41.9	-43.9	17.6	0.00e+00	0	43	0	0	55	4530
2026-01-26 10:35:07.49	207.49	40.47	-41.8	-43.8	17.7	0.00e+00	0	43	0	0	55	4463
2026-01-26 10:35:08.49	207.79	40.67	-41.9	-43.9	17.6	0.00e+00	0	43	0	0	55	4539
2026-01-26 10:35:09.48	208.09	40.88	-41.9	-43.9	17.7	0.00e+00	0	43	0	0	55	4504
2026-01-26 10:35:10.48	208.40	41.09	-41.9	-43.8	17.7	0.00e+00	0	43	0	0	55	4485
2026-01-26 10:35:11.47	208.71	41.29	-41.9	-43.9	17.6	0.00e+00	0	42	0	0	55	4527
2026-01-26 10:35:12.47	209.03	41.50	-41.9	-43.9	17.7	0.00e+00	0	43	0	0	55	4533
2026-01-26 10:35:13.46	209.35	41.70	-42.0	-44.0	17.6	0.00e+00	0	43	0	0	55	4547
2026-01-26 10:35:14.45	209.67	41.91	-41.7	-43.7	17.8	0.00e+00	0	42	0	0	55	4405
2026-01-26 10:35:15.45	210.00	42.12	-41.8	-43.8	17.7	0.00e+00	0	43	0	0	55	4452
2026-01-26 10:35:16.45	210.34	42.33	-41.9	-43.9	17.6	0.00e+00	0	43	0	0	55	4521
2026-01-26 10:35:17.44	210.67	42.53	-42.0	-44.0	17.6	0.00e+00	0	43	0	0	55	4572
2026-01-26 10:35:18.44	211.01	42.74	-41.9	-43.9	17.7	0.00e+00	0	43	0	0	55	4508
2026-01-26 10:35:19.43	211.36	42.95	-42.1	-44.2	17.4	0.00e+00	0	43	0	0	55	4668
2026-01-26 10:35:20.43	211.71	43.16	-42.3	-44.5	17.1	0.00e+00	0	43	0	0	55	4821
2026-01-26 10:35:21.42	212.06	43.36	-42.8	-45.0	16.8	0.00e+00	0	43	0	0	56	4861
2026-01-26 10:35:22.42	212.42	43.57	-43.1	-45.4	16.4	0.00e+00	0	43	0	0	56	5044
2026-01-26 10:35:23.41	212.78	43.78	-43.1	-45.3	16.5	0.00e+00	0	43	0	0	57	4746
2026-01-26 10:35:24.41	213.15	43.98	-42.8	-45.0	16.9	0.00e+00	0	43	0	0	57	4547
2026-01-26 10:35:25.40	213.53	44.19	-42.7	-44.9	16.9	0.00e+00	0	43	0	0	57	4510
2026-01-26 10:35:26.40	213.91	44.40	-42.7	-44.8	17.0	0.00e+00	0	43	0	0	57	4468
2026-01-26 10:35:27.39	214.29	44.60	-42.5	-44.6	17.1	0.00e+00	0	43	0	0	57	4387
2026-01-26 10:35:28.39	214.68	44.81	-42.7	-44.8	17.0	0.00e+00	0	43	0	0	57	4456
2026-01-26 10:35:29.39	215.07	45.02	-42.4	-44.5	17.2	0.00e+00	0	43	0	0	56	4573
2026-01-26 10:35:30.38	215.47	45.22	-42.3	-44.3	17.4	0.00e+00	0	43	0	0	56	4486
2026-01-26 10:35:31.37	215.87	45.42	-42.1	-44.0	17.7	0.00e+00	0	43	0	0	56	4337
2026-01-26 10:35:32.37	216.28	45.63	-41.7	-43.7	17.9	0.00e+00	0	43	0	0	55	4416
2026-01-26 10:35:33.36	216.69	45.83	-41.5	-43.4	18.2	0.00e+00	0	43	0	0	55	4253
2026-01-26 10:35:34.36	217.11	46.03	-41.5	-43.4	18.2	0.00e+00	0	43	0	0	54	4507
2026-01-26 10:35:35.35	217.53	46.24	-41.5	-43.4	18.2	0.00e+00	0	43	0	0	54	4531
2026-01-26 10:35:36.35	217.96	46.44	-41.5	-43.4	18.2	0.00e+00	0	43	0	0	54	4518
2026-01-26 10:35:37.34	218.39	46.64	-41.6	-43.5	18.1	0.00e+00	0	43	0	0	54	4593
2026-01-26 10:35:38.34	218.84	46.84	-41.8	-43.7	17.9	0.00e+00	0	43	0	0	54	4691
2026-01-26 10:35:39.33	219.28	47.04	-42.0	-43.9	17.6	2.36e-05	0	43	0	0	54	4801
2026-01-26 10:35:40.33	219.73	47.24	-41.9	-43.8	17.6	0.00e+00	0	43	0	0	54	4751
2026-01-26 10:35:41.32	220.19	47.43	-42.0	-43.9	17.4	0.00e+00	0	43	0	0	54	4811
2026-01-26 10:35:42.32	220.65	47.63	-42.0	-44.0	17.4	0.00e+00	0	43	0	0	54	4855
2026-01-26 10:35:43.31	221.12	47.82	-42.0	-44.0	17.4	0.00e+00	0	43	0	0	54	4870
2026-01-26 10:35:44.30	221.59	48.02	-42.1	-44.1	17.4	0.00e+00	0	43	0	0	54	4890
2026-01-26 10:35:45.30	222.07	48.21	-42.1	-44.1	17.4	0.00e+00	0	43	0	0	55	4650
2026-01-26 10:35:46.29	222.56	48.40	-42.2	-44.2	17.3	0.00e+00	0	42	0	0	55	4688
2026-01-26 10:35:47.29	223.05	48.59	-42.3	-44.3	17.2	0.00e+00	0	43	0	0	55	4733
2026-01-26 10:35:48.28	223.55	48.78	-42.4	-44.5	16.9	0.00e+00	0	42	0	0	55	4834
2026-01-26 10:35:49.28	224.05	48.97	-42.3	-44.3	17.0	0.00e+00	0	43	0	0	55	4749
2026-01-26 10:35:50.27	224.56	49.15	-42.0	-44.0	17.5	0.00e+00	0	43	0	0	55	4547
2026-01-26 10:35:51.27	225.08	49.33	-41.5	-43.5	18.0	0.00e+00	0	43	0	0	55	4296
2026-01-26 10:35:52.26	225.60	49.52	-41.6	-43.5	18.0	0.00e+00	0	43	0	0	55	4316
2026-01-26 10:35:53.25	226.13	49.70	-41.7	-43.7	17.9	0.00e+00	0	43	0	0	55	4395
2026-01-26 10:35:54.25	226.66	49.87	-42.0	-44.1	17.5	0.00e+00	0	43	0	0	55	4601
2026-01-26 10:35:55.25	227.21	50.05	-42.0	-44.0	17.5	0.00e+00	0	43	0	0	55	4586
2026-01-26 10:35:56.24	227.75	50.22	-41.8	-43.7	17.8	0.00e+00	0	43	0	0	55	4429
2026-01-26 10:35:57.24	228.31	50.40	-41.6	-43.5	18.1	0.00e+00	0	43	0	0	55	4308
2026-01-26 10:35:58.23	228.87	50.57	-41.3	-43.1	18.3	0.00e+00	0	43	0	0	54	4387
2026-01-26 10:35:59.23	229.43	50.74	-41.3	-43.2	18.3	0.00e+00	0	43	0	0	54	4413
2026-01-26 10:36:00.22	230.00	50.90	-41.3	-43.1	18.4	0.00e+00	0	43	0	0	54	4389
2026-01-26 10:36:01.22	230.59	51.06	-41.3	-43.1	18.5	0.00e+00	0	43	0	0	54	4378
2026-01-26 10:36:02.21	231.17	51.22	-41.0	-42.8	18.7	0.00e+00	0	43	0	0	54	4210
2026-01-26 10:36:03.21	231.76	51.38	-40.6	-42.4	19.0	0.00e+00	0	43	0	0	53	4267
2026-01-26 10:36:04.20	232.35	51.54	-40.8	-42.6	18.9	0.00e+00	0	43	0	0	53	4341
2026-01-26 10:36:05.20	232.96	51.69	-40.8	-42.6	18.9	0.00e+00	0	43	0	0	53	4381
2026-01-26 10:36:06.19	233.57	51.84	-40.6	-42.4	19.1	0.00e+00	0	43	0	0	53	4280
2026-01-26 10:36:07.18	234.18	51.99	-40.7	-42.5	19.0	0.00e+00	0	43	0	0	53	4300
2026-01-26 10:36:08.18	234.80	52.13	-40.6	-42.4	19.0	0.00e+00	0	43	0	0	53	4275
2026-01-26 10:36:09.17	235.43	52.27	-40.6	-42.4	19.0	0.00e+00	0	42	0	0	53	4268
2026-01-26 10:36:10.17	236.06	52.41	-40.8	-42.6	18.9	0.00e+00	0	43	0	0	53	4368
2026-01-26 10:36:11.16	236.70	52.54	-40.8	-42.7	18.9	0.00e+00	0	43	0	0	53	4394
2026-01-26 10:36:12.15	237.34	52.67	-40.7	-42.5	19.0	0.00e+00	0	43	0	0	53	4325
2026-01-26 10:36:13.15	237.99	52.80	-40.7	-42.5	19.0	0.00e+00	0	43	0	0	53	4309
2026-01-26 10:36:14.14	238.65	52.93	-40.7	-42.6	18.9	0.00e+00	0	42	0	0	53	4345
2026-01-26 10:36:15.14	239.31	53.05	-40.9	-42.8	18.6	0.00e+00	0	43	0	0	53	4449
2026-01-26 10:36:16.13	239.97	53.17	-41.1	-42.9	18.5	0.00e+00	0	43	0	0	53	4539
2026-01-26 10:36:17.12	240.64	53.28	-40.8	-42.7	18.9	0.00e+00	0	43	0	0	53	4393
2026-01-26 10:36:18.12	241.32	53.39	-40.3	-42.1	19.4	0.00e+00	0	43	0	0	52	4362
2026-01-26 10:36:19.11	242.00	53.50	-40.4	-42.2	19.2	0.00e+00	0	43	0	0	52	4412
2026-01-26 10:36:20.11	242.69	53.60	-40.9	-42.7	18.4	0.00e+00	0	43	0	0	52	4688
2026-01-26 10:36:21.10	243.38	53.70	-41.3	-43.3	17.8	0.00e+00	0	43	0	0	53	4709
2026-01-26 10:36:22.10	244.08	53.79	-41.4	-43.4	18.0	0.00e+00	0	43	0	0	53	4778
2026-01-26 10:36:23.09	244.78	53.88	-40.9	-42.7	18.6	0.00e+00	0	43	0	0	53	4433
2026-01-26 10:36:24.09	245.49	53.97	-40.7	-42.5	18.8	0.00e+00	0	43	0	0	53	4305
2026-01-26 10:36:25.08	246.19	54.05	-40.9	-42.7	18.4	0.00e+00	0	43	0	0	53	4437
2026-01-26 10:36:26.08	246.91	54.13	-41.2	-43.1	18.3	0.00e+00	0	43	0	0	53	4600
2026-01-26 10:36:27.07	247.62	54.20	-40.7	-42.6	18.9	0.00e+00	0	43	0	0	53	4346
2026-01-26 10:36:28.07	248.34	54.27	-40.2	-41.9	19.4	0.00e+00	0	42	0	0	52	4281
2026-01-26 10:36:29.06	249.06	54.34	-40.2	-41.9	19.4	0.00e+00	0	42	0	0	52	4260
2026-01-26 10:36:30.06	249.79	54.40	-40.4	-42.2	19.2	0.00e+00	0	43	0	0	52	4392
2026-01-26 10:36:31.05	250.52	54.45	-40.4	-42.1	19.3	0.00e+00	0	43	0	0	52	4384
2026-01-26 10:36:32.05	251.26	54.50	-40.3	-42.0	19.4	0.00e+00	0	42	0	0	52	4330
2026-01-26 10:36:33.04	251.99	54.55	-40.3	-42.0	19.4	0.00e+00	0	43	0	0	52	4340
2026-01-26 10:36:34.03	252.72	54.59	-40.3	-42.0	19.4	0.00e+00	0	43	0	0	52	4339
2026-01-26 10:36:35.03	253.46	54.63	-40.6	-42.4	19.1	0.00e+00	0	43	0	0	52	4528
2026-01-26 10:36:36.03	254.21	54.66	-40.6	-42.4	19.2	0.00e+00	0	43	0	0	52	4495
2026-01-26 10:36:37.02	254.95	54.69	-40.5	-42.3	19.2	0.00e+00	0	43	0	0	52	4458
2026-01-26 10:36:38.02	255.69	54.72	-40.3	-42.0	19.4	0.00e+00	0	43	0	0	52	4309
2026-01-26 10:36:39.01	256.43	54.73	-40.2	-41.9	19.3	0.00e+00	0	43	0	0	52	4287
2026-01-26 10:36:40.01	257.18	54.75	-40.5	-42.3	19.0	0.00e+00	0	43	0	0	52	4459
2026-01-26 10:36:41.00	257.93	54.76	-40.4	-42.2	19.3	0.00e+00	0	43	0	0	52	4397
2026-01-26 10:36:42.00	258.68	54.76	-40.2	-42.0	19.5	0.00e+00	0	43	0	0	52	4302
2026-01-26 10:36:42.99	259.42	54.76	-40.4	-42.2	19.2	0.00e+00	0	43	0	0	52	4423
2026-01-26 10:36:43.99	260.17	54.76	-40.8	-42.6	18.7	0.00e+00	0	43	0	0	52	4642
2026-01-26 10:36:44.98	260.91	54.75	-40.9	-42.8	18.6	0.00e+00	0	43	0	0	52	4716
2026-01-26 10:36:45.98	261.66	54.73	-40.7	-42.6	18.8	0.00e+00	0	43	0	0	52	4612
2026-01-26 10:36:46.97	262.40	54.71	-40.6	-42.4	18.9	0.00e+00	0	43	0	0	52	4506
2026-01-26 10:36:47.97	263.15	54.69	-40.8	-42.7	18.4	0.00e+00	0	43	0	0	52	4683
2026-01-26 10:36:48.96	263.89	54.66	-41.1	-43.0	18.3	0.00e+00	0	43	0	0	52	4851
2026-01-26 10:36:49.95	264.62	54.63	-41.2	-43.1	18.4	0.00e+00	0	43	0	0	53	4649
2026-01-26 10:36:50.95	265.36	54.59	-41.0	-42.8	18.7	0.00e+00	0	43	0	0	53	4471
2026-01-26 10:36:51.94	266.10	54.55	-40.4	-42.2	19.3	0.00e+00	0	43	0	0	52	4396
2026-01-26 10:36:52.94	266.83	54.50	-40.3	-42.0	19.3	0.00e+00	0	43	0	0	52	4336
2026-01-26 10:36:53.93	267.56	54.45	-40.2	-41.9	19.3	0.00e+00	0	43	0	0	52	4291
2026-01-26 10:36:54.93	268.29	54.39	-40.3	-42.0	19.3	0.00e+00	0	43	0	0	52	4314
2026-01-26 10:36:55.92	269.02	54.33	-40.5	-42.2	19.2	0.00e+00	0	42	0	0	52	4426
2026-01-26 10:36:56.92	269.74	54.26	-40.6	-42.4	19.0	0.00e+00	0	42	0	0	52	4497
2026-01-26 10:36:57.91	270.46	54.19	-40.7	-42.6	18.8	0.00e+00	0	43	0	0	52	4613
2026-01-26 10:36:58.91	271.18	54.12	-40.6	-42.5	18.9	0.00e+00	0	43	0	0	52	4557
2026-01-26 10:36:59.90	271.88	54.04	-40.2	-41.9	19.5	0.00e+00	0	43	0	0	52	4259
2026-01-26 10:37:00.90	272.60	53.96	-40.1	-41.8	19.6	0.00e+00	0	43	0	0	51	4464
2026-01-26 10:37:01.89	273.30	53.87	-40.2	-41.9	19.4	0.00e+00	0	43	0	0	51	4523
2026-01-26 10:37:02.89	274.00	53.78	-40.3	-42.0	19.3	0.00e+00	0	43	0	0	51	4580
2026-01-26 10:37:03.88	274.69	53.69	-40.5	-42.2	19.3	0.00e+00	0	43	0	0	51	4697
2026-01-26 10:37:04.88	275.38	53.59	-40.7	-42.5	19.0	0.00e+00	0	43	0	0	52	4554
2026-01-26 10:37:05.87	276.07	53.48	-41.0	-42.9	18.7	7.00e-07	0	43	0	0	52	4762
2026-01-26 10:37:06.87	276.75	53.38	-40.9	-42.7	18.9	0.00e+00	0	43	0	0	52	4678
2026-01-26 10:37:07.86	277.42	53.27	-40.8	-42.6	18.9	0.00e+00	0	43	0	0	52	4623
2026-01-26 10:37:08.86	278.10	53.15	-40.9	-42.7	18.8	0.00e+00	0	43	0	0	52	4683
2026-01-26 10:37:09.85	278.76	53.04	-41.0	-42.8	18.8	0.00e+00	0	43	0	0	52	4749
2026-01-26 10:37:10.85	279.42	52.91	-40.8	-42.6	18.9	0.00e+00	0	43	0	0	52	4628
2026-01-26 10:37:11.84	280.07	52.79	-40.9	-42.7	18.9	0.00e+00	0	43	0	0	52	4682
2026-01-26 10:37:12.84	280.72	52.66	-40.5	-42.4	19.2	0.00e+00	0	43	0	0	52	4494
2026-01-26 10:37:13.84	281.37	52.53	-40.4	-42.2	19.3	0.00e+00	0	43	0	0	52	4395
2026-01-26 10:37:14.83	282.00	52.40	-40.4	-42.2	19.1	0.00e+00	0	43	0	0	52	4429
2026-01-26 10:37:15.83	282.64	52.26	-40.4	-42.2	19.1	0.00e+00	0	43	0	0	52	4402
2026-01-26 10:37:16.82	283.26	52.12	-40.6	-42.4	18.9	0.00e+00	0	43	0	0	52	4523
2026-01-26 10:37:17.81	283.87	51.97	-41.0	-42.8	18.7	0.00e+00	0	43	0	0	52	4744
2026-01-26 10:37:18.81	284.49	51.83	-41.4	-43.3	18.2	0.00e+00	0	43	0	0	53	4737
2026-01-26 10:37:19.80	285.10	51.68	-41.8	-43.8	17.8	0.00e+00	0	43	0	0	54	4727
2026-01-26 10:37:20.80	285.70	51.52	-41.8	-43.8	17.7	0.00e+00	0	42	0	0	54	4729
2026-01-26 10:37:21.79	286.29	51.37	-42.0	-44.0	17.5	0.00e+00	0	42	0	0	54	4863
2026-01-26 10:37:22.79	286.88	51.21	-42.1	-44.2	17.5	0.00e+00	0	43	0	0	54	4937
2026-01-26 10:37:23.78	287.46	51.05	-41.9	-43.9	17.8	0.00e+00	0	43	0	0	54	4790
2026-01-26 10:37:24.77	288.04	50.89	-41.2	-43.1	18.6	0.00e+00	0	42	0	0	54	4366
2026-01-26 10:37:25.77	288.61	50.72	-41.2	-43.0	18.6	0.00e+00	0	42	0	0	54	4337
2026-01-26 10:37:26.76	289.17	50.56	-41.2	-43.1	18.5	0.00e+00	0	43	0	0	54	4359
2026-01-26 10:37:27.76	289.73	50.38	-41.5	-43.4	18.3	0.00e+00	0	43	0	0	54	4517
2026-01-26 10:37:28.76	290.29	50.21	-41.5	-43.4	18.3	0.00e+00	0	43	0	0	54	4531
2026-01-26 10:37:29.75	290.83	50.04	-41.3	-43.1	18.4	0.00e+00	0	43	0	0	54	4388
2026-01-26 10:37:30.74	291.37	49.86	-41.4	-43.3	18.2	0.00e+00	0	43	0	0	54	4459
2026-01-26 10:37:31.74	291.90	49.69	-41.2	-43.1	18.5	0.00e+00	0	43	0	0	54	4371
2026-01-26 10:37:32.73	292.42	49.51	-41.1	-42.9	18.7	0.00e+00	0	43	0	0	54	4289
2026-01-26 10:37:33.73	292.95	49.32	-41.3	-43.1	18.5	0.00e+00	0	43	0	0	54	4385
2026-01-26 10:37:34.72	293.46	49.14	-41.7	-43.6	18.1	0.00e+00	0	43	0	0	54	4640
2026-01-26 10:37:35.72	293.97	48.96	-42.0	-44.0	17.7	0.00e+00	0	42	0	0	54	4860
2026-01-26 10:37:36.72	294.48	48.77	-42.1	-44.1	17.5	0.00e+00	0	43	0	0	54	4890
2026-01-26 10:37:37.71	294.97	48.58	-41.9	-43.9	17.6	0.00e+00	0	42	0	0	54	4761
2026-01-26 10:37:38.70	295.46	48.39	-41.9	-43.9	17.5	0.00e+00	0	43	0	0	54	4783
2026-01-26 10:37:39.70	295.94	48.20	-42.1	-44.1	17.5	0.00e+00	0	43	0	0	55	4650
2026-01-26 10:37:40.69	296.42	48.01	-42.0	-44.0	17.6	0.00e+00	0	43	0	0	55	4565
2026-01-26 10:37:41.69	296.89	47.82	-42.0	-44.0	17.6	0.00e+00	0	43	0	0	55	4547
2026-01-26 10:37:42.69	297.36	47.62	-41.8	-43.7	17.9	0.00e+00	0	42	0	0	55	4436
2026-01-26 10:37:43.68	297.82	47.43	-41.8	-43.8	17.7	0.00e+00	0	43	0	0	55	4478
2026-01-26 10:37:44.68	298.28	47.23	-42.3	-44.3	17.3	0.00e+00	0	43	0	0	55	4746
2026-01-26 10:37:45.67	298.73	47.03	-42.4	-44.5	17.1	0.00e+00	0	43	0	0	55	4837
2026-01-26 10:37:46.66	299.17	46.84	-42.1	-44.1	17.6	0.00e+00	0	43	0	0	55	4612
2026-01-26 10:37:47.66	299.61	46.64	-41.7	-43.7	18.0	0.00e+00	0	43	0	0	55	4409
2026-01-26 10:37:48.66	300.05	46.44	-41.6	-43.5	18.1	0.00e+00	0	43	0	0	55	4335
2026-01-26 10:37:49.65	300.47	46.24	-41.5	-43.4	18.2	0.00e+00	0	43	0	0	54	4542
2026-01-26 10:37:50.64	300.89	46.04	-41.6	-43.6	18.0	0.00e+00	0	43	0	0	54	4634
2026-01-26 10:37:51.64	301.31	45.83	-41.8	-43.8	17.9	0.00e+00	0	43	0	0	54	4709
2026-01-26 10:37:52.63	301.72	45.63	-41.9	-44.0	17.8	0.00e+00	0	43	0	0	54	4818
2026-01-26 10:37:53.63	302.13	45.43	-42.1	-44.1	17.6	0.00e+00	0	43	0	0	54	4894
2026-01-26 10:37:54.62	302.53	45.22	-42.1	-44.1	17.5	0.00e+00	0	43	0	0	54	4892
2026-01-26 10:37:55.62	302.92	45.02	-42.1	-44.1	17.6	0.00e+00	0	42	0	0	54	4892
2026-01-26 10:37:56.61	303.31	44.82	-42.0	-44.0	17.6	0.00e+00	0	43	0	0	54	4865
2026-01-26 10:37:57.61	303.70	44.61	-42.4	-44.4	17.2	0.00e+00	0	43	0	0	55	4806
2026-01-26 10:37:58.60	304.08	44.41	-42.9	-45.1	16.7	0.00e+00	0	43	0	0	56	4884
2026-01-26 10:37:59.60	304.46	44.20	-43.1	-45.3	16.6	0.00e+00	0	43	0	0	56	5000
2026-01-26 10:38:00.59	304.83	43.99	-43.2	-45.4	16.3	0.00e+00	0	43	0	0	57	4814
2026-01-26 10:38:01.59	305.20	43.79	-43.2	-45.4	16.3	0.00e+00	0	43	0	0	57	4809
2026-01-26 10:38:02.58	305.56	43.58	-42.8	-45.0	16.9	0.00e+00	0	43	0	0	57	4551
2026-01-26 10:38:03.57	305.91	43.38	-42.1	-44.1	17.7	0.00e+00	0	43	0	0	56	4342
2026-01-26 10:38:04.57	306.27	43.17	-41.7	-43.7	17.8	0.00e+00	0	43	0	0	55	4421
2026-01-26 10:38:05.57	306.62	42.96	-41.7	-43.7	17.9	0.00e+00	0	43	0	0	55	4400
2026-01-26 10:38:06.56	306.96	42.76	-41.7	-43.7	17.8	0.00e+00	0	43	0	0	55	4406
2026-01-26 10:38:07.56	307.30	42.55	-41.8	-43.8	17.6	0.00e+00	0	42	0	0	55	4468
2026-01-26 10:38:08.55	307.64	42.35	-42.2	-44.2	17.3	0.00e+00	0	43	0	0	55	4692
2026-01-26 10:38:09.54	307.97	42.14	-42.3	-44.4	17.2	0.00e+00	0	43	0	0	55	4796
2026-01-26 10:38:10.54	308.30	41.93	-42.1	-44.1	17.4	0.00e+00	0	43	0	0	55	4649
2026-01-26 10:38:11.53	308.62	41.73	-42.0	-44.0	17.4	0.00e+00	0	43	0	0	55	4596
2026-01-26 10:38:12.53	308.94	41.52	-42.1	-44.1	17.3	0.00e+00	0	43	0	0	55	4651
2026-01-26 10:38:13.52	309.25	41.32	-41.9	-43.9	17.4	0.00e+00	0	43	0	0	55	4528
2026-01-26 10:38:14.52	309.57	41.11	-41.9	-43.9	17.5	0.00e+00	0	43	0	0	55	4542
2026-01-26 10:38:15.51	309.87	40.91	-42.3	-44.4	17.1	0.00e+00	0	43	0	0	55	4778
2026-01-26 10:38:16.51	310.18	40.70	-42.6	-44.8	16.8	0.00e+00	0	43	0	0	55	4985
2026-01-26 10:38:17.51	310.48	40.50	-42.8	-44.9	16.8	0.00e+00	0	43	0	0	56	4811
2026-01-26 10:38:18.50	310.77	40.29	-42.7	-44.8	16.9	0.00e+00	0	43	0	0	56	4752
2026-01-26 10:38:19.49	311.06	40.09	-42.7	-44.9	16.8	0.00e+00	0	43	0	0	56	4789
2026-01-26 10:38:20.49	311.35	39.89	-42.5	-44.7	17.0	0.00e+00	0	43	0	0	56	4656
2026-01-26 10:38:21.48	311.64	39.69	-42.7	-44.8	16.9	0.00e+00	0	43	0	0	56	4747
2026-01-26 10:38:22.48	311.92	39.48	-42.4	-44.5	17.3	0.00e+00	0	43	0	0	56	4554
2026-01-26 10:38:23.47	312.20	39.28	-42.2	-44.2	17.5	0.00e+00	0	43	0	0	56	4417
2026-01-26 10:38:24.47	312.47	39.08	-42.1	-44.1	17.6	0.00e+00	0	43	0	0	56	4349
2026-01-26 10:38:25.46	312.74	38.88	-42.0	-43.9	17.8	0.00e+00	0	43	0	0	56	4289
2026-01-26 10:38:26.46	313.01	38.68	-41.4	-43.2	18.3	0.00e+00	0	43	0	0	54	4439
2026-01-26 10:38:27.45	313.28	38.48	-41.0	-42.8	18.7	0.00e+00	0	43	0	0	54	4229
2026-01-26 10:38:28.45	313.54	38.28	-41.0	-42.8	18.7	0.00e+00	0	43	0	0	53	4450
2026-01-26 10:38:29.44	313.80	38.08	-41.0	-42.8	18.6	0.00e+00	0	43	0	0	53	4479
2026-01-26 10:38:30.43	314.05	37.88	-41.2	-43.1	18.2	0.00e+00	0	43	0	0	53	4631
2026-01-26 10:38:31.43	314.31	37.68	-41.6	-43.5	17.9	0.00e+00	0	43	0	0	53	4837
2026-01-26 10:38:32.42	314.56	37.49	-41.8	-43.8	17.6	0.00e+00	0	43	0	0	54	4744
2026-01-26 10:38:33.42	314.80	37.29	-41.9	-43.9	17.6	0.00e+00	0	43	0	0	54	4782
2026-01-26 10:38:34.41	315.05	37.09	-41.6	-43.6	17.9	0.00e+00	0	43	0	0	54	4615
2026-01-26 10:38:35.41	315.29	36.90	-41.3	-43.2	18.3	0.00e+00	0	43	0	0	54	4425
2026-01-26 10:38:36.40	315.53	36.70	-41.3	-43.2	18.3	0.00e+00	0	42	0	0	54	4433
2026-01-26 10:38:37.40	315.76	36.51	-41.5	-43.4	18.1	0.00e+00	0	43	0	0	54	4524
2026-01-26 10:38:38.39	315.99	36.32	-41.3	-43.2	18.3	0.00e+00	0	43	0	0	54	4398
2026-01-26 10:38:39.39	316.22	36.12	-41.2	-43.1	18.4	0.00e+00	0	43	0	0	54	4347
2026-01-26 10:38:40.38	316.45	35.93	-41.2	-43.1	18.3	0.00e+00	0	43	0	0	54	4367
2026-01-26 10:38:41.38	316.68	35.74	-41.3	-43.2	18.3	0.00e+00	0	43	0	0	54	4397
2026-01-26 10:38:42.37	316.90	35.55	-41.3	-43.2	18.2	0.00e+00	0	42	0	0	54	4412
2026-01-26 10:38:43.37	317.12	35.36	-41.2	-43.1	18.3	0.00e+00	0	43	0	0	54	4367
2026-01-26 10:38:44.36	317.33	35.17	-41.1	-42.9	18.5	0.00e+00	0	43	0	0	54	4290
2026-01-26 10:38:45.35	317.55	34.98	-40.8	-42.6	18.8	0.00e+00	0	43	0	0	53	4358
2026-01-26 10:38:46.35	317.76	34.79	-40.6	-42.4	19.0	0.00e+00	0	42	0	0	53	4267
2026-01-26 10:38:47.35	317.97	34.60	-40.4	-42.1	19.2	0.00e+00	0	43	0	0	52	4387
2026-01-26 10:38:48.34	318.18	34.42	-40.4	-42.3	19.1	0.00e+00	0	43	0	0	52	4442
2026-01-26 10:38:49.34	318.38	34.23	-40.6	-42.5	18.9	0.00e+00	0	43	0	0	52	4549
2026-01-26 10:38:50.33	318.59	34.04	-40.7	-42.7	18.7	0.00e+00	0	43	0	0	52	4667
2026-01-26 10:38:51.33	318.79	33.86	-40.8	-42.8	18.7	0.00e+00	0	43	0	0	52	4723
2026-01-26 10:38:52.32	318.99	33.68	-40.7	-42.7	18.8	0.00e+00	0	43	0	0	52	4704
2026-01-26 10:38:53.32	319.18	33.49	-40.5	-42.5	19.0	0.00e+00	0	43	0	0	52	4598
2026-01-26 10:38:54.31	319.38	33.31	-40.3	-42.3	19.2	0.00e+00	0	43	0	0	52	4470
2026-01-26 10:38:55.31	319.57	33.13	-40.2	-42.2	19.3	0.00e+00	0	43	0	0	52	4396
2026-01-26 10:38:56.30	319.76	32.95	-40.3	-42.2	19.2	0.00e+00	0	43	0	0	52	4414
2026-01-26 10:38:57.30	319.95	32.77	-40.4	-42.3	19.1	0.00e+00	0	43	0	0	52	4460
2026-01-26 10:38:58.29	320.13	32.59	-40.3	-42.2	19.2	0.00e+00	0	43	0	0	52	4396
2026-01-26 10:38:59.28	320.31	32.41	-40.2	-42.0	19.4	0.00e+00	0	43	0	0	52	4310
2026-01-26 10:39:00.28	320.50	32.23	-40.3	-42.1	19.3	0.00e+00	0	43	0	0	52	4354
2026-01-26 10:39:01.27	320.68	32.06	-40.0	-41.7	19.7	0.00e+00	0	43	0	0	51	4430
2026-01-26 10:39:02.27	320.86	31.88	-39.7	-41.4	20.0	0.00e+00	0	43	0	0	51	4254
2026-01-26 10:39:03.26	321.03	31.70	-39.5	-41.2	20.2	0.00e+00	0	43	0	0	50	4393
2026-01-26 10:39:04.26	321.21	31.53	-39.3	-40.9	20.4	0.00e+00	0	43	0	0	50	4283
2026-01-26 10:39:05.25	321.38	31.36	-39.3	-41.0	20.3	0.00e+00	0	43	0	0	50	4306
2026-01-26 10:39:06.25	321.55	31.18	-39.2	-40.9	20.4	0.00e+00	0	43	0	0	50	4269
2026-01-26 10:39:07.24	321.72	31.01	-39.4	-41.1	20.2	0.00e+00	0	43	0	0	50	4385
2026-01-26 10:39:08.23	321.88	30.84	-39.5	-41.2	20.2	0.00e+00	0	43	0	0	50	4421
2026-01-26 10:39:09.23	322.05	30.67	-39.6	-41.4	20.0	0.00e+00	0	43	0	0	50	4500
2026-01-26 10:39:10.22	322.21	30.50	-39.8	-41.6	19.7	0.00e+00	0	43	0	0	50	4626
2026-01-26 10:39:11.22	322.38	30.33	-40.0	-41.8	19.6	0.00e+00	0	43	0	0	50	4713
2026-01-26 10:39:12.21	322.54	30.16	-40.1	-41.9	19.4	0.00e+00	0	43	0	0	50	4798
2026-01-26 10:39:13.21	322.70	29.99	-40.2	-42.0	19.3	0.00e+00	0	43	0	0	50	4836
2026-01-26 10:39:14.20	322.85	29.82	-40.3	-42.1	19.2	0.00e+00	0	43	0	0	51	4628
2026-01-26 10:39:15.20	323.01	29.66	-40.2	-42.1	19.3	0.00e+00	0	43	0	0	51	4611
2026-01-26 10:39:16.20	323.16	29.49	-40.0	-41.8	19.5	0.00e+00	0	43	0	0	51	4483
2026-01-26 10:39:17.19	323.31	29.33	-40.1	-41.9	19.5	0.00e+00	0	43	0	0	51	4497
2026-01-26 10:39:18.19	323.47	29.16	-40.1	-41.9	19.5	0.00e+00	0	43	0	0	51	4530
2026-01-26 10:39:19.18	323.62	29.00	-39.9	-41.7	19.7	0.00e+00	0	43	0	0	51	4410
2026-01-26 10:39:20.17	323.76	28.84	-39.8	-41.6	19.8	0.00e+00	0	43	0	0	51	4363
2026-01-26 10:39:21.17	323.91	28.67	-39.5	-41.3	20.1	0.00e+00	0	43	0	0	51	4201
2026-01-26 10:39:22.17	324.06	28.51	-39.6	-41.4	20.0	0.00e+00	0	43	0	0	51	4258
2026-01-26 10:39:23.16	324.20	28.35	-39.7	-41.5	19.9	0.00e+00	0	43	0	0	51	4297
2026-01-26 10:39:24.16	324.34	28.19	-39.8	-41.6	19.8	0.00e+00	0	43	0	0	51	4349
2026-01-26 10:39:25.15	324.48	28.03	-39.8	-41.5	19.9	0.00e+00	0	43	0	0	51	4338
2026-01-26 10:39:26.15	324.62	27.88	-39.8	-41.5	19.9	0.00e+00	0	43	0	0	51	4334
2026-01-26 10:39:27.14	324.76	27.72	-39.7	-41.4	20.0	0.00e+00	0	43	0	0	51	4270
2026-01-26 10:39:28.14	324.90	27.56	-39.5	-41.3	20.1	0.00e+00	0	43	0	0	51	4204
2026-01-26 10:39:29.13	325.03	27.41	-39.7	-41.4	20.0	0.00e+00	0	43	0	0	51	4256
2026-01-26 10:39:30.12	325.17	27.25	-39.6	-41.4	20.0	0.00e+00	0	43	0	0	51	4248
2026-01-26 10:39:31.12	325.30	27.10	-39.7	-41.5	19.8	0.00e+00	0	43	0	0	51	4326
2026-01-26 10:39:32.11	325.43	26.94	-39.8	-41.6	19.8	0.00e+00	0	43	0	0	51	4352
2026-01-26 10:39:33.11	325.56	26.79	-39.7	-41.5	19.8	0.00e+00	0	43	0	0	51	4340
2026-01-26 10:39:34.10	325.69	26.64	-39.7	-41.5	19.8	0.00e+00	0	42	0	0	51	4339
2026-01-26 10:39:35.10	325.82	26.48	-39.7	-41.5	19.8	0.00e+00	0	43	0	0	51	4319
2026-01-26 10:39:36.09	325.95	26.33	-39.7	-41.5	19.8	0.00e+00	0	43	0	0	51	4313
2026-01-26 10:39:37.08	326.07	26.19	-39.8	-41.6	19.7	0.00e+00	0	43	0	0	51	4358
2026-01-26 10:39:38.08	326.20	26.03	-39.6	-41.4	19.9	0.00e+00	0	43	0	0	51	4271
2026-01-26 10:39:39.07	326.32	25.89	-39.7	-41.4	19.9	0.00e+00	0	43	0	0	51	4291
2026-01-26 10:39:40.07	326.45	25.74	-39.8	-41.5	19.8	0.00e+00	0	43	0	0	51	4333
2026-01-26 10:39:41.06	326.57	25.59	-39.7	-41.4	19.9	0.00e+00	0	42	0	0	51	4263
2026-01-26 10:39:42.05	326.69	25.44	-39.6	-41.3	20.0	0.00e+00	0	43	0	0	51	4223
2026-01-26 10:39:43.05	326.81	25.30	-39.6	-41.3	20.0	0.00e+00	0	43	0	0	51	4241
2026-01-26 10:39:44.04	326.93	25.15	-39.5	-41.3	20.0	0.00e+00	0	43	0	0	51	4211
2026-01-26 10:39:45.04	327.04	25.01	-39.5	-41.2	20.0	0.00e+00	0	43	0	0	51	4191
2026-01-26 10:39:46.04	327.16	24.86	-39.5	-41.2	20.1	0.00e+00	0	43	0	0	50	4421
2026-01-26 10:39:47.03	327.28	24.72	-39.5	-41.2	20.0	0.00e+00	0	43	0	0	50	4426
2026-01-26 10:39:48.02	327.39	24.58	-39.5	-41.3	19.9	0.00e+00	0	43	0	0	50	4477
2026-01-26 10:39:49.02	327.50	24.44	-39.5	-41.3	19.9	0.00e+00	0	43	0	0	50	4489
2026-01-26 10:39:50.01	327.61	24.29	-39.6	-41.4	19.8	0.00e+00	0	43	0	0	50	4538
2026-01-26 10:39:51.01	327.73	24.15	-39.6	-41.5	19.8	0.00e+00	0	43	0	0	50	4552
2026-01-26 10:39:52.01	327.84	24.01	-39.5	-41.4	19.9	0.00e+00	0	43	0	0	50	4498
2026-01-26 10:39:53.00	327.95	23.87	-39.6	-41.4	19.8	0.00e+00	0	43	0	0	50	4544
2026-01-26 10:39:54.00	328.06	23.73	-39.5	-41.3	19.9	0.00e+00	0	43	0	0	50	4487
2026-01-26 10:39:54.99	328.16	23.60	-39.4	-41.2	20.0	0.00e+00	0	43	0	0	50	4431
2026-01-26 10:39:55.99	328.27	23.46	-39.5	-41.3	20.0	0.00e+00	0	43	0	0	50	4442
2026-01-26 10:39:56.98	328.37	23.32	-39.5	-41.2	20.0	0.00e+00	0	43	0	0	50	4431
2026-01-26 10:39:57.98	328.48	23.19	-39.5	-41.2	20.0	0.00e+00	0	43	0	0	50	4421
2026-01-26 10:39:58.97	328.58	23.05	-39.5	-41.2	20.1	0.00e+00	0	43	0	0	50	4415
2026-01-26 10:39:59.96	328.69	22.92	-39.5	-41.2	20.1	0.00e+00	0	42	0	0	50	4424
2026-01-26 10:40:00.96	328.79	22.78	-39.5	-41.2	20.0	0.00e+00	0	43	0	0	50	4436
2026-01-26 10:40:01.95	328.89	22.65	-39.5	-41.2	20.1	0.00e+00	0	43	0	0	50	4422
2026-01-26 10:40:02.95	328.99	22.51	-39.5	-41.2	20.1	0.00e+00	0	43	0	0	50	4396
2026-01-26 10:40:03.94	329.09	22.38	-39.4	-41.1	20.1	0.00e+00	0	43	0	0	50	4384
2026-01-26 10:40:04.94	329.19	22.25	-39.5	-41.2	20.1	0.00e+00	0	43	0	0	50	4397
2026-01-26 10:40:05.93	329.29	22.12	-39.5	-41.2	20.0	0.00e+00	0	43	0	0	50	4432
2026-01-26 10:40:06.93	329.39	21.99	-39.6	-41.4	19.9	0.00e+00	0	43	0	0	50	4506
2026-01-26 10:40:07.92	329.48	21.86	-39.6	-41.3	19.9	0.00e+00	0	43	0	0	50	4483
2026-01-26 10:40:08.92	329.58	21.73	-39.7	-41.5	19.8	0.00e+00	0	43	0	0	50	4565
2026-01-26 10:40:09.91	329.67	21.60	-39.8	-41.6	19.7	0.00e+00	0	43	0	0	50	4612
2026-01-26 10:40:10.90	329.77	21.47	-39.8	-41.6	19.7	0.00e+00	0	43	0	0	50	4615
2026-01-26 10:40:11.90	329.86	21.34	-39.9	-41.7	19.7	0.00e+00	0	43	0	0	50	4659
2026-01-26 10:40:12.90	329.95	21.22	-39.9	-41.7	19.7	0.00e+00	0	43	0	0	50	4685
2026-01-26 10:40:13.89	330.05	21.09	-39.9	-41.7	19.7	0.00e+00	0	43	0	0	50	4681
2026-01-26 10:40:14.89	330.14	20.96	-39.9	-41.7	19.6	0.00e+00	0	43	0	0	50	4694
2026-01-26 10:40:15.88	330.23	20.84	-39.9	-41.7	19.6	0.00e+00	0	43	0	0	50	4702
2026-01-26 10:40:16.88	330.32	20.71	-39.9	-41.7	19.6	0.00e+00	0	43	0	0	50	4702
2026-01-26 10:40:17.87	330.41	20.59	-40.0	-41.8	19.5	0.00e+00	0	43	0	0	50	4756
2026-01-26 10:40:18.86	330.50	20.46	-40.0	-41.9	19.4	0.00e+00	0	43	0	0	50	4769
2026-01-26 10:40:19.86	330.58	20.34	-40.0	-41.9	19.4	0.00e+00	0	42	0	0	50	4782
2026-01-26 10:40:20.85	330.67	20.22	-40.1	-42.0	19.3	0.00e+00	0	43	0	0	50	4819
2026-01-26 10:40:21.85	330.76	20.10	-40.0	-41.9	19.4	0.00e+00	0	43	0	0	50	4798
2026-01-26 10:40:22.84	330.84	19.97	-40.1	-41.9	19.4	0.00e+00	0	42	0	0	50	4785
2026-01-26 10:40:23.84	330.93	19.85	-40.0	-41.8	19.5	0.00e+00	0	42	0	0	50	4752
2026-01-26 10:40:24.83	331.01	19.73	-40.0	-41.8	19.5	0.00e+00	0	43	0	0	50	4740
2026-01-26 10:40:25.83	331.10	19.61	-40.0	-41.8	19.4	0.00e+00	0	43	0	0	50	4755
2026-01-26 10:40:26.82	331.18	19.49	-39.9	-41.7	19.5	0.00e+00	0	43	0	0	50	4672
2026-01-26 10:40:27.82	331.27	19.37	-39.7	-41.5	19.7	0.00e+00	0	42	0	0	50	4546
2026-01-26 10:40:28.81	331.35	19.26	-39.7	-41.4	19.7	0.00e+00	0	43	0	0	50	4543
2026-01-26 10:40:29.81	331.43	19.14	-39.6	-41.4	19.8	0.00e+00	0	42	0	0	50	4515
2026-01-26 10:40:30.80	331.51	19.02	-39.6	-41.3	19.8	0.00e+00	0	43	0	0	50	4468
2026-01-26 10:40:31.80	331.59	18.90	-39.6	-41.3	19.8	0.00e+00	0	43	0	0	50	4482
2026-01-26 10:40:32.79	331.67	18.79	-39.6	-41.3	19.8	0.00e+00	0	43	0	0	50	4475
2026-01-26 10:40:33.79	331.75	18.67	-39.6	-41.4	19.8	0.00e+00	0	43	0	0	50	4498
2026-01-26 10:40:34.78	331.83	18.55	-39.6	-41.4	19.8	0.00e+00	0	43	0	0	50	4505
2026-01-26 10:40:35.78	331.91	18.44	-39.5	-41.3	19.9	0.00e+00	0	43	0	0	50	4449
2026-01-26 10:40:36.77	331.98	18.33	-39.6	-41.4	19.9	0.00e+00	0	43	0	0	50	4501
2026-01-26 10:40:37.76	332.06	18.21	-39.6	-41.4	19.8	0.00e+00	0	43	0	0	50	4500
2026-01-26 10:40:38.76	332.14	18.10	-39.5	-41.3	19.9	0.00e+00	0	43	0	0	50	4479
2026-01-26 10:40:39.75	332.21	17.98	-39.5	-41.3	19.9	0.00e+00	0	43	0	0	50	4476
2026-01-26 10:40:40.75	332.29	17.87	-39.5	-41.3	20.0	0.00e+00	0	43	0	0	50	4463
2026-01-26 10:40:41.74	332.36	17.76	-39.5	-41.3	19.9	0.00e+00	0	42	0	0	50	4485
2026-01-26 10:40:42.74	332.44	17.65	-39.5	-41.3	20.0	0.00e+00	0	43	0	0	50	4467
2026-01-26 10:40:43.73	332.51	17.54	-39.5	-41.3	20.0	0.00e+00	0	43	0	0	50	4443
2026-01-26 10:40:44.73	332.59	17.43	-39.6	-41.3	19.9	0.00e+00	0	43	0	0	50	4493
2026-01-26 10:40:45.72	332.66	17.32	-39.5	-41.3	20.0	0.00e+00	0	43	0	0	50	4470
2026-01-26 10:40:46.72	332.73	17.21	-39.6	-41.3	19.9	0.00e+00	0	43	0	0	50	4489
2026-01-26 10:40:47.71	332.80	17.10	-39.6	-41.4	19.9	0.00e+00	0	43	0	0	50	4513
2026-01-26 10:40:48.70	332.87	16.99	-39.7	-41.4	19.8	0.00e+00	0	43	0	0	50	4538
2026-01-26 10:40:49.70	332.95	16.88	-39.8	-41.5	19.7	0.00e+00	0	43	0	0	50	4593
2026-01-26 10:40:50.69	333.02	16.77	-39.8	-41.5	19.7	0.00e+00	0	43	0	0	50	4597
2026-01-26 10:40:51.69	333.09	16.66	-39.9	-41.7	19.6	0.00e+00	0	43	0	0	50	4658
2026-01-26 10:40:52.68	333.15	16.56	-39.9	-41.7	19.5	0.00e+00	0	42	0	0	50	4700
2026-01-26 10:40:53.67	333.22	16.45	-40.0	-41.8	19.4	0.00e+00	0	43	0	0	50	4735
2026-01-26 10:40:54.67	333.29	16.34	-40.0	-41.9	19.3	0.00e+00	0	43	0	0	50	4777
2026-01-26 10:40:55.66	333.36	16.24	-40.1	-41.9	19.3	0.00e+00	0	43	0	0	50	4810
2026-01-26 10:40:56.66	333.43	16.13	-40.1	-42.0	19.2	0.00e+00	0	43	0	0	50	4857
2026-01-26 10:40:57.65	333.50	16.03	-40.3	-42.2	19.1	0.00e+00	0	43	0	0	51	4664
2026-01-26 10:40:58.65	333.56	15.92	-40.2	-42.2	19.1	0.00e+00	0	43	0	0	51	4652
2026-01-26 10:40:59.64	333.63	15.82	-40.3	-42.2	19.0	0.00e+00	0	43	0	0	51	4672
2026-01-26 10:41:00.64	333.69	15.71	-40.3	-42.2	19.0	0.00e+00	0	43	0	0	51	4684
2026-01-26 10:41:01.63	333.76	15.61	-40.4	-42.3	18.9	0.00e+00	0	42	0	0	51	4733
2026-01-26 10:41:02.63	333.83	15.51	-40.4	-42.3	18.9	0.00e+00	0	43	0	0	51	4756
2026-01-26 10:41:03.62	333.89	15.41	-40.5	-42.4	18.9	0.00e+00	0	43	0	0	51	4766
2026-01-26 10:41:04.62	333.95	15.30	-40.5	-42.4	18.8	0.00e+00	0	43	0	0	51	4801
2026-01-26 10:41:05.61	334.02	15.20	-40.5	-42.4	18.8	0.00e+00	0	43	0	0	51	4814
2026-01-26 10:41:06.61	334.08	15.10	-40.7	-42.6	18.7	0.00e+00	0	43	0	0	51	4877
2026-01-26 10:41:07.60	334.14	15.00	-40.5	-42.4	18.8	0.00e+00	0	43	0	0	52	4519
2026-01-26 10:41:08.60	334.21	14.90	-40.4	-42.3	18.9	0.00e+00	0	43	0	0	52	4465
2026-01-26 10:41:09.60	334.27	14.80	-40.5	-42.4	18.8	0.00e+00	0	43	0	0	52	4518
2026-01-26 10:41:10.59	334.33	14.70	-40.5	-42.4	18.8	0.00e+00	0	43	0	0	52	4517
2026-01-26 10:41:11.59	334.39	14.60	-40.5	-42.4	18.8	0.00e+00	0	43	0	0	52	4511
2026-01-26 10:41:12.58	334.45	14.50	-40.4	-42.4	18.8	0.00e+00	0	42	0	0	52	4499
2026-01-26 10:41:13.58	334.52	14.40	-40.6	-42.5	18.7	0.00e+00	0	43	0	0	52	4591
2026-01-26 10:41:14.57	334.58	14.30	-40.4	-42.4	18.8	0.00e+00	0	43	0	0	52	4497
2026-01-26 10:41:15.56	334.64	14.21	-40.4	-42.4	18.8	0.00e+00	0	43	0	0	52	4515
2026-01-26 10:41:16.56	334.70	14.11	-40.5	-42.4	18.8	0.00e+00	0	43	0	0	52	4527
2026-01-26 10:41:17.55	334.75	14.01	-40.5	-42.5	18.7	0.00e+00	0	43	0	0	52	4560
2026-01-26 10:41:18.54	334.81	13.91	-40.5	-42.5	18.7	0.00e+00	0	42	0	0	52	4575
2026-01-26 10:41:19.54	334.87	13.82	-40.6	-42.5	18.6	0.00e+00	0	43	0	0	52	4591
2026-01-26 10:41:20.53	334.93	13.72	-40.5	-42.5	18.6	0.00e+00	0	43	0	0	52	4556
2026-01-26 10:41:21.53	334.99	13.63	-40.6	-42.5	18.6	0.00e+00	0	43	0	0	52	4595
2026-01-26 10:41:22.52	335.05	13.53	-40.5	-42.5	18.6	0.00e+00	0	42	0	0	52	4549
2026-01-26 10:41:23.52	335.10	13.44	-40.6	-42.5	18.6	0.00e+00	0	43	0	0	52	4595
2026-01-26 10:41:24.51	335.16	13.34	-40.6	-42.5	18.5	0.00e+00	0	43	0	0	52	4589
2026-01-26 10:41:25.51	335.22	13.25	-40.6	-42.5	18.6	0.00e+00	0	42	0	0	52	4568
2026-01-26 10:41:26.50	335.27	13.15	-40.7	-42.5	18.5	0.00e+00	0	43	0	0	52	4598
2026-01-26 10:41:27.50	335.33	13.06	-40.6	-42.5	18.6	0.00e+00	0	43	0	0	52	4574
2026-01-26 10:41:28.49	335.38	12.97	-40.7	-42.6	18.5	0.00e+00	0	43	0	0	52	4613
2026-01-26 10:41:29.49	335.44	12.87	-40.8	-42.7	18.4	0.00e+00	0	43	0	0	52	4658
2026-01-26 10:41:30.48	335.49	12.78	-40.8	-42.7	18.4	0.00e+00	0	42	0	0	52	4669
2026-01-26 10:41:31.48	335.55	12.69	-40.8	-42.8	18.3	0.00e+00	0	43	0	0	52	4716
2026-01-26 10:41:32.47	335.60	12.60	-40.7	-42.7	18.3	0.00e+00	0	43	0	0	52	4697
2026-01-26 10:41:33.46	335.66	12.50	-40.8	-42.8	18.3	0.00e+00	0	43	0	0	52	4723
2026-01-26 10:41:34.46	335.71	12.41	-40.7	-42.8	18.3	0.00e+00	0	43	0	0	52	4719
2026-01-26 10:41:35.45	335.76	12.32	-40.7	-42.9	18.3	0.00e+00	0	43	0	0	52	4763
2026-01-26 10:41:36.45	335.82	12.23	-40.7	-42.9	18.2	0.00e+00	0	43	0	0	52	4769
2026-01-26 10:41:37.44	335.87	12.14	-40.7	-42.9	18.2	0.00e+00	0	43	0	0	52	4762
2026-01-26 10:41:38.43	335.92	12.05	-40.8	-43.0	18.1	0.00e+00	0	43	0	0	52	4844
2026-01-26 10:41:39.43	335.97	11.96	-40.8	-43.0	18.1	0.00e+00	0	43	0	0	52	4852
2026-01-26 10:41:40.42	336.03	11.87	-40.7	-42.9	18.2	0.00e+00	0	43	0	0	52	4793
2026-01-26 10:41:41.42	336.08	11.78	-40.8	-43.0	18.1	0.00e+00	0	43	0	0	52	4838
2026-01-26 10:41:42.41	336.13	11.69	-40.9	-43.1	18.0	0.00e+00	0	43	0	0	52	4884
2026-01-26 10:41:43.41	336.18	11.60	-40.8	-43.0	18.1	0.00e+00	0	43	0	0	52	4829
2026-01-26 10:41:44.40	336.23	11.52	-40.9	-43.0	18.1	0.00e+00	0	43	0	0	52	4859
2026-01-26 10:41:45.40	336.28	11.43	-40.9	-43.0	18.1	0.00e+00	0	43	0	0	52	4836
2026-01-26 10:41:46.39	336.33	11.34	-40.9	-43.1	18.0	0.00e+00	0	42	0	0	52	4884
2026-01-26 10:41:47.39	336.38	11.25	-41.0	-43.1	18.0	0.00e+00	0	42	0	0	52	4917
2026-01-26 10:41:48.38	336.43	11.17	-41.0	-43.1	18.0	0.00e+00	0	42	0	0	52	4911
2026-01-26 10:41:49.38	336.48	11.08	-40.9	-43.1	18.0	0.00e+00	0	42	0	0	52	4881
2026-01-26 10:41:50.37	336.53	10.99	-40.9	-43.0	18.1	0.00e+00	0	43	0	0	52	4852
2026-01-26 10:41:51.37	336.58	10.91	-41.0	-43.2	17.9	0.00e+00	0	43	0	0	52	4959
2026-01-26 10:41:52.36	336.63	10.82	-41.0	-43.2	17.9	0.00e+00	0	43	0	0	52	4962
2026-01-26 10:41:53.35	336.67	10.74	-40.9	-43.2	17.9	0.00e+00	0	43	0	0	52	4930
2026-01-26 10:41:54.35	336.72	10.65	-40.9	-43.1	18.0	0.00e+00	0	43	0	0	52	4914
2026-01-26 10:41:55.34	336.77	10.57	-40.9	-43.2	17.9	0.00e+00	0	43	0	0	52	4927
2026-01-26 10:41:56.34	336.82	10.48	-40.9	-43.2	18.0	0.00e+00	0	43	0	0	52	4928
2026-01-26 10:41:57.34	336.87	10.40	-40.8	-43.1	18.0	0.00e+00	0	43	0	0	52	4872
2026-01-26 10:41:58.33	336.91	10.31	-40.7	-43.0	18.1	0.00e+00	0	43	0	0	52	4826
2026-01-26 10:41:59.33	336.96	10.23	-40.8	-43.1	18.0	0.00e+00	0	43	0	0	52	4871
2026-01-26 10:42:00.32	337.01	10.14	-40.7	-42.9	18.2	0.00e+00	0	43	0	0	52	4769
2026-01-26 10:42:01.32	337.05	10.06	-40.7	-42.9	18.1	0.00e+00	0	42	0	0	52	4804
2026-01-26 10:42:02.31	337.10	9.98	-40.8	-43.0	18.1	0.00e+00	0	43	0	0	52	4818
2026-01-26 10:42:03.31	337.14	9.89	-40.7	-42.8	18.2	0.00e+00	0	43	0	0	52	4753
2026-01-26 10:42:04.30	337.19	9.81	-40.8	-42.9	18.1	0.00e+00	0	42	0	0	52	4803
2026-01-26 10:42:05.30	337.24	9.73	-40.8	-43.0	18.0	0.00e+00	0	42	0	0	52	4839
2026-01-26 10:42:06.29	337.28	9.65	-40.9	-43.0	18.0	0.00e+00	0	43	0	0	52	4848
2026-01-26 10:42:07.29	337.33	9.57	-40.9	-43.1	18.0	0.00e+00	0	43	0	0	52	4877
2026-01-26 10:42:08.28	337.37	9.48	-40.8	-43.0	18.0	0.00e+00	0	43	0	0	52	4834
2026-01-26 10:42:09.28	337.41	9.40	-41.0	-43.2	17.8	0.00e+00	0	43	0	0	52	4951
2026-01-26 10:42:10.27	337.46	9.32	-41.0	-43.2	17.8	0.00e+00	0	43	0	0	52	4951
2026-01-26 10:42:11.27	337.50	9.24	-40.9	-43.1	17.9	0.00e+00	0	42	0	0	52	4894
2026-01-26 10:42:12.26	337.55	9.16	-40.8	-43.1	17.9	0.00e+00	0	43	0	0	52	4873
2026-01-26 10:42:13.26	337.59	9.08	-41.0	-43.2	17.8	0.00e+00	0	43	0	0	52	4978
2026-01-26 10:42:14.26	337.63	9.00	-41.1	-43.4	17.6	0.00e+00	0	43	0	0	52	5080
2026-01-26 10:42:15.25	337.68	8.92	-47.5	-61.8	3.8	9.44e-01	0	43	104	0	65	19944
2026-01-26 10:42:16.24	337.72	8.84	-49.0	-62.8	3.8	1.49e+00	0	43	104	0	69	17710
2026-01-26 10:42:17.24	337.76	8.76	-49.0	-62.9	3.8	1.49e+00	0	43	104	0	69	18077
2026-01-26 10:42:18.23	337.80	8.68	-49.4	-63.0	3.8	1.49e+00	0	43	104	0	69	18294
2026-01-26 10:42:19.22	337.85	8.60	-49.7	-63.2	3.8	1.49e+00	0	43	104	0	70	17505
2026-01-26 10:42:20.22	337.89	8.52	-48.9	-63.2	3.8	1.49e+00	0	43	104	0	69	18625
2026-01-26 10:42:21.21	337.93	8.45	-49.3	-63.3	3.8	1.49e+00	0	43	104	0	70	17685
2026-01-26 10:42:22.20	337.97	8.37	-50.0	-63.3	3.8	1.49e+00	0	42	104	0	70	17710
2026-01-26 10:42:23.20	338.01	8.29	-49.7	-63.3	3.8	1.49e+00	0	42	104	0	70	17887
2026-01-26 10:42:24.19	338.06	8.21	-49.5	-63.3	3.8	1.49e+00	0	43	104	0	70	17825
2026-01-26 10:42:25.18	338.10	8.14	-50.1	-63.3	3.8	1.49e+00	0	43	104	0	71	16813
2026-01-26 10:42:26.17	338.14	8.06	-50.2	-63.3	3.8	1.49e+00	0	42	104	0	71	16878
2026-01-26 10:42:27.17	338.18	7.98	-50.3	-63.3	3.8	1.49e+00	0	43	104	0	71	16854
2026-01-26 10:42:28.16	338.22	7.91	-49.9	-63.4	3.8	1.49e+00	0	43	104	0	71	16913
2026-01-26 10:42:29.15	338.26	7.83	-50.2	-63.3	3.8	1.49e+00	0	43	104	0	71	16809
2026-01-26 10:42:30.15	338.30	7.75	-50.2	-63.4	3.8	1.49e+00	0	43	104	0	71	16906
2026-01-26 10:42:31.14	338.34	7.68	-50.1	-63.3	3.8	1.49e+00	0	43	104	0	71	16874
2026-01-26 10:42:32.13	338.38	7.60	-50.2	-63.3	3.8	1.49e+00	0	43	104	0	71	16862
2026-01-26 10:42:33.13	338.42	7.52	-50.2	-63.3	3.8	1.49e+00	0	43	104	0	71	16810
2026-01-26 10:42:34.12	338.46	7.45	-50.4	-63.3	3.8	1.49e+00	0	43	104	0	71	16775
2026-01-26 10:42:35.11	338.50	7.37	-50.2	-63.3	3.8	1.49e+00	0	43	104	0	71	16728
2026-01-26 10:42:36.11	338.54	7.30	-50.2	-63.3	3.8	1.49e+00	0	43	104	0	71	16775
2026-01-26 10:42:37.10	338.57	7.22	-50.2	-63.3	3.8	1.49e+00	0	43	104	0	71	16744
2026-01-26 10:42:38.09	338.61	7.15	-50.2	-63.3	3.8	1.49e+00	0	43	104	0	71	16754
2026-01-26 10:42:39.09	338.65	7.08	-50.2	-63.3	3.8	1.49e+00	0	43	104	0	71	16739
2026-01-26 10:42:40.08	338.69	7.00	-50.0	-63.2	3.8	1.49e+00	0	43	104	0	71	16611
2026-01-26 10:42:41.07	338.73	6.93	-50.0	-63.2	3.8	1.49e+00	0	43	104	0	71	16649
2026-01-26 10:42:42.06	338.77	6.85	-50.0	-63.2	3.8	1.49e+00	0	43	104	0	71	16642
2026-01-26 10:42:43.06	338.80	6.78	-50.0	-63.3	3.8	1.49e+00	0	43	104	0	71	16706
2026-01-26 10:42:44.05	338.84	6.71	-50.0	-63.2	3.8	1.49e+00	0	43	104	0	71	16621
2026-01-26 10:42:45.05	338.88	6.63	-50.0	-63.2	3.8	1.49e+00	0	43	104	0	71	16620
2026-01-26 10:42:46.04	338.92	6.56	-50.0	-63.2	3.8	1.49e+00	0	43	104	0	71	16592
2026-01-26 10:42:47.03	338.95	6.49	-50.0	-63.2	3.8	1.49e+00	0	43	104	0	71	16603
2026-01-26 10:42:48.02	338.99	6.42	-50.0	-63.2	3.8	1.49e+00	0	43	104	0	71	16609
2026-01-26 10:42:49.02	339.03	6.34	-50.0	-63.2	3.8	1.49e+00	0	43	104	0	71	16535
