passes_logs/2026/01/26/T1/T1__20260126_134001_FENGYUN_3E_rec.log

#Pass ID: 20260126_134001_FENGYUN 3E
#Satellite: FENGYUN 3E
#Configuration: FENGYUN 3E
#almurnet v.1.7.20251203
#Start time: 2026-01-26 13:40:03

#Version: 2.0.20230620
#Station: T1
#Location: 37.570604 lon 55.790049 lat
#TLE: 1 49008U 21062A   26025.99868676  .00000027  00000+0  33666-4 0  9992
#TLE: 2 49008  98.7499  30.9985 0002454 117.4834 242.6592 14.19886826236404

#Time	Az	El	Level	Level2	SNR	BER	BlckErr	Temp	State	Recorded	gain1	gain2
2026-01-26 13:40:03.55	143.20	5.15	-49.6	-60.0	3.8	8.47e-01	0	40	0	0	70	11317
2026-01-26 13:40:04.54	143.17	5.22	-49.5	-59.5	3.8	8.48e-01	0	40	104	0	69	11391
2026-01-26 13:40:05.53	143.14	5.29	-49.5	-59.5	3.8	8.47e-01	0	41	104	0	69	11344
2026-01-26 13:40:06.52	143.11	5.36	-49.5	-59.4	3.8	8.47e-01	0	41	104	0	69	11254
2026-01-26 13:40:07.52	143.08	5.43	-49.5	-59.3	3.8	8.48e-01	0	41	104	0	69	11145
2026-01-26 13:40:08.51	143.05	5.50	-49.5	-59.5	3.8	8.47e-01	0	41	104	0	69	11303
2026-01-26 13:40:09.50	143.03	5.57	-49.5	-59.4	3.8	8.47e-01	0	41	104	0	69	11266
2026-01-26 13:40:10.50	143.00	5.65	-49.5	-59.5	3.8	8.46e-01	0	41	104	0	69	11329
2026-01-26 13:40:11.49	142.97	5.72	-49.5	-59.4	3.8	8.46e-01	0	41	104	0	69	11222
2026-01-26 13:40:12.48	142.94	5.79	-49.5	-59.2	3.8	8.47e-01	0	41	104	0	69	11000
2026-01-26 13:40:13.48	142.91	5.86	-49.5	-59.2	3.8	8.47e-01	0	41	104	0	69	10941
2026-01-26 13:40:14.47	142.88	5.93	-49.4	-58.9	3.8	8.47e-01	0	41	104	0	69	10638
2026-01-26 13:40:15.46	142.85	6.01	-49.4	-58.9	3.8	8.46e-01	0	41	104	0	69	10556
2026-01-26 13:40:16.45	142.82	6.08	-49.3	-58.5	3.8	8.46e-01	0	41	104	0	69	10129
2026-01-26 13:40:17.45	142.79	6.15	-49.3	-58.4	3.8	8.46e-01	0	41	104	0	69	10009
2026-01-26 13:40:18.44	142.76	6.23	-49.3	-58.4	3.8	8.47e-01	0	41	104	0	69	10056
2026-01-26 13:40:19.43	142.73	6.30	-49.3	-58.5	3.8	8.47e-01	0	41	104	0	69	10116
2026-01-26 13:40:20.43	142.70	6.37	-49.4	-58.7	3.8	8.46e-01	0	41	104	0	69	10397
2026-01-26 13:40:21.42	142.67	6.45	-49.4	-59.0	3.8	8.46e-01	0	41	104	0	69	10719
2026-01-26 13:40:22.41	142.64	6.52	-49.5	-59.5	3.8	8.48e-01	0	41	104	0	69	11362
2026-01-26 13:40:23.41	142.61	6.60	-49.5	-59.8	3.8	8.48e-01	0	41	104	0	69	11810
2026-01-26 13:40:24.40	142.58	6.67	-49.6	-60.1	3.8	8.47e-01	0	42	104	0	69	12153
2026-01-26 13:40:25.39	142.55	6.74	-49.6	-60.1	3.8	8.47e-01	0	41	104	0	69	12181
2026-01-26 13:40:26.39	142.51	6.82	-49.5	-59.8	3.8	8.47e-01	0	41	104	0	69	11732
2026-01-26 13:40:27.38	142.48	6.89	-49.5	-59.3	3.8	8.47e-01	0	41	104	0	69	11034
2026-01-26 13:40:28.37	142.45	6.97	-49.3	-58.4	3.8	8.46e-01	0	41	104	0	69	10053
2026-01-26 13:40:29.37	142.42	7.05	-49.2	-57.5	4.0	8.45e-01	0	42	104	0	69	9023
2026-01-26 13:40:30.36	142.39	7.12	-49.0	-56.7	4.2	8.39e-01	0	42	0	0	68	8754
2026-01-26 13:40:31.35	142.35	7.20	-48.8	-55.7	4.6	8.22e-01	0	42	0	0	68	7799
2026-01-26 13:40:32.35	142.32	7.27	-48.4	-54.7	5.0	7.89e-01	0	42	0	0	67	7318
2026-01-26 13:40:33.34	142.29	7.35	-48.1	-53.7	5.6	7.18e-01	0	42	0	0	67	6546
2026-01-26 13:40:34.33	142.26	7.43	-47.7	-52.6	6.4	2.94e-01	0	42	0	6291456	66	6088
2026-01-26 13:40:35.32	142.22	7.50	-47.1	-51.3	7.6	1.08e-01	0	42	0	13631488	65	5560
2026-01-26 13:40:36.32	142.19	7.58	-46.5	-50.2	8.8	3.79e-02	0	42	0	19922944	63	5471
2026-01-26 13:40:37.31	142.16	7.66	-45.5	-48.6	10.5	6.57e-03	0	41	0	27262976	61	5101
2026-01-26 13:40:38.30	142.12	7.73	-44.6	-47.2	11.9	9.92e-04	0	42	0	34603008	60	4650
2026-01-26 13:40:39.30	142.09	7.81	-43.6	-45.8	13.2	4.23e-05	0	42	0	41943040	58	4437
2026-01-26 13:40:40.29	142.06	7.89	-42.8	-44.9	14.2	1.02e-05	0	42	0	49283072	56	4444
2026-01-26 13:40:41.28	142.02	7.97	-41.8	-43.7	15.2	0.00e+00	0	42	0	56623104	54	4354
2026-01-26 13:40:42.28	141.99	8.05	-41.3	-43.1	15.8	0.00e+00	0	42	0	62914560	53	4306
2026-01-26 13:40:43.27	141.95	8.13	-40.7	-42.4	16.4	0.00e+00	0	42	0	70254592	52	4221
2026-01-26 13:40:44.26	141.92	8.20	-40.3	-42.0	16.8	0.00e+00	0	42	0	77594624	51	4263
2026-01-26 13:40:45.26	141.88	8.28	-40.1	-41.8	17.1	0.00e+00	0	42	0	84934656	50	4402
2026-01-26 13:40:46.25	141.85	8.36	-39.9	-41.6	17.3	0.00e+00	0	42	0	92274688	50	4294
2026-01-26 13:40:47.24	141.81	8.44	-40.1	-41.8	17.1	0.00e+00	0	42	0	99614720	50	4397
2026-01-26 13:40:48.24	141.78	8.52	-40.5	-42.2	16.7	0.00e+00	0	42	0	105906176	50	4612
2026-01-26 13:40:49.23	141.74	8.60	-40.8	-42.5	16.4	0.00e+00	0	42	0	113246208	50	4779
2026-01-26 13:40:50.22	141.70	8.68	-41.3	-43.1	15.7	0.00e+00	0	42	0	120586240	52	4580
2026-01-26 13:40:51.22	141.67	8.76	-42.2	-44.1	14.8	0.00e+00	0	42	0	127926272	53	4847
2026-01-26 13:40:52.21	141.63	8.84	-43.2	-45.4	13.5	8.00e-06	0	42	0	135266304	55	5001
2026-01-26 13:40:53.20	141.59	8.92	-44.4	-46.9	12.1	1.62e-04	0	42	0	142606336	58	5001
2026-01-26 13:40:54.20	141.56	9.01	-45.3	-48.1	10.9	1.55e-03	0	42	0	148897792	59	5430
2026-01-26 13:40:55.19	141.52	9.09	-46.5	-50.0	9.0	2.26e-02	0	42	0	156237824	62	5699
2026-01-26 13:40:56.18	141.48	9.17	-43.5	-45.7	13.5	3.40e-06	0	42	0	163577856	56	4878
2026-01-26 13:40:57.18	141.45	9.25	-47.4	-52.0	7.0	6.53e-02	0	42	0	170917888	64	6359
2026-01-26 13:40:58.18	141.41	9.34	-46.8	-50.7	8.2	8.59e-02	0	42	0	178257920	63	5801
2026-01-26 13:40:59.17	141.37	9.42	-41.4	-43.2	15.8	0.00e+00	0	42	0	185597952	52	4623
2026-01-26 13:41:00.17	141.33	9.50	-49.4	-59.0	3.8	8.46e-01	0	42	104	188743680	68	11366
2026-01-26 13:41:01.16	141.29	9.58	-40.9	-42.6	16.2	0.00e+00	0	42	0	191889408	52	4322
2026-01-26 13:41:02.16	141.25	9.67	-39.5	-41.1	17.7	0.00e+00	0	42	0	198180864	49	4325
2026-01-26 13:41:03.15	141.21	9.75	-39.1	-40.6	18.1	0.00e+00	0	42	0	205520896	48	4320
2026-01-26 13:41:04.14	141.18	9.84	-38.9	-40.4	18.3	0.00e+00	0	42	0	212860928	48	4240
2026-01-26 13:41:05.14	141.14	9.92	-39.1	-40.6	18.1	0.00e+00	0	42	0	220200960	48	4336
2026-01-26 13:41:06.13	141.10	10.00	-38.9	-40.5	18.3	0.00e+00	0	42	0	227540992	48	4244
2026-01-26 13:41:07.13	141.06	10.09	-39.0	-40.6	18.2	0.00e+00	0	42	0	233832448	48	4302
2026-01-26 13:41:08.12	141.02	10.17	-39.0	-40.5	18.3	0.00e+00	0	42	0	241172480	48	4271
2026-01-26 13:41:09.12	140.97	10.26	-38.6	-40.1	18.6	0.00e+00	0	42	0	248512512	48	4086
2026-01-26 13:41:10.11	140.93	10.35	-38.7	-40.2	18.6	0.00e+00	0	42	0	255852544	48	4134
2026-01-26 13:41:11.11	140.89	10.43	-38.3	-39.9	18.6	0.00e+00	0	42	0	263192576	47	4201
2026-01-26 13:41:12.10	140.85	10.52	-38.1	-39.6	18.9	0.00e+00	0	42	0	270532608	47	4082
2026-01-26 13:41:13.10	140.81	10.60	-38.3	-39.9	18.8	0.00e+00	0	42	0	276824064	46	4448
2026-01-26 13:41:14.09	140.77	10.69	-38.1	-39.5	19.0	0.00e+00	0	42	0	284164096	46	4290
2026-01-26 13:41:15.09	140.73	10.78	-38.1	-39.6	19.0	0.00e+00	0	43	0	291504128	46	4309
2026-01-26 13:41:16.08	140.68	10.87	-38.0	-39.5	19.1	0.00e+00	0	42	0	298844160	46	4276
2026-01-26 13:41:17.08	140.64	10.95	-37.9	-39.4	19.2	0.00e+00	0	43	0	306184192	46	4200
2026-01-26 13:41:18.07	140.60	11.04	-38.1	-39.6	19.0	0.00e+00	0	42	0	313524224	46	4296
2026-01-26 13:41:19.07	140.56	11.13	-38.3	-39.8	18.8	0.00e+00	0	43	0	320864256	46	4427
2026-01-26 13:41:20.06	140.51	11.22	-38.4	-39.9	18.8	0.00e+00	0	42	0	328204288	46	4460
2026-01-26 13:41:21.06	140.47	11.31	-38.2	-39.7	19.0	0.00e+00	0	43	0	335544320	46	4346
2026-01-26 13:41:22.05	140.42	11.40	-38.0	-39.4	19.2	0.00e+00	0	43	0	341835776	46	4237
2026-01-26 13:41:23.05	140.38	11.49	-38.0	-39.5	19.1	0.00e+00	0	43	0	349175808	46	4259
2026-01-26 13:41:24.04	140.34	11.58	-38.0	-39.5	19.1	0.00e+00	0	43	0	356515840	46	4249
2026-01-26 13:41:25.04	140.29	11.67	-37.7	-39.2	19.4	0.00e+00	0	43	0	363855872	46	4112
2026-01-26 13:41:26.03	140.25	11.76	-37.6	-39.0	19.6	0.00e+00	0	43	0	371195904	46	4039
2026-01-26 13:41:27.03	140.20	11.85	-37.6	-39.0	19.6	0.00e+00	0	43	0	377487360	45	4290
2026-01-26 13:41:28.03	140.15	11.94	-37.5	-39.0	19.6	0.00e+00	0	43	0	384827392	45	4250
2026-01-26 13:41:29.02	140.11	12.03	-37.5	-38.9	19.7	0.00e+00	0	43	0	392167424	45	4227
2026-01-26 13:41:30.02	140.06	12.12	-37.5	-39.0	19.6	0.00e+00	0	43	0	399507456	45	4255
2026-01-26 13:41:31.01	140.02	12.22	-37.4	-38.8	19.7	0.00e+00	0	43	0	406847488	45	4188
2026-01-26 13:41:32.01	139.97	12.31	-37.4	-38.8	19.8	0.00e+00	0	43	0	414187520	45	4184
2026-01-26 13:41:33.00	139.92	12.40	-37.5	-38.9	19.7	0.00e+00	0	43	0	421527552	45	4220
2026-01-26 13:41:34.00	139.87	12.50	-37.4	-38.8	19.7	0.00e+00	0	43	0	427819008	45	4178
2026-01-26 13:41:34.99	139.83	12.59	-37.1	-38.5	20.0	0.00e+00	0	42	0	435159040	45	4032
2026-01-26 13:41:35.99	139.78	12.68	-37.3	-38.6	19.9	0.00e+00	0	43	0	442499072	45	4097
2026-01-26 13:41:36.98	139.73	12.78	-37.2	-38.6	20.0	0.00e+00	0	43	0	449839104	45	4065
2026-01-26 13:41:37.97	139.68	12.87	-37.2	-38.6	19.9	0.00e+00	0	43	0	457179136	45	4067
2026-01-26 13:41:38.97	139.63	12.97	-37.2	-38.6	19.9	0.00e+00	0	42	0	464519168	45	4092
2026-01-26 13:41:39.96	139.58	13.06	-37.1	-38.5	20.1	0.00e+00	0	42	0	471859200	45	4010
2026-01-26 13:41:40.96	139.53	13.16	-37.2	-38.6	20.0	0.00e+00	0	43	0	479199232	44	4295
2026-01-26 13:41:41.95	139.48	13.25	-37.0	-38.4	20.2	0.00e+00	0	43	0	485490688	44	4219
2026-01-26 13:41:42.95	139.43	13.35	-37.0	-38.4	20.2	0.00e+00	0	43	0	492830720	44	4218
2026-01-26 13:41:43.94	139.38	13.45	-37.0	-38.3	20.2	0.00e+00	0	43	0	500170752	44	4176
2026-01-26 13:41:44.94	139.33	13.54	-37.0	-38.3	20.2	0.00e+00	0	43	0	507510784	44	4189
2026-01-26 13:41:45.93	139.28	13.64	-36.9	-38.3	20.3	0.00e+00	0	43	0	514850816	44	4167
2026-01-26 13:41:46.93	139.22	13.74	-37.0	-38.3	20.2	0.00e+00	0	43	0	521142272	44	4182
2026-01-26 13:41:47.92	139.17	13.84	-36.9	-38.3	20.3	0.00e+00	0	43	0	528482304	44	4153
2026-01-26 13:41:48.92	139.12	13.94	-36.9	-38.2	20.3	0.00e+00	0	43	0	535822336	44	4131
2026-01-26 13:41:49.91	139.07	14.03	-36.9	-38.3	20.3	0.00e+00	0	43	0	543162368	44	4159
2026-01-26 13:41:50.91	139.01	14.13	-36.8	-38.2	20.4	0.00e+00	0	43	0	550502400	44	4117
2026-01-26 13:41:51.90	138.96	14.23	-36.8	-38.1	20.4	0.00e+00	0	43	0	557842432	44	4097
2026-01-26 13:41:52.90	138.90	14.33	-36.7	-38.1	20.5	0.00e+00	0	43	0	564133888	44	4052
2026-01-26 13:41:53.89	138.85	14.43	-36.8	-38.1	20.4	0.00e+00	0	43	0	571473920	44	4082
2026-01-26 13:41:54.89	138.80	14.53	-36.7	-38.0	20.5	0.00e+00	0	43	0	578813952	44	4047
2026-01-26 13:41:55.88	138.74	14.64	-36.6	-38.0	20.5	0.00e+00	0	43	0	586153984	44	4020
2026-01-26 13:41:56.87	138.68	14.74	-36.7	-38.1	20.5	0.00e+00	0	43	0	593494016	44	4063
2026-01-26 13:41:57.87	138.63	14.84	-36.5	-37.8	20.6	0.00e+00	0	43	0	600834048	43	4163
2026-01-26 13:41:58.86	138.57	14.94	-36.6	-37.9	20.4	0.00e+00	0	43	0	608174080	43	4228
2026-01-26 13:41:59.86	138.51	15.04	-36.5	-37.8	20.6	0.00e+00	0	43	0	615514112	43	4174
2026-01-26 13:42:00.85	138.46	15.15	-36.4	-37.8	20.6	0.00e+00	0	43	0	622854144	43	4167
2026-01-26 13:42:01.85	138.40	15.25	-36.4	-37.7	20.6	0.00e+00	0	43	0	629145600	43	4140
2026-01-26 13:42:02.84	138.34	15.35	-36.4	-37.8	20.6	0.00e+00	0	43	0	636485632	43	4151
2026-01-26 13:42:03.83	138.28	15.46	-36.4	-37.7	20.7	0.00e+00	0	43	0	643825664	43	4143
2026-01-26 13:42:04.83	138.22	15.56	-36.3	-37.6	20.8	0.00e+00	0	43	0	651165696	43	4063
2026-01-26 13:42:05.82	138.16	15.67	-36.1	-37.4	21.0	0.00e+00	0	43	0	658505728	43	3974
2026-01-26 13:42:06.82	138.10	15.77	-36.2	-37.5	20.8	0.00e+00	0	43	0	664797184	42	4276
2026-01-26 13:42:07.81	138.04	15.88	-36.2	-37.5	20.9	0.00e+00	0	43	0	672137216	42	4270
2026-01-26 13:42:08.81	137.98	15.99	-36.4	-37.7	20.7	0.00e+00	0	43	0	679477248	42	4356
2026-01-26 13:42:09.80	137.92	16.09	-35.9	-37.2	19.8	0.00e+00	0	43	0	686817280	42	4139
2026-01-26 13:42:10.80	137.86	16.20	-36.0	-37.3	21.0	0.00e+00	0	43	0	694157312	42	4171
2026-01-26 13:42:11.79	137.80	16.31	-36.0	-37.3	21.0	0.00e+00	0	43	0	701497344	42	4157
2026-01-26 13:42:12.79	137.74	16.42	-35.9	-37.2	21.2	0.00e+00	0	43	0	707788800	42	4107
2026-01-26 13:42:13.78	137.67	16.53	-35.9	-37.2	21.1	0.00e+00	0	43	0	715128832	42	4132
2026-01-26 13:42:14.78	137.61	16.64	-35.8	-37.1	21.2	0.00e+00	0	43	0	722468864	42	4088
2026-01-26 13:42:15.77	137.55	16.75	-35.7	-37.0	21.3	0.00e+00	0	43	0	729808896	42	4038
2026-01-26 13:42:16.77	137.48	16.86	-35.6	-36.9	21.3	0.00e+00	0	43	0	737148928	42	3993
2026-01-26 13:42:17.76	137.42	16.97	-35.6	-36.9	21.4	0.00e+00	0	43	0	744488960	41	4219
2026-01-26 13:42:18.75	137.35	17.08	-35.6	-37.0	21.3	0.00e+00	0	43	0	751828992	41	4243
2026-01-26 13:42:19.75	137.28	17.19	-35.7	-37.0	21.3	0.00e+00	0	43	0	759169024	41	4255
2026-01-26 13:42:20.75	137.22	17.30	-35.4	-36.7	21.6	0.00e+00	0	43	0	765460480	41	4102
2026-01-26 13:42:21.74	137.15	17.41	-35.5	-36.8	21.4	0.00e+00	0	43	0	772800512	41	4188
2026-01-26 13:42:22.73	137.08	17.53	-35.6	-36.9	21.4	0.00e+00	0	43	0	780140544	41	4215
2026-01-26 13:42:23.73	137.01	17.64	-35.4	-36.7	21.5	0.00e+00	0	43	0	787480576	41	4126
2026-01-26 13:42:24.72	136.95	17.75	-35.5	-36.8	21.5	0.00e+00	0	43	0	794820608	41	4171
2026-01-26 13:42:25.72	136.88	17.87	-35.5	-36.8	21.4	0.00e+00	0	43	0	802160640	41	4178
2026-01-26 13:42:26.71	136.81	17.98	-35.4	-36.7	21.5	0.00e+00	0	43	0	808452096	41	4108
2026-01-26 13:42:27.71	136.74	18.10	-35.4	-36.7	21.5	0.00e+00	0	43	0	815792128	41	4132
2026-01-26 13:42:28.70	136.67	18.21	-35.4	-36.8	21.5	0.00e+00	0	43	0	823132160	41	4146
2026-01-26 13:42:29.70	136.59	18.33	-35.4	-36.7	21.5	0.00e+00	0	43	0	830472192	41	4118
2026-01-26 13:42:30.69	136.52	18.45	-35.4	-36.7	21.5	0.00e+00	0	43	0	837812224	41	4140
2026-01-26 13:42:31.69	136.45	18.57	-35.4	-36.7	21.4	0.00e+00	0	43	0	845152256	41	4132
2026-01-26 13:42:32.68	136.38	18.68	-35.4	-36.8	21.4	0.00e+00	0	43	0	851443712	41	4147
2026-01-26 13:42:33.68	136.30	18.80	-35.5	-36.8	21.4	0.00e+00	0	43	0	858783744	41	4163
2026-01-26 13:42:34.68	136.23	18.92	-35.5	-36.8	21.4	0.00e+00	0	43	0	866123776	41	4175
2026-01-26 13:42:35.67	136.15	19.04	-35.4	-36.7	21.4	0.00e+00	0	43	0	873463808	41	4140
2026-01-26 13:42:36.66	136.08	19.16	-35.5	-36.8	21.3	0.00e+00	0	43	0	880803840	41	4185
2026-01-26 13:42:37.66	136.00	19.28	-35.4	-36.8	21.4	0.00e+00	0	43	0	888143872	41	4152
2026-01-26 13:42:38.65	135.92	19.40	-35.4	-36.8	21.4	0.00e+00	0	43	0	895483904	41	4169
2026-01-26 13:42:39.65	135.85	19.52	-35.3	-36.7	21.5	0.00e+00	0	43	0	901775360	41	4104
2026-01-26 13:42:40.64	135.77	19.65	-35.3	-36.6	21.5	0.00e+00	0	43	0	909115392	41	4094
2026-01-26 13:42:41.64	135.69	19.77	-35.3	-36.6	21.5	0.00e+00	0	43	0	916455424	41	4085
2026-01-26 13:42:42.63	135.61	19.89	-35.2	-36.5	21.6	0.00e+00	0	43	0	923795456	41	4048
2026-01-26 13:42:43.63	135.53	20.02	-35.1	-36.5	21.7	0.00e+00	0	43	0	931135488	40	4250
2026-01-26 13:42:44.62	135.45	20.14	-35.2	-36.6	21.5	0.00e+00	0	43	0	938475520	40	4305
2026-01-26 13:42:45.62	135.37	20.26	-35.1	-36.5	21.6	0.00e+00	0	43	0	945815552	40	4256
2026-01-26 13:42:46.61	135.29	20.39	-35.1	-36.5	21.6	0.00e+00	0	43	0	952107008	40	4261
2026-01-26 13:42:47.60	135.20	20.52	-35.1	-36.5	21.6	0.00e+00	0	43	0	959447040	40	4252
2026-01-26 13:42:48.60	135.12	20.64	-35.1	-36.4	21.7	0.00e+00	0	43	0	966787072	40	4221
2026-01-26 13:42:49.59	135.04	20.77	-35.1	-36.4	21.7	0.00e+00	0	43	0	974127104	40	4240
2026-01-26 13:42:50.59	134.95	20.90	-35.0	-36.4	21.7	0.00e+00	0	43	0	981467136	40	4221
2026-01-26 13:42:51.58	134.87	21.03	-35.0	-36.4	21.7	0.00e+00	0	43	0	988807168	40	4209
2026-01-26 13:42:52.58	134.78	21.15	-35.0	-36.4	21.7	0.00e+00	0	43	0	995098624	40	4206
2026-01-26 13:42:53.57	134.69	21.28	-35.0	-36.4	21.7	0.00e+00	0	43	0	1002438656	40	4210
2026-01-26 13:42:54.56	134.61	21.41	-34.9	-36.3	21.8	0.00e+00	0	43	0	1009778688	40	4170
2026-01-26 13:42:55.56	134.52	21.54	-35.0	-36.4	21.7	0.00e+00	0	43	0	1017118720	40	4200
2026-01-26 13:42:56.55	134.43	21.68	-35.1	-36.4	21.7	0.00e+00	0	43	0	1024458752	40	4235
2026-01-26 13:42:57.55	134.34	21.81	-35.0	-36.4	21.7	0.00e+00	0	43	0	1031798784	40	4214
2026-01-26 13:42:58.54	134.25	21.94	-34.8	-36.2	21.9	0.00e+00	0	43	0	1038090240	40	4099
2026-01-26 13:42:59.53	134.16	22.07	-34.9	-36.2	21.9	0.00e+00	0	43	0	1045430272	40	4139
2026-01-26 13:43:00.53	134.06	22.21	-34.9	-36.3	21.8	0.00e+00	0	43	0	1052770304	40	4160
2026-01-26 13:43:01.52	133.97	22.34	-34.9	-36.3	21.8	0.00e+00	0	43	0	1060110336	40	4158
2026-01-26 13:43:02.52	133.87	22.48	-35.1	-36.5	21.7	0.00e+00	0	43	0	1067450368	40	4259
2026-01-26 13:43:03.51	133.78	22.61	-35.2	-36.6	21.6	0.00e+00	0	43	0	1074790400	40	4311
2026-01-26 13:43:04.51	133.68	22.75	-35.1	-36.4	21.7	0.00e+00	0	43	0	1082130432	40	4222
2026-01-26 13:43:05.50	133.59	22.88	-35.2	-36.5	21.6	0.00e+00	0	43	0	1089470464	40	4271
2026-01-26 13:43:06.50	133.49	23.02	-35.2	-36.6	21.5	0.00e+00	0	43	0	1095761920	40	4319
2026-01-26 13:43:07.49	133.39	23.16	-35.1	-36.5	21.6	0.00e+00	0	43	0	1103101952	40	4255
2026-01-26 13:43:08.49	133.29	23.30	-35.1	-36.5	21.6	0.00e+00	0	43	0	1110441984	40	4273
2026-01-26 13:43:09.48	133.19	23.44	-35.1	-36.5	21.7	0.00e+00	0	43	0	1117782016	40	4246
2026-01-26 13:43:10.48	133.09	23.58	-35.1	-36.5	21.7	0.00e+00	0	43	0	1125122048	40	4243
2026-01-26 13:43:11.47	132.99	23.72	-35.1	-36.4	21.6	0.00e+00	0	43	0	1132462080	40	4237
2026-01-26 13:43:12.47	132.88	23.86	-35.1	-36.4	21.7	0.00e+00	0	43	0	1138753536	40	4233
2026-01-26 13:43:13.47	132.78	24.01	-35.2	-36.6	21.6	0.00e+00	0	43	0	1146093568	40	4307
2026-01-26 13:43:14.46	132.67	24.15	-35.1	-36.4	21.8	0.00e+00	0	43	0	1153433600	40	4213
2026-01-26 13:43:15.46	132.57	24.29	-35.1	-36.4	21.7	0.00e+00	0	43	0	1160773632	40	4213
2026-01-26 13:43:16.45	132.46	24.44	-35.2	-36.5	21.6	0.00e+00	0	43	0	1168113664	40	4281
2026-01-26 13:43:17.45	132.35	24.58	-35.2	-36.5	21.6	0.00e+00	0	43	0	1175453696	40	4285
2026-01-26 13:43:18.44	132.24	24.73	-35.1	-36.5	21.7	0.00e+00	0	43	0	1181745152	40	4254
2026-01-26 13:43:19.44	132.13	24.87	-35.3	-36.7	21.5	0.00e+00	0	43	0	1189085184	40	4341
2026-01-26 13:43:20.43	132.02	25.02	-35.1	-36.5	21.7	0.00e+00	0	43	0	1196425216	40	4258
2026-01-26 13:43:21.43	131.91	25.17	-35.1	-36.4	21.7	0.00e+00	0	43	0	1203765248	40	4237
2026-01-26 13:43:22.42	131.80	25.32	-35.3	-36.6	21.6	0.00e+00	0	43	0	1211105280	40	4316
2026-01-26 13:43:23.42	131.68	25.47	-35.0	-36.4	21.8	0.00e+00	0	43	0	1218445312	40	4203
2026-01-26 13:43:24.41	131.57	25.61	-34.7	-36.1	22.0	0.00e+00	0	43	0	1225785344	40	4056
2026-01-26 13:43:25.41	131.45	25.77	-34.9	-36.2	21.9	0.00e+00	0	43	0	1233125376	39	4362
2026-01-26 13:43:26.40	131.33	25.92	-34.8	-36.1	22.1	0.00e+00	0	43	0	1239416832	39	4302
2026-01-26 13:43:27.40	131.21	26.07	-34.8	-36.2	22.0	0.00e+00	0	43	0	1246756864	39	4358
2026-01-26 13:43:28.39	131.09	26.22	-34.9	-36.2	22.0	0.00e+00	0	43	0	1254096896	39	4388
2026-01-26 13:43:29.39	130.97	26.38	-34.8	-36.1	22.0	0.00e+00	0	43	0	1261436928	39	4333
2026-01-26 13:43:30.38	130.85	26.53	-34.6	-36.0	22.2	0.00e+00	0	43	0	1268776960	39	4243
2026-01-26 13:43:31.38	130.72	26.68	-34.5	-35.8	22.2	0.00e+00	0	43	0	1276116992	39	4193
2026-01-26 13:43:32.37	130.60	26.84	-34.5	-35.9	22.3	0.00e+00	0	43	0	1282408448	39	4199
2026-01-26 13:43:33.37	130.47	27.00	-34.5	-35.8	22.3	0.00e+00	0	43	0	1289748480	39	4191
2026-01-26 13:43:34.36	130.35	27.15	-34.5	-35.8	22.2	0.00e+00	0	43	0	1297088512	39	4178
2026-01-26 13:43:35.36	130.22	27.31	-34.3	-35.5	22.5	0.00e+00	0	43	0	1304428544	39	4045
2026-01-26 13:43:36.35	130.09	27.47	-34.3	-35.6	22.4	0.00e+00	0	43	0	1311768576	38	4323
2026-01-26 13:43:37.35	129.96	27.63	-34.3	-35.6	22.4	0.00e+00	0	43	0	1319108608	38	4308
2026-01-26 13:43:38.35	129.82	27.79	-34.2	-35.5	22.5	0.00e+00	0	43	0	1325400064	38	4255
2026-01-26 13:43:39.34	129.69	27.95	-34.2	-35.5	22.5	0.00e+00	0	43	0	1332740096	38	4244
2026-01-26 13:43:40.34	129.55	28.11	-34.2	-35.5	22.5	0.00e+00	0	43	0	1340080128	38	4262
2026-01-26 13:43:41.33	129.42	28.27	-34.2	-35.5	22.5	0.00e+00	0	43	0	1347420160	38	4252
2026-01-26 13:43:42.33	129.28	28.44	-34.2	-35.5	22.5	0.00e+00	0	43	0	1354760192	38	4264
2026-01-26 13:43:43.32	129.14	28.60	-34.3	-35.5	22.5	0.00e+00	0	43	0	1362100224	38	4290
2026-01-26 13:43:44.32	129.00	28.77	-34.2	-35.5	22.5	0.00e+00	0	43	0	1369440256	38	4272
2026-01-26 13:43:45.31	128.85	28.93	-34.4	-35.6	22.4	0.00e+00	0	43	0	1376780288	38	4337
2026-01-26 13:43:46.31	128.71	29.10	-34.3	-35.6	22.4	0.00e+00	0	43	0	1383071744	38	4310
2026-01-26 13:43:47.31	128.56	29.27	-34.5	-35.8	22.3	0.00e+00	0	43	0	1390411776	38	4398
2026-01-26 13:43:48.30	128.42	29.43	-34.5	-35.8	22.3	0.00e+00	0	43	0	1397751808	38	4405
2026-01-26 13:43:49.30	128.27	29.60	-34.5	-35.8	22.2	0.00e+00	0	43	0	1405091840	38	4437
2026-01-26 13:43:50.29	128.12	29.77	-34.6	-35.9	22.1	0.00e+00	0	43	0	1412431872	38	4491
2026-01-26 13:43:51.28	127.96	29.94	-34.9	-36.3	21.8	0.00e+00	0	43	0	1419771904	39	4400
2026-01-26 13:43:52.28	127.81	30.11	-34.6	-36.0	22.1	0.00e+00	0	43	0	1426063360	39	4262
2026-01-26 13:43:53.27	127.66	30.28	-34.7	-36.0	22.1	0.00e+00	0	43	0	1433403392	39	4278
2026-01-26 13:43:54.27	127.50	30.46	-34.8	-36.2	21.9	0.00e+00	0	43	0	1440743424	39	4352
2026-01-26 13:43:55.26	127.34	30.63	-34.9	-36.2	21.8	0.00e+00	0	43	0	1448083456	39	4389
2026-01-26 13:43:56.26	127.18	30.81	-34.9	-36.3	21.9	0.00e+00	0	43	0	1455423488	39	4418
2026-01-26 13:43:57.25	127.02	30.98	-34.8	-36.2	21.9	0.00e+00	0	43	0	1462763520	39	4372
2026-01-26 13:43:58.25	126.85	31.16	-34.8	-36.1	22.0	0.00e+00	0	43	0	1469054976	39	4323
2026-01-26 13:43:59.24	126.69	31.33	-34.6	-36.0	22.1	0.00e+00	0	43	0	1476395008	39	4251
2026-01-26 13:44:00.24	126.52	31.51	-34.7	-36.0	22.1	0.00e+00	0	43	0	1483735040	39	4282
2026-01-26 13:44:01.23	126.35	31.69	-34.8	-36.1	22.0	0.00e+00	0	43	0	1491075072	39	4319
2026-01-26 13:44:02.22	126.18	31.87	-34.8	-36.1	22.1	0.00e+00	0	43	0	1498415104	39	4303
2026-01-26 13:44:03.22	126.00	32.05	-34.8	-36.1	22.1	0.00e+00	0	43	0	1505755136	39	4331
2026-01-26 13:44:04.22	125.83	32.23	-34.6	-35.9	22.2	0.00e+00	0	43	0	1513095168	39	4212
2026-01-26 13:44:05.21	125.65	32.41	-34.4	-35.7	22.3	0.00e+00	0	43	0	1520435200	39	4122
2026-01-26 13:44:06.20	125.47	32.59	-34.1	-35.3	22.6	0.00e+00	0	43	0	1526726656	39	3957
2026-01-26 13:44:07.20	125.29	32.77	-34.2	-35.5	22.5	0.00e+00	0	43	0	1534066688	38	4267
2026-01-26 13:44:08.19	125.11	32.96	-34.1	-35.4	22.5	0.00e+00	0	43	0	1541406720	38	4242
2026-01-26 13:44:09.19	124.92	33.14	-34.1	-35.4	22.6	0.00e+00	0	43	0	1548746752	38	4203
2026-01-26 13:44:10.18	124.73	33.33	-34.1	-35.4	22.6	0.00e+00	0	43	0	1556086784	38	4199
2026-01-26 13:44:11.18	124.54	33.51	-34.2	-35.5	22.5	0.00e+00	0	43	0	1563426816	38	4262
2026-01-26 13:44:12.17	124.35	33.70	-34.4	-35.8	22.2	0.00e+00	0	43	0	1569718272	38	4400
2026-01-26 13:44:13.16	124.16	33.88	-34.1	-35.4	22.6	0.00e+00	0	43	0	1577058304	38	4208
2026-01-26 13:44:14.16	123.96	34.07	-34.2	-35.4	22.6	0.00e+00	0	43	0	1584398336	38	4233
2026-01-26 13:44:15.15	123.76	34.26	-34.3	-35.6	22.5	0.00e+00	0	43	0	1591738368	38	4306
2026-01-26 13:44:16.15	123.56	34.45	-34.4	-35.8	22.4	0.00e+00	0	43	0	1599078400	38	4397
2026-01-26 13:44:17.14	123.36	34.64	-34.6	-35.9	22.2	0.00e+00	0	43	0	1606418432	38	4482
2026-01-26 13:44:18.14	123.15	34.83	-34.5	-35.9	22.3	0.00e+00	0	43	0	1612709888	39	4202
2026-01-26 13:44:19.13	122.94	35.03	-34.8	-36.1	22.1	0.00e+00	0	43	0	1620049920	39	4333
2026-01-26 13:44:20.13	122.73	35.22	-34.6	-35.9	22.3	0.00e+00	0	43	0	1627389952	39	4237
2026-01-26 13:44:21.12	122.52	35.41	-34.7	-36.0	22.2	0.00e+00	0	43	0	1634729984	39	4266
2026-01-26 13:44:22.12	122.30	35.61	-34.6	-35.9	22.3	0.00e+00	0	43	0	1642070016	39	4236
2026-01-26 13:44:23.11	122.08	35.80	-34.6	-35.9	22.3	0.00e+00	0	43	0	1649410048	39	4220
2026-01-26 13:44:24.11	121.86	36.00	-34.5	-35.8	22.5	0.00e+00	0	43	0	1656750080	39	4147
2026-01-26 13:44:25.10	121.64	36.19	-34.3	-35.6	22.6	0.00e+00	0	43	0	1664090112	39	4074
2026-01-26 13:44:26.09	121.41	36.39	-34.3	-35.6	22.6	0.00e+00	0	43	0	1670381568	39	4063
2026-01-26 13:44:27.09	121.18	36.59	-34.3	-35.6	22.6	0.00e+00	0	43	0	1677721600	39	4053
2026-01-26 13:44:28.08	120.95	36.78	-34.3	-35.5	22.6	0.00e+00	0	43	0	1685061632	38	4284
2026-01-26 13:44:29.08	120.71	36.98	-34.4	-35.7	22.4	0.00e+00	0	43	0	1692401664	38	4344
2026-01-26 13:44:30.07	120.47	37.18	-34.3	-35.6	22.4	0.00e+00	0	43	0	1699741696	38	4328
2026-01-26 13:44:31.07	120.23	37.38	-34.3	-35.6	22.5	0.00e+00	0	43	0	1707081728	38	4302
2026-01-26 13:44:32.06	119.99	37.58	-34.3	-35.6	22.5	0.00e+00	0	43	0	1713373184	38	4300
2026-01-26 13:44:33.06	119.74	37.79	-34.5	-35.9	22.2	0.00e+00	0	43	0	1720713216	38	4453
2026-01-26 13:44:34.05	119.49	37.99	-34.3	-35.6	22.6	0.00e+00	0	43	0	1728053248	38	4302
2026-01-26 13:44:35.05	119.23	38.19	-34.1	-35.4	22.8	0.00e+00	0	43	0	1735393280	38	4199
2026-01-26 13:44:36.04	118.98	38.39	-34.6	-35.4	23.5	0.00e+00	0	43	0	1742733312	38	4237
2026-01-26 13:44:37.03	118.72	38.60	-34.6	-35.4	23.5	0.00e+00	0	43	0	1750073344	38	4230
2026-01-26 13:44:38.03	118.46	38.80	-34.6	-35.4	23.5	0.00e+00	0	43	0	1756364800	39	4000
2026-01-26 13:44:39.02	118.19	39.00	-34.7	-35.5	23.5	0.00e+00	0	43	0	1763704832	39	4015
2026-01-26 13:44:40.02	117.92	39.21	-34.7	-35.5	23.5	0.00e+00	0	43	0	1771044864	39	4024
2026-01-26 13:44:41.01	117.65	39.42	-34.9	-35.7	23.3	0.00e+00	0	43	0	1778384896	39	4112
2026-01-26 13:44:42.01	117.37	39.62	-35.0	-35.8	23.1	0.00e+00	0	43	0	1785724928	39	4178
2026-01-26 13:44:43.00	117.09	39.83	-34.7	-35.5	23.5	0.00e+00	0	43	0	1793064960	39	4010
2026-01-26 13:44:44.00	116.80	40.04	-34.8	-35.6	23.3	0.00e+00	0	43	0	1799356416	40	3846
2026-01-26 13:44:44.99	116.51	40.24	-34.9	-35.7	23.2	0.00e+00	0	43	0	1806696448	40	3894
2026-01-26 13:44:45.99	116.22	40.45	-34.8	-35.6	23.3	0.00e+00	0	43	0	1814036480	40	3868
2026-01-26 13:44:46.98	115.93	40.66	-35.0	-35.8	23.1	0.00e+00	0	43	0	1821376512	40	3926
2026-01-26 13:44:47.98	115.63	40.87	-35.2	-36.0	23.0	0.00e+00	0	43	0	1828716544	40	4027
2026-01-26 13:44:48.97	115.32	41.08	-35.2	-36.1	22.9	0.00e+00	0	43	0	1836056576	40	4052
2026-01-26 13:44:49.97	115.02	41.29	-35.3	-36.1	22.8	0.00e+00	0	43	0	1843396608	40	4085
2026-01-26 13:44:50.96	114.71	41.50	-35.2	-36.1	22.9	0.00e+00	0	43	0	1850736640	40	4052
2026-01-26 13:44:51.96	114.39	41.71	-35.1	-35.9	23.0	0.00e+00	0	43	0	1857028096	40	4000
2026-01-26 13:44:52.95	114.07	41.91	-35.2	-36.1	22.9	0.00e+00	0	43	0	1864368128	40	4057
2026-01-26 13:44:53.95	113.74	42.13	-34.7	-35.5	23.4	0.00e+00	0	43	0	1871708160	39	4049
2026-01-26 13:44:54.94	113.42	42.33	-34.9	-35.7	23.3	0.00e+00	0	43	0	1879048192	39	4134
2026-01-26 13:44:55.93	113.09	42.54	-34.7	-35.5	23.4	0.00e+00	0	43	0	1886388224	39	4044
2026-01-26 13:44:56.93	112.75	42.76	-34.8	-35.6	23.4	0.00e+00	0	43	0	1893728256	39	4060
2026-01-26 13:44:57.92	112.41	42.96	-34.7	-35.5	23.4	0.00e+00	0	43	0	1900019712	39	4021
2026-01-26 13:44:58.92	112.06	43.18	-34.7	-35.6	23.4	0.00e+00	0	43	0	1907359744	39	4054
2026-01-26 13:44:59.91	111.71	43.39	-34.5	-35.3	23.6	0.00e+00	0	43	0	1914699776	39	3923
2026-01-26 13:45:00.91	111.36	43.60	-34.7	-35.6	23.4	0.00e+00	0	43	0	1922039808	39	4054
2026-01-26 13:45:01.90	111.00	43.81	-35.0	-35.8	23.1	0.00e+00	0	43	0	1929379840	39	4188
2026-01-26 13:45:02.90	110.63	44.02	-35.2	-36.0	23.0	0.00e+00	0	43	0	1935671296	39	4283
2026-01-26 13:45:03.89	110.26	44.23	-35.5	-36.3	22.7	0.00e+00	0	43	0	1943011328	40	4179
2026-01-26 13:45:04.88	109.89	44.43	-35.5	-36.4	22.6	0.00e+00	0	43	0	1950351360	40	4213
2026-01-26 13:45:05.88	109.51	44.64	-35.5	-36.4	22.6	0.00e+00	0	43	0	1957691392	40	4202
2026-01-26 13:45:06.87	109.13	44.85	-35.4	-36.2	22.8	0.00e+00	0	43	0	1965031424	40	4124
2026-01-26 13:45:07.87	108.74	45.06	-35.2	-36.0	22.9	0.00e+00	0	43	0	1972371456	40	4036
2026-01-26 13:45:08.87	108.34	45.27	-35.1	-35.9	23.0	0.00e+00	0	43	0	1979711488	40	3989
2026-01-26 13:45:09.86	107.94	45.48	-34.9	-35.7	23.2	0.00e+00	0	43	0	1987051520	40	3896
2026-01-26 13:45:10.86	107.53	45.69	-34.8	-35.7	23.2	0.00e+00	0	43	0	1994391552	40	3878
2026-01-26 13:45:11.85	107.13	45.89	-34.7	-35.5	23.4	0.00e+00	0	43	0	2000683008	40	3812
2026-01-26 13:45:12.85	106.71	46.10	-34.9	-35.7	23.2	0.00e+00	0	43	0	2008023040	40	3909
2026-01-26 13:45:13.84	106.29	46.30	-35.2	-36.1	22.9	0.00e+00	0	43	0	2015363072	40	4081
2026-01-26 13:45:14.84	105.86	46.51	-35.7	-36.5	22.4	0.00e+00	0	43	0	2022703104	40	4286
2026-01-26 13:45:15.83	105.43	46.71	-35.9	-36.8	22.3	0.00e+00	0	43	0	2030043136	41	4152
2026-01-26 13:45:16.83	104.99	46.92	-36.1	-37.0	22.1	0.00e+00	0	43	0	2036334592	41	4263
2026-01-26 13:45:17.82	104.55	47.12	-36.2	-37.1	22.0	0.00e+00	0	43	0	2043674624	41	4295
2026-01-26 13:45:18.82	104.09	47.32	-36.2	-37.0	22.1	0.00e+00	0	43	0	2051014656	42	4041
2026-01-26 13:45:19.82	103.64	47.52	-36.2	-37.1	22.0	0.00e+00	0	43	0	2058354688	42	4055
2026-01-26 13:45:20.81	103.18	47.72	-36.2	-37.1	22.0	0.00e+00	0	43	0	2065694720	42	4065
2026-01-26 13:45:21.81	102.71	47.92	-36.1	-37.0	22.1	0.00e+00	0	43	0	2073034752	42	4018
2026-01-26 13:45:22.80	102.23	48.11	-36.0	-36.9	22.2	0.00e+00	0	43	0	2080374784	42	3989
2026-01-26 13:45:23.79	101.76	48.31	-36.0	-36.9	22.2	0.00e+00	0	43	0	2086666240	42	3979
2026-01-26 13:45:24.79	101.27	48.50	-36.1	-37.0	22.0	0.00e+00	0	43	0	2094006272	42	4028
2026-01-26 13:45:25.79	100.77	48.70	-35.8	-36.7	22.4	0.00e+00	0	43	0	2101346304	41	4100
2026-01-26 13:45:26.78	100.28	48.89	-35.8	-36.7	22.4	0.00e+00	0	43	0	2108686336	41	4112
2026-01-26 13:45:27.78	99.77	49.08	-36.0	-36.9	22.2	0.00e+00	0	43	0	2116026368	41	4202
2026-01-26 13:45:28.77	99.26	49.27	-36.0	-36.9	22.2	0.00e+00	0	43	0	2123366400	41	4231
2026-01-26 13:45:29.77	98.74	49.45	-36.3	-37.2	22.0	0.00e+00	0	43	0	2130706432	42	4099
2026-01-26 13:45:30.76	98.22	49.64	-36.5	-37.4	21.7	0.00e+00	0	43	0	2138046464	42	4214
2026-01-26 13:45:31.76	97.69	49.82	-36.7	-37.6	21.5	0.00e+00	0	43	0	2144337920	42	4338
2026-01-26 13:45:32.75	97.16	50.00	-36.6	-37.5	21.7	0.00e+00	0	43	0	2151677952	42	4257
2026-01-26 13:45:33.75	96.61	50.18	-36.4	-37.3	21.8	0.00e+00	0	43	0	2159017984	42	4171
2026-01-26 13:45:34.74	96.07	50.36	-36.3	-37.2	22.0	0.00e+00	0	43	0	2166358016	42	4125
2026-01-26 13:45:35.74	95.51	50.53	-36.4	-37.3	21.8	0.00e+00	0	43	0	2173698048	42	4181
2026-01-26 13:45:36.74	94.94	50.71	-36.1	-37.0	22.2	0.00e+00	0	44	0	2179989504	42	4005
2026-01-26 13:45:37.73	94.38	50.88	-35.9	-36.8	22.3	0.00e+00	0	43	0	2187329536	42	3923
2026-01-26 13:45:38.73	93.80	51.04	-36.2	-37.1	22.0	0.00e+00	0	43	0	2194669568	42	4097
2026-01-26 13:45:39.72	93.22	51.21	-36.3	-37.2	21.8	0.00e+00	0	43	0	2202009600	42	4107
2026-01-26 13:45:40.71	92.64	51.37	-36.6	-37.5	21.6	0.00e+00	0	43	0	2209349632	43	4013
2026-01-26 13:45:41.71	92.04	51.53	-37.0	-37.9	21.3	0.00e+00	0	43	0	2216689664	43	4213
2026-01-26 13:45:42.71	91.44	51.69	-37.0	-38.0	21.3	0.00e+00	0	43	0	2224029696	43	4244
2026-01-26 13:45:43.70	90.83	51.84	-36.8	-37.7	21.5	0.00e+00	0	43	0	2231369728	43	4121
2026-01-26 13:45:44.69	90.22	51.99	-36.6	-37.5	21.6	0.00e+00	0	43	0	2237661184	43	4044
2026-01-26 13:45:45.69	89.60	52.14	-36.0	-36.9	22.2	0.00e+00	0	43	0	2245001216	42	3986
2026-01-26 13:45:46.68	88.98	52.29	-35.9	-36.8	22.3	0.00e+00	0	43	0	2252341248	42	3939
2026-01-26 13:45:47.68	88.35	52.43	-36.0	-36.9	22.2	0.00e+00	0	43	0	2259681280	42	3980
2026-01-26 13:45:48.67	87.71	52.57	-36.2	-37.1	22.0	0.00e+00	0	43	0	2267021312	42	4091
2026-01-26 13:45:49.67	87.06	52.71	-36.3	-37.2	21.9	0.00e+00	0	43	0	2274361344	42	4138
2026-01-26 13:45:50.66	86.42	52.84	-36.3	-37.2	21.9	0.00e+00	0	43	0	2281701376	42	4105
2026-01-26 13:45:51.66	85.76	52.97	-36.1	-37.0	22.1	0.00e+00	0	43	0	2287992832	42	4006
2026-01-26 13:45:52.65	85.10	53.09	-35.8	-36.7	22.4	0.00e+00	0	43	0	2295332864	42	3890
2026-01-26 13:45:53.65	84.43	53.22	-35.6	-36.4	22.6	0.00e+00	0	43	0	2302672896	41	3993
2026-01-26 13:45:54.64	83.76	53.33	-35.8	-36.7	22.4	0.00e+00	0	43	0	2310012928	41	4124
2026-01-26 13:45:55.64	83.08	53.45	-36.2	-37.0	22.0	0.00e+00	0	43	0	2317352960	41	4284
2026-01-26 13:45:56.63	82.40	53.56	-36.7	-37.7	21.5	0.00e+00	0	43	0	2323644416	43	4111
2026-01-26 13:45:57.63	81.71	53.66	-36.8	-37.8	21.4	0.00e+00	0	43	0	2330984448	43	4146
2026-01-26 13:45:58.63	81.02	53.77	-36.9	-37.8	21.4	0.00e+00	0	43	0	2338324480	43	4172
2026-01-26 13:45:59.62	80.32	53.87	-36.4	-37.3	21.8	0.00e+00	0	43	0	2345664512	43	3926
2026-01-26 13:46:00.62	79.62	53.96	-36.2	-37.0	22.1	0.00e+00	0	43	0	2353004544	42	4044
2026-01-26 13:46:01.61	78.91	54.05	-35.8	-36.6	22.4	0.00e+00	0	43	0	2360344576	42	3851
2026-01-26 13:46:02.61	78.20	54.14	-36.0	-36.9	22.2	0.00e+00	0	43	0	2367684608	42	3993
2026-01-26 13:46:03.60	77.49	54.22	-36.1	-37.0	22.2	0.00e+00	0	43	0	2375024640	42	4008
2026-01-26 13:46:04.60	76.76	54.29	-36.4	-37.3	21.8	0.00e+00	0	43	0	2381316096	42	4177
2026-01-26 13:46:05.59	76.04	54.37	-36.5	-37.4	21.8	0.00e+00	0	43	0	2388656128	42	4224
2026-01-26 13:46:06.58	75.32	54.43	-36.2	-37.1	22.1	0.00e+00	0	43	0	2395996160	42	4056
2026-01-26 13:46:07.58	74.59	54.50	-35.9	-36.7	22.3	0.00e+00	0	43	0	2403336192	42	3911
2026-01-26 13:46:08.58	73.85	54.56	-35.7	-36.6	22.5	0.00e+00	0	43	0	2410676224	42	3835
2026-01-26 13:46:09.57	73.12	54.61	-35.9	-36.7	22.3	0.00e+00	0	43	0	2418016256	42	3906
2026-01-26 13:46:10.56	72.38	54.66	-36.1	-37.0	22.1	0.00e+00	0	43	0	2425356288	42	4031
2026-01-26 13:46:11.56	71.64	54.71	-36.4	-37.3	21.9	0.00e+00	0	43	0	2431647744	42	4167
2026-01-26 13:46:12.55	70.90	54.75	-36.3	-37.1	22.0	0.00e+00	0	43	0	2438987776	42	4097
2026-01-26 13:46:13.55	70.15	54.78	-36.1	-36.9	22.1	0.00e+00	0	43	0	2446327808	42	3990
2026-01-26 13:46:14.54	69.41	54.81	-36.0	-36.8	22.2	0.00e+00	0	43	0	2453667840	42	3941
2026-01-26 13:46:15.54	68.65	54.84	-35.8	-36.7	22.4	0.00e+00	0	43	0	2461007872	42	3879
2026-01-26 13:46:16.53	67.91	54.86	-35.6	-36.5	22.6	0.00e+00	0	43	0	2467299328	42	3786
2026-01-26 13:46:17.52	67.16	54.87	-35.8	-36.6	22.5	0.00e+00	0	43	0	2474639360	41	4072
2026-01-26 13:46:18.52	66.41	54.88	-36.1	-37.0	22.1	0.00e+00	0	43	0	2481979392	41	4253
2026-01-26 13:46:19.51	65.66	54.89	-36.4	-37.2	21.9	0.00e+00	0	43	0	2489319424	42	4138
2026-01-26 13:46:20.51	64.90	54.89	-36.2	-37.1	22.0	0.00e+00	0	43	0	2496659456	42	4061
2026-01-26 13:46:21.50	64.16	54.89	-36.0	-36.8	22.3	0.00e+00	0	43	0	2503999488	42	3956
2026-01-26 13:46:22.50	63.40	54.88	-35.7	-36.6	22.5	0.00e+00	0	43	0	2510290944	42	3838
2026-01-26 13:46:23.49	62.65	54.86	-35.5	-36.4	22.7	0.00e+00	0	43	0	2517630976	41	3962
2026-01-26 13:46:24.49	61.90	54.85	-35.7	-36.5	22.5	0.00e+00	0	43	0	2524971008	41	4035
2026-01-26 13:46:25.49	61.15	54.82	-35.9	-36.7	22.3	0.00e+00	0	43	0	2532311040	41	4143
2026-01-26 13:46:26.48	60.40	54.79	-36.1	-37.0	22.1	0.00e+00	0	43	0	2539651072	41	4257
2026-01-26 13:46:27.47	59.66	54.76	-36.4	-37.3	21.9	0.00e+00	0	43	0	2546991104	42	4160
2026-01-26 13:46:28.47	58.92	54.72	-36.2	-37.1	22.0	0.00e+00	0	43	0	2554331136	42	4067
2026-01-26 13:46:29.46	58.18	54.68	-36.1	-37.0	22.1	0.00e+00	0	43	0	2561671168	42	4005
2026-01-26 13:46:30.46	57.43	54.63	-35.9	-36.8	22.3	0.00e+00	0	43	0	2569011200	42	3922
2026-01-26 13:46:31.45	56.70	54.58	-36.2	-37.1	21.9	0.00e+00	0	43	0	2575302656	42	4066
2026-01-26 13:46:32.45	55.96	54.52	-36.2	-37.1	22.0	0.00e+00	0	43	0	2582642688	42	4063
2026-01-26 13:46:33.45	55.23	54.46	-36.3	-37.2	21.9	0.00e+00	0	43	0	2589982720	42	4129
2026-01-26 13:46:34.44	54.51	54.40	-36.4	-37.2	21.9	0.00e+00	0	43	0	2597322752	42	4137
2026-01-26 13:46:35.43	53.78	54.33	-36.2	-37.1	22.0	0.00e+00	0	43	0	2604662784	42	4074
2026-01-26 13:46:36.43	53.06	54.25	-36.3	-37.1	22.0	0.00e+00	0	43	0	2610954240	42	4095
2026-01-26 13:46:37.43	52.34	54.17	-36.1	-36.9	22.2	0.00e+00	0	43	0	2618294272	42	3990
2026-01-26 13:46:38.42	51.63	54.09	-36.2	-37.0	22.1	0.00e+00	0	43	0	2625634304	42	4044
2026-01-26 13:46:39.42	50.92	54.00	-36.1	-36.9	22.2	0.00e+00	0	43	0	2632974336	42	3994
2026-01-26 13:46:40.41	50.22	53.91	-36.1	-36.9	22.1	0.00e+00	0	43	0	2640314368	42	3999
2026-01-26 13:46:41.41	49.52	53.81	-35.9	-36.8	22.3	0.00e+00	0	43	0	2647654400	42	3924
2026-01-26 13:46:42.41	48.82	53.71	-35.9	-36.8	22.3	0.00e+00	0	43	0	2654994432	42	3921
2026-01-26 13:46:43.40	48.13	53.60	-36.0	-36.9	22.2	0.00e+00	0	43	0	2662334464	42	3959
2026-01-26 13:46:44.39	47.45	53.50	-36.3	-37.2	21.9	0.00e+00	0	43	0	2668625920	42	4101
2026-01-26 13:46:45.39	46.77	53.38	-36.6	-37.5	21.6	0.00e+00	0	43	0	2675965952	42	4283
2026-01-26 13:46:46.38	46.10	53.27	-36.4	-37.3	21.8	0.00e+00	0	43	0	2683305984	42	4182
2026-01-26 13:46:47.38	45.43	53.15	-36.6	-37.5	21.7	0.00e+00	0	43	0	2690646016	42	4250
2026-01-26 13:46:48.37	44.77	53.02	-36.8	-37.7	21.5	0.00e+00	0	43	0	2697986048	43	4111
2026-01-26 13:46:49.37	44.11	52.90	-36.8	-37.8	21.5	0.00e+00	0	43	0	2705326080	43	4150
2026-01-26 13:46:50.36	43.46	52.77	-36.6	-37.5	21.6	0.00e+00	0	43	0	2712666112	43	4042
2026-01-26 13:46:51.36	42.81	52.63	-36.6	-37.5	21.6	0.00e+00	0	43	0	2718957568	43	4020
2026-01-26 13:46:52.35	42.18	52.49	-36.3	-37.1	22.0	0.00e+00	0	43	0	2726297600	43	3861
2026-01-26 13:46:53.35	41.54	52.35	-36.1	-37.0	22.1	0.00e+00	0	43	0	2733637632	42	4006
2026-01-26 13:46:54.34	40.92	52.21	-36.2	-37.1	22.0	0.00e+00	0	43	0	2740977664	42	4081
2026-01-26 13:46:55.34	40.29	52.06	-36.0	-36.8	22.2	0.00e+00	0	43	0	2748317696	42	3957
2026-01-26 13:46:56.33	39.68	51.91	-36.1	-37.0	22.1	0.00e+00	0	43	0	2754609152	42	4030
2026-01-26 13:46:57.33	39.07	51.76	-35.9	-36.7	22.3	0.00e+00	0	43	0	2761949184	42	3909
2026-01-26 13:46:58.32	38.47	51.60	-36.0	-36.9	22.2	0.00e+00	0	43	0	2769289216	42	3971
2026-01-26 13:46:59.31	37.88	51.45	-36.0	-36.8	22.3	0.00e+00	0	43	0	2776629248	42	3944
2026-01-26 13:47:00.30	37.29	51.29	-36.0	-36.8	22.2	0.00e+00	0	43	0	2783969280	42	3954
2026-01-26 13:47:01.29	36.71	51.12	-35.8	-36.7	22.4	0.00e+00	0	43	0	2791309312	42	3887
2026-01-26 13:47:02.29	36.13	50.96	-35.7	-36.5	22.5	0.00e+00	0	43	0	2797600768	42	3818
2026-01-26 13:47:03.28	35.57	50.79	-35.6	-36.4	22.6	0.00e+00	0	43	0	2804940800	42	3768
2026-01-26 13:47:04.28	35.00	50.62	-35.5	-36.3	22.6	0.00e+00	0	43	0	2812280832	41	3947
2026-01-26 13:47:05.27	34.45	50.44	-35.5	-36.4	22.7	0.00e+00	0	43	0	2819620864	41	3975
2026-01-26 13:47:06.27	33.89	50.27	-35.8	-36.6	22.4	0.00e+00	0	43	0	2826960896	41	4075
2026-01-26 13:47:07.27	33.35	50.09	-36.0	-36.9	22.1	0.00e+00	0	43	0	2834300928	41	4222
2026-01-26 13:47:08.26	32.81	49.91	-36.1	-37.0	22.1	0.00e+00	0	43	0	2841640960	41	4253
2026-01-26 13:47:09.26	32.28	49.73	-36.0	-36.8	22.2	0.00e+00	0	43	0	2848980992	41	4192
2026-01-26 13:47:10.25	31.75	49.54	-35.7	-36.5	22.4	0.00e+00	0	43	0	2855272448	41	4046
2026-01-26 13:47:11.24	31.24	49.36	-35.6	-36.5	22.5	0.00e+00	0	43	0	2862612480	41	4005
2026-01-26 13:47:12.23	30.73	49.17	-35.5	-36.4	22.7	0.00e+00	0	43	0	2869952512	41	3959
2026-01-26 13:47:13.23	30.22	48.98	-35.6	-36.5	22.6	0.00e+00	0	43	0	2877292544	41	4015
2026-01-26 13:47:14.22	29.72	48.80	-35.9	-36.7	22.3	0.00e+00	0	43	0	2884632576	41	4137
2026-01-26 13:47:15.22	29.23	48.60	-35.9	-36.7	22.3	0.00e+00	0	43	0	2891972608	41	4144
2026-01-26 13:47:16.21	28.74	48.41	-36.0	-36.8	22.2	0.00e+00	0	43	0	2898264064	41	4190
2026-01-26 13:47:17.21	28.26	48.22	-35.8	-36.7	22.3	0.00e+00	0	43	0	2905604096	41	4126
2026-01-26 13:47:18.20	27.78	48.02	-35.5	-36.3	22.5	0.00e+00	0	43	0	2912944128	41	3951
2026-01-26 13:47:19.20	27.31	47.82	-35.3	-36.2	22.8	0.00e+00	0	43	0	2920284160	41	3872
2026-01-26 13:47:20.19	26.85	47.63	-35.0	-35.8	23.0	0.00e+00	0	43	0	2927624192	40	3949
2026-01-26 13:47:21.19	26.39	47.43	-35.2	-36.0	22.9	0.00e+00	0	43	0	2934964224	40	4018
2026-01-26 13:47:22.18	25.94	47.23	-35.3	-36.2	22.8	0.00e+00	0	43	0	2941255680	40	4107
2026-01-26 13:47:23.18	25.49	47.02	-35.5	-36.4	22.6	0.00e+00	0	43	0	2948595712	40	4202
2026-01-26 13:47:24.17	25.06	46.82	-35.6	-36.4	22.6	0.00e+00	0	43	0	2955935744	40	4235
2026-01-26 13:47:25.17	24.62	46.62	-35.4	-36.2	22.7	0.00e+00	0	43	0	2963275776	40	4131
2026-01-26 13:47:26.16	24.19	46.42	-35.4	-36.2	22.8	0.00e+00	0	43	0	2970615808	40	4133
2026-01-26 13:47:27.16	23.77	46.21	-35.4	-36.2	22.8	0.00e+00	0	43	0	2977955840	40	4142
2026-01-26 13:47:28.15	23.35	46.01	-35.2	-36.0	22.9	0.00e+00	0	43	0	2985295872	40	4035
2026-01-26 13:47:29.14	22.94	45.80	-35.2	-36.0	23.0	0.00e+00	0	43	0	2991587328	40	4020
2026-01-26 13:47:30.14	22.53	45.60	-35.3	-36.1	22.9	0.00e+00	0	43	0	2998927360	40	4087
2026-01-26 13:47:31.14	22.13	45.39	-35.6	-36.4	22.6	0.00e+00	0	43	0	3006267392	40	4225
2026-01-26 13:47:32.13	21.74	45.18	-35.7	-36.6	22.5	0.00e+00	0	43	0	3013607424	40	4294
2026-01-26 13:47:33.12	21.35	44.97	-35.5	-36.3	22.7	0.00e+00	0	43	0	3020947456	40	4186
2026-01-26 13:47:34.12	20.96	44.77	-35.1	-36.0	23.0	0.00e+00	0	43	0	3028287488	40	4008
2026-01-26 13:47:35.11	20.58	44.56	-35.0	-35.8	23.1	0.00e+00	0	43	0	3035627520	40	3948
2026-01-26 13:47:36.11	20.20	44.35	-34.9	-35.8	23.2	0.00e+00	0	43	0	3041918976	40	3920
2026-01-26 13:47:37.10	19.83	44.14	-35.0	-35.8	23.1	0.00e+00	0	43	0	3049259008	40	3955
2026-01-26 13:47:38.10	19.47	43.93	-34.8	-35.6	23.3	0.00e+00	0	43	0	3056599040	40	3867
2026-01-26 13:47:39.09	19.11	43.72	-34.7	-35.5	23.4	0.00e+00	0	43	0	3063939072	40	3804
2026-01-26 13:47:40.09	18.75	43.51	-34.8	-35.6	23.3	0.00e+00	0	43	0	3071279104	40	3834
2026-01-26 13:47:41.08	18.40	43.30	-34.7	-35.5	23.4	0.00e+00	0	43	0	3078619136	39	4048
2026-01-26 13:47:42.08	18.05	43.09	-34.7	-35.5	23.5	0.00e+00	0	43	0	3084910592	39	4036
2026-01-26 13:47:43.07	17.71	42.88	-34.7	-35.5	23.4	0.00e+00	0	43	0	3092250624	39	4045
2026-01-26 13:47:44.07	17.37	42.67	-34.9	-35.7	23.3	0.00e+00	0	43	0	3099590656	39	4118
2026-01-26 13:47:45.06	17.04	42.46	-35.0	-35.9	23.2	0.00e+00	0	43	0	3106930688	39	4195
2026-01-26 13:47:46.06	16.71	42.25	-35.2	-36.0	22.6	0.00e+00	0	43	0	3114270720	39	4279
2026-01-26 13:47:47.05	16.38	42.05	-35.1	-36.0	23.0	0.00e+00	0	43	0	3121610752	39	4258
2026-01-26 13:47:48.05	16.06	41.84	-35.2	-36.0	23.0	0.00e+00	0	43	0	3127902208	39	4265
2026-01-26 13:47:49.04	15.75	41.63	-35.0	-35.9	23.1	0.00e+00	0	43	0	3135242240	39	4201
2026-01-26 13:47:50.03	15.43	41.42	-34.9	-35.7	23.2	0.00e+00	0	43	0	3142582272	39	4139
2026-01-26 13:47:51.03	15.12	41.21	-34.9	-35.7	23.2	0.00e+00	0	43	0	3149922304	39	4131
2026-01-26 13:47:52.03	14.82	41.00	-35.0	-35.8	23.1	0.00e+00	0	43	0	3157262336	39	4192
2026-01-26 13:47:53.02	14.52	40.79	-35.1	-35.9	23.1	0.00e+00	0	43	0	3164602368	39	4240
2026-01-26 13:47:54.01	14.22	40.59	-35.2	-36.1	22.9	0.00e+00	0	43	0	3171942400	40	4063
2026-01-26 13:47:55.01	13.93	40.38	-35.5	-36.3	22.7	0.00e+00	0	43	0	3179282432	40	4182
2026-01-26 13:47:56.00	13.64	40.17	-35.2	-36.1	22.8	0.00e+00	0	43	0	3185573888	40	4061
2026-01-26 13:47:57.00	13.36	39.97	-35.0	-35.9	23.1	0.00e+00	0	43	0	3192913920	40	3975
2026-01-26 13:47:57.99	13.08	39.76	-34.9	-35.7	23.2	0.00e+00	0	43	0	3200253952	40	3893
2026-01-26 13:47:58.99	12.80	39.55	-34.9	-35.7	23.2	0.00e+00	0	43	0	3207593984	40	3903
2026-01-26 13:47:59.98	12.52	39.35	-34.9	-35.7	23.2	0.00e+00	0	43	0	3214934016	40	3889
2026-01-26 13:48:00.98	12.25	39.14	-34.9	-35.7	23.2	0.00e+00	0	43	0	3222274048	40	3912
2026-01-26 13:48:01.97	11.98	38.94	-34.8	-35.6	23.2	0.00e+00	0	43	0	3228565504	40	3847
2026-01-26 13:48:02.97	11.72	38.74	-34.6	-35.4	23.4	0.00e+00	0	43	0	3235905536	40	3764
2026-01-26 13:48:03.96	11.46	38.53	-34.6	-35.4	23.5	0.00e+00	0	43	0	3243245568	39	3971
2026-01-26 13:48:04.96	11.20	38.33	-34.5	-35.3	23.5	0.00e+00	0	43	0	3250585600	39	3958
2026-01-26 13:48:05.95	10.95	38.13	-34.5	-35.3	23.6	0.00e+00	0	43	0	3257925632	39	3930
2026-01-26 13:48:06.95	10.69	37.93	-34.7	-35.5	22.9	0.00e+00	0	43	0	3265265664	39	4031
2026-01-26 13:48:07.94	10.45	37.73	-34.6	-35.4	23.5	0.00e+00	0	43	0	3271557120	39	3995
2026-01-26 13:48:08.94	10.20	37.53	-34.8	-35.7	23.3	0.00e+00	0	43	0	3278897152	39	4103
2026-01-26 13:48:09.93	9.96	37.33	-34.8	-35.7	23.3	0.00e+00	0	43	0	3286237184	39	4103
2026-01-26 13:48:10.93	9.72	37.13	-34.9	-35.7	23.2	0.00e+00	0	43	0	3293577216	39	4142
2026-01-26 13:48:11.92	9.48	36.93	-34.9	-35.7	23.2	0.00e+00	0	43	0	3300917248	39	4132
2026-01-26 13:48:12.92	9.25	36.73	-34.9	-35.7	23.2	0.00e+00	0	43	0	3308257280	39	4119
2026-01-26 13:48:13.92	9.02	36.53	-34.9	-35.8	23.2	0.00e+00	0	43	0	3315597312	39	4153
2026-01-26 13:48:14.91	8.79	36.34	-35.1	-35.9	23.1	0.00e+00	0	43	0	3322937344	39	4223
2026-01-26 13:48:15.91	8.57	36.14	-35.0	-35.8	23.2	0.00e+00	0	43	0	3329228800	39	4174
2026-01-26 13:48:16.90	8.35	35.95	-34.9	-35.7	23.0	0.00e+00	0	43	0	3336568832	39	4116
2026-01-26 13:48:17.90	8.12	35.75	-34.7	-35.5	23.3	0.00e+00	0	43	0	3343908864	39	4044
2026-01-26 13:48:18.90	7.91	35.56	-34.7	-35.5	23.4	0.00e+00	0	43	0	3351248896	39	4041
2026-01-26 13:48:19.89	7.69	35.36	-34.5	-35.4	23.6	0.00e+00	0	43	0	3358588928	39	3959
2026-01-26 13:48:20.88	7.48	35.17	-34.4	-35.2	23.7	0.00e+00	0	43	0	3365928960	39	3910
2026-01-26 13:48:21.88	7.27	34.98	-34.3	-35.1	23.8	0.00e+00	0	43	0	3372220416	39	3844
2026-01-26 13:48:22.88	7.07	34.79	-34.2	-35.1	23.8	0.00e+00	0	43	0	3379560448	39	3825
2026-01-26 13:48:23.87	6.86	34.60	-34.4	-35.2	23.6	0.00e+00	0	43	0	3386900480	39	3884
2026-01-26 13:48:24.87	6.66	34.41	-34.4	-35.2	23.7	0.00e+00	0	43	0	3394240512	39	3889
2026-01-26 13:48:25.85	6.46	34.22	-34.5	-35.3	23.6	0.00e+00	0	43	0	3401580544	39	3935
2026-01-26 13:48:26.84	6.27	34.04	-34.5	-35.3	23.5	0.00e+00	0	43	0	3408920576	39	3945
2026-01-26 13:48:27.84	6.07	33.85	-34.4	-35.2	23.6	0.00e+00	0	43	0	3416260608	39	3910
2026-01-26 13:48:28.83	5.88	33.66	-34.4	-35.2	23.6	0.00e+00	0	43	0	3422552064	39	3895
2026-01-26 13:48:29.82	5.69	33.48	-34.4	-35.2	23.6	0.00e+00	0	43	0	3429892096	39	3912
2026-01-26 13:48:30.81	5.50	33.29	-34.4	-35.3	23.6	0.00e+00	0	43	0	3437232128	39	3919
2026-01-26 13:48:31.81	5.32	33.11	-34.5	-35.3	23.6	0.00e+00	0	43	0	3444572160	39	3923
2026-01-26 13:48:32.80	5.13	32.93	-34.6	-35.4	23.4	0.00e+00	0	43	0	3451912192	39	3996
2026-01-26 13:48:33.80	4.95	32.74	-34.8	-35.6	23.3	0.00e+00	0	43	0	3459252224	39	4081
2026-01-26 13:48:34.79	4.77	32.56	-35.0	-35.8	23.2	0.00e+00	0	43	0	3466592256	39	4163
2026-01-26 13:48:35.79	4.59	32.38	-34.9	-35.8	23.2	0.00e+00	0	43	0	3472883712	39	4150
2026-01-26 13:48:36.78	4.42	32.20	-34.8	-35.6	23.3	0.00e+00	0	44	0	3480223744	39	4078
2026-01-26 13:48:37.78	4.24	32.02	-34.9	-35.7	23.1	0.00e+00	0	43	0	3487563776	39	4143
2026-01-26 13:48:38.77	4.07	31.84	-34.8	-35.6	23.1	0.00e+00	0	43	0	3494903808	39	4089
2026-01-26 13:48:39.77	3.90	31.66	-34.8	-35.6	23.3	0.00e+00	0	43	0	3502243840	39	4073
2026-01-26 13:48:40.76	3.73	31.49	-34.7	-35.5	23.3	0.00e+00	0	43	0	3509583872	39	4043
2026-01-26 13:48:41.76	3.57	31.31	-34.6	-35.5	23.4	0.00e+00	0	43	0	3515875328	39	4027
2026-01-26 13:48:42.75	3.40	31.14	-34.8	-35.7	23.3	0.00e+00	0	43	0	3523215360	39	4117
2026-01-26 13:48:43.75	3.24	30.96	-34.7	-35.5	23.4	0.00e+00	0	43	0	3530555392	39	4033
2026-01-26 13:48:44.74	3.08	30.79	-34.7	-35.5	23.4	0.00e+00	0	43	0	3537895424	39	4036
2026-01-26 13:48:45.74	2.92	30.61	-34.6	-35.4	23.5	0.00e+00	0	43	0	3545235456	39	3982
2026-01-26 13:48:46.73	2.76	30.44	-34.6	-35.5	23.4	0.00e+00	0	43	0	3551526912	39	4006
2026-01-26 13:48:47.73	2.61	30.27	-34.6	-35.4	23.4	0.00e+00	0	43	0	3558866944	39	3989
2026-01-26 13:48:48.72	2.46	30.10	-34.6	-35.4	23.5	0.00e+00	0	43	0	3566206976	39	3989
2026-01-26 13:48:49.72	2.30	29.93	-34.6	-35.4	23.5	0.00e+00	0	43	0	3573547008	39	4000
2026-01-26 13:48:50.72	2.15	29.76	-34.8	-35.6	23.4	0.00e+00	0	43	0	3580887040	39	4066
2026-01-26 13:48:51.71	2.00	29.59	-34.7	-35.5	23.3	0.00e+00	0	44	0	3588227072	39	4051
2026-01-26 13:48:52.70	1.86	29.42	-34.8	-35.7	23.2	0.00e+00	0	43	0	3595567104	39	4110
2026-01-26 13:48:53.70	1.71	29.26	-35.0	-35.9	23.0	0.00e+00	0	43	0	3602907136	39	4208
2026-01-26 13:48:54.70	1.56	29.09	-34.9	-35.7	23.2	0.00e+00	0	43	0	3610247168	39	4128
2026-01-26 13:48:55.69	1.42	28.93	-34.8	-35.6	23.3	0.00e+00	0	43	0	3616538624	39	4097
2026-01-26 13:48:56.69	1.28	28.76	-35.0	-35.8	23.1	0.00e+00	0	43	0	3623878656	39	4171
2026-01-26 13:48:57.68	1.14	28.60	-34.8	-35.6	23.3	0.00e+00	0	43	0	3631218688	39	4078
2026-01-26 13:48:58.68	1.00	28.43	-34.9	-35.7	23.2	0.00e+00	0	43	0	3638558720	39	4108
2026-01-26 13:48:59.67	0.87	28.27	-34.8	-35.7	23.2	0.00e+00	0	43	0	3645898752	39	4103
2026-01-26 13:49:00.66	0.73	28.11	-34.8	-35.6	23.2	0.00e+00	0	43	0	3653238784	39	4093
2026-01-26 13:49:01.66	0.60	27.95	-34.9	-35.8	23.1	0.00e+00	0	43	0	3659530240	39	4149
2026-01-26 13:49:02.65	0.46	27.79	-35.1	-35.9	23.0	0.00e+00	0	43	0	3666870272	39	4226
2026-01-26 13:49:03.65	0.33	27.63	-35.0	-35.9	23.1	0.00e+00	0	43	0	3674210304	39	4203
2026-01-26 13:49:04.64	0.20	27.47	-35.1	-36.0	23.0	0.00e+00	0	43	0	3681550336	39	4248
2026-01-26 13:49:05.63	0.07	27.32	-35.1	-35.9	23.0	0.00e+00	0	43	0	3688890368	39	4217
2026-01-26 13:49:06.63	359.95	27.16	-35.1	-35.9	23.0	0.00e+00	0	43	0	3695181824	39	4240
2026-01-26 13:49:07.63	359.82	27.00	-35.1	-36.0	22.9	0.00e+00	0	43	0	3702521856	39	4243
2026-01-26 13:49:08.62	359.70	26.85	-35.1	-35.9	23.0	0.00e+00	0	43	0	3709861888	39	4230
2026-01-26 13:49:09.61	359.57	26.69	-35.1	-35.9	23.0	0.00e+00	0	43	0	3717201920	39	4238
2026-01-26 13:49:10.61	359.45	26.54	-35.0	-35.9	23.1	0.00e+00	0	43	0	3724541952	39	4196
2026-01-26 13:49:11.60	359.33	26.39	-35.1	-35.9	23.0	0.00e+00	0	43	0	3731881984	39	4222
2026-01-26 13:49:12.60	359.21	26.23	-35.1	-35.9	23.0	0.00e+00	0	43	0	3739222016	39	4219
2026-01-26 13:49:13.59	359.09	26.08	-35.0	-35.8	23.1	0.00e+00	0	43	0	3746562048	39	4167
2026-01-26 13:49:14.59	358.97	25.93	-34.9	-35.7	23.2	0.00e+00	0	43	0	3753902080	39	4130
2026-01-26 13:49:15.58	358.86	25.78	-34.9	-35.8	23.1	0.00e+00	0	43	0	3760193536	39	4157
2026-01-26 13:49:16.57	358.74	25.63	-34.8	-35.7	23.2	0.00e+00	0	43	0	3767533568	39	4103
2026-01-26 13:49:17.57	358.63	25.48	-34.9	-35.8	23.1	0.00e+00	0	43	0	3774873600	39	4157
2026-01-26 13:49:18.56	358.51	25.33	-34.9	-35.8	23.1	0.00e+00	0	43	0	3782213632	39	4152
2026-01-26 13:49:19.56	358.40	25.19	-35.2	-36.0	22.9	0.00e+00	0	43	0	3789553664	39	4265
2026-01-26 13:49:20.55	358.29	25.04	-34.9	-35.8	23.1	0.00e+00	0	43	0	3796893696	39	4158
2026-01-26 13:49:21.55	358.18	24.89	-35.0	-35.8	23.1	0.00e+00	0	43	0	3803185152	39	4170
2026-01-26 13:49:22.54	358.07	24.75	-35.1	-36.0	22.9	0.00e+00	0	43	0	3810525184	39	4258
2026-01-26 13:49:23.54	357.96	24.60	-35.3	-36.1	22.8	0.00e+00	0	43	0	3817865216	39	4333
2026-01-26 13:49:24.53	357.86	24.46	-35.1	-36.0	22.8	0.00e+00	0	43	0	3825205248	40	4018
2026-01-26 13:49:25.53	357.75	24.31	-35.2	-36.0	22.8	0.00e+00	0	43	0	3832545280	40	4050
2026-01-26 13:49:26.52	357.65	24.17	-35.3	-36.2	22.7	0.00e+00	0	43	0	3838836736	40	4101
2026-01-26 13:49:27.52	357.54	24.03	-35.3	-36.2	22.7	0.00e+00	0	43	0	3846176768	40	4131
2026-01-26 13:49:28.51	357.44	23.89	-35.4	-36.2	22.5	0.00e+00	0	43	0	3853516800	40	4143
2026-01-26 13:49:29.51	357.34	23.75	-35.5	-36.3	22.6	0.00e+00	0	43	0	3860856832	40	4186
2026-01-26 13:49:30.51	357.23	23.61	-35.4	-36.3	22.6	0.00e+00	0	43	0	3868196864	40	4147
2026-01-26 13:49:31.50	357.14	23.47	-35.5	-36.3	22.5	0.00e+00	0	43	0	3875536896	40	4192
2026-01-26 13:49:32.50	357.04	23.33	-35.4	-36.3	22.5	0.00e+00	0	43	0	3882876928	40	4173
2026-01-26 13:49:33.49	356.94	23.19	-35.4	-36.3	22.6	0.00e+00	0	43	0	3890216960	40	4160
2026-01-26 13:49:34.49	356.84	23.05	-35.3	-36.2	22.7	0.00e+00	0	43	0	3897556992	40	4120
2026-01-26 13:49:35.48	356.74	22.92	-35.4	-36.2	22.6	0.00e+00	0	43	0	3903848448	40	4139
2026-01-26 13:49:36.48	356.65	22.78	-35.3	-36.2	22.7	0.00e+00	0	43	0	3911188480	40	4116
2026-01-26 13:49:37.47	356.55	22.65	-35.3	-36.2	22.7	0.00e+00	0	43	0	3918528512	40	4117
2026-01-26 13:49:38.47	356.46	22.51	-35.5	-36.3	22.5	0.00e+00	0	43	0	3925868544	40	4189
2026-01-26 13:49:39.46	356.37	22.38	-35.3	-36.1	22.7	0.00e+00	0	43	0	3933208576	40	4087
2026-01-26 13:49:40.46	356.27	22.24	-35.2	-36.1	22.8	0.00e+00	0	44	0	3940548608	40	4059
2026-01-26 13:49:41.45	356.18	22.11	-35.3	-36.2	22.7	0.00e+00	0	43	0	3946840064	40	4103
2026-01-26 13:49:42.45	356.09	21.98	-35.3	-36.2	22.7	0.00e+00	0	44	0	3954180096	40	4124
2026-01-26 13:49:43.45	356.00	21.84	-35.4	-36.2	22.6	0.00e+00	0	43	0	3961520128	40	4126
2026-01-26 13:49:44.44	355.91	21.71	-35.3	-36.2	22.7	0.00e+00	0	43	0	3968860160	40	4111
2026-01-26 13:49:45.43	355.82	21.58	-35.3	-36.2	22.7	0.00e+00	0	43	0	3976200192	40	4120
2026-01-26 13:49:46.43	355.74	21.45	-35.5	-36.3	22.5	0.00e+00	0	43	0	3982491648	40	4173
2026-01-26 13:49:47.42	355.65	21.32	-35.5	-36.3	22.5	0.00e+00	0	43	0	3989831680	40	4174
2026-01-26 13:49:48.42	355.56	21.19	-35.5	-36.4	22.5	0.00e+00	0	43	0	3997171712	40	4195
2026-01-26 13:49:49.42	355.48	21.07	-35.5	-36.4	22.4	0.00e+00	0	43	0	4004511744	40	4201
2026-01-26 13:49:50.41	355.39	20.94	-35.6	-36.5	22.4	0.00e+00	0	43	0	4011851776	40	4247
2026-01-26 13:49:51.40	355.31	20.81	-35.5	-36.4	22.5	0.00e+00	0	43	0	4019191808	40	4209
2026-01-26 13:49:52.40	355.23	20.68	-35.7	-36.6	22.3	0.00e+00	0	43	0	4026531840	40	4315
2026-01-26 13:49:53.39	355.15	20.56	-35.7	-36.6	22.3	0.00e+00	0	43	0	4033871872	40	4308
2026-01-26 13:49:54.39	355.06	20.43	-35.8	-36.7	22.2	0.00e+00	0	43	0	4041211904	41	4126
2026-01-26 13:49:55.38	354.98	20.31	-35.8	-36.7	22.2	0.00e+00	0	43	0	4047503360	41	4115
2026-01-26 13:49:56.38	354.90	20.18	-35.8	-36.7	22.2	0.00e+00	0	43	0	4054843392	41	4105
2026-01-26 13:49:57.37	354.82	20.06	-35.8	-36.7	22.1	0.00e+00	0	43	0	4062183424	41	4134
2026-01-26 13:49:58.37	354.74	19.94	-36.1	-37.0	21.9	0.00e+00	0	43	0	4069523456	41	4265
2026-01-26 13:49:59.36	354.67	19.82	-36.2	-37.1	21.8	0.00e+00	0	43	0	4076863488	41	4315
2026-01-26 13:50:00.36	354.59	19.69	-36.1	-37.0	21.9	0.00e+00	0	43	0	4084203520	41	4275
2026-01-26 13:50:01.36	354.51	19.57	-36.1	-37.0	21.9	0.00e+00	0	43	0	4090494976	41	4262
2026-01-26 13:50:02.35	354.43	19.45	-36.2	-37.1	21.8	0.00e+00	0	43	0	4097835008	41	4320
2026-01-26 13:50:03.35	354.36	19.33	-36.1	-37.1	21.8	0.00e+00	0	43	0	4105175040	41	4303
2026-01-26 13:50:04.34	354.28	19.21	-36.3	-37.2	21.7	0.00e+00	0	43	0	4112515072	41	4370
2026-01-26 13:50:05.33	354.21	19.09	-36.2	-37.1	21.8	0.00e+00	0	43	0	4119855104	41	4325
2026-01-26 13:50:06.33	354.13	18.97	-36.1	-37.0	21.9	0.00e+00	0	43	0	4126146560	41	4266
2026-01-26 13:50:07.32	354.06	18.85	-36.1	-37.1	21.8	0.00e+00	0	43	0	4133486592	41	4306
2026-01-26 13:50:08.32	353.99	18.74	-36.2	-37.1	21.8	0.00e+00	0	43	0	4140826624	41	4324
2026-01-26 13:50:09.31	353.92	18.62	-36.2	-37.1	21.8	0.00e+00	0	43	0	4148166656	41	4326
2026-01-26 13:50:10.31	353.85	18.50	-36.1	-37.1	21.8	0.00e+00	0	43	0	4155506688	41	4295
2026-01-26 13:50:11.30	353.77	18.39	-36.2	-37.1	21.8	0.00e+00	0	43	0	4162846720	41	4301
2026-01-26 13:50:12.30	353.70	18.27	-36.2	-37.2	21.8	0.00e+00	0	43	0	4170186752	41	4347
2026-01-26 13:50:13.29	353.63	18.15	-36.2	-37.1	21.8	0.00e+00	0	43	0	4177526784	41	4317
2026-01-26 13:50:14.29	353.57	18.04	-36.3	-37.3	21.7	0.00e+00	0	43	0	4184866816	42	4147
2026-01-26 13:50:15.28	353.50	17.93	-36.3	-37.2	21.7	0.00e+00	0	43	0	4191158272	42	4138
2026-01-26 13:50:16.28	353.43	17.81	-36.3	-37.3	21.7	0.00e+00	0	43	0	4198498304	42	4147
2026-01-26 13:50:17.28	353.36	17.70	-36.4	-37.3	21.6	0.00e+00	0	43	0	4205838336	42	4193
2026-01-26 13:50:18.27	353.29	17.58	-36.3	-37.2	21.7	0.00e+00	0	43	0	4213178368	42	4144
2026-01-26 13:50:19.27	353.23	17.47	-36.6	-37.5	21.5	0.00e+00	0	43	0	4220518400	42	4263
2026-01-26 13:50:20.26	353.16	17.36	-36.5	-37.5	21.5	0.00e+00	0	43	0	4226809856	42	4253
2026-01-26 13:50:21.26	353.09	17.25	-36.4	-37.3	21.6	0.00e+00	0	43	0	4234149888	42	4192
2026-01-26 13:50:22.25	353.03	17.14	-36.5	-37.4	21.6	0.00e+00	0	43	0	4241489920	42	4228
2026-01-26 13:50:23.25	352.97	17.03	-36.5	-37.4	21.5	0.00e+00	0	43	0	4248829952	42	4226
2026-01-26 13:50:24.24	352.90	16.92	-36.5	-37.4	21.5	0.00e+00	0	43	0	4256169984	42	4241
2026-01-26 13:50:25.24	352.84	16.81	-36.6	-37.5	21.4	0.00e+00	0	43	0	4263510016	42	4272
2026-01-26 13:50:26.23	352.78	16.70	-36.7	-37.6	21.3	0.00e+00	0	43	0	4269801472	42	4328
2026-01-26 13:50:27.23	352.71	16.59	-36.7	-37.6	21.3	0.00e+00	0	43	0	4277141504	42	4320
2026-01-26 13:50:28.22	352.65	16.48	-36.7	-37.7	21.3	0.00e+00	0	43	0	4284481536	42	4356
2026-01-26 13:50:29.22	352.59	16.37	-36.7	-37.7	21.3	0.00e+00	0	43	0	4291821568	42	4356
2026-01-26 13:50:30.21	352.53	16.27	-36.7	-37.7	21.3	0.00e+00	0	43	0	4299161600	43	4123
2026-01-26 13:50:31.21	352.47	16.16	-36.9	-37.8	21.2	0.00e+00	0	43	0	4306501632	43	4181
2026-01-26 13:50:32.21	352.41	16.05	-36.8	-37.8	21.2	0.00e+00	0	43	0	4313841664	43	4156
2026-01-26 13:50:33.20	352.35	15.95	-36.8	-37.8	21.1	0.00e+00	0	44	0	4321181696	43	4187
2026-01-26 13:50:34.20	352.29	15.84	-36.9	-37.9	21.1	0.00e+00	0	43	0	4328521728	43	4223
2026-01-26 13:50:35.19	352.23	15.74	-37.0	-38.0	21.0	0.00e+00	0	43	0	4334813184	43	4251
2026-01-26 13:50:36.19	352.17	15.63	-36.9	-37.9	21.1	0.00e+00	0	43	0	4342153216	43	4207
2026-01-26 13:50:37.18	352.11	15.53	-36.9	-37.9	21.1	0.00e+00	0	44	0	4349493248	43	4231
2026-01-26 13:50:38.18	352.05	15.42	-37.0	-37.9	21.0	0.00e+00	0	43	0	4356833280	43	4241
2026-01-26 13:50:39.17	352.00	15.32	-36.9	-37.9	21.0	0.00e+00	0	43	0	4364173312	43	4227
2026-01-26 13:50:40.17	351.94	15.21	-36.9	-37.9	21.0	0.00e+00	0	43	0	4370464768	43	4223
2026-01-26 13:50:41.17	351.88	15.11	-37.0	-38.0	21.0	0.00e+00	0	43	0	4377804800	43	4261
2026-01-26 13:50:42.16	351.83	15.01	-37.0	-38.0	21.0	0.00e+00	0	43	0	4385144832	43	4264
2026-01-26 13:50:43.16	351.77	14.91	-37.1	-38.1	20.9	0.00e+00	0	43	0	4392484864	43	4320
2026-01-26 13:50:44.15	351.72	14.81	-37.1	-38.1	20.9	0.00e+00	0	43	0	4399824896	43	4326
2026-01-26 13:50:45.14	351.66	14.71	-37.1	-38.1	20.9	0.00e+00	0	44	0	4407164928	43	4303
2026-01-26 13:50:46.14	351.61	14.60	-37.1	-38.1	20.8	0.00e+00	0	43	0	4414504960	43	4330
2026-01-26 13:50:47.14	351.55	14.50	-37.1	-38.0	20.9	0.00e+00	0	43	0	4421844992	43	4283
2026-01-26 13:50:48.13	351.50	14.40	-37.2	-38.1	20.8	0.00e+00	0	43	0	4428136448	43	4329
2026-01-26 13:50:49.12	351.45	14.31	-37.2	-38.2	20.7	0.00e+00	0	43	0	4435476480	43	4360
2026-01-26 13:50:50.12	351.40	14.21	-37.1	-38.1	20.8	0.00e+00	0	43	0	4442816512	43	4331
2026-01-26 13:50:51.11	351.34	14.11	-37.2	-38.2	20.7	0.00e+00	0	43	0	4450156544	43	4382
2026-01-26 13:50:52.11	351.29	14.01	-37.4	-38.4	20.6	0.00e+00	0	43	0	4457496576	44	4224
2026-01-26 13:50:53.10	351.24	13.91	-37.7	-38.7	20.4	0.00e+00	0	43	0	4464836608	44	4372
2026-01-26 13:50:54.09	351.19	13.81	-37.6	-38.6	20.5	0.00e+00	0	43	0	4472176640	44	4324
2026-01-26 13:50:55.09	351.14	13.72	-37.5	-38.5	20.6	0.00e+00	0	43	0	4478468096	44	4272
2026-01-26 13:50:56.08	351.09	13.62	-37.6	-38.6	20.6	0.00e+00	0	43	0	4485808128	44	4304
2026-01-26 13:50:57.08	351.04	13.52	-37.6	-38.7	20.4	0.00e+00	0	43	0	4493148160	44	4346
2026-01-26 13:50:58.07	350.99	13.43	-37.6	-38.6	20.5	0.00e+00	0	43	0	4500488192	44	4330
2026-01-26 13:50:59.07	350.94	13.33	-37.7	-38.8	20.3	0.00e+00	0	43	0	4507828224	44	4407
2026-01-26 13:51:00.06	350.89	13.23	-37.7	-38.8	20.3	0.00e+00	0	43	0	4514119680	45	4175
2026-01-26 13:51:01.06	350.84	13.14	-37.7	-38.9	20.2	0.00e+00	0	43	0	4521459712	45	4208
2026-01-26 13:51:02.05	350.79	13.04	-37.9	-39.2	19.9	0.00e+00	0	43	0	4528799744	45	4344
2026-01-26 13:51:03.04	350.74	12.95	-37.7	-38.9	20.2	0.00e+00	0	43	0	4536139776	45	4234
2026-01-26 13:51:04.04	350.70	12.86	-37.8	-39.1	20.0	0.00e+00	0	43	0	4543479808	45	4307
2026-01-26 13:51:05.04	350.65	12.76	-38.1	-39.5	19.6	0.00e+00	0	43	0	4550819840	45	4524
2026-01-26 13:51:06.03	350.60	12.67	-37.9	-39.3	19.8	0.00e+00	0	43	0	4557111296	45	4425
2026-01-26 13:51:07.03	350.55	12.58	-37.9	-39.3	19.9	0.00e+00	0	43	0	4564451328	45	4394
2026-01-26 13:51:08.02	350.51	12.48	-37.7	-39.0	20.1	0.00e+00	0	43	0	4571791360	45	4269
2026-01-26 13:51:09.02	350.46	12.39	-37.8	-39.1	20.0	0.00e+00	0	43	0	4579131392	45	4340
2026-01-26 13:51:10.01	350.42	12.30	-37.7	-39.0	20.1	0.00e+00	0	43	0	4586471424	45	4258
2026-01-26 13:51:11.01	350.37	12.21	-37.7	-39.0	20.1	0.00e+00	0	43	0	4593811456	45	4246
2026-01-26 13:51:12.00	350.32	12.11	-37.8	-39.1	20.1	0.00e+00	0	43	0	4601151488	45	4294
2026-01-26 13:51:13.00	350.28	12.02	-37.8	-39.0	20.0	0.00e+00	0	43	0	4608491520	45	4283
2026-01-26 13:51:14.00	350.23	11.93	-37.7	-38.9	20.2	0.00e+00	0	43	0	4615831552	45	4205
2026-01-26 13:51:14.99	350.19	11.84	-37.9	-39.0	20.1	0.00e+00	0	43	0	4622123008	45	4264
2026-01-26 13:51:15.99	350.15	11.75	-37.9	-39.0	20.0	0.00e+00	0	43	0	4629463040	45	4287
2026-01-26 13:51:16.98	350.10	11.66	-38.0	-39.1	19.9	0.00e+00	0	43	0	4636803072	45	4339
2026-01-26 13:51:17.98	350.06	11.57	-38.0	-39.1	19.9	0.00e+00	0	44	0	4644143104	45	4322
2026-01-26 13:51:18.97	350.02	11.48	-38.0	-39.2	19.9	0.00e+00	0	43	0	4651483136	45	4377
2026-01-26 13:51:19.97	349.97	11.39	-37.9	-39.1	20.0	0.00e+00	0	43	0	4657774592	45	4296
2026-01-26 13:51:20.96	349.93	11.31	-37.9	-39.1	20.0	0.00e+00	0	43	0	4665114624	45	4303
2026-01-26 13:51:21.96	349.89	11.22	-37.8	-39.0	20.1	0.00e+00	0	43	0	4672454656	45	4246
2026-01-26 13:51:22.95	349.85	11.13	-37.9	-39.1	20.0	0.00e+00	0	43	0	4679794688	45	4302
2026-01-26 13:51:23.95	349.80	11.04	-37.8	-39.0	20.0	0.00e+00	0	43	0	4687134720	45	4273
