passes_logs/2026/01/26/T1/T1__20260126_052959_FENGYUN_3E_rec.log

#Pass ID: 20260126_052959_FENGYUN 3E
#Satellite: FENGYUN 3E
#Configuration: FENGYUN 3E
#almurnet v.1.7.20251203
#Start time: 2026-01-26 05:29:58

#Version: 2.0.20230620
#Station: T1
#Location: 37.570604 lon 55.790049 lat
#TLE: 1 49008U 21062A   26025.85775150 -.00000016  00000+0  13398-4 0  9990
#TLE: 2 49008  98.7498  30.8591 0002468 117.3618 242.7810 14.19886460236384

#Time	Az	El	Level	Level2	SNR	BER	BlckErr	Temp	State	Recorded	gain1	gain2
2026-01-26 05:29:58.85	7.32	4.98	-47.5	-59.5	3.8	8.48e-01	0	36	0	0	65	14291
2026-01-26 05:29:59.84	7.24	5.04	-47.8	-59.1	3.8	8.48e-01	0	36	104	0	65	13581
2026-01-26 05:30:00.83	7.17	5.10	-47.9	-59.0	3.8	8.46e-01	0	36	104	0	65	13501
2026-01-26 05:30:01.83	7.10	5.16	-47.9	-59.1	3.8	8.48e-01	0	36	104	0	65	13670
2026-01-26 05:30:02.83	7.02	5.23	-47.8	-59.1	3.8	8.46e-01	0	36	104	0	65	13651
2026-01-26 05:30:03.82	6.95	5.29	-47.9	-59.0	3.8	8.47e-01	0	36	104	0	65	13568
2026-01-26 05:30:04.82	6.87	5.35	-47.8	-59.0	3.8	8.47e-01	0	36	104	0	65	13566
2026-01-26 05:30:05.82	6.80	5.41	-47.8	-59.1	3.8	8.46e-01	0	36	104	0	65	13611
2026-01-26 05:30:06.82	6.72	5.48	-47.8	-59.0	3.8	8.46e-01	0	36	104	0	65	13525
2026-01-26 05:30:07.81	6.65	5.54	-47.9	-59.0	3.8	8.47e-01	0	36	104	0	65	13569
2026-01-26 05:30:08.80	6.57	5.60	-47.9	-59.0	3.8	8.48e-01	0	36	104	0	65	13533
2026-01-26 05:30:09.80	6.49	5.66	-47.9	-59.1	3.8	8.47e-01	0	36	104	0	65	13590
2026-01-26 05:30:10.80	6.42	5.73	-47.8	-59.1	3.8	8.46e-01	0	36	104	0	65	13589
2026-01-26 05:30:11.80	6.34	5.79	-47.9	-59.1	3.8	8.47e-01	0	36	104	0	65	13695
2026-01-26 05:30:12.79	6.26	5.85	-47.9	-59.1	3.8	8.47e-01	0	36	104	0	65	13685
2026-01-26 05:30:13.79	6.18	5.92	-47.9	-59.1	3.8	8.47e-01	0	36	104	0	65	13593
2026-01-26 05:30:14.79	6.11	5.98	-47.9	-59.1	3.8	8.47e-01	0	36	104	0	65	13631
2026-01-26 05:30:15.79	6.03	6.05	-47.9	-59.1	3.8	8.46e-01	0	37	104	0	65	13591
2026-01-26 05:30:16.78	5.95	6.11	-47.9	-59.0	3.8	8.47e-01	0	37	104	0	65	13525
2026-01-26 05:30:17.78	5.87	6.17	-47.9	-59.1	3.8	8.48e-01	0	37	104	0	65	13586
2026-01-26 05:30:18.78	5.79	6.24	-47.9	-59.0	3.8	8.47e-01	0	37	104	0	65	13547
2026-01-26 05:30:19.77	5.71	6.30	-47.9	-59.0	3.8	8.45e-01	0	37	104	0	65	13442
2026-01-26 05:30:20.77	5.63	6.36	-47.8	-59.0	3.8	8.48e-01	0	37	104	0	65	13463
2026-01-26 05:30:21.77	5.55	6.43	-47.9	-59.0	3.8	8.46e-01	0	37	104	0	65	13523
2026-01-26 05:30:22.76	5.47	6.49	-47.9	-59.0	3.8	8.47e-01	0	37	104	0	65	13517
2026-01-26 05:30:23.76	5.39	6.56	-47.8	-59.0	3.8	8.45e-01	0	37	104	0	65	13547
2026-01-26 05:30:24.75	5.30	6.62	-47.8	-59.0	3.8	8.48e-01	0	37	104	0	65	13532
2026-01-26 05:30:25.75	5.22	6.69	-47.8	-59.1	3.8	8.46e-01	0	37	104	0	65	13643
2026-01-26 05:30:26.74	5.14	6.75	-47.8	-59.0	3.8	8.46e-01	0	37	104	0	65	13460
2026-01-26 05:30:27.74	5.06	6.82	-47.9	-59.0	3.8	8.46e-01	0	37	104	0	65	13519
2026-01-26 05:30:28.74	4.97	6.88	-47.8	-59.0	3.8	8.48e-01	0	37	104	0	65	13438
2026-01-26 05:30:29.73	4.89	6.95	-47.8	-58.9	3.8	8.47e-01	0	37	104	0	65	13338
2026-01-26 05:30:30.73	4.80	7.01	-47.8	-58.9	3.8	8.48e-01	0	37	104	0	65	13328
2026-01-26 05:30:31.73	4.72	7.08	-47.8	-58.8	3.8	8.47e-01	0	37	104	0	65	13237
2026-01-26 05:30:32.72	4.63	7.14	-47.8	-58.8	3.8	8.47e-01	0	37	104	0	65	13188
2026-01-26 05:30:33.72	4.55	7.21	-47.8	-58.8	3.8	8.47e-01	0	37	104	0	65	13197
2026-01-26 05:30:34.72	4.46	7.27	-47.8	-58.6	3.8	8.47e-01	0	37	104	0	65	12954
2026-01-26 05:30:35.71	4.38	7.34	-47.8	-58.4	3.8	8.47e-01	0	37	104	0	65	12578
2026-01-26 05:30:36.71	4.29	7.41	-47.7	-58.0	3.8	8.46e-01	0	37	104	0	65	11987
2026-01-26 05:30:37.71	4.20	7.47	-47.7	-57.2	3.8	8.46e-01	0	37	104	0	65	10997
2026-01-26 05:30:38.70	4.12	7.54	-47.6	-56.7	4.0	8.45e-01	0	37	104	0	65	10410
2026-01-26 05:30:39.70	4.03	7.60	-47.5	-56.2	3.9	8.44e-01	0	37	104	0	65	9780
2026-01-26 05:30:40.69	3.94	7.67	-47.4	-55.7	4.2	8.40e-01	0	37	0	0	65	9226
2026-01-26 05:30:41.69	3.85	7.74	-47.4	-55.5	4.2	8.37e-01	0	37	0	0	65	9061
2026-01-26 05:30:42.69	3.76	7.80	-47.5	-55.8	4.1	8.38e-01	0	37	0	0	65	9328
2026-01-26 05:30:43.68	3.67	7.87	-47.5	-56.2	4.1	8.41e-01	0	37	0	0	65	9769
2026-01-26 05:30:44.68	3.58	7.94	-47.6	-57.0	3.8	8.44e-01	0	37	104	0	65	10724
2026-01-26 05:30:45.67	3.49	8.00	-47.7	-57.8	3.8	8.46e-01	0	37	104	0	65	11792
2026-01-26 05:30:46.67	3.40	8.07	-47.8	-58.5	3.8	8.47e-01	0	37	104	0	65	12699
2026-01-26 05:30:47.66	3.31	8.14	-47.8	-58.9	3.8	8.47e-01	0	38	104	0	65	13361
2026-01-26 05:30:48.66	3.22	8.20	-47.8	-58.9	3.8	8.47e-01	0	37	104	0	65	13409
2026-01-26 05:30:49.66	3.13	8.27	-47.7	-58.0	3.8	8.47e-01	0	38	104	0	65	12094
2026-01-26 05:30:50.65	3.03	8.34	-47.4	-55.8	4.1	8.45e-01	0	38	0	0	65	9329
2026-01-26 05:30:51.65	2.94	8.40	-46.8	-52.7	5.5	7.48e-01	0	38	0	0	64	6949
2026-01-26 05:30:52.65	2.85	8.47	-45.8	-50.0	7.9	1.30e-01	0	38	0	5242880	62	5700
2026-01-26 05:30:53.64	2.75	8.54	-44.7	-47.7	10.3	1.19e-02	0	38	0	12582912	60	4926
2026-01-26 05:30:54.64	2.66	8.61	-43.2	-45.4	12.6	2.44e-04	0	38	0	19922944	57	4490
2026-01-26 05:30:55.64	2.56	8.68	-41.9	-43.8	14.2	5.70e-06	0	37	0	27262976	54	4394
2026-01-26 05:30:56.64	2.47	8.74	-41.0	-42.5	15.4	0.00e+00	0	38	0	34603008	52	4284
2026-01-26 05:30:57.63	2.37	8.81	-40.5	-41.9	16.2	0.00e+00	0	38	0	41943040	51	4220
2026-01-26 05:30:58.63	2.28	8.88	-39.9	-41.3	16.8	0.00e+00	0	38	0	49283072	50	4148
2026-01-26 05:30:59.63	2.18	8.95	-40.2	-41.6	16.5	0.00e+00	0	38	0	56623104	50	4301
2026-01-26 05:31:00.62	2.08	9.02	-40.5	-41.9	16.2	0.00e+00	0	38	0	62914560	50	4475
2026-01-26 05:31:01.62	1.98	9.09	-41.3	-43.0	15.0	0.00e+00	0	38	0	70254592	52	4507
2026-01-26 05:31:02.62	1.89	9.15	-44.5	-47.5	10.6	8.12e-05	0	38	0	77594624	58	5366
2026-01-26 05:31:03.63	1.79	9.22	-39.0	-40.3	17.6	8.85e-03	0	38	0	84934656	49	3949
2026-01-26 05:31:04.63	1.69	9.29	-36.7	-38.0	19.8	0.00e+00	0	38	0	92274688	44	4017
2026-01-26 05:31:05.63	1.59	9.36	-38.8	-40.3	17.6	0.00e+00	0	38	0	99614720	46	4689
2026-01-26 05:31:06.63	1.49	9.43	-38.0	-39.4	18.3	0.00e+00	0	38	0	106954752	46	4225
2026-01-26 05:31:07.64	1.38	9.50	-37.0	-38.3	19.5	0.00e+00	0	38	0	114294784	44	4160
2026-01-26 05:31:08.64	1.28	9.57	-37.1	-38.4	19.4	0.00e+00	0	38	0	121634816	44	4204
2026-01-26 05:31:09.64	1.18	9.64	-36.9	-38.2	19.5	0.00e+00	0	38	0	127926272	44	4130
2026-01-26 05:31:10.64	1.08	9.71	-36.9	-38.2	19.6	0.00e+00	0	38	0	135266304	44	4113
2026-01-26 05:31:11.64	0.97	9.78	-37.0	-38.3	19.5	0.00e+00	0	38	0	142606336	44	4179
2026-01-26 05:31:12.64	0.87	9.85	-37.0	-38.3	19.6	0.00e+00	0	38	0	149946368	44	4155
2026-01-26 05:31:13.65	0.77	9.92	-37.0	-38.3	19.6	0.00e+00	0	38	0	157286400	44	4147
2026-01-26 05:31:14.65	0.66	9.99	-37.1	-38.3	19.5	0.00e+00	0	38	0	164626432	44	4184
2026-01-26 05:31:15.65	0.56	10.06	-37.1	-38.3	19.6	0.00e+00	0	38	0	171966464	44	4164
2026-01-26 05:31:16.65	0.45	10.13	-36.9	-38.1	19.7	0.00e+00	0	38	0	179306496	44	4064
2026-01-26 05:31:17.65	0.34	10.20	-36.8	-38.0	19.8	0.00e+00	0	38	0	185597952	44	4024
2026-01-26 05:31:18.65	0.24	10.27	-36.9	-38.1	19.8	0.00e+00	0	38	0	192937984	44	4064
2026-01-26 05:31:19.65	0.13	10.34	-37.0	-38.2	19.6	0.00e+00	0	38	0	201326592	44	4111
2026-01-26 05:31:20.65	0.02	10.41	-36.8	-37.9	19.9	0.00e+00	0	38	0	207618048	44	4000
2026-01-26 05:31:21.65	359.91	10.48	-36.7	-37.9	19.9	0.00e+00	0	38	0	214958080	44	3973
2026-01-26 05:31:22.65	359.81	10.55	-36.6	-37.8	20.0	0.00e+00	0	38	0	222298112	44	3921
2026-01-26 05:31:23.65	359.70	10.63	-36.7	-37.9	20.0	0.00e+00	0	38	0	229638144	44	3960
2026-01-26 05:31:24.66	359.58	10.70	-36.6	-37.7	20.1	0.00e+00	0	38	0	236978176	44	3897
2026-01-26 05:31:25.66	359.47	10.77	-36.5	-37.6	20.1	0.00e+00	0	38	0	244318208	43	4089
2026-01-26 05:31:26.66	359.36	10.84	-36.5	-37.6	20.1	0.00e+00	0	38	0	251658240	43	4084
2026-01-26 05:31:27.66	359.25	10.91	-36.5	-37.7	20.0	0.00e+00	0	38	0	258998272	43	4105
2026-01-26 05:31:28.67	359.14	10.98	-36.5	-37.7	20.0	0.00e+00	0	38	0	266338304	43	4117
2026-01-26 05:31:29.67	359.03	11.06	-36.5	-37.7	20.0	0.00e+00	0	38	0	272629760	43	4108
2026-01-26 05:31:30.67	358.91	11.13	-36.5	-37.6	20.0	0.00e+00	0	38	0	279969792	43	4090
2026-01-26 05:31:31.67	358.80	11.20	-36.5	-37.6	20.0	0.00e+00	0	38	0	287309824	43	4085
2026-01-26 05:31:32.67	358.68	11.27	-36.6	-37.8	19.9	0.00e+00	0	38	0	294649856	43	4168
2026-01-26 05:31:33.67	358.57	11.34	-36.5	-37.7	20.0	0.00e+00	0	38	0	301989888	43	4115
2026-01-26 05:31:34.68	358.45	11.42	-36.6	-37.8	20.0	0.00e+00	0	38	0	309329920	43	4149
2026-01-26 05:31:35.68	358.34	11.49	-36.6	-37.8	19.9	0.00e+00	0	38	0	316669952	43	4189
2026-01-26 05:31:36.68	358.22	11.56	-36.6	-37.8	19.9	0.00e+00	0	38	0	324009984	43	4186
2026-01-26 05:31:37.68	358.10	11.63	-36.5	-37.6	20.1	0.00e+00	0	38	0	331350016	43	4098
2026-01-26 05:31:38.68	357.98	11.71	-36.5	-37.6	20.1	0.00e+00	0	38	0	337641472	43	4091
2026-01-26 05:31:39.68	357.86	11.78	-36.4	-37.6	20.1	0.00e+00	0	38	0	344981504	43	4088
2026-01-26 05:31:40.69	357.74	11.85	-36.4	-37.5	20.2	0.00e+00	0	38	0	352321536	43	4036
2026-01-26 05:31:41.69	357.62	11.92	-36.3	-37.5	20.2	0.00e+00	0	38	0	359661568	43	4033
2026-01-26 05:31:42.69	357.50	12.00	-36.3	-37.5	20.2	0.00e+00	0	38	0	367001600	43	4016
2026-01-26 05:31:43.69	357.38	12.07	-36.3	-37.5	20.3	0.00e+00	0	38	0	374341632	43	4009
2026-01-26 05:31:44.69	357.26	12.14	-36.2	-37.4	20.3	0.00e+00	0	38	0	381681664	43	3973
2026-01-26 05:31:45.69	357.14	12.22	-36.4	-37.5	20.2	0.00e+00	0	38	0	389021696	43	4046
2026-01-26 05:31:46.69	357.02	12.29	-36.2	-37.3	20.4	0.00e+00	0	38	0	395313152	43	3946
2026-01-26 05:31:47.69	356.89	12.36	-36.1	-37.2	20.5	0.00e+00	0	38	0	402653184	43	3905
2026-01-26 05:31:48.69	356.77	12.44	-36.1	-37.2	20.5	0.00e+00	0	38	0	409993216	43	3892
2026-01-26 05:31:49.70	356.64	12.51	-36.2	-37.3	20.5	0.00e+00	0	38	0	417333248	43	3925
2026-01-26 05:31:50.70	356.52	12.58	-36.1	-37.2	20.6	0.00e+00	0	38	0	424673280	42	4122
2026-01-26 05:31:51.70	356.39	12.66	-36.1	-37.2	20.5	0.00e+00	0	38	0	432013312	42	4115
2026-01-26 05:31:52.70	356.26	12.73	-36.2	-37.2	20.5	0.00e+00	0	38	0	439353344	42	4144
2026-01-26 05:31:53.70	356.14	12.81	-36.4	-37.4	20.3	0.00e+00	0	38	0	446693376	42	4236
2026-01-26 05:31:54.70	356.01	12.88	-36.2	-37.2	20.5	0.00e+00	0	38	0	454033408	42	4135
2026-01-26 05:31:55.70	355.88	12.95	-36.1	-37.1	20.7	0.00e+00	0	38	0	460324864	42	4080
2026-01-26 05:31:56.70	355.75	13.03	-36.2	-37.2	20.6	0.00e+00	0	38	0	467664896	42	4118
2026-01-26 05:31:57.70	355.62	13.10	-36.1	-37.1	20.7	0.00e+00	0	38	0	476053504	42	4082
2026-01-26 05:31:58.70	355.49	13.18	-36.1	-37.1	20.7	0.00e+00	0	38	0	482344960	42	4081
2026-01-26 05:31:59.70	355.36	13.25	-36.1	-37.1	20.6	0.00e+00	0	38	0	489684992	42	4081
2026-01-26 05:32:00.70	355.22	13.33	-36.1	-37.2	20.6	0.00e+00	0	38	0	497025024	42	4101
2026-01-26 05:32:01.70	355.09	13.40	-36.1	-37.2	20.6	0.00e+00	0	38	0	504365056	42	4102
2026-01-26 05:32:02.70	354.96	13.47	-36.1	-37.1	20.7	0.00e+00	0	38	0	511705088	42	4075
2026-01-26 05:32:03.71	354.82	13.55	-36.0	-37.0	20.7	0.00e+00	0	38	0	519045120	42	4045
2026-01-26 05:32:04.71	354.69	13.62	-36.0	-37.0	20.7	0.00e+00	0	38	0	526385152	42	4037
2026-01-26 05:32:05.71	354.55	13.70	-36.0	-37.1	20.7	0.00e+00	0	38	0	533725184	42	4059
2026-01-26 05:32:06.71	354.42	13.77	-36.2	-37.2	20.6	0.00e+00	0	38	0	541065216	42	4133
2026-01-26 05:32:07.71	354.28	13.85	-36.2	-37.2	20.6	0.00e+00	0	38	0	547356672	42	4116
2026-01-26 05:32:08.71	354.14	13.92	-35.9	-36.9	20.8	0.00e+00	0	38	0	554696704	42	4003
2026-01-26 05:32:09.72	354.00	14.00	-36.0	-37.1	20.8	0.00e+00	0	38	0	562036736	42	4052
2026-01-26 05:32:10.72	353.86	14.08	-36.0	-37.0	20.8	0.00e+00	0	38	0	569376768	42	4028
2026-01-26 05:32:11.72	353.72	14.15	-36.0	-37.0	20.8	0.00e+00	0	38	0	576716800	42	4029
2026-01-26 05:32:12.72	353.58	14.23	-36.1	-37.1	20.7	0.00e+00	0	38	0	584056832	42	4091
2026-01-26 05:32:13.72	353.44	14.30	-36.2	-37.2	20.6	0.00e+00	0	38	0	591396864	42	4138
2026-01-26 05:32:14.72	353.30	14.38	-36.2	-37.2	20.6	0.00e+00	0	38	0	598736896	42	4112
2026-01-26 05:32:15.73	353.15	14.45	-36.0	-36.9	20.9	0.00e+00	0	38	0	605028352	42	3988
2026-01-26 05:32:16.73	353.01	14.53	-36.0	-37.0	20.9	0.00e+00	0	38	0	612368384	42	4006
2026-01-26 05:32:17.73	352.87	14.60	-35.9	-36.9	20.9	0.00e+00	0	39	0	619708416	42	3960
2026-01-26 05:32:18.73	352.72	14.68	-35.8	-36.7	21.1	0.00e+00	0	38	0	627048448	42	3897
2026-01-26 05:32:19.74	352.57	14.76	-35.7	-36.7	21.1	0.00e+00	0	38	0	634388480	42	3890
2026-01-26 05:32:20.74	352.43	14.83	-35.5	-36.5	21.3	0.00e+00	0	38	0	641728512	41	4031
2026-01-26 05:32:21.74	352.28	14.91	-35.4	-36.4	21.4	0.00e+00	0	38	0	649068544	41	3980
2026-01-26 05:32:22.74	352.13	14.98	-35.5	-36.4	21.3	0.00e+00	0	38	0	656408576	41	4000
2026-01-26 05:32:23.74	351.98	15.06	-35.3	-36.3	21.5	0.00e+00	0	38	0	663748608	41	3927
2026-01-26 05:32:24.74	351.83	15.13	-35.3	-36.2	21.5	0.00e+00	0	38	0	670040064	41	3906
2026-01-26 05:32:25.74	351.68	15.21	-35.3	-36.2	21.5	0.00e+00	0	38	0	677380096	41	3905
2026-01-26 05:32:26.73	351.53	15.29	-35.3	-36.3	21.5	0.00e+00	0	38	0	684720128	41	3932
2026-01-26 05:32:27.74	351.38	15.36	-35.4	-36.3	21.4	0.00e+00	0	38	0	692060160	41	3936
2026-01-26 05:32:28.74	351.23	15.44	-35.4	-36.3	21.4	0.00e+00	0	38	0	699400192	41	3951
2026-01-26 05:32:29.74	351.07	15.51	-35.4	-36.3	21.4	0.00e+00	0	38	0	706740224	41	3946
2026-01-26 05:32:30.74	350.92	15.59	-35.4	-36.3	21.4	0.00e+00	0	38	0	714080256	41	3957
2026-01-26 05:32:31.74	350.76	15.67	-35.5	-36.4	21.4	0.00e+00	0	39	0	721420288	41	4000
2026-01-26 05:32:32.74	350.61	15.74	-35.5	-36.4	21.3	0.00e+00	0	39	0	728760320	41	4002
2026-01-26 05:32:33.74	350.45	15.82	-35.4	-36.3	21.5	0.00e+00	0	38	0	735051776	41	3954
2026-01-26 05:32:34.74	350.29	15.89	-35.4	-36.3	21.4	0.00e+00	0	38	0	742391808	41	3954
2026-01-26 05:32:35.74	350.13	15.97	-35.4	-36.4	21.4	0.00e+00	0	38	0	749731840	41	3978
2026-01-26 05:32:36.75	349.97	16.05	-35.3	-36.2	21.5	0.00e+00	0	38	0	757071872	41	3908
2026-01-26 05:32:37.75	349.81	16.12	-35.4	-36.4	21.4	0.00e+00	0	38	0	764411904	41	3960
2026-01-26 05:32:38.76	349.65	16.20	-35.3	-36.3	21.5	0.00e+00	0	38	0	771751936	41	3922
2026-01-26 05:32:39.76	349.49	16.28	-35.3	-36.2	21.6	0.00e+00	0	38	0	779091968	41	3904
2026-01-26 05:32:40.76	349.32	16.35	-35.3	-36.2	21.6	0.00e+00	0	38	0	786432000	41	3902
2026-01-26 05:32:41.76	349.16	16.43	-35.4	-36.4	21.5	0.00e+00	0	39	0	793772032	41	3965
2026-01-26 05:32:42.76	349.00	16.51	-35.3	-36.2	21.5	0.00e+00	0	38	0	801112064	41	3907
2026-01-26 05:32:43.76	348.83	16.58	-35.3	-36.2	21.6	0.00e+00	0	39	0	808452096	41	3912
2026-01-26 05:32:44.76	348.66	16.66	-35.3	-36.2	21.6	0.00e+00	0	38	0	814743552	41	3909
2026-01-26 05:32:45.76	348.50	16.73	-35.2	-36.2	21.6	0.00e+00	0	38	0	822083584	41	3875
2026-01-26 05:32:46.76	348.33	16.81	-35.2	-36.1	21.7	0.00e+00	0	38	0	829423616	41	3857
2026-01-26 05:32:47.76	348.16	16.89	-35.1	-36.1	21.8	0.00e+00	0	39	0	836763648	41	3829
2026-01-26 05:32:48.76	347.99	16.96	-35.2	-36.1	21.7	0.00e+00	0	39	0	844103680	41	3865
2026-01-26 05:32:49.77	347.82	17.04	-35.3	-36.3	21.5	0.00e+00	0	39	0	851443712	41	3930
2026-01-26 05:32:50.77	347.65	17.11	-35.2	-36.2	21.6	0.00e+00	0	39	0	858783744	41	3890
2026-01-26 05:32:51.77	347.47	17.19	-35.1	-36.1	21.7	0.00e+00	0	39	0	866123776	41	3865
2026-01-26 05:32:52.77	347.30	17.27	-35.1	-36.1	21.7	0.00e+00	0	39	0	873463808	41	3850
2026-01-26 05:32:53.77	347.13	17.34	-34.8	-35.8	22.0	0.00e+00	0	38	0	879755264	40	3917
2026-01-26 05:32:54.77	346.95	17.42	-34.8	-35.8	22.0	0.00e+00	0	38	0	887095296	40	3932
2026-01-26 05:32:55.77	346.78	17.49	-34.8	-35.8	22.0	0.00e+00	0	38	0	894435328	40	3916
2026-01-26 05:32:56.77	346.60	17.57	-34.8	-35.7	22.0	0.00e+00	0	38	0	901775360	40	3912
2026-01-26 05:32:57.78	346.42	17.65	-34.8	-35.7	22.0	0.00e+00	0	39	0	909115392	40	3909
2026-01-26 05:32:58.78	346.24	17.72	-34.8	-35.7	22.0	0.00e+00	0	39	0	916455424	40	3909
2026-01-26 05:32:59.78	346.06	17.80	-34.8	-35.7	22.1	0.00e+00	0	38	0	923795456	40	3871
2026-01-26 05:33:00.78	345.88	17.87	-34.9	-35.8	22.0	0.00e+00	0	39	0	931135488	40	3914
2026-01-26 05:33:01.78	345.70	17.95	-34.7	-35.5	22.2	0.00e+00	0	39	0	937426944	40	3821
2026-01-26 05:33:02.79	345.52	18.03	-34.7	-35.6	22.2	0.00e+00	0	39	0	944766976	40	3826
2026-01-26 05:33:03.79	345.33	18.10	-34.7	-35.6	22.2	0.00e+00	0	38	0	952107008	40	3834
2026-01-26 05:33:04.79	345.15	18.18	-34.8	-35.7	22.1	0.00e+00	0	39	0	959447040	39	4132
2026-01-26 05:33:05.79	344.96	18.25	-34.7	-35.7	22.2	0.00e+00	0	38	0	966787072	39	4108
2026-01-26 05:33:06.79	344.78	18.33	-34.7	-35.7	22.2	0.00e+00	0	39	0	974127104	39	4104
2026-01-26 05:33:07.78	344.59	18.40	-34.9	-35.8	22.0	0.00e+00	0	39	0	981467136	39	4168
2026-01-26 05:33:08.78	344.40	18.48	-34.9	-35.8	22.0	0.00e+00	0	39	0	988807168	39	4187
2026-01-26 05:33:09.77	344.22	18.55	-34.8	-35.7	22.1	0.00e+00	0	39	0	996147200	39	4117
2026-01-26 05:33:10.77	344.03	18.63	-34.9	-35.8	22.1	0.00e+00	0	38	0	1002438656	39	4146
2026-01-26 05:33:11.76	343.84	18.70	-34.9	-35.8	22.0	0.00e+00	0	39	0	1009778688	39	4164
2026-01-26 05:33:12.76	343.65	18.77	-35.0	-35.9	22.0	0.00e+00	0	38	0	1017118720	39	4198
2026-01-26 05:33:13.75	343.46	18.85	-35.1	-36.0	21.9	0.00e+00	0	38	0	1024458752	39	4254
2026-01-26 05:33:14.75	343.26	18.92	-35.0	-35.9	22.0	0.00e+00	0	38	0	1031798784	39	4212
2026-01-26 05:33:15.75	343.07	19.00	-35.0	-35.9	21.9	0.00e+00	0	39	0	1039138816	39	4228
2026-01-26 05:33:16.75	342.87	19.07	-35.0	-35.9	22.0	0.00e+00	0	38	0	1045430272	39	4204
2026-01-26 05:33:17.75	342.68	19.14	-35.1	-36.0	21.7	0.00e+00	0	38	0	1052770304	39	4265
2026-01-26 05:33:18.74	342.48	19.22	-34.8	-35.7	22.1	0.00e+00	0	38	0	1060110336	39	4142
2026-01-26 05:33:19.74	342.28	19.29	-34.8	-35.7	22.2	0.00e+00	0	38	0	1067450368	39	4114
2026-01-26 05:33:20.73	342.09	19.36	-34.7	-35.6	22.3	0.00e+00	0	38	0	1074790400	39	4077
2026-01-26 05:33:21.73	341.89	19.44	-34.8	-35.6	22.2	0.00e+00	0	38	0	1082130432	39	4090
2026-01-26 05:33:22.73	341.68	19.51	-34.7	-35.6	22.3	0.00e+00	0	38	0	1089470464	39	4060
2026-01-26 05:33:23.72	341.48	19.58	-34.6	-35.5	22.4	0.00e+00	0	38	0	1096810496	39	4029
2026-01-26 05:33:24.72	341.28	19.66	-34.7	-35.6	22.3	0.00e+00	0	39	0	1103101952	39	4072
2026-01-26 05:33:25.72	341.08	19.73	-34.9	-35.8	22.1	0.00e+00	0	38	0	1110441984	39	4154
2026-01-26 05:33:26.72	340.87	19.80	-34.8	-35.8	22.1	0.00e+00	0	39	0	1117782016	39	4147
2026-01-26 05:33:27.71	340.67	19.87	-34.9	-35.9	22.0	0.00e+00	0	38	0	1125122048	39	4200
2026-01-26 05:33:28.70	340.46	19.95	-34.9	-35.8	22.1	0.00e+00	0	39	0	1132462080	39	4177
2026-01-26 05:33:29.70	340.25	20.02	-34.9	-35.9	22.1	0.00e+00	0	38	0	1139802112	39	4195
2026-01-26 05:33:30.69	340.05	20.09	-34.9	-35.9	22.0	0.00e+00	0	39	0	1146093568	39	4217
2026-01-26 05:33:31.69	339.84	20.16	-34.9	-35.8	22.1	0.00e+00	0	38	0	1153433600	39	4170
2026-01-26 05:33:32.69	339.62	20.23	-35.0	-35.9	22.0	0.00e+00	0	39	0	1160773632	39	4200
2026-01-26 05:33:33.68	339.41	20.30	-34.9	-35.8	22.1	0.00e+00	0	38	0	1168113664	39	4161
2026-01-26 05:33:34.68	339.20	20.37	-34.9	-35.7	22.1	0.00e+00	0	38	0	1175453696	39	4141
2026-01-26 05:33:35.67	338.99	20.44	-34.8	-35.7	22.2	0.00e+00	0	39	0	1182793728	39	4127
2026-01-26 05:33:36.67	338.77	20.51	-34.7	-35.6	22.2	0.00e+00	0	38	0	1190133760	39	4070
2026-01-26 05:33:37.67	338.56	20.58	-34.6	-35.5	22.3	0.00e+00	0	38	0	1197473792	39	4040
2026-01-26 05:33:38.67	338.34	20.65	-34.5	-35.5	22.4	0.00e+00	0	39	0	1204813824	39	4020
2026-01-26 05:33:39.67	338.12	20.72	-34.6	-35.5	22.3	0.00e+00	0	38	0	1211105280	39	4051
2026-01-26 05:33:40.66	337.90	20.79	-34.5	-35.4	22.4	0.00e+00	0	39	0	1218445312	39	3995
2026-01-26 05:33:41.66	337.68	20.86	-34.4	-35.3	22.5	0.00e+00	0	39	0	1225785344	39	3949
2026-01-26 05:33:42.66	337.46	20.93	-34.4	-35.3	22.5	0.00e+00	0	39	0	1233125376	39	3939
2026-01-26 05:33:43.66	337.24	21.00	-34.5	-35.5	22.4	0.00e+00	0	39	0	1240465408	39	4013
2026-01-26 05:33:44.65	337.02	21.07	-34.4	-35.3	22.5	0.00e+00	0	38	0	1247805440	39	3937
2026-01-26 05:33:45.65	336.80	21.14	-34.4	-35.3	22.5	0.00e+00	0	39	0	1254096896	39	3952
2026-01-26 05:33:46.65	336.57	21.21	-34.5	-35.4	22.5	0.00e+00	0	39	0	1262485504	39	3969
2026-01-26 05:33:47.65	336.34	21.27	-34.5	-35.4	22.5	0.00e+00	0	39	0	1268776960	39	3964
2026-01-26 05:33:48.65	336.12	21.34	-34.5	-35.4	22.4	0.00e+00	0	39	0	1276116992	39	4004
2026-01-26 05:33:49.64	335.89	21.41	-34.4	-35.4	22.5	0.00e+00	0	39	0	1283457024	39	3960
2026-01-26 05:33:50.64	335.66	21.47	-34.5	-35.4	22.4	0.00e+00	0	39	0	1290797056	39	3990
2026-01-26 05:33:51.64	335.43	21.54	-34.6	-35.5	22.4	0.00e+00	0	39	0	1298137088	39	4034
2026-01-26 05:33:52.63	335.20	21.61	-34.6	-35.5	22.4	0.00e+00	0	39	0	1305477120	39	4023
2026-01-26 05:33:53.63	334.97	21.67	-34.5	-35.4	22.4	0.00e+00	0	39	0	1311768576	39	3999
2026-01-26 05:33:54.63	334.74	21.74	-34.5	-35.4	22.4	0.00e+00	0	38	0	1319108608	39	3992
2026-01-26 05:33:55.63	334.50	21.80	-34.6	-35.5	22.4	0.00e+00	0	39	0	1326448640	39	4034
2026-01-26 05:33:56.62	334.27	21.87	-34.5	-35.3	22.5	0.00e+00	0	39	0	1333788672	39	3953
2026-01-26 05:33:57.62	334.03	21.93	-34.4	-35.2	22.6	0.00e+00	0	39	0	1341128704	39	3906
2026-01-26 05:33:58.62	333.80	22.00	-34.4	-35.3	22.6	0.00e+00	0	39	0	1348468736	39	3920
2026-01-26 05:33:59.62	333.56	22.06	-34.2	-35.1	22.7	0.00e+00	0	39	0	1355808768	39	3838
2026-01-26 05:34:00.62	333.32	22.12	-34.1	-35.0	22.8	0.00e+00	0	39	0	1363148800	39	3791
2026-01-26 05:34:01.62	333.08	22.19	-34.0	-34.9	22.9	0.00e+00	0	39	0	1370488832	38	3993
2026-01-26 05:34:02.62	332.84	22.25	-33.9	-34.8	23.0	0.00e+00	0	39	0	1376780288	38	3921
2026-01-26 05:34:03.62	332.59	22.31	-33.9	-34.8	23.0	0.00e+00	0	39	0	1384120320	38	3919
2026-01-26 05:34:04.61	332.35	22.37	-33.8	-34.7	23.1	0.00e+00	0	39	0	1391460352	38	3905
2026-01-26 05:34:05.61	332.11	22.44	-33.9	-34.8	23.0	0.00e+00	0	39	0	1398800384	38	3914
2026-01-26 05:34:06.61	331.86	22.50	-33.9	-34.7	23.0	0.00e+00	0	39	0	1406140416	38	3906
2026-01-26 05:34:07.61	331.62	22.56	-33.9	-34.7	23.1	0.00e+00	0	39	0	1413480448	38	3907
2026-01-26 05:34:08.61	331.37	22.62	-33.9	-34.8	23.0	0.00e+00	0	39	0	1420820480	38	3931
2026-01-26 05:34:09.61	331.12	22.68	-34.1	-34.9	22.9	0.00e+00	0	39	0	1428160512	38	4000
2026-01-26 05:34:10.61	330.87	22.74	-34.2	-35.1	22.8	0.00e+00	0	39	0	1434451968	38	4053
2026-01-26 05:34:11.61	330.62	22.80	-34.4	-35.3	22.6	0.00e+00	0	39	0	1441792000	38	4148
2026-01-26 05:34:12.61	330.37	22.85	-34.5	-35.4	22.5	0.00e+00	0	39	0	1449132032	38	4199
2026-01-26 05:34:13.60	330.12	22.91	-34.5	-35.4	22.5	0.00e+00	0	39	0	1456472064	38	4208
2026-01-26 05:34:14.60	329.87	22.97	-34.5	-35.3	22.5	0.00e+00	0	39	0	1463812096	38	4192
2026-01-26 05:34:15.60	329.62	23.03	-34.5	-35.4	22.5	0.00e+00	0	39	0	1471152128	38	4200
2026-01-26 05:34:16.60	329.36	23.08	-34.3	-35.2	22.6	0.00e+00	0	39	0	1477443584	38	4127
2026-01-26 05:34:17.59	329.11	23.14	-34.4	-35.2	22.6	0.00e+00	0	39	0	1484783616	38	4131
2026-01-26 05:34:18.59	328.85	23.19	-34.5	-35.3	22.5	0.00e+00	0	39	0	1492123648	38	4193
2026-01-26 05:34:19.59	328.59	23.25	-34.3	-35.2	22.6	0.00e+00	0	39	0	1499463680	38	4119
2026-01-26 05:34:20.59	328.33	23.30	-34.4	-35.3	22.6	0.00e+00	0	39	0	1506803712	38	4156
2026-01-26 05:34:21.59	328.07	23.36	-34.2	-35.1	22.7	0.00e+00	0	39	0	1514143744	38	4077
2026-01-26 05:34:22.59	327.81	23.41	-34.3	-35.2	22.6	0.00e+00	0	39	0	1521483776	38	4125
2026-01-26 05:34:23.59	327.55	23.46	-34.1	-35.0	22.8	0.00e+00	0	39	0	1528823808	38	4033
2026-01-26 05:34:24.59	327.29	23.52	-34.1	-35.0	22.8	0.00e+00	0	39	0	1536163840	38	4017
2026-01-26 05:34:25.59	327.03	23.57	-34.2	-35.1	22.7	0.00e+00	0	39	0	1542455296	38	4098
2026-01-26 05:34:26.58	326.77	23.62	-34.2	-35.1	22.8	0.00e+00	0	39	0	1549795328	38	4073
2026-01-26 05:34:27.59	326.50	23.67	-34.2	-35.1	22.7	0.00e+00	0	39	0	1557135360	38	4095
2026-01-26 05:34:28.59	326.23	23.72	-34.2	-35.0	22.8	0.00e+00	0	39	0	1564475392	38	4051
2026-01-26 05:34:29.58	325.97	23.77	-34.2	-35.0	22.8	0.00e+00	0	39	0	1571815424	38	4041
2026-01-26 05:34:30.58	325.70	23.82	-34.0	-34.9	22.9	0.00e+00	0	39	0	1579155456	38	3996
2026-01-26 05:34:31.58	325.43	23.87	-34.0	-34.8	23.0	0.00e+00	0	39	0	1586495488	38	3950
2026-01-26 05:34:32.57	325.17	23.92	-33.9	-34.7	23.1	0.00e+00	0	39	0	1593835520	38	3907
2026-01-26 05:34:33.57	324.90	23.96	-33.9	-34.8	23.1	0.00e+00	0	39	0	1600126976	38	3915
2026-01-26 05:34:34.57	324.63	24.01	-33.9	-34.7	23.1	0.00e+00	0	39	0	1607467008	38	3911
2026-01-26 05:34:35.57	324.36	24.06	-33.9	-34.7	23.1	0.00e+00	0	39	0	1614807040	38	3894
2026-01-26 05:34:36.57	324.08	24.10	-33.8	-34.7	23.1	0.00e+00	0	39	0	1622147072	38	3879
2026-01-26 05:34:37.57	323.81	24.15	-33.8	-34.6	23.1	0.00e+00	0	39	0	1629487104	38	3865
2026-01-26 05:34:38.56	323.54	24.19	-33.8	-34.6	23.2	0.00e+00	0	39	0	1636827136	38	3861
2026-01-26 05:34:39.56	323.26	24.24	-33.9	-34.8	23.0	0.00e+00	0	39	0	1644167168	38	3934
2026-01-26 05:34:40.56	322.99	24.28	-33.9	-34.8	23.0	0.00e+00	0	39	0	1651507200	38	3943
2026-01-26 05:34:41.56	322.71	24.32	-34.0	-34.8	23.0	0.00e+00	0	39	0	1658847232	38	3958
2026-01-26 05:34:42.56	322.44	24.36	-34.1	-35.0	22.9	0.00e+00	0	39	0	1665138688	38	4018
2026-01-26 05:34:43.56	322.16	24.40	-34.1	-35.0	22.9	0.00e+00	0	39	0	1672478720	38	4014
2026-01-26 05:34:44.56	321.88	24.44	-33.9	-34.8	23.0	0.00e+00	0	39	0	1679818752	38	3941
2026-01-26 05:34:45.55	321.60	24.48	-34.0	-34.9	23.0	0.00e+00	0	39	0	1687158784	38	3959
2026-01-26 05:34:46.55	321.32	24.52	-33.9	-34.8	23.0	0.00e+00	0	39	0	1694498816	38	3927
2026-01-26 05:34:47.55	321.04	24.56	-33.9	-34.8	23.0	0.00e+00	0	39	0	1701838848	38	3953
2026-01-26 05:34:48.54	320.76	24.60	-34.0	-34.8	23.0	0.00e+00	0	39	0	1708130304	38	3958
2026-01-26 05:34:49.54	320.48	24.64	-33.8	-34.7	23.1	0.00e+00	0	39	0	1715470336	38	3903
2026-01-26 05:34:50.53	320.20	24.67	-33.9	-34.8	23.0	0.00e+00	0	39	0	1722810368	38	3925
2026-01-26 05:34:51.53	319.92	24.71	-33.9	-34.8	23.0	0.00e+00	0	39	0	1730150400	38	3935
2026-01-26 05:34:52.53	319.63	24.74	-34.0	-34.9	23.0	0.00e+00	0	39	0	1737490432	38	3962
2026-01-26 05:34:53.53	319.35	24.78	-33.9	-34.7	23.1	0.00e+00	0	39	0	1744830464	38	3896
2026-01-26 05:34:54.52	319.07	24.81	-33.9	-34.8	23.0	0.00e+00	0	39	0	1752170496	38	3942
2026-01-26 05:34:55.52	318.78	24.84	-33.9	-34.8	23.0	0.00e+00	0	39	0	1759510528	38	3925
2026-01-26 05:34:56.52	318.50	24.87	-33.9	-34.7	23.1	0.00e+00	0	39	0	1765801984	38	3910
2026-01-26 05:34:57.51	318.21	24.90	-33.8	-34.7	23.1	0.00e+00	0	39	0	1773142016	38	3882
2026-01-26 05:34:58.51	317.92	24.93	-33.9	-34.7	23.1	0.00e+00	0	39	0	1780482048	38	3903
2026-01-26 05:34:59.51	317.64	24.96	-33.9	-34.8	23.1	0.00e+00	0	39	0	1787822080	38	3918
2026-01-26 05:35:00.51	317.35	24.99	-33.9	-34.8	23.1	0.00e+00	0	39	0	1795162112	38	3921
2026-01-26 05:35:01.51	317.06	25.02	-33.9	-34.8	23.0	0.00e+00	0	39	0	1802502144	38	3937
2026-01-26 05:35:02.51	316.77	25.05	-34.0	-34.8	23.0	0.00e+00	0	39	0	1809842176	38	3941
2026-01-26 05:35:03.50	316.48	25.08	-33.9	-34.8	23.0	0.00e+00	0	39	0	1817182208	38	3941
2026-01-26 05:35:04.50	316.19	25.10	-34.0	-34.9	23.0	0.00e+00	0	39	0	1824522240	38	3963
2026-01-26 05:35:05.50	315.90	25.13	-34.0	-34.8	23.0	0.00e+00	0	39	0	1830813696	38	3940
2026-01-26 05:35:06.50	315.61	25.15	-34.0	-34.9	22.9	0.00e+00	0	39	0	1838153728	38	3963
2026-01-26 05:35:07.50	315.32	25.17	-34.1	-34.9	22.9	0.00e+00	0	39	0	1845493760	38	3987
2026-01-26 05:35:08.50	315.02	25.20	-34.1	-34.9	22.9	0.00e+00	0	39	0	1852833792	38	3991
2026-01-26 05:35:09.49	314.73	25.22	-34.0	-34.8	23.0	0.00e+00	0	39	0	1860173824	38	3945
2026-01-26 05:35:10.49	314.44	25.24	-34.0	-34.8	23.0	0.00e+00	0	39	0	1866465280	38	3948
2026-01-26 05:35:11.49	314.15	25.26	-34.1	-34.9	22.9	0.00e+00	0	39	0	1873805312	38	4002
2026-01-26 05:35:12.49	313.85	25.28	-34.1	-35.0	22.9	0.00e+00	0	39	0	1881145344	38	4005
2026-01-26 05:35:13.49	313.56	25.30	-34.0	-34.8	23.0	0.00e+00	0	39	0	1888485376	38	3956
2026-01-26 05:35:14.49	313.26	25.32	-33.9	-34.8	23.1	0.00e+00	0	39	0	1895825408	38	3920
2026-01-26 05:35:15.49	312.97	25.33	-33.9	-34.8	23.0	0.00e+00	0	39	0	1903165440	38	3944
2026-01-26 05:35:16.49	312.67	25.35	-33.9	-34.8	23.0	0.00e+00	0	39	0	1910505472	38	3936
2026-01-26 05:35:17.48	312.38	25.37	-33.9	-34.8	23.1	0.00e+00	0	39	0	1917845504	38	3927
2026-01-26 05:35:18.48	312.08	25.38	-33.8	-34.6	23.2	0.00e+00	0	39	0	1925185536	38	3854
2026-01-26 05:35:19.48	311.79	25.39	-33.7	-34.5	23.2	0.00e+00	0	39	0	1931476992	38	3820
2026-01-26 05:35:20.48	311.49	25.41	-33.6	-34.5	23.3	0.00e+00	0	39	0	1938817024	38	3782
2026-01-26 05:35:21.48	311.19	25.42	-33.6	-34.4	23.4	0.00e+00	0	39	0	1946157056	37	3984
2026-01-26 05:35:22.47	310.90	25.43	-33.6	-34.4	23.3	0.00e+00	0	39	0	1953497088	37	4003
2026-01-26 05:35:23.47	310.60	25.44	-33.6	-34.4	23.4	0.00e+00	0	39	0	1960837120	37	3969
2026-01-26 05:35:24.47	310.30	25.45	-33.7	-34.5	23.3	0.00e+00	0	39	0	1968177152	37	4037
2026-01-26 05:35:25.47	310.01	25.46	-33.7	-34.5	23.3	0.00e+00	0	39	0	1975517184	37	4031
2026-01-26 05:35:26.47	309.71	25.47	-33.7	-34.5	23.3	0.00e+00	0	39	0	1982857216	37	4022
2026-01-26 05:35:27.46	309.41	25.47	-33.7	-34.5	23.3	0.00e+00	0	39	0	1990197248	37	4020
2026-01-26 05:35:28.46	309.11	25.48	-33.7	-34.5	23.3	0.00e+00	0	39	0	1996488704	37	4042
2026-01-26 05:35:29.46	308.82	25.49	-33.8	-34.6	23.2	0.00e+00	0	39	0	2003828736	37	4077
2026-01-26 05:35:30.45	308.52	25.49	-33.8	-34.6	23.1	0.00e+00	0	39	0	2011168768	37	4084
2026-01-26 05:35:31.45	308.22	25.49	-33.8	-34.6	23.2	0.00e+00	0	39	0	2018508800	37	4075
2026-01-26 05:35:32.45	307.92	25.50	-33.8	-34.7	23.1	0.00e+00	0	39	0	2025848832	37	4103
2026-01-26 05:35:33.44	307.63	25.50	-33.8	-34.6	23.2	0.00e+00	0	39	0	2032140288	37	4080
2026-01-26 05:35:34.44	307.33	25.50	-33.8	-34.6	23.2	0.00e+00	0	39	0	2039480320	37	4078
2026-01-26 05:35:35.44	307.03	25.50	-33.9	-34.8	23.0	0.00e+00	0	39	0	2046820352	37	4154
2026-01-26 05:35:36.43	306.74	25.50	-33.8	-34.7	23.1	0.00e+00	0	39	0	2054160384	37	4105
2026-01-26 05:35:37.43	306.44	25.50	-33.8	-34.6	23.1	0.00e+00	0	39	0	2061500416	37	4095
2026-01-26 05:35:38.43	306.14	25.50	-33.8	-34.7	23.1	0.00e+00	0	39	0	2068840448	37	4105
2026-01-26 05:35:39.43	305.84	25.49	-33.9	-34.7	23.1	0.00e+00	0	39	0	2076180480	37	4120
2026-01-26 05:35:40.42	305.54	25.49	-33.9	-34.8	23.0	0.00e+00	0	39	0	2083520512	37	4153
2026-01-26 05:35:41.42	305.25	25.49	-34.0	-34.8	23.0	0.00e+00	0	39	0	2090860544	37	4177
2026-01-26 05:35:42.42	304.95	25.48	-33.9	-34.8	23.0	0.00e+00	0	39	0	2097152000	37	4156
2026-01-26 05:35:43.41	304.65	25.47	-33.9	-34.7	23.1	0.00e+00	0	39	0	2104492032	37	4137
2026-01-26 05:35:44.42	304.35	25.47	-33.9	-34.8	23.0	0.00e+00	0	39	0	2111832064	37	4162
2026-01-26 05:35:45.41	304.06	25.46	-33.9	-34.8	23.0	0.00e+00	0	39	0	2119172096	37	4162
2026-01-26 05:35:46.41	303.76	25.45	-33.8	-34.7	23.1	0.00e+00	0	39	0	2126512128	37	4101
2026-01-26 05:35:47.41	303.46	25.44	-33.8	-34.7	23.2	0.00e+00	0	39	0	2133852160	37	4099
2026-01-26 05:35:48.41	303.16	25.43	-33.8	-34.6	23.2	0.00e+00	0	39	0	2141192192	37	4096
2026-01-26 05:35:49.40	302.87	25.42	-33.9	-34.7	23.1	0.00e+00	0	39	0	2148532224	37	4117
2026-01-26 05:35:50.40	302.57	25.41	-33.8	-34.6	23.1	0.00e+00	0	39	0	2155872256	37	4093
2026-01-26 05:35:51.40	302.27	25.39	-33.8	-34.6	23.2	0.00e+00	0	39	0	2162163712	37	4086
2026-01-26 05:35:52.40	301.98	25.38	-33.8	-34.6	23.1	0.00e+00	0	39	0	2169503744	37	4087
2026-01-26 05:35:53.40	301.68	25.36	-33.8	-34.7	23.1	0.00e+00	0	39	0	2176843776	37	4110
2026-01-26 05:35:54.39	301.39	25.35	-33.7	-34.6	23.2	0.00e+00	0	39	0	2184183808	37	4069
2026-01-26 05:35:55.39	301.09	25.33	-33.8	-34.6	23.2	0.00e+00	0	39	0	2191523840	37	4069
2026-01-26 05:35:56.39	300.80	25.31	-33.7	-34.5	23.3	0.00e+00	0	39	0	2197815296	37	4046
2026-01-26 05:35:57.38	300.51	25.30	-33.7	-34.5	23.3	0.00e+00	0	39	0	2205155328	37	4030
2026-01-26 05:35:58.38	300.21	25.28	-33.7	-34.5	23.2	0.00e+00	0	39	0	2212495360	37	4048
2026-01-26 05:35:59.38	299.92	25.26	-33.6	-34.4	23.3	0.00e+00	0	39	0	2219835392	37	3995
2026-01-26 05:36:00.38	299.62	25.24	-33.6	-34.4	23.4	0.00e+00	0	39	0	2227175424	37	3989
2026-01-26 05:36:01.37	299.33	25.22	-33.6	-34.4	23.4	0.00e+00	0	39	0	2234515456	37	3985
2026-01-26 05:36:02.37	299.04	25.19	-33.7	-34.5	23.3	0.00e+00	0	39	0	2241855488	37	4032
2026-01-26 05:36:03.37	298.74	25.17	-33.8	-34.7	23.1	0.00e+00	0	39	0	2249195520	37	4102
2026-01-26 05:36:04.37	298.45	25.15	-33.7	-34.5	23.3	0.00e+00	0	39	0	2256535552	37	4028
2026-01-26 05:36:05.37	298.16	25.12	-33.8	-34.6	23.2	0.00e+00	0	39	0	2262827008	37	4082
2026-01-26 05:36:06.37	297.87	25.10	-33.6	-34.5	23.3	0.00e+00	0	39	0	2270167040	37	4017
2026-01-26 05:36:07.36	297.58	25.07	-33.7	-34.5	23.1	0.00e+00	0	39	0	2277507072	37	4027
2026-01-26 05:36:08.36	297.29	25.05	-33.6	-34.4	23.3	0.00e+00	0	39	0	2284847104	37	3989
2026-01-26 05:36:09.36	297.00	25.02	-33.6	-34.4	23.3	0.00e+00	0	39	0	2292187136	37	3982
2026-01-26 05:36:10.36	296.71	24.99	-33.5	-34.3	23.4	0.00e+00	0	39	0	2299527168	37	3937
2026-01-26 05:36:11.36	296.42	24.96	-33.6	-34.4	23.4	0.00e+00	0	39	0	2306867200	37	3972
2026-01-26 05:36:12.36	296.13	24.93	-33.7	-34.6	23.2	0.00e+00	0	39	0	2314207232	37	4060
2026-01-26 05:36:13.36	295.85	24.90	-33.7	-34.6	23.2	0.00e+00	0	39	0	2321547264	37	4060
2026-01-26 05:36:14.36	295.56	24.87	-33.8	-34.7	23.1	0.00e+00	0	39	0	2327838720	37	4105
2026-01-26 05:36:15.35	295.27	24.84	-33.8	-34.7	23.1	0.00e+00	0	39	0	2335178752	37	4111
2026-01-26 05:36:16.35	294.99	24.80	-34.0	-34.8	23.0	0.00e+00	0	39	0	2342518784	37	4193
2026-01-26 05:36:17.35	294.70	24.77	-33.9	-34.7	23.0	0.00e+00	0	39	0	2349858816	37	4139
2026-01-26 05:36:18.35	294.42	24.74	-33.9	-34.7	23.1	0.00e+00	0	39	0	2357198848	37	4126
2026-01-26 05:36:19.35	294.13	24.70	-33.7	-34.6	23.2	0.00e+00	0	39	0	2363490304	37	4059
2026-01-26 05:36:20.35	293.85	24.67	-33.8	-34.6	23.2	0.00e+00	0	39	0	2370830336	37	4064
2026-01-26 05:36:21.34	293.57	24.63	-33.7	-34.5	23.3	0.00e+00	0	39	0	2378170368	37	4037
2026-01-26 05:36:22.34	293.29	24.59	-33.7	-34.5	23.2	0.00e+00	0	39	0	2385510400	37	4050
2026-01-26 05:36:23.34	293.00	24.55	-33.8	-34.6	23.2	0.00e+00	0	39	0	2392850432	37	4096
2026-01-26 05:36:24.34	292.72	24.52	-33.9	-34.7	23.1	0.00e+00	0	39	0	2400190464	37	4123
2026-01-26 05:36:25.34	292.44	24.48	-34.0	-34.9	22.9	0.00e+00	0	39	0	2407530496	37	4214
2026-01-26 05:36:26.34	292.16	24.44	-34.0	-34.8	23.0	0.00e+00	0	39	0	2414870528	37	4169
2026-01-26 05:36:27.34	291.88	24.40	-33.9	-34.8	23.0	0.00e+00	0	39	0	2422210560	37	4153
2026-01-26 05:36:28.34	291.61	24.35	-34.0	-34.8	23.0	0.00e+00	0	39	0	2428502016	37	4179
2026-01-26 05:36:29.34	291.33	24.31	-33.8	-34.7	23.1	0.00e+00	0	39	0	2435842048	37	4110
2026-01-26 05:36:30.34	291.05	24.27	-33.9	-34.7	23.1	0.00e+00	0	39	0	2443182080	37	4124
2026-01-26 05:36:31.33	290.78	24.23	-33.8	-34.6	23.1	0.00e+00	0	39	0	2450522112	37	4096
2026-01-26 05:36:32.33	290.50	24.18	-33.8	-34.7	23.1	0.00e+00	0	39	0	2457862144	37	4107
2026-01-26 05:36:33.33	290.23	24.14	-33.7	-34.5	23.2	0.00e+00	0	39	0	2465202176	37	4007
2026-01-26 05:36:34.33	289.95	24.09	-33.9	-34.7	23.1	0.00e+00	0	39	0	2472542208	37	4122
2026-01-26 05:36:35.32	289.68	24.05	-33.9	-34.8	23.1	0.00e+00	0	39	0	2479882240	37	4150
2026-01-26 05:36:36.32	289.41	24.00	-34.0	-34.9	22.9	0.00e+00	0	39	0	2487222272	37	4211
2026-01-26 05:36:37.32	289.14	23.95	-34.0	-34.9	23.0	0.00e+00	0	39	0	2493513728	37	4209
2026-01-26 05:36:38.32	288.87	23.91	-34.0	-34.9	22.9	0.00e+00	0	39	0	2500853760	37	4210
2026-01-26 05:36:39.32	288.60	23.86	-33.8	-34.6	23.2	0.00e+00	0	39	0	2508193792	37	4093
2026-01-26 05:36:40.31	288.33	23.81	-33.8	-34.7	23.1	0.00e+00	0	39	0	2515533824	37	4103
2026-01-26 05:36:41.31	288.07	23.76	-33.9	-34.7	23.1	0.00e+00	0	39	0	2522873856	37	4135
2026-01-26 05:36:42.31	287.80	23.71	-33.9	-34.7	23.1	0.00e+00	0	39	0	2530213888	37	4112
2026-01-26 05:36:43.30	287.54	23.66	-33.9	-34.7	23.0	0.00e+00	0	39	0	2536505344	37	4131
2026-01-26 05:36:44.30	287.27	23.61	-34.0	-34.8	23.0	0.00e+00	0	39	0	2543845376	37	4173
2026-01-26 05:36:45.30	287.01	23.56	-33.9	-34.8	23.0	0.00e+00	0	39	0	2551185408	37	4160
2026-01-26 05:36:46.29	286.74	23.51	-33.9	-34.8	23.0	0.00e+00	0	39	0	2558525440	37	4151
2026-01-26 05:36:47.29	286.48	23.45	-33.9	-34.7	23.1	0.00e+00	0	39	0	2565865472	37	4143
2026-01-26 05:36:48.29	286.22	23.40	-33.9	-34.7	23.1	0.00e+00	0	39	0	2573205504	37	4126
2026-01-26 05:36:49.28	285.96	23.35	-33.8	-34.6	23.2	0.00e+00	0	39	0	2580545536	37	4093
2026-01-26 05:36:50.28	285.70	23.29	-33.8	-34.6	23.2	0.00e+00	0	39	0	2587885568	37	4090
2026-01-26 05:36:51.28	285.44	23.24	-33.8	-34.6	23.2	0.00e+00	0	39	0	2594177024	37	4080
2026-01-26 05:36:52.28	285.18	23.18	-33.9	-34.7	23.1	0.00e+00	0	39	0	2601517056	37	4115
2026-01-26 05:36:53.28	284.93	23.13	-33.9	-34.7	23.1	0.00e+00	0	39	0	2608857088	37	4129
2026-01-26 05:36:54.27	284.67	23.07	-33.9	-34.7	22.5	0.00e+00	0	39	0	2616197120	37	4138
2026-01-26 05:36:55.27	284.42	23.01	-34.0	-34.9	23.0	0.00e+00	0	39	0	2623537152	37	4196
2026-01-26 05:36:56.27	284.16	22.96	-34.1	-34.9	22.9	0.00e+00	0	39	0	2630877184	37	4237
2026-01-26 05:36:57.27	283.91	22.90	-34.1	-34.9	22.9	0.00e+00	0	39	0	2638217216	37	4236
2026-01-26 05:36:58.27	283.66	22.84	-33.9	-34.8	23.0	0.00e+00	0	39	0	2645557248	37	4164
2026-01-26 05:36:59.27	283.40	22.78	-34.0	-34.9	23.0	0.00e+00	0	39	0	2651848704	37	4195
2026-01-26 05:37:00.26	283.16	22.72	-33.9	-34.7	23.1	0.00e+00	0	39	0	2659188736	37	4131
2026-01-26 05:37:01.27	282.90	22.66	-33.8	-34.7	23.1	0.00e+00	0	39	0	2666528768	37	4108
2026-01-26 05:37:02.26	282.66	22.60	-33.9	-34.7	23.1	0.00e+00	0	39	0	2673868800	37	4127
2026-01-26 05:37:03.26	282.41	22.54	-33.8	-34.6	23.2	0.00e+00	0	39	0	2681208832	37	4092
2026-01-26 05:37:04.26	282.16	22.48	-33.8	-34.7	23.1	0.00e+00	0	39	0	2688548864	37	4104
2026-01-26 05:37:05.25	281.92	22.42	-33.9	-34.7	23.0	0.00e+00	0	39	0	2695888896	37	4122
2026-01-26 05:37:06.25	281.67	22.36	-33.9	-34.7	23.1	0.00e+00	0	39	0	2702180352	37	4144
2026-01-26 05:37:07.25	281.43	22.30	-34.0	-34.8	23.0	0.00e+00	0	39	0	2709520384	37	4171
2026-01-26 05:37:08.24	281.19	22.23	-33.9	-34.8	23.0	0.00e+00	0	39	0	2716860416	37	4160
2026-01-26 05:37:09.23	280.95	22.17	-34.0	-34.9	23.0	0.00e+00	0	39	0	2724200448	37	4197
2026-01-26 05:37:10.23	280.71	22.11	-34.0	-34.8	23.0	0.00e+00	0	39	0	2731540480	37	4184
2026-01-26 05:37:11.23	280.47	22.05	-34.0	-34.9	22.9	0.00e+00	0	39	0	2738880512	37	4208
2026-01-26 05:37:12.23	280.23	21.98	-34.1	-34.9	22.9	0.00e+00	0	39	0	2746220544	37	4231
2026-01-26 05:37:13.23	279.99	21.92	-34.1	-35.0	22.8	0.00e+00	0	39	0	2753560576	37	4250
2026-01-26 05:37:14.23	279.75	21.85	-34.0	-34.9	22.9	0.00e+00	0	39	0	2759852032	37	4203
2026-01-26 05:37:15.22	279.52	21.79	-34.0	-34.8	22.9	0.00e+00	0	39	0	2767192064	37	4183
2026-01-26 05:37:16.22	279.28	21.72	-34.0	-34.8	23.0	0.00e+00	0	39	0	2774532096	37	4159
2026-01-26 05:37:17.21	279.05	21.66	-34.0	-34.8	23.0	0.00e+00	0	39	0	2781872128	37	4157
2026-01-26 05:37:18.21	278.82	21.59	-34.0	-34.9	23.0	0.00e+00	0	39	0	2789212160	37	4202
2026-01-26 05:37:19.21	278.59	21.52	-34.0	-34.8	23.0	0.00e+00	0	39	0	2796552192	37	4178
2026-01-26 05:37:20.20	278.36	21.46	-34.1	-34.9	22.8	0.00e+00	0	39	0	2803892224	37	4231
2026-01-26 05:37:21.20	278.13	21.39	-34.0	-34.9	23.0	0.00e+00	0	39	0	2811232256	37	4196
2026-01-26 05:37:22.20	277.90	21.32	-34.1	-35.0	22.9	0.00e+00	0	39	0	2817523712	37	4249
2026-01-26 05:37:23.20	277.67	21.25	-34.1	-35.0	22.8	0.00e+00	0	39	0	2824863744	37	4255
2026-01-26 05:37:24.20	277.44	21.19	-34.0	-34.9	22.9	0.00e+00	0	39	0	2832203776	37	4210
2026-01-26 05:37:25.20	277.22	21.12	-34.1	-35.0	22.9	0.00e+00	0	39	0	2839543808	37	4266
2026-01-26 05:37:26.19	276.99	21.05	-34.0	-34.9	22.9	0.00e+00	0	39	0	2846883840	37	4203
2026-01-26 05:37:27.20	276.77	20.98	-34.1	-34.9	22.9	0.00e+00	0	39	0	2854223872	37	4228
2026-01-26 05:37:28.19	276.55	20.91	-34.1	-34.9	22.9	0.00e+00	0	39	0	2860515328	37	4230
2026-01-26 05:37:29.19	276.32	20.84	-34.3	-35.1	22.7	0.00e+00	0	39	0	2867855360	37	4322
2026-01-26 05:37:30.19	276.10	20.77	-34.3	-35.1	22.7	0.00e+00	0	39	0	2875195392	37	4331
2026-01-26 05:37:31.19	275.88	20.70	-34.3	-35.1	22.7	0.00e+00	0	39	0	2882535424	38	4098
2026-01-26 05:37:32.18	275.67	20.63	-34.4	-35.2	22.6	0.00e+00	0	39	0	2889875456	38	4137
2026-01-26 05:37:33.18	275.45	20.56	-34.3	-35.1	22.7	0.00e+00	0	39	0	2897215488	38	4097
2026-01-26 05:37:34.18	275.23	20.49	-34.3	-35.1	22.7	0.00e+00	0	39	0	2904555520	38	4082
2026-01-26 05:37:35.18	275.01	20.42	-34.3	-35.1	22.7	0.00e+00	0	39	0	2911895552	38	4089
2026-01-26 05:37:36.18	274.80	20.35	-34.2	-35.1	22.8	0.00e+00	0	39	0	2919235584	38	4069
2026-01-26 05:37:37.18	274.59	20.28	-34.2	-35.0	22.8	0.00e+00	0	39	0	2925527040	38	4038
2026-01-26 05:37:38.18	274.37	20.21	-34.3	-35.1	22.7	0.00e+00	0	39	0	2932867072	38	4090
2026-01-26 05:37:39.18	274.16	20.14	-34.3	-35.2	22.7	0.00e+00	0	39	0	2940207104	38	4112
2026-01-26 05:37:40.17	273.95	20.06	-34.4	-35.3	22.6	0.00e+00	0	39	0	2947547136	38	4179
2026-01-26 05:37:41.18	273.74	19.99	-34.5	-35.3	22.5	0.00e+00	0	39	0	2954887168	38	4183
2026-01-26 05:37:42.17	273.53	19.92	-34.5	-35.4	22.5	0.00e+00	0	39	0	2962227200	38	4201
2026-01-26 05:37:43.17	273.32	19.85	-34.6	-35.4	22.5	0.00e+00	0	39	0	2969567232	38	4240
2026-01-26 05:37:44.16	273.12	19.77	-34.7	-35.6	22.3	0.00e+00	0	39	0	2976907264	38	4301
2026-01-26 05:37:45.16	272.91	19.70	-34.5	-35.4	22.5	0.00e+00	0	39	0	2983198720	38	4208
2026-01-26 05:37:46.16	272.71	19.63	-34.6	-35.4	22.4	0.00e+00	0	39	0	2990538752	38	4241
2026-01-26 05:37:47.16	272.50	19.56	-34.5	-35.4	22.5	0.00e+00	0	39	0	2997878784	38	4206
2026-01-26 05:37:48.16	272.30	19.48	-34.5	-35.3	22.5	0.00e+00	0	39	0	3005218816	38	4185
2026-01-26 05:37:49.15	272.10	19.41	-34.5	-35.3	22.5	0.00e+00	0	39	0	3012558848	38	4171
2026-01-26 05:37:50.15	271.90	19.33	-34.5	-35.4	22.5	0.00e+00	0	39	0	3019898880	38	4209
2026-01-26 05:37:51.15	271.70	19.26	-34.6	-35.5	22.4	0.00e+00	0	39	0	3026190336	38	4249
2026-01-26 05:37:52.14	271.50	19.19	-34.6	-35.4	22.4	0.00e+00	0	39	0	3033530368	38	4242
2026-01-26 05:37:53.14	271.30	19.11	-34.5	-35.4	22.5	0.00e+00	0	39	0	3040870400	38	4218
2026-01-26 05:37:54.14	271.11	19.04	-34.5	-35.4	22.4	0.00e+00	0	39	0	3048210432	38	4218
2026-01-26 05:37:55.13	270.91	18.97	-34.5	-35.4	22.4	0.00e+00	0	39	0	3055550464	38	4223
2026-01-26 05:37:56.13	270.72	18.89	-34.6	-35.5	22.4	0.00e+00	0	39	0	3062890496	38	4263
2026-01-26 05:37:57.13	270.52	18.82	-34.8	-35.7	22.2	0.00e+00	0	39	0	3070230528	38	4347
2026-01-26 05:37:58.12	270.33	18.74	-34.7	-35.5	22.3	0.00e+00	0	39	0	3077570560	39	4051
2026-01-26 05:37:59.12	270.14	18.67	-34.8	-35.7	22.2	0.00e+00	0	39	0	3084910592	39	4115
2026-01-26 05:38:00.12	269.94	18.59	-34.8	-35.7	22.2	0.00e+00	0	39	0	3091202048	39	4134
2026-01-26 05:38:01.12	269.75	18.52	-34.9	-35.8	22.1	0.00e+00	0	39	0	3098542080	39	4170
2026-01-26 05:38:02.12	269.56	18.44	-34.9	-35.8	22.1	0.00e+00	0	39	0	3105882112	39	4161
2026-01-26 05:38:03.12	269.38	18.37	-34.8	-35.7	22.2	0.00e+00	0	39	0	3113222144	39	4126
2026-01-26 05:38:04.11	269.19	18.29	-34.8	-35.6	22.2	0.00e+00	0	39	0	3120562176	39	4092
2026-01-26 05:38:05.11	269.00	18.22	-34.6	-35.5	22.4	0.00e+00	0	39	0	3127902208	39	4032
2026-01-26 05:38:06.11	268.82	18.14	-34.7	-35.5	22.3	0.00e+00	0	39	0	3135242240	39	4049
2026-01-26 05:38:07.10	268.63	18.07	-34.6	-35.5	22.3	0.00e+00	0	39	0	3142582272	39	4034
2026-01-26 05:38:08.10	268.45	17.99	-34.7	-35.5	22.2	0.00e+00	0	39	0	3148873728	39	4049
2026-01-26 05:38:09.10	268.27	17.91	-34.7	-35.6	22.3	0.00e+00	0	39	0	3156213760	39	4072
2026-01-26 05:38:10.09	268.09	17.84	-34.8	-35.7	22.2	0.00e+00	0	39	0	3163553792	39	4110
2026-01-26 05:38:11.09	267.90	17.76	-34.9	-35.8	22.0	0.00e+00	0	39	0	3170893824	39	4191
2026-01-26 05:38:12.08	267.73	17.69	-35.1	-36.0	21.9	0.00e+00	0	39	0	3178233856	39	4256
2026-01-26 05:38:13.08	267.55	17.61	-35.2	-36.1	21.8	0.00e+00	0	39	0	3185573888	39	4307
2026-01-26 05:38:14.07	267.37	17.54	-35.2	-36.2	21.7	0.00e+00	0	39	0	3191865344	40	4100
2026-01-26 05:38:15.07	267.19	17.46	-35.2	-36.1	21.8	0.00e+00	0	39	0	3199205376	40	4053
2026-01-26 05:38:16.06	267.02	17.38	-35.2	-36.0	21.8	0.00e+00	0	39	0	3206545408	40	4043
2026-01-26 05:38:17.06	266.84	17.31	-35.2	-36.0	21.8	0.00e+00	0	39	0	3213885440	40	4044
2026-01-26 05:38:18.06	266.67	17.23	-35.1	-36.0	21.8	0.00e+00	0	39	0	3221225472	40	4025
2026-01-26 05:38:19.06	266.49	17.16	-35.1	-36.0	21.8	0.00e+00	0	39	0	3228565504	40	4031
2026-01-26 05:38:20.05	266.32	17.08	-35.2	-36.1	21.7	0.00e+00	0	39	0	3235905536	40	4086
2026-01-26 05:38:21.05	266.15	17.00	-35.3	-36.2	21.7	0.00e+00	0	39	0	3242196992	40	4107
2026-01-26 05:38:22.04	265.98	16.93	-35.4	-36.3	21.5	0.00e+00	0	39	0	3249537024	40	4181
2026-01-26 05:38:23.04	265.81	16.85	-35.4	-36.4	21.5	0.00e+00	0	39	0	3256877056	40	4203
2026-01-26 05:38:24.03	265.64	16.78	-35.6	-36.5	21.4	0.00e+00	0	39	0	3264217088	40	4249
2026-01-26 05:38:25.03	265.47	16.70	-35.6	-36.5	21.4	0.00e+00	0	39	0	3271557120	40	4271
2026-01-26 05:38:26.03	265.30	16.62	-35.7	-36.6	21.3	0.00e+00	0	39	0	3278897152	41	4075
2026-01-26 05:38:27.03	265.14	16.55	-35.4	-36.3	21.5	0.00e+00	0	39	0	3286237184	41	3943
2026-01-26 05:38:28.03	264.97	16.47	-35.4	-36.3	21.5	0.00e+00	0	39	0	3292528640	41	3920
2026-01-26 05:38:29.02	264.81	16.39	-35.3	-36.2	21.5	0.00e+00	0	39	0	3299868672	41	3909
2026-01-26 05:38:30.02	264.64	16.32	-35.3	-36.2	21.6	0.00e+00	0	39	0	3307208704	41	3886
2026-01-26 05:38:31.01	264.48	16.24	-35.4	-36.3	21.5	0.00e+00	0	39	0	3314548736	41	3930
2026-01-26 05:38:32.01	264.32	16.17	-35.5	-36.4	21.4	0.00e+00	0	39	0	3321888768	41	3970
2026-01-26 05:38:33.01	264.15	16.09	-35.5	-36.5	21.4	0.00e+00	0	39	0	3329228800	41	4006
2026-01-26 05:38:34.00	263.99	16.01	-35.5	-36.4	21.4	0.00e+00	0	39	0	3335520256	41	3991
2026-01-26 05:38:35.00	263.83	15.94	-35.6	-36.6	21.2	0.00e+00	0	39	0	3343908864	41	4063
2026-01-26 05:38:36.00	263.67	15.86	-35.6	-36.5	21.3	0.00e+00	0	39	0	3350200320	41	4023
2026-01-26 05:38:36.99	263.52	15.78	-35.6	-36.5	21.3	0.00e+00	0	39	0	3357540352	41	4022
2026-01-26 05:38:37.99	263.36	15.71	-35.6	-36.5	21.2	0.00e+00	0	39	0	3364880384	41	4045
2026-01-26 05:38:38.99	263.20	15.63	-35.6	-36.5	21.3	0.00e+00	0	39	0	3372220416	41	4025
2026-01-26 05:38:39.99	263.04	15.56	-35.5	-36.5	21.3	0.00e+00	0	39	0	3379560448	41	4005
2026-01-26 05:38:40.98	262.89	15.48	-35.5	-36.4	21.3	0.00e+00	0	39	0	3386900480	41	4002
2026-01-26 05:38:41.98	262.74	15.40	-35.6	-36.5	21.3	0.00e+00	0	39	0	3393191936	41	4029
2026-01-26 05:38:42.98	262.58	15.33	-35.6	-36.6	21.3	0.00e+00	0	39	0	3400531968	41	4053
2026-01-26 05:38:43.98	262.43	15.25	-35.7	-36.7	21.1	0.00e+00	0	39	0	3407872000	41	4107
2026-01-26 05:38:44.97	262.28	15.18	-35.7	-36.7	21.1	0.00e+00	0	39	0	3415212032	41	4108
2026-01-26 05:38:45.97	262.13	15.10	-35.7	-36.7	21.1	0.00e+00	0	39	0	3422552064	41	4111
2026-01-26 05:38:46.97	261.98	15.02	-35.9	-36.8	21.0	0.00e+00	0	39	0	3429892096	41	4173
2026-01-26 05:38:47.96	261.83	14.95	-35.9	-36.9	21.0	0.00e+00	0	39	0	3437232128	41	4194
2026-01-26 05:38:48.96	261.68	14.87	-36.0	-36.9	20.9	0.00e+00	0	39	0	3444572160	41	4223
2026-01-26 05:38:49.96	261.53	14.80	-36.0	-36.9	20.9	0.00e+00	0	39	0	3451912192	41	4223
2026-01-26 05:38:50.95	261.38	14.72	-36.0	-37.0	20.9	0.00e+00	0	39	0	3458203648	41	4244
2026-01-26 05:38:51.95	261.24	14.64	-36.0	-37.0	20.8	0.00e+00	0	39	0	3465543680	41	4266
2026-01-26 05:38:52.95	261.09	14.57	-36.1	-37.1	20.8	0.00e+00	0	39	0	3472883712	41	4306
2026-01-26 05:38:53.95	260.94	14.49	-36.1	-37.0	20.8	0.00e+00	0	39	0	3480223744	41	4286
2026-01-26 05:38:54.94	260.80	14.42	-36.0	-37.0	20.9	0.00e+00	0	39	0	3487563776	41	4256
2026-01-26 05:38:55.94	260.66	14.34	-36.1	-37.1	20.8	0.00e+00	0	39	0	3494903808	41	4302
2026-01-26 05:38:56.94	260.51	14.27	-36.1	-37.1	20.7	0.00e+00	0	39	0	3501195264	41	4314
2026-01-26 05:38:57.94	260.37	14.19	-36.0	-36.9	20.9	0.00e+00	0	39	0	3508535296	41	4237
2026-01-26 05:38:58.93	260.23	14.12	-35.9	-36.9	20.9	0.00e+00	0	39	0	3515875328	41	4214
2026-01-26 05:38:59.93	260.09	14.04	-36.0	-36.9	20.9	0.00e+00	0	39	0	3523215360	41	4242
2026-01-26 05:39:00.93	259.95	13.97	-36.1	-37.1	20.8	0.00e+00	0	39	0	3530555392	41	4293
2026-01-26 05:39:01.93	259.81	13.89	-36.0	-37.0	20.8	0.00e+00	0	39	0	3537895424	41	4245
2026-01-26 05:39:02.93	259.67	13.81	-36.1	-37.0	20.8	0.00e+00	0	39	0	3545235456	41	4278
2026-01-26 05:39:03.92	259.53	13.74	-36.1	-37.1	20.7	0.00e+00	0	39	0	3552575488	41	4306
2026-01-26 05:39:04.92	259.40	13.66	-36.1	-37.1	20.7	0.00e+00	0	39	0	3558866944	41	4323
2026-01-26 05:39:05.92	259.26	13.59	-36.1	-37.1	20.7	0.00e+00	0	39	0	3566206976	41	4320
2026-01-26 05:39:06.92	259.12	13.51	-36.2	-37.2	20.6	0.00e+00	0	39	0	3573547008	41	4375
2026-01-26 05:39:07.92	258.99	13.44	-36.2	-37.2	20.5	0.00e+00	0	39	0	3580887040	41	4379
2026-01-26 05:39:08.92	258.85	13.36	-36.3	-37.2	20.6	0.00e+00	0	39	0	3588227072	42	4144
2026-01-26 05:39:09.91	258.72	13.29	-36.4	-37.4	20.4	0.00e+00	0	39	0	3595567104	42	4212
2026-01-26 05:39:10.91	258.59	13.22	-36.5	-37.5	20.3	0.00e+00	0	39	0	3602907136	42	4268
2026-01-26 05:39:11.91	258.46	13.14	-36.6	-37.6	20.2	0.00e+00	0	39	0	3610247168	42	4329
2026-01-26 05:39:12.91	258.32	13.07	-36.7	-37.7	20.1	0.00e+00	0	39	0	3617587200	42	4377
2026-01-26 05:39:13.91	258.19	12.99	-36.8	-37.9	20.0	0.00e+00	0	39	0	3623878656	43	4196
2026-01-26 05:39:14.90	258.06	12.92	-36.8	-37.8	20.0	0.00e+00	0	39	0	3631218688	43	4191
2026-01-26 05:39:15.90	257.93	12.84	-37.0	-38.0	19.8	0.00e+00	0	39	0	3638558720	43	4265
2026-01-26 05:39:16.90	257.80	12.77	-36.7	-37.7	20.1	0.00e+00	0	39	0	3645898752	43	4136
2026-01-26 05:39:17.90	257.68	12.70	-36.7	-37.6	20.2	0.00e+00	0	39	0	3653238784	43	4096
2026-01-26 05:39:18.90	257.55	12.62	-36.6	-37.6	20.2	0.00e+00	0	39	0	3660578816	43	4081
2026-01-26 05:39:19.90	257.42	12.55	-36.5	-37.5	20.3	0.00e+00	0	39	0	3666870272	43	4023
2026-01-26 05:39:20.90	257.29	12.47	-36.3	-37.3	20.5	0.00e+00	0	39	0	3674210304	43	3918
2026-01-26 05:39:21.90	257.17	12.40	-36.3	-37.2	20.5	0.00e+00	0	39	0	3681550336	43	3911
2026-01-26 05:39:22.89	257.04	12.33	-36.2	-37.1	20.6	0.00e+00	0	39	0	3688890368	43	3855
2026-01-26 05:39:23.89	256.92	12.25	-36.2	-37.2	20.6	0.00e+00	0	39	0	3696230400	43	3876
2026-01-26 05:39:24.88	256.80	12.18	-36.2	-37.2	20.5	0.00e+00	0	39	0	3703570432	43	3891
2026-01-26 05:39:25.88	256.67	12.11	-36.3	-37.3	20.4	0.00e+00	0	39	0	3710910464	43	3926
2026-01-26 05:39:26.87	256.55	12.03	-36.5	-37.5	20.2	0.00e+00	0	39	0	3718250496	43	4031
2026-01-26 05:39:27.87	256.43	11.96	-36.6	-37.6	20.1	0.00e+00	0	39	0	3724541952	43	4098
2026-01-26 05:39:28.86	256.31	11.89	-36.8	-37.8	19.9	0.00e+00	0	39	0	3731881984	43	4191
2026-01-26 05:39:29.87	256.19	11.81	-36.9	-37.9	19.8	0.00e+00	0	39	0	3739222016	43	4237
2026-01-26 05:39:30.86	256.07	11.74	-37.0	-38.0	19.7	0.00e+00	0	39	0	3746562048	43	4289
2026-01-26 05:39:31.86	255.95	11.67	-37.0	-38.1	19.7	0.00e+00	0	39	0	3753902080	43	4314
2026-01-26 05:39:32.86	255.83	11.60	-37.2	-38.2	19.6	0.00e+00	0	39	0	3761242112	43	4376
2026-01-26 05:39:33.86	255.71	11.52	-37.1	-38.1	19.6	0.00e+00	0	39	0	3768582144	43	4336
2026-01-26 05:39:34.85	255.59	11.45	-37.0	-38.1	19.7	0.00e+00	0	39	0	3775922176	43	4298
2026-01-26 05:39:35.85	255.47	11.38	-36.9	-37.9	19.8	0.00e+00	0	39	0	3782213632	43	4240
2026-01-26 05:39:36.84	255.36	11.31	-36.8	-37.8	20.0	0.00e+00	0	39	0	3789553664	43	4169
2026-01-26 05:39:37.84	255.24	11.23	-36.8	-37.8	19.9	0.00e+00	0	39	0	3796893696	43	4184
2026-01-26 05:39:38.84	255.13	11.16	-36.8	-37.8	19.9	0.00e+00	0	39	0	3804233728	43	4165
2026-01-26 05:39:39.84	255.01	11.09	-36.7	-37.7	20.1	0.00e+00	0	39	0	3811573760	43	4117
2026-01-26 05:39:40.84	254.90	11.02	-36.8	-37.8	19.9	0.00e+00	0	39	0	3818913792	43	4161
2026-01-26 05:39:41.84	254.78	10.95	-36.7	-37.7	20.0	0.00e+00	0	39	0	3826253824	43	4138
2026-01-26 05:39:42.84	254.67	10.87	-36.6	-37.6	20.1	0.00e+00	0	39	0	3832545280	43	4091
2026-01-26 05:39:43.84	254.56	10.80	-36.6	-37.6	20.1	0.00e+00	0	39	0	3839885312	43	4082
2026-01-26 05:39:44.84	254.45	10.73	-36.6	-37.7	20.0	0.00e+00	0	39	0	3847225344	43	4101
2026-01-26 05:39:45.84	254.33	10.66	-36.6	-37.6	20.1	0.00e+00	0	39	0	3854565376	43	4069
2026-01-26 05:39:46.84	254.22	10.59	-36.6	-37.6	20.1	0.00e+00	0	39	0	3861905408	43	4076
2026-01-26 05:39:47.84	254.11	10.52	-36.7	-37.7	20.0	0.00e+00	0	39	0	3869245440	43	4119
2026-01-26 05:39:48.83	254.00	10.45	-36.6	-37.6	20.1	0.00e+00	0	39	0	3876585472	43	4074
2026-01-26 05:39:49.83	253.89	10.38	-36.7	-37.7	20.0	0.00e+00	0	39	0	3883925504	43	4109
2026-01-26 05:39:50.83	253.78	10.30	-36.7	-37.7	19.9	0.00e+00	0	39	0	3890216960	43	4138
2026-01-26 05:39:51.83	253.68	10.23	-36.7	-37.7	20.0	0.00e+00	0	39	0	3897556992	43	4104
2026-01-26 05:39:52.82	253.57	10.16	-36.7	-37.7	19.9	0.00e+00	0	39	0	3904897024	43	4122
2026-01-26 05:39:53.82	253.46	10.09	-36.8	-37.8	19.9	0.00e+00	0	39	0	3912237056	43	4158
2026-01-26 05:39:54.82	253.36	10.02	-36.8	-37.9	19.8	0.00e+00	0	39	0	3919577088	43	4198
2026-01-26 05:39:55.82	253.25	9.95	-36.8	-37.8	19.8	0.00e+00	0	39	0	3926917120	43	4187
2026-01-26 05:39:56.82	253.14	9.88	-36.8	-37.9	19.8	0.00e+00	0	39	0	3934257152	43	4198
2026-01-26 05:39:57.82	253.04	9.81	-36.9	-37.9	19.8	0.00e+00	0	39	0	3941597184	43	4239
2026-01-26 05:39:58.82	252.93	9.74	-37.1	-38.1	19.5	0.00e+00	0	39	0	3948937216	43	4322
2026-01-26 05:39:59.82	252.83	9.67	-37.1	-38.1	19.5	0.00e+00	0	39	0	3955228672	43	4324
2026-01-26 05:40:00.81	252.73	9.60	-37.2	-38.2	19.4	0.00e+00	0	39	0	3962568704	43	4383
2026-01-26 05:40:01.81	252.62	9.53	-37.1	-38.2	19.5	0.00e+00	0	39	0	3969908736	43	4361
2026-01-26 05:40:02.81	252.52	9.46	-37.2	-38.3	19.4	0.00e+00	0	39	0	3977248768	43	4402
2026-01-26 05:40:03.81	252.42	9.39	-37.4	-38.5	19.3	0.00e+00	0	39	0	3984588800	44	4264
2026-01-26 05:40:04.80	252.32	9.32	-37.5	-38.6	19.2	0.00e+00	0	39	0	3991928832	44	4316
2026-01-26 05:40:05.80	252.22	9.25	-37.5	-38.6	19.2	0.00e+00	0	39	0	3998220288	44	4325
2026-01-26 05:40:06.80	252.12	9.18	-37.5	-38.6	19.2	0.00e+00	0	39	0	4005560320	44	4338
2026-01-26 05:40:07.79	252.02	9.12	-37.6	-38.7	19.2	0.00e+00	0	39	0	4012900352	44	4342
2026-01-26 05:40:08.79	251.92	9.05	-37.7	-38.8	19.0	0.00e+00	0	39	0	4020240384	44	4405
2026-01-26 05:40:09.78	251.82	8.98	-47.4	-54.5	4.9	4.70e-02	0	39	0	4027580416	64	8551
2026-01-26 05:40:10.78	251.72	8.91	-47.7	-59.4	3.8	8.47e-01	0	39	104	4027580416	65	14076
2026-01-26 05:40:11.78	251.62	8.84	-48.6	-59.6	3.8	8.47e-01	0	39	104	4027580416	66	13719
2026-01-26 05:40:12.77	251.52	8.77	-48.6	-59.8	3.8	8.47e-01	0	39	104	4027580416	66	13944
2026-01-26 05:40:13.77	251.43	8.70	-48.6	-59.9	3.8	8.46e-01	0	39	104	4027580416	67	13278
2026-01-26 05:40:14.77	251.33	8.64	-48.9	-59.9	3.8	8.47e-01	0	39	104	4027580416	67	13382
2026-01-26 05:40:15.76	251.23	8.57	-49.0	-60.0	3.8	8.46e-01	0	39	104	4027580416	67	13453
2026-01-26 05:40:16.76	251.14	8.50	-48.6	-60.0	3.8	8.47e-01	0	39	104	4027580416	67	13421
2026-01-26 05:40:17.76	251.04	8.43	-49.0	-60.0	3.8	8.47e-01	0	39	104	4027580416	67	13460
2026-01-26 05:40:18.76	250.95	8.36	-49.1	-60.0	3.8	8.46e-01	0	39	104	4027580416	67	13459
2026-01-26 05:40:19.76	250.85	8.30	-49.1	-60.0	3.8	8.47e-01	0	39	104	4027580416	67	13510
2026-01-26 05:40:20.76	250.76	8.23	-49.2	-60.0	3.8	8.47e-01	0	39	104	4027580416	67	13511
2026-01-26 05:40:21.75	250.67	8.16	-49.1	-60.0	3.8	8.47e-01	0	39	104	4027580416	67	13528
2026-01-26 05:40:22.74	250.57	8.09	-49.0	-60.0	3.8	8.47e-01	0	39	104	4027580416	67	13530
2026-01-26 05:40:23.74	250.48	8.03	-48.9	-60.0	3.8	8.48e-01	0	39	104	4027580416	67	13506
2026-01-26 05:40:24.74	250.39	7.96	-49.0	-60.0	3.8	8.47e-01	0	39	104	4027580416	67	13544
2026-01-26 05:40:25.73	250.30	7.89	-49.1	-60.0	3.8	8.47e-01	0	39	104	4027580416	67	13534
2026-01-26 05:40:26.73	250.21	7.83	-49.1	-59.9	3.8	8.48e-01	0	39	104	4027580416	67	13414
2026-01-26 05:40:27.73	250.11	7.76	-49.1	-59.9	3.8	8.48e-01	0	39	104	4027580416	67	13404
2026-01-26 05:40:28.73	250.02	7.69	-49.0	-60.0	3.8	8.46e-01	0	39	104	4027580416	67	13493
2026-01-26 05:40:29.72	249.93	7.62	-49.0	-60.0	3.8	8.47e-01	0	39	104	4027580416	67	13485
2026-01-26 05:40:30.72	249.84	7.56	-48.9	-60.0	3.8	8.47e-01	0	39	104	4027580416	67	13549
2026-01-26 05:40:31.72	249.76	7.49	-48.8	-59.9	3.8	8.47e-01	0	39	104	4027580416	67	13311
2026-01-26 05:40:32.72	249.67	7.42	-48.6	-59.9	3.8	8.47e-01	0	39	104	4027580416	67	13312
2026-01-26 05:40:33.72	249.58	7.36	-48.7	-59.8	3.8	8.48e-01	0	39	104	4027580416	67	13205
2026-01-26 05:40:34.71	249.49	7.29	-48.7	-59.9	3.8	8.47e-01	0	39	104	4027580416	67	13362
2026-01-26 05:40:35.71	249.40	7.23	-48.8	-59.9	3.8	8.47e-01	0	39	104	4027580416	67	13315
2026-01-26 05:40:36.71	249.32	7.16	-48.8	-59.9	3.8	8.48e-01	0	39	104	4027580416	67	13281
2026-01-26 05:40:37.70	249.23	7.10	-48.6	-59.9	3.8	8.47e-01	0	39	104	4027580416	67	13290
2026-01-26 05:40:38.70	249.14	7.03	-48.7	-59.8	3.8	8.47e-01	0	39	104	4027580416	67	13159
2026-01-26 05:40:39.69	249.06	6.96	-48.7	-59.8	3.8	8.47e-01	0	39	104	4027580416	67	13140
2026-01-26 05:40:40.69	248.97	6.90	-48.7	-59.8	3.8	8.46e-01	0	39	104	4027580416	67	13136
2026-01-26 05:40:41.69	248.89	6.83	-48.6	-59.8	3.8	8.47e-01	0	39	104	4027580416	67	13181
2026-01-26 05:40:42.68	248.80	6.77	-48.7	-59.8	3.8	8.47e-01	0	39	104	4027580416	67	13162
2026-01-26 05:40:43.68	248.72	6.70	-48.7	-59.8	3.8	8.48e-01	0	39	104	4027580416	67	13185
2026-01-26 05:40:44.67	248.63	6.64	-48.7	-59.7	3.8	8.47e-01	0	39	104	4027580416	67	13095
2026-01-26 05:40:45.67	248.55	6.57	-48.6	-59.8	3.8	8.47e-01	0	39	104	4027580416	67	13162
2026-01-26 05:40:46.67	248.47	6.51	-48.6	-59.8	3.8	8.47e-01	0	39	104	4027580416	67	13113
2026-01-26 05:40:47.67	248.38	6.44	-48.7	-59.8	3.8	8.47e-01	0	39	104	4027580416	67	13115
2026-01-26 05:40:48.66	248.30	6.38	-48.7	-59.8	3.8	8.48e-01	0	39	104	4027580416	67	13159
2026-01-26 05:40:49.66	248.22	6.31	-48.7	-59.7	3.8	8.46e-01	0	39	104	4027580416	67	13104
2026-01-26 05:40:50.66	248.14	6.25	-48.7	-59.8	3.8	8.46e-01	0	39	104	4027580416	67	13197
2026-01-26 05:40:51.65	248.06	6.19	-48.7	-59.8	3.8	8.48e-01	0	39	104	4027580416	67	13110
2026-01-26 05:40:52.65	247.98	6.12	-48.7	-59.8	3.8	8.46e-01	0	39	104	4027580416	67	13114
2026-01-26 05:40:53.65	247.90	6.06	-48.6	-59.8	3.8	8.47e-01	0	39	104	4027580416	67	13118
2026-01-26 05:40:54.65	247.81	5.99	-48.7	-59.7	3.8	8.48e-01	0	39	104	4027580416	67	13026
2026-01-26 05:40:55.65	247.73	5.93	-48.6	-59.8	3.8	8.47e-01	0	39	104	4027580416	67	13152
2026-01-26 05:40:56.65	247.66	5.87	-48.6	-59.8	3.8	8.47e-01	0	39	104	4027580416	67	13140
2026-01-26 05:40:57.65	247.58	5.80	-48.7	-59.8	3.8	8.46e-01	0	39	104	4027580416	67	13121
2026-01-26 05:40:58.64	247.50	5.74	-48.7	-59.8	3.8	8.46e-01	0	39	104	4027580416	67	13170
2026-01-26 05:40:59.64	247.42	5.67	-48.6	-59.8	3.8	8.46e-01	0	39	104	4027580416	67	13120
2026-01-26 05:41:00.64	247.34	5.61	-48.6	-59.8	3.8	8.46e-01	0	39	104	4027580416	67	13142
2026-01-26 05:41:01.64	247.26	5.55	-48.7	-59.8	3.8	8.47e-01	0	39	104	4027580416	67	13144
2026-01-26 05:41:02.64	247.19	5.48	-48.6	-59.8	3.8	8.47e-01	0	39	104	4027580416	67	13143
2026-01-26 05:41:03.64	247.11	5.42	-48.6	-59.8	3.8	8.46e-01	0	39	104	4027580416	67	13183
2026-01-26 05:41:04.63	247.03	5.36	-48.6	-59.8	3.8	8.47e-01	0	39	104	4027580416	67	13116
2026-01-26 05:41:05.64	246.95	5.30	-48.7	-59.8	3.8	8.46e-01	0	39	104	4027580416	67	13230
2026-01-26 05:41:06.63	246.88	5.23	-48.6	-59.8	3.8	8.47e-01	0	39	104	4027580416	67	13216
2026-01-26 05:41:07.63	246.80	5.17	-48.6	-59.8	3.8	8.45e-01	0	39	104	4027580416	67	13114
2026-01-26 05:41:08.63	246.73	5.11	-48.4	-59.7	3.8	8.47e-01	0	39	104	4027580416	67	13056
2026-01-26 05:41:09.63	246.65	5.04	-48.7	-59.7	3.8	8.47e-01	0	39	104	4027580416	67	13022
2026-01-26 05:41:10.62	246.58	4.98	-48.7	-59.7	3.8	8.47e-01	0	39	104	4027580416	67	13057

#Closed at: 2026-01-26 05:41:11
#Recorded file [4027 MB]: D:/Data/31040_260126_082958.dat