passes_logs/2026/01/26/T1/T1__20260126_003946_NOAA_21_JPSS-2_rec.log

#Pass ID: 20260126_003946_NOAA 21 (JPSS-2)
#Satellite: NOAA 21 (JPSS-2)
#Configuration: NOAA 21
#almurnet v.1.7.20251203
#Start time: 2026-01-26 00:39:47

#Version: 2.0.20230620
#Station: T1
#Location: 37.570604 lon 55.790049 lat
#TLE: 1 54234U 22150A   26025.44451686  .00000186  00000+0  10896-3 0  9992
#TLE: 2 54234  98.7509 326.2184 0000763 215.1852 144.9274 14.19539183166293

#Time	Az	El	Level	Level2	SNR	BER	BlckErr	Temp	State	Recorded	gain1	gain2
2026-01-26 00:39:47.50	10.38	5.09	-45.7	-61.0	3.8	1.49e+00	0	36	0	0	61	23014
2026-01-26 00:39:48.49	10.34	5.15	-46.0	-61.0	3.8	1.49e+00	0	37	104	0	62	21550
2026-01-26 00:39:49.48	10.29	5.22	-46.0	-60.9	3.8	1.49e+00	0	37	104	0	62	21459
2026-01-26 00:39:50.48	10.24	5.29	-46.0	-61.0	3.8	1.49e+00	0	37	104	0	62	21565
2026-01-26 00:39:51.47	10.19	5.36	-46.0	-61.0	3.8	1.49e+00	0	37	104	0	62	21508
2026-01-26 00:39:52.46	10.15	5.42	-46.0	-60.9	3.8	1.49e+00	0	37	104	0	62	21501
2026-01-26 00:39:53.46	10.10	5.49	-46.0	-61.0	3.8	1.49e+00	0	37	104	0	62	21527
2026-01-26 00:39:54.45	10.05	5.56	-46.0	-61.0	3.8	1.49e+00	0	37	104	0	62	21524
2026-01-26 00:39:55.44	10.00	5.63	-46.0	-60.9	3.8	1.49e+00	0	37	104	0	62	21477
2026-01-26 00:39:56.44	9.95	5.70	-46.0	-60.9	3.8	1.49e+00	0	37	104	0	62	21503
2026-01-26 00:39:57.43	9.90	5.77	-46.0	-61.0	3.8	1.49e+00	0	37	104	0	62	21528
2026-01-26 00:39:58.42	9.85	5.84	-46.0	-61.0	3.8	1.49e+00	0	37	104	0	62	21572
2026-01-26 00:39:59.42	9.80	5.90	-46.0	-61.0	3.8	1.49e+00	0	37	104	0	62	21526
2026-01-26 00:40:00.41	9.76	5.97	-46.0	-61.0	3.8	1.49e+00	0	37	104	0	62	21510
2026-01-26 00:40:01.40	9.71	6.04	-46.0	-61.0	3.8	1.49e+00	0	37	104	0	62	21602
2026-01-26 00:40:02.40	9.65	6.11	-46.0	-61.0	3.8	1.49e+00	0	37	104	0	62	21569
2026-01-26 00:40:03.39	9.60	6.18	-46.0	-61.0	3.8	1.49e+00	0	37	104	0	62	21584
2026-01-26 00:40:04.38	9.55	6.25	-46.0	-61.0	3.8	1.49e+00	0	37	104	0	62	21540
2026-01-26 00:40:05.37	9.50	6.32	-46.0	-61.0	3.8	1.49e+00	0	37	104	0	62	21571
2026-01-26 00:40:06.37	9.45	6.39	-46.0	-60.9	3.8	1.49e+00	0	37	104	0	62	21431
2026-01-26 00:40:07.36	9.40	6.46	-46.0	-60.9	3.8	1.49e+00	0	37	104	0	62	21389
2026-01-26 00:40:08.35	9.35	6.53	-46.0	-60.8	3.8	1.49e+00	0	37	104	0	62	21189
2026-01-26 00:40:09.35	9.30	6.60	-46.0	-60.7	3.8	1.49e+00	0	37	104	0	62	20864
2026-01-26 00:40:10.34	9.24	6.68	-46.0	-60.5	3.8	1.49e+00	0	37	104	0	62	20413
2026-01-26 00:40:11.33	9.19	6.75	-45.9	-60.2	3.8	1.49e+00	0	37	104	0	62	19811
2026-01-26 00:40:12.33	9.14	6.82	-45.9	-59.9	3.8	1.49e+00	0	37	104	0	62	19080
2026-01-26 00:40:13.32	9.09	6.89	-45.9	-59.5	3.8	1.49e+00	0	37	104	0	62	18297
2026-01-26 00:40:14.31	9.03	6.96	-45.9	-58.8	3.9	1.49e+00	0	37	104	0	62	16794
2026-01-26 00:40:15.30	8.98	7.03	-45.8	-58.3	4.0	1.48e+00	0	37	104	0	62	15883
2026-01-26 00:40:16.30	8.92	7.10	-45.8	-58.5	3.9	1.48e+00	0	37	104	0	62	16272
2026-01-26 00:40:17.29	8.87	7.18	-45.8	-58.4	3.9	1.48e+00	0	37	104	0	62	15957
2026-01-26 00:40:18.28	8.82	7.25	-45.8	-57.9	4.1	1.48e+00	0	37	104	0	62	15186
2026-01-26 00:40:19.28	8.76	7.32	-45.8	-58.1	4.0	1.48e+00	0	37	104	0	62	15498
2026-01-26 00:40:20.27	8.70	7.39	-45.9	-58.5	4.0	1.48e+00	0	37	104	0	62	16215
2026-01-26 00:40:21.26	8.65	7.47	-45.9	-59.0	3.9	1.49e+00	0	37	104	0	62	17113
2026-01-26 00:40:22.26	8.59	7.54	-45.9	-59.7	3.8	1.49e+00	0	37	104	0	62	18716
2026-01-26 00:40:23.25	8.54	7.61	-45.9	-60.2	3.8	1.49e+00	0	37	104	0	62	19689
2026-01-26 00:40:24.24	8.48	7.69	-46.0	-60.6	3.8	1.49e+00	0	37	104	0	62	20628
2026-01-26 00:40:25.24	8.42	7.76	-46.0	-60.8	3.8	1.49e+00	0	37	104	0	62	21236
2026-01-26 00:40:26.23	8.37	7.83	-46.0	-61.0	3.8	1.49e+00	0	37	104	0	62	21538
2026-01-26 00:40:27.22	8.31	7.91	-46.0	-60.7	3.8	1.49e+00	0	38	104	0	62	21017
2026-01-26 00:40:28.21	8.25	7.98	-45.9	-59.9	3.8	1.49e+00	0	37	104	0	62	19158
2026-01-26 00:40:29.21	8.19	8.06	-45.8	-58.4	3.9	1.48e+00	0	37	104	0	62	16053
2026-01-26 00:40:30.20	8.14	8.13	-45.6	-55.8	4.8	1.09e+00	0	38	104	0	62	11838
2026-01-26 00:40:31.19	8.08	8.20	-45.2	-53.6	6.2	4.25e-01	0	38	0	0	62	9213
2026-01-26 00:40:32.19	8.02	8.28	-44.7	-51.5	8.2	9.60e-02	0	38	0	0	61	7656
2026-01-26 00:40:33.18	7.96	8.35	-44.1	-49.7	10.0	1.31e-02	0	38	0	0	60	6584
2026-01-26 00:40:34.17	7.90	8.43	-43.7	-48.3	11.4	1.38e-03	0	37	0	0	59	5934
2026-01-26 00:40:35.17	7.84	8.51	-43.1	-47.1	12.6	1.27e-04	0	38	0	0	58	5508
2026-01-26 00:40:36.16	7.78	8.58	-42.5	-46.2	13.6	2.44e-05	0	38	0	0	57	5219
2026-01-26 00:40:37.15	7.72	8.66	-42.3	-45.7	14.1	3.00e-06	0	38	0	0	56	5246
2026-01-26 00:40:38.15	7.66	8.73	-42.0	-45.3	14.5	3.00e-06	0	37	0	0	56	4996
2026-01-26 00:40:39.14	7.60	8.81	-41.8	-45.0	14.6	0.00e+00	0	38	0	0	55	5117
2026-01-26 00:40:40.13	7.54	8.89	-41.9	-45.2	14.4	7.00e-07	0	38	0	0	55	5240
2026-01-26 00:40:41.12	7.47	8.96	-42.1	-45.6	14.0	1.50e-06	0	38	0	0	55	5481
2026-01-26 00:40:42.12	7.41	9.04	-42.5	-46.2	13.4	1.14e-05	0	38	0	0	55	5911
2026-01-26 00:40:43.11	7.35	9.12	-42.0	-45.3	14.2	0.00e+00	0	38	0	0	55	5337
2026-01-26 00:40:44.11	7.29	9.19	-42.0	-45.2	14.4	0.00e+00	0	38	0	0	54	5582
2026-01-26 00:40:45.10	7.22	9.27	-44.7	-51.5	8.1	5.10e-02	0	38	0	0	60	8139
2026-01-26 00:40:46.10	7.16	9.35	-44.8	-52.1	7.5	4.16e-02	0	38	0	0	60	8709
2026-01-26 00:40:47.09	7.09	9.43	-39.7	-41.9	17.7	0.00e+00	0	38	0	0	51	4522
2026-01-26 00:40:48.09	7.03	9.51	-39.7	-41.9	17.7	0.00e+00	0	38	0	0	51	4509
2026-01-26 00:40:49.08	6.97	9.58	-39.4	-41.6	18.0	0.00e+00	0	37	0	0	50	4604
2026-01-26 00:40:50.08	6.90	9.66	-39.2	-41.3	18.3	0.00e+00	0	38	0	0	50	4457
2026-01-26 00:40:51.07	6.83	9.74	-39.3	-41.4	18.2	0.00e+00	0	38	0	0	50	4502
2026-01-26 00:40:52.07	6.77	9.82	-39.1	-41.1	18.4	0.00e+00	0	38	0	0	50	4388
2026-01-26 00:40:53.14	6.70	9.91	-39.0	-41.0	18.5	0.00e+00	0	38	0	0	50	4314
2026-01-26 00:40:54.03	6.64	9.98	-38.9	-41.0	18.6	0.00e+00	0	38	0	0	49	4548
2026-01-26 00:40:55.16	6.56	10.07	-38.9	-40.9	18.6	0.00e+00	0	37	0	0	49	4524
2026-01-26 00:40:56.09	6.50	10.14	-38.9	-40.9	18.5	0.00e+00	0	38	0	0	49	4543
2026-01-26 00:40:57.26	6.42	10.24	-38.8	-40.8	18.7	0.00e+00	0	38	0	0	49	4482
2026-01-26 00:40:58.12	6.36	10.31	-38.8	-40.8	18.7	0.00e+00	0	38	0	0	49	4486
2026-01-26 00:40:59.25	6.28	10.40	-38.7	-40.7	18.8	0.00e+00	0	38	0	0	49	4430
2026-01-26 00:41:00.11	6.22	10.47	-38.7	-40.7	18.8	0.00e+00	0	38	0	0	49	4419
2026-01-26 00:41:01.24	6.14	10.56	-38.6	-40.6	18.9	0.00e+00	0	38	0	0	49	4381
2026-01-26 00:41:02.10	6.08	10.63	-38.6	-40.6	18.9	0.00e+00	0	38	0	0	49	4382
2026-01-26 00:41:03.23	6.00	10.72	-38.5	-40.5	19.0	0.00e+00	0	38	0	0	49	4339
2026-01-26 00:41:04.09	5.94	10.79	-38.5	-40.5	19.0	0.00e+00	0	38	0	0	49	4301
2026-01-26 00:41:05.23	5.86	10.89	-38.5	-40.5	19.0	0.00e+00	0	38	0	0	49	4335
2026-01-26 00:41:06.08	5.80	10.96	-38.5	-40.5	19.0	0.00e+00	0	38	0	0	49	4313
2026-01-26 00:41:07.22	5.71	11.05	-38.6	-40.5	19.0	0.00e+00	0	38	0	0	49	4334
2026-01-26 00:41:08.07	5.65	11.12	-38.4	-40.4	19.1	0.00e+00	0	38	0	0	48	4530
2026-01-26 00:41:09.21	5.57	11.22	-38.5	-40.4	19.1	0.00e+00	0	38	0	0	48	4538
2026-01-26 00:41:10.06	5.51	11.29	-38.5	-40.5	19.0	0.00e+00	0	38	0	0	48	4563
2026-01-26 00:41:11.20	5.42	11.38	-38.5	-40.4	19.1	0.00e+00	0	38	0	0	48	4526
2026-01-26 00:41:12.05	5.36	11.46	-38.5	-40.4	19.1	0.00e+00	0	38	0	0	48	4527
2026-01-26 00:41:13.18	5.27	11.55	-38.5	-40.4	19.1	0.00e+00	0	38	0	0	48	4539
2026-01-26 00:41:14.13	5.20	11.63	-38.5	-40.4	19.1	0.00e+00	0	38	0	0	48	4533
2026-01-26 00:41:15.13	5.13	11.72	-38.5	-40.4	19.1	0.00e+00	0	38	0	0	48	4511
2026-01-26 00:41:16.12	5.05	11.80	-38.5	-40.5	19.0	0.00e+00	0	38	0	0	48	4562
2026-01-26 00:41:17.11	4.97	11.88	-38.7	-40.6	18.9	0.00e+00	0	38	0	0	48	4635
2026-01-26 00:41:18.11	4.90	11.97	-38.5	-40.4	19.1	0.00e+00	0	38	0	0	48	4509
2026-01-26 00:41:19.11	4.82	12.06	-38.5	-40.4	19.1	0.00e+00	0	38	0	0	48	4534
2026-01-26 00:41:20.45	4.71	12.17	-38.6	-40.5	19.0	0.00e+00	0	38	0	0	48	4587
2026-01-26 00:41:21.19	4.66	12.23	-38.5	-40.4	19.1	0.00e+00	0	38	0	0	48	4518
2026-01-26 00:41:22.47	4.55	12.35	-38.5	-40.4	19.1	0.00e+00	0	38	0	0	48	4514
2026-01-26 00:41:23.18	4.50	12.41	-38.6	-40.5	19.1	0.00e+00	0	38	0	0	48	4553
2026-01-26 00:41:24.46	4.39	12.52	-38.6	-40.5	19.1	0.00e+00	0	38	0	0	48	4557
2026-01-26 00:41:25.18	4.34	12.58	-38.4	-40.3	19.2	0.00e+00	0	38	0	0	48	4470
2026-01-26 00:41:26.46	4.23	12.69	-38.4	-40.3	19.2	0.00e+00	0	38	0	0	48	4456
2026-01-26 00:41:27.17	4.17	12.76	-38.4	-40.3	19.2	0.00e+00	0	38	0	0	48	4488
2026-01-26 00:41:28.47	4.07	12.87	-38.4	-40.2	19.2	0.00e+00	0	38	0	0	48	4439
2026-01-26 00:41:29.18	4.01	12.93	-38.4	-40.3	19.2	0.00e+00	0	38	0	0	48	4444
2026-01-26 00:41:30.52	3.90	13.05	-38.4	-40.2	19.2	0.00e+00	0	38	0	0	48	4438
2026-01-26 00:41:31.23	3.84	13.11	-38.4	-40.3	19.1	0.00e+00	0	38	0	0	48	4490
2026-01-26 00:41:32.51	3.73	13.23	-38.5	-40.4	19.0	0.00e+00	0	38	0	0	48	4536
2026-01-26 00:41:33.24	3.67	13.29	-38.6	-40.5	19.0	0.00e+00	0	38	0	0	48	4567
2026-01-26 00:41:34.52	3.56	13.41	-38.4	-40.3	19.1	0.00e+00	0	38	0	0	48	4483
2026-01-26 00:41:35.24	3.49	13.47	-38.5	-40.4	19.1	0.00e+00	0	38	0	0	48	4511
2026-01-26 00:41:36.52	3.38	13.59	-38.4	-40.3	19.2	0.00e+00	0	38	0	0	48	4468
2026-01-26 00:41:37.23	3.32	13.65	-38.4	-40.3	19.2	0.00e+00	0	38	0	0	48	4479
2026-01-26 00:41:38.51	3.21	13.77	-38.4	-40.3	19.3	0.00e+00	0	38	0	0	48	4456
2026-01-26 00:41:39.22	3.15	13.83	-38.4	-40.4	19.2	0.00e+00	0	38	0	0	48	4509
2026-01-26 00:41:40.50	3.03	13.95	-38.4	-40.3	19.3	0.00e+00	0	38	0	0	48	4464
2026-01-26 00:41:41.21	2.97	14.02	-38.4	-40.4	19.2	0.00e+00	0	38	0	0	48	4502
2026-01-26 00:41:42.84	2.82	14.16	-38.3	-40.3	19.3	0.00e+00	0	38	0	0	48	4447
2026-01-26 00:41:43.41	2.77	14.22	-38.3	-40.3	19.3	0.00e+00	0	38	0	0	48	4449
2026-01-26 00:41:45.11	2.61	14.37	-38.3	-40.2	19.4	0.00e+00	0	38	0	0	48	4428
2026-01-26 00:41:45.73	2.56	14.43	-38.3	-40.2	19.4	0.00e+00	0	38	0	0	48	4428
2026-01-26 00:41:47.29	2.41	14.58	-38.2	-40.1	19.5	0.00e+00	0	38	0	0	48	4372
2026-01-26 00:41:47.94	2.35	14.64	-38.3	-40.2	19.4	0.00e+00	0	38	0	0	48	4418
2026-01-26 00:41:49.36	2.22	14.77	-38.2	-40.1	19.5	0.00e+00	0	38	0	0	48	4376
2026-01-26 00:41:50.07	2.15	14.84	-38.2	-40.1	19.5	0.00e+00	0	38	0	0	48	4357
2026-01-26 00:41:51.35	2.03	14.96	-38.2	-40.1	19.5	0.00e+00	0	38	0	0	48	4366
2026-01-26 00:41:52.06	1.96	15.03	-38.2	-40.1	19.5	0.00e+00	0	38	0	0	48	4367
2026-01-26 00:41:53.64	1.81	15.18	-38.1	-40.1	19.5	0.00e+00	0	38	0	0	48	4353
2026-01-26 00:41:54.27	1.75	15.24	-38.1	-40.0	19.5	0.00e+00	0	38	0	0	48	4339
2026-01-26 00:41:55.96	1.58	15.40	-38.1	-40.1	19.5	0.00e+00	0	38	0	0	48	4351
2026-01-26 00:41:56.53	1.52	15.45	-38.2	-40.1	19.5	0.00e+00	0	38	0	0	48	4374
2026-01-26 00:41:58.24	1.35	15.62	-38.2	-40.2	19.4	0.00e+00	0	38	0	0	48	4416
2026-01-26 00:41:58.80	1.30	15.67	-38.3	-40.2	19.3	0.00e+00	0	38	0	0	48	4435
2026-01-26 00:42:00.51	1.12	15.84	-38.3	-40.2	19.4	0.00e+00	0	38	0	0	48	4416
2026-01-26 00:42:01.08	1.07	15.89	-38.3	-40.2	19.4	0.00e+00	0	38	0	0	48	4414
2026-01-26 00:42:02.88	0.88	16.07	-38.3	-40.2	19.3	0.00e+00	0	38	0	0	48	4441
2026-01-26 00:42:03.45	0.82	16.12	-38.3	-40.3	19.3	0.00e+00	0	38	0	0	48	4454
2026-01-26 00:42:05.15	0.64	16.29	-38.4	-40.3	19.3	0.00e+00	0	38	0	0	48	4481
2026-01-26 00:42:05.72	0.58	16.34	-38.4	-40.4	19.2	0.00e+00	0	38	0	0	48	4514
2026-01-26 00:42:07.43	0.40	16.51	-38.4	-40.3	19.3	0.00e+00	0	38	0	0	48	4489
2026-01-26 00:42:08.00	0.34	16.57	-38.6	-40.5	19.2	0.00e+00	0	38	0	0	48	4570
2026-01-26 00:42:09.70	0.16	16.74	-38.5	-40.3	19.3	0.00e+00	0	38	0	0	48	4483
2026-01-26 00:42:10.50	0.07	16.82	-38.4	-40.3	19.4	0.00e+00	0	38	0	0	48	4473
2026-01-26 00:42:11.64	359.95	16.93	-38.4	-40.3	19.4	0.00e+00	0	38	0	0	48	4471
2026-01-26 00:42:12.84	359.81	17.05	-38.4	-40.2	19.4	0.00e+00	0	38	0	0	48	4429
2026-01-26 00:42:13.69	359.72	17.14	-38.5	-40.3	19.4	0.00e+00	0	38	0	0	48	4483
2026-01-26 00:42:14.83	359.59	17.26	-38.5	-40.4	19.3	0.00e+00	0	38	0	0	48	4514
2026-01-26 00:42:15.69	359.49	17.34	-38.6	-40.5	19.2	0.00e+00	0	38	0	0	48	4549
2026-01-26 00:42:16.83	359.37	17.46	-38.5	-40.3	19.3	0.00e+00	0	38	0	0	48	4488
2026-01-26 00:42:17.68	359.27	17.55	-38.6	-40.4	19.2	0.00e+00	0	38	0	0	48	4534
2026-01-26 00:42:18.81	359.14	17.66	-38.5	-40.4	19.2	0.00e+00	0	38	0	0	48	4528
2026-01-26 00:42:19.67	359.04	17.75	-38.4	-40.3	19.4	0.00e+00	0	38	0	0	48	4457
2026-01-26 00:42:20.90	358.90	17.88	-38.5	-40.3	19.3	0.00e+00	0	38	0	0	48	4481
2026-01-26 00:42:21.75	358.80	17.96	-38.5	-40.4	19.2	0.00e+00	0	38	0	0	48	4528
2026-01-26 00:42:22.89	358.66	18.08	-38.5	-40.4	19.2	0.00e+00	0	38	0	0	48	4520
2026-01-26 00:42:23.74	358.56	18.17	-38.5	-40.4	19.3	0.00e+00	0	38	0	0	48	4517
2026-01-26 00:42:24.87	358.42	18.29	-38.5	-40.5	19.2	0.00e+00	0	38	0	0	48	4548
2026-01-26 00:42:25.79	358.31	18.38	-38.4	-40.3	19.4	0.00e+00	0	38	0	0	48	4489
2026-01-26 00:42:26.96	358.17	18.51	-38.5	-40.4	19.4	0.00e+00	0	38	0	0	48	4500
2026-01-26 00:42:27.81	358.07	18.60	-38.4	-40.3	19.4	0.00e+00	0	38	0	0	48	4479
2026-01-26 00:42:28.95	357.93	18.72	-38.3	-40.2	19.5	0.00e+00	0	38	0	0	48	4413
2026-01-26 00:42:29.80	357.82	18.81	-38.3	-40.2	19.5	0.00e+00	0	38	0	0	48	4417
2026-01-26 00:42:30.94	357.68	18.93	-38.3	-40.1	19.6	0.00e+00	0	38	0	0	48	4361
2026-01-26 00:42:31.79	357.57	19.02	-38.3	-40.1	19.6	0.00e+00	0	38	0	0	48	4372
2026-01-26 00:42:32.93	357.42	19.14	-38.2	-39.9	19.7	0.00e+00	0	38	0	0	48	4280
2026-01-26 00:42:33.78	357.32	19.23	-38.1	-39.8	19.8	0.00e+00	0	38	0	0	48	4227
2026-01-26 00:42:34.91	357.17	19.35	-38.0	-39.7	19.9	0.00e+00	0	38	0	0	48	4192
2026-01-26 00:42:35.77	357.06	19.44	-38.0	-39.8	19.7	0.00e+00	0	38	0	0	48	4207
2026-01-26 00:42:36.90	356.91	19.57	-38.1	-39.8	19.8	0.00e+00	0	38	0	0	48	4241
2026-01-26 00:42:37.75	356.80	19.66	-38.2	-39.9	19.7	0.00e+00	0	38	0	0	48	4274
2026-01-26 00:42:38.89	356.65	19.78	-38.2	-39.9	19.7	0.00e+00	0	38	0	0	48	4282
2026-01-26 00:42:39.74	356.53	19.88	-38.2	-40.0	19.7	0.00e+00	0	38	0	0	48	4293
2026-01-26 00:42:41.10	356.35	20.02	-38.1	-39.8	19.8	0.00e+00	0	38	0	0	48	4239
2026-01-26 00:42:41.81	356.25	20.10	-38.0	-39.7	19.9	0.00e+00	0	38	0	0	48	4186
2026-01-26 00:42:43.28	356.05	20.26	-38.0	-39.7	19.8	0.00e+00	0	38	0	0	47	4422
2026-01-26 00:42:43.99	355.96	20.34	-37.8	-39.6	20.0	0.00e+00	0	38	0	0	47	4349
2026-01-26 00:42:45.27	355.78	20.48	-37.6	-39.3	20.2	0.00e+00	0	38	0	0	47	4227
2026-01-26 00:42:45.98	355.68	20.56	-37.6	-39.3	20.3	0.00e+00	0	38	0	0	47	4216
2026-01-26 00:42:47.26	355.50	20.70	-37.5	-39.2	20.2	0.00e+00	0	38	0	0	47	4179
2026-01-26 00:42:47.97	355.40	20.78	-37.5	-39.2	20.4	0.00e+00	0	38	0	0	47	4173
2026-01-26 00:42:49.25	355.21	20.93	-37.5	-39.2	20.3	0.00e+00	0	38	0	0	47	4177
2026-01-26 00:42:49.97	355.11	21.01	-37.4	-39.0	20.4	0.00e+00	0	38	0	0	46	4329
2026-01-26 00:42:51.25	354.92	21.15	-37.3	-39.0	20.4	0.00e+00	0	38	0	0	46	4302
2026-01-26 00:42:52.01	354.81	21.24	-37.2	-38.9	20.5	0.00e+00	0	38	0	0	46	4247
2026-01-26 00:42:53.29	354.62	21.38	-37.2	-38.9	20.5	0.00e+00	0	38	0	0	46	4255
2026-01-26 00:42:54.00	354.52	21.46	-37.3	-38.9	20.4	0.00e+00	0	38	0	0	46	4287
2026-01-26 00:42:55.28	354.33	21.61	-37.3	-39.0	20.4	0.00e+00	0	38	0	0	46	4298
2026-01-26 00:42:56.16	354.19	21.71	-37.4	-39.1	20.3	0.00e+00	0	38	0	0	46	4354
2026-01-26 00:42:57.60	353.97	21.87	-37.3	-39.0	20.4	0.00e+00	0	38	0	0	46	4306
2026-01-26 00:42:58.31	353.87	21.95	-37.2	-38.9	20.5	0.00e+00	0	38	0	0	46	4279
2026-01-26 00:42:59.59	353.67	22.10	-37.0	-38.7	20.7	0.00e+00	0	38	0	0	46	4173
2026-01-26 00:43:00.30	353.56	22.18	-37.0	-38.6	20.8	0.00e+00	0	38	0	0	46	4137
2026-01-26 00:43:01.61	353.35	22.33	-36.9	-38.6	20.8	0.00e+00	0	38	0	0	45	4341
2026-01-26 00:43:02.32	353.24	22.41	-36.8	-38.5	20.9	0.00e+00	0	38	0	0	45	4302
2026-01-26 00:43:03.60	353.04	22.56	-36.8	-38.5	20.9	0.00e+00	0	38	0	0	45	4304
2026-01-26 00:43:04.31	352.92	22.65	-36.9	-38.5	20.8	0.00e+00	0	38	0	0	45	4330
2026-01-26 00:43:05.59	352.71	22.80	-36.8	-38.5	20.9	0.00e+00	0	38	0	0	45	4302
2026-01-26 00:43:06.50	352.57	22.90	-37.0	-38.7	20.7	0.00e+00	0	38	0	0	45	4396
2026-01-26 00:43:07.50	352.40	23.02	-36.9	-38.5	20.8	0.00e+00	0	38	0	0	45	4322
2026-01-26 00:43:08.49	352.24	23.14	-36.9	-38.5	20.8	0.00e+00	0	38	0	0	45	4330
2026-01-26 00:43:09.49	352.07	23.25	-36.9	-38.5	20.8	0.00e+00	0	38	0	0	45	4336
2026-01-26 00:43:10.48	351.90	23.37	-36.8	-38.5	20.8	0.00e+00	0	38	0	0	45	4319
2026-01-26 00:43:11.48	351.73	23.49	-36.8	-38.5	20.8	0.00e+00	0	38	0	0	45	4335
2026-01-26 00:43:12.47	351.57	23.61	-36.8	-38.5	20.8	0.00e+00	0	38	0	0	45	4335
2026-01-26 00:43:13.46	351.39	23.72	-36.9	-38.6	20.7	0.00e+00	0	38	0	0	45	4380
2026-01-26 00:43:14.46	351.22	23.84	-37.0	-38.8	20.7	0.00e+00	0	38	0	0	45	4442
2026-01-26 00:43:15.45	351.05	23.96	-36.9	-38.6	20.7	0.00e+00	0	38	0	0	45	4374
2026-01-26 00:43:16.45	350.87	24.08	-37.0	-38.8	20.7	0.00e+00	0	38	0	0	45	4449
2026-01-26 00:43:17.44	350.70	24.20	-37.1	-38.8	20.6	0.00e+00	0	38	0	0	45	4469
2026-01-26 00:43:18.53	350.50	24.33	-37.1	-38.8	20.6	0.00e+00	0	38	0	0	45	4488
2026-01-26 00:43:19.40	350.34	24.43	-37.2	-38.9	20.5	0.00e+00	0	38	0	0	45	4530
2026-01-26 00:43:20.70	350.11	24.59	-37.3	-39.0	20.4	0.00e+00	0	38	0	0	45	4595
2026-01-26 00:43:21.40	349.98	24.68	-37.4	-39.1	20.4	0.00e+00	0	38	0	0	45	4624
2026-01-26 00:43:22.70	349.74	24.83	-37.6	-39.3	20.2	0.00e+00	0	38	0	0	45	4745
2026-01-26 00:43:23.41	349.61	24.92	-37.6	-39.3	20.1	0.00e+00	0	38	0	0	45	4753
2026-01-26 00:43:24.71	349.36	25.08	-37.8	-39.5	20.0	0.00e+00	0	38	0	0	46	4585
2026-01-26 00:43:25.41	349.23	25.16	-37.8	-39.6	20.0	0.00e+00	0	38	0	0	46	4627
2026-01-26 00:43:26.70	348.99	25.32	-37.9	-39.7	20.0	0.00e+00	0	38	0	0	46	4653
2026-01-26 00:43:27.50	348.83	25.42	-38.0	-39.8	19.8	0.00e+00	0	38	0	0	46	4746
2026-01-26 00:43:28.64	348.61	25.56	-37.9	-39.8	19.9	0.00e+00	0	38	0	0	46	4706
2026-01-26 00:43:29.49	348.44	25.66	-38.0	-39.8	19.9	0.00e+00	0	38	0	0	46	4710
2026-01-26 00:43:30.63	348.22	25.80	-37.9	-39.7	19.9	0.00e+00	0	38	0	0	46	4692
2026-01-26 00:43:31.72	348.00	25.93	-38.0	-39.8	19.9	0.00e+00	0	38	0	0	46	4707
2026-01-26 00:43:32.57	347.83	26.04	-38.1	-39.9	19.7	0.00e+00	0	38	0	0	46	4766
2026-01-26 00:43:33.70	347.61	26.18	-38.1	-39.9	19.6	0.00e+00	0	38	0	0	46	4782
2026-01-26 00:43:34.81	347.38	26.32	-38.2	-40.0	19.5	0.00e+00	0	38	0	0	47	4575
2026-01-26 00:43:35.84	347.17	26.44	-38.3	-40.1	19.4	0.00e+00	0	38	0	0	47	4651
2026-01-26 00:43:36.83	346.97	26.57	-38.5	-40.3	19.2	0.00e+00	0	38	0	0	47	4743
2026-01-26 00:43:37.83	346.76	26.69	-38.5	-40.3	19.3	0.00e+00	0	38	0	0	47	4749
2026-01-26 00:43:38.82	346.55	26.81	-38.5	-40.4	19.3	0.00e+00	0	38	0	0	47	4790
2026-01-26 00:43:39.81	346.34	26.93	-38.4	-40.3	19.4	0.00e+00	0	38	0	0	47	4728
2026-01-26 00:43:40.81	346.13	27.06	-38.2	-40.0	19.6	0.00e+00	0	38	0	0	47	4583
2026-01-26 00:43:41.81	345.91	27.18	-38.2	-40.0	19.7	0.00e+00	0	38	0	0	47	4595
2026-01-26 00:43:42.80	345.70	27.31	-38.1	-39.9	19.7	0.00e+00	0	38	0	0	47	4506
2026-01-26 00:43:43.79	345.48	27.43	-38.1	-39.9	19.7	0.00e+00	0	38	0	0	47	4509
2026-01-26 00:43:44.79	345.26	27.56	-37.9	-39.7	19.7	0.00e+00	0	38	0	0	47	4414
2026-01-26 00:43:45.78	345.04	27.68	-38.0	-39.8	19.7	0.00e+00	0	38	0	0	47	4451
2026-01-26 00:43:46.78	344.82	27.80	-38.2	-39.9	19.6	0.00e+00	0	38	0	0	47	4521
2026-01-26 00:43:47.77	344.59	27.93	-38.1	-39.9	19.6	0.00e+00	0	38	0	0	47	4504
2026-01-26 00:43:48.85	344.35	28.06	-38.2	-40.0	19.6	0.00e+00	0	38	0	0	47	4556
2026-01-26 00:43:49.73	344.15	28.17	-38.1	-39.9	19.7	0.00e+00	0	38	0	0	47	4536
2026-01-26 00:43:50.87	343.88	28.32	-38.0	-39.8	19.8	0.00e+00	0	38	0	0	47	4490
2026-01-26 00:43:51.72	343.69	28.42	-38.0	-39.9	19.8	0.00e+00	0	38	0	0	47	4496
2026-01-26 00:43:52.86	343.42	28.57	-37.9	-39.7	19.9	0.00e+00	0	38	0	0	47	4397
2026-01-26 00:43:53.71	343.22	28.67	-37.8	-39.6	19.9	0.00e+00	0	38	0	0	47	4374
2026-01-26 00:43:54.85	342.95	28.82	-38.0	-39.8	19.7	0.00e+00	0	38	0	0	47	4463
2026-01-26 00:43:55.70	342.74	28.92	-38.0	-39.9	19.6	0.00e+00	0	38	0	0	47	4496
2026-01-26 00:43:56.84	342.47	29.06	-38.2	-40.0	19.5	0.00e+00	0	38	0	0	47	4577
2026-01-26 00:43:57.69	342.26	29.17	-38.2	-39.9	19.6	0.00e+00	0	38	0	0	47	4526
2026-01-26 00:43:58.83	341.98	29.31	-38.1	-39.8	19.7	0.00e+00	0	38	0	0	47	4468
2026-01-26 00:43:59.68	341.77	29.42	-38.1	-39.8	19.7	0.00e+00	0	38	0	0	47	4488
2026-01-26 00:44:00.82	341.48	29.56	-37.9	-39.6	19.9	0.00e+00	0	38	0	0	47	4378
2026-01-26 00:44:01.67	341.27	29.67	-37.9	-39.7	19.9	0.00e+00	0	38	0	0	47	4393
2026-01-26 00:44:02.90	340.96	29.82	-37.9	-39.7	19.9	0.00e+00	0	38	0	0	47	4392
2026-01-26 00:44:03.75	340.74	29.93	-37.9	-39.6	19.9	0.00e+00	0	38	0	0	47	4389
2026-01-26 00:44:04.89	340.44	30.07	-37.8	-39.6	20.0	0.00e+00	0	38	0	0	47	4353
2026-01-26 00:44:05.74	340.22	30.18	-37.9	-39.6	19.9	0.00e+00	0	38	0	0	47	4371
2026-01-26 00:44:06.88	339.92	30.32	-38.0	-39.8	19.8	0.00e+00	0	38	0	0	47	4458
2026-01-26 00:44:07.73	339.70	30.43	-37.9	-39.7	19.8	0.00e+00	0	38	0	0	47	4412
2026-01-26 00:44:09.08	339.34	30.59	-37.9	-39.7	19.9	0.00e+00	0	38	0	0	47	4396
2026-01-26 00:44:09.79	339.15	30.68	-38.0	-39.8	19.8	0.00e+00	0	38	0	0	47	4475
2026-01-26 00:44:11.07	338.80	30.84	-38.0	-39.8	19.7	0.00e+00	0	38	0	0	47	4479
2026-01-26 00:44:11.81	338.60	30.93	-38.0	-39.9	19.7	0.00e+00	0	38	0	0	47	4531
2026-01-26 00:44:13.09	338.25	31.09	-37.9	-39.8	19.8	0.00e+00	0	38	0	0	47	4458
2026-01-26 00:44:13.80	338.05	31.18	-37.9	-39.8	19.8	0.00e+00	0	38	0	0	47	4455
2026-01-26 00:44:15.08	337.70	31.34	-38.0	-39.9	19.8	0.00e+00	0	38	0	0	47	4515
2026-01-26 00:44:15.80	337.49	31.42	-38.1	-39.9	19.8	0.00e+00	0	38	0	0	47	4525
2026-01-26 00:44:17.07	337.13	31.58	-38.0	-39.8	19.8	0.00e+00	0	38	0	0	47	4461
2026-01-26 00:44:17.90	336.90	31.68	-38.1	-39.9	19.8	0.00e+00	0	38	0	0	47	4498
2026-01-26 00:44:19.03	336.57	31.82	-38.1	-39.9	19.7	0.00e+00	0	38	0	0	47	4512
2026-01-26 00:44:19.89	336.32	31.92	-38.2	-40.0	19.6	0.00e+00	0	38	0	0	47	4563
2026-01-26 00:44:21.03	335.99	32.06	-38.4	-40.2	19.4	0.00e+00	0	38	0	0	47	4684
2026-01-26 00:44:21.88	335.74	32.17	-38.4	-40.2	19.4	0.00e+00	0	38	0	0	47	4666
2026-01-26 00:44:23.02	335.40	32.30	-38.5	-40.3	19.3	0.00e+00	0	38	0	0	47	4715
2026-01-26 00:44:23.87	335.15	32.40	-38.5	-40.4	19.2	0.00e+00	0	38	0	0	47	4762
2026-01-26 00:44:25.01	334.80	32.54	-38.8	-40.6	19.1	0.00e+00	0	38	0	0	48	4631
2026-01-26 00:44:25.86	334.55	32.64	-38.7	-40.6	19.1	0.00e+00	0	38	0	0	48	4650
2026-01-26 00:44:27.08	334.17	32.79	-38.8	-40.8	19.1	0.00e+00	0	38	0	0	48	4714
2026-01-26 00:44:27.93	333.91	32.89	-38.6	-40.5	19.3	0.00e+00	0	38	0	0	48	4592
2026-01-26 00:44:29.10	333.55	33.03	-38.6	-40.5	19.3	0.00e+00	0	38	0	0	48	4592
2026-01-26 00:44:29.95	333.28	33.13	-38.6	-40.6	19.4	0.00e+00	0	38	0	0	48	4604
2026-01-26 00:44:31.09	332.92	33.26	-38.6	-40.4	19.4	0.00e+00	0	38	0	0	48	4545
2026-01-26 00:44:32.43	332.50	33.42	-38.7	-40.6	19.3	0.00e+00	0	38	0	0	48	4600
2026-01-26 00:44:33.14	332.27	33.50	-38.8	-40.6	19.3	0.00e+00	0	38	0	0	48	4635
2026-01-26 00:44:34.42	331.86	33.64	-38.9	-40.7	19.1	0.00e+00	0	38	0	0	48	4674
2026-01-26 00:44:35.13	331.63	33.73	-38.8	-40.6	19.3	0.00e+00	0	38	0	0	48	4615
2026-01-26 00:44:36.41	331.21	33.87	-38.9	-40.7	19.1	0.00e+00	0	38	0	0	48	4686
2026-01-26 00:44:37.13	330.97	33.95	-38.8	-40.6	19.3	0.00e+00	0	38	0	0	48	4608
2026-01-26 00:44:38.41	330.55	34.10	-38.7	-40.4	19.4	0.00e+00	0	38	0	0	48	4543
2026-01-26 00:44:39.14	330.30	34.18	-38.6	-40.4	19.4	0.00e+00	0	38	0	0	48	4506
2026-01-26 00:44:40.54	329.83	34.33	-38.8	-40.6	19.1	0.00e+00	0	38	0	0	48	4646
2026-01-26 00:44:41.25	329.59	34.41	-38.9	-40.7	19.1	0.00e+00	0	38	0	0	48	4667
2026-01-26 00:44:42.53	329.16	34.55	-39.0	-40.8	19.0	0.00e+00	0	38	0	0	48	4759
2026-01-26 00:44:43.26	328.91	34.63	-38.9	-40.7	19.1	0.00e+00	0	38	0	0	48	4688
2026-01-26 00:44:44.54	328.46	34.77	-38.9	-40.7	19.1	0.00e+00	0	38	0	0	48	4682
2026-01-26 00:44:45.25	328.22	34.85	-39.0	-40.8	19.0	0.00e+00	0	38	0	0	48	4751
2026-01-26 00:44:46.53	327.77	34.98	-38.9	-40.7	19.1	0.00e+00	0	38	0	0	48	4677
2026-01-26 00:44:47.24	327.52	35.06	-38.9	-40.8	19.0	0.00e+00	0	38	0	0	48	4728
2026-01-26 00:44:48.52	327.06	35.19	-39.0	-40.9	18.9	0.00e+00	0	38	0	0	48	4800
2026-01-26 00:44:49.24	326.81	35.27	-39.0	-40.9	18.9	0.00e+00	0	38	0	0	48	4780
2026-01-26 00:44:50.52	326.35	35.40	-39.1	-40.9	18.9	0.00e+00	0	38	0	0	48	4805
2026-01-26 00:44:51.24	326.09	35.47	-39.2	-41.1	18.8	0.00e+00	0	38	0	0	48	4879
2026-01-26 00:44:52.52	325.62	35.60	-39.1	-40.9	18.9	0.00e+00	0	38	0	0	49	4514
2026-01-26 00:44:53.25	325.35	35.67	-39.2	-41.0	18.8	0.00e+00	0	38	0	0	49	4582
2026-01-26 00:44:54.53	324.88	35.80	-39.2	-41.1	18.8	0.00e+00	0	38	0	0	49	4608
2026-01-26 00:44:55.25	324.61	35.87	-39.1	-40.9	18.9	0.00e+00	0	38	0	0	49	4537
2026-01-26 00:44:56.53	324.14	35.99	-38.7	-40.5	19.4	0.00e+00	0	38	0	0	49	4304
2026-01-26 00:44:57.24	323.87	36.06	-38.5	-40.4	19.5	0.00e+00	0	38	0	0	49	4249
2026-01-26 00:44:58.52	323.39	36.18	-38.5	-40.4	19.4	0.00e+00	0	38	0	0	49	4249
2026-01-26 00:44:59.25	323.11	36.25	-38.5	-40.4	19.5	0.00e+00	0	38	0	0	48	4503
2026-01-26 00:45:00.52	322.62	36.37	-38.7	-40.6	19.3	0.00e+00	0	38	0	0	48	4610
2026-01-26 00:45:01.26	322.34	36.43	-38.8	-40.7	19.1	0.00e+00	0	38	0	0	48	4693
2026-01-26 00:45:02.65	321.80	36.56	-38.8	-40.7	19.1	0.00e+00	0	38	0	0	48	4689
2026-01-26 00:45:03.36	321.53	36.62	-38.8	-40.6	19.2	0.00e+00	0	38	0	0	48	4641
2026-01-26 00:45:04.64	321.03	36.73	-38.8	-40.6	19.2	0.00e+00	0	38	0	0	48	4621
2026-01-26 00:45:05.68	320.62	36.82	-38.8	-40.5	19.3	0.00e+00	0	38	0	0	48	4597
2026-01-26 00:45:06.99	320.10	36.93	-39.2	-41.0	18.8	0.00e+00	0	38	0	0	48	4851
2026-01-26 00:45:07.70	319.82	36.99	-39.2	-41.1	18.8	0.00e+00	0	38	0	0	49	4609
2026-01-26 00:45:08.98	319.31	37.09	-39.0	-40.8	19.0	0.00e+00	0	38	0	0	49	4469
2026-01-26 00:45:09.69	319.02	37.15	-39.0	-40.8	19.0	0.00e+00	0	38	0	0	49	4489
2026-01-26 00:45:10.97	318.50	37.25	-39.0	-40.8	19.0	0.00e+00	0	38	0	0	49	4444
2026-01-26 00:45:11.69	318.21	37.30	-39.1	-40.9	18.9	0.00e+00	0	38	0	0	49	4510
2026-01-26 00:45:12.96	317.69	37.40	-39.4	-41.3	18.6	0.00e+00	0	38	0	0	49	4727
2026-01-26 00:45:13.67	317.40	37.45	-39.8	-41.7	18.2	0.00e+00	0	38	0	0	50	4677
2026-01-26 00:45:14.95	316.88	37.54	-40.1	-42.1	17.9	0.00e+00	0	38	0	0	50	4877
2026-01-26 00:45:15.68	316.58	37.60	-40.2	-42.2	17.8	0.00e+00	0	38	0	0	51	4662
2026-01-26 00:45:16.96	316.05	37.68	-40.2	-42.2	17.8	0.00e+00	0	38	0	0	51	4674
2026-01-26 00:45:17.68	315.75	37.73	-40.3	-42.3	17.6	0.00e+00	0	38	0	0	51	4733
2026-01-26 00:45:18.96	315.21	37.82	-40.3	-42.4	17.5	0.00e+00	0	38	0	0	51	4790
2026-01-26 00:45:19.67	314.91	37.86	-40.4	-42.4	17.6	0.00e+00	0	38	0	0	51	4807
2026-01-26 00:45:21.23	314.25	37.96	-40.4	-42.5	17.6	0.00e+00	0	38	0	0	51	4827
2026-01-26 00:45:21.94	313.95	38.00	-40.2	-42.1	17.9	0.00e+00	0	38	0	0	51	4644
2026-01-26 00:45:23.22	313.41	38.08	-40.1	-42.1	18.0	0.00e+00	0	38	0	0	51	4605
2026-01-26 00:45:23.95	313.10	38.12	-40.2	-42.2	17.8	0.00e+00	0	38	0	0	51	4668
2026-01-26 00:45:25.23	312.55	38.19	-40.3	-42.3	17.7	0.00e+00	0	38	0	0	51	4741
2026-01-26 00:45:25.94	312.24	38.23	-40.3	-42.2	17.8	0.00e+00	0	38	0	0	51	4702
2026-01-26 00:45:27.23	311.69	38.30	-40.2	-42.2	17.8	0.00e+00	0	38	0	0	51	4686
2026-01-26 00:45:27.94	311.38	38.33	-40.2	-42.1	17.9	0.00e+00	0	38	0	0	51	4638
2026-01-26 00:45:29.22	310.82	38.40	-39.9	-41.8	18.2	0.00e+00	0	38	0	0	51	4476
2026-01-26 00:45:29.95	310.51	38.43	-39.7	-41.6	18.4	0.00e+00	0	38	0	0	51	4383
2026-01-26 00:45:31.23	309.95	38.49	-39.5	-41.4	18.6	0.00e+00	0	38	0	0	51	4273
2026-01-26 00:45:31.95	309.63	38.52	-39.4	-41.3	18.7	0.00e+00	0	38	0	0	50	4460
2026-01-26 00:45:33.23	309.07	38.57	-39.5	-41.4	18.6	0.00e+00	0	38	0	0	50	4512
2026-01-26 00:45:34.00	308.73	38.60	-39.5	-41.4	18.5	0.00e+00	0	38	0	0	50	4545
2026-01-26 00:45:35.28	308.17	38.65	-39.7	-41.6	18.4	0.00e+00	0	38	0	0	50	4638
2026-01-26 00:45:35.99	307.85	38.68	-39.7	-41.6	18.4	0.00e+00	0	38	0	0	50	4643
2026-01-26 00:45:37.27	307.29	38.72	-39.5	-41.4	18.6	0.00e+00	0	38	0	0	50	4526
2026-01-26 00:45:38.00	306.96	38.74	-39.5	-41.4	18.7	0.00e+00	0	38	0	0	50	4498
2026-01-26 00:45:39.28	306.39	38.78	-39.2	-41.0	18.9	0.00e+00	0	38	0	0	50	4328
2026-01-26 00:45:40.22	305.97	38.81	-39.2	-41.0	19.0	0.00e+00	0	38	0	0	50	4307
2026-01-26 00:45:41.22	305.53	38.83	-39.3	-41.1	18.8	0.00e+00	0	38	0	0	50	4382
2026-01-26 00:45:42.21	305.09	38.85	-39.6	-41.5	18.6	0.00e+00	0	38	0	0	50	4546
2026-01-26 00:45:43.20	304.64	38.88	-39.6	-41.5	18.5	0.00e+00	0	38	0	0	50	4569
2026-01-26 00:45:44.20	304.19	38.90	-39.7	-41.6	18.3	0.00e+00	0	38	0	0	50	4632
2026-01-26 00:45:45.19	303.75	38.91	-39.9	-41.8	18.1	0.00e+00	0	38	0	0	50	4751
2026-01-26 00:45:46.19	303.30	38.93	-40.0	-41.9	18.1	0.00e+00	0	38	0	0	50	4781
2026-01-26 00:45:47.18	302.86	38.94	-40.0	-41.9	18.1	0.00e+00	0	38	0	0	50	4792
2026-01-26 00:45:48.18	302.41	38.95	-39.9	-41.9	18.1	0.00e+00	0	38	0	0	50	4771
2026-01-26 00:45:49.23	301.93	38.96	-39.7	-41.6	18.3	0.00e+00	0	38	0	0	50	4628
2026-01-26 00:45:50.15	301.52	38.97	-39.6	-41.4	18.5	0.00e+00	0	38	0	0	50	4543
2026-01-26 00:45:51.15	301.07	38.98	-39.7	-41.6	18.4	0.00e+00	0	38	0	0	50	4628
2026-01-26 00:45:52.31	300.54	38.98	-39.9	-41.8	18.2	0.00e+00	0	38	0	0	50	4716
2026-01-26 00:45:53.16	300.16	38.98	-40.0	-41.9	18.1	0.00e+00	0	38	0	0	50	4776
2026-01-26 00:45:54.49	299.56	38.98	-40.0	-42.0	18.0	0.00e+00	0	38	0	0	50	4827
2026-01-26 00:45:55.20	299.24	38.98	-40.1	-42.0	18.0	0.00e+00	0	38	0	0	50	4843
2026-01-26 00:45:56.48	298.66	38.98	-40.2	-42.2	17.8	0.00e+00	0	38	0	0	51	4674
2026-01-26 00:45:57.20	298.34	38.97	-40.4	-42.4	17.7	0.00e+00	0	38	0	0	51	4769
2026-01-26 00:45:58.48	297.76	38.96	-40.2	-42.1	17.9	0.00e+00	0	38	0	0	51	4640
2026-01-26 00:45:59.21	297.43	38.95	-40.1	-42.1	17.9	0.00e+00	0	38	0	0	51	4610
2026-01-26 00:46:00.48	296.86	38.94	-40.2	-42.2	17.8	0.00e+00	0	38	0	0	51	4658
2026-01-26 00:46:01.21	296.53	38.92	-40.1	-42.1	17.9	0.00e+00	0	38	0	0	51	4625
2026-01-26 00:46:02.49	295.96	38.90	-39.9	-41.8	18.1	0.00e+00	0	38	0	0	51	4488
2026-01-26 00:46:03.20	295.64	38.89	-40.0	-41.9	18.0	0.00e+00	0	38	0	0	51	4527
2026-01-26 00:46:04.48	295.07	38.86	-39.7	-41.6	18.4	0.00e+00	0	38	0	0	51	4341
2026-01-26 00:46:05.21	294.74	38.85	-39.4	-41.2	18.6	0.00e+00	0	38	0	0	50	4401
2026-01-26 00:46:06.49	294.17	38.82	-39.4	-41.2	18.4	0.00e+00	0	38	0	0	50	4434
2026-01-26 00:46:07.20	293.85	38.80	-39.6	-41.5	18.3	0.00e+00	0	38	0	0	50	4552
2026-01-26 00:46:08.48	293.28	38.76	-39.6	-41.5	18.3	0.00e+00	0	38	0	0	50	4550
2026-01-26 00:46:09.20	292.96	38.74	-39.6	-41.5	18.3	0.00e+00	0	38	0	0	50	4574
2026-01-26 00:46:10.53	292.37	38.69	-39.8	-41.7	18.2	0.00e+00	0	38	0	0	50	4685
2026-01-26 00:46:11.24	292.05	38.67	-39.8	-41.7	18.2	0.00e+00	0	38	0	0	50	4679
2026-01-26 00:46:12.58	291.46	38.62	-40.0	-41.9	17.9	0.00e+00	0	38	0	0	50	4811
2026-01-26 00:46:13.29	291.15	38.59	-40.0	-42.0	17.9	0.00e+00	0	38	0	0	50	4845
2026-01-26 00:46:14.65	290.55	38.54	-39.9	-41.8	18.2	0.00e+00	0	38	0	0	50	4743
2026-01-26 00:46:15.36	290.24	38.51	-39.9	-41.8	18.1	0.00e+00	0	38	0	0	50	4724
2026-01-26 00:46:16.64	289.68	38.45	-39.6	-41.5	18.5	0.00e+00	0	38	0	0	50	4556
2026-01-26 00:46:17.67	289.23	38.41	-39.5	-41.3	18.6	0.00e+00	0	38	0	0	50	4475
2026-01-26 00:46:18.96	288.67	38.34	-39.5	-41.3	18.5	0.00e+00	0	38	0	0	50	4480
2026-01-26 00:46:19.68	288.36	38.31	-39.4	-41.3	18.7	0.00e+00	0	38	0	0	50	4445
2026-01-26 00:46:20.96	287.80	38.24	-39.3	-41.1	18.8	0.00e+00	0	38	0	0	50	4370
2026-01-26 00:46:21.70	287.48	38.20	-39.2	-41.0	18.9	0.00e+00	0	38	0	0	50	4316
2026-01-26 00:46:22.98	286.93	38.13	-38.9	-40.7	19.2	0.00e+00	0	38	0	0	49	4392
2026-01-26 00:46:23.69	286.63	38.09	-39.0	-40.8	19.1	0.00e+00	0	38	0	0	49	4443
2026-01-26 00:46:24.97	286.09	38.01	-39.4	-41.2	18.7	0.00e+00	0	38	0	0	49	4669
2026-01-26 00:46:25.68	285.78	37.97	-39.4	-41.2	18.7	0.00e+00	0	38	0	0	49	4687
2026-01-26 00:46:26.96	285.24	37.89	-39.3	-41.2	18.8	0.00e+00	0	38	0	0	49	4652
2026-01-26 00:46:27.67	284.94	37.85	-39.5	-41.4	18.5	0.00e+00	0	38	0	0	49	4777
2026-01-26 00:46:28.95	284.41	37.76	-39.8	-41.6	18.3	0.00e+00	0	38	0	0	50	4642
2026-01-26 00:46:29.67	284.10	37.71	-39.9	-41.8	18.2	0.00e+00	0	38	0	0	50	4712
2026-01-26 00:46:30.95	283.57	37.63	-40.1	-42.0	18.0	0.00e+00	0	38	0	0	50	4842
2026-01-26 00:46:31.68	283.27	37.58	-40.1	-42.1	17.9	0.00e+00	0	38	0	0	51	4633
2026-01-26 00:46:32.96	282.74	37.48	-40.3	-42.3	17.7	0.00e+00	0	38	0	0	51	4728
2026-01-26 00:46:33.68	282.44	37.43	-40.4	-42.4	17.6	0.00e+00	0	38	0	0	51	4775
2026-01-26 00:46:34.96	281.92	37.33	-40.3	-42.2	17.8	0.00e+00	0	38	0	0	51	4703
2026-01-26 00:46:35.69	281.62	37.28	-40.0	-41.9	18.1	0.00e+00	0	38	0	0	51	4508
2026-01-26 00:46:36.97	281.10	37.18	-39.5	-41.4	18.6	0.00e+00	0	38	0	0	51	4262
2026-01-26 00:46:37.69	280.81	37.12	-39.6	-41.5	18.5	0.00e+00	0	38	0	0	51	4293
2026-01-26 00:46:38.97	280.30	37.02	-39.4	-41.2	18.7	0.00e+00	0	38	0	0	50	4431
2026-01-26 00:46:39.68	280.02	36.96	-39.2	-41.0	19.0	0.00e+00	0	38	0	0	50	4304
2026-01-26 00:46:40.96	279.51	36.85	-39.1	-40.9	19.1	0.00e+00	0	38	0	0	50	4264
2026-01-26 00:46:41.70	279.22	36.79	-39.2	-41.0	19.0	0.00e+00	0	38	0	0	50	4295
2026-01-26 00:46:43.06	278.68	36.67	-39.4	-41.3	18.7	0.00e+00	0	38	0	0	50	4450
2026-01-26 00:46:43.77	278.40	36.61	-39.6	-41.4	18.6	0.00e+00	0	38	0	0	50	4539
2026-01-26 00:46:45.05	277.91	36.50	-39.5	-41.4	18.6	0.00e+00	0	38	0	0	50	4497
2026-01-26 00:46:45.76	277.63	36.43	-39.3	-41.1	18.8	0.00e+00	0	38	0	0	50	4387
2026-01-26 00:46:47.15	277.10	36.31	-38.8	-40.5	19.3	0.00e+00	0	38	0	0	49	4333
2026-01-26 00:46:47.86	276.82	36.24	-38.7	-40.4	19.3	0.00e+00	0	38	0	0	49	4273
2026-01-26 00:46:49.19	276.32	36.12	-38.4	-40.1	19.7	0.00e+00	0	38	0	0	48	4359
2026-01-26 00:46:50.15	275.96	36.03	-38.7	-40.4	19.4	0.00e+00	0	38	0	0	48	4539
2026-01-26 00:46:51.46	275.47	35.90	-39.1	-40.9	19.1	0.00e+00	0	38	0	0	48	4777
2026-01-26 00:46:52.17	275.20	35.83	-39.3	-41.1	18.9	0.00e+00	0	38	0	0	49	4638
2026-01-26 00:46:53.84	274.58	35.66	-39.8	-41.7	18.4	0.00e+00	0	38	0	0	50	4667
2026-01-26 00:46:54.41	274.37	35.61	-39.8	-41.7	18.3	0.00e+00	0	38	0	0	50	4686
2026-01-26 00:46:56.12	273.75	35.43	-39.3	-41.2	18.8	0.00e+00	0	38	0	0	50	4397
2026-01-26 00:46:56.69	273.54	35.38	-39.2	-41.0	18.8	0.00e+00	0	38	0	0	50	4338
2026-01-26 00:46:58.39	272.93	35.20	-38.7	-40.4	19.3	0.00e+00	0	38	0	0	49	4263
2026-01-26 00:46:58.96	272.73	35.14	-38.5	-40.2	19.5	0.00e+00	0	38	0	0	48	4401
2026-01-26 00:47:00.64	272.13	34.96	-38.6	-40.4	19.5	0.00e+00	0	38	0	0	48	4510
2026-01-26 00:47:01.35	271.88	34.89	-38.8	-40.6	19.3	0.00e+00	0	38	0	0	48	4614
2026-01-26 00:47:02.63	271.43	34.75	-39.0	-40.9	19.1	0.00e+00	0	38	0	0	48	4768
2026-01-26 00:47:03.36	271.18	34.67	-39.1	-40.9	19.0	0.00e+00	0	38	0	0	48	4786
2026-01-26 00:47:04.64	270.74	34.53	-39.1	-40.9	19.0	0.00e+00	0	38	0	0	48	4775
2026-01-26 00:47:05.36	270.49	34.45	-39.0	-40.8	19.0	0.00e+00	0	38	0	0	48	4717
2026-01-26 00:47:06.67	270.05	34.31	-38.9	-40.7	19.1	0.00e+00	0	38	0	0	48	4689
2026-01-26 00:47:07.38	269.81	34.23	-38.9	-40.6	19.2	0.00e+00	0	38	0	0	48	4651
2026-01-26 00:47:08.76	269.34	34.07	-39.1	-41.0	18.9	0.00e+00	0	38	0	0	48	4821
2026-01-26 00:47:09.46	269.11	34.00	-39.4	-41.2	18.7	0.00e+00	0	38	0	0	49	4703
2026-01-26 00:47:10.78	268.67	33.85	-39.7	-41.7	18.3	0.00e+00	0	38	0	0	50	4657
2026-01-26 00:47:11.49	268.44	33.76	-39.6	-41.4	18.5	0.00e+00	0	38	0	0	50	4545
2026-01-26 00:47:12.77	268.02	33.62	-39.2	-41.0	18.9	0.00e+00	0	38	0	0	50	4294
2026-01-26 00:47:13.49	267.79	33.53	-38.9	-40.6	19.2	0.00e+00	0	38	0	0	49	4367
2026-01-26 00:47:14.77	267.38	33.39	-38.7	-40.5	19.3	0.00e+00	0	38	0	0	49	4310
2026-01-26 00:47:15.49	267.15	33.30	-38.4	-40.1	19.6	0.00e+00	0	38	0	0	48	4391
2026-01-26 00:47:16.77	266.74	33.15	-38.6	-40.3	19.5	0.00e+00	0	38	0	0	48	4475
2026-01-26 00:47:17.51	266.51	33.06	-38.9	-40.7	19.2	0.00e+00	0	38	0	0	48	4694
2026-01-26 00:47:18.78	266.11	32.91	-39.3	-41.1	18.8	0.00e+00	0	38	0	0	49	4637
2026-01-26 00:47:19.51	265.89	32.83	-39.6	-41.4	18.5	0.00e+00	0	38	0	0	49	4796
2026-01-26 00:47:20.79	265.49	32.68	-39.3	-41.2	18.8	0.00e+00	0	38	0	0	49	4655
2026-01-26 00:47:21.51	265.27	32.59	-39.3	-41.2	18.7	0.00e+00	0	38	0	0	49	4673
2026-01-26 00:47:22.80	264.88	32.43	-38.3	-40.0	19.8	0.00e+00	0	38	0	0	48	4308
2026-01-26 00:47:23.51	264.67	32.35	-38.1	-39.8	19.9	0.00e+00	0	38	0	0	48	4204
2026-01-26 00:47:24.78	264.29	32.20	-37.8	-39.5	20.0	0.00e+00	0	38	0	0	47	4318
2026-01-26 00:47:25.51	264.07	32.11	-37.7	-39.4	20.1	0.00e+00	0	38	0	0	47	4246
2026-01-26 00:47:26.79	263.69	31.95	-37.8	-39.5	19.9	0.00e+00	0	38	0	0	47	4322
2026-01-26 00:47:27.50	263.49	31.86	-38.0	-39.7	19.7	0.00e+00	0	38	0	0	47	4417
2026-01-26 00:47:28.80	263.11	31.70	-38.0	-39.7	19.6	0.00e+00	0	38	0	0	47	4431
2026-01-26 00:47:29.73	262.84	31.59	-37.8	-39.5	19.8	0.00e+00	0	38	0	0	47	4336
2026-01-26 00:47:30.72	262.56	31.47	-37.8	-39.5	19.9	0.00e+00	0	38	0	0	47	4293
2026-01-26 00:47:31.72	262.28	31.35	-37.6	-39.3	20.1	0.00e+00	0	38	0	0	47	4195
2026-01-26 00:47:32.71	262.00	31.22	-37.6	-39.2	20.1	0.00e+00	0	38	0	0	47	4179
2026-01-26 00:47:33.71	261.72	31.10	-37.7	-39.4	20.0	0.00e+00	0	38	0	0	47	4261
2026-01-26 00:47:34.70	261.45	30.98	-37.9	-39.6	19.8	0.00e+00	0	38	0	0	47	4388
2026-01-26 00:47:35.69	261.17	30.85	-38.2	-40.0	19.5	0.00e+00	0	38	0	0	47	4584
2026-01-26 00:47:36.74	260.89	30.72	-38.6	-40.4	19.1	0.00e+00	0	38	0	0	47	4776
2026-01-26 00:47:37.74	260.62	30.60	-38.9	-40.7	18.9	0.00e+00	0	38	0	0	48	4689
2026-01-26 00:47:38.78	260.34	30.47	-38.8	-40.7	19.0	0.00e+00	0	38	0	0	48	4657
2026-01-26 00:47:39.74	260.08	30.35	-38.5	-40.3	19.3	0.00e+00	0	38	0	0	48	4467
2026-01-26 00:47:40.74	259.82	30.22	-38.3	-40.0	19.6	0.00e+00	0	38	0	0	48	4304
2026-01-26 00:47:41.73	259.56	30.10	-38.3	-40.0	19.7	0.00e+00	0	38	0	0	48	4310
2026-01-26 00:47:42.73	259.30	29.97	-37.9	-39.5	20.0	0.00e+00	0	38	0	0	47	4337
2026-01-26 00:47:43.72	259.04	29.85	-37.5	-39.2	20.4	0.00e+00	0	38	0	0	47	4161
2026-01-26 00:47:44.72	258.79	29.72	-37.6	-39.3	20.3	0.00e+00	0	38	0	0	47	4206
2026-01-26 00:47:45.71	258.53	29.60	-37.7	-39.4	20.2	0.00e+00	0	38	0	0	47	4276
2026-01-26 00:47:46.70	258.28	29.47	-37.9	-39.6	20.1	0.00e+00	0	38	0	0	47	4358
2026-01-26 00:47:47.70	258.03	29.35	-38.0	-39.7	19.9	0.00e+00	0	38	0	0	47	4415
2026-01-26 00:47:48.69	257.79	29.22	-38.0	-39.7	19.9	0.00e+00	0	38	0	0	47	4433
2026-01-26 00:47:49.69	257.54	29.10	-38.0	-39.8	19.8	0.00e+00	0	38	0	0	47	4443
2026-01-26 00:47:50.69	257.30	28.97	-37.9	-39.6	20.0	0.00e+00	0	38	0	0	47	4379
2026-01-26 00:47:51.68	257.06	28.85	-37.8	-39.5	20.1	0.00e+00	0	38	0	0	47	4319
2026-01-26 00:47:52.67	256.82	28.72	-37.8	-39.5	20.1	0.00e+00	0	38	0	0	47	4293
2026-01-26 00:47:53.67	256.58	28.60	-37.5	-39.2	20.4	0.00e+00	0	38	0	0	47	4153
2026-01-26 00:47:54.66	256.35	28.47	-37.6	-39.3	20.3	0.00e+00	0	38	0	0	47	4197
2026-01-26 00:47:55.74	256.09	28.34	-37.7	-39.4	20.2	0.00e+00	0	38	0	0	47	4252
2026-01-26 00:47:56.65	255.88	28.22	-37.6	-39.3	20.3	0.00e+00	0	38	0	0	47	4199
2026-01-26 00:47:57.65	255.65	28.10	-37.6	-39.3	20.3	0.00e+00	0	38	0	0	47	4196
2026-01-26 00:47:58.64	255.42	27.97	-37.6	-39.3	20.3	0.00e+00	0	38	0	0	47	4209
2026-01-26 00:47:59.64	255.19	27.85	-37.7	-39.4	20.2	0.00e+00	0	38	0	0	47	4246
2026-01-26 00:48:00.63	254.97	27.72	-37.6	-39.2	20.3	0.00e+00	0	38	0	0	47	4192
2026-01-26 00:48:01.63	254.75	27.60	-37.5	-39.2	20.3	0.00e+00	0	38	0	0	47	4158
2026-01-26 00:48:02.62	254.53	27.47	-37.6	-39.2	20.3	0.00e+00	0	38	0	0	47	4189
2026-01-26 00:48:03.62	254.31	27.35	-37.6	-39.3	20.2	0.00e+00	0	38	0	0	47	4205
2026-01-26 00:48:04.61	254.09	27.22	-37.5	-39.2	20.3	0.00e+00	0	38	0	0	47	4181
2026-01-26 00:48:05.61	253.87	27.10	-37.6	-39.3	20.1	0.00e+00	0	38	0	0	47	4212
2026-01-26 00:48:06.60	253.66	26.97	-37.7	-39.4	19.9	0.00e+00	0	38	0	0	47	4264
2026-01-26 00:48:07.60	253.44	26.85	-38.0	-39.7	19.5	0.00e+00	0	38	0	0	47	4431
2026-01-26 00:48:08.59	253.23	26.72	-38.2	-39.9	19.3	0.00e+00	0	38	0	0	47	4545
2026-01-26 00:48:09.58	253.03	26.60	-38.2	-39.9	19.3	0.00e+00	0	38	0	0	47	4542
2026-01-26 00:48:10.58	252.82	26.48	-38.0	-39.8	19.5	0.00e+00	0	38	0	0	47	4465
2026-01-26 00:48:11.58	252.61	26.35	-37.9	-39.7	19.7	0.00e+00	0	38	0	0	47	4395
2026-01-26 00:48:12.57	252.41	26.23	-37.9	-39.6	19.8	0.00e+00	0	38	0	0	47	4380
2026-01-26 00:48:13.56	252.20	26.11	-37.6	-39.3	20.1	0.00e+00	0	38	0	0	47	4211
2026-01-26 00:48:14.56	252.00	25.98	-37.4	-39.0	20.3	0.00e+00	0	38	0	0	46	4328
2026-01-26 00:48:15.56	251.80	25.86	-37.2	-38.9	20.5	0.00e+00	0	38	0	0	46	4246
2026-01-26 00:48:16.55	251.60	25.74	-37.4	-39.1	20.3	0.00e+00	0	38	0	0	46	4360
2026-01-26 00:48:17.54	251.41	25.61	-37.8	-39.5	20.0	0.00e+00	0	38	0	0	46	4549
2026-01-26 00:48:18.54	251.21	25.49	-38.0	-39.8	19.8	0.00e+00	0	38	0	0	46	4709
2026-01-26 00:48:19.53	251.02	25.37	-38.2	-40.0	19.6	0.00e+00	0	38	0	0	47	4554
2026-01-26 00:48:20.53	250.83	25.25	-38.1	-39.9	19.6	0.00e+00	0	38	0	0	47	4521
2026-01-26 00:48:21.52	250.64	25.12	-38.2	-39.9	19.6	0.00e+00	0	38	0	0	47	4538
2026-01-26 00:48:22.51	250.45	25.00	-38.1	-39.8	19.8	0.00e+00	0	38	0	0	47	4490
2026-01-26 00:48:23.57	250.25	24.87	-38.1	-39.9	19.7	0.00e+00	0	38	0	0	47	4501
2026-01-26 00:48:24.44	250.09	24.77	-37.9	-39.6	20.0	0.00e+00	0	38	0	0	47	4345
2026-01-26 00:48:25.54	249.88	24.63	-37.6	-39.3	20.2	0.00e+00	0	38	0	0	47	4209
2026-01-26 00:48:26.39	249.72	24.53	-37.5	-39.1	20.4	0.00e+00	0	38	0	0	46	4384
2026-01-26 00:48:27.53	249.52	24.39	-37.5	-39.1	20.4	0.00e+00	0	38	0	0	46	4378
2026-01-26 00:48:28.38	249.36	24.29	-37.4	-39.1	20.5	0.00e+00	0	38	0	0	46	4369
2026-01-26 00:48:29.51	249.16	24.15	-37.4	-39.0	20.5	0.00e+00	0	38	0	0	46	4336
2026-01-26 00:48:30.37	249.00	24.05	-37.1	-38.8	20.8	0.00e+00	0	38	0	0	46	4201
2026-01-26 00:48:31.50	248.80	23.91	-36.9	-38.6	21.0	0.00e+00	0	38	0	0	45	4342
2026-01-26 00:48:32.36	248.65	23.81	-37.0	-38.6	21.0	0.00e+00	0	38	0	0	45	4355
2026-01-26 00:48:33.50	248.45	23.67	-37.2	-38.8	20.7	0.00e+00	0	38	0	0	45	4474
2026-01-26 00:48:34.35	248.31	23.57	-37.4	-39.0	20.5	0.00e+00	0	38	0	0	45	4586
2026-01-26 00:48:35.49	248.11	23.44	-37.5	-39.2	20.3	0.00e+00	0	38	0	0	45	4672
2026-01-26 00:48:36.34	247.96	23.34	-37.6	-39.3	20.2	0.00e+00	0	38	0	0	45	4752
2026-01-26 00:48:37.48	247.77	23.20	-37.7	-39.4	20.1	0.00e+00	0	38	0	0	46	4531
2026-01-26 00:48:38.33	247.63	23.10	-37.7	-39.4	20.2	0.00e+00	0	38	0	0	46	4498
2026-01-26 00:48:39.66	247.41	22.94	-37.6	-39.3	20.3	0.00e+00	0	38	0	0	46	4447
2026-01-26 00:48:40.37	247.29	22.86	-37.5	-39.2	20.4	0.00e+00	0	38	0	0	46	4402
2026-01-26 00:48:41.65	247.08	22.71	-37.5	-39.1	20.4	0.00e+00	0	38	0	0	46	4369
2026-01-26 00:48:42.37	246.96	22.62	-37.6	-39.3	20.3	0.00e+00	0	38	0	0	46	4448
2026-01-26 00:48:43.65	246.75	22.48	-37.6	-39.3	20.2	0.00e+00	0	38	0	0	46	4470
2026-01-26 00:48:44.36	246.64	22.39	-37.7	-39.4	20.1	0.00e+00	0	38	0	0	46	4505
2026-01-26 00:48:45.64	246.44	22.24	-37.8	-39.5	20.0	0.00e+00	0	38	0	0	46	4549
2026-01-26 00:48:46.35	246.32	22.16	-37.8	-39.5	20.0	0.00e+00	0	38	0	0	46	4559
2026-01-26 00:48:47.63	246.12	22.01	-37.8	-39.5	20.0	0.00e+00	0	38	0	0	46	4574
2026-01-26 00:48:48.35	246.01	21.93	-37.8	-39.6	19.9	0.00e+00	0	38	0	0	46	4602
2026-01-26 00:48:49.63	245.81	21.78	-37.6	-39.3	20.1	0.00e+00	0	38	0	0	46	4488
2026-01-26 00:48:50.34	245.70	21.70	-37.7	-39.3	20.1	0.00e+00	0	38	0	0	46	4489
2026-01-26 00:48:51.73	245.49	21.54	-37.7	-39.4	20.1	0.00e+00	0	38	0	0	46	4508
2026-01-26 00:48:52.45	245.38	21.46	-37.7	-39.4	20.1	0.00e+00	0	38	0	0	46	4505
2026-01-26 00:48:53.73	245.19	21.31	-37.8	-39.6	19.9	0.00e+00	0	38	0	0	46	4605
2026-01-26 00:48:54.45	245.09	21.23	-37.8	-39.5	20.0	0.00e+00	0	38	0	0	46	4595
2026-01-26 00:48:55.73	244.90	21.09	-37.8	-39.5	19.9	0.00e+00	0	38	0	0	46	4590
2026-01-26 00:48:56.47	244.79	21.00	-37.8	-39.6	19.8	0.00e+00	0	38	0	0	46	4614
2026-01-26 00:48:57.75	244.60	20.86	-37.8	-39.5	19.8	0.00e+00	0	38	0	0	46	4590
2026-01-26 00:48:58.46	244.50	20.78	-37.9	-39.6	19.7	0.00e+00	0	38	0	0	46	4616
2026-01-26 00:48:59.74	244.32	20.64	-37.9	-39.7	19.7	0.00e+00	0	38	0	0	46	4652
2026-01-26 00:49:00.48	244.21	20.55	-37.9	-39.6	19.8	0.00e+00	0	38	0	0	46	4622
2026-01-26 00:49:01.76	244.03	20.41	-38.0	-39.7	19.7	0.00e+00	0	38	0	0	46	4685
2026-01-26 00:49:02.55	243.92	20.32	-38.0	-39.7	19.7	0.00e+00	0	38	0	0	46	4689
2026-01-26 00:49:03.76	243.75	20.19	-37.9	-39.6	19.8	0.00e+00	0	38	0	0	46	4645
2026-01-26 00:49:04.71	243.62	20.08	-37.9	-39.6	19.9	0.00e+00	0	38	0	0	46	4620
2026-01-26 00:49:05.86	243.46	19.96	-37.7	-39.5	20.0	0.00e+00	0	38	0	0	46	4555
2026-01-26 00:49:06.72	243.34	19.86	-37.6	-39.3	20.1	0.00e+00	0	38	0	0	46	4476
2026-01-26 00:49:07.85	243.19	19.74	-37.6	-39.3	20.2	0.00e+00	0	38	0	0	46	4464
2026-01-26 00:49:08.70	243.08	19.65	-37.5	-39.2	20.2	0.00e+00	0	38	0	0	46	4417
2026-01-26 00:49:09.84	242.93	19.52	-37.5	-39.2	20.2	0.00e+00	0	38	0	0	46	4431
2026-01-26 00:49:10.69	242.81	19.43	-37.4	-39.1	20.3	0.00e+00	0	38	0	0	46	4384
2026-01-26 00:49:12.15	242.62	19.27	-37.4	-39.2	20.3	0.00e+00	0	38	0	0	46	4413
2026-01-26 00:49:12.86	242.53	19.19	-37.5	-39.2	20.2	0.00e+00	0	38	0	0	46	4438
2026-01-26 00:49:14.14	242.36	19.06	-37.6	-39.4	20.1	0.00e+00	0	38	0	0	46	4508
2026-01-26 00:49:14.86	242.27	18.98	-37.7	-39.5	20.1	0.00e+00	0	38	0	0	46	4547
2026-01-26 00:49:16.15	242.11	18.84	-37.7	-39.5	20.1	0.00e+00	0	38	0	0	46	4551
2026-01-26 00:49:16.89	242.01	18.76	-37.7	-39.4	20.2	0.00e+00	0	38	0	0	46	4513
2026-01-26 00:49:18.17	241.85	18.63	-37.5	-39.2	20.3	0.00e+00	0	38	0	0	46	4428
2026-01-26 00:49:18.89	241.76	18.55	-37.6	-39.2	20.3	0.00e+00	0	38	0	0	46	4425
2026-01-26 00:49:20.17	241.61	18.41	-37.4	-39.0	20.4	0.00e+00	0	38	0	0	46	4330
2026-01-26 00:49:20.90	241.52	18.34	-37.4	-39.1	20.4	0.00e+00	0	38	0	0	46	4362
2026-01-26 00:49:22.18	241.36	18.20	-37.4	-39.0	20.4	0.00e+00	0	38	0	0	46	4330
2026-01-26 00:49:23.07	241.25	18.11	-37.3	-38.9	20.4	0.00e+00	0	38	0	0	46	4286
2026-01-26 00:49:24.19	241.12	17.99	-37.4	-39.0	20.4	0.00e+00	0	38	0	0	46	4338
2026-01-26 00:49:25.05	241.01	17.90	-37.5	-39.2	20.2	0.00e+00	0	38	0	0	46	4403
2026-01-26 00:49:26.19	240.88	17.78	-37.6	-39.3	20.1	0.00e+00	0	38	0	0	46	4449
2026-01-26 00:49:27.04	240.78	17.70	-37.6	-39.3	20.2	0.00e+00	0	38	0	0	46	4445
2026-01-26 00:49:28.18	240.65	17.58	-37.8	-39.5	20.0	0.00e+00	0	38	0	0	46	4553
2026-01-26 00:49:29.03	240.55	17.49	-37.8	-39.5	20.0	0.00e+00	0	38	0	0	46	4554
2026-01-26 00:49:30.17	240.42	17.37	-37.8	-39.5	20.0	0.00e+00	0	38	0	0	46	4591
2026-01-26 00:49:31.02	240.32	17.29	-37.9	-39.7	19.9	0.00e+00	0	38	0	0	46	4654
2026-01-26 00:49:32.16	240.19	17.17	-37.9	-39.6	19.9	0.00e+00	0	38	0	0	46	4642
2026-01-26 00:49:33.01	240.09	17.08	-38.0	-39.7	19.8	0.00e+00	0	38	0	0	46	4704
2026-01-26 00:49:34.15	239.97	16.97	-38.1	-39.8	19.7	0.00e+00	0	38	0	0	46	4739
2026-01-26 00:49:35.00	239.87	16.88	-38.2	-39.9	19.6	0.00e+00	0	38	0	0	46	4810
2026-01-26 00:49:36.14	239.74	16.77	-38.2	-40.0	19.5	0.00e+00	0	38	0	0	47	4589
2026-01-26 00:49:36.99	239.65	16.68	-38.2	-40.0	19.4	0.00e+00	0	38	0	0	47	4590
2026-01-26 00:49:38.13	239.53	16.57	-38.3	-40.1	19.3	0.00e+00	0	38	0	0	47	4635
2026-01-26 00:49:38.98	239.43	16.48	-38.4	-40.2	19.2	0.00e+00	0	38	0	0	47	4689
2026-01-26 00:49:40.12	239.31	16.37	-38.5	-40.4	19.1	0.00e+00	0	38	0	0	47	4763
2026-01-26 00:49:41.30	239.19	16.25	-38.6	-40.4	19.0	0.00e+00	0	38	0	0	47	4796
2026-01-26 00:49:42.15	239.10	16.17	-38.6	-40.4	19.0	0.00e+00	0	38	0	0	47	4791
2026-01-26 00:49:43.29	238.97	16.06	-38.5	-40.3	19.1	0.00e+00	0	38	0	0	47	4734
2026-01-26 00:49:44.14	238.89	15.97	-38.4	-40.3	19.1	0.00e+00	0	38	0	0	47	4710
2026-01-26 00:49:45.28	238.77	15.86	-38.5	-40.4	19.0	0.00e+00	0	38	0	0	47	4765
2026-01-26 00:49:46.13	238.68	15.78	-38.5	-40.3	19.1	0.00e+00	0	38	0	0	47	4715
2026-01-26 00:49:47.27	238.56	15.67	-38.7	-40.5	18.9	0.00e+00	0	38	0	0	47	4846
2026-01-26 00:49:48.12	238.48	15.59	-38.6	-40.4	19.0	0.00e+00	0	38	0	0	47	4789
2026-01-26 00:49:49.32	238.35	15.47	-38.6	-40.4	19.1	0.00e+00	0	38	0	0	48	4527
2026-01-26 00:49:50.17	238.27	15.39	-38.5	-40.3	19.3	0.00e+00	0	38	0	0	48	4467
2026-01-26 00:49:51.31	238.15	15.28	-38.6	-40.4	19.2	0.00e+00	0	38	0	0	48	4514
2026-01-26 00:49:52.16	238.07	15.20	-38.5	-40.3	19.3	0.00e+00	0	38	0	0	48	4464
2026-01-26 00:49:53.41	237.95	15.08	-38.6	-40.3	19.3	0.00e+00	0	38	0	0	48	4478
2026-01-26 00:49:54.26	237.86	14.99	-38.7	-40.5	19.2	0.00e+00	0	38	0	0	48	4574
2026-01-26 00:49:55.48	237.74	14.88	-38.8	-40.6	19.1	0.00e+00	0	38	0	0	48	4600
2026-01-26 00:49:56.33	237.66	14.80	-38.8	-40.7	19.0	0.00e+00	0	38	0	0	48	4656
2026-01-26 00:49:57.55	237.55	14.68	-38.9	-40.7	19.0	0.00e+00	0	38	0	0	48	4693
2026-01-26 00:49:58.40	237.46	14.60	-38.9	-40.7	19.0	0.00e+00	0	38	0	0	48	4688
2026-01-26 00:49:59.60	237.35	14.49	-38.9	-40.8	18.9	0.00e+00	0	38	0	0	48	4716
2026-01-26 00:50:00.45	237.27	14.41	-39.0	-40.8	18.9	0.00e+00	0	38	0	0	48	4740
2026-01-26 00:50:01.58	237.17	14.31	-39.0	-40.9	18.8	0.00e+00	0	38	0	0	48	4783
2026-01-26 00:50:02.44	237.09	14.23	-39.1	-40.9	18.7	0.00e+00	0	38	0	0	48	4805
2026-01-26 00:50:03.57	236.98	14.12	-39.1	-40.9	18.7	0.00e+00	0	38	0	0	48	4807
2026-01-26 00:50:04.46	236.90	14.04	-39.1	-41.0	18.6	0.00e+00	0	38	0	0	48	4843
2026-01-26 00:50:05.59	236.80	13.93	-39.2	-41.0	18.5	0.00e+00	0	38	0	0	49	4590
2026-01-26 00:50:06.47	236.72	13.85	-39.1	-41.0	18.5	0.00e+00	0	38	0	0	49	4562
2026-01-26 00:50:07.61	236.61	13.75	-39.0	-40.9	18.6	0.00e+00	0	38	0	0	49	4499
2026-01-26 00:50:08.46	236.54	13.67	-38.9	-40.8	18.7	0.00e+00	0	38	0	0	49	4450
2026-01-26 00:50:09.60	236.44	13.57	-38.7	-40.5	18.9	0.00e+00	0	38	0	0	49	4335
2026-01-26 00:50:10.45	236.36	13.49	-38.7	-40.5	18.9	0.00e+00	0	38	0	0	49	4308
2026-01-26 00:50:11.59	236.26	13.39	-38.5	-40.3	19.0	0.00e+00	0	38	0	0	49	4237
2026-01-26 00:50:12.44	236.19	13.31	-38.5	-40.3	19.1	0.00e+00	0	38	0	0	49	4218
2026-01-26 00:50:13.58	236.09	13.21	-38.5	-40.3	19.0	0.00e+00	0	38	0	0	49	4230
2026-01-26 00:50:14.43	236.02	13.13	-38.5	-40.3	19.1	0.00e+00	0	38	0	0	49	4219
2026-01-26 00:50:15.57	235.92	13.03	-38.5	-40.3	19.2	0.00e+00	0	38	0	0	49	4196
2026-01-26 00:50:16.42	235.85	12.95	-38.4	-40.2	19.2	0.00e+00	0	38	0	0	48	4414
2026-01-26 00:50:17.55	235.75	12.85	-38.4	-40.2	19.3	0.00e+00	0	38	0	0	48	4405
2026-01-26 00:50:18.78	235.65	12.74	-38.6	-40.4	19.2	0.00e+00	0	38	0	0	48	4495
2026-01-26 00:50:19.64	235.57	12.67	-38.5	-40.3	19.2	0.00e+00	0	38	0	0	48	4474
2026-01-26 00:50:20.78	235.48	12.57	-38.6	-40.4	19.1	0.00e+00	0	38	0	0	48	4532
2026-01-26 00:50:21.86	235.39	12.47	-38.6	-40.5	19.1	0.00e+00	0	38	0	0	48	4548
2026-01-26 00:50:22.72	235.32	12.40	-38.7	-40.5	19.1	0.00e+00	0	38	0	0	48	4588
2026-01-26 00:50:23.85	235.23	12.30	-38.9	-40.7	18.9	0.00e+00	0	38	0	0	48	4684
2026-01-26 00:50:24.71	235.16	12.22	-38.8	-40.7	19.0	0.00e+00	0	38	0	0	48	4658
2026-01-26 00:50:25.84	235.07	12.13	-38.9	-40.8	18.9	0.00e+00	0	38	0	0	48	4710
2026-01-26 00:50:26.69	235.00	12.05	-39.0	-40.9	18.8	0.00e+00	0	38	0	0	48	4767
2026-01-26 00:50:27.83	234.91	11.95	-39.0	-40.9	18.7	0.00e+00	0	38	0	0	48	4778
2026-01-26 00:50:28.68	234.84	11.88	-39.1	-41.0	18.6	0.00e+00	0	38	0	0	48	4856
2026-01-26 00:50:29.82	234.75	11.78	-39.1	-41.0	18.6	0.00e+00	0	38	0	0	48	4864
2026-01-26 00:50:30.67	234.69	11.71	-39.2	-41.1	18.5	0.00e+00	0	38	0	0	48	4891
2026-01-26 00:50:31.81	234.60	11.61	-39.3	-41.2	18.4	0.00e+00	0	38	0	0	49	4681
2026-01-26 00:50:32.66	234.53	11.54	-39.2	-41.1	18.5	0.00e+00	0	38	0	0	49	4632
2026-01-26 00:50:34.05	234.43	11.42	-39.3	-41.3	18.4	0.00e+00	0	38	0	0	49	4706
2026-01-26 00:50:34.76	234.37	11.36	-39.3	-41.2	18.4	0.00e+00	0	38	0	0	49	4676
2026-01-26 00:50:36.05	234.28	11.25	-39.3	-41.2	18.3	0.00e+00	0	38	0	0	49	4705
2026-01-26 00:50:36.76	234.22	11.19	-39.4	-41.3	18.3	0.00e+00	0	38	0	0	49	4730
2026-01-26 00:50:38.04	234.13	11.09	-39.4	-41.3	18.2	0.00e+00	0	38	0	0	49	4750
2026-01-26 00:50:38.76	234.07	11.03	-39.4	-41.3	18.3	0.00e+00	0	38	0	0	49	4731
2026-01-26 00:50:40.04	233.98	10.92	-39.4	-41.3	18.2	0.00e+00	0	38	0	0	49	4747
2026-01-26 00:50:40.78	233.92	10.86	-39.3	-41.2	18.3	0.00e+00	0	38	0	0	49	4660
2026-01-26 00:50:42.06	233.83	10.75	-39.3	-41.2	18.3	0.00e+00	0	38	0	0	49	4656
2026-01-26 00:50:42.78	233.78	10.69	-39.2	-41.1	18.4	0.00e+00	0	38	0	0	49	4622
2026-01-26 00:50:44.06	233.69	10.59	-39.3	-41.1	18.3	0.00e+00	0	38	0	0	49	4648
2026-01-26 00:50:44.77	233.63	10.53	-39.3	-41.1	18.3	0.00e+00	0	38	0	0	49	4645
2026-01-26 00:50:46.05	233.54	10.42	-39.3	-41.2	18.3	0.00e+00	0	38	0	0	49	4664
2026-01-26 00:50:46.95	233.48	10.35	-39.3	-41.2	18.3	0.00e+00	0	38	0	0	49	4676
2026-01-26 00:50:48.06	233.40	10.26	-39.3	-41.2	18.3	0.00e+00	0	38	0	0	49	4652
2026-01-26 00:50:48.91	233.34	10.19	-39.2	-41.1	18.4	0.00e+00	0	38	0	0	49	4610
2026-01-26 00:50:50.05	233.26	10.10	-39.0	-40.9	18.5	0.00e+00	0	38	0	0	49	4525
2026-01-26 00:50:51.26	233.18	10.00	-39.2	-41.1	18.3	0.00e+00	0	38	0	0	49	4613
2026-01-26 00:50:52.29	233.11	9.92	-39.1	-40.9	18.5	0.00e+00	0	38	0	0	49	4536
2026-01-26 00:50:53.28	233.04	9.84	-39.2	-41.0	18.4	0.00e+00	0	38	0	0	49	4594
2026-01-26 00:50:54.28	232.97	9.76	-39.1	-41.0	18.4	0.00e+00	0	38	0	0	49	4564
2026-01-26 00:50:55.27	232.90	9.68	-39.2	-41.2	18.3	0.00e+00	0	38	0	0	49	4661
2026-01-26 00:50:56.27	232.84	9.60	-39.4	-41.3	18.1	0.00e+00	0	38	0	0	49	4738
2026-01-26 00:50:57.26	232.77	9.52	-39.4	-41.3	18.1	0.00e+00	0	38	0	0	49	4736
2026-01-26 00:50:58.26	232.70	9.44	-39.3	-41.2	18.2	0.00e+00	0	38	0	0	49	4702
2026-01-26 00:50:59.26	232.64	9.36	-39.4	-41.4	18.0	0.00e+00	0	38	0	0	49	4783
2026-01-26 00:51:00.25	232.57	9.28	-39.4	-41.3	18.1	0.00e+00	0	38	0	0	49	4759
2026-01-26 00:51:01.25	232.51	9.20	-39.3	-41.3	18.1	0.00e+00	0	38	0	0	49	4727
2026-01-26 00:51:02.24	232.44	9.13	-39.3	-41.3	18.1	0.00e+00	0	38	0	0	49	4720
2026-01-26 00:51:03.24	232.38	9.05	-39.5	-41.4	18.0	0.00e+00	0	38	0	0	49	4812
2026-01-26 00:51:04.23	232.32	8.97	-47.9	-61.0	3.8	1.43e+00	0	38	104	0	66	17160
2026-01-26 00:51:05.29	232.25	8.89	-47.9	-61.2	3.8	1.49e+00	0	38	104	0	66	17529
2026-01-26 00:51:06.22	232.19	8.82	-47.6	-61.3	3.8	1.49e+00	0	38	104	0	66	17819
2026-01-26 00:51:07.34	232.12	8.73	-48.1	-61.4	3.8	1.49e+00	0	38	104	0	67	16986
2026-01-26 00:51:08.22	232.06	8.66	-48.5	-61.5	3.8	1.49e+00	0	38	104	0	67	17125
2026-01-26 00:51:09.53	231.98	8.56	-48.6	-61.6	3.8	1.49e+00	0	38	104	0	67	17293
2026-01-26 00:51:10.24	231.94	8.51	-48.5	-61.6	3.8	1.49e+00	0	38	104	0	67	17344
2026-01-26 00:51:11.74	231.84	8.39	-48.6	-61.6	3.8	1.49e+00	0	38	104	0	67	17368
2026-01-26 00:51:12.45	231.80	8.34	-48.6	-61.6	3.8	1.49e+00	0	38	104	0	67	17359
2026-01-26 00:51:13.80	231.72	8.24	-48.8	-61.8	3.8	1.49e+00	0	38	104	0	68	16755
2026-01-26 00:51:14.52	231.67	8.18	-48.8	-61.8	3.8	1.49e+00	0	38	104	0	68	16830
2026-01-26 00:51:15.79	231.60	8.08	-48.7	-61.8	3.8	1.49e+00	0	38	104	0	68	16802
2026-01-26 00:51:16.50	231.55	8.03	-48.7	-61.9	3.8	1.49e+00	0	38	104	0	68	16898
2026-01-26 00:51:17.78	231.48	7.93	-48.7	-61.9	3.8	1.49e+00	0	38	104	0	68	16906
2026-01-26 00:51:18.49	231.44	7.88	-48.7	-61.9	3.8	1.49e+00	0	38	104	0	68	16909
2026-01-26 00:51:19.77	231.36	7.79	-48.8	-61.9	3.8	1.49e+00	0	38	104	0	68	16891
2026-01-26 00:51:20.50	231.32	7.73	-48.8	-61.9	3.8	1.49e+00	0	38	104	0	68	16929
2026-01-26 00:51:21.78	231.24	7.64	-48.8	-61.8	3.8	1.49e+00	0	38	104	0	68	16839
2026-01-26 00:51:22.49	231.20	7.58	-48.7	-61.8	3.8	1.49e+00	0	38	104	0	68	16789
2026-01-26 00:51:23.77	231.13	7.49	-48.6	-61.8	3.8	1.49e+00	0	38	104	0	68	16779
2026-01-26 00:51:24.48	231.09	7.44	-48.6	-61.8	3.8	1.49e+00	0	38	104	0	68	16849
2026-01-26 00:51:25.76	231.01	7.34	-48.5	-61.7	3.8	1.49e+00	0	38	104	0	68	16681
2026-01-26 00:51:26.48	230.97	7.29	-48.5	-61.7	3.8	1.49e+00	0	38	104	0	68	16651
2026-01-26 00:51:27.76	230.90	7.19	-48.5	-61.8	3.8	1.49e+00	0	38	104	0	68	16729
2026-01-26 00:51:28.47	230.86	7.14	-48.5	-61.7	3.8	1.49e+00	0	38	104	0	68	16636
2026-01-26 00:51:29.75	230.79	7.05	-48.5	-61.7	3.8	1.49e+00	0	38	104	0	68	16618
2026-01-26 00:51:30.46	230.75	7.00	-48.5	-61.7	3.8	1.49e+00	0	38	104	0	68	16622
2026-01-26 00:51:31.73	230.68	6.90	-48.5	-61.7	3.8	1.49e+00	0	38	104	0	68	16559
2026-01-26 00:51:32.44	230.64	6.85	-48.5	-61.7	3.8	1.49e+00	0	38	104	0	68	16574
2026-01-26 00:51:33.72	230.57	6.76	-48.5	-61.7	3.8	1.49e+00	0	38	104	0	68	16617
2026-01-26 00:51:34.43	230.53	6.71	-48.5	-61.7	3.8	1.49e+00	0	38	104	0	68	16596
2026-01-26 00:51:35.72	230.46	6.62	-48.5	-61.7	3.8	1.49e+00	0	38	104	0	68	16598
2026-01-26 00:51:36.43	230.42	6.57	-48.5	-61.7	3.8	1.49e+00	0	38	104	0	68	16554
2026-01-26 00:51:37.71	230.35	6.47	-48.5	-61.7	3.8	1.49e+00	0	38	104	0	68	16532
2026-01-26 00:51:38.43	230.31	6.42	-48.5	-61.7	3.8	1.49e+00	0	38	104	0	68	16557
2026-01-26 00:51:39.71	230.24	6.33	-48.5	-61.7	3.8	1.49e+00	0	38	104	0	68	16581
2026-01-26 00:51:40.42	230.21	6.28	-48.5	-61.7	3.8	1.49e+00	0	38	104	0	68	16549
2026-01-26 00:51:41.70	230.14	6.19	-48.5	-61.7	3.8	1.49e+00	0	38	104	0	68	16533
2026-01-26 00:51:42.42	230.10	6.14	-48.5	-61.7	3.8	1.49e+00	0	38	104	0	68	16556
2026-01-26 00:51:43.70	230.03	6.05	-48.5	-61.7	3.8	1.49e+00	0	38	104	0	68	16563
2026-01-26 00:51:44.42	230.00	6.00	-48.5	-61.7	3.8	1.49e+00	0	38	104	0	68	16557
2026-01-26 00:51:45.70	229.93	5.91	-48.5	-61.7	3.8	1.49e+00	0	38	104	0	68	16554
2026-01-26 00:51:46.41	229.89	5.86	-48.5	-61.6	3.8	1.49e+00	0	38	104	0	68	16490
2026-01-26 00:51:47.69	229.83	5.77	-48.5	-61.6	3.8	1.49e+00	0	38	104	0	68	16474
2026-01-26 00:51:48.40	229.79	5.72	-48.5	-61.7	3.8	1.49e+00	0	38	104	0	68	16516
2026-01-26 00:51:49.67	229.73	5.63	-48.5	-61.6	3.8	1.49e+00	0	38	104	0	68	16460
2026-01-26 00:51:50.38	229.69	5.58	-48.5	-61.7	3.8	1.49e+00	0	38	104	0	68	16541
2026-01-26 00:51:51.66	229.63	5.49	-48.5	-61.6	3.8	1.49e+00	0	38	104	0	68	16490
2026-01-26 00:51:52.38	229.59	5.44	-48.4	-61.6	3.8	1.49e+00	0	38	104	0	68	16491
2026-01-26 00:51:53.66	229.53	5.35	-48.5	-61.7	3.8	1.49e+00	0	38	104	0	68	16504
2026-01-26 00:51:54.37	229.49	5.31	-48.4	-61.6	3.8	1.49e+00	0	38	104	0	68	16489
2026-01-26 00:51:55.65	229.43	5.22	-48.4	-61.6	3.8	1.49e+00	0	38	104	0	68	16478
2026-01-26 00:51:56.37	229.39	5.17	-48.5	-61.6	3.8	1.49e+00	0	38	104	0	68	16497
2026-01-26 00:51:57.65	229.33	5.08	-48.5	-61.6	3.8	1.49e+00	0	38	104	0	68	16482
2026-01-26 00:51:58.36	229.30	5.03	-48.4	-61.6	3.8	1.49e+00	0	38	104	0	68	16470
2026-01-26 00:51:59.64	229.24	4.95	-48.4	-61.7	3.8	1.49e+00	0	38	104	0	68	16504

#Closed at: 2026-01-26 00:52:00
#Recorded file [0 MB]: D:/Data/31040_260126_033947.dat