passes_logs/2026/01/26/T1/T1__20260126_074238_SUOMI_NPP_rec.log

#Pass ID: 20260126_074238_SUOMI NPP
#Satellite: SUOMI NPP
#Configuration: NPP
#almurnet v.1.7.20251203
#Start time: 2026-01-26 07:42:40

#Version: 2.0.20230620
#Station: T1
#Location: 37.570604 lon 55.790049 lat
#TLE: 1 37849U 11061A   26025.81780576  .00000180  00000+0  10635-3 0  9993
#TLE: 2 37849  98.7822 327.7738 0002159  45.0809 315.0541 14.19529973738242

#Time	Az	El	Level	Level2	SNR	BER	BlckErr	Temp	State	Recorded	gain1	gain2
2026-01-26 07:42:40.13	85.77	5.06	-48.2	-63.4	3.8	1.49e+00	0	39	0	0	68	20246
2026-01-26 07:42:41.12	85.66	5.11	-48.2	-63.4	3.8	1.49e+00	0	40	104	0	68	20166
2026-01-26 07:42:42.11	85.55	5.16	-48.2	-63.4	3.8	1.49e+00	0	40	104	0	68	20134
2026-01-26 07:42:43.10	85.44	5.21	-48.2	-63.4	3.8	1.49e+00	0	40	104	0	68	20083
2026-01-26 07:42:44.09	85.33	5.26	-48.2	-63.4	3.8	1.49e+00	0	40	104	0	68	20145
2026-01-26 07:42:45.09	85.21	5.31	-48.2	-63.4	3.8	1.49e+00	0	40	104	0	68	20153
2026-01-26 07:42:46.08	85.10	5.36	-48.2	-63.3	3.8	1.49e+00	0	40	104	0	68	20066
2026-01-26 07:42:47.07	84.99	5.40	-48.2	-63.4	3.8	1.49e+00	0	40	104	0	68	20131
2026-01-26 07:42:48.07	84.88	5.45	-48.2	-63.4	3.8	1.49e+00	0	40	104	0	68	20120
2026-01-26 07:42:49.06	84.77	5.50	-48.2	-63.4	3.8	1.49e+00	0	40	104	0	68	20112
2026-01-26 07:42:50.05	84.65	5.55	-48.2	-63.4	3.8	1.49e+00	0	40	104	0	68	20107
2026-01-26 07:42:51.05	84.54	5.60	-48.2	-63.4	3.8	1.49e+00	0	40	104	0	68	20118
2026-01-26 07:42:52.04	84.43	5.65	-48.2	-63.4	3.8	1.49e+00	0	40	104	0	68	20100
2026-01-26 07:42:53.03	84.31	5.70	-48.2	-63.4	3.8	1.49e+00	0	40	104	0	68	20214
2026-01-26 07:42:54.03	84.20	5.75	-48.2	-63.4	3.8	1.49e+00	0	40	104	0	68	20113
2026-01-26 07:42:55.02	84.08	5.80	-48.2	-63.4	3.8	1.49e+00	0	40	104	0	68	20170
2026-01-26 07:42:56.01	83.97	5.85	-48.2	-63.4	3.8	1.49e+00	0	41	104	0	68	20145
2026-01-26 07:42:57.01	83.85	5.90	-48.2	-63.4	3.8	1.49e+00	0	40	104	0	68	20081
2026-01-26 07:42:58.00	83.74	5.94	-48.2	-63.4	3.8	1.49e+00	0	40	104	0	68	20192
2026-01-26 07:42:58.99	83.62	5.99	-48.2	-63.4	3.8	1.49e+00	0	40	104	0	68	20095
2026-01-26 07:42:59.99	83.50	6.04	-48.2	-63.4	3.8	1.49e+00	0	41	104	0	68	20143
2026-01-26 07:43:00.98	83.39	6.09	-48.1	-63.4	3.8	1.49e+00	0	40	104	0	68	20111
2026-01-26 07:43:01.97	83.27	6.14	-48.2	-63.4	3.8	1.49e+00	0	41	104	0	68	20138
2026-01-26 07:43:02.97	83.15	6.19	-48.2	-63.4	3.8	1.49e+00	0	41	104	0	68	20136
2026-01-26 07:43:03.96	83.03	6.24	-48.1	-63.4	3.8	1.49e+00	0	41	104	0	68	20105
2026-01-26 07:43:04.95	82.91	6.29	-48.2	-63.4	3.8	1.49e+00	0	41	104	0	68	20100
2026-01-26 07:43:05.95	82.79	6.34	-48.2	-63.3	3.8	1.49e+00	0	41	104	0	68	20046
2026-01-26 07:43:06.94	82.67	6.38	-48.2	-63.3	3.8	1.49e+00	0	41	104	0	68	20002
2026-01-26 07:43:07.93	82.55	6.43	-48.2	-63.4	3.8	1.49e+00	0	41	104	0	68	20141
2026-01-26 07:43:08.93	82.43	6.48	-48.2	-63.3	3.8	1.49e+00	0	41	104	0	68	19991
2026-01-26 07:43:09.92	82.31	6.53	-48.2	-63.3	3.8	1.49e+00	0	41	104	0	68	20040
2026-01-26 07:43:10.91	82.19	6.58	-48.2	-63.3	3.8	1.49e+00	0	41	104	0	68	19997
2026-01-26 07:43:11.90	82.07	6.63	-48.2	-63.3	3.8	1.49e+00	0	41	104	0	68	19965
2026-01-26 07:43:12.90	81.95	6.68	-48.2	-63.3	3.8	1.49e+00	0	41	104	0	68	19988
2026-01-26 07:43:13.89	81.82	6.73	-48.1	-63.3	3.8	1.49e+00	0	41	104	0	68	19883
2026-01-26 07:43:14.88	81.70	6.77	-48.1	-63.2	3.8	1.49e+00	0	41	104	0	68	19808
2026-01-26 07:43:15.88	81.58	6.82	-48.2	-63.2	3.8	1.49e+00	0	41	104	0	68	19829
2026-01-26 07:43:16.87	81.45	6.87	-48.1	-63.2	3.8	1.49e+00	0	41	104	0	68	19803
2026-01-26 07:43:17.86	81.33	6.92	-48.1	-63.2	3.8	1.49e+00	0	41	104	0	68	19800
2026-01-26 07:43:18.86	81.20	6.97	-48.1	-63.2	3.8	1.49e+00	0	41	104	0	68	19832
2026-01-26 07:43:19.85	81.08	7.02	-48.1	-63.3	3.8	1.49e+00	0	41	104	0	68	19857
2026-01-26 07:43:20.85	80.95	7.06	-48.2	-63.3	3.8	1.49e+00	0	41	104	0	68	19880
2026-01-26 07:43:21.84	80.83	7.11	-48.2	-63.2	3.8	1.49e+00	0	41	104	0	68	19727
2026-01-26 07:43:22.83	80.70	7.16	-48.1	-63.1	3.8	1.49e+00	0	41	104	0	68	19587
2026-01-26 07:43:23.82	80.58	7.21	-48.1	-63.1	3.8	1.49e+00	0	41	104	0	68	19470
2026-01-26 07:43:24.82	80.45	7.26	-48.2	-63.0	3.8	1.49e+00	0	41	104	0	68	19334
2026-01-26 07:43:25.81	80.32	7.31	-48.1	-63.0	3.8	1.49e+00	0	41	104	0	68	19309
2026-01-26 07:43:26.80	80.19	7.35	-48.1	-63.1	3.8	1.49e+00	0	41	104	0	68	19473
2026-01-26 07:43:27.80	80.06	7.40	-48.1	-63.2	3.8	1.49e+00	0	41	104	0	68	19668
2026-01-26 07:43:28.79	79.93	7.45	-48.1	-63.2	3.8	1.49e+00	0	41	104	0	68	19772
2026-01-26 07:43:29.78	79.81	7.50	-48.2	-63.2	3.8	1.49e+00	0	41	104	0	68	19769
2026-01-26 07:43:30.78	79.67	7.55	-48.1	-63.3	3.8	1.49e+00	0	41	104	0	68	20009
2026-01-26 07:43:31.77	79.54	7.59	-48.1	-63.3	3.8	1.49e+00	0	41	104	0	68	19995
2026-01-26 07:43:32.76	79.41	7.64	-48.1	-63.3	3.8	1.49e+00	0	41	104	0	68	19947
2026-01-26 07:43:33.76	79.28	7.69	-48.1	-63.2	3.8	1.49e+00	0	41	104	0	68	19746
2026-01-26 07:43:34.75	79.15	7.74	-48.1	-63.1	3.8	1.49e+00	0	41	104	0	68	19421
2026-01-26 07:43:35.74	79.02	7.78	-48.1	-62.9	3.8	1.49e+00	0	41	104	0	68	19048
2026-01-26 07:43:36.73	78.89	7.83	-48.1	-62.7	3.8	1.49e+00	0	41	104	0	68	18544
2026-01-26 07:43:37.73	78.75	7.88	-48.1	-62.6	3.8	1.49e+00	0	41	104	0	68	18441
2026-01-26 07:43:38.72	78.62	7.93	-48.1	-62.7	3.8	1.49e+00	0	42	104	0	68	18619
2026-01-26 07:43:39.71	78.49	7.97	-48.1	-62.9	3.8	1.49e+00	0	41	104	0	68	19123
2026-01-26 07:43:40.71	78.35	8.02	-48.1	-63.1	3.8	1.49e+00	0	41	104	0	68	19455
2026-01-26 07:43:41.70	78.22	8.07	-48.1	-63.2	3.8	1.49e+00	0	41	104	0	68	19797
2026-01-26 07:43:42.69	78.08	8.12	-48.1	-63.3	3.8	1.49e+00	0	42	104	0	68	19903
2026-01-26 07:43:43.69	77.95	8.16	-48.1	-63.2	3.8	1.49e+00	0	42	104	0	68	19836
2026-01-26 07:43:44.68	77.81	8.21	-48.1	-63.1	3.8	1.49e+00	0	42	104	0	68	19429
2026-01-26 07:43:45.67	77.68	8.26	-48.1	-62.7	3.8	1.49e+00	0	42	104	0	68	18602
2026-01-26 07:43:46.67	77.54	8.31	-48.1	-62.1	3.8	1.49e+00	0	41	104	0	68	17338
2026-01-26 07:43:47.66	77.40	8.35	-48.1	-61.9	3.8	1.49e+00	0	42	104	0	68	17032
2026-01-26 07:43:48.65	77.26	8.40	-48.1	-62.3	3.8	1.49e+00	0	41	104	0	68	17858
2026-01-26 07:43:49.65	77.12	8.45	-48.1	-63.1	3.8	1.49e+00	0	42	104	0	68	19434
2026-01-26 07:43:50.64	76.99	8.49	-48.1	-61.8	3.8	1.49e+00	0	42	104	0	68	16746
2026-01-26 07:43:51.63	76.85	8.54	-47.5	-57.4	5.1	1.37e+00	0	41	0	0	67	10712
2026-01-26 07:43:52.62	76.71	8.59	-46.8	-54.0	7.8	3.09e-01	0	42	0	2097152	65	8124
2026-01-26 07:43:53.62	76.57	8.63	-45.9	-51.2	10.7	7.59e-03	0	42	0	4194304	63	6628
2026-01-26 07:43:54.61	76.43	8.68	-44.9	-49.1	12.9	2.07e-04	0	42	0	5242880	61	5815
2026-01-26 07:43:55.60	76.29	8.73	-43.9	-47.3	14.7	6.10e-06	0	42	0	7340032	59	5336
2026-01-26 07:43:56.60	76.14	8.77	-43.3	-46.4	15.6	0.00e+00	0	42	0	9437184	58	5099
2026-01-26 07:43:57.59	76.00	8.82	-43.2	-46.3	15.7	0.00e+00	0	42	0	11534336	58	5032
2026-01-26 07:43:58.58	75.86	8.86	-43.7	-47.0	15.0	0.00e+00	0	41	0	13631488	58	5433
2026-01-26 07:43:59.58	75.72	8.91	-44.6	-48.5	13.5	1.50e-06	0	42	0	14680064	59	6078
2026-01-26 07:44:00.57	75.57	8.96	-45.7	-50.6	11.5	4.34e-04	0	41	0	16777216	61	6896
2026-01-26 07:44:01.56	75.43	9.00	-46.6	-53.2	8.6	1.27e-02	0	41	0	18874368	64	7895
2026-01-26 07:44:02.55	75.29	9.05	-45.9	-50.9	10.8	1.53e-01	0	42	0	20971520	63	6417
2026-01-26 07:44:03.55	75.14	9.09	-44.6	-48.5	13.6	3.80e-06	0	42	0	22020096	60	5773
2026-01-26 07:44:04.55	75.00	9.14	-47.2	-55.3	7.2	5.10e-03	0	42	0	24117248	64	10044
2026-01-26 07:44:05.54	74.85	9.18	-47.9	-60.7	3.8	1.49e+00	0	42	104	25165824	66	16656
2026-01-26 07:44:06.54	74.70	9.23	-47.9	-60.2	4.1	1.15e+00	0	42	0	25165824	66	15714
2026-01-26 07:44:07.53	74.56	9.28	-47.8	-59.8	3.9	1.49e+00	0	42	104	25165824	66	14978
2026-01-26 07:44:08.53	74.41	9.32	-47.7	-58.6	4.6	8.35e-01	0	42	0	26214400	66	13027
2026-01-26 07:44:09.53	74.26	9.37	-47.7	-58.1	4.9	8.40e-01	0	42	0	27262976	66	12248
2026-01-26 07:44:10.52	74.11	9.41	-47.6	-57.5	5.2	7.34e-01	0	42	0	29360128	66	11425
2026-01-26 07:44:11.51	73.97	9.46	-47.5	-57.1	5.3	6.48e-01	0	42	0	31457280	66	11025
2026-01-26 07:44:12.51	73.82	9.50	-47.2	-55.1	6.8	4.15e-01	0	42	0	33554432	66	8724
2026-01-26 07:44:13.50	73.67	9.55	-47.1	-54.8	7.3	4.79e-02	0	42	0	35651584	65	8944
2026-01-26 07:44:14.50	73.52	9.59	-46.6	-53.1	8.0	1.34e+00	0	42	104	35651584	65	7357
2026-01-26 07:44:15.49	73.37	9.63	-46.4	-52.2	10.2	7.32e-05	0	42	0	36700160	63	7456
2026-01-26 07:44:16.49	73.22	9.68	-47.0	-54.3	5.3	1.41e+00	0	42	104	37748736	66	7952
2026-01-26 07:44:17.48	73.07	9.72	-43.4	-46.5	15.6	2.20e-06	0	42	0	38797312	58	5126
2026-01-26 07:44:18.48	72.91	9.77	-42.8	-45.6	16.6	0.00e+00	0	42	0	40894464	57	4889
2026-01-26 07:44:19.47	72.76	9.81	-42.9	-45.7	16.4	0.00e+00	0	42	0	41943040	57	4958
2026-01-26 07:44:20.46	72.61	9.86	-42.6	-45.4	16.7	0.00e+00	0	42	0	44040192	57	4786
2026-01-26 07:44:21.46	72.46	9.90	-42.4	-45.2	16.9	0.00e+00	0	42	0	46137344	56	4927
2026-01-26 07:44:22.45	72.30	9.94	-42.5	-45.2	16.9	0.00e+00	0	42	0	48234496	56	4977
2026-01-26 07:44:23.45	72.15	9.99	-42.3	-45.0	16.9	0.00e+00	0	42	0	49283072	56	4869
2026-01-26 07:44:24.44	71.99	10.03	-42.2	-44.9	17.1	0.00e+00	0	42	0	51380224	56	4810
2026-01-26 07:44:25.43	71.84	10.07	-42.3	-45.0	17.1	0.00e+00	0	42	0	53477376	56	4855
2026-01-26 07:44:26.43	71.68	10.12	-42.2	-44.9	17.2	0.00e+00	0	42	0	55574528	56	4793
2026-01-26 07:44:27.42	71.53	10.16	-42.3	-45.0	17.1	0.00e+00	0	42	0	57671680	56	4868
2026-01-26 07:44:28.41	71.37	10.20	-42.2	-44.9	17.2	0.00e+00	0	42	0	58720256	56	4812
2026-01-26 07:44:29.41	71.21	10.25	-42.2	-44.8	17.3	0.00e+00	0	42	0	60817408	56	4755
2026-01-26 07:44:30.40	71.06	10.29	-42.1	-44.7	17.4	0.00e+00	0	42	0	62914560	56	4701
2026-01-26 07:44:31.40	70.90	10.33	-41.8	-44.4	17.6	0.00e+00	0	42	0	65011712	55	4769
2026-01-26 07:44:32.40	70.74	10.37	-41.7	-44.2	17.8	0.00e+00	0	42	0	66060288	55	4686
2026-01-26 07:44:33.39	70.58	10.42	-41.5	-44.0	17.9	0.00e+00	0	42	0	68157440	55	4591
2026-01-26 07:44:34.39	70.42	10.46	-41.4	-43.9	18.0	0.00e+00	0	42	0	70254592	54	4780
2026-01-26 07:44:35.38	70.26	10.50	-41.4	-43.9	18.1	0.00e+00	0	42	0	72351744	54	4768
2026-01-26 07:44:36.38	70.10	10.54	-41.4	-43.9	18.1	0.00e+00	0	42	0	74448896	54	4794
2026-01-26 07:44:37.38	69.94	10.58	-41.4	-44.0	17.8	0.00e+00	0	42	0	75497472	54	4841
2026-01-26 07:44:38.37	69.78	10.63	-41.6	-44.3	17.5	0.00e+00	0	42	0	77594624	54	5020
2026-01-26 07:44:39.37	69.62	10.67	-41.8	-44.7	17.2	0.00e+00	0	42	0	79691776	54	5225
2026-01-26 07:44:40.36	69.46	10.71	-42.0	-44.9	16.9	0.00e+00	0	42	0	81788928	54	5401
2026-01-26 07:44:41.36	69.29	10.75	-42.1	-45.0	16.9	0.00e+00	0	42	0	82837504	55	5135
2026-01-26 07:44:42.35	69.13	10.79	-42.0	-44.9	17.0	0.00e+00	0	42	0	84934656	55	5057
2026-01-26 07:44:43.35	68.97	10.83	-42.1	-44.9	17.0	0.00e+00	0	42	0	87031808	55	5088
2026-01-26 07:44:44.34	68.80	10.87	-42.1	-45.0	16.9	0.00e+00	0	42	0	89128960	55	5118
2026-01-26 07:44:45.34	68.64	10.91	-42.2	-45.1	16.8	0.00e+00	0	42	0	91226112	55	5190
2026-01-26 07:44:46.33	68.47	10.95	-42.3	-45.3	16.7	0.00e+00	0	42	0	92274688	55	5298
2026-01-26 07:44:47.33	68.31	10.99	-42.3	-45.3	16.7	0.00e+00	0	42	0	94371840	55	5290
2026-01-26 07:44:48.32	68.14	11.03	-42.1	-44.9	17.0	0.00e+00	0	42	0	96468992	55	5090
2026-01-26 07:44:49.32	67.98	11.07	-42.0	-44.8	17.2	0.00e+00	0	42	0	98566144	55	5005
2026-01-26 07:44:50.31	67.81	11.11	-41.7	-44.4	17.5	0.00e+00	0	42	0	99614720	55	4788
2026-01-26 07:44:51.30	67.64	11.15	-41.8	-44.5	17.4	0.00e+00	0	42	0	101711872	55	4846
2026-01-26 07:44:52.30	67.48	11.19	-41.6	-44.3	17.6	0.00e+00	0	42	0	103809024	55	4743
2026-01-26 07:44:53.29	67.31	11.23	-41.6	-44.3	17.6	0.00e+00	0	42	0	105906176	55	4713
2026-01-26 07:44:54.29	67.14	11.27	-41.7	-44.4	17.5	0.00e+00	0	42	0	108003328	55	4789
2026-01-26 07:44:55.28	66.97	11.31	-41.9	-44.6	17.3	0.00e+00	0	42	0	109051904	55	4911
2026-01-26 07:44:56.28	66.80	11.35	-42.0	-44.8	17.1	0.00e+00	0	42	0	111149056	55	5037
2026-01-26 07:44:57.27	66.63	11.39	-42.2	-45.1	16.9	0.00e+00	0	42	0	113246208	55	5161
2026-01-26 07:44:58.26	66.46	11.43	-42.2	-45.1	16.8	0.00e+00	0	42	0	115343360	55	5170
2026-01-26 07:44:59.26	66.29	11.46	-42.3	-45.2	16.8	0.00e+00	0	42	0	116391936	55	5231
2026-01-26 07:45:00.25	66.12	11.50	-42.3	-45.2	16.7	0.00e+00	0	42	0	118489088	55	5265
2026-01-26 07:45:01.25	65.95	11.54	-42.2	-45.1	16.8	0.00e+00	0	42	0	120586240	55	5194
2026-01-26 07:45:02.24	65.78	11.58	-42.0	-44.8	17.2	0.00e+00	0	42	0	122683392	55	4991
2026-01-26 07:45:03.24	65.60	11.61	-41.9	-44.7	17.3	0.00e+00	0	42	0	124780544	55	4937
2026-01-26 07:45:04.23	65.43	11.65	-41.7	-44.5	17.4	0.00e+00	0	42	0	125829120	55	4817
2026-01-26 07:45:05.23	65.26	11.69	-41.6	-44.3	17.6	0.00e+00	0	42	0	127926272	55	4725
2026-01-26 07:45:06.22	65.09	11.72	-41.5	-44.2	17.6	0.00e+00	0	42	0	130023424	55	4683
2026-01-26 07:45:07.22	64.91	11.76	-41.6	-44.3	17.6	0.00e+00	0	42	0	132120576	54	5028
2026-01-26 07:45:08.21	64.74	11.80	-41.7	-44.4	17.5	0.00e+00	0	42	0	133169152	54	5073
2026-01-26 07:45:09.21	64.56	11.83	-41.7	-44.4	17.5	0.00e+00	0	42	0	135266304	54	5091
2026-01-26 07:45:10.21	64.38	11.87	-41.9	-44.7	17.2	0.00e+00	0	42	0	137363456	54	5277
2026-01-26 07:45:11.20	64.21	11.91	-42.0	-44.9	17.1	0.00e+00	0	42	0	139460608	54	5367
2026-01-26 07:45:12.20	64.03	11.94	-42.0	-44.9	17.1	0.00e+00	0	42	0	141557760	54	5358
2026-01-26 07:45:13.19	63.86	11.98	-42.1	-44.9	17.1	0.00e+00	0	42	0	142606336	54	5385
2026-01-26 07:45:14.19	63.68	12.01	-42.1	-45.0	16.9	0.00e+00	0	42	0	144703488	54	5454
2026-01-26 07:45:15.18	63.50	12.05	-41.9	-44.8	17.2	0.00e+00	0	42	0	146800640	55	4998
2026-01-26 07:45:16.18	63.32	12.08	-41.9	-44.7	17.3	0.00e+00	0	42	0	148897792	55	4942
2026-01-26 07:45:17.17	63.14	12.12	-41.8	-44.5	17.4	0.00e+00	0	42	0	149946368	55	4860
2026-01-26 07:45:18.17	62.96	12.15	-41.8	-44.5	17.5	0.00e+00	0	42	0	152043520	55	4833
2026-01-26 07:45:19.16	62.79	12.18	-41.8	-44.6	17.3	0.00e+00	0	42	0	154140672	55	4904
2026-01-26 07:45:20.16	62.61	12.22	-42.0	-44.8	17.1	0.00e+00	0	42	0	156237824	55	5019
2026-01-26 07:45:21.15	62.43	12.25	-41.9	-44.7	17.3	0.00e+00	0	42	0	158334976	55	4941
2026-01-26 07:45:22.15	62.25	12.28	-42.1	-45.0	17.0	0.00e+00	0	42	0	159383552	55	5132
2026-01-26 07:45:23.14	62.06	12.32	-42.3	-45.3	16.7	0.00e+00	0	42	0	161480704	55	5286
2026-01-26 07:45:24.14	61.88	12.35	-42.5	-45.5	16.5	0.00e+00	0	42	0	163577856	55	5435
2026-01-26 07:45:25.13	61.70	12.38	-42.5	-45.6	16.4	0.00e+00	0	42	0	165675008	55	5493
2026-01-26 07:45:26.12	61.52	12.42	-42.9	-46.0	16.2	0.00e+00	0	42	0	166723584	56	5450
2026-01-26 07:45:27.12	61.34	12.45	-42.7	-45.8	16.3	0.00e+00	0	42	0	168820736	56	5313
2026-01-26 07:45:28.12	61.15	12.48	-42.4	-45.4	16.8	0.00e+00	0	42	0	170917888	56	5081
2026-01-26 07:45:29.11	60.97	12.51	-42.2	-45.1	17.1	0.00e+00	0	42	0	173015040	56	4876
2026-01-26 07:45:30.11	60.79	12.54	-42.0	-44.8	17.3	0.00e+00	0	42	0	175112192	56	4742
2026-01-26 07:45:31.11	60.60	12.57	-41.6	-44.3	17.7	0.00e+00	0	42	0	176160768	55	4732
2026-01-26 07:45:32.10	60.42	12.60	-41.5	-44.1	17.8	0.00e+00	0	42	0	178257920	54	4886
2026-01-26 07:45:33.10	60.23	12.64	-41.4	-44.0	17.9	0.00e+00	0	42	0	180355072	54	4835
2026-01-26 07:45:34.09	60.05	12.67	-41.3	-43.9	18.1	0.00e+00	0	42	0	182452224	54	4764
2026-01-26 07:45:35.09	59.86	12.70	-41.3	-43.8	18.1	0.00e+00	0	42	0	184549376	54	4743
2026-01-26 07:45:36.08	59.67	12.73	-41.4	-43.9	18.0	0.00e+00	0	42	0	185597952	54	4805
2026-01-26 07:45:37.07	59.49	12.76	-41.3	-43.9	18.1	0.00e+00	0	42	0	187695104	54	4769
2026-01-26 07:45:38.07	59.30	12.78	-41.3	-43.9	18.1	0.00e+00	0	42	0	189792256	54	4766
2026-01-26 07:45:39.06	59.12	12.81	-41.3	-43.8	18.2	0.00e+00	0	42	0	191889408	54	4740
2026-01-26 07:45:40.06	58.93	12.84	-41.5	-44.0	18.0	0.00e+00	0	42	0	192937984	54	4866
2026-01-26 07:45:41.05	58.74	12.87	-41.3	-43.9	18.1	0.00e+00	0	42	0	195035136	54	4775
2026-01-26 07:45:42.05	58.55	12.90	-41.3	-43.8	18.2	0.00e+00	0	42	0	197132288	54	4754
2026-01-26 07:45:43.04	58.36	12.93	-41.1	-43.5	18.4	0.00e+00	0	42	0	199229440	54	4595
2026-01-26 07:45:44.04	58.17	12.95	-40.8	-43.2	18.7	0.00e+00	0	42	0	201326592	53	4671
2026-01-26 07:45:45.03	57.98	12.98	-40.9	-43.4	18.6	0.00e+00	0	42	0	202375168	53	4767
2026-01-26 07:45:46.03	57.79	13.01	-41.1	-43.5	18.4	0.00e+00	0	42	0	204472320	53	4867
2026-01-26 07:45:47.02	57.60	13.04	-41.1	-43.6	18.3	0.00e+00	0	42	0	206569472	53	4910
2026-01-26 07:45:48.02	57.41	13.06	-41.3	-43.8	18.2	0.00e+00	0	42	0	208666624	53	5006
2026-01-26 07:45:49.01	57.22	13.09	-41.4	-43.9	18.1	0.00e+00	0	42	0	209715200	53	5072
2026-01-26 07:45:50.01	57.03	13.12	-41.7	-44.3	17.7	0.00e+00	0	42	0	211812352	53	5318
2026-01-26 07:45:51.00	56.84	13.14	-41.9	-44.6	17.5	0.00e+00	0	42	0	213909504	54	5160
2026-01-26 07:45:52.00	56.65	13.17	-42.1	-44.9	17.2	0.00e+00	0	42	0	216006656	55	5059
2026-01-26 07:45:52.99	56.46	13.19	-42.1	-44.9	17.2	0.00e+00	0	42	0	218103808	55	5096
2026-01-26 07:45:53.99	56.26	13.22	-42.0	-44.8	17.2	0.00e+00	0	42	0	219152384	55	5023
2026-01-26 07:45:54.99	56.07	13.24	-42.0	-44.8	17.3	0.00e+00	0	42	0	221249536	55	5032
2026-01-26 07:45:55.98	55.88	13.27	-42.1	-44.9	17.2	0.00e+00	0	42	0	223346688	55	5082
2026-01-26 07:45:56.98	55.68	13.29	-42.2	-45.0	17.1	0.00e+00	0	42	0	225443840	55	5118
2026-01-26 07:45:57.97	55.49	13.31	-42.2	-45.1	17.0	0.00e+00	0	42	0	226492416	55	5169
2026-01-26 07:45:58.97	55.29	13.34	-42.2	-45.0	17.1	0.00e+00	0	42	0	228589568	55	5148
2026-01-26 07:45:59.97	55.10	13.36	-42.2	-45.0	17.1	0.00e+00	0	42	0	230686720	55	5144
2026-01-26 07:46:00.96	54.91	13.38	-42.3	-45.2	16.9	0.00e+00	0	42	0	232783872	55	5236
2026-01-26 07:46:01.95	54.71	13.40	-42.2	-45.0	17.0	0.00e+00	0	42	0	234881024	55	5148
2026-01-26 07:46:02.95	54.52	13.43	-42.2	-45.0	17.1	0.00e+00	0	42	0	235929600	55	5141
2026-01-26 07:46:03.94	54.32	13.45	-42.1	-45.0	17.1	0.00e+00	0	42	0	238026752	55	5101
2026-01-26 07:46:04.94	54.12	13.47	-42.2	-45.0	17.1	0.00e+00	0	42	0	240123904	55	5152
2026-01-26 07:46:05.93	53.93	13.49	-42.2	-45.1	17.0	0.00e+00	0	42	0	242221056	55	5161
2026-01-26 07:46:06.93	53.73	13.51	-42.0	-44.8	17.3	0.00e+00	0	42	0	243269632	55	5001
2026-01-26 07:46:07.92	53.54	13.53	-41.9	-44.7	17.3	0.00e+00	0	42	0	245366784	55	4972
2026-01-26 07:46:08.92	53.34	13.55	-41.8	-44.5	17.5	0.00e+00	0	42	0	247463936	55	4844
2026-01-26 07:46:09.91	53.14	13.57	-41.5	-44.2	17.8	0.00e+00	0	42	0	249561088	55	4671
2026-01-26 07:46:10.91	52.94	13.59	-41.5	-44.1	17.9	0.00e+00	0	42	0	251658240	54	4896
2026-01-26 07:46:11.90	52.75	13.61	-41.4	-44.0	18.0	0.00e+00	0	42	0	252706816	54	4858
2026-01-26 07:46:12.90	52.55	13.63	-41.4	-44.0	18.0	0.00e+00	0	42	0	254803968	54	4857
2026-01-26 07:46:13.89	52.35	13.65	-41.5	-44.1	17.9	0.00e+00	0	42	0	256901120	54	4873
2026-01-26 07:46:14.88	52.15	13.67	-41.4	-44.0	18.0	0.00e+00	0	42	0	258998272	54	4831
2026-01-26 07:46:15.88	51.95	13.69	-41.5	-44.1	18.0	0.00e+00	0	42	0	261095424	54	4882
2026-01-26 07:46:16.88	51.75	13.70	-41.4	-44.0	18.0	0.00e+00	0	42	0	262144000	54	4835
2026-01-26 07:46:17.87	51.55	13.72	-41.4	-44.1	17.9	0.00e+00	0	42	0	264241152	54	4873
2026-01-26 07:46:18.86	51.36	13.74	-41.4	-44.0	18.0	0.00e+00	0	42	0	266338304	54	4846
2026-01-26 07:46:19.86	51.16	13.76	-41.6	-44.3	17.7	0.00e+00	0	42	0	268435456	54	4999
2026-01-26 07:46:20.85	50.96	13.77	-41.6	-44.4	17.6	0.00e+00	0	42	0	269484032	54	5046
2026-01-26 07:46:21.85	50.76	13.79	-41.9	-44.7	17.4	0.00e+00	0	42	0	271581184	54	5230
2026-01-26 07:46:22.84	50.56	13.80	-41.9	-44.7	17.4	0.00e+00	0	42	0	273678336	54	5224
2026-01-26 07:46:23.84	50.36	13.82	-41.7	-44.4	17.6	0.00e+00	0	42	0	275775488	54	5080
2026-01-26 07:46:24.83	50.16	13.83	-41.3	-43.9	18.0	0.00e+00	0	42	0	277872640	54	4797
2026-01-26 07:46:25.83	49.95	13.85	-41.2	-43.7	18.2	0.00e+00	0	42	0	278921216	54	4692
2026-01-26 07:46:26.82	49.75	13.86	-41.2	-43.8	18.2	0.00e+00	0	42	0	281018368	54	4730
2026-01-26 07:46:27.82	49.55	13.88	-41.3	-43.9	18.0	0.00e+00	0	42	0	283115520	54	4806
2026-01-26 07:46:28.81	49.35	13.89	-41.3	-43.9	18.0	0.00e+00	0	42	0	285212672	54	4802
2026-01-26 07:46:29.81	49.15	13.90	-41.4	-44.1	17.9	0.00e+00	0	42	0	286261248	54	4899
2026-01-26 07:46:30.80	48.95	13.92	-41.5	-44.2	17.9	0.00e+00	0	42	0	288358400	54	4939
2026-01-26 07:46:31.79	48.75	13.93	-41.5	-44.1	17.8	0.00e+00	0	42	0	290455552	54	4922
2026-01-26 07:46:32.79	48.54	13.94	-41.7	-44.5	17.5	0.00e+00	0	42	0	292552704	54	5104
2026-01-26 07:46:33.78	48.34	13.95	-41.8	-44.6	17.5	0.00e+00	0	42	0	294649856	54	5201
2026-01-26 07:46:34.78	48.14	13.97	-41.9	-44.7	17.3	0.00e+00	0	42	0	295698432	54	5248
2026-01-26 07:46:35.77	47.94	13.98	-41.9	-44.7	17.4	0.00e+00	0	42	0	297795584	54	5230
2026-01-26 07:46:36.76	47.73	13.99	-41.8	-44.6	17.4	0.00e+00	0	42	0	299892736	54	5188
2026-01-26 07:46:37.76	47.53	14.00	-41.8	-44.6	17.4	0.00e+00	0	42	0	301989888	54	5210
2026-01-26 07:46:38.75	47.33	14.01	-41.7	-44.4	17.6	0.00e+00	0	42	0	303038464	54	5099
2026-01-26 07:46:39.74	47.13	14.02	-41.7	-44.5	17.5	0.00e+00	0	42	0	305135616	54	5138
2026-01-26 07:46:40.74	46.92	14.03	-41.6	-44.3	17.6	0.00e+00	0	42	0	307232768	54	5038
2026-01-26 07:46:41.74	46.72	14.04	-41.7	-44.4	17.6	0.00e+00	0	42	0	309329920	54	5078
2026-01-26 07:46:42.73	46.51	14.05	-41.6	-44.4	17.6	0.00e+00	0	42	0	311427072	54	5043
2026-01-26 07:46:43.73	46.31	14.05	-41.4	-44.0	18.0	0.00e+00	0	42	0	312475648	54	4860
2026-01-26 07:46:44.72	46.11	14.06	-41.3	-43.9	18.1	0.00e+00	0	42	0	314572800	54	4784
2026-01-26 07:46:45.72	45.90	14.07	-41.2	-43.8	18.2	0.00e+00	0	42	0	316669952	54	4740
2026-01-26 07:46:46.71	45.70	14.08	-41.2	-43.8	18.1	0.00e+00	0	42	0	318767104	54	4744
2026-01-26 07:46:47.70	45.50	14.08	-41.4	-44.0	18.0	0.00e+00	0	42	0	319815680	54	4848
2026-01-26 07:46:48.70	45.29	14.09	-41.4	-44.1	17.9	0.00e+00	0	42	0	321912832	54	4893
2026-01-26 07:46:49.69	45.09	14.10	-41.5	-44.1	17.9	0.00e+00	0	42	0	324009984	54	4900
2026-01-26 07:46:50.69	44.88	14.10	-41.4	-44.0	18.0	0.00e+00	0	42	0	326107136	54	4840
2026-01-26 07:46:51.69	44.68	14.11	-41.5	-44.1	17.9	0.00e+00	0	42	0	328204288	54	4909
2026-01-26 07:46:52.68	44.47	14.11	-41.5	-44.2	17.9	0.00e+00	0	42	0	329252864	54	4929
2026-01-26 07:46:53.67	44.27	14.12	-41.5	-44.2	17.8	0.00e+00	0	42	0	331350016	54	4972
2026-01-26 07:46:54.67	44.06	14.12	-41.6	-44.3	17.7	0.00e+00	0	42	0	333447168	54	4992
2026-01-26 07:46:55.67	43.86	14.13	-41.6	-44.3	17.7	0.00e+00	0	42	0	335544320	54	5034
2026-01-26 07:46:56.66	43.65	14.13	-41.5	-44.2	17.9	0.00e+00	0	42	0	336592896	54	4930
2026-01-26 07:46:57.65	43.45	14.13	-41.4	-44.0	18.0	0.00e+00	0	42	0	338690048	54	4833
2026-01-26 07:46:58.65	43.24	14.14	-41.2	-43.8	18.2	0.00e+00	0	42	0	340787200	54	4706
2026-01-26 07:46:59.64	43.04	14.14	-41.0	-43.5	18.5	0.00e+00	0	42	0	342884352	54	4561
2026-01-26 07:47:00.62	42.84	14.14	-40.9	-43.4	18.6	0.00e+00	0	42	0	343932928	53	4781
2026-01-26 07:47:01.62	42.63	14.14	-40.9	-43.4	18.5	0.00e+00	0	42	0	346030080	53	4772
2026-01-26 07:47:02.61	42.43	14.15	-41.0	-43.5	18.4	0.00e+00	0	42	0	348127232	53	4867
2026-01-26 07:47:03.60	42.22	14.15	-41.2	-43.7	18.2	0.00e+00	0	42	0	350224384	53	4967
2026-01-26 07:47:04.60	42.02	14.15	-41.3	-43.9	18.0	0.00e+00	0	42	0	352321536	53	5075
2026-01-26 07:47:05.59	41.81	14.15	-41.4	-44.1	17.9	0.00e+00	0	42	0	353370112	53	5172
2026-01-26 07:47:06.58	41.61	14.15	-41.5	-44.2	17.7	0.00e+00	0	42	0	355467264	53	5279
2026-01-26 07:47:07.58	41.40	14.15	-41.5	-44.1	17.8	0.00e+00	0	42	0	357564416	53	5215
2026-01-26 07:47:08.57	41.20	14.15	-41.6	-44.3	17.7	0.00e+00	0	42	0	359661568	53	5298
2026-01-26 07:47:09.57	40.99	14.15	-41.7	-44.5	17.5	0.00e+00	0	42	0	360710144	54	5149
2026-01-26 07:47:10.56	40.79	14.14	-41.8	-44.6	17.4	0.00e+00	0	42	0	362807296	54	5185
2026-01-26 07:47:11.56	40.58	14.14	-42.0	-44.9	17.2	0.00e+00	0	42	0	364904448	54	5369
2026-01-26 07:47:12.55	40.38	14.14	-41.9	-44.8	17.2	0.00e+00	0	42	0	367001600	54	5289
2026-01-26 07:47:13.55	40.17	14.14	-41.9	-44.7	17.3	0.00e+00	0	42	0	369098752	54	5246
2026-01-26 07:47:14.54	39.97	14.14	-42.0	-44.8	17.2	0.00e+00	0	42	0	370147328	54	5319
2026-01-26 07:47:15.54	39.76	14.13	-42.1	-45.0	17.0	0.00e+00	0	42	0	372244480	54	5429
2026-01-26 07:47:16.54	39.56	14.13	-42.2	-45.2	16.8	0.00e+00	0	42	0	374341632	55	5242
2026-01-26 07:47:17.53	39.36	14.13	-42.2	-45.1	16.9	0.00e+00	0	42	0	376438784	55	5212
2026-01-26 07:47:18.52	39.15	14.12	-42.1	-45.0	17.0	0.00e+00	0	42	0	377487360	55	5125
2026-01-26 07:47:19.52	38.95	14.12	-42.0	-44.9	17.1	0.00e+00	0	42	0	379584512	55	5085
2026-01-26 07:47:20.51	38.74	14.11	-41.9	-44.7	17.3	0.00e+00	0	42	0	381681664	55	4976
2026-01-26 07:47:21.51	38.54	14.11	-41.8	-44.6	17.4	0.00e+00	0	42	0	383778816	55	4887
2026-01-26 07:47:22.50	38.33	14.10	-41.6	-44.3	17.7	0.00e+00	0	42	0	385875968	55	4718
2026-01-26 07:47:23.50	38.13	14.09	-41.3	-43.9	18.1	0.00e+00	0	42	0	386924544	54	4795
2026-01-26 07:47:24.49	37.93	14.09	-41.3	-43.9	18.0	0.00e+00	0	42	0	389021696	54	4790
2026-01-26 07:47:25.49	37.72	14.08	-41.4	-44.1	17.9	0.00e+00	0	42	0	391118848	54	4878
2026-01-26 07:47:26.48	37.52	14.07	-41.4	-44.1	17.8	0.00e+00	0	42	0	393216000	54	4918
2026-01-26 07:47:27.48	37.31	14.07	-41.6	-44.3	17.6	0.00e+00	0	42	0	394264576	54	5024
2026-01-26 07:47:28.47	37.11	14.06	-41.7	-44.5	17.5	0.00e+00	0	42	0	396361728	54	5106
2026-01-26 07:47:29.46	36.91	14.05	-41.7	-44.5	17.5	0.00e+00	0	42	0	398458880	54	5145
2026-01-26 07:47:30.46	36.70	14.04	-41.7	-44.5	17.6	0.00e+00	0	42	0	400556032	54	5102
2026-01-26 07:47:31.46	36.50	14.03	-41.8	-44.6	17.4	0.00e+00	0	42	0	402653184	54	5186
2026-01-26 07:47:32.45	36.30	14.02	-41.8	-44.6	17.4	0.00e+00	0	42	0	403701760	54	5212
2026-01-26 07:47:33.44	36.09	14.01	-42.0	-44.8	17.2	0.00e+00	0	42	0	405798912	54	5328
2026-01-26 07:47:34.44	35.89	14.00	-41.7	-44.4	17.6	0.00e+00	0	42	0	407896064	54	5089
2026-01-26 07:47:35.43	35.69	13.99	-41.6	-44.4	17.7	0.00e+00	0	42	0	409993216	54	5044
2026-01-26 07:47:36.43	35.48	13.98	-41.5	-44.2	17.8	0.00e+00	0	42	0	412090368	54	4948
2026-01-26 07:47:37.43	35.28	13.97	-41.3	-44.0	18.0	0.00e+00	0	42	0	413138944	54	4828
2026-01-26 07:47:38.42	35.08	13.96	-41.4	-44.0	18.0	0.00e+00	0	43	0	415236096	54	4853
2026-01-26 07:47:39.41	34.88	13.95	-41.3	-43.9	18.1	0.00e+00	0	43	0	417333248	54	4799
2026-01-26 07:47:40.41	34.68	13.94	-41.4	-44.0	18.0	0.00e+00	0	42	0	419430400	54	4853
2026-01-26 07:47:41.41	34.47	13.92	-41.4	-44.1	18.0	0.00e+00	0	43	0	420478976	54	4872
2026-01-26 07:47:42.40	34.27	13.91	-41.5	-44.2	17.9	0.00e+00	0	42	0	422576128	54	4951
2026-01-26 07:47:43.40	34.07	13.90	-41.5	-44.1	17.9	0.00e+00	0	42	0	424673280	54	4896
2026-01-26 07:47:44.39	33.87	13.88	-41.4	-44.1	18.0	0.00e+00	0	42	0	426770432	54	4884
2026-01-26 07:47:45.38	33.67	13.87	-41.6	-44.2	17.8	0.00e+00	0	42	0	428867584	54	4960
2026-01-26 07:47:46.38	33.47	13.86	-41.5	-44.2	17.7	0.00e+00	0	43	0	429916160	54	4952
2026-01-26 07:47:47.38	33.27	13.84	-41.8	-44.5	17.5	0.00e+00	0	42	0	432013312	54	5140
2026-01-26 07:47:48.37	33.07	13.83	-41.8	-44.6	17.5	0.00e+00	0	42	0	434110464	54	5166
2026-01-26 07:47:49.36	32.87	13.81	-41.9	-44.7	17.4	0.00e+00	0	42	0	436207616	54	5243
2026-01-26 07:47:50.36	32.67	13.80	-41.9	-44.7	17.4	0.00e+00	0	42	0	437256192	54	5230
2026-01-26 07:47:51.35	32.47	13.78	-41.8	-44.6	17.4	0.00e+00	0	42	0	439353344	54	5193
2026-01-26 07:47:52.35	32.27	13.76	-41.8	-44.6	17.5	0.00e+00	0	42	0	441450496	54	5185
2026-01-26 07:47:53.34	32.07	13.75	-41.8	-44.7	17.3	0.00e+00	0	42	0	443547648	54	5253
2026-01-26 07:47:54.33	31.87	13.73	-41.9	-44.8	17.3	0.00e+00	0	43	0	445644800	54	5313
2026-01-26 07:47:55.33	31.67	13.71	-41.8	-44.6	17.5	0.00e+00	0	42	0	446693376	54	5184
2026-01-26 07:47:56.32	31.47	13.70	-42.0	-44.8	17.2	0.00e+00	0	43	0	448790528	54	5339
2026-01-26 07:47:57.32	31.27	13.68	-42.0	-44.8	17.3	0.00e+00	0	43	0	450887680	54	5312
2026-01-26 07:47:58.31	31.07	13.66	-41.7	-44.5	17.6	0.00e+00	0	43	0	452984832	54	5112
2026-01-26 07:47:59.31	30.88	13.64	-41.7	-44.5	17.6	0.00e+00	0	43	0	454033408	54	5102
2026-01-26 07:48:00.30	30.68	13.62	-41.3	-43.8	18.2	0.00e+00	0	42	0	456130560	54	4753
2026-01-26 07:48:01.30	30.48	13.60	-41.4	-43.9	18.1	0.00e+00	0	42	0	458227712	54	4809
2026-01-26 07:48:02.29	30.28	13.59	-41.3	-43.9	18.1	0.00e+00	0	43	0	460324864	54	4788
2026-01-26 07:48:03.29	30.09	13.57	-41.2	-43.8	18.2	0.00e+00	0	42	0	462422016	54	4726
2026-01-26 07:48:04.29	29.89	13.55	-41.3	-43.9	18.1	0.00e+00	0	42	0	463470592	54	4769
2026-01-26 07:48:05.28	29.69	13.52	-41.2	-43.8	18.2	0.00e+00	0	42	0	465567744	54	4720
2026-01-26 07:48:06.28	29.50	13.50	-41.1	-43.7	18.3	0.00e+00	0	42	0	467664896	54	4668
2026-01-26 07:48:07.27	29.30	13.48	-41.1	-43.6	18.4	0.00e+00	0	42	0	469762048	54	4621
2026-01-26 07:48:08.26	29.11	13.46	-41.0	-43.5	18.5	0.00e+00	0	42	0	470810624	53	4829
2026-01-26 07:48:09.26	28.91	13.44	-41.0	-43.6	18.4	0.00e+00	0	42	0	472907776	53	4880
2026-01-26 07:48:10.26	28.71	13.42	-41.0	-43.6	18.3	0.00e+00	0	42	0	475004928	53	4912
2026-01-26 07:48:11.25	28.52	13.40	-41.1	-43.7	18.2	0.00e+00	0	42	0	477102080	53	4980
2026-01-26 07:48:12.25	28.32	13.37	-41.2	-43.9	18.0	0.00e+00	0	42	0	479199232	53	5093
2026-01-26 07:48:13.24	28.13	13.35	-41.2	-43.8	18.1	0.00e+00	0	42	0	480247808	53	5036
2026-01-26 07:48:14.24	27.94	13.33	-41.6	-44.4	17.6	0.00e+00	0	42	0	482344960	53	5364
2026-01-26 07:48:15.23	27.74	13.30	-41.6	-44.4	17.6	0.00e+00	0	42	0	484442112	53	5368
2026-01-26 07:48:16.23	27.55	13.28	-41.6	-44.4	17.7	0.00e+00	0	42	0	486539264	53	5346
2026-01-26 07:48:17.22	27.36	13.26	-41.6	-44.4	17.6	0.00e+00	0	42	0	487587840	53	5398
2026-01-26 07:48:18.22	27.17	13.23	-41.7	-44.5	17.6	0.00e+00	0	42	0	489684992	54	5130
2026-01-26 07:48:19.21	26.97	13.21	-41.7	-44.5	17.5	0.00e+00	0	42	0	491782144	54	5148
2026-01-26 07:48:20.21	26.78	13.18	-41.8	-44.7	17.4	0.00e+00	0	42	0	493879296	54	5222
2026-01-26 07:48:21.20	26.59	13.16	-41.7	-44.5	17.6	0.00e+00	0	42	0	495976448	54	5129
2026-01-26 07:48:22.20	26.40	13.13	-41.7	-44.6	17.5	0.00e+00	0	42	0	497025024	54	5172
2026-01-26 07:48:23.19	26.21	13.11	-41.6	-44.4	17.6	0.00e+00	0	42	0	499122176	54	5086
2026-01-26 07:48:24.19	26.02	13.08	-41.8	-44.7	17.4	0.00e+00	0	42	0	501219328	54	5248
2026-01-26 07:48:25.18	25.83	13.05	-41.6	-44.6	17.6	0.00e+00	0	42	0	503316480	54	5160
2026-01-26 07:48:26.17	25.64	13.03	-41.4	-44.3	17.8	0.00e+00	0	42	0	505413632	54	5009
2026-01-26 07:48:27.17	25.45	13.00	-41.6	-44.6	17.5	0.00e+00	0	42	0	506462208	54	5162
2026-01-26 07:48:28.16	25.26	12.97	-41.5	-44.4	17.6	0.00e+00	0	42	0	508559360	54	5072
2026-01-26 07:48:29.16	25.07	12.94	-41.4	-44.2	17.8	0.00e+00	0	42	0	510656512	54	4962
2026-01-26 07:48:30.15	24.88	12.92	-41.3	-44.1	18.0	0.00e+00	0	42	0	512753664	54	4903
2026-01-26 07:48:31.15	24.69	12.89	-41.3	-44.0	18.0	0.00e+00	0	43	0	513802240	54	4854
2026-01-26 07:48:32.14	24.51	12.86	-41.4	-44.1	18.0	0.00e+00	0	42	0	515899392	54	4886
2026-01-26 07:48:33.14	24.32	12.83	-41.2	-43.8	18.2	0.00e+00	0	42	0	517996544	54	4748
2026-01-26 07:48:34.13	24.13	12.80	-41.2	-43.9	18.1	0.00e+00	0	42	0	520093696	54	4766
2026-01-26 07:48:35.13	23.95	12.77	-41.2	-43.8	18.2	0.00e+00	0	42	0	522190848	54	4753
2026-01-26 07:48:36.13	23.76	12.74	-41.3	-43.9	18.0	0.00e+00	0	42	0	523239424	54	4813
2026-01-26 07:48:37.12	23.57	12.71	-41.3	-43.9	18.2	0.00e+00	0	42	0	525336576	54	4774
2026-01-26 07:48:38.12	23.39	12.68	-41.2	-43.8	18.2	0.00e+00	0	42	0	527433728	54	4730
2026-01-26 07:48:39.11	23.20	12.65	-41.2	-43.8	18.2	0.00e+00	0	42	0	529530880	54	4740
2026-01-26 07:48:40.11	23.02	12.62	-41.3	-43.9	18.1	0.00e+00	0	42	0	530579456	54	4806
2026-01-26 07:48:41.11	22.83	12.59	-41.2	-43.8	18.3	0.00e+00	0	42	0	532676608	54	4723
2026-01-26 07:48:42.10	22.65	12.56	-41.1	-43.6	18.4	0.00e+00	0	42	0	534773760	54	4646
2026-01-26 07:48:43.10	22.47	12.53	-40.9	-43.4	18.6	0.00e+00	0	42	0	536870912	53	4790
2026-01-26 07:48:44.09	22.28	12.50	-40.8	-43.3	18.7	0.00e+00	0	42	0	538968064	53	4736
2026-01-26 07:48:45.09	22.10	12.47	-40.7	-43.3	18.7	0.00e+00	0	42	0	540016640	53	4714
2026-01-26 07:48:46.08	21.92	12.44	-40.8	-43.4	18.6	0.00e+00	0	42	0	542113792	53	4783
2026-01-26 07:48:47.08	21.74	12.40	-40.8	-43.4	18.5	0.00e+00	0	43	0	544210944	53	4811
2026-01-26 07:48:48.07	21.56	12.37	-40.9	-43.6	18.4	0.00e+00	0	42	0	546308096	53	4906
2026-01-26 07:48:49.07	21.37	12.34	-41.0	-43.8	18.2	0.00e+00	0	43	0	547356672	53	4987
2026-01-26 07:48:50.06	21.19	12.31	-41.2	-44.1	18.0	0.00e+00	0	43	0	549453824	53	5167
2026-01-26 07:48:51.05	21.02	12.27	-41.2	-44.2	17.9	0.00e+00	0	42	0	551550976	53	5227
2026-01-26 07:48:52.05	20.83	12.24	-41.3	-44.3	17.8	0.00e+00	0	42	0	553648128	53	5292
2026-01-26 07:48:53.04	20.66	12.21	-41.3	-44.5	17.3	0.00e+00	0	42	0	555745280	53	5419
2026-01-26 07:48:54.04	20.48	12.17	-41.4	-44.6	17.5	0.00e+00	0	42	0	556793856	53	5482
2026-01-26 07:48:55.03	20.30	12.14	-41.5	-44.7	17.3	0.00e+00	0	42	0	558891008	53	5566
2026-01-26 07:48:56.03	20.12	12.10	-41.8	-45.1	17.0	0.00e+00	0	42	0	560988160	54	5479
2026-01-26 07:48:57.02	19.94	12.07	-41.9	-45.1	16.9	0.00e+00	0	42	0	563085312	54	5528
2026-01-26 07:48:58.02	19.76	12.04	-41.9	-45.1	17.0	0.00e+00	0	42	0	564133888	54	5502
2026-01-26 07:48:59.01	19.59	12.00	-42.1	-45.2	16.9	0.00e+00	0	42	0	566231040	54	5560
2026-01-26 07:49:00.01	19.41	11.97	-42.1	-45.2	16.9	0.00e+00	0	42	0	568328192	54	5549
2026-01-26 07:49:01.00	19.24	11.93	-41.9	-44.8	17.2	0.00e+00	0	42	0	570425344	54	5339
2026-01-26 07:49:01.99	19.06	11.89	-42.1	-45.1	17.0	0.00e+00	0	42	0	572522496	54	5488
2026-01-26 07:49:02.99	18.89	11.86	-42.1	-45.0	17.1	0.00e+00	0	43	0	573571072	54	5430
2026-01-26 07:49:03.98	18.71	11.82	-42.1	-45.0	17.1	0.00e+00	0	42	0	575668224	55	5137
2026-01-26 07:49:04.98	18.54	11.79	-42.1	-44.9	17.1	0.00e+00	0	42	0	577765376	55	5096
2026-01-26 07:49:05.97	18.36	11.75	-42.2	-45.1	17.0	0.00e+00	0	43	0	579862528	55	5164
2026-01-26 07:49:06.97	18.19	11.71	-42.1	-45.0	17.1	0.00e+00	0	43	0	580911104	55	5123
2026-01-26 07:49:07.96	18.02	11.68	-42.1	-45.0	17.1	0.00e+00	0	42	0	583008256	55	5121
2026-01-26 07:49:08.96	17.84	11.64	-42.3	-45.2	16.9	0.00e+00	0	43	0	585105408	55	5246
2026-01-26 07:49:09.95	17.67	11.60	-42.2	-45.1	17.0	0.00e+00	0	43	0	587202560	55	5180
2026-01-26 07:49:10.95	17.50	11.57	-42.1	-45.1	16.9	0.00e+00	0	43	0	589299712	55	5205
2026-01-26 07:49:11.94	17.33	11.53	-42.1	-45.1	16.9	0.00e+00	0	42	0	590348288	55	5213
2026-01-26 07:49:12.94	17.16	11.49	-41.9	-44.9	17.2	0.00e+00	0	42	0	592445440	55	5072
2026-01-26 07:49:13.93	16.99	11.45	-41.9	-45.1	17.0	0.00e+00	0	42	0	594542592	55	5195
2026-01-26 07:49:14.93	16.82	11.41	-41.9	-45.1	16.9	0.00e+00	0	42	0	596639744	55	5202
2026-01-26 07:49:15.93	16.65	11.38	-42.1	-45.5	16.5	0.00e+00	0	42	0	597688320	55	5460
2026-01-26 07:49:16.92	16.48	11.34	-42.0	-45.5	16.5	0.00e+00	0	42	0	599785472	55	5439
2026-01-26 07:49:17.92	16.31	11.30	-42.2	-45.8	16.3	0.00e+00	0	42	0	601882624	55	5624
2026-01-26 07:49:18.91	16.14	11.26	-42.2	-45.9	16.2	0.00e+00	0	42	0	603979776	55	5667
2026-01-26 07:49:19.91	15.98	11.22	-42.2	-45.8	16.3	0.00e+00	0	42	0	606076928	55	5642
2026-01-26 07:49:20.90	15.81	11.18	-42.0	-45.5	16.6	0.00e+00	0	42	0	607125504	55	5421
2026-01-26 07:49:21.90	15.64	11.14	-41.6	-44.9	17.1	0.00e+00	0	42	0	609222656	55	5094
2026-01-26 07:49:22.89	15.48	11.10	-41.5	-44.7	17.3	0.00e+00	0	43	0	611319808	55	4974
2026-01-26 07:49:23.89	15.31	11.06	-41.4	-44.5	17.5	0.00e+00	0	42	0	613416960	54	5123
2026-01-26 07:49:24.88	15.15	11.02	-41.7	-44.9	17.2	0.00e+00	0	43	0	614465536	54	5376
2026-01-26 07:49:25.88	14.98	10.98	-41.8	-45.0	17.1	0.00e+00	0	42	0	616562688	54	5420
2026-01-26 07:49:26.87	14.82	10.94	-41.9	-45.1	17.0	0.00e+00	0	42	0	618659840	54	5502
2026-01-26 07:49:27.87	14.65	10.90	-42.1	-45.4	16.6	0.00e+00	0	42	0	620756992	54	5684
2026-01-26 07:49:28.86	14.49	10.86	-42.2	-45.7	16.3	0.00e+00	0	42	0	622854144	55	5563
2026-01-26 07:49:29.86	14.33	10.82	-42.6	-46.2	15.9	0.00e+00	0	42	0	623902720	55	5863
2026-01-26 07:49:30.85	14.17	10.78	-42.9	-46.6	15.6	0.00e+00	0	42	0	625999872	56	5823
2026-01-26 07:49:31.85	14.00	10.74	-43.2	-46.9	15.3	0.00e+00	0	42	0	628097024	57	5696
2026-01-26 07:49:32.84	13.84	10.70	-43.1	-46.6	15.6	0.00e+00	0	43	0	630194176	57	5528
2026-01-26 07:49:33.84	13.68	10.66	-43.2	-46.7	15.4	0.00e+00	0	42	0	631242752	57	5591
2026-01-26 07:49:34.83	13.52	10.62	-43.0	-46.5	15.7	0.00e+00	0	42	0	633339904	57	5417
2026-01-26 07:49:35.83	13.36	10.57	-43.1	-46.6	15.6	0.00e+00	0	42	0	635437056	57	5473
2026-01-26 07:49:36.82	13.20	10.53	-42.8	-46.2	16.0	0.00e+00	0	42	0	637534208	57	5252
2026-01-26 07:49:37.82	13.04	10.49	-42.8	-46.2	16.0	0.00e+00	0	42	0	639631360	57	5231
2026-01-26 07:49:38.81	12.88	10.45	-42.9	-46.2	16.0	0.00e+00	0	42	0	640679936	57	5253
2026-01-26 07:49:39.81	12.72	10.41	-42.9	-46.2	16.0	0.00e+00	0	43	0	642777088	57	5227
2026-01-26 07:49:40.80	12.57	10.36	-43.0	-46.5	15.8	0.00e+00	0	42	0	644874240	57	5435
2026-01-26 07:49:41.80	12.41	10.32	-43.2	-46.8	15.4	0.00e+00	0	42	0	646971392	57	5655
2026-01-26 07:49:42.79	12.25	10.28	-43.3	-47.2	15.0	0.00e+00	0	42	0	648019968	57	5890
2026-01-26 07:49:43.78	12.10	10.24	-43.6	-48.1	14.2	7.00e-07	0	42	0	650117120	57	6506
2026-01-26 07:49:44.78	11.94	10.19	-43.9	-48.8	13.5	5.30e-06	0	42	0	652214272	58	6650
2026-01-26 07:49:45.78	11.78	10.15	-44.0	-49.4	12.9	3.05e-05	0	42	0	654311424	58	7130
2026-01-26 07:49:46.77	11.63	10.11	-43.9	-49.2	13.0	4.88e-05	0	42	0	656408576	58	6994
2026-01-26 07:49:47.76	11.48	10.06	-44.0	-49.6	12.6	5.26e-05	0	43	0	657457152	58	7326
2026-01-26 07:49:48.76	11.32	10.02	-43.8	-49.2	13.0	7.09e-05	0	42	0	659554304	58	7022
2026-01-26 07:49:49.76	11.17	9.98	-43.6	-48.8	13.4	3.12e-05	0	42	0	661651456	58	6664
2026-01-26 07:49:50.75	11.01	9.93	-43.4	-48.4	13.8	4.50e-06	0	42	0	663748608	58	6391
2026-01-26 07:49:51.74	10.86	9.89	-43.4	-48.4	13.8	3.80e-06	0	42	0	664797184	58	6375
2026-01-26 07:49:52.74	10.71	9.85	-43.2	-48.2	14.1	7.60e-06	0	43	0	666894336	58	6219
2026-01-26 07:49:53.74	10.56	9.80	-43.2	-48.4	13.7	4.50e-06	0	43	0	668991488	58	6399
2026-01-26 07:49:54.73	10.41	9.76	-43.0	-48.4	13.8	6.80e-06	0	43	0	671088640	58	6375
2026-01-26 07:49:55.73	10.25	9.71	-42.8	-48.2	13.9	7.00e-07	0	43	0	673185792	57	6642
2026-01-26 07:49:56.72	10.11	9.67	-42.7	-48.2	14.0	3.80e-06	0	42	0	674234368	57	6592
2026-01-26 07:49:57.71	9.96	9.63	-42.5	-47.9	14.2	2.20e-06	0	43	0	676331520	57	6360
2026-01-26 07:49:58.71	9.81	9.58	-42.3	-47.6	14.6	1.50e-06	0	43	0	678428672	56	6541
2026-01-26 07:49:59.70	9.66	9.54	-42.2	-47.3	14.9	0.00e+00	0	42	0	680525824	56	6288
2026-01-26 07:50:00.70	9.51	9.49	-42.2	-47.2	15.0	0.00e+00	0	43	0	682622976	56	6217
2026-01-26 07:50:01.69	9.36	9.45	-42.1	-47.0	15.2	0.00e+00	0	43	0	683671552	56	6091
2026-01-26 07:50:02.69	9.21	9.40	-42.2	-47.0	15.2	0.00e+00	0	43	0	685768704	56	6081
2026-01-26 07:50:03.68	9.07	9.36	-42.3	-47.1	15.1	0.00e+00	0	42	0	687865856	56	6135
2026-01-26 07:50:04.68	8.92	9.31	-42.4	-47.0	15.1	0.00e+00	0	43	0	689963008	56	6131
2026-01-26 07:50:05.67	8.77	9.27	-42.5	-47.0	15.2	0.00e+00	0	42	0	691011584	56	6063
2026-01-26 07:50:06.67	8.63	9.22	-42.5	-46.8	15.3	0.00e+00	0	42	0	693108736	56	5958
2026-01-26 07:50:07.66	8.48	9.18	-42.6	-46.7	15.4	0.00e+00	0	42	0	695205888	56	5921
2026-01-26 07:50:08.66	8.34	9.13	-42.6	-46.7	15.4	0.00e+00	0	42	0	697303040	56	5914
2026-01-26 07:50:09.65	8.19	9.09	-42.6	-46.5	15.7	0.00e+00	0	42	0	699400192	56	5757
2026-01-26 07:50:10.65	8.05	9.04	-42.6	-46.5	15.7	0.00e+00	0	42	0	700448768	56	5754
2026-01-26 07:50:11.64	7.91	8.99	-43.8	-48.5	14.0	0.00e+00	0	42	0	702545920	58	6458
2026-01-26 07:50:12.64	7.76	8.95	-46.3	-63.6	3.8	1.49e+00	0	42	104	703594496	63	27466
2026-01-26 07:50:13.63	7.62	8.90	-46.8	-63.6	3.8	1.49e+00	0	43	104	703594496	65	24591
2026-01-26 07:50:14.62	7.48	8.86	-47.2	-63.9	3.8	1.49e+00	0	43	104	703594496	66	23867
2026-01-26 07:50:15.61	7.34	8.81	-48.1	-63.9	3.8	1.49e+00	0	43	104	703594496	66	23966
2026-01-26 07:50:16.61	7.20	8.76	-48.6	-64.2	3.8	1.49e+00	0	43	104	703594496	68	22034
2026-01-26 07:50:17.60	7.06	8.72	-48.3	-64.2	3.8	1.49e+00	0	42	104	703594496	68	22137
2026-01-26 07:50:18.59	6.92	8.67	-48.5	-64.2	3.8	1.49e+00	0	42	104	703594496	68	22180
2026-01-26 07:50:19.59	6.78	8.62	-48.8	-64.3	3.8	1.49e+00	0	42	104	703594496	68	22332
2026-01-26 07:50:20.58	6.64	8.58	-48.9	-64.3	3.8	1.49e+00	0	43	104	703594496	68	22344
2026-01-26 07:50:21.57	6.50	8.53	-48.7	-64.3	3.8	1.49e+00	0	42	104	703594496	68	22481
2026-01-26 07:50:22.57	6.36	8.49	-48.9	-64.3	3.8	1.49e+00	0	42	104	703594496	68	22504
2026-01-26 07:50:23.56	6.23	8.44	-49.1	-64.4	3.8	1.49e+00	0	43	104	703594496	68	22587
2026-01-26 07:50:24.55	6.09	8.39	-49.2	-64.3	3.8	1.49e+00	0	42	104	703594496	69	21240
2026-01-26 07:50:25.55	5.95	8.35	-49.1	-64.4	3.8	1.49e+00	0	42	104	703594496	69	21324
2026-01-26 07:50:26.54	5.82	8.30	-48.8	-64.4	3.8	1.49e+00	0	43	104	703594496	69	21277
2026-01-26 07:50:27.53	5.68	8.25	-49.0	-64.4	3.8	1.49e+00	0	42	104	703594496	69	21284
2026-01-26 07:50:28.53	5.54	8.20	-49.0	-64.4	3.8	1.49e+00	0	42	104	703594496	69	21277
2026-01-26 07:50:29.52	5.41	8.16	-49.0	-64.3	3.8	1.49e+00	0	42	104	703594496	69	21176
2026-01-26 07:50:30.51	5.28	8.11	-49.1	-64.4	3.8	1.49e+00	0	42	104	703594496	69	21314
2026-01-26 07:50:31.50	5.14	8.06	-49.1	-64.4	3.8	1.49e+00	0	42	104	703594496	69	21314
2026-01-26 07:50:32.50	5.01	8.02	-49.0	-64.3	3.8	1.49e+00	0	42	104	703594496	69	21251
2026-01-26 07:50:33.49	4.87	7.97	-49.1	-64.3	3.8	1.49e+00	0	42	104	703594496	69	21236
2026-01-26 07:50:34.48	4.74	7.92	-49.1	-64.3	3.8	1.49e+00	0	43	104	703594496	69	21164
2026-01-26 07:50:35.48	4.61	7.87	-49.0	-64.3	3.8	1.49e+00	0	42	104	703594496	69	21071
2026-01-26 07:50:36.47	4.48	7.83	-49.0	-64.3	3.8	1.49e+00	0	43	104	703594496	69	21117
2026-01-26 07:50:37.46	4.35	7.78	-48.8	-64.3	3.8	1.49e+00	0	42	104	703594496	69	21160
2026-01-26 07:50:38.45	4.22	7.73	-49.0	-64.3	3.8	1.49e+00	0	42	104	703594496	69	21145
2026-01-26 07:50:39.45	4.09	7.68	-48.9	-64.3	3.8	1.49e+00	0	43	104	703594496	69	21099
2026-01-26 07:50:40.44	3.96	7.64	-48.9	-64.2	3.8	1.49e+00	0	43	104	703594496	69	21006
2026-01-26 07:50:41.43	3.83	7.59	-48.8	-64.2	3.8	1.49e+00	0	42	104	703594496	69	20996
2026-01-26 07:50:42.43	3.70	7.54	-48.8	-64.2	3.8	1.49e+00	0	42	104	703594496	69	20963
2026-01-26 07:50:43.42	3.57	7.49	-48.8	-64.2	3.8	1.49e+00	0	43	104	703594496	69	20966
2026-01-26 07:50:44.41	3.44	7.45	-48.8	-64.2	3.8	1.49e+00	0	42	104	703594496	69	20977
2026-01-26 07:50:45.41	3.31	7.40	-48.8	-64.2	3.8	1.49e+00	0	43	104	703594496	69	20962
2026-01-26 07:50:46.40	3.18	7.35	-48.8	-64.2	3.8	1.49e+00	0	42	104	703594496	69	20930
2026-01-26 07:50:47.39	3.06	7.30	-48.8	-64.2	3.8	1.49e+00	0	42	104	703594496	69	20909
2026-01-26 07:50:48.39	2.93	7.25	-48.8	-64.2	3.8	1.49e+00	0	42	104	703594496	69	20847
2026-01-26 07:50:49.38	2.80	7.21	-48.8	-64.2	3.8	1.49e+00	0	42	104	703594496	69	20841
2026-01-26 07:50:50.37	2.68	7.16	-48.8	-64.1	3.8	1.49e+00	0	43	104	703594496	69	20772
2026-01-26 07:50:51.36	2.55	7.11	-48.8	-64.2	3.8	1.49e+00	0	43	104	703594496	69	20908
2026-01-26 07:50:52.36	2.43	7.06	-48.8	-64.2	3.8	1.49e+00	0	43	104	703594496	69	20872
2026-01-26 07:50:53.35	2.30	7.01	-48.8	-64.1	3.8	1.49e+00	0	43	104	703594496	69	20747
2026-01-26 07:50:54.34	2.18	6.96	-48.8	-64.2	3.8	1.49e+00	0	43	104	703594496	69	20879
2026-01-26 07:50:55.34	2.06	6.92	-48.8	-64.1	3.8	1.49e+00	0	42	104	703594496	69	20775
2026-01-26 07:50:56.33	1.93	6.87	-48.8	-64.1	3.8	1.49e+00	0	42	104	703594496	69	20746
2026-01-26 07:50:57.32	1.81	6.82	-48.7	-64.1	3.8	1.49e+00	0	42	104	703594496	69	2070
