passes_logs/2026/01/26/T1/T1__20260126_233048_NOAA_20_JPSS-1_rec.log

#Pass ID: 20260126_233048_NOAA 20 (JPSS-1)
#Satellite: NOAA 20 (JPSS-1)
#Configuration: NOAA 20
#almurnet v.1.7.20251203
#Start time: 2026-01-26 23:30:47

#Version: 2.0.20230620
#Station: T1
#Location: 37.570604 lon 55.790049 lat
#TLE: 1 43013U 17073A   26026.46665230  .00000148  00000+0  91302-4 0  9998
#TLE: 2 43013  98.7646 327.2856 0001008  22.9532 337.1688 14.19540616424360

#Time	Az	El	Level	Level2	SNR	BER	BlckErr	Temp	State	Recorded	gain1	gain2
2026-01-26 23:30:47.77	17.57	4.96	-47.9	-64.3	3.8	1.49e+00	0	41	0	0	66	25240
2026-01-26 23:30:48.76	17.58	5.03	-47.9	-64.3	3.8	1.49e+00	0	41	104	0	66	25068
2026-01-26 23:30:49.76	17.59	5.10	-47.8	-64.2	3.8	1.49e+00	0	41	104	0	66	24971
2026-01-26 23:30:50.75	17.61	5.17	-47.8	-64.2	3.8	1.49e+00	0	41	104	0	66	24786
2026-01-26 23:30:51.74	17.62	5.24	-47.8	-64.2	3.8	1.49e+00	0	41	104	0	66	24771
2026-01-26 23:30:52.74	17.64	5.31	-47.8	-64.1	3.8	1.49e+00	0	41	104	0	66	24672
2026-01-26 23:30:53.73	17.65	5.38	-47.8	-64.1	3.8	1.49e+00	0	41	104	0	66	24572
2026-01-26 23:30:54.72	17.66	5.45	-47.8	-64.0	3.8	1.49e+00	0	41	104	0	66	24398
2026-01-26 23:30:55.72	17.68	5.52	-47.8	-64.1	3.8	1.49e+00	0	41	104	0	66	24418
2026-01-26 23:30:56.71	17.69	5.60	-47.8	-64.0	3.8	1.49e+00	0	41	104	0	66	24341
2026-01-26 23:30:57.70	17.70	5.67	-47.8	-64.1	3.8	1.49e+00	0	41	104	0	66	24516
2026-01-26 23:30:58.70	17.72	5.74	-47.9	-64.1	3.8	1.49e+00	0	41	104	0	66	24439
2026-01-26 23:30:59.69	17.73	5.81	-47.8	-64.1	3.8	1.49e+00	0	41	104	0	66	24550
2026-01-26 23:31:00.68	17.75	5.88	-47.8	-64.1	3.8	1.49e+00	0	41	104	0	66	24491
2026-01-26 23:31:01.68	17.76	5.96	-47.9	-64.2	3.8	1.49e+00	0	41	104	0	66	24697
2026-01-26 23:31:02.67	17.78	6.03	-47.8	-64.2	3.8	1.49e+00	0	42	104	0	66	24735
2026-01-26 23:31:03.66	17.79	6.10	-47.8	-64.2	3.8	1.49e+00	0	41	104	0	66	24901
2026-01-26 23:31:04.65	17.80	6.18	-47.8	-64.2	3.8	1.49e+00	0	41	104	0	66	24861
2026-01-26 23:31:05.65	17.82	6.25	-47.8	-64.2	3.8	1.49e+00	0	42	104	0	66	24881
2026-01-26 23:31:06.64	17.83	6.32	-47.8	-64.2	3.8	1.49e+00	0	41	104	0	66	24913
2026-01-26 23:31:07.63	17.85	6.40	-47.8	-64.2	3.8	1.49e+00	0	42	104	0	66	24743
2026-01-26 23:31:08.63	17.86	6.47	-47.8	-64.1	3.8	1.49e+00	0	41	104	0	66	24673
2026-01-26 23:31:09.62	17.88	6.55	-47.8	-64.1	3.8	1.49e+00	0	42	104	0	66	24517
2026-01-26 23:31:10.62	17.89	6.62	-47.8	-64.0	3.8	1.49e+00	0	42	104	0	66	24149
2026-01-26 23:31:11.61	17.91	6.70	-47.8	-63.9	3.8	1.49e+00	0	42	104	0	66	23874
2026-01-26 23:31:12.60	17.92	6.77	-47.8	-63.6	3.8	1.49e+00	0	42	104	0	66	23251
2026-01-26 23:31:13.60	17.94	6.85	-47.8	-63.4	3.8	1.49e+00	0	42	104	0	66	22618
2026-01-26 23:31:14.59	17.95	6.92	-47.7	-63.1	3.8	1.49e+00	0	42	104	0	66	21932
2026-01-26 23:31:15.58	17.97	7.00	-47.7	-62.8	3.8	1.49e+00	0	42	104	0	66	21254
2026-01-26 23:31:16.58	17.98	7.08	-47.7	-62.6	3.8	1.49e+00	0	42	104	0	66	20550
2026-01-26 23:31:17.57	18.00	7.15	-47.7	-62.3	3.8	1.49e+00	0	42	104	0	66	19895
2026-01-26 23:31:18.57	18.01	7.23	-47.7	-62.0	3.8	1.49e+00	0	42	104	0	66	19213
2026-01-26 23:31:19.56	18.03	7.30	-47.7	-61.8	3.9	1.48e+00	0	42	104	0	66	18749
2026-01-26 23:31:20.55	18.04	7.38	-47.7	-61.4	4.0	1.47e+00	0	42	104	0	66	18080
2026-01-26 23:31:21.55	18.06	7.46	-47.6	-61.3	4.1	1.45e+00	0	42	0	0	66	17781
2026-01-26 23:31:22.54	18.07	7.54	-47.6	-61.1	4.1	1.47e+00	0	42	0	0	66	17370
2026-01-26 23:31:23.53	18.09	7.61	-47.6	-61.0	4.1	1.42e+00	0	42	0	0	66	17149
2026-01-26 23:31:24.53	18.10	7.69	-47.6	-60.8	4.2	1.41e+00	0	42	0	0	66	16784
2026-01-26 23:31:25.52	18.12	7.77	-47.7	-60.6	4.2	1.38e+00	0	42	0	0	66	16466
2026-01-26 23:31:26.52	18.13	7.85	-47.6	-60.5	4.3	1.37e+00	0	42	0	0	66	16178
2026-01-26 23:31:27.51	18.15	7.93	-47.6	-60.2	4.4	1.34e+00	0	42	0	0	66	15582
2026-01-26 23:31:28.50	18.16	8.01	-47.6	-59.8	4.5	1.18e+00	0	42	0	2097152	66	15004
2026-01-26 23:31:29.50	18.18	8.09	-47.5	-59.3	4.7	9.79e-01	0	42	0	4194304	66	14204
2026-01-26 23:31:30.49	18.20	8.16	-47.5	-58.8	4.9	8.26e-01	0	42	0	6291456	66	13269
2026-01-26 23:31:31.48	18.21	8.24	-47.4	-58.3	5.2	6.15e-01	0	42	0	7340032	66	12527
2026-01-26 23:31:32.47	18.23	8.32	-47.3	-57.5	5.7	4.54e-01	0	43	0	9437184	66	11510
2026-01-26 23:31:33.47	18.24	8.40	-47.2	-56.7	6.3	3.22e-01	0	42	0	11534336	66	10525
2026-01-26 23:31:34.46	18.26	8.48	-47.1	-55.9	7.1	2.06e-01	0	42	0	13631488	66	9570
2026-01-26 23:31:35.45	18.28	8.56	-46.9	-55.1	7.8	9.54e-02	0	42	0	14680064	65	9242
2026-01-26 23:31:36.45	18.29	8.65	-46.7	-54.4	8.5	5.32e-02	0	42	0	16777216	65	8502
2026-01-26 23:31:37.44	18.31	8.73	-46.6	-53.7	9.2	2.65e-02	0	42	0	18874368	65	7872
2026-01-26 23:31:38.43	18.32	8.81	-46.4	-53.1	9.9	1.65e-02	0	43	0	20971520	64	7801
2026-01-26 23:31:39.43	18.34	8.89	-46.3	-52.8	10.1	7.06e-03	0	42	0	23068672	64	7522
2026-01-26 23:31:40.42	18.36	8.97	-46.2	-52.5	10.5	4.27e-03	0	42	0	24117248	64	7282
2026-01-26 23:31:41.41	18.37	9.05	-46.2	-52.6	10.5	3.33e-03	0	42	0	26214400	64	7291
2026-01-26 23:31:42.41	18.39	9.14	-46.9	-55.1	7.9	7.42e-03	0	43	0	28311552	64	9824
2026-01-26 23:31:43.41	18.41	9.22	-47.0	-55.5	7.0	9.37e-01	0	42	0	30408704	65	9655
2026-01-26 23:31:44.40	18.42	9.30	-44.4	-48.2	15.2	0.00e+00	0	42	0	31457280	60	5531
2026-01-26 23:31:45.39	18.44	9.39	-44.6	-48.5	14.6	3.28e-04	0	43	0	33554432	61	5405
2026-01-26 23:31:46.39	18.46	9.47	-44.7	-48.6	14.5	7.60e-06	0	43	0	35651584	61	5502
2026-01-26 23:31:47.38	18.47	9.55	-44.0	-47.4	15.9	0.00e+00	0	42	0	37748736	59	5341
2026-01-26 23:31:48.38	18.49	9.64	-43.9	-47.3	15.9	0.00e+00	0	43	0	39845888	59	5281
2026-01-26 23:31:49.37	18.51	9.72	-43.8	-47.2	16.0	0.00e+00	0	43	0	40894464	59	5227
2026-01-26 23:31:50.37	18.53	9.81	-44.0	-47.4	15.8	0.00e+00	0	42	0	42991616	59	5348
2026-01-26 23:31:51.42	18.54	9.90	-43.8	-47.0	16.2	0.00e+00	0	43	0	45088768	59	5127
2026-01-26 23:31:52.34	18.56	9.98	-43.6	-46.8	16.4	0.00e+00	0	43	0	47185920	59	5017
2026-01-26 23:31:53.48	18.58	10.07	-43.6	-46.8	16.4	0.00e+00	0	43	0	49283072	59	5003
2026-01-26 23:31:54.33	18.60	10.15	-43.8	-47.0	16.2	0.00e+00	0	43	0	50331648	59	5151
2026-01-26 23:31:55.69	18.62	10.27	-43.7	-46.9	16.3	0.00e+00	0	43	0	53477376	59	5072
2026-01-26 23:31:56.40	18.63	10.33	-43.5	-46.6	16.7	0.00e+00	0	43	0	54525952	59	4873
2026-01-26 23:31:57.68	18.65	10.44	-43.4	-46.4	16.8	0.00e+00	0	43	0	56623104	58	5090
2026-01-26 23:31:58.39	18.67	10.50	-43.3	-46.2	17.1	0.00e+00	0	43	0	57671680	58	4949
2026-01-26 23:31:59.67	18.69	10.61	-43.1	-46.0	17.3	0.00e+00	0	43	0	60817408	58	4815
2026-01-26 23:32:00.39	18.70	10.68	-43.0	-45.9	17.4	0.00e+00	0	43	0	61865984	58	4773
2026-01-26 23:32:01.68	18.73	10.79	-42.9	-45.8	17.5	0.00e+00	0	43	0	63963136	57	4985
2026-01-26 23:32:02.39	18.74	10.86	-42.9	-45.8	17.5	0.00e+00	0	43	0	66060288	57	4988
2026-01-26 23:32:03.67	18.76	10.97	-43.0	-45.8	17.5	0.00e+00	0	43	0	68157440	57	5003
2026-01-26 23:32:04.38	18.78	11.03	-42.9	-45.7	17.6	0.00e+00	0	43	0	69206016	57	4939
2026-01-26 23:32:05.66	18.80	11.15	-42.9	-45.6	17.6	0.00e+00	0	43	0	71303168	57	4891
2026-01-26 23:32:06.37	18.81	11.21	-42.9	-45.6	17.6	0.00e+00	0	43	0	73400320	57	4908
2026-01-26 23:32:07.65	18.84	11.33	-42.8	-45.5	17.7	0.00e+00	0	43	0	75497472	57	4866
2026-01-26 23:32:08.36	18.85	11.39	-42.8	-45.5	17.8	0.00e+00	0	43	0	76546048	57	4817
2026-01-26 23:32:09.64	18.87	11.51	-43.0	-45.7	17.6	0.00e+00	0	43	0	79691776	57	4938
2026-01-26 23:32:10.35	18.89	11.58	-43.0	-45.7	17.6	0.00e+00	0	43	0	80740352	57	4965
2026-01-26 23:32:11.63	18.91	11.69	-42.8	-45.5	17.8	0.00e+00	0	43	0	82837504	57	4821
2026-01-26 23:32:12.51	18.93	11.77	-42.7	-45.4	17.9	0.00e+00	0	43	0	84934656	57	4772
2026-01-26 23:32:13.65	18.95	11.88	-42.6	-45.2	18.1	0.00e+00	0	43	0	87031808	57	4693
2026-01-26 23:32:14.70	18.97	11.98	-42.6	-45.2	18.1	0.00e+00	0	43	0	89128960	57	4674
2026-01-26 23:32:15.77	18.99	12.08	-42.6	-45.3	18.1	0.00e+00	0	43	0	91226112	57	4708
2026-01-26 23:32:16.63	19.01	12.16	-42.5	-45.1	18.2	0.00e+00	0	43	0	92274688	57	4607
2026-01-26 23:32:17.76	19.03	12.27	-42.5	-45.2	18.1	0.00e+00	0	43	0	94371840	57	4666
2026-01-26 23:32:18.61	19.05	12.35	-42.5	-45.1	18.2	0.00e+00	0	43	0	96468992	57	4614
2026-01-26 23:32:19.75	19.07	12.45	-42.5	-45.1	18.2	0.00e+00	0	43	0	98566144	56	4905
2026-01-26 23:32:20.61	19.09	12.54	-42.5	-45.2	18.2	0.00e+00	0	43	0	99614720	56	4933
2026-01-26 23:32:21.74	19.11	12.64	-42.5	-45.1	18.2	0.00e+00	0	43	0	101711872	56	4889
2026-01-26 23:32:22.59	19.13	12.73	-42.5	-45.1	18.3	0.00e+00	0	43	0	103809024	56	4875
2026-01-26 23:32:23.73	19.15	12.84	-42.3	-44.9	18.4	0.00e+00	0	43	0	105906176	56	4810
2026-01-26 23:32:24.58	19.17	12.92	-42.4	-45.0	18.3	0.00e+00	0	43	0	106954752	56	4833
2026-01-26 23:32:25.72	19.19	13.03	-42.5	-45.1	18.2	0.00e+00	0	43	0	109051904	56	4894
2026-01-26 23:32:26.57	19.21	13.11	-42.4	-45.0	18.3	0.00e+00	0	43	0	111149056	56	4851
2026-01-26 23:32:27.71	19.23	13.22	-42.5	-45.1	18.2	0.00e+00	0	43	0	113246208	56	4918
2026-01-26 23:32:28.56	19.25	13.31	-42.4	-45.0	18.3	0.00e+00	0	43	0	114294784	56	4853
2026-01-26 23:32:29.70	19.27	13.42	-42.4	-45.0	18.3	0.00e+00	0	43	0	116391936	56	4839
2026-01-26 23:32:30.65	19.29	13.51	-42.4	-45.0	18.3	0.00e+00	0	43	0	118489088	56	4847
2026-01-26 23:32:31.83	19.32	13.63	-42.3	-44.9	18.4	0.00e+00	0	43	0	120586240	56	4782
2026-01-26 23:32:32.72	19.34	13.72	-42.3	-44.9	18.5	0.00e+00	0	43	0	122683392	56	4779
2026-01-26 23:32:33.86	19.36	13.83	-42.3	-45.0	18.4	0.00e+00	0	43	0	124780544	56	4826
2026-01-26 23:32:34.71	19.38	13.92	-42.2	-44.9	18.5	0.00e+00	0	43	0	125829120	56	4772
2026-01-26 23:32:35.85	19.41	14.04	-42.2	-44.9	18.5	0.00e+00	0	43	0	127926272	56	4775
2026-01-26 23:32:36.70	19.42	14.12	-42.2	-44.9	18.4	0.00e+00	0	43	0	130023424	56	4788
2026-01-26 23:32:37.84	19.45	14.24	-42.2	-44.9	18.5	0.00e+00	0	43	0	132120576	56	4789
2026-01-26 23:32:38.69	19.47	14.33	-42.2	-44.9	18.4	0.00e+00	0	43	0	133169152	56	4794
2026-01-26 23:32:39.88	19.49	14.45	-42.2	-44.8	18.5	0.00e+00	0	43	0	136314880	56	4756
2026-01-26 23:32:40.73	19.51	14.54	-42.2	-44.9	18.5	0.00e+00	0	43	0	137363456	56	4769
2026-01-26 23:32:41.87	19.54	14.65	-42.3	-45.0	18.4	0.00e+00	0	43	0	139460608	56	4830
2026-01-26 23:32:42.72	19.56	14.74	-42.3	-45.0	18.4	0.00e+00	0	43	0	141557760	56	4820
2026-01-26 23:32:43.86	19.58	14.86	-42.4	-45.0	18.3	0.00e+00	0	43	0	143654912	56	4863
2026-01-26 23:32:44.71	19.60	14.95	-42.4	-45.0	18.4	0.00e+00	0	43	0	144703488	56	4855
2026-01-26 23:32:45.85	19.63	15.07	-42.4	-45.1	18.3	0.00e+00	0	43	0	146800640	56	4890
2026-01-26 23:32:46.70	19.65	15.16	-42.3	-45.0	18.3	0.00e+00	0	43	0	148897792	56	4868
2026-01-26 23:32:47.84	19.67	15.28	-42.3	-45.0	18.4	0.00e+00	0	43	0	150994944	56	4831
2026-01-26 23:32:48.69	19.69	15.37	-42.5	-45.2	18.2	0.00e+00	0	43	0	152043520	56	4943
2026-01-26 23:32:49.83	19.72	15.50	-42.6	-45.4	18.0	0.00e+00	0	43	0	154140672	56	5059
2026-01-26 23:32:50.68	19.74	15.59	-42.5	-45.2	18.2	0.00e+00	0	43	0	156237824	56	4937
2026-01-26 23:32:51.82	19.77	15.71	-42.6	-45.3	18.1	0.00e+00	0	43	0	158334976	56	4987
2026-01-26 23:32:52.67	19.79	15.80	-42.6	-45.3	18.2	0.00e+00	0	43	0	159383552	56	4984
2026-01-26 23:32:53.81	19.81	15.93	-42.6	-45.3	18.1	0.00e+00	0	43	0	161480704	56	5025
2026-01-26 23:32:54.66	19.84	16.02	-42.7	-45.3	18.1	0.00e+00	0	43	0	163577856	56	5040
2026-01-26 23:32:55.80	19.86	16.15	-42.7	-45.3	18.1	0.00e+00	0	43	0	165675008	56	5040
2026-01-26 23:32:56.65	19.88	16.24	-42.8	-45.4	18.0	0.00e+00	0	43	0	167772160	56	5084
2026-01-26 23:32:57.78	19.91	16.37	-42.8	-45.5	17.9	0.00e+00	0	43	0	169869312	56	5136
2026-01-26 23:32:58.64	19.93	16.47	-42.8	-45.5	17.9	0.00e+00	0	43	0	170917888	56	5134
2026-01-26 23:33:00.00	19.97	16.62	-42.8	-45.5	18.0	0.00e+00	0	43	0	174063616	56	5120
2026-01-26 23:33:00.71	19.98	16.70	-42.9	-45.5	17.9	0.00e+00	0	43	0	175112192	56	5141
2026-01-26 23:33:01.99	20.02	16.84	-42.9	-45.5	17.9	0.00e+00	0	43	0	177209344	56	5157
2026-01-26 23:33:02.70	20.03	16.92	-42.9	-45.6	17.9	0.00e+00	0	43	0	178257920	56	5186
2026-01-26 23:33:03.98	20.07	17.07	-43.0	-45.6	17.8	0.00e+00	0	43	0	181403648	56	5212
2026-01-26 23:33:04.69	20.09	17.15	-43.0	-45.6	17.8	0.00e+00	0	43	0	182452224	56	5216
2026-01-26 23:33:05.97	20.12	17.30	-43.0	-45.7	17.8	0.00e+00	0	43	0	184549376	56	5233
2026-01-26 23:33:06.71	20.14	17.39	-43.1	-45.8	17.7	0.00e+00	0	43	0	186646528	56	5288
2026-01-26 23:33:07.99	20.17	17.54	-43.1	-45.8	17.7	0.00e+00	0	43	0	188743680	56	5307
2026-01-26 23:33:08.70	20.19	17.62	-43.2	-45.9	17.6	0.00e+00	0	43	0	189792256	56	5367
2026-01-26 23:33:09.98	20.22	17.77	-43.2	-45.9	17.6	0.00e+00	0	43	0	191889408	57	5073
2026-01-26 23:33:10.70	20.24	17.86	-43.3	-46.0	17.5	0.00e+00	0	43	0	193986560	57	5147
2026-01-26 23:33:11.98	20.28	18.01	-43.3	-46.1	17.4	0.00e+00	0	43	0	196083712	57	5165
2026-01-26 23:33:12.70	20.30	18.09	-43.3	-46.1	17.3	0.00e+00	0	43	0	197132288	57	5207
2026-01-26 23:33:13.98	20.33	18.25	-43.4	-46.2	17.2	0.00e+00	0	43	0	200278016	57	5279
2026-01-26 23:33:14.69	20.35	18.33	-43.4	-46.3	17.2	0.00e+00	0	43	0	201326592	57	5303
2026-01-26 23:33:16.07	20.39	18.50	-43.4	-46.3	17.2	0.00e+00	0	44	0	203423744	57	5315
2026-01-26 23:33:16.78	20.41	18.59	-43.4	-46.4	17.1	0.00e+00	0	43	0	205520896	57	5372
2026-01-26 23:33:18.06	20.44	18.74	-43.5	-46.4	17.1	0.00e+00	0	43	0	207618048	57	5395
2026-01-26 23:33:18.78	20.46	18.83	-43.5	-46.4	17.1	0.00e+00	0	43	0	208666624	57	5393
2026-01-26 23:33:20.17	20.50	19.01	-43.5	-46.5	17.0	0.00e+00	0	43	0	211812352	57	5407
2026-01-26 23:33:20.88	20.52	19.09	-43.6	-46.7	16.8	0.00e+00	0	43	0	212860928	57	5547
2026-01-26 23:33:22.25	20.56	19.27	-43.5	-46.5	17.0	0.00e+00	0	43	0	214958080	57	5458
2026-01-26 23:33:22.96	20.58	19.35	-43.5	-46.4	17.1	0.00e+00	0	43	0	217055232	57	5384
2026-01-26 23:33:24.29	20.62	19.52	-43.7	-46.7	16.8	0.00e+00	0	43	0	219152384	58	5265
2026-01-26 23:33:25.00	20.64	19.61	-43.6	-46.6	16.9	0.00e+00	0	43	0	220200960	58	5201
2026-01-26 23:33:26.28	20.68	19.78	-43.6	-46.6	17.0	0.00e+00	0	43	0	223346688	58	5181
2026-01-26 23:33:26.99	20.70	19.87	-43.6	-46.5	17.1	0.00e+00	0	43	0	224395264	58	5114
2026-01-26 23:33:28.27	20.74	20.03	-43.6	-46.5	17.0	0.00e+00	0	43	0	226492416	58	5121
2026-01-26 23:33:29.01	20.76	20.13	-43.7	-46.6	16.9	0.00e+00	0	43	0	227540992	58	5195
2026-01-26 23:33:30.29	20.80	20.30	-43.8	-46.7	16.8	0.00e+00	0	43	0	230686720	58	5261
2026-01-26 23:33:31.01	20.83	20.39	-43.7	-46.5	17.1	0.00e+00	0	43	0	231735296	58	5128
2026-01-26 23:33:32.29	20.87	20.56	-43.7	-46.6	17.0	0.00e+00	0	43	0	233832448	58	5188
2026-01-26 23:33:33.02	20.89	20.66	-43.8	-46.6	16.9	0.00e+00	0	43	0	235929600	58	5212
2026-01-26 23:33:34.30	20.93	20.83	-43.8	-46.7	16.8	0.00e+00	0	43	0	238026752	58	5252
2026-01-26 23:33:35.01	20.95	20.92	-43.8	-46.7	16.9	0.00e+00	0	43	0	239075328	58	5233
2026-01-26 23:33:36.29	20.99	21.09	-43.8	-46.6	16.9	0.00e+00	0	43	0	241172480	58	5186
2026-01-26 23:33:37.06	21.02	21.20	-43.8	-46.7	16.9	0.00e+00	0	43	0	243269632	58	5223
2026-01-26 23:33:38.34	21.06	21.37	-43.7	-46.6	17.0	0.00e+00	0	43	0	245366784	58	5162
2026-01-26 23:33:39.07	21.08	21.47	-43.7	-46.5	17.1	0.00e+00	0	43	0	246415360	58	5126
2026-01-26 23:33:40.35	21.12	21.65	-43.7	-46.6	17.0	0.00e+00	0	43	0	249561088	58	5175
2026-01-26 23:33:41.07	21.15	21.75	-43.7	-46.6	17.0	0.00e+00	0	43	0	250609664	58	5167
2026-01-26 23:33:42.35	21.19	21.93	-43.6	-46.4	17.1	0.00e+00	0	43	0	252706816	58	5089
2026-01-26 23:33:43.07	21.21	22.03	-43.7	-46.5	17.1	0.00e+00	0	43	0	254803968	58	5106
2026-01-26 23:33:44.35	21.26	22.21	-43.7	-46.5	17.1	0.00e+00	0	43	0	256901120	58	5122
2026-01-26 23:33:45.06	21.28	22.31	-43.7	-46.5	17.0	0.00e+00	0	43	0	257949696	58	5158
2026-01-26 23:33:46.35	21.33	22.49	-43.7	-46.5	17.1	0.00e+00	0	43	0	260046848	58	5103
2026-01-26 23:33:47.06	21.35	22.59	-43.6	-46.4	17.2	0.00e+00	0	43	0	262144000	58	5053
2026-01-26 23:33:48.33	21.40	22.77	-43.6	-46.4	17.2	0.00e+00	0	43	0	264241152	58	5046
2026-01-26 23:33:49.06	21.42	22.88	-43.5	-46.2	17.3	0.00e+00	0	43	0	265289728	58	4964
2026-01-26 23:33:50.56	21.48	23.10	-43.5	-46.2	17.3	0.00e+00	0	43	0	268435456	58	4969
2026-01-26 23:33:51.27	21.50	23.20	-43.5	-46.2	17.3	0.00e+00	0	43	0	269484032	58	4970
2026-01-26 23:33:52.55	21.55	23.39	-43.5	-46.3	17.3	0.00e+00	0	43	0	272629760	58	5017
2026-01-26 23:33:53.26	21.57	23.50	-43.4	-46.2	17.4	0.00e+00	0	43	0	273678336	58	4952
2026-01-26 23:33:54.54	21.62	23.69	-43.1	-45.8	17.7	0.00e+00	0	43	0	275775488	58	4739
2026-01-26 23:33:55.25	21.65	23.79	-43.1	-45.7	17.8	0.00e+00	0	43	0	276824064	58	4703
2026-01-26 23:33:56.53	21.70	23.98	-43.2	-45.9	17.6	0.00e+00	0	43	0	279969792	58	4795
2026-01-26 23:33:57.27	21.72	24.10	-43.0	-45.7	17.8	0.00e+00	0	43	0	281018368	58	4689
2026-01-26 23:33:58.75	21.78	24.32	-43.0	-45.7	17.8	0.00e+00	0	43	0	284164096	57	4963
2026-01-26 23:33:59.46	21.81	24.43	-43.0	-45.6	17.9	0.00e+00	0	43	0	285212672	57	4919
2026-01-26 23:34:00.74	21.86	24.63	-43.0	-45.6	17.9	0.00e+00	0	43	0	287309824	57	4907
2026-01-26 23:34:01.45	21.89	24.74	-42.9	-45.6	17.9	0.00e+00	0	43	0	288358400	57	4886
2026-01-26 23:34:02.74	21.94	24.94	-43.1	-45.7	17.8	0.00e+00	0	43	0	291504128	57	4982
2026-01-26 23:34:03.45	21.97	25.05	-42.9	-45.6	18.0	0.00e+00	0	43	0	292552704	57	4886
2026-01-26 23:34:04.72	22.02	25.25	-43.1	-45.8	17.8	0.00e+00	0	43	0	294649856	57	5023
2026-01-26 23:34:05.45	22.05	25.37	-42.9	-45.6	17.9	0.00e+00	0	43	0	296747008	57	4910
2026-01-26 23:34:06.73	22.10	25.57	-43.0	-45.7	17.8	0.00e+00	0	43	0	298844160	57	4971
2026-01-26 23:34:07.49	22.13	25.69	-43.0	-45.7	17.8	0.00e+00	0	43	0	299892736	57	4975
2026-01-26 23:34:08.77	22.18	25.90	-43.2	-45.9	17.7	0.00e+00	0	43	0	303038464	57	5060
2026-01-26 23:34:09.48	22.21	26.02	-43.1	-45.9	17.7	0.00e+00	0	43	0	304087040	57	5048
2026-01-26 23:34:10.76	22.27	26.23	-43.2	-45.9	17.6	0.00e+00	0	43	0	306184192	57	5100
2026-01-26 23:34:11.58	22.30	26.36	-43.3	-46.0	17.6	0.00e+00	0	43	0	308281344	57	5116
2026-01-26 23:34:12.72	22.35	26.55	-43.5	-46.2	17.4	0.00e+00	0	44	0	310378496	57	5259
2026-01-26 23:34:13.57	22.39	26.69	-43.5	-46.3	17.3	0.00e+00	0	43	0	311427072	57	5295
2026-01-26 23:34:14.71	22.44	26.88	-43.8	-46.6	17.0	0.00e+00	0	43	0	313524224	58	5175
2026-01-26 23:34:15.56	22.48	27.03	-43.9	-46.7	16.9	0.00e+00	0	43	0	315621376	58	5265
2026-01-26 23:34:16.70	22.53	27.22	-44.0	-46.8	16.8	0.00e+00	0	43	0	317718528	58	5330
2026-01-26 23:34:17.55	22.57	27.37	-44.0	-46.8	16.8	0.00e+00	0	43	0	318767104	58	5323
2026-01-26 23:34:18.69	22.62	27.56	-44.0	-46.9	16.7	0.00e+00	0	43	0	320864256	58	5376
2026-01-26 23:34:19.54	22.66	27.71	-44.1	-47.0	16.6	0.00e+00	0	43	0	322961408	58	5453
2026-01-26 23:34:20.68	22.72	27.91	-44.3	-47.3	16.3	0.00e+00	0	43	0	325058560	59	5299
2026-01-26 23:34:21.53	22.76	28.06	-44.4	-47.4	16.2	0.00e+00	0	43	0	326107136	59	5396
2026-01-26 23:34:22.67	22.81	28.26	-44.4	-47.3	16.3	0.00e+00	0	43	0	328204288	59	5329
2026-01-26 23:34:23.52	22.85	28.41	-44.5	-47.5	16.1	0.00e+00	0	44	0	330301440	59	5416
2026-01-26 23:34:24.66	22.91	28.61	-44.5	-47.6	16.1	0.00e+00	0	43	0	332398592	59	5476
2026-01-26 23:34:25.51	22.95	28.76	-44.4	-47.3	16.3	0.00e+00	0	43	0	333447168	59	5330
2026-01-26 23:34:26.64	23.01	28.97	-44.3	-47.3	16.3	0.00e+00	0	43	0	336592896	59	5338
2026-01-26 23:34:27.50	23.05	29.12	-44.4	-47.4	16.2	0.00e+00	0	43	0	337641472	59	5354
2026-01-26 23:34:28.63	23.11	29.33	-44.3	-47.3	16.3	0.00e+00	0	43	0	339738624	59	5334
2026-01-26 23:34:29.49	23.15	29.49	-44.4	-47.4	16.2	0.00e+00	0	43	0	341835776	59	5380
2026-01-26 23:34:30.62	23.21	29.70	-44.2	-47.2	16.4	0.00e+00	0	43	0	343932928	59	5255
2026-01-26 23:34:31.48	23.26	29.86	-44.3	-47.3	16.3	0.00e+00	0	43	0	344981504	59	5338
2026-01-26 23:34:32.61	23.32	30.07	-44.4	-47.4	16.3	0.00e+00	0	43	0	347078656	59	5365
2026-01-26 23:34:33.47	23.36	30.23	-44.4	-47.5	16.2	0.00e+00	0	43	0	349175808	59	5409
2026-01-26 23:34:34.62	23.42	30.45	-44.5	-47.5	16.1	0.00e+00	0	43	0	351272960	59	5456
2026-01-26 23:34:35.47	23.47	30.62	-44.4	-47.4	16.3	0.00e+00	0	44	0	352321536	59	5357
2026-01-26 23:34:36.61	23.53	30.84	-44.6	-47.7	15.9	0.00e+00	0	43	0	354418688	59	5586
2026-01-26 23:34:37.47	23.58	31.00	-44.7	-47.8	15.8	0.00e+00	0	43	0	356515840	59	5627
2026-01-26 23:34:38.60	23.65	31.22	-44.7	-47.9	15.8	0.00e+00	0	44	0	358612992	60	5401
2026-01-26 23:34:39.46	23.70	31.39	-44.7	-47.9	15.8	0.00e+00	0	43	0	359661568	60	5389
2026-01-26 23:34:40.60	23.76	31.62	-44.7	-48.0	15.7	0.00e+00	0	43	0	361758720	60	5454
2026-01-26 23:34:41.45	23.81	31.79	-44.8	-48.1	15.6	0.00e+00	0	43	0	363855872	60	5474
2026-01-26 23:34:42.59	23.88	32.02	-44.7	-48.0	15.7	0.00e+00	0	43	0	365953024	60	5432
2026-01-26 23:34:43.61	23.94	32.22	-44.6	-47.8	15.9	0.00e+00	0	43	0	368050176	60	5292
2026-01-26 23:34:44.78	24.01	32.46	-44.6	-47.9	15.8	0.00e+00	0	43	0	370147328	60	5380
2026-01-26 23:34:45.67	24.07	32.64	-44.5	-47.8	15.9	0.00e+00	0	43	0	371195904	60	5303
2026-01-26 23:34:46.98	24.15	32.91	-44.4	-47.6	16.1	0.00e+00	0	43	0	374341632	60	5210
2026-01-26 23:34:47.69	24.20	33.06	-44.4	-47.5	16.2	0.00e+00	0	43	0	375390208	60	5131
2026-01-26 23:34:48.97	24.28	33.33	-44.3	-47.4	16.4	0.00e+00	0	44	0	377487360	60	5053
2026-01-26 23:34:49.71	24.33	33.48	-44.2	-47.2	16.5	0.00e+00	0	43	0	379584512	60	4983
2026-01-26 23:34:51.26	24.43	33.81	-43.9	-46.8	16.9	0.00e+00	0	43	0	382730240	59	4987
2026-01-26 23:34:51.96	24.47	33.96	-43.7	-46.6	16.8	0.00e+00	0	43	0	383778816	59	4884
2026-01-26 23:34:53.26	24.56	34.24	-43.8	-46.8	16.9	0.00e+00	0	43	0	385875968	59	4989
2026-01-26 23:34:53.97	24.61	34.40	-43.8	-46.6	17.0	0.00e+00	0	43	0	386924544	59	4914
2026-01-26 23:34:55.25	24.70	34.68	-43.7	-46.6	17.1	0.00e+00	0	43	0	390070272	59	4895
2026-01-26 23:34:55.96	24.75	34.83	-43.8	-46.7	17.0	0.00e+00	0	43	0	391118848	59	4956
2026-01-26 23:34:57.24	24.84	35.11	-43.5	-46.2	17.4	0.00e+00	0	44	0	393216000	59	4703
2026-01-26 23:34:57.98	24.89	35.28	-43.4	-46.0	17.6	0.00e+00	0	43	0	395313152	58	4856
2026-01-26 23:34:59.26	24.99	35.57	-43.4	-46.1	17.5	0.00e+00	0	44	0	397410304	58	4918
2026-01-26 23:34:59.99	25.04	35.73	-43.3	-46.0	17.7	0.00e+00	0	43	0	398458880	58	4821
2026-01-26 23:35:01.27	25.14	36.02	-43.3	-45.9	17.7	0.00e+00	0	43	0	400556032	58	4812
2026-01-26 23:35:02.16	25.20	36.23	-43.3	-45.9	17.8	0.00e+00	0	43	0	402653184	58	4784
2026-01-26 23:35:03.61	25.31	36.56	-43.3	-45.9	17.8	0.00e+00	0	43	0	405798912	58	4768
2026-01-26 23:35:04.32	25.37	36.73	-43.2	-45.8	17.9	0.00e+00	0	44	0	406847488	58	4723
2026-01-26 23:35:05.61	25.47	37.03	-43.2	-45.8	17.9	0.00e+00	0	44	0	408944640	58	4714
2026-01-26 23:35:06.32	25.53	37.20	-43.2	-45.8	17.9	0.00e+00	0	44	0	409993216	58	4754
2026-01-26 23:35:07.61	25.63	37.50	-43.5	-46.2	17.5	0.00e+00	0	44	0	413138944	58	4941
2026-01-26 23:35:08.32	25.69	37.67	-43.5	-46.2	17.5	0.00e+00	0	44	0	414187520	58	4936
2026-01-26 23:35:09.60	25.80	37.98	-43.6	-46.2	17.5	0.00e+00	0	43	0	416284672	58	4961
2026-01-26 23:35:10.33	25.86	38.16	-43.7	-46.4	17.3	0.00e+00	0	43	0	418381824	58	5045
2026-01-26 23:35:11.61	25.97	38.47	-43.8	-46.5	17.2	0.00e+00	0	43	0	420478976	58	5156
2026-01-26 23:35:12.51	26.05	38.69	-43.7	-46.4	17.3	0.00e+00	0	43	0	422576128	58	5051
2026-01-26 23:35:13.61	26.15	38.97	-43.6	-46.3	17.4	0.00e+00	0	44	0	423624704	58	5019
2026-01-26 23:35:14.46	26.23	39.18	-43.7	-46.3	17.3	0.00e+00	0	44	0	425721856	58	5035
2026-01-26 23:35:15.60	26.33	39.47	-43.6	-46.2	17.5	0.00e+00	0	43	0	427819008	58	4972
2026-01-26 23:35:16.46	26.41	39.68	-43.6	-46.3	17.4	0.00e+00	0	43	0	429916160	58	4989
2026-01-26 23:35:17.59	26.52	39.97	-43.7	-46.3	17.4	0.00e+00	0	43	0	432013312	58	5020
2026-01-26 23:35:18.45	26.60	40.19	-43.7	-46.4	17.3	0.00e+00	0	43	0	433061888	58	5051
2026-01-26 23:35:19.58	26.71	40.48	-43.8	-46.6	17.2	0.00e+00	0	43	0	435159040	58	5160
2026-01-26 23:35:20.44	26.79	40.71	-43.8	-46.5	17.2	0.00e+00	0	44	0	437256192	58	5138
2026-01-26 23:35:21.58	26.91	41.01	-43.9	-46.7	17.0	0.00e+00	0	43	0	439353344	58	5250
2026-01-26 23:35:22.43	27.00	41.23	-44.0	-46.8	17.0	0.00e+00	0	43	0	440401920	58	5293
2026-01-26 23:35:23.57	27.11	41.54	-43.9	-46.8	17.0	0.00e+00	0	43	0	442499072	58	5288
2026-01-26 23:35:24.42	27.20	41.76	-43.9	-46.7	17.1	0.00e+00	0	44	0	444596224	58	5239
2026-01-26 23:35:25.56	27.32	42.07	-43.6	-46.3	17.4	0.00e+00	0	43	0	446693376	58	5030
2026-01-26 23:35:26.41	27.42	42.30	-43.5	-46.3	17.5	0.00e+00	0	44	0	447741952	58	4986
2026-01-26 23:35:27.54	27.54	42.61	-43.6	-46.3	17.4	0.00e+00	0	43	0	449839104	58	5006
2026-01-26 23:35:28.39	27.64	42.84	-43.8	-46.5	17.2	0.00e+00	0	44	0	451936256	58	5138
2026-01-26 23:35:29.53	27.77	43.16	-43.9	-46.7	17.1	0.00e+00	0	43	0	454033408	58	5226
2026-01-26 23:35:30.38	27.86	43.40	-44.0	-46.8	16.9	0.00e+00	0	43	0	456130560	58	5310
2026-01-26 23:35:31.52	28.00	43.72	-44.4	-47.3	16.5	0.00e+00	0	43	0	457179136	59	5306
2026-01-26 23:35:32.37	28.10	43.96	-44.5	-47.5	16.2	0.00e+00	0	43	0	459276288	59	5449
2026-01-26 23:35:33.51	28.24	44.28	-44.4	-47.4	16.3	0.00e+00	0	43	0	461373440	59	5388
2026-01-26 23:35:34.36	28.34	44.53	-44.5	-47.5	16.2	0.00e+00	0	44	0	463470592	59	5450
2026-01-26 23:35:35.61	28.50	44.89	-44.5	-47.5	16.3	0.00e+00	0	43	0	465567744	59	5410
2026-01-26 23:35:36.46	28.61	45.13	-44.3	-47.3	16.5	0.00e+00	0	43	0	466616320	59	5291
2026-01-26 23:35:37.59	28.76	45.47	-44.4	-47.3	16.4	0.00e+00	0	43	0	468713472	59	5304
2026-01-26 23:35:38.45	28.87	45.72	-44.4	-47.3	16.4	0.00e+00	0	43	0	470810624	59	5338
2026-01-26 23:35:39.58	29.03	46.05	-44.5	-47.4	16.3	0.00e+00	0	43	0	472907776	59	5377
2026-01-26 23:35:40.44	29.15	46.31	-44.2	-47.0	16.6	0.00e+00	0	43	0	473956352	59	5152
2026-01-26 23:35:41.58	29.31	46.65	-44.2	-47.0	16.8	0.00e+00	0	43	0	477102080	59	5123
2026-01-26 23:35:42.43	29.43	46.91	-44.3	-47.1	16.6	0.00e+00	0	43	0	478150656	59	5206
2026-01-26 23:35:43.57	29.60	47.26	-44.5	-47.5	16.2	0.00e+00	0	43	0	480247808	59	5414
2026-01-26 23:35:44.42	29.72	47.52	-44.6	-47.6	16.1	0.00e+00	0	44	0	482344960	59	5514
2026-01-26 23:35:45.56	29.90	47.87	-44.8	-47.9	16.0	0.00e+00	0	43	0	484442112	60	5347
2026-01-26 23:35:46.41	30.03	48.14	-44.8	-47.9	15.9	0.00e+00	0	44	0	485490688	60	5388
2026-01-26 23:35:47.55	30.21	48.49	-44.5	-47.5	16.3	0.00e+00	0	44	0	487587840	60	5157
2026-01-26 23:35:48.40	30.35	48.76	-44.2	-47.2	16.5	0.00e+00	0	43	0	489684992	60	4958
2026-01-26 23:35:49.53	30.53	49.12	-43.8	-46.6	17.2	0.00e+00	0	43	0	491782144	59	4873
2026-01-26 23:35:50.39	30.68	49.40	-43.3	-45.9	17.8	0.00e+00	0	43	0	492830720	58	4811
2026-01-26 23:35:51.52	30.87	49.76	-43.0	-45.5	18.2	0.00e+00	0	44	0	494927872	58	4588
2026-01-26 23:35:52.38	31.02	50.04	-42.8	-45.3	18.4	0.00e+00	0	43	0	497025024	57	4709
2026-01-26 23:35:53.52	31.22	50.41	-42.3	-44.7	19.0	0.00e+00	0	43	0	499122176	56	4674
2026-01-26 23:35:54.37	31.38	50.69	-42.0	-44.3	19.4	0.00e+00	0	43	0	500170752	56	4453
2026-01-26 23:35:55.51	31.59	51.06	-41.4	-43.6	19.9	0.00e+00	0	43	0	502267904	54	4600
2026-01-26 23:35:56.41	31.76	51.36	-41.1	-43.3	20.1	0.00e+00	0	44	0	504365056	54	4471
2026-01-26 23:35:57.42	31.96	51.70	-41.0	-43.1	20.3	0.00e+00	0	44	0	506462208	53	4629
2026-01-26 23:35:58.41	32.15	52.03	-40.8	-42.8	20.5	0.00e+00	0	43	0	508559360	53	4491
2026-01-26 23:35:59.41	32.36	52.37	-40.5	-42.5	20.9	0.00e+00	0	44	0	509607936	53	4321
2026-01-26 23:36:00.40	32.56	52.70	-40.4	-42.5	20.9	0.00e+00	0	43	0	511705088	52	4549
2026-01-26 23:36:01.40	32.78	53.04	-40.4	-42.4	20.9	0.00e+00	0	43	0	513802240	52	4529
2026-01-26 23:36:02.39	32.99	53.38	-40.4	-42.4	21.0	0.00e+00	0	43	0	515899392	52	4513
2026-01-26 23:36:03.39	33.21	53.73	-40.2	-42.2	21.1	0.00e+00	0	44	0	517996544	52	4441
2026-01-26 23:36:04.38	33.44	54.07	-40.3	-42.3	21.1	0.00e+00	0	44	0	519045120	52	4460
2026-01-26 23:36:05.38	33.67	54.42	-40.2	-42.2	21.1	0.00e+00	0	43	0	521142272	52	4428
2026-01-26 23:36:06.37	33.91	54.77	-40.3	-42.3	21.0	0.00e+00	0	43	0	523239424	52	4455
2026-01-26 23:36:07.39	34.16	55.13	-40.3	-42.3	21.1	0.00e+00	0	43	0	525336576	52	4459
2026-01-26 23:36:08.38	34.41	55.48	-40.2	-42.2	21.1	0.00e+00	0	43	0	526385152	52	4435
2026-01-26 23:36:09.38	34.66	55.84	-40.2	-42.2	21.1	0.00e+00	0	43	0	528482304	52	4418
2026-01-26 23:36:10.37	34.92	56.19	-40.6	-42.7	20.7	0.00e+00	0	43	0	530579456	52	4672
2026-01-26 23:36:11.37	35.19	56.55	-40.9	-43.1	20.3	0.00e+00	0	44	0	532676608	52	4880
2026-01-26 23:36:12.36	35.47	56.91	-41.3	-43.4	20.0	0.00e+00	0	43	0	534773760	53	4810
2026-01-26 23:36:13.36	35.75	57.27	-41.5	-43.7	19.7	0.00e+00	0	43	0	535822336	53	4977
2026-01-26 23:36:14.35	36.04	57.63	-41.4	-43.6	19.8	0.00e+00	0	43	0	537919488	53	4898
2026-01-26 23:36:15.35	36.34	58.00	-41.1	-43.2	20.2	0.00e+00	0	43	0	540016640	53	4672
2026-01-26 23:36:16.34	36.65	58.36	-40.8	-42.8	20.5	0.00e+00	0	43	0	542113792	53	4483
2026-01-26 23:36:17.34	36.97	58.73	-40.7	-42.7	20.6	0.00e+00	0	43	0	543162368	53	4416
2026-01-26 23:36:18.33	37.29	59.10	-40.5	-42.5	20.9	0.00e+00	0	43	0	545259520	52	4583
2026-01-26 23:36:19.33	37.62	59.47	-40.6	-42.6	20.7	0.00e+00	0	44	0	547356672	52	4640
2026-01-26 23:36:20.32	37.96	59.84	-40.2	-42.2	21.2	0.00e+00	0	44	0	549453824	52	4405
2026-01-26 23:36:21.32	38.32	60.22	-40.2	-42.2	21.2	0.00e+00	0	43	0	551550976	52	4392
2026-01-26 23:36:22.32	38.68	60.60	-40.0	-42.0	21.4	0.00e+00	0	43	0	552599552	51	4569
2026-01-26 23:36:23.36	39.08	60.99	-39.7	-41.7	21.7	0.00e+00	0	43	0	554696704	51	4393
2026-01-26 23:36:24.29	39.44	61.34	-39.5	-41.4	21.9	0.00e+00	0	43	0	556793856	50	4524
2026-01-26 23:36:25.46	39.90	61.79	-39.4	-41.3	22.0	0.00e+00	0	43	0	558891008	50	4477
2026-01-26 23:36:26.31	40.25	62.11	-39.4	-41.3	22.0	0.00e+00	0	43	0	559939584	50	4445
2026-01-26 23:36:27.45	40.74	62.55	-39.6	-41.5	21.9	0.00e+00	0	44	0	563085312	50	4579
2026-01-26 23:36:28.30	41.11	62.87	-39.6	-41.6	21.8	0.00e+00	0	43	0	564133888	50	4612
2026-01-26 23:36:29.44	41.63	63.31	-39.9	-41.9	21.5	0.00e+00	0	43	0	566231040	50	4768
2026-01-26 23:36:30.30	42.03	63.64	-39.9	-41.9	21.5	0.00e+00	0	43	0	568328192	50	4778
2026-01-26 23:36:31.43	42.58	64.07	-40.2	-42.2	21.2	0.00e+00	0	43	0	570425344	51	4690
2026-01-26 23:36:32.29	43.01	64.40	-40.5	-42.5	21.0	0.00e+00	0	44	0	571473920	51	4825
2026-01-26 23:36:33.43	43.60	64.84	-40.7	-42.8	20.6	0.00e+00	0	44	0	573571072	52	4739
2026-01-26 23:36:34.28	44.05	65.17	-41.1	-43.2	20.3	0.00e+00	0	43	0	575668224	52	4938
2026-01-26 23:36:35.42	44.68	65.61	-41.6	-43.8	19.7	0.00e+00	0	43	0	577765376	53	4991
2026-01-26 23:36:36.27	45.17	65.94	-42.0	-44.3	19.2	0.00e+00	0	43	0	578813952	54	4998
2026-01-26 23:36:37.40	45.84	66.37	-42.4	-44.8	18.8	0.00e+00	0	44	0	580911104	55	4987
2026-01-26 23:36:38.26	46.36	66.70	-42.9	-45.3	18.4	0.00e+00	0	43	0	583008256	56	5015
2026-01-26 23:36:39.50	47.15	67.18	-43.4	-46.0	17.7	0.00e+00	0	43	0	585105408	57	5123
2026-01-26 23:36:40.36	47.72	67.51	-43.8	-46.5	17.2	0.00e+00	0	43	0	587202560	58	5130
2026-01-26 23:36:41.49	48.50	67.94	-44.2	-47.0	16.8	0.00e+00	0	43	0	589299712	58	5414
2026-01-26 23:36:42.34	49.10	68.26	-44.1	-47.0	16.8	0.00e+00	0	44	0	590348288	59	5107
2026-01-26 23:36:43.61	50.05	68.74	-43.6	-46.3	17.4	0.00e+00	0	43	0	592445440	59	4715
2026-01-26 23:36:44.37	50.63	69.03	-43.6	-46.3	17.5	0.00e+00	0	43	0	594542592	59	4736
2026-01-26 23:36:45.64	51.65	69.50	-43.4	-46.1	17.7	0.00e+00	0	43	0	596639744	58	4875
2026-01-26 23:36:46.37	52.26	69.77	-43.6	-46.2	17.5	0.00e+00	0	43	0	597688320	58	4973
2026-01-26 23:36:47.65	53.37	70.25	-43.3	-45.9	17.9	0.00e+00	0	43	0	600834048	58	4761
2026-01-26 23:36:48.37	54.02	70.51	-43.3	-45.8	17.9	0.00e+00	0	43	0	601882624	58	4721
2026-01-26 23:36:49.65	55.22	70.98	-43.3	-45.8	17.9	0.00e+00	0	43	0	603979776	58	4753
2026-01-26 23:36:50.38	55.93	71.24	-43.3	-45.8	17.9	0.00e+00	0	43	0	606076928	58	4731
2026-01-26 23:36:51.66	57.23	71.69	-43.9	-46.6	17.1	0.00e+00	0	43	0	608174080	58	5200
2026-01-26 23:36:52.53	58.16	72.00	-44.2	-46.9	16.8	0.00e+00	0	43	0	609222656	58	5389
2026-01-26 23:36:53.66	59.41	72.39	-44.4	-47.3	16.5	0.00e+00	0	43	0	611319808	59	5292
2026-01-26 23:36:54.52	60.40	72.68	-44.5	-47.5	16.3	0.00e+00	0	43	0	613416960	60	5134
2026-01-26 23:36:55.65	61.76	73.06	-44.6	-47.6	16.1	0.00e+00	0	43	0	615514112	60	5189
2026-01-26 23:36:56.71	63.09	73.41	-44.1	-46.9	16.9	0.00e+00	0	43	0	617611264	60	4777
2026-01-26 23:36:57.75	64.46	73.74	-43.7	-46.4	17.3	0.00e+00	0	43	0	619708416	59	4778
2026-01-26 23:36:58.75	65.82	74.05	-43.3	-45.8	17.9	0.00e+00	0	43	0	621805568	58	4736
2026-01-26 23:36:59.74	67.23	74.35	-43.0	-45.5	18.2	0.00e+00	0	43	0	622854144	58	4570
2026-01-26 23:37:00.74	68.71	74.65	-43.2	-45.6	18.0	0.00e+00	0	43	0	624951296	57	4925
2026-01-26 23:37:01.73	70.23	74.93	-43.4	-45.9	17.7	0.00e+00	0	43	0	627048448	57	5092
2026-01-26 23:37:03.01	72.29	75.28	-42.9	-45.3	18.3	0.00e+00	0	43	0	629145600	57	4754
2026-01-26 23:37:03.77	73.56	75.48	-43.0	-45.4	18.3	0.00e+00	0	43	0	630194176	57	4800
2026-01-26 23:37:05.05	75.78	75.80	-43.6	-46.3	17.4	0.00e+00	0	43	0	633339904	57	5281
2026-01-26 23:37:05.76	77.06	75.97	-44.0	-46.8	17.0	0.00e+00	0	43	0	634388480	58	5305
2026-01-26 23:37:07.04	79.44	76.26	-44.2	-47.0	16.7	0.00e+00	0	43	0	636485632	59	5134
2026-01-26 23:37:07.75	80.80	76.41	-44.2	-47.1	16.6	0.00e+00	0	44	0	638582784	59	5207
2026-01-26 23:37:09.03	83.34	76.66	-44.4	-47.4	16.4	0.00e+00	0	43	0	640679936	59	5364
2026-01-26 23:37:09.75	84.81	76.79	-44.4	-47.4	16.3	0.00e+00	0	43	0	641728512	59	5391
2026-01-26 23:37:11.03	87.49	77.00	-44.9	-48.3	15.5	0.00e+00	0	43	0	643825664	60	5644
2026-01-26 23:37:11.76	89.06	77.11	-45.0	-48.4	15.4	0.00e+00	0	44	0	645922816	60	5675
2026-01-26 23:37:13.04	91.87	77.27	-44.3	-47.4	16.4	0.00e+00	0	44	0	648019968	60	5045
2026-01-26 23:37:13.76	93.48	77.35	-44.2	-47.2	16.6	0.00e+00	0	44	0	649068544	60	4950
2026-01-26 23:37:15.04	96.39	77.47	-44.2	-47.1	16.7	0.00e+00	0	43	0	652214272	60	4874
2026-01-26 23:37:15.77	98.08	77.52	-44.6	-47.7	16.1	0.00e+00	0	43	0	653262848	60	5257
2026-01-26 23:37:17.25	101.53	77.60	-44.4	-47.5	16.3	0.00e+00	0	43	0	656408576	60	5154
2026-01-26 23:37:17.96	103.20	77.62	-44.4	-47.6	16.2	0.00e+00	0	43	0	657457152	60	5171
2026-01-26 23:37:19.24	106.21	77.63	-44.3	-47.4	16.4	0.00e+00	0	44	0	659554304	60	5055
2026-01-26 23:37:19.97	107.93	77.62	-44.0	-46.9	16.8	0.00e+00	0	43	0	660602880	60	4793
2026-01-26 23:37:21.25	110.93	77.58	-44.2	-47.1	16.7	0.00e+00	0	43	0	663748608	59	5187
2026-01-26 23:37:21.96	112.59	77.54	-44.6	-47.6	16.2	0.00e+00	0	43	0	664797184	59	5474
2026-01-26 23:37:23.24	115.54	77.45	-45.6	-49.3	14.5	0.00e+00	0	43	0	666894336	61	5953
2026-01-26 23:37:23.96	117.18	77.38	-45.4	-49.0	14.8	1.50e-06	0	43	0	668991488	61	5784
2026-01-26 23:37:25.24	120.05	77.24	-45.2	-48.4	15.3	0.00e+00	0	43	0	671088640	61	5395
2026-01-26 23:37:25.95	121.61	77.15	-45.1	-48.2	15.6	0.00e+00	0	43	0	672137216	61	5276
2026-01-26 23:37:27.22	124.34	76.96	-45.5	-49.0	14.8	0.00e+00	0	43	0	674234368	61	5783
2026-01-26 23:37:28.11	126.20	76.81	-45.5	-49.1	14.7	7.00e-07	0	44	0	676331520	61	5833
2026-01-26 23:37:29.53	129.08	76.55	-45.7	-49.3	14.5	0.00e+00	0	44	0	679477248	62	5633
2026-01-26 23:37:30.24	130.48	76.41	-46.0	-49.8	13.9	7.00e-07	0	43	0	680525824	62	5963
2026-01-26 23:37:31.52	132.91	76.14	-46.4	-50.4	13.5	9.90e-06	0	44	0	682622976	63	6003
2026-01-26 23:37:32.25	134.26	75.97	-45.8	-49.4	14.3	6.80e-06	0	44	0	683671552	63	5347
2026-01-26 23:37:33.80	137.01	75.59	-45.4	-48.8	15.1	7.00e-07	0	43	0	686817280	62	5324
2026-01-26 23:37:34.51	138.21	75.41	-45.8	-49.4	14.5	0.00e+00	0	44	0	687865856	62	5701
2026-01-26 23:37:35.85	140.41	75.04	-46.1	-49.9	13.9	7.00e-07	0	44	0	691011584	62	6047
2026-01-26 23:37:36.56	141.52	74.85	-45.9	-49.5	14.3	2.20e-06	0	44	0	692060160	63	5435
2026-01-26 23:37:37.84	143.46	74.47	-45.7	-49.3	14.5	1.50e-06	0	43	0	694157312	63	5336
2026-01-26 23:37:38.57	144.52	74.25	-45.2	-48.7	15.1	0.00e+00	0	44	0	696254464	62	5249
2026-01-26 23:37:39.85	146.31	73.86	-44.5	-47.7	16.2	0.00e+00	0	43	0	698351616	61	4936
2026-01-26 23:37:40.58	147.29	73.63	-44.3	-47.3	16.5	0.00e+00	0	44	0	699400192	60	5014
2026-01-26 23:37:41.86	148.94	73.21	-43.9	-46.7	17.1	0.00e+00	0	44	0	702545920	59	4941
2026-01-26 23:37:42.57	149.82	72.98	-43.5	-46.1	17.6	0.00e+00	0	44	0	703594496	58	4908
2026-01-26 23:37:43.85	151.34	72.55	-43.3	-45.8	17.8	0.00e+00	0	44	0	705691648	58	4755
2026-01-26 23:37:44.59	152.19	72.30	-43.1	-45.6	18.0	0.00e+00	0	44	0	706740224	58	4611
2026-01-26 23:37:46.17	153.90	71.74	-42.7	-45.0	18.6	0.00e+00	0	44	0	709885952	57	4587
2026-01-26 23:37:46.82	154.58	71.51	-42.9	-45.3	18.3	0.00e+00	0	44	0	710934528	57	4757
2026-01-26 23:37:48.37	156.12	70.96	-43.6	-46.3	17.4	0.00e+00	0	43	0	714080256	58	5001
2026-01-26 23:37:49.08	156.79	70.70	-43.7	-46.3	17.5	0.00e+00	0	43	0	716177408	58	5011
2026-01-26 23:37:50.36	157.96	70.23	-43.9	-46.5	17.2	0.00e+00	0	44	0	718274560	58	5147
2026-01-26 23:37:51.07	158.58	69.97	-43.6	-46.1	17.6	0.00e+00	0	43	0	719323136	58	4921
2026-01-26 23:37:52.35	159.66	69.49	-44.5	-47.3	16.4	0.00e+00	0	44	0	721420288	59	5332
2026-01-26 23:37:53.08	160.25	69.22	-44.7	-47.8	16.0	0.00e+00	0	44	0	723517440	60	5304
2026-01-26 23:37:54.36	161.25	68.74	-44.9	-48.0	15.7	0.00e+00	0	44	0	725614592	61	5144
2026-01-26 23:37:55.08	161.79	68.47	-44.6	-47.7	16.1	0.00e+00	0	44	0	726663168	61	4970
2026-01-26 23:37:56.45	162.78	67.94	-45.4	-49.0	14.7	0.00e+00	0	43	0	729808896	61	5785
2026-01-26 23:37:57.16	163.27	67.67	-45.2	-48.6	15.2	0.00e+00	0	44	0	730857472	61	5505
2026-01-26 23:37:58.54	164.20	67.14	-44.3	-47.2	16.6	0.00e+00	0	43	0	732954624	60	4965
2026-01-26 23:37:59.25	164.65	66.87	-43.7	-46.4	17.3	0.00e+00	0	44	0	735051776	59	4794
2026-01-26 23:38:00.53	165.45	66.38	-43.1	-45.6	18.1	0.00e+00	0	44	0	737148928	58	4636
2026-01-26 23:38:01.24	165.87	66.11	-42.8	-45.3	18.4	0.00e+00	0	44	0	738197504	57	4714
2026-01-26 23:38:02.63	166.67	65.57	-42.4	-44.8	18.9	0.00e+00	0	44	0	741343232	56	4718
2026-01-26 23:38:03.34	167.07	65.30	-41.4	-43.6	19.8	0.00e+00	0	44	0	742391808	54	4651
2026-01-26 23:38:04.68	167.79	64.78	-40.4	-42.5	20.9	0.00e+00	0	44	0	744488960	52	4585
2026-01-26 23:38:05.39	168.15	64.50	-40.4	-42.5	20.8	0.00e+00	0	44	0	746586112	52	4581
2026-01-26 23:38:06.67	168.80	64.01	-39.9	-41.8	21.5	0.00e+00	0	44	0	748683264	51	4489
2026-01-26 23:38:07.38	169.14	63.74	-39.5	-41.4	22.0	0.00e+00	0	43	0	749731840	50	4505
2026-01-26 23:38:08.77	169.79	63.20	-39.7	-41.6	21.8	0.00e+00	0	43	0	752877568	50	4626
2026-01-26 23:38:09.48	170.11	62.93	-40.1	-42.0	21.4	0.00e+00	0	44	0	753926144	50	4857
2026-01-26 23:38:10.76	170.68	62.44	-40.3	-42.3	21.1	0.00e+00	0	44	0	756023296	51	4728
2026-01-26 23:38:11.48	170.98	62.16	-40.4	-42.4	21.0	0.00e+00	0	44	0	758120448	51	4785
2026-01-26 23:38:12.77	171.51	61.67	-40.5	-42.5	20.9	0.00e+00	0	44	0	760217600	51	4836
2026-01-26 23:38:13.48	171.80	61.40	-40.6	-42.6	20.8	0.00e+00	0	44	0	761266176	51	4916
2026-01-26 23:38:14.75	172.29	60.91	-41.4	-43.5	19.9	0.00e+00	0	44	0	763363328	53	4861
2026-01-26 23:38:15.48	172.57	60.64	-42.4	-44.8	18.7	0.00e+00	0	44	0	765460480	55	5019
2026-01-26 23:38:16.76	173.03	60.15	-44.0	-46.8	16.9	0.00e+00	0	44	0	767557632	58	5300
2026-01-26 23:38:17.61	173.34	59.83	-43.8	-46.5	17.3	0.00e+00	0	44	0	768606208	58	5108
2026-01-26 23:38:18.75	173.73	59.41	-42.8	-45.2	18.5	0.00e+00	0	44	0	771751936	57	4672
2026-01-26 23:38:19.60	174.01	59.09	-42.7	-45.0	18.7	0.00e+00	0	44	0	772800512	57	4580
2026-01-26 23:38:20.74	174.38	58.66	-43.9	-46.6	17.1	0.00e+00	0	44	0	774897664	58	5206
2026-01-26 23:38:21.59	174.65	58.35	-44.6	-47.6	16.2	0.00e+00	0	44	0	776994816	59	5477
2026-01-26 23:38:22.72	175.00	57.93	-44.4	-47.3	16.5	0.00e+00	0	44	0	779091968	60	5022
2026-01-26 23:38:23.58	175.26	57.61	-43.6	-46.2	17.5	0.00e+00	0	43	0	780140544	59	4677
2026-01-26 23:38:24.71	175.59	57.20	-42.7	-45.1	18.5	0.00e+00	0	43	0	782237696	57	4642
2026-01-26 23:38:25.57	175.84	56.89	-42.2	-44.5	19.1	0.00e+00	0	43	0	784334848	56	4558
2026-01-26 23:38:26.70	176.15	56.48	-41.6	-43.8	19.7	0.00e+00	0	43	0	786432000	55	4459
2026-01-26 23:38:27.55	176.38	56.17	-41.6	-43.8	19.6	0.00e+00	0	44	0	787480576	55	4469
2026-01-26 23:38:28.69	176.68	55.76	-41.8	-44.0	19.5	0.00e+00	0	44	0	789577728	55	4586
2026-01-26 23:38:29.59	176.91	55.44	-41.8	-44.1	19.5	0.00e+00	0	43	0	791674880	55	4606
2026-01-26 23:38:30.62	177.17	55.07	-40.8	-42.9	20.4	0.00e+00	0	43	0	793772032	53	4535
2026-01-26 23:38:31.61	177.41	54.72	-40.2	-42.2	21.1	0.00e+00	0	43	0	795869184	52	4421
2026-01-26 23:38:32.61	177.65	54.37	-40.5	-42.5	20.9	0.00e+00	0	44	0	796917760	52	4575
2026-01-26 23:38:33.60	177.88	54.02	-41.1	-43.3	20.1	0.00e+00	0	44	0	799014912	52	5016
2026-01-26 23:38:34.60	178.11	53.67	-41.6	-43.9	19.5	0.00e+00	0	44	0	801112064	53	5084
2026-01-26 23:38:35.59	178.33	53.33	-41.8	-44.1	19.4	0.00e+00	0	43	0	803209216	54	4907
2026-01-26 23:38:36.93	178.62	52.87	-41.8	-44.0	19.5	0.00e+00	0	43	0	805306368	54	4828
2026-01-26 23:38:37.69	178.78	52.61	-42.4	-44.8	18.7	0.00e+00	0	43	0	806354944	55	5017
2026-01-26 23:38:39.29	179.11	52.07	-43.7	-46.4	17.3	0.00e+00	0	44	0	809500672	58	5092
2026-01-26 23:38:39.86	179.22	51.87	-43.8	-46.6	17.2	0.00e+00	0	43	0	810549248	58	5164
2026-01-26 23:38:41.56	179.56	51.30	-44.3	-47.2	16.5	0.00e+00	0	43	0	813694976	59	5244
2026-01-26 23:38:42.13	179.67	51.11	-44.9	-48.0	15.8	0.00e+00	0	44	0	814743552	60	5444
2026-01-26 23:38:43.84	179.98	50.55	-46.5	-50.6	13.2	1.29e-05	0	43	0	817889280	63	6152
2026-01-26 23:38:44.41	180.09	50.36	-46.6	-50.7	13.1	1.52e-05	0	44	0	818937856	63	6247
2026-01-26 23:38:46.12	180.39	49.80	-46.2	-50.1	13.7	3.00e-06	0	43	0	822083584	63	5792
2026-01-26 23:38:46.68	180.49	49.62	-46.1	-50.0	13.8	5.30e-06	0	43	0	824180736	63	5770
2026-01-26 23:38:48.45	180.79	49.05	-46.4	-50.4	13.4	1.60e-05	0	44	0	827326464	63	6050
2026-01-26 23:38:49.02	180.88	48.87	-46.3	-50.2	13.5	1.67e-05	0	44	0	828375040	63	5913
2026-01-26 23:38:50.72	181.16	48.33	-45.8	-49.3	14.5	1.50e-06	0	44	0	831520768	63	5328
2026-01-26 23:38:51.43	181.27	48.11	-45.4	-48.7	15.0	7.00e-07	0	44	0	832569344	62	5273
2026-01-26 23:38:52.71	181.47	47.71	-45.8	-49.4	14.4	0.00e+00	0	44	0	834666496	62	5697
2026-01-26 23:38:53.44	181.58	47.48	-46.0	-49.7	14.2	7.00e-07	0	43	0	836763648	62	5891
2026-01-26 23:38:54.72	181.77	47.09	-46.3	-50.3	13.5	8.30e-06	0	43	0	838860800	63	5960
2026-01-26 23:38:55.70	181.91	46.79	-45.8	-49.5	14.2	6.10e-06	0	44	0	840957952	63	5439
2026-01-26 23:38:57.00	182.09	46.40	-44.7	-47.7	16.0	0.00e+00	0	43	0	843055104	61	4974
2026-01-26 23:38:57.71	182.19	46.18	-43.9	-46.7	17.0	0.00e+00	0	43	0	844103680	59	4945
2026-01-26 23:38:58.99	182.37	45.80	-43.0	-45.5	18.2	0.00e+00	0	43	0	847249408	58	4560
2026-01-26 23:38:59.70	182.46	45.59	-42.5	-44.8	18.8	0.00e+00	0	43	0	848297984	57	4471
2026-01-26 23:39:00.98	182.63	45.21	-42.2	-44.4	19.2	0.00e+00	0	43	0	850395136	56	4542
2026-01-26 23:39:01.69	182.73	45.00	-41.7	-43.9	19.5	0.00e+00	0	44	0	851443712	55	4516
2026-01-26 23:39:03.03	182.90	44.61	-41.8	-44.1	19.3	0.00e+00	0	43	0	854589440	55	4608
2026-01-26 23:39:03.74	182.99	44.41	-42.0	-44.3	19.1	0.00e+00	0	44	0	855638016	55	4742
2026-01-26 23:39:05.09	183.15	44.02	-42.5	-44.9	18.6	0.00e+00	0	44	0	857735168	55	5063
2026-01-26 23:39:05.80	183.24	43.82	-42.9	-45.4	18.2	0.00e+00	0	44	0	859832320	56	5075
2026-01-26 23:39:07.13	183.40	43.44	-43.5	-46.2	17.5	0.00e+00	0	43	0	861929472	57	5229
2026-01-26 23:39:07.84	183.48	43.24	-43.4	-46.0	17.6	0.00e+00	0	43	0	862978048	57	5151
2026-01-26 23:39:09.17	183.63	42.87	-42.7	-45.1	18.5	0.00e+00	0	43	0	866123776	57	4642
2026-01-26 23:39:09.88	183.71	42.67	-42.4	-44.7	18.8	0.00e+00	0	44	0	867172352	56	4699
2026-01-26 23:39:11.16	183.85	42.32	-42.0	-44.2	19.3	0.00e+00	0	44	0	869269504	56	4432
2026-01-26 23:39:12.20	183.97	42.03	-41.7	-43.9	19.5	0.00e+00	0	44	0	871366656	55	4512
2026-01-26 23:39:13.48	184.10	41.69	-41.7	-43.9	19.5	0.00e+00	0	44	0	873463808	55	4494
2026-01-26 23:39:14.30	184.19	41.47	-42.0	-44.2	19.2	0.00e+00	0	43	0	875560960	55	4675
2026-01-26 23:39:15.43	184.30	41.17	-42.6	-45.0	18.5	0.00e+00	0	43	0	877658112	55	5133
2026-01-26 23:39:16.29	184.39	40.94	-43.4	-46.0	17.7	0.00e+00	0	43	0	878706688	57	5111
2026-01-26 23:39:17.43	184.51	40.64	-44.1	-46.8	16.9	0.00e+00	0	43	0	881852416	58	5330
2026-01-26 23:39:18.28	184.59	40.41	-44.2	-47.1	16.6	0.00e+00	0	43	0	882900992	59	5177
2026-01-26 23:39:19.42	184.70	40.12	-43.9	-46.7	17.0	0.00e+00	0	44	0	884998144	59	4938
2026-01-26 23:39:20.27	184.78	39.90	-43.5	-46.2	17.4	0.00e+00	0	43	0	887095296	58	4953
2026-01-26 23:39:21.42	184.89	39.60	-43.0	-45.5	18.1	0.00e+00	0	44	0	889192448	58	4574
2026-01-26 23:39:22.27	184.97	39.39	-42.8	-45.3	18.3	0.00e+00	0	44	0	890241024	57	4720
2026-01-26 23:39:23.41	185.07	39.10	-42.9	-45.3	18.3	0.00e+00	0	44	0	892338176	57	4732
2026-01-26 23:39:24.26	185.15	38.89	-43.0	-45.4	18.2	0.00e+00	0	44	0	894435328	57	4791
2026-01-26 23:39:25.52	185.26	38.57	-43.2	-45.7	17.9	0.00e+00	0	44	0	896532480	57	4960
2026-01-26 23:39:26.34	185.33	38.37	-43.6	-46.2	17.4	0.00e+00	0	44	0	897581056	57	5270
2026-01-26 23:39:27.48	185.43	38.09	-44.2	-47.0	16.6	0.00e+00	0	44	0	899678208	58	5437
2026-01-26 23:39:28.33	185.50	37.88	-44.4	-47.4	16.2	0.00e+00	0	44	0	901775360	59	5385
2026-01-26 23:39:29.61	185.61	37.57	-45.3	-48.8	14.9	0.00e+00	0	43	0	903872512	61	5638
2026-01-26 23:39:30.33	185.67	37.40	-45.6	-49.3	14.5	0.00e+00	0	44	0	905969664	61	5958
2026-01-26 23:39:31.61	185.77	37.10	-45.4	-49.0	14.7	0.00e+00	0	43	0	908066816	61	5776
2026-01-26 23:39:32.34	185.83	36.92	-45.3	-48.9	14.7	7.00e-07	0	43	0	909115392	61	5701
2026-01-26 23:39:33.62	185.93	36.62	-44.9	-48.2	15.4	0.00e+00	0	44	0	911212544	61	5244
2026-01-26 23:39:34.33	185.99	36.45	-44.6	-47.8	15.9	0.00e+00	0	44	0	913309696	61	4988
2026-01-26 23:39:35.61	186.09	36.16	-43.8	-46.6	17.0	0.00e+00	0	43	0	915406848	59	4888
2026-01-26 23:39:36.32	186.14	35.99	-43.8	-46.5	17.1	0.00e+00	0	44	0	916455424	59	4837
2026-01-26 23:39:37.60	186.24	35.70	-43.5	-46.1	17.6	0.00e+00	0	43	0	919601152	58	4889
2026-01-26 23:39:38.32	186.29	35.54	-43.3	-45.8	17.8	0.00e+00	0	43	0	920649728	58	4752
2026-01-26 23:39:39.60	186.38	35.25	-43.4	-46.0	17.6	0.00e+00	0	44	0	922746880	58	4863
2026-01-26 23:39:40.50	186.45	35.05	-43.8	-46.5	17.2	0.00e+00	0	44	0	924844032	58	5130
2026-01-26 23:39:41.62	186.53	34.80	-44.2	-47.1	16.6	0.00e+00	0	43	0	926941184	59	5167
2026-01-26 23:39:42.65	186.60	34.57	-44.5	-47.5	16.2	0.00e+00	0	44	0	929038336	59	5405
2026-01-26 23:39:43.65	186.67	34.35	-45.1	-48.4	15.4	0.00e+00	0	44	0	930086912	60	5696
2026-01-26 23:39:44.64	186.73	34.13	-45.7	-49.4	14.3	7.00e-07	0	44	0	932184064	62	5696
2026-01-26 23:39:45.63	186.80	33.92	-46.1	-50.1	13.6	3.00e-06	0	44	0	934281216	62	6160
2026-01-26 23:39:46.63	186.87	33.71	-46.5	-50.9	12.8	2.97e-05	0	44	0	936378368	63	6378
2026-01-26 23:39:47.63	186.93	33.49	-46.6	-51.1	12.5	9.46e-05	0	44	0	938475520	63	6523
2026-01-26 23:39:48.62	187.00	33.28	-46.5	-50.8	12.8	6.71e-05	0	43	0	939524096	63	6344
2026-01-26 23:39:49.62	187.06	33.07	-46.2	-50.3	13.3	3.89e-05	0	44	0	941621248	63	5940
2026-01-26 23:39:50.61	187.12	32.86	-45.7	-49.4	14.2	4.50e-06	0	43	0	943718400	63	5371
2026-01-26 23:39:51.61	187.19	32.66	-45.4	-48.8	14.9	0.00e+00	0	44	0	945815552	62	5328
2026-01-26 23:39:52.60	187.25	32.45	-44.8	-48.0	15.6	0.00e+00	0	43	0	946864128	61	5134
2026-01-26 23:39:53.60	187.31	32.25	-44.6	-47.7	16.0	0.00e+00	0	43	0	948961280	61	4950
2026-01-26 23:39:54.69	187.37	32.02	-44.6	-47.7	16.0	0.00e+00	0	44	0	951058432	61	4931
2026-01-26 23:39:55.54	187.43	31.85	-44.6	-47.7	15.9	0.00e+00	0	43	0	953155584	61	4969
2026-01-26 23:39:56.67	187.49	31.63	-44.6	-47.7	16.0	0.00e+00	0	44	0	955252736	61	4954
2026-01-26 23:39:57.53	187.54	31.45	-44.8	-48.0	15.8	0.00e+00	0	44	0	956301312	61	5113
2026-01-26 23:39:58.66	187.61	31.23	-44.8	-48.0	15.7	0.00e+00	0	44	0	958398464	61	5115
2026-01-26 23:39:59.52	187.66	31.06	-44.7	-47.8	15.8	0.00e+00	0	44	0	960495616	61	5033
2026-01-26 23:40:00.65	187.72	30.84	-44.6	-47.7	16.0	0.00e+00	0	43	0	962592768	61	4962
2026-01-26 23:40:01.51	187.77	30.67	-44.5	-47.6	16.1	0.00e+00	0	44	0	963641344	61	4882
2026-01-26 23:40:02.64	187.83	30.45	-44.5	-47.5	16.2	0.00e+00	0	43	0	965738496	60	5136
2026-01-26 23:40:03.82	187.89	30.23	-44.4	-47.4	16.3	0.00e+00	0	43	0	967835648	60	5087
2026-01-26 23:40:04.87	187.95	30.03	-44.2	-47.2	16.5	0.00e+00	0	43	0	969932800	60	4965
2026-01-26 23:40:05.84	188.00	29.84	-44.2	-47.2	16.5	0.00e+00	0	44	0	972029952	60	4954
2026-01-26 23:40:06.83	188.05	29.66	-44.2	-47.1	16.6	0.00e+00	0	44	0	974127104	60	4890
2026-01-26 23:40:07.83	188.10	29.47	-44.1	-47.0	16.6	0.00e+00	0	43	0	976224256	60	4859
2026-01-26 23:40:08.82	188.16	29.29	-44.1	-47.0	16.6	0.00e+00	0	44	0	977272832	60	4855
2026-01-26 23:40:09.82	188.21	29.10	-44.0	-46.9	16.7	0.00e+00	0	44	0	979369984	60	4803
2026-01-26 23:40:10.81	188.26	28.92	-43.8	-46.6	17.0	0.00e+00	0	43	0	981467136	59	4882
2026-01-26 23:40:11.81	188.31	28.74	-43.7	-46.4	17.2	0.00e+00	0	43	0	983564288	59	4801
2026-01-26 23:40:12.80	188.35	28.56	-43.7	-46.5	17.1	0.00e+00	0	44	0	984612864	59	4834
2026-01-26 23:40:13.80	188.40	28.38	-43.5	-46.1	17.5	0.00e+00	0	43	0	986710016	58	4895
2026-01-26 23:40:14.79	188.45	28.20	-43.3	-46.0	17.6	0.00e+00	0	44	0	988807168	58	4816
2026-01-26 23:40:15.79	188.50	28.03	-43.3	-45.9	17.7	0.00e+00	0	44	0	990904320	58	4773
2026-01-26 23:40:16.86	188.55	27.84	-43.1	-45.7	17.9	0.00e+00	0	44	0	993001472	58	4669
2026-01-26 23:40:17.74	188.59	27.68	-43.0	-45.5	18.1	0.00e+00	0	44	0	994050048	58	4562
2026-01-26 23:40:18.88	188.64	27.48	-43.0	-45.5	18.1	0.00e+00	0	43	0	996147200	57	4861
2026-01-26 23:40:19.73	188.68	27.34	-42.9	-45.4	18.2	0.00e+00	0	44	0	998244352	57	4782
2026-01-26 23:40:20.87	188.73	27.14	-42.8	-45.3	18.2	0.00e+00	0	44	0	1000341504	57	4728
2026-01-26 23:40:21.72	188.77	27.00	-42.8	-45.3	18.3	0.00e+00	0	44	0	1001390080	57	4741
2026-01-26 23:40:22.86	188.82	26.80	-42.9	-45.4	18.2	0.00e+00	0	44	0	1003487232	57	4780
2026-01-26 23:40:23.72	188.86	26.66	-42.8	-45.2	18.3	0.00e+00	0	44	0	1005584384	57	4699
2026-01-26 23:40:24.85	188.91	26.47	-42.7	-45.2	18.3	0.00e+00	0	43	0	1007681536	57	4678
2026-01-26 23:40:25.71	188.95	26.32	-42.8	-45.2	18.3	0.00e+00	0	43	0	1009778688	57	4701
2026-01-26 23:40:26.84	189.00	26.14	-42.6	-45.1	18.4	0.00e+00	0	43	0	1011875840	57	4634
2026-01-26 23:40:27.70	189.03	25.99	-42.7	-45.2	18.3	0.00e+00	0	44	0	1012924416	57	4685
2026-01-26 23:40:28.88	189.08	25.80	-42.7	-45.2	18.3	0.00e+00	0	44	0	1015021568	57	4700
2026-01-26 23:40:29.73	189.12	25.66	-42.8	-45.3	18.2	0.00e+00	0	44	0	1017118720	57	4734
2026-01-26 23:40:30.87	189.16	25.48	-42.7	-45.2	18.3	0.00e+00	0	44	0	1019215872	57	4683
2026-01-26 23:40:31.72	189.20	25.34	-42.7	-45.2	18.3	0.00e+00	0	44	0	1020264448	57	4676
2026-01-26 23:40:32.86	189.24	25.16	-42.7	-45.1	18.4	0.00e+00	0	44	0	1022361600	57	4645
2026-01-26 23:40:33.71	189.28	25.02	-42.6	-45.0	18.5	0.00e+00	0	43	0	1024458752	57	4582
2026-01-26 23:40:34.85	189.32	24.84	-42.5	-44.9	18.6	0.00e+00	0	44	0	1026555904	57	4527
2026-01-26 23:40:35.70	189.36	24.71	-42.4	-44.8	18.7	0.00e+00	0	44	0	1027604480	56	4741
2026-01-26 23:40:36.84	189.40	24.53	-42.4	-44.8	18.7	0.00e+00	0	44	0	1029701632	56	4733
2026-01-26 23:40:37.69	189.43	24.40	-42.2	-44.6	18.9	0.00e+00	0	44	0	1031798784	56	4611
2026-01-26 23:40:38.82	189.48	24.23	-42.2	-44.5	19.0	0.00e+00	0	44	0	1033895936	56	4588
2026-01-26 23:40:39.68	189.51	24.09	-42.1	-44.5	19.0	0.00e+00	0	44	0	1035993088	56	4568
2026-01-26 23:40:40.82	189.55	23.92	-42.1	-44.4	19.1	0.00e+00	0	44	0	1038090240	56	4524
2026-01-26 23:40:41.67	189.58	23.79	-42.1	-44.5	19.0	0.00e+00	0	43	0	1039138816	56	4558
2026-01-26 23:40:42.80	189.63	23.62	-42.0	-44.4	19.1	0.00e+00	0	44	0	1041235968	56	4509
2026-01-26 23:40:43.66	189.66	23.49	-41.7	-44.0	19.3	0.00e+00	0	44	0	1043333120	55	4568
2026-01-26 23:40:44.79	189.70	23.32	-41.6	-43.9	19.4	0.00e+00	0	43	0	1045430272	55	4524
2026-01-26 23:40:45.64	189.73	23.20	-41.6	-43.8	19.5	0.00e+00	0	44	0	1046478848	55	4473
2026-01-26 23:40:46.78	189.77	23.03	-41.7	-44.0	19.4	0.00e+00	0	44	0	1048576000	55	4546
2026-01-26 23:40:47.71	189.80	22.89	-41.6	-43.9	19.4	0.00e+00	0	43	0	1050673152	55	4525
2026-01-26 23:40:48.88	189.84	22.72	-41.7	-44.0	19.2	0.00e+00	0	44	0	1052770304	55	4597
2026-01-26 23:40:49.74	189.87	22.60	-41.6	-43.9	19.4	0.00e+00	0	43	0	1054867456	55	4509
2026-01-26 23:40:50.87	189.91	22.43	-41.5	-43.8	19.4	0.00e+00	0	43	0	1056964608	55	4482
2026-01-26 23:40:51.72	189.94	22.31	-41.5	-43.7	19.5	0.00e+00	0	44	0	1058013184	54	4699
2026-01-26 23:40:52.86	189.98	22.15	-41.6	-43.9	19.3	0.00e+00	0	43	0	1060110336	54	4808
2026-01-26 23:40:53.71	190.01	22.03	-41.7	-44.0	19.3	0.00e+00	0	43	0	1062207488	54	4828
2026-01-26 23:40:54.85	190.05	21.87	-41.7	-44.1	19.2	0.00e+00	0	43	0	1064304640	54	4882
2026-01-26 23:40:55.70	190.07	21.75	-41.8	-44.2	19.1	0.00e+00	0	43	0	1065353216	54	4949
2026-01-26 23:40:56.84	190.11	21.59	-41.9	-44.3	19.0	0.00e+00	0	43	0	1067450368	54	5003
2026-01-26 23:40:57.69	190.14	21.47	-41.8	-44.2	19.1	0.00e+00	0	43	0	1069547520	54	4945
2026-01-26 23:40:58.83	190.18	21.31	-41.9	-44.3	19.0	0.00e+00	0	44	0	1071644672	54	5012
2026-01-26 23:40:59.68	190.20	21.20	-41.9	-44.3	19.0	0.00e+00	0	44	0	1072693248	54	4999
2026-01-26 23:41:00.93	190.24	21.03	-41.8	-44.2	19.1	0.00e+00	0	44	0	1075838976	54	4973
2026-01-26 23:41:01.78	190.27	20.91	-41.9	-44.3	19.0	0.00e+00	0	44	0	1076887552	54	5025
2026-01-26 23:41:02.98	190.31	20.75	-41.9	-44.3	19.0	0.00e+00	0	43	0	1078984704	54	4986
2026-01-26 23:41:03.84	190.33	20.63	-41.9	-44.3	19.0	0.00e+00	0	44	0	1081081856	54	5025
2026-01-26 23:41:04.97	190.37	20.48	-42.0	-44.4	18.9	0.00e+00	0	43	0	1083179008	54	5061
2026-01-26 23:41:05.83	190.40	20.37	-41.9	-44.3	19.0	0.00e+00	0	44	0	1084227584	54	5001
2026-01-26 23:41:07.11	190.43	20.20	-42.0	-44.4	18.9	0.00e+00	0	44	0	1087373312	54	5057
2026-01-26 23:41:07.83	190.46	20.11	-42.0	-44.5	18.8	0.00e+00	0	44	0	1088421888	54	5113
2026-01-26 23:41:09.11	190.49	19.94	-41.9	-44.3	19.0	0.00e+00	0	44	0	1090519040	54	5026
2026-01-26 23:41:09.83	190.51	19.84	-41.9	-44.4	18.9	0.00e+00	0	44	0	1092616192	54	5047
2026-01-26 23:41:11.11	190.55	19.68	-42.0	-44.4	18.8	0.00e+00	0	44	0	1094713344	54	5096
2026-01-26 23:41:11.85	190.57	19.58	-42.0	-44.4	18.8	0.00e+00	0	43	0	1095761920	54	5089
2026-01-26 23:41:13.13	190.61	19.42	-42.0	-44.5	18.8	0.00e+00	0	44	0	1097859072	54	5108
2026-01-26 23:41:13.84	190.63	19.33	-42.0	-44.5	18.8	0.00e+00	0	43	0	1099956224	54	5123
2026-01-26 23:41:15.12	190.67	19.17	-42.2	-44.7	18.5	0.00e+00	0	44	0	1102053376	55	4957
2026-01-26 23:41:16.02	190.69	19.05	-42.1	-44.6	18.7	0.00e+00	0	44	0	1103101952	55	4914
2026-01-26 23:41:17.13	190.72	18.91	-42.1	-44.6	18.7	0.00e+00	0	43	0	1106247680	55	4896
2026-01-26 23:41:17.98	190.75	18.81	-42.2	-44.7	18.6	0.00e+00	0	43	0	1107296256	55	4975
2026-01-26 23:41:19.11	190.78	18.67	-42.3	-44.8	18.5	0.00e+00	0	43	0	1109393408	55	5009
2026-01-26 23:41:19.96	190.80	18.56	-42.4	-44.9	18.3	0.00e+00	0	43	0	1111490560	55	5099
2026-01-26 23:41:21.10	190.83	18.42	-42.5	-45.1	18.2	0.00e+00	0	43	0	1113587712	55	5193
2026-01-26 23:41:21.96	190.86	18.32	-42.4	-45.0	18.3	0.00e+00	0	44	0	1114636288	55	5101
2026-01-26 23:41:23.09	190.89	18.18	-42.5	-45.1	18.2	0.00e+00	0	44	0	1116733440	55	5176
2026-01-26 23:41:23.95	190.91	18.08	-42.5	-45.1	18.2	0.00e+00	0	43	0	1118830592	55	5170
2026-01-26 23:41:25.08	190.94	17.94	-42.5	-45.2	18.1	0.00e+00	0	44	0	1120927744	55	5224
2026-01-26 23:41:25.93	190.96	17.84	-42.6	-45.2	18.1	0.00e+00	0	44	0	1121976320	55	5266
2026-01-26 23:41:27.15	190.99	17.69	-42.6	-45.2	18.1	0.00e+00	0	44	0	1124073472	55	5241
2026-01-26 23:41:28.40	191.03	17.54	-42.5	-45.2	18.1	0.00e+00	0	43	0	1127219200	55	5229
2026-01-26 23:41:29.42	191.05	17.42	-42.6	-45.2	18.1	0.00e+00	0	44	0	1129316352	55	5258
2026-01-26 23:41:30.42	191.08	17.31	-42.6	-45.2	18.1	0.00e+00	0	44	0	1130364928	55	5251
2026-01-26 23:41:31.42	191.10	17.19	-42.6	-45.2	18.1	0.00e+00	0	44	0	1132462080	55	5259
2026-01-26 23:41:32.41	191.13	17.07	-42.7	-45.3	18.0	0.00e+00	0	44	0	1134559232	55	5314
2026-01-26 23:41:33.41	191.15	16.96	-42.8	-45.4	18.0	0.00e+00	0	44	0	1136656384	56	5096
2026-01-26 23:41:34.40	191.18	16.84	-42.8	-45.4	18.1	0.00e+00	0	44	0	1137704960	56	5050
2026-01-26 23:41:35.40	191.20	16.73	-42.8	-45.4	18.1	0.00e+00	0	43	0	1139802112	56	5062
2026-01-26 23:41:36.39	191.23	16.62	-42.8	-45.4	18.1	0.00e+00	0	44	0	1141899264	56	5097
2026-01-26 23:41:37.39	191.25	16.50	-42.7	-45.4	18.0	0.00e+00	0	44	0	1143996416	56	5072
2026-01-26 23:41:38.38	191.27	16.39	-42.7	-45.4	18.1	0.00e+00	0	44	0	1146093568	56	5050
2026-01-26 23:41:39.38	191.30	16.28	-42.7	-45.4	18.1	0.00e+00	0	44	0	1147142144	56	5052
2026-01-26 23:41:40.45	191.32	16.16	-42.7	-45.3	18.2	0.00e+00	0	44	0	1149239296	56	4996
2026-01-26 23:41:41.35	191.35	16.06	-42.7	-45.3	18.1	0.00e+00	0	44	0	1151336448	56	5020
2026-01-26 23:41:42.39	191.37	15.94	-42.6	-45.3	18.2	0.00e+00	0	44	0	1153433600	56	4986
2026-01-26 23:41:43.39	191.39	15.83	-42.6	-45.2	18.2	0.00e+00	0	44	0	1154482176	56	4975
2026-01-26 23:41:44.38	191.42	15.72	-42.5	-45.1	18.3	0.00e+00	0	44	0	1156579328	56	4922
2026-01-26 23:41:45.37	191.44	15.61	-42.6	-45.2	18.3	0.00e+00	0	44	0	1158676480	56	4951
2026-01-26 23:41:46.37	191.46	15.50	-42.5	-45.1	18.3	0.00e+00	0	44	0	1160773632	56	4911
2026-01-26 23:41:47.36	191.49	15.40	-42.4	-45.0	18.4	0.00e+00	0	44	0	1162870784	56	4863
2026-01-26 23:41:48.36	191.51	15.29	-42.5	-45.1	18.3	0.00e+00	0	44	0	1163919360	56	4902
2026-01-26 23:41:49.35	191.53	15.18	-42.5	-45.2	18.3	0.00e+00	0	44	0	1166016512	56	4933
2026-01-26 23:41:50.34	191.55	15.07	-42.4	-45.0	18.4	0.00e+00	0	44	0	1168113664	56	4837
2026-01-26 23:41:51.34	191.57	14.97	-42.4	-45.1	18.3	0.00e+00	0	44	0	1170210816	56	4878
2026-01-26 23:41:52.33	191.60	14.86	-42.4	-45.0	18.4	0.00e+00	0	43	0	1171259392	56	4861
2026-01-26 23:41:53.33	191.62	14.76	-42.5	-45.1	18.3	0.00e+00	0	43	0	1173356544	56	4923
2026-01-26 23:41:54.33	191.64	14.65	-42.5	-45.1	18.3	0.00e+00	0	44	0	1175453696	56	4902
2026-01-26 23:41:55.32	191.66	14.55	-42.5	-45.1	18.3	0.00e+00	0	43	0	1177550848	56	4874
2026-01-26 23:41:56.36	191.68	14.44	-42.5	-45.1	18.3	0.00e+00	0	44	0	1179648000	56	4912
2026-01-26 23:41:57.39	191.71	14.33	-42.6	-45.2	18.2	0.00e+00	0	44	0	1181745152	56	4976
2026-01-26 23:41:58.38	191.73	14.23	-42.5	-45.1	18.3	0.00e+00	0	44	0	1182793728	56	4890
2026-01-26 23:41:59.45	191.75	14.12	-42.6	-45.2	18.2	0.00e+00	0	44	0	1184890880	56	4966
2026-01-26 23:42:00.34	191.77	14.03	-42.6	-45.2	18.2	0.00e+00	0	43	0	1186988032	56	4939
2026-01-26 23:42:01.65	191.80	13.89	-42.6	-45.2	18.2	0.00e+00	0	44	0	1189085184	56	4980
2026-01-26 23:42:02.36	191.81	13.82	-42.7	-45.3	18.1	0.00e+00	0	44	0	1190133760	56	4990
2026-01-26 23:42:03.64	191.84	13.69	-42.6	-45.2	18.1	0.00e+00	0	44	0	1193279488	56	4978
2026-01-26 23:42:04.37	191.85	13.62	-42.7	-45.3	18.1	0.00e+00	0	44	0	1194328064	56	4991
2026-01-26 23:42:05.65	191.88	13.49	-42.7	-45.3	18.1	0.00e+00	0	44	0	1196425216	56	5009
2026-01-26 23:42:06.36	191.89	13.42	-42.7	-45.4	18.0	0.00e+00	0	44	0	1198522368	56	5052
2026-01-26 23:42:07.64	191.92	13.29	-42.8	-45.5	17.9	0.00e+00	0	44	0	1200619520	56	5140
2026-01-26 23:42:08.37	191.93	13.22	-42.8	-45.5	17.9	0.00e+00	0	44	0	1201668096	56	5112
2026-01-26 23:42:09.65	191.96	13.09	-42.8	-45.5	17.9	0.00e+00	0	44	0	1203765248	56	5113
2026-01-26 23:42:10.36	191.97	13.02	-42.8	-45.5	17.9	0.00e+00	0	43	0	1205862400	56	5139
2026-01-26 23:42:11.64	192.00	12.90	-42.8	-45.5	17.9	0.00e+00	0	43	0	1207959552	56	5139
2026-01-26 23:42:12.60	192.02	12.80	-42.9	-45.6	17.8	0.00e+00	0	43	0	1210056704	56	5198
2026-01-26 23:42:13.60	192.04	12.70	-42.9	-45.6	17.8	0.00e+00	0	43	0	1211105280	56	5187
2026-01-26 23:42:14.94	192.06	12.57	-42.9	-45.6	17.7	0.00e+00	0	43	0	1214251008	56	5208
2026-01-26 23:42:15.69	192.08	12.50	-42.9	-45.7	17.7	0.00e+00	0	44	0	1215299584	56	5257
2026-01-26 23:42:16.97	192.10	12.38	-42.9	-45.7	17.6	0.00e+00	0	43	0	1217396736	56	5263
2026-01-26 23:42:17.69	192.12	12.31	-42.9	-45.7	17.7	0.00e+00	0	44	0	1219493888	56	5267
2026-01-26 23:42:18.97	192.14	12.19	-43.0	-45.8	17.6	0.00e+00	0	44	0	1221591040	56	5291
2026-01-26 23:42:19.68	192.15	12.12	-43.1	-45.9	17.5	0.00e+00	0	44	0	1222639616	56	5350
2026-01-26 23:42:20.96	192.18	12.00	-43.0	-45.8	17.5	0.00e+00	0	43	0	1225785344	56	5335
2026-01-26 23:42:21.70	192.19	11.93	-43.0	-45.8	17.5	0.00e+00	0	44	0	1226833920	56	5324
2026-01-26 23:42:22.98	192.21	11.81	-43.1	-45.9	17.5	0.00e+00	0	44	0	1228931072	56	5356
2026-01-26 23:42:23.72	192.23	11.74	-43.1	-45.9	17.5	0.00e+00	0	44	0	1231028224	56	5354
2026-01-26 23:42:25.06	192.25	11.62	-43.1	-45.9	17.4	0.00e+00	0	44	0	1233125376	56	5398
2026-01-26 23:42:25.77	192.27	11.55	-43.1	-45.9	17.4	0.00e+00	0	44	0	1234173952	56	5369
