passes_logs/2026/01/26/T1/T1__20260126_203202_KHAYYAM_rec.log

#Pass ID: 20260126_203202_KHAYYAM
#Satellite: KHAYYAM
#Configuration: KHAYYAM_480M
#almurnet v.1.7.20251203
#Start time: 2026-01-26 20:32:02

#Version: 2.0.20230620
#Station: T1
#Location: 37.570604 lon 55.790049 lat
#TLE: 1 53370U 22096A   26025.98270071  .00009021  00000+0  36681-3 0  9994
#TLE: 2 53370  97.3548 292.7957 0002035 107.5032 252.6428 15.24762905192917

#Time	Az	El	Level	Level2	SNR	BER	BlckErr	Temp	State	Recorded	gain1	gain2
2026-01-26 20:32:02.34	25.84	4.98	-50.7	-54.5	3.4	0.00e+00	0	45	0	0	73	21727
2026-01-26 20:32:03.33	25.93	5.05	-50.8	-54.5	3.7	0.00e+00	0	46	104	0	72	23045
2026-01-26 20:32:04.32	26.01	5.12	-50.8	-54.6	3.7	0.00e+00	0	45	104	0	72	23152
2026-01-26 20:32:05.31	26.09	5.20	-50.8	-54.5	3.7	0.00e+00	0	46	104	0	72	23076
2026-01-26 20:32:06.31	26.18	5.27	-50.8	-54.5	3.7	0.00e+00	0	46	104	0	72	23061
2026-01-26 20:32:07.30	26.26	5.35	-50.8	-54.5	3.7	0.00e+00	0	46	104	0	72	23092
2026-01-26 20:32:08.29	26.35	5.42	-50.8	-54.5	3.7	0.00e+00	0	46	104	0	72	22973
2026-01-26 20:32:09.28	26.43	5.50	-50.7	-54.5	3.7	0.00e+00	0	46	104	0	72	23011
2026-01-26 20:32:10.28	26.52	5.57	-50.8	-54.5	3.7	0.00e+00	0	46	104	0	72	22966
2026-01-26 20:32:11.27	26.61	5.65	-50.7	-54.4	3.7	0.00e+00	0	46	104	0	72	22774
2026-01-26 20:32:12.27	26.70	5.73	-50.8	-54.5	3.7	0.00e+00	0	46	104	0	72	23072
2026-01-26 20:32:13.26	26.78	5.80	-50.8	-54.5	3.7	0.00e+00	0	46	104	0	72	23027
2026-01-26 20:32:14.25	26.87	5.88	-50.8	-54.5	3.7	0.00e+00	0	47	104	0	72	23109
2026-01-26 20:32:15.25	26.96	5.95	-50.8	-54.5	3.7	0.00e+00	0	46	104	0	72	22968
2026-01-26 20:32:16.24	27.05	6.03	-50.7	-54.4	3.7	0.00e+00	0	46	104	0	72	22871
2026-01-26 20:32:17.23	27.14	6.11	-50.7	-54.4	3.7	0.00e+00	0	47	104	0	72	22787
2026-01-26 20:32:18.22	27.23	6.19	-50.7	-54.5	3.7	0.00e+00	0	47	104	0	72	22941
2026-01-26 20:32:19.22	27.33	6.26	-50.7	-54.4	3.7	0.00e+00	0	47	104	0	72	22798
2026-01-26 20:32:20.21	27.42	6.34	-50.7	-54.4	3.7	0.00e+00	0	47	104	0	72	22831
2026-01-26 20:32:21.20	27.51	6.42	-50.7	-54.5	3.7	0.00e+00	0	47	104	0	72	22922
2026-01-26 20:32:22.20	27.60	6.50	-50.7	-54.5	3.7	0.00e+00	0	47	104	0	72	22924
2026-01-26 20:32:23.19	27.70	6.58	-50.7	-54.5	3.7	0.00e+00	0	47	104	0	72	22982
2026-01-26 20:32:24.18	27.79	6.66	-50.7	-54.5	3.7	0.00e+00	0	47	104	0	72	22953
2026-01-26 20:32:25.18	27.89	6.74	-50.7	-54.5	3.7	0.00e+00	0	47	104	0	72	22898
2026-01-26 20:32:26.17	27.98	6.82	-50.7	-54.5	3.7	0.00e+00	0	47	104	0	72	22976
2026-01-26 20:32:27.16	28.08	6.90	-50.8	-54.5	3.7	0.00e+00	0	47	104	0	72	23078
2026-01-26 20:32:28.15	28.18	6.98	-50.8	-54.5	3.7	0.00e+00	0	47	104	0	72	23071
2026-01-26 20:32:29.15	28.28	7.06	-50.8	-54.5	3.7	0.00e+00	0	47	104	0	72	22989
2026-01-26 20:32:30.14	28.37	7.14	-50.8	-54.6	3.7	0.00e+00	0	47	104	0	72	23201
2026-01-26 20:32:31.13	28.47	7.22	-50.8	-54.5	3.7	0.00e+00	0	48	104	0	72	23149
2026-01-26 20:32:32.13	28.57	7.30	-50.8	-54.5	3.7	0.00e+00	0	48	104	0	72	23122
2026-01-26 20:32:33.12	28.67	7.38	-50.8	-54.5	3.7	0.00e+00	0	48	104	0	72	23042
2026-01-26 20:32:34.11	28.78	7.46	-50.8	-54.5	3.7	0.00e+00	0	48	104	0	72	22972
2026-01-26 20:32:35.11	28.88	7.55	-50.8	-54.5	3.7	0.00e+00	0	48	104	0	72	22959
2026-01-26 20:32:36.10	28.98	7.63	-50.7	-54.5	3.7	0.00e+00	0	48	104	0	72	22949
2026-01-26 20:32:37.09	29.08	7.71	-50.7	-54.5	3.7	0.00e+00	0	48	104	0	72	22920
2026-01-26 20:32:38.09	29.19	7.80	-50.7	-54.5	3.7	0.00e+00	0	48	104	0	72	22989
2026-01-26 20:32:39.08	29.29	7.88	-50.8	-54.5	3.7	0.00e+00	0	48	104	0	72	23092
2026-01-26 20:32:40.07	29.40	7.96	-50.8	-54.6	3.7	0.00e+00	0	48	104	0	72	23195
2026-01-26 20:32:41.06	29.50	8.05	-50.8	-54.6	3.7	0.00e+00	0	48	104	0	72	23167
2026-01-26 20:32:42.06	29.61	8.13	-50.8	-54.6	3.7	0.00e+00	0	48	104	0	72	23174
2026-01-26 20:32:43.05	29.72	8.22	-50.8	-54.5	3.7	0.00e+00	0	48	104	0	72	23109
2026-01-26 20:32:44.04	29.83	8.30	-50.8	-54.5	3.7	0.00e+00	0	48	104	0	72	23139
2026-01-26 20:32:45.04	29.94	8.39	-50.8	-54.5	3.7	0.00e+00	0	49	104	0	72	23126
2026-01-26 20:32:46.03	30.05	8.47	-50.8	-54.5	3.7	0.00e+00	0	48	104	0	72	23036
2026-01-26 20:32:47.02	30.16	8.56	-50.8	-54.5	3.7	0.00e+00	0	48	104	0	72	23061
2026-01-26 20:32:48.02	30.27	8.64	-50.7	-54.4	3.7	0.00e+00	0	49	104	0	72	22720
2026-01-26 20:32:49.01	30.38	8.73	-50.8	-54.5	3.7	0.00e+00	0	49	104	0	72	23057
2026-01-26 20:32:50.00	30.49	8.82	-50.7	-54.4	3.7	0.00e+00	0	48	104	0	72	22800
2026-01-26 20:32:51.00	30.61	8.91	-50.7	-54.5	3.7	0.00e+00	0	49	104	0	72	22966
2026-01-26 20:32:51.99	30.72	8.99	-50.7	-54.4	3.7	0.00e+00	0	49	104	0	72	22805
2026-01-26 20:32:52.98	30.84	9.08	-50.7	-54.4	3.7	0.00e+00	0	49	104	0	72	22863
2026-01-26 20:32:53.98	30.96	9.17	-50.9	-54.7	3.7	0.00e+00	0	49	104	0	72	23591
2026-01-26 20:32:54.97	31.07	9.26	-51.7	-56.6	3.7	0.00e+00	0	49	104	0	74	26186
2026-01-26 20:32:55.97	31.19	9.35	-50.8	-54.5	3.7	0.00e+00	0	49	104	0	73	21771
2026-01-26 20:32:56.97	31.31	9.44	-50.7	-54.3	3.7	0.00e+00	0	49	104	0	73	21203
2026-01-26 20:32:57.96	31.43	9.53	-51.5	-56.3	3.7	0.00e+00	0	49	104	0	73	26807
2026-01-26 20:32:58.95	31.55	9.62	-51.3	-55.4	3.7	0.00e+00	0	49	104	0	73	24193
2026-01-26 20:32:59.95	31.68	9.71	-51.5	-56.1	3.7	0.00e+00	0	49	104	0	73	26260
2026-01-26 20:33:00.94	31.80	9.80	-51.7	-56.6	3.7	0.00e+00	0	49	104	0	73	27586
2026-01-26 20:33:01.94	31.92	9.89	-51.4	-56.1	3.7	0.00e+00	0	49	104	0	73	26028
2026-01-26 20:33:02.95	32.05	9.98	-50.9	-55.2	3.7	0.00e+00	0	49	104	0	73	23510
2026-01-26 20:33:03.94	32.17	10.08	-50.6	-54.8	3.7	0.00e+00	0	49	104	0	73	22428
2026-01-26 20:33:04.94	32.30	10.17	-50.8	-54.8	3.7	0.00e+00	0	49	104	0	73	22547
2026-01-26 20:33:05.93	32.43	10.26	-51.5	-55.6	3.7	0.00e+00	0	49	104	0	73	24668
2026-01-26 20:33:06.93	32.56	10.35	-51.6	-56.2	3.7	0.00e+00	0	49	104	0	74	25053
2026-01-26 20:33:07.92	32.69	10.45	-51.1	-54.6	3.7	0.00e+00	0	49	104	0	74	20804
2026-01-26 20:33:08.92	32.82	10.54	-51.4	-55.1	3.7	0.00e+00	0	49	104	0	74	21987
2026-01-26 20:33:09.91	32.95	10.64	-51.8	-55.7	3.7	0.00e+00	0	50	104	0	74	23679
2026-01-26 20:33:10.90	33.08	10.73	-52.0	-56.1	3.7	0.00e+00	0	49	104	0	74	24542
2026-01-26 20:33:11.90	33.22	10.83	-52.1	-56.2	3.7	0.00e+00	0	49	104	0	74	24972
2026-01-26 20:33:12.89	33.35	10.92	-51.8	-55.6	3.7	0.00e+00	0	49	104	0	74	23406
2026-01-26 20:33:13.89	33.49	11.02	-51.7	-55.6	3.7	0.00e+00	0	49	104	0	74	23201
2026-01-26 20:33:14.88	33.62	11.11	-52.1	-56.4	3.7	0.00e+00	0	49	104	0	75	24236
2026-01-26 20:33:15.93	33.77	11.21	-51.3	-55.0	3.7	0.00e+00	0	49	104	0	74	21643
2026-01-26 20:33:16.95	33.91	11.31	-50.7	-53.9	3.7	0.00e+00	0	49	104	0	73	20352
2026-01-26 20:33:17.98	34.06	11.41	-50.2	-53.0	3.7	0.00e+00	0	49	104	0	72	19474
2026-01-26 20:33:18.98	34.20	11.51	-50.1	-52.9	3.7	0.00e+00	0	49	104	0	72	19255
2026-01-26 20:33:19.97	34.34	11.61	-50.0	-52.7	3.7	0.00e+00	0	49	104	0	71	19931
2026-01-26 20:33:20.96	34.48	11.71	-51.1	-54.2	3.7	0.00e+00	0	50	104	0	72	22310
2026-01-26 20:33:21.96	34.63	11.81	-51.9	-56.2	3.7	0.00e+00	0	50	104	0	74	24815
2026-01-26 20:33:22.95	34.78	11.91	-51.8	-56.2	3.7	0.00e+00	0	50	104	0	74	24887
2026-01-26 20:33:23.95	34.92	12.01	-50.7	-54.9	3.7	0.00e+00	0	50	104	0	73	22833
2026-01-26 20:33:24.94	35.07	12.11	-51.8	-56.2	3.7	0.00e+00	0	50	104	0	74	24955
2026-01-26 20:33:25.93	35.22	12.21	-50.9	-55.2	3.7	0.00e+00	0	50	104	0	73	23556
2026-01-26 20:33:26.93	35.37	12.31	-51.1	-55.5	3.7	0.00e+00	0	50	104	0	73	24291
2026-01-26 20:33:27.92	35.52	12.41	-50.8	-54.9	3.7	0.00e+00	0	50	104	0	73	22871
2026-01-26 20:33:28.92	35.68	12.51	-50.3	-53.8	3.7	0.00e+00	0	50	104	0	72	21349
2026-01-26 20:33:29.92	35.83	12.61	-49.9	-52.9	3.7	0.00e+00	0	50	104	0	71	20178
2026-01-26 20:33:30.91	35.99	12.72	-50.1	-53.1	3.7	0.00e+00	0	50	104	0	71	20865
2026-01-26 20:33:31.91	36.14	12.82	-51.4	-55.0	3.7	0.00e+00	0	50	104	0	73	23096
2026-01-26 20:33:32.95	36.31	12.93	-48.4	-50.6	3.8	0.00e+00	0	50	104	0	68	18425
2026-01-26 20:33:33.98	36.48	13.04	-51.5	-55.2	3.7	0.00e+00	0	50	104	0	73	23513
2026-01-26 20:33:34.97	36.64	13.14	-47.3	-49.3	3.7	0.00e+00	0	50	104	0	66	17868
2026-01-26 20:33:35.97	36.80	13.24	-47.5	-49.5	3.7	0.00e+00	0	50	104	0	66	18205
2026-01-26 20:33:36.96	36.96	13.35	-48.2	-50.4	3.7	0.00e+00	0	50	104	0	67	19101
2026-01-26 20:33:37.96	37.13	13.46	-49.0	-51.3	3.7	0.00e+00	0	50	104	0	68	20133
2026-01-26 20:33:38.95	37.29	13.56	-49.8	-52.3	3.7	0.00e+00	0	50	104	0	70	20030
2026-01-26 20:33:39.95	37.46	13.67	-51.5	-54.9	3.7	0.00e+00	0	50	104	0	73	22837
2026-01-26 20:33:40.94	37.63	13.77	-51.0	-54.2	3.7	0.00e+00	0	50	104	0	73	20902
2026-01-26 20:33:41.94	37.80	13.88	-49.7	-52.3	3.7	0.00e+00	0	50	104	0	71	18911
2026-01-26 20:33:42.93	37.98	13.99	-51.4	-54.7	3.7	0.00e+00	0	50	104	0	74	20962
2026-01-26 20:33:43.92	38.15	14.10	-50.2	-53.0	3.7	0.00e+00	0	50	104	0	72	19349
2026-01-26 20:33:44.92	38.32	14.21	-49.7	-52.2	3.8	0.00e+00	0	50	104	0	71	18634
2026-01-26 20:33:45.92	38.50	14.32	-49.3	-51.6	3.9	0.00e+00	0	50	104	0	70	18447
2026-01-26 20:33:46.93	38.68	14.43	-49.2	-51.6	3.8	0.00e+00	0	50	104	0	70	18501
2026-01-26 20:33:47.95	38.87	14.54	-49.5	-51.9	3.8	0.00e+00	0	50	104	0	70	19214
2026-01-26 20:33:48.95	39.05	14.65	-50.6	-53.4	3.8	0.00e+00	0	50	104	0	71	21547
2026-01-26 20:33:49.94	39.23	14.76	-51.8	-55.3	3.7	0.00e+00	0	50	104	0	74	22445
2026-01-26 20:33:50.94	39.42	14.87	-51.7	-55.3	3.7	0.00e+00	0	50	104	0	74	22390
2026-01-26 20:33:51.93	39.60	14.98	-50.9	-53.8	3.8	0.00e+00	0	50	104	0	73	20153
2026-01-26 20:33:52.93	39.79	15.10	-51.1	-54.2	3.7	0.00e+00	0	50	104	0	73	21006
2026-01-26 20:33:53.92	39.98	15.21	-51.3	-54.7	3.7	0.00e+00	0	50	104	0	73	22137
2026-01-26 20:33:54.92	40.18	15.32	-51.8	-55.4	3.7	0.00e+00	0	50	104	0	74	22846
2026-01-26 20:33:55.91	40.37	15.43	-52.0	-56.1	3.7	0.00e+00	0	50	104	0	74	24532
2026-01-26 20:33:56.90	40.56	15.55	-52.3	-56.6	3.7	0.00e+00	0	50	104	0	75	24600
2026-01-26 20:33:57.89	40.76	15.66	-52.5	-56.9	3.7	0.00e+00	0	50	104	0	75	25509
2026-01-26 20:33:58.89	40.96	15.78	-52.7	-57.1	3.7	0.00e+00	0	50	104	0	76	24764
2026-01-26 20:33:59.89	41.16	15.89	-52.6	-56.9	3.7	0.00e+00	0	50	104	0	76	24102
2026-01-26 20:34:00.88	41.36	16.01	-52.8	-57.2	3.7	0.00e+00	0	50	104	0	76	25062
2026-01-26 20:34:01.93	41.57	16.13	-52.7	-57.1	3.7	0.00e+00	0	50	104	0	76	24627
2026-01-26 20:34:02.83	41.76	16.23	-52.7	-57.0	3.7	0.00e+00	0	50	104	0	76	24331
2026-01-26 20:34:03.95	41.99	16.36	-52.7	-57.0	3.6	0.00e+00	0	50	104	0	76	24379
2026-01-26 20:34:04.81	42.17	16.47	-52.8	-57.1	3.7	0.00e+00	0	50	104	0	76	24617
2026-01-26 20:34:05.94	42.41	16.60	-52.8	-57.1	3.7	0.00e+00	0	50	104	0	76	24650
2026-01-26 20:34:06.79	42.60	16.70	-52.7	-57.0	3.7	0.00e+00	0	50	104	0	76	24272
2026-01-26 20:34:07.93	42.84	16.84	-52.2	-56.4	3.7	0.00e+00	0	50	104	0	76	22630
2026-01-26 20:34:08.79	43.03	16.94	-52.0	-56.1	3.7	0.00e+00	0	50	104	0	76	21919
2026-01-26 20:34:09.92	43.28	17.07	-52.6	-57.0	3.7	0.00e+00	0	50	104	0	76	24314
2026-01-26 20:34:10.78	43.47	17.18	-52.5	-56.9	3.7	0.00e+00	0	50	104	0	76	24137
2026-01-26 20:34:11.92	43.73	17.32	-52.6	-57.0	3.7	0.00e+00	0	50	104	0	76	24482
2026-01-26 20:34:12.77	43.92	17.42	-52.7	-57.2	3.7	0.00e+00	0	51	104	0	76	24968
2026-01-26 20:34:13.91	44.18	17.56	-52.7	-57.4	3.7	0.00e+00	0	50	104	0	76	25433
2026-01-26 20:34:14.76	44.37	17.66	-52.8	-57.4	3.7	0.00e+00	0	50	104	0	76	25648
2026-01-26 20:34:15.90	44.64	17.80	-52.9	-57.4	3.7	0.00e+00	0	50	104	0	76	25510
2026-01-26 20:34:16.78	44.85	17.91	-52.8	-57.4	3.7	0.00e+00	0	50	104	0	76	25546
2026-01-26 20:34:18.09	45.16	18.07	-52.7	-57.2	3.7	0.00e+00	0	50	104	0	76	25017
2026-01-26 20:34:18.80	45.33	18.16	-52.8	-57.4	3.7	0.00e+00	0	50	104	0	76	25435
2026-01-26 20:34:20.08	45.64	18.31	-52.8	-57.2	3.7	0.00e+00	0	50	104	0	76	25051
2026-01-26 20:34:20.79	45.81	18.40	-52.7	-57.2	3.7	0.00e+00	0	50	104	0	76	25017
2026-01-26 20:34:22.07	46.13	18.56	-52.8	-57.3	3.7	0.00e+00	0	50	104	0	76	25191
2026-01-26 20:34:22.78	46.30	18.65	-52.9	-57.4	3.7	0.00e+00	0	50	104	0	76	25501
2026-01-26 20:34:24.06	46.62	18.81	-52.9	-57.3	3.7	0.00e+00	0	50	104	0	76	25213
2026-01-26 20:34:24.77	46.80	18.90	-52.9	-57.4	3.7	0.00e+00	0	50	104	0	76	25565
2026-01-26 20:34:26.05	47.13	19.06	-52.9	-57.4	3.7	0.00e+00	0	51	104	0	76	25432
2026-01-26 20:34:26.76	47.31	19.15	-52.9	-57.1	3.7	0.00e+00	0	51	104	0	76	24804
2026-01-26 20:34:28.04	47.65	19.31	-53.0	-57.5	3.7	0.00e+00	0	50	104	0	76	25761
2026-01-26 20:34:28.78	47.84	19.41	-52.9	-57.3	3.7	0.00e+00	0	50	104	0	76	25184
2026-01-26 20:34:30.06	48.18	19.57	-52.8	-57.3	3.7	0.00e+00	0	51	104	0	76	25228
2026-01-26 20:34:31.07	48.45	19.70	-53.0	-57.4	3.7	0.00e+00	0	51	104	0	76	25420
2026-01-26 20:34:32.36	48.80	19.86	-52.8	-57.2	3.7	0.00e+00	0	51	104	0	76	25060
2026-01-26 20:34:33.07	49.00	19.95	-52.9	-57.4	3.7	0.00e+00	0	50	104	0	76	25561
2026-01-26 20:34:34.35	49.35	20.12	-52.7	-56.9	3.7	0.00e+00	0	50	104	0	76	24164
2026-01-26 20:34:35.08	49.56	20.21	-52.8	-57.2	3.7	0.00e+00	0	50	104	0	76	25031
2026-01-26 20:34:36.36	49.92	20.38	-52.5	-56.6	3.7	0.00e+00	0	50	104	0	76	23381
2026-01-26 20:34:37.07	50.12	20.47	-52.6	-56.8	3.7	0.00e+00	0	50	104	0	76	23937
2026-01-26 20:34:38.35	50.49	20.63	-52.6	-56.7	3.7	0.00e+00	0	51	104	0	76	23586
2026-01-26 20:34:39.08	50.70	20.73	-52.8	-57.2	3.7	0.00e+00	0	51	104	0	76	25005
2026-01-26 20:34:40.36	51.07	20.89	-52.6	-57.2	3.7	0.00e+00	0	51	104	0	76	24905
2026-01-26 20:34:41.08	51.29	20.99	-52.7	-57.1	3.7	0.00e+00	0	51	104	0	76	24722
2026-01-26 20:34:42.36	51.67	21.15	-52.7	-57.3	3.7	0.00e+00	0	51	104	0	76	25151
2026-01-26 20:34:43.09	51.89	21.25	-52.6	-57.2	3.7	0.00e+00	0	51	104	0	76	25045
2026-01-26 20:34:44.48	52.31	21.43	-52.9	-57.4	3.7	0.00e+00	0	51	104	0	76	25674
2026-01-26 20:34:45.19	52.53	21.52	-52.8	-57.4	3.7	0.00e+00	0	51	104	0	76	25582
2026-01-26 20:34:46.47	52.93	21.69	-53.0	-57.5	3.7	0.00e+00	0	51	104	0	76	25848
2026-01-26 20:34:47.18	53.15	21.78	-53.0	-57.6	3.7	0.00e+00	0	51	104	0	76	26023
2026-01-26 20:34:48.46	53.55	21.95	-52.7	-57.5	3.7	0.00e+00	0	51	104	0	76	25698
2026-01-26 20:34:49.17	53.78	22.04	-52.8	-57.3	3.7	0.00e+00	0	51	104	0	76	25375
2026-01-26 20:34:50.45	54.19	22.21	-52.7	-57.5	3.7	0.00e+00	0	51	104	0	76	25764
2026-01-26 20:34:51.18	54.43	22.30	-52.8	-57.4	3.7	0.00e+00	0	51	104	0	76	25674
2026-01-26 20:34:52.45	54.85	22.47	-53.0	-57.5	3.7	0.00e+00	0	51	104	0	76	25840
2026-01-26 20:34:53.17	55.09	22.56	-52.8	-57.5	3.7	0.00e+00	0	51	104	0	76	25708
2026-01-26 20:34:54.44	55.51	22.73	-53.0	-57.6	3.7	0.00e+00	0	51	104	0	76	25994
2026-01-26 20:34:55.17	55.76	22.82	-52.9	-57.4	3.7	0.00e+00	0	51	104	0	76	25612
2026-01-26 20:34:56.45	56.19	22.99	-52.8	-57.3	3.7	0.00e+00	0	51	104	0	76	25180
2026-01-26 20:34:57.19	56.45	23.09	-52.9	-57.4	3.7	0.00e+00	0	51	104	0	76	25639
2026-01-26 20:34:58.47	56.89	23.25	-52.7	-56.9	3.7	0.00e+00	0	51	104	0	76	24233
2026-01-26 20:34:59.18	57.14	23.35	-52.6	-56.7	3.7	0.00e+00	0	51	104	0	76	23640
2026-01-26 20:35:00.46	57.59	23.51	-52.7	-57.2	3.7	0.00e+00	0	51	104	0	76	24812
2026-01-26 20:35:01.17	57.85	23.60	-52.7	-57.2	3.7	0.00e+00	0	51	104	0	76	25051
2026-01-26 20:35:02.56	58.35	23.78	-52.5	-57.2	3.7	0.00e+00	0	51	104	0	76	25006
2026-01-26 20:35:03.27	58.61	23.87	-52.6	-57.3	3.7	0.00e+00	0	51	104	0	76	25293
2026-01-26 20:35:04.74	59.15	24.06	-52.7	-57.5	3.7	0.00e+00	0	51	104	0	76	25706
2026-01-26 20:35:05.45	59.41	24.15	-53.0	-57.5	3.7	0.00e+00	0	51	104	0	76	25876
2026-01-26 20:35:06.77	59.91	24.32	-52.9	-57.5	3.7	0.00e+00	0	51	104	0	76	25821
2026-01-26 20:35:07.48	60.18	24.41	-52.9	-57.5	3.7	0.00e+00	0	51	104	0	76	25865
2026-01-26 20:35:08.76	60.66	24.58	-52.8	-57.5	3.7	0.00e+00	0	51	104	0	76	25720
2026-01-26 20:35:09.49	60.94	24.67	-52.7	-57.4	3.7	0.00e+00	0	51	104	0	76	25624
2026-01-26 20:35:10.77	61.44	24.83	-52.7	-57.4	3.7	0.00e+00	0	51	104	0	76	25662
2026-01-26 20:35:11.48	61.72	24.92	-52.9	-57.5	3.7	0.00e+00	0	51	104	0	76	25821
2026-01-26 20:35:12.76	62.23	25.08	-53.0	-57.5	3.7	0.00e+00	0	51	104	0	76	25782
2026-01-26 20:35:13.47	62.51	25.17	-53.0	-57.5	3.7	0.00e+00	0	51	104	0	76	25715
2026-01-26 20:35:14.75	63.02	25.33	-53.1	-57.6	3.7	0.00e+00	0	51	104	0	76	26040
2026-01-26 20:35:15.49	63.33	25.42	-53.2	-57.7	3.7	0.00e+00	0	51	104	0	77	24887
2026-01-26 20:35:16.77	63.85	25.57	-53.2	-57.6	3.7	0.00e+00	0	51	104	0	77	24717
2026-01-26 20:35:17.50	64.15	25.66	-53.2	-57.6	3.7	0.00e+00	0	51	104	0	77	24596
2026-01-26 20:35:18.77	64.68	25.82	-53.2	-57.6	3.7	0.00e+00	0	51	104	0	77	24720
2026-01-26 20:35:19.59	65.02	25.91	-53.1	-57.6	3.7	0.00e+00	0	51	104	0	77	24743
2026-01-26 20:35:21.03	65.63	26.09	-53.0	-57.6	3.7	0.00e+00	0	51	104	0	77	24686
2026-01-26 20:35:21.74	65.94	26.17	-53.1	-57.7	3.7	0.00e+00	0	51	104	0	77	24900
2026-01-26 20:35:23.24	66.59	26.34	-53.2	-57.7	3.7	0.00e+00	0	51	104	0	77	25019
2026-01-26 20:35:23.95	66.89	26.43	-53.2	-57.6	3.7	0.00e+00	0	51	104	0	77	24807
2026-01-26 20:35:25.23	67.46	26.57	-53.2	-57.7	3.6	0.00e+00	0	51	104	0	77	24886
2026-01-26 20:35:25.94	67.77	26.66	-53.1	-57.7	3.7	0.00e+00	0	51	104	0	77	24908
2026-01-26 20:35:27.22	68.34	26.80	-53.1	-57.6	3.7	0.00e+00	0	51	104	0	77	24657
2026-01-26 20:35:27.95	68.67	26.88	-53.1	-57.5	3.7	0.00e+00	0	51	104	0	77	24352
2026-01-26 20:35:29.22	69.25	27.02	-53.1	-57.5	3.7	0.00e+00	0	51	104	0	77	24521
2026-01-26 20:35:29.97	69.59	27.10	-53.1	-57.6	3.7	0.00e+00	0	51	104	0	77	24596
2026-01-26 20:35:31.24	70.17	27.24	-53.1	-57.6	3.7	0.00e+00	0	51	104	0	77	24546
2026-01-26 20:35:31.96	70.50	27.32	-53.1	-57.6	3.7	0.00e+00	0	51	104	0	77	24783
2026-01-26 20:35:33.23	71.10	27.45	-53.1	-57.6	3.7	0.00e+00	0	51	104	0	77	24606
2026-01-26 20:35:33.96	71.44	27.53	-53.2	-57.7	3.7	0.00e+00	0	51	104	0	77	24843
2026-01-26 20:35:35.24	72.05	27.66	-53.2	-57.6	3.7	0.00e+00	0	51	104	0	77	24802
2026-01-26 20:35:35.95	72.38	27.73	-53.2	-57.7	3.7	0.00e+00	0	51	104	0	77	25052
2026-01-26 20:35:37.23	73.00	27.86	-53.3	-57.7	3.7	0.00e+00	0	51	104	0	77	24968
2026-01-26 20:35:37.94	73.34	27.93	-53.1	-57.7	3.7	0.00e+00	0	51	104	0	77	24809
2026-01-26 20:35:39.22	73.96	28.05	-53.0	-57.5	3.7	0.00e+00	0	51	104	0	77	24308
2026-01-26 20:35:39.93	74.31	28.12	-52.8	-57.3	3.7	0.00e+00	0	51	104	0	77	23798
2026-01-26 20:35:41.21	74.94	28.24	-52.9	-57.4	3.7	0.00e+00	0	51	104	0	77	24054
2026-01-26 20:35:41.92	75.29	28.30	-52.9	-57.4	3.7	0.00e+00	0	51	104	0	77	24030
2026-01-26 20:35:43.20	75.93	28.42	-52.7	-57.3	3.7	0.00e+00	0	51	104	0	77	23935
2026-01-26 20:35:43.94	76.30	28.48	-53.0	-57.6	3.7	0.00e+00	0	51	104	0	77	24604
2026-01-26 20:35:45.22	76.95	28.59	-52.8	-57.4	3.7	0.00e+00	0	51	104	0	77	24166
2026-01-26 20:35:45.93	77.31	28.65	-53.0	-57.7	3.7	0.00e+00	0	51	104	0	77	24833
2026-01-26 20:35:47.21	77.96	28.76	-52.9	-57.6	3.7	0.00e+00	0	51	104	0	77	24597
2026-01-26 20:35:48.21	78.48	28.84	-52.7	-57.6	3.7	0.00e+00	0	51	104	0	77	24655
2026-01-26 20:35:49.20	78.99	28.91	-52.8	-57.6	3.7	0.00e+00	0	51	104	0	77	24575
2026-01-26 20:35:50.54	79.69	29.01	-52.9	-57.5	3.7	0.00e+00	0	51	104	0	77	24412
2026-01-26 20:35:51.25	80.06	29.06	-52.8	-57.4	3.7	0.00e+00	0	51	104	0	77	24007
2026-01-26 20:35:52.54	80.73	29.16	-52.4	-57.3	3.7	0.00e+00	0	51	104	0	76	25273
2026-01-26 20:35:53.25	81.11	29.20	-52.5	-57.3	3.7	0.00e+00	0	51	104	0	76	25245
2026-01-26 20:35:54.53	81.79	29.29	-52.2	-57.3	3.7	0.00e+00	0	51	104	0	76	25270
2026-01-26 20:35:55.24	82.16	29.33	-52.4	-57.4	3.7	0.00e+00	0	51	104	0	76	25390
2026-01-26 20:35:56.58	82.88	29.42	-52.1	-57.2	3.7	0.00e+00	0	51	104	0	76	24893
2026-01-26 20:35:57.54	83.40	29.47	-52.2	-57.2	3.7	0.00e+00	0	51	104	0	76	25048
2026-01-26 20:35:58.54	83.94	29.53	-52.4	-57.4	3.7	0.00e+00	0	51	104	0	76	25414
2026-01-26 20:35:59.53	84.47	29.58	-52.2	-57.3	3.7	0.00e+00	0	51	104	0	76	25206
2026-01-26 20:36:00.53	85.01	29.64	-52.1	-57.2	3.7	0.00e+00	0	51	104	0	76	25000
2026-01-26 20:36:01.52	85.55	29.68	-52.1	-57.2	3.7	0.00e+00	0	51	104	0	76	24871
2026-01-26 20:36:02.52	86.10	29.73	-52.2	-57.2	3.7	0.00e+00	0	51	104	0	76	24938
2026-01-26 20:36:03.52	86.65	29.78	-52.3	-57.2	3.7	0.00e+00	0	51	104	0	76	24835
2026-01-26 20:36:04.51	87.19	29.82	-52.4	-57.3	3.7	0.00e+00	0	51	104	0	76	25100
2026-01-26 20:36:05.51	87.75	29.86	-52.5	-57.3	3.7	0.00e+00	0	51	104	0	76	25327
2026-01-26 20:36:06.50	88.29	29.89	-52.4	-57.3	3.7	0.00e+00	0	51	104	0	76	25352
2026-01-26 20:36:07.50	88.85	29.93	-52.7	-57.5	3.7	0.00e+00	0	51	104	0	76	25806
2026-01-26 20:36:08.49	89.40	29.96	-52.6	-57.5	3.7	0.00e+00	0	51	104	0	76	25735
2026-01-26 20:36:09.49	89.95	29.98	-52.6	-57.4	3.7	0.00e+00	0	51	104	0	76	25655
2026-01-26 20:36:10.48	90.51	30.01	-52.8	-57.5	3.7	0.00e+00	0	51	104	0	76	25947
2026-01-26 20:36:11.48	91.06	30.03	-52.7	-57.6	3.7	0.00e+00	0	51	104	0	76	26051
2026-01-26 20:36:12.47	91.62	30.05	-52.6	-57.4	3.7	0.00e+00	0	51	104	0	76	25670
2026-01-26 20:36:13.47	92.18	30.07	-52.5	-57.4	3.7	0.00e+00	0	51	104	0	76	25393
2026-01-26 20:36:14.47	92.74	30.09	-52.3	-57.2	3.7	0.00e+00	0	51	104	0	76	25087
2026-01-26 20:36:15.46	93.29	30.10	-52.9	-57.6	3.7	0.00e+00	0	51	104	0	76	26024
2026-01-26 20:36:16.46	93.86	30.11	-53.0	-57.7	3.7	0.00e+00	0	51	104	0	76	26336
2026-01-26 20:36:17.45	94.41	30.11	-53.0	-57.7	3.7	0.00e+00	0	51	104	0	76	26315
2026-01-26 20:36:18.45	94.97	30.12	-52.7	-57.5	3.7	0.00e+00	0	51	104	0	76	25755
2026-01-26 20:36:19.44	95.53	30.12	-52.8	-57.5	3.7	0.00e+00	0	51	104	0	76	25755
2026-01-26 20:36:20.43	96.09	30.12	-52.9	-57.5	3.7	0.00e+00	0	51	104	0	76	25825
2026-01-26 20:36:21.49	96.68	30.11	-52.8	-57.5	3.7	0.00e+00	0	51	104	0	76	25948
2026-01-26 20:36:22.36	97.17	30.10	-52.8	-57.5	3.7	0.00e+00	0	51	104	0	76	25796
2026-01-26 20:36:23.50	97.81	30.09	-52.7	-57.2	3.7	0.00e+00	0	51	104	0	76	24928
2026-01-26 20:36:24.35	98.29	30.08	-52.7	-57.2	3.7	0.00e+00	0	51	104	0	76	24971
2026-01-26 20:36:25.49	98.93	30.06	-52.6	-57.2	3.7	0.00e+00	0	51	104	0	76	24984
2026-01-26 20:36:26.34	99.41	30.05	-52.4	-57.3	3.7	0.00e+00	0	51	104	0	76	25103
2026-01-26 20:36:27.48	100.04	30.02	-52.7	-57.3	3.7	0.00e+00	0	51	104	0	76	25311
2026-01-26 20:36:28.33	100.52	30.00	-53.1	-57.5	3.7	0.00e+00	0	51	104	0	76	25915
2026-01-26 20:36:29.47	101.15	29.97	-53.1	-57.6	3.7	0.00e+00	0	51	104	0	76	25984
2026-01-26 20:36:30.32	101.63	29.95	-53.1	-57.6	3.7	0.00e+00	0	51	104	0	76	26109
2026-01-26 20:36:31.46	102.26	29.91	-53.1	-57.6	3.7	0.00e+00	0	51	104	0	76	26049
2026-01-26 20:36:32.31	102.73	29.88	-53.1	-57.5	3.7	0.00e+00	0	51	104	0	76	25899
2026-01-26 20:36:33.45	103.36	29.84	-53.1	-57.5	3.7	0.00e+00	0	51	104	0	76	25902
2026-01-26 20:36:34.30	103.83	29.81	-52.9	-57.5	3.7	0.00e+00	0	51	104	0	76	25748
2026-01-26 20:36:35.57	104.53	29.75	-53.0	-57.6	3.7	0.00e+00	0	51	104	0	76	26135
2026-01-26 20:36:36.37	104.97	29.71	-53.1	-57.6	3.7	0.00e+00	0	51	104	0	76	26208
2026-01-26 20:36:37.62	105.65	29.65	-53.1	-57.6	3.7	0.00e+00	0	51	104	0	76	26132
2026-01-26 20:36:38.47	106.12	29.61	-53.1	-57.6	3.7	0.00e+00	0	51	104	0	76	26126
2026-01-26 20:36:39.61	106.74	29.55	-52.9	-57.5	3.7	0.00e+00	0	51	104	0	76	25932
2026-01-26 20:36:40.46	107.19	29.50	-52.9	-57.5	3.7	0.00e+00	0	51	104	0	76	25839
2026-01-26 20:36:41.60	107.81	29.44	-52.8	-57.5	3.7	0.00e+00	0	51	104	0	76	25842
2026-01-26 20:36:42.45	108.27	29.39	-52.9	-57.5	3.7	0.00e+00	0	51	104	0	76	25906
2026-01-26 20:36:43.59	108.88	29.31	-53.1	-57.6	3.7	0.00e+00	0	51	104	0	76	26083
2026-01-26 20:36:44.44	109.33	29.26	-52.9	-57.5	3.7	0.00e+00	0	51	104	0	76	25815
2026-01-26 20:36:45.58	109.93	29.18	-52.7	-57.4	3.7	0.00e+00	0	51	104	0	76	25541
2026-01-26 20:36:46.62	110.48	29.11	-52.4	-57.3	3.7	0.00e+00	0	51	104	0	76	25294
2026-01-26 20:36:47.57	110.98	29.04	-52.3	-57.4	3.7	0.00e+00	0	51	104	0	76	25434
2026-01-26 20:36:48.56	111.50	28.97	-52.5	-57.5	3.7	0.00e+00	0	51	104	0	76	25733
2026-01-26 20:36:49.56	112.02	28.89	-52.7	-57.5	3.7	0.00e+00	0	51	104	0	76	25877
2026-01-26 20:36:50.55	112.53	28.81	-52.3	-57.1	3.7	0.00e+00	0	51	104	0	76	24660
2026-01-26 20:36:51.54	113.04	28.73	-52.6	-57.3	3.7	0.00e+00	0	51	104	0	76	25345
2026-01-26 20:36:52.54	113.55	28.65	-52.7	-57.4	3.7	0.00e+00	0	51	104	0	76	25533
2026-01-26 20:36:53.53	114.06	28.57	-52.7	-57.4	3.7	0.00e+00	0	51	104	0	76	25486
2026-01-26 20:36:54.53	114.56	28.48	-52.7	-57.4	3.7	0.00e+00	0	51	104	0	76	25553
2026-01-26 20:36:55.52	115.06	28.39	-53.0	-57.6	3.7	0.00e+00	0	51	104	0	76	26015
2026-01-26 20:36:56.55	115.58	28.30	-53.1	-57.6	3.7	0.00e+00	0	51	104	0	76	26211
2026-01-26 20:36:57.55	116.07	28.21	-53.0	-57.6	3.7	0.00e+00	0	51	104	0	76	25985
2026-01-26 20:36:58.54	116.56	28.12	-53.1	-57.6	3.7	0.00e+00	0	51	104	0	76	26131
2026-01-26 20:36:59.54	117.05	28.02	-52.9	-57.5	3.7	0.00e+00	0	51	104	0	76	25847
2026-01-26 20:37:00.53	117.54	27.93	-52.8	-57.4	3.7	0.00e+00	0	51	104	0	76	25528
2026-01-26 20:37:01.53	118.02	27.83	-52.7	-57.3	3.7	0.00e+00	0	51	104	0	76	25334
2026-01-26 20:37:02.52	118.50	27.73	-52.5	-57.2	3.7	0.00e+00	0	51	104	0	76	25057
2026-01-26 20:37:03.52	118.97	27.63	-52.8	-57.4	3.7	0.00e+00	0	51	104	0	76	25565
2026-01-26 20:37:04.51	119.44	27.52	-52.9	-57.4	3.7	0.00e+00	0	51	104	0	76	25675
2026-01-26 20:37:05.51	119.92	27.42	-53.0	-57.5	3.7	0.00e+00	0	51	104	0	76	25942
2026-01-26 20:37:06.50	120.38	27.31	-53.1	-57.6	3.7	0.00e+00	0	51	104	0	76	26270
2026-01-26 20:37:07.50	120.84	27.21	-53.1	-57.5	3.7	0.00e+00	0	51	104	0	76	25858
2026-01-26 20:37:08.49	121.30	27.10	-53.1	-57.5	3.7	0.00e+00	0	51	104	0	76	25752
2026-01-26 20:37:09.48	121.75	26.99	-53.1	-57.5	3.7	0.00e+00	0	51	104	0	76	25715
2026-01-26 20:37:10.48	122.21	26.88	-53.0	-57.5	3.7	0.00e+00	0	51	104	0	76	25953
2026-01-26 20:37:11.47	122.66	26.77	-52.9	-57.4	3.7	0.00e+00	0	51	104	0	76	25409
2026-01-26 20:37:12.47	123.10	26.65	-52.9	-57.3	3.7	0.00e+00	0	51	104	0	76	25310
2026-01-26 20:37:13.46	123.54	26.54	-52.9	-57.3	3.7	0.00e+00	0	51	104	0	76	25373
2026-01-26 20:37:14.46	123.98	26.42	-52.7	-57.3	3.7	0.00e+00	0	51	104	0	76	25188
2026-01-26 20:37:15.45	124.42	26.31	-52.5	-57.1	3.7	0.00e+00	0	51	104	0	76	24554
2026-01-26 20:37:16.45	124.85	26.19	-52.5	-57.1	3.7	0.00e+00	0	51	104	0	76	24536
2026-01-26 20:37:17.44	125.28	26.07	-52.5	-57.1	3.7	0.00e+00	0	51	104	0	76	24579
2026-01-26 20:37:18.44	125.70	25.95	-52.9	-57.3	3.7	0.00e+00	0	51	104	0	76	25267
2026-01-26 20:37:19.43	126.12	25.83	-53.0	-57.5	3.7	0.00e+00	0	51	104	0	76	25819
2026-01-26 20:37:20.43	126.54	25.71	-53.0	-57.6	3.7	0.00e+00	0	51	104	0	76	26007
2026-01-26 20:37:21.42	126.95	25.59	-53.0	-57.5	3.7	0.00e+00	0	51	104	0	76	25950
2026-01-26 20:37:22.42	127.37	25.47	-52.6	-57.3	3.7	0.00e+00	0	51	104	0	76	25311
2026-01-26 20:37:23.41	127.77	25.35	-52.4	-57.2	3.7	0.00e+00	0	51	104	0	76	24976
2026-01-26 20:37:24.41	128.18	25.22	-52.7	-57.4	3.7	0.00e+00	0	51	104	0	76	25421
2026-01-26 20:37:25.40	128.58	25.10	-52.6	-57.3	3.7	0.00e+00	0	51	104	0	76	25286
2026-01-26 20:37:26.40	128.98	24.97	-52.9	-57.5	3.7	0.00e+00	0	51	104	0	76	25774
2026-01-26 20:37:27.39	129.37	24.85	-53.1	-57.5	3.7	0.00e+00	0	51	104	0	76	25947
2026-01-26 20:37:28.45	129.78	24.71	-53.0	-57.4	3.7	0.00e+00	0	51	104	0	76	25653
2026-01-26 20:37:29.34	130.13	24.60	-53.0	-57.4	3.7	0.00e+00	0	51	104	0	76	25666
2026-01-26 20:37:30.47	130.56	24.46	-52.8	-57.3	3.7	0.00e+00	0	51	104	0	76	25366
2026-01-26 20:37:31.33	130.89	24.35	-52.5	-57.2	3.7	0.00e+00	0	51	104	0	76	24930
2026-01-26 20:37:32.46	131.32	24.20	-52.5	-57.2	3.7	0.00e+00	0	51	104	0	76	24878
2026-01-26 20:37:33.32	131.64	24.09	-52.6	-57.2	3.7	0.00e+00	0	51	104	0	76	24941
2026-01-26 20:37:34.46	132.07	23.94	-52.7	-57.2	3.7	0.00e+00	0	51	104	0	76	25082
2026-01-26 20:37:35.31	132.38	23.83	-52.6	-57.1	3.7	0.00e+00	0	51	104	0	76	24732
2026-01-26 20:37:36.44	132.79	23.68	-52.8	-57.2	3.7	0.00e+00	0	51	104	0	76	25029
2026-01-26 20:37:37.30	133.10	23.57	-52.7	-57.2	3.7	0.00e+00	0	51	104	0	76	24944
2026-01-26 20:37:38.44	133.51	23.42	-52.8	-57.2	3.7	0.00e+00	0	51	104	0	76	25031
2026-01-26 20:37:39.29	133.81	23.31	-52.6	-57.3	3.7	0.00e+00	0	51	104	0	76	25122
2026-01-26 20:37:40.43	134.21	23.16	-52.4	-57.0	3.7	0.00e+00	0	51	104	0	76	24503
2026-01-26 20:37:41.28	134.51	23.05	-52.5	-57.2	3.7	0.00e+00	0	51	104	0	76	24833
2026-01-26 20:37:42.51	134.93	22.89	-52.4	-57.0	3.7	0.00e+00	0	51	104	0	76	24393
2026-01-26 20:37:43.37	135.23	22.78	-52.5	-57.1	3.7	0.00e+00	0	51	104	0	76	24619
2026-01-26 20:37:44.51	135.61	22.63	-52.7	-57.2	3.7	0.00e+00	0	51	104	0	76	25090
2026-01-26 20:37:45.36	135.90	22.52	-52.7	-57.2	3.7	0.00e+00	0	51	104	0	76	24982
2026-01-26 20:37:46.50	136.28	22.37	-52.7	-57.2	3.7	0.00e+00	0	51	104	0	76	25077
2026-01-26 20:37:47.35	136.56	22.25	-52.8	-57.3	3.7	0.00e+00	0	51	104	0	76	25284
2026-01-26 20:37:48.49	136.93	22.10	-52.9	-57.5	3.7	0.00e+00	0	51	104	0	76	25706
2026-01-26 20:37:49.34	137.20	21.99	-52.9	-57.4	3.7	0.00e+00	0	51	104	0	76	25617
2026-01-26 20:37:50.48	137.57	21.84	-52.8	-57.2	3.7	0.00e+00	0	51	104	0	76	25042
2026-01-26 20:37:51.33	137.84	21.73	-52.7	-57.1	3.7	0.00e+00	0	51	104	0	76	24782
2026-01-26 20:37:52.47	138.20	21.58	-52.5	-56.9	3.7	0.00e+00	0	51	104	0	76	24238
2026-01-26 20:37:53.32	138.46	21.47	-52.6	-57.0	3.7	0.00e+00	0	51	104	0	76	24407
2026-01-26 20:37:54.46	138.81	21.32	-52.4	-57.1	3.7	0.00e+00	0	51	104	0	76	24556
2026-01-26 20:37:55.31	139.07	21.21	-52.4	-57.2	3.7	0.00e+00	0	51	104	0	76	24857
2026-01-26 20:37:56.45	139.42	21.06	-52.5	-57.3	3.7	0.00e+00	0	51	104	0	76	25131
2026-01-26 20:37:57.30	139.67	20.95	-52.4	-57.2	3.7	0.00e+00	0	51	104	0	76	24996
2026-01-26 20:37:58.48	140.02	20.79	-52.5	-57.2	3.7	0.00e+00	0	51	104	0	76	25040
2026-01-26 20:37:59.34	140.27	20.68	-52.6	-57.2	3.7	0.00e+00	0	51	104	0	76	25054
2026-01-26 20:38:00.48	140.61	20.53	-52.8	-57.2	3.7	0.00e+00	0	51	104	0	76	25072
2026-01-26 20:38:01.33	140.85	20.42	-52.7	-57.2	3.7	0.00e+00	0	51	104	0	76	25088
2026-01-26 20:38:02.47	141.18	20.27	-52.7	-57.2	3.7	0.00e+00	0	51	104	0	76	24867
2026-01-26 20:38:03.32	141.42	20.16	-52.7	-57.2	3.7	0.00e+00	0	51	104	0	76	24894
2026-01-26 20:38:04.46	141.74	20.01	-52.5	-57.1	3.7	0.00e+00	0	51	104	0	76	24744
2026-01-26 20:38:05.31	141.97	19.90	-52.6	-57.2	3.7	0.00e+00	0	51	104	0	76	24854
2026-01-26 20:38:06.45	142.29	19.76	-52.1	-57.0	3.7	0.00e+00	0	51	104	0	76	24315
2026-01-26 20:38:07.30	142.52	19.65	-52.0	-56.9	3.7	0.00e+00	0	51	104	0	76	24194
2026-01-26 20:38:08.43	142.82	19.50	-51.6	-56.6	3.7	0.00e+00	0	51	104	0	75	24769
2026-01-26 20:38:09.29	143.05	19.39	-51.7	-56.7	3.7	0.00e+00	0	51	104	0	75	24903
2026-01-26 20:38:10.42	143.35	19.25	-51.2	-56.4	3.7	0.00e+00	0	51	104	0	74	25498
2026-01-26 20:38:11.27	143.57	19.14	-51.3	-56.5	3.7	0.00e+00	0	51	104	0	74	25766
2026-01-26 20:38:12.41	143.87	18.99	-51.4	-56.5	3.7	0.00e+00	0	51	104	0	74	25811
2026-01-26 20:38:13.26	144.09	18.89	-51.2	-56.3	3.7	0.00e+00	0	51	104	0	74	25280
2026-01-26 20:38:14.53	144.41	18.73	-51.7	-56.7	3.7	0.00e+00	0	51	104	0	74	26317
2026-01-26 20:38:15.24	144.59	18.64	-51.8	-56.8	3.7	0.00e+00	0	51	104	0	74	26663
2026-01-26 20:38:16.52	144.91	18.47	-52.1	-56.9	3.7	0.00e+00	0	51	104	0	75	25582
2026-01-26 20:38:17.23	145.09	18.39	-51.8	-56.8	3.7	0.00e+00	0	51	104	0	75	25128
2026-01-26 20:38:18.51	145.40	18.23	-52.7	-57.3	3.7	0.00e+00	0	51	104	0	76	25187
2026-01-26 20:38:19.23	145.58	18.14	-52.8	-57.3	3.7	0.00e+00	0	51	104	0	76	25349
2026-01-26 20:38:20.51	145.89	17.98	-52.8	-57.3	3.7	0.00e+00	0	51	104	0	76	25278
2026-01-26 20:38:21.24	146.06	17.89	-52.7	-57.3	3.7	0.00e+00	0	51	104	0	76	25222
2026-01-26 20:38:22.52	146.36	17.73	-52.7	-57.3	3.7	0.00e+00	0	51	104	0	76	25328
2026-01-26 20:38:23.24	146.53	17.64	-52.7	-57.3	3.7	0.00e+00	0	51	104	0	76	25168
2026-01-26 20:38:24.52	146.83	17.48	-52.5	-57.1	3.7	0.00e+00	0	51	104	0	76	24789
2026-01-26 20:38:25.25	147.00	17.39	-52.6	-57.3	3.7	0.00e+00	0	51	104	0	76	25177
2026-01-26 20:38:26.52	147.29	17.24	-52.0	-56.8	3.7	0.00e+00	0	51	104	0	75	25148
2026-01-26 20:38:27.23	147.45	17.15	-51.9	-56.7	3.7	0.00e+00	0	51	104	0	75	24967
2026-01-26 20:38:28.51	147.73	16.99	-52.0	-56.7	3.7	0.00e+00	0	51	104	0	75	24999
2026-01-26 20:38:29.24	147.89	16.91	-51.8	-56.7	3.7	0.00e+00	0	51	104	0	75	24824
2026-01-26 20:38:30.52	148.17	16.75	-52.5	-57.1	3.7	0.00e+00	0	51	104	0	75	26117
2026-01-26 20:38:31.26	148.34	16.66	-52.5	-57.1	3.7	0.00e+00	0	51	104	0	75	26022
2026-01-26 20:38:32.54	148.61	16.51	-52.6	-57.2	3.7	0.00e+00	0	51	104	0	75	26302
2026-01-26 20:38:33.25	148.76	16.43	-52.7	-57.2	3.7	0.00e+00	0	51	104	0	76	24991
2026-01-26 20:38:34.53	149.03	16.27	-51.9	-56.7	3.7	0.00e+00	0	51	104	0	75	24925
2026-01-26 20:38:35.24	149.18	16.19	-51.8	-56.7	3.7	0.00e+00	0	51	104	0	75	24955
2026-01-26 20:38:36.52	149.45	16.04	-51.4	-56.4	3.7	0.00e+00	0	51	104	0	74	25456
2026-01-26 20:38:37.25	149.60	15.95	-51.5	-56.4	3.7	0.00e+00	0	51	104	0	74	25392
2026-01-26 20:38:38.84	149.92	15.77	-52.1	-57.0	3.7	0.00e+00	0	51	104	0	74	27258
2026-01-26 20:38:39.41	150.04	15.70	-52.3	-57.2	3.7	0.00e+00	0	51	104	0	75	26340
2026-01-26 20:38:41.12	150.38	15.50	-52.4	-57.1	3.7	0.00e+00	0	51	104	0	75	26250
2026-01-26 20:38:41.73	150.50	15.43	-52.2	-57.0	3.7	0.00e+00	0	51	104	0	75	25800
2026-01-26 20:38:43.30	150.81	15.25	-52.0	-56.7	3.7	0.00e+00	0	51	104	0	75	24880
2026-01-26 20:38:43.94	150.93	15.18	-51.7	-56.5	3.7	0.00e+00	0	51	104	0	75	24393
2026-01-26 20:38:45.36	151.20	15.01	-51.7	-56.5	3.7	0.00e+00	0	51	104	0	75	24382
2026-01-26 20:38:46.08	151.34	14.93	-51.9	-56.7	3.7	0.00e+00	0	51	104	0	75	24942
2026-01-26 20:38:47.59	151.62	14.76	-51.8	-56.7	3.7	0.00e+00	0	51	104	0	75	24920
2026-01-26 20:38:48.55	151.80	14.65	-51.9	-56.7	3.7	0.00e+00	0	51	104	0	75	24949
2026-01-26 20:38:49.55	151.99	14.54	-52.0	-56.8	3.7	0.00e+00	0	51	104	0	75	25300
2026-01-26 20:38:50.54	152.17	14.43	-51.8	-56.7	3.7	0.00e+00	0	51	104	0	75	25021
2026-01-26 20:38:51.54	152.35	14.32	-51.5	-56.6	3.7	0.00e+00	0	51	104	0	75	24634
2026-01-26 20:38:52.53	152.53	14.21	-51.5	-56.6	3.7	0.00e+00	0	51	104	0	74	26083
2026-01-26 20:38:53.53	152.71	14.10	-51.5	-56.5	3.7	0.00e+00	0	51	104	0	74	25772
2026-01-26 20:38:54.52	152.88	13.99	-51.5	-56.5	3.7	0.00e+00	0	51	104	0	74	25942
2026-01-26 20:38:55.51	153.06	13.88	-51.7	-56.7	3.7	0.00e+00	0	51	104	0	74	26373
2026-01-26 20:38:56.51	153.23	13.77	-51.7	-56.7	3.7	0.00e+00	0	51	104	0	74	26366
2026-01-26 20:38:57.50	153.40	13.67	-51.8	-56.7	3.7	0.00e+00	0	51	104	0	74	26518
2026-01-26 20:38:58.50	153.57	13.56	-51.5	-56.5	3.7	0.00e+00	0	51	104	0	74	25807
2026-01-26 20:38:59.50	153.74	13.45	-51.5	-56.4	3.7	0.00e+00	0	51	104	0	74	25578
2026-01-26 20:39:00.49	153.91	13.34	-51.3	-56.2	3.7	0.00e+00	0	51	104	0	73	26307
2026-01-26 20:39:01.49	154.07	13.24	-51.2	-56.1	3.7	0.00e+00	0	51	104	0	73	26138
2026-01-26 20:39:02.48	154.24	13.13	-51.5	-56.3	3.7	0.00e+00	0	51	104	0	73	26744
2026-01-26 20:39:03.48	154.40	13.02	-51.8	-56.5	3.7	0.00e+00	0	51	104	0	74	25971
2026-01-26 20:39:04.47	154.56	12.92	-52.2	-56.8	3.7	0.00e+00	0	51	104	0	75	25341
2026-01-26 20:39:05.47	154.72	12.81	-52.2	-56.9	3.7	0.00e+00	0	51	104	0	75	25396
2026-01-26 20:39:06.46	154.88	12.71	-52.2	-56.8	3.7	0.00e+00	0	51	104	0	75	25294
2026-01-26 20:39:07.46	155.04	12.61	-52.3	-56.9	3.7	0.00e+00	0	51	104	0	75	25435
2026-01-26 20:39:08.45	155.19	12.50	-52.2	-56.8	3.7	0.00e+00	0	51	104	0	75	25276
2026-01-26 20:39:09.45	155.35	12.40	-52.0	-56.6	3.7	0.00e+00	0	51	104	0	75	24674
2026-01-26 20:39:10.47	155.51	12.30	-52.1	-56.7	3.7	0.00e+00	0	51	104	0	75	24970
2026-01-26 20:39:11.47	155.66	12.19	-52.1	-56.7	3.7	0.00e+00	0	51	104	0	75	24909
2026-01-26 20:39:12.46	155.81	12.09	-51.9	-56.6	3.7	0.00e+00	0	51	104	0	75	24637
2026-01-26 20:39:13.46	155.96	11.99	-51.9	-56.7	3.7	0.00e+00	0	51	104	0	75	24861
2026-01-26 20:39:14.46	156.11	11.89	-51.9	-56.7	3.7	0.00e+00	0	51	104	0	75	24937
2026-01-26 20:39:15.45	156.26	11.79	-52.3	-56.9	3.7	0.00e+00	0	51	104	0	75	25655
2026-01-26 20:39:16.45	156.40	11.69	-52.1	-56.8	3.7	0.00e+00	0	51	104	0	75	25271
2026-01-26 20:39:17.44	156.55	11.59	-52.5	-57.1	3.7	0.00e+00	0	51	104	0	75	25988
2026-01-26 20:39:18.44	156.69	11.49	-52.5	-57.1	3.7	0.00e+00	0	51	104	0	75	26022
2026-01-26 20:39:19.43	156.83	11.39	-52.5	-57.1	3.7	0.00e+00	0	51	104	0	75	25985
2026-01-26 20:39:20.43	156.98	11.29	-52.6	-57.1	3.7	0.00e+00	0	51	104	0	75	26157
2026-01-26 20:39:21.42	157.12	11.19	-52.3	-57.0	3.7	0.00e+00	0	51	104	0	75	25837
2026-01-26 20:39:22.42	157.26	11.09	-52.0	-56.8	3.7	0.00e+00	0	51	104	0	75	25298
2026-01-26 20:39:23.41	157.39	11.00	-52.3	-56.9	3.7	0.00e+00	0	51	104	0	75	25603
2026-01-26 20:39:24.40	157.53	10.90	-52.2	-56.9	3.7	0.00e+00	0	51	104	0	75	25558
2026-01-26 20:39:25.40	157.67	10.80	-52.2	-56.8	3.7	0.00e+00	0	51	104	0	75	25177
2026-01-26 20:39:26.39	157.80	10.71	-52.3	-56.9	3.7	0.00e+00	0	51	104	0	75	25481
2026-01-26 20:39:27.43	157.94	10.61	-52.2	-56.8	3.7	0.00e+00	0	51	104	0	75	25146
2026-01-26 20:39:28.48	158.08	10.51	-52.1	-56.7	3.7	0.00e+00	0	51	104	0	75	24931
2026-01-26 20:39:29.44	158.21	10.42	-52.1	-56.7	3.7	0.00e+00	0	51	104	0	75	25014
2026-01-26 20:39:30.43	158.34	10.32	-52.3	-56.8	3.7	0.00e+00	0	51	104	0	75	25382
2026-01-26 20:39:31.42	158.47	10.23	-52.3	-56.8	3.7	0.00e+00	0	51	104	0	75	25118
2026-01-26 20:39:32.42	158.60	10.13	-52.2	-56.7	3.7	0.00e+00	0	51	104	0	75	25002
2026-01-26 20:39:33.41	158.72	10.04	-52.3	-56.8	3.7	0.00e+00	0	51	104	0	75	25244
2026-01-26 20:39:34.41	158.85	9.95	-52.3	-56.8	3.7	0.00e+00	0	51	104	0	75	25246
2026-01-26 20:39:35.40	158.98	9.86	-52.2	-56.6	3.7	0.00e+00	0	51	104	0	75	24662
2026-01-26 20:39:36.40	159.10	9.76	-52.3	-56.7	3.7	0.00e+00	0	51	104	0	75	24981
2026-01-26 20:39:37.39	159.23	9.67	-52.2	-56.6	3.7	0.00e+00	0	51	104	0	75	24776
2026-01-26 20:39:38.39	159.35	9.58	-52.2	-56.7	3.7	0.00e+00	0	51	104	0	75	25045
2026-01-26 20:39:39.39	159.47	9.49	-52.2	-56.6	3.7	0.00e+00	0	51	104	0	75	24677
2026-01-26 20:39:40.38	159.59	9.40	-52.2	-56.6	3.7	0.00e+00	0	51	104	0	75	24611
2026-01-26 20:39:41.38	159.71	9.31	-52.2	-56.6	3.7	0.00e+00	0	51	104	0	75	24720
2026-01-26 20:39:42.37	159.83	9.22	-52.1	-56.7	3.7	0.00e+00	0	51	104	0	75	24812
2026-01-26 20:39:43.40	159.96	9.12	-52.2	-56.7	3.7	0.00e+00	0	51	104	0	75	24945
2026-01-26 20:39:44.39	160.07	9.03	-52.2	-56.6	3.7	0.00e+00	0	51	104	0	75	24744
2026-01-26 20:39:45.44	160.20	8.94	-52.3	-56.9	3.7	0.00e+00	0	51	104	0	75	25484
2026-01-26 20:39:46.37	160.30	8.86	-52.5	-57.0	3.7	0.00e+00	0	51	104	0	75	25792
2026-01-26 20:39:47.49	160.43	8.76	-51.9	-56.6	3.7	0.00e+00	0	51	104	0	74	26165
2026-01-26 20:39:48.38	160.54	8.68	-52.4	-57.4	3.6	0.00e+00	0	51	104	0	75	26931
2026-01-26 20:39:49.68	160.68	8.56	-52.7	-57.5	3.7	0.00e+00	0	51	104	0	76	25813
2026-01-26 20:39:50.39	160.76	8.50	-52.5	-57.3	3.7	0.00e+00	0	51	104	0	76	25237
2026-01-26 20:39:51.67	160.91	8.39	-52.7	-57.6	3.7	0.00e+00	0	51	104	0	75	27750
2026-01-26 20:39:52.38	160.99	8.33	-52.5	-57.4	3.7	0.00e+00	0	51	104	0	76	25473
2026-01-26 20:39:53.66	161.13	8.22	-53.0	-57.6	3.7	0.00e+00	0	51	104	0	77	24678
2026-01-26 20:39:54.37	161.21	8.15	-52.9	-57.6	3.7	0.00e+00	0	51	104	0	77	24564
2026-01-26 20:39:55.65	161.35	8.04	-53.3	-57.8	3.7	0.00e+00	0	51	104	0	77	25294
2026-01-26 20:39:56.36	161.42	7.98	-53.3	-57.9	3.7	0.00e+00	0	51	104	0	77	25400
2026-01-26 20:39:57.64	161.56	7.87	-53.4	-57.9	3.7	0.00e+00	0	51	104	0	77	25666
2026-01-26 20:39:58.35	161.64	7.81	-52.8	-57.6	3.7	0.00e+00	0	51	104	0	77	24767
2026-01-26 20:39:59.62	161.77	7.70	-53.4	-57.9	3.7	0.00e+00	0	51	104	0	77	25619
2026-01-26 20:40:00.33	161.84	7.64	-53.3	-57.8	3.7	0.00e+00	0	51	104	0	77	25371
2026-01-26 20:40:01.61	161.98	7.54	-52.5	-57.4	3.7	0.00e+00	0	51	104	0	75	27035
2026-01-26 20:40:02.32	162.05	7.48	-52.9	-57.6	3.7	0.00e+00	0	51	104	0	76	26052
2026-01-26 20:40:03.71	162.19	7.36	-53.5	-57.8	3.7	0.00e+00	0	51	104	0	77	25310
2026-01-26 20:40:04.42	162.27	7.30	-53.2	-57.7	3.7	0.00e+00	0	51	104	0	77	24838
2026-01-26 20:40:05.76	162.40	7.19	-53.2	-57.6	3.7	0.00e+00	0	51	104	0	77	24525
2026-01-26 20:40:06.46	162.47	7.13	-53.1	-57.3	3.7	0.00e+00	0	51	104	0	77	23710
2026-01-26 20:40:07.82	162.61	7.02	-52.6	-57.0	3.7	0.00e+00	0	51	104	0	77	23105
2026-01-26 20:40:08.53	162.68	6.96	-52.1	-57.0	3.7	0.00e+00	0	51	104	0	76	24490
2026-01-26 20:40:09.81	162.81	6.86	-51.9	-57.0	3.7	0.00e+00	0	51	104	0	75	25791
2026-01-26 20:40:10.55	162.88	6.80	-52.4	-57.1	3.7	0.00e+00	0	51	104	0	75	26191
2026-01-26 20:40:11.83	163.00	6.69	-52.3	-57.1	3.7	0.00e+00	0	51	104	0	75	26120
2026-01-26 20:40:12.54	163.07	6.64	-52.4	-57.1	3.6	0.00e+00	0	51	104	0	75	26110
2026-01-26 20:40:13.81	163.19	6.53	-52.3	-57.1	3.7	0.00e+00	0	51	104	0	75	26153
2026-01-26 20:40:14.52	163.26	6.48	-52.4	-57.1	3.7	0.00e+00	0	51	104	0	75	26097
2026-01-26 20:40:15.80	163.38	6.37	-52.3	-57.1	3.7	0.00e+00	0	51	104	0	75	26132
2026-01-26 20:40:16.54	163.45	6.31	-52.3	-57.1	3.7	0.00e+00	0	51	104	0	75	26184
2026-01-26 20:40:17.82	163.57	6.21	-52.3	-57.1	3.7	0.00e+00	0	51	104	0	75	26096
2026-01-26 20:40:18.53	163.64	6.16	-52.3	-57.1	3.7	0.00e+00	0	51	104	0	75	26185
2026-01-26 20:40:19.81	163.76	6.06	-52.3	-57.1	3.7	0.00e+00	0	51	104	0	75	26106
2026-01-26 20:40:20.52	163.82	6.00	-52.3	-57.1	3.7	0.00e+00	0	51	104	0	75	25979
2026-01-26 20:40:21.79	163.94	5.90	-52.4	-57.1	3.7	0.00e+00	0	51	104	0	75	26151
2026-01-26 20:40:22.52	164.00	5.84	-52.4	-57.1	3.7	0.00e+00	0	51	104	0	75	26153
2026-01-26 20:40:23.79	164.12	5.74	-52.3	-57.1	3.7	0.00e+00	0	51	104	0	75	26075
2026-01-26 20:40:24.50	164.18	5.69	-52.3	-57.1	3.7	0.00e+00	0	51	104	0	75	26033
2026-01-26 20:40:25.78	164.29	5.59	-52.3	-57.1	3.7	0.00e+00	0	51	104	0	75	25987
2026-01-26 20:40:26.49	164.36	5.53	-52.3	-57.0	3.7	0.00e+00	0	51	104	0	75	25959
2026-01-26 20:40:27.77	164.47	5.44	-52.3	-57.0	3.7	0.00e+00	0	51	104	0	75	25935
2026-01-26 20:40:28.49	164.53	5.38	-52.3	-57.0	3.7	0.00e+00	0	51	104	0	75	25940
2026-01-26 20:40:29.77	164.64	5.28	-52.3	-57.0	3.7	0.00e+00	0	51	104	0	75	25871
2026-01-26 20:40:30.48	164.70	5.23	-52.3	-57.0	3.7	0.00e+00	0	51	104	0	75	25883
2026-01-26 20:40:31.76	164.81	5.13	-52.3	-57.1	3.7	0.00e+00	0	51	104	0	75	25977
2026-01-26 20:40:32.48	164.87	5.08	-52.3	-57.0	3.7	0.00e+00	0	51	104	0	75	25883
2026-01-26 20:40:33.76	164.98	4.98	-52.3	-57.0	3.7	0.00e+00	0	51	104	0	75	25974

#Closed at: 2026-01-26 20:40:34
#Recorded file [0 MB]: D:/Data/31040_260126_233202.dat