passes_logs/2026/01/26/T1/T1__20260126_091957_SUOMI_NPP_rec.log

#Pass ID: 20260126_091957_SUOMI NPP
#Satellite: SUOMI NPP
#Configuration: NPP
#almurnet v.1.7.20251203
#Start time: 2026-01-26 09:19:59

#Version: 2.0.20230620
#Station: T1
#Location: 37.570604 lon 55.790049 lat
#TLE: 1 37849U 11061A   26025.81780576  .00000180  00000+0  10635-3 0  9993
#TLE: 2 37849  98.7822 327.7738 0002159  45.0809 315.0541 14.19529973738242

#Time	Az	El	Level	Level2	SNR	BER	BlckErr	Temp	State	Recorded	gain1	gain2
2026-01-26 09:19:59.35	139.11	5.13	-48.8	-64.0	3.8	1.49e+00	0	40	0	0	69	20473
2026-01-26 09:20:00.34	139.08	5.20	-48.7	-63.9	3.8	1.49e+00	0	41	104	0	69	20206
2026-01-26 09:20:01.34	139.04	5.27	-48.7	-63.9	3.8	1.49e+00	0	40	104	0	69	20132
2026-01-26 09:20:02.33	139.01	5.34	-48.7	-63.9	3.8	1.49e+00	0	41	104	0	69	20126
2026-01-26 09:20:03.32	138.97	5.41	-48.7	-63.8	3.8	1.49e+00	0	41	104	0	69	20040
2026-01-26 09:20:04.32	138.94	5.49	-48.7	-63.8	3.8	1.49e+00	0	41	104	0	69	19955
2026-01-26 09:20:05.31	138.90	5.56	-48.7	-63.8	3.8	1.49e+00	0	41	104	0	69	19873
2026-01-26 09:20:06.30	138.87	5.63	-48.7	-63.7	3.8	1.49e+00	0	41	104	0	69	19790
2026-01-26 09:20:07.30	138.83	5.70	-48.7	-63.7	3.8	1.49e+00	0	41	104	0	69	19717
2026-01-26 09:20:08.29	138.80	5.77	-48.7	-63.6	3.8	1.49e+00	0	41	104	0	69	19513
2026-01-26 09:20:09.28	138.76	5.84	-48.7	-63.5	3.8	1.49e+00	0	41	104	0	69	19169
2026-01-26 09:20:10.28	138.72	5.91	-48.7	-63.3	3.8	1.49e+00	0	41	104	0	69	18752
2026-01-26 09:20:11.27	138.69	5.98	-48.7	-63.1	3.8	1.49e+00	0	41	104	0	69	18359
2026-01-26 09:20:12.26	138.65	6.06	-48.7	-62.9	3.8	1.49e+00	0	41	104	0	69	18007
2026-01-26 09:20:13.26	138.61	6.13	-48.7	-62.8	3.8	1.49e+00	0	41	104	0	69	17874
2026-01-26 09:20:14.25	138.57	6.20	-48.7	-62.7	3.8	1.49e+00	0	41	104	0	69	17519
2026-01-26 09:20:15.24	138.54	6.27	-48.7	-62.7	3.8	1.49e+00	0	41	104	0	69	17631
2026-01-26 09:20:16.23	138.50	6.35	-48.7	-62.8	3.8	1.49e+00	0	41	104	0	69	17812
2026-01-26 09:20:17.23	138.46	6.42	-48.7	-63.0	3.8	1.49e+00	0	41	104	0	69	18241
2026-01-26 09:20:18.22	138.42	6.49	-48.7	-63.3	3.8	1.49e+00	0	41	104	0	69	18875
2026-01-26 09:20:19.22	138.39	6.57	-48.7	-63.7	3.8	1.49e+00	0	41	104	0	69	19617
2026-01-26 09:20:20.21	138.35	6.64	-48.7	-63.8	3.8	1.49e+00	0	41	104	0	69	20034
2026-01-26 09:20:21.20	138.31	6.71	-48.7	-63.8	3.8	1.49e+00	0	41	104	0	69	20018
2026-01-26 09:20:22.20	138.27	6.79	-48.7	-63.6	3.8	1.49e+00	0	41	104	0	69	19586
2026-01-26 09:20:23.19	138.23	6.86	-48.7	-63.3	3.8	1.49e+00	0	41	104	0	69	18925
2026-01-26 09:20:24.18	138.19	6.94	-48.7	-62.8	3.8	1.49e+00	0	41	104	0	69	17742
2026-01-26 09:20:25.18	138.15	7.01	-48.6	-62.2	3.8	1.49e+00	0	42	104	0	69	16665
2026-01-26 09:20:26.17	138.11	7.09	-48.6	-61.6	3.8	1.48e+00	0	41	104	0	69	15534
2026-01-26 09:20:27.16	138.07	7.16	-48.6	-61.1	4.0	1.49e+00	0	41	0	0	69	14542
2026-01-26 09:20:28.16	138.03	7.24	-48.5	-60.6	4.2	1.43e+00	0	42	0	0	69	13783
2026-01-26 09:20:29.15	137.99	7.31	-48.5	-60.0	4.3	1.36e+00	0	42	0	0	68	13662
2026-01-26 09:20:30.14	137.95	7.39	-48.4	-59.0	4.7	1.01e+00	0	42	0	1048576	68	12206
2026-01-26 09:20:31.13	137.91	7.46	-48.2	-58.2	5.1	7.31e-01	0	42	0	3145728	68	11123
2026-01-26 09:20:32.13	137.87	7.54	-48.0	-56.9	6.0	5.12e-01	0	42	0	5242880	68	9505
2026-01-26 09:20:33.12	137.83	7.62	-47.6	-55.3	7.2	1.91e-01	0	42	0	7340032	67	8418
2026-01-26 09:20:34.11	137.79	7.69	-47.2	-53.9	8.5	7.62e-02	0	42	0	8388608	66	7584
2026-01-26 09:20:35.11	137.74	7.77	-46.7	-52.5	10.0	2.34e-02	0	42	0	10485760	65	6802
2026-01-26 09:20:36.10	137.70	7.85	-46.1	-51.0	11.5	1.53e-03	0	42	0	12582912	64	6079
2026-01-26 09:20:37.09	137.66	7.92	-45.6	-49.9	12.7	1.60e-04	0	42	0	14680064	63	5692
2026-01-26 09:20:38.09	137.62	8.00	-44.8	-48.5	14.1	6.80e-06	0	42	0	16777216	61	5453
2026-01-26 09:20:39.08	137.57	8.08	-44.2	-47.5	15.1	1.50e-06	0	42	0	17825792	60	5145
2026-01-26 09:20:40.07	137.53	8.16	-43.8	-46.9	15.7	0.00e+00	0	42	0	19922944	59	5044
2026-01-26 09:20:41.07	137.49	8.23	-43.6	-46.5	16.1	0.00e+00	0	42	0	22020096	59	4830
2026-01-26 09:20:42.06	137.44	8.31	-43.4	-46.3	16.4	0.00e+00	0	42	0	24117248	58	4986
2026-01-26 09:20:43.05	137.40	8.39	-43.4	-46.2	16.4	0.00e+00	0	42	0	25165824	58	4944
2026-01-26 09:20:44.05	137.36	8.47	-43.5	-46.3	16.3	0.00e+00	0	42	0	27262976	58	5039
2026-01-26 09:20:45.04	137.31	8.55	-44.0	-47.0	15.6	0.00e+00	0	42	0	29360128	58	5454
2026-01-26 09:20:46.03	137.27	8.63	-44.3	-47.6	15.0	0.00e+00	0	42	0	31457280	59	5496
2026-01-26 09:20:47.03	137.22	8.71	-45.0	-48.7	14.0	2.20e-06	0	42	0	33554432	60	5874
2026-01-26 09:20:48.02	137.18	8.79	-45.7	-50.0	12.7	1.90e-05	0	42	0	34603008	61	6443
2026-01-26 09:20:49.01	137.13	8.87	-46.3	-51.3	11.3	3.63e-04	0	42	0	36700160	63	6719
2026-01-26 09:20:50.00	137.09	8.95	-46.9	-53.0	9.5	3.36e-03	0	42	0	38797312	64	7689
2026-01-26 09:20:51.00	137.04	9.03	-47.5	-55.1	7.4	6.83e-02	0	42	0	40894464	65	9225
2026-01-26 09:20:51.99	137.00	9.11	-46.9	-52.8	9.7	3.82e-02	0	42	0	41943040	65	7087
2026-01-26 09:20:52.99	136.95	9.19	-48.1	-57.6	5.4	9.40e-02	0	42	0	44040192	66	11671
2026-01-26 09:20:53.98	136.90	9.27	-48.0	-57.9	5.2	3.22e-01	0	42	0	46137344	66	12036
2026-01-26 09:20:54.98	136.86	9.35	-45.3	-49.4	13.3	7.79e-03	0	42	0	48234496	62	5682
2026-01-26 09:20:55.97	136.81	9.43	-48.5	-63.2	3.8	4.47e-01	0	42	104	49283072	67	20807
2026-01-26 09:20:56.97	136.76	9.52	-46.4	-51.9	10.4	1.48e+00	0	42	104	49283072	64	6750
2026-01-26 09:20:57.96	136.71	9.60	-46.4	-51.7	10.8	3.03e-03	0	42	0	50331648	64	6636
2026-01-26 09:20:58.96	136.67	9.68	-46.4	-51.8	10.9	1.78e-03	0	42	0	52428800	64	6660
2026-01-26 09:20:59.95	136.62	9.76	-45.9	-50.6	12.2	7.13e-04	0	42	0	54525952	63	6155
2026-01-26 09:21:00.95	136.57	9.85	-45.3	-49.4	13.4	8.31e-05	0	42	0	56623104	62	5713
2026-01-26 09:21:01.94	136.52	9.93	-44.7	-48.4	14.4	7.00e-07	0	42	0	57671680	61	5369
2026-01-26 09:21:02.94	136.47	10.01	-44.2	-47.5	15.3	0.00e+00	0	42	0	59768832	60	5135
2026-01-26 09:21:03.93	136.42	10.10	-43.8	-46.9	15.9	0.00e+00	0	42	0	61865984	59	5052
2026-01-26 09:21:04.93	136.37	10.18	-43.9	-46.9	15.8	0.00e+00	0	42	0	63963136	59	5080
2026-01-26 09:21:05.92	136.32	10.26	-43.6	-46.4	16.2	0.00e+00	0	42	0	65011712	59	4814
2026-01-26 09:21:06.91	136.27	10.35	-43.2	-46.0	16.7	0.00e+00	0	42	0	67108864	58	4842
2026-01-26 09:21:07.91	136.22	10.43	-43.1	-45.8	17.0	0.00e+00	0	42	0	69206016	58	4718
2026-01-26 09:21:08.90	136.17	10.52	-42.5	-45.0	17.7	0.00e+00	0	42	0	71303168	57	4559
2026-01-26 09:21:09.90	136.12	10.60	-42.1	-44.5	18.2	0.00e+00	0	42	0	73400320	56	4568
2026-01-26 09:21:10.89	136.07	10.69	-41.7	-44.1	18.4	0.00e+00	0	42	0	74448896	55	4621
2026-01-26 09:21:11.89	136.01	10.78	-41.7	-44.1	18.4	0.00e+00	0	43	0	76546048	55	4623
2026-01-26 09:21:12.88	135.96	10.86	-42.1	-44.6	17.9	0.00e+00	0	43	0	78643200	55	4891
2026-01-26 09:21:13.88	135.91	10.95	-42.2	-44.7	17.8	0.00e+00	0	42	0	80740352	55	4966
2026-01-26 09:21:14.87	135.86	11.04	-42.5	-45.2	17.4	0.00e+00	0	42	0	81788928	55	5240
2026-01-26 09:21:15.87	135.80	11.12	-43.1	-45.9	16.8	0.00e+00	0	42	0	83886080	56	5383
2026-01-26 09:21:16.86	135.75	11.21	-43.4	-46.5	16.3	0.00e+00	0	43	0	85983232	57	5421
2026-01-26 09:21:17.86	135.70	11.30	-43.6	-46.8	16.0	0.00e+00	0	42	0	88080384	57	5616
2026-01-26 09:21:18.85	135.64	11.39	-44.1	-47.5	15.4	0.00e+00	0	42	0	90177536	58	5749
2026-01-26 09:21:19.85	135.59	11.47	-44.1	-47.5	15.3	0.00e+00	0	42	0	91226112	59	5461
2026-01-26 09:21:20.84	135.53	11.56	-44.1	-47.5	15.4	0.00e+00	0	43	0	93323264	59	5409
2026-01-26 09:21:21.84	135.48	11.65	-43.9	-47.1	15.7	0.00e+00	0	43	0	95420416	59	5201
2026-01-26 09:21:22.83	135.42	11.74	-43.7	-46.8	16.0	0.00e+00	0	43	0	97517568	59	4998
2026-01-26 09:21:23.82	135.37	11.83	-43.0	-45.7	17.0	0.00e+00	0	42	0	98566144	58	4697
2026-01-26 09:21:24.82	135.31	11.92	-42.4	-44.9	17.9	0.00e+00	0	43	0	100663296	56	4769
2026-01-26 09:21:25.81	135.25	12.01	-41.7	-44.0	18.5	0.00e+00	0	42	0	102760448	55	4556
2026-01-26 09:21:26.81	135.19	12.10	-41.3	-43.6	19.0	0.00e+00	0	42	0	104857600	54	4603
2026-01-26 09:21:27.80	135.14	12.19	-40.8	-43.0	19.5	0.00e+00	0	43	0	106954752	53	4551
2026-01-26 09:21:28.80	135.08	12.28	-40.9	-43.0	19.5	0.00e+00	0	42	0	108003328	53	4557
2026-01-26 09:21:29.79	135.02	12.37	-41.0	-43.1	19.4	0.00e+00	0	43	0	110100480	53	4649
2026-01-26 09:21:30.79	134.96	12.46	-41.1	-43.2	19.3	0.00e+00	0	43	0	112197632	53	4702
2026-01-26 09:21:31.78	134.90	12.56	-41.4	-43.7	18.9	0.00e+00	0	43	0	114294784	53	4941
2026-01-26 09:21:32.78	134.84	12.65	-42.0	-44.5	18.1	0.00e+00	0	43	0	115343360	54	5117
2026-01-26 09:21:33.77	134.78	12.74	-42.5	-45.2	17.4	0.00e+00	0	42	0	117440512	55	5267
2026-01-26 09:21:34.77	134.72	12.83	-43.3	-46.3	16.6	0.00e+00	0	43	0	119537664	57	5295
2026-01-26 09:21:35.76	134.66	12.93	-43.8	-47.0	15.9	0.00e+00	0	43	0	121634816	58	5462
2026-01-26 09:21:36.76	134.60	13.02	-44.4	-47.9	15.1	0.00e+00	0	43	0	123731968	59	5680
2026-01-26 09:21:37.75	134.54	13.11	-44.2	-47.5	15.4	0.00e+00	0	43	0	124780544	59	5458
2026-01-26 09:21:38.75	134.48	13.21	-43.9	-47.1	15.8	0.00e+00	0	42	0	126877696	59	5195
2026-01-26 09:21:39.75	134.42	13.30	-43.2	-46.1	16.7	0.00e+00	0	43	0	128974848	58	4883
2026-01-26 09:21:40.74	134.36	13.40	-42.5	-45.0	17.7	0.00e+00	0	43	0	131072000	57	4587
2026-01-26 09:21:41.73	134.29	13.49	-42.1	-44.4	18.3	0.00e+00	0	43	0	132120576	56	4544
2026-01-26 09:21:42.73	134.23	13.59	-41.6	-43.9	18.7	0.00e+00	0	43	0	134217728	55	4498
2026-01-26 09:21:43.72	134.17	13.68	-41.1	-43.2	19.4	0.00e+00	0	43	0	136314880	54	4410
2026-01-26 09:21:44.72	134.10	13.78	-40.8	-42.8	19.6	0.00e+00	0	43	0	138412032	53	4491
2026-01-26 09:21:45.71	134.04	13.88	-41.0	-43.1	19.4	0.00e+00	0	43	0	140509184	53	4627
2026-01-26 09:21:46.71	133.97	13.97	-41.3	-43.5	19.0	0.00e+00	0	43	0	141557760	53	4865
2026-01-26 09:21:47.70	133.91	14.07	-41.7	-44.1	18.4	0.00e+00	0	43	0	143654912	54	4915
2026-01-26 09:21:48.70	133.84	14.17	-42.9	-45.7	17.1	0.00e+00	0	43	0	145752064	56	5228
2026-01-26 09:21:49.69	133.77	14.27	-43.7	-47.0	15.9	0.00e+00	0	43	0	147849216	58	5405
2026-01-26 09:21:50.69	133.71	14.36	-44.3	-47.8	15.1	0.00e+00	0	43	0	149946368	59	5656
2026-01-26 09:21:51.68	133.64	14.46	-44.4	-48.0	15.0	0.00e+00	0	43	0	150994944	59	5747
2026-01-26 09:21:52.68	133.57	14.56	-44.0	-47.2	15.7	0.00e+00	0	43	0	153092096	59	5265
2026-01-26 09:21:53.67	133.50	14.66	-43.1	-45.9	17.0	0.00e+00	0	43	0	155189248	58	4761
2026-01-26 09:21:54.67	133.43	14.76	-42.3	-44.7	18.1	0.00e+00	0	43	0	157286400	56	4663
2026-01-26 09:21:55.66	133.36	14.86	-41.3	-43.5	19.1	0.00e+00	0	43	0	158334976	54	4574
2026-01-26 09:21:56.66	133.29	14.96	-40.8	-42.9	19.7	0.00e+00	0	43	0	160432128	53	4499
2026-01-26 09:21:57.65	133.22	15.06	-40.4	-42.3	20.2	0.00e+00	0	43	0	162529280	52	4490
2026-01-26 09:21:58.65	133.15	15.16	-40.6	-42.6	19.9	0.00e+00	0	43	0	164626432	52	4647
2026-01-26 09:21:59.64	133.08	15.27	-40.9	-43.0	19.6	0.00e+00	0	43	0	166723584	52	4836
2026-01-26 09:22:00.63	133.01	15.37	-41.4	-43.7	18.9	0.00e+00	0	43	0	167772160	53	4966
2026-01-26 09:22:01.63	132.94	15.47	-42.3	-44.9	17.6	0.00e+00	0	43	0	169869312	55	5091
2026-01-26 09:22:02.62	132.87	15.57	-43.5	-46.5	16.4	0.00e+00	0	43	0	171966464	57	5453
2026-01-26 09:22:03.62	132.79	15.68	-44.1	-47.4	15.6	0.00e+00	0	43	0	174063616	58	5692
2026-01-26 09:22:04.61	132.72	15.78	-44.2	-47.7	15.4	0.00e+00	0	43	0	175112192	59	5546
2026-01-26 09:22:05.61	132.64	15.88	-43.6	-46.7	16.4	0.00e+00	0	43	0	177209344	59	4927
2026-01-26 09:22:06.60	132.57	15.99	-43.0	-45.8	17.2	0.00e+00	0	43	0	179306496	58	4715
2026-01-26 09:22:07.60	132.49	16.09	-42.5	-45.0	17.9	0.00e+00	0	43	0	181403648	57	4579
2026-01-26 09:22:08.59	132.42	16.20	-41.6	-43.9	18.9	0.00e+00	0	43	0	183500800	55	4506
2026-01-26 09:22:09.59	132.34	16.30	-41.1	-43.3	19.4	0.00e+00	0	43	0	184549376	54	4450
2026-01-26 09:22:10.58	132.27	16.41	-41.0	-43.1	19.5	0.00e+00	0	43	0	186646528	53	4638
2026-01-26 09:22:11.58	132.19	16.51	-41.2	-43.4	19.3	0.00e+00	0	43	0	188743680	53	4802
2026-01-26 09:22:12.57	132.11	16.62	-41.6	-44.0	18.8	0.00e+00	0	43	0	190840832	53	5130
2026-01-26 09:22:13.57	132.03	16.73	-42.4	-45.0	17.8	0.00e+00	0	43	0	191889408	55	5123
2026-01-26 09:22:14.56	131.95	16.84	-43.2	-46.0	17.1	0.00e+00	0	43	0	193986560	56	5440
2026-01-26 09:22:15.56	131.87	16.94	-43.4	-46.3	16.8	0.00e+00	0	43	0	196083712	57	5329
2026-01-26 09:22:16.55	131.79	17.05	-42.9	-45.6	17.5	0.00e+00	0	43	0	198180864	57	4881
2026-01-26 09:22:17.55	131.71	17.16	-42.7	-45.3	17.7	0.00e+00	0	43	0	200278016	57	4715
2026-01-26 09:22:18.54	131.63	17.27	-41.8	-44.1	18.7	0.00e+00	0	43	0	201326592	55	4614
2026-01-26 09:22:19.53	131.55	17.38	-41.3	-43.5	19.3	0.00e+00	0	43	0	203423744	54	4569
2026-01-26 09:22:20.53	131.46	17.49	-41.1	-43.2	19.5	0.00e+00	0	43	0	205520896	54	4413
2026-01-26 09:22:21.52	131.38	17.60	-41.0	-43.1	19.6	0.00e+00	0	43	0	207618048	53	4622
2026-01-26 09:22:22.52	131.30	17.71	-41.2	-43.4	19.3	0.00e+00	0	43	0	208666624	53	4778
2026-01-26 09:22:23.51	131.21	17.82	-42.0	-44.4	18.4	0.00e+00	0	43	0	210763776	54	5092
2026-01-26 09:22:24.51	131.12	17.93	-42.6	-45.2	17.7	0.00e+00	0	43	0	212860928	55	5249
2026-01-26 09:22:25.50	131.04	18.05	-43.1	-45.8	17.3	0.00e+00	0	43	0	214958080	57	5033
2026-01-26 09:22:26.50	130.95	18.16	-43.4	-46.2	16.9	0.00e+00	0	43	0	217055232	57	5254
2026-01-26 09:22:27.49	130.86	18.27	-43.4	-46.3	16.7	0.00e+00	0	43	0	218103808	57	5292
2026-01-26 09:22:28.49	130.78	18.39	-43.0	-45.7	17.4	0.00e+00	0	43	0	220200960	57	4959
2026-01-26 09:22:29.48	130.69	18.50	-42.2	-44.6	18.4	0.00e+00	0	43	0	222298112	56	4636
2026-01-26 09:22:30.48	130.60	18.61	-41.7	-44.0	18.8	0.00e+00	0	43	0	224395264	55	4575
2026-01-26 09:22:31.47	130.51	18.73	-41.7	-44.0	18.8	0.00e+00	0	43	0	225443840	55	4585
2026-01-26 09:22:32.47	130.42	18.85	-41.6	-43.9	19.0	0.00e+00	0	43	0	227540992	54	4780
2026-01-26 09:22:33.47	130.32	18.96	-42.0	-44.4	18.5	0.00e+00	0	43	0	229638144	54	5087
2026-01-26 09:22:34.46	130.23	19.08	-42.5	-45.1	17.8	0.00e+00	0	43	0	231735296	55	5173
2026-01-26 09:22:35.45	130.14	19.19	-43.0	-45.7	17.5	0.00e+00	0	43	0	233832448	56	5226
2026-01-26 09:22:36.45	130.05	19.31	-43.2	-45.9	17.3	0.00e+00	0	43	0	234881024	56	5366
2026-01-26 09:22:37.44	129.95	19.43	-43.0	-45.6	17.4	0.00e+00	0	43	0	236978176	57	4923
2026-01-26 09:22:38.44	129.86	19.55	-42.8	-45.3	17.7	0.00e+00	0	43	0	239075328	57	4755
2026-01-26 09:22:39.43	129.76	19.67	-42.9	-45.4	17.8	0.00e+00	0	43	0	241172480	57	4779
2026-01-26 09:22:40.42	129.66	19.78	-42.5	-45.0	18.1	0.00e+00	0	43	0	242221056	57	4567
2026-01-26 09:22:41.42	129.57	19.91	-42.6	-45.1	18.0	0.00e+00	0	43	0	244318208	57	4611
2026-01-26 09:22:42.41	129.47	20.02	-43.0	-45.6	17.6	0.00e+00	0	43	0	246415360	57	4879
2026-01-26 09:22:43.41	129.37	20.15	-43.1	-45.7	17.4	0.00e+00	0	43	0	248512512	57	4958
2026-01-26 09:22:44.40	129.27	20.27	-43.3	-46.0	17.1	0.00e+00	0	43	0	250609664	57	5149
2026-01-26 09:22:45.40	129.17	20.39	-43.5	-46.3	16.9	0.00e+00	0	43	0	251658240	57	5292
2026-01-26 09:22:46.39	129.07	20.51	-43.5	-46.3	16.9	0.00e+00	0	43	0	253755392	58	5012
2026-01-26 09:22:47.39	128.96	20.63	-43.3	-46.0	17.2	0.00e+00	0	43	0	255852544	58	4818
2026-01-26 09:22:48.38	128.86	20.76	-43.2	-45.8	17.3	0.00e+00	0	43	0	257949696	58	4757
2026-01-26 09:22:49.37	128.76	20.88	-43.2	-45.8	17.4	0.00e+00	0	43	0	258998272	58	4733
2026-01-26 09:22:50.37	128.65	21.00	-43.0	-45.6	17.5	0.00e+00	0	43	0	261095424	58	4635
2026-01-26 09:22:51.36	128.55	21.13	-43.1	-45.7	17.4	0.00e+00	0	43	0	263192576	57	4975
2026-01-26 09:22:52.36	128.44	21.25	-42.8	-45.4	17.8	0.00e+00	0	43	0	265289728	57	4766
2026-01-26 09:22:53.35	128.33	21.38	-42.7	-45.2	17.9	0.00e+00	0	43	0	267386880	57	4653
2026-01-26 09:22:54.34	128.22	21.51	-42.5	-44.9	18.2	0.00e+00	0	43	0	268435456	56	4778
2026-01-26 09:22:55.34	128.11	21.63	-42.5	-44.9	18.2	0.00e+00	0	43	0	270532608	56	4770
2026-01-26 09:22:56.33	128.00	21.76	-42.2	-44.6	18.5	0.00e+00	0	43	0	272629760	56	4624
2026-01-26 09:22:57.33	127.89	21.89	-42.4	-44.8	18.3	0.00e+00	0	43	0	274726912	56	4749
2026-01-26 09:22:58.33	127.78	22.02	-42.7	-45.2	18.0	0.00e+00	0	43	0	275775488	56	4957
2026-01-26 09:22:59.32	127.67	22.14	-42.9	-45.5	17.6	0.00e+00	0	43	0	277872640	56	5154
2026-01-26 09:23:00.32	127.55	22.27	-43.1	-45.8	17.4	0.00e+00	0	43	0	279969792	56	5305
2026-01-26 09:23:01.31	127.44	22.40	-43.4	-46.2	17.0	0.00e+00	0	43	0	282066944	57	5222
2026-01-26 09:23:02.31	127.32	22.54	-43.3	-46.1	17.1	0.00e+00	0	43	0	284164096	57	5179
2026-01-26 09:23:03.30	127.21	22.67	-43.2	-45.9	17.2	0.00e+00	0	43	0	285212672	57	5074
2026-01-26 09:23:04.30	127.09	22.80	-42.9	-45.5	17.6	0.00e+00	0	43	0	287309824	57	4850
2026-01-26 09:23:05.29	126.97	22.93	-42.8	-45.3	17.9	0.00e+00	0	43	0	289406976	57	4708
2026-01-26 09:23:06.29	126.85	23.06	-43.2	-45.9	17.3	0.00e+00	0	43	0	291504128	57	5067
2026-01-26 09:23:07.28	126.73	23.20	-43.4	-46.2	17.0	0.00e+00	0	43	0	292552704	57	5229
2026-01-26 09:23:08.28	126.60	23.33	-43.7	-46.5	16.7	0.00e+00	0	43	0	294649856	57	5447
2026-01-26 09:23:09.27	126.48	23.46	-43.7	-46.7	16.6	0.00e+00	0	43	0	296747008	58	5231
2026-01-26 09:23:10.27	126.36	23.60	-43.7	-46.6	16.6	0.00e+00	0	43	0	298844160	58	5176
2026-01-26 09:23:11.26	126.23	23.73	-43.3	-46.0	17.3	0.00e+00	0	43	0	300941312	58	4830
2026-01-26 09:23:12.25	126.11	23.87	-43.1	-45.8	17.5	0.00e+00	0	43	0	301989888	58	4708
2026-01-26 09:23:13.25	125.98	24.01	-43.0	-45.6	17.6	0.00e+00	0	43	0	304087040	57	4896
2026-01-26 09:23:14.24	125.85	24.14	-43.0	-45.6	17.7	0.00e+00	0	43	0	306184192	57	4913
2026-01-26 09:23:15.24	125.72	24.28	-43.2	-45.9	17.3	0.00e+00	0	43	0	308281344	57	5074
2026-01-26 09:23:16.23	125.59	24.42	-43.6	-46.3	16.9	0.00e+00	0	43	0	309329920	57	5339
2026-01-26 09:23:17.23	125.45	24.56	-43.9	-46.9	16.4	0.00e+00	0	43	0	311427072	58	5348
2026-01-26 09:23:18.22	125.32	24.70	-43.6	-46.4	16.8	0.00e+00	0	43	0	313524224	58	5094
2026-01-26 09:23:19.22	125.19	24.84	-43.4	-46.1	17.1	0.00e+00	0	43	0	315621376	58	4922
2026-01-26 09:23:20.21	125.05	24.98	-43.4	-46.1	17.2	0.00e+00	0	43	0	317718528	58	4891
2026-01-26 09:23:21.21	124.91	25.12	-43.5	-46.2	17.0	0.00e+00	0	43	0	318767104	58	4952
2026-01-26 09:23:22.20	124.78	25.26	-43.4	-46.0	17.2	0.00e+00	0	43	0	320864256	58	4870
2026-01-26 09:23:23.20	124.63	25.40	-43.7	-46.4	16.8	0.00e+00	0	43	0	322961408	58	5088
2026-01-26 09:23:24.19	124.49	25.54	-44.0	-46.9	16.4	0.00e+00	0	43	0	325058560	58	5382
2026-01-26 09:23:25.19	124.35	25.69	-44.1	-47.1	16.2	0.00e+00	0	43	0	326107136	58	5481
2026-01-26 09:23:26.18	124.21	25.83	-43.4	-46.1	17.1	0.00e+00	0	43	0	328204288	58	4894
2026-01-26 09:23:27.18	124.06	25.98	-43.0	-45.5	17.7	0.00e+00	0	43	0	330301440	58	4581
2026-01-26 09:23:28.17	123.92	26.12	-42.7	-45.2	18.0	0.00e+00	0	43	0	332398592	57	4664
2026-01-26 09:23:29.17	123.77	26.27	-42.9	-45.4	17.8	0.00e+00	0	43	0	334495744	57	4774
2026-01-26 09:23:30.16	123.62	26.41	-42.7	-45.1	18.1	0.00e+00	0	43	0	335544320	57	4616
2026-01-26 09:23:31.16	123.47	26.56	-42.9	-45.5	17.7	0.00e+00	0	43	0	337641472	57	4815
2026-01-26 09:23:32.15	123.32	26.71	-42.9	-45.4	17.7	0.00e+00	0	43	0	339738624	57	4806
2026-01-26 09:23:33.15	123.16	26.86	-43.1	-45.7	17.5	0.00e+00	0	43	0	341835776	57	4943
2026-01-26 09:23:34.14	123.01	27.00	-42.8	-45.2	17.9	0.00e+00	0	43	0	342884352	57	4696
2026-01-26 09:23:35.13	122.85	27.15	-42.8	-45.3	17.9	0.00e+00	0	43	0	344981504	57	4714
2026-01-26 09:23:36.13	122.70	27.30	-43.1	-45.6	17.6	0.00e+00	0	43	0	347078656	57	4900
2026-01-26 09:23:37.12	122.54	27.45	-43.4	-46.1	17.1	0.00e+00	0	43	0	349175808	57	5209
2026-01-26 09:23:38.12	122.38	27.60	-43.6	-46.4	16.8	0.00e+00	0	43	0	351272960	57	5370
2026-01-26 09:23:39.11	122.21	27.75	-43.5	-46.3	17.0	0.00e+00	0	43	0	352321536	58	5009
2026-01-26 09:23:40.10	122.05	27.91	-43.3	-46.0	17.2	0.00e+00	0	43	0	354418688	58	4858
2026-01-26 09:23:41.10	121.89	28.06	-43.4	-46.0	17.2	0.00e+00	0	43	0	356515840	58	4851
2026-01-26 09:23:42.09	121.72	28.21	-43.0	-45.5	17.7	0.00e+00	0	43	0	358612992	57	4865
2026-01-26 09:23:43.09	121.55	28.37	-43.3	-45.9	17.4	0.00e+00	0	43	0	359661568	57	5044
2026-01-26 09:23:44.08	121.38	28.52	-43.4	-46.1	17.2	0.00e+00	0	43	0	361758720	58	4914
2026-01-26 09:23:45.08	121.21	28.68	-43.8	-46.7	16.6	0.00e+00	0	43	0	363855872	58	5249
2026-01-26 09:23:46.07	121.03	28.83	-44.0	-46.9	16.5	0.00e+00	0	43	0	365953024	58	5364
2026-01-26 09:23:47.07	120.86	28.99	-43.7	-46.4	16.8	0.00e+00	0	43	0	368050176	58	5095
2026-01-26 09:23:48.06	120.68	29.14	-43.3	-45.9	17.4	0.00e+00	0	43	0	369098752	58	4767
2026-01-26 09:23:49.06	120.50	29.30	-43.6	-46.3	17.0	0.00e+00	0	43	0	371195904	58	5018
2026-01-26 09:23:50.05	120.32	29.46	-43.6	-46.4	16.8	0.00e+00	0	43	0	373293056	58	5061
2026-01-26 09:23:51.05	120.14	29.62	-44.0	-46.9	16.5	0.00e+00	0	43	0	375390208	58	5366
2026-01-26 09:23:52.04	119.96	29.77	-43.9	-46.8	16.5	0.00e+00	0	43	0	376438784	58	5334
2026-01-26 09:23:53.04	119.77	29.93	-43.7	-46.5	16.8	0.00e+00	0	43	0	378535936	58	5114
2026-01-26 09:23:54.03	119.58	30.09	-43.5	-46.2	17.2	0.00e+00	0	43	0	380633088	58	4937
2026-01-26 09:23:55.03	119.39	30.25	-43.8	-46.6	16.8	0.00e+00	0	43	0	382730240	58	5168
2026-01-26 09:23:56.02	119.20	30.41	-43.9	-46.7	16.6	0.00e+00	0	43	0	384827392	58	5268
2026-01-26 09:23:57.02	119.01	30.58	-44.2	-47.2	16.2	0.00e+00	0	43	0	385875968	59	5253
2026-01-26 09:23:58.01	118.81	30.74	-44.2	-47.2	16.1	0.00e+00	0	43	0	387973120	59	5235
2026-01-26 09:23:59.01	118.61	30.90	-43.9	-46.7	16.6	0.00e+00	0	43	0	390070272	59	4970
2026-01-26 09:24:00.00	118.41	31.06	-43.9	-46.6	16.7	0.00e+00	0	43	0	392167424	59	4910
2026-01-26 09:24:01.00	118.21	31.23	-44.0	-46.8	16.5	0.00e+00	0	43	0	393216000	59	5025
2026-01-26 09:24:01.99	118.01	31.39	-44.4	-47.5	15.9	0.00e+00	0	43	0	395313152	59	5425
2026-01-26 09:24:02.99	117.80	31.56	-44.6	-47.8	15.7	0.00e+00	0	43	0	397410304	60	5296
2026-01-26 09:24:03.98	117.59	31.72	-44.8	-48.1	15.3	0.00e+00	0	43	0	399507456	60	5514
2026-01-26 09:24:04.98	117.38	31.89	-44.8	-48.0	15.4	0.00e+00	0	43	0	401604608	60	5426
2026-01-26 09:24:05.97	117.17	32.05	-44.6	-47.7	15.8	0.00e+00	0	43	0	402653184	60	5242
2026-01-26 09:24:06.97	116.96	32.22	-44.6	-47.8	15.7	0.00e+00	0	43	0	404750336	60	5303
2026-01-26 09:24:07.97	116.74	32.39	-44.6	-47.7	15.8	0.00e+00	0	43	0	406847488	60	5254
2026-01-26 09:24:08.96	116.52	32.55	-44.5	-47.6	15.8	0.00e+00	0	43	0	408944640	60	5190
2026-01-26 09:24:09.95	116.30	32.72	-44.5	-47.6	15.9	0.00e+00	0	43	0	411041792	60	5165
2026-01-26 09:24:10.95	116.07	32.89	-44.1	-47.0	16.4	0.00e+00	0	43	0	412090368	60	4850
2026-01-26 09:24:11.94	115.85	33.06	-44.4	-47.5	16.0	0.00e+00	0	43	0	414187520	60	5133
2026-01-26 09:24:12.94	115.62	33.23	-44.7	-47.9	15.6	0.00e+00	0	43	0	416284672	60	5364
2026-01-26 09:24:13.93	115.39	33.40	-44.6	-47.8	15.7	0.00e+00	0	43	0	418381824	60	5287
2026-01-26 09:24:14.93	115.16	33.57	-44.6	-47.7	15.7	0.00e+00	0	43	0	419430400	60	5279
2026-01-26 09:24:15.93	114.92	33.74	-44.4	-47.5	16.1	0.00e+00	0	43	0	421527552	60	5117
2026-01-26 09:24:16.92	114.68	33.91	-44.4	-47.5	16.0	0.00e+00	0	43	0	423624704	60	5117
2026-01-26 09:24:17.92	114.44	34.08	-44.4	-47.4	16.0	0.00e+00	0	43	0	425721856	60	5082
2026-01-26 09:24:18.91	114.20	34.25	-44.0	-46.8	16.7	0.00e+00	0	43	0	427819008	59	5008
2026-01-26 09:24:19.91	113.95	34.42	-43.9	-46.7	16.7	0.00e+00	0	43	0	428867584	59	4969
2026-01-26 09:24:20.90	113.70	34.60	-43.9	-46.7	16.5	0.00e+00	0	43	0	430964736	59	4959
2026-01-26 09:24:21.90	113.45	34.77	-44.3	-47.3	16.1	0.00e+00	0	43	0	433061888	59	5332
2026-01-26 09:24:22.89	113.20	34.94	-44.1	-46.9	16.5	0.00e+00	0	43	0	435159040	59	5099
2026-01-26 09:24:23.89	112.94	35.12	-44.5	-47.6	16.0	0.00e+00	0	43	0	436207616	60	5172
2026-01-26 09:24:24.88	112.68	35.29	-44.9	-48.1	15.4	7.00e-07	0	43	0	438304768	60	5466
2026-01-26 09:24:25.88	112.42	35.46	-45.4	-48.9	14.6	1.50e-06	0	43	0	440401920	61	5713
2026-01-26 09:24:26.87	112.15	35.64	-46.1	-50.1	13.4	6.80e-06	0	43	0	442499072	62	6199
2026-01-26 09:24:27.87	111.89	35.81	-45.6	-49.3	14.2	3.80e-06	0	43	0	444596224	63	5282
2026-01-26 09:24:28.87	111.61	35.99	-45.2	-48.7	14.9	0.00e+00	0	43	0	445644800	62	5222
2026-01-26 09:24:29.86	111.34	36.16	-44.9	-48.2	15.3	0.00e+00	0	43	0	447741952	61	5259
2026-01-26 09:24:30.86	111.06	36.34	-44.9	-48.2	15.3	0.00e+00	0	43	0	449839104	61	5233
2026-01-26 09:24:31.85	110.78	36.51	-44.9	-48.3	15.2	0.00e+00	0	43	0	451936256	61	5285
2026-01-26 09:24:32.85	110.50	36.69	-44.7	-47.8	15.6	0.00e+00	0	43	0	452984832	61	5032
2026-01-26 09:24:33.85	110.21	36.86	-44.2	-47.2	16.3	0.00e+00	0	43	0	455081984	60	4936
2026-01-26 09:24:34.84	109.93	37.04	-44.0	-46.9	16.6	0.00e+00	0	43	0	457179136	59	5047
2026-01-26 09:24:35.84	109.63	37.21	-44.2	-47.0	16.5	0.00e+00	0	43	0	459276288	59	5136
2026-01-26 09:24:36.84	109.34	37.39	-44.0	-46.8	16.6	0.00e+00	0	43	0	461373440	59	5024
2026-01-26 09:24:37.83	109.04	37.56	-43.7	-46.4	16.9	0.00e+00	0	43	0	462422016	59	4798
2026-01-26 09:24:38.83	108.73	37.74	-43.7	-46.4	16.9	0.00e+00	0	43	0	464519168	58	5093
2026-01-26 09:24:39.82	108.43	37.92	-44.3	-47.2	16.2	0.00e+00	0	43	0	466616320	59	5269
2026-01-26 09:24:40.82	108.12	38.09	-44.6	-47.7	15.7	0.00e+00	0	43	0	468713472	59	5587
2026-01-26 09:24:41.81	107.81	38.27	-44.4	-47.4	16.1	0.00e+00	0	43	0	470810624	60	5065
2026-01-26 09:24:42.81	107.49	38.44	-44.2	-47.1	16.4	0.00e+00	0	43	0	471859200	60	4887
2026-01-26 09:24:43.80	107.18	38.62	-44.1	-46.9	16.6	0.00e+00	0	43	0	473956352	59	5099
2026-01-26 09:24:44.80	106.85	38.79	-44.6	-47.7	15.9	0.00e+00	0	43	0	476053504	59	5550
2026-01-26 09:24:45.79	106.53	38.97	-44.6	-47.7	15.8	0.00e+00	0	43	0	478150656	60	5275
2026-01-26 09:24:46.79	106.20	39.14	-44.8	-48.0	15.5	0.00e+00	0	43	0	479199232	60	5462
2026-01-26 09:24:47.78	105.87	39.32	-44.5	-47.7	15.8	0.00e+00	0	43	0	481296384	60	5227
2026-01-26 09:24:48.78	105.53	39.49	-44.7	-47.9	15.6	0.00e+00	0	43	0	483393536	60	5392
2026-01-26 09:24:49.77	105.19	39.67	-44.9	-48.2	15.3	0.00e+00	0	43	0	485490688	60	5536
2026-01-26 09:24:50.77	104.85	39.84	-44.7	-47.9	15.6	0.00e+00	0	43	0	487587840	61	5080
2026-01-26 09:24:51.76	104.50	40.01	-44.1	-47.0	16.5	0.00e+00	0	43	0	488636416	60	4832
2026-01-26 09:24:52.76	104.15	40.19	-44.0	-46.9	16.6	0.00e+00	0	43	0	490733568	60	4782
2026-01-26 09:24:53.75	103.80	40.36	-43.5	-46.2	17.3	0.00e+00	0	43	0	492830720	58	4932
2026-01-26 09:24:54.74	103.44	40.53	-43.5	-46.2	17.2	0.00e+00	0	43	0	494927872	58	4960
2026-01-26 09:24:55.74	103.07	40.70	-44.0	-46.9	16.5	0.00e+00	0	43	0	495976448	58	5369
2026-01-26 09:24:56.74	102.71	40.88	-44.8	-48.1	15.5	0.00e+00	0	43	0	498073600	60	5471
2026-01-26 09:24:57.73	102.34	41.05	-45.1	-48.4	15.1	0.00e+00	0	43	0	500170752	60	5713
2026-01-26 09:24:58.72	101.97	41.22	-44.1	-47.0	16.5	0.00e+00	0	43	0	502267904	60	4829
2026-01-26 09:24:59.72	101.59	41.39	-43.4	-46.1	17.2	0.00e+00	0	43	0	504365056	59	4613
2026-01-26 09:25:00.71	101.21	41.56	-43.2	-45.8	17.7	0.00e+00	0	43	0	505413632	58	4709
2026-01-26 09:25:01.70	100.82	41.72	-43.4	-45.9	17.4	0.00e+00	0	43	0	507510784	58	4808
2026-01-26 09:25:02.70	100.43	41.89	-43.7	-46.4	17.0	0.00e+00	0	43	0	509607936	58	5100
2026-01-26 09:25:03.70	100.03	42.06	-44.1	-47.0	16.5	0.00e+00	0	43	0	511705088	58	5410
2026-01-26 09:25:04.69	99.64	42.22	-44.0	-46.8	16.6	0.00e+00	0	43	0	512753664	58	5327
2026-01-26 09:25:05.69	99.23	42.39	-44.1	-47.1	16.3	0.00e+00	0	43	0	514850816	59	5181
2026-01-26 09:25:06.68	98.83	42.55	-44.6	-47.8	15.7	0.00e+00	0	43	0	516947968	59	5641
2026-01-26 09:25:07.67	98.42	42.72	-45.0	-48.6	15.0	0.00e+00	0	43	0	519045120	60	5817
2026-01-26 09:25:08.67	98.00	42.88	-44.8	-48.3	15.3	0.00e+00	0	43	0	521142272	60	5607
2026-01-26 09:25:09.66	97.58	43.04	-44.1	-47.1	16.3	0.00e+00	0	43	0	522190848	60	4926
2026-01-26 09:25:10.66	97.16	43.20	-43.7	-46.5	17.0	0.00e+00	0	43	0	524288000	59	4816
2026-01-26 09:25:11.65	96.73	43.36	-42.9	-45.7	17.5	0.00e+00	0	43	0	526385152	57	4945
2026-01-26 09:25:12.65	96.30	43.52	-42.0	-44.4	18.7	0.00e+00	0	43	0	528482304	56	4543
2026-01-26 09:25:13.64	95.86	43.68	-41.1	-43.3	19.6	0.00e+00	0	43	0	529530880	54	4474
2026-01-26 09:25:14.64	95.42	43.83	-41.2	-43.5	19.5	0.00e+00	0	43	0	531628032	53	4827
2026-01-26 09:25:15.63	94.98	43.99	-41.9	-44.3	18.8	0.00e+00	0	43	0	533725184	54	5025
2026-01-26 09:25:16.63	94.53	44.14	-42.9	-45.7	17.6	0.00e+00	0	43	0	535822336	56	5256
2026-01-26 09:25:17.62	94.08	44.29	-43.5	-46.5	16.7	0.00e+00	0	43	0	537919488	57	5449
2026-01-26 09:25:18.62	93.62	44.44	-43.6	-46.9	16.3	0.00e+00	0	43	0	538968064	58	5345
2026-01-26 09:25:19.61	93.16	44.59	-43.0	-46.0	17.2	0.00e+00	0	43	0	541065216	58	4817
2026-01-26 09:25:20.61	92.69	44.74	-43.1	-46.1	17.1	0.00e+00	0	43	0	543162368	58	4900
2026-01-26 09:25:21.60	92.22	44.88	-42.9	-45.8	17.5	0.00e+00	0	43	0	545259520	57	4988
2026-01-26 09:25:22.59	91.75	45.03	-42.8	-45.7	17.6	0.00e+00	0	43	0	546308096	57	4931
2026-01-26 09:25:23.59	91.26	45.17	-42.4	-45.1	18.1	0.00e+00	0	43	0	548405248	56	4911
2026-01-26 09:25:24.58	90.78	45.31	-42.3	-44.9	18.2	0.00e+00	0	43	0	550502400	56	4787
2026-01-26 09:25:25.58	90.29	45.45	-42.5	-45.2	18.0	0.00e+00	0	43	0	552599552	56	4952
2026-01-26 09:25:26.57	89.80	45.58	-42.5	-45.3	17.9	0.00e+00	0	43	0	554696704	56	4986
2026-01-26 09:25:27.57	89.30	45.72	-42.6	-45.3	17.9	0.00e+00	0	43	0	555745280	56	5033
2026-01-26 09:25:28.56	88.80	45.85	-42.0	-44.5	18.5	0.00e+00	0	43	0	557842432	55	4841
2026-01-26 09:25:29.56	88.30	45.98	-42.1	-44.7	18.3	0.00e+00	0	43	0	559939584	55	4940
2026-01-26 09:25:30.55	87.79	46.11	-42.4	-45.1	17.9	0.00e+00	0	43	0	562036736	55	5210
2026-01-26 09:25:31.54	87.28	46.24	-42.2	-44.9	18.1	0.00e+00	0	43	0	563085312	55	5050
2026-01-26 09:25:32.54	86.76	46.36	-43.0	-45.9	17.3	0.00e+00	0	43	0	565182464	56	5372
2026-01-26 09:25:33.53	86.24	46.49	-44.3	-47.9	15.4	0.00e+00	0	43	0	567279616	59	5681
2026-01-26 09:25:34.53	85.71	46.61	-44.7	-48.7	14.6	0.00e+00	0	43	0	569376768	60	5904
2026-01-26 09:25:35.52	85.19	46.72	-44.7	-48.7	14.8	7.00e-07	0	43	0	571473920	60	5892
2026-01-26 09:25:36.52	84.65	46.84	-45.1	-49.4	13.8	1.50e-06	0	43	0	572522496	60	6409
2026-01-26 09:25:37.51	84.11	46.95	-45.7	-50.7	12.6	2.67e-05	0	43	0	574619648	62	6622
2026-01-26 09:25:38.51	83.57	47.06	-45.9	-51.2	12.1	1.68e-04	0	43	0	576716800	63	6597
2026-01-26 09:25:39.50	83.03	47.17	-45.7	-50.6	12.8	1.91e-04	0	43	0	578813952	63	6164
2026-01-26 09:25:40.50	82.48	47.28	-45.7	-50.6	12.7	9.61e-05	0	43	0	579862528	63	6183
2026-01-26 09:25:41.49	81.93	47.38	-45.0	-49.2	14.1	3.80e-06	0	43	0	581959680	61	5907
2026-01-26 09:25:42.49	81.37	47.48	-44.7	-48.8	14.4	5.30e-06	0	43	0	584056832	61	5616
2026-01-26 09:25:43.48	80.81	47.58	-45.1	-49.5	14.1	1.50e-06	0	43	0	586153984	61	6096
2026-01-26 09:25:44.48	80.25	47.67	-44.9	-49.1	14.2	9.90e-06	0	43	0	588251136	61	5839
2026-01-26 09:25:45.48	79.68	47.76	-44.4	-48.0	15.4	0.00e+00	0	43	0	589299712	60	5455
2026-01-26 09:25:46.47	79.11	47.85	-44.1	-47.5	15.8	0.00e+00	0	43	0	591396864	59	5434
2026-01-26 09:25:47.46	78.54	47.94	-44.2	-47.6	15.7	0.00e+00	0	43	0	593494016	59	5484
2026-01-26 09:25:48.46	77.96	48.02	-43.9	-47.2	16.1	0.00e+00	0	43	0	595591168	59	5236
2026-01-26 09:25:49.45	77.38	48.10	-43.9	-47.2	16.2	0.00e+00	0	43	0	597688320	59	5219
2026-01-26 09:25:50.45	76.80	48.18	-43.9	-47.2	16.1	0.00e+00	0	43	0	598736896	59	5269
2026-01-26 09:25:51.44	76.22	48.25	-43.7	-47.0	16.3	0.00e+00	0	43	0	600834048	59	5105
2026-01-26 09:25:52.44	75.63	48.32	-43.8	-47.1	16.2	0.00e+00	0	43	0	602931200	59	5166
2026-01-26 09:25:53.43	75.04	48.39	-43.2	-46.2	17.0	0.00e+00	0	43	0	605028352	58	4953
2026-01-26 09:25:54.43	74.44	48.45	-42.9	-45.8	17.4	0.00e+00	0	43	0	606076928	57	5012
2026-01-26 09:25:55.42	73.85	48.51	-42.9	-45.8	17.5	0.00e+00	0	43	0	608174080	57	4997
2026-01-26 09:25:56.42	73.25	48.57	-43.6	-46.9	16.4	0.00e+00	0	43	0	610271232	57	5658
2026-01-26 09:25:57.41	72.65	48.62	-43.7	-47.0	16.2	0.00e+00	0	43	0	612368384	58	5439
2026-01-26 09:25:58.41	72.05	48.68	-43.0	-46.1	17.2	0.00e+00	0	43	0	614465536	58	4872
2026-01-26 09:25:59.40	71.45	48.72	-42.5	-45.3	17.8	0.00e+00	0	43	0	615514112	56	5035
2026-01-26 09:26:00.40	70.84	48.77	-41.9	-44.6	18.3	0.00e+00	0	43	0	617611264	55	4880
2026-01-26 09:26:01.40	70.23	48.81	-41.3	-43.8	19.1	0.00e+00	0	43	0	619708416	54	4731
2026-01-26 09:26:02.39	69.62	48.85	-40.9	-43.3	19.5	0.00e+00	0	43	0	621805568	53	4746
2026-01-26 09:26:03.38	69.02	48.88	-41.0	-43.4	19.3	0.00e+00	0	43	0	622854144	53	4799
2026-01-26 09:26:04.38	68.40	48.91	-41.6	-44.2	18.7	0.00e+00	0	43	0	624951296	53	5239
2026-01-26 09:26:05.38	67.79	48.94	-42.5	-45.5	17.5	0.00e+00	0	43	0	627048448	55	5408
2026-01-26 09:26:06.37	67.18	48.96	-43.0	-46.1	17.1	0.00e+00	0	43	0	629145600	56	5501
2026-01-26 09:26:07.37	66.56	48.98	-43.2	-46.5	16.6	0.00e+00	0	43	0	631242752	57	5442
2026-01-26 09:26:08.36	65.95	49.00	-43.7	-47.3	15.9	0.00e+00	0	43	0	632291328	58	5619
2026-01-26 09:26:09.36	65.33	49.01	-43.5	-47.0	16.0	0.00e+00	0	43	0	634388480	58	5449
2026-01-26 09:26:10.35	64.72	49.02	-42.9	-46.0	17.1	0.00e+00	0	43	0	636485632	57	5114
2026-01-26 09:26:11.35	64.10	49.02	-42.5	-45.5	17.5	0.00e+00	0	43	0	638582784	57	4856
2026-01-26 09:26:12.34	63.48	49.03	-43.3	-46.7	16.3	0.00e+00	0	43	0	639631360	57	5553
2026-01-26 09:26:13.33	62.87	49.03	-43.7	-47.3	15.7	0.00e+00	0	43	0	641728512	58	5654
2026-01-26 09:26:14.33	62.25	49.02	-43.3	-46.6	16.5	0.00e+00	0	43	0	643825664	58	5176
2026-01-26 09:26:15.33	61.63	49.01	-42.7	-45.7	17.3	0.00e+00	0	43	0	645922816	57	4973
2026-01-26 09:26:16.32	61.02	49.00	-42.5	-45.3	17.8	0.00e+00	0	43	0	648019968	56	5020
2026-01-26 09:26:17.31	60.41	48.98	-41.6	-44.2	18.6	0.00e+00	0	43	0	649068544	55	4687
2026-01-26 09:26:18.31	59.79	48.96	-41.6	-44.1	18.7	0.00e+00	0	43	0	651165696	54	4923
2026-01-26 09:26:19.30	59.18	48.94	-41.6	-44.3	18.6	0.00e+00	0	43	0	653262848	54	4984
2026-01-26 09:26:20.30	58.56	48.92	-41.3	-43.8	19.0	0.00e+00	0	43	0	655360000	54	4728
2026-01-26 09:26:21.30	57.95	48.89	-41.2	-43.6	19.2	0.00e+00	0	43	0	656408576	54	4647
2026-01-26 09:26:22.29	57.34	48.85	-41.8	-44.4	18.4	0.00e+00	0	43	0	658505728	54	5088
2026-01-26 09:26:23.28	56.74	48.82	-42.4	-45.4	17.6	0.00e+00	0	44	0	660602880	55	5343
2026-01-26 09:26:24.28	56.13	48.78	-42.5	-45.4	17.7	0.00e+00	0	43	0	662700032	56	5064
2026-01-26 09:26:25.28	55.52	48.73	-42.7	-45.7	17.5	0.00e+00	0	43	0	664797184	56	5238
2026-01-26 09:26:26.27	54.92	48.69	-43.2	-46.5	16.8	0.00e+00	0	43	0	665845760	57	5405
2026-01-26 09:26:27.27	54.31	48.63	-43.7	-47.2	16.0	0.00e+00	0	43	0	667942912	58	5561
2026-01-26 09:26:28.27	53.71	48.58	-43.4	-46.7	16.6	0.00e+00	0	43	0	670040064	58	5225
2026-01-26 09:26:29.26	53.12	48.52	-42.6	-45.5	17.7	0.00e+00	0	43	0	672137216	56	5155
2026-01-26 09:26:30.26	52.52	48.46	-42.9	-45.9	17.3	0.00e+00	0	43	0	673185792	56	5401
2026-01-26 09:26:31.25	51.93	48.40	-43.5	-46.9	16.4	0.00e+00	0	43	0	675282944	57	5667
2026-01-26 09:26:32.25	51.34	48.33	-43.7	-47.1	16.1	0.00e+00	0	43	0	677380096	59	5173
2026-01-26 09:26:33.24	50.75	48.26	-43.7	-47.0	16.2	0.00e+00	0	43	0	679477248	59	5138
2026-01-26 09:26:34.23	50.17	48.19	-43.5	-46.6	16.4	0.00e+00	0	43	0	681574400	59	4900
2026-01-26 09:26:35.23	49.59	48.11	-43.5	-46.6	16.7	0.00e+00	0	43	0	682622976	58	5181
2026-01-26 09:26:36.22	49.01	48.04	-43.5	-46.6	16.7	0.00e+00	0	43	0	684720128	58	5175
2026-01-26 09:26:37.22	48.43	47.95	-43.1	-46.1	17.2	0.00e+00	0	44	0	686817280	57	5173
2026-01-26 09:26:38.21	47.86	47.87	-43.0	-46.0	17.3	0.00e+00	0	43	0	688914432	57	5104
2026-01-26 09:26:39.21	47.29	47.78	-43.5	-46.6	16.6	0.00e+00	0	43	0	689963008	57	5528
2026-01-26 09:26:40.20	46.73	47.69	-44.2	-47.7	15.7	0.00e+00	0	43	0	692060160	59	5571
2026-01-26 09:26:41.20	46.16	47.60	-44.6	-48.2	15.2	0.00e+00	0	43	0	694157312	59	5881
2026-01-26 09:26:42.19	45.60	47.50	-43.9	-47.0	16.0	0.00e+00	0	43	0	696254464	59	5142
2026-01-26 09:26:43.19	45.04	47.40	-43.7	-46.9	16.5	0.00e+00	0	43	0	698351616	59	5060
2026-01-26 09:26:44.18	44.49	47.30	-43.2	-46.0	17.2	0.00e+00	0	43	0	699400192	58	4850
2026-01-26 09:26:45.18	43.94	47.19	-43.4	-46.4	16.9	0.00e+00	0	43	0	701497344	58	5086
2026-01-26 09:26:46.17	43.40	47.09	-43.6	-46.7	16.5	0.00e+00	0	43	0	703594496	58	5277
2026-01-26 09:26:47.17	42.86	46.98	-43.7	-46.9	16.5	0.00e+00	0	44	0	705691648	58	5365
2026-01-26 09:26:48.16	42.32	46.86	-43.5	-46.6	16.6	0.00e+00	0	43	0	706740224	58	5213
2026-01-26 09:26:49.16	41.79	46.75	-43.7	-47.1	16.3	0.00e+00	0	43	0	708837376	58	5465
2026-01-26 09:26:50.15	41.26	46.63	-44.2	-47.7	15.8	0.00e+00	0	43	0	710934528	58	5885
2026-01-26 09:26:51.15	40.73	46.51	-44.3	-47.9	15.6	0.00e+00	0	43	0	713031680	59	5657
2026-01-26 09:26:52.14	40.21	46.39	-44.2	-47.7	15.7	0.00e+00	0	43	0	715128832	59	5547
2026-01-26 09:26:53.14	39.69	46.27	-44.1	-47.6	15.8	0.00e+00	0	43	0	716177408	59	5496
2026-01-26 09:26:54.14	39.18	46.14	-43.8	-47.1	16.2	0.00e+00	0	43	0	718274560	59	5167
2026-01-26 09:26:55.13	38.67	46.01	-43.9	-47.3	15.9	0.00e+00	0	43	0	720371712	59	5322
2026-01-26 09:26:56.13	38.16	45.88	-43.9	-47.3	16.0	0.00e+00	0	43	0	722468864	59	5300
2026-01-26 09:26:57.12	37.67	45.75	-43.4	-46.5	16.8	0.00e+00	0	43	0	723517440	58	5140
2026-01-26 09:26:58.11	37.17	45.62	-42.9	-45.8	17.6	0.00e+00	0	43	0	725614592	57	5003
2026-01-26 09:26:59.11	36.68	45.48	-42.9	-45.8	17.5	0.00e+00	0	43	0	727711744	57	5008
2026-01-26 09:27:00.11	36.19	45.34	-43.2	-46.2	17.1	0.00e+00	0	43	0	729808896	57	5239
2026-01-26 09:27:01.10	35.71	45.20	-43.0	-45.9	17.4	0.00e+00	0	43	0	731906048	57	5100
2026-01-26 09:27:02.10	35.23	45.06	-42.8	-45.6	17.7	0.00e+00	0	43	0	732954624	57	4895
2026-01-26 09:27:03.09	34.75	44.92	-42.9	-45.8	17.5	0.00e+00	0	43	0	735051776	57	5014
2026-01-26 09:27:04.09	34.28	44.77	-43.5	-46.6	16.7	0.00e+00	0	43	0	737148928	57	5502
2026-01-26 09:27:05.08	33.82	44.63	-44.3	-47.8	15.5	0.00e+00	0	43	0	739246080	59	5650
2026-01-26 09:27:06.08	33.35	44.48	-44.0	-47.2	16.1	0.00e+00	0	43	0	740294656	59	5219
2026-01-26 09:27:07.07	32.90	44.33	-43.1	-45.9	17.4	0.00e+00	0	43	0	742391808	58	4760
2026-01-26 09:27:08.06	32.45	44.18	-43.0	-45.8	17.6	0.00e+00	0	43	0	744488960	57	4989
2026-01-26 09:27:09.06	32.00	44.03	-43.9	-47.2	16.3	0.00e+00	0	43	0	746586112	58	5536
2026-01-26 09:27:10.06	31.55	43.87	-44.3	-47.8	15.7	0.00e+00	0	43	0	748683264	59	5605
2026-01-26 09:27:11.05	31.11	43.72	-44.2	-47.6	15.9	0.00e+00	0	43	0	749731840	59	5491
2026-01-26 09:27:12.05	30.67	43.56	-43.2	-46.0	17.4	0.00e+00	0	43	0	751828992	58	4848
2026-01-26 09:27:13.04	30.24	43.40	-42.9	-45.5	17.8	0.00e+00	0	43	0	753926144	57	4857
2026-01-26 09:27:14.03	29.82	43.25	-42.7	-45.3	18.1	0.00e+00	0	43	0	756023296	57	4720
2026-01-26 09:27:15.03	29.39	43.09	-42.9	-45.7	17.7	0.00e+00	0	43	0	757071872	57	4933
2026-01-26 09:27:16.02	28.98	42.93	-42.2	-44.7	18.6	0.00e+00	0	43	0	759169024	56	4657
2026-01-26 09:27:17.02	28.56	42.76	-41.8	-44.2	18.9	0.00e+00	0	43	0	761266176	55	4677
2026-01-26 09:27:18.01	28.15	42.60	-41.6	-44.0	19.0	0.00e+00	0	43	0	763363328	55	4564
2026-01-26 09:27:19.01	27.74	42.44	-41.8	-44.3	18.7	0.00e+00	0	43	0	765460480	55	4736
2026-01-26 09:27:20.00	27.34	42.27	-41.6	-44.1	18.9	0.00e+00	0	43	0	766509056	55	4614
2026-01-26 09:27:21.00	26.94	42.11	-41.8	-44.3	18.7	0.00e+00	0	43	0	768606208	55	4753
2026-01-26 09:27:21.99	26.55	41.94	-41.7	-44.3	18.8	0.00e+00	0	44	0	770703360	55	4707
2026-01-26 09:27:22.99	26.16	41.77	-42.5	-45.2	17.9	0.00e+00	0	43	0	772800512	55	5266
2026-01-26 09:27:23.98	25.77	41.61	-42.9	-45.6	17.7	0.00e+00	0	43	0	773849088	56	5200
2026-01-26 09:27:24.97	25.39	41.44	-43.5	-46.5	16.8	0.00e+00	0	43	0	775946240	57	5423
2026-01-26 09:27:25.97	25.02	41.27	-44.0	-47.2	16.3	0.00e+00	0	44	0	778043392	58	5552
2026-01-26 09:27:26.96	24.64	41.10	-44.8	-48.5	15.0	0.00e+00	0	43	0	780140544	60	5777
2026-01-26 09:27:27.96	24.27	40.93	-45.1	-49.0	14.4	0.00e+00	0	43	0	782237696	61	5754
2026-01-26 09:27:28.96	23.90	40.76	-45.4	-49.6	13.9	4.50e-06	0	43	0	783286272	61	6167
2026-01-26 09:27:29.95	23.54	40.59	-45.1	-49.1	14.4	3.00e-06	0	43	0	785383424	61	5839
2026-01-26 09:27:30.95	23.18	40.42	-44.7	-48.3	15.1	0.00e+00	0	43	0	787480576	61	5315
2026-01-26 09:27:31.95	22.83	40.24	-44.3	-47.6	15.9	0.00e+00	0	43	0	789577728	60	5172
2026-01-26 09:27:32.94	22.48	40.07	-43.9	-47.1	16.6	0.00e+00	0	43	0	790626304	59	5182
2026-01-26 09:27:33.93	22.13	39.90	-43.8	-46.8	16.6	0.00e+00	0	43	0	792723456	59	5039
2026-01-26 09:27:34.93	21.79	39.73	-43.8	-46.9	16.6	0.00e+00	0	43	0	794820608	59	5050
2026-01-26 09:27:35.92	21.45	39.55	-43.8	-46.9	16.5	0.00e+00	0	43	0	796917760	59	5053
2026-01-26 09:27:36.92	21.11	39.38	-44.1	-47.4	16.1	0.00e+00	0	43	0	799014912	59	5388
2026-01-26 09:27:37.92	20.78	39.20	-44.4	-47.9	15.6	0.00e+00	0	43	0	800063488	59	5682
2026-01-26 09:27:38.91	20.45	39.03	-44.7	-48.4	15.1	0.00e+00	0	43	0	802160640	60	5717
2026-01-26 09:27:39.91	20.13	38.86	-44.5	-48.1	15.4	0.00e+00	0	43	0	804257792	60	5510
2026-01-26 09:27:40.90	19.81	38.68	-44.4	-47.8	15.9	0.00e+00	0	43	0	806354944	60	5331
2026-01-26 09:27:41.89	19.49	38.51	-44.2	-47.5	15.9	0.00e+00	0	43	0	807403520	59	5439
2026-01-26 09:27:42.89	19.17	38.33	-44.1	-47.3	16.1	0.00e+00	0	43	0	809500672	59	5330
2026-01-26 09:27:43.88	18.86	38.16	-44.4	-47.7	15.7	0.00e+00	0	43	0	811597824	59	5574
2026-01-26 09:27:44.88	18.55	37.98	-45.0	-48.9	14.6	0.00e+00	0	43	0	813694976	60	6030
2026-01-26 09:27:45.87	18.25	37.81	-45.6	-50.2	13.2	1.50e-06	0	43	0	815792128	61	6612
2026-01-26 09:27:46.87	17.95	37.63	-45.7	-50.5	12.9	2.59e-05	0	43	0	816840704	62	6462
2026-01-26 09:27:47.86	17.65	37.46	-45.5	-50.0	13.4	4.19e-05	0	43	0	818937856	62	6130
2026-01-26 09:27:48.86	17.36	37.28	-45.5	-49.9	14.1	2.20e-06	0	43	0	821035008	62	6048
2026-01-26 09:27:49.85	17.07	37.11	-45.5	-49.9	13.6	7.60e-06	0	43	0	823132160	62	6003
2026-01-26 09:27:50.84	16.78	36.94	-46.2	-51.3	12.3	5.64e-05	0	43	0	824180736	63	6667
2026-01-26 09:27:51.84	16.49	36.76	-46.6	-52.2	11.1	2.78e-04	0	43	0	826277888	64	7028
2026-01-26 09:27:52.83	16.21	36.59	-46.1	-50.7	12.8	1.19e-04	0	43	0	828375040	63	6250
2026-01-26 09:27:53.83	15.93	36.41	-45.3	-49.2	14.3	8.30e-06	0	43	0	830472192	62	5553
2026-01-26 09:27:54.82	15.66	36.24	-44.6	-47.9	15.6	0.00e+00	0	44	0	832569344	61	5077
2026-01-26 09:27:55.82	15.38	36.06	-43.9	-46.8	16.7	0.00e+00	0	43	0	833617920	59	5008
2026-01-26 09:27:56.81	15.11	35.89	-43.1	-45.8	17.5	0.00e+00	0	43	0	835715072	58	4714
2026-01-26 09:27:57.80	14.85	35.72	-43.2	-45.9	17.6	0.00e+00	0	43	0	837812224	58	4775
2026-01-26 09:27:58.80	14.58	35.55	-43.1	-45.8	17.7	0.00e+00	0	43	0	839909376	57	5009
2026-01-26 09:27:59.80	14.32	35.37	-43.5	-46.3	17.2	0.00e+00	0	43	0	842006528	57	5324
2026-01-26 09:28:00.79	14.06	35.20	-43.9	-46.8	16.6	0.00e+00	0	43	0	843055104	58	5307
2026-01-26 09:28:01.78	13.80	35.03	-44.0	-47.1	16.5	0.00e+00	0	43	0	845152256	58	5467
2026-01-26 09:28:02.78	13.55	34.86	-44.2	-47.3	16.2	0.00e+00	0	43	0	847249408	59	5314
2026-01-26 09:28:03.77	13.30	34.68	-44.9	-48.3	15.3	0.00e+00	0	43	0	849346560	60	5614
2026-01-26 09:28:04.77	13.05	34.51	-44.9	-48.3	15.2	0.00e+00	0	43	0	850395136	60	5623
2026-01-26 09:28:05.76	12.81	34.34	-45.4	-49.1	14.5	0.00e+00	0	43	0	852492288	61	5843
2026-01-26 09:28:06.76	12.56	34.17	-45.5	-49.4	14.2	2.20e-06	0	43	0	854589440	61	6037
2026-01-26 09:28:07.76	12.32	34.00	-46.0	-50.3	13.3	7.60e-06	0	43	0	856686592	62	6314
2026-01-26 09:28:08.75	12.08	33.83	-45.7	-49.8	13.8	1.37e-05	0	43	0	858783744	63	5648
2026-01-26 09:28:09.75	11.85	33.66	-45.4	-49.5	14.1	0.00e+00	0	43	0	859832320	62	5749
2026-01-26 09:28:10.74	11.61	33.49	-45.0	-48.8	14.8	0.00e+00	0	43	0	861929472	62	5280
2026-01-26 09:28:11.74	11.38	33.32	-45.1	-49.0	14.6	7.00e-07	0	43	0	864026624	61	5740
2026-01-26 09:28:12.73	11.16	33.15	-44.8	-48.4	15.0	7.00e-07	0	43	0	866123776	61	5398
2026-01-26 09:28:13.73	10.93	32.98	-44.1	-47.3	16.4	0.00e+00	0	43	0	867172352	60	5020
2026-01-26 09:28:14.72	10.71	32.82	-43.5	-46.3	17.2	0.00e+00	0	43	0	869269504	59	4740
2026-01-26 09:28:15.72	10.49	32.65	-43.3	-46.1	17.3	0.00e+00	0	43	0	871366656	58	4904
2026-01-26 09:28:16.71	10.27	32.48	-43.5	-46.4	17.1	0.00e+00	0	43	0	873463808	58	5054
2026-01-26 09:28:17.71	10.05	32.32	-43.9	-46.8	16.7	0.00e+00	0	43	0	875560960	58	5314
2026-01-26 09:28:18.70	9.84	32.15	-44.7	-48.2	15.5	0.00e+00	0	43	0	876609536	60	5537
2026-01-26 09:28:19.70	9.62	31.99	-45.6	-49.6	14.2	0.00e+00	0	43	0	878706688	61	6134
2026-01-26 09:28:20.69	9.42	31.82	-45.9	-50.0	13.3	2.20e-06	0	43	0	880803840	62	6129
2026-01-26 09:28:21.69	9.21	31.66	-45.6	-49.6	14.0	3.80e-06	0	43	0	882900992	62	5819
2026-01-26 09:28:22.68	9.00	31.49	-44.9	-48.3	15.3	0.00e+00	0	43	0	883949568	61	5294
2026-01-26 09:28:23.67	8.80	31.33	-43.7	-46.6	16.8	0.00e+00	0	43	0	886046720	59	4896
2026-01-26 09:28:24.67	8.60	31.17	-43.2	-45.8	17.6	0.00e+00	0	43	0	888143872	58	4726
2026-01-26 09:28:25.66	8.40	31.00	-42.7	-45.2	18.3	0.00e+00	0	43	0	890241024	57	4657
2026-01-26 09:28:26.66	8.20	30.84	-43.2	-45.9	17.6	0.00e+00	0	44	0	892338176	57	5068
2026-01-26 09:28:27.65	8.01	30.68	-43.2	-45.9	17.6	0.00e+00	0	43	0	893386752	57	5048
2026-01-26 09:28:28.64	7.81	30.52	-43.8	-46.8	16.8	0.00e+00	0	43	0	895483904	58	5295
2026-01-26 09:28:29.64	7.62	30.36	-44.3	-47.6	16.0	0.00e+00	0	43	0	897581056	59	5492
2026-01-26 09:28:30.63	7.43	30.20	-45.1	-48.9	14.8	0.00e+00	0	43	0	899678208	60	6016
2026-01-26 09:28:31.63	7.25	30.04	-45.0	-48.8	14.8	1.50e-06	0	43	0	900726784	61	5651
2026-01-26 09:28:32.62	7.06	29.88	-45.3	-49.2	14.5	0.00e+00	0	43	0	902823936	61	5881
2026-01-26 09:28:33.62	6.88	29.72	-45.0	-48.7	14.9	0.00e+00	0	43	0	904921088	61	5558
2026-01-26 09:28:34.61	6.70	29.57	-44.6	-48.0	15.6	0.00e+00	0	43	0	907018240	60	5415
2026-01-26 09:28:35.61	6.51	29.41	-44.1	-47.3	16.3	0.00e+00	0	43	0	909115392	60	4999
2026-01-26 09:28:36.60	6.34	29.25	-44.1	-47.2	16.3	0.00e+00	0	43	0	910163968	60	4973
2026-01-26 09:28:37.60	6.16	29.10	-44.4	-47.7	15.8	0.00e+00	0	43	0	912261120	60	5268
2026-01-26 09:28:38.59	5.98	28.94	-44.3	-47.5	16.1	0.00e+00	0	43	0	914358272	60	5102
2026-01-26 09:28:39.58	5.81	28.79	-44.3	-47.5	16.1	0.00e+00	0	43	0	916455424	60	5118
2026-01-26 09:28:40.58	5.64	28.63	-44.1	-47.2	16.3	0.00e+00	0	43	0	917504000	59	5250
2026-01-26 09:28:41.58	5.47	28.48	-43.8	-46.8	16.7	0.00e+00	0	43	0	919601152	59	4997
2026-01-26 09:28:42.57	5.30	28.33	-43.3	-46.0	17.4	0.00e+00	0	43	0	921698304	58	4857
2026-01-26 09:28:43.57	5.13	28.17	-43.2	-46.0	17.5	0.00e+00	0	43	0	923795456	58	4832
2026-01-26 09:28:44.56	4.97	28.02	-43.3	-46.1	17.4	0.00e+00	0	44	0	925892608	58	4887
2026-01-26 09:28:45.55	4.81	27.87	-43.3	-46.1	17.4	0.00e+00	0	43	0	926941184	58	4911
2026-01-26 09:28:46.55	4.65	27.72	-43.3	-46.1	17.4	0.00e+00	0	43	0	929038336	58	4889
2026-01-26 09:28:47.54	4.49	27.57	-43.5	-46.3	17.3	0.00e+00	0	43	0	931135488	58	4999
2026-01-26 09:28:48.54	4.33	27.42	-43.3	-46.1	17.4	0.00e+00	0	43	0	933232640	58	4871
2026-01-26 09:28:49.53	4.17	27.27	-43.3	-46.1	17.4	0.00e+00	0	43	0	934281216	58	4898
2026-01-26 09:28:50.52	4.02	27.12	-43.9	-46.8	16.7	0.00e+00	0	43	0	936378368	58	5337
2026-01-26 09:28:51.52	3.86	26.98	-44.2	-47.4	16.2	0.00e+00	0	43	0	938475520	59	5364
2026-01-26 09:28:52.51	3.71	26.83	-44.8	-48.3	15.4	0.00e+00	0	43	0	940572672	60	5598
2026-01-26 09:28:53.51	3.56	26.68	-45.1	-48.8	14.8	0.00e+00	0	43	0	942669824	60	5988
2026-01-26 09:28:54.51	3.41	26.53	-45.6	-49.7	13.9	2.20e-06	0	43	0	943718400	61	6244
2026-01-26 09:28:55.50	3.26	26.39	-45.5	-49.4	14.1	3.80e-06	0	43	0	945815552	62	5699
2026-01-26 09:28:56.50	3.11	26.24	-45.4	-49.2	14.4	7.00e-07	0	43	0	947912704	62	5567
2026-01-26 09:28:57.49	2.96	26.10	-45.0	-48.6	15.1	7.00e-07	0	43	0	950009856	62	5169
2026-01-26 09:28:58.49	2.82	25.95	-44.7	-48.1	15.6	7.00e-07	0	43	0	951058432	61	5166
2026-01-26 09:28:59.48	2.68	25.81	-44.5	-47.8	15.8	0.00e+00	0	43	0	953155584	61	5034
2026-01-26 09:29:00.48	2.53	25.67	-44.5	-47.8	15.7	0.00e+00	0	43	0	955252736	60	5335
2026-01-26 09:29:01.47	2.39	25.53	-44.5	-47.9	15.7	0.00e+00	0	43	0	957349888	60	5348
2026-01-26 09:29:02.47	2.25	25.38	-44.1	-47.3	16.3	0.00e+00	0	43	0	959447040	60	5000
2026-01-26 09:29:03.46	2.12	25.24	-43.7	-46.7	16.7	0.00e+00	0	44	0	960495616	59	4969
2026-01-26 09:29:04.46	1.98	25.10	-43.4	-46.3	17.2	0.00e+00	0	43	0	962592768	58	4997
2026-01-26 09:29:05.45	1.85	24.96	-43.3	-46.1	17.4	0.00e+00	0	44	0	964689920	58	4894
2026-01-26 09:29:06.45	1.71	24.82	-43.3	-46.0	17.4	0.00e+00	0	43	0	966787072	58	4863
2026-01-26 09:29:07.44	1.58	24.69	-43.3	-46.1	17.4	0.00e+00	0	43	0	967835648	58	4907
2026-01-26 09:29:08.44	1.45	24.55	-43.2	-46.0	17.4	0.00e+00	0	43	0	969932800	58	4845
2026-01-26 09:29:09.43	1.32	24.41	-43.5	-46.4	17.1	0.00e+00	0	43	0	972029952	58	5070
2026-01-26 09:29:10.43	1.19	24.27	-43.8	-46.8	16.7	0.00e+00	0	43	0	974127104	58	5319
2026-01-26 09:29:11.42	1.06	24.14	-43.9	-47.1	16.4	0.00e+00	0	43	0	976224256	58	5472
2026-01-26 09:29:12.42	0.93	24.00	-44.2	-47.4	16.0	0.00e+00	0	43	0	977272832	59	5399
2026-01-26 09:29:13.41	0.80	23.86	-43.9	-46.9	16.6	0.00e+00	0	43	0	979369984	59	5058
2026-01-26 09:29:14.41	0.68	23.73	-43.8	-46.8	16.7	0.00e+00	0	43	0	981467136	59	5009
2026-01-26 09:29:15.40	0.56	23.59	-43.6	-46.5	16.9	0.00e+00	0	43	0	983564288	59	4823
2026-01-26 09:29:16.40	0.43	23.46	-43.6	-46.5	17.0	0.00e+00	0	44	0	984612864	59	4843
2026-01-26 09:29:17.40	0.31	23.33	-43.4	-46.2	17.2	0.00e+00	0	43	0	986710016	58	4967
2026-01-26 09:29:18.39	0.19	23.19	-43.4	-46.2	17.2	0.00e+00	0	43	0	988807168	58	4978
2026-01-26 09:29:19.38	0.07	23.06	-43.1	-45.9	17.6	0.00e+00	0	43	0	990904320	58	4768
2026-01-26 09:29:20.38	359.95	22.93	-43.0	-45.7	17.7	0.00e+00	0	43	0	993001472	57	4937
2026-01-26 09:29:21.38	359.83	22.80	-43.1	-45.8	17.6	0.00e+00	0	43	0	994050048	57	5031
2026-01-26 09:29:22.37	359.72	22.67	-43.1	-45.8	17.6	0.00e+00	0	44	0	996147200	57	5009
2026-01-26 09:29:23.37	359.60	22.54	-42.9	-45.5	17.9	0.00e+00	0	43	0	998244352	57	4840
2026-01-26 09:29:24.36	359.49	22.41	-42.8	-45.4	18.0	0.00e+00	0	43	0	1000341504	57	4782
2026-01-26 09:29:25.36	359.37	22.28	-42.8	-45.4	18.0	0.00e+00	0	43	0	1002438656	57	4780
2026-01-26 09:29:26.35	359.26	22.15	-43.0	-45.6	17.8	0.00e+00	0	43	0	1003487232	57	4910
2026-01-26 09:29:27.35	359.15	22.02	-43.0	-45.6	17.8	0.00e+00	0	43	0	1005584384	57	4895
2026-01-26 09:29:28.34	359.04	21.90	-43.3	-46.1	17.4	0.00e+00	0	43	0	1007681536	57	5161
2026-01-26 09:29:29.33	358.93	21.77	-43.5	-46.4	17.1	0.00e+00	0	44	0	1009778688	57	5345
2026-01-26 09:29:30.33	358.82	21.64	-43.5	-46.4	17.0	0.00e+00	0	44	0	1010827264	58	5069
2026-01-26 09:29:31.32	358.71	21.52	-43.7	-46.7	16.8	0.00e+00	0	43	0	1012924416	58	5237
2026-01-26 09:29:32.31	358.61	21.39	-43.9	-46.9	16.7	0.00e+00	0	43	0	1015021568	58	5344
2026-01-26 09:29:33.31	358.50	21.27	-43.7	-46.6	16.9	0.00e+00	0	43	0	1017118720	58	5166
2026-01-26 09:29:34.30	358.40	21.14	-43.7	-46.6	16.8	0.00e+00	0	43	0	1019215872	58	5193
2026-01-26 09:29:35.30	358.29	21.02	-43.6	-46.4	17.1	0.00e+00	0	43	0	1020264448	58	5070
2026-01-26 09:29:36.30	358.19	20.90	-43.4	-46.1	17.3	0.00e+00	0	43	0	1022361600	58	4920
2026-01-26 09:29:37.29	358.09	20.77	-43.3	-46.0	17.4	0.00e+00	0	43	0	1024458752	58	4832
2026-01-26 09:29:38.29	357.98	20.65	-43.3	-46.0	17.4	0.00e+00	0	43	0	1026555904	58	4863
2026-01-26 09:29:39.28	357.88	20.53	-43.2	-45.9	17.5	0.00e+00	0	43	0	1027604480	58	4811
2026-01-26 09:29:40.28	357.78	20.41	-43.2	-45.9	17.5	0.00e+00	0	43	0	1029701632	57	5095
2026-01-26 09:29:41.27	357.68	20.29	-43.3	-46.1	17.3	0.00e+00	0	43	0	1031798784	57	5196
2026-01-26 09:29:42.26	357.59	20.17	-43.3	-46.1	17.3	0.00e+00	0	43	0	1033895936	57	5207
2026-01-26 09:29:43.26	357.49	20.05	-43.4	-46.2	17.2	0.00e+00	0	43	0	1035993088	57	5240
2026-01-26 09:29:44.25	357.39	19.93	-43.7	-46.6	16.8	0.00e+00	0	44	0	1037041664	58	5189
2026-01-26 09:29:45.25	357.29	19.81	-43.8	-46.7	16.8	0.00e+00	0	43	0	1039138816	58	5235
2026-01-26 09:29:46.24	357.20	19.69	-43.6	-46.4	17.1	0.00e+00	0	43	0	1041235968	58	5074
2026-01-26 09:29:47.24	357.10	19.57	-43.9	-46.8	16.6	0.00e+00	0	43	0	1043333120	58	5338
2026-01-26 09:29:48.24	357.01	19.45	-43.8	-46.8	16.7	0.00e+00	0	43	0	1044381696	58	5308
2026-01-26 09:29:49.24	356.92	19.34	-43.5	-46.4	17.0	0.00e+00	0	43	0	1046478848	58	5055
2026-01-26 09:29:50.23	356.82	19.22	-43.5	-46.4	17.0	0.00e+00	0	43	0	1048576000	58	5099
2026-01-26 09:29:51.23	356.73	19.10	-43.3	-46.2	17.2	0.00e+00	0	43	0	1050673152	58	4980
2026-01-26 09:29:52.22	356.64	18.99	-42.9	-45.7	17.7	0.00e+00	0	43	0	1052770304	57	4968
2026-01-26 09:29:53.22	356.55	18.87	-42.8	-45.6	17.7	0.00e+00	0	43	0	1053818880	57	4907
2026-01-26 09:29:54.21	356.46	18.76	-42.8	-45.5	17.9	0.00e+00	0	43	0	1055916032	57	4844
2026-01-26 09:29:55.21	356.37	18.64	-42.6	-45.2	18.1	0.00e+00	0	43	0	1058013184	57	4686
2026-01-26 09:29:56.20	356.28	18.53	-42.5	-45.0	18.3	0.00e+00	0	43	0	1060110336	57	4595
2026-01-26 09:29:57.20	356.20	18.42	-42.6	-45.2	18.1	0.00e+00	0	44	0	1061158912	56	4982
2026-01-26 09:29:58.19	356.11	18.31	-42.3	-44.8	18.6	0.00e+00	0	43	0	1063256064	56	4710
2026-01-26 09:29:59.19	356.02	18.19	-42.3	-44.8	18.3	0.00e+00	0	43	0	1065353216	56	4734
2026-01-26 09:30:00.18	355.94	18.08	-42.3	-44.8	18.6	0.00e+00	0	43	0	1067450368	56	4739
2026-01-26 09:30:01.18	355.85	17.97	-42.4	-45.0	18.4	0.00e+00	0	43	0	1069547520	56	4843
2026-01-26 09:30:02.17	355.77	17.86	-42.4	-45.0	18.3	0.00e+00	0	43	0	1070596096	56	4846
2026-01-26 09:30:03.17	355.69	17.75	-42.5	-45.2	18.2	0.00e+00	0	43	0	1072693248	56	4928
2026-01-26 09:30:04.16	355.60	17.64	-42.7	-45.5	17.9	0.00e+00	0	43	0	1074790400	56	5155
2026-01-26 09:30:05.16	355.52	17.53	-42.9	-45.8	17.6	0.00e+00	0	43	0	1076887552	56	5330
2026-01-26 09:30:06.15	355.44	17.42	-43.0	-46.0	17.4	0.00e+00	0	43	0	1077936128	56	5461
2026-01-26 09:30:07.14	355.36	17.31	-43.2	-46.2	17.2	0.00e+00	0	43	0	1080033280	57	5261
2026-01-26 09:30:08.14	355.28	17.20	-43.4	-46.5	17.0	0.00e+00	0	43	0	1082130432	57	5416
2026-01-26 09:30:09.13	355.20	17.09	-43.7	-46.8	16.7	0.00e+00	0	43	0	1084227584	58	5328
2026-01-26 09:30:10.13	355.12	16.99	-43.9	-47.1	16.5	0.00e+00	0	43	0	1086324736	58	5465
2026-01-26 09:30:11.12	355.04	16.88	-44.0	-47.3	16.2	0.00e+00	0	44	0	1087373312	58	5599
2026-01-26 09:30:12.11	354.96	16.77	-44.1	-47.4	16.1	0.00e+00	0	43	0	1089470464	58	5695
2026-01-26 09:30:13.11	354.89	16.67	-44.3	-47.7	15.8	0.00e+00	0	43	0	1091567616	59	5557
2026-01-26 09:30:14.10	354.81	16.56	-44.4	-47.9	15.6	0.00e+00	0	44	0	1093664768	59	5664
2026-01-26 09:30:15.09	354.73	16.45	-44.8	-48.6	15.0	0.00e+00	0	43	0	1094713344	60	5821
2026-01-26 09:30:16.09	354.66	16.35	-44.8	-48.5	15.0	0.00e+00	0	43	0	1096810496	60	5770
2026-01-26 09:30:17.08	354.58	16.24	-44.7	-48.4	15.1	0.00e+00	0	43	0	1098907648	60	5704
2026-01-26 09:30:18.08	354.51	16.14	-44.7	-48.5	15.0	0.00e+00	0	43	0	1101004800	60	5764
2026-01-26 09:30:19.07	354.43	16.04	-44.5	-48.3	15.3	0.00e+00	0	44	0	1103101952	60	5652
2026-01-26 09:30:20.07	354.36	15.93	-44.4	-48.2	15.3	0.00e+00	0	44	0	1104150528	60	5545
2026-01-26 09:30:21.06	354.29	15.83	-44.4	-48.0	15.5	0.00e+00	0	44	0	1106247680	60	5452
2026-01-26 09:30:22.06	354.21	15.73	-44.4	-48.0	15.5	0.00e+00	0	44	0	1108344832	60	5419
2026-01-26 09:30:23.05	354.14	15.62	-44.2	-47.7	15.8	0.00e+00	0	43	0	1110441984	60	5250
2026-01-26 09:30:24.05	354.07	15.52	-44.2	-47.6	15.9	0.00e+00	0	43	0	1111490560	60	5178
2026-01-26 09:30:25.04	354.00	15.42	-44.0	-47.3	16.2	0.00e+00	0	43	0	1113587712	59	5291
2026-01-26 09:30:26.04	353.93	15.32	-44.0	-47.3	16.1	0.00e+00	0	43	0	1115684864	59	5317
2026-01-26 09:30:27.04	353.86	15.22	-44.0	-47.3	16.2	0.00e+00	0	43	0	1117782016	59	5299
2026-01-26 09:30:28.03	353.79	15.12	-44.0	-47.3	16.2	0.00e+00	0	43	0	1119879168	59	5297
2026-01-26 09:30:29.02	353.72	15.02	-43.9	-47.2	16.3	0.00e+00	0	43	0	1120927744	59	5235
2026-01-26 09:30:30.02	353.65	14.92	-44.0	-47.3	16.1	0.00e+00	0	43	0	1123024896	59	5318
2026-01-26 09:30:31.01	353.58	14.82	-43.9	-47.3	16.2	0.00e+00	0	43	0	1125122048	59	5280
2026-01-26 09:30:32.01	353.52	14.72	-44.1	-47.5	15.9	0.00e+00	0	43	0	1127219200	59	5439
2026-01-26 09:30:33.00	353.45	14.62	-44.2	-47.5	15.9	0.00e+00	0	43	0	1128267776	59	5460
2026-01-26 09:30:34.00	353.38	14.52	-44.2	-47.5	16.0	0.00e+00	0	43	0	1130364928	59	5414
2026-01-26 09:30:34.99	353.32	14.42	-44.2	-47.3	16.1	0.00e+00	0	43	0	1132462080	59	5312
2026-01-26 09:30:35.98	353.25	14.33	-44.4	-47.7	15.8	0.00e+00	0	44	0	1134559232	59	5531
2026-01-26 09:30:36.98	353.19	14.23	-44.1	-47.4	16.0	0.00e+00	0	44	0	1136656384	59	5356
2026-01-26 09:30:37.97	353.12	14.13	-44.2	-47.7	15.8	0.00e+00	0	43	0	1137704960	59	5542
2026-01-26 09:30:38.97	353.06	14.04	-44.3	-48.0	15.4	0.00e+00	0	43	0	1139802112	59	5783
2026-01-26 09:30:39.96	352.99	13.94	-44.1	-47.7	15.7	0.00e+00	0	43	0	1141899264	59	5558
2026-01-26 09:30:40.96	352.93	13.84	-44.3	-47.9	15.6	0.00e+00	0	44	0	1143996416	59	5689
2026-01-26 09:30:41.95	352.87	13.75	-44.3	-47.8	15.6	0.00e+00	0	43	0	1146093568	59	5648
2026-01-26 09:30:42.95	352.80	13.65	-44.2	-47.6	15.8	0.00e+00	0	43	0	1147142144	59	5503
2026-01-26 09:30:43.94	352.74	13.56	-44.2	-47.7	15.7	0.00e+00	0	43	0	1149239296	59	5581
2026-01-26 09:30:44.94	352.68	13.46	-44.2	-47.8	15.7	0.00e+00	0	44	0	1151336448	59	5624
2026-01-26 09:30:45.94	352.62	13.37	-44.1	-47.7	15.8	0.00e+00	0	44	0	1153433600	59	5536
2026-01-26 09:30:46.93	352.56	13.27	-43.8	-47.6	15.9	0.00e+00	0	44	0	1154482176	59	5486
2026-01-26 09:30:47.93	352.50	13.18	-43.9	-47.9	15.5	0.00e+00	0	43	0	1156579328	59	5711
2026-01-26 09:30:48.92	352.44	13.09	-43.6	-47.4	16.0	0.00e+00	0	43	0	1158676480	59	5355
2026-01-26 09:30:49.92	352.38	12.99	-43.6	-47.5	16.0	0.00e+00	0	43	0	1160773632	59	5406
2026-01-26 09:30:50.91	352.32	12.90	-43.7	-47.8	15.6	0.00e+00	0	43	0	1162870784	59	5613
2026-01-26 09:30:51.91	352.26	12.81	-43.7	-47.7	15.7	0.00e+00	0	43	0	1163919360	59	5566
2026-01-26 09:30:52.90	352.20	12.72	-43.8	-48.0	15.5	0.00e+00	0	44	0	1166016512	59	5778
2026-01-26 09:30:53.90	352.14	12.63	-43.8	-48.0	15.4	0.00e+00	0	44	0	1168113664	59	5780
2026-01-26 09:30:54.90	352.08	12.53	-43.7	-47.9	15.5	0.00e+00	0	44	0	1170210816	59	5691
2026-01-26 09:30:55.89	352.03	12.44	-43.9	-48.1	15.3	0.00e+00	0	43	0	1171259392	59	5839
2026-01-26 09:30:56.89	351.97	12.35	-44.2	-48.5	14.9	0.00e+00	0	43	0	1173356544	59	6082
2026-01-26 09:30:57.88	351.91	12.26	-44.3	-48.7	14.6	0.00e+00	0	43	0	1175453696	59	6274
2026-01-26 09:30:58.88	351.86	12.17	-44.4	-48.8	14.6	0.00e+00	0	43	0	1177550848	59	6333
2026-01-26 09:30:59.87	351.80	12.08	-44.6	-49.0	14.5	7.00e-07	0	44	0	1179648000	59	6432
2026-01-26 09:31:00.86	351.75	11.99	-44.4	-48.8	14.7	1.50e-06	0	43	0	1180696576	60	5940
2026-01-26 09:31:01.86	351.69	11.90	-44.5	-49.0	14.5	0.00e+00	0	44	0	1182793728	60	6074
2026-01-26 09:31:02.85	351.64	11.81	-44.4	-49.1	14.4	0.00e+00	0	44	0	1184890880	60	6156
2026-01-26 09:31:03.85	351.58	11.73	-44.5	-49.3	14.2	1.50e-06	0	44	0	1186988032	60	6297
2026-01-26 09:31:04.84	351.53	11.64	-44.2	-49.0	14.5	2.20e-06	0	43	0	1188036608	60	6091
2026-01-26 09:31:05.84	351.47	11.55	-44.0	-48.8	14.6	0.00e+00	0	43	0	1190133760	60	5989
2026-01-26 09:31:06.83	351.42	11.46	-43.9	-48.5	14.9	0.00e+00	0	44	0	1192230912	59	6107
2026-01-26 09:31:07.83	351.37	11.37	-44.1	-48.9	14.5	0.00e+00	0	44	0	1194328064	59	6393
2026-01-26 09:31:08.82	351.31	11.29	-43.7	-48.5	14.8	0.00e+00	0	44	0	1196425216	59	6097
2026-01-26 09:31:09.82	351.26	11.20	-43.5	-48.3	15.1	0.00e+00	0	43	0	1197473792	58	6331
2026-01-26 09:31:10.81	351.21	11.11	-43.2	-48.2	15.2	0.00e+00	0	44	0	1199570944	58	6261
2026-01-26 09:31:11.81	351.16	11.03	-42.9	-47.8	15.5	7.00e-07	0	43	0	1201668096	57	6324
2026-01-26 09:31:12.80	351.11	10.94	-42.7	-47.7	15.7	0.00e+00	0	44	0	1203765248	57	6219
2026-01-26 09:31:13.79	351.06	10.86	-42.5	-47.6	15.7	0.00e+00	0	43	0	1204813824	57	6133
2026-01-26 09:31:14.79	351.01	10.77	-42.4	-47.4	15.9	0.00e+00	0	44	0	1206910976	56	6409
2026-01-26 09:31:15.78	350.96	10.69	-42.4	-47.5	15.9	0.00e+00	0	44	0	1209008128	56	6438
2026-01-26 09:31:16.78	350.91	10.60	-42.2	-47.1	16.2	0.00e+00	0	44	0	1211105280	56	6142
2026-01-26 09:31:17.77	350.86	10.52	-42.4	-47.1	16.2	0.00e+00	0	43	0	1213202432	56	6133
2026-01-26 09:31:18.77	350.81	10.43	-42.3	-46.8	16.5	0.00e+00	0	44	0	1214251008	56	5972
2026-01-26 09:31:19.76	350.76	10.35	-42.5	-47.1	16.2	0.00e+00	0	43	0	1216348160	56	6143
2026-01-26 09:31:20.76	350.71	10.26	-42.4	-46.8	16.4	0.00e+00	0	44	0	1218445312	56	5960
2026-01-26 09:31:21.75	350.66	10.18	-42.6	-46.9	16.4	0.00e+00	0	43	0	1220542464	56	6025
2026-01-26 09:31:22.75	350.61	10.10	-42.8	-47.0	16.3	0.00e+00	0	43	0	1221591040	56	6128
2026-01-26 09:31:23.74	350.56	10.01	-42.8	-46.9	16.4	0.00e+00	0	44	0	1223688192	56	6031
2026-01-26 09:31:24.74	350.52	9.93	-42.9	-46.8	16.5	0.00e+00	0	44	0	1225785344	56	5962
