passes_logs/2026/01/20/R2.0S_Moscow/R2.0S_Moscow__20260120_000122_NOAA_20_JPSS-1_rec.log

#Pass ID: 20260120_000122_NOAA 20 (JPSS-1)
#Satellite: NOAA 20 (JPSS-1)
#Configuration: NOAA 20
#almurnet v.1.7.20251203
#Start time: 2026-01-20 00:01:23

#Version: 2.2.20231116
#Station: R2.0S_Moscow
#Location: 37.707566 lon 55.798166 lat
#TLE: 1 43013U 17073A   26019.27717929  .00000087  00000+0  62288-4 0  9995
#TLE: 2 43013  98.7641 320.1715 0001339  33.1986 326.9274 14.19537047423343

#Time	Az	El	Level	Level2	SNR	BER	BlckErr	Temp	State	Recorded	gain1	gain2
2026-01-20 00:01:23.06	14.68	2.07	-43.0	-57.6	3.8	1.49e+00	0	54	0	0	58	18386
2026-01-20 00:01:24.06	14.67	2.13	-43.0	-57.6	3.8	1.49e+00	0	54	104	0	57	19463
2026-01-20 00:01:25.07	14.66	2.20	-43.0	-57.6	3.8	1.49e+00	0	54	104	0	57	19471
2026-01-20 00:01:26.08	14.65	2.26	-43.0	-57.6	3.8	1.49e+00	0	54	104	0	57	19443
2026-01-20 00:01:27.09	14.64	2.33	-43.0	-57.6	3.8	1.49e+00	0	54	104	0	57	19498
2026-01-20 00:01:28.10	14.62	2.39	-43.0	-57.5	3.8	1.49e+00	0	54	104	0	57	19367
2026-01-20 00:01:29.11	14.61	2.46	-43.0	-57.6	3.8	1.49e+00	0	54	104	0	57	19428
2026-01-20 00:01:30.13	14.60	2.52	-43.0	-57.6	3.8	1.49e+00	0	54	104	0	57	19402
2026-01-20 00:01:31.14	14.59	2.59	-43.0	-57.5	3.8	1.49e+00	0	54	104	0	57	19363
2026-01-20 00:01:32.15	14.58	2.65	-43.0	-57.5	3.8	1.49e+00	0	54	104	0	57	19363
2026-01-20 00:01:33.16	14.56	2.72	-43.0	-57.6	3.8	1.49e+00	0	54	104	0	57	19440
2026-01-20 00:01:34.17	14.55	2.79	-43.0	-57.6	3.8	1.49e+00	0	54	104	0	57	19441
2026-01-20 00:01:35.18	14.54	2.85	-43.0	-57.5	3.8	1.49e+00	0	55	104	0	57	19321
2026-01-20 00:01:36.19	14.53	2.92	-43.0	-57.6	3.8	1.49e+00	0	54	104	0	57	19420
2026-01-20 00:01:37.20	14.51	2.98	-43.0	-57.6	3.8	1.49e+00	0	55	104	0	57	19449
2026-01-20 00:01:38.21	14.50	3.05	-43.0	-57.6	3.8	1.49e+00	0	55	104	0	57	19477
2026-01-20 00:01:39.22	14.49	3.12	-43.0	-57.6	3.8	1.49e+00	0	55	104	0	57	19436
2026-01-20 00:01:40.24	14.48	3.18	-43.0	-57.6	3.8	1.49e+00	0	55	104	0	57	19437
2026-01-20 00:01:41.25	14.46	3.25	-43.0	-57.6	3.8	1.49e+00	0	55	104	0	57	19456
2026-01-20 00:01:42.26	14.45	3.32	-43.0	-57.6	3.8	1.49e+00	0	55	104	0	57	19424
2026-01-20 00:01:43.27	14.44	3.39	-43.0	-57.5	3.8	1.49e+00	0	55	104	0	57	19364
2026-01-20 00:01:44.28	14.42	3.45	-43.0	-57.5	3.8	1.49e+00	0	55	104	0	57	19379
2026-01-20 00:01:45.29	14.41	3.52	-43.0	-57.6	3.8	1.49e+00	0	55	104	0	57	19441
2026-01-20 00:01:46.30	14.40	3.59	-43.0	-57.6	3.8	1.49e+00	0	55	104	0	57	19427
2026-01-20 00:01:47.31	14.39	3.66	-43.0	-57.6	3.8	1.49e+00	0	55	104	0	57	19444
2026-01-20 00:01:48.32	14.37	3.72	-43.0	-57.5	3.8	1.49e+00	0	55	104	0	57	19289
2026-01-20 00:01:49.33	14.36	3.79	-43.0	-57.5	3.8	1.49e+00	0	56	104	0	57	19251
2026-01-20 00:01:50.34	14.34	3.86	-43.0	-57.5	3.8	1.49e+00	0	55	104	0	57	19212
2026-01-20 00:01:51.35	14.33	3.93	-43.0	-57.5	3.8	1.49e+00	0	56	104	0	57	19219
2026-01-20 00:01:52.36	14.32	4.00	-43.0	-57.5	3.8	1.49e+00	0	56	104	0	57	19222
2026-01-20 00:01:53.38	14.30	4.07	-43.0	-57.5	3.8	1.49e+00	0	56	104	0	57	19227
2026-01-20 00:01:54.39	14.29	4.14	-43.0	-57.5	3.8	1.49e+00	0	56	104	0	57	19175
2026-01-20 00:01:55.40	14.28	4.21	-43.0	-57.4	3.8	1.49e+00	0	56	104	0	57	19063
2026-01-20 00:01:56.41	14.26	4.28	-43.0	-57.4	3.8	1.49e+00	0	56	104	0	57	19069
2026-01-20 00:01:57.42	14.25	4.35	-43.0	-57.4	3.8	1.49e+00	0	56	104	0	57	19043
2026-01-20 00:01:58.43	14.23	4.42	-43.0	-57.4	3.8	1.49e+00	0	56	104	0	57	18975
2026-01-20 00:01:59.44	14.22	4.49	-43.0	-57.3	3.8	1.49e+00	0	56	104	0	57	18935
2026-01-20 00:02:00.45	14.20	4.56	-43.0	-57.3	3.8	1.49e+00	0	56	104	0	57	18938
2026-01-20 00:02:01.46	14.19	4.63	-43.0	-57.3	3.8	1.49e+00	0	56	104	0	57	18838
2026-01-20 00:02:02.47	14.18	4.70	-43.0	-57.3	3.8	1.49e+00	0	56	104	0	57	18836
2026-01-20 00:02:03.48	14.16	4.77	-43.0	-57.3	3.8	1.49e+00	0	56	104	0	57	18743
2026-01-20 00:02:04.49	14.15	4.84	-43.0	-57.2	3.8	1.49e+00	0	56	104	0	57	18605
2026-01-20 00:02:05.50	14.13	4.91	-43.0	-57.1	3.8	1.49e+00	0	56	104	0	57	18504
2026-01-20 00:02:06.51	14.12	4.98	-43.0	-57.0	3.8	1.49e+00	0	56	104	0	57	18289
2026-01-20 00:02:07.53	14.10	5.05	-43.0	-56.9	3.8	1.49e+00	0	56	104	0	57	17902
2026-01-20 00:02:08.54	14.09	5.13	-43.0	-56.7	3.8	1.49e+00	0	56	104	0	57	17665
2026-01-20 00:02:09.55	14.07	5.20	-43.0	-56.7	3.8	1.49e+00	0	57	104	0	57	17507
2026-01-20 00:02:10.56	14.06	5.27	-42.9	-56.5	3.8	1.49e+00	0	56	104	0	57	17090
2026-01-20 00:02:11.57	14.04	5.34	-42.9	-56.3	3.8	1.49e+00	0	57	104	0	57	16807
2026-01-20 00:02:12.58	14.02	5.41	-42.9	-56.1	3.8	1.49e+00	0	57	104	0	57	16480
2026-01-20 00:02:13.59	14.01	5.49	-42.9	-56.2	3.8	1.49e+00	0	57	104	0	57	16542
2026-01-20 00:02:14.60	13.99	5.56	-42.9	-56.0	3.8	1.49e+00	0	57	104	0	57	16229
2026-01-20 00:02:15.61	13.98	5.63	-42.9	-55.8	3.8	1.49e+00	0	57	104	0	57	15914
2026-01-20 00:02:16.62	13.96	5.71	-42.9	-55.7	3.8	1.49e+00	0	57	104	0	57	15759
2026-01-20 00:02:17.63	13.95	5.78	-42.9	-55.8	3.8	1.49e+00	0	57	104	0	57	15851
2026-01-20 00:02:18.64	13.93	5.85	-42.9	-56.0	3.8	1.49e+00	0	57	104	0	57	16183
2026-01-20 00:02:19.65	13.91	5.93	-42.9	-56.1	3.8	1.49e+00	0	57	104	0	57	16501
2026-01-20 00:02:20.66	13.90	6.00	-42.9	-56.4	3.8	1.49e+00	0	57	104	0	57	16996
2026-01-20 00:02:21.67	13.88	6.08	-42.9	-56.7	3.8	1.49e+00	0	57	104	0	57	17571
2026-01-20 00:02:22.68	13.86	6.15	-43.0	-57.0	3.8	1.49e+00	0	57	104	0	57	18185
2026-01-20 00:02:23.69	13.85	6.22	-43.0	-57.3	3.8	1.49e+00	0	57	104	0	57	18759
2026-01-20 00:02:24.70	13.83	6.30	-43.0	-57.3	3.8	1.49e+00	0	57	104	0	57	18939
2026-01-20 00:02:25.71	13.81	6.37	-43.0	-57.3	3.8	1.49e+00	0	57	104	0	57	18736
2026-01-20 00:02:26.73	13.80	6.45	-43.0	-57.0	3.8	1.49e+00	0	57	104	0	57	18152
2026-01-20 00:02:27.74	13.78	6.53	-42.9	-56.5	3.8	1.49e+00	0	58	104	0	57	17135
2026-01-20 00:02:28.75	13.76	6.60	-42.9	-55.7	3.9	1.49e+00	0	57	104	0	57	15584
2026-01-20 00:02:29.76	13.74	6.68	-42.8	-54.7	4.0	1.48e+00	0	57	104	0	57	13887
2026-01-20 00:02:30.77	13.73	6.75	-42.7	-53.5	4.3	1.39e+00	19	57	0	0	57	12208
2026-01-20 00:02:31.78	13.71	6.83	-42.6	-52.6	4.7	1.14e+00	0	57	0	1048576	57	10977
2026-01-20 00:02:32.79	13.69	6.91	-42.5	-51.7	5.1	6.97e-01	0	57	0	3145728	57	9892
2026-01-20 00:02:33.80	13.67	6.98	-42.4	-50.9	5.6	4.99e-01	0	57	0	5242880	56	9577
2026-01-20 00:02:34.81	13.66	7.06	-42.2	-50.1	6.3	3.58e-01	0	58	0	7340032	56	8692
2026-01-20 00:02:35.82	13.64	7.14	-42.1	-49.6	6.7	2.16e-01	0	58	0	8388608	56	8222
2026-01-20 00:02:36.83	13.62	7.22	-42.1	-49.3	7.1	1.67e-01	0	58	0	10485760	56	7902
2026-01-20 00:02:37.84	13.60	7.29	-42.0	-48.9	7.4	1.29e-01	0	57	0	12582912	56	7585
2026-01-20 00:02:38.85	13.58	7.37	-41.8	-48.4	7.6	9.49e-02	0	58	0	14680064	55	7621
2026-01-20 00:02:39.86	13.56	7.45	-41.7	-48.2	7.9	8.18e-02	0	58	0	16777216	55	7434
2026-01-20 00:02:40.87	13.55	7.53	-41.7	-48.3	7.8	7.46e-02	0	58	0	18874368	55	7475
2026-01-20 00:02:41.88	13.53	7.61	-41.7	-48.3	7.8	8.00e-02	0	58	0	19922944	55	7513
2026-01-20 00:02:42.89	13.51	7.69	-41.8	-48.5	7.5	9.36e-02	0	58	0	22020096	55	7707
2026-01-20 00:02:43.90	13.49	7.77	-41.9	-48.8	7.3	1.17e-01	0	58	0	24117248	55	7944
2026-01-20 00:02:44.91	13.47	7.85	-42.0	-49.3	6.8	1.65e-01	0	58	0	26214400	55	8450
2026-01-20 00:02:45.92	13.45	7.93	-42.1	-49.8	6.4	2.14e-01	0	58	0	28311552	55	8899
2026-01-20 00:02:46.93	13.43	8.01	-42.2	-50.4	5.9	3.02e-01	0	58	0	29360128	55	9587
2026-01-20 00:02:47.95	13.41	8.09	-42.9	-53.0	4.6	4.07e-01	0	58	0	31457280	56	12220
2026-01-20 00:02:48.96	13.39	8.17	-43.0	-54.6	4.1	1.34e+00	0	58	0	32505856	56	14541
2026-01-20 00:02:49.96	13.37	8.25	-42.4	-53.3	4.3	5.35e-01	90	58	0	34603008	56	12536
2026-01-20 00:02:50.97	13.35	8.33	-42.4	-50.3	6.2	6.70e-01	0	58	0	35651584	56	8933
2026-01-20 00:02:51.98	13.33	8.41	-42.8	-56.9	3.8	1.14e+00	0	58	104	36700160	56	18974
2026-01-20 00:02:52.99	13.31	8.49	-42.1	-49.2	7.2	1.39e+00	0	58	104	36700160	56	7812
2026-01-20 00:02:54.00	13.29	8.57	-42.1	-49.0	7.4	1.29e-01	0	58	0	37748736	56	7646
2026-01-20 00:02:55.01	13.27	8.65	-42.0	-48.8	7.5	1.04e-01	0	58	0	39845888	56	7492
2026-01-20 00:02:56.02	13.25	8.74	-41.8	-48.1	8.1	7.75e-02	0	58	0	41943040	55	7344
2026-01-20 00:02:57.03	13.23	8.82	-41.8	-48.0	8.3	5.57e-02	0	58	0	42991616	55	7220
2026-01-20 00:02:58.04	13.21	8.90	-41.8	-48.0	8.3	5.45e-02	0	58	0	45088768	55	7216
2026-01-20 00:02:59.05	13.19	8.99	-41.7	-47.9	8.4	4.97e-02	0	58	0	47185920	55	7127
2026-01-20 00:03:00.06	13.17	9.07	-41.7	-47.7	8.6	4.20e-02	0	59	0	49283072	55	6997
2026-01-20 00:03:01.07	13.15	9.15	-41.8	-47.8	8.5	4.11e-02	0	58	0	51380224	55	7089
2026-01-20 00:03:02.08	13.13	9.24	-41.8	-47.8	8.5	4.56e-02	0	58	0	52428800	55	7119
2026-01-20 00:03:03.09	13.10	9.32	-41.8	-47.8	8.6	4.09e-02	0	58	0	54525952	55	7061
2026-01-20 00:03:04.10	13.08	9.41	-41.8	-47.9	8.5	4.08e-02	0	59	0	56623104	55	7122
2026-01-20 00:03:05.11	13.06	9.49	-41.8	-47.8	8.6	4.33e-02	0	58	0	58720256	55	7044
2026-01-20 00:03:06.12	13.04	9.58	-41.8	-47.7	8.7	3.85e-02	0	59	0	60817408	55	7023
2026-01-20 00:03:07.13	13.02	9.66	-41.8	-47.8	8.7	3.54e-02	0	59	0	62914560	55	7071
2026-01-20 00:03:08.14	12.99	9.75	-41.8	-47.7	8.7	3.32e-02	0	59	0	63963136	55	7027
2026-01-20 00:03:09.15	12.97	9.83	-41.7	-47.5	8.8	3.47e-02	0	59	0	66060288	55	6871
2026-01-20 00:03:10.16	12.95	9.92	-41.7	-47.5	8.9	2.90e-02	0	59	0	68157440	55	6807
2026-01-20 00:03:11.17	12.93	10.00	-41.6	-47.3	9.0	2.65e-02	0	59	0	70254592	55	6677
2026-01-20 00:03:12.18	12.90	10.09	-41.5	-47.1	9.3	1.96e-02	0	59	0	72351744	55	6532
2026-01-20 00:03:13.19	12.88	10.18	-41.6	-47.0	9.4	1.78e-02	0	59	0	73400320	55	6483
2026-01-20 00:03:14.20	12.86	10.27	-41.6	-47.0	9.4	1.59e-02	0	59	0	75497472	55	6489
2026-01-20 00:03:15.21	12.83	10.35	-41.6	-47.0	9.4	1.46e-02	0	59	0	77594624	55	6484
2026-01-20 00:03:16.22	12.81	10.44	-41.6	-47.0	9.4	1.53e-02	0	59	0	79691776	55	6491
2026-01-20 00:03:17.23	12.78	10.53	-41.7	-47.2	9.2	1.79e-02	0	59	0	81788928	55	6632
2026-01-20 00:03:18.24	12.76	10.62	-41.7	-47.2	9.2	2.05e-02	0	59	0	82837504	55	6633
2026-01-20 00:03:19.25	12.74	10.71	-41.7	-47.3	9.2	2.01e-02	0	59	0	84934656	55	6663
2026-01-20 00:03:20.26	12.71	10.80	-41.8	-47.4	9.1	2.20e-02	0	59	0	87031808	55	6729
2026-01-20 00:03:21.27	12.69	10.89	-41.8	-47.4	9.1	2.16e-02	0	59	0	89128960	55	6793
2026-01-20 00:03:22.27	12.66	10.98	-41.8	-47.5	9.0	2.29e-02	0	59	0	91226112	55	6832
2026-01-20 00:03:23.28	12.64	11.07	-41.8	-47.6	9.0	2.41e-02	0	59	0	92274688	55	6881
2026-01-20 00:03:24.29	12.61	11.16	-41.8	-47.4	9.1	2.28e-02	0	59	0	94371840	55	6793
2026-01-20 00:03:25.30	12.59	11.25	-41.8	-47.4	9.2	2.00e-02	0	59	0	96468992	55	6754
2026-01-20 00:03:26.31	12.56	11.34	-41.8	-47.3	9.3	1.81e-02	0	59	0	98566144	55	6663
2026-01-20 00:03:27.32	12.54	11.43	-41.8	-47.3	9.4	1.72e-02	0	59	0	100663296	55	6648
2026-01-20 00:03:28.33	12.51	11.52	-41.8	-47.2	9.4	1.67e-02	0	59	0	101711872	55	6630
2026-01-20 00:03:29.34	12.49	11.62	-41.8	-47.2	9.5	1.60e-02	0	59	0	103809024	55	6607
2026-01-20 00:03:30.35	12.46	11.71	-41.8	-47.2	9.5	1.52e-02	0	59	0	105906176	55	6602
2026-01-20 00:03:31.36	12.43	11.80	-41.7	-47.2	9.4	1.59e-02	0	59	0	108003328	55	6619
2026-01-20 00:03:32.37	12.41	11.89	-41.8	-47.3	9.3	1.62e-02	0	59	0	110100480	55	6667
2026-01-20 00:03:33.38	12.38	11.99	-41.7	-47.1	9.5	1.53e-02	0	59	0	111149056	55	6539
2026-01-20 00:03:34.39	12.35	12.08	-41.7	-46.9	9.8	1.14e-02	0	59	0	113246208	55	6398
2026-01-20 00:03:35.40	12.33	12.18	-41.7	-46.8	9.9	9.33e-03	0	59	0	115343360	55	6334
2026-01-20 00:03:36.41	12.30	12.27	-41.7	-46.8	10.0	8.79e-03	0	59	0	117440512	55	6283
2026-01-20 00:03:37.42	12.27	12.37	-41.7	-46.7	10.1	6.77e-03	0	60	0	119537664	55	6248
2026-01-20 00:03:38.43	12.24	12.46	-41.7	-46.7	10.0	7.08e-03	0	59	0	120586240	55	6274
2026-01-20 00:03:39.44	12.22	12.56	-41.8	-46.8	10.1	7.67e-03	0	60	0	122683392	55	6306
2026-01-20 00:03:40.44	12.19	12.65	-41.7	-46.6	10.2	6.13e-03	0	59	0	124780544	55	6198
2026-01-20 00:03:41.45	12.16	12.75	-41.8	-46.6	10.4	5.04e-03	0	60	0	126877696	55	6186
2026-01-20 00:03:42.46	12.13	12.85	-41.8	-46.7	10.2	5.40e-03	0	59	0	128974848	55	6264
2026-01-20 00:03:43.47	12.10	12.94	-41.8	-46.6	10.4	4.89e-03	0	59	0	131072000	55	6195
2026-01-20 00:03:44.48	12.07	13.04	-41.8	-46.6	10.4	4.91e-03	0	60	0	132120576	55	6193
2026-01-20 00:03:45.49	12.04	13.14	-41.7	-46.4	10.6	3.89e-03	0	60	0	134217728	55	6050
2026-01-20 00:03:46.50	12.01	13.24	-41.7	-46.3	10.7	2.94e-03	0	60	0	136314880	55	5976
2026-01-20 00:03:47.51	11.98	13.34	-41.7	-46.3	10.8	2.57e-03	0	60	0	138412032	55	5957
2026-01-20 00:03:48.52	11.95	13.44	-41.7	-46.4	10.7	2.86e-03	0	60	0	140509184	55	6001
2026-01-20 00:03:49.53	11.92	13.54	-41.7	-46.3	10.8	2.71e-03	0	60	0	141557760	55	5964
2026-01-20 00:03:50.54	11.89	13.64	-41.8	-46.4	10.8	2.51e-03	0	60	0	143654912	55	6017
2026-01-20 00:03:51.55	11.86	13.74	-41.7	-46.3	10.9	2.44e-03	0	60	0	145752064	55	5932
2026-01-20 00:03:52.56	11.83	13.84	-41.7	-46.1	11.1	2.04e-03	0	60	0	147849216	55	5832
2026-01-20 00:03:53.56	11.80	13.94	-41.6	-46.0	11.3	1.27e-03	0	60	0	149946368	55	5737
2026-01-20 00:03:54.58	11.77	14.04	-41.7	-46.1	11.2	1.46e-03	0	60	0	150994944	55	5822
2026-01-20 00:03:55.59	11.74	14.14	-41.7	-46.1	11.2	1.45e-03	0	60	0	153092096	55	5822
2026-01-20 00:03:56.60	11.71	14.24	-41.7	-46.0	11.3	1.23e-03	0	60	0	155189248	55	5752
2026-01-20 00:03:57.61	11.67	14.35	-41.6	-45.9	11.4	1.07e-03	0	60	0	157286400	55	5707
2026-01-20 00:03:58.61	11.64	14.45	-41.6	-45.9	11.4	9.02e-04	0	60	0	159383552	55	5676
2026-01-20 00:03:59.62	11.61	14.55	-41.7	-46.0	11.4	9.18e-04	0	60	0	160432128	55	5755
2026-01-20 00:04:00.63	11.58	14.66	-41.6	-45.8	11.5	8.60e-04	0	60	0	162529280	55	5646
2026-01-20 00:04:01.64	11.54	14.76	-41.6	-45.8	11.6	6.96e-04	0	60	0	164626432	55	5624
2026-01-20 00:04:02.65	11.51	14.87	-41.7	-45.8	11.6	7.00e-04	0	60	0	166723584	55	5656
2026-01-20 00:04:03.66	11.48	14.97	-41.7	-45.8	11.7	6.47e-04	0	60	0	168820736	55	5628
2026-01-20 00:04:04.67	11.44	15.08	-41.6	-45.8	11.8	5.45e-04	0	60	0	169869312	55	5597
2026-01-20 00:04:05.68	11.41	15.19	-41.7	-45.7	11.8	5.07e-04	0	60	0	171966464	55	5589
2026-01-20 00:04:06.69	11.38	15.29	-41.7	-45.8	11.8	4.84e-04	0	60	0	174063616	55	5595
2026-01-20 00:04:07.70	11.34	15.40	-41.6	-45.6	12.0	4.26e-04	0	60	0	176160768	55	5477
2026-01-20 00:04:08.71	11.31	15.51	-41.6	-45.5	12.0	3.04e-04	0	60	0	178257920	55	5453
2026-01-20 00:04:09.72	11.27	15.62	-41.6	-45.6	12.0	3.32e-04	0	60	0	179306496	55	5492
2026-01-20 00:04:10.73	11.24	15.73	-41.6	-45.5	12.1	2.84e-04	0	60	0	181403648	55	5415
2026-01-20 00:04:11.73	11.20	15.83	-41.6	-45.5	12.2	2.22e-04	0	60	0	183500800	55	5409
2026-01-20 00:04:12.74	11.16	15.94	-41.5	-45.4	12.2	2.37e-04	0	60	0	185597952	55	5382
2026-01-20 00:04:13.75	11.13	16.05	-41.6	-45.4	12.2	2.24e-04	0	60	0	187695104	55	5392
2026-01-20 00:04:14.76	11.09	16.16	-41.5	-45.4	12.3	1.72e-04	0	60	0	188743680	55	5356
2026-01-20 00:04:15.77	11.05	16.28	-41.5	-45.3	12.4	1.85e-04	0	60	0	190840832	55	5317
2026-01-20 00:04:16.78	11.02	16.39	-41.5	-45.3	12.5	1.57e-04	0	60	0	192937984	55	5299
2026-01-20 00:04:17.79	10.98	16.50	-41.5	-45.3	12.4	1.40e-04	0	60	0	195035136	55	5322
2026-01-20 00:04:18.80	10.94	16.61	-41.6	-45.4	12.4	1.42e-04	0	60	0	197132288	55	5345
2026-01-20 00:04:19.81	10.90	16.73	-41.5	-45.3	12.5	1.53e-04	0	60	0	198180864	55	5307
2026-01-20 00:04:20.82	10.86	16.84	-41.6	-45.3	12.5	1.18e-04	0	60	0	200278016	55	5311
2026-01-20 00:04:21.83	10.83	16.95	-41.5	-45.2	12.6	1.43e-04	0	60	0	202375168	55	5272
2026-01-20 00:04:22.84	10.79	17.07	-41.5	-45.3	12.6	1.13e-04	0	60	0	204472320	55	5292
2026-01-20 00:04:23.85	10.75	17.18	-41.6	-45.4	12.4	1.21e-04	0	60	0	206569472	55	5387
2026-01-20 00:04:24.85	10.71	17.30	-41.5	-45.2	12.6	9.91e-05	0	60	0	207618048	55	5256
2026-01-20 00:04:25.86	10.67	17.42	-41.5	-45.1	12.7	7.32e-05	0	60	0	209715200	54	5502
2026-01-20 00:04:26.87	10.63	17.53	-41.5	-45.1	12.8	6.71e-05	0	60	0	211812352	54	5505
2026-01-20 00:04:27.88	10.59	17.65	-41.4	-45.0	12.9	5.11e-05	0	60	0	213909504	54	5430
2026-01-20 00:04:28.89	10.54	17.77	-41.4	-45.0	12.9	6.02e-05	0	60	0	216006656	54	5442
2026-01-20 00:04:29.90	10.50	17.89	-41.5	-45.0	12.9	4.11e-05	0	60	0	217055232	54	5449
2026-01-20 00:04:30.91	10.46	18.01	-41.4	-44.9	13.0	6.63e-05	0	60	0	219152384	54	5396
2026-01-20 00:04:31.92	10.42	18.13	-41.4	-44.9	13.0	4.19e-05	0	60	0	221249536	54	5401
2026-01-20 00:04:32.93	10.38	18.25	-41.4	-45.0	13.0	2.82e-05	0	60	0	223346688	54	5413
2026-01-20 00:04:33.94	10.33	18.37	-41.5	-45.0	12.9	4.27e-05	0	60	0	225443840	54	5454
2026-01-20 00:04:34.95	10.29	18.49	-41.5	-45.0	12.9	5.26e-05	0	60	0	227540992	54	5425
2026-01-20 00:04:35.96	10.25	18.61	-41.5	-45.0	12.9	4.80e-05	0	60	0	228589568	54	5445
2026-01-20 00:04:36.97	10.20	18.73	-41.4	-45.0	13.0	3.58e-05	0	60	0	230686720	54	5407
2026-01-20 00:04:37.98	10.16	18.86	-41.4	-44.9	13.1	3.89e-05	0	60	0	232783872	54	5346
2026-01-20 00:04:38.99	10.11	18.98	-41.5	-45.0	13.0	2.82e-05	0	60	0	234881024	54	5413
2026-01-20 00:04:40.00	10.07	19.10	-41.4	-44.9	13.1	3.20e-05	0	60	0	236978176	54	5378
2026-01-20 00:04:41.01	10.02	19.23	-41.4	-44.9	13.1	2.21e-05	0	60	0	238026752	54	5367
2026-01-20 00:04:42.02	9.97	19.35	-41.4	-44.9	13.1	2.67e-05	0	60	0	240123904	54	5346
2026-01-20 00:04:43.03	9.93	19.48	-41.4	-44.8	13.2	2.05e-05	0	60	0	242221056	54	5282
2026-01-20 00:04:44.04	9.88	19.61	-41.4	-44.8	13.2	2.59e-05	0	61	0	244318208	54	5315
2026-01-20 00:04:45.05	9.83	19.74	-41.3	-44.7	13.3	1.52e-05	0	60	0	246415360	54	5267
2026-01-20 00:04:46.06	9.79	19.86	-41.4	-44.8	13.3	1.90e-05	0	60	0	247463936	54	5291
2026-01-20 00:04:47.07	9.74	19.99	-41.4	-44.7	13.3	2.05e-05	0	61	0	249561088	54	5276
2026-01-20 00:04:48.08	9.69	20.12	-41.3	-44.7	13.4	1.52e-05	0	61	0	251658240	54	5225
2026-01-20 00:04:49.09	9.64	20.25	-41.3	-44.7	13.4	6.10e-06	0	61	0	253755392	54	5236
2026-01-20 00:04:50.10	9.59	20.38	-41.3	-44.7	13.4	1.52e-05	0	61	0	255852544	54	5221
2026-01-20 00:04:51.11	9.54	20.51	-41.3	-44.5	13.5	1.52e-05	0	61	0	256901120	54	5159
2026-01-20 00:04:52.11	9.49	20.64	-41.3	-44.6	13.5	9.10e-06	0	61	0	258998272	54	5175
2026-01-20 00:04:53.12	9.44	20.78	-41.3	-44.6	13.5	9.90e-06	0	61	0	261095424	54	5193
2026-01-20 00:04:54.14	9.39	20.91	-41.3	-44.5	13.5	1.90e-05	0	61	0	263192576	54	5149
2026-01-20 00:04:55.14	9.33	21.04	-41.2	-44.4	13.7	7.60e-06	0	61	0	265289728	54	5096
2026-01-20 00:04:56.15	9.28	21.18	-41.2	-44.5	13.6	1.14e-05	0	60	0	266338304	54	5120
2026-01-20 00:04:57.17	9.23	21.32	-41.2	-44.4	13.7	1.14e-05	0	61	0	268435456	54	5084
2026-01-20 00:04:58.18	9.18	21.45	-41.2	-44.4	13.7	6.10e-06	0	61	0	270532608	54	5093
2026-01-20 00:04:59.18	9.12	21.59	-41.2	-44.4	13.7	6.10e-06	0	61	0	272629760	54	5065
2026-01-20 00:05:00.19	9.07	21.73	-41.2	-44.4	13.7	6.10e-06	0	61	0	274726912	54	5094
2026-01-20 00:05:01.20	9.01	21.86	-41.3	-44.5	13.6	6.10e-06	0	60	0	275775488	54	5140
2026-01-20 00:05:02.21	8.96	22.00	-41.2	-44.3	13.8	3.80e-06	0	60	0	277872640	54	5038
2026-01-20 00:05:03.22	8.90	22.14	-41.2	-44.3	13.8	3.00e-06	0	60	0	279969792	54	5024
2026-01-20 00:05:04.23	8.84	22.28	-41.2	-44.3	13.8	5.30e-06	0	61	0	282066944	54	5018
2026-01-20 00:05:05.24	8.79	22.42	-41.2	-44.4	13.8	6.10e-06	0	61	0	284164096	54	5052
2026-01-20 00:05:06.25	8.73	22.57	-41.2	-44.4	13.7	5.30e-06	0	61	0	285212672	54	5064
2026-01-20 00:05:07.26	8.67	22.71	-41.2	-44.3	13.8	3.80e-06	0	61	0	287309824	54	5001
2026-01-20 00:05:08.27	8.61	22.85	-41.2	-44.3	13.8	4.50e-06	0	61	0	289406976	54	5016
2026-01-20 00:05:09.28	8.55	23.00	-41.2	-44.3	13.8	6.10e-06	0	61	0	291504128	54	5033
2026-01-20 00:05:10.29	8.49	23.14	-41.2	-44.3	13.8	3.00e-06	0	60	0	293601280	54	5009
2026-01-20 00:05:11.30	8.43	23.29	-41.2	-44.4	13.8	3.00e-06	0	61	0	295698432	54	5045
2026-01-20 00:05:12.30	8.37	23.43	-41.2	-44.4	13.7	5.30e-06	0	60	0	296747008	54	5091
2026-01-20 00:05:13.32	8.31	23.58	-41.2	-44.4	13.8	4.50e-06	0	61	0	298844160	54	5061
2026-01-20 00:05:14.32	8.25	23.73	-41.3	-44.5	13.7	6.10e-06	0	61	0	300941312	54	5111
2026-01-20 00:05:15.33	8.18	23.88	-41.3	-44.5	13.7	7.60e-06	0	61	0	303038464	54	5106
2026-01-20 00:05:16.34	8.12	24.03	-41.3	-44.6	13.6	4.50e-06	0	61	0	305135616	54	5161
2026-01-20 00:05:17.35	8.06	24.18	-41.4	-44.6	13.5	1.14e-05	0	61	0	306184192	54	5218
2026-01-20 00:05:18.36	7.99	24.33	-41.4	-44.7	13.4	7.60e-06	0	61	0	308281344	54	5273
2026-01-20 00:05:19.37	7.93	24.48	-41.5	-44.9	13.3	2.05e-05	0	61	0	310378496	54	5344
2026-01-20 00:05:20.38	7.86	24.64	-41.5	-44.9	13.3	2.36e-05	0	61	0	312475648	54	5361
2026-01-20 00:05:21.39	7.79	24.79	-41.6	-45.0	13.2	2.13e-05	0	61	0	314572800	54	5430
2026-01-20 00:05:22.40	7.72	24.95	-41.6	-45.1	13.1	3.05e-05	0	61	0	315621376	54	5503
2026-01-20 00:05:23.41	7.66	25.10	-41.7	-45.1	13.1	3.35e-05	0	61	0	317718528	54	5524
2026-01-20 00:05:24.42	7.59	25.26	-41.7	-45.3	12.9	4.27e-05	0	61	0	319815680	54	5625
2026-01-20 00:05:25.43	7.52	25.42	-41.7	-45.3	12.9	6.56e-05	0	61	0	321912832	54	5624
2026-01-20 00:05:26.44	7.45	25.57	-41.8	-45.4	12.8	6.02e-05	0	61	0	324009984	54	5684
2026-01-20 00:05:27.45	7.37	25.73	-41.9	-45.5	12.6	6.10e-05	0	61	0	325058560	54	5787
2026-01-20 00:05:28.46	7.30	25.89	-41.9	-45.5	12.6	7.93e-05	0	61	0	327155712	54	5767
2026-01-20 00:05:29.47	7.23	26.06	-42.0	-45.7	12.5	1.31e-04	0	61	0	329252864	54	5867
2026-01-20 00:05:30.48	7.16	26.22	-42.0	-45.7	12.5	1.35e-04	0	61	0	331350016	54	5897
2026-01-20 00:05:31.48	7.08	26.38	-42.0	-45.8	12.4	1.20e-04	0	61	0	333447168	54	5969
2026-01-20 00:05:32.49	7.01	26.54	-42.1	-45.9	12.2	1.95e-04	0	61	0	334495744	54	6054
2026-01-20 00:05:33.50	6.93	26.71	-42.1	-46.0	12.2	2.02e-04	0	61	0	336592896	54	6063
2026-01-20 00:05:34.51	6.85	26.87	-42.1	-46.1	12.1	2.51e-04	0	61	0	338690048	54	6157
2026-01-20 00:05:35.52	6.78	27.04	-42.2	-46.1	12.1	2.78e-04	0	61	0	340787200	54	6190
2026-01-20 00:05:36.53	6.70	27.21	-42.2	-46.2	12.0	3.02e-04	0	61	0	342884352	54	6218
2026-01-20 00:05:37.54	6.62	27.38	-42.3	-46.4	11.8	5.04e-04	0	61	0	343932928	55	6031
2026-01-20 00:05:38.55	6.54	27.55	-42.4	-46.5	11.7	5.28e-04	0	61	0	346030080	55	6077
2026-01-20 00:05:39.56	6.46	27.72	-42.4	-46.7	11.5	6.24e-04	0	61	0	348127232	55	6207
2026-01-20 00:05:40.57	6.37	27.89	-42.5	-46.8	11.4	9.28e-04	0	61	0	350224384	55	6280
2026-01-20 00:05:41.58	6.29	28.06	-42.5	-46.9	11.3	1.11e-03	0	61	0	352321536	55	6363
2026-01-20 00:05:42.59	6.21	28.24	-42.6	-47.0	11.2	1.31e-03	0	61	0	353370112	55	6467
2026-01-20 00:05:43.60	6.12	28.41	-42.7	-47.2	10.9	1.63e-03	0	61	0	355467264	55	6618
2026-01-20 00:05:44.61	6.03	28.59	-42.9	-47.4	10.9	2.42e-03	0	61	0	357564416	56	6404
2026-01-20 00:05:45.62	5.95	28.77	-42.9	-47.6	10.7	2.68e-03	0	61	0	359661568	56	6536
2026-01-20 00:05:46.63	5.86	28.94	-43.0	-47.8	10.5	3.77e-03	0	61	0	361758720	56	6690
2026-01-20 00:05:47.64	5.77	29.12	-43.1	-48.0	10.3	5.21e-03	0	61	0	363855872	56	6816
2026-01-20 00:05:48.65	5.68	29.30	-43.2	-48.1	10.2	5.30e-03	0	61	0	364904448	56	6947
2026-01-20 00:05:49.66	5.59	29.48	-43.2	-48.2	10.1	6.57e-03	0	61	0	367001600	56	6961
2026-01-20 00:05:50.67	5.50	29.67	-43.2	-48.2	10.0	7.82e-03	0	61	0	369098752	57	6646
2026-01-20 00:05:51.67	5.40	29.85	-43.3	-48.4	9.9	7.83e-03	0	61	0	371195904	57	6752
2026-01-20 00:05:52.68	5.31	30.03	-43.3	-48.5	9.8	9.22e-03	0	61	0	373293056	57	6832
2026-01-20 00:05:53.69	5.21	30.22	-43.3	-48.5	9.8	1.02e-02	0	61	0	374341632	57	6873
2026-01-20 00:05:54.70	5.12	30.40	-43.3	-48.6	9.7	1.07e-02	0	61	0	376438784	57	6880
2026-01-20 00:05:55.71	5.02	30.59	-43.4	-48.6	9.6	1.25e-02	0	61	0	378535936	57	6955
2026-01-20 00:05:56.72	4.92	30.78	-43.4	-48.8	9.5	1.40e-02	0	61	0	380633088	57	7086
2026-01-20 00:05:57.73	4.82	30.97	-43.4	-48.8	9.5	1.40e-02	0	61	0	382730240	57	7076
2026-01-20 00:05:58.74	4.72	31.16	-43.5	-48.9	9.4	1.58e-02	0	61	0	383778816	57	7128
2026-01-20 00:05:59.75	4.62	31.36	-43.5	-49.1	9.2	1.74e-02	0	61	0	385875968	57	7303
2026-01-20 00:06:00.76	4.51	31.55	-43.6	-49.4	8.9	2.69e-02	0	61	0	387973120	57	7562
2026-01-20 00:06:01.77	4.41	31.74	-43.7	-49.5	8.8	3.12e-02	0	61	0	390070272	57	7676
2026-01-20 00:06:02.78	4.30	31.94	-43.8	-49.8	8.5	3.71e-02	0	61	0	392167424	58	7513
2026-01-20 00:06:03.79	4.19	32.14	-43.8	-50.0	8.3	4.99e-02	0	61	0	393216000	58	7665
2026-01-20 00:06:04.80	4.08	32.33	-43.9	-50.1	8.2	5.28e-02	0	61	0	395313152	58	7796
2026-01-20 00:06:05.81	3.97	32.53	-43.9	-50.3	8.0	6.01e-02	0	61	0	397410304	58	7954
2026-01-20 00:06:06.82	3.86	32.74	-43.9	-50.3	8.0	6.71e-02	0	61	0	399507456	58	7926
2026-01-20 00:06:07.83	3.75	32.94	-43.9	-50.2	8.1	6.53e-02	0	61	0	401604608	58	7891
2026-01-20 00:06:08.84	3.63	33.14	-43.9	-50.3	8.0	7.02e-02	0	61	0	402653184	58	7931
2026-01-20 00:06:09.84	3.51	33.34	-43.9	-50.3	8.0	7.32e-02	0	61	0	404750336	58	7969
2026-01-20 00:06:10.85	3.40	33.55	-43.9	-50.4	8.0	7.17e-02	0	61	0	406847488	58	7997
2026-01-20 00:06:11.86	3.28	33.76	-43.9	-50.3	7.9	8.77e-02	0	61	0	408944640	58	7986
2026-01-20 00:06:12.87	3.16	33.96	-44.0	-50.5	7.8	7.50e-02	0	61	0	411041792	58	8092
2026-01-20 00:06:13.88	3.03	34.17	-44.0	-50.4	7.9	7.45e-02	0	61	0	412090368	58	8061
2026-01-20 00:06:14.89	2.91	34.38	-43.9	-50.3	8.0	6.76e-02	0	61	0	414187520	58	7952
2026-01-20 00:06:15.90	2.78	34.60	-43.9	-50.2	8.1	6.38e-02	0	61	0	416284672	58	7851
2026-01-20 00:06:16.91	2.65	34.81	-43.9	-50.1	8.2	5.43e-02	0	61	0	418381824	58	7761
2026-01-20 00:06:17.92	2.52	35.02	-43.9	-50.0	8.3	5.69e-02	0	61	0	420478976	58	7684
2026-01-20 00:06:18.93	2.39	35.24	-43.8	-49.8	8.5	4.87e-02	0	61	0	421527552	58	7510
2026-01-20 00:06:19.94	2.26	35.46	-43.8	-49.9	8.4	4.39e-02	0	61	0	423624704	58	7563
2026-01-20 00:06:20.95	2.12	35.68	-43.8	-49.9	8.4	4.37e-02	0	61	0	425721856	58	7609
2026-01-20 00:06:21.96	1.99	35.89	-43.8	-49.7	8.6	4.24e-02	0	61	0	427819008	58	7438
2026-01-20 00:06:22.97	1.85	36.12	-43.9	-50.0	8.4	4.21e-02	0	61	0	429916160	58	7638
2026-01-20 00:06:23.98	1.71	36.34	-43.9	-50.0	8.4	4.66e-02	0	61	0	432013312	58	7674
2026-01-20 00:06:24.99	1.57	36.56	-43.9	-50.0	8.3	4.43e-02	0	61	0	433061888	58	7694
2026-01-20 00:06:26.00	1.42	36.79	-43.9	-50.2	8.2	5.63e-02	0	61	0	435159040	58	7836
2026-01-20 00:06:27.01	1.27	37.01	-44.0	-50.4	8.0	7.11e-02	0	61	0	437256192	58	8011
2026-01-20 00:06:28.01	1.13	37.24	-44.1	-50.5	7.9	7.42e-02	0	61	0	439353344	58	8165
2026-01-20 00:06:29.02	0.98	37.47	-44.0	-50.5	7.8	7.18e-02	0	61	0	441450496	58	8153
2026-01-20 00:06:30.03	0.82	37.70	-44.1	-50.6	7.8	8.80e-02	0	61	0	442499072	58	8232
2026-01-20 00:06:31.04	0.67	37.93	-44.1	-50.6	7.8	8.73e-02	0	61	0	444596224	58	8187
2026-01-20 00:06:32.05	0.51	38.16	-44.1	-50.7	7.7	8.11e-02	0	61	0	446693376	58	8305
2026-01-20 00:06:33.06	0.35	38.40	-44.1	-50.7	7.6	8.31e-02	0	61	0	448790528	58	8292
2026-01-20 00:06:34.07	0.19	38.64	-44.1	-50.6	7.7	9.24e-02	0	61	0	450887680	58	8267
2026-01-20 00:06:35.08	0.02	38.87	-44.1	-50.8	7.5	9.17e-02	0	61	0	451936256	58	8436
2026-01-20 00:06:36.09	359.85	39.11	-44.1	-50.7	7.7	9.97e-02	0	61	0	454033408	58	8316
2026-01-20 00:06:37.10	359.68	39.35	-44.1	-50.7	7.7	8.36e-02	0	61	0	456130560	58	8283
2026-01-20 00:06:38.11	359.51	39.59	-44.0	-50.4	8.0	8.09e-02	0	61	0	458227712	58	8007
2026-01-20 00:06:39.12	359.34	39.84	-44.0	-50.3	8.1	6.36e-02	0	61	0	460324864	58	7946
2026-01-20 00:06:40.13	359.16	40.08	-44.0	-50.1	8.3	5.60e-02	0	61	0	461373440	58	7783
2026-01-20 00:06:41.14	358.98	40.33	-43.9	-50.1	8.3	5.11e-02	0	61	0	463470592	58	7739
2026-01-20 00:06:42.15	358.79	40.57	-44.0	-50.1	8.3	4.93e-02	0	61	0	465567744	58	7753
2026-01-20 00:06:43.16	358.61	40.82	-43.8	-49.7	8.7	4.42e-02	0	61	0	467664896	58	7419
2026-01-20 00:06:44.17	358.42	41.07	-43.8	-49.6	8.8	3.59e-02	0	61	0	469762048	58	7354
2026-01-20 00:06:45.18	358.23	41.32	-43.7	-49.2	9.2	2.88e-02	0	61	0	470810624	58	7025
2026-01-20 00:06:46.19	358.03	41.58	-43.7	-49.2	9.3	1.98e-02	0	61	0	472907776	58	6967
2026-01-20 00:06:47.20	357.83	41.83	-43.7	-49.2	9.2	2.02e-02	0	62	0	475004928	58	6984
2026-01-20 00:06:48.21	357.63	42.08	-43.5	-48.8	9.5	1.92e-02	0	61	0	477102080	58	6714
2026-01-20 00:06:49.22	357.42	42.34	-43.6	-48.9	9.5	1.56e-02	0	61	0	479199232	58	6788
2026-01-20 00:06:50.23	357.22	42.60	-43.5	-48.7	9.8	1.26e-02	0	62	0	480247808	58	6607
2026-01-20 00:06:51.23	357.01	42.86	-43.5	-48.7	9.8	8.73e-03	0	61	0	482344960	58	6579
2026-01-20 00:06:52.24	356.79	43.12	-43.4	-48.3	10.2	6.66e-03	0	61	0	484442112	58	6325
2026-01-20 00:06:53.25	356.57	43.38	-43.3	-48.2	10.2	5.29e-03	0	61	0	486539264	58	6258
2026-01-20 00:06:54.26	356.35	43.64	-43.1	-47.7	10.7	4.70e-03	0	61	0	488636416	58	5917
2026-01-20 00:06:55.27	356.12	43.91	-43.0	-47.4	11.2	1.46e-03	0	61	0	489684992	58	5657
2026-01-20 00:06:56.28	355.89	44.17	-43.0	-47.3	11.2	1.50e-03	0	61	0	491782144	57	5980
2026-01-20 00:06:57.29	355.66	44.44	-42.9	-47.2	11.3	1.15e-03	0	61	0	493879296	57	5913
2026-01-20 00:06:58.30	355.42	44.71	-43.0	-47.3	11.2	1.20e-03	0	62	0	495976448	57	5984
2026-01-20 00:06:59.31	355.18	44.98	-43.0	-47.3	11.1	1.43e-03	0	62	0	498073600	57	5991
2026-01-20 00:07:00.31	354.93	45.25	-42.8	-47.0	11.5	1.07e-03	0	61	0	500170752	57	5773
2026-01-20 00:07:01.33	354.68	45.52	-42.8	-47.0	11.6	6.84e-04	0	61	0	501219328	57	5748
2026-01-20 00:07:02.33	354.43	45.79	-42.7	-46.7	11.8	4.27e-04	0	62	0	503316480	57	5577
2026-01-20 00:07:03.34	354.17	46.07	-42.7	-46.8	11.7	6.28e-04	0	61	0	505413632	57	5646
2026-01-20 00:07:04.35	353.90	46.34	-42.7	-46.8	11.8	5.29e-04	0	61	0	507510784	57	5597
2026-01-20 00:07:05.36	353.63	46.62	-42.7	-46.8	11.7	5.19e-04	0	61	0	509607936	57	5640
2026-01-20 00:07:06.37	353.36	46.90	-42.7	-46.8	11.7	5.29e-04	0	62	0	510656512	57	5635
2026-01-20 00:07:07.38	353.08	47.18	-42.7	-46.7	11.8	5.30e-04	0	61	0	512753664	57	5587
2026-01-20 00:07:08.39	352.80	47.46	-42.7	-46.8	11.8	5.32e-04	0	61	0	514850816	57	5640
2026-01-20 00:07:09.40	352.51	47.74	-42.8	-46.9	11.6	6.13e-04	0	61	0	516947968	57	5698
2026-01-20 00:07:10.41	352.21	48.02	-42.8	-46.9	11.7	6.24e-04	0	62	0	517996544	57	5657
2026-01-20 00:07:11.42	351.91	48.31	-42.7	-46.6	11.9	3.82e-04	0	62	0	520093696	57	5522
2026-01-20 00:07:12.42	351.61	48.59	-42.7	-46.8	11.8	4.28e-04	0	62	0	522190848	57	5617
2026-01-20 00:07:13.43	351.30	48.88	-42.8	-46.8	11.7	5.72e-04	0	61	0	524288000	57	5646
2026-01-20 00:07:14.44	350.98	49.16	-42.8	-46.8	11.7	5.82e-04	0	62	0	526385152	57	5652
2026-01-20 00:07:15.45	350.66	49.45	-42.7	-46.7	11.9	4.06e-04	0	61	0	528482304	57	5538
2026-01-20 00:07:16.46	350.33	49.74	-42.6	-46.5	12.1	3.60e-04	0	62	0	529530880	57	5415
2026-01-20 00:07:17.47	349.99	50.03	-42.5	-46.4	12.2	2.75e-04	0	61	0	531628032	57	5372
2026-01-20 00:07:18.48	349.65	50.32	-42.4	-46.1	12.5	1.17e-04	0	62	0	533725184	56	5491
2026-01-20 00:07:19.49	349.30	50.61	-42.2	-45.7	12.9	7.09e-05	0	62	0	535822336	56	5278
2026-01-20 00:07:20.50	348.94	50.90	-42.1	-45.6	13.0	3.43e-05	0	62	0	537919488	56	5195
2026-01-20 00:07:21.51	348.58	51.19	-42.2	-45.8	12.9	5.26e-05	0	62	0	538968064	56	5296
2026-01-20 00:07:22.52	348.21	51.48	-42.1	-45.6	13.0	4.80e-05	0	61	0	541065216	56	5193
2026-01-20 00:07:23.53	347.83	51.78	-42.1	-45.5	13.1	3.89e-05	0	61	0	543162368	56	5115
2026-01-20 00:07:24.54	347.44	52.07	-41.8	-45.1	13.4	1.22e-05	0	61	0	545259520	55	5180
2026-01-20 00:07:25.54	347.05	52.36	-41.8	-45.0	13.5	1.67e-05	0	61	0	547356672	55	5133
2026-01-20 00:07:26.55	346.65	52.65	-41.6	-44.7	13.8	5.30e-06	0	61	0	548405248	55	4971
2026-01-20 00:07:27.56	346.24	52.95	-41.4	-44.4	14.0	3.80e-06	0	62	0	550502400	54	5099
2026-01-20 00:07:28.57	345.83	53.24	-41.4	-44.4	14.1	1.50e-06	0	62	0	552599552	54	5091
2026-01-20 00:07:29.58	345.40	53.54	-41.7	-44.8	13.7	7.00e-07	0	61	0	554696704	54	5330
2026-01-20 00:07:30.59	344.96	53.83	-41.8	-45.2	13.3	1.37e-05	0	62	0	556793856	54	5536
2026-01-20 00:07:31.60	344.52	54.13	-41.9	-45.4	13.1	1.60e-05	0	62	0	557842432	54	5666
2026-01-20 00:07:32.61	344.07	54.42	-42.1	-45.6	12.8	3.89e-05	0	62	0	559939584	54	5848
2026-01-20 00:07:33.62	343.60	54.72	-42.4	-46.2	12.2	9.30e-05	0	62	0	562036736	55	5903
2026-01-20 00:07:34.63	343.13	55.01	-42.6	-46.6	11.8	4.10e-04	0	62	0	564133888	55	6166
2026-01-20 00:07:35.64	342.65	55.31	-42.9	-47.1	11.5	7.41e-04	0	62	0	566231040	56	6135
2026-01-20 00:07:36.65	342.15	55.60	-43.0	-47.4	11.1	8.87e-04	0	62	0	567279616	56	6363
2026-01-20 00:07:37.66	341.65	55.89	-43.3	-48.1	10.4	3.99e-03	0	61	0	569376768	57	6564
2026-01-20 00:07:38.67	341.14	56.18	-43.6	-48.8	9.6	8.73e-03	0	62	0	571473920	57	7116
2026-01-20 00:07:39.68	340.61	56.48	-43.7	-49.1	9.2	1.82e-02	0	62	0	573571072	58	6958
2026-01-20 00:07:40.69	340.07	56.77	-43.7	-49.1	9.4	1.82e-02	0	62	0	575668224	58	6884
2026-01-20 00:07:41.70	339.53	57.06	-43.8	-49.2	9.2	1.96e-02	0	62	0	576716800	58	7019
2026-01-20 00:07:42.71	338.97	57.34	-43.7	-49.1	9.3	1.63e-02	0	62	0	578813952	58	6904
2026-01-20 00:07:43.72	338.39	57.63	-43.7	-49.1	9.3	1.64e-02	0	62	0	580911104	58	6959
2026-01-20 00:07:44.73	337.81	57.92	-43.7	-49.0	9.4	1.55e-02	0	62	0	583008256	58	6855
2026-01-20 00:07:45.74	337.21	58.20	-43.7	-49.0	9.4	1.67e-02	0	62	0	585105408	58	6840
2026-01-20 00:07:46.74	336.61	58.48	-43.4	-48.4	9.9	1.24e-02	0	62	0	586153984	58	6364
2026-01-20 00:07:47.75	335.99	58.76	-43.3	-47.9	10.5	4.15e-03	0	62	0	588251136	58	6035
2026-01-20 00:07:48.76	335.35	59.04	-43.3	-47.9	10.6	3.38e-03	0	62	0	590348288	58	6060
2026-01-20 00:07:49.77	334.70	59.32	-43.3	-48.0	10.5	4.31e-03	0	62	0	592445440	58	6085
2026-01-20 00:07:50.78	334.04	59.60	-42.9	-47.1	11.4	1.46e-03	0	62	0	594542592	57	5833
2026-01-20 00:07:51.79	333.36	59.87	-42.6	-46.4	12.2	3.78e-04	0	62	0	596639744	57	5351
2026-01-20 00:07:52.80	332.66	60.14	-42.3	-45.9	12.6	1.35e-04	0	62	0	597688320	56	5392
2026-01-20 00:07:53.81	331.96	60.41	-42.1	-45.6	13.0	4.95e-05	0	62	0	599785472	56	5186
2026-01-20 00:07:54.82	331.23	60.67	-41.8	-45.0	13.3	3.28e-05	0	62	0	601882624	55	5128
2026-01-20 00:07:55.83	330.50	60.93	-41.4	-44.4	14.0	3.80e-06	0	62	0	603979776	54	5081
2026-01-20 00:07:56.84	329.74	61.19	-41.2	-44.1	14.3	0.00e+00	0	62	0	606076928	54	4908
2026-01-20 00:07:57.85	328.97	61.45	-41.3	-44.2	14.2	1.50e-06	0	62	0	607125504	54	4968
2026-01-20 00:07:58.86	328.19	61.70	-41.3	-44.2	14.2	2.20e-06	0	62	0	609222656	54	4975
2026-01-20 00:07:59.87	327.39	61.94	-41.4	-44.4	14.0	0.00e+00	0	62	0	611319808	54	5050
2026-01-20 00:08:00.88	326.57	62.19	-41.4	-44.4	14.0	4.50e-06	0	62	0	613416960	54	5089
2026-01-20 00:08:01.89	325.74	62.43	-41.4	-44.4	14.0	6.10e-06	0	62	0	615514112	54	5063
2026-01-20 00:08:02.90	324.89	62.66	-41.1	-44.0	14.4	1.50e-06	0	62	0	616562688	54	4854
2026-01-20 00:08:03.91	324.02	62.89	-41.0	-43.8	14.6	1.50e-06	0	62	0	618659840	54	4750
2026-01-20 00:08:04.92	323.14	63.12	-41.2	-44.0	14.4	0.00e+00	0	62	0	620756992	54	4869
2026-01-20 00:08:05.93	322.24	63.34	-41.1	-43.9	14.5	7.00e-07	0	62	0	622854144	54	4768
2026-01-20 00:08:06.94	321.32	63.55	-41.0	-43.8	14.6	0.00e+00	0	62	0	624951296	53	5027
2026-01-20 00:08:07.95	320.39	63.76	-41.2	-44.1	14.3	7.00e-07	0	62	0	625999872	53	5179
2026-01-20 00:08:08.96	319.44	63.96	-41.4	-44.4	14.0	7.00e-07	0	62	0	628097024	53	5359
2026-01-20 00:08:09.97	318.47	64.16	-41.5	-44.5	13.9	3.80e-06	0	62	0	630194176	53	5437
2026-01-20 00:08:10.98	317.48	64.35	-41.5	-44.6	13.7	5.30e-06	0	62	0	632291328	53	5507
2026-01-20 00:08:11.99	316.48	64.54	-41.5	-44.5	13.8	3.00e-06	0	61	0	634388480	53	5463
2026-01-20 00:08:13.00	315.47	64.72	-41.6	-44.8	13.6	6.80e-06	0	62	0	635437056	53	5655
2026-01-20 00:08:14.01	314.44	64.89	-41.8	-45.1	13.2	1.83e-05	0	62	0	637534208	54	5513
2026-01-20 00:08:15.02	313.39	65.05	-42.1	-45.7	12.6	6.33e-05	0	62	0	639631360	54	5912
2026-01-20 00:08:16.03	312.33	65.21	-42.4	-46.4	12.0	1.81e-04	0	62	0	641728512	55	5994
2026-01-20 00:08:17.04	311.25	65.36	-42.5	-46.6	11.7	6.26e-04	0	62	0	643825664	55	6165
2026-01-20 00:08:18.05	310.16	65.50	-42.5	-46.5	11.8	5.42e-04	0	61	0	644874240	55	6083
2026-01-20 00:08:19.05	309.06	65.63	-42.5	-46.5	11.8	5.56e-04	0	62	0	646971392	55	6091
2026-01-20 00:08:20.06	307.94	65.76	-42.5	-46.6	11.7	7.21e-04	0	62	0	649068544	55	6173
2026-01-20 00:08:21.07	306.81	65.88	-42.7	-46.8	11.4	8.15e-04	0	62	0	651165696	55	6330
2026-01-20 00:08:22.08	305.67	65.99	-43.0	-47.4	11.1	1.16e-03	0	62	0	653262848	56	6354
2026-01-20 00:08:23.10	304.50	66.09	-43.0	-47.5	11.0	1.67e-03	0	62	0	654311424	56	6435
2026-01-20 00:08:24.11	303.34	66.18	-42.9	-47.3	11.1	1.60e-03	0	62	0	656408576	56	6319
2026-01-20 00:08:25.12	302.16	66.26	-42.9	-47.2	11.2	1.67e-03	0	62	0	658505728	56	6258
2026-01-20 00:08:26.13	300.98	66.34	-42.9	-47.1	11.2	1.39e-03	0	61	0	660602880	56	6191
2026-01-20 00:08:27.14	299.79	66.40	-42.8	-46.9	11.5	9.94e-04	0	62	0	662700032	56	6031
2026-01-20 00:08:28.15	298.59	66.45	-42.7	-46.8	11.6	6.49e-04	0	62	0	664797184	56	5960
2026-01-20 00:08:29.16	297.39	66.50	-42.7	-46.7	11.7	7.06e-04	0	62	0	665845760	56	5904
2026-01-20 00:08:30.17	296.18	66.54	-42.6	-46.5	12.0	4.26e-04	0	62	0	667942912	56	5785
2026-01-20 00:08:31.18	294.97	66.56	-42.8	-47.1	11.3	6.65e-04	0	62	0	670040064	56	6170
2026-01-20 00:08:32.19	293.76	66.58	-43.0	-47.4	10.9	1.73e-03	0	62	0	672137216	56	6365
2026-01-20 00:08:33.20	292.54	66.59	-42.8	-47.1	11.3	1.54e-03	0	62	0	674234368	56	6140
2026-01-20 00:08:34.21	291.33	66.58	-42.6	-46.5	11.9	5.70e-04	0	62	0	675282944	56	5780
2026-01-20 00:08:35.21	290.13	66.57	-42.6	-46.4	12.0	4.04e-04	0	62	0	677380096	56	5721
2026-01-20 00:08:36.22	288.91	66.55	-42.6	-46.6	11.8	4.40e-04	0	62	0	679477248	56	5846
2026-01-20 00:08:37.23	287.70	66.52	-42.7	-46.9	11.5	6.21e-04	0	62	0	681574400	56	6009
2026-01-20 00:08:38.24	286.50	66.48	-42.8	-46.9	11.4	7.34e-04	0	62	0	683671552	56	6042
2026-01-20 00:08:39.25	285.30	66.43	-42.7	-46.8	11.7	6.93e-04	0	62	0	684720128	56	5925
2026-01-20 00:08:40.26	284.10	66.37	-42.9	-47.2	11.3	8.19e-04	0	62	0	686817280	56	6212
2026-01-20 00:08:41.27	282.91	66.30	-42.9	-47.3	11.1	1.34e-03	0	62	0	688914432	56	6312
2026-01-20 00:08:42.28	281.74	66.22	-42.7	-46.9	11.5	1.52e-03	0	62	0	691011584	56	6016
2026-01-20 00:08:43.29	280.57	66.14	-42.7	-46.8	11.5	6.53e-04	0	62	0	693108736	56	5982
2026-01-20 00:08:44.30	279.40	66.04	-42.7	-46.8	11.6	7.08e-04	0	62	0	694157312	56	5942
2026-01-20 00:08:45.31	278.25	65.94	-42.6	-46.6	11.8	5.80e-04	0	62	0	696254464	56	5826
2026-01-20 00:08:46.32	277.12	65.82	-42.6	-46.7	11.7	6.33e-04	0	62	0	698351616	56	5860
2026-01-20 00:08:47.33	275.99	65.70	-42.6	-46.5	11.8	5.75e-04	0	62	0	700448768	56	5749
2026-01-20 00:08:48.34	274.88	65.57	-42.4	-46.2	12.2	3.49e-04	0	62	0	702545920	56	5546
2026-01-20 00:08:49.34	273.79	65.44	-42.3	-46.0	12.4	1.56e-04	0	62	0	703594496	56	5439
2026-01-20 00:08:50.35	272.70	65.29	-42.3	-45.9	12.5	1.45e-04	0	62	0	705691648	56	5381
2026-01-20 00:08:51.36	271.63	65.14	-42.0	-45.4	13.1	6.40e-05	0	62	0	707788800	56	5062
2026-01-20 00:08:52.37	270.57	64.98	-41.8	-45.2	13.1	3.28e-05	0	62	0	709885952	55	5262
2026-01-20 00:08:53.38	269.53	64.81	-41.6	-44.8	13.4	2.05e-05	0	62	0	711983104	55	5038
2026-01-20 00:08:54.39	268.50	64.63	-41.4	-44.4	13.9	5.30e-06	0	62	0	713031680	54	5079
2026-01-20 00:08:55.40	267.49	64.45	-41.1	-44.0	14.3	5.30e-06	0	62	0	715128832	54	4864
2026-01-20 00:08:56.41	266.50	64.26	-41.0	-43.8	14.5	0.00e+00	0	62	0	717225984	53	5002
2026-01-20 00:08:57.42	265.52	64.07	-40.8	-43.5	14.9	0.00e+00	0	62	0	719323136	53	4819
2026-01-20 00:08:58.43	264.56	63.87	-40.7	-43.4	14.9	0.00e+00	0	62	0	721420288	53	4770
2026-01-20 00:08:59.44	263.62	63.66	-40.7	-43.3	15.0	0.00e+00	0	62	0	722468864	53	4741
2026-01-20 00:09:00.45	262.69	63.45	-40.9	-43.6	14.7	0.00e+00	0	62	0	724566016	53	4906
2026-01-20 00:09:01.46	261.78	63.23	-41.0	-43.8	14.5	0.00e+00	0	62	0	726663168	53	5021
2026-01-20 00:09:02.47	260.89	63.01	-41.1	-44.0	14.3	2.20e-06	0	62	0	728760320	53	5158
2026-01-20 00:09:03.47	260.02	62.78	-41.1	-44.0	14.3	7.00e-07	0	62	0	730857472	53	5132
2026-01-20 00:09:04.49	259.15	62.55	-41.5	-44.6	13.7	7.00e-07	0	62	0	732954624	53	5492
2026-01-20 00:09:05.50	258.31	62.31	-41.8	-45.2	13.1	1.90e-05	0	62	0	734003200	54	5544
2026-01-20 00:09:06.51	257.48	62.07	-42.0	-45.5	12.8	5.18e-05	0	62	0	736100352	54	5758
2026-01-20 00:09:07.52	256.67	61.82	-42.0	-45.6	12.7	6.33e-05	0	62	0	738197504	54	5804
2026-01-20 00:09:08.53	255.87	61.57	-42.1	-45.7	12.6	6.40e-05	0	62	0	740294656	54	5903
2026-01-20 00:09:09.54	255.10	61.32	-42.4	-46.3	12.0	2.08e-04	0	62	0	742391808	55	5946
2026-01-20 00:09:10.55	254.33	61.06	-43.0	-47.4	11.0	7.78e-04	0	62	0	743440384	56	6390
2026-01-20 00:09:11.56	253.59	60.80	-43.2	-48.1	10.3	3.64e-03	0	62	0	745537536	57	6498
2026-01-20 00:09:12.56	252.86	60.54	-43.4	-48.5	9.8	9.06e-03	0	62	0	747634688	57	6838
2026-01-20 00:09:13.57	252.15	60.27	-43.5	-48.6	9.7	1.18e-02	0	62	0	749731840	57	6939
2026-01-20 00:09:14.58	251.44	60.01	-43.5	-48.8	9.5	1.27e-02	0	62	0	751828992	57	7052
2026-01-20 00:09:15.59	250.76	59.73	-43.7	-49.2	9.2	1.84e-02	0	62	0	752877568	57	7396
2026-01-20 00:09:16.60	250.08	59.46	-43.7	-49.1	9.2	2.08e-02	0	62	0	754974720	57	7331
2026-01-20 00:09:17.61	249.43	59.18	-43.7	-49.3	9.1	1.83e-02	0	62	0	757071872	57	7458
2026-01-20 00:09:18.62	248.78	58.90	-43.9	-49.7	8.6	3.36e-02	0	62	0	759169024	58	7453
2026-01-20 00:09:19.62	248.16	58.62	-43.8	-49.5	8.8	3.62e-02	0	62	0	761266176	58	7271
2026-01-20 00:09:20.63	247.54	58.34	-43.6	-48.8	9.5	2.50e-02	0	62	0	762314752	58	6682
2026-01-20 00:09:21.64	246.93	58.06	-43.5	-48.8	9.7	1.21e-02	0	62	0	764411904	58	6658
2026-01-20 00:09:22.65	246.34	57.77	-43.6	-48.9	9.5	1.28e-02	0	62	0	766509056	58	6724
2026-01-20 00:09:23.66	245.76	57.48	-43.7	-49.4	8.9	1.88e-02	0	62	0	768606208	58	7143
2026-01-20 00:09:24.67	245.19	57.19	-43.7	-49.3	9.0	2.60e-02	0	62	0	770703360	58	7062
2026-01-20 00:09:25.68	244.64	56.91	-43.5	-48.7	9.6	1.89e-02	0	62	0	771751936	58	6636
2026-01-20 00:09:26.69	244.09	56.61	-43.1	-47.7	10.7	7.17e-03	0	62	0	773849088	58	5917
2026-01-20 00:09:27.70	243.56	56.32	-42.8	-47.0	11.4	1.82e-03	0	62	0	775946240	57	5760
2026-01-20 00:09:28.71	243.04	56.03	-42.5	-46.3	12.1	3.58e-04	0	62	0	778043392	57	5334
2026-01-20 00:09:29.72	242.53	55.74	-42.2	-45.7	12.8	1.28e-04	0	62	0	780140544	56	5255
2026-01-20 00:09:30.73	242.03	55.44	-42.0	-45.5	13.1	4.19e-05	0	62	0	781189120	56	5107
2026-01-20 00:09:31.74	241.54	55.15	-42.1	-45.6	12.7	7.24e-05	0	62	0	783286272	55	5520
2026-01-20 00:09:32.75	241.06	54.85	-42.2	-45.9	12.4	1.15e-04	0	62	0	785383424	55	5683
2026-01-20 00:09:33.76	240.59	54.56	-42.2	-46.0	12.3	1.60e-04	0	62	0	787480576	55	5749
2026-01-20 00:09:34.77	240.13	54.26	-42.5	-46.5	11.9	2.94e-04	0	62	0	789577728	55	6081
2026-01-20 00:09:35.78	239.68	53.97	-42.5	-46.5	11.8	5.31e-04	0	62	0	790626304	55	6084
2026-01-20 00:09:36.79	239.24	53.67	-42.3	-46.2	12.1	2.59e-04	0	62	0	792723456	55	5890
2026-01-20 00:09:37.80	238.81	53.37	-42.3	-46.1	12.2	2.20e-04	0	62	0	794820608	55	5823
2026-01-20 00:09:38.80	238.39	53.08	-42.3	-46.2	12.1	2.19e-04	0	62	0	796917760	55	5874
2026-01-20 00:09:39.81	237.98	52.79	-42.6	-46.7	11.6	3.79e-04	0	62	0	799014912	55	6240
2026-01-20 00:09:40.82	237.57	52.49	-42.7	-47.0	11.3	7.76e-04	0	62	0	801112064	55	6462
2026-01-20 00:09:41.83	237.17	52.19	-43.1	-47.7	10.7	2.11e-03	0	62	0	802160640	56	6590
2026-01-20 00:09:42.84	236.78	51.90	-43.2	-47.9	10.5	3.53e-03	0	62	0	804257792	56	6757
2026-01-20 00:09:43.85	236.40	51.61	-43.1	-47.8	10.6	4.09e-03	0	62	0	806354944	56	6667
2026-01-20 00:09:44.86	236.02	51.31	-43.1	-47.6	10.8	2.12e-03	0	62	0	808452096	56	6556
2026-01-20 00:09:45.87	235.65	51.02	-43.0	-47.4	11.0	1.82e-03	0	62	0	810549248	56	6362
2026-01-20 00:09:46.88	235.29	50.73	-43.0	-47.4	11.1	1.92e-03	0	62	0	811597824	56	6370
2026-01-20 00:09:47.89	234.94	50.43	-42.9	-47.3	11.1	1.79e-03	0	62	0	813694976	56	6306
2026-01-20 00:09:48.90	234.59	50.14	-43.0	-47.4	11.1	1.52e-03	0	62	0	815792128	56	6348
2026-01-20 00:09:49.91	234.25	49.85	-43.0	-47.6	10.9	1.80e-03	0	62	0	817889280	56	6508
2026-01-20 00:09:50.92	233.92	49.56	-43.2	-48.0	10.4	3.93e-03	0	62	0	819986432	56	6825
2026-01-20 00:09:51.93	233.59	49.27	-43.4	-48.4	9.9	6.77e-03	0	62	0	821035008	57	6766
2026-01-20 00:09:52.94	233.27	48.99	-43.4	-48.4	9.9	7.37e-03	0	62	0	823132160	57	6771
2026-01-20 00:09:53.95	232.95	48.70	-43.3	-48.2	10.2	7.81e-03	0	62	0	825229312	57	6596
2026-01-20 00:09:54.96	232.64	48.41	-43.2	-47.9	10.5	4.35e-03	0	62	0	827326464	57	6371
2026-01-20 00:09:55.97	232.34	48.13	-43.0	-47.4	11.0	2.68e-03	0	62	0	829423616	57	6032
2026-01-20 00:09:56.97	232.04	47.85	-42.9	-47.3	11.2	1.60e-03	0	62	0	830472192	57	5924
2026-01-20 00:09:57.98	231.75	47.56	-42.8	-47.0	11.4	1.31e-03	0	62	0	832569344	57	5776
2026-01-20 00:09:58.99	231.46	47.28	-42.8	-47.1	11.4	1.06e-03	0	62	0	834666496	57	5791
2026-01-20 00:10:00.00	231.18	47.00	-42.9	-47.2	11.2	1.32e-03	0	62	0	836763648	57	5911
2026-01-20 00:10:01.01	230.90	46.72	-42.9	-47.3	11.1	1.23e-03	0	62	0	838860800	57	5945
2026-01-20 00:10:02.02	230.63	46.44	-43.0	-47.6	10.9	1.97e-03	0	62	0	839909376	57	6132
2026-01-20 00:10:03.03	230.36	46.16	-43.1	-47.7	10.7	2.35e-03	0	62	0	842006528	57	6208
2026-01-20 00:10:04.04	230.10	45.89	-43.1	-47.8	10.6	3.49e-03	0	62	0	844103680	57	6306
2026-01-20 00:10:05.05	229.84	45.61	-43.1	-47.8	10.6	3.08e-03	0	62	0	846200832	57	6285
2026-01-20 00:10:06.06	229.59	45.34	-43.0	-47.6	10.8	3.17e-03	0	62	0	848297984	57	6134
2026-01-20 00:10:07.07	229.34	45.06	-43.1	-47.7	10.7	3.09e-03	0	62	0	849346560	57	6241
2026-01-20 00:10:08.08	229.09	44.79	-43.2	-47.8	10.6	3.24e-03	0	62	0	851443712	57	6342
2026-01-20 00:10:09.09	228.85	44.52	-43.2	-48.0	10.4	3.71e-03	0	62	0	853540864	57	6433
2026-01-20 00:10:10.10	228.62	44.25	-43.3	-48.3	10.0	5.65e-03	0	62	0	855638016	57	6705
2026-01-20 00:10:11.11	228.38	43.99	-43.4	-48.4	10.0	8.44e-03	0	62	0	857735168	57	6756
2026-01-20 00:10:12.12	228.15	43.72	-43.4	-48.6	9.8	1.06e-02	0	62	0	858783744	57	6905
2026-01-20 00:10:13.13	227.93	43.45	-43.5	-48.9	9.5	1.28e-02	0	62	0	860880896	57	7132
2026-01-20 00:10:14.14	227.71	43.19	-43.6	-49.1	9.2	1.87e-02	0	62	0	862978048	57	7355
2026-01-20 00:10:15.15	227.49	42.93	-43.6	-49.2	9.1	2.09e-02	0	62	0	865075200	57	7415
2026-01-20 00:10:16.16	227.28	42.67	-43.7	-49.4	8.9	2.50e-02	0	62	0	867172352	57	7566
2026-01-20 00:10:17.17	227.07	42.41	-43.7	-49.5	8.8	2.52e-02	0	62	0	869269504	58	7260
2026-01-20 00:10:18.18	226.86	42.15	-43.8	-49.8	8.5	4.08e-02	0	62	0	870318080	58	7477
2026-01-20 00:10:19.19	226.65	41.89	-43.9	-49.9	8.5	4.63e-02	0	62	0	872415232	58	7551
2026-01-20 00:10:20.20	226.45	41.64	-43.9	-50.0	8.3	5.64e-02	0	62	0	874512384	58	7680
2026-01-20 00:10:21.21	226.26	41.38	-43.9	-50.0	8.3	5.13e-02	0	62	0	876609536	58	7695
2026-01-20 00:10:22.22	226.06	41.13	-44.0	-50.5	7.9	6.84e-02	0	62	0	878706688	58	8093
2026-01-20 00:10:23.23	225.87	40.88	-44.0	-50.4	7.9	7.53e-02	0	62	0	879755264	58	8025
2026-01-20 00:10:24.24	225.68	40.63	-44.1	-50.7	7.6	8.92e-02	0	62	0	881852416	58	8341
2026-01-20 00:10:25.25	225.50	40.38	-44.1	-50.8	7.5	9.58e-02	0	62	0	883949568	58	8445
2026-01-20 00:10:26.26	225.31	40.13	-44.2	-51.2	7.2	1.28e-01	0	62	0	886046720	58	8819
2026-01-20 00:10:27.27	225.13	39.89	-44.1	-50.9	7.3	1.10e-01	0	62	0	888143872	58	8524
2026-01-20 00:10:28.28	224.96	39.64	-44.1	-50.9	7.4	1.14e-01	0	62	0	889192448	58	8525
2026-01-20 00:10:29.28	224.78	39.40	-44.1	-50.9	7.4	1.03e-01	0	62	0	891289600	58	8487
2026-01-20 00:10:30.29	224.61	39.16	-44.4	-52.2	6.1	5.34e-01	0	62	0	893386752	59	9294
2026-01-20 00:10:31.30	224.44	38.92	-44.9	-56.0	3.9	1.22e+00	0	62	104	894435328	60	13660
2026-01-20 00:10:32.31	224.28	38.68	-44.3	-52.2	6.1	7.29e-01	0	62	0	895483904	60	8794
2026-01-20 00:10:33.32	224.11	38.44	-44.9	-56.8	3.9	1.49e+00	0	62	104	895483904	60	15030
2026-01-20 00:10:34.33	223.95	38.21	-44.0	-50.8	7.6	1.04e-01	0	62	0	895483904	60	7465
2026-01-20 00:10:35.34	223.79	37.97	-44.0	-50.4	7.9	8.22e-02	0	62	0	897581056	59	7559
2026-01-20 00:10:36.35	223.63	37.74	-43.9	-50.3	8.0	7.09e-02	0	62	0	899678208	59	7480
2026-01-20 00:10:37.36	223.48	37.51	-43.9	-50.0	8.2	6.24e-02	0	62	0	901775360	59	7279
2026-01-20 00:10:38.37	223.32	37.28	-43.7	-49.6	8.7	4.23e-02	0	62	0	903872512	59	6890
2026-01-20 00:10:39.38	223.17	37.05	-43.7	-49.5	8.8	3.54e-02	0	62	0	904921088	59	6804
2026-01-20 00:10:40.39	223.03	36.82	-43.6	-49.3	9.0	2.86e-02	0	62	0	907018240	59	6669
2026-01-20 00:10:41.40	222.88	36.59	-43.6	-49.1	9.2	2.42e-02	0	62	0	909115392	59	6501
2026-01-20 00:10:42.41	222.73	36.37	-43.3	-48.4	9.9	1.43e-02	0	62	0	911212544	58	6380
2026-01-20 00:10:43.42	222.59	36.14	-43.3	-48.2	10.1	6.70e-03	0	62	0	913309696	58	6254
2026-01-20 00:10:44.43	222.45	35.92	-43.1	-47.9	10.4	5.77e-03	0	62	0	914358272	58	6008
2026-01-20 00:10:45.44	222.31	35.70	-43.1	-47.8	10.5	4.15e-03	0	62	0	916455424	58	5939
2026-01-20 00:10:46.44	222.18	35.48	-43.2	-47.9	10.4	4.42e-03	0	62	0	918552576	58	6060
2026-01-20 00:10:47.45	222.04	35.26	-43.3	-48.2	10.1	5.88e-03	0	62	0	920649728	58	6257
2026-01-20 00:10:48.46	221.91	35.04	-43.3	-48.4	9.9	8.35e-03	0	62	0	922746880	58	6361
2026-01-20 00:10:49.47	221.78	34.83	-43.4	-48.5	9.8	9.35e-03	0	62	0	923795456	58	6441
2026-01-20 00:10:50.48	221.65	34.61	-43.3	-48.3	10.0	9.02e-03	0	62	0	925892608	58	6321
2026-01-20 00:10:51.49	221.52	34.40	-43.3	-48.2	10.1	7.76e-03	0	62	0	927989760	58	6267
2026-01-20 00:10:52.50	221.40	34.19	-43.2	-48.2	10.2	7.95e-03	0	62	0	930086912	58	6210
2026-01-20 00:10:53.51	221.27	33.98	-43.3	-48.2	10.1	6.83e-03	0	62	0	932184064	58	6246
2026-01-20 00:10:54.51	221.15	33.77	-43.2	-48.0	10.2	6.22e-03	0	62	0	933232640	58	6120
2026-01-20 00:10:55.52	221.03	33.56	-43.2	-48.1	10.1	5.30e-03	0	62	0	935329792	58	6192
2026-01-20 00:10:56.53	220.91	33.35	-43.3	-48.4	9.9	8.30e-03	0	62	0	937426944	58	6358
2026-01-20 00:10:57.54	220.79	33.15	-43.4	-48.6	9.7	1.06e-02	0	62	0	939524096	58	6513
2026-01-20 00:10:58.55	220.68	32.94	-43.5	-48.9	9.3	1.38e-02	0	62	0	941621248	58	6782
2026-01-20 00:10:59.56	220.56	32.74	-43.6	-49.3	8.9	2.32e-02	0	62	0	943718400	58	7080
2026-01-20 00:11:00.57	220.45	32.54	-43.7	-49.6	8.7	3.27e-02	0	62	0	944766976	58	7288
2026-01-20 00:11:01.58	220.33	32.34	-43.7	-49.6	8.6	3.62e-02	0	62	0	946864128	58	7311
2026-01-20 00:11:02.59	220.22	32.14	-43.8	-49.7	8.5	4.01e-02	0	62	0	948961280	58	7432
2026-01-20 00:11:03.60	220.11	31.94	-43.8	-49.7	8.5	3.87e-02	0	62	0	951058432	58	7449
2026-01-20 00:11:04.61	220.01	31.74	-43.8	-49.9	8.3	4.37e-02	0	62	0	953155584	58	7615
2026-01-20 00:11:05.61	219.90	31.55	-43.8	-50.0	8.3	5.10e-02	0	62	0	954204160	58	7640
2026-01-20 00:11:06.62	219.80	31.35	-43.8	-50.1	8.1	6.00e-02	0	62	0	956301312	58	7736
2026-01-20 00:11:07.63	219.69	31.16	-43.9	-50.1	8.2	6.29e-02	0	62	0	958398464	58	7732
2026-01-20 00:11:08.64	219.59	30.97	-43.9	-50.2	8.1	5.71e-02	0	62	0	960495616	58	7809
2026-01-20 00:11:09.65	219.49	30.78	-43.8	-49.8	8.4	5.43e-02	0	62	0	961544192	58	7536
2026-01-20 00:11:10.66	219.39	30.58	-43.7	-49.7	8.5	3.94e-02	0	62	0	963641344	58	7424
2026-01-20 00:11:11.67	219.29	30.40	-43.7	-49.6	8.6	3.98e-02	0	62	0	965738496	58	7342
2026-01-20 00:11:12.68	219.19	30.21	-43.7	-49.5	8.7	3.42e-02	0	62	0	967835648	58	7274
2026-01-20 00:11:13.69	219.09	30.02	-43.7	-49.5	8.7	3.67e-02	0	62	0	969932800	58	7258
2026-01-20 00:11:14.70	219.00	29.84	-43.7	-49.6	8.6	3.41e-02	0	62	0	972029952	58	7307
2026-01-20 00:11:15.71	218.90	29.65	-43.7	-49.6	8.6	3.80e-02	0	62	0	973078528	58	7349
2026-01-20 00:11:16.72	218.81	29.47	-43.7	-49.6	8.6	3.95e-02	0	62	0	975175680	58	7352
2026-01-20 00:11:17.73	218.72	29.28	-43.8	-49.8	8.4	4.21e-02	0	62	0	977272832	58	7488
2026-01-20 00:11:18.74	218.63	29.10	-43.8	-49.9	8.3	5.15e-02	0	62	0	979369984	58	7628
2026-01-20 00:11:19.75	218.54	28.92	-43.8	-50.1	8.1	5.99e-02	0	62	0	981467136	58	7772
2026-01-20 00:11:20.76	218.45	28.74	-43.9	-50.2	8.0	7.06e-02	0	62	0	982515712	58	7870
2026-01-20 00:11:21.77	218.36	28.57	-43.9	-50.4	7.8	7.50e-02	0	62	0	984612864	58	8026
2026-01-20 00:11:22.77	218.27	28.39	-43.9	-50.4	7.9	7.85e-02	0	62	0	986710016	58	8028
2026-01-20 00:11:23.78	218.19	28.21	-43.8	-50.0	8.1	7.02e-02	0	62	0	988807168	58	7705
2026-01-20 00:11:24.79	218.10	28.04	-43.8	-49.9	8.3	5.91e-02	0	62	0	990904320	58	7604
2026-01-20 00:11:25.80	218.02	27.87	-43.6	-49.5	8.7	4.10e-02	0	62	0	991952896	58	7217
2026-01-20 00:11:26.81	217.93	27.69	-43.6	-49.4	8.8	3.12e-02	0	62	0	994050048	58	7136
2026-01-20 00:11:27.82	217.85	27.52	-43.5	-49.1	9.2	2.78e-02	0	62	0	996147200	58	6887
2026-01-20 00:11:28.83	217.77	27.35	-43.4	-48.8	9.4	1.81e-02	0	62	0	998244352	58	6662
2026-01-20 00:11:29.84	217.69	27.18	-43.3	-48.5	9.7	1.25e-02	0	62	0	1000341504	58	6431
2026-01-20 00:11:30.85	217.61	27.01	-43.3	-48.5	9.7	9.93e-03	0	62	0	1001390080	58	6455
2026-01-20 00:11:31.86	217.53	26.84	-43.3	-48.4	9.8	9.86e-03	0	62	0	1003487232	58	6395
2026-01-20 00:11:32.87	217.45	26.68	-43.2	-48.2	10.1	8.04e-03	0	62	0	1005584384	58	6219
2026-01-20 00:11:33.88	217.37	26.51	-43.2	-48.1	10.1	6.44e-03	0	62	0	1007681536	58	6195
2026-01-20 00:11:34.89	217.30	26.34	-43.3	-48.4	9.8	8.65e-03	0	62	0	1009778688	58	6348
2026-01-20 00:11:35.90	217.22	26.18	-43.3	-48.5	9.7	1.08e-02	0	62	0	1010827264	58	6487
2026-01-20 00:11:36.91	217.15	26.02	-43.4	-48.7	9.5	1.26e-02	0	62	0	1012924416	58	6606
2026-01-20 00:11:37.92	217.07	25.85	-43.5	-48.9	9.3	1.70e-02	0	62	0	1015021568	58	6754
2026-01-20 00:11:38.93	217.00	25.69	-43.5	-49.0	9.2	2.15e-02	0	62	0	1017118720	58	6835
2026-01-20 00:11:39.94	216.93	25.53	-43.5	-49.0	9.2	2.03e-02	0	62	0	1019215872	58	6818
2026-01-20 00:11:40.95	216.86	25.37	-43.5	-49.1	9.1	2.43e-02	0	62	0	1021313024	58	6929
2026-01-20 00:11:41.96	216.79	25.22	-43.4	-48.9	9.2	1.99e-02	0	62	0	1022361600	58	6794
2026-01-20 00:11:42.97	216.72	25.06	-43.4	-49.0	9.2	1.94e-02	0	62	0	1024458752	58	6809
2026-01-20 00:11:43.98	216.65	24.90	-43.4	-48.8	9.4	2.03e-02	0	62	0	1026555904	58	6662
2026-01-20 00:11:44.99	216.58	24.74	-43.3	-48.5	9.7	1.22e-02	0	62	0	1028653056	58	6435
2026-01-20 00:11:46.00	216.51	24.59	-43.2	-48.4	9.8	1.05e-02	0	62	0	1029701632	58	6362
2026-01-20 00:11:47.01	216.44	24.44	-43.2	-48.3	9.8	9.41e-03	0	62	0	1031798784	58	6341
2026-01-20 00:11:48.02	216.38	24.28	-43.1	-48.1	10.1	8.28e-03	0	62	0	1033895936	58	6163
2026-01-20 00:11:49.03	216.31	24.13	-43.0	-47.8	10.4	4.73e-03	0	62	0	1035993088	58	5932
2026-01-20 00:11:50.04	216.24	23.98	-42.9	-47.6	10.6	4.27e-03	0	62	0	1038090240	57	6197
2026-01-20 00:11:51.04	216.18	23.83	-42.8	-47.4	10.8	3.27e-03	0	62	0	1040187392	57	5997
2026-01-20 00:11:52.05	216.12	23.68	-42.8	-47.3	10.9	2.10e-03	0	62	0	1041235968	57	5934
2026-01-20 00:11:53.06	216.05	23.53	-42.8	-47.3	10.9	2.14e-03	0	62	0	1043333120	57	5936
2026-01-20 00:11:54.07	215.99	23.38	-42.8	-47.2	11.0	2.01e-03	0	62	0	1045430272	57	5901
2026-01-20 00:11:55.08	215.93	23.23	-42.8	-47.2	10.9	2.18e-03	0	62	0	1047527424	57	5906
2026-01-20 00:11:56.09	215.87	23.09	-42.8	-47.3	10.9	2.17e-03	0	62	0	1049624576	57	5938
2026-01-20 00:11:57.10	215.80	22.94	-42.8	-47.2	10.9	2.28e-03	0	62	0	1050673152	57	5919
2026-01-20 00:11:58.11	215.74	22.80	-42.7	-47.1	11.1	1.71e-03	0	62	0	1052770304	57	5808
2026-01-20 00:11:59.12	215.68	22.65	-42.7	-47.1	11.0	1.51e-03	0	62	0	1054867456	57	5842
2026-01-20 00:12:00.13	215.63	22.51	-42.7	-47.2	11.0	1.78e-03	0	62	0	1056964608	57	5864
2026-01-20 00:12:01.14	215.57	22.36	-42.7	-47.1	11.1	1.56e-03	0	62	0	1059061760	57	5799
2026-01-20 00:12:02.15	215.51	22.22	-42.7	-47.1	11.0	1.79e-03	0	62	0	1060110336	57	5830
2026-01-20 00:12:03.16	215.45	22.08	-42.6	-46.9	11.2	1.56e-03	0	62	0	1062207488	57	5710
2026-01-20 00:12:04.17	215.39	21.94	-42.6	-46.9	11.3	1.33e-03	0	62	0	1064304640	57	5709
2026-01-20 00:12:05.18	215.34	21.80	-42.5	-46.8	11.4	1.12e-03	0	62	0	1066401792	57	5621
2026-01-20 00:12:06.18	215.28	21.66	-42.5	-46.6	11.6	7.90e-04	0	62	0	1068498944	56	5828
2026-01-20 00:12:07.19	215.23	21.52	-42.4	-46.6	11.6	6.94e-04	0	62	0	1069547520	56	5827
2026-01-20 00:12:08.20	215.17	21.39	-42.4	-46.6	11.6	6.32e-04	0	62	0	1071644672	56	5802
2026-01-20 00:12:09.21	215.12	21.25	-42.4	-46.5	11.7	6.90e-04	0	62	0	1073741824	56	5757
2026-01-20 00:12:10.22	215.06	21.11	-42.3	-46.4	11.8	5.10e-04	0	62	0	1075838976	56	5660
2026-01-20 00:12:11.23	215.01	20.98	-42.4	-46.5	11.7	5.21e-04	0	62	0	1077936128	56	5727
2026-01-20 00:12:12.24	214.96	20.84	-42.4	-46.4	11.7	6.38e-04	0	62	0	1078984704	56	5712
2026-01-20 00:12:13.25	214.90	20.71	-42.4	-46.5	11.6	5.93e-04	0	62	0	1081081856	56	5764
2026-01-20 00:12:14.26	214.85	20.58	-42.4	-46.6	11.6	7.74e-04	0	62	0	1083179008	56	5825
2026-01-20 00:12:15.27	214.80	20.44	-42.4	-46.6	11.6	7.74e-04	0	62	0	1085276160	56	5820
2026-01-20 00:12:16.28	214.75	20.31	-42.5	-46.8	11.3	8.73e-04	0	62	0	1087373312	56	5987
2026-01-20 00:12:17.29	214.70	20.18	-42.5	-46.8	11.3	1.09e-03	0	62	0	1088421888	56	5951
2026-01-20 00:12:18.30	214.65	20.05	-42.6	-46.9	11.2	1.11e-03	0	62	0	1090519040	56	6019
2026-01-20 00:12:19.30	214.60	19.92	-42.6	-46.9	11.2	1.38e-03	0	62	0	1092616192	56	6050
2026-01-20 00:12:20.31	214.55	19.79	-42.6	-47.0	11.2	1.46e-03	0	62	0	1094713344	56	6084
2026-01-20 00:12:21.33	214.50	19.66	-42.7	-47.1	11.0	1.86e-03	0	62	0	1096810496	56	6200
2026-01-20 00:12:22.34	214.45	19.53	-42.7	-47.1	11.0	1.98e-03	0	62	0	1097859072	56	6195
2026-01-20 00:12:23.34	214.41	19.41	-42.7	-47.3	10.8	1.94e-03	0	62	0	1099956224	56	6289
2026-01-20 00:12:24.35	214.36	19.28	-42.7	-47.1	10.9	2.39e-03	0	62	0	1102053376	56	6202
2026-01-20 00:12:25.36	214.31	19.15	-42.7	-47.3	10.8	2.03e-03	0	62	0	1104150528	56	6303
2026-01-20 00:12:26.37	214.26	19.03	-42.7	-47.3	10.8	2.75e-03	0	62	0	1106247680	56	6318
2026-01-20 00:12:27.38	214.22	18.90	-42.7	-47.2	10.8	2.40e-03	0	62	0	1108344832	56	6262
2026-01-20 00:12:28.39	214.17	18.78	-42.7	-47.3	10.8	2.28e-03	0	62	0	1109393408	56	6291
2026-01-20 00:12:29.40	214.13	18.65	-42.7	-47.3	10.8	2.73e-03	0	62	0	1111490560	56	6298
2026-01-20 00:12:30.41	214.08	18.53	-42.7	-47.2	10.9	2.33e-03	0	62	0	1113587712	56	6240
2026-01-20 00:12:31.42	214.04	18.41	-42.6	-47.2	10.9	2.65e-03	0	62	0	1115684864	56	6216
2026-01-20 00:12:32.43	213.99	18.29	-42.6	-47.1	11.0	2.31e-03	0	62	0	1117782016	56	6168
2026-01-20 00:12:33.44	213.95	18.16	-42.6	-47.1	10.9	2.17e-03	0	62	0	1118830592	56	6199
2026-01-20 00:12:34.44	213.90	18.04	-42.6	-47.0	11.0	1.93e-03	0	62	0	1120927744	56	6115
2026-01-20 00:12:35.46	213.86	17.92	-42.6	-47.0	11.1	1.65e-03	0	62	0	1123024896	56	6093
2026-01-20 00:12:36.47	213.82	17.80	-42.6	-47.1	11.0	1.81e-03	0	62	0	1125122048	56	6153
2026-01-20 00:12:37.48	213.78	17.68	-42.5	-46.9	11.1	1.79e-03	0	62	0	1127219200	56	6027
2026-01-20 00:12:38.49	213.73	17.56	-42.5	-46.8	11.2	1.33e-03	0	62	0	1128267776	56	5991
2026-01-20 00:12:39.50	213.69	17.45	-42.5	-46.8	11.2	1.31e-03	0	62	0	1130364928	56	5967
2026-01-20 00:12:40.51	213.65	17.33	-42.5	-46.9	11.1	1.56e-03	0	62	0	1132462080	56	6026
2026-01-20 00:12:41.51	213.61	17.21	-42.4	-46.7	11.3	1.36e-03	0	62	0	1134559232	56	5922
2026-01-20 00:12:42.52	213.57	17.10	-42.5	-46.8	11.2	1.18e-03	0	62	0	1136656384	56	5958
2026-01-20 00:12:43.53	213.53	16.98	-42.5	-46.9	11.1	1.53e-03	0	62	0	1137704960	56	6051
2026-01-20 00:12:44.54	213.49	16.87	-42.5	-46.8	11.2	1.41e-03	0	62	0	1139802112	56	5963
2026-01-20 00:12:45.55	213.45	16.75	-42.5	-46.9	11.1	1.35e-03	0	62	0	1141899264	56	6042
2026-01-20 00:12:46.56	213.41	16.64	-42.5	-47.0	11.0	1.82e-03	0	62	0	1143996416	56	6111
2026-01-20 00:12:47.57	213.37	16.52	-42.5	-47.0	11.0	2.01e-03	0	62	0	1146093568	56	6119
2026-01-20 00:12:48.58	213.33	16.41	-42.6	-47.2	10.8	2.20e-03	0	62	0	1147142144	56	6229
2026-01-20 00:12:49.58	213.29	16.30	-42.7	-47.3	10.6	3.14e-03	0	62	0	1149239296	56	6339
2026-01-20 00:12:50.59	213.25	16.19	-42.6	-47.3	10.7	3.08e-03	0	62	0	1151336448	56	6287
2026-01-20 00:12:51.60	213.22	16.07	-42.6	-47.3	10.7	3.17e-03	0	62	0	1153433600	56	6287
2026-01-20 00:12:52.61	213.18	15.96	-42.7	-47.4	10.6	3.02e-03	0	62	0	1155530752	56	6365
2026-01-20 00:12:53.62	213.14	15.85	-42.7	-47.4	10.5	4.03e-03	0	62	0	1156579328	56	6390
2026-01-20 00:12:54.63	213.10	15.74	-42.7	-47.4	10.5	3.95e-03	0	62	0	1158676480	56	6417
2026-01-20 00:12:55.64	213.07	15.63	-42.7	-47.5	10.4	4.52e-03	0	62	0	1160773632	56	6459
2026-01-20 00:12:56.65	213.03	15.52	-42.7	-47.5	10.4	4.56e-03	0	62	0	1162870784	56	6484
2026-01-20 00:12:57.66	212.99	15.41	-42.7	-47.6	10.3	4.67e-03	0	62	0	1164967936	56	6532
2026-01-20 00:12:58.67	212.96	15.30	-42.7	-47.6	10.3	5.02e-03	0	62	0	1166016512	56	6527
2026-01-20 00:12:59.68	212.92	15.20	-42.7	-47.6	10.3	5.61e-03	0	62	0	1168113664	56	6495
2026-01-20 00:13:00.68	212.89	15.09	-42.8	-47.7	10.2	5.54e-03	0	62	0	1170210816	56	6615
2026-01-20 00:13:01.69	212.85	14.98	-42.7	-47.6	10.3	5.78e-03	0	62	0	1172307968	56	6533
2026-01-20 00:13:02.70	212.82	14.88	-42.7	-47.6	10.3	5.28e-03	0	62	0	1174405120	56	6519
2026-01-20 00:13:03.71	212.78	14.77	-42.8	-47.7	10.2	6.41e-03	0	62	0	1176502272	56	6589
2026-01-20 00:13:04.72	212.75	14.66	-42.7	-47.6	10.2	6.49e-03	0	62	0	1177550848	56	6518
2026-01-20 00:13:05.73	212.72	14.56	-42.7	-47.7	10.1	5.72e-03	0	62	0	1179648000	56	6584
