passes_logs/2026/01/20/R2.0S_Moscow/R2.0S_Moscow__20260120_014159_NOAA_20_JPSS-1_rec.log

#Pass ID: 20260120_014159_NOAA 20 (JPSS-1)
#Satellite: NOAA 20 (JPSS-1)
#Configuration: NOAA 20
#almurnet v.1.7.20251203
#Start time: 2026-01-20 01:42:00

#Version: 2.2.20231116
#Station: R2.0S_Moscow
#Location: 37.707566 lon 55.798166 lat
#TLE: 1 43013U 17073A   26019.27717929  .00000087  00000+0  62288-4 0  9995
#TLE: 2 43013  98.7641 320.1715 0001339  33.1986 326.9274 14.19537047423343

#Time	Az	El	Level	Level2	SNR	BER	BlckErr	Temp	State	Recorded	gain1	gain2
2026-01-20 01:42:00.17	9.24	2.03	-39.6	-54.6	3.8	1.49e+00	0	53	0	0	51	19509
2026-01-20 01:42:01.17	9.16	2.09	-39.6	-54.6	3.8	1.49e+00	0	53	104	0	50	20734
2026-01-20 01:42:02.18	9.08	2.14	-39.6	-54.6	3.8	1.49e+00	0	53	104	0	50	20730
2026-01-20 01:42:03.19	9.00	2.19	-39.6	-54.6	3.8	1.49e+00	0	53	104	0	50	20724
2026-01-20 01:42:04.20	8.93	2.25	-39.6	-54.6	3.8	1.49e+00	0	53	104	0	50	20703
2026-01-20 01:42:05.21	8.85	2.30	-39.6	-54.6	3.8	1.49e+00	0	54	104	0	50	20748
2026-01-20 01:42:06.22	8.77	2.35	-39.6	-54.6	3.8	1.49e+00	0	54	104	0	50	20680
2026-01-20 01:42:07.23	8.69	2.41	-39.6	-54.6	3.8	1.49e+00	0	54	104	0	50	20665
2026-01-20 01:42:08.24	8.61	2.46	-39.6	-54.6	3.8	1.49e+00	0	54	104	0	50	20685
2026-01-20 01:42:09.25	8.53	2.51	-39.6	-54.6	3.8	1.49e+00	0	54	104	0	50	20690
2026-01-20 01:42:10.26	8.45	2.57	-39.6	-54.6	3.8	1.49e+00	0	54	104	0	50	20687
2026-01-20 01:42:11.27	8.37	2.62	-39.6	-54.6	3.8	1.49e+00	0	54	104	0	50	20723
2026-01-20 01:42:12.28	8.29	2.68	-39.6	-54.6	3.8	1.49e+00	0	54	104	0	50	20722
2026-01-20 01:42:13.29	8.21	2.73	-39.6	-54.6	3.8	1.49e+00	0	54	104	0	50	20695
2026-01-20 01:42:14.30	8.12	2.78	-39.6	-54.6	3.8	1.49e+00	0	54	104	0	50	20691
2026-01-20 01:42:15.32	8.04	2.84	-39.5	-54.6	3.8	1.49e+00	0	54	104	0	50	20702
2026-01-20 01:42:16.33	7.96	2.89	-39.6	-54.6	3.8	1.49e+00	0	55	104	0	50	20707
2026-01-20 01:42:17.34	7.88	2.95	-39.6	-54.6	3.8	1.49e+00	0	54	104	0	50	20694
2026-01-20 01:42:18.35	7.79	3.00	-39.5	-54.6	3.8	1.49e+00	0	55	104	0	50	20664
2026-01-20 01:42:19.36	7.71	3.05	-39.6	-54.6	3.8	1.49e+00	0	54	104	0	50	20703
2026-01-20 01:42:20.37	7.63	3.11	-39.6	-54.6	3.8	1.49e+00	0	55	104	0	50	20728
2026-01-20 01:42:21.38	7.54	3.16	-39.6	-54.6	3.8	1.49e+00	0	55	104	0	50	20673
2026-01-20 01:42:22.39	7.46	3.22	-39.5	-54.6	3.8	1.49e+00	0	55	104	0	50	20733
2026-01-20 01:42:23.40	7.38	3.27	-39.6	-54.6	3.8	1.49e+00	0	55	104	0	50	20706
2026-01-20 01:42:24.41	7.29	3.33	-39.6	-54.6	3.8	1.49e+00	0	55	104	0	50	20717
2026-01-20 01:42:25.42	7.21	3.38	-39.6	-54.6	3.8	1.49e+00	0	55	104	0	50	20708
2026-01-20 01:42:26.43	7.12	3.44	-39.5	-54.6	3.8	1.49e+00	0	55	104	0	50	20698
2026-01-20 01:42:27.44	7.03	3.49	-39.6	-54.6	3.8	1.49e+00	0	55	104	0	50	20718
2026-01-20 01:42:28.45	6.95	3.54	-39.6	-54.6	3.8	1.49e+00	0	55	104	0	50	20716
2026-01-20 01:42:29.46	6.86	3.60	-39.6	-54.6	3.8	1.49e+00	0	55	104	0	50	20687
2026-01-20 01:42:30.47	6.78	3.65	-39.6	-54.6	3.8	1.49e+00	0	55	104	0	50	20689
2026-01-20 01:42:31.48	6.69	3.71	-39.6	-54.6	3.8	1.49e+00	0	55	104	0	50	20691
2026-01-20 01:42:32.49	6.60	3.76	-39.6	-54.6	3.8	1.49e+00	0	55	104	0	50	20725
2026-01-20 01:42:33.51	6.51	3.82	-39.6	-54.6	3.8	1.49e+00	0	55	104	0	50	20687
2026-01-20 01:42:34.52	6.42	3.87	-39.6	-54.6	3.8	1.49e+00	0	55	104	0	50	20688
2026-01-20 01:42:35.53	6.34	3.93	-39.6	-54.6	3.8	1.49e+00	0	56	104	0	50	20692
2026-01-20 01:42:36.54	6.25	3.98	-39.6	-54.6	3.8	1.49e+00	0	56	104	0	50	20698
2026-01-20 01:42:37.55	6.16	4.04	-39.6	-54.6	3.8	1.49e+00	0	56	104	0	50	20707
2026-01-20 01:42:38.56	6.07	4.09	-39.6	-54.6	3.8	1.49e+00	0	56	104	0	50	20711
2026-01-20 01:42:39.57	5.98	4.15	-39.6	-54.6	3.8	1.49e+00	0	56	104	0	50	20692
2026-01-20 01:42:40.58	5.89	4.20	-39.6	-54.6	3.8	1.49e+00	0	56	104	0	50	20689
2026-01-20 01:42:41.59	5.80	4.26	-39.6	-54.6	3.8	1.49e+00	0	56	104	0	50	20743
2026-01-20 01:42:42.60	5.71	4.32	-39.6	-54.6	3.8	1.49e+00	0	56	104	0	50	20700
2026-01-20 01:42:43.61	5.62	4.37	-39.6	-54.6	3.8	1.49e+00	0	56	104	0	50	20676
2026-01-20 01:42:44.62	5.52	4.43	-39.6	-54.6	3.8	1.49e+00	0	56	104	0	50	20680
2026-01-20 01:42:45.63	5.43	4.48	-39.6	-54.6	3.8	1.49e+00	0	56	104	0	50	20697
2026-01-20 01:42:46.64	5.34	4.54	-39.6	-54.6	3.8	1.49e+00	0	56	104	0	50	20668
2026-01-20 01:42:47.65	5.25	4.59	-39.6	-54.6	3.8	1.49e+00	0	56	104	0	50	20698
2026-01-20 01:42:48.66	5.15	4.65	-39.6	-54.6	3.8	1.49e+00	0	56	104	0	50	20713
2026-01-20 01:42:49.67	5.06	4.70	-39.6	-54.6	3.8	1.49e+00	0	56	104	0	50	20701
2026-01-20 01:42:50.68	4.97	4.76	-39.6	-54.6	3.8	1.49e+00	0	56	104	0	50	20726
2026-01-20 01:42:51.69	4.87	4.82	-39.6	-54.6	3.8	1.49e+00	0	56	104	0	50	20708
2026-01-20 01:42:52.70	4.78	4.87	-39.6	-54.6	3.8	1.49e+00	0	56	104	0	50	20678
2026-01-20 01:42:53.71	4.68	4.93	-39.6	-54.6	3.8	1.49e+00	0	56	104	0	50	20719
2026-01-20 01:42:54.73	4.59	4.98	-39.6	-54.6	3.8	1.49e+00	0	57	104	0	50	20710
2026-01-20 01:42:55.74	4.49	5.04	-39.6	-54.6	3.8	1.49e+00	0	57	104	0	50	20639
2026-01-20 01:42:56.75	4.39	5.09	-39.6	-54.6	3.8	1.49e+00	0	57	104	0	50	20748
2026-01-20 01:42:57.76	4.30	5.15	-39.6	-54.6	3.8	1.49e+00	0	57	104	0	50	20685
2026-01-20 01:42:58.77	4.20	5.21	-39.6	-54.6	3.8	1.49e+00	0	57	104	0	50	20644
2026-01-20 01:42:59.78	4.10	5.26	-39.6	-54.6	3.8	1.49e+00	0	57	104	0	50	20696
2026-01-20 01:43:00.79	4.01	5.32	-39.6	-54.6	3.8	1.49e+00	0	57	104	0	50	20666
2026-01-20 01:43:01.80	3.91	5.37	-39.6	-54.6	3.8	1.49e+00	0	57	104	0	50	20685
2026-01-20 01:43:02.81	3.81	5.43	-39.6	-54.6	3.8	1.49e+00	0	57	104	0	50	20682
2026-01-20 01:43:03.82	3.71	5.49	-39.6	-54.6	3.8	1.49e+00	0	57	104	0	50	20615
2026-01-20 01:43:04.83	3.61	5.54	-39.6	-54.6	3.8	1.49e+00	0	57	104	0	50	20674
2026-01-20 01:43:05.84	3.51	5.60	-39.6	-54.6	3.8	1.49e+00	0	57	104	0	50	20660
2026-01-20 01:43:06.86	3.41	5.66	-39.6	-54.6	3.8	1.49e+00	0	57	104	0	50	20618
2026-01-20 01:43:07.87	3.31	5.71	-39.6	-54.6	3.8	1.49e+00	0	57	104	0	50	20678
2026-01-20 01:43:08.88	3.21	5.77	-39.5	-54.6	3.8	1.49e+00	0	57	104	0	50	20705
2026-01-20 01:43:09.89	3.11	5.83	-39.6	-54.6	3.8	1.49e+00	0	57	104	0	50	20679
2026-01-20 01:43:10.90	3.01	5.88	-39.5	-54.6	3.8	1.49e+00	0	57	104	0	50	20687
2026-01-20 01:43:11.91	2.90	5.94	-39.6	-54.6	3.8	1.49e+00	0	57	104	0	50	20656
2026-01-20 01:43:12.92	2.80	6.00	-39.6	-54.6	3.8	1.49e+00	0	57	104	0	50	20644
2026-01-20 01:43:13.93	2.70	6.05	-39.5	-54.6	3.8	1.49e+00	0	57	104	0	50	20654
2026-01-20 01:43:14.94	2.60	6.11	-39.6	-54.6	3.8	1.49e+00	0	57	104	0	50	20626
2026-01-20 01:43:15.95	2.49	6.17	-39.6	-54.6	3.8	1.49e+00	0	58	104	0	50	20720
2026-01-20 01:43:16.96	2.39	6.22	-39.6	-54.6	3.8	1.49e+00	0	58	104	0	50	20641
2026-01-20 01:43:17.97	2.28	6.28	-39.6	-54.6	3.8	1.49e+00	0	57	104	0	50	20660
2026-01-20 01:43:18.98	2.18	6.34	-39.6	-54.6	3.8	1.49e+00	0	58	104	0	50	20626
2026-01-20 01:43:19.99	2.07	6.39	-39.5	-54.6	3.8	1.49e+00	0	58	104	0	50	20674
2026-01-20 01:43:21.00	1.97	6.45	-39.6	-54.6	3.8	1.49e+00	0	58	104	0	50	20606
2026-01-20 01:43:22.01	1.86	6.51	-39.5	-54.6	3.8	1.49e+00	0	58	104	0	50	20692
2026-01-20 01:43:23.03	1.75	6.56	-39.6	-54.6	3.8	1.49e+00	0	58	104	0	50	20666
2026-01-20 01:43:24.04	1.65	6.62	-39.5	-54.6	3.8	1.49e+00	0	58	104	0	50	20680
2026-01-20 01:43:25.05	1.54	6.68	-39.6	-54.6	3.8	1.49e+00	0	58	104	0	50	20638
2026-01-20 01:43:26.06	1.43	6.73	-39.6	-54.6	3.8	1.49e+00	0	58	104	0	50	20634
2026-01-20 01:43:27.07	1.32	6.79	-39.6	-54.6	3.8	1.49e+00	0	58	104	0	50	20628
2026-01-20 01:43:28.08	1.21	6.85	-39.5	-54.6	3.8	1.49e+00	0	58	104	0	50	20611
2026-01-20 01:43:29.09	1.10	6.90	-39.5	-54.6	3.8	1.49e+00	0	58	104	0	50	20656
2026-01-20 01:43:30.10	0.99	6.96	-39.6	-54.6	3.8	1.49e+00	0	58	104	0	50	20676
2026-01-20 01:43:31.11	0.88	7.02	-39.6	-54.6	3.8	1.49e+00	0	58	104	0	50	20654
2026-01-20 01:43:32.12	0.77	7.08	-39.6	-54.6	3.8	1.49e+00	0	58	104	0	50	20666
2026-01-20 01:43:33.13	0.66	7.13	-39.6	-54.6	3.8	1.49e+00	0	58	104	0	50	20640
2026-01-20 01:43:34.14	0.55	7.19	-39.5	-54.6	3.8	1.49e+00	0	58	104	0	50	20603
2026-01-20 01:43:35.15	0.44	7.25	-39.5	-54.6	3.8	1.49e+00	0	58	104	0	50	20630
2026-01-20 01:43:36.16	0.33	7.30	-39.6	-54.6	3.8	1.49e+00	0	58	104	0	50	20637
2026-01-20 01:43:37.17	0.21	7.36	-39.5	-54.6	3.8	1.49e+00	0	58	104	0	50	20639
2026-01-20 01:43:38.18	0.10	7.42	-39.6	-54.6	3.8	1.49e+00	0	58	104	0	50	20651
2026-01-20 01:43:39.19	359.99	7.48	-39.6	-54.6	3.8	1.49e+00	0	59	104	0	50	20634
2026-01-20 01:43:40.20	359.87	7.53	-39.5	-54.6	3.8	1.49e+00	0	58	104	0	50	20640
2026-01-20 01:43:41.21	359.76	7.59	-39.6	-54.6	3.8	1.49e+00	0	58	104	0	50	20650
2026-01-20 01:43:42.22	359.64	7.65	-39.6	-54.6	3.8	1.49e+00	0	59	104	0	50	20602
2026-01-20 01:43:43.23	359.53	7.71	-39.6	-54.6	3.8	1.49e+00	0	58	104	0	50	20684
2026-01-20 01:43:44.24	359.41	7.76	-39.6	-54.6	3.8	1.49e+00	0	58	104	0	50	20570
2026-01-20 01:43:45.26	359.29	7.82	-39.6	-54.6	3.8	1.49e+00	0	59	104	0	50	20668
2026-01-20 01:43:46.26	359.18	7.88	-39.6	-54.6	3.8	1.49e+00	0	59	104	0	50	20684
2026-01-20 01:43:47.27	359.06	7.94	-39.6	-54.6	3.8	1.49e+00	0	59	104	0	50	20554
2026-01-20 01:43:48.28	358.94	7.99	-39.6	-54.6	3.8	1.49e+00	0	58	104	0	50	20641
2026-01-20 01:43:49.29	358.82	8.05	-39.6	-54.6	3.8	1.49e+00	0	59	104	0	50	20715
2026-01-20 01:43:50.30	358.70	8.11	-39.6	-54.6	3.8	1.49e+00	0	59	104	0	50	20701
2026-01-20 01:43:51.31	358.58	8.16	-39.8	-54.7	3.8	1.49e+00	0	59	104	0	50	20881
2026-01-20 01:43:52.32	358.46	8.22	-39.6	-54.7	3.8	1.49e+00	0	59	104	0	50	20996
2026-01-20 01:43:53.33	358.34	8.28	-39.8	-54.7	3.8	1.49e+00	0	59	104	0	50	20979
2026-01-20 01:43:54.34	358.22	8.34	-39.4	-54.7	3.8	1.49e+00	0	59	104	0	50	20803
2026-01-20 01:43:55.35	358.10	8.39	-39.6	-54.8	3.8	1.49e+00	0	59	104	0	50	21025
2026-01-20 01:43:56.36	357.98	8.45	-39.8	-54.7	3.8	1.49e+00	0	59	104	0	50	20843
2026-01-20 01:43:57.37	357.86	8.51	-39.7	-54.7	3.8	1.49e+00	0	59	104	0	50	20965
2026-01-20 01:43:58.38	357.73	8.57	-39.4	-54.7	3.8	1.49e+00	0	59	104	0	50	20816
2026-01-20 01:43:59.39	357.61	8.62	-39.5	-54.8	3.8	1.49e+00	0	58	104	0	50	21042
2026-01-20 01:44:00.40	357.49	8.68	-39.8	-54.7	3.8	1.49e+00	0	59	104	0	50	20882
2026-01-20 01:44:01.40	357.36	8.74	-39.4	-54.8	3.8	1.49e+00	0	59	104	0	50	21045
2026-01-20 01:44:02.41	357.24	8.80	-39.4	-54.7	3.8	1.49e+00	0	59	104	0	50	20800
2026-01-20 01:44:03.42	357.11	8.85	-39.6	-54.7	3.8	1.49e+00	0	59	104	0	50	20991
2026-01-20 01:44:04.43	356.99	8.91	-39.4	-54.7	3.8	1.49e+00	0	59	104	0	50	20971
2026-01-20 01:44:05.44	356.86	8.97	-39.5	-54.7	3.8	1.49e+00	0	59	104	0	50	20933
2026-01-20 01:44:06.45	356.73	9.03	-39.5	-54.7	3.8	1.49e+00	0	59	104	0	50	20833
2026-01-20 01:44:07.46	356.60	9.08	-39.7	-54.7	3.8	1.49e+00	0	59	104	0	50	21003
2026-01-20 01:44:08.47	356.48	9.14	-39.5	-54.7	3.8	1.49e+00	0	59	104	0	50	20909
2026-01-20 01:44:09.48	356.35	9.20	-39.7	-54.7	3.8	1.49e+00	0	59	104	0	50	20890
2026-01-20 01:44:10.49	356.22	9.26	-39.7	-54.7	3.8	1.49e+00	0	59	104	0	50	20889
2026-01-20 01:44:11.50	356.09	9.31	-39.7	-54.7	3.8	1.49e+00	0	59	104	0	50	21004
2026-01-20 01:44:12.51	355.96	9.37	-39.6	-54.7	3.8	1.49e+00	0	59	104	0	50	20902
2026-01-20 01:44:13.52	355.83	9.43	-39.7	-54.7	3.8	1.49e+00	0	59	104	0	50	20972
2026-01-20 01:44:14.53	355.70	9.49	-39.9	-54.8	3.8	1.49e+00	0	59	104	0	50	21085
2026-01-20 01:44:15.54	355.57	9.54	-39.9	-54.8	3.8	1.49e+00	0	59	104	0	51	19925
2026-01-20 01:44:16.55	355.43	9.60	-39.7	-54.8	3.8	1.49e+00	0	60	104	0	51	19979
2026-01-20 01:44:17.56	355.30	9.66	-40.0	-54.8	3.8	1.49e+00	0	59	104	0	51	20015
2026-01-20 01:44:18.57	355.17	9.72	-40.1	-54.9	3.8	1.49e+00	0	60	104	0	51	20090
2026-01-20 01:44:19.58	355.03	9.77	-40.2	-54.9	3.8	1.49e+00	0	59	104	0	51	20143
2026-01-20 01:44:20.59	354.90	9.83	-40.2	-54.9	3.8	1.49e+00	0	59	104	0	51	20292
2026-01-20 01:44:21.60	354.76	9.89	-40.2	-54.9	3.8	1.49e+00	0	59	104	0	51	20164
2026-01-20 01:44:22.61	354.63	9.95	-40.2	-54.9	3.8	1.49e+00	0	59	104	0	51	20228
2026-01-20 01:44:23.62	354.49	10.00	-40.3	-55.0	3.8	1.49e+00	0	59	104	0	51	20347
2026-01-20 01:44:24.63	354.36	10.06	-40.3	-55.0	3.8	1.49e+00	0	60	104	0	51	20484
2026-01-20 01:44:25.64	354.22	10.12	-40.2	-54.9	3.8	1.49e+00	0	60	104	0	51	20229
2026-01-20 01:44:26.65	354.08	10.17	-40.3	-55.0	3.8	1.49e+00	0	59	104	0	51	20353
2026-01-20 01:44:27.66	353.94	10.23	-40.3	-55.0	3.8	1.49e+00	0	59	104	0	51	20482
2026-01-20 01:44:28.67	353.80	10.29	-40.3	-55.0	3.8	1.49e+00	0	59	104	0	51	20534
2026-01-20 01:44:29.68	353.66	10.35	-40.3	-55.0	3.8	1.49e+00	0	59	104	0	51	20347
2026-01-20 01:44:30.69	353.52	10.40	-40.4	-55.1	3.8	1.49e+00	0	60	104	0	51	20656
2026-01-20 01:44:31.70	353.38	10.46	-40.3	-55.0	3.8	1.49e+00	0	60	104	0	51	20514
2026-01-20 01:44:32.71	353.24	10.52	-40.2	-55.0	3.8	1.49e+00	0	59	104	0	51	20487
2026-01-20 01:44:33.72	353.10	10.57	-40.4	-55.1	3.8	1.49e+00	0	60	104	0	51	20557
2026-01-20 01:44:34.72	352.96	10.63	-40.4	-55.2	3.8	1.49e+00	0	60	104	0	51	20989
2026-01-20 01:44:35.73	352.82	10.69	-40.3	-55.0	3.8	1.49e+00	0	60	104	0	51	20519
2026-01-20 01:44:36.74	352.68	10.74	-40.3	-55.2	3.8	1.49e+00	0	60	104	0	51	20877
2026-01-20 01:44:37.75	352.53	10.80	-40.4	-55.2	3.8	1.49e+00	0	59	104	0	51	20887
2026-01-20 01:44:38.76	352.39	10.86	-40.4	-55.3	3.8	1.49e+00	0	60	104	0	51	21072
2026-01-20 01:44:39.77	352.24	10.91	-40.4	-55.2	3.8	1.49e+00	0	60	104	0	51	20815
2026-01-20 01:44:40.78	352.10	10.97	-40.7	-55.4	3.8	1.49e+00	0	60	104	0	52	20112
2026-01-20 01:44:41.79	351.95	11.03	-40.2	-55.1	3.8	1.49e+00	0	60	104	0	52	19477
2026-01-20 01:44:42.80	351.80	11.08	-40.5	-55.3	3.8	1.49e+00	0	60	104	0	52	20064
2026-01-20 01:44:43.81	351.66	11.14	-40.5	-55.3	3.8	1.49e+00	0	60	104	0	52	19881
2026-01-20 01:44:44.82	351.51	11.20	-40.7	-55.3	3.8	1.49e+00	0	60	104	0	52	19935
2026-01-20 01:44:45.83	351.36	11.25	-40.3	-55.1	3.8	1.49e+00	0	60	104	0	52	19517
2026-01-20 01:44:46.84	351.21	11.31	-40.9	-55.5	3.8	1.49e+00	0	60	104	0	52	20499
2026-01-20 01:44:47.85	351.06	11.37	-40.5	-55.3	3.8	1.49e+00	0	60	104	0	52	19872
2026-01-20 01:44:48.86	350.91	11.42	-40.6	-55.3	3.8	1.49e+00	0	60	104	0	52	19941
2026-01-20 01:44:49.87	350.76	11.48	-40.6	-55.3	3.8	1.49e+00	0	60	104	0	52	19953
2026-01-20 01:44:50.88	350.61	11.53	-40.8	-55.4	3.8	1.49e+00	0	60	104	0	52	20282
2026-01-20 01:44:51.89	350.46	11.59	-40.7	-55.4	3.8	1.49e+00	0	60	104	0	52	20159
2026-01-20 01:44:52.90	350.30	11.65	-40.7	-55.4	3.8	1.49e+00	0	60	104	0	52	20192
2026-01-20 01:44:53.91	350.15	11.70	-40.6	-55.3	3.8	1.49e+00	0	60	104	0	52	20023
2026-01-20 01:44:54.92	350.00	11.76	-40.8	-55.5	3.8	1.49e+00	0	60	104	0	52	20392
2026-01-20 01:44:55.93	349.84	11.81	-40.9	-55.6	3.8	1.49e+00	0	60	104	0	52	20548
2026-01-20 01:44:56.93	349.69	11.87	-40.7	-55.4	3.8	1.49e+00	0	60	104	0	52	20123
2026-01-20 01:44:57.94	349.53	11.92	-40.7	-55.4	3.8	1.49e+00	0	60	104	0	52	20283
2026-01-20 01:44:58.95	349.38	11.98	-41.0	-55.7	3.8	1.49e+00	0	60	104	0	52	20894
2026-01-20 01:44:59.96	349.22	12.04	-40.8	-55.4	3.8	1.49e+00	0	60	104	0	52	20234
2026-01-20 01:45:00.97	349.06	12.09	-40.8	-55.6	3.8	1.49e+00	0	60	104	0	52	20679
2026-01-20 01:45:01.98	348.90	12.15	-40.9	-55.6	3.8	1.49e+00	0	60	104	0	52	20768
2026-01-20 01:45:02.99	348.75	12.20	-41.1	-55.7	3.8	1.49e+00	0	60	104	0	52	21006
2026-01-20 01:45:04.00	348.59	12.26	-40.8	-55.5	3.8	1.49e+00	0	60	104	0	52	20313
2026-01-20 01:45:05.01	348.43	12.31	-41.2	-55.9	3.8	1.49e+00	0	60	104	0	52	21321
2026-01-20 01:45:06.02	348.27	12.37	-40.9	-55.7	3.8	1.49e+00	0	60	104	0	52	20800
2026-01-20 01:45:07.03	348.11	12.42	-41.1	-55.8	3.8	1.49e+00	0	60	104	0	52	21252
2026-01-20 01:45:08.04	347.94	12.48	-41.0	-55.7	3.8	1.49e+00	0	60	104	0	52	20948
2026-01-20 01:45:09.05	347.78	12.53	-41.2	-55.8	3.8	1.49e+00	0	60	104	0	52	21175
2026-01-20 01:45:10.05	347.62	12.58	-41.0	-55.7	3.8	1.49e+00	0	60	104	0	52	20914
2026-01-20 01:45:11.06	347.46	12.64	-41.2	-55.9	3.8	1.49e+00	0	60	104	0	52	21269
2026-01-20 01:45:12.07	347.29	12.69	-41.1	-55.8	3.8	1.49e+00	0	60	104	0	52	21052
2026-01-20 01:45:13.08	347.13	12.75	-41.1	-55.8	3.8	1.49e+00	0	60	104	0	52	21245
2026-01-20 01:45:14.09	346.96	12.80	-41.1	-55.7	3.8	1.49e+00	0	60	104	0	52	20921
2026-01-20 01:45:15.10	346.80	12.85	-41.1	-55.7	3.8	1.49e+00	0	60	104	0	52	20865
2026-01-20 01:45:16.11	346.63	12.91	-41.1	-55.8	3.8	1.49e+00	0	60	104	0	52	21224
2026-01-20 01:45:17.12	346.46	12.96	-41.2	-55.9	3.8	1.49e+00	0	60	104	0	52	21312
2026-01-20 01:45:18.13	346.30	13.01	-40.9	-55.5	3.8	1.49e+00	0	60	104	0	52	20443
2026-01-20 01:45:19.14	346.13	13.07	-40.9	-55.6	3.8	1.49e+00	0	60	104	0	52	20546
2026-01-20 01:45:20.15	345.96	13.12	-41.2	-55.9	3.8	1.49e+00	0	60	104	0	52	21265
2026-01-20 01:45:21.16	345.79	13.17	-41.0	-55.6	3.8	1.49e+00	0	60	104	0	52	20704
2026-01-20 01:45:22.17	345.62	13.23	-40.6	-55.3	3.8	1.49e+00	0	60	104	0	52	20020
2026-01-20 01:45:23.18	345.45	13.28	-40.9	-55.6	3.8	1.49e+00	0	60	104	0	52	20627
2026-01-20 01:45:24.19	345.28	13.33	-41.0	-55.7	3.8	1.49e+00	0	61	104	0	52	20829
2026-01-20 01:45:25.20	345.10	13.39	-40.7	-55.4	3.8	1.49e+00	0	61	104	0	52	20229
2026-01-20 01:45:26.21	344.93	13.44	-40.5	-55.4	3.8	1.49e+00	0	60	104	0	52	20084
2026-01-20 01:45:27.22	344.76	13.49	-40.9	-55.5	3.8	1.49e+00	0	61	104	0	52	20474
2026-01-20 01:45:28.22	344.58	13.54	-40.9	-55.5	3.8	1.49e+00	0	60	104	0	52	20484
2026-01-20 01:45:29.23	344.41	13.59	-40.7	-55.4	3.8	1.49e+00	0	60	104	0	52	20234
2026-01-20 01:45:30.24	344.23	13.65	-40.6	-55.3	3.8	1.49e+00	0	60	104	0	52	20010
2026-01-20 01:45:31.25	344.06	13.70	-40.7	-55.3	3.8	1.49e+00	0	61	104	0	52	20058
2026-01-20 01:45:32.26	343.88	13.75	-40.9	-55.6	3.8	1.49e+00	0	60	104	0	52	20639
2026-01-20 01:45:33.27	343.70	13.80	-40.5	-55.3	3.8	1.49e+00	0	60	104	0	52	19935
2026-01-20 01:45:34.28	343.53	13.85	-40.7	-55.3	3.8	1.49e+00	0	61	104	0	52	19903
2026-01-20 01:45:35.29	343.35	13.90	-40.7	-55.4	3.8	1.49e+00	0	61	104	0	52	20125
2026-01-20 01:45:36.30	343.17	13.95	-40.7	-55.4	3.8	1.49e+00	0	61	104	0	52	20127
2026-01-20 01:45:37.31	342.99	14.00	-40.6	-55.3	3.8	1.49e+00	0	61	104	0	52	19971
2026-01-20 01:45:38.32	342.81	14.05	-40.7	-55.4	3.8	1.49e+00	0	61	104	0	52	20073
2026-01-20 01:45:39.33	342.63	14.10	-40.6	-55.3	3.8	1.49e+00	0	61	104	0	52	19956
2026-01-20 01:45:40.34	342.45	14.15	-40.6	-55.3	3.8	1.49e+00	0	61	104	0	52	20017
2026-01-20 01:45:41.35	342.27	14.20	-40.6	-55.3	3.8	1.49e+00	0	61	104	0	52	19964
2026-01-20 01:45:42.36	342.08	14.25	-40.5	-55.3	3.8	1.49e+00	0	61	104	0	52	19872
2026-01-20 01:45:43.37	341.90	14.30	-40.6	-55.3	3.8	1.49e+00	0	61	104	0	52	19942
2026-01-20 01:45:44.38	341.71	14.35	-40.6	-55.3	3.8	1.49e+00	0	61	104	0	52	20012
2026-01-20 01:45:45.38	341.53	14.40	-40.6	-55.2	3.8	1.49e+00	0	61	104	0	52	19795
2026-01-20 01:45:46.39	341.35	14.45	-40.7	-55.4	3.8	1.49e+00	0	60	104	0	52	20270
2026-01-20 01:45:47.40	341.16	14.50	-40.7	-55.4	3.8	1.49e+00	0	61	104	0	52	20277
2026-01-20 01:45:48.41	340.97	14.55	-40.6	-55.2	3.8	1.49e+00	0	61	104	0	52	19781
2026-01-20 01:45:49.42	340.79	14.60	-40.6	-55.4	3.8	1.49e+00	0	61	104	0	52	20204
2026-01-20 01:45:50.43	340.60	14.64	-41.0	-55.7	3.8	1.49e+00	0	61	104	0	52	20903
2026-01-20 01:45:51.44	340.41	14.69	-40.9	-55.5	3.8	1.49e+00	0	61	104	0	52	20476
2026-01-20 01:45:52.45	340.22	14.74	-40.6	-55.4	3.8	1.49e+00	0	61	104	0	52	20143
2026-01-20 01:45:53.46	340.03	14.79	-40.9	-55.5	3.8	1.49e+00	0	61	104	0	52	20354
2026-01-20 01:45:54.47	339.84	14.83	-41.3	-55.5	3.8	1.49e+00	0	61	104	0	53	19272
2026-01-20 01:45:55.48	339.65	14.88	-41.2	-54.1	3.8	1.49e+00	0	61	104	0	53	16317
2026-01-20 01:45:56.48	339.46	14.93	-41.2	-52.6	4.2	1.46e+00	0	61	0	0	53	13770
2026-01-20 01:45:57.49	339.27	14.97	-41.3	-50.8	5.0	1.12e+00	0	61	0	1048576	53	11172
2026-01-20 01:45:58.50	339.08	15.02	-41.2	-49.0	6.4	3.35e-01	0	61	0	3145728	53	9128
2026-01-20 01:45:59.51	338.88	15.07	-41.1	-47.7	7.8	1.21e-01	0	61	0	5242880	53	7821
2026-01-20 01:46:00.52	338.69	15.11	-41.0	-46.5	9.2	4.11e-02	0	61	0	6291456	53	6857
2026-01-20 01:46:01.53	338.50	15.16	-41.0	-46.3	9.6	1.26e-02	0	61	0	8388608	53	6656
2026-01-20 01:46:02.54	338.30	15.20	-40.9	-45.8	10.2	7.78e-03	0	61	0	10485760	53	6345
2026-01-20 01:46:03.55	338.10	15.25	-40.9	-45.6	10.5	4.58e-03	0	61	0	12582912	53	6201
2026-01-20 01:46:04.56	337.91	15.29	-41.2	-46.1	10.1	6.04e-03	0	61	0	14680064	53	6530
2026-01-20 01:46:05.57	337.71	15.34	-41.5	-46.8	9.6	1.03e-02	0	61	0	15728640	53	7044
2026-01-20 01:46:06.58	337.51	15.38	-41.7	-47.1	9.3	1.70e-02	0	61	0	17825792	53	7353
2026-01-20 01:46:07.59	337.32	15.43	-41.6	-46.7	9.8	1.72e-02	0	61	0	19922944	53	6975
2026-01-20 01:46:08.60	337.12	15.47	-41.6	-46.5	10.1	7.16e-03	0	61	0	22020096	53	6845
2026-01-20 01:46:09.61	336.92	15.51	-42.0	-47.4	9.3	1.01e-02	0	61	0	24117248	54	7144
2026-01-20 01:46:10.62	336.72	15.56	-41.9	-46.9	9.9	1.63e-02	0	61	0	25165824	54	6799
2026-01-20 01:46:11.63	336.52	15.60	-41.8	-46.5	10.5	4.40e-03	0	61	0	27262976	54	6453
2026-01-20 01:46:12.63	336.32	15.64	-42.0	-46.9	10.1	5.54e-03	0	61	0	29360128	54	6746
2026-01-20 01:46:13.64	336.12	15.68	-41.9	-46.7	10.3	6.24e-03	0	61	0	31457280	54	6637
2026-01-20 01:46:14.65	335.91	15.73	-41.9	-46.6	10.5	4.12e-03	0	61	0	33554432	54	6509
2026-01-20 01:46:15.66	335.71	15.77	-41.9	-46.6	10.5	4.12e-03	0	61	0	34603008	54	6520
2026-01-20 01:46:16.67	335.51	15.81	-41.9	-46.6	10.6	3.86e-03	0	61	0	36700160	54	6501
2026-01-20 01:46:17.68	335.30	15.85	-41.9	-46.4	10.8	3.04e-03	0	61	0	38797312	54	6416
2026-01-20 01:46:18.69	335.10	15.89	-41.8	-46.1	11.2	1.52e-03	0	61	0	40894464	54	6144
2026-01-20 01:46:19.70	334.89	15.93	-41.7	-46.0	11.3	1.35e-03	0	61	0	42991616	54	6070
2026-01-20 01:46:20.72	334.69	15.97	-41.8	-46.0	11.4	8.11e-04	0	61	0	44040192	54	6099
2026-01-20 01:46:21.72	334.48	16.01	-41.8	-46.0	11.4	1.08e-03	0	61	0	46137344	54	6125
2026-01-20 01:46:22.73	334.28	16.05	-41.8	-46.0	11.4	1.06e-03	0	61	0	48234496	54	6129
2026-01-20 01:46:23.74	334.07	16.09	-41.8	-46.0	11.4	8.71e-04	0	61	0	50331648	54	6124
2026-01-20 01:46:24.75	333.86	16.13	-41.8	-45.9	11.5	9.17e-04	0	61	0	52428800	54	6043
2026-01-20 01:46:25.76	333.65	16.17	-41.7	-45.7	11.7	6.56e-04	0	61	0	53477376	54	5911
2026-01-20 01:46:26.77	333.44	16.21	-41.6	-45.5	12.0	4.32e-04	0	61	0	55574528	54	5757
2026-01-20 01:46:27.78	333.23	16.25	-41.5	-45.3	12.2	2.66e-04	0	61	0	57671680	54	5647
2026-01-20 01:46:28.79	333.02	16.28	-41.6	-45.4	12.1	2.48e-04	0	61	0	59768832	54	5689
2026-01-20 01:46:29.80	332.81	16.32	-41.5	-45.2	12.4	1.96e-04	0	61	0	61865984	54	5580
2026-01-20 01:46:30.81	332.60	16.36	-41.5	-45.2	12.4	1.46e-04	0	61	0	63963136	54	5556
2026-01-20 01:46:31.82	332.39	16.40	-41.5	-45.3	12.3	1.81e-04	0	61	0	65011712	54	5616
2026-01-20 01:46:32.83	332.18	16.43	-41.6	-45.3	12.3	2.01e-04	0	61	0	67108864	54	5640
2026-01-20 01:46:33.84	331.97	16.47	-41.5	-45.2	12.4	1.59e-04	0	61	0	69206016	54	5590
2026-01-20 01:46:34.85	331.75	16.50	-41.5	-45.2	12.4	1.65e-04	0	61	0	71303168	54	5572
2026-01-20 01:46:35.86	331.54	16.54	-41.5	-45.2	12.4	1.30e-04	0	61	0	73400320	54	5564
2026-01-20 01:46:36.87	331.33	16.57	-41.5	-45.2	12.4	1.61e-04	0	61	0	74448896	54	5566
2026-01-20 01:46:37.88	331.11	16.61	-41.5	-45.2	12.4	1.29e-04	0	61	0	76546048	54	5589
2026-01-20 01:46:38.88	330.90	16.64	-41.5	-45.2	12.4	1.33e-04	0	61	0	78643200	54	5575
2026-01-20 01:46:39.89	330.68	16.68	-41.5	-45.2	12.5	1.23e-04	0	61	0	80740352	54	5559
2026-01-20 01:46:40.90	330.47	16.71	-41.5	-45.2	12.4	1.21e-04	0	61	0	82837504	54	5582
2026-01-20 01:46:41.91	330.25	16.74	-41.6	-45.3	12.3	1.75e-04	0	61	0	83886080	54	5636
2026-01-20 01:46:42.92	330.03	16.78	-41.5	-45.3	12.4	1.66e-04	0	61	0	85983232	54	5597
2026-01-20 01:46:43.93	329.81	16.81	-41.5	-45.1	12.5	1.30e-04	0	61	0	88080384	54	5517
2026-01-20 01:46:44.94	329.60	16.84	-41.4	-45.0	12.7	9.46e-05	0	61	0	90177536	54	5450
2026-01-20 01:46:45.95	329.38	16.87	-41.5	-45.2	12.5	1.11e-04	0	61	0	92274688	54	5558
2026-01-20 01:46:46.96	329.16	16.90	-41.5	-45.1	12.6	1.02e-04	0	61	0	93323264	54	5487
2026-01-20 01:46:47.97	328.94	16.93	-41.5	-45.1	12.6	8.39e-05	0	61	0	95420416	54	5493
2026-01-20 01:46:48.98	328.72	16.97	-41.5	-45.1	12.6	9.38e-05	0	61	0	97517568	54	5511
2026-01-20 01:46:49.99	328.50	17.00	-41.5	-45.2	12.5	1.14e-04	0	61	0	99614720	54	5543
2026-01-20 01:46:51.00	328.28	17.02	-41.6	-45.3	12.4	1.31e-04	0	61	0	101711872	54	5621
2026-01-20 01:46:52.01	328.06	17.05	-41.6	-45.3	12.4	1.56e-04	0	61	0	102760448	54	5635
2026-01-20 01:46:53.02	327.83	17.08	-41.6	-45.4	12.3	1.57e-04	0	61	0	104857600	54	5659
2026-01-20 01:46:54.03	327.61	17.11	-41.6	-45.4	12.3	1.81e-04	0	61	0	106954752	54	5697
2026-01-20 01:46:55.04	327.39	17.14	-41.7	-45.4	12.2	2.04e-04	0	61	0	109051904	54	5718
2026-01-20 01:46:56.04	327.17	17.17	-41.7	-45.4	12.3	1.89e-04	0	61	0	111149056	54	5714
2026-01-20 01:46:57.05	326.94	17.19	-41.7	-45.4	12.3	1.84e-04	0	61	0	112197632	54	5710
2026-01-20 01:46:58.06	326.72	17.22	-41.7	-45.4	12.3	2.02e-04	0	61	0	114294784	54	5721
2026-01-20 01:46:59.07	326.50	17.25	-41.7	-45.5	12.2	1.98e-04	0	61	0	116391936	54	5739
2026-01-20 01:47:00.08	326.27	17.27	-41.7	-45.5	12.3	2.10e-04	0	61	0	118489088	54	5743
2026-01-20 01:47:01.09	326.05	17.30	-41.7	-45.4	12.3	1.98e-04	0	61	0	120586240	54	5700
2026-01-20 01:47:02.10	325.82	17.32	-41.6	-45.4	12.3	1.56e-04	0	61	0	121634816	54	5681
2026-01-20 01:47:03.11	325.60	17.35	-41.7	-45.4	12.3	1.91e-04	0	61	0	123731968	54	5711
2026-01-20 01:47:04.12	325.37	17.37	-41.7	-45.4	12.3	1.96e-04	0	61	0	125829120	54	5709
2026-01-20 01:47:05.13	325.14	17.40	-41.6	-45.3	12.4	1.62e-04	0	61	0	127926272	54	5635
2026-01-20 01:47:06.14	324.92	17.42	-41.7	-45.5	12.2	1.70e-04	0	61	0	130023424	54	5728
2026-01-20 01:47:07.15	324.69	17.44	-41.7	-45.4	12.4	1.99e-04	0	61	0	132120576	54	5675
2026-01-20 01:47:08.16	324.46	17.47	-41.7	-45.4	12.3	1.88e-04	0	61	0	133169152	54	5715
2026-01-20 01:47:09.17	324.23	17.49	-41.7	-45.4	12.3	1.81e-04	0	61	0	135266304	54	5721
2026-01-20 01:47:10.18	324.00	17.51	-41.8	-45.6	12.1	2.19e-04	0	61	0	137363456	54	5812
2026-01-20 01:47:11.19	323.78	17.53	-41.8	-45.7	12.1	2.90e-04	0	61	0	139460608	54	5857
2026-01-20 01:47:12.20	323.55	17.55	-41.8	-45.7	12.0	3.22e-04	0	61	0	141557760	54	5889
2026-01-20 01:47:13.21	323.32	17.57	-41.9	-45.8	11.9	3.97e-04	0	61	0	142606336	54	5990
2026-01-20 01:47:14.21	323.09	17.59	-41.9	-45.9	11.8	3.84e-04	0	61	0	144703488	54	6030
2026-01-20 01:47:15.22	322.86	17.61	-42.0	-46.0	11.7	4.99e-04	0	61	0	146800640	54	6125
2026-01-20 01:47:16.23	322.63	17.63	-42.0	-46.0	11.7	5.42e-04	0	61	0	148897792	54	6086
2026-01-20 01:47:17.24	322.40	17.65	-42.0	-46.1	11.6	6.19e-04	0	61	0	150994944	54	6163
2026-01-20 01:47:18.25	322.17	17.67	-42.0	-46.1	11.6	7.77e-04	0	62	0	152043520	54	6183
2026-01-20 01:47:19.26	321.94	17.68	-42.0	-46.1	11.6	7.73e-04	0	62	0	154140672	54	6201
2026-01-20 01:47:20.27	321.71	17.70	-42.0	-46.1	11.7	6.82e-04	0	62	0	156237824	54	6136
2026-01-20 01:47:21.28	321.47	17.72	-42.0	-46.1	11.7	5.95e-04	0	61	0	158334976	54	6139
2026-01-20 01:47:22.29	321.24	17.73	-42.0	-46.0	11.7	6.22e-04	0	61	0	160432128	54	6123
2026-01-20 01:47:23.30	321.01	17.75	-42.0	-46.0	11.7	6.28e-04	0	61	0	161480704	54	6100
2026-01-20 01:47:24.31	320.78	17.76	-42.0	-46.1	11.7	5.06e-04	0	62	0	163577856	54	6156
2026-01-20 01:47:25.32	320.55	17.78	-41.9	-45.9	11.8	5.37e-04	0	61	0	165675008	54	6051
2026-01-20 01:47:26.33	320.31	17.79	-42.0	-46.0	11.8	4.96e-04	0	61	0	167772160	54	6067
2026-01-20 01:47:27.34	320.08	17.81	-42.0	-46.0	11.7	5.03e-04	0	61	0	169869312	54	6094
2026-01-20 01:47:28.35	319.85	17.82	-42.1	-46.2	11.5	6.05e-04	0	62	0	170917888	54	6230
2026-01-20 01:47:29.36	319.61	17.83	-42.1	-46.2	11.5	7.35e-04	0	61	0	173015040	54	6234
2026-01-20 01:47:30.37	319.38	17.85	-42.2	-46.4	11.3	1.04e-03	0	62	0	175112192	54	6400
2026-01-20 01:47:31.38	319.15	17.86	-42.2	-46.6	11.1	1.41e-03	0	61	0	177209344	55	6163
2026-01-20 01:47:32.39	318.91	17.87	-42.3	-46.7	11.0	1.68e-03	0	61	0	179306496	55	6221
2026-01-20 01:47:33.40	318.68	17.88	-42.3	-46.8	10.9	2.10e-03	0	61	0	180355072	55	6304
2026-01-20 01:47:34.41	318.44	17.89	-42.3	-46.8	10.9	2.15e-03	0	62	0	182452224	55	6295
2026-01-20 01:47:35.42	318.21	17.90	-42.3	-46.8	10.8	2.31e-03	0	61	0	184549376	55	6347
2026-01-20 01:47:36.43	317.97	17.91	-42.3	-46.8	10.9	2.41e-03	0	61	0	186646528	55	6304
2026-01-20 01:47:37.44	317.74	17.92	-42.3	-46.8	10.9	2.22e-03	0	61	0	188743680	55	6306
2026-01-20 01:47:38.45	317.50	17.93	-42.3	-46.8	10.9	2.28e-03	0	62	0	189792256	55	6294
2026-01-20 01:47:39.45	317.27	17.93	-42.2	-46.5	11.2	1.58e-03	0	62	0	191889408	55	6094
2026-01-20 01:47:40.46	317.04	17.94	-42.2	-46.6	11.1	1.55e-03	0	62	0	193986560	55	6185
2026-01-20 01:47:41.47	316.80	17.95	-42.2	-46.6	11.1	1.73e-03	0	62	0	196083712	55	6145
2026-01-20 01:47:42.48	316.57	17.96	-42.2	-46.5	11.2	1.40e-03	0	61	0	198180864	55	6075
2026-01-20 01:47:43.49	316.33	17.96	-42.2	-46.6	11.1	1.52e-03	0	62	0	200278016	55	6166
2026-01-20 01:47:44.50	316.09	17.97	-42.3	-46.7	11.0	1.81e-03	0	61	0	201326592	55	6208
2026-01-20 01:47:45.51	315.86	17.97	-42.2	-46.5	11.2	1.42e-03	0	62	0	203423744	55	6119
2026-01-20 01:47:46.52	315.62	17.98	-42.3	-46.6	11.1	1.66e-03	0	61	0	205520896	55	6188
2026-01-20 01:47:47.53	315.39	17.98	-42.3	-46.8	10.9	1.89e-03	0	62	0	207618048	55	6298
2026-01-20 01:47:48.54	315.15	17.98	-42.3	-46.6	11.1	1.71e-03	0	62	0	209715200	55	6193
2026-01-20 01:47:49.55	314.91	17.99	-42.3	-46.6	11.1	1.66e-03	0	61	0	210763776	55	6191
2026-01-20 01:47:50.56	314.68	17.99	-42.2	-46.5	11.2	1.51e-03	0	62	0	212860928	55	6124
2026-01-20 01:47:51.57	314.44	17.99	-42.2	-46.6	11.1	1.38e-03	0	62	0	214958080	55	6139
2026-01-20 01:47:52.58	314.21	17.99	-42.2	-46.5	11.2	1.37e-03	0	61	0	217055232	55	6086
2026-01-20 01:47:53.59	313.97	17.99	-42.2	-46.4	11.3	1.39e-03	0	61	0	219152384	55	6038
2026-01-20 01:47:54.60	313.73	17.99	-42.2	-46.4	11.3	1.08e-03	0	62	0	220200960	55	6020
2026-01-20 01:47:55.61	313.50	17.99	-42.2	-46.5	11.3	1.26e-03	0	62	0	222298112	55	6069
2026-01-20 01:47:56.61	313.26	17.99	-42.2	-46.4	11.3	1.20e-03	0	62	0	224395264	55	6039
2026-01-20 01:47:57.62	313.03	17.99	-42.2	-46.5	11.2	1.16e-03	0	62	0	226492416	55	6107
2026-01-20 01:47:58.63	312.79	17.99	-42.2	-46.5	11.2	1.29e-03	0	62	0	228589568	55	6114
2026-01-20 01:47:59.64	312.56	17.99	-42.2	-46.6	11.2	1.41e-03	0	62	0	229638144	55	6142
2026-01-20 01:48:00.65	312.32	17.99	-42.3	-46.7	11.0	1.61e-03	0	62	0	231735296	55	6215
2026-01-20 01:48:01.66	312.08	17.98	-42.3	-46.8	10.9	2.14e-03	0	61	0	233832448	55	6334
2026-01-20 01:48:02.67	311.85	17.98	-42.4	-46.9	10.8	2.34e-03	0	62	0	235929600	55	6365
2026-01-20 01:48:03.68	311.61	17.98	-42.3	-46.7	11.0	2.22e-03	0	62	0	238026752	55	6262
2026-01-20 01:48:04.69	311.38	17.97	-42.2	-46.6	11.2	1.80e-03	0	62	0	239075328	55	6151
2026-01-20 01:48:05.70	311.14	17.97	-42.2	-46.4	11.3	1.30e-03	0	62	0	241172480	55	6032
2026-01-20 01:48:06.71	310.90	17.96	-42.2	-46.4	11.3	1.11e-03	0	62	0	243269632	55	6034
2026-01-20 01:48:07.72	310.67	17.95	-42.1	-46.2	11.5	9.22e-04	0	62	0	245366784	55	5911
2026-01-20 01:48:08.73	310.43	17.95	-42.0	-46.2	11.6	7.35e-04	0	61	0	247463936	55	5861
2026-01-20 01:48:09.74	310.20	17.94	-42.0	-46.1	11.7	6.26e-04	0	62	0	248512512	55	5790
2026-01-20 01:48:10.74	309.96	17.93	-42.0	-46.1	11.7	6.09e-04	0	61	0	250609664	55	5791
2026-01-20 01:48:11.75	309.73	17.92	-42.0	-46.1	11.6	6.58e-04	0	62	0	252706816	55	5842
2026-01-20 01:48:12.76	309.49	17.92	-42.0	-46.1	11.7	6.38e-04	0	61	0	254803968	55	5822
2026-01-20 01:48:13.78	309.26	17.91	-42.0	-46.1	11.6	6.43e-04	0	62	0	256901120	55	5822
2026-01-20 01:48:14.78	309.02	17.90	-42.1	-46.2	11.5	7.72e-04	0	61	0	257949696	55	5896
2026-01-20 01:48:15.79	308.79	17.89	-42.1	-46.2	11.5	7.63e-04	0	61	0	260046848	55	5895
2026-01-20 01:48:16.80	308.56	17.88	-42.1	-46.2	11.5	7.90e-04	0	62	0	262144000	55	5907
2026-01-20 01:48:17.81	308.32	17.87	-42.1	-46.2	11.5	7.51e-04	0	61	0	264241152	55	5887
2026-01-20 01:48:18.82	308.09	17.85	-42.1	-46.3	11.5	7.99e-04	0	62	0	266338304	55	5930
2026-01-20 01:48:19.83	307.85	17.84	-42.1	-46.2	11.6	7.27e-04	0	61	0	268435456	55	5864
2026-01-20 01:48:20.84	307.62	17.83	-42.0	-46.0	11.7	5.88e-04	0	62	0	269484032	55	5783
2026-01-20 01:48:21.85	307.39	17.82	-42.0	-46.0	11.7	6.14e-04	0	62	0	271581184	55	5783
2026-01-20 01:48:22.86	307.15	17.80	-41.9	-45.9	11.9	4.71e-04	0	62	0	273678336	55	5668
2026-01-20 01:48:23.86	306.92	17.79	-41.9	-45.8	11.9	3.98e-04	0	62	0	275775488	55	5638
2026-01-20 01:48:24.87	306.69	17.78	-41.8	-45.7	12.1	3.11e-04	0	62	0	277872640	55	5556
2026-01-20 01:48:25.88	306.46	17.76	-41.8	-45.7	12.1	2.86e-04	0	62	0	278921216	55	5543
2026-01-20 01:48:26.89	306.22	17.75	-41.8	-45.7	12.0	3.02e-04	0	61	0	281018368	55	5581
2026-01-20 01:48:27.90	305.99	17.73	-41.8	-45.7	12.1	3.00e-04	0	62	0	283115520	55	5539
2026-01-20 01:48:28.91	305.76	17.71	-41.8	-45.6	12.1	2.57e-04	0	61	0	285212672	55	5511
2026-01-20 01:48:29.92	305.53	17.70	-41.8	-45.7	12.1	2.77e-04	0	61	0	287309824	55	5553
2026-01-20 01:48:30.93	305.30	17.68	-41.7	-45.5	12.2	2.42e-04	0	62	0	288358400	55	5462
2026-01-20 01:48:31.94	305.06	17.66	-41.7	-45.5	12.3	1.87e-04	0	62	0	290455552	55	5418
2026-01-20 01:48:32.95	304.83	17.64	-41.7	-45.4	12.3	1.88e-04	0	62	0	292552704	55	5402
2026-01-20 01:48:33.96	304.60	17.63	-41.7	-45.4	12.3	1.80e-04	0	62	0	294649856	55	5379
2026-01-20 01:48:34.97	304.37	17.61	-41.7	-45.5	12.3	1.68e-04	0	62	0	296747008	55	5453
2026-01-20 01:48:35.98	304.14	17.59	-41.7	-45.4	12.3	1.69e-04	0	62	0	297795584	55	5375
2026-01-20 01:48:36.99	303.91	17.57	-41.7	-45.4	12.4	1.56e-04	0	62	0	299892736	55	5371
2026-01-20 01:48:38.00	303.68	17.55	-41.7	-45.5	12.3	1.98e-04	0	62	0	301989888	55	5412
2026-01-20 01:48:39.01	303.45	17.53	-41.7	-45.4	12.4	1.85e-04	0	62	0	304087040	55	5357
2026-01-20 01:48:40.02	303.22	17.50	-41.7	-45.5	12.3	1.33e-04	0	62	0	306184192	55	5428
2026-01-20 01:48:41.03	303.00	17.48	-41.6	-45.3	12.5	1.35e-04	0	62	0	307232768	55	5297
2026-01-20 01:48:42.04	302.77	17.46	-41.5	-45.2	12.6	1.11e-04	0	62	0	309329920	55	5226
2026-01-20 01:48:43.05	302.54	17.44	-41.5	-45.1	12.6	9.38e-05	0	62	0	311427072	55	5215
2026-01-20 01:48:44.06	302.31	17.41	-41.5	-45.1	12.7	7.70e-05	0	62	0	313524224	55	5164
2026-01-20 01:48:45.07	302.08	17.39	-41.5	-45.1	12.6	9.15e-05	0	62	0	315621376	55	5202
2026-01-20 01:48:46.08	301.86	17.37	-41.5	-45.1	12.6	8.77e-05	0	62	0	316669952	55	5195
2026-01-20 01:48:47.09	301.63	17.34	-41.5	-45.1	12.6	9.07e-05	0	62	0	318767104	55	5194
2026-01-20 01:48:48.10	301.40	17.32	-41.5	-45.2	12.6	9.23e-05	0	62	0	320864256	55	5222
2026-01-20 01:48:49.11	301.18	17.29	-41.6	-45.2	12.5	1.18e-04	0	62	0	322961408	55	5260
2026-01-20 01:48:50.11	300.96	17.27	-41.6	-45.3	12.5	1.18e-04	0	62	0	325058560	55	5292
2026-01-20 01:48:51.12	300.73	17.24	-41.6	-45.3	12.4	1.38e-04	0	62	0	326107136	55	5325
2026-01-20 01:48:52.13	300.51	17.21	-41.6	-45.4	12.4	1.73e-04	0	62	0	328204288	55	5342
2026-01-20 01:48:53.14	300.28	17.19	-41.7	-45.4	12.3	1.80e-04	0	62	0	330301440	55	5393
2026-01-20 01:48:54.15	300.06	17.16	-41.7	-45.5	12.2	2.11e-04	0	62	0	332398592	55	5422
2026-01-20 01:48:55.16	299.83	17.13	-41.8	-45.6	12.0	2.39e-04	0	62	0	334495744	55	5514
2026-01-20 01:48:56.17	299.61	17.10	-41.8	-45.7	12.0	3.38e-04	0	62	0	335544320	55	5548
2026-01-20 01:48:57.18	299.39	17.08	-41.8	-45.7	12.0	3.12e-04	0	62	0	337641472	55	5562
2026-01-20 01:48:58.19	299.17	17.05	-41.8	-45.8	12.0	4.06e-04	0	62	0	339738624	55	5606
2026-01-20 01:48:59.20	298.95	17.02	-41.8	-45.8	11.9	3.68e-04	0	62	0	341835776	55	5604
2026-01-20 01:49:00.21	298.72	16.99	-41.9	-45.8	11.9	4.09e-04	0	62	0	343932928	55	5642
2026-01-20 01:49:01.22	298.50	16.96	-41.8	-45.7	12.0	3.68e-04	0	62	0	344981504	55	5560
2026-01-20 01:49:02.23	298.28	16.93	-41.8	-45.7	12.0	3.46e-04	0	62	0	347078656	55	5559
2026-01-20 01:49:03.24	298.06	16.89	-41.8	-45.6	12.0	3.00e-04	0	62	0	349175808	55	5528
2026-01-20 01:49:04.25	297.84	16.86	-41.7	-45.6	12.1	3.00e-04	0	62	0	351272960	55	5493
2026-01-20 01:49:05.26	297.62	16.83	-41.8	-45.6	12.0	3.07e-04	0	62	0	353370112	55	5526
2026-01-20 01:49:06.26	297.41	16.80	-41.8	-45.8	11.9	3.29e-04	0	62	0	354418688	55	5610
2026-01-20 01:49:07.27	297.19	16.77	-41.9	-46.0	11.7	4.65e-04	0	62	0	356515840	55	5731
2026-01-20 01:49:08.28	296.97	16.73	-41.9	-46.0	11.6	6.93e-04	0	62	0	358612992	55	5784
2026-01-20 01:49:09.29	296.76	16.70	-42.0	-46.2	11.4	8.06e-04	0	62	0	360710144	55	5860
2026-01-20 01:49:10.30	296.54	16.67	-42.0	-46.2	11.4	9.14e-04	0	61	0	362807296	55	5898
2026-01-20 01:49:11.31	296.32	16.63	-42.0	-46.3	11.4	1.07e-03	0	62	0	364904448	55	5929
2026-01-20 01:49:12.32	296.11	16.60	-42.0	-46.2	11.5	9.76e-04	0	62	0	365953024	55	5870
2026-01-20 01:49:13.33	295.89	16.56	-42.0	-46.2	11.4	8.62e-04	0	62	0	368050176	55	5868
2026-01-20 01:49:14.34	295.68	16.53	-42.0	-46.3	11.3	1.08e-03	0	62	0	370147328	55	5958
2026-01-20 01:49:15.35	295.46	16.49	-42.0	-46.3	11.3	1.30e-03	0	62	0	372244480	55	5930
2026-01-20 01:49:16.36	295.25	16.46	-42.0	-46.2	11.4	1.05e-03	0	62	0	374341632	55	5917
2026-01-20 01:49:17.37	295.04	16.42	-42.0	-46.3	11.3	1.13e-03	0	62	0	375390208	55	5935
2026-01-20 01:49:18.38	294.82	16.38	-41.9	-46.1	11.5	1.00e-03	0	62	0	377487360	55	5815
2026-01-20 01:49:19.39	294.61	16.35	-41.9	-46.1	11.5	8.13e-04	0	62	0	379584512	55	5821
2026-01-20 01:49:20.40	294.40	16.31	-41.9	-46.0	11.6	7.66e-04	0	62	0	381681664	55	5778
2026-01-20 01:49:21.41	294.19	16.27	-41.9	-46.0	11.6	7.58e-04	0	62	0	383778816	55	5756
2026-01-20 01:49:22.42	293.98	16.23	-41.8	-45.9	11.7	6.73e-04	0	62	0	384827392	55	5690
2026-01-20 01:49:23.42	293.77	16.20	-41.8	-45.9	11.6	6.16e-04	0	62	0	386924544	55	5712
2026-01-20 01:49:24.43	293.56	16.16	-41.8	-45.8	11.7	5.61e-04	0	62	0	389021696	55	5653
2026-01-20 01:49:25.44	293.35	16.12	-41.8	-45.8	11.8	5.16e-04	0	62	0	391118848	55	5628
2026-01-20 01:49:26.45	293.14	16.08	-41.8	-45.8	11.8	5.14e-04	0	62	0	393216000	55	5623
2026-01-20 01:49:27.46	292.94	16.04	-41.8	-45.9	11.6	6.83e-04	0	62	0	394264576	55	5685
2026-01-20 01:49:28.47	292.73	16.00	-41.8	-45.9	11.6	7.41e-04	0	62	0	396361728	55	5673
2026-01-20 01:49:29.48	292.52	15.96	-41.8	-46.0	11.6	7.38e-04	0	62	0	398458880	55	5751
2026-01-20 01:49:30.49	292.32	15.92	-41.8	-46.0	11.5	7.48e-04	0	61	0	400556032	55	5735
2026-01-20 01:49:31.50	292.11	15.88	-41.8	-45.9	11.6	7.18e-04	0	62	0	402653184	55	5706
2026-01-20 01:49:32.51	291.91	15.84	-41.8	-45.9	11.6	6.16e-04	0	62	0	403701760	55	5708
2026-01-20 01:49:33.52	291.70	15.80	-41.8	-46.0	11.6	7.56e-04	0	62	0	405798912	55	5726
2026-01-20 01:49:34.53	291.50	15.76	-41.7	-45.7	11.8	5.80e-04	0	62	0	407896064	55	5579
2026-01-20 01:49:35.54	291.29	15.71	-41.7	-45.7	11.8	4.55e-04	0	62	0	409993216	55	5536
2026-01-20 01:49:36.55	291.09	15.67	-41.7	-45.8	11.7	5.78e-04	0	62	0	412090368	55	5641
2026-01-20 01:49:37.56	290.89	15.63	-41.8	-45.9	11.6	6.90e-04	0	62	0	413138944	55	5694
2026-01-20 01:49:38.56	290.69	15.59	-41.8	-45.9	11.6	7.67e-04	0	61	0	415236096	55	5663
2026-01-20 01:49:39.58	290.49	15.54	-41.8	-45.9	11.6	6.57e-04	0	62	0	417333248	55	5671
2026-01-20 01:49:40.59	290.29	15.50	-41.8	-45.9	11.6	8.09e-04	0	62	0	419430400	55	5703
2026-01-20 01:49:41.60	290.09	15.46	-41.7	-45.8	11.6	6.93e-04	0	62	0	421527552	55	5651
2026-01-20 01:49:42.60	289.89	15.41	-41.7	-45.8	11.6	7.25e-04	0	62	0	422576128	55	5656
2026-01-20 01:49:43.61	289.69	15.37	-41.8	-46.0	11.5	8.54e-04	0	62	0	424673280	55	5724
2026-01-20 01:49:44.62	289.49	15.32	-41.8	-46.0	11.4	8.83e-04	0	62	0	426770432	55	5748
2026-01-20 01:49:45.63	289.29	15.28	-41.8	-46.0	11.4	1.02e-03	0	62	0	428867584	55	5781
2026-01-20 01:49:46.64	289.10	15.23	-41.8	-46.1	11.3	1.05e-03	0	62	0	430964736	55	5803
2026-01-20 01:49:47.65	288.90	15.19	-41.8	-46.1	11.3	1.24e-03	0	62	0	433061888	55	5850
2026-01-20 01:49:48.66	288.71	15.14	-41.8	-46.1	11.3	1.25e-03	0	62	0	434110464	55	5846
2026-01-20 01:49:49.67	288.51	15.10	-41.8	-46.1	11.2	1.32e-03	0	62	0	436207616	55	5844
2026-01-20 01:49:50.68	288.32	15.05	-41.8	-46.2	11.2	1.36e-03	0	62	0	438304768	55	5856
2026-01-20 01:49:51.69	288.12	15.00	-41.9	-46.3	11.1	1.52e-03	0	62	0	440401920	55	5931
2026-01-20 01:49:52.70	287.93	14.96	-41.9	-46.3	11.1	1.62e-03	0	62	0	442499072	55	5924
2026-01-20 01:49:53.71	287.74	14.91	-41.9	-46.2	11.1	1.64e-03	0	62	0	443547648	55	5911
2026-01-20 01:49:54.71	287.55	14.86	-41.9	-46.3	11.0	1.77e-03	0	62	0	445644800	55	5972
2026-01-20 01:49:55.72	287.35	14.82	-41.9	-46.4	10.8	2.22e-03	0	62	0	447741952	55	6028
2026-01-20 01:49:56.73	287.16	14.77	-41.9	-46.4	10.8	2.51e-03	0	62	0	449839104	55	6054
2026-01-20 01:49:57.74	286.97	14.72	-41.9	-46.5	10.7	2.46e-03	0	62	0	451936256	55	6099
2026-01-20 01:49:58.75	286.78	14.67	-42.0	-46.5	10.7	2.94e-03	0	62	0	452984832	55	6125
2026-01-20 01:49:59.76	286.60	14.63	-42.0	-46.7	10.6	3.22e-03	0	62	0	455081984	55	6208
2026-01-20 01:50:00.77	286.41	14.58	-42.0	-46.7	10.5	3.92e-03	0	62	0	457179136	55	6254
2026-01-20 01:50:01.78	286.22	14.53	-42.0	-46.7	10.5	3.92e-03	0	62	0	459276288	55	6231
2026-01-20 01:50:02.79	286.03	14.48	-42.0	-46.7	10.5	4.02e-03	0	62	0	461373440	55	6226
2026-01-20 01:50:03.80	285.85	14.43	-41.9	-46.6	10.6	3.58e-03	0	62	0	462422016	55	6149
2026-01-20 01:50:04.81	285.66	14.38	-41.9	-46.4	10.7	3.10e-03	0	62	0	464519168	55	6058
2026-01-20 01:50:05.82	285.47	14.33	-41.9	-46.4	10.8	2.80e-03	0	62	0	466616320	55	6057
2026-01-20 01:50:06.83	285.29	14.28	-42.0	-46.6	10.6	3.27e-03	0	62	0	468713472	55	6196
2026-01-20 01:50:07.84	285.11	14.23	-42.0	-46.7	10.5	3.92e-03	0	62	0	470810624	55	6226
2026-01-20 01:50:08.84	284.92	14.19	-42.0	-46.8	10.4	4.55e-03	0	62	0	471859200	55	6316
2026-01-20 01:50:09.85	284.74	14.14	-42.1	-46.9	10.2	5.51e-03	0	62	0	473956352	55	6420
2026-01-20 01:50:10.86	284.56	14.08	-42.2	-47.1	10.1	6.56e-03	0	62	0	476053504	55	6538
2026-01-20 01:50:11.87	284.38	14.03	-42.1	-47.0	10.1	6.88e-03	0	62	0	478150656	55	6485
2026-01-20 01:50:12.88	284.20	13.98	-42.1	-47.1	10.1	7.06e-03	0	62	0	480247808	55	6524
2026-01-20 01:50:13.89	284.02	13.93	-42.2	-47.2	9.9	7.55e-03	0	62	0	481296384	55	6586
2026-01-20 01:50:14.90	283.84	13.88	-42.2	-47.1	10.0	7.88e-03	0	62	0	483393536	55	6561
2026-01-20 01:50:15.91	283.66	13.83	-42.1	-47.1	10.0	7.34e-03	0	62	0	485490688	55	6533
2026-01-20 01:50:16.92	283.48	13.78	-42.1	-47.1	10.0	7.42e-03	0	62	0	487587840	55	6566
2026-01-20 01:50:17.93	283.30	13.73	-42.2	-47.3	9.9	8.60e-03	0	62	0	489684992	55	6655
2026-01-20 01:50:18.94	283.12	13.68	-42.2	-47.3	9.8	1.05e-02	0	62	0	490733568	55	6673
2026-01-20 01:50:19.95	282.95	13.62	-42.3	-47.5	9.5	1.18e-02	0	62	0	492830720	55	6874
2026-01-20 01:50:20.96	282.77	13.57	-42.3	-47.7	9.4	1.53e-02	0	62	0	494927872	55	7005
2026-01-20 01:50:21.97	282.60	13.52	-42.4	-47.9	9.2	2.02e-02	0	62	0	497025024	55	7170
2026-01-20 01:50:22.98	282.42	13.47	-42.5	-48.1	9.0	2.27e-02	0	62	0	499122176	55	7308
2026-01-20 01:50:23.99	282.25	13.42	-42.5	-48.2	8.9	2.55e-02	0	62	0	501219328	55	7400
2026-01-20 01:50:25.00	282.07	13.36	-42.5	-48.1	9.0	2.81e-02	0	62	0	502267904	55	7329
2026-01-20 01:50:26.01	281.90	13.31	-42.4	-48.0	9.0	2.51e-02	0	62	0	504365056	55	7245
2026-01-20 01:50:27.01	281.73	13.26	-42.4	-47.9	9.2	2.24e-02	0	62	0	506462208	55	7142
2026-01-20 01:50:28.02	281.56	13.21	-42.3	-47.7	9.3	1.85e-02	0	62	0	508559360	55	7013
2026-01-20 01:50:29.03	281.39	13.15	-42.3	-47.7	9.3	1.76e-02	0	62	0	510656512	55	7005
2026-01-20 01:50:30.04	281.22	13.10	-42.3	-47.6	9.4	1.62e-02	0	62	0	511705088	55	6938
2026-01-20 01:50:31.05	281.05	13.05	-42.3	-47.7	9.4	1.59e-02	0	62	0	513802240	55	6970
2026-01-20 01:50:32.06	280.88	12.99	-42.4	-47.8	9.2	1.93e-02	0	62	0	515899392	55	7109
2026-01-20 01:50:33.07	280.71	12.94	-42.4	-48.0	9.0	2.12e-02	0	62	0	517996544	55	7280
2026-01-20 01:50:34.08	280.54	12.88	-42.5	-48.3	8.7	2.87e-02	0	62	0	520093696	55	7478
2026-01-20 01:50:35.09	280.37	12.83	-42.6	-48.5	8.5	3.86e-02	0	62	0	521142272	55	7694
2026-01-20 01:50:36.10	280.21	12.78	-42.6	-48.5	8.4	4.35e-02	0	62	0	523239424	55	7706
2026-01-20 01:50:37.11	280.04	12.72	-42.6	-48.6	8.4	4.72e-02	0	62	0	525336576	55	7741
2026-01-20 01:50:38.12	279.88	12.67	-42.6	-48.6	8.3	4.83e-02	0	62	0	527433728	55	7779
2026-01-20 01:50:39.13	279.71	12.61	-42.6	-48.7	8.3	4.88e-02	0	62	0	529530880	55	7817
2026-01-20 01:50:40.14	279.55	12.56	-42.5	-48.6	8.4	5.15e-02	0	62	0	530579456	55	7735
2026-01-20 01:50:41.15	279.38	12.50	-42.5	-48.5	8.4	4.70e-02	0	62	0	532676608	55	7712
2026-01-20 01:50:42.16	279.22	12.45	-42.5	-48.6	8.4	4.51e-02	0	62	0	534773760	55	7726
2026-01-20 01:50:43.17	279.06	12.39	-42.4	-48.3	8.6	4.16e-02	0	62	0	536870912	55	7470
2026-01-20 01:50:44.18	278.90	12.34	-42.5	-48.3	8.6	3.72e-02	0	62	0	538968064	55	7515
2026-01-20 01:50:45.19	278.74	12.28	-42.5	-48.3	8.7	3.62e-02	0	62	0	540016640	55	7502
2026-01-20 01:50:46.20	278.58	12.23	-42.5	-48.3	8.7	3.36e-02	0	62	0	542113792	55	7511
2026-01-20 01:50:47.21	278.42	12.17	-42.4	-48.3	8.6	3.69e-02	0	62	0	544210944	55	7470
2026-01-20 01:50:48.22	278.26	12.12	-42.5	-48.4	8.6	4.00e-02	0	62	0	546308096	55	7568
2026-01-20 01:50:49.23	278.10	12.06	-42.5	-48.4	8.4	4.24e-02	0	62	0	548405248	55	7615
2026-01-20 01:50:50.24	277.94	12.01	-42.4	-48.4	8.5	4.61e-02	0	62	0	549453824	55	7569
2026-01-20 01:50:51.25	277.78	11.95	-42.4	-48.4	8.5	4.26e-02	0	62	0	551550976	55	7559
2026-01-20 01:50:52.26	277.62	11.90	-42.4	-48.4	8.4	4.43e-02	0	62	0	553648128	55	7607
2026-01-20 01:50:53.27	277.47	11.84	-42.4	-48.3	8.5	4.59e-02	0	62	0	555745280	55	7513
2026-01-20 01:50:54.28	277.31	11.79	-42.4	-48.1	8.7	3.67e-02	0	62	0	557842432	55	7369
2026-01-20 01:50:55.29	277.16	11.73	-42.3	-48.0	8.8	3.37e-02	0	62	0	558891008	55	7252
2026-01-20 01:50:56.30	277.00	11.67	-42.3	-47.9	8.8	3.33e-02	0	62	0	560988160	55	7201
2026-01-20 01:50:57.31	276.85	11.62	-42.3	-48.0	8.8	2.98e-02	0	62	0	563085312	55	7223
2026-01-20 01:50:58.32	276.70	11.56	-42.3	-48.1	8.7	3.10e-02	0	62	0	565182464	55	7291
2026-01-20 01:50:59.32	276.54	11.51	-42.3	-48.2	8.5	3.72e-02	0	62	0	567279616	55	7384
2026-01-20 01:51:00.33	276.39	11.45	-42.2	-48.1	8.6	3.77e-02	0	62	0	569376768	55	7341
2026-01-20 01:51:01.34	276.24	11.39	-42.3	-48.2	8.5	4.15e-02	0	62	0	570425344	55	7423
2026-01-20 01:51:02.35	276.09	11.34	-42.3	-48.2	8.4	4.55e-02	0	62	0	572522496	55	7441
2026-01-20 01:51:03.36	275.94	11.28	-42.3	-48.2	8.4	4.55e-02	0	62	0	574619648	55	7444
2026-01-20 01:51:04.37	275.79	11.22	-42.3	-48.3	8.3	4.80e-02	0	62	0	576716800	55	7513
2026-01-20 01:51:05.38	275.64	11.17	-42.2	-48.2	8.4	4.84e-02	0	62	0	578813952	55	7391
2026-01-20 01:51:06.39	275.49	11.11	-42.1	-48.1	8.4	4.65e-02	0	62	0	579862528	55	7294
2026-01-20 01:51:07.40	275.34	11.05	-42.0	-48.0	8.5	4.62e-02	0	62	0	581959680	55	7206
2026-01-20 01:51:08.41	275.20	11.00	-42.0	-48.0	8.4	4.47e-02	0	62	0	584056832	55	7216
2026-01-20 01:51:09.41	275.05	10.94	-42.0	-47.9	8.5	4.35e-02	0	62	0	586153984	55	7178
2026-01-20 01:51:10.42	274.90	10.88	-42.0	-47.9	8.5	4.26e-02	0	62	0	588251136	55	7141
2026-01-20 01:51:11.43	274.76	10.83	-41.9	-47.8	8.5	4.37e-02	0	62	0	589299712	55	7120
2026-01-20 01:51:12.44	274.61	10.77	-41.9	-47.9	8.4	4.60e-02	0	62	0	591396864	55	7136
2026-01-20 01:51:13.45	274.47	10.71	-41.9	-48.0	8.3	4.88e-02	0	62	0	593494016	55	7211
2026-01-20 01:51:14.46	274.32	10.66	-41.9	-48.1	8.1	5.52e-02	0	62	0	595591168	55	7315
2026-01-20 01:51:15.47	274.18	10.60	-41.9	-48.1	8.0	6.32e-02	0	62	0	597688320	55	7369
2026-01-20 01:51:16.48	274.04	10.54	-41.9	-48.2	7.9	6.70e-02	0	62	0	598736896	55	7440
2026-01-20 01:51:17.49	273.90	10.49	-41.9	-48.4	7.6	8.61e-02	0	62	0	600834048	55	7612
2026-01-20 01:51:18.50	273.75	10.43	-41.9	-48.7	7.3	1.05e-01	0	62	0	602931200	55	7849
2026-01-20 01:51:19.51	273.61	10.37	-41.9	-48.7	7.4	1.18e-01	0	62	0	605028352	55	7850
2026-01-20 01:51:20.52	273.47	10.31	-42.0	-48.8	7.3	1.20e-01	0	62	0	607125504	55	7950
2026-01-20 01:51:21.53	273.33	10.26	-41.9	-48.7	7.4	1.19e-01	0	62	0	608174080	55	7860
2026-01-20 01:51:22.54	273.19	10.20	-41.8	-49.0	6.8	1.21e-01	0	62	0	610271232	55	8171
2026-01-20 01:51:23.55	273.05	10.14	-41.8	-49.4	6.5	2.69e-01	0	62	0	612368384	55	8514
2026-01-20 01:51:24.56	272.91	10.08	-41.7	-49.5	6.4	3.67e-01	0	62	0	614465536	55	8562
2026-01-20 01:51:25.57	272.78	10.03	-42.3	-50.6	5.7	1.29e+00	0	62	0	615514112	55	9752
2026-01-20 01:51:26.58	272.64	9.97	-41.6	-50.4	5.6	3.01e-01	0	62	0	617611264	55	9582
2026-01-20 01:51:27.58	272.50	9.91	-41.5	-51.5	4.6	1.49e+00	3	62	104	617611264	54	11488
2026-01-20 01:51:28.59	272.37	9.86	-41.6	-49.4	6.2	2.66e-01	0	62	0	618659840	54	9007
2026-01-20 01:51:29.60	272.23	9.80	-41.6	-49.4	6.2	2.83e-01	0	62	0	620756992	54	9043
2026-01-20 01:51:30.61	272.10	9.74	-41.6	-49.5	6.2	2.72e-01	0	62	0	621805568	54	9087
2026-01-20 01:51:31.62	271.96	9.68	-41.6	-49.5	6.1	3.29e-01	0	62	0	623902720	54	9160
2026-01-20 01:51:32.63	271.83	9.63	-41.6	-49.4	6.3	2.93e-01	0	62	0	625999872	54	9035
2026-01-20 01:51:33.64	271.69	9.57	-42.2	-50.3	6.0	2.48e-01	0	62	0	628097024	54	10040
2026-01-20 01:51:34.65	271.56	9.51	-42.5	-51.6	5.1	7.00e-01	0	62	0	630194176	55	11019
2026-01-20 01:51:35.66	271.43	9.45	-41.3	-52.0	4.5	5.18e-01	27	62	0	632291328	54	12108
2026-01-20 01:51:36.67	271.30	9.39	-41.2	-52.2	4.3	1.47e+00	0	62	104	632291328	53	13211
2026-01-20 01:51:37.68	271.17	9.34	-41.5	-49.9	5.7	9.48e-01	0	62	0	632291328	53	10148
2026-01-20 01:51:38.68	271.04	9.28	-41.5	-50.0	5.6	7.91e-01	0	62	0	634388480	54	9637
2026-01-20 01:51:39.69	270.91	9.22	-41.4	-49.6	5.8	3.83e-01	0	62	0	636485632	54	9230
2026-01-20 01:51:40.70	270.78	9.16	-41.3	-49.5	5.9	3.65e-01	0	62	0	638582784	54	9092
2026-01-20 01:51:41.71	270.65	9.11	-41.3	-49.6	5.8	3.74e-01	0	62	0	640679936	54	9217
2026-01-20 01:51:42.72	270.52	9.05	-41.3	-49.6	5.8	3.72e-01	0	62	0	642777088	54	9186
2026-01-20 01:51:43.73	270.39	8.99	-41.3	-49.7	5.7	4.29e-01	0	62	0	643825664	54	9363
2026-01-20 01:51:44.74	270.26	8.93	-41.2	-50.8	4.9	4.58e-01	0	62	0	645922816	54	10548
2026-01-20 01:51:45.75	270.13	8.88	-42.0	-50.7	5.4	7.72e-01	0	62	0	648019968	54	10433
2026-01-20 01:51:46.76	270.01	8.82	-40.6	-53.1	3.8	6.98e-01	0	62	104	649068544	53	14550
2026-01-20 01:51:47.77	269.88	8.76	-41.0	-52.7	4.1	1.48e+00	0	62	0	649068544	52	14773
2026-01-20 01:51:48.78	269.76	8.70	-41.7	-50.9	5.1	1.38e+00	0	62	0	649068544	53	11362
2026-01-20 01:51:49.79	269.63	8.65	-41.6	-50.9	5.0	7.54e-01	0	62	0	651165696	54	10737
2026-01-20 01:51:50.80	269.50	8.59	-41.5	-51.1	4.9	7.36e-01	0	62	0	653262848	54	10938
2026-01-20 01:51:51.81	269.38	8.53	-41.5	-51.3	4.8	8.11e-01	0	62	0	654311424	54	11190
2026-01-20 01:51:52.82	269.26	8.47	-41.4	-51.6	4.5	9.51e-01	2	62	0	656408576	54	11670
2026-01-20 01:51:53.83	269.13	8.42	-41.4	-51.9	4.5	1.06e+00	52	62	0	658505728	54	12049
2026-01-20 01:51:54.83	269.01	8.36	-41.4	-52.1	4.4	1.26e+00	93	62	0	660602880	54	12274
2026-01-20 01:51:55.84	268.89	8.30	-41.3	-52.4	4.2	1.36e+00	0	62	0	660602880	54	12754
2026-01-20 01:51:56.85	268.77	8.24	-41.1	-54.2	3.8	1.45e+00	0	62	104	660602880	54	15581
2026-01-20 01:51:57.86	268.65	8.19	-40.7	-53.6	3.8	1.49e+00	0	62	104	660602880	53	15436
2026-01-20 01:51:58.87	268.53	8.13	-41.7	-54.9	3.8	1.49e+00	0	62	104	660602880	53	18076
2026-01-20 01:51:59.88	268.41	8.07	-40.3	-54.3	3.8	1.49e+00	0	62	104	660602880	52	17719
2026-01-20 01:52:00.89	268.29	8.01	-40.4	-54.0	3.8	1.49e+00	0	62	104	660602880	52	17183
2026-01-20 01:52:01.90	268.17	7.95	-43.4	-57.4	3.8	1.49e+00	0	62	104	660602880	57	19061
2026-01-20 01:52:02.91	268.05	7.90	-44.6	-59.0	3.8	1.49e+00	0	62	104	660602880	59	20352
2026-01-20 01:52:03.92	267.93	7.84	-44.8	-59.4	3.8	1.49e+00	0	62	104	660602880	60	20106
2026-01-20 01:52:04.93	267.81	7.78	-44.9	-59.5	3.8	1.49e+00	0	62	104	660602880	60	20496
2026-01-20 01:52:05.94	267.69	7.72	-45.0	-59.6	3.8	1.49e+00	0	62	104	660602880	60	20707
2026-01-20 01:52:06.96	267.58	7.67	-45.1	-59.7	3.8	1.49e+00	0	62	104	660602880	60	20902
2026-01-20 01:52:07.97	267.46	7.61	-45.2	-59.8	3.8	1.49e+00	0	62	104	660602880	60	21030
2026-01-20 01:52:08.98	267.34	7.55	-45.2	-59.8	3.8	1.49e+00	0	62	104	660602880	60	21049
2026-01-20 01:52:09.99	267.23	7.49	-45.2	-59.8	3.8	1.49e+00	0	62	104	660602880	61	20006
2026-01-20 01:52:11.00	267.11	7.44	-45.2	-59.8	3.8	1.49e+00	0	62	104	660602880	61	19966
2026-01-20 01:52:12.01	267.00	7.38	-45.2	-59.8	3.8	1.49e+00	0	62	104	660602880	61	19931
2026-01-20 01:52:13.02	266.88	7.32	-45.2	-59.8	3.8	1.49e+00	0	62	104	660602880	61	19869
2026-01-20 01:52:14.03	266.77	7.26	-45.2	-59.7	3.8	1.49e+00	0	62	104	660602880	61	19813
2026-01-20 01:52:15.04	266.66	7.21	-45.2	-59.7	3.8	1.49e+00	0	62	104	660602880	61	19747
2026-01-20 01:52:16.05	266.54	7.15	-45.2	-59.7	3.8	1.49e+00	0	62	104	660602880	61	19729
2026-01-20 01:52:17.06	266.43	7.09	-45.2	-59.7	3.8	1.49e+00	0	62	104	660602880	61	19693
2026-01-20 01:52:18.07	266.32	7.04	-45.2	-59.7	3.8	1.49e+00	0	62	104	660602880	61	19742
2026-01-20 01:52:19.08	266.21	6.98	-45.1	-59.7	3.8	1.49e+00	0	62	104	660602880	61	19629
2026-01-20 01:52:20.10	266.10	6.92	-45.1	-59.6	3.8	1.49e+00	0	62	104	660602880	61	19596
2026-01-20 01:52:21.11	265.98	6.86	-45.1	-59.6	3.8	1.49e+00	0	62	104	660602880	61	19605
2026-01-20 01:52:22.12	265.87	6.81	-45.1	-59.6	3.8	1.49e+00	0	62	104	660602880	61	19578
2026-01-20 01:52:23.13	265.76	6.75	-45.1	-59.7	3.8	1.49e+00	0	62	104	660602880	61	19656
2026-01-20 01:52:24.14	265.66	6.69	-45.1	-59.6	3.8	1.49e+00	0	62	104	660602880	61	19568
2026-01-20 01:52:25.15	265.55	6.63	-45.1	-59.7	3.8	1.49e+00	0	62	104	660602880	61	19616
2026-01-20 01:52:26.16	265.44	6.58	-45.1	-59.7	3.8	1.49e+00	0	62	104	660602880	61	19629
2026-01-20 01:52:27.17	265.33	6.52	-45.1	-59.6	3.8	1.49e+00	0	62	104	660602880	61	19562
2026-01-20 01:52:28.18	265.22	6.46	-45.1	-59.6	3.8	1.49e+00	0	62	104	660602880	61	19569
2026-01-20 01:52:29.19	265.12	6.41	-45.1	-59.6	3.8	1.49e+00	0	62	104	660602880	61	19554
2026-01-20 01:52:30.20	265.01	6.35	-45.1	-59.7	3.8	1.49e+00	0	62	104	660602880	61	19621
2026-01-20 01:52:31.21	264.90	6.29	-45.1	-59.6	3.8	1.49e+00	0	62	104	660602880	61	19550
2026-01-20 01:52:32.22	264.80	6.24	-45.1	-59.6	3.8	1.49e+00	0	62	104	660602880	61	19538
2026-01-20 01:52:33.23	264.69	6.18	-45.1	-59.6	3.8	1.49e+00	0	62	104	660602880	61	19533
2026-01-20 01:52:34.24	264.59	6.12	-45.1	-59.7	3.8	1.49e+00	0	62	104	660602880	61	19626
2026-01-20 01:52:35.25	264.48	6.07	-45.1	-59.6	3.8	1.49e+00	0	62	104	660602880	61	19578
2026-01-20 01:52:36.26	264.38	6.01	-45.1	-59.6	3.8	1.49e+00	0	62	104	660602880	61	19479
2026-01-20 01:52:37.27	264.27	5.95	-45.1	-59.6	3.8	1.49e+00	0	62	104	660602880	61	19518
2026-01-20 01:52:38.28	264.17	5.90	-45.1	-59.6	3.8	1.49e+00	0	62	104	660602880	61	19509
2026-01-20 01:52:39.29	264.07	5.84	-45.1	-59.6	3.8	1.49e+00	0	62	104	660602880	61	19531
2026-01-20 01:52:40.30	263.96	5.78	-45.1	-59.6	3.8	1.49e+00	0	62	104	660602880	61	19497
2026-01-20 01:52:41.32	263.86	5.73	-45.1	-59.6	3.8	1.49e+00	0	62	104	660602880	61	19509
2026-01-20 01:52:42.32	263.76	5.67	-45.1	-59.6	3.8	1.49e+00	0	62	104	660602880	61	19522
2026-01-20 01:52:43.33	263.66	5.61	-45.1	-59.6	3.8	1.49e+00	0	62	104	660602880	61	19556
2026-01-20 01:52:44.34	263.56	5.56	-45.1	-59.6	3.8	1.49e+00	0	62	104	660602880	61	19469
2026-01-20 01:52:45.36	263.46	5.50	-45.1	-59.6	3.8	1.49e+00	0	62	104	660602880	61	19483
2026-01-20 01:52:46.37	263.36	5.44	-45.1	-59.6	3.8	1.49e+00	0	62	104	660602880	61	19526
2026-01-20 01:52:47.38	263.26	5.39	-45.1	-59.6	3.8	1.49e+00	0	62	104	660602880	61	19545
2026-01-20 01:52:48.39	263.16	5.33	-45.1	-59.6	3.8	1.49e+00	0	62	104	660602880	61	19530
2026-01-20 01:52:49.40	263.06	5.27	-45.1	-59.6	3.8	1.49e+00	0	62	104	660602880	61	19497
2026-01-20 01:52:50.41	262.96	5.22	-45.1	-59.6	3.8	1.49e+00	0	62	104	660602880	61	19519
2026-01-20 01:52:51.42	262.86	5.16	-45.1	-59.6	3.8	1.49e+00	0	62	104	660602880	61	19471
2026-01-20 01:52:52.43	262.76	5.11	-45.1	-59.6	3.8	1.49e+00	0	62	104	660602880	61	19495
2026-01-20 01:52:53.44	262.67	5.05	-45.1	-59.7	3.8	1.49e+00	0	62	104	660602880	61	19626
2026-01-20 01:52:54.45	262.57	4.99	-45.1	-59.6	3.8	1.49e+00	0	62	104	660602880	61	19503
2026-01-20 01:52:55.46	262.47	4.94	-45.1	-59.6	3.8	1.49e+00	0	62	104	660602880	61	19510
2026-01-20 01:52:56.47	262.38	4.88	-45.1	-59.6	3.8	1.49e+00	0	62	104	660602880	61	19484
2026-01-20 01:52:57.48	262.28	4.83	-45.1	-59.6	3.8	1.49e+00	0	62	104	660602880	61	19447
2026-01-20 01:52:58.49	262.19	4.77	-45.1	-59.6	3.8	1.49e+00	0	62	104	660602880	61	19535
2026-01-20 01:52:59.50	262.09	4.71	-45.1	-59.6	3.8	1.49e+00	0	62	104	660602880	61	19503
2026-01-20 01:53:00.51	262.00	4.66	-45.1	-59.6	3.8	1.49e+00	0	62	104	660602880	61	19471
2026-01-20 01:53:01.53	261.90	4.60	-45.1	-59.6	3.8	1.49e+00	0	62	104	660602880	61	19466
2026-01-20 01:53:02.54	261.81	4.55	-45.1	-59.6	3.8	1.49e+00	0	62	104	660602880	61	19473
2026-01-20 01:53:03.55	261.71	4.49	-45.1	-59.6	3.8	1.49e+00	0	62	104	660602880	61	19487
2026-01-20 01:53:04.56	261.62	4.44	-45.1	-59.6	3.8	1.49e+00	0	62	104	660602880	61	19509
2026-01-20 01:53:05.57	261.53	4.38	-45.1	-59.6	3.8	1.49e+00	0	62	104	660602880	61	19496
2026-01-20 01:53:06.58	261.43	4.32	-45.1	-59.6	3.8	1.49e+00	0	62	104	660602880	61	19491
2026-01-20 01:53:07.59	261.34	4.27	-45.1	-59.6	3.8	1.49e+00	0	62	104	660602880	61	19515
2026-01-20 01:53:08.60	261.25	4.21	-45.1	-59.6	3.8	1.49e+00	0	62	104	660602880	61	19524
2026-01-20 01:53:09.61	261.16	4.16	-45.1	-59.6	3.8	1.49e+00	0	62	104	660602880	61	19466
2026-01-20 01:53:10.62	261.07	4.10	-45.1	-59.6	3.8	1.49e+00	0	62	104	660602880	61	19508
2026-01-20 01:53:11.63	260.98	4.05	-45.1	-59.6	3.8	1.49e+00	0	62	104	660602880	61	19533
2026-01-20 01:53:12.64	260.89	3.99	-45.1	-59.6	3.8	1.49e+00	0	62	104	660602880	61	19488
2026-01-20 01:53:13.65	260.80	3.94	-45.1	-59.6	3.8	1.49e+00	0	62	104	660602880	61	19574
2026-01-20 01:53:14.66	260.71	3.88	-45.1	-59.6	3.8	1.49e+00	0	62	104	660602880	61	19460
2026-01-20 01:53:15.67	260.62	3.83	-45.1	-59.6	3.8	1.49e+00	0	62	104	660602880	61	19541
2026-01-20 01:53:16.68	260.53	3.77	-45.1	-59.6	3.8	1.49e+00	0	62	104	660602880	61	19522
2026-01-20 01:53:17.70	260.44	3.72	-45.1	-59.6	3.8	1.49e+00	0	62	104	660602880	61	19508
2026-01-20 01:53:18.71	260.35	3.66	-45.1	-59.6	3.8	1.49e+00	0	62	104	660602880	61	19486
2026-01-20 01:53:19.72	260.26	3.61	-45.1	-59.6	3.8	1.49e+00	0	62	104	660602880	61	19508
2026-01-20 01:53:20.73	260.17	3.55	-45.1	-59.6	3.8	1.49e+00	0	62	104	660602880	61	19584
2026-01-20 01:53:21.74	260.09	3.50	-45.1	-59.6	3.8	1.49e+00	0	62	104	660602880	61	19482
2026-01-20 01:53:22.75	260.00	3.44	-45.1	-59.6	3.8	1.49e+00	0	62	104	660602880	61	19423
2026-01-20 01:53:23.76	259.91	3.39	-45.1	-59.6	3.8	1.49e+00	0	62	104	660602880	61	19551
2026-01-20 01:53:24.76	259.83	3.33	-45.1	-59.6	3.8	1.49e+00	0	62	104	660602880	61	19483
2026-01-20 01:53:25.77	259.74	3.28	-45.1	-59.6	3.8	1.49e+00	0	62	104	660602880	61	19510
2026-01-20 01:53:26.78	259.65	3.22	-45.1	-59.6	3.8	1.49e+00	0	62	104	660602880	61	19531
2026-01-20 01:53:27.79	259.57	3.17	-45.1	-59.6	3.8	1.49e+00	0	62	104	660602880	61	19472
2026-01-20 01:53:28.80	259.48	3.12	-45.1	-59.6	3.8	1.49e+00	0	62	104	660602880	61	19508
2026-01-20 01:53:29.81	259.40	3.06	-45.1	-59.6	3.8	1.49e+00	0	62	104	660602880	61	19490
2026-01-20 01:53:30.83	259.31	3.01	-45.1	-59.6	3.8	1.49e+00	0	62	104	660602880	61	19498
2026-01-20 01:53:31.84	259.23	2.95	-45.1	-59.6	3.8	1.49e+00	0	62	104	660602880	61	19471
2026-01-20 01:53:32.85	259.15	2.90	-45.1	-59.6	3.8	1.49e+00	0	62	104	660602880	61	19484
2026-01-20 01:53:33.86	259.06	2.84	-45.1	-59.6	3.8	1.49e+00	0	62	104	660602880	61	19427
2026-01-20 01:53:34.87	258.98	2.79	-45.1	-59.6	3.8	1.49e+00	0	62	104	660602880	61	19494
2026-01-20 01:53:35.88	258.90	2.74	-45.1	-59.6	3.8	1.49e+00	0	62	104	660602880	61	19446
2026-01-20 01:53:36.89	258.81	2.68	-45.1	-59.6	3.8	1.49e+00	0	62	104	660602880	61	19400
2026-01-20 01:53:37.90	258.73	2.63	-45.1	-59.6	3.8	1.49e+00	0	62	104	660602880	61	19504
2026-01-20 01:53:38.91	258.65	2.57	-45.1	-59.6	3.8	1.49e+00	0	62	104	660602880	61	19408
2026-01-20 01:53:39.92	258.57	2.52	-45.1	-59.6	3.8	1.49e+00	0	62	104	660602880	61	19413
2026-01-20 01:53:40.93	258.49	2.47	-45.1	-59.6	3.8	1.49e+00	0	62	104	660602880	61	19478
2026-01-20 01:53:41.94	258.41	2.41	-45.1	-59.6	3.8	1.49e+00	0	62	104	660602880	61	19457
2026-01-20 01:53:42.95	258.33	2.36	-45.1	-59.6	3.8	1.49e+00	0	62	104	660602880	61	19450
2026-01-20 01:53:43.96	258.25	2.30	-45.1	-59.6	3.8	1.49e+00	0	62	104	660602880	61	19475
2026-01-20 01:53:44.97	258.17	2.25	-45.1	-59.6	3.8	1.49e+00	0	62	104	660602880	61	19542
2026-01-20 01:53:45.98	258.09	2.20	-45.0	-59.6	3.8	1.49e+00	0	62	104	660602880	61	19440
2026-01-20 01:53:46.99	258.01	2.14	-45.1	-59.6	3.8	1.49e+00	0	62	104	660602880	61	19407
2026-01-20 01:53:48.01	257.93	2.09	-45.0	-59.6	3.8	1.49e+00	0	62	104	660602880	61	19464
2026-01-20 01:53:49.02	257.85	2.04	-45.0	-59.5	3.8	1.49e+00	0	62	104	660602880	61	19367
2026-01-20 01:53:50.03	257.77	1.98	-45.1	-59.6	3.8	1.49e+00	0	62	104	660602880	61	19468

#Closed at: 2026-01-20 01:53:50
