passes_logs/2026/01/20/R2.0S_Moscow/R2.0S_Moscow__20260120_113345_NOAA_20_JPSS-1_rec.log

#Pass ID: 20260120_113345_NOAA 20 (JPSS-1)
#Satellite: NOAA 20 (JPSS-1)
#Configuration: NOAA 20
#almurnet v.1.7.20251203
#Start time: 2026-01-20 11:33:45

#Version: 2.2.20231116
#Station: R2.0S_Moscow
#Location: 37.707566 lon 55.798166 lat
#TLE: 1 43013U 17073A   26019.55911981  .00000079  00000+0  58510-4 0  9994
#TLE: 2 43013  98.7641 320.4504 0001323  32.6518 327.4739 14.19537050423380

#Time	Az	El	Level	Level2	SNR	BER	BlckErr	Temp	State	Recorded	gain1	gain2
2026-01-20 11:33:45.32	210.58	1.97	-43.9	-58.4	3.8	1.49e+00	0	50	0	0	59	18952
2026-01-20 11:33:46.32	210.65	2.02	-43.9	-58.3	3.8	1.49e+00	0	51	104	0	59	18896
2026-01-20 11:33:47.33	210.73	2.08	-43.9	-58.3	3.8	1.49e+00	0	51	104	0	59	18941
2026-01-20 11:33:48.34	210.81	2.13	-43.9	-58.4	3.8	1.49e+00	0	51	104	0	59	18991
2026-01-20 11:33:49.35	210.89	2.18	-43.9	-58.3	3.8	1.49e+00	0	51	104	0	59	18915
2026-01-20 11:33:50.36	210.96	2.24	-43.9	-58.3	3.8	1.49e+00	0	51	104	0	59	18939
2026-01-20 11:33:51.37	211.04	2.29	-43.9	-58.4	3.8	1.49e+00	0	51	104	0	59	19000
2026-01-20 11:33:52.38	211.12	2.35	-43.9	-58.3	3.8	1.49e+00	0	51	104	0	59	18944
2026-01-20 11:33:53.39	211.20	2.40	-43.9	-58.3	3.8	1.49e+00	0	51	104	0	59	18900
2026-01-20 11:33:54.40	211.28	2.46	-43.9	-58.3	3.8	1.49e+00	0	51	104	0	59	18903
2026-01-20 11:33:55.41	211.36	2.51	-43.9	-58.3	3.8	1.49e+00	0	51	104	0	59	18892
2026-01-20 11:33:56.42	211.43	2.57	-43.9	-58.3	3.8	1.49e+00	0	51	104	0	59	18931
2026-01-20 11:33:57.43	211.51	2.62	-43.9	-58.3	3.8	1.49e+00	0	51	104	0	59	18871
2026-01-20 11:33:58.45	211.59	2.68	-43.9	-58.3	3.8	1.49e+00	0	51	104	0	59	18913
2026-01-20 11:33:59.46	211.68	2.73	-43.8	-58.4	3.8	1.49e+00	0	51	104	0	59	18959
2026-01-20 11:34:00.47	211.76	2.79	-43.9	-58.3	3.8	1.49e+00	0	51	104	0	59	18911
2026-01-20 11:34:01.48	211.84	2.84	-43.9	-58.3	3.8	1.49e+00	0	52	104	0	59	18918
2026-01-20 11:34:02.49	211.92	2.90	-43.8	-58.3	3.8	1.49e+00	0	52	104	0	59	18877
2026-01-20 11:34:03.50	212.00	2.95	-43.9	-58.3	3.8	1.49e+00	0	52	104	0	59	18887
2026-01-20 11:34:04.51	212.08	3.01	-43.8	-58.3	3.8	1.49e+00	0	52	104	0	59	18938
2026-01-20 11:34:05.52	212.16	3.06	-43.9	-58.3	3.8	1.49e+00	0	52	104	0	59	18945
2026-01-20 11:34:06.53	212.24	3.12	-43.9	-58.3	3.8	1.49e+00	0	52	104	0	59	18898
2026-01-20 11:34:07.54	212.33	3.18	-43.9	-58.3	3.8	1.49e+00	0	52	104	0	59	18838
2026-01-20 11:34:08.55	212.41	3.23	-43.9	-58.3	3.8	1.49e+00	0	52	104	0	59	18912
2026-01-20 11:34:09.56	212.49	3.29	-43.9	-58.4	3.8	1.49e+00	0	52	104	0	59	18954
2026-01-20 11:34:10.57	212.58	3.34	-43.9	-58.3	3.8	1.49e+00	0	52	104	0	59	18910
2026-01-20 11:34:11.58	212.66	3.40	-43.9	-58.3	3.8	1.49e+00	0	52	104	0	59	18880
2026-01-20 11:34:12.59	212.74	3.45	-43.9	-58.3	3.8	1.49e+00	0	52	104	0	59	18900
2026-01-20 11:34:13.60	212.83	3.51	-43.9	-58.3	3.8	1.49e+00	0	52	104	0	59	18910
2026-01-20 11:34:14.61	212.91	3.57	-43.9	-58.3	3.8	1.49e+00	0	52	104	0	59	18858
2026-01-20 11:34:15.62	213.00	3.62	-43.9	-58.3	3.8	1.49e+00	0	52	104	0	59	18892
2026-01-20 11:34:16.63	213.08	3.68	-43.9	-58.3	3.8	1.49e+00	0	53	104	0	59	18911
2026-01-20 11:34:17.64	213.17	3.74	-43.9	-58.3	3.8	1.49e+00	0	53	104	0	59	18894
2026-01-20 11:34:18.65	213.26	3.79	-43.9	-58.3	3.8	1.49e+00	0	53	104	0	59	18911
2026-01-20 11:34:19.66	213.34	3.85	-43.9	-58.3	3.8	1.49e+00	0	53	104	0	59	18887
2026-01-20 11:34:20.67	213.43	3.90	-43.9	-58.4	3.8	1.49e+00	0	53	104	0	59	18965
2026-01-20 11:34:21.68	213.52	3.96	-43.8	-58.3	3.8	1.49e+00	0	53	104	0	59	18921
2026-01-20 11:34:22.69	213.60	4.02	-43.9	-58.3	3.8	1.49e+00	0	53	104	0	59	18914
2026-01-20 11:34:23.70	213.69	4.07	-43.9	-58.3	3.8	1.49e+00	0	53	104	0	59	18892
2026-01-20 11:34:24.71	213.78	4.13	-43.8	-58.3	3.8	1.49e+00	0	53	104	0	59	18946
2026-01-20 11:34:25.72	213.87	4.19	-43.9	-58.3	3.8	1.49e+00	0	53	104	0	59	18902
2026-01-20 11:34:26.73	213.95	4.24	-43.9	-58.3	3.8	1.49e+00	0	53	104	0	59	18890
2026-01-20 11:34:27.74	214.04	4.30	-43.9	-58.3	3.8	1.49e+00	0	53	104	0	59	18884
2026-01-20 11:34:28.76	214.13	4.36	-43.9	-58.3	3.8	1.49e+00	0	53	104	0	59	18869
2026-01-20 11:34:29.77	214.22	4.42	-43.9	-58.3	3.8	1.49e+00	0	53	104	0	59	18886
2026-01-20 11:34:30.78	214.31	4.47	-43.9	-58.3	3.8	1.49e+00	0	53	104	0	59	18947
2026-01-20 11:34:31.79	214.40	4.53	-43.9	-58.3	3.8	1.49e+00	0	53	104	0	59	18938
2026-01-20 11:34:32.80	214.49	4.59	-43.9	-58.3	3.8	1.49e+00	0	54	104	0	59	18914
2026-01-20 11:34:33.81	214.58	4.65	-43.8	-58.3	3.8	1.49e+00	0	53	104	0	59	18816
2026-01-20 11:34:34.82	214.68	4.70	-43.8	-58.3	3.8	1.49e+00	0	54	104	0	59	18858
2026-01-20 11:34:35.83	214.77	4.76	-43.8	-58.3	3.8	1.49e+00	0	54	104	0	59	18890
2026-01-20 11:34:36.84	214.86	4.82	-43.9	-58.3	3.8	1.49e+00	0	54	104	0	59	18896
2026-01-20 11:34:37.85	214.95	4.87	-43.8	-58.3	3.8	1.49e+00	0	53	104	0	59	18889
2026-01-20 11:34:38.86	215.04	4.93	-43.8	-58.3	3.8	1.49e+00	0	54	104	0	59	18917
2026-01-20 11:34:39.87	215.14	4.99	-43.9	-58.3	3.8	1.49e+00	0	54	104	0	59	18870
2026-01-20 11:34:40.88	215.23	5.05	-43.9	-58.3	3.8	1.49e+00	0	54	104	0	59	18850
2026-01-20 11:34:41.89	215.32	5.11	-43.8	-58.3	3.8	1.49e+00	0	54	104	0	59	18875
2026-01-20 11:34:42.90	215.42	5.16	-43.8	-58.3	3.8	1.49e+00	0	54	104	0	59	18827
2026-01-20 11:34:43.91	215.51	5.22	-43.8	-58.3	3.8	1.49e+00	0	54	104	0	59	18760
2026-01-20 11:34:44.93	215.61	5.28	-43.8	-58.3	3.8	1.49e+00	0	54	104	0	59	18756
2026-01-20 11:34:45.94	215.70	5.34	-43.8	-58.2	3.8	1.49e+00	0	54	104	0	59	18653
2026-01-20 11:34:46.95	215.80	5.40	-43.8	-58.3	3.8	1.49e+00	0	54	104	0	59	18774
2026-01-20 11:34:47.96	215.89	5.45	-43.8	-58.2	3.8	1.49e+00	0	54	104	0	59	18657
2026-01-20 11:34:48.97	215.99	5.51	-43.8	-58.2	3.8	1.49e+00	0	54	104	0	59	18672
2026-01-20 11:34:49.98	216.09	5.57	-43.8	-58.2	3.8	1.49e+00	0	54	104	0	59	18522
2026-01-20 11:34:50.99	216.18	5.63	-43.8	-58.1	3.8	1.49e+00	0	54	104	0	59	18479
2026-01-20 11:34:52.00	216.28	5.69	-43.8	-58.1	3.8	1.49e+00	0	54	104	0	59	18409
2026-01-20 11:34:53.01	216.38	5.75	-43.8	-58.1	3.8	1.49e+00	0	55	104	0	59	18406
2026-01-20 11:34:54.02	216.48	5.80	-43.8	-58.0	3.8	1.49e+00	0	54	104	0	59	18247
2026-01-20 11:34:55.03	216.58	5.86	-43.8	-58.1	3.8	1.49e+00	0	54	104	0	59	18368
2026-01-20 11:34:56.04	216.67	5.92	-43.8	-58.0	3.8	1.49e+00	0	54	104	0	59	18193
2026-01-20 11:34:57.05	216.77	5.98	-43.8	-57.9	3.8	1.49e+00	0	55	104	0	59	17985
2026-01-20 11:34:58.06	216.87	6.04	-43.8	-57.8	3.8	1.49e+00	0	55	104	0	59	17799
2026-01-20 11:34:59.07	216.97	6.10	-43.8	-57.7	3.8	1.49e+00	0	55	104	0	59	17538
2026-01-20 11:35:00.08	217.07	6.16	-43.8	-57.5	3.8	1.49e+00	0	55	104	0	59	17242
2026-01-20 11:35:01.09	217.17	6.22	-43.8	-57.3	3.8	1.49e+00	0	55	104	0	59	16794
2026-01-20 11:35:02.10	217.28	6.28	-43.8	-57.1	3.8	1.49e+00	0	55	104	0	59	16449
2026-01-20 11:35:03.12	217.38	6.34	-43.8	-57.0	3.8	1.49e+00	0	55	104	0	59	16301
2026-01-20 11:35:04.13	217.48	6.39	-43.7	-56.7	3.8	1.49e+00	0	55	104	0	59	15723
2026-01-20 11:35:05.14	217.58	6.45	-43.7	-56.4	3.8	1.49e+00	0	55	104	0	59	15138
2026-01-20 11:35:06.15	217.69	6.51	-43.7	-56.0	3.8	1.48e+00	0	55	104	0	59	14399
2026-01-20 11:35:07.16	217.79	6.57	-43.7	-55.6	3.9	1.48e+00	0	55	104	0	59	13728
2026-01-20 11:35:08.17	217.89	6.63	-43.6	-54.8	4.2	1.44e+00	0	55	0	0	59	12644
2026-01-20 11:35:09.18	218.00	6.69	-43.6	-54.4	4.3	1.39e+00	0	55	0	0	59	12036
2026-01-20 11:35:10.19	218.10	6.75	-43.5	-54.2	4.4	1.28e+00	63	55	0	1048576	59	11697
2026-01-20 11:35:11.20	218.21	6.81	-43.5	-53.8	4.5	1.08e+00	0	55	0	3145728	59	11185
2026-01-20 11:35:12.21	218.31	6.87	-43.5	-53.7	4.6	9.67e-01	0	55	0	4194304	58	11696
2026-01-20 11:35:13.22	218.42	6.93	-43.5	-53.5	4.7	9.46e-01	0	55	0	6291456	58	11501
2026-01-20 11:35:14.23	218.52	6.99	-43.5	-53.6	4.6	9.54e-01	0	55	0	8388608	58	11661
2026-01-20 11:35:15.24	218.63	7.05	-43.5	-53.7	4.6	9.27e-01	0	55	0	10485760	58	11702
2026-01-20 11:35:16.25	218.74	7.11	-43.5	-53.8	4.5	9.88e-01	1	55	0	12582912	58	11850
2026-01-20 11:35:17.26	218.84	7.17	-43.5	-54.0	4.5	1.03e+00	25	55	0	13631488	58	12126
2026-01-20 11:35:18.27	218.95	7.23	-43.6	-54.3	4.4	1.27e+00	92	55	0	15728640	58	12560
2026-01-20 11:35:19.28	219.06	7.29	-43.6	-54.2	4.4	1.30e+00	78	55	0	17825792	58	12449
2026-01-20 11:35:20.30	219.17	7.35	-43.5	-54.1	4.4	1.25e+00	61	56	0	18874368	58	12265
2026-01-20 11:35:21.31	219.28	7.41	-43.5	-53.6	4.6	1.06e+00	0	56	0	20971520	58	11658
2026-01-20 11:35:22.32	219.39	7.47	-43.4	-53.2	4.8	9.04e-01	0	55	0	23068672	58	11033
2026-01-20 11:35:23.33	219.50	7.53	-43.3	-52.3	5.3	6.30e-01	0	55	0	25165824	58	9993
2026-01-20 11:35:24.34	219.61	7.59	-43.2	-51.4	5.9	4.28e-01	0	56	0	26214400	58	9047
2026-01-20 11:35:25.35	219.72	7.65	-43.0	-50.5	6.6	2.87e-01	0	55	0	28311552	58	8141
2026-01-20 11:35:26.36	219.83	7.71	-42.8	-49.7	7.3	1.60e-01	0	55	0	30408704	57	7880
2026-01-20 11:35:27.37	219.94	7.77	-42.7	-49.0	7.9	8.36e-02	0	56	0	32505856	57	7276
2026-01-20 11:35:28.38	220.05	7.83	-42.6	-48.7	8.3	5.73e-02	0	56	0	34603008	57	6980
2026-01-20 11:35:29.39	220.17	7.89	-42.5	-48.5	8.5	4.30e-02	0	56	0	35651584	56	7285
2026-01-20 11:35:30.40	220.28	7.95	-42.4	-48.3	8.8	3.34e-02	0	56	0	37748736	56	7042
2026-01-20 11:35:31.41	220.39	8.01	-42.4	-48.3	8.7	3.66e-02	0	56	0	39845888	56	7108
2026-01-20 11:35:32.42	220.51	8.08	-42.5	-48.2	8.9	4.47e-02	0	56	0	41943040	56	6996
2026-01-20 11:35:33.43	220.62	8.14	-42.4	-48.1	9.1	4.14e-02	0	56	0	44040192	56	6943
2026-01-20 11:35:34.44	220.74	8.20	-43.0	-50.9	4.5	1.49e+00	0	56	104	44040192	57	9040
2026-01-20 11:35:35.45	220.85	8.26	-43.2	-50.5	6.7	4.34e-01	0	56	0	45088768	57	8578
2026-01-20 11:35:36.46	220.97	8.32	-42.5	-47.9	9.3	4.57e-02	0	56	0	46137344	56	6760
2026-01-20 11:35:37.47	221.08	8.38	-43.1	-50.6	6.3	1.05e+00	0	56	0	48234496	57	8728
2026-01-20 11:35:38.48	221.20	8.44	-42.5	-48.1	9.1	2.37e-02	0	56	0	50331648	56	6901
2026-01-20 11:35:39.49	221.32	8.50	-42.5	-48.1	9.1	2.32e-02	0	56	0	52428800	56	6944
2026-01-20 11:35:40.50	221.44	8.56	-42.5	-48.0	9.2	2.04e-02	0	56	0	54525952	56	6875
2026-01-20 11:35:41.51	221.55	8.62	-42.5	-48.1	9.1	1.97e-02	0	56	0	55574528	56	6923
2026-01-20 11:35:42.52	221.67	8.69	-42.5	-48.1	9.2	2.18e-02	0	56	0	57671680	56	6888
2026-01-20 11:35:43.53	221.79	8.75	-42.5	-48.0	9.3	2.10e-02	0	56	0	59768832	56	6842
2026-01-20 11:35:44.54	221.91	8.81	-42.4	-47.8	9.5	1.61e-02	0	56	0	61865984	56	6686
2026-01-20 11:35:45.55	222.03	8.87	-42.4	-47.7	9.6	1.30e-02	0	56	0	63963136	56	6612
2026-01-20 11:35:46.56	222.15	8.93	-42.5	-47.8	9.5	1.54e-02	0	56	0	65011712	56	6718
2026-01-20 11:35:47.57	222.27	8.99	-42.4	-47.5	9.8	1.07e-02	0	56	0	67108864	56	6467
2026-01-20 11:35:48.58	222.40	9.05	-42.4	-47.7	9.6	1.09e-02	0	56	0	69206016	56	6621
2026-01-20 11:35:49.59	222.52	9.11	-42.5	-47.8	9.6	1.24e-02	0	56	0	71303168	56	6681
2026-01-20 11:35:50.60	222.64	9.18	-42.4	-47.4	9.9	1.06e-02	0	56	0	73400320	56	6413
2026-01-20 11:35:51.61	222.76	9.24	-42.3	-47.3	10.1	7.43e-03	0	56	0	74448896	56	6306
2026-01-20 11:35:52.61	222.89	9.30	-42.3	-47.4	10.0	7.64e-03	0	56	0	76546048	56	6380
2026-01-20 11:35:53.62	223.01	9.36	-42.4	-47.6	9.8	8.46e-03	0	57	0	78643200	56	6513
2026-01-20 11:35:54.63	223.13	9.42	-42.4	-47.5	9.8	8.92e-03	0	56	0	80740352	56	6494
2026-01-20 11:35:55.64	223.26	9.48	-42.4	-47.5	9.9	9.75e-03	0	56	0	82837504	56	6484
2026-01-20 11:35:56.65	223.39	9.55	-42.4	-47.5	9.9	8.61e-03	0	57	0	83886080	56	6471
2026-01-20 11:35:57.66	223.51	9.61	-42.4	-47.5	9.9	9.55e-03	0	56	0	85983232	56	6473
2026-01-20 11:35:58.67	223.64	9.67	-42.4	-47.4	10.0	6.81e-03	0	57	0	88080384	56	6414
2026-01-20 11:35:59.68	223.77	9.73	-42.4	-47.3	10.1	6.35e-03	0	56	0	90177536	56	6340
2026-01-20 11:36:00.69	223.89	9.79	-42.4	-47.4	10.1	6.83e-03	0	57	0	92274688	56	6404
2026-01-20 11:36:01.70	224.02	9.85	-42.4	-47.5	10.0	6.90e-03	0	56	0	93323264	56	6424
2026-01-20 11:36:02.71	224.15	9.92	-42.4	-47.4	10.1	7.13e-03	0	57	0	95420416	56	6362
2026-01-20 11:36:03.72	224.28	9.98	-42.4	-47.3	10.2	6.36e-03	0	57	0	97517568	56	6307
2026-01-20 11:36:04.73	224.41	10.04	-42.4	-47.4	10.1	6.43e-03	0	56	0	99614720	56	6348
2026-01-20 11:36:05.74	224.54	10.10	-42.4	-47.4	10.1	6.77e-03	0	57	0	101711872	56	6414
2026-01-20 11:36:06.74	224.67	10.16	-42.5	-47.5	10.0	7.24e-03	0	57	0	103809024	56	6468
2026-01-20 11:36:07.75	224.80	10.23	-42.4	-47.3	10.2	6.10e-03	0	57	0	104857600	56	6344
2026-01-20 11:36:08.76	224.93	10.29	-42.4	-47.2	10.2	5.70e-03	0	57	0	106954752	56	6273
2026-01-20 11:36:09.78	225.07	10.35	-42.4	-47.3	10.1	6.83e-03	0	57	0	109051904	56	6345
2026-01-20 11:36:10.78	225.20	10.41	-42.4	-47.3	10.2	5.85e-03	0	57	0	111149056	56	6306
2026-01-20 11:36:11.79	225.33	10.47	-42.4	-47.2	10.3	5.96e-03	0	57	0	113246208	56	6266
2026-01-20 11:36:12.80	225.47	10.54	-42.4	-47.3	10.2	5.65e-03	0	57	0	114294784	56	6302
2026-01-20 11:36:13.81	225.60	10.60	-42.4	-47.4	10.2	5.82e-03	0	57	0	116391936	56	6357
2026-01-20 11:36:14.82	225.74	10.66	-42.4	-47.2	10.3	5.55e-03	0	57	0	118489088	56	6272
2026-01-20 11:36:15.83	225.87	10.72	-42.4	-47.3	10.3	5.64e-03	0	57	0	120586240	56	6284
2026-01-20 11:36:16.84	226.01	10.79	-42.4	-47.3	10.3	5.95e-03	0	57	0	122683392	56	6327
2026-01-20 11:36:17.85	226.15	10.85	-42.4	-47.2	10.4	5.67e-03	0	57	0	123731968	56	6254
2026-01-20 11:36:18.86	226.28	10.91	-42.3	-47.1	10.5	4.19e-03	0	57	0	125829120	56	6192
2026-01-20 11:36:19.87	226.42	10.97	-42.3	-47.1	10.5	3.58e-03	0	57	0	127926272	56	6143
2026-01-20 11:36:20.88	226.56	11.04	-42.3	-47.0	10.6	4.27e-03	0	57	0	130023424	56	6124
2026-01-20 11:36:21.89	226.70	11.10	-42.3	-47.0	10.6	3.54e-03	0	57	0	132120576	56	6078
2026-01-20 11:36:22.89	226.84	11.16	-42.3	-47.0	10.6	3.19e-03	0	57	0	133169152	56	6105
2026-01-20 11:36:23.90	226.98	11.22	-42.3	-46.9	10.7	2.89e-03	0	57	0	135266304	56	6036
2026-01-20 11:36:24.91	227.12	11.28	-42.3	-47.0	10.6	3.45e-03	0	57	0	137363456	56	6107
2026-01-20 11:36:25.92	227.26	11.35	-42.3	-47.0	10.6	3.53e-03	0	57	0	139460608	56	6096
2026-01-20 11:36:26.93	227.40	11.41	-42.3	-46.9	10.7	3.26e-03	0	57	0	141557760	56	6023
2026-01-20 11:36:27.94	227.54	11.47	-42.3	-47.0	10.7	3.17e-03	0	57	0	142606336	56	6086
2026-01-20 11:36:28.95	227.69	11.53	-42.3	-47.0	10.6	3.04e-03	0	57	0	144703488	56	6077
2026-01-20 11:36:29.96	227.83	11.60	-42.4	-47.1	10.6	3.10e-03	0	57	0	146800640	56	6155
2026-01-20 11:36:30.97	227.98	11.66	-42.3	-46.8	10.8	2.91e-03	0	57	0	148897792	56	5980
2026-01-20 11:36:31.98	228.12	11.72	-42.3	-46.8	10.8	2.62e-03	0	57	0	150994944	56	5989
2026-01-20 11:36:32.99	228.27	11.78	-42.3	-46.8	10.8	2.63e-03	0	57	0	152043520	56	5979
2026-01-20 11:36:34.00	228.41	11.84	-42.3	-46.8	10.8	2.40e-03	0	57	0	154140672	56	5980
2026-01-20 11:36:35.01	228.56	11.91	-42.3	-46.9	10.8	2.54e-03	0	57	0	156237824	56	6017
2026-01-20 11:36:36.02	228.71	11.97	-42.3	-46.8	10.8	2.58e-03	0	57	0	158334976	56	5992
2026-01-20 11:36:37.03	228.86	12.03	-42.3	-46.9	10.7	2.55e-03	0	57	0	160432128	56	6047
2026-01-20 11:36:38.04	229.00	12.09	-42.3	-46.9	10.8	2.74e-03	0	57	0	162529280	56	6041
2026-01-20 11:36:39.05	229.15	12.16	-42.4	-47.0	10.7	2.96e-03	0	57	0	163577856	56	6088
2026-01-20 11:36:40.06	229.30	12.22	-42.3	-46.9	10.8	2.98e-03	0	57	0	165675008	56	6049
2026-01-20 11:36:41.07	229.45	12.28	-42.3	-46.9	10.8	3.35e-03	0	57	0	167772160	56	6025
2026-01-20 11:36:42.07	229.60	12.34	-42.3	-46.9	10.8	2.28e-03	0	57	0	169869312	56	6014
2026-01-20 11:36:43.08	229.76	12.40	-42.3	-46.8	10.8	2.64e-03	0	57	0	171966464	56	5975
2026-01-20 11:36:44.09	229.91	12.47	-42.3	-46.8	10.9	2.16e-03	0	57	0	173015040	56	5951
2026-01-20 11:36:45.10	230.06	12.53	-42.3	-46.8	10.9	2.27e-03	0	57	0	175112192	56	5973
2026-01-20 11:36:46.11	230.21	12.59	-42.3	-46.8	11.0	2.31e-03	0	57	0	177209344	56	5934
2026-01-20 11:36:47.12	230.37	12.65	-42.3	-46.9	10.8	2.49e-03	0	57	0	179306496	56	6012
2026-01-20 11:36:48.13	230.52	12.71	-42.3	-46.9	10.8	2.89e-03	0	57	0	181403648	56	6061
2026-01-20 11:36:49.14	230.68	12.78	-42.4	-47.0	10.7	2.95e-03	0	57	0	182452224	56	6078
2026-01-20 11:36:50.15	230.84	12.84	-42.3	-46.9	10.8	2.59e-03	0	57	0	184549376	56	6059
2026-01-20 11:36:51.16	230.99	12.90	-42.4	-47.0	10.7	2.82e-03	0	57	0	186646528	56	6080
2026-01-20 11:36:52.17	231.15	12.96	-42.4	-46.9	10.8	2.58e-03	0	58	0	188743680	56	6047
2026-01-20 11:36:53.18	231.31	13.02	-42.3	-46.8	11.0	2.17e-03	0	57	0	190840832	56	5950
2026-01-20 11:36:54.19	231.47	13.09	-42.3	-46.9	10.9	2.18e-03	0	57	0	191889408	56	5999
2026-01-20 11:36:55.20	231.63	13.15	-42.3	-46.8	11.0	1.87e-03	0	57	0	193986560	56	5929
2026-01-20 11:36:56.21	231.79	13.21	-42.2	-46.7	11.1	1.76e-03	0	57	0	196083712	56	5868
2026-01-20 11:36:57.22	231.95	13.27	-42.3	-46.7	11.0	1.76e-03	0	57	0	198180864	56	5914
2026-01-20 11:36:58.23	232.11	13.33	-42.2	-46.6	11.1	1.73e-03	0	57	0	200278016	56	5847
2026-01-20 11:36:59.24	232.27	13.39	-42.3	-46.8	11.0	1.64e-03	0	57	0	201326592	56	5939
2026-01-20 11:37:00.25	232.43	13.46	-42.2	-46.7	11.1	1.81e-03	0	57	0	203423744	56	5873
2026-01-20 11:37:01.26	232.60	13.52	-42.2	-46.5	11.3	1.40e-03	0	57	0	205520896	56	5762
2026-01-20 11:37:02.27	232.76	13.58	-42.2	-46.6	11.2	1.40e-03	0	58	0	207618048	56	5811
2026-01-20 11:37:03.28	232.92	13.64	-42.2	-46.7	11.1	1.55e-03	0	58	0	209715200	56	5862
2026-01-20 11:37:04.29	233.09	13.70	-42.2	-46.6	11.2	1.34e-03	0	57	0	210763776	56	5790
2026-01-20 11:37:05.30	233.26	13.76	-42.3	-46.7	11.2	1.37e-03	0	58	0	212860928	56	5856
2026-01-20 11:37:06.31	233.42	13.82	-42.2	-46.5	11.3	1.34e-03	0	58	0	214958080	56	5780
2026-01-20 11:37:07.31	233.59	13.88	-42.2	-46.5	11.3	1.26e-03	0	58	0	217055232	56	5770
2026-01-20 11:37:08.33	233.76	13.95	-42.2	-46.6	11.2	1.21e-03	0	57	0	219152384	56	5833
2026-01-20 11:37:09.34	233.93	14.01	-42.3	-46.8	11.0	1.57e-03	0	57	0	220200960	56	5924
2026-01-20 11:37:10.35	234.10	14.07	-42.3	-46.7	11.1	1.69e-03	0	58	0	222298112	56	5898
2026-01-20 11:37:11.35	234.26	14.13	-42.3	-46.7	11.1	1.71e-03	0	57	0	224395264	56	5905
2026-01-20 11:37:12.36	234.43	14.19	-42.3	-46.8	11.0	1.74e-03	0	58	0	226492416	56	5971
2026-01-20 11:37:13.37	234.61	14.25	-42.3	-46.8	10.9	1.92e-03	0	58	0	228589568	56	5988
2026-01-20 11:37:14.38	234.78	14.31	-42.4	-46.9	10.9	2.34e-03	0	58	0	229638144	56	6011
2026-01-20 11:37:15.39	234.95	14.37	-42.4	-46.9	10.9	2.18e-03	0	58	0	231735296	56	6015
2026-01-20 11:37:16.40	235.12	14.43	-42.4	-46.9	10.9	2.28e-03	0	58	0	233832448	56	5999
2026-01-20 11:37:17.41	235.30	14.49	-42.3	-46.6	11.2	1.64e-03	0	58	0	235929600	56	5837
2026-01-20 11:37:18.42	235.47	14.55	-42.3	-46.6	11.2	1.21e-03	0	58	0	238026752	56	5841
2026-01-20 11:37:19.43	235.65	14.61	-42.3	-46.7	11.1	1.39e-03	0	58	0	240123904	56	5856
2026-01-20 11:37:20.44	235.82	14.67	-42.3	-46.6	11.2	1.26e-03	0	58	0	241172480	56	5812
2026-01-20 11:37:21.44	236.00	14.73	-42.3	-46.6	11.3	1.25e-03	0	58	0	243269632	56	5826
2026-01-20 11:37:22.45	236.18	14.79	-42.3	-46.6	11.3	1.37e-03	0	58	0	245366784	56	5807
2026-01-20 11:37:23.46	236.35	14.85	-42.3	-46.7	11.2	1.30e-03	0	58	0	247463936	56	5869
2026-01-20 11:37:24.47	236.53	14.91	-42.3	-46.6	11.2	1.47e-03	0	58	0	249561088	56	5836
2026-01-20 11:37:25.48	236.71	14.97	-42.2	-46.6	11.3	1.37e-03	0	58	0	250609664	56	5793
2026-01-20 11:37:26.49	236.89	15.03	-42.3	-46.6	11.3	1.08e-03	0	58	0	252706816	56	5795
2026-01-20 11:37:27.50	237.07	15.09	-42.2	-46.4	11.5	8.09e-04	0	58	0	254803968	56	5678
2026-01-20 11:37:28.51	237.26	15.15	-42.1	-46.2	11.7	7.26e-04	0	58	0	256901120	56	5574
2026-01-20 11:37:29.52	237.44	15.21	-42.0	-46.1	11.8	5.39e-04	0	58	0	258998272	56	5471
2026-01-20 11:37:30.53	237.62	15.26	-42.0	-46.0	11.9	4.75e-04	0	58	0	260046848	56	5443
2026-01-20 11:37:31.54	237.80	15.32	-41.8	-45.8	11.9	3.71e-04	0	58	0	262144000	55	5627
2026-01-20 11:37:32.55	237.99	15.38	-41.7	-45.5	12.2	3.11e-04	0	58	0	264241152	55	5464
2026-01-20 11:37:33.56	238.17	15.44	-41.7	-45.5	12.2	2.30e-04	0	58	0	266338304	55	5464
2026-01-20 11:37:34.57	238.36	15.50	-41.7	-45.5	12.2	2.08e-04	0	58	0	268435456	55	5444
2026-01-20 11:37:35.58	238.55	15.56	-41.7	-45.5	12.3	1.81e-04	0	58	0	269484032	55	5433
2026-01-20 11:37:36.59	238.73	15.61	-41.7	-45.5	12.2	2.20e-04	0	58	0	271581184	55	5462
2026-01-20 11:37:37.60	238.92	15.67	-41.8	-45.6	12.1	2.43e-04	0	58	0	273678336	55	5520
2026-01-20 11:37:38.60	239.11	15.73	-41.7	-45.6	12.1	2.30e-04	0	58	0	275775488	55	5495
2026-01-20 11:37:39.61	239.30	15.79	-41.7	-45.5	12.3	2.44e-04	0	58	0	277872640	55	5425
2026-01-20 11:37:40.62	239.49	15.84	-41.6	-45.3	12.5	1.27e-04	0	58	0	278921216	55	5296
2026-01-20 11:37:41.63	239.68	15.90	-41.5	-45.2	12.6	1.01e-04	0	58	0	281018368	55	5222
2026-01-20 11:37:42.64	239.87	15.96	-41.5	-45.1	12.7	1.01e-04	0	58	0	283115520	55	5197
2026-01-20 11:37:43.65	240.06	16.02	-41.5	-45.1	12.6	7.55e-05	0	58	0	285212672	55	5190
2026-01-20 11:37:44.66	240.26	16.07	-41.5	-45.1	12.7	7.70e-05	0	58	0	287309824	54	5488
2026-01-20 11:37:45.67	240.45	16.13	-41.5	-45.1	12.7	7.32e-05	0	58	0	288358400	54	5489
2026-01-20 11:37:46.68	240.64	16.18	-41.5	-45.1	12.7	1.07e-04	0	58	0	290455552	54	5500
2026-01-20 11:37:47.69	240.84	16.24	-41.6	-45.3	12.5	1.01e-04	0	58	0	292552704	54	5619
2026-01-20 11:37:48.70	241.03	16.30	-41.5	-45.2	12.6	1.06e-04	0	58	0	294649856	54	5541
2026-01-20 11:37:49.72	241.23	16.35	-41.6	-45.2	12.6	1.11e-04	0	58	0	296747008	54	5587
2026-01-20 11:37:50.72	241.43	16.41	-41.6	-45.3	12.5	1.14e-04	0	58	0	297795584	54	5607
2026-01-20 11:37:51.73	241.63	16.46	-41.5	-45.2	12.6	8.69e-05	0	58	0	299892736	54	5540
2026-01-20 11:37:52.74	241.82	16.52	-41.5	-45.1	12.7	8.46e-05	0	58	0	301989888	54	5482
2026-01-20 11:37:53.75	242.02	16.57	-41.6	-45.2	12.6	9.00e-05	0	58	0	304087040	54	5559
2026-01-20 11:37:54.76	242.22	16.63	-41.6	-45.2	12.6	9.68e-05	0	58	0	306184192	54	5579
2026-01-20 11:37:55.77	242.42	16.68	-41.6	-45.4	12.4	1.22e-04	0	58	0	308281344	54	5672
2026-01-20 11:37:56.78	242.63	16.74	-41.6	-45.4	12.4	1.26e-04	0	58	0	309329920	54	5677
2026-01-20 11:37:57.79	242.83	16.79	-41.7	-45.5	12.4	1.06e-04	0	58	0	311427072	54	5726
2026-01-20 11:37:58.80	243.03	16.85	-41.7	-45.6	12.2	1.85e-04	0	58	0	313524224	54	5805
2026-01-20 11:37:59.81	243.23	16.90	-41.8	-45.6	12.2	2.54e-04	0	58	0	315621376	54	5827
2026-01-20 11:38:00.82	243.44	16.95	-41.8	-45.7	12.1	2.43e-04	0	58	0	317718528	54	5864
2026-01-20 11:38:01.83	243.64	17.01	-41.8	-45.7	12.1	2.55e-04	0	58	0	318767104	54	5903
2026-01-20 11:38:02.84	243.85	17.06	-41.8	-45.7	12.1	2.78e-04	0	58	0	320864256	54	5918
2026-01-20 11:38:03.84	244.05	17.11	-41.8	-45.7	12.1	2.77e-04	0	58	0	322961408	54	5916
2026-01-20 11:38:04.85	244.26	17.16	-41.8	-45.7	12.1	3.20e-04	0	58	0	325058560	54	5916
2026-01-20 11:38:05.86	244.47	17.22	-41.8	-45.6	12.2	2.51e-04	0	58	0	327155712	54	5838
2026-01-20 11:38:06.87	244.68	17.27	-41.8	-45.7	12.1	2.44e-04	0	58	0	328204288	54	5883
2026-01-20 11:38:07.88	244.89	17.32	-41.8	-45.7	12.1	2.53e-04	0	58	0	330301440	54	5878
2026-01-20 11:38:08.89	245.09	17.37	-41.9	-45.8	12.0	3.02e-04	0	58	0	332398592	54	5966
2026-01-20 11:38:09.90	245.31	17.42	-41.9	-45.9	11.9	3.36e-04	0	58	0	334495744	54	6003
2026-01-20 11:38:10.91	245.52	17.47	-42.0	-46.0	11.8	4.14e-04	0	58	0	336592896	54	6111
2026-01-20 11:38:11.92	245.73	17.52	-42.0	-46.1	11.7	5.42e-04	0	58	0	337641472	54	6137
2026-01-20 11:38:12.93	245.94	17.57	-42.0	-46.2	11.6	5.78e-04	0	58	0	339738624	54	6211
2026-01-20 11:38:13.94	246.15	17.62	-42.0	-46.1	11.6	6.33e-04	0	58	0	341835776	54	6201
2026-01-20 11:38:14.95	246.37	17.67	-42.0	-46.2	11.6	6.42e-04	0	58	0	343932928	54	6209
2026-01-20 11:38:15.96	246.58	17.72	-42.1	-46.3	11.5	7.68e-04	0	58	0	346030080	54	6276
2026-01-20 11:38:16.97	246.80	17.77	-42.1	-46.3	11.5	8.06e-04	0	58	0	347078656	54	6280
2026-01-20 11:38:17.98	247.01	17.82	-42.1	-46.2	11.6	7.52e-04	0	58	0	349175808	54	6263
2026-01-20 11:38:18.99	247.23	17.87	-42.1	-46.3	11.5	8.49e-04	0	58	0	351272960	54	6344
2026-01-20 11:38:20.00	247.45	17.92	-42.1	-46.4	11.4	9.83e-04	0	58	0	353370112	54	6367
2026-01-20 11:38:21.01	247.67	17.97	-42.2	-46.5	11.3	1.12e-03	0	58	0	355467264	54	6466
2026-01-20 11:38:22.01	247.88	18.01	-42.2	-46.6	11.2	1.32e-03	0	58	0	356515840	55	6155
2026-01-20 11:38:23.02	248.10	18.06	-42.3	-46.8	11.0	1.76e-03	0	58	0	358612992	55	6287
2026-01-20 11:38:24.03	248.32	18.11	-42.4	-47.0	10.8	2.23e-03	0	58	0	360710144	55	6427
2026-01-20 11:38:25.04	248.54	18.16	-42.4	-47.0	10.8	2.54e-03	0	58	0	362807296	55	6463
2026-01-20 11:38:26.05	248.76	18.20	-42.4	-47.1	10.7	3.00e-03	0	58	0	364904448	55	6514
2026-01-20 11:38:27.06	248.99	18.25	-42.4	-47.1	10.7	2.81e-03	0	58	0	365953024	55	6495
2026-01-20 11:38:28.07	249.21	18.29	-42.5	-47.1	10.7	3.17e-03	0	58	0	368050176	55	6526
2026-01-20 11:38:29.08	249.43	18.34	-42.5	-47.2	10.6	3.58e-03	0	58	0	370147328	55	6606
2026-01-20 11:38:30.09	249.66	18.38	-42.5	-47.3	10.5	4.17e-03	0	58	0	372244480	55	6664
2026-01-20 11:38:31.10	249.88	18.43	-42.6	-47.4	10.4	4.38e-03	0	58	0	374341632	55	6739
2026-01-20 11:38:32.11	250.11	18.47	-42.6	-47.5	10.3	5.47e-03	0	58	0	375390208	55	6807
2026-01-20 11:38:33.12	250.33	18.52	-42.6	-47.4	10.3	5.38e-03	0	58	0	377487360	55	6759
2026-01-20 11:38:34.13	250.56	18.56	-42.6	-47.5	10.2	5.42e-03	0	58	0	379584512	55	6856
2026-01-20 11:38:35.14	250.79	18.60	-42.6	-47.4	10.3	5.21e-03	0	58	0	381681664	55	6792
2026-01-20 11:38:36.15	251.01	18.65	-42.6	-47.4	10.4	5.11e-03	0	58	0	383778816	55	6749
2026-01-20 11:38:37.16	251.24	18.69	-42.5	-47.2	10.5	4.17e-03	0	58	0	384827392	55	6615
2026-01-20 11:38:38.17	251.47	18.73	-42.5	-47.2	10.5	3.95e-03	0	58	0	386924544	55	6624
2026-01-20 11:38:39.18	251.70	18.77	-42.5	-47.1	10.6	3.52e-03	0	58	0	389021696	55	6560
2026-01-20 11:38:40.18	251.93	18.82	-42.5	-47.2	10.6	3.09e-03	0	58	0	391118848	55	6584
2026-01-20 11:38:41.19	252.16	18.86	-42.4	-47.0	10.8	3.07e-03	0	58	0	393216000	55	6448
2026-01-20 11:38:42.20	252.39	18.90	-42.5	-47.0	10.7	2.98e-03	0	58	0	395313152	55	6491
2026-01-20 11:38:43.21	252.62	18.94	-42.4	-47.0	10.8	2.67e-03	0	58	0	396361728	55	6462
2026-01-20 11:38:44.22	252.85	18.98	-42.5	-47.2	10.5	3.32e-03	0	58	0	398458880	55	6631
2026-01-20 11:38:45.23	253.09	19.02	-42.5	-47.2	10.5	3.70e-03	0	58	0	400556032	55	6623
2026-01-20 11:38:46.24	253.32	19.06	-42.5	-47.2	10.5	3.64e-03	0	58	0	402653184	55	6613
2026-01-20 11:38:47.25	253.56	19.10	-42.5	-47.2	10.5	3.64e-03	0	58	0	404750336	55	6629
2026-01-20 11:38:48.26	253.79	19.13	-42.5	-47.2	10.6	3.78e-03	0	59	0	405798912	55	6604
2026-01-20 11:38:49.27	254.03	19.17	-42.5	-47.1	10.6	3.14e-03	0	58	0	407896064	55	6521
2026-01-20 11:38:50.28	254.26	19.21	-42.4	-46.8	10.9	2.79e-03	0	58	0	409993216	55	6344
2026-01-20 11:38:51.28	254.50	19.25	-42.4	-46.9	10.9	2.14e-03	0	58	0	412090368	55	6371
2026-01-20 11:38:52.29	254.73	19.28	-42.3	-46.7	11.1	1.88e-03	0	58	0	414187520	55	6256
2026-01-20 11:38:53.30	254.97	19.32	-42.3	-46.7	11.1	1.68e-03	0	59	0	415236096	55	6271
2026-01-20 11:38:54.31	255.21	19.36	-42.3	-46.7	11.0	1.67e-03	0	58	0	417333248	55	6246
2026-01-20 11:38:55.32	255.45	19.39	-42.3	-46.7	11.1	1.58e-03	0	58	0	419430400	55	6234
2026-01-20 11:38:56.33	255.69	19.43	-42.3	-46.7	11.1	1.56e-03	0	59	0	421527552	55	6242
2026-01-20 11:38:57.34	255.93	19.46	-42.3	-46.8	11.0	1.80e-03	0	59	0	423624704	55	6307
2026-01-20 11:38:58.35	256.17	19.49	-42.3	-46.8	11.0	1.98e-03	0	58	0	424673280	55	6320
2026-01-20 11:38:59.36	256.41	19.53	-42.4	-46.9	10.9	2.11e-03	0	58	0	426770432	55	6380
2026-01-20 11:39:00.37	256.65	19.56	-42.4	-47.0	10.8	2.27e-03	0	58	0	428867584	55	6430
2026-01-20 11:39:01.38	256.89	19.59	-42.5	-47.1	10.7	2.98e-03	0	59	0	430964736	55	6525
2026-01-20 11:39:02.39	257.14	19.63	-42.5	-47.1	10.6	3.17e-03	0	58	0	433061888	55	6541
2026-01-20 11:39:03.40	257.38	19.66	-42.5	-47.1	10.7	2.98e-03	0	58	0	434110464	55	6497
2026-01-20 11:39:04.41	257.62	19.69	-42.4	-46.9	10.9	2.55e-03	0	59	0	436207616	55	6387
2026-01-20 11:39:05.42	257.87	19.72	-42.3	-46.7	11.0	1.82e-03	0	58	0	438304768	55	6272
2026-01-20 11:39:06.42	258.11	19.75	-42.2	-46.6	11.2	1.43e-03	0	58	0	440401920	55	6143
2026-01-20 11:39:07.43	258.35	19.78	-42.2	-46.4	11.4	1.20e-03	0	58	0	442499072	55	6051
2026-01-20 11:39:08.44	258.60	19.81	-42.2	-46.4	11.4	9.34e-04	0	59	0	443547648	55	6013
2026-01-20 11:39:09.45	258.84	19.84	-42.1	-46.3	11.5	8.97e-04	0	59	0	445644800	55	5937
2026-01-20 11:39:10.46	259.09	19.87	-42.1	-46.3	11.5	8.11e-04	0	58	0	447741952	55	5963
2026-01-20 11:39:11.47	259.34	19.89	-42.2	-46.4	11.4	9.44e-04	0	58	0	449839104	55	6008
2026-01-20 11:39:12.48	259.58	19.92	-42.2	-46.5	11.3	9.55e-04	0	58	0	451936256	55	6074
2026-01-20 11:39:13.49	259.83	19.95	-42.2	-46.5	11.3	1.05e-03	0	59	0	452984832	55	6109
2026-01-20 11:39:14.50	260.08	19.97	-42.2	-46.4	11.3	9.97e-04	0	58	0	455081984	55	6060
2026-01-20 11:39:15.51	260.33	20.00	-42.2	-46.5	11.3	1.20e-03	0	59	0	457179136	55	6080
2026-01-20 11:39:16.52	260.58	20.03	-42.2	-46.5	11.2	1.21e-03	0	58	0	459276288	55	6116
2026-01-20 11:39:17.53	260.82	20.05	-42.2	-46.5	11.2	1.15e-03	0	58	0	461373440	55	6117
2026-01-20 11:39:18.54	261.07	20.08	-42.2	-46.4	11.3	1.16e-03	0	59	0	463470592	55	6058
2026-01-20 11:39:19.55	261.32	20.10	-42.1	-46.3	11.5	8.13e-04	0	59	0	464519168	55	5946
2026-01-20 11:39:20.56	261.57	20.12	-42.1	-46.2	11.6	7.61e-04	0	58	0	466616320	55	5882
2026-01-20 11:39:21.57	261.82	20.15	-42.1	-46.2	11.6	5.84e-04	0	59	0	468713472	55	5864
2026-01-20 11:39:22.58	262.08	20.17	-42.0	-46.1	11.7	6.09e-04	0	58	0	470810624	55	5831
2026-01-20 11:39:23.59	262.33	20.19	-42.1	-46.1	11.7	5.54e-04	0	59	0	472907776	55	5847
2026-01-20 11:39:24.60	262.58	20.21	-42.0	-46.0	11.8	5.55e-04	0	59	0	473956352	55	5758
2026-01-20 11:39:25.61	262.83	20.23	-42.1	-46.2	11.7	5.16e-04	0	59	0	476053504	55	5868
2026-01-20 11:39:26.62	263.08	20.25	-42.1	-46.2	11.6	6.42e-04	0	59	0	478150656	55	5874
2026-01-20 11:39:27.63	263.33	20.27	-42.1	-46.2	11.6	6.83e-04	0	59	0	480247808	55	5918
2026-01-20 11:39:28.64	263.59	20.29	-42.2	-46.4	11.5	8.24e-04	0	59	0	482344960	55	6009
2026-01-20 11:39:29.65	263.84	20.31	-42.1	-46.2	11.7	6.89e-04	0	59	0	483393536	55	5867
2026-01-20 11:39:30.66	264.09	20.33	-42.0	-46.1	11.7	6.02e-04	0	58	0	485490688	55	5823
2026-01-20 11:39:31.67	264.35	20.34	-42.1	-46.2	11.7	5.20e-04	0	59	0	487587840	55	5866
2026-01-20 11:39:32.67	264.60	20.36	-42.0	-46.0	11.8	5.07e-04	0	59	0	489684992	55	5748
2026-01-20 11:39:33.68	264.85	20.38	-42.0	-46.0	11.9	4.10e-04	0	59	0	491782144	55	5739
2026-01-20 11:39:34.69	265.11	20.39	-42.0	-46.1	11.8	4.72e-04	0	59	0	492830720	55	5803
2026-01-20 11:39:35.70	265.36	20.41	-42.1	-46.3	11.5	6.32e-04	0	59	0	494927872	55	5944
2026-01-20 11:39:36.71	265.62	20.42	-42.2	-46.5	11.3	7.79e-04	0	59	0	497025024	55	6069
2026-01-20 11:39:37.73	265.88	20.44	-42.3	-46.7	11.1	1.40e-03	0	59	0	499122176	55	6223
2026-01-20 11:39:38.74	266.13	20.45	-42.4	-46.9	10.9	2.01e-03	0	59	0	501219328	55	6378
2026-01-20 11:39:39.74	266.38	20.47	-42.5	-47.1	10.7	2.70e-03	0	59	0	502267904	55	6526
2026-01-20 11:39:40.75	266.64	20.48	-42.5	-47.2	10.6	3.31e-03	0	59	0	504365056	55	6576
2026-01-20 11:39:41.76	266.90	20.49	-42.5	-47.2	10.6	3.60e-03	0	59	0	506462208	55	6618
2026-01-20 11:39:42.77	267.15	20.50	-42.4	-47.0	10.8	3.28e-03	0	59	0	508559360	55	6436
2026-01-20 11:39:43.78	267.41	20.51	-42.4	-46.8	10.9	2.44e-03	0	59	0	510656512	55	6336
2026-01-20 11:39:44.79	267.67	20.52	-42.2	-46.5	11.3	1.67e-03	0	58	0	511705088	55	6109
2026-01-20 11:39:45.80	267.92	20.53	-42.2	-46.3	11.4	1.02e-03	0	59	0	513802240	55	5989
2026-01-20 11:39:46.81	268.18	20.54	-42.1	-46.1	11.7	6.64e-04	0	59	0	515899392	55	5853
2026-01-20 11:39:47.82	268.44	20.55	-42.1	-46.2	11.6	6.19e-04	0	59	0	517996544	55	5901
2026-01-20 11:39:48.83	268.69	20.56	-42.2	-46.4	11.4	7.68e-04	0	59	0	520093696	55	6007
2026-01-20 11:39:49.83	268.95	20.56	-42.2	-46.4	11.4	9.57e-04	0	59	0	521142272	55	6026
2026-01-20 11:39:50.84	269.21	20.57	-42.3	-46.6	11.2	1.11e-03	0	59	0	523239424	55	6135
2026-01-20 11:39:51.85	269.46	20.58	-42.3	-46.8	11.0	1.55e-03	0	59	0	525336576	55	6284
2026-01-20 11:39:52.86	269.72	20.58	-42.4	-46.9	10.9	2.13e-03	0	59	0	527433728	55	6404
2026-01-20 11:39:53.87	269.98	20.59	-42.5	-47.1	10.7	2.72e-03	0	59	0	529530880	55	6535
2026-01-20 11:39:54.88	270.24	20.59	-42.5	-47.2	10.6	3.23e-03	0	59	0	531628032	55	6608
2026-01-20 11:39:55.89	270.49	20.60	-42.5	-47.1	10.7	3.42e-03	0	59	0	532676608	55	6568
2026-01-20 11:39:56.90	270.75	20.60	-42.5	-47.1	10.6	3.28e-03	0	59	0	534773760	55	6542
2026-01-20 11:39:57.91	271.01	20.60	-42.4	-46.9	10.8	2.98e-03	0	59	0	536870912	55	6407
2026-01-20 11:39:58.92	271.27	20.61	-42.4	-46.9	10.8	2.37e-03	0	59	0	538968064	55	6418
2026-01-20 11:39:59.93	271.53	20.61	-42.4	-47.0	10.8	2.51e-03	0	59	0	541065216	55	6444
2026-01-20 11:40:00.94	271.78	20.61	-42.5	-47.2	10.6	3.04e-03	0	59	0	542113792	55	6589
2026-01-20 11:40:01.95	272.04	20.61	-42.5	-47.2	10.5	3.30e-03	0	59	0	544210944	55	6632
2026-01-20 11:40:02.96	272.30	20.61	-42.6	-47.4	10.4	4.62e-03	0	59	0	546308096	55	6767
2026-01-20 11:40:03.97	272.56	20.61	-42.6	-47.4	10.3	5.04e-03	0	59	0	548405248	55	6777
2026-01-20 11:40:04.98	272.82	20.61	-42.5	-47.2	10.6	3.90e-03	0	59	0	550502400	55	6622
2026-01-20 11:40:05.99	273.07	20.61	-42.5	-47.2	10.6	3.57e-03	0	59	0	551550976	55	6574
2026-01-20 11:40:07.00	273.33	20.60	-42.5	-47.1	10.7	2.96e-03	0	59	0	553648128	55	6525
2026-01-20 11:40:08.00	273.59	20.60	-42.5	-47.1	10.7	2.69e-03	0	59	0	555745280	55	6502
2026-01-20 11:40:09.01	273.84	20.60	-42.4	-47.0	10.8	2.93e-03	0	59	0	557842432	55	6450
2026-01-20 11:40:10.02	274.10	20.59	-42.4	-46.9	10.8	2.35e-03	0	59	0	559939584	55	6411
2026-01-20 11:40:11.03	274.36	20.59	-42.3	-46.7	11.0	2.14e-03	0	59	0	560988160	55	6256
2026-01-20 11:40:12.04	274.62	20.58	-42.3	-46.6	11.2	1.55e-03	0	59	0	563085312	55	6186
2026-01-20 11:40:13.05	274.88	20.58	-42.2	-46.5	11.3	1.21e-03	0	59	0	565182464	55	6101
2026-01-20 11:40:14.06	275.13	20.57	-42.1	-46.3	11.6	8.19e-04	0	59	0	567279616	55	5927
2026-01-20 11:40:15.07	275.39	20.56	-42.1	-46.2	11.6	7.48e-04	0	59	0	569376768	55	5869
2026-01-20 11:40:16.08	275.65	20.56	-42.0	-46.1	11.8	5.84e-04	0	59	0	570425344	55	5817
2026-01-20 11:40:17.09	275.90	20.55	-42.1	-46.2	11.7	5.71e-04	0	59	0	572522496	55	5882
2026-01-20 11:40:18.10	276.16	20.54	-42.1	-46.3	11.6	6.53e-04	0	59	0	574619648	55	5929
2026-01-20 11:40:19.11	276.42	20.53	-42.2	-46.4	11.4	7.72e-04	0	59	0	576716800	55	6040
2026-01-20 11:40:20.12	276.67	20.52	-42.3	-46.6	11.2	1.14e-03	0	59	0	578813952	55	6174
2026-01-20 11:40:21.13	276.93	20.51	-42.3	-46.7	11.1	1.65e-03	0	59	0	579862528	55	6256
2026-01-20 11:40:22.14	277.19	20.50	-42.3	-46.8	11.0	1.91e-03	0	59	0	581959680	55	6313
2026-01-20 11:40:23.15	277.44	20.49	-42.4	-46.9	10.9	2.17e-03	0	59	0	584056832	55	6369
2026-01-20 11:40:24.16	277.70	20.48	-42.3	-46.8	11.0	2.01e-03	0	59	0	586153984	55	6284
2026-01-20 11:40:25.17	277.95	20.46	-42.3	-46.7	11.1	1.63e-03	0	59	0	588251136	55	6251
2026-01-20 11:40:26.18	278.21	20.45	-42.3	-46.7	11.1	1.51e-03	0	59	0	589299712	55	6206
2026-01-20 11:40:27.19	278.46	20.44	-42.3	-46.7	11.1	1.56e-03	0	59	0	591396864	55	6234
2026-01-20 11:40:28.20	278.72	20.42	-42.3	-46.8	11.0	1.84e-03	0	59	0	593494016	55	6285
2026-01-20 11:40:29.21	278.97	20.41	-42.4	-46.9	10.9	2.19e-03	0	59	0	595591168	55	6402
2026-01-20 11:40:30.22	279.23	20.39	-42.4	-46.9	10.8	2.22e-03	0	59	0	597688320	55	6394
2026-01-20 11:40:31.23	279.48	20.38	-42.4	-46.9	10.8	2.61e-03	0	59	0	598736896	55	6407
2026-01-20 11:40:32.23	279.73	20.36	-42.4	-47.0	10.8	2.47e-03	0	59	0	600834048	55	6422
2026-01-20 11:40:33.24	279.99	20.34	-42.4	-46.9	10.9	2.50e-03	0	59	0	602931200	55	6378
2026-01-20 11:40:34.25	280.24	20.32	-42.4	-46.9	10.9	2.08e-03	0	59	0	605028352	55	6368
2026-01-20 11:40:35.26	280.49	20.31	-42.4	-46.9	10.9	2.18e-03	0	59	0	607125504	55	6380
2026-01-20 11:40:36.27	280.75	20.29	-42.4	-47.0	10.8	2.60e-03	0	59	0	609222656	55	6446
2026-01-20 11:40:37.28	281.00	20.27	-42.4	-47.0	10.7	3.15e-03	0	59	0	610271232	55	6476
2026-01-20 11:40:38.29	281.25	20.25	-42.4	-46.9	10.8	2.93e-03	0	59	0	612368384	55	6396
2026-01-20 11:40:39.30	281.50	20.23	-42.3	-46.7	11.1	2.18e-03	0	59	0	614465536	55	6246
2026-01-20 11:40:40.31	281.75	20.21	-42.1	-46.4	11.4	1.22e-03	0	59	0	616562688	55	6004
2026-01-20 11:40:41.32	282.00	20.19	-42.1	-46.3	11.4	8.65e-04	0	59	0	618659840	55	5978
2026-01-20 11:40:42.33	282.25	20.17	-42.1	-46.4	11.4	9.87e-04	0	59	0	619708416	55	6016
2026-01-20 11:40:43.34	282.51	20.14	-42.1	-46.4	11.4	1.03e-03	0	59	0	621805568	55	6000
2026-01-20 11:40:44.35	282.76	20.12	-42.2	-46.5	11.3	1.08e-03	0	59	0	623902720	55	6088
2026-01-20 11:40:45.36	283.00	20.10	-42.3	-46.8	11.0	1.65e-03	0	59	0	625999872	55	6280
2026-01-20 11:40:46.37	283.25	20.07	-42.4	-47.0	10.8	2.50e-03	0	59	0	628097024	55	6469
2026-01-20 11:40:47.38	283.50	20.05	-42.4	-46.9	10.9	2.58e-03	0	59	0	629145600	55	6369
2026-01-20 11:40:48.39	283.75	20.02	-42.3	-46.7	11.1	1.87e-03	0	59	0	631242752	55	6223
2026-01-20 11:40:49.40	284.00	20.00	-42.2	-46.5	11.3	1.45e-03	0	59	0	633339904	55	6076
2026-01-20 11:40:50.40	284.24	19.97	-42.1	-46.4	11.5	1.05e-03	0	59	0	635437056	55	5997
2026-01-20 11:40:51.41	284.49	19.95	-42.1	-46.2	11.6	8.39e-04	0	59	0	637534208	55	5884
2026-01-20 11:40:52.42	284.74	19.92	-42.1	-46.2	11.6	7.80e-04	0	59	0	638582784	55	5884
2026-01-20 11:40:53.43	284.98	19.89	-41.9	-45.8	12.0	4.94e-04	0	59	0	640679936	55	5633
2026-01-20 11:40:54.43	285.23	19.86	-41.8	-45.6	12.2	2.90e-04	0	59	0	642777088	55	5501
2026-01-20 11:40:55.44	285.47	19.84	-41.8	-45.6	12.2	2.07e-04	0	59	0	644874240	55	5518
2026-01-20 11:40:56.45	285.72	19.81	-41.7	-45.5	12.3	2.16e-04	0	59	0	646971392	55	5454
2026-01-20 11:40:57.46	285.96	19.78	-41.7	-45.5	12.3	1.52e-04	0	59	0	648019968	55	5439
2026-01-20 11:40:58.47	286.21	19.75	-41.7	-45.4	12.4	1.56e-04	0	59	0	650117120	55	5358
2026-01-20 11:40:59.47	286.45	19.72	-41.6	-45.3	12.5	1.25e-04	0	59	0	652214272	55	5339
2026-01-20 11:41:00.48	286.69	19.69	-41.7	-45.4	12.4	1.46e-04	0	59	0	654311424	55	5397
2026-01-20 11:41:01.49	286.93	19.66	-41.8	-45.6	12.2	1.98e-04	0	59	0	656408576	55	5488
2026-01-20 11:41:02.50	287.18	19.62	-41.9	-45.9	11.9	2.92e-04	0	59	0	657457152	55	5663
2026-01-20 11:41:03.51	287.42	19.59	-42.0	-46.1	11.7	4.29e-04	0	59	0	659554304	55	5809
2026-01-20 11:41:04.52	287.66	19.56	-42.0	-46.1	11.7	5.96e-04	0	59	0	661651456	55	5807
2026-01-20 11:41:05.53	287.90	19.53	-42.0	-46.2	11.6	6.87e-04	0	59	0	663748608	55	5867
2026-01-20 11:41:06.54	288.14	19.49	-42.0	-46.1	11.7	5.98e-04	0	59	0	665845760	55	5809
2026-01-20 11:41:07.55	288.38	19.46	-41.9	-46.0	11.8	5.25e-04	0	59	0	666894336	55	5734
2026-01-20 11:41:08.56	288.62	19.42	-42.0	-46.0	11.7	4.64e-04	0	59	0	668991488	55	5777
2026-01-20 11:41:09.57	288.86	19.39	-41.9	-45.9	11.8	4.66e-04	0	59	0	671088640	55	5710
2026-01-20 11:41:10.57	289.09	19.35	-41.9	-45.8	12.0	4.07e-04	0	59	0	673185792	55	5627
2026-01-20 11:41:11.58	289.33	19.32	-41.9	-45.8	11.9	3.61e-04	0	59	0	675282944	55	5631
2026-01-20 11:41:12.59	289.57	19.28	-41.8	-45.8	12.0	3.36e-04	0	59	0	676331520	55	5600
2026-01-20 11:41:13.60	289.80	19.25	-41.7	-45.5	12.2	2.75e-04	0	59	0	678428672	55	5449
2026-01-20 11:41:14.61	290.04	19.21	-41.6	-45.3	12.5	1.39e-04	0	59	0	680525824	55	5315
2026-01-20 11:41:15.62	290.27	19.17	-41.5	-45.1	12.7	7.93e-05	0	59	0	682622976	55	5200
2026-01-20 11:41:16.63	290.51	19.13	-41.4	-44.9	12.9	3.89e-05	0	59	0	684720128	54	5362
2026-01-20 11:41:17.64	290.74	19.10	-41.4	-44.8	13.0	4.19e-05	0	59	0	685768704	54	5324
2026-01-20 11:41:18.65	290.98	19.06	-41.4	-44.9	12.9	4.80e-05	0	59	0	687865856	54	5375
2026-01-20 11:41:19.66	291.21	19.02	-41.5	-45.0	12.8	5.11e-05	0	59	0	689963008	54	5449
2026-01-20 11:41:20.67	291.44	18.98	-41.5	-45.1	12.7	6.94e-05	0	59	0	692060160	54	5489
2026-01-20 11:41:21.68	291.67	18.94	-41.6	-45.2	12.6	8.01e-05	0	59	0	694157312	54	5565
2026-01-20 11:41:22.69	291.90	18.90	-41.6	-45.3	12.5	8.31e-05	0	59	0	696254464	54	5604
2026-01-20 11:41:23.70	292.13	18.86	-41.6	-45.2	12.5	1.17e-04	0	59	0	697303040	54	5584
2026-01-20 11:41:24.71	292.36	18.82	-41.6	-45.3	12.5	1.32e-04	0	59	0	699400192	54	5649
2026-01-20 11:41:25.72	292.59	18.78	-41.6	-45.3	12.4	1.36e-04	0	59	0	701497344	54	5651
2026-01-20 11:41:26.73	292.82	18.73	-41.6	-45.3	12.5	1.30e-04	0	59	0	703594496	54	5610
2026-01-20 11:41:27.74	293.05	18.69	-41.6	-45.2	12.6	8.69e-05	0	59	0	705691648	54	5585
2026-01-20 11:41:28.74	293.27	18.65	-41.6	-45.2	12.6	1.09e-04	0	59	0	706740224	54	5571
2026-01-20 11:41:29.75	293.50	18.61	-41.5	-45.0	12.8	8.62e-05	0	59	0	708837376	54	5431
2026-01-20 11:41:30.76	293.73	18.56	-41.4	-44.9	12.9	6.33e-05	0	59	0	710934528	54	5364
2026-01-20 11:41:31.77	293.95	18.52	-41.3	-44.7	13.1	3.50e-05	0	59	0	713031680	54	5268
2026-01-20 11:41:32.78	294.18	18.48	-41.3	-44.7	13.1	4.19e-05	0	59	0	715128832	54	5266
2026-01-20 11:41:33.79	294.40	18.43	-41.3	-44.7	13.1	2.89e-05	0	59	0	716177408	54	5238
2026-01-20 11:41:34.80	294.63	18.39	-41.2	-44.6	13.1	1.75e-05	0	59	0	718274560	54	5208
2026-01-20 11:41:35.81	294.85	18.34	-41.2	-44.6	13.2	3.05e-05	0	59	0	720371712	54	5189
2026-01-20 11:41:36.82	295.07	18.30	-41.2	-44.6	13.2	2.74e-05	0	59	0	722468864	54	5182
2026-01-20 11:41:37.83	295.29	18.25	-41.2	-44.6	13.2	1.90e-05	0	59	0	724566016	54	5175
2026-01-20 11:41:38.84	295.51	18.21	-41.2	-44.6	13.2	2.51e-05	0	59	0	725614592	54	5168
2026-01-20 11:41:39.85	295.73	18.16	-41.2	-44.7	13.1	2.21e-05	0	59	0	727711744	54	5223
2026-01-20 11:41:40.86	295.95	18.11	-41.2	-44.6	13.2	3.05e-05	0	59	0	729808896	54	5174
2026-01-20 11:41:41.87	296.17	18.07	-41.3	-44.8	13.0	3.50e-05	0	59	0	731906048	54	5300
2026-01-20 11:41:42.88	296.39	18.02	-41.4	-44.9	12.9	5.03e-05	0	59	0	734003200	54	5362
2026-01-20 11:41:43.89	296.61	17.97	-41.4	-45.0	12.8	5.11e-05	0	59	0	735051776	54	5404
2026-01-20 11:41:44.90	296.83	17.93	-41.5	-45.1	12.6	1.07e-04	0	59	0	737148928	54	5525
2026-01-20 11:41:45.91	297.04	17.88	-41.5	-45.2	12.5	1.10e-04	0	59	0	739246080	54	5558
2026-01-20 11:41:46.92	297.26	17.83	-41.6	-45.3	12.4	1.20e-04	0	59	0	741343232	54	5611
2026-01-20 11:41:47.93	297.47	17.78	-41.5	-45.2	12.5	1.39e-04	0	59	0	743440384	54	5559
2026-01-20 11:41:48.94	297.69	17.73	-41.5	-45.1	12.6	8.46e-05	0	59	0	744488960	54	5508
2026-01-20 11:41:49.95	297.90	17.68	-41.5	-45.1	12.6	8.62e-05	0	59	0	746586112	54	5509
2026-01-20 11:41:50.96	298.11	17.63	-41.6	-45.3	12.5	1.27e-04	0	59	0	748683264	54	5605
2026-01-20 11:41:51.97	298.32	17.58	-41.7	-45.5	12.3	1.68e-04	0	59	0	750780416	54	5732
2026-01-20 11:41:52.98	298.54	17.53	-41.8	-45.7	12.0	2.29e-04	0	59	0	752877568	54	5864
2026-01-20 11:41:53.98	298.75	17.48	-41.8	-45.8	11.8	3.93e-04	0	59	0	753926144	54	5978
2026-01-20 11:41:54.99	298.96	17.43	-41.9	-46.0	11.7	5.02e-04	0	59	0	756023296	54	6075
2026-01-20 11:41:56.00	299.16	17.38	-42.0	-46.1	11.6	6.10e-04	0	59	0	758120448	54	6186
2026-01-20 11:41:57.01	299.37	17.33	-41.9	-46.1	11.6	6.68e-04	0	59	0	760217600	54	6141
2026-01-20 11:41:58.02	299.58	17.28	-41.9	-45.9	11.8	5.73e-04	0	59	0	762314752	54	6041
2026-01-20 11:41:59.03	299.79	17.23	-41.9	-45.9	11.8	5.07e-04	0	59	0	763363328	54	6043
2026-01-20 11:42:00.04	300.00	17.18	-42.0	-46.1	11.6	6.83e-04	0	59	0	765460480	54	6167
2026-01-20 11:42:01.05	300.20	17.12	-42.0	-46.2	11.4	7.93e-04	0	59	0	767557632	54	6267
2026-01-20 11:42:02.06	300.41	17.07	-42.1	-46.3	11.3	1.07e-03	0	59	0	769654784	54	6321
2026-01-20 11:42:03.07	300.61	17.02	-42.1	-46.4	11.3	1.26e-03	0	59	0	771751936	54	6367
2026-01-20 11:42:04.08	300.82	16.97	-42.1	-46.4	11.3	1.32e-03	0	59	0	773849088	54	6351
2026-01-20 11:42:05.09	301.02	16.91	-42.0	-46.3	11.4	1.20e-03	0	59	0	774897664	54	6285
2026-01-20 11:42:06.10	301.22	16.86	-42.0	-46.2	11.4	1.00e-03	0	59	0	776994816	54	6264
2026-01-20 11:42:07.11	301.42	16.81	-42.0	-46.1	11.5	8.15e-04	0	59	0	779091968	54	6188
2026-01-20 11:42:08.12	301.62	16.75	-42.0	-46.1	11.5	7.84e-04	0	59	0	781189120	54	6185
2026-01-20 11:42:09.13	301.82	16.70	-42.0	-46.2	11.5	8.13e-04	0	59	0	783286272	54	6209
2026-01-20 11:42:10.14	302.02	16.65	-42.0	-46.3	11.4	9.88e-04	0	59	0	784334848	54	6293
2026-01-20 11:42:11.15	302.22	16.59	-42.1	-46.5	11.2	1.25e-03	0	59	0	786432000	54	6423
2026-01-20 11:42:12.16	302.42	16.54	-42.2	-46.7	11.0	1.64e-03	0	59	0	788529152	54	6580
2026-01-20 11:42:13.17	302.62	16.48	-42.3	-46.9	10.7	2.60e-03	0	59	0	790626304	55	6379
2026-01-20 11:42:14.18	302.82	16.43	-42.3	-47.0	10.5	3.51e-03	0	59	0	792723456	55	6481
2026-01-20 11:42:15.19	303.01	16.37	-42.4	-47.2	10.3	4.49e-03	0	59	0	793772032	55	6629
2026-01-20 11:42:16.20	303.21	16.32	-42.4	-47.2	10.3	4.99e-03	0	59	0	795869184	55	6641
2026-01-20 11:42:17.21	303.40	16.26	-42.3	-47.0	10.5	4.09e-03	0	59	0	797966336	55	6481
2026-01-20 11:42:18.21	303.59	16.21	-42.3	-47.0	10.6	3.42e-03	0	59	0	800063488	55	6436
2026-01-20 11:42:19.22	303.79	16.15	-42.4	-47.1	10.5	3.47e-03	0	59	0	802160640	55	6539
2026-01-20 11:42:20.23	303.98	16.09	-42.3	-46.9	10.7	3.17e-03	0	59	0	803209216	55	6370
2026-01-20 11:42:21.24	304.17	16.04	-42.2	-46.8	10.8	2.58e-03	0	59	0	805306368	55	6314
2026-01-20 11:42:22.25	304.36	15.98	-42.3	-46.9	10.7	2.72e-03	0	59	0	807403520	55	6393
2026-01-20 11:42:23.26	304.55	15.93	-42.3	-46.9	10.7	3.15e-03	0	59	0	809500672	55	6385
2026-01-20 11:42:24.27	304.74	15.87	-42.3	-46.9	10.7	2.96e-03	0	59	0	811597824	55	6354
2026-01-20 11:42:25.28	304.93	15.81	-42.3	-46.9	10.7	3.15e-03	0	59	0	812646400	55	6372
2026-01-20 11:42:26.29	305.12	15.75	-42.2	-46.8	10.7	3.08e-03	0	59	0	814743552	55	6322
2026-01-20 11:42:27.30	305.31	15.70	-42.3	-46.9	10.6	3.19e-03	0	59	0	816840704	55	6382
2026-01-20 11:42:28.31	305.50	15.64	-42.3	-47.1	10.5	4.05e-03	0	59	0	818937856	55	6510
2026-01-20 11:42:29.32	305.68	15.58	-42.3	-47.0	10.5	3.94e-03	0	59	0	821035008	55	6470
2026-01-20 11:42:30.33	305.87	15.53	-42.3	-47.1	10.5	4.01e-03	0	59	0	822083584	55	6499
2026-01-20 11:42:31.34	306.05	15.47	-42.3	-47.0	10.5	3.88e-03	0	59	0	824180736	55	6469
2026-01-20 11:42:32.35	306.24	15.41	-42.3	-46.9	10.7	3.42e-03	0	59	0	826277888	55	6369
2026-01-20 11:42:33.36	306.42	15.35	-42.2	-46.7	10.9	2.52e-03	0	59	0	828375040	55	6238
2026-01-20 11:42:34.37	306.60	15.29	-42.0	-46.3	11.3	1.49e-03	0	59	0	830472192	55	5953
2026-01-20 11:42:35.38	306.78	15.24	-41.9	-46.1	11.4	1.03e-03	0	59	0	831520768	55	5838
2026-01-20 11:42:36.38	306.96	15.18	-41.9	-46.1	11.5	8.45e-04	0	59	0	833617920	55	5793
2026-01-20 11:42:37.39	307.15	15.12	-41.9	-46.0	11.6	7.04e-04	0	59	0	835715072	55	5734
2026-01-20 11:42:38.41	307.33	15.06	-41.8	-45.9	11.6	6.57e-04	0	59	0	837812224	55	5710
2026-01-20 11:42:39.41	307.50	15.00	-41.9	-46.1	11.5	7.31e-04	0	59	0	839909376	55	5792
2026-01-20 11:42:40.42	307.68	14.94	-41.9	-46.1	11.5	7.96e-04	0	59	0	842006528	55	5795
2026-01-20 11:42:41.43	307.86	14.88	-41.9	-46.1	11.5	6.91e-04	0	59	0	843055104	55	5798
2026-01-20 11:42:42.44	308.04	14.82	-41.9	-46.0	11.6	7.30e-04	0	59	0	845152256	55	5778
2026-01-20 11:42:43.45	308.22	14.77	-41.9	-46.1	11.5	8.78e-04	0	59	0	847249408	55	5806
2026-01-20 11:42:44.46	308.39	14.71	-41.9	-46.2	11.4	1.01e-03	0	59	0	849346560	55	5881
2026-01-20 11:42:45.47	308.57	14.65	-42.1	-46.5	11.0	1.60e-03	0	59	0	851443712	55	6073
2026-01-20 11:42:46.48	308.74	14.59	-42.2	-46.7	10.8	2.31e-03	0	59	0	852492288	55	6240
2026-01-20 11:42:47.49	308.91	14.53	-42.3	-47.2	10.3	3.39e-03	0	59	0	854589440	55	6572
2026-01-20 11:42:48.50	309.09	14.47	-42.5	-47.5	10.0	5.65e-03	0	59	0	856686592	55	6802
2026-01-20 11:42:49.51	309.26	14.41	-42.5	-47.6	9.9	8.52e-03	0	59	0	858783744	55	6928
2026-01-20 11:42:50.52	309.43	14.35	-42.5	-47.6	9.9	9.14e-03	0	59	0	860880896	55	6942
2026-01-20 11:42:51.53	309.60	14.29	-42.5	-47.5	10.0	9.23e-03	0	59	0	861929472	55	6832
2026-01-20 11:42:52.54	309.77	14.23	-42.4	-47.2	10.2	5.83e-03	0	59	0	864026624	55	6629
2026-01-20 11:42:53.55	309.94	14.17	-42.2	-46.8	10.7	3.85e-03	0	59	0	866123776	55	6281
2026-01-20 11:42:54.56	310.11	14.11	-42.0	-46.4	11.1	1.94e-03	0	59	0	868220928	55	6018
2026-01-20 11:42:55.57	310.28	14.05	-42.1	-46.5	11.0	1.54e-03	0	59	0	870318080	55	6099
2026-01-20 11:42:56.58	310.45	13.99	-41.9	-46.1	11.4	1.15e-03	0	59	0	871366656	55	5852
2026-01-20 11:42:57.59	310.62	13.93	-41.9	-46.0	11.5	8.11e-04	0	59	0	873463808	55	5787
2026-01-20 11:42:58.60	310.78	13.87	-41.9	-46.1	11.5	9.11e-04	0	59	0	875560960	55	5806
2026-01-20 11:42:59.61	310.95	13.81	-41.9	-46.0	11.5	7.78e-04	0	59	0	877658112	55	5769
2026-01-20 11:43:00.62	311.11	13.75	-41.9	-46.2	11.3	1.00e-03	0	59	0	879755264	55	5898
2026-01-20 11:43:01.62	311.28	13.69	-41.9	-46.2	11.3	1.25e-03	0	59	0	880803840	55	5900
2026-01-20 11:43:02.63	311.44	13.63	-42.0	-46.2	11.3	1.22e-03	0	59	0	882900992	55	5922
2026-01-20 11:43:03.64	311.60	13.56	-41.9	-46.2	11.3	1.11e-03	0	59	0	884998144	55	5899
2026-01-20 11:43:04.65	311.77	13.50	-42.0	-46.3	11.2	1.12e-03	0	59	0	887095296	55	5957
2026-01-20 11:43:05.66	311.93	13.44	-41.9	-46.1	11.3	1.14e-03	0	59	0	889192448	55	5855
2026-01-20 11:43:06.67	312.09	13.38	-41.9	-46.2	11.3	1.19e-03	0	59	0	890241024	55	5861
2026-01-20 11:43:07.68	312.25	13.32	-41.9	-46.1	11.4	9.95e-04	0	59	0	892338176	55	5815
2026-01-20 11:43:08.69	312.41	13.26	-41.9	-46.1	11.4	9.25e-04	0	59	0	894435328	55	5801
2026-01-20 11:43:09.70	312.57	13.20	-41.9	-46.2	11.3	1.30e-03	0	59	0	896532480	55	5911
2026-01-20 11:43:10.71	312.73	13.14	-42.0	-46.4	11.0	1.57e-03	0	59	0	898629632	55	6055
2026-01-20 11:43:11.73	312.89	13.08	-42.0	-46.3	11.1	1.70e-03	0	59	0	899678208	55	5991
2026-01-20 11:43:12.73	313.04	13.02	-42.1	-46.5	10.9	1.63e-03	0	59	0	901775360	55	6121
2026-01-20 11:43:13.75	313.20	12.95	-42.0	-46.4	11.0	1.68e-03	0	59	0	903872512	55	6014
2026-01-20 11:43:14.76	313.36	12.89	-41.9	-46.3	11.2	1.33e-03	0	59	0	905969664	55	5925
2026-01-20 11:43:15.77	313.51	12.83	-41.8	-46.0	11.4	1.16e-03	0	59	0	908066816	55	5764
2026-01-20 11:43:16.78	313.67	12.77	-41.8	-45.9	11.6	8.64e-04	0	59	0	910163968	55	5697
2026-01-20 11:43:17.78	313.82	12.71	-41.7	-45.9	11.6	6.30e-04	0	59	0	911212544	55	5664
2026-01-20 11:43:18.79	313.97	12.65	-41.7	-45.8	11.6	6.02e-04	0	59	0	913309696	55	5630
2026-01-20 11:43:19.80	314.13	12.59	-41.7	-45.8	11.7	5.25e-04	0	59	0	915406848	55	5594
2026-01-20 11:43:20.81	314.28	12.52	-41.8	-46.0	11.4	6.02e-04	0	59	0	917504000	55	5770
2026-01-20 11:43:21.82	314.43	12.46	-41.8	-46.0	11.4	1.00e-03	0	59	0	919601152	55	5755
2026-01-20 11:43:22.83	314.58	12.40	-41.9	-46.2	11.2	1.19e-03	0	59	0	920649728	55	5885
2026-01-20 11:43:23.84	314.73	12.34	-42.0	-46.4	11.0	1.75e-03	0	59	0	922746880	55	6004
2026-01-20 11:43:24.85	314.88	12.28	-42.0	-46.4	11.0	2.20e-03	0	59	0	924844032	55	6057
2026-01-20 11:43:25.86	315.03	12.22	-42.0	-46.5	10.9	1.89e-03	0	59	0	926941184	55	6089
2026-01-20 11:43:26.87	315.18	12.15	-41.9	-46.3	11.1	1.96e-03	0	59	0	929038336	55	5965
2026-01-20 11:43:27.87	315.33	12.09	-41.9	-46.3	11.2	1.34e-03	0	59	0	930086912	55	5925
2026-01-20 11:43:28.89	315.48	12.03	-41.8	-46.1	11.4	1.13e-03	0	59	0	932184064	55	5792
2026-01-20 11:43:29.89	315.62	11.97	-41.7	-45.9	11.5	8.72e-04	0	59	0	934281216	55	5709
2026-01-20 11:43:30.90	315.77	11.91	-41.8	-46.0	11.4	8.41e-04	0	59	0	936378368	55	5753
2026-01-20 11:43:31.91	315.91	11.85	-41.8	-46.0	11.4	9.98e-04	0	59	0	938475520	55	5780
2026-01-20 11:43:32.93	316.06	11.79	-41.8	-46.2	11.3	9.82e-04	0	59	0	939524096	55	5859
2026-01-20 11:43:33.94	316.21	11.72	-41.9	-46.4	11.0	1.49e-03	0	59	0	941621248	55	6013
2026-01-20 11:43:34.95	316.35	11.66	-42.0	-46.6	10.8	2.28e-03	0	59	0	943718400	55	6168
2026-01-20 11:43:35.95	316.49	11.60	-42.1	-46.7	10.6	3.00e-03	0	59	0	945815552	55	6248
2026-01-20 11:43:36.96	316.63	11.54	-42.1	-46.8	10.5	3.78e-03	0	59	0	947912704	55	6335
2026-01-20 11:43:37.97	316.78	11.48	-42.2	-46.9	10.4	4.61e-03	0	59	0	948961280	55	6406
2026-01-20 11:43:38.98	316.92	11.42	-42.2	-47.0	10.3	4.89e-03	0	59	0	951058432	55	6438
2026-01-20 11:43:39.99	317.06	11.35	-42.1	-46.8	10.5	4.21e-03	0	59	0	953155584	55	6298
2026-01-20 11:43:41.00	317.20	11.29	-42.0	-46.7	10.7	2.92e-03	0	59	0	955252736	55	6212
2026-01-20 11:43:42.01	317.34	11.23	-42.0	-46.5	10.8	2.98e-03	0	59	0	957349888	55	6126
2026-01-20 11:43:43.02	317.48	11.17	-42.0	-46.5	10.8	2.64e-03	0	59	0	958398464	55	6090
2026-01-20 11:43:44.03	317.62	11.11	-42.0	-46.5	10.8	2.32e-03	0	59	0	960495616	55	6070
2026-01-20 11:43:45.03	317.75	11.05	-42.0	-46.5	10.8	2.50e-03	0	59	0	962592768	55	6108
2026-01-20 11:43:46.04	317.89	10.99	-42.0	-46.7	10.6	2.76e-03	0	59	0	964689920	55	6225
2026-01-20 11:43:47.06	318.03	10.92	-42.0	-46.7	10.6	3.48e-03	0	59	0	966787072	55	6219
2026-01-20 11:43:48.07	318.17	10.86	-42.1	-46.8	10.5	3.48e-03	0	59	0	967835648	55	6291
2026-01-20 11:43:49.08	318.30	10.80	-42.2	-47.1	10.2	4.61e-03	0	59	0	969932800	55	6502
2026-01-20 11:43:50.09	318.44	10.74	-42.1	-46.9	10.3	5.94e-03	0	59	0	972029952	55	6384
2026-01-20 11:43:51.10	318.57	10.68	-42.1	-47.0	10.2	6.06e-03	0	59	0	974127104	55	6459
2026-01-20 11:43:52.11	318.71	10.62	-42.1	-46.9	10.3	5.83e-03	0	59	0	976224256	55	6409
2026-01-20 11:43:53.12	318.84	10.55	-42.1	-46.8	10.4	5.11e-03	0	59	0	978321408	55	6305
2026-01-20 11:43:54.12	318.97	10.49	-42.0	-46.7	10.6	3.44e-03	0	59	0	979369984	55	6225
2026-01-20 11:43:55.13	319.11	10.43	-41.9	-46.5	10.7	3.33e-03	0	59	0	981467136	55	6096
2026-01-20 11:43:56.14	319.24	10.37	-41.9	-46.5	10.7	2.96e-03	0	59	0	983564288	55	6118
2026-01-20 11:43:57.15	319.37	10.31	-41.9	-46.5	10.8	2.68e-03	0	59	0	985661440	55	6098
2026-01-20 11:43:58.16	319.50	10.25	-41.9	-46.5	10.7	3.19e-03	0	59	0	987758592	55	6117
2026-01-20 11:43:59.17	319.63	10.19	-42.0	-46.7	10.5	3.46e-03	0	59	0	988807168	55	6245
2026-01-20 11:44:00.18	319.76	10.12	-42.1	-46.9	10.3	4.71e-03	0	59	0	990904320	55	6370
2026-01-20 11:44:01.19	319.89	10.06	-42.2	-47.1	10.0	5.80e-03	0	59	0	993001472	55	6559
2026-01-20 11:44:02.20	320.02	10.00	-42.2	-47.3	9.9	7.00e-03	0	59	0	995098624	55	6649
2026-01-20 11:44:03.21	320.15	9.94	-42.3	-47.4	9.8	9.36e-03	0	59	0	997195776	55	6768
2026-01-20 11:44:04.23	320.28	9.88	-42.3	-47.5	9.7	1.20e-02	0	59	0	998244352	55	6834
2026-01-20 11:44:05.23	320.40	9.82	-42.3	-47.4	9.7	1.12e-02	0	59	0	1000341504	55	6801
2026-01-20 11:44:06.25	320.53	9.76	-42.3	-47.4	9.7	1.08e-02	0	59	0	1002438656	55	6800
2026-01-20 11:44:07.26	320.66	9.70	-42.2	-47.2	9.9	8.50e-03	0	59	0	1004535808	55	6624
2026-01-20 11:44:08.27	320.79	9.63	-42.2	-47.2	10.0	9.18e-03	0	59	0	1006632960	55	6584
2026-01-20 11:44:09.27	320.91	9.57	-42.2	-47.2	10.0	8.42e-03	0	59	0	1007681536	55	6575
2026-01-20 11:44:10.28	321.03	9.51	-42.1	-47.0	10.1	7.89e-03	0	59	0	1009778688	55	6491
2026-01-20 11:44:11.29	321.16	9.45	-42.1	-47.2	10.0	8.80e-03	0	59	0	1011875840	55	6581
2026-01-20 11:44:12.31	321.28	9.39	-42.2	-47.3	9.8	9.23e-03	0	59	0	1013972992	55	6704
2026-01-20 11:44:13.31	321.41	9.33	-42.2	-47.4	9.7	1.03e-02	0	59	0	1016070144	55	6798
2026-01-20 11:44:14.32	321.53	9.27	-42.2	-47.4	9.6	1.24e-02	0	59	0	1017118720	55	6790
2026-01-20 11:44:15.33	321.65	9.21	-42.3	-47.6	9.4	1.47e-02	0	59	0	1019215872	55	6954
2026-01-20 11:44:16.34	321.77	9.15	-42.3	-47.8	9.3	1.64e-02	0	59	0	1021313024	55	7067
2026-01-20 11:44:17.35	321.89	9.09	-42.4	-48.0	9.1	2.12e-02	0	59	0	1023410176	55	7218
2026-01-20 11:44:18.36	322.02	9.03	-42.3	-47.8	9.2	2.04e-02	0	59	0	1025507328	55	7091
2026-01-20 11:44:19.37	322.14	8.97	-42.4	-47.9	9.1	2.24e-02	0	59	0	1026555904	55	7168
2026-01-20 11:44:20.38	322.26	8.90	-42.4	-47.9	9.1	2.25e-02	0	59	0	1028653056	55	7197
2026-01-20 11:44:21.39	322.38	8.84	-42.3	-47.9	9.1	2.13e-02	0	59	0	1030750208	55	7122
2026-01-20 11:44:22.40	322.49	8.78	-42.3	-47.8	9.1	2.17e-02	0	59	0	1032847360	55	7110
2026-01-20 11:44:23.41	322.61	8.72	-42.2	-47.6	9.4	1.81e-02	0	59	0	1034944512	55	6894
2026-01-20 11:44:24.42	322.73	8.66	-42.2	-47.5	9.5	1.64e-02	0	59	0	1035993088	55	6845
2026-01-20 11:44:25.42	322.85	8.60	-42.2	-47.6	9.4	1.55e-02	0	59	0	1038090240	55	6888
2026-01-20 11:44:26.43	322.97	8.54	-42.2	-47.5	9.5	1.47e-02	0	59	0	1040187392	55	6842
2026-01-20 11:44:27.44	323.08	8.48	-42.3	-47.7	9.4	1.53e-02	0	59	0	1042284544	55	6982
2026-01-20 11:44:28.45	323.20	8.42	-42.3	-47.8	9.0	1.76e-02	0	59	0	1044381696	55	7117
2026-01-20 11:44:29.46	323.31	8.36	-42.3	-47.9	9.0	2.24e-02	0	59	0	1046478848	55	7201
2026-01-20 11:44:30.47	323.43	8.30	-42.4	-48.1	8.9	2.80e-02	0	59	0	1047527424	55	7340
2026-01-20 11:44:31.48	323.54	8.24	-42.4	-48.1	8.9	3.02e-02	0	59	0	1049624576	55	7366
2026-01-20 11:44:32.49	323.66	8.18	-42.4	-48.3	8.7	3.03e-02	0	59	0	1051721728	55	7523
2026-01-20 11:44:33.50	323.77	8.12	-42.5	-48.4	8.5	4.27e-02	0	59	0	1053818880	55	7617
2026-01-20 11:44:34.51	323.89	8.06	-42.5	-48.6	8.3	4.49e-02	0	59	0	1055916032	55	7785
2026-01-20 11:44:35.52	324.00	8.00	-43.5	-52.4	5.8	4.63e-02	0	59	0	1056964608	57	10707
2026-01-20 11:44:36.53	324.11	7.94	-44.4	-58.7	3.8	1.49e+00	0	59	104	1056964608	59	19675
2026-01-20 11:44:37.54	324.22	7.88	-44.7	-59.1	3.8	1.49e+00	0	59	104	1056964608	59	20582
2026-01-20 11:44:38.55	324.34	7.82	-44.8	-59.4	3.8	1.49e+00	0	59	104	1056964608	60	20157
2026-01-20 11:44:39.56	324.45	7.76	-44.9	-59.5	3.8	1.49e+00	0	59	104	1056964608	60	20503
2026-01-20 11:44:40.57	324.56	7.70	-45.0	-59.6	3.8	1.49e+00	0	59	104	1056964608	60	20758
2026-01-20 11:44:41.58	324.67	7.64	-45.1	-59.7	3.8	1.49e+00	0	59	104	1056964608	60	20824
2026-01-20 11:44:42.59	324.78	7.58	-45.2	-59.7	3.8	1.49e+00	0	59	104	1056964608	60	20936
2026-01-20 11:44:43.60	324.89	7.52	-45.2	-59.8	3.8	1.49e+00	0	59	104	1056964608	60	21065
2026-01-20 11:44:44.61	325.00	7.46	-45.2	-59.8	3.8	1.49e+00	0	59	104	1056964608	60	21033
2026-01-20 11:44:45.62	325.11	7.40	-45.1	-59.7	3.8	1.49e+00	0	59	104	1056964608	60	20973
2026-01-20 11:44:46.63	325.21	7.34	-45.0	-59.6	3.8	1.49e+00	0	59	104	1056964608	60	20749
2026-01-20 11:44:47.64	325.32	7.29	-45.1	-59.7	3.8	1.49e+00	0	59	104	1056964608	60	20899
2026-01-20 11:44:48.65	325.43	7.23	-45.1	-59.7	3.8	1.49e+00	0	59	104	1056964608	60	20811
2026-01-20 11:44:49.66	325.54	7.17	-45.1	-59.7	3.8	1.49e+00	0	59	104	1056964608	60	20896
2026-01-20 11:44:50.67	325.64	7.11	-44.9	-59.6	3.8	1.49e+00	0	59	104	1056964608	60	20677
2026-01-20 11:44:51.68	325.75	7.05	-45.0	-59.6	3.8	1.49e+00	0	59	104	1056964608	60	20617
2026-01-20 11:44:52.69	325.85	6.99	-45.1	-59.6	3.8	1.49e+00	0	59	104	1056964608	60	20650
2026-01-20 11:44:53.70	325.96	6.93	-45.0	-59.6	3.8	1.49e+00	0	59	104	1056964608	60	20682
2026-01-20 11:44:54.71	326.07	6.87	-45.0	-59.6	3.8	1.49e+00	0	59	104	1056964608	60	20669
2026-01-20 11:44:55.72	326.17	6.81	-45.0	-59.6	3.8	1.49e+00	0	59	104	1056964608	60	20598
2026-01-20 11:44:56.74	326.27	6.75	-45.0	-59.6	3.8	1.49e+00	0	59	104	1056964608	60	20624
2026-01-20 11:44:57.75	326.38	6.69	-45.0	-59.6	3.8	1.49e+00	0	59	104	1056964608	60	20658
2026-01-20 11:44:58.76	326.48	6.64	-45.0	-59.6	3.8	1.49e+00	0	59	104	1056964608	60	20624
2026-01-20 11:44:59.77	326.58	6.58	-45.0	-59.6	3.8	1.49e+00	0	60	104	1056964608	60	20639
2026-01-20 11:45:00.78	326.69	6.52	-45.0	-59.5	3.8	1.49e+00	0	59	104	1056964608	60	20534
2026-01-20 11:45:01.79	326.79	6.46	-45.0	-59.5	3.8	1.49e+00	0	59	104	1056964608	60	20494
2026-01-20 11:45:02.80	326.89	6.40	-45.0	-59.6	3.8	1.49e+00	0	59	104	1056964608	60	20659
2026-01-20 11:45:03.81	326.99	6.34	-45.0	-59.5	3.8	1.49e+00	0	59	104	1056964608	60	20538
2026-01-20 11:45:04.82	327.09	6.29	-45.0	-59.6	3.8	1.49e+00	0	59	104	1056964608	60	20605
2026-01-20 11:45:05.83	327.19	6.23	-45.0	-59.5	3.8	1.49e+00	0	59	104	1056964608	60	20497
2026-01-20 11:45:06.84	327.29	6.17	-45.0	-59.6	3.8	1.49e+00	0	59	104	1056964608	60	20563
2026-01-20 11:45:07.85	327.39	6.11	-45.0	-59.6	3.8	1.49e+00	0	59	104	1056964608	60	20565
2026-01-20 11:45:08.86	327.49	6.05	-45.0	-59.5	3.8	1.49e+00	0	59	104	1056964608	60	20535
2026-01-20 11:45:09.87	327.59	5.99	-45.0	-59.6	3.8	1.49e+00	0	59	104	1056964608	60	20568
2026-01-20 11:45:10.88	327.69	5.94	-45.0	-59.5	3.8	1.49e+00	0	59	104	1056964608	60	20509
2026-01-20 11:45:11.89	327.79	5.88	-45.0	-59.5	3.8	1.49e+00	0	59	104	1056964608	60	20496
2026-01-20 11:45:12.90	327.89	5.82	-45.0	-59.5	3.8	1.49e+00	0	59	104	1056964608	60	20532
2026-01-20 11:45:13.91	327.99	5.76	-45.0	-59.5	3.8	1.49e+00	0	59	104	1056964608	60	20498
2026-01-20 11:45:14.92	328.08	5.71	-45.0	-59.5	3.8	1.49e+00	0	59	104	1056964608	60	20426
2026-01-20 11:45:15.93	328.18	5.65	-45.0	-59.5	3.8	1.49e+00	0	59	104	1056964608	60	20534
2026-01-20 11:45:16.95	328.28	5.59	-45.0	-59.5	3.8	1.49e+00	0	59	104	1056964608	60	20504
2026-01-20 11:45:17.96	328.37	5.53	-45.0	-59.6	3.8	1.49e+00	0	59	104	1056964608	60	20539
2026-01-20 11:45:18.97	328.47	5.47	-45.0	-59.5	3.8	1.49e+00	0	59	104	1056964608	60	20479
2026-01-20 11:45:19.98	328.56	5.42	-45.0	-59.5	3.8	1.49e+00	0	59	104	1056964608	60	20515
2026-01-20 11:45:20.99	328.66	5.36	-45.0	-59.5	3.8	1.49e+00	0	60	104	1056964608	60	20506
2026-01-20 11:45:22.00	328.75	5.30	-44.9	-59.5	3.8	1.49e+00	0	59	104	1056964608	60	20514
2026-01-20 11:45:23.01	328.85	5.25	-45.0	-59.5	3.8	1.49e+00	0	59	104	1056964608	60	20458
