passes_logs/2026/01/20/R2.0S_Moscow/R2.0S_Moscow__20260120_101603_AQUA_rec.log

#Pass ID: 20260120_101603_AQUA
#Satellite: AQUA
#Configuration: AQUA
#almurnet v.1.7.20251203
#Start time: 2026-01-20 10:16:03

#Version: 2.2.20231116
#Station: R2.0S_Moscow
#Location: 37.707566 lon 55.798166 lat
#TLE: 1 27424U 02022A   26019.60905539  .00000968  00000+0  20374-3 0  9991
#TLE: 2 27424  98.4090 346.1140 0001992  72.7126 342.3847 14.61830366261565

#Time	Az	El	Level	Level2	SNR	BER	BlckErr	Temp	State	Recorded	gain1	gain2
2026-01-20 10:16:03.99	117.15	2.06	-45.9	-64.5	3.8	7.45e-01	0	50	0	0	62	32429
2026-01-20 10:16:04.99	117.07	2.12	-45.9	-64.5	3.8	7.46e-01	0	50	104	0	62	32517
2026-01-20 10:16:06.00	117.00	2.18	-45.9	-64.5	3.8	7.47e-01	0	50	104	0	62	32249
2026-01-20 10:16:07.02	116.93	2.24	-45.9	-64.5	3.8	7.46e-01	0	50	104	0	62	32355
2026-01-20 10:16:08.03	116.86	2.30	-45.9	-64.5	3.8	7.46e-01	0	51	104	0	62	32372
2026-01-20 10:16:09.04	116.78	2.36	-45.9	-64.5	3.8	7.43e-01	0	50	104	0	62	32338
2026-01-20 10:16:10.05	116.71	2.42	-45.9	-64.5	3.8	7.44e-01	0	50	104	0	62	32335
2026-01-20 10:16:11.06	116.64	2.48	-45.9	-64.5	3.8	7.47e-01	0	51	104	0	62	32418
2026-01-20 10:16:12.07	116.56	2.54	-45.9	-64.5	3.8	7.44e-01	0	51	104	0	62	32486
2026-01-20 10:16:13.08	116.49	2.60	-45.9	-64.5	3.8	7.45e-01	0	51	104	0	62	32452
2026-01-20 10:16:14.09	116.41	2.66	-45.9	-64.5	3.8	7.46e-01	0	51	104	0	62	32431
2026-01-20 10:16:15.10	116.34	2.72	-45.9	-64.5	3.8	7.45e-01	0	51	104	0	62	32454
2026-01-20 10:16:16.11	116.26	2.78	-45.9	-64.5	3.8	7.44e-01	0	51	104	0	62	32513
2026-01-20 10:16:17.12	116.18	2.84	-45.9	-64.5	3.8	7.45e-01	0	51	104	0	62	32509
2026-01-20 10:16:18.13	116.11	2.91	-45.9	-64.5	3.8	7.47e-01	0	51	104	0	62	32529
2026-01-20 10:16:19.14	116.03	2.97	-45.9	-64.5	3.8	7.47e-01	0	51	104	0	62	32525
2026-01-20 10:16:20.16	115.95	3.03	-45.9	-64.5	3.8	7.45e-01	0	51	104	0	62	32457
2026-01-20 10:16:21.17	115.88	3.09	-45.9	-64.5	3.8	7.48e-01	0	51	104	0	62	32495
2026-01-20 10:16:22.18	115.80	3.15	-45.9	-64.5	3.8	7.46e-01	0	51	104	0	62	32531
2026-01-20 10:16:23.19	115.72	3.21	-45.9	-64.5	3.8	7.46e-01	0	51	104	0	62	32508
2026-01-20 10:16:24.19	115.64	3.28	-45.9	-64.5	3.8	7.45e-01	0	52	104	0	62	32487
2026-01-20 10:16:25.21	115.56	3.34	-45.9	-64.5	3.8	7.44e-01	0	52	104	0	62	32538
2026-01-20 10:16:26.22	115.48	3.40	-45.9	-64.5	3.8	7.44e-01	0	52	104	0	62	32530
2026-01-20 10:16:27.23	115.40	3.46	-45.9	-64.5	3.8	7.46e-01	0	52	104	0	62	32512
2026-01-20 10:16:28.24	115.32	3.53	-45.9	-64.5	3.8	7.46e-01	0	52	104	0	62	32506
2026-01-20 10:16:29.25	115.24	3.59	-45.9	-64.5	3.8	7.45e-01	0	52	104	0	62	32539
2026-01-20 10:16:30.26	115.16	3.65	-46.0	-64.5	3.8	7.44e-01	0	52	104	0	62	32529
2026-01-20 10:16:31.27	115.08	3.71	-45.9	-64.5	3.8	7.44e-01	0	52	104	0	62	32367
2026-01-20 10:16:32.28	115.00	3.78	-45.9	-64.5	3.8	7.43e-01	0	52	104	0	62	32500
2026-01-20 10:16:33.29	114.92	3.84	-45.9	-64.5	3.8	7.46e-01	0	52	104	0	62	32512
2026-01-20 10:16:34.30	114.83	3.90	-45.9	-64.5	3.8	7.47e-01	0	52	104	0	62	32502
2026-01-20 10:16:35.31	114.75	3.96	-45.8	-64.3	3.8	7.45e-01	0	52	104	0	62	31541
2026-01-20 10:16:36.32	114.67	4.03	-45.9	-64.5	3.8	7.45e-01	0	52	104	0	62	32535
2026-01-20 10:16:37.33	114.59	4.09	-45.9	-64.5	3.8	7.46e-01	0	52	104	0	62	32496
2026-01-20 10:16:38.34	114.50	4.15	-46.0	-64.5	3.8	7.45e-01	0	52	104	0	62	32524
2026-01-20 10:16:39.35	114.42	4.22	-46.0	-64.5	3.8	7.45e-01	0	52	104	0	62	32430
2026-01-20 10:16:40.36	114.33	4.28	-45.9	-64.5	3.8	7.46e-01	0	53	104	0	62	32460
2026-01-20 10:16:41.37	114.25	4.35	-45.9	-64.5	3.8	7.45e-01	0	53	104	0	62	32483
2026-01-20 10:16:42.38	114.16	4.41	-45.8	-64.5	3.8	7.43e-01	0	53	104	0	62	32331
2026-01-20 10:16:43.39	114.07	4.47	-45.9	-64.6	3.8	7.44e-01	0	53	104	0	62	32569
2026-01-20 10:16:44.40	113.99	4.54	-45.9	-64.5	3.8	7.45e-01	0	53	104	0	62	32501
2026-01-20 10:16:45.41	113.90	4.60	-45.9	-64.5	3.8	7.45e-01	0	53	104	0	62	32405
2026-01-20 10:16:46.42	113.81	4.67	-45.9	-64.5	3.8	7.42e-01	0	53	104	0	62	32264
2026-01-20 10:16:47.43	113.73	4.73	-45.9	-64.5	3.8	7.44e-01	0	53	104	0	62	32356
2026-01-20 10:16:48.45	113.64	4.80	-45.9	-64.5	3.8	7.46e-01	0	53	104	0	62	32418
2026-01-20 10:16:49.46	113.55	4.86	-45.9	-64.5	3.8	7.49e-01	0	53	104	0	62	32513
2026-01-20 10:16:50.47	113.46	4.93	-45.9	-64.5	3.8	7.45e-01	0	53	104	0	62	32507
2026-01-20 10:16:51.48	113.37	4.99	-45.9	-64.5	3.8	7.46e-01	0	53	104	0	62	32430
2026-01-20 10:16:52.49	113.28	5.06	-46.0	-64.5	3.8	7.45e-01	0	53	104	0	62	32522
2026-01-20 10:16:53.50	113.19	5.12	-45.9	-64.5	3.8	7.48e-01	0	53	104	0	62	32409
2026-01-20 10:16:54.51	113.10	5.19	-46.0	-64.5	3.8	7.47e-01	0	53	104	0	62	32485
2026-01-20 10:16:55.52	113.01	5.25	-46.0	-64.5	3.8	7.44e-01	0	53	104	0	62	32503
2026-01-20 10:16:56.53	112.91	5.32	-46.0	-64.5	3.8	7.46e-01	0	54	104	0	62	32527
2026-01-20 10:16:57.54	112.82	5.38	-46.0	-64.6	3.8	7.48e-01	0	54	104	0	62	32581
2026-01-20 10:16:58.55	112.73	5.45	-46.0	-64.6	3.8	7.47e-01	0	54	104	0	62	32593
2026-01-20 10:16:59.56	112.64	5.51	-46.0	-64.6	3.8	7.42e-01	0	54	104	0	62	32552
2026-01-20 10:17:00.57	112.54	5.58	-46.0	-64.6	3.8	7.46e-01	0	54	104	0	62	32568
2026-01-20 10:17:01.58	112.45	5.65	-46.0	-64.6	3.8	7.46e-01	0	54	104	0	62	32567
2026-01-20 10:17:02.59	112.35	5.71	-46.0	-64.6	3.8	7.48e-01	0	54	104	0	62	32591
2026-01-20 10:17:03.60	112.26	5.78	-46.0	-64.6	3.8	7.43e-01	0	54	104	0	62	32562
2026-01-20 10:17:04.62	112.16	5.85	-46.0	-64.5	3.8	7.48e-01	0	54	104	0	62	32538
2026-01-20 10:17:05.63	112.07	5.91	-46.0	-64.6	3.8	7.46e-01	0	54	104	0	62	32617
2026-01-20 10:17:06.64	111.97	5.98	-46.0	-64.6	3.8	7.45e-01	0	54	104	0	62	32627
2026-01-20 10:17:07.65	111.87	6.05	-46.0	-64.6	3.8	7.42e-01	0	54	104	0	62	32606
2026-01-20 10:17:08.66	111.77	6.11	-46.0	-64.6	3.8	7.46e-01	0	54	104	0	62	32671
2026-01-20 10:17:09.67	111.68	6.18	-46.0	-64.6	3.8	7.43e-01	0	54	104	0	62	32670
2026-01-20 10:17:10.68	111.58	6.25	-46.0	-64.6	3.8	7.46e-01	0	54	104	0	62	32579
2026-01-20 10:17:11.69	111.48	6.31	-46.0	-64.6	3.8	7.45e-01	0	54	104	0	62	32706
2026-01-20 10:17:12.70	111.38	6.38	-46.0	-64.6	3.8	7.45e-01	0	54	104	0	62	32601
2026-01-20 10:17:13.71	111.28	6.45	-46.0	-64.6	3.8	7.43e-01	0	54	104	0	62	32692
2026-01-20 10:17:14.72	111.18	6.52	-46.0	-64.6	3.8	7.45e-01	0	54	104	0	62	32601
2026-01-20 10:17:15.73	111.08	6.58	-46.0	-64.6	3.8	7.46e-01	0	54	104	0	62	32625
2026-01-20 10:17:16.74	110.97	6.65	-46.0	-64.6	3.8	7.43e-01	0	54	104	0	62	32631
2026-01-20 10:17:17.75	110.87	6.72	-46.0	-64.6	3.8	7.45e-01	0	54	104	0	62	32642
2026-01-20 10:17:18.76	110.77	6.79	-46.0	-64.6	3.8	7.48e-01	0	54	104	0	62	32613
2026-01-20 10:17:19.77	110.67	6.86	-46.0	-64.6	3.8	7.43e-01	0	54	104	0	62	32676
2026-01-20 10:17:20.78	110.56	6.93	-46.0	-64.6	3.8	7.43e-01	0	55	104	0	62	32661
2026-01-20 10:17:21.79	110.46	6.99	-46.0	-64.6	3.8	7.46e-01	0	55	104	0	62	32644
2026-01-20 10:17:22.80	110.35	7.06	-46.0	-64.6	3.8	7.44e-01	0	54	104	0	62	32611
2026-01-20 10:17:23.81	110.25	7.13	-46.0	-64.6	3.8	7.47e-01	0	54	104	0	62	32569
2026-01-20 10:17:24.82	110.14	7.20	-46.0	-64.6	3.8	7.42e-01	0	55	104	0	62	32605
2026-01-20 10:17:25.83	110.03	7.27	-46.0	-64.6	3.8	7.45e-01	0	55	104	0	62	32617
2026-01-20 10:17:26.84	109.93	7.34	-46.0	-64.6	3.8	7.46e-01	0	55	104	0	62	32696
2026-01-20 10:17:27.85	109.82	7.41	-46.0	-64.6	3.8	7.46e-01	0	55	104	0	62	32721
2026-01-20 10:17:28.86	109.71	7.48	-46.0	-64.6	3.8	7.46e-01	0	55	104	0	62	32681
2026-01-20 10:17:29.88	109.60	7.55	-46.0	-64.6	3.8	7.46e-01	0	55	104	0	62	32596
2026-01-20 10:17:30.89	109.49	7.62	-46.0	-64.6	3.8	7.46e-01	0	55	104	0	62	32600
2026-01-20 10:17:31.90	109.38	7.69	-46.0	-64.6	3.8	7.43e-01	0	55	104	0	62	32666
2026-01-20 10:17:32.91	109.27	7.76	-46.0	-64.6	3.8	7.45e-01	0	55	104	0	62	32702
2026-01-20 10:17:33.92	109.16	7.83	-46.0	-64.6	3.8	7.46e-01	0	55	104	0	62	32671
2026-01-20 10:17:34.93	109.05	7.90	-46.0	-64.6	3.8	7.45e-01	0	55	104	0	62	32679
2026-01-20 10:17:35.94	108.93	7.97	-46.0	-64.6	3.8	7.47e-01	0	55	104	0	62	32721
2026-01-20 10:17:36.95	108.82	8.04	-46.0	-64.6	3.8	7.46e-01	0	55	104	0	62	32687
2026-01-20 10:17:37.96	108.71	8.11	-46.0	-64.6	3.8	7.44e-01	0	55	104	0	62	32653
2026-01-20 10:17:38.97	108.59	8.18	-46.0	-64.6	3.8	7.43e-01	0	55	104	0	62	32706
2026-01-20 10:17:39.98	108.48	8.25	-46.0	-64.6	3.8	7.47e-01	0	55	104	0	62	32711
2026-01-20 10:17:40.99	108.36	8.32	-46.0	-64.6	3.8	7.47e-01	0	55	104	0	62	32703
2026-01-20 10:17:42.00	108.25	8.39	-46.0	-64.6	3.8	7.46e-01	0	55	104	0	62	32709
2026-01-20 10:17:43.01	108.13	8.46	-46.0	-64.6	3.8	7.49e-01	0	55	104	0	62	32694
2026-01-20 10:17:44.02	108.01	8.53	-46.0	-64.6	3.8	7.43e-01	0	55	104	0	62	32699
2026-01-20 10:17:45.03	107.89	8.60	-46.0	-64.6	3.8	7.46e-01	0	55	104	0	62	32728
2026-01-20 10:17:46.04	107.78	8.67	-46.0	-64.6	3.8	7.45e-01	0	55	104	0	62	32723
2026-01-20 10:17:47.05	107.66	8.75	-46.0	-64.6	3.8	7.44e-01	0	55	104	0	62	32820
2026-01-20 10:17:48.06	107.54	8.82	-46.0	-64.6	3.8	7.45e-01	0	56	104	0	62	32754
2026-01-20 10:17:49.07	107.42	8.89	-46.0	-64.6	3.8	7.46e-01	0	55	104	0	62	32787
2026-01-20 10:17:50.09	107.29	8.96	-46.0	-64.6	3.8	7.48e-01	0	56	104	0	62	32794
2026-01-20 10:17:51.09	107.17	9.03	-46.0	-64.6	3.8	7.49e-01	0	56	104	0	62	32740
2026-01-20 10:17:52.10	107.05	9.10	-45.9	-64.5	3.8	7.46e-01	0	56	104	0	62	32467
2026-01-20 10:17:53.11	106.93	9.18	-46.0	-64.6	3.8	7.46e-01	0	56	104	0	62	32721
2026-01-20 10:17:54.13	106.80	9.25	-46.0	-64.6	3.8	7.46e-01	0	55	104	0	62	32754
2026-01-20 10:17:55.14	106.68	9.32	-46.0	-64.6	3.8	7.46e-01	0	56	104	0	62	32789
2026-01-20 10:17:56.14	106.55	9.39	-46.0	-64.6	3.8	7.44e-01	0	55	104	0	62	32812
2026-01-20 10:17:57.15	106.43	9.47	-46.0	-64.6	3.8	7.45e-01	0	56	104	0	62	32735
2026-01-20 10:17:58.16	106.30	9.54	-46.0	-64.6	3.8	7.47e-01	0	56	104	0	62	32722
2026-01-20 10:17:59.17	106.17	9.61	-46.0	-64.6	3.8	7.46e-01	0	56	104	0	62	32758
2026-01-20 10:18:00.18	106.05	9.69	-46.0	-64.6	3.8	7.47e-01	0	56	104	0	62	32737
2026-01-20 10:18:01.19	105.92	9.76	-46.0	-64.6	3.8	7.44e-01	0	56	104	0	62	32802
2026-01-20 10:18:02.21	105.79	9.83	-46.0	-64.6	3.8	7.46e-01	0	56	104	0	62	32847
2026-01-20 10:18:03.22	105.66	9.91	-46.0	-64.6	3.8	7.45e-01	0	56	104	0	62	32800
2026-01-20 10:18:04.22	105.53	9.98	-46.0	-64.6	3.8	7.46e-01	0	56	104	0	62	32830
2026-01-20 10:18:05.24	105.39	10.05	-46.0	-64.6	3.8	7.45e-01	0	56	104	0	62	32787
2026-01-20 10:18:06.25	105.26	10.13	-46.0	-64.6	3.8	7.44e-01	0	56	104	0	62	32749
2026-01-20 10:18:07.26	105.13	10.20	-46.0	-64.6	3.8	7.44e-01	0	56	104	0	62	32755
2026-01-20 10:18:08.27	104.99	10.27	-46.0	-64.6	3.8	7.42e-01	0	56	104	0	62	32774
2026-01-20 10:18:09.28	104.86	10.35	-46.0	-64.6	3.8	7.48e-01	0	56	104	0	62	32862
2026-01-20 10:18:10.29	104.72	10.42	-46.0	-64.6	3.8	7.46e-01	0	56	104	0	62	32811
2026-01-20 10:18:11.30	104.59	10.50	-46.0	-64.6	3.8	7.45e-01	0	56	104	0	62	32773
2026-01-20 10:18:12.31	104.45	10.57	-46.0	-64.6	3.8	7.45e-01	0	56	104	0	62	32795
2026-01-20 10:18:13.32	104.31	10.64	-46.0	-64.6	3.8	7.46e-01	0	56	104	0	62	32833
2026-01-20 10:18:14.33	104.17	10.72	-46.0	-64.6	3.8	7.44e-01	0	56	104	0	62	32847
2026-01-20 10:18:15.34	104.04	10.79	-46.0	-64.6	3.8	7.42e-01	0	56	104	0	62	32839
2026-01-20 10:18:16.35	103.90	10.87	-46.0	-64.6	3.8	7.43e-01	0	56	104	0	62	32902
2026-01-20 10:18:17.36	103.75	10.94	-46.0	-64.6	3.8	7.48e-01	0	56	104	0	62	32812
2026-01-20 10:18:18.37	103.61	11.02	-46.0	-64.6	3.8	7.43e-01	0	56	104	0	62	32878
2026-01-20 10:18:19.38	103.47	11.09	-46.0	-64.6	3.8	7.48e-01	0	56	104	0	62	32858
2026-01-20 10:18:20.39	103.33	11.17	-46.0	-64.6	3.8	7.45e-01	0	56	104	0	62	32906
2026-01-20 10:18:21.40	103.18	11.24	-46.0	-64.6	3.8	7.47e-01	0	56	104	0	62	32896
2026-01-20 10:18:22.41	103.04	11.32	-46.1	-64.6	3.8	7.46e-01	0	56	104	0	62	32875
2026-01-20 10:18:23.42	102.89	11.39	-46.1	-64.6	3.8	7.45e-01	0	56	104	0	62	32870
2026-01-20 10:18:24.44	102.75	11.47	-46.0	-64.6	3.8	7.47e-01	0	57	104	0	62	32880
2026-01-20 10:18:25.45	102.60	11.54	-46.1	-64.6	3.8	7.43e-01	0	57	104	0	62	32873
2026-01-20 10:18:26.46	102.45	11.62	-46.1	-64.6	3.8	7.44e-01	0	57	104	0	62	32823
2026-01-20 10:18:27.47	102.30	11.69	-46.1	-64.6	3.8	7.45e-01	0	56	104	0	62	32921
2026-01-20 10:18:28.48	102.15	11.77	-46.1	-64.6	3.8	7.46e-01	0	56	104	0	62	32922
2026-01-20 10:18:29.49	102.00	11.85	-46.1	-64.7	3.8	7.44e-01	0	56	104	0	62	32942
2026-01-20 10:18:30.50	101.85	11.92	-46.1	-64.7	3.8	7.45e-01	0	57	104	0	62	32932
2026-01-20 10:18:31.51	101.70	12.00	-46.1	-64.6	3.8	7.45e-01	0	56	104	0	62	32865
2026-01-20 10:18:32.52	101.54	12.07	-46.1	-64.6	3.8	7.47e-01	0	57	104	0	62	32927
2026-01-20 10:18:33.53	101.39	12.15	-46.1	-64.7	3.8	7.45e-01	0	57	104	0	62	32991
2026-01-20 10:18:34.54	101.24	12.23	-46.1	-64.7	3.8	7.49e-01	0	57	104	0	62	32980
2026-01-20 10:18:35.55	101.08	12.30	-46.1	-64.6	3.8	7.44e-01	0	57	104	0	62	32876
2026-01-20 10:18:36.56	100.92	12.38	-46.1	-64.7	3.8	7.44e-01	0	57	104	0	62	32945
2026-01-20 10:18:37.57	100.77	12.45	-46.1	-64.7	3.8	7.49e-01	0	57	104	0	62	32990
2026-01-20 10:18:38.58	100.61	12.53	-46.1	-64.7	3.8	7.43e-01	0	57	104	0	62	32995
2026-01-20 10:18:39.59	100.45	12.61	-46.1	-64.7	3.8	7.45e-01	0	57	104	0	62	33004
2026-01-20 10:18:40.60	100.29	12.68	-46.1	-64.7	3.8	7.44e-01	0	57	104	0	62	32946
2026-01-20 10:18:41.62	100.13	12.76	-46.1	-64.7	3.8	7.48e-01	0	57	104	0	62	33036
2026-01-20 10:18:42.62	99.97	12.84	-46.1	-64.7	3.8	7.47e-01	0	57	104	0	62	33008
2026-01-20 10:18:43.63	99.80	12.91	-46.1	-64.7	3.8	7.44e-01	0	57	104	0	62	33026
2026-01-20 10:18:44.64	99.64	12.99	-46.1	-64.7	3.8	7.49e-01	0	57	104	0	62	32959
2026-01-20 10:18:45.65	99.47	13.07	-46.1	-64.7	3.8	7.45e-01	0	57	104	0	62	33048
2026-01-20 10:18:46.67	99.31	13.14	-46.1	-64.7	3.8	7.40e-01	0	57	104	0	62	33016
2026-01-20 10:18:47.68	99.14	13.22	-46.1	-64.7	3.8	7.41e-01	0	57	104	0	62	33089
2026-01-20 10:18:48.69	98.97	13.30	-46.1	-64.7	3.8	7.44e-01	0	57	104	0	62	33064
2026-01-20 10:18:49.70	98.80	13.37	-46.1	-64.7	3.8	7.45e-01	0	57	104	0	62	33070
2026-01-20 10:18:50.71	98.63	13.45	-46.1	-64.7	3.8	7.45e-01	0	57	104	0	62	33034
2026-01-20 10:18:51.72	98.46	13.53	-46.1	-64.7	3.8	7.47e-01	0	57	104	0	62	33055
2026-01-20 10:18:52.73	98.29	13.61	-46.1	-64.7	3.8	7.45e-01	0	57	104	0	62	33030
2026-01-20 10:18:53.74	98.12	13.68	-46.1	-64.7	3.8	7.46e-01	0	57	104	0	62	33152
2026-01-20 10:18:54.75	97.95	13.76	-46.1	-64.7	3.8	7.46e-01	0	57	104	0	62	33175
2026-01-20 10:18:55.76	97.77	13.84	-46.1	-64.7	3.8	7.45e-01	0	57	104	0	62	33070
2026-01-20 10:18:56.77	97.60	13.91	-46.1	-64.7	3.8	7.43e-01	0	57	104	0	62	33128
2026-01-20 10:18:57.78	97.42	13.99	-46.1	-64.7	3.8	7.45e-01	0	57	104	0	62	33100
2026-01-20 10:18:58.79	97.24	14.07	-46.1	-64.7	3.8	7.45e-01	0	57	104	0	62	33074
2026-01-20 10:18:59.80	97.07	14.15	-46.1	-64.7	3.8	7.44e-01	0	57	104	0	62	33097
2026-01-20 10:19:00.81	96.89	14.22	-46.1	-64.7	3.8	7.47e-01	0	57	104	0	62	33114
2026-01-20 10:19:01.82	96.71	14.30	-46.1	-64.7	3.8	7.46e-01	0	57	104	0	62	33138
2026-01-20 10:19:02.83	96.53	14.38	-46.1	-64.7	3.8	7.42e-01	0	57	104	0	62	33086
2026-01-20 10:19:03.85	96.34	14.45	-46.1	-64.7	3.8	7.44e-01	0	57	104	0	62	33138
2026-01-20 10:19:04.86	96.16	14.53	-46.1	-64.7	3.8	7.42e-01	0	57	104	0	62	33082
2026-01-20 10:19:05.87	95.97	14.61	-46.1	-64.7	3.8	7.45e-01	0	57	104	0	62	33132
2026-01-20 10:19:06.88	95.79	14.69	-46.1	-64.7	3.8	7.44e-01	0	57	104	0	62	33004
2026-01-20 10:19:07.89	95.60	14.76	-46.1	-64.7	3.8	7.47e-01	0	57	104	0	62	33050
2026-01-20 10:19:08.90	95.42	14.84	-46.1	-64.7	3.8	7.46e-01	0	57	104	0	62	33147
2026-01-20 10:19:09.91	95.23	14.92	-46.1	-64.7	3.8	7.48e-01	0	57	104	0	62	33132
2026-01-20 10:19:10.92	95.04	14.99	-46.1	-64.7	3.8	7.50e-01	0	57	104	0	62	33138
2026-01-20 10:19:11.93	94.85	15.07	-46.1	-64.7	3.8	7.48e-01	0	57	104	0	62	33204
2026-01-20 10:19:12.94	94.65	15.15	-46.1	-64.7	3.8	7.48e-01	0	57	104	0	62	33133
2026-01-20 10:19:13.95	94.46	15.23	-46.1	-64.7	3.8	7.48e-01	0	57	104	0	62	33120
2026-01-20 10:19:14.96	94.27	15.30	-46.1	-64.7	3.8	7.46e-01	0	57	104	0	62	33179
2026-01-20 10:19:15.98	94.07	15.38	-46.1	-64.7	3.8	7.43e-01	0	57	104	0	62	33028
2026-01-20 10:19:16.99	93.88	15.46	-46.1	-64.7	3.8	7.45e-01	0	57	104	0	62	33132
2026-01-20 10:19:18.00	93.68	15.53	-46.1	-64.7	3.8	7.45e-01	0	57	104	0	62	33036
2026-01-20 10:19:19.01	93.48	15.61	-46.1	-64.7	3.8	7.43e-01	0	57	104	0	62	33162
2026-01-20 10:19:20.02	93.28	15.69	-46.1	-64.7	3.8	7.42e-01	0	57	104	0	62	33158
2026-01-20 10:19:21.03	93.08	15.76	-46.1	-64.7	3.8	7.44e-01	0	57	104	0	62	33219
2026-01-20 10:19:22.04	92.88	15.84	-46.1	-64.7	3.8	7.44e-01	0	57	104	0	62	33156
2026-01-20 10:19:23.05	92.68	15.92	-46.1	-64.7	3.8	7.41e-01	0	58	104	0	62	33215
2026-01-20 10:19:24.06	92.47	15.99	-46.1	-64.7	3.8	7.46e-01	0	58	104	0	62	33220
2026-01-20 10:19:25.07	92.27	16.07	-46.1	-64.7	3.8	7.44e-01	0	57	104	0	62	33199
2026-01-20 10:19:26.08	92.06	16.14	-46.1	-64.7	3.8	7.44e-01	0	57	104	0	62	33121
2026-01-20 10:19:27.09	91.86	16.22	-46.1	-64.7	3.8	7.47e-01	0	58	104	0	62	33230
2026-01-20 10:19:28.10	91.65	16.30	-46.1	-64.7	3.8	7.42e-01	0	57	104	0	62	33158
2026-01-20 10:19:29.11	91.44	16.37	-46.1	-64.7	3.8	7.49e-01	0	58	104	0	62	33236
2026-01-20 10:19:30.12	91.23	16.45	-46.1	-64.7	3.8	7.47e-01	0	57	104	0	62	33195
2026-01-20 10:19:31.13	91.02	16.52	-46.1	-64.7	3.8	7.48e-01	0	57	104	0	62	33231
2026-01-20 10:19:32.14	90.80	16.60	-46.1	-64.7	3.8	7.43e-01	0	58	104	0	62	33242
2026-01-20 10:19:33.15	90.59	16.67	-46.1	-64.7	3.8	7.43e-01	0	58	104	0	62	33238
2026-01-20 10:19:34.16	90.38	16.75	-46.1	-64.7	3.8	7.46e-01	0	57	104	0	62	33219
2026-01-20 10:19:35.17	90.16	16.82	-46.2	-64.7	3.8	7.46e-01	0	58	104	0	62	33279
2026-01-20 10:19:36.19	89.94	16.90	-46.1	-64.8	3.8	7.44e-01	0	58	104	0	62	33311
2026-01-20 10:19:37.20	89.72	16.98	-46.1	-64.7	3.8	7.46e-01	0	57	104	0	62	33293
2026-01-20 10:19:38.21	89.50	17.05	-46.1	-64.8	3.8	7.45e-01	0	58	104	0	62	33332
2026-01-20 10:19:39.21	89.28	17.12	-46.1	-64.8	3.8	7.44e-01	0	58	104	0	62	33351
2026-01-20 10:19:40.23	89.06	17.20	-46.1	-64.7	3.8	7.45e-01	0	58	104	0	62	33246
2026-01-20 10:19:41.24	88.84	17.27	-46.2	-64.7	3.8	7.45e-01	0	58	104	0	62	33290
2026-01-20 10:19:42.25	88.61	17.35	-46.2	-64.7	3.8	7.45e-01	0	58	104	0	62	33286
2026-01-20 10:19:43.26	88.39	17.42	-46.1	-64.7	3.8	7.44e-01	0	58	104	0	62	33287
2026-01-20 10:19:44.27	88.16	17.49	-46.1	-64.7	3.8	7.45e-01	0	58	104	0	62	33297
2026-01-20 10:19:45.28	87.93	17.57	-46.2	-64.7	3.8	7.46e-01	0	58	104	0	62	33280
2026-01-20 10:19:46.29	87.70	17.64	-46.1	-64.8	3.8	7.48e-01	0	58	104	0	62	33328
2026-01-20 10:19:47.30	87.47	17.71	-46.1	-64.7	3.8	7.44e-01	0	58	104	0	62	33256
2026-01-20 10:19:48.31	87.24	17.79	-46.1	-64.7	3.8	7.45e-01	0	58	104	0	62	33260
2026-01-20 10:19:49.32	87.01	17.86	-46.1	-64.7	3.8	7.44e-01	0	58	104	0	62	33289
2026-01-20 10:19:50.33	86.78	17.93	-46.1	-64.7	3.8	7.44e-01	0	58	104	0	62	33286
2026-01-20 10:19:51.34	86.54	18.00	-46.1	-64.7	3.8	7.48e-01	0	57	104	0	62	33300
2026-01-20 10:19:52.35	86.30	18.08	-46.1	-64.7	3.8	7.47e-01	0	58	104	0	62	33297
2026-01-20 10:19:53.36	86.07	18.15	-46.1	-64.7	3.8	7.43e-01	0	58	104	0	62	33252
2026-01-20 10:19:54.37	85.83	18.22	-46.2	-64.7	3.8	7.47e-01	0	58	104	0	62	33301
2026-01-20 10:19:55.38	85.59	18.29	-46.1	-64.8	3.8	7.43e-01	0	57	104	0	62	33324
2026-01-20 10:19:56.39	85.35	18.36	-46.1	-64.7	3.8	7.46e-01	0	58	104	0	62	33275
2026-01-20 10:19:57.40	85.11	18.43	-46.1	-64.7	3.8	7.45e-01	0	58	104	0	62	33256
2026-01-20 10:19:58.41	84.86	18.50	-46.1	-64.7	3.8	7.45e-01	0	58	104	0	62	33250
2026-01-20 10:19:59.42	84.62	18.57	-46.1	-64.8	3.8	7.45e-01	0	58	104	0	62	33322
2026-01-20 10:20:00.43	84.37	18.64	-46.1	-64.7	3.8	7.44e-01	0	58	104	0	62	33224
2026-01-20 10:20:01.44	84.13	18.71	-46.1	-64.7	3.8	7.44e-01	0	58	104	0	62	33292
2026-01-20 10:20:02.45	83.88	18.78	-46.1	-64.7	3.8	7.45e-01	0	58	104	0	62	33282
2026-01-20 10:20:03.47	83.63	18.85	-46.1	-64.7	3.8	7.43e-01	0	58	104	0	62	33209
2026-01-20 10:20:04.47	83.38	18.92	-46.1	-64.7	3.8	7.43e-01	0	58	104	0	62	33195
2026-01-20 10:20:05.48	83.13	18.98	-46.1	-64.7	3.8	7.46e-01	0	58	104	0	62	33310
2026-01-20 10:20:06.49	82.87	19.05	-46.1	-64.7	3.8	7.45e-01	0	58	104	0	62	33231
2026-01-20 10:20:07.51	82.62	19.12	-46.1	-64.7	3.8	7.43e-01	0	58	104	0	62	33305
2026-01-20 10:20:08.52	82.36	19.19	-46.1	-64.8	3.8	7.46e-01	0	58	104	0	62	33311
2026-01-20 10:20:09.53	82.11	19.25	-46.1	-64.7	3.8	7.40e-01	0	58	104	0	62	33255
2026-01-20 10:20:10.54	81.85	19.32	-46.1	-64.8	3.8	7.45e-01	0	58	104	0	62	33333
2026-01-20 10:20:11.55	81.59	19.38	-46.1	-64.7	3.8	7.45e-01	0	58	104	0	62	33269
2026-01-20 10:20:12.56	81.33	19.45	-46.1	-64.8	3.8	7.45e-01	0	58	104	0	62	33349
2026-01-20 10:20:13.57	81.07	19.51	-46.1	-64.8	3.8	7.42e-01	0	58	104	0	62	33318
2026-01-20 10:20:14.58	80.81	19.58	-46.1	-64.8	3.8	7.45e-01	0	58	104	0	62	33346
2026-01-20 10:20:15.59	80.54	19.64	-46.1	-64.7	3.8	7.44e-01	0	58	104	0	62	33277
2026-01-20 10:20:16.60	80.28	19.71	-46.1	-64.8	3.8	7.46e-01	0	58	104	0	62	33381
2026-01-20 10:20:17.61	80.01	19.77	-46.1	-64.7	3.8	7.44e-01	0	58	104	0	62	33196
2026-01-20 10:20:18.62	79.75	19.83	-46.1	-64.8	3.8	7.46e-01	0	58	104	0	62	33366
2026-01-20 10:20:19.63	79.48	19.90	-46.1	-64.8	3.8	7.46e-01	0	58	104	0	62	33317
2026-01-20 10:20:20.64	79.21	19.96	-46.1	-64.7	3.8	7.45e-01	0	58	104	0	62	33287
2026-01-20 10:20:21.65	78.94	20.02	-46.1	-64.8	3.8	7.41e-01	0	58	104	0	62	33319
2026-01-20 10:20:22.66	78.67	20.08	-46.1	-64.7	3.8	7.44e-01	0	58	104	0	62	33131
2026-01-20 10:20:23.67	78.40	20.14	-46.2	-64.8	3.8	7.46e-01	0	58	104	0	62	33427
2026-01-20 10:20:24.68	78.12	20.20	-46.1	-64.8	3.8	7.42e-01	0	58	104	0	62	33329
2026-01-20 10:20:25.69	77.85	20.26	-46.2	-64.8	3.8	7.44e-01	0	58	104	0	62	33374
2026-01-20 10:20:26.70	77.57	20.32	-46.2	-64.8	3.8	7.46e-01	0	58	104	0	62	33381
2026-01-20 10:20:27.71	77.29	20.38	-46.1	-64.8	3.8	7.43e-01	0	58	104	0	62	33356
2026-01-20 10:20:28.72	77.02	20.43	-46.1	-64.8	3.8	7.43e-01	0	58	104	0	62	33354
2026-01-20 10:20:29.73	76.74	20.49	-46.1	-64.8	3.8	7.43e-01	0	58	104	0	62	33364
2026-01-20 10:20:30.75	76.45	20.55	-46.1	-64.7	3.8	7.45e-01	0	58	104	0	62	33285
2026-01-20 10:20:31.76	76.17	20.61	-46.1	-64.8	3.8	7.45e-01	0	58	104	0	62	33323
2026-01-20 10:20:32.77	75.89	20.66	-46.1	-64.7	3.8	7.44e-01	0	58	104	0	62	33262
2026-01-20 10:20:33.78	75.61	20.72	-46.1	-64.7	3.8	7.47e-01	0	58	104	0	62	33260
2026-01-20 10:20:34.79	75.32	20.77	-46.1	-64.8	3.8	7.46e-01	0	58	104	0	62	33328
2026-01-20 10:20:35.80	75.04	20.83	-46.1	-64.8	3.8	7.49e-01	0	58	104	0	62	33331
2026-01-20 10:20:36.81	74.75	20.88	-46.1	-64.8	3.8	7.49e-01	0	58	104	0	62	33356
2026-01-20 10:20:37.82	74.46	20.93	-46.1	-64.8	3.8	7.48e-01	0	58	104	0	62	33320
2026-01-20 10:20:38.83	74.17	20.98	-46.2	-64.8	3.8	7.48e-01	0	58	104	0	62	33331
2026-01-20 10:20:39.84	73.88	21.04	-46.1	-64.8	3.8	7.45e-01	0	58	104	0	62	33341
2026-01-20 10:20:40.85	73.59	21.09	-46.1	-64.8	3.8	7.44e-01	0	58	104	0	62	33347
2026-01-20 10:20:41.86	73.30	21.14	-46.1	-64.7	3.8	7.47e-01	0	58	104	0	62	33294
2026-01-20 10:20:42.87	73.01	21.19	-46.1	-64.7	3.8	7.44e-01	0	58	104	0	62	33301
2026-01-20 10:20:43.88	72.71	21.23	-46.1	-64.8	3.8	7.49e-01	0	58	104	0	62	33381
2026-01-20 10:20:44.89	72.42	21.28	-46.1	-64.8	3.8	7.44e-01	0	58	104	0	62	33358
2026-01-20 10:20:45.90	72.12	21.33	-46.1	-64.7	3.8	7.45e-01	0	58	104	0	62	33278
2026-01-20 10:20:46.91	71.83	21.38	-46.1	-64.8	3.8	7.47e-01	0	58	104	0	62	33348
2026-01-20 10:20:47.92	71.53	21.42	-46.1	-64.7	3.8	7.46e-01	0	58	104	0	62	33259
2026-01-20 10:20:48.93	71.23	21.47	-46.1	-64.7	3.8	7.48e-01	0	58	104	0	62	33161
2026-01-20 10:20:49.94	70.93	21.51	-46.1	-64.7	3.8	7.42e-01	0	58	104	0	62	33116
2026-01-20 10:20:50.95	70.63	21.56	-46.1	-64.7	3.8	7.44e-01	0	58	104	0	62	33156
2026-01-20 10:20:51.96	70.33	21.60	-46.1	-64.7	3.8	7.47e-01	0	58	104	0	62	33154
2026-01-20 10:20:52.97	70.03	21.64	-46.1	-64.7	3.8	7.44e-01	0	58	104	0	62	33192
2026-01-20 10:20:53.98	69.72	21.69	-46.1	-64.7	3.8	7.45e-01	0	58	104	0	62	33245
2026-01-20 10:20:54.99	69.42	21.73	-46.1	-64.8	3.8	7.47e-01	0	58	104	0	62	33311
2026-01-20 10:20:56.00	69.11	21.77	-46.1	-64.8	3.8	7.44e-01	0	58	104	0	62	33345
2026-01-20 10:20:57.01	68.81	21.81	-46.1	-64.7	3.8	7.44e-01	0	58	104	0	62	33260
2026-01-20 10:20:58.02	68.50	21.85	-46.1	-64.8	3.8	7.44e-01	0	58	104	0	62	33357
2026-01-20 10:20:59.03	68.19	21.88	-46.1	-64.7	3.8	7.43e-01	0	58	104	0	62	33264
2026-01-20 10:21:00.04	67.89	21.92	-46.1	-64.8	3.8	7.46e-01	0	58	104	0	62	33342
2026-01-20 10:21:01.05	67.58	21.96	-46.1	-64.8	3.8	7.47e-01	0	58	104	0	62	33378
2026-01-20 10:21:02.06	67.27	21.99	-46.1	-64.7	3.8	7.44e-01	0	58	104	0	62	33280
2026-01-20 10:21:03.07	66.96	22.03	-46.1	-64.7	3.8	7.42e-01	0	58	104	0	62	33289
2026-01-20 10:21:04.08	66.65	22.06	-46.1	-64.8	3.8	7.42e-01	0	58	104	0	62	33351
2026-01-20 10:21:05.09	66.34	22.10	-46.1	-64.8	3.8	7.46e-01	0	58	104	0	62	33379
2026-01-20 10:21:06.10	66.02	22.13	-46.1	-64.7	3.8	7.43e-01	0	58	104	0	62	33296
2026-01-20 10:21:07.12	65.71	22.16	-46.1	-64.7	3.8	7.47e-01	0	58	104	0	62	33275
2026-01-20 10:21:08.13	65.39	22.19	-46.1	-64.7	3.8	7.43e-01	0	58	104	0	62	33241
2026-01-20 10:21:09.14	65.08	22.22	-46.1	-64.8	3.8	7.44e-01	0	58	104	0	62	33371
2026-01-20 10:21:10.15	64.76	22.25	-46.1	-64.7	3.8	7.48e-01	0	58	104	0	62	33246
2026-01-20 10:21:11.16	64.45	22.28	-46.1	-64.8	3.8	7.44e-01	0	58	104	0	62	33370
2026-01-20 10:21:12.17	64.13	22.31	-46.1	-64.7	3.8	7.42e-01	0	58	104	0	62	33232
2026-01-20 10:21:13.18	63.82	22.33	-46.1	-64.7	3.8	7.47e-01	0	58	104	0	62	33302
2026-01-20 10:21:14.19	63.50	22.36	-46.1	-64.7	3.8	7.47e-01	0	58	104	0	62	33301
2026-01-20 10:21:15.20	63.18	22.38	-46.1	-64.7	3.8	7.44e-01	0	58	104	0	62	33268
2026-01-20 10:21:16.21	62.86	22.41	-46.1	-64.8	3.8	7.47e-01	0	59	104	0	62	33356
2026-01-20 10:21:17.22	62.54	22.43	-46.1	-64.7	3.8	7.46e-01	0	58	104	0	62	33281
2026-01-20 10:21:18.23	62.22	22.45	-46.1	-64.7	3.8	7.47e-01	0	58	104	0	62	33266
2026-01-20 10:21:19.24	61.90	22.47	-46.1	-64.7	3.8	7.48e-01	0	58	104	0	62	33225
2026-01-20 10:21:20.25	61.58	22.49	-46.1	-64.7	3.8	7.46e-01	0	58	104	0	62	33251
2026-01-20 10:21:21.26	61.26	22.51	-46.1	-64.7	3.8	7.48e-01	0	58	104	0	62	33302
2026-01-20 10:21:22.27	60.94	22.53	-46.1	-64.7	3.8	7.44e-01	0	58	104	0	62	33297
2026-01-20 10:21:23.28	60.62	22.55	-46.1	-64.7	3.8	7.45e-01	0	58	104	0	62	33302
2026-01-20 10:21:24.29	60.30	22.57	-46.1	-64.8	3.8	7.45e-01	0	58	104	0	62	33328
2026-01-20 10:21:25.30	59.98	22.58	-46.1	-64.7	3.8	7.45e-01	0	58	104	0	62	33298
2026-01-20 10:21:26.32	59.65	22.60	-46.1	-64.8	3.8	7.41e-01	0	59	104	0	62	33314
2026-01-20 10:21:27.32	59.33	22.61	-46.1	-64.7	3.8	7.47e-01	0	58	104	0	62	33294
2026-01-20 10:21:28.33	59.01	22.62	-46.1	-64.7	3.8	7.44e-01	0	58	104	0	62	33253
2026-01-20 10:21:29.34	58.69	22.64	-46.1	-64.7	3.8	7.49e-01	0	58	104	0	62	33284
2026-01-20 10:21:30.35	58.36	22.65	-46.1	-64.7	3.8	7.44e-01	0	58	104	0	62	33244
2026-01-20 10:21:31.36	58.04	22.66	-46.1	-64.8	3.8	7.47e-01	0	58	104	0	62	33396
2026-01-20 10:21:32.37	57.71	22.67	-46.1	-64.8	3.8	7.44e-01	0	58	104	0	62	33349
2026-01-20 10:21:33.39	57.39	22.68	-46.1	-64.8	3.8	7.45e-01	0	58	104	0	62	33336
2026-01-20 10:21:34.40	57.06	22.68	-46.1	-64.8	3.8	7.44e-01	0	58	104	0	62	33329
2026-01-20 10:21:35.41	56.74	22.69	-46.1	-64.7	3.8	7.44e-01	0	59	104	0	62	33303
2026-01-20 10:21:36.42	56.41	22.70	-46.1	-64.7	3.8	7.43e-01	0	59	104	0	62	33307
2026-01-20 10:21:37.43	56.09	22.70	-46.1	-64.8	3.8	7.42e-01	0	58	104	0	62	33321
2026-01-20 10:21:38.44	55.76	22.70	-46.1	-64.7	3.8	7.44e-01	0	58	104	0	62	33287
2026-01-20 10:21:39.45	55.44	22.71	-46.1	-64.7	3.8	7.43e-01	0	58	104	0	62	33253
2026-01-20 10:21:40.46	55.11	22.71	-46.1	-64.7	3.8	7.46e-01	0	58	104	0	62	33232
2026-01-20 10:21:41.47	54.79	22.71	-46.1	-64.7	3.8	7.47e-01	0	59	104	0	62	33278
2026-01-20 10:21:42.48	54.46	22.71	-46.1	-64.7	3.8	7.43e-01	0	58	104	0	62	33228
2026-01-20 10:21:43.49	54.14	22.71	-46.1	-64.7	3.8	7.44e-01	0	58	104	0	62	33229
2026-01-20 10:21:44.50	53.81	22.71	-46.1	-64.7	3.8	7.44e-01	0	58	104	0	62	33208
2026-01-20 10:21:45.51	53.49	22.70	-46.1	-64.8	3.8	7.44e-01	0	58	104	0	62	33314
2026-01-20 10:21:46.52	53.17	22.70	-46.1	-64.7	3.8	7.49e-01	0	59	104	0	62	33228
2026-01-20 10:21:47.53	52.84	22.69	-46.1	-64.7	3.8	7.45e-01	0	59	104	0	62	33225
2026-01-20 10:21:48.54	52.52	22.69	-46.1	-64.7	3.8	7.44e-01	0	58	104	0	62	33165
2026-01-20 10:21:49.55	52.19	22.68	-46.1	-64.7	3.8	7.48e-01	0	58	104	0	62	33212
2026-01-20 10:21:50.56	51.87	22.67	-46.1	-64.7	3.8	7.45e-01	0	59	104	0	62	33166
2026-01-20 10:21:51.57	51.54	22.66	-46.1	-64.7	3.8	7.44e-01	0	59	104	0	62	33205
2026-01-20 10:21:52.59	51.22	22.66	-46.1	-64.7	3.8	7.43e-01	0	58	104	0	62	33165
2026-01-20 10:21:53.60	50.89	22.64	-46.1	-64.7	3.8	7.43e-01	0	59	104	0	62	33144
2026-01-20 10:21:54.61	50.57	22.63	-46.1	-64.7	3.8	7.44e-01	0	59	104	0	62	33214
2026-01-20 10:21:55.62	50.25	22.62	-46.1	-64.7	3.8	7.48e-01	0	59	104	0	62	33241
2026-01-20 10:21:56.63	49.92	22.61	-46.1	-64.7	3.8	7.44e-01	0	59	104	0	62	33202
2026-01-20 10:21:57.64	49.60	22.59	-46.1	-64.7	3.8	7.47e-01	0	59	104	0	62	33218
2026-01-20 10:21:58.65	49.28	22.58	-46.1	-64.7	3.8	7.47e-01	0	59	104	0	62	33185
2026-01-20 10:21:59.66	48.96	22.56	-46.1	-64.7	3.8	7.45e-01	0	58	104	0	62	33100
2026-01-20 10:22:00.64	48.65	22.55	-46.1	-64.7	3.8	7.45e-01	0	59	104	0	62	33162
2026-01-20 10:22:01.65	48.33	22.53	-46.1	-64.7	3.8	7.46e-01	0	58	104	0	62	33150
2026-01-20 10:22:02.67	48.00	22.51	-46.1	-64.7	3.8	7.47e-01	0	59	104	0	62	33126
2026-01-20 10:22:03.68	47.68	22.49	-46.1	-64.7	3.8	7.45e-01	0	59	104	0	62	33144
2026-01-20 10:22:04.69	47.36	22.47	-46.1	-64.7	3.8	7.44e-01	0	59	104	0	62	33189
2026-01-20 10:22:05.70	47.04	22.45	-46.1	-64.7	3.8	7.47e-01	0	58	104	0	62	33060
2026-01-20 10:22:06.71	46.72	22.42	-46.1	-64.7	3.8	7.44e-01	0	59	104	0	62	33079
2026-01-20 10:22:07.72	46.41	22.40	-46.1	-64.7	3.8	7.42e-01	0	59	104	0	62	33072
2026-01-20 10:22:08.73	46.09	22.38	-46.1	-64.7	3.8	7.48e-01	0	59	104	0	62	33049
2026-01-20 10:22:09.74	45.77	22.35	-46.1	-64.7	3.8	7.44e-01	0	59	104	0	62	33095
2026-01-20 10:22:10.75	45.45	22.33	-46.1	-64.7	3.8	7.44e-01	0	59	104	0	62	33035
2026-01-20 10:22:11.76	45.14	22.30	-46.1	-64.7	3.8	7.45e-01	0	59	104	0	62	32980
2026-01-20 10:22:12.77	44.82	22.27	-46.1	-64.7	3.8	7.44e-01	0	59	104	0	62	33097
2026-01-20 10:22:13.78	44.51	22.24	-46.1	-64.7	3.8	7.46e-01	0	59	104	0	62	33037
2026-01-20 10:22:14.79	44.19	22.21	-46.1	-64.7	3.8	7.43e-01	0	59	104	0	62	33118
2026-01-20 10:22:15.80	43.88	22.18	-46.1	-64.7	3.8	7.47e-01	0	59	104	0	62	33028
2026-01-20 10:22:16.81	43.57	22.15	-46.1	-64.7	3.8	7.44e-01	0	59	104	0	62	33152
2026-01-20 10:22:17.82	43.25	22.12	-46.1	-64.7	3.8	7.47e-01	0	59	104	0	62	33048
2026-01-20 10:22:18.83	42.94	22.09	-46.1	-64.7	3.8	7.45e-01	0	59	104	0	62	33096
2026-01-20 10:22:19.84	42.63	22.05	-46.1	-64.7	3.8	7.45e-01	0	59	104	0	62	32994
2026-01-20 10:22:20.85	42.32	22.02	-46.1	-64.7	3.8	7.45e-01	0	59	104	0	62	33074
2026-01-20 10:22:21.86	42.01	21.98	-46.1	-64.7	3.8	7.47e-01	0	59	104	0	62	33063
2026-01-20 10:22:22.87	41.70	21.95	-46.1	-64.7	3.8	7.48e-01	0	59	104	0	62	33049
2026-01-20 10:22:23.89	41.39	21.91	-46.1	-64.6	3.8	7.46e-01	0	59	104	0	62	32839
2026-01-20 10:22:24.90	41.09	21.87	-46.0	-64.7	3.8	7.45e-01	0	59	104	0	62	33046
2026-01-20 10:22:25.91	40.78	21.84	-46.1	-64.6	3.8	7.50e-01	0	59	104	0	62	32803
2026-01-20 10:22:26.92	40.47	21.80	-46.0	-64.7	3.8	7.43e-01	0	59	104	0	62	33007
2026-01-20 10:22:27.93	40.17	21.76	-46.1	-64.7	3.8	7.44e-01	0	59	104	0	62	32980
2026-01-20 10:22:28.94	39.87	21.72	-46.1	-64.7	3.8	7.46e-01	0	59	104	0	62	32955
2026-01-20 10:22:29.95	39.56	21.68	-46.0	-64.7	3.8	7.47e-01	0	59	104	0	62	32953
2026-01-20 10:22:30.96	39.26	21.63	-46.0	-64.6	3.8	7.43e-01	0	59	104	0	62	32797
2026-01-20 10:22:31.97	38.96	21.59	-46.0	-64.7	3.8	7.46e-01	0	59	104	0	62	32949
2026-01-20 10:22:32.98	38.66	21.55	-46.0	-64.6	3.8	7.45e-01	0	59	104	0	62	32643
2026-01-20 10:22:33.99	38.36	21.50	-46.0	-64.6	3.8	7.47e-01	0	59	104	0	62	32853
2026-01-20 10:22:35.00	38.06	21.46	-46.0	-64.6	3.8	7.46e-01	0	59	104	0	62	32814
2026-01-20 10:22:36.01	37.76	21.41	-46.0	-64.6	3.8	7.44e-01	0	59	104	0	62	32906
2026-01-20 10:22:37.02	37.47	21.37	-46.0	-64.6	3.8	7.45e-01	0	59	104	0	62	32773
2026-01-20 10:22:38.04	37.17	21.32	-46.0	-64.6	3.8	7.43e-01	0	59	104	0	62	32690
2026-01-20 10:22:39.05	36.88	21.27	-46.0	-64.6	3.8	7.43e-01	0	59	104	0	62	32758
2026-01-20 10:22:40.06	36.58	21.22	-46.0	-64.6	3.8	7.43e-01	0	59	104	0	62	32570
2026-01-20 10:22:41.07	36.29	21.17	-46.0	-64.6	3.8	7.44e-01	0	59	104	0	62	32852
2026-01-20 10:22:42.08	36.00	21.12	-46.0	-64.6	3.8	7.43e-01	0	59	104	0	62	32890
2026-01-20 10:22:43.09	35.71	21.07	-46.0	-64.7	3.8	7.47e-01	0	59	104	0	62	32960
2026-01-20 10:22:44.10	35.42	21.02	-45.9	-64.6	3.8	7.44e-01	0	59	104	0	62	32574
2026-01-20 10:22:45.11	35.13	20.97	-46.0	-64.6	3.8	7.45e-01	0	59	104	0	62	32881
2026-01-20 10:22:46.12	34.84	20.92	-46.0	-64.7	3.8	7.42e-01	0	59	104	0	62	32949
2026-01-20 10:22:47.13	34.55	20.87	-46.0	-64.7	3.8	7.43e-01	0	59	104	0	62	32971
2026-01-20 10:22:48.14	34.27	20.81	-46.0	-64.6	3.8	7.43e-01	0	59	104	0	62	32860
2026-01-20 10:22:49.15	33.98	20.76	-46.0	-64.6	3.8	7.43e-01	0	59	104	0	62	32911
2026-01-20 10:22:50.16	33.70	20.70	-46.0	-64.6	3.8	7.45e-01	0	59	104	0	62	32895
2026-01-20 10:22:51.17	33.42	20.65	-46.0	-64.6	3.8	7.45e-01	0	59	104	0	62	32903
2026-01-20 10:22:52.18	33.14	20.59	-46.0	-64.7	3.8	7.48e-01	0	59	104	0	62	32930
2026-01-20 10:22:53.19	32.86	20.54	-46.0	-64.7	3.8	7.47e-01	0	59	104	0	62	32954
2026-01-20 10:22:54.20	32.58	20.48	-46.0	-64.6	3.8	7.42e-01	0	59	104	0	62	32867
2026-01-20 10:22:55.21	32.30	20.42	-46.0	-64.7	3.8	7.42e-01	0	59	104	0	62	32937
2026-01-20 10:22:56.22	32.02	20.36	-46.0	-64.6	3.8	7.44e-01	0	59	104	0	62	32860
2026-01-20 10:22:57.23	31.75	20.31	-46.0	-64.6	3.8	7.48e-01	0	59	104	0	62	32867
2026-01-20 10:22:58.24	31.47	20.25	-46.0	-64.6	3.8	7.48e-01	0	59	104	0	62	32852
2026-01-20 10:22:59.25	31.20	20.19	-46.0	-64.7	3.8	7.46e-01	0	59	104	0	62	32940
2026-01-20 10:23:00.26	30.93	20.13	-46.0	-64.6	3.8	7.44e-01	0	59	104	0	62	32828
2026-01-20 10:23:01.27	30.66	20.07	-46.0	-64.6	3.8	7.45e-01	0	59	104	0	62	32775
2026-01-20 10:23:02.29	30.38	20.01	-46.0	-64.6	3.8	7.45e-01	0	59	104	0	62	32787
2026-01-20 10:23:03.30	30.11	19.94	-46.0	-64.6	3.8	7.47e-01	0	59	104	0	62	32903
2026-01-20 10:23:04.31	29.85	19.88	-46.0	-64.6	3.8	7.48e-01	0	59	104	0	62	32838
2026-01-20 10:23:05.32	29.58	19.82	-46.0	-64.6	3.8	7.45e-01	0	59	104	0	62	32801
2026-01-20 10:23:06.33	29.32	19.76	-46.0	-64.6	3.8	7.46e-01	0	59	104	0	62	32828
2026-01-20 10:23:07.34	29.05	19.69	-46.0	-64.6	3.8	7.44e-01	0	59	104	0	62	32826
2026-01-20 10:23:08.35	28.79	19.63	-46.0	-64.6	3.8	7.40e-01	0	59	104	0	62	32780
2026-01-20 10:23:09.36	28.53	19.57	-46.0	-64.6	3.8	7.47e-01	0	59	104	0	62	32767
2026-01-20 10:23:10.37	28.27	19.50	-46.0	-64.6	3.8	7.46e-01	0	59	104	0	62	32854
2026-01-20 10:23:11.38	28.01	19.44	-46.0	-64.6	3.8	7.47e-01	0	59	104	0	62	32823
2026-01-20 10:23:12.39	27.75	19.37	-46.0	-64.6	3.8	7.47e-01	0	59	104	0	62	32788
2026-01-20 10:23:13.40	27.49	19.31	-46.0	-64.6	3.8	7.43e-01	0	59	104	0	62	32880
2026-01-20 10:23:14.42	27.23	19.24	-46.0	-64.6	3.8	7.46e-01	0	59	104	0	62	32816
2026-01-20 10:23:15.43	26.98	19.17	-46.0	-64.6	3.8	7.47e-01	0	59	104	0	62	32804
2026-01-20 10:23:16.44	26.72	19.11	-46.0	-64.6	3.8	7.44e-01	0	59	104	0	62	32721
2026-01-20 10:23:17.45	26.47	19.04	-46.0	-64.6	3.8	7.49e-01	0	59	104	0	62	32802
2026-01-20 10:23:18.46	26.22	18.97	-46.0	-64.6	3.8	7.45e-01	0	59	104	0	62	32814
2026-01-20 10:23:19.47	25.97	18.91	-46.0	-64.6	3.8	7.45e-01	0	59	104	0	62	32741
2026-01-20 10:23:20.48	25.72	18.84	-46.0	-64.6	3.8	7.49e-01	0	59	104	0	62	32836
2026-01-20 10:23:21.49	25.47	18.77	-46.0	-64.6	3.8	7.44e-01	0	59	104	0	62	32818
2026-01-20 10:23:22.50	25.23	18.70	-46.0	-64.6	3.8	7.43e-01	0	59	104	0	62	32715
2026-01-20 10:23:23.51	24.98	18.63	-46.0	-64.6	3.8	7.45e-01	0	59	104	0	62	32767
2026-01-20 10:23:24.52	24.74	18.56	-46.0	-64.6	3.8	7.48e-01	0	59	104	0	62	32852
2026-01-20 10:23:25.53	24.50	18.49	-46.0	-64.6	3.8	7.44e-01	0	59	104	0	62	32800
2026-01-20 10:23:26.54	24.25	18.42	-46.0	-64.6	3.8	7.48e-01	0	59	104	0	62	32766
2026-01-20 10:23:27.55	24.01	18.35	-46.0	-64.6	3.8	7.42e-01	0	59	104	0	62	32803
2026-01-20 10:23:28.56	23.77	18.28	-46.0	-64.6	3.8	7.48e-01	0	59	104	0	62	32794
2026-01-20 10:23:29.57	23.54	18.21	-46.0	-64.6	3.8	7.46e-01	0	59	104	0	62	32790
2026-01-20 10:23:30.58	23.30	18.14	-46.0	-64.6	3.8	7.44e-01	0	59	104	0	62	32761
2026-01-20 10:23:31.59	23.06	18.07	-46.0	-64.6	3.8	7.42e-01	0	59	104	0	62	32808
2026-01-20 10:23:32.60	22.83	18.00	-46.0	-64.6	3.8	7.46e-01	0	59	104	0	62	32759
2026-01-20 10:23:33.62	22.59	17.92	-46.0	-64.6	3.8	7.46e-01	0	59	104	0	62	32795
2026-01-20 10:23:34.62	22.36	17.85	-46.0	-64.6	3.8	7.47e-01	0	59	104	0	62	32775
2026-01-20 10:23:35.64	22.13	17.78	-46.0	-64.6	3.8	7.44e-01	0	59	104	0	62	32819
2026-01-20 10:23:36.64	21.90	17.71	-46.0	-64.6	3.8	7.45e-01	0	59	104	0	62	32750
2026-01-20 10:23:37.66	21.67	17.63	-46.0	-64.6	3.8	7.46e-01	0	59	104	0	62	32806
2026-01-20 10:23:38.67	21.44	17.56	-46.0	-64.6	3.8	7.46e-01	0	59	104	0	62	32887
2026-01-20 10:23:39.68	21.22	17.49	-46.0	-64.7	3.8	7.42e-01	0	59	104	0	62	32949
2026-01-20 10:23:40.69	20.99	17.41	-46.0	-64.6	3.8	7.47e-01	0	59	104	0	62	32775
2026-01-20 10:23:41.70	20.77	17.34	-46.0	-64.6	3.8	7.48e-01	0	59	104	0	62	32763
2026-01-20 10:23:42.71	20.55	17.27	-46.0	-64.6	3.8	7.47e-01	0	59	104	0	62	32811
2026-01-20 10:23:43.72	20.33	17.19	-46.0	-64.6	3.8	7.46e-01	0	59	104	0	62	32804
2026-01-20 10:23:44.73	20.10	17.12	-46.0	-64.6	3.8	7.43e-01	0	59	104	0	62	32771
2026-01-20 10:23:45.74	19.89	17.05	-46.0	-64.6	3.8	7.46e-01	0	59	104	0	62	32732
2026-01-20 10:23:46.75	19.67	16.97	-46.0	-64.6	3.8	7.46e-01	0	59	104	0	62	32726
2026-01-20 10:23:47.76	19.45	16.90	-46.0	-64.6	3.8	7.48e-01	0	59	104	0	62	32675
2026-01-20 10:23:48.77	19.24	16.82	-46.0	-64.6	3.8	7.44e-01	0	59	104	0	62	32746
2026-01-20 10:23:49.78	19.02	16.75	-46.0	-64.6	3.8	7.42e-01	0	59	104	0	62	32762
2026-01-20 10:23:50.79	18.81	16.67	-46.0	-64.6	3.8	7.44e-01	0	59	104	0	62	32766
2026-01-20 10:23:51.80	18.60	16.60	-46.0	-64.6	3.8	7.46e-01	0	59	104	0	62	32764
2026-01-20 10:23:52.81	18.38	16.52	-46.0	-64.6	3.8	7.46e-01	0	59	104	0	62	32771
2026-01-20 10:23:53.83	18.17	16.45	-46.0	-64.6	3.8	7.46e-01	0	59	104	0	62	32726
2026-01-20 10:23:54.84	17.96	16.37	-46.0	-64.6	3.8	7.46e-01	0	59	104	0	62	32715
2026-01-20 10:23:55.85	17.76	16.30	-46.0	-64.6	3.8	7.43e-01	0	59	104	0	62	32758
2026-01-20 10:23:56.86	17.55	16.22	-46.0	-64.6	3.8	7.44e-01	0	59	104	0	62	32721
2026-01-20 10:23:57.87	17.34	16.14	-46.0	-64.6	3.8	7.48e-01	0	59	104	0	62	32714
2026-01-20 10:23:58.88	17.14	16.07	-46.0	-64.6	3.8	7.48e-01	0	59	104	0	62	32700
2026-01-20 10:23:59.89	16.94	15.99	-46.0	-64.6	3.8	7.43e-01	0	59	104	0	62	32725
2026-01-20 10:24:00.89	16.74	15.92	-46.0	-64.6	3.8	7.45e-01	0	59	104	0	62	32683
2026-01-20 10:24:01.90	16.54	15.84	-46.0	-64.6	3.8	7.45e-01	0	59	104	0	62	32730
2026-01-20 10:24:02.91	16.34	15.77	-46.0	-64.6	3.8	7.46e-01	0	59	104	0	62	32727
2026-01-20 10:24:03.92	16.14	15.69	-46.0	-64.6	3.8	7.46e-01	0	59	104	0	62	32720
2026-01-20 10:24:04.94	15.94	15.61	-46.0	-64.6	3.8	7.47e-01	0	59	104	0	62	32664
2026-01-20 10:24:05.95	15.74	15.54	-46.0	-64.6	3.8	7.47e-01	0	59	104	0	62	32621
2026-01-20 10:24:06.96	15.55	15.46	-46.0	-64.6	3.8	7.40e-01	0	59	104	0	62	32722
2026-01-20 10:24:07.97	15.35	15.38	-46.0	-64.6	3.8	7.46e-01	0	59	104	0	62	32646
2026-01-20 10:24:08.98	15.16	15.31	-46.0	-64.6	3.8	7.45e-01	0	59	104	0	62	32592
2026-01-20 10:24:09.99	14.97	15.23	-46.0	-64.6	3.8	7.44e-01	0	59	104	0	62	32631
2026-01-20 10:24:11.00	14.77	15.15	-46.0	-64.6	3.8	7.44e-01	0	59	104	0	62	32573
2026-01-20 10:24:12.01	14.58	15.08	-46.0	-64.6	3.8	7.45e-01	0	59	104	0	62	32650
2026-01-20 10:24:13.02	14.39	15.00	-46.0	-64.6	3.8	7.47e-01	0	59	104	0	62	32621
2026-01-20 10:24:14.03	14.21	14.92	-46.0	-64.6	3.8	7.46e-01	0	59	104	0	62	32576
2026-01-20 10:24:15.04	14.02	14.85	-46.0	-64.6	3.8	7.46e-01	0	59	104	0	62	32634
2026-01-20 10:24:16.05	13.83	14.77	-46.0	-64.6	3.8	7.43e-01	0	59	104	0	62	32616
2026-01-20 10:24:17.06	13.65	14.69	-46.0	-64.6	3.8	7.46e-01	0	59	104	0	62	32669
2026-01-20 10:24:18.07	13.47	14.62	-46.0	-64.6	3.8	7.42e-01	0	59	104	0	62	32630
2026-01-20 10:24:19.08	13.28	14.54	-46.0	-64.6	3.8	7.45e-01	0	59	104	0	62	32639
2026-01-20 10:24:20.09	13.10	14.46	-46.0	-64.6	3.8	7.48e-01	0	59	104	0	62	32611
2026-01-20 10:24:21.10	12.92	14.39	-45.9	-64.6	3.8	7.47e-01	0	59	104	0	62	32605
2026-01-20 10:24:22.11	12.74	14.31	-46.0	-64.6	3.8	7.45e-01	0	59	104	0	62	32582
2026-01-20 10:24:23.12	12.56	14.23	-45.9	-64.5	3.8	7.46e-01	0	59	104	0	62	32549
2026-01-20 10:24:24.13	12.38	14.16	-46.0	-64.5	3.8	7.46e-01	0	59	104	0	62	32551
2026-01-20 10:24:25.14	12.21	14.08	-45.9	-64.6	3.8	7.44e-01	0	59	104	0	62	32570
2026-01-20 10:24:26.15	12.03	14.00	-46.0	-64.5	3.8	7.46e-01	0	59	104	0	62	32516
2026-01-20 10:24:27.17	11.86	13.92	-45.9	-64.5	3.8	7.43e-01	0	59	104	0	62	32539
2026-01-20 10:24:28.18	11.68	13.85	-45.9	-64.5	3.8	7.46e-01	0	59	104	0	62	32485
2026-01-20 10:24:29.19	11.51	13.77	-45.9	-64.6	3.8	7.45e-01	0	59	104	0	62	32563
2026-01-20 10:24:30.20	11.34	13.69	-45.9	-64.5	3.8	7.49e-01	0	59	104	0	62	32544
2026-01-20 10:24:31.21	11.17	13.62	-45.9	-64.5	3.8	7.47e-01	0	59	104	0	62	32406
2026-01-20 10:24:32.22	11.00	13.54	-45.9	-64.5	3.8	7.46e-01	0	59	104	0	62	32416
2026-01-20 10:24:33.23	10.83	13.46	-45.9	-64.5	3.8	7.44e-01	0	59	104	0	62	32461
2026-01-20 10:24:34.24	10.66	13.39	-45.9	-64.5	3.8	7.47e-01	0	59	104	0	62	32450
2026-01-20 10:24:35.25	10.49	13.31	-45.9	-64.5	3.8	7.45e-01	0	59	104	0	62	32433
2026-01-20 10:24:36.26	10.33	13.24	-45.9	-64.5	3.8	7.43e-01	0	59	104	0	62	32415
2026-01-20 10:24:37.27	10.16	13.16	-45.9	-64.5	3.8	7.45e-01	0	59	104	0	62	32440
2026-01-20 10:24:38.28	10.00	13.08	-45.9	-64.5	3.8	7.42e-01	0	59	104	0	62	32436
2026-01-20 10:24:39.29	9.83	13.01	-45.9	-64.5	3.8	7.43e-01	0	59	104	0	62	32320
2026-01-20 10:24:40.30	9.67	12.93	-45.9	-64.5	3.8	7.47e-01	0	59	104	0	62	32429
2026-01-20 10:24:41.31	9.51	12.85	-45.9	-64.5	3.8	7.48e-01	0	59	104	0	62	32413
2026-01-20 10:24:42.32	9.35	12.78	-45.9	-64.5	3.8	7.48e-01	0	59	104	0	62	32417
2026-01-20 10:24:43.33	9.19	12.70	-45.9	-64.5	3.8	7.46e-01	0	59	104	0	62	32341
2026-01-20 10:24:44.34	9.03	12.63	-45.9	-64.5	3.8	7.47e-01	0	59	104	0	62	32400
2026-01-20 10:24:45.35	8.87	12.55	-45.9	-64.5	3.8	7.43e-01	0	59	104	0	62	32456
2026-01-20 10:24:46.36	8.72	12.47	-45.9	-64.5	3.8	7.44e-01	0	59	104	0	62	32412
2026-01-20 10:24:47.37	8.56	12.40	-45.9	-64.5	3.8	7.45e-01	0	59	104	0	62	32341
2026-01-20 10:24:48.39	8.40	12.32	-45.9	-64.5	3.8	7.45e-01	0	59	104	0	62	32290
2026-01-20 10:24:49.40	8.25	12.24	-45.9	-64.5	3.8	7.46e-01	0	59	104	0	62	32334
2026-01-20 10:24:50.41	8.10	12.17	-45.9	-64.5	3.8	7.46e-01	0	59	104	0	62	32250
2026-01-20 10:24:51.42	7.94	12.09	-45.9	-64.5	3.8	7.47e-01	0	59	104	0	62	32243
2026-01-20 10:24:52.43	7.79	12.02	-45.9	-64.5	3.8	7.42e-01	0	59	104	0	62	32283
2026-01-20 10:24:53.44	7.64	11.94	-45.9	-64.5	3.8	7.45e-01	0	59	104	0	62	32257
2026-01-20 10:24:54.45	7.49	11.87	-45.9	-64.5	3.8	7.44e-01	0	59	104	0	62	32218
2026-01-20 10:24:55.46	7.34	11.79	-45.9	-64.5	3.8	7.45e-01	0	59	104	0	62	32275
2026-01-20 10:24:56.47	7.19	11.72	-45.9	-64.5	3.8	7.42e-01	0	59	104	0	62	32193
2026-01-20 10:24:57.48	7.05	11.64	-45.9	-64.5	3.8	7.45e-01	0	59	104	0	62	32275
2026-01-20 10:24:58.49	6.90	11.57	-45.9	-64.5	3.8	7.45e-01	0	59	104	0	62	32339
2026-01-20 10:24:59.50	6.75	11.49	-45.9	-64.5	3.8	7.50e-01	0	59	104	0	62	32254
2026-01-20 10:25:00.51	6.61	11.42	-45.9	-64.5	3.8	7.47e-01	0	59	104	0	62	32219
2026-01-20 10:25:01.52	6.47	11.34	-45.9	-64.5	3.8	7.45e-01	0	59	104	0	62	32200
2026-01-20 10:25:02.53	6.32	11.27	-45.9	-64.5	3.8	7.47e-01	0	59	104	0	62	32298
2026-01-20 10:25:03.54	6.18	11.19	-45.9	-64.5	3.8	7.46e-01	0	59	104	0	62	32227
2026-01-20 10:25:04.55	6.04	11.12	-45.8	-64.5	3.8	7.45e-01	0	59	104	0	62	32237
2026-01-20 10:25:05.56	5.90	11.04	-45.8	-64.4	3.8	7.48e-01	0	59	104	0	62	32156
2026-01-20 10:25:06.57	5.76	10.97	-45.8	-64.4	3.8	7.45e-01	0	59	104	0	62	32165
2026-01-20 10:25:07.58	5.62	10.89	-45.8	-64.5	3.8	7.46e-01	0	59	104	0	62	32228
2026-01-20 10:25:08.59	5.48	10.82	-45.8	-64.4	3.8	7.46e-01	0	59	104	0	62	32166
2026-01-20 10:25:09.60	5.34	10.75	-45.8	-64.4	3.8	7.47e-01	0	59	104	0	62	32152
2026-01-20 10:25:10.61	5.20	10.67	-45.8	-64.5	3.8	7.43e-01	0	59	104	0	62	32215
2026-01-20 10:25:11.62	5.07	10.60	-45.9	-64.4	3.8	7.49e-01	0	59	104	0	62	32136
2026-01-20 10:25:12.63	4.93	10.52	-45.8	-64.4	3.8	7.45e-01	0	59	104	0	62	32166
2026-01-20 10:25:13.64	4.80	10.45	-45.8	-64.4	3.8	7.44e-01	0	59	104	0	62	32144
2026-01-20 10:25:14.65	4.66	10.38	-45.8	-64.4	3.8	7.46e-01	0	59	104	0	62	32099
2026-01-20 10:25:15.66	4.53	10.30	-45.8	-64.4	3.8	7.44e-01	0	59	104	0	62	32113
2026-01-20 10:25:16.67	4.40	10.23	-45.8	-64.4	3.8	7.46e-01	0	59	104	0	62	32082
2026-01-20 10:25:17.69	4.27	10.16	-45.8	-64.4	3.8	7.44e-01	0	59	104	0	62	32068
2026-01-20 10:25:18.70	4.13	10.08	-45.8	-64.4	3.8	7.45e-01	0	59	104	0	62	32121
2026-01-20 10:25:19.70	4.01	10.01	-45.8	-64.4	3.8	7.47e-01	0	59	104	0	62	32091
2026-01-20 10:25:20.72	3.87	9.94	-45.8	-64.4	3.8	7.45e-01	0	59	104	0	62	32068
2026-01-20 10:25:21.72	3.75	9.86	-45.8	-64.4	3.8	7.43e-01	0	59	104	0	62	32041
2026-01-20 10:25:22.73	3.62	9.79	-45.8	-64.4	3.8	7.46e-01	0	59	104	0	62	32025
2026-01-20 10:25:23.75	3.49	9.72	-45.8	-64.4	3.8	7.43e-01	0	59	104	0	62	32107
2026-01-20 10:25:24.75	3.36	9.65	-45.8	-64.4	3.8	7.44e-01	0	59	104	0	62	32074
2026-01-20 10:25:25.77	3.24	9.57	-45.8	-64.4	3.8	7.44e-01	0	59	104	0	62	32040
2026-01-20 10:25:26.78	3.11	9.50	-45.8	-64.4	3.8	7.45e-01	0	59	104	0	62	32080
2026-01-20 10:25:27.79	2.99	9.43	-45.8	-64.4	3.8	7.45e-01	0	59	104	0	62	32018
2026-01-20 10:25:28.80	2.86	9.36	-45.8	-64.4	3.8	7.49e-01	0	59	104	0	62	31950
2026-01-20 10:25:29.81	2.74	9.28	-45.8	-64.4	3.8	7.43e-01	0	59	104	0	62	31984
2026-01-20 10:25:30.82	2.62	9.21	-45.8	-64.4	3.8	7.46e-01	0	59	104	0	62	31993
2026-01-20 10:25:31.83	2.50	9.14	-45.8	-64.4	3.8	7.46e-01	0	59	104	0	62	31945
2026-01-20 10:25:32.84	2.37	9.07	-45.8	-64.4	3.8	7.45e-01	0	59	104	0	62	31922
2026-01-20 10:25:33.85	2.25	9.00	-45.8	-64.4	3.8	7.45e-01	0	59	104	0	62	31955
2026-01-20 10:25:34.86	2.13	8.93	-45.8	-64.4	3.8	7.44e-01	0	59	104	0	62	31845
2026-01-20 10:25:35.87	2.01	8.85	-45.8	-64.4	3.8	7.44e-01	0	59	104	0	62	31828
2026-01-20 10:25:36.88	1.90	8.78	-45.7	-64.3	3.8	7.45e-01	0	59	104	0	62	31758
2026-01-20 10:25:37.89	1.78	8.71	-45.7	-64.3	3.8	7.43e-01	0	59	104	0	62	31738
2026-01-20 10:25:38.90	1.66	8.64	-45.8	-64.4	3.8	7.44e-01	0	59	104	0	62	31855
2026-01-20 10:25:39.91	1.54	8.57	-45.8	-64.4	3.8	7.44e-01	0	59	104	0	62	31842
2026-01-20 10:25:40.93	1.43	8.50	-45.7	-64.4	3.8	7.48e-01	0	59	104	0	62	31856
2026-01-20 10:25:41.94	1.31	8.43	-45.7	-64.3	3.8	7.47e-01	0	59	104	0	62	31783
2026-01-20 10:25:42.95	1.20	8.36	-45.8	-64.4	3.8	7.44e-01	0	59	104	0	62	31839
2026-01-20 10:25:43.96	1.08	8.29	-45.8	-64.4	3.8	7.49e-01	0	59	104	0	62	31868
2026-01-20 10:25:44.97	0.97	8.22	-45.7	-64.3	3.8	7.44e-01	0	59	104	0	62	31787
2026-01-20 10:25:45.98	0.86	8.15	-45.7	-64.3	3.8	7.48e-01	0	59	104	0	62	31675
2026-01-20 10:25:46.99	0.74	8.08	-45.7	-64.4	3.8	7.45e-01	0	59	104	0	62	31829
2026-01-20 10:25:48.00	0.63	8.01	-45.7	-64.3	3.8	7.44e-01	0	59	104	0	62	31711
2026-01-20 10:25:49.01	0.52	7.94	-45.7	-64.3	3.8	7.49e-01	0	59	104	0	62	31712
2026-01-20 10:25:50.02	0.41	7.87	-45.7	-64.3	3.8	7.46e-01	0	59	104	0	62	31798
2026-01-20 10:25:51.03	0.30	7.80	-45.7	-64.3	3.8	7.46e-01	0	59	104	0	62	31746
2026-01-20 10:25:52.04	0.19	7.73	-45.7	-64.3	3.8	7.48e-01	0	59	104	0	62	31788
2026-01-20 10:25:53.05	0.08	7.66	-45.7	-64.3	3.8	7.42e-01	0	59	104	0	62	31704
2026-01-20 10:25:54.06	359.97	7.59	-45.7	-64.3	3.8	7.43e-01	0	59	104	0	62	31642
2026-01-20 10:25:55.07	359.87	7.52	-45.7	-64.3	3.8	7.45e-01	0	59	104	0	62	31688
2026-01-20 10:25:56.08	359.76	7.45	-45.7	-64.3	3.8	7.45e-01	0	59	104	0	62	31690
2026-01-20 10:25:57.09	359.65	7.38	-45.7	-64.3	3.8	7.48e-01	0	59	104	0	62	31707
2026-01-20 10:25:58.10	359.55	7.31	-45.7	-64.3	3.8	7.47e-01	0	59	104	0	62	31602
2026-01-20 10:25:59.12	359.44	7.24	-45.7	-64.2	3.8	7.43e-01	0	59	104	0	62	31440
2026-01-20 10:26:00.13	359.33	7.18	-45.7	-64.3	3.8	7.44e-01	0	59	104	0	62	31586
2026-01-20 10:26:01.14	359.23	7.11	-45.6	-64.2	3.8	7.43e-01	0	59	104	0	62	31318
2026-01-20 10:26:02.15	359.13	7.04	-45.7	-64.2	3.8	7.43e-01	0	59	104	0	61	33283
2026-01-20 10:26:03.16	359.02	6.97	-45.7	-64.2	3.8	7.46e-01	0	59	104	0	61	33248
2026-01-20 10:26:04.17	358.92	6.90	-45.7	-64.2	3.8	7.45e-01	0	59	104	0	61	33307
2026-01-20 10:26:05.18	358.82	6.83	-45.7	-64.3	3.8	7.45e-01	0	59	104	0	61	33347
2026-01-20 10:26:06.18	358.72	6.77	-45.6	-64.2	3.8	7.47e-01	0	59	104	0	61	33166
2026-01-20 10:26:07.20	358.62	6.70	-45.6	-63.7	3.9	7.44e-01	0	59	104	0	61	31295
2026-01-20 10:26:08.21	358.52	6.63	-45.6	-64.3	3.8	7.43e-01	0	59	104	0	61	33334
2026-01-20 10:26:09.22	358.42	6.56	-45.6	-64.3	3.8	7.47e-01	0	59	104	0	61	33355
2026-01-20 10:26:10.23	358.32	6.50	-45.6	-64.2	3.8	7.44e-01	0	59	104	0	61	33082
2026-01-20 10:26:11.24	358.22	6.43	-45.6	-64.2	3.8	7.47e-01	0	59	104	0	61	33289
2026-01-20 10:26:12.25	358.12	6.36	-45.6	-64.2	3.8	7.39e-01	0	59	104	0	61	33280
2026-01-20 10:26:13.26	358.02	6.30	-45.6	-64.2	3.8	7.45e-01	0	59	104	0	61	33122
2026-01-20 10:26:14.27	357.92	6.23	-45.6	-64.2	3.8	7.44e-01	0	59	104	0	61	33240
2026-01-20 10:26:15.28	357.83	6.16	-45.6	-64.2	3.8	7.44e-01	0	59	104	0	61	33201
2026-01-20 10:26:16.29	357.73	6.10	-45.6	-64.2	3.8	7.45e-01	0	59	104	0	61	33208
2026-01-20 10:26:17.30	357.64	6.03	-45.6	-64.2	3.8	7.43e-01	0	59	104	0	61	33237
2026-01-20 10:26:18.31	357.54	5.96	-45.6	-64.1	3.8	7.48e-01	0	59	104	0	61	32907
2026-01-20 10:26:19.32	357.44	5.90	-45.5	-64.0	3.8	7.48e-01	0	59	104	0	61	32472
2026-01-20 10:26:20.33	357.35	5.83	-45.6	-64.2	3.8	7.47e-01	0	59	104	0	61	33069
2026-01-20 10:26:21.34	357.26	5.76	-45.6	-64.0	3.8	7.45e-01	0	59	104	0	61	32484
2026-01-20 10:26:22.35	357.16	5.70	-45.5	-63.9	3.8	7.45e-01	0	59	104	0	61	31908
2026-01-20 10:26:23.36	357.07	5.63	-45.2	-61.9	4.1	7.53e-01	0	59	104	0	58	30143
2026-01-20 10:26:24.37	356.98	5.57	-45.6	-64.1	3.8	7.45e-01	0	59	104	0	61	32586
2026-01-20 10:26:25.38	356.89	5.50	-45.5	-63.2	4.1	7.47e-01	0	59	104	0	61	29685
2026-01-20 10:26:26.39	356.79	5.44	-45.5	-64.1	3.8	7.48e-01	0	59	104	0	61	32844
2026-01-20 10:26:27.40	356.70	5.37	-45.5	-64.1	3.8	7.46e-01	0	59	104	0	61	32803
2026-01-20 10:26:28.41	356.61	5.30	-45.5	-64.1	3.8	7.46e-01	0	59	104	0	61	32781
2026-01-20 10:26:29.43	356.52	5.24	-45.5	-64.0	3.8	7.44e-01	0	59	104	0	61	32466
2026-01-20 10:26:30.44	356.43	5.17	-45.5	-64.0	3.9	7.49e-01	0	59	104	0	61	32252
2026-01-20 10:26:31.45	356.34	5.11	-45.4	-64.0	3.8	7.47e-01	0	59	104	0	61	32341
2026-01-20 10:26:32.46	356.25	5.04	-45.5	-64.1	3.8	7.47e-01	0	59	104	0	61	32914
2026-01-20 10:26:33.47	356.17	4.98	-45.5	-64.1	3.8	7.47e-01	0	59	104	0	61	32845
2026-01-20 10:26:34.48	356.08	4.91	-45.5	-64.1	3.8	7.47e-01	0	59	104	0	61	32711
2026-01-20 10:26:35.49	355.99	4.85	-45.5	-64.1	3.8	7.46e-01	0	59	104	0	61	32722
2026-01-20 10:26:36.50	355.90	4.79	-45.5	-64.1	3.8	7.45e-01	0	59	104	0	61	32790
2026-01-20 10:26:37.51	355.82	4.72	-45.5	-64.1	3.8	7.44e-01	0	59	104	0	61	32855
2026-01-20 10:26:38.52	355.73	4.66	-45.5	-64.1	3.8	7.48e-01	0	59	104	0	61	32831
2026-01-20 10:26:39.53	355.64	4.59	-45.4	-64.1	3.8	7.43e-01	0	59	104	0	61	32731
2026-01-20 10:26:40.54	355.56	4.53	-45.4	-64.1	3.8	7.47e-01	0	59	104	0	61	32673
2026-01-20 10:26:41.55	355.47	4.47	-45.3	-64.0	3.8	7.48e-01	0	59	104	0	61	32509
2026-01-20 10:26:42.56	355.39	4.40	-45.4	-63.9	3.8	7.48e-01	0	59	104	0	61	32058
2026-01-20 10:26:43.57	355.31	4.34	-45.5	-64.0	3.9	7.47e-01	0	59	104	0	61	32346
2026-01-20 10:26:44.58	355.22	4.28	-45.4	-63.9	3.8	7.46e-01	0	59	104	0	61	32105
2026-01-20 10:26:45.59	355.14	4.21	-45.3	-63.9	3.8	7.41e-01	0	59	104	0	61	32154
2026-01-20 10:26:46.60	355.06	4.15	-45.4	-64.0	3.8	7.44e-01	0	59	104	0	61	32386
2026-01-20 10:26:47.61	354.97	4.09	-45.4	-63.8	3.9	7.44e-01	0	59	104	0	61	31542
2026-01-20 10:26:48.63	354.89	4.02	-45.3	-63.7	3.8	7.43e-01	0	59	104	0	61	31364
2026-01-20 10:26:49.64	354.81	3.96	-45.4	-64.0	3.9	7.48e-01	0	59	104	0	61	32477
2026-01-20 10:26:50.65	354.73	3.90	-45.4	-64.0	3.8	7.46e-01	0	59	104	0	61	32525
2026-01-20 10:26:51.66	354.65	3.83	-45.8	-64.4	3.8	7.56e-01	0	59	104	0	61	33944
2026-01-20 10:26:52.67	354.57	3.77	-45.4	-64.0	3.8	7.46e-01	0	59	104	0	61	32415
2026-01-20 10:26:53.68	354.49	3.71	-45.4	-64.0	3.8	7.47e-01	0	59	104	0	61	32409
2026-01-20 10:26:54.69	354.41	3.65	-45.4	-63.7	3.9	7.45e-01	0	59	104	0	61	31162
2026-01-20 10:26:55.70	354.33	3.58	-45.4	-64.0	3.8	7.49e-01	0	59	104	0	61	32415
2026-01-20 10:26:56.71	354.25	3.52	-45.3	-64.0	3.8	7.44e-01	0	59	104	0	61	32474
2026-01-20 10:26:57.72	354.17	3.46	-44.2	-62.3	3.8	7.41e-01	0	59	104	0	59	30023
2026-01-20 10:26:58.73	354.09	3.40	-44.4	-63.9	3.8	7.46e-01	0	59	104	0	61	31997
2026-01-20 10:26:59.74	354.02	3.34	-45.1	-64.0	3.8	7.47e-01	0	59	104	0	61	32317
2026-01-20 10:27:00.75	353.94	3.27	-44.4	-63.2	3.8	7.43e-01	0	59	104	0	60	31221
2026-01-20 10:27:01.77	353.86	3.21	-45.4	-64.0	3.8	7.44e-01	0	59	104	0	61	32277
2026-01-20 10:27:02.78	353.78	3.15	-44.5	-63.0	3.9	7.45e-01	0	59	104	0	59	32258
2026-01-20 10:27:03.79	353.71	3.09	-45.0	-63.7	3.8	7.43e-01	0	59	104	0	61	31124
2026-01-20 10:27:04.80	353.63	3.03	-44.8	-63.9	3.7	7.45e-01	0	59	104	0	61	32076
2026-01-20 10:27:05.81	353.56	2.97	-45.3	-64.1	3.8	7.50e-01	0	59	104	0	61	32571
2026-01-20 10:27:06.82	353.48	2.91	-44.3	-63.0	3.8	7.44e-01	0	59	104	0	60	30617
2026-01-20 10:27:07.83	353.41	2.85	-45.2	-64.0	3.8	7.43e-01	0	59	104	0	61	32366
2026-01-20 10:27:08.84	353.33	2.78	-45.3	-64.0	3.8	7.45e-01	0	59	104	0	61	32240
2026-01-20 10:27:09.85	353.26	2.72	-45.4	-64.0	3.8	7.44e-01	0	59	104	0	61	32346
2026-01-20 10:27:10.86	353.19	2.66	-45.4	-64.0	3.8	7.44e-01	0	59	104	0	61	32180
2026-01-20 10:27:11.87	353.11	2.60	-45.2	-63.9	3.9	7.44e-01	0	59	104	0	61	32045
2026-01-20 10:27:12.88	353.04	2.54	-45.3	-64.0	3.8	7.45e-01	0	59	104	0	61	32269
2026-01-20 10:27:13.89	352.97	2.48	-45.4	-64.0	3.8	7.44e-01	0	59	104	0	61	32296
2026-01-20 10:27:14.90	352.89	2.42	-45.4	-64.0	3.8	7.43e-01	0	59	104	0	61	32358
2026-01-20 10:27:15.91	352.82	2.36	-45.4	-64.0	3.8	7.46e-01	0	59	104	0	61	32350
2026-01-20 10:27:16.92	352.75	2.30	-45.3	-63.9	3.8	7.46e-01	0	59	104	0	61	32091
2026-01-20 10:27:17.93	352.68	2.24	-44.9	-63.9	3.8	7.47e-01	0	59	104	0	61	31994
2026-01-20 10:27:18.94	352.61	2.18	-45.4	-64.0	3.8	7.41e-01	0	59	104	0	61	32265
2026-01-20 10:27:19.95	352.54	2.12	-45.2	-63.9	3.8	7.49e-01	0	59	104	0	61	32128
2026-01-20 10:27:20.96	352.47	2.06	-45.3	-63.8	3.8	7.43e-01	0	59	104	0	61	31551
2026-01-20 10:27:21.97	352.40	2.00	-45.2	-63.9	3.8	7.48e-01	0	59	104	0	61	32038
2026-01-20 10:27:22.98	352.33	1.94	-45.3	-63.9	3.8	7.47e-01	0	59	104	0	61	32170

#Closed at: 2026-01-20 10:27:23
#Recorded file [0 MB]: D:/lorett/data/31039_260120_131603.dat