passes_logs/2026/01/20/R2.0S_Moscow/R2.0S_Moscow__20260120_215903_FENGYUN_3G_rec.log

#Pass ID: 20260120_215903_FENGYUN 3G
#Satellite: FENGYUN 3G
#Configuration: FENGYUN 3G
#almurnet v.1.7.20251203
#Start time: 2026-01-20 21:59:05

#Version: 2.2.20231116
#Station: R2.0S_Moscow
#Location: 37.707566 lon 55.798166 lat
#TLE: 1 56232U 23055A   26020.19436899  .00056262  00000+0  85928-3 0  9997
#TLE: 2 56232  49.9940  29.1271 0004169  54.2682 305.8673 15.53816929157008

#Time	Az	El	Level	Level2	SNR	BER	BlckErr	Temp	State	Recorded	gain1	gain2
2026-01-20 21:59:05.39	259.80	2.20	-44.2	-61.9	3.8	8.46e-01	0	49	0	0	60	26893
2026-01-20 21:59:06.39	259.73	2.27	-44.2	-62.1	3.8	8.44e-01	0	48	104	0	60	27394
2026-01-20 21:59:07.40	259.66	2.33	-44.2	-62.2	3.8	8.46e-01	0	49	104	0	60	27739
2026-01-20 21:59:08.42	259.58	2.40	-44.2	-62.2	3.8	8.46e-01	0	49	104	0	60	27907
2026-01-20 21:59:09.43	259.51	2.47	-44.2	-62.3	3.8	8.46e-01	0	49	104	0	60	28067
2026-01-20 21:59:10.44	259.44	2.53	-44.2	-62.3	3.8	8.47e-01	0	49	104	0	60	28112
2026-01-20 21:59:11.45	259.37	2.60	-44.2	-62.2	3.8	8.46e-01	0	49	104	0	60	27974
2026-01-20 21:59:12.46	259.29	2.67	-44.2	-62.3	3.8	8.46e-01	0	49	104	0	60	28033
2026-01-20 21:59:13.47	259.22	2.74	-44.2	-62.2	3.8	8.47e-01	0	49	104	0	60	27944
2026-01-20 21:59:14.48	259.14	2.80	-44.2	-62.3	3.8	8.46e-01	0	49	104	0	60	28100
2026-01-20 21:59:15.49	259.07	2.87	-44.2	-62.1	3.8	8.46e-01	0	49	104	0	60	27638
2026-01-20 21:59:16.50	258.99	2.94	-44.2	-62.1	3.8	8.47e-01	0	49	104	0	60	27566
2026-01-20 21:59:17.51	258.92	3.01	-44.2	-62.0	3.8	8.47e-01	0	50	104	0	60	27316
2026-01-20 21:59:18.52	258.84	3.08	-44.2	-62.0	3.8	8.47e-01	0	50	104	0	60	27135
2026-01-20 21:59:19.53	258.76	3.14	-44.2	-62.0	3.8	8.46e-01	0	49	104	0	60	27150
2026-01-20 21:59:20.54	258.69	3.21	-44.2	-62.0	3.8	8.45e-01	0	50	104	0	60	27279
2026-01-20 21:59:21.55	258.61	3.28	-44.2	-62.1	3.8	8.46e-01	0	50	104	0	60	27400
2026-01-20 21:59:22.56	258.53	3.35	-44.2	-62.1	3.8	8.46e-01	0	50	104	0	60	27620
2026-01-20 21:59:23.57	258.45	3.42	-44.2	-62.1	3.8	8.46e-01	0	50	104	0	60	27700
2026-01-20 21:59:24.58	258.37	3.49	-44.2	-62.2	3.8	8.46e-01	0	50	104	0	60	27945
2026-01-20 21:59:25.59	258.29	3.56	-44.2	-62.2	3.8	8.46e-01	0	50	104	0	60	27945
2026-01-20 21:59:26.60	258.21	3.63	-44.2	-62.3	3.8	8.47e-01	0	50	104	0	60	28120
2026-01-20 21:59:27.61	258.13	3.70	-44.2	-62.3	3.8	8.46e-01	0	50	104	0	60	28202
2026-01-20 21:59:28.62	258.05	3.77	-44.2	-62.3	3.8	8.46e-01	0	50	104	0	60	28280
2026-01-20 21:59:29.63	257.96	3.84	-44.2	-62.3	3.8	8.45e-01	0	50	104	0	60	28216
2026-01-20 21:59:30.64	257.88	3.91	-44.2	-62.3	3.8	8.45e-01	0	50	104	0	60	28152
2026-01-20 21:59:31.65	257.80	3.99	-44.2	-62.3	3.8	8.45e-01	0	50	104	0	60	28210
2026-01-20 21:59:32.66	257.71	4.06	-44.2	-62.3	3.8	8.46e-01	0	50	104	0	60	28231
2026-01-20 21:59:33.67	257.63	4.13	-44.2	-62.3	3.8	8.48e-01	0	50	104	0	60	28161
2026-01-20 21:59:34.68	257.54	4.20	-44.2	-62.3	3.8	8.47e-01	0	50	104	0	60	28234
2026-01-20 21:59:35.69	257.45	4.27	-44.2	-62.3	3.8	8.47e-01	0	51	104	0	60	28164
2026-01-20 21:59:36.70	257.37	4.35	-44.2	-62.2	3.8	8.47e-01	0	51	104	0	60	27907
2026-01-20 21:59:37.71	257.28	4.42	-44.2	-62.1	3.8	8.46e-01	0	51	104	0	60	27552
2026-01-20 21:59:38.72	257.19	4.49	-44.2	-62.0	3.8	8.46e-01	0	51	104	0	60	27127
2026-01-20 21:59:39.73	257.10	4.57	-44.2	-61.9	3.8	8.47e-01	0	51	104	0	60	26770
2026-01-20 21:59:40.74	257.01	4.64	-44.2	-61.6	3.8	8.45e-01	0	51	104	0	60	25946
2026-01-20 21:59:41.75	256.92	4.71	-44.2	-61.3	3.8	8.45e-01	0	51	104	0	60	25085
2026-01-20 21:59:42.76	256.83	4.79	-44.2	-61.3	3.8	8.46e-01	0	51	104	0	60	25086
2026-01-20 21:59:43.77	256.74	4.86	-44.2	-61.3	3.8	8.46e-01	0	51	104	0	60	25079
2026-01-20 21:59:44.78	256.65	4.94	-44.2	-61.2	3.8	8.46e-01	0	51	104	0	60	24972
2026-01-20 21:59:45.79	256.55	5.01	-44.2	-61.4	3.8	8.46e-01	0	51	104	0	60	25390
2026-01-20 21:59:46.80	256.46	5.09	-44.2	-61.7	3.8	8.45e-01	0	51	104	0	60	26311
2026-01-20 21:59:47.81	256.37	5.16	-44.2	-61.9	3.8	8.46e-01	0	51	104	0	60	26918
2026-01-20 21:59:48.82	256.27	5.24	-44.2	-61.9	3.8	8.46e-01	0	51	104	0	60	26896
2026-01-20 21:59:49.84	256.17	5.31	-44.2	-61.6	3.8	8.45e-01	0	52	104	0	60	26057
2026-01-20 21:59:50.85	256.08	5.39	-44.2	-61.3	3.8	8.46e-01	0	51	104	0	60	25011
2026-01-20 21:59:51.86	255.98	5.47	-44.2	-60.9	3.8	8.46e-01	0	51	104	0	60	23915
2026-01-20 21:59:52.87	255.88	5.54	-44.1	-60.2	3.8	8.46e-01	0	52	104	0	60	22081
2026-01-20 21:59:53.88	255.78	5.62	-44.1	-59.9	3.8	8.45e-01	0	51	104	0	60	21264
2026-01-20 21:59:54.89	255.68	5.70	-44.1	-59.4	4.0	8.45e-01	0	52	0	0	60	20132
2026-01-20 21:59:55.90	255.58	5.78	-44.1	-59.2	4.1	8.43e-01	0	52	0	0	60	19807
2026-01-20 21:59:56.91	255.48	5.85	-44.1	-58.9	4.2	8.41e-01	0	52	0	0	60	18982
2026-01-20 21:59:57.92	255.38	5.93	-44.1	-59.2	4.1	8.39e-01	0	52	0	0	60	19630
2026-01-20 21:59:58.93	255.28	6.01	-44.1	-59.0	4.1	8.39e-01	0	52	0	0	60	19253
2026-01-20 21:59:59.94	255.17	6.09	-44.1	-58.8	4.2	8.40e-01	0	52	0	0	60	18862
2026-01-20 22:00:00.95	255.07	6.17	-44.1	-58.5	4.3	8.37e-01	0	52	0	0	60	18177
2026-01-20 22:00:01.96	254.97	6.25	-44.0	-57.8	4.5	8.37e-01	0	52	0	0	60	16800
2026-01-20 22:00:02.97	254.86	6.33	-44.0	-57.1	4.8	8.28e-01	0	52	0	0	60	15421
2026-01-20 22:00:03.98	254.75	6.41	-44.0	-55.8	5.5	7.83e-01	0	52	0	0	59	14164
2026-01-20 22:00:04.99	254.65	6.49	-43.9	-54.6	6.5	7.83e-01	0	52	0	524288	59	12254
2026-01-20 22:00:06.00	254.54	6.57	-43.7	-53.3	7.6	4.12e-01	0	52	0	2097152	59	10593
2026-01-20 22:00:07.01	254.43	6.65	-43.6	-52.2	8.8	1.21e-01	0	52	0	3145728	59	9343
2026-01-20 22:00:08.02	254.32	6.73	-43.4	-51.4	9.7	1.21e-01	0	52	0	4194304	58	8970
2026-01-20 22:00:09.03	254.21	6.81	-43.3	-50.9	10.1	2.90e-02	0	52	0	5242880	58	8554
2026-01-20 22:00:10.04	254.09	6.89	-43.3	-50.7	10.4	1.01e-02	0	52	0	6291456	58	8331
2026-01-20 22:00:11.05	253.98	6.98	-43.4	-51.2	9.9	7.38e-03	0	52	0	7340032	58	8777
2026-01-20 22:00:12.06	253.87	7.06	-43.5	-51.9	9.3	7.38e-03	0	52	0	8912896	58	9498
2026-01-20 22:00:13.07	253.75	7.14	-43.7	-53.3	7.9	2.04e-02	0	52	0	9961472	58	11210
2026-01-20 22:00:14.08	253.64	7.22	-44.0	-55.9	5.6	1.48e-01	0	52	0	11010048	58	15064
2026-01-20 22:00:15.09	253.52	7.31	-44.2	-59.3	4.1	1.48e-01	0	53	0	11010048	58	22348
2026-01-20 22:00:16.11	253.40	7.39	-44.2	-60.6	3.8	7.64e-01	0	53	104	11010048	59	24483
2026-01-20 22:00:17.12	253.28	7.48	-44.0	-56.6	5.0	8.42e-01	0	52	0	11010048	59	15438
2026-01-20 22:00:18.13	253.17	7.56	-43.6	-52.8	8.2	8.42e-01	0	53	0	11534336	59	9956
2026-01-20 22:00:19.14	253.04	7.65	-43.1	-50.0	11.1	3.83e-01	0	53	0	12582912	58	7674
2026-01-20 22:00:20.15	252.92	7.73	-42.4	-47.8	13.3	7.98e-03	0	53	0	14155776	56	6718
2026-01-20 22:00:21.16	252.80	7.82	-41.8	-46.5	14.5	7.98e-03	0	53	0	15204352	55	6108
2026-01-20 22:00:22.17	252.68	7.90	-41.4	-45.7	15.3	3.43e-05	0	53	0	16252928	54	5911
2026-01-20 22:00:23.18	252.55	7.99	-41.3	-45.4	15.7	0.00e+00	0	53	0	17301504	54	5714
2026-01-20 22:00:24.19	252.43	8.08	-41.3	-45.5	15.5	0.00e+00	0	53	0	18350080	54	5765
2026-01-20 22:00:25.20	252.30	8.16	-42.1	-47.2	14.1	0.00e+00	0	53	0	19398656	55	6571
2026-01-20 22:00:26.21	252.17	8.25	-42.4	-47.9	13.0	1.10e-06	0	53	0	20971520	56	6752
2026-01-20 22:00:27.22	252.05	8.34	-43.7	-53.1	7.5	1.42e-02	0	53	0	22020096	58	10963
2026-01-20 22:00:28.23	251.92	8.43	-42.1	-47.1	14.2	1.42e-02	0	53	0	23068672	55	6551
2026-01-20 22:00:29.24	251.78	8.51	-44.0	-57.3	4.6	3.07e-02	0	53	0	23592960	58	17804
2026-01-20 22:00:30.25	251.65	8.60	-41.3	-45.3	15.8	3.07e-01	0	53	0	24641536	54	5636
2026-01-20 22:00:31.25	251.52	8.69	-41.2	-45.1	16.1	3.07e-01	0	53	0	25690112	54	5515
2026-01-20 22:00:32.26	251.39	8.78	-41.0	-44.8	16.5	0.00e+00	0	53	0	26738688	54	5281
2026-01-20 22:00:33.27	251.25	8.87	-40.9	-44.7	16.5	0.00e+00	0	53	0	28311552	53	5554
2026-01-20 22:00:34.28	251.12	8.96	-41.0	-44.7	16.5	0.00e+00	0	53	0	29360128	53	5592
2026-01-20 22:00:35.29	250.98	9.05	-40.9	-44.7	16.6	0.00e+00	0	53	0	30408704	53	5548
2026-01-20 22:00:36.30	250.84	9.14	-40.8	-44.4	16.9	0.00e+00	0	53	0	31457280	53	5358
2026-01-20 22:00:37.31	250.70	9.23	-40.8	-44.4	16.9	0.00e+00	0	53	0	32505856	53	5351
2026-01-20 22:00:38.32	250.56	9.33	-40.8	-44.3	17.0	0.00e+00	0	53	0	33554432	53	5315
2026-01-20 22:00:39.33	250.41	9.42	-40.8	-44.3	17.0	0.00e+00	0	53	0	35127296	53	5322
2026-01-20 22:00:40.34	250.27	9.51	-40.8	-44.3	17.0	0.00e+00	0	53	0	36175872	53	5339
2026-01-20 22:00:41.35	250.13	9.60	-40.8	-44.3	17.0	0.00e+00	0	53	0	37224448	53	5306
2026-01-20 22:00:42.36	249.98	9.70	-40.8	-44.4	16.9	0.00e+00	0	54	0	38273024	53	5368
2026-01-20 22:00:43.37	249.83	9.79	-40.8	-44.3	17.0	0.00e+00	0	53	0	39321600	53	5336
2026-01-20 22:00:44.38	249.68	9.88	-40.8	-44.3	17.0	0.00e+00	0	53	0	40370176	53	5330
2026-01-20 22:00:45.39	249.53	9.98	-41.0	-44.6	16.7	0.00e+00	0	54	0	41943040	53	5514
2026-01-20 22:00:46.40	249.38	10.07	-41.0	-44.6	16.8	0.00e+00	0	53	0	42991616	53	5500
2026-01-20 22:00:47.41	249.23	10.17	-40.9	-44.5	16.9	0.00e+00	0	54	0	44040192	53	5411
2026-01-20 22:00:48.42	249.07	10.26	-40.9	-44.6	16.8	0.00e+00	0	54	0	45088768	53	5469
2026-01-20 22:00:49.43	248.92	10.36	-40.9	-44.5	16.9	0.00e+00	0	54	0	46137344	53	5406
2026-01-20 22:00:50.43	248.76	10.45	-40.9	-44.5	16.9	0.00e+00	0	54	0	47710208	53	5438
2026-01-20 22:00:51.44	248.61	10.55	-40.8	-44.3	17.1	0.00e+00	0	54	0	48758784	53	5290
2026-01-20 22:00:52.45	248.45	10.65	-40.6	-44.0	17.4	0.00e+00	0	54	0	49807360	53	5128
2026-01-20 22:00:53.46	248.28	10.75	-40.5	-43.8	17.6	0.00e+00	0	54	0	50855936	53	5012
2026-01-20 22:00:54.47	248.12	10.84	-40.5	-43.8	17.6	0.00e+00	0	54	0	51904512	53	5017
2026-01-20 22:00:55.48	247.96	10.94	-40.5	-43.8	17.6	0.00e+00	0	54	0	52953088	53	5029
2026-01-20 22:00:56.49	247.79	11.04	-40.5	-43.7	17.8	0.00e+00	0	54	0	54525952	52	5234
2026-01-20 22:00:57.50	247.62	11.14	-40.5	-43.7	17.7	0.00e+00	0	54	0	55574528	52	5252
2026-01-20 22:00:58.51	247.46	11.24	-40.6	-43.9	17.6	0.00e+00	0	54	0	56623104	52	5344
2026-01-20 22:00:59.52	247.28	11.34	-40.6	-43.9	17.5	0.00e+00	0	54	0	57671680	52	5400
2026-01-20 22:01:00.53	247.11	11.44	-40.6	-44.0	17.5	0.00e+00	0	54	0	58720256	52	5411
2026-01-20 22:01:01.54	246.94	11.54	-40.6	-43.9	17.6	0.00e+00	0	54	0	59768832	52	5358
2026-01-20 22:01:02.54	246.77	11.64	-40.6	-43.9	17.6	0.00e+00	0	54	0	60817408	52	5351
2026-01-20 22:01:03.55	246.59	11.74	-40.5	-43.8	17.7	0.00e+00	0	54	0	62390272	52	5306
2026-01-20 22:01:04.56	246.41	11.85	-40.5	-43.7	17.7	0.00e+00	0	54	0	63438848	52	5267
2026-01-20 22:01:05.58	246.23	11.95	-40.4	-43.6	17.9	0.00e+00	0	54	0	64487424	52	5181
2026-01-20 22:01:06.59	246.05	12.05	-40.4	-43.5	17.9	0.00e+00	0	54	0	65536000	52	5143
2026-01-20 22:01:07.59	245.87	12.16	-40.4	-43.6	17.9	0.00e+00	0	54	0	66584576	52	5173
2026-01-20 22:01:08.60	245.68	12.26	-40.3	-43.4	18.1	0.00e+00	0	54	0	67633152	52	5069
2026-01-20 22:01:09.61	245.49	12.36	-40.3	-43.5	18.0	0.00e+00	0	54	0	69206016	52	5106
2026-01-20 22:01:10.62	245.30	12.47	-40.1	-43.1	18.4	0.00e+00	0	54	0	70254592	52	4887
2026-01-20 22:01:11.63	245.11	12.57	-40.0	-42.9	18.7	0.00e+00	0	54	0	71303168	52	4775
2026-01-20 22:01:12.64	244.92	12.68	-40.1	-43.0	18.6	0.00e+00	0	55	0	72351744	51	5122
2026-01-20 22:01:13.65	244.73	12.78	-40.1	-43.0	18.6	0.00e+00	0	54	0	73400320	51	5138
2026-01-20 22:01:14.66	244.53	12.89	-40.1	-43.0	18.6	0.00e+00	0	54	0	74448896	51	5152
2026-01-20 22:01:15.67	244.33	13.00	-40.1	-43.1	18.6	0.00e+00	0	54	0	76021760	51	5177
2026-01-20 22:01:16.67	244.14	13.10	-40.0	-42.9	18.7	0.00e+00	0	54	0	77070336	51	5075
2026-01-20 22:01:17.68	243.94	13.21	-40.1	-43.0	18.6	0.00e+00	0	54	0	78118912	51	5159
2026-01-20 22:01:18.69	243.73	13.32	-39.9	-42.8	18.9	0.00e+00	0	54	0	79167488	51	4984
2026-01-20 22:01:19.70	243.53	13.43	-39.8	-42.6	19.1	0.00e+00	0	55	0	80216064	51	4881
2026-01-20 22:01:20.71	243.32	13.54	-39.8	-42.6	19.1	0.00e+00	0	54	0	81264640	51	4874
2026-01-20 22:01:21.72	243.11	13.65	-39.7	-42.4	19.3	0.00e+00	0	54	0	82837504	51	4787
2026-01-20 22:01:22.73	242.90	13.76	-39.7	-42.4	19.3	0.00e+00	0	54	0	83886080	51	4766
2026-01-20 22:01:23.74	242.68	13.87	-39.7	-42.4	19.3	0.00e+00	0	55	0	84934656	51	4794
2026-01-20 22:01:24.75	242.47	13.98	-39.8	-42.5	19.2	0.00e+00	0	55	0	85983232	51	4822
2026-01-20 22:01:25.77	242.25	14.09	-39.7	-42.4	19.3	0.00e+00	0	54	0	87031808	51	4788
2026-01-20 22:01:26.78	242.03	14.20	-39.8	-42.5	19.2	0.00e+00	0	55	0	88080384	51	4844
2026-01-20 22:01:27.79	241.81	14.31	-39.8	-42.6	19.1	0.00e+00	0	54	0	89653248	51	4879
2026-01-20 22:01:28.80	241.58	14.42	-39.9	-42.7	19.0	0.00e+00	0	54	0	90701824	51	4945
2026-01-20 22:01:29.81	241.36	14.54	-39.9	-42.6	19.2	0.00e+00	0	55	0	91750400	51	4885
2026-01-20 22:01:30.82	241.13	14.65	-39.8	-42.5	19.2	0.00e+00	0	54	0	92798976	51	4854
2026-01-20 22:01:31.82	240.90	14.76	-39.4	-42.0	19.7	0.00e+00	0	55	0	93847552	50	4839
2026-01-20 22:01:32.83	240.67	14.88	-39.3	-41.8	20.0	0.00e+00	0	54	0	95420416	50	4733
2026-01-20 22:01:33.84	240.43	14.99	-39.3	-41.9	19.9	0.00e+00	0	55	0	96468992	50	4772
2026-01-20 22:01:34.85	240.19	15.10	-39.3	-41.8	19.9	0.00e+00	0	55	0	97517568	50	4728
2026-01-20 22:01:35.86	239.95	15.22	-39.3	-41.8	20.0	0.00e+00	0	55	0	98566144	50	4709
2026-01-20 22:01:36.87	239.71	15.33	-39.4	-41.9	19.9	0.00e+00	0	55	0	99614720	50	4773
2026-01-20 22:01:37.88	239.46	15.45	-39.6	-42.1	19.7	0.00e+00	0	55	0	100663296	50	4913
2026-01-20 22:01:38.89	239.22	15.57	-39.5	-42.1	19.7	0.00e+00	0	55	0	101711872	50	4902
2026-01-20 22:01:39.90	238.97	15.68	-39.6	-42.2	19.6	0.00e+00	0	55	0	103284736	50	4978
2026-01-20 22:01:40.91	238.71	15.80	-39.5	-42.0	19.8	0.00e+00	0	55	0	104333312	50	4859
2026-01-20 22:01:41.92	238.46	15.92	-39.3	-41.7	20.1	0.00e+00	0	55	0	105381888	50	4678
2026-01-20 22:01:42.93	238.20	16.03	-39.1	-41.5	20.3	0.00e+00	0	55	0	106430464	50	4585
2026-01-20 22:01:43.94	237.94	16.15	-39.0	-41.4	20.4	0.00e+00	0	55	0	107479040	50	4498
2026-01-20 22:01:44.95	237.68	16.27	-38.8	-41.0	20.8	0.00e+00	0	55	0	108527616	49	4578
2026-01-20 22:01:45.96	237.41	16.39	-38.8	-41.1	20.7	0.00e+00	0	55	0	110100480	49	4619
2026-01-20 22:01:46.97	237.15	16.51	-38.9	-41.2	20.6	0.00e+00	0	55	0	111149056	49	4666
2026-01-20 22:01:47.98	236.88	16.63	-39.1	-41.5	20.4	0.00e+00	0	55	0	112197632	49	4848
2026-01-20 22:01:48.99	236.60	16.74	-39.2	-41.6	20.2	0.00e+00	0	55	0	113246208	49	4897
2026-01-20 22:01:50.00	236.33	16.86	-39.1	-41.5	20.3	0.00e+00	0	55	0	114294784	49	4858
2026-01-20 22:01:51.01	236.05	16.98	-39.2	-41.7	20.2	0.00e+00	0	55	0	115343360	49	4934
2026-01-20 22:01:52.02	235.77	17.10	-39.2	-41.6	20.2	0.00e+00	0	55	0	116916224	49	4911
2026-01-20 22:01:53.03	235.48	17.22	-39.2	-41.6	20.2	0.00e+00	0	55	0	117964800	49	4924
2026-01-20 22:01:54.04	235.20	17.34	-39.1	-41.5	20.3	0.00e+00	0	55	0	119013376	49	4859
2026-01-20 22:01:55.05	234.91	17.46	-39.0	-41.4	20.4	0.00e+00	0	55	0	120061952	49	4787
2026-01-20 22:01:56.06	234.61	17.59	-39.0	-41.4	20.5	0.00e+00	0	55	0	121110528	49	4774
2026-01-20 22:01:57.07	234.32	17.71	-39.1	-41.5	20.4	0.00e+00	0	55	0	122159104	49	4819
2026-01-20 22:01:58.07	234.02	17.83	-39.0	-41.4	20.5	0.00e+00	0	55	0	123731968	49	4775
2026-01-20 22:01:59.08	233.72	17.95	-39.0	-41.3	20.5	0.00e+00	0	55	0	124780544	49	4754
2026-01-20 22:02:00.09	233.41	18.07	-39.1	-41.5	20.4	0.00e+00	0	55	0	125829120	49	4842
2026-01-20 22:02:01.10	233.11	18.19	-39.2	-41.6	20.3	0.00e+00	0	55	0	126877696	49	4877
2026-01-20 22:02:02.11	232.79	18.31	-39.3	-41.7	20.2	0.00e+00	0	55	0	127926272	49	4961
2026-01-20 22:02:03.12	232.48	18.44	-39.2	-41.6	20.2	0.00e+00	0	55	0	128974848	49	4921
2026-01-20 22:02:04.13	232.16	18.56	-39.1	-41.4	20.4	0.00e+00	0	55	0	130547712	49	4809
2026-01-20 22:02:05.14	231.84	18.68	-39.1	-41.4	20.5	0.00e+00	0	55	0	131596288	49	4782
2026-01-20 22:02:06.15	231.52	18.80	-39.1	-41.4	20.5	0.00e+00	0	55	0	132644864	49	4788
2026-01-20 22:02:07.15	231.20	18.92	-38.8	-41.0	20.8	0.00e+00	0	55	0	133693440	49	4596
2026-01-20 22:02:08.16	230.87	19.05	-38.3	-40.5	21.4	0.00e+00	0	55	0	134742016	48	4547
2026-01-20 22:02:09.17	230.53	19.17	-38.2	-40.3	21.6	0.00e+00	0	55	0	135790592	48	4445
2026-01-20 22:02:10.18	230.20	19.29	-38.2	-40.3	21.6	0.00e+00	0	55	0	137363456	48	4481
2026-01-20 22:02:11.19	229.86	19.41	-38.4	-40.5	21.4	0.00e+00	0	55	0	138412032	48	4576
2026-01-20 22:02:12.20	229.51	19.53	-38.4	-40.5	21.4	0.00e+00	0	55	0	139460608	48	4585
2026-01-20 22:02:13.21	229.17	19.66	-38.6	-40.8	21.1	0.00e+00	0	55	0	140509184	48	4740
2026-01-20 22:02:14.22	228.82	19.78	-38.8	-41.1	20.8	0.00e+00	0	55	0	141557760	48	4899
2026-01-20 22:02:15.23	228.46	19.90	-38.9	-41.3	20.7	0.00e+00	0	55	0	142606336	48	4988
2026-01-20 22:02:16.24	228.11	20.02	-38.8	-41.1	20.8	0.00e+00	0	55	0	144179200	48	4886
2026-01-20 22:02:17.24	227.75	20.14	-38.7	-41.0	21.0	0.00e+00	0	55	0	145227776	48	4829
2026-01-20 22:02:18.25	227.39	20.26	-38.8	-41.0	21.0	0.00e+00	0	55	0	146276352	48	4859
2026-01-20 22:02:19.26	227.02	20.38	-38.5	-40.6	21.3	0.00e+00	0	55	0	147324928	48	4638
2026-01-20 22:02:20.27	226.65	20.50	-38.3	-40.4	21.5	0.00e+00	0	55	0	148373504	48	4537
2026-01-20 22:02:21.28	226.28	20.63	-38.2	-40.2	21.7	0.00e+00	0	55	0	149422080	48	4426
2026-01-20 22:02:22.29	225.90	20.75	-38.2	-40.3	21.7	0.00e+00	0	55	0	150994944	48	4443
2026-01-20 22:02:23.30	225.52	20.87	-37.9	-40.0	22.0	0.00e+00	0	55	0	152043520	47	4559
2026-01-20 22:02:24.31	225.13	20.98	-38.1	-40.2	21.7	0.00e+00	0	55	0	153092096	47	4679
2026-01-20 22:02:25.32	224.74	21.10	-38.2	-40.2	21.7	0.00e+00	0	56	0	154140672	47	4693
2026-01-20 22:02:26.33	224.35	21.22	-38.4	-40.6	21.3	0.00e+00	0	56	0	155189248	47	4892
2026-01-20 22:02:27.34	223.96	21.34	-38.4	-40.5	21.4	0.00e+00	0	56	0	156237824	47	4865
2026-01-20 22:02:28.35	223.56	21.46	-38.4	-40.5	21.5	0.00e+00	0	55	0	157810688	47	4846
2026-01-20 22:02:29.36	223.15	21.58	-38.4	-40.5	21.4	0.00e+00	0	56	0	158859264	47	4869
2026-01-20 22:02:30.37	222.75	21.69	-38.3	-40.4	21.5	0.00e+00	0	55	0	159907840	47	4790
2026-01-20 22:02:31.38	222.34	21.81	-38.2	-40.2	21.7	0.00e+00	0	56	0	160956416	47	4704
2026-01-20 22:02:32.38	221.93	21.92	-38.2	-40.3	21.6	0.00e+00	0	56	0	162004992	47	4753
2026-01-20 22:02:33.39	221.51	22.04	-38.4	-40.5	21.5	0.00e+00	0	56	0	163053568	47	4843
2026-01-20 22:02:34.40	221.09	22.15	-38.1	-40.2	21.8	0.00e+00	0	56	0	164626432	47	4665
2026-01-20 22:02:35.41	220.66	22.26	-38.0	-40.1	21.9	0.00e+00	0	56	0	165675008	47	4604
2026-01-20 22:02:36.42	220.24	22.38	-37.9	-40.0	22.0	0.00e+00	0	56	0	166723584	47	4547
2026-01-20 22:02:37.43	219.80	22.49	-37.9	-39.9	22.1	0.00e+00	0	56	0	167772160	47	4522
2026-01-20 22:02:38.44	219.37	22.60	-37.8	-39.8	22.2	0.00e+00	0	55	0	168820736	47	4462
2026-01-20 22:02:39.45	218.93	22.71	-37.7	-39.7	22.3	0.00e+00	0	55	0	169869312	47	4414
2026-01-20 22:02:40.46	218.48	22.82	-37.9	-39.9	22.1	0.00e+00	0	56	0	171442176	47	4538
2026-01-20 22:02:41.47	218.04	22.93	-37.9	-39.9	22.1	0.00e+00	0	56	0	172490752	47	4519
2026-01-20 22:02:42.48	217.59	23.03	-38.2	-40.3	21.8	0.00e+00	0	55	0	173539328	47	4708
2026-01-20 22:02:43.49	217.13	23.14	-38.2	-40.4	21.7	0.00e+00	0	56	0	174587904	47	4766
2026-01-20 22:02:44.50	216.68	23.24	-37.9	-39.9	22.1	0.00e+00	0	56	0	175636480	47	4537
2026-01-20 22:02:45.51	216.21	23.35	-37.9	-39.9	22.1	0.00e+00	0	56	0	176685056	47	4517
2026-01-20 22:02:46.52	215.75	23.45	-37.8	-39.8	22.2	0.00e+00	0	56	0	178257920	47	4469
2026-01-20 22:02:47.53	215.28	23.55	-37.9	-40.0	22.1	0.00e+00	0	56	0	179306496	47	4555
2026-01-20 22:02:48.54	214.81	23.65	-38.0	-40.0	22.0	0.00e+00	0	56	0	180355072	47	4588
2026-01-20 22:02:49.55	214.33	23.75	-38.1	-40.1	21.9	0.00e+00	0	56	0	181403648	47	4639
2026-01-20 22:02:50.56	213.85	23.84	-38.0	-40.1	21.9	0.00e+00	0	56	0	182452224	47	4623
2026-01-20 22:02:51.57	213.37	23.94	-37.9	-39.9	22.1	0.00e+00	0	56	0	183500800	47	4501
2026-01-20 22:02:52.57	212.89	24.03	-37.9	-40.0	22.1	0.00e+00	0	56	0	185073664	47	4547
2026-01-20 22:02:53.58	212.40	24.13	-37.8	-39.8	22.3	0.00e+00	0	56	0	186122240	47	4444
2026-01-20 22:02:54.59	211.91	24.22	-37.9	-40.0	22.1	0.00e+00	0	56	0	187170816	47	4551
2026-01-20 22:02:55.60	211.41	24.31	-37.9	-39.9	22.1	0.00e+00	0	56	0	188219392	47	4520
2026-01-20 22:02:56.61	210.91	24.39	-38.1	-40.2	21.9	0.00e+00	0	56	0	189267968	47	4657
2026-01-20 22:02:57.62	210.41	24.48	-37.9	-40.0	22.1	0.00e+00	0	56	0	190316544	47	4550
2026-01-20 22:02:58.63	209.90	24.57	-37.9	-39.9	22.1	0.00e+00	0	56	0	191889408	47	4539
2026-01-20 22:02:59.64	209.40	24.65	-37.6	-39.6	22.5	0.00e+00	0	56	0	192937984	47	4352
2026-01-20 22:03:00.64	208.89	24.73	-37.5	-39.4	22.7	0.00e+00	0	56	0	193986560	46	4501
2026-01-20 22:03:01.65	208.37	24.81	-37.5	-39.4	22.6	0.00e+00	0	56	0	195035136	46	4532
2026-01-20 22:03:02.66	207.86	24.88	-37.6	-39.6	22.5	0.00e+00	0	56	0	196083712	46	4614
2026-01-20 22:03:03.67	207.34	24.96	-37.7	-39.7	22.4	0.00e+00	0	56	0	197132288	46	4670
2026-01-20 22:03:04.68	206.81	25.03	-37.7	-39.6	22.4	0.00e+00	0	56	0	198705152	46	4644
2026-01-20 22:03:05.69	206.29	25.10	-37.6	-39.5	22.6	0.00e+00	0	56	0	199753728	46	4570
2026-01-20 22:03:06.70	205.76	25.17	-37.5	-39.4	22.6	0.00e+00	0	56	0	200802304	46	4509
2026-01-20 22:03:07.71	205.23	25.24	-37.6	-39.5	22.4	0.00e+00	0	56	0	201850880	46	4584
2026-01-20 22:03:08.72	204.69	25.30	-37.8	-39.8	22.2	0.00e+00	0	56	0	202899456	46	4728
2026-01-20 22:03:09.73	204.15	25.37	-37.9	-39.9	22.2	0.00e+00	0	56	0	203948032	46	4765
2026-01-20 22:03:10.74	203.61	25.43	-38.0	-40.0	22.0	0.00e+00	0	56	0	205520896	46	4857
2026-01-20 22:03:11.75	203.07	25.48	-37.7	-39.6	22.4	0.00e+00	0	56	0	206569472	46	4634
2026-01-20 22:03:12.77	202.52	25.54	-37.5	-39.4	22.7	0.00e+00	0	56	0	207618048	46	4499
2026-01-20 22:03:13.77	201.98	25.59	-37.3	-39.2	22.8	0.00e+00	0	56	0	208666624	46	4409
2026-01-20 22:03:14.78	201.44	25.64	-37.4	-39.3	22.7	0.00e+00	0	56	0	209715200	46	4481
2026-01-20 22:03:15.80	200.88	25.69	-37.3	-39.2	22.8	0.00e+00	0	56	0	210763776	46	4426
2026-01-20 22:03:16.81	200.33	25.74	-37.4	-39.3	22.7	0.00e+00	0	56	0	212336640	46	4450
2026-01-20 22:03:17.81	199.78	25.78	-37.4	-39.4	22.7	0.00e+00	0	56	0	213385216	46	4496
2026-01-20 22:03:18.82	199.22	25.82	-37.4	-39.3	22.7	0.00e+00	0	56	0	214433792	46	4452
2026-01-20 22:03:19.83	198.67	25.86	-37.2	-39.0	22.9	0.00e+00	0	56	0	215482368	46	4325
2026-01-20 22:03:20.84	198.11	25.90	-37.1	-39.0	23.0	0.00e+00	0	56	0	216530944	46	4297
2026-01-20 22:03:21.85	197.55	25.93	-37.3	-39.2	22.7	0.00e+00	0	56	0	217579520	46	4423
2026-01-20 22:03:22.86	196.99	25.96	-37.3	-39.1	22.8	0.00e+00	0	56	0	219152384	46	4389
2026-01-20 22:03:23.87	196.43	25.99	-37.4	-39.3	22.8	0.00e+00	0	56	0	220200960	46	4453
2026-01-20 22:03:24.88	195.86	26.02	-37.1	-38.9	23.1	0.00e+00	0	56	0	221249536	46	4265
2026-01-20 22:03:25.89	195.30	26.04	-36.9	-38.7	23.3	0.00e+00	0	56	0	222298112	45	4416
2026-01-20 22:03:26.90	194.73	26.06	-36.9	-38.7	23.3	0.00e+00	0	56	0	223346688	45	4395
2026-01-20 22:03:27.91	194.17	26.08	-37.0	-38.8	23.1	0.00e+00	0	56	0	224395264	45	4457
2026-01-20 22:03:28.92	193.60	26.09	-37.2	-39.1	22.9	0.00e+00	0	56	0	225968128	45	4599
2026-01-20 22:03:29.93	193.03	26.10	-37.2	-39.1	22.9	0.00e+00	0	56	0	227016704	45	4603
2026-01-20 22:03:30.94	192.46	26.11	-37.2	-39.1	22.9	0.00e+00	0	56	0	228065280	45	4606
2026-01-20 22:03:31.95	191.89	26.12	-37.3	-39.1	22.8	0.00e+00	0	56	0	229113856	45	4635
2026-01-20 22:03:32.95	191.33	26.12	-37.2	-39.1	22.9	0.00e+00	0	56	0	230162432	45	4611
2026-01-20 22:03:33.96	190.76	26.13	-37.2	-39.0	22.9	0.00e+00	0	56	0	231211008	45	4581
2026-01-20 22:03:34.97	190.19	26.12	-37.0	-38.9	23.0	0.00e+00	0	56	0	232783872	45	4505
2026-01-20 22:03:35.98	189.63	26.12	-36.9	-38.7	23.2	0.00e+00	0	56	0	233832448	45	4407
2026-01-20 22:03:36.99	189.06	26.11	-36.9	-38.7	23.2	0.00e+00	0	56	0	234881024	45	4426
2026-01-20 22:03:38.00	188.49	26.10	-36.8	-38.5	23.3	0.00e+00	0	56	0	235929600	45	4334
2026-01-20 22:03:39.01	187.92	26.09	-36.9	-38.7	23.2	0.00e+00	0	56	0	236978176	45	4433
2026-01-20 22:03:40.02	187.36	26.08	-37.3	-39.2	22.7	0.00e+00	0	56	0	238026752	45	4694
2026-01-20 22:03:41.03	186.79	26.06	-37.6	-39.5	22.3	0.00e+00	0	56	0	239599616	45	4863
2026-01-20 22:03:42.04	186.22	26.04	-37.7	-39.7	22.2	0.00e+00	0	56	0	240648192	46	4665
2026-01-20 22:03:43.05	185.66	26.02	-37.8	-39.8	22.2	0.00e+00	0	56	0	241696768	46	4715
2026-01-20 22:03:44.06	185.10	25.99	-37.7	-39.7	22.3	0.00e+00	0	56	0	242745344	46	4677
2026-01-20 22:03:45.06	184.54	25.96	-37.4	-39.3	22.4	0.00e+00	0	56	0	243793920	46	4483
2026-01-20 22:03:46.08	183.97	25.93	-37.5	-39.4	22.7	0.00e+00	0	56	0	244842496	46	4516
2026-01-20 22:03:47.08	183.42	25.90	-37.4	-39.4	22.5	0.00e+00	0	56	0	246415360	46	4497
2026-01-20 22:03:48.09	182.86	25.86	-37.6	-39.6	22.4	0.00e+00	0	56	0	247463936	46	4622
2026-01-20 22:03:49.10	182.30	25.82	-37.8	-39.8	22.1	0.00e+00	0	56	0	248512512	46	4720
2026-01-20 22:03:50.11	181.75	25.78	-37.7	-39.6	22.2	0.00e+00	0	56	0	249561088	46	4647
2026-01-20 22:03:51.12	181.19	25.74	-37.4	-39.3	22.7	0.00e+00	0	56	0	250609664	46	4460
2026-01-20 22:03:52.13	180.64	25.69	-37.2	-39.0	22.9	0.00e+00	0	56	0	251658240	46	4331
2026-01-20 22:03:53.14	180.09	25.64	-37.3	-39.2	22.7	0.00e+00	0	56	0	253231104	46	4420
2026-01-20 22:03:54.15	179.54	25.59	-37.8	-39.7	22.2	0.00e+00	0	56	0	254279680	46	4692
2026-01-20 22:03:55.16	179.00	25.54	-37.9	-40.0	22.0	0.00e+00	0	56	0	255328256	46	4827
2026-01-20 22:03:56.17	178.45	25.48	-37.9	-39.9	22.0	0.00e+00	0	56	0	256376832	46	4797
2026-01-20 22:03:57.18	177.91	25.42	-37.6	-39.5	22.5	0.00e+00	0	56	0	257425408	46	4573
2026-01-20 22:03:58.19	177.37	25.36	-37.6	-39.6	22.3	0.00e+00	0	57	0	258473984	46	4621
2026-01-20 22:03:59.20	176.84	25.30	-37.7	-39.7	22.3	0.00e+00	0	56	0	260046848	46	4662
2026-01-20 22:04:00.21	176.30	25.24	-38.2	-40.3	21.9	0.00e+00	0	56	0	261095424	47	4719
2026-01-20 22:04:01.22	175.77	25.17	-38.2	-40.2	21.9	0.00e+00	0	56	0	262144000	47	4693
2026-01-20 22:04:02.22	175.25	25.10	-38.1	-40.1	21.9	0.00e+00	0	56	0	263192576	47	4645
2026-01-20 22:04:03.23	174.72	25.03	-38.1	-40.1	21.9	0.00e+00	0	56	0	264241152	47	4643
2026-01-20 22:04:04.24	174.20	24.96	-38.0	-40.1	21.9	0.00e+00	0	56	0	265289728	47	4627
2026-01-20 22:04:05.25	173.68	24.88	-38.0	-40.0	22.0	0.00e+00	0	56	0	266862592	46	4839
2026-01-20 22:04:06.26	173.16	24.80	-38.0	-40.1	21.9	0.00e+00	0	56	0	267911168	46	4875
2026-01-20 22:04:07.27	172.64	24.72	-38.0	-40.1	21.9	0.00e+00	0	56	0	268959744	46	4874
2026-01-20 22:04:08.28	172.13	24.64	-38.0	-40.0	22.0	0.00e+00	0	56	0	270008320	46	4843
2026-01-20 22:04:09.29	171.62	24.56	-38.2	-40.3	21.8	0.00e+00	0	56	0	271056896	46	4994
2026-01-20 22:04:10.30	171.12	24.48	-38.4	-40.5	21.4	0.00e+00	0	56	0	272105472	47	4855
2026-01-20 22:04:11.31	170.61	24.39	-38.3	-40.5	21.5	0.00e+00	0	56	0	273678336	47	4828
2026-01-20 22:04:12.32	170.12	24.30	-38.2	-40.3	21.7	0.00e+00	0	56	0	274726912	47	4726
2026-01-20 22:04:13.33	169.62	24.21	-38.0	-40.1	21.9	0.00e+00	0	56	0	275775488	47	4603
2026-01-20 22:04:14.34	169.13	24.12	-37.8	-39.9	22.1	0.00e+00	0	56	0	276824064	47	4505
2026-01-20 22:04:15.35	168.64	24.03	-37.8	-39.8	22.3	0.00e+00	0	56	0	277872640	47	4471
2026-01-20 22:04:16.36	168.15	23.93	-37.9	-40.0	22.1	0.00e+00	0	56	0	278921216	47	4546
2026-01-20 22:04:17.37	167.67	23.84	-38.0	-40.1	22.1	0.00e+00	0	56	0	279969792	47	4618
2026-01-20 22:04:18.38	167.19	23.74	-37.9	-39.9	22.2	0.00e+00	0	56	0	281542656	47	4519
2026-01-20 22:04:19.39	166.72	23.64	-38.0	-40.0	22.0	0.00e+00	0	56	0	282591232	47	4579
2026-01-20 22:04:20.40	166.24	23.54	-37.7	-39.7	22.3	0.00e+00	0	56	0	283639808	47	4404
2026-01-20 22:04:21.40	165.78	23.44	-37.5	-39.4	22.6	0.00e+00	0	56	0	284688384	46	4533
2026-01-20 22:04:22.41	165.31	23.34	-37.4	-39.3	22.7	0.00e+00	0	56	0	285736960	46	4468
2026-01-20 22:04:23.42	164.85	23.24	-37.2	-39.1	22.9	0.00e+00	0	56	0	286785536	46	4368
2026-01-20 22:04:24.43	164.40	23.13	-37.5	-39.4	22.7	0.00e+00	0	56	0	288358400	46	4514
2026-01-20 22:04:25.44	163.94	23.03	-37.8	-39.7	22.3	0.00e+00	0	56	0	289406976	46	4705
2026-01-20 22:04:26.45	163.49	22.92	-38.0	-40.1	22.0	0.00e+00	0	56	0	290455552	46	4902
2026-01-20 22:04:27.46	163.04	22.81	-38.1	-40.1	21.9	0.00e+00	0	56	0	291504128	46	4918
2026-01-20 22:04:28.47	162.60	22.70	-38.0	-40.1	21.9	0.00e+00	0	56	0	292552704	46	4892
2026-01-20 22:04:29.48	162.16	22.59	-38.0	-40.0	22.0	0.00e+00	0	56	0	293601280	46	4853
2026-01-20 22:04:30.49	161.73	22.48	-37.8	-39.8	22.2	0.00e+00	0	56	0	295174144	46	4733
2026-01-20 22:04:31.50	161.29	22.37	-37.8	-39.8	22.3	0.00e+00	0	56	0	296222720	46	4745
2026-01-20 22:04:32.51	160.87	22.26	-37.8	-39.7	22.2	0.00e+00	0	57	0	297271296	46	4705
2026-01-20 22:04:33.52	160.44	22.14	-37.8	-39.8	22.3	0.00e+00	0	57	0	298319872	46	4732
2026-01-20 22:04:34.52	160.02	22.03	-38.1	-40.1	21.9	0.00e+00	0	56	0	299368448	46	4920
2026-01-20 22:04:35.54	159.60	21.92	-38.4	-40.6	21.5	0.00e+00	0	56	0	300941312	47	4916
2026-01-20 22:04:36.55	159.19	21.80	-38.5	-40.7	21.4	0.00e+00	0	56	0	301989888	47	4983
2026-01-20 22:04:37.56	158.78	21.68	-38.5	-40.7	21.3	0.00e+00	0	57	0	303038464	47	4973
2026-01-20 22:04:38.56	158.38	21.57	-38.6	-40.9	21.3	0.00e+00	0	57	0	304087040	47	5049
2026-01-20 22:04:39.57	157.97	21.45	-38.4	-40.5	21.6	0.00e+00	0	57	0	305135616	47	4865
2026-01-20 22:04:40.58	157.57	21.33	-38.3	-40.5	21.6	0.00e+00	0	56	0	306184192	47	4817
2026-01-20 22:04:41.59	157.18	21.22	-38.1	-40.2	21.9	0.00e+00	0	57	0	307757056	47	4695
2026-01-20 22:04:42.60	156.79	21.10	-38.2	-40.3	21.8	0.00e+00	0	57	0	308805632	47	4732
2026-01-20 22:04:43.61	156.40	20.98	-38.4	-40.5	21.6	0.00e+00	0	56	0	309854208	47	4864
2026-01-20 22:04:44.62	156.01	20.86	-38.4	-40.6	21.5	0.00e+00	0	57	0	310902784	47	4910
2026-01-20 22:04:45.63	155.63	20.74	-38.4	-40.6	21.4	0.00e+00	0	57	0	311951360	47	4919
2026-01-20 22:04:46.64	155.25	20.62	-38.4	-40.6	21.5	0.00e+00	0	56	0	312999936	47	4905
2026-01-20 22:04:47.65	154.88	20.50	-38.4	-40.6	21.6	0.00e+00	0	56	0	314572800	47	4887
2026-01-20 22:04:48.66	154.51	20.38	-38.4	-40.5	21.6	0.00e+00	0	57	0	315621376	47	4868
2026-01-20 22:04:49.67	154.14	20.26	-38.4	-40.6	21.5	0.00e+00	0	57	0	316669952	47	4910
2026-01-20 22:04:50.68	153.78	20.13	-38.6	-40.8	21.3	0.00e+00	0	57	0	317718528	47	5011
2026-01-20 22:04:51.69	153.42	20.01	-38.6	-40.8	21.3	0.00e+00	0	56	0	318767104	47	5018
2026-01-20 22:04:52.70	153.06	19.89	-38.5	-40.7	21.4	0.00e+00	0	57	0	319815680	47	4936
2026-01-20 22:04:53.71	152.71	19.77	-38.5	-40.7	21.4	0.00e+00	0	56	0	320864256	47	4962
2026-01-20 22:04:54.72	152.36	19.65	-38.6	-40.9	21.3	0.00e+00	0	56	0	322437120	47	5073
2026-01-20 22:04:55.73	152.01	19.53	-38.6	-40.8	21.3	0.00e+00	0	57	0	323485696	47	5029
2026-01-20 22:04:56.73	151.67	19.40	-38.7	-40.9	21.2	0.00e+00	0	57	0	324534272	47	5097
2026-01-20 22:04:57.74	151.33	19.28	-38.7	-41.0	21.2	0.00e+00	0	57	0	325582848	47	5110
2026-01-20 22:04:58.75	151.00	19.16	-38.6	-40.9	21.3	0.00e+00	0	57	0	326631424	47	5052
2026-01-20 22:04:59.76	150.66	19.04	-38.8	-41.1	21.2	0.00e+00	0	57	0	327680000	48	4875
2026-01-20 22:05:00.77	150.33	18.92	-38.8	-41.0	21.1	0.00e+00	0	56	0	329252864	48	4870
2026-01-20 22:05:01.78	150.01	18.79	-38.8	-41.1	21.1	0.00e+00	0	56	0	330301440	48	4883
2026-01-20 22:05:02.79	149.68	18.67	-38.8	-41.1	21.1	0.00e+00	0	56	0	331350016	48	4904
2026-01-20 22:05:03.80	149.36	18.55	-38.8	-41.0	21.1	0.00e+00	0	56	0	332398592	48	4863
2026-01-20 22:05:04.81	149.05	18.43	-38.6	-40.9	21.3	0.00e+00	0	57	0	333447168	48	4763
2026-01-20 22:05:05.82	148.73	18.31	-38.7	-40.9	21.3	0.00e+00	0	57	0	334495744	48	4782
2026-01-20 22:05:06.83	148.42	18.18	-38.8	-41.1	21.1	0.00e+00	0	57	0	336068608	48	4907
2026-01-20 22:05:07.84	148.11	18.06	-39.0	-41.3	20.8	0.00e+00	0	57	0	337117184	48	5038
2026-01-20 22:05:08.85	147.81	17.94	-39.0	-41.3	20.8	0.00e+00	0	57	0	338165760	48	5040
2026-01-20 22:05:09.86	147.51	17.82	-39.1	-41.4	20.7	0.00e+00	0	57	0	339214336	48	5084
2026-01-20 22:05:10.87	147.21	17.70	-39.1	-41.4	20.7	0.00e+00	0	57	0	340262912	48	5087
2026-01-20 22:05:11.88	146.91	17.58	-39.1	-41.5	20.6	0.00e+00	0	57	0	341311488	48	5120
2026-01-20 22:05:12.89	146.62	17.46	-39.1	-41.5	20.7	0.00e+00	0	57	0	342884352	48	5107
2026-01-20 22:05:13.90	146.33	17.33	-39.1	-41.5	20.6	0.00e+00	0	57	0	343932928	48	5104
2026-01-20 22:05:14.91	146.04	17.21	-39.2	-41.6	20.6	0.00e+00	0	56	0	344981504	48	5173
2026-01-20 22:05:15.92	145.76	17.09	-39.1	-41.5	20.6	0.00e+00	0	57	0	346030080	48	5125
2026-01-20 22:05:16.93	145.48	16.97	-39.1	-41.5	20.6	0.00e+00	0	57	0	347078656	48	5132
2026-01-20 22:05:17.93	145.20	16.86	-39.1	-41.5	20.6	0.00e+00	0	57	0	348651520	48	5111
2026-01-20 22:05:18.94	144.92	16.74	-39.0	-41.5	20.4	2.20e-06	0	56	0	349700096	48	5145
2026-01-20 22:05:19.95	144.65	16.62	-39.1	-41.7	20.2	2.20e-06	0	57	0	350748672	49	4946
2026-01-20 22:05:20.96	144.38	16.50	-39.0	-41.6	20.4	2.20e-06	0	57	0	351797248	49	4912
2026-01-20 22:05:21.97	144.11	16.38	-39.4	-42.0	19.9	1.14e-05	0	57	0	352845824	49	5105
2026-01-20 22:05:22.98	143.85	16.26	-39.4	-41.9	20.0	5.70e-06	0	57	0	353894400	49	5094
2026-01-20 22:05:23.99	143.58	16.14	-39.4	-42.0	20.0	5.70e-06	0	57	0	355467264	49	5116
2026-01-20 22:05:25.00	143.32	16.02	-39.4	-41.9	20.0	2.17e-05	0	57	0	356515840	49	5087
2026-01-20 22:05:26.01	143.07	15.91	-39.4	-41.9	19.7	9.95e-05	0	57	0	357564416	49	5085
2026-01-20 22:05:27.02	142.81	15.79	-38.9	-41.9	19.9	9.95e-05	0	57	0	358612992	49	5071
2026-01-20 22:05:28.03	142.56	15.67	-38.9	-41.9	19.9	6.86e-05	0	57	0	359661568	49	5068
2026-01-20 22:05:29.04	142.31	15.56	-39.4	-41.9	20.0	1.14e-05	0	57	0	360710144	49	5066
2026-01-20 22:05:30.05	142.06	15.44	-39.4	-42.0	20.0	0.00e+00	0	57	0	361758720	49	5120
2026-01-20 22:05:31.05	141.82	15.33	-39.4	-42.1	19.8	0.00e+00	0	57	0	363331584	49	5212
2026-01-20 22:05:32.06	141.58	15.21	-39.6	-42.3	19.6	0.00e+00	0	57	0	364380160	49	5332
2026-01-20 22:05:33.07	141.34	15.10	-39.7	-42.4	19.6	0.00e+00	0	57	0	365428736	49	5356
2026-01-20 22:05:34.08	141.10	14.98	-39.7	-42.5	19.5	0.00e+00	0	57	0	366477312	50	5104
2026-01-20 22:05:35.09	140.86	14.87	-39.8	-42.5	19.4	0.00e+00	0	57	0	367525888	50	5112
2026-01-20 22:05:36.10	140.63	14.75	-39.8	-42.6	19.3	0.00e+00	0	57	0	368574464	50	5201
2026-01-20 22:05:37.11	140.40	14.64	-39.8	-42.6	19.2	0.00e+00	0	57	0	370147328	50	5206
2026-01-20 22:05:38.12	140.17	14.53	-39.7	-42.5	19.4	0.00e+00	0	57	0	371195904	50	5123
2026-01-20 22:05:39.13	139.95	14.42	-39.7	-42.4	19.5	0.00e+00	0	57	0	372244480	50	5081
2026-01-20 22:05:40.14	139.72	14.30	-39.7	-42.4	19.5	0.00e+00	0	57	0	373293056	50	5069
2026-01-20 22:05:41.15	139.50	14.19	-39.7	-42.4	19.3	0.00e+00	0	57	0	374341632	49	5393
2026-01-20 22:05:42.16	139.28	14.08	-39.8	-42.8	19.1	6.80e-06	0	57	0	375390208	50	5316
2026-01-20 22:05:43.17	139.06	13.97	-39.9	-42.8	18.9	1.59e-04	0	57	0	376963072	50	5295
2026-01-20 22:05:44.18	138.85	13.86	-40.0	-42.9	18.2	1.59e-04	0	57	0	378011648	50	5344
2026-01-20 22:05:45.19	138.63	13.75	-34.6	-43.3	17.8	1.38e-03	0	57	0	379060224	50	5606
2026-01-20 22:05:46.20	138.42	13.64	-31.4	-43.8	16.1	2.20e-03	0	57	0	380108800	50	5934
2026-01-20 22:05:47.21	138.21	13.53	-31.3	-43.8	17.1	2.20e-03	0	57	0	381157376	50	5931
2026-01-20 22:05:48.21	138.01	13.42	-30.5	-44.0	16.0	1.85e-02	0	57	0	382205952	50	6105
2026-01-20 22:05:49.22	137.80	13.31	-40.0	-43.1	17.0	2.77e-02	0	57	0	383254528	50	5514
2026-01-20 22:05:50.23	137.60	13.21	-40.0	-43.2	15.2	2.77e-02	0	57	0	384827392	50	5531
2026-01-20 22:05:51.24	137.39	13.10	-40.3	-43.6	16.0	5.02e-02	0	57	0	385875968	50	5811
2026-01-20 22:05:52.25	137.19	12.99	-40.0	-43.2	14.8	4.82e-02	0	57	0	386924544	50	5562
2026-01-20 22:05:53.26	137.00	12.88	-39.8	-43.2	16.0	5.69e-02	0	57	0	387973120	48	6247
2026-01-20 22:05:54.27	136.80	12.78	-40.0	-43.4	15.8	5.69e-02	0	57	0	389021696	49	5993
2026-01-20 22:05:55.28	136.61	12.67	-40.0	-43.6	13.2	4.43e-02	0	57	0	390070272	49	6156
2026-01-20 22:05:56.29	136.41	12.57	-39.8	-43.7	13.5	1.27e-01	0	57	0	391118848	49	6233
2026-01-20 22:05:57.30	136.22	12.46	-36.6	-43.3	12.4	1.27e-01	0	57	0	392167424	42	8928
2026-01-20 22:05:58.31	136.04	12.36	-31.5	-43.4	11.6	1.43e-01	0	57	0	393216000	46	7175
2026-01-20 22:05:59.31	135.85	12.25	-34.7	-43.9	14.7	8.92e-02	0	57	0	394264576	49	6373
2026-01-20 22:06:00.32	135.67	12.15	-39.3	-43.7	15.1	8.92e-02	0	57	0	395313152	49	6223
2026-01-20 22:06:01.33	135.48	12.05	-39.3	-43.8	12.1	7.76e-02	0	57	0	396361728	46	7507
2026-01-20 22:06:02.34	135.30	11.94	-39.4	-43.5	14.2	1.31e-01	0	57	0	397410304	47	6835
2026-01-20 22:06:03.35	135.12	11.84	-33.8	-43.3	8.1	1.31e-01	0	57	0	397934592	37	11821
2026-01-20 22:06:04.36	134.94	11.74	-33.1	-42.6	9.1	2.28e-01	0	57	0	398983168	38	10403
2026-01-20 22:06:05.37	134.76	11.64	-32.0	-42.0	8.0	2.81e-01	0	57	0	400031744	36	10887
2026-01-20 22:06:06.38	134.59	11.53	-29.8	-41.8	9.9	3.75e-01	0	57	0	400556032	35	11224
2026-01-20 22:06:07.39	134.42	11.43	-34.6	-43.2	8.2	3.75e-01	0	57	0	401604608	35	13236
2026-01-20 22:06:08.40	134.24	11.33	-31.0	-41.9	9.0	3.30e-01	0	57	0	402128896	33	12750
2026-01-20 22:06:09.41	134.07	11.23	-33.7	-42.7	9.0	5.66e-01	0	57	104	402653184	36	11738
2026-01-20 22:06:10.43	133.90	11.13	-30.9	-40.8	7.5	5.66e-01	0	57	0	402653184	27	15842
2026-01-20 22:06:11.44	133.74	11.03	-27.9	-42.6	6.2	4.85e-01	0	57	0	403177472	25	21848
2026-01-20 22:06:12.45	133.57	10.93	-22.0	-40.3	6.0	5.92e-01	0	57	0	403701760	22	19892
2026-01-20 22:06:13.45	133.41	10.84	-29.1	-41.9	4.7	5.92e-01	0	57	104	403701760	22	23861
2026-01-20 22:06:14.46	133.24	10.74	-22.1	-41.4	4.3	7.49e-01	0	57	104	403701760	21	23967
2026-01-20 22:06:15.47	133.08	10.64	-24.9	-41.7	3.6	8.28e-01	0	57	104	403701760	16	33124
2026-01-20 22:06:16.48	132.92	10.54	-20.7	-40.9	3.6	8.28e-01	0	57	104	403701760	16	30081
2026-01-20 22:06:17.49	132.76	10.45	-24.7	-44.0	3.6	8.26e-01	0	57	104	403701760	19	36415
2026-01-20 22:06:18.50	132.61	10.35	-29.5	-45.3	3.7	8.09e-01	0	57	104	403701760	23	33624
2026-01-20 22:06:19.51	132.45	10.25	-17.1	-37.6	3.6	8.06e-01	0	57	104	403701760	12	26056
2026-01-20 22:06:20.52	132.30	10.16	-16.3	-33.0	3.5	8.06e-01	0	57	104	403701760	3	25800
2026-01-20 22:06:21.53	132.14	10.06	-14.6	-32.4	3.8	8.27e-01	0	57	104	403701760	2	25279
2026-01-20 22:06:22.54	131.99	9.97	-16.1	-34.8	3.7	8.37e-01	0	57	0	403701760	5	28272
2026-01-20 22:06:23.55	131.84	9.87	-17.0	-38.1	3.7	8.37e-01	0	57	104	403701760	6	38787
2026-01-20 22:06:24.56	131.69	9.78	-19.2	-33.6	3.5	8.27e-01	0	57	104	403701760	3	27599
2026-01-20 22:06:25.57	131.55	9.69	-17.4	-34.3	3.3	8.10e-01	0	57	104	403701760	4	28197
2026-01-20 22:06:26.58	131.40	9.59	-20.5	-38.8	3.5	8.10e-01	0	57	104	403701760	11	31487
2026-01-20 22:06:27.59	131.25	9.50	-17.5	-34.0	3.7	8.14e-01	0	57	104	403701760	4	27318
2026-01-20 22:06:28.60	131.11	9.41	-20.7	-33.4	3.4	8.28e-01	0	57	104	403701760	4	25471
2026-01-20 22:06:29.61	130.97	9.32	-21.1	-38.7	3.3	8.28e-01	0	57	104	403701760	10	33000
2026-01-20 22:06:30.61	130.83	9.23	-22.5	-40.9	3.4	8.16e-01	0	57	0	403701760	11	40297
2026-01-20 22:06:31.62	130.69	9.13	-14.8	-31.8	3.5	8.09e-01	0	57	104	403701760	2	23723
2026-01-20 22:06:32.63	130.55	9.04	-20.4	-38.4	3.6	8.10e-01	0	57	104	403701760	8	35895
2026-01-20 22:06:33.64	130.41	8.95	-20.4	-35.6	3.8	8.10e-01	0	57	104	403701760	3	34720
2026-01-20 22:06:34.65	130.27	8.86	-17.6	-36.7	3.5	8.24e-01	0	57	104	403701760	6	33262
2026-01-20 22:06:35.66	130.14	8.77	-18.0	-39.1	3.5	8.17e-01	0	57	104	403701760	10	34733
2026-01-20 22:06:36.67	130.01	8.68	-15.8	-34.3	3.5	8.17e-01	0	57	0	403701760	4	28215
2026-01-20 22:06:37.68	129.87	8.59	-16.8	-36.2	3.5	8.06e-01	0	57	104	403701760	6	31241
2026-01-20 22:06:38.69	129.74	8.51	-14.4	-33.6	3.7	8.21e-01	0	57	104	403701760	4	25890
2026-01-20 22:06:39.70	129.61	8.42	-15.7	-32.6	3.8	8.21e-01	0	57	104	403701760	1	27638
2026-01-20 22:06:40.71	129.48	8.33	-16.0	-33.8	3.9	8.26e-01	0	57	104	403701760	2	29914
2026-01-20 22:06:41.72	129.35	8.24	-21.6	-38.0	3.4	8.31e-01	0	57	104	403701760	6	38373
2026-01-20 22:06:42.73	129.22	8.15	-24.4	-37.4	3.4	8.31e-01	0	57	104	403701760	5	37842
2026-01-20 22:06:43.74	129.10	8.07	-17.0	-37.9	3.4	8.09e-01	0	57	104	403701760	5	40455
2026-01-20 22:06:44.75	128.97	7.98	-20.1	-36.2	3.7	8.11e-01	0	57	104	403701760	6	31090
2026-01-20 22:06:45.76	128.85	7.89	-38.3	-59.0	4.0	8.21e-01	0	57	104	403701760	44	48585
2026-01-20 22:06:46.77	128.72	7.81	-44.8	-63.1	3.9	8.21e-01	0	57	104	403701760	60	30925
2026-01-20 22:06:47.78	128.60	7.72	-45.1	-63.4	3.8	8.43e-01	0	57	104	403701760	60	32054
2026-01-20 22:06:48.79	128.48	7.64	-45.3	-63.6	3.8	8.45e-01	0	57	104	403701760	61	31059
2026-01-20 22:06:49.80	128.36	7.55	-45.5	-63.8	3.8	8.45e-01	0	57	104	403701760	61	31464
2026-01-20 22:06:50.81	128.24	7.47	-45.6	-63.9	3.8	8.46e-01	0	57	104	403701760	61	31846
2026-01-20 22:06:51.82	128.12	7.38	-45.7	-64.0	3.8	8.45e-01	0	57	104	403701760	61	32181
2026-01-20 22:06:52.83	128.00	7.30	-45.8	-64.0	3.8	8.45e-01	0	57	104	403701760	62	30656
2026-01-20 22:06:53.84	127.89	7.22	-45.8	-64.1	3.8	8.46e-01	0	57	104	403701760	62	30964
2026-01-20 22:06:54.85	127.77	7.13	-45.8	-64.1	3.8	8.46e-01	0	57	104	403701760	62	30750
2026-01-20 22:06:55.86	127.66	7.05	-45.7	-63.9	3.8	8.46e-01	0	57	104	403701760	62	30301
2026-01-20 22:06:56.87	127.54	6.97	-45.6	-63.8	3.8	8.47e-01	0	57	104	403701760	62	29860
2026-01-20 22:06:57.88	127.43	6.89	-45.6	-63.8	3.8	8.46e-01	0	57	104	403701760	62	29818
2026-01-20 22:06:58.89	127.32	6.80	-45.6	-63.7	3.8	8.45e-01	0	57	104	403701760	62	29468
2026-01-20 22:06:59.90	127.21	6.72	-45.5	-63.7	3.8	8.45e-01	0	57	104	403701760	62	29408
2026-01-20 22:07:00.91	127.10	6.64	-45.4	-63.5	3.8	8.46e-01	0	57	104	403701760	62	28997
2026-01-20 22:07:01.92	126.99	6.56	-45.4	-63.5	3.8	8.46e-01	0	57	104	403701760	62	28878
2026-01-20 22:07:02.93	126.88	6.48	-45.4	-63.5	3.8	8.46e-01	0	57	104	403701760	62	28894
2026-01-20 22:07:03.94	126.77	6.40	-45.4	-63.5	3.8	8.46e-01	0	57	104	403701760	62	28822
2026-01-20 22:07:04.95	126.66	6.32	-45.4	-63.5	3.8	8.46e-01	0	57	104	403701760	62	28858
2026-01-20 22:07:05.96	126.56	6.24	-45.4	-63.5	3.8	8.46e-01	0	57	104	403701760	62	28951
2026-01-20 22:07:06.97	126.45	6.16	-45.4	-63.5	3.8	8.45e-01	0	57	104	403701760	62	28857
2026-01-20 22:07:07.99	126.35	6.08	-45.4	-63.5	3.8	8.47e-01	0	57	104	403701760	62	28839
2026-01-20 22:07:08.99	126.24	6.00	-45.4	-63.5	3.8	8.46e-01	0	57	104	403701760	62	28878
2026-01-20 22:07:10.00	126.14	5.92	-45.4	-63.5	3.8	8.46e-01	0	57	104	403701760	62	28781
2026-01-20 22:07:11.01	126.04	5.85	-45.4	-63.5	3.8	8.46e-01	0	57	104	403701760	62	28867
2026-01-20 22:07:12.02	125.94	5.77	-45.4	-63.5	3.8	8.46e-01	0	57	104	403701760	62	28818
2026-01-20 22:07:13.03	125.84	5.69	-45.4	-63.5	3.8	8.46e-01	0	57	104	403701760	62	28758
2026-01-20 22:07:14.04	125.74	5.61	-45.4	-63.5	3.8	8.45e-01	0	57	104	403701760	62	28789
2026-01-20 22:07:15.05	125.64	5.54	-45.4	-63.5	3.8	8.46e-01	0	57	104	403701760	62	28740
2026-01-20 22:07:16.06	125.54	5.46	-45.4	-63.5	3.8	8.46e-01	0	57	104	403701760	62	28828
2026-01-20 22:07:17.07	125.44	5.38	-45.4	-63.5	3.8	8.45e-01	0	57	104	403701760	62	28735
2026-01-20 22:07:18.08	125.35	5.31	-45.4	-63.5	3.8	8.47e-01	0	57	104	403701760	62	28763
2026-01-20 22:07:19.09	125.25	5.23	-45.4	-63.5	3.8	8.47e-01	0	57	104	403701760	62	28747
2026-01-20 22:07:20.11	125.16	5.15	-45.4	-63.5	3.8	8.46e-01	0	57	104	403701760	62	28772
2026-01-20 22:07:21.12	125.06	5.08	-45.4	-63.4	3.8	8.46e-01	0	57	104	403701760	62	28664
2026-01-20 22:07:22.13	124.97	5.00	-45.4	-63.5	3.8	8.47e-01	0	57	104	403701760	62	28708
2026-01-20 22:07:23.14	124.87	4.93	-45.4	-63.5	3.8	8.47e-01	0	57	104	403701760	62	28705
2026-01-20 22:07:24.15	124.78	4.85	-45.4	-63.4	3.8	8.46e-01	0	57	104	403701760	62	28662
2026-01-20 22:07:25.16	124.69	4.78	-45.4	-63.4	3.8	8.47e-01	0	57	104	403701760	62	28660
2026-01-20 22:07:26.17	124.60	4.70	-45.3	-63.4	3.8	8.47e-01	0	57	104	403701760	62	28675
2026-01-20 22:07:27.18	124.51	4.63	-45.3	-63.4	3.8	8.46e-01	0	57	104	403701760	62	28662
2026-01-20 22:07:28.19	124.42	4.56	-45.3	-63.5	3.8	8.46e-01	0	57	104	403701760	62	28706
2026-01-20 22:07:29.20	124.33	4.48	-45.3	-63.4	3.8	8.46e-01	0	57	104	403701760	62	28662
2026-01-20 22:07:30.21	124.24	4.41	-45.3	-63.5	3.8	8.47e-01	0	57	104	403701760	62	28690
2026-01-20 22:07:31.22	124.15	4.34	-45.4	-63.4	3.8	8.46e-01	0	57	104	403701760	62	28611
2026-01-20 22:07:32.23	124.07	4.27	-45.3	-63.4	3.8	8.46e-01	0	57	104	403701760	62	28598
2026-01-20 22:07:33.24	123.98	4.19	-45.3	-63.4	3.8	8.45e-01	0	57	104	403701760	62	28565
2026-01-20 22:07:34.25	123.89	4.12	-45.3	-63.4	3.8	8.46e-01	0	57	104	403701760	62	28667
2026-01-20 22:07:35.26	123.81	4.05	-45.3	-63.4	3.8	8.45e-01	0	57	104	403701760	62	28641
2026-01-20 22:07:36.27	123.72	3.98	-45.3	-63.4	3.8	8.45e-01	0	57	104	403701760	62	28562
2026-01-20 22:07:37.28	123.64	3.91	-45.3	-63.4	3.8	8.47e-01	0	57	104	403701760	62	28585
2026-01-20 22:07:38.30	123.56	3.83	-45.3	-63.5	3.8	8.46e-01	0	57	104	403701760	62	28694
2026-01-20 22:07:39.31	123.47	3.76	-45.3	-63.4	3.8	8.46e-01	0	57	104	403701760	62	28558
2026-01-20 22:07:40.32	123.39	3.69	-45.3	-63.4	3.8	8.47e-01	0	57	104	403701760	62	28620
2026-01-20 22:07:41.33	123.31	3.62	-45.3	-63.4	3.8	8.46e-01	0	57	104	403701760	62	28579
2026-01-20 22:07:42.34	123.23	3.55	-45.3	-63.4	3.8	8.46e-01	0	57	104	403701760	62	28567
2026-01-20 22:07:43.35	123.15	3.48	-45.3	-63.4	3.8	8.47e-01	0	57	104	403701760	62	28569
2026-01-20 22:07:44.36	123.07	3.41	-45.3	-63.4	3.8	8.46e-01	0	57	104	403701760	62	28619
2026-01-20 22:07:45.37	122.99	3.34	-45.3	-63.4	3.8	8.46e-01	0	57	104	403701760	62	28595
2026-01-20 22:07:46.38	122.91	3.27	-45.3	-63.4	3.8	8.46e-01	0	57	104	403701760	62	28550
2026-01-20 22:07:47.39	122.83	3.21	-45.3	-63.4	3.8	8.46e-01	0	57	104	403701760	62	28571
2026-01-20 22:07:48.40	122.75	3.14	-45.3	-63.4	3.8	8.46e-01	0	57	104	403701760	62	28610
2026-01-20 22:07:49.41	122.68	3.07	-45.3	-63.4	3.8	8.46e-01	0	57	104	403701760	62	28616
2026-01-20 22:07:50.42	122.60	3.00	-45.3	-63.4	3.8	8.47e-01	0	57	104	403701760	62	28624
2026-01-20 22:07:51.43	122.52	2.93	-45.3	-63.4	3.8	8.47e-01	0	57	104	403701760	62	28555
2026-01-20 22:07:52.44	122.45	2.86	-45.3	-63.4	3.8	8.47e-01	0	57	104	403701760	62	28614
2026-01-20 22:07:53.45	122.37	2.80	-45.3	-63.4	3.8	8.45e-01	0	57	104	403701760	62	28558
2026-01-20 22:07:54.47	122.30	2.73	-45.3	-63.4	3.8	8.46e-01	0	57	104	403701760	62	28534
2026-01-20 22:07:55.47	122.22	2.66	-45.3	-63.4	3.8	8.46e-01	0	57	104	403701760	62	28597
2026-01-20 22:07:56.49	122.15	2.59	-45.3	-63.4	3.8	8.47e-01	0	57	104	403701760	62	28566
2026-01-20 22:07:57.50	122.07	2.53	-45.3	-63.4	3.8	8.46e-01	0	57	104	403701760	62	28546
2026-01-20 22:07:58.51	122.00	2.46	-45.3	-63.4	3.8	8.47e-01	0	57	104	403701760	62	28550
2026-01-20 22:07:59.52	121.93	2.39	-45.3	-63.4	3.8	8.47e-01	0	57	104	403701760	62	28590
2026-01-20 22:08:00.53	121.86	2.33	-45.3	-63.4	3.8	8.46e-01	0	57	104	403701760	62	28546
2026-01-20 22:08:01.54	121.79	2.26	-45.3	-63.4	3.8	8.45e-01	0	57	104	403701760	62	28478
2026-01-20 22:08:02.55	121.72	2.19	-45.3	-63.4	3.8	8.45e-01	0	57	104	403701760	62	28526
2026-01-20 22:08:03.56	121.65	2.13	-45.3	-63.4	3.8	8.47e-01	0	57	104	403701760	62	28556
2026-01-20 22:08:04.57	121.58	2.06	-45.3	-63.4	3.8	8.46e-01	0	57	104	403701760	62	28512
2026-01-20 22:08:05.58	121.51	2.00	-45.3	-63.4	3.8	8.46e-01	0	58	104	403701760	62	28606
2026-01-20 22:08:06.59	121.44	1.93	-45.3	-63.4	3.8	8.45e-01	0	58	104	403701760	62	28583

#Closed at: 2026-01-20 22:08:07
#Recorded file [403 MB]: D:/lorett/data/31039_260121_005905.dat