passes_logs/2026/01/20/R2.0S_Moscow/R2.0S_Moscow__20260120_103044_FENGYUN_3D_rec.log

#Pass ID: 20260120_103044_FENGYUN 3D
#Satellite: FENGYUN 3D
#Configuration: FENGYUN 3D
#almurnet v.1.7.20251203
#Start time: 2026-01-20 10:30:46

#Version: 2.2.20231116
#Station: R2.0S_Moscow
#Location: 37.707566 lon 55.798166 lat
#TLE: 1 43010U 17072A   26019.65504262 -.00000232  00000+0 -88147-4 0  9993
#TLE: 2 43010  98.9941 351.5427 0002443 100.5024 259.6427 14.19695886423913

#Time	Az	El	Level	Level2	SNR	BER	BlckErr	Temp	State	Recorded	gain1	gain2
2026-01-20 10:30:46.11	117.58	2.12	-30.1	-44.1	4.1	8.41e-01	0	52	0	0	27	23292
2026-01-20 10:30:47.11	117.52	2.18	-30.4	-45.7	3.9	8.35e-01	0	53	104	0	31	22097
2026-01-20 10:30:48.12	117.46	2.24	-32.8	-47.7	4.2	8.33e-01	0	52	104	0	36	20851
2026-01-20 10:30:49.13	117.40	2.30	-28.8	-43.0	4.0	8.36e-01	0	52	104	0	25	22787
2026-01-20 10:30:50.14	117.34	2.36	-28.8	-46.6	4.0	8.41e-01	0	52	104	0	32	23151
2026-01-20 10:30:51.15	117.28	2.41	-28.9	-44.3	4.0	8.37e-01	0	53	104	0	29	21187
2026-01-20 10:30:52.16	117.21	2.47	-29.9	-43.9	4.0	8.37e-01	0	53	104	0	30	19002
2026-01-20 10:30:53.17	117.15	2.53	-31.2	-45.3	3.9	8.38e-01	0	53	104	0	27	26494
2026-01-20 10:30:54.18	117.09	2.59	-32.9	-46.3	4.1	8.37e-01	0	53	104	0	34	20047
2026-01-20 10:30:55.19	117.03	2.65	-23.5	-38.3	3.7	8.34e-01	0	53	104	0	23	15034
2026-01-20 10:30:56.20	116.97	2.71	-33.1	-48.4	3.9	8.33e-01	0	53	104	0	37	21340
2026-01-20 10:30:57.21	116.91	2.77	-30.6	-46.6	4.3	8.35e-01	0	53	104	0	37	17294
2026-01-20 10:30:58.23	116.84	2.83	-33.6	-47.2	4.2	8.37e-01	0	53	104	0	33	23529
2026-01-20 10:30:59.24	116.78	2.89	-31.9	-47.3	4.0	8.38e-01	0	53	104	0	29	29936
2026-01-20 10:31:00.25	116.72	2.95	-32.2	-44.0	4.0	8.38e-01	0	53	104	0	26	24138
2026-01-20 10:31:01.26	116.65	3.01	-30.9	-42.9	4.1	8.39e-01	0	53	104	0	25	22524
2026-01-20 10:31:02.27	116.59	3.07	-29.8	-44.4	3.6	8.36e-01	0	53	104	0	29	21310
2026-01-20 10:31:03.28	116.52	3.13	-27.8	-43.2	4.0	8.35e-01	0	53	104	0	32	15691
2026-01-20 10:31:04.29	116.46	3.20	-33.4	-47.9	4.2	8.35e-01	0	53	104	0	38	18991
2026-01-20 10:31:05.30	116.40	3.26	-25.2	-39.4	3.8	8.36e-01	0	53	104	0	27	13520
2026-01-20 10:31:06.31	116.33	3.32	-29.0	-45.2	3.8	8.34e-01	0	54	104	0	31	20885
2026-01-20 10:31:07.32	116.27	3.38	-33.2	-47.2	4.1	8.35e-01	0	53	104	0	36	19793
2026-01-20 10:31:08.33	116.20	3.44	-31.8	-47.8	4.2	8.34e-01	0	53	104	0	35	22466
2026-01-20 10:31:09.34	116.14	3.50	-32.2	-47.0	4.1	8.33e-01	0	54	104	0	35	20441
2026-01-20 10:31:10.35	116.07	3.56	-32.8	-48.9	4.3	8.33e-01	0	54	104	0	35	25284
2026-01-20 10:31:11.36	116.00	3.62	-31.8	-46.7	4.0	8.35e-01	0	54	104	0	37	17637
2026-01-20 10:31:12.37	115.94	3.68	-31.0	-46.5	3.9	8.37e-01	0	54	104	0	31	24221
2026-01-20 10:31:13.38	115.87	3.75	-27.3	-43.3	4.0	8.39e-01	0	54	0	0	34	14206
2026-01-20 10:31:14.39	115.80	3.81	-28.9	-43.3	3.9	8.39e-01	0	54	104	0	26	22305
2026-01-20 10:31:15.40	115.74	3.87	-23.3	-37.9	3.8	8.38e-01	0	54	104	0	26	11984
2026-01-20 10:31:16.41	115.67	3.93	-30.0	-45.6	3.9	8.37e-01	0	54	104	0	32	20692
2026-01-20 10:31:17.42	115.60	3.99	-29.4	-45.3	4.2	8.34e-01	0	54	104	0	33	18757
2026-01-20 10:31:18.43	115.53	4.05	-33.3	-48.7	4.2	8.34e-01	0	54	104	0	35	24727
2026-01-20 10:31:19.44	115.46	4.12	-27.0	-43.9	4.2	8.35e-01	0	54	104	0	35	14326
2026-01-20 10:31:20.45	115.39	4.18	-27.4	-46.6	4.2	8.35e-01	0	54	104	0	37	17392
2026-01-20 10:31:21.47	115.32	4.24	-27.5	-42.5	3.6	8.38e-01	0	54	104	0	25	21667
2026-01-20 10:31:22.48	115.25	4.30	-27.7	-43.4	3.6	8.38e-01	0	54	104	0	27	21306
2026-01-20 10:31:23.49	115.18	4.37	-28.1	-43.8	3.4	8.35e-01	0	54	104	0	26	23616
2026-01-20 10:31:24.50	115.11	4.43	-20.3	-35.8	3.8	8.31e-01	0	54	104	0	25	10022
2026-01-20 10:31:25.51	115.04	4.49	-27.8	-42.9	3.7	8.32e-01	0	54	104	0	25	22727
2026-01-20 10:31:26.52	114.97	4.56	-33.6	-47.9	4.3	8.38e-01	0	54	104	0	38	19015
2026-01-20 10:31:27.53	114.90	4.62	-30.6	-47.6	4.1	8.35e-01	0	54	104	0	32	25895
2026-01-20 10:31:28.54	114.83	4.68	-26.7	-42.2	3.7	8.35e-01	0	55	104	0	24	22012
2026-01-20 10:31:29.55	114.76	4.74	-27.7	-43.2	4.2	8.36e-01	0	55	104	0	28	19742
2026-01-20 10:31:30.56	114.69	4.81	-33.2	-49.0	4.5	8.35e-01	0	55	104	0	35	25580
2026-01-20 10:31:31.57	114.62	4.87	-32.5	-48.1	4.1	8.35e-01	0	55	104	0	31	29091
2026-01-20 10:31:32.58	114.54	4.94	-27.3	-43.0	3.6	8.39e-01	0	55	104	0	25	22999
2026-01-20 10:31:33.59	114.47	5.00	-26.2	-42.5	3.9	8.39e-01	0	55	104	0	25	21641
2026-01-20 10:31:34.60	114.40	5.06	-30.4	-46.4	3.9	8.37e-01	0	55	104	0	33	21263
2026-01-20 10:31:35.61	114.32	5.13	-27.5	-42.8	4.0	8.40e-01	0	55	104	0	27	19907
2026-01-20 10:31:36.62	114.25	5.19	-31.0	-46.0	3.8	8.34e-01	0	55	104	0	29	25571
2026-01-20 10:31:37.63	114.17	5.25	-24.7	-38.9	3.8	8.35e-01	0	55	0	0	20	19085
2026-01-20 10:31:38.64	114.10	5.32	-30.3	-45.1	3.7	8.38e-01	0	55	104	0	23	32927
2026-01-20 10:31:39.65	114.02	5.38	-32.2	-46.0	4.0	8.39e-01	0	55	104	0	27	28985
2026-01-20 10:31:40.66	113.95	5.45	-31.9	-46.8	4.1	8.35e-01	0	55	104	0	33	22372
2026-01-20 10:31:41.67	113.87	5.51	-25.6	-42.0	3.8	8.42e-01	0	55	104	0	27	18251
2026-01-20 10:31:42.68	113.80	5.58	-27.8	-43.2	3.8	8.39e-01	0	55	0	0	28	19654
2026-01-20 10:31:43.69	113.72	5.64	-30.9	-46.3	3.9	8.39e-01	0	55	104	0	24	35472
2026-01-20 10:31:44.70	113.64	5.71	-22.3	-37.4	3.3	8.44e-01	0	55	104	0	19	16939
2026-01-20 10:31:45.71	113.57	5.77	-28.6	-42.9	4.2	8.37e-01	0	55	104	0	29	17891
2026-01-20 10:31:46.72	113.49	5.84	-23.4	-38.4	4.1	8.37e-01	0	55	104	0	19	18989
2026-01-20 10:31:47.73	113.41	5.90	-30.1	-45.4	4.0	8.39e-01	0	55	104	0	32	20263
2026-01-20 10:31:48.74	113.33	5.97	-31.5	-44.3	4.1	8.37e-01	0	55	104	0	28	22347
2026-01-20 10:31:49.75	113.26	6.03	-31.1	-44.6	3.8	8.39e-01	0	55	104	0	27	24617
2026-01-20 10:31:50.76	113.18	6.10	-25.9	-41.6	4.0	8.39e-01	0	56	104	0	23	21998
2026-01-20 10:31:51.77	113.10	6.16	-28.6	-42.7	4.1	8.40e-01	0	56	104	0	29	17625
2026-01-20 10:31:52.79	113.02	6.23	-30.8	-44.6	4.1	8.37e-01	0	55	104	0	33	17358
2026-01-20 10:31:53.80	112.94	6.30	-27.6	-44.2	4.0	8.39e-01	0	56	104	0	33	16633
2026-01-20 10:31:54.81	112.86	6.36	-27.2	-42.5	3.8	8.39e-01	0	55	104	0	26	20313
2026-01-20 10:31:55.82	112.78	6.43	-23.5	-40.3	4.1	8.42e-01	0	55	104	0	29	13346
2026-01-20 10:31:56.83	112.69	6.49	-28.6	-42.6	3.9	8.41e-01	0	55	104	0	28	18517
2026-01-20 10:31:57.84	112.61	6.56	-32.6	-45.9	4.2	8.41e-01	0	56	104	0	34	19128
2026-01-20 10:31:58.85	112.53	6.63	-24.6	-40.8	3.7	8.43e-01	0	56	104	0	25	17793
2026-01-20 10:31:59.86	112.45	6.69	-30.7	-43.8	4.1	8.40e-01	0	56	104	0	29	19851
2026-01-20 10:32:00.87	112.37	6.76	-29.8	-43.0	4.3	8.39e-01	0	56	104	0	31	16294
2026-01-20 10:32:01.88	112.28	6.83	-25.3	-39.2	4.4	8.39e-01	0	55	104	0	30	11098
2026-01-20 10:32:02.89	112.20	6.89	-26.5	-41.9	3.9	8.45e-01	0	56	104	0	22	24093
2026-01-20 10:32:03.90	112.12	6.96	-32.0	-45.7	4.0	8.40e-01	0	56	104	0	31	22238
2026-01-20 10:32:04.91	112.03	7.03	-31.2	-44.7	4.2	8.40e-01	0	56	104	0	35	15748
2026-01-20 10:32:05.92	111.95	7.10	-32.8	-47.5	4.0	8.38e-01	0	56	104	0	34	22790
2026-01-20 10:32:06.93	111.86	7.16	-26.6	-42.4	3.7	8.44e-01	0	56	104	0	26	20075
2026-01-20 10:32:07.94	111.78	7.23	-25.9	-40.9	3.8	8.40e-01	0	56	104	0	30	13421
2026-01-20 10:32:08.95	111.69	7.30	-26.6	-40.6	4.0	8.42e-01	0	56	104	0	24	18381
2026-01-20 10:32:09.96	111.60	7.37	-27.6	-42.1	3.9	8.45e-01	0	56	104	0	23	23141
2026-01-20 10:32:10.97	111.52	7.43	-26.6	-41.6	4.0	8.44e-01	0	56	104	0	26	18309
2026-01-20 10:32:11.98	111.43	7.50	-23.8	-38.4	3.4	8.46e-01	0	56	104	0	22	15978
2026-01-20 10:32:12.99	111.34	7.57	-25.6	-39.7	4.0	8.42e-01	0	56	104	0	26	14810
2026-01-20 10:32:14.01	111.25	7.64	-30.1	-41.9	4.3	8.42e-01	0	56	104	0	27	17946
2026-01-20 10:32:15.02	111.17	7.71	-30.9	-42.4	4.5	8.35e-01	0	56	104	0	33	13464
2026-01-20 10:32:16.03	111.08	7.78	-29.2	-40.3	4.5	8.32e-01	0	56	104	0	28	14191
2026-01-20 10:32:17.04	110.99	7.84	-27.3	-40.2	4.2	8.35e-01	0	56	104	0	20	22245
2026-01-20 10:32:18.05	110.90	7.91	-26.0	-37.9	4.1	8.39e-01	0	56	104	0	23	14293
2026-01-20 10:32:19.06	110.81	7.98	-28.9	-40.2	4.6	8.44e-01	0	56	104	0	28	13959
2026-01-20 10:32:20.07	110.72	8.05	-29.4	-39.6	4.5	8.39e-01	0	56	104	0	29	12258
2026-01-20 10:32:21.08	110.63	8.12	-33.7	-52.0	3.9	8.42e-01	0	56	104	0	43	22959
2026-01-20 10:32:22.09	110.54	8.19	-22.7	-39.6	4.1	8.41e-01	0	56	104	0	22	18478
2026-01-20 10:32:23.10	110.44	8.26	-29.1	-42.7	4.1	8.44e-01	0	56	104	0	29	17505
2026-01-20 10:32:24.11	110.35	8.33	-30.7	-43.4	4.3	8.37e-01	0	56	104	0	33	15196
2026-01-20 10:32:25.12	110.26	8.40	-30.8	-45.2	4.0	8.42e-01	0	57	104	0	27	26197
2026-01-20 10:32:26.13	110.17	8.47	-30.3	-43.2	4.2	8.34e-01	0	56	104	0	34	13984
2026-01-20 10:32:27.13	110.07	8.54	-32.1	-43.1	4.3	8.41e-01	0	56	104	0	31	16354
2026-01-20 10:32:28.14	109.98	8.61	-35.0	-45.0	5.6	7.72e-01	0	57	0	0	40	12139
2026-01-20 10:32:29.16	109.88	8.68	-30.4	-44.0	4.1	8.31e-01	0	57	104	0	29	20388
2026-01-20 10:32:30.16	109.79	8.75	-28.9	-41.4	4.3	8.38e-01	0	57	104	0	32	12777
2026-01-20 10:32:31.17	109.69	8.82	-27.7	-44.2	4.0	8.36e-01	0	57	104	0	29	20956
2026-01-20 10:32:32.18	109.60	8.89	-33.0	-48.3	3.7	8.43e-01	0	57	104	0	34	25191
2026-01-20 10:32:33.19	109.50	8.96	-32.7	-46.5	4.2	8.40e-01	0	57	104	0	27	30467
2026-01-20 10:32:34.20	109.40	9.03	-29.6	-43.4	4.1	8.42e-01	0	56	104	0	31	16910
2026-01-20 10:32:35.21	109.31	9.10	-25.7	-42.8	4.1	8.42e-01	0	57	104	0	26	21085
2026-01-20 10:32:36.22	109.21	9.17	-28.8	-44.4	3.9	8.42e-01	0	57	104	0	28	22740
2026-01-20 10:32:37.23	109.11	9.24	-33.4	-45.8	4.6	8.40e-01	0	57	104	0	26	29730
2026-01-20 10:32:38.24	109.01	9.31	-24.4	-41.3	4.5	8.41e-01	0	57	104	0	28	15918
2026-01-20 10:32:39.25	108.91	9.38	-36.4	-45.9	5.6	6.88e-01	0	57	0	0	42	12023
2026-01-20 10:32:40.26	108.81	9.45	-36.3	-47.5	4.3	8.43e-01	0	57	104	0	46	11539
2026-01-20 10:32:41.27	108.71	9.53	-35.8	-45.2	6.0	7.04e-01	0	57	0	0	42	11080
2026-01-20 10:32:42.28	108.61	9.60	-36.0	-41.8	9.3	2.46e-01	0	57	0	3145728	43	7069
2026-01-20 10:32:43.29	108.51	9.67	-34.5	-41.6	8.7	3.23e-01	0	57	0	7340032	41	7801
2026-01-20 10:32:44.30	108.41	9.74	-36.1	-41.7	8.9	2.20e-01	0	57	0	11534336	42	7444
2026-01-20 10:32:45.31	108.31	9.81	-35.0	-41.8	7.2	1.64e-01	0	57	0	15728640	38	9425
2026-01-20 10:32:46.32	108.20	9.89	-34.4	-41.5	8.7	2.38e-01	0	57	0	20971520	42	7283
2026-01-20 10:32:47.33	108.10	9.96	-37.6	-41.9	10.5	2.51e-01	0	57	0	25165824	45	6364
2026-01-20 10:32:48.34	108.00	10.03	-35.3	-41.4	8.3	1.99e-01	0	57	0	30408704	40	8061
2026-01-20 10:32:49.35	107.89	10.10	-33.0	-41.4	8.0	2.41e-01	0	57	0	35651584	39	8479
2026-01-20 10:32:50.36	107.79	10.17	-35.9	-41.7	8.7	2.31e-01	0	57	0	39845888	43	7024
2026-01-20 10:32:51.37	107.68	10.25	-34.9	-41.6	8.1	3.01e-01	0	57	0	45088768	39	8666
2026-01-20 10:32:52.38	107.57	10.32	-34.6	-41.6	8.7	2.63e-01	0	57	0	49283072	41	7730
2026-01-20 10:32:53.39	107.47	10.39	-34.4	-41.4	8.4	2.34e-01	0	57	0	54525952	40	8026
2026-01-20 10:32:54.40	107.36	10.47	-34.7	-41.5	7.9	1.71e-01	0	57	0	59768832	41	7697
2026-01-20 10:32:55.41	107.25	10.54	-35.9	-41.4	8.1	2.98e-01	0	57	0	65011712	38	9001
2026-01-20 10:32:56.42	107.14	10.61	-35.1	-41.4	8.2	2.92e-01	0	57	0	69206016	38	9026
2026-01-20 10:32:57.43	107.04	10.69	-34.7	-41.5	8.3	2.80e-01	0	57	0	74448896	38	9118
2026-01-20 10:32:58.44	106.93	10.76	-35.3	-41.3	8.6	2.59e-01	0	57	0	79691776	38	8893
2026-01-20 10:32:59.45	106.82	10.83	-33.9	-41.5	7.2	5.22e-01	0	57	0	82837504	36	10183
2026-01-20 10:33:00.46	106.71	10.91	-31.7	-40.6	7.3	5.33e-01	0	57	0	85983232	34	10333
2026-01-20 10:33:01.47	106.59	10.98	-31.6	-41.2	7.5	4.54e-01	0	57	0	90177536	41	7457
2026-01-20 10:33:02.48	106.48	11.06	-29.2	-40.0	6.6	2.06e-01	0	57	0	93323264	31	11521
2026-01-20 10:33:03.49	106.37	11.13	-35.8	-41.2	8.9	4.52e-01	0	57	0	96468992	40	7823
2026-01-20 10:33:04.50	106.26	11.20	-30.0	-40.3	6.5	4.98e-01	0	57	0	99614720	32	11227
2026-01-20 10:33:05.51	106.14	11.28	-39.3	-42.0	11.5	3.45e-01	0	57	0	103809024	45	6466
2026-01-20 10:33:06.52	106.03	11.35	-27.8	-39.7	5.7	1.77e-01	0	57	0	108003328	27	13933
2026-01-20 10:33:07.53	105.92	11.43	-30.6	-40.4	7.2	3.34e-01	0	57	0	111149056	33	10678
2026-01-20 10:33:08.54	105.80	11.50	-28.0	-40.0	6.8	6.00e-01	0	57	0	113246208	29	12827
2026-01-20 10:33:09.55	105.68	11.58	-36.5	-41.3	10.9	5.92e-02	0	57	0	116391936	45	5979
2026-01-20 10:33:10.56	105.57	11.65	-30.9	-40.4	6.8	9.00e-02	0	57	0	121634816	34	10067
2026-01-20 10:33:11.57	105.45	11.73	-30.0	-39.4	6.1	6.74e-01	0	57	0	122683392	24	16101
2026-01-20 10:33:12.58	105.33	11.80	-27.7	-39.6	6.1	7.09e-01	0	57	0	123731968	25	15532
2026-01-20 10:33:13.59	105.21	11.88	-29.9	-39.7	5.9	6.27e-01	0	57	0	125829120	29	12409
2026-01-20 10:33:14.60	105.10	11.95	-28.0	-39.4	5.5	6.93e-01	0	58	0	125829120	30	11402
2026-01-20 10:33:15.61	104.98	12.03	-30.0	-38.8	5.5	5.36e-01	0	57	0	127926272	25	14156
2026-01-20 10:33:16.62	104.86	12.10	-26.1	-40.7	4.6	7.67e-01	0	58	0	127926272	23	19712
2026-01-20 10:33:17.63	104.74	12.18	-25.8	-39.9	7.2	6.76e-01	0	57	0	127926272	25	16053
2026-01-20 10:33:18.63	104.62	12.25	-29.3	-45.0	4.8	8.17e-01	0	57	0	128974848	26	27187
2026-01-20 10:33:19.64	104.49	12.33	-28.0	-40.3	5.7	7.87e-01	0	57	0	128974848	25	16821
2026-01-20 10:33:20.65	104.37	12.41	-29.0	-41.0	6.4	7.55e-01	0	58	104	128974848	36	9611
2026-01-20 10:33:21.66	104.25	12.48	-27.0	-39.8	6.1	5.68e-01	0	58	0	128974848	24	16764
2026-01-20 10:33:22.67	104.12	12.56	-37.5	-41.7	9.2	5.90e-01	0	58	0	131072000	38	9339
2026-01-20 10:33:23.68	104.00	12.63	-25.0	-39.4	5.7	4.84e-01	0	58	0	134217728	21	18950
2026-01-20 10:33:24.69	103.87	12.71	-29.1	-41.2	10.5	5.37e-01	0	58	0	136314880	41	7413
2026-01-20 10:33:25.70	103.75	12.79	-33.6	-41.1	8.4	1.26e-01	0	58	0	140509184	35	10379
2026-01-20 10:33:26.71	103.62	12.86	-37.1	-42.5	9.2	1.73e-01	0	57	0	145752064	44	7272
2026-01-20 10:33:27.72	103.49	12.94	-27.2	-41.5	6.4	3.51e-01	0	58	0	149946368	28	16176
2026-01-20 10:33:28.73	103.37	13.02	-28.5	-42.2	6.2	6.84e-01	0	58	0	150994944	25	20915
2026-01-20 10:33:29.74	103.24	13.10	-31.0	-42.5	6.7	6.59e-01	0	58	0	152043520	33	13573
2026-01-20 10:33:30.75	103.11	13.17	-34.8	-44.3	5.9	6.89e-01	0	58	0	153092096	37	13403
2026-01-20 10:33:31.75	102.98	13.25	-40.2	-44.9	7.2	7.02e-01	0	58	0	154140672	38	13530
2026-01-20 10:33:32.76	102.85	13.33	-28.8	-44.3	5.3	7.40e-01	0	58	0	156237824	33	16862
2026-01-20 10:33:33.77	102.72	13.40	-39.3	-50.8	4.4	7.78e-01	0	58	0	156237824	41	22295
2026-01-20 10:33:34.78	102.59	13.48	-26.2	-41.9	5.0	8.23e-01	0	58	104	156237824	25	20127
2026-01-20 10:33:35.80	102.45	13.56	-23.4	-42.0	4.6	8.38e-01	0	58	104	156237824	18	30587
2026-01-20 10:33:36.80	102.32	13.64	-23.0	-41.4	3.8	8.39e-01	0	58	104	156237824	17	30350
2026-01-20 10:33:37.81	102.19	13.71	-21.2	-39.6	3.8	8.38e-01	0	58	104	156237824	15	27585
2026-01-20 10:33:38.82	102.05	13.79	-27.2	-41.8	3.8	8.41e-01	0	58	104	156237824	17	31641
2026-01-20 10:33:39.83	101.91	13.87	-22.2	-41.0	4.3	8.38e-01	0	58	104	156237824	17	28829
2026-01-20 10:33:40.84	101.78	13.95	-21.1	-40.4	4.0	8.41e-01	0	58	104	156237824	16	28527
2026-01-20 10:33:41.85	101.64	14.03	-24.3	-41.8	4.3	8.41e-01	0	58	104	156237824	19	28276
2026-01-20 10:33:42.86	101.50	14.10	-36.7	-44.4	8.2	6.21e-02	0	58	0	157286400	45	8507
2026-01-20 10:33:43.87	101.36	14.18	-39.6	-47.3	6.2	3.16e-01	0	58	0	160432128	51	8419
2026-01-20 10:33:44.88	101.23	14.26	-36.2	-45.8	5.2	1.07e-01	0	58	0	165675008	35	17876
2026-01-20 10:33:45.89	101.09	14.34	-35.6	-42.8	9.1	3.87e-01	0	58	0	166723584	42	8377
2026-01-20 10:33:46.90	100.94	14.42	-36.5	-42.4	10.1	5.05e-02	0	58	0	173015040	44	7198
2026-01-20 10:33:47.91	100.80	14.50	-38.0	-42.4	9.8	3.20e-02	0	58	0	178257920	44	7160
2026-01-20 10:33:48.92	100.66	14.57	-37.8	-42.5	10.9	1.90e-02	0	58	0	184549376	48	5761
2026-01-20 10:33:49.93	100.52	14.65	-38.7	-42.4	11.4	2.70e-02	0	58	0	189792256	49	5344
2026-01-20 10:33:50.94	100.37	14.73	-38.0	-41.6	11.7	1.49e-02	0	58	0	195035136	47	5522
2026-01-20 10:33:51.95	100.23	14.81	-37.9	-40.9	12.7	4.20e-03	0	58	0	201326592	47	5045
2026-01-20 10:33:52.96	100.08	14.89	-38.4	-40.8	13.5	1.24e-03	0	58	0	206569472	47	5009
2026-01-20 10:33:53.97	99.94	14.97	-39.0	-41.6	12.9	2.53e-04	0	58	0	212860928	48	5165
2026-01-20 10:33:54.98	99.79	15.05	-38.3	-40.9	13.1	1.38e-03	0	58	0	218103808	47	5049
2026-01-20 10:33:55.99	99.64	15.13	-38.0	-40.3	14.0	2.83e-04	0	58	0	223346688	47	4710
2026-01-20 10:33:57.00	99.49	15.21	-38.2	-40.5	13.9	2.02e-04	0	58	0	229638144	46	5104
2026-01-20 10:33:58.01	99.34	15.29	-38.2	-40.5	13.9	1.21e-04	0	58	0	234881024	47	4826
2026-01-20 10:33:59.02	99.19	15.37	-37.9	-40.1	14.2	6.63e-05	0	58	0	241172480	47	4609
2026-01-20 10:34:00.03	99.04	15.44	-38.0	-40.2	14.1	2.40e-05	0	58	0	246415360	46	4959
2026-01-20 10:34:01.04	98.89	15.52	-38.0	-40.2	14.0	7.66e-05	0	58	0	251658240	46	4983
2026-01-20 10:34:02.05	98.74	15.60	-37.9	-40.2	13.9	1.28e-04	0	58	0	257949696	46	4963
2026-01-20 10:34:03.06	98.59	15.68	-37.9	-40.2	14.0	1.14e-04	0	58	0	263192576	46	4967
2026-01-20 10:34:04.07	98.43	15.76	-38.0	-40.3	14.1	2.95e-04	0	58	0	269484032	46	4991
2026-01-20 10:34:05.08	98.28	15.84	-37.9	-40.0	14.3	6.86e-05	0	58	0	274726912	46	4866
2026-01-20 10:34:06.09	98.12	15.92	-37.7	-40.0	14.2	1.03e-04	0	58	0	281018368	46	4835
2026-01-20 10:34:07.10	97.96	16.00	-37.7	-40.2	14.0	2.17e-04	0	58	0	286261248	46	4963
2026-01-20 10:34:08.11	97.81	16.08	-37.7	-40.0	14.2	4.92e-05	0	58	0	291504128	46	4859
2026-01-20 10:34:09.12	97.65	16.16	-37.8	-40.0	14.3	5.49e-05	0	58	0	297795584	46	4854
2026-01-20 10:34:10.13	97.49	16.24	-37.9	-40.1	14.3	3.77e-05	0	58	0	303038464	46	4902
2026-01-20 10:34:11.13	97.33	16.32	-37.8	-40.1	14.2	1.71e-05	0	58	0	309329920	46	4905
2026-01-20 10:34:12.14	97.17	16.40	-37.9	-40.1	14.4	2.20e-06	0	58	0	314572800	46	4885
2026-01-20 10:34:13.15	97.01	16.48	-37.4	-40.0	14.4	2.40e-05	0	58	0	319815680	46	4852
2026-01-20 10:34:14.16	96.84	16.56	-37.8	-39.9	14.6	1.14e-05	0	58	0	326107136	46	4802
2026-01-20 10:34:15.17	96.68	16.64	-37.8	-40.1	14.3	6.29e-05	0	58	0	331350016	46	4875
2026-01-20 10:34:16.18	96.52	16.72	-37.8	-40.1	14.4	3.40e-06	0	58	0	337641472	46	4881
2026-01-20 10:34:17.19	96.35	16.80	-37.7	-40.0	14.0	9.38e-05	0	58	0	342884352	46	4864
2026-01-20 10:34:18.20	96.18	16.88	-37.9	-40.2	14.3	4.69e-05	0	58	0	348127232	46	4940
2026-01-20 10:34:19.21	96.02	16.96	-37.9	-40.1	14.4	3.40e-06	0	58	0	354418688	46	4911
2026-01-20 10:34:20.22	95.85	17.04	-37.8	-39.9	14.5	1.94e-05	0	58	0	359661568	46	4807
2026-01-20 10:34:21.23	95.68	17.12	-37.7	-39.9	14.6	2.20e-06	0	58	0	365953024	46	4779
2026-01-20 10:34:22.24	95.51	17.20	-37.8	-39.9	14.7	2.20e-06	0	58	0	371195904	46	4781
2026-01-20 10:34:23.25	95.34	17.28	-37.7	-39.8	14.7	2.20e-06	0	58	0	377487360	46	4754
2026-01-20 10:34:24.26	95.17	17.36	-37.7	-39.8	14.8	1.10e-06	0	58	0	382730240	46	4712
2026-01-20 10:34:25.27	94.99	17.44	-37.7	-39.7	14.8	2.20e-06	0	58	0	389021696	46	4684
2026-01-20 10:34:26.28	94.82	17.52	-37.6	-39.6	14.9	0.00e+00	0	59	0	394264576	46	4633
2026-01-20 10:34:27.28	94.65	17.60	-37.6	-39.6	14.9	0.00e+00	0	58	0	399507456	46	4634
2026-01-20 10:34:28.30	94.47	17.68	-37.7	-39.8	14.8	0.00e+00	0	58	0	405798912	46	4708
2026-01-20 10:34:29.31	94.29	17.76	-37.7	-39.7	14.8	0.00e+00	0	58	0	411041792	46	4676
2026-01-20 10:34:30.32	94.12	17.84	-37.6	-39.6	15.0	0.00e+00	0	58	0	417333248	46	4621
2026-01-20 10:34:31.33	93.94	17.92	-37.6	-39.6	14.9	0.00e+00	0	58	0	422576128	46	4640
2026-01-20 10:34:32.34	93.76	18.00	-37.7	-39.7	14.8	0.00e+00	0	58	0	427819008	46	4692
2026-01-20 10:34:33.35	93.58	18.08	-37.6	-39.6	15.0	0.00e+00	0	58	0	434110464	46	4608
2026-01-20 10:34:34.36	93.40	18.16	-37.5	-39.5	15.0	0.00e+00	0	58	0	439353344	46	4569
2026-01-20 10:34:35.37	93.21	18.24	-37.5	-39.5	15.0	0.00e+00	0	58	0	445644800	46	4583
2026-01-20 10:34:36.38	93.03	18.32	-37.6	-39.6	14.9	0.00e+00	0	58	0	450887680	46	4616
2026-01-20 10:34:37.39	92.85	18.40	-37.6	-39.7	14.8	0.00e+00	0	58	0	456130560	46	4664
2026-01-20 10:34:38.40	92.66	18.48	-37.6	-39.7	14.8	1.10e-06	0	58	0	462422016	46	4672
2026-01-20 10:34:39.41	92.48	18.56	-37.7	-39.8	14.6	1.10e-06	0	58	0	467664896	46	4750
2026-01-20 10:34:40.42	92.29	18.64	-37.7	-39.8	14.6	1.10e-06	0	58	0	473956352	46	4717
2026-01-20 10:34:41.43	92.10	18.72	-37.7	-39.8	14.5	0.00e+00	0	58	0	479199232	46	4721
2026-01-20 10:34:42.44	91.91	18.80	-37.6	-39.7	14.5	2.20e-06	0	58	0	485490688	46	4672
2026-01-20 10:34:43.44	91.72	18.88	-37.5	-39.6	14.6	0.00e+00	0	58	0	490733568	46	4645
2026-01-20 10:34:44.45	91.53	18.96	-37.5	-39.6	14.6	0.00e+00	0	58	0	495976448	46	4624
2026-01-20 10:34:45.46	91.34	19.04	-37.6	-39.7	14.5	1.10e-06	0	58	0	502267904	46	4693
2026-01-20 10:34:46.47	91.15	19.12	-37.6	-39.7	14.4	0.00e+00	0	58	0	507510784	46	4700
2026-01-20 10:34:47.48	90.95	19.20	-37.5	-39.6	14.6	0.00e+00	0	58	0	513802240	46	4625
2026-01-20 10:34:48.49	90.76	19.28	-37.6	-39.7	14.5	0.00e+00	0	58	0	519045120	46	4664
2026-01-20 10:34:49.50	90.56	19.35	-37.6	-39.7	14.4	2.20e-06	0	59	0	524288000	46	4694
2026-01-20 10:34:50.51	90.36	19.43	-37.6	-39.7	14.4	2.20e-06	0	59	0	530579456	46	4682
2026-01-20 10:34:51.52	90.17	19.51	-37.6	-39.7	14.3	0.00e+00	0	58	0	535822336	46	4696
2026-01-20 10:34:52.54	89.97	19.59	-37.6	-39.8	14.3	1.10e-06	0	58	0	542113792	46	4710
2026-01-20 10:34:53.55	89.77	19.67	-37.5	-39.7	14.2	2.20e-06	0	59	0	547356672	46	4691
2026-01-20 10:34:54.56	89.56	19.75	-37.6	-39.8	14.1	1.10e-06	0	58	0	552599552	46	4709
2026-01-20 10:34:55.57	89.36	19.83	-37.7	-39.9	13.9	5.70e-06	0	58	0	558891008	46	4789
2026-01-20 10:34:56.58	89.16	19.90	-37.7	-39.9	13.8	3.40e-06	0	59	0	564133888	46	4800
2026-01-20 10:34:57.59	88.95	19.98	-37.6	-39.9	13.8	6.80e-06	0	58	0	570425344	46	4779
2026-01-20 10:34:58.59	88.75	20.06	-37.7	-40.0	13.8	9.10e-06	0	58	0	575668224	46	4816
2026-01-20 10:34:59.60	88.54	20.14	-37.7	-39.9	13.9	1.02e-05	0	58	0	581959680	46	4802
2026-01-20 10:35:00.61	88.34	20.22	-37.6	-39.8	14.0	8.00e-06	0	58	0	587202560	46	4740
2026-01-20 10:35:01.62	88.13	20.29	-37.6	-39.9	13.9	8.00e-06	0	58	0	593494016	46	4765
2026-01-20 10:35:02.64	87.92	20.37	-37.7	-40.0	13.8	6.80e-06	0	58	0	598736896	46	4838
2026-01-20 10:35:03.65	87.71	20.45	-37.7	-40.0	13.8	1.25e-05	0	58	0	603979776	46	4827
2026-01-20 10:35:04.66	87.49	20.52	-37.7	-40.0	13.8	1.02e-05	0	59	0	610271232	46	4833
2026-01-20 10:35:05.67	87.28	20.60	-37.7	-40.0	13.8	4.50e-06	0	58	0	615514112	46	4823
2026-01-20 10:35:06.68	87.07	20.68	-37.6	-39.9	13.9	5.70e-06	0	59	0	621805568	46	4764
2026-01-20 10:35:07.69	86.85	20.75	-37.6	-39.9	13.9	5.70e-06	0	59	0	627048448	46	4764
2026-01-20 10:35:08.70	86.64	20.83	-37.7	-39.9	13.8	6.80e-06	0	58	0	632291328	46	4811
2026-01-20 10:35:09.71	86.42	20.91	-37.6	-39.8	14.0	1.02e-05	0	58	0	638582784	46	4730
2026-01-20 10:35:10.72	86.20	20.98	-37.6	-39.8	14.0	4.50e-06	0	58	0	643825664	46	4738
2026-01-20 10:35:11.73	85.98	21.06	-37.7	-39.9	13.9	1.14e-05	0	59	0	650117120	46	4810
2026-01-20 10:35:12.74	85.76	21.13	-37.7	-39.9	14.0	4.50e-06	0	59	0	655360000	46	4807
2026-01-20 10:35:13.75	85.54	21.21	-37.7	-40.0	14.0	2.20e-06	0	59	0	660602880	46	4820
2026-01-20 10:35:14.76	85.32	21.28	-37.7	-39.9	14.0	8.00e-06	0	58	0	666894336	46	4803
2026-01-20 10:35:15.77	85.09	21.36	-37.7	-39.9	14.2	6.80e-06	0	58	0	672137216	46	4774
2026-01-20 10:35:16.78	84.87	21.43	-37.7	-39.9	14.2	0.00e+00	0	59	0	678428672	46	4780
2026-01-20 10:35:17.79	84.64	21.51	-37.6	-39.8	14.4	1.10e-06	0	58	0	683671552	46	4707
2026-01-20 10:35:18.80	84.41	21.58	-37.4	-39.4	14.7	1.10e-06	0	58	0	689963008	46	4541
2026-01-20 10:35:19.81	84.19	21.65	-37.1	-39.1	14.9	1.10e-06	0	58	0	695205888	46	4390
2026-01-20 10:35:20.82	83.96	21.73	-37.1	-39.1	15.0	1.10e-06	0	58	0	701497344	46	4355
2026-01-20 10:35:21.83	83.73	21.80	-37.1	-39.1	15.0	0.00e+00	0	58	0	706740224	46	4360
2026-01-20 10:35:22.84	83.50	21.87	-37.1	-39.0	15.1	1.10e-06	0	59	0	711983104	46	4338
2026-01-20 10:35:23.85	83.26	21.94	-37.1	-39.0	15.2	0.00e+00	0	59	0	718274560	46	4328
2026-01-20 10:35:24.86	83.03	22.02	-37.1	-39.0	15.3	0.00e+00	0	59	0	723517440	46	4328
2026-01-20 10:35:25.87	82.80	22.09	-37.1	-39.0	15.3	0.00e+00	0	59	0	729808896	46	4328
2026-01-20 10:35:26.88	82.56	22.16	-37.0	-39.0	15.4	0.00e+00	0	59	0	735051776	46	4300
2026-01-20 10:35:27.89	82.32	22.23	-37.1	-39.0	15.3	0.00e+00	0	59	0	740294656	46	4320
2026-01-20 10:35:28.90	82.09	22.30	-37.0	-38.9	15.5	0.00e+00	0	59	0	746586112	46	4281
2026-01-20 10:35:29.91	81.85	22.37	-37.0	-38.9	15.5	0.00e+00	0	59	0	751828992	46	4262
2026-01-20 10:35:30.92	81.61	22.44	-36.8	-38.6	15.7	0.00e+00	0	59	0	758120448	45	4381
2026-01-20 10:35:31.93	81.36	22.51	-36.8	-38.6	15.8	0.00e+00	0	59	0	763363328	45	4373
2026-01-20 10:35:32.94	81.12	22.58	-36.8	-38.7	15.7	0.00e+00	0	59	0	768606208	45	4409
2026-01-20 10:35:33.95	80.88	22.65	-36.9	-38.8	15.6	0.00e+00	0	59	0	774897664	45	4473
2026-01-20 10:35:34.96	80.64	22.72	-36.9	-38.7	15.7	0.00e+00	0	59	0	780140544	45	4438
2026-01-20 10:35:35.97	80.39	22.79	-36.9	-38.7	15.8	1.10e-06	0	59	0	786432000	45	4421
2026-01-20 10:35:36.98	80.14	22.86	-36.8	-38.7	15.8	0.00e+00	0	59	0	791674880	45	4407
2026-01-20 10:35:37.99	79.90	22.92	-36.8	-38.6	15.9	0.00e+00	0	59	0	797966336	45	4370
2026-01-20 10:35:39.00	79.65	22.99	-36.8	-38.7	15.9	0.00e+00	0	59	0	803209216	45	4393
2026-01-20 10:35:40.01	79.40	23.06	-36.9	-38.7	15.8	0.00e+00	0	59	0	808452096	45	4411
2026-01-20 10:35:41.02	79.15	23.12	-36.8	-38.6	16.0	0.00e+00	0	59	0	814743552	45	4352
2026-01-20 10:35:42.03	78.89	23.19	-36.7	-38.5	16.0	0.00e+00	0	59	0	819986432	45	4297
2026-01-20 10:35:43.04	78.64	23.26	-36.7	-38.4	16.0	0.00e+00	0	59	0	826277888	45	4284
2026-01-20 10:35:44.05	78.39	23.32	-36.7	-38.4	16.1	0.00e+00	0	59	0	831520768	45	4283
2026-01-20 10:35:45.05	78.13	23.39	-36.7	-38.4	16.1	0.00e+00	0	59	0	836763648	45	4284
2026-01-20 10:35:46.06	77.88	23.45	-36.7	-38.4	16.1	0.00e+00	0	59	0	843055104	45	4286
2026-01-20 10:35:47.08	77.62	23.51	-36.6	-38.4	16.2	0.00e+00	0	59	0	848297984	45	4254
2026-01-20 10:35:48.09	77.36	23.58	-36.6	-38.4	16.2	0.00e+00	0	59	0	854589440	45	4254
2026-01-20 10:35:49.10	77.10	23.64	-36.7	-38.5	16.1	0.00e+00	0	59	0	859832320	45	4304
2026-01-20 10:35:50.10	76.84	23.70	-36.8	-38.6	16.0	0.00e+00	0	59	0	865075200	45	4344
2026-01-20 10:35:51.11	76.58	23.76	-36.7	-38.5	16.1	0.00e+00	0	59	0	871366656	45	4316
2026-01-20 10:35:52.12	76.32	23.82	-36.8	-38.6	16.0	0.00e+00	0	59	0	876609536	45	4350
2026-01-20 10:35:53.14	76.05	23.89	-36.7	-38.6	16.0	0.00e+00	0	59	0	882900992	45	4346
2026-01-20 10:35:54.15	75.79	23.95	-36.7	-38.5	16.1	0.00e+00	0	59	0	888143872	45	4328
2026-01-20 10:35:55.16	75.52	24.01	-36.7	-38.6	16.1	0.00e+00	0	59	0	894435328	45	4343
2026-01-20 10:35:56.17	75.26	24.07	-36.7	-38.5	16.2	0.00e+00	0	59	0	899678208	45	4298
2026-01-20 10:35:57.18	74.99	24.12	-36.7	-38.4	16.3	0.00e+00	0	59	0	905969664	45	4263
2026-01-20 10:35:58.19	74.72	24.18	-36.6	-38.4	16.3	0.00e+00	0	59	0	911212544	45	4253
2026-01-20 10:35:59.20	74.45	24.24	-36.6	-38.3	16.4	0.00e+00	0	59	0	916455424	45	4204
2026-01-20 10:36:00.21	74.18	24.30	-36.6	-38.3	16.3	0.00e+00	0	59	0	922746880	45	4242
2026-01-20 10:36:01.22	73.91	24.35	-36.5	-38.2	16.5	0.00e+00	0	59	0	927989760	45	4171
2026-01-20 10:36:02.23	73.64	24.41	-36.5	-38.2	16.5	0.00e+00	0	59	0	934281216	45	4168
2026-01-20 10:36:03.24	73.36	24.46	-36.4	-38.1	16.6	0.00e+00	0	59	0	939524096	44	4380
2026-01-20 10:36:04.25	73.09	24.52	-36.4	-38.1	16.6	0.00e+00	0	59	0	944766976	44	4385
2026-01-20 10:36:05.26	72.81	24.57	-36.4	-38.1	16.6	0.00e+00	0	58	0	951058432	44	4375
2026-01-20 10:36:06.27	72.54	24.63	-36.5	-38.2	16.5	0.00e+00	0	59	0	956301312	44	4409
2026-01-20 10:36:07.28	72.26	24.68	-36.5	-38.2	16.5	0.00e+00	0	59	0	962592768	44	4429
2026-01-20 10:36:08.29	71.98	24.73	-36.5	-38.2	16.6	0.00e+00	0	59	0	967835648	44	4411
2026-01-20 10:36:09.30	71.70	24.78	-36.4	-38.1	16.6	0.00e+00	0	59	0	973078528	44	4383
2026-01-20 10:36:10.31	71.42	24.83	-36.4	-38.1	16.6	0.00e+00	0	59	0	979369984	44	4370
2026-01-20 10:36:11.32	71.14	24.88	-36.4	-38.1	16.7	0.00e+00	0	59	0	984612864	44	4375
2026-01-20 10:36:12.33	70.86	24.93	-36.4	-38.1	16.7	0.00e+00	0	59	0	990904320	44	4357
2026-01-20 10:36:13.34	70.58	24.98	-36.4	-38.0	16.7	0.00e+00	0	58	0	996147200	44	4324
2026-01-20 10:36:14.35	70.30	25.03	-36.3	-38.0	16.7	0.00e+00	0	59	0	1002438656	44	4324
2026-01-20 10:36:15.36	70.01	25.08	-36.5	-38.2	16.5	0.00e+00	0	59	0	1007681536	44	4431
2026-01-20 10:36:16.37	69.73	25.13	-36.6	-38.4	16.4	0.00e+00	0	59	0	1013972992	44	4500
2026-01-20 10:36:17.38	69.44	25.17	-36.6	-38.4	16.4	0.00e+00	0	59	0	1019215872	44	4527
2026-01-20 10:36:18.39	69.15	25.22	-36.7	-38.4	16.3	0.00e+00	0	59	0	1024458752	44	4538
2026-01-20 10:36:19.40	68.87	25.26	-36.6	-38.4	16.4	0.00e+00	0	59	0	1030750208	44	4507
2026-01-20 10:36:20.41	68.58	25.31	-36.7	-38.4	16.4	0.00e+00	0	59	0	1035993088	44	4540
2026-01-20 10:36:21.42	68.29	25.35	-36.6	-38.3	16.6	0.00e+00	0	59	0	1042284544	44	4451
2026-01-20 10:36:22.43	68.00	25.39	-36.5	-38.2	16.7	0.00e+00	0	59	0	1047527424	44	4396
2026-01-20 10:36:23.44	67.71	25.43	-36.5	-38.1	16.7	0.00e+00	0	59	0	1052770304	44	4387
2026-01-20 10:36:24.45	67.42	25.47	-36.4	-38.1	16.7	0.00e+00	0	59	0	1059061760	44	4373
2026-01-20 10:36:25.46	67.12	25.52	-36.4	-38.1	16.8	0.00e+00	0	59	0	1064304640	44	4346
2026-01-20 10:36:26.47	66.83	25.56	-36.3	-38.0	16.8	0.00e+00	0	59	0	1070596096	44	4323
2026-01-20 10:36:27.48	66.54	25.59	-36.4	-38.1	16.8	0.00e+00	0	59	0	1075838976	44	4345
2026-01-20 10:36:28.49	66.24	25.63	-36.4	-38.1	16.8	0.00e+00	0	59	0	1081081856	44	4344
2026-01-20 10:36:29.50	65.95	25.67	-36.4	-38.1	16.7	0.00e+00	0	59	0	1087373312	44	4374
2026-01-20 10:36:30.51	65.65	25.71	-36.5	-38.2	16.7	0.00e+00	0	59	0	1092616192	44	4412
2026-01-20 10:36:31.52	65.35	25.74	-36.5	-38.2	16.7	0.00e+00	0	59	0	1098907648	44	4399
2026-01-20 10:36:32.54	65.05	25.78	-36.5	-38.2	16.7	0.00e+00	0	59	0	1104150528	44	4393
2026-01-20 10:36:33.55	64.76	25.81	-36.6	-38.3	16.5	0.00e+00	0	59	0	1110441984	44	4462
2026-01-20 10:36:34.56	64.46	25.84	-36.6	-38.3	16.6	0.00e+00	0	59	0	1115684864	44	4462
2026-01-20 10:36:35.57	64.16	25.88	-36.5	-38.2	16.7	0.00e+00	0	59	0	1121976320	44	4407
2026-01-20 10:36:36.58	63.86	25.91	-36.5	-38.2	16.6	0.00e+00	0	59	0	1127219200	44	4439
2026-01-20 10:36:37.59	63.56	25.94	-36.5	-38.2	16.7	0.00e+00	0	59	0	1132462080	44	4414
2026-01-20 10:36:38.60	63.26	25.97	-36.5	-38.2	16.6	0.00e+00	0	59	0	1138753536	44	4441
2026-01-20 10:36:39.60	62.96	26.00	-36.4	-38.0	16.8	0.00e+00	0	59	0	1143996416	44	4329
2026-01-20 10:36:40.61	62.66	26.03	-36.4	-38.0	16.8	0.00e+00	0	59	0	1150287872	44	4337
2026-01-20 10:36:41.62	62.35	26.05	-36.5	-38.2	16.7	0.00e+00	0	59	0	1155530752	44	4405
2026-01-20 10:36:42.63	62.05	26.08	-36.6	-38.3	16.6	0.00e+00	0	59	0	1160773632	44	4460
2026-01-20 10:36:43.64	61.75	26.11	-36.6	-38.3	16.6	0.00e+00	0	59	0	1167065088	44	4471
2026-01-20 10:36:44.66	61.44	26.13	-36.7	-38.4	16.5	0.00e+00	0	59	0	1172307968	44	4509
2026-01-20 10:36:45.66	61.14	26.16	-36.7	-38.4	16.5	0.00e+00	0	59	0	1178599424	44	4528
2026-01-20 10:36:46.67	60.83	26.18	-36.7	-38.4	16.5	0.00e+00	0	59	0	1183842304	44	4543
2026-01-20 10:36:47.68	60.53	26.20	-36.7	-38.4	16.5	0.00e+00	0	59	0	1189085184	44	4526
2026-01-20 10:36:48.69	60.22	26.22	-36.7	-38.4	16.5	0.00e+00	0	59	0	1195376640	44	4514
2026-01-20 10:36:49.70	59.92	26.24	-36.6	-38.3	16.6	0.00e+00	0	59	0	1200619520	44	4491
2026-01-20 10:36:50.71	59.61	26.26	-36.4	-38.1	16.9	0.00e+00	0	59	0	1206910976	44	4345
2026-01-20 10:36:51.72	59.30	26.28	-36.3	-37.9	17.0	0.00e+00	0	59	0	1212153856	44	4286
2026-01-20 10:36:52.73	58.99	26.30	-36.3	-37.9	17.0	0.00e+00	0	59	0	1218445312	44	4269
2026-01-20 10:36:53.74	58.69	26.32	-36.2	-37.9	17.1	0.00e+00	0	59	0	1223688192	44	4246
2026-01-20 10:36:54.75	58.38	26.33	-36.2	-37.8	17.2	0.00e+00	0	59	0	1228931072	44	4212
2026-01-20 10:36:55.76	58.07	26.35	-36.1	-37.6	17.3	0.00e+00	0	59	0	1235222528	44	4137
2026-01-20 10:36:56.77	57.76	26.36	-35.8	-37.4	17.4	0.00e+00	0	59	0	1240465408	43	4246
2026-01-20 10:36:57.78	57.45	26.38	-35.8	-37.4	17.4	0.00e+00	0	59	0	1246756864	43	4272
2026-01-20 10:36:58.79	57.14	26.39	-35.9	-37.4	17.4	0.00e+00	0	59	0	1251999744	43	4286
2026-01-20 10:36:59.80	56.83	26.40	-35.9	-37.5	17.3	0.00e+00	0	59	0	1257242624	43	4294
2026-01-20 10:37:00.81	56.52	26.41	-36.0	-37.6	17.2	0.00e+00	0	59	0	1263534080	43	4363
2026-01-20 10:37:01.82	56.21	26.42	-36.1	-37.7	17.1	0.00e+00	0	59	0	1268776960	43	4426
2026-01-20 10:37:02.83	55.90	26.43	-36.3	-37.9	16.9	0.00e+00	0	59	0	1275068416	43	4542
2026-01-20 10:37:03.84	55.59	26.44	-36.3	-38.0	16.8	0.00e+00	0	59	0	1280311296	43	4575
2026-01-20 10:37:04.85	55.28	26.45	-36.4	-38.1	16.8	0.00e+00	0	59	0	1285554176	43	4611
2026-01-20 10:37:05.86	54.97	26.45	-36.2	-37.9	17.0	0.00e+00	0	59	0	1291845632	43	4502
2026-01-20 10:37:06.87	54.66	26.46	-36.2	-37.8	17.0	0.00e+00	0	59	0	1297088512	43	4480
2026-01-20 10:37:07.88	54.35	26.46	-36.2	-37.8	17.0	0.00e+00	0	59	0	1303379968	43	4478
2026-01-20 10:37:08.89	54.04	26.46	-36.1	-37.7	17.0	0.00e+00	0	59	0	1308622848	43	4440
2026-01-20 10:37:09.90	53.73	26.47	-36.0	-37.7	17.1	0.00e+00	0	59	0	1314914304	43	4398
2026-01-20 10:37:10.90	53.42	26.47	-36.1	-37.7	17.1	0.00e+00	0	59	0	1320157184	43	4401
2026-01-20 10:37:11.91	53.11	26.47	-36.1	-37.7	17.1	0.00e+00	0	59	0	1326448640	43	4424
2026-01-20 10:37:12.92	52.80	26.47	-36.1	-37.8	17.1	0.00e+00	0	59	0	1331691520	43	4444
2026-01-20 10:37:13.93	52.49	26.47	-35.9	-37.5	17.3	0.00e+00	0	59	0	1336934400	43	4319
2026-01-20 10:37:14.94	52.18	26.47	-35.8	-37.4	17.4	0.00e+00	0	59	0	1343225856	43	4270
2026-01-20 10:37:15.95	51.87	26.46	-35.9	-37.5	17.3	0.00e+00	0	59	0	1348468736	43	4324
2026-01-20 10:37:16.96	51.56	26.46	-36.1	-37.7	17.1	0.00e+00	0	59	0	1354760192	43	4416
2026-01-20 10:37:17.97	51.25	26.45	-36.2	-37.8	17.0	0.00e+00	0	59	0	1360003072	43	4476
2026-01-20 10:37:18.98	50.94	26.45	-36.2	-37.9	17.0	0.00e+00	0	59	0	1365245952	43	4494
2026-01-20 10:37:19.99	50.63	26.44	-36.2	-37.8	17.0	0.00e+00	0	59	0	1371537408	43	4466
2026-01-20 10:37:21.00	50.32	26.43	-36.2	-37.9	17.0	0.00e+00	0	59	0	1376780288	43	4503
2026-01-20 10:37:22.01	50.01	26.42	-36.3	-38.0	16.9	0.00e+00	0	59	0	1383071744	43	4560
2026-01-20 10:37:23.02	49.70	26.41	-36.3	-38.0	16.9	0.00e+00	0	59	0	1388314624	43	4558
2026-01-20 10:37:24.03	49.39	26.40	-36.3	-37.9	16.9	0.00e+00	0	59	0	1393557504	43	4537
2026-01-20 10:37:25.04	49.08	26.39	-36.4	-37.9	17.2	0.00e+00	0	59	0	1399848960	43	4541
2026-01-20 10:37:26.05	48.77	26.38	-36.4	-37.8	17.3	0.00e+00	0	59	0	1405091840	43	4492
2026-01-20 10:37:27.06	48.46	26.37	-36.3	-37.8	17.3	0.00e+00	0	59	0	1411383296	43	4467
2026-01-20 10:37:28.07	48.16	26.35	-36.3	-37.8	17.3	0.00e+00	0	59	0	1416626176	43	4463
2026-01-20 10:37:29.08	47.85	26.34	-36.4	-37.9	17.2	0.00e+00	0	59	0	1422917632	43	4511
2026-01-20 10:37:30.09	47.54	26.32	-36.4	-37.9	17.2	0.00e+00	0	59	0	1428160512	43	4515
2026-01-20 10:37:31.10	47.23	26.30	-36.3	-37.8	17.4	0.00e+00	0	59	0	1433403392	43	4457
2026-01-20 10:37:32.10	46.93	26.29	-36.1	-37.5	17.6	0.00e+00	0	59	0	1439694848	43	4319
2026-01-20 10:37:33.12	46.62	26.27	-36.0	-37.5	17.7	0.00e+00	0	59	0	1444937728	43	4297
2026-01-20 10:37:34.12	46.31	26.25	-36.1	-37.5	17.6	0.00e+00	0	59	0	1451229184	43	4338
2026-01-20 10:37:35.13	46.01	26.23	-36.3	-37.8	17.4	0.00e+00	0	59	0	1456472064	43	4443
2026-01-20 10:37:36.14	45.70	26.21	-36.3	-37.8	17.4	0.00e+00	0	59	0	1461714944	43	4451
2026-01-20 10:37:37.15	45.40	26.19	-36.4	-37.9	17.2	0.00e+00	0	59	0	1468006400	43	4525
2026-01-20 10:37:38.16	45.09	26.16	-36.5	-38.0	17.1	0.00e+00	0	59	0	1473249280	43	4570
2026-01-20 10:37:39.17	44.79	26.14	-36.5	-38.0	17.1	0.00e+00	0	59	0	1479540736	43	4589
2026-01-20 10:37:40.18	44.48	26.11	-36.4	-38.0	17.2	0.00e+00	0	59	0	1484783616	43	4549
2026-01-20 10:37:41.19	44.18	26.09	-36.5	-38.0	17.2	0.00e+00	0	59	0	1490026496	43	4554
2026-01-20 10:37:42.20	43.88	26.06	-36.5	-38.0	17.2	0.00e+00	0	59	0	1496317952	43	4563
2026-01-20 10:37:43.21	43.58	26.03	-36.4	-37.9	17.3	0.00e+00	0	59	0	1501560832	43	4530
2026-01-20 10:37:44.22	43.27	26.01	-36.2	-37.7	17.5	0.00e+00	0	59	0	1507852288	43	4417
2026-01-20 10:37:45.23	42.97	25.98	-36.1	-37.5	17.6	0.00e+00	0	59	0	1513095168	43	4326
2026-01-20 10:37:46.24	42.67	25.95	-36.0	-37.4	17.7	0.00e+00	0	59	0	1519386624	43	4278
2026-01-20 10:37:47.24	42.37	25.92	-36.0	-37.5	17.7	0.00e+00	0	59	0	1524629504	43	4304
2026-01-20 10:37:48.25	42.08	25.89	-36.1	-37.5	17.6	0.00e+00	0	59	0	1529872384	43	4334
2026-01-20 10:37:49.26	41.78	25.85	-36.1	-37.6	17.6	0.00e+00	0	59	0	1536163840	43	4356
2026-01-20 10:37:50.28	41.48	25.82	-36.2	-37.7	17.5	0.00e+00	0	59	0	1541406720	43	4409
2026-01-20 10:37:51.29	41.18	25.79	-36.2	-37.7	17.4	0.00e+00	0	59	0	1547698176	43	4421
2026-01-20 10:37:52.30	40.88	25.75	-36.3	-37.8	17.4	0.00e+00	0	59	0	1552941056	43	4451
2026-01-20 10:37:53.31	40.58	25.72	-36.2	-37.7	17.5	0.00e+00	0	59	0	1558183936	43	4415
2026-01-20 10:37:54.31	40.29	25.68	-36.3	-37.7	17.4	0.00e+00	0	59	0	1564475392	43	4430
2026-01-20 10:37:55.32	40.00	25.64	-36.3	-37.8	17.4	0.00e+00	0	59	0	1569718272	43	4449
2026-01-20 10:37:56.33	39.70	25.60	-36.2	-37.7	17.5	0.00e+00	0	59	0	1576009728	43	4397
2026-01-20 10:37:57.34	39.41	25.57	-36.3	-37.7	17.4	0.00e+00	0	59	0	1581252608	43	4438
2026-01-20 10:37:58.35	39.12	25.53	-36.3	-37.8	17.3	0.00e+00	0	59	0	1586495488	43	4473
2026-01-20 10:37:59.36	38.82	25.49	-36.4	-37.9	17.3	0.00e+00	0	59	0	1592786944	43	4498
2026-01-20 10:38:00.38	38.53	25.45	-36.4	-37.9	17.3	0.00e+00	0	59	0	1598029824	43	4519
2026-01-20 10:38:01.39	38.24	25.40	-36.5	-38.0	17.2	0.00e+00	0	59	0	1604321280	43	4587
2026-01-20 10:38:02.40	37.95	25.36	-36.5	-38.0	17.2	0.00e+00	0	59	0	1609564160	43	4551
2026-01-20 10:38:03.40	37.66	25.32	-36.5	-38.0	17.2	0.00e+00	0	59	0	1615855616	43	4551
2026-01-20 10:38:04.41	37.38	25.27	-36.6	-38.1	17.1	0.00e+00	0	59	0	1621098496	43	4614
2026-01-20 10:38:05.42	37.09	25.23	-36.5	-37.9	17.2	0.00e+00	0	59	0	1627389952	43	4540
2026-01-20 10:38:06.43	36.80	25.19	-36.4	-37.9	17.3	0.00e+00	0	59	0	1632632832	43	4496
2026-01-20 10:38:07.44	36.52	25.14	-36.2	-37.6	17.5	0.00e+00	0	59	0	1637875712	43	4384
2026-01-20 10:38:08.45	36.23	25.09	-36.2	-37.6	17.5	0.00e+00	0	59	0	1644167168	43	4367
2026-01-20 10:38:09.46	35.95	25.05	-36.2	-37.6	17.5	0.00e+00	0	59	0	1649410048	43	4380
2026-01-20 10:38:10.47	35.66	25.00	-36.2	-37.6	17.5	0.00e+00	0	59	0	1655701504	43	4385
2026-01-20 10:38:11.48	35.38	24.95	-36.2	-37.6	17.6	0.00e+00	0	59	0	1660944384	43	4369
2026-01-20 10:38:12.49	35.10	24.90	-36.2	-37.6	17.5	0.00e+00	0	59	0	1666187264	43	4378
2026-01-20 10:38:13.50	34.82	24.85	-36.2	-37.7	17.5	0.00e+00	0	59	0	1672478720	43	4415
2026-01-20 10:38:14.51	34.54	24.80	-36.2	-37.6	17.5	0.00e+00	0	59	0	1677721600	43	4390
2026-01-20 10:38:15.52	34.26	24.75	-36.2	-37.7	17.5	0.00e+00	0	59	0	1684013056	43	4400
2026-01-20 10:38:16.53	33.99	24.70	-36.3	-37.7	17.4	0.00e+00	0	59	0	1689255936	43	4437
2026-01-20 10:38:17.54	33.71	24.64	-36.3	-37.8	17.4	0.00e+00	0	59	0	1694498816	43	4465
2026-01-20 10:38:18.55	33.43	24.59	-36.3	-37.8	17.3	0.00e+00	0	59	0	1700790272	43	4470
2026-01-20 10:38:19.56	33.16	24.54	-36.4	-37.9	17.3	0.00e+00	0	59	0	1706033152	43	4499
2026-01-20 10:38:20.57	32.88	24.48	-36.3	-37.8	17.3	0.00e+00	0	59	0	1712324608	43	4482
2026-01-20 10:38:21.58	32.61	24.43	-36.4	-37.9	17.3	0.00e+00	0	59	0	1717567488	43	4502
2026-01-20 10:38:22.59	32.34	24.37	-36.3	-37.8	17.3	0.00e+00	0	59	0	1723858944	43	4478
2026-01-20 10:38:23.60	32.07	24.31	-36.3	-37.8	17.3	0.00e+00	0	59	0	1729101824	43	4476
2026-01-20 10:38:24.61	31.80	24.26	-36.3	-37.8	17.3	0.00e+00	0	59	0	1734344704	43	4484
2026-01-20 10:38:25.62	31.53	24.20	-36.4	-37.9	17.2	0.00e+00	0	59	0	1740636160	43	4506
2026-01-20 10:38:26.63	31.26	24.14	-36.4	-37.9	17.2	0.00e+00	0	59	0	1745879040	43	4545
2026-01-20 10:38:27.63	31.00	24.09	-36.4	-37.9	17.2	0.00e+00	0	59	0	1752170496	43	4523
2026-01-20 10:38:28.64	30.73	24.03	-36.4	-37.9	17.3	0.00e+00	0	59	0	1757413376	43	4505
2026-01-20 10:38:29.65	30.47	23.97	-36.4	-37.8	17.3	0.00e+00	0	59	0	1762656256	43	4490
2026-01-20 10:38:30.66	30.20	23.91	-36.5	-38.0	17.2	0.00e+00	0	59	0	1768947712	43	4562
2026-01-20 10:38:31.67	29.94	23.85	-36.6	-38.1	17.0	0.00e+00	0	59	0	1774190592	43	4623
2026-01-20 10:38:32.68	29.68	23.79	-36.6	-38.1	17.0	0.00e+00	0	59	0	1780482048	43	4623
2026-01-20 10:38:33.69	29.42	23.72	-36.5	-38.0	17.1	0.00e+00	0	59	0	1785724928	43	4559
2026-01-20 10:38:34.70	29.16	23.66	-36.4	-37.9	17.2	0.00e+00	0	59	0	1790967808	43	4529
2026-01-20 10:38:35.72	28.90	23.60	-36.5	-38.0	17.1	0.00e+00	0	59	0	1797259264	43	4548
2026-01-20 10:38:36.73	28.64	23.54	-36.5	-38.0	17.1	0.00e+00	0	59	0	1802502144	43	4566
2026-01-20 10:38:37.74	28.38	23.47	-36.5	-38.1	17.0	0.00e+00	0	59	0	1808793600	43	4611
2026-01-20 10:38:38.74	28.13	23.41	-36.6	-38.1	17.0	0.00e+00	0	59	0	1814036480	43	4630
2026-01-20 10:38:39.75	27.87	23.35	-36.6	-38.1	17.0	0.00e+00	0	60	0	1819279360	43	4627
2026-01-20 10:38:40.76	27.62	23.28	-36.6	-38.1	17.0	0.00e+00	0	59	0	1825570816	43	4624
2026-01-20 10:38:41.78	27.37	23.21	-36.6	-38.2	16.9	0.00e+00	0	59	0	1830813696	43	4663
2026-01-20 10:38:42.79	27.11	23.15	-36.5	-38.0	17.1	0.00e+00	0	59	0	1837105152	43	4588
2026-01-20 10:38:43.79	26.87	23.08	-36.4	-37.9	17.2	0.00e+00	0	59	0	1842348032	43	4505
2026-01-20 10:38:44.80	26.62	23.02	-36.3	-37.8	17.3	0.00e+00	0	59	0	1848639488	43	4454
2026-01-20 10:38:45.81	26.37	22.95	-36.4	-37.9	17.2	0.00e+00	0	59	0	1853882368	43	4509
2026-01-20 10:38:46.82	26.12	22.88	-36.4	-37.9	17.2	0.00e+00	0	59	0	1860173824	43	4502
2026-01-20 10:38:47.83	25.88	22.82	-36.4	-37.9	17.2	0.00e+00	0	59	0	1865416704	43	4519
2026-01-20 10:38:48.84	25.63	22.75	-36.5	-38.0	17.1	0.00e+00	0	59	0	1870659584	43	4577
2026-01-20 10:38:49.85	25.39	22.68	-36.6	-38.1	17.0	0.00e+00	0	59	0	1876951040	43	4626
2026-01-20 10:38:50.86	25.14	22.61	-36.6	-38.2	16.9	0.00e+00	0	59	0	1882193920	43	4674
2026-01-20 10:38:51.87	24.90	22.54	-36.6	-38.2	16.9	0.00e+00	0	59	0	1888485376	43	4676
2026-01-20 10:38:52.88	24.66	22.47	-36.7	-38.2	16.9	0.00e+00	0	59	0	1893728256	43	4697
2026-01-20 10:38:53.89	24.42	22.40	-36.7	-38.2	16.9	0.00e+00	0	59	0	1898971136	43	4685
2026-01-20 10:38:54.90	24.18	22.33	-36.6	-38.2	16.9	0.00e+00	0	59	0	1905262592	43	4674
2026-01-20 10:38:55.91	23.95	22.26	-36.6	-38.2	16.9	0.00e+00	0	59	0	1910505472	43	4675
2026-01-20 10:38:56.92	23.71	22.19	-36.6	-38.1	17.0	0.00e+00	0	59	0	1916796928	43	4619
2026-01-20 10:38:57.93	23.48	22.12	-36.6	-38.2	16.9	0.00e+00	0	59	0	1922039808	43	4654
2026-01-20 10:38:58.94	23.24	22.05	-36.6	-38.1	16.9	0.00e+00	0	59	0	1927282688	43	4634
2026-01-20 10:38:59.95	23.01	21.98	-36.7	-38.2	16.8	0.00e+00	0	59	0	1933574144	43	4703
2026-01-20 10:39:00.95	22.78	21.90	-36.9	-38.5	16.8	0.00e+00	0	59	0	1938817024	44	4559
2026-01-20 10:39:01.97	22.55	21.83	-37.0	-38.6	16.7	0.00e+00	0	59	0	1945108480	44	4601
2026-01-20 10:39:02.98	22.32	21.76	-37.0	-38.6	16.6	0.00e+00	0	59	0	1950351360	44	4626
2026-01-20 10:39:03.99	22.09	21.69	-37.1	-38.7	16.5	0.00e+00	0	59	0	1956642816	44	4655
2026-01-20 10:39:04.99	21.86	21.61	-37.1	-38.7	16.6	0.00e+00	0	59	0	1961885696	44	4657
2026-01-20 10:39:06.01	21.64	21.54	-37.0	-38.6	16.6	0.00e+00	0	59	0	1967128576	44	4643
2026-01-20 10:39:07.02	21.41	21.46	-37.1	-38.7	16.5	0.00e+00	0	59	0	1973420032	44	4701
2026-01-20 10:39:08.03	21.19	21.39	-37.2	-38.8	16.4	0.00e+00	0	59	0	1978662912	45	4478
2026-01-20 10:39:09.04	20.96	21.32	-37.2	-38.8	16.4	0.00e+00	0	59	0	1984954368	45	4462
2026-01-20 10:39:10.04	20.74	21.24	-37.1	-38.7	16.4	0.00e+00	0	59	0	1990197248	45	4441
2026-01-20 10:39:11.06	20.52	21.17	-37.2	-38.8	16.4	0.00e+00	0	59	0	1995440128	45	4454
2026-01-20 10:39:12.06	20.30	21.09	-37.1	-38.7	16.4	0.00e+00	0	59	0	2001731584	45	4438
2026-01-20 10:39:13.07	20.08	21.02	-37.2	-38.8	16.3	0.00e+00	0	59	0	2006974464	45	4477
2026-01-20 10:39:14.08	19.87	20.94	-37.3	-39.0	16.2	0.00e+00	0	59	0	2013265920	45	4550
2026-01-20 10:39:15.09	19.65	20.87	-37.3	-39.0	16.2	0.00e+00	0	59	0	2018508800	45	4560
2026-01-20 10:39:16.10	19.43	20.79	-37.3	-39.0	16.1	0.00e+00	0	59	0	2023751680	45	4579
2026-01-20 10:39:17.11	19.22	20.71	-37.4	-39.0	16.1	0.00e+00	0	59	0	2030043136	45	4596
2026-01-20 10:39:18.12	19.01	20.64	-37.3	-39.0	16.2	0.00e+00	0	59	0	2035286016	45	4567
2026-01-20 10:39:19.14	18.79	20.56	-37.4	-39.0	16.1	0.00e+00	0	59	0	2041577472	45	4593
2026-01-20 10:39:20.14	18.58	20.49	-37.3	-39.0	16.1	0.00e+00	0	59	0	2046820352	45	4577
2026-01-20 10:39:21.16	18.37	20.41	-37.4	-39.0	16.1	0.00e+00	0	59	0	2053111808	45	4591
2026-01-20 10:39:22.17	18.16	20.33	-37.3	-39.0	16.1	0.00e+00	0	59	0	2058354688	45	4568
2026-01-20 10:39:23.18	17.95	20.25	-37.3	-39.0	16.2	0.00e+00	0	59	0	2064646144	45	4562
2026-01-20 10:39:24.19	17.75	20.18	-37.3	-38.9	16.2	0.00e+00	0	59	0	2069889024	45	4542
2026-01-20 10:39:25.20	17.54	20.10	-37.3	-39.0	16.1	0.00e+00	0	59	0	2075131904	45	4583
2026-01-20 10:39:26.20	17.34	20.02	-37.3	-39.0	16.1	0.00e+00	0	59	0	2081423360	45	4582
2026-01-20 10:39:27.21	17.13	19.95	-37.3	-39.0	16.1	0.00e+00	0	59	0	2086666240	45	4562
2026-01-20 10:39:28.23	16.93	19.87	-37.2	-38.9	16.2	0.00e+00	0	59	0	2092957696	45	4499
2026-01-20 10:39:29.24	16.73	19.79	-37.1	-38.8	16.3	0.00e+00	0	59	0	2098200576	45	4444
2026-01-20 10:39:30.25	16.53	19.71	-37.0	-38.7	16.5	0.00e+00	0	59	0	2103443456	45	4395
2026-01-20 10:39:31.25	16.33	19.63	-37.1	-38.7	16.4	0.00e+00	0	59	0	2109734912	45	4435
2026-01-20 10:39:32.26	16.13	19.55	-37.2	-38.8	16.2	0.00e+00	0	59	0	2114977792	45	4492
2026-01-20 10:39:33.27	15.93	19.48	-37.3	-39.0	16.1	0.00e+00	0	59	0	2121269248	45	4569
2026-01-20 10:39:34.28	15.74	19.40	-37.5	-39.1	16.0	0.00e+00	0	59	0	2126512128	45	4640
2026-01-20 10:39:35.29	15.54	19.32	-37.6	-39.3	15.9	0.00e+00	0	59	0	2131755008	45	4710
2026-01-20 10:39:36.30	15.35	19.24	-37.5	-39.2	16.0	0.00e+00	0	59	0	2138046464	45	4659
2026-01-20 10:39:37.31	15.15	19.16	-37.4	-39.1	16.0	0.00e+00	0	59	0	2143289344	45	4632
2026-01-20 10:39:38.32	14.96	19.08	-37.5	-39.2	15.9	0.00e+00	0	59	0	2149580800	45	4681
2026-01-20 10:39:39.33	14.77	19.00	-37.5	-39.2	15.9	0.00e+00	0	59	0	2154823680	45	4659
2026-01-20 10:39:40.34	14.58	18.92	-37.5	-39.2	15.8	0.00e+00	0	59	0	2161115136	45	4699
2026-01-20 10:39:41.35	14.39	18.85	-37.4	-39.1	16.0	0.00e+00	0	59	0	2166358016	45	4641
2026-01-20 10:39:42.36	14.20	18.77	-37.3	-39.0	16.1	0.00e+00	0	59	0	2172649472	45	4554
2026-01-20 10:39:43.37	14.01	18.69	-37.3	-38.9	16.1	0.00e+00	0	59	0	2177892352	45	4537
2026-01-20 10:39:44.39	13.83	18.61	-37.3	-39.0	16.1	0.00e+00	0	59	0	2183135232	45	4559
2026-01-20 10:39:45.40	13.64	18.53	-37.2	-38.9	16.2	0.00e+00	0	59	0	2189426688	45	4509
2026-01-20 10:39:46.41	13.46	18.45	-37.3	-38.9	16.1	0.00e+00	0	59	0	2194669568	45	4542
2026-01-20 10:39:47.41	13.27	18.37	-37.4	-39.1	16.0	0.00e+00	0	59	0	2200961024	45	4616
2026-01-20 10:39:48.42	13.09	18.29	-37.5	-39.2	15.9	0.00e+00	0	59	0	2206203904	45	4672
2026-01-20 10:39:49.43	12.91	18.21	-37.6	-39.3	15.7	0.00e+00	0	59	0	2211446784	45	4724
2026-01-20 10:39:50.44	12.73	18.13	-37.6	-39.3	15.7	0.00e+00	0	59	0	2217738240	45	4743
2026-01-20 10:39:51.45	12.55	18.05	-37.7	-39.4	15.6	0.00e+00	0	59	0	2222981120	45	4800
2026-01-20 10:39:52.46	12.37	17.97	-37.7	-39.4	15.6	0.00e+00	0	59	0	2228224000	46	4542
2026-01-20 10:39:53.47	12.19	17.89	-37.7	-39.5	15.5	0.00e+00	0	59	0	2234515456	46	4575
2026-01-20 10:39:54.48	12.02	17.81	-37.8	-39.6	15.4	0.00e+00	0	59	0	2239758336	46	4602
2026-01-20 10:39:55.49	11.84	17.73	-37.7	-39.5	15.5	0.00e+00	0	59	0	2246049792	46	4565
2026-01-20 10:39:56.50	11.67	17.65	-37.7	-39.5	15.5	0.00e+00	0	59	0	2251292672	46	4557
2026-01-20 10:39:57.51	11.49	17.57	-37.8	-39.5	15.5	0.00e+00	0	59	0	2257584128	46	4580
2026-01-20 10:39:58.52	11.32	17.49	-37.8	-39.6	15.4	0.00e+00	0	59	0	2262827008	46	4612
2026-01-20 10:39:59.54	11.15	17.41	-37.9	-39.7	15.2	0.00e+00	0	59	0	2269118464	46	4695
2026-01-20 10:40:00.55	10.98	17.33	-38.0	-39.8	15.1	0.00e+00	0	59	0	2274361344	46	4728
2026-01-20 10:40:01.56	10.81	17.25	-38.0	-39.8	15.1	0.00e+00	0	59	0	2279604224	46	4758
2026-01-20 10:40:02.57	10.64	17.17	-38.0	-39.8	15.1	0.00e+00	0	59	0	2285895680	46	4753
2026-01-20 10:40:03.57	10.47	17.09	-38.0	-39.8	15.0	0.00e+00	0	59	0	2291138560	46	4756
2026-01-20 10:40:04.58	10.30	17.01	-38.0	-39.8	15.0	0.00e+00	0	59	0	2297430016	46	4751
2026-01-20 10:40:05.59	10.14	16.93	-37.9	-39.8	15.0	0.00e+00	0	59	0	2302672896	46	4742
2026-01-20 10:40:06.60	9.97	16.85	-37.9	-39.8	15.0	0.00e+00	0	59	0	2307915776	46	4719
2026-01-20 10:40:07.61	9.80	16.77	-37.9	-39.8	15.1	0.00e+00	0	59	0	2314207232	46	4712
2026-01-20 10:40:08.62	9.64	16.69	-37.9	-39.7	15.1	0.00e+00	0	59	0	2319450112	46	4690
2026-01-20 10:40:09.63	9.48	16.61	-37.9	-39.7	15.1	0.00e+00	0	59	0	2325741568	46	4669
2026-01-20 10:40:10.64	9.32	16.53	-37.9	-39.8	15.0	0.00e+00	0	59	0	2330984448	46	4742
2026-01-20 10:40:11.65	9.15	16.46	-38.0	-39.9	14.9	0.00e+00	0	59	0	2336227328	46	4764
2026-01-20 10:40:12.66	8.99	16.38	-38.0	-39.9	14.9	0.00e+00	0	59	0	2342518784	46	4780
2026-01-20 10:40:13.66	8.84	16.30	-37.9	-39.8	15.0	0.00e+00	0	59	0	2347761664	46	4730
2026-01-20 10:40:14.68	8.68	16.22	-37.9	-39.8	14.9	2.20e-06	0	59	0	2354053120	46	4747
2026-01-20 10:40:15.69	8.52	16.14	-37.9	-39.8	14.9	0.00e+00	0	59	0	2359296000	46	4747
2026-01-20 10:40:16.70	8.36	16.06	-38.0	-39.9	14.8	0.00e+00	0	59	0	2365587456	46	4781
2026-01-20 10:40:17.71	8.21	15.98	-38.0	-40.0	14.7	0.00e+00	0	59	0	2370830336	46	4824
2026-01-20 10:40:18.72	8.05	15.90	-38.1	-40.1	14.6	0.00e+00	0	59	0	2377121792	46	4879
2026-01-20 10:40:19.73	7.90	15.82	-38.0	-39.9	14.6	0.00e+00	0	59	0	2382364672	46	4809
2026-01-20 10:40:20.74	7.74	15.74	-38.1	-40.0	14.5	0.00e+00	0	59	0	2387607552	46	4852
2026-01-20 10:40:21.75	7.59	15.66	-38.1	-40.2	14.4	4.50e-06	0	59	0	2393899008	46	4937
2026-01-20 10:40:22.75	7.44	15.58	-38.2	-40.2	14.3	3.40e-06	0	59	0	2399141888	46	4948
2026-01-20 10:40:23.77	7.29	15.50	-38.1	-40.2	14.3	3.40e-06	0	59	0	2405433344	47	4663
2026-01-20 10:40:24.77	7.14	15.42	-38.2	-40.3	14.1	6.80e-06	0	59	0	2410676224	47	4728
2026-01-20 10:40:25.78	6.99	15.34	-38.2	-40.3	14.1	2.20e-06	0	59	0	2415919104	47	4723
2026-01-20 10:40:26.79	6.84	15.27	-38.0	-40.1	14.2	0.00e+00	0	59	0	2422210560	47	4617
2026-01-20 10:40:27.80	6.69	15.19	-38.2	-40.2	14.0	3.40e-06	0	59	0	2427453440	47	4702
2026-01-20 10:40:28.81	6.55	15.11	-38.2	-40.3	14.0	4.50e-06	0	59	0	2433744896	47	4706
2026-01-20 10:40:29.82	6.40	15.03	-38.2	-40.4	13.9	3.40e-06	0	59	0	2438987776	47	4764
2026-01-20 10:40:30.83	6.25	14.95	-38.1	-40.2	14.0	5.70e-06	0	59	0	2444230656	47	4691
2026-01-20 10:40:31.84	6.11	14.87	-38.2	-40.4	13.8	5.70e-06	0	59	0	2450522112	47	4769
2026-01-20 10:40:32.85	5.97	14.79	-38.3	-40.4	13.7	1.37e-05	0	59	0	2455764992	47	4795
2026-01-20 10:40:33.86	5.82	14.71	-38.2	-40.4	13.7	8.00e-06	0	59	0	2462056448	47	4782
2026-01-20 10:40:34.87	5.68	14.64	-38.3	-40.5	13.6	9.10e-06	0	59	0	2467299328	47	4816
2026-01-20 10:40:35.88	5.54	14.56	-38.3	-40.5	13.5	1.83e-05	0	59	0	2473590784	47	4846
2026-01-20 10:40:36.89	5.40	14.48	-38.3	-40.5	13.5	1.60e-05	0	59	0	2478833664	47	4847
2026-01-20 10:40:37.90	5.26	14.40	-38.2	-40.5	13.5	1.71e-05	0	59	0	2484076544	47	4820
2026-01-20 10:40:38.91	5.12	14.32	-38.3	-40.7	13.2	3.08e-05	0	59	0	2490368000	47	4936
2026-01-20 10:40:39.92	4.98	14.24	-38.4	-40.8	12.9	6.29e-05	0	59	0	2495610880	47	4995
2026-01-20 10:40:40.93	4.84	14.17	-38.2	-40.6	13.1	7.78e-05	0	59	0	2501902336	47	4882
2026-01-20 10:40:41.94	4.70	14.09	-38.1	-40.5	13.1	4.23e-05	0	59	0	2507145216	47	4815
2026-01-20 10:40:42.95	4.57	14.01	-38.1	-40.4	13.1	6.29e-05	0	59	0	2512388096	47	4799
2026-01-20 10:40:43.96	4.43	13.93	-37.9	-40.2	13.2	2.51e-05	0	59	0	2518679552	47	4682
2026-01-20 10:40:44.97	4.30	13.85	-37.8	-40.1	13.3	3.54e-05	0	59	0	2523922432	47	4618
2026-01-20 10:40:45.98	4.16	13.78	-37.6	-39.8	13.5	3.31e-05	0	59	0	2530213888	47	4478
2026-01-20 10:40:46.98	4.03	13.70	-37.6	-39.9	13.3	2.28e-05	0	60	0	2535456768	47	4503
2026-01-20 10:40:47.99	3.90	13.62	-37.7	-40.0	13.1	3.08e-05	0	59	0	2540699648	47	4582
2026-01-20 10:40:49.00	3.77	13.55	-38.1	-40.7	12.3	1.36e-04	0	59	0	2546991104	47	4932
2026-01-20 10:40:50.01	3.64	13.47	-38.3	-41.1	11.7	6.50e-04	0	59	0	2552233984	47	5195
2026-01-20 10:40:51.02	3.51	13.39	-38.7	-41.8	10.9	1.78e-03	0	59	0	2558525440	47	5653
2026-01-20 10:40:52.03	3.38	13.31	-39.4	-43.1	9.5	1.52e-02	0	59	0	2563768320	49	5807
2026-01-20 10:40:53.04	3.25	13.24	-39.7	-43.8	8.7	3.39e-02	0	59	0	2570059776	49	6280
2026-01-20 10:40:54.04	3.12	13.16	-40.1	-45.0	7.4	8.09e-02	0	59	0	2575302656	50	6818
2026-01-20 10:40:55.05	2.99	13.08	-40.4	-46.1	6.2	2.69e-01	0	59	0	2580545536	51	7359
2026-01-20 10:40:56.06	2.86	13.01	-40.6	-47.0	5.5	4.35e-01	0	59	0	2585788416	51	8147
2026-01-20 10:40:57.07	2.74	12.93	-40.8	-48.3	4.7	7.79e-01	0	59	0	2586836992	52	8868
2026-01-20 10:40:58.08	2.61	12.86	-41.0	-49.6	4.2	8.30e-01	0	59	0	2586836992	52	10331
2026-01-20 10:40:59.09	2.49	12.78	-41.0	-50.2	4.0	8.43e-01	0	59	104	2586836992	52	11075
2026-01-20 10:41:00.10	2.36	12.70	-40.9	-51.4	3.8	8.47e-01	0	59	104	2586836992	52	12687
2026-01-20 10:41:01.11	2.24	12.63	-41.5	-51.3	3.8	8.43e-01	0	59	104	2586836992	53	11878
2026-01-20 10:41:02.12	2.12	12.55	-40.4	-52.1	3.8	8.46e-01	0	59	104	2586836992	52	13856
2026-01-20 10:41:03.13	1.99	12.47	-41.1	-52.6	3.8	8.45e-01	0	59	104	2586836992	52	14573
2026-01-20 10:41:04.14	1.87	12.40	-42.0	-53.1	3.8	8.46e-01	0	59	104	2586836992	54	13852
2026-01-20 10:41:05.15	1.75	12.32	-41.4	-52.5	3.8	8.46e-01	0	59	104	2586836992	54	12839
2026-01-20 10:41:06.16	1.63	12.25	-41.4	-52.4	3.8	8.46e-01	0	59	104	2586836992	54	12682
2026-01-20 10:41:07.17	1.51	12.17	-41.3	-52.5	3.8	8.47e-01	0	59	104	2586836992	54	12931
2026-01-20 10:41:08.17	1.39	12.10	-41.2	-52.6	3.8	8.46e-01	0	59	104	2586836992	54	12985
2026-01-20 10:41:09.19	1.27	12.02	-41.0	-52.6	3.8	8.46e-01	0	59	104	2586836992	54	12963
2026-01-20 10:41:10.20	1.15	11.95	-40.2	-51.9	3.8	8.47e-01	0	59	104	2586836992	52	13470
2026-01-20 10:41:11.21	1.04	11.87	-40.0	-51.8	3.8	8.47e-01	0	59	104	2586836992	52	13329
2026-01-20 10:41:12.21	0.92	11.80	-40.3	-52.0	3.8	8.46e-01	0	59	104	2586836992	52	13677
2026-01-20 10:41:13.22	0.80	11.72	-40.0	-51.8	3.8	8.46e-01	0	59	104	2586836992	52	13348
2026-01-20 10:41:14.23	0.69	11.65	-40.0	-51.8	3.8	8.45e-01	0	59	104	2586836992	52	13299
2026-01-20 10:41:15.24	0.57	11.57	-40.0	-51.8	3.8	8.47e-01	0	60	104	2586836992	51	14169
2026-01-20 10:41:16.25	0.46	11.50	-40.0	-51.8	3.8	8.46e-01	0	59	104	2586836992	51	14091
2026-01-20 10:41:17.26	0.34	11.42	-40.1	-51.9	3.8	8.45e-01	0	59	104	2586836992	51	14327
2026-01-20 10:41:18.27	0.23	11.35	-40.5	-52.3	3.8	8.45e-01	0	59	104	2586836992	52	14170
2026-01-20 10:41:19.28	0.12	11.28	-39.9	-51.9	3.8	8.47e-01	0	59	104	2586836992	51	14227
2026-01-20 10:41:20.29	0.01	11.20	-40.1	-51.9	3.8	8.46e-01	0	59	104	2586836992	51	14287
2026-01-20 10:41:21.30	359.90	11.13	-40.0	-51.8	3.8	8.46e-01	0	59	104	2586836992	51	14168
2026-01-20 10:41:22.31	359.78	11.05	-40.0	-51.8	3.8	8.46e-01	0	59	104	2586836992	51	14148
2026-01-20 10:41:23.32	359.67	10.98	-39.9	-51.8	3.8	8.48e-01	0	59	104	2586836992	51	14153
2026-01-20 10:41:24.33	359.56	10.91	-39.7	-51.7	3.8	8.46e-01	0	59	104	2586836992	51	14030
2026-01-20 10:41:25.33	359.46	10.83	-39.9	-51.8	3.8	8.46e-01	0	60	104	2586836992	51	14165
2026-01-20 10:41:26.34	359.35	10.76	-40.1	-52.1	3.8	8.47e-01	0	59	104	2586836992	51	14638
2026-01-20 10:41:27.35	359.24	10.69	-39.7	-51.8	3.8	8.45e-01	0	59	104	2586836992	51	14117
2026-01-20 10:41:28.36	359.13	10.61	-40.2	-52.1	3.8	8.46e-01	0	59	104	2586836992	51	14565
2026-01-20 10:41:29.37	359.03	10.54	-39.9	-52.0	3.8	8.47e-01	0	59	104	2586836992	51	14396
2026-01-20 10:41:30.38	358.92	10.47	-39.5	-51.7	3.8	8.47e-01	0	59	104	2586836992	51	14027
2026-01-20 10:41:31.39	358.81	10.40	-39.6	-51.8	3.8	8.46e-01	0	59	104	2586836992	51	14064
2026-01-20 10:41:32.40	358.71	10.32	-39.9	-51.9	3.8	8.46e-01	0	59	104	2586836992	51	14349
2026-01-20 10:41:33.41	358.60	10.25	-39.7	-51.9	3.8	8.46e-01	0	59	104	2586836992	51	14214
2026-01-20 10:41:34.42	358.50	10.18	-39.7	-51.7	3.8	8.47e-01	0	59	104	2586836992	51	13981
2026-01-20 10:41:35.43	358.40	10.11	-39.7	-51.7	3.8	8.47e-01	0	59	104	2586836992	51	14017
2026-01-20 10:41:36.44	358.29	10.03	-39.7	-51.9	3.8	8.46e-01	0	59	104	2586836992	51	14211
2026-01-20 10:41:37.45	358.19	9.96	-39.7	-51.8	3.8	8.45e-01	0	59	104	2586836992	51	14204
2026-01-20 10:41:38.46	358.09	9.89	-39.6	-51.7	3.8	8.47e-01	0	59	104	2586836992	51	13912
2026-01-20 10:41:39.47	357.99	9.82	-39.5	-51.7	3.8	8.46e-01	0	59	104	2586836992	50	14788
2026-01-20 10:41:40.48	357.89	9.75	-39.7	-51.8	3.8	8.46e-01	0	59	104	2586836992	50	15038
2026-01-20 10:41:41.49	357.78	9.67	-39.6	-51.8	3.8	8.46e-01	0	59	104	2586836992	50	14884
2026-01-20 10:41:42.50	357.68	9.60	-39.4	-51.7	3.8	8.46e-01	0	59	104	2586836992	50	14770
2026-01-20 10:41:43.51	357.59	9.53	-39.4	-51.7	3.8	8.47e-01	0	59	104	2586836992	50	14761
2026-01-20 10:41:44.52	357.49	9.46	-39.6	-51.8	3.8	8.46e-01	0	59	104	2586836992	50	14926
2026-01-20 10:41:45.53	357.39	9.39	-39.4	-51.7	3.8	8.48e-01	0	59	104	2586836992	50	14775
2026-01-20 10:41:46.54	357.29	9.32	-39.4	-51.7	3.8	8.46e-01	0	59	104	2586836992	50	14751
2026-01-20 10:41:47.55	357.19	9.25	-39.3	-51.7	3.8	8.47e-01	0	59	104	2586836992	50	14792
2026-01-20 10:41:48.55	357.10	9.18	-39.4	-51.8	3.8	8.46e-01	0	59	104	2586836992	50	14889
2026-01-20 10:41:49.56	357.00	9.11	-39.4	-51.7	3.8	8.46e-01	0	59	104	2586836992	50	14795
2026-01-20 10:41:50.57	356.90	9.04	-39.4	-51.6	3.8	8.47e-01	0	59	104	2586836992	50	14682
2026-01-20 10:41:51.58	356.81	8.97	-39.5	-51.7	3.8	8.47e-01	0	59	104	2586836992	50	14759
2026-01-20 10:41:52.59	356.71	8.90	-39.5	-51.7	3.8	8.47e-01	0	59	104	2586836992	50	14772
2026-01-20 10:41:53.60	356.62	8.83	-39.5	-51.7	3.8	8.46e-01	0	59	104	2586836992	50	14758
2026-01-20 10:41:54.61	356.52	8.76	-39.5	-51.7	3.8	8.46e-01	0	59	104	2586836992	50	14736
2026-01-20 10:41:55.62	356.43	8.69	-39.6	-51.6	3.8	8.46e-01	0	59	104	2586836992	50	14677
2026-01-20 10:41:56.63	356.34	8.62	-39.6	-51.7	3.8	8.46e-01	0	59	104	2586836992	50	14739
2026-01-20 10:41:57.64	356.24	8.55	-39.5	-51.7	3.8	8.46e-01	0	59	104	2586836992	50	14734
2026-01-20 10:41:58.65	356.15	8.48	-39.6	-51.7	3.8	8.47e-01	0	59	104	2586836992	50	14716
2026-01-20 10:41:59.66	356.06	8.41	-39.5	-51.6	3.8	8.47e-01	0	59	104	2586836992	50	14659
2026-01-20 10:42:00.67	355.97	8.34	-39.7	-51.7	3.8	8.46e-01	0	59	104	2586836992	50	14761
2026-01-20 10:42:01.67	355.88	8.27	-39.6	-51.7	3.8	8.46e-01	0	59	104	2586836992	50	14727
2026-01-20 10:42:02.68	355.79	8.20	-39.8	-51.7	3.8	8.46e-01	0	59	104	2586836992	50	14778
2026-01-20 10:42:03.69	355.70	8.13	-39.5	-51.6	3.8	8.46e-01	0	59	104	2586836992	50	14680
2026-01-20 10:42:04.70	355.61	8.06	-39.7	-51.7	3.8	8.47e-01	0	59	104	2586836992	50	14855
2026-01-20 10:42:05.71	355.52	8.00	-39.9	-51.9	3.8	8.46e-01	0	59	104	2586836992	50	15167
2026-01-20 10:42:06.72	355.43	7.93	-42.9	-54.6	3.8	8.45e-01	0	60	104	2586836992	56	14603
2026-01-20 10:42:07.73	355.34	7.86	-44.2	-55.8	3.8	8.45e-01	0	59	104	2586836992	59	14164
2026-01-20 10:42:08.74	355.25	7.79	-44.7	-56.5	3.8	8.46e-01	0	60	104	2586836992	60	14539
2026-01-20 10:42:09.75	355.17	7.72	-45.0	-56.8	3.8	8.46e-01	0	59	104	2586836992	60	14941
2026-01-20 10:42:10.76	355.08	7.65	-45.1	-56.9	3.8	8.45e-01	0	60	104	2586836992	60	15136
2026-01-20 10:42:11.78	354.99	7.58	-45.2	-57.0	3.8	8.46e-01	0	59	104	2586836992	60	15235
2026-01-20 10:42:12.79	354.91	7.52	-45.2	-57.0	3.8	8.46e-01	0	59	104	2586836992	60	15237
2026-01-20 10:42:13.80	354.82	7.45	-45.2	-57.0	3.8	8.46e-01	0	59	104	2586836992	60	15269
2026-01-20 10:42:14.81	354.74	7.38	-45.2	-57.0	3.8	8.47e-01	0	60	104	2586836992	60	15237
2026-01-20 10:42:15.82	354.65	7.31	-45.2	-57.0	3.8	8.45e-01	0	59	104	2586836992	60	15242
2026-01-20 10:42:16.83	354.57	7.25	-45.1	-56.9	3.8	8.46e-01	0	59	104	2586836992	60	15077
2026-01-20 10:42:17.84	354.48	7.18	-45.1	-56.8	3.8	8.45e-01	0	59	104	2586836992	60	15034
2026-01-20 10:42:18.85	354.40	7.11	-45.1	-56.9	3.8	8.47e-01	0	59	104	2586836992	60	15060
2026-01-20 10:42:19.86	354.31	7.05	-45.1	-56.8	3.8	8.47e-01	0	59	104	2586836992	60	14957
2026-01-20 10:42:20.87	354.23	6.98	-45.0	-56.8	3.8	8.47e-01	0	60	104	2586836992	60	14947
2026-01-20 10:42:21.88	354.15	6.91	-44.9	-56.8	3.8	8.46e-01	0	60	104	2586836992	60	14907
2026-01-20 10:42:22.89	354.07	6.85	-45.1	-56.7	3.8	8.46e-01	0	59	104	2586836992	60	14850
2026-01-20 10:42:23.90	353.99	6.78	-45.1	-56.8	3.8	8.46e-01	0	59	104	2586836992	60	14888
2026-01-20 10:42:24.91	353.90	6.71	-44.6	-56.8	3.8	8.46e-01	0	59	104	2586836992	60	14905
2026-01-20 10:42:25.92	353.82	6.65	-45.1	-56.7	3.8	8.46e-01	0	59	104	2586836992	60	14859
