passes_logs/2026/01/20/R2.0S_Moscow/R2.0S_Moscow__20260120_095155_NOAA_20_JPSS-1_rec.log

#Pass ID: 20260120_095155_NOAA 20 (JPSS-1)
#Satellite: NOAA 20 (JPSS-1)
#Configuration: NOAA 20
#almurnet v.1.7.20251203
#Start time: 2026-01-20 09:51:56

#Version: 2.2.20231116
#Station: R2.0S_Moscow
#Location: 37.707566 lon 55.798166 lat
#TLE: 1 43013U 17073A   26019.55911981  .00000079  00000+0  58510-4 0  9994
#TLE: 2 43013  98.7641 320.4504 0001323  32.6518 327.4739 14.19537050423380

#Time	Az	El	Level	Level2	SNR	BER	BlckErr	Temp	State	Recorded	gain1	gain2
2026-01-20 09:51:56.25	158.93	2.05	-44.0	-58.5	3.8	1.49e+00	0	51	0	0	59	19310
2026-01-20 09:51:57.25	158.93	2.11	-43.9	-58.5	3.8	1.49e+00	0	52	104	0	59	19371
2026-01-20 09:51:58.26	158.93	2.18	-43.9	-58.5	3.8	1.49e+00	0	52	104	0	59	19317
2026-01-20 09:51:59.27	158.93	2.24	-43.9	-58.5	3.8	1.49e+00	0	52	104	0	59	19333
2026-01-20 09:52:00.29	158.93	2.31	-43.9	-58.5	3.8	1.49e+00	0	52	104	0	59	19361
2026-01-20 09:52:01.30	158.93	2.37	-43.9	-58.5	3.8	1.49e+00	0	52	104	0	59	19299
2026-01-20 09:52:02.31	158.93	2.44	-43.9	-58.5	3.8	1.49e+00	0	52	104	0	59	19340
2026-01-20 09:52:03.32	158.93	2.50	-43.9	-58.5	3.8	1.49e+00	0	52	104	0	59	19333
2026-01-20 09:52:04.33	158.93	2.57	-43.9	-58.5	3.8	1.49e+00	0	52	104	0	59	19337
2026-01-20 09:52:05.34	158.93	2.64	-43.9	-58.5	3.8	1.49e+00	0	52	104	0	59	19269
2026-01-20 09:52:06.35	158.93	2.70	-43.9	-58.5	3.8	1.49e+00	0	52	104	0	59	19341
2026-01-20 09:52:07.36	158.93	2.77	-43.9	-58.5	3.8	1.49e+00	0	52	104	0	59	19298
2026-01-20 09:52:08.37	158.93	2.84	-43.9	-58.5	3.8	1.49e+00	0	52	104	0	59	19369
2026-01-20 09:52:09.38	158.93	2.90	-43.9	-58.5	3.8	1.49e+00	0	53	104	0	59	19322
2026-01-20 09:52:10.39	158.93	2.97	-43.9	-58.5	3.8	1.49e+00	0	53	104	0	59	19337
2026-01-20 09:52:11.40	158.93	3.04	-43.9	-58.5	3.8	1.49e+00	0	53	104	0	59	19281
2026-01-20 09:52:12.41	158.93	3.11	-43.9	-58.5	3.8	1.49e+00	0	53	104	0	59	19326
2026-01-20 09:52:13.42	158.93	3.17	-43.9	-58.6	3.8	1.49e+00	0	53	104	0	59	19394
2026-01-20 09:52:14.43	158.93	3.24	-43.9	-58.5	3.8	1.49e+00	0	53	104	0	59	19347
2026-01-20 09:52:15.45	158.93	3.31	-43.9	-58.5	3.8	1.49e+00	0	53	104	0	59	19294
2026-01-20 09:52:16.46	158.93	3.38	-43.9	-58.5	3.8	1.49e+00	0	53	104	0	59	19375
2026-01-20 09:52:17.47	158.93	3.45	-43.9	-58.5	3.8	1.49e+00	0	53	104	0	59	19378
2026-01-20 09:52:18.48	158.92	3.52	-43.9	-58.5	3.8	1.49e+00	0	53	104	0	59	19336
2026-01-20 09:52:19.49	158.92	3.59	-43.9	-58.5	3.8	1.49e+00	0	53	104	0	59	19303
2026-01-20 09:52:20.50	158.92	3.65	-43.9	-58.5	3.8	1.49e+00	0	53	104	0	59	19345
2026-01-20 09:52:21.51	158.92	3.72	-43.9	-58.5	3.8	1.49e+00	0	53	104	0	59	19329
2026-01-20 09:52:22.52	158.92	3.79	-43.9	-58.5	3.8	1.49e+00	0	53	104	0	59	19338
2026-01-20 09:52:23.53	158.92	3.86	-43.9	-58.5	3.8	1.49e+00	0	53	104	0	59	19368
2026-01-20 09:52:24.54	158.92	3.93	-43.9	-58.5	3.8	1.49e+00	0	54	104	0	59	19337
2026-01-20 09:52:25.55	158.92	4.00	-43.9	-58.5	3.8	1.49e+00	0	53	104	0	59	19283
2026-01-20 09:52:26.56	158.92	4.07	-43.9	-58.5	3.8	1.49e+00	0	54	104	0	59	19274
2026-01-20 09:52:27.57	158.92	4.14	-43.9	-58.5	3.8	1.49e+00	0	54	104	0	59	19283
2026-01-20 09:52:28.58	158.92	4.21	-43.9	-58.5	3.8	1.49e+00	0	54	104	0	59	19313
2026-01-20 09:52:29.59	158.92	4.28	-43.9	-58.5	3.8	1.49e+00	0	54	104	0	59	19368
2026-01-20 09:52:30.60	158.92	4.35	-43.9	-58.5	3.8	1.49e+00	0	54	104	0	59	19288
2026-01-20 09:52:31.61	158.92	4.42	-43.9	-58.5	3.8	1.49e+00	0	54	104	0	59	19306
2026-01-20 09:52:32.63	158.92	4.50	-43.9	-58.5	3.8	1.49e+00	0	54	104	0	59	19334
2026-01-20 09:52:33.64	158.92	4.57	-43.9	-58.5	3.8	1.49e+00	0	54	104	0	59	19279
2026-01-20 09:52:34.65	158.92	4.64	-43.9	-58.5	3.8	1.49e+00	0	54	104	0	59	19231
2026-01-20 09:52:35.66	158.92	4.71	-43.9	-58.5	3.8	1.49e+00	0	54	104	0	59	19230
2026-01-20 09:52:36.67	158.92	4.78	-43.9	-58.5	3.8	1.49e+00	0	54	104	0	59	19273
2026-01-20 09:52:37.68	158.91	4.85	-43.9	-58.5	3.8	1.49e+00	0	54	104	0	59	19218
2026-01-20 09:52:38.69	158.91	4.93	-43.9	-58.4	3.8	1.49e+00	0	54	104	0	59	19159
2026-01-20 09:52:39.70	158.91	5.00	-43.9	-58.4	3.8	1.49e+00	0	54	104	0	59	19135
2026-01-20 09:52:40.71	158.91	5.07	-43.9	-58.5	3.8	1.49e+00	0	54	104	0	59	19191
2026-01-20 09:52:41.72	158.91	5.14	-43.9	-58.5	3.8	1.49e+00	0	54	104	0	59	19180
2026-01-20 09:52:42.73	158.91	5.22	-43.9	-58.4	3.8	1.49e+00	0	54	104	0	59	19080
2026-01-20 09:52:43.74	158.91	5.29	-43.9	-58.4	3.8	1.49e+00	0	54	104	0	59	19009
2026-01-20 09:52:44.75	158.91	5.36	-43.9	-58.3	3.8	1.49e+00	0	54	104	0	59	18812
2026-01-20 09:52:45.76	158.91	5.44	-43.9	-58.2	3.8	1.49e+00	0	55	104	0	59	18662
2026-01-20 09:52:46.77	158.91	5.51	-43.9	-58.1	3.8	1.49e+00	0	55	104	0	59	18383
2026-01-20 09:52:47.78	158.91	5.59	-43.9	-57.8	3.8	1.49e+00	0	54	104	0	59	17775
2026-01-20 09:52:48.79	158.91	5.66	-43.9	-57.5	3.8	1.49e+00	0	55	104	0	59	17281
2026-01-20 09:52:49.80	158.90	5.73	-43.8	-57.3	3.8	1.49e+00	0	55	104	0	59	16801
2026-01-20 09:52:50.82	158.90	5.81	-43.8	-57.2	3.8	1.49e+00	0	55	104	0	59	16545
2026-01-20 09:52:51.83	158.90	5.89	-43.8	-56.9	3.8	1.49e+00	0	55	104	0	59	16042
2026-01-20 09:52:52.84	158.90	5.96	-43.8	-56.8	3.8	1.49e+00	0	55	104	0	59	15840
2026-01-20 09:52:53.85	158.90	6.04	-43.8	-56.6	3.8	1.49e+00	0	55	104	0	59	15477
2026-01-20 09:52:54.86	158.90	6.11	-43.8	-56.4	3.8	1.49e+00	0	55	104	0	59	15144
2026-01-20 09:52:55.87	158.90	6.19	-43.8	-56.2	3.8	1.48e+00	0	55	104	0	59	14721
2026-01-20 09:52:56.88	158.90	6.26	-43.8	-56.3	3.9	1.48e+00	0	55	104	0	59	14918
2026-01-20 09:52:57.89	158.90	6.34	-43.8	-56.2	3.9	1.49e+00	0	55	104	0	59	14760
2026-01-20 09:52:58.90	158.90	6.42	-43.8	-56.3	3.8	1.48e+00	0	55	104	0	59	14951
2026-01-20 09:52:59.91	158.90	6.49	-43.8	-56.4	3.9	1.48e+00	0	55	104	0	59	15206
2026-01-20 09:53:00.92	158.89	6.57	-43.8	-56.6	3.8	1.49e+00	0	55	104	0	59	15546
2026-01-20 09:53:01.93	158.89	6.65	-43.8	-57.1	3.8	1.49e+00	0	55	104	0	59	16425
2026-01-20 09:53:02.94	158.89	6.72	-43.9	-57.4	3.8	1.49e+00	0	55	104	0	59	17058
2026-01-20 09:53:03.95	158.89	6.80	-43.9	-57.9	3.8	1.49e+00	0	55	104	0	59	17932
2026-01-20 09:53:04.96	158.89	6.88	-43.9	-58.0	3.8	1.49e+00	0	55	104	0	59	18269
2026-01-20 09:53:05.97	158.89	6.96	-43.9	-58.3	3.8	1.49e+00	0	55	104	0	59	18821
2026-01-20 09:53:06.99	158.89	7.04	-43.9	-58.2	3.8	1.49e+00	0	55	104	0	59	18632
2026-01-20 09:53:08.00	158.89	7.12	-43.9	-57.8	3.8	1.49e+00	0	55	104	0	59	17839
2026-01-20 09:53:09.01	158.88	7.19	-43.8	-57.0	3.8	1.49e+00	0	56	104	0	59	16243
2026-01-20 09:53:10.02	158.88	7.27	-43.8	-56.1	3.8	1.49e+00	0	55	104	0	59	14629
2026-01-20 09:53:11.03	158.88	7.35	-43.7	-55.2	4.1	1.47e+00	0	56	0	0	59	13163
2026-01-20 09:53:12.04	158.88	7.43	-43.6	-54.1	4.5	1.29e+00	26	56	0	0	59	11616
2026-01-20 09:53:13.05	158.88	7.51	-43.5	-53.3	4.8	8.60e-01	0	55	0	2097152	59	10597
2026-01-20 09:53:14.06	158.88	7.59	-43.4	-52.4	5.3	6.50e-01	0	56	0	4194304	58	10118
2026-01-20 09:53:15.07	158.88	7.67	-43.3	-51.7	5.8	4.11e-01	0	56	0	5242880	58	9290
2026-01-20 09:53:16.08	158.88	7.75	-43.1	-51.0	6.3	2.75e-01	0	56	0	7340032	58	8599
2026-01-20 09:53:17.09	158.87	7.83	-43.1	-50.5	6.8	2.26e-01	0	56	0	9437184	58	8140
2026-01-20 09:53:18.10	158.87	7.91	-43.0	-50.2	7.0	1.85e-01	0	56	0	11534336	58	7841
2026-01-20 09:53:19.11	158.87	8.00	-42.9	-50.0	7.2	1.26e-01	0	56	0	13631488	57	8124
2026-01-20 09:53:20.12	158.87	8.08	-42.9	-49.8	7.4	1.12e-01	0	56	0	14680064	57	7954
2026-01-20 09:53:21.13	158.87	8.16	-44.2	-58.5	3.8	8.61e-01	0	56	104	15728640	58	20316
2026-01-20 09:53:22.14	158.87	8.24	-44.1	-57.3	3.8	1.49e+00	0	56	104	15728640	58	17839
2026-01-20 09:53:23.15	158.87	8.32	-43.7	-57.1	3.8	7.40e-01	0	56	104	15728640	58	17395
2026-01-20 09:53:24.16	158.86	8.41	-43.8	-55.5	3.9	1.46e+00	0	56	104	15728640	58	14444
2026-01-20 09:53:25.17	158.86	8.49	-43.1	-50.5	6.8	1.51e-01	0	56	0	15728640	57	8605
2026-01-20 09:53:26.18	158.86	8.57	-42.9	-49.6	7.7	1.04e-01	0	56	0	17825792	57	7728
2026-01-20 09:53:27.19	158.86	8.66	-42.9	-49.7	7.6	9.69e-02	0	56	0	19922944	57	7853
2026-01-20 09:53:28.20	158.86	8.74	-42.8	-49.5	7.7	7.90e-02	0	56	0	22020096	57	7715
2026-01-20 09:53:29.21	158.86	8.82	-42.9	-49.7	7.6	8.37e-02	0	56	0	24117248	57	7840
2026-01-20 09:53:30.22	158.85	8.91	-42.9	-49.6	7.7	9.53e-02	0	56	0	25165824	57	7746
2026-01-20 09:53:31.23	158.85	8.99	-42.8	-49.3	8.0	6.73e-02	0	56	0	27262976	57	7517
2026-01-20 09:53:32.24	158.85	9.08	-42.8	-49.2	8.1	6.09e-02	0	56	0	29360128	57	7446
2026-01-20 09:53:33.25	158.85	9.16	-42.8	-49.3	8.0	6.99e-02	0	56	0	31457280	57	7480
2026-01-20 09:53:34.26	158.85	9.25	-42.8	-49.2	8.1	6.51e-02	0	56	0	33554432	57	7456
2026-01-20 09:53:35.27	158.84	9.34	-42.9	-49.4	7.9	6.71e-02	0	56	0	34603008	57	7588
2026-01-20 09:53:36.28	158.84	9.42	-42.9	-49.3	8.0	7.12e-02	0	56	0	36700160	57	7508
2026-01-20 09:53:37.29	158.84	9.51	-42.8	-49.0	8.4	5.38e-02	0	56	0	38797312	57	7218
2026-01-20 09:53:38.30	158.84	9.59	-42.8	-48.9	8.5	4.21e-02	0	57	0	40894464	57	7128
2026-01-20 09:53:39.30	158.84	9.68	-42.8	-48.9	8.5	4.22e-02	0	57	0	42991616	57	7155
2026-01-20 09:53:40.31	158.83	9.77	-42.8	-48.9	8.5	4.25e-02	0	57	0	44040192	57	7159
2026-01-20 09:53:41.32	158.83	9.86	-42.8	-48.9	8.6	3.98e-02	0	57	0	46137344	57	7167
2026-01-20 09:53:42.33	158.83	9.94	-42.8	-48.7	8.7	3.52e-02	0	56	0	48234496	57	7036
2026-01-20 09:53:43.34	158.83	10.03	-42.8	-48.9	8.6	3.72e-02	0	57	0	50331648	57	7142
2026-01-20 09:53:44.35	158.83	10.12	-42.9	-48.8	8.7	3.55e-02	0	57	0	52428800	57	7103
2026-01-20 09:53:45.36	158.82	10.21	-42.8	-48.7	8.8	3.08e-02	0	57	0	54525952	57	7020
2026-01-20 09:53:46.37	158.82	10.30	-42.8	-48.8	8.7	3.05e-02	0	57	0	55574528	57	7064
2026-01-20 09:53:47.38	158.82	10.39	-42.8	-48.7	8.8	3.38e-02	0	57	0	57671680	57	7020
2026-01-20 09:53:48.39	158.82	10.48	-42.8	-48.6	9.0	2.63e-02	0	57	0	59768832	57	6954
2026-01-20 09:53:49.40	158.82	10.57	-42.8	-48.7	9.0	3.02e-02	0	57	0	61865984	57	6960
2026-01-20 09:53:50.41	158.81	10.66	-42.9	-48.7	8.9	2.62e-02	0	57	0	63963136	57	6980
2026-01-20 09:53:51.41	158.81	10.75	-42.9	-48.6	9.1	2.37e-02	0	57	0	65011712	57	6913
2026-01-20 09:53:52.42	158.81	10.84	-42.9	-48.8	8.9	2.64e-02	0	57	0	67108864	57	7051
2026-01-20 09:53:53.43	158.81	10.93	-42.9	-48.7	9.0	2.66e-02	0	57	0	69206016	57	6964
2026-01-20 09:53:54.44	158.80	11.02	-42.9	-48.5	9.1	2.29e-02	0	57	0	71303168	57	6851
2026-01-20 09:53:55.45	158.80	11.12	-42.9	-48.5	9.2	2.20e-02	0	57	0	72351744	57	6855
2026-01-20 09:53:56.46	158.80	11.21	-42.8	-48.4	9.3	2.06e-02	0	57	0	74448896	57	6768
2026-01-20 09:53:57.47	158.80	11.30	-42.8	-48.4	9.3	1.70e-02	0	57	0	76546048	57	6758
2026-01-20 09:53:58.48	158.79	11.39	-42.9	-48.4	9.3	1.70e-02	0	57	0	78643200	57	6762
2026-01-20 09:53:59.49	158.79	11.49	-42.8	-48.3	9.4	1.77e-02	0	57	0	80740352	57	6680
2026-01-20 09:54:00.50	158.79	11.58	-42.8	-48.3	9.4	1.64e-02	0	57	0	82837504	57	6722
2026-01-20 09:54:01.51	158.79	11.68	-42.8	-48.3	9.4	1.70e-02	0	57	0	83886080	57	6695
2026-01-20 09:54:02.52	158.78	11.77	-42.9	-48.3	9.5	1.47e-02	0	57	0	85983232	57	6690
2026-01-20 09:54:03.53	158.78	11.87	-42.8	-48.3	9.5	1.57e-02	0	57	0	88080384	57	6649
2026-01-20 09:54:04.54	158.78	11.96	-42.8	-48.2	9.6	1.40e-02	0	57	0	90177536	57	6605
2026-01-20 09:54:05.55	158.78	12.06	-42.8	-48.1	9.7	1.21e-02	0	57	0	92274688	57	6562
2026-01-20 09:54:06.56	158.77	12.15	-42.8	-48.2	9.6	1.18e-02	0	57	0	93323264	57	6602
2026-01-20 09:54:07.57	158.77	12.25	-42.8	-48.1	9.7	1.09e-02	0	57	0	95420416	57	6540
2026-01-20 09:54:08.58	158.77	12.35	-42.9	-48.2	9.6	1.18e-02	0	57	0	97517568	57	6607
2026-01-20 09:54:09.58	158.76	12.44	-42.8	-48.1	9.7	1.17e-02	0	57	0	99614720	57	6538
2026-01-20 09:54:10.59	158.76	12.54	-42.8	-48.1	9.7	1.09e-02	0	57	0	101711872	57	6536
2026-01-20 09:54:11.60	158.76	12.64	-42.8	-48.1	9.7	1.14e-02	0	57	0	102760448	57	6546
2026-01-20 09:54:12.61	158.76	12.74	-42.8	-47.9	9.9	1.09e-02	0	57	0	104857600	57	6417
2026-01-20 09:54:13.62	158.75	12.84	-42.8	-47.9	10.0	8.11e-03	0	57	0	106954752	57	6394
2026-01-20 09:54:14.63	158.75	12.94	-42.8	-47.9	10.0	7.61e-03	0	57	0	109051904	57	6374
2026-01-20 09:54:15.64	158.75	13.04	-42.8	-47.9	10.0	8.24e-03	0	57	0	111149056	57	6358
2026-01-20 09:54:16.65	158.74	13.14	-42.8	-47.9	10.0	7.45e-03	0	58	0	112197632	57	6407
2026-01-20 09:54:17.66	158.74	13.24	-42.8	-47.9	10.0	7.22e-03	0	57	0	114294784	57	6387
2026-01-20 09:54:18.66	158.74	13.34	-42.8	-47.9	10.0	6.85e-03	0	57	0	116391936	57	6377
2026-01-20 09:54:19.67	158.73	13.44	-42.8	-47.9	10.0	7.52e-03	0	57	0	118489088	57	6396
2026-01-20 09:54:20.68	158.73	13.54	-42.8	-47.9	10.0	8.37e-03	0	58	0	120586240	57	6372
2026-01-20 09:54:21.69	158.73	13.64	-42.7	-47.7	10.2	6.04e-03	0	58	0	121634816	57	6243
2026-01-20 09:54:22.70	158.72	13.75	-42.7	-47.7	10.3	5.05e-03	0	58	0	123731968	57	6203
2026-01-20 09:54:23.71	158.72	13.85	-42.7	-47.6	10.3	4.91e-03	0	57	0	125829120	57	6177
2026-01-20 09:54:24.72	158.72	13.95	-42.7	-47.7	10.3	5.42e-03	0	58	0	127926272	57	6222
2026-01-20 09:54:25.73	158.71	14.06	-42.7	-47.6	10.4	5.37e-03	0	57	0	130023424	57	6134
2026-01-20 09:54:26.74	158.71	14.16	-42.7	-47.6	10.4	4.17e-03	0	57	0	131072000	57	6142
2026-01-20 09:54:27.75	158.70	14.27	-42.7	-47.5	10.6	3.81e-03	0	57	0	133169152	57	6085
2026-01-20 09:54:28.76	158.70	14.37	-42.6	-47.4	10.6	4.11e-03	0	57	0	135266304	57	6006
2026-01-20 09:54:29.77	158.70	14.48	-42.6	-47.4	10.6	3.32e-03	0	57	0	137363456	57	6015
2026-01-20 09:54:30.78	158.69	14.58	-42.6	-47.4	10.6	3.74e-03	0	58	0	139460608	57	5997
2026-01-20 09:54:31.79	158.69	14.69	-42.6	-47.3	10.7	2.66e-03	0	57	0	140509184	57	5968
2026-01-20 09:54:32.80	158.69	14.80	-42.6	-47.4	10.6	3.11e-03	0	57	0	142606336	57	6024
2026-01-20 09:54:33.81	158.68	14.91	-42.7	-47.5	10.6	3.80e-03	0	58	0	144703488	57	6069
2026-01-20 09:54:34.82	158.68	15.01	-42.6	-47.4	10.7	3.15e-03	0	57	0	146800640	57	6013
2026-01-20 09:54:35.83	158.67	15.12	-42.6	-47.3	10.7	2.85e-03	0	58	0	148897792	57	5978
2026-01-20 09:54:36.84	158.67	15.23	-42.7	-47.4	10.6	3.33e-03	0	58	0	150994944	57	6050
2026-01-20 09:54:37.85	158.67	15.34	-42.7	-47.4	10.7	2.93e-03	0	58	0	152043520	57	6008
2026-01-20 09:54:38.86	158.66	15.45	-42.6	-47.2	10.8	2.55e-03	0	58	0	154140672	57	5903
2026-01-20 09:54:39.87	158.66	15.56	-42.6	-47.3	10.8	2.42e-03	0	58	0	156237824	57	5939
2026-01-20 09:54:40.88	158.65	15.67	-42.6	-47.3	10.8	2.53e-03	0	58	0	158334976	57	5945
2026-01-20 09:54:41.89	158.65	15.79	-42.6	-47.2	10.9	2.64e-03	0	58	0	160432128	57	5885
2026-01-20 09:54:42.90	158.64	15.90	-42.6	-47.2	10.8	2.33e-03	0	58	0	161480704	57	5919
2026-01-20 09:54:43.91	158.64	16.01	-42.6	-47.2	10.8	2.47e-03	0	58	0	163577856	57	5905
2026-01-20 09:54:44.91	158.64	16.12	-42.5	-47.1	11.0	2.14e-03	0	58	0	165675008	57	5818
2026-01-20 09:54:45.92	158.63	16.24	-42.5	-46.9	11.1	1.63e-03	0	58	0	167772160	57	5722
2026-01-20 09:54:46.93	158.63	16.35	-42.5	-46.9	11.2	1.33e-03	0	58	0	169869312	56	6061
2026-01-20 09:54:47.94	158.62	16.47	-42.5	-47.1	11.0	1.61e-03	0	58	0	170917888	56	6141
2026-01-20 09:54:48.95	158.62	16.58	-42.5	-46.8	11.3	1.64e-03	0	58	0	173015040	56	5982
2026-01-20 09:54:49.96	158.61	16.70	-42.4	-46.7	11.4	9.76e-04	0	58	0	175112192	56	5913
2026-01-20 09:54:50.97	158.61	16.81	-42.4	-46.7	11.4	9.97e-04	0	58	0	177209344	56	5881
2026-01-20 09:54:51.98	158.60	16.93	-42.4	-46.7	11.5	7.99e-04	0	58	0	179306496	56	5861
2026-01-20 09:54:52.99	158.60	17.05	-42.4	-46.6	11.5	7.60e-04	0	58	0	180355072	56	5825
2026-01-20 09:54:54.00	158.59	17.17	-42.4	-46.6	11.5	8.14e-04	0	58	0	182452224	56	5823
2026-01-20 09:54:55.01	158.59	17.29	-42.4	-46.6	11.6	6.42e-04	0	58	0	184549376	56	5798
2026-01-20 09:54:56.02	158.58	17.41	-42.4	-46.6	11.6	7.89e-04	0	58	0	186646528	56	5818
2026-01-20 09:54:57.03	158.58	17.53	-42.3	-46.5	11.6	7.74e-04	0	58	0	188743680	56	5786
2026-01-20 09:54:58.04	158.57	17.65	-42.3	-46.5	11.7	6.50e-04	0	58	0	189792256	56	5726
2026-01-20 09:54:59.04	158.57	17.77	-42.3	-46.5	11.7	5.79e-04	0	58	0	191889408	56	5746
2026-01-20 09:55:00.05	158.56	17.89	-42.4	-46.7	11.5	7.13e-04	0	58	0	193986560	56	5856
2026-01-20 09:55:01.06	158.55	18.01	-42.3	-46.5	11.8	6.34e-04	0	58	0	196083712	56	5734
2026-01-20 09:55:02.07	158.55	18.13	-42.3	-46.5	11.7	5.14e-04	0	58	0	198180864	56	5770
2026-01-20 09:55:03.08	158.54	18.26	-42.4	-46.6	11.7	6.02e-04	0	58	0	199229440	56	5793
2026-01-20 09:55:04.09	158.54	18.38	-42.4	-46.6	11.5	6.83e-04	0	58	0	201326592	56	5852
2026-01-20 09:55:05.09	158.53	18.50	-42.4	-46.6	11.6	7.51e-04	0	58	0	203423744	56	5797
2026-01-20 09:55:06.10	158.53	18.63	-42.3	-46.5	11.8	5.52e-04	0	58	0	205520896	56	5731
2026-01-20 09:55:07.11	158.52	18.76	-42.4	-46.6	11.6	6.28e-04	0	58	0	207618048	56	5850
2026-01-20 09:55:08.12	158.51	18.88	-42.4	-46.6	11.6	7.23e-04	0	58	0	208666624	56	5809
2026-01-20 09:55:09.13	158.51	19.01	-42.3	-46.4	11.8	4.92e-04	0	58	0	210763776	56	5660
2026-01-20 09:55:10.14	158.50	19.14	-42.3	-46.3	11.9	4.02e-04	0	58	0	212860928	56	5638
2026-01-20 09:55:11.15	158.50	19.27	-42.2	-46.2	12.0	3.49e-04	0	58	0	214958080	56	5570
2026-01-20 09:55:12.16	158.49	19.40	-42.3	-46.3	12.0	3.46e-04	0	58	0	217055232	56	5619
2026-01-20 09:55:13.17	158.48	19.53	-42.2	-46.2	12.1	3.44e-04	0	58	0	219152384	56	5551
2026-01-20 09:55:14.18	158.48	19.66	-42.3	-46.3	12.0	3.28e-04	0	58	0	220200960	56	5612
2026-01-20 09:55:15.19	158.47	19.79	-42.3	-46.4	11.8	3.78e-04	0	58	0	222298112	56	5681
2026-01-20 09:55:16.20	158.46	19.92	-42.3	-46.3	11.9	3.88e-04	0	58	0	224395264	56	5613
2026-01-20 09:55:17.21	158.46	20.05	-42.3	-46.2	12.0	3.22e-04	0	58	0	226492416	56	5590
2026-01-20 09:55:18.22	158.45	20.19	-42.3	-46.3	12.0	3.05e-04	0	58	0	228589568	56	5615
2026-01-20 09:55:19.23	158.44	20.32	-42.2	-46.2	12.1	3.49e-04	0	58	0	229638144	56	5574
2026-01-20 09:55:20.24	158.44	20.46	-42.2	-46.2	12.1	2.98e-04	0	58	0	231735296	56	5538
2026-01-20 09:55:21.25	158.43	20.59	-42.2	-46.2	12.0	2.77e-04	0	58	0	233832448	56	5566
2026-01-20 09:55:22.25	158.42	20.73	-42.2	-46.1	12.2	3.15e-04	0	58	0	235929600	56	5516
2026-01-20 09:55:23.26	158.42	20.87	-42.2	-46.2	12.1	2.62e-04	0	58	0	238026752	56	5550
2026-01-20 09:55:24.27	158.41	21.00	-42.2	-46.3	12.0	2.83e-04	0	58	0	239075328	56	5593
2026-01-20 09:55:25.28	158.40	21.14	-42.2	-46.1	12.1	2.50e-04	0	58	0	241172480	56	5528
2026-01-20 09:55:26.29	158.39	21.28	-42.2	-46.2	12.1	2.63e-04	0	58	0	243269632	56	5536
2026-01-20 09:55:27.30	158.39	21.42	-42.3	-46.3	12.0	2.58e-04	0	58	0	245366784	56	5616
2026-01-20 09:55:28.31	158.38	21.56	-42.2	-46.1	12.2	2.47e-04	0	58	0	247463936	56	5482
2026-01-20 09:55:29.32	158.37	21.70	-42.1	-46.0	12.3	2.20e-04	0	58	0	248512512	56	5440
2026-01-20 09:55:30.33	158.36	21.85	-42.1	-45.9	12.4	1.71e-04	0	59	0	250609664	56	5396
2026-01-20 09:55:31.34	158.35	21.99	-42.2	-46.1	12.2	1.74e-04	0	58	0	252706816	56	5496
2026-01-20 09:55:32.35	158.35	22.14	-42.2	-46.2	12.1	2.51e-04	0	58	0	254803968	56	5539
2026-01-20 09:55:33.36	158.34	22.28	-42.2	-46.2	12.1	3.19e-04	0	59	0	256901120	56	5534
2026-01-20 09:55:34.37	158.33	22.43	-42.2	-46.1	12.2	2.68e-04	0	58	0	257949696	56	5515
2026-01-20 09:55:35.38	158.32	22.57	-42.2	-46.2	12.1	2.69e-04	0	58	0	260046848	56	5529
2026-01-20 09:55:36.39	158.31	22.72	-42.2	-46.2	12.1	2.39e-04	0	58	0	262144000	56	5545
2026-01-20 09:55:37.40	158.30	22.87	-42.2	-46.1	12.2	2.40e-04	0	59	0	264241152	56	5471
2026-01-20 09:55:38.41	158.30	23.02	-42.1	-46.0	12.3	1.88e-04	0	58	0	266338304	56	5426
2026-01-20 09:55:39.41	158.29	23.17	-42.2	-46.1	12.2	1.91e-04	0	58	0	267386880	56	5473
2026-01-20 09:55:40.42	158.28	23.32	-42.1	-46.0	12.3	1.43e-04	0	58	0	269484032	56	5424
2026-01-20 09:55:41.43	158.27	23.47	-42.1	-45.9	12.4	1.54e-04	0	58	0	271581184	56	5391
2026-01-20 09:55:42.44	158.26	23.62	-42.1	-46.0	12.4	1.94e-04	0	58	0	273678336	56	5408
2026-01-20 09:55:43.45	158.25	23.78	-42.1	-45.9	12.4	1.37e-04	0	58	0	275775488	56	5385
2026-01-20 09:55:44.46	158.24	23.93	-42.1	-45.9	12.4	1.51e-04	0	58	0	276824064	56	5391
2026-01-20 09:55:45.47	158.23	24.09	-42.2	-46.0	12.3	1.79e-04	0	58	0	278921216	56	5436
2026-01-20 09:55:46.48	158.22	24.24	-42.2	-46.1	12.3	2.04e-04	0	58	0	281018368	56	5470
2026-01-20 09:55:47.49	158.21	24.40	-42.3	-46.2	12.1	1.71e-04	0	58	0	283115520	56	5569
2026-01-20 09:55:48.50	158.20	24.56	-42.3	-46.3	12.0	2.74e-04	0	58	0	285212672	56	5642
2026-01-20 09:55:49.51	158.19	24.72	-42.3	-46.3	12.0	3.38e-04	0	58	0	287309824	56	5644
2026-01-20 09:55:50.52	158.18	24.88	-42.4	-46.5	11.8	4.73e-04	0	59	0	288358400	56	5728
2026-01-20 09:55:51.52	158.17	25.04	-42.4	-46.6	11.8	5.33e-04	0	58	0	290455552	56	5789
2026-01-20 09:55:52.54	158.16	25.20	-42.4	-46.5	11.8	5.03e-04	0	58	0	292552704	56	5753
2026-01-20 09:55:53.55	158.15	25.37	-42.4	-46.5	11.8	4.40e-04	0	58	0	294649856	56	5777
2026-01-20 09:55:54.56	158.14	25.53	-42.4	-46.5	11.9	4.40e-04	0	58	0	296747008	56	5723
2026-01-20 09:55:55.57	158.13	25.70	-42.4	-46.4	11.9	3.46e-04	0	58	0	297795584	56	5690
2026-01-20 09:55:56.58	158.12	25.86	-42.4	-46.5	11.8	3.42e-04	0	59	0	299892736	56	5743
2026-01-20 09:55:57.58	158.11	26.03	-42.4	-46.5	11.8	4.78e-04	0	58	0	301989888	56	5754
2026-01-20 09:55:58.59	158.10	26.20	-42.4	-46.4	11.9	4.45e-04	0	58	0	304087040	56	5707
2026-01-20 09:55:59.60	158.08	26.37	-42.4	-46.5	11.8	4.32e-04	0	58	0	306184192	56	5766
2026-01-20 09:56:00.61	158.07	26.54	-42.4	-46.5	11.8	4.30e-04	0	58	0	307232768	56	5731
2026-01-20 09:56:01.62	158.06	26.71	-42.4	-46.5	11.8	5.20e-04	0	59	0	309329920	56	5782
2026-01-20 09:56:02.63	158.05	26.88	-42.5	-46.7	11.7	5.80e-04	0	58	0	311427072	56	5858
2026-01-20 09:56:03.64	158.04	27.06	-42.5	-46.6	11.7	4.96e-04	0	59	0	313524224	56	5818
2026-01-20 09:56:04.65	158.03	27.23	-42.5	-46.6	11.7	5.39e-04	0	58	0	315621376	56	5848
2026-01-20 09:56:05.66	158.01	27.41	-42.5	-46.7	11.6	6.79e-04	0	58	0	316669952	56	5893
2026-01-20 09:56:06.67	158.00	27.58	-42.6	-46.8	11.6	6.47e-04	0	59	0	318767104	56	5928
2026-01-20 09:56:07.68	157.99	27.76	-42.6	-46.9	11.4	9.42e-04	0	59	0	320864256	56	6036
2026-01-20 09:56:08.69	157.97	27.94	-42.5	-46.7	11.6	8.90e-04	0	59	0	322961408	56	5889
2026-01-20 09:56:09.70	157.96	28.12	-42.7	-46.9	11.4	9.47e-04	0	59	0	325058560	56	6061
2026-01-20 09:56:10.71	157.95	28.30	-42.7	-47.1	11.2	1.30e-03	0	58	0	326107136	56	6164
2026-01-20 09:56:11.72	157.93	28.49	-42.8	-47.2	11.2	1.10e-03	0	59	0	328204288	56	6216
2026-01-20 09:56:12.73	157.92	28.67	-42.8	-47.3	10.9	1.72e-03	0	59	0	330301440	56	6344
2026-01-20 09:56:13.74	157.91	28.86	-42.9	-47.5	10.8	2.39e-03	0	59	0	332398592	56	6423
2026-01-20 09:56:14.75	157.89	29.04	-43.0	-47.7	10.6	3.22e-03	0	59	0	334495744	56	6624
2026-01-20 09:56:15.76	157.88	29.23	-43.1	-48.0	10.3	4.33e-03	0	59	0	335544320	56	6824
2026-01-20 09:56:16.77	157.86	29.42	-43.1	-48.1	10.2	5.93e-03	0	59	0	337641472	56	6926
2026-01-20 09:56:17.78	157.85	29.61	-43.2	-48.3	10.0	8.09e-03	0	59	0	339738624	57	6680
2026-01-20 09:56:18.79	157.83	29.80	-43.3	-48.6	9.7	9.73e-03	0	59	0	341835776	57	6897
2026-01-20 09:56:19.80	157.82	30.00	-43.4	-48.7	9.5	1.03e-02	0	59	0	343932928	57	7025
2026-01-20 09:56:20.81	157.80	30.19	-43.4	-48.8	9.5	1.32e-02	0	59	0	344981504	57	7058
2026-01-20 09:56:21.82	157.79	30.39	-43.4	-48.8	9.4	1.63e-02	0	59	0	347078656	57	7114
2026-01-20 09:56:22.83	157.77	30.59	-43.5	-49.1	9.2	1.88e-02	0	59	0	349175808	57	7313
2026-01-20 09:56:23.84	157.76	30.78	-43.5	-49.1	9.1	2.37e-02	0	59	0	351272960	57	7363
2026-01-20 09:56:24.85	157.74	30.98	-43.5	-49.2	9.0	2.59e-02	0	59	0	353370112	57	7426
2026-01-20 09:56:25.86	157.72	31.18	-43.6	-49.3	8.9	2.69e-02	0	59	0	355467264	57	7521
2026-01-20 09:56:26.87	157.71	31.39	-43.6	-49.5	8.8	2.89e-02	0	59	0	356515840	57	7693
2026-01-20 09:56:27.88	157.69	31.59	-43.6	-49.4	8.8	3.09e-02	0	59	0	358612992	57	7616
2026-01-20 09:56:28.89	157.67	31.80	-43.6	-49.4	8.9	2.93e-02	0	59	0	360710144	57	7545
2026-01-20 09:56:29.90	157.66	32.00	-43.6	-49.5	8.8	3.08e-02	0	59	0	362807296	57	7688
2026-01-20 09:56:30.91	157.64	32.21	-43.6	-49.5	8.8	3.23e-02	0	59	0	364904448	57	7653
2026-01-20 09:56:31.92	157.62	32.42	-43.6	-49.4	8.8	3.09e-02	0	59	0	365953024	57	7600
2026-01-20 09:56:32.93	157.60	32.63	-43.6	-49.4	8.9	3.01e-02	0	59	0	368050176	57	7554
2026-01-20 09:56:33.94	157.58	32.85	-43.6	-49.5	8.7	3.18e-02	0	59	0	370147328	57	7655
2026-01-20 09:56:34.95	157.56	33.06	-43.7	-49.7	8.6	3.39e-02	0	59	0	372244480	57	7839
2026-01-20 09:56:35.96	157.55	33.28	-43.7	-49.7	8.5	3.77e-02	0	59	0	374341632	57	7883
2026-01-20 09:56:36.97	157.53	33.49	-43.7	-49.6	8.7	3.47e-02	0	59	0	375390208	57	7721
2026-01-20 09:56:37.98	157.51	33.71	-43.6	-49.4	8.8	2.72e-02	0	59	0	377487360	57	7608
2026-01-20 09:56:38.99	157.49	33.93	-43.6	-49.4	8.9	2.70e-02	0	59	0	379584512	57	7550
2026-01-20 09:56:40.00	157.47	34.15	-43.5	-49.1	9.2	2.07e-02	0	59	0	381681664	57	7291
2026-01-20 09:56:41.01	157.45	34.38	-43.3	-48.6	9.7	1.52e-02	0	59	0	383778816	57	6896
2026-01-20 09:56:42.02	157.42	34.60	-43.2	-48.2	10.1	9.12e-03	0	59	0	384827392	57	6583
2026-01-20 09:56:43.03	157.40	34.83	-43.1	-47.8	10.5	3.95e-03	0	59	0	386924544	57	6345
2026-01-20 09:56:44.04	157.38	35.06	-43.0	-47.5	10.8	2.77e-03	0	59	0	389021696	57	6120
2026-01-20 09:56:45.05	157.36	35.29	-42.9	-47.5	10.9	2.36e-03	0	59	0	391118848	57	6065
2026-01-20 09:56:46.06	157.34	35.52	-42.8	-47.2	11.2	1.75e-03	0	59	0	393216000	57	5879
2026-01-20 09:56:47.06	157.31	35.75	-42.7	-46.9	11.5	1.14e-03	0	59	0	394264576	57	5697
2026-01-20 09:56:48.07	157.29	35.99	-42.5	-46.5	11.9	5.43e-04	0	59	0	396361728	57	5442
2026-01-20 09:56:49.08	157.27	36.22	-42.3	-46.0	12.4	2.42e-04	0	59	0	398458880	56	5454
2026-01-20 09:56:50.09	157.24	36.46	-42.2	-45.8	12.6	8.69e-05	0	59	0	400556032	56	5340
2026-01-20 09:56:51.10	157.22	36.70	-42.1	-45.7	12.7	8.08e-05	0	59	0	402653184	56	5263
2026-01-20 09:56:52.11	157.19	36.95	-42.0	-45.6	12.9	6.02e-05	0	59	0	403701760	56	5180
2026-01-20 09:56:53.12	157.17	37.19	-42.1	-45.6	12.9	4.34e-05	0	59	0	405798912	56	5197
2026-01-20 09:56:54.13	157.14	37.44	-42.1	-45.7	12.8	4.50e-05	0	59	0	407896064	56	5262
2026-01-20 09:56:55.14	157.12	37.68	-42.1	-45.7	12.8	5.26e-05	0	59	0	409993216	56	5226
2026-01-20 09:56:56.15	157.09	37.93	-42.1	-45.7	12.8	6.40e-05	0	59	0	412090368	56	5239
2026-01-20 09:56:57.16	157.06	38.18	-42.0	-45.6	12.9	4.73e-05	0	59	0	413138944	56	5160
2026-01-20 09:56:58.17	157.04	38.44	-42.0	-45.6	12.9	4.34e-05	0	59	0	415236096	56	5163
2026-01-20 09:56:59.18	157.01	38.69	-42.1	-45.7	12.8	7.24e-05	0	59	0	417333248	56	5259
2026-01-20 09:57:00.19	156.98	38.95	-42.1	-45.7	12.8	5.11e-05	0	59	0	419430400	56	5234
2026-01-20 09:57:01.20	156.95	39.21	-42.1	-45.8	12.7	6.86e-05	0	59	0	421527552	56	5283
2026-01-20 09:57:02.21	156.92	39.47	-42.2	-45.8	12.7	5.56e-05	0	59	0	423624704	56	5326
2026-01-20 09:57:03.22	156.89	39.73	-42.2	-45.9	12.6	8.46e-05	0	59	0	424673280	56	5384
2026-01-20 09:57:04.23	156.86	40.00	-42.2	-46.0	12.5	1.08e-04	0	59	0	426770432	56	5410
2026-01-20 09:57:05.24	156.83	40.26	-42.3	-46.1	12.4	1.02e-04	0	59	0	428867584	56	5510
2026-01-20 09:57:06.25	156.80	40.53	-42.3	-46.1	12.3	1.56e-04	0	59	0	430964736	56	5528
2026-01-20 09:57:07.26	156.77	40.80	-42.3	-46.2	12.3	2.44e-04	0	59	0	433061888	56	5537
2026-01-20 09:57:08.27	156.74	41.08	-42.4	-46.3	12.1	2.33e-04	0	59	0	434110464	56	5648
2026-01-20 09:57:09.28	156.70	41.35	-42.5	-46.4	12.0	3.31e-04	0	59	0	436207616	56	5715
2026-01-20 09:57:10.29	156.67	41.63	-42.6	-46.6	11.9	3.52e-04	0	59	0	438304768	56	5807
2026-01-20 09:57:11.30	156.63	41.91	-42.6	-46.7	11.8	4.26e-04	0	59	0	440401920	56	5859
2026-01-20 09:57:12.31	156.60	42.19	-42.6	-46.7	11.7	4.61e-04	0	59	0	442499072	56	5884
2026-01-20 09:57:13.32	156.56	42.47	-42.6	-46.8	11.6	5.77e-04	0	59	0	443547648	56	5950
2026-01-20 09:57:14.33	156.53	42.76	-42.6	-46.7	11.8	6.46e-04	0	59	0	445644800	56	5898
2026-01-20 09:57:15.34	156.49	43.05	-42.6	-46.7	11.7	5.07e-04	0	59	0	447741952	56	5887
2026-01-20 09:57:16.35	156.45	43.34	-42.6	-46.7	11.8	3.91e-04	0	59	0	449839104	56	5880
2026-01-20 09:57:17.36	156.41	43.63	-42.7	-46.8	11.6	5.26e-04	0	59	0	451936256	56	5963
2026-01-20 09:57:18.37	156.37	43.92	-42.7	-47.0	11.4	8.19e-04	0	59	0	452984832	56	6094
2026-01-20 09:57:19.37	156.33	44.22	-42.8	-47.1	11.3	1.13e-03	0	59	0	455081984	56	6171
2026-01-20 09:57:20.39	156.29	44.52	-42.8	-47.0	11.4	8.84e-04	0	59	0	457179136	56	6097
2026-01-20 09:57:21.40	156.25	44.82	-42.8	-47.1	11.3	1.17e-03	0	59	0	459276288	56	6201
2026-01-20 09:57:22.41	156.21	45.12	-43.0	-47.7	10.7	2.11e-03	0	59	0	461373440	56	6585
2026-01-20 09:57:23.42	156.16	45.43	-43.2	-48.2	10.2	3.80e-03	0	59	0	462422016	56	6980
2026-01-20 09:57:24.43	156.12	45.74	-43.4	-48.5	9.8	7.71e-03	0	59	0	464519168	57	6821
2026-01-20 09:57:25.44	156.07	46.05	-43.5	-48.8	9.6	1.13e-02	0	59	0	466616320	57	7094
2026-01-20 09:57:26.45	156.03	46.36	-43.6	-49.1	9.2	1.75e-02	0	59	0	468713472	57	7354
2026-01-20 09:57:27.45	155.98	46.67	-43.7	-49.5	8.8	2.54e-02	0	59	0	470810624	57	7652
2026-01-20 09:57:28.46	155.93	46.99	-43.8	-49.8	8.5	3.88e-02	0	59	0	471859200	58	7485
2026-01-20 09:57:29.47	155.88	47.31	-43.8	-49.9	8.4	4.41e-02	0	59	0	473956352	58	7600
2026-01-20 09:57:30.48	155.83	47.63	-43.8	-49.8	8.5	4.76e-02	0	59	0	476053504	58	7475
2026-01-20 09:57:31.49	155.78	47.96	-43.7	-49.6	8.7	4.23e-02	0	59	0	478150656	58	7306
2026-01-20 09:57:32.50	155.72	48.28	-43.8	-49.7	8.7	3.81e-02	0	59	0	480247808	58	7384
2026-01-20 09:57:33.51	155.67	48.61	-43.7	-49.3	8.9	3.19e-02	0	59	0	481296384	58	7106
2026-01-20 09:57:34.52	155.61	48.94	-43.5	-48.9	9.4	1.83e-02	0	59	0	483393536	58	6786
2026-01-20 09:57:35.53	155.56	49.28	-43.4	-48.7	9.7	1.17e-02	0	59	0	485490688	58	6590
2026-01-20 09:57:36.54	155.50	49.62	-43.3	-48.4	10.0	9.46e-03	0	59	0	487587840	58	6380
2026-01-20 09:57:37.55	155.44	49.95	-43.2	-48.0	10.4	7.27e-03	0	59	0	489684992	58	6112
2026-01-20 09:57:38.56	155.38	50.30	-43.1	-47.8	10.6	3.86e-03	0	59	0	491782144	58	5926
2026-01-20 09:57:39.57	155.32	50.64	-42.9	-47.2	11.2	2.41e-03	0	59	0	492830720	57	5901
2026-01-20 09:57:40.58	155.25	50.99	-42.6	-46.6	11.8	7.22e-04	0	59	0	494927872	57	5525
2026-01-20 09:57:41.59	155.19	51.34	-42.3	-46.0	12.4	1.78e-04	0	59	0	497025024	56	5437
2026-01-20 09:57:42.60	155.12	51.69	-41.8	-45.2	13.1	4.95e-05	0	59	0	499122176	55	5245
2026-01-20 09:57:43.61	155.05	52.04	-41.6	-44.9	13.4	2.21e-05	0	59	0	501219328	55	5095
2026-01-20 09:57:44.61	154.98	52.40	-41.6	-44.8	13.6	1.67e-05	0	59	0	502267904	55	5018
2026-01-20 09:57:45.62	154.91	52.76	-41.5	-44.8	13.5	1.06e-05	0	59	0	504365056	55	4992
2026-01-20 09:57:46.63	154.83	53.12	-41.5	-44.7	13.7	8.30e-06	0	59	0	506462208	54	5276
2026-01-20 09:57:47.64	154.76	53.48	-41.6	-44.9	13.5	1.06e-05	0	59	0	508559360	54	5344
2026-01-20 09:57:48.65	154.68	53.85	-41.6	-44.8	13.5	9.90e-06	0	59	0	509607936	54	5330
2026-01-20 09:57:49.66	154.60	54.22	-41.7	-45.0	13.3	1.22e-05	0	59	0	511705088	54	5453
2026-01-20 09:57:50.67	154.52	54.60	-41.7	-45.0	13.4	1.67e-05	0	59	0	513802240	54	5449
2026-01-20 09:57:51.68	154.43	54.97	-41.7	-45.0	13.4	1.22e-05	0	59	0	515899392	54	5422
2026-01-20 09:57:52.69	154.34	55.35	-41.9	-45.5	12.9	2.67e-05	0	59	0	517996544	54	5735
2026-01-20 09:57:53.70	154.25	55.73	-42.1	-45.8	12.5	5.41e-05	0	59	0	520093696	54	5975
2026-01-20 09:57:54.71	154.16	56.11	-42.5	-46.5	11.7	3.65e-04	0	59	0	521142272	55	6104
2026-01-20 09:57:55.72	154.07	56.50	-42.9	-47.4	11.0	1.23e-03	0	59	0	523239424	56	6403
2026-01-20 09:57:56.73	153.97	56.89	-43.2	-48.1	10.3	2.97e-03	0	59	0	525336576	57	6501
2026-01-20 09:57:57.74	153.87	57.28	-43.5	-48.9	9.6	1.09e-02	0	59	0	527433728	57	7142
2026-01-20 09:57:58.75	153.77	57.67	-43.7	-49.5	8.8	2.55e-02	0	59	0	529530880	57	7703
2026-01-20 09:57:59.76	153.66	58.07	-43.9	-50.2	8.1	4.98e-02	0	59	0	530579456	58	7872
2026-01-20 09:58:00.77	153.55	58.46	-44.0	-50.5	7.9	7.25e-02	0	59	0	532676608	58	8128
2026-01-20 09:58:01.77	153.44	58.86	-44.0	-50.3	8.0	6.04e-02	0	59	0	534773760	58	7976
2026-01-20 09:58:02.78	153.32	59.27	-43.8	-49.6	8.5	5.06e-02	0	59	0	536870912	58	7351
2026-01-20 09:58:03.79	153.20	59.67	-43.6	-49.2	9.1	3.14e-02	0	59	0	538968064	58	6962
2026-01-20 09:58:04.80	153.07	60.08	-43.5	-48.8	9.6	1.28e-02	0	59	0	540016640	58	6676
2026-01-20 09:58:05.81	152.94	60.49	-43.1	-47.7	10.6	5.67e-03	0	59	0	542113792	58	5921
2026-01-20 09:58:06.82	152.81	60.91	-42.9	-47.4	11.1	2.64e-03	0	59	0	544210944	57	6015
2026-01-20 09:58:07.83	152.67	61.32	-42.7	-46.8	11.6	8.02e-04	0	59	0	546308096	57	5604
2026-01-20 09:58:08.84	152.53	61.74	-42.4	-46.1	12.3	2.49e-04	0	59	0	548405248	56	5522
2026-01-20 09:58:09.85	152.38	62.16	-42.3	-46.0	12.5	1.81e-04	0	59	0	549453824	56	5440
2026-01-20 09:58:10.86	152.23	62.59	-42.2	-45.8	12.6	9.07e-05	0	59	0	551550976	56	5308
2026-01-20 09:58:11.87	152.07	63.01	-42.2	-45.9	12.6	8.46e-05	0	59	0	553648128	56	5352
2026-01-20 09:58:12.88	151.91	63.44	-41.8	-45.1	13.2	5.34e-05	0	59	0	555745280	55	5210
2026-01-20 09:58:13.89	151.74	63.87	-41.8	-45.2	13.1	1.83e-05	0	59	0	557842432	55	5244
2026-01-20 09:58:14.90	151.56	64.31	-41.9	-45.3	12.9	3.35e-05	0	59	0	558891008	55	5333
2026-01-20 09:58:15.91	151.37	64.74	-41.9	-45.4	12.8	4.50e-05	0	59	0	560988160	55	5382
2026-01-20 09:58:16.92	151.18	65.18	-42.3	-46.1	12.1	1.02e-04	0	59	0	563085312	55	5855
2026-01-20 09:58:17.93	150.98	65.62	-42.6	-46.9	11.3	8.67e-04	0	59	0	565182464	55	6354
2026-01-20 09:58:18.94	150.78	66.06	-42.7	-47.1	11.1	1.31e-03	0	59	0	567279616	55	6512
2026-01-20 09:58:19.94	150.56	66.50	-42.6	-46.7	11.4	1.31e-03	0	59	0	568328192	55	6260
2026-01-20 09:58:20.95	150.34	66.95	-42.6	-46.9	11.2	1.05e-03	0	59	0	570425344	55	6384
2026-01-20 09:58:21.96	150.10	67.40	-42.9	-47.3	11.0	1.70e-03	0	59	0	572522496	56	6322
2026-01-20 09:58:22.97	149.85	67.85	-42.9	-47.5	10.9	2.16e-03	0	59	0	574619648	56	6424
2026-01-20 09:58:23.98	149.60	68.30	-43.0	-47.7	10.5	3.63e-03	0	59	0	576716800	56	6596
2026-01-20 09:58:24.99	149.33	68.75	-43.1	-47.9	10.2	4.79e-03	0	59	0	577765376	56	6792
2026-01-20 09:58:26.00	149.04	69.21	-43.1	-47.8	10.5	4.57e-03	0	59	0	579862528	56	6657
2026-01-20 09:58:27.01	148.75	69.67	-43.0	-47.6	10.7	3.37e-03	0	59	0	581959680	56	6554
2026-01-20 09:58:28.02	148.44	70.13	-42.9	-47.4	10.9	2.56e-03	0	59	0	584056832	56	6395
2026-01-20 09:58:29.03	148.11	70.59	-42.9	-47.3	11.0	2.52e-03	0	59	0	586153984	56	6283
2026-01-20 09:58:30.04	147.76	71.05	-42.7	-46.9	11.4	1.45e-03	0	59	0	588251136	56	6022
2026-01-20 09:58:31.05	147.40	71.51	-42.8	-47.1	11.2	1.45e-03	0	59	0	589299712	56	6200
2026-01-20 09:58:32.06	147.02	71.98	-42.9	-47.5	10.8	2.51e-03	0	59	0	591396864	56	6455
2026-01-20 09:58:33.06	146.62	72.44	-42.7	-46.9	11.3	2.06e-03	0	59	0	593494016	56	6052
2026-01-20 09:58:34.07	146.19	72.91	-42.6	-46.8	11.5	8.71e-04	0	59	0	595591168	56	5953
2026-01-20 09:58:35.08	145.74	73.38	-43.0	-47.6	10.8	1.72e-03	0	59	0	597688320	56	6509
2026-01-20 09:58:36.09	145.25	73.85	-43.2	-48.1	10.1	4.53e-03	0	59	0	598736896	56	6924
2026-01-20 09:58:37.10	144.74	74.32	-43.3	-48.4	9.8	1.01e-02	0	59	0	600834048	57	6776
2026-01-20 09:58:38.11	144.20	74.79	-43.2	-48.2	10.0	9.40e-03	0	59	0	602931200	57	6576
2026-01-20 09:58:39.12	143.62	75.26	-43.1	-48.0	10.1	6.35e-03	0	59	0	605028352	57	6443
2026-01-20 09:58:40.13	142.99	75.73	-42.9	-47.4	10.9	2.34e-03	0	59	0	607125504	57	6011
2026-01-20 09:58:41.14	142.33	76.20	-42.8	-47.2	11.0	2.18e-03	0	59	0	608174080	57	5912
2026-01-20 09:58:42.15	141.61	76.67	-43.1	-47.9	10.3	3.27e-03	0	59	0	610271232	57	6367
2026-01-20 09:58:43.16	140.85	77.14	-43.1	-47.8	10.4	5.38e-03	0	59	0	612368384	57	6324
2026-01-20 09:58:44.17	140.02	77.61	-43.2	-48.1	10.0	7.22e-03	0	59	0	614465536	57	6569
2026-01-20 09:58:45.18	139.12	78.07	-43.5	-49.0	9.1	1.20e-02	0	59	0	616562688	57	7242
2026-01-20 09:58:46.19	138.15	78.54	-43.4	-48.8	9.3	2.15e-02	0	59	0	617611264	57	7042
2026-01-20 09:58:47.19	137.11	79.00	-43.1	-48.0	10.2	1.06e-02	0	60	0	619708416	57	6457
2026-01-20 09:58:48.20	135.96	79.46	-42.7	-46.9	11.2	2.49e-03	0	59	0	621805568	57	5716
2026-01-20 09:58:49.21	134.71	79.91	-42.3	-46.2	12.1	5.62e-04	0	59	0	623902720	56	5575
2026-01-20 09:58:50.22	133.33	80.37	-42.3	-46.1	12.2	1.58e-04	0	59	0	625999872	56	5506
2026-01-20 09:58:51.23	131.82	80.81	-42.7	-47.1	11.2	6.11e-04	0	59	0	627048448	56	6134
2026-01-20 09:58:52.24	130.15	81.26	-43.2	-48.2	9.9	5.22e-03	0	59	0	629145600	56	7037
2026-01-20 09:58:53.25	128.30	81.69	-43.3	-48.5	9.6	1.25e-02	0	59	0	631242752	57	6835
2026-01-20 09:58:54.26	126.25	82.12	-43.2	-48.2	9.9	1.19e-02	0	59	0	633339904	57	6598
2026-01-20 09:58:55.26	123.98	82.53	-42.9	-47.4	10.8	5.44e-03	0	59	0	635437056	57	6010
2026-01-20 09:58:56.28	121.41	82.93	-42.5	-46.5	11.6	8.45e-04	0	59	0	636485632	57	5457
2026-01-20 09:58:57.28	118.58	83.32	-42.2	-45.9	12.4	2.63e-04	0	59	0	638582784	56	5344
2026-01-20 09:58:58.29	115.38	83.68	-41.6	-45.0	13.1	4.57e-05	0	59	0	640679936	55	5114
2026-01-20 09:58:59.30	111.79	84.03	-41.5	-44.7	13.4	2.74e-05	0	59	0	642777088	54	5254
2026-01-20 09:59:00.31	107.77	84.35	-41.3	-44.5	13.7	1.83e-05	0	59	0	644874240	54	5116
2026-01-20 09:59:01.32	103.28	84.65	-41.0	-43.9	14.2	1.50e-06	0	59	0	645922816	54	4805
2026-01-20 09:59:02.33	98.32	84.90	-41.3	-44.4	13.7	7.00e-07	0	59	0	648019968	54	5093
2026-01-20 09:59:03.34	92.87	85.11	-41.8	-45.3	12.9	2.67e-05	0	59	0	650117120	54	5628
2026-01-20 09:59:04.35	86.99	85.28	-42.0	-45.8	12.3	1.18e-04	0	59	0	652214272	54	5939
2026-01-20 09:59:05.36	80.74	85.39	-42.3	-46.4	11.7	2.65e-04	0	59	0	654311424	55	5996
2026-01-20 09:59:06.37	74.26	85.45	-42.5	-46.8	11.3	9.64e-04	0	59	0	656408576	55	6319
2026-01-20 09:59:07.38	67.71	85.44	-42.6	-46.9	11.1	1.49e-03	0	59	0	657457152	55	6409
2026-01-20 09:59:08.39	61.26	85.38	-42.8	-47.2	11.0	2.87e-03	0	59	0	659554304	56	6269
2026-01-20 09:59:09.40	55.05	85.26	-42.8	-47.1	11.1	1.94e-03	0	59	0	661651456	56	6197
2026-01-20 09:59:10.41	49.21	85.09	-42.6	-46.9	11.3	1.62e-03	0	59	0	663748608	56	6016
2026-01-20 09:59:11.42	43.82	84.87	-42.3	-46.0	12.2	6.23e-04	0	59	0	665845760	56	5450
2026-01-20 09:59:12.43	38.91	84.61	-41.8	-45.3	12.9	6.25e-05	0	59	0	666894336	55	5284
2026-01-20 09:59:13.44	34.48	84.32	-41.7	-45.2	13.0	5.26e-05	0	59	0	668991488	55	5241
2026-01-20 09:59:14.44	30.55	84.00	-42.0	-45.7	12.4	7.32e-05	0	59	0	671088640	55	5546
2026-01-20 09:59:15.46	26.97	83.65	-42.4	-46.6	11.6	2.10e-04	0	59	0	673185792	55	6150
2026-01-20 09:59:16.47	23.81	83.27	-43.0	-47.5	10.8	1.91e-03	0	59	0	675282944	56	6486
2026-01-20 09:59:17.48	20.99	82.89	-43.0	-47.7	10.5	3.39e-03	0	59	0	676331520	56	6600
2026-01-20 09:59:18.49	18.47	82.48	-43.3	-48.3	9.8	6.19e-03	0	59	0	678428672	57	6680
2026-01-20 09:59:19.49	16.24	82.07	-43.3	-48.3	9.9	8.69e-03	0	60	0	680525824	57	6690
2026-01-20 09:59:20.50	14.21	81.64	-42.9	-47.5	10.8	5.00e-03	0	59	0	682622976	57	6067
2026-01-20 09:59:21.52	12.37	81.20	-42.7	-47.0	11.3	2.18e-03	0	59	0	684720128	57	5739
2026-01-20 09:59:22.52	10.73	80.77	-42.6	-46.6	11.6	7.39e-04	0	59	0	685768704	56	5835
2026-01-20 09:59:23.53	9.24	80.32	-42.5	-46.6	11.8	5.52e-04	0	59	0	687865856	56	5811
2026-01-20 09:59:24.54	7.88	79.87	-42.4	-46.2	12.2	3.71e-04	0	59	0	689963008	56	5539
2026-01-20 09:59:25.55	6.64	79.41	-42.2	-45.8	12.4	1.28e-04	0	59	0	692060160	56	5329
2026-01-20 09:59:26.56	5.50	78.95	-42.2	-46.0	12.4	1.40e-04	0	59	0	694157312	56	5403
2026-01-20 09:59:27.57	4.46	78.49	-42.3	-46.1	12.2	2.01e-04	0	60	0	695205888	56	5507
2026-01-20 09:59:28.58	3.50	78.02	-42.5	-46.4	11.9	2.70e-04	0	59	0	697303040	56	5704
2026-01-20 09:59:29.59	2.61	77.56	-42.9	-47.3	11.0	1.01e-03	0	59	0	699400192	56	6285
2026-01-20 09:59:30.60	1.79	77.09	-43.3	-48.3	9.9	5.56e-03	0	59	0	701497344	57	6663
2026-01-20 09:59:31.60	1.03	76.62	-43.3	-48.3	10.0	8.58e-03	0	59	0	703594496	57	6648
2026-01-20 09:59:32.61	0.33	76.16	-43.3	-48.2	10.1	5.68e-03	0	59	0	704643072	57	6615
2026-01-20 09:59:33.62	359.67	75.69	-43.1	-48.1	10.0	8.03e-03	0	59	0	706740224	57	6561
2026-01-20 09:59:34.63	359.05	75.22	-43.4	-48.5	9.8	7.43e-03	0	59	0	708837376	57	6849
2026-01-20 09:59:35.64	358.47	74.75	-43.8	-49.7	8.6	3.07e-02	0	59	0	710934528	58	7378
2026-01-20 09:59:36.65	357.93	74.28	-43.9	-50.2	8.0	6.62e-02	0	59	0	713031680	58	7818
2026-01-20 09:59:37.66	357.42	73.81	-43.6	-49.4	8.9	4.91e-02	0	59	0	714080256	58	7155
2026-01-20 09:59:38.67	356.95	73.34	-43.3	-48.4	9.9	1.14e-02	0	59	0	716177408	58	6352
2026-01-20 09:59:39.68	356.50	72.87	-43.1	-47.7	10.6	5.34e-03	0	59	0	718274560	58	5920
2026-01-20 09:59:40.69	356.07	72.41	-43.0	-47.6	10.7	3.02e-03	0	59	0	720371712	58	5823
2026-01-20 09:59:41.70	355.67	71.94	-42.8	-47.0	11.3	2.12e-03	0	59	0	722468864	56	6117
2026-01-20 09:59:42.71	355.29	71.48	-42.6	-46.5	11.9	5.17e-04	0	59	0	724566016	56	5763
2026-01-20 09:59:43.71	354.93	71.02	-42.6	-46.7	11.6	4.84e-04	0	59	0	725614592	56	5890
2026-01-20 09:59:44.72	354.59	70.56	-43.0	-47.6	10.7	1.13e-03	0	59	0	727711744	56	6550
2026-01-20 09:59:45.73	354.26	70.10	-43.2	-48.1	10.2	5.46e-03	0	59	0	729808896	57	6558
2026-01-20 09:59:46.74	353.95	69.64	-43.3	-48.2	10.0	8.10e-03	0	59	0	731906048	57	6595
2026-01-20 09:59:47.75	353.66	69.18	-43.2	-47.9	10.4	7.03e-03	0	59	0	732954624	57	6418
2026-01-20 09:59:48.76	353.38	68.73	-43.4	-48.6	9.7	8.92e-03	0	59	0	735051776	57	6883
2026-01-20 09:59:49.77	353.11	68.27	-43.6	-49.2	9.0	2.12e-02	0	59	0	737148928	57	7448
2026-01-20 09:59:50.78	352.85	67.82	-43.8	-49.9	8.4	3.19e-02	0	59	0	739246080	58	7570
2026-01-20 09:59:51.79	352.61	67.37	-44.0	-50.3	8.0	5.78e-02	0	59	0	741343232	58	7914
2026-01-20 09:59:52.80	352.37	66.93	-43.8	-49.6	8.7	5.83e-02	0	59	0	742391808	58	7315
2026-01-20 09:59:53.81	352.15	66.48	-43.4	-48.6	9.6	2.05e-02	0	59	0	744488960	57	6912
2026-01-20 09:59:54.82	351.93	66.04	-43.3	-48.4	9.8	1.02e-02	0	60	0	746586112	57	6797
2026-01-20 09:59:55.83	351.73	65.60	-43.3	-48.3	9.9	1.06e-02	0	60	0	748683264	57	6721
2026-01-20 09:59:56.84	351.53	65.16	-42.8	-47.0	11.3	3.90e-03	0	59	0	750780416	56	6101
2026-01-20 09:59:57.85	351.34	64.72	-42.1	-45.7	12.5	5.00e-04	0	60	0	752877568	55	5584
2026-01-20 09:59:58.86	351.16	64.29	-41.7	-45.1	13.2	2.74e-05	0	59	0	753926144	55	5174
2026-01-20 09:59:59.86	350.98	63.86	-41.5	-44.7	13.6	1.06e-05	0	59	0	756023296	54	5229
2026-01-20 10:00:00.87	350.81	63.43	-41.4	-44.5	13.8	2.20e-06	0	59	0	758120448	54	5150
2026-01-20 10:00:01.88	350.65	63.01	-41.3	-44.4	13.9	2.82e-05	0	59	0	760217600	53	5394
2026-01-20 10:00:02.89	350.49	62.58	-41.1	-44.1	14.2	3.00e-06	0	59	0	762314752	53	5177
2026-01-20 10:00:03.90	350.34	62.16	-40.8	-43.7	14.6	2.20e-06	0	59	0	763363328	53	4954
2026-01-20 10:00:04.91	350.19	61.74	-40.9	-43.6	14.6	0.00e+00	0	59	0	765460480	52	5212
2026-01-20 10:00:05.92	350.05	61.32	-41.0	-43.9	14.5	1.52e-05	0	60	0	767557632	52	5356
2026-01-20 10:00:06.93	349.91	60.91	-41.8	-45.2	13.1	6.80e-06	0	59	0	769654784	54	5574
2026-01-20 10:00:07.94	349.78	60.49	-42.5	-46.7	11.5	5.75e-04	0	59	0	771751936	55	6258
2026-01-20 10:00:08.95	349.65	60.08	-43.0	-47.6	10.8	3.08e-03	0	59	0	772800512	56	6538
2026-01-20 10:00:09.96	349.53	59.68	-43.0	-47.5	10.9	3.21e-03	0	59	0	774897664	56	6474
2026-01-20 10:00:10.97	349.41	59.27	-42.7	-47.4	11.0	2.06e-03	0	59	0	776994816	56	6359
2026-01-20 10:00:11.98	349.29	58.87	-43.1	-47.8	10.6	3.20e-03	0	59	0	779091968	56	6686
2026-01-20 10:00:12.99	349.18	58.47	-43.3	-48.2	10.1	5.20e-03	0	59	0	781189120	57	6639
2026-01-20 10:00:14.00	349.07	58.07	-43.6	-48.9	9.5	7.92e-03	0	60	0	782237696	57	7203
2026-01-20 10:00:15.01	348.96	57.68	-43.8	-49.7	8.6	3.33e-02	0	59	0	784334848	58	7454
2026-01-20 10:00:16.02	348.86	57.29	-43.7	-49.6	8.6	4.46e-02	0	59	0	786432000	58	7321
2026-01-20 10:00:17.02	348.76	56.90	-43.3	-48.2	10.1	2.02e-02	0	59	0	788529152	58	6232
2026-01-20 10:00:18.03	348.66	56.51	-42.7	-46.8	11.6	1.44e-03	0	59	0	790626304	56	5951
2026-01-20 10:00:19.04	348.57	56.13	-42.3	-46.0	12.4	2.42e-04	0	59	0	791674880	56	5453
2026-01-20 10:00:20.05	348.48	55.75	-42.1	-45.7	12.6	1.01e-04	0	59	0	793772032	55	5580
2026-01-20 10:00:21.06	348.39	55.37	-41.9	-45.4	12.9	4.80e-05	0	59	0	795869184	55	5389
2026-01-20 10:00:22.07	348.30	54.99	-41.8	-45.4	12.8	4.88e-05	0	59	0	797966336	55	5372
2026-01-20 10:00:23.08	348.22	54.62	-41.9	-45.3	13.0	3.12e-05	0	59	0	800063488	55	5316
2026-01-20 10:00:24.09	348.13	54.25	-41.8	-45.2	13.1	3.35e-05	0	59	0	801112064	55	5255
2026-01-20 10:00:25.10	348.05	53.88	-41.8	-45.2	13.1	2.05e-05	0	59	0	803209216	55	5228
2026-01-20 10:00:26.11	347.98	53.51	-41.7	-45.0	13.3	2.51e-05	0	59	0	805306368	55	5154
2026-01-20 10:00:27.12	347.90	53.15	-41.6	-44.9	13.4	1.37e-05	0	59	0	807403520	54	5369
2026-01-20 10:00:28.13	347.83	52.79	-41.7	-45.0	13.4	1.60e-05	0	59	0	809500672	54	5427
2026-01-20 10:00:29.14	347.75	52.43	-42.1	-45.8	12.6	3.20e-05	0	59	0	810549248	54	5939
2026-01-20 10:00:30.15	347.68	52.08	-42.9	-47.4	11.0	3.69e-04	0	59	0	812646400	56	6371
2026-01-20 10:00:31.16	347.62	51.72	-43.3	-48.3	10.1	5.57e-03	0	59	0	814743552	57	6661
2026-01-20 10:00:32.17	347.55	51.37	-43.3	-48.3	10.0	9.12e-03	0	59	0	816840704	57	6653
2026-01-20 10:00:33.18	347.48	51.03	-43.0	-47.6	10.7	3.40e-03	0	59	0	818937856	57	6191
2026-01-20 10:00:34.19	347.42	50.68	-43.0	-47.6	10.8	2.46e-03	0	59	0	821035008	57	6137
2026-01-20 10:00:35.20	347.36	50.34	-43.1	-47.9	10.5	3.32e-03	0	59	0	822083584	57	6367
2026-01-20 10:00:36.21	347.30	50.00	-43.3	-48.1	10.2	5.52e-03	0	59	0	824180736	57	6565
2026-01-20 10:00:37.22	347.24	49.66	-43.2	-48.1	10.2	5.12e-03	0	59	0	826277888	57	6530
2026-01-20 10:00:38.23	347.18	49.32	-43.5	-48.9	9.5	1.10e-02	0	59	0	828375040	57	7123
2026-01-20 10:00:39.24	347.13	48.99	-43.9	-50.0	8.2	2.34e-02	0	59	0	830472192	58	7715
2026-01-20 10:00:40.25	347.07	48.66	-44.2	-51.3	7.0	8.88e-02	0	59	0	831520768	59	8396
2026-01-20 10:00:41.26	347.02	48.33	-44.3	-51.6	6.6	1.95e-01	0	59	0	833617920	59	8738
2026-01-20 10:00:42.27	346.96	48.01	-44.0	-50.4	7.8	1.49e-01	0	59	0	835715072	59	7609
2026-01-20 10:00:43.28	346.91	47.68	-43.4	-48.7	9.6	4.04e-02	0	59	0	837812224	58	6599
2026-01-20 10:00:44.29	346.86	47.36	-43.1	-47.7	10.6	5.25e-03	0	59	0	839909376	58	5903
2026-01-20 10:00:45.30	346.81	47.04	-43.0	-47.5	10.9	1.89e-03	0	59	0	840957952	57	6069
2026-01-20 10:00:46.30	346.76	46.73	-43.2	-48.0	10.3	2.92e-03	0	59	0	843055104	57	6456
2026-01-20 10:00:47.31	346.72	46.42	-43.3	-48.4	9.9	8.15e-03	0	59	0	845152256	57	6797
2026-01-20 10:00:48.32	346.67	46.11	-43.7	-49.4	8.9	1.70e-02	0	59	0	847249408	57	7566
2026-01-20 10:00:49.33	346.63	45.80	-43.8	-49.8	8.4	3.15e-02	0	60	0	849346560	58	7527
2026-01-20 10:00:50.34	346.58	45.49	-43.9	-50.2	8.1	6.13e-02	0	60	0	850395136	58	7823
2026-01-20 10:00:51.35	346.54	45.19	-43.9	-50.0	8.2	5.86e-02	0	60	0	852492288	58	7716
2026-01-20 10:00:52.36	346.50	44.88	-43.8	-49.7	8.6	5.28e-02	0	59	0	854589440	58	7380
2026-01-20 10:00:53.37	346.45	44.58	-43.2	-48.1	10.1	1.01e-02	0	59	0	856686592	58	6190
2026-01-20 10:00:54.38	346.41	44.29	-42.8	-47.1	11.2	2.50e-03	0	59	0	858783744	57	5844
2026-01-20 10:00:55.39	346.37	43.99	-42.4	-46.3	12.1	5.10e-04	0	59	0	859832320	56	5605
2026-01-20 10:00:56.40	346.33	43.70	-42.5	-46.4	12.0	2.46e-04	0	59	0	861929472	56	5690
2026-01-20 10:00:57.41	346.30	43.41	-42.5	-46.4	12.0	3.11e-04	0	59	0	864026624	56	5699
2026-01-20 10:00:58.42	346.26	43.12	-42.8	-47.0	11.4	6.09e-04	0	59	0	866123776	56	6109
2026-01-20 10:00:59.42	346.22	42.84	-42.9	-47.4	10.9	1.42e-03	0	59	0	868220928	56	6401
2026-01-20 10:01:00.43	346.19	42.55	-43.3	-48.3	9.9	5.43e-03	0	60	0	869269504	57	6678
2026-01-20 10:01:01.44	346.15	42.27	-43.6	-49.4	8.9	1.85e-02	0	59	0	871366656	57	7559
2026-01-20 10:01:02.45	346.12	41.99	-43.9	-50.3	7.9	4.36e-02	0	60	0	873463808	58	7925
2026-01-20 10:01:03.46	346.08	41.71	-44.0	-50.5	7.7	9.04e-02	0	59	0	875560960	58	8155
2026-01-20 10:01:04.47	346.05	41.44	-44.0	-50.5	7.7	8.84e-02	0	60	0	877658112	58	8116
2026-01-20 10:01:05.48	346.02	41.16	-43.8	-49.7	8.4	6.82e-02	0	59	0	878706688	58	7457
2026-01-20 10:01:06.49	345.98	40.89	-43.5	-48.9	9.4	2.13e-02	0	59	0	880803840	58	6758
2026-01-20 10:01:07.50	345.95	40.62	-43.3	-48.2	10.0	1.09e-02	0	59	0	882900992	58	6257
2026-01-20 10:01:08.51	345.92	40.35	-43.0	-47.6	10.8	4.28e-03	0	59	0	884998144	58	5799
2026-01-20 10:01:09.52	345.89	40.09	-42.9	-47.5	10.8	2.36e-03	0	60	0	887095296	57	6069
2026-01-20 10:01:10.53	345.86	39.82	-43.0	-47.6	10.8	2.78e-03	0	59	0	889192448	57	6134
2026-01-20 10:01:11.54	345.83	39.56	-43.2	-48.1	10.1	4.45e-03	0	59	0	890241024	57	6570
2026-01-20 10:01:12.55	345.80	39.30	-43.4	-48.7	9.6	9.40e-03	0	59	0	892338176	57	7007
2026-01-20 10:01:13.56	345.77	39.04	-43.7	-49.6	8.6	2.79e-02	0	60	0	894435328	57	7773
2026-01-20 10:01:14.57	345.75	38.79	-44.0	-50.5	7.7	5.93e-02	0	60	0	896532480	58	8123
2026-01-20 10:01:15.58	345.72	38.53	-44.1	-51.1	7.1	1.11e-01	0	59	0	898629632	58	8746
2026-01-20 10:01:16.59	345.69	38.28	-44.2	-51.5	6.8	1.81e-01	0	59	0	899678208	58	9144
2026-01-20 10:01:17.59	345.66	38.03	-44.2	-51.6	6.7	1.93e-01	0	60	0	901775360	58	9262
2026-01-20 10:01:18.60	345.64	37.79	-44.2	-51.4	6.8	2.08e-01	0	59	0	903872512	59	8522
2026-01-20 10:01:19.61	345.61	37.54	-44.1	-51.0	7.1	1.50e-01	0	60	0	905969664	59	8173
2026-01-20 10:01:20.62	345.59	37.29	-44.3	-52.1	6.3	1.16e-01	0	59	0	908066816	59	9180
2026-01-20 10:01:21.63	345.56	37.05	-44.1	-51.1	7.4	5.15e-01	0	60	0	909115392	59	8230
2026-01-20 10:01:22.64	345.54	36.81	-44.5	-53.5	5.4	7.28e-01	0	60	0	911212544	60	10292
2026-01-20 10:01:23.65	345.52	36.57	-43.7	-49.6	8.8	5.43e-01	0	60	0	912261120	59	6896
2026-01-20 10:01:24.66	345.49	36.33	-43.9	-50.2	7.8	1.46e+00	0	60	104	913309696	59	7421
2026-01-20 10:01:25.67	345.47	36.10	-43.5	-49.1	9.1	3.20e-02	0	59	0	914358272	59	6527
2026-01-20 10:01:26.68	345.45	35.86	-43.5	-49.1	9.1	2.31e-02	0	59	0	916455424	59	6556
2026-01-20 10:01:27.68	345.42	35.63	-43.5	-49.2	9.0	2.29e-02	0	60	0	918552576	59	6597
2026-01-20 10:01:28.69	345.40	35.40	-43.6	-49.4	8.7	2.97e-02	0	60	0	920649728	59	6786
2026-01-20 10:01:29.70	345.38	35.17	-43.8	-49.9	8.2	4.82e-02	0	60	0	921698304	59	7138
2026-01-20 10:01:30.71	345.36	34.94	-43.9	-50.3	7.9	6.35e-02	0	60	0	923795456	59	7481
2026-01-20 10:01:31.72	345.34	34.72	-44.0	-50.8	7.4	9.55e-02	0	59	0	925892608	59	7902
2026-01-20 10:01:32.73	345.32	34.49	-44.1	-51.1	7.0	1.42e-01	0	59	0	927989760	59	8258
2026-01-20 10:01:33.74	345.30	34.27	-44.2	-51.8	6.5	1.90e-01	0	60	0	930086912	59	8899
2026-01-20 10:01:34.75	345.28	34.05	-44.2	-52.0	6.3	2.62e-01	0	60	0	931135488	59	9095
2026-01-20 10:01:35.76	345.26	33.83	-44.3	-52.3	6.0	3.24e-01	0	59	0	933232640	59	9493
2026-01-20 10:01:36.77	345.24	33.61	-44.6	-54.6	4.7	3.88e-01	0	60	0	935329792	59	12249
2026-01-20 10:01:37.78	345.22	33.40	-44.7	-55.9	4.3	7.01e-01	57	59	0	937426944	60	13474
2026-01-20 10:01:38.79	345.20	33.18	-44.7	-56.6	4.1	1.48e+00	0	59	0	937426944	60	14561
2026-01-20 10:01:39.80	345.18	32.97	-44.5	-54.1	5.1	6.30e-01	0	59	0	937426944	60	11002
2026-01-20 10:01:40.81	345.17	32.76	-44.1	-51.7	6.5	1.48e+00	0	60	104	937426944	60	8336
2026-01-20 10:01:41.82	345.15	32.55	-44.0	-51.0	7.1	1.70e-01	0	60	0	938475520	59	8136
2026-01-20 10:01:42.83	345.13	32.34	-43.8	-50.1	7.9	9.65e-02	0	59	0	940572672	59	7355
2026-01-20 10:01:43.84	345.11	32.13	-43.6	-49.4	8.7	4.69e-02	0	59	0	942669824	59	6770
2026-01-20 10:01:44.85	345.10	31.92	-43.5	-49.2	8.9	2.99e-02	0	59	0	943718400	58	6975
2026-01-20 10:01:45.86	345.08	31.72	-43.4	-49.0	9.1	2.43e-02	0	60	0	945815552	58	6821
2026-01-20 10:01:46.87	345.06	31.52	-43.3	-48.8	9.3	1.97e-02	0	59	0	947912704	58	6657
2026-01-20 10:01:47.88	345.05	31.31	-43.4	-49.0	9.0	1.98e-02	0	60	0	950009856	58	6862
2026-01-20 10:01:48.89	345.03	31.11	-43.5	-49.1	9.0	2.51e-02	0	60	0	952107008	58	6956
2026-01-20 10:01:49.90	345.01	30.91	-43.5	-49.5	8.6	3.37e-02	0	60	0	953155584	58	7227
2026-01-20 10:01:50.91	345.00	30.72	-43.6	-49.7	8.3	4.58e-02	0	59	0	955252736	58	7442
2026-01-20 10:01:51.92	344.98	30.52	-43.7	-50.1	8.0	6.86e-02	0	60	0	957349888	58	7725
2026-01-20 10:01:52.93	344.97	30.33	-43.8	-50.2	7.8	7.93e-02	0	59	0	959447040	58	7880
2026-01-20 10:01:53.94	344.95	30.13	-43.8	-50.5	7.6	8.56e-02	0	59	0	961544192	58	8126
2026-01-20 10:01:54.95	344.94	29.94	-43.8	-50.3	7.7	1.01e-01	0	59	0	963641344	58	7962
2026-01-20 10:01:55.96	344.93	29.75	-43.8	-50.3	7.7	9.70e-02	0	60	0	964689920	58	7962
2026-01-20 10:01:56.97	344.91	29.56	-43.7	-50.3	7.7	9.29e-02	0	60	0	966787072	58	7963
2026-01-20 10:01:57.98	344.90	29.37	-43.7	-50.1	7.8	8.58e-02	0	59	0	968884224	58	7791
2026-01-20 10:01:58.99	344.88	29.18	-43.6	-49.8	8.1	6.65e-02	0	60	0	970981376	58	7535
2026-01-20 10:02:00.00	344.87	29.00	-43.5	-49.6	8.4	5.22e-02	0	60	0	973078528	58	7302
2026-01-20 10:02:01.01	344.86	28.81	-43.5	-49.5	8.4	4.84e-02	0	60	0	974127104	58	7244
2026-01-20 10:02:02.02	344.84	28.63	-43.3	-49.0	9.0	3.06e-02	0	60	0	976224256	58	6816
2026-01-20 10:02:03.03	344.83	28.45	-43.2	-48.7	9.2	2.10e-02	0	59	0	978321408	58	6602
2026-01-20 10:02:04.04	344.82	28.26	-43.1	-48.4	9.6	1.52e-02	0	60	0	980418560	58	6355
2026-01-20 10:02:05.04	344.81	28.09	-43.0	-48.2	9.8	1.03e-02	0	59	0	982515712	58	6233
2026-01-20 10:02:06.05	344.79	27.91	-43.0	-48.1	9.8	1.09e-02	0	59	0	983564288	58	6188
2026-01-20 10:02:07.06	344.78	27.73	-42.9	-47.9	10.1	8.77e-03	0	60	0	985661440	57	6358
2026-01-20 10:02:08.07	344.77	27.55	-42.7	-47.4	10.6	4.29e-03	0	60	0	987758592	57	5994
2026-01-20 10:02:09.08	344.76	27.38	-42.6	-47.2	10.7	2.75e-03	0	60	0	989855744	57	5903
2026-01-20 10:02:10.09	344.75	27.20	-42.6	-47.1	10.8	2.96e-03	0	60	0	991952896	57	5829
2026-01-20 10:02:11.10	344.73	27.03	-42.4	-46.8	11.2	2.07e-03	0	60	0	993001472	56	5944
2026-01-20 10:02:12.11	344.72	26.86	-42.3	-46.6	11.3	1.02e-03	0	60	0	995098624	56	5827
2026-01-20 10:02:13.12	344.71	26.69	-42.4	-46.7	11.2	1.13e-03	0	59	0	997195776	56	5876
2026-01-20 10:02:14.13	344.70	26.52	-42.3	-46.7	11.3	1.11e-03	0	59	0	999292928	56	5866
2026-01-20 10:02:15.14	344.69	26.35	-42.3	-46.6	11.3	1.15e-03	0	60	0	1001390080	56	5840
2026-01-20 10:02:16.15	344.68	26.18	-42.3	-46.7	11.1	1.40e-03	0	60	0	1002438656	56	5890
2026-01-20 10:02:17.16	344.67	26.01	-42.2	-46.6	11.2	1.24e-03	0	59	0	1004535808	56	5810
2026-01-20 10:02:18.16	344.66	25.85	-42.2	-46.6	11.1	1.58e-03	0	60	0	1006632960	56	5836
2026-01-20 10:02:19.17	344.65	25.68	-42.2	-46.4	11.3	1.47e-03	0	59	0	1008730112	56	5721
2026-01-20 10:02:20.18	344.64	25.52	-42.2	-46.6	11.1	1.29e-03	0	60	0	1010827264	56	5840
2026-01-20 10:02:21.19	344.63	25.36	-42.2	-46.6	11.1	1.57e-03	0	59	0	1011875840	56	5801
2026-01-20 10:02:22.20	344.62	25.20	-42.2	-46.6	11.1	1.44e-03	0	60	0	1013972992	56	5815
2026-01-20 10:02:23.21	344.61	25.03	-42.2	-46.7	11.0	1.73e-03	0	60	0	1016070144	56	5888
2026-01-20 10:02:24.22	344.60	24.88	-42.2	-46.7	11.0	1.89e-03	0	59	0	1018167296	56	5858
2026-01-20 10:02:25.23	344.59	24.72	-42.1	-46.5	11.1	1.56e-03	0	59	0	1020264448	56	5777
2026-01-20 10:02:26.24	344.58	24.56	-42.0	-46.3	11.2	1.48e-03	0	60	0	1021313024	56	5640
2026-01-20 10:02:27.25	344.57	24.40	-41.9	-46.2	11.2	1.14e-03	0	59	0	1023410176	55	5904
2026-01-20 10:02:28.25	344.56	24.25	-41.8	-46.1	11.3	1.56e-03	0	59	0	1025507328	55	5819
2026-01-20 10:02:29.26	344.55	24.09	-41.6	-45.8	11.6	9.08e-04	0	60	0	1027604480	55	5626
2026-01-20 10:02:30.28	344.54	23.94	-41.7	-46.0	11.3	9.15e-04	0	60	0	1029701632	55	5771
2026-01-20 10:02:31.29	344.54	23.78	-41.5	-45.6	11.6	8.77e-04	0	60	0	1031798784	55	5527
2026-01-20 10:02:32.30	344.53	23.63	-41.4	-45.6	11.7	4.95e-04	0	60	0	1032847360	54	5792
2026-01-20 10:02:33.30	344.52	23.48	-41.5	-45.6	11.5	6.25e-04	0	59	0	1034944512	54	5846
2026-01-20 10:02:34.31	344.51	23.33	-41.3	-45.3	11.8	5.79e-04	0	60	0	1037041664	54	5613
2026-01-20 10:02:35.32	344.50	23.18	-41.0	-44.9	12.2	2.47e-04	0	60	0	1039138816	54	5359
2026-01-20 10:02:36.33	344.50	23.03	-41.1	-45.1	11.8	2.62e-04	0	60	0	1041235968	54	5526
2026-01-20 10:02:37.34	344.49	22.88	-41.3	-45.6	11.2	6.50e-04	0	59	0	1042284544	54	5828
2026-01-20 10:02:38.35	344.48	22.74	-41.1	-45.5	11.2	1.69e-03	0	60	0	1044381696	54	5774
2026-01-20 10:02:39.36	344.47	22.59	-40.8	-45.0	11.4	1.08e-03	0	59	0	1046478848	53	5768
2026-01-20 10:02:40.37	344.46	22.45	-40.6	-44.7	11.6	9.54e-04	0	59	0	1048576000	53	5561
2026-01-20 10:02:41.38	344.46	22.30	-40.5	-44.7	11.5	8.32e-04	0	60	0	1050673152	53	5584
2026-01-20 10:02:42.39	344.45	22.16	-40.6	-44.8	11.3	9.89e-04	0	59	0	1051721728	53	5651
2026-01-20 10:02:43.40	344.44	22.01	-40.5	-44.8	11.2	1.33e-03	0	60	0	1053818880	53	5651
2026-01-20 10:02:44.40	344.43	21.87	-40.6	-45.0	11.0	1.55e-03	0	59	0	1055916032	53	5769
2026-01-20 10:02:45.41	344.43	21.73	-40.6	-45.3	10.7	2.52e-03	0	59	0	1058013184	53	5937
2026-01-20 10:02:46.42	344.42	21.59	-40.8	-45.9	10.0	4.50e-03	0	60	0	1060110336	53	6356
2026-01-20 10:02:47.43	344.41	21.45	-41.0	-46.8	9.0	1.85e-02	0	59	0	1061158912	53	7049
2026-01-20 10:02:48.44	344.41	21.31	-41.2	-47.7	7.9	5.28e-02	0	60	0	1063256064	53	7855
2026-01-20 10:02:49.45	344.40	21.17	-41.4	-49.0	6.5	1.37e-01	0	59	0	1065353216	53	9162
2026-01-20 10:02:50.46	344.39	21.04	-41.5	-50.5	5.3	4.72e-01	0	60	0	1067450368	53	10860
2026-01-20 10:02:51.47	344.39	20.90	-41.5	-51.8	4.6	8.45e-01	2	60	0	1069547520	53	12660
2026-01-20 10:02:52.48	344.38	20.76	-41.5	-53.1	4.1	1.35e+00	0	60	0	1069547520	53	14568
2026-01-20 10:02:53.49	344.37	20.63	-41.4	-54.3	3.8	1.47e+00	0	59	104	1069547520	53	16696
2026-01-20 10:02:54.50	344.37	20.49	-41.4	-54.9	3.8	1.49e+00	0	60	104	1069547520	53	17995
2026-01-20 10:02:55.51	344.36	20.36	-41.3	-55.4	3.8	1.49e+00	0	59	104	1069547520	53	19144
2026-01-20 10:02:56.52	344.36	20.23	-41.3	-55.8	3.8	1.49e+00	0	59	104	1069547520	53	19873
2026-01-20 10:02:57.53	344.35	20.09	-41.2	-55.8	3.8	1.49e+00	0	60	104	1069547520	53	19989
2026-01-20 10:02:58.54	344.34	19.96	-41.0	-55.8	3.8	1.49e+00	0	59	104	1069547520	53	19862
2026-01-20 10:02:59.55	344.34	19.83	-41.1	-55.9	3.8	1.49e+00	0	60	104	1069547520	53	20185
2026-01-20 10:03:00.56	344.33	19.70	-41.3	-55.9	3.8	1.49e+00	0	59	104	1069547520	53	20116
2026-01-20 10:03:01.57	344.33	19.57	-41.1	-55.9	3.8	1.49e+00	0	60	104	1069547520	53	20119
2026-01-20 10:03:02.58	344.32	19.44	-40.8	-55.5	3.8	1.49e+00	0	59	104	1069547520	53	19291
2026-01-20 10:03:03.59	344.32	19.31	-41.0	-55.8	3.8	1.49e+00	0	60	104	1069547520	53	19901
2026-01-20 10:03:04.60	344.31	19.19	-41.2	-55.9	3.8	1.49e+00	0	60	104	1069547520	53	20123
2026-01-20 10:03:05.61	344.31	19.06	-40.8	-55.6	3.8	1.49e+00	0	59	104	1069547520	53	19562
2026-01-20 10:03:06.62	344.30	18.93	-40.8	-55.5	3.8	1.49e+00	0	59	104	1069547520	53	19209
2026-01-20 10:03:07.63	344.30	18.81	-40.8	-55.6	3.8	1.49e+00	0	60	104	1069547520	53	19545
2026-01-20 10:03:08.64	344.29	18.68	-40.9	-55.6	3.8	1.49e+00	0	60	104	1069547520	53	19561
2026-01-20 10:03:09.65	344.29	18.56	-40.8	-55.5	3.8	1.49e+00	0	60	104	1069547520	53	19230
2026-01-20 10:03:10.65	344.28	18.44	-40.9	-55.6	3.8	1.49e+00	0	60	104	1069547520	53	19472
2026-01-20 10:03:11.67	344.28	18.31	-40.7	-55.5	3.8	1.49e+00	0	60	104	1069547520	53	19222
2026-01-20 10:03:12.68	344.27	18.19	-40.7	-55.4	3.8	1.49e+00	0	60	104	1069547520	53	19137
2026-01-20 10:03:13.69	344.27	18.07	-40.9	-55.5	3.8	1.49e+00	0	60	104	1069547520	53	19329
2026-01-20 10:03:14.69	344.26	17.95	-40.9	-55.6	3.8	1.49e+00	0	60	104	1069547520	53	19575
2026-01-20 10:03:15.70	344.26	17.83	-40.7	-55.4	3.8	1.49e+00	0	59	104	1069547520	53	19087
2026-01-20 10:03:16.71	344.25	17.71	-40.6	-55.4	3.8	1.49e+00	0	60	104	1069547520	53	19050
2026-01-20 10:03:17.72	344.25	17.59	-40.9	-55.6	3.8	1.49e+00	0	60	104	1069547520	52	20742
2026-01-20 10:03:18.73	344.24	17.47	-40.6	-55.5	3.8	1.49e+00	0	60	104	1069547520	52	20343
2026-01-20 10:03:19.74	344.24	17.35	-40.8	-55.5	3.8	1.49e+00	0	60	104	1069547520	52	20424
2026-01-20 10:03:20.75	344.23	17.23	-40.4	-55.4	3.8	1.49e+00	0	59	104	1069547520	52	20250
2026-01-20 10:03:21.76	344.23	17.11	-40.9	-55.6	3.8	1.49e+00	0	60	104	1069547520	52	20705
2026-01-20 10:03:22.77	344.23	17.00	-40.6	-55.4	3.8	1.49e+00	0	60	104	1069547520	52	20134
2026-01-20 10:03:23.78	344.22	16.88	-40.8	-55.6	3.8	1.49e+00	0	60	104	1069547520	52	20593
2026-01-20 10:03:24.79	344.22	16.76	-40.3	-55.4	3.8	1.49e+00	0	59	104	1069547520	52	20103
2026-01-20 10:03:25.80	344.21	16.65	-40.8	-55.5	3.8	1.49e+00	0	60	104	1069547520	52	20437
2026-01-20 10:03:26.81	344.21	16.53	-40.8	-55.5	3.8	1.49e+00	0	60	104	1069547520	52	20520
2026-01-20 10:03:27.82	344.21	16.42	-40.7	-55.6	3.8	1.49e+00	0	60	104	1069547520	52	20544
2026-01-20 10:03:28.82	344.20	16.31	-40.4	-55.3	3.8	1.49e+00	0	60	104	1069547520	52	19929
2026-01-20 10:03:29.83	344.20	16.20	-40.7	-55.4	3.8	1.49e+00	0	60	104	1069547520	52	20298
2026-01-20 10:03:30.84	344.20	16.08	-40.8	-55.6	3.8	1.49e+00	0	60	104	1069547520	52	20622
2026-01-20 10:03:31.85	344.19	15.97	-40.5	-55.4	3.8	1.49e+00	0	60	104	1069547520	52	20228
2026-01-20 10:03:32.86	344.19	15.86	-40.6	-55.3	3.8	1.49e+00	0	60	104	1069547520	52	20014
2026-01-20 10:03:33.87	344.19	15.75	-40.9	-55.6	3.8	1.49e+00	0	60	104	1069547520	52	20611
