passes_logs/2026/01/20/R2.0S_Moscow/R2.0S_Moscow__20260120_005129_NOAA_21_JPSS-2_rec.log

#Pass ID: 20260120_005129_NOAA 21 (JPSS-2)
#Satellite: NOAA 21 (JPSS-2)
#Configuration: NOAA-21
#almurnet v.1.7.20251203
#Start time: 2026-01-20 00:52:50

#Version: 2.2.20231116
#Station: R2.0S_Moscow
#Location: 37.707566 lon 55.798166 lat
#TLE: 1 54234U 22150A   26019.31231101  .00000073  00000+0  55355-4 0  9994
#TLE: 2 54234  98.7504 320.1599 0000604 258.3686 101.7423 14.19535697165426

#Time	Az	El	Level	Level2	SNR	BER	BlckErr	Temp	State	Recorded	gain1	gain2
2026-01-20 00:52:50.13	7.21	7.21	-45.1	-56.8	3.8	8.46e-01	0	62	0	0	61	14097
2026-01-20 00:52:51.13	7.15	7.28	-45.6	-58.0	3.8	1.49e+00	0	62	104	0	63	14470
2026-01-20 00:52:52.14	7.08	7.35	-45.5	-58.0	3.8	1.49e+00	0	62	104	0	63	14445
2026-01-20 00:52:53.15	7.01	7.42	-45.5	-58.0	3.8	1.49e+00	0	62	104	0	63	14435
2026-01-20 00:52:54.16	6.94	7.49	-45.4	-57.9	3.8	1.49e+00	0	62	104	0	62	15141
2026-01-20 00:52:55.17	6.87	7.56	-45.3	-57.8	3.8	1.49e+00	0	62	104	0	62	14966
2026-01-20 00:52:56.18	6.80	7.64	-45.2	-57.7	3.8	1.49e+00	0	62	104	0	62	14774
2026-01-20 00:52:57.19	6.73	7.71	-45.1	-57.6	3.8	1.49e+00	0	62	104	0	62	14586
2026-01-20 00:52:58.20	6.66	7.78	-44.9	-57.4	3.8	1.49e+00	0	62	104	0	61	15121
2026-01-20 00:52:59.21	6.59	7.85	-44.4	-56.9	3.8	1.49e+00	0	62	104	0	60	15150
2026-01-20 00:53:00.23	6.52	7.93	-42.5	-54.9	3.8	1.49e+00	0	62	104	0	57	14313
2026-01-20 00:53:01.24	6.45	8.00	-40.6	-53.2	3.8	1.49e+00	0	62	104	0	53	14760
2026-01-20 00:53:02.25	6.37	8.07	-40.6	-53.1	3.8	1.49e+00	0	62	104	0	53	14681
2026-01-20 00:53:03.26	6.30	8.14	-40.6	-53.1	3.8	1.49e+00	0	62	104	0	53	14659
2026-01-20 00:53:04.27	6.23	8.22	-40.6	-53.1	3.8	1.49e+00	0	62	104	0	53	14647
2026-01-20 00:53:05.28	6.15	8.29	-40.6	-53.2	3.8	1.49e+00	0	62	104	0	53	14742
2026-01-20 00:53:06.29	6.08	8.36	-40.6	-53.1	3.8	1.49e+00	0	62	104	0	53	14612
2026-01-20 00:53:07.30	6.01	8.44	-40.6	-53.1	3.8	1.49e+00	0	62	104	0	53	14645
2026-01-20 00:53:08.31	5.93	8.51	-40.6	-53.1	3.8	1.49e+00	0	62	104	0	53	14681
2026-01-20 00:53:09.32	5.86	8.59	-40.6	-53.1	3.8	1.49e+00	0	62	104	0	53	14635
2026-01-20 00:53:10.33	5.78	8.66	-40.6	-53.1	3.8	1.49e+00	0	62	104	0	53	14649
2026-01-20 00:53:11.34	5.71	8.74	-40.6	-53.1	3.8	1.49e+00	0	62	104	0	53	14600
2026-01-20 00:53:12.35	5.63	8.81	-40.6	-53.1	3.8	1.49e+00	0	62	104	0	53	14612
2026-01-20 00:53:13.36	5.55	8.88	-40.6	-53.1	3.8	1.49e+00	0	62	104	0	53	14612
2026-01-20 00:53:14.37	5.48	8.96	-40.6	-53.1	3.8	1.49e+00	0	62	104	0	53	14627
2026-01-20 00:53:15.38	5.40	9.03	-40.5	-53.1	3.8	1.49e+00	0	62	104	0	53	14583
2026-01-20 00:53:16.39	5.32	9.11	-40.6	-53.1	3.8	1.49e+00	0	62	104	0	53	14615
2026-01-20 00:53:17.40	5.24	9.19	-40.5	-53.1	3.8	1.49e+00	0	62	104	0	53	14606
2026-01-20 00:53:18.41	5.17	9.26	-40.5	-53.1	3.8	1.49e+00	0	62	104	0	53	14549
2026-01-20 00:53:19.43	5.09	9.34	-40.6	-53.1	3.8	1.49e+00	0	62	104	0	53	14545
2026-01-20 00:53:20.44	5.01	9.41	-40.6	-53.1	3.8	1.49e+00	0	62	104	0	53	14562
2026-01-20 00:53:21.45	4.93	9.49	-40.5	-53.1	3.8	1.49e+00	0	62	104	0	53	14558
2026-01-20 00:53:22.46	4.85	9.57	-40.5	-53.1	3.8	1.49e+00	0	62	104	0	53	14612
2026-01-20 00:53:23.47	4.76	9.64	-40.5	-53.1	3.8	1.49e+00	0	62	104	0	53	14568
2026-01-20 00:53:24.48	4.68	9.72	-40.5	-53.0	3.8	1.49e+00	0	62	104	0	53	14529
2026-01-20 00:53:25.49	4.60	9.80	-40.5	-53.1	3.8	1.49e+00	0	62	104	0	53	14563
2026-01-20 00:53:26.50	4.52	9.87	-40.5	-53.1	3.8	1.49e+00	0	62	104	0	53	14607
2026-01-20 00:53:27.51	4.44	9.95	-40.5	-53.1	3.8	1.49e+00	0	62	104	0	53	14556
2026-01-20 00:53:28.52	4.35	10.03	-40.5	-53.1	3.8	1.49e+00	0	62	104	0	53	14568
2026-01-20 00:53:29.53	4.27	10.11	-40.5	-53.1	3.8	1.49e+00	0	62	104	0	53	14543
2026-01-20 00:53:30.54	4.19	10.18	-40.5	-53.1	3.8	1.49e+00	0	62	104	0	53	14558
2026-01-20 00:53:31.55	4.10	10.26	-40.5	-53.0	3.8	1.49e+00	0	62	104	0	53	14532
2026-01-20 00:53:32.56	4.02	10.34	-40.5	-53.1	3.8	1.49e+00	0	62	104	0	53	14560
2026-01-20 00:53:33.57	3.93	10.42	-40.5	-53.1	3.8	1.49e+00	0	62	104	0	53	14570
2026-01-20 00:53:34.58	3.85	10.50	-40.5	-53.1	3.8	1.49e+00	0	62	104	0	53	14572
2026-01-20 00:53:35.59	3.76	10.58	-40.5	-53.1	3.8	1.49e+00	0	62	104	0	53	14549
2026-01-20 00:53:36.60	3.67	10.66	-40.5	-53.1	3.8	1.49e+00	0	62	104	0	53	14563
2026-01-20 00:53:37.61	3.59	10.73	-40.5	-53.1	3.8	1.49e+00	0	62	104	0	53	14548
2026-01-20 00:53:38.62	3.50	10.81	-40.5	-53.1	3.8	1.49e+00	0	62	104	0	53	14572
2026-01-20 00:53:39.63	3.41	10.89	-40.5	-53.1	3.8	1.49e+00	0	62	104	0	53	14613
2026-01-20 00:53:40.64	3.32	10.97	-40.5	-53.1	3.8	1.49e+00	0	62	104	0	53	14616
2026-01-20 00:53:41.65	3.23	11.05	-40.5	-53.1	3.8	1.49e+00	0	62	104	0	53	14548
2026-01-20 00:53:42.67	3.14	11.13	-40.5	-53.0	3.8	1.49e+00	0	62	104	0	53	14526
2026-01-20 00:53:43.68	3.05	11.21	-40.5	-53.0	3.8	1.49e+00	0	62	104	0	53	14529
2026-01-20 00:53:44.68	2.96	11.29	-40.5	-52.9	3.8	1.49e+00	0	62	104	0	52	15178
2026-01-20 00:53:45.70	2.87	11.38	-40.8	-53.5	3.8	1.49e+00	0	62	104	0	52	16152
2026-01-20 00:53:46.71	2.78	11.46	-40.5	-52.9	3.8	1.49e+00	0	62	104	0	52	15202
2026-01-20 00:53:47.72	2.68	11.54	-40.5	-52.9	3.8	1.49e+00	0	62	104	0	52	15193
2026-01-20 00:53:48.73	2.59	11.62	-40.4	-52.8	3.8	1.49e+00	0	62	104	0	52	15045
2026-01-20 00:53:49.74	2.50	11.70	-40.4	-52.9	3.8	1.49e+00	0	62	104	0	52	15101
2026-01-20 00:53:50.75	2.40	11.78	-40.4	-52.9	3.8	1.49e+00	0	62	104	0	52	15077
2026-01-20 00:53:51.76	2.31	11.86	-40.4	-52.8	3.8	1.49e+00	0	62	104	0	52	14983
2026-01-20 00:53:52.77	2.21	11.95	-40.4	-53.0	3.8	1.49e+00	0	62	104	0	52	15226
2026-01-20 00:53:53.78	2.12	12.03	-40.4	-52.9	3.8	1.49e+00	0	62	104	0	52	15172
2026-01-20 00:53:54.79	2.02	12.11	-41.2	-53.7	3.8	1.49e+00	0	62	104	0	52	16599
2026-01-20 00:53:55.80	1.92	12.19	-40.9	-53.4	3.8	1.49e+00	0	62	104	0	53	15151
2026-01-20 00:53:56.81	1.83	12.28	-40.6	-53.0	3.8	1.49e+00	0	62	104	0	53	14497
2026-01-20 00:53:57.82	1.73	12.36	-40.7	-53.1	3.8	1.49e+00	0	62	104	0	53	14633
2026-01-20 00:53:58.83	1.63	12.44	-40.6	-53.1	3.8	1.49e+00	0	62	104	0	53	14706
2026-01-20 00:53:59.84	1.53	12.52	-40.6	-53.0	3.8	1.49e+00	0	62	104	0	53	14491
2026-01-20 00:54:00.85	1.43	12.61	-41.0	-53.4	3.8	1.49e+00	0	62	104	0	53	15156
2026-01-20 00:54:01.86	1.33	12.69	-40.6	-53.0	3.8	1.49e+00	0	62	104	0	53	14424
2026-01-20 00:54:02.87	1.23	12.78	-41.7	-53.1	3.8	1.49e+00	0	62	104	0	53	14597
2026-01-20 00:54:03.88	1.13	12.86	-41.5	-52.1	3.9	1.49e+00	0	62	104	0	54	12361
2026-01-20 00:54:04.89	1.03	12.94	-41.1	-53.5	3.8	1.49e+00	0	62	104	0	54	14490
2026-01-20 00:54:05.90	0.92	13.03	-41.2	-50.5	4.2	1.49e+00	0	62	104	0	54	10240
2026-01-20 00:54:06.90	0.82	13.11	-41.1	-49.9	4.0	1.14e+00	0	62	104	0	54	9571
2026-01-20 00:54:07.91	0.72	13.20	-40.9	-48.1	5.4	6.01e-01	0	62	0	2097152	53	8186
2026-01-20 00:54:08.93	0.61	13.28	-40.6	-46.9	6.2	3.32e-01	0	62	0	5242880	53	7194
2026-01-20 00:54:09.94	0.51	13.37	-40.3	-45.8	7.2	1.53e-01	0	62	0	8388608	52	6675
2026-01-20 00:54:10.94	0.40	13.45	-40.1	-45.0	8.0	7.33e-02	0	62	0	11534336	52	6117
2026-01-20 00:54:11.96	0.29	13.54	-40.0	-44.8	8.4	5.33e-02	0	62	0	14680064	51	6275
2026-01-20 00:54:12.97	0.19	13.63	-39.9	-44.3	8.9	3.27e-02	0	62	0	17825792	51	5932
2026-01-20 00:54:13.98	0.08	13.71	-39.7	-43.9	9.2	2.09e-02	0	62	0	20971520	51	5713
2026-01-20 00:54:14.98	359.97	13.80	-39.7	-43.8	9.4	1.71e-02	0	62	0	24117248	51	5593
2026-01-20 00:54:15.99	359.86	13.89	-39.4	-43.0	10.4	5.33e-03	0	62	0	27262976	50	5421
2026-01-20 00:54:17.00	359.75	13.97	-39.3	-42.8	10.8	2.58e-03	0	62	0	30408704	50	5284
2026-01-20 00:54:18.01	359.64	14.06	-39.4	-42.9	10.7	2.34e-03	0	62	0	33554432	50	5381
2026-01-20 00:54:19.02	359.53	14.15	-39.6	-43.0	10.7	3.03e-03	0	62	0	36700160	50	5454
2026-01-20 00:54:20.03	359.42	14.23	-39.8	-43.4	10.4	4.37e-03	0	62	0	39845888	50	5685
2026-01-20 00:54:21.04	359.31	14.32	-40.0	-43.8	10.1	5.94e-03	0	62	0	42991616	50	5936
2026-01-20 00:54:22.05	359.20	14.41	-40.1	-43.9	10.0	9.38e-03	0	62	0	46137344	50	6039
2026-01-20 00:54:23.06	359.08	14.50	-40.0	-43.5	10.5	4.33e-03	0	62	0	49283072	50	5786
2026-01-20 00:54:24.06	358.97	14.58	-40.0	-43.4	10.6	3.26e-03	0	62	0	52428800	50	5720
2026-01-20 00:54:25.07	358.85	14.67	-40.0	-43.4	10.7	2.95e-03	0	62	0	55574528	50	5663
2026-01-20 00:54:26.08	358.74	14.76	-40.0	-43.3	10.9	2.52e-03	0	62	0	58720256	50	5623
2026-01-20 00:54:27.09	358.62	14.85	-40.0	-43.4	10.8	2.59e-03	0	62	0	61865984	50	5659
2026-01-20 00:54:28.10	358.50	14.94	-40.0	-43.3	11.0	2.28e-03	0	62	0	65011712	50	5625
2026-01-20 00:54:29.11	358.39	15.03	-40.0	-43.3	11.1	1.76e-03	0	62	0	68157440	50	5600
2026-01-20 00:54:30.12	358.27	15.12	-40.0	-43.1	11.2	1.25e-03	0	62	0	71303168	50	5525
2026-01-20 00:54:31.13	358.15	15.21	-39.9	-43.1	11.3	1.12e-03	0	62	0	74448896	50	5477
2026-01-20 00:54:32.14	358.03	15.30	-40.0	-43.2	11.2	1.29e-03	0	62	0	77594624	50	5554
2026-01-20 00:54:33.15	357.91	15.39	-40.1	-43.3	11.0	1.85e-03	0	62	0	80740352	50	5624
2026-01-20 00:54:34.16	357.78	15.48	-40.1	-43.3	11.0	1.89e-03	0	62	0	83886080	50	5615
2026-01-20 00:54:35.17	357.66	15.57	-40.0	-43.1	11.3	1.33e-03	0	62	0	87031808	50	5466
2026-01-20 00:54:36.18	357.54	15.66	-39.9	-43.0	11.3	1.10e-03	0	62	0	90177536	50	5443
2026-01-20 00:54:37.19	357.41	15.75	-40.0	-43.2	11.1	1.54e-03	0	62	0	93323264	50	5581
2026-01-20 00:54:38.20	357.29	15.84	-40.1	-43.4	10.8	2.15e-03	0	62	0	96468992	50	5673
2026-01-20 00:54:39.21	357.16	15.93	-39.9	-43.2	10.9	2.10e-03	0	62	0	99614720	50	5547
2026-01-20 00:54:40.22	357.04	16.02	-40.0	-43.3	10.7	2.61e-03	0	62	0	102760448	50	5653
2026-01-20 00:54:41.23	356.91	16.12	-39.7	-42.9	11.1	1.97e-03	0	62	0	105906176	50	5382
2026-01-20 00:54:42.23	356.78	16.21	-39.8	-43.1	10.9	2.07e-03	0	62	0	109051904	50	5488
2026-01-20 00:54:43.24	356.66	16.30	-39.7	-43.1	10.9	2.30e-03	0	62	0	112197632	50	5472
2026-01-20 00:54:44.25	356.53	16.39	-40.0	-43.6	10.3	4.99e-03	0	62	0	115343360	50	5799
2026-01-20 00:54:45.26	356.40	16.48	-40.2	-44.2	9.5	9.45e-03	0	62	0	118489088	50	6231
2026-01-20 00:54:46.27	356.26	16.58	-40.5	-45.1	8.5	3.20e-02	0	62	0	121634816	51	6513
2026-01-20 00:54:47.28	356.13	16.67	-40.7	-46.0	7.3	9.04e-02	0	62	0	124780544	52	6874
2026-01-20 00:54:48.29	356.00	16.76	-41.0	-47.3	6.2	2.39e-01	0	62	0	127926272	52	7913
2026-01-20 00:54:49.30	355.87	16.85	-41.1	-48.5	5.2	5.36e-01	0	62	0	131072000	52	9142
2026-01-20 00:54:50.31	355.73	16.95	-41.3	-49.7	4.5	1.07e+00	7	62	104	132120576	53	9943
2026-01-20 00:54:51.32	355.60	17.04	-41.2	-50.6	4.2	1.44e+00	0	62	104	132120576	53	10936
2026-01-20 00:54:52.33	355.46	17.14	-41.2	-51.9	3.9	1.48e+00	0	62	104	132120576	53	12702
2026-01-20 00:54:53.34	355.32	17.23	-41.1	-53.3	3.8	1.49e+00	0	62	104	132120576	53	14999
2026-01-20 00:54:54.35	355.18	17.32	-42.1	-53.4	3.8	1.49e+00	0	62	104	132120576	54	14243
2026-01-20 00:54:55.36	355.04	17.42	-41.8	-52.3	3.9	1.48e+00	0	62	104	132120576	54	12610
2026-01-20 00:54:56.37	354.90	17.51	-41.1	-53.6	3.8	1.49e+00	0	62	104	132120576	54	14602
2026-01-20 00:54:57.38	354.76	17.61	-41.5	-53.7	3.8	1.49e+00	0	62	104	132120576	54	14807
2026-01-20 00:54:58.39	354.62	17.70	-41.3	-53.5	3.8	1.49e+00	0	62	104	132120576	54	14528
2026-01-20 00:54:59.40	354.48	17.80	-41.3	-53.6	3.8	1.49e+00	0	62	104	132120576	54	14618
2026-01-20 00:55:00.41	354.34	17.89	-41.4	-53.9	3.8	1.49e+00	0	62	104	132120576	54	15089
2026-01-20 00:55:01.42	354.19	17.99	-41.1	-53.7	3.8	1.49e+00	0	62	104	132120576	54	14734
2026-01-20 00:55:02.43	354.05	18.08	-41.2	-53.6	3.8	1.49e+00	0	62	104	132120576	54	14652
2026-01-20 00:55:03.44	353.90	18.18	-41.1	-53.5	3.8	1.49e+00	0	62	104	132120576	54	14524
2026-01-20 00:55:04.46	353.75	18.28	-40.8	-53.2	3.8	1.49e+00	0	62	104	132120576	53	14804
2026-01-20 00:55:05.46	353.60	18.37	-40.7	-53.2	3.8	1.49e+00	0	62	104	132120576	53	14831
2026-01-20 00:55:06.47	353.46	18.47	-40.7	-53.3	3.8	1.49e+00	0	62	104	132120576	53	14935
2026-01-20 00:55:07.48	353.31	18.56	-40.7	-53.4	3.8	1.49e+00	0	62	104	132120576	53	15069
2026-01-20 00:55:08.49	353.15	18.66	-40.7	-53.4	3.8	1.49e+00	0	62	104	132120576	53	15056
2026-01-20 00:55:09.50	353.00	18.76	-40.9	-53.4	3.8	1.49e+00	0	62	104	132120576	53	15071
2026-01-20 00:55:10.51	352.85	18.86	-41.3	-53.8	3.8	1.49e+00	0	62	104	132120576	53	15812
2026-01-20 00:55:11.52	352.70	18.95	-41.0	-53.5	3.8	1.49e+00	0	62	104	132120576	53	15326
2026-01-20 00:55:12.53	352.54	19.05	-41.2	-53.6	3.8	1.49e+00	0	62	104	132120576	53	15471
2026-01-20 00:55:13.54	352.38	19.15	-41.0	-53.5	3.8	1.49e+00	0	62	104	132120576	53	15382
2026-01-20 00:55:14.55	352.23	19.25	-40.9	-53.4	3.8	1.49e+00	0	62	104	132120576	53	15092
2026-01-20 00:55:15.56	352.07	19.34	-40.8	-53.3	3.8	1.49e+00	0	62	104	132120576	53	14940
2026-01-20 00:55:16.57	351.91	19.44	-40.8	-53.3	3.8	1.49e+00	0	62	104	132120576	53	14913
2026-01-20 00:55:17.58	351.75	19.54	-40.9	-53.3	3.8	1.49e+00	0	62	104	132120576	53	14905
2026-01-20 00:55:18.59	351.59	19.64	-40.9	-53.3	3.8	1.49e+00	0	62	104	132120576	53	14974
2026-01-20 00:55:19.60	351.43	19.74	-41.1	-53.5	3.8	1.49e+00	0	62	104	132120576	53	15272
2026-01-20 00:55:20.61	351.26	19.83	-41.1	-53.5	3.8	1.49e+00	0	62	104	132120576	53	15262
2026-01-20 00:55:21.62	351.10	19.93	-41.4	-53.8	3.8	1.49e+00	0	62	104	132120576	53	15826
2026-01-20 00:55:22.62	350.93	20.03	-41.6	-53.3	3.8	1.49e+00	0	62	104	132120576	54	14088
2026-01-20 00:55:23.63	350.77	20.13	-41.4	-53.8	3.8	1.49e+00	0	62	104	132120576	54	14960
2026-01-20 00:55:24.64	350.60	20.23	-41.6	-53.4	3.8	1.49e+00	0	62	104	132120576	54	14250
2026-01-20 00:55:25.65	350.43	20.33	-41.3	-53.7	3.8	1.49e+00	0	62	104	132120576	54	14837
2026-01-20 00:55:26.66	350.26	20.43	-41.3	-53.1	3.8	1.49e+00	0	62	104	132120576	54	13802
2026-01-20 00:55:27.67	350.09	20.53	-41.6	-53.0	3.8	1.46e+00	0	62	104	132120576	54	13619
2026-01-20 00:55:28.68	349.92	20.63	-41.6	-51.7	3.9	1.49e+00	0	62	104	132120576	54	11718
2026-01-20 00:55:29.69	349.74	20.73	-41.7	-49.8	4.7	1.15e+00	2	62	104	132120576	54	9413
2026-01-20 00:55:30.70	349.57	20.83	-41.6	-49.0	5.1	9.45e-01	0	62	104	132120576	54	8635
2026-01-20 00:55:31.71	349.39	20.93	-41.5	-48.0	5.8	4.19e-01	0	62	0	134217728	54	7692
2026-01-20 00:55:32.72	349.22	21.03	-41.4	-47.3	6.4	2.98e-01	0	62	0	137363456	54	7113
2026-01-20 00:55:33.73	349.04	21.13	-41.2	-46.7	7.0	1.78e-01	0	62	0	140509184	54	6634
2026-01-20 00:55:34.74	348.86	21.23	-41.2	-46.5	7.2	1.41e-01	0	62	0	144703488	54	6491
2026-01-20 00:55:35.75	348.68	21.33	-40.9	-45.7	8.0	8.05e-02	0	62	0	147849216	53	6240
2026-01-20 00:55:36.76	348.50	21.43	-40.6	-44.9	9.0	3.20e-02	0	62	0	150994944	53	5696
2026-01-20 00:55:37.77	348.31	21.53	-40.3	-44.2	9.6	1.41e-02	0	62	0	153092096	52	5588
2026-01-20 00:55:38.78	348.13	21.63	-40.1	-43.8	10.1	8.35e-03	0	62	0	156237824	52	5307
2026-01-20 00:55:39.79	347.94	21.73	-39.9	-43.3	10.7	4.27e-03	0	62	0	160432128	51	5305
2026-01-20 00:55:40.80	347.76	21.83	-39.5	-42.5	11.6	1.03e-03	0	62	0	163577856	50	5124
2026-01-20 00:55:41.80	347.57	21.93	-39.2	-42.0	12.1	3.48e-04	0	62	0	166723584	50	4839
2026-01-20 00:55:42.81	347.38	22.03	-39.3	-42.1	12.0	2.82e-04	0	62	0	169869312	50	4896
2026-01-20 00:55:43.82	347.19	22.13	-39.3	-42.1	12.1	2.76e-04	0	62	0	173015040	50	4886
2026-01-20 00:55:44.84	347.00	22.24	-39.1	-41.7	12.5	1.33e-04	0	62	0	176160768	50	4687
2026-01-20 00:55:45.84	346.81	22.34	-39.0	-41.6	12.7	8.69e-05	0	62	0	179306496	49	4889
2026-01-20 00:55:46.85	346.61	22.44	-38.9	-41.5	12.8	6.86e-05	0	62	0	182452224	49	4846
2026-01-20 00:55:47.86	346.42	22.54	-38.7	-41.2	13.2	2.36e-05	0	62	0	185597952	49	4656
2026-01-20 00:55:48.87	346.22	22.64	-38.8	-41.2	13.1	1.75e-05	0	62	0	188743680	49	4694
2026-01-20 00:55:49.88	346.02	22.74	-39.0	-41.6	12.8	3.43e-05	0	62	0	191889408	49	4880
2026-01-20 00:55:50.89	345.82	22.84	-39.3	-42.0	12.4	1.03e-04	0	62	0	195035136	49	5119
2026-01-20 00:55:51.90	345.62	22.94	-39.4	-42.2	12.3	2.01e-04	0	62	0	198180864	49	5222
2026-01-20 00:55:52.91	345.42	23.04	-39.3	-41.8	12.8	1.04e-04	0	62	0	201326592	49	5039
2026-01-20 00:55:53.92	345.22	23.15	-39.2	-41.6	13.2	2.36e-05	0	62	0	204472320	49	4914
2026-01-20 00:55:54.93	345.01	23.25	-39.2	-41.5	13.4	2.05e-05	0	62	0	207618048	49	4855
2026-01-20 00:55:55.94	344.81	23.35	-39.4	-41.8	13.2	1.67e-05	0	62	0	210763776	49	5032
2026-01-20 00:55:56.95	344.60	23.45	-39.6	-42.0	13.1	3.28e-05	0	62	0	213909504	49	5137
2026-01-20 00:55:57.97	344.39	23.55	-39.5	-41.9	13.3	1.67e-05	0	62	0	217055232	49	5055
2026-01-20 00:55:58.98	344.18	23.65	-39.3	-41.5	13.7	9.90e-06	0	62	0	220200960	49	4844
2026-01-20 00:55:59.98	343.97	23.75	-39.4	-41.7	13.6	9.10e-06	0	62	0	223346688	49	4944
2026-01-20 00:56:01.00	343.76	23.86	-39.4	-41.7	13.6	9.10e-06	0	62	0	226492416	49	4940
2026-01-20 00:56:02.01	343.54	23.96	-39.4	-41.7	13.6	8.30e-06	0	62	0	229638144	49	4971
2026-01-20 00:56:03.02	343.33	24.06	-39.5	-41.8	13.5	1.06e-05	0	62	0	232783872	49	5010
2026-01-20 00:56:04.03	343.11	24.16	-39.6	-42.0	13.3	1.67e-05	0	62	0	235929600	49	5136
2026-01-20 00:56:05.04	342.89	24.26	-39.7	-42.1	13.3	1.37e-05	0	62	0	239075328	50	4905
2026-01-20 00:56:06.05	342.67	24.36	-39.7	-42.1	13.4	1.37e-05	0	62	0	242221056	50	4885
2026-01-20 00:56:07.06	342.45	24.46	-39.7	-42.0	13.4	1.60e-05	0	62	0	245366784	50	4867
2026-01-20 00:56:08.07	342.23	24.56	-39.7	-42.0	13.5	1.29e-05	0	62	0	248512512	50	4826
2026-01-20 00:56:09.08	342.00	24.67	-39.6	-41.9	13.6	1.22e-05	0	62	0	251658240	50	4784
2026-01-20 00:56:10.09	341.78	24.77	-39.5	-41.8	13.8	5.30e-06	0	62	0	254803968	50	4711
2026-01-20 00:56:11.10	341.55	24.87	-39.7	-42.0	13.6	7.60e-06	0	62	0	257949696	50	4818
2026-01-20 00:56:12.11	341.32	24.97	-39.8	-42.1	13.4	1.37e-05	0	62	0	261095424	50	4919
2026-01-20 00:56:13.12	341.09	25.07	-39.8	-42.2	13.4	1.60e-05	0	62	0	264241152	50	4953
2026-01-20 00:56:14.13	340.86	25.17	-39.8	-42.2	13.4	1.06e-05	0	62	0	267386880	50	4943
2026-01-20 00:56:15.14	340.62	25.27	-39.9	-42.3	13.3	1.75e-05	0	62	0	270532608	50	5015
2026-01-20 00:56:16.15	340.39	25.37	-39.9	-42.2	13.4	1.06e-05	0	62	0	273678336	50	4956
2026-01-20 00:56:17.16	340.15	25.47	-39.9	-42.2	13.5	1.37e-05	0	62	0	276824064	50	4970
2026-01-20 00:56:18.17	339.92	25.57	-39.7	-41.9	13.8	5.30e-06	0	62	0	279969792	50	4809
2026-01-20 00:56:19.18	339.68	25.67	-39.9	-42.2	13.6	8.30e-06	0	62	0	283115520	50	4935
2026-01-20 00:56:20.19	339.44	25.77	-39.9	-42.2	13.5	8.30e-06	0	62	0	286261248	50	4977
2026-01-20 00:56:21.20	339.19	25.87	-40.1	-42.5	13.3	1.22e-05	0	62	0	289406976	50	5104
2026-01-20 00:56:22.21	338.95	25.96	-40.1	-42.5	13.3	2.28e-05	0	62	0	292552704	50	5124
2026-01-20 00:56:23.22	338.70	26.06	-40.2	-42.6	13.3	2.28e-05	0	62	0	295698432	50	5166
2026-01-20 00:56:24.23	338.46	26.16	-40.2	-42.6	13.3	1.75e-05	0	62	0	298844160	50	5193
2026-01-20 00:56:25.24	338.21	26.26	-40.3	-42.7	13.2	2.97e-05	0	62	0	301989888	51	4958
2026-01-20 00:56:26.25	337.96	26.36	-40.3	-42.8	13.1	2.44e-05	0	62	0	305135616	51	4991
2026-01-20 00:56:27.26	337.71	26.46	-40.2	-42.6	13.2	3.05e-05	0	62	0	308281344	51	4917
2026-01-20 00:56:28.27	337.45	26.55	-40.2	-42.7	13.3	1.83e-05	0	62	0	311427072	51	4935
2026-01-20 00:56:29.29	337.20	26.65	-40.2	-42.6	13.3	1.83e-05	0	62	0	314572800	51	4887
2026-01-20 00:56:30.29	336.94	26.75	-40.2	-42.6	13.3	1.98e-05	0	62	0	317718528	51	4910
2026-01-20 00:56:31.30	336.69	26.84	-40.3	-42.6	13.3	1.60e-05	0	62	0	320864256	51	4924
2026-01-20 00:56:32.32	336.42	26.94	-40.2	-42.6	13.4	1.44e-05	0	62	0	324009984	51	4881
2026-01-20 00:56:33.33	336.16	27.04	-40.2	-42.5	13.4	1.29e-05	0	62	0	327155712	51	4845
2026-01-20 00:56:34.34	335.90	27.13	-40.1	-42.4	13.5	1.14e-05	0	62	0	330301440	51	4807
2026-01-20 00:56:35.34	335.64	27.23	-40.0	-42.3	13.6	9.90e-06	0	62	0	333447168	51	4734
2026-01-20 00:56:36.35	335.37	27.32	-40.0	-42.3	13.6	2.20e-06	0	62	0	336592896	51	4726
2026-01-20 00:56:37.36	335.10	27.42	-40.0	-42.3	13.6	3.80e-06	0	62	0	339738624	51	4721
2026-01-20 00:56:38.37	334.84	27.51	-39.9	-42.2	13.7	5.30e-06	0	62	0	342884352	51	4653
2026-01-20 00:56:39.38	334.57	27.60	-40.0	-42.2	13.7	5.30e-06	0	62	0	346030080	51	4694
2026-01-20 00:56:40.39	334.29	27.70	-40.0	-42.3	13.7	6.10e-06	0	62	0	349175808	51	4710
2026-01-20 00:56:41.40	334.02	27.79	-39.9	-42.1	13.8	3.00e-06	0	62	0	352321536	51	4648
2026-01-20 00:56:42.41	333.74	27.88	-39.9	-42.1	13.8	6.80e-06	0	62	0	355467264	51	4649
2026-01-20 00:56:43.42	333.47	27.98	-40.0	-42.3	13.7	2.20e-06	0	62	0	358612992	51	4706
2026-01-20 00:56:44.43	333.19	28.07	-40.1	-42.4	13.6	1.14e-05	0	62	0	361758720	51	4776
2026-01-20 00:56:45.44	332.91	28.16	-40.2	-42.6	13.4	1.14e-05	0	62	0	364904448	51	4884
2026-01-20 00:56:46.45	332.63	28.25	-40.2	-42.6	13.4	1.14e-05	0	62	0	368050176	51	4888
2026-01-20 00:56:47.46	332.34	28.34	-40.3	-42.7	13.3	2.13e-05	0	62	0	371195904	51	4943
2026-01-20 00:56:48.47	332.06	28.43	-40.3	-42.6	13.4	1.22e-05	0	62	0	374341632	51	4914
2026-01-20 00:56:49.48	331.77	28.52	-40.2	-42.5	13.5	1.06e-05	0	62	0	377487360	51	4841
2026-01-20 00:56:50.49	331.48	28.61	-40.2	-42.6	13.4	1.06e-05	0	62	0	380633088	51	4886
2026-01-20 00:56:51.50	331.19	28.70	-40.3	-42.6	13.4	1.52e-05	0	62	0	383778816	51	4911
2026-01-20 00:56:52.51	330.90	28.79	-40.2	-42.6	13.4	1.52e-05	0	62	0	386924544	51	4893
2026-01-20 00:56:53.52	330.61	28.87	-40.2	-42.5	13.5	7.60e-06	0	62	0	390070272	51	4829
2026-01-20 00:56:54.53	330.31	28.96	-40.0	-42.2	13.8	5.30e-06	0	62	0	393216000	51	4670
2026-01-20 00:56:55.54	330.01	29.05	-39.9	-42.1	13.9	2.20e-06	0	62	0	396361728	51	4628
2026-01-20 00:56:56.55	329.72	29.13	-40.0	-42.3	13.7	3.80e-06	0	62	0	399507456	51	4709
2026-01-20 00:56:57.56	329.42	29.22	-40.0	-42.2	13.8	3.80e-06	0	62	0	402653184	51	4664
2026-01-20 00:56:58.57	329.12	29.30	-40.0	-42.2	13.7	4.50e-06	0	62	0	405798912	51	4680
2026-01-20 00:56:59.58	328.81	29.38	-40.1	-42.3	13.6	7.60e-06	0	62	0	408944640	51	4747
2026-01-20 00:57:00.59	328.51	29.47	-40.0	-42.2	13.7	6.10e-06	0	62	0	412090368	51	4705
2026-01-20 00:57:01.60	328.20	29.55	-40.1	-42.3	13.7	9.10e-06	0	62	0	415236096	51	4745
2026-01-20 00:57:02.61	327.89	29.63	-40.1	-42.3	13.7	1.37e-05	0	62	0	418381824	51	4731
2026-01-20 00:57:03.62	327.58	29.71	-40.1	-42.3	13.7	4.50e-06	0	62	0	421527552	51	4720
2026-01-20 00:57:04.63	327.27	29.79	-40.1	-42.3	13.7	5.30e-06	0	62	0	424673280	51	4727
2026-01-20 00:57:05.64	326.96	29.87	-40.1	-42.3	13.7	9.90e-06	0	62	0	427819008	51	4750
2026-01-20 00:57:06.65	326.65	29.95	-40.2	-42.4	13.6	1.14e-05	0	62	0	430964736	51	4806
2026-01-20 00:57:07.65	326.33	30.03	-40.2	-42.5	13.5	1.14e-05	0	62	0	434110464	51	4858
2026-01-20 00:57:08.66	326.02	30.10	-40.2	-42.6	13.5	9.90e-06	0	62	0	437256192	51	4879
2026-01-20 00:57:09.67	325.70	30.18	-40.2	-42.5	13.5	8.30e-06	0	62	0	440401920	51	4849
2026-01-20 00:57:10.68	325.38	30.26	-40.3	-42.6	13.4	1.29e-05	0	62	0	444596224	51	4885
2026-01-20 00:57:11.69	325.06	30.33	-40.2	-42.5	13.6	6.80e-06	0	62	0	446693376	51	4832
2026-01-20 00:57:12.70	324.73	30.40	-40.2	-42.4	13.5	1.44e-05	0	62	0	449839104	51	4809
2026-01-20 00:57:13.72	324.41	30.48	-40.2	-42.5	13.4	9.10e-06	0	62	0	452984832	51	4849
2026-01-20 00:57:14.72	324.08	30.55	-40.4	-42.7	13.3	2.59e-05	0	62	0	456130560	51	4972
2026-01-20 00:57:15.73	323.76	30.62	-40.4	-42.8	13.2	2.82e-05	0	62	0	459276288	51	4986
2026-01-20 00:57:16.74	323.43	30.69	-40.4	-42.8	13.2	3.50e-05	0	62	0	463470592	51	5038
2026-01-20 00:57:17.75	323.10	30.76	-40.3	-42.6	13.4	1.14e-05	0	62	0	466616320	51	4907
2026-01-20 00:57:18.77	322.76	30.83	-40.2	-42.5	13.6	1.14e-05	0	62	0	468713472	51	4816
2026-01-20 00:57:19.78	322.43	30.90	-40.2	-42.5	13.5	1.29e-05	0	62	0	471859200	51	4868
2026-01-20 00:57:20.79	322.09	30.97	-40.2	-42.6	13.4	3.80e-06	0	62	0	476053504	51	4876
2026-01-20 00:57:21.80	321.76	31.03	-40.5	-42.9	13.2	3.20e-05	0	62	0	479199232	51	5050
2026-01-20 00:57:22.81	321.42	31.10	-40.4	-42.9	13.2	2.51e-05	0	62	0	482344960	51	5044
2026-01-20 00:57:23.81	321.08	31.16	-40.5	-42.9	13.2	2.05e-05	0	62	0	485490688	51	5061
2026-01-20 00:57:24.82	320.74	31.22	-40.6	-43.0	13.0	2.36e-05	0	62	0	488636416	51	5137
2026-01-20 00:57:25.83	320.40	31.28	-40.5	-43.0	13.0	4.34e-05	0	62	0	491782144	51	5102
2026-01-20 00:57:26.84	320.06	31.35	-40.5	-42.9	13.0	3.66e-05	0	62	0	494927872	51	5092
2026-01-20 00:57:27.85	319.72	31.41	-40.6	-43.1	12.9	3.81e-05	0	62	0	498073600	51	5167
2026-01-20 00:57:28.86	319.37	31.46	-40.7	-43.2	12.7	6.71e-05	0	62	0	501219328	52	4953
2026-01-20 00:57:29.87	319.02	31.52	-40.8	-43.4	12.5	9.46e-05	0	62	0	504365056	52	5066
2026-01-20 00:57:30.88	318.68	31.58	-40.8	-43.4	12.5	1.01e-04	0	62	0	507510784	52	5068
2026-01-20 00:57:31.89	318.33	31.63	-40.8	-43.4	12.5	1.14e-04	0	62	0	510656512	52	5066
2026-01-20 00:57:32.90	317.98	31.69	-40.8	-43.4	12.6	8.62e-05	0	62	0	513802240	52	5042
2026-01-20 00:57:33.91	317.62	31.74	-40.7	-43.3	12.6	1.04e-04	0	62	0	516947968	52	5034
2026-01-20 00:57:34.92	317.27	31.79	-40.7	-43.3	12.7	7.62e-05	0	62	0	520093696	52	5010
2026-01-20 00:57:35.93	316.92	31.85	-40.7	-43.3	12.6	7.78e-05	0	62	0	523239424	52	5002
2026-01-20 00:57:36.94	316.56	31.90	-40.7	-43.3	12.7	1.07e-04	0	62	0	526385152	52	5005
2026-01-20 00:57:37.95	316.21	31.94	-40.8	-43.5	12.5	1.23e-04	0	62	0	529530880	52	5121
2026-01-20 00:57:38.96	315.85	31.99	-40.8	-43.4	12.5	1.11e-04	0	62	0	532676608	52	5060
2026-01-20 00:57:39.97	315.49	32.04	-40.7	-43.2	12.8	6.86e-05	0	62	0	535822336	52	4959
2026-01-20 00:57:40.98	315.13	32.08	-40.7	-43.3	12.7	7.62e-05	0	62	0	538968064	52	5002
2026-01-20 00:57:41.99	314.77	32.13	-40.6	-43.1	12.8	5.72e-05	0	62	0	542113792	52	4916
2026-01-20 00:57:43.00	314.41	32.17	-40.6	-43.1	12.8	5.87e-05	0	62	0	545259520	52	4903
2026-01-20 00:57:44.01	314.05	32.21	-40.6	-43.1	12.8	5.26e-05	0	62	0	548405248	52	4921
2026-01-20 00:57:45.02	313.69	32.25	-40.8	-43.4	12.5	8.16e-05	0	62	0	551550976	52	5062
2026-01-20 00:57:46.03	313.32	32.29	-40.8	-43.4	12.4	1.30e-04	0	62	0	554696704	52	5090
2026-01-20 00:57:47.04	312.96	32.33	-40.9	-43.5	12.3	1.87e-04	0	62	0	557842432	52	5144
2026-01-20 00:57:48.05	312.59	32.37	-40.8	-43.5	12.4	1.74e-04	0	62	0	560988160	52	5120
2026-01-20 00:57:49.06	312.22	32.40	-40.7	-43.2	12.7	7.32e-05	0	62	0	564133888	52	4954
2026-01-20 00:57:50.07	311.86	32.44	-40.6	-43.1	12.9	5.03e-05	0	62	0	567279616	52	4884
2026-01-20 00:57:51.08	311.49	32.47	-40.6	-43.1	12.8	5.79e-05	0	62	0	570425344	52	4883
2026-01-20 00:57:52.08	311.12	32.50	-40.5	-42.9	13.0	3.35e-05	0	62	0	573571072	52	4778
2026-01-20 00:57:53.09	310.75	32.53	-40.4	-42.8	13.2	3.12e-05	0	62	0	576716800	52	4720
2026-01-20 00:57:54.11	310.38	32.56	-40.3	-42.6	13.3	2.05e-05	0	62	0	579862528	52	4635
2026-01-20 00:57:55.12	310.01	32.59	-40.3	-42.6	13.3	9.90e-06	0	62	0	583008256	52	4618
2026-01-20 00:57:56.13	309.64	32.61	-40.3	-42.6	13.3	1.29e-05	0	62	0	586153984	52	4643
2026-01-20 00:57:57.14	309.27	32.64	-40.4	-42.8	13.2	1.44e-05	0	62	0	589299712	52	4712
2026-01-20 00:57:58.15	308.89	32.66	-40.4	-42.9	13.1	3.81e-05	0	62	0	592445440	52	4766
2026-01-20 00:57:59.16	308.52	32.68	-40.5	-43.0	12.9	4.65e-05	0	62	0	595591168	52	4854
2026-01-20 00:58:00.17	308.15	32.70	-40.6	-43.1	12.8	5.49e-05	0	62	0	598736896	52	4889
2026-01-20 00:58:01.18	307.77	32.72	-40.7	-43.2	12.6	8.08e-05	0	63	0	601882624	52	4976
2026-01-20 00:58:02.19	307.40	32.74	-40.6	-43.2	12.7	6.25e-05	0	62	0	605028352	52	4946
2026-01-20 00:58:03.20	307.02	32.76	-40.7	-43.2	12.7	7.17e-05	0	62	0	608174080	52	4966
2026-01-20 00:58:04.21	306.65	32.77	-40.7	-43.3	12.7	8.92e-05	0	62	0	611319808	52	4997
2026-01-20 00:58:05.22	306.27	32.79	-40.8	-43.4	12.5	8.08e-05	0	62	0	614465536	52	5055
2026-01-20 00:58:06.23	305.90	32.80	-40.9	-43.6	12.3	1.53e-04	0	62	0	617611264	52	5200
2026-01-20 00:58:07.24	305.52	32.81	-41.0	-43.7	12.2	2.49e-04	0	62	0	620756992	52	5276
2026-01-20 00:58:08.25	305.14	32.82	-40.9	-43.6	12.3	2.03e-04	0	62	0	623902720	52	5202
2026-01-20 00:58:09.26	304.77	32.83	-40.8	-43.5	12.4	1.40e-04	0	62	0	627048448	52	5113
2026-01-20 00:58:10.27	304.39	32.83	-40.9	-43.6	12.3	1.43e-04	0	62	0	630194176	52	5166
2026-01-20 00:58:11.28	304.01	32.84	-40.9	-43.5	12.4	1.81e-04	0	62	0	633339904	52	5158
2026-01-20 00:58:12.29	303.63	32.84	-40.7	-43.3	12.6	1.07e-04	0	62	0	636485632	52	5027
2026-01-20 00:58:13.30	303.26	32.84	-40.6	-43.1	12.8	6.02e-05	0	62	0	639631360	52	4922
2026-01-20 00:58:14.31	302.88	32.85	-40.7	-43.2	12.7	6.56e-05	0	62	0	642777088	52	4955
2026-01-20 00:58:15.32	302.50	32.85	-40.7	-43.3	12.7	8.62e-05	0	62	0	645922816	52	4985
2026-01-20 00:58:16.33	302.12	32.84	-40.8	-43.4	12.5	9.46e-05	0	62	0	649068544	52	5080
2026-01-20 00:58:17.34	301.75	32.84	-41.0	-43.7	12.2	1.96e-04	0	62	0	652214272	52	5257
2026-01-20 00:58:18.35	301.37	32.84	-41.0	-43.7	12.2	2.23e-04	0	62	0	655360000	52	5241
2026-01-20 00:58:19.36	300.99	32.83	-41.0	-43.7	12.2	2.40e-04	0	62	0	658505728	52	5241
2026-01-20 00:58:20.37	300.62	32.82	-40.9	-43.6	12.3	1.76e-04	0	62	0	661651456	52	5188
2026-01-20 00:58:21.38	300.24	32.81	-40.9	-43.7	12.2	2.05e-04	0	62	0	664797184	52	5220
2026-01-20 00:58:22.39	299.86	32.80	-40.8	-43.4	12.5	1.37e-04	0	62	0	667942912	52	5089
2026-01-20 00:58:23.40	299.49	32.79	-40.7	-43.3	12.7	9.00e-05	0	62	0	671088640	52	5012
2026-01-20 00:58:24.41	299.11	32.78	-40.7	-43.3	12.7	1.03e-04	0	62	0	674234368	52	5000
2026-01-20 00:58:25.42	298.73	32.77	-40.5	-43.0	12.9	5.18e-05	0	62	0	677380096	52	4846
2026-01-20 00:58:26.43	298.36	32.75	-40.5	-43.0	12.9	4.19e-05	0	62	0	680525824	52	4826
2026-01-20 00:58:27.43	297.99	32.73	-40.5	-42.9	13.0	3.81e-05	0	62	0	683671552	52	4795
2026-01-20 00:58:28.44	297.61	32.72	-40.6	-43.1	12.8	5.64e-05	0	62	0	686817280	52	4893
2026-01-20 00:58:29.45	297.24	32.70	-40.6	-43.1	12.9	6.10e-05	0	62	0	689963008	52	4919
2026-01-20 00:58:30.46	296.86	32.67	-40.6	-43.1	12.7	6.25e-05	0	62	0	693108736	52	4913
2026-01-20 00:58:31.47	296.49	32.65	-40.6	-43.1	12.8	6.48e-05	0	62	0	696254464	52	4923
2026-01-20 00:58:32.48	296.12	32.63	-40.7	-43.3	12.6	7.47e-05	0	62	0	699400192	52	5029
2026-01-20 00:58:33.49	295.75	32.60	-40.8	-43.4	12.5	1.30e-04	0	62	0	702545920	52	5097
2026-01-20 00:58:34.50	295.37	32.58	-40.9	-43.6	12.3	1.81e-04	0	62	0	705691648	52	5192
2026-01-20 00:58:35.51	295.00	32.55	-40.9	-43.6	12.3	1.59e-04	0	62	0	708837376	52	5198
2026-01-20 00:58:36.52	294.63	32.52	-40.9	-43.5	12.4	1.47e-04	0	62	0	711983104	52	5152
2026-01-20 00:58:37.53	294.26	32.49	-40.8	-43.4	12.5	9.46e-05	0	62	0	715128832	52	5051
2026-01-20 00:58:38.54	293.89	32.46	-40.7	-43.2	12.7	6.71e-05	0	62	0	718274560	52	4983
2026-01-20 00:58:39.55	293.53	32.42	-40.6	-43.0	12.9	5.26e-05	0	62	0	721420288	52	4862
2026-01-20 00:58:40.55	293.16	32.39	-40.5	-42.9	13.0	3.58e-05	0	62	0	724566016	52	4777
2026-01-20 00:58:41.56	292.79	32.35	-40.5	-42.9	13.0	2.89e-05	0	62	0	727711744	52	4796
2026-01-20 00:58:42.58	292.43	32.32	-40.4	-42.8	13.2	2.44e-05	0	62	0	730857472	52	4722
2026-01-20 00:58:43.59	292.06	32.28	-40.3	-42.6	13.3	1.60e-05	0	62	0	734003200	52	4647
2026-01-20 00:58:44.59	291.70	32.24	-40.3	-42.6	13.3	1.44e-05	0	62	0	737148928	52	4641
2026-01-20 00:58:45.60	291.34	32.20	-40.4	-42.8	13.2	1.75e-05	0	63	0	740294656	52	4710
2026-01-20 00:58:46.61	290.97	32.16	-40.5	-42.9	13.0	2.21e-05	0	62	0	743440384	52	4797
2026-01-20 00:58:47.62	290.61	32.11	-40.6	-43.1	12.9	5.11e-05	0	62	0	746586112	52	4874
2026-01-20 00:58:48.63	290.25	32.07	-40.6	-43.1	12.8	5.95e-05	0	62	0	749731840	52	4916
2026-01-20 00:58:49.64	289.89	32.02	-40.6	-43.1	12.8	5.79e-05	0	62	0	752877568	52	4913
2026-01-20 00:58:50.65	289.53	31.98	-40.5	-43.0	12.9	4.95e-05	0	62	0	756023296	52	4846
2026-01-20 00:58:51.66	289.18	31.93	-40.6	-43.1	12.8	4.73e-05	0	62	0	759169024	52	4904
2026-01-20 00:58:52.67	288.82	31.88	-40.6	-43.1	12.8	6.02e-05	0	62	0	762314752	52	4920
2026-01-20 00:58:53.68	288.46	31.83	-40.5	-43.0	12.9	5.56e-05	0	62	0	765460480	52	4867
2026-01-20 00:58:54.69	288.11	31.78	-40.5	-42.9	13.0	3.81e-05	0	62	0	768606208	52	4800
2026-01-20 00:58:55.70	287.76	31.72	-40.5	-42.9	12.9	6.10e-05	0	62	0	771751936	52	4813
2026-01-20 00:58:56.71	287.41	31.67	-40.5	-43.0	12.8	5.72e-05	0	62	0	774897664	52	4866
2026-01-20 00:58:57.72	287.06	31.61	-40.6	-43.1	12.7	6.71e-05	0	62	0	778043392	52	4917
2026-01-20 00:58:58.73	286.71	31.56	-40.7	-43.3	12.5	9.91e-05	0	62	0	781189120	52	5041
2026-01-20 00:58:59.74	286.36	31.50	-40.8	-43.4	12.5	1.06e-04	0	62	0	784334848	52	5075
2026-01-20 00:59:00.75	286.01	31.44	-40.9	-43.5	12.4	1.36e-04	0	62	0	787480576	52	5135
2026-01-20 00:59:01.76	285.66	31.38	-40.6	-43.2	12.7	6.56e-05	0	63	0	790626304	52	4930
2026-01-20 00:59:02.77	285.32	31.32	-40.4	-42.8	13.1	3.89e-05	0	62	0	793772032	52	4751
2026-01-20 00:59:03.78	284.98	31.26	-40.3	-42.6	13.3	2.89e-05	0	62	0	796917760	52	4651
2026-01-20 00:59:04.79	284.63	31.20	-40.3	-42.7	13.3	1.67e-05	0	62	0	801112064	52	4665
2026-01-20 00:59:05.80	284.29	31.14	-40.4	-42.8	13.2	2.21e-05	0	62	0	804257792	52	4726
2026-01-20 00:59:06.81	283.95	31.07	-40.5	-43.0	12.9	3.58e-05	0	63	0	807403520	52	4866
2026-01-20 00:59:07.82	283.62	31.01	-40.8	-43.4	12.5	1.01e-04	0	62	0	809500672	52	5067
2026-01-20 00:59:08.83	283.28	30.94	-40.8	-43.5	12.4	1.35e-04	0	63	0	812646400	52	5137
2026-01-20 00:59:09.84	282.95	30.87	-40.7	-43.2	12.6	1.06e-04	0	63	0	816840704	52	4977
2026-01-20 00:59:10.85	282.61	30.80	-40.5	-42.9	13.0	4.19e-05	0	62	0	819986432	52	4801
2026-01-20 00:59:11.86	282.28	30.73	-40.1	-42.5	13.4	1.90e-05	0	62	0	823132160	52	4548
2026-01-20 00:59:12.87	281.95	30.66	-40.0	-42.3	13.6	9.90e-06	0	62	0	826277888	51	4727
2026-01-20 00:59:13.88	281.62	30.59	-40.0	-42.2	13.8	9.10e-06	0	62	0	829423616	51	4675
2026-01-20 00:59:14.89	281.29	30.52	-40.0	-42.2	13.7	1.50e-06	0	62	0	832569344	51	4687
2026-01-20 00:59:15.90	280.96	30.45	-40.2	-42.5	13.5	9.10e-06	0	62	0	835715072	51	4827
2026-01-20 00:59:16.91	280.64	30.37	-40.5	-42.9	13.1	1.83e-05	0	62	0	838860800	51	5056
2026-01-20 00:59:17.92	280.32	30.30	-40.6	-43.1	12.9	4.11e-05	0	62	0	842006528	51	5191
2026-01-20 00:59:18.93	279.99	30.23	-40.6	-43.0	12.9	4.65e-05	0	62	0	845152256	51	5148
2026-01-20 00:59:19.94	279.67	30.15	-40.5	-42.9	13.1	3.58e-05	0	62	0	848297984	51	5066
2026-01-20 00:59:20.95	279.35	30.07	-40.4	-42.8	13.2	2.28e-05	0	62	0	851443712	51	5007
2026-01-20 00:59:21.96	279.04	29.99	-40.2	-42.5	13.4	1.22e-05	0	62	0	854589440	51	4865
2026-01-20 00:59:22.97	278.72	29.92	-40.2	-42.5	13.5	1.14e-05	0	62	0	857735168	51	4834
2026-01-20 00:59:23.98	278.41	29.84	-40.1	-42.3	13.6	6.80e-06	0	62	0	860880896	51	4744
2026-01-20 00:59:24.99	278.09	29.76	-40.2	-42.5	13.4	1.22e-05	0	62	0	864026624	51	4865
2026-01-20 00:59:26.00	277.78	29.68	-40.4	-42.8	13.2	1.83e-05	0	62	0	867172352	51	5008
2026-01-20 00:59:27.01	277.47	29.59	-40.5	-42.9	13.0	3.96e-05	0	62	0	870318080	51	5096
2026-01-20 00:59:28.02	277.16	29.51	-40.4	-42.8	13.1	1.90e-05	0	62	0	873463808	51	5009
2026-01-20 00:59:29.03	276.86	29.43	-40.2	-42.5	13.4	9.10e-06	0	62	0	876609536	51	4856
2026-01-20 00:59:30.04	276.55	29.35	-40.1	-42.4	13.6	1.60e-05	0	62	0	879755264	51	4764
2026-01-20 00:59:31.05	276.25	29.26	-40.0	-42.2	13.8	6.10e-06	0	62	0	882900992	51	4682
2026-01-20 00:59:32.06	275.95	29.18	-39.9	-42.1	13.8	1.50e-06	0	62	0	886046720	51	4650
2026-01-20 00:59:33.06	275.65	29.09	-40.1	-42.4	13.7	9.90e-06	0	62	0	889192448	51	4766
2026-01-20 00:59:34.07	275.35	29.01	-40.2	-42.5	13.5	1.06e-05	0	62	0	892338176	51	4863
2026-01-20 00:59:35.08	275.05	28.92	-40.3	-42.7	13.3	1.98e-05	0	63	0	895483904	51	4946
2026-01-20 00:59:36.09	274.76	28.83	-40.3	-42.6	13.3	1.98e-05	0	62	0	898629632	51	4911
2026-01-20 00:59:37.10	274.46	28.74	-40.2	-42.6	13.3	1.75e-05	0	62	0	901775360	51	4876
2026-01-20 00:59:38.11	274.17	28.66	-40.0	-42.2	13.6	1.29e-05	0	62	0	904921088	51	4704
2026-01-20 00:59:39.12	273.88	28.57	-39.8	-42.0	13.9	3.00e-06	0	62	0	908066816	51	4554
2026-01-20 00:59:40.13	273.59	28.48	-39.7	-41.9	14.0	3.00e-06	0	62	0	911212544	51	4505
2026-01-20 00:59:41.14	273.31	28.39	-39.8	-41.9	13.9	4.50e-06	0	62	0	914358272	51	4544
2026-01-20 00:59:42.15	273.02	28.30	-40.0	-42.2	13.7	3.80e-06	0	62	0	917504000	51	4677
2026-01-20 00:59:43.16	272.74	28.21	-40.3	-42.7	13.2	1.83e-05	0	62	0	920649728	51	4970
2026-01-20 00:59:44.17	272.45	28.12	-40.6	-43.2	12.7	6.33e-05	0	62	0	923795456	51	5229
2026-01-20 00:59:45.18	272.17	28.02	-40.7	-43.4	12.4	1.17e-04	0	62	0	926941184	52	5076
2026-01-20 00:59:46.19	271.89	27.93	-40.7	-43.3	12.5	1.37e-04	0	62	0	930086912	52	5017
2026-01-20 00:59:47.20	271.62	27.84	-40.5	-43.1	12.7	7.40e-05	0	62	0	933232640	52	4912
2026-01-20 00:59:48.21	271.34	27.75	-40.3	-42.8	13.0	4.73e-05	0	62	0	936378368	52	4716
2026-01-20 00:59:49.22	271.06	27.65	-40.1	-42.4	13.4	2.05e-05	0	62	0	939524096	52	4535
2026-01-20 00:59:50.23	270.79	27.56	-40.1	-42.3	13.6	9.90e-06	0	63	0	942669824	51	4756
2026-01-20 00:59:51.24	270.52	27.46	-40.0	-42.2	13.7	4.50e-06	0	62	0	945815552	51	4671
2026-01-20 00:59:52.25	270.25	27.37	-39.9	-42.1	13.8	4.50e-06	0	62	0	948961280	51	4645
2026-01-20 00:59:53.26	269.98	27.27	-40.0	-42.2	13.7	4.50e-06	0	63	0	952107008	51	4700
2026-01-20 00:59:54.27	269.72	27.18	-40.0	-42.3	13.6	7.60e-06	0	63	0	955252736	51	4717
2026-01-20 00:59:55.28	269.45	27.08	-40.0	-42.2	13.7	3.80e-06	0	62	0	958398464	51	4690
2026-01-20 00:59:56.29	269.19	26.99	-39.8	-42.0	13.8	3.00e-06	0	62	0	961544192	51	4583
2026-01-20 00:59:57.30	268.93	26.89	-39.6	-41.7	14.1	7.00e-07	0	62	0	964689920	51	4420
2026-01-20 00:59:58.31	268.67	26.79	-39.5	-41.5	14.3	1.50e-06	0	62	0	967835648	50	4581
2026-01-20 00:59:59.32	268.41	26.69	-39.3	-41.3	14.6	7.00e-07	0	62	0	970981376	50	4444
2026-01-20 01:00:00.33	268.15	26.60	-39.3	-41.3	14.6	0.00e+00	0	62	0	974127104	50	4450
2026-01-20 01:00:01.34	267.90	26.50	-39.4	-41.5	14.4	0.00e+00	0	62	0	977272832	50	4556
2026-01-20 01:00:02.35	267.64	26.40	-39.5	-41.6	14.3	7.00e-07	0	63	0	980418560	50	4631
2026-01-20 01:00:03.36	267.39	26.30	-39.7	-41.8	14.1	2.20e-06	0	63	0	983564288	50	4744
2026-01-20 01:00:04.37	267.14	26.20	-39.9	-42.1	13.8	5.30e-06	0	62	0	986710016	50	4894
2026-01-20 01:00:05.38	266.89	26.11	-39.9	-42.2	13.7	3.80e-06	0	62	0	989855744	50	4956
2026-01-20 01:00:06.39	266.64	26.01	-40.0	-42.3	13.5	6.10e-06	0	62	0	993001472	50	5008
2026-01-20 01:00:07.40	266.40	25.91	-40.0	-42.2	13.5	9.90e-06	0	62	0	996147200	50	4983
2026-01-20 01:00:08.41	266.15	25.81	-40.0	-42.2	13.5	3.80e-06	0	62	0	999292928	50	4961
2026-01-20 01:00:09.42	265.91	25.71	-39.9	-42.1	13.6	9.90e-06	0	62	0	1002438656	50	4892
2026-01-20 01:00:10.43	265.67	25.61	-39.7	-41.9	13.9	2.20e-06	0	62	0	1005584384	50	4774
2026-01-20 01:00:11.44	265.43	25.51	-39.8	-41.9	13.8	4.50e-06	0	62	0	1008730112	50	4811
2026-01-20 01:00:12.45	265.19	25.41	-39.8	-42.0	13.8	3.00e-06	0	62	0	1011875840	50	4859
2026-01-20 01:00:13.46	264.95	25.31	-40.0	-42.3	13.5	1.14e-05	0	62	0	1015021568	50	5006
2026-01-20 01:00:14.47	264.72	25.21	-40.2	-42.6	13.2	2.44e-05	0	62	0	1018167296	51	4902
2026-01-20 01:00:15.48	264.48	25.11	-40.4	-42.9	13.0	3.58e-05	0	62	0	1021313024	51	5054
2026-01-20 01:00:16.49	264.25	25.01	-40.4	-42.9	13.0	4.04e-05	0	63	0	1024458752	51	5054
2026-01-20 01:00:17.50	264.02	24.91	-40.3	-42.8	13.1	3.43e-05	0	62	0	1027604480	51	5004
2026-01-20 01:00:18.50	263.79	24.81	-40.3	-42.7	13.2	2.97e-05	0	62	0	1030750208	51	4937
2026-01-20 01:00:19.51	263.57	24.70	-40.3	-42.7	13.1	3.89e-05	0	62	0	1033895936	51	4966
2026-01-20 01:00:20.52	263.34	24.60	-40.1	-42.4	13.4	1.06e-05	0	62	0	1037041664	51	4768
2026-01-20 01:00:21.53	263.11	24.50	-40.0	-42.2	13.6	1.29e-05	0	62	0	1040187392	51	4689
2026-01-20 01:00:22.54	262.89	24.40	-40.0	-42.3	13.5	7.60e-06	0	62	0	1043333120	51	4720
2026-01-20 01:00:23.55	262.67	24.30	-40.0	-42.3	13.5	1.75e-05	0	62	0	1046478848	51	4736
2026-01-20 01:00:24.56	262.45	24.20	-40.2	-42.5	13.2	1.44e-05	0	62	0	1049624576	51	4858
2026-01-20 01:00:25.57	262.23	24.10	-40.3	-42.7	13.1	1.75e-05	0	62	0	1052770304	51	4957
2026-01-20 01:00:26.58	262.01	23.99	-40.3	-42.7	13.1	3.73e-05	0	62	0	1055916032	51	4958
2026-01-20 01:00:27.59	261.80	23.89	-40.3	-42.7	13.1	2.97e-05	0	62	0	1059061760	51	4983
2026-01-20 01:00:28.60	261.58	23.79	-40.3	-42.7	13.2	2.59e-05	0	62	0	1062207488	51	4957
2026-01-20 01:00:29.61	261.37	23.69	-40.3	-42.7	13.1	2.82e-05	0	62	0	1065353216	51	4980
2026-01-20 01:00:30.62	261.15	23.59	-40.1	-42.4	13.4	1.75e-05	0	63	0	1068498944	51	4802
2026-01-20 01:00:31.63	260.94	23.49	-40.1	-42.4	13.5	1.29e-05	0	62	0	1071644672	51	4773
2026-01-20 01:00:32.64	260.73	23.38	-40.0	-42.2	13.6	5.30e-06	0	63	0	1074790400	51	4692
2026-01-20 01:00:33.65	260.53	23.28	-39.9	-42.2	13.7	9.10e-06	0	62	0	1077936128	51	4673
2026-01-20 01:00:34.66	260.32	23.18	-40.0	-42.3	13.6	3.00e-06	0	62	0	1081081856	51	4731
2026-01-20 01:00:35.67	260.11	23.08	-40.1	-42.5	13.4	2.05e-05	0	62	0	1084227584	51	4816
2026-01-20 01:00:36.68	259.91	22.98	-40.2	-42.6	13.3	2.44e-05	0	62	0	1087373312	51	4871
2026-01-20 01:00:37.69	259.71	22.87	-40.1	-42.4	13.4	1.14e-05	0	63	0	1090519040	51	4790
2026-01-20 01:00:38.70	259.51	22.77	-40.1	-42.5	13.3	1.52e-05	0	62	0	1093664768	51	4841
2026-01-20 01:00:39.71	259.31	22.67	-40.2	-42.6	13.3	1.83e-05	0	63	0	1096810496	51	4878
2026-01-20 01:00:40.72	259.11	22.57	-40.1	-42.5	13.3	2.05e-05	0	63	0	1099956224	52	4555
2026-01-20 01:00:41.73	258.91	22.47	-40.0	-42.3	13.4	1.22e-05	0	63	0	1103101952	52	4483
2026-01-20 01:00:42.74	258.72	22.36	-39.9	-42.2	13.7	3.80e-06	0	63	0	1106247680	51	4666
2026-01-20 01:00:43.75	258.52	22.26	-39.7	-41.9	14.0	4.50e-06	0	62	0	1109393408	51	4504
2026-01-20 01:00:44.76	258.33	22.16	-39.6	-41.7	14.2	3.80e-06	0	62	0	1112539136	51	4403
2026-01-20 01:00:45.77	258.13	22.06	-39.6	-41.7	14.2	2.20e-06	0	62	0	1115684864	51	4401
2026-01-20 01:00:46.78	257.94	21.96	-39.5	-41.6	14.2	0.00e+00	0	63	0	1118830592	51	4383
2026-01-20 01:00:47.79	257.75	21.86	-39.6	-41.7	14.1	2.20e-06	0	63	0	1123024896	51	4437
2026-01-20 01:00:48.80	257.57	21.76	-39.8	-42.0	13.9	3.80e-06	0	62	0	1125122048	51	4549
2026-01-20 01:00:49.81	257.38	21.65	-39.8	-42.0	13.8	4.50e-06	0	62	0	1128267776	51	4585
2026-01-20 01:00:50.82	257.19	21.55	-39.8	-42.0	13.8	6.10e-06	0	62	0	1131413504	51	4587
2026-01-20 01:00:51.83	257.01	21.45	-39.7	-41.8	14.0	6.80e-06	0	63	0	1134559232	51	4480
2026-01-20 01:00:52.84	256.82	21.35	-39.6	-41.7	14.1	1.50e-06	0	62	0	1138753536	51	4408
2026-01-20 01:00:53.85	256.64	21.25	-39.5	-41.6	14.3	7.00e-07	0	62	0	1141899264	50	4601
2026-01-20 01:00:54.86	256.46	21.15	-39.5	-41.6	14.2	0.00e+00	0	63	0	1145044992	50	4612
2026-01-20 01:00:55.86	256.28	21.05	-39.5	-41.6	14.1	7.00e-07	0	63	0	1147142144	50	4629
2026-01-20 01:00:56.87	256.10	20.95	-39.7	-41.9	13.9	3.00e-06	0	62	0	1150287872	50	4760
2026-01-20 01:00:57.88	255.93	20.85	-39.8	-42.0	13.7	6.80e-06	0	62	0	1153433600	50	4842
2026-01-20 01:00:58.89	255.75	20.75	-40.0	-42.3	13.5	6.80e-06	0	62	0	1157627904	50	5007
2026-01-20 01:00:59.90	255.57	20.65	-40.1	-42.4	13.3	1.60e-05	0	63	0	1160773632	50	5094
2026-01-20 01:01:00.91	255.40	20.55	-40.0	-42.4	13.4	9.10e-06	0	62	0	1163919360	50	5065
2026-01-20 01:01:01.92	255.23	20.45	-39.9	-42.1	13.7	1.44e-05	0	63	0	1167065088	50	4915
2026-01-20 01:01:02.93	255.06	20.35	-39.7	-41.9	13.9	2.20e-06	0	63	0	1170210816	50	4793
2026-01-20 01:01:03.94	254.88	20.25	-39.7	-41.8	14.0	2.20e-06	0	62	0	1173356544	50	4748
2026-01-20 01:01:04.95	254.71	20.15	-39.7	-41.9	14.0	1.50e-06	0	62	0	1176502272	50	4761
2026-01-20 01:01:05.96	254.55	20.05	-39.6	-41.8	14.0	1.50e-06	0	62	0	1179648000	50	4721
2026-01-20 01:01:06.97	254.38	19.95	-39.7	-41.9	13.9	7.00e-07	0	62	0	1182793728	50	4806
2026-01-20 01:01:07.98	254.21	19.85	-39.9	-42.2	13.6	6.10e-06	0	63	0	1185939456	50	4967
2026-01-20 01:01:08.99	254.05	19.75	-40.1	-42.5	13.3	1.22e-05	0	62	0	1189085184	50	5107
2026-01-20 01:01:10.00	253.88	19.65	-40.1	-42.5	13.2	2.44e-05	0	63	0	1192230912	50	5154
2026-01-20 01:01:11.01	253.72	19.55	-40.1	-42.5	13.3	1.98e-05	0	62	0	1195376640	50	5129
2026-01-20 01:01:12.02	253.56	19.45	-40.1	-42.4	13.3	1.37e-05	0	62	0	1198522368	50	5093
2026-01-20 01:01:13.03	253.40	19.35	-40.0	-42.3	13.5	9.90e-06	0	63	0	1201668096	50	5005
2026-01-20 01:01:14.03	253.24	19.26	-39.9	-42.2	13.5	6.80e-06	0	62	0	1204813824	50	4978
2026-01-20 01:01:15.04	253.08	19.16	-39.8	-42.0	13.8	4.50e-06	0	62	0	1207959552	50	4843
2026-01-20 01:01:16.05	252.92	19.06	-39.7	-41.9	13.8	6.10e-06	0	63	0	1211105280	50	4794
2026-01-20 01:01:17.06	252.77	18.96	-39.6	-41.8	13.9	3.80e-06	0	63	0	1214251008	50	4735
2026-01-20 01:01:18.07	252.61	18.87	-39.8	-42.0	13.7	6.10e-06	0	63	0	1217396736	50	4852
2026-01-20 01:01:19.08	252.45	18.77	-39.9	-42.2	13.5	1.22e-05	0	62	0	1220542464	50	4960
2026-01-20 01:01:20.09	252.30	18.67	-40.1	-42.6	13.1	2.44e-05	0	62	0	1223688192	50	5168
2026-01-20 01:01:21.11	252.15	18.57	-40.3	-42.8	12.9	4.42e-05	0	62	0	1226833920	51	5008
2026-01-20 01:01:22.12	251.99	18.47	-40.4	-42.9	12.7	6.79e-05	0	63	0	1229979648	51	5092
2026-01-20 01:01:23.13	251.84	18.38	-40.4	-43.0	12.7	6.79e-05	0	62	0	1233125376	51	5127
2026-01-20 01:01:24.14	251.69	18.28	-40.4	-43.0	12.6	8.01e-05	0	62	0	1236271104	51	5156
2026-01-20 01:01:25.15	251.54	18.18	-40.5	-43.1	12.6	5.95e-05	0	62	0	1239416832	51	5163
2026-01-20 01:01:26.16	251.40	18.09	-40.3	-42.9	12.7	7.62e-05	0	63	0	1242562560	51	5065
2026-01-20 01:01:27.17	251.25	17.99	-40.3	-42.8	12.8	5.03e-05	0	62	0	1245708288	51	5021
2026-01-20 01:01:28.18	251.10	17.90	-40.3	-42.8	12.9	5.18e-05	0	62	0	1248854016	51	5008
2026-01-20 01:01:29.18	250.96	17.80	-40.3	-42.7	12.9	5.95e-05	0	62	0	1251999744	51	4981
2026-01-20 01:01:30.19	250.82	17.71	-40.1	-42.5	13.1	3.05e-05	0	63	0	1255145472	51	4853
2026-01-20 01:01:31.20	250.67	17.61	-40.1	-42.6	13.1	2.82e-05	0	62	0	1258291200	51	4879
2026-01-20 01:01:32.21	250.53	17.51	-40.0	-42.4	13.2	2.36e-05	0	63	0	1261436928	51	4803
2026-01-20 01:01:33.22	250.39	17.42	-40.0	-42.4	13.3	1.52e-05	0	62	0	1264582656	51	4780
2026-01-20 01:01:34.23	250.25	17.32	-40.0	-42.4	13.2	2.28e-05	0	63	0	1267728384	51	4804
2026-01-20 01:01:35.24	250.11	17.23	-40.1	-42.6	13.1	2.67e-05	0	62	0	1270874112	51	4894
2026-01-20 01:01:36.25	249.97	17.14	-40.3	-42.8	12.9	3.50e-05	0	62	0	1274019840	51	4996
2026-01-20 01:01:37.26	249.83	17.04	-40.3	-42.9	12.8	7.55e-05	0	63	0	1277165568	51	5071
2026-01-20 01:01:38.27	249.69	16.95	-40.4	-43.0	12.7	7.62e-05	0	62	0	1280311296	51	5102
2026-01-20 01:01:39.28	249.56	16.85	-40.5	-43.1	12.5	9.07e-05	0	62	0	1283457024	51	5177
2026-01-20 01:01:40.29	249.42	16.76	-40.4	-42.9	12.7	7.55e-05	0	62	0	1286602752	51	5084
2026-01-20 01:01:41.30	249.29	16.67	-40.3	-42.9	12.8	6.48e-05	0	62	0	1289748480	51	5048
2026-01-20 01:01:42.31	249.15	16.57	-40.4	-42.9	12.7	8.39e-05	0	63	0	1292894208	51	5090
2026-01-20 01:01:43.32	249.02	16.48	-40.3	-42.9	12.7	7.47e-05	0	62	0	1296039936	51	5070
2026-01-20 01:01:44.33	248.89	16.39	-40.4	-42.9	12.7	7.55e-05	0	62	0	1299185664	51	5093
2026-01-20 01:01:45.34	248.76	16.29	-40.1	-42.6	13.0	4.65e-05	0	62	0	1302331392	51	4896
2026-01-20 01:01:46.35	248.63	16.20	-40.0	-42.3	13.3	1.83e-05	0	62	0	1305477120	51	4755
2026-01-20 01:01:47.35	248.50	16.11	-39.9	-42.3	13.3	1.98e-05	0	62	0	1308622848	51	4713
2026-01-20 01:01:48.37	248.37	16.02	-40.0	-42.3	13.3	1.75e-05	0	62	0	1311768576	51	4746
2026-01-20 01:01:49.38	248.24	15.92	-39.9	-42.3	13.3	1.67e-05	0	62	0	1314914304	51	4734
2026-01-20 01:01:50.39	248.11	15.83	-40.0	-42.4	13.2	2.21e-05	0	63	0	1318060032	51	4770
2026-01-20 01:01:51.40	247.99	15.74	-40.2	-42.6	13.0	4.42e-05	0	62	0	1321205760	51	4920
2026-01-20 01:01:52.41	247.86	15.65	-40.3	-42.8	12.8	6.40e-05	0	62	0	1324351488	51	5008
2026-01-20 01:01:53.42	247.74	15.56	-40.4	-43.0	12.6	8.31e-05	0	63	0	1327497216	51	5121
2026-01-20 01:01:54.43	247.61	15.47	-40.6	-43.3	12.3	1.53e-04	0	63	0	1330642944	51	5281
2026-01-20 01:01:55.44	247.49	15.38	-40.6	-43.4	12.2	1.95e-04	0	63	0	1333788672	51	5357
2026-01-20 01:01:56.45	247.37	15.29	-40.7	-43.5	12.1	2.50e-04	0	62	0	1336934400	51	5416
2026-01-20 01:01:57.46	247.25	15.19	-40.7	-43.5	12.1	2.71e-04	0	63	0	1340080128	51	5441
2026-01-20 01:01:58.47	247.13	15.10	-40.7	-43.5	12.0	3.65e-04	0	62	0	1343225856	52	5136
2026-01-20 01:01:59.48	247.01	15.01	-40.6	-43.4	12.1	2.69e-04	0	63	0	1346371584	52	5072
2026-01-20 01:02:00.49	246.89	14.92	-40.6	-43.3	12.1	2.54e-04	0	62	0	1349517312	52	5031
2026-01-20 01:02:01.50	246.77	14.84	-40.4	-43.2	12.3	2.09e-04	0	62	0	1352663040	52	4929
2026-01-20 01:02:02.51	246.65	14.75	-40.2	-42.8	12.7	1.11e-04	0	63	0	1355808768	52	4722
2026-01-20 01:02:03.52	246.53	14.66	-40.1	-42.6	12.9	7.01e-05	0	63	0	1358954496	52	4607
2026-01-20 01:02:04.53	246.42	14.57	-40.1	-42.6	12.9	5.72e-05	0	62	0	1362100224	52	4613
2026-01-20 01:02:05.54	246.30	14.48	-40.1	-42.6	12.8	6.71e-05	0	62	0	1365245952	52	4626
2026-01-20 01:02:06.55	246.18	14.39	-40.1	-42.5	12.9	4.73e-05	0	63	0	1368391680	52	4584
2026-01-20 01:02:07.56	246.07	14.30	-40.1	-42.5	13.0	4.11e-05	0	62	0	1371537408	51	4851
2026-01-20 01:02:08.57	245.96	14.21	-40.2	-42.7	12.9	4.88e-05	0	62	0	1374683136	51	4934
2026-01-20 01:02:09.58	245.84	14.13	-40.2	-42.8	12.8	6.40e-05	0	62	0	1377828864	51	4990
2026-01-20 01:02:10.59	245.73	14.04	-40.3	-42.9	12.7	7.01e-05	0	62	0	1380974592	51	5061
2026-01-20 01:02:11.60	245.62	13.95	-40.4	-43.0	12.6	8.16e-05	0	62	0	1384120320	51	5115
2026-01-20 01:02:12.61	245.51	13.86	-40.5	-43.1	12.4	1.31e-04	0	63	0	1387266048	51	5214
2026-01-20 01:02:13.62	245.40	13.78	-40.5	-43.3	12.3	1.68e-04	0	62	0	1390411776	51	5280
2026-01-20 01:02:14.63	245.29	13.69	-40.7	-43.5	12.1	2.62e-04	0	62	0	1393557504	51	5415
2026-01-20 01:02:15.64	245.18	13.60	-40.6	-43.4	12.1	2.42e-04	0	62	0	1396703232	51	5368
2026-01-20 01:02:16.65	245.07	13.52	-40.7	-43.5	12.1	2.84e-04	0	62	0	1399848960	51	5421
2026-01-20 01:02:17.65	244.96	13.43	-40.7	-43.5	11.9	3.78e-04	0	62	0	1402994688	52	5159
2026-01-20 01:02:18.66	244.86	13.35	-40.6	-43.5	11.9	3.87e-04	0	62	0	1406140416	52	5123
2026-01-20 01:02:19.68	244.75	13.26	-40.7	-43.5	11.9	3.88e-04	0	62	0	1409286144	52	5139
2026-01-20 01:02:20.69	244.64	13.17	-40.7	-43.5	11.8	4.36e-04	0	63	0	1412431872	52	5152
2026-01-20 01:02:21.69	244.54	13.09	-40.6	-43.4	12.0	3.56e-04	0	62	0	1415577600	52	5061
2026-01-20 01:02:22.70	244.43	13.00	-40.5	-43.4	12.0	3.20e-04	0	62	0	1418723328	52	5046
2026-01-20 01:02:23.71	244.33	12.92	-40.5	-43.3	12.0	3.14e-04	0	62	0	1421869056	52	5023
2026-01-20 01:02:24.72	244.22	12.83	-40.5	-43.3	12.0	2.94e-04	0	62	0	1425014784	52	5021
2026-01-20 01:02:25.74	244.12	12.75	-40.5	-43.3	12.0	2.89e-04	0	62	0	1428160512	52	5034
2026-01-20 01:02:26.75	244.02	12.66	-40.5	-43.3	12.1	3.15e-04	0	62	0	1431306240	52	5004
2026-01-20 01:02:27.76	243.92	12.58	-40.4	-43.2	12.2	2.30e-04	0	63	0	1434451968	52	4947
2026-01-20 01:02:28.77	243.82	12.49	-40.4	-43.1	12.2	1.87e-04	0	62	0	1437597696	52	4906
2026-01-20 01:02:29.78	243.72	12.41	-40.4	-43.2	12.2	1.92e-04	0	63	0	1440743424	52	4936
2026-01-20 01:02:30.79	243.62	12.33	-40.4	-43.2	12.2	2.09e-04	0	63	0	1443889152	52	4959
2026-01-20 01:02:31.80	243.52	12.24	-40.5	-43.4	12.0	2.77e-04	0	63	0	1447034880	52	5054
2026-01-20 01:02:32.81	243.42	12.16	-40.6	-43.4	11.9	3.62e-04	0	63	0	1450180608	52	5099
2026-01-20 01:02:33.81	243.32	12.08	-40.6	-43.5	11.9	3.93e-04	0	62	0	1453326336	52	5114
2026-01-20 01:02:34.82	243.22	12.00	-40.6	-43.6	11.8	4.35e-04	0	63	0	1456472064	52	5160
2026-01-20 01:02:35.83	243.13	11.91	-40.7	-43.7	11.7	5.91e-04	0	62	0	1459617792	52	5227
2026-01-20 01:02:36.84	243.03	11.83	-40.7	-43.7	11.6	6.45e-04	0	62	0	1462763520	52	5266
2026-01-20 01:02:37.85	242.93	11.75	-40.8	-43.9	11.4	7.90e-04	0	63	0	1465909248	52	5359
2026-01-20 01:02:38.86	242.84	11.67	-40.9	-44.0	11.3	1.08e-03	0	63	0	1469054976	52	5428
2026-01-20 01:02:39.87	242.74	11.58	-40.9	-44.0	11.2	1.18e-03	0	63	0	1472200704	52	5459
2026-01-20 01:02:40.88	242.65	11.50	-41.0	-44.1	11.2	1.41e-03	0	63	0	1475346432	52	5527
2026-01-20 01:02:41.89	242.55	11.42	-41.0	-44.2	11.0	1.62e-03	0	63	0	1479540736	52	5573
2026-01-20 01:02:42.90	242.46	11.34	-41.0	-44.3	11.0	1.81e-03	0	63	0	1482686464	52	5621
2026-01-20 01:02:43.91	242.37	11.26	-41.1	-44.3	10.9	2.20e-03	0	63	0	1485832192	52	5644
2026-01-20 01:02:44.92	242.28	11.18	-41.1	-44.3	10.9	2.10e-03	0	63	0	1487929344	52	5654
2026-01-20 01:02:45.93	242.18	11.10	-41.0	-44.3	11.0	2.03e-03	0	63	0	1491075072	52	5608
2026-01-20 01:02:46.94	242.09	11.02	-41.1	-44.4	10.8	2.16e-03	0	63	0	1495269376	52	5677
2026-01-20 01:02:47.95	242.00	10.94	-41.1	-44.4	10.8	2.59e-03	0	63	0	1498415104	52	5720
2026-01-20 01:02:48.96	241.91	10.86	-41.0	-44.3	10.9	2.18e-03	0	63	0	1501560832	52	5620
2026-01-20 01:02:49.97	241.82	10.78	-41.0	-44.3	11.0	1.93e-03	0	63	0	1504706560	52	5594
2026-01-20 01:02:50.98	241.73	10.70	-41.0	-44.2	11.0	1.87e-03	0	63	0	1507852288	52	5537
2026-01-20 01:02:51.99	241.64	10.62	-40.9	-44.1	11.1	1.46e-03	0	63	0	1510998016	52	5471
2026-01-20 01:02:53.00	241.56	10.54	-40.8	-44.0	11.2	1.38e-03	0	63	0	1514143744	52	5410
2026-01-20 01:02:54.01	241.47	10.46	-40.8	-44.0	11.2	1.32e-03	0	63	0	1517289472	52	5407
2026-01-20 01:02:55.02	241.38	10.38	-40.8	-43.9	11.3	1.14e-03	0	62	0	1520435200	52	5341
2026-01-20 01:02:56.03	241.29	10.30	-40.8	-43.8	11.4	9.54e-04	0	63	0	1523580928	52	5302
2026-01-20 01:02:57.04	241.21	10.22	-40.8	-43.8	11.4	1.03e-03	0	63	0	1526726656	52	5319
2026-01-20 01:02:58.05	241.12	10.14	-40.8	-43.9	11.3	1.10e-03	0	63	0	1529872384	52	5348
2026-01-20 01:02:59.06	241.04	10.06	-40.8	-43.8	11.4	1.04e-03	0	63	0	1533018112	52	5307
2026-01-20 01:03:00.07	240.95	9.99	-40.8	-43.8	11.3	1.03e-03	0	63	0	1536163840	52	5333
2026-01-20 01:03:01.08	240.87	9.91	-40.8	-43.9	11.2	1.27e-03	0	63	0	1539309568	52	5389
2026-01-20 01:03:02.09	240.78	9.83	-40.8	-43.9	11.2	1.35e-03	0	63	0	1542455296	52	5393
2026-01-20 01:03:03.10	240.70	9.75	-40.8	-44.0	11.2	1.38e-03	0	63	0	1545601024	52	5403
2026-01-20 01:03:04.11	240.62	9.68	-40.9	-44.0	11.1	1.52e-03	0	63	0	1548746752	52	5462
2026-01-20 01:03:05.12	240.53	9.60	-40.9	-44.1	11.0	1.60e-03	0	63	0	1551892480	52	5526
2026-01-20 01:03:06.13	240.45	9.52	-41.0	-44.3	10.8	2.12e-03	0	63	0	1555038208	52	5618
2026-01-20 01:03:07.14	240.37	9.45	-41.0	-44.3	10.8	2.56e-03	0	62	0	1558183936	52	5631
2026-01-20 01:03:08.15	240.29	9.37	-41.1	-44.4	10.7	2.98e-03	0	63	0	1561329664	52	5705
2026-01-20 01:03:09.16	240.21	9.29	-41.1	-44.5	10.6	3.47e-03	0	63	0	1564475392	52	5766
2026-01-20 01:03:10.17	240.13	9.22	-41.2	-44.6	10.5	3.82e-03	0	63	0	1567621120	52	5830
2026-01-20 01:03:11.18	240.05	9.14	-41.2	-44.7	10.4	4.18e-03	0	63	0	1570766848	52	5870
2026-01-20 01:03:12.19	239.97	9.06	-41.2	-44.7	10.3	4.63e-03	0	63	0	1573912576	52	5917
2026-01-20 01:03:13.20	239.89	8.99	-41.3	-44.8	10.2	5.34e-03	0	63	0	1577058304	53	5619
2026-01-20 01:03:14.21	239.81	8.91	-41.3	-44.8	10.2	5.73e-03	0	63	0	1580204032	53	5637
2026-01-20 01:03:15.22	239.73	8.84	-41.3	-44.8	10.2	6.30e-03	0	63	0	1583349760	53	5632
2026-01-20 01:03:16.22	239.66	8.76	-41.3	-44.8	10.2	5.93e-03	0	63	0	1586495488	53	5648
2026-01-20 01:03:17.23	239.58	8.69	-41.3	-44.9	10.1	6.46e-03	0	63	0	1589641216	53	5678
2026-01-20 01:03:18.24	239.50	8.61	-41.3	-44.8	10.1	6.23e-03	0	63	0	1592786944	53	5639
2026-01-20 01:03:19.25	239.42	8.54	-41.2	-44.8	10.2	6.39e-03	0	63	0	1595932672	53	5614
2026-01-20 01:03:20.26	239.35	8.46	-41.2	-44.7	10.3	5.12e-03	0	63	0	1599078400	53	5540
2026-01-20 01:03:21.27	239.27	8.39	-41.1	-44.6	10.3	5.02e-03	0	63	0	1602224128	53	5518
2026-01-20 01:03:22.28	239.20	8.32	-41.0	-44.4	10.5	4.09e-03	0	63	0	1605369856	53	5378
2026-01-20 01:03:23.29	239.12	8.24	-41.0	-44.4	10.6	3.62e-03	0	63	0	1608515584	53	5344
2026-01-20 01:03:24.30	239.05	8.17	-41.0	-44.4	10.6	3.31e-03	0	63	0	1611661312	53	5346
2026-01-20 01:03:25.31	238.97	8.09	-40.9	-44.3	10.7	3.26e-03	0	63	0	1614807040	53	5289
2026-01-20 01:03:26.32	238.90	8.02	-41.0	-44.3	10.6	3.11e-03	0	63	0	1617952768	53	5308
2026-01-20 01:03:27.33	238.83	7.95	-44.6	-56.7	3.8	1.49e+00	0	62	104	1619001344	59	15699
2026-01-20 01:03:28.34	238.75	7.87	-44.8	-57.2	3.8	1.49e+00	0	63	104	1619001344	60	15612
2026-01-20 01:03:29.35	238.68	7.80	-45.0	-57.4	3.8	1.49e+00	0	63	104	1619001344	60	16008
2026-01-20 01:03:30.36	238.61	7.73	-45.1	-57.5	3.8	1.49e+00	0	63	104	1619001344	60	16224
2026-01-20 01:03:31.37	238.54	7.66	-45.2	-57.5	3.8	1.49e+00	0	63	104	1619001344	60	16262
2026-01-20 01:03:32.38	238.46	7.58	-45.2	-57.6	3.8	1.49e+00	0	63	104	1619001344	61	15445
2026-01-20 01:03:33.39	238.39	7.51	-45.3	-57.6	3.8	1.49e+00	0	63	104	1619001344	61	15557
2026-01-20 01:03:34.40	238.32	7.44	-45.3	-57.7	3.8	1.49e+00	0	63	104	1619001344	61	15712
2026-01-20 01:03:35.41	238.25	7.37	-45.3	-57.7	3.8	1.49e+00	0	63	104	1619001344	61	15621
2026-01-20 01:03:36.42	238.18	7.30	-45.3	-57.7	3.8	1.49e+00	0	63	104	1619001344	61	15583
2026-01-20 01:03:37.43	238.11	7.22	-45.3	-57.6	3.8	1.49e+00	0	63	104	1619001344	61	15551
2026-01-20 01:03:38.45	238.04	7.15	-45.3	-57.6	3.8	1.49e+00	0	63	104	1619001344	61	15496
2026-01-20 01:03:39.45	237.97	7.08	-45.3	-57.6	3.8	1.49e+00	0	63	104	1619001344	61	15478
2026-01-20 01:03:40.47	237.90	7.01	-45.3	-57.5	3.8	1.49e+00	0	63	104	1619001344	61	15398
2026-01-20 01:03:41.48	237.84	6.94	-45.3	-57.6	3.8	1.49e+00	0	63	104	1619001344	61	15489
2026-01-20 01:03:42.49	237.77	6.87	-45.3	-57.6	3.8	1.49e+00	0	63	104	1619001344	61	15527
2026-01-20 01:03:43.50	237.70	6.80	-45.2	-57.6	3.8	1.49e+00	0	63	104	1619001344	61	15403
2026-01-20 01:03:44.51	237.63	6.73	-45.2	-57.5	3.8	1.49e+00	0	63	104	1619001344	61	15346
2026-01-20 01:03:45.52	237.56	6.66	-45.2	-57.5	3.8	1.49e+00	0	63	104	1619001344	61	15325
2026-01-20 01:03:46.53	237.50	6.59	-45.2	-57.5	3.8	1.49e+00	0	63	104	1619001344	61	15330
2026-01-20 01:03:47.54	237.43	6.51	-45.2	-57.5	3.8	1.49e+00	0	63	104	1619001344	61	15343
2026-01-20 01:03:48.55	237.37	6.44	-45.2	-57.5	3.8	1.49e+00	0	63	104	1619001344	61	15295
2026-01-20 01:03:49.56	237.30	6.38	-45.2	-57.5	3.8	1.49e+00	0	63	104	1619001344	61	15338
2026-01-20 01:03:50.57	237.23	6.31	-45.2	-57.5	3.8	1.49e+00	0	63	104	1619001344	61	15358
2026-01-20 01:03:51.58	237.17	6.24	-45.2	-57.5	3.8	1.49e+00	0	63	104	1619001344	61	15354
2026-01-20 01:03:52.59	237.10	6.17	-45.2	-57.5	3.8	1.49e+00	0	63	104	1619001344	61	15376
2026-01-20 01:03:53.60	237.04	6.10	-45.2	-57.5	3.8	1.49e+00	0	63	104	1619001344	61	15275
2026-01-20 01:03:54.61	236.98	6.03	-45.2	-57.5	3.8	1.49e+00	0	63	104	1619001344	61	15285
2026-01-20 01:03:55.63	236.91	5.96	-45.2	-57.5	3.8	1.49e+00	0	63	104	1619001344	61	15290
2026-01-20 01:03:56.64	236.85	5.89	-45.2	-57.5	3.8	1.49e+00	0	63	104	1619001344	61	15295
2026-01-20 01:03:57.65	236.79	5.82	-45.2	-57.4	3.8	1.49e+00	0	63	104	1619001344	61	15211
2026-01-20 01:03:58.66	236.72	5.75	-45.2	-57.5	3.8	1.49e+00	0	63	104	1619001344	61	15299
2026-01-20 01:03:59.67	236.66	5.68	-45.2	-57.5	3.8	1.49e+00	0	63	104	1619001344	61	15336
2026-01-20 01:04:00.68	236.60	5.62	-45.2	-57.4	3.8	1.49e+00	0	63	104	1619001344	61	15199
2026-01-20 01:04:01.69	236.54	5.55	-45.1	-57.4	3.8	1.49e+00	0	63	104	1619001344	61	15194
2026-01-20 01:04:02.70	236.47	5.48	-45.1	-57.5	3.8	1.49e+00	0	63	104	1619001344	61	15275
2026-01-20 01:04:03.71	236.41	5.41	-45.1	-57.4	3.8	1.49e+00	0	63	104	1619001344	61	15194
2026-01-20 01:04:04.72	236.35	5.35	-45.1	-57.4	3.8	1.49e+00	0	63	104	1619001344	61	15202
2026-01-20 01:04:05.73	236.29	5.28	-45.1	-57.4	3.8	1.49e+00	0	63	104	1619001344	61	15209
2026-01-20 01:04:06.74	236.23	5.21	-45.1	-57.4	3.8	1.49e+00	0	63	104	1619001344	61	15201
2026-01-20 01:04:07.75	236.17	5.14	-45.1	-57.4	3.8	1.49e+00	0	63	104	1619001344	61	15142
2026-01-20 01:04:08.76	236.11	5.08	-45.1	-57.4	3.8	1.49e+00	0	63	104	1619001344	61	15197
2026-01-20 01:04:09.77	236.05	5.01	-45.1	-57.4	3.8	1.49e+00	0	63	104	1619001344	61	15179
2026-01-20 01:04:10.78	235.99	4.94	-45.1	-57.4	3.8	1.49e+00	0	63	104	1619001344	61	15216
2026-01-20 01:04:11.79	235.93	4.88	-45.1	-57.4	3.8	1.49e+00	0	63	104	1619001344	61	15162
2026-01-20 01:04:12.80	235.87	4.81	-45.1	-57.4	3.8	1.49e+00	0	63	104	1619001344	61	15199
2026-01-20 01:04:13.81	235.81	4.74	-45.1	-57.4	3.8	1.49e+00	0	63	104	1619001344	61	15189
2026-01-20 01:04:14.82	235.76	4.68	-45.1	-57.4	3.8	1.49e+00	0	63	104	1619001344	61	15207
2026-01-20 01:04:15.83	235.70	4.61	-45.1	-57.4	3.8	1.49e+00	0	63	104	1619001344	61	15221
2026-01-20 01:04:16.84	235.64	4.55	-45.1	-57.4	3.8	1.49e+00	0	63	104	1619001344	61	15139
2026-01-20 01:04:17.85	235.58	4.48	-45.1	-57.4	3.8	1.49e+00	0	63	104	1619001344	61	15117
2026-01-20 01:04:18.86	235.53	4.41	-45.1	-57.4	3.8	1.49e+00	0	63	104	1619001344	61	15086
2026-01-20 01:04:19.87	235.47	4.35	-45.1	-57.4	3.8	1.49e+00	0	63	104	1619001344	61	15160
2026-01-20 01:04:20.88	235.41	4.28	-45.1	-57.4	3.8	1.49e+00	0	63	104	1619001344	61	15101
2026-01-20 01:04:21.89	235.36	4.22	-45.1	-57.4	3.8	1.49e+00	0	63	104	1619001344	61	15122
2026-01-20 01:04:22.90	235.30	4.15	-45.1	-57.4	3.8	1.49e+00	0	63	104	1619001344	61	15163
2026-01-20 01:04:23.91	235.24	4.09	-45.1	-57.4	3.8	1.49e+00	0	63	104	1619001344	61	15145
