passes_logs/2026/01/20/R2.0S_Moscow/R2.0S_Moscow__20260120_054346_FENGYUN_3E_rec.log

#Pass ID: 20260120_054346_FENGYUN 3E
#Satellite: FENGYUN 3E
#Configuration: FENGYUN 3E
#almurnet v.1.7.20251203
#Start time: 2026-01-20 05:43:47

#Version: 2.2.20231116
#Station: R2.0S_Moscow
#Location: 37.707566 lon 55.798166 lat
#TLE: 1 49008U 21062A   26019.58611515 -.00000153  00000+0 -51205-4 0  9999
#TLE: 2 49008  98.7481  24.6604 0002215 127.7537 232.3840 14.19884915235499

#Time	Az	El	Level	Level2	SNR	BER	BlckErr	Temp	State	Recorded	gain1	gain2
2026-01-20 05:43:47.85	9.75	2.10	-40.2	-51.3	3.8	8.46e-01	0	52	0	0	51	12551
2026-01-20 05:43:48.85	9.68	2.16	-40.2	-51.3	3.8	8.46e-01	0	53	104	0	50	13296
2026-01-20 05:43:49.86	9.61	2.21	-40.2	-51.3	3.8	8.47e-01	0	53	104	0	50	13329
2026-01-20 05:43:50.87	9.54	2.27	-40.2	-51.3	3.8	8.47e-01	0	53	104	0	50	13290
2026-01-20 05:43:51.88	9.47	2.32	-40.2	-51.3	3.8	8.47e-01	0	53	104	0	50	13300
2026-01-20 05:43:52.89	9.40	2.38	-40.2	-51.3	3.8	8.47e-01	0	53	104	0	50	13288
2026-01-20 05:43:53.90	9.33	2.44	-40.2	-51.3	3.8	8.46e-01	0	53	104	0	50	13333
2026-01-20 05:43:54.91	9.26	2.49	-40.2	-51.3	3.8	8.47e-01	0	54	104	0	50	13309
2026-01-20 05:43:55.92	9.18	2.55	-40.2	-51.3	3.8	8.46e-01	0	53	104	0	50	13277
2026-01-20 05:43:56.93	9.11	2.61	-40.2	-51.3	3.8	8.46e-01	0	53	104	0	50	13288
2026-01-20 05:43:57.94	9.04	2.66	-40.2	-51.3	3.8	8.45e-01	0	54	104	0	50	13278
2026-01-20 05:43:58.95	8.97	2.72	-40.2	-51.3	3.8	8.46e-01	0	54	104	0	50	13301
2026-01-20 05:43:59.96	8.89	2.78	-40.2	-51.3	3.8	8.46e-01	0	54	104	0	50	13307
2026-01-20 05:44:00.97	8.82	2.83	-40.2	-51.3	3.8	8.45e-01	0	54	104	0	50	13296
2026-01-20 05:44:01.98	8.75	2.89	-40.2	-51.3	3.8	8.48e-01	0	54	104	0	50	13284
2026-01-20 05:44:02.99	8.68	2.95	-40.2	-51.3	3.8	8.45e-01	0	54	104	0	50	13286
2026-01-20 05:44:04.00	8.60	3.00	-40.2	-51.2	3.8	8.47e-01	0	54	104	0	50	13228
2026-01-20 05:44:05.01	8.53	3.06	-40.2	-51.3	3.8	8.47e-01	0	54	104	0	50	13280
2026-01-20 05:44:06.03	8.45	3.12	-40.2	-51.3	3.8	8.47e-01	0	54	104	0	50	13285
2026-01-20 05:44:07.04	8.38	3.18	-40.2	-51.3	3.8	8.47e-01	0	54	104	0	50	13316
2026-01-20 05:44:08.05	8.30	3.23	-40.2	-51.3	3.8	8.46e-01	0	54	104	0	50	13280
2026-01-20 05:44:09.06	8.23	3.29	-40.2	-51.3	3.8	8.46e-01	0	55	104	0	50	13308
2026-01-20 05:44:10.07	8.15	3.35	-40.2	-51.3	3.8	8.44e-01	0	54	104	0	50	13292
2026-01-20 05:44:11.08	8.07	3.41	-40.2	-51.3	3.8	8.46e-01	0	55	104	0	50	13269
2026-01-20 05:44:12.09	8.00	3.46	-40.2	-51.2	3.8	8.46e-01	0	55	104	0	50	13254
2026-01-20 05:44:13.10	7.92	3.52	-40.2	-51.3	3.8	8.48e-01	0	55	104	0	50	13315
2026-01-20 05:44:14.11	7.84	3.58	-40.2	-51.2	3.8	8.45e-01	0	55	104	0	50	13246
2026-01-20 05:44:15.13	7.77	3.64	-40.2	-51.2	3.8	8.45e-01	0	55	104	0	50	13250
2026-01-20 05:44:16.14	7.69	3.69	-40.2	-51.2	3.8	8.45e-01	0	55	104	0	50	13232
2026-01-20 05:44:17.14	7.61	3.75	-40.2	-51.3	3.8	8.46e-01	0	55	104	0	50	13265
2026-01-20 05:44:18.15	7.53	3.81	-40.1	-51.2	3.8	8.46e-01	0	55	104	0	50	13243
2026-01-20 05:44:19.16	7.46	3.87	-40.1	-51.3	3.8	8.47e-01	0	55	104	0	50	13276
2026-01-20 05:44:20.17	7.38	3.93	-40.1	-51.3	3.8	8.46e-01	0	55	104	0	50	13293
2026-01-20 05:44:21.19	7.30	3.98	-40.2	-51.3	3.8	8.45e-01	0	55	104	0	50	13264
2026-01-20 05:44:22.20	7.22	4.04	-40.1	-51.3	3.8	8.46e-01	0	55	104	0	50	13271
2026-01-20 05:44:23.21	7.14	4.10	-40.1	-51.2	3.8	8.46e-01	0	55	104	0	50	13210
2026-01-20 05:44:24.22	7.06	4.16	-40.2	-51.2	3.8	8.45e-01	0	55	104	0	50	13241
2026-01-20 05:44:25.23	6.98	4.22	-40.1	-51.2	3.8	8.46e-01	0	56	104	0	50	13223
2026-01-20 05:44:26.24	6.90	4.28	-40.1	-51.2	3.8	8.46e-01	0	56	104	0	50	13245
2026-01-20 05:44:27.25	6.81	4.34	-40.1	-51.2	3.8	8.47e-01	0	55	104	0	50	13245
2026-01-20 05:44:28.26	6.73	4.39	-40.1	-51.2	3.8	8.46e-01	0	56	104	0	50	13251
2026-01-20 05:44:29.27	6.65	4.45	-40.2	-51.2	3.8	8.46e-01	0	56	104	0	50	13257
2026-01-20 05:44:30.28	6.57	4.51	-40.1	-51.3	3.8	8.46e-01	0	56	104	0	50	13272
2026-01-20 05:44:31.29	6.49	4.57	-40.2	-51.2	3.8	8.46e-01	0	56	104	0	50	13236
2026-01-20 05:44:32.30	6.40	4.63	-40.2	-51.3	3.8	8.46e-01	0	56	104	0	50	13268
2026-01-20 05:44:33.31	6.32	4.69	-40.1	-51.3	3.8	8.45e-01	0	56	104	0	50	13288
2026-01-20 05:44:34.32	6.24	4.75	-40.1	-51.3	3.8	8.45e-01	0	56	104	0	50	13266
2026-01-20 05:44:35.33	6.15	4.81	-40.2	-51.2	3.8	8.46e-01	0	56	104	0	50	13243
2026-01-20 05:44:36.34	6.07	4.87	-40.1	-51.2	3.8	8.46e-01	0	56	104	0	50	13227
2026-01-20 05:44:37.35	5.98	4.93	-40.1	-51.3	3.8	8.46e-01	0	56	104	0	50	13272
2026-01-20 05:44:38.36	5.90	4.99	-40.2	-51.3	3.8	8.46e-01	0	56	104	0	50	13261
2026-01-20 05:44:39.37	5.81	5.05	-40.2	-51.3	3.8	8.47e-01	0	56	104	0	50	13268
2026-01-20 05:44:40.38	5.73	5.10	-40.1	-51.2	3.8	8.47e-01	0	56	104	0	50	13246
2026-01-20 05:44:41.39	5.64	5.16	-40.1	-51.3	3.8	8.46e-01	0	56	104	0	50	13270
2026-01-20 05:44:42.40	5.55	5.22	-40.1	-51.2	3.8	8.46e-01	0	56	104	0	50	13207
2026-01-20 05:44:43.42	5.46	5.28	-40.2	-51.3	3.8	8.46e-01	0	56	104	0	50	13268
2026-01-20 05:44:44.43	5.38	5.34	-40.1	-51.3	3.8	8.45e-01	0	57	104	0	50	13265
2026-01-20 05:44:45.43	5.29	5.40	-40.1	-51.2	3.8	8.46e-01	0	56	104	0	50	13234
2026-01-20 05:44:46.45	5.20	5.46	-40.1	-51.2	3.8	8.47e-01	0	57	104	0	50	13212
2026-01-20 05:44:47.46	5.11	5.52	-40.1	-51.2	3.8	8.46e-01	0	57	104	0	50	13260
2026-01-20 05:44:48.47	5.02	5.58	-40.1	-51.3	3.8	8.46e-01	0	57	104	0	50	13262
2026-01-20 05:44:49.48	4.94	5.64	-37.9	-50.8	3.8	8.44e-01	0	57	104	0	45	16757
2026-01-20 05:44:50.49	4.85	5.71	-38.0	-50.7	3.8	8.45e-01	0	57	104	0	45	16690
2026-01-20 05:44:51.50	4.76	5.77	-37.6	-50.8	3.8	8.44e-01	0	57	104	0	45	16785
2026-01-20 05:44:52.51	4.66	5.83	-38.1	-50.7	3.8	8.43e-01	0	57	104	0	45	16687
2026-01-20 05:44:53.52	4.57	5.89	-37.9	-50.7	3.9	8.42e-01	0	57	104	0	45	16668
2026-01-20 05:44:54.53	4.48	5.95	-37.9	-50.7	3.9	8.43e-01	0	57	104	0	45	16636
2026-01-20 05:44:55.54	4.39	6.01	-37.4	-50.8	3.9	8.44e-01	0	57	104	0	45	16717
2026-01-20 05:44:56.55	4.30	6.07	-37.9	-50.7	3.8	8.45e-01	0	57	104	0	45	16680
2026-01-20 05:44:57.56	4.21	6.13	-38.1	-50.8	3.8	8.43e-01	0	57	104	0	45	16793
2026-01-20 05:44:58.57	4.11	6.19	-38.0	-50.8	3.8	8.44e-01	0	57	104	0	45	16709
2026-01-20 05:44:59.58	4.02	6.25	-37.6	-50.7	3.8	8.42e-01	0	57	104	0	45	16641
2026-01-20 05:45:00.59	3.93	6.31	-40.1	-51.2	3.8	8.47e-01	0	57	104	0	49	14036
2026-01-20 05:45:01.60	3.83	6.37	-40.1	-51.2	3.8	8.45e-01	0	57	104	0	49	14041
2026-01-20 05:45:02.61	3.74	6.43	-40.1	-51.3	3.8	8.47e-01	0	57	104	0	49	14047
2026-01-20 05:45:03.62	3.64	6.50	-40.1	-51.3	3.8	8.46e-01	0	57	104	0	49	14058
2026-01-20 05:45:04.63	3.55	6.56	-40.1	-51.2	3.8	8.46e-01	0	58	104	0	49	14013
2026-01-20 05:45:05.64	3.45	6.62	-40.1	-51.2	3.8	8.45e-01	0	57	104	0	49	14028
2026-01-20 05:45:06.65	3.36	6.68	-40.1	-51.2	3.8	8.47e-01	0	57	104	0	49	14006
2026-01-20 05:45:07.66	3.26	6.74	-40.1	-51.2	3.8	8.47e-01	0	57	104	0	49	14012
2026-01-20 05:45:08.67	3.16	6.80	-40.1	-51.3	3.8	8.47e-01	0	58	104	0	49	14047
2026-01-20 05:45:09.69	3.06	6.87	-40.1	-51.2	3.8	8.45e-01	0	58	104	0	49	14031
2026-01-20 05:45:10.70	2.97	6.93	-40.1	-51.2	3.8	8.45e-01	0	58	104	0	49	13987
2026-01-20 05:45:11.71	2.87	6.99	-40.1	-51.3	3.8	8.46e-01	0	58	104	0	49	14048
2026-01-20 05:45:12.72	2.77	7.05	-40.1	-51.2	3.8	8.46e-01	0	58	104	0	49	13965
2026-01-20 05:45:13.73	2.67	7.11	-40.1	-51.2	3.8	8.47e-01	0	58	104	0	49	13994
2026-01-20 05:45:14.74	2.57	7.17	-40.1	-51.2	3.8	8.46e-01	0	58	104	0	49	14026
2026-01-20 05:45:15.75	2.47	7.24	-40.1	-51.2	3.8	8.45e-01	0	58	104	0	49	14017
2026-01-20 05:45:16.76	2.37	7.30	-40.1	-51.3	3.8	8.45e-01	0	58	104	0	49	14054
2026-01-20 05:45:17.77	2.27	7.36	-40.1	-51.2	3.8	8.47e-01	0	58	104	0	49	14025
2026-01-20 05:45:18.78	2.17	7.42	-40.1	-51.2	3.8	8.46e-01	0	58	104	0	49	14031
2026-01-20 05:45:19.79	2.07	7.49	-40.1	-51.3	3.8	8.46e-01	0	58	104	0	49	14069
2026-01-20 05:45:20.80	1.96	7.55	-40.1	-51.2	3.8	8.46e-01	0	58	104	0	49	13998
2026-01-20 05:45:21.81	1.86	7.61	-40.1	-51.2	3.8	8.45e-01	0	58	104	0	49	13949
2026-01-20 05:45:22.82	1.76	7.67	-40.1	-51.2	3.8	8.46e-01	0	58	104	0	49	14002
2026-01-20 05:45:23.83	1.66	7.74	-40.1	-51.2	3.8	8.45e-01	0	58	104	0	49	13975
2026-01-20 05:45:24.84	1.55	7.80	-40.1	-51.2	3.8	8.46e-01	0	58	104	0	49	14036
2026-01-20 05:45:25.85	1.45	7.86	-40.1	-51.2	3.8	8.46e-01	0	58	104	0	49	14006
2026-01-20 05:45:26.86	1.34	7.92	-40.1	-51.2	3.8	8.46e-01	0	58	104	0	49	14036
2026-01-20 05:45:27.87	1.24	7.99	-40.1	-51.2	3.8	8.46e-01	0	58	104	0	49	14024
2026-01-20 05:45:28.88	1.13	8.05	-40.1	-51.2	3.8	8.47e-01	0	58	104	0	49	13985
2026-01-20 05:45:29.89	1.02	8.11	-40.2	-51.2	3.8	8.46e-01	0	58	104	0	49	14016
2026-01-20 05:45:30.90	0.92	8.18	-40.2	-51.4	3.8	8.46e-01	0	59	104	0	49	14287
2026-01-20 05:45:31.91	0.81	8.24	-40.3	-51.4	3.8	8.46e-01	0	58	104	0	50	13479
2026-01-20 05:45:32.92	0.70	8.30	-40.3	-51.4	3.8	8.46e-01	0	58	104	0	50	13524
2026-01-20 05:45:33.93	0.59	8.37	-40.3	-51.3	3.8	8.46e-01	0	58	104	0	50	13341
2026-01-20 05:45:34.94	0.48	8.43	-40.1	-51.5	3.8	8.45e-01	0	58	104	0	50	13581
2026-01-20 05:45:35.95	0.37	8.49	-40.2	-51.4	3.8	8.45e-01	0	59	104	0	50	13431
2026-01-20 05:45:36.95	0.27	8.55	-40.3	-51.4	3.8	8.46e-01	0	58	104	0	50	13538
2026-01-20 05:45:37.96	0.16	8.62	-40.1	-51.3	3.8	8.47e-01	0	59	104	0	50	13377
2026-01-20 05:45:38.97	0.04	8.68	-40.0	-51.4	3.8	8.46e-01	0	58	104	0	50	13531
2026-01-20 05:45:39.98	359.93	8.74	-40.2	-51.3	3.8	8.46e-01	0	59	104	0	50	13405
2026-01-20 05:45:40.99	359.82	8.81	-40.3	-51.4	3.8	8.45e-01	0	59	104	0	50	13520
2026-01-20 05:45:42.00	359.71	8.87	-39.9	-51.4	3.8	8.47e-01	0	59	104	0	50	13435
2026-01-20 05:45:43.01	359.60	8.94	-40.0	-51.4	3.8	8.46e-01	0	59	104	0	50	13468
2026-01-20 05:45:44.02	359.48	9.00	-40.2	-51.4	3.8	8.47e-01	0	59	104	0	50	13458
2026-01-20 05:45:45.03	359.37	9.06	-40.1	-51.4	3.8	8.45e-01	0	59	104	0	50	13451
2026-01-20 05:45:46.04	359.25	9.13	-39.9	-51.3	3.8	8.46e-01	0	59	104	0	50	13347
2026-01-20 05:45:47.05	359.14	9.19	-40.1	-51.3	3.8	8.46e-01	0	59	104	0	50	13361
2026-01-20 05:45:48.06	359.02	9.26	-40.0	-51.4	3.8	8.46e-01	0	59	104	0	50	13429
2026-01-20 05:45:49.06	358.91	9.32	-40.0	-51.4	3.8	8.45e-01	0	59	104	0	50	13452
2026-01-20 05:45:50.07	358.79	9.38	-40.0	-51.2	3.8	8.45e-01	0	59	104	0	50	13205
2026-01-20 05:45:51.08	358.68	9.45	-40.0	-51.3	3.8	8.46e-01	0	59	104	0	50	13406
2026-01-20 05:45:52.09	358.56	9.51	-39.9	-51.4	3.8	8.46e-01	0	59	104	0	50	13421
2026-01-20 05:45:53.10	358.44	9.58	-40.1	-51.4	3.8	8.46e-01	0	59	104	0	50	13453
2026-01-20 05:45:54.11	358.32	9.64	-40.0	-51.3	3.8	8.46e-01	0	59	104	0	50	13273
2026-01-20 05:45:55.12	358.20	9.70	-40.0	-51.4	3.8	8.46e-01	0	59	104	0	50	13466
2026-01-20 05:45:56.13	358.08	9.77	-40.0	-51.3	3.8	8.46e-01	0	59	104	0	50	13308
2026-01-20 05:45:57.14	357.96	9.83	-40.2	-51.5	3.8	8.47e-01	0	59	104	0	50	13600
2026-01-20 05:45:58.15	357.84	9.90	-39.8	-51.3	3.8	8.47e-01	0	59	104	0	50	13344
2026-01-20 05:45:59.16	357.72	9.96	-40.0	-51.3	3.8	8.46e-01	0	59	104	0	50	13400
2026-01-20 05:46:00.17	357.60	10.03	-40.1	-51.3	3.8	8.46e-01	0	59	104	0	50	13322
2026-01-20 05:46:01.17	357.48	10.09	-40.4	-51.5	3.8	8.46e-01	0	59	104	0	50	13677
2026-01-20 05:46:02.18	357.35	10.16	-39.8	-51.3	3.8	8.46e-01	0	59	104	0	50	13262
2026-01-20 05:46:03.19	357.23	10.22	-40.2	-51.4	3.8	8.46e-01	0	59	104	0	50	13566
2026-01-20 05:46:04.20	357.11	10.28	-40.0	-51.4	3.8	8.46e-01	0	59	104	0	50	13439
2026-01-20 05:46:05.21	356.98	10.35	-40.6	-51.6	3.8	8.47e-01	0	59	104	0	50	13737
2026-01-20 05:46:06.22	356.86	10.41	-39.9	-51.2	3.8	8.45e-01	0	59	104	0	50	13233
2026-01-20 05:46:07.23	356.73	10.48	-40.3	-51.5	3.8	8.47e-01	0	60	104	0	50	13648
2026-01-20 05:46:08.24	356.60	10.54	-40.0	-51.4	3.8	8.47e-01	0	59	104	0	50	13443
2026-01-20 05:46:09.25	356.48	10.61	-40.7	-51.6	3.8	8.46e-01	0	60	104	0	50	13806
2026-01-20 05:46:10.26	356.35	10.67	-40.0	-51.3	3.8	8.47e-01	0	59	104	0	50	13370
2026-01-20 05:46:11.27	356.22	10.74	-40.6	-51.6	3.8	8.47e-01	0	59	104	0	50	13812
2026-01-20 05:46:12.28	356.09	10.80	-40.2	-51.4	3.8	8.46e-01	0	59	104	0	50	13468
2026-01-20 05:46:13.29	355.96	10.87	-40.6	-51.6	3.8	8.47e-01	0	60	104	0	50	13879
2026-01-20 05:46:14.30	355.83	10.93	-40.4	-51.4	3.8	8.45e-01	0	60	104	0	50	13426
2026-01-20 05:46:15.31	355.70	11.00	-40.7	-51.7	3.8	8.46e-01	0	60	104	0	51	13191
2026-01-20 05:46:16.32	355.57	11.06	-40.5	-51.5	3.8	8.46e-01	0	60	104	0	51	12892
2026-01-20 05:46:17.33	355.44	11.13	-40.6	-51.8	3.8	8.47e-01	0	60	104	0	51	13409
2026-01-20 05:46:18.34	355.31	11.19	-40.6	-51.5	3.8	8.46e-01	0	60	104	0	51	12834
2026-01-20 05:46:19.35	355.18	11.26	-40.6	-51.5	3.8	8.46e-01	0	60	104	0	51	12832
2026-01-20 05:46:20.36	355.04	11.32	-40.6	-51.5	3.8	8.46e-01	0	60	104	0	51	12888
2026-01-20 05:46:21.37	354.91	11.39	-40.6	-51.5	3.8	8.47e-01	0	60	104	0	51	12866
2026-01-20 05:46:22.38	354.77	11.46	-40.6	-51.5	3.8	8.46e-01	0	60	104	0	51	12919
2026-01-20 05:46:23.39	354.64	11.52	-40.7	-51.6	3.8	8.46e-01	0	60	104	0	51	12972
2026-01-20 05:46:24.40	354.50	11.59	-41.0	-51.9	3.8	8.46e-01	0	60	104	0	51	13490
2026-01-20 05:46:25.41	354.36	11.65	-40.9	-51.8	3.8	8.47e-01	0	60	104	0	51	13334
2026-01-20 05:46:26.41	354.23	11.72	-40.9	-51.8	3.8	8.46e-01	0	60	104	0	51	13352
2026-01-20 05:46:27.42	354.09	11.78	-41.0	-51.8	3.8	8.46e-01	0	60	104	0	51	13401
2026-01-20 05:46:28.43	353.95	11.85	-40.6	-51.6	3.8	8.46e-01	0	60	104	0	51	13040
2026-01-20 05:46:29.44	353.81	11.91	-40.8	-51.8	3.8	8.46e-01	0	60	104	0	51	13304
2026-01-20 05:46:30.45	353.67	11.98	-41.0	-51.8	3.8	8.46e-01	0	60	104	0	51	13396
2026-01-20 05:46:31.46	353.53	12.04	-40.9	-51.8	3.8	8.47e-01	0	60	104	0	51	13380
2026-01-20 05:46:32.47	353.39	12.11	-40.7	-51.8	3.8	8.45e-01	0	60	104	0	51	13411
2026-01-20 05:46:33.48	353.25	12.17	-40.8	-51.8	3.8	8.45e-01	0	60	104	0	51	13413
2026-01-20 05:46:34.49	353.11	12.24	-40.9	-51.8	3.8	8.46e-01	0	60	104	0	51	13404
2026-01-20 05:46:35.50	352.97	12.30	-40.8	-51.8	3.8	8.47e-01	0	60	104	0	51	13393
2026-01-20 05:46:36.51	352.82	12.37	-41.2	-52.1	3.8	8.44e-01	0	60	104	0	51	13832
2026-01-20 05:46:37.52	352.68	12.43	-41.0	-52.0	3.8	8.46e-01	0	60	104	0	51	13611
2026-01-20 05:46:38.53	352.53	12.50	-41.0	-51.9	3.8	8.46e-01	0	60	104	0	51	13485
2026-01-20 05:46:39.54	352.39	12.56	-41.1	-51.9	3.8	8.45e-01	0	60	104	0	52	12723
2026-01-20 05:46:40.54	352.24	12.63	-41.0	-51.9	3.8	8.47e-01	0	60	104	0	52	12776
2026-01-20 05:46:41.55	352.09	12.69	-41.1	-52.0	3.8	8.45e-01	0	60	104	0	52	12873
2026-01-20 05:46:42.56	351.95	12.76	-41.1	-52.0	3.8	8.47e-01	0	60	104	0	52	12901
2026-01-20 05:46:43.57	351.80	12.83	-40.9	-51.9	3.8	8.47e-01	0	60	104	0	52	12725
2026-01-20 05:46:44.58	351.65	12.89	-41.0	-52.0	3.8	8.47e-01	0	60	104	0	52	12816
2026-01-20 05:46:45.59	351.50	12.96	-41.0	-51.9	3.8	8.46e-01	0	60	104	0	52	12769
2026-01-20 05:46:46.60	351.35	13.02	-41.0	-52.0	3.8	8.47e-01	0	60	104	0	52	12892
2026-01-20 05:46:47.61	351.20	13.09	-41.0	-52.0	3.8	8.46e-01	0	60	104	0	52	12910
2026-01-20 05:46:48.62	351.05	13.15	-41.3	-52.2	3.8	8.45e-01	0	60	104	0	52	13228
2026-01-20 05:46:49.63	350.89	13.22	-41.2	-52.1	3.8	8.46e-01	0	60	104	0	52	13079
2026-01-20 05:46:50.64	350.74	13.28	-41.1	-52.1	3.8	8.45e-01	0	61	104	0	52	12973
2026-01-20 05:46:51.65	350.59	13.35	-41.3	-52.2	3.8	8.45e-01	0	60	104	0	52	13227
2026-01-20 05:46:52.66	350.43	13.41	-41.2	-52.2	3.8	8.46e-01	0	60	104	0	52	13111
2026-01-20 05:46:53.67	350.28	13.48	-41.4	-52.3	3.8	8.47e-01	0	60	104	0	52	13371
2026-01-20 05:46:54.67	350.12	13.54	-41.2	-52.1	3.8	8.46e-01	0	60	104	0	52	13081
2026-01-20 05:46:55.68	349.97	13.61	-41.2	-52.1	3.8	8.45e-01	0	60	104	0	52	13093
2026-01-20 05:46:56.70	349.81	13.67	-41.3	-52.2	3.8	8.47e-01	0	60	104	0	52	13243
2026-01-20 05:46:57.71	349.65	13.74	-41.3	-52.2	3.8	8.47e-01	0	60	104	0	52	13229
2026-01-20 05:46:58.72	349.49	13.80	-41.0	-52.1	3.8	8.45e-01	0	60	104	0	52	13014
2026-01-20 05:46:59.73	349.33	13.87	-41.3	-52.3	3.8	8.45e-01	0	60	104	0	52	13276
2026-01-20 05:47:00.74	349.17	13.93	-41.6	-52.5	3.8	8.46e-01	0	60	104	0	52	13631
2026-01-20 05:47:01.75	349.01	14.00	-41.2	-52.2	3.8	8.47e-01	0	60	104	0	52	13182
2026-01-20 05:47:02.75	348.85	14.06	-41.2	-52.5	3.8	8.47e-01	0	60	104	0	52	13571
2026-01-20 05:47:03.76	348.69	14.12	-41.6	-52.4	3.8	8.47e-01	0	60	104	0	52	13542
2026-01-20 05:47:04.77	348.53	14.19	-41.6	-52.6	3.8	8.46e-01	0	60	104	0	52	13804
2026-01-20 05:47:05.78	348.36	14.25	-41.5	-52.4	3.8	8.46e-01	0	61	104	0	52	13563
2026-01-20 05:47:06.79	348.20	14.32	-41.7	-52.7	3.8	8.47e-01	0	61	104	0	52	13903
2026-01-20 05:47:07.80	348.03	14.38	-41.5	-52.5	3.8	8.47e-01	0	60	104	0	53	12953
2026-01-20 05:47:08.81	347.87	14.45	-41.7	-52.7	3.8	8.46e-01	0	61	104	0	53	13258
2026-01-20 05:47:09.82	347.70	14.51	-41.6	-52.6	3.8	8.46e-01	0	61	104	0	53	13052
2026-01-20 05:47:10.83	347.53	14.57	-41.8	-52.8	3.8	8.46e-01	0	60	104	0	53	13283
2026-01-20 05:47:11.83	347.37	14.64	-41.6	-52.6	3.8	8.45e-01	0	60	104	0	53	12994
2026-01-20 05:47:12.85	347.20	14.70	-41.6	-52.7	3.8	8.45e-01	0	60	104	0	53	13211
2026-01-20 05:47:13.86	347.03	14.77	-41.7	-52.7	3.8	8.47e-01	0	61	104	0	53	13162
2026-01-20 05:47:14.87	346.86	14.83	-41.8	-52.8	3.8	8.47e-01	0	61	104	0	53	13271
2026-01-20 05:47:15.87	346.69	14.89	-41.6	-52.5	3.8	8.46e-01	0	61	104	0	53	12885
2026-01-20 05:47:16.88	346.52	14.96	-41.4	-52.3	3.8	8.47e-01	0	61	104	0	53	12650
2026-01-20 05:47:17.89	346.34	15.02	-41.6	-52.8	3.8	8.45e-01	0	61	104	0	53	13383
2026-01-20 05:47:18.90	346.17	15.08	-41.5	-52.4	3.8	8.47e-01	0	61	104	0	53	12806
2026-01-20 05:47:19.91	346.00	15.15	-41.3	-52.2	3.8	8.46e-01	0	61	104	0	53	12517
2026-01-20 05:47:20.92	345.82	15.21	-41.4	-52.3	3.8	8.46e-01	0	61	104	0	53	12653
2026-01-20 05:47:21.93	345.65	15.27	-41.5	-52.6	3.8	8.46e-01	0	61	104	0	53	12979
2026-01-20 05:47:22.94	345.47	15.34	-41.3	-52.2	3.8	8.46e-01	0	61	104	0	53	12444
2026-01-20 05:47:23.95	345.29	15.40	-41.1	-52.1	3.8	8.47e-01	0	61	104	0	53	12329
2026-01-20 05:47:24.96	345.11	15.46	-41.3	-52.3	3.8	8.45e-01	0	61	104	0	53	12595
2026-01-20 05:47:25.97	344.94	15.52	-41.3	-52.3	3.8	8.46e-01	0	61	104	0	53	12574
2026-01-20 05:47:26.98	344.76	15.59	-41.1	-52.1	3.8	8.47e-01	0	61	104	0	53	12333
2026-01-20 05:47:27.99	344.58	15.65	-41.1	-52.2	3.8	8.46e-01	0	60	104	0	53	12415
2026-01-20 05:47:29.00	344.40	15.71	-41.0	-52.0	3.8	8.46e-01	0	61	104	0	52	12956
2026-01-20 05:47:30.01	344.21	15.77	-41.4	-52.4	3.8	8.46e-01	0	61	104	0	52	13476
2026-01-20 05:47:31.02	344.03	15.84	-40.9	-52.2	3.8	8.46e-01	0	61	104	0	52	13127
2026-01-20 05:47:32.03	343.85	15.90	-41.0	-52.0	3.8	8.46e-01	0	61	104	0	52	12889
2026-01-20 05:47:33.03	343.67	15.96	-41.0	-52.1	3.8	8.46e-01	0	61	104	0	52	12975
2026-01-20 05:47:34.04	343.48	16.02	-41.2	-52.2	3.8	8.46e-01	0	61	104	0	52	13228
2026-01-20 05:47:35.05	343.30	16.08	-40.6	-52.0	3.8	8.46e-01	0	61	104	0	52	12899
2026-01-20 05:47:36.07	343.11	16.14	-41.2	-52.1	3.8	8.48e-01	0	61	104	0	52	12993
2026-01-20 05:47:37.07	342.92	16.20	-41.0	-52.0	3.8	8.47e-01	0	61	104	0	52	12861
2026-01-20 05:47:38.08	342.73	16.27	-40.9	-52.0	3.8	8.45e-01	0	61	104	0	52	12912
2026-01-20 05:47:39.09	342.55	16.33	-40.8	-52.2	3.8	8.46e-01	0	61	104	0	52	13121
2026-01-20 05:47:40.10	342.36	16.39	-41.1	-52.0	3.8	8.46e-01	0	61	104	0	52	12905
2026-01-20 05:47:41.11	342.17	16.45	-40.7	-51.9	3.8	8.46e-01	0	61	104	0	52	12734
2026-01-20 05:47:42.12	341.97	16.51	-41.1	-52.0	3.8	8.47e-01	0	61	104	0	52	12956
2026-01-20 05:47:43.13	341.78	16.57	-40.9	-52.0	3.8	8.47e-01	0	61	104	0	52	12908
2026-01-20 05:47:44.14	341.59	16.63	-41.0	-52.0	3.8	8.47e-01	0	61	104	0	52	12834
2026-01-20 05:47:45.15	341.40	16.69	-41.1	-52.1	3.8	8.47e-01	0	61	104	0	52	12976
2026-01-20 05:47:46.16	341.20	16.75	-40.9	-51.9	3.8	8.46e-01	0	61	104	0	52	12732
2026-01-20 05:47:47.17	341.01	16.81	-41.2	-52.1	3.8	8.45e-01	0	61	104	0	52	13040
2026-01-20 05:47:48.18	340.81	16.87	-40.9	-52.1	3.8	8.46e-01	0	61	104	0	52	13010
2026-01-20 05:47:49.19	340.62	16.92	-41.5	-51.8	3.8	8.46e-01	0	61	104	0	52	12543
2026-01-20 05:47:50.19	340.42	16.98	-40.8	-51.9	3.8	8.46e-01	0	61	104	0	52	12721
2026-01-20 05:47:51.20	340.22	17.04	-41.6	-52.3	3.8	8.44e-01	0	61	104	0	52	13393
2026-01-20 05:47:52.21	340.02	17.10	-41.5	-51.7	3.8	8.46e-01	0	61	104	0	52	12489
2026-01-20 05:47:53.22	339.82	17.16	-41.5	-48.0	4.9	7.87e-01	0	61	0	0	53	7635
2026-01-20 05:47:54.23	339.62	17.22	-41.2	-51.8	3.8	8.46e-01	0	61	104	0	53	11824
2026-01-20 05:47:55.24	339.42	17.27	-40.7	-44.9	7.6	1.84e-01	0	61	0	2097152	52	5715
2026-01-20 05:47:56.25	339.22	17.33	-40.0	-43.3	9.4	2.73e-02	0	61	0	9437184	51	5006
2026-01-20 05:47:57.26	339.02	17.39	-39.2	-41.8	11.1	3.67e-03	0	61	0	16777216	49	4747
2026-01-20 05:47:58.27	338.81	17.45	-38.1	-40.3	12.7	1.51e-04	0	61	0	24117248	47	4463
2026-01-20 05:47:59.28	338.61	17.50	-37.4	-39.2	13.9	1.60e-05	0	61	0	30408704	45	4440
2026-01-20 05:48:00.29	338.41	17.56	-36.7	-38.3	15.0	1.10e-06	0	61	0	37748736	44	4199
2026-01-20 05:48:01.30	338.20	17.61	-36.1	-37.5	15.7	0.00e+00	0	61	0	46137344	43	4095
2026-01-20 05:48:02.31	337.99	17.67	-36.1	-37.6	15.8	0.00e+00	0	61	0	52428800	43	4127
2026-01-20 05:48:03.32	337.79	17.73	-36.5	-38.0	15.5	0.00e+00	0	61	0	59768832	43	4333
2026-01-20 05:48:04.33	337.58	17.78	-37.0	-38.6	15.0	0.00e+00	0	61	0	67108864	43	4626
2026-01-20 05:48:05.34	337.37	17.84	-36.9	-38.5	15.4	0.00e+00	0	61	0	74448896	43	4571
2026-01-20 05:48:06.35	337.16	17.89	-36.7	-38.2	15.8	0.00e+00	0	61	0	81788928	43	4421
2026-01-20 05:48:07.36	336.95	17.95	-37.1	-38.6	15.4	0.00e+00	0	61	0	89128960	43	4651
2026-01-20 05:48:08.37	336.74	18.00	-37.3	-38.9	15.4	0.00e+00	0	61	0	96468992	44	4516
2026-01-20 05:48:09.38	336.52	18.06	-37.2	-38.7	15.6	0.00e+00	0	61	0	103809024	44	4429
2026-01-20 05:48:10.39	336.31	18.11	-37.3	-38.9	15.5	0.00e+00	0	61	0	111149056	44	4503
2026-01-20 05:48:11.40	336.10	18.16	-37.4	-39.0	15.4	0.00e+00	0	61	0	118489088	44	4549
2026-01-20 05:48:12.41	335.88	18.22	-37.3	-38.8	15.6	0.00e+00	0	61	0	125829120	44	4481
2026-01-20 05:48:13.42	335.67	18.27	-37.5	-39.0	15.5	0.00e+00	0	61	0	133169152	44	4579
2026-01-20 05:48:14.43	335.45	18.32	-37.4	-38.9	15.6	0.00e+00	0	61	0	140509184	44	4508
2026-01-20 05:48:15.44	335.24	18.37	-37.3	-38.8	15.7	0.00e+00	0	61	0	147849216	44	4487
2026-01-20 05:48:16.45	335.02	18.43	-37.3	-38.8	15.8	0.00e+00	0	61	0	154140672	44	4446
2026-01-20 05:48:17.46	334.80	18.48	-37.1	-38.6	16.0	0.00e+00	0	61	0	162529280	44	4365
2026-01-20 05:48:18.47	334.58	18.53	-37.1	-38.5	16.1	0.00e+00	0	61	0	169869312	44	4326
2026-01-20 05:48:19.48	334.36	18.58	-37.0	-38.4	16.2	0.00e+00	0	61	0	176160768	44	4285
2026-01-20 05:48:20.49	334.14	18.63	-36.9	-38.4	16.3	0.00e+00	0	61	0	183500800	44	4248
2026-01-20 05:48:21.50	333.92	18.68	-36.9	-38.3	16.4	0.00e+00	0	61	0	190840832	44	4211
2026-01-20 05:48:22.51	333.70	18.73	-36.7	-38.1	16.6	0.00e+00	0	61	0	198180864	44	4134
2026-01-20 05:48:23.51	333.48	18.78	-36.8	-38.1	16.5	0.00e+00	0	61	0	205520896	44	4135
2026-01-20 05:48:24.53	333.25	18.83	-36.6	-37.9	16.8	0.00e+00	0	61	0	212860928	44	4041
2026-01-20 05:48:25.54	333.03	18.88	-36.6	-38.0	16.8	0.00e+00	0	61	0	220200960	44	4052
2026-01-20 05:48:26.55	332.80	18.93	-36.5	-37.9	16.9	0.00e+00	0	62	0	227540992	44	4010
2026-01-20 05:48:27.55	332.58	18.97	-36.6	-38.0	16.8	0.00e+00	0	61	0	234881024	44	4067
2026-01-20 05:48:28.56	332.35	19.02	-36.6	-38.0	16.7	0.00e+00	0	61	0	242221056	44	4071
2026-01-20 05:48:29.57	332.13	19.07	-36.8	-38.2	16.5	0.00e+00	0	61	0	249561088	44	4184
2026-01-20 05:48:30.58	331.90	19.12	-36.8	-38.2	16.5	0.00e+00	0	61	0	256901120	44	4178
2026-01-20 05:48:31.59	331.67	19.16	-37.0	-38.4	16.4	0.00e+00	0	61	0	264241152	44	4257
2026-01-20 05:48:32.60	331.44	19.21	-37.0	-38.4	16.4	0.00e+00	0	62	0	271581184	44	4271
2026-01-20 05:48:33.61	331.21	19.26	-37.1	-38.5	16.3	0.00e+00	0	61	0	278921216	44	4314
2026-01-20 05:48:34.62	330.98	19.30	-37.1	-38.5	16.3	0.00e+00	0	61	0	286261248	44	4294
2026-01-20 05:48:35.63	330.75	19.35	-37.0	-38.4	16.5	0.00e+00	0	62	0	293601280	44	4243
2026-01-20 05:48:36.64	330.52	19.39	-36.9	-38.3	16.5	0.00e+00	0	61	0	300941312	44	4219
2026-01-20 05:48:37.65	330.28	19.44	-36.9	-38.3	16.5	0.00e+00	0	61	0	308281344	44	4226
2026-01-20 05:48:38.66	330.05	19.48	-36.8	-38.2	16.7	0.00e+00	0	61	0	315621376	44	4158
2026-01-20 05:48:39.67	329.82	19.52	-36.6	-38.0	16.9	0.00e+00	0	61	0	322961408	44	4059
2026-01-20 05:48:40.68	329.58	19.57	-36.5	-37.9	17.0	0.00e+00	0	61	0	329252864	44	4010
2026-01-20 05:48:41.69	329.35	19.61	-36.5	-37.8	17.0	0.00e+00	0	61	0	336592896	44	3994
2026-01-20 05:48:42.70	329.11	19.65	-36.3	-37.6	17.1	0.00e+00	0	61	0	343932928	43	4116
2026-01-20 05:48:43.71	328.87	19.69	-36.4	-37.7	17.0	0.00e+00	0	61	0	351272960	43	4152
2026-01-20 05:48:44.72	328.64	19.73	-36.4	-37.7	17.0	0.00e+00	0	61	0	358612992	43	4152
2026-01-20 05:48:45.73	328.40	19.78	-36.4	-37.7	17.0	0.00e+00	0	62	0	365953024	43	4153
2026-01-20 05:48:46.74	328.16	19.82	-36.3	-37.6	17.0	0.00e+00	0	61	0	373293056	43	4145
2026-01-20 05:48:47.75	327.92	19.86	-36.4	-37.7	17.0	0.00e+00	0	61	0	380633088	43	4157
2026-01-20 05:48:48.76	327.68	19.90	-36.3	-37.6	17.1	0.00e+00	0	61	0	387973120	43	4115
2026-01-20 05:48:49.77	327.44	19.93	-36.3	-37.7	17.0	0.00e+00	0	61	0	395313152	43	4154
2026-01-20 05:48:50.78	327.20	19.97	-36.2	-37.5	17.2	0.00e+00	0	62	0	402653184	43	4095
2026-01-20 05:48:51.79	326.96	20.01	-36.2	-37.5	17.2	0.00e+00	0	62	0	409993216	43	4087
2026-01-20 05:48:52.79	326.72	20.05	-36.2	-37.5	17.2	0.00e+00	0	62	0	417333248	43	4075
2026-01-20 05:48:53.80	326.47	20.09	-36.1	-37.4	17.3	0.00e+00	0	62	0	424673280	43	4035
2026-01-20 05:48:54.81	326.23	20.12	-36.1	-37.4	17.3	0.00e+00	0	62	0	432013312	43	4019
2026-01-20 05:48:55.82	325.99	20.16	-36.1	-37.4	17.3	0.00e+00	0	62	0	439353344	43	4005
2026-01-20 05:48:56.83	325.74	20.19	-36.1	-37.4	17.3	0.00e+00	0	62	0	446693376	43	4005
2026-01-20 05:48:57.84	325.50	20.23	-36.1	-37.4	17.3	0.00e+00	0	62	0	452984832	43	4028
2026-01-20 05:48:58.85	325.25	20.26	-36.2	-37.4	17.3	0.00e+00	0	62	0	460324864	43	4040
2026-01-20 05:48:59.86	325.00	20.30	-36.2	-37.5	17.2	0.00e+00	0	62	0	468713472	43	4056
2026-01-20 05:49:00.87	324.76	20.33	-36.2	-37.4	17.3	0.00e+00	0	62	0	475004928	43	4049
2026-01-20 05:49:01.88	324.51	20.36	-36.1	-37.4	17.3	0.00e+00	0	62	0	482344960	43	4022
2026-01-20 05:49:02.89	324.26	20.40	-36.2	-37.4	17.2	0.00e+00	0	61	0	489684992	43	4051
2026-01-20 05:49:03.90	324.01	20.43	-36.1	-37.3	17.4	0.00e+00	0	62	0	497025024	43	3990
2026-01-20 05:49:04.91	323.76	20.46	-36.1	-37.4	17.3	0.00e+00	0	62	0	504365056	43	4007
2026-01-20 05:49:05.92	323.51	20.49	-36.1	-37.3	17.3	0.00e+00	0	62	0	511705088	43	4002
2026-01-20 05:49:06.92	323.27	20.52	-36.0	-37.3	17.4	0.00e+00	0	61	0	519045120	43	3960
2026-01-20 05:49:07.93	323.02	20.55	-36.1	-37.4	17.3	0.00e+00	0	62	0	526385152	43	4007
2026-01-20 05:49:08.94	322.76	20.58	-36.1	-37.4	17.3	0.00e+00	0	62	0	533725184	43	4010
2026-01-20 05:49:09.95	322.51	20.61	-36.2	-37.5	17.2	0.00e+00	0	62	0	541065216	43	4080
2026-01-20 05:49:10.96	322.26	20.64	-36.2	-37.5	17.2	0.00e+00	0	62	0	548405248	43	4058
2026-01-20 05:49:11.97	322.01	20.67	-36.1	-37.3	17.3	0.00e+00	0	61	0	555745280	43	4000
2026-01-20 05:49:12.98	321.76	20.69	-36.1	-37.3	17.4	0.00e+00	0	61	0	563085312	43	3993
2026-01-20 05:49:13.99	321.50	20.72	-36.1	-37.3	17.3	0.00e+00	0	62	0	570425344	43	4001
2026-01-20 05:49:15.00	321.25	20.75	-36.1	-37.4	17.3	0.00e+00	0	61	0	577765376	43	4005
2026-01-20 05:49:16.01	320.99	20.77	-36.1	-37.3	17.4	0.00e+00	0	62	0	585105408	43	3984
2026-01-20 05:49:17.02	320.74	20.80	-36.1	-37.3	17.4	0.00e+00	0	62	0	592445440	43	3984
2026-01-20 05:49:18.03	320.48	20.82	-36.1	-37.3	17.4	0.00e+00	0	62	0	599785472	43	3996
2026-01-20 05:49:19.04	320.23	20.84	-36.2	-37.5	17.3	0.00e+00	0	61	0	606076928	43	4055
2026-01-20 05:49:20.04	319.97	20.87	-36.1	-37.3	17.4	0.00e+00	0	61	0	613416960	43	3994
2026-01-20 05:49:21.05	319.72	20.89	-36.2	-37.5	17.2	0.00e+00	0	62	0	621805568	43	4066
2026-01-20 05:49:22.06	319.46	20.91	-36.3	-37.6	17.2	0.00e+00	0	62	0	628097024	43	4115
2026-01-20 05:49:23.07	319.20	20.93	-36.4	-37.7	17.0	0.00e+00	0	62	0	635437056	43	4166
2026-01-20 05:49:24.08	318.95	20.95	-36.4	-37.7	17.0	0.00e+00	0	62	0	642777088	43	4191
2026-01-20 05:49:25.09	318.69	20.97	-36.3	-37.6	17.1	0.00e+00	0	62	0	650117120	43	4139
2026-01-20 05:49:26.10	318.43	20.99	-36.3	-37.6	17.2	0.00e+00	0	62	0	657457152	43	4109
2026-01-20 05:49:27.11	318.17	21.01	-36.2	-37.5	17.3	0.00e+00	0	62	0	664797184	43	4068
2026-01-20 05:49:28.12	317.91	21.03	-36.1	-37.4	17.3	0.00e+00	0	62	0	672137216	43	4037
2026-01-20 05:49:29.13	317.65	21.05	-36.1	-37.4	17.4	0.00e+00	0	62	0	679477248	43	4019
2026-01-20 05:49:30.14	317.39	21.07	-36.1	-37.4	17.4	0.00e+00	0	61	0	686817280	43	4008
2026-01-20 05:49:31.15	317.13	21.08	-36.0	-37.2	17.5	0.00e+00	0	62	0	694157312	43	3947
2026-01-20 05:49:32.16	316.87	21.10	-36.1	-37.3	17.4	0.00e+00	0	62	0	701497344	43	4004
2026-01-20 05:49:33.17	316.61	21.11	-36.1	-37.3	17.4	0.00e+00	0	62	0	708837376	43	3999
2026-01-20 05:49:34.18	316.35	21.13	-36.1	-37.4	17.3	0.00e+00	0	62	0	716177408	43	4025
2026-01-20 05:49:35.19	316.09	21.14	-36.2	-37.4	17.3	0.00e+00	0	62	0	723517440	43	4051
2026-01-20 05:49:36.20	315.83	21.16	-36.1	-37.4	17.3	0.00e+00	0	62	0	729808896	43	4039
2026-01-20 05:49:37.21	315.57	21.17	-36.3	-37.6	17.2	0.00e+00	0	62	0	738197504	43	4100
2026-01-20 05:49:38.21	315.31	21.18	-36.3	-37.6	17.1	0.00e+00	0	62	0	745537536	43	4123
2026-01-20 05:49:39.22	315.05	21.19	-36.3	-37.6	17.2	0.00e+00	0	62	0	751828992	43	4101
2026-01-20 05:49:40.23	314.79	21.21	-36.3	-37.6	17.2	0.00e+00	0	62	0	759169024	43	4117
2026-01-20 05:49:41.24	314.52	21.22	-36.4	-37.7	17.1	0.00e+00	0	62	0	766509056	43	4156
2026-01-20 05:49:42.25	314.26	21.23	-36.4	-37.7	17.0	0.00e+00	0	62	0	773849088	43	4191
2026-01-20 05:49:43.26	314.00	21.23	-36.3	-37.6	17.2	0.00e+00	0	62	0	781189120	43	4108
2026-01-20 05:49:44.27	313.74	21.24	-36.4	-37.7	17.1	0.00e+00	0	62	0	788529152	43	4149
2026-01-20 05:49:45.28	313.47	21.25	-36.4	-37.7	17.0	0.00e+00	0	62	0	795869184	43	4174
2026-01-20 05:49:46.29	313.21	21.26	-36.1	-37.4	17.4	0.00e+00	0	62	0	803209216	43	4020
2026-01-20 05:49:47.30	312.95	21.26	-36.1	-37.4	17.3	0.00e+00	0	62	0	810549248	43	4024
2026-01-20 05:49:48.31	312.69	21.27	-36.1	-37.3	17.4	0.00e+00	0	62	0	817889280	43	3995
2026-01-20 05:49:49.32	312.42	21.28	-36.0	-37.2	17.5	0.00e+00	0	62	0	825229312	43	3958
2026-01-20 05:49:50.33	312.16	21.28	-36.0	-37.3	17.5	0.00e+00	0	62	0	832569344	43	3963
2026-01-20 05:49:51.34	311.90	21.28	-36.0	-37.3	17.4	0.00e+00	0	62	0	839909376	43	3982
2026-01-20 05:49:52.35	311.63	21.29	-36.1	-37.4	17.3	0.00e+00	0	62	0	847249408	43	4033
2026-01-20 05:49:53.36	311.37	21.29	-36.1	-37.3	17.4	0.00e+00	0	62	0	854589440	43	3989
2026-01-20 05:49:54.37	311.10	21.29	-36.1	-37.3	17.4	0.00e+00	0	62	0	861929472	43	3997
2026-01-20 05:49:55.38	310.84	21.29	-36.1	-37.3	17.4	0.00e+00	0	62	0	869269504	43	3997
2026-01-20 05:49:56.38	310.58	21.30	-36.1	-37.3	17.4	0.00e+00	0	62	0	876609536	43	3995
2026-01-20 05:49:57.39	310.32	21.30	-36.1	-37.3	17.4	0.00e+00	0	62	0	882900992	43	3993
2026-01-20 05:49:58.40	310.05	21.30	-36.1	-37.3	17.4	0.00e+00	0	62	0	891289600	43	3997
2026-01-20 05:49:59.41	309.79	21.29	-36.1	-37.3	17.4	0.00e+00	0	62	0	898629632	43	3996
2026-01-20 05:50:00.42	309.52	21.29	-36.1	-37.4	17.4	0.00e+00	0	62	0	904921088	43	4008
2026-01-20 05:50:01.43	309.26	21.29	-36.1	-37.3	17.4	0.00e+00	0	62	0	912261120	43	3988
2026-01-20 05:50:02.44	309.00	21.29	-36.0	-37.3	17.5	0.00e+00	0	62	0	919601152	43	3972
2026-01-20 05:50:03.45	308.73	21.28	-35.9	-37.1	17.6	0.00e+00	0	62	0	926941184	42	4145
2026-01-20 05:50:04.45	308.47	21.28	-35.9	-37.2	17.6	0.00e+00	0	62	0	934281216	42	4150
2026-01-20 05:50:05.47	308.21	21.27	-35.8	-37.1	17.7	0.00e+00	0	62	0	941621248	42	4112
2026-01-20 05:50:06.48	307.94	21.27	-35.8	-37.1	17.7	0.00e+00	0	62	0	948961280	42	4103
2026-01-20 05:50:07.49	307.68	21.26	-35.9	-37.2	17.6	0.00e+00	0	62	0	956301312	42	4160
2026-01-20 05:50:08.50	307.42	21.26	-36.0	-37.2	17.5	0.00e+00	0	62	0	963641344	42	4186
2026-01-20 05:50:09.51	307.15	21.25	-36.1	-37.4	17.4	0.00e+00	0	62	0	970981376	42	4265
2026-01-20 05:50:10.51	306.89	21.24	-36.1	-37.4	17.4	0.00e+00	0	62	0	978321408	42	4270
2026-01-20 05:50:11.52	306.63	21.23	-36.1	-37.4	17.4	0.00e+00	0	62	0	985661440	42	4283
2026-01-20 05:50:12.53	306.37	21.22	-36.1	-37.4	17.4	0.00e+00	0	62	0	993001472	42	4276
2026-01-20 05:50:13.54	306.11	21.21	-36.1	-37.3	17.4	0.00e+00	0	62	0	1000341504	42	4227
2026-01-20 05:50:14.55	305.84	21.20	-36.0	-37.2	17.5	0.00e+00	0	62	0	1007681536	42	4192
2026-01-20 05:50:15.56	305.58	21.19	-35.9	-37.1	17.7	0.00e+00	0	62	0	1015021568	42	4125
2026-01-20 05:50:16.57	305.32	21.18	-35.9	-37.1	17.6	0.00e+00	0	62	0	1022361600	42	4144
2026-01-20 05:50:17.58	305.06	21.17	-35.9	-37.1	17.6	0.00e+00	0	62	0	1028653056	42	4143
2026-01-20 05:50:18.59	304.80	21.15	-36.1	-37.4	17.4	0.00e+00	0	62	0	1035993088	42	4246
2026-01-20 05:50:19.60	304.53	21.14	-36.1	-37.4	17.4	0.00e+00	0	62	0	1043333120	42	4266
2026-01-20 05:50:20.61	304.27	21.12	-36.2	-37.5	17.3	0.00e+00	0	62	0	1050673152	42	4315
2026-01-20 05:50:21.62	304.01	21.11	-36.2	-37.5	17.3	0.00e+00	0	62	0	1058013184	42	4305
2026-01-20 05:50:22.62	303.75	21.09	-36.1	-37.4	17.3	0.00e+00	0	62	0	1065353216	42	4275
2026-01-20 05:50:23.63	303.49	21.08	-36.1	-37.4	17.4	0.00e+00	0	62	0	1072693248	42	4243
2026-01-20 05:50:24.64	303.23	21.06	-36.0	-37.3	17.5	0.00e+00	0	62	0	1080033280	42	4212
2026-01-20 05:50:25.65	302.97	21.04	-36.1	-37.3	17.4	0.00e+00	0	62	0	1087373312	42	4238
2026-01-20 05:50:26.66	302.72	21.03	-36.0	-37.3	17.5	0.00e+00	0	62	0	1094713344	42	4219
2026-01-20 05:50:27.67	302.46	21.01	-36.0	-37.2	17.6	0.00e+00	0	62	0	1102053376	42	4173
2026-01-20 05:50:28.68	302.20	20.99	-36.0	-37.3	17.5	0.00e+00	0	62	0	1109393408	42	4209
2026-01-20 05:50:29.69	301.94	20.97	-36.1	-37.3	17.4	0.00e+00	0	62	0	1116733440	42	4240
2026-01-20 05:50:30.70	301.68	20.95	-36.2	-37.5	17.3	0.00e+00	0	62	0	1124073472	42	4316
2026-01-20 05:50:31.71	301.42	20.93	-36.3	-37.5	17.2	0.00e+00	0	62	0	1131413504	42	4331
2026-01-20 05:50:32.72	301.17	20.90	-36.3	-37.6	17.1	0.00e+00	0	62	0	1138753536	42	4380
2026-01-20 05:50:33.73	300.91	20.88	-36.3	-37.6	17.1	0.00e+00	0	62	0	1146093568	42	4389
2026-01-20 05:50:34.74	300.65	20.86	-36.2	-37.5	17.3	0.00e+00	0	62	0	1153433600	42	4316
2026-01-20 05:50:35.75	300.40	20.84	-36.3	-37.5	17.2	0.00e+00	0	62	0	1159725056	42	4338
2026-01-20 05:50:36.76	300.14	20.81	-36.3	-37.5	17.2	0.00e+00	0	62	0	1168113664	42	4337
2026-01-20 05:50:37.77	299.88	20.79	-36.1	-37.4	17.4	0.00e+00	0	62	0	1175453696	42	4272
2026-01-20 05:50:38.78	299.63	20.76	-36.0	-37.3	17.5	0.00e+00	0	62	0	1181745152	42	4211
2026-01-20 05:50:39.78	299.38	20.74	-36.1	-37.3	17.5	0.00e+00	0	62	0	1189085184	42	4224
2026-01-20 05:50:40.79	299.12	20.71	-36.0	-37.3	17.4	0.00e+00	0	62	0	1196425216	42	4215
2026-01-20 05:50:41.80	298.87	20.68	-36.1	-37.3	17.4	0.00e+00	0	62	0	1203765248	42	4232
2026-01-20 05:50:42.81	298.62	20.66	-36.1	-37.4	17.3	0.00e+00	0	62	0	1211105280	42	4265
2026-01-20 05:50:43.82	298.36	20.63	-36.1	-37.4	17.3	0.00e+00	0	62	0	1218445312	42	4271
2026-01-20 05:50:44.83	298.11	20.60	-36.3	-37.6	17.2	0.00e+00	0	62	0	1225785344	42	4347
2026-01-20 05:50:45.84	297.86	20.57	-36.2	-37.5	17.3	0.00e+00	0	62	0	1233125376	42	4296
2026-01-20 05:50:46.85	297.61	20.54	-36.2	-37.4	17.3	0.00e+00	0	62	0	1240465408	42	4282
2026-01-20 05:50:47.86	297.36	20.51	-36.2	-37.5	17.3	0.00e+00	0	62	0	1247805440	42	4292
2026-01-20 05:50:48.87	297.10	20.48	-36.1	-37.4	17.3	0.00e+00	0	62	0	1255145472	42	4273
2026-01-20 05:50:49.88	296.85	20.45	-36.1	-37.4	17.4	0.00e+00	0	62	0	1262485504	42	4252
2026-01-20 05:50:50.89	296.61	20.42	-36.2	-37.5	17.2	0.00e+00	0	62	0	1269825536	42	4332
2026-01-20 05:50:51.90	296.36	20.38	-36.3	-37.6	17.2	0.00e+00	0	62	0	1277165568	42	4342
2026-01-20 05:50:52.91	296.11	20.35	-36.4	-37.7	17.0	0.00e+00	0	62	0	1284505600	42	4432
2026-01-20 05:50:53.92	295.86	20.32	-36.3	-37.6	17.1	0.00e+00	0	62	0	1291845632	42	4371
2026-01-20 05:50:54.93	295.61	20.28	-36.3	-37.5	17.2	0.00e+00	0	62	0	1299185664	42	4335
2026-01-20 05:50:55.94	295.37	20.25	-36.2	-37.5	17.2	0.00e+00	0	62	0	1305477120	42	4322
2026-01-20 05:50:56.95	295.12	20.22	-36.1	-37.4	17.3	0.00e+00	0	62	0	1313865728	42	4275
2026-01-20 05:50:57.96	294.87	20.18	-36.2	-37.5	17.3	0.00e+00	0	62	0	1321205760	42	4306
2026-01-20 05:50:58.97	294.63	20.14	-36.2	-37.4	17.3	0.00e+00	0	62	0	1327497216	42	4281
2026-01-20 05:50:59.98	294.38	20.11	-36.2	-37.5	17.3	0.00e+00	0	62	0	1334837248	42	4302
2026-01-20 05:51:00.99	294.14	20.07	-36.3	-37.6	17.2	0.00e+00	0	62	0	1342177280	42	4359
2026-01-20 05:51:02.00	293.90	20.03	-36.4	-37.7	17.0	0.00e+00	0	62	0	1349517312	42	4431
2026-01-20 05:51:03.01	293.65	20.00	-36.4	-37.7	17.0	0.00e+00	0	62	0	1356857344	42	4423
2026-01-20 05:51:04.02	293.41	19.96	-36.4	-37.8	17.0	0.00e+00	0	62	0	1364197376	42	4449
2026-01-20 05:51:05.03	293.17	19.92	-36.5	-37.8	16.9	0.00e+00	0	62	0	1371537408	42	4482
2026-01-20 05:51:06.03	292.93	19.88	-36.5	-37.8	16.9	0.00e+00	0	62	0	1378877440	42	4484
2026-01-20 05:51:07.04	292.69	19.84	-36.4	-37.8	17.0	0.00e+00	0	62	0	1386217472	42	4450
2026-01-20 05:51:08.05	292.45	19.80	-36.4	-37.7	17.0	0.00e+00	0	62	0	1393557504	42	4427
2026-01-20 05:51:09.06	292.21	19.76	-36.3	-37.6	17.1	0.00e+00	0	62	0	1400897536	42	4390
2026-01-20 05:51:10.07	291.97	19.72	-36.3	-37.6	17.1	0.00e+00	0	62	0	1408237568	42	4378
2026-01-20 05:51:11.08	291.74	19.68	-36.3	-37.5	17.1	0.00e+00	0	62	0	1415577600	42	4338
2026-01-20 05:51:12.09	291.50	19.63	-36.3	-37.6	17.1	0.00e+00	0	62	0	1422917632	42	4373
2026-01-20 05:51:13.10	291.26	19.59	-36.4	-37.7	17.0	0.00e+00	0	62	0	1430257664	42	4403
2026-01-20 05:51:14.11	291.03	19.55	-36.3	-37.6	17.1	0.00e+00	0	62	0	1437597696	42	4369
2026-01-20 05:51:15.12	290.79	19.50	-36.3	-37.6	17.1	0.00e+00	0	62	0	1444937728	42	4363
2026-01-20 05:51:16.13	290.56	19.46	-36.3	-37.6	17.1	0.00e+00	0	62	0	1452277760	42	4364
2026-01-20 05:51:17.14	290.32	19.42	-36.2	-37.5	17.2	0.00e+00	0	62	0	1458569216	42	4313
2026-01-20 05:51:18.15	290.09	19.37	-36.2	-37.5	17.2	0.00e+00	0	62	0	1465909248	42	4318
2026-01-20 05:51:19.16	289.86	19.33	-36.2	-37.5	17.2	0.00e+00	0	62	0	1474297856	42	4333
2026-01-20 05:51:20.17	289.62	19.28	-36.2	-37.5	17.2	0.00e+00	0	62	0	1480589312	42	4332
2026-01-20 05:51:21.18	289.39	19.24	-36.2	-37.5	17.2	0.00e+00	0	62	0	1487929344	42	4326
2026-01-20 05:51:22.19	289.16	19.19	-36.2	-37.5	17.2	0.00e+00	0	62	0	1495269376	42	4306
2026-01-20 05:51:23.19	288.94	19.14	-36.2	-37.5	17.1	0.00e+00	0	62	0	1502609408	42	4333
2026-01-20 05:51:24.20	288.71	19.10	-36.3	-37.5	17.1	0.00e+00	0	62	0	1509949440	42	4339
2026-01-20 05:51:25.21	288.48	19.05	-36.3	-37.6	17.1	0.00e+00	0	62	0	1517289472	42	4384
2026-01-20 05:51:26.22	288.25	19.00	-36.3	-37.7	17.0	0.00e+00	0	62	0	1524629504	42	4394
2026-01-20 05:51:27.23	288.02	18.95	-36.4	-37.7	17.0	0.00e+00	0	62	0	1531969536	42	4411
2026-01-20 05:51:28.24	287.80	18.91	-36.4	-37.7	17.0	0.00e+00	0	62	0	1539309568	42	4403
2026-01-20 05:51:29.25	287.57	18.86	-36.4	-37.7	17.0	0.00e+00	0	62	0	1546649600	42	4427
2026-01-20 05:51:30.26	287.35	18.81	-36.3	-37.6	17.0	0.00e+00	0	62	0	1553989632	42	4377
2026-01-20 05:51:31.27	287.12	18.76	-36.5	-37.8	16.9	0.00e+00	0	62	0	1561329664	42	4466
2026-01-20 05:51:32.28	286.90	18.71	-36.4	-37.7	17.0	0.00e+00	0	62	0	1568669696	42	4415
2026-01-20 05:51:33.29	286.68	18.66	-36.5	-37.8	16.8	0.00e+00	0	62	0	1576009728	42	4481
2026-01-20 05:51:34.30	286.46	18.61	-36.5	-37.8	16.9	0.00e+00	0	62	0	1583349760	42	4482
2026-01-20 05:51:35.31	286.23	18.56	-36.4	-37.7	17.0	0.00e+00	0	62	0	1590689792	42	4422
2026-01-20 05:51:36.32	286.01	18.50	-36.4	-37.8	16.9	0.00e+00	0	62	0	1598029824	42	4456
2026-01-20 05:51:37.33	285.80	18.45	-36.4	-37.8	16.9	0.00e+00	0	62	0	1605369856	42	4447
2026-01-20 05:51:38.34	285.58	18.40	-36.5	-37.8	16.8	0.00e+00	0	62	0	1611661312	42	4488
2026-01-20 05:51:39.35	285.36	18.35	-36.5	-37.8	16.8	0.00e+00	0	62	0	1619001344	42	4475
2026-01-20 05:51:40.36	285.14	18.30	-36.5	-37.8	16.9	0.00e+00	0	62	0	1626341376	42	4462
2026-01-20 05:51:41.36	284.93	18.24	-36.5	-37.8	16.9	0.00e+00	0	62	0	1633681408	42	4462
2026-01-20 05:51:42.37	284.71	18.19	-36.6	-37.9	16.7	0.00e+00	0	62	0	1641021440	42	4528
2026-01-20 05:51:43.38	284.50	18.14	-36.6	-38.0	16.6	0.00e+00	0	62	0	1648361472	42	4564
2026-01-20 05:51:44.39	284.28	18.08	-36.6	-38.0	16.7	0.00e+00	0	62	0	1655701504	42	4546
2026-01-20 05:51:45.40	284.07	18.03	-36.7	-38.0	16.6	0.00e+00	0	62	0	1663041536	42	4591
2026-01-20 05:51:46.41	283.86	17.97	-36.6	-38.0	16.6	0.00e+00	0	62	0	1670381568	42	4581
2026-01-20 05:51:47.42	283.64	17.92	-36.6	-38.0	16.6	0.00e+00	0	62	0	1677721600	42	4571
2026-01-20 05:51:48.43	283.43	17.86	-36.6	-38.0	16.6	0.00e+00	0	62	0	1685061632	42	4563
2026-01-20 05:51:49.44	283.22	17.81	-36.6	-37.9	16.7	0.00e+00	0	62	0	1692401664	42	4527
2026-01-20 05:51:50.45	283.01	17.75	-36.5	-37.9	16.7	0.00e+00	0	62	0	1699741696	42	4507
2026-01-20 05:51:51.46	282.80	17.70	-36.5	-37.9	16.7	0.00e+00	0	62	0	1707081728	42	4508
2026-01-20 05:51:52.47	282.60	17.64	-36.5	-37.8	16.8	0.00e+00	0	62	0	1714421760	42	4472
2026-01-20 05:51:53.48	282.39	17.59	-36.6	-37.9	16.7	0.00e+00	0	62	0	1721761792	42	4545
2026-01-20 05:51:54.49	282.18	17.53	-36.7	-38.1	16.6	0.00e+00	0	62	0	1729101824	42	4602
2026-01-20 05:51:55.50	281.98	17.47	-36.7	-38.1	16.5	0.00e+00	0	62	0	1735393280	43	4381
2026-01-20 05:51:56.51	281.77	17.42	-36.9	-38.3	16.3	0.00e+00	0	62	0	1743781888	43	4467
2026-01-20 05:51:57.52	281.57	17.36	-36.9	-38.4	16.2	0.00e+00	0	62	0	1751121920	43	4506
2026-01-20 05:51:58.53	281.36	17.30	-37.0	-38.5	16.2	0.00e+00	0	62	0	1757413376	43	4547
2026-01-20 05:51:59.54	281.16	17.24	-37.0	-38.5	16.1	0.00e+00	0	62	0	1764753408	43	4566
2026-01-20 05:52:00.55	280.96	17.19	-37.1	-38.6	16.0	0.00e+00	0	62	0	1772093440	43	4618
2026-01-20 05:52:01.56	280.76	17.13	-37.4	-38.8	15.9	0.00e+00	0	62	0	1779433472	44	4482
2026-01-20 05:52:02.57	280.56	17.07	-37.3	-38.8	15.9	0.00e+00	0	62	0	1786773504	44	4463
2026-01-20 05:52:03.58	280.36	17.01	-37.3	-38.8	15.9	0.00e+00	0	62	0	1794113536	44	4485
2026-01-20 05:52:04.59	280.16	16.95	-37.3	-38.7	16.0	0.00e+00	0	62	0	1801453568	44	4436
2026-01-20 05:52:05.60	279.96	16.89	-37.3	-38.7	16.0	0.00e+00	0	62	0	1808793600	44	4435
2026-01-20 05:52:06.61	279.76	16.83	-37.3	-38.8	16.0	0.00e+00	0	62	0	1816133632	44	4443
2026-01-20 05:52:07.62	279.57	16.77	-37.2	-38.6	16.1	0.00e+00	0	62	0	1823473664	44	4387
2026-01-20 05:52:08.63	279.37	16.71	-37.2	-38.6	16.1	0.00e+00	0	62	0	1830813696	44	4370
2026-01-20 05:52:09.63	279.18	16.65	-37.1	-38.5	16.2	0.00e+00	0	62	0	1838153728	44	4317
2026-01-20 05:52:10.64	278.99	16.59	-37.1	-38.5	16.2	0.00e+00	0	62	0	1845493760	44	4324
2026-01-20 05:52:11.65	278.79	16.53	-37.1	-38.5	16.1	0.00e+00	0	62	0	1852833792	44	4337
2026-01-20 05:52:12.66	278.60	16.47	-37.1	-38.5	16.1	0.00e+00	0	62	0	1860173824	44	4316
2026-01-20 05:52:13.67	278.41	16.41	-37.1	-38.6	16.1	0.00e+00	0	62	0	1867513856	44	4348
2026-01-20 05:52:14.68	278.22	16.35	-37.1	-38.6	16.1	0.00e+00	0	62	0	1874853888	44	4357
2026-01-20 05:52:15.69	278.03	16.29	-37.2	-38.6	16.0	0.00e+00	0	62	0	1882193920	44	4377
2026-01-20 05:52:16.70	277.84	16.23	-37.2	-38.7	16.0	0.00e+00	0	62	0	1889533952	44	4399
2026-01-20 05:52:17.71	277.65	16.17	-37.2	-38.7	15.9	0.00e+00	0	62	0	1896873984	44	4418
2026-01-20 05:52:18.72	277.46	16.11	-37.3	-38.8	15.9	0.00e+00	0	62	0	1904214016	44	4449
2026-01-20 05:52:19.73	277.27	16.05	-37.3	-38.8	15.9	0.00e+00	0	62	0	1910505472	44	4459
2026-01-20 05:52:20.74	277.09	15.98	-37.3	-38.8	15.8	0.00e+00	0	62	0	1917845504	44	4479
2026-01-20 05:52:21.75	276.90	15.92	-37.3	-38.8	15.8	0.00e+00	0	62	0	1925185536	44	4470
2026-01-20 05:52:22.76	276.72	15.86	-37.3	-38.8	15.8	0.00e+00	0	62	0	1932525568	44	4487
2026-01-20 05:52:23.77	276.53	15.80	-37.3	-38.7	15.9	0.00e+00	0	62	0	1939865600	44	4434
2026-01-20 05:52:24.78	276.35	15.74	-37.2	-38.7	16.0	0.00e+00	0	62	0	1947205632	44	4399
2026-01-20 05:52:25.79	276.17	15.67	-37.2	-38.7	15.9	0.00e+00	0	62	0	1954545664	44	4402
2026-01-20 05:52:26.80	275.99	15.61	-37.3	-38.7	15.9	0.00e+00	0	62	0	1961885696	44	4431
2026-01-20 05:52:27.81	275.81	15.55	-37.3	-38.8	15.8	0.00e+00	0	62	0	1969225728	44	4481
2026-01-20 05:52:28.81	275.63	15.49	-37.4	-38.9	15.7	0.00e+00	0	62	0	1976565760	44	4523
2026-01-20 05:52:29.82	275.45	15.42	-37.4	-39.0	15.7	0.00e+00	0	62	0	1983905792	44	4546
2026-01-20 05:52:30.83	275.27	15.36	-37.4	-38.9	15.7	0.00e+00	0	62	0	1991245824	44	4528
2026-01-20 05:52:31.84	275.09	15.30	-37.4	-38.9	15.7	0.00e+00	0	62	0	1998585856	44	4520
2026-01-20 05:52:32.85	274.91	15.23	-37.4	-39.0	15.7	0.00e+00	0	62	0	2005925888	44	4549
2026-01-20 05:52:33.86	274.74	15.17	-37.4	-38.9	15.7	0.00e+00	0	62	0	2013265920	44	4500
2026-01-20 05:52:34.87	274.56	15.11	-37.4	-38.8	15.7	0.00e+00	0	62	0	2020605952	44	4493
2026-01-20 05:52:35.88	274.39	15.04	-37.4	-39.0	15.6	0.00e+00	0	62	0	2027945984	44	4555
2026-01-20 05:52:36.89	274.21	14.98	-37.5	-39.0	15.6	0.00e+00	0	62	0	2034237440	44	4570
2026-01-20 05:52:37.90	274.04	14.92	-37.5	-39.0	15.5	0.00e+00	0	62	0	2041577472	44	4591
2026-01-20 05:52:38.91	273.87	14.85	-37.5	-39.1	15.5	0.00e+00	0	62	0	2049966080	44	4618
2026-01-20 05:52:39.92	273.70	14.79	-37.6	-39.1	15.5	0.00e+00	0	62	0	2056257536	44	4633
2026-01-20 05:52:40.93	273.52	14.72	-37.5	-39.0	15.6	0.00e+00	0	62	0	2063597568	44	4576
2026-01-20 05:52:41.94	273.35	14.66	-37.5	-39.1	15.5	0.00e+00	0	62	0	2070937600	44	4608
2026-01-20 05:52:42.95	273.18	14.60	-37.4	-39.0	15.6	0.00e+00	0	62	0	2078277632	44	4561
2026-01-20 05:52:43.96	273.02	14.53	-37.5	-39.1	15.4	0.00e+00	0	62	0	2085617664	44	4631
2026-01-20 05:52:44.97	272.85	14.47	-37.5	-39.0	15.5	0.00e+00	0	62	0	2092957696	44	4582
2026-01-20 05:52:45.98	272.68	14.40	-37.5	-39.1	15.5	0.00e+00	0	62	0	2100297728	44	4600
2026-01-20 05:52:46.99	272.51	14.34	-37.5	-39.0	15.5	0.00e+00	0	62	0	2107637760	44	4598
2026-01-20 05:52:48.00	272.35	14.27	-37.6	-39.2	15.4	0.00e+00	0	62	0	2114977792	44	4661
2026-01-20 05:52:49.01	272.18	14.21	-37.6	-39.2	15.3	0.00e+00	0	62	0	2122317824	44	4683
2026-01-20 05:52:50.02	272.02	14.14	-37.7	-39.3	15.2	0.00e+00	0	62	0	2129657856	44	4723
2026-01-20 05:52:51.02	271.86	14.08	-37.7	-39.3	15.2	0.00e+00	0	62	0	2136997888	44	4726
2026-01-20 05:52:52.03	271.69	14.01	-37.7	-39.3	15.2	0.00e+00	0	62	0	2144337920	45	4489
2026-01-20 05:52:53.04	271.53	13.95	-37.7	-39.3	15.2	0.00e+00	0	62	0	2151677952	45	4473
2026-01-20 05:52:54.05	271.37	13.88	-37.7	-39.3	15.2	0.00e+00	0	62	0	2159017984	45	4477
2026-01-20 05:52:55.06	271.21	13.82	-37.8	-39.4	15.1	0.00e+00	0	62	0	2166358016	45	4529
2026-01-20 05:52:56.07	271.05	13.75	-37.8	-39.5	15.0	0.00e+00	0	62	0	2173698048	45	4559
2026-01-20 05:52:57.08	270.89	13.69	-37.9	-39.5	14.9	0.00e+00	0	62	0	2181038080	45	4592
2026-01-20 05:52:58.09	270.73	13.62	-37.9	-39.5	14.9	0.00e+00	0	62	0	2187329536	45	4583
2026-01-20 05:52:59.10	270.57	13.56	-37.9	-39.5	14.9	0.00e+00	0	62	0	2194669568	45	4597
2026-01-20 05:53:00.11	270.41	13.49	-37.9	-39.5	14.9	0.00e+00	0	62	0	2203058176	45	4596
2026-01-20 05:53:01.12	270.26	13.43	-37.9	-39.6	14.9	0.00e+00	0	62	0	2209349632	45	4600
2026-01-20 05:53:02.13	270.10	13.36	-37.9	-39.5	14.9	0.00e+00	0	62	0	2216689664	45	4567
2026-01-20 05:53:03.14	269.95	13.30	-37.9	-39.5	14.9	0.00e+00	0	62	0	2224029696	45	4586
2026-01-20 05:53:04.14	269.79	13.23	-37.8	-39.5	14.9	0.00e+00	0	62	0	2231369728	45	4548
2026-01-20 05:53:05.15	269.64	13.17	-37.9	-39.5	14.9	0.00e+00	0	62	0	2238709760	45	4581
2026-01-20 05:53:06.16	269.49	13.10	-37.9	-39.5	14.9	0.00e+00	0	62	0	2246049792	45	4589
2026-01-20 05:53:07.18	269.33	13.04	-37.9	-39.6	14.8	0.00e+00	0	62	0	2253389824	45	4610
2026-01-20 05:53:08.18	269.18	12.97	-37.9	-39.6	14.8	0.00e+00	0	62	0	2260729856	45	4622
2026-01-20 05:53:09.19	269.03	12.91	-38.0	-39.7	14.7	0.00e+00	0	62	0	2268069888	45	4684
2026-01-20 05:53:10.20	268.88	12.84	-38.1	-39.8	14.6	0.00e+00	0	62	0	2275409920	45	4711
2026-01-20 05:53:11.21	268.73	12.77	-38.1	-39.8	14.6	0.00e+00	0	62	0	2282749952	45	4726
2026-01-20 05:53:12.22	268.58	12.71	-38.2	-39.9	14.5	1.10e-06	0	62	0	2290089984	45	4801
2026-01-20 05:53:13.23	268.43	12.64	-38.1	-39.8	14.6	0.00e+00	0	62	0	2297430016	45	4745
2026-01-20 05:53:14.24	268.29	12.58	-38.0	-39.8	14.6	1.10e-06	0	62	0	2304770048	45	4713
2026-01-20 05:53:15.25	268.14	12.51	-38.0	-39.8	14.6	1.10e-06	0	62	0	2311061504	45	4709
2026-01-20 05:53:16.26	267.99	12.45	-38.0	-39.7	14.6	2.20e-06	0	62	0	2319450112	45	4690
2026-01-20 05:53:17.27	267.85	12.38	-38.0	-39.7	14.6	0.00e+00	0	62	0	2326790144	45	4687
2026-01-20 05:53:18.28	267.70	12.32	-38.0	-39.7	14.7	0.00e+00	0	62	0	2333081600	45	4660
2026-01-20 05:53:19.29	267.56	12.25	-38.0	-39.7	14.6	0.00e+00	0	62	0	2340421632	45	4700
2026-01-20 05:53:20.30	267.41	12.18	-37.9	-39.6	14.7	0.00e+00	0	62	0	2347761664	45	4621
2026-01-20 05:53:21.31	267.27	12.12	-38.0	-39.7	14.6	0.00e+00	0	62	0	2355101696	45	4702
2026-01-20 05:53:22.32	267.13	12.05	-38.0	-39.7	14.6	1.10e-06	0	62	0	2362441728	45	4688
2026-01-20 05:53:23.33	266.99	11.99	-38.0	-39.8	14.5	0.00e+00	0	62	0	2369781760	45	4710
2026-01-20 05:53:24.34	266.84	11.92	-38.0	-39.7	14.6	0.00e+00	0	62	0	2377121792	45	4694
2026-01-20 05:53:25.35	266.70	11.86	-38.0	-39.8	14.5	0.00e+00	0	62	0	2384461824	45	4706
2026-01-20 05:53:26.35	266.56	11.79	-38.1	-39.8	14.5	0.00e+00	0	62	0	2391801856	45	4733
2026-01-20 05:53:27.36	266.43	11.73	-38.1	-39.8	14.4	1.10e-06	0	62	0	2399141888	45	4748
2026-01-20 05:53:28.37	266.29	11.66	-38.0	-39.8	14.5	1.10e-06	0	62	0	2406481920	45	4713
2026-01-20 05:53:29.38	266.15	11.59	-38.0	-39.7	14.5	0.00e+00	0	62	0	2413821952	45	4662
2026-01-20 05:53:30.39	266.01	11.53	-38.0	-39.7	14.5	0.00e+00	0	62	0	2421161984	45	4703
2026-01-20 05:53:31.40	265.87	11.46	-38.0	-39.7	14.5	0.00e+00	0	62	0	2428502016	45	4666
2026-01-20 05:53:32.41	265.74	11.40	-37.9	-39.6	14.6	0.00e+00	0	62	0	2435842048	45	4618
2026-01-20 05:53:33.42	265.60	11.33	-37.9	-39.7	14.5	0.00e+00	0	62	0	2443182080	45	4652
2026-01-20 05:53:34.43	265.47	11.27	-37.9	-39.6	14.6	1.10e-06	0	62	0	2450522112	45	4648
2026-01-20 05:53:35.44	265.33	11.20	-38.0	-39.7	14.5	1.10e-06	0	62	0	2457862144	45	4698
2026-01-20 05:53:36.45	265.20	11.14	-38.1	-39.9	14.3	0.00e+00	0	62	0	2465202176	45	4779
2026-01-20 05:53:37.46	265.07	11.07	-38.2	-40.0	14.2	1.10e-06	0	62	0	2472542208	45	4831
2026-01-20 05:53:38.47	264.93	11.01	-38.3	-40.1	14.1	2.20e-06	0	62	0	2479882240	46	4616
2026-01-20 05:53:39.48	264.80	10.94	-38.4	-40.2	14.0	4.50e-06	0	62	0	2486173696	46	4691
2026-01-20 05:53:40.49	264.67	10.87	-38.5	-40.4	13.8	3.40e-06	0	62	0	2493513728	46	4760
2026-01-20 05:53:41.50	264.54	10.81	-38.5	-40.4	13.8	8.00e-06	0	62	0	2501902336	46	4766
2026-01-20 05:53:42.51	264.41	10.74	-38.4	-40.3	13.9	4.50e-06	0	62	0	2508193792	46	4727
2026-01-20 05:53:43.52	264.28	10.68	-38.5	-40.4	13.8	5.70e-06	0	62	0	2515533824	46	4773
2026-01-20 05:53:44.53	264.15	10.61	-38.4	-40.2	13.9	5.70e-06	0	62	0	2522873856	46	4704
2026-01-20 05:53:45.55	264.02	10.55	-38.4	-40.3	13.8	3.40e-06	0	62	0	2530213888	46	4745
2026-01-20 05:53:46.56	263.89	10.48	-38.4	-40.3	13.8	6.80e-06	0	62	0	2537553920	46	4734
2026-01-20 05:53:47.57	263.77	10.42	-38.4	-40.3	13.8	6.80e-06	0	62	0	2544893952	46	4749
2026-01-20 05:53:48.57	263.64	10.35	-38.5	-40.3	13.8	2.20e-06	0	62	0	2552233984	46	4755
2026-01-20 05:53:49.58	263.51	10.29	-38.5	-40.4	13.7	6.80e-06	0	62	0	2559574016	46	4770
2026-01-20 05:53:50.59	263.39	10.22	-38.5	-40.4	13.7	1.14e-05	0	62	0	2566914048	46	4807
2026-01-20 05:53:51.60	263.26	10.16	-38.6	-40.5	13.6	3.40e-06	0	62	0	2574254080	46	4836
2026-01-20 05:53:52.61	263.14	10.09	-38.6	-40.6	13.5	6.80e-06	0	62	0	2581594112	46	4881
2026-01-20 05:53:53.62	263.02	10.03	-38.6	-40.6	13.5	1.37e-05	0	62	0	2588934144	46	4898
2026-01-20 05:53:54.63	262.89	9.96	-38.7	-40.7	13.4	1.71e-05	0	62	0	2596274176	46	4943
2026-01-20 05:53:55.64	262.77	9.90	-38.8	-40.8	13.3	1.83e-05	0	62	0	2603614208	47	4708
2026-01-20 05:53:56.65	262.65	9.83	-38.7	-40.7	13.3	1.48e-05	0	62	0	2610954240	47	4680
2026-01-20 05:53:57.66	262.53	9.77	-38.7	-40.6	13.4	1.14e-05	0	62	0	2618294272	47	4649
2026-01-20 05:53:58.68	262.40	9.70	-38.6	-40.5	13.5	1.02e-05	0	62	0	2625634304	47	4570
2026-01-20 05:53:59.69	262.28	9.64	-38.6	-40.5	13.5	9.10e-06	0	62	0	2631925760	47	4568
2026-01-20 05:54:00.70	262.16	9.58	-38.5	-40.4	13.6	1.25e-05	0	62	0	2639265792	47	4521
2026-01-20 05:54:01.71	262.04	9.51	-38.4	-40.3	13.6	9.10e-06	0	62	0	2647654400	47	4474
2026-01-20 05:54:02.72	261.92	9.45	-38.4	-40.3	13.7	9.10e-06	0	62	0	2653945856	47	4454
2026-01-20 05:54:03.73	261.81	9.38	-38.4	-40.3	13.6	8.00e-06	0	62	0	2661285888	47	4483
2026-01-20 05:54:04.74	261.69	9.32	-38.5	-40.4	13.6	1.37e-05	0	62	0	2668625920	47	4524
2026-01-20 05:54:05.75	261.57	9.25	-38.5	-40.4	13.6	1.25e-05	0	62	0	2675965952	47	4507
2026-01-20 05:54:06.76	261.45	9.19	-38.6	-40.5	13.5	1.25e-05	0	62	0	2683305984	47	4575
2026-01-20 05:54:07.77	261.34	9.12	-38.7	-40.7	13.3	2.40e-05	0	62	0	2690646016	47	4687
2026-01-20 05:54:08.78	261.22	9.06	-38.7	-40.7	13.3	1.71e-05	0	62	0	2697986048	47	4681
2026-01-20 05:54:09.79	261.11	9.00	-38.8	-40.8	13.2	2.74e-05	0	62	0	2705326080	47	4730
2026-01-20 05:54:10.80	260.99	8.93	-38.8	-40.9	13.1	1.94e-05	0	62	0	2712666112	47	4767
2026-01-20 05:54:11.80	260.88	8.87	-38.8	-40.8	13.1	3.89e-05	0	62	0	2720006144	47	4743
2026-01-20 05:54:12.81	260.77	8.80	-38.7	-40.8	13.2	2.63e-05	0	62	0	2727346176	47	4720
2026-01-20 05:54:13.82	260.65	8.74	-38.7	-40.7	13.2	3.08e-05	0	62	0	2734686208	47	4702
2026-01-20 05:54:14.83	260.54	8.68	-38.6	-40.6	13.4	1.37e-05	0	62	0	2742026240	47	4606
2026-01-20 05:54:15.84	260.43	8.61	-38.6	-40.6	13.3	1.94e-05	0	62	0	2749366272	47	4647
2026-01-20 05:54:16.85	260.32	8.55	-38.6	-40.7	13.3	2.51e-05	0	62	0	2756706304	47	4655
2026-01-20 05:54:17.86	260.20	8.49	-38.5	-40.5	13.4	1.60e-05	0	62	0	2764046336	47	4573
2026-01-20 05:54:18.87	260.09	8.42	-38.7	-40.6	13.2	2.17e-05	0	62	0	2771386368	47	4648
2026-01-20 05:54:19.88	259.98	8.36	-38.6	-40.6	13.3	2.74e-05	0	62	0	2778726400	47	4633
2026-01-20 05:54:20.89	259.87	8.30	-38.6	-40.6	13.3	2.28e-05	0	62	0	2785017856	47	4637
2026-01-20 05:54:21.90	259.76	8.23	-38.7	-40.7	13.2	2.28e-05	0	62	0	2792357888	47	4685
2026-01-20 05:54:22.91	259.66	8.17	-38.8	-40.9	13.0	3.31e-05	0	62	0	2800746496	47	4797
2026-01-20 05:54:23.92	259.55	8.11	-39.0	-41.1	12.7	8.69e-05	0	62	0	2807037952	47	4926
2026-01-20 05:54:24.93	259.44	8.04	-39.1	-41.2	12.7	8.92e-05	0	62	0	2814377984	47	4971
2026-01-20 05:54:25.94	259.33	7.98	-44.2	-52.4	3.9	8.42e-01	0	62	104	2819620864	58	9516
2026-01-20 05:54:26.94	259.23	7.92	-45.0	-56.0	3.8	8.47e-01	0	62	104	2819620864	59	13589
2026-01-20 05:54:27.95	259.12	7.85	-45.2	-56.6	3.8	8.46e-01	0	62	104	2819620864	60	13732
2026-01-20 05:54:28.97	259.01	7.79	-45.3	-56.6	3.8	8.48e-01	0	62	104	2819620864	60	13884
2026-01-20 05:54:29.98	258.91	7.73	-45.4	-56.8	3.8	8.46e-01	0	62	104	2819620864	60	14094
2026-01-20 05:54:30.99	258.80	7.66	-45.5	-56.8	3.8	8.46e-01	0	62	104	2819620864	60	14192
2026-01-20 05:54:32.00	258.70	7.60	-45.5	-56.9	3.8	8.48e-01	0	62	104	2819620864	60	14253
2026-01-20 05:54:33.01	258.59	7.54	-45.6	-57.0	3.8	8.46e-01	0	62	104	2819620864	60	14393
2026-01-20 05:54:34.02	258.49	7.48	-45.6	-56.9	3.8	8.46e-01	0	62	104	2819620864	60	14306
2026-01-20 05:54:35.03	258.39	7.41	-45.5	-56.9	3.8	8.46e-01	0	62	104	2819620864	60	14300
2026-01-20 05:54:36.04	258.28	7.35	-45.5	-56.9	3.8	8.45e-01	0	62	104	2819620864	60	14216
2026-01-20 05:54:37.06	258.18	7.29	-45.5	-56.9	3.8	8.45e-01	0	62	104	2819620864	60	14275
2026-01-20 05:54:38.07	258.08	7.23	-45.5	-56.9	3.8	8.47e-01	0	62	104	2819620864	60	14286
2026-01-20 05:54:39.08	257.98	7.16	-45.5	-56.9	3.8	8.46e-01	0	62	104	2819620864	60	14221
2026-01-20 05:54:40.09	257.88	7.10	-45.6	-56.9	3.8	8.46e-01	0	62	104	2819620864	60	14256
2026-01-20 05:54:41.10	257.78	7.04	-45.6	-56.9	3.8	8.47e-01	0	62	104	2819620864	60	14301
2026-01-20 05:54:42.11	257.68	6.98	-45.6	-56.9	3.8	8.46e-01	0	62	104	2819620864	60	14363
2026-01-20 05:54:43.12	257.58	6.91	-45.6	-56.9	3.8	8.47e-01	0	62	104	2819620864	60	14293
2026-01-20 05:54:44.13	257.48	6.85	-45.5	-56.9	3.8	8.46e-01	0	62	104	2819620864	60	14261
2026-01-20 05:54:45.14	257.38	6.79	-45.5	-56.9	3.8	8.47e-01	0	62	104	2819620864	60	14218
2026-01-20 05:54:46.15	257.28	6.73	-45.5	-56.8	3.8	8.45e-01	0	62	104	2819620864	60	14208
2026-01-20 05:54:47.16	257.18	6.67	-45.5	-56.8	3.8	8.46e-01	0	62	104	2819620864	60	14164
2026-01-20 05:54:48.17	257.09	6.61	-45.5	-56.9	3.8	8.45e-01	0	62	104	2819620864	60	14226
2026-01-20 05:54:49.18	256.99	6.54	-45.5	-56.8	3.8	8.47e-01	0	62	104	2819620864	60	14173
2026-01-20 05:54:50.19	256.89	6.48	-45.5	-56.8	3.8	8.46e-01	0	62	104	2819620864	60	14068
2026-01-20 05:54:51.20	256.80	6.42	-45.5	-56.8	3.8	8.45e-01	0	62	104	2819620864	60	14126
2026-01-20 05:54:52.21	256.70	6.36	-45.4	-56.8	3.8	8.46e-01	0	62	104	2819620864	60	14055
2026-01-20 05:54:53.22	256.60	6.30	-45.4	-56.8	3.8	8.45e-01	0	62	104	2819620864	60	14108
2026-01-20 05:54:54.23	256.51	6.24	-45.4	-56.8	3.8	8.47e-01	0	62	104	2819620864	60	14074
2026-01-20 05:54:55.24	256.41	6.18	-45.5	-56.8	3.8	8.46e-01	0	62	104	2819620864	60	14069
2026-01-20 05:54:56.25	256.32	6.11	-45.5	-56.8	3.8	8.46e-01	0	62	104	2819620864	60	14095
2026-01-20 05:54:57.27	256.23	6.05	-45.4	-56.8	3.8	8.47e-01	0	62	104	2819620864	60	14084
2026-01-20 05:54:58.28	256.13	5.99	-45.4	-56.8	3.8	8.47e-01	0	62	104	2819620864	60	14070
2026-01-20 05:54:59.29	256.04	5.93	-45.4	-56.8	3.8	8.47e-01	0	62	104	2819620864	60	14090
2026-01-20 05:55:00.30	255.95	5.87	-45.4	-56.8	3.8	8.47e-01	0	62	104	2819620864	60	14061
2026-01-20 05:55:01.31	255.86	5.81	-45.4	-56.7	3.8	8.46e-01	0	62	104	2819620864	60	14044
2026-01-20 05:55:02.32	255.76	5.75	-45.4	-56.8	3.8	8.46e-01	0	62	104	2819620864	60	14103
2026-01-20 05:55:03.33	255.67	5.69	-45.4	-56.8	3.8	8.46e-01	0	62	104	2819620864	60	14079
2026-01-20 05:55:04.34	255.58	5.63	-45.4	-56.7	3.8	8.46e-01	0	62	104	2819620864	60	13975
2026-01-20 05:55:05.35	255.49	5.57	-45.4	-56.7	3.8	8.46e-01	0	62	104	2819620864	60	13998
2026-01-20 05:55:06.36	255.40	5.51	-45.4	-56.8	3.8	8.46e-01	0	62	104	2819620864	60	14051
2026-01-20 05:55:07.37	255.31	5.45	-45.4	-56.7	3.8	8.46e-01	0	62	104	2819620864	60	13964
2026-01-20 05:55:08.38	255.22	5.39	-45.4	-56.7	3.8	8.46e-01	0	62	104	2819620864	60	14010
2026-01-20 05:55:09.39	255.13	5.33	-45.4	-56.7	3.8	8.47e-01	0	62	104	2819620864	60	14003
2026-01-20 05:55:10.41	255.04	5.26	-45.4	-56.8	3.8	8.46e-01	0	62	104	2819620864	60	14052
2026-01-20 05:55:11.42	254.95	5.20	-45.4	-56.7	3.8	8.46e-01	0	62	104	2819620864	60	13983
2026-01-20 05:55:12.43	254.87	5.14	-45.4	-56.7	3.8	8.46e-01	0	62	104	2819620864	60	13983
2026-01-20 05:55:13.44	254.78	5.08	-45.4	-56.7	3.8	8.47e-01	0	62	104	2819620864	60	13963
2026-01-20 05:55:14.45	254.69	5.03	-45.4	-56.7	3.8	8.46e-01	0	62	104	2819620864	60	13995
2026-01-20 05:55:15.46	254.60	4.97	-45.4	-56.7	3.8	8.46e-01	0	62	104	2819620864	60	14027
2026-01-20 05:55:16.47	254.52	4.91	-45.4	-56.7	3.8	8.46e-01	0	62	104	2819620864	60	14037
2026-01-20 05:55:17.48	254.43	4.85	-45.4	-56.7	3.8	8.46e-01	0	62	104	2819620864	60	14005
2026-01-20 05:55:18.49	254.35	4.79	-45.4	-56.7	3.8	8.45e-01	0	62	104	2819620864	60	13965
2026-01-20 05:55:19.50	254.26	4.73	-45.4	-56.7	3.8	8.46e-01	0	62	104	2819620864	60	13997
2026-01-20 05:55:20.51	254.18	4.67	-45.0	-56.7	3.8	8.47e-01	0	62	104	2819620864	60	13996
2026-01-20 05:55:21.52	254.09	4.61	-45.4	-56.7	3.8	8.46e-01	0	62	104	2819620864	60	13994
2026-01-20 05:55:22.53	254.01	4.55	-45.4	-56.8	3.8	8.46e-01	0	62	104	2819620864	60	14056
2026-01-20 05:55:23.54	253.92	4.49	-45.4	-56.7	3.8	8.46e-01	0	62	104	2819620864	60	14010
2026-01-20 05:55:24.55	253.84	4.43	-45.4	-56.7	3.8	8.46e-01	0	62	104	2819620864	60	14028
2026-01-20 05:55:25.57	253.75	4.37	-45.4	-56.7	3.8	8.47e-01	0	62	104	2819620864	60	13938
2026-01-20 05:55:26.58	253.67	4.31	-45.4	-56.7	3.8	8.47e-01	0	62	104	2819620864	60	14040
2026-01-20 05:55:27.59	253.59	4.25	-45.4	-56.7	3.8	8.46e-01	0	62	104	2819620864	60	14040
2026-01-20 05:55:28.60	253.51	4.19	-45.4	-56.7	3.8	8.46e-01	0	62	104	2819620864	60	13939
2026-01-20 05:55:29.61	253.43	4.14	-45.4	-56.7	3.8	8.45e-01	0	62	104	2819620864	60	13996
2026-01-20 05:55:30.62	253.34	4.08	-45.4	-56.7	3.8	8.47e-01	0	62	104	2819620864	60	13997
2026-01-20 05:55:31.63	253.26	4.02	-45.4	-56.7	3.8	8.48e-01	0	62	104	2819620864	60	14020
2026-01-20 05:55:32.64	253.18	3.96	-45.4	-56.7	3.8	8.46e-01	0	62	104	2819620864	60	13952
2026-01-20 05:55:33.65	253.10	3.90	-45.4	-56.7	3.8	8.47e-01	0	62	104	2819620864	60	13916
2026-01-20 05:55:34.66	253.02	3.84	-45.4	-56.7	3.8	8.46e-01	0	62	104	2819620864	60	14017
