passes_logs/2026/01/20/R2.0S_Moscow/R2.0S_Moscow__20260120_090206_NOAA_21_JPSS-2_rec.log

#Pass ID: 20260120_090206_NOAA 21 (JPSS-2)
#Satellite: NOAA 21 (JPSS-2)
#Configuration: NOAA-21
#almurnet v.1.7.20251203
#Start time: 2026-01-20 09:02:06

#Version: 2.2.20231116
#Station: R2.0S_Moscow
#Location: 37.707566 lon 55.798166 lat
#TLE: 1 54234U 22150A   26019.59425193  .00000067  00000+0  52811-4 0  9997
#TLE: 2 54234  98.7505 320.4385 0000607 256.3203 103.7906 14.19535690165464

#Time	Az	El	Level	Level2	SNR	BER	BlckErr	Temp	State	Recorded	gain1	gain2
2026-01-20 09:02:06.77	134.83	2.03	-21.2	-32.3	3.9	1.51e+00	0	51	0	0	11	14944
2026-01-20 09:02:07.77	134.79	2.09	-18.2	-32.8	3.7	1.51e+00	0	51	104	0	6	21240
2026-01-20 09:02:08.78	134.76	2.16	-19.9	-33.8	3.4	1.50e+00	0	51	104	0	11	17839
2026-01-20 09:02:09.79	134.72	2.22	-14.5	-29.5	3.6	1.51e+00	0	51	104	0	1	19267
2026-01-20 09:02:10.80	134.68	2.28	-17.8	-29.1	4.0	1.50e+00	0	51	104	0	11	10319
2026-01-20 09:02:11.81	134.65	2.35	-19.3	-31.7	3.6	1.51e+00	0	51	104	0	11	13915
2026-01-20 09:02:12.82	134.61	2.41	-19.5	-30.7	3.7	1.51e+00	0	51	104	0	9	14017
2026-01-20 09:02:13.83	134.57	2.47	-17.9	-29.9	3.8	1.51e+00	0	51	104	0	9	12765
2026-01-20 09:02:14.84	134.53	2.54	-16.1	-27.5	3.9	1.51e+00	0	51	104	0	5	12121
2026-01-20 09:02:15.85	134.50	2.60	-21.2	-32.3	3.6	1.51e+00	0	51	104	0	10	15911
2026-01-20 09:02:16.86	134.46	2.66	-15.7	-27.4	3.7	1.50e+00	0	51	104	0	4	12674
2026-01-20 09:02:17.87	134.42	2.73	-16.1	-28.2	3.6	1.51e+00	0	52	104	0	3	14760
2026-01-20 09:02:18.89	134.38	2.79	-18.9	-32.8	3.6	1.51e+00	0	52	104	0	6	21112
2026-01-20 09:02:19.89	134.34	2.86	-14.9	-27.9	3.8	1.51e+00	0	52	104	0	4	13477
2026-01-20 09:02:20.91	134.30	2.92	-16.0	-28.7	3.8	1.51e+00	0	52	104	0	2	16680
2026-01-20 09:02:21.92	134.26	2.99	-15.7	-27.4	3.8	1.51e+00	0	52	104	0	0	16052
2026-01-20 09:02:22.93	134.23	3.05	-14.2	-26.3	3.5	1.51e+00	0	52	104	0	4	11239
2026-01-20 09:02:23.94	134.19	3.12	-15.9	-26.2	3.8	1.51e+00	0	52	104	0	3	11802
2026-01-20 09:02:24.95	134.15	3.18	-15.7	-27.5	3.7	1.51e+00	0	52	104	0	1	15388
2026-01-20 09:02:25.96	134.11	3.25	-15.7	-29.1	3.7	1.51e+00	0	52	104	0	2	17297
2026-01-20 09:02:26.97	134.07	3.31	-14.2	-28.8	3.7	1.51e+00	0	52	104	0	0	18833
2026-01-20 09:02:27.98	134.03	3.38	-15.7	-25.0	3.8	1.51e+00	0	52	104	0	0	12123
2026-01-20 09:02:28.99	133.99	3.44	-14.7	-28.4	3.8	1.51e+00	0	52	104	0	4	14372
2026-01-20 09:02:30.00	133.95	3.51	-17.0	-27.3	3.6	1.51e+00	0	52	104	0	2	14119
2026-01-20 09:02:31.01	133.91	3.58	-14.1	-23.8	3.8	1.51e+00	0	52	104	0	0	10607
2026-01-20 09:02:32.02	133.87	3.64	-16.0	-28.7	3.9	1.51e+00	0	53	104	0	5	13942
2026-01-20 09:02:33.03	133.82	3.71	-15.8	-25.5	3.8	1.51e+00	0	53	104	0	2	11425
2026-01-20 09:02:34.04	133.78	3.77	-20.9	-32.1	3.5	1.51e+00	0	53	104	0	8	17320
2026-01-20 09:02:35.05	133.74	3.84	-17.1	-32.6	3.5	1.51e+00	0	53	104	0	6	20760
2026-01-20 09:02:36.06	133.70	3.91	-21.3	-32.6	3.8	1.51e+00	0	53	104	0	5	21839
2026-01-20 09:02:37.07	133.66	3.97	-18.6	-30.2	4.1	1.51e+00	0	53	104	0	8	13995
2026-01-20 09:02:38.08	133.62	4.04	-21.7	-33.9	3.4	1.50e+00	0	53	104	0	10	19083
2026-01-20 09:02:39.09	133.58	4.11	-22.6	-36.4	3.4	1.51e+00	0	53	104	0	14	20126
2026-01-20 09:02:40.10	133.53	4.18	-19.5	-31.1	3.7	1.51e+00	0	53	104	0	9	14561
2026-01-20 09:02:41.11	133.49	4.24	-18.3	-30.8	3.7	1.51e+00	0	53	104	0	6	16848
2026-01-20 09:02:42.12	133.45	4.31	-18.9	-33.4	3.5	1.50e+00	0	53	104	0	11	16900
2026-01-20 09:02:43.13	133.40	4.38	-18.4	-29.7	3.8	1.51e+00	0	53	104	0	8	13130
2026-01-20 09:02:44.14	133.36	4.45	-18.6	-31.6	4.0	1.50e+00	0	53	104	0	9	15469
2026-01-20 09:02:45.16	133.32	4.52	-20.8	-32.4	3.6	1.51e+00	0	53	104	0	3	23950
2026-01-20 09:02:46.17	133.27	4.58	-16.2	-32.0	3.7	1.51e+00	0	53	104	0	3	22803
2026-01-20 09:02:47.18	133.23	4.65	-15.2	-28.5	4.0	1.51e+00	0	53	104	0	4	14466
2026-01-20 09:02:48.19	133.19	4.72	-15.5	-27.8	3.8	1.51e+00	0	53	104	0	3	14204
2026-01-20 09:02:49.20	133.14	4.79	-15.8	-31.7	3.9	1.50e+00	0	53	104	0	4	20796
2026-01-20 09:02:50.21	133.10	4.86	-14.9	-27.6	3.9	1.51e+00	0	54	104	0	1	15494
2026-01-20 09:02:51.22	133.05	4.93	-15.8	-25.6	3.7	1.51e+00	0	53	104	0	1	12292
2026-01-20 09:02:52.23	133.01	5.00	-17.2	-27.1	4.0	1.51e+00	0	54	104	0	2	13821
2026-01-20 09:02:53.24	132.96	5.07	-18.3	-27.9	3.9	1.51e+00	0	54	104	0	3	14372
2026-01-20 09:02:54.25	132.92	5.14	-17.6	-30.2	3.8	1.51e+00	0	54	104	0	6	15690
2026-01-20 09:02:55.26	132.87	5.21	-18.6	-30.7	3.8	1.51e+00	0	54	104	0	6	16692
2026-01-20 09:02:56.27	132.83	5.28	-18.0	-31.6	3.3	1.51e+00	0	54	104	0	9	15468
2026-01-20 09:02:57.28	132.78	5.35	-17.0	-28.7	3.7	1.51e+00	0	54	104	0	5	14008
2026-01-20 09:02:58.30	132.73	5.42	-22.9	-32.4	3.6	1.50e+00	0	54	104	0	3	23928
2026-01-20 09:02:59.31	132.69	5.49	-22.1	-35.0	3.7	1.51e+00	0	54	104	0	11	20521
2026-01-20 09:03:00.32	132.64	5.56	-22.1	-32.9	3.5	1.51e+00	0	54	104	0	10	17052
2026-01-20 09:03:01.33	132.59	5.63	-18.2	-30.7	4.0	1.51e+00	0	54	104	0	6	16640
2026-01-20 09:03:02.34	132.55	5.70	-13.7	-27.2	3.6	1.51e+00	0	54	104	0	2	14044
2026-01-20 09:03:03.35	132.50	5.77	-14.1	-25.1	4.0	1.51e+00	0	54	104	0	0	12236
2026-01-20 09:03:04.36	132.45	5.84	-19.4	-31.8	3.6	1.51e+00	0	54	104	0	7	17762
2026-01-20 09:03:05.37	132.40	5.91	-16.9	-26.1	3.8	1.51e+00	0	54	104	0	8	8726
2026-01-20 09:03:06.38	132.35	5.98	-19.6	-30.1	3.8	1.51e+00	0	54	104	0	7	14585
2026-01-20 09:03:07.39	132.31	6.06	-17.6	-28.6	3.9	1.51e+00	0	54	104	0	5	13833
2026-01-20 09:03:08.40	132.26	6.13	-21.5	-32.7	3.5	1.51e+00	0	54	104	0	8	18569
2026-01-20 09:03:09.41	132.21	6.20	-16.8	-28.1	3.8	1.51e+00	0	55	104	0	9	10338
2026-01-20 09:03:10.42	132.16	6.27	-17.4	-28.6	3.8	1.51e+00	0	55	104	0	10	10351
2026-01-20 09:03:11.43	132.11	6.34	-22.5	-32.9	3.5	1.51e+00	0	55	104	0	12	15084
2026-01-20 09:03:12.44	132.06	6.42	-17.3	-27.9	4.0	1.51e+00	0	55	104	0	3	14320
2026-01-20 09:03:13.45	132.01	6.49	-22.5	-35.3	3.6	1.51e+00	0	55	104	0	12	20065
2026-01-20 09:03:14.46	131.96	6.56	-19.2	-31.7	3.5	1.51e+00	0	55	104	0	10	14860
2026-01-20 09:03:15.47	131.91	6.64	-16.3	-30.1	3.5	1.51e+00	0	55	104	0	4	17420
2026-01-20 09:03:16.49	131.86	6.71	-15.5	-26.7	3.8	1.51e+00	0	55	104	0	1	14011
2026-01-20 09:03:17.49	131.81	6.78	-15.2	-27.9	3.7	1.51e+00	0	55	104	0	4	13523
2026-01-20 09:03:18.50	131.76	6.86	-14.4	-28.1	3.7	1.51e+00	0	55	104	0	5	13016
2026-01-20 09:03:19.51	131.70	6.93	-15.3	-27.9	3.7	1.51e+00	0	55	104	0	5	12679
2026-01-20 09:03:20.52	131.65	7.00	-16.6	-28.8	3.4	1.51e+00	0	55	104	0	4	14919
2026-01-20 09:03:21.53	131.60	7.08	-17.0	-27.5	3.7	1.51e+00	0	55	104	0	3	13691
2026-01-20 09:03:22.55	131.55	7.15	-14.0	-25.8	3.8	1.51e+00	0	55	104	0	3	11165
2026-01-20 09:03:23.56	131.49	7.23	-14.9	-28.0	3.7	1.51e+00	0	55	104	0	2	15397
2026-01-20 09:03:24.57	131.44	7.30	-15.5	-26.1	3.9	1.51e+00	0	55	104	0	4	10947
2026-01-20 09:03:25.58	131.39	7.38	-16.6	-26.6	3.8	1.51e+00	0	55	104	0	3	12304
2026-01-20 09:03:26.59	131.33	7.45	-15.3	-27.2	4.0	1.51e+00	0	55	104	0	3	13232
2026-01-20 09:03:27.60	131.28	7.53	-17.0	-26.5	3.8	1.51e+00	0	55	104	0	4	11499
2026-01-20 09:03:28.61	131.23	7.61	-18.7	-30.1	3.7	1.51e+00	0	55	104	0	3	18468
2026-01-20 09:03:29.62	131.17	7.68	-16.9	-28.0	3.8	1.51e+00	0	55	104	0	4	13595
2026-01-20 09:03:30.63	131.12	7.76	-13.5	-22.9	3.8	1.51e+00	0	55	104	0	0	9536
2026-01-20 09:03:31.64	131.06	7.83	-17.9	-28.8	3.9	1.51e+00	0	55	104	0	9	11226
2026-01-20 09:03:32.65	131.01	7.91	-18.3	-28.8	3.7	1.51e+00	0	56	104	0	6	13290
2026-01-20 09:03:33.66	130.95	7.99	-17.9	-28.9	3.7	1.51e+00	0	55	104	0	9	11369
2026-01-20 09:03:34.67	130.89	8.06	-19.6	-29.8	3.7	1.51e+00	0	56	104	0	13	9954
2026-01-20 09:03:35.68	130.84	8.14	-23.8	-36.5	3.5	1.51e+00	0	56	104	0	12	23031
2026-01-20 09:03:36.69	130.78	8.22	-23.1	-34.2	3.5	1.50e+00	0	56	104	0	11	18555
2026-01-20 09:03:37.70	130.73	8.30	-22.2	-33.3	3.9	1.51e+00	0	56	104	0	10	17706
2026-01-20 09:03:38.71	130.67	8.37	-21.9	-33.5	3.5	1.51e+00	0	56	104	0	10	18289
2026-01-20 09:03:39.71	130.61	8.45	-15.8	-26.7	3.7	1.52e+00	0	56	104	0	7	9863
2026-01-20 09:03:40.72	130.55	8.53	-17.8	-28.7	3.8	1.51e+00	0	56	104	0	7	12416
2026-01-20 09:03:41.73	130.49	8.61	-14.6	-29.0	3.5	1.51e+00	0	56	104	0	5	14537
2026-01-20 09:03:42.74	130.44	8.69	-17.9	-28.8	3.7	1.52e+00	0	56	104	0	9	11237
2026-01-20 09:03:43.75	130.38	8.77	-14.5	-27.9	3.8	1.52e+00	0	56	104	0	3	14225
2026-01-20 09:03:44.76	130.32	8.84	-17.6	-29.1	3.6	1.51e+00	0	56	104	0	5	14685
2026-01-20 09:03:45.77	130.26	8.92	-18.9	-31.8	3.5	1.51e+00	0	56	104	0	9	15852
2026-01-20 09:03:46.78	130.20	9.00	-15.6	-29.6	3.6	1.51e+00	0	56	104	0	6	14654
2026-01-20 09:03:47.79	130.14	9.08	-19.5	-31.2	3.7	1.51e+00	0	56	104	0	6	17594
2026-01-20 09:03:48.80	130.08	9.16	-18.8	-30.9	3.8	1.51e+00	0	56	104	0	7	16040
2026-01-20 09:03:49.81	130.02	9.24	-17.9	-30.8	3.5	1.51e+00	0	56	104	0	10	13286
2026-01-20 09:03:50.82	129.96	9.32	-23.2	-34.2	3.5	1.51e+00	0	56	104	0	10	19785
2026-01-20 09:03:51.83	129.89	9.40	-16.8	-29.0	3.8	1.51e+00	0	56	104	0	6	13683
2026-01-20 09:03:52.84	129.83	9.49	-14.4	-25.6	3.8	1.51e+00	0	56	104	0	1	12289
2026-01-20 09:03:53.85	129.77	9.57	-15.9	-27.8	3.7	1.51e+00	0	56	104	0	5	12543
2026-01-20 09:03:54.86	129.71	9.65	-17.4	-26.5	3.8	1.51e+00	0	56	104	0	4	11436
2026-01-20 09:03:55.86	129.65	9.73	-17.5	-26.9	3.8	1.51e+00	0	56	104	0	3	12702
2026-01-20 09:03:56.87	129.58	9.81	-17.2	-27.5	3.8	1.51e+00	0	56	104	0	3	13580
2026-01-20 09:03:57.88	129.52	9.89	-15.6	-28.7	3.7	1.51e+00	0	56	104	0	5	14024
2026-01-20 09:03:58.89	129.45	9.97	-16.1	-25.2	3.7	1.51e+00	0	56	104	0	2	11139
2026-01-20 09:03:59.90	129.39	10.06	-18.9	-28.7	3.8	1.51e+00	0	56	104	0	3	15637
2026-01-20 09:04:00.91	129.32	10.14	-16.2	-31.5	3.8	1.51e+00	0	56	104	0	11	13615
2026-01-20 09:04:01.92	129.26	10.22	-16.2	-27.5	3.8	1.51e+00	0	56	104	0	8	10280
2026-01-20 09:04:02.93	129.19	10.31	-17.5	-32.0	3.4	1.51e+00	0	56	104	0	7	18219
2026-01-20 09:04:03.94	129.13	10.39	-18.6	-31.9	3.6	1.51e+00	0	57	104	0	13	12677
2026-01-20 09:04:04.95	129.06	10.47	-24.0	-37.3	3.3	1.51e+00	0	57	104	0	11	26712
2026-01-20 09:04:05.96	128.99	10.56	-16.6	-30.4	3.8	1.51e+00	0	57	104	0	11	12051
2026-01-20 09:04:06.97	128.93	10.64	-21.4	-38.8	3.3	1.51e+00	0	57	104	0	23	15882
2026-01-20 09:04:07.98	128.86	10.73	-17.1	-29.4	3.7	1.51e+00	0	57	104	0	9	12020
2026-01-20 09:04:08.98	128.79	10.81	-20.1	-32.1	3.8	1.50e+00	0	56	104	0	12	13854
2026-01-20 09:04:09.99	128.72	10.89	-16.6	-29.8	3.8	1.51e+00	0	57	104	0	13	10030
2026-01-20 09:04:11.00	128.66	10.98	-16.6	-28.2	3.8	1.50e+00	0	57	104	0	9	10417
2026-01-20 09:04:12.01	128.59	11.07	-20.2	-31.1	3.7	1.51e+00	0	57	104	0	8	15426
2026-01-20 09:04:13.02	128.52	11.15	-19.1	-31.2	3.7	1.51e+00	0	57	104	0	10	13945
2026-01-20 09:04:14.03	128.45	11.24	-20.8	-31.6	3.6	1.51e+00	0	57	104	0	12	13102
2026-01-20 09:04:15.04	128.38	11.32	-20.7	-30.8	3.7	1.50e+00	0	57	104	0	11	12658
2026-01-20 09:04:16.05	128.30	11.41	-22.2	-31.7	3.8	1.50e+00	0	57	104	0	10	14840
2026-01-20 09:04:17.06	128.23	11.50	-18.8	-31.1	4.2	1.50e+00	0	57	104	0	23	6528
2026-01-20 09:04:18.07	128.16	11.58	-23.5	-35.7	3.9	1.50e+00	0	57	104	0	15	17502
2026-01-20 09:04:19.08	128.09	11.67	-16.1	-29.5	3.6	1.50e+00	0	57	104	0	11	10826
2026-01-20 09:04:20.09	128.02	11.76	-17.9	-30.7	3.7	1.51e+00	0	57	104	0	8	14757
2026-01-20 09:04:21.10	127.94	11.85	-14.5	-26.3	3.6	1.51e+00	0	57	104	0	3	11825
2026-01-20 09:04:22.11	127.87	11.93	-15.8	-27.6	4.0	1.51e+00	0	57	104	0	6	11675
2026-01-20 09:04:23.12	127.80	12.02	-19.3	-33.6	3.8	1.51e+00	0	57	104	0	12	16361
2026-01-20 09:04:24.13	127.72	12.11	-21.6	-35.6	3.9	1.51e+00	0	57	104	0	12	20670
2026-01-20 09:04:25.13	127.65	12.20	-19.6	-32.5	3.2	1.51e+00	0	57	104	0	14	12826
2026-01-20 09:04:26.14	127.57	12.29	-18.6	-32.1	3.7	1.51e+00	0	57	104	0	12	13873
2026-01-20 09:04:27.15	127.50	12.38	-17.0	-30.0	3.4	1.51e+00	0	57	104	0	9	12889
2026-01-20 09:04:28.16	127.42	12.47	-26.7	-42.3	3.8	1.50e+00	0	57	104	0	19	29699
2026-01-20 09:04:29.17	127.34	12.56	-26.7	-45.5	4.7	1.49e+00	0	57	104	0	33	19276
2026-01-20 09:04:30.18	127.27	12.65	-30.0	-44.8	4.6	1.50e+00	0	57	104	0	30	21131
2026-01-20 09:04:31.19	127.19	12.74	-23.3	-38.2	3.9	1.49e+00	0	57	104	0	20	17593
2026-01-20 09:04:32.19	127.11	12.83	-21.7	-34.8	3.8	1.50e+00	0	57	104	0	16	15031
2026-01-20 09:04:33.20	127.03	12.92	-36.5	-45.2	3.6	1.51e+00	0	57	104	0	37	14732
2026-01-20 09:04:34.21	126.95	13.01	-33.3	-47.0	4.5	1.48e+00	0	57	104	0	41	14529
2026-01-20 09:04:35.22	126.87	13.10	-18.7	-31.4	3.6	1.51e+00	0	57	104	0	14	11346
2026-01-20 09:04:36.23	126.79	13.20	-20.4	-36.4	3.5	1.51e+00	0	57	104	0	17	16954
2026-01-20 09:04:37.24	126.71	13.29	-18.8	-31.8	3.7	1.51e+00	0	57	104	0	10	14959
2026-01-20 09:04:38.25	126.63	13.38	-20.4	-32.4	3.8	1.52e+00	0	57	104	0	12	14220
2026-01-20 09:04:39.26	126.55	13.47	-28.2	-44.9	4.3	1.52e+00	0	57	104	0	27	25330
2026-01-20 09:04:40.27	126.46	13.57	-36.0	-45.1	4.6	1.47e+00	0	58	104	0	39	12995
2026-01-20 09:04:41.28	126.38	13.66	-38.3	-50.5	4.1	1.50e+00	0	58	104	0	54	10223
2026-01-20 09:04:42.29	126.30	13.75	-44.0	-54.6	4.0	1.48e+00	0	57	104	0	58	13037
2026-01-20 09:04:43.30	126.21	13.85	-38.5	-47.0	4.5	1.23e+00	0	58	104	0	41	14403
2026-01-20 09:04:44.31	126.13	13.94	-40.8	-47.8	4.5	1.45e+00	0	58	104	0	50	9495
2026-01-20 09:04:45.32	126.04	14.04	-30.7	-44.3	4.2	1.49e+00	0	58	104	0	31	18820
2026-01-20 09:04:46.33	125.96	14.13	-40.8	-47.5	6.2	1.10e+00	20	58	104	0	47	10878
2026-01-20 09:04:47.33	125.87	14.23	-41.1	-47.6	6.3	3.95e-01	13	58	0	2097152	51	8755
2026-01-20 09:04:48.35	125.79	14.32	-40.0	-47.2	7.4	3.23e-01	3	58	0	4194304	54	6995
2026-01-20 09:04:49.36	125.70	14.42	-38.8	-46.5	7.1	1.43e+00	0	58	104	6291456	53	6875
2026-01-20 09:04:50.37	125.61	14.52	-35.9	-46.2	7.1	1.48e+00	8	58	104	6291456	47	9307
2026-01-20 09:04:51.37	125.52	14.61	-35.6	-47.2	4.4	1.03e+00	0	58	104	6291456	38	17497
2026-01-20 09:04:52.38	125.43	14.71	-40.0	-46.9	4.4	1.00e+00	0	58	104	6291456	43	12750
2026-01-20 09:04:53.39	125.34	14.80	-24.5	-37.2	3.5	1.49e+00	0	58	104	6291456	21	14803
2026-01-20 09:04:54.40	125.25	14.90	-35.2	-45.8	8.1	1.52e-01	3	58	0	7340032	45	10004
2026-01-20 09:04:55.41	125.16	15.00	-34.5	-45.7	7.9	3.64e-01	4	58	0	9437184	46	9373
2026-01-20 09:04:56.42	125.07	15.10	-28.7	-42.6	6.6	5.93e-01	4	58	0	11534336	39	9768
2026-01-20 09:04:57.43	124.98	15.20	-39.0	-45.5	8.6	2.04e-01	0	58	0	12582912	45	9683
2026-01-20 09:04:58.44	124.88	15.30	-36.6	-45.1	9.3	2.90e-02	0	58	0	15728640	47	8232
2026-01-20 09:04:59.45	124.79	15.39	-41.0	-44.9	9.8	1.63e-02	0	58	0	17825792	52	6047
2026-01-20 09:05:00.45	124.70	15.49	-40.7	-44.7	10.4	2.39e-02	0	58	0	20971520	52	5863
2026-01-20 09:05:01.46	124.60	15.59	-40.9	-44.9	9.9	3.87e-02	0	58	0	24117248	51	6363
2026-01-20 09:05:02.47	124.51	15.69	-36.4	-44.8	9.0	2.01e-01	0	58	0	28311552	44	9431
2026-01-20 09:05:03.49	124.41	15.79	-39.4	-44.7	10.0	2.05e-02	0	58	0	31457280	48	7443
2026-01-20 09:05:04.49	124.31	15.89	-39.3	-44.8	10.0	1.34e-02	0	58	0	34603008	46	8386
2026-01-20 09:05:05.50	124.22	16.00	-41.2	-44.8	10.3	2.26e-02	0	58	0	37748736	52	5951
2026-01-20 09:05:06.51	124.12	16.10	-41.3	-44.7	10.4	1.30e-02	0	58	0	40894464	51	6254
2026-01-20 09:05:07.52	124.02	16.20	-40.3	-44.6	10.3	5.20e-02	0	58	0	44040192	52	5801
2026-01-20 09:05:08.53	123.92	16.30	-40.6	-44.6	10.3	9.81e-02	0	58	0	47185920	51	6190
2026-01-20 09:05:09.54	123.82	16.40	-40.4	-44.1	10.7	6.21e-02	0	58	0	50331648	51	5848
2026-01-20 09:05:10.55	123.72	16.51	-40.9	-44.3	10.6	2.41e-02	0	58	0	53477376	52	5655
2026-01-20 09:05:11.56	123.62	16.61	-40.4	-44.2	10.3	3.76e-02	0	58	0	56623104	52	5577
2026-01-20 09:05:12.57	123.52	16.71	-40.5	-44.3	10.4	4.00e-02	0	58	0	59768832	49	6696
2026-01-20 09:05:13.58	123.41	16.82	-41.0	-44.5	10.7	1.65e-02	0	58	0	62914560	52	5729
2026-01-20 09:05:14.59	123.31	16.92	-41.0	-44.4	10.4	4.81e-02	0	58	0	66060288	52	5693
2026-01-20 09:05:15.60	123.20	17.02	-40.9	-44.0	10.7	2.22e-02	0	58	0	69206016	51	5783
2026-01-20 09:05:16.61	123.10	17.13	-40.8	-43.9	11.5	1.15e-02	0	58	0	72351744	52	5384
2026-01-20 09:05:17.62	122.99	17.23	-40.8	-43.8	11.6	7.03e-03	0	58	0	75497472	52	5313
2026-01-20 09:05:18.62	122.89	17.34	-40.6	-43.8	11.7	3.39e-03	0	58	0	78643200	51	5645
2026-01-20 09:05:19.63	122.78	17.45	-37.6	-43.5	11.3	4.33e-03	0	58	0	81788928	51	5439
2026-01-20 09:05:20.64	122.67	17.55	-40.8	-43.8	11.7	1.21e-02	0	58	0	84934656	52	5340
2026-01-20 09:05:21.65	122.56	17.66	-40.8	-43.9	11.6	4.21e-03	0	58	0	88080384	52	5378
2026-01-20 09:05:22.66	122.45	17.76	-40.6	-43.6	12.0	5.30e-03	0	58	0	91226112	52	5185
2026-01-20 09:05:23.67	122.34	17.87	-40.6	-43.5	12.0	7.60e-04	0	58	0	94371840	52	5141
2026-01-20 09:05:24.68	122.23	17.98	-40.7	-43.6	12.1	6.09e-04	0	59	0	97517568	51	5476
2026-01-20 09:05:25.70	122.12	18.09	-40.7	-43.6	12.0	1.59e-03	0	58	0	100663296	52	5202
2026-01-20 09:05:26.71	122.00	18.20	-40.7	-43.6	12.0	4.92e-03	0	58	0	103809024	52	5181
2026-01-20 09:05:27.72	121.89	18.31	-39.9	-43.7	11.9	2.06e-03	0	58	0	106954752	52	5252
2026-01-20 09:05:28.73	121.78	18.42	-40.7	-43.7	11.9	2.26e-03	0	58	0	110100480	52	5236
2026-01-20 09:05:29.74	121.66	18.52	-40.8	-43.8	11.9	4.51e-04	0	59	0	113246208	52	5291
2026-01-20 09:05:30.75	121.54	18.63	-40.0	-43.7	11.9	6.04e-04	0	59	0	116391936	52	5268
2026-01-20 09:05:31.76	121.43	18.74	-40.6	-43.6	12.1	3.72e-04	0	58	0	119537664	52	5178
2026-01-20 09:05:32.77	121.31	18.86	-40.5	-43.3	12.4	4.16e-04	0	58	0	122683392	51	5323
2026-01-20 09:05:33.78	121.19	18.97	-40.3	-43.0	12.7	8.77e-05	0	59	0	125829120	51	5136
2026-01-20 09:05:34.79	121.07	19.08	-40.4	-43.0	12.8	5.49e-05	0	58	0	128974848	51	5133
2026-01-20 09:05:35.80	120.95	19.19	-40.3	-42.9	12.9	1.14e-04	0	59	0	132120576	51	5080
2026-01-20 09:05:36.81	120.83	19.30	-40.3	-42.9	12.9	5.79e-05	0	59	0	135266304	51	5051
2026-01-20 09:05:37.82	120.70	19.41	-39.9	-42.6	13.2	5.64e-05	0	59	0	138412032	51	4873
2026-01-20 09:05:38.83	120.58	19.53	-40.0	-42.4	13.5	3.28e-05	0	58	0	141557760	51	4761
2026-01-20 09:05:39.84	120.46	19.64	-40.0	-42.4	13.4	1.75e-05	0	59	0	144703488	51	4768
2026-01-20 09:05:40.85	120.33	19.75	-39.9	-42.3	13.5	6.80e-06	0	59	0	147849216	51	4725
2026-01-20 09:05:41.85	120.21	19.87	-39.9	-42.3	13.5	9.10e-06	0	58	0	150994944	51	4735
2026-01-20 09:05:42.86	120.08	19.98	-40.0	-42.4	13.4	1.44e-05	0	59	0	154140672	51	4809
2026-01-20 09:05:43.88	119.95	20.10	-39.9	-42.4	13.4	1.44e-05	0	59	0	157286400	51	4802
2026-01-20 09:05:44.89	119.82	20.21	-40.0	-42.4	13.4	1.52e-05	0	59	0	160432128	51	4793
2026-01-20 09:05:45.90	119.69	20.33	-39.9	-42.3	13.6	1.29e-05	0	58	0	163577856	51	4712
2026-01-20 09:05:46.91	119.56	20.44	-39.9	-42.3	13.5	7.60e-06	0	59	0	166723584	51	4753
2026-01-20 09:05:47.92	119.43	20.56	-40.0	-42.4	13.5	1.52e-05	0	59	0	169869312	51	4785
2026-01-20 09:05:48.92	119.29	20.67	-39.9	-42.2	13.6	9.90e-06	0	59	0	173015040	51	4694
2026-01-20 09:05:49.93	119.16	20.79	-39.9	-42.2	13.7	6.80e-06	0	59	0	176160768	51	4688
2026-01-20 09:05:50.94	119.02	20.91	-39.9	-42.2	13.7	5.30e-06	0	59	0	179306496	51	4701
2026-01-20 09:05:51.95	118.89	21.02	-39.8	-42.1	13.8	0.00e+00	0	59	0	182452224	51	4627
2026-01-20 09:05:52.96	118.75	21.14	-39.7	-42.0	13.9	3.00e-06	0	59	0	185597952	51	4582
2026-01-20 09:05:53.97	118.61	21.26	-39.8	-42.1	13.9	3.00e-06	0	59	0	188743680	51	4602
2026-01-20 09:05:54.99	118.47	21.38	-39.7	-42.0	13.9	6.10e-06	0	59	0	191889408	51	4564
2026-01-20 09:05:56.00	118.33	21.50	-39.7	-42.0	13.9	3.80e-06	0	59	0	195035136	51	4567
2026-01-20 09:05:57.00	118.19	21.62	-39.7	-41.9	13.9	4.50e-06	0	59	0	198180864	51	4540
2026-01-20 09:05:58.01	118.05	21.74	-39.5	-41.7	14.2	3.00e-06	0	59	0	201326592	51	4434
2026-01-20 09:05:59.02	117.90	21.86	-39.5	-41.7	14.2	3.00e-06	0	59	0	204472320	51	4409
2026-01-20 09:06:00.03	117.76	21.98	-39.6	-41.8	14.1	2.20e-06	0	59	0	207618048	51	4470
2026-01-20 09:06:01.04	117.61	22.10	-39.6	-41.8	14.1	3.00e-06	0	59	0	210763776	51	4483
2026-01-20 09:06:02.05	117.46	22.22	-39.6	-41.8	14.1	1.50e-06	0	59	0	213909504	51	4465
2026-01-20 09:06:03.06	117.32	22.34	-39.6	-41.8	14.2	7.00e-07	0	59	0	217055232	51	4454
2026-01-20 09:06:04.07	117.17	22.47	-39.6	-41.9	14.1	7.00e-07	0	59	0	220200960	51	4507
2026-01-20 09:06:05.08	117.01	22.59	-39.7	-42.0	14.0	1.29e-05	0	59	0	223346688	51	4558
2026-01-20 09:06:06.09	116.86	22.71	-39.5	-41.6	14.3	1.50e-06	0	59	0	226492416	51	4377
2026-01-20 09:06:07.10	116.71	22.83	-39.4	-41.5	14.5	0.00e+00	0	59	0	229638144	50	4569
2026-01-20 09:06:08.11	116.55	22.96	-39.4	-41.5	14.5	7.00e-07	0	59	0	232783872	50	4571
2026-01-20 09:06:09.12	116.40	23.08	-39.4	-41.5	14.4	0.00e+00	0	59	0	235929600	50	4587
2026-01-20 09:06:10.13	116.24	23.21	-39.5	-41.6	14.3	7.00e-07	0	59	0	239075328	50	4635
2026-01-20 09:06:11.14	116.08	23.33	-39.4	-41.5	14.5	7.00e-07	0	59	0	242221056	50	4585
2026-01-20 09:06:12.15	115.92	23.46	-39.4	-41.5	14.5	0.00e+00	0	59	0	245366784	50	4577
2026-01-20 09:06:13.16	115.76	23.58	-39.5	-41.6	14.4	2.20e-06	0	59	0	248512512	50	4643
2026-01-20 09:06:14.17	115.60	23.71	-39.5	-41.6	14.4	7.00e-07	0	59	0	251658240	50	4628
2026-01-20 09:06:15.18	115.44	23.83	-39.5	-41.7	14.3	0.00e+00	0	59	0	254803968	50	4664
2026-01-20 09:06:16.19	115.27	23.96	-39.6	-41.8	14.2	0.00e+00	0	59	0	257949696	50	4708
2026-01-20 09:06:17.20	115.10	24.09	-39.6	-41.7	14.3	0.00e+00	0	59	0	261095424	50	4705
2026-01-20 09:06:18.21	114.94	24.21	-39.6	-41.7	14.3	7.00e-07	0	59	0	264241152	50	4674
2026-01-20 09:06:19.22	114.77	24.34	-39.6	-41.7	14.3	7.00e-07	0	59	0	267386880	50	4688
2026-01-20 09:06:20.23	114.60	24.47	-39.7	-41.9	14.1	7.00e-07	0	59	0	270532608	50	4781
2026-01-20 09:06:21.24	114.42	24.60	-39.7	-41.9	14.2	1.50e-06	0	59	0	273678336	50	4771
2026-01-20 09:06:22.25	114.25	24.73	-39.8	-42.0	14.1	3.00e-06	0	59	0	276824064	50	4847
2026-01-20 09:06:23.25	114.08	24.85	-39.8	-42.1	14.0	5.30e-06	0	59	0	279969792	50	4888
2026-01-20 09:06:24.26	113.90	24.98	-39.8	-42.1	13.9	4.50e-06	0	59	0	283115520	50	4902
2026-01-20 09:06:25.27	113.72	25.11	-39.8	-42.0	14.1	7.00e-07	0	59	0	286261248	50	4816
2026-01-20 09:06:26.28	113.55	25.24	-39.9	-42.1	13.9	3.80e-06	0	59	0	289406976	50	4918
2026-01-20 09:06:27.29	113.36	25.37	-39.9	-42.1	13.9	2.20e-06	0	59	0	292552704	50	4921
2026-01-20 09:06:28.30	113.18	25.50	-40.0	-42.3	13.8	4.50e-06	0	59	0	295698432	50	4988
2026-01-20 09:06:29.31	113.00	25.63	-40.0	-42.4	13.7	3.80e-06	0	59	0	298844160	50	5048
2026-01-20 09:06:30.32	112.81	25.76	-40.0	-42.3	13.7	6.10e-06	0	59	0	301989888	50	5038
2026-01-20 09:06:31.33	112.63	25.90	-40.1	-42.5	13.6	5.30e-06	0	59	0	305135616	50	5115
2026-01-20 09:06:32.34	112.44	26.03	-40.2	-42.6	13.5	6.80e-06	0	59	0	308281344	50	5177
2026-01-20 09:06:33.35	112.25	26.16	-40.3	-42.7	13.4	1.06e-05	0	59	0	311427072	51	4972
2026-01-20 09:06:34.36	112.06	26.29	-40.4	-42.9	13.2	2.28e-05	0	59	0	314572800	51	5044
2026-01-20 09:06:35.37	111.86	26.42	-40.5	-43.0	13.1	3.50e-05	0	59	0	317718528	51	5142
2026-01-20 09:06:36.38	111.67	26.56	-40.4	-43.0	13.1	2.44e-05	0	59	0	320864256	51	5127
2026-01-20 09:06:37.39	111.47	26.69	-40.4	-43.0	13.1	2.89e-05	0	59	0	324009984	51	5115
2026-01-20 09:06:38.40	111.27	26.82	-40.5	-43.1	13.0	4.19e-05	0	59	0	327155712	51	5167
2026-01-20 09:06:39.41	111.07	26.96	-40.3	-42.7	13.3	1.67e-05	0	59	0	330301440	51	4970
2026-01-20 09:06:40.41	110.87	27.09	-40.1	-42.5	13.6	6.80e-06	0	59	0	333447168	51	4838
2026-01-20 09:06:41.42	110.67	27.22	-40.1	-42.4	13.6	6.80e-06	0	59	0	336592896	51	4802
2026-01-20 09:06:42.43	110.47	27.36	-40.0	-42.3	13.7	3.00e-06	0	59	0	339738624	51	4742
2026-01-20 09:06:43.44	110.26	27.49	-40.1	-42.5	13.6	7.60e-06	0	59	0	342884352	51	4815
2026-01-20 09:06:44.45	110.05	27.63	-40.2	-42.6	13.5	9.10e-06	0	59	0	346030080	51	4885
2026-01-20 09:06:45.46	109.84	27.76	-40.2	-42.6	13.4	1.22e-05	0	59	0	349175808	51	4922
2026-01-20 09:06:46.47	109.63	27.90	-40.3	-42.8	13.3	1.90e-05	0	59	0	352321536	51	4984
2026-01-20 09:06:47.48	109.42	28.04	-40.3	-42.8	13.3	1.14e-05	0	59	0	356515840	51	5007
2026-01-20 09:06:48.49	109.20	28.17	-40.4	-42.8	13.3	1.98e-05	0	59	0	359661568	51	5027
2026-01-20 09:06:49.50	108.98	28.31	-40.3	-42.7	13.5	1.37e-05	0	59	0	361758720	51	4946
2026-01-20 09:06:50.51	108.76	28.44	-40.2	-42.5	13.6	1.14e-05	0	59	0	364904448	51	4867
2026-01-20 09:06:51.52	108.54	28.58	-40.1	-42.5	13.6	8.30e-06	0	59	0	368050176	51	4839
2026-01-20 09:06:52.53	108.32	28.72	-40.1	-42.4	13.7	6.10e-06	0	59	0	372244480	51	4809
2026-01-20 09:06:53.54	108.09	28.85	-40.2	-42.6	13.6	9.90e-06	0	59	0	375390208	51	4873
2026-01-20 09:06:54.55	107.87	28.99	-40.3	-42.7	13.4	9.90e-06	0	59	0	378535936	51	4956
2026-01-20 09:06:55.56	107.64	29.13	-40.4	-42.8	13.3	2.13e-05	0	59	0	381681664	51	5013
2026-01-20 09:06:56.57	107.41	29.27	-40.4	-42.8	13.3	1.44e-05	0	59	0	383778816	51	5014
2026-01-20 09:06:57.58	107.17	29.40	-40.3	-42.7	13.4	1.75e-05	0	59	0	387973120	51	4970
2026-01-20 09:06:58.59	106.94	29.54	-40.3	-42.7	13.4	9.90e-06	0	59	0	391118848	51	4950
2026-01-20 09:06:59.60	106.70	29.68	-40.3	-42.6	13.5	1.22e-05	0	59	0	394264576	51	4920
2026-01-20 09:07:00.61	106.46	29.82	-40.1	-42.4	13.7	6.80e-06	0	59	0	397410304	51	4791
2026-01-20 09:07:01.62	106.22	29.96	-40.1	-42.4	13.7	3.80e-06	0	59	0	400556032	51	4796
2026-01-20 09:07:02.63	105.98	30.09	-40.1	-42.5	13.6	8.30e-06	0	59	0	403701760	51	4842
2026-01-20 09:07:03.64	105.73	30.23	-40.2	-42.5	13.6	5.30e-06	0	59	0	406847488	51	4866
2026-01-20 09:07:04.65	105.48	30.37	-40.1	-42.4	13.7	4.50e-06	0	59	0	409993216	51	4803
2026-01-20 09:07:05.65	105.24	30.51	-40.2	-42.5	13.6	4.50e-06	0	59	0	413138944	51	4863
2026-01-20 09:07:06.66	104.98	30.64	-40.3	-42.6	13.5	8.30e-06	0	59	0	416284672	51	4922
2026-01-20 09:07:07.68	104.73	30.78	-40.2	-42.6	13.5	1.06e-05	0	59	0	419430400	51	4902
2026-01-20 09:07:08.69	104.47	30.92	-40.3	-42.6	13.5	1.60e-05	0	59	0	422576128	51	4908
2026-01-20 09:07:09.70	104.21	31.06	-40.3	-42.7	13.4	1.60e-05	0	60	0	425721856	51	4977
2026-01-20 09:07:10.70	103.96	31.20	-40.4	-42.8	13.4	9.90e-06	0	59	0	428867584	51	4998
2026-01-20 09:07:11.71	103.69	31.34	-40.4	-42.8	13.3	2.13e-05	0	59	0	432013312	51	5021
2026-01-20 09:07:12.72	103.43	31.48	-40.4	-42.8	13.3	9.10e-06	0	59	0	435159040	51	5013
2026-01-20 09:07:13.73	103.16	31.61	-40.5	-43.0	13.1	2.74e-05	0	59	0	438304768	51	5149
2026-01-20 09:07:14.74	102.89	31.75	-40.5	-43.0	13.2	2.51e-05	0	59	0	441450496	51	5128
2026-01-20 09:07:15.75	102.62	31.89	-40.6	-43.1	13.1	2.97e-05	0	59	0	444596224	51	5170
2026-01-20 09:07:16.76	102.34	32.03	-40.7	-43.3	12.9	4.50e-05	0	59	0	447741952	51	5294
2026-01-20 09:07:17.77	102.07	32.17	-40.7	-43.4	12.7	5.41e-05	0	59	0	450887680	52	5072
2026-01-20 09:07:18.78	101.79	32.30	-40.6	-43.1	13.0	4.73e-05	0	59	0	454033408	52	4920
2026-01-20 09:07:19.79	101.51	32.44	-40.5	-43.1	13.0	3.12e-05	0	60	0	457179136	52	4886
2026-01-20 09:07:20.80	101.22	32.58	-40.6	-43.2	12.9	4.04e-05	0	60	0	460324864	52	4956
2026-01-20 09:07:21.81	100.94	32.72	-40.5	-43.1	13.0	3.58e-05	0	59	0	463470592	52	4885
2026-01-20 09:07:22.82	100.65	32.85	-40.6	-43.1	13.0	4.73e-05	0	60	0	466616320	52	4926
2026-01-20 09:07:23.82	100.36	32.99	-40.6	-43.2	12.9	4.11e-05	0	59	0	469762048	52	4970
2026-01-20 09:07:24.83	100.07	33.12	-40.7	-43.4	12.7	7.55e-05	0	59	0	472907776	52	5070
2026-01-20 09:07:25.84	99.77	33.26	-40.9	-43.7	12.4	1.07e-04	0	60	0	476053504	52	5230
2026-01-20 09:07:26.85	99.47	33.40	-41.0	-43.8	12.3	1.70e-04	0	60	0	479199232	52	5313
2026-01-20 09:07:27.86	99.17	33.53	-41.0	-43.8	12.3	1.56e-04	0	60	0	482344960	52	5325
2026-01-20 09:07:28.87	98.87	33.67	-41.0	-43.8	12.3	1.86e-04	0	59	0	485490688	52	5328
2026-01-20 09:07:29.88	98.56	33.80	-41.0	-43.8	12.3	1.79e-04	0	60	0	488636416	52	5321
2026-01-20 09:07:30.89	98.25	33.94	-41.0	-43.8	12.3	2.08e-04	0	60	0	491782144	52	5295
2026-01-20 09:07:31.90	97.94	34.07	-40.9	-43.7	12.4	1.44e-04	0	60	0	494927872	52	5242
2026-01-20 09:07:32.91	97.63	34.21	-41.0	-43.8	12.4	1.81e-04	0	60	0	498073600	52	5287
2026-01-20 09:07:33.92	97.31	34.34	-40.9	-43.6	12.5	1.06e-04	0	59	0	501219328	52	5214
2026-01-20 09:07:34.93	96.99	34.47	-40.9	-43.6	12.5	1.27e-04	0	60	0	504365056	52	5211
2026-01-20 09:07:35.94	96.67	34.61	-41.0	-43.8	12.3	1.59e-04	0	60	0	507510784	52	5310
2026-01-20 09:07:36.95	96.34	34.74	-41.1	-44.0	12.1	2.25e-04	0	60	0	510656512	52	5448
2026-01-20 09:07:37.96	96.02	34.87	-41.2	-44.1	12.0	3.97e-04	0	60	0	513802240	53	5205
2026-01-20 09:07:38.97	95.69	35.00	-41.1	-43.9	12.2	2.52e-04	0	60	0	516947968	53	5055
2026-01-20 09:07:39.97	95.36	35.13	-41.0	-43.8	12.3	1.88e-04	0	60	0	520093696	53	5028
2026-01-20 09:07:40.98	95.02	35.26	-41.0	-43.8	12.3	1.62e-04	0	60	0	523239424	53	5023
2026-01-20 09:07:41.99	94.69	35.39	-41.0	-43.8	12.3	1.96e-04	0	60	0	526385152	53	5008
2026-01-20 09:07:43.00	94.35	35.52	-41.1	-43.9	12.2	2.26e-04	0	60	0	529530880	53	5045
2026-01-20 09:07:44.01	94.00	35.65	-41.1	-44.0	12.1	2.67e-04	0	60	0	532676608	53	5129
2026-01-20 09:07:45.02	93.66	35.78	-41.1	-43.9	12.2	2.41e-04	0	60	0	535822336	53	5043
2026-01-20 09:07:46.03	93.31	35.90	-41.1	-43.9	12.2	2.08e-04	0	60	0	538968064	53	5098
2026-01-20 09:07:47.04	92.96	36.03	-41.1	-44.0	12.1	2.29e-04	0	60	0	542113792	53	5124
2026-01-20 09:07:48.05	92.60	36.15	-41.1	-43.9	12.2	2.16e-04	0	59	0	545259520	53	5073
2026-01-20 09:07:49.06	92.25	36.28	-41.1	-43.9	12.2	2.12e-04	0	60	0	548405248	53	5060
2026-01-20 09:07:50.07	91.89	36.40	-41.2	-44.1	12.1	2.58e-04	0	60	0	551550976	53	5161
2026-01-20 09:07:51.08	91.53	36.53	-41.2	-44.2	11.9	3.96e-04	0	60	0	554696704	53	5248
2026-01-20 09:07:52.09	91.16	36.65	-41.2	-44.1	12.0	3.46e-04	0	60	0	557842432	53	5215
2026-01-20 09:07:53.10	90.79	36.77	-41.0	-43.8	12.4	2.12e-04	0	60	0	560988160	53	5003
2026-01-20 09:07:54.11	90.42	36.89	-40.9	-43.5	12.6	9.46e-05	0	60	0	564133888	53	4855
2026-01-20 09:07:55.12	90.05	37.01	-40.8	-43.5	12.7	8.23e-05	0	60	0	567279616	53	4835
2026-01-20 09:07:56.13	89.67	37.13	-40.9	-43.6	12.6	8.92e-05	0	60	0	570425344	53	4872
2026-01-20 09:07:57.14	89.29	37.25	-41.0	-43.8	12.4	1.38e-04	0	60	0	573571072	53	4992
2026-01-20 09:07:58.15	88.91	37.36	-41.1	-43.9	12.3	1.86e-04	0	60	0	576716800	53	5066
2026-01-20 09:07:59.15	88.53	37.48	-41.1	-43.9	12.3	2.03e-04	0	60	0	579862528	53	5042
2026-01-20 09:08:00.16	88.15	37.59	-41.0	-43.8	12.4	1.66e-04	0	60	0	583008256	53	5002
2026-01-20 09:08:01.17	87.76	37.70	-41.1	-43.8	12.3	1.57e-04	0	60	0	586153984	53	5041
2026-01-20 09:08:02.18	87.36	37.82	-41.2	-44.0	12.1	2.13e-04	0	60	0	589299712	53	5141
2026-01-20 09:08:03.19	86.97	37.93	-41.3	-44.2	11.9	3.40e-04	0	60	0	592445440	53	5259
2026-01-20 09:08:04.20	86.57	38.04	-41.5	-44.5	11.6	6.81e-04	0	60	0	595591168	53	5460
2026-01-20 09:08:05.21	86.17	38.15	-41.6	-44.7	11.5	9.38e-04	0	60	0	598736896	53	5547
2026-01-20 09:08:06.22	85.77	38.25	-41.5	-44.7	11.6	7.50e-04	0	60	0	601882624	53	5531
2026-01-20 09:08:07.23	85.36	38.36	-41.5	-44.5	11.7	7.27e-04	0	60	0	605028352	53	5444
2026-01-20 09:08:08.24	84.96	38.46	-41.5	-44.5	11.6	5.60e-04	0	60	0	608174080	53	5449
2026-01-20 09:08:09.25	84.54	38.57	-41.5	-44.6	11.5	7.59e-04	0	60	0	611319808	53	5512
2026-01-20 09:08:10.26	84.13	38.67	-41.6	-44.7	11.5	6.91e-04	0	60	0	614465536	53	5531
2026-01-20 09:08:11.27	83.72	38.77	-41.6	-44.7	11.5	9.54e-04	0	60	0	617611264	53	5574
2026-01-20 09:08:12.28	83.30	38.87	-41.7	-44.9	11.3	1.15e-03	0	60	0	620756992	53	5704
2026-01-20 09:08:13.29	82.88	38.97	-41.7	-44.8	11.3	1.10e-03	0	60	0	623902720	53	5652
2026-01-20 09:08:14.29	82.46	39.06	-41.4	-44.4	11.8	6.50e-04	0	60	0	627048448	53	5393
2026-01-20 09:08:15.30	82.03	39.16	-41.4	-44.4	11.8	4.40e-04	0	60	0	630194176	53	5359
2026-01-20 09:08:16.32	81.60	39.25	-41.4	-44.4	11.7	5.41e-04	0	60	0	633339904	53	5391
2026-01-20 09:08:17.33	81.17	39.34	-41.4	-44.3	11.8	4.80e-04	0	60	0	636485632	53	5337
2026-01-20 09:08:18.34	80.73	39.43	-41.4	-44.4	11.8	5.22e-04	0	60	0	639631360	53	5384
2026-01-20 09:08:19.35	80.30	39.52	-41.5	-44.6	11.6	5.90e-04	0	60	0	642777088	53	5485
2026-01-20 09:08:20.36	79.86	39.60	-41.6	-44.7	11.4	7.29e-04	0	60	0	645922816	53	5558
2026-01-20 09:08:21.37	79.42	39.69	-41.8	-45.1	11.1	1.50e-03	0	60	0	649068544	54	5503
2026-01-20 09:08:22.37	78.98	39.77	-41.9	-45.1	11.1	1.71e-03	0	60	0	652214272	54	5509
2026-01-20 09:08:23.39	78.53	39.85	-41.9	-45.2	11.0	1.65e-03	0	60	0	655360000	54	5534
2026-01-20 09:08:24.39	78.09	39.93	-41.8	-45.1	11.2	1.57e-03	0	60	0	658505728	54	5472
2026-01-20 09:08:25.40	77.64	40.01	-41.8	-45.1	11.0	1.75e-03	0	60	0	661651456	54	5517
2026-01-20 09:08:26.41	77.19	40.09	-41.6	-44.7	11.6	1.13e-03	0	60	0	664797184	54	5235
2026-01-20 09:08:27.42	76.73	40.16	-41.2	-44.1	12.2	3.47e-04	0	60	0	667942912	54	4877
2026-01-20 09:08:28.43	76.28	40.23	-41.2	-44.0	12.3	2.08e-04	0	60	0	671088640	54	4854
2026-01-20 09:08:29.44	75.82	40.30	-41.3	-44.2	12.1	2.49e-04	0	60	0	674234368	54	4957
2026-01-20 09:08:30.45	75.36	40.37	-41.4	-44.4	12.0	3.24e-04	0	60	0	677380096	54	5054
2026-01-20 09:08:31.46	74.90	40.44	-41.5	-44.4	11.9	4.56e-04	0	60	0	680525824	54	5097
2026-01-20 09:08:32.47	74.44	40.50	-41.6	-44.6	11.7	5.57e-04	0	60	0	683671552	54	5204
2026-01-20 09:08:33.48	73.97	40.56	-41.4	-44.4	11.9	4.81e-04	0	60	0	686817280	54	5042
2026-01-20 09:08:34.49	73.51	40.62	-41.4	-44.3	12.1	3.23e-04	0	60	0	689963008	54	4998
2026-01-20 09:08:35.50	73.04	40.68	-41.3	-44.2	12.1	2.49e-04	0	60	0	693108736	54	4955
2026-01-20 09:08:36.51	72.57	40.74	-41.3	-44.2	12.2	2.30e-04	0	60	0	696254464	54	4937
2026-01-20 09:08:37.52	72.10	40.79	-41.4	-44.3	12.0	2.77e-04	0	60	0	699400192	54	5008
2026-01-20 09:08:38.52	71.63	40.84	-41.6	-44.7	11.6	5.77e-04	0	60	0	702545920	54	5233
2026-01-20 09:08:39.53	71.15	40.89	-41.8	-44.9	11.4	9.57e-04	0	60	0	705691648	54	5359
2026-01-20 09:08:40.55	70.67	40.94	-41.9	-45.1	11.2	1.25e-03	0	60	0	708837376	54	5518
2026-01-20 09:08:41.55	70.20	40.98	-42.0	-45.3	11.0	1.49e-03	0	60	0	711983104	54	5602
2026-01-20 09:08:42.56	69.72	41.03	-42.0	-45.4	10.9	2.30e-03	0	60	0	715128832	54	5675
2026-01-20 09:08:43.57	69.24	41.07	-42.1	-45.5	10.8	2.42e-03	0	60	0	719323136	54	5729
2026-01-20 09:08:44.58	68.76	41.11	-42.1	-45.5	10.8	2.60e-03	0	60	0	722468864	54	5752
2026-01-20 09:08:45.59	68.28	41.14	-42.1	-45.5	10.8	2.53e-03	0	60	0	724566016	54	5772
2026-01-20 09:08:46.60	67.79	41.18	-42.0	-45.4	11.0	2.00e-03	0	60	0	727711744	54	5657
2026-01-20 09:08:47.61	67.31	41.21	-42.1	-45.6	10.7	2.57e-03	0	60	0	730857472	54	5805
2026-01-20 09:08:48.62	66.82	41.24	-42.1	-45.5	10.8	2.59e-03	0	60	0	734003200	54	5779
2026-01-20 09:08:49.63	66.34	41.27	-42.1	-45.5	10.8	2.63e-03	0	60	0	738197504	54	5755
2026-01-20 09:08:50.64	65.85	41.29	-42.2	-45.7	10.7	2.86e-03	0	60	0	741343232	54	5867
2026-01-20 09:08:51.64	65.37	41.31	-42.1	-45.4	10.8	2.67e-03	0	60	0	744488960	54	5702
2026-01-20 09:08:52.65	64.88	41.33	-41.9	-45.1	11.1	1.74e-03	0	60	0	747634688	54	5525
2026-01-20 09:08:53.66	64.39	41.35	-42.0	-45.2	11.0	1.61e-03	0	60	0	749731840	54	5584
2026-01-20 09:08:54.67	63.90	41.37	-42.0	-45.4	10.8	2.27e-03	0	60	0	752877568	54	5693
2026-01-20 09:08:55.68	63.41	41.38	-42.1	-45.5	10.7	2.71e-03	0	60	0	757071872	54	5750
2026-01-20 09:08:56.69	62.92	41.39	-42.1	-45.5	10.7	2.70e-03	0	60	0	760217600	54	5750
2026-01-20 09:08:57.71	62.43	41.40	-42.0	-45.3	10.9	2.23e-03	0	60	0	763363328	54	5648
2026-01-20 09:08:58.72	61.94	41.40	-41.9	-45.2	10.9	2.32e-03	0	60	0	766509056	54	5584
2026-01-20 09:08:59.72	61.45	41.41	-41.9	-45.1	11.0	1.86e-03	0	60	0	769654784	54	5525
2026-01-20 09:09:00.74	60.95	41.41	-41.8	-45.0	11.2	1.35e-03	0	60	0	772800512	54	5456
2026-01-20 09:09:01.74	60.47	41.41	-41.8	-45.0	11.3	1.39e-03	0	60	0	775946240	54	5426
2026-01-20 09:09:02.75	59.98	41.40	-41.8	-44.9	11.4	9.33e-04	0	60	0	779091968	54	5365
2026-01-20 09:09:03.76	59.49	41.40	-41.8	-45.0	11.3	1.15e-03	0	60	0	782237696	54	5438
2026-01-20 09:09:04.77	59.00	41.39	-41.8	-45.0	11.3	1.36e-03	0	60	0	785383424	54	5441
2026-01-20 09:09:05.78	58.51	41.38	-41.7	-44.8	11.3	1.17e-03	0	60	0	788529152	54	5332
2026-01-20 09:09:06.79	58.02	41.37	-41.7	-44.7	11.4	1.04e-03	0	60	0	791674880	54	5279
2026-01-20 09:09:07.80	57.53	41.35	-41.7	-44.7	11.6	7.65e-04	0	60	0	794820608	54	5254
2026-01-20 09:09:08.81	57.04	41.33	-41.7	-44.7	11.6	7.12e-04	0	60	0	797966336	54	5255
2026-01-20 09:09:09.82	56.55	41.31	-41.7	-44.8	11.5	8.05e-04	0	60	0	801112064	54	5304
2026-01-20 09:09:10.83	56.07	41.29	-41.7	-44.8	11.5	8.13e-04	0	60	0	804257792	54	5307
2026-01-20 09:09:11.84	55.58	41.27	-41.7	-44.8	11.5	8.48e-04	0	60	0	807403520	54	5334
2026-01-20 09:09:12.85	55.09	41.24	-41.8	-45.0	11.3	1.14e-03	0	60	0	810549248	54	5418
2026-01-20 09:09:13.86	54.61	41.21	-41.9	-45.1	11.2	1.27e-03	0	60	0	813694976	54	5478
2026-01-20 09:09:14.87	54.12	41.18	-41.8	-45.1	11.2	1.24e-03	0	60	0	816840704	54	5466
2026-01-20 09:09:15.87	53.65	41.15	-41.7	-44.7	11.6	7.80e-04	0	60	0	819986432	54	5273
2026-01-20 09:09:16.88	53.16	41.11	-41.7	-44.8	11.5	7.97e-04	0	60	0	823132160	54	5305
2026-01-20 09:09:17.89	52.68	41.07	-41.8	-44.9	11.4	9.44e-04	0	60	0	826277888	54	5372
2026-01-20 09:09:18.91	52.20	41.03	-41.9	-45.2	11.1	1.42e-03	0	60	0	829423616	54	5546
2026-01-20 09:09:19.92	51.72	40.99	-42.2	-45.7	10.6	2.50e-03	0	60	0	832569344	54	5892
2026-01-20 09:09:20.93	51.24	40.94	-42.5	-46.2	10.0	6.09e-03	0	60	0	835715072	55	5903
2026-01-20 09:09:21.94	50.77	40.90	-42.5	-46.2	10.0	7.86e-03	0	60	0	838860800	55	5921
2026-01-20 09:09:22.95	50.29	40.85	-42.2	-45.7	10.6	4.75e-03	0	60	0	842006528	55	5543
2026-01-20 09:09:23.96	49.82	40.79	-41.9	-45.2	11.1	1.74e-03	0	60	0	845152256	55	5222
2026-01-20 09:09:24.97	49.35	40.74	-41.7	-44.7	11.6	7.84e-04	0	60	0	848297984	55	4971
2026-01-20 09:09:25.98	48.88	40.68	-41.6	-44.7	11.7	6.46e-04	0	60	0	851443712	55	4939
2026-01-20 09:09:26.99	48.41	40.63	-41.6	-44.6	11.7	6.91e-04	0	60	0	854589440	55	4925
2026-01-20 09:09:28.00	47.95	40.57	-41.6	-44.6	11.7	5.68e-04	0	60	0	857735168	55	4916
2026-01-20 09:09:29.01	47.48	40.51	-41.7	-44.8	11.5	8.79e-04	0	60	0	860880896	55	5020
2026-01-20 09:09:30.02	47.02	40.44	-41.8	-44.9	11.3	1.06e-03	0	60	0	864026624	55	5083
2026-01-20 09:09:31.03	46.56	40.38	-41.9	-45.2	11.0	1.64e-03	0	60	0	867172352	55	5252
2026-01-20 09:09:32.03	46.10	40.31	-42.0	-45.3	10.9	2.40e-03	0	60	0	870318080	55	5330
2026-01-20 09:09:33.04	45.65	40.24	-42.1	-45.5	10.7	2.76e-03	0	60	0	873463808	55	5410
2026-01-20 09:09:34.05	45.19	40.17	-42.0	-45.3	10.9	2.28e-03	0	60	0	876609536	55	5312
2026-01-20 09:09:35.06	44.74	40.09	-41.7	-44.8	11.4	1.20e-03	0	60	0	879755264	55	5027
2026-01-20 09:09:36.07	44.29	40.02	-41.6	-44.5	11.6	6.73e-04	0	60	0	882900992	55	4857
2026-01-20 09:09:37.08	43.84	39.94	-41.6	-44.6	11.6	6.15e-04	0	60	0	886046720	55	4878
2026-01-20 09:09:38.09	43.39	39.86	-41.4	-44.3	11.9	3.81e-04	0	60	0	889192448	54	5031
2026-01-20 09:09:39.10	42.95	39.78	-41.5	-44.5	11.8	4.77e-04	0	60	0	892338176	54	5108
2026-01-20 09:09:40.11	42.51	39.70	-41.7	-44.9	11.4	8.96e-04	0	60	0	895483904	54	5343
2026-01-20 09:09:41.12	42.07	39.61	-42.0	-45.3	10.8	1.74e-03	0	60	0	898629632	54	5647
2026-01-20 09:09:42.13	41.63	39.53	-42.3	-46.0	10.1	5.36e-03	0	60	0	901775360	55	5740
2026-01-20 09:09:43.14	41.19	39.44	-42.4	-46.1	9.9	8.92e-03	0	60	0	904921088	55	5818
2026-01-20 09:09:44.15	40.76	39.35	-42.2	-45.7	10.4	5.50e-03	0	60	0	908066816	55	5576
2026-01-20 09:09:45.16	40.33	39.26	-42.0	-45.3	10.8	2.73e-03	0	60	0	911212544	55	5327
2026-01-20 09:09:46.17	39.90	39.17	-41.9	-45.2	11.0	2.20e-03	0	60	0	914358272	55	5239
2026-01-20 09:09:47.18	39.48	39.07	-41.6	-44.7	11.6	8.87e-04	0	60	0	917504000	55	4942
2026-01-20 09:09:48.19	39.06	38.98	-41.7	-44.7	11.5	6.87e-04	0	60	0	920649728	55	4969
2026-01-20 09:09:49.19	38.64	38.88	-41.9	-45.1	11.1	1.21e-03	0	60	0	923795456	55	5194
2026-01-20 09:09:50.20	38.22	38.78	-42.1	-45.5	10.7	2.55e-03	0	60	0	926941184	55	5422
2026-01-20 09:09:51.21	37.81	38.68	-42.0	-45.4	10.8	2.79e-03	0	60	0	930086912	55	5377
2026-01-20 09:09:52.22	37.40	38.58	-41.8	-44.9	11.2	1.37e-03	0	60	0	933232640	55	5098
2026-01-20 09:09:53.23	36.99	38.48	-41.5	-44.5	11.7	6.36e-04	0	60	0	936378368	55	4843
2026-01-20 09:09:54.24	36.58	38.37	-41.5	-44.5	11.8	4.73e-04	0	60	0	939524096	54	5131
2026-01-20 09:09:55.25	36.17	38.27	-41.5	-44.6	11.7	4.81e-04	0	60	0	942669824	54	5160
2026-01-20 09:09:56.26	35.77	38.16	-41.8	-44.9	11.3	8.48e-04	0	60	0	945815552	54	5386
2026-01-20 09:09:57.27	35.37	38.05	-42.0	-45.4	10.8	2.18e-03	0	60	0	948961280	54	5681
2026-01-20 09:09:58.28	34.98	37.94	-42.0	-45.3	10.8	2.73e-03	0	60	0	952107008	54	5648
2026-01-20 09:09:59.29	34.58	37.83	-41.8	-45.1	11.1	1.72e-03	0	60	0	955252736	54	5492
2026-01-20 09:10:00.30	34.19	37.72	-41.5	-44.5	11.6	7.32e-04	0	60	0	958398464	54	5155
2026-01-20 09:10:01.31	33.80	37.61	-41.3	-44.1	12.1	3.25e-04	0	60	0	961544192	54	4890
2026-01-20 09:10:02.32	33.42	37.49	-41.3	-44.2	12.1	2.51e-04	0	60	0	964689920	54	4938
2026-01-20 09:10:03.33	33.03	37.38	-41.7	-44.7	11.4	5.04e-04	0	60	0	967835648	54	5276
2026-01-20 09:10:04.34	32.65	37.26	-42.0	-45.3	10.9	2.17e-03	0	60	0	970981376	54	5628
2026-01-20 09:10:05.35	32.27	37.15	-42.1	-45.6	10.5	4.05e-03	0	60	0	974127104	54	5822
2026-01-20 09:10:06.35	31.90	37.03	-42.0	-45.5	10.5	3.90e-03	0	60	0	977272832	54	5739
2026-01-20 09:10:07.37	31.53	36.91	-41.7	-44.8	11.2	1.99e-03	0	60	0	980418560	54	5338
2026-01-20 09:10:08.37	31.16	36.79	-41.4	-44.3	11.9	4.81e-04	0	60	0	983564288	54	5000
2026-01-20 09:10:09.38	30.79	36.67	-41.1	-43.9	12.3	2.92e-04	0	60	0	986710016	54	4775
2026-01-20 09:10:10.39	30.43	36.55	-41.0	-43.7	12.6	1.33e-04	0	60	0	989855744	53	4938
2026-01-20 09:10:11.40	30.07	36.43	-40.9	-43.6	12.7	6.79e-05	0	60	0	993001472	53	4871
2026-01-20 09:10:12.41	29.71	36.30	-41.2	-44.1	12.1	2.00e-04	0	60	0	996147200	53	5184
2026-01-20 09:10:13.42	29.36	36.18	-41.6	-44.7	11.4	8.09e-04	0	60	0	999292928	53	5571
2026-01-20 09:10:14.43	29.00	36.05	-41.5	-44.5	11.6	6.67e-04	0	60	0	1002438656	53	5420
2026-01-20 09:10:15.44	28.65	35.93	-41.1	-43.8	12.3	3.07e-04	0	60	0	1005584384	53	5028
2026-01-20 09:10:16.46	28.30	35.80	-40.8	-43.3	12.8	8.01e-05	0	60	0	1008730112	53	4749
2026-01-20 09:10:17.47	27.96	35.67	-40.8	-43.4	12.8	5.03e-05	0	60	0	1011875840	53	4782
2026-01-20 09:10:18.48	27.61	35.54	-40.6	-43.1	13.0	2.51e-05	0	60	0	1015021568	53	4651
2026-01-20 09:10:19.49	27.27	35.42	-41.0	-43.7	12.5	7.47e-05	0	60	0	1018167296	53	4943
2026-01-20 09:10:20.49	26.94	35.29	-41.5	-44.6	11.6	5.45e-04	0	60	0	1021313024	53	5481
2026-01-20 09:10:21.50	26.61	35.16	-41.9	-45.2	11.0	1.39e-03	0	60	0	1024458752	54	5552
2026-01-20 09:10:22.51	26.28	35.03	-41.7	-44.8	11.3	1.71e-03	0	60	0	1027604480	54	5313
2026-01-20 09:10:23.52	25.95	34.90	-41.4	-44.3	11.8	6.60e-04	0	60	0	1030750208	54	5013
2026-01-20 09:10:24.53	25.62	34.77	-41.1	-43.9	12.2	2.45e-04	0	60	0	1033895936	54	4760
2026-01-20 09:10:25.54	25.30	34.64	-40.9	-43.6	12.6	1.20e-04	0	60	0	1037041664	53	4874
2026-01-20 09:10:26.55	24.98	34.50	-40.8	-43.4	12.8	6.17e-05	0	60	0	1040187392	53	4796
2026-01-20 09:10:27.56	24.66	34.37	-41.0	-43.7	12.6	1.01e-04	0	60	0	1043333120	53	4952
2026-01-20 09:10:28.57	24.34	34.24	-41.1	-43.9	12.3	1.72e-04	0	60	0	1046478848	53	5088
2026-01-20 09:10:29.58	24.03	34.10	-41.2	-44.1	12.1	2.24e-04	0	60	0	1049624576	53	5175
2026-01-20 09:10:30.59	23.72	33.97	-41.3	-44.2	12.0	3.29e-04	0	60	0	1052770304	53	5233
2026-01-20 09:10:31.60	23.41	33.84	-41.2	-44.0	12.2	2.42e-04	0	60	0	1055916032	53	5114
2026-01-20 09:10:32.61	23.11	33.70	-40.9	-43.6	12.6	1.22e-04	0	60	0	1059061760	53	4886
2026-01-20 09:10:33.62	22.80	33.57	-40.6	-43.0	13.1	3.12e-05	0	60	0	1062207488	53	4591
2026-01-20 09:10:34.63	22.50	33.43	-40.4	-42.8	13.3	2.82e-05	0	60	0	1065353216	52	4739
2026-01-20 09:10:35.64	22.21	33.30	-40.4	-42.9	13.3	1.29e-05	0	60	0	1068498944	52	4764
2026-01-20 09:10:36.65	21.91	33.16	-40.5	-43.0	13.2	1.22e-05	0	60	0	1071644672	52	4845
2026-01-20 09:10:37.66	21.62	33.02	-40.8	-43.3	12.8	5.64e-05	0	60	0	1074790400	52	5041
2026-01-20 09:10:38.67	21.33	32.89	-41.0	-43.7	12.5	9.76e-05	0	60	0	1077936128	52	5231
2026-01-20 09:10:39.68	21.04	32.75	-41.0	-43.7	12.5	1.23e-04	0	60	0	1082130432	52	5245
2026-01-20 09:10:40.68	20.76	32.62	-40.8	-43.4	12.7	7.62e-05	0	60	0	1085276160	52	5079
2026-01-20 09:10:41.69	20.48	32.48	-40.6	-43.1	13.1	5.72e-05	0	60	0	1087373312	52	4875
2026-01-20 09:10:42.70	20.19	32.34	-40.4	-42.8	13.3	1.60e-05	0	60	0	1090519040	52	4721
2026-01-20 09:10:43.71	19.92	32.21	-40.4	-42.9	13.3	1.60e-05	0	60	0	1093664768	52	4762
2026-01-20 09:10:44.72	19.64	32.07	-40.5	-42.9	13.2	2.05e-05	0	60	0	1096810496	52	4799
2026-01-20 09:10:45.73	19.37	31.93	-40.5	-43.0	13.2	1.90e-05	0	60	0	1101004800	52	4835
2026-01-20 09:10:46.74	19.10	31.79	-40.7	-43.3	12.8	4.27e-05	0	60	0	1104150528	52	5004
2026-01-20 09:10:47.75	18.83	31.66	-40.8	-43.5	12.6	6.48e-05	0	60	0	1107296256	52	5120
2026-01-20 09:10:48.76	18.56	31.52	-41.0	-43.7	12.4	1.11e-04	0	60	0	1110441984	52	5233
2026-01-20 09:10:49.77	18.30	31.38	-40.9	-43.6	12.5	1.03e-04	0	60	0	1112539136	52	5192
2026-01-20 09:10:50.78	18.04	31.24	-40.9	-43.6	12.5	9.53e-05	0	60	0	1116733440	52	5187
2026-01-20 09:10:51.79	17.78	31.10	-40.9	-43.5	12.6	1.17e-04	0	60	0	1119879168	52	5146
2026-01-20 09:10:52.80	17.52	30.97	-40.8	-43.5	12.7	7.32e-05	0	61	0	1123024896	52	5102
2026-01-20 09:10:53.81	17.26	30.83	-40.7	-43.2	12.9	4.73e-05	0	60	0	1126170624	52	4978
2026-01-20 09:10:54.81	17.01	30.69	-40.6	-43.1	13.0	3.28e-05	0	60	0	1129316352	52	4889
2026-01-20 09:10:55.82	16.76	30.56	-40.5	-43.0	13.1	3.35e-05	0	60	0	1132462080	52	4861
2026-01-20 09:10:56.83	16.51	30.42	-40.6	-43.1	13.0	3.12e-05	0	60	0	1135607808	52	4896
2026-01-20 09:10:57.84	16.27	30.28	-40.6	-43.1	13.0	3.05e-05	0	60	0	1138753536	52	4894
2026-01-20 09:10:58.85	16.02	30.14	-40.6	-43.1	13.0	3.81e-05	0	60	0	1141899264	52	4926
2026-01-20 09:10:59.86	15.78	30.01	-40.5	-42.9	13.2	1.75e-05	0	60	0	1145044992	52	4787
2026-01-20 09:11:00.87	15.54	29.87	-40.2	-42.5	13.6	6.10e-06	0	60	0	1148190720	52	4577
2026-01-20 09:11:01.88	15.30	29.73	-40.0	-42.2	13.9	4.50e-06	0	60	0	1151336448	51	4705
2026-01-20 09:11:02.89	15.06	29.59	-39.8	-41.9	14.2	3.80e-06	0	60	0	1154482176	51	4515
2026-01-20 09:11:03.90	14.83	29.46	-39.7	-41.8	14.3	7.00e-07	0	60	0	1157627904	51	4487
2026-01-20 09:11:04.91	14.60	29.32	-39.7	-41.8	14.3	1.50e-06	0	60	0	1160773632	51	4473
2026-01-20 09:11:05.92	14.37	29.18	-39.8	-42.0	14.2	7.00e-07	0	60	0	1163919360	51	4555
2026-01-20 09:11:06.93	14.14	29.05	-40.0	-42.2	14.0	2.20e-06	0	60	0	1167065088	51	4674
2026-01-20 09:11:07.94	13.91	28.91	-40.2	-42.5	13.6	6.10e-06	0	60	0	1170210816	51	4857
2026-01-20 09:11:08.95	13.69	28.77	-40.4	-42.8	13.3	1.29e-05	0	60	0	1173356544	51	5025
2026-01-20 09:11:09.96	13.47	28.64	-40.5	-43.0	13.1	1.90e-05	0	60	0	1176502272	51	5132
2026-01-20 09:11:10.97	13.25	28.50	-40.5	-43.0	13.1	3.73e-05	0	60	0	1179648000	51	5134
2026-01-20 09:11:11.98	13.03	28.37	-40.5	-42.9	13.2	2.51e-05	0	60	0	1182793728	51	5099
2026-01-20 09:11:12.99	12.81	28.23	-40.3	-42.7	13.5	1.90e-05	0	60	0	1185939456	51	4927
2026-01-20 09:11:13.99	12.60	28.10	-40.3	-42.6	13.5	1.06e-05	0	60	0	1189085184	51	4907
2026-01-20 09:11:15.00	12.39	27.96	-40.3	-42.7	13.5	7.60e-06	0	60	0	1192230912	51	4933
2026-01-20 09:11:16.01	12.17	27.83	-40.2	-42.6	13.6	8.30e-06	0	61	0	1195376640	51	4871
2026-01-20 09:11:17.02	11.97	27.69	-40.3	-42.7	13.5	1.06e-05	0	60	0	1198522368	51	4928
2026-01-20 09:11:18.03	11.76	27.56	-40.3	-42.7	13.5	1.06e-05	0	60	0	1201668096	51	4929
2026-01-20 09:11:19.04	11.55	27.42	-40.4	-42.8	13.3	1.37e-05	0	60	0	1204813824	51	5016
2026-01-20 09:11:20.05	11.35	27.29	-40.5	-42.9	13.2	2.36e-05	0	60	0	1207959552	51	5072
2026-01-20 09:11:21.06	11.15	27.16	-40.5	-43.0	13.1	3.28e-05	0	60	0	1211105280	51	5101
2026-01-20 09:11:22.07	10.95	27.02	-40.5	-43.0	13.1	3.58e-05	0	60	0	1214251008	51	5114
2026-01-20 09:11:23.08	10.75	26.89	-40.5	-43.0	13.1	2.36e-05	0	60	0	1217396736	51	5121
2026-01-20 09:11:24.09	10.55	26.76	-40.5	-43.0	13.1	3.81e-05	0	60	0	1220542464	51	5129
2026-01-20 09:11:25.10	10.35	26.62	-40.5	-43.0	13.1	3.89e-05	0	60	0	1223688192	51	5135
2026-01-20 09:11:26.11	10.16	26.49	-40.5	-43.0	13.1	2.36e-05	0	60	0	1226833920	51	5106
2026-01-20 09:11:27.12	9.97	26.36	-40.2	-42.5	13.5	8.30e-06	0	60	0	1229979648	51	4855
2026-01-20 09:11:28.13	9.78	26.23	-39.9	-42.2	13.9	3.80e-06	0	60	0	1233125376	51	4659
2026-01-20 09:11:29.14	9.59	26.10	-39.9	-42.0	14.0	0.00e+00	0	60	0	1236271104	51	4597
2026-01-20 09:11:30.15	9.40	25.96	-39.7	-41.8	14.3	1.50e-06	0	60	0	1239416832	51	4458
2026-01-20 09:11:31.16	9.21	25.83	-39.7	-41.8	14.2	0.00e+00	0	60	0	1242562560	51	4476
2026-01-20 09:11:32.17	9.03	25.70	-39.7	-41.9	14.2	3.80e-06	0	60	0	1245708288	51	4505
2026-01-20 09:11:33.18	8.85	25.57	-39.8	-41.9	14.1	3.80e-06	0	60	0	1248854016	51	4540
2026-01-20 09:11:34.19	8.67	25.44	-39.8	-42.0	14.0	3.00e-06	0	60	0	1251999744	51	4587
2026-01-20 09:11:35.20	8.49	25.31	-39.9	-42.1	14.0	2.20e-06	0	60	0	1255145472	51	4620
2026-01-20 09:11:36.21	8.31	25.18	-39.9	-42.1	13.9	2.20e-06	0	60	0	1258291200	51	4623
2026-01-20 09:11:37.22	8.13	25.05	-39.8	-42.1	14.0	3.00e-06	0	60	0	1261436928	51	4606
2026-01-20 09:11:38.23	7.95	24.93	-39.9	-42.1	13.9	5.30e-06	0	60	0	1264582656	51	4634
2026-01-20 09:11:39.24	7.78	24.80	-39.8	-42.1	13.9	3.00e-06	0	60	0	1267728384	51	4605
2026-01-20 09:11:40.25	7.61	24.67	-39.9	-42.1	13.9	3.00e-06	0	60	0	1270874112	51	4644
2026-01-20 09:11:41.26	7.44	24.54	-40.0	-42.3	13.7	5.30e-06	0	60	0	1274019840	51	4719
2026-01-20 09:11:42.27	7.27	24.42	-40.1	-42.5	13.5	7.60e-06	0	60	0	1277165568	51	4852
2026-01-20 09:11:43.28	7.10	24.29	-40.2	-42.7	13.3	1.83e-05	0	60	0	1280311296	51	4927
2026-01-20 09:11:44.28	6.93	24.16	-40.3	-42.8	13.2	2.59e-05	0	60	0	1283457024	51	5027
2026-01-20 09:11:45.29	6.77	24.04	-40.4	-42.9	13.1	2.67e-05	0	60	0	1286602752	51	5077
2026-01-20 09:11:46.30	6.60	23.91	-40.5	-43.0	13.0	3.05e-05	0	60	0	1289748480	51	5145
2026-01-20 09:11:47.31	6.44	23.79	-40.5	-43.0	12.9	5.34e-05	0	60	0	1292894208	51	5152
2026-01-20 09:11:48.32	6.28	23.66	-40.5	-43.0	12.9	4.27e-05	0	60	0	1296039936	51	5151
2026-01-20 09:11:49.33	6.12	23.54	-40.5	-43.1	12.9	5.95e-05	0	60	0	1299185664	51	5164
2026-01-20 09:11:50.34	5.96	23.41	-40.4	-43.0	13.0	3.35e-05	0	60	0	1302331392	51	5122
2026-01-20 09:11:51.35	5.80	23.29	-40.5	-43.1	12.9	4.65e-05	0	60	0	1305477120	51	5163
2026-01-20 09:11:52.36	5.65	23.16	-40.3	-42.8	13.2	2.97e-05	0	60	0	1308622848	51	4992
2026-01-20 09:11:53.37	5.49	23.04	-40.2	-42.6	13.3	1.22e-05	0	61	0	1311768576	51	4879
2026-01-20 09:11:54.38	5.34	22.92	-40.1	-42.5	13.4	1.75e-05	0	60	0	1314914304	51	4843
2026-01-20 09:11:55.39	5.19	22.79	-40.2	-42.6	13.3	1.90e-05	0	60	0	1318060032	51	4905
2026-01-20 09:11:56.40	5.03	22.67	-40.1	-42.6	13.3	1.60e-05	0	60	0	1321205760	51	4877
2026-01-20 09:11:57.41	4.88	22.55	-40.1	-42.5	13.4	1.44e-05	0	60	0	1324351488	51	4838
2026-01-20 09:11:58.42	4.73	22.43	-40.1	-42.5	13.4	1.37e-05	0	60	0	1327497216	51	4857
2026-01-20 09:11:59.43	4.59	22.31	-40.1	-42.5	13.4	1.98e-05	0	60	0	1330642944	51	4836
2026-01-20 09:12:00.44	4.44	22.19	-40.0	-42.4	13.4	1.52e-05	0	60	0	1333788672	51	4797
2026-01-20 09:12:01.45	4.29	22.07	-40.0	-42.3	13.5	6.80e-06	0	60	0	1336934400	51	4759
2026-01-20 09:12:02.46	4.15	21.95	-40.0	-42.4	13.4	1.52e-05	0	60	0	1340080128	51	4809
2026-01-20 09:12:03.47	4.01	21.83	-40.0	-42.4	13.4	8.30e-06	0	60	0	1343225856	51	4778
2026-01-20 09:12:04.48	3.86	21.71	-39.9	-42.3	13.5	1.75e-05	0	60	0	1346371584	51	4714
2026-01-20 09:12:05.49	3.72	21.59	-39.9	-42.3	13.5	1.22e-05	0	60	0	1349517312	51	4727
2026-01-20 09:12:06.50	3.58	21.47	-39.9	-42.3	13.5	1.37e-05	0	60	0	1352663040	51	4721
2026-01-20 09:12:07.51	3.45	21.35	-40.0	-42.4	13.4	6.10e-06	0	60	0	1355808768	51	4762
2026-01-20 09:12:08.52	3.31	21.23	-39.9	-42.3	13.5	9.90e-06	0	60	0	1358954496	51	4719
2026-01-20 09:12:09.53	3.17	21.12	-39.9	-42.3	13.5	1.67e-05	0	60	0	1362100224	51	4731
2026-01-20 09:12:10.54	3.04	21.00	-39.9	-42.3	13.4	1.37e-05	0	60	0	1365245952	51	4745
2026-01-20 09:12:11.55	2.90	20.88	-39.8	-42.2	13.6	6.80e-06	0	60	0	1368391680	51	4669
2026-01-20 09:12:12.56	2.77	20.77	-39.9	-42.3	13.4	1.22e-05	0	60	0	1371537408	51	4732
2026-01-20 09:12:13.57	2.64	20.65	-40.0	-42.3	13.4	1.98e-05	0	60	0	1374683136	51	4757
2026-01-20 09:12:14.58	2.50	20.53	-40.0	-42.3	13.4	9.90e-06	0	60	0	1377828864	51	4757
2026-01-20 09:12:15.59	2.37	20.42	-40.0	-42.3	13.4	1.75e-05	0	60	0	1380974592	51	4757
2026-01-20 09:12:16.60	2.24	20.30	-40.0	-42.4	13.3	1.44e-05	0	60	0	1384120320	51	4800
2026-01-20 09:12:17.61	2.12	20.19	-40.0	-42.4	13.3	1.83e-05	0	60	0	1387266048	51	4774
2026-01-20 09:12:18.62	1.99	20.07	-39.9	-42.4	13.3	2.21e-05	0	60	0	1390411776	51	4766
2026-01-20 09:12:19.63	1.86	19.96	-40.1	-42.5	13.1	2.21e-05	0	60	0	1393557504	51	4851
2026-01-20 09:12:20.64	1.74	19.85	-40.1	-42.5	13.1	2.51e-05	0	60	0	1396703232	51	4863
2026-01-20 09:12:21.65	1.61	19.73	-40.0	-42.4	13.2	2.97e-05	0	60	0	1399848960	51	4797
2026-01-20 09:12:22.66	1.49	19.62	-40.0	-42.4	13.2	2.97e-05	0	60	0	1402994688	51	4809
2026-01-20 09:12:23.67	1.37	19.51	-40.0	-42.4	13.2	3.35e-05	0	60	0	1406140416	51	4811
2026-01-20 09:12:24.68	1.24	19.40	-39.9	-42.3	13.3	2.67e-05	0	60	0	1409286144	51	4729
2026-01-20 09:12:25.68	1.12	19.29	-39.8	-42.2	13.4	1.52e-05	0	60	0	1412431872	51	4655
2026-01-20 09:12:26.69	1.00	19.18	-39.7	-42.0	13.4	8.30e-06	0	60	0	1415577600	51	4591
2026-01-20 09:12:27.70	0.88	19.06	-39.6	-41.9	13.6	9.90e-06	0	60	0	1418723328	51	4499
2026-01-20 09:12:28.71	0.77	18.95	-39.6	-41.9	13.6	8.30e-06	0	60	0	1421869056	51	4514
2026-01-20 09:12:29.72	0.65	18.84	-39.6	-41.9	13.6	9.90e-06	0	60	0	1426063360	51	4511
2026-01-20 09:12:30.73	0.53	18.73	-39.5	-41.8	13.6	1.22e-05	0	60	0	1428160512	51	4473
2026-01-20 09:12:31.74	0.42	18.63	-39.6	-41.9	13.5	6.10e-06	0	60	0	1431306240	51	4513
2026-01-20 09:12:32.75	0.30	18.52	-39.5	-41.8	13.6	1.29e-05	0	60	0	1434451968	51	4462
2026-01-20 09:12:33.76	0.19	18.41	-39.5	-41.8	13.5	6.80e-06	0	60	0	1437597696	50	4754
2026-01-20 09:12:34.77	0.08	18.30	-39.5	-41.8	13.6	6.80e-06	0	60	0	1441792000	50	4746
2026-01-20 09:12:35.78	359.96	18.19	-39.5	-41.9	13.4	1.06e-05	0	60	0	1444937728	50	4800
2026-01-20 09:12:36.79	359.85	18.08	-39.6	-42.0	13.4	1.83e-05	0	60	0	1448083456	50	4832
2026-01-20 09:12:37.79	359.74	17.98	-39.7	-42.2	13.1	2.59e-05	0	60	0	1450180608	50	4974
2026-01-20 09:12:38.80	359.63	17.87	-39.8	-42.4	12.9	4.04e-05	0	60	0	1453326336	50	5045
2026-01-20 09:12:39.81	359.52	17.76	-39.9	-42.5	12.7	5.41e-05	0	60	0	1457520640	50	5139
2026-01-20 09:12:40.82	359.42	17.66	-40.0	-42.6	12.6	7.70e-05	0	60	0	1460666368	50	5200
2026-01-20 09:12:41.83	359.31	17.55	-40.1	-42.9	12.3	1.54e-04	0	60	0	1463812096	50	5341
2026-01-20 09:12:42.84	359.20	17.45	-40.1	-42.9	12.3	1.59e-04	0	60	0	1466957824	50	5350
2026-01-20 09:12:43.85	359.10	17.34	-40.1	-42.9	12.2	1.80e-04	0	60	0	1470103552	50	5364
2026-01-20 09:12:44.86	358.99	17.24	-40.2	-43.0	12.0	2.53e-04	0	60	0	1473249280	50	5440
2026-01-20 09:12:45.87	358.89	17.13	-40.1	-42.9	12.1	2.94e-04	0	60	0	1476395008	50	5351
2026-01-20 09:12:46.88	358.78	17.03	-40.0	-42.9	12.0	2.62e-04	0	60	0	1479540736	50	5380
2026-01-20 09:12:47.89	358.68	16.92	-40.0	-42.9	11.9	3.74e-04	0	60	0	1482686464	50	5382
2026-01-20 09:12:48.90	358.58	16.82	-40.1	-43.0	11.8	3.89e-04	0	60	0	1485832192	50	5437
2026-01-20 09:12:49.91	358.48	16.72	-40.1	-43.0	11.7	5.91e-04	0	61	0	1488977920	50	5456
2026-01-20 09:12:50.92	358.37	16.62	-40.0	-42.9	11.7	5.74e-04	0	60	0	1492123648	50	5386
2026-01-20 09:12:51.93	358.27	16.51	-39.9	-42.9	11.6	6.23e-04	0	60	0	1495269376	50	5379
2026-01-20 09:12:52.94	358.18	16.41	-39.9	-43.0	11.6	7.51e-04	0	60	0	1498415104	50	5406
2026-01-20 09:12:53.95	358.08	16.31	-39.8	-42.7	11.7	5.39e-04	0	61	0	1501560832	50	5260
2026-01-20 09:12:54.96	357.98	16.21	-40.0	-43.0	11.4	7.80e-04	0	60	0	1504706560	50	5439
2026-01-20 09:12:55.97	357.88	16.11	-40.0	-43.2	11.1	1.35e-03	0	60	0	1507852288	50	5575
2026-01-20 09:12:56.98	357.79	16.01	-40.0	-43.2	11.1	1.53e-03	0	60	0	1510998016	50	5546
2026-01-20 09:12:57.99	357.69	15.91	-39.8	-42.9	11.3	1.17e-03	0	60	0	1514143744	50	5392
2026-01-20 09:12:59.00	357.59	15.81	-39.7	-42.7	11.5	9.06e-04	0	60	0	1517289472	50	5270
2026-01-20 09:13:00.01	357.50	15.71	-39.6	-42.6	11.6	7.28e-04	0	60	0	1520435200	50	5215
2026-01-20 09:13:01.02	357.41	15.61	-39.7	-42.8	11.3	1.11e-03	0	60	0	1523580928	50	5315
2026-01-20 09:13:02.03	357.31	15.51	-39.8	-43.0	11.0	1.56e-03	0	60	0	1526726656	50	5424
2026-01-20 09:13:03.04	357.22	15.41	-39.9	-43.3	10.7	2.83e-03	0	61	0	1529872384	50	5626
2026-01-20 09:13:04.05	357.13	15.31	-39.8	-43.2	10.7	2.89e-03	0	61	0	1533018112	50	5552
2026-01-20 09:13:05.06	357.04	15.21	-39.7	-43.1	10.7	3.06e-03	0	60	0	1536163840	50	5525
2026-01-20 09:13:06.07	356.95	15.11	-39.7	-43.1	10.7	2.96e-03	0	60	0	1539309568	50	5519
2026-01-20 09:13:07.08	356.86	15.02	-39.7	-43.1	10.7	2.95e-03	0	60	0	1542455296	50	5490
2026-01-20 09:13:08.09	356.77	14.92	-39.7	-43.2	10.5	3.46e-03	0	60	0	1545601024	50	5569
2026-01-20 09:13:09.10	356.68	14.82	-39.7	-43.4	10.2	5.32e-03	0	60	0	1548746752	50	5694
2026-01-20 09:13:10.11	356.59	14.73	-39.9	-43.8	9.7	1.08e-02	0	61	0	1551892480	50	5968
2026-01-20 09:13:11.12	356.50	14.63	-39.9	-44.0	9.4	1.57e-02	0	61	0	1555038208	50	6105
2026-01-20 09:13:12.13	356.41	14.53	-40.1	-44.5	8.7	2.39e-02	0	61	0	1558183936	50	6478
2026-01-20 09:13:13.14	356.33	14.44	-40.3	-45.2	8.0	5.55e-02	0	61	0	1561329664	51	6617
2026-01-20 09:13:14.15	356.24	14.34	-40.5	-46.0	7.1	1.14e-01	0	60	0	1564475392	51	7273
2026-01-20 09:13:15.16	356.16	14.25	-40.7	-46.8	6.3	2.42e-01	0	60	0	1567621120	51	7964
2026-01-20 09:13:16.17	356.07	14.15	-40.7	-47.1	5.9	3.33e-01	0	60	0	1570766848	52	7792
2026-01-20 09:13:17.18	355.99	14.06	-40.7	-47.8	5.4	4.69e-01	0	61	0	1573912576	52	8371
2026-01-20 09:13:18.19	355.90	13.96	-40.8	-49.5	4.0	6.86e-01	0	60	104	1577058304	52	10248
2026-01-20 09:13:19.19	355.82	13.87	-41.0	-50.4	3.9	1.41e+00	0	61	104	1577058304	52	11399
2026-01-20 09:13:20.20	355.74	13.78	-41.0	-50.5	4.1	1.47e+00	0	61	104	1577058304	52	11420
2026-01-20 09:13:21.21	355.66	13.69	-40.8	-52.3	3.8	1.49e+00	0	60	104	1577058304	52	14203
2026-01-20 09:13:22.22	355.57	13.59	-40.8	-52.5	3.8	1.49e+00	0	60	104	1577058304	52	14413
2026-01-20 09:13:23.23	355.49	13.50	-40.8	-52.8	3.8	1.49e+00	0	60	104	1577058304	52	14896
2026-01-20 09:13:24.24	355.41	13.41	-40.5	-53.1	3.8	1.49e+00	0	61	104	1577058304	52	15510
2026-01-20 09:13:25.25	355.33	13.32	-41.4	-52.3	3.8	1.49e+00	0	61	104	1577058304	53	13395
2026-01-20 09:13:26.26	355.25	13.22	-41.3	-52.5	3.8	1.49e+00	0	60	104	1577058304	53	13638
2026-01-20 09:13:27.27	355.17	13.13	-41.2	-52.6	3.8	1.49e+00	0	61	104	1577058304	53	13828
2026-01-20 09:13:28.28	355.10	13.04	-41.0	-52.7	3.8	1.49e+00	0	60	104	1577058304	53	13945
2026-01-20 09:13:29.29	355.02	12.95	-40.8	-52.8	3.8	1.49e+00	0	61	104	1577058304	53	14091
2026-01-20 09:13:30.30	354.94	12.86	-40.6	-52.9	3.8	1.49e+00	0	61	104	1577058304	53	14294
2026-01-20 09:13:31.31	354.86	12.77	-40.6	-53.0	3.8	1.49e+00	0	60	104	1577058304	52	15305
2026-01-20 09:13:32.32	354.79	12.68	-40.4	-53.1	3.8	1.49e+00	0	61	104	1577058304	52	15539
2026-01-20 09:13:33.33	354.71	12.59	-40.4	-53.0	3.8	1.49e+00	0	60	104	1577058304	52	15303
2026-01-20 09:13:34.33	354.64	12.50	-40.5	-53.0	3.8	1.49e+00	0	61	104	1577058304	52	15252
2026-01-20 09:13:35.35	354.56	12.41	-40.4	-53.1	3.8	1.49e+00	0	60	104	1577058304	52	15557
2026-01-20 09:13:36.35	354.49	12.32	-40.6	-53.1	3.8	1.49e+00	0	61	104	1577058304	52	15448
2026-01-20 09:13:37.36	354.41	12.23	-40.4	-52.9	3.8	1.49e+00	0	61	104	1577058304	52	15084
2026-01-20 09:13:38.37	354.34	12.15	-40.3	-52.8	3.8	1.49e+00	0	61	104	1577058304	52	15050
2026-01-20 09:13:39.38	354.27	12.06	-40.5	-53.1	3.8	1.49e+00	0	61	104	1577058304	52	15524
2026-01-20 09:13:40.39	354.19	11.97	-40.5	-53.0	3.8	1.49e+00	0	61	104	1577058304	52	15306
2026-01-20 09:13:41.40	354.12	11.88	-40.3	-52.8	3.8	1.49e+00	0	61	104	1577058304	52	15014
2026-01-20 09:13:42.41	354.05	11.80	-40.1	-52.8	3.8	1.49e+00	0	61	104	1577058304	52	14945
2026-01-20 09:13:43.42	353.98	11.71	-40.6	-53.0	3.8	1.49e+00	0	61	104	1577058304	52	15359
2026-01-20 09:13:44.43	353.91	11.62	-40.2	-52.9	3.8	1.49e+00	0	61	104	1577058304	52	15117
2026-01-20 09:13:45.44	353.84	11.53	-40.3	-52.8	3.8	1.49e+00	0	61	104	1577058304	52	14979
2026-01-20 09:13:46.45	353.77	11.45	-40.2	-52.8	3.8	1.49e+00	0	61	104	1577058304	52	14937
2026-01-20 09:13:47.45	353.70	11.36	-40.3	-52.9	3.8	1.49e+00	0	61	104	1577058304	52	15160
2026-01-20 09:13:48.47	353.63	11.28	-40.2	-52.9	3.8	1.49e+00	0	61	104	1577058304	51	16026
2026-01-20 09:13:49.48	353.56	11.19	-40.4	-52.9	3.8	1.49e+00	0	61	104	1577058304	51	15954
2026-01-20 09:13:50.49	353.49	11.11	-40.3	-52.9	3.8	1.49e+00	0	61	104	1577058304	51	15969
2026-01-20 09:13:51.50	353.42	11.02	-40.0	-52.9	3.8	1.49e+00	0	61	104	1577058304	51	15985
