passes_logs/2026/01/20/R2.0S_Moscow/R2.0S_Moscow__20260120_234209_AQUA_rec.log

#Pass ID: 20260120_234209_AQUA
#Satellite: AQUA
#Configuration: AQUA
#almurnet v.1.7.20251203
#Start time: 2026-01-20 23:42:08

#Version: 2.2.20231116
#Station: R2.0S_Moscow
#Location: 37.707566 lon 55.798166 lat
#TLE: 1 27424U 02022A   26020.30984080  .00001497  00000+0  30942-3 0  9998
#TLE: 2 27424  98.4092 346.8266 0001984  71.7888  69.0903 14.61835321261661

#Time	Az	El	Level	Level2	SNR	BER	BlckErr	Temp	State	Recorded	gain1	gain2
2026-01-20 23:42:08.57	29.88	1.98	-43.4	-63.1	3.8	7.46e-01	0	50	0	0	58	34689
2026-01-20 23:42:09.57	29.97	2.03	-43.4	-63.1	3.8	7.46e-01	0	50	104	0	57	36726
2026-01-20 23:42:10.58	30.07	2.08	-43.4	-63.1	3.8	7.46e-01	0	50	104	0	57	36676
2026-01-20 23:42:11.59	30.16	2.14	-43.4	-63.1	3.8	7.44e-01	0	50	104	0	57	36702
2026-01-20 23:42:12.60	30.26	2.19	-43.4	-63.1	3.8	7.47e-01	0	50	104	0	57	36674
2026-01-20 23:42:13.61	30.36	2.24	-43.4	-63.1	3.8	7.44e-01	0	50	104	0	57	36653
2026-01-20 23:42:14.62	30.45	2.29	-43.4	-63.1	3.8	7.46e-01	0	50	104	0	57	36658
2026-01-20 23:42:15.63	30.55	2.35	-43.3	-63.1	3.8	7.46e-01	0	50	104	0	57	36659
2026-01-20 23:42:16.64	30.65	2.40	-43.3	-63.1	3.8	7.45e-01	0	50	104	0	57	36598
2026-01-20 23:42:17.65	30.75	2.45	-43.3	-63.1	3.8	7.44e-01	0	51	104	0	57	36631
2026-01-20 23:42:18.66	30.84	2.50	-43.4	-63.1	3.8	7.44e-01	0	50	104	0	57	36558
2026-01-20 23:42:19.67	30.94	2.56	-43.4	-63.1	3.8	7.45e-01	0	50	104	0	57	36643
2026-01-20 23:42:20.68	31.04	2.61	-43.4	-63.1	3.8	7.42e-01	0	51	104	0	57	36644
2026-01-20 23:42:21.70	31.14	2.66	-43.4	-63.1	3.8	7.43e-01	0	51	104	0	57	36576
2026-01-20 23:42:22.70	31.24	2.72	-43.3	-63.1	3.8	7.45e-01	0	51	104	0	57	36632
2026-01-20 23:42:23.72	31.34	2.77	-43.4	-63.1	3.8	7.49e-01	0	51	104	0	57	36635
2026-01-20 23:42:24.73	31.44	2.82	-43.4	-63.1	3.8	7.43e-01	0	51	104	0	57	36675
2026-01-20 23:42:25.74	31.54	2.88	-43.3	-63.1	3.8	7.44e-01	0	51	104	0	57	36675
2026-01-20 23:42:26.75	31.65	2.93	-43.3	-63.1	3.8	7.45e-01	0	51	104	0	57	36737
2026-01-20 23:42:27.76	31.75	2.98	-43.4	-63.1	3.8	7.48e-01	0	51	104	0	57	36593
2026-01-20 23:42:28.77	31.85	3.04	-43.4	-63.1	3.8	7.46e-01	0	51	104	0	57	36605
2026-01-20 23:42:29.78	31.95	3.09	-43.3	-63.1	3.8	7.45e-01	0	51	104	0	57	36586
2026-01-20 23:42:30.79	32.05	3.14	-43.4	-63.1	3.8	7.47e-01	0	51	104	0	57	36634
2026-01-20 23:42:31.80	32.16	3.20	-43.4	-63.1	3.8	7.47e-01	0	51	104	0	57	36635
2026-01-20 23:42:32.81	32.26	3.25	-43.4	-63.1	3.8	7.46e-01	0	51	104	0	57	36668
2026-01-20 23:42:33.82	32.37	3.30	-43.4	-63.1	3.8	7.45e-01	0	51	104	0	57	36677
2026-01-20 23:42:34.83	32.47	3.36	-43.4	-63.1	3.8	7.42e-01	0	51	104	0	57	36604
2026-01-20 23:42:35.84	32.58	3.41	-43.4	-63.1	3.8	7.48e-01	0	51	104	0	57	36644
2026-01-20 23:42:36.85	32.68	3.46	-43.4	-63.1	3.8	7.46e-01	0	52	104	0	57	36584
2026-01-20 23:42:37.86	32.79	3.52	-43.3	-63.1	3.8	7.45e-01	0	51	104	0	57	36613
2026-01-20 23:42:38.87	32.89	3.57	-43.4	-63.1	3.8	7.46e-01	0	52	104	0	57	36623
2026-01-20 23:42:39.88	33.00	3.63	-43.4	-63.1	3.8	7.44e-01	0	52	104	0	57	36631
2026-01-20 23:42:40.89	33.11	3.68	-43.3	-63.1	3.8	7.47e-01	0	52	104	0	57	36690
2026-01-20 23:42:41.90	33.21	3.73	-43.3	-63.1	3.8	7.47e-01	0	52	104	0	57	36587
2026-01-20 23:42:42.91	33.32	3.79	-43.3	-63.1	3.8	7.47e-01	0	52	104	0	57	36605
2026-01-20 23:42:43.93	33.43	3.84	-43.3	-63.1	3.8	7.47e-01	0	52	104	0	57	36588
2026-01-20 23:42:44.94	33.54	3.90	-43.4	-63.1	3.8	7.45e-01	0	52	104	0	57	36571
2026-01-20 23:42:45.95	33.65	3.95	-43.4	-63.1	3.8	7.46e-01	0	52	104	0	57	36663
2026-01-20 23:42:46.96	33.76	4.00	-43.4	-63.1	3.8	7.47e-01	0	52	104	0	57	36631
2026-01-20 23:42:47.97	33.87	4.06	-43.4	-63.1	3.8	7.43e-01	0	52	104	0	57	36541
2026-01-20 23:42:48.98	33.98	4.11	-43.3	-63.1	3.8	7.47e-01	0	52	104	0	57	36559
2026-01-20 23:42:49.99	34.09	4.17	-43.4	-63.0	3.8	7.48e-01	0	52	104	0	57	36513
2026-01-20 23:42:51.00	34.20	4.22	-43.4	-63.1	3.8	7.46e-01	0	52	104	0	57	36535
2026-01-20 23:42:52.01	34.31	4.28	-43.4	-63.1	3.8	7.44e-01	0	52	104	0	57	36575
2026-01-20 23:42:53.02	34.42	4.33	-43.4	-63.1	3.8	7.45e-01	0	52	104	0	57	36612
2026-01-20 23:42:54.03	34.54	4.39	-43.3	-63.1	3.8	7.41e-01	0	53	104	0	57	36573
2026-01-20 23:42:55.04	34.65	4.44	-43.4	-63.1	3.8	7.48e-01	0	53	104	0	57	36625
2026-01-20 23:42:56.05	34.76	4.49	-43.4	-63.1	3.8	7.46e-01	0	53	104	0	57	36542
2026-01-20 23:42:57.06	34.88	4.55	-43.3	-63.1	3.8	7.46e-01	0	53	104	0	57	36652
2026-01-20 23:42:58.07	34.99	4.60	-43.4	-63.1	3.8	7.46e-01	0	53	104	0	57	36540
2026-01-20 23:42:59.08	35.11	4.66	-43.3	-63.1	3.8	7.44e-01	0	53	104	0	57	36616
2026-01-20 23:43:00.09	35.22	4.71	-43.4	-63.1	3.8	7.45e-01	0	53	104	0	57	36546
2026-01-20 23:43:01.10	35.34	4.77	-43.3	-63.0	3.8	7.47e-01	0	53	104	0	57	36488
2026-01-20 23:43:02.12	35.45	4.82	-43.3	-63.1	3.8	7.44e-01	0	53	104	0	57	36534
2026-01-20 23:43:03.13	35.57	4.88	-43.3	-63.1	3.8	7.46e-01	0	53	104	0	57	36561
2026-01-20 23:43:04.14	35.69	4.93	-43.4	-63.1	3.8	7.42e-01	0	53	104	0	57	36535
2026-01-20 23:43:05.15	35.81	4.99	-43.3	-63.1	3.8	7.45e-01	0	53	104	0	57	36600
2026-01-20 23:43:06.16	35.92	5.04	-43.4	-63.1	3.8	7.45e-01	0	53	104	0	57	36623
2026-01-20 23:43:07.17	36.04	5.10	-43.4	-63.1	3.8	7.44e-01	0	53	104	0	57	36564
2026-01-20 23:43:08.18	36.16	5.15	-43.4	-63.1	3.8	7.46e-01	0	53	104	0	57	36592
2026-01-20 23:43:09.19	36.28	5.21	-43.4	-63.1	3.8	7.44e-01	0	53	104	0	57	36583
2026-01-20 23:43:10.20	36.40	5.26	-43.4	-63.1	3.8	7.45e-01	0	53	104	0	57	36531
2026-01-20 23:43:11.21	36.52	5.32	-43.3	-63.1	3.8	7.47e-01	0	53	104	0	57	36558
2026-01-20 23:43:12.22	36.64	5.37	-43.3	-63.1	3.8	7.43e-01	0	53	104	0	57	36549
2026-01-20 23:43:13.23	36.76	5.43	-43.4	-63.0	3.8	7.44e-01	0	53	104	0	57	36503
2026-01-20 23:43:14.24	36.88	5.48	-43.4	-63.1	3.8	7.48e-01	0	53	104	0	57	36556
2026-01-20 23:43:15.25	37.01	5.54	-43.3	-63.0	3.8	7.43e-01	0	53	104	0	57	36515
2026-01-20 23:43:16.26	37.13	5.59	-43.4	-63.1	3.8	7.47e-01	0	53	104	0	57	36529
2026-01-20 23:43:17.28	37.25	5.65	-43.4	-63.1	3.8	7.47e-01	0	53	104	0	57	36569
2026-01-20 23:43:18.29	37.38	5.70	-43.4	-63.1	3.8	7.47e-01	0	54	104	0	57	36577
2026-01-20 23:43:19.30	37.50	5.76	-43.3	-63.1	3.8	7.45e-01	0	54	104	0	57	36577
2026-01-20 23:43:20.31	37.63	5.81	-43.3	-63.1	3.8	7.48e-01	0	54	104	0	57	36536
2026-01-20 23:43:21.32	37.75	5.87	-43.3	-63.1	3.8	7.43e-01	0	54	104	0	57	36543
2026-01-20 23:43:22.33	37.88	5.93	-43.3	-63.1	3.8	7.44e-01	0	54	104	0	57	36609
2026-01-20 23:43:23.34	38.00	5.98	-43.3	-63.0	3.8	7.42e-01	0	54	104	0	57	36482
2026-01-20 23:43:24.35	38.13	6.04	-43.4	-63.1	3.8	7.43e-01	0	54	104	0	57	36528
2026-01-20 23:43:25.36	38.26	6.09	-43.3	-63.0	3.8	7.46e-01	0	54	104	0	57	36462
2026-01-20 23:43:26.37	38.38	6.15	-43.3	-63.1	3.8	7.47e-01	0	54	104	0	57	36550
2026-01-20 23:43:27.38	38.51	6.20	-43.3	-63.1	3.8	7.46e-01	0	54	104	0	57	36529
2026-01-20 23:43:28.39	38.64	6.26	-43.4	-63.0	3.8	7.43e-01	0	54	104	0	57	36459
2026-01-20 23:43:29.40	38.77	6.31	-43.3	-63.0	3.8	7.47e-01	0	54	104	0	57	36431
2026-01-20 23:43:30.41	38.90	6.37	-43.3	-63.0	3.8	7.43e-01	0	54	104	0	57	36141
2026-01-20 23:43:31.42	39.03	6.42	-43.3	-62.9	3.8	7.45e-01	0	54	104	0	57	36000
2026-01-20 23:43:32.43	39.16	6.48	-43.3	-62.8	3.8	7.46e-01	0	54	104	0	57	35293
2026-01-20 23:43:33.44	39.29	6.54	-43.4	-62.7	3.8	7.45e-01	0	54	104	0	57	35063
2026-01-20 23:43:34.46	39.43	6.59	-43.3	-62.6	3.8	7.45e-01	0	54	104	0	57	34625
2026-01-20 23:43:35.47	39.56	6.65	-43.3	-62.4	3.8	7.47e-01	0	54	104	0	57	34012
2026-01-20 23:43:36.48	39.69	6.70	-43.3	-62.5	3.8	7.47e-01	0	54	104	0	57	34115
2026-01-20 23:43:37.49	39.82	6.76	-43.3	-62.1	3.8	7.49e-01	0	54	104	0	57	32698
2026-01-20 23:43:38.50	39.96	6.81	-43.3	-61.8	3.8	7.45e-01	0	54	104	0	57	31791
2026-01-20 23:43:39.51	40.09	6.87	-43.3	-61.8	3.8	7.48e-01	0	54	104	0	57	31572
2026-01-20 23:43:40.52	40.23	6.93	-43.3	-60.4	4.0	7.45e-01	0	54	104	0	57	27019
2026-01-20 23:43:41.53	40.36	6.98	-43.3	-58.5	4.5	7.24e-01	0	54	104	0	57	21705
2026-01-20 23:43:42.54	40.50	7.04	-43.2	-57.5	4.9	7.09e-01	0	54	0	0	57	19286
2026-01-20 23:43:43.55	40.64	7.09	-43.2	-56.6	5.5	6.95e-01	46	54	0	0	57	17404
2026-01-20 23:43:44.56	40.77	7.15	-43.1	-55.8	6.1	6.83e-01	92	55	0	1048576	57	15827
2026-01-20 23:43:45.57	40.91	7.20	-43.0	-55.0	6.7	6.67e-01	93	55	0	3145728	57	14512
2026-01-20 23:43:46.58	41.05	7.26	-43.0	-54.6	7.2	6.58e-01	92	55	0	4718592	57	13745
2026-01-20 23:43:47.59	41.19	7.32	-42.9	-54.1	7.6	6.51e-01	92	55	0	6815744	57	13100
2026-01-20 23:43:48.60	41.33	7.37	-43.0	-55.0	6.9	6.66e-01	92	55	0	8912896	57	14414
2026-01-20 23:43:49.61	41.47	7.43	-43.1	-55.8	6.1	6.82e-01	92	55	0	10485760	57	15931
2026-01-20 23:43:50.62	41.61	7.48	-43.2	-57.6	5.0	7.09e-01	0	55	0	11010048	57	19528
2026-01-20 23:43:51.63	41.75	7.54	-43.3	-60.0	4.1	7.39e-01	0	55	104	11010048	57	25641
2026-01-20 23:43:52.64	41.89	7.59	-43.3	-63.0	3.8	7.46e-01	0	55	104	11010048	57	36324
2026-01-20 23:43:53.65	42.04	7.65	-43.3	-61.0	3.9	7.40e-01	0	55	104	11010048	57	28905
2026-01-20 23:43:54.66	42.18	7.71	-43.1	-56.9	5.3	7.04e-01	41	55	104	11010048	57	18005
2026-01-20 23:43:55.67	42.32	7.76	-43.0	-54.6	7.2	6.61e-01	92	55	0	12058624	57	13744
2026-01-20 23:43:56.68	42.47	7.82	-42.7	-52.2	9.5	6.25e-01	0	55	0	14155776	57	10451
2026-01-20 23:43:57.69	42.61	7.87	-42.4	-50.3	11.6	6.10e-01	0	55	0	16252928	56	8868
2026-01-20 23:43:58.70	42.76	7.93	-42.3	-49.7	12.2	6.06e-01	0	55	0	17825792	56	8334
2026-01-20 23:43:59.71	42.90	7.98	-42.2	-49.4	12.6	6.05e-01	0	55	0	19922944	56	7992
2026-01-20 23:44:00.72	43.05	8.04	-42.2	-48.6	13.5	6.02e-01	0	55	0	21495808	56	7314
2026-01-20 23:44:01.73	43.20	8.10	-43.1	-53.0	9.3	6.30e-01	0	55	0	23592960	56	12229
2026-01-20 23:44:02.74	43.34	8.15	-42.4	-49.9	12.4	6.07e-01	0	55	0	25690112	56	8480
2026-01-20 23:44:03.75	43.49	8.21	-42.1	-60.0	3.8	7.45e-01	0	55	104	26738688	56	27295
2026-01-20 23:44:04.76	43.64	8.26	-42.1	-47.8	14.6	6.04e-01	0	55	0	26738688	55	7069
2026-01-20 23:44:05.77	43.79	8.32	-42.1	-47.5	14.8	6.03e-01	0	55	0	28835840	56	6477
2026-01-20 23:44:06.78	43.94	8.37	-42.0	-47.2	15.1	6.05e-01	0	55	0	30408704	56	6239
2026-01-20 23:44:07.79	44.09	8.43	-42.0	-47.2	15.2	6.03e-01	0	55	0	32505856	56	6268
2026-01-20 23:44:08.80	44.24	8.48	-41.9	-47.0	15.5	6.01e-01	0	55	0	34078720	55	6442
2026-01-20 23:44:09.81	44.39	8.54	-42.0	-47.0	15.5	6.03e-01	0	55	0	36175872	55	6453
2026-01-20 23:44:10.82	44.55	8.60	-42.0	-47.1	15.3	6.02e-01	0	55	0	37748736	55	6540
2026-01-20 23:44:11.83	44.70	8.65	-42.2	-47.3	15.2	6.04e-01	0	55	0	39845888	55	6695
2026-01-20 23:44:12.84	44.85	8.71	-42.2	-47.2	15.3	6.01e-01	0	55	0	41943040	55	6631
2026-01-20 23:44:13.85	45.01	8.76	-42.1	-46.9	15.6	6.02e-01	0	55	0	43515904	55	6404
2026-01-20 23:44:14.85	45.16	8.82	-42.0	-46.9	15.7	6.03e-01	0	55	0	45613056	55	6349
2026-01-20 23:44:15.86	45.32	8.87	-42.1	-46.8	15.8	6.02e-01	0	55	0	47710208	55	6324
2026-01-20 23:44:16.87	45.47	8.93	-42.1	-46.9	15.7	6.04e-01	0	55	0	49283072	55	6361
2026-01-20 23:44:17.88	45.63	8.98	-42.1	-46.9	15.6	6.04e-01	0	55	0	51380224	55	6396
2026-01-20 23:44:18.89	45.79	9.04	-42.1	-46.8	15.8	6.02e-01	0	55	0	52953088	55	6324
2026-01-20 23:44:19.90	45.94	9.09	-42.1	-46.7	15.9	6.02e-01	0	55	0	55050240	55	6266
2026-01-20 23:44:20.91	46.10	9.15	-42.1	-46.7	15.9	6.03e-01	0	55	0	57147392	55	6229
2026-01-20 23:44:21.92	46.26	9.20	-42.2	-46.7	15.9	6.02e-01	0	55	0	58720256	55	6260
2026-01-20 23:44:22.93	46.42	9.26	-42.1	-46.5	16.2	6.05e-01	0	55	0	60817408	55	6090
2026-01-20 23:44:23.94	46.58	9.31	-42.2	-46.7	16.1	6.06e-01	0	55	0	62390272	55	6208
2026-01-20 23:44:24.95	46.74	9.37	-42.1	-46.6	16.1	6.06e-01	0	55	0	64487424	55	6179
2026-01-20 23:44:25.96	46.91	9.42	-42.2	-46.7	16.1	6.02e-01	0	55	0	66584576	55	6215
2026-01-20 23:44:26.97	47.07	9.48	-42.2	-46.7	16.0	6.02e-01	0	56	0	68157440	55	6238
2026-01-20 23:44:27.98	47.23	9.53	-42.2	-46.6	16.1	6.03e-01	0	56	0	70254592	55	6170
2026-01-20 23:44:28.99	47.40	9.59	-42.2	-46.5	16.3	6.03e-01	0	56	0	72351744	55	6097
2026-01-20 23:44:30.00	47.56	9.64	-42.2	-46.5	16.3	6.04e-01	0	56	0	73924608	55	6102
2026-01-20 23:44:31.01	47.72	9.70	-42.2	-46.4	16.4	6.03e-01	0	56	0	76021760	55	6033
2026-01-20 23:44:32.02	47.89	9.75	-42.2	-46.3	16.5	6.02e-01	0	56	0	77594624	55	5972
2026-01-20 23:44:33.02	48.06	9.81	-42.2	-46.5	16.3	6.03e-01	0	55	0	79691776	55	6107
2026-01-20 23:44:34.03	48.22	9.86	-42.3	-46.6	16.3	6.04e-01	0	56	0	81788928	55	6146
2026-01-20 23:44:35.04	48.39	9.91	-42.3	-46.5	16.3	6.03e-01	0	56	0	83361792	55	6107
2026-01-20 23:44:36.05	48.56	9.97	-42.2	-46.4	16.4	6.03e-01	0	56	0	85458944	55	6051
2026-01-20 23:44:37.06	48.73	10.02	-42.2	-46.3	16.6	6.02e-01	0	56	0	87031808	55	5973
2026-01-20 23:44:38.07	48.90	10.08	-42.2	-46.3	16.6	6.06e-01	0	56	0	89128960	55	5928
2026-01-20 23:44:39.08	49.07	10.13	-42.1	-46.2	16.7	6.04e-01	0	56	0	91226112	55	5862
2026-01-20 23:44:40.09	49.24	10.19	-42.2	-46.3	16.6	6.04e-01	0	56	0	92798976	55	5950
2026-01-20 23:44:41.10	49.41	10.24	-42.2	-46.3	16.5	6.04e-01	0	56	0	94896128	55	5990
2026-01-20 23:44:42.11	49.58	10.29	-42.2	-46.3	16.5	6.03e-01	0	56	0	96468992	55	5958
2026-01-20 23:44:43.12	49.76	10.35	-42.3	-46.4	16.5	6.05e-01	0	56	0	98566144	55	6012
2026-01-20 23:44:44.13	49.93	10.40	-42.3	-46.3	16.6	6.05e-01	0	56	0	100663296	55	5980
2026-01-20 23:44:45.14	50.10	10.45	-42.3	-46.4	16.6	6.06e-01	0	56	0	102236160	55	6010
2026-01-20 23:44:46.14	50.28	10.51	-42.2	-46.2	16.7	6.03e-01	0	56	0	104333312	55	5896
2026-01-20 23:44:47.15	50.45	10.56	-42.2	-46.2	16.7	6.01e-01	0	56	0	105906176	55	5898
2026-01-20 23:44:48.16	50.63	10.61	-42.2	-46.2	16.7	6.04e-01	0	56	0	108003328	55	5895
2026-01-20 23:44:49.17	50.81	10.67	-42.2	-46.2	16.7	6.05e-01	0	56	0	110100480	55	5898
2026-01-20 23:44:50.18	50.98	10.72	-42.2	-46.2	16.7	6.02e-01	0	56	0	111673344	55	5902
2026-01-20 23:44:51.19	51.16	10.77	-42.2	-46.2	16.8	6.03e-01	0	56	0	113770496	55	5884
2026-01-20 23:44:52.20	51.34	10.83	-42.1	-46.1	16.8	6.04e-01	0	56	0	115867648	55	5816
2026-01-20 23:44:53.21	51.52	10.88	-42.1	-46.1	16.9	6.00e-01	0	56	0	117440512	55	5855
2026-01-20 23:44:54.22	51.70	10.93	-42.2	-46.2	16.8	6.03e-01	0	56	0	119537664	55	5877
2026-01-20 23:44:55.23	51.88	10.98	-42.2	-46.3	16.7	6.03e-01	0	56	0	121110528	55	5931
2026-01-20 23:44:56.24	52.06	11.04	-42.2	-46.3	16.7	6.03e-01	0	56	0	123207680	55	5935
2026-01-20 23:44:57.25	52.25	11.09	-42.1	-46.2	16.8	6.05e-01	0	56	0	125304832	55	5871
2026-01-20 23:44:58.26	52.43	11.14	-42.2	-46.3	16.7	6.04e-01	0	56	0	126877696	55	5947
2026-01-20 23:44:59.27	52.61	11.19	-42.1	-46.2	16.9	6.04e-01	0	56	0	128974848	55	5867
2026-01-20 23:45:00.27	52.80	11.24	-42.1	-46.1	16.9	6.04e-01	0	56	0	130547712	55	5808
2026-01-20 23:45:01.28	52.98	11.30	-42.1	-46.1	16.9	6.03e-01	0	56	0	132644864	55	5823
2026-01-20 23:45:02.29	53.17	11.35	-42.1	-46.0	17.0	6.03e-01	0	56	0	134742016	55	5729
2026-01-20 23:45:03.30	53.35	11.40	-42.0	-45.8	17.2	6.04e-01	0	56	0	136314880	55	5625
2026-01-20 23:45:04.31	53.54	11.45	-42.0	-45.7	17.3	6.04e-01	0	56	0	138412032	55	5575
2026-01-20 23:45:05.32	53.73	11.50	-42.0	-45.8	17.2	6.03e-01	0	56	0	139984896	55	5623
2026-01-20 23:45:06.33	53.92	11.55	-42.1	-45.9	17.1	6.03e-01	0	56	0	142082048	55	5689
2026-01-20 23:45:07.34	54.11	11.60	-42.1	-46.1	16.9	6.02e-01	0	56	0	144179200	55	5807
2026-01-20 23:45:08.35	54.30	11.66	-42.1	-46.1	17.0	6.08e-01	0	56	0	145752064	55	5793
2026-01-20 23:45:09.36	54.49	11.71	-42.1	-46.0	17.0	6.02e-01	0	56	0	147849216	55	5787
2026-01-20 23:45:10.37	54.68	11.76	-42.1	-46.1	16.9	6.03e-01	0	56	0	149422080	55	5806
2026-01-20 23:45:11.38	54.87	11.81	-42.1	-46.0	17.0	6.02e-01	0	56	0	151519232	55	5742
2026-01-20 23:45:12.39	55.07	11.86	-42.1	-46.0	17.0	6.03e-01	0	56	0	153616384	55	5727
2026-01-20 23:45:13.40	55.26	11.91	-42.1	-46.0	17.0	6.01e-01	0	56	0	155189248	55	5761
2026-01-20 23:45:14.41	55.45	11.96	-42.1	-45.9	17.1	6.02e-01	0	56	0	157286400	55	5703
2026-01-20 23:45:15.42	55.65	12.01	-42.1	-45.9	17.1	6.03e-01	0	56	0	158859264	55	5712
2026-01-20 23:45:16.43	55.84	12.06	-42.1	-45.9	17.1	6.04e-01	0	56	0	160956416	55	5717
2026-01-20 23:45:17.44	56.04	12.11	-42.1	-45.9	17.2	6.04e-01	0	56	0	163053568	55	5662
2026-01-20 23:45:18.45	56.24	12.16	-42.1	-45.9	17.2	6.03e-01	0	56	0	164626432	55	5677
2026-01-20 23:45:19.46	56.44	12.20	-42.1	-45.9	17.2	6.04e-01	0	56	0	166723584	55	5659
2026-01-20 23:45:20.47	56.63	12.25	-42.1	-46.0	17.1	6.04e-01	0	56	0	168820736	55	5751
2026-01-20 23:45:21.47	56.83	12.30	-42.1	-45.9	17.2	6.01e-01	0	56	0	170393600	55	5695
2026-01-20 23:45:22.48	57.03	12.35	-42.0	-45.8	17.2	6.03e-01	0	56	0	172490752	55	5652
2026-01-20 23:45:23.49	57.23	12.40	-42.1	-45.8	17.2	6.04e-01	0	56	0	174063616	55	5645
2026-01-20 23:45:24.50	57.43	12.45	-42.1	-45.8	17.3	6.04e-01	0	56	0	176160768	55	5640
2026-01-20 23:45:25.51	57.64	12.49	-42.1	-46.0	17.1	6.04e-01	0	56	0	178257920	55	5725
2026-01-20 23:45:26.52	57.84	12.54	-42.1	-45.9	17.2	6.04e-01	0	56	0	179830784	55	5666
2026-01-20 23:45:27.53	58.04	12.59	-42.0	-45.8	17.2	6.04e-01	0	56	0	181927936	55	5611
2026-01-20 23:45:28.54	58.25	12.64	-42.0	-45.8	17.2	6.05e-01	0	56	0	184025088	55	5654
2026-01-20 23:45:29.55	58.45	12.68	-42.0	-45.8	17.2	6.03e-01	0	56	0	185597952	55	5653
2026-01-20 23:45:30.56	58.66	12.73	-42.1	-45.9	17.2	6.04e-01	0	57	0	187695104	55	5697
2026-01-20 23:45:31.57	58.86	12.78	-42.1	-45.9	17.2	6.02e-01	0	56	0	189267968	55	5673
2026-01-20 23:45:32.58	59.07	12.82	-42.0	-45.7	17.3	6.03e-01	0	56	0	191365120	55	5556
2026-01-20 23:45:33.59	59.28	12.87	-41.8	-45.5	17.5	6.03e-01	0	57	0	193462272	55	5439
2026-01-20 23:45:34.60	59.48	12.92	-41.9	-45.6	17.4	6.02e-01	0	57	0	195035136	55	5477
2026-01-20 23:45:35.60	59.69	12.96	-41.9	-45.7	17.3	6.06e-01	0	56	0	197132288	55	5584
2026-01-20 23:45:36.61	59.90	13.01	-42.0	-45.8	17.1	6.05e-01	0	57	0	198705152	55	5655
2026-01-20 23:45:37.62	60.11	13.05	-42.0	-45.9	17.1	6.04e-01	0	57	0	200802304	55	5698
2026-01-20 23:45:38.63	60.32	13.10	-42.0	-45.9	17.2	6.02e-01	0	57	0	202899456	55	5673
2026-01-20 23:45:39.64	60.53	13.14	-42.1	-46.0	17.0	6.05e-01	0	57	0	204472320	55	5753
2026-01-20 23:45:40.65	60.74	13.19	-42.0	-45.9	17.0	6.03e-01	0	57	0	206569472	55	5666
2026-01-20 23:45:41.66	60.96	13.23	-42.0	-46.0	16.9	6.04e-01	0	57	0	208142336	55	5734
2026-01-20 23:45:42.67	61.17	13.28	-41.9	-45.8	17.0	6.01e-01	0	57	0	210239488	55	5653
2026-01-20 23:45:43.68	61.39	13.32	-41.8	-45.6	17.1	6.05e-01	0	57	0	212336640	55	5516
2026-01-20 23:45:44.69	61.60	13.36	-41.8	-45.8	17.0	6.02e-01	0	57	0	213909504	55	5602
2026-01-20 23:45:45.69	61.81	13.41	-41.7	-45.6	17.1	6.04e-01	0	57	0	216006656	55	5467
2026-01-20 23:45:46.70	62.03	13.45	-41.9	-46.1	16.6	6.03e-01	0	56	0	217579520	55	5804
2026-01-20 23:45:47.71	62.25	13.49	-41.6	-45.5	17.1	6.04e-01	0	57	0	219676672	55	5456
2026-01-20 23:45:48.72	62.46	13.53	-41.6	-45.5	17.2	6.02e-01	0	57	0	221773824	55	5409
2026-01-20 23:45:49.73	62.68	13.58	-42.0	-46.3	16.3	6.03e-01	0	57	0	223346688	55	5958
2026-01-20 23:45:50.74	62.90	13.62	-42.6	-48.0	14.5	6.06e-01	0	57	0	225443840	55	7276
2026-01-20 23:45:51.75	63.12	13.66	-43.0	-49.1	13.4	6.03e-01	0	57	0	227016704	56	7808
2026-01-20 23:45:52.76	63.34	13.70	-43.3	-50.1	12.3	6.08e-01	0	57	0	229113856	57	8245
2026-01-20 23:45:53.77	63.56	13.74	-43.6	-51.9	10.4	6.16e-01	0	57	0	231211008	57	10086
2026-01-20 23:45:54.78	63.78	13.78	-43.6	-51.8	10.4	6.20e-01	0	57	0	232783872	57	9980
2026-01-20 23:45:55.78	64.00	13.82	-43.3	-50.1	12.2	6.08e-01	0	57	0	234881024	57	8242
2026-01-20 23:45:56.79	64.23	13.86	-43.3	-50.1	12.3	6.08e-01	0	57	0	236978176	57	8246
2026-01-20 23:45:57.80	64.45	13.90	-43.5	-50.9	11.2	6.13e-01	0	57	0	238551040	57	9001
2026-01-20 23:45:58.81	64.67	13.94	-43.3	-50.9	11.2	6.12e-01	0	57	0	240648192	57	9015
2026-01-20 23:45:59.82	64.90	13.98	-43.1	-50.6	11.4	6.11e-01	0	57	0	242221056	57	8720
2026-01-20 23:46:00.83	65.12	14.02	-42.9	-50.2	11.6	6.10e-01	0	57	0	244318208	57	8337
2026-01-20 23:46:01.84	65.35	14.06	-42.8	-49.8	12.0	6.09e-01	0	57	0	246415360	57	7959
2026-01-20 23:46:02.85	65.58	14.10	-42.6	-49.1	12.7	6.09e-01	0	57	0	247988224	57	7322
2026-01-20 23:46:03.86	65.80	14.13	-42.4	-48.4	13.4	6.06e-01	0	57	0	250085376	56	7182
2026-01-20 23:46:04.86	66.03	14.17	-42.2	-48.1	13.7	6.03e-01	0	57	0	251658240	56	6915
2026-01-20 23:46:05.87	66.26	14.21	-42.1	-48.2	13.5	6.07e-01	0	57	0	253755392	56	6960
2026-01-20 23:46:06.88	66.49	14.25	-42.2	-48.6	13.0	6.06e-01	0	57	0	255852544	56	7293
2026-01-20 23:46:07.89	66.71	14.28	-42.1	-48.7	12.8	6.07e-01	0	57	0	257425408	56	7394
2026-01-20 23:46:08.90	66.95	14.32	-42.1	-48.6	12.8	6.05e-01	0	57	0	259522560	56	7296
2026-01-20 23:46:09.91	67.18	14.35	-42.1	-48.6	12.7	6.07e-01	0	57	0	261095424	56	7353
2026-01-20 23:46:10.92	67.41	14.39	-41.8	-48.0	13.2	6.06e-01	0	57	0	263192576	55	7258
2026-01-20 23:46:11.93	67.64	14.42	-41.7	-47.6	13.5	6.05e-01	0	57	0	265289728	55	6949
2026-01-20 23:46:12.94	67.87	14.46	-41.5	-47.1	14.0	6.05e-01	0	57	0	266862592	55	6509
2026-01-20 23:46:13.95	68.10	14.49	-41.5	-47.2	13.9	6.05e-01	0	57	0	268959744	55	6616
2026-01-20 23:46:14.96	68.34	14.53	-41.5	-47.2	13.9	6.04e-01	0	57	0	270532608	55	6603
2026-01-20 23:46:15.97	68.57	14.56	-41.5	-47.4	13.7	6.06e-01	0	57	0	272629760	54	7136
2026-01-20 23:46:16.98	68.81	14.60	-41.6	-47.6	13.4	6.06e-01	0	57	0	274726912	54	7338
2026-01-20 23:46:17.98	69.04	14.63	-41.6	-47.7	13.3	6.05e-01	0	57	0	276299776	54	7446
2026-01-20 23:46:18.99	69.28	14.66	-41.6	-47.8	13.1	6.07e-01	0	57	0	278396928	54	7541
2026-01-20 23:46:20.00	69.51	14.69	-41.6	-47.7	13.2	6.05e-01	0	57	0	280494080	54	7441
2026-01-20 23:46:21.02	69.75	14.72	-41.5	-47.6	13.2	6.05e-01	0	57	0	282066944	54	7341
2026-01-20 23:46:22.03	69.99	14.76	-41.3	-47.2	13.6	6.07e-01	0	57	0	284164096	54	7029
2026-01-20 23:46:23.04	70.23	14.79	-41.3	-47.3	13.5	6.04e-01	0	57	0	285736960	54	7074
2026-01-20 23:46:24.05	70.46	14.82	-41.4	-47.9	12.9	6.09e-01	0	57	0	287834112	54	7562
2026-01-20 23:46:25.06	70.70	14.85	-41.6	-48.9	11.8	6.09e-01	0	57	0	289931264	54	8486
2026-01-20 23:46:26.06	70.94	14.88	-41.7	-49.5	11.0	6.12e-01	0	57	0	291504128	54	9172
2026-01-20 23:46:27.07	71.18	14.91	-41.7	-49.5	10.9	6.16e-01	0	57	0	293601280	54	9167
2026-01-20 23:46:28.08	71.42	14.94	-41.6	-49.3	11.0	6.13e-01	0	57	0	295174144	54	8943
2026-01-20 23:46:29.09	71.66	14.96	-41.6	-50.0	10.2	6.19e-01	0	57	0	297271296	54	9668
2026-01-20 23:46:30.10	71.90	14.99	-41.7	-50.6	9.6	6.23e-01	0	57	0	299368448	54	10321
2026-01-20 23:46:31.11	72.15	15.02	-41.7	-51.2	8.8	6.35e-01	0	57	0	300941312	54	11129
2026-01-20 23:46:32.12	72.39	15.05	-41.7	-51.2	8.9	6.33e-01	0	57	0	303038464	54	11074
2026-01-20 23:46:33.13	72.63	15.07	-41.7	-51.1	8.9	6.31e-01	0	57	0	305135616	54	11021
2026-01-20 23:46:34.14	72.87	15.10	-41.6	-50.2	10.1	6.21e-01	0	57	0	306708480	54	9836
2026-01-20 23:46:35.15	73.12	15.13	-41.6	-49.5	10.8	6.15e-01	0	57	0	308805632	54	9083
2026-01-20 23:46:36.16	73.36	15.15	-41.6	-49.3	11.1	6.14e-01	0	57	0	310378496	54	8892
2026-01-20 23:46:37.17	73.61	15.18	-41.5	-49.0	11.5	6.11e-01	0	57	0	312475648	54	8603
2026-01-20 23:46:38.17	73.85	15.20	-41.5	-49.1	11.3	6.15e-01	0	57	0	314572800	54	8686
2026-01-20 23:46:39.19	74.10	15.23	-41.6	-49.6	10.8	6.16e-01	0	57	0	316145664	54	9217
2026-01-20 23:46:40.19	74.34	15.25	-41.6	-49.9	10.3	6.19e-01	0	57	0	318242816	54	9540
2026-01-20 23:46:41.20	74.59	15.27	-41.7	-50.6	9.6	6.26e-01	0	57	0	319815680	54	10367
2026-01-20 23:46:42.21	74.83	15.30	-41.7	-50.9	9.3	6.29e-01	0	57	0	321912832	54	10661
2026-01-20 23:46:43.22	75.08	15.32	-41.8	-51.1	9.1	6.31e-01	0	57	0	323485696	54	10952
2026-01-20 23:46:44.23	75.33	15.34	-41.9	-50.9	9.4	6.30e-01	0	57	0	325582848	54	10668
2026-01-20 23:46:45.24	75.58	15.36	-41.9	-50.6	9.8	6.24e-01	0	57	0	327680000	54	10353
2026-01-20 23:46:46.25	75.83	15.38	-41.9	-50.3	10.2	6.17e-01	0	57	0	329252864	54	9955
2026-01-20 23:46:47.26	76.07	15.40	-41.9	-50.2	10.3	6.19e-01	0	57	0	331350016	54	9840
2026-01-20 23:46:48.27	76.32	15.42	-41.9	-50.1	10.3	6.18e-01	0	57	0	333447168	54	9814
2026-01-20 23:46:49.27	76.57	15.44	-41.7	-49.2	11.3	6.13e-01	0	57	0	335020032	54	8854
2026-01-20 23:46:50.28	76.82	15.46	-41.7	-49.3	11.2	6.14e-01	0	57	0	337117184	54	8954
2026-01-20 23:46:51.30	77.07	15.48	-41.7	-49.5	11.1	6.13e-01	0	57	0	338690048	54	9080
2026-01-20 23:46:52.31	77.32	15.50	-41.7	-49.5	11.0	6.12e-01	0	57	0	340787200	54	9130
2026-01-20 23:46:53.31	77.57	15.52	-41.8	-49.7	10.9	6.15e-01	0	57	0	342884352	54	9323
2026-01-20 23:46:54.32	77.82	15.54	-41.9	-49.4	11.2	6.11e-01	0	57	0	344457216	54	9066
2026-01-20 23:46:55.33	78.07	15.55	-41.9	-49.1	11.7	6.09e-01	0	57	0	346554368	54	8697
2026-01-20 23:46:56.34	78.33	15.57	-41.8	-48.3	12.8	6.05e-01	0	57	0	348651520	54	7905
2026-01-20 23:46:57.35	78.58	15.58	-41.8	-47.9	13.2	6.04e-01	0	58	0	350224384	54	7604
2026-01-20 23:46:58.36	78.83	15.60	-41.8	-48.0	13.2	6.05e-01	0	57	0	352321536	54	7661
2026-01-20 23:46:59.37	79.08	15.62	-41.9	-48.1	13.1	6.05e-01	0	57	0	353894400	54	7800
2026-01-20 23:47:00.38	79.34	15.63	-41.9	-48.4	12.7	6.07e-01	0	57	0	355991552	54	8043
2026-01-20 23:47:01.39	79.59	15.64	-42.0	-49.0	12.0	6.10e-01	0	57	0	358088704	54	8630
2026-01-20 23:47:02.40	79.84	15.66	-41.8	-48.9	11.9	6.09e-01	0	57	0	359661568	54	8526
2026-01-20 23:47:03.41	80.10	15.67	-41.8	-49.1	11.6	6.08e-01	0	57	0	361758720	54	8729
2026-01-20 23:47:04.42	80.35	15.68	-41.9	-49.0	11.8	6.10e-01	0	57	0	363331584	54	8631
2026-01-20 23:47:05.43	80.60	15.69	-42.0	-49.3	11.6	6.12e-01	0	57	0	365428736	54	8921
2026-01-20 23:47:06.43	80.86	15.71	-42.0	-48.9	12.1	6.08e-01	0	57	0	367525888	54	8552
2026-01-20 23:47:07.44	81.11	15.72	-42.1	-48.8	12.4	6.09e-01	0	57	0	369098752	54	8402
2026-01-20 23:47:08.45	81.36	15.73	-42.1	-48.6	12.6	6.06e-01	0	57	0	371195904	54	8225
2026-01-20 23:47:09.46	81.62	15.74	-42.1	-48.4	12.9	6.06e-01	0	57	0	372768768	54	8051
2026-01-20 23:47:10.47	81.87	15.75	-42.0	-48.5	12.7	6.07e-01	0	57	0	374865920	54	8163
2026-01-20 23:47:11.48	82.13	15.76	-42.2	-49.0	12.2	6.08e-01	0	57	0	376963072	54	8607
2026-01-20 23:47:12.49	82.38	15.76	-42.2	-49.0	12.2	6.08e-01	0	57	0	378535936	54	8564
2026-01-20 23:47:13.50	82.64	15.77	-42.1	-48.4	12.8	6.08e-01	0	58	0	380633088	55	7570
2026-01-20 23:47:14.51	82.90	15.78	-42.0	-48.0	13.4	6.06e-01	0	58	0	382205952	55	7219
2026-01-20 23:47:15.52	83.15	15.79	-42.0	-47.9	13.4	6.06e-01	0	57	0	384303104	55	7186
2026-01-20 23:47:16.53	83.41	15.79	-42.0	-47.8	13.6	6.07e-01	0	57	0	386400256	55	7078
2026-01-20 23:47:17.54	83.66	15.80	-41.9	-47.8	13.6	6.07e-01	0	58	0	387973120	55	7081
2026-01-20 23:47:18.55	83.92	15.80	-42.0	-48.0	13.4	6.04e-01	0	58	0	390070272	55	7242
2026-01-20 23:47:19.56	84.18	15.81	-42.1	-48.4	12.9	6.06e-01	0	57	0	391643136	55	7581
2026-01-20 23:47:20.57	84.43	15.81	-42.1	-48.9	12.3	6.09e-01	0	57	0	393740288	55	8023
2026-01-20 23:47:21.58	84.69	15.82	-42.1	-48.7	12.4	6.05e-01	0	57	0	395837440	55	7876
2026-01-20 23:47:22.59	84.95	15.82	-42.0	-48.6	12.5	6.05e-01	0	57	0	397410304	55	7747
2026-01-20 23:47:23.60	85.20	15.82	-41.9	-48.4	12.7	6.07e-01	0	57	0	399507456	55	7574
2026-01-20 23:47:24.61	85.46	15.82	-42.0	-48.6	12.5	6.09e-01	0	58	0	401604608	55	7806
2026-01-20 23:47:25.61	85.71	15.83	-42.1	-48.8	12.3	6.08e-01	0	58	0	403177472	55	7981
2026-01-20 23:47:26.62	85.97	15.83	-42.1	-48.6	12.6	6.07e-01	0	57	0	405274624	55	7767
2026-01-20 23:47:27.63	86.23	15.83	-42.1	-48.5	12.8	6.08e-01	0	57	0	406847488	55	7663
2026-01-20 23:47:28.64	86.48	15.83	-42.0	-48.4	12.9	6.08e-01	0	57	0	408944640	55	7596
2026-01-20 23:47:29.65	86.74	15.83	-41.9	-48.3	12.9	6.04e-01	0	57	0	411041792	55	7516
2026-01-20 23:47:30.66	87.00	15.83	-41.8	-47.9	13.4	6.05e-01	0	57	0	412614656	55	7139
2026-01-20 23:47:31.67	87.25	15.83	-41.9	-47.9	13.5	6.06e-01	0	58	0	414711808	55	7140
2026-01-20 23:47:32.68	87.51	15.82	-42.0	-47.9	13.6	6.08e-01	0	57	0	416808960	55	7174
2026-01-20 23:47:33.69	87.77	15.82	-42.2	-47.9	13.9	6.06e-01	0	57	0	418381824	55	7122
2026-01-20 23:47:34.70	88.02	15.82	-42.2	-47.5	14.3	6.05e-01	0	58	0	420478976	55	6872
2026-01-20 23:47:35.71	88.28	15.81	-42.2	-47.3	14.8	6.06e-01	0	57	0	422051840	55	6668
2026-01-20 23:47:36.72	88.54	15.81	-42.1	-47.0	15.1	6.04e-01	0	58	0	424148992	55	6469
2026-01-20 23:47:37.73	88.79	15.81	-41.9	-46.5	15.6	6.03e-01	0	58	0	426246144	55	6106
2026-01-20 23:47:38.73	89.05	15.80	-41.8	-46.3	15.9	6.04e-01	0	58	0	427819008	55	5939
2026-01-20 23:47:39.74	89.30	15.80	-41.8	-46.1	16.1	6.04e-01	0	58	0	429916160	55	5842
2026-01-20 23:47:40.75	89.56	15.79	-42.0	-46.5	15.7	6.03e-01	0	58	0	431489024	55	6095
2026-01-20 23:47:41.76	89.81	15.78	-41.9	-46.4	15.9	6.03e-01	0	58	0	433586176	55	6010
2026-01-20 23:47:42.77	90.07	15.78	-41.8	-46.0	16.4	6.04e-01	0	58	0	435159040	55	5729
2026-01-20 23:47:43.78	90.33	15.77	-41.9	-46.0	16.5	6.03e-01	0	58	0	437256192	55	5735
2026-01-20 23:47:44.79	90.58	15.76	-41.9	-45.9	16.7	6.02e-01	0	58	0	439353344	55	5695
2026-01-20 23:47:45.80	90.84	15.75	-41.9	-45.9	16.8	6.04e-01	0	58	0	440926208	55	5697
2026-01-20 23:47:46.81	91.09	15.74	-41.9	-45.9	16.9	6.04e-01	0	58	0	443023360	55	5680
2026-01-20 23:47:47.82	91.35	15.73	-42.1	-46.2	16.6	6.05e-01	0	58	0	445120512	55	5859
2026-01-20 23:47:48.83	91.60	15.72	-42.0	-46.0	16.8	6.03e-01	0	58	0	446693376	55	5786
2026-01-20 23:47:49.84	91.86	15.71	-42.0	-45.8	17.0	6.03e-01	0	58	0	448790528	55	5653
2026-01-20 23:47:50.85	92.11	15.70	-42.0	-45.8	17.0	6.02e-01	0	58	0	450363392	55	5626
2026-01-20 23:47:51.85	92.36	15.69	-41.9	-45.6	17.2	6.04e-01	0	58	0	452460544	55	5525
2026-01-20 23:47:52.86	92.62	15.68	-41.9	-45.7	17.1	6.03e-01	0	57	0	454557696	55	5576
2026-01-20 23:47:53.87	92.87	15.66	-41.9	-45.7	17.1	6.00e-01	0	58	0	456130560	55	5567
2026-01-20 23:47:54.89	93.13	15.65	-41.8	-45.4	17.5	6.04e-01	0	58	0	458227712	55	5369
2026-01-20 23:47:55.89	93.38	15.64	-41.9	-45.6	17.3	6.07e-01	0	58	0	459800576	55	5496
2026-01-20 23:47:56.90	93.63	15.62	-41.9	-45.5	17.4	6.02e-01	0	58	0	461897728	55	5463
2026-01-20 23:47:57.91	93.89	15.61	-41.9	-45.5	17.4	6.02e-01	0	58	0	463994880	55	5463
2026-01-20 23:47:58.92	94.14	15.59	-41.9	-45.6	17.3	6.02e-01	0	58	0	465567744	55	5507
2026-01-20 23:47:59.93	94.39	15.58	-42.1	-45.9	17.1	6.02e-01	0	58	0	467664896	55	5669
2026-01-20 23:48:00.94	94.64	15.56	-42.0	-45.7	17.3	6.02e-01	0	58	0	469762048	55	5564
2026-01-20 23:48:01.95	94.90	15.54	-42.1	-46.0	17.0	6.05e-01	0	58	0	471334912	55	5749
2026-01-20 23:48:02.96	95.15	15.53	-42.1	-45.9	17.0	6.03e-01	0	58	0	473432064	55	5714
2026-01-20 23:48:03.97	95.40	15.51	-42.1	-45.9	17.1	6.03e-01	0	58	0	475004928	55	5696
2026-01-20 23:48:04.98	95.65	15.49	-41.9	-45.6	17.4	6.03e-01	0	58	0	477102080	55	5510
2026-01-20 23:48:05.99	95.90	15.47	-42.0	-45.8	17.2	6.05e-01	0	58	0	479199232	55	5636
2026-01-20 23:48:07.00	96.15	15.45	-42.1	-45.8	17.2	6.04e-01	0	58	0	480772096	55	5645
2026-01-20 23:48:08.01	96.40	15.43	-42.0	-45.8	17.3	6.05e-01	0	58	0	482869248	55	5607
2026-01-20 23:48:09.02	96.65	15.41	-42.1	-45.9	17.1	6.02e-01	0	58	0	484442112	55	5693
2026-01-20 23:48:10.02	96.90	15.39	-42.1	-46.1	17.0	6.03e-01	0	58	0	486539264	55	5797
2026-01-20 23:48:11.03	97.15	15.37	-42.2	-46.2	16.9	6.06e-01	0	58	0	488636416	55	5857
2026-01-20 23:48:12.04	97.40	15.35	-42.0	-45.8	17.3	6.04e-01	0	58	0	490209280	55	5613
2026-01-20 23:48:13.05	97.64	15.33	-42.1	-45.9	17.1	6.04e-01	0	58	0	492306432	55	5699
2026-01-20 23:48:14.06	97.89	15.31	-42.1	-45.9	17.1	6.02e-01	0	58	0	493879296	55	5719
2026-01-20 23:48:15.07	98.14	15.29	-42.2	-46.0	17.1	5.99e-01	0	58	0	495976448	55	5760
2026-01-20 23:48:16.08	98.39	15.26	-42.1	-46.0	17.1	6.03e-01	0	58	0	498073600	55	5742
2026-01-20 23:48:17.09	98.63	15.24	-42.0	-45.7	17.3	6.02e-01	0	58	0	499646464	55	5561
2026-01-20 23:48:18.10	98.88	15.21	-42.2	-46.0	17.0	6.03e-01	0	58	0	501743616	55	5759
2026-01-20 23:48:19.11	99.13	15.19	-42.3	-46.3	16.8	6.04e-01	0	58	0	503316480	55	5956
2026-01-20 23:48:20.12	99.37	15.16	-42.2	-46.2	16.9	6.02e-01	0	58	0	505413632	54	6241
2026-01-20 23:48:21.13	99.62	15.14	-40.9	-45.9	15.9	6.04e-01	0	58	0	507510784	52	6725
2026-01-20 23:48:22.14	99.86	15.11	-41.8	-45.6	17.4	6.03e-01	0	58	0	509083648	54	5842
2026-01-20 23:48:23.14	100.10	15.09	-41.7	-45.4	17.6	6.04e-01	0	58	0	511180800	54	5707
2026-01-20 23:48:24.15	100.35	15.06	-41.7	-45.5	17.6	6.02e-01	0	58	0	513277952	54	5759
2026-01-20 23:48:25.16	100.59	15.03	-41.5	-45.4	17.7	6.03e-01	0	58	0	514850816	54	5677
2026-01-20 23:48:26.17	100.83	15.01	-41.5	-45.2	17.8	6.04e-01	0	58	0	516947968	53	5888
2026-01-20 23:48:27.18	101.08	14.98	-41.5	-45.2	17.7	6.02e-01	0	58	0	518520832	53	5881
2026-01-20 23:48:28.19	101.32	14.95	-37.7	-45.3	12.4	6.09e-01	6	58	0	520617984	44	9996
2026-01-20 23:48:29.20	101.56	14.92	-41.2	-45.6	14.3	6.03e-01	0	58	0	522715136	46	9212
2026-01-20 23:48:30.21	101.80	14.89	-35.3	-45.0	12.5	6.10e-01	9	58	0	524288000	43	10291
2026-01-20 23:48:31.22	102.04	14.86	-38.9	-45.3	14.6	6.06e-01	0	57	0	526385152	48	7964
2026-01-20 23:48:32.23	102.28	14.83	-41.8	-45.5	17.4	6.04e-01	0	58	0	527958016	54	5752
2026-01-20 23:48:33.24	102.52	14.80	-41.9	-45.8	17.2	6.05e-01	0	58	0	530055168	54	5932
2026-01-20 23:48:34.25	102.76	14.77	-41.7	-45.6	17.5	6.01e-01	0	58	0	532152320	54	5796
2026-01-20 23:48:35.26	103.00	14.74	-41.9	-45.8	17.1	6.04e-01	0	57	0	533725184	54	5942
2026-01-20 23:48:36.26	103.24	14.71	-41.9	-45.8	17.2	6.05e-01	0	58	0	535822336	54	5964
2026-01-20 23:48:37.27	103.47	14.67	-42.0	-45.9	17.1	6.03e-01	0	58	0	537919488	54	6029
2026-01-20 23:48:38.28	103.71	14.64	-42.0	-45.9	17.1	6.02e-01	0	58	0	539492352	54	6057
2026-01-20 23:48:39.29	103.95	14.61	-42.0	-45.9	17.1	6.04e-01	0	58	0	541589504	54	5996
2026-01-20 23:48:40.30	104.18	14.58	-40.4	-45.7	16.7	6.04e-01	0	58	0	543162368	52	6625
2026-01-20 23:48:41.31	104.42	14.54	-41.8	-46.1	16.8	6.03e-01	0	58	0	545259520	54	6195
2026-01-20 23:48:42.32	104.65	14.51	-41.9	-46.0	17.0	6.03e-01	0	58	0	547356672	54	6125
2026-01-20 23:48:43.33	104.89	14.47	-41.7	-45.9	17.1	6.05e-01	0	58	0	548929536	54	6017
2026-01-20 23:48:44.34	105.12	14.44	-41.5	-45.7	17.3	6.04e-01	0	58	0	551026688	54	5905
2026-01-20 23:48:45.35	105.35	14.40	-42.0	-45.7	17.3	6.04e-01	0	58	0	552599552	54	5904
2026-01-20 23:48:46.36	105.59	14.37	-42.0	-45.8	17.2	6.02e-01	0	58	0	554696704	54	5949
2026-01-20 23:48:47.37	105.82	14.33	-41.3	-45.8	17.1	6.06e-01	0	58	0	556269568	53	6309
2026-01-20 23:48:48.38	106.05	14.30	-41.0	-45.9	16.5	6.06e-01	0	58	0	558366720	54	6047
2026-01-20 23:48:49.39	106.28	14.26	-42.0	-46.0	16.8	6.02e-01	0	58	0	560463872	54	6128
2026-01-20 23:48:50.40	106.51	14.22	-41.6	-46.0	16.4	6.05e-01	0	58	0	562036736	54	6081
2026-01-20 23:48:51.41	106.74	14.19	-42.1	-45.9	16.9	6.03e-01	0	57	0	564133888	54	6046
2026-01-20 23:48:52.42	106.97	14.15	-41.7	-45.5	17.3	6.02e-01	0	58	0	566231040	54	5775
2026-01-20 23:48:53.43	107.20	14.11	-41.9	-45.6	17.1	6.04e-01	0	58	0	567803904	54	5849
2026-01-20 23:48:54.44	107.42	14.07	-41.9	-45.7	17.2	6.04e-01	0	58	0	569901056	54	5908
2026-01-20 23:48:55.45	107.65	14.03	-42.1	-45.9	17.1	6.04e-01	0	58	0	571473920	54	6002
2026-01-20 23:48:56.46	107.88	13.99	-42.1	-45.8	17.3	6.02e-01	0	58	0	573571072	54	5992
2026-01-20 23:48:57.46	108.10	13.95	-42.1	-45.9	17.2	6.04e-01	0	58	0	575668224	54	6044
2026-01-20 23:48:58.48	108.33	13.91	-42.2	-46.0	17.2	6.02e-01	0	58	0	577241088	54	6076
2026-01-20 23:48:59.48	108.55	13.88	-42.1	-46.0	17.0	6.04e-01	0	58	0	579338240	54	6078
2026-01-20 23:49:00.49	108.78	13.84	-42.1	-45.8	17.3	6.04e-01	0	58	0	581435392	55	5638
2026-01-20 23:49:01.51	109.00	13.79	-42.1	-45.8	17.3	6.01e-01	0	58	0	583008256	54	5959
2026-01-20 23:49:02.52	109.22	13.75	-42.1	-45.8	17.3	6.03e-01	0	58	0	585105408	54	5992
2026-01-20 23:49:03.52	109.44	13.71	-42.1	-45.9	17.2	6.04e-01	0	58	0	586678272	54	5997
2026-01-20 23:49:04.53	109.67	13.67	-42.1	-45.8	17.3	6.02e-01	0	58	0	588775424	54	5981
2026-01-20 23:49:05.54	109.89	13.63	-42.1	-45.8	17.3	6.03e-01	0	58	0	590872576	54	5973
2026-01-20 23:49:06.55	110.11	13.59	-42.1	-45.9	17.2	6.02e-01	0	57	0	592445440	54	6030
2026-01-20 23:49:07.56	110.33	13.55	-42.2	-46.0	17.2	6.02e-01	0	58	0	594542592	54	6067
2026-01-20 23:49:08.57	110.54	13.50	-42.2	-45.9	17.2	6.04e-01	0	58	0	596115456	54	6044
2026-01-20 23:49:09.58	110.76	13.46	-42.2	-45.9	17.2	6.03e-01	0	58	0	598212608	54	6037
2026-01-20 23:49:10.59	110.98	13.42	-42.2	-45.9	17.2	6.03e-01	0	58	0	600309760	54	6059
2026-01-20 23:49:11.60	111.20	13.37	-42.2	-45.9	17.2	6.05e-01	0	58	0	601882624	54	6040
2026-01-20 23:49:12.61	111.41	13.33	-42.2	-45.9	17.2	6.04e-01	0	58	0	603979776	54	6032
2026-01-20 23:49:13.62	111.63	13.29	-42.1	-45.9	17.2	6.02e-01	0	58	0	605552640	54	6009
2026-01-20 23:49:14.63	111.84	13.24	-42.1	-45.9	17.2	6.06e-01	0	58	0	607649792	54	6029
2026-01-20 23:49:15.64	112.06	13.20	-42.2	-45.9	17.2	6.04e-01	0	58	0	609746944	54	6056
2026-01-20 23:49:16.65	112.27	13.15	-42.1	-45.9	17.2	6.04e-01	0	58	0	611319808	54	6027
2026-01-20 23:49:17.66	112.48	13.11	-42.1	-45.7	17.4	6.04e-01	0	58	0	613416960	54	5919
2026-01-20 23:49:18.67	112.70	13.06	-42.1	-45.7	17.3	6.03e-01	0	58	0	614989824	54	5913
2026-01-20 23:49:19.68	112.91	13.02	-42.1	-45.8	17.3	6.05e-01	0	58	0	617086976	54	5981
2026-01-20 23:49:20.68	113.12	12.97	-42.2	-46.0	17.1	6.05e-01	0	58	0	619184128	54	6081
2026-01-20 23:49:21.69	113.33	12.92	-42.2	-46.0	17.1	6.04e-01	0	58	0	620756992	54	6092
2026-01-20 23:49:22.70	113.54	12.88	-42.1	-46.1	16.9	6.04e-01	0	58	0	622854144	55	5830
2026-01-20 23:49:23.71	113.75	12.83	-42.0	-45.8	17.2	6.01e-01	0	58	0	624427008	55	5617
2026-01-20 23:49:24.72	113.95	12.79	-42.1	-45.8	17.2	6.04e-01	0	58	0	626524160	55	5617
2026-01-20 23:49:25.73	114.16	12.74	-41.9	-45.8	17.1	6.03e-01	0	58	0	628621312	54	5985
2026-01-20 23:49:26.74	114.37	12.69	-42.0	-45.9	17.1	6.03e-01	0	58	0	630194176	54	5997
2026-01-20 23:49:27.75	114.57	12.64	-41.9	-45.8	16.8	6.04e-01	0	58	0	632291328	54	5937
2026-01-20 23:49:28.76	114.78	12.60	-41.9	-45.8	16.7	6.03e-01	0	58	0	634388480	54	5968
2026-01-20 23:49:29.77	114.98	12.55	-42.0	-46.3	15.2	6.06e-01	0	58	0	635961344	54	6311
2026-01-20 23:49:30.78	115.19	12.50	-40.9	-45.6	15.9	6.05e-01	0	58	0	638058496	52	6556
2026-01-20 23:49:31.79	115.39	12.45	-41.4	-46.0	14.8	6.08e-01	2	58	0	639631360	53	6461
2026-01-20 23:49:32.80	115.59	12.40	-41.7	-46.3	14.2	6.06e-01	3	58	0	641728512	53	6695
2026-01-20 23:49:33.81	115.80	12.35	-41.4	-46.2	12.8	6.12e-01	9	58	0	643825664	53	6626
2026-01-20 23:49:34.82	116.00	12.31	-41.3	-46.0	12.7	6.13e-01	18	58	0	645398528	53	6470
2026-01-20 23:49:35.83	116.20	12.26	-40.3	-46.0	12.4	6.25e-01	26	58	0	647495680	49	8131
2026-01-20 23:49:36.84	116.40	12.21	-41.4	-46.0	12.4	6.16e-01	22	58	0	649068544	52	6805
2026-01-20 23:49:37.85	116.60	12.16	-39.8	-45.5	12.6	6.13e-01	22	58	0	651165696	51	6868
2026-01-20 23:49:38.85	116.79	12.11	-40.7	-45.6	10.9	6.12e-01	23	58	0	652738560	50	7342
2026-01-20 23:49:39.86	116.99	12.06	-41.1	-45.8	10.9	6.34e-01	32	58	0	654835712	49	7917
2026-01-20 23:49:40.87	117.19	12.01	-39.8	-45.8	11.2	6.34e-01	35	58	0	656408576	48	8428
2026-01-20 23:49:41.88	117.38	11.96	-39.1	-45.9	11.6	6.08e-01	10	58	0	658505728	52	6762
2026-01-20 23:49:42.89	117.58	11.91	-37.9	-45.9	10.3	6.36e-01	15	58	0	660078592	48	8547
2026-01-20 23:49:43.90	117.77	11.86	-36.8	-45.4	10.4	6.17e-01	33	58	0	661651456	48	8007
2026-01-20 23:49:44.91	117.97	11.81	-38.7	-45.5	10.2	6.36e-01	43	58	0	663748608	48	8157
2026-01-20 23:49:45.92	118.16	11.76	-30.7	-44.0	7.5	6.60e-01	47	58	104	664272896	41	10245
2026-01-20 23:49:46.93	118.35	11.71	-40.9	-46.1	11.0	6.20e-01	39	58	104	664272896	48	8743
2026-01-20 23:49:47.94	118.55	11.66	-41.8	-46.3	11.3	6.05e-01	24	58	0	665845760	52	7109
2026-01-20 23:49:48.95	118.74	11.60	-39.4	-46.0	9.8	6.13e-01	32	58	0	667418624	48	8578
2026-01-20 23:49:49.96	118.93	11.55	-40.0	-46.0	10.8	6.26e-01	38	58	0	669515776	50	7702
2026-01-20 23:49:50.97	119.12	11.50	-41.9	-46.6	10.4	6.13e-01	36	58	0	670040064	51	7741
2026-01-20 23:49:51.98	119.31	11.45	-40.1	-46.2	12.5	6.09e-01	17	58	0	671612928	49	8341
2026-01-20 23:49:52.99	119.50	11.40	-41.3	-46.0	12.5	6.07e-01	10	58	104	672137216	52	6869
2026-01-20 23:49:54.00	119.68	11.35	-40.8	-46.6	5.1	7.07e-01	0	58	104	673185792	51	7752
2026-01-20 23:49:55.01	119.87	11.29	-39.8	-45.7	13.5	6.09e-01	18	58	0	674234368	50	7396
2026-01-20 23:49:56.02	120.06	11.24	-37.8	-46.0	12.2	6.12e-01	20	58	0	675807232	51	7268
2026-01-20 23:49:57.03	120.24	11.19	-41.4	-46.1	12.8	6.15e-01	17	58	0	677380096	50	7762
2026-01-20 23:49:58.03	120.43	11.14	-41.3	-46.6	10.9	6.18e-01	25	58	0	679477248	51	7736
2026-01-20 23:49:59.05	120.61	11.08	-40.3	-47.0	11.3	6.18e-01	37	58	104	680001536	52	7709
2026-01-20 23:50:00.05	120.80	11.03	-41.5	-46.5	12.0	6.12e-01	26	58	0	680001536	51	7702
2026-01-20 23:50:01.07	120.98	10.98	-35.6	-45.6	10.6	6.36e-01	22	58	0	681574400	49	7767
2026-01-20 23:50:02.08	121.16	10.92	-38.5	-46.0	10.6	6.28e-01	44	58	0	683147264	50	7666
2026-01-20 23:50:03.09	121.34	10.87	-41.2	-46.4	11.7	6.14e-01	35	58	0	685244416	51	7621
2026-01-20 23:50:04.09	121.52	10.82	-35.0	-44.4	9.4	6.43e-01	63	58	0	686292992	42	10105
2026-01-20 23:50:05.10	121.70	10.77	-38.5	-45.9	11.4	6.18e-01	46	58	0	686292992	52	6728
2026-01-20 23:50:06.12	121.89	10.71	-40.8	-46.4	9.0	6.30e-01	69	58	0	687865856	49	8477
2026-01-20 23:50:07.13	122.06	10.66	-35.7	-45.3	9.8	6.23e-01	64	58	0	689438720	49	7492
2026-01-20 23:50:08.13	122.24	10.60	-38.2	-44.8	9.0	6.38e-01	26	58	0	690487296	43	10043
2026-01-20 23:50:09.14	122.42	10.55	-36.2	-44.7	8.2	6.48e-01	70	58	0	691535872	42	10468
2026-01-20 23:50:10.15	122.59	10.50	-35.3	-45.5	4.9	7.35e-01	0	58	104	692584448	37	15349
2026-01-20 23:50:11.16	122.77	10.44	-38.3	-44.4	6.9	6.43e-01	19	58	104	692584448	42	10158
2026-01-20 23:50:12.17	122.95	10.39	-29.5	-43.9	6.9	6.68e-01	0	58	0	692584448	40	10672
2026-01-20 23:50:13.18	123.12	10.33	-19.1	-36.5	4.1	7.44e-01	0	58	104	692584448	28	9115
2026-01-20 23:50:14.19	123.30	10.28	-38.5	-46.2	4.9	7.20e-01	0	58	104	692584448	44	11088
2026-01-20 23:50:15.20	123.47	10.23	-35.1	-45.4	8.3	6.42e-01	92	58	0	692584448	45	9565
2026-01-20 23:50:16.21	123.64	10.17	-32.6	-44.3	4.2	7.40e-01	0	58	104	693108736	32	17825
2026-01-20 23:50:17.22	123.81	10.12	-37.0	-45.9	8.1	6.40e-01	80	58	104	693108736	44	10757
2026-01-20 23:50:18.23	123.99	10.06	-23.3	-40.4	4.3	7.46e-01	0	58	104	693108736	26	16121
2026-01-20 23:50:19.23	124.15	10.01	-31.1	-45.0	4.9	7.35e-01	0	58	104	693108736	32	19370
2026-01-20 23:50:20.24	124.32	9.95	-23.8	-49.5	4.5	7.49e-01	0	58	104	693108736	36	25718
2026-01-20 23:50:21.25	124.49	9.90	-28.4	-46.2	4.5	7.40e-01	0	58	104	693108736	33	20805
2026-01-20 23:50:22.26	124.66	9.84	-25.7	-40.6	3.7	7.60e-01	0	58	104	693108736	19	24582
2026-01-20 23:50:23.27	124.83	9.79	-30.9	-52.0	3.7	7.62e-01	0	58	104	693108736	41	25583
2026-01-20 23:50:24.28	125.00	9.73	-22.3	-43.4	4.0	7.60e-01	0	58	104	693108736	15	42563
2026-01-20 23:50:25.29	125.17	9.68	-22.9	-41.5	3.4	7.70e-01	0	58	104	693108736	13	38640
2026-01-20 23:50:26.30	125.33	9.62	-12.3	-36.3	4.1	7.61e-01	0	58	104	693108736	3	37788
2026-01-20 23:50:27.31	125.50	9.57	-18.5	-39.7	3.2	7.50e-01	0	58	104	693108736	7	44086
2026-01-20 23:50:28.32	125.66	9.51	-14.0	-36.1	3.7	7.59e-01	0	58	104	693108736	11	23287
2026-01-20 23:50:29.33	125.83	9.46	-22.7	-40.3	3.9	7.40e-01	0	58	104	693108736	13	33619
2026-01-20 23:50:30.34	125.99	9.40	-14.0	-38.4	3.9	7.41e-01	0	58	104	693108736	8	35812
2026-01-20 23:50:31.35	126.15	9.35	-21.1	-41.1	7.4	7.59e-01	0	58	104	693108736	15	32634
2026-01-20 23:50:32.36	126.31	9.29	-19.8	-39.6	3.8	7.43e-01	0	58	104	693108736	10	36619
2026-01-20 23:50:33.37	126.48	9.24	-17.6	-40.0	3.0	7.53e-01	0	58	104	693108736	6	48510
2026-01-20 23:50:34.38	126.64	9.18	-13.6	-29.1	3.7	7.57e-01	0	58	104	693108736	0	19552
2026-01-20 23:50:35.39	126.80	9.12	-16.3	-35.2	3.4	7.54e-01	0	58	104	693108736	1	37320
2026-01-20 23:50:36.40	126.96	9.07	-19.7	-35.6	3.9	7.27e-01	0	58	104	693108736	5	30847
2026-01-20 23:50:37.41	127.12	9.01	-21.8	-35.2	4.0	7.31e-01	0	58	104	693108736	8	24821
2026-01-20 23:50:38.42	127.27	8.96	-12.3	-34.4	3.6	7.53e-01	0	58	104	693108736	5	26825
2026-01-20 23:50:39.42	127.43	8.90	-17.3	-33.2	3.2	7.45e-01	0	58	104	693108736	1	29680
2026-01-20 23:50:40.43	127.59	8.85	-17.1	-31.0	3.6	7.52e-01	0	58	104	693108736	0	24258
2026-01-20 23:50:41.44	127.74	8.79	-17.4	-33.5	3.8	7.35e-01	0	58	104	693108736	1	30388
2026-01-20 23:50:42.45	127.90	8.73	-17.4	-35.7	3.7	7.41e-01	0	58	104	693108736	4	32935
2026-01-20 23:50:43.46	128.05	8.68	-11.9	-32.1	2.9	7.33e-01	0	58	104	693108736	1	26107
2026-01-20 23:50:44.47	128.21	8.62	-15.8	-32.2	3.4	7.36e-01	0	58	104	693108736	0	27857
2026-01-20 23:50:45.48	128.36	8.57	-10.5	-32.9	2.9	7.38e-01	0	58	104	693108736	0	30214
2026-01-20 23:50:46.49	128.52	8.51	-18.7	-33.2	3.1	7.48e-01	0	58	104	693108736	1	29645
2026-01-20 23:50:47.49	128.67	8.45	-16.3	-34.2	3.3	7.21e-01	0	58	104	693108736	1	33126
2026-01-20 23:50:48.50	128.82	8.40	-13.9	-32.9	3.0	7.53e-01	0	58	104	693108736	0	30043
2026-01-20 23:50:49.52	128.97	8.34	-12.6	-36.4	2.8	7.39e-01	0	58	104	693108736	3	37907
2026-01-20 23:50:50.53	129.12	8.29	-13.6	-32.6	3.4	7.64e-01	0	58	104	693108736	0	29023
2026-01-20 23:50:51.53	129.27	8.23	-15.9	-32.1	3.2	7.35e-01	0	58	104	693108736	0	27419
2026-01-20 23:50:52.54	129.42	8.17	-12.3	-33.1	2.8	7.33e-01	0	58	104	693108736	1	29098
2026-01-20 23:50:53.55	129.57	8.12	-13.1	-32.7	3.3	7.42e-01	0	58	104	693108736	0	29372
2026-01-20 23:50:54.56	129.72	8.06	-8.2	-30.5	3.4	7.57e-01	0	58	104	693108736	0	22992
2026-01-20 23:50:55.57	129.87	8.01	-16.2	-35.3	3.0	7.34e-01	0	58	104	693108736	2	35476
2026-01-20 23:50:56.58	130.01	7.95	-44.1	-64.3	3.3	7.36e-01	0	58	104	693108736	53	53313
2026-01-20 23:50:57.59	130.16	7.89	-45.8	-64.4	3.8	7.46e-01	0	58	104	693108736	62	31936
2026-01-20 23:50:58.60	130.31	7.84	-46.1	-64.7	3.8	7.48e-01	0	58	104	693108736	62	33105
2026-01-20 23:50:59.61	130.45	7.78	-46.3	-64.9	3.8	7.43e-01	0	58	104	693108736	63	31845
2026-01-20 23:51:00.62	130.60	7.72	-46.4	-65.0	3.8	7.47e-01	0	58	104	693108736	63	32322
2026-01-20 23:51:01.63	130.74	7.67	-46.5	-65.1	3.8	7.48e-01	0	58	104	693108736	63	32755
2026-01-20 23:51:02.64	130.89	7.61	-46.6	-65.2	3.8	7.47e-01	0	58	104	693108736	63	33105
2026-01-20 23:51:03.65	131.03	7.55	-46.7	-65.3	3.8	7.46e-01	0	58	104	693108736	63	33424
2026-01-20 23:51:04.66	131.17	7.50	-46.7	-65.2	3.8	7.46e-01	0	58	104	693108736	64	31338
2026-01-20 23:51:05.67	131.31	7.44	-46.6	-65.1	3.8	7.44e-01	0	58	104	693108736	64	31068
2026-01-20 23:51:06.68	131.45	7.39	-46.5	-65.0	3.8	7.47e-01	0	58	104	693108736	64	30719
2026-01-20 23:51:07.69	131.60	7.33	-46.4	-65.0	3.8	7.45e-01	0	58	104	693108736	64	30602
2026-01-20 23:51:08.70	131.74	7.27	-46.4	-65.0	3.8	7.46e-01	0	58	104	693108736	64	30411
2026-01-20 23:51:09.71	131.87	7.22	-46.3	-64.9	3.8	7.47e-01	0	58	104	693108736	64	30274
2026-01-20 23:51:10.72	132.01	7.16	-46.4	-64.9	3.8	7.46e-01	0	58	104	693108736	64	30334
2026-01-20 23:51:11.74	132.15	7.10	-46.3	-64.8	3.8	7.45e-01	0	58	104	693108736	64	29890
2026-01-20 23:51:12.75	132.29	7.05	-46.3	-64.8	3.8	7.47e-01	0	58	104	693108736	64	29873
2026-01-20 23:51:13.76	132.43	6.99	-46.2	-64.8	3.8	7.44e-01	0	58	104	693108736	64	29934
2026-01-20 23:51:14.77	132.57	6.93	-46.2	-64.8	3.8	7.44e-01	0	58	104	693108736	64	29915
2026-01-20 23:51:15.78	132.70	6.88	-46.2	-64.8	3.8	7.49e-01	0	58	104	693108736	64	29961
2026-01-20 23:51:16.79	132.84	6.82	-46.2	-64.8	3.8	7.47e-01	0	58	104	693108736	64	29910
2026-01-20 23:51:17.80	132.97	6.77	-46.2	-64.8	3.8	7.45e-01	0	58	104	693108736	64	29849
2026-01-20 23:51:18.81	133.11	6.71	-46.2	-64.8	3.8	7.45e-01	0	58	104	693108736	64	29934
2026-01-20 23:51:19.82	133.24	6.65	-46.2	-64.8	3.8	7.45e-01	0	58	104	693108736	64	29960
2026-01-20 23:51:20.83	133.38	6.60	-46.2	-64.8	3.8	7.43e-01	0	58	104	693108736	64	29869
2026-01-20 23:51:21.84	133.51	6.54	-46.2	-64.8	3.8	7.43e-01	0	58	104	693108736	64	29848
2026-01-20 23:51:22.85	133.64	6.48	-46.2	-64.8	3.8	7.45e-01	0	58	104	693108736	64	29884
2026-01-20 23:51:23.86	133.77	6.43	-46.2	-64.8	3.8	7.43e-01	0	58	104	693108736	64	29843
2026-01-20 23:51:24.87	133.90	6.37	-46.2	-64.8	3.8	7.45e-01	0	58	104	693108736	64	29937
2026-01-20 23:51:25.89	134.04	6.32	-46.2	-64.8	3.8	7.45e-01	0	58	104	693108736	64	29819
2026-01-20 23:51:26.90	134.17	6.26	-46.2	-64.8	3.8	7.47e-01	0	58	104	693108736	64	29864
2026-01-20 23:51:27.91	134.30	6.20	-46.2	-64.8	3.8	7.45e-01	0	58	104	693108736	64	29825
2026-01-20 23:51:28.92	134.43	6.15	-46.2	-64.8	3.8	7.44e-01	0	58	104	693108736	64	29794
2026-01-20 23:51:29.93	134.55	6.09	-46.2	-64.8	3.8	7.45e-01	0	58	104	693108736	64	29798
2026-01-20 23:51:30.94	134.68	6.03	-46.2	-64.8	3.8	7.47e-01	0	58	104	693108736	64	29767
2026-01-20 23:51:31.95	134.81	5.98	-46.2	-64.8	3.8	7.41e-01	0	58	104	693108736	64	29800
2026-01-20 23:51:32.96	134.94	5.92	-46.2	-64.8	3.8	7.47e-01	0	58	104	693108736	64	29785
2026-01-20 23:51:33.97	135.06	5.87	-46.2	-64.8	3.8	7.48e-01	0	58	104	693108736	64	29766
2026-01-20 23:51:34.98	135.19	5.81	-46.2	-64.7	3.8	7.45e-01	0	58	104	693108736	64	29659
2026-01-20 23:51:35.99	135.32	5.75	-46.2	-64.8	3.8	7.43e-01	0	58	104	693108736	64	29795
2026-01-20 23:51:37.00	135.44	5.70	-46.2	-64.8	3.8	7.46e-01	0	58	104	693108736	64	29850
2026-01-20 23:51:38.01	135.57	5.64	-46.2	-64.8	3.8	7.47e-01	0	58	104	693108736	64	29771
2026-01-20 23:51:39.02	135.69	5.59	-46.2	-64.8	3.8	7.46e-01	0	58	104	693108736	64	29743
2026-01-20 23:51:40.03	135.81	5.53	-46.2	-64.8	3.8	7.44e-01	0	58	104	693108736	64	29743
2026-01-20 23:51:41.04	135.94	5.48	-46.2	-64.8	3.8	7.45e-01	0	58	104	693108736	64	29761
2026-01-20 23:51:42.05	136.06	5.42	-46.2	-64.8	3.8	7.44e-01	0	58	104	693108736	64	29788
2026-01-20 23:51:43.06	136.18	5.36	-46.2	-64.8	3.8	7.47e-01	0	58	104	693108736	64	29691
2026-01-20 23:51:44.07	136.30	5.31	-46.2	-64.8	3.8	7.49e-01	0	58	104	693108736	64	29733
2026-01-20 23:51:45.09	136.42	5.25	-46.2	-64.8	3.8	7.46e-01	0	58	104	693108736	64	29720
2026-01-20 23:51:46.10	136.55	5.20	-46.2	-64.8	3.8	7.47e-01	0	58	104	693108736	64	29816
2026-01-20 23:51:47.11	136.67	5.14	-46.2	-64.8	3.8	7.44e-01	0	58	104	693108736	64	29732
2026-01-20 23:51:48.12	136.78	5.08	-46.2	-64.8	3.8	7.47e-01	0	58	104	693108736	64	29699
2026-01-20 23:51:49.13	136.90	5.03	-46.2	-64.8	3.8	7.48e-01	0	58	104	693108736	64	29728
2026-01-20 23:51:50.14	137.02	4.97	-46.2	-64.7	3.8	7.48e-01	0	58	104	693108736	64	29573
2026-01-20 23:51:51.15	137.14	4.92	-46.2	-64.7	3.8	7.44e-01	0	58	104	693108736	64	29674
2026-01-20 23:51:52.16	137.26	4.86	-46.2	-64.8	3.8	7.45e-01	0	58	104	693108736	64	29740
2026-01-20 23:51:53.17	137.38	4.81	-46.2	-64.8	3.8	7.46e-01	0	58	104	693108736	64	29703
2026-01-20 23:51:54.18	137.49	4.75	-46.2	-64.7	3.8	7.45e-01	0	58	104	693108736	64	29610
2026-01-20 23:51:55.19	137.61	4.70	-46.2	-64.7	3.8	7.45e-01	0	58	104	693108736	64	29675
2026-01-20 23:51:56.20	137.73	4.64	-46.2	-64.7	3.8	7.46e-01	0	58	104	693108736	64	29681
2026-01-20 23:51:57.21	137.84	4.59	-46.2	-64.7	3.8	7.43e-01	0	58	104	693108736	64	29660
2026-01-20 23:51:58.22	137.96	4.53	-46.2	-64.8	3.8	7.41e-01	0	58	104	693108736	64	29688
2026-01-20 23:51:59.23	138.07	4.48	-46.2	-64.8	3.8	7.45e-01	0	58	104	693108736	64	29722
2026-01-20 23:52:00.24	138.18	4.42	-46.2	-64.7	3.8	7.42e-01	0	58	104	693108736	64	29685
2026-01-20 23:52:01.25	138.30	4.36	-46.2	-64.8	3.8	7.45e-01	0	58	104	693108736	64	29689
2026-01-20 23:52:02.26	138.41	4.31	-46.2	-64.7	3.8	7.43e-01	0	58	104	693108736	64	29683
2026-01-20 23:52:03.27	138.52	4.25	-46.2	-64.7	3.8	7.45e-01	0	58	104	693108736	64	29624
2026-01-20 23:52:04.28	138.64	4.20	-46.2	-64.7	3.8	7.47e-01	0	58	104	693108736	64	29597
2026-01-20 23:52:05.29	138.75	4.14	-46.2	-64.7	3.8	7.46e-01	0	58	104	693108736	64	29645
2026-01-20 23:52:06.30	138.86	4.09	-46.2	-64.7	3.8	7.46e-01	0	58	104	693108736	64	29653
2026-01-20 23:52:07.31	138.97	4.03	-46.2	-64.7	3.8	7.45e-01	0	58	104	693108736	64	29663
2026-01-20 23:52:08.32	139.08	3.98	-46.2	-64.7	3.8	7.48e-01	0	59	104	693108736	64	29635
2026-01-20 23:52:09.33	139.19	3.93	-46.2	-64.7	3.8	7.49e-01	0	58	104	693108736	64	29605
2026-01-20 23:52:10.34	139.30	3.87	-46.2	-64.7	3.8	7.45e-01	0	59	104	693108736	64	29669
2026-01-20 23:52:11.35	139.41	3.82	-46.2	-64.7	3.8	7.44e-01	0	58	104	693108736	64	29602
2026-01-20 23:52:12.37	139.52	3.76	-46.2	-64.7	3.8	7.46e-01	0	58	104	693108736	64	29648
2026-01-20 23:52:13.38	139.63	3.71	-46.2	-64.7	3.8	7.47e-01	0	58	104	693108736	64	29604
2026-01-20 23:52:14.39	139.74	3.65	-46.1	-64.7	3.8	7.45e-01	0	58	104	693108736	64	29588
2026-01-20 23:52:15.40	139.84	3.60	-46.2	-64.7	3.8	7.43e-01	0	58	104	693108736	64	29543
2026-01-20 23:52:16.41	139.95	3.54	-46.2	-64.7	3.8	7.43e-01	0	58	104	693108736	64	29647
2026-01-20 23:52:17.42	140.06	3.49	-46.1	-64.7	3.8	7.49e-01	0	58	104	693108736	64	29608
2026-01-20 23:52:18.43	140.16	3.43	-46.1	-64.7	3.8	7.44e-01	0	58	104	693108736	64	29434
2026-01-20 23:52:19.44	140.27	3.38	-46.1	-64.6	3.8	7.45e-01	0	59	104	693108736	64	29323
2026-01-20 23:52:20.45	140.37	3.32	-46.1	-64.7	3.8	7.46e-01	0	58	104	693108736	64	29467
2026-01-20 23:52:21.46	140.48	3.27	-46.1	-64.7	3.8	7.47e-01	0	58	104	693108736	64	29375
2026-01-20 23:52:22.47	140.58	3.22	-46.0	-64.4	3.8	7.43e-01	0	58	104	693108736	64	28533
2026-01-20 23:52:23.48	140.69	3.16	-46.1	-64.6	3.8	7.43e-01	0	58	104	693108736	63	30868
2026-01-20 23:52:24.49	140.79	3.11	-46.2	-64.8	3.8	7.47e-01	0	58	104	693108736	63	31575
2026-01-20 23:52:25.50	140.89	3.05	-46.2	-64.7	3.8	7.43e-01	0	58	104	693108736	63	31389
2026-01-20 23:52:26.51	141.00	3.00	-46.2	-64.6	3.8	7.44e-01	0	58	104	693108736	63	30903
2026-01-20 23:52:27.52	141.10	2.95	-46.1	-64.6	3.8	7.45e-01	0	58	104	693108736	63	30734
2026-01-20 23:52:28.53	141.20	2.89	-46.1	-64.6	3.8	7.48e-01	0	58	104	693108736	63	31054
2026-01-20 23:52:29.54	141.30	2.84	-45.8	-64.0	3.8	7.44e-01	0	58	104	693108736	63	28740
2026-01-20 23:52:30.55	141.40	2.78	-45.2	-63.4	3.8	7.42e-01	0	59	104	693108736	62	28354
2026-01-20 23:52:31.56	141.51	2.73	-45.2	-63.6	3.8	7.45e-01	0	58	104	693108736	62	29150
2026-01-20 23:52:32.57	141.61	2.68	-45.6	-64.3	3.8	7.44e-01	0	58	104	693108736	62	31658
2026-01-20 23:52:33.58	141.71	2.62	-45.7	-64.3	3.8	7.45e-01	0	58	104	693108736	62	31452
2026-01-20 23:52:34.60	141.81	2.57	-44.4	-62.6	3.9	7.49e-01	0	58	104	693108736	60	29303
2026-01-20 23:52:35.61	141.91	2.51	-43.9	-62.2	3.8	7.48e-01	0	58	104	693108736	59	29438
2026-01-20 23:52:36.62	142.01	2.46	-44.0	-62.1	3.8	7.49e-01	0	58	104	693108736	59	29221
2026-01-20 23:52:37.63	142.10	2.41	-42.9	-61.0	3.8	7.43e-01	0	58	104	693108736	57	28806
2026-01-20 23:52:38.64	142.20	2.35	-42.9	-61.6	3.8	7.45e-01	0	58	104	693108736	57	30811
2026-01-20 23:52:39.65	142.30	2.30	-44.5	-63.5	3.8	7.42e-01	0	58	104	693108736	60	32426
2026-01-20 23:52:40.66	142.40	2.25	-46.0	-64.7	3.8	7.47e-01	0	58	104	693108736	62	33100
2026-01-20 23:52:41.67	142.50	2.19	-45.3	-64.4	3.8	7.44e-01	0	58	104	693108736	62	32038
2026-01-20 23:52:42.68	142.59	2.14	-43.4	-62.2	3.8	7.49e-01	0	58	104	693108736	58	31325
2026-01-20 23:52:43.69	142.69	2.09	-41.4	-60.0	3.8	7.43e-01	0	58	104	693108736	54	30436
2026-01-20 23:52:44.70	142.78	2.03	-40.8	-59.3	3.8	7.44e-01	0	58	104	693108736	53	30004
2026-01-20 23:52:45.71	142.88	1.98	-41.9	-60.6	3.9	7.45e-01	0	58	104	693108736	54	32814

#Closed at: 2026-01-20 23:52:46
#Recorded file [693 MB]: D:/lorett/data/31039_260121_024208.dat