passes_logs/2026/01/20/R2.0S_Moscow/R2.0S_Moscow__20260120_220232_NOAA_20_JPSS-1_rec.log

#Pass ID: 20260120_220232_NOAA 20 (JPSS-1)
#Satellite: NOAA 20 (JPSS-1)
#Configuration: NOAA 20
#almurnet v.1.7.20251203
#Start time: 2026-01-20 22:08:14

#Version: 2.2.20231116
#Station: R2.0S_Moscow
#Location: 37.707566 lon 55.798166 lat
#TLE: 1 43013U 17073A   26020.26397077  .00000127  00000+0  80954-4 0  9999
#TLE: 2 43013  98.7643 321.1479 0001288  31.3158 328.8095 14.19537595423482

#Time	Az	El	Level	Level2	SNR	BER	BlckErr	Temp	State	Recorded	gain1	gain2
2026-01-20 22:08:14.32	78.40	19.81	-45.3	-63.4	3.8	8.45e-01	0	57	0	0	62	28537
2026-01-20 22:08:15.32	78.64	19.83	-45.6	-60.3	3.8	1.49e+00	0	58	104	0	62	19966
2026-01-20 22:08:16.33	78.89	19.85	-45.7	-60.4	3.8	1.49e+00	0	57	104	0	62	20080
2026-01-20 22:08:17.34	79.14	19.87	-45.7	-60.4	3.8	1.49e+00	0	57	104	0	62	20177
2026-01-20 22:08:18.35	79.39	19.89	-45.7	-60.4	3.8	1.49e+00	0	57	104	0	62	20189
2026-01-20 22:08:19.36	79.64	19.91	-45.6	-60.4	3.8	1.49e+00	0	57	104	0	62	20182
2026-01-20 22:08:20.37	79.89	19.92	-45.6	-60.4	3.8	1.49e+00	0	57	104	0	62	20151
2026-01-20 22:08:21.38	80.14	19.94	-45.4	-60.3	3.8	1.49e+00	0	57	104	0	62	19873
2026-01-20 22:08:22.39	80.39	19.96	-45.3	-60.1	3.8	1.49e+00	0	58	104	0	62	19473
2026-01-20 22:08:23.40	80.64	19.97	-45.0	-59.8	3.8	1.49e+00	0	57	104	0	62	18859
2026-01-20 22:08:24.41	80.89	19.99	-44.6	-59.3	3.8	1.49e+00	0	57	104	0	61	18878
2026-01-20 22:08:25.41	81.14	20.00	-44.6	-59.2	3.8	1.49e+00	0	57	104	0	61	18699
2026-01-20 22:08:26.42	81.39	20.01	-44.6	-59.2	3.8	1.49e+00	0	57	104	0	61	18679
2026-01-20 22:08:27.43	81.64	20.03	-44.6	-59.3	3.8	1.49e+00	0	57	104	0	61	18799
2026-01-20 22:08:28.44	81.89	20.04	-44.6	-59.3	3.8	1.49e+00	0	57	104	0	61	18894
2026-01-20 22:08:29.45	82.14	20.05	-44.6	-59.3	3.8	1.49e+00	0	57	104	0	61	18890
2026-01-20 22:08:30.46	82.40	20.06	-44.5	-59.3	3.8	1.49e+00	0	57	104	0	61	18831
2026-01-20 22:08:31.47	82.65	20.07	-44.6	-59.3	3.8	1.49e+00	0	58	104	0	61	18866
2026-01-20 22:08:32.48	82.90	20.08	-44.5	-59.3	3.8	1.49e+00	0	57	104	0	61	18874
2026-01-20 22:08:33.48	83.15	20.09	-44.5	-59.3	3.8	1.49e+00	0	57	104	0	61	18895
2026-01-20 22:08:34.49	83.40	20.10	-44.5	-59.3	3.8	1.49e+00	0	57	104	0	61	18822
2026-01-20 22:08:35.50	83.66	20.11	-44.5	-59.3	3.8	1.49e+00	0	57	104	0	61	18752
2026-01-20 22:08:36.52	83.91	20.12	-44.5	-59.2	3.8	1.49e+00	0	57	104	0	61	18678
2026-01-20 22:08:37.53	84.17	20.13	-44.5	-59.2	3.8	1.49e+00	0	57	104	0	61	18575
2026-01-20 22:08:38.54	84.42	20.14	-44.5	-59.0	3.8	1.49e+00	0	57	104	0	61	18282
2026-01-20 22:08:39.55	84.67	20.14	-44.5	-59.0	3.8	1.49e+00	0	58	104	0	61	18174
2026-01-20 22:08:40.56	84.93	20.15	-44.5	-58.9	3.8	1.49e+00	0	58	104	0	61	17991
2026-01-20 22:08:41.57	85.18	20.15	-44.5	-58.9	3.8	1.49e+00	0	57	104	0	61	17947
2026-01-20 22:08:42.58	85.43	20.16	-44.5	-58.8	3.8	1.49e+00	0	57	104	0	61	17851
2026-01-20 22:08:43.59	85.69	20.16	-44.5	-58.7	3.8	1.49e+00	0	58	104	0	61	17567
2026-01-20 22:08:44.60	85.94	20.17	-44.5	-58.6	3.8	1.49e+00	0	58	104	0	61	17348
2026-01-20 22:08:45.61	86.20	20.17	-44.5	-58.3	3.8	1.49e+00	0	58	104	0	61	16876
2026-01-20 22:08:46.62	86.45	20.17	-44.5	-58.3	3.8	1.49e+00	0	58	104	0	60	17724
2026-01-20 22:08:47.64	86.71	20.18	-44.5	-58.5	3.8	1.49e+00	0	57	104	0	60	18167
2026-01-20 22:08:48.65	86.96	20.18	-44.5	-58.8	3.8	1.49e+00	0	58	104	0	60	18945
2026-01-20 22:08:49.66	87.21	20.18	-44.5	-59.1	3.8	1.49e+00	0	57	104	0	60	19606
2026-01-20 22:08:50.67	87.47	20.18	-44.5	-59.3	3.8	1.49e+00	0	57	104	0	60	19937
2026-01-20 22:08:51.68	87.72	20.18	-44.5	-59.3	3.8	1.49e+00	0	58	104	0	60	19988
2026-01-20 22:08:52.69	87.98	20.18	-44.5	-59.2	3.8	1.49e+00	0	58	104	0	60	19623
2026-01-20 22:08:53.70	88.23	20.18	-44.5	-58.8	3.8	1.49e+00	0	57	104	0	60	18757
2026-01-20 22:08:54.71	88.48	20.17	-44.5	-58.1	3.8	1.49e+00	0	57	104	0	60	17326
2026-01-20 22:08:55.72	88.74	20.17	-44.4	-57.0	3.9	1.49e+00	0	58	104	0	60	15296
2026-01-20 22:08:56.73	88.99	20.17	-44.3	-55.8	4.2	1.47e+00	0	58	104	0	60	13312
2026-01-20 22:08:57.75	89.25	20.17	-44.2	-54.6	4.6	1.08e+00	0	58	0	1048576	60	11634
2026-01-20 22:08:58.76	89.50	20.16	-44.1	-53.7	5.0	7.54e-01	0	58	0	2097152	60	10521
2026-01-20 22:08:59.77	89.76	20.16	-44.1	-53.5	5.1	6.27e-01	0	58	0	4194304	60	10279
2026-01-20 22:09:00.78	90.01	20.15	-44.1	-54.2	4.8	7.60e-01	0	58	0	6291456	60	11117
2026-01-20 22:09:01.79	90.26	20.15	-44.3	-56.1	4.1	1.23e+00	0	58	0	7340032	60	13740
2026-01-20 22:09:02.80	90.52	20.14	-44.5	-58.7	3.8	1.49e+00	0	58	104	7340032	60	18623
2026-01-20 22:09:03.81	90.77	20.13	-44.4	-57.8	3.8	1.49e+00	0	58	104	7340032	60	16725
2026-01-20 22:09:04.82	91.03	20.13	-44.0	-53.4	5.2	9.89e-01	0	58	0	7340032	60	10101
2026-01-20 22:09:05.83	91.28	20.12	-43.5	-50.0	7.9	2.02e-01	0	58	0	9437184	59	7256
2026-01-20 22:09:06.84	91.53	20.11	-43.0	-48.3	9.6	3.68e-02	0	58	0	11534336	58	6336
2026-01-20 22:09:07.85	91.78	20.10	-42.6	-47.5	10.5	5.10e-03	0	58	0	13631488	57	6078
2026-01-20 22:09:08.86	92.04	20.09	-44.4	-54.2	4.2	3.64e-01	4	58	104	14680064	59	11781
2026-01-20 22:09:09.87	92.29	20.08	-44.7	-54.5	5.1	9.46e-01	0	58	0	14680064	59	12134
2026-01-20 22:09:10.88	92.54	20.07	-44.2	-53.0	5.9	2.19e-02	0	58	0	16777216	58	10875
2026-01-20 22:09:11.89	92.80	20.06	-44.0	-51.9	6.2	5.84e-01	0	58	0	16777216	59	8978
2026-01-20 22:09:12.90	93.05	20.05	-43.4	-49.6	8.6	3.52e-02	0	58	0	18874368	57	7780
2026-01-20 22:09:13.91	93.30	20.04	-42.5	-47.1	11.0	6.94e-03	0	58	0	19922944	57	5814
2026-01-20 22:09:14.92	93.55	20.02	-42.6	-47.2	10.9	2.05e-03	0	58	0	22020096	57	5899
2026-01-20 22:09:15.93	93.80	20.01	-42.7	-47.4	10.8	1.83e-03	0	58	0	24117248	57	5993
2026-01-20 22:09:16.94	94.06	20.00	-42.6	-47.3	10.9	2.11e-03	0	58	0	26214400	57	5925
2026-01-20 22:09:17.95	94.31	19.98	-42.7	-47.3	10.9	2.12e-03	0	58	0	28311552	57	5958
2026-01-20 22:09:18.96	94.56	19.97	-42.7	-47.3	11.0	2.16e-03	0	58	0	29360128	57	5927
2026-01-20 22:09:19.97	94.81	19.95	-42.7	-47.3	10.9	2.17e-03	0	58	0	31457280	57	5988
2026-01-20 22:09:20.98	95.06	19.94	-42.5	-46.9	11.3	1.34e-03	0	58	0	33554432	57	5689
2026-01-20 22:09:21.99	95.31	19.92	-42.4	-46.6	11.7	8.81e-04	0	58	0	35651584	56	5817
2026-01-20 22:09:23.00	95.56	19.90	-42.3	-46.5	11.8	5.19e-04	0	58	0	37748736	56	5755
2026-01-20 22:09:24.01	95.81	19.88	-42.3	-46.4	11.9	4.24e-04	0	58	0	38797312	56	5691
2026-01-20 22:09:25.01	96.06	19.87	-42.3	-46.4	11.9	4.52e-04	0	58	0	40894464	56	5698
2026-01-20 22:09:26.02	96.30	19.85	-42.3	-46.4	12.0	3.77e-04	0	58	0	42991616	56	5662
2026-01-20 22:09:27.03	96.55	19.83	-42.2	-46.2	12.2	2.77e-04	0	58	0	45088768	56	5530
2026-01-20 22:09:28.04	96.80	19.81	-42.1	-45.9	12.4	1.94e-04	0	58	0	47185920	56	5401
2026-01-20 22:09:29.05	97.05	19.79	-42.1	-45.9	12.4	1.43e-04	0	58	0	49283072	56	5391
2026-01-20 22:09:30.06	97.30	19.77	-42.0	-45.8	12.6	1.22e-04	0	58	0	50331648	56	5287
2026-01-20 22:09:31.07	97.55	19.75	-42.1	-45.9	12.4	1.21e-04	0	58	0	52428800	56	5352
2026-01-20 22:09:32.08	97.79	19.72	-42.1	-46.0	12.3	1.65e-04	0	58	0	54525952	56	5448
2026-01-20 22:09:33.09	98.04	19.70	-42.3	-46.3	12.0	2.37e-04	0	58	0	56623104	56	5618
2026-01-20 22:09:34.10	98.29	19.68	-42.3	-46.4	12.0	3.23e-04	0	58	0	58720256	56	5687
2026-01-20 22:09:35.11	98.53	19.66	-42.4	-46.5	11.8	3.94e-04	0	58	0	59768832	56	5780
2026-01-20 22:09:36.12	98.78	19.63	-42.4	-46.6	11.8	5.07e-04	0	58	0	61865984	56	5796
2026-01-20 22:09:37.13	99.02	19.61	-42.3	-46.4	11.9	4.03e-04	0	58	0	63963136	56	5680
2026-01-20 22:09:38.14	99.27	19.58	-42.3	-46.4	11.9	3.67e-04	0	58	0	66060288	56	5692
2026-01-20 22:09:39.15	99.51	19.56	-42.3	-46.5	11.9	3.57e-04	0	58	0	68157440	56	5732
2026-01-20 22:09:40.16	99.76	19.53	-42.3	-46.3	12.0	3.40e-04	0	58	0	69206016	56	5626
2026-01-20 22:09:41.17	100.00	19.51	-42.2	-46.2	12.1	2.72e-04	0	58	0	71303168	56	5578
2026-01-20 22:09:42.18	100.25	19.48	-42.2	-46.1	12.2	2.75e-04	0	58	0	73400320	56	5504
2026-01-20 22:09:43.18	100.49	19.45	-42.1	-45.9	12.5	1.47e-04	0	58	0	75497472	56	5376
2026-01-20 22:09:44.19	100.73	19.43	-41.9	-45.7	12.5	1.43e-04	0	58	0	77594624	55	5560
2026-01-20 22:09:45.20	100.97	19.40	-41.8	-45.4	12.7	1.04e-04	0	58	0	78643200	55	5392
2026-01-20 22:09:46.21	101.21	19.37	-41.7	-45.3	12.9	6.25e-05	0	58	0	80740352	55	5299
2026-01-20 22:09:47.22	101.46	19.34	-41.6	-45.1	13.1	2.82e-05	0	58	0	82837504	54	5511
2026-01-20 22:09:48.23	101.70	19.31	-41.6	-45.1	13.1	2.89e-05	0	58	0	84934656	54	5528
2026-01-20 22:09:49.24	101.94	19.28	-41.6	-45.1	13.1	2.67e-05	0	58	0	87031808	54	5517
2026-01-20 22:09:50.25	102.18	19.25	-41.7	-45.3	12.9	3.05e-05	0	58	0	88080384	54	5651
2026-01-20 22:09:51.26	102.42	19.22	-41.8	-45.4	12.8	7.01e-05	0	58	0	90177536	54	5719
2026-01-20 22:09:52.27	102.66	19.19	-41.8	-45.5	12.7	7.78e-05	0	58	0	92274688	54	5765
2026-01-20 22:09:53.27	102.89	19.16	-41.8	-45.6	12.6	8.62e-05	0	58	0	94371840	54	5818
2026-01-20 22:09:54.28	103.13	19.12	-41.8	-45.5	12.7	6.10e-05	0	58	0	96468992	54	5779
2026-01-20 22:09:55.29	103.37	19.09	-41.8	-45.6	12.6	9.07e-05	0	58	0	97517568	54	5822
2026-01-20 22:09:56.30	103.61	19.06	-41.8	-45.6	12.6	1.36e-04	0	58	0	99614720	54	5817
2026-01-20 22:09:57.31	103.84	19.03	-41.8	-45.4	12.7	8.46e-05	0	58	0	101711872	54	5721
2026-01-20 22:09:58.32	104.08	18.99	-41.7	-45.4	12.8	8.62e-05	0	58	0	103809024	54	5690
2026-01-20 22:09:59.33	104.31	18.96	-41.6	-45.2	13.0	3.96e-05	0	58	0	105906176	54	5554
2026-01-20 22:10:00.34	104.55	18.92	-41.6	-45.1	13.1	2.51e-05	0	58	0	106954752	54	5474
2026-01-20 22:10:01.35	104.78	18.89	-41.4	-44.8	13.4	1.67e-05	0	58	0	109051904	54	5294
2026-01-20 22:10:02.36	105.02	18.85	-41.4	-44.8	13.4	1.75e-05	0	58	0	111149056	54	5290
2026-01-20 22:10:03.37	105.25	18.82	-41.3	-44.6	13.6	9.90e-06	0	58	0	113246208	54	5180
2026-01-20 22:10:04.38	105.48	18.78	-41.2	-44.5	13.8	5.30e-06	0	58	0	115343360	54	5101
2026-01-20 22:10:05.39	105.72	18.74	-41.3	-44.5	13.7	5.30e-06	0	58	0	117440512	54	5153
2026-01-20 22:10:06.39	105.95	18.71	-41.3	-44.5	13.7	3.00e-06	0	58	0	118489088	54	5135
2026-01-20 22:10:07.41	106.18	18.67	-41.3	-44.6	13.6	9.90e-06	0	58	0	120586240	54	5196
2026-01-20 22:10:08.41	106.41	18.63	-41.3	-44.5	13.7	5.30e-06	0	58	0	122683392	54	5158
2026-01-20 22:10:09.42	106.64	18.59	-41.3	-44.6	13.7	5.30e-06	0	58	0	124780544	54	5164
2026-01-20 22:10:10.43	106.87	18.55	-41.3	-44.7	13.5	5.30e-06	0	58	0	126877696	54	5225
2026-01-20 22:10:11.44	107.10	18.51	-41.4	-44.7	13.5	5.30e-06	0	58	0	127926272	54	5249
2026-01-20 22:10:12.45	107.33	18.47	-41.4	-44.8	13.4	1.29e-05	0	58	0	130023424	54	5326
2026-01-20 22:10:13.46	107.55	18.43	-41.5	-44.9	13.3	1.75e-05	0	58	0	132120576	54	5398
2026-01-20 22:10:14.47	107.78	18.39	-41.6	-45.2	13.0	2.36e-05	0	58	0	134217728	54	5552
2026-01-20 22:10:15.48	108.01	18.35	-41.6	-45.2	13.0	3.66e-05	0	58	0	136314880	54	5536
2026-01-20 22:10:16.49	108.23	18.31	-41.6	-45.1	13.0	2.82e-05	0	58	0	137363456	54	5526
2026-01-20 22:10:17.49	108.46	18.27	-41.6	-45.1	13.1	3.43e-05	0	58	0	139460608	54	5525
2026-01-20 22:10:18.50	108.68	18.23	-41.6	-45.1	13.1	3.05e-05	0	58	0	141557760	54	5486
2026-01-20 22:10:19.51	108.91	18.19	-41.6	-45.2	13.0	3.73e-05	0	58	0	143654912	54	5537
2026-01-20 22:10:20.52	109.13	18.14	-41.7	-45.3	12.9	3.28e-05	0	58	0	145752064	54	5629
2026-01-20 22:10:21.53	109.35	18.10	-41.8	-45.5	12.7	5.26e-05	0	58	0	146800640	54	5733
2026-01-20 22:10:22.54	109.58	18.06	-41.8	-45.6	12.6	8.62e-05	0	58	0	148897792	54	5834
2026-01-20 22:10:23.55	109.80	18.01	-41.9	-45.7	12.5	1.23e-04	0	58	0	150994944	54	5875
2026-01-20 22:10:24.56	110.02	17.97	-41.9	-45.7	12.4	1.28e-04	0	58	0	153092096	54	5890
2026-01-20 22:10:25.56	110.24	17.93	-41.9	-45.7	12.5	1.17e-04	0	58	0	155189248	54	5902
2026-01-20 22:10:26.57	110.46	17.88	-41.9	-45.7	12.4	1.23e-04	0	58	0	156237824	54	5900
2026-01-20 22:10:27.58	110.68	17.84	-41.9	-45.8	12.4	1.32e-04	0	58	0	158334976	54	5924
2026-01-20 22:10:28.59	110.90	17.79	-42.0	-45.9	12.2	1.72e-04	0	58	0	160432128	54	6023
2026-01-20 22:10:29.60	111.12	17.75	-42.0	-46.0	12.1	2.24e-04	0	58	0	162529280	54	6129
2026-01-20 22:10:30.61	111.33	17.70	-42.1	-46.2	12.0	3.41e-04	0	58	0	164626432	54	6218
2026-01-20 22:10:31.62	111.55	17.65	-42.2	-46.3	11.8	4.04e-04	0	58	0	165675008	54	6310
2026-01-20 22:10:32.63	111.77	17.61	-42.2	-46.3	11.8	4.88e-04	0	58	0	167772160	54	6334
2026-01-20 22:10:33.64	111.98	17.56	-42.1	-46.3	11.8	4.97e-04	0	58	0	169869312	54	6303
2026-01-20 22:10:34.64	112.20	17.51	-42.2	-46.4	11.8	4.68e-04	0	58	0	171966464	54	6351
2026-01-20 22:10:35.65	112.41	17.47	-42.2	-46.3	11.8	4.93e-04	0	58	0	174063616	54	6345
2026-01-20 22:10:36.66	112.62	17.42	-42.1	-46.3	11.8	4.42e-04	0	58	0	175112192	54	6314
2026-01-20 22:10:37.67	112.84	17.37	-42.2	-46.4	11.7	5.03e-04	0	58	0	177209344	54	6394
2026-01-20 22:10:38.68	113.05	17.32	-42.2	-46.5	11.6	6.62e-04	0	58	0	179306496	55	6081
2026-01-20 22:10:39.69	113.26	17.27	-42.2	-46.5	11.6	7.32e-04	0	58	0	181403648	55	6102
2026-01-20 22:10:40.70	113.47	17.23	-42.3	-46.7	11.4	8.87e-04	0	58	0	183500800	55	6217
2026-01-20 22:10:41.71	113.68	17.18	-42.3	-46.8	11.3	1.07e-03	0	58	0	184549376	55	6275
2026-01-20 22:10:42.72	113.89	17.13	-42.4	-46.8	11.2	1.33e-03	0	58	0	186646528	55	6302
2026-01-20 22:10:43.73	114.10	17.08	-42.3	-46.8	11.3	1.36e-03	0	58	0	188743680	55	6280
2026-01-20 22:10:44.74	114.31	17.03	-42.3	-46.7	11.3	1.15e-03	0	58	0	190840832	55	6224
2026-01-20 22:10:45.75	114.52	16.98	-42.1	-46.6	11.4	1.25e-03	0	58	0	192937984	55	6150
2026-01-20 22:10:46.76	114.72	16.93	-42.2	-46.4	11.7	7.15e-04	0	58	0	193986560	55	6009
2026-01-20 22:10:47.77	114.93	16.88	-42.2	-46.5	11.6	5.71e-04	0	58	0	196083712	55	6075
2026-01-20 22:10:48.77	115.13	16.83	-42.2	-46.6	11.5	8.07e-04	0	58	0	198180864	55	6134
2026-01-20 22:10:49.78	115.34	16.78	-42.2	-46.5	11.5	9.81e-04	0	58	0	200278016	55	6129
2026-01-20 22:10:50.79	115.54	16.72	-42.2	-46.6	11.4	8.85e-04	0	58	0	202375168	55	6191
2026-01-20 22:10:51.80	115.75	16.67	-42.3	-46.7	11.2	1.37e-03	0	58	0	203423744	55	6250
2026-01-20 22:10:52.81	115.95	16.62	-42.3	-46.8	11.2	1.29e-03	0	58	0	205520896	55	6277
2026-01-20 22:10:53.82	116.15	16.57	-42.2	-46.7	11.2	1.43e-03	0	58	0	207618048	55	6253
2026-01-20 22:10:54.83	116.35	16.52	-42.3	-46.8	11.1	1.95e-03	0	58	0	209715200	55	6329
2026-01-20 22:10:55.84	116.56	16.46	-42.3	-46.9	11.0	1.81e-03	0	58	0	211812352	55	6352
2026-01-20 22:10:56.85	116.76	16.41	-42.0	-46.9	10.6	1.79e-03	0	58	0	213909504	55	6397
2026-01-20 22:10:57.86	116.95	16.36	-42.1	-46.7	11.1	9.79e-03	0	58	0	214958080	55	6267
2026-01-20 22:10:58.87	117.15	16.30	-42.0	-46.6	11.1	2.02e-03	0	58	0	217055232	55	6194
2026-01-20 22:10:59.86	117.35	16.25	-42.1	-46.6	11.2	4.25e-03	0	58	0	219152384	55	6190
2026-01-20 22:11:00.87	117.55	16.20	-42.0	-46.3	11.5	1.28e-03	0	58	0	221249536	54	6318
2026-01-20 22:11:01.88	117.74	16.15	-41.8	-46.0	11.8	2.96e-03	0	58	0	223346688	54	6087
2026-01-20 22:11:02.89	117.94	16.09	-41.6	-46.0	10.8	2.74e-03	0	58	0	224395264	52	6852
2026-01-20 22:11:03.90	118.13	16.04	-41.7	-46.3	11.5	8.22e-03	0	58	0	226492416	54	6287
2026-01-20 22:11:04.91	118.33	15.98	-41.0	-46.1	11.6	1.37e-03	0	58	0	228589568	54	6166
2026-01-20 22:11:05.92	118.52	15.93	-41.8	-46.1	11.6	2.60e-03	0	58	0	230686720	54	6197
2026-01-20 22:11:06.93	118.72	15.87	-41.4	-46.1	11.3	3.39e-03	0	58	0	232783872	54	6168
2026-01-20 22:11:07.94	118.91	15.82	-41.9	-46.1	11.6	1.35e-02	0	58	0	233832448	54	6184
2026-01-20 22:11:08.95	119.10	15.76	-39.2	-45.9	10.4	1.63e-02	0	58	0	235929600	52	6745
2026-01-20 22:11:09.96	119.29	15.71	-41.4	-46.1	11.2	1.14e-02	0	58	0	238026752	54	6183
2026-01-20 22:11:10.97	119.48	15.65	-41.7	-46.3	10.8	1.91e-02	0	58	0	240123904	54	6282
2026-01-20 22:11:11.98	119.67	15.60	-41.5	-46.6	10.0	2.94e-02	0	58	0	242221056	53	6958
2026-01-20 22:11:12.99	119.86	15.54	-41.8	-47.0	10.4	1.19e-02	0	58	0	243269632	55	6444
2026-01-20 22:11:14.00	120.05	15.49	-42.3	-47.4	9.9	1.24e-02	0	58	0	245366784	54	7140
2026-01-20 22:11:15.01	120.24	15.43	-39.7	-47.0	8.6	2.83e-02	0	58	0	247463936	51	8137
2026-01-20 22:11:16.02	120.43	15.37	-42.5	-47.4	10.3	5.29e-02	0	58	0	249561088	55	6786
2026-01-20 22:11:17.02	120.61	15.32	-41.7	-47.2	10.3	1.61e-02	0	58	0	251658240	55	6586
2026-01-20 22:11:18.03	120.80	15.26	-42.3	-46.8	10.9	1.63e-02	0	58	0	252706816	55	6321
2026-01-20 22:11:19.04	120.98	15.20	-42.1	-46.9	10.7	8.19e-03	0	58	0	254803968	54	6752
2026-01-20 22:11:20.05	121.17	15.15	-40.6	-46.2	11.2	2.03e-02	0	58	0	256901120	54	6250
2026-01-20 22:11:21.06	121.35	15.09	-41.3	-46.2	7.6	4.37e-02	0	58	0	258998272	47	9352
2026-01-20 22:11:22.07	121.53	15.03	-41.9	-46.3	9.7	1.94e-02	0	58	0	261095424	53	6657
2026-01-20 22:11:23.08	121.72	14.98	-41.8	-46.7	7.6	1.80e-02	0	58	0	262144000	49	8794
2026-01-20 22:11:24.09	121.90	14.92	-42.0	-46.5	10.8	4.16e-02	0	58	0	264241152	54	6480
2026-01-20 22:11:25.10	122.08	14.86	-42.1	-46.7	10.3	3.94e-02	0	58	0	266338304	53	6996
2026-01-20 22:11:26.11	122.26	14.80	-41.6	-46.4	10.6	1.41e-02	0	58	0	268435456	52	7167
2026-01-20 22:11:27.12	122.44	14.75	-38.5	-46.0	10.6	9.02e-02	0	58	0	270532608	53	6487
2026-01-20 22:11:28.13	122.62	14.69	-41.1	-46.3	11.3	3.82e-02	0	58	0	271581184	54	6286
2026-01-20 22:11:29.14	122.80	14.63	-40.1	-46.0	9.1	1.23e-01	13	58	0	273678336	48	8661
2026-01-20 22:11:30.15	122.98	14.57	-39.6	-46.2	11.3	5.82e-02	0	58	0	275775488	54	6222
2026-01-20 22:11:31.16	123.15	14.51	-41.3	-46.1	10.5	1.30e-01	3	58	0	277872640	53	6520
2026-01-20 22:11:32.17	123.33	14.45	-42.5	-46.7	9.5	2.68e-01	0	58	0	279969792	50	8293
2026-01-20 22:11:33.18	123.50	14.40	-32.5	-44.2	6.3	1.51e-01	50	58	0	281018368	42	9863
2026-01-20 22:11:34.19	123.68	14.34	-42.2	-46.5	8.3	5.17e-02	0	58	0	283115520	51	7645
2026-01-20 22:11:35.19	123.85	14.28	-30.0	-42.6	6.4	2.78e-01	24	58	0	285212672	35	12285
2026-01-20 22:11:36.20	124.03	14.22	-42.5	-46.8	8.6	7.37e-02	15	58	0	286261248	52	7503
2026-01-20 22:11:37.21	124.20	14.16	-41.2	-45.8	9.7	8.31e-02	1	58	0	288358400	51	7086
2026-01-20 22:11:38.22	124.37	14.10	-41.5	-45.9	10.5	9.27e-02	0	58	0	290455552	52	6758
2026-01-20 22:11:39.23	124.54	14.04	-34.5	-42.8	5.2	3.28e-01	0	58	0	291504128	31	15770
2026-01-20 22:11:40.24	124.71	13.98	-40.7	-45.9	9.4	6.78e-01	10	58	0	292552704	52	6753
2026-01-20 22:11:41.25	124.88	13.92	-40.0	-46.2	7.9	5.54e-01	21	58	0	294649856	39	14752
2026-01-20 22:11:42.26	125.05	13.86	-39.7	-46.1	8.3	3.51e-01	5	58	0	295698432	47	9188
2026-01-20 22:11:43.27	125.22	13.81	-41.6	-46.4	8.8	3.15e-01	14	58	0	297795584	52	7183
2026-01-20 22:11:44.28	125.39	13.75	-41.6	-46.5	9.8	2.04e-01	14	58	0	298844160	53	6863
2026-01-20 22:11:45.29	125.56	13.69	-36.7	-44.0	5.1	4.53e-01	0	58	104	299892736	32	17213
2026-01-20 22:11:46.29	125.72	13.63	-40.3	-46.5	8.5	3.99e-01	10	58	0	299892736	51	7656
2026-01-20 22:11:47.31	125.89	13.57	-27.0	-44.3	5.0	9.40e-01	0	58	104	300941312	37	13355
2026-01-20 22:11:48.31	126.06	13.51	-33.5	-44.5	9.0	4.43e-01	6	58	0	300941312	52	5731
2026-01-20 22:11:49.32	126.22	13.45	-40.4	-45.8	7.9	3.87e-01	18	58	0	301989888	47	8943
2026-01-20 22:11:50.33	126.39	13.39	-34.9	-41.5	4.6	1.35e+00	0	58	104	303038464	25	19194
2026-01-20 22:11:51.34	126.55	13.33	-23.9	-37.5	3.9	1.45e+00	0	58	104	303038464	18	18209
2026-01-20 22:11:52.35	126.71	13.27	-35.7	-43.5	5.1	1.47e+00	0	58	104	303038464	39	10817
2026-01-20 22:11:53.36	126.88	13.21	-37.4	-41.8	5.0	1.11e+00	0	58	104	303038464	29	15803
2026-01-20 22:11:54.37	127.04	13.15	-38.6	-46.4	7.2	4.59e-01	30	58	0	303038464	47	9529
2026-01-20 22:11:55.38	127.20	13.09	-26.9	-44.4	4.8	1.34e+00	0	58	104	304087040	31	19100
2026-01-20 22:11:56.39	127.36	13.03	-24.2	-42.7	4.7	1.50e+00	0	58	104	304087040	31	15693
2026-01-20 22:11:57.40	127.52	12.97	-23.6	-37.6	3.8	1.50e+00	0	58	104	304087040	32	8243
2026-01-20 22:11:58.41	127.68	12.91	-37.1	-52.1	4.6	1.50e+00	0	58	104	304087040	44	21771
2026-01-20 22:11:59.42	127.84	12.84	-37.8	-48.7	4.6	1.50e+00	0	58	104	304087040	41	17667
2026-01-20 22:12:00.43	128.00	12.78	-32.4	-49.8	4.5	1.50e+00	0	58	104	304087040	39	22295
2026-01-20 22:12:01.43	128.15	12.72	-38.1	-51.3	3.9	1.50e+00	0	58	104	304087040	41	23693
2026-01-20 22:12:02.44	128.31	12.66	-33.2	-45.0	4.7	1.51e+00	0	58	104	304087040	33	18302
2026-01-20 22:12:03.45	128.47	12.60	-24.6	-39.2	3.1	1.50e+00	0	58	104	304087040	19	20932
2026-01-20 22:12:04.46	128.62	12.54	-22.7	-39.2	3.2	1.49e+00	0	58	104	304087040	16	24724
2026-01-20 22:12:05.47	128.78	12.48	-17.5	-37.1	3.5	1.48e+00	0	58	0	304087040	13	23240
2026-01-20 22:12:06.48	128.93	12.42	-23.5	-41.1	3.7	1.49e+00	0	58	104	304087040	21	23065
2026-01-20 22:12:07.49	129.08	12.36	-22.1	-39.6	3.8	1.49e+00	0	58	104	304087040	22	18313
2026-01-20 22:12:08.50	129.24	12.30	-23.3	-37.1	3.6	1.48e+00	0	58	104	304087040	16	19412
2026-01-20 22:12:09.51	129.39	12.24	-22.4	-38.0	3.4	1.50e+00	0	58	104	304087040	13	25589
2026-01-20 22:12:10.52	129.54	12.18	-27.0	-40.1	4.1	1.48e+00	0	58	104	304087040	19	23130
2026-01-20 22:12:11.53	129.69	12.12	-22.8	-44.0	4.5	1.50e+00	0	58	0	304087040	24	27352
2026-01-20 22:12:12.54	129.84	12.05	-30.8	-47.2	4.0	1.50e+00	0	58	104	304087040	34	22214
2026-01-20 22:12:13.55	129.99	11.99	-22.1	-41.2	3.5	1.50e+00	0	58	104	304087040	25	18563
2026-01-20 22:12:14.56	130.14	11.93	-32.0	-46.9	3.4	1.50e+00	0	58	104	304087040	27	31992
2026-01-20 22:12:15.57	130.29	11.87	-26.9	-45.8	4.1	1.50e+00	0	58	104	304087040	28	26688
2026-01-20 22:12:16.58	130.44	11.81	-25.7	-44.0	4.3	1.50e+00	0	58	104	304087040	28	21574
2026-01-20 22:12:17.59	130.59	11.75	-25.6	-43.4	3.9	1.50e+00	0	58	104	304087040	26	22683
2026-01-20 22:12:18.60	130.74	11.69	-21.7	-36.6	3.9	1.50e+00	0	58	104	304087040	16	18448
2026-01-20 22:12:19.60	130.88	11.63	-23.2	-36.4	3.5	1.49e+00	0	58	104	304087040	17	16924
2026-01-20 22:12:20.61	131.03	11.57	-26.3	-39.0	3.6	1.50e+00	0	58	104	304087040	17	22820
2026-01-20 22:12:21.62	131.17	11.51	-18.4	-31.1	3.7	1.51e+00	0	58	104	304087040	10	13845
2026-01-20 22:12:22.63	131.32	11.44	-22.5	-34.8	3.8	1.50e+00	0	58	104	304087040	14	16763
2026-01-20 22:12:23.64	131.46	11.38	-21.5	-39.2	3.6	1.50e+00	0	58	104	304087040	18	22206
2026-01-20 22:12:24.65	131.61	11.32	-25.7	-38.0	3.5	1.49e+00	0	58	104	304087040	12	27385
2026-01-20 22:12:25.66	131.75	11.26	-24.4	-40.7	4.5	1.49e+00	0	58	104	304087040	19	24944
2026-01-20 22:12:26.67	131.89	11.20	-23.3	-35.6	4.1	1.47e+00	0	58	104	304087040	16	16502
2026-01-20 22:12:27.68	132.03	11.14	-18.3	-35.8	3.7	1.51e+00	0	58	104	304087040	16	16792
2026-01-20 22:12:28.69	132.17	11.08	-26.5	-42.1	3.5	1.49e+00	0	58	104	304087040	19	29142
2026-01-20 22:12:29.69	132.31	11.02	-21.0	-40.4	3.3	1.50e+00	0	58	104	304087040	17	27055
2026-01-20 22:12:30.70	132.45	10.96	-27.0	-40.5	3.2	1.50e+00	0	58	104	304087040	18	25753
2026-01-20 22:12:31.72	132.59	10.89	-25.0	-36.4	3.6	1.50e+00	0	58	104	304087040	13	21412
2026-01-20 22:12:32.73	132.73	10.83	-15.3	-30.6	3.9	1.50e+00	0	58	104	304087040	4	18338
2026-01-20 22:12:33.73	132.87	10.77	-18.4	-31.3	3.7	1.51e+00	0	58	104	304087040	12	12625
2026-01-20 22:12:34.74	133.01	10.71	-20.7	-36.3	3.7	1.51e+00	0	58	104	304087040	16	17769
2026-01-20 22:12:35.75	133.15	10.65	-22.0	-37.6	3.4	1.50e+00	0	58	104	304087040	16	20738
2026-01-20 22:12:36.77	133.28	10.59	-28.4	-39.5	3.8	1.50e+00	0	58	104	304087040	23	17113
2026-01-20 22:12:37.77	133.42	10.53	-24.1	-39.2	3.5	1.51e+00	0	58	104	304087040	18	22054
2026-01-20 22:12:38.78	133.55	10.47	-17.9	-31.3	3.9	1.50e+00	0	58	104	304087040	9	14899
2026-01-20 22:12:39.79	133.69	10.40	-20.9	-35.7	3.5	1.51e+00	0	58	104	304087040	10	23490
2026-01-20 22:12:40.80	133.82	10.34	-21.0	-37.6	3.9	1.51e+00	0	58	104	304087040	22	14647
2026-01-20 22:12:41.81	133.96	10.28	-23.2	-40.1	3.8	1.51e+00	0	58	104	304087040	22	19537
2026-01-20 22:12:42.82	134.09	10.22	-32.1	-49.0	4.2	1.51e+00	0	58	104	304087040	35	25825
2026-01-20 22:12:43.83	134.23	10.16	-38.7	-52.3	4.2	1.51e+00	0	58	104	304087040	39	29915
2026-01-20 22:12:44.84	134.36	10.10	-21.3	-37.8	3.5	1.51e+00	0	58	104	304087040	16	21028
2026-01-20 22:12:45.84	134.49	10.04	-20.8	-36.8	3.5	1.51e+00	0	58	104	304087040	12	23850
2026-01-20 22:12:46.85	134.62	9.98	-26.2	-41.0	3.2	1.51e+00	0	58	104	304087040	14	34327
2026-01-20 22:12:47.86	134.75	9.92	-23.1	-43.0	3.9	1.50e+00	0	59	104	304087040	26	21596
2026-01-20 22:12:48.87	134.88	9.86	-23.7	-43.1	4.2	1.50e+00	0	58	104	304087040	29	18447
2026-01-20 22:12:49.88	135.01	9.79	-28.1	-43.2	4.0	1.51e+00	0	58	104	304087040	25	23509
2026-01-20 22:12:50.89	135.14	9.73	-35.9	-55.1	3.7	1.51e+00	0	58	104	304087040	41	36554
2026-01-20 22:12:51.90	135.27	9.67	-22.2	-40.1	3.9	1.50e+00	0	58	104	304087040	18	24513
2026-01-20 22:12:52.91	135.40	9.61	-29.3	-48.4	3.9	1.51e+00	0	58	104	304087040	45	13462
2026-01-20 22:12:53.92	135.52	9.55	-26.5	-44.0	-1.3	1.50e+00	0	58	104	304087040	25	25561
2026-01-20 22:12:54.93	135.65	9.49	-28.7	-48.4	4.0	1.51e+00	0	58	104	304087040	36	22618
2026-01-20 22:12:55.94	135.78	9.43	-29.1	-47.4	4.0	1.51e+00	0	58	104	304087040	41	15148
2026-01-20 22:12:56.95	135.90	9.37	-23.5	-40.8	4.0	1.50e+00	0	58	104	304087040	16	29795
2026-01-20 22:12:57.96	136.03	9.31	-39.7	-54.8	4.0	1.51e+00	0	58	104	304087040	48	23782
2026-01-20 22:12:58.97	136.16	9.25	-38.9	-55.2	4.0	1.50e+00	0	58	104	304087040	48	24841
2026-01-20 22:12:59.98	136.28	9.19	-40.7	-57.0	4.0	1.49e+00	0	58	104	304087040	46	34117
2026-01-20 22:13:00.99	136.40	9.12	-40.4	-56.2	3.3	1.49e+00	0	58	104	304087040	52	22241
2026-01-20 22:13:02.00	136.53	9.06	-33.4	-50.4	3.8	1.50e+00	0	59	104	304087040	39	24037
2026-01-20 22:13:03.01	136.65	9.00	-34.5	-55.4	3.6	1.49e+00	0	58	104	304087040	38	44963
2026-01-20 22:13:04.01	136.77	8.94	-42.6	-57.0	4.1	1.50e+00	0	59	104	304087040	54	21718
2026-01-20 22:13:05.02	136.90	8.88	-42.8	-58.0	3.9	1.50e+00	0	59	104	304087040	54	24165
2026-01-20 22:13:06.03	137.02	8.82	-42.3	-57.2	3.9	1.49e+00	0	58	104	304087040	53	23451
2026-01-20 22:13:07.04	137.14	8.76	-41.0	-57.0	4.0	1.50e+00	0	58	104	304087040	53	22807
2026-01-20 22:13:08.05	137.26	8.70	-42.1	-56.5	3.9	1.50e+00	0	59	104	304087040	53	21705
2026-01-20 22:13:09.06	137.38	8.64	-35.5	-55.1	3.4	1.50e+00	0	59	104	304087040	39	41101
2026-01-20 22:13:10.07	137.50	8.58	-42.3	-57.5	3.9	1.50e+00	0	58	104	304087040	49	30557
2026-01-20 22:13:11.08	137.62	8.52	-28.7	-47.2	4.2	1.50e+00	0	59	104	304087040	45	11798
2026-01-20 22:13:12.09	137.74	8.46	-41.2	-55.5	4.3	1.50e+00	0	58	104	304087040	55	17159
2026-01-20 22:13:13.10	137.86	8.40	-42.5	-57.1	3.9	1.49e+00	0	58	104	304087040	43	41406
2026-01-20 22:13:14.11	137.97	8.34	-39.9	-52.5	4.4	1.49e+00	0	59	104	304087040	46	20473
2026-01-20 22:13:15.12	138.09	8.28	-33.3	-55.2	4.0	1.50e+00	0	59	104	304087040	42	34981
2026-01-20 22:13:16.13	138.21	8.22	-42.8	-57.4	3.8	1.49e+00	0	58	104	304087040	56	20209
2026-01-20 22:13:17.14	138.32	8.16	-41.3	-55.8	3.9	1.49e+00	0	59	104	304087040	54	18764
2026-01-20 22:13:18.15	138.44	8.10	-42.9	-57.4	3.8	1.49e+00	0	58	104	304087040	56	20215
2026-01-20 22:13:19.16	138.56	8.04	-43.0	-57.4	3.7	1.49e+00	0	58	104	304087040	56	20203
2026-01-20 22:13:20.17	138.67	7.98	-37.5	-55.3	4.1	1.49e+00	0	59	104	304087040	55	16778
2026-01-20 22:13:21.18	138.79	7.92	-42.8	-58.2	3.9	1.50e+00	0	59	104	304087040	56	22226
2026-01-20 22:13:22.19	138.90	7.86	-45.0	-59.9	3.8	1.49e+00	0	58	104	304087040	60	21284
2026-01-20 22:13:23.20	139.01	7.80	-45.2	-60.0	3.8	1.49e+00	0	58	104	304087040	61	20522
2026-01-20 22:13:24.21	139.13	7.74	-45.4	-60.2	3.8	1.49e+00	0	59	104	304087040	61	20946
2026-01-20 22:13:25.22	139.24	7.68	-45.5	-60.3	3.8	1.49e+00	0	58	104	304087040	61	21134
2026-01-20 22:13:26.23	139.35	7.62	-45.5	-60.3	3.8	1.49e+00	0	59	104	304087040	61	21259
2026-01-20 22:13:27.24	139.46	7.56	-45.6	-60.4	3.8	1.49e+00	0	59	104	304087040	61	21337
2026-01-20 22:13:28.25	139.58	7.50	-45.7	-60.4	3.8	1.49e+00	0	59	104	304087040	61	21506
2026-01-20 22:13:29.26	139.69	7.44	-45.6	-60.4	3.8	1.49e+00	0	59	104	304087040	61	21457
2026-01-20 22:13:30.27	139.80	7.38	-45.6	-60.3	3.8	1.49e+00	0	59	104	304087040	61	21195
2026-01-20 22:13:31.28	139.91	7.32	-45.5	-60.2	3.8	1.49e+00	0	59	104	304087040	61	20914
2026-01-20 22:13:32.29	140.02	7.26	-45.5	-60.1	3.8	1.49e+00	0	59	104	304087040	61	20703
2026-01-20 22:13:33.30	140.13	7.20	-45.4	-60.0	3.8	1.49e+00	0	58	104	304087040	61	20534
2026-01-20 22:13:34.31	140.24	7.14	-45.4	-60.0	3.8	1.49e+00	0	58	104	304087040	61	20374
2026-01-20 22:13:35.32	140.34	7.08	-45.3	-59.9	3.8	1.49e+00	0	58	104	304087040	61	20152
2026-01-20 22:13:36.33	140.45	7.03	-45.3	-59.9	3.8	1.49e+00	0	59	104	304087040	61	20174
2026-01-20 22:13:37.34	140.56	6.97	-45.3	-59.9	3.8	1.49e+00	0	59	104	304087040	61	20198
2026-01-20 22:13:38.35	140.67	6.91	-45.3	-59.9	3.8	1.49e+00	0	59	104	304087040	61	20134
2026-01-20 22:13:39.36	140.77	6.85	-45.3	-59.9	3.8	1.49e+00	0	59	104	304087040	61	20204
2026-01-20 22:13:40.37	140.88	6.79	-45.3	-59.9	3.8	1.49e+00	0	59	104	304087040	61	20087
2026-01-20 22:13:41.38	140.99	6.73	-45.3	-59.9	3.8	1.49e+00	0	58	104	304087040	61	20105
2026-01-20 22:13:42.39	141.09	6.67	-45.3	-59.9	3.8	1.49e+00	0	58	104	304087040	61	20162
2026-01-20 22:13:43.40	141.20	6.61	-45.3	-59.9	3.8	1.49e+00	0	59	104	304087040	61	20114
2026-01-20 22:13:44.41	141.30	6.55	-45.3	-59.9	3.8	1.49e+00	0	59	104	304087040	61	20081
2026-01-20 22:13:45.42	141.41	6.50	-45.3	-59.8	3.8	1.49e+00	0	59	104	304087040	61	20033
2026-01-20 22:13:46.43	141.51	6.44	-45.3	-59.9	3.8	1.49e+00	0	58	104	304087040	61	20076
2026-01-20 22:13:47.44	141.61	6.38	-45.3	-59.8	3.8	1.49e+00	0	59	104	304087040	61	20065
2026-01-20 22:13:48.45	141.72	6.32	-45.3	-59.9	3.8	1.49e+00	0	59	104	304087040	61	20116
2026-01-20 22:13:49.47	141.82	6.26	-45.3	-59.8	3.8	1.49e+00	0	59	104	304087040	61	20025
2026-01-20 22:13:50.47	141.92	6.20	-45.3	-59.8	3.8	1.49e+00	0	59	104	304087040	61	20043
2026-01-20 22:13:51.48	142.02	6.14	-45.3	-59.8	3.8	1.49e+00	0	59	104	304087040	61	20050
2026-01-20 22:13:52.49	142.13	6.09	-45.3	-59.8	3.8	1.49e+00	0	59	104	304087040	61	20064
2026-01-20 22:13:53.50	142.23	6.03	-45.3	-59.9	3.8	1.49e+00	0	59	104	304087040	61	20092
2026-01-20 22:13:54.51	142.33	5.97	-45.3	-59.8	3.8	1.49e+00	0	59	104	304087040	61	20033
2026-01-20 22:13:55.52	142.43	5.91	-45.3	-59.8	3.8	1.49e+00	0	59	104	304087040	61	20025
2026-01-20 22:13:56.53	142.53	5.85	-45.3	-59.8	3.8	1.49e+00	0	59	104	304087040	61	20046
2026-01-20 22:13:57.54	142.63	5.79	-45.3	-59.9	3.8	1.49e+00	0	59	104	304087040	61	20072
2026-01-20 22:13:58.55	142.73	5.74	-45.3	-59.8	3.8	1.49e+00	0	59	104	304087040	61	20065
2026-01-20 22:13:59.56	142.83	5.68	-45.3	-59.9	3.8	1.49e+00	0	59	104	304087040	61	20098
2026-01-20 22:14:00.58	142.92	5.62	-45.3	-59.8	3.8	1.49e+00	0	59	104	304087040	61	20033
2026-01-20 22:14:01.58	143.02	5.56	-45.2	-59.8	3.8	1.49e+00	0	59	104	304087040	61	19957
2026-01-20 22:14:02.60	143.12	5.50	-45.3	-59.8	3.8	1.49e+00	0	59	104	304087040	61	19962
2026-01-20 22:14:03.61	143.22	5.45	-45.2	-59.8	3.8	1.49e+00	0	59	104	304087040	61	20042
2026-01-20 22:14:04.62	143.32	5.39	-45.2	-59.8	3.8	1.49e+00	0	59	104	304087040	61	19999
2026-01-20 22:14:05.63	143.41	5.33	-45.2	-59.8	3.8	1.49e+00	0	58	104	304087040	61	19985
2026-01-20 22:14:06.64	143.51	5.27	-45.3	-59.8	3.8	1.49e+00	0	59	104	304087040	61	19992
2026-01-20 22:14:07.65	143.60	5.22	-45.3	-59.8	3.8	1.49e+00	0	59	104	304087040	61	19977
2026-01-20 22:14:08.66	143.70	5.16	-45.3	-59.8	3.8	1.49e+00	0	59	104	304087040	61	19990
2026-01-20 22:14:09.67	143.79	5.10	-45.2	-59.8	3.8	1.49e+00	0	59	104	304087040	61	20002
2026-01-20 22:14:10.68	143.89	5.04	-45.2	-59.9	3.8	1.49e+00	0	59	104	304087040	61	20083
2026-01-20 22:14:11.69	143.98	4.99	-45.3	-59.8	3.8	1.49e+00	0	59	104	304087040	61	19999
2026-01-20 22:14:12.70	144.08	4.93	-45.2	-59.8	3.8	1.49e+00	0	59	104	304087040	61	20029
2026-01-20 22:14:13.71	144.17	4.87	-45.2	-59.8	3.8	1.49e+00	0	59	104	304087040	61	20002
2026-01-20 22:14:14.72	144.27	4.82	-45.2	-59.8	3.8	1.49e+00	0	59	104	304087040	61	19997
2026-01-20 22:14:15.73	144.36	4.76	-45.2	-59.8	3.8	1.49e+00	0	59	104	304087040	61	19975
2026-01-20 22:14:16.74	144.45	4.70	-45.2	-59.8	3.8	1.49e+00	0	59	104	304087040	61	19933
2026-01-20 22:14:17.75	144.54	4.65	-45.2	-59.8	3.8	1.49e+00	0	59	104	304087040	61	19942
2026-01-20 22:14:18.76	144.64	4.59	-45.2	-59.8	3.8	1.49e+00	0	59	104	304087040	61	19906
2026-01-20 22:14:19.77	144.73	4.53	-45.2	-59.8	3.8	1.49e+00	0	59	104	304087040	61	19974
2026-01-20 22:14:20.79	144.82	4.47	-45.2	-59.8	3.8	1.49e+00	0	59	104	304087040	61	19910
2026-01-20 22:14:21.80	144.91	4.42	-45.2	-59.8	3.8	1.49e+00	0	59	104	304087040	61	20031
2026-01-20 22:14:22.80	145.00	4.36	-45.2	-59.8	3.8	1.49e+00	0	59	104	304087040	61	19943
2026-01-20 22:14:23.82	145.09	4.30	-45.2	-59.8	3.8	1.49e+00	0	59	104	304087040	61	19969
2026-01-20 22:14:24.83	145.18	4.25	-45.2	-59.8	3.8	1.49e+00	0	58	104	304087040	61	19969
2026-01-20 22:14:25.84	145.27	4.19	-45.2	-59.8	3.8	1.49e+00	0	59	104	304087040	61	19878
2026-01-20 22:14:26.85	145.36	4.14	-45.2	-59.8	3.8	1.49e+00	0	59	104	304087040	61	19920
2026-01-20 22:14:27.86	145.45	4.08	-45.2	-59.8	3.8	1.49e+00	0	59	104	304087040	61	19890
2026-01-20 22:14:28.87	145.54	4.02	-45.2	-59.8	3.8	1.49e+00	0	59	104	304087040	61	19916
2026-01-20 22:14:29.88	145.63	3.97	-45.2	-59.8	3.8	1.49e+00	0	58	104	304087040	61	19933
2026-01-20 22:14:30.89	145.71	3.91	-45.2	-59.8	3.8	1.49e+00	0	59	104	304087040	61	19930
2026-01-20 22:14:31.90	145.80	3.86	-45.2	-59.8	3.8	1.49e+00	0	59	104	304087040	61	19984
2026-01-20 22:14:32.91	145.89	3.80	-45.2	-59.8	3.8	1.49e+00	0	59	104	304087040	61	19932
2026-01-20 22:14:33.92	145.98	3.74	-45.2	-59.8	3.8	1.49e+00	0	59	104	304087040	61	19923
2026-01-20 22:14:34.93	146.06	3.69	-45.2	-59.8	3.8	1.49e+00	0	58	104	304087040	61	19915
2026-01-20 22:14:35.94	146.15	3.63	-45.2	-59.8	3.8	1.49e+00	0	58	104	304087040	61	19926
2026-01-20 22:14:36.96	146.24	3.58	-45.2	-59.8	3.8	1.49e+00	0	59	104	304087040	61	19916
2026-01-20 22:14:37.97	146.32	3.52	-45.2	-59.8	3.8	1.49e+00	0	59	104	304087040	61	19939
2026-01-20 22:14:38.97	146.41	3.46	-45.2	-59.8	3.8	1.49e+00	0	58	104	304087040	61	19934
2026-01-20 22:14:39.99	146.49	3.41	-45.2	-59.8	3.8	1.49e+00	0	59	104	304087040	61	19905
2026-01-20 22:14:41.00	146.58	3.35	-45.2	-59.8	3.8	1.49e+00	0	59	104	304087040	61	19932
2026-01-20 22:14:42.01	146.66	3.30	-45.2	-59.8	3.8	1.49e+00	0	59	104	304087040	61	19921
2026-01-20 22:14:43.02	146.75	3.24	-45.2	-59.8	3.8	1.49e+00	0	59	104	304087040	61	19950
2026-01-20 22:14:44.03	146.83	3.19	-45.2	-59.8	3.8	1.49e+00	0	59	104	304087040	61	19910
2026-01-20 22:14:45.04	146.91	3.13	-45.2	-59.8	3.8	1.49e+00	0	59	104	304087040	61	19915
2026-01-20 22:14:46.05	147.00	3.08	-45.2	-59.8	3.8	1.49e+00	0	59	104	304087040	61	19849
2026-01-20 22:14:47.06	147.08	3.02	-45.2	-59.8	3.8	1.49e+00	0	58	104	304087040	61	19941
2026-01-20 22:14:48.07	147.16	2.97	-45.2	-59.8	3.8	1.49e+00	0	58	104	304087040	61	19943
2026-01-20 22:14:49.08	147.24	2.91	-45.2	-59.8	3.8	1.49e+00	0	59	104	304087040	61	19898
2026-01-20 22:14:50.09	147.33	2.86	-45.2	-59.8	3.8	1.49e+00	0	59	104	304087040	61	19936
2026-01-20 22:14:51.10	147.41	2.80	-45.2	-59.8	3.8	1.49e+00	0	59	104	304087040	61	19948
2026-01-20 22:14:52.11	147.49	2.75	-45.2	-59.8	3.8	1.49e+00	0	59	104	304087040	61	19907
2026-01-20 22:14:53.12	147.57	2.69	-45.2	-59.8	3.8	1.49e+00	0	59	104	304087040	61	19876
2026-01-20 22:14:54.13	147.65	2.64	-45.2	-59.8	3.8	1.49e+00	0	59	104	304087040	61	19898
2026-01-20 22:14:55.14	147.73	2.58	-45.2	-59.8	3.8	1.49e+00	0	59	104	304087040	61	19869
2026-01-20 22:14:56.15	147.81	2.53	-45.2	-59.8	3.8	1.49e+00	0	59	104	304087040	61	19902
2026-01-20 22:14:57.16	147.89	2.47	-45.2	-59.8	3.8	1.49e+00	0	59	104	304087040	61	19953
2026-01-20 22:14:58.17	147.97	2.42	-45.2	-59.8	3.8	1.49e+00	0	59	104	304087040	61	19853
2026-01-20 22:14:59.18	148.05	2.37	-45.2	-59.8	3.8	1.49e+00	0	59	104	304087040	61	19905
2026-01-20 22:15:00.19	148.13	2.31	-45.2	-59.8	3.8	1.49e+00	0	58	104	304087040	61	19882
2026-01-20 22:15:01.20	148.21	2.26	-45.2	-59.8	3.8	1.49e+00	0	59	104	304087040	61	19901
2026-01-20 22:15:02.21	148.29	2.20	-45.2	-59.8	3.8	1.49e+00	0	59	104	304087040	61	19860
2026-01-20 22:15:03.22	148.37	2.15	-45.2	-59.7	3.8	1.49e+00	0	59	104	304087040	61	19835
2026-01-20 22:15:04.23	148.45	2.09	-45.2	-59.8	3.8	1.49e+00	0	58	104	304087040	61	19899
2026-01-20 22:15:05.24	148.52	2.04	-45.2	-59.8	3.8	1.49e+00	0	59	104	304087040	61	19961
2026-01-20 22:15:06.25	148.60	1.99	-45.2	-59.8	3.8	1.49e+00	0	59	104	304087040	61	19921

#Closed at: 2026-01-20 22:15:07
#Recorded file [304 MB]: D:/lorett/data/31039_260121_010814.dat