passes_logs/2026/01/20/R2.0S_Moscow/R2.0S_Moscow__20260120_120945_FENGYUN_3D_rec.log

#Pass ID: 20260120_120945_FENGYUN 3D
#Satellite: FENGYUN 3D
#Configuration: FENGYUN 3D
#almurnet v.1.7.20251203
#Start time: 2026-01-20 12:09:45

#Version: 2.2.20231116
#Station: R2.0S_Moscow
#Location: 37.707566 lon 55.798166 lat
#TLE: 1 43010U 17072A   26019.65504262 -.00000232  00000+0 -88147-4 0  9993
#TLE: 2 43010  98.9941 351.5427 0002443 100.5024 259.6427 14.19695886423913

#Time	Az	El	Level	Level2	SNR	BER	BlckErr	Temp	State	Recorded	gain1	gain2
2026-01-20 12:09:45.42	165.89	2.02	-43.9	-55.4	3.8	8.45e-01	0	51	0	0	59	13537
2026-01-20 12:09:46.43	165.90	2.09	-43.8	-55.4	3.8	8.46e-01	0	51	104	0	59	13530
2026-01-20 12:09:47.44	165.91	2.15	-43.8	-55.4	3.8	8.46e-01	0	51	104	0	59	13551
2026-01-20 12:09:48.45	165.92	2.22	-43.9	-55.4	3.8	8.46e-01	0	51	104	0	59	13517
2026-01-20 12:09:49.46	165.93	2.28	-43.8	-55.4	3.8	8.45e-01	0	51	104	0	59	13508
2026-01-20 12:09:50.47	165.95	2.35	-43.8	-55.4	3.8	8.47e-01	0	51	104	0	59	13505
2026-01-20 12:09:51.48	165.96	2.41	-43.8	-55.4	3.8	8.46e-01	0	52	104	0	59	13510
2026-01-20 12:09:52.49	165.97	2.48	-43.9	-55.4	3.8	8.47e-01	0	52	104	0	59	13546
2026-01-20 12:09:53.51	165.98	2.55	-43.9	-55.4	3.8	8.47e-01	0	52	104	0	59	13510
2026-01-20 12:09:54.52	165.99	2.61	-43.8	-55.4	3.8	8.46e-01	0	52	104	0	59	13471
2026-01-20 12:09:55.53	166.00	2.68	-43.8	-55.4	3.8	8.46e-01	0	52	104	0	59	13453
2026-01-20 12:09:56.54	166.02	2.74	-43.8	-55.4	3.8	8.45e-01	0	52	104	0	59	13533
2026-01-20 12:09:57.55	166.03	2.81	-43.8	-55.4	3.8	8.47e-01	0	52	104	0	59	13480
2026-01-20 12:09:58.56	166.04	2.88	-43.8	-55.4	3.8	8.46e-01	0	52	104	0	59	13485
2026-01-20 12:09:59.57	166.05	2.94	-43.8	-55.4	3.8	8.47e-01	0	52	104	0	59	13545
2026-01-20 12:10:00.58	166.06	3.01	-43.8	-55.4	3.8	8.46e-01	0	52	104	0	59	13495
2026-01-20 12:10:01.59	166.08	3.08	-43.8	-55.4	3.8	8.46e-01	0	52	104	0	59	13535
2026-01-20 12:10:02.60	166.09	3.15	-43.8	-55.4	3.8	8.47e-01	0	52	104	0	59	13476
2026-01-20 12:10:03.61	166.10	3.21	-43.8	-55.4	3.8	8.47e-01	0	52	104	0	59	13535
2026-01-20 12:10:04.62	166.11	3.28	-43.8	-55.4	3.8	8.46e-01	0	52	104	0	59	13480
2026-01-20 12:10:05.63	166.12	3.35	-43.8	-55.4	3.8	8.46e-01	0	52	104	0	59	13508
2026-01-20 12:10:06.64	166.14	3.42	-43.8	-55.4	3.8	8.46e-01	0	52	104	0	59	13505
2026-01-20 12:10:07.65	166.15	3.49	-43.8	-55.4	3.8	8.46e-01	0	52	104	0	59	13467
2026-01-20 12:10:08.66	166.16	3.55	-43.8	-55.4	3.8	8.46e-01	0	53	104	0	59	13465
2026-01-20 12:10:09.67	166.17	3.62	-43.8	-55.4	3.8	8.45e-01	0	53	104	0	59	13532
2026-01-20 12:10:10.68	166.18	3.69	-43.8	-55.4	3.8	8.46e-01	0	53	104	0	59	13502
2026-01-20 12:10:11.69	166.20	3.76	-43.8	-55.4	3.8	8.46e-01	0	53	104	0	59	13488
2026-01-20 12:10:12.70	166.21	3.83	-43.8	-55.4	3.8	8.46e-01	0	53	104	0	59	13520
2026-01-20 12:10:13.71	166.22	3.90	-43.8	-55.4	3.8	8.45e-01	0	53	104	0	59	13490
2026-01-20 12:10:14.72	166.23	3.97	-43.8	-55.4	3.8	8.46e-01	0	53	104	0	59	13496
2026-01-20 12:10:15.73	166.25	4.04	-43.8	-55.4	3.8	8.47e-01	0	53	104	0	59	13481
2026-01-20 12:10:16.75	166.26	4.11	-43.8	-55.4	3.8	8.46e-01	0	53	104	0	59	13479
2026-01-20 12:10:17.76	166.27	4.18	-43.8	-55.4	3.8	8.45e-01	0	53	104	0	59	13509
2026-01-20 12:10:18.77	166.29	4.25	-43.8	-55.4	3.8	8.47e-01	0	53	104	0	59	13466
2026-01-20 12:10:19.78	166.30	4.32	-43.8	-55.4	3.8	8.46e-01	0	53	104	0	59	13528
2026-01-20 12:10:20.79	166.31	4.39	-43.8	-55.4	3.8	8.46e-01	0	53	104	0	59	13465
2026-01-20 12:10:21.80	166.32	4.46	-43.8	-55.4	3.8	8.46e-01	0	53	104	0	59	13461
2026-01-20 12:10:22.81	166.34	4.53	-43.8	-55.3	3.8	8.46e-01	0	53	104	0	59	13412
2026-01-20 12:10:23.82	166.35	4.60	-43.8	-55.4	3.8	8.46e-01	0	53	104	0	59	13449
2026-01-20 12:10:24.83	166.36	4.67	-43.8	-55.4	3.8	8.46e-01	0	53	104	0	59	13515
2026-01-20 12:10:25.84	166.38	4.75	-43.8	-55.4	3.8	8.45e-01	0	54	104	0	59	13496
2026-01-20 12:10:26.85	166.39	4.82	-43.8	-55.4	3.8	8.45e-01	0	54	104	0	59	13513
2026-01-20 12:10:27.86	166.40	4.89	-43.8	-55.3	3.8	8.46e-01	0	54	104	0	59	13402
2026-01-20 12:10:28.87	166.42	4.96	-43.8	-55.4	3.8	8.45e-01	0	54	104	0	59	13448
2026-01-20 12:10:29.88	166.43	5.03	-43.8	-55.2	3.8	8.46e-01	0	54	104	0	59	13259
2026-01-20 12:10:30.89	166.44	5.11	-43.8	-55.3	3.8	8.45e-01	0	54	104	0	59	13278
2026-01-20 12:10:31.90	166.46	5.18	-43.7	-55.1	3.8	8.46e-01	0	54	104	0	59	12989
2026-01-20 12:10:32.91	166.47	5.25	-43.8	-54.9	3.8	8.46e-01	0	54	104	0	59	12793
2026-01-20 12:10:33.93	166.48	5.33	-43.7	-54.4	3.8	8.46e-01	0	54	104	0	59	12077
2026-01-20 12:10:34.94	166.50	5.40	-43.7	-53.9	3.8	8.46e-01	0	54	104	0	59	11417
2026-01-20 12:10:35.95	166.51	5.47	-43.6	-53.3	3.8	8.45e-01	0	54	104	0	59	10601
2026-01-20 12:10:36.96	166.52	5.55	-43.4	-52.4	3.9	8.43e-01	0	54	104	0	58	10100
2026-01-20 12:10:37.97	166.54	5.62	-43.3	-51.3	4.3	8.33e-01	0	54	0	0	58	8940
2026-01-20 12:10:38.98	166.55	5.69	-43.1	-50.5	4.6	8.20e-01	0	54	0	0	58	8166
2026-01-20 12:10:39.99	166.56	5.77	-43.0	-50.1	4.8	7.92e-01	0	54	0	0	58	7773
2026-01-20 12:10:41.00	166.58	5.84	-43.0	-49.9	4.9	7.78e-01	0	54	0	0	58	7576
2026-01-20 12:10:42.01	166.59	5.92	-43.1	-50.3	4.7	7.88e-01	0	54	0	0	57	8397
2026-01-20 12:10:43.02	166.61	5.99	-43.2	-50.8	4.5	8.04e-01	0	54	0	0	57	8886
2026-01-20 12:10:44.03	166.62	6.07	-43.2	-51.1	4.4	8.28e-01	0	54	0	0	57	9251
2026-01-20 12:10:45.04	166.63	6.14	-43.1	-50.6	4.6	8.20e-01	0	55	0	0	57	8724
2026-01-20 12:10:46.05	166.65	6.22	-43.0	-50.1	4.8	8.02e-01	0	55	0	0	57	8263
2026-01-20 12:10:47.06	166.66	6.29	-43.1	-50.6	4.6	7.98e-01	0	54	0	0	57	8690
2026-01-20 12:10:48.07	166.68	6.37	-43.3	-51.7	4.2	8.33e-01	0	55	0	0	57	9932
2026-01-20 12:10:49.08	166.69	6.45	-43.4	-51.9	4.2	8.37e-01	0	55	0	0	57	10062
2026-01-20 12:10:50.09	166.71	6.52	-43.2	-51.2	4.4	8.33e-01	0	54	0	0	57	9321
2026-01-20 12:10:51.10	166.72	6.60	-43.4	-52.4	4.0	8.39e-01	0	55	0	0	57	10769
2026-01-20 12:10:52.11	166.74	6.68	-43.5	-52.9	4.0	8.44e-01	0	55	104	0	57	11351
2026-01-20 12:10:53.13	166.75	6.76	-43.5	-52.5	4.0	8.41e-01	0	55	0	0	57	10870
2026-01-20 12:10:54.13	166.76	6.83	-43.5	-53.0	4.0	8.44e-01	0	55	104	0	57	11542
2026-01-20 12:10:55.14	166.78	6.91	-43.4	-52.1	4.1	8.40e-01	0	55	0	0	57	10371
2026-01-20 12:10:56.15	166.79	6.99	-43.3	-51.9	4.1	8.40e-01	0	55	0	0	57	10142
2026-01-20 12:10:57.16	166.81	7.07	-43.0	-50.3	4.7	8.14e-01	0	55	0	0	57	8418
2026-01-20 12:10:58.17	166.82	7.14	-42.9	-49.6	5.1	7.63e-01	0	55	0	0	57	7728
2026-01-20 12:10:59.18	166.84	7.22	-42.4	-48.1	6.1	3.81e-01	0	55	0	2097152	56	6947
2026-01-20 12:11:00.19	166.85	7.30	-42.2	-47.4	6.7	2.47e-01	0	55	0	8388608	56	6359
2026-01-20 12:11:01.20	166.87	7.38	-41.4	-45.8	8.1	1.12e-01	0	55	0	13631488	54	5941
2026-01-20 12:11:02.21	166.88	7.46	-41.1	-45.1	8.8	5.03e-02	0	55	0	19922944	54	5493
2026-01-20 12:11:03.22	166.90	7.54	-40.7	-44.3	9.6	1.82e-02	0	55	0	25165824	53	5340
2026-01-20 12:11:04.23	166.92	7.62	-40.4	-43.7	10.2	8.92e-03	0	55	0	30408704	52	5267
2026-01-20 12:11:05.24	166.93	7.70	-40.1	-43.3	10.7	4.57e-03	0	55	0	36700160	52	4986
2026-01-20 12:11:06.25	166.95	7.78	-40.0	-42.9	11.1	2.05e-03	0	55	0	41943040	51	5100
2026-01-20 12:11:07.26	166.96	7.86	-39.7	-42.5	11.5	1.62e-03	0	55	0	48234496	51	4863
2026-01-20 12:11:08.27	166.98	7.94	-39.6	-42.4	11.7	9.58e-04	0	55	0	53477376	51	4780
2026-01-20 12:11:09.29	166.99	8.02	-39.6	-42.4	11.7	8.24e-04	0	55	0	58720256	51	4770
2026-01-20 12:11:10.30	167.01	8.10	-39.7	-42.5	11.7	8.97e-04	0	56	0	65011712	51	4834
2026-01-20 12:11:11.31	167.02	8.19	-43.1	-49.7	5.2	7.38e-01	0	56	0	68157440	57	7814
2026-01-20 12:11:12.32	167.04	8.27	-40.7	-44.0	10.0	3.63e-01	0	56	0	71303168	53	5151
2026-01-20 12:11:13.33	167.06	8.35	-43.3	-52.6	3.9	8.44e-01	0	56	104	73400320	57	10979
2026-01-20 12:11:14.33	167.07	8.43	-41.4	-45.4	8.5	3.91e-01	0	56	0	75497472	54	5712
2026-01-20 12:11:15.34	167.09	8.51	-39.8	-42.5	11.8	1.19e-03	0	56	0	80740352	50	5133
2026-01-20 12:11:16.35	167.11	8.60	-39.3	-41.8	12.4	2.63e-04	0	56	0	85983232	50	4747
2026-01-20 12:11:17.36	167.12	8.68	-39.2	-41.7	12.6	1.51e-04	0	56	0	92274688	50	4696
2026-01-20 12:11:18.37	167.14	8.76	-39.2	-41.7	12.5	1.82e-04	0	56	0	97517568	50	4690
2026-01-20 12:11:19.38	167.15	8.85	-39.2	-41.7	12.6	1.70e-04	0	56	0	103809024	50	4683
2026-01-20 12:11:20.39	167.17	8.93	-39.2	-41.7	12.6	1.73e-04	0	56	0	109051904	50	4681
2026-01-20 12:11:21.40	167.19	9.02	-39.2	-41.6	12.7	1.75e-04	0	56	0	114294784	50	4636
2026-01-20 12:11:22.41	167.20	9.10	-39.2	-41.7	12.6	1.67e-04	0	56	0	120586240	50	4687
2026-01-20 12:11:23.42	167.22	9.19	-39.2	-41.7	12.6	1.73e-04	0	56	0	125829120	50	4684
2026-01-20 12:11:24.43	167.24	9.27	-39.2	-41.6	12.7	1.45e-04	0	56	0	132120576	50	4635
2026-01-20 12:11:25.44	167.25	9.36	-39.2	-41.7	12.7	1.48e-04	0	56	0	137363456	50	4670
2026-01-20 12:11:26.45	167.27	9.44	-39.1	-41.5	12.9	8.69e-05	0	56	0	142606336	50	4554
2026-01-20 12:11:27.46	167.29	9.53	-39.2	-41.6	12.8	1.11e-04	0	56	0	148897792	50	4610
2026-01-20 12:11:28.47	167.31	9.62	-39.2	-41.6	12.8	1.21e-04	0	56	0	154140672	50	4621
2026-01-20 12:11:29.48	167.32	9.70	-39.2	-41.7	12.7	1.38e-04	0	56	0	160432128	50	4670
2026-01-20 12:11:30.49	167.34	9.79	-39.2	-41.6	12.8	7.89e-05	0	56	0	165675008	50	4629
2026-01-20 12:11:31.50	167.36	9.88	-39.1	-41.5	12.9	8.69e-05	0	56	0	171966464	50	4589
2026-01-20 12:11:32.51	167.38	9.96	-39.1	-41.6	12.9	9.38e-05	0	56	0	177209344	50	4612
2026-01-20 12:11:33.52	167.39	10.05	-39.1	-41.5	12.9	8.81e-05	0	56	0	183500800	50	4586
2026-01-20 12:11:34.53	167.41	10.14	-39.1	-41.6	12.9	6.52e-05	0	56	0	188743680	50	4609
2026-01-20 12:11:35.54	167.43	10.23	-39.2	-41.6	12.9	5.37e-05	0	56	0	193986560	50	4613
2026-01-20 12:11:36.55	167.45	10.32	-39.2	-41.6	12.9	5.72e-05	0	56	0	200278016	50	4606
2026-01-20 12:11:37.56	167.46	10.41	-39.1	-41.4	13.0	5.49e-05	0	56	0	205520896	50	4544
2026-01-20 12:11:38.57	167.48	10.50	-39.1	-41.5	13.0	6.29e-05	0	56	0	211812352	50	4584
2026-01-20 12:11:39.58	167.50	10.59	-39.0	-41.4	13.1	6.17e-05	0	56	0	217055232	50	4517
2026-01-20 12:11:40.59	167.52	10.68	-39.1	-41.4	13.1	4.46e-05	0	56	0	222298112	50	4516
2026-01-20 12:11:41.60	167.54	10.77	-39.1	-41.4	13.1	5.72e-05	0	56	0	228589568	50	4535
2026-01-20 12:11:42.60	167.56	10.86	-39.1	-41.4	13.1	5.95e-05	0	56	0	233832448	50	4520
2026-01-20 12:11:43.62	167.57	10.95	-39.1	-41.4	13.1	6.63e-05	0	56	0	240123904	50	4534
2026-01-20 12:11:44.62	167.59	11.04	-39.1	-41.5	13.0	4.11e-05	0	56	0	245366784	50	4587
2026-01-20 12:11:45.64	167.61	11.13	-39.2	-41.6	13.0	5.72e-05	0	56	0	250609664	50	4604
2026-01-20 12:11:46.65	167.63	11.23	-39.1	-41.4	13.2	4.23e-05	0	56	0	256901120	50	4510
2026-01-20 12:11:47.65	167.65	11.32	-39.0	-41.3	13.2	3.77e-05	0	56	0	262144000	49	4744
2026-01-20 12:11:48.66	167.67	11.41	-39.0	-41.4	13.2	2.74e-05	0	57	0	268435456	49	4767
2026-01-20 12:11:49.68	167.69	11.50	-39.1	-41.4	13.2	4.57e-05	0	57	0	273678336	49	4785
2026-01-20 12:11:50.69	167.71	11.60	-39.1	-41.4	13.2	3.54e-05	0	57	0	279969792	49	4782
2026-01-20 12:11:51.70	167.73	11.69	-39.1	-41.4	13.2	5.72e-05	0	57	0	285212672	49	4797
2026-01-20 12:11:52.71	167.75	11.79	-39.0	-41.3	13.3	3.54e-05	0	56	0	291504128	49	4725
2026-01-20 12:11:53.72	167.77	11.88	-39.0	-41.3	13.3	2.51e-05	0	57	0	296747008	49	4726
2026-01-20 12:11:54.73	167.79	11.98	-39.1	-41.5	13.2	3.20e-05	0	57	0	301989888	49	4828
2026-01-20 12:11:55.74	167.81	12.07	-39.0	-41.3	13.3	5.60e-05	0	57	0	308281344	49	4755
2026-01-20 12:11:56.75	167.83	12.17	-39.0	-41.3	13.3	3.08e-05	0	57	0	313524224	49	4754
2026-01-20 12:11:57.76	167.85	12.26	-39.0	-41.4	13.3	3.54e-05	0	57	0	319815680	49	4767
2026-01-20 12:11:58.77	167.87	12.36	-39.1	-41.4	13.2	4.23e-05	0	57	0	325058560	49	4801
2026-01-20 12:11:59.78	167.89	12.46	-38.9	-41.2	13.5	2.51e-05	0	57	0	330301440	49	4684
2026-01-20 12:12:00.79	167.91	12.55	-39.0	-41.3	13.4	1.94e-05	0	57	0	336592896	49	4714
2026-01-20 12:12:01.80	167.93	12.65	-38.9	-41.2	13.5	2.51e-05	0	57	0	341835776	49	4664
2026-01-20 12:12:02.81	167.95	12.75	-39.0	-41.3	13.4	2.17e-05	0	57	0	347078656	49	4726
2026-01-20 12:12:03.81	167.97	12.85	-38.9	-41.1	13.6	1.37e-05	0	57	0	353370112	49	4629
2026-01-20 12:12:04.82	167.99	12.95	-38.9	-41.2	13.5	3.08e-05	0	57	0	358612992	49	4681
2026-01-20 12:12:05.83	168.01	13.05	-39.0	-41.2	13.4	2.28e-05	0	57	0	364904448	49	4697
2026-01-20 12:12:06.84	168.03	13.15	-39.0	-41.3	13.4	1.94e-05	0	57	0	370147328	49	4723
2026-01-20 12:12:07.85	168.05	13.25	-38.9	-41.2	13.5	2.40e-05	0	57	0	376438784	49	4663
2026-01-20 12:12:08.86	168.07	13.35	-38.8	-41.0	13.7	9.10e-06	0	57	0	381681664	49	4593
2026-01-20 12:12:09.87	168.10	13.45	-38.8	-41.0	13.7	1.02e-05	0	57	0	387973120	49	4561
2026-01-20 12:12:10.88	168.12	13.55	-38.7	-40.9	13.8	9.10e-06	0	57	0	393216000	49	4538
2026-01-20 12:12:11.89	168.14	13.65	-38.8	-41.0	13.8	6.80e-06	0	57	0	398458880	49	4550
2026-01-20 12:12:12.90	168.16	13.75	-38.7	-40.9	13.9	3.40e-06	0	57	0	404750336	49	4506
2026-01-20 12:12:13.91	168.18	13.86	-38.7	-40.8	13.9	6.80e-06	0	57	0	409993216	49	4490
2026-01-20 12:12:14.92	168.20	13.96	-38.6	-40.8	13.9	1.02e-05	0	57	0	416284672	49	4473
2026-01-20 12:12:15.93	168.23	14.06	-38.6	-40.8	14.0	8.00e-06	0	57	0	421527552	49	4445
2026-01-20 12:12:16.94	168.25	14.17	-38.5	-40.7	14.1	4.50e-06	0	57	0	426770432	49	4400
2026-01-20 12:12:17.95	168.27	14.27	-38.5	-40.6	14.2	8.00e-06	0	57	0	433061888	49	4357
2026-01-20 12:12:18.96	168.29	14.38	-38.5	-40.6	14.2	1.10e-06	0	57	0	438304768	49	4341
2026-01-20 12:12:19.97	168.32	14.48	-38.4	-40.5	14.3	1.10e-06	0	57	0	444596224	48	4555
2026-01-20 12:12:20.98	168.34	14.59	-38.4	-40.4	14.4	2.20e-06	0	57	0	449839104	48	4523
2026-01-20 12:12:21.99	168.36	14.69	-38.3	-40.3	14.5	2.20e-06	0	57	0	455081984	48	4486
2026-01-20 12:12:23.00	168.39	14.80	-38.4	-40.5	14.3	0.00e+00	0	57	0	461373440	48	4548
2026-01-20 12:12:24.01	168.41	14.91	-38.2	-40.3	14.6	0.00e+00	0	57	0	466616320	48	4450
2026-01-20 12:12:25.02	168.43	15.01	-38.3	-40.3	14.5	1.10e-06	0	57	0	472907776	48	4472
2026-01-20 12:12:26.03	168.46	15.12	-38.2	-40.2	14.6	0.00e+00	0	57	0	478150656	48	4430
2026-01-20 12:12:27.04	168.48	15.23	-38.2	-40.1	14.7	2.20e-06	0	57	0	484442112	48	4376
2026-01-20 12:12:28.05	168.50	15.34	-38.1	-40.1	14.8	0.00e+00	0	57	0	489684992	48	4346
2026-01-20 12:12:29.05	168.53	15.45	-38.1	-40.1	14.8	0.00e+00	0	57	0	494927872	48	4346
2026-01-20 12:12:30.06	168.55	15.56	-38.0	-40.0	14.9	1.10e-06	0	57	0	501219328	48	4304
2026-01-20 12:12:31.07	168.58	15.67	-38.1	-40.0	14.9	0.00e+00	0	57	0	506462208	48	4316
2026-01-20 12:12:32.08	168.60	15.78	-37.9	-39.8	14.9	0.00e+00	0	57	0	512753664	47	4479
2026-01-20 12:12:33.09	168.63	15.89	-37.9	-39.8	14.9	0.00e+00	0	57	0	517996544	47	4466
2026-01-20 12:12:34.10	168.65	16.00	-37.8	-39.7	15.0	0.00e+00	0	57	0	523239424	47	4438
2026-01-20 12:12:35.11	168.68	16.12	-37.9	-39.8	15.0	0.00e+00	0	57	0	529530880	47	4464
2026-01-20 12:12:36.12	168.70	16.23	-37.8	-39.7	15.1	0.00e+00	0	57	0	534773760	47	4409
2026-01-20 12:12:37.13	168.73	16.34	-37.8	-39.7	15.0	0.00e+00	0	58	0	541065216	47	4427
2026-01-20 12:12:38.14	168.75	16.46	-37.7	-39.6	15.2	0.00e+00	0	57	0	546308096	47	4349
2026-01-20 12:12:39.16	168.78	16.57	-37.6	-39.5	15.2	0.00e+00	0	58	0	551550976	47	4330
2026-01-20 12:12:40.17	168.81	16.69	-37.7	-39.6	15.2	0.00e+00	0	58	0	557842432	47	4343
2026-01-20 12:12:41.18	168.83	16.81	-37.6	-39.5	15.3	0.00e+00	0	57	0	563085312	47	4322
2026-01-20 12:12:42.19	168.86	16.92	-37.6	-39.4	15.3	0.00e+00	0	57	0	569376768	47	4287
2026-01-20 12:12:43.20	168.88	17.04	-37.6	-39.5	15.3	0.00e+00	0	57	0	574619648	47	4332
2026-01-20 12:12:44.20	168.91	17.15	-37.6	-39.5	15.3	0.00e+00	0	57	0	580911104	47	4309
2026-01-20 12:12:45.21	168.94	17.27	-37.6	-39.4	15.3	0.00e+00	0	58	0	586153984	47	4289
2026-01-20 12:12:46.22	168.96	17.39	-37.6	-39.4	15.4	0.00e+00	0	57	0	592445440	47	4284
2026-01-20 12:12:47.23	168.99	17.51	-37.6	-39.4	15.4	0.00e+00	0	57	0	597688320	47	4291
2026-01-20 12:12:48.24	169.02	17.63	-37.5	-39.3	15.5	1.10e-06	0	58	0	602931200	47	4221
2026-01-20 12:12:49.25	169.05	17.75	-37.6	-39.4	15.4	0.00e+00	0	57	0	609222656	46	4539
2026-01-20 12:12:50.26	169.07	17.87	-37.6	-39.5	15.3	0.00e+00	0	58	0	614465536	46	4549
2026-01-20 12:12:51.27	169.10	17.99	-37.5	-39.4	15.4	0.00e+00	0	58	0	620756992	46	4514
2026-01-20 12:12:52.28	169.13	18.12	-37.6	-39.5	15.4	0.00e+00	0	58	0	625999872	46	4558
2026-01-20 12:12:53.29	169.16	18.24	-37.6	-39.4	15.4	0.00e+00	0	58	0	631242752	46	4538
2026-01-20 12:12:54.30	169.19	18.36	-37.6	-39.4	15.4	0.00e+00	0	58	0	637534208	46	4539
2026-01-20 12:12:55.31	169.22	18.49	-37.5	-39.4	15.5	0.00e+00	0	58	0	642777088	46	4500
2026-01-20 12:12:56.32	169.25	18.61	-37.5	-39.4	15.5	0.00e+00	0	58	0	649068544	46	4498
2026-01-20 12:12:57.34	169.28	18.74	-37.5	-39.4	15.4	0.00e+00	0	58	0	654311424	46	4515
2026-01-20 12:12:58.35	169.31	18.86	-37.5	-39.3	15.5	0.00e+00	0	58	0	659554304	46	4478
2026-01-20 12:12:59.36	169.33	18.99	-37.4	-39.2	15.6	0.00e+00	0	58	0	665845760	46	4438
2026-01-20 12:13:00.36	169.36	19.11	-37.5	-39.3	15.5	0.00e+00	0	58	0	671088640	46	4464
2026-01-20 12:13:01.37	169.39	19.24	-37.5	-39.3	15.5	0.00e+00	0	58	0	677380096	46	4467
2026-01-20 12:13:02.38	169.42	19.37	-37.4	-39.3	15.6	0.00e+00	0	57	0	682622976	46	4443
2026-01-20 12:13:03.39	169.46	19.50	-37.4	-39.2	15.6	0.00e+00	0	58	0	688914432	46	4422
2026-01-20 12:13:04.40	169.49	19.63	-37.3	-39.1	15.7	0.00e+00	0	58	0	694157312	46	4364
2026-01-20 12:13:05.41	169.52	19.76	-37.3	-39.1	15.8	0.00e+00	0	58	0	700448768	46	4341
2026-01-20 12:13:06.42	169.55	19.89	-37.2	-39.0	15.8	0.00e+00	0	58	0	705691648	46	4330
2026-01-20 12:13:07.43	169.58	20.02	-37.1	-38.9	15.9	0.00e+00	0	58	0	710934528	46	4270
2026-01-20 12:13:08.44	169.61	20.16	-37.2	-38.9	15.9	0.00e+00	0	58	0	717225984	46	4283
2026-01-20 12:13:09.45	169.64	20.29	-37.2	-38.9	15.9	0.00e+00	0	58	0	722468864	46	4276
2026-01-20 12:13:10.45	169.68	20.42	-37.2	-38.9	15.9	0.00e+00	0	58	0	727711744	46	4288
2026-01-20 12:13:11.46	169.71	20.56	-37.1	-38.9	15.9	0.00e+00	0	58	0	734003200	46	4261
2026-01-20 12:13:12.47	169.74	20.69	-37.1	-38.8	16.0	0.00e+00	0	58	0	739246080	46	4227
2026-01-20 12:13:13.49	169.78	20.83	-37.1	-38.8	16.0	0.00e+00	0	58	0	745537536	46	4219
2026-01-20 12:13:14.50	169.81	20.97	-37.0	-38.8	16.1	0.00e+00	0	58	0	750780416	46	4194
2026-01-20 12:13:15.51	169.84	21.10	-37.0	-38.7	16.1	0.00e+00	0	58	0	756023296	45	4406
2026-01-20 12:13:16.52	169.88	21.24	-36.9	-38.6	16.2	0.00e+00	0	58	0	762314752	45	4390
2026-01-20 12:13:17.53	169.91	21.38	-37.0	-38.8	16.1	0.00e+00	0	58	0	767557632	45	4448
2026-01-20 12:13:18.54	169.94	21.52	-37.0	-38.7	16.2	0.00e+00	0	58	0	773849088	45	4407
2026-01-20 12:13:19.55	169.98	21.66	-37.0	-38.7	16.1	0.00e+00	0	58	0	779091968	45	4413
2026-01-20 12:13:20.56	170.01	21.80	-36.8	-38.5	16.3	0.00e+00	0	58	0	785383424	45	4336
2026-01-20 12:13:21.57	170.05	21.94	-36.8	-38.4	16.4	0.00e+00	0	58	0	790626304	45	4279
2026-01-20 12:13:22.58	170.09	22.09	-36.7	-38.3	16.5	0.00e+00	0	58	0	796917760	45	4240
2026-01-20 12:13:23.59	170.12	22.23	-36.6	-38.3	16.6	0.00e+00	0	58	0	802160640	45	4199
2026-01-20 12:13:24.60	170.16	22.38	-36.7	-38.4	16.5	0.00e+00	0	58	0	807403520	45	4257
2026-01-20 12:13:25.60	170.19	22.52	-36.5	-38.2	16.7	0.00e+00	0	58	0	813694976	45	4155
2026-01-20 12:13:26.61	170.23	22.67	-36.5	-38.2	16.7	0.00e+00	0	58	0	818937856	45	4150
2026-01-20 12:13:27.62	170.27	22.81	-36.5	-38.2	16.7	0.00e+00	0	58	0	825229312	45	4150
2026-01-20 12:13:28.63	170.31	22.96	-36.5	-38.2	16.7	0.00e+00	0	58	0	830472192	45	4154
2026-01-20 12:13:29.64	170.34	23.11	-36.5	-38.2	16.7	0.00e+00	0	58	0	835715072	45	4147
2026-01-20 12:13:30.65	170.38	23.26	-36.5	-38.2	16.7	0.00e+00	0	58	0	842006528	45	4153
2026-01-20 12:13:31.66	170.42	23.41	-36.6	-38.3	16.6	0.00e+00	0	58	0	847249408	45	4207
2026-01-20 12:13:32.67	170.46	23.56	-36.6	-38.2	16.6	0.00e+00	0	58	0	853540864	45	4187
2026-01-20 12:13:33.69	170.50	23.71	-36.6	-38.3	16.6	0.00e+00	0	58	0	858783744	45	4203
2026-01-20 12:13:34.70	170.54	23.87	-36.7	-38.3	16.5	0.00e+00	0	58	0	864026624	45	4242
2026-01-20 12:13:35.71	170.58	24.02	-36.7	-38.4	16.5	0.00e+00	0	58	0	870318080	45	4250
2026-01-20 12:13:36.71	170.62	24.17	-36.8	-38.5	16.4	0.00e+00	0	58	0	875560960	45	4295
2026-01-20 12:13:37.73	170.66	24.33	-36.7	-38.4	16.5	0.00e+00	0	58	0	881852416	45	4255
2026-01-20 12:13:38.74	170.70	24.49	-36.7	-38.3	16.5	0.00e+00	0	58	0	887095296	45	4240
2026-01-20 12:13:39.75	170.74	24.65	-36.7	-38.4	16.5	0.00e+00	0	58	0	893386752	45	4272
2026-01-20 12:13:40.76	170.78	24.80	-36.7	-38.4	16.5	0.00e+00	0	58	0	898629632	45	4259
2026-01-20 12:13:41.76	170.82	24.96	-36.6	-38.3	16.6	0.00e+00	0	58	0	904921088	45	4201
2026-01-20 12:13:42.77	170.87	25.12	-36.5	-38.1	16.7	0.00e+00	0	58	0	910163968	45	4145
2026-01-20 12:13:43.78	170.91	25.28	-36.4	-38.1	16.9	0.00e+00	0	58	0	915406848	44	4345
2026-01-20 12:13:44.79	170.95	25.45	-36.4	-38.0	16.9	0.00e+00	0	58	0	921698304	44	4320
2026-01-20 12:13:45.80	171.00	25.61	-36.4	-38.0	16.9	0.00e+00	0	58	0	926941184	44	4324
2026-01-20 12:13:46.81	171.04	25.77	-36.4	-38.0	17.0	0.00e+00	0	58	0	933232640	44	4303
2026-01-20 12:13:47.82	171.09	25.94	-36.3	-37.9	17.1	0.00e+00	0	58	0	938475520	44	4251
2026-01-20 12:13:48.83	171.13	26.11	-36.2	-37.8	17.2	0.00e+00	0	58	0	943718400	44	4195
2026-01-20 12:13:49.84	171.18	26.27	-36.2	-37.8	17.2	0.00e+00	0	58	0	950009856	44	4196
2026-01-20 12:13:50.85	171.22	26.44	-36.1	-37.7	17.3	0.00e+00	0	58	0	955252736	44	4148
2026-01-20 12:13:51.86	171.27	26.61	-36.2	-37.8	17.2	0.00e+00	0	58	0	961544192	44	4195
2026-01-20 12:13:52.87	171.32	26.78	-36.2	-37.7	17.2	0.00e+00	0	58	0	966787072	44	4170
2026-01-20 12:13:53.88	171.36	26.95	-36.2	-37.8	17.2	0.00e+00	0	58	0	972029952	44	4212
2026-01-20 12:13:54.89	171.41	27.13	-36.3	-37.8	17.1	0.00e+00	0	58	0	978321408	44	4229
2026-01-20 12:13:55.90	171.46	27.30	-36.3	-37.8	17.1	0.00e+00	0	58	0	983564288	44	4241
2026-01-20 12:13:56.91	171.51	27.47	-36.3	-37.8	17.1	0.00e+00	0	58	0	989855744	44	4237
2026-01-20 12:13:57.92	171.56	27.65	-36.3	-37.9	17.1	0.00e+00	0	58	0	995098624	44	4250
2026-01-20 12:13:58.92	171.61	27.82	-36.3	-37.9	17.0	0.00e+00	0	58	0	1001390080	44	4269
2026-01-20 12:13:59.93	171.66	28.00	-36.3	-37.9	17.0	0.00e+00	0	58	0	1006632960	44	4270
2026-01-20 12:14:00.94	171.71	28.18	-36.3	-37.9	17.0	0.00e+00	0	58	0	1011875840	44	4283
2026-01-20 12:14:01.95	171.76	28.36	-36.3	-37.9	17.0	0.00e+00	0	58	0	1018167296	44	4290
2026-01-20 12:14:02.96	171.81	28.54	-36.4	-38.1	16.9	0.00e+00	0	58	0	1023410176	44	4343
2026-01-20 12:14:03.98	171.86	28.73	-36.4	-38.0	16.9	0.00e+00	0	58	0	1029701632	44	4337
2026-01-20 12:14:04.99	171.92	28.91	-36.4	-38.0	16.9	0.00e+00	0	58	0	1034944512	44	4319
2026-01-20 12:14:06.00	171.97	29.10	-36.4	-38.1	16.9	0.00e+00	0	58	0	1040187392	44	4346
2026-01-20 12:14:07.00	172.02	29.28	-36.4	-38.0	16.9	0.00e+00	0	58	0	1046478848	44	4338
2026-01-20 12:14:08.01	172.08	29.47	-36.4	-38.0	16.9	0.00e+00	0	58	0	1051721728	44	4323
2026-01-20 12:14:09.02	172.13	29.66	-36.5	-38.1	16.9	0.00e+00	0	58	0	1058013184	44	4357
2026-01-20 12:14:10.03	172.19	29.85	-36.5	-38.1	16.8	0.00e+00	0	58	0	1063256064	44	4366
2026-01-20 12:14:11.04	172.25	30.04	-36.5	-38.1	16.8	0.00e+00	0	58	0	1068498944	44	4361
2026-01-20 12:14:12.05	172.30	30.23	-36.4	-38.0	16.9	0.00e+00	0	58	0	1074790400	44	4320
2026-01-20 12:14:13.06	172.36	30.43	-36.3	-37.9	17.0	0.00e+00	0	58	0	1080033280	44	4256
2026-01-20 12:14:14.07	172.42	30.62	-36.3	-38.0	17.0	0.00e+00	0	58	0	1086324736	44	4294
2026-01-20 12:14:15.08	172.48	30.82	-36.3	-37.8	17.1	0.00e+00	0	58	0	1091567616	44	4236
2026-01-20 12:14:16.08	172.54	31.01	-36.2	-37.8	17.1	0.00e+00	0	58	0	1097859072	44	4223
2026-01-20 12:14:17.09	172.60	31.21	-36.2	-37.8	17.1	0.00e+00	0	58	0	1103101952	44	4212
2026-01-20 12:14:18.10	172.66	31.41	-36.2	-37.8	17.1	0.00e+00	0	58	0	1108344832	44	4233
2026-01-20 12:14:19.11	172.72	31.61	-36.2	-37.8	17.1	0.00e+00	0	58	0	1114636288	44	4236
2026-01-20 12:14:20.13	172.79	31.82	-36.2	-37.8	17.2	0.00e+00	0	59	0	1119879168	44	4206
2026-01-20 12:14:21.14	172.85	32.02	-36.2	-37.7	17.2	0.00e+00	0	58	0	1126170624	44	4193
2026-01-20 12:14:22.15	172.91	32.23	-36.1	-37.6	17.4	0.00e+00	0	58	0	1131413504	44	4118
2026-01-20 12:14:23.16	172.98	32.44	-36.0	-37.5	17.4	0.00e+00	0	59	0	1136656384	44	4092
2026-01-20 12:14:24.17	173.04	32.65	-36.0	-37.5	17.4	0.00e+00	0	58	0	1142947840	44	4087
2026-01-20 12:14:25.17	173.11	32.85	-36.1	-37.6	17.4	0.00e+00	0	58	0	1148190720	44	4122
2026-01-20 12:14:26.18	173.18	33.06	-36.1	-37.6	17.3	0.00e+00	0	59	0	1154482176	44	4145
2026-01-20 12:14:27.19	173.25	33.28	-36.1	-37.6	17.3	0.00e+00	0	58	0	1159725056	44	4137
2026-01-20 12:14:28.20	173.32	33.49	-36.1	-37.6	17.4	0.00e+00	0	59	0	1164967936	44	4139
2026-01-20 12:14:29.21	173.39	33.71	-36.1	-37.6	17.4	0.00e+00	0	58	0	1171259392	44	4135
2026-01-20 12:14:30.22	173.46	33.92	-35.8	-37.3	17.5	0.00e+00	0	59	0	1176502272	43	4213
2026-01-20 12:14:31.23	173.53	34.14	-35.6	-37.1	17.7	0.00e+00	0	58	0	1182793728	43	4119
2026-01-20 12:14:32.24	173.60	34.36	-35.6	-37.1	17.7	0.00e+00	0	58	0	1188036608	43	4126
2026-01-20 12:14:33.25	173.68	34.59	-35.7	-37.2	17.7	0.00e+00	0	59	0	1194328064	43	4146
2026-01-20 12:14:34.26	173.75	34.81	-35.6	-37.1	17.7	0.00e+00	0	59	0	1199570944	43	4141
2026-01-20 12:14:35.27	173.83	35.03	-35.7	-37.2	17.6	0.00e+00	0	59	0	1205862400	43	4172
2026-01-20 12:14:36.28	173.90	35.26	-35.8	-37.3	17.5	0.00e+00	0	59	0	1211105280	43	4209
2026-01-20 12:14:37.29	173.98	35.49	-35.9	-37.4	17.4	0.00e+00	0	58	0	1216348160	43	4267
2026-01-20 12:14:38.29	174.06	35.72	-35.9	-37.4	17.4	0.00e+00	0	59	0	1222639616	43	4279
2026-01-20 12:14:39.30	174.14	35.95	-35.9	-37.4	17.5	0.00e+00	0	59	0	1227882496	43	4261
2026-01-20 12:14:40.31	174.22	36.18	-35.7	-37.2	17.6	0.00e+00	0	59	0	1234173952	43	4171
2026-01-20 12:14:41.32	174.30	36.41	-35.7	-37.2	17.7	0.00e+00	0	59	0	1239416832	43	4153
2026-01-20 12:14:42.33	174.38	36.65	-35.5	-37.0	17.9	0.00e+00	0	59	0	1244659712	43	4072
2026-01-20 12:14:43.35	174.47	36.89	-35.5	-36.9	18.0	0.00e+00	0	59	0	1250951168	43	4042
2026-01-20 12:14:44.36	174.55	37.13	-35.5	-36.9	17.9	0.00e+00	0	59	0	1256194048	42	4287
2026-01-20 12:14:45.37	174.64	37.37	-35.5	-37.0	17.9	0.00e+00	0	59	0	1262485504	42	4292
2026-01-20 12:14:46.38	174.73	37.61	-35.5	-36.9	17.9	0.00e+00	0	59	0	1267728384	42	4275
2026-01-20 12:14:47.39	174.82	37.86	-35.6	-37.1	17.8	0.00e+00	0	58	0	1272971264	42	4346
2026-01-20 12:14:48.40	174.91	38.10	-35.6	-37.0	17.8	0.00e+00	0	59	0	1279262720	42	4329
2026-01-20 12:14:49.40	175.00	38.35	-35.6	-37.1	17.8	0.00e+00	0	59	0	1284505600	42	4342
2026-01-20 12:14:50.41	175.09	38.60	-35.7	-37.2	17.7	0.00e+00	0	58	0	1290797056	42	4392
2026-01-20 12:14:51.42	175.19	38.85	-35.7	-37.2	17.7	0.00e+00	0	59	0	1296039936	42	4423
2026-01-20 12:14:52.44	175.29	39.11	-35.7	-37.2	17.7	0.00e+00	0	59	0	1302331392	42	4413
2026-01-20 12:14:53.45	175.38	39.36	-35.7	-37.2	17.7	0.00e+00	0	59	0	1307574272	42	4429
2026-01-20 12:14:54.46	175.48	39.62	-35.7	-37.1	17.8	0.00e+00	0	59	0	1312817152	42	4383
2026-01-20 12:14:55.47	175.58	39.88	-35.7	-37.2	17.8	0.00e+00	0	59	0	1319108608	42	4392
2026-01-20 12:14:56.48	175.68	40.14	-35.6	-37.0	17.9	0.00e+00	0	59	0	1324351488	42	4326
2026-01-20 12:14:57.49	175.79	40.40	-35.6	-37.0	17.9	0.00e+00	0	59	0	1330642944	42	4337
2026-01-20 12:14:58.50	175.89	40.66	-35.6	-37.0	17.9	0.00e+00	0	59	0	1335885824	42	4333
2026-01-20 12:14:59.51	176.00	40.93	-35.7	-37.1	17.8	0.00e+00	0	59	0	1342177280	42	4384
2026-01-20 12:15:00.52	176.11	41.20	-35.7	-37.2	17.7	0.00e+00	0	58	0	1347420160	42	4410
2026-01-20 12:15:01.53	176.22	41.47	-36.0	-37.5	17.5	0.00e+00	0	59	0	1352663040	42	4561
2026-01-20 12:15:02.54	176.33	41.74	-36.2	-37.8	17.2	0.00e+00	0	58	0	1358954496	42	4719
2026-01-20 12:15:03.55	176.45	42.01	-36.4	-38.0	16.9	0.00e+00	0	59	0	1364197376	43	4584
2026-01-20 12:15:04.56	176.56	42.29	-36.4	-38.0	17.0	0.00e+00	0	59	0	1370488832	43	4553
2026-01-20 12:15:05.57	176.68	42.57	-36.2	-37.8	17.1	0.00e+00	0	59	0	1375731712	43	4455
2026-01-20 12:15:06.58	176.80	42.85	-36.1	-37.6	17.4	0.00e+00	0	59	0	1380974592	43	4361
2026-01-20 12:15:07.59	176.92	43.13	-36.0	-37.5	17.5	0.00e+00	0	59	0	1387266048	43	4299
2026-01-20 12:15:08.60	177.05	43.41	-35.9	-37.3	17.6	0.00e+00	0	59	0	1392508928	43	4239
2026-01-20 12:15:09.61	177.17	43.70	-35.9	-37.4	17.6	0.00e+00	0	59	0	1398800384	43	4265
2026-01-20 12:15:10.62	177.30	43.98	-36.1	-37.6	17.4	0.00e+00	0	59	0	1404043264	43	4372
2026-01-20 12:15:11.63	177.43	44.27	-36.2	-37.7	17.2	0.00e+00	0	59	0	1410334720	43	4421
2026-01-20 12:15:12.64	177.57	44.56	-36.3	-37.8	17.2	0.00e+00	0	59	0	1415577600	43	4477
2026-01-20 12:15:13.65	177.70	44.86	-36.3	-37.9	17.1	0.00e+00	0	59	0	1420820480	43	4511
2026-01-20 12:15:14.66	177.84	45.15	-36.4	-38.0	17.0	0.00e+00	0	59	0	1427111936	43	4594
2026-01-20 12:15:15.67	177.98	45.45	-36.6	-38.2	16.8	0.00e+00	0	59	0	1432354816	43	4678
2026-01-20 12:15:16.68	178.12	45.75	-36.6	-38.2	16.8	0.00e+00	0	59	0	1438646272	43	4692
2026-01-20 12:15:17.69	178.27	46.05	-36.5	-38.1	16.9	0.00e+00	0	59	0	1443889152	43	4614
2026-01-20 12:15:18.71	178.42	46.36	-36.3	-37.8	17.1	0.00e+00	0	59	0	1449132032	43	4491
2026-01-20 12:15:19.72	178.57	46.66	-36.2	-37.8	17.2	0.00e+00	0	59	0	1455423488	43	4448
2026-01-20 12:15:20.73	178.73	46.97	-36.0	-37.5	17.5	0.00e+00	0	59	0	1460666368	43	4316
2026-01-20 12:15:21.74	178.88	47.28	-36.1	-37.7	17.3	0.00e+00	0	59	0	1466957824	43	4401
2026-01-20 12:15:22.74	179.04	47.59	-36.3	-37.9	17.2	0.00e+00	0	59	0	1472200704	43	4503
2026-01-20 12:15:23.75	179.21	47.90	-36.3	-37.8	17.2	0.00e+00	0	59	0	1477443584	43	4483
2026-01-20 12:15:24.77	179.37	48.22	-36.4	-37.9	17.1	0.00e+00	0	59	0	1483735040	43	4543
2026-01-20 12:15:25.78	179.54	48.54	-36.4	-37.9	17.1	0.00e+00	0	59	0	1488977920	43	4542
2026-01-20 12:15:26.78	179.72	48.85	-36.4	-38.0	17.1	0.00e+00	0	59	0	1495269376	43	4549
2026-01-20 12:15:27.79	179.89	49.18	-36.3	-37.9	17.2	0.00e+00	0	59	0	1500512256	43	4499
2026-01-20 12:15:28.80	180.07	49.50	-36.3	-37.9	17.2	0.00e+00	0	59	0	1506803712	43	4504
2026-01-20 12:15:29.81	180.26	49.83	-36.5	-38.1	17.0	0.00e+00	0	59	0	1512046592	43	4611
2026-01-20 12:15:30.82	180.45	50.15	-36.6	-38.2	16.9	0.00e+00	0	59	0	1518338048	43	4661
2026-01-20 12:15:31.83	180.64	50.48	-36.6	-38.2	16.9	0.00e+00	0	59	0	1523580928	43	4686
2026-01-20 12:15:32.84	180.84	50.82	-36.7	-38.3	16.8	0.00e+00	0	59	0	1528823808	43	4746
2026-01-20 12:15:33.85	181.04	51.15	-36.9	-38.5	16.7	0.00e+00	0	59	0	1535115264	44	4582
2026-01-20 12:15:34.86	181.25	51.49	-36.9	-38.5	16.7	0.00e+00	0	59	0	1540358144	44	4580
2026-01-20 12:15:35.87	181.46	51.82	-37.1	-38.7	16.5	0.00e+00	0	59	0	1546649600	44	4693
2026-01-20 12:15:36.88	181.67	52.16	-37.1	-38.7	16.5	0.00e+00	0	59	0	1551892480	44	4700
2026-01-20 12:15:37.89	181.89	52.51	-36.9	-38.5	16.7	0.00e+00	0	59	0	1557135360	44	4586
2026-01-20 12:15:38.90	182.12	52.85	-36.7	-38.2	16.9	0.00e+00	0	59	0	1563426816	44	4435
2026-01-20 12:15:39.91	182.35	53.20	-36.8	-38.4	16.8	0.00e+00	0	59	0	1568669696	44	4522
2026-01-20 12:15:40.92	182.58	53.54	-37.3	-39.0	16.3	0.00e+00	0	59	0	1574961152	45	4551
2026-01-20 12:15:41.93	182.82	53.89	-37.6	-39.4	15.8	0.00e+00	0	59	0	1580204032	45	4777
2026-01-20 12:15:42.94	183.07	54.25	-37.6	-39.4	15.9	0.00e+00	0	59	0	1585446912	45	4766
2026-01-20 12:15:43.95	183.33	54.60	-37.8	-39.6	15.6	0.00e+00	0	59	0	1591738368	46	4631
2026-01-20 12:15:44.96	183.59	54.96	-38.0	-39.9	15.4	0.00e+00	0	59	0	1596981248	46	4761
2026-01-20 12:15:45.97	183.85	55.31	-37.8	-39.6	15.6	0.00e+00	0	59	0	1603272704	46	4633
2026-01-20 12:15:46.98	184.12	55.67	-37.6	-39.3	15.9	0.00e+00	0	59	0	1608515584	46	4468
2026-01-20 12:15:47.99	184.40	56.03	-37.6	-39.3	15.9	0.00e+00	0	59	0	1614807040	46	4488
2026-01-20 12:15:49.00	184.69	56.40	-37.5	-39.2	15.9	0.00e+00	0	59	0	1620049920	46	4438
2026-01-20 12:15:50.01	184.99	56.76	-37.7	-39.5	15.7	0.00e+00	0	59	0	1625292800	46	4590
2026-01-20 12:15:51.02	185.29	57.13	-37.3	-39.1	16.1	0.00e+00	0	59	0	1631584256	46	4366
2026-01-20 12:15:52.03	185.60	57.49	-37.1	-38.7	16.4	0.00e+00	0	59	0	1636827136	46	4182
2026-01-20 12:15:53.03	185.92	57.86	-36.7	-38.3	16.9	0.00e+00	0	59	0	1643118592	45	4204
2026-01-20 12:15:54.04	186.24	58.23	-36.5	-38.0	17.2	0.00e+00	0	59	0	1648361472	44	4309
2026-01-20 12:15:55.05	186.58	58.60	-36.4	-37.9	17.3	0.00e+00	0	59	0	1653604352	44	4259
2026-01-20 12:15:56.06	186.93	58.97	-36.4	-38.0	17.3	0.00e+00	0	59	0	1659895808	44	4292
2026-01-20 12:15:57.07	187.28	59.35	-36.7	-38.3	17.0	0.00e+00	0	59	0	1665138688	44	4452
2026-01-20 12:15:58.08	187.65	59.72	-36.4	-37.9	17.3	0.00e+00	0	59	0	1671430144	44	4279
2026-01-20 12:15:59.09	188.03	60.10	-36.2	-37.7	17.5	0.00e+00	0	59	0	1676673024	44	4159
2026-01-20 12:16:00.10	188.42	60.48	-36.1	-37.5	17.7	0.00e+00	0	59	0	1681915904	44	4078
2026-01-20 12:16:01.11	188.82	60.86	-36.1	-37.6	17.6	0.00e+00	0	59	0	1688207360	44	4109
2026-01-20 12:16:02.12	189.23	61.24	-36.0	-37.5	17.7	0.00e+00	0	59	0	1693450240	44	4055
2026-01-20 12:16:03.13	189.65	61.62	-35.5	-37.0	18.1	0.00e+00	0	59	0	1699741696	43	4053
2026-01-20 12:16:04.14	190.09	62.00	-35.4	-36.8	18.2	0.00e+00	0	59	0	1704984576	42	4232
2026-01-20 12:16:05.15	190.54	62.38	-35.4	-36.8	18.2	0.00e+00	0	59	0	1711276032	42	4230
2026-01-20 12:16:06.17	191.01	62.77	-35.5	-36.9	18.1	0.00e+00	0	59	0	1716518912	42	4286
2026-01-20 12:16:07.18	191.50	63.16	-35.7	-37.2	17.8	0.00e+00	0	59	0	1722810368	42	4421
2026-01-20 12:16:08.18	191.99	63.54	-35.5	-37.0	18.0	0.00e+00	0	59	0	1728053248	42	4312
2026-01-20 12:16:09.19	192.50	63.92	-35.5	-37.0	18.0	0.00e+00	0	59	0	1733296128	42	4306
2026-01-20 12:16:10.20	193.03	64.31	-35.6	-37.0	18.0	0.00e+00	0	59	0	1739587584	42	4316
2026-01-20 12:16:11.21	193.58	64.69	-35.5	-36.9	18.1	0.00e+00	0	59	0	1744830464	42	4250
2026-01-20 12:16:12.22	194.15	65.07	-35.4	-36.8	18.1	0.00e+00	0	59	0	1751121920	42	4234
2026-01-20 12:16:13.23	194.73	65.46	-35.4	-36.8	18.2	0.00e+00	0	59	0	1756364800	42	4219
2026-01-20 12:16:14.24	195.34	65.84	-35.5	-36.9	18.0	0.00e+00	0	59	0	1761607680	42	4291
2026-01-20 12:16:15.25	195.97	66.22	-35.6	-37.1	17.8	0.00e+00	0	59	0	1767899136	42	4370
2026-01-20 12:16:16.26	196.62	66.61	-35.5	-36.9	18.0	0.00e+00	0	59	0	1773142016	42	4287
2026-01-20 12:16:17.27	197.30	66.99	-35.6	-37.1	17.9	0.00e+00	0	59	0	1779433472	42	4361
2026-01-20 12:16:18.28	197.99	67.37	-35.8	-37.3	17.6	0.00e+00	0	59	0	1784676352	42	4484
2026-01-20 12:16:19.29	198.72	67.75	-35.6	-37.1	17.9	0.00e+00	0	59	0	1789919232	42	4364
2026-01-20 12:16:20.30	199.47	68.12	-35.5	-37.0	18.0	0.00e+00	0	59	0	1796210688	42	4302
2026-01-20 12:16:21.32	200.26	68.50	-35.6	-37.1	17.9	0.00e+00	0	59	0	1801453568	42	4364
2026-01-20 12:16:22.33	201.07	68.87	-35.4	-36.8	18.2	0.00e+00	0	59	0	1807745024	42	4224
2026-01-20 12:16:23.34	201.91	69.24	-35.5	-37.0	18.0	0.00e+00	0	59	0	1812987904	42	4302
2026-01-20 12:16:24.35	202.79	69.61	-35.7	-37.2	17.7	0.00e+00	0	59	0	1819279360	42	4422
2026-01-20 12:16:25.36	203.70	69.97	-35.6	-37.1	17.9	0.00e+00	0	59	0	1824522240	42	4343
2026-01-20 12:16:26.37	204.64	70.33	-35.6	-37.1	17.8	0.00e+00	0	59	0	1830813696	42	4367
2026-01-20 12:16:27.38	205.62	70.69	-36.0	-37.6	17.4	0.00e+00	0	59	0	1836056576	42	4605
2026-01-20 12:16:28.39	206.64	71.04	-35.1	-36.5	18.3	0.00e+00	0	59	0	1841299456	42	4092
2026-01-20 12:16:29.40	207.71	71.39	-34.6	-35.9	18.9	0.00e+00	0	59	0	1847590912	41	4024
2026-01-20 12:16:30.41	208.81	71.73	-34.9	-36.3	18.6	0.00e+00	0	59	0	1852833792	41	4212
2026-01-20 12:16:31.42	209.96	72.07	-34.9	-36.3	18.6	0.00e+00	0	59	0	1859125248	41	4198
2026-01-20 12:16:32.43	211.15	72.40	-34.8	-36.2	18.7	0.00e+00	0	59	0	1864368128	41	4173
2026-01-20 12:16:33.44	212.39	72.72	-34.9	-36.2	18.6	0.00e+00	0	59	0	1869611008	41	4192
2026-01-20 12:16:34.45	213.68	73.04	-34.7	-36.1	18.7	0.00e+00	0	59	0	1875902464	41	4127
2026-01-20 12:16:35.46	215.02	73.35	-34.6	-35.9	18.9	0.00e+00	0	59	0	1881145344	41	4021
2026-01-20 12:16:36.47	216.42	73.65	-34.5	-35.8	19.1	0.00e+00	0	59	0	1887436800	40	4211
2026-01-20 12:16:37.48	217.87	73.94	-34.7	-36.0	18.8	0.00e+00	0	59	0	1892679680	40	4339
2026-01-20 12:16:38.49	219.37	74.23	-34.8	-36.1	18.7	0.00e+00	0	59	0	1897922560	40	4390
2026-01-20 12:16:39.50	220.93	74.50	-34.5	-35.8	19.0	0.00e+00	0	59	0	1904214016	40	4228
2026-01-20 12:16:40.51	222.54	74.76	-34.6	-36.0	18.8	0.00e+00	0	59	0	1909456896	40	4292
2026-01-20 12:16:41.52	224.22	75.01	-34.8	-36.2	18.6	0.00e+00	0	59	0	1915748352	40	4434
2026-01-20 12:16:42.52	225.93	75.25	-34.7	-36.0	18.8	0.00e+00	0	59	0	1920991232	40	4325
2026-01-20 12:16:43.53	227.72	75.47	-34.5	-35.8	19.0	0.00e+00	0	59	0	1927282688	40	4216
2026-01-20 12:16:44.54	229.56	75.69	-34.3	-35.6	19.2	0.00e+00	0	59	0	1932525568	40	4119
2026-01-20 12:16:45.55	231.46	75.88	-34.3	-35.7	19.1	0.00e+00	0	59	0	1937768448	40	4164
2026-01-20 12:16:46.57	233.43	76.07	-34.0	-35.3	19.4	0.00e+00	0	59	0	1944059904	40	4000
2026-01-20 12:16:47.58	235.44	76.23	-34.2	-35.5	19.3	0.00e+00	0	59	0	1949302784	39	4314
2026-01-20 12:16:48.59	237.49	76.38	-34.7	-36.0	18.8	0.00e+00	0	59	0	1955594240	39	4595
2026-01-20 12:16:49.60	239.58	76.52	-34.6	-36.0	18.8	0.00e+00	0	59	0	1960837120	40	4317
2026-01-20 12:16:50.61	241.72	76.63	-34.3	-35.7	19.1	0.00e+00	0	59	0	1966080000	40	4159
2026-01-20 12:16:51.62	243.89	76.73	-34.4	-35.8	19.0	0.00e+00	0	59	0	1972371456	40	4202
2026-01-20 12:16:52.63	246.09	76.81	-34.4	-35.7	19.1	0.00e+00	0	59	0	1977614336	40	4173
2026-01-20 12:16:53.64	248.32	76.87	-34.5	-35.8	18.9	0.00e+00	0	59	0	1983905792	40	4225
2026-01-20 12:16:54.64	250.54	76.91	-34.5	-35.8	18.9	0.00e+00	0	59	0	1989148672	40	4237
2026-01-20 12:16:55.65	252.79	76.93	-34.3	-35.5	19.2	0.00e+00	0	59	0	1994391552	40	4097
2026-01-20 12:16:56.66	255.05	76.93	-34.3	-35.6	19.2	0.00e+00	0	59	0	2000683008	40	4112
2026-01-20 12:16:57.67	257.30	76.91	-34.1	-35.5	19.2	0.00e+00	0	59	0	2005925888	40	4057
2026-01-20 12:16:58.68	259.55	76.87	-34.3	-35.6	19.1	0.00e+00	0	59	0	2012217344	40	4116
2026-01-20 12:16:59.69	261.77	76.82	-34.4	-35.7	19.0	0.00e+00	0	59	0	2017460224	40	4188
2026-01-20 12:17:00.70	263.98	76.74	-34.3	-35.6	19.1	0.00e+00	0	59	0	2023751680	40	4126
2026-01-20 12:17:01.71	266.15	76.65	-34.4	-35.7	19.1	0.00e+00	0	59	0	2028994560	40	4153
2026-01-20 12:17:02.73	268.31	76.53	-34.5	-35.8	19.0	0.00e+00	0	59	0	2035286016	40	4225
2026-01-20 12:17:03.74	270.41	76.40	-34.5	-35.9	18.8	0.00e+00	0	59	0	2040528896	40	4277
2026-01-20 12:17:04.75	272.47	76.25	-34.4	-35.7	19.1	0.00e+00	0	59	0	2045771776	40	4170
2026-01-20 12:17:05.76	274.48	76.09	-34.4	-35.7	19.1	1.10e-06	0	59	0	2052063232	40	4155
2026-01-20 12:17:06.77	276.44	75.91	-34.4	-35.7	19.1	0.00e+00	0	59	0	2057306112	40	4180
2026-01-20 12:17:07.78	278.34	75.71	-34.3	-35.6	19.1	2.20e-06	0	59	0	2063597568	40	4142
2026-01-20 12:17:08.79	280.19	75.50	-34.3	-35.7	19.1	0.00e+00	0	59	0	2068840448	40	4155
2026-01-20 12:17:09.79	281.96	75.28	-34.4	-35.7	19.0	0.00e+00	0	59	0	2074083328	40	4188
2026-01-20 12:17:10.80	283.70	75.04	-34.3	-35.6	19.1	0.00e+00	0	59	0	2080374784	40	4129
2026-01-20 12:17:11.81	285.38	74.79	-34.4	-35.7	19.0	0.00e+00	0	59	0	2085617664	40	4167
2026-01-20 12:17:12.82	287.00	74.53	-34.4	-35.7	19.1	0.00e+00	0	59	0	2091909120	40	4164
2026-01-20 12:17:13.83	288.56	74.26	-34.3	-35.6	19.1	0.00e+00	0	59	0	2097152000	40	4136
2026-01-20 12:17:14.84	290.07	73.98	-34.4	-35.8	19.0	0.00e+00	0	59	0	2102394880	40	4202
2026-01-20 12:17:15.85	291.53	73.69	-34.5	-35.9	18.9	1.10e-06	0	59	0	2108686336	40	4251
2026-01-20 12:17:16.86	292.92	73.39	-34.7	-36.0	18.7	0.00e+00	0	59	0	2113929216	40	4337
2026-01-20 12:17:17.87	294.27	73.08	-34.8	-36.3	18.5	0.00e+00	0	59	0	2120220672	40	4450
2026-01-20 12:17:18.88	295.57	72.76	-34.6	-35.9	18.8	0.00e+00	0	59	0	2125463552	40	4285
2026-01-20 12:17:19.89	296.81	72.44	-34.7	-36.0	18.8	0.00e+00	0	59	0	2131755008	40	4335
2026-01-20 12:17:20.90	298.01	72.11	-34.8	-36.2	18.6	0.00e+00	0	59	0	2136997888	40	4421
2026-01-20 12:17:21.91	299.16	71.78	-34.9	-36.3	18.6	0.00e+00	0	59	0	2143289344	40	4450
2026-01-20 12:17:22.92	300.27	71.44	-35.0	-36.4	18.5	0.00e+00	0	59	0	2148532224	40	4518
2026-01-20 12:17:23.93	301.34	71.09	-35.2	-36.6	18.2	0.00e+00	0	59	0	2153775104	40	4651
2026-01-20 12:17:24.94	302.36	70.74	-34.9	-36.3	18.5	0.00e+00	0	59	0	2160066560	40	4479
2026-01-20 12:17:25.95	303.35	70.38	-35.0	-36.4	18.5	0.00e+00	0	59	0	2165309440	40	4508
2026-01-20 12:17:26.96	304.30	70.02	-35.2	-36.6	18.2	0.00e+00	0	59	0	2171600896	40	4626
2026-01-20 12:17:27.97	305.21	69.66	-35.2	-36.6	18.3	0.00e+00	0	59	0	2176843776	40	4611
2026-01-20 12:17:28.98	306.09	69.30	-35.3	-36.6	18.2	0.00e+00	0	59	0	2182086656	41	4386
2026-01-20 12:17:29.99	306.93	68.93	-35.2	-36.6	18.3	0.00e+00	0	59	0	2188378112	41	4369
2026-01-20 12:17:31.00	307.74	68.56	-35.2	-36.6	18.3	0.00e+00	0	59	0	2193620992	41	4346
2026-01-20 12:17:32.01	308.53	68.18	-35.0	-36.4	18.4	0.00e+00	0	59	0	2199912448	41	4274
2026-01-20 12:17:33.02	309.28	67.81	-35.1	-36.5	18.3	0.00e+00	0	59	0	2205155328	41	4329
2026-01-20 12:17:34.03	310.01	67.43	-35.2	-36.6	18.3	0.00e+00	0	59	0	2210398208	41	4377
2026-01-20 12:17:35.04	310.72	67.05	-35.2	-36.6	18.3	0.00e+00	0	59	0	2216689664	41	4374
2026-01-20 12:17:36.04	311.39	66.68	-35.2	-36.6	18.2	0.00e+00	0	59	0	2221932544	41	4389
2026-01-20 12:17:37.06	312.05	66.29	-35.4	-36.8	18.1	0.00e+00	0	59	0	2228224000	41	4473
2026-01-20 12:17:38.07	312.68	65.91	-35.6	-37.1	17.9	0.00e+00	0	59	0	2233466880	41	4605
2026-01-20 12:17:39.08	313.29	65.53	-35.5	-37.0	18.0	0.00e+00	0	59	0	2239758336	41	4575
2026-01-20 12:17:40.09	313.88	65.14	-35.6	-37.0	18.0	0.00e+00	0	59	0	2245001216	41	4572
2026-01-20 12:17:41.10	314.45	64.76	-35.6	-37.1	17.9	0.00e+00	0	59	0	2250244096	41	4631
2026-01-20 12:17:42.11	315.00	64.38	-35.7	-37.2	17.7	0.00e+00	0	59	0	2256535552	42	4431
2026-01-20 12:17:43.12	315.53	63.99	-35.5	-36.9	18.0	0.00e+00	0	59	0	2261778432	42	4291
2026-01-20 12:17:44.13	316.04	63.61	-35.5	-36.9	18.0	0.00e+00	0	59	0	2268069888	42	4283
2026-01-20 12:17:45.14	316.54	63.23	-35.5	-37.0	18.0	0.00e+00	0	59	0	2273312768	42	4317
2026-01-20 12:17:46.15	317.03	62.84	-35.5	-37.0	18.0	0.00e+00	0	59	0	2278555648	42	4308
2026-01-20 12:17:47.16	317.49	62.46	-35.2	-36.6	18.4	0.00e+00	0	59	0	2284847104	42	4109
2026-01-20 12:17:48.17	317.95	62.08	-35.1	-36.5	18.5	0.00e+00	0	59	0	2290089984	42	4056
2026-01-20 12:17:49.18	318.39	61.70	-35.3	-36.6	18.3	0.00e+00	0	59	0	2296381440	42	4132
2026-01-20 12:17:50.19	318.81	61.32	-35.8	-37.3	17.7	0.00e+00	0	59	0	2301624320	42	4446
2026-01-20 12:17:51.20	319.23	60.94	-35.9	-37.5	17.5	0.00e+00	0	59	0	2306867200	42	4579
2026-01-20 12:17:52.21	319.63	60.56	-36.1	-37.5	17.4	0.00e+00	0	59	0	2313158656	42	4591
2026-01-20 12:17:53.22	320.02	60.18	-36.1	-37.6	17.5	0.00e+00	0	59	0	2318401536	42	4600
2026-01-20 12:17:54.23	320.40	59.81	-36.3	-37.8	17.2	0.00e+00	0	59	0	2324692992	43	4456
2026-01-20 12:17:55.24	320.76	59.43	-36.2	-37.8	17.3	0.00e+00	0	59	0	2329935872	43	4456
2026-01-20 12:17:56.25	321.12	59.06	-36.2	-37.7	17.3	0.00e+00	0	59	0	2336227328	43	4413
2026-01-20 12:17:57.26	321.47	58.69	-36.2	-37.6	17.4	0.00e+00	0	59	0	2341470208	43	4391
2026-01-20 12:17:58.27	321.81	58.32	-36.4	-38.0	17.0	0.00e+00	0	59	0	2347761664	43	4565
2026-01-20 12:17:59.27	322.13	57.95	-36.4	-38.0	17.0	0.00e+00	0	59	0	2353004544	43	4574
2026-01-20 12:18:00.28	322.45	57.58	-36.4	-37.9	17.1	0.00e+00	0	59	0	2358247424	43	4527
2026-01-20 12:18:01.29	322.77	57.22	-36.6	-38.2	16.8	0.00e+00	0	59	0	2364538880	43	4683
2026-01-20 12:18:02.30	323.07	56.85	-37.0	-38.6	16.6	0.00e+00	0	59	0	2369781760	44	4644
2026-01-20 12:18:03.31	323.37	56.49	-36.9	-38.5	16.6	0.00e+00	0	59	0	2376073216	44	4595
2026-01-20 12:18:04.33	323.66	56.12	-36.8	-38.4	16.8	0.00e+00	0	59	0	2381316096	44	4515
2026-01-20 12:18:05.34	323.94	55.76	-36.9	-38.5	16.8	0.00e+00	0	59	0	2386558976	44	4553
2026-01-20 12:18:06.35	324.21	55.40	-36.7	-38.3	16.9	0.00e+00	0	59	0	2392850432	44	4455
2026-01-20 12:18:07.36	324.48	55.05	-36.6	-38.2	17.0	0.00e+00	0	59	0	2398093312	44	4399
2026-01-20 12:18:08.36	324.74	54.70	-36.6	-38.1	17.1	0.00e+00	0	59	0	2404384768	44	4350
2026-01-20 12:18:09.37	324.99	54.34	-36.5	-38.0	17.2	0.00e+00	0	59	0	2409627648	44	4313
2026-01-20 12:18:10.38	325.24	53.99	-36.8	-38.3	17.1	0.00e+00	0	59	0	2414870528	44	4458
2026-01-20 12:18:11.39	325.48	53.65	-36.9	-38.4	17.0	0.00e+00	0	59	0	2421161984	44	4533
2026-01-20 12:18:12.40	325.72	53.30	-36.9	-38.4	17.0	0.00e+00	0	59	0	2426404864	44	4523
2026-01-20 12:18:13.41	325.95	52.95	-36.8	-38.3	17.1	0.00e+00	0	59	0	2432696320	44	4489
2026-01-20 12:18:14.43	326.18	52.61	-36.9	-38.4	17.1	0.00e+00	0	59	0	2437939200	44	4504
2026-01-20 12:18:15.43	326.40	52.27	-36.7	-38.1	17.3	0.00e+00	0	59	0	2444230656	44	4362
2026-01-20 12:18:16.44	326.61	51.93	-36.7	-38.2	17.2	0.00e+00	0	59	0	2449473536	44	4399
2026-01-20 12:18:17.45	326.82	51.59	-37.0	-38.5	16.9	0.00e+00	0	59	0	2454716416	44	4598
2026-01-20 12:18:18.46	327.03	51.26	-37.2	-38.8	16.6	0.00e+00	0	59	0	2461007872	45	4471
2026-01-20 12:18:19.47	327.23	50.92	-37.0	-38.5	16.9	0.00e+00	0	59	0	2466250752	45	4331
2026-01-20 12:18:20.48	327.43	50.59	-36.6	-38.1	17.3	0.00e+00	0	59	0	2472542208	45	4115
2026-01-20 12:18:21.49	327.62	50.26	-36.4	-37.7	17.7	0.00e+00	0	59	0	2477785088	44	4192
2026-01-20 12:18:22.50	327.81	49.94	-36.3	-37.7	17.7	0.00e+00	0	59	0	2483027968	44	4168
2026-01-20 12:18:23.51	328.00	49.61	-36.4	-37.8	17.7	0.00e+00	0	59	0	2489319424	44	4197
2026-01-20 12:18:24.52	328.18	49.29	-36.6	-38.0	17.4	0.00e+00	0	59	0	2494562304	44	4320
2026-01-20 12:18:25.53	328.36	48.97	-36.5	-38.0	17.4	0.00e+00	0	59	0	2500853760	44	4307
2026-01-20 12:18:26.54	328.53	48.65	-36.6	-38.0	17.4	0.00e+00	0	59	0	2506096640	44	4314
2026-01-20 12:18:27.55	328.70	48.33	-36.6	-38.0	17.4	0.00e+00	0	59	0	2511339520	44	4317
2026-01-20 12:18:28.56	328.87	48.02	-36.7	-38.1	17.3	0.00e+00	0	59	0	2517630976	44	4363
2026-01-20 12:18:29.57	329.04	47.70	-36.4	-37.9	17.6	0.00e+00	0	59	0	2522873856	44	4255
2026-01-20 12:18:30.58	329.20	47.39	-36.4	-37.8	17.6	0.00e+00	0	59	0	2529165312	44	4212
2026-01-20 12:18:31.59	329.36	47.08	-36.3	-37.7	17.7	0.00e+00	0	59	0	2534408192	44	4153
2026-01-20 12:18:32.59	329.51	46.78	-36.3	-37.7	17.7	0.00e+00	0	59	0	2540699648	44	4157
2026-01-20 12:18:33.60	329.66	46.48	-36.3	-37.8	17.7	0.00e+00	0	59	0	2545942528	44	4195
2026-01-20 12:18:34.61	329.81	46.17	-36.1	-37.4	18.0	0.00e+00	0	59	0	2552233984	44	4042
2026-01-20 12:18:35.62	329.96	45.87	-36.0	-37.4	18.0	0.00e+00	0	59	0	2557476864	44	4016
2026-01-20 12:18:36.63	330.10	45.57	-36.1	-37.5	17.9	0.00e+00	0	59	0	2562719744	44	4067
2026-01-20 12:18:37.64	330.24	45.28	-36.2	-37.5	17.9	0.00e+00	0	59	0	2569011200	44	4090
2026-01-20 12:18:38.65	330.38	44.98	-36.2	-37.6	17.8	0.00e+00	0	59	0	2574254080	44	4113
2026-01-20 12:18:39.66	330.52	44.69	-36.2	-37.5	17.9	0.00e+00	0	59	0	2579496960	44	4094
2026-01-20 12:18:40.67	330.65	44.40	-36.2	-37.6	17.8	0.00e+00	0	59	0	2585788416	44	4111
2026-01-20 12:18:41.68	330.78	44.11	-36.3	-37.6	17.8	0.00e+00	0	59	0	2591031296	44	4140
2026-01-20 12:18:42.69	330.91	43.83	-36.1	-37.5	17.9	0.00e+00	0	59	0	2597322752	44	4060
2026-01-20 12:18:43.70	331.04	43.54	-36.0	-37.4	18.0	0.00e+00	0	59	0	2602565632	44	4026
2026-01-20 12:18:44.71	331.16	43.26	-36.1	-37.4	18.0	0.00e+00	0	59	0	2607808512	44	4047
2026-01-20 12:18:45.72	331.29	42.98	-36.1	-37.4	17.9	0.00e+00	0	59	0	2614099968	44	4050
2026-01-20 12:18:46.73	331.41	42.70	-36.0	-37.4	18.0	0.00e+00	0	59	0	2619342848	44	4020
2026-01-20 12:18:47.74	331.52	42.42	-35.7	-37.1	18.1	0.00e+00	0	59	0	2625634304	43	4115
2026-01-20 12:18:48.75	331.64	42.15	-35.7	-37.1	18.1	0.00e+00	0	59	0	2630877184	43	4119
2026-01-20 12:18:49.76	331.76	41.87	-35.8	-37.2	18.1	0.00e+00	0	59	0	2637168640	43	4147
2026-01-20 12:18:50.76	331.87	41.61	-35.7	-37.0	18.1	0.00e+00	0	59	0	2642411520	43	4097
2026-01-20 12:18:51.77	331.98	41.34	-35.7	-37.1	18.1	0.00e+00	0	59	0	2648702976	43	4125
2026-01-20 12:18:52.78	332.09	41.07	-35.7	-37.0	18.1	0.00e+00	0	59	0	2653945856	43	4092
2026-01-20 12:18:53.79	332.20	40.80	-35.4	-36.7	18.5	0.00e+00	0	59	0	2659188736	42	4187
2026-01-20 12:18:54.80	332.30	40.54	-35.3	-36.5	18.6	0.00e+00	0	59	0	2665480192	42	4094
2026-01-20 12:18:55.81	332.41	40.28	-35.3	-36.6	18.6	0.00e+00	0	59	0	2670723072	42	4107
2026-01-20 12:18:56.82	332.51	40.02	-35.3	-36.6	18.6	0.00e+00	0	59	0	2677014528	42	4104
2026-01-20 12:18:57.83	332.61	39.76	-35.4	-36.7	18.5	0.00e+00	0	59	0	2682257408	42	4160
2026-01-20 12:18:58.84	332.71	39.51	-35.5	-36.8	18.4	0.00e+00	0	59	0	2687500288	42	4197
2026-01-20 12:18:59.85	332.81	39.25	-35.5	-36.9	18.3	0.00e+00	0	59	0	2693791744	42	4249
2026-01-20 12:19:00.86	332.90	39.00	-35.5	-36.9	18.3	0.00e+00	0	59	0	2699034624	42	4261
2026-01-20 12:19:01.87	333.00	38.75	-35.6	-37.0	18.2	0.00e+00	0	59	0	2705326080	42	4303
2026-01-20 12:19:02.88	333.09	38.50	-35.7	-37.0	18.1	0.00e+00	0	59	0	2710568960	42	4335
2026-01-20 12:19:03.89	333.19	38.25	-35.6	-37.0	18.2	0.00e+00	0	59	0	2715811840	42	4299
2026-01-20 12:19:04.90	333.28	38.01	-35.6	-37.0	18.2	0.00e+00	0	59	0	2722103296	42	4295
2026-01-20 12:19:05.91	333.37	37.76	-35.7	-37.1	18.1	0.00e+00	0	59	0	2727346176	42	4347
2026-01-20 12:19:06.92	333.46	37.52	-35.6	-36.9	18.2	0.00e+00	0	59	0	2733637632	42	4291
2026-01-20 12:19:07.93	333.54	37.28	-35.6	-36.9	18.2	0.00e+00	0	59	0	2738880512	42	4280
2026-01-20 12:19:08.94	333.63	37.04	-35.6	-37.0	18.2	0.00e+00	0	59	0	2745171968	42	4300
2026-01-20 12:19:09.95	333.71	36.80	-35.6	-36.9	18.2	0.00e+00	0	59	0	2750414848	42	4282
2026-01-20 12:19:10.96	333.80	36.57	-35.7	-37.0	18.2	0.00e+00	0	59	0	2756706304	42	4315
2026-01-20 12:19:11.97	333.88	36.33	-35.7	-37.1	18.1	0.00e+00	0	59	0	2761949184	42	4363
2026-01-20 12:19:12.98	333.96	36.10	-35.8	-37.1	18.0	0.00e+00	0	59	0	2767192064	42	4371
2026-01-20 12:19:13.99	334.04	35.87	-35.8	-37.1	18.0	0.00e+00	0	59	0	2773483520	42	4375
2026-01-20 12:19:15.00	334.12	35.64	-35.7	-37.1	18.1	0.00e+00	0	59	0	2778726400	42	4370
2026-01-20 12:19:16.01	334.20	35.41	-35.8	-37.1	18.0	0.00e+00	0	59	0	2783969280	42	4376
2026-01-20 12:19:17.02	334.28	35.19	-35.7	-37.0	18.1	0.00e+00	0	59	0	2790260736	42	4326
2026-01-20 12:19:18.03	334.35	34.96	-35.6	-37.0	18.2	0.00e+00	0	59	0	2795503616	42	4304
2026-01-20 12:19:19.04	334.43	34.74	-35.7	-37.0	18.1	0.00e+00	0	59	0	2801795072	42	4328
2026-01-20 12:19:20.05	334.50	34.52	-35.7	-37.0	18.1	0.00e+00	0	59	0	2807037952	42	4333
2026-01-20 12:19:21.06	334.58	34.30	-35.6	-37.0	18.2	0.00e+00	0	59	0	2812280832	42	4297
2026-01-20 12:19:22.07	334.65	34.08	-35.6	-36.9	18.2	0.00e+00	0	59	0	2818572288	42	4256
2026-01-20 12:19:23.08	334.72	33.86	-35.6	-37.0	18.1	0.00e+00	0	59	0	2823815168	42	4306
2026-01-20 12:19:24.08	334.79	33.65	-35.7	-37.1	18.1	0.00e+00	0	59	0	2830106624	42	4343
2026-01-20 12:19:25.10	334.86	33.44	-35.8	-37.2	18.0	0.00e+00	0	59	0	2835349504	42	4397
2026-01-20 12:19:26.11	334.93	33.22	-35.9	-37.3	17.8	0.00e+00	0	59	0	2841640960	42	4448
2026-01-20 12:19:27.12	335.00	33.01	-36.0	-37.4	17.7	0.00e+00	0	59	0	2846883840	42	4512
2026-01-20 12:19:28.13	335.07	32.80	-35.9	-37.3	17.8	0.00e+00	0	59	0	2853175296	42	4487
2026-01-20 12:19:29.14	335.13	32.59	-36.0	-37.4	17.7	0.00e+00	0	59	0	2858418176	42	4514
2026-01-20 12:19:30.15	335.20	32.39	-36.1	-37.5	17.6	0.00e+00	0	59	0	2863661056	42	4561
2026-01-20 12:19:31.16	335.26	32.18	-36.0	-37.4	17.7	0.00e+00	0	59	0	2869952512	42	4514
2026-01-20 12:19:32.17	335.33	31.98	-36.0	-37.4	17.7	0.00e+00	0	59	0	2875195392	42	4510
2026-01-20 12:19:33.18	335.39	31.78	-36.0	-37.4	17.6	0.00e+00	0	59	0	2881486848	42	4542
2026-01-20 12:19:34.19	335.45	31.58	-35.9	-37.3	17.8	0.00e+00	0	59	0	2886729728	42	4469
2026-01-20 12:19:35.20	335.51	31.38	-35.9	-37.3	17.7	0.00e+00	0	59	0	2891972608	42	4485
2026-01-20 12:19:36.21	335.58	31.18	-35.9	-37.3	17.7	0.00e+00	0	59	0	2898264064	42	4473
2026-01-20 12:19:37.22	335.64	30.98	-36.0	-37.4	17.7	0.00e+00	0	59	0	2903506944	42	4494
2026-01-20 12:19:38.23	335.70	30.78	-35.9	-37.3	17.7	0.00e+00	0	59	0	2909798400	42	4474
2026-01-20 12:19:39.23	335.75	30.59	-35.9	-37.3	17.7	0.00e+00	0	59	0	2915041280	42	4479
2026-01-20 12:19:40.24	335.81	30.40	-35.9	-37.3	17.7	0.00e+00	0	59	0	2920284160	42	4482
2026-01-20 12:19:41.25	335.87	30.21	-36.0	-37.3	17.7	0.00e+00	0	59	0	2926575616	42	4492
2026-01-20 12:19:42.26	335.93	30.02	-36.0	-37.4	17.6	0.00e+00	0	59	0	2931818496	42	4532
2026-01-20 12:19:43.27	335.99	29.83	-35.9	-37.3	17.7	0.00e+00	0	59	0	2938109952	42	4482
2026-01-20 12:19:44.28	336.04	29.64	-35.9	-37.3	17.7	0.00e+00	0	59	0	2943352832	42	4463
2026-01-20 12:19:45.29	336.10	29.45	-35.9	-37.3	17.7	0.00e+00	0	59	0	2949644288	42	4469
2026-01-20 12:19:46.30	336.15	29.26	-36.0	-37.4	17.6	0.00e+00	0	59	0	2954887168	42	4512
2026-01-20 12:19:47.31	336.21	29.08	-35.9	-37.3	17.7	0.00e+00	0	59	0	2961178624	42	4461
2026-01-20 12:19:48.32	336.26	28.90	-35.9	-37.2	17.8	0.00e+00	0	59	0	2966421504	42	4432
2026-01-20 12:19:49.33	336.31	28.71	-35.8	-37.1	17.9	0.00e+00	0	59	0	2971664384	42	4381
2026-01-20 12:19:50.34	336.36	28.53	-35.8	-37.2	17.8	0.00e+00	0	59	0	2977955840	42	4414
2026-01-20 12:19:51.35	336.42	28.35	-35.8	-37.2	17.8	0.00e+00	0	59	0	2983198720	42	4420
2026-01-20 12:19:52.36	336.47	28.17	-35.8	-37.2	17.8	0.00e+00	0	59	0	2989490176	42	4429
2026-01-20 12:19:53.37	336.52	28.00	-35.9	-37.3	17.7	0.00e+00	0	59	0	2994733056	42	4448
2026-01-20 12:19:54.38	336.57	27.82	-35.8	-37.2	17.8	0.00e+00	0	59	0	2999975936	42	4412
2026-01-20 12:19:55.39	336.62	27.64	-35.8	-37.2	17.7	0.00e+00	0	59	0	3006267392	42	4428
2026-01-20 12:19:56.39	336.67	27.47	-35.9	-37.3	17.6	0.00e+00	0	59	0	3011510272	42	4492
2026-01-20 12:19:57.40	336.72	27.30	-36.0	-37.4	17.6	0.00e+00	0	59	0	3016753152	42	4508
2026-01-20 12:19:58.41	336.77	27.13	-36.0	-37.4	17.5	0.00e+00	0	59	0	3023044608	42	4524
2026-01-20 12:19:59.42	336.81	26.95	-36.0	-37.5	17.5	0.00e+00	0	59	0	3028287488	42	4555
2026-01-20 12:20:00.43	336.86	26.78	-36.1	-37.6	17.3	0.00e+00	0	59	0	3034578944	42	4619
2026-01-20 12:20:01.44	336.91	26.62	-36.2	-37.7	17.3	0.00e+00	0	59	0	3039821824	42	4657
2026-01-20 12:20:02.45	336.95	26.45	-36.2	-37.7	17.2	0.00e+00	0	59	0	3046113280	42	4657
2026-01-20 12:20:03.46	337.00	26.28	-36.3	-37.8	17.1	0.00e+00	0	59	0	3051356160	43	4468
2026-01-20 12:20:04.47	337.05	26.11	-36.4	-37.9	17.0	0.00e+00	0	59	0	3057647616	43	4498
2026-01-20 12:20:05.48	337.09	25.95	-36.3	-37.8	17.1	0.00e+00	0	60	0	3062890496	43	4458
2026-01-20 12:20:06.49	337.14	25.79	-36.3	-37.8	17.0	0.00e+00	0	59	0	3068133376	43	4491
2026-01-20 12:20:07.50	337.18	25.62	-36.4	-37.9	17.0	0.00e+00	0	59	0	3074424832	43	4508
2026-01-20 12:20:08.51	337.22	25.46	-36.5	-38.0	16.9	0.00e+00	0	59	0	3079667712	43	4554
2026-01-20 12:20:09.52	337.27	25.30	-36.5	-38.1	16.8	0.00e+00	0	59	0	3085959168	43	4606
2026-01-20 12:20:10.53	337.31	25.14	-36.4	-37.9	16.9	0.00e+00	0	59	0	3091202048	43	4535
2026-01-20 12:20:11.54	337.35	24.98	-36.4	-37.9	16.9	0.00e+00	0	59	0	3096444928	43	4541
2026-01-20 12:20:12.55	337.40	24.82	-36.4	-37.9	16.9	0.00e+00	0	59	0	3102736384	43	4526
2026-01-20 12:20:13.56	337.44	24.66	-36.4	-37.9	16.9	0.00e+00	0	59	0	3107979264	43	4523
2026-01-20 12:20:14.57	337.48	24.51	-36.4	-37.9	16.8	0.00e+00	0	59	0	3114270720	43	4533
2026-01-20 12:20:15.58	337.52	24.35	-36.4	-37.9	16.8	0.00e+00	0	59	0	3119513600	43	4539
2026-01-20 12:20:16.59	337.56	24.20	-36.4	-37.9	16.8	0.00e+00	0	59	0	3124756480	43	4512
2026-01-20 12:20:17.60	337.60	24.04	-36.5	-38.0	16.7	0.00e+00	0	59	0	3131047936	43	4581
2026-01-20 12:20:18.61	337.64	23.89	-36.5	-38.0	16.6	0.00e+00	0	59	0	3136290816	43	4596
2026-01-20 12:20:19.62	337.68	23.74	-36.4	-38.0	16.7	0.00e+00	0	59	0	3142582272	43	4553
2026-01-20 12:20:20.63	337.72	23.59	-36.4	-37.9	16.7	0.00e+00	0	59	0	3147825152	43	4537
2026-01-20 12:20:21.64	337.76	23.44	-36.4	-38.0	16.6	0.00e+00	0	59	0	3154116608	43	4552
2026-01-20 12:20:22.65	337.80	23.29	-36.5	-38.1	16.5	0.00e+00	0	59	0	3159359488	43	4604
2026-01-20 12:20:23.66	337.84	23.14	-36.4	-38.0	16.6	0.00e+00	0	59	0	3165650944	43	4546
2026-01-20 12:20:24.67	337.88	22.99	-36.4	-37.9	16.6	0.00e+00	0	59	0	3170893824	43	4530
2026-01-20 12:20:25.68	337.92	22.85	-36.4	-37.9	16.6	0.00e+00	0	59	0	3176136704	43	4536
2026-01-20 12:20:26.69	337.95	22.70	-36.4	-38.0	16.5	0.00e+00	0	59	0	3182428160	43	4566
2026-01-20 12:20:27.70	337.99	22.56	-36.4	-38.0	16.5	0.00e+00	0	59	0	3187671040	43	4546
2026-01-20 12:20:28.71	338.03	22.41	-36.4	-37.9	16.5	0.00e+00	0	59	0	3193962496	43	4533
2026-01-20 12:20:29.72	338.06	22.27	-36.5	-38.0	16.4	0.00e+00	0	59	0	3199205376	43	4592
2026-01-20 12:20:30.73	338.10	22.13	-36.5	-38.1	16.3	0.00e+00	0	60	0	3204448256	43	4632
2026-01-20 12:20:31.74	338.14	21.98	-36.5	-38.1	16.2	0.00e+00	0	59	0	3210739712	43	4641
2026-01-20 12:20:32.75	338.17	21.84	-36.5	-38.1	16.1	0.00e+00	0	59	0	3215982592	43	4644
2026-01-20 12:20:33.76	338.21	21.70	-36.6	-38.2	16.0	0.00e+00	0	59	0	3222274048	43	4669
2026-01-20 12:20:34.77	338.24	21.56	-36.6	-38.3	15.9	0.00e+00	0	59	0	3227516928	43	4722
2026-01-20 12:20:35.78	338.28	21.43	-36.7	-38.4	15.7	0.00e+00	0	59	0	3232759808	43	4776
2026-01-20 12:20:36.79	338.31	21.29	-36.9	-38.6	15.5	0.00e+00	0	59	0	3239051264	44	4638
2026-01-20 12:20:37.80	338.35	21.15	-36.8	-38.5	15.6	0.00e+00	0	59	0	3244294144	44	4591
2026-01-20 12:20:38.81	338.38	21.01	-36.9	-38.6	15.5	1.10e-06	0	59	0	3250585600	44	4624
2026-01-20 12:20:39.82	338.41	20.88	-36.7	-38.4	15.7	0.00e+00	0	59	0	3255828480	44	4517
2026-01-20 12:20:40.83	338.45	20.74	-36.7	-38.4	15.6	0.00e+00	0	59	0	3262119936	44	4544
2026-01-20 12:20:41.84	338.48	20.61	-36.7	-38.4	15.6	0.00e+00	0	59	0	3267362816	44	4541
2026-01-20 12:20:42.85	338.51	20.47	-36.8	-38.5	15.4	0.00e+00	0	60	0	3272605696	44	4575
2026-01-20 12:20:43.86	338.55	20.34	-36.9	-38.7	15.2	0.00e+00	0	59	0	3278897152	44	4669
2026-01-20 12:20:44.87	338.58	20.21	-37.0	-38.8	15.0	0.00e+00	0	59	0	3284140032	44	4726
2026-01-20 12:20:45.88	338.61	20.08	-37.1	-39.0	14.8	1.10e-06	0	59	0	3290431488	44	4826
2026-01-20 12:20:46.89	338.64	19.95	-37.2	-39.1	14.5	0.00e+00	0	59	0	3295674368	44	4925
2026-01-20 12:20:47.90	338.68	19.82	-37.4	-39.4	14.2	2.20e-06	0	59	0	3300917248	45	4802
2026-01-20 12:20:48.91	338.71	19.69	-37.5	-39.6	13.9	4.50e-06	0	59	0	3307208704	45	4895
2026-01-20 12:20:49.92	338.74	19.56	-37.7	-39.8	13.6	1.14e-05	0	59	0	3312451584	45	5040
2026-01-20 12:20:50.93	338.77	19.43	-37.9	-40.1	13.4	1.71e-05	0	59	0	3318743040	46	4905
2026-01-20 12:20:51.94	338.80	19.30	-38.0	-40.3	13.2	4.92e-05	0	59	0	3323985920	46	4988
2026-01-20 12:20:52.95	338.83	19.18	-38.1	-40.4	12.9	6.63e-05	0	59	0	3329228800	46	5089
2026-01-20 12:20:53.96	338.86	19.05	-38.2	-40.7	12.6	1.27e-04	0	60	0	3335520256	47	4934
2026-01-20 12:20:54.97	338.89	18.92	-38.4	-40.9	12.4	1.86e-04	0	59	0	3340763136	47	5048
2026-01-20 12:20:55.98	338.92	18.80	-38.5	-41.1	12.1	4.29e-04	0	59	0	3347054592	47	5192
2026-01-20 12:20:56.99	338.95	18.68	-38.6	-41.3	11.9	5.61e-04	0	59	0	3352297472	47	5289
2026-01-20 12:20:58.00	338.98	18.55	-38.7	-41.4	11.6	7.28e-04	0	59	0	3358588928	47	5399
2026-01-20 12:20:59.01	339.01	18.43	-38.9	-41.7	11.4	1.29e-03	0	59	0	3363831808	48	5273
2026-01-20 12:21:00.02	339.04	18.31	-39.0	-42.0	11.0	2.10e-03	0	60	0	3370123264	48	5438
2026-01-20 12:21:01.02	339.07	18.19	-39.2	-42.4	10.6	4.55e-03	0	59	0	3375366144	49	5349
2026-01-20 12:21:02.03	339.10	18.06	-39.4	-42.7	10.2	7.27e-03	0	59	0	3380609024	49	5531
2026-01-20 12:21:03.04	339.13	17.94	-39.5	-42.8	10.1	8.26e-03	0	60	0	3386900480	49	5629
2026-01-20 12:21:04.05	339.16	17.82	-39.6	-43.0	9.8	1.09e-02	0	59	0	3392143360	49	5782
2026-01-20 12:21:05.06	339.18	17.70	-39.6	-43.2	9.6	1.46e-02	0	59	0	3398434816	49	5865
2026-01-20 12:21:06.07	339.21	17.58	-39.8	-43.5	9.3	2.01e-02	0	59	0	3403677696	50	5736
2026-01-20 12:21:07.08	339.24	17.47	-39.9	-43.8	8.9	3.22e-02	0	59	0	3408920576	50	5976
2026-01-20 12:21:08.09	339.27	17.35	-40.0	-43.9	8.8	3.79e-02	0	59	0	3415212032	50	6057
2026-01-20 12:21:09.10	339.29	17.23	-40.1	-44.1	8.6	4.42e-02	0	59	0	3420454912	50	6164
2026-01-20 12:21:10.11	339.32	17.11	-40.2	-44.5	8.1	6.36e-02	0	60	0	3426746368	50	6454
2026-01-20 12:21:11.12	339.35	17.00	-40.3	-44.9	7.7	9.63e-02	0	59	0	3431989248	51	6354
2026-01-20 12:21:12.13	339.38	16.88	-40.3	-45.0	7.5	1.21e-01	0	59	0	3437232128	51	6456
2026-01-20 12:21:13.14	339.40	16.77	-40.4	-45.1	7.4	1.21e-01	0	59	0	3443523584	51	6526
2026-01-20 12:21:14.15	339.43	16.65	-40.5	-45.4	7.0	1.62e-01	0	59	0	3448766464	51	6796
2026-01-20 12:21:15.16	339.46	16.54	-40.6	-45.8	6.7	1.98e-01	0	60	0	3455057920	51	7096
2026-01-20 12:21:16.17	339.48	16.43	-41.2	-46.4	6.4	2.63e-01	0	59	0	3460300800	52	7129
2026-01-20 12:21:17.18	339.51	16.31	-41.4	-47.4	5.6	4.26e-01	0	60	0	3465543680	53	7630
