passes_logs/2026/01/20/R2.0S_Moscow/R2.0S_Moscow__20260120_021844_AQUA_rec.log

#Pass ID: 20260120_021844_AQUA
#Satellite: AQUA
#Configuration: AQUA
#almurnet v.1.7.20251203
#Start time: 2026-01-20 02:18:44

#Version: 2.2.20231116
#Station: R2.0S_Moscow
#Location: 37.707566 lon 55.798166 lat
#TLE: 1 27424U 02022A   26019.27629806  .00001032  00000+0  21655-3 0  9990
#TLE: 2 27424  98.4090 345.7756 0001997  73.0764  31.8912 14.61830109261513

#Time	Az	El	Level	Level2	SNR	BER	BlckErr	Temp	State	Recorded	gain1	gain2
2026-01-20 02:18:44.37	10.18	2.00	-40.8	-60.0	3.8	7.44e-01	0	52	0	0	53	32331
2026-01-20 02:18:45.37	10.13	2.06	-40.8	-60.0	3.8	7.45e-01	0	52	104	0	52	34252
2026-01-20 02:18:46.38	10.09	2.13	-40.8	-60.0	3.8	7.43e-01	0	52	104	0	52	34298
2026-01-20 02:18:47.39	10.04	2.19	-40.8	-60.0	3.8	7.45e-01	0	52	104	0	52	34202
2026-01-20 02:18:48.40	9.99	2.26	-40.8	-60.0	3.8	7.47e-01	0	52	104	0	52	34232
2026-01-20 02:18:49.41	9.95	2.32	-40.8	-60.0	3.8	7.44e-01	0	53	104	0	52	34256
2026-01-20 02:18:50.42	9.90	2.39	-40.8	-60.0	3.8	7.44e-01	0	53	104	0	52	34234
2026-01-20 02:18:51.43	9.85	2.45	-40.8	-60.0	3.8	7.44e-01	0	53	104	0	52	34238
2026-01-20 02:18:52.44	9.80	2.51	-40.8	-60.0	3.8	7.47e-01	0	53	104	0	52	34216
2026-01-20 02:18:53.45	9.76	2.58	-40.8	-60.0	3.8	7.51e-01	0	53	104	0	52	34281
2026-01-20 02:18:54.46	9.71	2.64	-40.8	-60.0	3.8	7.44e-01	0	53	104	0	52	34177
2026-01-20 02:18:55.47	9.66	2.71	-40.8	-60.0	3.8	7.43e-01	0	53	104	0	52	34243
2026-01-20 02:18:56.48	9.61	2.78	-40.8	-60.0	3.8	7.44e-01	0	53	104	0	52	34223
2026-01-20 02:18:57.49	9.56	2.84	-40.8	-60.0	3.8	7.44e-01	0	53	104	0	52	34212
2026-01-20 02:18:58.50	9.51	2.91	-40.8	-60.0	3.8	7.48e-01	0	53	104	0	52	34196
2026-01-20 02:18:59.52	9.46	2.97	-40.8	-60.0	3.8	7.44e-01	0	53	104	0	52	34206
2026-01-20 02:19:00.52	9.41	3.04	-40.8	-60.0	3.8	7.43e-01	0	54	104	0	52	34234
2026-01-20 02:19:01.54	9.36	3.10	-40.8	-60.0	3.8	7.45e-01	0	53	104	0	52	34222
2026-01-20 02:19:02.55	9.31	3.17	-40.8	-60.0	3.8	7.48e-01	0	53	104	0	52	34242
2026-01-20 02:19:03.56	9.26	3.24	-40.8	-60.0	3.8	7.43e-01	0	54	104	0	52	34183
2026-01-20 02:19:04.57	9.21	3.30	-40.8	-60.0	3.8	7.47e-01	0	54	104	0	52	34144
2026-01-20 02:19:05.58	9.16	3.37	-40.8	-60.0	3.8	7.44e-01	0	54	104	0	52	34165
2026-01-20 02:19:06.59	9.10	3.44	-40.8	-60.0	3.8	7.47e-01	0	54	104	0	52	34198
2026-01-20 02:19:07.60	9.05	3.50	-40.8	-60.0	3.8	7.45e-01	0	54	104	0	52	34164
2026-01-20 02:19:08.61	9.00	3.57	-40.8	-60.0	3.8	7.45e-01	0	54	104	0	52	34153
2026-01-20 02:19:09.62	8.95	3.64	-40.8	-60.0	3.8	7.45e-01	0	54	104	0	52	34210
2026-01-20 02:19:10.63	8.90	3.71	-40.8	-60.0	3.8	7.42e-01	0	54	104	0	52	34153
2026-01-20 02:19:11.64	8.84	3.77	-40.8	-60.0	3.8	7.43e-01	0	54	104	0	52	34190
2026-01-20 02:19:12.65	8.79	3.84	-40.8	-60.0	3.8	7.45e-01	0	54	104	0	52	34109
2026-01-20 02:19:13.66	8.73	3.91	-40.8	-60.0	3.8	7.46e-01	0	54	104	0	52	34138
2026-01-20 02:19:14.67	8.68	3.98	-40.8	-60.0	3.8	7.43e-01	0	55	104	0	52	34155
2026-01-20 02:19:15.68	8.63	4.05	-40.8	-60.0	3.8	7.45e-01	0	54	104	0	52	34159
2026-01-20 02:19:16.69	8.57	4.12	-40.8	-60.0	3.8	7.44e-01	0	54	104	0	52	34150
2026-01-20 02:19:17.70	8.52	4.18	-40.8	-60.0	3.8	7.43e-01	0	54	104	0	52	34169
2026-01-20 02:19:18.71	8.46	4.25	-40.8	-60.0	3.8	7.47e-01	0	55	104	0	52	34122
2026-01-20 02:19:19.72	8.41	4.32	-40.8	-60.0	3.8	7.44e-01	0	55	104	0	52	34098
2026-01-20 02:19:20.74	8.35	4.39	-40.8	-60.0	3.8	7.44e-01	0	55	104	0	52	34166
2026-01-20 02:19:21.75	8.29	4.46	-40.8	-60.0	3.8	7.45e-01	0	55	104	0	52	34125
2026-01-20 02:19:22.76	8.24	4.53	-40.8	-60.0	3.8	7.45e-01	0	55	104	0	52	34178
2026-01-20 02:19:23.77	8.18	4.60	-40.8	-60.0	3.8	7.43e-01	0	55	104	0	52	34130
2026-01-20 02:19:24.78	8.12	4.67	-40.8	-60.0	3.8	7.45e-01	0	55	104	0	52	34204
2026-01-20 02:19:25.79	8.07	4.74	-40.8	-60.0	3.8	7.45e-01	0	55	104	0	52	34146
2026-01-20 02:19:26.80	8.01	4.81	-40.8	-60.0	3.8	7.45e-01	0	55	104	0	52	34105
2026-01-20 02:19:27.81	7.95	4.88	-40.8	-60.0	3.8	7.43e-01	0	55	104	0	52	34159
2026-01-20 02:19:28.82	7.89	4.95	-40.8	-60.0	3.8	7.45e-01	0	55	104	0	52	34086
2026-01-20 02:19:29.83	7.83	5.02	-40.8	-60.0	3.8	7.49e-01	0	55	104	0	52	34128
2026-01-20 02:19:30.84	7.77	5.09	-40.8	-60.0	3.8	7.46e-01	0	55	104	0	52	34127
2026-01-20 02:19:31.85	7.72	5.16	-40.8	-60.0	3.8	7.45e-01	0	55	104	0	52	34175
2026-01-20 02:19:32.86	7.66	5.24	-40.8	-60.0	3.8	7.46e-01	0	55	104	0	52	34205
2026-01-20 02:19:33.87	7.60	5.31	-40.8	-60.0	3.8	7.42e-01	0	55	104	0	52	34097
2026-01-20 02:19:34.88	7.54	5.38	-40.8	-60.0	3.8	7.46e-01	0	55	104	0	52	34115
2026-01-20 02:19:35.89	7.47	5.45	-40.8	-59.9	3.8	7.44e-01	0	55	104	0	52	34069
2026-01-20 02:19:36.90	7.41	5.52	-40.8	-59.9	3.8	7.43e-01	0	56	104	0	52	34071
2026-01-20 02:19:37.91	7.35	5.59	-40.8	-59.9	3.8	7.43e-01	0	56	104	0	52	34072
2026-01-20 02:19:38.92	7.29	5.67	-40.8	-60.0	3.8	7.44e-01	0	56	104	0	52	34093
2026-01-20 02:19:39.93	7.23	5.74	-40.8	-60.0	3.8	7.44e-01	0	56	104	0	52	34090
2026-01-20 02:19:40.94	7.17	5.81	-40.8	-59.9	3.8	7.47e-01	0	56	104	0	52	34075
2026-01-20 02:19:41.95	7.10	5.89	-40.8	-60.0	3.8	7.48e-01	0	56	104	0	52	34146
2026-01-20 02:19:42.96	7.04	5.96	-40.8	-60.0	3.8	7.45e-01	0	56	104	0	52	34185
2026-01-20 02:19:43.97	6.98	6.03	-40.8	-60.0	3.8	7.45e-01	0	56	104	0	52	34131
2026-01-20 02:19:44.99	6.91	6.11	-40.8	-60.0	3.8	7.47e-01	0	56	104	0	52	34183
2026-01-20 02:19:45.99	6.85	6.18	-40.8	-60.0	3.8	7.48e-01	0	56	104	0	52	34095
2026-01-20 02:19:47.01	6.78	6.25	-40.8	-60.0	3.8	7.45e-01	0	56	104	0	52	34094
2026-01-20 02:19:48.01	6.72	6.33	-40.8	-59.9	3.8	7.46e-01	0	56	104	0	52	34058
2026-01-20 02:19:49.02	6.65	6.40	-40.8	-59.9	3.8	7.48e-01	0	56	104	0	52	34044
2026-01-20 02:19:50.04	6.59	6.48	-40.8	-59.9	3.8	7.45e-01	0	56	104	0	52	34084
2026-01-20 02:19:51.05	6.52	6.55	-40.8	-60.0	3.8	7.43e-01	0	56	104	0	52	34087
2026-01-20 02:19:52.06	6.45	6.63	-40.8	-60.0	3.8	7.47e-01	0	56	104	0	52	34099
2026-01-20 02:19:53.07	6.39	6.70	-40.8	-59.9	3.8	7.44e-01	0	56	104	0	52	34070
2026-01-20 02:19:54.08	6.32	6.78	-40.8	-59.9	3.8	7.44e-01	0	56	104	0	52	34051
2026-01-20 02:19:55.09	6.25	6.85	-40.8	-59.9	3.8	7.46e-01	0	56	104	0	52	34034
2026-01-20 02:19:56.10	6.18	6.93	-40.8	-59.9	3.8	7.45e-01	0	56	104	0	52	34005
2026-01-20 02:19:57.11	6.11	7.01	-40.8	-59.9	3.8	7.46e-01	0	56	104	0	52	34067
2026-01-20 02:19:58.12	6.04	7.08	-40.8	-59.9	3.8	7.45e-01	0	57	104	0	52	34051
2026-01-20 02:19:59.13	5.97	7.16	-40.8	-59.9	3.8	7.46e-01	0	57	104	0	52	34053
2026-01-20 02:20:00.14	5.90	7.24	-40.8	-59.9	3.8	7.47e-01	0	57	104	0	52	34001
2026-01-20 02:20:01.15	5.83	7.31	-40.8	-59.9	3.8	7.45e-01	0	57	104	0	52	34046
2026-01-20 02:20:02.16	5.76	7.39	-40.8	-59.9	3.8	7.44e-01	0	57	104	0	52	34041
2026-01-20 02:20:03.17	5.69	7.47	-40.8	-59.9	3.8	7.45e-01	0	57	104	0	52	34066
2026-01-20 02:20:04.18	5.62	7.54	-40.8	-60.0	3.8	7.44e-01	0	57	104	0	52	34121
2026-01-20 02:20:05.19	5.55	7.62	-40.8	-59.9	3.8	7.48e-01	0	57	104	0	52	34069
2026-01-20 02:20:06.20	5.48	7.70	-40.8	-59.9	3.8	7.45e-01	0	57	104	0	52	34012
2026-01-20 02:20:07.21	5.40	7.78	-40.8	-59.9	3.8	7.46e-01	0	57	104	0	52	34064
2026-01-20 02:20:08.22	5.33	7.86	-40.8	-59.9	3.8	7.47e-01	0	57	104	0	52	34032
2026-01-20 02:20:09.23	5.26	7.94	-40.8	-59.9	3.8	7.46e-01	0	57	104	0	52	34083
2026-01-20 02:20:10.25	5.18	8.02	-40.8	-59.9	3.8	7.45e-01	0	57	104	0	52	34060
2026-01-20 02:20:11.26	5.11	8.10	-40.8	-60.0	3.8	7.45e-01	0	57	104	0	52	34094
2026-01-20 02:20:12.27	5.03	8.17	-40.8	-60.0	3.8	7.47e-01	0	57	104	0	52	34250
2026-01-20 02:20:13.28	4.95	8.25	-40.9	-60.1	3.8	7.46e-01	0	57	104	0	52	34523
2026-01-20 02:20:14.29	4.88	8.33	-40.8	-60.0	3.8	7.43e-01	0	57	104	0	52	34173
2026-01-20 02:20:15.29	4.80	8.41	-40.9	-60.1	3.8	7.42e-01	0	57	104	0	52	34613
2026-01-20 02:20:16.30	4.72	8.49	-40.9	-60.0	3.8	7.44e-01	0	57	104	0	52	34375
2026-01-20 02:20:17.31	4.65	8.57	-40.9	-60.1	3.8	7.45e-01	0	57	104	0	52	34670
2026-01-20 02:20:18.32	4.57	8.66	-40.8	-60.0	3.8	7.47e-01	0	57	104	0	52	34435
2026-01-20 02:20:19.33	4.49	8.74	-40.9	-60.1	3.8	7.44e-01	0	57	104	0	52	34820
2026-01-20 02:20:20.34	4.41	8.82	-40.9	-60.0	3.8	7.47e-01	0	57	104	0	52	34403
2026-01-20 02:20:21.35	4.33	8.90	-40.9	-60.1	3.8	7.44e-01	0	57	104	0	52	34682
2026-01-20 02:20:22.36	4.25	8.98	-40.8	-60.0	3.8	7.46e-01	0	58	104	0	52	34434
2026-01-20 02:20:23.37	4.17	9.06	-40.9	-60.2	3.8	7.44e-01	0	58	104	0	52	34988
2026-01-20 02:20:24.38	4.09	9.15	-40.9	-60.0	3.8	7.44e-01	0	57	104	0	52	34415
2026-01-20 02:20:25.39	4.01	9.23	-41.0	-60.2	3.8	7.47e-01	0	58	104	0	52	35005
2026-01-20 02:20:26.40	3.93	9.31	-40.7	-60.1	3.8	7.49e-01	0	58	104	0	52	34488
2026-01-20 02:20:27.41	3.84	9.39	-40.9	-60.2	3.8	7.45e-01	0	58	104	0	52	35076
2026-01-20 02:20:28.42	3.76	9.48	-40.9	-60.1	3.8	7.47e-01	0	57	104	0	52	34592
2026-01-20 02:20:29.43	3.68	9.56	-41.0	-60.2	3.8	7.49e-01	0	58	104	0	52	35139
2026-01-20 02:20:30.44	3.59	9.64	-40.6	-60.0	3.8	7.47e-01	0	58	104	0	52	34398
2026-01-20 02:20:31.45	3.51	9.73	-40.9	-60.2	3.8	7.46e-01	0	58	104	0	52	35107
2026-01-20 02:20:32.46	3.42	9.81	-41.0	-60.2	3.8	7.46e-01	0	58	104	0	52	34932
2026-01-20 02:20:33.47	3.33	9.90	-41.0	-60.3	3.8	7.46e-01	0	58	104	0	53	33379
2026-01-20 02:20:34.48	3.25	9.98	-40.8	-60.1	3.8	7.47e-01	0	58	104	0	53	32762
2026-01-20 02:20:35.48	3.16	10.07	-41.0	-60.2	3.8	7.43e-01	0	58	104	0	53	33182
2026-01-20 02:20:36.50	3.07	10.15	-41.0	-60.2	3.8	7.42e-01	0	58	104	0	53	33300
2026-01-20 02:20:37.51	2.98	10.24	-41.0	-60.2	3.8	7.45e-01	0	58	104	0	53	33265
2026-01-20 02:20:38.52	2.89	10.32	-40.9	-60.1	3.8	7.44e-01	0	58	104	0	53	32881
2026-01-20 02:20:39.53	2.81	10.41	-41.0	-60.3	3.8	7.47e-01	0	58	104	0	53	33349
2026-01-20 02:20:40.54	2.72	10.50	-41.2	-60.3	3.8	7.43e-01	0	58	104	0	53	33655
2026-01-20 02:20:41.55	2.62	10.58	-41.0	-60.3	3.8	7.44e-01	0	58	104	0	53	33408
2026-01-20 02:20:42.55	2.53	10.67	-41.0	-60.2	3.8	7.44e-01	0	58	104	0	53	33160
2026-01-20 02:20:43.56	2.44	10.76	-41.1	-60.3	3.8	7.41e-01	0	58	104	0	53	33631
2026-01-20 02:20:44.57	2.35	10.85	-41.2	-60.5	3.8	7.44e-01	0	58	104	0	53	34089
2026-01-20 02:20:45.58	2.26	10.93	-41.0	-60.3	3.8	7.46e-01	0	58	104	0	53	33388
2026-01-20 02:20:46.59	2.16	11.02	-40.8	-60.1	3.8	7.43e-01	0	58	104	0	53	32807
2026-01-20 02:20:47.60	2.07	11.11	-40.8	-60.2	3.8	7.46e-01	0	58	104	0	53	32946
2026-01-20 02:20:48.61	1.97	11.20	-40.8	-60.1	3.8	7.45e-01	0	58	104	0	53	32853
2026-01-20 02:20:49.62	1.88	11.29	-40.8	-60.1	3.8	7.43e-01	0	58	104	0	53	32755
2026-01-20 02:20:50.63	1.78	11.38	-40.8	-60.1	3.8	7.44e-01	0	58	104	0	53	32820
2026-01-20 02:20:51.64	1.68	11.47	-40.9	-60.2	3.8	7.45e-01	0	59	104	0	53	33027
2026-01-20 02:20:52.65	1.59	11.56	-40.9	-60.2	3.8	7.45e-01	0	58	104	0	53	32964
2026-01-20 02:20:53.66	1.49	11.65	-41.4	-60.7	3.8	7.45e-01	0	58	104	0	53	34921
2026-01-20 02:20:54.67	1.39	11.74	-41.3	-60.7	3.8	7.46e-01	0	59	104	0	54	33121
2026-01-20 02:20:55.67	1.29	11.83	-40.9	-60.2	3.8	7.48e-01	0	59	104	0	53	33146
2026-01-20 02:20:56.68	1.19	11.92	-41.0	-60.3	3.8	7.46e-01	0	58	104	0	53	33366
2026-01-20 02:20:57.69	1.09	12.01	-41.1	-60.3	3.8	7.46e-01	0	59	104	0	53	33591
2026-01-20 02:20:58.70	0.99	12.10	-41.1	-60.3	3.8	7.44e-01	0	59	104	0	53	33607
2026-01-20 02:20:59.71	0.88	12.19	-41.2	-60.6	3.8	7.48e-01	0	59	104	0	53	34518
2026-01-20 02:21:00.70	0.78	12.28	-41.2	-60.5	3.8	7.46e-01	0	59	104	0	53	34124
2026-01-20 02:21:01.72	0.68	12.38	-41.8	-61.1	3.8	7.43e-01	0	58	104	0	54	34809
2026-01-20 02:21:02.73	0.57	12.47	-41.6	-60.8	3.8	7.45e-01	0	59	104	0	54	33670
2026-01-20 02:21:03.74	0.47	12.56	-41.2	-60.4	3.8	7.45e-01	0	59	104	0	54	32130
2026-01-20 02:21:04.74	0.36	12.65	-41.3	-60.4	3.8	7.45e-01	0	59	104	0	54	32084
2026-01-20 02:21:05.75	0.25	12.75	-41.3	-60.5	3.8	7.44e-01	0	59	104	0	54	32280
2026-01-20 02:21:06.76	0.15	12.84	-41.3	-60.6	3.8	7.46e-01	0	59	104	0	54	32567
2026-01-20 02:21:07.77	0.04	12.94	-41.6	-60.9	3.8	7.47e-01	0	59	104	0	54	33795
2026-01-20 02:21:08.78	359.93	13.03	-41.4	-60.6	3.8	7.43e-01	0	59	104	0	54	32657
2026-01-20 02:21:09.79	359.82	13.13	-42.2	-60.3	3.8	7.45e-01	0	59	104	0	55	30016
2026-01-20 02:21:10.80	359.71	13.22	-42.9	-60.0	3.8	7.44e-01	0	59	104	0	56	27317
2026-01-20 02:21:11.81	359.60	13.32	-42.3	-61.3	3.8	7.45e-01	0	59	104	0	56	31479
2026-01-20 02:21:12.82	359.48	13.41	-42.1	-57.5	3.8	7.44e-01	0	59	104	0	56	20459
2026-01-20 02:21:13.83	359.37	13.51	-41.9	-56.8	3.8	7.47e-01	0	59	104	0	55	20063
2026-01-20 02:21:14.84	359.26	13.60	-41.8	-56.5	3.8	7.44e-01	0	59	104	0	55	19369
2026-01-20 02:21:15.85	359.14	13.70	-43.8	-62.4	3.8	7.44e-01	0	59	104	0	58	31840
2026-01-20 02:21:16.86	359.03	13.80	-42.1	-57.1	3.8	7.44e-01	0	59	104	0	56	19580
2026-01-20 02:21:17.87	358.91	13.90	-42.1	-59.9	3.7	7.45e-01	0	59	104	0	54	30068
2026-01-20 02:21:18.88	358.79	13.99	-43.0	-58.3	3.8	7.49e-01	0	59	104	0	56	22350
2026-01-20 02:21:19.89	358.67	14.09	-41.8	-57.9	3.8	7.41e-01	0	59	104	0	54	23890
2026-01-20 02:21:20.90	358.55	14.19	-40.7	-54.2	3.8	7.45e-01	0	59	104	0	53	16508
2026-01-20 02:21:21.91	358.43	14.29	-40.8	-54.4	3.8	7.46e-01	0	59	104	0	53	17002
2026-01-20 02:21:22.92	358.31	14.39	-40.9	-54.4	3.8	7.42e-01	0	59	104	0	53	16946
2026-01-20 02:21:23.93	358.19	14.49	-42.9	-57.8	3.8	7.48e-01	0	59	104	0	56	21057
2026-01-20 02:21:24.94	358.07	14.59	-41.3	-55.2	3.8	7.46e-01	0	59	104	0	54	17567
2026-01-20 02:21:25.95	357.95	14.69	-43.2	-61.6	3.8	7.49e-01	0	59	104	0	56	32561
2026-01-20 02:21:26.96	357.82	14.79	-43.5	-58.9	3.8	7.47e-01	0	59	104	0	57	22769
2026-01-20 02:21:27.97	357.70	14.89	-42.2	-58.4	3.8	7.47e-01	0	59	104	0	54	25551
2026-01-20 02:21:28.98	357.57	14.99	-40.7	-54.0	3.8	7.49e-01	0	59	104	0	53	16155
2026-01-20 02:21:29.99	357.44	15.09	-40.8	-54.1	3.8	7.46e-01	0	59	104	0	53	16350
2026-01-20 02:21:31.00	357.31	15.19	-40.8	-53.9	3.8	7.44e-01	0	59	104	0	53	15980
2026-01-20 02:21:32.01	357.18	15.29	-42.0	-57.0	3.8	7.44e-01	0	59	104	0	54	21634
2026-01-20 02:21:33.02	357.05	15.40	-41.4	-55.4	3.8	7.49e-01	0	59	104	0	54	17921
2026-01-20 02:21:34.03	356.92	15.50	-43.5	-62.0	3.8	7.48e-01	0	59	104	0	57	32197
2026-01-20 02:21:35.04	356.79	15.60	-43.7	-60.8	3.7	7.46e-01	0	60	104	0	58	26736
2026-01-20 02:21:36.05	356.66	15.71	-42.3	-58.6	3.9	7.44e-01	0	59	104	0	55	24687
2026-01-20 02:21:37.06	356.52	15.81	-41.0	-54.7	3.8	7.46e-01	0	60	104	0	54	16536
2026-01-20 02:21:38.06	356.39	15.91	-41.2	-55.2	3.8	7.45e-01	0	59	104	0	54	17681
2026-01-20 02:21:39.07	356.25	16.02	-41.5	-56.0	3.8	7.45e-01	0	60	104	0	54	19373
2026-01-20 02:21:40.08	356.12	16.12	-42.5	-58.5	3.8	7.44e-01	0	60	104	0	55	24310
2026-01-20 02:21:41.09	355.98	16.23	-41.8	-59.2	3.8	7.44e-01	0	59	104	0	55	26263
2026-01-20 02:21:42.10	355.84	16.33	-43.5	-61.7	3.8	7.42e-01	0	60	104	0	57	31109
2026-01-20 02:21:43.12	355.70	16.44	-43.0	-60.5	3.8	7.46e-01	0	60	104	0	57	27279
2026-01-20 02:21:44.13	355.55	16.54	-42.2	-61.2	3.8	7.46e-01	0	60	104	0	56	31282
2026-01-20 02:21:45.14	355.41	16.65	-42.3	-60.3	3.8	7.47e-01	0	60	104	0	56	28332
2026-01-20 02:21:46.15	355.27	16.76	-42.2	-60.7	3.8	7.41e-01	0	60	104	0	56	29382
2026-01-20 02:21:47.16	355.12	16.86	-42.2	-61.1	3.8	7.47e-01	0	60	104	0	56	30837
2026-01-20 02:21:48.17	354.98	16.97	-42.5	-61.7	3.8	7.43e-01	0	60	104	0	56	33156
2026-01-20 02:21:49.18	354.83	17.08	-42.3	-61.2	3.8	7.47e-01	0	60	104	0	56	31245
2026-01-20 02:21:50.19	354.68	17.19	-41.4	-60.9	3.8	7.47e-01	0	60	104	0	54	33720
2026-01-20 02:21:51.20	354.53	17.30	-41.7	-61.0	3.8	7.43e-01	0	60	104	0	54	34296
2026-01-20 02:21:52.21	354.38	17.40	-41.9	-61.2	3.8	7.45e-01	0	60	104	0	54	35179
2026-01-20 02:21:53.21	354.23	17.51	-41.9	-61.3	3.8	7.48e-01	0	60	104	0	54	35445
2026-01-20 02:21:54.22	354.08	17.62	-41.5	-60.7	3.8	7.46e-01	0	60	104	0	54	33270
2026-01-20 02:21:55.23	353.92	17.73	-41.4	-60.9	3.8	7.45e-01	0	60	104	0	54	33728
2026-01-20 02:21:56.24	353.77	17.84	-41.4	-60.8	3.8	7.45e-01	0	60	104	0	54	33604
2026-01-20 02:21:57.25	353.61	17.95	-41.5	-60.7	3.8	7.49e-01	0	60	104	0	54	33292
2026-01-20 02:21:58.26	353.45	18.06	-41.4	-60.7	3.8	7.44e-01	0	60	104	0	54	33297
2026-01-20 02:21:59.27	353.29	18.17	-41.4	-60.8	3.8	7.47e-01	0	60	104	0	54	33548
2026-01-20 02:22:00.28	353.13	18.28	-41.4	-61.0	3.8	7.47e-01	0	60	104	0	54	34206
2026-01-20 02:22:01.29	352.97	18.40	-41.2	-61.0	3.8	7.47e-01	0	60	104	0	54	34104
2026-01-20 02:22:02.30	352.81	18.51	-42.1	-61.3	3.8	7.46e-01	0	60	104	0	54	35284
2026-01-20 02:22:03.31	352.64	18.62	-41.8	-61.1	3.8	7.48e-01	0	60	104	0	54	34581
2026-01-20 02:22:04.32	352.48	18.73	-41.6	-61.0	3.8	7.46e-01	0	60	104	0	54	34116
2026-01-20 02:22:05.33	352.31	18.85	-42.0	-61.3	3.8	7.45e-01	0	60	104	0	54	35317
2026-01-20 02:22:06.34	352.14	18.96	-41.6	-60.9	3.8	7.45e-01	0	60	104	0	54	33978
2026-01-20 02:22:07.35	351.97	19.07	-42.0	-61.3	3.8	7.45e-01	0	60	104	0	54	35329
2026-01-20 02:22:08.36	351.80	19.19	-41.8	-61.0	3.8	7.46e-01	0	60	104	0	54	34394
2026-01-20 02:22:09.37	351.63	19.30	-42.0	-61.4	3.8	7.43e-01	0	60	104	0	54	35890
2026-01-20 02:22:10.38	351.46	19.42	-41.8	-61.0	3.8	7.46e-01	0	60	104	0	54	34176
2026-01-20 02:22:11.38	351.28	19.53	-41.9	-61.0	3.8	7.48e-01	0	60	104	0	54	34367
2026-01-20 02:22:12.39	351.11	19.64	-41.6	-60.9	3.8	7.45e-01	0	60	104	0	54	33860
2026-01-20 02:22:13.40	350.93	19.76	-41.9	-61.0	3.8	7.44e-01	0	60	104	0	54	34170
2026-01-20 02:22:14.41	350.75	19.88	-41.9	-60.9	3.8	7.43e-01	0	60	104	0	54	34042
2026-01-20 02:22:15.42	350.57	19.99	-42.0	-61.0	3.8	7.46e-01	0	60	104	0	54	34168
2026-01-20 02:22:16.43	350.39	20.11	-42.0	-61.1	3.8	7.46e-01	0	60	104	0	54	34660
2026-01-20 02:22:17.44	350.20	20.22	-41.9	-61.3	3.8	7.43e-01	0	60	104	0	54	35569
2026-01-20 02:22:18.45	350.02	20.34	-42.9	-61.3	3.8	7.46e-01	0	60	104	0	56	31481
2026-01-20 02:22:19.46	349.83	20.46	-42.1	-61.4	3.8	7.46e-01	0	60	104	0	56	31972
2026-01-20 02:22:20.47	349.64	20.58	-42.1	-61.5	3.8	7.44e-01	0	60	104	0	55	34140
2026-01-20 02:22:21.48	349.45	20.69	-42.4	-60.8	3.8	7.49e-01	0	60	104	0	56	29854
2026-01-20 02:22:22.49	349.26	20.81	-42.1	-61.4	3.8	7.45e-01	0	60	104	0	55	33749
2026-01-20 02:22:23.50	349.07	20.93	-42.6	-60.0	3.8	7.47e-01	0	60	104	0	56	27172
2026-01-20 02:22:24.51	348.87	21.05	-42.5	-61.2	3.8	7.43e-01	0	60	104	0	56	31306
2026-01-20 02:22:25.52	348.67	21.17	-42.5	-59.2	3.8	7.45e-01	0	60	104	0	56	24924
2026-01-20 02:22:26.53	348.48	21.29	-42.3	-58.6	3.8	7.42e-01	0	60	104	0	56	23167
2026-01-20 02:22:27.54	348.28	21.41	-41.7	-56.7	3.8	7.46e-01	0	60	104	0	55	19822
2026-01-20 02:22:28.54	348.08	21.53	-41.6	-56.9	3.8	7.45e-01	0	60	104	0	55	20189
2026-01-20 02:22:29.55	347.87	21.65	-41.3	-55.9	3.9	7.45e-01	0	60	104	0	54	19087
2026-01-20 02:22:30.57	347.67	21.77	-43.7	-59.0	3.8	7.46e-01	0	60	104	0	57	22826
2026-01-20 02:22:31.57	347.46	21.89	-41.5	-55.3	3.9	7.45e-01	0	60	104	0	54	17691
2026-01-20 02:22:32.58	347.26	22.01	-42.2	-57.2	3.9	7.47e-01	0	60	104	0	56	19803
2026-01-20 02:22:33.59	347.05	22.13	-41.3	-55.0	3.8	7.42e-01	0	60	104	0	54	17194
2026-01-20 02:22:34.60	346.83	22.25	-41.3	-54.8	3.8	7.44e-01	0	61	104	0	54	16846
2026-01-20 02:22:35.61	346.62	22.37	-41.3	-54.5	3.8	7.45e-01	0	60	104	0	54	16268
2026-01-20 02:22:36.62	346.41	22.49	-42.0	-55.7	3.8	7.44e-01	0	60	104	0	54	18678
2026-01-20 02:22:37.63	346.19	22.62	-41.9	-55.9	3.8	7.46e-01	0	60	104	0	54	19007
2026-01-20 02:22:38.64	345.97	22.74	-43.3	-58.3	3.8	7.45e-01	0	60	104	0	57	21155
2026-01-20 02:22:39.65	345.75	22.86	-42.0	-55.9	3.8	7.47e-01	0	60	104	0	55	17963
2026-01-20 02:22:40.66	345.53	22.98	-42.3	-56.7	3.9	7.46e-01	0	60	104	0	56	18700
2026-01-20 02:22:41.67	345.30	23.10	-41.6	-55.0	3.8	7.46e-01	0	60	104	0	55	16290
2026-01-20 02:22:42.68	345.08	23.23	-41.5	-54.7	3.8	7.47e-01	0	60	104	0	55	15732
2026-01-20 02:22:43.69	344.85	23.35	-41.8	-54.9	3.8	7.45e-01	0	60	104	0	55	15983
2026-01-20 02:22:44.70	344.62	23.47	-43.5	-59.1	3.8	7.47e-01	0	60	104	0	57	23063
2026-01-20 02:22:45.71	344.39	23.60	-42.8	-56.4	3.8	7.43e-01	0	60	104	0	56	17908
2026-01-20 02:22:46.72	344.15	23.72	-43.7	-58.0	3.8	7.45e-01	0	60	104	0	59	18188
2026-01-20 02:22:47.73	343.92	23.84	-43.7	-58.4	3.8	7.47e-01	0	61	104	0	57	21272
2026-01-20 02:22:48.74	343.68	23.97	-42.5	-56.0	3.8	7.47e-01	0	61	104	0	57	16151
2026-01-20 02:22:49.74	343.44	24.09	-42.2	-55.2	3.8	7.48e-01	0	60	104	0	56	15723
2026-01-20 02:22:50.75	343.20	24.21	-42.1	-55.1	3.8	7.47e-01	0	61	104	0	56	15491
2026-01-20 02:22:51.76	342.96	24.34	-43.4	-57.3	3.8	7.44e-01	0	61	104	0	57	18754
2026-01-20 02:22:52.77	342.71	24.46	-44.8	-61.1	3.8	7.47e-01	0	60	104	0	60	24479
2026-01-20 02:22:53.78	342.46	24.59	-44.0	-58.9	3.8	7.44e-01	0	60	104	0	58	21437
2026-01-20 02:22:54.79	342.21	24.71	-43.6	-57.8	3.8	7.44e-01	0	60	104	0	59	17802
2026-01-20 02:22:55.80	341.96	24.84	-44.0	-58.8	3.7	7.46e-01	0	60	104	0	58	21147
2026-01-20 02:22:56.81	341.71	24.96	-42.5	-56.0	3.9	7.42e-01	0	60	104	0	57	16190
2026-01-20 02:22:57.82	341.45	25.08	-42.3	-55.5	3.8	7.44e-01	0	61	104	0	56	16277
2026-01-20 02:22:58.83	341.19	25.21	-42.3	-55.5	3.8	7.45e-01	0	60	104	0	56	16244
2026-01-20 02:22:59.84	340.93	25.33	-44.6	-59.7	3.8	7.47e-01	0	60	104	0	59	22218
2026-01-20 02:23:00.84	340.67	25.46	-44.5	-60.8	3.8	7.46e-01	0	61	104	0	60	23639
2026-01-20 02:23:01.85	340.40	25.58	-44.7	-59.8	3.8	7.46e-01	0	61	104	0	59	22416
2026-01-20 02:23:02.86	340.14	25.70	-44.1	-58.4	3.8	7.42e-01	0	60	104	0	59	18977
2026-01-20 02:23:03.87	339.87	25.83	-44.5	-59.8	3.8	7.49e-01	0	61	104	0	59	22398
2026-01-20 02:23:04.88	339.60	25.95	-42.4	-55.3	3.8	7.45e-01	0	61	104	0	56	15794
2026-01-20 02:23:05.89	339.32	26.08	-42.3	-55.0	3.8	7.41e-01	0	60	104	0	56	15401
2026-01-20 02:23:06.90	339.05	26.20	-42.4	-55.2	3.8	7.45e-01	0	61	104	0	56	15678
2026-01-20 02:23:07.91	338.77	26.33	-44.0	-57.9	3.8	7.46e-01	0	60	104	0	58	19102
2026-01-20 02:23:08.92	338.49	26.45	-45.4	-62.6	3.9	7.49e-01	0	60	104	0	61	27400
2026-01-20 02:23:09.93	338.20	26.57	-44.7	-60.7	3.9	7.49e-01	0	60	104	0	60	23356
2026-01-20 02:23:10.94	337.92	26.70	-44.0	-58.1	3.8	7.44e-01	0	61	104	0	59	18388
2026-01-20 02:23:11.95	337.63	26.82	-44.5	-59.4	3.8	7.43e-01	0	60	104	0	59	21344
2026-01-20 02:23:12.95	337.34	26.94	-42.4	-55.3	3.8	7.47e-01	0	60	104	0	56	15850
2026-01-20 02:23:13.96	337.05	27.07	-42.5	-55.4	3.8	7.44e-01	0	61	104	0	56	16066
2026-01-20 02:23:14.97	336.76	27.19	-42.2	-55.0	3.8	7.46e-01	0	61	104	0	56	15392
2026-01-20 02:23:15.98	336.46	27.31	-44.0	-57.8	3.8	7.42e-01	0	61	104	0	58	18890
2026-01-20 02:23:16.99	336.16	27.43	-44.9	-61.2	3.8	7.47e-01	0	61	104	0	60	24972
2026-01-20 02:23:18.00	335.86	27.56	-45.4	-62.5	3.7	7.47e-01	0	61	104	0	61	27136
2026-01-20 02:23:19.01	335.55	27.68	-44.1	-58.3	3.8	7.45e-01	0	61	104	0	60	17809
2026-01-20 02:23:20.02	335.25	27.80	-44.7	-60.0	3.8	7.46e-01	0	61	104	0	59	22800
2026-01-20 02:23:21.03	334.94	27.92	-42.3	-55.0	3.8	7.46e-01	0	61	104	0	56	15247
2026-01-20 02:23:22.04	334.62	28.04	-42.3	-55.0	3.8	7.47e-01	0	61	104	0	56	15337
2026-01-20 02:23:23.04	334.31	28.16	-42.2	-54.9	3.8	7.46e-01	0	61	104	0	56	15189
2026-01-20 02:23:24.05	334.00	28.28	-43.8	-57.4	3.8	7.45e-01	0	61	104	0	58	18056
2026-01-20 02:23:25.06	333.68	28.40	-45.5	-62.9	3.8	7.43e-01	0	61	104	0	61	28641
2026-01-20 02:23:26.07	333.36	28.52	-45.1	-61.5	3.8	7.44e-01	0	61	104	0	60	25775
2026-01-20 02:23:27.08	333.03	28.64	-44.0	-58.0	3.8	7.43e-01	0	61	104	0	59	18289
2026-01-20 02:23:28.09	332.70	28.76	-44.5	-59.3	3.8	7.43e-01	0	61	104	0	59	21149
2026-01-20 02:23:29.10	332.37	28.88	-42.1	-54.8	3.8	7.43e-01	0	61	104	0	56	14978
2026-01-20 02:23:30.11	332.04	29.00	-42.2	-55.0	3.8	7.41e-01	0	61	104	0	56	15295
2026-01-20 02:23:31.12	331.71	29.11	-42.2	-54.9	3.8	7.44e-01	0	61	104	0	56	15112
2026-01-20 02:23:32.13	331.37	29.23	-43.7	-57.3	3.8	7.44e-01	0	61	104	0	58	17828
2026-01-20 02:23:33.14	331.03	29.35	-44.9	-61.0	3.8	7.42e-01	0	61	104	0	60	24306
2026-01-20 02:23:34.15	330.69	29.46	-45.4	-62.4	3.7	7.45e-01	0	61	104	0	61	26842
2026-01-20 02:23:35.16	330.34	29.58	-44.1	-57.9	3.9	7.47e-01	0	61	104	0	59	18093
2026-01-20 02:23:36.17	330.00	29.69	-44.3	-59.3	3.8	7.44e-01	0	61	104	0	60	19848
2026-01-20 02:23:37.18	329.65	29.80	-42.5	-55.4	3.8	7.46e-01	0	61	104	0	57	15118
2026-01-20 02:23:38.19	329.30	29.92	-42.4	-55.2	3.8	7.47e-01	0	61	104	0	56	15611
2026-01-20 02:23:39.20	328.94	30.03	-42.1	-54.7	3.8	7.45e-01	0	61	104	0	56	14781
2026-01-20 02:23:40.20	328.59	30.14	-43.2	-56.3	3.8	7.47e-01	0	61	104	0	57	16811
2026-01-20 02:23:41.21	328.23	30.25	-45.0	-61.1	3.9	7.45e-01	0	61	104	0	61	23058
2026-01-20 02:23:42.22	327.86	30.36	-45.1	-61.5	3.8	7.44e-01	0	61	104	0	61	24328
2026-01-20 02:23:43.23	327.50	30.47	-43.3	-56.6	3.9	7.43e-01	0	61	104	0	58	16469
2026-01-20 02:23:44.24	327.13	30.58	-44.3	-58.8	3.8	7.44e-01	0	61	104	0	59	19913
2026-01-20 02:23:45.25	326.76	30.68	-42.5	-55.5	3.8	7.42e-01	0	61	104	0	57	15253
2026-01-20 02:23:46.26	326.39	30.79	-42.4	-55.2	3.8	7.44e-01	0	61	104	0	56	15691
2026-01-20 02:23:47.27	326.01	30.89	-42.2	-54.9	3.8	7.41e-01	0	61	104	0	56	15052
2026-01-20 02:23:48.28	325.63	31.00	-43.4	-56.8	3.8	7.47e-01	0	61	104	0	57	17886
2026-01-20 02:23:49.29	325.25	31.10	-44.2	-59.1	3.9	7.46e-01	0	61	104	0	60	19434
2026-01-20 02:23:50.30	324.87	31.20	-45.2	-61.6	3.9	7.44e-01	0	61	104	0	61	24522
2026-01-20 02:23:51.31	324.48	31.31	-43.2	-56.3	3.9	7.47e-01	0	61	104	0	58	15813
2026-01-20 02:23:52.32	324.10	31.41	-44.3	-58.8	3.8	7.44e-01	0	61	104	0	59	19911
2026-01-20 02:23:53.33	323.71	31.51	-42.3	-54.9	3.8	7.43e-01	0	61	104	0	56	15121
2026-01-20 02:23:54.34	323.31	31.60	-42.3	-55.1	3.8	7.46e-01	0	61	104	0	56	15411
2026-01-20 02:23:55.35	322.92	31.70	-42.0	-54.6	3.8	7.44e-01	0	61	104	0	56	14597
2026-01-20 02:23:56.36	322.52	31.80	-43.4	-56.6	3.8	7.47e-01	0	61	104	0	57	17413
2026-01-20 02:23:57.36	322.12	31.89	-43.4	-56.5	3.9	7.40e-01	0	61	104	0	58	16264
2026-01-20 02:23:58.37	321.72	31.98	-45.0	-61.2	3.9	7.45e-01	0	61	104	0	61	23395
2026-01-20 02:23:59.38	321.31	32.08	-42.5	-55.5	3.8	7.44e-01	0	61	104	0	57	15272
2026-01-20 02:24:00.39	320.91	32.17	-44.4	-50.1	13.6	6.02e-01	0	61	0	0	59	7367
2026-01-20 02:24:01.40	320.50	32.26	-44.5	-50.2	13.7	6.03e-01	0	61	0	2097152	59	7389
2026-01-20 02:24:02.41	320.08	32.35	-44.2	-49.5	14.4	6.06e-01	0	61	0	3670016	59	6823
2026-01-20 02:24:03.42	319.67	32.43	-44.0	-49.0	15.0	6.02e-01	0	61	0	5767168	59	6436
2026-01-20 02:24:04.43	319.25	32.52	-43.8	-48.4	15.6	6.06e-01	0	61	0	7340032	59	5999
2026-01-20 02:24:05.44	318.83	32.60	-43.5	-47.8	16.2	6.01e-01	0	61	0	9437184	59	5605
2026-01-20 02:24:06.45	318.41	32.68	-43.2	-47.2	16.8	6.02e-01	0	61	0	11534336	58	5546
2026-01-20 02:24:07.46	317.99	32.77	-42.9	-46.7	17.2	6.02e-01	0	61	0	13107200	57	5560
2026-01-20 02:24:08.47	317.56	32.85	-42.8	-46.5	17.5	6.02e-01	0	61	0	15204352	57	5405
2026-01-20 02:24:09.48	317.13	32.92	-42.4	-45.6	18.3	6.02e-01	0	61	0	17301504	56	5212
2026-01-20 02:24:10.49	316.70	33.00	-42.1	-45.3	18.7	6.02e-01	0	61	0	18874368	56	5006
2026-01-20 02:24:11.50	316.27	33.07	-42.2	-45.4	18.6	6.00e-01	0	61	0	20971520	56	5059
2026-01-20 02:24:12.51	315.84	33.15	-41.9	-44.9	19.1	6.00e-01	0	61	0	22544384	55	5064
2026-01-20 02:24:13.52	315.40	33.22	-41.9	-44.9	19.0	6.04e-01	0	61	0	24641536	55	5097
2026-01-20 02:24:14.52	314.97	33.29	-41.7	-44.7	19.3	6.01e-01	0	61	0	26738688	55	4929
2026-01-20 02:24:15.53	314.53	33.36	-41.7	-44.7	19.3	6.02e-01	0	61	0	28311552	55	4951
2026-01-20 02:24:16.54	314.09	33.42	-41.7	-44.6	19.3	6.05e-01	0	61	0	30408704	55	4907
2026-01-20 02:24:17.55	313.64	33.49	-41.7	-44.7	19.2	6.04e-01	0	61	0	31981568	55	4959
2026-01-20 02:24:18.56	313.20	33.55	-41.8	-44.7	19.2	6.03e-01	0	61	0	34078720	55	4971
2026-01-20 02:24:19.57	312.75	33.61	-41.7	-44.7	19.3	6.01e-01	0	61	0	35651584	55	4947
2026-01-20 02:24:20.58	312.30	33.67	-41.7	-44.6	19.4	6.00e-01	0	61	0	37748736	55	4872
2026-01-20 02:24:21.59	311.85	33.73	-42.0	-45.1	18.9	6.02e-01	0	61	0	39845888	55	5181
2026-01-20 02:24:22.60	311.40	33.79	-42.0	-45.1	18.8	6.00e-01	0	61	0	41418752	55	5166
2026-01-20 02:24:23.61	310.94	33.84	-41.6	-44.5	19.4	6.00e-01	0	61	0	43515904	55	4852
2026-01-20 02:24:24.62	310.49	33.89	-41.6	-44.5	19.5	6.02e-01	0	61	0	45613056	55	4832
2026-01-20 02:24:25.63	310.03	33.94	-41.6	-44.5	19.4	6.03e-01	0	61	0	47185920	55	4833
2026-01-20 02:24:26.63	309.57	33.99	-41.8	-44.8	19.1	6.00e-01	0	61	0	49283072	55	5025
2026-01-20 02:24:27.64	309.11	34.04	-42.0	-45.0	18.9	6.04e-01	0	61	0	50855936	55	5147
2026-01-20 02:24:28.65	308.65	34.08	-41.8	-44.8	19.2	6.01e-01	0	61	0	52953088	55	5029
2026-01-20 02:24:29.66	308.19	34.12	-41.5	-44.2	19.8	6.02e-01	0	61	0	55050240	54	4979
2026-01-20 02:24:30.67	307.73	34.16	-41.5	-44.2	19.6	6.02e-01	0	61	0	56623104	54	4980
2026-01-20 02:24:31.68	307.26	34.20	-42.0	-45.1	18.7	6.02e-01	0	61	0	58720256	55	5210
2026-01-20 02:24:32.69	306.80	34.24	-42.3	-45.6	18.4	6.01e-01	0	61	0	60817408	55	5492
2026-01-20 02:24:33.70	306.33	34.27	-41.8	-44.8	19.2	6.01e-01	0	61	0	62390272	54	5304
2026-01-20 02:24:34.71	305.86	34.30	-41.4	-44.1	19.9	6.01e-01	0	61	0	64487424	54	4901
2026-01-20 02:24:35.72	305.39	34.33	-41.4	-44.2	19.7	5.99e-01	0	61	0	66060288	54	4954
2026-01-20 02:24:36.73	304.92	34.36	-41.7	-44.7	19.1	6.03e-01	0	61	0	68157440	55	4942
2026-01-20 02:24:37.74	304.45	34.39	-42.0	-45.2	18.7	6.04e-01	0	61	0	70254592	54	5537
2026-01-20 02:24:38.75	303.98	34.41	-42.1	-45.3	18.7	6.01e-01	0	61	0	71827456	54	5643
2026-01-20 02:24:39.76	303.51	34.43	-41.9	-45.0	19.0	6.04e-01	0	61	0	73924608	54	5434
2026-01-20 02:24:40.77	303.03	34.45	-41.7	-44.7	19.3	6.01e-01	0	61	0	75497472	54	5225
2026-01-20 02:24:41.78	302.56	34.47	-41.8	-44.8	19.2	6.01e-01	0	61	0	77594624	54	5284
2026-01-20 02:24:42.79	302.09	34.48	-41.8	-44.8	19.2	6.02e-01	0	61	0	79691776	54	5305
2026-01-20 02:24:43.80	301.61	34.49	-41.7	-44.6	19.4	6.03e-01	0	61	0	81264640	54	5162
2026-01-20 02:24:44.81	301.14	34.50	-41.8	-44.7	19.2	6.00e-01	0	61	0	83361792	54	5254
2026-01-20 02:24:45.82	300.66	34.51	-42.0	-45.1	18.7	6.05e-01	0	61	0	84934656	55	5213
2026-01-20 02:24:46.83	300.19	34.52	-42.2	-45.5	18.5	6.00e-01	0	61	0	87031808	55	5407
2026-01-20 02:24:47.84	299.71	34.52	-42.0	-45.1	18.9	5.99e-01	0	61	0	89128960	55	5173
2026-01-20 02:24:48.85	299.24	34.52	-41.8	-44.7	19.2	6.01e-01	0	61	0	90701824	55	4971
2026-01-20 02:24:49.86	298.76	34.52	-41.9	-44.9	19.1	6.03e-01	0	61	0	92798976	55	5055
2026-01-20 02:24:50.87	298.29	34.52	-42.0	-45.2	18.8	6.05e-01	0	61	0	94371840	55	5238
2026-01-20 02:24:51.88	297.81	34.52	-41.7	-44.6	19.4	6.01e-01	0	61	0	96468992	55	4883
2026-01-20 02:24:52.89	297.34	34.51	-41.8	-44.7	19.1	6.03e-01	0	61	0	98566144	55	4948
2026-01-20 02:24:53.90	296.86	34.50	-42.2	-45.5	18.4	6.04e-01	0	61	0	100139008	55	5443
2026-01-20 02:24:54.91	296.39	34.49	-42.2	-45.4	18.6	6.00e-01	0	61	0	102236160	55	5363
2026-01-20 02:24:55.92	295.91	34.48	-41.7	-44.6	19.4	6.03e-01	0	61	0	103809024	55	4926
2026-01-20 02:24:56.93	295.44	34.46	-41.7	-44.6	19.3	6.03e-01	0	61	0	105906176	55	4882
2026-01-20 02:24:57.93	294.97	34.44	-42.2	-45.4	18.4	6.01e-01	0	61	0	108003328	55	5400
2026-01-20 02:24:58.94	294.50	34.42	-42.3	-45.5	18.5	6.03e-01	0	61	0	109576192	55	5461
2026-01-20 02:24:59.95	294.02	34.40	-42.1	-45.2	18.8	6.04e-01	0	61	0	111673344	55	5240
2026-01-20 02:25:00.96	293.55	34.38	-41.7	-44.5	19.5	6.02e-01	0	61	0	113770496	55	4835
2026-01-20 02:25:01.97	293.08	34.35	-41.6	-44.3	19.6	6.01e-01	0	61	0	115343360	55	4759
2026-01-20 02:25:02.98	292.61	34.32	-42.2	-45.4	18.4	6.02e-01	0	61	0	117440512	55	5346
2026-01-20 02:25:03.99	292.14	34.29	-42.4	-45.8	18.2	6.01e-01	0	61	0	119013376	55	5654
2026-01-20 02:25:05.00	291.67	34.26	-41.5	-44.3	19.7	5.99e-01	0	61	0	121110528	54	5030
2026-01-20 02:25:06.01	291.21	34.22	-41.8	-44.7	19.1	6.01e-01	0	61	0	123207680	55	4945
2026-01-20 02:25:07.01	290.75	34.19	-42.5	-46.0	17.9	6.03e-01	0	61	0	124780544	55	5739
2026-01-20 02:25:08.03	290.28	34.15	-42.1	-45.3	18.7	6.02e-01	0	61	0	126877696	55	5317
2026-01-20 02:25:09.03	289.82	34.11	-41.5	-44.3	19.6	6.03e-01	0	61	0	128974848	55	4742
2026-01-20 02:25:10.04	289.35	34.06	-42.1	-45.3	18.6	6.02e-01	0	61	0	130547712	55	5292
2026-01-20 02:25:11.05	288.89	34.02	-42.3	-45.6	18.4	6.02e-01	0	61	0	132644864	55	5520
2026-01-20 02:25:12.06	288.43	33.97	-41.9	-45.0	19.1	6.03e-01	0	61	0	134217728	55	5113
2026-01-20 02:25:13.07	287.97	33.92	-41.7	-44.5	19.4	6.02e-01	0	61	0	136314880	55	4863
2026-01-20 02:25:14.08	287.52	33.87	-42.4	-45.8	18.1	6.03e-01	0	61	0	138412032	55	5597
2026-01-20 02:25:15.09	287.06	33.82	-42.3	-45.6	18.4	6.01e-01	0	61	0	139984896	55	5498
2026-01-20 02:25:16.10	286.61	33.76	-41.7	-44.6	19.3	6.03e-01	0	61	0	142082048	55	4881
2026-01-20 02:25:17.11	286.15	33.71	-42.3	-45.6	18.4	6.02e-01	0	61	0	143654912	55	5465
2026-01-20 02:25:18.11	285.71	33.65	-42.0	-45.1	18.9	6.03e-01	0	61	0	145752064	55	5193
2026-01-20 02:25:19.12	285.26	33.59	-41.8	-44.7	19.1	6.01e-01	0	61	0	147849216	55	4972
2026-01-20 02:25:20.14	284.81	33.53	-42.3	-45.6	18.4	6.02e-01	0	61	0	149422080	55	5494
2026-01-20 02:25:21.15	284.36	33.46	-41.7	-44.6	19.4	6.01e-01	0	61	0	151519232	55	4880
2026-01-20 02:25:22.16	283.92	33.40	-42.1	-45.3	18.6	6.01e-01	0	61	0	153092096	55	5327
2026-01-20 02:25:23.17	283.47	33.33	-41.7	-44.6	19.3	6.03e-01	0	61	0	155189248	55	4893
2026-01-20 02:25:24.18	283.03	33.26	-42.2	-45.6	18.3	6.00e-01	0	61	0	157286400	55	5466
2026-01-20 02:25:25.19	282.59	33.19	-41.8	-44.8	19.1	6.01e-01	0	61	0	158859264	55	5026
2026-01-20 02:25:26.20	282.16	33.12	-42.4	-45.8	18.1	6.02e-01	0	61	0	160956416	55	5641
2026-01-20 02:25:27.20	281.73	33.04	-41.6	-44.5	19.4	6.02e-01	0	61	0	162529280	55	4833
2026-01-20 02:25:28.21	281.30	32.97	-42.2	-45.5	18.4	6.04e-01	0	62	0	164626432	55	5453
2026-01-20 02:25:29.22	280.87	32.89	-41.7	-44.5	19.4	6.01e-01	0	61	0	166723584	55	4854
2026-01-20 02:25:30.23	280.44	32.81	-42.2	-45.3	18.6	6.02e-01	0	61	0	168296448	55	5335
2026-01-20 02:25:31.24	280.01	32.73	-42.0	-45.0	18.8	6.02e-01	0	61	0	170393600	55	5150
2026-01-20 02:25:32.25	279.59	32.65	-41.9	-45.0	19.0	6.00e-01	0	61	0	171966464	55	5108
2026-01-20 02:25:33.26	279.17	32.57	-41.9	-45.0	19.0	5.99e-01	0	61	0	174063616	55	5102
2026-01-20 02:25:34.27	278.75	32.48	-42.1	-45.2	18.5	6.01e-01	0	61	0	176160768	55	5264
2026-01-20 02:25:35.28	278.33	32.39	-42.0	-45.1	18.8	6.03e-01	0	61	0	177733632	55	5203
2026-01-20 02:25:36.29	277.91	32.31	-42.4	-45.9	18.0	6.02e-01	0	61	0	179830784	55	5674
2026-01-20 02:25:37.30	277.50	32.22	-41.8	-44.7	19.1	5.98e-01	0	61	0	181927936	55	4974
2026-01-20 02:25:38.31	277.09	32.13	-42.0	-45.1	18.8	6.02e-01	0	61	0	183500800	55	5175
2026-01-20 02:25:39.32	276.68	32.04	-42.1	-45.4	18.5	6.02e-01	0	61	0	185597952	55	5349
2026-01-20 02:25:40.33	276.28	31.94	-41.8	-44.8	19.1	6.02e-01	0	61	0	187170816	55	4993
2026-01-20 02:25:41.34	275.88	31.85	-42.1	-45.2	18.7	6.03e-01	0	61	0	189267968	55	5268
2026-01-20 02:25:42.35	275.47	31.75	-41.8	-44.8	19.2	6.00e-01	0	61	0	191365120	55	4984
2026-01-20 02:25:43.36	275.08	31.66	-42.0	-45.2	18.7	5.99e-01	0	61	0	192937984	55	5242
2026-01-20 02:25:44.37	274.68	31.56	-41.9	-44.9	18.9	6.03e-01	0	61	0	195035136	55	5085
2026-01-20 02:25:45.38	274.29	31.46	-41.9	-44.9	19.0	6.00e-01	0	61	0	197132288	55	5070
2026-01-20 02:25:46.39	273.90	31.36	-42.4	-45.8	18.1	6.01e-01	0	61	0	198705152	55	5614
2026-01-20 02:25:47.40	273.51	31.26	-41.7	-44.7	19.2	6.01e-01	0	61	0	200802304	55	4945
2026-01-20 02:25:48.41	273.12	31.16	-41.9	-45.0	18.9	6.01e-01	0	61	0	202375168	55	5137
2026-01-20 02:25:49.42	272.74	31.05	-42.1	-45.2	18.7	5.99e-01	0	61	0	204472320	55	5253
2026-01-20 02:25:50.42	272.36	30.95	-41.8	-44.8	19.1	6.01e-01	0	61	0	206569472	55	5003
2026-01-20 02:25:51.43	271.98	30.84	-42.3	-45.6	18.3	6.03e-01	0	61	0	208142336	55	5480
2026-01-20 02:25:52.44	271.61	30.74	-42.0	-45.1	18.7	5.99e-01	0	61	0	210239488	55	5213
2026-01-20 02:25:53.45	271.24	30.63	-41.8	-44.8	19.1	6.03e-01	0	61	0	211812352	55	5031
2026-01-20 02:25:54.46	270.86	30.52	-42.1	-45.3	18.6	6.02e-01	0	61	0	213909504	55	5307
2026-01-20 02:25:55.47	270.50	30.41	-41.9	-44.9	18.9	6.03e-01	0	61	0	215482368	55	5099
2026-01-20 02:25:56.48	270.13	30.31	-41.9	-45.0	18.9	6.01e-01	0	61	0	217579520	55	5126
2026-01-20 02:25:57.49	269.77	30.19	-42.2	-45.4	18.5	5.98e-01	0	61	0	219676672	55	5384
2026-01-20 02:25:58.50	269.41	30.08	-42.2	-45.5	18.4	6.02e-01	0	61	0	221249536	55	5407
2026-01-20 02:25:59.51	269.05	29.97	-41.7	-44.7	19.1	6.03e-01	0	61	0	223346688	55	4944
2026-01-20 02:26:00.52	268.70	29.86	-41.9	-44.9	18.9	6.01e-01	0	61	0	225443840	55	5080
2026-01-20 02:26:01.53	268.34	29.74	-42.2	-45.4	18.4	6.00e-01	0	61	0	227016704	55	5385
2026-01-20 02:26:02.54	267.99	29.63	-42.1	-45.3	18.5	6.04e-01	0	61	0	229113856	55	5311
2026-01-20 02:26:03.55	267.65	29.52	-41.9	-45.0	18.9	6.01e-01	0	61	0	230686720	55	5105
2026-01-20 02:26:04.56	267.30	29.40	-42.2	-45.4	18.4	6.03e-01	0	61	0	232783872	55	5396
2026-01-20 02:26:05.57	266.96	29.28	-42.5	-46.0	17.8	6.02e-01	0	61	0	234881024	55	5771
2026-01-20 02:26:06.58	266.62	29.17	-42.1	-45.3	18.4	6.02e-01	0	61	0	236453888	55	5329
2026-01-20 02:26:07.59	266.28	29.05	-41.7	-44.6	19.2	6.05e-01	0	61	0	238551040	55	4893
2026-01-20 02:26:08.60	265.95	28.93	-41.8	-44.8	19.0	6.02e-01	0	61	0	240123904	55	5035
2026-01-20 02:26:09.60	265.62	28.82	-42.3	-45.6	18.3	6.03e-01	0	61	0	242221056	55	5484
2026-01-20 02:26:10.61	265.29	28.70	-42.2	-45.6	18.2	6.02e-01	0	61	0	244318208	55	5474
2026-01-20 02:26:11.62	264.96	28.58	-42.0	-45.1	18.7	5.98e-01	0	61	0	245891072	55	5199
2026-01-20 02:26:12.63	264.64	28.46	-41.9	-45.0	18.8	6.05e-01	0	61	0	247988224	55	5120
2026-01-20 02:26:13.64	264.31	28.34	-42.0	-45.0	18.8	6.05e-01	0	61	0	250085376	55	5155
2026-01-20 02:26:14.65	263.99	28.22	-42.2	-45.5	18.4	6.03e-01	0	61	0	251658240	55	5412
2026-01-20 02:26:15.65	263.68	28.10	-42.3	-45.7	18.1	6.02e-01	0	61	0	253755392	55	5555
2026-01-20 02:26:16.66	263.37	27.98	-42.3	-45.6	18.2	6.01e-01	0	61	0	255328256	55	5497
2026-01-20 02:26:17.67	263.05	27.85	-42.2	-45.5	18.4	6.02e-01	0	61	0	257425408	55	5411
2026-01-20 02:26:18.68	262.74	27.73	-42.1	-45.4	18.5	6.05e-01	0	61	0	259522560	55	5348
2026-01-20 02:26:19.69	262.44	27.61	-42.3	-45.7	18.1	6.01e-01	0	61	0	261095424	55	5548
2026-01-20 02:26:20.70	262.13	27.49	-42.3	-45.6	18.2	6.01e-01	0	61	0	263192576	55	5504
2026-01-20 02:26:21.71	261.83	27.36	-42.2	-45.5	18.3	6.01e-01	0	61	0	264765440	55	5420
2026-01-20 02:26:22.72	261.53	27.24	-42.1	-45.3	18.5	6.02e-01	0	61	0	266862592	55	5317
2026-01-20 02:26:23.73	261.23	27.12	-42.2	-45.4	18.4	6.01e-01	0	61	0	268959744	55	5379
2026-01-20 02:26:24.74	260.94	26.99	-42.1	-45.4	18.4	6.01e-01	0	61	0	270532608	55	5360
2026-01-20 02:26:25.75	260.64	26.87	-42.2	-45.5	18.2	6.00e-01	0	61	0	272629760	55	5457
2026-01-20 02:26:26.76	260.35	26.75	-42.2	-45.6	18.2	6.03e-01	0	61	0	274202624	55	5465
2026-01-20 02:26:27.77	260.07	26.62	-42.2	-45.5	18.3	6.01e-01	0	61	0	276299776	55	5427
2026-01-20 02:26:28.77	259.78	26.50	-42.1	-45.2	18.5	5.99e-01	0	61	0	278396928	55	5279
2026-01-20 02:26:29.78	259.50	26.37	-42.0	-45.2	18.6	6.02e-01	0	61	0	279969792	55	5259
2026-01-20 02:26:30.79	259.22	26.25	-42.1	-45.3	18.5	6.02e-01	0	61	0	282066944	55	5331
2026-01-20 02:26:31.80	258.94	26.12	-42.3	-45.7	18.0	6.03e-01	0	61	0	283639808	55	5578
2026-01-20 02:26:32.81	258.66	26.00	-42.2	-45.6	18.2	5.99e-01	0	61	0	285736960	55	5497
2026-01-20 02:26:33.82	258.39	25.88	-42.3	-45.6	18.1	6.01e-01	0	61	0	287834112	55	5520
2026-01-20 02:26:34.83	258.12	25.75	-42.3	-45.6	18.1	6.02e-01	0	61	0	289406976	55	5524
2026-01-20 02:26:35.84	257.85	25.63	-42.1	-45.2	18.5	6.02e-01	0	61	0	291504128	55	5274
2026-01-20 02:26:36.85	257.58	25.50	-42.1	-45.3	18.4	6.02e-01	0	61	0	293601280	55	5339
2026-01-20 02:26:37.85	257.32	25.38	-42.3	-45.6	18.1	6.02e-01	0	61	0	295174144	55	5516
2026-01-20 02:26:38.86	257.05	25.25	-42.3	-45.6	18.1	6.03e-01	0	61	0	297271296	55	5495
2026-01-20 02:26:39.87	256.79	25.13	-42.2	-45.6	18.2	6.03e-01	0	61	0	298844160	55	5465
2026-01-20 02:26:40.88	256.53	25.00	-42.2	-45.4	18.3	6.03e-01	0	61	0	300941312	55	5400
2026-01-20 02:26:41.89	256.28	24.88	-42.2	-45.5	18.3	5.99e-01	0	61	0	303038464	55	5410
2026-01-20 02:26:42.90	256.02	24.75	-42.2	-45.5	18.3	6.01e-01	0	61	0	304611328	55	5411
2026-01-20 02:26:43.91	255.77	24.63	-42.1	-45.4	18.3	6.01e-01	0	61	0	306708480	55	5364
2026-01-20 02:26:44.92	255.52	24.50	-42.2	-45.4	18.3	6.04e-01	0	61	0	308281344	55	5398
2026-01-20 02:26:45.93	255.27	24.38	-42.1	-45.3	18.4	5.99e-01	0	61	0	310378496	55	5328
2026-01-20 02:26:46.94	255.03	24.25	-42.1	-45.3	18.4	6.03e-01	0	61	0	312475648	55	5328
2026-01-20 02:26:47.95	254.78	24.13	-42.2	-45.4	18.3	6.02e-01	0	61	0	314048512	55	5402
2026-01-20 02:26:48.96	254.54	24.00	-42.2	-45.4	18.3	6.01e-01	0	61	0	316145664	55	5394
2026-01-20 02:26:49.97	254.30	23.88	-42.2	-45.4	18.3	6.02e-01	0	61	0	317718528	55	5401
2026-01-20 02:26:50.98	254.06	23.75	-42.1	-45.5	18.3	6.02e-01	0	61	0	319815680	55	5404
2026-01-20 02:26:51.99	253.82	23.63	-42.2	-45.6	18.2	6.04e-01	0	61	0	321912832	55	5479
2026-01-20 02:26:53.00	253.59	23.51	-42.2	-45.5	18.2	6.01e-01	0	61	0	323485696	55	5464
2026-01-20 02:26:54.01	253.36	23.38	-42.2	-45.5	18.2	6.03e-01	0	61	0	325582848	55	5430
2026-01-20 02:26:55.02	253.13	23.26	-42.2	-45.6	18.1	6.02e-01	0	61	0	327155712	55	5489
2026-01-20 02:26:56.02	252.90	23.14	-42.3	-45.6	18.1	6.04e-01	0	62	0	329252864	55	5528
2026-01-20 02:26:57.03	252.68	23.01	-42.4	-45.9	17.9	6.01e-01	0	62	0	331350016	55	5668
2026-01-20 02:26:58.04	252.45	22.89	-42.3	-45.7	18.0	6.05e-01	0	62	0	332922880	55	5544
2026-01-20 02:26:59.05	252.23	22.77	-42.2	-45.6	18.1	6.04e-01	0	61	0	335020032	55	5504
2026-01-20 02:27:00.06	252.01	22.64	-42.2	-45.6	18.1	6.02e-01	0	61	0	336592896	55	5500
2026-01-20 02:27:01.07	251.79	22.52	-42.2	-45.5	18.2	6.02e-01	0	61	0	338690048	55	5434
2026-01-20 02:27:02.08	251.57	22.40	-42.2	-45.5	18.2	6.00e-01	0	61	0	340787200	55	5429
2026-01-20 02:27:03.09	251.35	22.28	-42.2	-45.5	18.2	6.05e-01	0	61	0	342360064	55	5421
2026-01-20 02:27:04.10	251.14	22.16	-42.2	-45.5	18.2	6.00e-01	0	61	0	344457216	55	5420
2026-01-20 02:27:05.10	250.93	22.03	-42.2	-45.6	18.1	6.03e-01	0	61	0	346554368	55	5517
2026-01-20 02:27:06.11	250.72	21.91	-42.3	-45.6	18.1	6.01e-01	0	61	0	348127232	55	5523
2026-01-20 02:27:07.12	250.51	21.79	-42.2	-45.6	18.1	6.02e-01	0	61	0	350224384	55	5471
2026-01-20 02:27:08.13	250.30	21.67	-42.2	-45.5	18.2	6.05e-01	0	61	0	351797248	55	5454
2026-01-20 02:27:09.14	250.10	21.55	-42.2	-45.5	18.2	6.00e-01	0	61	0	353894400	55	5457
2026-01-20 02:27:10.15	249.90	21.43	-42.1	-45.4	18.3	6.01e-01	0	61	0	355991552	55	5373
2026-01-20 02:27:11.16	249.69	21.31	-42.1	-45.4	18.3	6.00e-01	0	61	0	357564416	55	5370
2026-01-20 02:27:12.17	249.49	21.19	-42.1	-45.4	18.3	6.00e-01	0	61	0	359661568	55	5390
2026-01-20 02:27:13.18	249.30	21.07	-42.1	-45.4	18.3	6.01e-01	0	61	0	361758720	55	5387
2026-01-20 02:27:14.19	249.10	20.95	-42.2	-45.5	18.2	6.03e-01	0	61	0	363331584	55	5449
2026-01-20 02:27:15.20	248.90	20.83	-42.1	-45.4	18.2	6.02e-01	0	61	0	365428736	55	5397
2026-01-20 02:27:16.21	248.71	20.71	-42.1	-45.4	18.2	6.01e-01	0	61	0	367001600	55	5392
2026-01-20 02:27:17.22	248.52	20.59	-42.2	-45.5	18.1	6.01e-01	0	61	0	369098752	55	5455
2026-01-20 02:27:18.23	248.33	20.48	-42.2	-45.5	18.2	6.02e-01	0	61	0	371195904	55	5427
2026-01-20 02:27:19.24	248.14	20.36	-42.2	-45.5	18.1	6.02e-01	0	61	0	372768768	55	5455
2026-01-20 02:27:20.25	247.95	20.24	-42.1	-45.5	18.2	6.01e-01	0	61	0	374865920	55	5417
2026-01-20 02:27:21.26	247.77	20.12	-42.2	-45.6	18.1	6.02e-01	0	61	0	376438784	55	5468
2026-01-20 02:27:22.27	247.58	20.00	-42.1	-45.5	18.2	6.02e-01	0	61	0	378535936	55	5427
2026-01-20 02:27:23.27	247.40	19.89	-42.2	-45.5	18.1	6.04e-01	0	62	0	380633088	55	5456
2026-01-20 02:27:24.28	247.22	19.77	-42.1	-45.4	18.2	6.03e-01	0	61	0	382205952	55	5370
2026-01-20 02:27:25.29	247.04	19.66	-42.1	-45.4	18.2	6.04e-01	0	61	0	384303104	55	5402
2026-01-20 02:27:26.30	246.86	19.54	-42.2	-45.5	18.1	6.05e-01	0	61	0	385875968	55	5455
2026-01-20 02:27:27.31	246.68	19.42	-42.1	-45.4	18.2	6.03e-01	0	61	0	387973120	55	5398
2026-01-20 02:27:28.32	246.51	19.31	-42.1	-45.5	18.1	6.03e-01	0	61	0	390070272	55	5431
2026-01-20 02:27:29.33	246.33	19.19	-42.1	-45.5	18.1	6.02e-01	0	61	0	391643136	55	5447
2026-01-20 02:27:30.34	246.16	19.08	-42.2	-45.5	18.0	6.03e-01	0	61	0	393740288	55	5450
2026-01-20 02:27:31.35	245.99	18.97	-42.0	-45.3	18.3	6.02e-01	0	61	0	395313152	55	5320
2026-01-20 02:27:32.36	245.82	18.85	-42.1	-45.4	18.3	6.03e-01	0	61	0	397410304	55	5357
2026-01-20 02:27:33.37	245.65	18.74	-42.1	-45.5	18.1	6.00e-01	0	61	0	399507456	55	5422
2026-01-20 02:27:34.38	245.48	18.62	-42.2	-45.6	18.0	6.01e-01	0	61	0	401080320	55	5495
2026-01-20 02:27:35.39	245.32	18.51	-42.2	-45.6	18.0	6.03e-01	0	61	0	403177472	55	5523
2026-01-20 02:27:36.40	245.15	18.40	-42.2	-45.7	17.9	6.01e-01	0	62	0	404750336	55	5546
2026-01-20 02:27:37.41	244.99	18.29	-42.2	-45.7	17.9	6.03e-01	0	61	0	406847488	55	5542
2026-01-20 02:27:38.42	244.83	18.17	-42.2	-45.6	18.0	6.01e-01	0	61	0	408944640	55	5518
2026-01-20 02:27:39.43	244.66	18.06	-42.1	-45.5	18.1	6.00e-01	0	61	0	410517504	55	5440
2026-01-20 02:27:40.44	244.50	17.95	-42.1	-45.4	18.2	6.02e-01	0	61	0	412614656	55	5371
2026-01-20 02:27:41.44	244.35	17.84	-42.0	-45.3	18.2	6.01e-01	0	61	0	414711808	55	5335
2026-01-20 02:27:42.45	244.19	17.73	-42.0	-45.3	18.3	6.03e-01	0	61	0	416284672	55	5314
2026-01-20 02:27:43.46	244.03	17.62	-42.1	-45.4	18.2	6.00e-01	0	61	0	418381824	55	5359
2026-01-20 02:27:44.47	243.88	17.51	-41.9	-45.2	18.4	6.04e-01	0	61	0	419954688	55	5230
2026-01-20 02:27:45.48	243.73	17.40	-42.0	-45.3	18.3	6.01e-01	0	61	0	422051840	55	5325
2026-01-20 02:27:46.49	243.57	17.29	-42.0	-45.4	18.2	6.01e-01	0	61	0	424148992	55	5364
2026-01-20 02:27:47.50	243.42	17.18	-42.1	-45.5	18.1	6.01e-01	0	61	0	425721856	55	5449
2026-01-20 02:27:48.51	243.27	17.07	-42.1	-45.4	18.1	6.02e-01	0	61	0	427819008	55	5390
2026-01-20 02:27:49.52	243.12	16.97	-42.0	-45.4	18.2	6.03e-01	0	61	0	429391872	55	5366
2026-01-20 02:27:50.53	242.98	16.86	-42.1	-45.5	18.1	6.02e-01	0	61	0	431489024	55	5403
2026-01-20 02:27:51.54	242.83	16.75	-42.0	-45.4	18.2	6.03e-01	0	61	0	433586176	55	5348
2026-01-20 02:27:52.55	242.68	16.64	-42.0	-45.2	18.3	6.02e-01	0	61	0	435159040	55	5271
2026-01-20 02:27:53.56	242.54	16.54	-42.0	-45.2	18.3	5.99e-01	0	61	0	437256192	55	5271
2026-01-20 02:27:54.56	242.40	16.43	-42.0	-45.3	18.3	6.04e-01	0	61	0	438829056	55	5289
2026-01-20 02:27:55.57	242.26	16.32	-42.1	-45.4	18.1	6.01e-01	0	61	0	440926208	55	5382
2026-01-20 02:27:56.58	242.11	16.22	-42.0	-45.4	18.1	5.99e-01	0	61	0	443023360	55	5381
2026-01-20 02:27:57.59	241.97	16.11	-42.0	-45.4	18.2	6.03e-01	0	61	0	444596224	55	5346
2026-01-20 02:27:58.60	241.84	16.01	-42.0	-45.3	18.3	6.01e-01	0	61	0	446693376	55	5289
2026-01-20 02:27:59.61	241.70	15.90	-42.0	-45.3	18.2	6.01e-01	0	61	0	448266240	55	5322
2026-01-20 02:28:00.62	241.56	15.80	-42.0	-45.3	18.3	6.02e-01	0	61	0	450363392	55	5285
2026-01-20 02:28:01.63	241.43	15.69	-42.0	-45.3	18.2	6.01e-01	0	62	0	452460544	55	5321
2026-01-20 02:28:02.64	241.29	15.59	-42.0	-45.4	18.2	6.03e-01	0	61	0	454033408	55	5341
2026-01-20 02:28:03.65	241.16	15.48	-42.0	-45.3	18.2	6.03e-01	0	61	0	456130560	55	5327
2026-01-20 02:28:04.66	241.02	15.38	-42.0	-45.4	18.1	6.00e-01	0	61	0	458227712	55	5376
2026-01-20 02:28:05.67	240.89	15.28	-42.0	-45.4	18.1	5.99e-01	0	62	0	459800576	55	5377
2026-01-20 02:28:06.68	240.76	15.18	-42.0	-45.5	18.0	6.01e-01	0	61	0	461897728	55	5406
2026-01-20 02:28:07.68	240.63	15.07	-42.0	-45.3	18.1	6.02e-01	0	61	0	463470592	55	5338
2026-01-20 02:28:08.69	240.50	14.97	-42.0	-45.3	18.1	6.02e-01	0	61	0	465567744	55	5334
2026-01-20 02:28:09.70	240.38	14.87	-42.0	-45.4	18.1	6.00e-01	0	61	0	467664896	55	5371
2026-01-20 02:28:10.71	240.25	14.77	-42.1	-45.5	18.0	6.02e-01	0	61	0	469237760	55	5410
2026-01-20 02:28:11.72	240.12	14.67	-42.0	-45.4	18.0	6.02e-01	0	61	0	471334912	55	5400
2026-01-20 02:28:12.73	240.00	14.57	-42.1	-45.5	17.9	6.03e-01	0	62	0	472907776	55	5448
2026-01-20 02:28:13.74	239.87	14.47	-42.0	-45.4	18.0	6.02e-01	0	61	0	475004928	55	5396
2026-01-20 02:28:14.75	239.75	14.37	-42.1	-45.5	17.9	6.03e-01	0	61	0	477102080	55	5450
2026-01-20 02:28:15.77	239.63	14.27	-42.2	-45.7	17.7	6.04e-01	0	61	0	478674944	55	5547
2026-01-20 02:28:16.77	239.51	14.17	-42.1	-45.6	17.8	6.01e-01	0	61	0	480772096	55	5512
2026-01-20 02:28:17.78	239.39	14.07	-42.1	-45.5	17.9	6.01e-01	0	61	0	482869248	55	5448
2026-01-20 02:28:18.79	239.27	13.97	-42.1	-45.6	17.8	6.04e-01	0	61	0	484442112	55	5505
2026-01-20 02:28:19.80	239.15	13.87	-42.2	-45.7	17.7	6.02e-01	0	61	0	486539264	55	5572
2026-01-20 02:28:20.81	239.03	13.78	-42.1	-45.7	17.7	6.01e-01	0	61	0	488112128	55	5537
2026-01-20 02:28:21.82	238.91	13.68	-42.2	-45.7	17.6	6.02e-01	0	61	0	490209280	55	5584
2026-01-20 02:28:22.83	238.79	13.58	-42.1	-45.6	17.8	6.03e-01	0	62	0	492306432	55	5491
2026-01-20 02:28:23.84	238.68	13.48	-42.0	-45.4	18.0	6.01e-01	0	62	0	493879296	55	5382
2026-01-20 02:28:24.85	238.56	13.39	-42.0	-45.4	18.0	6.01e-01	0	61	0	495976448	55	5382
2026-01-20 02:28:25.85	238.45	13.29	-42.0	-45.5	17.9	6.04e-01	0	61	0	497549312	55	5418
2026-01-20 02:28:26.86	238.34	13.19	-42.1	-45.5	17.8	6.01e-01	0	62	0	499646464	55	5461
2026-01-20 02:28:27.87	238.23	13.10	-42.0	-45.5	17.8	6.03e-01	0	61	0	501743616	55	5445
2026-01-20 02:28:28.88	238.11	13.00	-42.1	-45.7	17.7	6.02e-01	0	61	0	503316480	55	5562
2026-01-20 02:28:29.89	238.00	12.91	-42.1	-45.7	17.6	6.01e-01	0	61	0	505413632	55	5582
2026-01-20 02:28:30.90	237.89	12.81	-42.3	-46.0	17.4	6.01e-01	0	62	0	506986496	55	5739
2026-01-20 02:28:31.92	237.78	12.72	-42.2	-45.9	17.4	6.04e-01	0	62	0	509083648	55	5697
2026-01-20 02:28:32.92	237.68	12.62	-42.2	-45.9	17.4	6.03e-01	0	61	0	511180800	55	5720
2026-01-20 02:28:33.93	237.57	12.53	-42.2	-45.9	17.4	6.00e-01	0	62	0	512753664	55	5694
2026-01-20 02:28:34.94	237.46	12.44	-42.2	-45.8	17.5	6.03e-01	0	61	0	514850816	55	5635
2026-01-20 02:28:35.95	237.36	12.34	-42.2	-45.8	17.6	6.01e-01	0	61	0	516423680	55	5594
2026-01-20 02:28:36.96	237.25	12.25	-42.2	-45.8	17.5	6.04e-01	0	62	0	518520832	55	5652
2026-01-20 02:28:37.97	237.15	12.16	-42.2	-45.8	17.5	5.99e-01	0	61	0	520617984	55	5607
2026-01-20 02:28:38.98	237.04	12.07	-42.2	-45.8	17.5	6.02e-01	0	61	0	522190848	55	5638
2026-01-20 02:28:39.99	236.94	11.97	-42.1	-45.7	17.5	6.04e-01	0	62	0	524288000	55	5590
2026-01-20 02:28:41.00	236.84	11.88	-42.2	-45.9	17.4	6.03e-01	0	61	0	525860864	55	5662
2026-01-20 02:28:42.01	236.73	11.79	-42.2	-45.8	17.4	6.02e-01	0	61	0	527958016	55	5644
2026-01-20 02:28:43.02	236.63	11.70	-42.2	-45.9	17.3	6.03e-01	0	62	0	530055168	55	5716
2026-01-20 02:28:44.02	236.53	11.61	-42.2	-45.9	17.3	6.01e-01	0	61	0	531628032	55	5716
2026-01-20 02:28:45.03	236.43	11.52	-42.2	-46.0	17.3	6.00e-01	0	62	0	533725184	55	5723
2026-01-20 02:28:46.04	236.33	11.43	-42.1	-45.8	17.4	6.02e-01	0	61	0	535822336	55	5652
2026-01-20 02:28:47.05	236.24	11.34	-42.1	-45.8	17.4	6.06e-01	0	61	0	537395200	55	5646
2026-01-20 02:28:48.06	236.14	11.25	-42.1	-45.8	17.4	6.00e-01	0	62	0	539492352	55	5656
2026-01-20 02:28:49.07	236.04	11.16	-42.2	-45.9	17.3	6.05e-01	0	61	0	541065216	55	5696
2026-01-20 02:28:50.08	235.94	11.07	-42.2	-46.0	17.2	6.03e-01	0	61	0	543162368	55	5746
2026-01-20 02:28:51.09	235.85	10.98	-42.2	-46.0	17.2	6.02e-01	0	61	0	545259520	55	5776
2026-01-20 02:28:52.10	235.75	10.89	-42.2	-46.0	17.1	6.02e-01	0	61	0	546832384	55	5776
2026-01-20 02:28:53.11	235.66	10.80	-42.2	-46.0	17.2	6.01e-01	0	61	0	548929536	55	5745
2026-01-20 02:28:54.12	235.56	10.72	-42.2	-46.1	17.1	6.03e-01	0	61	0	550502400	55	5806
2026-01-20 02:28:55.13	235.47	10.63	-42.2	-46.1	17.1	6.05e-01	0	61	0	552599552	55	5808
2026-01-20 02:28:56.14	235.38	10.54	-42.3	-46.2	17.0	6.05e-01	0	61	0	554696704	55	5858
2026-01-20 02:28:57.15	235.29	10.45	-42.2	-46.1	17.0	6.01e-01	0	61	0	556269568	55	5834
2026-01-20 02:28:58.15	235.20	10.37	-42.3	-46.2	17.0	6.02e-01	0	61	0	558366720	55	5896
2026-01-20 02:28:59.16	235.10	10.28	-42.3	-46.2	16.9	6.02e-01	0	61	0	559939584	55	5914
2026-01-20 02:29:00.17	235.01	10.19	-42.3	-46.2	17.0	6.04e-01	0	62	0	562036736	55	5883
2026-01-20 02:29:01.18	234.92	10.11	-42.3	-46.3	16.9	6.02e-01	0	61	0	564133888	55	5938
2026-01-20 02:29:02.19	234.84	10.02	-42.3	-46.2	16.9	6.01e-01	0	61	0	565706752	55	5890
2026-01-20 02:29:03.20	234.75	9.94	-42.3	-46.2	16.9	6.02e-01	0	61	0	567803904	55	5901
2026-01-20 02:29:04.21	234.66	9.85	-42.3	-46.3	16.8	6.02e-01	0	61	0	569376768	55	5976
2026-01-20 02:29:05.22	234.57	9.77	-42.3	-46.3	16.8	6.01e-01	0	62	0	571473920	55	5956
2026-01-20 02:29:06.23	234.48	9.68	-42.3	-46.3	16.8	6.03e-01	0	61	0	573571072	55	5990
2026-01-20 02:29:07.24	234.40	9.60	-42.4	-46.4	16.7	6.01e-01	0	62	0	575143936	55	6029
2026-01-20 02:29:08.25	234.31	9.51	-42.4	-46.5	16.6	5.99e-01	0	61	0	577241088	55	6089
2026-01-20 02:29:09.26	234.23	9.43	-42.3	-46.4	16.7	5.99e-01	0	61	0	579338240	55	6001
2026-01-20 02:29:10.27	234.14	9.34	-42.4	-46.5	16.6	6.03e-01	0	61	0	580911104	55	6074
2026-01-20 02:29:11.28	234.06	9.26	-42.3	-46.4	16.7	6.01e-01	0	61	0	583008256	55	6007
2026-01-20 02:29:12.29	233.97	9.18	-42.4	-46.5	16.6	6.05e-01	0	61	0	584581120	55	6080
2026-01-20 02:29:13.30	233.89	9.09	-42.4	-46.6	16.4	5.99e-01	0	62	0	586678272	55	6191
2026-01-20 02:29:14.31	233.81	9.01	-42.3	-46.4	16.7	6.01e-01	0	62	0	588775424	55	5999
2026-01-20 02:29:15.32	233.73	8.93	-42.3	-46.4	16.7	6.02e-01	0	61	0	590348288	55	6026
2026-01-20 02:29:16.33	233.65	8.85	-42.3	-46.4	16.6	6.04e-01	0	62	0	592445440	55	6032
2026-01-20 02:29:17.34	233.56	8.77	-42.3	-46.5	16.6	6.02e-01	0	62	0	594018304	55	6065
2026-01-20 02:29:18.35	233.48	8.68	-42.4	-46.5	16.5	6.04e-01	0	61	0	596115456	55	6091
2026-01-20 02:29:19.36	233.40	8.60	-42.4	-46.6	16.4	6.02e-01	0	61	0	598212608	55	6153
2026-01-20 02:29:20.37	233.32	8.52	-42.4	-46.6	16.4	6.00e-01	0	61	0	599785472	55	6153
2026-01-20 02:29:21.38	233.25	8.44	-42.4	-46.7	16.3	6.01e-01	0	61	0	601882624	55	6219
2026-01-20 02:29:22.39	233.17	8.36	-42.4	-46.7	16.3	6.01e-01	0	61	0	603979776	55	6219
2026-01-20 02:29:23.40	233.09	8.28	-42.5	-46.8	16.2	6.01e-01	0	62	0	605552640	55	6293
2026-01-20 02:29:24.41	233.01	8.20	-42.4	-46.7	16.2	6.02e-01	0	61	0	607649792	55	6223
2026-01-20 02:29:25.42	232.93	8.12	-42.4	-46.7	16.3	6.02e-01	0	61	0	609222656	55	6222
2026-01-20 02:29:26.43	232.86	8.04	-43.1	-48.0	15.5	6.04e-01	0	61	0	611319808	56	6862
2026-01-20 02:29:27.44	232.78	7.96	-45.5	-63.5	3.8	7.40e-01	0	62	104	611844096	61	30405
2026-01-20 02:29:28.45	232.71	7.88	-45.8	-64.4	3.8	7.49e-01	0	62	104	611844096	62	32016
2026-01-20 02:29:29.46	232.63	7.80	-46.0	-64.6	3.8	7.48e-01	0	61	104	611844096	62	32773
2026-01-20 02:29:30.47	232.56	7.72	-46.1	-64.7	3.8	7.44e-01	0	61	104	611844096	62	33269
2026-01-20 02:29:31.48	232.48	7.64	-46.2	-64.8	3.8	7.46e-01	0	62	104	611844096	62	33581
2026-01-20 02:29:32.49	232.41	7.56	-46.3	-64.9	3.8	7.47e-01	0	62	104	611844096	63	31904
2026-01-20 02:29:33.50	232.33	7.49	-46.3	-64.9	3.8	7.48e-01	0	62	104	611844096	63	32128
2026-01-20 02:29:34.51	232.26	7.41	-46.3	-65.0	3.8	7.46e-01	0	62	104	611844096	63	32285
2026-01-20 02:29:35.52	232.19	7.33	-46.3	-65.0	3.8	7.45e-01	0	62	104	611844096	63	32221
2026-01-20 02:29:36.53	232.12	7.25	-46.3	-64.9	3.8	7.46e-01	0	62	104	611844096	63	32150
2026-01-20 02:29:37.54	232.04	7.18	-46.3	-64.9	3.8	7.45e-01	0	62	104	611844096	63	32034
2026-01-20 02:29:38.55	231.97	7.10	-46.3	-64.8	3.8	7.45e-01	0	62	104	611844096	63	31783
2026-01-20 02:29:39.56	231.90	7.02	-46.2	-64.8	3.8	7.45e-01	0	62	104	611844096	63	31679
2026-01-20 02:29:40.57	231.83	6.94	-46.2	-64.8	3.8	7.43e-01	0	62	104	611844096	63	31626
2026-01-20 02:29:41.58	231.76	6.87	-46.2	-64.8	3.8	7.43e-01	0	62	104	611844096	63	31575
2026-01-20 02:29:42.59	231.69	6.79	-46.3	-64.8	3.8	7.43e-01	0	62	104	611844096	63	31654
2026-01-20 02:29:43.60	231.62	6.72	-46.2	-64.8	3.8	7.44e-01	0	61	104	611844096	63	31451
2026-01-20 02:29:44.61	231.55	6.64	-46.2	-64.7	3.8	7.47e-01	0	62	104	611844096	63	31427
2026-01-20 02:29:45.62	231.49	6.56	-46.2	-64.7	3.8	7.44e-01	0	62	104	611844096	63	31446
2026-01-20 02:29:46.63	231.42	6.49	-46.2	-64.7	3.8	7.45e-01	0	62	104	611844096	63	31419
2026-01-20 02:29:47.65	231.35	6.41	-46.2	-64.7	3.8	7.47e-01	0	62	104	611844096	63	31355
2026-01-20 02:29:48.66	231.28	6.34	-46.2	-64.7	3.8	7.44e-01	0	62	104	611844096	63	31441
2026-01-20 02:29:49.67	231.22	6.26	-46.2	-64.8	3.8	7.43e-01	0	62	104	611844096	63	31451
2026-01-20 02:29:50.68	231.15	6.19	-46.2	-64.7	3.8	7.45e-01	0	62	104	611844096	63	31443
2026-01-20 02:29:51.69	231.08	6.11	-46.2	-64.7	3.8	7.45e-01	0	62	104	611844096	63	31343
2026-01-20 02:29:52.70	231.02	6.04	-46.2	-64.7	3.8	7.46e-01	0	62	104	611844096	63	31407
2026-01-20 02:29:53.71	230.95	5.97	-46.2	-64.7	3.8	7.46e-01	0	62	104	611844096	63	31400
2026-01-20 02:29:54.72	230.89	5.89	-46.2	-64.7	3.8	7.46e-01	0	62	104	611844096	63	31341
2026-01-20 02:29:55.73	230.82	5.82	-46.2	-64.7	3.8	7.48e-01	0	62	104	611844096	63	31334
2026-01-20 02:29:56.74	230.76	5.75	-46.2	-64.7	3.8	7.45e-01	0	62	104	611844096	63	31364
2026-01-20 02:29:57.75	230.70	5.67	-46.2	-64.7	3.8	7.44e-01	0	62	104	611844096	63	31361
2026-01-20 02:29:58.76	230.63	5.60	-46.2	-64.7	3.8	7.47e-01	0	62	104	611844096	63	31279
2026-01-20 02:29:59.77	230.57	5.53	-46.2	-64.7	3.8	7.46e-01	0	62	104	611844096	63	31282
2026-01-20 02:30:00.78	230.51	5.45	-46.2	-64.7	3.8	7.46e-01	0	62	104	611844096	63	31341
2026-01-20 02:30:01.79	230.44	5.38	-46.2	-64.7	3.8	7.46e-01	0	62	104	611844096	63	31339
2026-01-20 02:30:02.80	230.38	5.31	-46.2	-64.7	3.8	7.43e-01	0	62	104	611844096	63	31300
2026-01-20 02:30:03.81	230.32	5.24	-46.2	-64.7	3.8	7.48e-01	0	62	104	611844096	63	31369
2026-01-20 02:30:04.82	230.26	5.17	-46.2	-64.7	3.8	7.44e-01	0	62	104	611844096	63	31338
2026-01-20 02:30:05.83	230.20	5.09	-46.2	-64.7	3.8	7.44e-01	0	62	104	611844096	63	31368
2026-01-20 02:30:06.84	230.14	5.02	-46.2	-64.7	3.8	7.46e-01	0	62	104	611844096	63	31326
2026-01-20 02:30:07.85	230.08	4.95	-46.2	-64.7	3.8	7.43e-01	0	62	104	611844096	63	31336
2026-01-20 02:30:08.86	230.02	4.88	-46.2	-64.7	3.8	7.44e-01	0	62	104	611844096	63	31361
2026-01-20 02:30:09.87	229.96	4.81	-46.2	-64.7	3.8	7.42e-01	0	62	104	611844096	63	31326
2026-01-20 02:30:10.88	229.90	4.74	-46.2	-64.7	3.8	7.47e-01	0	62	104	611844096	63	31334
2026-01-20 02:30:11.90	229.84	4.67	-46.2	-64.7	3.8	7.43e-01	0	62	104	611844096	63	31307
2026-01-20 02:30:12.91	229.78	4.60	-46.2	-64.7	3.8	7.46e-01	0	62	104	611844096	63	31357
2026-01-20 02:30:13.92	229.72	4.53	-46.1	-64.7	3.8	7.50e-01	0	62	104	611844096	63	31305
2026-01-20 02:30:14.93	229.66	4.46	-46.1	-64.7	3.8	7.41e-01	0	62	104	611844096	63	31287
2026-01-20 02:30:15.94	229.61	4.39	-46.2	-64.7	3.8	7.41e-01	0	62	104	611844096	63	31289
2026-01-20 02:30:16.95	229.55	4.32	-46.1	-64.7	3.8	7.45e-01	0	62	104	611844096	63	31254
2026-01-20 02:30:17.96	229.49	4.25	-46.2	-64.7	3.8	7.46e-01	0	62	104	611844096	63	31345
2026-01-20 02:30:18.97	229.43	4.18	-46.1	-64.7	3.8	7.44e-01	0	62	104	611844096	63	31278
2026-01-20 02:30:19.98	229.38	4.11	-46.2	-64.7	3.8	7.43e-01	0	62	104	611844096	63	31294
2026-01-20 02:30:20.99	229.32	4.04	-46.2	-64.7	3.8	7.43e-01	0	62	104	611844096	63	31362
2026-01-20 02:30:22.00	229.27	3.97	-46.2	-64.7	3.8	7.42e-01	0	62	104	611844096	63	31355
2026-01-20 02:30:23.01	229.21	3.90	-46.1	-64.7	3.8	7.50e-01	0	62	104	611844096	63	31231
2026-01-20 02:30:24.02	229.15	3.84	-46.2	-64.7	3.8	7.46e-01	0	62	104	611844096	63	31298
2026-01-20 02:30:25.03	229.10	3.77	-46.1	-64.7	3.8	7.44e-01	0	62	104	611844096	63	31223
2026-01-20 02:30:26.04	229.05	3.70	-46.1	-64.7	3.8	7.47e-01	0	62	104	611844096	63	31219
2026-01-20 02:30:27.05	228.99	3.63	-46.1	-64.7	3.8	7.49e-01	0	62	104	611844096	63	31241
2026-01-20 02:30:28.06	228.94	3.56	-46.1	-64.7	3.8	7.47e-01	0	62	104	611844096	63	31246
2026-01-20 02:30:29.07	228.88	3.50	-46.1	-64.7	3.8	7.49e-01	0	62	104	611844096	63	31263
2026-01-20 02:30:30.08	228.83	3.43	-46.2	-64.7	3.8	7.41e-01	0	62	104	611844096	63	31246
2026-01-20 02:30:31.09	228.78	3.36	-46.1	-64.7	3.8	7.46e-01	0	62	104	611844096	63	31240
2026-01-20 02:30:32.10	228.72	3.29	-46.2	-64.7	3.8	7.45e-01	0	62	104	611844096	63	31191
2026-01-20 02:30:33.12	228.67	3.23	-46.1	-64.7	3.8	7.46e-01	0	62	104	611844096	63	31266
2026-01-20 02:30:34.13	228.62	3.16	-46.1	-64.7	3.8	7.48e-01	0	62	104	611844096	63	31324
2026-01-20 02:30:35.14	228.57	3.09	-46.1	-64.7	3.8	7.50e-01	0	62	104	611844096	63	31256
2026-01-20 02:30:36.15	228.51	3.03	-46.1	-64.7	3.8	7.43e-01	0	62	104	611844096	63	31207
2026-01-20 02:30:37.16	228.46	2.96	-46.1	-64.7	3.8	7.43e-01	0	62	104	611844096	63	31270
2026-01-20 02:30:38.17	228.41	2.89	-46.1	-64.7	3.8	7.45e-01	0	62	104	611844096	63	31261
2026-01-20 02:30:39.18	228.36	2.83	-46.1	-64.7	3.8	7.48e-01	0	62	104	611844096	63	31241
2026-01-20 02:30:40.19	228.31	2.76	-46.1	-64.7	3.8	7.45e-01	0	62	104	611844096	63	31191
