passes_logs/2026/01/20/R2.0S_Moscow/R2.0S_Moscow__20260120_153457_FENGYUN_3E_rec.log

#Pass ID: 20260120_153457_FENGYUN 3E
#Satellite: FENGYUN 3E
#Configuration: FENGYUN 3E
#almurnet v.1.7.20251203
#Start time: 2026-01-20 15:34:58

#Version: 2.2.20231116
#Station: R2.0S_Moscow
#Location: 37.707566 lon 55.798166 lat
#TLE: 1 49008U 21062A   26020.00892250 -.00000287  00000+0 -11478-3 0  9990
#TLE: 2 49008  98.7482  25.0782 0002252 128.5071 231.6308 14.19884466235554

#Time	Az	El	Level	Level2	SNR	BER	BlckErr	Temp	State	Recorded	gain1	gain2
2026-01-20 15:34:58.61	202.26	2.06	-44.3	-55.4	3.8	8.46e-01	0	50	0	0	59	12691
2026-01-20 15:34:59.62	202.33	2.12	-44.3	-55.3	3.8	8.46e-01	0	50	104	0	59	12622
2026-01-20 15:35:00.63	202.39	2.18	-44.3	-55.3	3.8	8.45e-01	0	50	104	0	59	12605
2026-01-20 15:35:01.64	202.46	2.24	-44.3	-55.3	3.8	8.47e-01	0	50	104	0	59	12630
2026-01-20 15:35:02.65	202.52	2.29	-44.3	-55.3	3.8	8.46e-01	0	50	104	0	59	12580
2026-01-20 15:35:03.66	202.59	2.35	-44.3	-55.3	3.8	8.46e-01	0	50	104	0	59	12617
2026-01-20 15:35:04.68	202.66	2.41	-44.3	-55.3	3.8	8.47e-01	0	50	104	0	59	12591
2026-01-20 15:35:05.69	202.73	2.47	-44.3	-55.3	3.8	8.46e-01	0	50	104	0	59	12654
2026-01-20 15:35:06.70	202.79	2.53	-44.3	-55.3	3.8	8.46e-01	0	50	104	0	59	12632
2026-01-20 15:35:07.71	202.86	2.59	-44.3	-55.3	3.8	8.47e-01	0	50	104	0	59	12590
2026-01-20 15:35:08.72	202.93	2.64	-44.3	-55.3	3.8	8.46e-01	0	50	104	0	59	12630
2026-01-20 15:35:09.73	203.00	2.70	-44.3	-55.3	3.8	8.46e-01	0	51	104	0	59	12630
2026-01-20 15:35:10.74	203.06	2.76	-44.3	-55.3	3.8	8.45e-01	0	51	104	0	59	12619
2026-01-20 15:35:11.75	203.13	2.82	-44.3	-55.3	3.8	8.45e-01	0	50	104	0	59	12625
2026-01-20 15:35:12.76	203.20	2.88	-44.3	-55.3	3.8	8.46e-01	0	51	104	0	59	12627
2026-01-20 15:35:13.77	203.27	2.94	-44.3	-55.3	3.8	8.45e-01	0	51	104	0	59	12620
2026-01-20 15:35:14.78	203.34	3.00	-44.3	-55.3	3.8	8.46e-01	0	51	104	0	59	12574
2026-01-20 15:35:15.79	203.41	3.06	-44.3	-55.3	3.8	8.46e-01	0	51	104	0	59	12622
2026-01-20 15:35:16.80	203.48	3.11	-44.3	-55.3	3.8	8.47e-01	0	51	104	0	59	12590
2026-01-20 15:35:17.81	203.55	3.17	-44.3	-55.3	3.8	8.47e-01	0	51	104	0	59	12596
2026-01-20 15:35:18.82	203.62	3.23	-44.3	-55.3	3.8	8.47e-01	0	51	104	0	59	12605
2026-01-20 15:35:19.83	203.69	3.29	-44.3	-55.3	3.8	8.47e-01	0	51	104	0	59	12607
2026-01-20 15:35:20.84	203.76	3.35	-44.3	-55.3	3.8	8.46e-01	0	51	104	0	59	12612
2026-01-20 15:35:21.86	203.83	3.41	-44.3	-55.3	3.8	8.46e-01	0	51	104	0	59	12580
2026-01-20 15:35:22.86	203.90	3.47	-44.3	-55.3	3.8	8.46e-01	0	51	104	0	59	12642
2026-01-20 15:35:23.88	203.98	3.53	-44.3	-55.3	3.8	8.46e-01	0	51	104	0	59	12570
2026-01-20 15:35:24.89	204.05	3.59	-44.3	-55.3	3.8	8.46e-01	0	52	104	0	59	12632
2026-01-20 15:35:25.90	204.12	3.65	-44.3	-55.3	3.8	8.46e-01	0	52	104	0	59	12602
2026-01-20 15:35:26.90	204.19	3.71	-44.3	-55.3	3.8	8.46e-01	0	52	104	0	59	12555
2026-01-20 15:35:27.92	204.27	3.77	-44.3	-55.3	3.8	8.46e-01	0	52	104	0	59	12620
2026-01-20 15:35:28.93	204.34	3.83	-44.3	-55.3	3.8	8.46e-01	0	52	104	0	59	12596
2026-01-20 15:35:29.94	204.41	3.89	-44.3	-55.3	3.8	8.47e-01	0	52	104	0	59	12619
2026-01-20 15:35:30.95	204.49	3.95	-44.3	-55.3	3.8	8.45e-01	0	52	104	0	59	12614
2026-01-20 15:35:31.96	204.56	4.01	-44.3	-55.3	3.8	8.46e-01	0	52	104	0	59	12592
2026-01-20 15:35:32.97	204.64	4.07	-44.3	-55.3	3.8	8.46e-01	0	52	104	0	59	12635
2026-01-20 15:35:33.98	204.71	4.13	-44.3	-55.3	3.8	8.45e-01	0	52	104	0	59	12658
2026-01-20 15:35:34.99	204.79	4.20	-44.3	-55.3	3.8	8.45e-01	0	52	104	0	59	12601
2026-01-20 15:35:36.00	204.86	4.26	-44.3	-55.3	3.8	8.46e-01	0	52	104	0	59	12618
2026-01-20 15:35:37.01	204.94	4.32	-44.3	-55.3	3.8	8.45e-01	0	52	104	0	59	12592
2026-01-20 15:35:38.02	205.01	4.38	-44.3	-55.3	3.8	8.46e-01	0	52	104	0	59	12639
2026-01-20 15:35:39.03	205.09	4.44	-44.3	-55.3	3.8	8.46e-01	0	52	104	0	59	12644
2026-01-20 15:35:40.04	205.16	4.50	-44.3	-55.3	3.8	8.46e-01	0	52	104	0	59	12629
2026-01-20 15:35:41.05	205.24	4.56	-44.3	-55.3	3.8	8.45e-01	0	53	104	0	59	12595
2026-01-20 15:35:42.06	205.32	4.62	-44.3	-55.3	3.8	8.47e-01	0	53	104	0	59	12603
2026-01-20 15:35:43.07	205.40	4.69	-44.2	-55.3	3.8	8.46e-01	0	53	104	0	59	12573
2026-01-20 15:35:44.08	205.47	4.75	-44.3	-55.3	3.8	8.48e-01	0	53	104	0	59	12632
2026-01-20 15:35:45.09	205.55	4.81	-44.3	-55.3	3.8	8.46e-01	0	53	104	0	59	12597
2026-01-20 15:35:46.10	205.63	4.87	-44.3	-55.3	3.8	8.47e-01	0	53	104	0	59	12565
2026-01-20 15:35:47.11	205.71	4.93	-44.3	-55.3	3.8	8.46e-01	0	53	104	0	59	12589
2026-01-20 15:35:48.12	205.79	4.99	-44.3	-55.3	3.8	8.45e-01	0	53	104	0	59	12565
2026-01-20 15:35:49.13	205.87	5.06	-44.3	-55.2	3.8	8.46e-01	0	53	104	0	59	12428
2026-01-20 15:35:50.15	205.95	5.12	-44.2	-55.2	3.8	8.47e-01	0	53	104	0	59	12378
2026-01-20 15:35:51.16	206.03	5.18	-44.3	-55.2	3.8	8.44e-01	0	53	104	0	59	12502
2026-01-20 15:35:52.17	206.11	5.25	-44.3	-55.1	3.8	8.46e-01	0	53	104	0	59	12322
2026-01-20 15:35:53.18	206.19	5.31	-44.3	-55.2	3.8	8.45e-01	0	53	104	0	59	12439
2026-01-20 15:35:54.19	206.27	5.37	-44.2	-55.1	3.8	8.48e-01	0	53	104	0	59	12254
2026-01-20 15:35:55.20	206.35	5.43	-44.3	-55.1	3.8	8.46e-01	0	53	104	0	59	12265
2026-01-20 15:35:56.21	206.43	5.50	-44.2	-55.0	3.8	8.47e-01	0	53	104	0	59	12119
2026-01-20 15:35:57.22	206.51	5.56	-44.2	-54.8	3.8	8.46e-01	0	53	104	0	59	11879
2026-01-20 15:35:58.23	206.60	5.62	-44.2	-54.7	3.8	8.46e-01	0	53	104	0	59	11755
2026-01-20 15:35:59.24	206.68	5.69	-44.2	-54.6	3.8	8.45e-01	0	54	104	0	59	11628
2026-01-20 15:36:00.25	206.76	5.75	-44.2	-54.3	3.8	8.46e-01	0	54	104	0	59	11283
2026-01-20 15:36:01.26	206.85	5.81	-44.1	-54.2	3.8	8.46e-01	0	54	104	0	59	11114
2026-01-20 15:36:02.27	206.93	5.88	-44.1	-54.1	3.8	8.46e-01	0	54	104	0	59	11000
2026-01-20 15:36:03.28	207.01	5.94	-44.1	-53.7	3.8	8.46e-01	0	54	104	0	59	10523
2026-01-20 15:36:04.28	207.10	6.00	-44.1	-53.5	3.8	8.45e-01	0	54	104	0	59	10255
2026-01-20 15:36:05.29	207.18	6.07	-44.0	-53.3	3.8	8.45e-01	0	54	104	0	59	9997
2026-01-20 15:36:06.31	207.27	6.13	-43.9	-52.6	3.9	8.44e-01	0	54	104	0	58	9744
2026-01-20 15:36:07.32	207.35	6.20	-43.8	-51.6	4.2	8.39e-01	0	54	0	0	58	8707
2026-01-20 15:36:08.33	207.44	6.26	-43.6	-50.9	4.4	8.28e-01	0	54	0	0	58	8047
2026-01-20 15:36:09.34	207.53	6.32	-43.5	-50.4	4.7	8.13e-01	0	54	0	0	58	7607
2026-01-20 15:36:10.35	207.61	6.39	-43.4	-49.8	4.9	7.83e-01	0	54	0	0	57	7521
2026-01-20 15:36:11.36	207.70	6.45	-43.1	-49.1	5.4	7.33e-01	0	54	0	0	57	6891
2026-01-20 15:36:12.37	207.79	6.52	-43.0	-48.5	5.8	4.54e-01	0	54	0	2097152	57	6435
2026-01-20 15:36:13.38	207.87	6.58	-42.9	-48.2	6.0	3.29e-01	0	54	0	9437184	56	6583
2026-01-20 15:36:14.39	207.96	6.65	-42.8	-48.0	6.1	3.08e-01	0	54	0	16777216	56	6479
2026-01-20 15:36:15.40	208.05	6.71	-42.8	-48.0	6.2	2.85e-01	0	54	0	23068672	56	6482
2026-01-20 15:36:16.41	208.14	6.78	-42.7	-47.7	6.4	2.49e-01	0	54	0	31457280	56	6267
2026-01-20 15:36:17.42	208.23	6.84	-42.6	-47.4	6.6	2.01e-01	0	54	0	38797312	56	6049
2026-01-20 15:36:18.43	208.32	6.91	-42.9	-48.2	6.1	2.79e-01	0	54	0	45088768	56	6592
2026-01-20 15:36:19.44	208.41	6.97	-42.9	-48.1	6.1	3.19e-01	0	54	0	52428800	56	6560
2026-01-20 15:36:20.45	208.50	7.04	-42.9	-48.2	6.0	2.89e-01	0	54	0	59768832	56	6613
2026-01-20 15:36:21.46	208.59	7.10	-42.9	-48.4	5.9	3.73e-01	0	54	0	67108864	56	6754
2026-01-20 15:36:22.47	208.68	7.17	-42.8	-47.8	6.3	2.97e-01	0	55	0	74448896	56	6345
2026-01-20 15:36:23.48	208.77	7.24	-42.6	-47.5	6.6	2.44e-01	0	55	0	81788928	56	6083
2026-01-20 15:36:24.50	208.86	7.30	-42.1	-46.4	7.4	1.28e-01	0	55	0	89128960	55	5713
2026-01-20 15:36:25.51	208.96	7.37	-41.8	-45.7	8.2	6.36e-02	0	55	0	96468992	54	5548
2026-01-20 15:36:26.52	209.05	7.43	-41.3	-44.8	9.1	2.98e-02	0	55	0	103809024	53	5317
2026-01-20 15:36:27.53	209.14	7.50	-40.9	-44.1	9.8	1.37e-02	0	55	0	111149056	52	5193
2026-01-20 15:36:28.54	209.24	7.57	-40.6	-43.4	10.6	4.04e-03	0	55	0	118489088	51	5054
2026-01-20 15:36:29.55	209.33	7.63	-40.1	-42.7	11.4	1.26e-03	0	55	0	125829120	51	4663
2026-01-20 15:36:30.56	209.43	7.70	-39.8	-42.2	11.9	6.08e-04	0	55	0	133169152	50	4691
2026-01-20 15:36:31.57	209.52	7.77	-39.3	-41.5	12.6	1.64e-04	0	55	0	140509184	49	4572
2026-01-20 15:36:32.58	209.62	7.83	-39.3	-41.5	12.6	9.49e-05	0	55	0	147849216	49	4567
2026-01-20 15:36:33.60	209.71	7.90	-39.3	-41.5	12.7	6.52e-05	0	55	0	155189248	49	4560
2026-01-20 15:36:34.61	209.81	7.97	-39.4	-41.7	12.4	1.33e-04	0	55	0	162529280	49	4665
2026-01-20 15:36:35.62	209.90	8.04	-39.5	-41.8	12.3	1.46e-04	0	55	0	169869312	49	4742
2026-01-20 15:36:36.63	210.00	8.10	-39.3	-41.4	12.8	1.59e-04	0	55	0	177209344	49	4518
2026-01-20 15:36:37.64	210.10	8.17	-41.7	-45.7	8.4	1.32e-03	0	55	0	184549376	52	6209
2026-01-20 15:36:38.65	210.20	8.24	-39.5	-41.8	12.5	2.80e-01	0	55	0	184549376	49	4718
2026-01-20 15:36:39.66	210.29	8.31	-40.1	-42.6	11.7	3.48e-03	0	55	0	191889408	51	4599
2026-01-20 15:36:40.66	210.39	8.37	-40.6	-43.3	10.9	5.37e-05	0	55	0	199229440	50	5316
2026-01-20 15:36:41.67	210.49	8.44	-40.1	-42.6	11.6	1.35e-02	0	55	0	204472320	51	4606
2026-01-20 15:36:42.68	210.59	8.51	-39.3	-41.4	12.8	7.09e-05	0	55	0	211812352	49	4542
2026-01-20 15:36:43.69	210.69	8.58	-39.2	-41.3	12.9	6.17e-05	0	55	0	219152384	49	4489
2026-01-20 15:36:44.70	210.79	8.64	-39.1	-41.1	13.1	3.20e-05	0	55	0	226492416	49	4376
2026-01-20 15:36:45.71	210.89	8.71	-38.9	-40.9	13.4	1.37e-05	0	55	0	233832448	48	4522
2026-01-20 15:36:46.72	210.99	8.78	-39.0	-41.0	13.4	1.37e-05	0	55	0	241172480	48	4548
2026-01-20 15:36:47.73	211.10	8.85	-38.9	-40.8	13.5	1.83e-05	0	55	0	248512512	48	4487
2026-01-20 15:36:48.74	211.20	8.92	-38.9	-40.8	13.5	1.37e-05	0	56	0	255852544	48	4490
2026-01-20 15:36:49.75	211.30	8.99	-38.9	-40.9	13.5	9.10e-06	0	55	0	263192576	48	4502
2026-01-20 15:36:50.76	211.40	9.06	-38.9	-40.8	13.6	9.10e-06	0	55	0	270532608	48	4475
2026-01-20 15:36:51.77	211.51	9.12	-38.9	-40.8	13.7	3.40e-06	0	55	0	277872640	48	4451
2026-01-20 15:36:52.78	211.61	9.19	-38.9	-40.8	13.6	1.02e-05	0	56	0	285212672	48	4488
2026-01-20 15:36:53.79	211.72	9.26	-38.9	-40.8	13.6	5.70e-06	0	56	0	292552704	48	4480
2026-01-20 15:36:54.81	211.82	9.33	-38.9	-40.8	13.7	9.10e-06	0	56	0	299892736	48	4476
2026-01-20 15:36:55.82	211.93	9.40	-38.9	-40.8	13.7	4.50e-06	0	56	0	307232768	48	4466
2026-01-20 15:36:56.82	212.03	9.47	-38.9	-40.8	13.7	1.14e-05	0	56	0	314572800	48	4452
2026-01-20 15:36:57.83	212.14	9.54	-39.0	-40.9	13.6	4.50e-06	0	56	0	321912832	48	4532
2026-01-20 15:36:58.84	212.25	9.61	-38.9	-40.8	13.7	1.02e-05	0	56	0	328204288	48	4462
2026-01-20 15:36:59.85	212.36	9.68	-38.9	-40.9	13.6	6.80e-06	0	56	0	335544320	48	4507
2026-01-20 15:37:00.86	212.46	9.75	-38.9	-40.8	13.7	1.14e-05	0	56	0	343932928	48	4491
2026-01-20 15:37:01.87	212.57	9.82	-39.0	-40.9	13.6	1.14e-05	0	56	0	350224384	48	4530
2026-01-20 15:37:02.88	212.68	9.89	-38.9	-40.8	13.7	5.70e-06	0	56	0	357564416	48	4479
2026-01-20 15:37:03.89	212.79	9.96	-38.9	-40.9	13.7	6.80e-06	0	56	0	364904448	48	4502
2026-01-20 15:37:04.90	212.90	10.03	-38.9	-40.8	13.7	8.00e-06	0	56	0	372244480	48	4473
2026-01-20 15:37:05.91	213.01	10.10	-38.9	-40.8	13.7	5.70e-06	0	56	0	379584512	48	4473
2026-01-20 15:37:06.92	213.12	10.17	-38.9	-40.8	13.8	4.50e-06	0	56	0	386924544	48	4457
2026-01-20 15:37:07.93	213.23	10.24	-38.8	-40.6	13.9	3.40e-06	0	56	0	394264576	48	4378
2026-01-20 15:37:08.94	213.35	10.31	-38.8	-40.7	13.9	9.10e-06	0	56	0	401604608	48	4431
2026-01-20 15:37:09.95	213.46	10.38	-38.8	-40.6	14.0	4.50e-06	0	56	0	408944640	48	4377
2026-01-20 15:37:10.96	213.57	10.46	-38.7	-40.5	14.1	3.40e-06	0	56	0	416284672	48	4322
2026-01-20 15:37:11.97	213.69	10.53	-38.7	-40.5	14.1	2.20e-06	0	56	0	423624704	48	4321
2026-01-20 15:37:12.98	213.80	10.60	-38.7	-40.5	14.2	3.40e-06	0	56	0	430964736	48	4302
2026-01-20 15:37:13.99	213.92	10.67	-38.6	-40.4	14.2	3.40e-06	0	56	0	438304768	48	4291
2026-01-20 15:37:15.00	214.03	10.74	-38.6	-40.4	14.2	0.00e+00	0	56	0	445644800	48	4272
2026-01-20 15:37:16.01	214.15	10.81	-38.6	-40.4	14.2	3.40e-06	0	56	0	452984832	48	4265
2026-01-20 15:37:17.02	214.26	10.88	-38.6	-40.4	14.3	6.80e-06	0	56	0	460324864	48	4246
2026-01-20 15:37:18.03	214.38	10.96	-38.6	-40.4	14.2	2.20e-06	0	56	0	467664896	48	4268
2026-01-20 15:37:19.04	214.50	11.03	-38.6	-40.4	14.2	0.00e+00	0	56	0	475004928	48	4268
2026-01-20 15:37:20.05	214.62	11.10	-38.6	-40.4	14.3	1.10e-06	0	56	0	481296384	48	4262
2026-01-20 15:37:21.06	214.73	11.17	-38.7	-40.5	14.2	3.40e-06	0	56	0	489684992	48	4309
2026-01-20 15:37:22.07	214.85	11.24	-38.6	-40.4	14.2	2.20e-06	0	56	0	497025024	48	4279
2026-01-20 15:37:23.08	214.97	11.32	-38.7	-40.5	14.2	3.40e-06	0	56	0	503316480	48	4302
2026-01-20 15:37:24.10	215.10	11.39	-38.6	-40.4	14.3	1.10e-06	0	56	0	510656512	48	4256
2026-01-20 15:37:25.11	215.22	11.46	-38.6	-40.3	14.3	0.00e+00	0	56	0	519045120	48	4241
2026-01-20 15:37:26.12	215.34	11.53	-38.6	-40.3	14.4	1.10e-06	0	56	0	525336576	48	4239
2026-01-20 15:37:27.13	215.46	11.61	-38.6	-40.4	14.4	2.20e-06	0	56	0	532676608	48	4246
2026-01-20 15:37:28.14	215.58	11.68	-38.5	-40.3	14.5	0.00e+00	0	56	0	540016640	48	4198
2026-01-20 15:37:29.15	215.71	11.75	-38.3	-40.0	14.6	1.10e-06	0	56	0	547356672	47	4312
2026-01-20 15:37:30.16	215.83	11.82	-38.3	-40.0	14.5	2.20e-06	0	56	0	554696704	47	4333
2026-01-20 15:37:31.17	215.96	11.90	-38.4	-40.1	14.5	1.10e-06	0	56	0	562036736	47	4367
2026-01-20 15:37:32.18	216.08	11.97	-38.3	-40.1	14.5	1.10e-06	0	56	0	569376768	47	4354
2026-01-20 15:37:33.19	216.21	12.04	-38.3	-40.0	14.6	0.00e+00	0	56	0	576716800	47	4323
2026-01-20 15:37:34.20	216.33	12.12	-38.3	-40.0	14.5	0.00e+00	0	57	0	584056832	47	4339
2026-01-20 15:37:35.21	216.46	12.19	-38.4	-40.2	14.3	1.10e-06	0	57	0	591396864	47	4412
2026-01-20 15:37:36.21	216.59	12.26	-38.4	-40.1	14.4	2.20e-06	0	56	0	598736896	47	4373
2026-01-20 15:37:37.22	216.71	12.34	-38.4	-40.2	14.4	1.10e-06	0	57	0	606076928	47	4392
2026-01-20 15:37:38.23	216.84	12.41	-38.3	-40.0	14.6	0.00e+00	0	57	0	613416960	47	4329
2026-01-20 15:37:39.24	216.97	12.49	-38.2	-39.9	14.7	0.00e+00	0	57	0	620756992	47	4268
2026-01-20 15:37:40.25	217.10	12.56	-38.2	-39.9	14.7	0.00e+00	0	57	0	627048448	47	4281
2026-01-20 15:37:41.26	217.23	12.63	-38.2	-39.8	14.8	0.00e+00	0	57	0	635437056	47	4239
2026-01-20 15:37:42.27	217.36	12.71	-38.1	-39.8	14.8	0.00e+00	0	57	0	642777088	47	4220
2026-01-20 15:37:43.28	217.50	12.78	-38.1	-39.8	14.8	0.00e+00	0	57	0	649068544	47	4232
2026-01-20 15:37:44.29	217.63	12.86	-38.2	-39.9	14.7	0.00e+00	0	57	0	656408576	47	4270
2026-01-20 15:37:45.30	217.76	12.93	-38.2	-39.9	14.8	1.10e-06	0	57	0	663748608	47	4255
2026-01-20 15:37:46.31	217.90	13.00	-38.2	-39.9	14.7	2.20e-06	0	57	0	671088640	47	4277
2026-01-20 15:37:47.32	218.03	13.08	-38.3	-40.0	14.7	3.40e-06	0	57	0	678428672	47	4316
2026-01-20 15:37:48.33	218.17	13.15	-38.3	-40.0	14.6	1.10e-06	0	57	0	685768704	47	4340
2026-01-20 15:37:49.34	218.30	13.23	-38.3	-40.0	14.7	1.10e-06	0	57	0	693108736	47	4340
2026-01-20 15:37:50.35	218.44	13.30	-38.3	-40.0	14.6	0.00e+00	0	57	0	700448768	47	4327
2026-01-20 15:37:51.36	218.58	13.38	-38.3	-40.0	14.7	2.20e-06	0	57	0	707788800	46	4551
2026-01-20 15:37:52.37	218.71	13.45	-38.2	-40.0	14.7	1.10e-06	0	57	0	715128832	46	4548
2026-01-20 15:37:53.38	218.85	13.53	-38.2	-39.9	14.8	0.00e+00	0	57	0	722468864	46	4538
2026-01-20 15:37:54.39	218.99	13.60	-38.3	-40.0	14.7	1.10e-06	0	57	0	729808896	46	4585
2026-01-20 15:37:55.40	219.13	13.68	-38.2	-39.9	14.8	0.00e+00	0	57	0	737148928	46	4501
2026-01-20 15:37:56.41	219.27	13.75	-38.2	-39.8	14.8	0.00e+00	0	57	0	744488960	46	4493
2026-01-20 15:37:57.42	219.41	13.83	-38.1	-39.8	14.9	0.00e+00	0	57	0	751828992	46	4466
2026-01-20 15:37:58.43	219.56	13.90	-38.1	-39.8	14.9	0.00e+00	0	57	0	759169024	46	4455
2026-01-20 15:37:59.44	219.70	13.98	-38.1	-39.7	15.0	0.00e+00	0	57	0	766509056	46	4426
2026-01-20 15:38:00.45	219.84	14.06	-38.0	-39.6	15.1	0.00e+00	0	57	0	773849088	46	4367
2026-01-20 15:38:01.46	219.99	14.13	-38.0	-39.6	15.1	1.10e-06	0	57	0	781189120	46	4365
2026-01-20 15:38:02.47	220.13	14.21	-38.0	-39.7	15.0	0.00e+00	0	57	0	788529152	46	4403
2026-01-20 15:38:03.48	220.28	14.28	-38.0	-39.6	15.2	0.00e+00	0	57	0	795869184	46	4372
2026-01-20 15:38:04.49	220.42	14.36	-37.9	-39.5	15.2	0.00e+00	0	57	0	802160640	46	4323
2026-01-20 15:38:05.50	220.57	14.43	-37.9	-39.5	15.2	0.00e+00	0	57	0	809500672	46	4314
2026-01-20 15:38:06.51	220.72	14.51	-37.8	-39.3	15.4	0.00e+00	0	57	0	817889280	46	4238
2026-01-20 15:38:07.52	220.87	14.59	-37.7	-39.3	15.5	0.00e+00	0	57	0	824180736	46	4214
2026-01-20 15:38:08.53	221.02	14.66	-37.7	-39.2	15.5	0.00e+00	0	57	0	831520768	46	4186
2026-01-20 15:38:09.54	221.17	14.74	-37.7	-39.3	15.5	0.00e+00	0	57	0	838860800	46	4206
2026-01-20 15:38:10.55	221.32	14.82	-37.8	-39.3	15.5	1.10e-06	0	57	0	846200832	46	4222
2026-01-20 15:38:11.56	221.47	14.89	-37.6	-39.2	15.6	0.00e+00	0	57	0	853540864	46	4152
2026-01-20 15:38:12.57	221.62	14.97	-37.6	-39.1	15.7	0.00e+00	0	57	0	860880896	46	4104
2026-01-20 15:38:13.58	221.77	15.04	-37.6	-39.1	15.7	0.00e+00	0	57	0	868220928	46	4109
2026-01-20 15:38:14.60	221.93	15.12	-37.6	-39.1	15.7	0.00e+00	0	57	0	875560960	46	4101
2026-01-20 15:38:15.60	222.08	15.20	-37.5	-39.0	15.7	0.00e+00	0	57	0	882900992	46	4086
2026-01-20 15:38:16.61	222.24	15.27	-37.5	-39.0	15.8	0.00e+00	0	57	0	890241024	45	4296
2026-01-20 15:38:17.62	222.39	15.35	-37.4	-38.9	15.8	0.00e+00	0	57	0	897581056	45	4260
2026-01-20 15:38:18.63	222.55	15.43	-37.3	-38.8	16.0	0.00e+00	0	58	0	904921088	45	4196
2026-01-20 15:38:19.64	222.71	15.50	-37.3	-38.8	16.0	0.00e+00	0	57	0	912261120	45	4197
2026-01-20 15:38:20.65	222.87	15.58	-37.2	-38.7	16.1	0.00e+00	0	57	0	919601152	45	4157
2026-01-20 15:38:21.66	223.03	15.66	-37.3	-38.8	16.0	0.00e+00	0	57	0	926941184	45	4197
2026-01-20 15:38:22.67	223.19	15.73	-37.3	-38.8	16.0	0.00e+00	0	58	0	934281216	45	4197
2026-01-20 15:38:23.68	223.35	15.81	-37.4	-38.9	15.9	0.00e+00	0	58	0	941621248	45	4249
2026-01-20 15:38:24.68	223.51	15.89	-37.4	-38.9	16.0	0.00e+00	0	57	0	947912704	45	4255
2026-01-20 15:38:25.69	223.67	15.96	-37.4	-38.9	16.0	0.00e+00	0	57	0	955252736	45	4255
2026-01-20 15:38:26.70	223.83	16.04	-37.4	-38.9	15.9	0.00e+00	0	58	0	962592768	45	4257
2026-01-20 15:38:27.71	224.00	16.12	-37.4	-38.9	15.9	0.00e+00	0	58	0	969932800	45	4286
2026-01-20 15:38:28.72	224.16	16.19	-37.4	-38.9	15.9	0.00e+00	0	58	0	977272832	45	4251
2026-01-20 15:38:29.73	224.33	16.27	-37.4	-38.8	16.0	0.00e+00	0	58	0	984612864	45	4220
2026-01-20 15:38:30.75	224.50	16.35	-37.3	-38.7	16.1	0.00e+00	0	58	0	991952896	45	4186
2026-01-20 15:38:31.76	224.66	16.43	-37.2	-38.6	16.2	0.00e+00	0	57	0	999292928	45	4124
2026-01-20 15:38:32.76	224.83	16.50	-37.2	-38.6	16.2	0.00e+00	0	58	0	1006632960	45	4116
2026-01-20 15:38:33.77	225.00	16.58	-37.2	-38.6	16.2	0.00e+00	0	57	0	1013972992	45	4120
2026-01-20 15:38:34.78	225.17	16.66	-37.0	-38.4	16.4	0.00e+00	0	57	0	1021313024	45	4025
2026-01-20 15:38:35.79	225.34	16.73	-37.1	-38.5	16.4	0.00e+00	0	58	0	1028653056	45	4058
2026-01-20 15:38:36.80	225.51	16.81	-37.0	-38.4	16.5	0.00e+00	0	57	0	1035993088	44	4251
2026-01-20 15:38:37.81	225.68	16.89	-36.9	-38.2	16.6	0.00e+00	0	58	0	1043333120	44	4191
2026-01-20 15:38:38.82	225.86	16.96	-36.8	-38.2	16.7	0.00e+00	0	57	0	1050673152	44	4158
2026-01-20 15:38:39.83	226.03	17.04	-36.9	-38.2	16.6	0.00e+00	0	58	0	1058013184	44	4174
2026-01-20 15:38:40.84	226.21	17.12	-36.9	-38.3	16.6	0.00e+00	0	58	0	1065353216	44	4199
2026-01-20 15:38:41.84	226.38	17.19	-36.8	-38.2	16.7	0.00e+00	0	58	0	1072693248	44	4147
2026-01-20 15:38:42.85	226.56	17.27	-36.8	-38.1	16.8	0.00e+00	0	57	0	1078984704	44	4133
2026-01-20 15:38:43.86	226.74	17.35	-36.8	-38.1	16.8	0.00e+00	0	58	0	1087373312	44	4117
2026-01-20 15:38:44.87	226.91	17.42	-36.7	-38.0	16.9	0.00e+00	0	58	0	1094713344	44	4086
2026-01-20 15:38:45.88	227.09	17.50	-36.9	-38.3	16.7	0.00e+00	0	57	0	1101004800	44	4194
2026-01-20 15:38:46.89	227.27	17.58	-36.8	-38.2	16.7	0.00e+00	0	58	0	1108344832	44	4167
2026-01-20 15:38:47.91	227.46	17.66	-37.0	-38.3	16.6	0.00e+00	0	58	0	1116733440	44	4234
2026-01-20 15:38:48.92	227.64	17.73	-37.0	-38.4	16.5	0.00e+00	0	58	0	1123024896	44	4265
2026-01-20 15:38:49.93	227.82	17.81	-37.0	-38.3	16.6	0.00e+00	0	58	0	1130364928	44	4242
2026-01-20 15:38:50.94	228.01	17.89	-37.0	-38.4	16.5	0.00e+00	0	58	0	1137704960	44	4245
2026-01-20 15:38:51.95	228.19	17.96	-37.0	-38.4	16.5	0.00e+00	0	57	0	1145044992	44	4252
2026-01-20 15:38:52.96	228.38	18.04	-36.9	-38.3	16.6	0.00e+00	0	58	0	1152385024	44	4212
2026-01-20 15:38:53.97	228.56	18.12	-36.9	-38.3	16.6	0.00e+00	0	58	0	1159725056	44	4228
2026-01-20 15:38:54.98	228.75	18.19	-37.0	-38.3	16.6	0.00e+00	0	58	0	1167065088	44	4238
2026-01-20 15:38:55.99	228.94	18.27	-36.9	-38.3	16.6	0.00e+00	0	58	0	1174405120	44	4224
2026-01-20 15:38:57.00	229.13	18.35	-37.0	-38.4	16.5	0.00e+00	0	58	0	1181745152	44	4254
2026-01-20 15:38:58.00	229.32	18.42	-37.0	-38.3	16.6	0.00e+00	0	58	0	1189085184	44	4231
2026-01-20 15:38:59.01	229.51	18.50	-37.1	-38.5	16.5	0.00e+00	0	58	0	1196425216	44	4296
2026-01-20 15:39:00.02	229.70	18.57	-36.9	-38.3	16.7	0.00e+00	0	58	0	1203765248	44	4217
2026-01-20 15:39:01.03	229.90	18.65	-37.0	-38.4	16.6	0.00e+00	0	58	0	1211105280	44	4256
2026-01-20 15:39:02.04	230.09	18.72	-36.8	-38.1	16.8	0.00e+00	0	58	0	1218445312	44	4135
2026-01-20 15:39:03.05	230.28	18.80	-36.8	-38.2	16.8	0.00e+00	0	58	0	1225785344	44	4156
2026-01-20 15:39:04.06	230.48	18.88	-36.6	-38.0	17.0	0.00e+00	0	58	0	1233125376	44	4057
2026-01-20 15:39:05.07	230.68	18.95	-36.6	-37.9	17.0	0.00e+00	0	58	0	1240465408	44	4046
2026-01-20 15:39:06.08	230.88	19.03	-36.6	-37.9	17.1	0.00e+00	0	58	0	1247805440	44	4015
2026-01-20 15:39:07.09	231.07	19.10	-36.6	-37.9	17.0	0.00e+00	0	58	0	1254096896	44	4051
2026-01-20 15:39:08.10	231.27	19.18	-36.6	-38.0	17.0	0.00e+00	0	58	0	1261436928	44	4060
2026-01-20 15:39:09.11	231.47	19.25	-36.9	-38.2	16.7	0.00e+00	0	58	0	1269825536	44	4173
2026-01-20 15:39:10.12	231.68	19.33	-36.7	-38.1	16.9	0.00e+00	0	58	0	1276116992	44	4104
2026-01-20 15:39:11.13	231.88	19.40	-36.8	-38.1	16.9	0.00e+00	0	58	0	1283457024	44	4111
2026-01-20 15:39:12.14	232.08	19.48	-36.8	-38.2	16.8	0.00e+00	0	58	0	1290797056	44	4169
2026-01-20 15:39:13.15	232.29	19.55	-36.7	-38.1	16.9	0.00e+00	0	58	0	1298137088	44	4101
2026-01-20 15:39:14.17	232.50	19.63	-36.7	-38.0	17.0	0.00e+00	0	58	0	1305477120	44	4063
2026-01-20 15:39:15.17	232.70	19.70	-36.7	-38.0	16.9	0.00e+00	0	58	0	1312817152	44	4092
2026-01-20 15:39:16.18	232.91	19.78	-36.7	-38.0	16.9	0.00e+00	0	58	0	1320157184	44	4087
2026-01-20 15:39:17.19	233.12	19.85	-36.7	-38.0	17.0	0.00e+00	0	58	0	1327497216	44	4074
2026-01-20 15:39:18.20	233.33	19.93	-36.6	-37.9	17.1	0.00e+00	0	58	0	1334837248	44	4023
2026-01-20 15:39:19.21	233.54	20.00	-36.7	-38.0	17.0	0.00e+00	0	58	0	1342177280	44	4072
2026-01-20 15:39:20.22	233.75	20.07	-36.7	-38.1	16.9	0.00e+00	0	58	0	1349517312	44	4101
2026-01-20 15:39:21.23	233.96	20.15	-36.6	-37.9	17.0	0.00e+00	0	58	0	1356857344	44	4034
2026-01-20 15:39:22.24	234.17	20.22	-36.6	-37.9	17.0	0.00e+00	0	58	0	1364197376	44	4044
2026-01-20 15:39:23.25	234.39	20.29	-36.6	-37.9	17.0	0.00e+00	0	58	0	1371537408	44	4044
2026-01-20 15:39:24.26	234.61	20.37	-36.6	-37.9	17.1	0.00e+00	0	58	0	1378877440	44	4010
2026-01-20 15:39:25.27	234.82	20.44	-36.6	-37.9	17.1	0.00e+00	0	58	0	1386217472	44	4009
2026-01-20 15:39:26.28	235.04	20.51	-36.3	-37.6	17.2	0.00e+00	0	58	0	1393557504	43	4116
2026-01-20 15:39:27.29	235.26	20.58	-36.3	-37.6	17.2	0.00e+00	0	58	0	1399848960	43	4106
2026-01-20 15:39:28.30	235.48	20.66	-36.3	-37.6	17.2	0.00e+00	0	58	0	1407188992	43	4101
2026-01-20 15:39:29.31	235.70	20.73	-36.1	-37.4	17.5	0.00e+00	0	58	0	1415577600	43	4005
2026-01-20 15:39:30.32	235.92	20.80	-36.1	-37.4	17.4	0.00e+00	0	58	0	1421869056	43	4034
2026-01-20 15:39:31.33	236.14	20.87	-36.0	-37.3	17.5	0.00e+00	0	58	0	1429209088	43	3967
2026-01-20 15:39:32.34	236.37	20.94	-36.1	-37.3	17.5	0.00e+00	0	58	0	1436549120	43	3997
2026-01-20 15:39:33.35	236.59	21.01	-36.1	-37.4	17.4	0.00e+00	0	58	0	1443889152	43	4022
2026-01-20 15:39:34.36	236.82	21.09	-36.2	-37.5	17.4	0.00e+00	0	58	0	1451229184	43	4060
2026-01-20 15:39:35.37	237.04	21.16	-36.2	-37.4	17.4	0.00e+00	0	58	0	1458569216	43	4043
2026-01-20 15:39:36.38	237.27	21.23	-36.2	-37.5	17.3	0.00e+00	0	58	0	1465909248	43	4072
2026-01-20 15:39:37.39	237.50	21.30	-36.3	-37.5	17.3	0.00e+00	0	58	0	1473249280	43	4096
2026-01-20 15:39:38.40	237.73	21.37	-36.2	-37.5	17.3	0.00e+00	0	58	0	1480589312	43	4084
2026-01-20 15:39:39.41	237.96	21.44	-36.3	-37.6	17.2	0.00e+00	0	58	0	1487929344	43	4120
2026-01-20 15:39:40.42	238.19	21.50	-36.3	-37.6	17.3	0.00e+00	0	58	0	1495269376	43	4107
2026-01-20 15:39:41.43	238.42	21.57	-36.3	-37.5	17.3	0.00e+00	0	58	0	1502609408	43	4081
2026-01-20 15:39:42.44	238.66	21.64	-36.3	-37.6	17.3	0.00e+00	0	58	0	1509949440	43	4104
2026-01-20 15:39:43.45	238.89	21.71	-36.2	-37.5	17.3	0.00e+00	0	58	0	1517289472	43	4079
2026-01-20 15:39:44.46	239.13	21.78	-36.2	-37.5	17.3	0.00e+00	0	58	0	1524629504	43	4064
2026-01-20 15:39:45.47	239.37	21.85	-36.3	-37.5	17.3	0.00e+00	0	58	0	1531969536	43	4092
2026-01-20 15:39:46.48	239.60	21.91	-36.2	-37.5	17.4	0.00e+00	0	58	0	1539309568	43	4057
2026-01-20 15:39:47.49	239.84	21.98	-36.3	-37.6	17.3	0.00e+00	0	58	0	1546649600	43	4101
2026-01-20 15:39:48.50	240.08	22.05	-36.2	-37.5	17.4	0.00e+00	0	58	0	1552941056	43	4060
2026-01-20 15:39:49.51	240.32	22.12	-36.2	-37.5	17.3	0.00e+00	0	58	0	1561329664	43	4077
2026-01-20 15:39:50.52	240.56	22.18	-36.1	-37.3	17.5	0.00e+00	0	58	0	1568669696	43	3998
2026-01-20 15:39:51.53	240.81	22.25	-36.0	-37.2	17.6	0.00e+00	0	58	0	1574961152	43	3948
2026-01-20 15:39:52.54	241.05	22.31	-36.0	-37.2	17.6	0.00e+00	0	58	0	1582301184	42	4166
2026-01-20 15:39:53.55	241.30	22.38	-35.9	-37.2	17.7	0.00e+00	0	58	0	1589641216	42	4150
2026-01-20 15:39:54.56	241.54	22.44	-35.8	-37.0	17.8	0.00e+00	0	58	0	1596981248	42	4094
2026-01-20 15:39:55.57	241.79	22.51	-35.8	-37.0	17.8	0.00e+00	0	58	0	1604321280	42	4091
2026-01-20 15:39:56.58	242.04	22.57	-35.9	-37.1	17.8	0.00e+00	0	58	0	1611661312	42	4115
2026-01-20 15:39:57.59	242.29	22.63	-35.8	-37.0	17.8	0.00e+00	0	58	0	1619001344	42	4087
2026-01-20 15:39:58.60	242.54	22.70	-35.9	-37.1	17.8	0.00e+00	0	58	0	1626341376	42	4110
2026-01-20 15:39:59.61	242.79	22.76	-35.9	-37.1	17.8	0.00e+00	0	58	0	1633681408	42	4112
2026-01-20 15:40:00.62	243.04	22.82	-35.9	-37.1	17.7	0.00e+00	0	58	0	1641021440	42	4129
2026-01-20 15:40:01.63	243.29	22.88	-35.8	-37.1	17.8	0.00e+00	0	58	0	1648361472	42	4102
2026-01-20 15:40:02.63	243.54	22.95	-35.9	-37.1	17.8	0.00e+00	0	58	0	1655701504	42	4125
2026-01-20 15:40:03.64	243.80	23.01	-35.9	-37.2	17.7	0.00e+00	0	58	0	1663041536	42	4148
2026-01-20 15:40:04.65	244.05	23.07	-35.9	-37.1	17.7	0.00e+00	0	58	0	1670381568	42	4134
2026-01-20 15:40:05.66	244.31	23.13	-35.9	-37.1	17.7	0.00e+00	0	58	0	1677721600	42	4145
2026-01-20 15:40:06.67	244.57	23.19	-36.0	-37.2	17.7	0.00e+00	0	58	0	1685061632	42	4169
2026-01-20 15:40:07.68	244.82	23.25	-35.9	-37.2	17.7	0.00e+00	0	58	0	1692401664	42	4168
2026-01-20 15:40:08.69	245.08	23.31	-36.0	-37.2	17.7	0.00e+00	0	58	0	1698693120	42	4170
2026-01-20 15:40:09.70	245.34	23.36	-36.0	-37.3	17.6	0.00e+00	0	58	0	1706033152	42	4202
2026-01-20 15:40:10.71	245.61	23.42	-36.1	-37.3	17.5	0.00e+00	0	58	0	1714421760	42	4239
2026-01-20 15:40:11.72	245.87	23.48	-36.0	-37.2	17.7	0.00e+00	0	58	0	1720713216	42	4177
2026-01-20 15:40:12.73	246.13	23.54	-35.9	-37.1	17.7	0.00e+00	0	58	0	1728053248	42	4143
2026-01-20 15:40:13.74	246.40	23.59	-36.0	-37.3	17.6	0.00e+00	0	58	0	1735393280	42	4205
2026-01-20 15:40:14.75	246.66	23.65	-35.9	-37.2	17.7	0.00e+00	0	58	0	1742733312	42	4153
2026-01-20 15:40:15.76	246.93	23.70	-35.8	-37.0	17.8	0.00e+00	0	58	0	1750073344	42	4097
2026-01-20 15:40:16.77	247.19	23.76	-35.8	-37.0	17.8	0.00e+00	0	58	0	1757413376	42	4088
2026-01-20 15:40:17.78	247.46	23.81	-35.9	-37.1	17.7	0.00e+00	0	58	0	1764753408	42	4140
2026-01-20 15:40:18.79	247.73	23.87	-35.9	-37.1	17.8	0.00e+00	0	58	0	1772093440	42	4110
2026-01-20 15:40:19.80	248.00	23.92	-35.9	-37.1	17.7	0.00e+00	0	58	0	1779433472	42	4141
2026-01-20 15:40:20.81	248.27	23.97	-35.7	-36.9	18.0	0.00e+00	0	58	0	1786773504	42	4013
2026-01-20 15:40:21.82	248.54	24.03	-35.6	-36.8	18.1	0.00e+00	0	58	0	1794113536	42	3979
2026-01-20 15:40:22.83	248.82	24.08	-35.6	-36.7	18.1	0.00e+00	0	58	0	1801453568	42	3957
2026-01-20 15:40:23.84	249.09	24.13	-35.6	-36.8	18.1	0.00e+00	0	58	0	1808793600	42	3963
2026-01-20 15:40:24.85	249.36	24.18	-35.5	-36.7	18.2	0.00e+00	0	58	0	1816133632	42	3940
2026-01-20 15:40:25.86	249.64	24.23	-35.5	-36.7	18.2	0.00e+00	0	58	0	1823473664	42	3927
2026-01-20 15:40:26.87	249.91	24.28	-35.6	-36.7	18.1	0.00e+00	0	58	0	1830813696	41	4191
2026-01-20 15:40:27.88	250.19	24.33	-35.5	-36.6	18.2	0.00e+00	0	58	0	1838153728	41	4141
2026-01-20 15:40:28.89	250.47	24.38	-35.5	-36.7	18.2	0.00e+00	0	59	0	1845493760	41	4152
2026-01-20 15:40:29.90	250.75	24.42	-35.5	-36.7	18.2	0.00e+00	0	58	0	1851785216	41	4150
2026-01-20 15:40:30.90	251.02	24.47	-35.5	-36.7	18.2	0.00e+00	0	58	0	1859125248	41	4163
2026-01-20 15:40:31.91	251.30	24.52	-35.5	-36.7	18.2	0.00e+00	0	58	0	1867513856	41	4148
2026-01-20 15:40:32.92	251.58	24.56	-35.4	-36.5	18.3	0.00e+00	0	58	0	1873805312	41	4076
2026-01-20 15:40:33.93	251.86	24.61	-35.3	-36.4	18.4	0.00e+00	0	59	0	1881145344	41	4038
2026-01-20 15:40:34.94	252.15	24.65	-35.3	-36.5	18.4	0.00e+00	0	58	0	1888485376	41	4062
2026-01-20 15:40:35.95	252.43	24.70	-35.4	-36.6	18.3	0.00e+00	0	58	0	1895825408	41	4107
2026-01-20 15:40:36.96	252.71	24.74	-35.5	-36.7	18.2	0.00e+00	0	58	0	1903165440	41	4181
2026-01-20 15:40:37.97	253.00	24.78	-35.7	-36.9	18.0	0.00e+00	0	59	0	1910505472	41	4275
2026-01-20 15:40:38.98	253.28	24.82	-35.8	-37.0	17.9	0.00e+00	0	59	0	1917845504	41	4321
2026-01-20 15:40:39.99	253.57	24.86	-35.7	-37.0	17.9	0.00e+00	0	58	0	1925185536	41	4295
2026-01-20 15:40:41.00	253.86	24.90	-35.6	-36.8	18.1	0.00e+00	0	58	0	1932525568	41	4229
2026-01-20 15:40:42.01	254.14	24.94	-35.5	-36.6	18.2	0.00e+00	0	59	0	1939865600	41	4135
2026-01-20 15:40:43.02	254.43	24.98	-35.4	-36.6	18.3	0.00e+00	0	58	0	1947205632	41	4106
2026-01-20 15:40:44.03	254.72	25.02	-35.5	-36.7	18.1	0.00e+00	0	58	0	1954545664	41	4176
2026-01-20 15:40:45.04	255.01	25.06	-35.6	-36.7	18.1	0.00e+00	0	59	0	1961885696	41	4178
2026-01-20 15:40:46.05	255.30	25.10	-35.6	-36.8	18.0	0.00e+00	0	59	0	1969225728	41	4242
2026-01-20 15:40:47.06	255.59	25.13	-35.6	-36.8	18.1	0.00e+00	0	59	0	1976565760	41	4215
2026-01-20 15:40:48.07	255.88	25.17	-35.6	-36.8	18.0	0.00e+00	0	58	0	1983905792	41	4234
2026-01-20 15:40:49.08	256.18	25.20	-35.6	-36.8	18.1	0.00e+00	0	59	0	1991245824	41	4204
2026-01-20 15:40:50.09	256.47	25.24	-35.5	-36.7	18.2	0.00e+00	0	59	0	1997537280	41	4152
2026-01-20 15:40:51.10	256.76	25.27	-35.6	-36.8	18.1	0.00e+00	0	59	0	2004877312	41	4212
2026-01-20 15:40:52.11	257.06	25.30	-35.4	-36.6	18.3	0.00e+00	0	59	0	2013265920	41	4103
2026-01-20 15:40:53.12	257.35	25.34	-35.6	-36.8	18.1	0.00e+00	0	59	0	2019557376	41	4213
2026-01-20 15:40:54.13	257.65	25.37	-35.5	-36.7	18.2	0.00e+00	0	59	0	2026897408	41	4157
2026-01-20 15:40:55.13	257.94	25.40	-35.6	-36.8	18.1	0.00e+00	0	58	0	2034237440	41	4214
2026-01-20 15:40:56.14	258.24	25.43	-35.5	-36.7	18.2	0.00e+00	0	58	0	2041577472	41	4172
2026-01-20 15:40:57.15	258.53	25.45	-35.6	-36.8	18.0	0.00e+00	0	59	0	2048917504	41	4239
2026-01-20 15:40:58.16	258.83	25.48	-35.5	-36.7	18.2	0.00e+00	0	59	0	2056257536	41	4180
2026-01-20 15:40:59.16	259.12	25.51	-35.7	-36.9	18.0	0.00e+00	0	58	0	2063597568	41	4263
2026-01-20 15:41:00.17	259.42	25.54	-35.7	-36.9	18.0	0.00e+00	0	59	0	2070937600	41	4258
2026-01-20 15:41:01.19	259.72	25.56	-35.7	-36.9	17.9	0.00e+00	0	58	0	2078277632	41	4287
2026-01-20 15:41:02.20	260.02	25.59	-35.8	-37.0	17.9	0.00e+00	0	58	0	2085617664	41	4326
2026-01-20 15:41:03.21	260.32	25.61	-35.7	-36.9	18.0	0.00e+00	0	59	0	2092957696	41	4251
2026-01-20 15:41:04.22	260.62	25.63	-35.6	-36.8	18.1	0.00e+00	0	59	0	2100297728	41	4221
2026-01-20 15:41:05.23	260.92	25.66	-35.6	-36.8	18.1	0.00e+00	0	58	0	2107637760	41	4215
2026-01-20 15:41:06.24	261.22	25.68	-35.5	-36.7	18.2	0.00e+00	0	59	0	2114977792	41	4155
2026-01-20 15:41:07.25	261.53	25.70	-35.4	-36.5	18.3	0.00e+00	0	59	0	2122317824	41	4091
2026-01-20 15:41:08.26	261.83	25.72	-35.4	-36.6	18.3	0.00e+00	0	58	0	2129657856	41	4116
2026-01-20 15:41:09.27	262.13	25.74	-35.5	-36.7	18.2	0.00e+00	0	58	0	2136997888	41	4156
2026-01-20 15:41:10.28	262.43	25.76	-35.4	-36.6	18.3	0.00e+00	0	58	0	2144337920	41	4125
2026-01-20 15:41:11.29	262.73	25.78	-35.4	-36.5	18.3	0.00e+00	0	59	0	2150629376	41	4094
2026-01-20 15:41:12.30	263.04	25.79	-35.3	-36.5	18.4	0.00e+00	0	59	0	2159017984	41	4052
2026-01-20 15:41:13.30	263.34	25.81	-35.3	-36.5	18.4	0.00e+00	0	59	0	2166358016	41	4070
2026-01-20 15:41:14.32	263.64	25.82	-35.2	-36.3	18.5	0.00e+00	0	59	0	2172649472	41	4004
2026-01-20 15:41:15.33	263.95	25.84	-35.2	-36.3	18.5	0.00e+00	0	59	0	2179989504	41	3993
2026-01-20 15:41:16.34	264.25	25.85	-35.3	-36.4	18.5	0.00e+00	0	58	0	2187329536	41	4041
2026-01-20 15:41:17.34	264.55	25.86	-35.3	-36.5	18.4	0.00e+00	0	59	0	2194669568	41	4056
2026-01-20 15:41:18.35	264.86	25.88	-35.3	-36.5	18.4	0.00e+00	0	59	0	2202009600	41	4070
2026-01-20 15:41:19.36	265.16	25.89	-35.3	-36.5	18.4	0.00e+00	0	59	0	2209349632	41	4057
2026-01-20 15:41:20.37	265.47	25.90	-35.3	-36.5	18.4	0.00e+00	0	59	0	2216689664	41	4064
2026-01-20 15:41:21.38	265.77	25.91	-35.4	-36.5	18.3	0.00e+00	0	59	0	2224029696	41	4086
2026-01-20 15:41:22.39	266.08	25.91	-35.4	-36.5	18.4	0.00e+00	0	59	0	2231369728	41	4080
2026-01-20 15:41:23.40	266.39	25.92	-35.5	-36.6	18.2	0.00e+00	0	59	0	2238709760	41	4142
2026-01-20 15:41:24.41	266.69	25.93	-35.4	-36.6	18.3	0.00e+00	0	59	0	2246049792	41	4132
2026-01-20 15:41:25.42	267.00	25.94	-35.5	-36.6	18.3	0.00e+00	0	58	0	2253389824	41	4134
2026-01-20 15:41:26.43	267.30	25.94	-35.3	-36.5	18.4	0.00e+00	0	59	0	2260729856	41	4060
2026-01-20 15:41:27.43	267.61	25.94	-35.3	-36.5	18.4	0.00e+00	0	59	0	2268069888	41	4071
2026-01-20 15:41:28.44	267.91	25.95	-35.4	-36.5	18.4	0.00e+00	0	59	0	2274361344	41	4080
2026-01-20 15:41:29.45	268.22	25.95	-35.3	-36.5	18.4	0.00e+00	0	58	0	2282749952	41	4059
2026-01-20 15:41:30.46	268.52	25.95	-35.4	-36.6	18.4	0.00e+00	0	59	0	2290089984	41	4100
2026-01-20 15:41:31.47	268.83	25.95	-35.4	-36.6	18.3	0.00e+00	0	59	0	2296381440	41	4120
2026-01-20 15:41:32.48	269.14	25.95	-35.5	-36.7	18.2	0.00e+00	0	59	0	2303721472	41	4169
2026-01-20 15:41:33.49	269.44	25.95	-35.6	-36.7	18.1	0.00e+00	0	59	0	2311061504	41	4190
2026-01-20 15:41:34.50	269.75	25.95	-35.6	-36.8	18.1	0.00e+00	0	59	0	2318401536	41	4197
2026-01-20 15:41:35.51	270.05	25.95	-35.5	-36.7	18.2	0.00e+00	0	59	0	2325741568	41	4176
2026-01-20 15:41:36.53	270.36	25.94	-35.4	-36.6	18.3	0.00e+00	0	59	0	2333081600	41	4120
2026-01-20 15:41:37.54	270.67	25.94	-35.5	-36.7	18.2	0.00e+00	0	59	0	2340421632	41	4160
2026-01-20 15:41:38.55	270.97	25.93	-35.5	-36.7	18.2	0.00e+00	0	59	0	2347761664	41	4153
2026-01-20 15:41:39.56	271.28	25.93	-35.5	-36.7	18.2	0.00e+00	0	59	0	2355101696	41	4149
2026-01-20 15:41:40.57	271.59	25.92	-35.5	-36.6	18.2	0.00e+00	0	58	0	2362441728	41	4144
2026-01-20 15:41:41.58	271.89	25.91	-35.5	-36.6	18.3	0.00e+00	0	59	0	2369781760	41	4141
2026-01-20 15:41:42.59	272.20	25.90	-35.5	-36.7	18.2	0.00e+00	0	59	0	2377121792	41	4151
2026-01-20 15:41:43.59	272.50	25.90	-35.5	-36.7	18.2	0.00e+00	0	59	0	2384461824	41	4173
2026-01-20 15:41:44.60	272.80	25.89	-35.4	-36.5	18.4	0.00e+00	0	59	0	2391801856	41	4077
2026-01-20 15:41:45.61	273.11	25.87	-35.4	-36.5	18.4	0.00e+00	0	59	0	2399141888	41	4086
2026-01-20 15:41:46.62	273.41	25.86	-35.3	-36.4	18.4	0.00e+00	0	59	0	2406481920	41	4043
2026-01-20 15:41:47.63	273.72	25.85	-35.2	-36.4	18.5	0.00e+00	0	59	0	2413821952	41	4008
2026-01-20 15:41:48.64	274.02	25.84	-35.3	-36.5	18.4	0.00e+00	0	58	0	2421161984	41	4064
2026-01-20 15:41:49.65	274.32	25.82	-35.4	-36.6	18.3	0.00e+00	0	59	0	2428502016	41	4106
2026-01-20 15:41:50.66	274.63	25.81	-35.4	-36.6	18.3	0.00e+00	0	59	0	2435842048	41	4124
2026-01-20 15:41:51.67	274.93	25.79	-35.4	-36.6	18.3	0.00e+00	0	59	0	2443182080	41	4131
2026-01-20 15:41:52.68	275.23	25.77	-35.5	-36.7	18.2	0.00e+00	0	59	0	2449473536	41	4161
2026-01-20 15:41:53.69	275.54	25.76	-35.4	-36.5	18.3	0.00e+00	0	59	0	2456813568	41	4094
2026-01-20 15:41:54.70	275.84	25.74	-35.3	-36.5	18.4	0.00e+00	0	59	0	2465202176	41	4066
2026-01-20 15:41:55.71	276.14	25.72	-35.5	-36.7	18.2	0.00e+00	0	59	0	2471493632	41	4162
2026-01-20 15:41:56.72	276.44	25.70	-35.6	-36.8	18.1	0.00e+00	0	59	0	2478833664	41	4211
2026-01-20 15:41:57.73	276.74	25.68	-35.5	-36.7	18.2	0.00e+00	0	58	0	2486173696	41	4168
2026-01-20 15:41:58.74	277.04	25.65	-35.6	-36.8	18.1	0.00e+00	0	59	0	2493513728	41	4240
2026-01-20 15:41:59.75	277.34	25.63	-35.7	-36.9	18.0	0.00e+00	0	59	0	2500853760	41	4255
2026-01-20 15:42:00.75	277.64	25.61	-35.6	-36.8	18.0	0.00e+00	0	59	0	2508193792	41	4242
2026-01-20 15:42:01.76	277.94	25.58	-35.7	-36.9	18.0	0.00e+00	0	59	0	2515533824	41	4268
2026-01-20 15:42:02.77	278.24	25.56	-35.6	-36.8	18.0	0.00e+00	0	59	0	2522873856	41	4235
2026-01-20 15:42:03.78	278.53	25.53	-35.6	-36.8	18.1	0.00e+00	0	59	0	2530213888	41	4228
2026-01-20 15:42:04.79	278.83	25.51	-35.6	-36.8	18.1	0.00e+00	0	59	0	2537553920	41	4215
2026-01-20 15:42:05.80	279.13	25.48	-35.5	-36.7	18.2	0.00e+00	0	59	0	2544893952	41	4165
2026-01-20 15:42:06.81	279.43	25.45	-35.4	-36.6	18.3	0.00e+00	0	59	0	2552233984	41	4107
2026-01-20 15:42:07.82	279.72	25.42	-35.4	-36.5	18.3	0.00e+00	0	59	0	2559574016	41	4091
2026-01-20 15:42:08.83	280.02	25.39	-35.4	-36.5	18.3	0.00e+00	0	59	0	2566914048	41	4083
2026-01-20 15:42:09.84	280.31	25.36	-35.4	-36.6	18.3	0.00e+00	0	59	0	2573205504	41	4125
2026-01-20 15:42:10.85	280.61	25.33	-35.4	-36.5	18.3	0.00e+00	0	59	0	2581594112	41	4093
2026-01-20 15:42:11.86	280.90	25.30	-35.4	-36.6	18.3	0.00e+00	0	59	0	2588934144	41	4122
2026-01-20 15:42:12.87	281.19	25.27	-35.4	-36.6	18.3	0.00e+00	0	59	0	2595225600	41	4126
2026-01-20 15:42:13.88	281.49	25.23	-35.4	-36.5	18.3	0.00e+00	0	59	0	2602565632	41	4091
2026-01-20 15:42:14.89	281.78	25.20	-35.4	-36.5	18.4	0.00e+00	0	59	0	2609905664	41	4075
2026-01-20 15:42:15.90	282.07	25.16	-35.3	-36.4	18.4	0.00e+00	0	59	0	2617245696	41	4051
2026-01-20 15:42:16.91	282.36	25.13	-35.4	-36.5	18.3	0.00e+00	0	59	0	2624585728	41	4095
2026-01-20 15:42:17.92	282.65	25.09	-35.5	-36.7	18.2	0.00e+00	0	59	0	2631925760	41	4153
2026-01-20 15:42:18.93	282.94	25.06	-35.6	-36.7	18.1	0.00e+00	0	59	0	2639265792	41	4192
2026-01-20 15:42:19.94	283.23	25.02	-35.6	-36.8	18.1	0.00e+00	0	59	0	2646605824	41	4202
2026-01-20 15:42:20.95	283.52	24.98	-35.6	-36.8	18.1	0.00e+00	0	59	0	2653945856	41	4216
2026-01-20 15:42:21.96	283.81	24.94	-35.6	-36.8	18.1	0.00e+00	0	59	0	2661285888	41	4209
2026-01-20 15:42:22.97	284.09	24.90	-35.6	-36.8	18.0	0.00e+00	0	59	0	2668625920	41	4232
2026-01-20 15:42:23.98	284.38	24.86	-35.5	-36.6	18.1	0.00e+00	0	59	0	2675965952	41	4138
2026-01-20 15:42:24.99	284.66	24.82	-35.6	-36.8	18.1	0.00e+00	0	59	0	2683305984	41	4240
2026-01-20 15:42:26.00	284.95	24.78	-35.6	-36.8	18.0	0.00e+00	0	59	0	2690646016	41	4227
2026-01-20 15:42:27.01	285.23	24.74	-35.7	-36.9	18.0	0.00e+00	0	59	0	2697986048	41	4255
2026-01-20 15:42:28.02	285.52	24.69	-35.8	-37.0	17.9	0.00e+00	0	59	0	2705326080	41	4296
2026-01-20 15:42:29.03	285.80	24.65	-35.9	-37.1	17.8	0.00e+00	0	59	0	2712666112	41	4372
2026-01-20 15:42:30.04	286.08	24.60	-35.9	-37.1	17.8	0.00e+00	0	59	0	2720006144	41	4356
2026-01-20 15:42:31.05	286.36	24.56	-35.8	-37.0	17.8	0.00e+00	0	59	0	2727346176	41	4332
2026-01-20 15:42:32.06	286.64	24.51	-35.8	-37.0	17.9	0.00e+00	0	59	0	2734686208	41	4318
2026-01-20 15:42:33.07	286.92	24.47	-35.8	-37.0	17.9	0.00e+00	0	59	0	2742026240	41	4307
2026-01-20 15:42:34.08	287.20	24.42	-35.8	-37.0	17.9	0.00e+00	0	59	0	2748317696	41	4306
2026-01-20 15:42:35.09	287.47	24.37	-35.7	-36.9	18.0	0.00e+00	0	59	0	2755657728	41	4257
2026-01-20 15:42:36.10	287.75	24.33	-35.7	-36.9	18.0	0.00e+00	0	59	0	2764046336	41	4262
2026-01-20 15:42:37.11	288.03	24.28	-35.7	-36.9	18.0	0.00e+00	0	59	0	2770337792	41	4248
2026-01-20 15:42:38.12	288.30	24.23	-35.6	-36.8	18.0	0.00e+00	0	59	0	2777677824	41	4223
2026-01-20 15:42:39.13	288.58	24.18	-35.7	-36.9	18.0	0.00e+00	0	59	0	2785017856	41	4266
2026-01-20 15:42:40.14	288.85	24.13	-35.8	-37.0	17.8	0.00e+00	0	59	0	2792357888	41	4336
2026-01-20 15:42:41.15	289.12	24.08	-35.9	-37.1	17.7	0.00e+00	0	59	0	2799697920	41	4385
2026-01-20 15:42:42.16	289.39	24.02	-35.9	-37.1	17.7	0.00e+00	0	59	0	2807037952	41	4367
2026-01-20 15:42:43.17	289.66	23.97	-35.9	-37.1	17.7	0.00e+00	0	59	0	2814377984	41	4369
2026-01-20 15:42:44.18	289.93	23.92	-35.8	-37.0	17.8	0.00e+00	0	59	0	2821718016	41	4311
2026-01-20 15:42:45.19	290.20	23.87	-35.8	-37.0	17.8	0.00e+00	0	59	0	2829058048	41	4335
2026-01-20 15:42:46.20	290.47	23.81	-35.8	-37.1	17.8	0.00e+00	0	59	0	2836398080	41	4356
2026-01-20 15:42:47.21	290.74	23.76	-36.0	-37.2	17.6	0.00e+00	0	59	0	2843738112	41	4419
2026-01-20 15:42:48.22	291.00	23.70	-36.0	-37.3	17.5	0.00e+00	0	59	0	2851078144	41	4465
2026-01-20 15:42:49.22	291.27	23.65	-36.2	-37.4	17.4	0.00e+00	0	59	0	2858418176	41	4541
2026-01-20 15:42:50.23	291.53	23.59	-36.2	-37.5	17.3	0.00e+00	0	59	0	2865758208	42	4312
2026-01-20 15:42:51.24	291.79	23.54	-36.1	-37.4	17.5	0.00e+00	0	59	0	2872049664	42	4261
2026-01-20 15:42:52.25	292.06	23.48	-36.0	-37.3	17.6	0.00e+00	0	59	0	2880438272	42	4209
2026-01-20 15:42:53.26	292.32	23.42	-36.0	-37.2	17.6	0.00e+00	0	59	0	2887778304	42	4174
2026-01-20 15:42:54.27	292.58	23.37	-36.0	-37.2	17.6	0.00e+00	0	59	0	2894069760	42	4167
2026-01-20 15:42:55.28	292.84	23.31	-36.0	-37.2	17.6	0.00e+00	0	59	0	2901409792	42	4169
2026-01-20 15:42:56.29	293.10	23.25	-35.9	-37.1	17.8	0.00e+00	0	59	0	2908749824	42	4110
2026-01-20 15:42:57.30	293.35	23.19	-35.7	-37.0	17.9	0.00e+00	0	59	0	2916089856	42	4053
2026-01-20 15:42:58.31	293.61	23.13	-35.8	-37.0	17.8	0.00e+00	0	59	0	2923429888	42	4084
2026-01-20 15:42:59.32	293.87	23.07	-35.8	-37.1	17.8	0.00e+00	0	59	0	2930769920	42	4103
2026-01-20 15:43:00.33	294.12	23.01	-35.9	-37.1	17.7	0.00e+00	0	59	0	2938109952	42	4132
2026-01-20 15:43:01.34	294.37	22.95	-35.9	-37.2	17.7	0.00e+00	0	59	0	2945449984	42	4150
2026-01-20 15:43:02.35	294.63	22.89	-35.8	-37.0	17.8	0.00e+00	0	59	0	2952790016	42	4078
2026-01-20 15:43:03.36	294.88	22.83	-35.9	-37.2	17.6	0.00e+00	0	59	0	2960130048	42	4161
2026-01-20 15:43:04.37	295.13	22.76	-36.0	-37.3	17.5	0.00e+00	0	59	0	2967470080	42	4197
2026-01-20 15:43:05.38	295.38	22.70	-36.1	-37.4	17.4	0.00e+00	0	59	0	2974810112	42	4243
2026-01-20 15:43:06.39	295.63	22.64	-36.1	-37.4	17.4	0.00e+00	0	59	0	2982150144	42	4261
2026-01-20 15:43:07.40	295.88	22.58	-36.2	-37.4	17.3	0.00e+00	0	59	0	2989490176	42	4291
2026-01-20 15:43:08.41	296.12	22.51	-36.2	-37.5	17.3	0.00e+00	0	59	0	2996830208	42	4316
2026-01-20 15:43:09.42	296.37	22.45	-36.2	-37.5	17.3	0.00e+00	0	59	0	3004170240	42	4334
2026-01-20 15:43:10.43	296.61	22.38	-36.4	-37.6	17.2	0.00e+00	0	59	0	3011510272	42	4391
2026-01-20 15:43:11.44	296.86	22.32	-36.3	-37.6	17.2	0.00e+00	0	59	0	3018850304	42	4379
2026-01-20 15:43:12.45	297.10	22.25	-36.4	-37.6	17.2	0.00e+00	0	59	0	3026190336	42	4389
2026-01-20 15:43:13.46	297.34	22.19	-36.4	-37.7	17.1	0.00e+00	0	59	0	3033530368	42	4405
2026-01-20 15:43:14.47	297.58	22.12	-36.3	-37.6	17.2	0.00e+00	0	59	0	3040870400	42	4358
2026-01-20 15:43:15.48	297.82	22.06	-36.2	-37.5	17.3	0.00e+00	0	59	0	3047161856	42	4325
2026-01-20 15:43:16.49	298.06	21.99	-36.3	-37.6	17.3	0.00e+00	0	59	0	3054501888	42	4341
2026-01-20 15:43:17.50	298.30	21.92	-36.2	-37.5	17.3	0.00e+00	0	59	0	3062890496	42	4306
2026-01-20 15:43:18.51	298.54	21.86	-36.2	-37.4	17.3	0.00e+00	0	59	0	3069181952	42	4287
2026-01-20 15:43:19.52	298.77	21.79	-36.2	-37.5	17.3	0.00e+00	0	59	0	3076521984	42	4321
2026-01-20 15:43:20.53	299.01	21.72	-36.3	-37.6	17.2	0.00e+00	0	59	0	3083862016	42	4364
2026-01-20 15:43:21.54	299.24	21.65	-36.4	-37.7	17.0	0.00e+00	0	59	0	3091202048	42	4431
2026-01-20 15:43:22.55	299.47	21.59	-36.3	-37.6	17.2	0.00e+00	0	59	0	3098542080	42	4366
2026-01-20 15:43:23.56	299.70	21.52	-36.4	-37.7	17.0	0.00e+00	0	59	0	3105882112	42	4423
2026-01-20 15:43:24.57	299.94	21.45	-36.3	-37.6	17.2	0.00e+00	0	59	0	3113222144	42	4363
2026-01-20 15:43:25.58	300.16	21.38	-36.3	-37.6	17.2	0.00e+00	0	59	0	3120562176	42	4343
2026-01-20 15:43:26.59	300.39	21.31	-36.2	-37.5	17.3	0.00e+00	0	59	0	3127902208	42	4294
2026-01-20 15:43:27.60	300.62	21.24	-36.2	-37.5	17.3	0.00e+00	0	59	0	3135242240	42	4323
2026-01-20 15:43:28.61	300.85	21.17	-36.3	-37.6	17.2	0.00e+00	0	59	0	3142582272	42	4359
2026-01-20 15:43:29.62	301.07	21.10	-36.4	-37.7	17.1	0.00e+00	0	59	0	3149922304	42	4417
2026-01-20 15:43:30.63	301.30	21.03	-36.4	-37.7	17.0	0.00e+00	0	59	0	3157262336	42	4427
2026-01-20 15:43:31.64	301.52	20.96	-36.4	-37.7	17.0	0.00e+00	0	59	0	3164602368	42	4439
2026-01-20 15:43:32.65	301.74	20.89	-36.5	-37.8	16.9	0.00e+00	0	59	0	3171942400	42	4489
2026-01-20 15:43:33.66	301.97	20.82	-36.5	-37.9	16.9	0.00e+00	0	59	0	3179282432	42	4512
2026-01-20 15:43:34.67	302.19	20.75	-36.6	-37.9	16.8	0.00e+00	0	59	0	3186622464	42	4535
2026-01-20 15:43:35.68	302.41	20.67	-36.5	-37.8	17.0	0.00e+00	0	59	0	3192913920	42	4472
2026-01-20 15:43:36.68	302.62	20.60	-36.4	-37.7	17.0	0.00e+00	0	59	0	3200253952	42	4412
2026-01-20 15:43:37.69	302.84	20.53	-36.4	-37.7	17.0	0.00e+00	0	59	0	3207593984	42	4429
2026-01-20 15:43:38.70	303.06	20.46	-36.4	-37.8	17.0	0.00e+00	0	59	0	3214934016	42	4445
2026-01-20 15:43:39.72	303.28	20.39	-36.4	-37.7	17.0	0.00e+00	0	59	0	3222274048	42	4439
2026-01-20 15:43:40.73	303.49	20.31	-36.4	-37.7	17.0	0.00e+00	0	59	0	3229614080	42	4411
2026-01-20 15:43:41.74	303.70	20.24	-36.3	-37.6	17.1	0.00e+00	0	59	0	3236954112	42	4387
2026-01-20 15:43:42.75	303.92	20.17	-36.3	-37.5	17.2	0.00e+00	0	59	0	3244294144	42	4334
2026-01-20 15:43:43.76	304.13	20.10	-36.3	-37.6	17.2	0.00e+00	0	59	0	3251634176	42	4355
2026-01-20 15:43:44.76	304.34	20.02	-36.3	-37.6	17.1	0.00e+00	0	59	0	3258974208	42	4389
2026-01-20 15:43:45.77	304.55	19.95	-36.4	-37.7	17.1	0.00e+00	0	59	0	3266314240	42	4400
2026-01-20 15:43:46.78	304.76	19.88	-36.5	-37.8	16.9	0.00e+00	0	59	0	3273654272	42	4471
2026-01-20 15:43:47.79	304.96	19.80	-36.6	-37.9	16.8	0.00e+00	0	59	0	3280994304	42	4541
2026-01-20 15:43:48.80	305.17	19.73	-36.7	-38.1	16.7	0.00e+00	0	59	0	3288334336	43	4347
2026-01-20 15:43:49.81	305.38	19.65	-36.8	-38.2	16.5	0.00e+00	0	59	0	3295674368	43	4437
2026-01-20 15:43:50.82	305.58	19.58	-36.8	-38.2	16.5	0.00e+00	0	59	0	3303014400	43	4433
2026-01-20 15:43:51.83	305.78	19.51	-36.9	-38.3	16.5	0.00e+00	0	59	0	3310354432	43	4460
2026-01-20 15:43:52.84	305.99	19.43	-36.9	-38.3	16.4	0.00e+00	0	59	0	3317694464	43	4467
2026-01-20 15:43:53.85	306.19	19.36	-36.9	-38.3	16.5	0.00e+00	0	59	0	3325034496	43	4442
2026-01-20 15:43:54.86	306.39	19.28	-36.9	-38.3	16.4	0.00e+00	0	59	0	3332374528	43	4478
2026-01-20 15:43:55.87	306.59	19.21	-36.9	-38.3	16.4	0.00e+00	0	59	0	3339714560	43	4483
2026-01-20 15:43:56.88	306.79	19.13	-36.8	-38.3	16.5	0.00e+00	0	59	0	3346006016	43	4443
2026-01-20 15:43:57.89	306.99	19.06	-36.9	-38.3	16.4	0.00e+00	0	59	0	3353346048	43	4460
2026-01-20 15:43:58.90	307.19	18.98	-36.9	-38.3	16.4	0.00e+00	0	59	0	3361734656	43	4464
2026-01-20 15:43:59.91	307.38	18.91	-36.9	-38.3	16.4	0.00e+00	0	59	0	3368026112	43	4481
2026-01-20 15:44:00.92	307.58	18.83	-36.9	-38.3	16.4	0.00e+00	0	59	0	3375366144	43	4474
2026-01-20 15:44:01.93	307.77	18.76	-36.9	-38.3	16.4	0.00e+00	0	59	0	3382706176	43	4456
2026-01-20 15:44:02.94	307.96	18.68	-36.9	-38.3	16.4	0.00e+00	0	59	0	3390046208	43	4461
2026-01-20 15:44:03.94	308.16	18.61	-36.8	-38.2	16.5	0.00e+00	0	59	0	3397386240	43	4428
2026-01-20 15:44:04.95	308.35	18.53	-37.0	-38.4	16.3	0.00e+00	0	59	0	3404726272	43	4519
2026-01-20 15:44:05.96	308.54	18.46	-36.8	-38.2	16.5	0.00e+00	0	59	0	3412066304	43	4392
2026-01-20 15:44:06.97	308.73	18.38	-36.8	-38.1	16.6	0.00e+00	0	59	0	3419406336	43	4381
2026-01-20 15:44:07.98	308.92	18.31	-36.8	-38.2	16.4	0.00e+00	0	59	0	3426746368	43	4418
2026-01-20 15:44:08.99	309.10	18.23	-36.8	-38.2	16.5	0.00e+00	0	59	0	3434086400	43	4427
2026-01-20 15:44:10.00	309.29	18.15	-36.8	-38.2	16.5	0.00e+00	0	59	0	3441426432	43	4415
2026-01-20 15:44:11.01	309.48	18.08	-36.9	-38.3	16.4	0.00e+00	0	59	0	3448766464	43	4463
2026-01-20 15:44:12.02	309.66	18.00	-37.0	-38.5	16.2	0.00e+00	0	59	0	3456106496	43	4547
2026-01-20 15:44:13.03	309.85	17.93	-37.1	-38.5	16.2	0.00e+00	0	59	0	3463446528	43	4566
2026-01-20 15:44:14.03	310.03	17.85	-37.1	-38.5	16.1	0.00e+00	0	59	0	3470786560	43	4579
2026-01-20 15:44:15.04	310.21	17.78	-37.2	-38.6	16.0	0.00e+00	0	59	0	3477078016	43	4634
2026-01-20 15:44:16.06	310.39	17.70	-37.4	-38.9	15.9	0.00e+00	0	59	0	3485466624	44	4503
2026-01-20 15:44:17.06	310.57	17.62	-37.4	-38.9	15.9	0.00e+00	0	59	0	3492806656	44	4511
2026-01-20 15:44:18.07	310.75	17.55	-37.4	-38.8	16.0	0.00e+00	0	59	0	3499098112	44	4476
2026-01-20 15:44:19.08	310.93	17.47	-37.3	-38.8	16.0	0.00e+00	0	59	0	3506438144	44	4456
2026-01-20 15:44:20.10	311.11	17.39	-37.3	-38.7	16.1	0.00e+00	0	59	0	3513778176	44	4438
2026-01-20 15:44:21.11	311.29	17.32	-37.2	-38.6	16.2	0.00e+00	0	59	0	3521118208	44	4353
2026-01-20 15:44:22.12	311.46	17.24	-37.0	-38.4	16.4	0.00e+00	0	59	0	3528458240	44	4282
2026-01-20 15:44:23.12	311.64	17.17	-36.9	-38.3	16.5	0.00e+00	0	59	0	3535798272	44	4238
2026-01-20 15:44:24.13	311.81	17.09	-37.0	-38.4	16.4	0.00e+00	0	59	0	3543138304	44	4249
2026-01-20 15:44:25.14	311.99	17.01	-36.9	-38.3	16.5	0.00e+00	0	59	0	3550478336	44	4233
2026-01-20 15:44:26.15	312.16	16.94	-37.0	-38.4	16.4	0.00e+00	0	59	0	3557818368	44	4283
2026-01-20 15:44:27.16	312.33	16.86	-37.1	-38.5	16.3	0.00e+00	0	59	0	3565158400	44	4316
2026-01-20 15:44:28.17	312.50	16.78	-37.1	-38.5	16.3	0.00e+00	0	59	0	3572498432	44	4338
2026-01-20 15:44:29.17	312.67	16.71	-37.2	-38.6	16.2	0.00e+00	0	59	0	3579838464	44	4361
2026-01-20 15:44:30.18	312.84	16.63	-37.3	-38.7	16.1	0.00e+00	0	59	0	3587178496	44	4428
2026-01-20 15:44:31.20	313.01	16.55	-37.4	-38.9	15.9	0.00e+00	0	59	0	3594518528	44	4516
2026-01-20 15:44:32.21	313.18	16.48	-37.5	-39.0	15.8	0.00e+00	0	59	0	3601858560	44	4579
2026-01-20 15:44:33.22	313.34	16.40	-37.7	-39.3	15.5	0.00e+00	0	59	0	3609198592	44	4716
2026-01-20 15:44:34.22	313.51	16.33	-37.7	-39.3	15.5	0.00e+00	0	59	0	3616538624	45	4471
2026-01-20 15:44:35.23	313.67	16.25	-37.9	-39.5	15.2	0.00e+00	0	59	0	3622830080	45	4574
2026-01-20 15:44:36.24	313.84	16.17	-38.0	-39.7	15.1	0.00e+00	0	59	0	3630170112	45	4657
2026-01-20 15:44:37.25	314.00	16.10	-38.0	-39.6	15.2	0.00e+00	0	59	0	3638558720	45	4609
2026-01-20 15:44:38.26	314.17	16.02	-38.0	-39.6	15.2	0.00e+00	0	59	0	3644850176	45	4602
2026-01-20 15:44:39.27	314.33	15.95	-37.9	-39.5	15.3	0.00e+00	0	59	0	3652190208	45	4563
2026-01-20 15:44:40.28	314.49	15.87	-37.7	-39.3	15.5	0.00e+00	0	59	0	3659530240	45	4460
2026-01-20 15:44:41.29	314.65	15.79	-37.7	-39.3	15.4	0.00e+00	0	59	0	3666870272	45	4442
2026-01-20 15:44:42.31	314.81	15.72	-37.6	-39.1	15.7	0.00e+00	0	59	0	3674210304	45	4350
2026-01-20 15:44:43.32	314.97	15.64	-37.5	-39.0	15.7	0.00e+00	0	59	0	3681550336	45	4321
2026-01-20 15:44:44.33	315.13	15.56	-37.4	-38.9	15.8	0.00e+00	0	59	0	3688890368	45	4288
2026-01-20 15:44:45.33	315.28	15.49	-37.5	-39.0	15.7	0.00e+00	0	59	0	3696230400	45	4303
2026-01-20 15:44:46.34	315.44	15.41	-37.4	-38.9	15.8	0.00e+00	0	59	0	3703570432	45	4246
2026-01-20 15:44:47.35	315.60	15.34	-37.5	-39.0	15.7	0.00e+00	0	59	0	3710910464	45	4296
2026-01-20 15:44:48.36	315.75	15.26	-37.3	-38.8	15.9	0.00e+00	0	59	0	3718250496	45	4227
2026-01-20 15:44:49.38	315.91	15.19	-37.3	-38.8	15.9	0.00e+00	0	59	0	3725590528	45	4205
2026-01-20 15:44:50.39	316.06	15.11	-37.3	-38.8	15.9	0.00e+00	0	59	0	3732930560	45	4194
2026-01-20 15:44:51.40	316.21	15.03	-37.4	-38.8	15.9	0.00e+00	0	59	0	3740270592	45	4236
2026-01-20 15:44:52.41	316.36	14.96	-37.4	-38.9	15.8	0.00e+00	0	59	0	3747610624	45	4277
2026-01-20 15:44:53.42	316.52	14.88	-37.5	-39.1	15.6	0.00e+00	0	59	0	3754950656	45	4345
2026-01-20 15:44:54.42	316.66	14.81	-37.6	-39.2	15.5	0.00e+00	0	59	0	3762290688	45	4419
2026-01-20 15:44:55.43	316.81	14.73	-37.8	-39.4	15.3	0.00e+00	0	59	0	3769630720	45	4502
2026-01-20 15:44:56.44	316.96	14.66	-37.9	-39.5	15.1	0.00e+00	0	59	0	3775922176	45	4574
2026-01-20 15:44:57.45	317.11	14.58	-38.1	-39.8	14.9	0.00e+00	0	59	0	3784310784	45	4721
2026-01-20 15:44:58.46	317.26	14.51	-38.2	-39.9	14.7	0.00e+00	0	59	0	3791650816	45	4788
2026-01-20 15:44:59.47	317.41	14.43	-38.3	-40.1	14.6	0.00e+00	0	59	0	3797942272	46	4613
2026-01-20 15:45:00.48	317.55	14.36	-38.3	-40.1	14.6	0.00e+00	0	59	0	3805282304	46	4599
2026-01-20 15:45:01.49	317.70	14.28	-38.4	-40.1	14.5	1.10e-06	0	59	0	3812622336	46	4638
2026-01-20 15:45:02.50	317.84	14.21	-38.3	-40.0	14.6	0.00e+00	0	59	0	3819962368	46	4597
2026-01-20 15:45:03.52	317.99	14.13	-38.3	-40.0	14.6	0.00e+00	0	59	0	3827302400	46	4598
2026-01-20 15:45:04.53	318.13	14.05	-38.2	-39.9	14.7	0.00e+00	0	59	0	3834642432	46	4536
2026-01-20 15:45:05.53	318.27	13.98	-38.2	-39.9	14.8	0.00e+00	0	59	0	3841982464	46	4511
2026-01-20 15:45:06.54	318.41	13.91	-38.0	-39.7	14.9	1.10e-06	0	59	0	3849322496	46	4395
2026-01-20 15:45:07.56	318.56	13.83	-38.0	-39.6	15.0	0.00e+00	0	59	0	3856662528	46	4381
2026-01-20 15:45:08.56	318.70	13.76	-37.9	-39.5	15.1	1.10e-06	0	59	0	3864002560	46	4321
2026-01-20 15:45:09.58	318.84	13.68	-37.9	-39.5	15.1	0.00e+00	0	59	0	3871342592	46	4321
2026-01-20 15:45:10.58	318.97	13.61	-37.7	-39.3	15.3	1.10e-06	0	59	0	3878682624	46	4226
2026-01-20 15:45:11.59	319.11	13.53	-37.8	-39.4	15.2	0.00e+00	0	59	0	3886022656	46	4264
2026-01-20 15:45:12.60	319.25	13.46	-37.8	-39.4	15.2	0.00e+00	0	59	0	3893362688	46	4255
2026-01-20 15:45:13.61	319.39	13.38	-37.7	-39.3	15.3	1.10e-06	0	59	0	3900702720	46	4200
2026-01-20 15:45:14.62	319.52	13.31	-37.8	-39.4	15.2	0.00e+00	0	59	0	3908042752	46	4287
2026-01-20 15:45:15.63	319.66	13.24	-37.7	-39.3	15.3	0.00e+00	0	59	0	3915382784	46	4201
2026-01-20 15:45:16.64	319.80	13.16	-37.7	-39.3	15.2	0.00e+00	0	59	0	3921674240	46	4226
2026-01-20 15:45:17.65	319.93	13.09	-37.8	-39.4	15.2	0.00e+00	0	59	0	3930062848	46	4265
2026-01-20 15:45:18.65	320.06	13.02	-37.8	-39.4	15.1	0.00e+00	0	59	0	3937402880	46	4283
2026-01-20 15:45:19.66	320.20	12.94	-37.9	-39.5	15.0	0.00e+00	0	59	0	3943694336	46	4338
2026-01-20 15:45:20.67	320.33	12.87	-37.9	-39.5	15.0	0.00e+00	0	59	0	3951034368	46	4322
2026-01-20 15:45:21.68	320.46	12.79	-37.9	-39.6	14.9	0.00e+00	0	59	0	3958374400	46	4364
2026-01-20 15:45:22.70	320.59	12.72	-38.0	-39.7	14.8	0.00e+00	0	59	0	3965714432	46	4429
2026-01-20 15:45:23.70	320.72	12.65	-38.2	-39.9	14.7	0.00e+00	0	59	0	3973054464	46	4497
2026-01-20 15:45:24.72	320.85	12.57	-38.3	-40.0	14.5	1.10e-06	0	59	0	3980394496	46	4571
2026-01-20 15:45:25.73	320.98	12.50	-38.3	-40.0	14.5	0.00e+00	0	59	0	3987734528	46	4567
2026-01-20 15:45:26.74	321.11	12.43	-38.2	-40.0	14.6	0.00e+00	0	59	0	3995074560	46	4552
2026-01-20 15:45:27.75	321.24	12.35	-38.3	-40.0	14.5	2.20e-06	0	59	0	4002414592	46	4589
2026-01-20 15:45:28.76	321.37	12.28	-38.3	-40.1	14.5	0.00e+00	0	59	0	4009754624	46	4611
2026-01-20 15:45:29.76	321.49	12.21	-38.3	-40.1	14.4	0.00e+00	0	59	0	4017094656	46	4614
2026-01-20 15:45:30.78	321.62	12.14	-38.4	-40.2	14.3	1.10e-06	0	59	0	4024434688	46	4669
2026-01-20 15:45:31.78	321.75	12.06	-38.3	-40.0	14.4	1.10e-06	0	59	0	4031774720	46	4590
2026-01-20 15:45:32.79	321.87	11.99	-38.4	-40.2	14.3	0.00e+00	0	59	0	4039114752	46	4663
2026-01-20 15:45:33.80	322.00	11.92	-38.4	-40.2	14.2	1.10e-06	0	59	0	4046454784	46	4692
2026-01-20 15:45:34.81	322.12	11.85	-38.4	-40.2	14.3	0.00e+00	0	59	0	4053794816	46	4687
2026-01-20 15:45:35.82	322.24	11.77	-38.3	-40.1	14.4	2.20e-06	0	59	0	4061134848	46	4625
2026-01-20 15:45:36.83	322.37	11.70	-38.3	-40.0	14.4	1.10e-06	0	59	0	4068474880	46	4598
2026-01-20 15:45:37.84	322.49	11.63	-38.4	-40.1	14.3	0.00e+00	0	59	0	4074766336	46	4645
2026-01-20 15:45:38.85	322.61	11.56	-38.3	-40.1	14.4	4.50e-06	0	59	0	4083154944	46	4616
2026-01-20 15:45:39.86	322.73	11.49	-38.4	-40.2	14.2	1.10e-06	0	59	0	4090494976	46	4677
2026-01-20 15:45:40.87	322.85	11.42	-38.5	-40.3	14.2	0.00e+00	0	59	0	4096786432	46	4708
2026-01-20 15:45:41.88	322.97	11.34	-38.2	-39.9	14.5	2.20e-06	0	59	0	4104126464	46	4530
2026-01-20 15:45:42.89	323.09	11.27	-38.2	-40.0	14.4	1.10e-06	0	59	0	4111466496	46	4566
2026-01-20 15:45:43.90	323.21	11.20	-38.3	-40.0	14.4	2.20e-06	0	59	0	4118806528	46	4585
2026-01-20 15:45:44.91	323.33	11.13	-38.3	-40.1	14.4	1.10e-06	0	59	0	4126146560	46	4626
2026-01-20 15:45:45.92	323.45	11.06	-38.3	-40.1	14.3	2.20e-06	0	59	0	4133486592	46	4629
2026-01-20 15:45:46.93	323.56	10.99	-38.3	-40.1	14.3	0.00e+00	0	59	0	4140826624	46	4627
2026-01-20 15:45:47.94	323.68	10.92	-38.4	-40.2	14.3	3.40e-06	0	59	0	4148166656	46	4658
2026-01-20 15:45:48.95	323.80	10.85	-38.3	-40.1	14.3	1.10e-06	0	59	0	4155506688	46	4628
2026-01-20 15:45:49.96	323.91	10.77	-38.4	-40.2	14.2	1.10e-06	0	59	0	4162846720	46	4662
2026-01-20 15:45:50.97	324.03	10.70	-38.4	-40.3	14.1	4.50e-06	0	59	0	4170186752	46	4714
2026-01-20 15:45:51.98	324.14	10.63	-38.4	-40.2	14.1	2.20e-06	0	59	0	4177526784	46	4677
2026-01-20 15:45:52.98	324.25	10.56	-38.5	-40.3	14.1	2.20e-06	0	59	0	4184866816	46	4742
2026-01-20 15:45:53.99	324.37	10.49	-38.5	-40.3	14.0	0.00e+00	0	59	0	4192206848	46	4757
2026-01-20 15:45:55.01	324.48	10.42	-38.5	-40.4	14.0	2.20e-06	0	59	0	4199546880	46	4770
2026-01-20 15:45:56.01	324.59	10.35	-38.5	-40.4	14.0	3.40e-06	0	59	0	4206886912	46	4762
2026-01-20 15:45:57.03	324.70	10.28	-38.5	-40.4	13.9	1.10e-06	0	59	0	4214226944	46	4791
2026-01-20 15:45:58.04	324.82	10.21	-38.5	-40.3	14.0	2.20e-06	0	59	0	4220518400	46	4754
2026-01-20 15:45:59.05	324.93	10.14	-38.5	-40.4	13.9	4.50e-06	0	59	0	4228907008	46	4791
2026-01-20 15:46:00.06	325.04	10.07	-38.5	-40.4	14.0	3.40e-06	0	59	0	4236247040	46	4763
2026-01-20 15:46:01.06	325.15	10.00	-38.6	-40.5	13.8	6.80e-06	0	59	0	4242538496	46	4818
2026-01-20 15:46:02.07	325.26	9.93	-38.6	-40.6	13.7	6.80e-06	0	59	0	4249878528	47	4607
2026-01-20 15:46:03.09	325.37	9.86	-38.7	-40.7	13.6	8.00e-06	0	59	0	4257218560	47	4664
2026-01-20 15:46:04.10	325.47	9.79	-38.6	-40.5	13.7	3.40e-06	0	59	0	4264558592	47	4576
2026-01-20 15:46:05.10	325.58	9.73	-38.8	-40.7	13.5	1.83e-05	0	59	0	4271898624	47	4690
2026-01-20 15:46:06.11	325.69	9.66	-38.6	-40.5	13.7	1.14e-05	0	59	0	4279238656	47	4575
2026-01-20 15:46:07.12	325.79	9.59	-38.8	-40.8	13.4	1.25e-05	0	59	0	4286578688	47	4712
2026-01-20 15:46:08.14	325.90	9.52	-38.9	-40.9	13.3	1.02e-05	0	59	0	4293918720	47	4801
2026-01-20 15:46:09.15	326.01	9.45	-38.8	-40.8	13.4	1.37e-05	0	59	0	4301258752	47	4734
2026-01-20 15:46:10.16	326.11	9.38	-38.9	-41.0	13.2	2.86e-05	0	59	0	4308598784	47	4842
2026-01-20 15:46:11.17	326.22	9.31	-39.0	-41.1	13.1	4.23e-05	0	59	0	4315938816	47	4882
2026-01-20 15:46:12.18	326.32	9.24	-39.1	-41.1	13.0	4.46e-05	0	59	0	4323278848	47	4920
2026-01-20 15:46:13.19	326.43	9.18	-39.0	-41.1	13.0	3.31e-05	0	59	0	4330618880	47	4884
2026-01-20 15:46:14.20	326.53	9.11	-39.0	-41.0	13.1	1.94e-05	0	59	0	4337958912	47	4857
2026-01-20 15:46:15.21	326.63	9.04	-39.0	-41.1	13.0	4.00e-05	0	59	0	4345298944	47	4895
2026-01-20 15:46:16.21	326.74	8.97	-39.1	-41.1	13.0	3.43e-05	0	59	0	4352638976	47	4926
2026-01-20 15:46:17.22	326.84	8.90	-38.9	-40.9	13.2	3.08e-05	0	59	0	4359979008	47	4801
2026-01-20 15:46:18.23	326.94	8.84	-39.0	-41.1	13.1	4.34e-05	0	59	0	4367319040	47	4878
2026-01-20 15:46:19.24	327.04	8.77	-39.0	-41.1	13.0	4.00e-05	0	59	0	4373610496	47	4894
2026-01-20 15:46:20.25	327.14	8.70	-39.0	-41.0	13.1	3.54e-05	0	59	0	4381999104	47	4854
2026-01-20 15:46:21.26	327.24	8.63	-38.9	-41.0	13.1	3.77e-05	0	59	0	4389339136	47	4849
2026-01-20 15:46:22.27	327.34	8.57	-39.0	-41.0	13.0	4.57e-05	0	59	0	4395630592	47	4870
2026-01-20 15:46:23.29	327.44	8.50	-39.0	-41.1	12.9	5.95e-05	0	59	0	4402970624	47	4921
2026-01-20 15:46:24.29	327.54	8.43	-39.0	-41.1	12.9	7.09e-05	0	59	0	4410310656	47	4915
2026-01-20 15:46:25.30	327.64	8.36	-39.0	-41.0	13.0	3.77e-05	0	59	0	4417650688	47	4861
2026-01-20 15:46:26.31	327.74	8.30	-38.9	-41.0	13.0	4.11e-05	0	59	0	4424990720	47	4860
2026-01-20 15:46:27.33	327.84	8.23	-38.9	-41.0	13.0	4.57e-05	0	59	0	4432330752	47	4820
2026-01-20 15:46:28.33	327.93	8.16	-38.9	-41.0	13.0	5.72e-05	0	59	0	4439670784	47	4868
2026-01-20 15:46:29.34	328.03	8.10	-38.9	-41.0	13.0	4.00e-05	0	59	0	4447010816	47	4853
2026-01-20 15:46:30.35	328.13	8.03	-39.8	-41.7	12.6	5.03e-05	0	59	0	4454350848	48	4956
