passes_logs/2026/01/20/R2.0S_Moscow/R2.0S_Moscow__20260120_003903_FENGYUN_3D_rec.log

#Pass ID: 20260120_003903_FENGYUN 3D
#Satellite: FENGYUN 3D
#Configuration: FENGYUN 3D
#almurnet v.1.7.20251203
#Start time: 2026-01-20 00:39:04

#Version: 2.2.20231116
#Station: R2.0S_Moscow
#Location: 37.707566 lon 55.798166 lat
#TLE: 1 43010U 17072A   26019.30265705  .00000224  00000+0  12791-3 0  9991
#TLE: 2 43010  98.9940 351.1850 0002428 100.8496 259.2953 14.19697535423864

#Time	Az	El	Level	Level2	SNR	BER	BlckErr	Temp	State	Recorded	gain1	gain2
2026-01-20 00:39:04.54	22.76	2.05	-42.3	-54.4	3.8	8.46e-01	0	53	0	0	56	14362
2026-01-20 00:39:05.54	22.81	2.11	-42.2	-54.2	3.8	8.48e-01	0	53	104	0	55	14878
2026-01-20 00:39:06.55	22.87	2.17	-42.2	-54.2	3.8	8.46e-01	0	53	104	0	55	14856
2026-01-20 00:39:07.56	22.92	2.23	-42.2	-54.3	3.8	8.46e-01	0	53	104	0	55	14909
2026-01-20 00:39:08.57	22.98	2.29	-42.2	-54.3	3.8	8.45e-01	0	53	104	0	55	14900
2026-01-20 00:39:09.58	23.03	2.35	-42.2	-54.3	3.8	8.47e-01	0	53	104	0	55	14884
2026-01-20 00:39:10.59	23.09	2.41	-42.2	-54.3	3.8	8.46e-01	0	53	104	0	55	14903
2026-01-20 00:39:11.60	23.14	2.47	-42.2	-54.3	3.8	8.47e-01	0	53	104	0	55	14881
2026-01-20 00:39:12.61	23.20	2.53	-42.2	-54.2	3.8	8.46e-01	0	53	104	0	55	14866
2026-01-20 00:39:13.63	23.26	2.59	-42.1	-54.3	3.8	8.46e-01	0	53	104	0	55	14893
2026-01-20 00:39:14.64	23.31	2.65	-42.2	-54.2	3.8	8.46e-01	0	54	104	0	55	14834
2026-01-20 00:39:15.65	23.37	2.71	-42.2	-54.3	3.8	8.46e-01	0	54	104	0	55	14888
2026-01-20 00:39:16.66	23.43	2.77	-42.2	-54.2	3.8	8.45e-01	0	54	104	0	55	14854
2026-01-20 00:39:17.67	23.48	2.83	-42.2	-54.3	3.8	8.46e-01	0	54	104	0	55	14886
2026-01-20 00:39:18.68	23.54	2.89	-42.2	-54.2	3.8	8.45e-01	0	54	104	0	55	14817
2026-01-20 00:39:19.69	23.60	2.95	-42.2	-54.3	3.8	8.46e-01	0	54	104	0	55	14905
2026-01-20 00:39:20.70	23.66	3.01	-42.2	-54.2	3.8	8.45e-01	0	54	104	0	55	14854
2026-01-20 00:39:21.71	23.71	3.08	-42.2	-54.3	3.8	8.45e-01	0	54	104	0	55	14893
2026-01-20 00:39:22.72	23.77	3.14	-42.2	-54.2	3.8	8.45e-01	0	54	104	0	55	14867
2026-01-20 00:39:23.73	23.83	3.20	-42.2	-54.2	3.8	8.46e-01	0	54	104	0	55	14838
2026-01-20 00:39:24.74	23.89	3.26	-42.2	-54.2	3.8	8.47e-01	0	54	104	0	55	14849
2026-01-20 00:39:25.75	23.95	3.32	-42.2	-54.3	3.8	8.46e-01	0	54	104	0	55	14893
2026-01-20 00:39:26.76	24.01	3.38	-42.2	-54.3	3.8	8.46e-01	0	55	104	0	55	14915
2026-01-20 00:39:27.77	24.07	3.44	-42.2	-54.3	3.8	8.46e-01	0	55	104	0	55	14915
2026-01-20 00:39:28.78	24.13	3.51	-42.2	-54.3	3.8	8.47e-01	0	55	104	0	55	14922
2026-01-20 00:39:29.79	24.19	3.57	-42.2	-54.2	3.8	8.46e-01	0	55	104	0	55	14872
2026-01-20 00:39:30.80	24.25	3.63	-42.2	-54.3	3.8	8.47e-01	0	55	104	0	55	14928
2026-01-20 00:39:31.81	24.31	3.69	-42.2	-54.2	3.8	8.45e-01	0	55	104	0	55	14853
2026-01-20 00:39:32.82	24.37	3.76	-42.2	-54.2	3.8	8.46e-01	0	55	104	0	55	14845
2026-01-20 00:39:33.83	24.43	3.82	-42.2	-54.2	3.8	8.46e-01	0	55	104	0	55	14818
2026-01-20 00:39:34.84	24.49	3.88	-42.2	-54.3	3.8	8.46e-01	0	55	104	0	55	14945
2026-01-20 00:39:35.85	24.55	3.94	-42.2	-54.2	3.8	8.46e-01	0	55	104	0	55	14817
2026-01-20 00:39:36.86	24.61	4.01	-42.2	-54.3	3.8	8.46e-01	0	55	104	0	55	14904
2026-01-20 00:39:37.88	24.67	4.07	-42.2	-54.2	3.8	8.46e-01	0	55	104	0	55	14825
2026-01-20 00:39:38.88	24.73	4.13	-42.1	-54.2	3.8	8.46e-01	0	55	104	0	55	14866
2026-01-20 00:39:39.90	24.80	4.20	-42.2	-54.2	3.8	8.46e-01	0	55	104	0	55	14861
2026-01-20 00:39:40.91	24.86	4.26	-42.2	-54.3	3.8	8.46e-01	0	55	104	0	55	14953
2026-01-20 00:39:41.92	24.92	4.32	-42.2	-54.2	3.8	8.46e-01	0	55	104	0	55	14871
2026-01-20 00:39:42.93	24.98	4.39	-42.2	-54.2	3.8	8.46e-01	0	55	104	0	55	14805
2026-01-20 00:39:43.94	25.05	4.45	-42.2	-54.3	3.8	8.45e-01	0	55	104	0	55	14935
2026-01-20 00:39:44.95	25.11	4.51	-42.2	-54.2	3.8	8.46e-01	0	56	104	0	55	14847
2026-01-20 00:39:45.96	25.18	4.58	-42.2	-54.2	3.8	8.47e-01	0	56	104	0	55	14872
2026-01-20 00:39:46.97	25.24	4.64	-42.2	-54.2	3.8	8.47e-01	0	56	104	0	55	14832
2026-01-20 00:39:47.98	25.30	4.71	-42.2	-54.2	3.8	8.45e-01	0	56	104	0	55	14870
2026-01-20 00:39:48.99	25.37	4.77	-42.2	-54.3	3.8	8.45e-01	0	56	104	0	55	14890
2026-01-20 00:39:50.00	25.43	4.84	-42.2	-54.3	3.8	8.46e-01	0	56	104	0	55	14894
2026-01-20 00:39:51.01	25.50	4.90	-42.2	-54.2	3.8	8.46e-01	0	56	104	0	55	14824
2026-01-20 00:39:52.02	25.56	4.96	-42.2	-54.2	3.8	8.45e-01	0	56	104	0	55	14815
2026-01-20 00:39:53.03	25.63	5.03	-42.2	-54.2	3.8	8.46e-01	0	56	104	0	55	14856
2026-01-20 00:39:54.04	25.69	5.09	-42.2	-54.2	3.8	8.46e-01	0	56	104	0	55	14841
2026-01-20 00:39:55.05	25.76	5.16	-42.2	-54.2	3.8	8.46e-01	0	56	104	0	55	14832
2026-01-20 00:39:56.06	25.83	5.22	-42.2	-54.3	3.8	8.46e-01	0	56	104	0	55	14894
2026-01-20 00:39:57.08	25.89	5.29	-42.2	-54.2	3.8	8.46e-01	0	56	104	0	55	14857
2026-01-20 00:39:58.09	25.96	5.36	-42.2	-54.2	3.8	8.46e-01	0	56	104	0	55	14846
2026-01-20 00:39:59.10	26.03	5.42	-42.1	-54.2	3.8	8.46e-01	0	56	104	0	55	14806
2026-01-20 00:40:00.11	26.10	5.49	-42.2	-54.2	3.8	8.46e-01	0	56	104	0	55	14843
2026-01-20 00:40:01.12	26.16	5.55	-42.1	-54.2	3.8	8.46e-01	0	56	104	0	55	14758
2026-01-20 00:40:02.12	26.23	5.62	-42.2	-54.2	3.8	8.46e-01	0	56	104	0	55	14757
2026-01-20 00:40:03.14	26.30	5.69	-42.1	-54.1	3.8	8.46e-01	0	56	104	0	55	14701
2026-01-20 00:40:04.15	26.37	5.75	-42.2	-54.1	3.8	8.45e-01	0	57	104	0	55	14693
2026-01-20 00:40:05.16	26.44	5.82	-42.1	-54.2	3.8	8.45e-01	0	57	104	0	55	14710
2026-01-20 00:40:06.17	26.51	5.89	-42.1	-54.2	3.8	8.47e-01	0	57	104	0	55	14723
2026-01-20 00:40:07.18	26.58	5.95	-42.2	-54.2	3.8	8.46e-01	0	57	104	0	55	14764
2026-01-20 00:40:08.19	26.65	6.02	-42.1	-54.2	3.8	8.47e-01	0	57	104	0	55	14709
2026-01-20 00:40:09.20	26.72	6.09	-42.1	-54.1	3.8	8.45e-01	0	57	104	0	55	14584
2026-01-20 00:40:10.21	26.79	6.15	-42.2	-54.1	3.8	8.46e-01	0	57	104	0	55	14581
2026-01-20 00:40:11.22	26.86	6.22	-42.2	-54.1	3.8	8.46e-01	0	57	104	0	55	14590
2026-01-20 00:40:12.23	26.93	6.29	-42.1	-54.0	3.8	8.47e-01	0	57	104	0	55	14495
2026-01-20 00:40:13.24	27.00	6.36	-42.1	-54.0	3.8	8.46e-01	0	57	104	0	55	14510
2026-01-20 00:40:14.25	27.07	6.42	-42.1	-53.9	3.8	8.46e-01	0	57	104	0	55	14279
2026-01-20 00:40:15.26	27.14	6.49	-42.1	-53.9	3.8	8.45e-01	0	57	104	0	55	14259
2026-01-20 00:40:16.27	27.22	6.56	-42.1	-53.5	3.8	8.46e-01	0	57	104	0	55	13712
2026-01-20 00:40:17.28	27.29	6.63	-42.1	-53.4	3.8	8.45e-01	0	57	104	0	55	13556
2026-01-20 00:40:18.29	27.36	6.70	-42.0	-53.1	3.8	8.45e-01	0	57	104	0	55	13037
2026-01-20 00:40:19.30	27.43	6.76	-41.9	-51.9	3.9	8.45e-01	0	57	104	0	55	11302
2026-01-20 00:40:20.31	27.51	6.83	-41.9	-51.5	4.0	8.43e-01	0	57	104	0	55	10808
2026-01-20 00:40:21.32	27.58	6.90	-41.9	-51.9	3.8	8.43e-01	0	57	104	0	55	11306
2026-01-20 00:40:22.33	27.66	6.97	-41.9	-52.0	3.8	8.45e-01	0	57	104	0	55	11432
2026-01-20 00:40:23.34	27.73	7.04	-41.8	-51.2	4.1	8.43e-01	0	57	104	0	55	10446
2026-01-20 00:40:24.35	27.81	7.11	-42.0	-52.6	3.8	8.46e-01	0	57	104	0	55	12235
2026-01-20 00:40:25.36	27.88	7.18	-42.0	-52.9	3.8	8.45e-01	0	58	104	0	55	12797
2026-01-20 00:40:26.37	27.96	7.25	-41.9	-52.1	3.8	8.45e-01	0	58	104	0	55	11580
2026-01-20 00:40:27.38	28.03	7.32	-41.5	-49.0	4.8	8.16e-01	0	58	0	0	55	8171
2026-01-20 00:40:28.39	28.11	7.39	-41.2	-47.7	5.6	6.83e-01	0	57	0	0	54	7392
2026-01-20 00:40:29.40	28.18	7.46	-41.1	-47.5	5.7	4.27e-01	0	58	0	5242880	54	7254
2026-01-20 00:40:30.41	28.26	7.53	-40.8	-46.7	6.3	3.82e-01	0	58	0	11534336	53	6961
2026-01-20 00:40:31.43	28.34	7.60	-40.3	-45.0	7.9	9.73e-02	0	58	0	16777216	52	6071
2026-01-20 00:40:32.43	28.42	7.67	-39.9	-44.1	8.9	3.71e-02	0	58	0	22020096	51	5829
2026-01-20 00:40:33.45	28.50	7.74	-40.0	-44.3	8.7	3.97e-02	0	58	0	28311552	51	5930
2026-01-20 00:40:34.46	28.57	7.81	-40.1	-44.5	8.6	4.95e-02	0	58	0	33554432	51	6070
2026-01-20 00:40:35.47	28.65	7.88	-39.8	-43.9	9.0	4.03e-02	0	58	0	39845888	51	5703
2026-01-20 00:40:36.48	28.73	7.95	-39.7	-43.7	9.3	2.16e-02	0	58	0	45088768	51	5563
2026-01-20 00:40:37.49	28.81	8.02	-39.5	-43.2	9.8	1.82e-02	0	58	0	50331648	51	5276
2026-01-20 00:40:38.50	28.89	8.09	-39.6	-43.2	10.0	9.80e-03	0	58	0	56623104	50	5581
2026-01-20 00:40:39.51	28.97	8.17	-41.0	-48.7	5.1	3.18e-02	0	58	0	61865984	52	9375
2026-01-20 00:40:40.52	29.05	8.24	-40.0	-44.4	5.1	8.44e-01	0	58	104	61865984	52	5707
2026-01-20 00:40:41.53	29.13	8.31	-40.3	-43.9	9.8	1.39e-02	0	58	0	63963136	52	5393
2026-01-20 00:40:42.55	29.21	8.38	-39.1	-42.0	11.7	3.46e-03	0	58	0	70254592	50	4846
2026-01-20 00:40:43.56	29.30	8.45	-39.5	-42.7	10.7	8.68e-02	0	58	0	75497472	51	4972
2026-01-20 00:40:44.57	29.38	8.53	-39.0	-41.8	11.9	2.66e-04	0	58	0	80740352	50	4747
2026-01-20 00:40:45.58	29.46	8.60	-39.0	-41.8	12.0	3.22e-04	0	58	0	87031808	50	4736
2026-01-20 00:40:46.59	29.54	8.67	-39.0	-41.8	11.9	2.45e-04	0	58	0	92274688	49	5025
2026-01-20 00:40:47.60	29.63	8.74	-38.9	-41.7	12.1	2.13e-04	0	58	0	98566144	49	4939
2026-01-20 00:40:48.60	29.71	8.82	-39.0	-41.9	11.9	2.56e-04	0	58	0	103809024	49	5046
2026-01-20 00:40:49.61	29.79	8.89	-38.9	-41.6	12.3	1.57e-04	0	58	0	110100480	49	4905
2026-01-20 00:40:50.62	29.88	8.96	-38.9	-41.7	12.2	1.20e-04	0	58	0	115343360	49	4930
2026-01-20 00:40:51.63	29.96	9.04	-38.9	-41.6	12.3	1.34e-04	0	58	0	120586240	49	4883
2026-01-20 00:40:52.64	30.05	9.11	-39.2	-42.0	11.9	2.08e-04	0	58	0	126877696	49	5145
2026-01-20 00:40:53.65	30.13	9.18	-38.9	-41.5	12.5	8.12e-05	0	59	0	132120576	49	4847
2026-01-20 00:40:54.65	30.22	9.26	-39.1	-41.7	12.3	1.19e-04	0	59	0	138412032	49	4982
2026-01-20 00:40:55.66	30.31	9.33	-39.0	-41.7	12.4	9.72e-05	0	58	0	143654912	49	4940
2026-01-20 00:40:56.67	30.39	9.41	-39.1	-41.7	12.5	8.69e-05	0	59	0	148897792	49	4928
2026-01-20 00:40:57.68	30.48	9.48	-39.1	-41.7	12.4	7.09e-05	0	59	0	155189248	49	4938
2026-01-20 00:40:58.69	30.57	9.55	-39.1	-41.7	12.5	7.09e-05	0	58	0	160432128	49	4957
2026-01-20 00:40:59.70	30.66	9.63	-39.1	-41.7	12.5	6.06e-05	0	59	0	166723584	49	4930
2026-01-20 00:41:00.71	30.74	9.70	-39.2	-41.8	12.5	6.86e-05	0	59	0	171966464	49	4994
2026-01-20 00:41:01.72	30.83	9.78	-39.3	-41.9	12.4	1.10e-04	0	59	0	178257920	49	5048
2026-01-20 00:41:02.73	30.92	9.85	-39.2	-41.7	12.6	6.63e-05	0	59	0	183500800	49	4953
2026-01-20 00:41:03.73	31.01	9.93	-39.2	-41.8	12.5	7.66e-05	0	59	0	188743680	49	4996
2026-01-20 00:41:04.74	31.10	10.01	-39.2	-41.7	12.6	5.37e-05	0	59	0	195035136	49	4950
2026-01-20 00:41:05.76	31.19	10.08	-39.2	-41.7	12.6	5.37e-05	0	59	0	200278016	49	4973
2026-01-20 00:41:06.76	31.28	10.16	-39.3	-41.8	12.6	4.92e-05	0	59	0	206569472	49	4994
2026-01-20 00:41:07.77	31.37	10.23	-39.3	-41.8	12.5	5.37e-05	0	59	0	211812352	49	5040
2026-01-20 00:41:08.78	31.47	10.31	-39.3	-41.8	12.6	4.69e-05	0	59	0	217055232	49	4986
2026-01-20 00:41:09.79	31.56	10.39	-39.3	-41.8	12.7	6.06e-05	0	59	0	223346688	49	4986
2026-01-20 00:41:10.80	31.65	10.46	-39.3	-41.7	12.7	4.11e-05	0	59	0	228589568	49	4968
2026-01-20 00:41:11.81	31.75	10.54	-39.1	-41.5	13.0	2.17e-05	0	59	0	234881024	49	4852
2026-01-20 00:41:12.82	31.84	10.62	-39.0	-41.4	13.1	1.94e-05	0	59	0	240123904	49	4792
2026-01-20 00:41:13.83	31.93	10.69	-39.0	-41.4	13.1	1.37e-05	0	59	0	245366784	49	4781
2026-01-20 00:41:14.84	32.03	10.77	-39.0	-41.3	13.2	1.02e-05	0	59	0	251658240	49	4731
2026-01-20 00:41:15.84	32.12	10.85	-39.0	-41.3	13.3	1.02e-05	0	59	0	256901120	49	4720
2026-01-20 00:41:16.85	32.22	10.93	-39.0	-41.3	13.3	1.25e-05	0	59	0	263192576	49	4717
2026-01-20 00:41:17.86	32.32	11.00	-38.9	-41.2	13.3	1.60e-05	0	59	0	268435456	49	4678
2026-01-20 00:41:18.88	32.41	11.08	-38.9	-41.2	13.4	1.25e-05	0	59	0	274726912	49	4661
2026-01-20 00:41:19.89	32.51	11.16	-39.0	-41.3	13.3	5.70e-06	0	59	0	279969792	49	4710
2026-01-20 00:41:20.89	32.61	11.24	-38.9	-41.2	13.4	6.80e-06	0	59	0	285212672	49	4699
2026-01-20 00:41:21.91	32.71	11.32	-38.9	-41.2	13.5	8.00e-06	0	59	0	291504128	49	4655
2026-01-20 00:41:22.92	32.81	11.40	-38.9	-41.2	13.5	8.00e-06	0	59	0	296747008	49	4666
2026-01-20 00:41:23.93	32.91	11.48	-38.9	-41.2	13.5	5.70e-06	0	59	0	303038464	49	4663
2026-01-20 00:41:24.94	33.01	11.56	-38.9	-41.2	13.4	4.50e-06	0	59	0	308281344	49	4675
2026-01-20 00:41:25.95	33.11	11.64	-38.9	-41.2	13.4	8.00e-06	0	59	0	314572800	49	4673
2026-01-20 00:41:26.96	33.21	11.71	-38.8	-41.0	13.7	4.50e-06	0	60	0	319815680	49	4573
2026-01-20 00:41:27.96	33.31	11.79	-38.8	-40.9	13.7	5.70e-06	0	59	0	325058560	49	4545
2026-01-20 00:41:28.97	33.41	11.87	-38.7	-40.9	13.8	4.50e-06	0	59	0	331350016	49	4501
2026-01-20 00:41:29.98	33.51	11.95	-38.8	-40.9	13.8	6.80e-06	0	59	0	336592896	49	4539
2026-01-20 00:41:31.00	33.62	12.03	-38.8	-40.9	13.8	3.40e-06	0	60	0	342884352	49	4536
2026-01-20 00:41:32.00	33.72	12.11	-38.7	-40.8	13.9	3.40e-06	0	59	0	348127232	49	4489
2026-01-20 00:41:33.01	33.82	12.20	-38.7	-40.9	13.9	2.20e-06	0	59	0	353370112	49	4506
2026-01-20 00:41:34.02	33.93	12.28	-38.7	-40.9	13.9	2.20e-06	0	59	0	359661568	49	4499
2026-01-20 00:41:35.03	34.03	12.36	-38.8	-41.0	13.8	1.10e-06	0	60	0	364904448	49	4551
2026-01-20 00:41:36.04	34.14	12.44	-38.8	-40.9	13.9	2.20e-06	0	59	0	371195904	49	4522
2026-01-20 00:41:37.05	34.24	12.52	-38.7	-40.9	13.9	1.10e-06	0	59	0	376438784	49	4497
2026-01-20 00:41:38.06	34.35	12.60	-38.8	-40.9	13.9	1.10e-06	0	60	0	381681664	49	4502
2026-01-20 00:41:39.07	34.46	12.68	-38.7	-40.8	14.0	3.40e-06	0	60	0	387973120	49	4459
2026-01-20 00:41:40.08	34.57	12.77	-38.7	-40.8	14.0	2.20e-06	0	60	0	393216000	49	4470
2026-01-20 00:41:41.09	34.68	12.85	-38.8	-40.9	13.9	1.10e-06	0	59	0	399507456	49	4506
2026-01-20 00:41:42.10	34.78	12.93	-38.8	-40.9	13.9	0.00e+00	0	59	0	404750336	49	4517
2026-01-20 00:41:43.11	34.89	13.01	-38.6	-40.7	14.1	1.10e-06	0	60	0	411041792	49	4412
2026-01-20 00:41:44.12	35.01	13.10	-38.5	-40.6	14.3	1.10e-06	0	60	0	416284672	49	4349
2026-01-20 00:41:45.13	35.12	13.18	-38.6	-40.6	14.2	0.00e+00	0	60	0	421527552	49	4371
2026-01-20 00:41:46.14	35.23	13.26	-38.6	-40.6	14.2	1.10e-06	0	60	0	427819008	49	4385
2026-01-20 00:41:47.15	35.34	13.35	-38.5	-40.5	14.3	0.00e+00	0	60	0	433061888	49	4333
2026-01-20 00:41:48.16	35.45	13.43	-38.5	-40.5	14.4	1.10e-06	0	60	0	439353344	48	4555
2026-01-20 00:41:49.17	35.57	13.51	-38.5	-40.6	14.3	0.00e+00	0	60	0	444596224	48	4601
2026-01-20 00:41:50.18	35.68	13.60	-38.5	-40.5	14.4	1.10e-06	0	60	0	449839104	48	4571
2026-01-20 00:41:51.19	35.79	13.68	-38.5	-40.5	14.4	1.10e-06	0	60	0	456130560	48	4585
2026-01-20 00:41:52.20	35.91	13.76	-38.5	-40.5	14.4	0.00e+00	0	60	0	461373440	48	4583
2026-01-20 00:41:53.21	36.03	13.85	-38.6	-40.7	14.3	1.10e-06	0	60	0	467664896	48	4655
2026-01-20 00:41:54.22	36.14	13.93	-38.6	-40.6	14.3	0.00e+00	0	60	0	472907776	48	4646
2026-01-20 00:41:55.23	36.26	14.02	-38.5	-40.5	14.4	0.00e+00	0	60	0	479199232	48	4575
2026-01-20 00:41:56.24	36.38	14.10	-38.5	-40.5	14.4	0.00e+00	0	60	0	484442112	48	4568
2026-01-20 00:41:57.25	36.50	14.19	-38.5	-40.5	14.4	0.00e+00	0	60	0	489684992	48	4579
2026-01-20 00:41:58.25	36.61	14.27	-38.4	-40.4	14.6	0.00e+00	0	60	0	495976448	48	4506
2026-01-20 00:41:59.26	36.73	14.36	-38.4	-40.4	14.6	0.00e+00	0	60	0	501219328	48	4514
2026-01-20 00:42:00.27	36.85	14.45	-38.4	-40.3	14.7	1.10e-06	0	60	0	507510784	48	4488
2026-01-20 00:42:01.29	36.98	14.53	-38.4	-40.4	14.6	0.00e+00	0	60	0	512753664	48	4504
2026-01-20 00:42:02.29	37.10	14.62	-38.5	-40.4	14.5	0.00e+00	0	60	0	519045120	48	4538
2026-01-20 00:42:03.30	37.22	14.70	-38.4	-40.3	14.6	0.00e+00	0	60	0	524288000	48	4492
2026-01-20 00:42:04.31	37.34	14.79	-38.4	-40.3	14.7	0.00e+00	0	60	0	529530880	48	4484
2026-01-20 00:42:05.32	37.47	14.88	-38.4	-40.3	14.7	0.00e+00	0	60	0	535822336	48	4471
2026-01-20 00:42:06.33	37.59	14.96	-38.3	-40.3	14.7	0.00e+00	0	60	0	541065216	48	4453
2026-01-20 00:42:07.34	37.72	15.05	-38.3	-40.2	14.8	0.00e+00	0	60	0	547356672	48	4417
2026-01-20 00:42:08.35	37.84	15.14	-38.3	-40.2	14.8	0.00e+00	0	60	0	552599552	48	4422
2026-01-20 00:42:09.36	37.97	15.23	-38.3	-40.2	14.8	0.00e+00	0	60	0	557842432	48	4434
2026-01-20 00:42:10.37	38.10	15.31	-38.3	-40.3	14.7	0.00e+00	0	60	0	564133888	48	4448
2026-01-20 00:42:11.38	38.23	15.40	-38.2	-40.1	14.9	0.00e+00	0	60	0	569376768	48	4356
2026-01-20 00:42:12.39	38.35	15.49	-38.1	-40.0	15.1	0.00e+00	0	60	0	575668224	48	4306
2026-01-20 00:42:13.40	38.48	15.58	-38.1	-39.9	15.1	0.00e+00	0	60	0	580911104	48	4285
2026-01-20 00:42:14.41	38.61	15.67	-38.1	-39.9	15.1	0.00e+00	0	60	0	586153984	48	4282
2026-01-20 00:42:15.41	38.74	15.76	-38.1	-39.9	15.1	0.00e+00	0	60	0	592445440	48	4275
2026-01-20 00:42:16.42	38.88	15.84	-38.0	-39.9	15.2	0.00e+00	0	60	0	597688320	48	4249
2026-01-20 00:42:17.43	39.01	15.93	-38.1	-39.9	15.2	0.00e+00	0	60	0	603979776	48	4269
2026-01-20 00:42:18.44	39.14	16.02	-38.1	-40.0	15.1	0.00e+00	0	60	0	609222656	48	4293
2026-01-20 00:42:19.45	39.28	16.11	-38.2	-40.1	15.1	0.00e+00	0	60	0	615514112	48	4345
2026-01-20 00:42:20.46	39.41	16.20	-38.0	-39.9	15.2	0.00e+00	0	60	0	620756992	48	4249
2026-01-20 00:42:21.47	39.55	16.29	-38.0	-39.9	15.2	0.00e+00	0	60	0	625999872	48	4250
2026-01-20 00:42:22.48	39.68	16.38	-38.1	-39.9	15.2	0.00e+00	0	60	0	632291328	48	4280
2026-01-20 00:42:23.49	39.82	16.47	-37.8	-39.6	15.4	0.00e+00	0	60	0	637534208	47	4365
2026-01-20 00:42:24.50	39.96	16.56	-37.7	-39.5	15.5	0.00e+00	0	60	0	643825664	47	4318
2026-01-20 00:42:25.51	40.10	16.65	-37.8	-39.5	15.5	0.00e+00	0	60	0	649068544	47	4324
2026-01-20 00:42:26.52	40.24	16.74	-37.8	-39.5	15.5	0.00e+00	0	60	0	654311424	47	4321
2026-01-20 00:42:27.54	40.38	16.83	-37.8	-39.6	15.5	0.00e+00	0	60	0	660602880	47	4351
2026-01-20 00:42:28.55	40.52	16.93	-37.7	-39.5	15.5	0.00e+00	0	60	0	665845760	47	4317
2026-01-20 00:42:29.56	40.66	17.02	-37.8	-39.5	15.5	0.00e+00	0	60	0	672137216	47	4340
2026-01-20 00:42:30.57	40.81	17.11	-37.7	-39.4	15.6	0.00e+00	0	60	0	677380096	47	4290
2026-01-20 00:42:31.57	40.95	17.20	-37.6	-39.4	15.7	0.00e+00	0	60	0	683671552	47	4250
2026-01-20 00:42:32.58	41.09	17.29	-37.6	-39.3	15.7	0.00e+00	0	60	0	688914432	47	4230
2026-01-20 00:42:33.59	41.24	17.38	-37.7	-39.4	15.7	0.00e+00	0	60	0	695205888	47	4265
2026-01-20 00:42:34.60	41.39	17.48	-37.7	-39.4	15.6	0.00e+00	0	60	0	700448768	47	4287
2026-01-20 00:42:35.61	41.53	17.57	-37.6	-39.3	15.8	0.00e+00	0	60	0	705691648	47	4230
2026-01-20 00:42:36.62	41.68	17.66	-37.7	-39.4	15.7	0.00e+00	0	60	0	711983104	47	4265
2026-01-20 00:42:37.63	41.83	17.75	-37.7	-39.5	15.6	0.00e+00	0	60	0	717225984	47	4306
2026-01-20 00:42:38.64	41.98	17.85	-37.7	-39.5	15.6	0.00e+00	0	60	0	723517440	47	4307
2026-01-20 00:42:39.65	42.13	17.94	-37.8	-39.5	15.5	0.00e+00	0	60	0	728760320	47	4338
2026-01-20 00:42:40.66	42.28	18.03	-37.7	-39.5	15.6	0.00e+00	0	60	0	734003200	47	4318
2026-01-20 00:42:41.67	42.44	18.13	-37.8	-39.6	15.5	0.00e+00	0	60	0	740294656	47	4343
2026-01-20 00:42:42.68	42.59	18.22	-37.7	-39.4	15.7	0.00e+00	0	61	0	745537536	47	4291
2026-01-20 00:42:43.69	42.74	18.31	-37.6	-39.3	15.7	0.00e+00	0	60	0	751828992	47	4242
2026-01-20 00:42:44.70	42.90	18.41	-37.6	-39.3	15.8	0.00e+00	0	61	0	757071872	47	4234
2026-01-20 00:42:45.71	43.06	18.50	-37.6	-39.4	15.7	0.00e+00	0	60	0	762314752	47	4253
2026-01-20 00:42:46.72	43.21	18.59	-37.6	-39.3	15.9	0.00e+00	0	60	0	768606208	47	4203
2026-01-20 00:42:47.73	43.37	18.69	-37.5	-39.2	15.9	0.00e+00	0	60	0	773849088	47	4156
2026-01-20 00:42:48.74	43.53	18.78	-37.5	-39.2	15.9	0.00e+00	0	61	0	780140544	47	4177
2026-01-20 00:42:49.75	43.69	18.88	-37.5	-39.2	15.9	0.00e+00	0	61	0	785383424	47	4170
2026-01-20 00:42:50.76	43.85	18.97	-37.5	-39.2	15.9	0.00e+00	0	61	0	790626304	47	4164
2026-01-20 00:42:51.77	44.01	19.07	-37.4	-39.1	16.1	0.00e+00	0	61	0	796917760	46	4347
2026-01-20 00:42:52.78	44.18	19.16	-37.4	-39.1	16.0	0.00e+00	0	61	0	802160640	46	4372
2026-01-20 00:42:53.79	44.34	19.26	-37.5	-39.1	16.0	0.00e+00	0	60	0	808452096	46	4384
2026-01-20 00:42:54.80	44.51	19.35	-37.4	-39.0	16.1	0.00e+00	0	60	0	813694976	46	4334
2026-01-20 00:42:55.81	44.67	19.45	-37.4	-39.0	16.1	0.00e+00	0	61	0	819986432	46	4326
2026-01-20 00:42:56.82	44.84	19.54	-37.3	-38.9	16.2	0.00e+00	0	60	0	825229312	46	4282
2026-01-20 00:42:57.83	45.01	19.64	-37.3	-38.9	16.3	0.00e+00	0	61	0	830472192	46	4270
2026-01-20 00:42:58.84	45.18	19.74	-37.3	-39.0	16.2	0.00e+00	0	61	0	836763648	46	4294
2026-01-20 00:42:59.85	45.35	19.83	-37.3	-38.9	16.2	0.00e+00	0	61	0	842006528	46	4280
2026-01-20 00:43:00.86	45.52	19.93	-37.3	-38.9	16.2	0.00e+00	0	61	0	848297984	46	4284
2026-01-20 00:43:01.87	45.69	20.02	-37.3	-39.0	16.2	0.00e+00	0	61	0	853540864	46	4299
2026-01-20 00:43:02.88	45.86	20.12	-37.4	-39.0	16.1	0.00e+00	0	60	0	858783744	46	4330
2026-01-20 00:43:03.89	46.04	20.22	-37.3	-39.0	16.2	0.00e+00	0	61	0	865075200	46	4299
2026-01-20 00:43:04.90	46.21	20.31	-37.3	-39.0	16.2	0.00e+00	0	61	0	870318080	46	4304
2026-01-20 00:43:05.91	46.39	20.41	-37.2	-38.9	16.3	0.00e+00	0	61	0	876609536	46	4243
2026-01-20 00:43:06.92	46.57	20.51	-37.3	-39.0	16.2	0.00e+00	0	61	0	881852416	46	4293
2026-01-20 00:43:07.93	46.75	20.60	-37.3	-39.0	16.2	0.00e+00	0	61	0	888143872	46	4317
2026-01-20 00:43:08.94	46.93	20.70	-37.2	-38.9	16.3	0.00e+00	0	61	0	893386752	46	4254
2026-01-20 00:43:09.95	47.11	20.80	-37.2	-38.8	16.3	0.00e+00	0	61	0	898629632	46	4237
2026-01-20 00:43:10.96	47.29	20.89	-37.1	-38.7	16.5	0.00e+00	0	61	0	904921088	46	4187
2026-01-20 00:43:11.97	47.47	20.99	-37.1	-38.7	16.4	0.00e+00	0	60	0	910163968	46	4184
2026-01-20 00:43:12.98	47.66	21.09	-37.1	-38.7	16.5	0.00e+00	0	61	0	916455424	46	4188
2026-01-20 00:43:13.99	47.84	21.19	-37.0	-38.6	16.6	0.00e+00	0	61	0	921698304	46	4138
2026-01-20 00:43:15.00	48.03	21.28	-37.1	-38.7	16.6	0.00e+00	0	61	0	927989760	46	4149
2026-01-20 00:43:16.01	48.22	21.38	-37.1	-38.6	16.6	0.00e+00	0	61	0	933232640	46	4137
2026-01-20 00:43:17.02	48.41	21.48	-37.1	-38.6	16.6	0.00e+00	0	61	0	938475520	46	4143
2026-01-20 00:43:18.03	48.60	21.58	-37.1	-38.7	16.5	0.00e+00	0	61	0	944766976	46	4169
2026-01-20 00:43:19.03	48.79	21.67	-37.2	-38.8	16.4	0.00e+00	0	61	0	950009856	46	4212
2026-01-20 00:43:20.04	48.98	21.77	-37.2	-38.8	16.4	0.00e+00	0	61	0	956301312	46	4229
2026-01-20 00:43:21.05	49.17	21.87	-37.1	-38.8	16.5	0.00e+00	0	61	0	961544192	46	4199
2026-01-20 00:43:22.06	49.37	21.97	-37.2	-38.8	16.5	0.00e+00	0	61	0	966787072	46	4201
2026-01-20 00:43:23.07	49.57	22.07	-37.2	-38.8	16.4	0.00e+00	0	61	0	973078528	46	4234
2026-01-20 00:43:24.08	49.76	22.16	-37.2	-38.9	16.4	0.00e+00	0	61	0	978321408	46	4243
2026-01-20 00:43:25.09	49.96	22.26	-37.1	-38.6	16.6	0.00e+00	0	61	0	984612864	46	4135
2026-01-20 00:43:26.10	50.16	22.36	-37.0	-38.6	16.7	0.00e+00	0	61	0	989855744	46	4103
2026-01-20 00:43:27.12	50.36	22.46	-37.0	-38.5	16.7	0.00e+00	0	61	0	995098624	45	4336
2026-01-20 00:43:28.13	50.57	22.56	-37.0	-38.6	16.6	0.00e+00	0	61	0	1001390080	45	4370
2026-01-20 00:43:29.14	50.77	22.66	-37.0	-38.6	16.6	0.00e+00	0	61	0	1006632960	45	4359
2026-01-20 00:43:30.15	50.98	22.76	-37.0	-38.5	16.7	0.00e+00	0	61	0	1012924416	45	4333
2026-01-20 00:43:31.16	51.18	22.85	-36.9	-38.4	16.8	0.00e+00	0	61	0	1018167296	45	4279
2026-01-20 00:43:32.17	51.39	22.95	-36.9	-38.4	16.8	0.00e+00	0	61	0	1024458752	45	4288
2026-01-20 00:43:33.18	51.60	23.05	-36.9	-38.4	16.8	0.00e+00	0	61	0	1029701632	45	4285
2026-01-20 00:43:34.19	51.81	23.15	-36.8	-38.3	17.0	0.00e+00	0	61	0	1035993088	45	4205
2026-01-20 00:43:35.19	52.02	23.25	-36.8	-38.3	16.9	0.00e+00	0	61	0	1041235968	45	4213
2026-01-20 00:43:36.20	52.23	23.34	-36.8	-38.4	16.9	0.00e+00	0	61	0	1046478848	45	4252
2026-01-20 00:43:37.21	52.44	23.44	-36.8	-38.4	16.8	0.00e+00	0	61	0	1052770304	45	4257
2026-01-20 00:43:38.22	52.66	23.54	-36.8	-38.3	16.9	0.00e+00	0	61	0	1058013184	45	4220
2026-01-20 00:43:39.23	52.87	23.64	-36.8	-38.3	17.0	0.00e+00	0	61	0	1063256064	45	4222
2026-01-20 00:43:40.24	53.09	23.74	-36.7	-38.2	17.0	0.00e+00	0	61	0	1069547520	45	4187
2026-01-20 00:43:41.25	53.31	23.83	-36.7	-38.2	17.1	0.00e+00	0	61	0	1074790400	45	4146
2026-01-20 00:43:42.26	53.53	23.93	-36.8	-38.3	17.0	0.00e+00	0	61	0	1081081856	45	4206
2026-01-20 00:43:43.27	53.75	24.03	-36.8	-38.4	16.9	0.00e+00	0	61	0	1086324736	45	4265
2026-01-20 00:43:44.28	53.98	24.13	-36.9	-38.4	16.8	0.00e+00	0	61	0	1091567616	45	4278
2026-01-20 00:43:45.28	54.20	24.23	-36.8	-38.3	16.9	0.00e+00	0	61	0	1097859072	45	4231
2026-01-20 00:43:46.29	54.43	24.32	-36.6	-38.1	17.1	0.00e+00	0	61	0	1103101952	45	4121
2026-01-20 00:43:47.30	54.65	24.42	-36.5	-38.0	17.3	0.00e+00	0	61	0	1109393408	45	4059
2026-01-20 00:43:48.31	54.88	24.52	-36.5	-38.0	17.3	0.00e+00	0	61	0	1114636288	44	4301
2026-01-20 00:43:49.32	55.11	24.62	-36.3	-37.9	17.0	0.00e+00	0	61	0	1120927744	44	4284
2026-01-20 00:43:50.33	55.34	24.71	-36.3	-37.9	17.1	0.00e+00	0	61	0	1126170624	44	4258
2026-01-20 00:43:51.34	55.58	24.81	-36.3	-38.0	17.0	0.00e+00	0	61	0	1132462080	44	4295
2026-01-20 00:43:52.35	55.81	24.91	-36.4	-38.0	17.0	0.00e+00	0	61	0	1137704960	44	4322
2026-01-20 00:43:53.36	56.05	25.00	-36.5	-38.1	16.8	0.00e+00	0	61	0	1142947840	44	4387
2026-01-20 00:43:54.37	56.28	25.10	-36.4	-38.1	16.9	0.00e+00	0	61	0	1149239296	44	4349
2026-01-20 00:43:55.38	56.52	25.20	-36.4	-38.0	16.9	0.00e+00	0	61	0	1154482176	44	4328
2026-01-20 00:43:56.39	56.76	25.29	-36.4	-38.1	16.9	0.00e+00	0	61	0	1160773632	44	4351
2026-01-20 00:43:57.40	57.01	25.39	-36.4	-38.1	16.9	0.00e+00	0	61	0	1166016512	44	4342
2026-01-20 00:43:58.41	57.25	25.49	-36.3	-37.9	17.1	0.00e+00	0	61	0	1171259392	44	4258
2026-01-20 00:43:59.42	57.49	25.58	-36.3	-37.9	17.1	0.00e+00	0	61	0	1177550848	44	4269
2026-01-20 00:44:00.43	57.74	25.68	-36.3	-37.8	17.2	0.00e+00	0	61	0	1182793728	44	4234
2026-01-20 00:44:01.44	57.99	25.77	-36.1	-37.7	17.4	0.00e+00	0	61	0	1189085184	44	4158
2026-01-20 00:44:02.45	58.24	25.87	-36.2	-37.7	17.3	0.00e+00	0	61	0	1194328064	44	4188
2026-01-20 00:44:03.46	58.49	25.96	-36.1	-37.7	17.3	0.00e+00	0	61	0	1199570944	44	4158
2026-01-20 00:44:04.47	58.74	26.06	-36.1	-37.7	17.3	0.00e+00	0	61	0	1205862400	44	4164
2026-01-20 00:44:05.48	58.99	26.15	-36.2	-37.7	17.3	0.00e+00	0	61	0	1211105280	44	4183
2026-01-20 00:44:06.49	59.25	26.25	-36.1	-37.6	17.4	0.00e+00	0	61	0	1217396736	44	4136
2026-01-20 00:44:07.50	59.50	26.34	-36.1	-37.6	17.4	0.00e+00	0	61	0	1222639616	44	4123
2026-01-20 00:44:08.51	59.76	26.44	-36.1	-37.7	17.4	0.00e+00	0	61	0	1228931072	44	4152
2026-01-20 00:44:09.52	60.02	26.53	-36.1	-37.6	17.4	0.00e+00	0	61	0	1234173952	44	4145
2026-01-20 00:44:10.54	60.28	26.62	-36.1	-37.6	17.5	0.00e+00	0	61	0	1240465408	44	4119
2026-01-20 00:44:11.55	60.54	26.72	-36.1	-37.7	17.4	0.00e+00	0	61	0	1245708288	44	4163
2026-01-20 00:44:12.55	60.81	26.81	-36.1	-37.7	17.3	0.00e+00	0	61	0	1250951168	44	4158
2026-01-20 00:44:13.56	61.07	26.90	-36.0	-37.5	17.5	0.00e+00	0	61	0	1257242624	44	4098
2026-01-20 00:44:14.58	61.34	26.99	-35.8	-37.3	17.6	0.00e+00	0	61	0	1262485504	43	4225
2026-01-20 00:44:15.59	61.61	27.09	-35.8	-37.3	17.6	0.00e+00	0	61	0	1268776960	43	4221
2026-01-20 00:44:16.60	61.88	27.18	-35.7	-37.2	17.7	0.00e+00	0	61	0	1274019840	43	4176
2026-01-20 00:44:17.61	62.15	27.27	-35.7	-37.2	17.7	0.00e+00	0	61	0	1279262720	43	4155
2026-01-20 00:44:18.62	62.42	27.36	-35.6	-37.1	17.8	0.00e+00	0	61	0	1285554176	43	4122
2026-01-20 00:44:19.63	62.70	27.45	-35.6	-37.1	17.7	0.00e+00	0	61	0	1290797056	43	4142
2026-01-20 00:44:20.64	62.97	27.54	-35.6	-37.1	17.7	0.00e+00	0	61	0	1297088512	43	4137
2026-01-20 00:44:21.65	63.25	27.63	-35.7	-37.2	17.7	0.00e+00	0	61	0	1302331392	43	4150
2026-01-20 00:44:22.66	63.53	27.72	-35.7	-37.2	17.7	0.00e+00	0	61	0	1307574272	43	4169
2026-01-20 00:44:23.67	63.81	27.81	-35.7	-37.3	17.7	0.00e+00	0	61	0	1313865728	43	4195
2026-01-20 00:44:24.67	64.09	27.89	-35.8	-37.4	17.6	0.00e+00	0	61	0	1319108608	43	4246
2026-01-20 00:44:25.68	64.38	27.98	-35.7	-37.2	17.7	0.00e+00	0	61	0	1325400064	43	4153
2026-01-20 00:44:26.69	64.66	28.07	-35.6	-37.1	17.8	0.00e+00	0	61	0	1330642944	43	4101
2026-01-20 00:44:27.70	64.95	28.16	-35.5	-36.9	17.9	0.00e+00	0	61	0	1336934400	42	4290
2026-01-20 00:44:28.71	65.24	28.24	-35.5	-37.0	17.9	0.00e+00	0	61	0	1342177280	42	4315
2026-01-20 00:44:29.72	65.53	28.33	-35.6	-37.1	17.8	0.00e+00	0	62	0	1347420160	42	4367
2026-01-20 00:44:30.73	65.82	28.41	-35.7	-37.2	17.7	0.00e+00	0	61	0	1353711616	42	4413
2026-01-20 00:44:31.74	66.11	28.50	-35.8	-37.3	17.6	0.00e+00	0	61	0	1358954496	42	4462
2026-01-20 00:44:32.75	66.40	28.58	-35.8	-37.4	17.6	0.00e+00	0	61	0	1365245952	42	4498
2026-01-20 00:44:33.76	66.70	28.66	-35.9	-37.4	17.5	0.00e+00	0	61	0	1370488832	42	4532
2026-01-20 00:44:34.77	67.00	28.75	-35.8	-37.4	17.5	0.00e+00	0	61	0	1375731712	42	4506
2026-01-20 00:44:35.78	67.30	28.83	-35.8	-37.3	17.6	0.00e+00	0	62	0	1382023168	42	4485
2026-01-20 00:44:36.79	67.60	28.91	-35.8	-37.4	17.5	0.00e+00	0	61	0	1387266048	42	4509
2026-01-20 00:44:37.80	67.90	28.99	-35.9	-37.4	17.5	0.00e+00	0	61	0	1393557504	42	4532
2026-01-20 00:44:38.81	68.20	29.07	-35.8	-37.4	17.5	0.00e+00	0	62	0	1398800384	42	4497
2026-01-20 00:44:39.82	68.51	29.15	-35.9	-37.4	17.5	0.00e+00	0	61	0	1404043264	42	4534
2026-01-20 00:44:40.83	68.81	29.23	-35.9	-37.4	17.5	0.00e+00	0	61	0	1410334720	42	4539
2026-01-20 00:44:41.83	69.12	29.31	-35.8	-37.3	17.7	0.00e+00	0	61	0	1415577600	42	4455
2026-01-20 00:44:42.84	69.43	29.39	-35.6	-37.1	17.9	0.00e+00	0	61	0	1421869056	42	4356
2026-01-20 00:44:43.85	69.74	29.47	-35.6	-37.1	17.8	0.00e+00	0	61	0	1427111936	42	4367
2026-01-20 00:44:44.86	70.05	29.54	-35.7	-37.2	17.7	0.00e+00	0	61	0	1433403392	42	4437
2026-01-20 00:44:45.87	70.37	29.62	-35.8	-37.3	17.6	0.00e+00	0	61	0	1438646272	42	4478
2026-01-20 00:44:46.88	70.68	29.69	-35.8	-37.4	17.6	0.00e+00	0	61	0	1443889152	42	4494
2026-01-20 00:44:47.89	71.00	29.77	-35.7	-37.2	17.7	0.00e+00	0	61	0	1450180608	42	4422
2026-01-20 00:44:48.90	71.32	29.84	-35.7	-37.3	17.7	0.00e+00	0	61	0	1455423488	42	4444
2026-01-20 00:44:49.91	71.64	29.92	-35.6	-37.1	17.8	0.00e+00	0	61	0	1461714944	42	4386
2026-01-20 00:44:50.92	71.96	29.99	-35.8	-37.3	17.6	0.00e+00	0	61	0	1466957824	42	4493
2026-01-20 00:44:51.93	72.28	30.06	-35.8	-37.3	17.6	0.00e+00	0	61	0	1472200704	42	4467
2026-01-20 00:44:52.94	72.60	30.13	-35.7	-37.3	17.7	0.00e+00	0	61	0	1478492160	42	4451
2026-01-20 00:44:53.95	72.93	30.20	-35.7	-37.3	17.7	0.00e+00	0	61	0	1483735040	42	4442
2026-01-20 00:44:54.96	73.26	30.27	-35.6	-37.1	17.8	0.00e+00	0	62	0	1490026496	42	4382
2026-01-20 00:44:55.97	73.58	30.34	-35.6	-37.1	17.8	0.00e+00	0	61	0	1495269376	42	4368
2026-01-20 00:44:56.98	73.91	30.40	-35.6	-37.1	17.8	0.00e+00	0	62	0	1500512256	42	4357
2026-01-20 00:44:57.99	74.24	30.47	-35.6	-37.2	17.8	0.00e+00	0	62	0	1506803712	42	4397
2026-01-20 00:44:59.00	74.58	30.54	-35.8	-37.3	17.6	0.00e+00	0	61	0	1512046592	42	4482
2026-01-20 00:45:00.00	74.91	30.60	-35.7	-37.3	17.6	0.00e+00	0	61	0	1518338048	42	4473
2026-01-20 00:45:01.01	75.24	30.66	-35.8	-37.3	17.6	0.00e+00	0	61	0	1523580928	42	4471
2026-01-20 00:45:02.02	75.58	30.73	-35.8	-37.4	17.5	0.00e+00	0	61	0	1529872384	42	4502
2026-01-20 00:45:03.03	75.92	30.79	-35.9	-37.4	17.5	0.00e+00	0	61	0	1535115264	42	4517
2026-01-20 00:45:04.04	76.25	30.85	-35.8	-37.3	17.6	0.00e+00	0	61	0	1541406720	42	4471
2026-01-20 00:45:05.05	76.59	30.91	-35.7	-37.2	17.7	0.00e+00	0	62	0	1546649600	42	4436
2026-01-20 00:45:06.06	76.94	30.97	-35.7	-37.2	17.7	0.00e+00	0	61	0	1551892480	42	4439
2026-01-20 00:45:07.07	77.28	31.03	-35.7	-37.2	17.8	0.00e+00	0	61	0	1558183936	42	4403
2026-01-20 00:45:08.08	77.62	31.08	-35.7	-37.2	17.8	0.00e+00	0	62	0	1563426816	42	4427
2026-01-20 00:45:09.09	77.97	31.14	-35.7	-37.2	17.8	0.00e+00	0	62	0	1569718272	42	4421
2026-01-20 00:45:10.10	78.31	31.20	-35.6	-37.1	17.9	0.00e+00	0	61	0	1574961152	42	4362
2026-01-20 00:45:11.11	78.66	31.25	-35.6	-37.1	17.9	0.00e+00	0	61	0	1580204032	42	4344
2026-01-20 00:45:12.12	79.01	31.30	-35.7	-37.2	17.8	0.00e+00	0	62	0	1586495488	42	4409
2026-01-20 00:45:13.13	79.36	31.35	-35.8	-37.4	17.7	0.00e+00	0	61	0	1591738368	42	4495
2026-01-20 00:45:14.14	79.71	31.41	-35.7	-37.2	17.8	0.00e+00	0	61	0	1598029824	42	4415
2026-01-20 00:45:15.15	80.06	31.46	-35.6	-37.2	17.8	0.00e+00	0	62	0	1603272704	42	4392
2026-01-20 00:45:16.16	80.41	31.50	-35.7	-37.2	17.7	0.00e+00	0	61	0	1608515584	42	4429
2026-01-20 00:45:17.17	80.77	31.55	-35.7	-37.2	17.8	0.00e+00	0	62	0	1614807040	42	4401
2026-01-20 00:45:18.18	81.12	31.60	-35.6	-37.1	17.9	0.00e+00	0	62	0	1620049920	42	4361
2026-01-20 00:45:19.19	81.48	31.64	-35.7	-37.2	17.8	0.00e+00	0	62	0	1626341376	42	4404
2026-01-20 00:45:20.20	81.83	31.69	-35.6	-37.2	17.8	0.00e+00	0	62	0	1631584256	42	4394
2026-01-20 00:45:21.21	82.19	31.73	-35.7	-37.3	17.7	0.00e+00	0	62	0	1637875712	42	4448
2026-01-20 00:45:22.22	82.55	31.77	-35.8	-37.3	17.7	0.00e+00	0	62	0	1643118592	42	4485
2026-01-20 00:45:23.23	82.91	31.81	-35.8	-37.3	17.7	0.00e+00	0	62	0	1648361472	42	4481
2026-01-20 00:45:24.24	83.27	31.85	-35.8	-37.3	17.7	0.00e+00	0	61	0	1654652928	42	4473
2026-01-20 00:45:25.25	83.63	31.89	-35.7	-37.3	17.7	0.00e+00	0	61	0	1659895808	42	4442
2026-01-20 00:45:26.26	83.99	31.93	-35.8	-37.3	17.7	0.00e+00	0	62	0	1666187264	42	4478
2026-01-20 00:45:27.27	84.36	31.97	-35.8	-37.3	17.7	0.00e+00	0	62	0	1671430144	42	4491
2026-01-20 00:45:28.28	84.72	32.00	-35.8	-37.4	17.6	0.00e+00	0	61	0	1676673024	42	4506
2026-01-20 00:45:29.29	85.09	32.03	-35.9	-37.4	17.6	0.00e+00	0	62	0	1682964480	42	4524
2026-01-20 00:45:30.30	85.45	32.07	-35.8	-37.3	17.7	0.00e+00	0	61	0	1688207360	42	4480
2026-01-20 00:45:31.31	85.82	32.10	-35.8	-37.3	17.8	0.00e+00	0	61	0	1694498816	42	4451
2026-01-20 00:45:32.31	86.18	32.13	-35.8	-37.3	17.8	0.00e+00	0	62	0	1699741696	42	4448
2026-01-20 00:45:33.32	86.55	32.16	-35.6	-37.1	17.9	0.00e+00	0	62	0	1704984576	42	4366
2026-01-20 00:45:34.33	86.92	32.18	-35.6	-37.1	17.9	0.00e+00	0	62	0	1711276032	42	4389
2026-01-20 00:45:35.34	87.28	32.21	-35.5	-37.0	18.0	0.00e+00	0	62	0	1716518912	42	4333
2026-01-20 00:45:36.35	87.65	32.23	-35.4	-36.9	18.1	0.00e+00	0	62	0	1722810368	42	4271
2026-01-20 00:45:37.36	88.02	32.26	-35.5	-36.9	18.1	0.00e+00	0	62	0	1728053248	42	4283
2026-01-20 00:45:38.37	88.39	32.28	-35.5	-37.0	18.0	0.00e+00	0	62	0	1734344704	42	4292
2026-01-20 00:45:39.38	88.76	32.30	-35.6	-37.1	17.9	0.00e+00	0	62	0	1739587584	42	4353
2026-01-20 00:45:40.39	89.14	32.32	-35.7	-37.2	17.8	0.00e+00	0	61	0	1745879040	42	4430
2026-01-20 00:45:41.40	89.51	32.34	-35.7	-37.2	17.8	0.00e+00	0	62	0	1751121920	42	4421
2026-01-20 00:45:42.41	89.88	32.36	-35.7	-37.2	17.8	0.00e+00	0	62	0	1756364800	42	4420
2026-01-20 00:45:43.42	90.25	32.37	-35.7	-37.2	17.7	0.00e+00	0	62	0	1762656256	42	4438
2026-01-20 00:45:44.43	90.63	32.39	-35.7	-37.2	17.8	0.00e+00	0	62	0	1767899136	42	4428
2026-01-20 00:45:45.44	91.00	32.40	-35.8	-37.3	17.7	0.00e+00	0	62	0	1774190592	42	4478
2026-01-20 00:45:46.45	91.37	32.41	-35.8	-37.3	17.7	0.00e+00	0	62	0	1779433472	42	4481
2026-01-20 00:45:47.46	91.75	32.42	-35.7	-37.2	17.8	0.00e+00	0	62	0	1784676352	42	4423
2026-01-20 00:45:48.47	92.12	32.43	-35.6	-37.1	17.8	0.00e+00	0	62	0	1790967808	42	4385
2026-01-20 00:45:49.48	92.49	32.44	-35.5	-37.0	18.0	0.00e+00	0	62	0	1796210688	42	4311
2026-01-20 00:45:50.49	92.87	32.45	-35.5	-37.0	18.0	0.00e+00	0	62	0	1802502144	42	4318
2026-01-20 00:45:51.50	93.24	32.45	-35.5	-37.0	18.0	0.00e+00	0	62	0	1807745024	42	4325
2026-01-20 00:45:52.51	93.62	32.46	-35.6	-37.0	17.9	0.00e+00	0	62	0	1812987904	42	4337
2026-01-20 00:45:53.52	93.99	32.46	-35.6	-37.1	17.9	0.00e+00	0	62	0	1819279360	42	4356
2026-01-20 00:45:54.53	94.37	32.46	-35.6	-37.1	17.8	0.00e+00	0	62	0	1824522240	42	4379
2026-01-20 00:45:55.54	94.74	32.46	-35.6	-37.1	17.9	0.00e+00	0	62	0	1830813696	42	4381
2026-01-20 00:45:56.55	95.12	32.46	-35.6	-37.1	17.8	0.00e+00	0	62	0	1836056576	42	4387
2026-01-20 00:45:57.55	95.49	32.46	-35.7	-37.2	17.8	0.00e+00	0	62	0	1842348032	42	4434
2026-01-20 00:45:58.56	95.86	32.45	-35.8	-37.3	17.7	0.00e+00	0	62	0	1847590912	42	4488
2026-01-20 00:45:59.57	96.24	32.45	-35.8	-37.4	17.6	0.00e+00	0	62	0	1852833792	42	4513
2026-01-20 00:46:00.58	96.61	32.44	-35.9	-37.4	17.6	0.00e+00	0	62	0	1859125248	42	4517
2026-01-20 00:46:01.59	96.99	32.43	-35.8	-37.3	17.7	0.00e+00	0	62	0	1864368128	42	4487
2026-01-20 00:46:02.60	97.36	32.42	-35.8	-37.4	17.7	0.00e+00	0	62	0	1870659584	42	4506
2026-01-20 00:46:03.61	97.73	32.41	-35.9	-37.4	17.6	0.00e+00	0	62	0	1875902464	42	4544
2026-01-20 00:46:04.62	98.11	32.40	-35.8	-37.4	17.7	0.00e+00	0	62	0	1881145344	42	4495
2026-01-20 00:46:05.63	98.48	32.39	-35.6	-37.1	17.9	0.00e+00	0	62	0	1887436800	42	4379
2026-01-20 00:46:06.64	98.85	32.37	-35.5	-37.0	18.0	0.00e+00	0	62	0	1892679680	42	4322
2026-01-20 00:46:07.64	99.22	32.36	-35.6	-37.0	18.0	0.00e+00	0	62	0	1898971136	42	4340
2026-01-20 00:46:08.65	99.60	32.34	-35.5	-37.0	18.0	0.00e+00	0	62	0	1904214016	42	4303
2026-01-20 00:46:09.66	99.97	32.32	-35.5	-37.0	18.0	0.00e+00	0	62	0	1909456896	42	4334
2026-01-20 00:46:10.67	100.34	32.30	-35.5	-37.0	18.0	0.00e+00	0	62	0	1915748352	42	4333
2026-01-20 00:46:11.68	100.71	32.28	-35.5	-37.0	17.9	0.00e+00	0	62	0	1920991232	42	4330
2026-01-20 00:46:12.69	101.08	32.26	-35.5	-37.0	18.0	0.00e+00	0	62	0	1927282688	42	4339
2026-01-20 00:46:13.70	101.45	32.23	-35.7	-37.2	17.8	0.00e+00	0	62	0	1932525568	42	4414
2026-01-20 00:46:14.71	101.82	32.21	-35.8	-37.4	17.6	0.00e+00	0	62	0	1938817024	42	4511
2026-01-20 00:46:15.72	102.19	32.18	-35.9	-37.4	17.6	0.00e+00	0	62	0	1944059904	42	4540
2026-01-20 00:46:16.73	102.56	32.15	-35.8	-37.4	17.6	0.00e+00	0	62	0	1949302784	42	4523
2026-01-20 00:46:17.74	102.93	32.13	-35.8	-37.4	17.7	0.00e+00	0	62	0	1955594240	42	4508
2026-01-20 00:46:18.75	103.29	32.10	-35.9	-37.4	17.6	0.00e+00	0	62	0	1960837120	42	4527
2026-01-20 00:46:19.76	103.66	32.06	-35.8	-37.3	17.8	0.00e+00	0	62	0	1967128576	42	4452
2026-01-20 00:46:20.77	104.03	32.03	-35.8	-37.3	17.7	0.00e+00	0	62	0	1972371456	42	4486
2026-01-20 00:46:21.78	104.39	32.00	-35.8	-37.4	17.6	0.00e+00	0	62	0	1977614336	42	4534
2026-01-20 00:46:22.79	104.75	31.96	-35.9	-37.4	17.6	0.00e+00	0	62	0	1983905792	42	4544
2026-01-20 00:46:23.80	105.12	31.93	-35.8	-37.4	17.6	0.00e+00	0	62	0	1989148672	42	4517
2026-01-20 00:46:24.81	105.48	31.89	-35.9	-37.4	17.6	0.00e+00	0	62	0	1995440128	42	4534
2026-01-20 00:46:25.81	105.84	31.85	-35.8	-37.3	17.7	0.00e+00	0	62	0	2000683008	42	4470
2026-01-20 00:46:26.83	106.20	31.81	-35.8	-37.3	17.7	0.00e+00	0	62	0	2005925888	42	4472
2026-01-20 00:46:27.84	106.56	31.77	-35.7	-37.3	17.7	0.00e+00	0	62	0	2012217344	42	4449
2026-01-20 00:46:28.85	106.92	31.73	-35.7	-37.3	17.8	0.00e+00	0	62	0	2017460224	42	4453
2026-01-20 00:46:29.86	107.28	31.69	-35.6	-37.1	17.9	0.00e+00	0	62	0	2023751680	42	4385
2026-01-20 00:46:30.87	107.64	31.64	-35.7	-37.2	17.9	0.00e+00	0	62	0	2028994560	42	4406
2026-01-20 00:46:31.88	108.00	31.60	-35.7	-37.2	17.9	0.00e+00	0	62	0	2035286016	42	4396
2026-01-20 00:46:32.88	108.35	31.55	-35.7	-37.2	17.8	0.00e+00	0	62	0	2040528896	42	4429
2026-01-20 00:46:33.90	108.71	31.50	-35.8	-37.4	17.7	0.00e+00	0	62	0	2046820352	42	4499
2026-01-20 00:46:34.91	109.06	31.45	-35.8	-37.3	17.7	0.00e+00	0	62	0	2052063232	42	4479
2026-01-20 00:46:35.92	109.41	31.40	-35.7	-37.2	17.8	0.00e+00	0	62	0	2057306112	42	4440
2026-01-20 00:46:36.92	109.76	31.35	-35.7	-37.3	17.8	0.00e+00	0	62	0	2063597568	42	4445
2026-01-20 00:46:37.94	110.11	31.30	-35.7	-37.3	17.8	0.00e+00	0	62	0	2068840448	42	4450
2026-01-20 00:46:38.95	110.46	31.25	-35.8	-37.3	17.7	0.00e+00	0	62	0	2075131904	42	4490
2026-01-20 00:46:39.95	110.81	31.19	-35.9	-37.5	17.6	0.00e+00	0	62	0	2080374784	42	4566
2026-01-20 00:46:40.96	111.15	31.14	-36.0	-37.6	17.5	0.00e+00	0	62	0	2085617664	42	4604
2026-01-20 00:46:41.97	111.50	31.08	-35.8	-37.4	17.6	0.00e+00	0	62	0	2091909120	42	4517
2026-01-20 00:46:42.98	111.84	31.02	-35.9	-37.5	17.5	0.00e+00	0	62	0	2097152000	42	4549
2026-01-20 00:46:44.00	112.19	30.96	-35.8	-37.4	17.6	0.00e+00	0	62	0	2103443456	42	4514
2026-01-20 00:46:45.00	112.53	30.90	-35.9	-37.4	17.6	0.00e+00	0	62	0	2108686336	42	4536
2026-01-20 00:46:46.01	112.87	30.84	-36.0	-37.6	17.5	0.00e+00	0	62	0	2113929216	42	4600
2026-01-20 00:46:47.02	113.21	30.78	-35.9	-37.5	17.5	0.00e+00	0	62	0	2120220672	42	4573
2026-01-20 00:46:48.04	113.55	30.72	-36.0	-37.5	17.5	0.00e+00	0	62	0	2125463552	42	4597
2026-01-20 00:46:49.04	113.88	30.66	-36.0	-37.5	17.6	0.00e+00	0	62	0	2131755008	42	4576
2026-01-20 00:46:50.05	114.22	30.59	-35.9	-37.5	17.6	0.00e+00	0	62	0	2136997888	42	4560
2026-01-20 00:46:51.06	114.56	30.53	-35.8	-37.3	17.7	0.00e+00	0	62	0	2143289344	42	4481
2026-01-20 00:46:52.07	114.89	30.46	-35.8	-37.3	17.7	0.00e+00	0	62	0	2148532224	42	4491
2026-01-20 00:46:53.08	115.22	30.40	-35.8	-37.3	17.7	0.00e+00	0	62	0	2153775104	42	4467
2026-01-20 00:46:54.09	115.55	30.33	-35.8	-37.3	17.7	0.00e+00	0	62	0	2160066560	42	4478
2026-01-20 00:46:55.10	115.88	30.26	-35.9	-37.4	17.6	0.00e+00	0	62	0	2165309440	42	4540
2026-01-20 00:46:56.11	116.21	30.19	-35.9	-37.5	17.5	0.00e+00	0	62	0	2171600896	42	4567
2026-01-20 00:46:57.12	116.53	30.12	-36.0	-37.6	17.5	0.00e+00	0	62	0	2176843776	42	4600
2026-01-20 00:46:58.14	116.86	30.05	-35.9	-37.4	17.6	0.00e+00	0	62	0	2183135232	42	4538
2026-01-20 00:46:59.15	117.18	29.98	-35.8	-37.3	17.7	0.00e+00	0	62	0	2188378112	42	4485
2026-01-20 00:47:00.16	117.51	29.90	-35.8	-37.3	17.7	0.00e+00	0	62	0	2193620992	42	4480
2026-01-20 00:47:01.17	117.83	29.83	-35.8	-37.4	17.6	0.00e+00	0	62	0	2199912448	42	4509
2026-01-20 00:47:02.18	118.15	29.76	-35.9	-37.4	17.6	0.00e+00	0	62	0	2205155328	42	4542
2026-01-20 00:47:03.19	118.46	29.68	-35.9	-37.5	17.6	0.00e+00	0	62	0	2211446784	42	4555
2026-01-20 00:47:04.19	118.78	29.61	-36.0	-37.5	17.5	0.00e+00	0	62	0	2216689664	42	4591
2026-01-20 00:47:05.20	119.09	29.53	-36.0	-37.5	17.6	0.00e+00	0	62	0	2221932544	42	4576
2026-01-20 00:47:06.21	119.41	29.45	-36.0	-37.5	17.5	0.00e+00	0	62	0	2228224000	42	4576
2026-01-20 00:47:07.22	119.72	29.38	-35.9	-37.5	17.6	0.00e+00	0	62	0	2233466880	42	4568
2026-01-20 00:47:08.23	120.03	29.30	-35.9	-37.5	17.5	0.00e+00	0	62	0	2239758336	42	4569
2026-01-20 00:47:09.24	120.34	29.22	-35.9	-37.5	17.5	0.00e+00	0	62	0	2245001216	42	4569
2026-01-20 00:47:10.25	120.64	29.14	-36.1	-37.7	17.3	0.00e+00	0	62	0	2251292672	42	4674
2026-01-20 00:47:11.26	120.95	29.06	-36.1	-37.8	17.3	0.00e+00	0	62	0	2256535552	42	4718
2026-01-20 00:47:12.27	121.25	28.98	-36.0	-37.6	17.4	0.00e+00	0	62	0	2261778432	42	4620
2026-01-20 00:47:13.28	121.56	28.89	-35.9	-37.5	17.5	0.00e+00	0	62	0	2268069888	42	4574
2026-01-20 00:47:14.29	121.86	28.81	-36.0	-37.5	17.5	0.00e+00	0	62	0	2273312768	42	4586
2026-01-20 00:47:15.30	122.16	28.73	-36.0	-37.6	17.5	0.00e+00	0	62	0	2279604224	42	4605
2026-01-20 00:47:16.31	122.46	28.65	-35.9	-37.4	17.6	0.00e+00	0	62	0	2284847104	42	4514
2026-01-20 00:47:17.32	122.75	28.56	-36.0	-37.6	17.5	0.00e+00	0	62	0	2290089984	42	4607
2026-01-20 00:47:18.33	123.05	28.48	-36.2	-37.8	17.3	0.00e+00	0	62	0	2296381440	42	4716
2026-01-20 00:47:19.34	123.34	28.39	-36.2	-37.8	17.2	0.00e+00	0	62	0	2301624320	42	4735
2026-01-20 00:47:20.35	123.64	28.31	-36.2	-37.8	17.3	0.00e+00	0	62	0	2307915776	43	4466
2026-01-20 00:47:21.36	123.93	28.22	-36.1	-37.7	17.4	0.00e+00	0	62	0	2313158656	43	4415
2026-01-20 00:47:22.37	124.22	28.13	-36.1	-37.7	17.4	0.00e+00	0	62	0	2318401536	43	4419
2026-01-20 00:47:23.38	124.50	28.04	-36.1	-37.7	17.4	0.00e+00	0	62	0	2324692992	43	4401
2026-01-20 00:47:24.39	124.79	27.96	-36.2	-37.8	17.3	0.00e+00	0	62	0	2329935872	43	4450
2026-01-20 00:47:25.40	125.07	27.87	-36.3	-38.0	17.1	0.00e+00	0	62	0	2336227328	43	4553
2026-01-20 00:47:26.41	125.36	27.78	-36.2	-37.8	17.2	0.00e+00	0	62	0	2341470208	43	4484
2026-01-20 00:47:27.42	125.64	27.69	-36.1	-37.7	17.3	0.00e+00	0	62	0	2347761664	43	4422
2026-01-20 00:47:28.43	125.92	27.60	-36.2	-37.8	17.3	0.00e+00	0	62	0	2353004544	43	4443
2026-01-20 00:47:29.44	126.20	27.51	-36.1	-37.7	17.4	0.00e+00	0	62	0	2359296000	43	4400
2026-01-20 00:47:30.44	126.47	27.42	-36.0	-37.5	17.5	0.00e+00	0	62	0	2364538880	43	4310
2026-01-20 00:47:31.45	126.75	27.33	-36.0	-37.6	17.5	0.00e+00	0	62	0	2369781760	43	4350
2026-01-20 00:47:32.47	127.02	27.24	-36.1	-37.6	17.4	0.00e+00	0	62	0	2376073216	43	4385
2026-01-20 00:47:33.48	127.30	27.15	-36.1	-37.7	17.3	0.00e+00	0	62	0	2381316096	43	4439
2026-01-20 00:47:34.49	127.57	27.06	-36.2	-37.9	17.2	0.00e+00	0	62	0	2387607552	43	4496
2026-01-20 00:47:35.50	127.84	26.96	-36.2	-37.8	17.2	0.00e+00	0	62	0	2392850432	43	4482
2026-01-20 00:47:36.51	128.10	26.87	-36.2	-37.9	17.2	0.00e+00	0	62	0	2398093312	43	4499
2026-01-20 00:47:37.52	128.37	26.78	-36.2	-37.9	17.2	0.00e+00	0	62	0	2404384768	43	4500
2026-01-20 00:47:38.53	128.63	26.68	-36.1	-37.7	17.3	0.00e+00	0	62	0	2409627648	43	4403
2026-01-20 00:47:39.54	128.90	26.59	-36.2	-37.8	17.2	0.00e+00	0	62	0	2415919104	43	4457
2026-01-20 00:47:40.55	129.16	26.50	-36.1	-37.7	17.3	0.00e+00	0	62	0	2421161984	43	4425
2026-01-20 00:47:41.56	129.42	26.40	-36.1	-37.7	17.3	0.00e+00	0	62	0	2426404864	43	4441
2026-01-20 00:47:42.57	129.68	26.31	-36.2	-37.8	17.3	0.00e+00	0	62	0	2432696320	43	4443
2026-01-20 00:47:43.58	129.94	26.21	-36.1	-37.7	17.3	0.00e+00	0	62	0	2437939200	43	4416
2026-01-20 00:47:44.59	130.19	26.12	-36.2	-37.8	17.3	0.00e+00	0	62	0	2444230656	43	4447
2026-01-20 00:47:45.59	130.44	26.02	-36.2	-37.9	17.1	0.00e+00	0	62	0	2449473536	43	4500
2026-01-20 00:47:46.60	130.69	25.93	-36.2	-37.9	17.1	0.00e+00	0	62	0	2455764992	43	4498
2026-01-20 00:47:47.61	130.95	25.83	-36.3	-37.9	17.1	0.00e+00	0	62	0	2461007872	43	4515
2026-01-20 00:47:48.62	131.20	25.74	-36.3	-38.0	17.0	0.00e+00	0	62	0	2466250752	43	4550
2026-01-20 00:47:49.63	131.44	25.64	-36.2	-37.9	17.1	0.00e+00	0	62	0	2472542208	43	4503
2026-01-20 00:47:50.64	131.69	25.54	-36.3	-37.9	17.1	0.00e+00	0	62	0	2477785088	43	4508
2026-01-20 00:47:51.65	131.94	25.45	-36.2	-37.8	17.2	0.00e+00	0	62	0	2484076544	43	4468
2026-01-20 00:47:52.66	132.18	25.35	-36.2	-37.8	17.2	0.00e+00	0	62	0	2489319424	43	4461
2026-01-20 00:47:53.67	132.42	25.25	-36.2	-37.8	17.2	0.00e+00	0	62	0	2494562304	43	4458
2026-01-20 00:47:54.68	132.66	25.15	-36.3	-37.9	17.0	0.00e+00	0	62	0	2500853760	43	4545
2026-01-20 00:47:55.69	132.90	25.06	-36.4	-38.1	16.9	0.00e+00	0	62	0	2506096640	43	4609
2026-01-20 00:47:56.70	133.14	24.96	-36.5	-38.1	16.8	0.00e+00	0	62	0	2512388096	43	4650
2026-01-20 00:47:57.71	133.38	24.86	-36.4	-38.1	16.9	0.00e+00	0	62	0	2517630976	43	4602
2026-01-20 00:47:58.72	133.61	24.76	-36.5	-38.1	16.9	0.00e+00	0	62	0	2522873856	43	4650
2026-01-20 00:47:59.73	133.85	24.67	-36.6	-38.2	16.8	0.00e+00	0	62	0	2529165312	43	4684
2026-01-20 00:48:00.74	134.08	24.57	-36.4	-38.1	16.9	0.00e+00	0	62	0	2534408192	43	4604
2026-01-20 00:48:01.75	134.31	24.47	-36.4	-38.1	16.9	0.00e+00	0	62	0	2540699648	43	4608
2026-01-20 00:48:02.76	134.54	24.37	-36.5	-38.1	16.9	0.00e+00	0	62	0	2545942528	43	4628
2026-01-20 00:48:03.77	134.77	24.27	-36.5	-38.2	16.8	0.00e+00	0	62	0	2552233984	43	4654
2026-01-20 00:48:04.78	134.99	24.17	-36.6	-38.2	16.7	0.00e+00	0	62	0	2557476864	43	4704
2026-01-20 00:48:05.79	135.22	24.08	-36.6	-38.2	16.8	0.00e+00	0	62	0	2563768320	43	4689
2026-01-20 00:48:06.81	135.44	23.98	-36.6	-38.3	16.7	0.00e+00	0	62	0	2569011200	43	4707
2026-01-20 00:48:07.82	135.67	23.88	-36.4	-38.1	16.9	0.00e+00	0	62	0	2574254080	43	4601
2026-01-20 00:48:08.82	135.89	23.78	-36.5	-38.1	16.9	0.00e+00	0	62	0	2580545536	43	4619
2026-01-20 00:48:09.83	136.11	23.68	-36.5	-38.1	16.8	0.00e+00	0	62	0	2585788416	43	4643
2026-01-20 00:48:10.84	136.32	23.58	-36.5	-38.1	16.9	0.00e+00	0	62	0	2592079872	43	4625
2026-01-20 00:48:11.85	136.54	23.48	-36.5	-38.1	16.8	0.00e+00	0	62	0	2597322752	43	4641
2026-01-20 00:48:12.86	136.76	23.38	-36.6	-38.2	16.7	0.00e+00	0	62	0	2602565632	43	4694
2026-01-20 00:48:13.87	136.97	23.29	-36.5	-38.2	16.8	0.00e+00	0	62	0	2608857088	43	4667
2026-01-20 00:48:14.88	137.18	23.19	-36.6	-38.2	16.7	0.00e+00	0	62	0	2614099968	43	4691
2026-01-20 00:48:15.89	137.40	23.09	-36.6	-38.3	16.7	0.00e+00	0	62	0	2620391424	43	4707
2026-01-20 00:48:16.90	137.61	22.99	-36.6	-38.2	16.7	0.00e+00	0	62	0	2625634304	43	4678
2026-01-20 00:48:17.91	137.82	22.89	-36.7	-38.3	16.6	0.00e+00	0	62	0	2630877184	43	4754
2026-01-20 00:48:18.92	138.02	22.79	-36.7	-38.4	16.6	0.00e+00	0	62	0	2637168640	43	4797
2026-01-20 00:48:19.93	138.23	22.69	-37.0	-38.7	16.4	0.00e+00	0	62	0	2642411520	44	4671
2026-01-20 00:48:20.94	138.44	22.59	-37.1	-38.8	16.3	0.00e+00	0	62	0	2648702976	44	4759
2026-01-20 00:48:21.95	138.64	22.49	-37.1	-38.9	16.2	0.00e+00	0	62	0	2653945856	44	4782
2026-01-20 00:48:22.96	138.84	22.39	-37.2	-38.9	16.2	0.00e+00	0	62	0	2660237312	44	4807
2026-01-20 00:48:23.97	139.04	22.29	-37.2	-39.0	16.1	0.00e+00	0	62	0	2665480192	44	4825
2026-01-20 00:48:24.98	139.25	22.20	-37.1	-38.8	16.3	0.00e+00	0	62	0	2671771648	44	4748
2026-01-20 00:48:25.99	139.44	22.10	-37.1	-38.9	16.2	0.00e+00	0	62	0	2677014528	44	4766
2026-01-20 00:48:27.00	139.64	22.00	-37.2	-39.0	16.2	0.00e+00	0	62	0	2682257408	44	4823
2026-01-20 00:48:28.01	139.84	21.90	-37.3	-39.1	16.0	0.00e+00	0	62	0	2688548864	45	4610
2026-01-20 00:48:29.02	140.03	21.80	-37.3	-39.1	16.0	0.00e+00	0	62	0	2693791744	45	4646
2026-01-20 00:48:30.03	140.23	21.70	-37.3	-39.2	15.9	0.00e+00	0	62	0	2699034624	45	4659
2026-01-20 00:48:31.04	140.42	21.60	-37.3	-39.1	16.0	0.00e+00	0	62	0	2705326080	45	4637
2026-01-20 00:48:32.05	140.61	21.50	-37.3	-39.1	16.0	0.00e+00	0	62	0	2710568960	45	4622
2026-01-20 00:48:33.06	140.80	21.41	-37.4	-39.2	15.9	0.00e+00	0	62	0	2716860416	45	4674
2026-01-20 00:48:34.07	140.99	21.31	-37.3	-39.1	15.9	0.00e+00	0	62	0	2722103296	45	4644
2026-01-20 00:48:35.08	141.18	21.21	-37.2	-39.0	16.1	0.00e+00	0	62	0	2727346176	45	4548
2026-01-20 00:48:36.09	141.37	21.11	-37.1	-38.9	16.1	0.00e+00	0	62	0	2733637632	45	4534
2026-01-20 00:48:37.10	141.55	21.01	-37.2	-39.0	16.1	0.00e+00	0	62	0	2738880512	45	4558
2026-01-20 00:48:38.11	141.74	20.91	-37.1	-38.8	16.2	0.00e+00	0	62	0	2745171968	45	4476
2026-01-20 00:48:39.12	141.92	20.82	-37.1	-38.8	16.2	0.00e+00	0	62	0	2750414848	45	4488
2026-01-20 00:48:40.13	142.10	20.72	-37.1	-38.8	16.2	0.00e+00	0	62	0	2756706304	45	4481
2026-01-20 00:48:41.14	142.29	20.62	-37.1	-38.8	16.2	0.00e+00	0	62	0	2761949184	45	4493
2026-01-20 00:48:42.15	142.47	20.52	-37.1	-38.8	16.2	0.00e+00	0	62	0	2768240640	45	4464
2026-01-20 00:48:43.16	142.65	20.42	-37.1	-38.9	16.1	0.00e+00	0	62	0	2773483520	45	4518
2026-01-20 00:48:44.17	142.82	20.33	-37.2	-39.0	16.1	0.00e+00	0	62	0	2778726400	45	4551
2026-01-20 00:48:45.18	143.00	20.23	-37.2	-39.0	16.0	0.00e+00	0	62	0	2785017856	45	4579
2026-01-20 00:48:46.19	143.18	20.13	-37.3	-39.2	15.9	0.00e+00	0	62	0	2790260736	45	4657
2026-01-20 00:48:47.20	143.35	20.03	-37.4	-39.2	15.9	0.00e+00	0	62	0	2796552192	45	4669
2026-01-20 00:48:48.21	143.52	19.94	-37.4	-39.3	15.8	0.00e+00	0	62	0	2801795072	45	4717
2026-01-20 00:48:49.22	143.70	19.84	-37.5	-39.4	15.7	0.00e+00	0	62	0	2807037952	45	4761
2026-01-20 00:48:50.23	143.87	19.74	-37.5	-39.3	15.7	0.00e+00	0	62	0	2813329408	45	4743
2026-01-20 00:48:51.23	144.04	19.65	-37.5	-39.4	15.7	0.00e+00	0	62	0	2818572288	45	4765
2026-01-20 00:48:52.24	144.21	19.55	-37.5	-39.4	15.6	0.00e+00	0	62	0	2824863744	45	4799
2026-01-20 00:48:53.25	144.38	19.45	-37.5	-39.3	15.7	0.00e+00	0	62	0	2830106624	45	4754
2026-01-20 00:48:54.26	144.54	19.36	-37.5	-39.3	15.7	0.00e+00	0	62	0	2835349504	45	4753
2026-01-20 00:48:55.27	144.71	19.26	-37.5	-39.3	15.7	0.00e+00	0	62	0	2841640960	45	4737
2026-01-20 00:48:56.28	144.87	19.17	-37.5	-39.3	15.7	0.00e+00	0	62	0	2846883840	45	4734
2026-01-20 00:48:57.30	145.04	19.07	-37.4	-39.2	15.8	0.00e+00	0	62	0	2853175296	45	4676
2026-01-20 00:48:58.31	145.20	18.97	-37.5	-39.3	15.7	0.00e+00	0	62	0	2858418176	45	4734
2026-01-20 00:48:59.32	145.37	18.88	-37.5	-39.4	15.6	0.00e+00	0	62	0	2864709632	45	4768
2026-01-20 00:49:00.33	145.53	18.78	-37.5	-39.4	15.6	0.00e+00	0	62	0	2869952512	45	4781
2026-01-20 00:49:01.34	145.69	18.69	-37.6	-39.5	15.4	0.00e+00	0	62	0	2876243968	45	4858
2026-01-20 00:49:02.35	145.85	18.59	-37.7	-39.6	15.3	0.00e+00	0	62	0	2881486848	45	4914
2026-01-20 00:49:03.36	146.01	18.50	-37.8	-39.7	15.3	0.00e+00	0	62	0	2886729728	46	4698
2026-01-20 00:49:04.37	146.16	18.40	-37.9	-39.9	15.1	0.00e+00	0	62	0	2893021184	46	4767
2026-01-20 00:49:05.38	146.32	18.31	-37.9	-39.9	15.1	0.00e+00	0	62	0	2898264064	46	4793
2026-01-20 00:49:06.38	146.47	18.21	-37.9	-39.9	15.1	0.00e+00	0	62	0	2904555520	46	4814
2026-01-20 00:49:07.39	146.63	18.12	-37.9	-39.9	15.1	0.00e+00	0	62	0	2909798400	46	4765
2026-01-20 00:49:08.40	146.78	18.02	-38.0	-40.0	15.0	0.00e+00	0	62	0	2915041280	46	4839
2026-01-20 00:49:09.41	146.93	17.93	-38.0	-39.9	15.1	0.00e+00	0	62	0	2921332736	46	4805
2026-01-20 00:49:10.42	147.09	17.84	-37.9	-39.8	15.2	0.00e+00	0	62	0	2926575616	46	4746
2026-01-20 00:49:11.43	147.24	17.74	-37.9	-39.8	15.2	0.00e+00	0	62	0	2931818496	46	4758
2026-01-20 00:49:12.44	147.39	17.65	-37.9	-39.9	15.1	0.00e+00	0	62	0	2938109952	46	4791
2026-01-20 00:49:13.45	147.54	17.56	-38.1	-40.1	14.9	0.00e+00	0	62	0	2943352832	46	4886
2026-01-20 00:49:14.46	147.69	17.46	-38.0	-40.0	15.0	1.10e-06	0	62	0	2949644288	46	4848
2026-01-20 00:49:15.47	147.83	17.37	-38.0	-40.0	14.9	0.00e+00	0	62	0	2954887168	46	4855
2026-01-20 00:49:16.48	147.98	17.28	-38.2	-40.2	14.8	0.00e+00	0	62	0	2961178624	46	4956
2026-01-20 00:49:17.49	148.12	17.18	-38.2	-40.2	14.8	0.00e+00	0	62	0	2966421504	46	4971
2026-01-20 00:49:18.50	148.27	17.09	-38.2	-40.2	14.8	0.00e+00	0	62	0	2972712960	47	4667
2026-01-20 00:49:19.51	148.41	17.00	-38.1	-40.1	14.9	0.00e+00	0	62	0	2977955840	47	4634
2026-01-20 00:49:20.52	148.56	16.91	-38.2	-40.2	14.8	0.00e+00	0	62	0	2983198720	47	4666
2026-01-20 00:49:21.53	148.70	16.82	-38.1	-40.0	14.9	0.00e+00	0	62	0	2989490176	47	4596
2026-01-20 00:49:22.54	148.84	16.72	-38.0	-40.0	15.0	0.00e+00	0	62	0	2994733056	47	4558
2026-01-20 00:49:23.55	148.98	16.63	-38.1	-40.1	14.9	0.00e+00	0	62	0	3001024512	47	4605
2026-01-20 00:49:24.56	149.12	16.54	-38.2	-40.2	14.8	1.10e-06	0	62	0	3006267392	47	4674
2026-01-20 00:49:25.57	149.26	16.45	-38.0	-40.0	15.0	0.00e+00	0	62	0	3011510272	47	4561
2026-01-20 00:49:26.58	149.40	16.36	-38.0	-40.0	15.0	0.00e+00	0	62	0	3017801728	47	4570
2026-01-20 00:49:27.59	149.53	16.27	-38.1	-40.1	14.9	0.00e+00	0	62	0	3023044608	47	4622
2026-01-20 00:49:28.60	149.67	16.18	-38.1	-40.2	14.8	0.00e+00	0	62	0	3029336064	47	4661
2026-01-20 00:49:29.61	149.81	16.09	-38.0	-40.0	14.9	0.00e+00	0	62	0	3034578944	47	4584
2026-01-20 00:49:30.62	149.94	16.00	-38.0	-40.0	14.9	0.00e+00	0	62	0	3039821824	47	4572
2026-01-20 00:49:31.63	150.08	15.91	-38.0	-40.0	14.9	0.00e+00	0	62	0	3046113280	47	4587
2026-01-20 00:49:32.64	150.21	15.82	-38.0	-40.0	14.9	0.00e+00	0	62	0	3051356160	47	4581
2026-01-20 00:49:33.65	150.34	15.73	-38.0	-40.0	14.9	1.10e-06	0	62	0	3057647616	47	4589
2026-01-20 00:49:34.66	150.47	15.64	-38.1	-40.1	14.8	0.00e+00	0	62	0	3062890496	47	4608
2026-01-20 00:49:35.67	150.60	15.55	-38.1	-40.2	14.8	1.10e-06	0	62	0	3069181952	47	4662
2026-01-20 00:49:36.68	150.73	15.46	-38.1	-40.1	14.8	0.00e+00	0	62	0	3074424832	47	4622
2026-01-20 00:49:37.69	150.86	15.37	-38.1	-40.1	14.8	0.00e+00	0	62	0	3080716288	47	4651
2026-01-20 00:49:38.70	150.99	15.28	-38.2	-40.3	14.6	0.00e+00	0	62	0	3085959168	47	4711
2026-01-20 00:49:39.71	151.12	15.19	-38.1	-40.2	14.7	1.10e-06	0	62	0	3091202048	47	4672
2026-01-20 00:49:40.72	151.25	15.10	-38.2	-40.3	14.6	0.00e+00	0	62	0	3097493504	47	4718
2026-01-20 00:49:41.73	151.37	15.01	-38.2	-40.3	14.6	0.00e+00	0	62	0	3102736384	47	4740
2026-01-20 00:49:42.74	151.50	14.93	-38.3	-40.4	14.5	0.00e+00	0	62	0	3109027840	47	4792
2026-01-20 00:49:43.75	151.62	14.84	-38.3	-40.5	14.4	0.00e+00	0	62	0	3114270720	47	4815
2026-01-20 00:49:44.76	151.75	14.75	-38.3	-40.4	14.5	0.00e+00	0	62	0	3119513600	47	4794
2026-01-20 00:49:45.77	151.87	14.66	-38.4	-40.5	14.3	0.00e+00	0	62	0	3125805056	47	4868
2026-01-20 00:49:46.78	152.00	14.58	-38.4	-40.5	14.4	0.00e+00	0	62	0	3131047936	47	4843
2026-01-20 00:49:47.79	152.12	14.49	-38.3	-40.5	14.4	0.00e+00	0	62	0	3137339392	47	4830
2026-01-20 00:49:48.80	152.24	14.40	-38.4	-40.5	14.3	1.10e-06	0	62	0	3142582272	47	4851
2026-01-20 00:49:49.81	152.36	14.32	-38.4	-40.6	14.3	1.10e-06	0	62	0	3147825152	47	4900
2026-01-20 00:49:50.82	152.48	14.23	-38.5	-40.6	14.2	1.10e-06	0	62	0	3154116608	47	4925
2026-01-20 00:49:51.83	152.60	14.14	-38.4	-40.6	14.3	0.00e+00	0	62	0	3159359488	47	4887
2026-01-20 00:49:52.84	152.72	14.06	-38.5	-40.7	14.2	0.00e+00	0	62	0	3165650944	47	4928
2026-01-20 00:49:53.85	152.84	13.97	-38.6	-40.8	14.1	1.10e-06	0	62	0	3170893824	47	4992
2026-01-20 00:49:54.85	152.95	13.89	-38.5	-40.7	14.1	2.20e-06	0	62	0	3177185280	47	4956
2026-01-20 00:49:55.87	153.07	13.80	-38.6	-40.8	14.0	1.10e-06	0	62	0	3182428160	47	4999
2026-01-20 00:49:56.88	153.19	13.71	-38.4	-40.6	14.2	2.20e-06	0	62	0	3187671040	47	4889
2026-01-20 00:49:57.89	153.30	13.63	-38.5	-40.6	14.2	1.10e-06	0	62	0	3193962496	47	4908
2026-01-20 00:49:58.89	153.42	13.54	-38.5	-40.7	14.1	1.10e-06	0	62	0	3199205376	47	4954
2026-01-20 00:49:59.91	153.53	13.46	-38.6	-40.8	14.0	2.20e-06	0	62	0	3205496832	47	4995
2026-01-20 00:50:00.92	153.65	13.37	-38.6	-40.8	14.0	1.10e-06	0	62	0	3210739712	47	5023
2026-01-20 00:50:01.93	153.76	13.29	-38.7	-40.9	13.9	2.20e-06	0	62	0	3215982592	47	5093
2026-01-20 00:50:02.94	153.87	13.21	-38.7	-40.9	13.9	2.20e-06	0	62	0	3222274048	47	5081
2026-01-20 00:50:03.95	153.98	13.12	-38.8	-41.1	13.8	4.50e-06	0	62	0	3227516928	48	4891
2026-01-20 00:50:04.96	154.10	13.04	-38.9	-41.2	13.8	2.20e-06	0	62	0	3233808384	48	4932
2026-01-20 00:50:05.97	154.21	12.95	-39.0	-41.3	13.6	3.40e-06	0	62	0	3239051264	48	4988
2026-01-20 00:50:06.98	154.32	12.87	-38.9	-41.2	13.7	2.20e-06	0	62	0	3244294144	48	4944
2026-01-20 00:50:07.99	154.43	12.79	-39.0	-41.3	13.6	3.40e-06	0	62	0	3250585600	48	4987
2026-01-20 00:50:09.00	154.53	12.71	-39.0	-41.4	13.5	5.70e-06	0	62	0	3255828480	48	5063
2026-01-20 00:50:10.01	154.64	12.62	-39.0	-41.3	13.6	3.40e-06	0	62	0	3262119936	48	4990
2026-01-20 00:50:11.01	154.75	12.54	-39.0	-41.3	13.5	5.70e-06	0	62	0	3267362816	48	5018
2026-01-20 00:50:12.02	154.86	12.46	-38.9	-41.3	13.6	6.80e-06	0	62	0	3273654272	48	4986
2026-01-20 00:50:13.03	154.96	12.38	-38.9	-41.2	13.6	5.70e-06	0	62	0	3278897152	48	4981
2026-01-20 00:50:14.04	155.07	12.29	-39.0	-41.3	13.6	8.00e-06	0	62	0	3285188608	48	5000
2026-01-20 00:50:15.05	155.17	12.21	-39.0	-41.3	13.5	8.00e-06	0	62	0	3290431488	48	5002
2026-01-20 00:50:16.06	155.28	12.13	-39.0	-41.3	13.5	9.10e-06	0	62	0	3295674368	48	5034
2026-01-20 00:50:17.07	155.38	12.05	-39.0	-41.3	13.5	9.10e-06	0	62	0	3301965824	48	5023
2026-01-20 00:50:18.08	155.49	11.97	-39.0	-41.4	13.4	5.70e-06	0	62	0	3307208704	48	5053
2026-01-20 00:50:19.09	155.59	11.89	-39.1	-41.5	13.3	9.10e-06	0	62	0	3313500160	48	5105
2026-01-20 00:50:20.10	155.69	11.81	-39.1	-41.6	13.2	6.80e-06	0	62	0	3318743040	48	5162
2026-01-20 00:50:21.11	155.79	11.72	-39.2	-41.6	13.1	2.05e-05	0	62	0	3323985920	48	5184
2026-01-20 00:50:22.12	155.90	11.64	-39.2	-41.7	13.0	1.71e-05	0	62	0	3330277376	49	4963
2026-01-20 00:50:23.13	156.00	11.56	-39.2	-41.7	13.0	1.48e-05	0	62	0	3335520256	49	4970
2026-01-20 00:50:24.14	156.10	11.48	-39.2	-41.7	13.1	2.28e-05	0	62	0	3341811712	49	4936
2026-01-20 00:50:25.15	156.20	11.40	-39.3	-41.8	12.9	2.40e-05	0	62	0	3347054592	49	5018
2026-01-20 00:50:26.16	156.30	11.32	-39.3	-41.8	12.9	1.71e-05	0	62	0	3352297472	49	5000
2026-01-20 00:50:27.17	156.39	11.24	-39.2	-41.7	13.0	1.71e-05	0	62	0	3358588928	49	4949
2026-01-20 00:50:28.17	156.49	11.17	-39.3	-41.8	12.9	2.51e-05	0	62	0	3363831808	49	4986
2026-01-20 00:50:29.18	156.59	11.09	-39.3	-41.7	12.9	2.40e-05	0	62	0	3370123264	49	4976
2026-01-20 00:50:30.19	156.69	11.01	-39.2	-41.7	13.0	2.97e-05	0	62	0	3375366144	49	4935
2026-01-20 00:50:31.20	156.78	10.93	-39.2	-41.7	12.9	1.94e-05	0	62	0	3381657600	49	4959
2026-01-20 00:50:32.21	156.88	10.85	-39.3	-41.7	12.9	2.17e-05	0	62	0	3386900480	49	4969
2026-01-20 00:50:33.22	156.98	10.77	-39.3	-41.8	12.9	2.05e-05	0	62	0	3392143360	49	4999
2026-01-20 00:50:34.23	157.07	10.69	-39.3	-41.7	12.9	3.31e-05	0	62	0	3398434816	49	4973
2026-01-20 00:50:35.24	157.17	10.61	-39.2	-41.7	12.9	2.63e-05	0	62	0	3403677696	49	4973
2026-01-20 00:50:36.25	157.26	10.54	-39.3	-41.8	12.8	3.08e-05	0	62	0	3409969152	49	4988
2026-01-20 00:50:37.26	157.35	10.46	-39.2	-41.7	13.0	3.08e-05	0	62	0	3415212032	49	4930
2026-01-20 00:50:38.27	157.45	10.38	-39.2	-41.7	12.9	2.05e-05	0	62	0	3420454912	49	4956
2026-01-20 00:50:39.28	157.54	10.30	-39.2	-41.7	12.9	3.43e-05	0	62	0	3426746368	49	4943
2026-01-20 00:50:40.29	157.63	10.23	-39.3	-41.8	12.8	4.80e-05	0	62	0	3431989248	49	5014
2026-01-20 00:50:41.30	157.73	10.15	-39.3	-41.8	12.8	3.66e-05	0	62	0	3438280704	49	5010
