passes_logs/2026/01/20/R2.0S_Moscow/R2.0S_Moscow__20260120_012116_SUOMI_NPP_rec.log

#Pass ID: 20260120_012116_SUOMI NPP
#Satellite: SUOMI NPP
#Configuration: NPP
#almurnet v.1.7.20251203
#Start time: 2026-01-20 01:21:16

#Version: 2.2.20231116
#Station: R2.0S_Moscow
#Location: 37.707566 lon 55.798166 lat
#TLE: 1 37849U 11061A   26019.26265094  .00000081  00000+0  59609-4 0  9993
#TLE: 2 37849  98.7817 321.2746 0002356  56.2510 303.8890 14.19526363737315

#Time	Az	El	Level	Level2	SNR	BER	BlckErr	Temp	State	Recorded	gain1	gain2
2026-01-20 01:21:16.59	10.46	2.01	-40.0	-54.7	3.8	1.49e+00	0	52	0	0	51	19831
2026-01-20 01:21:17.60	10.40	2.06	-40.0	-54.7	3.8	1.49e+00	0	53	104	0	51	19783
2026-01-20 01:21:18.61	10.34	2.12	-40.0	-54.7	3.8	1.49e+00	0	53	104	0	51	19768
2026-01-20 01:21:19.62	10.27	2.18	-40.0	-54.7	3.8	1.49e+00	0	53	104	0	51	19775
2026-01-20 01:21:20.63	10.21	2.24	-40.0	-54.7	3.8	1.49e+00	0	53	104	0	51	19778
2026-01-20 01:21:21.64	10.15	2.29	-40.0	-54.7	3.8	1.49e+00	0	53	104	0	51	19729
2026-01-20 01:21:22.65	10.08	2.35	-40.0	-54.7	3.8	1.49e+00	0	53	104	0	51	19787
2026-01-20 01:21:23.67	10.02	2.41	-40.0	-54.7	3.8	1.49e+00	0	53	104	0	51	19751
2026-01-20 01:21:24.68	9.95	2.47	-40.0	-54.7	3.8	1.49e+00	0	53	104	0	51	19734
2026-01-20 01:21:25.69	9.89	2.53	-40.0	-54.7	3.8	1.49e+00	0	53	104	0	51	19660
2026-01-20 01:21:26.70	9.82	2.58	-40.0	-54.7	3.8	1.49e+00	0	54	104	0	51	19723
2026-01-20 01:21:27.71	9.76	2.64	-40.0	-54.7	3.8	1.49e+00	0	53	104	0	51	19758
2026-01-20 01:21:28.72	9.69	2.70	-40.0	-54.7	3.8	1.49e+00	0	54	104	0	51	19682
2026-01-20 01:21:29.73	9.63	2.76	-40.0	-54.7	3.8	1.49e+00	0	54	104	0	51	19687
2026-01-20 01:21:30.74	9.56	2.82	-40.0	-54.7	3.8	1.49e+00	0	54	104	0	51	19703
2026-01-20 01:21:31.75	9.49	2.88	-40.0	-54.7	3.8	1.49e+00	0	54	104	0	51	19792
2026-01-20 01:21:32.76	9.43	2.94	-40.0	-54.7	3.8	1.49e+00	0	54	104	0	51	19700
2026-01-20 01:21:33.77	9.36	2.99	-40.0	-54.7	3.8	1.49e+00	0	54	104	0	51	19721
2026-01-20 01:21:34.78	9.29	3.05	-40.0	-54.7	3.8	1.49e+00	0	54	104	0	51	19713
2026-01-20 01:21:35.79	9.23	3.11	-40.0	-54.7	3.8	1.49e+00	0	54	104	0	51	19739
2026-01-20 01:21:36.79	9.16	3.17	-40.0	-54.7	3.8	1.49e+00	0	54	104	0	51	19733
2026-01-20 01:21:37.81	9.09	3.23	-40.0	-54.7	3.8	1.49e+00	0	54	104	0	51	19723
2026-01-20 01:21:38.82	9.02	3.29	-40.0	-54.7	3.8	1.49e+00	0	54	104	0	51	19678
2026-01-20 01:21:39.83	8.95	3.35	-40.0	-54.7	3.8	1.49e+00	0	54	104	0	51	19735
2026-01-20 01:21:40.84	8.88	3.41	-40.0	-54.7	3.8	1.49e+00	0	54	104	0	51	19710
2026-01-20 01:21:41.85	8.82	3.47	-40.0	-54.7	3.8	1.49e+00	0	55	104	0	51	19696
2026-01-20 01:21:42.86	8.75	3.53	-40.0	-54.7	3.8	1.49e+00	0	54	104	0	51	19714
2026-01-20 01:21:43.87	8.68	3.59	-40.0	-54.7	3.8	1.49e+00	0	55	104	0	51	19725
2026-01-20 01:21:44.88	8.61	3.65	-40.0	-54.7	3.8	1.49e+00	0	55	104	0	51	19675
2026-01-20 01:21:45.89	8.54	3.71	-40.0	-54.7	3.8	1.49e+00	0	55	104	0	51	19669
2026-01-20 01:21:46.90	8.46	3.77	-40.0	-54.7	3.8	1.49e+00	0	55	104	0	51	19704
2026-01-20 01:21:47.91	8.39	3.83	-40.0	-54.7	3.8	1.49e+00	0	55	104	0	51	19690
2026-01-20 01:21:48.92	8.32	3.89	-40.0	-54.7	3.8	1.49e+00	0	55	104	0	51	19666
2026-01-20 01:21:49.93	8.25	3.95	-40.0	-54.7	3.8	1.49e+00	0	55	104	0	51	19680
2026-01-20 01:21:50.94	8.18	4.01	-40.0	-54.7	3.8	1.49e+00	0	55	104	0	51	19673
2026-01-20 01:21:51.95	8.11	4.07	-40.0	-54.7	3.8	1.49e+00	0	55	104	0	51	19701
2026-01-20 01:21:52.95	8.03	4.13	-40.0	-54.7	3.8	1.49e+00	0	55	104	0	51	19697
2026-01-20 01:21:53.96	7.96	4.19	-40.0	-54.7	3.8	1.49e+00	0	55	104	0	51	19695
2026-01-20 01:21:54.98	7.89	4.25	-40.0	-54.7	3.8	1.49e+00	0	55	104	0	51	19697
2026-01-20 01:21:55.99	7.81	4.31	-40.0	-54.7	3.8	1.49e+00	0	55	104	0	51	19694
2026-01-20 01:21:57.00	7.74	4.37	-40.0	-54.7	3.8	1.49e+00	0	55	104	0	51	19661
2026-01-20 01:21:58.01	7.67	4.43	-40.0	-54.7	3.8	1.49e+00	0	55	104	0	51	19669
2026-01-20 01:21:59.02	7.59	4.49	-40.0	-54.7	3.8	1.49e+00	0	56	104	0	51	19652
2026-01-20 01:22:00.03	7.52	4.56	-40.0	-54.7	3.8	1.49e+00	0	56	104	0	51	19686
2026-01-20 01:22:01.04	7.44	4.62	-40.0	-54.7	3.8	1.49e+00	0	55	104	0	51	19714
2026-01-20 01:22:02.05	7.37	4.68	-40.0	-54.7	3.8	1.49e+00	0	56	104	0	51	19701
2026-01-20 01:22:03.06	7.29	4.74	-40.0	-54.7	3.8	1.49e+00	0	55	104	0	51	19673
2026-01-20 01:22:04.07	7.21	4.80	-40.0	-54.7	3.8	1.49e+00	0	56	104	0	51	19646
2026-01-20 01:22:05.08	7.14	4.86	-40.0	-54.7	3.8	1.49e+00	0	56	104	0	51	19708
2026-01-20 01:22:06.09	7.06	4.92	-40.0	-54.7	3.8	1.49e+00	0	56	104	0	51	19652
2026-01-20 01:22:07.10	6.98	4.99	-40.0	-54.7	3.8	1.49e+00	0	56	104	0	51	19700
2026-01-20 01:22:08.11	6.91	5.05	-40.0	-54.7	3.8	1.49e+00	0	56	104	0	51	19720
2026-01-20 01:22:09.12	6.83	5.11	-40.0	-54.7	3.8	1.49e+00	0	56	104	0	51	19675
2026-01-20 01:22:10.13	6.75	5.17	-40.0	-54.7	3.8	1.49e+00	0	56	104	0	51	19704
2026-01-20 01:22:11.14	6.67	5.23	-40.0	-54.7	3.8	1.49e+00	0	56	104	0	51	19703
2026-01-20 01:22:12.15	6.59	5.30	-40.0	-54.7	3.8	1.49e+00	0	56	104	0	51	19725
2026-01-20 01:22:13.16	6.51	5.36	-40.0	-54.7	3.8	1.49e+00	0	56	104	0	51	19737
2026-01-20 01:22:14.17	6.43	5.42	-40.0	-54.7	3.8	1.49e+00	0	56	104	0	51	19701
2026-01-20 01:22:15.19	6.35	5.48	-40.0	-54.7	3.8	1.49e+00	0	56	104	0	51	19688
2026-01-20 01:22:16.20	6.27	5.55	-40.0	-54.7	3.8	1.49e+00	0	56	104	0	51	19690
2026-01-20 01:22:17.20	6.19	5.61	-40.0	-54.7	3.8	1.49e+00	0	56	104	0	51	19726
2026-01-20 01:22:18.22	6.11	5.67	-40.0	-54.7	3.8	1.49e+00	0	56	104	0	51	19695
2026-01-20 01:22:19.23	6.03	5.74	-40.0	-54.7	3.8	1.49e+00	0	56	104	0	51	19636
2026-01-20 01:22:20.24	5.95	5.80	-40.0	-54.7	3.8	1.49e+00	0	56	104	0	51	19622
2026-01-20 01:22:21.25	5.86	5.86	-40.0	-54.7	3.8	1.49e+00	0	56	104	0	51	19649
2026-01-20 01:22:22.26	5.78	5.92	-40.0	-54.7	3.8	1.49e+00	0	56	104	0	51	19674
2026-01-20 01:22:23.27	5.70	5.99	-40.0	-54.7	3.8	1.49e+00	0	57	104	0	51	19703
2026-01-20 01:22:24.28	5.62	6.05	-40.0	-54.7	3.8	1.49e+00	0	56	104	0	51	19666
2026-01-20 01:22:25.29	5.53	6.11	-40.0	-54.7	3.8	1.49e+00	0	57	104	0	51	19638
2026-01-20 01:22:26.30	5.45	6.18	-40.0	-54.7	3.8	1.49e+00	0	57	104	0	51	19693
2026-01-20 01:22:27.31	5.36	6.24	-40.0	-54.7	3.8	1.49e+00	0	57	104	0	51	19650
2026-01-20 01:22:28.32	5.28	6.31	-40.0	-54.7	3.8	1.49e+00	0	57	104	0	51	19680
2026-01-20 01:22:29.33	5.19	6.37	-40.0	-54.7	3.8	1.49e+00	0	57	104	0	51	19693
2026-01-20 01:22:30.34	5.11	6.43	-40.0	-54.7	3.8	1.49e+00	0	57	104	0	51	19665
2026-01-20 01:22:31.35	5.02	6.50	-40.0	-54.7	3.8	1.49e+00	0	57	104	0	51	19650
2026-01-20 01:22:32.37	4.93	6.56	-40.0	-54.7	3.8	1.49e+00	0	57	104	0	51	19689
2026-01-20 01:22:33.38	4.85	6.63	-40.0	-54.7	3.8	1.49e+00	0	57	104	0	51	19618
2026-01-20 01:22:34.39	4.76	6.69	-40.0	-54.7	3.8	1.49e+00	0	57	104	0	51	19641
2026-01-20 01:22:35.39	4.67	6.76	-40.0	-54.6	3.8	1.49e+00	0	57	104	0	51	19601
2026-01-20 01:22:36.40	4.59	6.82	-40.0	-54.7	3.8	1.49e+00	0	57	104	0	51	19676
2026-01-20 01:22:37.41	4.50	6.88	-40.0	-54.7	3.8	1.49e+00	0	57	104	0	51	19700
2026-01-20 01:22:38.42	4.41	6.95	-40.0	-54.6	3.8	1.49e+00	0	57	104	0	51	19612
2026-01-20 01:22:39.43	4.32	7.01	-40.0	-54.7	3.8	1.49e+00	0	57	104	0	51	19662
2026-01-20 01:22:40.44	4.23	7.08	-40.0	-54.7	3.8	1.49e+00	0	58	104	0	51	19645
2026-01-20 01:22:41.46	4.14	7.14	-40.0	-54.7	3.8	1.49e+00	0	57	104	0	51	19654
2026-01-20 01:22:42.46	4.05	7.21	-40.0	-54.6	3.8	1.49e+00	0	57	104	0	51	19613
2026-01-20 01:22:43.47	3.96	7.27	-40.0	-54.7	3.8	1.49e+00	0	57	104	0	51	19646
2026-01-20 01:22:44.48	3.87	7.34	-40.0	-54.7	3.8	1.49e+00	0	57	104	0	51	19623
2026-01-20 01:22:45.50	3.77	7.41	-40.0	-54.7	3.8	1.49e+00	0	57	104	0	51	19676
2026-01-20 01:22:46.51	3.68	7.47	-40.0	-54.7	3.8	1.49e+00	0	58	104	0	51	19627
2026-01-20 01:22:47.52	3.59	7.54	-40.0	-54.7	3.8	1.49e+00	0	58	104	0	51	19628
2026-01-20 01:22:48.53	3.50	7.60	-40.0	-54.7	3.8	1.49e+00	0	57	104	0	51	19619
2026-01-20 01:22:49.54	3.40	7.67	-40.0	-54.7	3.8	1.49e+00	0	58	104	0	51	19665
2026-01-20 01:22:50.55	3.31	7.73	-40.0	-54.6	3.8	1.49e+00	0	58	104	0	51	19602
2026-01-20 01:22:51.56	3.21	7.80	-39.9	-54.7	3.8	1.49e+00	0	58	104	0	51	19651
2026-01-20 01:22:52.57	3.12	7.87	-40.0	-54.7	3.8	1.49e+00	0	58	104	0	51	19663
2026-01-20 01:22:53.58	3.02	7.93	-40.0	-54.7	3.8	1.49e+00	0	58	104	0	51	19662
2026-01-20 01:22:54.59	2.93	8.00	-40.0	-54.7	3.8	1.49e+00	0	58	104	0	51	19657
2026-01-20 01:22:55.60	2.83	8.07	-40.1	-54.8	3.8	1.49e+00	0	58	104	0	51	19930
2026-01-20 01:22:56.62	2.73	8.13	-40.0	-54.8	3.8	1.49e+00	0	58	104	0	51	19944
2026-01-20 01:22:57.63	2.64	8.20	-40.1	-54.8	3.8	1.49e+00	0	58	104	0	51	19966
2026-01-20 01:22:58.64	2.54	8.27	-40.2	-54.9	3.8	1.49e+00	0	58	104	0	51	20210
2026-01-20 01:22:59.65	2.44	8.33	-40.1	-54.8	3.8	1.49e+00	0	58	104	0	51	19987
2026-01-20 01:23:00.64	2.34	8.40	-40.0	-54.8	3.8	1.49e+00	0	58	104	0	51	19985
2026-01-20 01:23:01.65	2.24	8.47	-40.1	-54.9	3.8	1.49e+00	0	58	104	0	51	20125
2026-01-20 01:23:02.66	2.15	8.53	-40.1	-54.9	3.8	1.49e+00	0	58	104	0	51	20165
2026-01-20 01:23:03.67	2.05	8.60	-40.1	-54.8	3.8	1.49e+00	0	58	104	0	51	20057
2026-01-20 01:23:04.69	1.94	8.67	-40.1	-54.9	3.8	1.49e+00	0	58	104	0	51	20091
2026-01-20 01:23:05.69	1.84	8.73	-40.1	-54.8	3.8	1.49e+00	0	58	104	0	51	20043
2026-01-20 01:23:06.70	1.74	8.80	-40.0	-54.8	3.8	1.49e+00	0	58	104	0	51	19981
2026-01-20 01:23:07.72	1.64	8.87	-40.1	-54.8	3.8	1.49e+00	0	58	104	0	51	20013
2026-01-20 01:23:08.73	1.54	8.94	-40.2	-54.9	3.8	1.49e+00	0	58	104	0	51	20150
2026-01-20 01:23:09.73	1.44	9.00	-39.9	-54.8	3.8	1.49e+00	0	58	104	0	51	19855
2026-01-20 01:23:10.74	1.33	9.07	-40.0	-54.8	3.8	1.49e+00	0	58	104	0	51	19980
2026-01-20 01:23:11.76	1.23	9.14	-40.1	-54.8	3.8	1.49e+00	0	58	104	0	51	20026
2026-01-20 01:23:12.76	1.12	9.21	-40.1	-54.9	3.8	1.49e+00	0	58	104	0	51	20088
2026-01-20 01:23:13.77	1.02	9.28	-39.9	-54.7	3.8	1.49e+00	0	58	104	0	51	19826
2026-01-20 01:23:14.78	0.91	9.34	-40.0	-54.8	3.8	1.49e+00	0	58	104	0	51	20027
2026-01-20 01:23:15.79	0.81	9.41	-40.0	-54.8	3.8	1.49e+00	0	58	104	0	51	19927
2026-01-20 01:23:16.80	0.70	9.48	-40.1	-54.9	3.8	1.49e+00	0	58	104	0	51	20168
2026-01-20 01:23:17.81	0.59	9.55	-39.9	-54.8	3.8	1.49e+00	0	58	104	0	51	19899
2026-01-20 01:23:18.82	0.49	9.62	-39.9	-54.9	3.8	1.49e+00	0	59	104	0	51	20133
2026-01-20 01:23:19.83	0.38	9.69	-39.9	-54.8	3.8	1.49e+00	0	59	104	0	51	19954
2026-01-20 01:23:20.84	0.27	9.76	-40.2	-54.9	3.8	1.49e+00	0	58	104	0	51	20211
2026-01-20 01:23:21.85	0.16	9.82	-39.8	-54.8	3.8	1.49e+00	0	59	104	0	51	19872
2026-01-20 01:23:22.86	0.05	9.89	-39.8	-54.9	3.8	1.49e+00	0	59	104	0	51	20102
2026-01-20 01:23:23.87	359.94	9.96	-40.0	-54.8	3.8	1.49e+00	0	59	104	0	51	20002
2026-01-20 01:23:24.88	359.83	10.03	-40.3	-55.0	3.8	1.49e+00	0	59	104	0	51	20445
2026-01-20 01:23:25.89	359.72	10.10	-39.6	-54.8	3.8	1.49e+00	0	59	104	0	51	19934
2026-01-20 01:23:26.90	359.61	10.17	-39.8	-54.9	3.8	1.49e+00	0	59	104	0	51	20212
2026-01-20 01:23:27.91	359.50	10.24	-39.9	-54.8	3.8	1.49e+00	0	59	104	0	51	20031
2026-01-20 01:23:28.92	359.38	10.31	-40.3	-55.1	3.8	1.49e+00	0	59	104	0	51	20620
2026-01-20 01:23:29.93	359.27	10.38	-39.6	-54.8	3.8	1.49e+00	0	59	104	0	51	19890
2026-01-20 01:23:30.94	359.16	10.45	-39.9	-55.0	3.8	1.49e+00	0	59	104	0	51	20376
2026-01-20 01:23:31.95	359.04	10.52	-39.9	-54.9	3.8	1.49e+00	0	59	104	0	51	20073
2026-01-20 01:23:32.96	358.93	10.59	-40.2	-55.2	3.8	1.49e+00	0	59	104	0	51	20819
2026-01-20 01:23:33.97	358.81	10.66	-39.8	-54.7	3.8	1.49e+00	0	59	104	0	51	19817
2026-01-20 01:23:34.98	358.69	10.73	-40.1	-55.1	3.8	1.49e+00	0	59	104	0	51	20608
2026-01-20 01:23:35.99	358.58	10.80	-39.8	-54.9	3.8	1.49e+00	0	59	104	0	51	20130
2026-01-20 01:23:37.00	358.46	10.87	-40.4	-55.3	3.8	1.49e+00	0	59	104	0	51	21135
2026-01-20 01:23:38.01	358.34	10.94	-39.7	-54.8	3.8	1.49e+00	0	59	104	0	51	19846
2026-01-20 01:23:39.02	358.22	11.01	-40.3	-55.1	3.8	1.49e+00	0	59	104	0	51	20764
2026-01-20 01:23:40.03	358.10	11.08	-39.8	-54.9	3.8	1.49e+00	0	59	104	0	51	20147
2026-01-20 01:23:41.04	357.98	11.15	-40.5	-55.4	3.8	1.49e+00	0	59	104	0	51	21400
2026-01-20 01:23:42.04	357.86	11.22	-39.7	-54.8	3.8	1.49e+00	0	59	104	0	51	19987
2026-01-20 01:23:43.05	357.74	11.29	-40.1	-55.0	3.8	1.49e+00	0	59	104	0	51	20337
2026-01-20 01:23:44.06	357.62	11.36	-39.7	-54.8	3.8	1.49e+00	0	59	104	0	51	19924
2026-01-20 01:23:45.07	357.50	11.43	-39.9	-54.9	3.8	1.49e+00	0	59	104	0	51	20115
2026-01-20 01:23:46.08	357.38	11.50	-40.0	-54.9	3.8	1.49e+00	0	59	104	0	51	20202
2026-01-20 01:23:47.09	357.25	11.57	-40.1	-54.9	3.8	1.49e+00	0	59	104	0	51	20259
2026-01-20 01:23:48.10	357.13	11.64	-40.2	-55.1	3.8	1.49e+00	0	59	104	0	51	20593
2026-01-20 01:23:49.11	357.01	11.71	-40.1	-55.0	3.8	1.49e+00	0	59	104	0	51	20339
2026-01-20 01:23:50.12	356.88	11.78	-41.0	-55.6	3.8	1.49e+00	0	59	104	0	52	20675
2026-01-20 01:23:51.13	356.76	11.86	-40.2	-55.0	3.8	1.49e+00	0	59	104	0	52	19333
2026-01-20 01:23:52.13	356.63	11.93	-40.1	-54.7	3.8	1.49e+00	0	59	104	0	52	18610
2026-01-20 01:23:53.14	356.50	12.00	-40.2	-54.9	3.8	1.49e+00	0	59	104	0	52	18971
2026-01-20 01:23:54.15	356.38	12.07	-40.1	-54.9	3.8	1.49e+00	0	59	104	0	52	18963
2026-01-20 01:23:55.16	356.25	12.14	-40.1	-54.9	3.8	1.49e+00	0	59	104	0	52	18970
2026-01-20 01:23:56.17	356.12	12.21	-40.2	-55.1	3.8	1.49e+00	0	59	104	0	52	19577
2026-01-20 01:23:57.18	355.99	12.28	-40.1	-55.0	3.8	1.49e+00	0	60	104	0	52	19310
2026-01-20 01:23:58.19	355.86	12.35	-41.6	-54.8	3.8	1.49e+00	0	59	104	0	53	17692
2026-01-20 01:23:59.20	355.73	12.43	-40.9	-55.0	3.8	1.49e+00	0	59	104	0	53	18210
2026-01-20 01:24:00.21	355.60	12.50	-41.1	-55.4	3.8	1.49e+00	0	59	104	0	53	19024
2026-01-20 01:24:01.22	355.46	12.57	-41.1	-54.5	3.8	1.49e+00	0	59	104	0	53	17218
2026-01-20 01:24:02.23	355.33	12.64	-41.1	-54.6	3.8	1.49e+00	0	60	104	0	53	17283
2026-01-20 01:24:03.23	355.20	12.71	-41.0	-54.7	3.8	1.49e+00	0	60	104	0	53	17600
2026-01-20 01:24:04.24	355.06	12.79	-40.7	-55.2	3.8	1.49e+00	0	59	104	0	53	18606
2026-01-20 01:24:05.25	354.93	12.86	-40.8	-55.4	3.8	1.49e+00	0	59	104	0	53	18959
2026-01-20 01:24:06.26	354.79	12.93	-40.5	-55.2	3.8	1.49e+00	0	60	104	0	52	19838
2026-01-20 01:24:07.27	354.66	13.00	-40.5	-55.3	3.8	1.49e+00	0	60	104	0	52	19885
2026-01-20 01:24:08.28	354.52	13.07	-40.6	-55.3	3.8	1.49e+00	0	59	104	0	52	19925
2026-01-20 01:24:09.29	354.38	13.15	-40.7	-55.5	3.8	1.49e+00	0	60	104	0	52	20319
2026-01-20 01:24:10.30	354.24	13.22	-40.6	-55.2	3.8	1.49e+00	0	60	104	0	52	19732
2026-01-20 01:24:11.31	354.11	13.29	-40.6	-55.3	3.8	1.49e+00	0	60	104	0	52	19889
2026-01-20 01:24:12.32	353.97	13.36	-40.4	-55.3	3.8	1.49e+00	0	60	104	0	52	20066
2026-01-20 01:24:13.33	353.83	13.44	-40.7	-55.4	3.8	1.49e+00	0	60	104	0	52	20126
2026-01-20 01:24:14.34	353.68	13.51	-40.5	-55.2	3.8	1.49e+00	0	60	104	0	52	19662
2026-01-20 01:24:15.35	353.54	13.58	-40.7	-55.3	3.8	1.49e+00	0	60	104	0	52	20002
2026-01-20 01:24:16.35	353.40	13.65	-40.6	-55.3	3.8	1.49e+00	0	60	104	0	52	19990
2026-01-20 01:24:17.36	353.26	13.72	-40.6	-55.3	3.8	1.49e+00	0	60	104	0	52	19911
2026-01-20 01:24:18.37	353.11	13.80	-40.7	-55.3	3.8	1.49e+00	0	60	104	0	52	19984
2026-01-20 01:24:19.39	352.97	13.87	-40.8	-55.5	3.8	1.49e+00	0	60	104	0	52	20413
2026-01-20 01:24:20.39	352.82	13.94	-40.6	-55.3	3.8	1.49e+00	0	60	104	0	52	19899
2026-01-20 01:24:21.40	352.68	14.02	-40.7	-55.4	3.8	1.49e+00	0	60	104	0	52	20077
2026-01-20 01:24:22.41	352.53	14.09	-40.8	-55.5	3.8	1.49e+00	0	60	104	0	52	20361
2026-01-20 01:24:23.42	352.38	14.16	-40.7	-55.5	3.8	1.49e+00	0	60	104	0	52	20387
2026-01-20 01:24:24.43	352.23	14.23	-40.7	-55.4	3.8	1.49e+00	0	60	104	0	52	20194
2026-01-20 01:24:25.44	352.09	14.31	-40.7	-55.4	3.8	1.49e+00	0	60	104	0	52	20226
2026-01-20 01:24:26.45	351.94	14.38	-40.7	-55.4	3.8	1.49e+00	0	60	104	0	52	20265
2026-01-20 01:24:27.46	351.78	14.45	-40.5	-55.4	3.8	1.49e+00	0	60	104	0	52	20203
2026-01-20 01:24:28.46	351.63	14.52	-40.7	-55.4	3.8	1.49e+00	0	60	104	0	52	20248
2026-01-20 01:24:29.48	351.48	14.60	-40.3	-55.4	3.8	1.49e+00	0	60	104	0	52	20176
2026-01-20 01:24:30.49	351.33	14.67	-40.7	-55.5	3.8	1.49e+00	0	60	104	0	52	20461
2026-01-20 01:24:31.49	351.18	14.74	-40.4	-55.6	3.8	1.49e+00	0	60	104	0	52	20540
2026-01-20 01:24:32.51	351.02	14.82	-40.3	-55.4	3.8	1.49e+00	0	60	104	0	52	20232
2026-01-20 01:24:33.51	350.87	14.89	-40.5	-55.7	3.8	1.49e+00	0	60	104	0	51	22145
2026-01-20 01:24:34.52	350.71	14.96	-40.8	-55.5	3.8	1.49e+00	0	60	104	0	52	20536
2026-01-20 01:24:35.53	350.55	15.04	-40.7	-55.7	3.8	1.49e+00	0	60	104	0	52	21017
2026-01-20 01:24:36.54	350.40	15.11	-40.2	-55.7	3.8	1.49e+00	0	60	104	0	52	20826
2026-01-20 01:24:37.55	350.24	15.18	-40.9	-55.7	3.8	1.49e+00	0	60	104	0	52	20968
2026-01-20 01:24:38.56	350.08	15.25	-40.8	-55.7	3.8	1.49e+00	0	60	104	0	52	20917
2026-01-20 01:24:39.57	349.92	15.33	-41.0	-55.7	3.8	1.49e+00	0	60	104	0	52	21014
2026-01-20 01:24:40.58	349.76	15.40	-40.6	-55.7	3.8	1.49e+00	0	60	104	0	52	20860
2026-01-20 01:24:41.59	349.60	15.47	-40.9	-55.8	3.8	1.49e+00	0	60	104	0	52	21047
2026-01-20 01:24:42.61	349.43	15.55	-41.1	-56.0	3.8	1.49e+00	0	60	104	0	52	21550
2026-01-20 01:24:43.62	349.27	15.62	-40.9	-55.8	3.8	1.49e+00	0	60	104	0	53	19875
2026-01-20 01:24:44.63	349.11	15.69	-40.8	-55.6	3.8	1.49e+00	0	60	104	0	53	19476
2026-01-20 01:24:45.63	348.94	15.76	-41.2	-56.0	3.8	1.49e+00	0	60	104	0	53	20345
2026-01-20 01:24:46.64	348.78	15.84	-41.4	-56.0	3.8	1.49e+00	0	60	104	0	53	20407
2026-01-20 01:24:47.65	348.61	15.91	-41.1	-55.9	3.8	1.49e+00	0	60	104	0	53	20296
2026-01-20 01:24:48.66	348.44	15.98	-41.2	-56.0	3.8	1.49e+00	0	60	104	0	53	20307
2026-01-20 01:24:49.67	348.27	16.06	-41.4	-56.0	3.8	1.49e+00	0	60	104	0	53	20434
2026-01-20 01:24:50.68	348.11	16.13	-41.4	-56.0	3.8	1.49e+00	0	60	104	0	53	20465
2026-01-20 01:24:51.69	347.94	16.20	-41.4	-56.0	3.8	1.49e+00	0	60	104	0	53	20437
2026-01-20 01:24:52.70	347.77	16.27	-41.5	-56.1	3.8	1.49e+00	0	60	104	0	53	20539
2026-01-20 01:24:53.71	347.59	16.35	-41.4	-56.0	3.8	1.49e+00	0	60	104	0	53	20494
2026-01-20 01:24:54.72	347.42	16.42	-41.4	-56.0	3.8	1.49e+00	0	60	104	0	53	20442
2026-01-20 01:24:55.73	347.25	16.49	-41.4	-56.0	3.8	1.49e+00	0	60	104	0	53	20507
2026-01-20 01:24:56.74	347.07	16.56	-41.5	-56.0	3.8	1.49e+00	0	60	104	0	53	20476
2026-01-20 01:24:57.75	346.90	16.64	-41.4	-56.0	3.8	1.49e+00	0	60	104	0	53	20319
2026-01-20 01:24:58.75	346.73	16.71	-41.2	-55.9	3.8	1.49e+00	0	60	104	0	53	20092
2026-01-20 01:24:59.76	346.55	16.78	-41.4	-56.1	3.8	1.49e+00	0	60	104	0	53	20572
2026-01-20 01:25:00.77	346.37	16.85	-41.4	-56.0	3.8	1.49e+00	0	60	104	0	53	20311
2026-01-20 01:25:01.78	346.19	16.92	-41.1	-55.7	3.8	1.49e+00	0	60	104	0	53	19759
2026-01-20 01:25:02.79	346.01	17.00	-41.0	-55.7	3.8	1.49e+00	0	60	104	0	53	19690
2026-01-20 01:25:03.80	345.83	17.07	-41.4	-56.0	3.8	1.49e+00	0	60	104	0	53	20361
2026-01-20 01:25:04.81	345.65	17.14	-41.0	-55.7	3.8	1.49e+00	0	60	104	0	53	19799
2026-01-20 01:25:05.82	345.47	17.21	-40.9	-55.6	3.8	1.49e+00	0	61	104	0	53	19424
2026-01-20 01:25:06.83	345.29	17.28	-41.0	-55.7	3.8	1.49e+00	0	61	104	0	53	19717
2026-01-20 01:25:07.84	345.10	17.35	-41.1	-55.8	3.8	1.49e+00	0	61	104	0	53	19872
2026-01-20 01:25:08.85	344.92	17.43	-40.9	-55.6	3.8	1.49e+00	0	60	104	0	53	19409
2026-01-20 01:25:09.85	344.74	17.50	-40.7	-55.5	3.8	1.49e+00	0	60	104	0	53	19347
2026-01-20 01:25:10.87	344.55	17.57	-40.7	-55.5	3.8	1.49e+00	0	60	104	0	53	19332
2026-01-20 01:25:11.88	344.36	17.64	-41.0	-55.7	3.8	1.49e+00	0	60	104	0	53	19752
2026-01-20 01:25:12.88	344.18	17.71	-40.8	-55.5	3.8	1.49e+00	0	60	104	0	53	19208
2026-01-20 01:25:13.89	343.99	17.78	-40.4	-55.4	3.8	1.49e+00	0	61	104	0	52	20260
2026-01-20 01:25:14.90	343.80	17.85	-40.5	-55.5	3.8	1.49e+00	0	61	104	0	52	20356
2026-01-20 01:25:15.91	343.61	17.92	-40.9	-55.6	3.8	1.49e+00	0	61	104	0	52	20719
2026-01-20 01:25:16.92	343.41	17.99	-40.9	-55.6	3.8	1.49e+00	0	60	104	0	52	20540
2026-01-20 01:25:17.93	343.22	18.06	-40.4	-55.5	3.8	1.49e+00	0	61	104	0	52	20450
2026-01-20 01:25:18.94	343.03	18.13	-40.8	-55.5	3.8	1.49e+00	0	61	104	0	52	20512
2026-01-20 01:25:19.95	342.83	18.20	-40.6	-55.4	3.8	1.49e+00	0	61	104	0	52	20272
2026-01-20 01:25:20.96	342.64	18.27	-41.1	-55.7	3.8	1.49e+00	0	61	104	0	52	20980
2026-01-20 01:25:21.97	342.44	18.34	-40.6	-55.5	3.8	1.49e+00	0	60	104	0	52	20432
2026-01-20 01:25:22.98	342.25	18.41	-40.6	-55.7	3.8	1.49e+00	0	60	104	0	52	20868
2026-01-20 01:25:23.99	342.05	18.48	-40.7	-55.5	3.8	1.49e+00	0	61	104	0	52	20505
2026-01-20 01:25:25.00	341.85	18.55	-40.9	-55.9	3.8	1.49e+00	0	61	104	0	52	21457
2026-01-20 01:25:26.01	341.65	18.62	-40.7	-55.5	3.8	1.49e+00	0	61	104	0	52	20491
2026-01-20 01:25:27.02	341.45	18.69	-41.2	-56.0	3.8	1.49e+00	0	61	104	0	53	20398
2026-01-20 01:25:28.03	341.25	18.76	-40.7	-55.6	3.8	1.49e+00	0	61	104	0	53	19413
2026-01-20 01:25:29.04	341.04	18.83	-41.4	-56.0	3.8	1.49e+00	0	61	104	0	53	20516
2026-01-20 01:25:30.04	340.84	18.90	-41.1	-55.6	3.8	1.49e+00	0	61	104	0	53	19406
2026-01-20 01:25:31.05	340.64	18.97	-41.6	-56.3	3.8	1.49e+00	0	61	104	0	53	21034
2026-01-20 01:25:32.06	340.43	19.03	-40.8	-55.3	3.8	1.49e+00	0	61	104	0	53	18880
2026-01-20 01:25:33.07	340.22	19.10	-41.0	-55.5	3.8	1.49e+00	0	60	104	0	53	19277
2026-01-20 01:25:34.08	340.02	19.17	-41.1	-55.6	3.8	1.49e+00	0	61	104	0	53	19536
2026-01-20 01:25:35.09	339.81	19.24	-41.2	-55.8	3.8	1.49e+00	0	61	104	0	53	19849
2026-01-20 01:25:36.10	339.60	19.30	-41.4	-56.1	3.8	1.49e+00	0	61	104	0	53	20628
2026-01-20 01:25:37.11	339.39	19.37	-41.4	-56.1	3.8	1.49e+00	0	61	104	0	53	20659
2026-01-20 01:25:38.12	339.18	19.44	-42.6	-51.2	5.5	9.34e-01	0	61	0	0	55	10487
2026-01-20 01:25:39.13	338.97	19.51	-43.7	-57.4	3.8	1.34e+00	0	61	104	0	57	19078
2026-01-20 01:25:40.14	338.75	19.57	-43.4	-56.6	3.8	5.72e-01	0	61	104	0	57	17363
2026-01-20 01:25:41.15	338.54	19.64	-42.4	-49.1	7.6	2.15e-01	0	61	0	1048576	56	7762
2026-01-20 01:25:42.16	338.32	19.70	-42.3	-48.5	8.3	5.94e-02	0	61	0	2097152	56	7208
2026-01-20 01:25:43.17	338.11	19.77	-42.1	-47.5	9.4	3.50e-02	0	61	0	4194304	56	6433
2026-01-20 01:25:44.18	337.89	19.84	-41.7	-46.7	10.2	6.53e-03	0	61	0	6291456	55	6225
2026-01-20 01:25:45.19	337.67	19.90	-41.9	-46.9	10.0	5.37e-03	0	61	0	8388608	55	6419
2026-01-20 01:25:46.19	337.46	19.96	-42.1	-47.3	9.8	1.17e-02	0	61	0	10485760	55	6697
2026-01-20 01:25:47.20	337.24	20.03	-41.9	-46.6	10.5	6.72e-03	0	61	0	12582912	55	6202
2026-01-20 01:25:48.21	337.02	20.09	-41.7	-46.1	11.1	1.67e-03	0	61	0	13631488	55	5810
2026-01-20 01:25:49.22	336.80	20.16	-41.8	-46.3	11.0	1.73e-03	0	61	0	15728640	55	5933
2026-01-20 01:25:50.23	336.57	20.22	-41.7	-46.2	11.2	1.34e-03	0	61	0	17825792	55	5867
2026-01-20 01:25:51.24	336.35	20.28	-41.8	-46.3	11.1	1.68e-03	0	61	0	19922944	55	5962
2026-01-20 01:25:52.25	336.13	20.35	-41.9	-46.5	10.9	2.26e-03	0	61	0	22020096	55	6130
2026-01-20 01:25:53.26	335.90	20.41	-41.8	-46.3	11.1	1.69e-03	0	61	0	23068672	55	5965
2026-01-20 01:25:54.27	335.68	20.47	-41.7	-46.1	11.4	1.10e-03	0	61	0	25165824	55	5806
2026-01-20 01:25:55.28	335.45	20.54	-41.6	-45.7	11.8	6.93e-04	0	61	0	27262976	55	5538
2026-01-20 01:25:56.29	335.22	20.60	-41.5	-45.6	12.0	3.81e-04	0	61	0	29360128	55	5467
2026-01-20 01:25:57.30	334.99	20.66	-41.4	-45.2	12.4	1.48e-04	0	61	0	31457280	54	5538
2026-01-20 01:25:58.30	334.76	20.72	-41.3	-45.0	12.6	8.62e-05	0	61	0	32505856	54	5452
2026-01-20 01:25:59.31	334.53	20.78	-41.3	-45.1	12.5	8.23e-05	0	61	0	34603008	54	5516
2026-01-20 01:26:00.32	334.30	20.84	-41.3	-45.1	12.6	1.07e-04	0	61	0	36700160	54	5475
2026-01-20 01:26:01.33	334.07	20.90	-41.4	-45.2	12.5	1.27e-04	0	61	0	38797312	54	5546
2026-01-20 01:26:02.34	333.84	20.96	-41.4	-45.2	12.4	1.58e-04	0	61	0	40894464	54	5571
2026-01-20 01:26:03.35	333.60	21.02	-41.5	-45.5	12.1	2.12e-04	0	61	0	41943040	54	5769
2026-01-20 01:26:04.36	333.37	21.08	-41.6	-45.5	12.2	2.49e-04	0	61	0	44040192	54	5759
2026-01-20 01:26:05.37	333.13	21.14	-41.6	-45.6	12.2	2.23e-04	0	61	0	46137344	54	5796
2026-01-20 01:26:06.38	332.89	21.20	-41.4	-45.2	12.6	9.23e-05	0	61	0	48234496	54	5530
2026-01-20 01:26:07.39	332.65	21.26	-41.4	-45.0	12.8	6.86e-05	0	61	0	50331648	54	5420
2026-01-20 01:26:08.40	332.41	21.31	-41.3	-44.8	13.0	5.11e-05	0	61	0	51380224	54	5316
2026-01-20 01:26:09.41	332.17	21.37	-41.2	-44.7	13.1	6.25e-05	0	61	0	53477376	54	5277
2026-01-20 01:26:10.42	331.93	21.43	-41.3	-44.9	12.9	4.04e-05	0	61	0	55574528	54	5352
2026-01-20 01:26:11.43	331.69	21.48	-41.4	-45.0	12.8	6.56e-05	0	61	0	57671680	54	5406
2026-01-20 01:26:12.44	331.45	21.54	-41.5	-45.1	12.7	7.55e-05	0	61	0	59768832	54	5520
2026-01-20 01:26:13.45	331.21	21.60	-41.4	-45.0	12.8	5.41e-05	0	61	0	60817408	54	5415
2026-01-20 01:26:14.45	330.96	21.65	-41.4	-44.9	13.0	4.11e-05	0	61	0	62914560	54	5367
2026-01-20 01:26:15.46	330.72	21.70	-41.2	-44.7	13.2	4.11e-05	0	61	0	65011712	54	5229
2026-01-20 01:26:16.47	330.47	21.76	-40.9	-44.2	13.7	4.50e-06	0	61	0	67108864	53	5224
2026-01-20 01:26:17.48	330.23	21.81	-41.0	-44.3	13.5	1.14e-05	0	61	0	69206016	53	5303
2026-01-20 01:26:18.49	329.98	21.87	-41.0	-44.3	13.5	1.22e-05	0	61	0	70254592	53	5302
2026-01-20 01:26:19.50	329.73	21.92	-41.1	-44.5	13.3	1.52e-05	0	61	0	72351744	53	5451
2026-01-20 01:26:20.51	329.48	21.97	-41.3	-44.7	13.1	2.51e-05	0	61	0	74448896	53	5574
2026-01-20 01:26:21.52	329.23	22.02	-41.3	-44.8	13.0	3.35e-05	0	61	0	76546048	53	5621
2026-01-20 01:26:22.53	328.98	22.07	-41.3	-44.8	13.1	5.03e-05	0	61	0	78643200	53	5618
2026-01-20 01:26:23.54	328.73	22.13	-41.3	-44.9	13.0	3.20e-05	0	61	0	80740352	53	5667
2026-01-20 01:26:24.55	328.47	22.18	-41.0	-44.3	13.5	1.90e-05	0	61	0	81788928	53	5332
2026-01-20 01:26:25.56	328.22	22.23	-40.9	-44.1	13.6	6.80e-06	0	61	0	83886080	53	5207
2026-01-20 01:26:26.57	327.96	22.28	-41.0	-44.2	13.6	4.50e-06	0	61	0	85983232	53	5238
2026-01-20 01:26:27.58	327.71	22.32	-41.0	-44.2	13.6	8.30e-06	0	61	0	88080384	53	5275
2026-01-20 01:26:28.59	327.45	22.37	-41.3	-44.7	13.2	1.52e-05	0	61	0	90177536	53	5580
2026-01-20 01:26:29.60	327.20	22.42	-41.4	-44.9	12.9	3.58e-05	0	61	0	91226112	53	5720
2026-01-20 01:26:30.61	326.94	22.47	-41.6	-45.3	12.6	7.78e-05	0	61	0	93323264	53	5939
2026-01-20 01:26:31.62	326.68	22.52	-41.6	-45.2	12.6	1.13e-04	0	61	0	95420416	53	5912
2026-01-20 01:26:32.63	326.42	22.56	-41.5	-45.1	12.8	9.68e-05	0	61	0	97517568	53	5809
2026-01-20 01:26:33.64	326.16	22.61	-41.5	-45.1	12.8	5.87e-05	0	61	0	99614720	53	5792
2026-01-20 01:26:34.65	325.90	22.65	-41.3	-44.8	13.1	3.89e-05	0	61	0	100663296	53	5605
2026-01-20 01:26:35.66	325.64	22.70	-41.2	-44.5	13.4	2.59e-05	0	61	0	102760448	53	5450
2026-01-20 01:26:36.66	325.38	22.74	-41.2	-44.6	13.3	1.90e-05	0	61	0	104857600	53	5497
2026-01-20 01:26:37.67	325.11	22.78	-41.3	-44.8	13.1	2.97e-05	0	61	0	106954752	53	5599
2026-01-20 01:26:38.68	324.85	22.83	-41.3	-44.7	13.1	2.67e-05	0	61	0	109051904	53	5583
2026-01-20 01:26:39.69	324.58	22.87	-41.4	-44.8	13.0	4.04e-05	0	61	0	110100480	53	5651
2026-01-20 01:26:40.70	324.32	22.91	-41.3	-44.8	13.1	4.65e-05	0	61	0	112197632	53	5628
2026-01-20 01:26:41.71	324.05	22.95	-41.3	-44.8	13.1	3.96e-05	0	61	0	114294784	53	5606
2026-01-20 01:26:42.72	323.79	22.99	-41.1	-44.5	13.4	2.21e-05	0	61	0	116391936	53	5405
2026-01-20 01:26:43.73	323.52	23.03	-41.0	-44.3	13.6	6.10e-06	0	61	0	118489088	53	5286
2026-01-20 01:26:44.74	323.25	23.07	-41.0	-44.1	13.7	6.80e-06	0	61	0	119537664	53	5210
2026-01-20 01:26:45.75	322.98	23.11	-40.9	-43.9	13.9	3.80e-06	0	61	0	121634816	53	5096
2026-01-20 01:26:46.76	322.71	23.15	-40.9	-43.9	13.9	5.30e-06	0	61	0	123731968	53	5092
2026-01-20 01:26:47.77	322.44	23.19	-41.0	-44.1	13.8	3.80e-06	0	62	0	125829120	53	5192
2026-01-20 01:26:48.78	322.17	23.22	-41.0	-44.2	13.7	6.80e-06	0	61	0	127926272	53	5246
2026-01-20 01:26:49.79	321.90	23.26	-41.1	-44.3	13.6	1.06e-05	0	61	0	128974848	53	5329
2026-01-20 01:26:50.80	321.63	23.30	-41.2	-44.5	13.4	1.37e-05	0	61	0	131072000	53	5438
2026-01-20 01:26:51.81	321.35	23.33	-41.2	-44.5	13.4	1.83e-05	0	61	0	133169152	53	5437
2026-01-20 01:26:52.82	321.08	23.36	-41.4	-44.9	13.0	3.28e-05	0	61	0	135266304	53	5666
2026-01-20 01:26:53.83	320.81	23.40	-41.4	-44.9	13.0	2.89e-05	0	61	0	137363456	53	5680
2026-01-20 01:26:54.84	320.53	23.43	-41.5	-45.1	12.8	4.11e-05	0	61	0	138412032	53	5795
2026-01-20 01:26:55.85	320.26	23.46	-41.5	-45.2	12.7	9.38e-05	0	61	0	140509184	53	5862
2026-01-20 01:26:56.86	319.98	23.49	-41.8	-45.7	12.2	1.55e-04	0	61	0	142606336	54	5890
2026-01-20 01:26:57.86	319.71	23.53	-42.0	-46.1	11.7	3.47e-04	0	61	0	144703488	54	6183
2026-01-20 01:26:58.87	319.43	23.56	-42.4	-46.9	11.0	1.58e-03	0	61	0	146800640	55	6366
2026-01-20 01:26:59.88	319.15	23.58	-42.6	-47.5	10.3	3.62e-03	0	61	0	148897792	55	6837
2026-01-20 01:27:00.90	318.87	23.61	-42.6	-47.4	10.3	5.64e-03	0	61	0	149946368	55	6753
2026-01-20 01:27:01.90	318.60	23.64	-42.6	-47.4	10.3	5.95e-03	0	61	0	152043520	55	6774
2026-01-20 01:27:02.91	318.32	23.67	-42.4	-46.9	10.9	2.82e-03	0	61	0	154140672	55	6390
2026-01-20 01:27:03.92	318.04	23.70	-42.2	-46.6	11.2	1.66e-03	0	62	0	156237824	55	6157
2026-01-20 01:27:04.93	317.76	23.72	-42.0	-46.1	11.7	6.26e-04	0	61	0	158334976	55	5826
2026-01-20 01:27:05.94	317.48	23.75	-42.0	-46.1	11.7	6.49e-04	0	61	0	159383552	55	5834
2026-01-20 01:27:06.95	317.20	23.77	-41.9	-46.0	11.9	3.94e-04	0	61	0	161480704	55	5741
2026-01-20 01:27:07.96	316.91	23.80	-41.9	-45.9	11.9	5.56e-04	0	61	0	163577856	55	5690
2026-01-20 01:27:08.97	316.63	23.82	-41.9	-46.0	11.8	5.12e-04	0	61	0	165675008	55	5779
2026-01-20 01:27:09.98	316.35	23.84	-42.0	-46.2	11.6	6.00e-04	0	61	0	167772160	55	5881
2026-01-20 01:27:10.99	316.07	23.86	-42.0	-46.3	11.6	6.16e-04	0	61	0	168820736	55	5931
2026-01-20 01:27:12.00	315.78	23.88	-42.0	-46.2	11.5	8.38e-04	0	61	0	170917888	55	5917
2026-01-20 01:27:13.01	315.50	23.90	-42.0	-46.2	11.6	5.31e-04	0	61	0	173015040	55	5894
2026-01-20 01:27:14.02	315.22	23.92	-41.8	-45.8	12.0	3.74e-04	0	61	0	175112192	55	5621
2026-01-20 01:27:15.03	314.93	23.94	-41.8	-45.7	12.1	2.33e-04	0	61	0	177209344	55	5575
2026-01-20 01:27:16.04	314.65	23.96	-41.8	-45.8	12.0	2.82e-04	0	61	0	178257920	55	5626
2026-01-20 01:27:17.04	314.37	23.98	-42.0	-46.3	11.5	4.50e-04	0	61	0	180355072	55	5933
2026-01-20 01:27:18.05	314.08	23.99	-42.2	-46.7	11.1	1.26e-03	0	61	0	182452224	55	6234
2026-01-20 01:27:19.06	313.80	24.01	-42.3	-46.8	11.0	1.49e-03	0	61	0	184549376	55	6281
2026-01-20 01:27:20.07	313.51	24.02	-42.3	-46.9	10.9	1.66e-03	0	62	0	186646528	55	6378
2026-01-20 01:27:21.08	313.23	24.04	-42.4	-47.0	10.8	2.63e-03	0	62	0	187695104	55	6453
2026-01-20 01:27:22.09	312.94	24.05	-42.4	-47.1	10.6	3.19e-03	0	61	0	189792256	55	6558
2026-01-20 01:27:23.10	312.65	24.06	-42.4	-47.2	10.5	3.85e-03	0	61	0	191889408	55	6641
2026-01-20 01:27:24.11	312.37	24.08	-42.4	-47.3	10.5	3.44e-03	0	61	0	193986560	55	6665
2026-01-20 01:27:25.11	312.08	24.09	-42.5	-47.4	10.3	3.71e-03	0	61	0	196083712	55	6783
2026-01-20 01:27:26.12	311.79	24.10	-42.3	-47.0	10.8	2.41e-03	0	61	0	197132288	55	6450
2026-01-20 01:27:27.13	311.51	24.11	-42.3	-46.9	10.9	2.07e-03	0	61	0	199229440	55	6362
2026-01-20 01:27:28.14	311.22	24.12	-42.4	-47.0	10.9	2.18e-03	0	61	0	201326592	55	6428
2026-01-20 01:27:29.15	310.93	24.12	-42.4	-46.9	10.9	2.29e-03	0	62	0	203423744	55	6418
2026-01-20 01:27:30.16	310.64	24.13	-42.5	-47.2	10.8	2.30e-03	0	62	0	205520896	55	6626
2026-01-20 01:27:31.17	310.36	24.14	-42.5	-47.4	10.4	3.18e-03	0	61	0	206569472	55	6765
2026-01-20 01:27:32.18	310.07	24.14	-42.6	-47.6	10.0	5.68e-03	0	62	0	208666624	55	6954
2026-01-20 01:27:33.19	309.78	24.15	-42.6	-47.6	10.2	6.97e-03	0	62	0	210763776	55	6929
2026-01-20 01:27:34.20	309.49	24.15	-42.6	-47.7	10.1	8.55e-03	0	61	0	212860928	55	6974
2026-01-20 01:27:35.20	309.21	24.16	-42.5	-47.4	10.3	5.45e-03	0	61	0	214958080	55	6774
2026-01-20 01:27:36.21	308.92	24.16	-42.3	-47.0	10.8	2.91e-03	0	62	0	216006656	55	6444
2026-01-20 01:27:37.22	308.63	24.16	-42.2	-46.7	11.1	2.03e-03	0	61	0	218103808	55	6239
2026-01-20 01:27:38.23	308.34	24.16	-42.1	-46.4	11.3	1.12e-03	0	61	0	220200960	55	6059
2026-01-20 01:27:39.24	308.05	24.16	-41.9	-46.0	11.8	7.27e-04	0	62	0	222298112	55	5784
2026-01-20 01:27:40.25	307.76	24.16	-41.8	-45.7	12.1	4.53e-04	0	61	0	224395264	55	5590
2026-01-20 01:27:41.26	307.48	24.16	-41.6	-45.5	12.4	2.46e-04	0	61	0	225443840	55	5403
2026-01-20 01:27:42.27	307.19	24.16	-41.7	-45.6	12.3	1.95e-04	0	62	0	227540992	55	5466
2026-01-20 01:27:43.28	306.90	24.15	-41.8	-45.7	12.1	2.28e-04	0	61	0	229638144	55	5592
2026-01-20 01:27:44.29	306.61	24.15	-42.0	-46.2	11.6	4.70e-04	0	62	0	231735296	55	5918
2026-01-20 01:27:45.30	306.32	24.15	-42.2	-46.7	11.1	1.19e-03	0	61	0	233832448	55	6245
2026-01-20 01:27:46.31	306.04	24.14	-42.1	-46.6	11.3	1.62e-03	0	61	0	234881024	55	6192
2026-01-20 01:27:47.32	305.75	24.13	-42.1	-46.6	11.2	1.81e-03	0	61	0	236978176	55	6159
2026-01-20 01:27:48.32	305.46	24.13	-42.1	-46.6	11.2	1.30e-03	0	61	0	239075328	55	6144
2026-01-20 01:27:49.34	305.17	24.12	-42.0	-46.4	11.4	9.62e-04	0	61	0	241172480	55	6015
2026-01-20 01:27:50.34	304.89	24.11	-42.1	-46.4	11.5	7.48e-04	0	61	0	243269632	55	6006
2026-01-20 01:27:51.35	304.60	24.10	-42.0	-46.3	11.5	7.72e-04	0	61	0	245366784	55	5939
2026-01-20 01:27:52.36	304.31	24.09	-42.0	-46.2	11.6	6.11e-04	0	61	0	246415360	55	5894
2026-01-20 01:27:53.37	304.02	24.08	-41.9	-46.1	11.7	7.38e-04	0	62	0	248512512	55	5851
2026-01-20 01:27:54.38	303.74	24.07	-41.9	-46.0	11.9	5.50e-04	0	62	0	250609664	55	5724
2026-01-20 01:27:55.39	303.45	24.06	-41.8	-45.9	11.9	5.00e-04	0	62	0	252706816	55	5701
2026-01-20 01:27:56.40	303.16	24.04	-41.9	-45.9	11.9	3.39e-04	0	62	0	254803968	55	5711
2026-01-20 01:27:57.41	302.88	24.03	-41.8	-45.9	11.9	4.31e-04	0	62	0	255852544	55	5668
2026-01-20 01:27:58.42	302.59	24.02	-41.9	-46.0	11.9	3.71e-04	0	62	0	257949696	55	5737
2026-01-20 01:27:59.43	302.31	24.00	-41.9	-45.9	11.9	4.29e-04	0	62	0	260046848	55	5712
2026-01-20 01:28:00.44	302.02	23.98	-41.8	-45.7	12.1	3.00e-04	0	62	0	262144000	55	5569
2026-01-20 01:28:01.45	301.74	23.97	-41.7	-45.5	12.3	1.89e-04	0	62	0	264241152	55	5458
2026-01-20 01:28:02.45	301.45	23.95	-41.6	-45.4	12.5	2.04e-04	0	62	0	265289728	55	5374
2026-01-20 01:28:03.46	301.17	23.93	-41.8	-45.7	12.2	1.40e-04	0	62	0	267386880	55	5566
2026-01-20 01:28:04.47	300.89	23.91	-41.8	-45.7	12.1	2.62e-04	0	62	0	269484032	55	5588
2026-01-20 01:28:05.48	300.60	23.89	-41.8	-45.7	12.1	1.61e-04	0	62	0	271581184	55	5584
2026-01-20 01:28:06.49	300.32	23.87	-41.6	-45.3	12.6	1.64e-04	0	62	0	273678336	55	5311
2026-01-20 01:28:07.50	300.04	23.85	-41.5	-45.1	12.7	5.79e-05	0	62	0	274726912	54	5497
2026-01-20 01:28:08.51	299.75	23.83	-41.2	-44.5	13.4	3.12e-05	0	62	0	276824064	54	5118
2026-01-20 01:28:09.52	299.47	23.81	-41.0	-44.2	13.7	8.30e-06	0	61	0	278921216	54	4953
2026-01-20 01:28:10.53	299.19	23.78	-41.0	-44.2	13.6	8.30e-06	0	62	0	281018368	53	5251
2026-01-20 01:28:11.54	298.91	23.76	-41.1	-44.3	13.6	6.80e-06	0	61	0	283115520	53	5324
2026-01-20 01:28:12.55	298.63	23.73	-41.1	-44.3	13.6	9.10e-06	0	62	0	284164096	53	5338
2026-01-20 01:28:13.56	298.35	23.71	-40.8	-43.9	13.9	6.10e-06	0	61	0	286261248	53	5077
2026-01-20 01:28:14.57	298.07	23.68	-40.8	-43.8	14.1	2.20e-06	0	62	0	288358400	53	5013
2026-01-20 01:28:15.58	297.79	23.65	-40.6	-43.4	14.5	1.50e-06	0	62	0	290455552	53	4814
2026-01-20 01:28:16.59	297.51	23.63	-40.8	-43.8	14.1	1.50e-06	0	62	0	292552704	53	4992
2026-01-20 01:28:17.60	297.23	23.60	-40.8	-43.8	14.1	2.20e-06	0	62	0	293601280	53	5040
2026-01-20 01:28:18.61	296.95	23.57	-40.8	-43.8	14.0	3.80e-06	0	62	0	295698432	53	5030
2026-01-20 01:28:19.62	296.67	23.54	-40.7	-43.7	14.2	1.50e-06	0	62	0	297795584	53	4967
2026-01-20 01:28:20.62	296.40	23.51	-40.8	-43.8	14.0	7.00e-07	0	62	0	299892736	53	5034
2026-01-20 01:28:21.63	296.12	23.48	-41.0	-44.2	13.7	2.20e-06	0	62	0	301989888	53	5246
2026-01-20 01:28:22.64	295.85	23.44	-41.0	-44.3	13.6	1.50e-06	0	61	0	303038464	53	5284
2026-01-20 01:28:23.65	295.57	23.41	-41.1	-44.4	13.5	7.60e-06	0	62	0	305135616	53	5361
2026-01-20 01:28:24.66	295.30	23.38	-41.2	-44.4	13.4	8.30e-06	0	61	0	307232768	53	5395
2026-01-20 01:28:25.67	295.02	23.34	-41.1	-44.4	13.5	1.37e-05	0	61	0	309329920	53	5349
2026-01-20 01:28:26.68	294.75	23.31	-41.1	-44.3	13.5	1.29e-05	0	62	0	311427072	53	5314
2026-01-20 01:28:27.69	294.47	23.27	-41.1	-44.4	13.5	3.80e-06	0	62	0	313524224	53	5371
2026-01-20 01:28:28.70	294.20	23.24	-41.2	-44.5	13.4	1.52e-05	0	62	0	314572800	53	5413
2026-01-20 01:28:29.71	293.93	23.20	-41.0	-44.2	13.7	8.30e-06	0	62	0	316669952	53	5243
2026-01-20 01:28:30.72	293.66	23.16	-41.1	-44.3	13.6	8.30e-06	0	61	0	318767104	53	5311
2026-01-20 01:28:31.73	293.39	23.13	-41.2	-44.5	13.4	7.60e-06	0	62	0	320864256	53	5408
2026-01-20 01:28:32.74	293.12	23.09	-41.3	-44.7	13.2	1.90e-05	0	61	0	322961408	53	5555
2026-01-20 01:28:33.75	292.85	23.05	-41.6	-45.3	12.6	4.65e-05	0	61	0	324009984	53	5936
2026-01-20 01:28:34.76	292.58	23.01	-41.7	-45.4	12.4	1.85e-04	0	62	0	326107136	54	5714
2026-01-20 01:28:35.77	292.31	22.97	-41.7	-45.4	12.4	1.36e-04	0	61	0	328204288	54	5704
2026-01-20 01:28:36.78	292.05	22.93	-41.7	-45.5	12.4	1.51e-04	0	62	0	330301440	54	5754
2026-01-20 01:28:37.79	291.78	22.89	-41.7	-45.5	12.4	1.03e-04	0	62	0	332398592	54	5734
2026-01-20 01:28:38.80	291.51	22.84	-41.7	-45.5	12.4	1.17e-04	0	62	0	333447168	54	5765
2026-01-20 01:28:39.81	291.25	22.80	-41.7	-45.5	12.4	1.33e-04	0	62	0	335544320	54	5756
2026-01-20 01:28:40.82	290.99	22.76	-41.8	-45.7	12.2	1.68e-04	0	62	0	337641472	54	5875
2026-01-20 01:28:41.83	290.72	22.71	-41.8	-45.7	12.1	2.33e-04	0	61	0	339738624	54	5888
2026-01-20 01:28:42.84	290.46	22.67	-42.0	-46.1	11.7	4.18e-04	0	62	0	341835776	54	6160
2026-01-20 01:28:43.85	290.20	22.62	-41.9	-46.0	11.9	3.73e-04	0	62	0	342884352	54	6098
2026-01-20 01:28:44.86	289.94	22.58	-42.2	-46.7	11.3	5.30e-04	0	62	0	344981504	54	6577
2026-01-20 01:28:45.87	289.68	22.53	-42.2	-46.5	11.3	1.19e-03	0	62	0	347078656	55	6124
2026-01-20 01:28:46.88	289.42	22.49	-42.2	-46.7	11.1	1.08e-03	0	62	0	349175808	55	6207
2026-01-20 01:28:47.89	289.16	22.44	-42.2	-46.7	11.1	1.70e-03	0	62	0	351272960	55	6244
2026-01-20 01:28:48.90	288.90	22.39	-42.3	-46.9	10.9	1.69e-03	0	62	0	352321536	55	6366
2026-01-20 01:28:49.91	288.64	22.34	-42.5	-47.2	10.5	3.27e-03	0	62	0	354418688	55	6644
2026-01-20 01:28:50.92	288.39	22.29	-42.4	-47.2	10.5	2.94e-03	0	62	0	356515840	55	6609
2026-01-20 01:28:51.93	288.13	22.24	-42.4	-47.2	10.5	3.99e-03	0	62	0	358612992	55	6587
2026-01-20 01:28:52.94	287.87	22.19	-42.4	-47.2	10.6	2.66e-03	0	62	0	360710144	55	6574
2026-01-20 01:28:53.95	287.62	22.14	-42.2	-46.7	11.0	2.39e-03	0	62	0	361758720	55	6261
2026-01-20 01:28:54.96	287.37	22.09	-42.2	-46.6	11.1	1.69e-03	0	62	0	363855872	55	6183
2026-01-20 01:28:55.97	287.12	22.04	-42.2	-46.6	11.1	1.65e-03	0	62	0	365953024	55	6178
2026-01-20 01:28:56.98	286.86	21.99	-42.1	-46.3	11.4	1.22e-03	0	62	0	368050176	55	5986
2026-01-20 01:28:57.99	286.61	21.94	-42.1	-46.5	11.3	1.09e-03	0	62	0	370147328	55	6086
2026-01-20 01:28:59.00	286.36	21.88	-42.2	-46.7	11.1	1.52e-03	0	62	0	371195904	55	6254
2026-01-20 01:29:00.01	286.11	21.83	-42.3	-46.9	10.9	1.69e-03	0	62	0	373293056	55	6361
2026-01-20 01:29:01.01	285.87	21.78	-42.4	-47.2	10.6	2.88e-03	0	62	0	375390208	55	6594
2026-01-20 01:29:02.02	285.62	21.72	-42.3	-47.1	10.7	3.40e-03	0	62	0	377487360	55	6497
2026-01-20 01:29:03.03	285.38	21.67	-42.3	-46.9	10.9	2.52e-03	0	62	0	379584512	55	6349
2026-01-20 01:29:04.04	285.13	21.61	-42.1	-46.6	11.2	1.97e-03	0	62	0	381681664	55	6135
2026-01-20 01:29:05.05	284.89	21.56	-42.0	-46.2	11.5	1.13e-03	0	62	0	382730240	55	5904
2026-01-20 01:29:06.06	284.64	21.50	-42.0	-46.3	11.4	8.15e-04	0	62	0	384827392	55	5991
2026-01-20 01:29:07.07	284.40	21.45	-42.1	-46.4	11.3	9.28e-04	0	62	0	386924544	55	6020
2026-01-20 01:29:08.08	284.16	21.39	-42.0	-46.2	11.6	9.32e-04	0	62	0	389021696	55	5919
2026-01-20 01:29:09.09	283.92	21.33	-42.1	-46.4	11.4	7.65e-04	0	62	0	391118848	55	6010
2026-01-20 01:29:10.10	283.68	21.28	-42.1	-46.3	11.5	8.45e-04	0	62	0	392167424	55	5988
2026-01-20 01:29:11.10	283.44	21.22	-42.0	-46.3	11.5	1.21e-03	0	62	0	394264576	55	5965
2026-01-20 01:29:12.11	283.20	21.16	-42.1	-46.4	11.2	1.50e-03	0	62	0	396361728	55	6057
2026-01-20 01:29:13.12	282.96	21.10	-42.3	-46.9	10.8	2.12e-03	0	62	0	398458880	55	6412
2026-01-20 01:29:14.13	282.73	21.04	-42.5	-47.4	10.2	3.00e-03	0	62	0	400556032	55	6767
2026-01-20 01:29:15.14	282.49	20.98	-42.6	-47.7	9.9	7.14e-03	0	62	0	401604608	55	7023
2026-01-20 01:29:16.15	282.26	20.92	-42.6	-47.8	9.9	8.86e-03	0	61	0	403701760	55	7063
2026-01-20 01:29:17.16	282.02	20.86	-42.4	-47.3	10.4	7.54e-03	0	62	0	405798912	55	6672
2026-01-20 01:29:18.17	281.79	20.80	-42.5	-47.4	10.4	4.77e-03	0	62	0	407896064	55	6734
2026-01-20 01:29:19.18	281.56	20.74	-42.3	-47.1	10.7	3.31e-03	0	62	0	409993216	55	6496
2026-01-20 01:29:20.19	281.33	20.68	-42.2	-46.9	10.7	3.15e-03	0	62	0	411041792	55	6403
2026-01-20 01:29:21.20	281.10	20.62	-42.2	-46.9	10.8	2.47e-03	0	62	0	413138944	55	6351
2026-01-20 01:29:22.21	280.87	20.55	-42.3	-47.2	10.5	2.45e-03	0	62	0	415236096	55	6599
2026-01-20 01:29:23.22	280.64	20.49	-42.5	-47.5	10.1	5.92e-03	0	62	0	417333248	55	6864
2026-01-20 01:29:24.23	280.41	20.43	-42.9	-48.4	9.4	1.18e-02	0	62	0	419430400	56	7158
2026-01-20 01:29:25.24	280.18	20.37	-43.1	-49.0	8.8	2.32e-02	0	62	0	420478976	56	7644
2026-01-20 01:29:26.25	279.96	20.30	-43.2	-49.3	8.5	3.40e-02	0	62	0	422576128	56	7923
2026-01-20 01:29:27.26	279.73	20.24	-43.0	-48.9	8.9	3.27e-02	0	62	0	424673280	56	7602
2026-01-20 01:29:28.26	279.51	20.18	-42.9	-48.5	9.3	1.97e-02	0	62	0	426770432	56	7220
2026-01-20 01:29:29.27	279.29	20.11	-42.7	-48.0	9.8	1.40e-02	0	62	0	428867584	56	6832
2026-01-20 01:29:30.28	279.07	20.05	-42.7	-47.9	9.9	8.18e-03	0	62	0	429916160	56	6729
2026-01-20 01:29:31.29	278.85	19.98	-42.5	-47.4	10.5	5.56e-03	0	62	0	432013312	56	6365
2026-01-20 01:29:32.30	278.63	19.92	-42.5	-47.3	10.6	3.59e-03	0	62	0	434110464	56	6283
2026-01-20 01:29:33.31	278.41	19.85	-42.4	-47.1	10.8	2.45e-03	0	62	0	436207616	56	6180
2026-01-20 01:29:34.32	278.19	19.79	-42.3	-46.8	11.1	2.75e-03	0	62	0	438304768	56	5937
2026-01-20 01:29:35.33	277.97	19.72	-42.1	-46.3	11.6	8.93e-04	0	62	0	439353344	56	5623
2026-01-20 01:29:36.34	277.76	19.66	-41.9	-46.1	11.7	5.84e-04	0	62	0	441450496	55	5790
2026-01-20 01:29:37.35	277.54	19.59	-41.9	-46.1	11.6	5.63e-04	0	62	0	443547648	55	5850
2026-01-20 01:29:38.36	277.33	19.52	-41.7	-45.7	12.0	4.65e-04	0	62	0	445644800	55	5572
2026-01-20 01:29:39.37	277.12	19.46	-41.6	-45.6	12.1	3.15e-04	0	62	0	447741952	55	5488
2026-01-20 01:29:40.38	276.90	19.39	-41.5	-45.4	12.2	2.50e-04	0	62	0	449839104	55	5389
2026-01-20 01:29:41.39	276.69	19.32	-41.5	-45.3	12.4	1.09e-04	0	62	0	450887680	54	5644
2026-01-20 01:29:42.40	276.48	19.25	-41.5	-45.2	12.5	1.19e-04	0	62	0	452984832	54	5561
2026-01-20 01:29:43.41	276.27	19.19	-41.3	-44.9	12.8	7.24e-05	0	62	0	455081984	54	5366
2026-01-20 01:29:44.42	276.06	19.12	-41.2	-44.8	13.0	5.18e-05	0	62	0	457179136	54	5282
2026-01-20 01:29:45.42	275.86	19.05	-41.0	-44.4	13.3	1.83e-05	0	62	0	458227712	54	5070
2026-01-20 01:29:46.43	275.65	18.98	-41.0	-44.4	13.3	1.22e-05	0	62	0	460324864	53	5380
2026-01-20 01:29:47.44	275.44	18.91	-41.0	-44.4	13.2	1.75e-05	0	62	0	462422016	53	5396
2026-01-20 01:29:48.45	275.24	18.85	-41.2	-44.8	12.9	2.82e-05	0	62	0	464519168	53	5601
2026-01-20 01:29:49.46	275.04	18.78	-41.3	-45.0	12.7	7.40e-05	0	62	0	466616320	53	5767
2026-01-20 01:29:50.47	274.83	18.71	-41.6	-45.5	12.2	1.44e-04	0	62	0	467664896	53	6103
2026-01-20 01:29:51.48	274.63	18.64	-41.8	-46.0	11.8	5.68e-04	0	62	0	469762048	54	6075
2026-01-20 01:29:52.49	274.43	18.57	-41.9	-46.3	11.4	9.34e-04	0	62	0	471859200	54	6284
2026-01-20 01:29:53.50	274.23	18.50	-42.1	-46.7	11.0	1.41e-03	0	62	0	473956352	54	6583
2026-01-20 01:29:54.51	274.03	18.43	-42.2	-46.9	10.8	2.68e-03	0	62	0	476053504	54	6765
2026-01-20 01:29:55.52	273.83	18.36	-42.1	-46.9	10.6	3.25e-03	0	62	0	478150656	55	6396
2026-01-20 01:29:56.53	273.63	18.29	-42.1	-46.9	10.7	3.23e-03	0	62	0	479199232	55	6380
2026-01-20 01:29:57.54	273.44	18.22	-42.1	-46.8	10.7	3.56e-03	0	62	0	481296384	55	6341
2026-01-20 01:29:58.55	273.24	18.15	-42.0	-46.6	11.0	1.96e-03	0	62	0	483393536	55	6152
2026-01-20 01:29:59.56	273.05	18.08	-42.0	-46.6	11.1	1.62e-03	0	62	0	485490688	55	6148
2026-01-20 01:30:00.57	272.85	18.01	-41.8	-46.1	11.6	9.62e-04	0	62	0	487587840	55	5806
2026-01-20 01:30:01.58	272.66	17.94	-41.9	-46.0	11.7	5.28e-04	0	62	0	488636416	55	5735
2026-01-20 01:30:02.59	272.47	17.87	-41.8	-45.6	12.0	4.66e-04	0	62	0	490733568	55	5528
2026-01-20 01:30:03.59	272.28	17.80	-41.8	-45.8	11.9	3.78e-04	0	62	0	492830720	55	5625
2026-01-20 01:30:04.60	272.09	17.73	-41.6	-45.3	12.4	2.04e-04	0	62	0	494927872	55	5331
2026-01-20 01:30:05.61	271.90	17.65	-41.6	-45.2	12.5	9.68e-05	0	62	0	497025024	55	5243
2026-01-20 01:30:06.62	271.71	17.58	-41.4	-44.9	12.8	6.56e-05	0	62	0	498073600	54	5400
2026-01-20 01:30:07.63	271.52	17.51	-41.5	-45.0	12.6	7.17e-05	0	62	0	500170752	54	5460
2026-01-20 01:30:08.65	271.33	17.44	-41.6	-45.3	12.4	1.14e-04	0	62	0	502267904	54	5629
2026-01-20 01:30:09.65	271.15	17.37	-41.8	-45.7	12.1	1.77e-04	0	62	0	504365056	54	5858
2026-01-20 01:30:10.66	270.97	17.30	-42.0	-46.1	11.6	5.88e-04	0	62	0	506462208	54	6173
2026-01-20 01:30:11.67	270.78	17.22	-42.1	-46.4	11.3	9.74e-04	0	62	0	507510784	54	6370
2026-01-20 01:30:12.68	270.60	17.15	-42.2	-46.5	11.1	1.43e-03	0	62	0	509607936	54	6470
2026-01-20 01:30:13.69	270.42	17.08	-42.2	-46.6	11.0	1.77e-03	0	62	0	511705088	55	6176
2026-01-20 01:30:14.70	270.23	17.01	-42.1	-46.3	11.4	1.25e-03	0	62	0	513802240	55	5945
2026-01-20 01:30:15.71	270.05	16.94	-41.9	-46.0	11.7	8.41e-04	0	62	0	515899392	55	5732
2026-01-20 01:30:16.72	269.87	16.86	-41.8	-45.8	11.8	5.61e-04	0	62	0	516947968	55	5656
2026-01-20 01:30:17.73	269.70	16.79	-41.9	-46.0	11.7	5.97e-04	0	62	0	519045120	55	5760
2026-01-20 01:30:18.74	269.52	16.72	-41.9	-46.1	11.6	6.32e-04	0	62	0	521142272	55	5809
2026-01-20 01:30:19.75	269.34	16.65	-42.1	-46.4	11.2	8.96e-04	0	62	0	523239424	55	6009
2026-01-20 01:30:20.76	269.16	16.57	-42.1	-46.4	11.2	1.29e-03	0	62	0	525336576	55	6042
2026-01-20 01:30:21.77	268.99	16.50	-42.0	-46.3	11.3	1.44e-03	0	62	0	526385152	55	5949
2026-01-20 01:30:22.77	268.82	16.43	-42.1	-46.4	11.2	1.36e-03	0	62	0	528482304	55	6037
2026-01-20 01:30:23.79	268.64	16.36	-42.0	-46.3	11.3	1.18e-03	0	62	0	530579456	55	5946
2026-01-20 01:30:24.79	268.47	16.28	-41.9	-46.1	11.5	1.02e-03	0	62	0	532676608	55	5840
2026-01-20 01:30:25.80	268.30	16.21	-41.9	-46.0	11.7	6.48e-04	0	62	0	534773760	55	5736
2026-01-20 01:30:26.82	268.13	16.14	-41.8	-45.7	11.9	4.72e-04	0	62	0	535822336	55	5569
2026-01-20 01:30:27.83	267.96	16.06	-41.8	-45.7	11.9	3.81e-04	0	62	0	537919488	55	5554
2026-01-20 01:30:28.83	267.79	15.99	-41.7	-45.5	12.1	3.91e-04	0	62	0	540016640	55	5455
2026-01-20 01:30:29.84	267.62	15.92	-41.5	-45.2	12.5	2.28e-04	0	62	0	542113792	55	5222
2026-01-20 01:30:30.85	267.45	15.85	-41.4	-45.0	12.6	8.23e-05	0	62	0	544210944	54	5415
2026-01-20 01:30:31.86	267.28	15.77	-41.3	-44.8	12.8	4.88e-05	0	62	0	546308096	54	5308
2026-01-20 01:30:32.87	267.12	15.70	-41.3	-44.8	12.8	4.95e-05	0	62	0	547356672	54	5337
2026-01-20 01:30:33.88	266.95	15.63	-41.5	-45.1	12.5	7.55e-05	0	62	0	549453824	54	5512
2026-01-20 01:30:34.89	266.79	15.55	-41.5	-45.3	12.3	1.16e-04	0	62	0	551550976	54	5605
2026-01-20 01:30:35.90	266.63	15.48	-41.5	-45.3	12.3	1.58e-04	0	62	0	553648128	54	5622
2026-01-20 01:30:36.91	266.46	15.41	-41.5	-45.3	12.3	1.76e-04	0	62	0	555745280	54	5617
2026-01-20 01:30:37.92	266.30	15.33	-41.5	-45.1	12.5	1.43e-04	0	62	0	556793856	54	5510
2026-01-20 01:30:38.93	266.14	15.26	-41.3	-44.8	12.8	8.08e-05	0	62	0	558891008	54	5308
2026-01-20 01:30:39.94	265.98	15.19	-41.2	-44.6	13.0	3.12e-05	0	62	0	560988160	54	5182
2026-01-20 01:30:40.95	265.82	15.11	-41.0	-44.3	13.3	1.83e-05	0	62	0	563085312	54	5012
2026-01-20 01:30:41.96	265.66	15.04	-40.9	-44.2	13.5	1.52e-05	0	62	0	565182464	53	5219
2026-01-20 01:30:42.97	265.50	14.97	-41.0	-44.2	13.4	1.44e-05	0	62	0	566231040	53	5273
2026-01-20 01:30:43.98	265.34	14.89	-41.0	-44.4	13.2	2.05e-05	0	62	0	568328192	53	5348
2026-01-20 01:30:44.99	265.19	14.82	-41.1	-44.4	13.2	2.44e-05	0	62	0	570425344	53	5397
2026-01-20 01:30:46.00	265.03	14.75	-41.2	-44.7	12.9	2.89e-05	0	62	0	572522496	53	5573
2026-01-20 01:30:47.00	264.88	14.68	-41.2	-44.7	12.9	4.04e-05	0	62	0	574619648	53	5551
2026-01-20 01:30:48.01	264.73	14.60	-41.2	-44.7	12.9	5.26e-05	0	62	0	575668224	53	5547
2026-01-20 01:30:49.02	264.57	14.53	-41.4	-45.0	12.6	6.33e-05	0	62	0	577765376	53	5761
2026-01-20 01:30:50.03	264.42	14.46	-41.4	-45.1	12.5	1.25e-04	0	62	0	579862528	53	5824
2026-01-20 01:30:51.04	264.27	14.38	-41.5	-45.3	12.3	1.19e-04	0	62	0	581959680	53	5956
2026-01-20 01:30:52.05	264.12	14.31	-41.4	-45.2	12.4	1.50e-04	0	62	0	584056832	53	5858
2026-01-20 01:30:53.06	263.97	14.24	-41.5	-45.2	12.3	1.79e-04	0	62	0	585105408	53	5922
2026-01-20 01:30:54.07	263.82	14.16	-41.4	-45.1	12.4	2.04e-04	0	62	0	587202560	53	5842
2026-01-20 01:30:55.08	263.67	14.09	-41.4	-45.0	12.5	1.23e-04	0	62	0	589299712	53	5777
2026-01-20 01:30:56.09	263.52	14.02	-41.3	-45.0	12.6	1.04e-04	0	62	0	591396864	53	5743
2026-01-20 01:30:57.10	263.37	13.94	-41.1	-44.6	13.0	4.50e-05	0	62	0	593494016	53	5468
2026-01-20 01:30:58.11	263.22	13.87	-41.0	-44.4	13.1	2.97e-05	0	62	0	594542592	53	5368
2026-01-20 01:30:59.12	263.08	13.80	-41.1	-44.5	13.0	5.49e-05	0	62	0	596639744	53	5451
2026-01-20 01:31:00.13	262.93	13.73	-41.2	-44.7	12.9	3.50e-05	0	62	0	598736896	53	5563
2026-01-20 01:31:01.13	262.79	13.65	-41.4	-45.1	12.5	6.48e-05	0	62	0	600834048	53	5794
2026-01-20 01:31:02.14	262.65	13.58	-41.5	-45.3	12.2	1.23e-04	0	62	0	602931200	53	5941
2026-01-20 01:31:03.15	262.50	13.51	-41.6	-45.6	11.9	3.35e-04	0	62	0	603979776	53	6165
2026-01-20 01:31:04.16	262.36	13.44	-41.7	-45.7	11.8	4.42e-04	0	62	0	606076928	54	5908
2026-01-20 01:31:05.17	262.22	13.36	-41.9	-46.1	11.4	7.85e-04	0	62	0	608174080	54	6193
2026-01-20 01:31:06.18	262.08	13.29	-41.9	-46.2	11.3	1.10e-03	0	62	0	610271232	54	6227
2026-01-20 01:31:07.19	261.94	13.22	-42.0	-46.3	11.2	1.45e-03	0	62	0	612368384	54	6291
2026-01-20 01:31:08.20	261.80	13.14	-41.9	-46.1	11.4	1.25e-03	0	62	0	614465536	54	6175
2026-01-20 01:31:09.21	261.66	13.07	-41.8	-46.0	11.4	9.14e-04	0	62	0	615514112	54	6123
2026-01-20 01:31:10.22	261.52	13.00	-41.8	-46.1	11.4	1.08e-03	0	62	0	617611264	54	6145
2026-01-20 01:31:11.23	261.38	12.93	-41.8	-46.0	11.5	8.13e-04	0	62	0	619708416	54	6085
2026-01-20 01:31:12.24	261.25	12.86	-41.9	-46.1	11.3	1.16e-03	0	62	0	621805568	54	6183
2026-01-20 01:31:13.25	261.11	12.78	-41.7	-45.9	11.6	8.69e-04	0	62	0	623902720	54	6003
2026-01-20 01:31:14.26	260.98	12.71	-41.7	-45.9	11.6	6.12e-04	0	62	0	624951296	54	5996
2026-01-20 01:31:15.27	260.84	12.64	-41.6	-45.7	11.8	6.79e-04	0	62	0	627048448	54	5863
2026-01-20 01:31:16.28	260.71	12.57	-41.6	-45.6	11.9	3.74e-04	0	62	0	629145600	54	5820
2026-01-20 01:31:17.29	260.57	12.49	-41.4	-45.2	12.3	3.26e-04	0	62	0	631242752	54	5563
2026-01-20 01:31:18.30	260.44	12.42	-41.4	-45.1	12.3	1.62e-04	0	62	0	633339904	54	5496
2026-01-20 01:31:19.31	260.31	12.35	-41.3	-44.9	12.5	1.50e-04	0	62	0	634388480	54	5374
2026-01-20 01:31:20.32	260.18	12.28	-41.2	-44.8	12.7	6.48e-05	0	62	0	636485632	54	5301
2026-01-20 01:31:21.33	260.05	12.21	-41.4	-45.1	12.4	9.00e-05	0	62	0	638582784	54	5482
2026-01-20 01:31:22.33	259.92	12.14	-41.4	-45.2	12.3	2.35e-04	0	62	0	640679936	54	5545
2026-01-20 01:31:23.34	259.79	12.06	-41.6	-45.5	11.9	2.33e-04	0	62	0	642777088	54	5760
2026-01-20 01:31:24.35	259.66	11.99	-41.7	-45.8	11.6	4.55e-04	0	62	0	643825664	54	5988
2026-01-20 01:31:25.37	259.53	11.92	-41.8	-46.2	11.2	9.63e-04	0	62	0	645922816	54	6207
2026-01-20 01:31:26.37	259.40	11.85	-42.0	-46.5	10.9	1.90e-03	0	62	0	648019968	54	6457
2026-01-20 01:31:27.39	259.27	11.78	-42.1	-46.7	10.6	2.70e-03	0	62	0	650117120	54	6613
2026-01-20 01:31:28.39	259.15	11.71	-42.2	-46.8	10.5	4.39e-03	0	62	0	652214272	54	6719
2026-01-20 01:31:29.40	259.02	11.64	-42.1	-46.6	10.7	2.97e-03	0	62	0	653262848	54	6553
2026-01-20 01:31:30.41	258.90	11.56	-42.0	-46.6	10.8	2.06e-03	0	62	0	655360000	54	6534
2026-01-20 01:31:31.42	258.77	11.49	-41.9	-46.2	11.2	2.31e-03	0	62	0	657457152	54	6245
2026-01-20 01:31:32.43	258.65	11.42	-41.8	-46.0	11.3	1.21e-03	0	62	0	659554304	54	6122
2026-01-20 01:31:33.44	258.53	11.35	-41.7	-46.0	11.4	1.16e-03	0	62	0	661651456	54	6077
2026-01-20 01:31:34.45	258.40	11.28	-41.7	-45.9	11.5	8.97e-04	0	62	0	662700032	54	6039
2026-01-20 01:31:35.46	258.28	11.21	-41.7	-45.9	11.5	7.57e-04	0	62	0	664797184	54	6035
2026-01-20 01:31:36.47	258.16	11.14	-41.6	-45.8	11.6	6.25e-04	0	62	0	666894336	54	5930
2026-01-20 01:31:37.48	258.04	11.07	-41.7	-46.0	11.4	9.31e-04	0	62	0	668991488	54	6078
2026-01-20 01:31:38.49	257.92	11.00	-41.7	-45.9	11.5	1.07e-03	0	62	0	671088640	54	6033
2026-01-20 01:31:39.50	257.80	10.93	-41.8	-46.1	11.2	1.01e-03	0	62	0	672137216	54	6180
2026-01-20 01:31:40.51	257.68	10.86	-41.8	-46.2	11.1	1.49e-03	0	62	0	674234368	54	6250
2026-01-20 01:31:41.52	257.56	10.79	-41.8	-46.1	11.3	1.40e-03	0	62	0	676331520	54	6149
2026-01-20 01:31:42.53	257.44	10.72	-41.8	-46.1	11.2	1.45e-03	0	62	0	678428672	54	6191
2026-01-20 01:31:43.54	257.33	10.65	-41.8	-46.2	11.2	1.56e-03	0	62	0	680525824	54	6228
2026-01-20 01:31:44.55	257.21	10.58	-41.8	-46.2	11.1	1.54e-03	0	62	0	682622976	54	6225
2026-01-20 01:31:45.56	257.09	10.51	-41.8	-46.2	11.1	1.55e-03	0	62	0	683671552	54	6226
2026-01-20 01:31:46.57	256.98	10.44	-41.9	-46.3	10.9	1.88e-03	0	62	0	685768704	54	6328
2026-01-20 01:31:47.58	256.86	10.37	-41.9	-46.3	11.0	2.27e-03	0	62	0	687865856	54	6305
2026-01-20 01:31:48.58	256.75	10.30	-42.0	-46.6	10.7	2.91e-03	0	62	0	689963008	54	6525
2026-01-20 01:31:49.59	256.63	10.23	-42.1	-46.9	10.3	4.87e-03	0	62	0	692060160	54	6747
2026-01-20 01:31:50.60	256.52	10.16	-42.1	-46.9	10.3	4.79e-03	0	62	0	693108736	54	6801
2026-01-20 01:31:51.61	256.41	10.09	-42.2	-47.3	10.0	6.63e-03	0	62	0	695205888	55	6649
2026-01-20 01:31:52.62	256.30	10.02	-42.2	-47.2	10.0	6.84e-03	0	62	0	697303040	55	6606
2026-01-20 01:31:53.63	256.18	9.95	-42.2	-47.2	10.0	7.25e-03	0	62	0	699400192	55	6601
2026-01-20 01:31:54.64	256.07	9.88	-42.2	-47.1	10.1	7.66e-03	0	62	0	701497344	55	6531
2026-01-20 01:31:55.65	255.96	9.81	-42.2	-47.2	10.0	8.05e-03	0	62	0	702545920	55	6636
2026-01-20 01:31:56.66	255.85	9.74	-42.2	-47.1	10.1	7.39e-03	0	62	0	704643072	55	6510
2026-01-20 01:31:57.67	255.74	9.67	-42.1	-47.0	10.3	5.54e-03	0	62	0	706740224	55	6446
2026-01-20 01:31:58.67	255.63	9.60	-42.2	-47.2	10.0	6.29e-03	0	62	0	708837376	55	6604
2026-01-20 01:31:59.68	255.53	9.54	-42.1	-46.9	10.2	7.45e-03	0	62	0	710934528	55	6413
2026-01-20 01:32:00.69	255.42	9.47	-42.2	-47.2	9.9	5.97e-03	0	62	0	711983104	55	6639
2026-01-20 01:32:01.70	255.31	9.40	-42.3	-47.4	9.8	1.00e-02	0	62	0	714080256	55	6763
2026-01-20 01:32:02.71	255.20	9.33	-42.3	-47.5	9.6	1.11e-02	0	62	0	716177408	55	6877
2026-01-20 01:32:03.72	255.10	9.26	-42.4	-47.8	9.3	1.62e-02	0	62	0	718274560	55	7082
2026-01-20 01:32:04.73	254.99	9.19	-42.4	-48.0	9.2	2.21e-02	0	62	0	720371712	55	7220
2026-01-20 01:32:05.74	254.88	9.12	-42.5	-48.3	8.8	3.04e-02	0	62	0	721420288	55	7476
2026-01-20 01:32:06.75	254.78	9.06	-42.5	-48.3	8.8	2.92e-02	0	62	0	723517440	55	7465
2026-01-20 01:32:07.76	254.67	8.99	-42.6	-48.5	8.6	3.33e-02	0	62	0	725614592	55	7646
2026-01-20 01:32:08.77	254.57	8.92	-42.5	-48.3	8.8	3.37e-02	0	62	0	727711744	55	7466
2026-01-20 01:32:09.78	254.47	8.85	-42.5	-48.2	8.9	2.77e-02	0	62	0	729808896	55	7445
2026-01-20 01:32:10.79	254.36	8.79	-42.5	-48.1	9.0	3.08e-02	0	62	0	730857472	55	7333
2026-01-20 01:32:11.80	254.26	8.72	-42.4	-47.8	9.2	2.21e-02	0	62	0	732954624	55	7121
2026-01-20 01:32:12.81	254.16	8.65	-42.4	-47.8	9.3	1.97e-02	0	62	0	735051776	55	7117
2026-01-20 01:32:13.82	254.06	8.58	-42.2	-47.4	9.7	1.62e-02	0	62	0	737148928	55	6784
2026-01-20 01:32:14.82	253.96	8.52	-42.1	-47.1	9.9	9.97e-03	0	62	0	739246080	55	6564
2026-01-20 01:32:15.83	253.86	8.45	-42.1	-47.1	9.9	8.50e-03	0	62	0	740294656	55	6568
2026-01-20 01:32:16.84	253.76	8.38	-42.1	-47.1	10.0	6.93e-03	0	62	0	742391808	55	6506
2026-01-20 01:32:17.85	253.66	8.31	-42.1	-47.1	10.0	7.28e-03	0	62	0	744488960	55	6539
2026-01-20 01:32:18.86	253.56	8.25	-42.0	-46.9	10.2	5.64e-03	0	62	0	746586112	55	6389
2026-01-20 01:32:19.87	253.46	8.18	-42.1	-47.2	9.8	8.30e-03	0	62	0	748683264	55	6646
2026-01-20 01:32:20.88	253.36	8.11	-42.1	-47.0	10.0	9.82e-03	0	62	0	750780416	55	6472
2026-01-20 01:32:21.89	253.26	8.05	-42.2	-47.3	9.7	8.98e-03	0	62	0	751828992	55	6723
2026-01-20 01:32:22.90	253.16	7.98	-44.3	-58.2	3.8	6.12e-02	0	62	104	753926144	59	18587
2026-01-20 01:32:23.91	253.07	7.91	-44.7	-59.1	3.8	1.49e+00	0	62	104	753926144	59	20578
2026-01-20 01:32:24.92	252.97	7.85	-44.8	-59.4	3.8	1.49e+00	0	62	104	753926144	60	20244
2026-01-20 01:32:25.93	252.87	7.78	-45.0	-59.6	3.8	1.49e+00	0	62	104	753926144	60	20544
2026-01-20 01:32:26.94	252.78	7.71	-45.1	-59.6	3.8	1.49e+00	0	62	104	753926144	60	20730
2026-01-20 01:32:27.95	252.68	7.65	-45.1	-59.7	3.8	1.49e+00	0	62	104	753926144	60	20873
2026-01-20 01:32:28.96	252.59	7.58	-45.2	-59.7	3.8	1.49e+00	0	62	104	753926144	60	20960
2026-01-20 01:32:29.97	252.49	7.52	-45.2	-59.8	3.8	1.49e+00	0	62	104	753926144	60	21136
2026-01-20 01:32:30.98	252.40	7.45	-45.2	-59.8	3.8	1.49e+00	0	62	104	753926144	61	19948
2026-01-20 01:32:32.00	252.31	7.38	-45.2	-59.8	3.8	1.49e+00	0	62	104	753926144	61	19916
2026-01-20 01:32:33.01	252.21	7.32	-45.2	-59.7	3.8	1.49e+00	0	62	104	753926144	61	19821
2026-01-20 01:32:34.02	252.12	7.25	-45.2	-59.7	3.8	1.49e+00	0	62	104	753926144	61	19806
2026-01-20 01:32:35.03	252.03	7.19	-45.2	-59.8	3.8	1.49e+00	0	62	104	753926144	61	19858
2026-01-20 01:32:36.04	251.94	7.12	-45.2	-59.7	3.8	1.49e+00	0	62	104	753926144	61	19762
2026-01-20 01:32:37.05	251.85	7.06	-45.2	-59.7	3.8	1.49e+00	0	62	104	753926144	61	19747
2026-01-20 01:32:38.06	251.75	6.99	-45.2	-59.7	3.8	1.49e+00	0	62	104	753926144	61	19706
2026-01-20 01:32:39.07	251.66	6.93	-45.1	-59.7	3.8	1.49e+00	0	62	104	753926144	61	19631
2026-01-20 01:32:40.08	251.57	6.86	-45.1	-59.6	3.8	1.49e+00	0	62	104	753926144	61	19581
2026-01-20 01:32:41.09	251.48	6.80	-45.1	-59.6	3.8	1.49e+00	0	62	104	753926144	61	19604
2026-01-20 01:32:42.10	251.39	6.73	-45.1	-59.7	3.8	1.49e+00	0	62	104	753926144	61	19660
2026-01-20 01:32:43.11	251.31	6.67	-45.1	-59.6	3.8	1.49e+00	0	62	104	753926144	61	19553
2026-01-20 01:32:44.12	251.22	6.60	-45.1	-59.6	3.8	1.49e+00	0	62	104	753926144	61	19528
2026-01-20 01:32:45.13	251.13	6.54	-45.1	-59.6	3.8	1.49e+00	0	62	104	753926144	61	19503
2026-01-20 01:32:46.14	251.04	6.47	-45.1	-59.6	3.8	1.49e+00	0	62	104	753926144	61	19536
2026-01-20 01:32:47.15	250.95	6.41	-45.1	-59.6	3.8	1.49e+00	0	62	104	753926144	61	19575
2026-01-20 01:32:48.16	250.87	6.35	-45.1	-59.6	3.8	1.49e+00	0	62	104	753926144	61	19569
2026-01-20 01:32:49.17	250.78	6.28	-45.1	-59.6	3.8	1.49e+00	0	62	104	753926144	61	19501
2026-01-20 01:32:50.18	250.70	6.22	-45.1	-59.6	3.8	1.49e+00	0	62	104	753926144	61	19505
2026-01-20 01:32:51.20	250.61	6.15	-45.1	-59.6	3.8	1.49e+00	0	62	104	753926144	61	19484
2026-01-20 01:32:52.21	250.52	6.09	-45.1	-59.6	3.8	1.49e+00	0	62	104	753926144	61	19512
2026-01-20 01:32:53.22	250.44	6.03	-45.1	-59.6	3.8	1.49e+00	0	62	104	753926144	61	19490
2026-01-20 01:32:54.23	250.35	5.96	-45.1	-59.6	3.8	1.49e+00	0	62	104	753926144	61	19443
2026-01-20 01:32:55.24	250.27	5.90	-45.0	-59.6	3.8	1.49e+00	0	62	104	753926144	61	19530
2026-01-20 01:32:56.25	250.19	5.84	-45.0	-59.6	3.8	1.49e+00	0	62	104	753926144	61	19471
2026-01-20 01:32:57.26	250.10	5.77	-45.0	-59.6	3.8	1.49e+00	0	62	104	753926144	61	19468
2026-01-20 01:32:58.27	250.02	5.71	-45.0	-59.6	3.8	1.49e+00	0	62	104	753926144	61	19473
2026-01-20 01:32:59.28	249.94	5.65	-45.0	-59.6	3.8	1.49e+00	0	62	104	753926144	61	19481
2026-01-20 01:33:00.29	249.85	5.58	-45.1	-59.6	3.8	1.49e+00	0	62	104	753926144	61	19434
2026-01-20 01:33:01.30	249.77	5.52	-45.0	-59.6	3.8	1.49e+00	0	62	104	753926144	61	19449
2026-01-20 01:33:02.31	249.69	5.46	-45.0	-59.6	3.8	1.49e+00	0	62	104	753926144	61	19452
2026-01-20 01:33:03.32	249.61	5.39	-45.0	-59.6	3.8	1.49e+00	0	62	104	753926144	61	19488
2026-01-20 01:33:04.33	249.53	5.33	-45.0	-59.6	3.8	1.49e+00	0	62	104	753926144	61	19398
2026-01-20 01:33:05.34	249.45	5.27	-45.1	-59.6	3.8	1.49e+00	0	62	104	753926144	61	19477
2026-01-20 01:33:06.35	249.37	5.21	-45.0	-59.6	3.8	1.49e+00	0	62	104	753926144	61	19436
2026-01-20 01:33:07.36	249.29	5.14	-45.0	-59.6	3.8	1.49e+00	0	62	104	753926144	61	19432
2026-01-20 01:33:08.37	249.21	5.08	-45.0	-59.5	3.8	1.49e+00	0	62	104	753926144	61	19380
2026-01-20 01:33:09.38	249.13	5.02	-45.0	-59.6	3.8	1.49e+00	0	62	104	753926144	61	19417
