passes_logs/2026/01/20/R2.0S_Moscow/R2.0S_Moscow__20260120_135209_FENGYUN_3D_rec.log

#Pass ID: 20260120_135209_FENGYUN 3D
#Satellite: FENGYUN 3D
#Configuration: FENGYUN 3D
#almurnet v.1.7.20251203
#Start time: 2026-01-20 13:52:10

#Version: 2.2.20231116
#Station: R2.0S_Moscow
#Location: 37.707566 lon 55.798166 lat
#TLE: 1 43010U 17072A   26019.93695019 -.00000250  00000+0 -96545-4 0  9996
#TLE: 2 43010  98.9942 351.8290 0002452 100.7901 259.3550 14.19695974423957

#Time	Az	El	Level	Level2	SNR	BER	BlckErr	Temp	State	Recorded	gain1	gain2
2026-01-20 13:52:10.80	219.21	2.09	-44.0	-55.6	3.8	8.47e-01	0	50	0	0	59	13837
2026-01-20 13:52:11.80	219.30	2.14	-44.0	-55.6	3.8	8.46e-01	0	50	104	0	59	13873
2026-01-20 13:52:12.81	219.39	2.19	-44.0	-55.7	3.8	8.47e-01	0	50	104	0	59	13914
2026-01-20 13:52:13.82	219.48	2.24	-44.0	-55.6	3.8	8.46e-01	0	50	104	0	59	13841
2026-01-20 13:52:14.83	219.56	2.29	-44.0	-55.6	3.8	8.46e-01	0	50	104	0	59	13867
2026-01-20 13:52:15.84	219.65	2.34	-44.0	-55.6	3.8	8.47e-01	0	50	104	0	59	13879
2026-01-20 13:52:16.85	219.74	2.39	-44.0	-55.6	3.8	8.48e-01	0	50	104	0	59	13836
2026-01-20 13:52:17.86	219.83	2.44	-44.0	-55.6	3.8	8.45e-01	0	50	104	0	59	13861
2026-01-20 13:52:18.87	219.93	2.49	-44.0	-55.7	3.8	8.47e-01	0	50	104	0	59	13886
2026-01-20 13:52:19.88	220.02	2.54	-44.0	-55.6	3.8	8.45e-01	0	50	104	0	59	13874
2026-01-20 13:52:20.90	220.11	2.59	-44.0	-55.6	3.8	8.46e-01	0	51	104	0	59	13852
2026-01-20 13:52:21.91	220.20	2.64	-44.0	-55.6	3.8	8.46e-01	0	50	104	0	59	13845
2026-01-20 13:52:22.92	220.29	2.69	-44.0	-55.7	3.8	8.45e-01	0	50	104	0	59	13894
2026-01-20 13:52:23.93	220.38	2.74	-44.0	-55.6	3.8	8.46e-01	0	51	104	0	59	13815
2026-01-20 13:52:24.94	220.48	2.80	-44.0	-55.6	3.8	8.45e-01	0	51	104	0	59	13833
2026-01-20 13:52:25.95	220.57	2.85	-44.0	-55.6	3.8	8.46e-01	0	51	104	0	59	13865
2026-01-20 13:52:26.96	220.66	2.90	-44.0	-55.6	3.8	8.47e-01	0	51	104	0	59	13787
2026-01-20 13:52:27.97	220.76	2.95	-44.0	-55.6	3.8	8.46e-01	0	51	104	0	59	13825
2026-01-20 13:52:28.98	220.85	3.00	-44.0	-55.6	3.8	8.47e-01	0	51	104	0	59	13862
2026-01-20 13:52:29.99	220.94	3.05	-44.0	-55.6	3.8	8.46e-01	0	51	104	0	59	13858
2026-01-20 13:52:31.00	221.04	3.10	-44.0	-55.6	3.8	8.45e-01	0	51	104	0	59	13819
2026-01-20 13:52:32.01	221.13	3.15	-44.0	-55.7	3.8	8.45e-01	0	51	104	0	59	13897
2026-01-20 13:52:33.02	221.23	3.20	-44.0	-55.6	3.8	8.47e-01	0	51	104	0	59	13856
2026-01-20 13:52:34.03	221.32	3.26	-44.0	-55.6	3.8	8.46e-01	0	51	104	0	59	13841
2026-01-20 13:52:35.04	221.42	3.31	-44.0	-55.6	3.8	8.46e-01	0	51	104	0	59	13834
2026-01-20 13:52:36.05	221.51	3.36	-44.0	-55.6	3.8	8.47e-01	0	51	104	0	59	13806
2026-01-20 13:52:37.06	221.61	3.41	-44.0	-55.6	3.8	8.45e-01	0	51	104	0	59	13815
2026-01-20 13:52:38.07	221.71	3.46	-44.0	-55.6	3.8	8.47e-01	0	51	104	0	59	13881
2026-01-20 13:52:39.09	221.80	3.51	-44.0	-55.6	3.8	8.47e-01	0	51	104	0	59	13847
2026-01-20 13:52:40.10	221.90	3.56	-44.0	-55.6	3.8	8.45e-01	0	52	104	0	59	13850
2026-01-20 13:52:41.11	222.00	3.62	-44.0	-55.6	3.8	8.46e-01	0	52	104	0	59	13794
2026-01-20 13:52:42.12	222.10	3.67	-44.0	-55.6	3.8	8.46e-01	0	52	104	0	59	13842
2026-01-20 13:52:43.13	222.19	3.72	-44.0	-55.6	3.8	8.46e-01	0	52	104	0	59	13847
2026-01-20 13:52:44.14	222.29	3.77	-44.0	-55.6	3.8	8.46e-01	0	52	104	0	59	13870
2026-01-20 13:52:45.15	222.39	3.82	-44.0	-55.6	3.8	8.45e-01	0	52	104	0	59	13807
2026-01-20 13:52:46.16	222.49	3.87	-44.0	-55.6	3.8	8.46e-01	0	52	104	0	59	13869
2026-01-20 13:52:47.17	222.59	3.92	-44.0	-55.6	3.8	8.46e-01	0	52	104	0	59	13859
2026-01-20 13:52:48.18	222.69	3.98	-44.0	-55.6	3.8	8.46e-01	0	52	104	0	59	13836
2026-01-20 13:52:49.19	222.79	4.03	-44.0	-55.6	3.8	8.47e-01	0	52	104	0	59	13830
2026-01-20 13:52:50.20	222.89	4.08	-44.0	-55.6	3.8	8.46e-01	0	52	104	0	59	13856
2026-01-20 13:52:51.21	222.99	4.13	-44.0	-55.6	3.8	8.45e-01	0	52	104	0	59	13839
2026-01-20 13:52:52.22	223.09	4.18	-44.0	-55.6	3.8	8.47e-01	0	52	104	0	59	13880
2026-01-20 13:52:53.23	223.19	4.23	-44.0	-55.6	3.8	8.46e-01	0	52	104	0	59	13865
2026-01-20 13:52:54.24	223.30	4.29	-44.0	-55.6	3.8	8.47e-01	0	52	104	0	59	13813
2026-01-20 13:52:55.25	223.40	4.34	-44.0	-55.6	3.8	8.47e-01	0	53	104	0	59	13836
2026-01-20 13:52:56.26	223.50	4.39	-44.0	-55.6	3.8	8.45e-01	0	53	104	0	59	13836
2026-01-20 13:52:57.27	223.60	4.44	-44.0	-55.6	3.8	8.46e-01	0	53	104	0	59	13852
2026-01-20 13:52:58.28	223.71	4.49	-44.0	-55.6	3.8	8.46e-01	0	53	104	0	59	13854
2026-01-20 13:52:59.29	223.81	4.55	-44.0	-55.6	3.8	8.46e-01	0	53	104	0	59	13807
2026-01-20 13:53:00.31	223.92	4.60	-44.0	-55.6	3.8	8.46e-01	0	53	104	0	59	13770
2026-01-20 13:53:01.32	224.02	4.65	-44.0	-55.6	3.8	8.45e-01	0	53	104	0	59	13773
2026-01-20 13:53:02.33	224.13	4.70	-44.0	-55.6	3.8	8.47e-01	0	53	104	0	59	13823
2026-01-20 13:53:03.34	224.23	4.75	-44.0	-55.6	3.8	8.47e-01	0	53	104	0	59	13766
2026-01-20 13:53:04.35	224.34	4.81	-44.0	-55.6	3.8	8.47e-01	0	53	104	0	59	13778
2026-01-20 13:53:05.36	224.44	4.86	-44.0	-55.6	3.8	8.46e-01	0	53	104	0	59	13792
2026-01-20 13:53:06.37	224.55	4.91	-44.0	-55.6	3.8	8.46e-01	0	53	104	0	59	13817
2026-01-20 13:53:07.38	224.65	4.96	-44.0	-55.6	3.8	8.47e-01	0	53	104	0	59	13820
2026-01-20 13:53:08.39	224.76	5.01	-44.0	-55.6	3.8	8.45e-01	0	53	104	0	59	13843
2026-01-20 13:53:09.40	224.87	5.07	-44.0	-55.6	3.8	8.46e-01	0	53	104	0	59	13838
2026-01-20 13:53:10.41	224.98	5.12	-44.0	-55.6	3.8	8.46e-01	0	53	104	0	59	13779
2026-01-20 13:53:11.42	225.08	5.17	-44.0	-55.6	3.8	8.45e-01	0	53	104	0	59	13786
2026-01-20 13:53:12.43	225.19	5.22	-44.0	-55.6	3.8	8.47e-01	0	54	104	0	59	13770
2026-01-20 13:53:13.44	225.30	5.27	-44.0	-55.5	3.8	8.46e-01	0	53	104	0	59	13711
2026-01-20 13:53:14.45	225.41	5.33	-44.0	-55.6	3.8	8.45e-01	0	53	104	0	59	13738
2026-01-20 13:53:15.46	225.52	5.38	-44.0	-55.5	3.8	8.46e-01	0	53	104	0	59	13658
2026-01-20 13:53:16.47	225.63	5.43	-44.0	-55.5	3.8	8.46e-01	0	54	104	0	59	13709
2026-01-20 13:53:17.48	225.74	5.48	-44.0	-55.5	3.8	8.45e-01	0	54	104	0	59	13666
2026-01-20 13:53:18.49	225.85	5.54	-44.0	-55.5	3.8	8.46e-01	0	54	104	0	59	13605
2026-01-20 13:53:19.50	225.96	5.59	-44.0	-55.5	3.8	8.46e-01	0	54	104	0	59	13601
2026-01-20 13:53:20.51	226.07	5.64	-44.0	-55.4	3.8	8.47e-01	0	54	104	0	59	13545
2026-01-20 13:53:21.53	226.19	5.69	-44.0	-55.4	3.8	8.46e-01	0	54	104	0	59	13568
2026-01-20 13:53:22.54	226.30	5.75	-44.0	-55.5	3.8	8.47e-01	0	54	104	0	59	13575
2026-01-20 13:53:23.55	226.41	5.80	-44.0	-55.4	3.8	8.45e-01	0	54	104	0	59	13487
2026-01-20 13:53:24.56	226.52	5.85	-44.0	-55.4	3.8	8.47e-01	0	54	104	0	59	13430
2026-01-20 13:53:25.57	226.64	5.90	-44.0	-55.3	3.8	8.46e-01	0	54	104	0	59	13368
2026-01-20 13:53:26.58	226.75	5.96	-44.0	-55.3	3.8	8.46e-01	0	54	104	0	59	13298
2026-01-20 13:53:27.59	226.87	6.01	-44.0	-55.3	3.8	8.47e-01	0	54	104	0	59	13308
2026-01-20 13:53:28.60	226.98	6.06	-44.0	-55.1	3.8	8.46e-01	0	54	104	0	59	13091
2026-01-20 13:53:29.61	227.10	6.11	-43.9	-55.0	3.8	8.47e-01	0	54	104	0	59	12815
2026-01-20 13:53:30.62	227.21	6.17	-44.0	-55.0	3.8	8.47e-01	0	54	104	0	59	12893
2026-01-20 13:53:31.63	227.33	6.22	-43.9	-54.9	3.8	8.45e-01	0	54	104	0	59	12774
2026-01-20 13:53:32.64	227.44	6.27	-43.9	-54.7	3.8	8.45e-01	0	54	104	0	59	12489
2026-01-20 13:53:33.65	227.56	6.32	-43.9	-54.6	3.8	8.45e-01	0	54	104	0	59	12280
2026-01-20 13:53:34.66	227.68	6.38	-43.9	-54.4	3.8	8.47e-01	0	54	104	0	59	12017
2026-01-20 13:53:35.67	227.79	6.43	-43.8	-54.0	3.9	8.46e-01	0	54	104	0	59	11459
2026-01-20 13:53:36.68	227.91	6.48	-43.8	-53.8	3.8	8.45e-01	0	54	104	0	59	11221
2026-01-20 13:53:37.69	228.03	6.53	-43.8	-53.4	3.8	8.45e-01	0	54	104	0	59	10778
2026-01-20 13:53:38.70	228.15	6.59	-43.7	-52.9	3.9	8.43e-01	0	54	104	0	59	10082
2026-01-20 13:53:39.71	228.27	6.64	-43.6	-52.3	4.1	8.41e-01	0	54	0	0	59	9426
2026-01-20 13:53:40.72	228.39	6.69	-43.5	-51.8	4.2	8.36e-01	0	55	0	0	59	8916
2026-01-20 13:53:41.73	228.51	6.74	-43.4	-51.1	4.5	8.27e-01	0	54	0	0	58	8746
2026-01-20 13:53:42.74	228.63	6.80	-43.3	-50.7	4.7	8.13e-01	0	55	0	0	58	8318
2026-01-20 13:53:43.75	228.75	6.85	-43.2	-50.0	5.0	7.85e-01	0	55	0	0	58	7691
2026-01-20 13:53:44.76	228.87	6.90	-43.0	-49.5	5.4	7.28e-01	0	54	0	0	58	7209
2026-01-20 13:53:45.77	228.99	6.95	-42.9	-49.1	5.6	7.09e-01	0	55	0	0	57	7320
2026-01-20 13:53:46.78	229.11	7.01	-42.8	-48.6	6.0	3.96e-01	0	55	0	5242880	57	6936
2026-01-20 13:53:47.79	229.24	7.06	-42.7	-48.3	6.2	3.38e-01	0	55	0	10485760	57	6690
2026-01-20 13:53:48.80	229.36	7.11	-42.6	-48.0	6.4	2.84e-01	0	55	0	16777216	57	6456
2026-01-20 13:53:49.82	229.48	7.16	-42.7	-48.4	6.2	3.09e-01	0	55	0	22020096	57	6725
2026-01-20 13:53:50.82	229.61	7.22	-42.8	-48.6	6.0	3.57e-01	0	55	0	28311552	57	6958
2026-01-20 13:53:51.83	229.73	7.27	-42.8	-48.6	5.9	3.83e-01	0	55	0	33554432	57	6951
2026-01-20 13:53:52.84	229.85	7.32	-42.8	-48.9	5.7	5.00e-01	0	55	0	38797312	57	7200
2026-01-20 13:53:53.85	229.98	7.37	-42.9	-49.1	5.6	6.32e-01	0	55	0	42991616	57	7354
2026-01-20 13:53:54.86	230.10	7.42	-42.8	-48.9	5.8	5.46e-01	0	55	0	47185920	57	7138
2026-01-20 13:53:55.87	230.23	7.48	-42.7	-48.4	6.1	3.87e-01	0	55	0	52428800	57	6747
2026-01-20 13:53:56.88	230.36	7.53	-42.4	-47.6	6.8	2.54e-01	0	55	0	57671680	56	6505
2026-01-20 13:53:57.89	230.48	7.58	-42.1	-46.7	7.7	1.15e-01	0	55	0	63963136	56	5865
2026-01-20 13:53:58.90	230.61	7.63	-41.4	-45.4	8.8	5.80e-02	0	55	0	69206016	54	5660
2026-01-20 13:53:59.92	230.74	7.69	-40.9	-44.4	9.8	1.54e-02	0	55	0	75497472	53	5360
2026-01-20 13:54:00.93	230.87	7.74	-40.4	-43.4	10.8	5.32e-03	0	55	0	80740352	52	5092
2026-01-20 13:54:01.94	231.00	7.79	-40.1	-43.0	11.3	1.90e-03	0	55	0	85983232	52	4816
2026-01-20 13:54:02.95	231.12	7.84	-39.8	-42.5	11.9	8.26e-04	0	55	0	92274688	51	4852
2026-01-20 13:54:03.96	231.25	7.90	-39.6	-42.2	12.2	4.12e-04	0	55	0	97517568	51	4682
2026-01-20 13:54:04.97	231.38	7.95	-39.7	-42.3	12.1	3.05e-04	0	55	0	103809024	51	4730
2026-01-20 13:54:05.98	231.51	8.00	-39.9	-42.6	11.8	6.11e-04	0	55	0	109051904	51	4886
2026-01-20 13:54:06.99	231.65	8.05	-41.2	-44.8	9.5	2.60e-03	0	55	0	114294784	52	5943
2026-01-20 13:54:08.00	231.78	8.11	-40.5	-43.5	10.7	4.90e-03	0	55	0	120586240	52	5148
2026-01-20 13:54:09.01	231.91	8.16	-42.6	-48.6	5.9	2.34e-02	0	55	0	125829120	55	7732
2026-01-20 13:54:10.02	232.04	8.21	-43.8	-54.8	3.8	8.44e-01	0	55	104	128974848	58	13392
2026-01-20 13:54:11.03	232.17	8.26	-42.3	-47.0	7.4	4.54e-03	0	56	0	130023424	55	6484
2026-01-20 13:54:12.04	232.31	8.32	-39.6	-42.1	12.3	2.62e-03	0	56	0	135266304	51	4642
2026-01-20 13:54:13.05	232.44	8.37	-39.6	-42.2	12.3	2.92e-04	0	56	0	141557760	51	4657
2026-01-20 13:54:14.06	232.57	8.42	-39.6	-42.1	12.4	2.22e-04	0	55	0	146800640	51	4600
2026-01-20 13:54:15.07	232.71	8.47	-39.5	-42.0	12.5	2.12e-04	0	56	0	153092096	51	4571
2026-01-20 13:54:16.07	232.84	8.52	-39.6	-42.0	12.5	1.83e-04	0	56	0	158334976	51	4578
2026-01-20 13:54:17.09	232.98	8.58	-39.5	-41.9	12.6	1.36e-04	0	56	0	163577856	50	4778
2026-01-20 13:54:18.10	233.11	8.63	-39.4	-41.8	12.7	1.34e-04	0	56	0	169869312	50	4752
2026-01-20 13:54:19.11	233.25	8.68	-39.4	-41.8	12.7	1.13e-04	0	56	0	175112192	50	4725
2026-01-20 13:54:20.12	233.39	8.73	-39.1	-41.4	13.2	5.26e-05	0	56	0	181403648	50	4506
2026-01-20 13:54:21.13	233.52	8.78	-39.1	-41.3	13.2	4.00e-05	0	56	0	186646528	50	4472
2026-01-20 13:54:22.14	233.66	8.84	-39.1	-41.4	13.2	3.89e-05	0	56	0	191889408	50	4503
2026-01-20 13:54:23.15	233.80	8.89	-39.1	-41.3	13.3	2.74e-05	0	56	0	198180864	50	4468
2026-01-20 13:54:24.16	233.94	8.94	-39.2	-41.4	13.1	4.46e-05	0	56	0	203423744	50	4543
2026-01-20 13:54:25.17	234.08	8.99	-39.2	-41.5	13.1	5.03e-05	0	56	0	209715200	50	4572
2026-01-20 13:54:26.18	234.22	9.04	-39.2	-41.4	13.1	4.11e-05	0	56	0	214958080	50	4545
2026-01-20 13:54:27.19	234.36	9.09	-39.2	-41.5	13.1	4.80e-05	0	56	0	220200960	50	4569
2026-01-20 13:54:28.20	234.50	9.15	-39.2	-41.5	13.1	4.92e-05	0	56	0	226492416	50	4577
2026-01-20 13:54:29.21	234.64	9.20	-39.2	-41.5	13.1	5.95e-05	0	56	0	231735296	50	4579
2026-01-20 13:54:30.22	234.78	9.25	-39.3	-41.7	12.9	6.40e-05	0	56	0	238026752	50	4667
2026-01-20 13:54:31.23	234.92	9.30	-39.3	-41.6	12.9	6.29e-05	0	56	0	243269632	50	4648
2026-01-20 13:54:32.23	235.06	9.35	-39.2	-41.6	13.0	6.98e-05	0	56	0	249561088	50	4607
2026-01-20 13:54:33.24	235.21	9.40	-39.3	-41.6	13.0	5.95e-05	0	56	0	254803968	50	4638
2026-01-20 13:54:34.25	235.35	9.45	-39.1	-41.4	13.2	2.05e-05	0	56	0	261095424	50	4495
2026-01-20 13:54:35.26	235.50	9.51	-39.2	-41.5	13.1	5.83e-05	0	56	0	266338304	50	4570
2026-01-20 13:54:36.27	235.64	9.56	-39.2	-41.6	13.0	5.95e-05	0	56	0	271581184	50	4609
2026-01-20 13:54:37.28	235.78	9.61	-39.2	-41.4	13.2	5.60e-05	0	56	0	277872640	50	4540
2026-01-20 13:54:38.29	235.93	9.66	-39.2	-41.4	13.1	3.54e-05	0	56	0	283115520	50	4540
2026-01-20 13:54:39.30	236.08	9.71	-39.1	-41.4	13.2	3.20e-05	0	56	0	289406976	50	4538
2026-01-20 13:54:40.31	236.22	9.76	-39.1	-41.4	13.2	4.80e-05	0	56	0	294649856	50	4523
2026-01-20 13:54:41.32	236.37	9.81	-39.1	-41.4	13.3	2.74e-05	0	56	0	299892736	50	4497
2026-01-20 13:54:42.33	236.52	9.86	-39.0	-41.2	13.4	2.74e-05	0	56	0	306184192	50	4437
2026-01-20 13:54:43.34	236.67	9.91	-39.1	-41.3	13.3	3.43e-05	0	56	0	311427072	50	4468
2026-01-20 13:54:44.35	236.81	9.97	-39.1	-41.3	13.3	2.63e-05	0	56	0	316669952	50	4485
2026-01-20 13:54:45.36	236.96	10.02	-39.1	-41.3	13.3	2.86e-05	0	56	0	322961408	50	4474
2026-01-20 13:54:46.37	237.11	10.07	-39.1	-41.3	13.3	3.31e-05	0	56	0	328204288	50	4486
2026-01-20 13:54:47.38	237.26	10.12	-39.2	-41.4	13.2	3.08e-05	0	56	0	334495744	50	4535
2026-01-20 13:54:48.39	237.41	10.17	-39.1	-41.4	13.3	3.43e-05	0	56	0	339738624	50	4504
2026-01-20 13:54:49.40	237.56	10.22	-39.1	-41.3	13.4	3.77e-05	0	56	0	346030080	50	4465
2026-01-20 13:54:50.40	237.71	10.27	-39.2	-41.5	13.2	4.34e-05	0	56	0	351272960	50	4562
2026-01-20 13:54:51.41	237.87	10.32	-39.1	-41.3	13.4	2.17e-05	0	56	0	357564416	50	4470
2026-01-20 13:54:52.43	238.02	10.37	-39.1	-41.3	13.4	2.17e-05	0	56	0	362807296	50	4447
2026-01-20 13:54:53.43	238.17	10.42	-38.9	-41.1	13.6	1.48e-05	0	57	0	368050176	49	4614
2026-01-20 13:54:54.44	238.32	10.47	-38.9	-41.0	13.7	9.10e-06	0	56	0	374341632	49	4570
2026-01-20 13:54:55.45	238.48	10.52	-38.9	-41.0	13.7	1.48e-05	0	57	0	379584512	49	4591
2026-01-20 13:54:56.46	238.63	10.57	-39.0	-41.1	13.5	1.48e-05	0	56	0	385875968	49	4638
2026-01-20 13:54:57.47	238.79	10.62	-38.9	-41.1	13.6	1.48e-05	0	57	0	391118848	49	4605
2026-01-20 13:54:58.48	238.94	10.67	-39.0	-41.1	13.6	1.60e-05	0	57	0	396361728	49	4631
2026-01-20 13:54:59.50	239.10	10.72	-39.0	-41.2	13.5	2.05e-05	0	56	0	402653184	49	4675
2026-01-20 13:55:00.51	239.26	10.77	-39.1	-41.3	13.4	1.83e-05	0	56	0	407896064	49	4742
2026-01-20 13:55:01.52	239.42	10.82	-38.9	-41.1	13.6	1.83e-05	0	57	0	414187520	49	4616
2026-01-20 13:55:02.53	239.57	10.87	-38.9	-41.1	13.6	1.48e-05	0	57	0	419430400	49	4613
2026-01-20 13:55:03.54	239.73	10.92	-39.0	-41.1	13.5	1.48e-05	0	56	0	424673280	49	4649
2026-01-20 13:55:04.55	239.89	10.97	-38.9	-41.1	13.6	8.00e-06	0	56	0	430964736	49	4613
2026-01-20 13:55:05.56	240.05	11.02	-38.9	-41.0	13.7	1.71e-05	0	57	0	436207616	49	4569
2026-01-20 13:55:06.56	240.21	11.06	-38.9	-41.1	13.6	9.10e-06	0	56	0	442499072	49	4613
2026-01-20 13:55:07.57	240.37	11.11	-39.0	-41.2	13.5	2.74e-05	0	57	0	447741952	49	4691
2026-01-20 13:55:08.58	240.53	11.16	-39.0	-41.1	13.6	1.71e-05	0	57	0	454033408	49	4638
2026-01-20 13:55:09.59	240.69	11.21	-38.9	-41.1	13.7	1.60e-05	0	57	0	459276288	49	4608
2026-01-20 13:55:10.60	240.85	11.26	-39.0	-41.1	13.6	1.37e-05	0	57	0	465567744	49	4635
2026-01-20 13:55:11.61	241.01	11.31	-38.9	-41.1	13.7	1.25e-05	0	57	0	470810624	49	4613
2026-01-20 13:55:12.62	241.18	11.36	-38.9	-41.0	13.8	1.48e-05	0	57	0	476053504	49	4558
2026-01-20 13:55:13.63	241.34	11.40	-38.7	-40.7	14.0	5.70e-06	0	57	0	482344960	49	4433
2026-01-20 13:55:14.64	241.50	11.45	-38.7	-40.8	14.0	6.80e-06	0	57	0	487587840	49	4463
2026-01-20 13:55:15.65	241.67	11.50	-38.7	-40.8	14.0	3.40e-06	0	57	0	493879296	49	4454
2026-01-20 13:55:16.66	241.83	11.55	-38.7	-40.8	14.0	1.14e-05	0	57	0	499122176	49	4450
2026-01-20 13:55:17.67	242.00	11.60	-38.7	-40.8	14.0	4.50e-06	0	57	0	504365056	49	4442
2026-01-20 13:55:18.68	242.16	11.64	-38.7	-40.8	14.0	4.50e-06	0	57	0	510656512	49	4456
2026-01-20 13:55:19.69	242.33	11.69	-38.8	-40.8	13.9	1.02e-05	0	57	0	515899392	49	4479
2026-01-20 13:55:20.70	242.50	11.74	-38.8	-40.8	13.9	3.40e-06	0	57	0	522190848	49	4492
2026-01-20 13:55:21.71	242.66	11.79	-38.7	-40.8	14.0	4.50e-06	0	57	0	527433728	49	4464
2026-01-20 13:55:22.72	242.83	11.83	-38.8	-40.8	14.0	6.80e-06	0	57	0	532676608	49	4479
2026-01-20 13:55:23.73	243.00	11.88	-38.8	-40.8	14.0	6.80e-06	0	57	0	538968064	49	4470
2026-01-20 13:55:24.74	243.17	11.93	-38.7	-40.8	14.0	4.50e-06	0	57	0	544210944	49	4469
2026-01-20 13:55:25.75	243.34	11.97	-38.7	-40.7	14.1	9.10e-06	0	57	0	550502400	49	4429
2026-01-20 13:55:26.76	243.51	12.02	-38.6	-40.7	14.1	4.50e-06	0	57	0	555745280	49	4399
2026-01-20 13:55:27.78	243.68	12.07	-38.7	-40.7	14.0	8.00e-06	0	57	0	562036736	49	4439
2026-01-20 13:55:28.78	243.85	12.11	-38.7	-40.7	14.1	3.40e-06	0	57	0	567279616	49	4406
2026-01-20 13:55:29.79	244.02	12.16	-38.6	-40.6	14.2	3.40e-06	0	57	0	572522496	49	4372
2026-01-20 13:55:30.80	244.20	12.21	-38.7	-40.7	14.1	1.10e-06	0	57	0	578813952	49	4426
2026-01-20 13:55:31.81	244.37	12.25	-38.7	-40.8	14.0	5.70e-06	0	57	0	584056832	49	4454
2026-01-20 13:55:32.82	244.54	12.30	-38.8	-40.8	14.0	8.00e-06	0	57	0	590348288	49	4482
2026-01-20 13:55:33.83	244.72	12.34	-38.8	-40.8	13.9	3.40e-06	0	57	0	595591168	49	4488
2026-01-20 13:55:34.84	244.89	12.39	-38.6	-40.7	14.2	3.40e-06	0	57	0	600834048	49	4396
2026-01-20 13:55:35.85	245.06	12.43	-38.7	-40.8	14.0	8.00e-06	0	57	0	607125504	49	4457
2026-01-20 13:55:36.85	245.24	12.48	-38.7	-40.7	14.1	9.10e-06	0	57	0	612368384	49	4424
2026-01-20 13:55:37.86	245.41	12.52	-38.7	-40.7	14.1	1.10e-06	0	57	0	618659840	49	4415
2026-01-20 13:55:38.87	245.59	12.57	-38.7	-40.7	14.1	3.40e-06	0	57	0	623902720	49	4410
2026-01-20 13:55:39.88	245.77	12.61	-38.7	-40.8	14.0	5.70e-06	0	57	0	629145600	49	4451
2026-01-20 13:55:40.89	245.94	12.66	-38.6	-40.6	14.2	5.70e-06	0	57	0	635437056	49	4383
2026-01-20 13:55:41.90	246.12	12.70	-38.6	-40.5	14.3	2.20e-06	0	57	0	640679936	49	4339
2026-01-20 13:55:42.91	246.30	12.75	-38.5	-40.5	14.3	2.20e-06	0	57	0	646971392	49	4333
2026-01-20 13:55:43.92	246.48	12.79	-38.5	-40.5	14.3	1.10e-06	0	57	0	652214272	49	4307
2026-01-20 13:55:44.93	246.66	12.84	-38.5	-40.5	14.4	0.00e+00	0	57	0	658505728	49	4295
2026-01-20 13:55:45.94	246.84	12.88	-38.4	-40.4	14.4	0.00e+00	0	57	0	663748608	48	4517
2026-01-20 13:55:46.95	247.02	12.92	-38.5	-40.4	14.4	2.20e-06	0	57	0	670040064	48	4539
2026-01-20 13:55:47.96	247.20	12.97	-38.5	-40.5	14.4	0.00e+00	0	57	0	675282944	48	4549
2026-01-20 13:55:48.97	247.38	13.01	-38.5	-40.5	14.4	0.00e+00	0	57	0	680525824	48	4549
2026-01-20 13:55:49.98	247.56	13.05	-38.4	-40.3	14.6	1.10e-06	0	57	0	686817280	48	4458
2026-01-20 13:55:50.99	247.75	13.09	-38.4	-40.3	14.5	1.10e-06	0	57	0	692060160	48	4485
2026-01-20 13:55:52.00	247.93	13.14	-38.4	-40.3	14.6	3.40e-06	0	57	0	697303040	48	4465
2026-01-20 13:55:53.01	248.11	13.18	-38.4	-40.3	14.6	0.00e+00	0	57	0	703594496	48	4450
2026-01-20 13:55:54.02	248.30	13.22	-38.3	-40.2	14.7	0.00e+00	0	57	0	708837376	48	4415
2026-01-20 13:55:55.03	248.48	13.26	-38.2	-40.1	14.7	0.00e+00	0	57	0	715128832	48	4372
2026-01-20 13:55:56.03	248.67	13.30	-38.2	-40.1	14.7	0.00e+00	0	57	0	720371712	48	4375
2026-01-20 13:55:57.05	248.85	13.35	-38.3	-40.2	14.7	1.10e-06	0	57	0	725614592	48	4404
2026-01-20 13:55:58.06	249.04	13.39	-38.1	-40.0	14.9	0.00e+00	0	57	0	731906048	48	4308
2026-01-20 13:55:59.07	249.23	13.43	-38.2	-40.1	14.8	0.00e+00	0	57	0	737148928	48	4352
2026-01-20 13:56:00.07	249.41	13.47	-38.3	-40.1	14.8	1.10e-06	0	57	0	743440384	48	4391
2026-01-20 13:56:01.08	249.60	13.51	-38.3	-40.2	14.7	0.00e+00	0	57	0	748683264	48	4419
2026-01-20 13:56:02.09	249.79	13.55	-38.3	-40.2	14.7	1.10e-06	0	57	0	754974720	48	4421
2026-01-20 13:56:03.10	249.98	13.59	-38.3	-40.3	14.6	1.10e-06	0	58	0	760217600	48	4444
2026-01-20 13:56:04.11	250.17	13.63	-38.4	-40.3	14.6	1.10e-06	0	57	0	766509056	48	4448
2026-01-20 13:56:05.12	250.36	13.67	-38.4	-40.3	14.6	0.00e+00	0	57	0	771751936	48	4450
2026-01-20 13:56:06.13	250.55	13.71	-38.3	-40.2	14.7	0.00e+00	0	57	0	776994816	48	4413
2026-01-20 13:56:07.14	250.74	13.75	-38.3	-40.2	14.7	0.00e+00	0	57	0	783286272	48	4413
2026-01-20 13:56:08.15	250.93	13.79	-38.4	-40.2	14.6	1.10e-06	0	57	0	788529152	48	4439
2026-01-20 13:56:09.16	251.12	13.83	-38.4	-40.4	14.5	0.00e+00	0	58	0	794820608	48	4502
2026-01-20 13:56:10.17	251.31	13.87	-38.4	-40.3	14.6	0.00e+00	0	57	0	800063488	48	4463
2026-01-20 13:56:11.18	251.50	13.91	-38.2	-40.1	14.8	0.00e+00	0	57	0	805306368	48	4370
2026-01-20 13:56:12.19	251.70	13.94	-38.2	-40.0	14.9	0.00e+00	0	57	0	811597824	48	4330
2026-01-20 13:56:13.20	251.89	13.98	-38.2	-40.1	14.8	0.00e+00	0	57	0	816840704	48	4367
2026-01-20 13:56:14.21	252.08	14.02	-38.3	-40.2	14.7	0.00e+00	0	58	0	823132160	48	4420
2026-01-20 13:56:15.22	252.28	14.06	-38.4	-40.3	14.6	2.20e-06	0	57	0	828375040	48	4467
2026-01-20 13:56:16.23	252.47	14.09	-38.4	-40.4	14.5	0.00e+00	0	57	0	833617920	48	4503
2026-01-20 13:56:17.24	252.67	14.13	-38.4	-40.3	14.6	1.10e-06	0	58	0	839909376	48	4482
2026-01-20 13:56:18.25	252.86	14.17	-38.3	-40.2	14.7	0.00e+00	0	58	0	845152256	48	4418
2026-01-20 13:56:19.26	253.06	14.20	-38.3	-40.2	14.7	0.00e+00	0	58	0	851443712	48	4418
2026-01-20 13:56:20.27	253.26	14.24	-38.3	-40.2	14.7	0.00e+00	0	57	0	856686592	48	4420
2026-01-20 13:56:21.27	253.45	14.28	-38.3	-40.2	14.7	1.10e-06	0	58	0	862978048	48	4413
2026-01-20 13:56:22.28	253.65	14.31	-38.0	-39.9	15.0	0.00e+00	0	57	0	868220928	48	4252
2026-01-20 13:56:23.29	253.85	14.35	-37.9	-39.7	15.1	0.00e+00	0	58	0	873463808	47	4407
2026-01-20 13:56:24.30	254.05	14.38	-37.9	-39.7	15.1	0.00e+00	0	58	0	879755264	47	4405
2026-01-20 13:56:25.31	254.25	14.42	-37.9	-39.7	15.1	0.00e+00	0	58	0	884998144	47	4398
2026-01-20 13:56:26.33	254.45	14.45	-38.0	-39.8	15.0	0.00e+00	0	57	0	891289600	47	4474
2026-01-20 13:56:27.34	254.65	14.49	-38.1	-39.9	14.9	0.00e+00	0	57	0	896532480	47	4534
2026-01-20 13:56:28.34	254.85	14.52	-38.1	-39.9	14.9	1.10e-06	0	58	0	901775360	47	4529
2026-01-20 13:56:29.36	255.05	14.56	-38.1	-40.0	14.8	1.10e-06	0	58	0	908066816	47	4548
2026-01-20 13:56:30.37	255.25	14.59	-38.1	-39.9	14.9	0.00e+00	0	58	0	913309696	47	4536
2026-01-20 13:56:31.38	255.45	14.62	-38.1	-40.0	14.8	0.00e+00	0	58	0	919601152	47	4593
2026-01-20 13:56:32.39	255.66	14.65	-38.1	-40.0	14.8	1.10e-06	0	58	0	924844032	47	4558
2026-01-20 13:56:33.40	255.86	14.69	-38.0	-39.9	14.9	0.00e+00	0	57	0	930086912	47	4523
2026-01-20 13:56:34.41	256.06	14.72	-37.9	-39.8	15.0	0.00e+00	0	58	0	936378368	47	4458
2026-01-20 13:56:35.42	256.26	14.75	-37.8	-39.6	15.2	0.00e+00	0	58	0	941621248	47	4369
2026-01-20 13:56:36.42	256.47	14.78	-37.7	-39.5	15.3	0.00e+00	0	58	0	947912704	47	4332
2026-01-20 13:56:37.43	256.67	14.82	-37.8	-39.5	15.3	1.10e-06	0	58	0	953155584	47	4338
2026-01-20 13:56:38.44	256.88	14.85	-37.8	-39.6	15.2	0.00e+00	0	58	0	959447040	47	4361
2026-01-20 13:56:39.45	257.08	14.88	-37.8	-39.6	15.2	0.00e+00	0	58	0	964689920	47	4381
2026-01-20 13:56:40.46	257.29	14.91	-37.8	-39.6	15.2	0.00e+00	0	58	0	970981376	47	4360
2026-01-20 13:56:41.47	257.49	14.94	-37.8	-39.6	15.2	0.00e+00	0	58	0	976224256	47	4380
2026-01-20 13:56:42.48	257.70	14.97	-37.9	-39.7	15.1	0.00e+00	0	58	0	981467136	47	4410
2026-01-20 13:56:43.49	257.91	15.00	-37.9	-39.8	15.0	0.00e+00	0	58	0	987758592	47	4452
2026-01-20 13:56:44.50	258.11	15.03	-37.9	-39.7	15.1	0.00e+00	0	58	0	993001472	47	4414
2026-01-20 13:56:45.51	258.32	15.06	-37.9	-39.7	15.1	0.00e+00	0	58	0	999292928	47	4435
2026-01-20 13:56:46.52	258.53	15.08	-38.0	-39.8	15.0	0.00e+00	0	58	0	1004535808	47	4462
2026-01-20 13:56:47.53	258.74	15.11	-38.0	-39.8	15.0	0.00e+00	0	58	0	1009778688	47	4485
2026-01-20 13:56:48.54	258.95	15.14	-37.9	-39.7	15.2	0.00e+00	0	58	0	1016070144	47	4392
2026-01-20 13:56:49.55	259.16	15.17	-37.8	-39.6	15.2	0.00e+00	0	58	0	1021313024	47	4378
2026-01-20 13:56:50.56	259.36	15.20	-37.9	-39.7	15.1	0.00e+00	0	58	0	1027604480	47	4415
2026-01-20 13:56:51.57	259.57	15.22	-37.8	-39.6	15.2	0.00e+00	0	58	0	1032847360	47	4374
2026-01-20 13:56:52.58	259.79	15.25	-37.8	-39.6	15.2	0.00e+00	0	58	0	1038090240	47	4388
2026-01-20 13:56:53.59	260.00	15.28	-37.9	-39.7	15.2	0.00e+00	0	58	0	1044381696	47	4404
2026-01-20 13:56:54.60	260.21	15.30	-37.9	-39.7	15.1	0.00e+00	0	58	0	1049624576	47	4436
2026-01-20 13:56:55.60	260.42	15.33	-37.9	-39.8	15.1	0.00e+00	0	58	0	1055916032	47	4451
2026-01-20 13:56:56.61	260.63	15.35	-38.0	-39.9	15.0	0.00e+00	0	58	0	1061158912	47	4505
2026-01-20 13:56:57.62	260.84	15.38	-38.0	-39.9	14.9	1.10e-06	0	58	0	1067450368	47	4527
2026-01-20 13:56:58.63	261.05	15.40	-38.0	-39.9	15.0	0.00e+00	0	58	0	1072693248	47	4500
2026-01-20 13:56:59.64	261.26	15.43	-38.0	-39.8	15.0	0.00e+00	0	58	0	1077936128	47	4471
2026-01-20 13:57:00.65	261.48	15.45	-38.0	-39.8	15.0	1.10e-06	0	58	0	1084227584	47	4480
2026-01-20 13:57:01.66	261.69	15.48	-38.0	-39.8	15.0	0.00e+00	0	58	0	1089470464	47	4489
2026-01-20 13:57:02.67	261.90	15.50	-37.8	-39.6	15.2	0.00e+00	0	58	0	1095761920	47	4380
2026-01-20 13:57:03.68	262.12	15.52	-37.8	-39.6	15.2	0.00e+00	0	58	0	1101004800	47	4352
2026-01-20 13:57:04.69	262.33	15.54	-37.9	-39.7	15.2	0.00e+00	0	58	0	1106247680	47	4402
2026-01-20 13:57:05.70	262.55	15.57	-37.9	-39.7	15.2	0.00e+00	0	58	0	1112539136	47	4414
2026-01-20 13:57:06.71	262.76	15.59	-38.0	-39.8	15.0	0.00e+00	0	58	0	1117782016	47	4489
2026-01-20 13:57:07.72	262.98	15.61	-38.0	-39.8	15.0	0.00e+00	0	58	0	1124073472	47	4477
2026-01-20 13:57:08.73	263.19	15.63	-38.0	-39.8	15.0	0.00e+00	0	58	0	1129316352	47	4480
2026-01-20 13:57:09.74	263.41	15.65	-37.9	-39.7	15.1	0.00e+00	0	58	0	1134559232	47	4428
2026-01-20 13:57:10.75	263.63	15.67	-37.8	-39.7	15.2	0.00e+00	0	58	0	1140850688	47	4396
2026-01-20 13:57:11.76	263.84	15.69	-37.9	-39.8	15.1	0.00e+00	0	58	0	1146093568	47	4460
2026-01-20 13:57:12.77	264.06	15.71	-37.8	-39.6	15.2	0.00e+00	0	58	0	1152385024	47	4379
2026-01-20 13:57:13.78	264.28	15.73	-37.8	-39.6	15.2	0.00e+00	0	58	0	1157627904	47	4388
2026-01-20 13:57:14.78	264.49	15.75	-37.7	-39.5	15.3	0.00e+00	0	58	0	1163919360	47	4322
2026-01-20 13:57:15.79	264.71	15.77	-37.7	-39.4	15.4	0.00e+00	0	58	0	1169162240	47	4283
2026-01-20 13:57:16.80	264.93	15.79	-37.7	-39.5	15.4	0.00e+00	0	58	0	1175453696	47	4307
2026-01-20 13:57:17.81	265.14	15.81	-37.7	-39.5	15.4	0.00e+00	0	58	0	1180696576	47	4313
2026-01-20 13:57:18.82	265.36	15.82	-37.8	-39.6	15.2	0.00e+00	0	58	0	1185939456	47	4370
2026-01-20 13:57:19.83	265.58	15.84	-37.9	-39.7	15.2	0.00e+00	0	58	0	1192230912	47	4407
2026-01-20 13:57:20.84	265.80	15.86	-38.0	-39.9	14.9	0.00e+00	0	58	0	1197473792	47	4507
2026-01-20 13:57:21.85	266.02	15.87	-38.0	-39.9	15.0	0.00e+00	0	58	0	1203765248	47	4507
2026-01-20 13:57:22.86	266.24	15.89	-38.0	-39.9	15.0	0.00e+00	0	58	0	1209008128	47	4519
2026-01-20 13:57:23.87	266.46	15.91	-38.0	-39.9	14.9	0.00e+00	0	58	0	1214251008	47	4521
2026-01-20 13:57:24.88	266.68	15.92	-38.1	-39.9	14.9	0.00e+00	0	58	0	1220542464	47	4530
2026-01-20 13:57:25.89	266.90	15.94	-38.1	-39.9	14.9	0.00e+00	0	58	0	1225785344	47	4525
2026-01-20 13:57:26.90	267.12	15.95	-37.9	-39.7	15.1	0.00e+00	0	58	0	1231028224	47	4424
2026-01-20 13:57:27.91	267.34	15.96	-37.7	-39.5	15.3	0.00e+00	0	58	0	1237319680	47	4314
2026-01-20 13:57:28.92	267.56	15.98	-37.7	-39.4	15.4	0.00e+00	0	58	0	1242562560	47	4272
2026-01-20 13:57:29.93	267.78	15.99	-37.6	-39.4	15.5	0.00e+00	0	58	0	1248854016	47	4251
2026-01-20 13:57:30.94	268.00	16.00	-37.7	-39.4	15.4	0.00e+00	0	58	0	1254096896	47	4278
2026-01-20 13:57:31.95	268.22	16.02	-37.7	-39.4	15.4	0.00e+00	0	58	0	1260388352	47	4268
2026-01-20 13:57:32.96	268.44	16.03	-37.7	-39.4	15.4	0.00e+00	0	58	0	1265631232	47	4268
2026-01-20 13:57:33.97	268.66	16.04	-37.7	-39.4	15.4	1.10e-06	0	58	0	1271922688	47	4285
2026-01-20 13:57:34.98	268.88	16.05	-37.7	-39.4	15.4	0.00e+00	0	58	0	1277165568	47	4278
2026-01-20 13:57:35.99	269.10	16.06	-37.6	-39.4	15.5	0.00e+00	0	58	0	1282408448	47	4249
2026-01-20 13:57:37.00	269.33	16.07	-37.6	-39.3	15.5	0.00e+00	0	58	0	1288699904	47	4242
2026-01-20 13:57:38.01	269.55	16.08	-37.6	-39.3	15.5	0.00e+00	0	58	0	1293942784	47	4225
2026-01-20 13:57:39.02	269.77	16.09	-37.6	-39.3	15.5	0.00e+00	0	58	0	1300234240	47	4228
2026-01-20 13:57:40.03	269.99	16.10	-37.6	-39.4	15.4	0.00e+00	0	58	0	1305477120	47	4266
2026-01-20 13:57:41.04	270.22	16.11	-37.7	-39.5	15.4	0.00e+00	0	58	0	1310720000	47	4308
2026-01-20 13:57:42.05	270.44	16.12	-37.7	-39.5	15.4	0.00e+00	0	58	0	1317011456	47	4299
2026-01-20 13:57:43.06	270.66	16.13	-37.8	-39.5	15.3	0.00e+00	0	58	0	1322254336	47	4336
2026-01-20 13:57:44.07	270.88	16.13	-37.7	-39.5	15.4	0.00e+00	0	58	0	1328545792	47	4297
2026-01-20 13:57:45.08	271.11	16.14	-37.7	-39.4	15.4	0.00e+00	0	58	0	1333788672	47	4273
2026-01-20 13:57:46.09	271.33	16.15	-37.6	-39.3	15.5	0.00e+00	0	58	0	1339031552	47	4227
2026-01-20 13:57:47.10	271.55	16.15	-37.6	-39.3	15.5	0.00e+00	0	58	0	1345323008	47	4220
2026-01-20 13:57:48.11	271.77	16.16	-37.6	-39.3	15.5	0.00e+00	0	58	0	1350565888	47	4239
2026-01-20 13:57:49.11	272.00	16.17	-37.7	-39.4	15.4	0.00e+00	0	58	0	1356857344	47	4289
2026-01-20 13:57:50.12	272.22	16.17	-37.7	-39.4	15.4	0.00e+00	0	58	0	1362100224	47	4287
2026-01-20 13:57:51.13	272.44	16.18	-37.7	-39.4	15.4	0.00e+00	0	58	0	1368391680	47	4288
2026-01-20 13:57:52.14	272.67	16.18	-37.6	-39.4	15.4	0.00e+00	0	58	0	1373634560	47	4276
2026-01-20 13:57:53.15	272.89	16.18	-37.7	-39.4	15.4	0.00e+00	0	58	0	1379926016	47	4283
2026-01-20 13:57:54.16	273.11	16.19	-37.7	-39.5	15.3	0.00e+00	0	58	0	1385168896	47	4318
2026-01-20 13:57:55.17	273.34	16.19	-37.7	-39.5	15.3	0.00e+00	0	58	0	1390411776	47	4338
2026-01-20 13:57:56.18	273.56	16.19	-37.8	-39.6	15.2	0.00e+00	0	58	0	1396703232	47	4368
2026-01-20 13:57:57.19	273.78	16.20	-37.9	-39.7	15.1	0.00e+00	0	58	0	1401946112	47	4410
2026-01-20 13:57:58.20	274.01	16.20	-37.9	-39.7	15.1	0.00e+00	0	58	0	1407188992	47	4418
2026-01-20 13:57:59.21	274.23	16.20	-37.8	-39.6	15.2	0.00e+00	0	58	0	1413480448	47	4367
2026-01-20 13:58:00.22	274.45	16.20	-37.8	-39.6	15.2	0.00e+00	0	58	0	1418723328	47	4371
2026-01-20 13:58:01.23	274.68	16.20	-37.8	-39.6	15.2	0.00e+00	0	58	0	1425014784	47	4349
2026-01-20 13:58:02.23	274.90	16.20	-37.8	-39.6	15.2	1.10e-06	0	58	0	1430257664	47	4375
2026-01-20 13:58:03.24	275.12	16.20	-37.8	-39.6	15.1	0.00e+00	0	58	0	1435500544	47	4388
2026-01-20 13:58:04.25	275.35	16.20	-37.8	-39.6	15.2	0.00e+00	0	58	0	1441792000	47	4362
2026-01-20 13:58:05.26	275.57	16.20	-37.7	-39.5	15.3	1.10e-06	0	58	0	1447034880	47	4299
2026-01-20 13:58:06.27	275.79	16.20	-37.8	-39.5	15.2	0.00e+00	0	58	0	1453326336	47	4340
2026-01-20 13:58:07.28	276.02	16.20	-37.7	-39.5	15.3	0.00e+00	0	58	0	1458569216	47	4304
2026-01-20 13:58:08.29	276.24	16.19	-37.7	-39.4	15.4	0.00e+00	0	58	0	1464860672	47	4281
2026-01-20 13:58:09.30	276.46	16.19	-37.7	-39.4	15.3	0.00e+00	0	58	0	1470103552	47	4291
2026-01-20 13:58:10.32	276.69	16.19	-37.8	-39.6	15.2	0.00e+00	0	58	0	1476395008	47	4345
2026-01-20 13:58:11.32	276.91	16.19	-37.7	-39.5	15.2	0.00e+00	0	58	0	1481637888	47	4324
2026-01-20 13:58:12.34	277.13	16.18	-37.7	-39.5	15.2	1.10e-06	0	58	0	1486880768	47	4324
2026-01-20 13:58:13.34	277.36	16.18	-37.7	-39.5	15.3	0.00e+00	0	58	0	1493172224	47	4300
2026-01-20 13:58:14.35	277.58	16.17	-37.6	-39.4	15.4	0.00e+00	0	58	0	1498415104	47	4266
2026-01-20 13:58:15.36	277.80	16.17	-37.6	-39.4	15.3	0.00e+00	0	58	0	1504706560	47	4276
2026-01-20 13:58:16.38	278.03	16.16	-37.8	-39.6	15.2	0.00e+00	0	58	0	1509949440	47	4361
2026-01-20 13:58:17.38	278.25	16.16	-37.8	-39.7	15.1	0.00e+00	0	58	0	1515192320	47	4407
2026-01-20 13:58:18.40	278.47	16.15	-37.9	-39.8	15.0	0.00e+00	0	58	0	1521483776	47	4444
2026-01-20 13:58:19.40	278.69	16.14	-38.0	-39.8	14.9	0.00e+00	0	58	0	1526726656	47	4467
2026-01-20 13:58:20.41	278.92	16.14	-37.8	-39.6	15.1	1.10e-06	0	58	0	1533018112	47	4389
2026-01-20 13:58:21.42	279.14	16.13	-37.8	-39.6	15.1	0.00e+00	0	58	0	1538260992	47	4384
2026-01-20 13:58:22.43	279.36	16.12	-37.8	-39.7	15.1	0.00e+00	0	58	0	1543503872	47	4398
2026-01-20 13:58:23.44	279.58	16.11	-37.9	-39.8	15.0	0.00e+00	0	58	0	1549795328	47	4454
2026-01-20 13:58:24.45	279.81	16.10	-37.9	-39.7	15.1	0.00e+00	0	58	0	1555038208	47	4413
2026-01-20 13:58:25.46	280.03	16.09	-37.9	-39.8	15.0	1.10e-06	0	58	0	1561329664	47	4455
2026-01-20 13:58:26.47	280.25	16.08	-37.9	-39.7	15.0	1.10e-06	0	58	0	1566572544	47	4438
2026-01-20 13:58:27.48	280.47	16.07	-37.8	-39.7	15.1	0.00e+00	0	58	0	1572864000	47	4402
2026-01-20 13:58:28.49	280.69	16.06	-37.8	-39.6	15.2	1.10e-06	0	58	0	1578106880	47	4367
2026-01-20 13:58:29.50	280.91	16.05	-37.8	-39.5	15.2	0.00e+00	0	58	0	1583349760	47	4331
2026-01-20 13:58:30.51	281.13	16.04	-37.8	-39.5	15.2	0.00e+00	0	58	0	1589641216	47	4333
2026-01-20 13:58:31.52	281.36	16.03	-37.6	-39.4	15.3	0.00e+00	0	58	0	1594884096	47	4269
2026-01-20 13:58:32.53	281.58	16.02	-37.6	-39.4	15.4	1.10e-06	0	58	0	1601175552	47	4243
2026-01-20 13:58:33.54	281.80	16.01	-37.8	-39.5	15.2	0.00e+00	0	58	0	1606418432	47	4332
2026-01-20 13:58:34.55	282.02	15.99	-37.7	-39.5	15.2	0.00e+00	0	58	0	1611661312	47	4327
2026-01-20 13:58:35.56	282.24	15.98	-37.7	-39.5	15.2	0.00e+00	0	58	0	1617952768	47	4335
2026-01-20 13:58:36.57	282.46	15.97	-37.8	-39.6	15.1	0.00e+00	0	58	0	1623195648	47	4358
2026-01-20 13:58:37.58	282.68	15.95	-37.9	-39.7	15.0	0.00e+00	0	58	0	1629487104	47	4432
2026-01-20 13:58:38.59	282.90	15.94	-37.9	-39.8	14.9	0.00e+00	0	58	0	1634729984	47	4461
2026-01-20 13:58:39.60	283.12	15.92	-38.0	-39.8	14.9	0.00e+00	0	58	0	1639972864	47	4483
2026-01-20 13:58:40.61	283.34	15.91	-37.9	-39.8	14.9	0.00e+00	0	58	0	1646264320	47	4465
2026-01-20 13:58:41.62	283.56	15.89	-37.9	-39.8	14.9	0.00e+00	0	58	0	1651507200	47	4479
2026-01-20 13:58:42.63	283.77	15.88	-37.9	-39.8	15.0	0.00e+00	0	58	0	1657798656	47	4442
2026-01-20 13:58:43.64	283.99	15.86	-37.9	-39.7	15.0	0.00e+00	0	58	0	1663041536	47	4416
2026-01-20 13:58:44.65	284.21	15.84	-37.9	-39.8	14.9	0.00e+00	0	58	0	1669332992	47	4470
2026-01-20 13:58:45.66	284.43	15.83	-38.0	-39.9	14.8	1.10e-06	0	58	0	1674575872	47	4537
2026-01-20 13:58:46.67	284.65	15.81	-38.0	-39.9	14.8	0.00e+00	0	58	0	1680867328	47	4532
2026-01-20 13:58:47.68	284.87	15.79	-38.0	-39.8	14.8	0.00e+00	0	58	0	1686110208	47	4489
2026-01-20 13:58:48.69	285.08	15.77	-37.9	-39.7	15.0	0.00e+00	0	58	0	1691353088	47	4441
2026-01-20 13:58:49.70	285.30	15.76	-37.9	-39.7	15.0	0.00e+00	0	58	0	1697644544	47	4415
2026-01-20 13:58:50.71	285.52	15.74	-37.8	-39.7	15.0	1.10e-06	0	58	0	1702887424	47	4401
2026-01-20 13:58:51.72	285.73	15.72	-37.9	-39.7	14.9	1.10e-06	0	58	0	1709178880	47	4437
2026-01-20 13:58:52.74	285.95	15.70	-37.9	-39.7	14.9	1.10e-06	0	58	0	1714421760	47	4423
2026-01-20 13:58:53.74	286.17	15.68	-37.9	-39.8	14.8	0.00e+00	0	58	0	1719664640	47	4479
2026-01-20 13:58:54.75	286.38	15.66	-38.0	-39.9	14.8	0.00e+00	0	58	0	1725956096	47	4510
2026-01-20 13:58:55.76	286.60	15.64	-38.1	-40.0	14.7	0.00e+00	0	58	0	1731198976	47	4556
2026-01-20 13:58:56.77	286.81	15.62	-38.1	-40.0	14.6	1.10e-06	0	58	0	1737490432	47	4583
2026-01-20 13:58:57.78	287.03	15.59	-38.1	-40.1	14.6	1.10e-06	0	58	0	1742733312	47	4600
2026-01-20 13:58:58.79	287.24	15.57	-38.1	-40.1	14.6	1.10e-06	0	58	0	1747976192	47	4608
2026-01-20 13:58:59.80	287.46	15.55	-38.1	-40.0	14.6	2.20e-06	0	58	0	1754267648	47	4597
2026-01-20 13:59:00.81	287.67	15.53	-38.1	-40.1	14.5	0.00e+00	0	58	0	1759510528	47	4617
2026-01-20 13:59:01.82	287.88	15.51	-38.2	-40.1	14.5	2.20e-06	0	58	0	1765801984	47	4643
2026-01-20 13:59:02.83	288.10	15.48	-38.1	-40.0	14.5	0.00e+00	0	59	0	1771044864	47	4593
2026-01-20 13:59:03.84	288.31	15.46	-38.1	-40.0	14.6	1.10e-06	0	58	0	1777336320	47	4586
2026-01-20 13:59:04.85	288.52	15.43	-38.0	-40.0	14.7	0.00e+00	0	58	0	1782579200	47	4546
2026-01-20 13:59:05.86	288.73	15.41	-38.0	-40.0	14.7	0.00e+00	0	58	0	1788870656	47	4547
2026-01-20 13:59:06.87	288.95	15.39	-38.1	-40.0	14.6	0.00e+00	0	58	0	1794113536	47	4572
2026-01-20 13:59:07.88	289.16	15.36	-38.1	-40.0	14.6	0.00e+00	0	58	0	1799356416	47	4592
2026-01-20 13:59:08.89	289.37	15.34	-38.1	-40.1	14.6	1.10e-06	0	58	0	1805647872	47	4601
2026-01-20 13:59:09.90	289.58	15.31	-38.0	-39.9	14.7	1.10e-06	0	58	0	1810890752	47	4517
2026-01-20 13:59:10.91	289.79	15.28	-38.0	-39.9	14.7	0.00e+00	0	58	0	1817182208	47	4510
2026-01-20 13:59:11.92	290.00	15.26	-38.1	-40.0	14.6	1.10e-06	0	58	0	1822425088	47	4583
2026-01-20 13:59:12.93	290.21	15.23	-38.2	-40.2	14.4	0.00e+00	0	59	0	1827667968	47	4663
2026-01-20 13:59:13.95	290.42	15.20	-38.3	-40.3	14.3	0.00e+00	0	58	0	1833959424	47	4728
2026-01-20 13:59:14.96	290.63	15.18	-38.3	-40.3	14.2	2.20e-06	0	58	0	1839202304	47	4751
2026-01-20 13:59:15.97	290.84	15.15	-38.3	-40.3	14.2	5.70e-06	0	59	0	1845493760	47	4737
2026-01-20 13:59:16.97	291.04	15.12	-38.2	-40.2	14.3	1.10e-06	0	58	0	1850736640	47	4704
2026-01-20 13:59:17.99	291.25	15.09	-38.3	-40.3	14.3	2.20e-06	0	59	0	1855979520	47	4711
2026-01-20 13:59:19.00	291.46	15.06	-38.3	-40.2	14.3	2.20e-06	0	58	0	1862270976	47	4704
2026-01-20 13:59:20.01	291.67	15.04	-38.2	-40.2	14.3	3.40e-06	0	58	0	1867513856	47	4679
2026-01-20 13:59:21.01	291.87	15.01	-38.2	-40.2	14.3	0.00e+00	0	58	0	1873805312	47	4699
2026-01-20 13:59:22.02	292.08	14.98	-38.3	-40.3	14.2	2.20e-06	0	58	0	1879048192	47	4727
2026-01-20 13:59:23.03	292.28	14.95	-38.3	-40.3	14.2	5.70e-06	0	58	0	1885339648	47	4753
2026-01-20 13:59:24.04	292.49	14.92	-38.3	-40.3	14.2	5.70e-06	0	59	0	1890582528	47	4736
2026-01-20 13:59:25.05	292.70	14.89	-38.4	-40.4	14.2	3.40e-06	0	59	0	1895825408	47	4777
2026-01-20 13:59:26.06	292.90	14.86	-38.3	-40.3	14.2	2.20e-06	0	59	0	1902116864	47	4730
2026-01-20 13:59:27.07	293.10	14.83	-38.3	-40.3	14.2	0.00e+00	0	59	0	1907359744	47	4721
2026-01-20 13:59:28.08	293.31	14.79	-38.3	-40.3	14.1	1.10e-06	0	58	0	1913651200	47	4747
2026-01-20 13:59:29.09	293.51	14.76	-38.3	-40.3	14.2	3.40e-06	0	58	0	1918894080	47	4744
2026-01-20 13:59:30.10	293.71	14.73	-38.3	-40.4	14.1	1.10e-06	0	59	0	1925185536	47	4762
2026-01-20 13:59:31.11	293.92	14.70	-38.3	-40.3	14.2	2.20e-06	0	58	0	1930428416	47	4730
2026-01-20 13:59:32.12	294.12	14.67	-38.3	-40.3	14.2	0.00e+00	0	59	0	1935671296	47	4729
2026-01-20 13:59:33.13	294.32	14.63	-38.3	-40.3	14.2	6.80e-06	0	58	0	1941962752	47	4717
2026-01-20 13:59:34.14	294.52	14.60	-38.3	-40.3	14.1	5.70e-06	0	58	0	1947205632	47	4753
2026-01-20 13:59:35.15	294.72	14.57	-38.2	-40.2	14.2	1.10e-06	0	58	0	1953497088	47	4697
2026-01-20 13:59:36.16	294.92	14.53	-38.3	-40.3	14.2	1.10e-06	0	59	0	1958739968	47	4723
2026-01-20 13:59:37.17	295.12	14.50	-38.3	-40.4	14.1	5.70e-06	0	58	0	1963982848	47	4763
2026-01-20 13:59:38.18	295.32	14.47	-38.4	-40.4	14.0	1.10e-06	0	58	0	1970274304	47	4808
2026-01-20 13:59:39.19	295.52	14.43	-38.4	-40.5	14.0	1.10e-06	0	58	0	1975517184	47	4837
2026-01-20 13:59:40.20	295.72	14.40	-38.4	-40.5	14.0	8.00e-06	0	58	0	1981808640	47	4862
2026-01-20 13:59:41.21	295.92	14.36	-38.4	-40.5	14.1	5.70e-06	0	59	0	1987051520	47	4818
2026-01-20 13:59:42.22	296.11	14.33	-38.3	-40.3	14.2	1.10e-06	0	59	0	1992294400	47	4759
2026-01-20 13:59:43.23	296.31	14.29	-38.3	-40.4	14.1	2.20e-06	0	59	0	1998585856	47	4773
2026-01-20 13:59:44.24	296.51	14.26	-38.3	-40.3	14.2	5.70e-06	0	59	0	2003828736	47	4755
2026-01-20 13:59:45.25	296.70	14.22	-38.4	-40.4	14.1	2.20e-06	0	58	0	2010120192	47	4781
2026-01-20 13:59:46.26	296.90	14.18	-38.4	-40.4	14.1	2.20e-06	0	58	0	2015363072	47	4802
2026-01-20 13:59:47.27	297.10	14.15	-38.5	-40.6	14.0	4.50e-06	0	59	0	2021654528	47	4881
2026-01-20 13:59:48.28	297.29	14.11	-38.4	-40.4	14.1	6.80e-06	0	58	0	2026897408	47	4787
2026-01-20 13:59:49.29	297.49	14.07	-38.3	-40.3	14.2	4.50e-06	0	59	0	2032140288	47	4749
2026-01-20 13:59:50.30	297.68	14.04	-38.3	-40.3	14.2	3.40e-06	0	58	0	2038431744	47	4752
2026-01-20 13:59:51.31	297.87	14.00	-38.3	-40.3	14.2	0.00e+00	0	59	0	2043674624	47	4730
2026-01-20 13:59:52.32	298.07	13.96	-38.3	-40.3	14.3	1.10e-06	0	58	0	2049966080	47	4716
2026-01-20 13:59:53.32	298.26	13.92	-38.3	-40.3	14.2	2.20e-06	0	58	0	2055208960	47	4741
2026-01-20 13:59:54.33	298.45	13.89	-38.3	-40.4	14.2	3.40e-06	0	58	0	2060451840	47	4764
2026-01-20 13:59:55.34	298.64	13.85	-38.4	-40.4	14.1	3.40e-06	0	58	0	2066743296	47	4813
2026-01-20 13:59:56.35	298.83	13.81	-38.5	-40.5	14.1	1.10e-06	0	58	0	2071986176	47	4852
2026-01-20 13:59:57.36	299.02	13.77	-38.4	-40.5	14.1	8.00e-06	0	58	0	2078277632	47	4830
2026-01-20 13:59:58.37	299.21	13.73	-38.4	-40.4	14.2	0.00e+00	0	58	0	2083520512	47	4805
2026-01-20 13:59:59.38	299.40	13.69	-38.4	-40.4	14.2	2.20e-06	0	58	0	2089811968	47	4800
2026-01-20 14:00:00.39	299.59	13.65	-38.4	-40.5	14.2	4.50e-06	0	58	0	2095054848	47	4815
2026-01-20 14:00:01.40	299.78	13.61	-38.4	-40.4	14.2	4.50e-06	0	59	0	2100297728	47	4771
2026-01-20 14:00:02.41	299.97	13.57	-38.4	-40.4	14.2	4.50e-06	0	58	0	2106589184	47	4780
2026-01-20 14:00:03.42	300.15	13.53	-38.5	-40.6	14.1	2.20e-06	0	58	0	2111832064	47	4883
2026-01-20 14:00:04.43	300.34	13.49	-38.5	-40.5	14.1	3.40e-06	0	58	0	2118123520	47	4866
2026-01-20 14:00:05.44	300.53	13.45	-38.5	-40.6	14.0	1.10e-06	0	58	0	2123366400	47	4883
2026-01-20 14:00:06.45	300.71	13.41	-38.5	-40.6	14.0	5.70e-06	0	58	0	2128609280	47	4890
2026-01-20 14:00:07.46	300.90	13.37	-38.6	-40.7	13.9	3.40e-06	0	58	0	2134900736	47	4929
2026-01-20 14:00:08.47	301.08	13.33	-38.5	-40.5	14.1	3.40e-06	0	58	0	2140143616	47	4857
2026-01-20 14:00:09.48	301.27	13.29	-38.5	-40.6	14.0	2.20e-06	0	59	0	2146435072	47	4891
2026-01-20 14:00:10.49	301.45	13.25	-38.6	-40.6	14.0	4.50e-06	0	59	0	2151677952	47	4920
2026-01-20 14:00:11.50	301.63	13.20	-38.6	-40.7	13.9	3.40e-06	0	58	0	2156920832	47	4944
2026-01-20 14:00:12.51	301.82	13.16	-38.6	-40.7	13.9	5.70e-06	0	59	0	2163212288	47	4980
2026-01-20 14:00:13.52	302.00	13.12	-38.6	-40.7	13.9	8.00e-06	0	58	0	2168455168	47	4940
2026-01-20 14:00:14.53	302.18	13.08	-38.6	-40.7	13.9	5.70e-06	0	59	0	2174746624	47	4955
2026-01-20 14:00:15.54	302.36	13.03	-38.7	-40.8	13.8	4.50e-06	0	58	0	2179989504	47	4998
2026-01-20 14:00:16.55	302.54	12.99	-38.7	-40.8	13.9	3.40e-06	0	58	0	2186280960	48	4724
2026-01-20 14:00:17.56	302.72	12.95	-38.7	-40.7	14.0	5.70e-06	0	59	0	2191523840	48	4699
2026-01-20 14:00:18.57	302.90	12.91	-38.6	-40.6	14.1	5.70e-06	0	59	0	2196766720	48	4650
2026-01-20 14:00:19.58	303.08	12.86	-38.6	-40.6	14.1	2.20e-06	0	59	0	2203058176	48	4640
2026-01-20 14:00:20.59	303.26	12.82	-38.6	-40.6	14.1	2.20e-06	0	58	0	2208301056	48	4624
2026-01-20 14:00:21.60	303.44	12.78	-38.7	-40.7	14.0	5.70e-06	0	59	0	2214592512	48	4684
2026-01-20 14:00:22.61	303.62	12.73	-38.7	-40.7	14.0	4.50e-06	0	59	0	2219835392	48	4679
2026-01-20 14:00:23.62	303.80	12.69	-38.7	-40.8	13.9	2.20e-06	0	58	0	2226126848	48	4739
2026-01-20 14:00:24.63	303.97	12.64	-38.9	-41.0	13.7	6.80e-06	0	58	0	2231369728	48	4832
2026-01-20 14:00:25.64	304.15	12.60	-38.8	-40.9	13.7	1.02e-05	0	58	0	2236612608	48	4796
2026-01-20 14:00:26.65	304.32	12.56	-38.8	-40.9	13.8	1.83e-05	0	58	0	2242904064	48	4802
2026-01-20 14:00:27.65	304.50	12.51	-38.8	-40.9	13.8	8.00e-06	0	59	0	2248146944	48	4794
2026-01-20 14:00:28.66	304.67	12.47	-38.8	-40.9	13.8	1.14e-05	0	58	0	2254438400	48	4778
2026-01-20 14:00:29.67	304.85	12.42	-38.8	-41.0	13.7	9.10e-06	0	59	0	2259681280	48	4815
2026-01-20 14:00:30.68	305.02	12.38	-38.8	-40.9	13.8	9.10e-06	0	59	0	2264924160	48	4774
2026-01-20 14:00:31.69	305.19	12.33	-38.7	-40.8	13.9	5.70e-06	0	59	0	2271215616	48	4716
2026-01-20 14:00:32.70	305.37	12.29	-38.8	-40.8	13.8	4.50e-06	0	59	0	2276458496	48	4757
2026-01-20 14:00:33.71	305.54	12.24	-38.7	-40.8	13.8	8.00e-06	0	58	0	2282749952	48	4740
2026-01-20 14:00:34.72	305.71	12.19	-38.8	-40.9	13.8	5.70e-06	0	59	0	2287992832	48	4763
2026-01-20 14:00:35.73	305.88	12.15	-38.8	-40.9	13.7	8.00e-06	0	59	0	2293235712	48	4786
2026-01-20 14:00:36.74	306.05	12.10	-38.8	-40.9	13.7	1.14e-05	0	59	0	2299527168	48	4780
2026-01-20 14:00:37.75	306.22	12.06	-38.9	-41.0	13.6	1.71e-05	0	58	0	2304770048	48	4840
2026-01-20 14:00:38.76	306.39	12.01	-38.8	-40.9	13.7	8.00e-06	0	58	0	2311061504	48	4804
2026-01-20 14:00:39.77	306.56	11.96	-38.8	-40.9	13.7	1.02e-05	0	59	0	2316304384	48	4808
2026-01-20 14:00:40.78	306.73	11.92	-38.8	-41.0	13.7	1.25e-05	0	58	0	2322595840	48	4815
2026-01-20 14:00:41.79	306.90	11.87	-38.9	-41.1	13.5	1.83e-05	0	59	0	2327838720	48	4902
2026-01-20 14:00:42.80	307.06	11.82	-39.0	-41.1	13.5	2.05e-05	0	58	0	2333081600	48	4926
2026-01-20 14:00:43.81	307.23	11.78	-39.0	-41.2	13.4	2.51e-05	0	58	0	2339373056	48	4960
2026-01-20 14:00:44.82	307.40	11.73	-39.1	-41.3	13.3	3.54e-05	0	59	0	2344615936	48	5031
2026-01-20 14:00:45.82	307.56	11.68	-39.1	-41.4	13.3	4.34e-05	0	58	0	2350907392	48	5045
2026-01-20 14:00:46.83	307.73	11.64	-39.1	-41.4	13.2	4.34e-05	0	59	0	2356150272	48	5046
2026-01-20 14:00:47.84	307.89	11.59	-39.1	-41.4	13.2	3.89e-05	0	59	0	2361393152	48	5060
2026-01-20 14:00:48.85	308.06	11.54	-39.1	-41.4	13.2	4.46e-05	0	59	0	2367684608	48	5091
2026-01-20 14:00:49.86	308.22	11.49	-39.1	-41.4	13.2	4.34e-05	0	59	0	2372927488	48	5063
2026-01-20 14:00:50.87	308.38	11.45	-39.1	-41.3	13.3	3.43e-05	0	59	0	2379218944	48	5030
2026-01-20 14:00:51.88	308.55	11.40	-39.1	-41.3	13.3	4.80e-05	0	58	0	2384461824	48	5037
2026-01-20 14:00:52.89	308.71	11.35	-39.1	-41.3	13.3	3.66e-05	0	58	0	2389704704	48	5028
2026-01-20 14:00:53.90	308.87	11.30	-39.1	-41.3	13.2	1.48e-05	0	59	0	2395996160	48	5038
2026-01-20 14:00:54.91	309.03	11.25	-39.1	-41.4	13.1	4.23e-05	0	59	0	2401239040	48	5075
2026-01-20 14:00:55.92	309.19	11.21	-39.1	-41.4	13.2	4.80e-05	0	59	0	2407530496	48	5061
2026-01-20 14:00:56.93	309.35	11.16	-39.1	-41.3	13.2	2.86e-05	0	59	0	2412773376	48	5036
2026-01-20 14:00:57.94	309.51	11.11	-39.2	-41.5	13.1	3.66e-05	0	59	0	2419064832	48	5105
2026-01-20 14:00:58.95	309.67	11.06	-39.2	-41.4	13.1	4.69e-05	0	59	0	2424307712	48	5088
2026-01-20 14:00:59.96	309.83	11.01	-39.2	-41.5	13.0	5.72e-05	0	59	0	2430599168	49	4866
2026-01-20 14:01:00.97	309.99	10.96	-39.2	-41.5	13.1	4.69e-05	0	59	0	2435842048	49	4843
2026-01-20 14:01:01.98	310.15	10.92	-39.2	-41.5	13.0	6.86e-05	0	59	0	2441084928	49	4848
2026-01-20 14:01:02.99	310.30	10.87	-39.1	-41.4	13.1	5.49e-05	0	59	0	2447376384	49	4793
2026-01-20 14:01:04.00	310.46	10.82	-39.2	-41.5	13.1	5.03e-05	0	59	0	2452619264	49	4828
2026-01-20 14:01:05.01	310.62	10.77	-39.2	-41.4	13.1	5.14e-05	0	58	0	2458910720	49	4814
2026-01-20 14:01:06.02	310.77	10.72	-39.2	-41.5	13.0	6.75e-05	0	59	0	2464153600	49	4861
2026-01-20 14:01:07.03	310.93	10.67	-39.2	-41.4	13.1	6.17e-05	0	59	0	2469396480	49	4810
2026-01-20 14:01:08.04	311.08	10.62	-39.1	-41.5	13.1	5.03e-05	0	59	0	2475687936	49	4816
2026-01-20 14:01:09.05	311.24	10.57	-39.1	-41.4	13.1	5.03e-05	0	59	0	2480930816	49	4801
2026-01-20 14:01:10.06	311.39	10.52	-39.1	-41.4	13.1	6.17e-05	0	59	0	2487222272	49	4791
2026-01-20 14:01:11.07	311.54	10.47	-39.1	-41.4	13.0	5.95e-05	0	59	0	2492465152	49	4813
2026-01-20 14:01:12.08	311.69	10.42	-39.1	-41.4	13.1	4.92e-05	0	59	0	2497708032	49	4801
2026-01-20 14:01:13.09	311.85	10.37	-39.1	-41.4	13.1	6.29e-05	0	59	0	2503999488	49	4774
2026-01-20 14:01:14.10	312.00	10.32	-39.0	-41.2	13.3	3.08e-05	0	59	0	2509242368	49	4676
2026-01-20 14:01:15.11	312.15	10.27	-39.0	-41.2	13.2	4.46e-05	0	59	0	2515533824	49	4701
2026-01-20 14:01:16.12	312.30	10.22	-39.0	-41.3	13.2	5.26e-05	0	59	0	2520776704	49	4717
2026-01-20 14:01:17.13	312.45	10.17	-39.0	-41.3	13.2	4.92e-05	0	59	0	2527068160	49	4734
2026-01-20 14:01:18.14	312.60	10.12	-39.1	-41.4	13.0	5.83e-05	0	59	0	2532311040	49	4794
2026-01-20 14:01:19.15	312.75	10.07	-39.1	-41.5	13.0	6.40e-05	0	59	0	2537553920	49	4827
2026-01-20 14:01:20.16	312.90	10.02	-39.2	-41.6	12.9	6.29e-05	0	59	0	2543845376	49	4874
2026-01-20 14:01:21.17	313.04	9.97	-39.3	-41.6	12.8	9.61e-05	0	59	0	2549088256	49	4918
2026-01-20 14:01:22.18	313.19	9.92	-39.3	-41.7	12.7	1.15e-04	0	59	0	2555379712	49	4959
2026-01-20 14:01:23.19	313.34	9.87	-39.3	-41.8	12.6	1.45e-04	0	59	0	2560622592	49	4998
2026-01-20 14:01:24.20	313.49	9.82	-39.3	-41.7	12.7	1.15e-04	0	59	0	2565865472	49	4935
2026-01-20 14:01:25.20	313.63	9.77	-39.3	-41.7	12.7	1.29e-04	0	59	0	2572156928	49	4953
2026-01-20 14:01:26.21	313.78	9.72	-39.2	-41.6	12.7	1.40e-04	0	59	0	2577399808	49	4909
2026-01-20 14:01:27.22	313.92	9.67	-39.2	-41.6	12.8	1.03e-04	0	59	0	2583691264	49	4884
2026-01-20 14:01:28.23	314.07	9.62	-39.2	-41.5	12.8	8.58e-05	0	59	0	2588934144	49	4868
2026-01-20 14:01:29.24	314.21	9.57	-39.2	-41.6	12.8	9.38e-05	0	59	0	2594177024	49	4872
2026-01-20 14:01:30.25	314.35	9.52	-39.3	-41.7	12.7	1.20e-04	0	59	0	2600468480	49	4959
2026-01-20 14:01:31.26	314.50	9.47	-39.3	-41.7	12.7	1.30e-04	0	59	0	2605711360	49	4965
2026-01-20 14:01:32.27	314.64	9.42	-39.4	-41.9	12.5	1.60e-04	0	59	0	2612002816	49	5050
2026-01-20 14:01:33.28	314.78	9.37	-39.4	-41.9	12.5	1.94e-04	0	59	0	2617245696	49	5062
2026-01-20 14:01:34.29	314.92	9.31	-39.5	-42.0	12.3	2.33e-04	0	59	0	2623537152	49	5147
2026-01-20 14:01:35.29	315.06	9.26	-39.5	-42.0	12.4	2.63e-04	0	59	0	2628780032	49	5109
2026-01-20 14:01:36.30	315.20	9.21	-39.5	-42.0	12.4	2.05e-04	0	59	0	2635071488	49	5109
2026-01-20 14:01:37.31	315.34	9.16	-39.4	-41.9	12.4	2.21e-04	0	59	0	2640314368	49	5056
2026-01-20 14:01:38.32	315.48	9.11	-39.4	-41.9	12.4	2.04e-04	0	59	0	2645557248	49	5082
2026-01-20 14:01:39.33	315.62	9.06	-39.4	-41.9	12.4	2.73e-04	0	59	0	2651848704	49	5088
2026-01-20 14:01:40.34	315.76	9.01	-39.5	-41.9	12.3	2.56e-04	0	59	0	2657091584	49	5098
2026-01-20 14:01:41.35	315.90	8.96	-39.5	-42.1	12.2	2.51e-04	0	59	0	2662334464	49	5191
2026-01-20 14:01:42.36	316.04	8.91	-39.5	-42.1	12.2	2.78e-04	0	59	0	2668625920	49	5180
2026-01-20 14:01:43.37	316.18	8.85	-39.5	-42.1	12.2	2.70e-04	0	59	0	2673868800	49	5173
2026-01-20 14:01:44.38	316.31	8.80	-39.6	-42.2	12.1	3.39e-04	0	59	0	2680160256	49	5235
2026-01-20 14:01:45.39	316.45	8.75	-39.7	-42.3	12.0	3.91e-04	0	59	0	2685403136	49	5306
2026-01-20 14:01:46.40	316.59	8.70	-39.6	-42.2	12.1	4.49e-04	0	59	0	2691694592	49	5230
2026-01-20 14:01:47.41	316.72	8.65	-39.6	-42.2	12.0	4.51e-04	0	59	0	2696937472	49	5273
2026-01-20 14:01:48.42	316.86	8.60	-39.7	-42.3	12.0	4.75e-04	0	59	0	2702180352	49	5289
2026-01-20 14:01:49.43	316.99	8.55	-39.6	-42.2	12.1	3.73e-04	0	59	0	2708471808	49	5221
2026-01-20 14:01:50.44	317.13	8.49	-39.6	-42.2	12.1	4.71e-04	0	59	0	2713714688	49	5228
2026-01-20 14:01:51.45	317.26	8.44	-39.6	-42.2	12.1	3.62e-04	0	59	0	2720006144	49	5268
2026-01-20 14:01:52.46	317.39	8.39	-39.6	-42.2	12.1	4.10e-04	0	59	0	2725249024	49	5229
2026-01-20 14:01:53.46	317.52	8.34	-39.5	-42.0	12.2	3.36e-04	0	59	0	2731540480	49	5159
2026-01-20 14:01:54.48	317.66	8.29	-39.6	-42.2	12.1	3.72e-04	0	59	0	2736783360	49	5237
2026-01-20 14:01:55.49	317.79	8.24	-39.7	-42.2	12.0	4.32e-04	0	59	0	2742026240	49	5275
2026-01-20 14:01:56.50	317.92	8.18	-39.7	-42.3	12.0	4.74e-04	0	59	0	2748317696	49	5313
2026-01-20 14:01:57.51	318.05	8.13	-39.8	-42.4	11.9	6.02e-04	0	59	0	2753560576	50	5077
2026-01-20 14:01:58.52	318.18	8.08	-39.8	-42.4	11.9	6.17e-04	0	59	0	2759852032	50	5089
2026-01-20 14:01:59.53	318.31	8.03	-39.7	-42.3	11.9	5.39e-04	0	59	0	2765094912	50	5035
2026-01-20 14:02:00.54	318.44	7.98	-42.0	-46.7	7.8	7.48e-04	0	59	0	2770337792	54	6614
2026-01-20 14:02:01.55	318.57	7.93	-44.5	-55.9	3.8	8.46e-01	0	59	104	2771386368	59	14327
2026-01-20 14:02:02.56	318.70	7.87	-44.7	-56.2	3.8	8.46e-01	0	59	104	2771386368	59	14809
2026-01-20 14:02:03.57	318.83	7.82	-44.8	-56.6	3.8	8.46e-01	0	59	104	2771386368	60	14555
2026-01-20 14:02:04.59	318.96	7.77	-45.0	-56.7	3.8	8.46e-01	0	59	104	2771386368	60	14756
2026-01-20 14:02:05.60	319.09	7.72	-45.0	-56.8	3.8	8.45e-01	0	59	104	2771386368	60	14935
2026-01-20 14:02:06.61	319.21	7.67	-45.1	-56.8	3.8	8.46e-01	0	59	104	2771386368	60	15006
2026-01-20 14:02:07.62	319.34	7.61	-45.2	-56.9	3.8	8.46e-01	0	59	104	2771386368	60	15078
2026-01-20 14:02:08.63	319.47	7.56	-45.2	-56.9	3.8	8.46e-01	0	59	104	2771386368	60	15127
2026-01-20 14:02:09.64	319.59	7.51	-45.2	-56.9	3.8	8.46e-01	0	59	104	2771386368	60	15160
2026-01-20 14:02:10.65	319.72	7.46	-45.1	-56.8	3.8	8.45e-01	0	59	104	2771386368	60	14951
2026-01-20 14:02:11.66	319.84	7.41	-45.0	-56.8	3.8	8.45e-01	0	59	104	2771386368	60	15019
2026-01-20 14:02:12.67	319.97	7.35	-45.1	-56.8	3.8	8.46e-01	0	59	104	2771386368	60	15048
2026-01-20 14:02:13.68	320.09	7.30	-45.1	-56.8	3.8	8.47e-01	0	59	104	2771386368	60	15003
2026-01-20 14:02:14.69	320.21	7.25	-45.1	-56.9	3.8	8.45e-01	0	59	104	2771386368	60	15065
2026-01-20 14:02:15.70	320.34	7.20	-45.1	-56.8	3.8	8.46e-01	0	59	104	2771386368	60	14917
2026-01-20 14:02:16.71	320.46	7.15	-45.1	-56.8	3.8	8.46e-01	0	59	104	2771386368	60	14946
2026-01-20 14:02:17.72	320.58	7.10	-45.1	-56.7	3.8	8.47e-01	0	59	104	2771386368	60	14870
2026-01-20 14:02:18.73	320.71	7.04	-45.1	-56.8	3.8	8.46e-01	0	59	104	2771386368	60	14943
2026-01-20 14:02:19.74	320.83	6.99	-45.1	-56.8	3.8	8.46e-01	0	59	104	2771386368	60	14903
2026-01-20 14:02:20.75	320.95	6.94	-45.1	-56.8	3.8	8.46e-01	0	59	104	2771386368	60	14896
2026-01-20 14:02:21.76	321.07	6.89	-45.1	-56.7	3.8	8.46e-01	0	59	104	2771386368	60	14836
2026-01-20 14:02:22.77	321.19	6.84	-45.1	-56.7	3.8	8.45e-01	0	59	104	2771386368	60	14848
2026-01-20 14:02:23.78	321.31	6.78	-45.1	-56.7	3.8	8.45e-01	0	59	104	2771386368	60	14822
2026-01-20 14:02:24.79	321.43	6.73	-45.1	-56.8	3.8	8.46e-01	0	59	104	2771386368	60	14915
2026-01-20 14:02:25.81	321.55	6.68	-45.1	-56.8	3.8	8.47e-01	0	59	104	2771386368	60	14889
2026-01-20 14:02:26.82	321.67	6.63	-45.1	-56.7	3.8	8.46e-01	0	59	104	2771386368	60	14833
2026-01-20 14:02:27.82	321.78	6.58	-45.1	-56.8	3.8	8.48e-01	0	59	104	2771386368	60	14896
2026-01-20 14:02:28.84	321.90	6.52	-45.1	-56.7	3.8	8.45e-01	0	59	104	2771386368	60	14844
2026-01-20 14:02:29.85	322.02	6.47	-45.0	-56.8	3.8	8.45e-01	0	59	104	2771386368	60	14892
2026-01-20 14:02:30.86	322.14	6.42	-45.1	-56.8	3.8	8.46e-01	0	59	104	2771386368	60	14951
2026-01-20 14:02:31.87	322.25	6.37	-45.0	-56.7	3.8	8.47e-01	0	59	104	2771386368	60	14868
2026-01-20 14:02:32.88	322.37	6.32	-45.0	-56.8	3.8	8.47e-01	0	59	104	2771386368	60	14901
2026-01-20 14:02:33.89	322.49	6.26	-45.1	-56.7	3.8	8.47e-01	0	59	104	2771386368	60	14874
2026-01-20 14:02:34.90	322.60	6.21	-45.0	-56.7	3.8	8.45e-01	0	59	104	2771386368	60	14877
2026-01-20 14:02:35.91	322.72	6.16	-45.1	-56.7	3.8	8.46e-01	0	59	104	2771386368	60	14821
2026-01-20 14:02:36.92	322.83	6.11	-45.1	-56.7	3.8	8.46e-01	0	59	104	2771386368	60	14826
2026-01-20 14:02:37.93	322.95	6.06	-45.1	-56.7	3.8	8.45e-01	0	59	104	2771386368	60	14786
2026-01-20 14:02:38.94	323.06	6.01	-45.0	-56.7	3.8	8.47e-01	0	59	104	2771386368	60	14815
2026-01-20 14:02:39.95	323.17	5.95	-45.0	-56.7	3.8	8.47e-01	0	59	104	2771386368	60	14821
2026-01-20 14:02:40.96	323.29	5.90	-45.1	-56.7	3.8	8.45e-01	0	59	104	2771386368	60	14861
2026-01-20 14:02:41.97	323.40	5.85	-45.0	-56.7	3.8	8.46e-01	0	59	104	2771386368	60	14838
2026-01-20 14:02:42.98	323.51	5.80	-45.1	-56.7	3.8	8.46e-01	0	59	104	2771386368	60	14848
2026-01-20 14:02:43.99	323.62	5.75	-45.0	-56.7	3.8	8.47e-01	0	59	104	2771386368	60	14824
2026-01-20 14:02:45.00	323.73	5.69	-45.0	-56.7	3.8	8.45e-01	0	59	104	2771386368	60	14875
2026-01-20 14:02:46.01	323.85	5.64	-45.0	-56.7	3.8	8.47e-01	0	59	104	2771386368	60	14860
2026-01-20 14:02:47.02	323.96	5.59	-45.0	-56.8	3.8	8.45e-01	0	59	104	2771386368	60	14927
2026-01-20 14:02:48.03	324.07	5.54	-45.0	-56.7	3.8	8.45e-01	0	59	104	2771386368	60	14841
2026-01-20 14:02:49.04	324.18	5.49	-45.0	-56.7	3.8	8.46e-01	0	59	104	2771386368	60	14879
2026-01-20 14:02:50.05	324.29	5.44	-45.0	-56.7	3.8	8.47e-01	0	59	104	2771386368	60	14803
2026-01-20 14:02:51.07	324.40	5.38	-45.0	-56.7	3.8	8.46e-01	0	59	104	2771386368	60	14864
2026-01-20 14:02:52.08	324.51	5.33	-45.0	-56.7	3.8	8.47e-01	0	59	104	2771386368	60	14872
2026-01-20 14:02:53.09	324.61	5.28	-45.0	-56.7	3.8	8.45e-01	0	59	104	2771386368	60	14849
2026-01-20 14:02:54.10	324.72	5.23	-45.0	-56.7	3.8	8.47e-01	0	59	104	2771386368	60	14819
2026-01-20 14:02:55.11	324.83	5.18	-45.0	-56.7	3.8	8.45e-01	0	59	104	2771386368	60	14759
2026-01-20 14:02:56.12	324.94	5.13	-45.0	-56.7	3.8	8.46e-01	0	59	104	2771386368	60	14797
2026-01-20 14:02:57.13	325.05	5.08	-45.0	-56.7	3.8	8.48e-01	0	59	104	2771386368	60	14755
2026-01-20 14:02:58.14	325.15	5.02	-45.0	-56.7	3.8	8.46e-01	0	59	104	2771386368	60	14796
2026-01-20 14:02:59.15	325.26	4.97	-45.0	-56.7	3.8	8.46e-01	0	59	104	2771386368	60	14849
2026-01-20 14:03:00.16	325.36	4.92	-45.0	-56.7	3.8	8.46e-01	0	59	104	2771386368	60	14751
2026-01-20 14:03:01.17	325.47	4.87	-45.0	-56.7	3.8	8.47e-01	0	59	104	2771386368	60	14830
2026-01-20 14:03:02.18	325.58	4.82	-45.0	-56.7	3.8	8.46e-01	0	59	104	2771386368	60	14803
2026-01-20 14:03:03.19	325.68	4.77	-45.0	-56.7	3.8	8.48e-01	0	59	104	2771386368	60	14746
2026-01-20 14:03:04.20	325.79	4.72	-45.0	-56.7	3.8	8.46e-01	0	59	104	2771386368	60	14772
2026-01-20 14:03:05.21	325.89	4.66	-45.0	-56.7	3.8	8.45e-01	0	59	104	2771386368	60	14772
2026-01-20 14:03:06.22	325.99	4.61	-45.0	-56.7	3.8	8.46e-01	0	59	104	2771386368	60	14862
2026-01-20 14:03:07.23	326.10	4.56	-45.0	-56.7	3.8	8.46e-01	0	59	104	2771386368	60	14743
2026-01-20 14:03:08.24	326.20	4.51	-45.0	-56.7	3.8	8.46e-01	0	59	104	2771386368	60	14844
2026-01-20 14:03:09.26	326.30	4.46	-45.0	-56.7	3.8	8.45e-01	0	59	104	2771386368	60	14814
2026-01-20 14:03:10.27	326.41	4.41	-44.8	-56.7	3.8	8.46e-01	0	59	104	2771386368	60	14748
2026-01-20 14:03:11.28	326.51	4.36	-45.0	-56.7	3.8	8.45e-01	0	59	104	2771386368	60	14731
2026-01-20 14:03:12.29	326.61	4.30	-45.0	-56.7	3.8	8.46e-01	0	59	104	2771386368	60	14735
2026-01-20 14:03:13.30	326.71	4.25	-45.0	-56.7	3.8	8.46e-01	0	59	104	2771386368	60	14722
2026-01-20 14:03:14.31	326.81	4.20	-45.0	-56.7	3.8	8.46e-01	0	59	104	2771386368	60	14722
2026-01-20 14:03:15.32	326.91	4.15	-44.9	-56.7	3.8	8.46e-01	0	59	104	2771386368	60	14745
2026-01-20 14:03:16.33	327.01	4.10	-44.9	-56.7	3.8	8.46e-01	0	59	104	2771386368	60	14727
2026-01-20 14:03:17.34	327.12	4.05	-45.0	-56.7	3.8	8.46e-01	0	59	104	2771386368	60	14746
2026-01-20 14:03:18.35	327.21	4.00	-45.0	-56.7	3.8	8.46e-01	0	59	104	2771386368	60	14742
2026-01-20 14:03:19.36	327.31	3.95	-45.0	-56.6	3.8	8.47e-01	0	59	104	2771386368	60	14703
2026-01-20 14:03:20.37	327.41	3.90	-44.4	-56.7	3.8	8.46e-01	0	59	104	2771386368	60	14734
2026-01-20 14:03:21.38	327.51	3.85	-45.0	-56.7	3.8	8.46e-01	0	59	104	2771386368	60	14739
2026-01-20 14:03:22.39	327.61	3.79	-45.0	-56.7	3.8	8.45e-01	0	59	104	2771386368	60	14776
2026-01-20 14:03:23.40	327.71	3.74	-45.0	-56.7	3.8	8.45e-01	0	59	104	2771386368	60	14735
2026-01-20 14:03:24.41	327.81	3.69	-44.9	-56.6	3.8	8.46e-01	0	59	104	2771386368	60	14700
2026-01-20 14:03:25.42	327.90	3.64	-45.0	-56.7	3.8	8.46e-01	0	59	104	2771386368	60	14729
2026-01-20 14:03:26.43	328.00	3.59	-45.0	-56.7	3.8	8.47e-01	0	59	104	2771386368	60	14722
2026-01-20 14:03:27.44	328.10	3.54	-45.0	-56.7	3.8	8.46e-01	0	59	104	2771386368	60	14728
2026-01-20 14:03:28.45	328.20	3.49	-45.0	-56.6	3.8	8.46e-01	0	59	104	2771386368	60	14699
2026-01-20 14:03:29.46	328.29	3.44	-44.9	-56.6	3.8	8.45e-01	0	59	104	2771386368	60	14707
2026-01-20 14:03:30.47	328.39	3.39	-45.0	-56.6	3.8	8.46e-01	0	59	104	2771386368	60	14681
2026-01-20 14:03:31.48	328.48	3.34	-45.0	-56.7	3.8	8.46e-01	0	59	104	2771386368	60	14715
2026-01-20 14:03:32.49	328.58	3.29	-44.7	-56.7	3.8	8.47e-01	0	59	104	2771386368	60	14745
2026-01-20 14:03:33.50	328.67	3.24	-44.9	-56.6	3.8	8.47e-01	0	59	104	2771386368	60	14626
2026-01-20 14:03:34.51	328.77	3.19	-44.8	-56.8	3.8	8.46e-01	0	59	104	2771386368	60	14982
2026-01-20 14:03:35.52	328.86	3.14	-44.9	-56.6	3.8	8.47e-01	0	59	104	2771386368	60	14693
2026-01-20 14:03:36.53	328.96	3.09	-44.9	-56.7	3.8	8.46e-01	0	59	104	2771386368	60	14739
2026-01-20 14:03:37.54	329.05	3.03	-44.4	-56.7	3.8	8.46e-01	0	59	104	2771386368	60	14711
2026-01-20 14:03:38.55	329.14	2.98	-44.7	-56.6	3.8	8.47e-01	0	59	104	2771386368	60	14680
2026-01-20 14:03:39.56	329.24	2.93	-44.9	-56.6	3.8	8.45e-01	0	59	104	2771386368	60	14690
2026-01-20 14:03:40.57	329.33	2.88	-45.0	-56.7	3.8	8.47e-01	0	59	104	2771386368	60	14734
2026-01-20 14:03:41.59	329.42	2.83	-44.9	-56.7	3.8	8.47e-01	0	59	104	2771386368	60	14723
2026-01-20 14:03:42.60	329.52	2.78	-44.7	-56.7	3.8	8.45e-01	0	59	104	2771386368	60	14764
2026-01-20 14:03:43.61	329.61	2.73	-44.9	-56.7	3.8	8.46e-01	0	59	104	2771386368	60	14776
