passes_logs/2026/01/20/R2.0S_Moscow/R2.0S_Moscow__20260120_115218_AQUA_rec.log

#Pass ID: 20260120_115218_AQUA
#Satellite: AQUA
#Configuration: AQUA
#almurnet v.1.7.20251203
#Start time: 2026-01-20 11:52:19

#Version: 2.2.20231116
#Station: R2.0S_Moscow
#Location: 37.707566 lon 55.798166 lat
#TLE: 1 27424U 02022A   26019.60905539  .00000968  00000+0  20374-3 0  9991
#TLE: 2 27424  98.4090 346.1140 0001992  72.7126 342.3847 14.61830366261565

#Time	Az	El	Level	Level2	SNR	BER	BlckErr	Temp	State	Recorded	gain1	gain2
2026-01-20 11:52:19.65	167.35	2.11	-44.6	-63.3	3.8	7.42e-01	0	51	0	0	60	31776
2026-01-20 11:52:20.65	167.36	2.18	-44.6	-63.3	3.8	7.47e-01	0	51	104	0	60	31662
2026-01-20 11:52:21.66	167.37	2.24	-44.7	-63.4	3.8	7.45e-01	0	51	104	0	60	31832
2026-01-20 11:52:22.67	167.39	2.31	-44.6	-63.4	3.8	7.43e-01	0	51	104	0	60	31845
2026-01-20 11:52:23.68	167.40	2.38	-44.6	-63.3	3.8	7.44e-01	0	51	104	0	60	31666
2026-01-20 11:52:24.69	167.41	2.45	-44.6	-63.3	3.8	7.46e-01	0	51	104	0	60	31669
2026-01-20 11:52:25.70	167.43	2.52	-44.6	-63.3	3.8	7.46e-01	0	51	104	0	60	31774
2026-01-20 11:52:26.71	167.44	2.58	-44.6	-63.3	3.8	7.45e-01	0	51	104	0	60	31614
2026-01-20 11:52:27.72	167.45	2.65	-44.6	-63.3	3.8	7.45e-01	0	51	104	0	60	31729
2026-01-20 11:52:28.73	167.47	2.72	-44.6	-63.3	3.8	7.45e-01	0	51	104	0	60	31671
2026-01-20 11:52:29.74	167.48	2.79	-44.6	-63.3	3.8	7.43e-01	0	51	104	0	60	31526
2026-01-20 11:52:30.75	167.49	2.86	-44.6	-63.3	3.8	7.43e-01	0	51	104	0	60	31577
2026-01-20 11:52:31.76	167.51	2.93	-44.6	-63.3	3.8	7.44e-01	0	52	104	0	60	31783
2026-01-20 11:52:32.77	167.52	3.00	-44.6	-63.3	3.8	7.46e-01	0	52	104	0	60	31625
2026-01-20 11:52:33.78	167.53	3.07	-44.6	-63.3	3.8	7.43e-01	0	52	104	0	60	31612
2026-01-20 11:52:34.79	167.55	3.14	-44.6	-63.3	3.8	7.44e-01	0	52	104	0	60	31795
2026-01-20 11:52:35.80	167.56	3.21	-44.6	-63.3	3.8	7.45e-01	0	52	104	0	60	31795
2026-01-20 11:52:36.82	167.58	3.28	-44.6	-63.3	3.8	7.45e-01	0	52	104	0	60	31624
2026-01-20 11:52:37.83	167.59	3.35	-44.6	-63.3	3.8	7.48e-01	0	52	104	0	60	31768
2026-01-20 11:52:38.83	167.60	3.42	-44.6	-63.3	3.8	7.47e-01	0	52	104	0	60	31709
2026-01-20 11:52:39.85	167.62	3.50	-44.6	-63.3	3.8	7.42e-01	0	52	104	0	60	31756
2026-01-20 11:52:40.85	167.63	3.57	-44.6	-63.3	3.8	7.44e-01	0	52	104	0	60	31670
2026-01-20 11:52:41.86	167.65	3.64	-44.6	-63.3	3.8	7.42e-01	0	52	104	0	60	31493
2026-01-20 11:52:42.87	167.66	3.71	-44.6	-63.3	3.8	7.45e-01	0	52	104	0	60	31647
2026-01-20 11:52:43.89	167.68	3.78	-44.5	-63.2	3.8	7.41e-01	0	52	104	0	60	31420
2026-01-20 11:52:44.89	167.69	3.85	-44.6	-63.3	3.8	7.44e-01	0	52	104	0	60	31643
2026-01-20 11:52:45.90	167.70	3.93	-44.6	-63.3	3.8	7.48e-01	0	52	104	0	60	31780
2026-01-20 11:52:46.92	167.72	4.00	-44.6	-63.3	3.8	7.44e-01	0	53	104	0	60	31756
2026-01-20 11:52:47.93	167.73	4.07	-44.6	-63.3	3.8	7.46e-01	0	53	104	0	60	31591
2026-01-20 11:52:48.94	167.75	4.15	-44.6	-63.2	3.8	7.43e-01	0	53	104	0	60	31136
2026-01-20 11:52:49.95	167.76	4.22	-44.6	-63.0	3.8	7.44e-01	0	53	104	0	60	30628
2026-01-20 11:52:50.96	167.78	4.29	-44.6	-63.0	3.8	7.45e-01	0	53	104	0	60	30714
2026-01-20 11:52:51.97	167.79	4.37	-44.6	-63.2	3.8	7.43e-01	0	53	104	0	60	31285
2026-01-20 11:52:52.98	167.81	4.44	-44.6	-63.3	3.8	7.49e-01	0	53	104	0	60	31733
2026-01-20 11:52:53.99	167.82	4.51	-44.6	-63.2	3.8	7.44e-01	0	53	104	0	60	31426
2026-01-20 11:52:55.00	167.84	4.59	-44.6	-63.0	3.8	7.48e-01	0	53	104	0	60	30447
2026-01-20 11:52:56.01	167.85	4.66	-44.6	-62.8	3.8	7.47e-01	0	53	104	0	60	29854
2026-01-20 11:52:57.02	167.87	4.74	-44.6	-62.7	3.8	7.48e-01	0	53	104	0	60	29445
2026-01-20 11:52:58.03	167.88	4.81	-44.6	-62.5	3.8	7.44e-01	0	53	104	0	60	28784
2026-01-20 11:52:59.04	167.90	4.89	-44.6	-62.1	3.8	7.42e-01	0	53	104	0	60	27619
2026-01-20 11:53:00.05	167.92	4.96	-44.6	-61.5	3.8	7.42e-01	0	53	104	0	60	25795
2026-01-20 11:53:01.06	167.93	5.04	-44.6	-60.6	4.0	7.37e-01	0	53	104	0	60	23263
2026-01-20 11:53:02.07	167.95	5.12	-44.4	-59.8	3.9	7.40e-01	0	53	104	0	60	21164
2026-01-20 11:53:03.08	167.96	5.19	-44.5	-59.1	4.4	7.29e-01	0	53	104	0	60	19513
2026-01-20 11:53:04.09	167.98	5.27	-44.5	-58.8	4.0	7.39e-01	0	53	104	0	60	18797
2026-01-20 11:53:05.10	167.99	5.35	-44.4	-56.8	5.6	6.98e-01	22	54	0	0	60	14897
2026-01-20 11:53:06.12	168.01	5.42	-44.2	-55.2	6.6	6.69e-01	90	54	0	1572864	60	12510
2026-01-20 11:53:07.13	168.03	5.50	-44.2	-54.8	7.2	6.59e-01	92	54	0	3145728	60	11953
2026-01-20 11:53:08.14	168.04	5.58	-44.3	-55.5	6.6	6.71e-01	92	54	0	5242880	60	12887
2026-01-20 11:53:09.15	168.06	5.66	-44.3	-55.5	6.6	6.70e-01	92	54	0	7340032	60	12871
2026-01-20 11:53:10.16	168.07	5.73	-44.3	-55.3	6.8	6.66e-01	90	54	0	8912896	60	12588
2026-01-20 11:53:11.17	168.09	5.81	-44.3	-55.5	6.5	6.71e-01	92	54	0	11010048	60	12854
2026-01-20 11:53:12.18	168.11	5.89	-44.3	-55.3	6.8	6.66e-01	90	54	0	12582912	60	12529
2026-01-20 11:53:13.19	168.12	5.97	-44.2	-54.5	7.6	6.55e-01	92	54	0	14680064	60	11422
2026-01-20 11:53:14.20	168.14	6.05	-44.2	-54.8	7.3	6.61e-01	90	54	0	16777216	60	11877
2026-01-20 11:53:15.21	168.16	6.13	-44.2	-55.1	6.9	6.66e-01	92	54	0	18350080	60	12308
2026-01-20 11:53:16.22	168.17	6.21	-44.2	-54.5	7.5	6.56e-01	90	54	0	20447232	60	11516
2026-01-20 11:53:17.23	168.19	6.29	-44.2	-55.0	7.1	6.64e-01	92	54	0	22020096	60	12217
2026-01-20 11:53:18.24	168.21	6.37	-44.3	-55.6	6.5	6.72e-01	92	54	0	24117248	60	13024
2026-01-20 11:53:19.25	168.22	6.45	-44.2	-55.1	7.0	6.64e-01	90	54	0	26214400	60	12306
2026-01-20 11:53:20.26	168.24	6.53	-44.3	-55.6	6.4	6.73e-01	92	54	0	27787264	60	13090
2026-01-20 11:53:21.27	168.26	6.61	-44.3	-55.8	6.4	6.74e-01	92	54	0	29884416	60	13330
2026-01-20 11:53:22.28	168.28	6.69	-44.3	-55.6	6.5	6.72e-01	92	54	0	31457280	60	13021
2026-01-20 11:53:23.29	168.29	6.77	-44.3	-55.8	6.3	6.76e-01	92	54	0	33554432	60	13314
2026-01-20 11:53:24.30	168.31	6.86	-44.3	-55.5	6.6	6.69e-01	92	54	0	35127296	60	12834
2026-01-20 11:53:25.31	168.33	6.94	-44.2	-54.9	7.2	6.61e-01	91	54	0	37224448	60	12006
2026-01-20 11:53:26.32	168.35	7.02	-44.2	-54.5	7.4	6.54e-01	92	54	0	39321600	60	11531
2026-01-20 11:53:27.34	168.36	7.10	-44.3	-54.0	8.4	6.41e-01	15	54	0	40894464	59	11479
2026-01-20 11:53:28.35	168.38	7.19	-44.2	-53.0	9.4	6.32e-01	0	55	0	42991616	59	10197
2026-01-20 11:53:29.36	168.40	7.27	-43.9	-51.8	10.7	6.18e-01	0	55	0	44564480	59	8887
2026-01-20 11:53:30.37	168.42	7.35	-43.8	-51.2	11.3	6.15e-01	0	55	0	46661632	59	8356
2026-01-20 11:53:31.38	168.43	7.44	-43.5	-50.0	12.5	6.11e-01	0	55	0	48758784	58	7717
2026-01-20 11:53:32.39	168.45	7.52	-43.3	-49.4	13.2	6.08e-01	0	54	0	50331648	58	7151
2026-01-20 11:53:33.40	168.47	7.61	-43.1	-48.7	13.9	6.08e-01	0	55	0	52428800	58	6639
2026-01-20 11:53:34.41	168.49	7.69	-42.9	-48.3	14.3	6.07e-01	0	55	0	54525952	57	6678
2026-01-20 11:53:35.41	168.51	7.78	-42.8	-47.8	14.9	6.08e-01	0	55	0	56098816	57	6298
2026-01-20 11:53:36.42	168.53	7.86	-42.7	-47.7	15.0	6.08e-01	0	55	0	58195968	57	6232
2026-01-20 11:53:37.43	168.55	7.95	-42.7	-47.6	15.1	6.06e-01	0	55	0	59768832	57	6152
2026-01-20 11:53:38.45	168.56	8.04	-42.6	-47.5	15.1	6.08e-01	0	55	0	61865984	57	6103
2026-01-20 11:53:39.46	168.58	8.12	-42.6	-47.4	15.3	6.05e-01	0	55	0	63963136	57	6006
2026-01-20 11:53:40.46	168.60	8.21	-43.7	-50.0	13.0	6.11e-01	0	55	0	65536000	57	8163
2026-01-20 11:53:41.48	168.62	8.30	-42.7	-47.5	15.1	6.07e-01	0	55	0	67633152	57	6088
2026-01-20 11:53:42.49	168.64	8.38	-44.4	-56.4	4.3	7.28e-01	0	55	104	68157440	59	15071
2026-01-20 11:53:43.50	168.66	8.47	-42.8	-47.6	14.6	6.07e-01	0	55	0	69206016	57	6174
2026-01-20 11:53:44.51	168.68	8.56	-42.9	-47.8	14.9	6.06e-01	0	55	0	71303168	57	6331
2026-01-20 11:53:45.52	168.70	8.65	-42.6	-47.1	15.8	6.07e-01	0	55	0	72876032	57	5825
2026-01-20 11:53:46.53	168.72	8.74	-42.6	-47.0	15.9	6.10e-01	0	55	0	74973184	57	5762
2026-01-20 11:53:47.54	168.74	8.83	-42.5	-46.9	16.0	6.08e-01	0	55	0	76546048	57	5690
2026-01-20 11:53:48.55	168.76	8.92	-42.5	-47.0	15.9	6.06e-01	0	55	0	78643200	57	5736
2026-01-20 11:53:49.56	168.78	9.01	-42.4	-46.7	16.3	6.09e-01	0	55	0	80740352	56	5870
2026-01-20 11:53:50.57	168.80	9.10	-42.4	-46.6	16.3	6.05e-01	0	55	0	82313216	56	5845
2026-01-20 11:53:51.58	168.82	9.19	-42.3	-46.6	16.2	6.06e-01	0	55	0	84410368	56	5827
2026-01-20 11:53:52.59	168.84	9.28	-42.3	-46.6	16.3	6.08e-01	0	56	0	85983232	56	5809
2026-01-20 11:53:53.59	168.86	9.37	-42.4	-46.5	16.5	6.04e-01	0	55	0	88080384	56	5751
2026-01-20 11:53:54.60	168.88	9.46	-42.3	-46.4	16.6	6.06e-01	0	55	0	90177536	56	5707
2026-01-20 11:53:55.61	168.90	9.55	-42.3	-46.4	16.6	6.04e-01	0	55	0	91750400	56	5667
2026-01-20 11:53:56.62	168.92	9.65	-42.4	-46.5	16.5	6.04e-01	0	55	0	93847552	56	5734
2026-01-20 11:53:57.63	168.94	9.74	-42.3	-46.3	16.7	6.07e-01	0	56	0	95420416	56	5653
2026-01-20 11:53:58.64	168.96	9.83	-42.3	-46.3	16.7	6.08e-01	0	56	0	97517568	56	5638
2026-01-20 11:53:59.65	168.98	9.93	-42.2	-46.1	17.0	6.06e-01	0	55	0	99614720	56	5491
2026-01-20 11:54:00.66	169.00	10.02	-42.2	-46.1	16.9	6.05e-01	0	56	0	101187584	56	5500
2026-01-20 11:54:01.67	169.03	10.12	-42.1	-45.9	17.1	6.08e-01	0	56	0	103284736	56	5397
2026-01-20 11:54:02.67	169.05	10.21	-42.1	-45.9	17.2	6.04e-01	0	56	0	104857600	56	5373
2026-01-20 11:54:03.68	169.07	10.30	-42.1	-46.0	17.1	6.07e-01	0	56	0	106954752	56	5405
2026-01-20 11:54:04.69	169.09	10.40	-42.2	-46.0	17.1	6.06e-01	0	56	0	109051904	56	5445
2026-01-20 11:54:05.71	169.11	10.50	-42.1	-45.9	17.2	6.06e-01	0	56	0	110624768	56	5353
2026-01-20 11:54:06.72	169.14	10.59	-42.1	-45.9	17.2	6.06e-01	0	56	0	112721920	56	5388
2026-01-20 11:54:07.72	169.16	10.69	-42.2	-45.9	17.2	6.06e-01	0	56	0	114819072	56	5396
2026-01-20 11:54:08.73	169.18	10.79	-42.1	-45.9	17.2	6.05e-01	0	56	0	116391936	56	5366
2026-01-20 11:54:09.74	169.20	10.89	-42.1	-45.9	17.3	6.08e-01	0	56	0	118489088	56	5355
2026-01-20 11:54:10.75	169.22	10.98	-42.1	-45.7	17.4	6.07e-01	0	56	0	120061952	56	5271
2026-01-20 11:54:11.76	169.25	11.08	-42.1	-45.8	17.4	6.05e-01	0	56	0	122159104	56	5287
2026-01-20 11:54:12.77	169.27	11.18	-42.1	-45.7	17.4	6.06e-01	0	56	0	124256256	56	5263
2026-01-20 11:54:13.78	169.29	11.28	-42.1	-45.7	17.4	6.04e-01	0	56	0	125829120	56	5279
2026-01-20 11:54:14.79	169.32	11.38	-42.0	-45.7	17.5	6.06e-01	0	56	0	127926272	56	5224
2026-01-20 11:54:15.80	169.34	11.48	-42.1	-45.7	17.4	6.04e-01	0	56	0	129499136	56	5277
2026-01-20 11:54:16.81	169.36	11.58	-42.1	-45.7	17.5	6.09e-01	0	56	0	131596288	56	5262
2026-01-20 11:54:17.81	169.39	11.68	-42.1	-45.7	17.5	6.08e-01	0	56	0	133693440	56	5267
2026-01-20 11:54:18.83	169.41	11.79	-42.1	-45.8	17.4	6.06e-01	0	56	0	135266304	56	5300
2026-01-20 11:54:19.83	169.43	11.89	-42.2	-45.9	17.4	6.04e-01	0	56	0	137363456	56	5354
2026-01-20 11:54:20.84	169.46	11.99	-42.1	-45.7	17.5	6.05e-01	0	56	0	138936320	56	5272
2026-01-20 11:54:21.85	169.48	12.10	-42.1	-45.7	17.6	6.04e-01	0	56	0	141033472	56	5252
2026-01-20 11:54:22.86	169.51	12.20	-42.1	-45.8	17.5	6.06e-01	0	56	0	143130624	56	5316
2026-01-20 11:54:23.87	169.53	12.30	-42.2	-45.9	17.3	6.08e-01	0	56	0	144703488	56	5375
2026-01-20 11:54:24.88	169.56	12.41	-42.1	-45.7	17.6	6.06e-01	0	56	0	146800640	56	5263
2026-01-20 11:54:25.89	169.58	12.51	-42.1	-45.7	17.5	6.06e-01	0	56	0	148373504	56	5264
2026-01-20 11:54:26.90	169.61	12.62	-42.2	-45.8	17.5	6.07e-01	0	56	0	150470656	56	5303
2026-01-20 11:54:27.91	169.63	12.73	-42.1	-45.8	17.5	6.09e-01	0	56	0	152567808	56	5292
2026-01-20 11:54:28.92	169.66	12.83	-42.1	-45.7	17.6	6.05e-01	0	56	0	154140672	56	5222
2026-01-20 11:54:29.93	169.68	12.94	-42.1	-45.6	17.7	6.06e-01	0	56	0	156237824	56	5186
2026-01-20 11:54:30.94	169.71	13.05	-42.1	-45.7	17.1	6.06e-01	0	56	0	157810688	56	5231
2026-01-20 11:54:31.95	169.74	13.16	-42.0	-45.5	17.8	6.07e-01	0	56	0	159907840	56	5131
2026-01-20 11:54:32.96	169.76	13.27	-42.0	-45.5	17.8	6.06e-01	0	56	0	162004992	56	5135
2026-01-20 11:54:33.97	169.79	13.38	-41.9	-45.4	17.8	6.05e-01	0	56	0	163577856	55	5349
2026-01-20 11:54:34.97	169.81	13.49	-41.9	-45.4	17.9	6.06e-01	0	57	0	165675008	55	5345
2026-01-20 11:54:35.99	169.84	13.60	-41.8	-45.2	18.0	6.06e-01	0	56	0	167772160	55	5257
2026-01-20 11:54:37.00	169.87	13.71	-41.9	-45.3	17.9	6.05e-01	0	56	0	169345024	55	5303
2026-01-20 11:54:38.00	169.89	13.82	-41.8	-45.2	18.1	6.07e-01	0	56	0	171442176	55	5237
2026-01-20 11:54:39.01	169.92	13.93	-41.8	-45.2	18.0	6.04e-01	0	57	0	173015040	55	5273
2026-01-20 11:54:40.02	169.95	14.04	-41.8	-45.2	18.1	6.05e-01	0	57	0	175112192	55	5259
2026-01-20 11:54:41.03	169.98	14.16	-41.8	-45.1	18.2	6.07e-01	0	57	0	177209344	55	5175
2026-01-20 11:54:42.04	170.01	14.27	-41.7	-45.1	18.2	6.07e-01	0	56	0	178782208	55	5168
2026-01-20 11:54:43.05	170.03	14.39	-41.8	-45.1	18.1	6.04e-01	0	56	0	180879360	55	5211
2026-01-20 11:54:44.06	170.06	14.50	-41.8	-45.2	18.1	6.06e-01	0	56	0	182976512	55	5242
2026-01-20 11:54:45.07	170.09	14.62	-41.8	-45.2	18.1	6.06e-01	0	57	0	184549376	55	5266
2026-01-20 11:54:46.08	170.12	14.73	-41.8	-45.2	18.1	6.07e-01	0	57	0	186646528	55	5233
2026-01-20 11:54:47.09	170.15	14.85	-41.9	-45.3	18.1	6.07e-01	0	57	0	188219392	55	5289
2026-01-20 11:54:48.10	170.18	14.97	-41.9	-45.3	18.0	6.07e-01	0	57	0	190316544	55	5333
2026-01-20 11:54:49.11	170.21	15.09	-41.9	-45.3	18.0	6.08e-01	0	57	0	192413696	55	5340
2026-01-20 11:54:50.12	170.24	15.21	-41.9	-45.3	18.1	6.07e-01	0	57	0	193986560	55	5290
2026-01-20 11:54:51.13	170.27	15.33	-41.9	-45.3	18.0	6.07e-01	0	57	0	196083712	55	5330
2026-01-20 11:54:52.14	170.30	15.45	-41.9	-45.3	18.0	6.05e-01	0	57	0	197656576	55	5305
2026-01-20 11:54:53.15	170.33	15.57	-41.9	-45.3	18.0	6.06e-01	0	56	0	199753728	55	5323
2026-01-20 11:54:54.16	170.36	15.69	-41.9	-45.3	18.0	6.05e-01	0	57	0	201850880	55	5338
2026-01-20 11:54:55.17	170.39	15.81	-41.9	-45.3	18.1	6.06e-01	0	57	0	203423744	55	5307
2026-01-20 11:54:56.17	170.42	15.93	-41.9	-45.2	18.1	6.06e-01	0	57	0	205520896	55	5277
2026-01-20 11:54:57.18	170.45	16.06	-41.9	-45.3	18.1	6.06e-01	0	57	0	207093760	55	5289
2026-01-20 11:54:58.19	170.48	16.18	-41.8	-45.1	18.3	6.06e-01	0	57	0	209190912	55	5189
2026-01-20 11:54:59.20	170.51	16.31	-41.7	-45.0	18.4	6.05e-01	0	57	0	211288064	55	5118
2026-01-20 11:55:00.21	170.55	16.43	-41.8	-45.0	18.4	6.07e-01	0	57	0	212860928	55	5151
2026-01-20 11:55:01.22	170.58	16.56	-41.8	-45.1	18.3	6.06e-01	0	57	0	214958080	55	5196
2026-01-20 11:55:02.23	170.61	16.69	-41.7	-44.9	18.6	6.07e-01	0	57	0	216530944	55	5051
2026-01-20 11:55:03.24	170.64	16.81	-41.7	-44.8	18.6	6.06e-01	0	57	0	218628096	55	5023
2026-01-20 11:55:04.25	170.68	16.94	-41.7	-44.9	18.5	6.06e-01	0	57	0	220725248	55	5091
2026-01-20 11:55:05.25	170.71	17.07	-41.7	-44.9	18.5	6.04e-01	0	57	0	222298112	55	5091
2026-01-20 11:55:06.26	170.74	17.20	-41.8	-45.0	18.4	6.04e-01	0	57	0	224395264	55	5130
2026-01-20 11:55:07.27	170.78	17.33	-41.7	-45.0	18.5	6.05e-01	0	57	0	225968128	55	5102
2026-01-20 11:55:08.28	170.81	17.46	-41.8	-45.0	18.4	6.05e-01	0	57	0	228065280	55	5147
2026-01-20 11:55:09.29	170.85	17.60	-41.8	-45.0	18.4	6.06e-01	0	57	0	230162432	55	5156
2026-01-20 11:55:10.30	170.88	17.73	-41.9	-45.2	18.3	6.09e-01	0	57	0	231735296	55	5220
2026-01-20 11:55:11.31	170.92	17.86	-41.9	-45.2	18.3	6.06e-01	0	57	0	233832448	55	5226
2026-01-20 11:55:12.32	170.95	18.00	-41.9	-45.1	18.3	6.04e-01	0	57	0	235929600	55	5208
2026-01-20 11:55:13.33	170.99	18.13	-41.9	-45.2	18.3	6.09e-01	0	57	0	237502464	55	5226
2026-01-20 11:55:14.34	171.02	18.27	-41.8	-45.0	18.5	6.06e-01	0	57	0	239599616	55	5138
2026-01-20 11:55:15.35	171.06	18.41	-41.8	-45.1	18.4	6.08e-01	0	57	0	241172480	55	5178
2026-01-20 11:55:16.36	171.10	18.55	-41.8	-45.0	18.5	6.08e-01	0	57	0	243269632	55	5103
2026-01-20 11:55:17.37	171.13	18.69	-41.8	-45.0	18.4	6.07e-01	0	57	0	245366784	55	5157
2026-01-20 11:55:18.38	171.17	18.83	-41.8	-45.0	18.5	6.05e-01	0	57	0	246939648	55	5118
2026-01-20 11:55:19.39	171.21	18.97	-41.8	-45.1	18.4	6.07e-01	0	57	0	249036800	55	5171
2026-01-20 11:55:20.40	171.25	19.11	-41.8	-45.1	18.5	6.06e-01	0	57	0	251133952	55	5162
2026-01-20 11:55:21.41	171.28	19.25	-41.8	-45.0	18.5	6.07e-01	0	57	0	252706816	55	5157
2026-01-20 11:55:22.42	171.32	19.39	-41.8	-45.0	18.5	6.07e-01	0	57	0	254803968	55	5107
2026-01-20 11:55:23.43	171.36	19.54	-41.8	-44.9	18.6	6.06e-01	0	57	0	256376832	55	5086
2026-01-20 11:55:24.43	171.40	19.68	-41.8	-45.0	18.6	6.06e-01	0	57	0	258473984	55	5109
2026-01-20 11:55:25.44	171.44	19.83	-41.8	-44.9	18.6	6.07e-01	0	57	0	260046848	55	5078
2026-01-20 11:55:26.45	171.48	19.97	-41.7	-44.9	18.6	6.03e-01	0	57	0	262144000	55	5061
2026-01-20 11:55:27.46	171.52	20.12	-41.8	-44.9	18.6	6.06e-01	0	57	0	264241152	55	5087
2026-01-20 11:55:28.48	171.56	20.27	-41.8	-45.0	18.6	6.06e-01	0	57	0	265814016	55	5104
2026-01-20 11:55:29.49	171.60	20.42	-41.9	-45.1	18.5	6.07e-01	0	57	0	267911168	55	5196
2026-01-20 11:55:30.50	171.65	20.57	-41.9	-45.2	18.4	6.07e-01	0	57	0	269484032	55	5230
2026-01-20 11:55:31.50	171.69	20.72	-42.0	-45.2	18.3	6.07e-01	0	57	0	271581184	55	5265
2026-01-20 11:55:32.51	171.73	20.88	-42.0	-45.3	18.3	6.06e-01	0	57	0	273678336	55	5313
2026-01-20 11:55:33.52	171.77	21.03	-42.1	-45.5	18.1	6.05e-01	0	57	0	275251200	55	5414
2026-01-20 11:55:34.53	171.82	21.19	-42.2	-45.6	18.0	6.05e-01	0	57	0	277348352	55	5507
2026-01-20 11:55:35.54	171.86	21.34	-42.2	-45.7	17.9	6.08e-01	0	57	0	279445504	55	5536
2026-01-20 11:55:36.55	171.90	21.50	-42.2	-45.7	17.9	6.08e-01	0	57	0	281018368	55	5547
2026-01-20 11:55:37.56	171.95	21.66	-42.2	-45.6	17.9	6.03e-01	0	57	0	283115520	55	5518
2026-01-20 11:55:38.57	171.99	21.82	-42.2	-45.7	17.9	6.06e-01	0	57	0	284688384	55	5539
2026-01-20 11:55:39.58	172.04	21.98	-42.1	-45.5	18.0	6.06e-01	0	57	0	286785536	55	5450
2026-01-20 11:55:40.59	172.09	22.14	-42.1	-45.4	18.1	6.07e-01	0	57	0	288882688	55	5389
2026-01-20 11:55:41.60	172.13	22.30	-42.0	-45.3	18.2	6.06e-01	0	57	0	290455552	55	5338
2026-01-20 11:55:42.61	172.18	22.46	-42.0	-45.3	18.3	6.06e-01	0	57	0	292552704	55	5294
2026-01-20 11:55:43.62	172.23	22.63	-42.0	-45.3	18.2	6.07e-01	0	57	0	294125568	55	5324
2026-01-20 11:55:44.63	172.27	22.79	-42.0	-45.3	18.2	6.07e-01	0	57	0	296222720	55	5330
2026-01-20 11:55:45.64	172.32	22.96	-42.1	-45.5	18.1	6.07e-01	0	57	0	298319872	55	5445
2026-01-20 11:55:46.65	172.37	23.13	-42.2	-45.6	18.0	6.04e-01	0	58	0	299892736	55	5474
2026-01-20 11:55:47.66	172.42	23.30	-42.2	-45.6	18.0	6.08e-01	0	57	0	301989888	55	5525
2026-01-20 11:55:48.67	172.47	23.47	-42.2	-45.7	17.9	6.04e-01	0	57	0	304087040	55	5558
2026-01-20 11:55:49.68	172.52	23.64	-42.2	-45.7	17.9	6.06e-01	0	57	0	305659904	55	5551
2026-01-20 11:55:50.69	172.57	23.81	-42.2	-45.5	18.1	6.05e-01	0	57	0	307757056	55	5458
2026-01-20 11:55:51.70	172.62	23.99	-42.1	-45.5	18.1	6.06e-01	0	58	0	309329920	55	5428
2026-01-20 11:55:52.71	172.68	24.16	-42.2	-45.6	18.1	6.05e-01	0	57	0	311427072	55	5489
2026-01-20 11:55:53.71	172.73	24.34	-42.2	-45.7	18.0	6.06e-01	0	58	0	313524224	55	5535
2026-01-20 11:55:54.73	172.78	24.52	-42.2	-45.7	17.8	6.06e-01	0	57	0	315097088	55	5548
2026-01-20 11:55:55.74	172.84	24.70	-42.3	-45.7	17.9	6.05e-01	0	57	0	317194240	55	5582
2026-01-20 11:55:56.75	172.89	24.88	-42.4	-45.8	17.8	6.08e-01	0	58	0	318767104	55	5653
2026-01-20 11:55:57.75	172.95	25.06	-42.4	-46.0	17.7	6.06e-01	0	57	0	320864256	55	5726
2026-01-20 11:55:58.76	173.00	25.24	-42.3	-45.8	17.8	6.04e-01	0	58	0	322961408	55	5645
2026-01-20 11:55:59.77	173.06	25.42	-42.3	-45.8	17.7	6.05e-01	0	58	0	324534272	55	5617
2026-01-20 11:56:00.78	173.11	25.61	-42.3	-45.7	17.9	6.08e-01	0	58	0	326631424	55	5588
2026-01-20 11:56:01.79	173.17	25.80	-42.3	-45.7	18.0	6.06e-01	0	58	0	328204288	55	5565
2026-01-20 11:56:02.80	173.23	25.99	-42.3	-45.8	17.9	6.07e-01	0	58	0	330301440	55	5607
2026-01-20 11:56:03.81	173.29	26.18	-42.2	-45.6	18.1	6.05e-01	0	58	0	332398592	55	5502
2026-01-20 11:56:04.82	173.35	26.37	-42.2	-45.6	18.1	6.05e-01	0	58	0	333971456	55	5511
2026-01-20 11:56:05.83	173.41	26.56	-42.3	-45.6	18.1	6.04e-01	0	58	0	336068608	55	5527
2026-01-20 11:56:06.84	173.47	26.76	-42.0	-45.3	18.4	6.03e-01	0	58	0	337641472	55	5293
2026-01-20 11:56:07.85	173.53	26.95	-41.9	-45.0	18.7	6.06e-01	0	58	0	339738624	55	5146
2026-01-20 11:56:08.86	173.60	27.15	-41.9	-45.0	18.7	6.02e-01	0	58	0	341835776	55	5117
2026-01-20 11:56:09.87	173.66	27.35	-41.9	-45.0	18.7	6.08e-01	0	58	0	343408640	55	5122
2026-01-20 11:56:10.88	173.72	27.55	-41.9	-45.1	18.6	6.06e-01	0	58	0	345505792	55	5169
2026-01-20 11:56:11.89	173.79	27.75	-41.9	-45.1	18.6	6.07e-01	0	58	0	347602944	55	5179
2026-01-20 11:56:12.90	173.85	27.95	-42.0	-45.2	18.6	6.05e-01	0	58	0	349175808	55	5227
2026-01-20 11:56:13.91	173.92	28.16	-42.0	-45.2	18.5	6.06e-01	0	58	0	351272960	55	5271
2026-01-20 11:56:14.92	173.99	28.37	-41.9	-45.1	18.7	6.06e-01	0	58	0	352845824	55	5171
2026-01-20 11:56:15.93	174.06	28.58	-41.8	-44.9	18.8	6.09e-01	0	58	0	354942976	55	5077
2026-01-20 11:56:16.94	174.13	28.79	-41.8	-44.9	18.8	6.06e-01	0	58	0	357040128	55	5096
2026-01-20 11:56:17.94	174.20	29.00	-41.9	-45.0	18.7	6.07e-01	0	58	0	358612992	55	5153
2026-01-20 11:56:18.95	174.27	29.21	-41.9	-45.0	18.7	6.08e-01	0	58	0	360710144	55	5148
2026-01-20 11:56:19.96	174.34	29.42	-41.9	-45.0	18.7	6.04e-01	0	58	0	362283008	55	5141
2026-01-20 11:56:20.97	174.41	29.64	-41.8	-44.9	18.8	6.06e-01	0	58	0	364380160	55	5077
2026-01-20 11:56:21.98	174.49	29.86	-41.8	-44.8	18.9	6.06e-01	0	58	0	366477312	55	5022
2026-01-20 11:56:22.99	174.56	30.08	-41.7	-44.6	19.1	6.05e-01	0	58	0	368050176	55	4915
2026-01-20 11:56:24.00	174.64	30.30	-41.8	-44.8	19.0	6.05e-01	0	58	0	370147328	55	4999
2026-01-20 11:56:25.01	174.71	30.53	-41.8	-44.9	18.9	6.07e-01	0	58	0	372244480	55	5069
2026-01-20 11:56:26.02	174.79	30.75	-41.8	-44.9	18.8	6.05e-01	0	58	0	373817344	55	5083
2026-01-20 11:56:27.03	174.87	30.98	-41.8	-44.9	18.9	6.07e-01	0	58	0	375914496	55	5088
2026-01-20 11:56:28.04	174.95	31.21	-41.8	-44.9	18.8	6.05e-01	0	58	0	377487360	55	5074
2026-01-20 11:56:29.05	175.03	31.44	-41.9	-45.0	18.8	6.07e-01	0	58	0	379584512	55	5156
2026-01-20 11:56:30.06	175.12	31.67	-42.1	-45.3	18.5	6.05e-01	0	58	0	381681664	55	5304
2026-01-20 11:56:31.07	175.20	31.91	-42.2	-45.5	18.3	6.06e-01	0	58	0	383254528	55	5420
2026-01-20 11:56:32.07	175.28	32.14	-42.0	-45.3	18.4	6.08e-01	0	58	0	385351680	55	5293
2026-01-20 11:56:33.09	175.37	32.39	-41.9	-45.1	18.7	6.02e-01	0	58	0	386924544	55	5196
2026-01-20 11:56:34.09	175.46	32.62	-41.9	-45.1	18.7	6.06e-01	0	58	0	389021696	55	5212
2026-01-20 11:56:35.11	175.55	32.87	-42.1	-45.3	18.5	6.05e-01	0	58	0	391118848	55	5314
2026-01-20 11:56:36.12	175.64	33.12	-42.2	-45.5	18.3	6.05e-01	0	58	0	392691712	55	5428
2026-01-20 11:56:37.13	175.73	33.36	-42.4	-45.8	18.0	6.06e-01	0	58	0	394788864	55	5648
2026-01-20 11:56:38.14	175.82	33.61	-42.5	-46.0	17.8	6.06e-01	0	58	0	396361728	55	5728
2026-01-20 11:56:39.15	175.92	33.86	-42.4	-45.9	18.0	6.07e-01	0	58	0	398458880	55	5660
2026-01-20 11:56:40.16	176.01	34.12	-42.5	-46.0	17.9	6.07e-01	0	58	0	400556032	55	5743
2026-01-20 11:56:41.17	176.11	34.37	-42.6	-46.1	17.7	6.06e-01	0	58	0	402128896	55	5829
2026-01-20 11:56:42.18	176.21	34.63	-42.6	-46.1	17.7	6.07e-01	0	58	0	404226048	55	5831
2026-01-20 11:56:43.19	176.31	34.89	-42.6	-46.2	17.6	6.07e-01	0	58	0	405798912	55	5866
2026-01-20 11:56:44.19	176.41	35.15	-42.9	-46.5	17.4	6.06e-01	0	58	0	407896064	56	5784
2026-01-20 11:56:45.20	176.51	35.42	-43.0	-46.7	17.2	6.06e-01	0	58	0	409993216	56	5920
2026-01-20 11:56:46.21	176.62	35.68	-43.1	-47.0	16.9	6.05e-01	0	58	0	411566080	56	6090
2026-01-20 11:56:47.22	176.72	35.95	-43.0	-46.8	17.1	6.08e-01	0	58	0	413663232	56	5970
2026-01-20 11:56:48.23	176.83	36.22	-42.9	-46.6	17.3	6.06e-01	0	58	0	415760384	56	5819
2026-01-20 11:56:49.24	176.94	36.50	-42.9	-46.7	17.3	6.05e-01	0	58	0	417333248	56	5872
2026-01-20 11:56:50.25	177.06	36.77	-43.3	-47.4	16.5	6.05e-01	0	58	0	419430400	57	6050
2026-01-20 11:56:51.26	177.17	37.05	-43.4	-47.7	16.3	6.06e-01	0	58	0	421003264	57	6209
2026-01-20 11:56:52.27	177.29	37.33	-43.3	-47.5	16.4	6.06e-01	0	58	0	423100416	57	6086
2026-01-20 11:56:53.28	177.40	37.62	-43.3	-47.4	16.4	6.05e-01	0	58	0	425197568	57	6054
2026-01-20 11:56:54.29	177.52	37.90	-43.3	-47.5	16.5	6.07e-01	0	58	0	426770432	57	6078
2026-01-20 11:56:55.30	177.65	38.19	-43.5	-47.7	16.2	6.05e-01	0	58	0	428867584	57	6243
2026-01-20 11:56:56.31	177.77	38.48	-43.4	-47.7	16.3	6.10e-01	0	58	0	430440448	57	6203
2026-01-20 11:56:57.32	177.90	38.77	-43.6	-47.9	16.0	6.06e-01	0	58	0	432537600	57	6404
2026-01-20 11:56:58.33	178.03	39.07	-43.5	-47.8	16.1	6.06e-01	0	58	0	434634752	57	6343
2026-01-20 11:56:59.34	178.16	39.37	-43.5	-47.7	16.2	6.06e-01	0	58	0	436207616	57	6274
2026-01-20 11:57:00.35	178.29	39.67	-43.5	-47.7	16.3	6.05e-01	0	58	0	438304768	57	6205
2026-01-20 11:57:01.36	178.43	39.97	-43.4	-47.6	16.3	6.08e-01	0	58	0	440401920	57	6167
2026-01-20 11:57:02.36	178.57	40.27	-43.3	-47.4	16.6	6.08e-01	0	58	0	441974784	57	6006
2026-01-20 11:57:03.37	178.71	40.58	-43.1	-47.0	16.9	6.06e-01	0	58	0	444071936	57	5754
2026-01-20 11:57:04.38	178.85	40.89	-43.2	-47.1	16.9	6.06e-01	0	58	0	445644800	57	5819
2026-01-20 11:57:05.39	179.00	41.21	-43.1	-46.9	17.0	6.05e-01	0	58	0	447741952	57	5696
2026-01-20 11:57:06.40	179.15	41.52	-43.1	-46.9	17.0	6.06e-01	0	58	0	449839104	57	5704
2026-01-20 11:57:07.41	179.30	41.84	-43.1	-46.9	17.1	6.06e-01	0	58	0	451411968	57	5691
2026-01-20 11:57:08.42	179.46	42.16	-42.8	-46.4	17.6	6.06e-01	0	58	0	453509120	57	5364
2026-01-20 11:57:09.43	179.62	42.49	-42.4	-45.7	18.2	6.07e-01	0	58	0	455081984	56	5253
2026-01-20 11:57:10.44	179.78	42.82	-42.3	-45.4	18.5	6.09e-01	0	58	0	457179136	56	5095
2026-01-20 11:57:11.45	179.95	43.15	-42.3	-45.5	18.4	6.06e-01	0	58	0	459276288	56	5148
2026-01-20 11:57:12.46	180.11	43.48	-42.3	-45.5	18.4	6.06e-01	0	58	0	460849152	56	5145
2026-01-20 11:57:13.47	180.29	43.82	-42.2	-45.4	18.6	6.07e-01	0	58	0	462946304	56	5044
2026-01-20 11:57:14.48	180.46	44.15	-42.2	-45.3	18.6	6.03e-01	0	58	0	464519168	56	5017
2026-01-20 11:57:15.48	180.64	44.49	-42.2	-45.3	18.7	6.05e-01	0	58	0	466616320	56	4994
2026-01-20 11:57:16.50	180.83	44.84	-42.2	-45.3	18.7	6.06e-01	0	58	0	468713472	56	5010
2026-01-20 11:57:17.51	181.02	45.19	-42.2	-45.3	18.7	6.08e-01	0	58	0	470286336	56	5000
2026-01-20 11:57:18.52	181.21	45.54	-42.1	-45.2	18.8	6.08e-01	0	58	0	472383488	56	4935
2026-01-20 11:57:19.52	181.40	45.89	-42.1	-45.2	18.8	6.05e-01	0	58	0	473956352	56	4942
2026-01-20 11:57:20.54	181.60	46.25	-42.4	-45.7	18.3	6.07e-01	0	58	0	476053504	56	5224
2026-01-20 11:57:21.55	181.81	46.60	-42.1	-45.1	18.8	6.08e-01	0	58	0	478150656	56	4926
2026-01-20 11:57:22.56	182.02	46.97	-42.0	-45.1	19.0	6.05e-01	0	58	0	479723520	56	4872
2026-01-20 11:57:23.56	182.23	47.33	-42.1	-45.2	18.8	6.04e-01	0	58	0	481820672	56	4939
2026-01-20 11:57:24.57	182.45	47.69	-42.1	-45.2	18.8	6.06e-01	0	58	0	483917824	56	4941
2026-01-20 11:57:25.58	182.68	48.06	-42.2	-45.3	18.7	6.06e-01	0	58	0	485490688	56	5014
2026-01-20 11:57:26.59	182.91	48.44	-41.8	-44.8	19.1	6.05e-01	0	58	0	487587840	55	4984
2026-01-20 11:57:27.60	183.14	48.81	-41.9	-45.0	18.9	6.08e-01	0	58	0	489160704	55	5122
2026-01-20 11:57:28.61	183.39	49.19	-42.1	-45.2	18.7	6.07e-01	0	58	0	491257856	55	5233
2026-01-20 11:57:29.62	183.64	49.57	-41.9	-44.8	19.0	6.06e-01	0	58	0	493355008	55	5038
2026-01-20 11:57:30.63	183.89	49.96	-41.9	-44.9	19.0	6.07e-01	0	58	0	494927872	55	5043
2026-01-20 11:57:31.64	184.15	50.34	-41.7	-44.6	19.3	6.06e-01	0	58	0	497025024	55	4911
2026-01-20 11:57:32.64	184.42	50.73	-41.7	-44.6	19.3	6.06e-01	0	58	0	498597888	55	4875
2026-01-20 11:57:33.65	184.69	51.12	-41.7	-44.6	19.3	6.06e-01	0	58	0	500695040	55	4880
2026-01-20 11:57:34.66	184.97	51.52	-41.6	-44.4	19.5	6.07e-01	0	58	0	502792192	55	4773
2026-01-20 11:57:35.67	185.26	51.91	-41.7	-44.6	19.3	6.08e-01	0	58	0	504365056	55	4893
2026-01-20 11:57:36.68	185.56	52.32	-41.4	-44.2	19.7	6.08e-01	0	58	0	506462208	54	4936
2026-01-20 11:57:37.69	185.87	52.72	-41.3	-44.0	19.9	6.06e-01	0	58	0	508035072	54	4852
2026-01-20 11:57:38.70	186.18	53.13	-41.4	-44.1	19.8	6.07e-01	0	58	0	510132224	54	4883
2026-01-20 11:57:39.71	186.50	53.53	-41.3	-44.0	19.9	6.07e-01	0	58	0	512229376	54	4865
2026-01-20 11:57:40.72	186.83	53.94	-41.6	-44.5	19.5	6.06e-01	0	58	0	513802240	54	5122
2026-01-20 11:57:41.73	187.18	54.36	-41.4	-44.2	19.7	6.07e-01	0	58	0	515899392	54	4961
2026-01-20 11:57:42.74	187.53	54.77	-41.5	-44.4	19.1	6.05e-01	0	58	0	517472256	54	5068
2026-01-20 11:57:43.75	187.89	55.19	-41.8	-44.7	19.2	6.08e-01	0	58	0	519569408	54	5262
2026-01-20 11:57:44.76	188.26	55.61	-41.9	-44.9	19.0	6.06e-01	0	58	0	521666560	54	5356
2026-01-20 11:57:45.77	188.65	56.04	-42.1	-45.2	18.7	6.09e-01	0	58	0	523239424	54	5564
2026-01-20 11:57:46.77	189.04	56.46	-42.2	-45.4	18.4	6.05e-01	0	58	0	525336576	55	5370
2026-01-20 11:57:47.78	189.45	56.88	-42.2	-45.4	18.5	6.05e-01	0	58	0	526909440	55	5397
2026-01-20 11:57:48.79	189.87	57.31	-42.5	-46.0	17.9	6.04e-01	0	58	0	529006592	55	5737
2026-01-20 11:57:49.80	190.30	57.74	-42.5	-46.0	18.0	6.07e-01	0	58	0	531103744	55	5726
2026-01-20 11:57:50.81	190.75	58.18	-42.6	-46.1	17.8	6.06e-01	0	58	0	532676608	55	5839
2026-01-20 11:57:51.82	191.22	58.61	-42.7	-46.2	17.6	6.05e-01	0	58	0	534773760	55	5908
2026-01-20 11:57:52.83	191.69	59.05	-43.1	-46.8	17.2	6.04e-01	0	58	0	536870912	56	5965
2026-01-20 11:57:53.84	192.19	59.48	-43.0	-46.8	17.1	6.06e-01	0	58	0	538443776	56	5935
2026-01-20 11:57:54.85	192.70	59.92	-43.1	-46.8	17.2	6.07e-01	0	58	0	540540928	56	5986
2026-01-20 11:57:55.86	193.23	60.36	-43.4	-47.5	16.5	6.06e-01	0	58	0	542113792	57	6095
2026-01-20 11:57:56.87	193.78	60.80	-43.2	-47.1	16.9	6.07e-01	0	58	0	544210944	57	5804
2026-01-20 11:57:57.88	194.35	61.24	-43.6	-47.8	16.2	6.04e-01	0	58	0	546308096	57	6338
2026-01-20 11:57:58.89	194.94	61.69	-43.6	-47.9	16.1	6.05e-01	0	58	0	547880960	57	6398
2026-01-20 11:57:59.90	195.54	62.13	-43.6	-47.9	16.1	6.06e-01	0	58	0	549978112	57	6402
2026-01-20 11:58:00.91	196.18	62.57	-43.9	-48.4	15.6	6.05e-01	0	58	0	552075264	58	6371
2026-01-20 11:58:01.92	196.83	63.01	-44.0	-48.9	15.1	6.08e-01	0	58	0	553648128	58	6724
2026-01-20 11:58:02.93	197.51	63.45	-44.0	-48.8	14.9	6.04e-01	0	58	0	555745280	58	6666
2026-01-20 11:58:03.94	198.22	63.90	-44.0	-48.8	15.2	6.05e-01	0	58	0	557318144	58	6714
2026-01-20 11:58:04.95	198.95	64.34	-44.2	-49.3	14.5	6.06e-01	0	58	0	559415296	59	6708
2026-01-20 11:58:05.96	199.71	64.78	-44.4	-49.8	14.1	6.05e-01	0	58	0	561512448	59	7069
2026-01-20 11:58:06.97	200.50	65.21	-44.3	-49.6	14.4	6.08e-01	0	58	0	563085312	59	6918
2026-01-20 11:58:07.97	201.32	65.64	-44.4	-49.9	14.0	6.09e-01	0	58	0	565182464	59	7165
2026-01-20 11:58:08.98	202.18	66.08	-44.4	-50.3	13.1	6.11e-01	0	58	0	566755328	60	7091
2026-01-20 11:58:09.99	203.07	66.51	-44.3	-50.1	13.5	6.08e-01	0	58	0	568852480	60	6896
2026-01-20 11:58:11.01	204.00	66.94	-44.4	-50.3	13.0	6.09e-01	0	59	0	570949632	60	7121
2026-01-20 11:58:12.02	204.97	67.37	-44.6	-50.9	12.4	6.10e-01	0	58	0	572522496	60	7613
2026-01-20 11:58:13.03	205.97	67.79	-44.7	-51.2	12.1	6.11e-01	0	58	0	574619648	60	7886
2026-01-20 11:58:14.04	207.02	68.20	-44.7	-51.2	12.2	6.12e-01	0	59	0	576192512	60	7874
2026-01-20 11:58:15.05	208.11	68.62	-44.7	-51.2	12.2	6.12e-01	0	59	0	578289664	60	7844
2026-01-20 11:58:16.05	209.24	69.02	-44.9	-51.9	11.5	6.13e-01	0	59	0	580386816	60	8470
2026-01-20 11:58:17.06	210.43	69.42	-44.5	-50.7	12.7	6.10e-01	0	59	0	581959680	60	7437
2026-01-20 11:58:18.07	211.66	69.81	-44.4	-50.5	12.8	6.12e-01	0	58	0	584056832	60	7250
2026-01-20 11:58:19.08	212.95	70.20	-44.5	-50.6	12.7	6.09e-01	0	58	0	585629696	60	7323
2026-01-20 11:58:20.09	214.29	70.57	-44.1	-49.6	13.9	6.08e-01	0	58	0	587726848	60	6567
2026-01-20 11:58:21.10	215.69	70.94	-44.3	-49.4	14.3	6.08e-01	0	58	0	589824000	59	6753
2026-01-20 11:58:22.11	217.15	71.30	-44.3	-49.8	14.1	6.07e-01	0	59	0	591396864	59	7050
2026-01-20 11:58:23.12	218.66	71.65	-44.1	-49.1	14.7	6.08e-01	0	59	0	593494016	59	6529
2026-01-20 11:58:24.13	220.24	71.99	-44.0	-48.8	15.1	6.06e-01	0	59	0	595066880	59	6309
2026-01-20 11:58:25.14	221.87	72.31	-43.9	-48.8	15.0	6.08e-01	0	58	0	597164032	59	6331
2026-01-20 11:58:26.15	223.58	72.62	-43.9	-48.5	15.4	6.07e-01	0	59	0	599261184	59	6064
2026-01-20 11:58:27.16	225.34	72.92	-44.0	-48.7	14.8	6.06e-01	0	58	0	600834048	59	6263
2026-01-20 11:58:28.17	227.17	73.20	-43.9	-48.6	15.2	6.07e-01	0	59	0	602931200	59	6192
2026-01-20 11:58:29.17	229.05	73.47	-43.9	-48.7	15.1	6.08e-01	0	59	0	605028352	59	6221
2026-01-20 11:58:30.19	231.02	73.72	-44.2	-49.4	14.3	6.06e-01	0	58	0	606601216	58	7158
2026-01-20 11:58:31.20	233.04	73.95	-44.1	-49.2	14.6	6.07e-01	0	58	0	608698368	59	6583
2026-01-20 11:58:32.21	235.11	74.16	-43.8	-48.3	15.5	6.07e-01	0	58	0	610271232	58	6332
2026-01-20 11:58:33.21	237.22	74.35	-44.0	-48.9	14.9	6.04e-01	0	58	0	612368384	58	6763
2026-01-20 11:58:34.22	239.41	74.52	-43.5	-48.2	15.5	6.08e-01	0	59	0	614465536	58	6257
2026-01-20 11:58:35.23	241.64	74.67	-43.6	-48.0	15.8	6.05e-01	0	58	0	616038400	58	6075
2026-01-20 11:58:36.24	243.91	74.80	-43.6	-48.0	15.9	6.07e-01	0	58	0	618135552	58	6063
2026-01-20 11:58:37.25	246.22	74.90	-43.5	-47.8	15.9	6.06e-01	0	58	0	620232704	58	5986
2026-01-20 11:58:38.26	248.56	74.98	-43.4	-47.5	16.3	6.04e-01	0	58	0	621805568	57	6103
2026-01-20 11:58:39.27	250.92	75.04	-43.6	-48.0	15.8	6.10e-01	0	58	0	623902720	58	6094
2026-01-20 11:58:40.28	253.29	75.07	-43.6	-48.0	15.8	6.05e-01	0	59	0	625475584	58	6124
2026-01-20 11:58:41.29	255.67	75.08	-43.5	-47.9	15.9	6.05e-01	0	59	0	627572736	58	6000
2026-01-20 11:58:42.30	258.05	75.06	-43.8	-48.4	15.3	6.08e-01	0	59	0	629669888	58	6386
2026-01-20 11:58:43.31	260.42	75.01	-43.7	-48.3	15.4	6.05e-01	0	59	0	631242752	58	6329
2026-01-20 11:58:44.32	262.77	74.95	-43.4	-47.9	15.7	6.05e-01	0	59	0	633339904	57	6371
2026-01-20 11:58:45.33	265.09	74.86	-43.8	-48.4	15.4	6.06e-01	0	59	0	634912768	58	6407
2026-01-20 11:58:46.34	267.38	74.74	-43.7	-48.2	15.5	6.06e-01	0	59	0	637009920	58	6272
2026-01-20 11:58:47.35	269.64	74.61	-43.6	-47.9	15.7	6.05e-01	0	59	0	639107072	57	6379
2026-01-20 11:58:48.36	271.84	74.45	-43.7	-48.1	15.1	6.06e-01	0	59	0	640679936	57	6540
2026-01-20 11:58:49.37	274.00	74.27	-43.1	-47.9	15.5	6.05e-01	0	59	0	642777088	57	6381
2026-01-20 11:58:50.37	276.09	74.07	-43.6	-48.2	14.9	6.08e-01	0	58	0	644349952	57	6593
2026-01-20 11:58:51.38	278.13	73.85	-43.6	-48.0	15.7	6.06e-01	0	59	0	646447104	57	6431
2026-01-20 11:58:52.39	280.12	73.61	-43.3	-48.0	15.3	6.07e-01	0	59	0	648544256	57	6476
2026-01-20 11:58:53.40	282.05	73.35	-43.8	-48.4	15.5	6.08e-01	0	59	0	650117120	58	6406
2026-01-20 11:58:54.41	283.91	73.08	-43.9	-48.5	15.5	6.06e-01	0	59	0	652214272	58	6443
2026-01-20 11:58:55.42	285.71	72.79	-43.9	-48.6	15.3	6.06e-01	0	58	0	653787136	58	6567
2026-01-20 11:58:56.43	287.44	72.48	-43.9	-48.6	15.4	6.07e-01	0	59	0	655884288	58	6500
2026-01-20 11:58:57.44	289.11	72.17	-43.8	-48.6	15.4	6.06e-01	0	58	0	657981440	58	6505
2026-01-20 11:58:58.45	290.72	71.84	-44.0	-48.7	15.2	6.07e-01	0	59	0	659554304	58	6646
2026-01-20 11:58:59.46	292.27	71.49	-44.0	-48.8	15.1	6.06e-01	0	59	0	661651456	58	6713
2026-01-20 11:59:00.47	293.75	71.14	-43.9	-48.5	15.5	6.04e-01	0	59	0	663224320	58	6434
2026-01-20 11:59:01.48	295.18	70.78	-44.1	-49.2	14.9	6.07e-01	0	59	0	665321472	58	6970
2026-01-20 11:59:02.49	296.55	70.41	-44.0	-48.9	15.0	6.07e-01	0	59	0	667418624	59	6403
2026-01-20 11:59:03.50	297.87	70.03	-43.8	-48.4	15.6	6.08e-01	0	59	0	668991488	58	6367
2026-01-20 11:59:04.50	299.12	69.64	-43.8	-48.4	15.6	6.05e-01	0	59	0	671088640	58	6359
2026-01-20 11:59:05.51	300.33	69.25	-44.2	-49.2	14.8	6.08e-01	0	59	0	673185792	58	7021
2026-01-20 11:59:06.52	301.49	68.84	-44.1	-49.2	14.8	6.08e-01	0	59	0	674758656	59	6600
2026-01-20 11:59:07.53	302.60	68.44	-44.2	-49.1	14.9	6.04e-01	0	59	0	676855808	59	6521
2026-01-20 11:59:08.54	303.68	68.02	-44.3	-49.5	14.5	6.08e-01	0	59	0	678428672	59	6821
2026-01-20 11:59:09.55	304.70	67.61	-44.4	-49.8	14.2	6.08e-01	0	59	0	680525824	59	7059
2026-01-20 11:59:10.56	305.69	67.18	-44.3	-49.6	14.4	6.07e-01	0	59	0	682622976	59	6903
2026-01-20 11:59:11.57	306.64	66.76	-44.1	-49.0	15.0	6.08e-01	0	59	0	684195840	59	6469
2026-01-20 11:59:12.58	307.55	66.33	-43.9	-48.5	15.6	6.08e-01	0	59	0	686292992	59	6069
2026-01-20 11:59:13.59	308.42	65.90	-44.1	-49.0	15.1	6.07e-01	0	59	0	687865856	59	6429
2026-01-20 11:59:14.60	309.26	65.47	-44.0	-48.7	15.3	6.04e-01	0	59	0	689963008	59	6208
2026-01-20 11:59:15.61	310.07	65.03	-43.3	-47.3	16.8	6.06e-01	0	59	0	692060160	58	5599
2026-01-20 11:59:16.61	310.84	64.60	-43.8	-48.3	15.8	6.08e-01	0	59	0	693633024	58	6338
2026-01-20 11:59:17.62	311.59	64.16	-43.7	-47.9	16.1	6.05e-01	0	59	0	695730176	58	6049
2026-01-20 11:59:18.63	312.31	63.72	-43.4	-47.3	16.8	6.07e-01	0	59	0	697303040	58	5648
2026-01-20 11:59:19.64	313.00	63.28	-43.4	-47.3	16.8	6.06e-01	0	59	0	699400192	58	5617
2026-01-20 11:59:20.65	313.67	62.84	-43.2	-47.0	17.1	6.04e-01	0	59	0	701497344	58	5420
2026-01-20 11:59:21.66	314.31	62.40	-43.2	-47.1	17.1	6.08e-01	0	59	0	703070208	58	5465
2026-01-20 11:59:22.67	314.93	61.96	-43.2	-47.0	17.1	6.05e-01	0	59	0	705167360	58	5457
2026-01-20 11:59:23.68	315.53	61.52	-43.2	-46.9	17.1	6.05e-01	0	59	0	706740224	58	5395
2026-01-20 11:59:24.69	316.11	61.07	-43.2	-47.0	17.2	6.05e-01	0	59	0	708837376	58	5440
2026-01-20 11:59:25.70	316.67	60.64	-43.2	-47.0	17.1	6.07e-01	0	58	0	710934528	58	5447
2026-01-20 11:59:26.71	317.21	60.20	-43.2	-47.0	17.2	6.04e-01	0	59	0	712507392	58	5409
2026-01-20 11:59:27.72	317.73	59.76	-43.0	-46.7	17.5	6.06e-01	0	59	0	714604544	58	5232
2026-01-20 11:59:28.72	318.23	59.33	-43.1	-46.7	17.4	6.06e-01	0	59	0	716701696	58	5272
2026-01-20 11:59:29.73	318.72	58.89	-43.1	-46.9	17.2	6.05e-01	0	59	0	718274560	58	5359
2026-01-20 11:59:30.74	319.19	58.46	-42.9	-46.5	17.7	6.09e-01	0	59	0	720371712	57	5403
2026-01-20 11:59:31.75	319.64	58.03	-42.6	-45.8	18.4	6.06e-01	0	59	0	721944576	57	5026
2026-01-20 11:59:32.76	320.09	57.60	-42.8	-46.2	18.0	6.08e-01	0	59	0	724041728	57	5257
2026-01-20 11:59:33.77	320.52	57.17	-42.5	-45.8	18.4	6.08e-01	0	59	0	726138880	57	4997
2026-01-20 11:59:34.78	320.93	56.74	-42.7	-46.0	18.2	6.06e-01	0	59	0	727711744	57	5140
2026-01-20 11:59:35.79	321.33	56.32	-42.6	-45.9	18.2	6.07e-01	0	59	0	729808896	57	5090
2026-01-20 11:59:36.79	321.72	55.90	-42.3	-45.5	18.7	6.07e-01	0	59	0	731381760	56	5108
2026-01-20 11:59:37.80	322.10	55.48	-41.9	-44.7	19.3	6.05e-01	0	59	0	733478912	55	4980
2026-01-20 11:59:38.81	322.47	55.06	-41.9	-44.8	19.3	6.05e-01	0	59	0	735576064	55	4998
2026-01-20 11:59:39.82	322.83	54.64	-42.0	-44.9	19.1	6.04e-01	0	59	0	737148928	55	5091
2026-01-20 11:59:40.83	323.17	54.23	-41.9	-44.9	19.2	6.04e-01	0	59	0	739246080	55	5061
2026-01-20 11:59:41.84	323.51	53.82	-42.0	-45.0	19.1	6.04e-01	0	59	0	740818944	55	5120
2026-01-20 11:59:42.85	323.84	53.41	-42.1	-45.2	18.9	6.05e-01	0	59	0	742916096	55	5232
2026-01-20 11:59:43.86	324.16	53.00	-42.0	-44.9	19.1	6.05e-01	0	59	0	745013248	55	5090
2026-01-20 11:59:44.87	324.47	52.60	-42.0	-45.1	19.0	6.05e-01	0	59	0	746586112	55	5163
2026-01-20 11:59:45.88	324.77	52.20	-42.3	-45.6	18.6	6.04e-01	0	59	0	748683264	55	5477
2026-01-20 11:59:46.89	325.06	51.80	-42.5	-45.8	18.3	6.06e-01	0	59	0	750256128	55	5642
2026-01-20 11:59:47.89	325.35	51.41	-42.4	-45.7	18.4	6.05e-01	0	59	0	752353280	55	5570
2026-01-20 11:59:48.91	325.63	51.01	-42.4	-45.6	18.5	6.05e-01	0	59	0	754450432	55	5476
2026-01-20 11:59:49.91	325.90	50.63	-42.6	-46.0	18.1	6.05e-01	0	59	0	756023296	55	5748
2026-01-20 11:59:50.93	326.16	50.24	-42.8	-46.2	17.9	6.07e-01	0	59	0	758120448	56	5586
2026-01-20 11:59:51.94	326.42	49.85	-42.7	-46.1	18.1	6.07e-01	0	59	0	759693312	56	5508
2026-01-20 11:59:52.95	326.67	49.47	-42.8	-46.3	17.9	6.06e-01	0	59	0	761790464	56	5610
2026-01-20 11:59:53.96	326.92	49.09	-42.8	-46.2	18.0	6.06e-01	0	59	0	763887616	56	5591
2026-01-20 11:59:54.96	327.16	48.72	-42.7	-46.2	18.0	6.07e-01	0	59	0	765460480	56	5529
2026-01-20 11:59:55.97	327.39	48.35	-42.6	-45.9	18.3	6.06e-01	0	59	0	767557632	56	5367
2026-01-20 11:59:56.98	327.62	47.98	-42.6	-45.8	18.4	6.05e-01	0	59	0	769654784	56	5320
2026-01-20 11:59:57.99	327.84	47.61	-42.7	-46.0	18.2	6.08e-01	0	59	0	771227648	56	5443
2026-01-20 11:59:59.00	328.06	47.25	-42.7	-46.1	18.1	6.06e-01	0	59	0	773324800	56	5469
2026-01-20 12:00:00.01	328.27	46.88	-42.5	-45.8	18.4	6.04e-01	0	59	0	774897664	56	5306
2026-01-20 12:00:01.02	328.48	46.53	-42.4	-45.6	18.6	6.05e-01	0	59	0	776994816	56	5200
2026-01-20 12:00:02.03	328.68	46.17	-42.4	-45.7	18.5	6.05e-01	0	59	0	779091968	56	5220
2026-01-20 12:00:03.04	328.88	45.82	-42.6	-46.0	18.2	6.06e-01	0	59	0	780664832	56	5443
2026-01-20 12:00:04.05	329.08	45.47	-42.7	-46.1	18.0	6.06e-01	0	59	0	782761984	56	5528
2026-01-20 12:00:05.06	329.27	45.12	-42.7	-46.2	18.0	6.06e-01	0	59	0	784859136	56	5558
2026-01-20 12:00:06.07	329.45	44.77	-42.6	-45.9	18.3	6.07e-01	0	59	0	786432000	56	5367
2026-01-20 12:00:07.08	329.64	44.43	-42.5	-45.7	18.4	6.05e-01	0	59	0	788529152	56	5270
2026-01-20 12:00:08.09	329.82	44.09	-42.5	-45.8	18.4	6.08e-01	0	59	0	790102016	56	5305
2026-01-20 12:00:09.10	329.99	43.76	-42.5	-45.7	18.5	6.04e-01	0	59	0	792199168	56	5273
2026-01-20 12:00:10.11	330.16	43.42	-42.6	-45.9	18.3	6.05e-01	0	59	0	794296320	56	5382
2026-01-20 12:00:11.12	330.33	43.09	-42.6	-46.0	18.2	6.07e-01	0	59	0	795869184	56	5427
2026-01-20 12:00:12.13	330.49	42.77	-42.6	-46.0	18.2	6.05e-01	0	59	0	797966336	56	5425
2026-01-20 12:00:13.13	330.65	42.44	-42.8	-46.2	17.9	6.03e-01	0	59	0	799539200	56	5563
2026-01-20 12:00:14.14	330.81	42.12	-43.0	-46.7	17.5	6.06e-01	0	59	0	801636352	56	5881
2026-01-20 12:00:15.15	330.97	41.80	-43.1	-46.9	17.3	6.05e-01	0	59	0	803733504	56	6000
2026-01-20 12:00:16.17	331.12	41.48	-43.1	-46.8	17.4	6.06e-01	0	59	0	805306368	56	5934
2026-01-20 12:00:17.17	331.27	41.17	-43.0	-46.6	17.6	6.05e-01	0	59	0	807403520	56	5811
2026-01-20 12:00:18.18	331.41	40.86	-43.1	-46.8	17.4	6.07e-01	0	59	0	808976384	56	5943
2026-01-20 12:00:19.20	331.56	40.55	-43.1	-46.9	17.2	6.05e-01	0	59	0	811073536	56	6045
2026-01-20 12:00:20.21	331.70	40.24	-43.2	-47.0	17.2	6.04e-01	0	59	0	813170688	56	6063
2026-01-20 12:00:21.21	331.83	39.94	-43.1	-46.8	17.3	6.04e-01	0	59	0	814743552	56	5988
2026-01-20 12:00:22.22	331.97	39.64	-43.2	-47.0	17.1	6.04e-01	0	59	0	816840704	56	6126
2026-01-20 12:00:23.23	332.10	39.34	-43.2	-47.0	17.1	6.05e-01	0	59	0	818413568	57	5764
2026-01-20 12:00:24.24	332.23	39.05	-43.2	-47.0	17.2	6.06e-01	0	59	0	820510720	57	5744
2026-01-20 12:00:25.25	332.36	38.75	-43.0	-46.7	17.4	6.04e-01	0	59	0	822607872	57	5550
2026-01-20 12:00:26.26	332.49	38.46	-43.1	-46.8	17.3	6.05e-01	0	59	0	824180736	57	5637
2026-01-20 12:00:27.27	332.61	38.17	-43.0	-46.8	17.4	6.07e-01	0	59	0	826277888	57	5593
2026-01-20 12:00:28.28	332.73	37.89	-43.0	-46.7	17.4	6.08e-01	0	59	0	827850752	57	5542
2026-01-20 12:00:29.29	332.85	37.61	-42.9	-46.4	17.7	6.07e-01	0	59	0	829947904	57	5392
2026-01-20 12:00:30.30	332.97	37.32	-42.8	-46.4	17.7	6.05e-01	0	59	0	832045056	57	5372
2026-01-20 12:00:31.31	333.09	37.05	-42.8	-46.4	17.7	6.06e-01	0	59	0	833617920	57	5383
2026-01-20 12:00:32.32	333.20	36.77	-42.8	-46.4	17.7	6.06e-01	0	59	0	835715072	57	5343
2026-01-20 12:00:33.33	333.31	36.50	-42.8	-46.4	17.7	6.03e-01	0	59	0	837812224	57	5350
2026-01-20 12:00:34.34	333.42	36.22	-42.8	-46.3	17.8	6.05e-01	0	59	0	839385088	57	5329
2026-01-20 12:00:35.34	333.53	35.96	-42.8	-46.3	17.8	6.05e-01	0	59	0	841482240	57	5301
2026-01-20 12:00:36.35	333.64	35.69	-42.5	-45.9	18.2	6.06e-01	0	59	0	843055104	57	5045
2026-01-20 12:00:37.36	333.74	35.43	-42.4	-45.6	18.5	6.06e-01	0	59	0	845152256	56	5167
2026-01-20 12:00:38.37	333.84	35.16	-42.3	-45.4	18.7	6.06e-01	0	59	0	847249408	56	5076
2026-01-20 12:00:39.38	333.95	34.90	-42.2	-45.3	18.8	6.07e-01	0	59	0	848822272	56	5028
2026-01-20 12:00:40.39	334.05	34.64	-42.3	-45.4	18.6	6.07e-01	0	59	0	850919424	56	5089
2026-01-20 12:00:41.40	334.14	34.39	-42.1	-45.2	18.9	6.05e-01	0	59	0	853016576	56	4962
2026-01-20 12:00:42.41	334.24	34.13	-42.0	-45.0	19.1	6.05e-01	0	59	0	854589440	56	4846
2026-01-20 12:00:43.42	334.34	33.88	-41.8	-44.8	19.2	6.06e-01	0	59	0	856686592	55	5001
2026-01-20 12:00:44.43	334.43	33.63	-41.7	-44.6	19.4	6.05e-01	0	59	0	858259456	55	4907
2026-01-20 12:00:45.44	334.52	33.39	-41.7	-44.5	19.4	6.06e-01	0	59	0	860356608	55	4861
2026-01-20 12:00:46.45	334.61	33.14	-41.6	-44.5	19.4	6.06e-01	0	59	0	862453760	55	4866
2026-01-20 12:00:47.45	334.70	32.90	-41.7	-44.7	19.3	6.06e-01	0	59	0	864026624	55	4961
2026-01-20 12:00:48.47	334.79	32.66	-41.8	-44.8	19.2	6.07e-01	0	59	0	866123776	55	5002
2026-01-20 12:00:49.47	334.88	32.42	-41.9	-44.9	19.1	6.04e-01	0	59	0	867696640	55	5067
2026-01-20 12:00:50.48	334.96	32.18	-41.8	-44.8	19.1	6.05e-01	0	59	0	869793792	55	5003
2026-01-20 12:00:51.49	335.05	31.95	-41.7	-44.6	19.3	6.04e-01	0	59	0	871366656	55	4921
2026-01-20 12:00:52.50	335.13	31.71	-41.7	-44.6	19.3	6.07e-01	0	59	0	873463808	55	4916
2026-01-20 12:00:53.51	335.22	31.48	-41.6	-44.4	19.5	6.06e-01	0	59	0	875560960	55	4802
2026-01-20 12:00:54.52	335.30	31.25	-41.6	-44.4	19.5	6.05e-01	0	59	0	877133824	55	4805
2026-01-20 12:00:55.53	335.38	31.02	-41.7	-44.6	19.3	6.05e-01	0	59	0	879230976	55	4903
2026-01-20 12:00:56.54	335.46	30.80	-41.7	-44.6	19.3	6.05e-01	0	59	0	881328128	55	4902
2026-01-20 12:00:57.55	335.53	30.57	-41.7	-44.6	19.3	6.06e-01	0	59	0	882900992	55	4921
2026-01-20 12:00:58.56	335.61	30.35	-41.6	-44.6	19.3	6.07e-01	0	59	0	884998144	55	4882
2026-01-20 12:00:59.57	335.69	30.13	-41.7	-44.7	19.2	6.04e-01	0	59	0	886571008	55	4934
2026-01-20 12:01:00.58	335.76	29.91	-41.7	-44.7	19.2	6.06e-01	0	59	0	888668160	55	4967
2026-01-20 12:01:01.59	335.84	29.69	-41.7	-44.7	19.2	6.07e-01	0	59	0	890765312	55	4947
2026-01-20 12:01:02.60	335.91	29.48	-41.8	-44.8	19.1	6.04e-01	0	59	0	892338176	55	5030
2026-01-20 12:01:03.61	335.98	29.26	-41.9	-45.0	18.9	6.05e-01	0	59	0	894435328	55	5130
2026-01-20 12:01:04.61	336.05	29.05	-41.9	-45.0	18.9	6.05e-01	0	59	0	896008192	55	5136
2026-01-20 12:01:05.63	336.12	28.84	-42.0	-45.2	18.7	6.07e-01	0	59	0	898105344	55	5237
2026-01-20 12:01:06.63	336.19	28.63	-42.0	-45.2	18.6	6.07e-01	0	59	0	900202496	55	5276
2026-01-20 12:01:07.64	336.26	28.43	-42.1	-45.3	18.5	6.06e-01	0	59	0	901775360	55	5324
2026-01-20 12:01:08.65	336.33	28.22	-42.0	-45.3	18.6	6.04e-01	0	59	0	903872512	55	5281
2026-01-20 12:01:09.66	336.39	28.02	-42.1	-45.4	18.4	6.07e-01	0	59	0	905969664	55	5349
2026-01-20 12:01:10.67	336.46	27.82	-42.1	-45.4	18.4	6.07e-01	0	59	0	907542528	55	5370
2026-01-20 12:01:11.68	336.53	27.62	-42.1	-45.4	18.4	6.07e-01	0	59	0	909639680	55	5375
2026-01-20 12:01:12.69	336.59	27.42	-42.1	-45.4	18.3	6.08e-01	0	59	0	911212544	55	5393
2026-01-20 12:01:13.70	336.65	27.22	-42.1	-45.4	18.4	6.07e-01	0	59	0	913309696	55	5381
2026-01-20 12:01:14.71	336.72	27.02	-42.1	-45.5	18.3	6.08e-01	0	59	0	915406848	55	5415
2026-01-20 12:01:15.72	336.78	26.83	-42.1	-45.5	18.3	6.06e-01	0	59	0	916979712	55	5406
2026-01-20 12:01:16.73	336.84	26.63	-42.1	-45.5	18.3	6.06e-01	0	59	0	919076864	55	5411
2026-01-20 12:01:17.74	336.90	26.44	-42.2	-45.6	18.2	6.05e-01	0	59	0	920649728	55	5475
2026-01-20 12:01:18.75	336.96	26.25	-42.2	-45.6	18.1	6.06e-01	0	59	0	922746880	55	5528
2026-01-20 12:01:19.76	337.02	26.06	-42.3	-45.8	17.9	6.08e-01	0	59	0	924844032	55	5650
2026-01-20 12:01:20.77	337.08	25.88	-42.3	-45.9	17.8	6.03e-01	0	59	0	926416896	55	5687
2026-01-20 12:01:21.78	337.14	25.69	-42.3	-45.9	17.7	6.06e-01	0	59	0	928514048	55	5688
2026-01-20 12:01:22.79	337.19	25.51	-42.3	-45.8	17.8	6.06e-01	0	59	0	930086912	55	5653
2026-01-20 12:01:23.80	337.25	25.32	-42.3	-45.8	17.8	6.06e-01	0	59	0	932184064	55	5639
2026-01-20 12:01:24.80	337.31	25.14	-42.3	-45.8	17.8	6.07e-01	0	59	0	934281216	55	5649
2026-01-20 12:01:25.81	337.36	24.96	-42.2	-45.7	17.9	6.07e-01	0	59	0	935854080	55	5558
2026-01-20 12:01:26.82	337.42	24.78	-42.2	-45.7	17.9	6.06e-01	0	59	0	937951232	55	5592
2026-01-20 12:01:27.83	337.47	24.60	-42.3	-45.8	17.8	6.03e-01	0	59	0	939524096	55	5639
2026-01-20 12:01:28.84	337.52	24.43	-42.2	-45.7	17.9	6.05e-01	0	59	0	941621248	55	5530
2026-01-20 12:01:29.85	337.58	24.25	-42.2	-45.7	17.9	6.06e-01	0	59	0	943718400	55	5549
2026-01-20 12:01:30.87	337.63	24.08	-42.2	-45.7	17.8	6.05e-01	0	59	0	945291264	55	5551
2026-01-20 12:01:31.87	337.68	23.90	-42.2	-45.8	17.7	6.06e-01	0	59	0	947388416	55	5635
2026-01-20 12:01:32.88	337.73	23.73	-42.2	-45.8	17.7	6.06e-01	0	59	0	949485568	55	5609
2026-01-20 12:01:33.89	337.78	23.56	-42.1	-45.7	17.7	6.08e-01	0	59	0	951058432	55	5577
2026-01-20 12:01:34.90	337.83	23.39	-42.1	-45.7	17.7	6.06e-01	0	59	0	953155584	55	5577
2026-01-20 12:01:35.91	337.88	23.22	-42.1	-45.7	17.7	6.06e-01	0	59	0	954728448	55	5588
2026-01-20 12:01:36.92	337.93	23.06	-42.1	-45.8	17.6	6.06e-01	0	59	0	956825600	55	5631
2026-01-20 12:01:37.93	337.98	22.89	-42.0	-45.7	17.7	6.05e-01	0	59	0	958922752	55	5541
2026-01-20 12:01:38.94	338.03	22.73	-42.0	-45.7	17.7	6.02e-01	0	59	0	960495616	55	5548
2026-01-20 12:01:39.95	338.08	22.56	-42.0	-45.7	17.6	6.06e-01	0	59	0	962592768	55	5552
2026-01-20 12:01:40.96	338.12	22.40	-42.1	-45.8	17.5	6.07e-01	0	59	0	964165632	55	5631
2026-01-20 12:01:41.97	338.17	22.24	-42.1	-45.9	17.4	6.07e-01	0	59	0	966262784	55	5669
2026-01-20 12:01:42.98	338.22	22.08	-42.1	-45.9	17.3	6.06e-01	0	59	0	968359936	55	5670
2026-01-20 12:01:43.99	338.26	21.92	-42.1	-45.8	17.4	6.07e-01	0	59	0	969932800	55	5633
2026-01-20 12:01:45.00	338.31	21.76	-42.1	-45.9	17.2	6.08e-01	0	59	0	972029952	55	5711
2026-01-20 12:01:46.01	338.35	21.60	-42.2	-46.1	17.0	6.07e-01	0	59	0	974127104	55	5794
2026-01-20 12:01:47.02	338.40	21.45	-42.1	-46.0	17.0	6.07e-01	0	59	0	975699968	55	5739
2026-01-20 12:01:48.03	338.44	21.29	-42.1	-46.1	16.9	6.06e-01	0	59	0	977797120	55	5802
2026-01-20 12:01:49.04	338.49	21.14	-42.1	-46.0	16.9	6.06e-01	0	59	0	979369984	55	5771
2026-01-20 12:01:50.05	338.53	20.99	-42.0	-45.9	17.0	6.07e-01	0	59	0	981467136	55	5679
2026-01-20 12:01:51.06	338.57	20.83	-41.8	-45.7	17.0	6.06e-01	0	59	0	983564288	55	5581
2026-01-20 12:01:52.07	338.61	20.68	-41.7	-45.6	17.1	6.05e-01	0	59	0	985137152	55	5484
2026-01-20 12:01:53.08	338.66	20.53	-41.7	-45.6	17.0	6.06e-01	0	59	0	987234304	55	5475
2026-01-20 12:01:54.09	338.70	20.38	-41.7	-45.8	16.7	6.07e-01	0	59	0	988807168	55	5603
2026-01-20 12:01:55.10	338.74	20.24	-41.8	-46.0	16.4	6.07e-01	0	59	0	990904320	55	5786
2026-01-20 12:01:56.11	338.78	20.09	-41.8	-46.1	16.2	6.05e-01	0	59	0	993001472	55	5849
2026-01-20 12:01:57.12	338.82	19.94	-41.9	-46.5	15.8	6.06e-01	0	59	0	994574336	55	6089
2026-01-20 12:01:58.13	338.86	19.80	-42.0	-46.8	15.4	6.07e-01	0	59	0	996671488	55	6287
2026-01-20 12:01:59.14	338.90	19.65	-42.1	-47.1	15.0	6.06e-01	0	59	0	998244352	55	6544
2026-01-20 12:02:00.15	338.94	19.51	-42.2	-47.4	14.6	6.07e-01	0	59	0	1000341504	55	6770
2026-01-20 12:02:01.16	338.98	19.37	-42.3	-47.8	14.3	6.07e-01	0	59	0	1002438656	55	7056
2026-01-20 12:02:02.17	339.02	19.23	-42.3	-48.0	14.0	6.08e-01	0	59	0	1004011520	55	7229
2026-01-20 12:02:03.18	339.06	19.08	-42.4	-48.3	13.6	6.08e-01	0	59	0	1006108672	55	7525
2026-01-20 12:02:04.19	339.10	18.94	-42.5	-48.7	13.2	6.08e-01	0	59	0	1007681536	55	7837
2026-01-20 12:02:05.20	339.13	18.81	-42.5	-49.0	12.7	6.11e-01	0	59	0	1009778688	55	8175
2026-01-20 12:02:06.21	339.17	18.67	-42.5	-49.4	12.2	6.10e-01	0	59	0	1011875840	55	8503
2026-01-20 12:02:07.22	339.21	18.53	-42.5	-49.5	12.0	6.12e-01	0	59	0	1013448704	55	8602
2026-01-20 12:02:08.23	339.25	18.39	-42.5	-49.7	11.8	6.12e-01	0	59	0	1015545856	55	8795
2026-01-20 12:02:09.24	339.28	18.26	-42.5	-50.1	11.3	6.14e-01	0	59	0	1017118720	55	9209
2026-01-20 12:02:10.25	339.32	18.12	-42.6	-50.6	10.7	6.18e-01	0	59	0	1019215872	55	9752
2026-01-20 12:02:11.26	339.35	17.99	-42.6	-51.2	10.0	6.24e-01	0	59	0	1021313024	55	10439
2026-01-20 12:02:12.26	339.39	17.86	-42.6	-51.3	9.9	6.25e-01	0	59	0	1022885888	55	10637
2026-01-20 12:02:13.27	339.42	17.72	-42.6	-51.4	9.8	6.28e-01	0	59	0	1024983040	55	10776
2026-01-20 12:02:14.28	339.46	17.59	-42.6	-51.9	9.3	6.32e-01	0	59	0	1027080192	55	11306
2026-01-20 12:02:15.29	339.49	17.46	-42.6	-52.4	8.7	6.38e-01	1	59	0	1028653056	55	11969
2026-01-20 12:02:16.30	339.53	17.33	-42.6	-52.7	8.4	6.40e-01	21	59	0	1030750208	55	12432
2026-01-20 12:02:17.31	339.56	17.20	-42.5	-52.9	8.1	6.46e-01	78	59	0	1032323072	55	12775
2026-01-20 12:02:18.32	339.60	17.07	-42.5	-53.6	7.4	6.57e-01	92	59	0	1034420224	55	13754
2026-01-20 12:02:19.33	339.63	16.94	-42.5	-53.8	7.0	6.66e-01	92	59	0	1036517376	55	14207
2026-01-20 12:02:20.34	339.66	16.82	-42.4	-54.0	6.8	6.68e-01	92	59	0	1038090240	55	14527
2026-01-20 12:02:21.35	339.70	16.69	-42.5	-54.6	6.3	6.77e-01	92	59	0	1040187392	55	15428
2026-01-20 12:02:22.36	339.73	16.57	-42.5	-54.9	6.0	6.85e-01	45	59	0	1041760256	55	15987
2026-01-20 12:02:23.37	339.76	16.44	-42.6	-55.0	6.0	6.85e-01	80	59	0	1043333120	55	16277
2026-01-20 12:02:24.38	339.80	16.32	-42.6	-55.6	5.7	6.92e-01	2	59	0	1044381696	56	16492
2026-01-20 12:02:25.39	339.83	16.19	-41.4	-61.2	3.8	7.45e-01	0	59	104	1044381696	54	34958
2026-01-20 12:02:26.40	339.86	16.07	-42.6	-59.0	3.9	7.40e-01	0	59	104	1044381696	55	25769
2026-01-20 12:02:27.41	339.89	15.95	-43.0	-58.9	4.1	7.33e-01	0	59	104	1044381696	56	23876
2026-01-20 12:02:28.42	339.92	15.82	-42.9	-57.7	4.0	7.41e-01	0	59	104	1044381696	56	21014
2026-01-20 12:02:29.43	339.95	15.70	-42.9	-57.2	4.1	7.17e-01	0	59	104	1044381696	56	19806
2026-01-20 12:02:30.43	339.98	15.58	-42.8	-57.4	4.6	7.21e-01	0	59	104	1044381696	56	20250
2026-01-20 12:02:31.44	340.02	15.46	-42.8	-57.1	4.7	7.21e-01	0	59	104	1044381696	56	19597
2026-01-20 12:02:32.45	340.05	15.35	-42.1	-59.6	3.9	7.44e-01	0	59	104	1044381696	56	26060
2026-01-20 12:02:33.46	340.08	15.23	-41.6	-61.1	3.8	7.47e-01	0	59	104	1044381696	54	34576
2026-01-20 12:02:34.47	340.11	15.11	-42.3	-59.6	3.9	7.47e-01	0	59	104	1044381696	55	27687
2026-01-20 12:02:35.48	340.14	14.99	-43.0	-60.5	3.8	7.45e-01	0	59	104	1044381696	56	28962
2026-01-20 12:02:36.49	340.17	14.88	-42.7	-59.1	4.0	7.40e-01	0	59	104	1044381696	56	24511
2026-01-20 12:02:37.50	340.20	14.76	-42.5	-59.5	4.0	7.46e-01	0	59	104	1044381696	56	25607
2026-01-20 12:02:38.51	340.22	14.64	-42.7	-59.6	4.0	7.41e-01	0	59	104	1044381696	56	26073
2026-01-20 12:02:39.52	340.25	14.53	-42.6	-59.3	4.0	7.42e-01	0	59	104	1044381696	56	25046
2026-01-20 12:02:40.53	340.28	14.42	-42.0	-61.0	3.8	7.47e-01	0	59	104	1044381696	56	30485
2026-01-20 12:02:41.54	340.31	14.30	-42.0	-61.1	3.8	7.46e-01	0	59	104	1044381696	55	32698
2026-01-20 12:02:42.55	340.34	14.19	-42.4	-60.3	3.8	7.43e-01	0	59	104	1044381696	55	29933
2026-01-20 12:02:43.56	340.37	14.08	-42.3	-60.2	3.8	7.43e-01	0	59	104	1044381696	55	29506
2026-01-20 12:02:44.57	340.40	13.96	-42.3	-60.1	3.8	7.45e-01	0	59	104	1044381696	55	29015
2026-01-20 12:02:45.58	340.42	13.85	-42.3	-60.2	3.8	7.46e-01	0	59	104	1044381696	55	29512
2026-01-20 12:02:46.59	340.45	13.74	-42.4	-60.2	3.8	7.45e-01	0	59	104	1044381696	55	29603
2026-01-20 12:02:47.60	340.48	13.63	-42.2	-60.4	3.8	7.45e-01	0	59	104	1044381696	55	30286
2026-01-20 12:02:48.61	340.51	13.52	-41.8	-61.1	3.8	7.43e-01	0	59	104	1044381696	55	32595
2026-01-20 12:02:49.62	340.53	13.41	-41.8	-60.8	3.8	7.49e-01	0	59	104	1044381696	55	31715
2026-01-20 12:02:50.63	340.56	13.31	-42.1	-60.5	3.8	7.44e-01	0	59	104	1044381696	55	30480
2026-01-20 12:02:51.64	340.59	13.20	-42.3	-60.9	3.8	7.44e-01	0	59	104	1044381696	55	32029
2026-01-20 12:02:52.65	340.61	13.09	-42.1	-60.7	3.8	7.46e-01	0	59	104	1044381696	55	31250
2026-01-20 12:02:53.66	340.64	12.98	-41.9	-60.7	3.8	7.46e-01	0	59	104	1044381696	55	31313
2026-01-20 12:02:54.67	340.67	12.88	-41.8	-60.8	3.8	7.43e-01	0	59	104	1044381696	55	31582
2026-01-20 12:02:55.68	340.69	12.77	-41.9	-60.9	3.8	7.46e-01	0	59	104	1044381696	55	31891
2026-01-20 12:02:56.69	340.72	12.67	-41.5	-60.8	3.8	7.48e-01	0	59	104	1044381696	55	31690
2026-01-20 12:02:57.70	340.74	12.56	-41.7	-60.7	3.8	7.47e-01	0	59	104	1044381696	54	33253
2026-01-20 12:02:58.71	340.77	12.46	-41.7	-61.0	3.8	7.47e-01	0	59	104	1044381696	54	34102
2026-01-20 12:02:59.72	340.79	12.35	-41.9	-61.0	3.8	7.44e-01	0	59	104	1044381696	54	34196
2026-01-20 12:03:00.73	340.82	12.25	-41.6	-60.8	3.8	7.46e-01	0	59	104	1044381696	54	33364
2026-01-20 12:03:01.74	340.85	12.15	-41.2	-60.6	3.8	7.46e-01	0	59	104	1044381696	54	32678
2026-01-20 12:03:02.75	340.87	12.04	-41.7	-60.9	3.8	7.43e-01	0	59	104	1044381696	54	34018
2026-01-20 12:03:03.75	340.89	11.94	-42.0	-61.0	3.8	7.45e-01	0	59	104	1044381696	54	34455
2026-01-20 12:03:04.76	340.92	11.84	-41.5	-60.7	3.8	7.45e-01	0	59	104	1044381696	54	33012
2026-01-20 12:03:05.77	340.94	11.74	-41.0	-60.5	3.8	7.48e-01	0	59	104	1044381696	54	32252
2026-01-20 12:03:06.79	340.97	11.64	-41.8	-60.9	3.8	7.45e-01	0	59	104	1044381696	54	33990
2026-01-20 12:03:07.79	340.99	11.54	-41.8	-61.0	3.8	7.47e-01	0	59	104	1044381696	54	34349
2026-01-20 12:03:08.80	341.02	11.44	-41.3	-60.6	3.8	7.48e-01	0	59	104	1044381696	54	32689
2026-01-20 12:03:09.81	341.04	11.34	-41.1	-60.5	3.8	7.43e-01	0	59	104	1044381696	53	34244
2026-01-20 12:03:10.82	341.06	11.24	-41.7	-60.9	3.8	7.41e-01	0	59	104	1044381696	53	35867
2026-01-20 12:03:11.83	341.09	11.14	-41.7	-60.9	3.8	7.46e-01	0	59	104	1044381696	54	34068
2026-01-20 12:03:12.84	341.11	11.04	-41.2	-60.6	3.8	7.45e-01	0	59	104	1044381696	54	32698
2026-01-20 12:03:13.85	341.13	10.95	-41.3	-60.5	3.8	7.50e-01	0	59	104	1044381696	54	32541
2026-01-20 12:03:14.86	341.16	10.85	-41.5	-60.8	3.8	7.43e-01	0	59	104	1044381696	54	33676
2026-01-20 12:03:15.87	341.18	10.75	-41.7	-60.9	3.8	7.45e-01	0	59	104	1044381696	54	33889
2026-01-20 12:03:16.88	341.20	10.66	-41.1	-60.5	3.8	7.43e-01	0	59	104	1044381696	53	34366
2026-01-20 12:03:17.89	341.23	10.56	-41.3	-60.5	3.8	7.44e-01	0	59	104	1044381696	53	34375
2026-01-20 12:03:18.90	341.25	10.47	-41.1	-60.7	3.8	7.45e-01	0	59	104	1044381696	53	35268
2026-01-20 12:03:19.91	341.27	10.37	-41.8	-60.9	3.8	7.46e-01	0	59	104	1044381696	54	33878
2026-01-20 12:03:20.91	341.29	10.28	-41.1	-60.5	3.8	7.49e-01	0	59	104	1044381696	54	32303
2026-01-20 12:03:21.92	341.32	10.18	-41.3	-60.4	3.8	7.44e-01	0	59	104	1044381696	54	32179
2026-01-20 12:03:22.94	341.34	10.09	-41.0	-60.7	3.8	7.49e-01	0	59	104	1044381696	54	33057
2026-01-20 12:03:23.95	341.36	10.00	-41.7	-60.8	3.8	7.48e-01	0	59	104	1044381696	54	33662
2026-01-20 12:03:24.95	341.38	9.90	-41.2	-60.4	3.8	7.44e-01	0	59	104	1044381696	54	32112
2026-01-20 12:03:25.96	341.40	9.81	-41.3	-60.4	3.8	7.46e-01	0	59	104	1044381696	54	32092
2026-01-20 12:03:26.97	341.43	9.72	-41.1	-60.7	3.8	7.46e-01	0	59	104	1044381696	54	32932
2026-01-20 12:03:27.98	341.45	9.63	-41.6	-60.8	3.8	7.44e-01	0	59	104	1044381696	54	33605
2026-01-20 12:03:28.99	341.47	9.53	-41.3	-60.5	3.8	7.46e-01	0	59	104	1044381696	54	32440
2026-01-20 12:03:30.00	341.49	9.44	-41.4	-60.5	3.8	7.47e-01	0	59	104	1044381696	54	32287
2026-01-20 12:03:31.01	341.51	9.35	-41.2	-60.6	3.8	7.46e-01	0	59	104	1044381696	54	32842
2026-01-20 12:03:32.02	341.53	9.26	-41.6	-60.8	3.8	7.42e-01	0	59	104	1044381696	54	33462
2026-01-20 12:03:33.03	341.55	9.17	-41.4	-60.6	3.8	7.44e-01	0	59	104	1044381696	54	32673
2026-01-20 12:03:34.04	341.57	9.08	-41.4	-60.5	3.8	7.44e-01	0	59	104	1044381696	54	32443
2026-01-20 12:03:35.05	341.59	8.99	-41.3	-60.6	3.8	7.43e-01	0	59	104	1044381696	54	32803
2026-01-20 12:03:36.06	341.61	8.90	-41.6	-60.8	3.8	7.46e-01	0	59	104	1044381696	54	33516
2026-01-20 12:03:37.07	341.64	8.82	-41.5	-60.6	3.8	7.45e-01	0	59	104	1044381696	54	32686
2026-01-20 12:03:38.07	341.66	8.73	-41.4	-60.5	3.8	7.48e-01	0	59	104	1044381696	54	32328
2026-01-20 12:03:39.08	341.68	8.64	-41.3	-60.6	3.8	7.44e-01	0	59	104	1044381696	54	32583
2026-01-20 12:03:40.10	341.70	8.55	-41.7	-60.8	3.8	7.46e-01	0	59	104	1044381696	54	33626
2026-01-20 12:03:41.10	341.72	8.47	-41.4	-60.5	3.8	7.44e-01	0	59	104	1044381696	54	32407
2026-01-20 12:03:42.11	341.74	8.38	-41.3	-60.5	3.8	7.46e-01	0	59	104	1044381696	54	32188
2026-01-20 12:03:43.12	341.76	8.29	-41.3	-60.5	3.8	7.47e-01	0	59	104	1044381696	54	32422
2026-01-20 12:03:44.13	341.78	8.21	-41.7	-60.8	3.8	7.45e-01	0	59	104	1044381696	54	33328
2026-01-20 12:03:45.14	341.80	8.12	-41.4	-60.5	3.8	7.42e-01	0	59	104	1044381696	54	32316
2026-01-20 12:03:46.15	341.82	8.03	-41.3	-60.5	3.8	7.44e-01	0	59	104	1044381696	54	32209
2026-01-20 12:03:47.16	341.83	7.95	-41.9	-61.1	3.8	7.45e-01	0	59	104	1044381696	54	34544
2026-01-20 12:03:48.17	341.85	7.86	-44.4	-63.2	3.9	7.44e-01	0	59	104	1044381696	59	33309
2026-01-20 12:03:49.18	341.87	7.78	-45.2	-63.8	3.8	7.42e-01	0	59	104	1044381696	60	33616
2026-01-20 12:03:50.19	341.89	7.70	-45.8	-64.4	3.9	7.44e-01	0	59	104	1044381696	62	32109
2026-01-20 12:03:51.20	341.91	7.61	-46.0	-64.7	3.8	7.48e-01	0	59	104	1044381696	62	33078
