passes_logs/2026/01/20/R2.0S_Moscow/R2.0S_Moscow__20260120_035953_FENGYUN_3D_rec.log

#Pass ID: 20260120_035953_FENGYUN 3D
#Satellite: FENGYUN 3D
#Configuration: FENGYUN 3D
#almurnet v.1.7.20251203
#Start time: 2026-01-20 03:59:54

#Version: 2.2.20231116
#Station: R2.0S_Moscow
#Location: 37.707566 lon 55.798166 lat
#TLE: 1 43010U 17072A   26019.30265705  .00000224  00000+0  12791-3 0  9991
#TLE: 2 43010  98.9940 351.1850 0002428 100.8496 259.2953 14.19697535423864

#Time	Az	El	Level	Level2	SNR	BER	BlckErr	Temp	State	Recorded	gain1	gain2
2026-01-20 03:59:54.76	9.18	2.08	-39.4	-51.7	3.8	8.46e-01	0	52	0	0	50	14732
2026-01-20 03:59:55.77	9.10	2.13	-39.4	-51.6	3.8	8.46e-01	0	53	104	0	49	15569
2026-01-20 03:59:56.78	9.01	2.18	-39.4	-51.6	3.8	8.47e-01	0	53	104	0	49	15548
2026-01-20 03:59:57.79	8.93	2.23	-39.4	-51.7	3.8	8.46e-01	0	53	104	0	49	15597
2026-01-20 03:59:58.80	8.84	2.28	-39.4	-51.7	3.8	8.46e-01	0	53	104	0	49	15597
2026-01-20 03:59:59.81	8.76	2.33	-39.4	-51.7	3.8	8.46e-01	0	53	104	0	49	15616
2026-01-20 04:00:00.82	8.67	2.39	-39.4	-51.6	3.8	8.46e-01	0	53	104	0	49	15551
2026-01-20 04:00:01.83	8.58	2.44	-39.4	-51.7	3.8	8.46e-01	0	53	104	0	49	15608
2026-01-20 04:00:02.84	8.50	2.49	-39.4	-51.6	3.8	8.46e-01	0	53	104	0	49	15577
2026-01-20 04:00:03.85	8.41	2.54	-39.4	-51.7	3.8	8.46e-01	0	53	104	0	49	15581
2026-01-20 04:00:04.86	8.32	2.59	-39.4	-51.7	3.8	8.46e-01	0	53	104	0	49	15599
2026-01-20 04:00:05.87	8.23	2.64	-39.4	-51.7	3.8	8.46e-01	0	54	104	0	49	15593
2026-01-20 04:00:06.88	8.15	2.69	-39.4	-51.6	3.8	8.47e-01	0	54	104	0	49	15576
2026-01-20 04:00:07.89	8.06	2.75	-39.4	-51.7	3.8	8.47e-01	0	54	104	0	49	15597
2026-01-20 04:00:08.91	7.97	2.80	-39.4	-51.6	3.8	8.45e-01	0	54	104	0	49	15553
2026-01-20 04:00:09.92	7.88	2.85	-39.4	-51.7	3.8	8.46e-01	0	54	104	0	49	15617
2026-01-20 04:00:10.93	7.79	2.90	-39.4	-51.6	3.8	8.46e-01	0	54	104	0	49	15559
2026-01-20 04:00:11.94	7.70	2.95	-39.4	-51.6	3.8	8.47e-01	0	54	104	0	49	15564
2026-01-20 04:00:12.95	7.61	3.00	-39.4	-51.6	3.8	8.47e-01	0	54	104	0	49	15565
2026-01-20 04:00:13.96	7.52	3.06	-39.4	-51.6	3.8	8.46e-01	0	54	104	0	49	15573
2026-01-20 04:00:14.97	7.43	3.11	-39.4	-51.7	3.8	8.46e-01	0	54	104	0	49	15609
2026-01-20 04:00:15.98	7.34	3.16	-39.4	-51.7	3.8	8.46e-01	0	54	104	0	49	15581
2026-01-20 04:00:16.99	7.25	3.21	-39.4	-51.6	3.8	8.47e-01	0	54	104	0	49	15545
2026-01-20 04:00:18.00	7.15	3.26	-39.4	-51.6	3.8	8.47e-01	0	54	104	0	49	15533
2026-01-20 04:00:19.01	7.06	3.32	-39.4	-51.7	3.8	8.47e-01	0	55	104	0	49	15586
2026-01-20 04:00:20.02	6.97	3.37	-39.4	-51.7	3.8	8.46e-01	0	54	104	0	49	15582
2026-01-20 04:00:21.03	6.88	3.42	-39.4	-51.6	3.8	8.47e-01	0	54	104	0	49	15539
2026-01-20 04:00:22.04	6.78	3.47	-39.4	-51.6	3.8	8.46e-01	0	55	104	0	49	15576
2026-01-20 04:00:23.05	6.69	3.52	-39.4	-51.6	3.8	8.47e-01	0	55	104	0	49	15568
2026-01-20 04:00:24.06	6.60	3.58	-39.4	-51.6	3.8	8.45e-01	0	55	104	0	49	15566
2026-01-20 04:00:25.07	6.50	3.63	-39.4	-51.6	3.8	8.46e-01	0	55	104	0	49	15554
2026-01-20 04:00:26.08	6.41	3.68	-39.4	-51.6	3.8	8.46e-01	0	55	104	0	49	15551
2026-01-20 04:00:27.09	6.31	3.73	-39.4	-51.6	3.8	8.46e-01	0	55	104	0	49	15558
2026-01-20 04:00:28.10	6.22	3.78	-39.4	-51.6	3.8	8.45e-01	0	55	104	0	49	15541
2026-01-20 04:00:29.11	6.12	3.84	-39.4	-51.7	3.8	8.46e-01	0	55	104	0	49	15623
2026-01-20 04:00:30.12	6.03	3.89	-39.4	-51.6	3.8	8.45e-01	0	55	104	0	49	15566
2026-01-20 04:00:31.13	5.93	3.94	-39.4	-51.6	3.8	8.45e-01	0	55	104	0	49	15578
2026-01-20 04:00:32.14	5.84	3.99	-39.4	-51.6	3.8	8.47e-01	0	55	104	0	49	15570
2026-01-20 04:00:33.16	5.74	4.05	-39.4	-51.6	3.8	8.46e-01	0	55	104	0	49	15510
2026-01-20 04:00:34.17	5.64	4.10	-39.4	-51.6	3.8	8.47e-01	0	55	104	0	49	15559
2026-01-20 04:00:35.18	5.54	4.15	-39.4	-51.6	3.8	8.45e-01	0	55	104	0	49	15575
2026-01-20 04:00:36.19	5.44	4.20	-39.4	-51.6	3.8	8.46e-01	0	55	104	0	49	15554
2026-01-20 04:00:37.20	5.35	4.25	-39.4	-51.6	3.8	8.46e-01	0	56	104	0	49	15530
2026-01-20 04:00:38.21	5.25	4.31	-39.4	-51.6	3.8	8.45e-01	0	56	104	0	49	15544
2026-01-20 04:00:39.22	5.15	4.36	-39.4	-51.6	3.8	8.46e-01	0	56	104	0	49	15527
2026-01-20 04:00:40.23	5.05	4.41	-39.4	-51.6	3.8	8.46e-01	0	56	104	0	49	15531
2026-01-20 04:00:41.24	4.95	4.46	-39.4	-51.6	3.8	8.46e-01	0	56	104	0	49	15546
2026-01-20 04:00:42.25	4.85	4.52	-39.4	-51.6	3.8	8.46e-01	0	56	104	0	49	15560
2026-01-20 04:00:43.26	4.75	4.57	-39.4	-51.6	3.8	8.47e-01	0	56	104	0	49	15563
2026-01-20 04:00:44.27	4.65	4.62	-39.4	-51.6	3.8	8.46e-01	0	56	104	0	49	15546
2026-01-20 04:00:45.28	4.55	4.67	-39.4	-51.7	3.8	8.47e-01	0	56	104	0	49	15594
2026-01-20 04:00:46.29	4.44	4.73	-39.4	-51.6	3.8	8.45e-01	0	56	104	0	49	15538
2026-01-20 04:00:47.30	4.34	4.78	-39.4	-51.6	3.8	8.46e-01	0	56	104	0	49	15572
2026-01-20 04:00:48.31	4.24	4.83	-39.4	-51.6	3.8	8.47e-01	0	56	104	0	49	15538
2026-01-20 04:00:49.32	4.14	4.88	-39.3	-51.7	3.8	8.46e-01	0	56	104	0	49	15593
2026-01-20 04:00:50.33	4.03	4.94	-39.4	-51.6	3.8	8.47e-01	0	56	104	0	49	15551
2026-01-20 04:00:51.35	3.93	4.99	-39.4	-51.6	3.8	8.46e-01	0	56	104	0	49	15537
2026-01-20 04:00:52.35	3.83	5.04	-39.4	-51.6	3.8	8.47e-01	0	57	104	0	49	15529
2026-01-20 04:00:53.37	3.72	5.09	-39.4	-51.6	3.8	8.47e-01	0	56	104	0	49	15576
2026-01-20 04:00:54.38	3.62	5.15	-39.4	-51.6	3.8	8.46e-01	0	56	104	0	49	15560
2026-01-20 04:00:55.39	3.51	5.20	-39.4	-51.7	3.8	8.47e-01	0	56	104	0	49	15623
2026-01-20 04:00:56.40	3.40	5.25	-39.4	-51.6	3.8	8.46e-01	0	57	104	0	49	15535
2026-01-20 04:00:57.40	3.30	5.31	-39.4	-51.6	3.8	8.47e-01	0	57	104	0	49	15527
2026-01-20 04:00:58.41	3.19	5.36	-39.4	-51.6	3.8	8.47e-01	0	57	104	0	49	15546
2026-01-20 04:00:59.42	3.09	5.41	-39.4	-51.6	3.8	8.46e-01	0	57	104	0	49	15493
2026-01-20 04:01:00.43	2.98	5.46	-39.4	-51.6	3.8	8.46e-01	0	57	104	0	49	15536
2026-01-20 04:01:01.44	2.87	5.52	-39.4	-51.6	3.8	8.46e-01	0	57	104	0	49	15516
2026-01-20 04:01:02.46	2.76	5.57	-39.4	-51.6	3.8	8.46e-01	0	57	104	0	49	15548
2026-01-20 04:01:03.47	2.65	5.62	-39.4	-51.6	3.8	8.46e-01	0	57	104	0	49	15566
2026-01-20 04:01:04.48	2.55	5.67	-39.4	-51.6	3.8	8.47e-01	0	57	104	0	49	15531
2026-01-20 04:01:05.49	2.44	5.73	-39.4	-51.6	3.8	8.46e-01	0	57	104	0	49	15562
2026-01-20 04:01:06.50	2.33	5.78	-39.4	-51.6	3.8	8.46e-01	0	57	104	0	49	15493
2026-01-20 04:01:07.51	2.22	5.83	-39.4	-51.6	3.8	8.45e-01	0	57	104	0	49	15537
2026-01-20 04:01:08.52	2.11	5.89	-39.4	-51.6	3.8	8.46e-01	0	57	104	0	49	15535
2026-01-20 04:01:09.53	2.00	5.94	-39.4	-51.6	3.8	8.47e-01	0	57	104	0	49	15538
2026-01-20 04:01:10.54	1.88	5.99	-39.4	-51.6	3.8	8.45e-01	0	57	104	0	49	15536
2026-01-20 04:01:11.55	1.77	6.04	-39.4	-51.6	3.8	8.47e-01	0	57	104	0	49	15532
2026-01-20 04:01:12.56	1.66	6.10	-39.4	-51.6	3.8	8.47e-01	0	57	104	0	49	15510
2026-01-20 04:01:13.57	1.55	6.15	-39.4	-51.6	3.8	8.45e-01	0	57	104	0	49	15521
2026-01-20 04:01:14.58	1.44	6.20	-39.4	-51.6	3.8	8.46e-01	0	57	104	0	49	15529
2026-01-20 04:01:15.59	1.32	6.26	-39.4	-51.6	3.8	8.46e-01	0	57	104	0	49	15513
2026-01-20 04:01:16.60	1.21	6.31	-39.4	-51.6	3.8	8.45e-01	0	57	104	0	49	15532
2026-01-20 04:01:17.62	1.09	6.36	-39.4	-51.6	3.8	8.46e-01	0	58	104	0	49	15482
2026-01-20 04:01:18.63	0.98	6.41	-39.4	-51.6	3.8	8.46e-01	0	57	104	0	49	15530
2026-01-20 04:01:19.63	0.86	6.47	-39.4	-51.6	3.8	8.46e-01	0	57	104	0	49	15555
2026-01-20 04:01:20.65	0.75	6.52	-39.4	-51.6	3.8	8.46e-01	0	57	104	0	49	15500
2026-01-20 04:01:21.66	0.63	6.57	-39.4	-51.6	3.8	8.46e-01	0	57	104	0	49	15511
2026-01-20 04:01:22.67	0.52	6.63	-39.4	-51.6	3.8	8.46e-01	0	58	104	0	49	15565
2026-01-20 04:01:23.68	0.40	6.68	-39.3	-51.6	3.8	8.45e-01	0	58	104	0	49	15532
2026-01-20 04:01:24.69	0.28	6.73	-39.4	-51.6	3.8	8.45e-01	0	58	104	0	49	15535
2026-01-20 04:01:25.70	0.16	6.78	-39.4	-51.6	3.8	8.47e-01	0	57	104	0	49	15506
2026-01-20 04:01:26.71	0.05	6.84	-39.4	-51.6	3.8	8.46e-01	0	58	104	0	49	15509
2026-01-20 04:01:27.72	359.93	6.89	-39.4	-51.6	3.8	8.47e-01	0	58	104	0	49	15529
2026-01-20 04:01:28.73	359.81	6.94	-39.4	-51.6	3.8	8.45e-01	0	58	104	0	49	15546
2026-01-20 04:01:29.74	359.69	7.00	-39.4	-51.6	3.8	8.47e-01	0	58	104	0	49	15531
2026-01-20 04:01:30.75	359.57	7.05	-39.4	-51.6	3.8	8.46e-01	0	58	104	0	49	15550
2026-01-20 04:01:31.76	359.45	7.10	-39.4	-51.6	3.8	8.45e-01	0	58	104	0	49	15574
2026-01-20 04:01:32.77	359.33	7.15	-39.4	-51.6	3.8	8.46e-01	0	58	104	0	49	15548
2026-01-20 04:01:33.78	359.21	7.21	-39.4	-51.6	3.8	8.46e-01	0	58	104	0	49	15522
2026-01-20 04:01:34.79	359.08	7.26	-39.4	-51.6	3.8	8.45e-01	0	58	104	0	49	15507
2026-01-20 04:01:35.80	358.96	7.31	-39.4	-51.6	3.8	8.47e-01	0	58	104	0	49	15532
2026-01-20 04:01:36.81	358.84	7.36	-39.4	-51.6	3.8	8.45e-01	0	58	104	0	49	15502
2026-01-20 04:01:37.82	358.72	7.42	-39.4	-51.6	3.8	8.47e-01	0	58	104	0	49	15572
2026-01-20 04:01:38.83	358.59	7.47	-39.4	-51.6	3.8	8.46e-01	0	58	104	0	49	15514
2026-01-20 04:01:39.84	358.47	7.52	-39.4	-51.6	3.8	8.46e-01	0	58	104	0	49	15548
2026-01-20 04:01:40.85	358.34	7.57	-39.4	-51.7	3.8	8.47e-01	0	58	104	0	49	15582
2026-01-20 04:01:41.86	358.22	7.63	-39.4	-51.7	3.8	8.46e-01	0	58	104	0	49	15591
2026-01-20 04:01:42.87	358.09	7.68	-39.4	-51.6	3.8	8.45e-01	0	58	104	0	49	15558
2026-01-20 04:01:43.88	357.97	7.73	-39.4	-51.6	3.8	8.46e-01	0	58	104	0	49	15492
2026-01-20 04:01:44.89	357.84	7.78	-39.4	-51.6	3.8	8.46e-01	0	58	104	0	49	15518
2026-01-20 04:01:45.91	357.71	7.84	-39.4	-51.6	3.8	8.48e-01	0	58	104	0	49	15573
2026-01-20 04:01:46.91	357.59	7.89	-39.4	-51.6	3.8	8.47e-01	0	58	104	0	49	15542
2026-01-20 04:01:47.93	357.46	7.94	-39.4	-51.6	3.8	8.46e-01	0	58	104	0	49	15576
2026-01-20 04:01:48.94	357.33	7.99	-39.4	-51.6	3.8	8.47e-01	0	59	104	0	49	15559
2026-01-20 04:01:49.95	357.20	8.05	-39.4	-51.6	3.8	8.45e-01	0	58	104	0	49	15577
2026-01-20 04:01:50.96	357.07	8.10	-39.4	-51.6	3.8	8.46e-01	0	58	104	0	49	15563
2026-01-20 04:01:51.97	356.94	8.15	-39.5	-51.8	3.8	8.46e-01	0	59	104	0	49	15809
2026-01-20 04:01:52.98	356.81	8.20	-39.8	-51.7	3.8	8.46e-01	0	59	104	0	50	14728
2026-01-20 04:01:53.99	356.68	8.26	-39.7	-51.8	3.8	8.47e-01	0	59	104	0	50	14976
2026-01-20 04:01:54.99	356.55	8.31	-39.5	-51.7	3.8	8.46e-01	0	59	104	0	50	14849
2026-01-20 04:01:56.00	356.42	8.36	-39.7	-51.8	3.8	8.47e-01	0	59	104	0	50	14923
2026-01-20 04:01:57.01	356.29	8.41	-39.7	-51.7	3.8	8.47e-01	0	59	104	0	50	14786
2026-01-20 04:01:58.02	356.16	8.46	-39.9	-51.8	3.8	8.46e-01	0	59	104	0	50	15028
2026-01-20 04:01:59.03	356.02	8.52	-39.6	-51.7	3.8	8.46e-01	0	59	104	0	50	14768
2026-01-20 04:02:00.04	355.89	8.57	-39.7	-51.7	3.8	8.46e-01	0	59	104	0	50	14862
2026-01-20 04:02:01.05	355.76	8.62	-39.8	-51.8	3.8	8.47e-01	0	59	104	0	50	14881
2026-01-20 04:02:02.06	355.62	8.67	-40.0	-51.9	3.8	8.45e-01	0	59	104	0	50	15092
2026-01-20 04:02:03.07	355.49	8.72	-39.7	-51.7	3.8	8.45e-01	0	59	104	0	50	14824
2026-01-20 04:02:04.08	355.35	8.78	-40.0	-51.9	3.8	8.46e-01	0	59	104	0	50	15130
2026-01-20 04:02:05.09	355.21	8.83	-40.0	-51.8	3.8	8.46e-01	0	59	104	0	50	15008
2026-01-20 04:02:06.10	355.08	8.88	-40.2	-51.9	3.8	8.45e-01	0	59	104	0	50	15152
2026-01-20 04:02:07.11	354.94	8.93	-39.8	-51.7	3.8	8.46e-01	0	59	104	0	50	14874
2026-01-20 04:02:08.12	354.80	8.98	-40.2	-51.9	3.8	8.45e-01	0	59	104	0	51	14349
2026-01-20 04:02:09.13	354.67	9.03	-40.1	-51.9	3.8	8.46e-01	0	59	104	0	51	14295
2026-01-20 04:02:10.14	354.53	9.09	-40.2	-51.9	3.8	8.46e-01	0	59	104	0	51	14331
2026-01-20 04:02:11.15	354.39	9.14	-40.0	-51.8	3.8	8.47e-01	0	59	104	0	51	14145
2026-01-20 04:02:12.16	354.25	9.19	-40.3	-52.0	3.8	8.47e-01	0	59	104	0	51	14498
2026-01-20 04:02:13.17	354.11	9.24	-40.2	-52.0	3.8	8.47e-01	0	59	104	0	51	14381
2026-01-20 04:02:14.18	353.97	9.29	-40.4	-52.0	3.8	8.47e-01	0	59	104	0	51	14507
2026-01-20 04:02:15.18	353.83	9.34	-40.1	-51.9	3.8	8.46e-01	0	59	104	0	51	14251
2026-01-20 04:02:16.19	353.69	9.39	-40.3	-52.0	3.8	8.46e-01	0	59	104	0	51	14530
2026-01-20 04:02:17.21	353.54	9.45	-40.3	-52.0	3.8	8.46e-01	0	59	104	0	51	14448
2026-01-20 04:02:18.22	353.40	9.50	-40.5	-52.2	3.8	8.46e-01	0	59	104	0	51	14827
2026-01-20 04:02:19.23	353.26	9.55	-40.2	-51.9	3.8	8.46e-01	0	59	104	0	51	14353
2026-01-20 04:02:20.24	353.11	9.60	-40.4	-52.0	3.8	8.47e-01	0	59	104	0	51	14526
2026-01-20 04:02:21.24	352.97	9.65	-40.4	-52.1	3.8	8.46e-01	0	59	104	0	51	14658
2026-01-20 04:02:22.25	352.83	9.70	-40.5	-52.3	3.8	8.46e-01	0	59	104	0	51	15017
2026-01-20 04:02:23.26	352.68	9.75	-40.4	-52.0	3.8	8.46e-01	0	59	104	0	51	14495
2026-01-20 04:02:24.27	352.54	9.80	-40.4	-52.2	3.8	8.47e-01	0	60	104	0	51	14750
2026-01-20 04:02:25.28	352.39	9.85	-40.5	-52.2	3.8	8.47e-01	0	59	104	0	51	14856
2026-01-20 04:02:26.29	352.24	9.90	-40.3	-52.2	3.8	8.46e-01	0	59	104	0	51	14856
2026-01-20 04:02:27.30	352.10	9.95	-40.5	-52.2	3.8	8.46e-01	0	59	104	0	51	14838
2026-01-20 04:02:28.31	351.95	10.00	-40.4	-52.3	3.8	8.46e-01	0	59	104	0	51	14897
2026-01-20 04:02:29.32	351.80	10.05	-40.5	-52.3	3.8	8.46e-01	0	59	104	0	51	14955
2026-01-20 04:02:30.33	351.65	10.10	-40.4	-52.2	3.8	8.46e-01	0	59	104	0	51	14848
2026-01-20 04:02:31.34	351.50	10.15	-40.4	-52.3	3.8	8.46e-01	0	59	104	0	51	14912
2026-01-20 04:02:32.35	351.35	10.20	-40.3	-52.2	3.8	8.46e-01	0	60	104	0	51	14839
2026-01-20 04:02:33.36	351.20	10.25	-40.7	-52.4	3.8	8.46e-01	0	60	104	0	52	14353
2026-01-20 04:02:34.37	351.05	10.30	-40.6	-52.3	3.8	8.46e-01	0	59	104	0	52	14151
2026-01-20 04:02:35.38	350.90	10.35	-40.2	-52.1	3.8	8.47e-01	0	60	104	0	52	13763
2026-01-20 04:02:36.39	350.75	10.40	-40.6	-52.4	3.8	8.46e-01	0	59	104	0	52	14232
2026-01-20 04:02:37.40	350.60	10.45	-40.8	-52.5	3.8	8.46e-01	0	60	104	0	52	14407
2026-01-20 04:02:38.41	350.44	10.50	-40.6	-52.4	3.8	8.46e-01	0	60	104	0	52	14236
2026-01-20 04:02:39.42	350.29	10.55	-40.5	-52.3	3.8	8.46e-01	0	60	104	0	52	14122
2026-01-20 04:02:40.43	350.13	10.60	-40.7	-52.4	3.8	8.46e-01	0	60	104	0	52	14360
2026-01-20 04:02:41.44	349.98	10.65	-40.6	-52.3	3.8	8.46e-01	0	60	104	0	52	14113
2026-01-20 04:02:42.44	349.83	10.70	-40.6	-52.4	3.8	8.46e-01	0	60	104	0	52	14302
2026-01-20 04:02:43.45	349.67	10.75	-40.7	-52.4	3.8	8.46e-01	0	60	104	0	52	14322
2026-01-20 04:02:44.46	349.51	10.80	-40.7	-52.4	3.8	8.46e-01	0	60	104	0	52	14353
2026-01-20 04:02:45.47	349.36	10.84	-40.8	-52.5	3.8	8.45e-01	0	60	104	0	52	14474
2026-01-20 04:02:46.48	349.20	10.89	-40.8	-52.6	3.8	8.46e-01	0	60	104	0	52	14617
2026-01-20 04:02:47.49	349.04	10.94	-40.7	-52.5	3.8	8.46e-01	0	60	104	0	52	14421
2026-01-20 04:02:48.50	348.88	10.99	-40.9	-52.7	3.8	8.46e-01	0	60	104	0	52	14717
2026-01-20 04:02:49.51	348.73	11.04	-41.0	-52.7	3.8	8.47e-01	0	60	104	0	52	14799
2026-01-20 04:02:50.52	348.57	11.09	-40.9	-52.7	3.8	8.45e-01	0	60	104	0	52	14787
2026-01-20 04:02:51.54	348.41	11.13	-40.9	-52.6	3.8	8.45e-01	0	60	104	0	52	14673
2026-01-20 04:02:52.55	348.24	11.18	-40.9	-52.7	3.8	8.46e-01	0	60	104	0	52	14789
2026-01-20 04:02:53.55	348.09	11.23	-41.0	-52.7	3.8	8.46e-01	0	60	104	0	52	14791
2026-01-20 04:02:54.56	347.92	11.28	-40.9	-52.7	3.8	8.46e-01	0	60	104	0	52	14835
2026-01-20 04:02:55.57	347.76	11.32	-40.9	-52.7	3.8	8.46e-01	0	60	104	0	52	14779
2026-01-20 04:02:56.58	347.60	11.37	-41.0	-52.8	3.8	8.46e-01	0	60	104	0	52	14905
2026-01-20 04:02:57.59	347.44	11.42	-41.1	-52.8	3.8	8.46e-01	0	60	104	0	52	14918
2026-01-20 04:02:58.60	347.27	11.47	-41.1	-52.8	3.8	8.46e-01	0	60	104	0	52	14941
2026-01-20 04:02:59.61	347.11	11.51	-41.0	-52.8	3.8	8.46e-01	0	60	104	0	52	14905
2026-01-20 04:03:00.62	346.94	11.56	-41.1	-52.8	3.8	8.46e-01	0	60	104	0	52	14950
2026-01-20 04:03:01.63	346.78	11.61	-41.0	-52.7	3.8	8.45e-01	0	60	104	0	52	14800
2026-01-20 04:03:02.64	346.61	11.65	-41.1	-52.8	3.8	8.46e-01	0	60	104	0	52	15003
2026-01-20 04:03:03.65	346.45	11.70	-41.1	-52.8	3.8	8.46e-01	0	60	104	0	52	14950
2026-01-20 04:03:04.66	346.28	11.75	-40.9	-52.7	3.8	8.46e-01	0	60	104	0	52	14718
2026-01-20 04:03:05.67	346.11	11.79	-40.7	-52.5	3.8	8.46e-01	0	60	104	0	52	14394
2026-01-20 04:03:06.68	345.94	11.84	-41.0	-52.7	3.8	8.46e-01	0	60	104	0	52	14737
2026-01-20 04:03:07.69	345.78	11.88	-40.9	-52.6	3.8	8.46e-01	0	60	104	0	52	14652
2026-01-20 04:03:08.70	345.61	11.93	-40.7	-52.5	3.8	8.46e-01	0	60	104	0	52	14424
2026-01-20 04:03:09.70	345.44	11.97	-40.6	-52.5	3.8	8.46e-01	0	60	104	0	52	14386
2026-01-20 04:03:10.71	345.27	12.02	-40.7	-52.4	3.8	8.47e-01	0	60	104	0	52	14345
2026-01-20 04:03:11.72	345.10	12.06	-40.7	-52.5	3.8	8.46e-01	0	60	104	0	52	14395
2026-01-20 04:03:12.73	344.93	12.11	-40.8	-52.6	3.8	8.46e-01	0	60	104	0	52	14565
2026-01-20 04:03:13.74	344.76	12.15	-40.6	-52.3	3.8	8.47e-01	0	60	104	0	52	14203
2026-01-20 04:03:14.75	344.58	12.20	-40.5	-52.4	3.8	8.46e-01	0	60	104	0	52	14212
2026-01-20 04:03:15.76	344.41	12.24	-40.7	-52.6	3.8	8.46e-01	0	60	104	0	52	14551
2026-01-20 04:03:16.77	344.24	12.29	-40.8	-52.4	3.8	8.46e-01	0	60	104	0	52	14350
2026-01-20 04:03:17.78	344.06	12.33	-40.5	-52.2	3.8	8.46e-01	0	60	104	0	52	14003
2026-01-20 04:03:18.79	343.89	12.38	-40.5	-52.3	3.8	8.47e-01	0	60	104	0	52	14183
2026-01-20 04:03:19.80	343.71	12.42	-40.7	-52.4	3.8	8.45e-01	0	60	104	0	52	14336
2026-01-20 04:03:20.81	343.54	12.46	-40.6	-52.3	3.8	8.45e-01	0	60	104	0	52	14095
2026-01-20 04:03:21.82	343.36	12.51	-40.5	-52.3	3.8	8.46e-01	0	60	104	0	52	14049
2026-01-20 04:03:22.83	343.19	12.55	-40.5	-52.2	3.8	8.47e-01	0	60	104	0	52	13987
2026-01-20 04:03:23.84	343.01	12.59	-40.8	-52.3	3.8	8.46e-01	0	60	104	0	52	14205
2026-01-20 04:03:24.85	342.83	12.64	-40.7	-52.3	3.8	8.45e-01	0	60	104	0	52	14166
2026-01-20 04:03:25.86	342.65	12.68	-40.3	-52.2	3.8	8.46e-01	0	60	104	0	52	13910
2026-01-20 04:03:26.87	342.48	12.72	-40.6	-52.3	3.8	8.46e-01	0	60	104	0	52	14088
2026-01-20 04:03:27.88	342.30	12.76	-40.8	-52.4	3.8	8.46e-01	0	60	104	0	52	14321
2026-01-20 04:03:28.88	342.12	12.80	-40.5	-52.2	3.8	8.46e-01	0	60	104	0	52	13967
2026-01-20 04:03:29.89	341.94	12.85	-40.5	-52.2	3.8	8.45e-01	0	60	104	0	52	13970
2026-01-20 04:03:30.90	341.76	12.89	-40.5	-52.2	3.8	8.45e-01	0	60	104	0	52	14012
2026-01-20 04:03:31.91	341.58	12.93	-40.6	-52.3	3.8	8.46e-01	0	61	104	0	52	14127
2026-01-20 04:03:32.92	341.39	12.97	-40.6	-52.3	3.8	8.45e-01	0	61	104	0	52	14054
2026-01-20 04:03:33.93	341.21	13.01	-40.8	-52.5	3.8	8.47e-01	0	60	104	0	52	14395
2026-01-20 04:03:34.94	341.03	13.05	-40.3	-52.1	3.8	8.46e-01	0	60	104	0	52	13871
2026-01-20 04:03:35.95	340.85	13.09	-40.7	-52.5	3.8	8.45e-01	0	61	104	0	52	14433
2026-01-20 04:03:36.96	340.66	13.13	-40.9	-52.4	3.8	8.46e-01	0	61	104	0	52	14363
2026-01-20 04:03:37.97	340.48	13.17	-41.1	-52.2	3.8	8.46e-01	0	61	104	0	52	14021
2026-01-20 04:03:38.98	340.29	13.21	-40.6	-52.3	3.8	8.46e-01	0	61	104	0	52	14050
2026-01-20 04:03:39.99	340.11	13.25	-41.0	-52.7	3.8	8.45e-01	0	61	104	0	52	14775
2026-01-20 04:03:41.00	339.92	13.29	-41.1	-52.4	3.8	8.46e-01	0	61	104	0	52	14214
2026-01-20 04:03:42.01	339.74	13.33	-41.5	-49.4	4.4	8.34e-01	0	61	0	0	53	9580
2026-01-20 04:03:43.02	339.55	13.37	-40.8	-52.3	3.8	8.45e-01	0	61	104	0	53	13319
2026-01-20 04:03:44.03	339.36	13.41	-40.8	-46.6	5.9	8.38e-01	0	61	104	0	53	6908
2026-01-20 04:03:45.04	339.17	13.45	-40.5	-45.2	7.4	1.69e-01	0	60	0	5242880	53	5881
2026-01-20 04:03:46.05	338.99	13.48	-40.2	-44.1	8.7	6.44e-02	0	61	0	10485760	52	5503
2026-01-20 04:03:47.06	338.80	13.52	-39.5	-43.1	9.5	2.22e-02	0	61	0	16777216	51	5199
2026-01-20 04:03:48.07	338.61	13.56	-39.5	-42.6	10.6	8.39e-03	0	61	0	22020096	51	4913
2026-01-20 04:03:49.07	338.42	13.60	-39.0	-41.7	11.7	1.10e-03	0	61	0	28311552	50	4678
2026-01-20 04:03:50.09	338.23	13.63	-38.6	-41.0	12.5	3.25e-04	0	61	0	33554432	49	4580
2026-01-20 04:03:51.10	338.04	13.67	-38.4	-40.8	12.9	6.63e-05	0	61	0	38797312	48	4708
2026-01-20 04:03:52.11	337.85	13.71	-38.3	-40.5	13.2	3.43e-05	0	61	0	45088768	48	4596
2026-01-20 04:03:53.12	337.65	13.74	-38.9	-41.3	12.6	8.01e-05	0	60	0	50331648	48	4997
2026-01-20 04:03:54.12	337.46	13.78	-39.1	-41.5	12.5	1.91e-04	0	61	0	56623104	48	5120
2026-01-20 04:03:55.14	337.27	13.82	-38.6	-40.8	13.3	4.23e-05	0	61	0	61865984	48	4708
2026-01-20 04:03:56.15	337.08	13.85	-38.5	-40.7	13.4	1.02e-05	0	61	0	67108864	48	4682
2026-01-20 04:03:57.16	336.88	13.89	-38.6	-40.8	13.4	2.63e-05	0	61	0	73400320	48	4733
2026-01-20 04:03:58.16	336.69	13.92	-38.3	-40.4	13.8	1.14e-05	0	61	0	78643200	48	4528
2026-01-20 04:03:59.17	336.50	13.96	-38.0	-40.0	14.3	1.10e-06	0	61	0	84934656	48	4298
2026-01-20 04:04:00.18	336.30	13.99	-38.2	-40.2	14.1	2.20e-06	0	61	0	90177536	48	4409
2026-01-20 04:04:01.19	336.11	14.03	-38.2	-40.2	14.1	4.50e-06	0	61	0	95420416	48	4413
2026-01-20 04:04:02.20	335.91	14.06	-38.1	-40.1	14.3	1.10e-06	0	61	0	101711872	48	4359
2026-01-20 04:04:03.21	335.71	14.09	-38.3	-40.4	14.0	2.20e-06	0	61	0	106954752	48	4502
2026-01-20 04:04:04.22	335.52	14.13	-38.2	-40.2	14.2	0.00e+00	0	61	0	113246208	48	4411
2026-01-20 04:04:05.23	335.32	14.16	-38.3	-40.3	14.1	2.20e-06	0	61	0	118489088	48	4490
2026-01-20 04:04:06.24	335.12	14.19	-38.3	-40.2	14.3	1.10e-06	0	61	0	124780544	48	4440
2026-01-20 04:04:07.25	334.92	14.22	-38.3	-40.2	14.3	2.20e-06	0	61	0	130023424	48	4435
2026-01-20 04:04:08.26	334.73	14.26	-38.1	-40.0	14.6	0.00e+00	0	61	0	136314880	48	4308
2026-01-20 04:04:09.27	334.53	14.29	-38.0	-39.9	14.7	1.10e-06	0	61	0	141557760	48	4275
2026-01-20 04:04:10.28	334.33	14.32	-38.2	-40.2	14.4	0.00e+00	0	61	0	146800640	48	4396
2026-01-20 04:04:11.29	334.13	14.35	-38.2	-40.2	14.4	1.10e-06	0	61	0	153092096	48	4403
2026-01-20 04:04:12.30	333.93	14.38	-38.3	-40.3	14.3	3.40e-06	0	61	0	158334976	48	4471
2026-01-20 04:04:13.31	333.73	14.41	-38.3	-40.3	14.3	4.50e-06	0	61	0	164626432	48	4466
2026-01-20 04:04:14.32	333.52	14.44	-38.2	-40.1	14.6	3.40e-06	0	61	0	169869312	48	4353
2026-01-20 04:04:15.32	333.32	14.47	-38.1	-40.0	14.7	0.00e+00	0	61	0	175112192	48	4297
2026-01-20 04:04:16.34	333.12	14.50	-38.0	-39.9	14.8	0.00e+00	0	61	0	181403648	48	4243
2026-01-20 04:04:17.34	332.92	14.53	-38.0	-39.9	14.8	0.00e+00	0	61	0	186646528	48	4254
2026-01-20 04:04:18.36	332.72	14.56	-38.1	-39.9	14.7	0.00e+00	0	61	0	192937984	48	4289
2026-01-20 04:04:19.37	332.51	14.59	-38.1	-39.9	14.8	0.00e+00	0	61	0	198180864	48	4282
2026-01-20 04:04:20.38	332.31	14.62	-38.1	-40.0	14.7	1.10e-06	0	61	0	203423744	48	4316
2026-01-20 04:04:21.39	332.10	14.65	-38.1	-40.0	14.7	0.00e+00	0	61	0	209715200	48	4332
2026-01-20 04:04:22.40	331.90	14.67	-38.2	-40.1	14.7	2.20e-06	0	61	0	214958080	48	4346
2026-01-20 04:04:23.41	331.70	14.70	-38.2	-40.0	14.7	0.00e+00	0	61	0	221249536	48	4335
2026-01-20 04:04:24.41	331.49	14.73	-38.1	-40.0	14.7	0.00e+00	0	61	0	226492416	48	4322
2026-01-20 04:04:25.42	331.29	14.75	-38.2	-40.1	14.7	1.10e-06	0	61	0	232783872	48	4355
2026-01-20 04:04:26.43	331.08	14.78	-38.2	-40.1	14.7	0.00e+00	0	61	0	238026752	48	4361
2026-01-20 04:04:27.44	330.87	14.81	-38.2	-40.1	14.7	0.00e+00	0	61	0	243269632	48	4367
2026-01-20 04:04:28.45	330.67	14.83	-38.2	-40.1	14.7	1.10e-06	0	61	0	249561088	48	4371
2026-01-20 04:04:29.46	330.46	14.86	-38.2	-40.1	14.7	0.00e+00	0	61	0	254803968	48	4359
2026-01-20 04:04:30.47	330.25	14.88	-38.2	-40.1	14.7	0.00e+00	0	61	0	261095424	48	4363
2026-01-20 04:04:31.48	330.05	14.91	-38.1	-40.0	14.8	0.00e+00	0	61	0	266338304	48	4314
2026-01-20 04:04:32.49	329.84	14.93	-38.1	-40.0	14.9	0.00e+00	0	61	0	271581184	48	4297
2026-01-20 04:04:33.50	329.63	14.96	-38.1	-39.9	14.9	0.00e+00	0	61	0	277872640	48	4274
2026-01-20 04:04:34.51	329.42	14.98	-38.1	-39.9	14.9	1.10e-06	0	61	0	283115520	48	4261
2026-01-20 04:04:35.52	329.21	15.00	-37.9	-39.7	15.0	0.00e+00	0	61	0	289406976	47	4412
2026-01-20 04:04:36.53	329.00	15.02	-37.9	-39.7	15.0	0.00e+00	0	61	0	294649856	47	4399
2026-01-20 04:04:37.54	328.79	15.05	-37.8	-39.6	15.1	0.00e+00	0	61	0	299892736	47	4356
2026-01-20 04:04:38.55	328.58	15.07	-37.8	-39.6	15.1	0.00e+00	0	61	0	306184192	47	4371
2026-01-20 04:04:39.56	328.37	15.09	-37.9	-39.7	15.0	0.00e+00	0	61	0	311427072	47	4432
2026-01-20 04:04:40.56	328.16	15.11	-38.0	-39.8	14.9	0.00e+00	0	61	0	317718528	47	4470
2026-01-20 04:04:41.57	327.95	15.13	-38.0	-39.9	14.9	0.00e+00	0	61	0	322961408	47	4496
2026-01-20 04:04:42.58	327.74	15.15	-37.9	-39.7	15.0	0.00e+00	0	61	0	329252864	47	4419
2026-01-20 04:04:43.59	327.53	15.17	-37.9	-39.7	15.0	0.00e+00	0	61	0	334495744	47	4424
2026-01-20 04:04:44.60	327.32	15.19	-37.9	-39.7	15.0	0.00e+00	0	61	0	340787200	47	4418
2026-01-20 04:04:45.61	327.11	15.21	-37.9	-39.7	15.0	0.00e+00	0	61	0	346030080	47	4439
2026-01-20 04:04:46.62	326.89	15.23	-37.9	-39.8	15.0	0.00e+00	0	61	0	351272960	47	4445
2026-01-20 04:04:47.63	326.68	15.25	-37.9	-39.7	15.1	0.00e+00	0	61	0	357564416	47	4405
2026-01-20 04:04:48.64	326.47	15.27	-37.8	-39.6	15.2	0.00e+00	0	61	0	362807296	47	4362
2026-01-20 04:04:49.64	326.26	15.29	-37.8	-39.6	15.2	0.00e+00	0	61	0	368050176	47	4355
2026-01-20 04:04:50.65	326.04	15.31	-37.8	-39.6	15.2	1.10e-06	0	61	0	374341632	47	4358
2026-01-20 04:04:51.66	325.83	15.32	-37.9	-39.7	15.1	0.00e+00	0	61	0	379584512	47	4399
2026-01-20 04:04:52.68	325.61	15.34	-37.8	-39.6	15.2	0.00e+00	0	61	0	385875968	47	4352
2026-01-20 04:04:53.68	325.40	15.36	-37.8	-39.6	15.2	0.00e+00	0	61	0	391118848	47	4357
2026-01-20 04:04:54.69	325.19	15.37	-37.9	-39.7	15.1	0.00e+00	0	61	0	396361728	47	4425
2026-01-20 04:04:55.70	324.97	15.39	-38.0	-39.9	14.9	0.00e+00	0	61	0	402653184	47	4499
2026-01-20 04:04:56.71	324.76	15.40	-38.1	-39.9	14.9	0.00e+00	0	61	0	407896064	47	4521
2026-01-20 04:04:57.72	324.54	15.42	-38.1	-40.0	14.8	0.00e+00	0	61	0	414187520	47	4570
2026-01-20 04:04:58.73	324.33	15.43	-37.9	-39.7	15.1	0.00e+00	0	61	0	419430400	47	4423
2026-01-20 04:04:59.74	324.11	15.45	-37.8	-39.6	15.2	0.00e+00	0	61	0	425721856	47	4363
2026-01-20 04:05:00.75	323.89	15.46	-37.8	-39.6	15.1	0.00e+00	0	61	0	430964736	47	4384
2026-01-20 04:05:01.76	323.68	15.47	-37.7	-39.5	15.3	0.00e+00	0	61	0	437256192	47	4316
2026-01-20 04:05:02.77	323.46	15.49	-37.6	-39.4	15.4	0.00e+00	0	61	0	442499072	47	4264
2026-01-20 04:05:03.78	323.25	15.50	-37.6	-39.4	15.4	0.00e+00	0	61	0	447741952	47	4258
2026-01-20 04:05:04.79	323.03	15.51	-37.6	-39.4	15.4	0.00e+00	0	61	0	454033408	47	4258
2026-01-20 04:05:05.80	322.81	15.52	-37.6	-39.4	15.4	0.00e+00	0	61	0	459276288	47	4253
2026-01-20 04:05:06.80	322.60	15.53	-37.7	-39.4	15.3	0.00e+00	0	61	0	465567744	47	4287
2026-01-20 04:05:07.82	322.38	15.54	-37.5	-39.3	15.5	0.00e+00	0	61	0	470810624	47	4199
2026-01-20 04:05:08.82	322.16	15.55	-37.5	-39.2	15.6	1.10e-06	0	61	0	476053504	47	4187
2026-01-20 04:05:09.83	321.95	15.56	-37.7	-39.4	15.4	0.00e+00	0	61	0	482344960	47	4279
2026-01-20 04:05:10.84	321.73	15.57	-37.7	-39.4	15.3	0.00e+00	0	61	0	487587840	47	4282
2026-01-20 04:05:11.85	321.51	15.58	-37.8	-39.5	15.3	0.00e+00	0	61	0	492830720	47	4325
2026-01-20 04:05:12.86	321.29	15.59	-37.8	-39.6	15.2	0.00e+00	0	61	0	499122176	47	4382
2026-01-20 04:05:13.87	321.07	15.60	-37.8	-39.7	15.2	1.10e-06	0	61	0	504365056	47	4392
2026-01-20 04:05:14.88	320.86	15.61	-37.8	-39.5	15.3	0.00e+00	0	61	0	510656512	47	4336
2026-01-20 04:05:15.89	320.64	15.62	-37.7	-39.4	15.4	0.00e+00	0	61	0	515899392	47	4280
2026-01-20 04:05:16.90	320.42	15.62	-37.6	-39.4	15.4	0.00e+00	0	61	0	522190848	47	4253
2026-01-20 04:05:17.91	320.20	15.63	-37.7	-39.5	15.3	0.00e+00	0	61	0	527433728	47	4306
2026-01-20 04:05:18.92	319.98	15.64	-37.8	-39.6	15.2	0.00e+00	0	61	0	533725184	47	4341
2026-01-20 04:05:19.93	319.76	15.64	-37.7	-39.5	15.3	1.10e-06	0	61	0	538968064	47	4322
2026-01-20 04:05:20.94	319.55	15.65	-37.8	-39.6	15.2	0.00e+00	0	61	0	544210944	47	4345
2026-01-20 04:05:21.95	319.33	15.65	-37.8	-39.6	15.2	0.00e+00	0	61	0	550502400	47	4358
2026-01-20 04:05:22.96	319.11	15.66	-37.7	-39.5	15.3	0.00e+00	0	61	0	555745280	47	4333
2026-01-20 04:05:23.97	318.89	15.66	-37.6	-39.4	15.5	0.00e+00	0	61	0	562036736	47	4250
2026-01-20 04:05:24.97	318.67	15.66	-37.5	-39.2	15.6	0.00e+00	0	61	0	567279616	47	4184
2026-01-20 04:05:25.98	318.45	15.67	-37.6	-39.3	15.5	0.00e+00	0	61	0	572522496	47	4212
2026-01-20 04:05:26.99	318.23	15.67	-37.6	-39.3	15.5	0.00e+00	0	61	0	578813952	47	4239
2026-01-20 04:05:28.00	318.01	15.67	-37.7	-39.4	15.4	0.00e+00	0	61	0	584056832	47	4267
2026-01-20 04:05:29.01	317.80	15.67	-37.8	-39.5	15.3	0.00e+00	0	61	0	590348288	47	4331
2026-01-20 04:05:30.02	317.58	15.68	-37.8	-39.6	15.2	0.00e+00	0	61	0	595591168	47	4356
2026-01-20 04:05:31.03	317.36	15.68	-37.7	-39.5	15.4	0.00e+00	0	61	0	600834048	47	4297
2026-01-20 04:05:32.04	317.14	15.68	-37.7	-39.5	15.3	0.00e+00	0	61	0	607125504	47	4307
2026-01-20 04:05:33.05	316.92	15.68	-37.7	-39.5	15.4	0.00e+00	0	61	0	612368384	47	4294
2026-01-20 04:05:34.05	316.70	15.68	-37.7	-39.5	15.3	0.00e+00	0	61	0	618659840	47	4302
2026-01-20 04:05:35.06	316.48	15.68	-37.7	-39.5	15.3	0.00e+00	0	61	0	623902720	47	4300
2026-01-20 04:05:36.07	316.26	15.68	-37.8	-39.6	15.3	0.00e+00	0	61	0	630194176	47	4343
2026-01-20 04:05:37.08	316.04	15.68	-37.7	-39.5	15.3	0.00e+00	0	61	0	635437056	47	4315
2026-01-20 04:05:38.09	315.82	15.67	-37.8	-39.5	15.3	0.00e+00	0	61	0	640679936	47	4336
2026-01-20 04:05:39.10	315.60	15.67	-37.8	-39.6	15.2	0.00e+00	0	61	0	646971392	47	4360
2026-01-20 04:05:40.11	315.39	15.67	-37.8	-39.6	15.2	0.00e+00	0	61	0	652214272	47	4388
2026-01-20 04:05:41.12	315.17	15.67	-37.9	-39.8	15.1	0.00e+00	0	61	0	658505728	47	4447
2026-01-20 04:05:42.13	314.95	15.66	-38.0	-39.8	15.0	0.00e+00	0	61	0	663748608	47	4482
2026-01-20 04:05:43.14	314.73	15.66	-38.0	-39.8	15.0	0.00e+00	0	62	0	668991488	47	4484
2026-01-20 04:05:44.15	314.51	15.66	-37.9	-39.7	15.1	0.00e+00	0	61	0	675282944	47	4435
2026-01-20 04:05:45.16	314.29	15.65	-37.8	-39.6	15.1	0.00e+00	0	61	0	680525824	47	4384
2026-01-20 04:05:46.17	314.07	15.65	-37.8	-39.6	15.3	1.10e-06	0	61	0	686817280	47	4351
2026-01-20 04:05:47.18	313.85	15.64	-37.9	-39.6	15.2	0.00e+00	0	61	0	692060160	47	4381
2026-01-20 04:05:48.19	313.63	15.63	-37.9	-39.7	15.1	0.00e+00	0	61	0	697303040	47	4409
2026-01-20 04:05:49.20	313.42	15.63	-37.8	-39.5	15.3	0.00e+00	0	61	0	703594496	47	4327
2026-01-20 04:05:50.21	313.20	15.62	-37.8	-39.5	15.3	0.00e+00	0	61	0	708837376	47	4326
2026-01-20 04:05:51.22	312.98	15.61	-37.7	-39.5	15.3	0.00e+00	0	61	0	715128832	47	4314
2026-01-20 04:05:52.23	312.76	15.61	-37.8	-39.5	15.3	0.00e+00	0	61	0	720371712	47	4339
2026-01-20 04:05:53.23	312.54	15.60	-37.7	-39.5	15.3	0.00e+00	0	61	0	726663168	47	4324
2026-01-20 04:05:54.24	312.33	15.59	-37.7	-39.5	15.3	0.00e+00	0	61	0	731906048	47	4307
2026-01-20 04:05:55.25	312.11	15.58	-37.8	-39.6	15.2	0.00e+00	0	61	0	738197504	47	4350
2026-01-20 04:05:56.26	311.89	15.57	-37.7	-39.5	15.3	0.00e+00	0	61	0	743440384	47	4313
2026-01-20 04:05:57.27	311.67	15.56	-37.8	-39.6	15.2	0.00e+00	0	61	0	748683264	47	4371
2026-01-20 04:05:58.28	311.45	15.55	-37.7	-39.5	15.3	0.00e+00	0	61	0	754974720	47	4292
2026-01-20 04:05:59.29	311.24	15.54	-37.6	-39.4	15.5	0.00e+00	0	61	0	760217600	47	4248
2026-01-20 04:06:00.30	311.02	15.53	-37.6	-39.3	15.5	0.00e+00	0	61	0	766509056	47	4217
2026-01-20 04:06:01.31	310.80	15.52	-37.7	-39.5	15.3	0.00e+00	0	61	0	771751936	47	4318
2026-01-20 04:06:02.32	310.59	15.51	-37.8	-39.6	15.2	1.10e-06	0	61	0	776994816	47	4368
2026-01-20 04:06:03.33	310.37	15.49	-37.9	-39.7	15.1	0.00e+00	0	61	0	783286272	47	4434
2026-01-20 04:06:04.34	310.15	15.48	-38.0	-39.8	15.0	0.00e+00	0	61	0	788529152	47	4484
2026-01-20 04:06:05.36	309.93	15.47	-37.9	-39.8	15.0	0.00e+00	0	62	0	794820608	47	4448
2026-01-20 04:06:06.36	309.72	15.46	-37.8	-39.6	15.2	0.00e+00	0	61	0	800063488	47	4383
2026-01-20 04:06:07.37	309.50	15.44	-37.9	-39.7	15.1	0.00e+00	0	61	0	805306368	47	4405
2026-01-20 04:06:08.39	309.29	15.43	-37.8	-39.6	15.2	0.00e+00	0	61	0	811597824	47	4363
2026-01-20 04:06:09.39	309.07	15.41	-37.8	-39.6	15.2	0.00e+00	0	61	0	816840704	47	4372
2026-01-20 04:06:10.40	308.86	15.40	-37.9	-39.7	15.1	0.00e+00	0	61	0	823132160	47	4427
2026-01-20 04:06:11.41	308.64	15.38	-37.9	-39.7	15.0	0.00e+00	0	61	0	828375040	47	4428
2026-01-20 04:06:12.42	308.43	15.37	-37.8	-39.6	15.1	0.00e+00	0	62	0	834666496	47	4381
2026-01-20 04:06:13.43	308.21	15.35	-37.7	-39.5	15.3	0.00e+00	0	62	0	839909376	47	4323
2026-01-20 04:06:14.44	308.00	15.33	-37.8	-39.6	15.2	0.00e+00	0	61	0	845152256	47	4351
2026-01-20 04:06:15.45	307.78	15.32	-37.7	-39.5	15.3	0.00e+00	0	62	0	851443712	47	4323
2026-01-20 04:06:16.46	307.57	15.30	-37.7	-39.5	15.3	0.00e+00	0	62	0	856686592	47	4302
2026-01-20 04:06:17.47	307.36	15.28	-37.7	-39.5	15.3	0.00e+00	0	61	0	862978048	47	4320
2026-01-20 04:06:18.48	307.14	15.26	-37.8	-39.6	15.2	0.00e+00	0	61	0	868220928	47	4345
2026-01-20 04:06:19.49	306.93	15.25	-37.7	-39.5	15.3	0.00e+00	0	61	0	873463808	47	4299
2026-01-20 04:06:20.50	306.72	15.23	-37.6	-39.4	15.4	1.10e-06	0	61	0	879755264	47	4246
2026-01-20 04:06:21.51	306.50	15.21	-37.6	-39.4	15.4	0.00e+00	0	61	0	884998144	47	4252
2026-01-20 04:06:22.52	306.29	15.19	-37.6	-39.4	15.4	0.00e+00	0	61	0	891289600	47	4251
2026-01-20 04:06:23.53	306.08	15.17	-37.7	-39.5	15.3	0.00e+00	0	61	0	896532480	47	4293
2026-01-20 04:06:24.54	305.87	15.15	-37.6	-39.3	15.5	0.00e+00	0	62	0	901775360	47	4221
2026-01-20 04:06:25.55	305.65	15.13	-37.6	-39.3	15.5	0.00e+00	0	61	0	908066816	47	4220
2026-01-20 04:06:26.56	305.44	15.11	-37.6	-39.4	15.4	0.00e+00	0	61	0	913309696	47	4250
2026-01-20 04:06:27.57	305.23	15.08	-37.7	-39.4	15.3	0.00e+00	0	62	0	919601152	47	4277
2026-01-20 04:06:28.58	305.02	15.06	-37.8	-39.6	15.1	0.00e+00	0	61	0	924844032	47	4373
2026-01-20 04:06:29.59	304.81	15.04	-37.9	-39.7	15.1	0.00e+00	0	61	0	931135488	47	4415
2026-01-20 04:06:30.60	304.60	15.02	-38.0	-39.9	14.9	1.10e-06	0	62	0	936378368	47	4503
2026-01-20 04:06:31.61	304.39	15.00	-37.9	-39.7	15.0	1.10e-06	0	61	0	942669824	47	4435
2026-01-20 04:06:32.62	304.18	14.97	-37.9	-39.7	15.0	0.00e+00	0	62	0	947912704	47	4418
2026-01-20 04:06:33.63	303.97	14.95	-37.8	-39.6	15.1	0.00e+00	0	61	0	953155584	47	4387
2026-01-20 04:06:34.63	303.77	14.92	-37.8	-39.6	15.1	0.00e+00	0	62	0	959447040	47	4361
2026-01-20 04:06:35.64	303.56	14.90	-37.8	-39.6	15.1	0.00e+00	0	61	0	964689920	47	4350
2026-01-20 04:06:36.65	303.35	14.88	-37.9	-39.7	15.0	2.20e-06	0	62	0	970981376	47	4409
2026-01-20 04:06:37.66	303.14	14.85	-37.8	-39.6	15.1	0.00e+00	0	62	0	976224256	47	4380
2026-01-20 04:06:38.67	302.93	14.82	-37.8	-39.6	15.1	0.00e+00	0	61	0	981467136	47	4363
2026-01-20 04:06:39.68	302.73	14.80	-37.8	-39.6	15.1	0.00e+00	0	61	0	987758592	47	4377
2026-01-20 04:06:40.69	302.52	14.77	-37.8	-39.6	15.0	0.00e+00	0	61	0	993001472	47	4378
2026-01-20 04:06:41.70	302.31	14.75	-37.8	-39.6	15.1	0.00e+00	0	62	0	998244352	47	4362
2026-01-20 04:06:42.71	302.11	14.72	-37.9	-39.7	15.0	0.00e+00	0	62	0	1004535808	47	4421
2026-01-20 04:06:43.72	301.90	14.69	-37.9	-39.7	15.0	0.00e+00	0	62	0	1009778688	47	4431
2026-01-20 04:06:44.73	301.70	14.66	-37.9	-39.7	14.9	0.00e+00	0	62	0	1016070144	47	4434
2026-01-20 04:06:45.75	301.49	14.64	-37.9	-39.7	15.0	0.00e+00	0	61	0	1021313024	47	4434
2026-01-20 04:06:46.75	301.29	14.61	-37.8	-39.7	15.0	0.00e+00	0	61	0	1027604480	47	4395
2026-01-20 04:06:47.77	301.08	14.58	-37.9	-39.7	15.0	0.00e+00	0	62	0	1032847360	47	4402
2026-01-20 04:06:48.78	300.88	14.55	-37.8	-39.7	15.0	0.00e+00	0	62	0	1039138816	47	4396
2026-01-20 04:06:49.78	300.68	14.52	-37.9	-39.8	14.9	0.00e+00	0	62	0	1044381696	47	4456
2026-01-20 04:06:50.79	300.48	14.49	-38.0	-39.8	14.8	0.00e+00	0	62	0	1049624576	47	4490
2026-01-20 04:06:51.80	300.27	14.46	-38.1	-40.0	14.7	0.00e+00	0	62	0	1055916032	47	4548
2026-01-20 04:06:52.81	300.07	14.43	-38.1	-40.0	14.7	1.10e-06	0	61	0	1061158912	47	4566
2026-01-20 04:06:53.82	299.87	14.40	-38.1	-40.1	14.6	1.10e-06	0	62	0	1067450368	47	4616
2026-01-20 04:06:54.83	299.67	14.37	-38.1	-40.0	14.6	0.00e+00	0	62	0	1072693248	47	4589
2026-01-20 04:06:55.84	299.47	14.34	-38.1	-40.0	14.6	1.10e-06	0	62	0	1077936128	47	4575
2026-01-20 04:06:56.85	299.27	14.31	-38.1	-40.0	14.7	0.00e+00	0	61	0	1084227584	47	4553
2026-01-20 04:06:57.86	299.07	14.28	-38.2	-40.1	14.5	0.00e+00	0	61	0	1089470464	47	4646
2026-01-20 04:06:58.87	298.87	14.25	-38.2	-40.2	14.4	0.00e+00	0	62	0	1095761920	47	4674
2026-01-20 04:06:59.88	298.67	14.21	-38.3	-40.3	14.3	3.40e-06	0	62	0	1101004800	47	4749
2026-01-20 04:07:00.89	298.47	14.18	-38.4	-40.4	14.2	0.00e+00	0	62	0	1106247680	47	4787
2026-01-20 04:07:01.90	298.27	14.15	-38.4	-40.5	14.1	2.20e-06	0	62	0	1112539136	47	4829
2026-01-20 04:07:02.91	298.07	14.11	-38.3	-40.2	14.3	0.00e+00	0	62	0	1117782016	47	4696
2026-01-20 04:07:03.92	297.88	14.08	-38.0	-39.9	14.6	0.00e+00	0	62	0	1124073472	47	4530
2026-01-20 04:07:04.93	297.68	14.05	-38.1	-40.0	14.5	0.00e+00	0	61	0	1129316352	47	4553
2026-01-20 04:07:05.94	297.48	14.01	-38.2	-40.2	14.3	0.00e+00	0	62	0	1135607808	47	4657
2026-01-20 04:07:06.94	297.29	13.98	-38.3	-40.3	14.1	2.20e-06	0	62	0	1140850688	47	4738
2026-01-20 04:07:07.95	297.09	13.95	-38.3	-40.3	14.2	1.10e-06	0	62	0	1147142144	47	4711
2026-01-20 04:07:08.96	296.90	13.91	-38.2	-40.2	14.3	2.20e-06	0	62	0	1152385024	47	4653
2026-01-20 04:07:09.97	296.71	13.88	-38.1	-40.1	14.3	0.00e+00	0	62	0	1157627904	47	4629
2026-01-20 04:07:10.98	296.51	13.84	-38.0	-39.9	14.4	1.10e-06	0	62	0	1163919360	47	4542
2026-01-20 04:07:11.99	296.32	13.80	-37.8	-39.7	14.6	1.10e-06	0	62	0	1169162240	47	4428
2026-01-20 04:07:13.00	296.12	13.77	-37.7	-39.6	14.7	1.10e-06	0	62	0	1175453696	47	4370
2026-01-20 04:07:14.01	295.93	13.73	-37.9	-39.8	14.5	0.00e+00	0	62	0	1180696576	47	4449
2026-01-20 04:07:15.02	295.74	13.70	-37.8	-39.7	14.6	1.10e-06	0	62	0	1185939456	47	4434
2026-01-20 04:07:16.03	295.55	13.66	-37.9	-39.9	14.4	0.00e+00	0	61	0	1192230912	47	4518
2026-01-20 04:07:17.04	295.36	13.62	-37.9	-39.9	14.3	2.20e-06	0	61	0	1197473792	47	4535
2026-01-20 04:07:18.05	295.17	13.58	-38.0	-40.0	14.3	2.20e-06	0	62	0	1202716672	47	4549
2026-01-20 04:07:19.06	294.98	13.55	-38.0	-40.1	14.1	4.50e-06	0	62	0	1209008128	47	4599
2026-01-20 04:07:20.07	294.79	13.51	-38.1	-40.2	14.0	3.40e-06	0	61	0	1214251008	47	4665
2026-01-20 04:07:21.08	294.60	13.47	-38.3	-40.4	13.7	1.10e-06	0	61	0	1220542464	47	4771
2026-01-20 04:07:22.09	294.41	13.43	-38.3	-40.5	13.6	1.02e-05	0	61	0	1225785344	47	4826
2026-01-20 04:07:23.10	294.22	13.39	-38.4	-40.5	13.5	1.25e-05	0	61	0	1232076800	47	4863
2026-01-20 04:07:24.11	294.03	13.36	-38.3	-40.5	13.4	1.37e-05	0	62	0	1237319680	47	4836
2026-01-20 04:07:25.12	293.84	13.32	-38.3	-40.5	13.3	1.83e-05	0	62	0	1243611136	47	4859
2026-01-20 04:07:26.13	293.66	13.28	-38.3	-40.5	13.3	3.31e-05	0	62	0	1248854016	47	4846
2026-01-20 04:07:27.14	293.47	13.24	-38.3	-40.5	13.3	2.97e-05	0	61	0	1254096896	47	4834
2026-01-20 04:07:28.15	293.29	13.20	-38.4	-40.6	13.2	3.31e-05	0	62	0	1260388352	47	4896
2026-01-20 04:07:29.16	293.10	13.16	-38.3	-40.5	13.2	4.11e-05	0	62	0	1265631232	47	4868
2026-01-20 04:07:30.17	292.92	13.12	-38.3	-40.5	13.1	4.46e-05	0	62	0	1271922688	47	4865
2026-01-20 04:07:31.18	292.73	13.08	-38.3	-40.5	13.1	5.60e-05	0	62	0	1277165568	47	4863
2026-01-20 04:07:32.19	292.55	13.04	-38.4	-40.7	12.9	7.20e-05	0	62	0	1282408448	47	4983
2026-01-20 04:07:33.19	292.37	13.00	-38.4	-40.8	12.8	9.95e-05	0	62	0	1288699904	47	5001
2026-01-20 04:07:34.20	292.18	12.95	-38.4	-40.8	12.8	9.38e-05	0	62	0	1293942784	47	4986
2026-01-20 04:07:35.21	292.00	12.91	-38.4	-40.9	12.6	9.38e-05	0	62	0	1300234240	47	5054
2026-01-20 04:07:36.22	291.82	12.87	-38.4	-40.9	12.6	1.22e-04	0	62	0	1305477120	47	5053
2026-01-20 04:07:37.23	291.64	12.83	-38.5	-40.9	12.4	1.83e-04	0	61	0	1310720000	47	5094
2026-01-20 04:07:38.24	291.46	12.79	-38.5	-41.0	12.4	1.99e-04	0	62	0	1317011456	47	5127
2026-01-20 04:07:39.25	291.28	12.75	-38.5	-41.0	12.3	2.35e-04	0	62	0	1322254336	47	5116
2026-01-20 04:07:40.26	291.10	12.70	-38.5	-41.0	12.2	3.51e-04	0	62	0	1328545792	47	5146
2026-01-20 04:07:41.27	290.92	12.66	-38.6	-41.2	12.0	4.29e-04	0	62	0	1333788672	47	5223
2026-01-20 04:07:42.27	290.74	12.62	-38.6	-41.2	11.9	6.53e-04	0	62	0	1340080128	47	5240
2026-01-20 04:07:43.28	290.56	12.58	-38.6	-41.2	11.8	7.04e-04	0	62	0	1345323008	47	5273
2026-01-20 04:07:44.30	290.38	12.53	-38.5	-41.1	12.0	5.77e-04	0	62	0	1350565888	47	5171
2026-01-20 04:07:45.31	290.21	12.49	-38.4	-41.0	12.0	4.55e-04	0	61	0	1356857344	47	5135
2026-01-20 04:07:46.32	290.03	12.45	-38.5	-41.1	11.9	4.94e-04	0	62	0	1362100224	47	5205
2026-01-20 04:07:47.33	289.85	12.40	-38.5	-41.2	11.8	7.53e-04	0	62	0	1368391680	47	5240
2026-01-20 04:07:48.34	289.68	12.36	-38.5	-41.3	11.6	9.01e-04	0	62	0	1373634560	47	5284
2026-01-20 04:07:49.35	289.50	12.31	-38.6	-41.5	11.4	1.33e-03	0	62	0	1378877440	47	5406
2026-01-20 04:07:50.36	289.33	12.27	-38.7	-41.6	11.2	1.75e-03	0	62	0	1385168896	47	5474
2026-01-20 04:07:51.37	289.16	12.23	-38.9	-41.9	10.9	2.83e-03	0	62	0	1390411776	48	5366
2026-01-20 04:07:52.38	288.98	12.18	-39.1	-42.3	10.4	5.09e-03	0	62	0	1396703232	48	5640
2026-01-20 04:07:53.39	288.81	12.14	-39.2	-42.6	10.0	8.31e-03	0	62	0	1401946112	49	5488
2026-01-20 04:07:54.40	288.64	12.09	-39.3	-42.6	10.1	8.65e-03	0	62	0	1407188992	49	5474
2026-01-20 04:07:55.41	288.47	12.05	-39.4	-42.9	9.6	1.42e-02	0	62	0	1413480448	49	5690
2026-01-20 04:07:56.42	288.29	12.00	-39.6	-43.3	9.1	2.43e-02	0	62	0	1418723328	49	5980
2026-01-20 04:07:57.43	288.12	11.96	-39.8	-43.8	8.7	3.90e-02	0	61	0	1425014784	50	5934
2026-01-20 04:07:58.44	287.95	11.91	-40.0	-44.4	8.0	6.97e-02	0	62	0	1430257664	50	6374
2026-01-20 04:07:59.44	287.79	11.86	-40.1	-44.8	7.5	9.78e-02	0	62	0	1436549120	50	6689
2026-01-20 04:08:00.45	287.62	11.82	-40.3	-45.2	7.1	1.39e-01	0	62	0	1441792000	51	6604
2026-01-20 04:08:01.46	287.45	11.77	-40.4	-45.4	7.0	1.74e-01	0	62	0	1448083456	51	6783
2026-01-20 04:08:02.47	287.28	11.73	-40.4	-45.7	6.6	2.36e-01	0	62	0	1453326336	51	7013
2026-01-20 04:08:03.48	287.11	11.68	-40.5	-46.0	6.3	2.60e-01	0	62	0	1458569216	51	7283
2026-01-20 04:08:04.50	286.94	11.63	-41.4	-46.8	6.4	2.19e-01	0	62	0	1464860672	53	7071
2026-01-20 04:08:05.51	286.78	11.59	-42.0	-48.1	5.5	8.45e-01	0	62	104	1464860672	56	6883
2026-01-20 04:08:06.52	286.61	11.54	-40.6	-47.8	4.8	8.20e-01	0	62	0	1464860672	53	7987
2026-01-20 04:08:07.53	286.45	11.49	-41.2	-48.2	4.8	8.31e-01	0	62	0	1464860672	53	8277
2026-01-20 04:08:08.54	286.28	11.44	-40.8	-48.5	4.6	5.63e-01	0	62	0	1469054976	53	8633
2026-01-20 04:08:09.55	286.12	11.40	-40.8	-49.5	4.1	8.45e-01	0	62	104	1469054976	53	9645
2026-01-20 04:08:10.56	285.95	11.35	-41.0	-46.7	6.1	3.48e-01	0	62	0	1472200704	53	6962
2026-01-20 04:08:11.57	285.79	11.30	-41.1	-46.7	6.2	3.18e-01	0	62	0	1478492160	53	6987
2026-01-20 04:08:12.58	285.63	11.26	-41.0	-46.6	6.3	3.11e-01	0	62	0	1483735040	53	6894
2026-01-20 04:08:13.59	285.46	11.21	-41.0	-46.6	6.2	3.21e-01	0	62	0	1488977920	53	6954
2026-01-20 04:08:14.59	285.30	11.16	-41.1	-46.7	6.1	3.49e-01	0	62	0	1495269376	53	7014
2026-01-20 04:08:15.60	285.14	11.11	-42.7	-51.4	4.1	5.05e-01	0	62	0	1499463680	55	10768
2026-01-20 04:08:16.61	284.98	11.06	-42.4	-49.5	4.7	8.46e-01	0	62	104	1499463680	56	8162
2026-01-20 04:08:17.62	284.82	11.02	-41.1	-51.3	3.8	5.68e-01	0	62	104	1502609408	53	11833
2026-01-20 04:08:18.63	284.66	10.97	-41.4	-49.5	3.9	8.46e-01	0	62	104	1502609408	53	9678
2026-01-20 04:08:19.64	284.50	10.92	-41.0	-46.5	6.3	2.18e-01	0	62	0	1504706560	53	6804
2026-01-20 04:08:20.65	284.35	10.87	-40.8	-45.9	6.8	7.68e-01	0	62	0	1506803712	53	6364
2026-01-20 04:08:21.66	284.19	10.82	-40.6	-45.3	7.5	1.26e-01	0	62	0	1512046592	53	5933
2026-01-20 04:08:22.67	284.03	10.77	-40.7	-45.2	7.6	1.12e-01	0	62	0	1518338048	53	5921
2026-01-20 04:08:23.68	283.87	10.72	-40.5	-44.8	7.9	9.17e-02	0	62	0	1523580928	53	5638
2026-01-20 04:08:24.69	283.72	10.67	-40.3	-44.3	8.5	5.73e-02	0	62	0	1528823808	52	5628
2026-01-20 04:08:25.70	283.56	10.62	-40.0	-43.7	9.1	3.47e-02	0	62	0	1535115264	51	5587
2026-01-20 04:08:26.71	283.41	10.58	-39.8	-43.3	9.5	2.01e-02	0	62	0	1540358144	51	5330
2026-01-20 04:08:27.72	283.25	10.53	-39.6	-43.0	9.8	1.49e-02	0	62	0	1546649600	51	5144
2026-01-20 04:08:28.73	283.10	10.48	-39.4	-42.8	10.0	1.03e-02	0	62	0	1551892480	50	5288
2026-01-20 04:08:29.74	282.94	10.43	-39.3	-42.5	10.2	8.42e-03	0	62	0	1557135360	50	5142
2026-01-20 04:08:30.75	282.79	10.38	-39.3	-42.6	10.1	8.79e-03	0	62	0	1563426816	50	5202
2026-01-20 04:08:31.75	282.64	10.33	-39.3	-42.5	10.1	8.44e-03	0	62	0	1568669696	50	5157
2026-01-20 04:08:32.76	282.49	10.28	-39.2	-42.5	10.2	8.30e-03	0	62	0	1574961152	50	5123
2026-01-20 04:08:33.77	282.34	10.23	-39.0	-42.2	10.4	6.65e-03	0	62	0	1580204032	50	4956
2026-01-20 04:08:34.79	282.18	10.18	-38.8	-41.9	10.7	4.08e-03	0	62	0	1585446912	49	5062
2026-01-20 04:08:35.80	282.03	10.13	-38.7	-41.6	11.0	2.38e-03	0	62	0	1591738368	49	4919
2026-01-20 04:08:36.81	281.88	10.08	-38.7	-41.5	11.2	1.95e-03	0	62	0	1596981248	49	4870
2026-01-20 04:08:37.82	281.73	10.03	-38.8	-41.8	10.9	2.49e-03	0	62	0	1603272704	49	4999
2026-01-20 04:08:38.82	281.59	9.98	-38.9	-42.0	10.8	3.22e-03	0	62	0	1608515584	49	5115
2026-01-20 04:08:39.83	281.44	9.93	-39.1	-42.3	10.4	5.14e-03	0	62	0	1614807040	49	5308
2026-01-20 04:08:40.84	281.29	9.88	-39.2	-42.5	10.2	6.22e-03	0	62	0	1620049920	49	5406
2026-01-20 04:08:41.85	281.14	9.83	-39.3	-42.6	10.1	8.40e-03	0	62	0	1625292800	49	5484
2026-01-20 04:08:42.86	281.00	9.77	-39.3	-42.7	9.8	9.78e-03	0	62	0	1631584256	49	5587
2026-01-20 04:08:43.87	280.85	9.72	-39.4	-42.9	9.7	1.46e-02	0	62	0	1636827136	49	5698
2026-01-20 04:08:44.88	280.70	9.67	-39.5	-43.1	9.5	1.57e-02	0	62	0	1643118592	49	5796
2026-01-20 04:08:45.89	280.56	9.62	-39.6	-43.4	9.2	2.46e-02	0	62	0	1648361472	49	6003
2026-01-20 04:08:46.90	280.41	9.57	-39.8	-43.7	8.7	3.82e-02	0	62	0	1653604352	50	5923
2026-01-20 04:08:47.91	280.27	9.52	-39.9	-44.1	8.3	5.55e-02	0	62	0	1659895808	50	6194
2026-01-20 04:08:48.92	280.13	9.47	-40.0	-44.5	7.9	7.96e-02	0	62	0	1665138688	50	6421
2026-01-20 04:08:49.93	279.98	9.42	-40.1	-44.9	7.5	1.20e-01	0	62	0	1671430144	50	6732
2026-01-20 04:08:50.94	279.84	9.37	-40.2	-45.0	7.3	1.34e-01	0	62	0	1676673024	50	6836
2026-01-20 04:08:51.95	279.70	9.31	-40.2	-45.3	7.0	1.78e-01	0	62	0	1682964480	51	6673
2026-01-20 04:08:52.96	279.56	9.26	-40.3	-45.5	6.7	2.27e-01	0	62	0	1688207360	51	6866
2026-01-20 04:08:53.97	279.41	9.21	-40.4	-45.8	6.4	2.70e-01	0	62	0	1693450240	51	7111
2026-01-20 04:08:54.99	279.27	9.16	-40.5	-46.4	5.9	3.57e-01	0	62	0	1699741696	51	7589
2026-01-20 04:08:55.99	279.13	9.11	-40.9	-48.4	4.6	7.39e-01	0	62	0	1701838848	52	9010
2026-01-20 04:08:57.00	278.99	9.06	-40.4	-48.8	4.2	8.11e-01	0	62	0	1701838848	52	9491
2026-01-20 04:08:58.01	278.85	9.01	-41.5	-48.8	4.8	8.05e-01	0	62	0	1702887424	53	8863
2026-01-20 04:08:59.02	278.72	8.95	-40.0	-50.2	3.8	8.41e-01	0	62	104	1702887424	52	11064
2026-01-20 04:09:00.03	278.58	8.90	-40.7	-48.0	4.7	8.33e-01	0	62	0	1702887424	52	8647
2026-01-20 04:09:01.04	278.44	8.85	-40.7	-48.4	4.5	8.16e-01	0	62	0	1702887424	52	9019
2026-01-20 04:09:02.05	278.30	8.80	-40.7	-48.8	4.4	8.29e-01	0	62	0	1702887424	52	9425
2026-01-20 04:09:03.06	278.17	8.75	-40.6	-48.9	4.3	8.35e-01	0	62	0	1702887424	52	9604
2026-01-20 04:09:04.06	278.03	8.69	-40.6	-49.2	4.2	8.36e-01	0	62	0	1702887424	52	9918
2026-01-20 04:09:05.07	277.90	8.64	-40.5	-49.4	4.1	8.39e-01	0	62	0	1702887424	52	10146
2026-01-20 04:09:06.08	277.76	8.59	-40.1	-50.2	3.8	8.46e-01	0	62	104	1702887424	52	11147
2026-01-20 04:09:07.09	277.63	8.54	-41.3	-50.1	4.1	8.41e-01	0	62	0	1702887424	53	10412
2026-01-20 04:09:08.10	277.49	8.49	-40.0	-51.2	3.8	8.46e-01	0	62	104	1702887424	52	12376
2026-01-20 04:09:09.11	277.36	8.43	-40.6	-51.2	3.8	8.45e-01	0	62	104	1702887424	52	12377
2026-01-20 04:09:10.12	277.22	8.38	-41.1	-50.9	3.8	8.45e-01	0	62	104	1702887424	52	11962
2026-01-20 04:09:11.13	277.09	8.33	-40.7	-50.5	3.9	8.44e-01	0	62	104	1702887424	52	11522
2026-01-20 04:09:12.14	276.96	8.28	-40.7	-50.7	3.8	8.46e-01	0	62	104	1702887424	52	11796
2026-01-20 04:09:13.15	276.83	8.22	-40.7	-50.9	3.8	8.46e-01	0	62	104	1702887424	52	12089
2026-01-20 04:09:14.16	276.70	8.17	-40.5	-51.2	3.8	8.46e-01	0	62	104	1702887424	52	12450
2026-01-20 04:09:15.17	276.56	8.12	-40.8	-51.4	3.8	8.46e-01	0	62	104	1702887424	52	12673
2026-01-20 04:09:16.18	276.43	8.07	-40.0	-51.6	3.8	8.46e-01	0	62	104	1702887424	52	13056
2026-01-20 04:09:17.19	276.30	8.02	-40.2	-51.3	3.8	8.46e-01	0	62	104	1702887424	52	12613
2026-01-20 04:09:18.20	276.17	7.96	-43.8	-55.2	3.8	8.46e-01	0	62	104	1702887424	58	14014
2026-01-20 04:09:19.21	276.05	7.91	-44.7	-56.2	3.8	8.46e-01	0	62	104	1702887424	59	14750
2026-01-20 04:09:20.22	275.92	7.86	-44.8	-56.5	3.8	8.45e-01	0	62	104	1702887424	60	14508
2026-01-20 04:09:21.23	275.79	7.80	-44.9	-56.7	3.8	8.46e-01	0	62	104	1702887424	60	14765
2026-01-20 04:09:22.24	275.66	7.75	-45.0	-56.7	3.8	8.46e-01	0	62	104	1702887424	60	14845
2026-01-20 04:09:23.25	275.53	7.70	-45.1	-56.8	3.8	8.47e-01	0	62	104	1702887424	60	15035
2026-01-20 04:09:24.26	275.41	7.65	-45.1	-56.9	3.8	8.46e-01	0	62	104	1702887424	60	15085
2026-01-20 04:09:25.27	275.28	7.59	-45.1	-56.9	3.8	8.46e-01	0	62	104	1702887424	60	15138
2026-01-20 04:09:26.28	275.16	7.54	-45.2	-56.9	3.8	8.47e-01	0	62	104	1702887424	60	15195
2026-01-20 04:09:27.29	275.03	7.49	-45.2	-56.9	3.8	8.47e-01	0	62	104	1702887424	60	15156
2026-01-20 04:09:28.30	274.91	7.44	-45.1	-56.9	3.8	8.46e-01	0	62	104	1702887424	60	15145
2026-01-20 04:09:29.31	274.78	7.38	-45.0	-56.9	3.8	8.46e-01	0	62	104	1702887424	60	15099
2026-01-20 04:09:30.32	274.66	7.33	-45.1	-56.8	3.8	8.46e-01	0	62	104	1702887424	60	14995
2026-01-20 04:09:31.33	274.53	7.28	-45.1	-56.8	3.8	8.47e-01	0	62	104	1702887424	60	15020
2026-01-20 04:09:32.34	274.41	7.22	-45.0	-56.8	3.8	8.46e-01	0	62	104	1702887424	60	14943
2026-01-20 04:09:33.36	274.29	7.17	-44.9	-56.7	3.8	8.45e-01	0	62	104	1702887424	59	15630
2026-01-20 04:09:34.37	274.17	7.12	-45.1	-56.8	3.8	8.46e-01	0	62	104	1702887424	60	14927
2026-01-20 04:09:35.38	274.04	7.07	-45.1	-56.7	3.8	8.46e-01	0	62	104	1702887424	60	14869
2026-01-20 04:09:36.39	273.92	7.01	-45.1	-56.8	3.8	8.46e-01	0	62	104	1702887424	60	14880
2026-01-20 04:09:37.40	273.80	6.96	-45.1	-56.7	3.8	8.46e-01	0	62	104	1702887424	60	14876
2026-01-20 04:09:38.41	273.68	6.91	-45.1	-56.7	3.8	8.46e-01	0	62	104	1702887424	60	14871
2026-01-20 04:09:39.42	273.56	6.85	-45.1	-56.7	3.8	8.46e-01	0	62	104	1702887424	60	14816
2026-01-20 04:09:40.43	273.44	6.80	-45.0	-56.7	3.8	8.47e-01	0	62	104	1702887424	60	14823
2026-01-20 04:09:41.44	273.32	6.75	-45.0	-56.8	3.8	8.47e-01	0	62	104	1702887424	60	14891
2026-01-20 04:09:42.45	273.20	6.70	-45.0	-56.7	3.8	8.45e-01	0	62	104	1702887424	60	14826
2026-01-20 04:09:43.46	273.09	6.64	-45.0	-56.7	3.8	8.46e-01	0	62	104	1702887424	60	14828
2026-01-20 04:09:44.47	272.97	6.59	-45.0	-56.7	3.8	8.46e-01	0	62	104	1702887424	60	14869
2026-01-20 04:09:45.48	272.85	6.54	-45.0	-56.7	3.8	8.46e-01	0	62	104	1702887424	60	14825
2026-01-20 04:09:46.49	272.74	6.48	-45.0	-56.7	3.8	8.46e-01	0	62	104	1702887424	60	14774
2026-01-20 04:09:47.50	272.62	6.43	-45.0	-56.7	3.8	8.46e-01	0	62	104	1702887424	60	14757
2026-01-20 04:09:48.51	272.50	6.38	-45.0	-56.7	3.8	8.46e-01	0	62	104	1702887424	60	14861
2026-01-20 04:09:49.52	272.39	6.32	-45.0	-56.7	3.8	8.45e-01	0	62	104	1702887424	60	14766
2026-01-20 04:09:50.53	272.27	6.27	-45.0	-56.7	3.8	8.46e-01	0	62	104	1702887424	60	14823
2026-01-20 04:09:51.54	272.16	6.22	-45.0	-56.7	3.8	8.47e-01	0	62	104	1702887424	60	14813
2026-01-20 04:09:52.55	272.04	6.17	-45.0	-56.7	3.8	8.47e-01	0	62	104	1702887424	60	14831
2026-01-20 04:09:53.56	271.93	6.11	-45.0	-56.7	3.8	8.46e-01	0	62	104	1702887424	60	14781
2026-01-20 04:09:54.57	271.82	6.06	-45.0	-56.7	3.8	8.48e-01	0	62	104	1702887424	60	14818
2026-01-20 04:09:55.58	271.70	6.01	-45.0	-56.7	3.8	8.46e-01	0	62	104	1702887424	60	14751
2026-01-20 04:09:56.59	271.59	5.95	-45.0	-56.7	3.8	8.44e-01	0	62	104	1702887424	60	14784
2026-01-20 04:09:57.60	271.48	5.90	-45.0	-56.7	3.8	8.47e-01	0	62	104	1702887424	60	14795
2026-01-20 04:09:58.62	271.37	5.85	-45.0	-56.7	3.8	8.46e-01	0	62	104	1702887424	60	14832
2026-01-20 04:09:59.63	271.26	5.80	-45.0	-56.7	3.8	8.47e-01	0	62	104	1702887424	60	14759
2026-01-20 04:10:00.63	271.15	5.74	-45.0	-56.7	3.8	8.47e-01	0	62	104	1702887424	60	14765
2026-01-20 04:10:01.65	271.03	5.69	-45.0	-56.7	3.8	8.46e-01	0	62	104	1702887424	60	14813
2026-01-20 04:10:02.66	270.92	5.64	-45.0	-56.7	3.8	8.47e-01	0	62	104	1702887424	60	14785
2026-01-20 04:10:03.67	270.81	5.58	-45.0	-56.7	3.8	8.46e-01	0	62	104	1702887424	60	14779
2026-01-20 04:10:04.68	270.70	5.53	-45.0	-56.7	3.8	8.45e-01	0	62	104	1702887424	60	14777
2026-01-20 04:10:05.69	270.60	5.48	-45.0	-56.7	3.8	8.46e-01	0	62	104	1702887424	60	14739
2026-01-20 04:10:06.70	270.49	5.43	-45.0	-56.7	3.8	8.47e-01	0	62	104	1702887424	60	14744
2026-01-20 04:10:07.71	270.38	5.37	-45.0	-56.7	3.8	8.47e-01	0	62	104	1702887424	60	14774
2026-01-20 04:10:08.72	270.27	5.32	-45.0	-56.7	3.8	8.45e-01	0	62	104	1702887424	60	14746
2026-01-20 04:10:09.73	270.16	5.27	-45.0	-56.7	3.8	8.47e-01	0	62	104	1702887424	60	14760
2026-01-20 04:10:10.74	270.06	5.21	-45.0	-56.7	3.8	8.46e-01	0	62	104	1702887424	60	14771
2026-01-20 04:10:11.75	269.95	5.16	-45.0	-56.6	3.8	8.46e-01	0	62	104	1702887424	60	14702
2026-01-20 04:10:12.76	269.85	5.11	-44.9	-56.7	3.8	8.46e-01	0	62	104	1702887424	60	14749
2026-01-20 04:10:13.77	269.74	5.06	-44.9	-56.6	3.8	8.46e-01	0	62	104	1702887424	60	14666
2026-01-20 04:10:14.78	269.63	5.00	-45.0	-56.6	3.8	8.46e-01	0	62	104	1702887424	60	14658
2026-01-20 04:10:15.79	269.53	4.95	-45.0	-56.6	3.8	8.46e-01	0	62	104	1702887424	60	14675
2026-01-20 04:10:16.80	269.43	4.90	-45.0	-56.7	3.8	8.46e-01	0	62	104	1702887424	60	14784
2026-01-20 04:10:17.81	269.32	4.84	-45.0	-56.7	3.8	8.47e-01	0	62	104	1702887424	60	14798
2026-01-20 04:10:18.82	269.22	4.79	-45.0	-56.7	3.8	8.47e-01	0	62	104	1702887424	60	14750
2026-01-20 04:10:19.83	269.11	4.74	-45.0	-56.7	3.8	8.47e-01	0	62	104	1702887424	60	14819
2026-01-20 04:10:20.84	269.01	4.69	-45.0	-56.7	3.8	8.46e-01	0	62	104	1702887424	60	14736
2026-01-20 04:10:21.85	268.91	4.63	-45.0	-56.7	3.8	8.46e-01	0	62	104	1702887424	60	14722
2026-01-20 04:10:22.86	268.81	4.58	-44.9	-56.6	3.8	8.46e-01	0	62	104	1702887424	60	14689
2026-01-20 04:10:23.87	268.70	4.53	-44.9	-56.6	3.8	8.45e-01	0	62	104	1702887424	60	14654
2026-01-20 04:10:24.88	268.60	4.48	-44.9	-56.7	3.8	8.46e-01	0	62	104	1702887424	60	14710
2026-01-20 04:10:25.89	268.50	4.42	-45.0	-56.7	3.8	8.46e-01	0	62	104	1702887424	60	14744
2026-01-20 04:10:26.90	268.40	4.37	-45.0	-56.7	3.8	8.47e-01	0	62	104	1702887424	60	14767
2026-01-20 04:10:27.92	268.30	4.32	-45.0	-56.7	3.8	8.46e-01	0	62	104	1702887424	60	14797
2026-01-20 04:10:28.93	268.20	4.27	-45.0	-56.7	3.8	8.47e-01	0	62	104	1702887424	60	14802
2026-01-20 04:10:29.94	268.10	4.21	-45.0	-56.7	3.8	8.47e-01	0	62	104	1702887424	60	14805
2026-01-20 04:10:30.95	268.00	4.16	-45.0	-56.7	3.8	8.46e-01	0	62	104	1702887424	60	14782
2026-01-20 04:10:31.96	267.90	4.11	-45.0	-56.7	3.8	8.45e-01	0	62	104	1702887424	60	14783
2026-01-20 04:10:32.97	267.80	4.06	-45.0	-56.7	3.8	8.46e-01	0	62	104	1702887424	60	14729
2026-01-20 04:10:33.98	267.71	4.00	-45.0	-56.7	3.8	8.46e-01	0	62	104	1702887424	60	14757
2026-01-20 04:10:34.99	267.61	3.95	-45.0	-56.7	3.8	8.47e-01	0	62	104	1702887424	60	14778
2026-01-20 04:10:36.00	267.51	3.90	-45.0	-56.7	3.8	8.45e-01	0	62	104	1702887424	60	14764
2026-01-20 04:10:37.01	267.41	3.85	-45.0	-56.7	3.8	8.46e-01	0	62	104	1702887424	60	14731
2026-01-20 04:10:38.02	267.32	3.79	-45.0	-56.7	3.8	8.45e-01	0	62	104	1702887424	60	14711
2026-01-20 04:10:39.03	267.22	3.74	-45.0	-56.7	3.8	8.45e-01	0	62	104	1702887424	60	14711
2026-01-20 04:10:40.04	267.12	3.69	-45.0	-56.7	3.8	8.45e-01	0	62	104	1702887424	60	14731
2026-01-20 04:10:41.05	267.03	3.64	-45.0	-56.7	3.8	8.45e-01	0	62	104	1702887424	60	14758
2026-01-20 04:10:42.06	266.93	3.59	-45.0	-56.7	3.8	8.47e-01	0	62	104	1702887424	60	14743
2026-01-20 04:10:43.07	266.84	3.53	-45.0	-56.7	3.8	8.46e-01	0	62	104	1702887424	60	14732
2026-01-20 04:10:44.08	266.74	3.48	-45.0	-56.7	3.8	8.46e-01	0	62	104	1702887424	60	14780
2026-01-20 04:10:45.09	266.65	3.43	-45.0	-56.7	3.8	8.47e-01	0	62	104	1702887424	60	14754
2026-01-20 04:10:46.10	266.56	3.38	-45.0	-56.7	3.8	8.47e-01	0	62	104	1702887424	60	14737
2026-01-20 04:10:47.12	266.46	3.32	-45.0	-56.7	3.8	8.46e-01	0	62	104	1702887424	60	14794
2026-01-20 04:10:48.13	266.37	3.27	-45.0	-56.7	3.8	8.46e-01	0	62	104	1702887424	60	14779
2026-01-20 04:10:49.14	266.27	3.22	-45.0	-56.7	3.8	8.46e-01	0	62	104	1702887424	60	14735
2026-01-20 04:10:50.15	266.18	3.17	-45.0	-56.7	3.8	8.47e-01	0	62	104	1702887424	60	14716
2026-01-20 04:10:51.16	266.09	3.12	-45.0	-56.7	3.8	8.46e-01	0	62	104	1702887424	60	14763
2026-01-20 04:10:52.17	266.00	3.07	-45.0	-56.7	3.8	8.46e-01	0	62	104	1702887424	60	14746
2026-01-20 04:10:53.18	265.91	3.01	-45.0	-56.7	3.8	8.46e-01	0	62	104	1702887424	60	14726
2026-01-20 04:10:54.18	265.82	2.96	-45.0	-56.7	3.8	8.47e-01	0	62	104	1702887424	60	14815
2026-01-20 04:10:55.19	265.73	2.91	-45.0	-56.7	3.8	8.46e-01	0	62	104	1702887424	60	14751
2026-01-20 04:10:56.20	265.63	2.86	-45.0	-56.7	3.8	8.46e-01	0	62	104	1702887424	60	14762
2026-01-20 04:10:57.21	265.54	2.81	-45.0	-56.7	3.8	8.47e-01	0	62	104	1702887424	60	14764
2026-01-20 04:10:58.22	265.45	2.76	-44.8	-56.6	3.8	8.47e-01	0	62	104	1702887424	60	14697
2026-01-20 04:10:59.23	265.36	2.70	-45.0	-56.6	3.8	8.46e-01	0	62	104	1702887424	60	14696
2026-01-20 04:11:00.24	265.28	2.65	-45.0	-56.6	3.8	8.46e-01	0	62	104	1702887424	60	14682
2026-01-20 04:11:01.25	265.19	2.60	-45.0	-56.7	3.8	8.47e-01	0	62	104	1702887424	60	14792
2026-01-20 04:11:02.26	265.10	2.55	-45.0	-56.6	3.8	8.46e-01	0	62	104	1702887424	60	14696
2026-01-20 04:11:03.27	265.01	2.50	-45.0	-56.7	3.8	8.45e-01	0	62	104	1702887424	60	14714
2026-01-20 04:11:04.28	264.92	2.45	-45.0	-56.7	3.8	8.46e-01	0	62	104	1702887424	60	14758
2026-01-20 04:11:05.29	264.83	2.39	-45.0	-56.6	3.8	8.46e-01	0	62	104	1702887424	60	14700
2026-01-20 04:11:06.30	264.75	2.34	-45.0	-56.7	3.8	8.47e-01	0	62	104	1702887424	60	14721
2026-01-20 04:11:07.31	264.66	2.29	-45.0	-56.7	3.8	8.48e-01	0	62	104	1702887424	60	14722
2026-01-20 04:11:08.33	264.57	2.24	-45.0	-56.7	3.8	8.46e-01	0	62	104	1702887424	60	14771
2026-01-20 04:11:09.34	264.49	2.19	-45.0	-56.7	3.8	8.47e-01	0	62	104	1702887424	60	14772
2026-01-20 04:11:10.35	264.40	2.14	-45.0	-56.6	3.8	8.45e-01	0	62	104	1702887424	60	14682
2026-01-20 04:11:11.36	264.31	2.09	-45.0	-56.7	3.8	8.48e-01	0	62	104	1702887424	60	14760
2026-01-20 04:11:12.37	264.23	2.03	-45.0	-56.7	3.8	8.47e-01	0	62	104	1702887424	60	14711
2026-01-20 04:11:13.38	264.14	1.98	-45.0	-56.7	3.8	8.46e-01	0	62	104	1702887424	60	14710
2026-01-20 04:11:14.39	264.06	1.93	-45.0	-56.7	3.8	8.46e-01	0	62	104	1702887424	60	14726

#Closed at: 2026-01-20 04:11:15
#Recorded file [1702 MB]: D:/lorett/data/31039_260120_065954.dat