passes_logs/2026/01/20/R2.0S_Moscow/R2.0S_Moscow__20260120_081318_NOAA_20_JPSS-1_rec.log

#Pass ID: 20260120_081318_NOAA 20 (JPSS-1)
#Satellite: NOAA 20 (JPSS-1)
#Configuration: NOAA 20
#almurnet v.1.7.20251203
#Start time: 2026-01-20 08:13:18

#Version: 2.2.20231116
#Station: R2.0S_Moscow
#Location: 37.707566 lon 55.798166 lat
#TLE: 1 43013U 17073A   26019.55911981  .00000079  00000+0  58510-4 0  9994
#TLE: 2 43013  98.7641 320.4504 0001323  32.6518 327.4739 14.19537050423380

#Time	Az	El	Level	Level2	SNR	BER	BlckErr	Temp	State	Recorded	gain1	gain2
2026-01-20 08:13:18.54	110.68	1.98	-30.5	-45.9	3.9	1.50e+00	0	50	0	0	25	32123
2026-01-20 08:13:19.54	110.61	2.04	-23.5	-40.1	3.7	1.50e+00	0	51	104	0	18	24625
2026-01-20 08:13:20.55	110.54	2.10	-32.2	-48.3	4.0	1.50e+00	0	51	104	0	32	28228
2026-01-20 08:13:21.56	110.47	2.15	-24.4	-42.5	4.3	1.50e+00	0	51	104	0	30	16198
2026-01-20 08:13:22.57	110.40	2.21	-32.4	-49.1	3.9	1.50e+00	0	51	104	0	35	25958
2026-01-20 08:13:23.58	110.33	2.27	-26.3	-42.6	3.9	1.50e+00	0	52	104	0	22	26129
2026-01-20 08:13:24.59	110.26	2.32	-27.6	-43.0	3.8	1.50e+00	0	51	104	0	23	25565
2026-01-20 08:13:25.60	110.19	2.38	-21.7	-40.5	3.9	1.50e+00	0	52	104	0	16	28948
2026-01-20 08:13:26.62	110.12	2.44	-33.0	-47.6	4.0	1.50e+00	0	52	104	0	32	26083
2026-01-20 08:13:27.63	110.05	2.50	-16.9	-39.4	3.9	1.50e+00	0	51	104	0	9	37908
2026-01-20 08:13:28.64	109.98	2.55	-27.1	-43.8	3.6	1.50e+00	0	52	104	0	24	26485
2026-01-20 08:13:29.65	109.91	2.61	-26.1	-40.8	3.8	1.50e+00	0	52	104	0	20	23823
2026-01-20 08:13:30.66	109.84	2.67	-30.4	-47.5	4.0	1.50e+00	0	51	104	0	33	24326
2026-01-20 08:13:31.67	109.76	2.72	-21.2	-39.0	3.6	1.50e+00	0	52	104	0	17	22947
2026-01-20 08:13:32.68	109.69	2.78	-24.1	-42.2	4.1	1.51e+00	0	52	0	0	19	29504
2026-01-20 08:13:33.69	109.62	2.84	-21.1	-38.9	4.1	1.51e+00	0	52	104	0	22	16993
2026-01-20 08:13:34.70	109.55	2.90	-28.1	-47.3	4.3	1.51e+00	0	52	104	0	31	26517
2026-01-20 08:13:35.71	109.47	2.95	-28.3	-45.9	4.1	1.50e+00	0	52	104	0	28	26944
2026-01-20 08:13:36.72	109.40	3.01	-21.2	-40.7	3.8	1.50e+00	0	52	104	0	15	31106
2026-01-20 08:13:37.73	109.33	3.07	-25.4	-41.0	3.9	1.50e+00	0	52	104	0	20	24151
2026-01-20 08:13:38.74	109.25	3.13	-23.5	-41.0	3.9	1.50e+00	0	52	104	0	21	22867
2026-01-20 08:13:39.75	109.18	3.19	-21.7	-39.3	3.7	1.50e+00	0	53	0	0	15	26510
2026-01-20 08:13:40.76	109.10	3.24	-33.8	-43.4	3.8	1.51e+00	0	52	104	0	17	38021
2026-01-20 08:13:41.77	109.03	3.30	-27.1	-41.3	3.8	1.50e+00	0	53	104	0	18	28047
2026-01-20 08:13:42.78	108.95	3.36	-25.7	-41.9	3.6	1.50e+00	0	53	104	0	21	25356
2026-01-20 08:13:43.79	108.88	3.42	-18.1	-39.9	3.7	1.50e+00	0	53	104	0	19	22746
2026-01-20 08:13:44.80	108.80	3.48	-27.6	-42.0	3.6	1.50e+00	0	53	104	0	21	25575
2026-01-20 08:13:45.81	108.72	3.53	-28.8	-47.6	3.8	1.50e+00	0	53	0	0	32	25908
2026-01-20 08:13:46.82	108.65	3.59	-28.2	-46.7	3.7	1.50e+00	0	53	104	0	25	34989
2026-01-20 08:13:47.83	108.57	3.65	-22.8	-41.0	3.9	1.50e+00	0	53	104	0	17	28759
2026-01-20 08:13:48.85	108.49	3.71	-17.2	-41.5	3.9	1.50e+00	0	53	104	0	18	28886
2026-01-20 08:13:49.86	108.41	3.77	-23.8	-40.3	3.9	1.51e+00	0	53	0	0	17	26560
2026-01-20 08:13:50.87	108.34	3.83	-22.3	-41.0	4.0	1.50e+00	0	53	104	0	17	28793
2026-01-20 08:13:51.88	108.26	3.89	-24.9	-41.9	3.9	1.50e+00	0	53	104	0	18	30234
2026-01-20 08:13:52.89	108.18	3.95	-23.3	-41.0	3.9	1.50e+00	0	53	104	0	19	25829
2026-01-20 08:13:53.90	108.10	4.01	-24.6	-42.6	4.0	1.50e+00	0	53	104	0	22	25958
2026-01-20 08:13:54.91	108.02	4.06	-22.5	-42.6	3.7	1.50e+00	0	53	104	0	12	46050
2026-01-20 08:13:55.92	107.94	4.12	-22.4	-41.4	3.9	1.51e+00	0	53	104	0	20	25364
2026-01-20 08:13:56.93	107.86	4.18	-22.1	-40.1	3.9	1.50e+00	0	53	104	0	16	27605
2026-01-20 08:13:57.94	107.78	4.24	-19.9	-38.9	4.0	1.50e+00	0	53	104	0	11	32001
2026-01-20 08:13:58.95	107.70	4.30	-18.4	-38.6	4.0	1.50e+00	0	53	104	0	17	21791
2026-01-20 08:13:59.96	107.62	4.36	-23.3	-41.7	4.1	1.50e+00	0	54	104	0	18	29438
2026-01-20 08:14:00.97	107.54	4.42	-25.8	-43.1	4.1	1.51e+00	0	54	104	0	19	32610
2026-01-20 08:14:01.98	107.46	4.48	-24.0	-42.5	3.8	1.50e+00	0	54	104	0	21	27130
2026-01-20 08:14:02.99	107.38	4.54	-22.5	-41.1	3.8	1.50e+00	0	54	104	0	22	21857
2026-01-20 08:14:04.00	107.29	4.60	-27.1	-46.3	3.7	1.50e+00	0	54	104	0	24	35339
2026-01-20 08:14:05.01	107.21	4.66	-23.7	-41.8	3.8	1.50e+00	0	54	104	0	21	25129
2026-01-20 08:14:06.02	107.13	4.72	-23.7	-40.8	4.0	1.50e+00	0	54	104	0	19	25181
2026-01-20 08:14:07.03	107.05	4.78	-24.0	-41.8	3.8	1.50e+00	0	54	104	0	17	31756
2026-01-20 08:14:08.04	106.96	4.84	-21.3	-39.2	3.8	1.51e+00	0	54	0	0	15	26254
2026-01-20 08:14:09.05	106.88	4.90	-23.2	-41.3	4.0	1.50e+00	0	54	104	0	21	23765
2026-01-20 08:14:10.06	106.79	4.96	-17.6	-41.1	3.8	1.51e+00	0	54	104	0	18	27512
2026-01-20 08:14:11.07	106.71	5.02	-30.6	-43.9	3.7	1.50e+00	0	54	104	0	22	30216
2026-01-20 08:14:12.08	106.62	5.08	-22.7	-40.4	3.8	1.50e+00	0	54	104	0	17	26851
2026-01-20 08:14:13.09	106.54	5.14	-28.5	-43.2	3.8	1.50e+00	0	54	104	0	20	31396
2026-01-20 08:14:14.11	106.45	5.20	-23.3	-41.4	3.7	1.50e+00	0	54	104	0	22	22737
2026-01-20 08:14:15.12	106.37	5.26	-33.3	-48.1	4.2	1.50e+00	0	54	104	0	31	29079
2026-01-20 08:14:16.13	106.28	5.32	-29.4	-46.1	4.0	1.51e+00	0	54	104	0	33	20731
2026-01-20 08:14:17.14	106.19	5.39	-33.1	-50.2	4.1	1.50e+00	0	55	104	0	39	23335
2026-01-20 08:14:18.15	106.11	5.45	-26.1	-43.3	4.0	1.50e+00	0	54	104	0	22	28175
2026-01-20 08:14:19.16	106.02	5.51	-26.1	-42.3	3.8	1.50e+00	0	55	104	0	23	23744
2026-01-20 08:14:20.17	105.93	5.57	-30.8	-48.9	3.7	1.51e+00	0	55	104	0	27	40143
2026-01-20 08:14:21.18	105.84	5.63	-27.5	-46.3	3.9	1.50e+00	0	55	104	0	26	31496
2026-01-20 08:14:22.19	105.75	5.69	-24.0	-46.9	3.7	1.50e+00	0	55	104	0	32	23996
2026-01-20 08:14:23.20	105.66	5.75	-24.0	-41.8	3.8	1.50e+00	0	55	104	0	18	29880
2026-01-20 08:14:24.21	105.57	5.81	-23.3	-44.2	3.7	1.50e+00	0	55	104	0	21	33022
2026-01-20 08:14:25.22	105.48	5.87	-23.9	-42.4	3.9	1.50e+00	0	55	104	0	22	25393
2026-01-20 08:14:26.23	105.39	5.94	-28.4	-41.8	3.9	1.50e+00	0	55	104	0	24	21127
2026-01-20 08:14:27.25	105.30	6.00	-24.6	-41.9	4.1	1.50e+00	0	55	104	0	31	14289
2026-01-20 08:14:28.26	105.21	6.06	-21.7	-41.2	3.9	1.50e+00	0	55	104	0	14	35268
2026-01-20 08:14:29.27	105.12	6.12	-20.3	-39.7	4.1	1.50e+00	0	55	104	0	17	24856
2026-01-20 08:14:30.28	105.03	6.18	-22.2	-41.6	3.8	1.51e+00	0	55	104	0	12	41454
2026-01-20 08:14:31.29	104.94	6.25	-19.9	-38.6	4.0	1.50e+00	0	55	104	0	15	24566
2026-01-20 08:14:32.30	104.84	6.31	-21.4	-39.3	3.9	1.51e+00	0	55	104	0	13	29706
2026-01-20 08:14:33.31	104.75	6.37	-23.8	-44.0	3.8	1.51e+00	0	55	104	0	25	25721
2026-01-20 08:14:34.32	104.66	6.43	-18.4	-39.4	3.8	1.50e+00	0	55	104	0	10	35891
2026-01-20 08:14:35.33	104.56	6.49	-22.8	-41.0	3.8	1.50e+00	0	55	104	0	16	30694
2026-01-20 08:14:36.34	104.47	6.56	-22.8	-40.0	3.8	1.51e+00	0	55	104	0	14	30730
2026-01-20 08:14:37.35	104.37	6.62	-18.0	-38.4	3.9	1.50e+00	0	55	104	0	11	30341
2026-01-20 08:14:38.36	104.28	6.68	-17.7	-39.6	3.7	1.50e+00	0	55	104	0	13	30751
2026-01-20 08:14:39.37	104.18	6.74	-18.5	-39.6	3.8	1.50e+00	0	55	104	0	9	38766
2026-01-20 08:14:40.38	104.09	6.81	-24.3	-42.1	3.8	1.50e+00	0	55	104	0	20	27589
2026-01-20 08:14:41.39	103.99	6.87	-25.4	-42.1	3.9	1.50e+00	0	56	104	0	22	24516
2026-01-20 08:14:42.40	103.89	6.93	-24.3	-39.6	3.7	1.51e+00	0	55	104	0	11	34718
2026-01-20 08:14:43.41	103.80	6.99	-24.1	-42.3	3.8	1.50e+00	0	56	0	0	14	40043
2026-01-20 08:14:44.42	103.70	7.06	-22.6	-41.6	4.1	1.50e+00	0	55	104	0	15	34745
2026-01-20 08:14:45.43	103.60	7.12	-23.8	-41.4	3.5	1.51e+00	0	55	104	0	19	26869
2026-01-20 08:14:46.44	103.50	7.18	-26.1	-43.1	3.8	1.51e+00	0	56	104	0	19	32707
2026-01-20 08:14:47.45	103.40	7.25	-29.3	-42.5	3.7	1.50e+00	0	55	104	0	19	30729
2026-01-20 08:14:48.47	103.30	7.31	-28.2	-45.1	3.5	1.50e+00	0	56	104	0	27	25935
2026-01-20 08:14:49.48	103.20	7.37	-25.0	-44.0	3.7	1.50e+00	0	56	104	0	21	32380
2026-01-20 08:14:50.49	103.10	7.44	-27.7	-44.1	4.1	1.50e+00	0	56	104	0	33	16322
2026-01-20 08:14:51.50	103.00	7.50	-31.3	-44.8	4.1	1.50e+00	0	56	104	0	28	23787
2026-01-20 08:14:52.51	102.90	7.56	-25.1	-44.3	3.5	1.50e+00	0	56	104	0	23	29797
2026-01-20 08:14:53.52	102.80	7.63	-21.6	-40.1	3.7	1.50e+00	0	56	104	0	14	30958
2026-01-20 08:14:54.53	102.70	7.69	-22.4	-40.6	3.7	1.50e+00	0	56	104	0	16	29013
2026-01-20 08:14:55.54	102.59	7.76	-21.6	-39.1	3.9	1.50e+00	0	56	104	0	15	25958
2026-01-20 08:14:56.55	102.49	7.82	-29.7	-46.2	4.1	1.50e+00	0	56	104	0	20	43968
2026-01-20 08:14:57.56	102.39	7.88	-23.2	-40.4	3.9	1.50e+00	0	56	104	0	18	25352
2026-01-20 08:14:58.57	102.28	7.95	-23.3	-41.3	4.2	1.50e+00	0	56	104	0	20	25003
2026-01-20 08:14:59.58	102.18	8.01	-23.6	-40.6	3.7	1.50e+00	0	56	104	0	18	25865
2026-01-20 08:15:00.60	102.07	8.08	-28.0	-45.1	3.9	1.50e+00	0	56	104	0	28	24507
2026-01-20 08:15:01.61	101.97	8.14	-22.0	-43.0	3.9	1.51e+00	0	56	104	0	21	28733
2026-01-20 08:15:02.61	101.86	8.20	-19.4	-39.7	4.1	1.51e+00	0	56	104	0	9	39300
2026-01-20 08:15:03.62	101.76	8.27	-14.9	-40.9	3.9	1.50e+00	0	56	104	0	11	40099
2026-01-20 08:15:04.63	101.65	8.33	-19.4	-41.6	4.1	1.51e+00	0	56	104	0	16	32660
2026-01-20 08:15:05.64	101.54	8.40	-17.9	-39.7	4.0	1.51e+00	0	56	104	0	8	41679
2026-01-20 08:15:06.65	101.43	8.46	-18.1	-39.9	3.9	1.51e+00	0	56	104	0	7	45019
2026-01-20 08:15:07.66	101.32	8.53	-18.6	-39.5	3.7	1.51e+00	0	56	104	0	8	40527
2026-01-20 08:15:08.67	101.22	8.59	-25.8	-43.1	3.6	1.51e+00	0	56	104	0	20	30799
2026-01-20 08:15:09.68	101.11	8.66	-17.1	-38.7	3.9	1.50e+00	0	56	104	0	7	39490
2026-01-20 08:15:10.69	101.00	8.72	-24.4	-43.9	3.8	1.50e+00	0	56	104	0	16	42700
2026-01-20 08:15:11.69	100.89	8.78	-20.1	-41.1	3.6	1.50e+00	0	56	104	0	13	36877
2026-01-20 08:15:12.70	100.78	8.85	-22.4	-39.3	3.8	1.50e+00	0	56	104	0	18	22336
2026-01-20 08:15:13.71	100.67	8.91	-31.2	-45.4	3.9	1.50e+00	0	56	104	0	22	35756
2026-01-20 08:15:14.72	100.55	8.98	-24.8	-40.8	4.0	1.50e+00	0	56	104	0	20	23841
2026-01-20 08:15:15.73	100.44	9.04	-21.6	-42.1	3.8	1.51e+00	0	56	104	0	16	34500
2026-01-20 08:15:16.74	100.33	9.11	-24.9	-43.1	3.9	1.50e+00	0	56	104	0	21	29095
2026-01-20 08:15:17.75	100.22	9.18	-28.5	-46.0	4.1	1.50e+00	0	56	104	0	18	48466
2026-01-20 08:15:18.76	100.10	9.24	-24.7	-42.7	3.9	1.50e+00	0	56	104	0	22	26397
2026-01-20 08:15:19.77	99.99	9.31	-29.8	-47.4	4.6	1.50e+00	0	56	104	0	30	28391
2026-01-20 08:15:20.78	99.87	9.37	-24.3	-42.6	3.5	1.50e+00	0	56	104	0	20	29200
2026-01-20 08:15:21.79	99.76	9.44	-24.5	-42.2	3.9	1.50e+00	0	57	104	0	21	26428
2026-01-20 08:15:22.80	99.64	9.50	-26.9	-42.0	4.1	1.50e+00	0	57	104	0	20	27129
2026-01-20 08:15:23.81	99.52	9.57	-17.3	-38.8	4.0	1.51e+00	0	57	104	0	8	37573
2026-01-20 08:15:24.82	99.41	9.63	-33.3	-42.3	4.0	1.50e+00	0	57	104	0	22	25130
2026-01-20 08:15:25.83	99.29	9.70	-22.5	-39.4	3.5	1.50e+00	0	57	104	0	16	25347
2026-01-20 08:15:26.84	99.17	9.77	-20.1	-40.6	4.0	1.50e+00	0	57	104	0	17	27569
2026-01-20 08:15:27.85	99.05	9.83	-24.7	-42.9	3.9	1.50e+00	0	57	104	0	19	32081
2026-01-20 08:15:28.85	98.94	9.90	-19.7	-40.4	3.8	1.50e+00	0	57	104	0	15	30262
2026-01-20 08:15:29.86	98.82	9.96	-30.5	-43.4	4.0	1.50e+00	0	57	104	0	18	35832
2026-01-20 08:15:30.88	98.69	10.03	-21.2	-39.8	4.1	1.50e+00	0	57	104	0	16	26477
2026-01-20 08:15:31.89	98.57	10.10	-23.5	-40.4	3.8	1.50e+00	0	57	104	0	14	32058
2026-01-20 08:15:32.90	98.45	10.16	-25.3	-43.8	3.8	1.49e+00	0	57	104	0	26	23836
2026-01-20 08:15:33.91	98.33	10.23	-31.1	-46.0	3.8	1.49e+00	0	57	104	0	28	27203
2026-01-20 08:15:34.92	98.21	10.29	-23.9	-44.5	3.8	1.50e+00	0	57	104	0	20	36388
2026-01-20 08:15:35.93	98.08	10.36	-27.3	-46.0	4.1	1.50e+00	0	57	104	0	22	38442
2026-01-20 08:15:36.94	97.96	10.43	-28.8	-47.6	3.7	1.48e+00	0	57	104	0	23	43636
2026-01-20 08:15:37.95	97.84	10.49	-32.6	-45.8	4.0	1.49e+00	0	57	104	0	26	29854
2026-01-20 08:15:38.96	97.71	10.56	-24.7	-41.8	4.1	1.45e+00	0	57	104	0	25	20026
2026-01-20 08:15:39.97	97.59	10.63	-26.6	-42.9	3.9	1.49e+00	0	57	104	0	23	25391
2026-01-20 08:15:40.97	97.46	10.69	-27.2	-45.0	4.9	1.49e+00	5	57	104	0	31	20518
2026-01-20 08:15:41.98	97.34	10.76	-25.2	-42.9	4.0	1.46e+00	0	57	104	0	27	20182
2026-01-20 08:15:42.99	97.21	10.82	-27.8	-42.3	4.0	1.49e+00	0	57	104	0	23	23716
2026-01-20 08:15:44.00	97.08	10.89	-35.3	-51.1	3.9	1.48e+00	0	57	104	0	41	23236
2026-01-20 08:15:45.01	96.95	10.96	-25.0	-44.8	4.1	1.49e+00	0	58	104	0	22	33349
2026-01-20 08:15:46.02	96.82	11.02	-37.8	-52.4	4.0	1.48e+00	0	57	104	0	40	28453
2026-01-20 08:15:47.03	96.69	11.09	-38.7	-47.9	6.6	9.66e-01	21	57	0	0	46	12060
2026-01-20 08:15:48.04	96.56	11.16	-39.6	-47.7	6.2	1.24e+00	12	57	0	0	46	11717
2026-01-20 08:15:49.05	96.43	11.23	-37.7	-47.5	5.6	4.16e-01	20	58	0	1048576	44	12857
2026-01-20 08:15:50.06	96.30	11.29	-39.1	-47.8	6.6	2.93e-01	5	57	0	3145728	49	10035
2026-01-20 08:15:51.06	96.17	11.36	-30.9	-46.6	5.1	6.83e-01	47	58	0	4194304	35	19613
2026-01-20 08:15:52.07	96.04	11.43	-39.6	-47.8	6.7	2.98e-01	4	57	0	6291456	48	10566
2026-01-20 08:15:53.08	95.91	11.49	-40.0	-47.2	6.9	3.04e-01	5	57	0	8388608	49	9329
2026-01-20 08:15:54.09	95.77	11.56	-40.9	-55.7	3.7	6.40e-01	0	57	104	9437184	54	18584
2026-01-20 08:15:55.10	95.64	11.63	-37.7	-52.2	3.9	1.28e+00	0	58	104	9437184	46	19774
2026-01-20 08:15:56.11	95.50	11.69	-42.0	-52.9	4.5	1.15e+00	74	57	0	9437184	55	12705
2026-01-20 08:15:57.11	95.37	11.76	-40.5	-51.7	4.8	2.71e-01	30	57	0	10485760	52	13132
2026-01-20 08:15:58.12	95.23	11.83	-38.1	-48.3	7.2	4.70e-01	0	58	0	12582912	53	8390
2026-01-20 08:15:59.13	95.10	11.89	-41.4	-48.6	7.2	1.93e-01	0	57	0	14680064	53	8702
2026-01-20 08:16:00.14	94.96	11.96	-41.6	-48.8	6.8	1.66e-01	0	57	0	16777216	53	8902
2026-01-20 08:16:01.15	94.82	12.03	-41.0	-48.5	7.4	1.53e-01	0	57	0	17825792	53	8598
2026-01-20 08:16:02.16	94.68	12.10	-41.6	-48.2	7.2	1.11e-01	0	58	0	19922944	52	8848
2026-01-20 08:16:03.17	94.54	12.16	-41.6	-48.2	7.7	1.00e-01	0	57	0	22020096	53	8300
2026-01-20 08:16:04.18	94.40	12.23	-41.6	-48.4	7.6	1.56e-01	0	58	0	24117248	54	8069
2026-01-20 08:16:05.19	94.26	12.30	-41.6	-48.1	8.0	8.23e-02	0	58	0	26214400	54	7805
2026-01-20 08:16:06.20	94.12	12.37	-41.8	-47.9	8.4	4.96e-02	0	58	0	27262976	54	7600
2026-01-20 08:16:07.21	93.98	12.43	-41.8	-47.9	8.3	5.69e-02	0	58	0	29360128	54	7604
2026-01-20 08:16:08.22	93.83	12.50	-40.1	-47.4	8.3	6.01e-02	0	57	0	31457280	52	8052
2026-01-20 08:16:09.23	93.69	12.57	-41.7	-47.8	8.5	4.71e-02	0	58	0	33554432	54	7507
2026-01-20 08:16:10.24	93.55	12.63	-41.6	-47.9	8.5	3.82e-02	0	58	0	34603008	54	7614
2026-01-20 08:16:11.25	93.40	12.70	-41.8	-48.0	8.4	3.65e-02	0	58	0	36700160	54	7666
2026-01-20 08:16:12.26	93.26	12.77	-41.6	-48.0	8.4	4.68e-02	0	58	0	38797312	54	7690
2026-01-20 08:16:13.27	93.11	12.84	-41.8	-48.3	8.0	6.73e-02	0	58	0	40894464	54	7947
2026-01-20 08:16:14.27	92.97	12.90	-41.8	-48.3	8.1	5.27e-02	0	58	0	42991616	54	7949
2026-01-20 08:16:15.28	92.82	12.97	-41.8	-47.8	8.6	4.31e-02	0	58	0	45088768	54	7530
2026-01-20 08:16:16.29	92.67	13.04	-41.9	-48.2	8.2	4.98e-02	0	58	0	46137344	54	7822
2026-01-20 08:16:17.30	92.52	13.11	-41.8	-47.9	8.5	4.46e-02	0	58	0	48234496	54	7604
2026-01-20 08:16:18.31	92.37	13.17	-41.9	-48.5	7.9	7.23e-02	0	58	0	50331648	54	8119
2026-01-20 08:16:19.32	92.22	13.24	-41.9	-48.3	8.1	6.54e-02	0	58	0	52428800	54	7964
2026-01-20 08:16:20.33	92.07	13.31	-41.9	-48.5	7.8	7.73e-02	0	58	0	54525952	54	8148
2026-01-20 08:16:21.34	91.92	13.37	-41.9	-48.2	8.2	7.23e-02	0	58	0	55574528	54	7832
2026-01-20 08:16:22.35	91.77	13.44	-41.7	-48.0	8.3	5.02e-02	0	58	0	57671680	54	7673
2026-01-20 08:16:23.36	91.61	13.51	-41.9	-48.4	7.9	5.86e-02	0	58	0	59768832	54	8029
2026-01-20 08:16:24.37	91.46	13.58	-41.9	-48.4	7.9	7.30e-02	0	58	0	61865984	54	8040
2026-01-20 08:16:25.37	91.31	13.64	-41.8	-48.3	7.9	6.94e-02	0	58	0	63963136	54	7979
2026-01-20 08:16:26.38	91.15	13.71	-41.7	-47.9	8.3	6.22e-02	0	58	0	65011712	54	7589
2026-01-20 08:16:27.39	91.00	13.78	-41.7	-47.8	8.5	4.66e-02	0	58	0	67108864	54	7485
2026-01-20 08:16:28.40	90.84	13.85	-41.6	-48.0	8.3	4.74e-02	0	58	0	69206016	54	7671
2026-01-20 08:16:29.41	90.68	13.91	-41.6	-48.1	8.2	5.30e-02	0	58	0	71303168	54	7772
2026-01-20 08:16:30.42	90.53	13.98	-41.8	-48.3	8.0	6.37e-02	0	58	0	73400320	54	7934
2026-01-20 08:16:31.43	90.37	14.05	-41.8	-48.4	7.8	7.19e-02	0	58	0	74448896	54	8060
2026-01-20 08:16:32.44	90.21	14.11	-41.6	-48.3	7.9	7.63e-02	0	58	0	76546048	54	7966
2026-01-20 08:16:33.45	90.05	14.18	-41.6	-48.1	8.0	6.64e-02	0	58	0	78643200	54	7786
2026-01-20 08:16:34.46	89.89	14.25	-41.5	-47.9	8.2	5.61e-02	0	58	0	80740352	54	7592
2026-01-20 08:16:35.47	89.73	14.31	-41.5	-47.9	8.1	5.93e-02	0	58	0	82837504	54	7626
2026-01-20 08:16:36.48	89.56	14.38	-41.5	-48.1	7.9	7.12e-02	0	58	0	83886080	54	7795
2026-01-20 08:16:37.49	89.40	14.45	-41.6	-48.4	7.6	8.70e-02	0	58	0	85983232	54	8044
2026-01-20 08:16:38.50	89.24	14.52	-41.7	-48.8	7.2	1.26e-01	0	58	0	88080384	54	8435
2026-01-20 08:16:39.51	89.07	14.58	-41.7	-48.9	7.1	1.43e-01	0	58	0	90177536	54	8540
2026-01-20 08:16:40.52	88.91	14.65	-41.7	-49.1	6.9	1.55e-01	0	58	0	92274688	54	8727
2026-01-20 08:16:41.52	88.74	14.71	-41.7	-49.0	6.9	1.68e-01	0	58	0	93323264	54	8659
2026-01-20 08:16:42.53	88.58	14.78	-41.9	-49.7	6.3	1.88e-01	0	58	0	95420416	54	9344
2026-01-20 08:16:43.54	88.41	14.85	-41.8	-49.6	6.5	5.00e-01	0	58	0	97517568	54	9258
2026-01-20 08:16:44.55	88.24	14.91	-42.4	-55.5	3.8	1.49e+00	0	58	104	97517568	55	17194
2026-01-20 08:16:45.56	88.07	14.98	-41.7	-49.9	6.1	1.47e+00	0	58	104	97517568	55	9010
2026-01-20 08:16:46.57	87.90	15.05	-41.9	-52.3	4.0	1.47e+00	0	58	104	97517568	55	11919
2026-01-20 08:16:47.58	87.73	15.11	-41.6	-50.7	5.3	5.42e-01	0	58	0	98566144	55	9920
2026-01-20 08:16:48.59	87.56	15.18	-41.6	-50.4	5.5	4.99e-01	0	58	0	99614720	55	9562
2026-01-20 08:16:49.60	87.39	15.25	-41.5	-50.5	5.4	4.93e-01	0	58	0	101711872	55	9646
2026-01-20 08:16:50.61	87.21	15.31	-41.5	-50.7	5.3	5.51e-01	0	58	0	103809024	55	9852
2026-01-20 08:16:51.62	87.04	15.38	-41.6	-51.3	5.0	6.79e-01	0	59	0	105906176	55	10575
2026-01-20 08:16:52.63	86.87	15.44	-41.7	-51.2	5.1	7.43e-01	0	58	0	108003328	54	11076
2026-01-20 08:16:53.64	86.69	15.51	-41.6	-52.5	4.4	7.76e-01	37	58	0	109051904	54	12867
2026-01-20 08:16:54.65	86.51	15.57	-41.8	-51.3	5.2	1.33e+00	0	59	104	110100480	54	11263
2026-01-20 08:16:55.66	86.34	15.64	-42.3	-56.0	3.8	1.49e+00	0	58	104	110100480	55	18260
2026-01-20 08:16:56.67	86.16	15.71	-41.6	-49.8	6.0	1.49e+00	0	58	104	110100480	55	8941
2026-01-20 08:16:57.68	85.98	15.77	-41.6	-50.0	5.8	5.45e-01	0	59	0	111149056	55	9149
2026-01-20 08:16:58.69	85.80	15.84	-41.6	-49.9	5.9	3.56e-01	0	59	0	113246208	55	9013
2026-01-20 08:16:59.69	85.63	15.90	-41.5	-49.7	6.1	3.39e-01	0	59	0	115343360	55	8789
2026-01-20 08:17:00.70	85.44	15.97	-41.4	-49.4	6.2	2.88e-01	0	58	0	117440512	54	9058
2026-01-20 08:17:01.71	85.26	16.03	-41.4	-49.5	6.1	2.82e-01	0	59	0	119537664	54	9130
2026-01-20 08:17:02.72	85.08	16.10	-41.4	-49.4	6.2	3.04e-01	0	58	0	120586240	54	9069
2026-01-20 08:17:03.74	84.90	16.16	-41.6	-49.7	6.1	2.66e-01	0	58	0	122683392	54	9386
2026-01-20 08:17:04.75	84.71	16.23	-41.6	-51.0	5.3	2.63e-01	0	59	0	124780544	54	10795
2026-01-20 08:17:05.75	84.53	16.29	-42.0	-50.7	5.7	8.04e-01	0	59	0	126877696	54	10456
2026-01-20 08:17:06.76	84.34	16.35	-42.6	-53.9	4.3	9.49e-01	6	59	0	127926272	55	14233
2026-01-20 08:17:07.77	84.16	16.42	-41.9	-51.8	4.9	4.60e-01	0	58	0	127926272	55	11234
2026-01-20 08:17:08.78	83.97	16.48	-41.8	-50.0	5.8	1.34e+00	0	59	0	127926272	55	9150
2026-01-20 08:17:09.79	83.78	16.55	-41.8	-49.8	6.1	2.76e-01	0	59	0	130023424	55	8913
2026-01-20 08:17:10.80	83.59	16.61	-41.8	-49.8	6.1	2.97e-01	0	59	0	132120576	55	8954
2026-01-20 08:17:11.81	83.40	16.67	-41.7	-49.3	6.5	2.77e-01	0	59	0	133169152	55	8421
2026-01-20 08:17:12.82	83.21	16.74	-41.6	-48.9	6.9	2.02e-01	0	59	0	135266304	55	8002
2026-01-20 08:17:13.83	83.02	16.80	-41.6	-48.7	7.1	1.51e-01	0	59	0	137363456	55	7825
2026-01-20 08:17:14.84	82.83	16.86	-42.1	-50.6	5.7	1.66e-01	0	59	0	139460608	55	9766
2026-01-20 08:17:15.85	82.64	16.92	-42.4	-52.4	4.7	5.04e-01	0	58	0	141557760	55	12018
2026-01-20 08:17:16.86	82.45	16.99	-41.5	-48.2	7.7	9.37e-02	0	58	0	142606336	54	7859
2026-01-20 08:17:17.86	82.25	17.05	-42.4	-51.6	5.2	9.54e-02	0	59	0	144703488	55	10979
2026-01-20 08:17:18.87	82.06	17.11	-42.1	-53.3	4.3	2.37e-01	81	59	0	146800640	54	14125
2026-01-20 08:17:19.88	81.86	17.17	-41.3	-47.4	8.4	1.37e+00	0	59	0	146800640	54	7159
2026-01-20 08:17:20.89	81.67	17.24	-41.3	-47.2	8.7	3.45e-02	0	59	0	148897792	54	7033
2026-01-20 08:17:21.90	81.47	17.30	-41.3	-47.0	9.0	2.99e-02	0	59	0	150994944	54	6829
2026-01-20 08:17:22.91	81.27	17.36	-41.2	-46.8	9.3	2.09e-02	0	59	0	152043520	54	6663
2026-01-20 08:17:23.92	81.07	17.42	-41.1	-46.7	9.3	1.68e-02	0	59	0	154140672	54	6620
2026-01-20 08:17:24.93	80.87	17.48	-41.1	-46.8	9.1	2.10e-02	0	59	0	156237824	54	6664
2026-01-20 08:17:25.94	80.67	17.54	-41.0	-46.8	8.9	2.56e-02	0	59	0	158334976	54	6720
2026-01-20 08:17:26.95	80.47	17.60	-41.0	-47.2	8.5	3.63e-02	0	59	0	160432128	54	7008
2026-01-20 08:17:27.96	80.27	17.66	-41.0	-47.4	8.2	4.93e-02	0	59	0	162529280	54	7154
2026-01-20 08:17:28.97	80.06	17.73	-40.9	-47.5	7.9	6.28e-02	0	59	0	163577856	53	7676
2026-01-20 08:17:29.98	79.86	17.79	-41.0	-47.8	7.6	8.98e-02	0	59	0	165675008	53	7988
2026-01-20 08:17:30.99	79.65	17.85	-41.0	-47.9	7.5	1.10e-01	0	59	0	167772160	53	8081
2026-01-20 08:17:32.00	79.45	17.90	-41.0	-48.0	7.4	1.05e-01	0	59	0	169869312	53	8143
2026-01-20 08:17:33.01	79.24	17.96	-41.1	-48.1	7.4	1.15e-01	0	59	0	171966464	53	8238
2026-01-20 08:17:34.01	79.04	18.02	-41.1	-48.1	7.4	1.16e-01	0	59	0	173015040	53	8248
2026-01-20 08:17:35.02	78.83	18.08	-41.1	-47.9	7.6	1.15e-01	0	59	0	175112192	53	8026
2026-01-20 08:17:36.03	78.62	18.14	-41.3	-49.7	6.0	1.03e-01	0	59	0	177209344	53	9878
2026-01-20 08:17:37.04	78.41	18.20	-42.0	-53.0	4.3	3.88e-01	20	59	0	179306496	54	13579
2026-01-20 08:17:38.05	78.20	18.26	-42.5	-54.2	4.1	7.59e-01	0	59	0	180355072	55	14845
2026-01-20 08:17:39.06	77.99	18.31	-41.7	-54.1	3.8	1.74e-01	0	59	104	181403648	54	15542
2026-01-20 08:17:40.07	77.77	18.37	-41.1	-47.5	8.0	1.49e-01	0	59	0	181403648	54	7284
2026-01-20 08:17:41.08	77.56	18.43	-41.1	-47.6	8.0	6.81e-02	0	59	0	183500800	54	7313
2026-01-20 08:17:42.09	77.35	18.49	-41.2	-47.6	8.1	5.99e-02	0	59	0	185597952	54	7329
2026-01-20 08:17:43.10	77.13	18.54	-41.1	-47.6	8.1	6.50e-02	0	59	0	187695104	54	7306
2026-01-20 08:17:44.11	76.92	18.60	-41.1	-47.6	8.0	6.29e-02	0	59	0	189792256	54	7329
2026-01-20 08:17:45.12	76.70	18.66	-41.2	-47.8	7.9	7.24e-02	0	59	0	190840832	54	7491
2026-01-20 08:17:46.13	76.48	18.71	-41.2	-47.9	7.8	8.03e-02	0	59	0	192937984	54	7552
2026-01-20 08:17:47.14	76.27	18.77	-41.2	-47.9	7.7	9.16e-02	0	59	0	195035136	54	7601
2026-01-20 08:17:48.15	76.05	18.82	-41.2	-47.9	7.7	8.72e-02	0	59	0	197132288	54	7569
2026-01-20 08:17:49.16	75.83	18.88	-41.2	-48.0	7.7	9.14e-02	0	59	0	199229440	54	7685
2026-01-20 08:17:50.17	75.61	18.93	-41.2	-47.9	7.7	8.90e-02	0	59	0	200278016	54	7625
2026-01-20 08:17:51.17	75.39	18.99	-41.2	-47.9	7.8	8.59e-02	0	59	0	202375168	54	7599
2026-01-20 08:17:52.18	75.17	19.04	-41.1	-47.7	7.9	8.06e-02	0	59	0	204472320	54	7421
2026-01-20 08:17:53.19	74.95	19.09	-41.1	-47.6	8.1	6.29e-02	0	59	0	206569472	54	7307
2026-01-20 08:17:54.20	74.72	19.15	-41.1	-47.2	8.5	5.60e-02	0	59	0	208666624	54	7029
2026-01-20 08:17:55.21	74.50	19.20	-41.1	-47.1	8.7	3.75e-02	0	59	0	209715200	54	6902
2026-01-20 08:17:56.22	74.27	19.25	-41.1	-46.9	9.0	2.64e-02	0	59	0	211812352	54	6736
2026-01-20 08:17:57.23	74.05	19.31	-41.2	-47.0	8.9	2.69e-02	0	59	0	213909504	54	6866
2026-01-20 08:17:58.24	73.82	19.36	-41.3	-47.1	8.9	2.90e-02	0	59	0	216006656	54	6940
2026-01-20 08:17:59.25	73.59	19.41	-41.3	-47.0	9.1	2.60e-02	0	59	0	218103808	54	6866
2026-01-20 08:18:00.26	73.37	19.46	-41.3	-46.9	9.2	2.12e-02	0	59	0	219152384	54	6786
2026-01-20 08:18:01.26	73.14	19.51	-41.3	-46.9	9.2	1.97e-02	0	59	0	221249536	54	6798
2026-01-20 08:18:02.27	72.91	19.56	-41.2	-46.6	9.6	1.34e-02	0	59	0	223346688	54	6528
2026-01-20 08:18:03.28	72.68	19.61	-41.2	-46.4	9.9	9.63e-03	0	59	0	225443840	54	6368
2026-01-20 08:18:04.29	72.45	19.66	-41.2	-46.3	10.1	7.19e-03	0	59	0	227540992	54	6295
2026-01-20 08:18:05.30	72.22	19.71	-41.2	-46.4	10.0	7.98e-03	0	59	0	229638144	54	6379
2026-01-20 08:18:06.31	71.98	19.76	-41.2	-46.4	10.0	7.45e-03	0	59	0	230686720	54	6393
2026-01-20 08:18:07.32	71.75	19.81	-41.4	-46.7	9.7	9.33e-03	0	59	0	232783872	54	6614
2026-01-20 08:18:08.33	71.52	19.86	-41.4	-46.5	10.0	9.72e-03	0	59	0	234881024	54	6475
2026-01-20 08:18:09.34	71.28	19.90	-41.5	-46.5	10.2	6.19e-03	0	59	0	236978176	54	6474
2026-01-20 08:18:10.35	71.05	19.95	-41.5	-46.3	10.5	4.70e-03	0	59	0	239075328	54	6299
2026-01-20 08:18:11.36	70.81	20.00	-41.4	-46.0	10.9	2.94e-03	0	59	0	240123904	54	6094
2026-01-20 08:18:12.37	70.57	20.05	-41.3	-45.7	11.3	1.38e-03	0	59	0	242221056	54	5897
2026-01-20 08:18:13.38	70.34	20.09	-41.3	-45.5	11.6	9.26e-04	0	59	0	244318208	54	5752
2026-01-20 08:18:14.39	70.10	20.14	-41.2	-45.4	11.8	5.99e-04	0	59	0	246415360	54	5682
2026-01-20 08:18:15.40	69.86	20.18	-41.3	-45.4	11.9	4.89e-04	0	59	0	248512512	54	5682
2026-01-20 08:18:16.41	69.62	20.23	-41.3	-45.2	12.1	3.12e-04	0	59	0	249561088	54	5583
2026-01-20 08:18:17.42	69.38	20.27	-41.2	-45.1	12.3	2.56e-04	0	59	0	251658240	54	5468
2026-01-20 08:18:18.43	69.14	20.32	-41.2	-45.0	12.4	1.36e-04	0	59	0	253755392	54	5421
2026-01-20 08:18:19.44	68.90	20.36	-41.2	-45.0	12.4	1.26e-04	0	59	0	255852544	54	5451
2026-01-20 08:18:20.44	68.66	20.40	-41.2	-45.0	12.5	1.20e-04	0	59	0	257949696	54	5435
2026-01-20 08:18:21.45	68.41	20.44	-41.3	-45.0	12.5	1.23e-04	0	59	0	258998272	54	5440
2026-01-20 08:18:22.46	68.17	20.49	-41.2	-45.0	12.6	1.01e-04	0	59	0	261095424	54	5414
2026-01-20 08:18:23.47	67.92	20.53	-41.3	-45.0	12.6	1.02e-04	0	59	0	263192576	54	5430
2026-01-20 08:18:24.48	67.68	20.57	-41.4	-45.1	12.5	7.78e-05	0	59	0	265289728	54	5501
2026-01-20 08:18:25.49	67.43	20.61	-41.4	-45.2	12.5	9.61e-05	0	59	0	267386880	54	5529
2026-01-20 08:18:26.50	67.19	20.65	-41.4	-45.3	12.5	1.17e-04	0	60	0	268435456	54	5595
2026-01-20 08:18:27.51	66.94	20.69	-41.5	-45.3	12.4	1.36e-04	0	59	0	270532608	54	5649
2026-01-20 08:18:28.52	66.69	20.73	-41.5	-45.3	12.5	1.05e-04	0	59	0	272629760	54	5618
2026-01-20 08:18:29.53	66.44	20.77	-41.5	-45.2	12.5	1.27e-04	0	59	0	274726912	54	5589
2026-01-20 08:18:30.54	66.19	20.80	-41.5	-45.3	12.5	8.85e-05	0	59	0	276824064	54	5594
2026-01-20 08:18:31.54	65.95	20.84	-41.5	-45.3	12.6	1.33e-04	0	59	0	277872640	54	5622
2026-01-20 08:18:32.55	65.70	20.88	-41.5	-45.2	12.6	1.01e-04	0	59	0	279969792	54	5548
2026-01-20 08:18:33.56	65.45	20.91	-41.4	-45.1	12.8	7.47e-05	0	59	0	282066944	54	5469
2026-01-20 08:18:34.58	65.19	20.95	-41.5	-45.2	12.7	6.10e-05	0	59	0	284164096	54	5539
2026-01-20 08:18:35.59	64.94	20.99	-41.5	-45.3	12.6	8.39e-05	0	59	0	286261248	54	5600
2026-01-20 08:18:36.60	64.69	21.02	-41.7	-45.5	12.3	1.34e-04	0	59	0	287309824	54	5769
2026-01-20 08:18:37.60	64.44	21.06	-41.7	-45.6	12.2	1.76e-04	0	59	0	289406976	54	5841
2026-01-20 08:18:38.61	64.18	21.09	-41.7	-45.7	12.2	2.17e-04	0	59	0	291504128	54	5871
2026-01-20 08:18:39.62	63.93	21.12	-41.8	-45.8	12.1	2.54e-04	0	59	0	293601280	54	5965
2026-01-20 08:18:40.63	63.67	21.15	-41.9	-45.9	11.9	3.28e-04	0	59	0	295698432	54	6056
2026-01-20 08:18:41.64	63.42	21.19	-41.9	-45.9	11.9	3.58e-04	0	59	0	296747008	54	6052
2026-01-20 08:18:42.65	63.16	21.22	-41.9	-46.1	11.7	4.12e-04	0	59	0	298844160	54	6183
2026-01-20 08:18:43.66	62.91	21.25	-41.9	-46.1	11.8	3.91e-04	0	59	0	300941312	54	6139
2026-01-20 08:18:44.67	62.65	21.28	-42.0	-46.3	11.6	7.00e-04	0	59	0	303038464	54	6292
2026-01-20 08:18:45.68	62.39	21.31	-42.0	-46.3	11.6	7.86e-04	0	59	0	305135616	54	6311
2026-01-20 08:18:46.69	62.13	21.34	-42.0	-46.3	11.6	7.63e-04	0	59	0	306184192	54	6292
2026-01-20 08:18:47.70	61.88	21.37	-42.0	-46.2	11.6	6.12e-04	0	59	0	308281344	54	6252
2026-01-20 08:18:48.71	61.62	21.40	-42.0	-46.2	11.7	7.01e-04	0	59	0	310378496	54	6266
2026-01-20 08:18:49.72	61.36	21.42	-42.1	-46.3	11.6	6.03e-04	0	59	0	312475648	54	6327
2026-01-20 08:18:50.73	61.10	21.45	-42.1	-46.5	11.4	8.12e-04	0	59	0	314572800	54	6468
2026-01-20 08:18:51.74	60.84	21.48	-42.2	-46.6	11.2	1.23e-03	0	59	0	316669952	54	6554
2026-01-20 08:18:52.75	60.58	21.50	-42.2	-46.7	11.2	1.22e-03	0	59	0	317718528	55	6226
2026-01-20 08:18:53.76	60.32	21.53	-42.3	-46.9	11.0	1.58e-03	0	59	0	319815680	55	6351
2026-01-20 08:18:54.77	60.06	21.55	-42.3	-46.9	11.0	1.96e-03	0	59	0	321912832	55	6359
2026-01-20 08:18:55.78	59.79	21.58	-42.3	-46.9	10.9	2.06e-03	0	59	0	324009984	55	6412
2026-01-20 08:18:56.79	59.53	21.60	-42.3	-47.0	10.9	2.13e-03	0	59	0	326107136	55	6436
2026-01-20 08:18:57.80	59.27	21.62	-42.3	-46.8	11.1	1.74e-03	0	59	0	327155712	55	6295
2026-01-20 08:18:58.81	59.01	21.64	-42.3	-46.8	11.1	1.54e-03	0	59	0	329252864	55	6301
2026-01-20 08:18:59.82	58.74	21.67	-42.3	-46.8	11.1	1.57e-03	0	59	0	331350016	55	6283
2026-01-20 08:19:00.83	58.48	21.69	-42.3	-46.8	11.0	1.83e-03	0	59	0	333447168	55	6344
2026-01-20 08:19:01.84	58.21	21.71	-42.3	-46.8	11.1	1.80e-03	0	59	0	335544320	55	6278
2026-01-20 08:19:02.84	57.95	21.73	-42.2	-46.6	11.3	1.35e-03	0	59	0	336592896	55	6137
2026-01-20 08:19:03.85	57.69	21.74	-42.2	-46.5	11.4	1.01e-03	0	59	0	338690048	55	6103
2026-01-20 08:19:04.86	57.42	21.76	-42.1	-46.5	11.4	9.92e-04	0	59	0	340787200	55	6066
2026-01-20 08:19:05.87	57.16	21.78	-42.2	-46.5	11.4	9.87e-04	0	59	0	342884352	55	6110
2026-01-20 08:19:06.88	56.89	21.80	-42.2	-46.5	11.4	1.11e-03	0	59	0	344981504	55	6106
2026-01-20 08:19:07.89	56.63	21.81	-42.2	-46.5	11.4	1.05e-03	0	59	0	346030080	55	6088
2026-01-20 08:19:08.90	56.36	21.83	-42.2	-46.7	11.2	1.15e-03	0	59	0	348127232	55	6245
2026-01-20 08:19:09.91	56.09	21.84	-42.3	-46.7	11.1	1.36e-03	0	59	0	350224384	55	6265
2026-01-20 08:19:10.92	55.83	21.86	-42.4	-47.0	10.9	1.87e-03	0	59	0	352321536	55	6431
2026-01-20 08:19:11.93	55.56	21.87	-42.4	-47.0	10.9	2.20e-03	0	59	0	354418688	55	6479
2026-01-20 08:19:12.94	55.29	21.89	-42.4	-47.0	10.9	2.22e-03	0	59	0	355467264	55	6437
2026-01-20 08:19:13.95	55.03	21.90	-42.3	-46.8	11.1	1.65e-03	0	59	0	357564416	55	6295
2026-01-20 08:19:14.96	54.76	21.91	-42.3	-46.9	11.0	1.64e-03	0	59	0	359661568	55	6364
2026-01-20 08:19:15.97	54.49	21.92	-42.3	-46.9	11.0	1.72e-03	0	59	0	361758720	55	6401
2026-01-20 08:19:16.98	54.22	21.93	-42.3	-47.0	10.9	1.98e-03	0	59	0	363855872	55	6421
2026-01-20 08:19:17.99	53.95	21.94	-42.3	-46.8	11.1	1.60e-03	0	59	0	364904448	55	6293
2026-01-20 08:19:19.00	53.69	21.95	-42.2	-46.6	11.3	1.20e-03	0	59	0	367001600	55	6147
2026-01-20 08:19:20.01	53.42	21.96	-42.2	-46.6	11.3	1.09e-03	0	59	0	369098752	55	6190
2026-01-20 08:19:21.02	53.15	21.97	-42.3	-46.8	11.2	1.27e-03	0	59	0	371195904	55	6301
2026-01-20 08:19:22.03	52.88	21.97	-42.3	-46.7	11.2	1.41e-03	0	59	0	373293056	55	6241
2026-01-20 08:19:23.04	52.61	21.98	-42.2	-46.6	11.4	1.17e-03	0	59	0	374341632	55	6151
2026-01-20 08:19:24.05	52.34	21.99	-42.2	-46.6	11.4	9.90e-04	0	59	0	376438784	55	6145
2026-01-20 08:19:25.06	52.07	21.99	-42.2	-46.5	11.5	9.45e-04	0	59	0	378535936	55	6063
2026-01-20 08:19:26.07	51.80	22.00	-42.2	-46.4	11.5	6.87e-04	0	59	0	380633088	55	6054
2026-01-20 08:19:27.08	51.54	22.00	-42.2	-46.4	11.6	7.09e-04	0	59	0	382730240	55	6032
2026-01-20 08:19:28.09	51.27	22.00	-42.1	-46.4	11.6	7.48e-04	0	59	0	384827392	55	6024
2026-01-20 08:19:29.09	51.00	22.00	-42.1	-46.2	11.7	7.00e-04	0	59	0	385875968	55	5894
2026-01-20 08:19:30.10	50.73	22.01	-42.0	-46.1	11.9	4.58e-04	0	59	0	387973120	55	5836
2026-01-20 08:19:31.11	50.46	22.01	-42.0	-46.1	11.9	4.41e-04	0	59	0	390070272	55	5834
2026-01-20 08:19:32.13	50.19	22.01	-42.0	-46.0	12.0	3.65e-04	0	59	0	392167424	55	5768
2026-01-20 08:19:33.13	49.92	22.01	-41.9	-46.0	12.0	2.89e-04	0	59	0	394264576	55	5740
2026-01-20 08:19:34.14	49.65	22.01	-41.9	-45.9	12.1	3.26e-04	0	59	0	395313152	55	5699
2026-01-20 08:19:35.15	49.38	22.00	-41.9	-45.9	12.1	2.70e-04	0	60	0	397410304	55	5678
2026-01-20 08:19:36.16	49.11	22.00	-41.8	-45.6	12.4	2.03e-04	0	59	0	399507456	55	5488
2026-01-20 08:19:37.17	48.85	22.00	-41.7	-45.5	12.6	1.07e-04	0	59	0	401604608	55	5404
2026-01-20 08:19:38.18	48.58	22.00	-41.7	-45.5	12.5	9.53e-05	0	59	0	403701760	55	5446
2026-01-20 08:19:39.19	48.31	21.99	-41.7	-45.6	12.5	1.28e-04	0	59	0	404750336	55	5471
2026-01-20 08:19:40.20	48.04	21.99	-41.6	-45.4	12.7	8.46e-05	0	59	0	406847488	55	5351
2026-01-20 08:19:41.21	47.77	21.98	-41.7	-45.4	12.7	8.16e-05	0	59	0	408944640	55	5343
2026-01-20 08:19:42.22	47.50	21.97	-41.6	-45.2	12.9	7.17e-05	0	59	0	411041792	55	5233
2026-01-20 08:19:43.23	47.23	21.97	-41.5	-45.1	12.9	4.73e-05	0	59	0	413138944	55	5210
2026-01-20 08:19:44.24	46.96	21.96	-41.5	-45.0	13.1	2.97e-05	0	59	0	414187520	55	5126
2026-01-20 08:19:45.24	46.70	21.95	-41.5	-45.0	13.1	2.51e-05	0	59	0	416284672	54	5407
2026-01-20 08:19:46.25	46.43	21.94	-41.5	-45.0	13.1	3.28e-05	0	59	0	418381824	54	5417
2026-01-20 08:19:47.26	46.16	21.93	-41.4	-44.9	13.2	1.98e-05	0	59	0	420478976	54	5373
2026-01-20 08:19:48.27	45.89	21.92	-41.3	-44.7	13.4	9.10e-06	0	59	0	422576128	54	5254
2026-01-20 08:19:49.28	45.63	21.91	-41.2	-44.6	13.5	6.80e-06	0	59	0	423624704	54	5164
2026-01-20 08:19:50.29	45.36	21.90	-41.2	-44.4	13.7	7.60e-06	0	59	0	425721856	54	5071
2026-01-20 08:19:51.30	45.09	21.89	-41.2	-44.4	13.7	7.60e-06	0	59	0	427819008	54	5100
2026-01-20 08:19:52.31	44.83	21.87	-41.2	-44.4	13.7	3.00e-06	0	59	0	429916160	54	5085
2026-01-20 08:19:53.32	44.56	21.86	-41.2	-44.5	13.7	7.60e-06	0	60	0	432013312	54	5101
2026-01-20 08:19:54.33	44.29	21.85	-41.1	-44.3	13.8	8.30e-06	0	59	0	433061888	54	5035
2026-01-20 08:19:55.34	44.03	21.83	-41.1	-44.3	13.8	6.10e-06	0	60	0	435159040	54	5027
2026-01-20 08:19:56.35	43.76	21.82	-41.1	-44.3	13.8	3.80e-06	0	60	0	437256192	54	5012
2026-01-20 08:19:57.36	43.49	21.80	-41.1	-44.3	13.8	5.30e-06	0	59	0	439353344	54	5009
2026-01-20 08:19:58.37	43.23	21.78	-41.0	-44.1	14.0	3.80e-06	0	59	0	441450496	54	4918
2026-01-20 08:19:59.37	42.97	21.77	-40.9	-44.1	14.1	2.20e-06	0	59	0	442499072	53	5166
2026-01-20 08:20:00.38	42.70	21.75	-41.0	-44.1	14.0	1.50e-06	0	59	0	444596224	53	5193
2026-01-20 08:20:01.40	42.43	21.73	-41.0	-44.1	14.0	3.00e-06	0	59	0	446693376	53	5210
2026-01-20 08:20:02.41	42.17	21.71	-41.0	-44.1	14.0	2.20e-06	0	59	0	448790528	53	5187
2026-01-20 08:20:03.41	41.91	21.69	-41.0	-44.1	14.0	3.80e-06	0	59	0	450887680	53	5205
2026-01-20 08:20:04.42	41.65	21.67	-41.0	-44.1	14.0	1.50e-06	0	60	0	451936256	53	5202
2026-01-20 08:20:05.44	41.38	21.65	-41.1	-44.2	13.9	2.20e-06	0	59	0	454033408	53	5266
2026-01-20 08:20:06.44	41.12	21.63	-41.2	-44.4	13.7	6.80e-06	0	59	0	456130560	53	5388
2026-01-20 08:20:07.45	40.86	21.60	-41.2	-44.5	13.7	4.50e-06	0	59	0	458227712	53	5412
2026-01-20 08:20:08.46	40.60	21.58	-41.2	-44.5	13.7	9.90e-06	0	60	0	460324864	53	5408
2026-01-20 08:20:09.47	40.33	21.56	-41.1	-44.3	13.8	6.80e-06	0	59	0	462422016	53	5306
2026-01-20 08:20:10.48	40.07	21.53	-41.1	-44.2	13.9	3.00e-06	0	59	0	463470592	53	5278
2026-01-20 08:20:11.49	39.81	21.51	-41.1	-44.3	13.9	3.00e-06	0	59	0	465567744	53	5282
2026-01-20 08:20:12.50	39.55	21.48	-41.1	-44.3	13.8	3.80e-06	0	59	0	467664896	53	5313
2026-01-20 08:20:13.51	39.29	21.46	-41.2	-44.5	13.6	3.00e-06	0	60	0	469762048	53	5450
2026-01-20 08:20:14.52	39.03	21.43	-41.4	-44.8	13.3	1.83e-05	0	60	0	471859200	53	5627
2026-01-20 08:20:15.53	38.78	21.40	-41.4	-44.9	13.2	2.36e-05	0	60	0	472907776	53	5704
2026-01-20 08:20:16.54	38.52	21.37	-41.5	-45.0	13.1	3.35e-05	0	59	0	475004928	53	5762
2026-01-20 08:20:17.54	38.26	21.35	-41.6	-45.2	12.9	4.04e-05	0	60	0	477102080	53	5869
2026-01-20 08:20:18.55	38.00	21.32	-41.6	-45.2	12.8	6.02e-05	0	59	0	479199232	53	5920
2026-01-20 08:20:19.56	37.75	21.29	-41.6	-45.3	12.8	5.56e-05	0	60	0	481296384	53	5924
2026-01-20 08:20:20.57	37.49	21.26	-41.7	-45.4	12.7	6.79e-05	0	59	0	482344960	53	6008
2026-01-20 08:20:21.58	37.23	21.23	-41.8	-45.5	12.6	8.31e-05	0	60	0	484442112	54	5771
2026-01-20 08:20:22.59	36.98	21.19	-41.8	-45.6	12.5	9.99e-05	0	60	0	486539264	54	5830
2026-01-20 08:20:23.60	36.72	21.16	-41.9	-45.8	12.3	1.50e-04	0	60	0	488636416	54	5991
2026-01-20 08:20:24.61	36.47	21.13	-42.0	-45.9	12.1	2.23e-04	0	60	0	490733568	54	6051
2026-01-20 08:20:25.62	36.22	21.10	-42.0	-46.1	12.0	3.09e-04	0	60	0	491782144	54	6137
2026-01-20 08:20:26.63	35.96	21.06	-42.0	-46.1	12.0	3.75e-04	0	60	0	493879296	54	6155
2026-01-20 08:20:27.64	35.71	21.03	-42.0	-46.1	12.0	3.83e-04	0	59	0	495976448	54	6166
2026-01-20 08:20:28.65	35.46	20.99	-42.0	-46.1	12.0	2.92e-04	0	59	0	498073600	54	6134
2026-01-20 08:20:29.66	35.21	20.96	-42.0	-46.0	12.1	2.91e-04	0	59	0	500170752	54	6068
2026-01-20 08:20:30.67	34.96	20.92	-42.1	-46.2	11.9	3.24e-04	0	60	0	501219328	54	6204
2026-01-20 08:20:31.67	34.71	20.89	-42.1	-46.2	11.8	4.36e-04	0	59	0	503316480	54	6271
2026-01-20 08:20:32.68	34.46	20.85	-42.2	-46.4	11.6	5.25e-04	0	60	0	505413632	54	6381
2026-01-20 08:20:33.69	34.21	20.81	-42.1	-46.3	11.7	5.73e-04	0	59	0	507510784	54	6328
2026-01-20 08:20:34.70	33.96	20.78	-42.2	-46.4	11.6	5.61e-04	0	60	0	509607936	54	6356
2026-01-20 08:20:35.71	33.71	20.74	-42.2	-46.4	11.7	6.22e-04	0	60	0	510656512	54	6356
2026-01-20 08:20:36.72	33.47	20.70	-42.2	-46.4	11.6	6.60e-04	0	60	0	512753664	54	6366
2026-01-20 08:20:37.73	33.22	20.66	-42.1	-46.3	11.7	6.17e-04	0	59	0	514850816	54	6303
2026-01-20 08:20:38.74	32.97	20.62	-42.1	-46.3	11.7	5.71e-04	0	60	0	516947968	54	6303
2026-01-20 08:20:39.75	32.73	20.58	-42.2	-46.3	11.7	5.69e-04	0	60	0	519045120	54	6342
2026-01-20 08:20:40.76	32.48	20.54	-42.2	-46.4	11.6	5.63e-04	0	60	0	520093696	54	6386
2026-01-20 08:20:41.77	32.24	20.50	-42.2	-46.5	11.4	7.74e-04	0	59	0	522190848	55	6117
2026-01-20 08:20:42.77	32.00	20.45	-42.3	-46.7	11.3	1.07e-03	0	60	0	524288000	55	6253
2026-01-20 08:20:43.78	31.76	20.41	-42.4	-46.8	11.2	1.24e-03	0	59	0	526385152	55	6321
2026-01-20 08:20:44.79	31.51	20.37	-42.4	-46.8	11.2	1.48e-03	0	60	0	528482304	55	6330
2026-01-20 08:20:45.80	31.27	20.33	-42.3	-46.7	11.2	1.32e-03	0	59	0	530579456	55	6272
2026-01-20 08:20:46.81	31.03	20.28	-42.3	-46.7	11.2	1.22e-03	0	60	0	531628032	55	6271
2026-01-20 08:20:47.82	30.79	20.24	-42.3	-46.7	11.3	1.23e-03	0	60	0	533725184	55	6257
2026-01-20 08:20:48.83	30.55	20.19	-42.3	-46.6	11.3	1.11e-03	0	60	0	535822336	55	6196
2026-01-20 08:20:49.84	30.32	20.15	-42.2	-46.5	11.5	9.28e-04	0	59	0	537919488	55	6100
2026-01-20 08:20:50.85	30.08	20.10	-42.1	-46.4	11.6	7.04e-04	0	59	0	540016640	55	6003
2026-01-20 08:20:51.86	29.84	20.06	-42.1	-46.3	11.7	6.09e-04	0	60	0	541065216	55	5947
2026-01-20 08:20:52.87	29.60	20.01	-42.1	-46.2	11.8	5.30e-04	0	60	0	543162368	55	5909
2026-01-20 08:20:53.88	29.37	19.97	-42.2	-46.5	11.5	6.66e-04	0	59	0	545259520	55	6067
2026-01-20 08:20:54.89	29.13	19.92	-42.3	-46.7	11.3	9.83e-04	0	60	0	547356672	55	6203
2026-01-20 08:20:55.90	28.90	19.87	-42.3	-46.8	11.1	1.43e-03	0	59	0	549453824	55	6331
2026-01-20 08:20:56.91	28.67	19.82	-42.4	-46.9	11.0	1.56e-03	0	59	0	550502400	55	6401
2026-01-20 08:20:57.92	28.43	19.77	-42.3	-46.8	11.1	1.74e-03	0	60	0	552599552	55	6339
2026-01-20 08:20:58.93	28.20	19.73	-42.3	-46.7	11.3	1.39e-03	0	60	0	554696704	55	6218
2026-01-20 08:20:59.94	27.97	19.68	-42.2	-46.5	11.4	1.12e-03	0	60	0	556793856	55	6123
2026-01-20 08:21:00.95	27.74	19.63	-42.2	-46.4	11.6	7.25e-04	0	60	0	558891008	55	6016
2026-01-20 08:21:01.96	27.51	19.58	-42.1	-46.3	11.6	6.44e-04	0	59	0	559939584	55	5988
2026-01-20 08:21:02.97	27.28	19.53	-42.1	-46.3	11.7	6.23e-04	0	60	0	562036736	55	5958
2026-01-20 08:21:03.98	27.05	19.48	-42.1	-46.3	11.6	6.45e-04	0	60	0	564133888	55	5981
2026-01-20 08:21:04.99	26.83	19.42	-42.1	-46.4	11.6	6.77e-04	0	60	0	566231040	55	6002
2026-01-20 08:21:05.99	26.60	19.37	-42.2	-46.5	11.5	7.64e-04	0	60	0	568328192	55	6110
2026-01-20 08:21:07.00	26.38	19.32	-42.2	-46.5	11.5	8.64e-04	0	60	0	569376768	55	6077
2026-01-20 08:21:08.01	26.15	19.27	-42.3	-46.6	11.3	1.04e-03	0	60	0	571473920	55	6191
2026-01-20 08:21:09.02	25.93	19.22	-42.3	-46.7	11.3	1.24e-03	0	60	0	573571072	55	6214
2026-01-20 08:21:10.03	25.70	19.16	-42.2	-46.5	11.4	1.12e-03	0	59	0	575668224	55	6127
2026-01-20 08:21:11.04	25.48	19.11	-42.2	-46.5	11.4	9.54e-04	0	60	0	577765376	55	6118
2026-01-20 08:21:12.05	25.26	19.06	-42.2	-46.5	11.4	9.45e-04	0	60	0	578813952	55	6115
2026-01-20 08:21:13.06	25.04	19.00	-42.2	-46.5	11.4	9.42e-04	0	60	0	580911104	55	6091
2026-01-20 08:21:14.07	24.82	18.95	-42.2	-46.5	11.4	9.32e-04	0	60	0	583008256	55	6113
2026-01-20 08:21:15.07	24.60	18.90	-42.3	-46.7	11.3	9.86e-04	0	60	0	585105408	55	6212
2026-01-20 08:21:16.08	24.38	18.84	-42.3	-46.6	11.3	1.06e-03	0	60	0	587202560	55	6199
2026-01-20 08:21:17.09	24.17	18.79	-42.2	-46.6	11.4	1.16e-03	0	60	0	588251136	55	6149
2026-01-20 08:21:18.10	23.95	18.73	-42.1	-46.4	11.5	8.19e-04	0	60	0	590348288	55	6042
2026-01-20 08:21:19.11	23.73	18.68	-42.1	-46.4	11.6	7.45e-04	0	60	0	592445440	55	5996
2026-01-20 08:21:20.12	23.52	18.62	-42.1	-46.3	11.6	7.18e-04	0	60	0	594542592	55	5956
2026-01-20 08:21:21.13	23.30	18.56	-42.1	-46.3	11.6	6.37e-04	0	60	0	596639744	55	5965
2026-01-20 08:21:22.14	23.09	18.51	-42.1	-46.4	11.5	8.35e-04	0	60	0	597688320	55	6032
2026-01-20 08:21:23.15	22.88	18.45	-42.1	-46.4	11.4	8.88e-04	0	60	0	599785472	55	6054
2026-01-20 08:21:24.16	22.66	18.39	-42.1	-46.4	11.5	8.82e-04	0	60	0	601882624	55	6043
2026-01-20 08:21:25.17	22.45	18.34	-42.1	-46.4	11.5	8.70e-04	0	60	0	603979776	55	6044
2026-01-20 08:21:26.17	22.24	18.28	-42.1	-46.4	11.5	8.99e-04	0	60	0	606076928	55	6046
2026-01-20 08:21:27.18	22.03	18.22	-42.1	-46.4	11.5	8.88e-04	0	59	0	607125504	55	6042
2026-01-20 08:21:28.20	21.82	18.16	-42.1	-46.3	11.6	8.59e-04	0	60	0	609222656	55	5975
2026-01-20 08:21:29.20	21.62	18.10	-42.1	-46.3	11.5	6.90e-04	0	59	0	611319808	55	5982
2026-01-20 08:21:30.21	21.41	18.05	-42.1	-46.3	11.6	7.48e-04	0	60	0	613416960	55	5963
2026-01-20 08:21:31.22	21.20	17.99	-42.0	-46.2	11.7	6.64e-04	0	59	0	615514112	55	5874
2026-01-20 08:21:32.24	20.99	17.93	-42.0	-46.2	11.6	7.03e-04	0	60	0	616562688	55	5907
2026-01-20 08:21:33.24	20.79	17.87	-42.1	-46.3	11.5	7.54e-04	0	60	0	618659840	55	5987
2026-01-20 08:21:34.25	20.59	17.81	-42.1	-46.3	11.5	7.89e-04	0	60	0	620756992	55	5977
2026-01-20 08:21:35.26	20.38	17.75	-42.1	-46.4	11.5	8.09e-04	0	60	0	622854144	55	6007
2026-01-20 08:21:36.27	20.18	17.69	-42.1	-46.5	11.4	9.57e-04	0	60	0	624951296	55	6078
2026-01-20 08:21:37.28	19.98	17.63	-42.2	-46.5	11.3	1.07e-03	0	60	0	627048448	55	6126
2026-01-20 08:21:38.29	19.78	17.57	-42.2	-46.5	11.3	1.26e-03	0	60	0	628097024	55	6129
2026-01-20 08:21:39.30	19.58	17.51	-42.2	-46.6	11.2	1.19e-03	0	60	0	630194176	55	6146
2026-01-20 08:21:40.31	19.38	17.45	-42.2	-46.6	11.2	1.30e-03	0	60	0	632291328	55	6180
2026-01-20 08:21:41.32	19.18	17.38	-42.2	-46.8	11.1	1.57e-03	0	60	0	634388480	55	6282
2026-01-20 08:21:42.33	18.99	17.32	-42.2	-46.7	11.1	1.68e-03	0	59	0	636485632	55	6255
2026-01-20 08:21:43.34	18.79	17.26	-42.2	-46.7	11.1	1.60e-03	0	60	0	637534208	55	6272
2026-01-20 08:21:44.35	18.59	17.20	-42.3	-46.8	11.0	1.74e-03	0	60	0	639631360	55	6295
2026-01-20 08:21:45.36	18.40	17.14	-42.2	-46.7	11.1	1.70e-03	0	60	0	641728512	55	6260
2026-01-20 08:21:46.37	18.20	17.08	-42.2	-46.7	11.1	1.75e-03	0	60	0	643825664	55	6236
2026-01-20 08:21:47.38	18.01	17.01	-42.2	-46.8	11.0	1.82e-03	0	60	0	645922816	55	6277
2026-01-20 08:21:48.39	17.82	16.95	-42.3	-46.9	10.9	1.92e-03	0	60	0	646971392	55	6388
2026-01-20 08:21:49.40	17.63	16.89	-42.3	-46.8	11.0	1.91e-03	0	60	0	649068544	55	6338
2026-01-20 08:21:50.40	17.44	16.83	-42.2	-46.7	11.1	1.69e-03	0	60	0	651165696	55	6218
2026-01-20 08:21:51.41	17.25	16.76	-42.2	-46.7	11.1	1.77e-03	0	60	0	653262848	55	6255
2026-01-20 08:21:52.42	17.06	16.70	-42.2	-46.7	11.0	1.82e-03	0	60	0	655360000	55	6225
2026-01-20 08:21:53.43	16.87	16.64	-42.2	-46.7	11.0	1.96e-03	0	60	0	656408576	55	6255
2026-01-20 08:21:54.44	16.68	16.57	-42.2	-46.8	10.9	2.11e-03	0	60	0	658505728	55	6320
2026-01-20 08:21:55.45	16.49	16.51	-42.2	-46.9	10.9	2.54e-03	0	60	0	660602880	55	6355
2026-01-20 08:21:56.46	16.31	16.45	-42.2	-46.7	11.0	1.93e-03	0	60	0	662700032	55	6259
2026-01-20 08:21:57.47	16.12	16.38	-42.2	-46.7	11.0	1.95e-03	0	60	0	664797184	55	6239
2026-01-20 08:21:58.48	15.94	16.32	-42.2	-46.7	11.0	2.00e-03	0	60	0	665845760	55	6234
2026-01-20 08:21:59.49	15.75	16.25	-42.2	-46.7	11.0	1.76e-03	0	60	0	667942912	55	6230
2026-01-20 08:22:00.49	15.57	16.19	-42.1	-46.5	11.2	1.49e-03	0	60	0	670040064	55	6107
2026-01-20 08:22:01.50	15.39	16.13	-42.1	-46.5	11.2	1.26e-03	0	60	0	672137216	55	6088
2026-01-20 08:22:02.51	15.21	16.06	-42.1	-46.5	11.2	1.33e-03	0	60	0	674234368	55	6097
2026-01-20 08:22:03.52	15.03	16.00	-42.0	-46.5	11.3	1.26e-03	0	60	0	675282944	55	6064
2026-01-20 08:22:04.53	14.85	15.93	-42.0	-46.3	11.4	1.09e-03	0	60	0	677380096	55	5976
2026-01-20 08:22:05.54	14.67	15.87	-42.0	-46.3	11.4	9.93e-04	0	60	0	679477248	55	5948
2026-01-20 08:22:06.55	14.49	15.80	-41.9	-46.2	11.5	9.12e-04	0	60	0	681574400	55	5879
2026-01-20 08:22:07.56	14.31	15.74	-41.9	-46.1	11.5	7.72e-04	0	60	0	683671552	55	5853
2026-01-20 08:22:08.57	14.14	15.67	-41.9	-46.2	11.5	8.14e-04	0	60	0	684720128	55	5856
2026-01-20 08:22:09.58	13.96	15.61	-41.8	-46.1	11.6	7.27e-04	0	60	0	686817280	55	5805
2026-01-20 08:22:10.58	13.79	15.54	-41.9	-46.1	11.5	7.76e-04	0	60	0	688914432	55	5854
2026-01-20 08:22:11.59	13.61	15.48	-41.8	-46.1	11.5	8.79e-04	0	60	0	691011584	55	5825
2026-01-20 08:22:12.60	13.44	15.41	-41.8	-46.1	11.4	8.62e-04	0	60	0	693108736	55	5852
2026-01-20 08:22:13.61	13.27	15.35	-41.8	-46.2	11.4	9.15e-04	0	60	0	695205888	55	5857
2026-01-20 08:22:14.62	13.10	15.28	-41.8	-46.0	11.5	7.94e-04	0	60	0	696254464	55	5771
2026-01-20 08:22:15.63	12.92	15.21	-41.7	-46.0	11.6	7.09e-04	0	60	0	698351616	55	5732
2026-01-20 08:22:16.64	12.75	15.15	-41.7	-46.0	11.5	7.44e-04	0	60	0	700448768	55	5758
2026-01-20 08:22:17.65	12.58	15.08	-41.6	-45.7	11.8	6.48e-04	0	60	0	702545920	55	5585
2026-01-20 08:22:18.66	12.42	15.02	-41.6	-45.6	12.0	4.17e-04	0	60	0	704643072	55	5493
2026-01-20 08:22:19.67	12.25	14.95	-41.5	-45.5	12.0	3.35e-04	0	60	0	705691648	55	5449
2026-01-20 08:22:20.68	12.08	14.88	-41.5	-45.5	12.0	3.04e-04	0	59	0	707788800	55	5437
2026-01-20 08:22:21.69	11.91	14.82	-41.5	-45.5	11.9	3.78e-04	0	60	0	709885952	54	5765
2026-01-20 08:22:22.70	11.75	14.75	-41.4	-45.4	12.0	3.53e-04	0	60	0	711983104	54	5671
2026-01-20 08:22:23.70	11.58	14.69	-41.4	-45.5	12.0	3.35e-04	0	60	0	714080256	54	5729
2026-01-20 08:22:24.71	11.42	14.62	-41.4	-45.4	11.9	4.14e-04	0	60	0	715128832	54	5721
2026-01-20 08:22:25.72	11.26	14.55	-41.4	-45.5	11.8	4.34e-04	0	60	0	717225984	54	5723
2026-01-20 08:22:26.73	11.09	14.49	-41.3	-45.4	11.8	4.74e-04	0	60	0	719323136	54	5701
2026-01-20 08:22:27.74	10.93	14.42	-41.4	-45.5	11.8	4.59e-04	0	60	0	721420288	54	5738
2026-01-20 08:22:28.75	10.77	14.35	-41.4	-45.5	11.7	5.65e-04	0	60	0	723517440	54	5760
2026-01-20 08:22:29.76	10.61	14.29	-41.3	-45.4	11.8	6.17e-04	0	60	0	724566016	54	5681
2026-01-20 08:22:30.77	10.45	14.22	-41.2	-45.3	11.9	3.88e-04	0	60	0	726663168	54	5601
2026-01-20 08:22:31.78	10.29	14.15	-41.3	-45.3	11.8	4.20e-04	0	60	0	728760320	54	5639
2026-01-20 08:22:32.78	10.13	14.09	-41.3	-45.4	11.8	5.26e-04	0	59	0	730857472	54	5700
2026-01-20 08:22:33.79	9.98	14.02	-41.3	-45.5	11.6	5.42e-04	0	60	0	732954624	54	5728
2026-01-20 08:22:34.80	9.82	13.95	-41.3	-45.5	11.6	6.42e-04	0	60	0	734003200	54	5725
2026-01-20 08:22:35.81	9.66	13.89	-41.2	-45.4	11.7	7.16e-04	0	60	0	736100352	54	5694
2026-01-20 08:22:36.82	9.51	13.82	-41.1	-45.2	11.7	6.18e-04	0	60	0	738197504	54	5588
2026-01-20 08:22:37.83	9.35	13.75	-41.1	-45.3	11.6	5.65e-04	0	60	0	740294656	54	5614
2026-01-20 08:22:38.84	9.20	13.69	-41.2	-45.5	11.4	9.22e-04	0	60	0	742391808	54	5753
2026-01-20 08:22:39.85	9.04	13.62	-41.4	-46.0	10.8	1.69e-03	0	60	0	743440384	54	6071
2026-01-20 08:22:40.86	8.89	13.55	-41.3	-45.9	10.8	2.77e-03	0	60	0	745537536	54	6050
2026-01-20 08:22:41.87	8.74	13.49	-41.3	-46.0	10.8	2.55e-03	0	60	0	747634688	54	6068
2026-01-20 08:22:42.88	8.59	13.42	-41.1	-45.7	10.9	2.62e-03	0	60	0	749731840	54	5903
2026-01-20 08:22:43.89	8.44	13.35	-41.1	-45.8	10.6	2.47e-03	0	60	0	751828992	54	5970
2026-01-20 08:22:44.90	8.29	13.28	-41.0	-45.6	10.8	3.17e-03	0	60	0	752877568	54	5826
2026-01-20 08:22:45.91	8.14	13.22	-40.9	-45.5	10.9	2.63e-03	0	60	0	754974720	53	6090
2026-01-20 08:22:46.92	7.99	13.15	-41.1	-46.0	10.3	3.24e-03	0	60	0	757071872	53	6445
2026-01-20 08:22:47.93	7.84	13.08	-41.1	-46.2	10.0	6.14e-03	0	60	0	759169024	53	6605
2026-01-20 08:22:48.94	7.70	13.02	-41.2	-46.5	9.6	1.17e-02	0	60	0	761266176	53	6848
2026-01-20 08:22:49.95	7.55	12.95	-41.2	-46.5	9.5	1.26e-02	0	60	0	763363328	53	6871
2026-01-20 08:22:50.96	7.40	12.88	-41.1	-46.3	9.7	1.32e-02	0	60	0	764411904	53	6681
2026-01-20 08:22:51.97	7.26	12.81	-40.9	-45.9	10.2	7.38e-03	0	60	0	766509056	53	6377
2026-01-20 08:22:52.98	7.11	12.75	-40.8	-45.6	10.5	4.38e-03	0	60	0	768606208	53	6193
2026-01-20 08:22:53.99	6.97	12.68	-40.8	-45.7	10.3	5.31e-03	0	60	0	770703360	53	6252
2026-01-20 08:22:55.00	6.83	12.61	-40.7	-45.7	10.2	5.07e-03	0	59	0	772800512	53	6260
2026-01-20 08:22:56.00	6.69	12.55	-40.9	-46.1	9.8	1.05e-02	0	60	0	773849088	53	6537
2026-01-20 08:22:57.01	6.54	12.48	-40.7	-45.8	10.1	7.26e-03	0	60	0	775946240	53	6287
2026-01-20 08:22:58.02	6.40	12.41	-41.0	-46.7	9.0	1.06e-02	0	60	0	778043392	53	7017
2026-01-20 08:22:59.03	6.26	12.35	-40.8	-46.4	9.2	2.76e-02	0	60	0	780140544	53	6758
2026-01-20 08:23:00.04	6.12	12.28	-40.6	-46.2	9.3	1.48e-02	0	60	0	781189120	53	6619
2026-01-20 08:23:01.05	5.98	12.21	-40.9	-47.6	7.8	3.39e-02	0	60	0	783286272	53	7728
2026-01-20 08:23:02.06	5.85	12.14	-41.0	-48.1	7.2	1.23e-01	0	60	0	785383424	53	8184
2026-01-20 08:23:03.07	5.71	12.08	-40.9	-48.2	7.0	1.43e-01	0	60	0	787480576	53	8336
2026-01-20 08:23:04.08	5.57	12.01	-41.0	-48.9	6.3	1.91e-01	0	60	0	789577728	53	9037
2026-01-20 08:23:05.09	5.43	11.94	-41.1	-50.1	5.4	4.45e-01	0	60	0	791674880	53	10332
2026-01-20 08:23:06.10	5.30	11.88	-41.2	-50.8	5.0	6.64e-01	0	60	0	792723456	53	11198
2026-01-20 08:23:07.11	5.16	11.81	-41.2	-51.2	4.7	7.68e-01	0	60	0	794820608	53	11790
2026-01-20 08:23:08.12	5.03	11.74	-41.3	-52.4	4.2	1.31e+00	0	60	0	796917760	53	13496
2026-01-20 08:23:09.13	4.89	11.68	-40.4	-54.9	3.8	1.49e+00	0	60	104	796917760	52	19046
2026-01-20 08:23:10.14	4.76	11.61	-40.8	-55.5	3.8	1.49e+00	0	60	104	796917760	52	20459
2026-01-20 08:23:11.14	4.63	11.54	-41.6	-55.4	3.8	1.49e+00	0	60	104	796917760	53	19004
2026-01-20 08:23:12.16	4.50	11.48	-41.2	-55.6	3.8	1.49e+00	0	60	104	796917760	53	19447
2026-01-20 08:23:13.16	4.36	11.41	-41.2	-55.7	3.8	1.49e+00	0	60	104	796917760	53	19789
2026-01-20 08:23:14.17	4.23	11.34	-41.1	-55.7	3.8	1.49e+00	0	60	104	796917760	53	19804
2026-01-20 08:23:15.18	4.10	11.28	-40.9	-55.6	3.8	1.49e+00	0	60	104	796917760	53	19568
2026-01-20 08:23:16.19	3.97	11.21	-40.7	-55.5	3.8	1.49e+00	0	60	104	796917760	53	19344
2026-01-20 08:23:17.20	3.84	11.14	-40.2	-54.9	3.8	1.49e+00	0	60	104	796917760	52	18966
2026-01-20 08:23:18.21	3.72	11.08	-40.0	-54.8	3.8	1.49e+00	0	60	104	796917760	51	19913
2026-01-20 08:23:19.22	3.59	11.01	-40.3	-55.0	3.8	1.49e+00	0	60	104	796917760	51	20328
2026-01-20 08:23:20.23	3.46	10.94	-40.1	-54.9	3.8	1.49e+00	0	60	104	796917760	51	20087
2026-01-20 08:23:21.24	3.33	10.88	-40.1	-54.8	3.8	1.49e+00	0	60	104	796917760	51	19955
2026-01-20 08:23:22.25	3.21	10.81	-40.0	-54.8	3.8	1.49e+00	0	60	104	796917760	51	19907
2026-01-20 08:23:23.26	3.08	10.75	-39.9	-54.7	3.8	1.49e+00	0	60	104	796917760	51	19653
2026-01-20 08:23:24.27	2.96	10.68	-40.1	-54.8	3.8	1.49e+00	0	60	104	796917760	51	19989
2026-01-20 08:23:25.28	2.83	10.61	-40.4	-55.2	3.8	1.49e+00	0	60	104	796917760	51	20789
2026-01-20 08:23:26.29	2.71	10.55	-40.1	-54.9	3.8	1.49e+00	0	60	104	796917760	51	20076
2026-01-20 08:23:27.29	2.59	10.48	-40.3	-55.0	3.8	1.49e+00	0	60	104	796917760	51	20456
2026-01-20 08:23:28.30	2.46	10.42	-40.3	-54.9	3.8	1.49e+00	0	60	104	796917760	51	20282
2026-01-20 08:23:29.31	2.34	10.35	-40.1	-54.8	3.8	1.49e+00	0	60	104	796917760	51	19948
2026-01-20 08:23:30.32	2.22	10.28	-40.0	-54.8	3.8	1.49e+00	0	60	104	796917760	51	19919
2026-01-20 08:23:31.33	2.10	10.22	-40.2	-54.9	3.8	1.49e+00	0	60	104	796917760	51	20183
2026-01-20 08:23:32.34	1.98	10.15	-40.1	-54.9	3.8	1.49e+00	0	60	104	796917760	51	20110
2026-01-20 08:23:33.35	1.86	10.09	-40.0	-54.8	3.8	1.49e+00	0	60	104	796917760	51	19908
2026-01-20 08:23:34.36	1.74	10.02	-39.9	-54.7	3.8	1.49e+00	0	60	104	796917760	51	19790
2026-01-20 08:23:35.37	1.62	9.95	-40.1	-54.8	3.8	1.49e+00	0	60	104	796917760	51	20057
2026-01-20 08:23:36.38	1.50	9.89	-40.0	-54.8	3.8	1.49e+00	0	60	104	796917760	51	20021
2026-01-20 08:23:37.39	1.39	9.82	-39.9	-54.7	3.8	1.49e+00	0	60	104	796917760	51	19733
2026-01-20 08:23:38.40	1.27	9.76	-39.9	-54.7	3.8	1.49e+00	0	60	104	796917760	51	19736
2026-01-20 08:23:39.41	1.15	9.69	-40.0	-54.8	3.8	1.49e+00	0	60	104	796917760	51	19938
2026-01-20 08:23:40.42	1.04	9.63	-39.9	-54.8	3.8	1.49e+00	0	60	104	796917760	51	19842
2026-01-20 08:23:41.43	0.92	9.56	-39.8	-54.7	3.8	1.49e+00	0	60	104	796917760	51	19692
2026-01-20 08:23:42.44	0.81	9.50	-39.8	-54.7	3.8	1.49e+00	0	60	104	796917760	51	19705
2026-01-20 08:23:43.45	0.69	9.43	-39.9	-54.7	3.8	1.49e+00	0	60	104	796917760	51	19825
2026-01-20 08:23:44.46	0.58	9.36	-39.9	-54.7	3.8	1.49e+00	0	60	104	796917760	51	19782
2026-01-20 08:23:45.47	0.46	9.30	-39.8	-54.7	3.8	1.49e+00	0	60	104	796917760	51	19713
2026-01-20 08:23:46.48	0.35	9.23	-39.7	-54.7	3.8	1.49e+00	0	60	104	796917760	51	19691
2026-01-20 08:23:47.48	0.24	9.17	-39.9	-54.7	3.8	1.49e+00	0	60	104	796917760	51	19822
2026-01-20 08:23:48.50	0.13	9.10	-39.7	-54.7	3.8	1.49e+00	0	60	104	796917760	51	19764
2026-01-20 08:23:49.50	0.02	9.04	-39.6	-54.7	3.8	1.49e+00	0	60	104	796917760	51	19722
2026-01-20 08:23:50.51	359.91	8.98	-39.6	-54.7	3.8	1.49e+00	0	60	104	796917760	50	20888
2026-01-20 08:23:51.52	359.80	8.91	-39.7	-54.7	3.8	1.49e+00	0	60	104	796917760	50	20936
2026-01-20 08:23:52.53	359.69	8.85	-39.6	-54.7	3.8	1.49e+00	0	60	104	796917760	50	20944
2026-01-20 08:23:53.54	359.58	8.78	-39.6	-54.6	3.8	1.49e+00	0	60	104	796917760	50	20746
2026-01-20 08:23:54.55	359.47	8.72	-39.4	-54.7	3.8	1.49e+00	0	60	104	796917760	50	20866
2026-01-20 08:23:55.56	359.36	8.65	-39.5	-54.7	3.8	1.49e+00	0	60	104	796917760	50	20892
2026-01-20 08:23:56.57	359.25	8.59	-39.5	-54.7	3.8	1.49e+00	0	60	104	796917760	50	20795
2026-01-20 08:23:57.58	359.14	8.52	-39.6	-54.6	3.8	1.49e+00	0	60	104	796917760	50	20673
2026-01-20 08:23:58.59	359.04	8.46	-39.5	-54.6	3.8	1.49e+00	0	60	104	796917760	50	20675
2026-01-20 08:23:59.60	358.93	8.40	-39.6	-54.7	3.8	1.49e+00	0	60	104	796917760	50	20796
2026-01-20 08:24:00.61	358.83	8.33	-39.6	-54.6	3.8	1.49e+00	0	60	104	796917760	50	20674
2026-01-20 08:24:01.62	358.72	8.27	-39.4	-54.6	3.8	1.49e+00	0	60	104	796917760	50	20600
2026-01-20 08:24:02.63	358.61	8.20	-39.6	-54.6	3.8	1.49e+00	0	60	104	796917760	50	20568
2026-01-20 08:24:03.64	358.51	8.14	-39.7	-54.6	3.8	1.49e+00	0	60	104	796917760	50	20704
2026-01-20 08:24:04.65	358.41	8.07	-39.5	-54.6	3.8	1.49e+00	0	60	104	796917760	50	20690
2026-01-20 08:24:05.66	358.30	8.01	-39.6	-54.6	3.8	1.49e+00	0	60	104	796917760	50	20727
2026-01-20 08:24:06.67	358.20	7.95	-40.6	-55.5	3.8	1.49e+00	0	60	104	796917760	51	21676
2026-01-20 08:24:07.68	358.10	7.88	-44.2	-58.7	3.8	1.49e+00	0	60	104	796917760	58	20970
2026-01-20 08:24:08.69	358.00	7.82	-44.8	-59.5	3.8	1.49e+00	0	60	104	796917760	60	20410
2026-01-20 08:24:09.70	357.89	7.76	-45.0	-59.7	3.8	1.49e+00	0	60	104	796917760	60	20954
2026-01-20 08:24:10.70	357.79	7.69	-45.1	-59.8	3.8	1.49e+00	0	60	104	796917760	60	21234
2026-01-20 08:24:11.71	357.69	7.63	-45.2	-59.9	3.8	1.49e+00	0	60	104	796917760	61	20184
2026-01-20 08:24:12.72	357.59	7.57	-45.3	-60.0	3.8	1.49e+00	0	60	104	796917760	61	20427
2026-01-20 08:24:13.73	357.49	7.50	-45.3	-60.0	3.8	1.49e+00	0	60	104	796917760	61	20444
2026-01-20 08:24:14.74	357.39	7.44	-44.1	-59.5	3.8	1.49e+00	0	60	104	796917760	60	20309
2026-01-20 08:24:15.76	357.29	7.38	-45.1	-59.9	3.8	1.49e+00	0	60	104	796917760	61	20235
2026-01-20 08:24:16.77	357.20	7.31	-45.1	-59.8	3.8	1.49e+00	0	60	104	796917760	61	20067
2026-01-20 08:24:17.78	357.10	7.25	-45.1	-59.8	3.8	1.49e+00	0	60	104	796917760	61	19993
2026-01-20 08:24:18.79	357.00	7.19	-45.2	-59.8	3.8	1.49e+00	0	60	104	796917760	60	21071
2026-01-20 08:24:19.80	356.90	7.13	-45.2	-59.7	3.8	1.49e+00	0	60	104	796917760	60	21000
2026-01-20 08:24:20.81	356.81	7.06	-45.2	-59.7	3.8	1.49e+00	0	60	104	796917760	60	20988
2026-01-20 08:24:21.82	356.71	7.00	-45.1	-59.6	3.8	1.49e+00	0	60	104	796917760	60	20755
2026-01-20 08:24:22.83	356.61	6.94	-45.1	-59.7	3.8	1.49e+00	0	60	104	796917760	60	20822
2026-01-20 08:24:23.84	356.52	6.87	-45.1	-59.6	3.8	1.49e+00	0	60	104	796917760	60	20756
2026-01-20 08:24:24.85	356.42	6.81	-45.1	-59.6	3.8	1.49e+00	0	60	104	796917760	60	20772
2026-01-20 08:24:25.86	356.33	6.75	-45.1	-59.6	3.8	1.49e+00	0	60	104	796917760	60	20713
2026-01-20 08:24:26.87	356.23	6.69	-45.1	-59.6	3.8	1.49e+00	0	60	104	796917760	60	20755
2026-01-20 08:24:27.88	356.14	6.63	-45.1	-59.6	3.8	1.49e+00	0	60	104	796917760	60	20757
2026-01-20 08:24:28.89	356.05	6.56	-45.0	-59.6	3.8	1.49e+00	0	60	104	796917760	60	20691
2026-01-20 08:24:29.91	355.95	6.50	-45.1	-59.7	3.8	1.49e+00	0	60	104	796917760	60	20791
2026-01-20 08:24:30.92	355.86	6.44	-45.1	-59.7	3.8	1.49e+00	0	60	104	796917760	60	20789
2026-01-20 08:24:31.93	355.77	6.38	-45.1	-59.6	3.8	1.49e+00	0	60	104	796917760	60	20728
2026-01-20 08:24:32.94	355.68	6.31	-45.1	-59.6	3.8	1.49e+00	0	60	104	796917760	60	20754
2026-01-20 08:24:33.95	355.59	6.25	-45.1	-59.6	3.8	1.49e+00	0	60	104	796917760	60	20679
2026-01-20 08:24:34.96	355.50	6.19	-45.0	-59.6	3.8	1.49e+00	0	60	104	796917760	60	20696
2026-01-20 08:24:35.97	355.40	6.13	-45.1	-59.6	3.8	1.49e+00	0	60	104	796917760	60	20667
2026-01-20 08:24:36.98	355.31	6.07	-45.0	-59.6	3.8	1.49e+00	0	60	104	796917760	60	20652
2026-01-20 08:24:37.99	355.23	6.01	-45.1	-59.6	3.8	1.49e+00	0	60	104	796917760	60	20686
2026-01-20 08:24:39.00	355.14	5.95	-45.1	-59.6	3.8	1.49e+00	0	60	104	796917760	60	20732
2026-01-20 08:24:40.01	355.05	5.88	-45.0	-59.6	3.8	1.49e+00	0	60	104	796917760	60	20726
2026-01-20 08:24:41.02	354.96	5.82	-45.1	-59.6	3.8	1.49e+00	0	60	104	796917760	60	20704
2026-01-20 08:24:42.03	354.87	5.76	-45.1	-59.6	3.8	1.49e+00	0	60	104	796917760	60	20714
2026-01-20 08:24:43.04	354.78	5.70	-45.1	-59.6	3.8	1.49e+00	0	60	104	796917760	60	20602
2026-01-20 08:24:44.05	354.70	5.64	-44.8	-59.6	3.8	1.49e+00	0	60	104	796917760	60	20679
2026-01-20 08:24:45.06	354.61	5.58	-45.1	-59.6	3.8	1.49e+00	0	60	104	796917760	60	20668
2026-01-20 08:24:46.07	354.52	5.52	-45.1	-59.6	3.8	1.49e+00	0	60	104	796917760	60	20656
2026-01-20 08:24:47.08	354.44	5.46	-45.0	-59.6	3.8	1.49e+00	0	60	104	796917760	60	20645
2026-01-20 08:24:48.09	354.35	5.40	-45.1	-59.6	3.8	1.49e+00	0	60	104	796917760	60	20680
2026-01-20 08:24:49.10	354.26	5.34	-45.1	-59.6	3.8	1.49e+00	0	60	104	796917760	60	20664
2026-01-20 08:24:50.11	354.18	5.28	-45.1	-59.6	3.8	1.49e+00	0	60	104	796917760	60	20697
2026-01-20 08:24:51.13	354.09	5.21	-45.1	-59.6	3.8	1.49e+00	0	60	104	796917760	60	20642
2026-01-20 08:24:52.13	354.01	5.16	-45.1	-59.6	3.8	1.49e+00	0	60	104	796917760	60	20689
2026-01-20 08:24:53.15	353.92	5.09	-45.1	-59.6	3.8	1.49e+00	0	60	104	796917760	60	20626
2026-01-20 08:24:54.16	353.84	5.03	-45.1	-59.6	3.8	1.49e+00	0	60	104	796917760	60	20645
2026-01-20 08:24:55.17	353.76	4.97	-45.0	-59.6	3.8	1.49e+00	0	60	104	796917760	60	20627
2026-01-20 08:24:56.18	353.68	4.91	-45.1	-59.6	3.8	1.49e+00	0	60	104	796917760	60	20702
2026-01-20 08:24:57.19	353.59	4.85	-45.1	-59.6	3.8	1.49e+00	0	60	104	796917760	60	20655
2026-01-20 08:24:58.20	353.51	4.79	-45.0	-59.6	3.8	1.49e+00	0	60	104	796917760	60	20629
2026-01-20 08:24:59.21	353.43	4.73	-45.1	-59.6	3.8	1.49e+00	0	60	104	796917760	60	20635
2026-01-20 08:25:00.22	353.35	4.67	-45.1	-59.6	3.8	1.49e+00	0	60	104	796917760	60	20565
2026-01-20 08:25:01.23	353.27	4.62	-45.0	-59.6	3.8	1.49e+00	0	60	104	796917760	60	20658
2026-01-20 08:25:02.24	353.19	4.56	-45.0	-59.6	3.8	1.49e+00	0	60	104	796917760	60	20698
2026-01-20 08:25:03.25	353.10	4.50	-45.0	-59.6	3.8	1.49e+00	0	60	104	796917760	60	20645
2026-01-20 08:25:04.26	353.02	4.44	-45.0	-59.6	3.8	1.49e+00	0	60	104	796917760	60	20633
2026-01-20 08:25:05.27	352.94	4.38	-45.0	-59.6	3.8	1.49e+00	0	60	104	796917760	60	20580
2026-01-20 08:25:06.28	352.87	4.32	-45.1	-59.6	3.8	1.49e+00	0	60	104	796917760	60	20679
2026-01-20 08:25:07.29	352.79	4.26	-45.1	-59.6	3.8	1.49e+00	0	60	104	796917760	60	20609
