passes_logs/2026/01/20/R2.0S_Moscow/R2.0S_Moscow__20260120_075333_SUOMI_NPP_rec.log

#Pass ID: 20260120_075333_SUOMI NPP
#Satellite: SUOMI NPP
#Configuration: NPP
#almurnet v.1.7.20251203
#Start time: 2026-01-20 07:53:35

#Version: 2.2.20231116
#Station: R2.0S_Moscow
#Location: 37.707566 lon 55.798166 lat
#TLE: 1 37849U 11061A   26019.61507914  .00000076  00000+0  57195-4 0  9994
#TLE: 2 37849  98.7817 321.6240 0002347  55.5899 304.5499 14.19526391737369

#Time	Az	El	Level	Level2	SNR	BER	BlckErr	Temp	State	Recorded	gain1	gain2
2026-01-20 07:53:35.18	98.22	2.11	-40.2	-55.0	3.8	1.49e+00	0	50	0	0	50	21638
2026-01-20 07:53:36.18	98.14	2.17	-39.4	-54.9	3.8	1.49e+00	0	51	104	0	50	21489
2026-01-20 07:53:37.19	98.05	2.22	-40.1	-55.0	3.8	1.49e+00	0	50	104	0	50	21590
2026-01-20 07:53:38.20	97.97	2.27	-40.1	-54.9	3.8	1.49e+00	0	50	104	0	50	21471
2026-01-20 07:53:39.22	97.88	2.32	-40.0	-54.9	3.8	1.49e+00	0	51	104	0	50	21482
2026-01-20 07:53:40.22	97.80	2.37	-40.1	-55.0	3.8	1.49e+00	0	51	104	0	50	21544
2026-01-20 07:53:41.23	97.71	2.43	-40.1	-55.0	3.8	1.49e+00	0	51	104	0	50	21566
2026-01-20 07:53:42.24	97.63	2.48	-40.1	-55.0	3.8	1.49e+00	0	51	104	0	50	21615
2026-01-20 07:53:43.26	97.54	2.53	-40.1	-55.0	3.8	1.49e+00	0	51	104	0	50	21607
2026-01-20 07:53:44.26	97.45	2.58	-40.0	-54.9	3.8	1.49e+00	0	51	104	0	50	21501
2026-01-20 07:53:45.27	97.37	2.64	-40.1	-55.0	3.8	1.49e+00	0	51	104	0	50	21585
2026-01-20 07:53:46.28	97.28	2.69	-39.8	-54.9	3.8	1.49e+00	0	51	104	0	50	21404
2026-01-20 07:53:47.29	97.19	2.74	-40.0	-54.9	3.8	1.49e+00	0	51	104	0	50	21479
2026-01-20 07:53:48.30	97.11	2.79	-39.5	-54.8	3.8	1.49e+00	0	51	104	0	50	21236
2026-01-20 07:53:49.31	97.02	2.85	-40.1	-54.9	3.8	1.49e+00	0	51	104	0	50	21439
2026-01-20 07:53:50.32	96.93	2.90	-39.9	-54.9	3.8	1.49e+00	0	52	104	0	50	21421
2026-01-20 07:53:51.33	96.84	2.95	-40.1	-54.9	3.8	1.49e+00	0	52	104	0	50	21494
2026-01-20 07:53:52.34	96.75	3.01	-39.7	-54.9	3.8	1.49e+00	0	52	104	0	50	21388
2026-01-20 07:53:53.35	96.66	3.06	-40.1	-55.0	3.8	1.49e+00	0	52	104	0	50	21636
2026-01-20 07:53:54.36	96.57	3.11	-40.1	-55.0	3.8	1.49e+00	0	52	104	0	50	21565
2026-01-20 07:53:55.38	96.48	3.16	-39.5	-54.8	3.8	1.49e+00	0	52	104	0	50	21250
2026-01-20 07:53:56.39	96.39	3.22	-40.1	-55.0	3.8	1.49e+00	0	52	104	0	50	21522
2026-01-20 07:53:57.40	96.30	3.27	-40.1	-55.0	3.8	1.49e+00	0	52	104	0	50	21510
2026-01-20 07:53:58.41	96.21	3.32	-39.9	-54.9	3.8	1.49e+00	0	52	104	0	50	21426
2026-01-20 07:53:59.42	96.12	3.38	-38.9	-54.5	3.8	1.49e+00	0	52	104	0	49	21628
2026-01-20 07:54:00.43	96.03	3.43	-38.6	-54.7	3.8	1.49e+00	0	52	104	0	49	22050
2026-01-20 07:54:01.44	95.94	3.48	-39.6	-54.9	3.8	1.49e+00	0	52	104	0	50	21302
2026-01-20 07:54:02.45	95.85	3.53	-39.1	-54.8	3.8	1.49e+00	0	52	104	0	50	21169
2026-01-20 07:54:03.46	95.75	3.59	-40.1	-55.0	3.8	1.49e+00	0	52	104	0	50	21532
2026-01-20 07:54:04.47	95.66	3.64	-40.1	-54.9	3.8	1.49e+00	0	53	104	0	50	21500
2026-01-20 07:54:05.48	95.57	3.69	-40.1	-54.9	3.8	1.49e+00	0	53	104	0	50	21449
2026-01-20 07:54:06.49	95.47	3.75	-39.4	-55.2	3.8	1.49e+00	0	53	104	0	50	22147
2026-01-20 07:54:07.50	95.38	3.80	-39.8	-54.9	3.8	1.49e+00	0	53	104	0	50	21410
2026-01-20 07:54:08.51	95.29	3.85	-39.3	-54.8	3.8	1.49e+00	0	53	104	0	50	21209
2026-01-20 07:54:09.52	95.19	3.91	-40.0	-54.6	3.8	1.49e+00	0	53	104	0	49	21758
2026-01-20 07:54:10.53	95.10	3.96	-39.7	-54.8	3.8	1.49e+00	0	53	104	0	50	21171
2026-01-20 07:54:11.55	95.00	4.01	-39.9	-54.9	3.8	1.49e+00	0	53	104	0	50	21327
2026-01-20 07:54:12.56	94.91	4.07	-39.9	-54.9	3.8	1.49e+00	0	53	104	0	50	21474
2026-01-20 07:54:13.56	94.81	4.12	-40.1	-55.0	3.8	1.49e+00	0	53	104	0	50	21584
2026-01-20 07:54:14.57	94.71	4.17	-38.5	-54.7	3.8	1.49e+00	0	53	104	0	49	22225
2026-01-20 07:54:15.59	94.62	4.23	-40.1	-54.9	3.8	1.49e+00	0	53	104	0	50	21500
2026-01-20 07:54:16.59	94.52	4.28	-40.1	-54.9	3.8	1.49e+00	0	53	104	0	50	21486
2026-01-20 07:54:17.60	94.42	4.34	-40.1	-55.0	3.8	1.49e+00	0	53	104	0	50	21547
2026-01-20 07:54:18.61	94.32	4.39	-39.5	-54.7	3.7	1.49e+00	0	53	104	0	50	20880
2026-01-20 07:54:19.62	94.23	4.44	-40.1	-55.0	3.8	1.49e+00	0	53	104	0	50	21566
2026-01-20 07:54:20.63	94.13	4.50	-40.1	-55.0	3.8	1.49e+00	0	53	104	0	50	21552
2026-01-20 07:54:21.64	94.03	4.55	-39.8	-55.0	3.7	1.49e+00	0	53	104	0	50	21515
2026-01-20 07:54:22.65	93.93	4.60	-40.0	-55.0	3.8	1.49e+00	0	53	104	0	50	21511
2026-01-20 07:54:23.66	93.83	4.66	-40.1	-55.0	3.8	1.49e+00	0	54	104	0	50	21518
2026-01-20 07:54:24.67	93.73	4.71	-39.3	-55.2	3.9	1.49e+00	0	54	104	0	50	22132
2026-01-20 07:54:25.68	93.63	4.76	-40.0	-54.7	3.9	1.49e+00	0	54	104	0	49	22262
2026-01-20 07:54:26.69	93.53	4.82	-40.1	-54.9	3.8	1.49e+00	0	54	104	0	50	21493
2026-01-20 07:54:27.71	93.43	4.87	-40.1	-54.7	3.8	1.49e+00	0	54	104	0	49	22122
2026-01-20 07:54:28.71	93.33	4.93	-40.1	-55.2	3.9	1.49e+00	0	54	104	0	50	22255
2026-01-20 07:54:29.72	93.22	4.98	-40.1	-55.0	3.8	1.49e+00	0	54	104	0	50	21540
2026-01-20 07:54:30.74	93.12	5.03	-40.1	-54.9	3.8	1.49e+00	0	54	104	0	50	21470
2026-01-20 07:54:31.75	93.02	5.09	-40.0	-54.9	3.8	1.49e+00	0	54	104	0	50	21382
2026-01-20 07:54:32.76	92.92	5.14	-40.1	-55.0	3.8	1.49e+00	0	54	104	0	50	21559
2026-01-20 07:54:33.77	92.81	5.20	-40.1	-54.9	3.8	1.49e+00	0	54	104	0	50	21448
2026-01-20 07:54:34.78	92.71	5.25	-39.9	-54.9	3.8	1.49e+00	0	54	104	0	50	21396
2026-01-20 07:54:35.79	92.60	5.30	-40.1	-55.0	3.8	1.49e+00	0	54	104	0	50	21578
2026-01-20 07:54:36.80	92.50	5.36	-39.5	-54.9	3.8	1.49e+00	0	54	104	0	50	21354
2026-01-20 07:54:37.81	92.39	5.41	-40.1	-55.0	3.8	1.49e+00	0	54	104	0	50	21512
2026-01-20 07:54:38.82	92.29	5.47	-40.1	-55.0	3.8	1.49e+00	0	54	104	0	50	21507
2026-01-20 07:54:39.83	92.18	5.52	-40.1	-54.9	3.8	1.49e+00	0	54	104	0	50	21474
2026-01-20 07:54:40.84	92.08	5.58	-40.1	-54.9	3.8	1.49e+00	0	54	104	0	50	21450
2026-01-20 07:54:41.85	91.97	5.63	-40.1	-55.0	3.8	1.49e+00	0	54	104	0	50	21525
2026-01-20 07:54:42.86	91.86	5.68	-40.0	-54.9	3.8	1.49e+00	0	54	104	0	50	21325
2026-01-20 07:54:43.87	91.76	5.74	-40.1	-55.0	3.8	1.49e+00	0	55	104	0	50	21548
2026-01-20 07:54:44.88	91.65	5.79	-40.1	-55.0	3.8	1.49e+00	0	54	104	0	50	21547
2026-01-20 07:54:45.89	91.54	5.85	-39.8	-54.9	3.8	1.49e+00	0	54	104	0	50	21334
2026-01-20 07:54:46.90	91.43	5.90	-40.1	-54.9	3.9	1.49e+00	0	54	104	0	50	21479
2026-01-20 07:54:47.91	91.32	5.95	-39.7	-54.9	3.8	1.49e+00	0	55	104	0	50	21301
2026-01-20 07:54:48.92	91.21	6.01	-39.1	-54.8	3.8	1.49e+00	0	55	104	0	50	21122
2026-01-20 07:54:49.93	91.10	6.06	-40.0	-54.9	3.8	1.49e+00	0	55	104	0	50	21340
2026-01-20 07:54:50.94	90.99	6.12	-39.6	-54.8	3.8	1.49e+00	0	55	104	0	50	21039
2026-01-20 07:54:51.95	90.88	6.17	-39.8	-55.1	3.9	1.49e+00	0	55	104	0	50	21825
2026-01-20 07:54:52.96	90.77	6.23	-38.7	-54.6	3.8	1.49e+00	0	54	104	0	48	23311
2026-01-20 07:54:53.97	90.66	6.28	-40.0	-54.9	3.8	1.49e+00	0	55	104	0	50	21339
2026-01-20 07:54:54.98	90.55	6.34	-40.0	-54.9	3.8	1.49e+00	0	55	104	0	50	21463
2026-01-20 07:54:55.99	90.43	6.39	-40.1	-55.0	3.8	1.49e+00	0	55	104	0	50	21547
2026-01-20 07:54:57.00	90.32	6.44	-40.1	-54.9	3.8	1.49e+00	0	55	104	0	50	21475
2026-01-20 07:54:58.01	90.21	6.50	-40.1	-54.9	3.8	1.49e+00	0	55	104	0	50	21503
2026-01-20 07:54:59.02	90.09	6.55	-40.0	-54.9	3.8	1.49e+00	0	55	104	0	50	21430
2026-01-20 07:55:00.03	89.98	6.61	-40.1	-54.9	3.8	1.49e+00	0	55	104	0	50	21490
2026-01-20 07:55:01.04	89.86	6.66	-39.6	-54.9	3.8	1.49e+00	0	55	104	0	50	21324
2026-01-20 07:55:02.05	89.75	6.72	-40.0	-54.9	3.8	1.49e+00	0	55	104	0	50	21413
2026-01-20 07:55:03.06	89.63	6.77	-40.1	-54.9	3.8	1.49e+00	0	55	104	0	50	21431
2026-01-20 07:55:04.07	89.52	6.83	-40.1	-54.9	3.8	1.49e+00	0	55	104	0	50	21423
2026-01-20 07:55:05.08	89.40	6.88	-39.9	-54.9	3.8	1.49e+00	0	55	104	0	50	21368
2026-01-20 07:55:06.09	89.28	6.93	-39.9	-54.8	3.8	1.49e+00	0	55	104	0	50	21208
2026-01-20 07:55:07.10	89.17	6.99	-40.1	-54.9	3.9	1.49e+00	0	55	104	0	50	21457
2026-01-20 07:55:08.11	89.05	7.04	-40.0	-54.9	3.8	1.49e+00	0	55	104	0	50	21499
2026-01-20 07:55:09.12	88.93	7.10	-39.6	-54.8	3.8	1.49e+00	0	56	104	0	50	21170
2026-01-20 07:55:10.14	88.81	7.15	-39.2	-54.8	3.8	1.49e+00	0	55	104	0	50	21047
2026-01-20 07:55:11.15	88.69	7.21	-40.1	-55.0	3.8	1.49e+00	0	56	104	0	50	21660
2026-01-20 07:55:12.16	88.57	7.26	-40.1	-55.0	3.8	1.49e+00	0	56	104	0	50	21538
2026-01-20 07:55:13.17	88.45	7.32	-40.1	-54.9	3.8	1.49e+00	0	55	104	0	50	21469
2026-01-20 07:55:14.18	88.33	7.37	-40.0	-55.0	3.8	1.49e+00	0	55	104	0	50	21515
2026-01-20 07:55:15.19	88.21	7.42	-39.9	-55.0	3.8	1.49e+00	0	56	104	0	50	21645
2026-01-20 07:55:16.20	88.09	7.48	-40.0	-54.9	3.8	1.49e+00	0	56	104	0	50	21465
2026-01-20 07:55:17.21	87.97	7.53	-40.1	-54.9	3.8	1.49e+00	0	56	104	0	50	21427
2026-01-20 07:55:18.22	87.85	7.59	-39.9	-54.9	3.8	1.49e+00	0	55	104	0	50	21280
2026-01-20 07:55:19.23	87.72	7.64	-38.8	-54.5	3.8	1.49e+00	0	56	104	0	49	21590
2026-01-20 07:55:20.24	87.60	7.70	-39.7	-54.5	3.9	1.49e+00	0	56	104	0	49	21583
2026-01-20 07:55:21.25	87.48	7.75	-40.0	-54.9	3.8	1.49e+00	0	56	104	0	50	21426
2026-01-20 07:55:22.26	87.35	7.81	-40.0	-54.9	3.8	1.49e+00	0	56	104	0	50	21463
2026-01-20 07:55:23.27	87.23	7.86	-40.1	-54.9	3.8	1.49e+00	0	56	104	0	50	21397
2026-01-20 07:55:24.28	87.10	7.91	-40.1	-54.9	3.8	1.49e+00	0	56	104	0	50	21424
2026-01-20 07:55:25.29	86.98	7.97	-39.8	-54.8	3.8	1.49e+00	0	56	104	0	50	21245
2026-01-20 07:55:26.30	86.85	8.02	-40.0	-55.0	3.8	1.49e+00	0	56	104	0	50	21584
2026-01-20 07:55:27.31	86.72	8.08	-39.4	-54.9	3.8	1.49e+00	0	56	104	0	50	21351
2026-01-20 07:55:28.32	86.60	8.13	-40.1	-55.1	3.8	1.49e+00	0	56	104	0	51	20672
2026-01-20 07:55:29.33	86.47	8.19	-40.2	-54.9	3.8	1.49e+00	0	56	104	0	51	20161
2026-01-20 07:55:30.34	86.34	8.24	-40.0	-55.0	3.8	1.49e+00	0	56	104	0	50	21699
2026-01-20 07:55:31.35	86.21	8.30	-40.0	-55.0	3.8	1.49e+00	0	56	104	0	50	21606
2026-01-20 07:55:32.36	86.08	8.35	-39.9	-55.0	3.9	1.49e+00	0	56	104	0	50	21622
2026-01-20 07:55:33.37	85.95	8.40	-40.2	-54.9	3.8	1.49e+00	0	56	104	0	51	20285
2026-01-20 07:55:34.38	85.82	8.46	-40.1	-55.0	3.8	1.49e+00	0	56	104	0	51	20474
2026-01-20 07:55:35.39	85.69	8.51	-40.0	-55.0	3.8	1.49e+00	0	56	104	0	50	21732
2026-01-20 07:55:36.40	85.56	8.57	-39.9	-55.0	3.8	1.49e+00	0	56	104	0	50	21739
2026-01-20 07:55:37.41	85.43	8.62	-40.2	-54.9	3.8	1.49e+00	0	56	104	0	51	20154
2026-01-20 07:55:38.42	85.30	8.67	-40.1	-54.8	3.8	1.49e+00	0	56	104	0	51	20029
2026-01-20 07:55:39.43	85.17	8.73	-40.2	-54.9	3.8	1.49e+00	0	56	104	0	50	21411
2026-01-20 07:55:40.44	85.03	8.78	-40.1	-54.8	3.8	1.49e+00	0	56	104	0	50	21172
2026-01-20 07:55:41.44	84.90	8.84	-40.2	-54.8	3.8	1.49e+00	0	56	104	0	50	21230
2026-01-20 07:55:42.45	84.77	8.89	-40.0	-54.8	3.8	1.49e+00	0	56	104	0	50	21078
2026-01-20 07:55:43.46	84.63	8.94	-39.7	-54.7	3.8	1.49e+00	0	56	104	0	50	21002
2026-01-20 07:55:44.47	84.50	9.00	-40.1	-54.9	3.8	1.49e+00	0	57	104	0	50	21316
2026-01-20 07:55:45.48	84.36	9.05	-40.2	-54.9	3.8	1.49e+00	0	56	104	0	51	20259
2026-01-20 07:55:46.49	84.23	9.11	-40.2	-54.9	3.8	1.49e+00	0	57	104	0	51	20157
2026-01-20 07:55:47.50	84.09	9.16	-40.1	-54.9	3.8	1.49e+00	0	57	104	0	51	20145
2026-01-20 07:55:48.51	83.95	9.21	-40.2	-54.9	3.8	1.49e+00	0	57	104	0	51	20197
2026-01-20 07:55:49.52	83.82	9.27	-40.2	-54.9	3.8	1.49e+00	0	57	104	0	50	21334
2026-01-20 07:55:50.53	83.68	9.32	-40.2	-54.9	3.8	1.49e+00	0	56	104	0	51	20206
2026-01-20 07:55:51.54	83.54	9.38	-40.3	-55.0	3.8	1.49e+00	0	57	104	0	51	20326
2026-01-20 07:55:52.55	83.40	9.43	-40.2	-54.9	3.8	1.49e+00	0	57	104	0	51	20281
2026-01-20 07:55:53.56	83.26	9.48	-40.2	-54.9	3.8	1.49e+00	0	57	104	0	51	20093
2026-01-20 07:55:54.57	83.12	9.54	-40.2	-54.9	3.8	1.49e+00	0	56	104	0	51	20128
2026-01-20 07:55:55.58	82.98	9.59	-40.2	-55.0	3.8	1.49e+00	0	56	104	0	51	20318
2026-01-20 07:55:56.59	82.84	9.64	-40.2	-54.9	3.8	1.49e+00	0	57	104	0	51	20111
2026-01-20 07:55:57.60	82.70	9.70	-40.1	-54.9	3.8	1.49e+00	0	57	104	0	51	20081
2026-01-20 07:55:58.61	82.55	9.75	-40.1	-54.9	3.8	1.49e+00	0	57	104	0	51	20127
2026-01-20 07:55:59.61	82.41	9.80	-40.3	-54.9	3.8	1.49e+00	0	57	104	0	51	20250
2026-01-20 07:56:00.62	82.27	9.86	-40.1	-54.9	3.8	1.49e+00	0	57	104	0	51	20075
2026-01-20 07:56:01.63	82.13	9.91	-40.1	-54.9	3.8	1.49e+00	0	57	104	0	51	20141
2026-01-20 07:56:02.64	81.98	9.96	-40.2	-54.9	3.8	1.49e+00	0	57	104	0	51	20128
2026-01-20 07:56:03.65	81.84	10.01	-40.2	-54.9	3.8	1.49e+00	0	57	104	0	51	20303
2026-01-20 07:56:04.66	81.69	10.07	-40.2	-54.9	3.8	1.49e+00	0	57	104	0	51	20237
2026-01-20 07:56:05.67	81.55	10.12	-40.3	-55.0	3.8	1.49e+00	0	57	104	0	51	20428
2026-01-20 07:56:06.68	81.40	10.17	-40.2	-54.9	3.8	1.49e+00	0	57	104	0	51	20288
2026-01-20 07:56:07.69	81.25	10.23	-40.4	-55.0	3.8	1.49e+00	0	57	104	0	51	20472
2026-01-20 07:56:08.70	81.10	10.28	-40.3	-55.0	3.8	1.49e+00	0	57	104	0	51	20344
2026-01-20 07:56:09.71	80.96	10.33	-40.3	-55.0	3.8	1.49e+00	0	57	104	0	51	20528
2026-01-20 07:56:10.72	80.81	10.38	-40.2	-55.0	3.8	1.49e+00	0	57	104	0	51	20330
2026-01-20 07:56:11.73	80.66	10.44	-40.4	-55.1	3.8	1.49e+00	0	57	104	0	51	20589
2026-01-20 07:56:12.74	80.51	10.49	-40.3	-55.0	3.8	1.49e+00	0	57	104	0	51	20459
2026-01-20 07:56:13.74	80.36	10.54	-40.4	-55.1	3.8	1.49e+00	0	57	104	0	51	20664
2026-01-20 07:56:14.75	80.21	10.59	-40.3	-55.0	3.8	1.49e+00	0	57	104	0	51	20513
2026-01-20 07:56:15.76	80.06	10.65	-40.5	-55.2	3.8	1.49e+00	0	57	104	0	51	20869
2026-01-20 07:56:16.77	79.91	10.70	-40.3	-55.1	3.8	1.49e+00	0	57	104	0	51	20679
2026-01-20 07:56:17.78	79.75	10.75	-40.5	-55.2	3.8	1.49e+00	0	57	104	0	51	20888
2026-01-20 07:56:18.79	79.60	10.80	-40.4	-55.1	3.8	1.49e+00	0	57	104	0	51	20679
2026-01-20 07:56:19.80	79.45	10.85	-40.5	-55.2	3.8	1.49e+00	0	57	104	0	51	20905
2026-01-20 07:56:20.81	79.29	10.90	-40.5	-55.2	3.8	1.49e+00	0	57	104	0	51	20863
2026-01-20 07:56:21.82	79.14	10.96	-40.7	-55.4	3.8	1.49e+00	0	57	104	0	51	21282
2026-01-20 07:56:22.83	78.98	11.01	-40.4	-55.2	3.8	1.49e+00	0	57	104	0	51	20778
2026-01-20 07:56:23.84	78.83	11.06	-40.6	-55.3	3.8	1.49e+00	0	57	104	0	51	21103
2026-01-20 07:56:24.85	78.67	11.11	-40.6	-55.3	3.9	1.49e+00	0	57	104	0	52	20010
2026-01-20 07:56:25.86	78.52	11.16	-40.8	-55.4	3.8	1.49e+00	0	57	104	0	52	20284
2026-01-20 07:56:26.87	78.36	11.21	-40.5	-55.2	3.8	1.49e+00	0	57	104	0	52	19653
2026-01-20 07:56:27.88	78.20	11.26	-40.5	-55.3	3.8	1.49e+00	0	57	104	0	52	20005
2026-01-20 07:56:28.89	78.04	11.32	-40.8	-55.4	3.8	1.49e+00	0	57	104	0	52	20283
2026-01-20 07:56:29.90	77.88	11.37	-40.9	-55.5	3.8	1.49e+00	0	57	104	0	52	20536
2026-01-20 07:56:30.91	77.72	11.42	-40.6	-55.3	3.8	1.49e+00	0	57	104	0	52	20040
2026-01-20 07:56:31.92	77.56	11.47	-40.7	-55.4	3.8	1.49e+00	0	57	104	0	52	20196
2026-01-20 07:56:32.93	77.40	11.52	-40.9	-55.6	3.8	1.49e+00	0	57	104	0	52	20556
2026-01-20 07:56:33.94	77.24	11.57	-40.9	-55.6	3.8	1.49e+00	0	57	104	0	52	20544
2026-01-20 07:56:34.95	77.08	11.62	-40.7	-55.4	3.8	1.49e+00	0	57	104	0	52	20219
2026-01-20 07:56:35.96	76.92	11.67	-40.8	-55.5	3.8	1.49e+00	0	57	104	0	52	20333
2026-01-20 07:56:36.97	76.75	11.72	-40.9	-55.6	3.8	1.49e+00	0	57	104	0	52	20585
2026-01-20 07:56:37.98	76.59	11.77	-40.9	-55.6	3.8	1.49e+00	0	58	104	0	52	20553
2026-01-20 07:56:38.99	76.43	11.82	-40.9	-55.5	3.8	1.49e+00	0	57	104	0	52	20442
2026-01-20 07:56:40.00	76.26	11.87	-40.8	-55.6	3.8	1.49e+00	0	58	104	0	52	20666
2026-01-20 07:56:41.01	76.10	11.92	-40.9	-55.5	3.8	1.49e+00	0	57	104	0	52	20476
2026-01-20 07:56:42.02	75.93	11.97	-41.1	-55.7	3.8	1.49e+00	0	58	104	0	52	20902
2026-01-20 07:56:43.02	75.77	12.02	-40.9	-55.5	3.8	1.49e+00	0	58	104	0	52	20504
2026-01-20 07:56:44.03	75.60	12.07	-41.0	-55.7	3.8	1.49e+00	0	58	104	0	52	20889
2026-01-20 07:56:45.04	75.43	12.11	-40.9	-55.6	3.8	1.49e+00	0	57	104	0	52	20715
2026-01-20 07:56:46.05	75.26	12.16	-41.1	-55.7	3.8	1.49e+00	0	57	104	0	52	20954
2026-01-20 07:56:47.06	75.09	12.21	-40.9	-55.5	3.8	1.49e+00	0	58	104	0	52	20526
2026-01-20 07:56:48.07	74.93	12.26	-41.1	-55.8	3.8	1.49e+00	0	58	104	0	52	21132
2026-01-20 07:56:49.08	74.76	12.31	-41.0	-55.7	3.8	1.49e+00	0	58	104	0	52	20931
2026-01-20 07:56:50.09	74.59	12.36	-40.9	-55.6	3.8	1.49e+00	0	58	104	0	52	20624
2026-01-20 07:56:51.10	74.41	12.40	-41.1	-55.7	3.8	1.49e+00	0	58	104	0	52	20887
2026-01-20 07:56:52.11	74.24	12.45	-41.1	-55.8	3.8	1.49e+00	0	58	104	0	52	21020
2026-01-20 07:56:53.12	74.07	12.50	-40.9	-55.6	3.8	1.49e+00	0	58	104	0	52	20580
2026-01-20 07:56:54.13	73.90	12.55	-40.8	-55.5	3.8	1.49e+00	0	58	104	0	52	20518
2026-01-20 07:56:55.14	73.73	12.60	-41.1	-55.7	3.8	1.49e+00	0	58	104	0	52	20879
2026-01-20 07:56:56.14	73.55	12.64	-41.0	-55.6	3.8	1.49e+00	0	58	104	0	52	20732
2026-01-20 07:56:57.15	73.38	12.69	-40.9	-55.6	3.8	1.49e+00	0	58	104	0	52	20572
2026-01-20 07:56:58.16	73.20	12.74	-41.0	-55.7	3.8	1.49e+00	0	58	104	0	52	20827
2026-01-20 07:56:59.18	73.03	12.78	-40.9	-55.6	3.8	1.49e+00	0	58	104	0	52	20545
2026-01-20 07:57:00.18	72.85	12.83	-40.9	-55.6	3.8	1.49e+00	0	58	104	0	52	20738
2026-01-20 07:57:01.19	72.68	12.88	-41.0	-55.7	3.8	1.49e+00	0	58	104	0	52	20959
2026-01-20 07:57:02.20	72.50	12.92	-41.1	-55.8	3.8	1.49e+00	0	58	104	0	52	21067
2026-01-20 07:57:03.21	72.32	12.97	-40.8	-55.5	3.8	1.49e+00	0	58	104	0	52	20538
2026-01-20 07:57:04.22	72.14	13.01	-41.0	-55.7	3.8	1.49e+00	0	58	104	0	52	20817
2026-01-20 07:57:05.23	71.97	13.06	-41.1	-55.8	3.8	1.49e+00	0	58	104	0	52	21120
2026-01-20 07:57:06.24	71.79	13.11	-41.1	-55.8	3.8	1.49e+00	0	58	104	0	52	21178
2026-01-20 07:57:07.25	71.61	13.15	-41.0	-55.7	3.8	1.49e+00	0	58	104	0	52	20925
2026-01-20 07:57:08.26	71.43	13.20	-41.2	-55.8	3.8	1.49e+00	0	58	104	0	53	20068
2026-01-20 07:57:09.27	71.25	13.24	-41.0	-55.7	3.8	1.49e+00	0	58	104	0	53	19707
2026-01-20 07:57:10.27	71.07	13.29	-41.2	-55.9	3.8	1.49e+00	0	58	104	0	53	20169
2026-01-20 07:57:11.28	70.88	13.33	-41.1	-55.8	3.8	1.49e+00	0	58	104	0	53	19876
2026-01-20 07:57:12.29	70.70	13.37	-41.4	-56.0	3.8	1.49e+00	0	58	104	0	53	20461
2026-01-20 07:57:13.30	70.52	13.42	-41.0	-55.7	3.8	1.49e+00	0	58	104	0	53	19670
2026-01-20 07:57:14.31	70.33	13.46	-41.3	-55.9	3.8	1.49e+00	0	58	104	0	53	20078
2026-01-20 07:57:15.32	70.15	13.51	-41.2	-55.8	3.8	1.49e+00	0	58	104	0	53	19849
2026-01-20 07:57:16.33	69.97	13.55	-41.5	-55.1	3.8	1.49e+00	0	58	104	0	53	18508
2026-01-20 07:57:17.34	69.78	13.59	-41.1	-55.8	3.8	1.49e+00	0	58	104	0	53	19902
2026-01-20 07:57:18.35	69.59	13.64	-41.5	-55.8	3.8	1.49e+00	0	58	104	0	53	19916
2026-01-20 07:57:19.36	69.41	13.68	-41.4	-55.6	3.8	1.49e+00	0	58	104	0	53	19422
2026-01-20 07:57:20.37	69.22	13.72	-41.4	-55.1	3.8	1.49e+00	0	58	104	0	53	18461
2026-01-20 07:57:21.38	69.03	13.76	-41.4	-54.8	3.8	1.49e+00	0	58	104	0	53	17741
2026-01-20 07:57:22.39	68.85	13.81	-41.4	-54.4	3.8	1.49e+00	0	58	104	0	53	16972
2026-01-20 07:57:23.40	68.66	13.85	-41.5	-53.9	3.8	1.49e+00	0	58	104	0	53	16039
2026-01-20 07:57:24.41	68.47	13.89	-41.4	-53.3	4.1	1.48e+00	0	58	104	0	54	14084
2026-01-20 07:57:25.42	68.28	13.93	-41.3	-55.7	3.8	1.49e+00	0	58	104	0	54	18641
2026-01-20 07:57:26.43	68.09	13.97	-41.7	-53.0	3.9	1.49e+00	0	58	104	0	54	13598
2026-01-20 07:57:27.43	67.90	14.01	-41.3	-51.8	4.5	1.36e+00	0	58	0	0	54	11839
2026-01-20 07:57:28.44	67.71	14.05	-41.2	-50.4	5.3	6.38e-01	0	58	0	2097152	54	10072
2026-01-20 07:57:29.46	67.52	14.09	-41.2	-49.6	5.8	4.55e-01	0	58	0	4194304	54	9274
2026-01-20 07:57:30.46	67.32	14.13	-41.2	-49.2	6.3	2.69e-01	0	58	0	6291456	54	8814
2026-01-20 07:57:31.47	67.13	14.17	-41.3	-49.2	6.4	2.52e-01	0	59	0	7340032	54	8792
2026-01-20 07:57:32.48	66.94	14.21	-41.2	-48.5	7.1	1.95e-01	0	58	0	9437184	54	8122
2026-01-20 07:57:33.49	66.75	14.25	-41.3	-48.2	7.6	1.22e-01	0	58	0	11534336	54	7817
2026-01-20 07:57:34.50	66.55	14.29	-42.0	-49.6	6.6	1.32e-01	0	58	0	13631488	54	9250
2026-01-20 07:57:35.51	66.36	14.33	-41.0	-46.8	9.1	6.46e-01	0	58	0	15728640	54	6649
2026-01-20 07:57:36.52	66.16	14.37	-41.4	-49.6	5.9	1.16e+00	0	58	104	15728640	54	9213
2026-01-20 07:57:37.53	65.96	14.41	-40.8	-45.8	10.1	2.04e-01	0	58	0	16777216	53	6330
2026-01-20 07:57:38.54	65.77	14.45	-40.7	-46.0	9.8	4.45e-02	0	58	0	18874368	52	6850
2026-01-20 07:57:39.55	65.57	14.48	-40.6	-45.6	10.5	3.44e-03	0	58	0	20971520	52	6498
2026-01-20 07:57:40.56	65.37	14.52	-40.8	-45.9	10.2	5.17e-03	0	58	0	23068672	52	6777
2026-01-20 07:57:41.57	65.18	14.56	-41.1	-46.4	9.7	1.02e-02	0	58	0	24117248	52	7187
2026-01-20 07:57:42.58	64.98	14.60	-41.2	-46.6	9.6	9.57e-03	0	59	0	26214400	52	7343
2026-01-20 07:57:43.59	64.78	14.63	-41.1	-46.1	10.2	8.24e-03	0	58	0	28311552	52	6948
2026-01-20 07:57:44.59	64.58	14.67	-41.1	-46.1	10.3	4.64e-03	0	58	0	30408704	52	6945
2026-01-20 07:57:45.60	64.38	14.70	-41.2	-46.1	10.4	5.19e-03	0	58	0	32505856	52	6937
2026-01-20 07:57:46.61	64.18	14.74	-41.2	-46.1	10.5	4.21e-03	0	59	0	33554432	53	6534
2026-01-20 07:57:47.62	63.98	14.78	-41.2	-46.0	10.7	3.26e-03	0	58	0	35651584	53	6445
2026-01-20 07:57:48.63	63.78	14.81	-41.2	-45.9	10.9	2.49e-03	0	58	0	37748736	53	6353
2026-01-20 07:57:49.64	63.58	14.85	-41.2	-45.7	11.2	1.53e-03	0	59	0	39845888	53	6203
2026-01-20 07:57:50.65	63.38	14.88	-41.1	-45.5	11.4	9.25e-04	0	58	0	41943040	53	6091
2026-01-20 07:57:51.66	63.17	14.91	-41.2	-45.6	11.3	9.91e-04	0	59	0	42991616	53	6175
2026-01-20 07:57:52.67	62.97	14.95	-41.1	-45.3	11.6	8.25e-04	0	58	0	45088768	53	5981
2026-01-20 07:57:53.68	62.77	14.98	-41.1	-45.4	11.7	6.35e-04	0	58	0	47185920	53	5995
2026-01-20 07:57:54.69	62.56	15.01	-41.2	-45.5	11.5	7.80e-04	0	59	0	49283072	53	6123
2026-01-20 07:57:55.70	62.36	15.05	-41.3	-45.7	11.4	8.27e-04	0	59	0	51380224	53	6207
2026-01-20 07:57:56.71	62.15	15.08	-41.4	-45.8	11.3	1.03e-03	0	58	0	52428800	53	6335
2026-01-20 07:57:57.72	61.95	15.11	-41.4	-45.8	11.3	8.78e-04	0	58	0	54525952	53	6329
2026-01-20 07:57:58.73	61.74	15.14	-41.5	-45.9	11.3	1.16e-03	0	59	0	56623104	53	6389
2026-01-20 07:57:59.73	61.54	15.18	-41.4	-45.7	11.5	9.75e-04	0	59	0	58720256	53	6260
2026-01-20 07:58:00.74	61.33	15.21	-41.3	-45.4	11.8	6.31e-04	0	59	0	60817408	53	6039
2026-01-20 07:58:01.75	61.12	15.24	-41.4	-45.6	11.7	5.01e-04	0	58	0	61865984	53	6154
2026-01-20 07:58:02.76	60.92	15.27	-41.4	-45.6	11.7	4.52e-04	0	58	0	63963136	53	6160
2026-01-20 07:58:03.77	60.71	15.30	-41.5	-45.7	11.6	6.43e-04	0	59	0	66060288	53	6251
2026-01-20 07:58:04.78	60.50	15.33	-41.4	-45.7	11.7	5.19e-04	0	59	0	68157440	53	6213
2026-01-20 07:58:05.79	60.29	15.36	-41.4	-45.6	11.7	6.21e-04	0	58	0	70254592	53	6188
2026-01-20 07:58:06.80	60.08	15.39	-41.5	-45.7	11.6	6.00e-04	0	59	0	71303168	53	6238
2026-01-20 07:58:07.81	59.87	15.42	-41.7	-46.1	11.3	7.40e-04	0	59	0	73400320	53	6533
2026-01-20 07:58:08.82	59.66	15.45	-41.7	-46.1	11.3	1.19e-03	0	58	0	75497472	53	6539
2026-01-20 07:58:09.83	59.45	15.47	-41.7	-46.3	11.2	1.40e-03	0	59	0	77594624	54	6285
2026-01-20 07:58:10.84	59.24	15.50	-41.7	-46.3	11.1	1.77e-03	0	59	0	79691776	54	6279
2026-01-20 07:58:11.85	59.03	15.53	-41.7	-46.2	11.2	1.51e-03	0	59	0	81788928	54	6252
2026-01-20 07:58:12.85	58.82	15.56	-41.7	-46.2	11.1	1.22e-03	0	59	0	82837504	54	6269
2026-01-20 07:58:13.86	58.61	15.58	-41.8	-46.3	11.1	1.32e-03	0	59	0	84934656	54	6318
2026-01-20 07:58:14.87	58.39	15.61	-41.7	-46.2	11.2	1.75e-03	0	59	0	87031808	54	6261
2026-01-20 07:58:15.88	58.18	15.64	-41.7	-46.1	11.4	1.19e-03	0	59	0	89128960	54	6175
2026-01-20 07:58:16.89	57.97	15.66	-41.7	-46.2	11.2	1.31e-03	0	59	0	91226112	54	6253
2026-01-20 07:58:17.90	57.75	15.69	-41.8	-46.3	11.2	1.39e-03	0	59	0	92274688	54	6310
2026-01-20 07:58:18.91	57.54	15.71	-41.8	-46.3	11.2	1.38e-03	0	59	0	94371840	54	6296
2026-01-20 07:58:19.92	57.33	15.74	-41.7	-46.1	11.4	1.30e-03	0	59	0	96468992	54	6172
2026-01-20 07:58:20.93	57.11	15.76	-41.7	-46.0	11.5	9.47e-04	0	59	0	98566144	54	6081
2026-01-20 07:58:21.94	56.90	15.78	-41.6	-45.9	11.6	7.74e-04	0	59	0	100663296	54	6016
2026-01-20 07:58:22.95	56.68	15.81	-41.6	-45.9	11.6	7.72e-04	0	59	0	101711872	54	6024
2026-01-20 07:58:23.96	56.47	15.83	-41.6	-45.9	11.6	7.92e-04	0	59	0	103809024	54	5999
2026-01-20 07:58:24.97	56.25	15.85	-41.7	-46.0	11.5	7.40e-04	0	59	0	105906176	54	6063
2026-01-20 07:58:25.98	56.03	15.88	-41.6	-45.8	11.7	5.93e-04	0	59	0	108003328	54	5965
2026-01-20 07:58:26.99	55.82	15.90	-41.5	-45.7	11.9	5.32e-04	0	59	0	110100480	54	5870
2026-01-20 07:58:28.00	55.60	15.92	-41.5	-45.6	11.9	4.53e-04	0	59	0	111149056	54	5823
2026-01-20 07:58:29.01	55.38	15.94	-41.4	-45.5	12.0	3.40e-04	0	59	0	113246208	54	5756
2026-01-20 07:58:30.02	55.17	15.96	-41.5	-45.7	11.9	4.06e-04	0	59	0	115343360	54	5873
2026-01-20 07:58:31.03	54.95	15.98	-41.5	-45.7	11.9	4.55e-04	0	59	0	117440512	54	5898
2026-01-20 07:58:32.04	54.73	16.00	-41.5	-45.7	11.8	3.97e-04	0	59	0	119537664	54	5885
2026-01-20 07:58:33.05	54.51	16.02	-41.5	-45.8	11.7	4.49e-04	0	59	0	120586240	54	5953
2026-01-20 07:58:34.06	54.29	16.04	-41.6	-45.9	11.6	5.90e-04	0	59	0	122683392	54	6013
2026-01-20 07:58:35.07	54.07	16.06	-41.6	-46.0	11.5	6.57e-04	0	59	0	124780544	54	6086
2026-01-20 07:58:36.08	53.85	16.08	-41.7	-46.1	11.4	6.27e-04	0	59	0	126877696	54	6171
2026-01-20 07:58:37.09	53.63	16.09	-41.6	-46.1	11.4	6.69e-04	0	59	0	128974848	54	6158
2026-01-20 07:58:38.10	53.42	16.11	-41.6	-46.0	11.5	8.29e-04	0	59	0	130023424	54	6084
2026-01-20 07:58:39.11	53.20	16.13	-41.7	-46.1	11.5	8.19e-04	0	59	0	132120576	54	6145
2026-01-20 07:58:40.12	52.98	16.15	-41.7	-46.2	11.3	1.07e-03	0	59	0	134217728	54	6271
2026-01-20 07:58:41.13	52.75	16.16	-41.8	-46.5	11.1	1.13e-03	0	59	0	136314880	54	6426
2026-01-20 07:58:42.13	52.54	16.18	-41.9	-46.7	10.9	1.77e-03	0	59	0	138412032	54	6575
2026-01-20 07:58:43.14	52.32	16.19	-42.0	-46.8	10.7	1.98e-03	0	59	0	139460608	54	6679
2026-01-20 07:58:44.15	52.09	16.21	-42.0	-46.8	10.7	2.85e-03	0	59	0	141557760	54	6676
2026-01-20 07:58:45.16	51.87	16.22	-41.9	-46.6	10.9	2.63e-03	0	59	0	143654912	54	6552
2026-01-20 07:58:46.17	51.65	16.24	-41.9	-46.7	10.8	2.60e-03	0	59	0	145752064	54	6612
2026-01-20 07:58:47.18	51.43	16.25	-41.9	-46.7	10.8	2.17e-03	0	59	0	147849216	54	6594
2026-01-20 07:58:48.19	51.21	16.26	-41.9	-46.6	11.0	1.89e-03	0	59	0	149946368	54	6495
2026-01-20 07:58:49.20	50.99	16.28	-41.9	-46.5	11.0	1.93e-03	0	59	0	150994944	54	6451
2026-01-20 07:58:50.21	50.76	16.29	-41.8	-46.4	11.2	1.68e-03	0	59	0	153092096	54	6372
2026-01-20 07:58:51.22	50.54	16.30	-41.8	-46.3	11.3	1.56e-03	0	59	0	155189248	54	6280
2026-01-20 07:58:52.23	50.32	16.31	-41.8	-46.4	11.2	1.20e-03	0	59	0	157286400	54	6361
2026-01-20 07:58:53.24	50.09	16.32	-41.8	-46.3	11.2	1.07e-03	0	59	0	159383552	54	6326
2026-01-20 07:58:54.25	49.87	16.33	-41.7	-46.2	11.4	1.05e-03	0	59	0	160432128	54	6234
2026-01-20 07:58:55.25	49.65	16.34	-41.7	-46.2	11.4	1.08e-03	0	59	0	162529280	54	6245
2026-01-20 07:58:56.26	49.43	16.35	-41.7	-46.2	11.4	1.41e-03	0	59	0	164626432	54	6255
2026-01-20 07:58:57.27	49.20	16.36	-41.7	-46.1	11.5	9.24e-04	0	59	0	166723584	54	6160
2026-01-20 07:58:58.28	48.98	16.37	-41.7	-46.0	11.5	6.93e-04	0	59	0	167772160	54	6076
2026-01-20 07:58:59.29	48.76	16.38	-41.6	-45.8	11.8	4.99e-04	0	59	0	169869312	54	5963
2026-01-20 07:59:00.30	48.53	16.39	-41.6	-45.8	11.7	4.70e-04	0	59	0	171966464	54	5992
2026-01-20 07:59:01.31	48.31	16.40	-41.5	-45.7	12.0	4.66e-04	0	59	0	174063616	54	5873
2026-01-20 07:59:02.32	48.08	16.40	-41.6	-45.8	11.8	4.59e-04	0	59	0	176160768	54	5939
2026-01-20 07:59:03.33	47.86	16.41	-41.7	-46.0	11.6	5.91e-04	0	59	0	178257920	54	6094
2026-01-20 07:59:04.34	47.64	16.42	-41.8	-46.2	11.4	9.66e-04	0	59	0	179306496	54	6211
2026-01-20 07:59:05.35	47.41	16.42	-41.8	-46.2	11.4	1.07e-03	0	59	0	181403648	54	6270
2026-01-20 07:59:06.36	47.19	16.43	-41.9	-46.4	11.2	1.12e-03	0	59	0	183500800	54	6363
2026-01-20 07:59:07.37	46.96	16.43	-41.8	-46.3	11.3	1.29e-03	0	59	0	185597952	54	6283
2026-01-20 07:59:08.38	46.74	16.44	-41.9	-46.4	11.2	1.37e-03	0	59	0	187695104	54	6375
2026-01-20 07:59:09.39	46.51	16.44	-41.9	-46.5	11.1	1.23e-03	0	59	0	188743680	54	6455
2026-01-20 07:59:10.40	46.29	16.44	-41.8	-46.3	11.3	1.15e-03	0	59	0	190840832	54	6305
2026-01-20 07:59:11.41	46.06	16.45	-41.7	-46.1	11.4	9.21e-04	0	59	0	192937984	54	6197
2026-01-20 07:59:12.42	45.84	16.45	-41.7	-45.9	11.7	6.47e-04	0	59	0	195035136	54	6060
2026-01-20 07:59:13.42	45.62	16.45	-41.6	-45.8	11.8	5.03e-04	0	59	0	197132288	54	5971
2026-01-20 07:59:14.43	45.39	16.45	-41.5	-45.5	12.2	2.99e-04	0	59	0	198180864	54	5751
2026-01-20 07:59:15.44	45.17	16.46	-41.5	-45.7	12.0	3.36e-04	0	59	0	200278016	54	5885
2026-01-20 07:59:16.45	44.94	16.46	-41.5	-45.7	12.0	2.62e-04	0	59	0	202375168	54	5862
2026-01-20 07:59:17.46	44.72	16.46	-41.6	-45.8	11.8	4.97e-04	0	59	0	204472320	54	5978
2026-01-20 07:59:18.47	44.49	16.46	-41.7	-46.0	11.6	6.03e-04	0	59	0	206569472	54	6114
2026-01-20 07:59:19.48	44.27	16.46	-41.8	-46.3	11.3	8.67e-04	0	59	0	207618048	54	6323
2026-01-20 07:59:20.49	44.04	16.45	-41.9	-46.4	11.2	1.28e-03	0	59	0	209715200	54	6401
2026-01-20 07:59:21.50	43.82	16.45	-41.9	-46.6	11.0	1.66e-03	0	59	0	211812352	54	6510
2026-01-20 07:59:22.50	43.60	16.45	-42.0	-46.8	10.8	2.22e-03	0	59	0	213909504	54	6656
2026-01-20 07:59:23.51	43.37	16.45	-42.1	-47.1	10.5	3.01e-03	0	59	0	216006656	54	6881
2026-01-20 07:59:24.52	43.15	16.45	-42.2	-47.1	10.5	4.08e-03	0	59	0	217055232	54	6951
2026-01-20 07:59:25.53	42.92	16.44	-42.2	-47.2	10.4	4.10e-03	0	59	0	219152384	54	6996
2026-01-20 07:59:26.54	42.70	16.44	-42.2	-47.3	10.3	4.67e-03	0	59	0	221249536	54	7063
2026-01-20 07:59:27.55	42.47	16.44	-42.1	-47.1	10.4	4.89e-03	0	59	0	223346688	54	6915
2026-01-20 07:59:28.56	42.25	16.43	-42.1	-47.2	10.3	6.01e-03	0	59	0	225443840	55	6603
2026-01-20 07:59:29.57	42.02	16.43	-42.1	-47.1	10.5	4.85e-03	0	59	0	226492416	55	6547
2026-01-20 07:59:30.58	41.80	16.42	-42.1	-47.1	10.4	4.55e-03	0	59	0	228589568	55	6547
2026-01-20 07:59:31.59	41.58	16.42	-42.0	-46.8	10.8	2.83e-03	0	59	0	230686720	55	6281
2026-01-20 07:59:32.60	41.35	16.41	-41.9	-46.6	11.0	2.02e-03	0	59	0	232783872	55	6164
2026-01-20 07:59:33.61	41.13	16.40	-41.8	-46.4	11.2	1.49e-03	0	59	0	234881024	55	6034
2026-01-20 07:59:34.62	40.90	16.40	-41.8	-46.3	11.3	1.27e-03	0	59	0	235929600	55	5972
2026-01-20 07:59:35.63	40.68	16.39	-41.8	-46.2	11.4	1.13e-03	0	59	0	238026752	55	5900
2026-01-20 07:59:36.64	40.46	16.38	-41.8	-46.2	11.4	8.19e-04	0	59	0	240123904	55	5877
2026-01-20 07:59:37.65	40.23	16.37	-41.8	-46.2	11.4	9.26e-04	0	59	0	242221056	55	5875
2026-01-20 07:59:38.66	40.01	16.36	-41.8	-46.4	11.3	8.89e-04	0	59	0	244318208	55	5998
2026-01-20 07:59:39.67	39.79	16.35	-41.8	-46.2	11.4	9.00e-04	0	59	0	246415360	55	5894
2026-01-20 07:59:40.67	39.56	16.34	-41.8	-46.3	11.3	9.79e-04	0	59	0	247463936	55	5959
2026-01-20 07:59:41.69	39.34	16.33	-41.8	-46.2	11.5	1.25e-03	0	59	0	249561088	55	5870
2026-01-20 07:59:42.70	39.12	16.32	-41.7	-46.2	11.5	9.09e-04	0	59	0	251658240	55	5868
2026-01-20 07:59:43.70	38.90	16.31	-41.8	-46.2	11.4	7.77e-04	0	59	0	253755392	55	5917
2026-01-20 07:59:44.72	38.67	16.30	-41.6	-45.8	11.9	5.64e-04	0	59	0	255852544	55	5601
2026-01-20 07:59:45.73	38.45	16.29	-41.5	-45.5	12.1	3.41e-04	0	59	0	256901120	55	5454
2026-01-20 07:59:46.74	38.23	16.28	-41.4	-45.4	12.3	1.97e-04	0	59	0	258998272	54	5667
2026-01-20 07:59:47.74	38.01	16.26	-41.3	-45.1	12.6	9.91e-05	0	59	0	261095424	54	5491
2026-01-20 07:59:48.75	37.79	16.25	-41.2	-45.1	12.6	8.77e-05	0	59	0	263192576	54	5489
2026-01-20 07:59:49.76	37.56	16.24	-41.3	-45.2	12.5	1.07e-04	0	59	0	265289728	54	5542
2026-01-20 07:59:50.77	37.34	16.22	-41.2	-45.1	12.6	1.04e-04	0	59	0	266338304	54	5475
2026-01-20 07:59:51.78	37.12	16.21	-41.3	-45.1	12.6	9.07e-05	0	59	0	268435456	54	5480
2026-01-20 07:59:52.79	36.90	16.19	-41.4	-45.3	12.4	1.12e-04	0	59	0	270532608	54	5627
2026-01-20 07:59:53.80	36.68	16.18	-41.5	-45.5	12.2	1.71e-04	0	59	0	272629760	54	5774
2026-01-20 07:59:54.81	36.46	16.16	-41.5	-45.5	12.2	1.81e-04	0	59	0	274726912	54	5769
2026-01-20 07:59:55.82	36.24	16.15	-41.5	-45.6	12.1	2.10e-04	0	59	0	275775488	54	5819
2026-01-20 07:59:56.83	36.02	16.13	-41.5	-45.5	12.1	2.43e-04	0	59	0	277872640	54	5767
2026-01-20 07:59:57.84	35.80	16.11	-41.6	-45.7	11.9	3.60e-04	0	59	0	279969792	54	5894
2026-01-20 07:59:58.85	35.58	16.09	-41.6	-45.7	12.0	3.39e-04	0	59	0	282066944	54	5900
2026-01-20 07:59:59.86	35.36	16.08	-41.6	-45.8	11.9	4.78e-04	0	59	0	284164096	54	5950
2026-01-20 08:00:00.87	35.14	16.06	-41.7	-45.9	11.8	4.82e-04	0	59	0	285212672	54	6053
2026-01-20 08:00:01.88	34.92	16.04	-41.7	-46.0	11.6	5.04e-04	0	59	0	287309824	54	6089
2026-01-20 08:00:02.89	34.71	16.02	-41.8	-46.2	11.4	7.04e-04	0	59	0	289406976	54	6264
2026-01-20 08:00:03.90	34.49	16.00	-41.9	-46.3	11.4	9.73e-04	0	59	0	291504128	54	6306
2026-01-20 08:00:04.91	34.27	15.98	-41.9	-46.3	11.4	1.01e-03	0	59	0	293601280	54	6301
2026-01-20 08:00:05.92	34.05	15.96	-41.9	-46.4	11.3	1.03e-03	0	59	0	294649856	54	6374
2026-01-20 08:00:06.93	33.84	15.94	-41.8	-46.1	11.5	1.08e-03	0	59	0	296747008	54	6187
2026-01-20 08:00:07.94	33.62	15.92	-41.6	-45.8	11.8	6.94e-04	0	59	0	298844160	54	5978
2026-01-20 08:00:08.95	33.40	15.90	-41.7	-45.9	11.8	4.24e-04	0	59	0	300941312	54	6000
2026-01-20 08:00:09.96	33.19	15.88	-41.6	-45.6	12.0	3.20e-04	0	59	0	303038464	54	5837
2026-01-20 08:00:10.97	32.97	15.85	-41.6	-45.6	12.0	3.13e-04	0	59	0	304087040	54	5838
2026-01-20 08:00:11.98	32.76	15.83	-41.5	-45.4	12.2	2.31e-04	0	59	0	306184192	54	5716
2026-01-20 08:00:12.99	32.54	15.81	-41.6	-45.7	12.0	2.51e-04	0	59	0	308281344	54	5872
2026-01-20 08:00:14.00	32.33	15.78	-41.5	-45.5	12.2	3.43e-04	0	59	0	310378496	54	5730
2026-01-20 08:00:15.01	32.11	15.76	-41.4	-45.4	12.3	2.11e-04	0	59	0	312475648	54	5680
2026-01-20 08:00:16.02	31.90	15.74	-41.5	-45.4	12.2	2.43e-04	0	59	0	314572800	54	5707
2026-01-20 08:00:17.03	31.68	15.71	-41.5	-45.5	12.2	2.05e-04	0	59	0	315621376	54	5732
2026-01-20 08:00:18.04	31.47	15.69	-41.6	-45.6	12.0	2.38e-04	0	59	0	317718528	54	5842
2026-01-20 08:00:19.05	31.26	15.66	-41.6	-45.7	11.9	3.10e-04	0	59	0	319815680	54	5923
2026-01-20 08:00:20.06	31.04	15.64	-41.6	-45.9	11.8	5.96e-04	0	59	0	321912832	54	5995
2026-01-20 08:00:21.06	30.83	15.61	-41.6	-45.8	11.8	6.45e-04	0	59	0	324009984	54	5955
2026-01-20 08:00:22.07	30.62	15.58	-41.7	-46.0	11.6	6.61e-04	0	59	0	325058560	54	6105
2026-01-20 08:00:23.08	30.41	15.56	-41.7	-46.1	11.5	8.20e-04	0	59	0	327155712	54	6169
2026-01-20 08:00:24.09	30.20	15.53	-41.8	-46.1	11.5	8.89e-04	0	59	0	329252864	54	6202
2026-01-20 08:00:25.10	29.99	15.50	-41.7	-46.0	11.6	6.23e-04	0	59	0	331350016	54	6110
2026-01-20 08:00:26.11	29.78	15.47	-41.7	-46.1	11.5	7.46e-04	0	59	0	333447168	54	6173
2026-01-20 08:00:27.12	29.57	15.45	-41.8	-46.3	11.2	1.21e-03	0	60	0	334495744	54	6341
2026-01-20 08:00:28.13	29.36	15.42	-41.9	-46.5	11.1	1.29e-03	0	59	0	336592896	54	6464
2026-01-20 08:00:29.14	29.15	15.39	-42.1	-46.9	10.7	2.59e-03	0	59	0	338690048	54	6747
2026-01-20 08:00:30.15	28.94	15.36	-42.0	-46.8	10.8	2.85e-03	0	59	0	340787200	54	6692
2026-01-20 08:00:31.16	28.73	15.33	-42.1	-46.9	10.7	2.76e-03	0	59	0	342884352	54	6751
2026-01-20 08:00:32.17	28.52	15.30	-42.0	-46.7	10.9	2.45e-03	0	59	0	343932928	54	6602
2026-01-20 08:00:33.18	28.32	15.27	-42.0	-46.8	10.7	2.62e-03	0	59	0	346030080	54	6714
2026-01-20 08:00:34.19	28.11	15.24	-42.0	-46.7	10.8	2.53e-03	0	59	0	348127232	54	6613
2026-01-20 08:00:35.20	27.90	15.21	-41.9	-46.6	11.0	2.07e-03	0	59	0	350224384	54	6509
2026-01-20 08:00:36.21	27.70	15.18	-41.9	-46.6	11.0	1.88e-03	0	59	0	352321536	54	6510
2026-01-20 08:00:37.22	27.49	15.15	-41.9	-46.5	11.1	1.91e-03	0	59	0	353370112	54	6454
2026-01-20 08:00:38.23	27.29	15.11	-41.8	-46.3	11.3	1.49e-03	0	59	0	355467264	54	6322
2026-01-20 08:00:39.23	27.08	15.08	-41.8	-46.2	11.3	1.10e-03	0	60	0	357564416	54	6274
2026-01-20 08:00:40.24	26.88	15.05	-41.7	-46.2	11.3	1.01e-03	0	59	0	359661568	54	6264
2026-01-20 08:00:41.25	26.67	15.02	-41.7	-46.2	11.3	1.04e-03	0	59	0	361758720	54	6273
2026-01-20 08:00:42.26	26.47	14.98	-41.7	-46.2	11.4	9.90e-04	0	59	0	362807296	54	6224
2026-01-20 08:00:43.27	26.27	14.95	-41.7	-46.2	11.3	1.25e-03	0	59	0	364904448	54	6246
2026-01-20 08:00:44.28	26.07	14.92	-41.6	-45.9	11.7	7.19e-04	0	60	0	367001600	54	6036
2026-01-20 08:00:45.29	25.86	14.88	-41.6	-45.8	11.8	5.25e-04	0	59	0	369098752	54	5947
2026-01-20 08:00:46.30	25.66	14.85	-41.5	-45.7	11.9	4.34e-04	0	60	0	371195904	54	5873
2026-01-20 08:00:47.31	25.46	14.81	-41.4	-45.3	12.2	3.30e-04	0	59	0	372244480	54	5643
2026-01-20 08:00:48.32	25.26	14.78	-41.3	-45.1	12.5	1.33e-04	0	59	0	374341632	54	5522
2026-01-20 08:00:49.33	25.06	14.74	-41.3	-45.2	12.4	1.48e-04	0	59	0	376438784	54	5529
2026-01-20 08:00:50.34	24.86	14.71	-41.2	-45.1	12.5	1.62e-04	0	59	0	378535936	54	5487
2026-01-20 08:00:51.35	24.66	14.67	-41.3	-45.3	12.3	1.69e-04	0	60	0	380633088	54	5623
2026-01-20 08:00:52.36	24.46	14.63	-41.4	-45.4	12.2	2.20e-04	0	60	0	382730240	54	5685
2026-01-20 08:00:53.37	24.27	14.60	-41.4	-45.5	12.0	2.55e-04	0	59	0	383778816	54	5758
2026-01-20 08:00:54.37	24.07	14.56	-41.5	-45.6	11.9	2.66e-04	0	59	0	385875968	54	5850
2026-01-20 08:00:55.38	23.87	14.52	-41.5	-45.6	11.9	3.66e-04	0	59	0	387973120	54	5845
2026-01-20 08:00:56.39	23.68	14.49	-41.6	-46.0	11.5	7.06e-04	0	59	0	390070272	54	6088
2026-01-20 08:00:57.40	23.48	14.45	-41.7	-46.3	11.2	9.51e-04	0	59	0	392167424	54	6290
2026-01-20 08:00:58.41	23.28	14.41	-41.9	-46.8	10.6	2.41e-03	0	59	0	393216000	54	6695
2026-01-20 08:00:59.42	23.09	14.37	-42.0	-47.0	10.4	3.42e-03	0	60	0	395313152	54	6832
2026-01-20 08:01:00.43	22.89	14.33	-42.1	-47.3	10.2	4.00e-03	0	60	0	397410304	54	7083
2026-01-20 08:01:01.44	22.70	14.29	-42.1	-47.3	10.2	6.13e-03	0	59	0	399507456	54	7081
2026-01-20 08:01:02.45	22.51	14.26	-42.2	-47.5	9.9	7.86e-03	0	59	0	401604608	55	6837
2026-01-20 08:01:03.46	22.31	14.22	-42.2	-47.5	10.1	7.82e-03	0	59	0	402653184	55	6817
2026-01-20 08:01:04.47	22.12	14.18	-42.0	-47.1	10.3	5.07e-03	0	59	0	404750336	55	6503
2026-01-20 08:01:05.48	21.93	14.14	-42.1	-47.1	10.3	4.84e-03	0	59	0	406847488	55	6532
2026-01-20 08:01:06.49	21.74	14.10	-42.0	-47.0	10.4	4.93e-03	0	59	0	408944640	55	6484
2026-01-20 08:01:07.50	21.55	14.06	-42.0	-46.9	10.5	4.17e-03	0	60	0	411041792	55	6375
2026-01-20 08:01:08.51	21.36	14.02	-42.0	-47.0	10.3	4.12e-03	0	60	0	412090368	55	6492
2026-01-20 08:01:09.52	21.17	13.98	-42.1	-47.1	10.3	5.13e-03	0	59	0	414187520	55	6521
2026-01-20 08:01:10.53	20.98	13.93	-42.0	-47.1	10.3	4.77e-03	0	60	0	416284672	55	6531
2026-01-20 08:01:11.54	20.79	13.89	-42.2	-47.4	9.9	6.11e-03	0	59	0	418381824	55	6747
2026-01-20 08:01:12.55	20.60	13.85	-42.1	-47.4	10.0	6.78e-03	0	59	0	420478976	55	6727
2026-01-20 08:01:13.56	20.41	13.81	-42.1	-47.4	10.0	7.17e-03	0	60	0	421527552	55	6752
2026-01-20 08:01:14.57	20.22	13.77	-42.1	-47.3	10.1	6.79e-03	0	59	0	423624704	55	6655
2026-01-20 08:01:15.58	20.04	13.73	-42.0	-47.0	10.3	4.90e-03	0	59	0	425721856	55	6478
2026-01-20 08:01:16.58	19.85	13.68	-42.0	-47.1	10.2	5.40e-03	0	59	0	427819008	55	6540
2026-01-20 08:01:17.59	19.67	13.64	-41.9	-46.9	10.4	4.17e-03	0	59	0	429916160	55	6372
2026-01-20 08:01:18.60	19.48	13.60	-41.9	-46.8	10.5	4.09e-03	0	59	0	430964736	55	6338
2026-01-20 08:01:19.61	19.30	13.55	-41.8	-46.6	10.7	3.83e-03	0	60	0	433061888	55	6171
2026-01-20 08:01:20.62	19.11	13.51	-41.9	-46.8	10.6	3.80e-03	0	59	0	435159040	55	6277
2026-01-20 08:01:21.63	18.93	13.47	-41.8	-46.6	10.7	3.84e-03	0	59	0	437256192	55	6163
2026-01-20 08:01:22.64	18.75	13.42	-41.8	-46.6	10.7	2.85e-03	0	60	0	439353344	55	6142
2026-01-20 08:01:23.65	18.57	13.38	-41.6	-46.1	11.2	1.93e-03	0	59	0	440401920	55	5830
2026-01-20 08:01:24.65	18.39	13.34	-41.5	-45.9	11.4	1.11e-03	0	59	0	442499072	55	5683
2026-01-20 08:01:25.66	18.21	13.29	-41.6	-46.1	11.2	1.27e-03	0	59	0	444596224	55	5821
2026-01-20 08:01:26.67	18.02	13.25	-41.6	-46.1	11.2	1.45e-03	0	59	0	446693376	55	5836
2026-01-20 08:01:27.68	17.84	13.20	-41.7	-46.3	11.0	1.85e-03	0	60	0	448790528	55	5931
2026-01-20 08:01:28.69	17.66	13.16	-41.8	-46.6	10.7	2.87e-03	0	59	0	450887680	55	6174
2026-01-20 08:01:29.70	17.49	13.11	-41.9	-46.9	10.3	3.86e-03	0	59	0	451936256	55	6406
2026-01-20 08:01:30.71	17.31	13.07	-41.9	-46.9	10.3	4.83e-03	0	60	0	454033408	55	6388
2026-01-20 08:01:31.72	17.13	13.02	-42.0	-47.1	10.2	7.08e-03	0	59	0	456130560	55	6525
2026-01-20 08:01:32.73	16.95	12.98	-42.0	-47.2	10.0	6.91e-03	0	59	0	458227712	55	6612
2026-01-20 08:01:33.74	16.78	12.93	-41.9	-47.0	10.1	6.00e-03	0	59	0	460324864	55	6480
2026-01-20 08:01:34.75	16.60	12.88	-41.8	-46.8	10.5	5.11e-03	0	60	0	461373440	55	6275
2026-01-20 08:01:35.76	16.42	12.84	-41.7	-46.6	10.6	3.62e-03	0	60	0	463470592	55	6173
2026-01-20 08:01:36.77	16.25	12.79	-41.7	-46.5	10.6	4.13e-03	0	60	0	465567744	55	6114
2026-01-20 08:01:37.77	16.08	12.74	-41.7	-46.5	10.6	3.21e-03	0	60	0	467664896	55	6107
2026-01-20 08:01:38.79	15.90	12.70	-41.7	-46.5	10.6	3.89e-03	0	59	0	469762048	55	6117
2026-01-20 08:01:39.80	15.73	12.65	-41.7	-46.6	10.5	2.88e-03	0	59	0	470810624	55	6134
2026-01-20 08:01:40.81	15.55	12.60	-41.8	-47.0	10.2	4.33e-03	0	59	0	472907776	55	6430
2026-01-20 08:01:41.81	15.38	12.56	-41.9	-47.2	9.9	7.50e-03	0	59	0	475004928	55	6571
2026-01-20 08:01:42.82	15.21	12.51	-42.2	-48.0	9.1	1.55e-02	0	60	0	477102080	55	7212
2026-01-20 08:01:43.83	15.04	12.46	-42.3	-48.5	8.5	3.77e-02	0	59	0	479199232	55	7644
2026-01-20 08:01:44.84	14.87	12.41	-42.5	-49.5	7.5	7.22e-02	0	60	0	480247808	55	8617
2026-01-20 08:01:45.85	14.70	12.37	-42.7	-50.1	6.9	1.39e-01	0	60	0	482344960	55	9213
2026-01-20 08:01:46.86	14.53	12.32	-42.7	-50.2	6.8	1.82e-01	0	59	0	484442112	55	9294
2026-01-20 08:01:47.87	14.36	12.27	-42.9	-50.6	6.6	2.06e-01	0	60	0	486539264	56	9191
2026-01-20 08:01:48.88	14.19	12.22	-42.7	-50.1	6.9	1.94e-01	0	60	0	488636416	56	8735
2026-01-20 08:01:49.89	14.03	12.17	-42.6	-49.7	7.3	1.60e-01	0	60	0	489684992	56	8343
2026-01-20 08:01:50.90	13.86	12.12	-43.1	-51.2	6.1	1.71e-01	0	60	0	491782144	56	9942
2026-01-20 08:01:51.91	13.69	12.07	-43.6	-57.0	3.8	3.67e-01	0	59	104	493879296	57	18096
2026-01-20 08:01:52.92	13.53	12.03	-43.2	-53.9	4.4	1.48e+00	0	59	0	493879296	57	12741
2026-01-20 08:01:53.93	13.36	11.98	-42.8	-50.2	6.9	1.39e-01	0	59	0	494927872	57	8294
2026-01-20 08:01:54.94	13.20	11.93	-42.5	-49.3	7.6	1.70e-01	0	59	0	497025024	57	7458
2026-01-20 08:01:55.95	13.03	11.88	-42.4	-48.9	7.9	8.59e-02	0	60	0	499122176	56	7610
2026-01-20 08:01:56.96	12.87	11.83	-42.3	-48.8	8.0	7.64e-02	0	59	0	501219328	56	7518
2026-01-20 08:01:57.97	12.71	11.78	-42.2	-48.5	8.3	6.07e-02	0	60	0	503316480	56	7230
2026-01-20 08:01:58.98	12.54	11.73	-42.1	-48.1	8.6	4.38e-02	0	60	0	505413632	56	6947
2026-01-20 08:01:59.99	12.38	11.68	-42.0	-48.1	8.7	3.49e-02	0	59	0	506462208	56	6890
2026-01-20 08:02:01.00	12.22	11.63	-41.8	-47.9	8.6	3.65e-02	0	60	0	508559360	55	7144
2026-01-20 08:02:02.01	12.06	11.58	-41.7	-47.8	8.6	3.34e-02	0	60	0	510656512	55	7063
2026-01-20 08:02:03.02	11.90	11.53	-41.7	-47.9	8.4	3.90e-02	0	59	0	512753664	55	7153
2026-01-20 08:02:04.03	11.74	11.48	-41.6	-47.9	8.2	5.11e-02	0	60	0	514850816	55	7187
2026-01-20 08:02:05.04	11.58	11.43	-41.6	-47.9	8.2	5.08e-02	0	60	0	515899392	55	7173
2026-01-20 08:02:06.05	11.42	11.38	-41.5	-47.9	8.1	5.35e-02	0	59	0	517996544	55	7143
2026-01-20 08:02:07.05	11.26	11.33	-41.5	-47.9	8.0	6.65e-02	0	60	0	520093696	55	7128
2026-01-20 08:02:08.06	11.11	11.28	-41.6	-48.6	7.3	1.01e-01	0	60	0	522190848	54	8209
2026-01-20 08:02:09.07	10.95	11.23	-41.6	-49.0	6.7	1.45e-01	0	60	0	524288000	54	8659
2026-01-20 08:02:10.09	10.79	11.17	-41.6	-49.5	6.2	2.52e-01	0	60	0	525336576	54	9132
2026-01-20 08:02:11.09	10.64	11.12	-41.6	-50.2	5.6	3.64e-01	0	60	0	527433728	54	9876
2026-01-20 08:02:12.10	10.48	11.07	-41.6	-51.1	5.0	5.24e-01	0	59	0	529530880	54	10910
2026-01-20 08:02:13.11	10.33	11.02	-41.6	-51.7	4.7	8.72e-01	0	60	0	531628032	54	11762
2026-01-20 08:02:14.12	10.17	10.97	-41.8	-53.2	4.1	1.34e+00	0	60	0	532676608	54	14022
2026-01-20 08:02:15.13	10.02	10.92	-40.8	-55.1	3.8	1.49e+00	0	60	104	532676608	53	18420
2026-01-20 08:02:16.14	9.87	10.87	-41.1	-55.5	3.8	1.49e+00	0	60	104	532676608	53	19320
2026-01-20 08:02:17.15	9.71	10.81	-41.8	-55.6	3.8	1.49e+00	0	60	104	532676608	54	18399
2026-01-20 08:02:18.16	9.56	10.76	-41.4	-55.0	3.8	1.49e+00	0	60	104	532676608	54	17252
2026-01-20 08:02:19.17	9.41	10.71	-41.4	-55.0	3.8	1.49e+00	0	60	104	532676608	54	17084
2026-01-20 08:02:20.18	9.26	10.66	-41.4	-55.0	3.8	1.49e+00	0	59	104	532676608	54	17227
2026-01-20 08:02:21.19	9.11	10.61	-41.3	-55.3	3.8	1.49e+00	0	59	104	532676608	54	17822
2026-01-20 08:02:22.20	8.96	10.55	-41.1	-55.5	3.8	1.49e+00	0	60	104	532676608	54	18224
2026-01-20 08:02:23.21	8.81	10.50	-40.3	-54.9	3.8	1.49e+00	0	60	104	532676608	52	19165
2026-01-20 08:02:24.21	8.66	10.45	-40.4	-55.0	3.8	1.49e+00	0	60	104	532676608	52	19357
2026-01-20 08:02:25.22	8.51	10.40	-40.7	-55.4	3.8	1.49e+00	0	60	104	532676608	52	20286
2026-01-20 08:02:26.23	8.37	10.35	-40.9	-55.4	3.8	1.49e+00	0	59	104	532676608	52	20303
2026-01-20 08:02:27.24	8.22	10.29	-40.1	-54.7	3.8	1.49e+00	0	59	104	532676608	52	18642
2026-01-20 08:02:28.25	8.07	10.24	-40.0	-54.6	3.8	1.49e+00	0	60	104	532676608	52	18509
2026-01-20 08:02:29.26	7.93	10.19	-40.2	-54.9	3.8	1.49e+00	0	60	104	532676608	52	19032
2026-01-20 08:02:30.27	7.78	10.14	-40.0	-54.6	3.8	1.49e+00	0	60	104	532676608	52	18472
2026-01-20 08:02:31.28	7.64	10.08	-40.0	-54.6	3.8	1.49e+00	0	60	104	532676608	52	18473
2026-01-20 08:02:32.29	7.49	10.03	-40.0	-54.7	3.8	1.49e+00	0	60	104	532676608	51	19681
2026-01-20 08:02:33.30	7.35	9.98	-40.0	-54.6	3.8	1.49e+00	0	60	104	532676608	51	19521
2026-01-20 08:02:34.31	7.21	9.92	-40.1	-54.7	3.8	1.49e+00	0	60	104	532676608	51	19790
2026-01-20 08:02:35.32	7.06	9.87	-40.5	-55.2	3.8	1.49e+00	0	60	104	532676608	51	20811
2026-01-20 08:02:36.33	6.92	9.82	-40.0	-54.7	3.8	1.49e+00	0	59	104	532676608	51	19625
2026-01-20 08:02:37.34	6.78	9.77	-40.1	-54.8	3.8	1.49e+00	0	60	104	532676608	51	19859
2026-01-20 08:02:38.35	6.64	9.71	-40.0	-54.6	3.8	1.49e+00	0	60	104	532676608	51	19587
2026-01-20 08:02:39.35	6.50	9.66	-40.0	-54.6	3.8	1.49e+00	0	60	104	532676608	51	19545
2026-01-20 08:02:40.36	6.36	9.61	-40.0	-54.6	3.8	1.49e+00	0	60	104	532676608	51	19560
2026-01-20 08:02:41.38	6.22	9.55	-40.0	-54.6	3.8	1.49e+00	0	60	104	532676608	51	19416
2026-01-20 08:02:42.38	6.08	9.50	-40.0	-54.7	3.8	1.49e+00	0	60	104	532676608	51	19615
2026-01-20 08:02:43.39	5.94	9.45	-40.2	-54.9	3.8	1.49e+00	0	60	104	532676608	51	20196
2026-01-20 08:02:44.40	5.80	9.39	-40.0	-54.7	3.8	1.49e+00	0	60	104	532676608	51	19641
2026-01-20 08:02:45.41	5.66	9.34	-40.2	-54.8	3.8	1.49e+00	0	60	104	532676608	51	20026
2026-01-20 08:02:46.42	5.53	9.29	-40.1	-54.8	3.8	1.49e+00	0	60	104	532676608	51	19930
2026-01-20 08:02:47.43	5.39	9.23	-40.0	-54.6	3.8	1.49e+00	0	60	104	532676608	51	19584
2026-01-20 08:02:48.44	5.25	9.18	-40.0	-54.6	3.8	1.49e+00	0	60	104	532676608	51	19521
2026-01-20 08:02:49.45	5.12	9.13	-40.1	-54.8	3.8	1.49e+00	0	60	104	532676608	51	19874
2026-01-20 08:02:50.46	4.98	9.07	-40.0	-54.7	3.8	1.49e+00	0	60	104	532676608	51	19725
2026-01-20 08:02:51.47	4.85	9.02	-39.9	-54.6	3.8	1.49e+00	0	60	104	532676608	51	19572
2026-01-20 08:02:52.48	4.72	8.96	-40.0	-54.6	3.8	1.49e+00	0	60	104	532676608	51	19604
2026-01-20 08:02:53.49	4.58	8.91	-40.0	-54.7	3.8	1.49e+00	0	60	104	532676608	51	19690
2026-01-20 08:02:54.50	4.45	8.86	-40.0	-54.7	3.8	1.49e+00	0	60	104	532676608	51	19717
2026-01-20 08:02:55.51	4.32	8.80	-40.0	-54.6	3.8	1.49e+00	0	60	104	532676608	51	19571
2026-01-20 08:02:56.52	4.18	8.75	-39.9	-54.7	3.8	1.49e+00	0	60	104	532676608	51	19631
2026-01-20 08:02:57.53	4.05	8.69	-40.0	-54.7	3.8	1.49e+00	0	59	104	532676608	51	19729
2026-01-20 08:02:58.54	3.92	8.64	-40.0	-54.7	3.8	1.49e+00	0	60	104	532676608	51	19620
2026-01-20 08:02:59.55	3.79	8.59	-39.9	-54.6	3.8	1.49e+00	0	60	104	532676608	51	19447
2026-01-20 08:03:00.56	3.66	8.53	-39.9	-54.6	3.8	1.49e+00	0	60	104	532676608	51	19504
2026-01-20 08:03:01.57	3.53	8.48	-39.9	-54.7	3.8	1.49e+00	0	60	104	532676608	51	19644
2026-01-20 08:03:02.58	3.40	8.42	-39.9	-54.6	3.8	1.49e+00	0	60	104	532676608	51	19494
2026-01-20 08:03:03.59	3.28	8.37	-39.9	-54.6	3.8	1.49e+00	0	60	104	532676608	51	19522
2026-01-20 08:03:04.60	3.15	8.32	-39.9	-54.5	3.8	1.49e+00	0	60	104	532676608	51	19372
2026-01-20 08:03:05.61	3.02	8.26	-39.8	-54.6	3.8	1.49e+00	0	60	104	532676608	51	19548
2026-01-20 08:03:06.61	2.89	8.21	-39.9	-54.6	3.8	1.49e+00	0	60	104	532676608	51	19506
2026-01-20 08:03:07.62	2.77	8.15	-39.8	-54.6	3.8	1.49e+00	0	60	104	532676608	51	19606
2026-01-20 08:03:08.63	2.64	8.10	-39.9	-54.6	3.8	1.49e+00	0	60	104	532676608	51	19484
2026-01-20 08:03:09.64	2.52	8.05	-40.0	-54.7	3.8	1.49e+00	0	60	104	532676608	51	19714
2026-01-20 08:03:10.65	2.39	7.99	-40.0	-54.8	3.8	1.49e+00	0	60	104	532676608	51	19866
2026-01-20 08:03:11.67	2.26	7.94	-43.2	-57.8	3.8	1.49e+00	0	60	104	532676608	56	21054
2026-01-20 08:03:12.68	2.14	7.88	-44.7	-59.4	3.8	1.49e+00	0	60	104	532676608	60	20225
2026-01-20 08:03:13.69	2.02	7.83	-45.0	-59.7	3.8	1.49e+00	0	60	104	532676608	60	20837
2026-01-20 08:03:14.70	1.89	7.77	-45.1	-59.8	3.8	1.49e+00	0	60	104	532676608	60	21238
2026-01-20 08:03:15.71	1.77	7.72	-45.2	-59.9	3.8	1.49e+00	0	60	104	532676608	60	21395
2026-01-20 08:03:16.72	1.65	7.67	-45.3	-60.0	3.8	1.49e+00	0	60	104	532676608	61	20367
2026-01-20 08:03:17.73	1.53	7.61	-45.3	-60.0	3.8	1.49e+00	0	60	104	532676608	61	20449
2026-01-20 08:03:18.74	1.41	7.56	-45.3	-60.0	3.8	1.49e+00	0	60	104	532676608	61	20416
2026-01-20 08:03:19.75	1.28	7.50	-45.3	-60.0	3.8	1.49e+00	0	60	104	532676608	61	20314
2026-01-20 08:03:20.76	1.16	7.45	-45.3	-59.9	3.8	1.49e+00	0	60	104	532676608	61	20244
2026-01-20 08:03:21.77	1.04	7.39	-45.2	-59.8	3.8	1.49e+00	0	60	104	532676608	61	20057
2026-01-20 08:03:22.78	0.92	7.34	-45.2	-59.8	3.8	1.49e+00	0	60	104	532676608	61	19928
2026-01-20 08:03:23.79	0.81	7.29	-45.2	-59.8	3.8	1.49e+00	0	60	104	532676608	61	19873
2026-01-20 08:03:24.80	0.69	7.23	-45.2	-59.8	3.8	1.49e+00	0	60	104	532676608	61	19859
2026-01-20 08:03:25.81	0.57	7.18	-45.1	-59.7	3.8	1.49e+00	0	60	104	532676608	61	19686
2026-01-20 08:03:26.82	0.45	7.12	-45.1	-59.6	3.8	1.49e+00	0	60	104	532676608	61	19604
2026-01-20 08:03:27.83	0.33	7.07	-45.1	-59.7	3.8	1.49e+00	0	60	104	532676608	61	19623
2026-01-20 08:03:28.84	0.22	7.01	-45.1	-59.7	3.8	1.49e+00	0	60	104	532676608	61	19660
2026-01-20 08:03:29.85	0.10	6.96	-45.1	-59.7	3.8	1.49e+00	0	60	104	532676608	60	20808
2026-01-20 08:03:30.86	359.99	6.91	-45.1	-59.7	3.8	1.49e+00	0	60	104	532676608	60	20777
2026-01-20 08:03:31.87	359.87	6.85	-45.1	-59.7	3.8	1.49e+00	0	60	104	532676608	60	20812
2026-01-20 08:03:32.88	359.76	6.80	-45.1	-59.6	3.8	1.49e+00	0	60	104	532676608	60	20765
2026-01-20 08:03:33.89	359.64	6.74	-45.1	-59.6	3.8	1.49e+00	0	60	104	532676608	60	20700
2026-01-20 08:03:34.90	359.53	6.69	-45.1	-59.6	3.8	1.49e+00	0	60	104	532676608	60	20652
2026-01-20 08:03:35.91	359.41	6.63	-45.1	-59.6	3.8	1.49e+00	0	60	104	532676608	60	20679
2026-01-20 08:03:36.92	359.30	6.58	-45.1	-59.6	3.8	1.49e+00	0	59	104	532676608	60	20668
2026-01-20 08:03:37.93	359.19	6.53	-45.0	-59.6	3.8	1.49e+00	0	60	104	532676608	60	20681
2026-01-20 08:03:38.94	359.07	6.47	-45.0	-59.6	3.8	1.49e+00	0	60	104	532676608	60	20597
2026-01-20 08:03:39.96	358.96	6.42	-45.1	-59.6	3.8	1.49e+00	0	60	104	532676608	60	20599
2026-01-20 08:03:40.97	358.85	6.36	-45.0	-59.6	3.8	1.49e+00	0	60	104	532676608	60	20595
2026-01-20 08:03:41.98	358.74	6.31	-45.1	-59.6	3.8	1.49e+00	0	60	104	532676608	60	20643
2026-01-20 08:03:42.99	358.63	6.25	-45.1	-59.6	3.8	1.49e+00	0	60	104	532676608	60	20649
2026-01-20 08:03:44.00	358.52	6.20	-45.0	-59.6	3.8	1.49e+00	0	60	104	532676608	60	20644
2026-01-20 08:03:45.01	358.41	6.15	-44.9	-59.6	3.8	1.49e+00	0	60	104	532676608	60	20633
2026-01-20 08:03:46.02	358.30	6.09	-45.0	-59.6	3.8	1.49e+00	0	60	104	532676608	60	20615
2026-01-20 08:03:47.03	358.19	6.04	-45.0	-59.6	3.8	1.49e+00	0	60	104	532676608	60	20650
2026-01-20 08:03:48.04	358.08	5.98	-45.1	-59.6	3.8	1.49e+00	0	60	104	532676608	60	20631
2026-01-20 08:03:49.05	357.97	5.93	-45.1	-59.6	3.8	1.49e+00	0	60	104	532676608	60	20673
2026-01-20 08:03:50.06	357.87	5.87	-44.5	-59.6	3.8	1.49e+00	0	60	104	532676608	60	20657
2026-01-20 08:03:51.07	357.76	5.82	-44.9	-59.6	3.8	1.49e+00	0	60	104	532676608	60	20624
2026-01-20 08:03:52.08	357.65	5.77	-45.0	-59.6	3.8	1.49e+00	0	60	104	532676608	60	20588
2026-01-20 08:03:53.09	357.55	5.71	-45.0	-59.6	3.8	1.49e+00	0	60	104	532676608	60	20598
2026-01-20 08:03:54.10	357.44	5.66	-45.1	-59.6	3.8	1.49e+00	0	60	104	532676608	60	20669
2026-01-20 08:03:55.12	357.33	5.60	-45.0	-59.6	3.8	1.49e+00	0	60	104	532676608	60	20610
2026-01-20 08:03:56.13	357.23	5.55	-45.1	-59.6	3.8	1.49e+00	0	60	104	532676608	60	20604
2026-01-20 08:03:57.14	357.12	5.50	-45.0	-59.6	3.8	1.49e+00	0	60	104	532676608	60	20604
2026-01-20 08:03:58.15	357.02	5.44	-45.0	-59.6	3.8	1.49e+00	0	60	104	532676608	60	20628
2026-01-20 08:03:59.16	356.91	5.39	-45.0	-59.6	3.8	1.49e+00	0	60	104	532676608	60	20612
2026-01-20 08:04:00.17	356.81	5.33	-45.0	-59.6	3.8	1.49e+00	0	60	104	532676608	60	20552
2026-01-20 08:04:01.18	356.71	5.28	-45.0	-59.6	3.8	1.49e+00	0	60	104	532676608	60	20646
2026-01-20 08:04:02.19	356.60	5.23	-45.1	-59.6	3.8	1.49e+00	0	60	104	532676608	60	20659
2026-01-20 08:04:03.20	356.50	5.17	-45.0	-59.6	3.8	1.49e+00	0	60	104	532676608	60	20647
2026-01-20 08:04:04.21	356.40	5.12	-45.0	-59.6	3.8	1.49e+00	0	60	104	532676608	60	20591
2026-01-20 08:04:05.22	356.30	5.06	-45.0	-59.6	3.8	1.49e+00	0	60	104	532676608	60	20631
2026-01-20 08:04:06.23	356.20	5.01	-45.0	-59.6	3.8	1.49e+00	0	60	104	532676608	60	20643
2026-01-20 08:04:07.24	356.10	4.96	-45.0	-59.5	3.8	1.49e+00	0	59	104	532676608	60	20502
2026-01-20 08:04:08.25	356.00	4.90	-45.0	-59.6	3.8	1.49e+00	0	60	104	532676608	60	20548
2026-01-20 08:04:09.26	355.90	4.85	-45.0	-59.6	3.8	1.49e+00	0	60	104	532676608	60	20573
2026-01-20 08:04:10.27	355.80	4.80	-45.0	-59.6	3.8	1.49e+00	0	60	104	532676608	60	20541
2026-01-20 08:04:11.28	355.70	4.74	-45.0	-59.5	3.8	1.49e+00	0	60	104	532676608	60	20453
2026-01-20 08:04:12.29	355.60	4.69	-45.0	-59.5	3.8	1.49e+00	0	60	104	532676608	60	20487
2026-01-20 08:04:13.30	355.50	4.64	-45.0	-59.6	3.8	1.49e+00	0	60	104	532676608	60	20539
2026-01-20 08:04:14.31	355.40	4.58	-45.0	-59.5	3.8	1.49e+00	0	60	104	532676608	60	20533
2026-01-20 08:04:15.33	355.30	4.53	-45.0	-59.6	3.8	1.49e+00	0	60	104	532676608	60	20586
2026-01-20 08:04:16.34	355.20	4.47	-45.0	-59.5	3.8	1.49e+00	0	60	104	532676608	60	20525
2026-01-20 08:04:17.35	355.11	4.42	-45.0	-59.5	3.8	1.49e+00	0	60	104	532676608	60	20461
2026-01-20 08:04:18.36	355.01	4.37	-45.0	-59.5	3.8	1.49e+00	0	60	104	532676608	60	20492
2026-01-20 08:04:19.37	354.91	4.31	-45.0	-59.5	3.8	1.49e+00	0	60	104	532676608	60	20513
2026-01-20 08:04:20.38	354.82	4.26	-45.0	-59.5	3.8	1.49e+00	0	60	104	532676608	60	20500
2026-01-20 08:04:21.39	354.72	4.21	-45.0	-59.5	3.8	1.49e+00	0	60	104	532676608	60	20476
2026-01-20 08:04:22.40	354.63	4.15	-45.0	-59.5	3.8	1.49e+00	0	60	104	532676608	60	20535
2026-01-20 08:04:23.41	354.53	4.10	-45.0	-59.5	3.8	1.49e+00	0	60	104	532676608	60	20435
2026-01-20 08:04:24.42	354.44	4.05	-45.0	-59.5	3.8	1.49e+00	0	60	104	532676608	60	20479
2026-01-20 08:04:25.43	354.34	3.99	-45.0	-59.5	3.8	1.49e+00	0	60	104	532676608	60	20457
2026-01-20 08:04:26.45	354.25	3.94	-45.0	-59.6	3.8	1.49e+00	0	60	104	532676608	60	20543
2026-01-20 08:04:27.46	354.16	3.89	-45.0	-59.5	3.8	1.49e+00	0	60	104	532676608	60	20522
2026-01-20 08:04:28.47	354.06	3.83	-45.0	-59.6	3.8	1.49e+00	0	60	104	532676608	60	20566
2026-01-20 08:04:29.48	353.97	3.78	-45.0	-59.5	3.8	1.49e+00	0	60	104	532676608	60	20439
2026-01-20 08:04:30.49	353.88	3.73	-45.0	-59.5	3.8	1.49e+00	0	60	104	532676608	60	20508
2026-01-20 08:04:31.50	353.79	3.67	-45.0	-59.5	3.8	1.49e+00	0	60	104	532676608	60	20482
2026-01-20 08:04:32.51	353.69	3.62	-45.0	-59.5	3.8	1.49e+00	0	60	104	532676608	60	20457
2026-01-20 08:04:33.52	353.60	3.57	-45.0	-59.5	3.8	1.49e+00	0	60	104	532676608	60	20466
2026-01-20 08:04:34.53	353.51	3.52	-45.0	-59.5	3.8	1.49e+00	0	60	104	532676608	60	20502
2026-01-20 08:04:35.54	353.42	3.46	-45.0	-59.5	3.8	1.49e+00	0	60	104	532676608	60	20501
2026-01-20 08:04:36.55	353.33	3.41	-45.0	-59.5	3.8	1.49e+00	0	60	104	532676608	60	20502
2026-01-20 08:04:37.56	353.24	3.36	-45.0	-59.5	3.8	1.49e+00	0	60	104	532676608	60	20466
2026-01-20 08:04:38.57	353.15	3.30	-45.0	-59.5	3.8	1.49e+00	0	60	104	532676608	60	20416
2026-01-20 08:04:39.58	353.06	3.25	-45.0	-59.5	3.8	1.49e+00	0	60	104	532676608	60	20462
2026-01-20 08:04:40.59	352.97	3.20	-44.9	-59.5	3.8	1.49e+00	0	60	104	532676608	60	20404
2026-01-20 08:04:41.60	352.88	3.15	-45.0	-59.5	3.8	1.49e+00	0	60	104	532676608	60	20447
2026-01-20 08:04:42.61	352.80	3.09	-45.0	-59.5	3.8	1.49e+00	0	60	104	532676608	60	20454
2026-01-20 08:04:43.62	352.71	3.04	-45.0	-59.5	3.8	1.49e+00	0	60	104	532676608	60	20471
2026-01-20 08:04:44.63	352.62	2.99	-45.0	-59.5	3.8	1.49e+00	0	60	104	532676608	60	20499
2026-01-20 08:04:45.64	352.53	2.94	-45.0	-59.5	3.8	1.49e+00	0	60	104	532676608	60	20482
2026-01-20 08:04:46.65	352.45	2.88	-45.0	-59.5	3.8	1.49e+00	0	60	104	532676608	60	20475
2026-01-20 08:04:47.66	352.36	2.83	-44.9	-59.5	3.8	1.49e+00	0	60	104	532676608	60	20510
2026-01-20 08:04:48.67	352.27	2.78	-44.9	-59.5	3.8	1.49e+00	0	60	104	532676608	60	20426
2026-01-20 08:04:49.68	352.19	2.73	-44.9	-59.5	3.8	1.49e+00	0	60	104	532676608	60	20397
2026-01-20 08:04:50.69	352.10	2.67	-45.0	-59.5	3.8	1.49e+00	0	60	104	532676608	60	20423
2026-01-20 08:04:51.71	352.01	2.62	-45.0	-59.5	3.8	1.49e+00	0	60	104	532676608	60	20388
2026-01-20 08:04:52.72	351.93	2.57	-45.0	-59.5	3.8	1.49e+00	0	60	104	532676608	60	20415
2026-01-20 08:04:53.73	351.84	2.52	-45.0	-59.5	3.8	1.49e+00	0	60	104	532676608	60	20410
2026-01-20 08:04:54.74	351.76	2.46	-44.9	-59.5	3.8	1.49e+00	0	60	104	532676608	60	20419
2026-01-20 08:04:55.75	351.68	2.41	-44.7	-59.5	3.8	1.49e+00	0	60	104	532676608	60	20391
2026-01-20 08:04:56.76	351.59	2.36	-44.8	-59.5	3.8	1.49e+00	0	60	104	532676608	60	20443
2026-01-20 08:04:57.77	351.51	2.31	-45.0	-59.5	3.8	1.49e+00	0	60	104	532676608	60	20472
2026-01-20 08:04:58.78	351.42	2.25	-45.0	-59.5	3.8	1.49e+00	0	60	104	532676608	60	20442
2026-01-20 08:04:59.79	351.34	2.20	-44.9	-59.5	3.8	1.49e+00	0	60	104	532676608	60	20373
2026-01-20 08:05:00.80	351.26	2.15	-45.0	-59.5	3.8	1.49e+00	0	60	104	532676608	60	20431
2026-01-20 08:05:01.81	351.18	2.10	-45.0	-59.5	3.8	1.49e+00	0	60	104	532676608	60	20383
2026-01-20 08:05:02.82	351.09	2.05	-44.9	-59.5	3.8	1.49e+00	0	60	104	532676608	60	20451
2026-01-20 08:05:03.83	351.01	2.00	-44.9	-59.5	3.8	1.49e+00	0	60	104	532676608	60	20359

#Closed at: 2026-01-20 08:05:04
#Recorded file [532 MB]: D:/lorett/data/31039_260120_105335.dat