passes_logs/2026/01/20/R2.0S_Moscow/R2.0S_Moscow__20260120_093128_SUOMI_NPP_rec.log

#Pass ID: 20260120_093128_SUOMI NPP
#Satellite: SUOMI NPP
#Configuration: NPP
#almurnet v.1.7.20251203
#Start time: 2026-01-20 09:31:29

#Version: 2.2.20231116
#Station: R2.0S_Moscow
#Location: 37.707566 lon 55.798166 lat
#TLE: 1 37849U 11061A   26019.61507914  .00000076  00000+0  57195-4 0  9994
#TLE: 2 37849  98.7817 321.6240 0002347  55.5899 304.5499 14.19526391737369

#Time	Az	El	Level	Level2	SNR	BER	BlckErr	Temp	State	Recorded	gain1	gain2
2026-01-20 09:31:29.78	146.84	2.10	-43.8	-58.4	3.8	1.49e+00	0	51	0	0	58	20094
2026-01-20 09:31:30.79	146.82	2.17	-43.7	-58.3	3.8	1.49e+00	0	51	104	0	58	19962
2026-01-20 09:31:31.80	146.80	2.23	-43.6	-58.3	3.8	1.49e+00	0	51	104	0	58	19963
2026-01-20 09:31:32.82	146.78	2.30	-43.7	-58.3	3.8	1.49e+00	0	51	104	0	58	20021
2026-01-20 09:31:33.83	146.76	2.36	-43.6	-58.3	3.8	1.49e+00	0	51	104	0	58	20054
2026-01-20 09:31:34.84	146.74	2.43	-43.7	-58.3	3.8	1.49e+00	0	51	104	0	58	19979
2026-01-20 09:31:35.85	146.72	2.49	-43.7	-58.3	3.8	1.49e+00	0	51	104	0	58	20024
2026-01-20 09:31:36.86	146.70	2.56	-43.7	-58.4	3.8	1.49e+00	0	51	104	0	58	20093
2026-01-20 09:31:37.87	146.68	2.63	-43.6	-58.3	3.8	1.49e+00	0	51	104	0	57	21157
2026-01-20 09:31:38.88	146.66	2.69	-43.0	-58.3	3.8	1.49e+00	0	51	104	0	57	21121
2026-01-20 09:31:39.89	146.64	2.76	-43.1	-58.0	3.8	1.49e+00	0	52	104	0	56	21568
2026-01-20 09:31:40.90	146.62	2.82	-43.7	-58.3	3.8	1.49e+00	0	51	104	0	57	21144
2026-01-20 09:31:41.91	146.60	2.89	-43.6	-58.4	3.8	1.49e+00	0	52	104	0	58	20088
2026-01-20 09:31:42.92	146.58	2.96	-43.7	-58.3	3.8	1.49e+00	0	52	104	0	58	20057
2026-01-20 09:31:43.93	146.56	3.02	-43.6	-58.3	3.8	1.49e+00	0	52	104	0	57	21160
2026-01-20 09:31:44.94	146.54	3.09	-43.7	-58.4	3.8	1.49e+00	0	52	104	0	58	20087
2026-01-20 09:31:45.95	146.52	3.16	-43.1	-58.3	3.8	1.49e+00	0	52	104	0	58	19918
2026-01-20 09:31:46.96	146.50	3.22	-43.7	-58.3	3.8	1.49e+00	0	52	104	0	58	20008
2026-01-20 09:31:47.97	146.48	3.29	-43.7	-58.3	3.8	1.49e+00	0	52	104	0	58	20014
2026-01-20 09:31:48.98	146.46	3.36	-43.7	-58.3	3.8	1.49e+00	0	52	104	0	57	21126
2026-01-20 09:31:50.00	146.44	3.43	-43.7	-58.3	3.8	1.49e+00	0	52	104	0	57	21155
2026-01-20 09:31:51.01	146.42	3.50	-43.7	-58.3	3.8	1.49e+00	0	52	104	0	58	20031
2026-01-20 09:31:52.02	146.40	3.56	-43.7	-58.3	3.8	1.49e+00	0	52	104	0	58	20010
2026-01-20 09:31:53.03	146.38	3.63	-43.6	-58.3	3.8	1.49e+00	0	53	104	0	58	19944
2026-01-20 09:31:54.04	146.36	3.70	-43.7	-58.4	3.8	1.49e+00	0	52	104	0	58	20093
2026-01-20 09:31:55.05	146.34	3.77	-43.7	-58.3	3.8	1.49e+00	0	53	104	0	58	20005
2026-01-20 09:31:56.06	146.32	3.84	-43.7	-58.3	3.8	1.49e+00	0	53	104	0	58	20050
2026-01-20 09:31:57.07	146.30	3.91	-43.6	-58.3	3.8	1.49e+00	0	53	104	0	57	21145
2026-01-20 09:31:58.08	146.27	3.98	-43.7	-58.3	3.8	1.49e+00	0	53	104	0	57	21143
2026-01-20 09:31:59.09	146.25	4.04	-43.5	-58.3	3.8	1.49e+00	0	53	104	0	57	21158
2026-01-20 09:32:00.10	146.23	4.11	-43.6	-58.3	3.8	1.49e+00	0	53	104	0	57	21113
2026-01-20 09:32:01.11	146.21	4.18	-43.5	-58.2	3.8	1.49e+00	0	53	104	0	57	20947
2026-01-20 09:32:02.12	146.19	4.25	-43.4	-58.2	3.8	1.49e+00	0	53	104	0	57	20882
2026-01-20 09:32:03.13	146.16	4.32	-43.7	-58.2	3.8	1.49e+00	0	53	104	0	57	20777
2026-01-20 09:32:04.14	146.14	4.39	-43.4	-58.1	3.8	1.49e+00	0	53	104	0	57	20627
2026-01-20 09:32:05.15	146.12	4.46	-43.7	-58.0	3.8	1.49e+00	0	53	104	0	57	20531
2026-01-20 09:32:06.16	146.10	4.53	-43.7	-57.9	3.8	1.49e+00	0	53	104	0	57	20270
2026-01-20 09:32:07.17	146.07	4.60	-43.6	-57.8	3.8	1.49e+00	0	53	104	0	57	20040
2026-01-20 09:32:08.18	146.05	4.67	-43.7	-57.6	3.8	1.49e+00	0	53	104	0	57	19573
2026-01-20 09:32:09.19	146.03	4.75	-43.7	-57.5	3.8	1.49e+00	0	53	104	0	57	19250
2026-01-20 09:32:10.20	146.01	4.82	-43.7	-57.4	3.8	1.49e+00	0	53	104	0	57	19031
2026-01-20 09:32:11.21	145.98	4.89	-43.7	-57.3	3.8	1.49e+00	0	53	104	0	57	18788
2026-01-20 09:32:12.22	145.96	4.96	-43.6	-57.3	3.8	1.49e+00	0	54	104	0	57	18945
2026-01-20 09:32:13.23	145.94	5.03	-43.5	-57.6	3.8	1.49e+00	0	54	104	0	57	19444
2026-01-20 09:32:14.24	145.91	5.10	-43.6	-58.0	3.8	1.49e+00	0	54	104	0	57	20386
2026-01-20 09:32:15.25	145.89	5.18	-43.6	-58.1	3.8	1.49e+00	0	54	104	0	57	20755
2026-01-20 09:32:16.26	145.87	5.25	-43.7	-58.1	3.8	1.49e+00	0	54	104	0	57	20689
2026-01-20 09:32:17.27	145.84	5.32	-43.6	-58.0	3.8	1.49e+00	0	54	104	0	57	20476
2026-01-20 09:32:18.29	145.82	5.39	-43.7	-58.1	3.8	1.49e+00	0	54	104	0	57	20554
2026-01-20 09:32:19.29	145.79	5.47	-43.6	-58.1	3.8	1.49e+00	0	54	104	0	57	20548
2026-01-20 09:32:20.31	145.77	5.54	-43.7	-57.8	3.8	1.49e+00	0	54	104	0	57	19958
2026-01-20 09:32:21.32	145.75	5.61	-43.2	-57.4	3.8	1.49e+00	0	54	104	0	57	19090
2026-01-20 09:32:22.33	145.72	5.69	-43.6	-57.4	3.8	1.49e+00	0	54	104	0	57	19109
2026-01-20 09:32:23.33	145.70	5.76	-43.4	-57.3	3.8	1.49e+00	0	54	104	0	57	18833
2026-01-20 09:32:24.34	145.67	5.83	-43.6	-56.6	3.8	1.49e+00	0	54	104	0	57	17382
2026-01-20 09:32:25.36	145.65	5.91	-43.3	-56.2	3.8	1.49e+00	0	54	104	0	57	16615
2026-01-20 09:32:26.37	145.62	5.98	-43.6	-56.2	3.8	1.49e+00	0	54	104	0	57	16691
2026-01-20 09:32:27.38	145.60	6.06	-43.5	-55.7	3.9	1.48e+00	0	54	104	0	57	15617
2026-01-20 09:32:28.39	145.57	6.13	-43.5	-55.3	4.1	1.45e+00	0	54	0	0	57	14936
2026-01-20 09:32:29.40	145.55	6.21	-42.8	-54.8	4.1	1.42e+00	0	54	0	0	57	14192
2026-01-20 09:32:30.41	145.52	6.28	-43.3	-54.8	4.2	1.39e+00	0	54	0	0	57	14176
2026-01-20 09:32:31.42	145.49	6.36	-43.5	-54.7	4.2	1.40e+00	0	54	0	0	57	13895
2026-01-20 09:32:32.43	145.47	6.43	-43.4	-54.3	4.3	1.30e+00	0	55	0	0	57	13265
2026-01-20 09:32:33.44	145.44	6.51	-42.9	-54.2	4.3	1.35e+00	0	55	0	1048576	57	13184
2026-01-20 09:32:34.45	145.42	6.58	-43.4	-54.5	4.3	1.27e+00	0	54	0	2097152	57	13595
2026-01-20 09:32:35.46	145.39	6.66	-43.2	-54.5	4.3	1.37e+00	0	55	0	2097152	57	13719
2026-01-20 09:32:36.47	145.36	6.74	-43.4	-54.8	4.2	1.38e+00	0	55	0	2097152	57	14070
2026-01-20 09:32:37.48	145.34	6.81	-43.5	-55.3	4.1	1.42e+00	0	55	0	2097152	57	15039
2026-01-20 09:32:38.49	145.31	6.89	-43.5	-55.8	3.8	1.47e+00	0	55	104	2097152	57	15924
2026-01-20 09:32:39.50	145.28	6.97	-43.5	-56.2	3.8	1.48e+00	0	55	104	2097152	57	16659
2026-01-20 09:32:40.51	145.26	7.04	-43.6	-57.0	3.8	1.49e+00	0	55	104	2097152	57	18200
2026-01-20 09:32:41.52	145.23	7.12	-43.6	-57.0	3.8	1.49e+00	0	55	104	2097152	57	18197
2026-01-20 09:32:42.53	145.20	7.20	-43.6	-57.3	3.8	1.49e+00	0	55	104	2097152	57	18842
2026-01-20 09:32:43.54	145.17	7.28	-43.6	-56.9	3.8	1.49e+00	0	55	104	2097152	57	18043
2026-01-20 09:32:44.55	145.15	7.36	-43.6	-56.2	3.8	1.49e+00	0	55	104	2097152	57	16640
2026-01-20 09:32:45.56	145.12	7.43	-43.5	-55.1	4.1	1.46e+00	0	55	0	2097152	57	14588
2026-01-20 09:32:46.58	145.09	7.51	-42.9	-53.8	4.5	1.29e+00	0	55	0	2097152	57	12639
2026-01-20 09:32:47.58	145.06	7.59	-42.4	-52.6	5.1	8.16e-01	0	55	0	4194304	57	10917
2026-01-20 09:32:48.60	145.03	7.67	-43.0	-51.3	5.9	4.33e-01	0	55	0	6291456	56	10056
2026-01-20 09:32:49.60	145.01	7.75	-42.8	-50.4	6.6	2.70e-01	0	55	0	8388608	56	9048
2026-01-20 09:32:50.61	144.98	7.83	-42.3	-49.4	7.4	1.42e-01	0	55	0	10485760	55	8495
2026-01-20 09:32:51.62	144.95	7.91	-42.2	-48.5	8.3	7.73e-02	0	56	0	11534336	55	7645
2026-01-20 09:32:52.63	144.92	7.99	-41.9	-47.5	9.3	2.78e-02	0	56	0	13631488	55	6873
2026-01-20 09:32:53.64	144.89	8.07	-44.1	-56.0	3.9	1.07e-01	0	56	104	15728640	58	15234
2026-01-20 09:32:54.65	144.86	8.15	-44.0	-57.2	3.9	1.49e+00	0	55	104	15728640	59	16626
2026-01-20 09:32:55.66	144.83	8.23	-41.9	-47.1	9.8	1.39e-01	0	55	0	15728640	55	6526
2026-01-20 09:32:56.67	144.80	8.31	-43.6	-53.6	5.0	1.03e-01	0	56	0	17825792	56	12976
2026-01-20 09:32:57.68	144.77	8.39	-40.8	-46.6	10.3	1.43e+00	0	55	0	17825792	54	6531
2026-01-20 09:32:58.69	144.74	8.48	-41.7	-47.4	9.3	1.33e-01	0	55	0	19922944	55	6778
2026-01-20 09:32:59.70	144.71	8.56	-41.3	-46.4	10.4	6.06e-03	0	56	0	22020096	54	6380
2026-01-20 09:33:00.71	144.68	8.64	-41.6	-46.5	10.4	4.84e-03	0	56	0	23068672	54	6446
2026-01-20 09:33:01.72	144.65	8.72	-41.6	-46.8	10.0	7.72e-03	0	56	0	25165824	53	7099
2026-01-20 09:33:02.73	144.62	8.81	-41.7	-46.8	10.0	9.60e-03	0	56	0	27262976	54	6652
2026-01-20 09:33:03.74	144.59	8.89	-41.6	-46.6	10.3	6.40e-03	0	56	0	29360128	53	6901
2026-01-20 09:33:04.75	144.56	8.97	-41.7	-46.7	10.2	7.00e-03	0	56	0	31457280	54	6592
2026-01-20 09:33:05.76	144.52	9.05	-41.5	-46.5	10.4	5.32e-03	0	56	0	32505856	53	6807
2026-01-20 09:33:06.77	144.49	9.14	-41.4	-46.5	10.3	4.67e-03	0	56	0	34603008	53	6853
2026-01-20 09:33:07.77	144.46	9.22	-41.5	-46.6	10.4	4.73e-03	0	56	0	36700160	53	6900
2026-01-20 09:33:08.78	144.43	9.31	-41.6	-46.6	10.3	6.25e-03	0	56	0	38797312	53	6933
2026-01-20 09:33:09.79	144.40	9.39	-41.5	-46.5	10.5	5.50e-03	0	56	0	40894464	53	6864
2026-01-20 09:33:10.80	144.36	9.48	-41.6	-46.7	10.2	4.47e-03	0	56	0	41943040	53	7021
2026-01-20 09:33:11.81	144.33	9.56	-41.7	-47.0	10.0	7.21e-03	0	56	0	44040192	54	6809
2026-01-20 09:33:12.82	144.30	9.65	-41.3	-47.0	10.0	7.48e-03	0	56	0	46137344	54	6820
2026-01-20 09:33:13.83	144.27	9.73	-41.7	-47.0	10.0	7.65e-03	0	56	0	48234496	54	6845
2026-01-20 09:33:14.84	144.23	9.82	-42.0	-47.3	9.7	1.17e-02	0	56	0	50331648	54	7047
2026-01-20 09:33:15.85	144.20	9.90	-41.8	-46.9	10.2	7.45e-03	0	56	0	51380224	54	6734
2026-01-20 09:33:16.86	144.16	9.99	-41.8	-46.9	10.0	5.98e-03	0	56	0	53477376	54	6760
2026-01-20 09:33:17.87	144.13	10.08	-42.0	-47.2	9.9	8.53e-03	0	56	0	55574528	54	7001
2026-01-20 09:33:18.87	144.10	10.16	-41.9	-47.0	10.1	8.97e-03	0	56	0	57671680	54	6877
2026-01-20 09:33:19.88	144.06	10.25	-41.8	-46.9	10.3	6.19e-03	0	56	0	59768832	54	6753
2026-01-20 09:33:20.90	144.03	10.34	-41.2	-46.8	9.7	1.02e-02	0	56	0	60817408	53	7116
2026-01-20 09:33:21.90	143.99	10.43	-41.1	-46.8	10.0	6.35e-03	0	56	0	62914560	53	7077
2026-01-20 09:33:22.91	143.96	10.52	-41.8	-46.5	10.8	3.51e-03	0	56	0	65011712	54	6449
2026-01-20 09:33:23.92	143.92	10.60	-41.7	-46.5	10.7	3.83e-03	0	56	0	67108864	54	6424
2026-01-20 09:33:24.93	143.89	10.69	-41.6	-46.3	10.9	2.78e-03	0	56	0	69206016	54	6308
2026-01-20 09:33:25.94	143.85	10.78	-41.5	-45.9	11.3	1.92e-03	0	56	0	70254592	53	6390
2026-01-20 09:33:26.95	143.82	10.87	-41.5	-45.7	11.6	8.86e-04	0	57	0	72351744	53	6220
2026-01-20 09:33:27.96	143.78	10.96	-41.4	-45.6	11.7	6.40e-04	0	56	0	74448896	53	6151
2026-01-20 09:33:28.97	143.74	11.05	-41.4	-45.5	11.9	5.23e-04	0	56	0	76546048	53	6079
2026-01-20 09:33:29.98	143.71	11.14	-40.6	-45.1	11.8	4.84e-04	0	57	0	78643200	52	6190
2026-01-20 09:33:30.99	143.67	11.23	-41.3	-45.2	12.2	6.63e-04	0	56	0	79691776	53	5916
2026-01-20 09:33:32.00	143.63	11.33	-41.2	-45.2	12.0	7.35e-04	0	56	0	81788928	53	5917
2026-01-20 09:33:33.01	143.59	11.42	-41.2	-45.2	12.2	2.40e-04	0	57	0	83886080	53	5895
2026-01-20 09:33:34.02	143.56	11.51	-41.3	-45.2	12.2	2.68e-04	0	57	0	85983232	53	5863
2026-01-20 09:33:35.03	143.52	11.60	-41.4	-45.4	12.0	8.14e-04	0	57	0	88080384	53	6045
2026-01-20 09:33:36.03	143.48	11.69	-41.2	-45.2	11.9	1.12e-03	0	57	0	90177536	52	6239
2026-01-20 09:33:37.04	143.44	11.79	-41.3	-45.2	12.2	1.30e-03	0	57	0	91226112	53	5881
2026-01-20 09:33:38.05	143.40	11.88	-41.4	-45.3	12.1	9.89e-04	0	57	0	93323264	53	5983
2026-01-20 09:33:39.06	143.37	11.97	-41.4	-45.4	12.0	9.80e-04	0	57	0	95420416	53	6030
2026-01-20 09:33:40.07	143.33	12.07	-41.4	-45.5	12.1	5.84e-04	0	57	0	97517568	53	6066
2026-01-20 09:33:41.08	143.29	12.16	-41.5	-45.6	11.8	5.07e-04	0	57	0	98566144	53	6185
2026-01-20 09:33:42.09	143.25	12.26	-41.6	-45.7	11.9	1.11e-03	0	57	0	100663296	53	6230
2026-01-20 09:33:43.10	143.21	12.35	-41.6	-45.7	11.9	6.14e-04	0	57	0	102760448	53	6263
2026-01-20 09:33:44.11	143.17	12.45	-41.5	-45.9	11.7	1.28e-03	0	57	0	104857600	53	6360
2026-01-20 09:33:45.12	143.13	12.54	-41.5	-45.9	11.6	7.90e-04	0	57	0	106954752	54	6060
2026-01-20 09:33:46.13	143.08	12.64	-41.7	-45.8	11.8	9.23e-04	0	57	0	108003328	54	5940
2026-01-20 09:33:47.14	143.04	12.73	-41.4	-45.8	11.7	6.77e-04	0	57	0	110100480	53	6319
2026-01-20 09:33:48.15	143.00	12.83	-41.5	-45.8	11.6	8.46e-04	0	57	0	112197632	53	6322
2026-01-20 09:33:49.16	142.96	12.93	-41.5	-45.6	11.9	1.97e-03	0	57	0	114294784	53	6177
2026-01-20 09:33:50.16	142.92	13.02	-41.6	-45.6	12.1	4.59e-04	0	57	0	116391936	53	6136
2026-01-20 09:33:51.18	142.88	13.12	-41.5	-45.4	12.3	1.83e-04	0	57	0	118489088	53	6019
2026-01-20 09:33:52.19	142.83	13.22	-40.7	-45.0	12.2	3.45e-04	0	57	0	119537664	53	5742
2026-01-20 09:33:53.20	142.79	13.32	-41.2	-44.9	12.6	3.98e-04	0	57	0	121634816	53	5680
2026-01-20 09:33:54.21	142.75	13.42	-40.8	-44.7	12.7	7.70e-04	0	57	0	123731968	53	5534
2026-01-20 09:33:55.22	142.70	13.52	-41.1	-44.4	13.3	1.13e-03	0	57	0	125829120	52	5705
2026-01-20 09:33:56.23	142.66	13.62	-41.0	-44.3	13.3	1.31e-04	0	57	0	127926272	52	5614
2026-01-20 09:33:57.24	142.62	13.72	-40.9	-44.2	13.5	4.15e-04	0	57	0	128974848	52	5587
2026-01-20 09:33:58.25	142.57	13.82	-41.0	-44.3	13.4	1.88e-04	0	57	0	131072000	52	5638
2026-01-20 09:33:59.26	142.53	13.92	-41.1	-44.4	13.3	9.99e-05	0	57	0	133169152	52	5721
2026-01-20 09:34:00.27	142.48	14.02	-41.2	-44.7	13.1	9.92e-04	0	57	0	135266304	52	5858
2026-01-20 09:34:01.27	142.44	14.12	-41.2	-45.1	12.6	9.68e-05	0	57	0	137363456	53	5803
2026-01-20 09:34:02.28	142.39	14.23	-41.5	-45.3	12.4	1.38e-03	0	58	0	138412032	53	5949
2026-01-20 09:34:03.29	142.34	14.33	-41.6	-45.7	12.1	7.64e-03	0	57	0	140509184	53	6216
2026-01-20 09:34:04.30	142.30	14.43	-41.8	-46.2	11.5	5.69e-03	0	57	0	142606336	54	6239
2026-01-20 09:34:05.31	142.25	14.54	-41.2	-46.2	11.2	1.72e-03	0	57	0	144703488	54	6252
2026-01-20 09:34:06.32	142.20	14.64	-41.9	-46.4	11.3	5.29e-03	0	57	0	146800640	54	6356
2026-01-20 09:34:07.33	142.16	14.74	-41.8	-46.1	11.7	5.99e-03	0	57	0	147849216	54	6177
2026-01-20 09:34:08.34	142.11	14.85	-41.7	-45.8	12.0	4.38e-03	0	57	0	149946368	54	5948
2026-01-20 09:34:09.35	142.06	14.95	-41.5	-45.2	12.5	2.24e-03	0	58	0	152043520	53	5888
2026-01-20 09:34:10.36	142.01	15.06	-40.8	-44.7	12.9	6.53e-03	0	57	0	154140672	53	5549
2026-01-20 09:34:11.37	141.96	15.17	-40.6	-44.4	13.5	3.40e-04	0	57	0	156237824	52	5679
2026-01-20 09:34:12.38	141.91	15.27	-40.2	-44.0	13.6	8.38e-04	0	57	0	157286400	52	5410
2026-01-20 09:34:13.39	141.86	15.38	-40.8	-43.8	14.1	1.30e-03	0	57	0	159383552	52	5310
2026-01-20 09:34:14.40	141.81	15.49	-40.8	-43.9	14.0	1.65e-04	0	58	0	161480704	52	5356
2026-01-20 09:34:15.41	141.76	15.59	-40.8	-43.9	14.0	3.40e-04	0	57	0	163577856	52	5351
2026-01-20 09:34:16.42	141.71	15.70	-40.9	-44.1	12.9	7.93e-04	0	57	0	165675008	52	5491
2026-01-20 09:34:17.42	141.66	15.81	-40.8	-44.5	13.1	4.80e-05	0	57	0	166723584	52	5736
2026-01-20 09:34:18.44	141.61	15.92	-41.3	-45.0	12.8	4.36e-03	0	58	0	168820736	53	5724
2026-01-20 09:34:19.44	141.56	16.03	-41.4	-45.6	12.1	7.68e-03	0	57	0	170917888	53	6193
2026-01-20 09:34:20.45	141.51	16.14	-40.5	-45.9	11.4	2.80e-03	0	58	0	173015040	54	6022
2026-01-20 09:34:21.46	141.45	16.25	-41.8	-45.8	11.7	1.00e-03	0	57	0	175112192	54	5990
2026-01-20 09:34:22.47	141.40	16.36	-41.8	-45.8	11.8	5.53e-03	0	58	0	176160768	54	5971
2026-01-20 09:34:23.48	141.35	16.47	-41.6	-45.3	12.6	7.36e-04	0	58	0	178257920	53	5962
2026-01-20 09:34:24.49	141.29	16.59	-41.3	-44.7	13.2	2.07e-03	0	57	0	180355072	53	5563
2026-01-20 09:34:25.50	141.24	16.70	-41.1	-44.4	13.6	3.78e-04	0	58	0	182452224	52	5660
2026-01-20 09:34:26.51	141.18	16.81	-40.7	-43.8	13.9	4.37e-03	0	58	0	184549376	51	5644
2026-01-20 09:34:27.52	141.13	16.93	-40.8	-43.8	14.1	1.90e-03	0	58	0	186646528	52	5315
2026-01-20 09:34:28.53	141.07	17.04	-40.8	-43.8	14.2	8.93e-04	0	58	0	187695104	52	5311
2026-01-20 09:34:29.54	141.02	17.15	-40.9	-43.9	14.1	7.99e-04	0	57	0	189792256	52	5382
2026-01-20 09:34:30.55	140.96	17.27	-40.9	-44.3	13.3	5.73e-04	0	58	0	191889408	52	5619
2026-01-20 09:34:31.56	140.90	17.38	-41.3	-44.8	13.3	1.65e-03	0	58	0	193986560	53	5600
2026-01-20 09:34:32.56	140.85	17.50	-41.0	-45.5	12.3	1.55e-03	0	58	0	196083712	53	6083
2026-01-20 09:34:33.58	140.79	17.62	-41.8	-45.8	12.1	2.36e-03	0	58	0	197132288	54	5972
2026-01-20 09:34:34.59	140.73	17.73	-41.9	-45.9	11.9	2.72e-03	0	58	0	199229440	54	6050
2026-01-20 09:34:35.60	140.67	17.85	-42.2	-46.5	11.4	4.35e-03	0	58	0	201326592	54	6490
2026-01-20 09:34:36.60	140.61	17.97	-42.0	-46.2	11.7	1.67e-03	0	58	0	203423744	54	6203
2026-01-20 09:34:37.61	140.55	18.09	-41.8	-45.7	12.3	1.60e-03	0	58	0	205520896	54	5873
2026-01-20 09:34:38.62	140.49	18.21	-41.6	-45.1	12.8	1.32e-03	0	58	0	206569472	53	5855
2026-01-20 09:34:39.63	140.43	18.33	-41.3	-44.6	13.4	8.62e-05	0	58	0	208666624	53	5526
2026-01-20 09:34:40.64	140.37	18.45	-41.2	-44.4	13.7	4.73e-05	0	58	0	210763776	53	5362
2026-01-20 09:34:41.65	140.31	18.57	-41.2	-44.6	13.4	3.17e-04	0	58	0	212860928	53	5475
2026-01-20 09:34:42.66	140.24	18.69	-41.1	-44.4	13.7	4.90e-04	0	58	0	214958080	53	5353
2026-01-20 09:34:43.67	140.18	18.81	-41.4	-44.9	13.1	6.93e-04	0	58	0	216006656	53	5668
2026-01-20 09:34:44.68	140.12	18.94	-41.6	-45.2	12.8	1.98e-04	0	58	0	218103808	53	5902
2026-01-20 09:34:45.69	140.05	19.06	-41.8	-45.7	12.3	2.63e-04	0	58	0	220200960	54	5921
2026-01-20 09:34:46.70	139.99	19.18	-42.0	-46.0	12.0	7.74e-04	0	58	0	222298112	54	6105
2026-01-20 09:34:47.71	139.92	19.31	-41.9	-45.9	12.2	2.01e-03	0	58	0	224395264	54	6019
2026-01-20 09:34:48.71	139.86	19.43	-41.8	-46.0	11.9	5.46e-04	0	58	0	225443840	54	6102
2026-01-20 09:34:49.72	139.79	19.56	-41.8	-45.6	12.6	1.90e-04	0	58	0	227540992	54	5790
2026-01-20 09:34:50.73	139.72	19.68	-41.5	-45.1	13.1	6.40e-05	0	58	0	229638144	54	5491
2026-01-20 09:34:51.74	139.66	19.81	-41.5	-45.1	13.0	1.37e-04	0	58	0	231735296	54	5467
2026-01-20 09:34:52.75	139.59	19.94	-41.3	-44.6	13.5	1.36e-04	0	58	0	233832448	53	5510
2026-01-20 09:34:53.76	139.52	20.07	-41.2	-44.6	13.5	2.74e-05	0	58	0	234881024	53	5481
2026-01-20 09:34:54.77	139.45	20.19	-41.4	-44.9	13.2	2.36e-05	0	58	0	236978176	53	5670
2026-01-20 09:34:55.78	139.38	20.32	-41.5	-44.9	13.2	5.11e-05	0	58	0	239075328	53	5704
2026-01-20 09:34:56.79	139.31	20.45	-41.9	-45.8	12.4	8.54e-05	0	58	0	241172480	54	5954
2026-01-20 09:34:57.80	139.24	20.58	-42.0	-46.1	12.1	2.08e-04	0	58	0	243269632	54	6138
2026-01-20 09:34:58.81	139.17	20.72	-42.0	-46.1	12.0	2.08e-04	0	58	0	244318208	54	6137
2026-01-20 09:34:59.82	139.10	20.85	-42.0	-46.0	12.2	2.31e-04	0	58	0	246415360	54	6095
2026-01-20 09:35:00.83	139.02	20.98	-41.8	-45.5	12.7	1.23e-04	0	58	0	248512512	54	5733
2026-01-20 09:35:01.84	138.95	21.11	-41.5	-44.9	13.3	3.12e-05	0	58	0	250609664	54	5344
2026-01-20 09:35:02.85	138.88	21.25	-41.2	-44.3	13.8	6.10e-06	0	58	0	252706816	54	5036
2026-01-20 09:35:03.86	138.80	21.38	-41.1	-44.0	14.2	6.10e-06	0	58	0	254803968	54	4867
2026-01-20 09:35:04.87	138.73	21.52	-41.1	-44.3	13.9	2.20e-06	0	58	0	255852544	54	5018
2026-01-20 09:35:05.88	138.65	21.65	-41.3	-44.6	13.6	6.10e-06	0	58	0	257949696	54	5184
2026-01-20 09:35:06.89	138.57	21.79	-41.6	-45.1	13.1	1.06e-05	0	58	0	260046848	54	5500
2026-01-20 09:35:07.90	138.49	21.93	-41.8	-45.5	12.7	4.95e-05	0	58	0	262144000	54	5736
2026-01-20 09:35:08.91	138.42	22.06	-42.0	-45.9	12.3	1.49e-04	0	58	0	264241152	54	6037
2026-01-20 09:35:09.92	138.34	22.20	-42.2	-46.4	11.8	2.60e-04	0	58	0	265289728	55	6013
2026-01-20 09:35:10.93	138.26	22.34	-42.2	-46.3	11.9	5.77e-04	0	58	0	267386880	55	5971
2026-01-20 09:35:11.94	138.18	22.48	-41.8	-45.4	12.9	1.31e-04	0	59	0	269484032	55	5352
2026-01-20 09:35:12.95	138.10	22.62	-41.8	-45.5	12.7	9.00e-05	0	58	0	271581184	55	5450
2026-01-20 09:35:13.96	138.01	22.76	-41.8	-45.5	12.7	8.85e-05	0	58	0	273678336	55	5430
2026-01-20 09:35:14.97	137.93	22.90	-41.7	-45.3	12.9	2.67e-05	0	58	0	274726912	55	5305
2026-01-20 09:35:15.97	137.85	23.05	-41.8	-45.4	12.8	6.17e-05	0	58	0	276824064	55	5378
2026-01-20 09:35:16.99	137.76	23.19	-42.1	-46.0	12.2	1.34e-04	0	59	0	278921216	55	5769
2026-01-20 09:35:18.00	137.68	23.34	-42.3	-46.4	11.8	4.78e-04	0	58	0	281018368	55	6031
2026-01-20 09:35:19.00	137.59	23.48	-42.4	-46.8	11.4	6.29e-04	0	59	0	283115520	55	6290
2026-01-20 09:35:20.01	137.51	23.62	-42.4	-46.7	11.5	9.34e-04	0	58	0	284164096	55	6246
2026-01-20 09:35:21.02	137.42	23.77	-42.3	-46.6	11.6	1.29e-03	0	58	0	286261248	55	6143
2026-01-20 09:35:22.03	137.33	23.92	-42.2	-46.2	12.0	4.68e-04	0	58	0	288358400	55	5901
2026-01-20 09:35:23.04	137.24	24.07	-42.1	-45.9	12.3	1.56e-04	0	58	0	290455552	55	5692
2026-01-20 09:35:24.05	137.15	24.21	-42.0	-45.8	12.5	1.27e-04	0	58	0	292552704	55	5625
2026-01-20 09:35:25.06	137.06	24.36	-42.0	-45.7	12.5	1.55e-04	0	59	0	293601280	55	5554
2026-01-20 09:35:26.07	136.97	24.51	-42.1	-46.0	12.2	1.93e-04	0	58	0	295698432	55	5788
2026-01-20 09:35:27.08	136.87	24.67	-42.3	-46.5	11.8	3.63e-04	0	58	0	297795584	55	6083
2026-01-20 09:35:28.09	136.78	24.82	-42.5	-46.8	11.5	5.40e-04	0	58	0	299892736	55	6307
2026-01-20 09:35:29.10	136.69	24.97	-42.6	-47.2	11.1	1.44e-03	0	58	0	301989888	55	6583
2026-01-20 09:35:30.11	136.59	25.12	-42.7	-47.3	11.0	1.80e-03	0	59	0	303038464	55	6650
2026-01-20 09:35:31.12	136.49	25.28	-42.6	-47.2	11.1	1.48e-03	0	59	0	305135616	55	6584
2026-01-20 09:35:32.13	136.39	25.43	-42.5	-46.8	11.5	1.06e-03	0	58	0	307232768	55	6314
2026-01-20 09:35:33.14	136.30	25.59	-42.1	-45.9	12.3	5.35e-04	0	58	0	309329920	55	5717
2026-01-20 09:35:34.14	136.20	25.74	-42.1	-45.9	12.4	2.70e-04	0	58	0	311427072	55	5688
2026-01-20 09:35:35.15	136.10	25.90	-42.2	-46.2	12.1	2.61e-04	0	59	0	312475648	55	5916
2026-01-20 09:35:36.16	136.00	26.06	-42.3	-46.3	12.1	2.12e-04	0	59	0	314572800	55	5954
2026-01-20 09:35:37.17	135.89	26.22	-42.4	-46.5	11.8	2.92e-04	0	59	0	316669952	55	6095
2026-01-20 09:35:38.18	135.79	26.38	-42.5	-46.8	11.5	8.60e-04	0	58	0	318767104	55	6297
2026-01-20 09:35:39.19	135.68	26.54	-42.6	-47.1	11.1	1.17e-03	0	58	0	320864256	55	6554
2026-01-20 09:35:40.20	135.58	26.70	-42.6	-46.9	11.4	9.08e-04	0	59	0	322961408	55	6414
2026-01-20 09:35:41.21	135.47	26.86	-42.5	-46.7	11.6	1.12e-03	0	59	0	324009984	55	6236
2026-01-20 09:35:42.22	135.36	27.03	-42.6	-46.9	11.4	1.53e-03	0	59	0	326107136	55	6419
2026-01-20 09:35:43.23	135.25	27.19	-42.6	-46.9	11.4	1.03e-03	0	59	0	328204288	55	6382
2026-01-20 09:35:44.24	135.14	27.36	-42.7	-47.2	11.1	9.63e-04	0	59	0	330301440	55	6588
2026-01-20 09:35:45.25	135.03	27.52	-42.9	-47.4	11.0	1.55e-03	0	59	0	332398592	56	6412
2026-01-20 09:35:46.26	134.92	27.69	-42.8	-47.3	11.2	2.14e-03	0	59	0	333447168	56	6320
2026-01-20 09:35:47.26	134.80	27.86	-42.9	-47.4	11.1	1.14e-03	0	59	0	335544320	56	6366
2026-01-20 09:35:48.28	134.69	28.03	-42.8	-47.3	11.2	1.53e-03	0	59	0	337641472	56	6317
2026-01-20 09:35:49.28	134.57	28.19	-42.7	-47.0	11.6	1.11e-03	0	59	0	339738624	56	6077
2026-01-20 09:35:50.29	134.46	28.36	-42.8	-47.2	11.3	1.20e-03	0	59	0	341835776	56	6219
2026-01-20 09:35:51.30	134.34	28.54	-42.8	-47.3	11.2	1.09e-03	0	59	0	342884352	56	6290
2026-01-20 09:35:52.31	134.22	28.71	-43.1	-47.9	10.6	1.12e-03	0	59	0	344981504	56	6738
2026-01-20 09:35:53.32	134.09	28.88	-43.2	-48.3	10.2	3.91e-03	0	59	0	347078656	57	6671
2026-01-20 09:35:54.33	133.97	29.06	-43.2	-48.1	10.3	9.65e-03	0	59	0	349175808	57	6519
2026-01-20 09:35:55.34	133.85	29.23	-43.5	-49.0	9.4	1.08e-02	0	59	0	351272960	57	7224
2026-01-20 09:35:56.35	133.72	29.41	-43.4	-48.7	9.7	1.12e-02	0	59	0	352321536	57	7001
2026-01-20 09:35:57.36	133.59	29.58	-43.2	-48.3	10.2	4.55e-03	0	59	0	354418688	57	6660
2026-01-20 09:35:58.37	133.46	29.76	-43.1	-47.9	10.6	4.69e-03	0	59	0	356515840	57	6355
2026-01-20 09:35:59.38	133.33	29.94	-43.0	-47.7	10.8	2.78e-03	0	59	0	358612992	57	6241
2026-01-20 09:36:00.39	133.20	30.12	-43.0	-47.6	10.9	2.46e-03	0	59	0	360710144	57	6173
2026-01-20 09:36:01.40	133.07	30.30	-43.0	-47.6	10.9	2.05e-03	0	59	0	361758720	57	6197
2026-01-20 09:36:02.41	132.93	30.48	-42.9	-47.3	11.2	2.53e-03	0	59	0	363855872	57	5946
2026-01-20 09:36:03.42	132.80	30.67	-43.1	-47.9	10.5	2.55e-03	0	59	0	365953024	57	6348
2026-01-20 09:36:04.43	132.66	30.85	-43.1	-47.8	10.7	3.25e-03	0	59	0	368050176	57	6289
2026-01-20 09:36:05.44	132.52	31.03	-42.9	-47.4	11.1	1.11e-03	0	59	0	370147328	57	6053
2026-01-20 09:36:06.45	132.38	31.22	-42.9	-47.4	11.1	1.31e-03	0	59	0	371195904	57	6021
2026-01-20 09:36:07.46	132.24	31.41	-42.9	-47.3	11.3	1.39e-03	0	59	0	373293056	57	5936
2026-01-20 09:36:08.47	132.09	31.59	-42.9	-47.4	11.2	8.60e-04	0	59	0	375390208	57	6001
2026-01-20 09:36:09.48	131.95	31.78	-43.0	-47.6	11.0	2.32e-03	0	59	0	377487360	57	6169
2026-01-20 09:36:10.49	131.80	31.97	-42.8	-47.2	11.4	2.44e-03	0	59	0	379584512	57	5896
2026-01-20 09:36:11.49	131.65	32.16	-43.0	-47.7	10.9	2.26e-03	0	59	0	380633088	57	6209
2026-01-20 09:36:12.50	131.50	32.35	-42.9	-47.2	11.4	1.71e-03	0	59	0	382730240	57	5878
2026-01-20 09:36:13.51	131.35	32.55	-42.9	-47.2	11.3	4.80e-04	0	59	0	384827392	57	5903
2026-01-20 09:36:14.52	131.19	32.74	-42.9	-47.4	11.2	1.16e-03	0	59	0	386924544	57	6009
2026-01-20 09:36:15.53	131.03	32.93	-43.2	-48.1	10.4	1.97e-03	0	59	0	389021696	57	6554
2026-01-20 09:36:16.54	130.87	33.13	-43.3	-48.3	10.3	4.75e-03	0	59	0	391118848	57	6648
2026-01-20 09:36:17.55	130.71	33.33	-43.5	-48.9	9.5	1.26e-02	0	59	0	392167424	57	7198
2026-01-20 09:36:18.56	130.55	33.52	-43.4	-48.5	10.1	2.18e-02	0	59	0	394264576	58	6437
2026-01-20 09:36:19.57	130.39	33.72	-43.4	-48.4	10.1	1.28e-02	0	59	0	396361728	58	6409
2026-01-20 09:36:20.58	130.22	33.92	-43.2	-48.1	10.4	4.26e-03	0	59	0	398458880	58	6161
2026-01-20 09:36:21.59	130.05	34.12	-43.2	-47.9	10.7	2.18e-03	0	59	0	400556032	58	5999
2026-01-20 09:36:22.60	129.88	34.32	-43.2	-48.0	10.6	2.91e-03	0	59	0	401604608	58	6066
2026-01-20 09:36:23.61	129.70	34.53	-43.4	-48.5	9.9	5.54e-03	0	59	0	403701760	58	6460
2026-01-20 09:36:24.62	129.53	34.73	-43.7	-49.3	9.2	1.21e-02	0	59	0	405798912	58	7063
2026-01-20 09:36:25.63	129.35	34.94	-43.7	-49.4	9.1	2.10e-02	0	59	0	407896064	58	7202
2026-01-20 09:36:26.64	129.17	35.14	-43.6	-49.2	9.4	2.29e-02	0	59	0	409993216	58	6970
2026-01-20 09:36:27.65	128.99	35.35	-43.6	-48.9	9.6	2.14e-02	0	59	0	411041792	58	6778
2026-01-20 09:36:28.66	128.80	35.56	-43.4	-48.5	10.0	1.08e-02	0	59	0	413138944	58	6488
2026-01-20 09:36:29.66	128.62	35.76	-43.5	-48.9	9.6	1.02e-02	0	59	0	415236096	58	6770
2026-01-20 09:36:30.67	128.43	35.97	-43.6	-49.2	9.4	1.32e-02	0	59	0	417333248	58	6990
2026-01-20 09:36:31.68	128.24	36.18	-43.9	-49.9	8.6	2.39e-02	0	59	0	419430400	58	7594
2026-01-20 09:36:32.69	128.04	36.40	-44.1	-50.8	7.7	7.40e-02	0	59	0	420478976	58	8390
2026-01-20 09:36:33.70	127.85	36.61	-44.2	-51.2	7.3	1.03e-01	0	59	0	422576128	58	8861
2026-01-20 09:36:34.71	127.65	36.82	-44.2	-51.1	7.4	1.08e-01	0	59	0	424673280	59	8241
2026-01-20 09:36:35.72	127.44	37.04	-44.3	-51.5	7.2	1.42e-01	0	59	0	426770432	59	8565
2026-01-20 09:36:36.73	127.24	37.25	-44.2	-51.2	7.4	1.46e-01	0	59	0	428867584	59	8305
2026-01-20 09:36:37.74	127.03	37.47	-44.0	-50.4	8.1	8.43e-02	0	59	0	429916160	59	7558
2026-01-20 09:36:38.75	126.82	37.69	-43.7	-49.3	9.2	3.53e-02	0	59	0	432013312	59	6654
2026-01-20 09:36:39.76	126.61	37.91	-43.6	-48.9	9.7	1.26e-02	0	59	0	434110464	59	6385
2026-01-20 09:36:40.77	126.39	38.13	-43.5	-48.8	9.9	8.34e-03	0	59	0	436207616	58	6688
2026-01-20 09:36:41.78	126.17	38.35	-43.5	-48.8	9.8	8.44e-03	0	59	0	438304768	58	6662
2026-01-20 09:36:42.79	125.95	38.57	-43.3	-48.3	10.3	1.36e-02	0	59	0	439353344	58	6279
2026-01-20 09:36:43.80	125.72	38.79	-43.5	-48.6	10.0	8.54e-03	0	59	0	441450496	58	6526
2026-01-20 09:36:44.80	125.49	39.01	-43.5	-48.7	9.9	8.36e-03	0	59	0	443547648	58	6623
2026-01-20 09:36:45.82	125.26	39.24	-43.6	-49.0	9.6	1.93e-02	0	59	0	445644800	58	6876
2026-01-20 09:36:46.82	125.03	39.46	-43.7	-49.4	9.2	1.81e-02	0	59	0	447741952	58	7153
2026-01-20 09:36:47.83	124.79	39.69	-44.0	-50.4	8.1	2.65e-02	0	59	0	448790528	58	8047
2026-01-20 09:36:48.84	124.55	39.91	-43.8	-49.8	8.8	3.02e-02	0	59	0	450887680	58	7493
2026-01-20 09:36:49.85	124.30	40.14	-43.9	-49.9	8.5	3.72e-02	0	59	0	452984832	58	7611
2026-01-20 09:36:50.86	124.05	40.37	-43.9	-49.9	8.7	5.02e-02	0	59	0	455081984	58	7605
2026-01-20 09:36:51.87	123.80	40.60	-44.2	-51.2	7.4	5.78e-02	0	59	0	457179136	59	8333
2026-01-20 09:36:52.88	123.54	40.83	-44.1	-50.8	7.7	1.03e-01	0	59	0	458227712	59	7972
2026-01-20 09:36:53.89	123.28	41.06	-44.2	-50.9	7.7	7.39e-02	0	59	0	460324864	59	7998
2026-01-20 09:36:54.90	123.02	41.29	-44.2	-51.0	7.6	7.78e-02	0	59	0	462422016	59	8122
2026-01-20 09:36:55.91	122.75	41.53	-44.1	-50.5	8.0	8.01e-02	0	59	0	464519168	59	7710
2026-01-20 09:36:56.92	122.48	41.76	-44.3	-51.4	7.1	1.40e-01	0	59	0	466616320	59	8559
2026-01-20 09:36:57.93	122.21	42.00	-44.3	-51.4	7.1	1.65e-01	0	59	0	467664896	59	8551
2026-01-20 09:36:58.94	121.93	42.23	-44.2	-50.9	7.6	7.92e-02	0	59	0	469762048	59	8068
2026-01-20 09:36:59.95	121.64	42.47	-44.1	-50.4	8.1	6.40e-02	0	59	0	471859200	59	7629
2026-01-20 09:37:00.96	121.36	42.70	-44.1	-50.5	7.9	6.40e-02	0	59	0	473956352	59	7708
2026-01-20 09:37:01.96	121.07	42.94	-44.0	-50.4	8.1	7.09e-02	0	59	0	476053504	59	7599
2026-01-20 09:37:02.98	120.77	43.18	-43.8	-49.6	9.0	2.11e-02	0	59	0	477102080	59	6908
2026-01-20 09:37:03.98	120.47	43.41	-43.7	-49.4	9.1	2.00e-02	0	59	0	479199232	59	6761
2026-01-20 09:37:04.99	120.16	43.65	-43.7	-49.2	9.3	1.67e-02	0	59	0	481296384	59	6628
2026-01-20 09:37:06.00	119.85	43.89	-43.7	-49.1	9.5	1.42e-02	0	59	0	483393536	59	6553
2026-01-20 09:37:07.01	119.54	44.13	-43.7	-49.2	9.4	1.99e-02	0	59	0	485490688	59	6594
2026-01-20 09:37:08.02	119.22	44.37	-43.4	-48.4	10.2	8.71e-03	0	59	0	487587840	58	6386
2026-01-20 09:37:09.03	118.89	44.61	-43.4	-48.3	10.5	2.74e-03	0	59	0	488636416	58	6326
2026-01-20 09:37:10.04	118.56	44.86	-43.1	-47.7	10.9	2.15e-03	0	59	0	490733568	58	5886
2026-01-20 09:37:11.05	118.23	45.10	-43.2	-47.8	10.9	1.99e-03	0	59	0	492830720	58	5978
2026-01-20 09:37:12.06	117.89	45.34	-43.2	-47.9	10.7	3.37e-03	0	59	0	494927872	58	6030
2026-01-20 09:37:13.07	117.54	45.58	-43.2	-47.9	10.7	3.07e-03	0	59	0	497025024	58	6019
2026-01-20 09:37:14.08	117.19	45.83	-43.3	-48.1	10.6	2.33e-03	0	59	0	498073600	58	6132
2026-01-20 09:37:15.09	116.84	46.07	-43.4	-48.3	10.4	3.99e-03	0	59	0	500170752	58	6297
2026-01-20 09:37:16.10	116.48	46.31	-43.6	-48.9	9.7	5.34e-03	0	59	0	502267904	58	6752
2026-01-20 09:37:17.11	116.11	46.56	-43.5	-48.8	9.8	8.79e-03	0	59	0	504365056	58	6706
2026-01-20 09:37:18.12	115.74	46.80	-43.3	-48.2	10.5	7.04e-03	0	59	0	506462208	58	6230
2026-01-20 09:37:19.13	115.36	47.04	-42.8	-46.9	11.7	9.49e-04	0	59	0	507510784	57	5719
2026-01-20 09:37:20.14	114.97	47.29	-42.7	-46.7	11.9	3.05e-04	0	59	0	509607936	57	5581
2026-01-20 09:37:21.15	114.58	47.53	-42.8	-46.9	11.8	3.74e-04	0	59	0	511705088	57	5712
2026-01-20 09:37:22.15	114.19	47.77	-43.1	-47.5	11.4	7.32e-04	0	59	0	513802240	57	6129
2026-01-20 09:37:23.16	113.79	48.01	-43.2	-47.8	10.9	1.32e-03	0	59	0	515899392	57	6288
2026-01-20 09:37:24.17	113.38	48.26	-43.2	-47.8	10.9	2.06e-03	0	59	0	516947968	57	6324
2026-01-20 09:37:25.18	112.96	48.50	-43.5	-48.7	9.9	7.78e-03	0	60	0	519045120	57	6989
2026-01-20 09:37:26.19	112.54	48.74	-43.5	-48.7	10.0	8.60e-03	0	59	0	521142272	57	6971
2026-01-20 09:37:27.20	112.11	48.98	-43.2	-48.0	10.6	4.64e-03	0	59	0	523239424	57	6478
2026-01-20 09:37:28.21	111.67	49.23	-43.3	-48.0	10.6	3.83e-03	0	59	0	525336576	57	6471
2026-01-20 09:37:29.22	111.23	49.47	-43.2	-47.8	10.6	2.70e-03	0	59	0	526385152	57	6322
2026-01-20 09:37:30.23	110.78	49.71	-43.2	-47.9	10.6	4.45e-03	0	59	0	528482304	57	6384
2026-01-20 09:37:31.24	110.32	49.95	-43.3	-48.2	10.5	3.78e-03	0	59	0	530579456	57	6571
2026-01-20 09:37:32.25	109.86	50.19	-42.9	-47.3	11.4	1.28e-03	0	59	0	532676608	57	5952
2026-01-20 09:37:33.26	109.38	50.43	-42.8	-46.9	11.8	5.64e-04	0	59	0	534773760	57	5673
2026-01-20 09:37:34.27	108.90	50.66	-42.4	-46.0	12.7	2.23e-04	0	59	0	535822336	56	5454
2026-01-20 09:37:35.28	108.42	50.90	-42.0	-45.8	12.9	7.09e-05	0	59	0	537919488	56	5288
2026-01-20 09:37:36.29	107.92	51.13	-41.9	-45.8	12.7	6.25e-05	0	59	0	540016640	55	5647
2026-01-20 09:37:37.30	107.42	51.37	-42.0	-46.1	12.3	1.49e-04	0	59	0	542113792	55	5814
2026-01-20 09:37:38.31	106.91	51.60	-41.8	-45.6	12.8	1.04e-04	0	59	0	544210944	55	5519
2026-01-20 09:37:39.31	106.39	51.83	-41.6	-45.1	13.3	1.75e-05	0	59	0	545259520	55	5209
2026-01-20 09:37:40.32	105.87	52.06	-41.8	-45.7	12.8	1.98e-05	0	59	0	547356672	55	5534
2026-01-20 09:37:41.33	105.33	52.29	-42.2	-46.5	11.8	2.63e-04	0	59	0	549453824	55	6124
2026-01-20 09:37:42.34	104.79	52.52	-41.8	-45.7	12.5	2.22e-04	0	59	0	551550976	55	5575
2026-01-20 09:37:43.35	104.23	52.74	-41.3	-44.7	13.8	1.22e-05	0	59	0	553648128	54	5232
2026-01-20 09:37:44.36	103.67	52.97	-41.7	-45.3	13.3	1.22e-05	0	59	0	555745280	54	5601
2026-01-20 09:37:45.37	103.10	53.19	-42.0	-46.0	12.5	9.15e-05	0	59	0	556793856	54	6074
2026-01-20 09:37:46.38	102.53	53.41	-42.0	-46.0	12.4	1.65e-04	0	59	0	558891008	54	6073
2026-01-20 09:37:47.39	101.94	53.63	-42.2	-46.4	12.1	1.45e-04	0	59	0	560988160	55	6011
2026-01-20 09:37:48.40	101.34	53.84	-42.5	-47.0	11.4	6.31e-04	0	59	0	563085312	55	6492
2026-01-20 09:37:49.41	100.74	54.06	-42.6	-47.2	11.2	9.78e-04	0	59	0	565182464	55	6607
2026-01-20 09:37:50.42	100.12	54.27	-42.4	-46.8	11.8	8.06e-04	0	59	0	566231040	55	6296
2026-01-20 09:37:51.43	99.50	54.48	-42.5	-46.9	11.5	7.17e-04	0	59	0	568328192	55	6409
2026-01-20 09:37:52.44	98.87	54.68	-42.5	-47.0	11.5	1.21e-03	0	59	0	570425344	55	6461
2026-01-20 09:37:53.45	98.23	54.89	-42.4	-46.8	11.7	1.15e-03	0	59	0	572522496	55	6306
2026-01-20 09:37:54.46	97.58	55.09	-42.0	-45.9	12.6	1.57e-04	0	59	0	574619648	55	5662
2026-01-20 09:37:55.47	96.92	55.29	-41.5	-44.9	13.6	3.05e-05	0	59	0	575668224	55	5055
2026-01-20 09:37:56.48	96.25	55.48	-41.8	-45.4	13.2	2.20e-06	0	59	0	577765376	55	5368
2026-01-20 09:37:57.49	95.57	55.67	-42.4	-46.8	11.6	2.88e-04	0	59	0	579862528	55	6318
2026-01-20 09:37:58.49	94.89	55.86	-42.6	-47.2	11.3	1.42e-03	0	59	0	581959680	55	6591
2026-01-20 09:37:59.50	94.19	56.04	-42.1	-46.1	12.1	5.14e-04	0	59	0	584056832	55	5823
2026-01-20 09:38:00.51	93.49	56.22	-42.1	-45.9	12.6	1.78e-04	0	59	0	585105408	55	5719
2026-01-20 09:38:01.52	92.77	56.40	-42.6	-47.1	11.4	6.48e-04	0	59	0	587202560	55	6547
2026-01-20 09:38:02.53	92.05	56.57	-43.0	-48.0	10.7	2.49e-03	0	59	0	589299712	56	6818
2026-01-20 09:38:03.54	91.32	56.74	-43.0	-48.1	10.6	3.67e-03	0	59	0	591396864	56	6902
2026-01-20 09:38:04.55	90.58	56.91	-43.3	-48.9	9.6	1.04e-02	0	59	0	593494016	57	7204
2026-01-20 09:38:05.56	89.83	57.07	-43.3	-48.9	9.7	1.59e-02	0	59	0	594542592	57	7131
2026-01-20 09:38:06.57	89.07	57.22	-42.8	-47.5	11.1	5.73e-03	0	59	0	596639744	57	6107
2026-01-20 09:38:07.58	88.30	57.38	-42.4	-46.7	12.0	5.34e-04	0	59	0	598736896	56	5869
2026-01-20 09:38:08.59	87.52	57.52	-42.4	-46.8	11.9	4.10e-04	0	59	0	600834048	56	5970
2026-01-20 09:38:09.60	86.74	57.67	-42.5	-47.1	11.6	6.40e-04	0	59	0	602931200	56	6161
2026-01-20 09:38:10.61	85.94	57.80	-42.5	-47.0	11.6	6.37e-04	0	59	0	603979776	56	6103
2026-01-20 09:38:11.62	85.14	57.94	-42.2	-46.4	12.3	3.33e-04	0	59	0	606076928	56	5684
2026-01-20 09:38:12.63	84.33	58.07	-42.2	-46.3	12.4	2.32e-04	0	59	0	608174080	56	5619
2026-01-20 09:38:13.64	83.52	58.19	-41.6	-45.2	13.4	2.97e-05	0	59	0	610271232	55	5233
2026-01-20 09:38:14.65	82.69	58.31	-41.1	-44.3	14.3	3.00e-06	0	59	0	612368384	54	5006
2026-01-20 09:38:15.65	81.87	58.42	-41.2	-44.5	14.0	7.00e-07	0	59	0	613416960	53	5426
2026-01-20 09:38:16.66	81.03	58.52	-41.6	-45.2	13.3	6.10e-06	0	59	0	615514112	53	5917
2026-01-20 09:38:17.67	80.19	58.63	-41.9	-45.9	12.5	1.02e-04	0	59	0	617611264	54	6059
2026-01-20 09:38:18.68	79.34	58.72	-42.0	-46.3	12.2	1.44e-04	0	59	0	619708416	54	6303
2026-01-20 09:38:19.69	78.48	58.81	-42.1	-46.4	12.1	3.56e-04	0	59	0	621805568	55	5994
2026-01-20 09:38:20.70	77.62	58.90	-41.7	-45.5	13.0	9.46e-05	0	59	0	623902720	55	5454
2026-01-20 09:38:21.71	76.75	58.97	-41.5	-45.0	13.5	2.67e-05	0	59	0	624951296	54	5436
2026-01-20 09:38:22.72	75.88	59.05	-41.1	-44.3	14.3	7.60e-06	0	59	0	627048448	54	5011
2026-01-20 09:38:23.73	75.00	59.11	-41.0	-44.1	14.4	0.00e+00	0	59	0	629145600	54	4913
2026-01-20 09:38:24.74	74.12	59.17	-41.4	-44.8	13.8	1.50e-06	0	59	0	631242752	53	5600
2026-01-20 09:38:25.75	73.23	59.23	-41.6	-45.3	13.3	1.06e-05	0	60	0	633339904	53	5940
2026-01-20 09:38:26.76	72.34	59.27	-41.3	-44.8	13.7	1.14e-05	0	59	0	634388480	53	5615
2026-01-20 09:38:27.77	71.45	59.31	-40.8	-43.8	14.6	1.50e-06	0	59	0	636485632	53	5030
2026-01-20 09:38:28.78	70.56	59.35	-40.6	-43.4	15.1	0.00e+00	0	60	0	638582784	53	4801
2026-01-20 09:38:29.79	69.66	59.38	-40.7	-43.6	15.0	0.00e+00	0	59	0	640679936	53	4884
2026-01-20 09:38:30.80	68.76	59.40	-40.7	-43.7	14.9	7.00e-07	0	60	0	642777088	53	4932
2026-01-20 09:38:31.80	67.87	59.41	-40.8	-43.7	14.9	7.00e-07	0	60	0	643825664	53	4945
2026-01-20 09:38:32.81	66.97	59.42	-40.6	-43.3	15.2	0.00e+00	0	59	0	645922816	52	5006
2026-01-20 09:38:33.82	66.07	59.43	-40.6	-43.4	15.2	0.00e+00	0	60	0	648019968	52	5061
2026-01-20 09:38:34.83	65.17	59.42	-41.1	-44.3	14.2	0.00e+00	0	59	0	650117120	52	5606
2026-01-20 09:38:35.84	64.27	59.41	-41.3	-44.8	13.7	3.80e-06	0	59	0	652214272	53	5601
2026-01-20 09:38:36.85	63.37	59.39	-41.1	-44.4	14.2	3.80e-06	0	59	0	653262848	53	5368
2026-01-20 09:38:37.86	62.47	59.37	-40.9	-44.0	14.5	7.00e-07	0	59	0	655360000	53	5141
2026-01-20 09:38:38.87	61.58	59.34	-40.8	-43.8	14.7	1.50e-06	0	60	0	657457152	53	4997
2026-01-20 09:38:39.88	60.69	59.31	-41.0	-44.1	14.4	0.00e+00	0	60	0	659554304	53	5191
2026-01-20 09:38:40.89	59.79	59.26	-41.3	-44.6	13.8	2.20e-06	0	59	0	661651456	53	5508
2026-01-20 09:38:41.90	58.91	59.21	-41.5	-45.0	13.5	3.00e-06	0	59	0	662700032	53	5740
2026-01-20 09:38:42.91	58.02	59.16	-41.2	-44.4	14.1	4.50e-06	0	60	0	664797184	53	5373
2026-01-20 09:38:43.91	57.15	59.10	-40.6	-43.5	15.0	0.00e+00	0	59	0	666894336	53	4831
2026-01-20 09:38:44.92	56.28	59.03	-40.3	-43.0	15.5	0.00e+00	0	59	0	668991488	52	4825
2026-01-20 09:38:45.93	55.40	58.96	-40.3	-43.0	15.5	0.00e+00	0	59	0	671088640	52	4836
2026-01-20 09:38:46.94	54.54	58.88	-41.0	-44.2	14.2	0.00e+00	0	59	0	672137216	52	5577
2026-01-20 09:38:47.95	53.68	58.80	-41.5	-45.0	13.5	8.30e-06	0	60	0	674234368	53	5761
2026-01-20 09:38:48.96	52.82	58.70	-41.8	-45.6	12.9	2.67e-05	0	59	0	676331520	54	5841
2026-01-20 09:38:49.97	51.97	58.61	-42.1	-46.1	12.3	1.71e-04	0	59	0	678428672	54	6181
2026-01-20 09:38:50.98	51.13	58.51	-42.1	-46.1	12.3	3.85e-04	0	59	0	680525824	55	5815
2026-01-20 09:38:51.99	50.30	58.40	-42.0	-46.1	12.3	1.32e-04	0	59	0	681574400	55	5790
2026-01-20 09:38:53.00	49.47	58.28	-42.5	-47.0	11.3	4.16e-04	0	59	0	683671552	55	6433
2026-01-20 09:38:54.01	48.64	58.17	-42.2	-46.2	12.2	5.48e-04	0	59	0	685768704	55	5879
2026-01-20 09:38:55.02	47.83	58.04	-41.8	-45.4	13.2	8.77e-05	0	59	0	687865856	55	5352
2026-01-20 09:38:56.03	47.02	57.91	-41.8	-45.4	13.0	1.37e-05	0	59	0	689963008	55	5398
2026-01-20 09:38:57.04	46.23	57.78	-41.7	-45.2	13.3	2.36e-05	0	59	0	692060160	55	5228
2026-01-20 09:38:58.05	45.43	57.64	-41.7	-45.2	13.4	1.83e-05	0	59	0	693108736	55	5221
2026-01-20 09:38:59.06	44.65	57.50	-41.8	-45.4	13.1	3.50e-05	0	59	0	695205888	55	5359
2026-01-20 09:39:00.07	43.88	57.35	-41.7	-45.2	13.3	2.97e-05	0	59	0	697303040	55	5230
2026-01-20 09:39:01.07	43.12	57.20	-41.6	-44.9	13.5	1.98e-05	0	59	0	699400192	54	5399
2026-01-20 09:39:02.08	42.36	57.04	-41.8	-45.4	13.0	2.51e-05	0	59	0	701497344	54	5712
2026-01-20 09:39:03.09	41.62	56.88	-41.6	-45.0	13.5	3.96e-05	0	59	0	702545920	54	5438
2026-01-20 09:39:04.10	40.88	56.71	-41.6	-44.9	13.6	1.75e-05	0	59	0	704643072	54	5353
2026-01-20 09:39:05.11	40.15	56.54	-41.2	-44.3	14.1	3.00e-06	0	60	0	706740224	54	5027
2026-01-20 09:39:06.12	39.43	56.37	-41.2	-44.3	14.2	0.00e+00	0	59	0	708837376	54	5025
2026-01-20 09:39:07.13	38.71	56.19	-41.1	-44.1	14.3	0.00e+00	0	59	0	709885952	53	5205
2026-01-20 09:39:08.14	38.01	56.01	-41.3	-44.4	14.0	7.00e-07	0	60	0	711983104	53	5352
2026-01-20 09:39:09.15	37.32	55.83	-41.1	-44.1	14.3	1.50e-06	0	59	0	714080256	53	5191
2026-01-20 09:39:10.16	36.63	55.64	-41.1	-44.2	14.2	7.00e-07	0	60	0	716177408	53	5251
2026-01-20 09:39:11.17	35.96	55.45	-41.7	-45.3	13.1	6.10e-06	0	59	0	718274560	53	5967
2026-01-20 09:39:12.18	35.29	55.25	-41.8	-45.4	13.0	3.81e-05	0	59	0	720371712	54	5689
2026-01-20 09:39:13.19	34.64	55.06	-42.0	-45.7	12.7	3.20e-05	0	59	0	721420288	54	5905
2026-01-20 09:39:14.20	33.99	54.86	-42.3	-46.5	11.8	1.85e-04	0	60	0	723517440	55	6095
2026-01-20 09:39:15.21	33.35	54.65	-42.4	-46.6	11.9	7.55e-04	0	59	0	725614592	55	6165
2026-01-20 09:39:16.22	32.72	54.45	-42.1	-46.1	12.3	1.87e-04	0	59	0	727711744	55	5800
2026-01-20 09:39:17.23	32.10	54.24	-42.3	-46.3	12.0	2.20e-04	0	59	0	729808896	55	5962
2026-01-20 09:39:18.23	31.50	54.03	-42.0	-45.8	12.7	2.02e-04	0	59	0	730857472	55	5599
2026-01-20 09:39:19.24	30.90	53.82	-42.0	-45.7	12.7	6.63e-05	0	59	0	732954624	55	5550
2026-01-20 09:39:20.25	30.30	53.60	-42.3	-46.4	12.0	6.07e-04	0	59	0	735051776	55	6028
2026-01-20 09:39:21.26	29.72	53.38	-42.7	-47.3	11.0	9.14e-04	0	59	0	737148928	55	6681
2026-01-20 09:39:22.27	29.14	53.16	-42.5	-46.7	11.6	9.41e-04	0	60	0	739246080	56	5919
2026-01-20 09:39:23.28	28.58	52.94	-42.5	-46.7	11.8	4.91e-04	0	59	0	740294656	56	5896
2026-01-20 09:39:24.29	28.02	52.72	-42.2	-46.0	12.6	2.73e-04	0	60	0	742391808	56	5413
2026-01-20 09:39:25.30	27.47	52.49	-42.3	-46.2	12.3	1.04e-04	0	59	0	744488960	56	5546
2026-01-20 09:39:26.31	26.93	52.26	-42.0	-45.7	12.8	7.01e-05	0	60	0	746586112	56	5272
2026-01-20 09:39:27.32	26.40	52.04	-42.3	-46.4	12.0	7.70e-05	0	60	0	748683264	55	6012
2026-01-20 09:39:28.33	25.87	51.81	-42.6	-47.2	11.2	1.08e-03	0	59	0	749731840	55	6582
2026-01-20 09:39:29.34	25.36	51.57	-42.8	-47.6	10.9	3.10e-03	0	59	0	751828992	56	6515
2026-01-20 09:39:30.35	24.85	51.34	-42.3	-46.2	12.3	6.84e-04	0	59	0	753926144	56	5554
2026-01-20 09:39:31.36	24.35	51.11	-41.5	-44.9	13.5	7.78e-05	0	59	0	756023296	55	5052
2026-01-20 09:39:32.37	23.85	50.87	-42.1	-46.0	12.5	5.56e-05	0	60	0	758120448	55	5726
2026-01-20 09:39:33.38	23.37	50.64	-43.1	-48.1	10.4	1.46e-03	0	59	0	759169024	56	6910
2026-01-20 09:39:34.39	22.89	50.40	-43.3	-48.6	9.8	5.79e-03	0	60	0	761266176	57	6919
2026-01-20 09:39:35.40	22.42	50.16	-43.5	-49.3	9.1	2.26e-02	0	60	0	763363328	57	7515
2026-01-20 09:39:36.40	21.96	49.93	-43.3	-48.9	9.5	1.82e-02	0	60	0	765460480	57	7155
2026-01-20 09:39:37.41	21.51	49.69	-43.1	-48.3	10.1	1.12e-02	0	60	0	767557632	57	6697
2026-01-20 09:39:38.42	21.06	49.45	-43.0	-47.9	10.4	5.97e-03	0	60	0	768606208	57	6400
2026-01-20 09:39:39.43	20.62	49.21	-43.0	-47.9	10.4	4.38e-03	0	59	0	770703360	57	6403
2026-01-20 09:39:40.44	20.19	48.97	-43.2	-48.4	9.9	6.94e-03	0	60	0	772800512	57	6785
2026-01-20 09:39:41.45	19.76	48.73	-43.5	-49.4	9.0	2.09e-02	0	60	0	774897664	57	7546
2026-01-20 09:39:42.46	19.34	48.48	-44.2	-52.2	6.4	1.83e-01	0	59	0	776994816	58	9895
2026-01-20 09:39:43.47	18.92	48.24	-43.8	-50.6	7.7	1.85e-01	0	59	0	778043392	59	7783
2026-01-20 09:39:44.49	18.51	48.00	-43.1	-48.2	10.2	1.14e-02	0	60	0	780140544	58	6235
2026-01-20 09:39:45.50	18.11	47.75	-42.9	-47.7	10.7	3.61e-03	0	60	0	782237696	57	6256
2026-01-20 09:39:46.51	17.72	47.51	-43.0	-47.9	10.4	4.50e-03	0	59	0	784334848	57	6402
2026-01-20 09:39:47.52	17.33	47.27	-43.3	-48.9	9.5	7.01e-03	0	60	0	786432000	57	7178
2026-01-20 09:39:48.53	16.95	47.03	-43.3	-48.7	9.8	1.06e-02	0	60	0	788529152	57	6987
2026-01-20 09:39:49.54	16.57	46.78	-43.5	-49.5	8.9	2.34e-02	0	60	0	789577728	57	7650
2026-01-20 09:39:50.54	16.20	46.54	-43.7	-50.1	8.2	5.60e-02	0	60	0	791674880	58	7775
2026-01-20 09:39:51.55	15.84	46.30	-43.4	-48.9	9.6	2.03e-02	0	59	0	793772032	58	6732
2026-01-20 09:39:52.56	15.48	46.06	-43.0	-47.7	10.7	8.86e-03	0	60	0	795869184	57	6268
2026-01-20 09:39:53.57	15.12	45.82	-42.9	-47.6	10.8	4.20e-03	0	60	0	797966336	57	6176
2026-01-20 09:39:54.58	14.78	45.58	-42.9	-47.8	10.7	1.80e-03	0	60	0	799014912	57	6291
2026-01-20 09:39:55.59	14.43	45.33	-42.7	-47.7	10.7	3.20e-03	0	59	0	801112064	57	6214
2026-01-20 09:39:56.60	14.09	45.09	-43.3	-48.6	9.7	5.00e-03	0	60	0	803209216	57	6934
2026-01-20 09:39:57.61	13.76	44.85	-43.5	-49.3	9.0	2.03e-02	0	59	0	805306368	57	7532
2026-01-20 09:39:58.62	13.43	44.61	-43.4	-49.2	9.1	3.07e-02	0	59	0	807403520	57	7414
2026-01-20 09:39:59.63	13.11	44.37	-43.1	-48.4	9.9	1.95e-02	0	60	0	808452096	57	6781
2026-01-20 09:40:00.64	12.79	44.13	-43.1	-48.2	10.2	8.35e-03	0	59	0	810549248	57	6620
2026-01-20 09:40:01.65	12.48	43.89	-43.2	-48.3	10.1	5.64e-03	0	60	0	812646400	57	6665
2026-01-20 09:40:02.66	12.17	43.66	-43.4	-48.8	9.5	6.89e-03	0	60	0	814743552	57	7121
2026-01-20 09:40:03.67	11.87	43.42	-43.3	-48.7	9.7	1.13e-02	0	59	0	816840704	57	6964
2026-01-20 09:40:04.68	11.57	43.18	-43.3	-48.8	9.6	1.23e-02	0	60	0	817889280	57	7075
2026-01-20 09:40:05.69	11.27	42.94	-43.2	-48.3	10.1	1.63e-02	0	59	0	819986432	57	6666
2026-01-20 09:40:06.70	10.98	42.71	-43.0	-47.9	10.5	8.57e-03	0	60	0	822083584	57	6367
2026-01-20 09:40:07.71	10.70	42.47	-42.6	-46.9	11.5	9.28e-04	0	59	0	824180736	56	6037
2026-01-20 09:40:08.72	10.42	42.24	-42.3	-46.3	12.1	3.42e-04	0	60	0	826277888	56	5639
2026-01-20 09:40:09.72	10.14	42.01	-42.2	-46.1	12.1	2.18e-04	0	59	0	827326464	55	5848
2026-01-20 09:40:10.73	9.87	41.77	-42.7	-47.2	11.0	1.43e-03	0	60	0	829423616	55	6643
2026-01-20 09:40:11.74	9.60	41.54	-43.0	-47.7	10.7	2.54e-03	0	60	0	831520768	56	6640
2026-01-20 09:40:12.75	9.33	41.31	-43.4	-48.9	9.4	9.05e-03	0	60	0	833617920	57	7184
2026-01-20 09:40:13.76	9.07	41.08	-43.7	-50.0	8.6	3.57e-02	0	60	0	835715072	57	8084
2026-01-20 09:40:14.77	8.81	40.85	-43.8	-50.3	8.1	6.12e-02	0	60	0	836763648	58	7919
2026-01-20 09:40:15.78	8.56	40.62	-43.7	-49.6	8.7	6.26e-02	0	60	0	838860800	58	7339
2026-01-20 09:40:16.79	8.30	40.39	-43.7	-49.6	8.7	4.40e-02	0	60	0	840957952	58	7371
2026-01-20 09:40:17.80	8.06	40.16	-43.9	-50.3	8.0	5.81e-02	0	60	0	843055104	58	7967
2026-01-20 09:40:18.80	7.82	39.94	-44.1	-51.3	7.0	1.14e-01	0	60	0	845152256	58	8867
2026-01-20 09:40:19.81	7.57	39.71	-44.0	-50.8	7.5	1.15e-01	0	60	0	846200832	58	8420
2026-01-20 09:40:20.82	7.34	39.49	-43.9	-50.6	7.5	8.85e-02	0	59	0	848297984	58	8230
2026-01-20 09:40:21.83	7.10	39.26	-44.1	-51.3	7.1	1.21e-01	0	60	0	850395136	58	8885
2026-01-20 09:40:22.84	6.87	39.04	-44.1	-51.3	7.1	1.35e-01	0	60	0	852492288	58	8931
2026-01-20 09:40:23.85	6.65	38.82	-44.1	-51.3	7.1	1.34e-01	0	60	0	854589440	58	8871
2026-01-20 09:40:24.86	6.42	38.59	-44.0	-51.0	7.2	1.41e-01	0	60	0	855638016	58	8652
2026-01-20 09:40:25.87	6.20	38.37	-43.9	-50.4	7.8	1.14e-01	0	60	0	857735168	58	8024
2026-01-20 09:40:26.88	5.98	38.15	-43.6	-49.5	8.9	4.35e-02	0	60	0	859832320	58	7208
2026-01-20 09:40:27.89	5.77	37.94	-43.3	-48.5	9.7	1.07e-02	0	60	0	861929472	58	6492
2026-01-20 09:40:28.90	5.55	37.72	-43.6	-49.4	9.0	1.09e-02	0	60	0	864026624	58	7193
2026-01-20 09:40:29.91	5.34	37.50	-43.6	-49.7	8.6	3.48e-02	0	60	0	866123776	58	7373
2026-01-20 09:40:30.92	5.14	37.29	-43.9	-50.8	7.5	7.94e-02	0	60	0	867172352	58	8447
2026-01-20 09:40:31.92	4.94	37.07	-44.1	-51.8	6.6	1.61e-01	0	60	0	869269504	58	9458
2026-01-20 09:40:32.93	4.73	36.86	-44.2	-52.2	6.3	1.68e-01	0	59	0	871366656	59	9350
2026-01-20 09:40:33.94	4.54	36.65	-44.0	-51.7	6.6	2.15e-01	0	60	0	873463808	59	8812
2026-01-20 09:40:34.95	4.34	36.44	-44.0	-51.2	7.2	1.32e-01	0	60	0	875560960	59	8280
2026-01-20 09:40:35.96	4.15	36.22	-44.1	-51.9	6.4	1.69e-01	0	59	0	876609536	59	9019
2026-01-20 09:40:36.97	3.96	36.01	-44.7	-54.8	4.7	5.77e-01	0	60	0	878706688	59	12642
2026-01-20 09:40:37.98	3.77	35.81	-44.8	-57.3	3.8	9.65e-01	0	60	104	879755264	60	15769
2026-01-20 09:40:38.99	3.58	35.60	-44.5	-53.9	5.1	1.29e+00	0	60	0	879755264	60	10765
2026-01-20 09:40:40.00	3.40	35.39	-44.9	-57.9	3.8	1.22e+00	0	60	104	881852416	60	17038
2026-01-20 09:40:41.01	3.22	35.19	-44.1	-52.2	6.2	8.42e-01	0	60	0	881852416	60	8857
2026-01-20 09:40:42.02	3.04	34.98	-44.2	-52.8	5.9	2.79e-01	0	60	0	883949568	60	9443
2026-01-20 09:40:43.03	2.86	34.78	-44.1	-52.6	6.0	3.83e-01	0	60	0	884998144	60	9197
2026-01-20 09:40:44.04	2.69	34.57	-44.1	-52.8	5.8	4.79e-01	0	60	0	887095296	60	9419
2026-01-20 09:40:45.05	2.51	34.37	-43.9	-51.4	6.9	2.92e-01	0	60	0	889192448	59	8525
2026-01-20 09:40:46.06	2.34	34.17	-43.8	-50.8	7.3	1.32e-01	0	60	0	891289600	59	7934
2026-01-20 09:40:47.07	2.18	33.97	-44.5	-53.6	5.3	3.41e-01	0	60	0	893386752	59	10939
2026-01-20 09:40:48.08	2.01	33.77	-44.6	-54.5	4.7	1.66e-01	0	60	0	894435328	59	12198
2026-01-20 09:40:49.09	1.85	33.58	-44.8	-57.2	3.9	6.52e-01	0	60	104	895483904	60	15716
2026-01-20 09:40:50.10	1.68	33.38	-44.2	-53.0	5.7	5.21e-01	0	60	0	896532480	60	9615
2026-01-20 09:40:51.11	1.52	33.18	-44.9	-58.1	3.8	1.00e+00	0	60	104	897581056	60	17310
2026-01-20 09:40:52.12	1.37	32.99	-43.4	-49.4	8.7	8.84e-01	0	60	0	897581056	58	7149
2026-01-20 09:40:53.13	1.21	32.80	-43.1	-48.4	9.8	1.24e-02	0	60	0	899678208	58	6395
2026-01-20 09:40:54.13	1.06	32.61	-43.2	-48.7	9.5	7.96e-03	0	60	0	901775360	57	6968
2026-01-20 09:40:55.14	0.90	32.41	-43.2	-48.9	9.2	1.57e-02	0	60	0	902823936	57	7180
2026-01-20 09:40:56.15	0.75	32.22	-43.3	-49.1	9.1	2.01e-02	0	60	0	904921088	57	7329
2026-01-20 09:40:57.16	0.61	32.03	-43.4	-49.6	8.5	4.32e-02	0	60	0	907018240	57	7773
2026-01-20 09:40:58.17	0.46	31.84	-43.3	-49.0	9.2	2.92e-02	0	60	0	909115392	57	7224
2026-01-20 09:40:59.18	0.31	31.66	-43.1	-48.6	9.5	2.05e-02	0	60	0	911212544	57	6900
2026-01-20 09:41:00.19	0.17	31.47	-43.1	-48.4	9.8	1.10e-02	0	60	0	912261120	57	6729
2026-01-20 09:41:01.20	0.03	31.28	-43.2	-48.9	9.3	1.52e-02	0	60	0	914358272	57	7137
2026-01-20 09:41:02.21	359.89	31.10	-43.5	-49.6	8.5	3.43e-02	0	60	0	916455424	57	7754
2026-01-20 09:41:03.22	359.75	30.92	-43.6	-50.0	8.1	5.60e-02	0	60	0	918552576	57	8139
2026-01-20 09:41:04.23	359.61	30.73	-43.4	-49.4	8.7	5.13e-02	0	60	0	920649728	57	7557
2026-01-20 09:41:05.24	359.48	30.55	-43.2	-48.7	9.4	2.74e-02	0	60	0	921698304	57	6998
2026-01-20 09:41:06.24	359.35	30.37	-42.5	-47.0	11.2	3.98e-03	0	60	0	923795456	57	5747
2026-01-20 09:41:07.25	359.21	30.19	-42.3	-46.5	11.7	1.02e-03	0	60	0	925892608	56	5730
2026-01-20 09:41:08.27	359.08	30.01	-42.3	-46.4	11.8	4.58e-04	0	60	0	927989760	56	5698
2026-01-20 09:41:09.28	358.95	29.83	-42.4	-46.6	11.6	5.18e-04	0	60	0	930086912	56	5811
2026-01-20 09:41:10.28	358.83	29.66	-42.5	-46.9	11.3	1.04e-03	0	60	0	931135488	56	5994
2026-01-20 09:41:11.29	358.70	29.48	-42.6	-47.1	11.0	1.58e-03	0	60	0	933232640	56	6186
2026-01-20 09:41:12.30	358.57	29.31	-42.7	-47.4	10.7	1.79e-03	0	60	0	935329792	56	6382
2026-01-20 09:41:13.31	358.45	29.13	-42.6	-47.2	11.0	1.79e-03	0	60	0	937426944	56	6233
2026-01-20 09:41:14.32	358.33	28.96	-42.7	-47.3	10.8	1.93e-03	0	60	0	939524096	56	6331
2026-01-20 09:41:15.33	358.21	28.79	-42.5	-47.1	11.1	2.23e-03	0	60	0	941621248	56	6140
2026-01-20 09:41:16.34	358.09	28.62	-42.7	-47.5	10.6	2.52e-03	0	60	0	942669824	56	6432
2026-01-20 09:41:17.35	357.97	28.45	-42.9	-48.0	10.1	4.05e-03	0	60	0	944766976	56	6833
2026-01-20 09:41:18.36	357.85	28.28	-43.1	-48.5	9.5	6.54e-03	0	60	0	946864128	56	7264
2026-01-20 09:41:19.37	357.74	28.11	-43.4	-49.6	8.5	2.89e-02	0	60	0	948961280	57	7720
2026-01-20 09:41:20.38	357.62	27.94	-43.6	-50.5	7.6	5.27e-02	0	60	0	951058432	57	8604
2026-01-20 09:41:21.39	357.51	27.77	-43.8	-50.9	7.1	9.89e-02	0	60	0	952107008	58	8488
2026-01-20 09:41:22.40	357.40	27.61	-43.6	-50.2	7.7	9.04e-02	0	60	0	954204160	58	7856
2026-01-20 09:41:23.41	357.29	27.44	-43.4	-49.6	8.3	6.34e-02	0	60	0	956301312	58	7339
2026-01-20 09:41:24.42	357.18	27.28	-43.4	-49.4	8.6	3.87e-02	0	60	0	958398464	58	7125
2026-01-20 09:41:25.43	357.07	27.11	-43.2	-48.8	9.1	2.33e-02	0	60	0	960495616	58	6713
2026-01-20 09:41:26.44	356.96	26.95	-43.1	-48.6	9.4	1.55e-02	0	60	0	961544192	58	6532
2026-01-20 09:41:27.44	356.86	26.79	-43.0	-48.2	9.7	1.27e-02	0	60	0	963641344	58	6269
2026-01-20 09:41:28.45	356.75	26.63	-42.9	-48.2	9.8	1.07e-02	0	60	0	965738496	57	6600
2026-01-20 09:41:29.46	356.65	26.47	-42.8	-47.9	10.1	8.02e-03	0	60	0	967835648	57	6376
2026-01-20 09:41:30.47	356.54	26.31	-42.8	-47.7	10.2	5.89e-03	0	60	0	969932800	57	6256
2026-01-20 09:41:31.48	356.44	26.15	-42.6	-47.3	10.7	4.24e-03	0	60	0	970981376	57	5925
2026-01-20 09:41:32.49	356.34	25.99	-42.4	-46.9	11.1	2.14e-03	0	60	0	973078528	56	6025
2026-01-20 09:41:33.50	356.24	25.84	-42.3	-46.7	11.3	1.76e-03	0	60	0	975175680	56	5879
2026-01-20 09:41:34.51	356.14	25.68	-42.3	-46.6	11.3	1.35e-03	0	60	0	977272832	56	5821
2026-01-20 09:41:35.52	356.04	25.53	-42.3	-46.8	11.2	1.65e-03	0	60	0	979369984	56	5961
2026-01-20 09:41:36.53	355.95	25.37	-42.6	-47.4	10.4	2.74e-03	0	60	0	980418560	56	6405
2026-01-20 09:41:37.53	355.85	25.22	-42.6	-47.5	10.3	5.05e-03	0	60	0	982515712	56	6493
2026-01-20 09:41:38.54	355.76	25.07	-42.8	-48.2	9.6	8.40e-03	0	60	0	984612864	56	6984
2026-01-20 09:41:39.55	355.66	24.91	-42.8	-48.3	9.4	1.42e-02	0	60	0	986710016	56	7047
2026-01-20 09:41:40.56	355.57	24.76	-42.9	-48.5	9.1	1.99e-02	0	60	0	988807168	56	7275
2026-01-20 09:41:41.57	355.48	24.61	-42.9	-48.5	9.2	2.01e-02	0	60	0	989855744	56	7220
2026-01-20 09:41:42.58	355.39	24.46	-42.8	-48.4	9.2	1.67e-02	0	60	0	991952896	56	7198
2026-01-20 09:41:43.59	355.30	24.32	-42.8	-48.2	9.4	1.86e-02	0	60	0	994050048	56	7025
2026-01-20 09:41:44.60	355.21	24.17	-42.5	-47.6	10.1	1.10e-02	0	60	0	996147200	56	6559
2026-01-20 09:41:45.61	355.12	24.02	-42.6	-47.7	10.0	8.97e-03	0	60	0	998244352	56	6620
2026-01-20 09:41:46.62	355.03	23.87	-42.5	-47.5	10.1	8.45e-03	0	60	0	999292928	56	6432
2026-01-20 09:41:47.62	354.94	23.73	-42.6	-47.9	9.8	8.66e-03	0	60	0	1001390080	56	6731
2026-01-20 09:41:48.63	354.86	23.58	-42.6	-48.2	9.4	1.23e-02	0	60	0	1003487232	56	6975
2026-01-20 09:41:49.65	354.77	23.44	-42.8	-48.7	8.9	2.73e-02	0	60	0	1005584384	56	7375
2026-01-20 09:41:50.66	354.69	23.29	-42.8	-48.9	8.6	3.48e-02	0	60	0	1007681536	56	7578
2026-01-20 09:41:51.66	354.61	23.15	-43.1	-50.1	7.3	9.34e-02	0	60	0	1008730112	56	8756
2026-01-20 09:41:52.67	354.52	23.01	-43.2	-50.5	6.9	1.49e-01	0	60	0	1010827264	56	9102
2026-01-20 09:41:53.68	354.44	22.87	-43.0	-50.1	7.2	1.23e-01	0	60	0	1012924416	56	8678
2026-01-20 09:41:54.69	354.36	22.73	-43.0	-50.4	6.9	1.35e-01	0	60	0	1015021568	56	9001
2026-01-20 09:41:55.70	354.28	22.59	-42.7	-49.7	7.3	1.81e-01	0	60	0	1017118720	56	8355
2026-01-20 09:41:56.71	354.20	22.45	-42.5	-48.8	8.1	8.81e-02	0	60	0	1018167296	56	7523
2026-01-20 09:41:57.72	354.12	22.31	-42.3	-48.4	8.5	4.83e-02	0	60	0	1020264448	56	7142
2026-01-20 09:41:58.73	354.04	22.17	-41.8	-47.6	9.0	2.77e-02	0	60	0	1022361600	55	6918
2026-01-20 09:41:59.74	353.96	22.04	-41.6	-47.2	9.2	2.68e-02	0	60	0	1024458752	55	6624
2026-01-20 09:42:00.75	353.89	21.90	-41.6	-47.2	9.1	2.10e-02	0	60	0	1026555904	55	6645
2026-01-20 09:42:01.76	353.81	21.76	-41.4	-47.0	9.2	2.16e-02	0	60	0	1027604480	54	6871
2026-01-20 09:42:02.77	353.74	21.63	-41.3	-46.7	9.6	1.41e-02	0	60	0	1029701632	54	6575
2026-01-20 09:42:03.78	353.66	21.49	-41.4	-47.2	8.9	1.59e-02	0	60	0	1031798784	54	7021
2026-01-20 09:42:04.78	353.59	21.36	-41.4	-47.5	8.6	4.32e-02	0	60	0	1033895936	54	7239
2026-01-20 09:42:05.79	353.52	21.23	-41.5	-48.1	7.8	6.37e-02	0	60	0	1035993088	54	7780
2026-01-20 09:42:06.81	353.44	21.09	-41.6	-49.1	6.8	1.40e-01	0	60	0	1038090240	54	8666
2026-01-20 09:42:07.82	353.37	20.96	-41.7	-50.1	5.8	2.65e-01	0	60	0	1039138816	54	9754
2026-01-20 09:42:08.83	353.30	20.83	-41.7	-51.1	5.1	5.47e-01	0	60	0	1041235968	54	10935
2026-01-20 09:42:09.83	353.23	20.70	-41.7	-52.2	4.5	8.42e-01	0	60	0	1043333120	54	12432
2026-01-20 09:42:10.84	353.16	20.57	-41.7	-53.3	4.1	1.33e+00	0	60	0	1044381696	54	14088
2026-01-20 09:42:11.85	353.09	20.44	-42.0	-53.9	4.0	1.44e+00	0	60	0	1044381696	54	15068
2026-01-20 09:42:12.86	353.02	20.31	-41.1	-55.4	3.8	1.49e+00	0	60	104	1044381696	54	18066
2026-01-20 09:42:13.87	352.95	20.19	-41.8	-55.1	3.8	1.49e+00	0	60	104	1044381696	54	17449
2026-01-20 09:42:14.88	352.88	20.06	-41.6	-56.1	3.8	1.49e+00	0	60	104	1044381696	54	19420
2026-01-20 09:42:15.89	352.82	19.93	-41.6	-55.7	3.8	1.49e+00	0	60	104	1044381696	54	18597
2026-01-20 09:42:16.90	352.75	19.80	-41.6	-55.9	3.8	1.49e+00	0	60	104	1044381696	54	18989
2026-01-20 09:42:17.91	352.68	19.68	-41.5	-56.0	3.8	1.49e+00	0	60	104	1044381696	54	19264
2026-01-20 09:42:18.92	352.62	19.55	-41.3	-56.0	3.8	1.49e+00	0	60	104	1044381696	54	19383
2026-01-20 09:42:19.93	352.55	19.43	-41.4	-56.1	3.8	1.49e+00	0	60	104	1044381696	54	19514
2026-01-20 09:42:20.94	352.49	19.31	-40.8	-55.5	3.8	1.49e+00	0	60	104	1044381696	53	19327
2026-01-20 09:42:21.95	352.43	19.18	-40.8	-55.5	3.8	1.49e+00	0	60	104	1044381696	53	19339
2026-01-20 09:42:22.96	352.36	19.06	-40.7	-55.6	3.8	1.49e+00	0	60	104	1044381696	53	19474
2026-01-20 09:42:23.97	352.30	18.94	-40.8	-55.5	3.8	1.49e+00	0	60	104	1044381696	53	19257
2026-01-20 09:42:24.98	352.24	18.82	-40.8	-55.5	3.8	1.49e+00	0	60	104	1044381696	53	19232
2026-01-20 09:42:25.98	352.18	18.70	-40.8	-55.5	3.8	1.49e+00	0	60	104	1044381696	53	19240
2026-01-20 09:42:26.99	352.12	18.57	-40.8	-55.5	3.8	1.49e+00	0	60	104	1044381696	53	19264
2026-01-20 09:42:28.00	352.06	18.45	-40.7	-55.5	3.8	1.49e+00	0	60	104	1044381696	53	19183
2026-01-20 09:42:29.01	352.00	18.34	-40.8	-55.6	3.8	1.49e+00	0	60	104	1044381696	53	19497
2026-01-20 09:42:30.02	351.94	18.22	-40.7	-55.5	3.8	1.49e+00	0	60	104	1044381696	53	19268
2026-01-20 09:42:31.03	351.88	18.10	-40.8	-55.5	3.8	1.49e+00	0	60	104	1044381696	53	19357
2026-01-20 09:42:32.04	351.82	17.98	-40.3	-55.5	3.8	1.49e+00	0	60	104	1044381696	52	20331
2026-01-20 09:42:33.05	351.76	17.86	-40.8	-55.5	3.8	1.49e+00	0	60	104	1044381696	52	20520
2026-01-20 09:42:34.06	351.70	17.75	-40.8	-55.5	3.8	1.49e+00	0	60	104	1044381696	52	20479
2026-01-20 09:42:35.07	351.64	17.63	-40.7	-55.5	3.8	1.49e+00	0	60	104	1044381696	52	20442
2026-01-20 09:42:36.08	351.59	17.51	-39.8	-55.5	3.8	1.49e+00	0	60	104	1044381696	51	21741
2026-01-20 09:42:37.09	351.53	17.40	-40.7	-55.5	3.8	1.49e+00	0	60	104	1044381696	52	20413
2026-01-20 09:42:38.10	351.48	17.28	-40.6	-55.7	3.8	1.49e+00	0	60	104	1044381696	52	20839
2026-01-20 09:42:39.11	351.42	17.17	-40.6	-55.5	3.8	1.49e+00	0	60	104	1044381696	52	20351
2026-01-20 09:42:40.12	351.37	17.06	-39.8	-55.6	3.8	1.49e+00	0	60	104	1044381696	51	22000
2026-01-20 09:42:41.13	351.31	16.94	-40.8	-55.4	3.8	1.49e+00	0	60	104	1044381696	52	20266
2026-01-20 09:42:42.14	351.26	16.83	-40.0	-55.7	3.8	1.49e+00	0	60	104	1044381696	51	22236
2026-01-20 09:42:43.15	351.20	16.72	-40.4	-55.6	3.8	1.49e+00	0	60	104	1044381696	51	21766
2026-01-20 09:42:44.16	351.15	16.61	-40.3	-55.8	3.8	1.49e+00	0	60	104	1044381696	51	22281
2026-01-20 09:42:45.17	351.10	16.50	-40.6	-55.5	3.8	1.49e+00	0	60	104	1044381696	51	21694
2026-01-20 09:42:46.18	351.05	16.38	-39.7	-55.6	3.8	1.49e+00	0	60	104	1044381696	51	21994
2026-01-20 09:42:47.19	350.99	16.27	-40.1	-55.5	3.8	1.49e+00	0	60	104	1044381696	51	21721
2026-01-20 09:42:48.19	350.94	16.17	-40.6	-55.7	3.8	1.49e+00	0	60	104	1044381696	52	20929
2026-01-20 09:42:49.20	350.89	16.06	-39.9	-55.5	3.8	1.49e+00	0	60	104	1044381696	51	21698
2026-01-20 09:42:50.21	350.84	15.95	-40.2	-55.7	3.8	1.49e+00	0	60	104	1044381696	51	22033
2026-01-20 09:42:51.22	350.79	15.84	-40.3	-55.5	3.8	1.49e+00	0	60	104	1044381696	51	21718
2026-01-20 09:42:52.23	350.74	15.73	-40.7	-55.6	3.8	1.49e+00	0	60	104	1044381696	52	20748
2026-01-20 09:42:53.24	350.69	15.62	-39.8	-55.6	3.8	1.49e+00	0	60	104	1044381696	51	21866
2026-01-20 09:42:54.25	350.64	15.52	-40.7	-55.7	3.8	1.49e+00	0	60	104	1044381696	52	20880
2026-01-20 09:42:55.26	350.59	15.41	-40.4	-55.4	3.8	1.49e+00	0	60	104	1044381696	52	20244
2026-01-20 09:42:56.27	350.55	15.30	-40.7	-55.5	3.8	1.49e+00	0	60	104	1044381696	52	20412
2026-01-20 09:42:57.28	350.50	15.20	-40.2	-55.7	3.8	1.49e+00	0	60	104	1044381696	51	22194
2026-01-20 09:42:58.29	350.45	15.09	-40.8	-55.7	3.8	1.49e+00	0	60	104	1044381696	52	20869
2026-01-20 09:42:59.30	350.40	14.99	-40.7	-55.5	3.8	1.49e+00	0	60	104	1044381696	52	20370
2026-01-20 09:43:00.31	350.36	14.88	-40.8	-55.5	3.8	1.49e+00	0	60	104	1044381696	52	20438
2026-01-20 09:43:01.32	350.31	14.78	-40.6	-55.7	3.8	1.49e+00	0	60	104	1044381696	52	20891
2026-01-20 09:43:02.33	350.26	14.68	-40.7	-55.5	3.8	1.49e+00	0	60	104	1044381696	52	20496
2026-01-20 09:43:03.34	350.22	14.57	-41.0	-55.6	3.8	1.49e+00	0	60	104	1044381696	52	20689
2026-01-20 09:43:04.35	350.17	14.47	-40.9	-55.5	3.8	1.49e+00	0	60	104	1044381696	52	20528
2026-01-20 09:43:05.36	350.13	14.37	-40.7	-55.6	3.8	1.49e+00	0	60	104	1044381696	52	20672
2026-01-20 09:43:06.37	350.08	14.27	-40.6	-55.5	3.8	1.49e+00	0	60	104	1044381696	52	20362
2026-01-20 09:43:07.38	350.04	14.16	-41.0	-55.6	3.8	1.49e+00	0	60	104	1044381696	52	20729
2026-01-20 09:43:08.39	349.99	14.06	-40.8	-55.5	3.8	1.49e+00	0	60	104	1044381696	52	20509
