passes_logs/2026/01/20/R2.0S_Moscow/R2.0S_Moscow__20260120_232156_SUOMI_NPP_rec.log

#Pass ID: 20260120_232156_SUOMI NPP
#Satellite: SUOMI NPP
#Configuration: NPP
#almurnet v.1.7.20251203
#Start time: 2026-01-20 23:21:57

#Version: 2.2.20231116
#Station: R2.0S_Moscow
#Location: 37.707566 lon 55.798166 lat
#TLE: 1 37849U 11061A   26020.31993517  .00000142  00000+0  88240-4 0  9990
#TLE: 2 37849  98.7818 322.3228 0002330  54.3778 305.7615 14.19527005737466

#Time	Az	El	Level	Level2	SNR	BER	BlckErr	Temp	State	Recorded	gain1	gain2
2026-01-20 23:21:57.83	18.06	2.12	-41.4	-56.6	3.8	1.49e+00	0	49	0	0	54	20611
2026-01-20 23:21:58.84	18.09	2.18	-41.4	-56.6	3.8	1.49e+00	0	49	104	0	54	20622
2026-01-20 23:21:59.85	18.11	2.25	-41.4	-56.6	3.8	1.49e+00	0	49	104	0	54	20580
2026-01-20 23:22:00.86	18.13	2.31	-41.4	-56.6	3.8	1.49e+00	0	49	104	0	54	20595
2026-01-20 23:22:01.87	18.15	2.38	-41.4	-56.6	3.8	1.49e+00	0	49	104	0	54	20632
2026-01-20 23:22:02.88	18.17	2.44	-41.4	-56.6	3.8	1.49e+00	0	49	104	0	54	20577
2026-01-20 23:22:03.89	18.19	2.50	-41.4	-56.6	3.8	1.49e+00	0	49	104	0	54	20632
2026-01-20 23:22:04.90	18.22	2.57	-41.4	-56.6	3.8	1.49e+00	0	49	104	0	54	20554
2026-01-20 23:22:05.91	18.24	2.63	-41.4	-56.6	3.8	1.49e+00	0	50	104	0	54	20601
2026-01-20 23:22:06.92	18.26	2.70	-41.4	-56.6	3.8	1.49e+00	0	49	104	0	54	20619
2026-01-20 23:22:07.94	18.28	2.77	-41.4	-56.6	3.8	1.49e+00	0	50	104	0	54	20582
2026-01-20 23:22:08.95	18.30	2.83	-41.4	-56.6	3.8	1.49e+00	0	50	104	0	54	20564
2026-01-20 23:22:09.96	18.33	2.90	-41.4	-56.6	3.8	1.49e+00	0	50	104	0	54	20634
2026-01-20 23:22:10.97	18.35	2.96	-41.4	-56.6	3.8	1.49e+00	0	50	104	0	54	20596
2026-01-20 23:22:11.98	18.37	3.03	-41.4	-56.6	3.8	1.49e+00	0	50	104	0	54	20584
2026-01-20 23:22:12.99	18.39	3.09	-41.4	-56.6	3.8	1.49e+00	0	50	104	0	54	20656
2026-01-20 23:22:14.00	18.42	3.16	-41.4	-56.6	3.8	1.49e+00	0	50	104	0	54	20604
2026-01-20 23:22:15.01	18.44	3.23	-41.4	-56.6	3.8	1.49e+00	0	50	104	0	54	20578
2026-01-20 23:22:16.02	18.46	3.29	-41.4	-56.6	3.8	1.49e+00	0	50	104	0	54	20637
2026-01-20 23:22:17.03	18.48	3.36	-41.4	-56.6	3.8	1.49e+00	0	50	104	0	54	20553
2026-01-20 23:22:18.04	18.51	3.43	-41.4	-56.6	3.8	1.49e+00	0	50	104	0	54	20638
2026-01-20 23:22:19.05	18.53	3.49	-41.4	-56.6	3.8	1.49e+00	0	51	104	0	54	20595
2026-01-20 23:22:20.06	18.55	3.56	-41.4	-56.6	3.8	1.49e+00	0	50	104	0	54	20549
2026-01-20 23:22:21.07	18.58	3.63	-41.4	-56.6	3.8	1.49e+00	0	51	104	0	54	20632
2026-01-20 23:22:22.08	18.60	3.70	-41.4	-56.6	3.8	1.49e+00	0	51	104	0	54	20641
2026-01-20 23:22:23.09	18.62	3.76	-41.4	-56.6	3.8	1.49e+00	0	51	104	0	54	20598
2026-01-20 23:22:24.10	18.65	3.83	-41.4	-56.6	3.8	1.49e+00	0	51	104	0	54	20577
2026-01-20 23:22:25.11	18.67	3.90	-41.4	-56.6	3.8	1.49e+00	0	51	104	0	54	20643
2026-01-20 23:22:26.12	18.69	3.97	-41.4	-56.6	3.8	1.49e+00	0	51	104	0	54	20561
2026-01-20 23:22:27.13	18.72	4.04	-41.4	-56.6	3.8	1.49e+00	0	51	104	0	54	20570
2026-01-20 23:22:28.14	18.74	4.10	-41.4	-56.6	3.8	1.49e+00	0	51	104	0	54	20563
2026-01-20 23:22:29.15	18.76	4.17	-41.4	-56.6	3.8	1.49e+00	0	51	104	0	54	20582
2026-01-20 23:22:30.16	18.79	4.24	-41.4	-56.6	3.8	1.49e+00	0	51	104	0	54	20553
2026-01-20 23:22:31.17	18.81	4.31	-41.4	-56.6	3.8	1.49e+00	0	51	104	0	54	20574
2026-01-20 23:22:32.18	18.84	4.38	-41.4	-56.6	3.8	1.49e+00	0	51	104	0	54	20558
2026-01-20 23:22:33.19	18.86	4.45	-41.4	-56.5	3.8	1.49e+00	0	51	104	0	54	20523
2026-01-20 23:22:34.20	18.88	4.52	-41.4	-56.6	3.8	1.49e+00	0	51	104	0	54	20588
2026-01-20 23:22:35.21	18.91	4.59	-41.4	-56.6	3.8	1.49e+00	0	51	104	0	54	20545
2026-01-20 23:22:36.22	18.93	4.66	-41.4	-56.5	3.8	1.49e+00	0	51	104	0	54	20535
2026-01-20 23:22:37.23	18.96	4.73	-41.4	-56.5	3.8	1.49e+00	0	51	104	0	54	20533
2026-01-20 23:22:38.24	18.98	4.80	-41.4	-56.6	3.8	1.49e+00	0	51	104	0	54	20584
2026-01-20 23:22:39.25	19.01	4.87	-41.4	-56.6	3.8	1.49e+00	0	52	104	0	54	20585
2026-01-20 23:22:40.26	19.03	4.94	-41.4	-56.6	3.8	1.49e+00	0	51	104	0	54	20608
2026-01-20 23:22:41.28	19.06	5.01	-41.4	-56.6	3.8	1.49e+00	0	52	104	0	54	20564
2026-01-20 23:22:42.28	19.08	5.08	-41.4	-56.6	3.8	1.49e+00	0	52	104	0	54	20585
2026-01-20 23:22:43.29	19.11	5.15	-41.4	-56.6	3.8	1.49e+00	0	52	104	0	54	20619
2026-01-20 23:22:44.31	19.13	5.22	-41.4	-56.6	3.8	1.49e+00	0	52	104	0	54	20585
2026-01-20 23:22:45.32	19.16	5.30	-41.4	-56.6	3.8	1.49e+00	0	52	104	0	54	20606
2026-01-20 23:22:46.32	19.18	5.37	-41.4	-56.6	3.8	1.49e+00	0	52	104	0	54	20576
2026-01-20 23:22:47.34	19.21	5.44	-41.4	-56.6	3.8	1.49e+00	0	52	104	0	54	20547
2026-01-20 23:22:48.35	19.23	5.51	-41.4	-56.6	3.8	1.49e+00	0	52	104	0	54	20549
2026-01-20 23:22:49.36	19.26	5.58	-41.4	-56.6	3.8	1.49e+00	0	52	104	0	54	20605
2026-01-20 23:22:50.37	19.29	5.66	-41.4	-56.6	3.8	1.49e+00	0	52	104	0	54	20607
2026-01-20 23:22:51.38	19.31	5.73	-41.4	-56.6	3.8	1.49e+00	0	52	104	0	54	20581
2026-01-20 23:22:52.39	19.34	5.80	-41.4	-56.6	3.8	1.49e+00	0	52	104	0	54	20586
2026-01-20 23:22:53.40	19.36	5.88	-41.4	-56.6	3.8	1.49e+00	0	52	104	0	54	20575
2026-01-20 23:22:54.41	19.39	5.95	-41.4	-56.6	3.8	1.49e+00	0	52	104	0	54	20601
2026-01-20 23:22:55.42	19.42	6.02	-41.4	-56.5	3.8	1.49e+00	0	53	104	0	54	20522
2026-01-20 23:22:56.43	19.44	6.10	-41.4	-56.6	3.8	1.49e+00	0	53	104	0	54	20573
2026-01-20 23:22:57.44	19.47	6.17	-41.4	-56.5	3.8	1.49e+00	0	52	104	0	54	20525
2026-01-20 23:22:58.45	19.50	6.24	-41.4	-56.6	3.8	1.49e+00	0	53	104	0	54	20543
2026-01-20 23:22:59.46	19.52	6.32	-41.4	-56.5	3.8	1.49e+00	0	53	104	0	54	20480
2026-01-20 23:23:00.44	19.55	6.39	-41.4	-56.6	3.8	1.49e+00	0	53	104	0	54	20568
2026-01-20 23:23:01.45	19.58	6.47	-41.4	-56.6	3.8	1.49e+00	0	53	104	0	54	20570
2026-01-20 23:23:02.46	19.60	6.54	-41.4	-56.6	3.8	1.49e+00	0	53	104	0	54	20582
2026-01-20 23:23:03.47	19.63	6.62	-41.4	-56.5	3.8	1.49e+00	0	53	104	0	54	20517
2026-01-20 23:23:04.48	19.66	6.69	-41.4	-56.6	3.8	1.49e+00	0	53	104	0	54	20549
2026-01-20 23:23:05.49	19.69	6.77	-41.4	-56.5	3.8	1.49e+00	0	53	104	0	54	20495
2026-01-20 23:23:06.50	19.71	6.84	-41.4	-56.5	3.8	1.49e+00	0	53	104	0	54	20497
2026-01-20 23:23:07.51	19.74	6.92	-41.4	-56.5	3.8	1.49e+00	0	53	104	0	54	20486
2026-01-20 23:23:08.52	19.77	6.99	-41.4	-56.5	3.8	1.49e+00	0	53	104	0	54	20413
2026-01-20 23:23:09.53	19.80	7.07	-41.4	-56.5	3.8	1.49e+00	0	53	104	0	54	20431
2026-01-20 23:23:10.54	19.83	7.15	-41.4	-56.5	3.8	1.49e+00	0	53	104	0	54	20454
2026-01-20 23:23:11.55	19.85	7.23	-41.4	-56.5	3.8	1.49e+00	0	53	104	0	54	20370
2026-01-20 23:23:12.57	19.88	7.30	-41.4	-56.4	3.8	1.49e+00	0	53	104	0	54	20252
2026-01-20 23:23:13.58	19.91	7.38	-41.4	-56.4	3.8	1.49e+00	0	53	104	0	54	20207
2026-01-20 23:23:14.59	19.94	7.46	-41.4	-56.4	3.8	1.49e+00	0	53	104	0	54	20076
2026-01-20 23:23:15.60	19.97	7.54	-41.4	-56.3	3.8	1.49e+00	0	53	104	0	54	19898
2026-01-20 23:23:16.61	20.00	7.61	-41.4	-56.1	3.8	1.49e+00	0	54	104	0	54	19430
2026-01-20 23:23:17.62	20.03	7.69	-41.4	-55.9	3.8	1.49e+00	0	54	104	0	54	19114
2026-01-20 23:23:18.63	20.06	7.77	-41.4	-55.8	3.8	1.49e+00	0	53	104	0	54	18860
2026-01-20 23:23:19.64	20.08	7.85	-41.3	-55.7	3.8	1.49e+00	0	53	104	0	54	18730
2026-01-20 23:23:20.65	20.11	7.93	-41.4	-55.7	3.8	1.49e+00	0	53	104	0	54	18582
2026-01-20 23:23:21.66	20.14	8.01	-41.4	-55.4	3.8	1.49e+00	0	53	104	0	54	18077
2026-01-20 23:23:22.67	20.17	8.09	-41.8	-54.8	3.8	1.49e+00	0	54	104	0	54	16775
2026-01-20 23:23:23.67	20.20	8.17	-42.4	-53.7	4.3	1.43e+00	0	54	0	0	55	13949
2026-01-20 23:23:24.68	20.23	8.25	-41.2	-55.4	3.8	9.62e-01	0	54	104	1048576	54	18039
2026-01-20 23:23:25.69	20.26	8.33	-41.4	-56.3	3.8	1.49e+00	0	54	104	1048576	54	20006
2026-01-20 23:23:26.70	20.29	8.41	-41.7	-48.6	7.6	1.10e+00	0	54	104	1048576	54	8209
2026-01-20 23:23:27.71	20.32	8.49	-41.6	-48.0	8.3	1.34e-01	0	54	0	2097152	54	7652
2026-01-20 23:23:28.72	20.35	8.57	-41.3	-47.0	9.3	2.81e-02	0	54	0	4194304	54	6825
2026-01-20 23:23:29.73	20.39	8.65	-41.1	-46.5	9.9	9.33e-03	0	54	0	6291456	54	6422
2026-01-20 23:23:30.74	20.42	8.73	-41.2	-46.5	9.9	8.07e-03	0	54	0	8388608	54	6446
2026-01-20 23:23:31.75	20.45	8.81	-41.3	-46.8	9.6	9.34e-03	0	54	0	9437184	54	6651
2026-01-20 23:23:32.76	20.48	8.90	-41.5	-47.3	9.1	1.48e-02	0	54	0	11534336	54	7064
2026-01-20 23:23:33.77	20.51	8.98	-41.5	-47.2	9.1	2.46e-02	0	54	0	13631488	54	7040
2026-01-20 23:23:34.78	20.54	9.06	-41.5	-47.2	9.2	2.33e-02	0	54	0	15728640	54	7004
2026-01-20 23:23:35.79	20.57	9.14	-41.4	-46.9	9.6	1.62e-02	0	54	0	17825792	54	6740
2026-01-20 23:23:36.80	20.60	9.23	-41.5	-46.8	9.7	1.16e-02	0	54	0	18874368	54	6712
2026-01-20 23:23:37.81	20.64	9.31	-41.6	-47.1	9.4	1.48e-02	0	54	0	20971520	54	6957
2026-01-20 23:23:38.82	20.67	9.40	-41.6	-47.2	9.4	1.50e-02	0	54	0	23068672	54	7023
2026-01-20 23:23:39.83	20.70	9.48	-41.6	-46.9	9.8	1.29e-02	0	54	0	25165824	54	6793
2026-01-20 23:23:40.83	20.73	9.56	-41.5	-46.8	9.9	8.97e-03	0	54	0	27262976	54	6713
2026-01-20 23:23:41.84	20.77	9.65	-41.6	-47.1	9.7	9.60e-03	0	54	0	28311552	54	6892
2026-01-20 23:23:42.85	20.80	9.73	-41.6	-46.8	10.0	8.80e-03	0	54	0	30408704	54	6689
2026-01-20 23:23:43.86	20.83	9.82	-41.6	-46.8	10.1	6.41e-03	0	54	0	32505856	54	6678
2026-01-20 23:23:44.87	20.86	9.90	-41.7	-47.0	10.0	8.28e-03	0	54	0	34603008	54	6806
2026-01-20 23:23:45.88	20.90	9.99	-41.7	-46.8	10.2	5.80e-03	0	54	0	36700160	54	6681
2026-01-20 23:23:46.89	20.93	10.07	-41.9	-47.1	10.0	6.81e-03	0	54	0	37748736	54	6910
2026-01-20 23:23:47.90	20.96	10.16	-41.8	-46.8	10.2	6.86e-03	0	54	0	39845888	54	6688
2026-01-20 23:23:48.91	21.00	10.25	-41.8	-46.9	10.3	5.09e-03	0	54	0	41943040	54	6763
2026-01-20 23:23:49.92	21.03	10.33	-41.8	-46.9	10.2	7.75e-03	0	55	0	44040192	54	6732
2026-01-20 23:23:50.93	21.07	10.42	-41.9	-46.9	10.2	5.84e-03	0	54	0	46137344	54	6776
2026-01-20 23:23:51.94	21.10	10.51	-41.9	-46.9	10.2	5.44e-03	0	55	0	47185920	54	6758
2026-01-20 23:23:52.95	21.13	10.60	-41.8	-46.7	10.5	5.14e-03	0	55	0	49283072	54	6626
2026-01-20 23:23:53.96	21.17	10.69	-41.9	-46.8	10.3	3.86e-03	0	55	0	51380224	54	6690
2026-01-20 23:23:54.97	21.20	10.77	-41.9	-46.6	10.6	4.11e-03	0	55	0	53477376	54	6570
2026-01-20 23:23:55.98	21.24	10.86	-41.8	-46.5	10.8	3.46e-03	0	55	0	55574528	54	6466
2026-01-20 23:23:56.99	21.27	10.95	-41.9	-46.6	10.7	2.54e-03	0	55	0	56623104	54	6534
2026-01-20 23:23:57.99	21.31	11.04	-41.9	-46.6	10.7	3.49e-03	0	55	0	58720256	54	6529
2026-01-20 23:23:59.00	21.35	11.13	-41.9	-46.7	10.7	2.77e-03	0	55	0	60817408	54	6605
2026-01-20 23:24:00.01	21.38	11.22	-41.9	-46.6	10.8	3.01e-03	0	55	0	62914560	54	6526
2026-01-20 23:24:01.02	21.42	11.31	-41.8	-46.4	11.0	2.21e-03	0	55	0	65011712	54	6372
2026-01-20 23:24:02.03	21.45	11.40	-41.9	-46.5	10.9	1.72e-03	0	55	0	67108864	54	6455
2026-01-20 23:24:03.04	21.49	11.49	-41.9	-46.4	11.0	1.91e-03	0	55	0	68157440	54	6383
2026-01-20 23:24:04.05	21.53	11.58	-41.8	-46.4	11.0	1.73e-03	0	55	0	70254592	54	6364
2026-01-20 23:24:05.05	21.56	11.67	-41.9	-46.3	11.1	1.38e-03	0	55	0	72351744	54	6331
2026-01-20 23:24:06.06	21.60	11.77	-41.9	-46.3	11.2	1.54e-03	0	55	0	74448896	54	6337
2026-01-20 23:24:07.07	21.64	11.86	-41.8	-46.2	11.4	1.20e-03	0	55	0	76546048	54	6209
2026-01-20 23:24:08.08	21.67	11.95	-41.8	-46.1	11.4	9.57e-04	0	55	0	77594624	54	6197
2026-01-20 23:24:09.09	21.71	12.04	-41.9	-46.3	11.2	1.11e-03	0	55	0	79691776	54	6317
2026-01-20 23:24:10.10	21.75	12.14	-41.8	-46.2	11.4	1.07e-03	0	55	0	81788928	54	6214
2026-01-20 23:24:11.11	21.79	12.23	-41.8	-46.2	11.3	9.74e-04	0	55	0	83886080	54	6235
2026-01-20 23:24:12.12	21.83	12.33	-41.8	-46.1	11.5	9.30e-04	0	55	0	84934656	54	6138
2026-01-20 23:24:13.13	21.86	12.42	-41.8	-46.1	11.5	9.96e-04	0	55	0	87031808	54	6171
2026-01-20 23:24:14.14	21.90	12.51	-41.7	-45.9	11.6	6.58e-04	0	55	0	89128960	54	6045
2026-01-20 23:24:15.15	21.94	12.61	-41.7	-45.9	11.7	5.40e-04	0	55	0	91226112	54	6040
2026-01-20 23:24:16.16	21.98	12.71	-41.8	-46.0	11.6	5.63e-04	0	55	0	93323264	54	6070
2026-01-20 23:24:17.17	22.02	12.80	-41.8	-46.1	11.6	4.90e-04	0	55	0	95420416	54	6148
2026-01-20 23:24:18.18	22.06	12.90	-41.8	-46.0	11.6	7.47e-04	0	55	0	96468992	54	6113
2026-01-20 23:24:19.19	22.10	12.99	-41.8	-46.0	11.7	7.51e-04	0	55	0	98566144	54	6099
2026-01-20 23:24:20.20	22.14	13.09	-41.8	-46.1	11.6	6.54e-04	0	55	0	100663296	54	6141
2026-01-20 23:24:21.21	22.18	13.19	-41.7	-45.9	11.7	6.53e-04	0	55	0	102760448	54	6040
2026-01-20 23:24:22.22	22.22	13.29	-41.9	-46.1	11.6	5.95e-04	0	56	0	104857600	54	6177
2026-01-20 23:24:23.23	22.26	13.38	-41.8	-45.9	11.8	5.43e-04	0	55	0	105906176	54	6019
2026-01-20 23:24:24.24	22.30	13.48	-41.7	-45.8	11.9	4.37e-04	0	56	0	108003328	54	5983
2026-01-20 23:24:25.24	22.34	13.58	-41.7	-45.8	11.9	4.68e-04	0	56	0	110100480	54	5989
2026-01-20 23:24:26.25	22.38	13.68	-41.8	-45.9	11.8	5.05e-04	0	55	0	112197632	54	6020
2026-01-20 23:24:27.26	22.43	13.78	-41.7	-45.7	12.1	3.17e-04	0	55	0	114294784	54	5858
2026-01-20 23:24:28.27	22.47	13.88	-41.7	-45.8	12.0	3.41e-04	0	55	0	115343360	54	5926
2026-01-20 23:24:29.28	22.51	13.98	-41.7	-45.7	12.0	3.33e-04	0	56	0	117440512	54	5908
2026-01-20 23:24:30.29	22.55	14.08	-41.7	-45.7	12.0	3.25e-04	0	55	0	119537664	54	5896
2026-01-20 23:24:31.30	22.59	14.18	-41.7	-45.7	12.1	2.55e-04	0	56	0	121634816	54	5863
2026-01-20 23:24:32.31	22.64	14.28	-41.5	-45.4	12.4	1.88e-04	0	55	0	123731968	54	5672
2026-01-20 23:24:33.32	22.68	14.39	-41.6	-45.5	12.3	2.14e-04	0	56	0	124780544	54	5741
2026-01-20 23:24:34.33	22.72	14.49	-41.7	-45.6	12.2	2.26e-04	0	56	0	126877696	54	5790
2026-01-20 23:24:35.34	22.77	14.59	-41.7	-45.7	12.1	1.85e-04	0	56	0	128974848	54	5869
2026-01-20 23:24:36.35	22.81	14.70	-41.6	-45.5	12.3	2.61e-04	0	56	0	131072000	54	5762
2026-01-20 23:24:37.36	22.86	14.80	-41.7	-45.6	12.2	2.48e-04	0	56	0	133169152	54	5793
2026-01-20 23:24:38.37	22.90	14.90	-41.5	-45.3	12.5	1.48e-04	0	55	0	134217728	54	5624
2026-01-20 23:24:39.38	22.95	15.01	-41.6	-45.4	12.4	1.48e-04	0	56	0	136314880	54	5718
2026-01-20 23:24:40.39	22.99	15.11	-41.6	-45.4	12.5	1.63e-04	0	55	0	138412032	54	5691
2026-01-20 23:24:41.40	23.04	15.22	-41.7	-45.6	12.3	1.19e-04	0	56	0	140509184	54	5802
2026-01-20 23:24:42.41	23.08	15.33	-41.7	-45.5	12.3	1.79e-04	0	56	0	142606336	54	5776
2026-01-20 23:24:43.41	23.13	15.43	-41.7	-45.6	12.2	1.83e-04	0	55	0	143654912	54	5825
2026-01-20 23:24:44.42	23.17	15.54	-41.7	-45.6	12.2	1.75e-04	0	56	0	145752064	54	5851
2026-01-20 23:24:45.43	23.22	15.65	-41.7	-45.6	12.3	2.54e-04	0	56	0	147849216	54	5842
2026-01-20 23:24:46.44	23.27	15.75	-41.7	-45.6	12.3	1.73e-04	0	56	0	149946368	54	5829
2026-01-20 23:24:47.45	23.32	15.86	-41.7	-45.6	12.3	1.64e-04	0	56	0	152043520	54	5849
2026-01-20 23:24:48.46	23.36	15.97	-41.8	-45.7	12.3	3.07e-04	0	56	0	153092096	54	5874
2026-01-20 23:24:49.47	23.41	16.08	-41.8	-45.7	12.3	1.85e-04	0	56	0	155189248	54	5900
2026-01-20 23:24:50.48	23.46	16.19	-41.8	-45.8	12.2	2.23e-04	0	56	0	157286400	54	5936
2026-01-20 23:24:51.49	23.51	16.30	-41.8	-45.8	12.2	3.13e-04	0	56	0	159383552	54	5936
2026-01-20 23:24:52.50	23.56	16.41	-41.8	-45.7	12.3	1.98e-04	0	56	0	161480704	54	5889
2026-01-20 23:24:53.51	23.61	16.52	-41.9	-45.9	12.0	2.89e-04	0	56	0	163577856	54	6057
2026-01-20 23:24:54.52	23.66	16.63	-41.9	-45.8	12.1	2.30e-04	0	56	0	164626432	54	5981
2026-01-20 23:24:55.53	23.71	16.75	-41.8	-45.8	12.2	2.13e-04	0	56	0	166723584	54	5928
2026-01-20 23:24:56.54	23.76	16.86	-41.9	-45.9	12.1	2.97e-04	0	56	0	168820736	54	6000
2026-01-20 23:24:57.55	23.81	16.97	-41.9	-45.8	12.2	1.92e-04	0	56	0	170917888	54	5929
2026-01-20 23:24:58.56	23.86	17.09	-41.8	-45.6	12.4	2.02e-04	0	56	0	173015040	54	5808
2026-01-20 23:24:59.57	23.91	17.20	-41.9	-45.8	12.2	2.39e-04	0	56	0	174063616	54	5957
2026-01-20 23:25:00.57	23.96	17.31	-41.9	-45.7	12.3	1.80e-04	0	56	0	176160768	54	5907
2026-01-20 23:25:01.58	24.01	17.43	-41.9	-45.8	12.2	2.48e-04	0	56	0	178257920	54	5958
2026-01-20 23:25:02.59	24.06	17.55	-42.0	-46.0	12.0	1.94e-04	0	56	0	180355072	54	6064
2026-01-20 23:25:03.60	24.12	17.66	-41.9	-45.8	12.2	2.39e-04	0	56	0	182452224	54	5975
2026-01-20 23:25:04.61	24.17	17.78	-42.0	-46.0	12.0	3.13e-04	0	56	0	183500800	54	6106
2026-01-20 23:25:05.62	24.22	17.90	-41.9	-45.9	12.2	2.94e-04	0	56	0	185597952	54	5995
2026-01-20 23:25:06.63	24.28	18.01	-42.0	-46.0	12.0	2.78e-04	0	56	0	187695104	54	6116
2026-01-20 23:25:07.64	24.33	18.13	-42.1	-46.2	11.9	3.85e-04	0	56	0	189792256	54	6203
2026-01-20 23:25:08.65	24.39	18.25	-42.1	-46.2	11.9	2.90e-04	0	56	0	191889408	54	6222
2026-01-20 23:25:09.66	24.44	18.37	-42.1	-46.2	11.9	4.32e-04	0	56	0	192937984	54	6210
2026-01-20 23:25:10.67	24.50	18.49	-42.1	-46.3	11.8	5.10e-04	0	56	0	195035136	54	6280
2026-01-20 23:25:11.67	24.55	18.61	-42.1	-46.1	11.9	5.54e-04	0	56	0	197132288	54	6195
2026-01-20 23:25:12.68	24.61	18.73	-42.2	-46.3	11.8	3.46e-04	0	56	0	199229440	54	6280
2026-01-20 23:25:13.69	24.66	18.85	-42.2	-46.4	11.7	6.66e-04	0	56	0	201326592	55	6018
2026-01-20 23:25:14.71	24.72	18.98	-42.1	-46.2	11.8	6.18e-04	0	56	0	202375168	55	5895
2026-01-20 23:25:15.72	24.78	19.10	-42.2	-46.5	11.6	5.81e-04	0	56	0	204472320	55	6065
2026-01-20 23:25:16.73	24.84	19.22	-42.2	-46.3	11.8	6.18e-04	0	56	0	206569472	55	5961
2026-01-20 23:25:17.74	24.90	19.35	-42.2	-46.3	11.7	4.58e-04	0	56	0	208666624	55	5986
2026-01-20 23:25:18.75	24.96	19.47	-42.2	-46.3	11.8	5.74e-04	0	56	0	210763776	55	5953
2026-01-20 23:25:19.76	25.01	19.60	-42.3	-46.6	11.4	6.38e-04	0	56	0	211812352	55	6195
2026-01-20 23:25:20.77	25.07	19.73	-42.4	-46.7	11.4	7.99e-04	0	57	0	213909504	55	6209
2026-01-20 23:25:21.77	25.13	19.85	-42.4	-46.7	11.4	8.49e-04	0	57	0	216006656	55	6246
2026-01-20 23:25:22.78	25.19	19.98	-42.3	-46.6	11.5	1.11e-03	0	56	0	218103808	55	6148
2026-01-20 23:25:23.79	25.26	20.11	-42.4	-46.7	11.4	1.06e-03	0	56	0	220200960	55	6239
2026-01-20 23:25:24.80	25.32	20.24	-42.5	-46.9	11.3	1.17e-03	0	57	0	221249536	55	6382
2026-01-20 23:25:25.81	25.38	20.36	-42.4	-46.7	11.4	1.16e-03	0	56	0	223346688	55	6245
2026-01-20 23:25:26.82	25.44	20.49	-42.5	-47.0	11.1	1.27e-03	0	57	0	225443840	55	6444
2026-01-20 23:25:27.83	25.51	20.62	-42.4	-46.8	11.3	1.40e-03	0	57	0	227540992	55	6326
2026-01-20 23:25:28.84	25.57	20.76	-42.4	-46.9	11.3	1.26e-03	0	56	0	229638144	55	6354
2026-01-20 23:25:29.85	25.63	20.89	-42.4	-46.8	11.4	1.29e-03	0	56	0	231735296	55	6294
2026-01-20 23:25:30.86	25.70	21.02	-42.4	-46.7	11.5	9.47e-04	0	56	0	232783872	55	6216
2026-01-20 23:25:31.87	25.76	21.15	-42.2	-46.3	11.8	7.19e-04	0	56	0	234881024	55	5964
2026-01-20 23:25:32.88	25.83	21.29	-42.2	-46.3	11.9	4.70e-04	0	56	0	236978176	55	5964
2026-01-20 23:25:33.88	25.89	21.42	-42.1	-46.0	12.2	3.52e-04	0	56	0	239075328	55	5770
2026-01-20 23:25:34.90	25.96	21.56	-42.0	-45.9	12.3	1.98e-04	0	57	0	241172480	55	5665
2026-01-20 23:25:35.90	26.03	21.69	-42.0	-45.8	12.4	2.01e-04	0	57	0	242221056	55	5631
2026-01-20 23:25:36.91	26.10	21.83	-42.0	-45.8	12.4	1.40e-04	0	56	0	244318208	55	5633
2026-01-20 23:25:37.92	26.16	21.97	-41.9	-45.6	12.6	1.32e-04	0	56	0	246415360	55	5506
2026-01-20 23:25:38.93	26.23	22.10	-42.0	-45.8	12.4	1.07e-04	0	57	0	248512512	55	5613
2026-01-20 23:25:39.94	26.30	22.24	-42.0	-45.7	12.5	1.06e-04	0	57	0	250609664	55	5567
2026-01-20 23:25:40.95	26.37	22.38	-41.7	-45.3	13.0	6.33e-05	0	57	0	251658240	55	5296
2026-01-20 23:25:41.96	26.44	22.52	-41.9	-45.6	12.6	9.38e-05	0	57	0	253755392	55	5495
2026-01-20 23:25:42.97	26.52	22.66	-41.8	-45.3	12.9	5.72e-05	0	57	0	255852544	55	5328
2026-01-20 23:25:43.98	26.59	22.81	-41.8	-45.3	12.9	3.66e-05	0	57	0	257949696	55	5324
2026-01-20 23:25:44.99	26.66	22.95	-41.7	-45.2	13.1	4.80e-05	0	57	0	260046848	55	5235
2026-01-20 23:25:46.00	26.73	23.09	-41.7	-45.2	13.1	3.28e-05	0	57	0	261095424	55	5230
2026-01-20 23:25:47.01	26.81	23.23	-41.6	-45.0	13.3	2.05e-05	0	57	0	263192576	55	5126
2026-01-20 23:25:48.02	26.88	23.38	-41.6	-45.1	13.2	1.98e-05	0	57	0	265289728	55	5168
2026-01-20 23:25:49.03	26.96	23.53	-41.5	-44.9	13.4	1.06e-05	0	57	0	267386880	54	5346
2026-01-20 23:25:50.04	27.03	23.67	-41.6	-44.9	13.3	1.37e-05	0	57	0	269484032	54	5400
2026-01-20 23:25:51.05	27.11	23.82	-41.5	-44.8	13.5	1.75e-05	0	57	0	270532608	54	5322
2026-01-20 23:25:52.06	27.19	23.97	-41.5	-44.8	13.6	6.80e-06	0	57	0	272629760	54	5290
2026-01-20 23:25:53.06	27.26	24.11	-41.5	-44.8	13.5	8.30e-06	0	57	0	274726912	54	5308
2026-01-20 23:25:54.07	27.34	24.26	-41.6	-44.9	13.4	1.29e-05	0	57	0	276824064	54	5386
2026-01-20 23:25:55.08	27.42	24.41	-41.5	-44.8	13.5	9.10e-06	0	57	0	278921216	54	5332
2026-01-20 23:25:56.09	27.50	24.56	-41.6	-45.0	13.3	1.52e-05	0	57	0	279969792	54	5411
2026-01-20 23:25:57.10	27.58	24.72	-41.5	-44.8	13.6	1.06e-05	0	57	0	282066944	54	5288
2026-01-20 23:25:58.11	27.66	24.87	-41.4	-44.7	13.6	3.00e-06	0	57	0	284164096	54	5235
2026-01-20 23:25:59.12	27.75	25.02	-41.5	-44.8	13.5	7.60e-06	0	57	0	286261248	54	5318
2026-01-20 23:26:00.13	27.83	25.18	-41.4	-44.6	13.7	6.10e-06	0	57	0	288358400	54	5208
2026-01-20 23:26:01.14	27.91	25.33	-41.4	-44.7	13.7	6.10e-06	0	57	0	289406976	54	5232
2026-01-20 23:26:02.15	28.00	25.49	-41.6	-45.0	13.3	8.30e-06	0	57	0	291504128	54	5451
2026-01-20 23:26:03.16	28.08	25.65	-41.6	-44.9	13.4	6.10e-06	0	57	0	293601280	54	5363
2026-01-20 23:26:04.17	28.17	25.80	-41.7	-45.1	13.2	8.30e-06	0	57	0	295698432	54	5516
2026-01-20 23:26:05.18	28.26	25.96	-41.6	-45.1	13.3	1.52e-05	0	57	0	297795584	54	5467
2026-01-20 23:26:06.19	28.34	26.12	-41.7	-45.2	13.1	1.60e-05	0	57	0	299892736	54	5556
2026-01-20 23:26:07.20	28.43	26.28	-41.7	-45.2	13.2	2.89e-05	0	57	0	300941312	54	5552
2026-01-20 23:26:08.20	28.52	26.44	-41.7	-45.2	13.1	2.44e-05	0	57	0	303038464	54	5543
2026-01-20 23:26:09.21	28.61	26.60	-41.6	-45.0	13.3	1.90e-05	0	57	0	305135616	54	5428
2026-01-20 23:26:10.22	28.70	26.77	-41.6	-44.9	13.4	9.10e-06	0	57	0	307232768	54	5364
2026-01-20 23:26:11.23	28.80	26.93	-41.6	-45.0	13.3	2.51e-05	0	57	0	309329920	54	5457
2026-01-20 23:26:12.24	28.89	27.10	-41.6	-45.0	13.4	1.22e-05	0	57	0	310378496	54	5408
2026-01-20 23:26:13.25	28.98	27.26	-41.7	-45.2	13.1	1.60e-05	0	57	0	312475648	54	5551
2026-01-20 23:26:14.26	29.08	27.43	-41.7	-45.0	13.3	2.74e-05	0	57	0	314572800	54	5453
2026-01-20 23:26:15.27	29.17	27.60	-41.7	-45.0	13.3	9.10e-06	0	57	0	316669952	54	5459
2026-01-20 23:26:16.28	29.27	27.77	-41.7	-45.0	13.4	3.80e-06	0	57	0	318767104	54	5433
2026-01-20 23:26:17.29	29.37	27.94	-41.7	-45.1	13.2	1.83e-05	0	57	0	319815680	54	5528
2026-01-20 23:26:18.30	29.47	28.11	-41.8	-45.4	13.0	1.60e-05	0	57	0	321912832	54	5675
2026-01-20 23:26:19.31	29.57	28.28	-41.8	-45.2	13.2	1.98e-05	0	57	0	324009984	54	5550
2026-01-20 23:26:20.32	29.67	28.45	-41.7	-45.2	13.2	2.59e-05	0	57	0	326107136	54	5533
2026-01-20 23:26:21.33	29.77	28.63	-41.8	-45.3	13.1	5.26e-05	0	57	0	328204288	54	5599
2026-01-20 23:26:22.34	29.87	28.80	-41.9	-45.4	13.0	3.43e-05	0	57	0	329252864	54	5679
2026-01-20 23:26:23.35	29.98	28.98	-41.9	-45.5	12.8	4.42e-05	0	57	0	331350016	54	5779
2026-01-20 23:26:24.36	30.08	29.15	-42.0	-45.6	12.8	3.28e-05	0	57	0	333447168	54	5797
2026-01-20 23:26:25.37	30.19	29.33	-42.0	-45.7	12.8	1.01e-04	0	57	0	335544320	54	5864
2026-01-20 23:26:26.38	30.30	29.51	-42.0	-45.6	12.7	7.85e-05	0	57	0	337641472	54	5845
2026-01-20 23:26:27.39	30.41	29.69	-42.2	-46.1	12.4	6.56e-05	0	57	0	338690048	54	6135
2026-01-20 23:26:28.39	30.51	29.87	-42.2	-46.0	12.5	2.75e-04	0	57	0	340787200	55	5728
2026-01-20 23:26:29.40	30.63	30.05	-42.4	-46.4	12.0	2.34e-04	0	57	0	342884352	55	6037
2026-01-20 23:26:30.41	30.74	30.23	-42.4	-46.4	11.9	4.52e-04	0	57	0	344981504	55	6021
2026-01-20 23:26:31.42	30.85	30.42	-42.7	-47.0	11.3	7.49e-04	0	57	0	347078656	55	6466
2026-01-20 23:26:32.43	30.97	30.60	-42.9	-47.4	11.1	1.37e-03	0	57	0	348127232	56	6415
2026-01-20 23:26:33.44	31.08	30.79	-43.0	-47.5	11.0	1.43e-03	0	57	0	350224384	56	6441
2026-01-20 23:26:34.45	31.20	30.98	-43.1	-47.9	10.6	2.32e-03	0	57	0	352321536	56	6791
2026-01-20 23:26:35.46	31.32	31.16	-43.4	-48.5	10.0	5.73e-03	0	57	0	354418688	57	6856
2026-01-20 23:26:36.47	31.44	31.35	-43.5	-48.8	9.7	1.04e-02	0	57	0	356515840	57	7098
2026-01-20 23:26:37.48	31.56	31.54	-43.8	-49.8	8.6	1.79e-02	0	57	0	357564416	58	7524
2026-01-20 23:26:38.49	31.68	31.74	-43.9	-50.1	8.3	3.55e-02	0	57	0	359661568	58	7806
2026-01-20 23:26:39.50	31.81	31.93	-44.0	-50.4	8.0	5.71e-02	0	57	0	361758720	58	8077
2026-01-20 23:26:40.51	31.93	32.12	-44.0	-50.3	8.1	8.55e-02	0	57	0	363855872	58	7964
2026-01-20 23:26:41.52	32.06	32.32	-44.0	-50.5	8.0	4.93e-02	0	57	0	365953024	58	8156
2026-01-20 23:26:42.53	32.19	32.51	-43.9	-50.2	8.2	5.50e-02	0	57	0	368050176	58	7861
2026-01-20 23:26:43.54	32.32	32.71	-43.9	-49.9	8.6	4.38e-02	0	57	0	369098752	58	7599
2026-01-20 23:26:44.55	32.45	32.91	-43.7	-49.3	9.2	3.69e-02	0	57	0	371195904	58	7065
2026-01-20 23:26:45.56	32.58	33.11	-43.6	-49.1	9.4	2.50e-02	0	57	0	373293056	58	6902
2026-01-20 23:26:46.56	32.72	33.31	-43.6	-49.1	9.3	1.81e-02	0	57	0	375390208	58	6927
2026-01-20 23:26:47.57	32.85	33.51	-43.5	-48.7	9.9	1.25e-02	0	58	0	377487360	58	6579
2026-01-20 23:26:48.58	32.99	33.71	-43.3	-48.2	10.3	6.46e-03	0	57	0	378535936	58	6223
2026-01-20 23:26:49.59	33.13	33.92	-43.2	-48.0	10.6	4.37e-03	0	57	0	380633088	58	6071
2026-01-20 23:26:50.60	33.27	34.12	-43.0	-47.5	11.0	3.26e-03	0	57	0	382730240	58	5758
2026-01-20 23:26:51.61	33.42	34.33	-43.0	-47.6	11.0	2.20e-03	0	57	0	384827392	57	6134
2026-01-20 23:26:52.62	33.56	34.54	-43.1	-47.6	10.9	1.94e-03	0	57	0	385875968	57	6200
2026-01-20 23:26:53.63	33.71	34.75	-43.0	-47.4	11.1	1.38e-03	0	57	0	387973120	57	6050
2026-01-20 23:26:54.64	33.86	34.96	-43.1	-47.7	10.9	2.31e-03	0	57	0	390070272	57	6235
2026-01-20 23:26:55.64	34.00	35.17	-43.1	-47.7	10.8	2.34e-03	0	57	0	392167424	57	6270
2026-01-20 23:26:56.65	34.16	35.38	-43.3	-48.1	10.4	3.64e-03	0	57	0	394264576	57	6567
2026-01-20 23:26:57.66	34.31	35.59	-43.3	-48.2	10.3	3.99e-03	0	57	0	396361728	57	6627
2026-01-20 23:26:58.67	34.47	35.81	-43.4	-48.6	10.0	6.85e-03	0	57	0	397410304	57	6902
2026-01-20 23:26:59.68	34.63	36.03	-43.5	-48.7	9.9	9.80e-03	0	58	0	399507456	57	6968
2026-01-20 23:27:00.69	34.79	36.24	-43.6	-48.9	9.5	1.06e-02	0	57	0	401604608	57	7193
2026-01-20 23:27:01.70	34.95	36.46	-43.6	-49.1	9.5	1.30e-02	0	57	0	403701760	57	7300
2026-01-20 23:27:02.71	35.11	36.68	-43.5	-48.8	9.7	1.13e-02	0	57	0	405798912	57	7089
2026-01-20 23:27:03.72	35.28	36.90	-43.5	-48.6	9.9	1.04e-02	0	57	0	406847488	57	6930
2026-01-20 23:27:04.73	35.45	37.13	-43.5	-48.6	9.9	5.59e-03	0	57	0	408944640	57	6886
2026-01-20 23:27:05.74	35.62	37.35	-43.3	-48.2	10.4	7.91e-03	0	57	0	411041792	57	6638
2026-01-20 23:27:06.75	35.80	37.58	-43.3	-48.1	10.4	6.00e-03	0	57	0	413138944	57	6554
2026-01-20 23:27:07.76	35.97	37.80	-43.3	-48.2	10.4	5.52e-03	0	57	0	415236096	57	6573
2026-01-20 23:27:08.77	36.15	38.03	-43.6	-48.9	9.7	7.82e-03	0	57	0	416284672	57	7178
2026-01-20 23:27:09.78	36.33	38.26	-43.5	-48.8	9.7	1.11e-02	0	57	0	418381824	57	7114
2026-01-20 23:27:10.79	36.52	38.49	-43.7	-49.3	9.2	1.77e-02	0	57	0	420478976	58	7108
2026-01-20 23:27:11.80	36.70	38.72	-43.8	-49.4	9.2	1.90e-02	0	58	0	422576128	58	7176
2026-01-20 23:27:12.81	36.89	38.95	-43.6	-49.0	9.6	2.67e-02	0	57	0	424673280	58	6834
2026-01-20 23:27:13.81	37.08	39.18	-43.5	-48.7	9.8	1.08e-02	0	57	0	425721856	58	6637
2026-01-20 23:27:14.82	37.27	39.42	-43.6	-49.0	9.6	1.41e-02	0	57	0	427819008	58	6841
2026-01-20 23:27:15.83	37.47	39.66	-43.6	-48.9	9.7	1.01e-02	0	58	0	429916160	58	6769
2026-01-20 23:27:16.84	37.67	39.89	-43.6	-48.9	9.7	1.26e-02	0	57	0	432013312	58	6771
2026-01-20 23:27:17.85	37.87	40.13	-43.6	-48.9	9.6	9.20e-03	0	57	0	434110464	58	6800
2026-01-20 23:27:18.86	38.08	40.37	-43.7	-49.1	9.6	8.86e-03	0	57	0	435159040	58	6898
2026-01-20 23:27:19.87	38.29	40.61	-43.5	-48.6	10.0	8.76e-03	0	57	0	437256192	58	6518
2026-01-20 23:27:20.88	38.50	40.86	-43.6	-48.9	9.7	7.22e-03	0	58	0	439353344	58	6740
2026-01-20 23:27:21.89	38.71	41.10	-43.4	-48.5	10.2	8.69e-03	0	58	0	441450496	58	6435
2026-01-20 23:27:22.90	38.93	41.35	-43.5	-48.6	10.0	6.74e-03	0	57	0	443547648	58	6538
2026-01-20 23:27:23.91	39.15	41.59	-43.3	-48.1	10.6	4.48e-03	0	57	0	444596224	58	6135
2026-01-20 23:27:24.92	39.38	41.84	-43.5	-48.7	9.9	4.23e-03	0	57	0	446693376	58	6572
2026-01-20 23:27:25.93	39.61	42.09	-43.4	-48.2	10.4	4.63e-03	0	57	0	448790528	58	6256
2026-01-20 23:27:26.94	39.84	42.34	-43.3	-47.9	10.8	3.83e-03	0	57	0	450887680	58	6024
2026-01-20 23:27:27.95	40.07	42.59	-43.3	-48.0	10.6	1.84e-03	0	57	0	452984832	58	6088
2026-01-20 23:27:28.96	40.31	42.84	-43.3	-48.1	10.5	4.38e-03	0	58	0	454033408	58	6190
2026-01-20 23:27:29.97	40.55	43.10	-43.6	-48.8	9.9	6.56e-03	0	58	0	456130560	58	6664
2026-01-20 23:27:30.97	40.80	43.35	-43.5	-48.6	10.0	1.06e-02	0	57	0	458227712	58	6533
2026-01-20 23:27:31.98	41.05	43.60	-43.5	-48.7	9.7	7.61e-03	0	57	0	460324864	58	6631
2026-01-20 23:27:32.99	41.30	43.86	-43.6	-48.9	9.8	9.54e-03	0	57	0	462422016	58	6783
2026-01-20 23:27:34.00	41.56	44.12	-43.6	-49.0	9.7	9.45e-03	0	58	0	464519168	58	6830
2026-01-20 23:27:35.01	41.82	44.38	-43.5	-48.6	10.0	7.88e-03	0	58	0	465567744	58	6522
2026-01-20 23:27:36.02	42.09	44.64	-43.3	-48.1	10.5	5.81e-03	0	57	0	467664896	58	6185
2026-01-20 23:27:37.03	42.36	44.90	-43.4	-48.4	10.2	5.17e-03	0	57	0	469762048	58	6377
2026-01-20 23:27:38.04	42.64	45.16	-43.5	-48.6	10.0	6.46e-03	0	58	0	471859200	58	6528
2026-01-20 23:27:39.05	42.92	45.42	-43.7	-49.2	9.5	7.70e-03	0	58	0	473956352	58	6969
2026-01-20 23:27:40.06	43.20	45.69	-43.5	-48.5	10.1	1.48e-02	0	58	0	475004928	58	6471
2026-01-20 23:27:41.07	43.49	45.95	-43.3	-48.1	10.5	4.70e-03	0	58	0	477102080	58	6175
2026-01-20 23:27:42.08	43.78	46.22	-43.3	-48.0	10.6	4.65e-03	0	58	0	479199232	58	6119
2026-01-20 23:27:43.09	44.08	46.49	-43.2	-47.7	10.9	2.13e-03	0	58	0	481296384	58	5920
2026-01-20 23:27:44.10	44.39	46.75	-42.8	-46.9	11.7	7.35e-04	0	58	0	483393536	57	5705
2026-01-20 23:27:45.11	44.70	47.02	-42.8	-46.8	11.9	2.76e-04	0	58	0	484442112	57	5644
2026-01-20 23:27:46.12	45.01	47.29	-42.6	-46.4	12.3	3.93e-04	0	57	0	486539264	57	5391
2026-01-20 23:27:47.13	45.33	47.56	-42.7	-46.6	12.2	2.78e-04	0	58	0	488636416	57	5483
2026-01-20 23:27:48.14	45.66	47.83	-42.8	-46.8	11.9	4.13e-04	0	58	0	490733568	57	5612
2026-01-20 23:27:49.15	45.99	48.11	-42.9	-47.1	11.7	4.83e-04	0	57	0	492830720	57	5795
2026-01-20 23:27:50.16	46.33	48.38	-43.0	-47.2	11.4	9.92e-04	0	58	0	493879296	57	5920
2026-01-20 23:27:51.17	46.67	48.65	-43.1	-47.4	11.3	7.32e-04	0	57	0	495976448	57	6058
2026-01-20 23:27:52.18	47.02	48.93	-43.1	-47.5	11.0	1.13e-03	0	58	0	498073600	57	6095
2026-01-20 23:27:53.19	47.37	49.20	-43.0	-47.3	11.4	1.58e-03	0	58	0	500170752	57	5952
2026-01-20 23:27:54.20	47.73	49.48	-43.1	-47.6	11.1	1.20e-03	0	58	0	502267904	57	6144
2026-01-20 23:27:55.21	48.10	49.75	-43.1	-47.5	11.2	1.09e-03	0	57	0	503316480	57	6130
2026-01-20 23:27:56.22	48.48	50.03	-43.2	-47.8	11.0	1.59e-03	0	58	0	505413632	57	6317
2026-01-20 23:27:57.23	48.86	50.30	-43.0	-47.3	11.4	9.47e-04	0	58	0	507510784	57	5954
2026-01-20 23:27:58.24	49.25	50.58	-42.5	-46.2	12.6	2.30e-04	0	58	0	509607936	56	5548
2026-01-20 23:27:59.25	49.64	50.86	-42.1	-45.4	13.5	6.25e-05	0	58	0	511705088	56	5067
2026-01-20 23:28:00.26	50.05	51.14	-42.3	-45.7	13.0	2.59e-05	0	57	0	512753664	56	5277
2026-01-20 23:28:01.27	50.46	51.41	-42.1	-45.5	13.3	1.37e-05	0	58	0	514850816	56	5151
2026-01-20 23:28:02.28	50.88	51.69	-42.4	-46.0	12.8	4.42e-05	0	58	0	516947968	56	5446
2026-01-20 23:28:03.29	51.30	51.97	-42.6	-46.4	12.4	6.86e-05	0	58	0	519045120	56	5668
2026-01-20 23:28:04.30	51.74	52.25	-42.3	-45.8	13.0	6.79e-05	0	58	0	521142272	56	5334
2026-01-20 23:28:05.30	52.17	52.52	-42.0	-45.4	13.4	2.89e-05	0	58	0	522190848	56	5046
2026-01-20 23:28:06.32	52.63	52.80	-41.7	-44.8	13.8	5.30e-06	0	58	0	524288000	55	5022
2026-01-20 23:28:07.33	53.09	53.08	-42.0	-45.4	13.3	1.67e-05	0	58	0	526385152	55	5348
2026-01-20 23:28:08.33	53.55	53.35	-42.2	-45.9	12.8	2.67e-05	0	58	0	528482304	55	5688
2026-01-20 23:28:09.34	54.03	53.63	-42.3	-46.0	12.6	7.55e-05	0	57	0	530579456	55	5758
2026-01-20 23:28:10.35	54.51	53.90	-42.2	-45.7	12.9	8.69e-05	0	57	0	532676608	55	5551
2026-01-20 23:28:11.36	55.01	54.18	-41.9	-45.2	13.4	2.21e-05	0	58	0	533725184	55	5256
2026-01-20 23:28:12.37	55.51	54.45	-41.5	-44.5	14.2	1.50e-06	0	58	0	535822336	54	5123
2026-01-20 23:28:13.38	56.03	54.73	-41.4	-44.4	14.2	1.50e-06	0	58	0	537919488	54	5069
2026-01-20 23:28:14.39	56.55	55.00	-41.4	-44.4	14.3	0.00e+00	0	58	0	540016640	54	5071
2026-01-20 23:28:15.40	57.08	55.27	-41.4	-44.4	14.4	7.00e-07	0	58	0	542113792	54	5042
2026-01-20 23:28:16.41	57.63	55.54	-41.0	-43.7	14.9	7.00e-07	0	58	0	543162368	54	4699
2026-01-20 23:28:17.42	58.18	55.81	-40.8	-43.4	15.2	0.00e+00	0	58	0	545259520	53	4788
2026-01-20 23:28:18.43	58.75	56.08	-41.0	-43.7	15.0	0.00e+00	0	57	0	547356672	53	4951
2026-01-20 23:28:19.44	59.33	56.35	-41.6	-44.7	13.9	2.20e-06	0	58	0	549453824	53	5561
2026-01-20 23:28:20.45	59.91	56.61	-42.0	-45.4	13.2	7.60e-06	0	57	0	551550976	54	5709
2026-01-20 23:28:21.45	60.51	56.88	-41.9	-45.2	13.5	1.75e-05	0	58	0	552599552	54	5550
2026-01-20 23:28:22.46	61.12	57.14	-41.5	-44.6	14.1	3.80e-06	0	58	0	554696704	54	5162
2026-01-20 23:28:23.47	61.74	57.40	-41.4	-44.3	14.5	7.00e-07	0	58	0	556793856	54	4997
2026-01-20 23:28:24.48	62.37	57.66	-41.6	-44.7	14.0	3.00e-06	0	57	0	558891008	54	5274
2026-01-20 23:28:25.49	63.02	57.91	-42.1	-45.6	13.1	5.30e-06	0	58	0	560988160	54	5811
2026-01-20 23:28:26.50	63.68	58.17	-41.9	-45.2	13.4	1.14e-05	0	58	0	562036736	54	5585
2026-01-20 23:28:27.51	64.35	58.42	-42.1	-45.5	13.1	1.52e-05	0	58	0	564133888	54	5770
2026-01-20 23:28:28.52	65.03	58.67	-42.0	-45.4	13.3	2.36e-05	0	57	0	566231040	54	5682
2026-01-20 23:28:29.53	65.73	58.91	-42.4	-46.1	12.5	5.41e-05	0	58	0	568328192	55	5829
2026-01-20 23:28:30.54	66.44	59.15	-42.5	-46.2	12.4	8.46e-05	0	58	0	570425344	55	5912
2026-01-20 23:28:31.55	67.16	59.39	-42.5	-46.2	12.5	6.86e-05	0	57	0	571473920	55	5912
2026-01-20 23:28:32.56	67.90	59.63	-42.4	-46.1	12.5	1.40e-04	0	58	0	573571072	55	5847
2026-01-20 23:28:33.57	68.64	59.86	-42.2	-45.7	12.9	6.71e-05	0	58	0	575668224	55	5541
2026-01-20 23:28:34.58	69.41	60.09	-42.0	-45.5	13.2	2.28e-05	0	58	0	577765376	55	5411
2026-01-20 23:28:35.59	70.18	60.32	-42.2	-45.7	12.9	2.59e-05	0	58	0	579862528	55	5591
2026-01-20 23:28:36.60	70.97	60.54	-43.0	-47.3	11.4	3.01e-04	0	58	0	580911104	56	6330
2026-01-20 23:28:37.61	71.78	60.76	-43.0	-47.2	11.6	1.23e-03	0	58	0	583008256	56	6253
2026-01-20 23:28:38.62	72.59	60.97	-42.6	-46.4	12.4	6.12e-04	0	58	0	585105408	56	5675
2026-01-20 23:28:39.62	73.42	61.18	-42.4	-46.0	12.9	8.54e-05	0	58	0	587202560	56	5409
2026-01-20 23:28:40.63	74.26	61.38	-42.2	-45.7	13.0	6.25e-05	0	58	0	589299712	56	5249
2026-01-20 23:28:41.64	75.12	61.58	-42.4	-46.0	12.8	5.41e-05	0	58	0	590348288	56	5456
2026-01-20 23:28:42.65	75.99	61.78	-42.0	-45.3	13.5	1.75e-05	0	58	0	592445440	56	5029
2026-01-20 23:28:43.66	76.88	61.97	-41.4	-44.4	14.2	5.30e-06	0	58	0	594542592	54	5053
2026-01-20 23:28:44.67	77.78	62.15	-41.3	-44.2	14.5	2.20e-06	0	58	0	596639744	54	4949
2026-01-20 23:28:45.68	78.69	62.33	-41.4	-44.4	14.2	0.00e+00	0	58	0	598736896	54	5086
2026-01-20 23:28:46.69	79.62	62.51	-41.9	-45.2	13.5	6.10e-06	0	58	0	600834048	54	5565
2026-01-20 23:28:47.70	80.56	62.67	-41.5	-44.5	14.2	8.30e-06	0	58	0	601882624	54	5136
2026-01-20 23:28:48.71	81.51	62.83	-40.7	-43.3	15.3	0.00e+00	0	58	0	603979776	53	4730
2026-01-20 23:28:49.72	82.47	62.99	-40.7	-43.3	15.5	0.00e+00	0	58	0	606076928	53	4715
2026-01-20 23:28:50.73	83.45	63.14	-41.3	-44.3	14.4	0.00e+00	0	58	0	608174080	53	5294
2026-01-20 23:28:51.74	84.44	63.28	-41.4	-44.4	14.2	7.00e-07	0	58	0	610271232	53	5361
2026-01-20 23:28:52.75	85.44	63.41	-41.1	-43.9	14.6	7.00e-07	0	58	0	611319808	53	5089
2026-01-20 23:28:53.76	86.45	63.54	-41.3	-44.2	14.4	0.00e+00	0	58	0	613416960	53	5238
2026-01-20 23:28:54.77	87.48	63.66	-41.1	-43.9	14.7	1.50e-06	0	58	0	615514112	53	5056
2026-01-20 23:28:55.78	88.51	63.77	-41.4	-44.3	14.3	7.00e-07	0	58	0	617611264	53	5303
2026-01-20 23:28:56.78	89.54	63.88	-42.1	-45.6	13.1	6.10e-06	0	58	0	619708416	54	5834
2026-01-20 23:28:57.79	90.59	63.98	-42.6	-46.5	12.1	1.85e-04	0	58	0	620756992	55	6127
2026-01-20 23:28:58.80	91.65	64.07	-42.1	-45.5	13.1	1.17e-04	0	58	0	622854144	55	5447
2026-01-20 23:28:59.81	92.72	64.15	-41.4	-44.3	14.3	6.80e-06	0	58	0	624951296	54	4995
2026-01-20 23:29:00.82	93.80	64.23	-41.5	-44.5	14.2	1.50e-06	0	58	0	627048448	54	5121
2026-01-20 23:29:01.83	94.88	64.29	-42.1	-45.6	13.1	1.06e-05	0	58	0	629145600	54	5842
2026-01-20 23:29:02.84	95.97	64.35	-42.2	-45.8	12.7	4.11e-05	0	58	0	630194176	55	5638
2026-01-20 23:29:03.85	97.06	64.40	-41.9	-45.3	13.3	1.75e-05	0	58	0	632291328	55	5305
2026-01-20 23:29:04.86	98.16	64.45	-41.8	-45.0	13.5	6.10e-06	0	58	0	634388480	55	5108
2026-01-20 23:29:05.87	99.26	64.48	-42.3	-46.1	12.5	4.88e-05	0	58	0	636485632	55	5817
2026-01-20 23:29:06.88	100.37	64.51	-42.2	-45.8	12.8	8.54e-05	0	58	0	638582784	55	5624
2026-01-20 23:29:07.89	101.48	64.52	-41.4	-44.4	14.3	3.80e-06	0	58	0	639631360	54	5072
2026-01-20 23:29:08.89	102.57	64.53	-41.1	-43.8	14.8	7.00e-07	0	58	0	641728512	54	4751
2026-01-20 23:29:09.91	103.69	64.53	-41.5	-44.5	14.1	0.00e+00	0	58	0	643825664	54	5158
2026-01-20 23:29:10.91	104.79	64.53	-41.5	-44.5	14.1	3.80e-06	0	58	0	645922816	54	5125
2026-01-20 23:29:11.92	105.90	64.51	-41.3	-44.2	14.5	7.00e-07	0	58	0	648019968	54	4937
2026-01-20 23:29:12.93	107.00	64.48	-41.0	-43.8	14.8	0.00e+00	0	58	0	649068544	53	4986
2026-01-20 23:29:13.94	108.11	64.45	-41.8	-45.1	13.6	7.00e-07	0	58	0	651165696	54	5490
2026-01-20 23:29:14.95	109.20	64.41	-42.0	-45.5	13.1	2.74e-05	0	58	0	653262848	54	5726
2026-01-20 23:29:15.96	110.30	64.36	-41.2	-44.1	14.4	4.50e-06	0	58	0	655360000	54	4917
2026-01-20 23:29:16.97	111.39	64.30	-41.0	-43.7	14.9	7.00e-07	0	58	0	657457152	53	4964
2026-01-20 23:29:17.98	112.47	64.24	-41.5	-44.6	14.0	3.00e-06	0	58	0	658505728	53	5466
2026-01-20 23:29:18.99	113.55	64.16	-41.7	-44.9	13.6	3.80e-06	0	58	0	660602880	54	5391
2026-01-20 23:29:20.00	114.62	64.08	-41.5	-44.6	14.0	3.80e-06	0	58	0	662700032	54	5168
2026-01-20 23:29:21.01	115.68	63.99	-41.7	-45.0	13.6	3.00e-06	0	58	0	664797184	54	5416
2026-01-20 23:29:22.02	116.74	63.89	-42.2	-45.8	12.6	5.03e-05	0	58	0	666894336	55	5654
2026-01-20 23:29:23.03	117.78	63.79	-41.2	-44.0	14.6	3.80e-06	0	57	0	668991488	54	4823
2026-01-20 23:29:24.04	118.82	63.67	-40.9	-43.6	15.0	0.00e+00	0	58	0	670040064	53	4889
2026-01-20 23:29:25.05	119.84	63.55	-41.0	-43.7	14.9	0.00e+00	0	58	0	672137216	53	4938
2026-01-20 23:29:26.06	120.85	63.43	-41.0	-43.7	14.8	0.00e+00	0	58	0	674234368	53	4974
2026-01-20 23:29:27.07	121.86	63.29	-40.7	-43.3	15.3	0.00e+00	0	57	0	676331520	53	4728
2026-01-20 23:29:28.07	122.84	63.15	-40.7	-43.3	15.3	0.00e+00	0	58	0	678428672	53	4708
2026-01-20 23:29:29.08	123.82	63.00	-41.0	-43.7	14.9	0.00e+00	0	58	0	679477248	53	4963
2026-01-20 23:29:30.09	124.79	62.85	-41.5	-44.7	13.9	0.00e+00	0	58	0	681574400	53	5529
2026-01-20 23:29:31.10	125.74	62.69	-41.2	-44.1	14.4	1.50e-06	0	58	0	683671552	54	4901
2026-01-20 23:29:32.11	126.68	62.52	-41.2	-44.0	14.5	2.20e-06	0	58	0	685768704	54	4856
2026-01-20 23:29:33.12	127.61	62.35	-41.0	-43.7	14.9	1.50e-06	0	58	0	686817280	53	4956
2026-01-20 23:29:34.13	128.53	62.17	-41.4	-44.4	14.2	0.00e+00	0	58	0	688914432	53	5358
2026-01-20 23:29:35.14	129.43	61.99	-41.6	-44.8	13.7	5.30e-06	0	58	0	691011584	54	5316
2026-01-20 23:29:36.15	130.32	61.80	-41.5	-44.6	14.0	3.00e-06	0	58	0	693108736	54	5167
2026-01-20 23:29:37.16	131.19	61.60	-41.4	-44.3	14.2	0.00e+00	0	58	0	695205888	54	5033
2026-01-20 23:29:38.17	132.05	61.40	-41.8	-45.0	13.6	6.10e-06	0	58	0	697303040	54	5453
2026-01-20 23:29:39.18	132.90	61.20	-41.2	-44.0	14.5	6.10e-06	0	58	0	698351616	54	4848
2026-01-20 23:29:40.19	133.73	60.99	-40.1	-42.5	16.1	0.00e+00	0	58	0	700448768	52	4548
2026-01-20 23:29:41.20	134.55	60.78	-40.5	-43.0	15.5	0.00e+00	0	58	0	702545920	52	4846
2026-01-20 23:29:42.21	135.36	60.56	-41.3	-44.2	14.3	0.00e+00	0	58	0	704643072	53	5266
2026-01-20 23:29:43.21	136.15	60.34	-40.8	-43.4	15.1	0.00e+00	0	58	0	706740224	53	4782
2026-01-20 23:29:44.22	136.92	60.11	-40.6	-43.1	15.4	0.00e+00	0	58	0	707788800	53	4623
2026-01-20 23:29:45.23	137.69	59.88	-40.6	-43.2	15.4	0.00e+00	0	58	0	709885952	52	4927
2026-01-20 23:29:46.24	138.44	59.65	-40.4	-42.8	15.6	0.00e+00	0	58	0	711983104	52	4759
2026-01-20 23:29:47.25	139.18	59.41	-40.0	-42.2	16.3	0.00e+00	0	58	0	714080256	52	4429
2026-01-20 23:29:48.26	139.90	59.17	-40.0	-42.3	16.4	0.00e+00	0	58	0	716177408	51	4722
2026-01-20 23:29:49.27	140.62	58.93	-40.5	-43.0	15.6	0.00e+00	0	58	0	717225984	51	5132
2026-01-20 23:29:50.28	141.31	58.68	-40.7	-43.3	15.2	0.00e+00	0	58	0	719323136	52	5036
2026-01-20 23:29:51.29	142.00	58.43	-40.3	-42.8	15.8	0.00e+00	0	58	0	721420288	52	4717
2026-01-20 23:29:52.30	142.67	58.18	-40.0	-42.2	16.3	0.00e+00	0	58	0	723517440	51	4686
2026-01-20 23:29:53.31	143.33	57.93	-40.4	-42.8	15.8	0.00e+00	0	58	0	725614592	51	5022
2026-01-20 23:29:54.32	143.98	57.67	-40.8	-43.4	15.1	0.00e+00	0	58	0	726663168	52	5094
2026-01-20 23:29:55.32	144.61	57.41	-41.1	-44.0	14.5	7.00e-07	0	58	0	728760320	53	5146
2026-01-20 23:29:56.34	145.24	57.15	-40.6	-43.2	15.3	0.00e+00	0	58	0	730857472	53	4679
2026-01-20 23:29:57.35	145.85	56.89	-40.7	-43.4	15.2	0.00e+00	0	58	0	732954624	52	5047
2026-01-20 23:29:58.36	146.46	56.62	-41.3	-44.2	14.3	0.00e+00	0	58	0	735051776	53	5255
2026-01-20 23:29:59.37	147.05	56.36	-41.4	-44.5	14.1	0.00e+00	0	58	0	736100352	53	5414
2026-01-20 23:30:00.37	147.62	56.09	-40.8	-43.5	15.0	0.00e+00	0	58	0	738197504	53	4822
2026-01-20 23:30:01.38	148.19	55.82	-41.0	-43.8	14.8	0.00e+00	0	58	0	740294656	53	5000
2026-01-20 23:30:02.39	148.74	55.55	-40.7	-43.4	15.1	0.00e+00	0	58	0	742391808	53	4774
2026-01-20 23:30:03.40	149.29	55.28	-40.3	-42.7	15.8	0.00e+00	0	58	0	744488960	52	4675
2026-01-20 23:30:04.41	149.82	55.01	-40.3	-42.7	15.9	0.00e+00	0	58	0	745537536	51	4946
2026-01-20 23:30:05.42	150.35	54.73	-40.8	-43.5	15.0	0.00e+00	0	58	0	747634688	52	5132
2026-01-20 23:30:06.43	150.87	54.46	-41.2	-44.2	14.4	0.00e+00	0	58	0	749731840	53	5225
2026-01-20 23:30:07.44	151.37	54.18	-41.5	-44.5	13.9	2.20e-06	0	58	0	751828992	53	5459
2026-01-20 23:30:08.45	151.87	53.91	-41.2	-44.2	14.2	7.00e-07	0	58	0	753926144	53	5228
2026-01-20 23:30:09.46	152.36	53.63	-41.2	-44.1	14.4	1.50e-06	0	58	0	754974720	53	5169
2026-01-20 23:30:10.47	152.83	53.35	-41.5	-44.6	13.9	0.00e+00	0	58	0	757071872	53	5517
2026-01-20 23:30:11.48	153.30	53.08	-42.1	-45.6	12.9	6.10e-06	0	58	0	759169024	54	5853
2026-01-20 23:30:12.49	153.76	52.80	-42.4	-46.2	12.2	1.91e-04	0	58	0	761266176	55	5905
2026-01-20 23:30:13.50	154.22	52.52	-42.6	-46.6	11.9	4.22e-04	0	58	0	763363328	55	6141
2026-01-20 23:30:14.51	154.66	52.24	-41.9	-45.3	13.1	1.88e-04	0	58	0	765460480	55	5323
2026-01-20 23:30:15.52	155.09	51.96	-41.7	-44.9	13.6	1.98e-05	0	58	0	766509056	55	5097
2026-01-20 23:30:16.53	155.52	51.68	-41.9	-45.3	13.2	2.67e-05	0	58	0	768606208	55	5284
2026-01-20 23:30:17.54	155.94	51.41	-42.0	-45.5	12.9	2.28e-05	0	58	0	770703360	55	5406
2026-01-20 23:30:18.55	156.35	51.13	-41.8	-45.2	13.3	4.88e-05	0	58	0	772800512	55	5229
2026-01-20 23:30:19.56	156.76	50.85	-42.1	-45.6	12.8	4.95e-05	0	58	0	774897664	55	5493
2026-01-20 23:30:20.57	157.15	50.57	-42.1	-45.6	12.8	6.79e-05	0	58	0	775946240	55	5492
2026-01-20 23:30:21.57	157.54	50.30	-41.8	-45.1	13.2	3.81e-05	0	58	0	778043392	55	5204
2026-01-20 23:30:22.58	157.92	50.02	-41.7	-44.9	13.5	8.30e-06	0	58	0	780140544	55	5065
2026-01-20 23:30:23.59	158.30	49.74	-41.9	-45.2	13.1	1.29e-05	0	58	0	782237696	55	5250
2026-01-20 23:30:24.60	158.67	49.46	-42.5	-46.5	11.8	2.25e-04	0	58	0	784334848	55	6092
2026-01-20 23:30:25.61	159.03	49.19	-43.1	-47.7	10.8	1.03e-03	0	58	0	785383424	56	6609
2026-01-20 23:30:26.62	159.39	48.91	-42.9	-47.3	11.2	1.61e-03	0	58	0	787480576	56	6308
2026-01-20 23:30:27.63	159.74	48.64	-42.1	-45.5	13.0	2.35e-04	0	58	0	789577728	56	5157
2026-01-20 23:30:28.64	160.08	48.36	-41.7	-44.9	13.5	1.22e-05	0	58	0	791674880	55	5074
2026-01-20 23:30:29.65	160.42	48.09	-42.0	-45.5	12.9	2.21e-05	0	58	0	793772032	55	5412
2026-01-20 23:30:30.66	160.75	47.82	-42.9	-47.1	11.3	4.52e-04	0	58	0	794820608	56	6152
2026-01-20 23:30:31.67	161.08	47.54	-43.3	-48.1	10.3	2.88e-03	0	58	0	796917760	57	6522
2026-01-20 23:30:32.68	161.40	47.27	-42.7	-46.7	11.8	7.47e-04	0	58	0	799014912	57	5550
2026-01-20 23:30:33.68	161.71	47.00	-42.3	-45.9	12.6	1.56e-04	0	58	0	801112064	56	5375
2026-01-20 23:30:34.70	162.02	46.73	-42.3	-45.9	12.7	8.85e-05	0	58	0	803209216	56	5360
2026-01-20 23:30:35.70	162.33	46.46	-42.7	-46.7	11.8	1.17e-04	0	58	0	804257792	56	5865
2026-01-20 23:30:36.72	162.63	46.19	-43.3	-48.1	10.4	2.21e-03	0	58	0	806354944	57	6510
2026-01-20 23:30:37.72	162.92	45.93	-43.4	-48.5	9.8	7.64e-03	0	58	0	808452096	57	6856
2026-01-20 23:30:38.73	163.21	45.66	-42.7	-46.8	11.6	4.41e-03	0	58	0	810549248	57	5635
2026-01-20 23:30:39.74	163.50	45.40	-41.8	-45.1	13.1	5.72e-05	0	58	0	812646400	55	5214
2026-01-20 23:30:40.75	163.78	45.13	-40.8	-43.4	14.9	0.00e+00	0	58	0	813694976	53	4811
2026-01-20 23:30:41.76	164.05	44.87	-40.7	-43.4	15.0	0.00e+00	0	58	0	815792128	53	4770
2026-01-20 23:30:42.77	164.32	44.61	-41.8	-45.1	13.3	2.20e-06	0	58	0	817889280	54	5479
2026-01-20 23:30:43.78	164.59	44.35	-43.0	-47.3	11.0	4.03e-04	0	58	0	819986432	56	6330
2026-01-20 23:30:44.79	164.86	44.09	-43.9	-50.1	8.3	6.91e-03	0	58	0	822083584	58	7728
2026-01-20 23:30:45.80	165.11	43.83	-44.6	-52.9	5.8	2.80e-01	0	58	0	823132160	59	10142
2026-01-20 23:30:46.81	165.37	43.57	-44.3	-51.9	6.5	4.15e-01	0	58	0	825229312	59	9003
2026-01-20 23:30:47.82	165.62	43.31	-43.4	-48.4	9.9	5.97e-02	0	58	0	827326464	58	6405
2026-01-20 23:30:48.83	165.87	43.06	-42.3	-45.9	12.5	2.62e-04	0	58	0	829423616	56	5370
2026-01-20 23:30:49.84	166.11	42.80	-41.6	-44.7	13.6	1.29e-05	0	58	0	831520768	55	4955
2026-01-20 23:30:50.85	166.35	42.55	-41.6	-44.8	13.5	5.30e-06	0	58	0	833617920	54	5310
2026-01-20 23:30:51.86	166.58	42.30	-42.2	-45.9	12.3	3.58e-05	0	58	0	834666496	55	5695
2026-01-20 23:30:52.86	166.81	42.05	-42.6	-46.8	11.4	5.97e-04	0	58	0	836763648	55	6308
2026-01-20 23:30:53.87	167.04	41.80	-42.9	-47.4	11.0	2.21e-03	0	58	0	838860800	56	6376
2026-01-20 23:30:54.88	167.27	41.55	-42.4	-46.2	12.3	8.75e-04	0	58	0	840957952	56	5532
2026-01-20 23:30:55.89	167.49	41.30	-41.5	-44.7	13.6	2.59e-05	0	58	0	843055104	54	5270
2026-01-20 23:30:56.90	167.71	41.05	-41.2	-44.1	14.2	2.20e-06	0	58	0	844103680	54	4910
2026-01-20 23:30:57.91	167.92	40.81	-40.9	-43.7	14.6	0.00e+00	0	58	0	846200832	53	4973
2026-01-20 23:30:58.92	168.13	40.57	-41.6	-44.9	13.4	3.00e-06	0	58	0	848297984	53	5690
2026-01-20 23:30:59.93	168.34	40.32	-42.3	-46.2	12.1	1.14e-04	0	58	0	850395136	55	5891
2026-01-20 23:31:00.94	168.55	40.08	-43.1	-47.8	10.7	7.73e-04	0	58	0	852492288	56	6691
2026-01-20 23:31:01.95	168.75	39.84	-43.6	-49.3	9.0	1.31e-02	0	58	0	853540864	57	7463
2026-01-20 23:31:02.96	168.95	39.60	-43.6	-49.3	9.0	1.99e-02	0	58	0	855638016	57	7523
2026-01-20 23:31:03.97	169.15	39.36	-43.5	-49.1	9.2	2.05e-02	0	58	0	857735168	57	7299
2026-01-20 23:31:04.98	169.34	39.13	-43.1	-47.9	10.4	9.22e-03	0	58	0	859832320	57	6367
2026-01-20 23:31:05.99	169.53	38.89	-42.5	-46.5	11.9	1.25e-03	0	58	0	861929472	57	5424
2026-01-20 23:31:07.00	169.72	38.66	-42.2	-45.8	12.6	1.56e-04	0	58	0	862978048	56	5328
2026-01-20 23:31:08.01	169.91	38.43	-42.2	-45.7	12.7	5.34e-05	0	58	0	865075200	56	5251
2026-01-20 23:31:09.02	170.09	38.20	-41.4	-44.5	13.7	1.06e-05	0	58	0	867172352	54	5146
2026-01-20 23:31:10.02	170.27	37.97	-41.5	-44.6	13.7	1.50e-06	0	58	0	869269504	54	5198
2026-01-20 23:31:11.03	170.45	37.74	-42.1	-45.7	12.6	3.73e-05	0	58	0	871366656	54	5896
2026-01-20 23:31:12.04	170.63	37.51	-42.6	-46.7	11.5	5.13e-04	0	58	0	872415232	55	6269
2026-01-20 23:31:13.05	170.80	37.29	-43.1	-47.7	10.7	1.61e-03	0	58	0	874512384	56	6603
2026-01-20 23:31:14.06	170.97	37.06	-43.2	-48.1	10.1	4.52e-03	0	58	0	876609536	57	6560
2026-01-20 23:31:15.07	171.14	36.84	-43.0	-47.6	10.7	4.17e-03	0	58	0	878706688	57	6161
2026-01-20 23:31:16.08	171.31	36.61	-42.8	-47.1	11.2	2.23e-03	0	58	0	880803840	57	5841
2026-01-20 23:31:17.09	171.47	36.39	-42.6	-46.6	11.7	1.10e-03	0	58	0	881852416	57	5498
2026-01-20 23:31:18.10	171.64	36.17	-42.4	-46.2	12.2	3.68e-04	0	58	0	883949568	56	5549
2026-01-20 23:31:19.11	171.80	35.95	-41.9	-45.3	12.9	4.19e-05	0	58	0	886046720	55	5326
2026-01-20 23:31:20.12	171.96	35.74	-41.8	-45.2	13.0	3.73e-05	0	58	0	888143872	55	5255
2026-01-20 23:31:21.13	172.11	35.52	-41.6	-44.9	13.4	1.44e-05	0	57	0	890241024	55	5060
2026-01-20 23:31:22.14	172.27	35.31	-41.5	-44.6	13.6	7.60e-06	0	58	0	891289600	54	5210
2026-01-20 23:31:23.15	172.42	35.09	-41.4	-44.6	13.7	1.06e-05	0	58	0	893386752	54	5191
2026-01-20 23:31:24.16	172.57	34.88	-41.5	-44.7	13.6	9.90e-06	0	58	0	895483904	54	5262
2026-01-20 23:31:25.17	172.72	34.67	-41.9	-45.4	12.9	3.58e-05	0	58	0	897581056	54	5690
2026-01-20 23:31:26.18	172.86	34.46	-42.0	-45.7	12.6	1.50e-04	0	58	0	899678208	54	5873
2026-01-20 23:31:27.19	173.01	34.25	-42.3	-46.2	11.9	1.69e-04	0	58	0	901775360	55	5921
2026-01-20 23:31:28.19	173.15	34.04	-43.0	-47.6	10.7	1.43e-03	0	58	0	902823936	56	6500
2026-01-20 23:31:29.21	173.29	33.83	-43.1	-47.9	10.4	3.31e-03	0	58	0	904921088	56	6746
2026-01-20 23:31:30.22	173.43	33.63	-43.4	-48.6	9.7	5.82e-03	0	58	0	907018240	57	6901
2026-01-20 23:31:31.22	173.57	33.43	-43.4	-48.5	9.7	1.34e-02	0	58	0	909115392	57	6862
2026-01-20 23:31:32.23	173.71	33.22	-43.7	-49.5	8.7	3.03e-02	0	58	0	911212544	57	7689
2026-01-20 23:31:33.24	173.84	33.02	-43.5	-49.1	9.1	3.47e-02	0	58	0	912261120	57	7290
2026-01-20 23:31:34.25	173.97	32.82	-43.5	-48.9	9.3	1.54e-02	0	58	0	914358272	57	7182
2026-01-20 23:31:35.26	174.11	32.62	-43.3	-48.5	9.8	1.37e-02	0	58	0	916455424	57	6805
2026-01-20 23:31:36.27	174.24	32.42	-43.0	-47.6	10.7	4.41e-03	0	58	0	918552576	57	6169
2026-01-20 23:31:37.28	174.36	32.23	-42.6	-46.7	11.7	1.81e-03	0	58	0	920649728	57	5529
2026-01-20 23:31:38.28	174.49	32.03	-42.5	-46.5	11.9	3.71e-04	0	58	0	921698304	56	5725
2026-01-20 23:31:39.29	174.62	31.84	-42.3	-46.0	12.4	1.78e-04	0	58	0	923795456	56	5421
2026-01-20 23:31:40.30	174.74	31.64	-42.2	-45.9	12.5	1.37e-04	0	58	0	925892608	56	5354
2026-01-20 23:31:41.31	174.86	31.45	-42.3	-45.9	12.3	1.97e-04	0	58	0	927989760	56	5395
2026-01-20 23:31:42.32	174.98	31.26	-42.4	-46.2	12.1	2.83e-04	0	58	0	930086912	56	5578
2026-01-20 23:31:43.33	175.10	31.07	-42.5	-46.5	11.8	3.20e-04	0	58	0	931135488	56	5764
2026-01-20 23:31:44.34	175.22	30.88	-42.8	-47.1	11.2	1.30e-03	0	58	0	933232640	56	6158
2026-01-20 23:31:45.35	175.34	30.69	-42.8	-47.2	11.1	1.57e-03	0	58	0	935329792	56	6241
2026-01-20 23:31:46.36	175.45	30.50	-43.0	-47.6	10.7	1.83e-03	0	58	0	937426944	56	6503
2026-01-20 23:31:47.37	175.57	30.32	-43.1	-47.9	10.3	3.98e-03	0	58	0	939524096	56	6774
2026-01-20 23:31:48.38	175.68	30.13	-42.9	-47.5	10.7	3.90e-03	0	58	0	940572672	56	6463
2026-01-20 23:31:49.39	175.79	29.95	-43.1	-47.8	10.4	3.96e-03	0	58	0	942669824	56	6702
2026-01-20 23:31:50.40	175.91	29.77	-43.1	-48.0	10.3	5.11e-03	0	58	0	944766976	56	6833
2026-01-20 23:31:51.41	176.02	29.59	-43.0	-47.6	10.6	4.14e-03	0	58	0	946864128	56	6511
2026-01-20 23:31:52.42	176.12	29.40	-43.1	-47.8	10.4	5.06e-03	0	58	0	948961280	56	6687
2026-01-20 23:31:53.43	176.23	29.23	-42.9	-47.5	10.7	2.65e-03	0	58	0	950009856	56	6458
2026-01-20 23:31:54.44	176.34	29.05	-43.1	-47.8	10.5	3.24e-03	0	58	0	952107008	56	6694
2026-01-20 23:31:55.44	176.44	28.87	-43.1	-47.9	10.3	4.78e-03	0	58	0	954204160	56	6759
2026-01-20 23:31:56.45	176.54	28.69	-42.9	-47.5	10.8	3.61e-03	0	58	0	956301312	56	6437
2026-01-20 23:31:57.46	176.65	28.52	-42.7	-47.0	11.3	1.10e-03	0	58	0	958398464	56	6075
2026-01-20 23:31:58.47	176.75	28.34	-42.6	-46.6	11.6	8.40e-04	0	58	0	959447040	56	5855
2026-01-20 23:31:59.48	176.85	28.17	-42.3	-46.0	12.3	5.13e-04	0	58	0	961544192	56	5451
2026-01-20 23:32:00.49	176.95	28.00	-41.7	-45.0	13.1	4.42e-05	0	58	0	963641344	55	5147
2026-01-20 23:32:01.50	177.05	27.83	-41.5	-44.7	13.4	2.28e-05	0	58	0	965738496	55	4981
2026-01-20 23:32:02.51	177.15	27.66	-41.3	-44.3	13.8	1.06e-05	0	58	0	967835648	54	5032
2026-01-20 23:32:03.52	177.24	27.49	-41.4	-44.5	13.6	1.22e-05	0	58	0	968884224	54	5149
2026-01-20 23:32:04.53	177.34	27.32	-41.3	-44.5	13.7	9.10e-06	0	58	0	970981376	54	5127
2026-01-20 23:32:05.54	177.43	27.15	-41.3	-44.5	13.7	5.30e-06	0	58	0	973078528	54	5129
2026-01-20 23:32:06.55	177.53	26.98	-41.4	-44.7	13.5	3.80e-06	0	58	0	975175680	54	5230
2026-01-20 23:32:07.56	177.62	26.82	-41.5	-44.9	13.3	1.83e-05	0	58	0	977272832	54	5342
2026-01-20 23:32:08.57	177.71	26.65	-41.4	-44.6	13.5	1.52e-05	0	58	0	978321408	54	5198
2026-01-20 23:32:09.58	177.80	26.49	-41.6	-45.1	13.1	3.96e-05	0	58	0	980418560	54	5496
2026-01-20 23:32:10.59	177.89	26.33	-41.4	-44.8	13.4	1.83e-05	0	58	0	982515712	54	5280
2026-01-20 23:32:11.60	177.98	26.16	-41.6	-45.1	13.1	2.05e-05	0	58	0	984612864	54	5478
2026-01-20 23:32:12.61	178.07	26.00	-41.6	-45.0	13.1	2.89e-05	0	58	0	986710016	54	5463
2026-01-20 23:32:13.61	178.16	25.84	-41.5	-44.8	13.3	2.59e-05	0	58	0	987758592	54	5318
2026-01-20 23:32:14.62	178.24	25.68	-41.4	-44.7	13.4	1.37e-05	0	58	0	989855744	54	5255
2026-01-20 23:32:15.63	178.33	25.53	-41.5	-44.9	13.2	1.44e-05	0	58	0	991952896	54	5371
2026-01-20 23:32:16.64	178.41	25.37	-41.6	-45.0	13.1	2.44e-05	0	58	0	994050048	54	5437
2026-01-20 23:32:17.65	178.50	25.21	-41.7	-45.3	12.8	4.19e-05	0	58	0	996147200	54	5596
2026-01-20 23:32:18.66	178.58	25.05	-41.8	-45.5	12.7	8.85e-05	0	58	0	998244352	54	5728
2026-01-20 23:32:19.67	178.66	24.90	-41.9	-45.6	12.5	9.99e-05	0	58	0	999292928	54	5800
2026-01-20 23:32:20.68	178.74	24.75	-41.9	-45.7	12.5	1.60e-04	0	58	0	1001390080	54	5856
2026-01-20 23:32:21.69	178.83	24.59	-42.0	-45.9	12.2	1.85e-04	0	58	0	1003487232	54	6002
2026-01-20 23:32:22.70	178.91	24.44	-41.8	-45.4	12.7	9.99e-05	0	58	0	1005584384	54	5671
2026-01-20 23:32:23.71	178.99	24.29	-41.8	-45.4	12.7	8.77e-05	0	58	0	1007681536	54	5685
2026-01-20 23:32:24.72	179.06	24.14	-41.8	-45.4	12.7	6.17e-05	0	58	0	1008730112	54	5665
2026-01-20 23:32:25.72	179.14	23.99	-41.6	-45.0	13.1	2.67e-05	0	58	0	1010827264	54	5425
2026-01-20 23:32:26.74	179.22	23.84	-41.6	-45.1	13.0	3.05e-05	0	58	0	1012924416	54	5523
2026-01-20 23:32:27.75	179.30	23.69	-41.6	-45.0	13.1	3.35e-05	0	58	0	1015021568	54	5430
2026-01-20 23:32:28.76	179.37	23.54	-41.4	-44.7	13.4	1.90e-05	0	58	0	1017118720	54	5271
2026-01-20 23:32:29.76	179.45	23.40	-41.4	-44.6	13.5	1.06e-05	0	58	0	1018167296	54	5197
2026-01-20 23:32:30.77	179.52	23.25	-41.2	-44.4	13.7	8.30e-06	0	58	0	1020264448	54	5082
2026-01-20 23:32:31.78	179.60	23.10	-41.3	-44.5	13.5	5.30e-06	0	58	0	1022361600	54	5154
2026-01-20 23:32:32.79	179.67	22.96	-41.2	-44.4	13.7	8.30e-06	0	58	0	1024458752	54	5077
2026-01-20 23:32:33.80	179.74	22.82	-41.2	-44.4	13.7	9.90e-06	0	58	0	1026555904	54	5087
2026-01-20 23:32:34.81	179.81	22.67	-41.1	-44.1	13.9	3.80e-06	0	58	0	1027604480	54	4915
2026-01-20 23:32:35.82	179.89	22.53	-41.2	-44.3	13.8	3.00e-06	0	58	0	1029701632	54	5026
2026-01-20 23:32:36.83	179.96	22.39	-41.0	-44.0	14.0	3.00e-06	0	58	0	1031798784	54	4849
2026-01-20 23:32:37.84	180.03	22.25	-40.9	-43.9	14.1	3.00e-06	0	58	0	1033895936	53	5075
2026-01-20 23:32:38.85	180.10	22.11	-41.0	-44.0	14.1	2.20e-06	0	58	0	1035993088	53	5127
2026-01-20 23:32:39.86	180.17	21.97	-41.0	-44.0	14.1	3.00e-06	0	58	0	1037041664	53	5126
2026-01-20 23:32:40.87	180.23	21.83	-40.9	-43.9	14.2	0.00e+00	0	58	0	1039138816	53	5061
2026-01-20 23:32:41.88	180.30	21.69	-41.1	-44.2	13.8	1.50e-06	0	58	0	1041235968	53	5256
2026-01-20 23:32:42.89	180.37	21.55	-41.2	-44.4	13.6	5.30e-06	0	58	0	1043333120	53	5393
2026-01-20 23:32:43.90	180.44	21.42	-41.4	-44.7	13.4	9.10e-06	0	58	0	1045430272	53	5539
2026-01-20 23:32:44.91	180.50	21.28	-41.4	-44.8	13.4	1.83e-05	0	58	0	1046478848	53	5619
2026-01-20 23:32:45.92	180.57	21.15	-41.6	-45.1	13.0	3.89e-05	0	58	0	1048576000	53	5806
2026-01-20 23:32:46.93	180.63	21.01	-41.6	-45.2	12.8	4.50e-05	0	58	0	1050673152	53	5865
2026-01-20 23:32:47.93	180.70	20.88	-41.7	-45.3	12.7	5.72e-05	0	58	0	1052770304	53	5945
2026-01-20 23:32:48.94	180.76	20.75	-41.7	-45.4	12.6	7.70e-05	0	58	0	1054867456	54	5688
2026-01-20 23:32:49.95	180.82	20.62	-41.7	-45.3	12.7	8.46e-05	0	58	0	1055916032	54	5619
2026-01-20 23:32:50.96	180.89	20.48	-41.7	-45.3	12.8	4.57e-05	0	58	0	1058013184	54	5603
2026-01-20 23:32:51.97	180.95	20.35	-41.7	-45.3	12.7	6.33e-05	0	58	0	1060110336	54	5647
2026-01-20 23:32:52.98	181.01	20.22	-41.6	-45.1	12.9	5.64e-05	0	58	0	1062207488	54	5481
2026-01-20 23:32:53.99	181.07	20.09	-41.5	-45.0	13.1	3.81e-05	0	58	0	1064304640	54	5414
2026-01-20 23:32:55.00	181.13	19.96	-41.4	-44.8	13.2	3.35e-05	0	58	0	1066401792	54	5319
2026-01-20 23:32:56.01	181.19	19.83	-41.3	-44.6	13.3	1.29e-05	0	58	0	1067450368	54	5217
2026-01-20 23:32:57.01	181.25	19.71	-41.1	-44.3	13.7	6.10e-06	0	58	0	1069547520	54	4988
2026-01-20 23:32:58.02	181.31	19.58	-41.0	-44.1	13.9	5.30e-06	0	58	0	1071644672	54	4912
2026-01-20 23:32:59.03	181.37	19.45	-41.0	-44.1	13.9	5.30e-06	0	58	0	1073741824	54	4875
2026-01-20 23:33:00.04	181.43	19.33	-40.9	-43.9	14.1	1.50e-06	0	58	0	1075838976	53	5060
2026-01-20 23:33:01.05	181.49	19.20	-40.8	-43.8	14.2	2.20e-06	0	58	0	1076887552	53	5014
2026-01-20 23:33:02.06	181.55	19.08	-40.9	-43.8	14.2	2.20e-06	0	58	0	1078984704	53	5030
2026-01-20 23:33:03.07	181.61	18.95	-40.9	-43.9	14.1	0.00e+00	0	58	0	1081081856	53	5053
2026-01-20 23:33:04.07	181.66	18.83	-40.9	-43.9	14.1	2.20e-06	0	58	0	1083179008	53	5089
2026-01-20 23:33:05.08	181.72	18.71	-41.0	-44.1	13.9	2.20e-06	0	58	0	1085276160	53	5192
2026-01-20 23:33:06.09	181.77	18.59	-41.1	-44.2	13.8	3.80e-06	0	58	0	1086324736	53	5239
2026-01-20 23:33:07.10	181.83	18.46	-41.1	-44.2	13.7	6.80e-06	0	58	0	1088421888	53	5279
2026-01-20 23:33:08.11	181.88	18.34	-41.1	-44.2	13.7	6.10e-06	0	58	0	1090519040	53	5264
2026-01-20 23:33:09.12	181.94	18.22	-41.1	-44.2	13.7	5.30e-06	0	58	0	1092616192	53	5269
2026-01-20 23:33:10.13	181.99	18.10	-41.2	-44.4	13.6	1.29e-05	0	58	0	1094713344	53	5372
2026-01-20 23:33:11.14	182.05	17.98	-41.2	-44.5	13.5	9.10e-06	0	58	0	1095761920	53	5428
2026-01-20 23:33:12.15	182.10	17.86	-41.2	-44.5	13.5	1.29e-05	0	58	0	1097859072	53	5411
2026-01-20 23:33:13.16	182.15	17.74	-41.3	-44.5	13.4	7.60e-06	0	58	0	1099956224	53	5447
2026-01-20 23:33:14.17	182.21	17.63	-41.3	-44.5	13.4	1.22e-05	0	58	0	1102053376	53	5457
2026-01-20 23:33:15.18	182.26	17.51	-41.3	-44.6	13.4	1.06e-05	0	58	0	1104150528	53	5475
2026-01-20 23:33:16.18	182.31	17.39	-41.3	-44.7	13.3	6.10e-06	0	58	0	1105199104	53	5544
2026-01-20 23:33:17.20	182.36	17.28	-41.3	-44.6	13.3	2.59e-05	0	58	0	1107296256	53	5510
2026-01-20 23:33:18.20	182.41	17.16	-41.3	-44.6	13.4	2.44e-05	0	58	0	1109393408	53	5502
2026-01-20 23:33:19.21	182.47	17.05	-41.3	-44.7	13.2	1.37e-05	0	58	0	1111490560	53	5555
2026-01-20 23:33:20.22	182.52	16.93	-41.4	-44.8	13.1	2.82e-05	0	58	0	1113587712	53	5648
2026-01-20 23:33:21.23	182.57	16.82	-41.4	-44.8	13.1	3.05e-05	0	58	0	1114636288	53	5627
2026-01-20 23:33:22.24	182.62	16.70	-41.3	-44.6	13.3	1.52e-05	0	58	0	1116733440	53	5512
2026-01-20 23:33:23.25	182.67	16.59	-41.4	-44.8	13.1	2.28e-05	0	58	0	1118830592	53	5623
2026-01-20 23:33:24.26	182.71	16.48	-41.4	-44.7	13.2	2.13e-05	0	58	0	1120927744	53	5555
2026-01-20 23:33:25.27	182.76	16.37	-41.4	-44.8	13.2	2.44e-05	0	58	0	1123024896	53	5598
2026-01-20 23:33:26.28	182.81	16.25	-41.4	-44.9	13.1	2.97e-05	0	58	0	1124073472	53	5683
2026-01-20 23:33:27.29	182.86	16.14	-41.5	-45.0	12.9	3.05e-05	0	58	0	1126170624	53	5766
2026-01-20 23:33:28.30	182.91	16.03	-41.5	-45.0	12.9	3.96e-05	0	58	0	1128267776	53	5760
2026-01-20 23:33:29.31	182.96	15.92	-41.6	-45.2	12.8	4.73e-05	0	58	0	1130364928	53	5863
2026-01-20 23:33:30.32	183.00	15.81	-41.6	-45.2	12.7	5.56e-05	0	58	0	1132462080	53	5902
2026-01-20 23:33:31.33	183.05	15.70	-41.6	-45.2	12.7	8.31e-05	0	58	0	1133510656	53	5915
2026-01-20 23:33:32.34	183.10	15.59	-41.6	-45.2	12.7	6.94e-05	0	58	0	1135607808	53	5888
2026-01-20 23:33:33.35	183.14	15.49	-41.7	-45.3	12.6	9.15e-05	0	58	0	1137704960	53	5986
2026-01-20 23:33:34.36	183.19	15.38	-41.7	-45.4	12.5	1.14e-04	0	58	0	1139802112	54	5722
2026-01-20 23:33:35.36	183.23	15.27	-41.8	-45.6	12.4	1.19e-04	0	58	0	1141899264	54	5802
2026-01-20 23:33:36.37	183.28	15.16	-41.9	-45.7	12.2	1.84e-04	0	58	0	1142947840	54	5893
2026-01-20 23:33:37.38	183.32	15.06	-41.8	-45.6	12.3	1.85e-04	0	58	0	1145044992	54	5830
2026-01-20 23:33:38.39	183.37	14.95	-41.9	-45.8	12.1	2.27e-04	0	58	0	1147142144	54	5975
2026-01-20 23:33:39.40	183.41	14.85	-41.9	-45.9	11.9	3.75e-04	0	58	0	1149239296	54	6059
2026-01-20 23:33:40.41	183.46	14.74	-42.0	-46.1	11.9	3.52e-04	0	58	0	1151336448	54	6145
