passes_logs/2026/01/20/R2.0S_Moscow/R2.0S_Moscow__20260120_111224_SUOMI_NPP_rec.log

#Pass ID: 20260120_111224_SUOMI NPP
#Satellite: SUOMI NPP
#Configuration: NPP
#almurnet v.1.7.20251203
#Start time: 2026-01-20 11:12:25

#Version: 2.2.20231116
#Station: R2.0S_Moscow
#Location: 37.707566 lon 55.798166 lat
#TLE: 1 37849U 11061A   26019.61507914  .00000076  00000+0  57195-4 0  9994
#TLE: 2 37849  98.7817 321.6240 0002347  55.5899 304.5499 14.19526391737369

#Time	Az	El	Level	Level2	SNR	BER	BlckErr	Temp	State	Recorded	gain1	gain2
2026-01-20 11:12:25.16	196.86	2.05	-43.6	-58.1	3.8	1.49e+00	0	49	0	0	57	20614
2026-01-20 11:12:26.16	196.92	2.11	-43.6	-58.1	3.8	1.49e+00	0	49	104	0	59	18445
2026-01-20 11:12:27.17	196.98	2.17	-43.7	-58.1	3.8	1.49e+00	0	50	104	0	59	18333
2026-01-20 11:12:28.19	197.04	2.23	-43.6	-58.1	3.8	1.49e+00	0	50	104	0	59	18362
2026-01-20 11:12:29.20	197.10	2.29	-43.6	-58.1	3.8	1.49e+00	0	50	104	0	59	18311
2026-01-20 11:12:30.21	197.15	2.35	-43.6	-58.1	3.8	1.49e+00	0	50	104	0	59	18326
2026-01-20 11:12:31.22	197.21	2.41	-43.6	-58.1	3.8	1.49e+00	0	50	104	0	59	18344
2026-01-20 11:12:32.23	197.27	2.47	-43.6	-58.1	3.8	1.49e+00	0	50	104	0	59	18307
2026-01-20 11:12:33.24	197.33	2.53	-43.6	-58.1	3.8	1.49e+00	0	50	104	0	59	18362
2026-01-20 11:12:34.25	197.39	2.59	-43.6	-58.1	3.8	1.49e+00	0	50	104	0	59	18323
2026-01-20 11:12:35.26	197.45	2.65	-43.6	-58.1	3.8	1.49e+00	0	50	104	0	59	18335
2026-01-20 11:12:36.27	197.51	2.71	-43.6	-58.1	3.8	1.49e+00	0	50	104	0	59	18331
2026-01-20 11:12:37.28	197.57	2.77	-43.6	-58.1	3.8	1.49e+00	0	51	104	0	59	18330
2026-01-20 11:12:38.29	197.63	2.83	-43.7	-58.1	3.8	1.49e+00	0	50	104	0	59	18331
2026-01-20 11:12:39.30	197.69	2.89	-43.6	-58.1	3.8	1.49e+00	0	51	104	0	59	18326
2026-01-20 11:12:40.31	197.76	2.95	-43.6	-58.1	3.8	1.49e+00	0	51	104	0	59	18392
2026-01-20 11:12:41.32	197.82	3.01	-43.6	-58.1	3.8	1.49e+00	0	51	104	0	59	18316
2026-01-20 11:12:42.34	197.88	3.07	-43.6	-58.0	3.8	1.49e+00	0	51	104	0	59	18291
2026-01-20 11:12:43.34	197.94	3.13	-43.6	-58.1	3.8	1.49e+00	0	51	104	0	59	18314
2026-01-20 11:12:44.35	198.00	3.19	-43.6	-58.1	3.8	1.49e+00	0	51	104	0	59	18326
2026-01-20 11:12:45.37	198.07	3.26	-43.6	-58.0	3.8	1.49e+00	0	51	104	0	59	18279
2026-01-20 11:12:46.37	198.13	3.32	-43.6	-58.0	3.8	1.49e+00	0	51	104	0	59	18299
2026-01-20 11:12:47.39	198.19	3.38	-43.6	-58.0	3.8	1.49e+00	0	51	104	0	59	18297
2026-01-20 11:12:48.40	198.25	3.44	-43.6	-58.1	3.8	1.49e+00	0	51	104	0	59	18346
2026-01-20 11:12:49.41	198.32	3.50	-43.6	-58.1	3.8	1.49e+00	0	51	104	0	59	18345
2026-01-20 11:12:50.42	198.38	3.56	-43.6	-58.1	3.8	1.49e+00	0	52	104	0	59	18342
2026-01-20 11:12:51.43	198.44	3.63	-43.6	-58.0	3.8	1.49e+00	0	51	104	0	59	18285
2026-01-20 11:12:52.44	198.51	3.69	-43.6	-58.0	3.8	1.49e+00	0	52	104	0	59	18305
2026-01-20 11:12:53.45	198.57	3.75	-43.6	-58.0	3.8	1.49e+00	0	52	104	0	59	18305
2026-01-20 11:12:54.46	198.64	3.81	-43.6	-58.1	3.8	1.49e+00	0	52	104	0	59	18335
2026-01-20 11:12:55.47	198.70	3.87	-43.6	-58.1	3.8	1.49e+00	0	52	104	0	59	18321
2026-01-20 11:12:56.48	198.77	3.94	-43.6	-58.0	3.8	1.49e+00	0	52	104	0	59	18290
2026-01-20 11:12:57.49	198.83	4.00	-43.6	-58.1	3.8	1.49e+00	0	52	104	0	59	18372
2026-01-20 11:12:58.50	198.90	4.06	-43.6	-58.1	3.8	1.49e+00	0	52	104	0	59	18317
2026-01-20 11:12:59.51	198.96	4.13	-43.6	-58.0	3.8	1.49e+00	0	52	104	0	59	18300
2026-01-20 11:13:00.52	199.03	4.19	-43.6	-58.0	3.8	1.49e+00	0	52	104	0	59	18277
2026-01-20 11:13:01.53	199.10	4.25	-43.6	-58.1	3.8	1.49e+00	0	52	104	0	59	18307
2026-01-20 11:13:02.54	199.16	4.32	-43.6	-58.1	3.8	1.49e+00	0	52	104	0	59	18306
2026-01-20 11:13:03.55	199.23	4.38	-43.6	-58.0	3.8	1.49e+00	0	52	104	0	59	18294
2026-01-20 11:13:04.56	199.30	4.44	-43.6	-58.1	3.8	1.49e+00	0	52	104	0	59	18335
2026-01-20 11:13:05.57	199.37	4.51	-43.6	-58.0	3.8	1.49e+00	0	52	104	0	59	18301
2026-01-20 11:13:06.58	199.43	4.57	-43.6	-58.0	3.8	1.49e+00	0	52	104	0	59	18293
2026-01-20 11:13:07.59	199.50	4.63	-43.6	-58.0	3.8	1.49e+00	0	52	104	0	59	18263
2026-01-20 11:13:08.60	199.57	4.70	-43.6	-58.1	3.8	1.49e+00	0	52	104	0	59	18307
2026-01-20 11:13:09.61	199.64	4.76	-43.6	-58.0	3.8	1.49e+00	0	52	104	0	59	18272
2026-01-20 11:13:10.62	199.71	4.83	-43.6	-58.0	3.8	1.49e+00	0	52	104	0	59	18261
2026-01-20 11:13:11.63	199.78	4.89	-43.6	-58.0	3.8	1.49e+00	0	52	104	0	59	18267
2026-01-20 11:13:12.64	199.85	4.95	-43.6	-58.1	3.8	1.49e+00	0	52	104	0	59	18316
2026-01-20 11:13:13.66	199.92	5.02	-43.6	-58.0	3.8	1.49e+00	0	53	104	0	59	18269
2026-01-20 11:13:14.67	199.99	5.08	-43.6	-58.0	3.8	1.49e+00	0	53	104	0	59	18256
2026-01-20 11:13:15.68	200.06	5.15	-43.6	-58.0	3.8	1.49e+00	0	53	104	0	59	18239
2026-01-20 11:13:16.69	200.13	5.21	-43.6	-58.0	3.8	1.49e+00	0	53	104	0	59	18272
2026-01-20 11:13:17.70	200.20	5.28	-43.6	-57.9	3.8	1.49e+00	0	53	104	0	59	18083
2026-01-20 11:13:18.71	200.27	5.35	-43.6	-58.0	3.8	1.49e+00	0	53	104	0	59	18115
2026-01-20 11:13:19.72	200.34	5.41	-43.6	-57.9	3.8	1.49e+00	0	53	104	0	59	17960
2026-01-20 11:13:20.73	200.42	5.48	-43.6	-57.9	3.8	1.49e+00	0	53	104	0	59	17995
2026-01-20 11:13:21.73	200.49	5.54	-43.6	-57.9	3.8	1.49e+00	0	53	104	0	59	18013
2026-01-20 11:13:22.74	200.56	5.61	-43.6	-57.9	3.8	1.49e+00	0	53	104	0	59	18089
2026-01-20 11:13:23.75	200.63	5.67	-43.6	-57.9	3.8	1.49e+00	0	53	104	0	59	18011
2026-01-20 11:13:24.76	200.71	5.74	-43.6	-57.8	3.8	1.49e+00	0	53	104	0	59	17765
2026-01-20 11:13:25.77	200.78	5.80	-43.6	-57.5	3.8	1.49e+00	0	53	104	0	59	17146
2026-01-20 11:13:26.78	200.86	5.87	-43.6	-57.2	3.8	1.49e+00	0	53	104	0	59	16646
2026-01-20 11:13:27.79	200.93	5.94	-43.5	-56.8	3.8	1.49e+00	0	53	104	0	59	15791
2026-01-20 11:13:28.80	201.00	6.00	-43.5	-56.5	3.8	1.49e+00	0	53	104	0	59	15318
2026-01-20 11:13:29.81	201.08	6.07	-43.4	-56.2	3.8	1.49e+00	0	54	104	0	58	15652
2026-01-20 11:13:30.82	201.15	6.14	-43.5	-55.8	3.9	1.49e+00	0	53	104	0	58	14945
2026-01-20 11:13:31.83	201.23	6.20	-43.4	-55.3	4.0	1.47e+00	0	54	104	0	58	14191
2026-01-20 11:13:32.84	201.31	6.27	-43.4	-55.2	3.9	1.46e+00	0	54	104	0	58	13906
2026-01-20 11:13:33.85	201.38	6.34	-43.4	-54.7	3.9	1.44e+00	0	54	104	0	58	13234
2026-01-20 11:13:34.86	201.46	6.41	-43.4	-54.5	4.2	1.40e+00	0	54	0	0	58	12931
2026-01-20 11:13:35.87	201.54	6.47	-43.3	-53.9	4.4	1.36e+00	0	54	0	0	58	12043
2026-01-20 11:13:36.89	201.61	6.54	-43.3	-53.8	4.4	1.23e+00	0	54	0	1048576	58	11870
2026-01-20 11:13:37.90	201.69	6.61	-43.3	-53.7	4.4	1.11e+00	0	54	0	3145728	58	11784
2026-01-20 11:13:38.91	201.77	6.68	-43.3	-53.6	4.5	1.07e+00	0	54	0	5242880	58	11666
2026-01-20 11:13:39.92	201.85	6.75	-43.3	-54.1	4.3	1.29e+00	0	54	0	7340032	58	12269
2026-01-20 11:13:40.93	201.93	6.81	-43.3	-53.9	4.4	1.30e+00	0	54	0	7340032	58	11963
2026-01-20 11:13:41.94	202.01	6.88	-43.3	-53.7	4.5	1.19e+00	0	54	0	9437184	58	11705
2026-01-20 11:13:42.95	202.08	6.95	-43.3	-54.3	4.2	1.29e+00	0	54	0	11534336	58	12561
2026-01-20 11:13:43.96	202.16	7.02	-43.3	-54.4	4.2	1.38e+00	0	54	0	11534336	58	12762
2026-01-20 11:13:44.97	202.24	7.09	-43.3	-54.3	4.2	1.36e+00	0	54	0	11534336	58	12648
2026-01-20 11:13:45.98	202.33	7.16	-43.3	-53.9	4.4	1.33e+00	0	54	0	11534336	58	11983
2026-01-20 11:13:46.99	202.41	7.22	-43.2	-53.3	4.6	1.05e+00	0	54	0	13631488	58	11286
2026-01-20 11:13:48.00	202.49	7.29	-43.1	-52.6	4.9	7.61e-01	0	54	0	15728640	58	10324
2026-01-20 11:13:49.01	202.57	7.36	-43.0	-51.7	5.4	6.23e-01	0	54	0	16777216	58	9373
2026-01-20 11:13:50.03	202.65	7.43	-42.8	-50.7	6.1	4.18e-01	0	54	0	18874368	57	8848
2026-01-20 11:13:51.04	202.73	7.50	-42.7	-50.1	6.6	2.55e-01	0	54	0	20971520	57	8267
2026-01-20 11:13:52.05	202.82	7.57	-42.5	-49.4	7.3	1.79e-01	0	55	0	23068672	57	7557
2026-01-20 11:13:53.06	202.90	7.64	-42.5	-49.0	7.6	1.04e-01	0	54	0	25165824	56	7672
2026-01-20 11:13:54.07	202.98	7.71	-42.4	-48.7	7.9	8.12e-02	0	55	0	27262976	56	7424
2026-01-20 11:13:55.08	203.07	7.78	-42.3	-48.4	8.2	6.56e-02	0	54	0	28311552	56	7201
2026-01-20 11:13:56.09	203.15	7.85	-42.2	-48.2	8.4	4.50e-02	0	54	0	30408704	56	7030
2026-01-20 11:13:57.10	203.24	7.92	-42.3	-48.4	8.2	4.82e-02	0	54	0	32505856	56	7194
2026-01-20 11:13:58.11	203.32	7.99	-42.3	-48.7	8.0	4.43e-02	0	55	0	34603008	56	7373
2026-01-20 11:13:59.12	203.41	8.06	-42.4	-48.9	7.8	6.66e-02	0	55	0	36700160	56	7588
2026-01-20 11:14:00.13	203.49	8.14	-42.6	-49.4	7.4	1.13e-01	0	55	0	37748736	56	8015
2026-01-20 11:14:01.14	203.58	8.21	-42.5	-49.1	7.5	1.28e-01	0	55	0	39845888	56	7791
2026-01-20 11:14:02.15	203.67	8.28	-43.3	-54.8	3.9	4.28e-01	0	55	104	40894464	57	14186
2026-01-20 11:14:03.16	203.75	8.35	-43.4	-56.4	3.8	1.42e+00	0	55	104	40894464	57	16984
2026-01-20 11:14:04.17	203.84	8.42	-43.1	-52.9	4.9	4.01e-01	0	55	0	40894464	56	11956
2026-01-20 11:14:05.18	203.93	8.49	-42.1	-48.1	8.6	7.85e-02	0	55	0	42991616	56	6927
2026-01-20 11:14:06.19	204.02	8.56	-42.1	-47.9	8.8	3.26e-02	0	55	0	45088768	56	6782
2026-01-20 11:14:07.20	204.10	8.63	-42.0	-47.9	8.8	3.08e-02	0	55	0	47185920	56	6759
2026-01-20 11:14:08.20	204.19	8.71	-42.0	-47.8	8.9	3.34e-02	0	55	0	49283072	56	6680
2026-01-20 11:14:09.21	204.28	8.78	-41.8	-47.5	9.0	2.27e-02	0	55	0	50331648	55	6857
2026-01-20 11:14:10.22	204.37	8.85	-41.8	-47.4	9.0	2.19e-02	0	55	0	52428800	55	6796
2026-01-20 11:14:11.23	204.46	8.92	-41.7	-47.3	9.1	2.03e-02	0	55	0	54525952	55	6712
2026-01-20 11:14:12.24	204.55	9.00	-41.6	-47.1	9.4	2.17e-02	0	55	0	56623104	55	6554
2026-01-20 11:14:13.25	204.64	9.07	-41.7	-47.1	9.4	1.70e-02	0	55	0	58720256	55	6506
2026-01-20 11:14:14.26	204.74	9.14	-41.7	-47.0	9.6	1.40e-02	0	55	0	59768832	55	6432
2026-01-20 11:14:15.27	204.83	9.21	-41.7	-46.9	9.7	1.11e-02	0	55	0	61865984	55	6405
2026-01-20 11:14:16.28	204.92	9.29	-41.7	-46.9	9.8	1.05e-02	0	55	0	63963136	55	6370
2026-01-20 11:14:17.28	205.01	9.36	-41.7	-46.8	9.9	8.33e-03	0	55	0	66060288	55	6296
2026-01-20 11:14:18.29	205.11	9.43	-41.7	-46.7	10.0	7.88e-03	0	55	0	68157440	55	6237
2026-01-20 11:14:19.30	205.20	9.51	-41.7	-46.6	10.2	7.52e-03	0	55	0	69206016	55	6159
2026-01-20 11:14:20.31	205.30	9.58	-41.8	-46.6	10.3	5.53e-03	0	55	0	71303168	55	6167
2026-01-20 11:14:21.32	205.39	9.66	-41.8	-46.6	10.3	4.26e-03	0	55	0	73400320	55	6198
2026-01-20 11:14:22.33	205.49	9.73	-41.8	-46.6	10.3	4.91e-03	0	55	0	75497472	55	6164
2026-01-20 11:14:23.34	205.58	9.80	-41.8	-46.4	10.5	4.39e-03	0	55	0	77594624	55	6039
2026-01-20 11:14:24.35	205.68	9.88	-41.8	-46.4	10.6	4.08e-03	0	55	0	78643200	55	6026
2026-01-20 11:14:25.36	205.77	9.95	-41.7	-46.2	10.8	2.99e-03	0	55	0	80740352	55	5914
2026-01-20 11:14:26.37	205.87	10.03	-41.7	-46.2	10.9	2.11e-03	0	56	0	82837504	55	5898
2026-01-20 11:14:27.38	205.97	10.10	-41.7	-46.1	10.9	2.15e-03	0	55	0	84934656	55	5844
2026-01-20 11:14:28.39	206.07	10.18	-41.7	-46.1	11.0	1.89e-03	0	56	0	87031808	55	5801
2026-01-20 11:14:29.40	206.17	10.25	-41.7	-46.2	10.9	1.94e-03	0	56	0	88080384	55	5906
2026-01-20 11:14:30.41	206.27	10.33	-41.7	-46.2	11.0	1.66e-03	0	56	0	90177536	55	5857
2026-01-20 11:14:31.41	206.36	10.40	-41.7	-46.1	11.1	1.71e-03	0	56	0	92274688	55	5807
2026-01-20 11:14:32.42	206.46	10.48	-41.6	-45.9	11.3	1.29e-03	0	55	0	94371840	55	5699
2026-01-20 11:14:33.43	206.56	10.55	-41.7	-46.1	11.1	1.96e-03	0	56	0	96468992	55	5789
2026-01-20 11:14:34.45	206.67	10.63	-41.7	-46.1	11.1	2.27e-03	0	56	0	97517568	55	5791
2026-01-20 11:14:35.46	206.77	10.71	-41.7	-46.1	11.2	2.10e-03	0	56	0	99614720	55	5822
2026-01-20 11:14:36.46	206.87	10.78	-41.9	-46.5	10.7	3.20e-03	0	56	0	101711872	55	6110
2026-01-20 11:14:37.47	206.97	10.86	-41.8	-46.3	10.9	3.63e-03	0	56	0	103809024	55	5983
2026-01-20 11:14:38.48	207.08	10.94	-41.9	-46.4	10.9	2.59e-03	0	56	0	105906176	55	6038
2026-01-20 11:14:39.49	207.18	11.01	-41.9	-46.4	10.8	2.98e-03	0	56	0	108003328	55	6039
2026-01-20 11:14:40.50	207.28	11.09	-42.0	-46.6	10.7	2.44e-03	0	56	0	109051904	55	6195
2026-01-20 11:14:41.51	207.39	11.17	-42.0	-46.7	10.7	3.15e-03	0	56	0	111149056	55	6205
2026-01-20 11:14:42.52	207.49	11.24	-41.9	-46.6	10.8	3.40e-03	0	56	0	113246208	55	6136
2026-01-20 11:14:43.53	207.60	11.32	-42.0	-46.6	10.7	3.11e-03	0	56	0	115343360	55	6169
2026-01-20 11:14:44.54	207.71	11.40	-41.9	-46.3	10.9	2.47e-03	0	56	0	117440512	55	5980
2026-01-20 11:14:45.55	207.81	11.48	-41.9	-46.4	10.9	2.55e-03	0	56	0	118489088	55	6047
2026-01-20 11:14:46.56	207.92	11.55	-41.9	-46.4	11.0	2.29e-03	0	56	0	120586240	55	5995
2026-01-20 11:14:47.57	208.03	11.63	-41.7	-46.0	11.2	2.72e-03	0	56	0	122683392	55	5782
2026-01-20 11:14:48.58	208.14	11.71	-41.7	-45.9	11.3	2.06e-03	0	56	0	124780544	55	5699
2026-01-20 11:14:49.59	208.25	11.79	-41.6	-45.7	11.5	2.33e-03	0	56	0	126877696	55	5565
2026-01-20 11:14:50.60	208.36	11.87	-41.6	-45.7	11.5	2.21e-03	0	56	0	127926272	55	5570
2026-01-20 11:14:51.61	208.47	11.95	-41.6	-45.7	11.6	1.61e-03	0	56	0	130023424	55	5536
2026-01-20 11:14:52.62	208.58	12.02	-41.6	-45.8	11.6	1.22e-03	0	56	0	132120576	55	5603
2026-01-20 11:14:53.62	208.69	12.10	-41.5	-45.5	11.9	6.00e-04	0	56	0	134217728	55	5440
2026-01-20 11:14:54.63	208.80	12.18	-41.5	-45.5	11.9	5.25e-04	0	56	0	136314880	55	5410
2026-01-20 11:14:55.64	208.91	12.26	-41.5	-45.5	12.0	2.83e-04	0	56	0	137363456	54	5742
2026-01-20 11:14:56.65	209.03	12.34	-41.5	-45.4	12.0	2.61e-04	0	56	0	139460608	54	5721
2026-01-20 11:14:57.66	209.14	12.42	-41.6	-45.5	12.0	2.54e-04	0	56	0	141557760	54	5750
2026-01-20 11:14:58.67	209.25	12.50	-41.6	-45.5	12.0	3.32e-04	0	56	0	143654912	54	5750
2026-01-20 11:14:59.68	209.37	12.58	-41.6	-45.5	12.1	2.24e-04	0	56	0	145752064	54	5738
2026-01-20 11:15:00.69	209.48	12.66	-41.6	-45.6	12.0	2.77e-04	0	56	0	146800640	54	5828
2026-01-20 11:15:01.70	209.60	12.74	-41.7	-45.7	11.8	4.07e-04	0	56	0	148897792	54	5862
2026-01-20 11:15:02.71	209.72	12.82	-41.6	-45.5	12.0	4.38e-04	0	56	0	150994944	54	5783
2026-01-20 11:15:03.71	209.83	12.90	-41.6	-45.6	11.9	3.22e-04	0	56	0	153092096	54	5823
2026-01-20 11:15:04.72	209.95	12.98	-41.8	-45.9	11.6	4.86e-04	0	56	0	155189248	54	6055
2026-01-20 11:15:05.73	210.07	13.06	-41.7	-45.6	11.9	5.19e-04	0	56	0	156237824	54	5855
2026-01-20 11:15:06.74	210.19	13.14	-41.7	-45.9	11.5	5.65e-04	0	56	0	158334976	54	6055
2026-01-20 11:15:07.75	210.31	13.23	-41.8	-45.9	11.6	7.32e-04	0	56	0	160432128	54	6060
2026-01-20 11:15:08.76	210.43	13.31	-41.8	-45.9	11.7	7.41e-04	0	56	0	162529280	54	5993
2026-01-20 11:15:09.77	210.55	13.39	-41.9	-46.1	11.4	9.47e-04	0	56	0	164626432	54	6185
2026-01-20 11:15:10.78	210.67	13.47	-41.8	-46.0	11.6	1.01e-03	0	56	0	165675008	54	6064
2026-01-20 11:15:11.79	210.80	13.55	-41.8	-46.0	11.5	9.20e-04	0	56	0	167772160	54	6098
2026-01-20 11:15:12.80	210.92	13.63	-41.9	-46.1	11.5	7.19e-04	0	57	0	169869312	54	6152
2026-01-20 11:15:13.81	211.04	13.72	-41.9	-46.1	11.4	8.06e-04	0	57	0	171966464	54	6158
2026-01-20 11:15:14.82	211.17	13.80	-41.7	-45.7	11.8	5.78e-04	0	57	0	174063616	54	5918
2026-01-20 11:15:15.83	211.29	13.88	-41.8	-46.0	11.6	5.10e-04	0	56	0	176160768	54	6095
2026-01-20 11:15:16.84	211.42	13.96	-41.9	-46.0	11.6	5.22e-04	0	57	0	177209344	54	6090
2026-01-20 11:15:17.85	211.55	14.05	-41.7	-45.6	12.1	4.94e-04	0	57	0	179306496	54	5806
2026-01-20 11:15:18.86	211.67	14.13	-41.7	-45.7	12.0	3.94e-04	0	56	0	181403648	54	5864
2026-01-20 11:15:19.86	211.80	14.21	-41.7	-45.7	11.9	4.70e-04	0	57	0	183500800	54	5893
2026-01-20 11:15:20.87	211.93	14.29	-41.7	-45.6	12.0	3.39e-04	0	57	0	185597952	54	5816
2026-01-20 11:15:21.88	212.06	14.38	-41.8	-45.8	11.8	4.51e-04	0	56	0	186646528	54	5968
2026-01-20 11:15:22.89	212.19	14.46	-41.9	-45.9	11.7	5.73e-04	0	57	0	188743680	54	6054
2026-01-20 11:15:23.91	212.32	14.55	-41.9	-46.1	11.6	7.10e-04	0	57	0	190840832	54	6164
2026-01-20 11:15:24.91	212.45	14.63	-42.0	-46.2	11.4	7.92e-04	0	57	0	192937984	54	6266
2026-01-20 11:15:25.92	212.58	14.71	-42.1	-46.4	11.2	1.26e-03	0	57	0	195035136	54	6410
2026-01-20 11:15:26.93	212.71	14.80	-42.1	-46.5	11.1	1.01e-03	0	57	0	196083712	54	6422
2026-01-20 11:15:27.94	212.85	14.88	-42.0	-46.2	11.5	1.07e-03	0	57	0	198180864	54	6247
2026-01-20 11:15:28.95	212.98	14.97	-42.0	-46.3	11.4	1.31e-03	0	57	0	200278016	54	6292
2026-01-20 11:15:29.96	213.12	15.05	-42.0	-46.2	11.4	1.08e-03	0	57	0	202375168	54	6247
2026-01-20 11:15:30.97	213.25	15.14	-42.0	-46.2	11.4	9.89e-04	0	57	0	204472320	54	6231
2026-01-20 11:15:31.98	213.39	15.22	-42.0	-46.2	11.4	7.90e-04	0	57	0	205520896	54	6242
2026-01-20 11:15:32.99	213.53	15.31	-41.8	-46.2	11.3	4.18e-03	0	57	0	207618048	54	6205
2026-01-20 11:15:34.00	213.67	15.39	-41.8	-46.0	11.5	7.54e-03	0	57	0	209715200	54	6114
2026-01-20 11:15:35.01	213.80	15.48	-41.8	-46.1	11.5	7.54e-03	0	57	0	211812352	54	6171
2026-01-20 11:15:36.02	213.94	15.56	-41.8	-46.2	11.3	7.43e-03	0	57	0	213909504	54	6266
2026-01-20 11:15:37.03	214.08	15.65	-41.8	-46.4	11.2	7.50e-03	0	57	0	214958080	54	6359
2026-01-20 11:15:38.04	214.23	15.73	-41.8	-46.4	11.2	7.96e-03	0	57	0	217055232	54	6354
2026-01-20 11:15:39.04	214.37	15.82	-41.8	-46.5	11.1	8.05e-03	0	57	0	219152384	54	6479
2026-01-20 11:15:40.05	214.51	15.90	-42.0	-46.5	11.1	8.24e-03	0	57	0	221249536	54	6470
2026-01-20 11:15:41.06	214.65	15.99	-42.0	-46.8	10.8	8.49e-03	0	57	0	223346688	54	6671
2026-01-20 11:15:42.07	214.80	16.08	-41.9	-46.8	10.9	9.21e-03	0	57	0	224395264	54	6658
2026-01-20 11:15:43.08	214.94	16.16	-42.0	-46.9	10.7	9.17e-03	0	57	0	226492416	54	6746
2026-01-20 11:15:44.09	215.09	16.25	-42.0	-46.9	10.7	9.21e-03	0	57	0	228589568	54	6732
2026-01-20 11:15:45.10	215.24	16.34	-41.9	-46.7	10.9	9.40e-03	0	57	0	230686720	54	6602
2026-01-20 11:15:46.11	215.38	16.42	-41.9	-46.7	10.9	9.49e-03	0	57	0	232783872	54	6614
2026-01-20 11:15:47.12	215.53	16.51	-41.9	-46.8	10.8	8.92e-03	0	57	0	233832448	54	6712
2026-01-20 11:15:48.13	215.68	16.60	-41.9	-46.7	10.9	9.01e-03	0	57	0	235929600	54	6629
2026-01-20 11:15:49.14	215.83	16.69	-41.7	-46.6	11.0	9.07e-03	0	57	0	238026752	54	6497
2026-01-20 11:15:50.15	215.98	16.77	-41.7	-46.4	11.1	8.76e-03	0	57	0	240123904	54	6410
2026-01-20 11:15:51.16	216.13	16.86	-42.2	-46.5	11.3	2.60e-03	0	57	0	242221056	54	6488
2026-01-20 11:15:52.17	216.29	16.95	-42.1	-46.2	11.5	8.82e-04	0	57	0	244318208	54	6272
2026-01-20 11:15:53.18	216.44	17.04	-42.0	-46.2	11.6	6.64e-04	0	57	0	245366784	54	6247
2026-01-20 11:15:54.19	216.59	17.12	-42.0	-46.0	11.8	4.86e-04	0	57	0	247463936	54	6108
2026-01-20 11:15:55.20	216.75	17.21	-41.8	-45.9	11.9	3.97e-04	0	57	0	249561088	54	6052
2026-01-20 11:15:56.20	216.90	17.30	-41.9	-45.9	11.9	4.19e-04	0	57	0	251658240	54	6055
2026-01-20 11:15:57.21	217.06	17.39	-41.9	-45.9	11.9	3.81e-04	0	57	0	252706816	54	6017
2026-01-20 11:15:58.22	217.22	17.48	-41.8	-45.7	12.1	3.36e-04	0	57	0	254803968	54	5894
2026-01-20 11:15:59.23	217.38	17.56	-41.8	-45.7	12.2	2.47e-04	0	57	0	256901120	54	5889
2026-01-20 11:16:00.24	217.54	17.65	-41.8	-45.7	12.1	2.35e-04	0	57	0	258998272	54	5887
2026-01-20 11:16:01.25	217.70	17.74	-41.8	-45.7	12.2	2.44e-04	0	57	0	261095424	54	5868
2026-01-20 11:16:02.26	217.86	17.83	-41.8	-45.6	12.2	2.01e-04	0	57	0	262144000	54	5798
2026-01-20 11:16:03.27	218.02	17.92	-41.7	-45.5	12.3	2.59e-04	0	57	0	264241152	54	5766
2026-01-20 11:16:04.27	218.19	18.01	-41.7	-45.4	12.4	2.10e-04	0	57	0	266338304	54	5716
2026-01-20 11:16:05.28	218.35	18.10	-41.6	-45.4	12.4	1.79e-04	0	57	0	268435456	54	5685
2026-01-20 11:16:06.29	218.52	18.18	-41.7	-45.4	12.4	1.27e-04	0	57	0	270532608	54	5685
2026-01-20 11:16:07.30	218.68	18.27	-41.7	-45.4	12.4	1.90e-04	0	57	0	272629760	54	5708
2026-01-20 11:16:08.31	218.85	18.36	-41.8	-45.6	12.3	1.65e-04	0	57	0	273678336	54	5806
2026-01-20 11:16:09.32	219.02	18.45	-41.8	-45.6	12.3	1.62e-04	0	57	0	275775488	54	5795
2026-01-20 11:16:10.33	219.19	18.54	-41.8	-45.7	12.1	2.27e-04	0	57	0	277872640	54	5902
2026-01-20 11:16:11.34	219.36	18.63	-41.8	-45.6	12.2	1.91e-04	0	57	0	279969792	54	5845
2026-01-20 11:16:12.35	219.53	18.72	-41.8	-45.7	12.2	1.89e-04	0	57	0	282066944	54	5875
2026-01-20 11:16:13.36	219.70	18.81	-41.7	-45.5	12.3	2.50e-04	0	57	0	283115520	54	5765
2026-01-20 11:16:14.36	219.87	18.90	-41.8	-45.6	12.2	2.00e-04	0	57	0	285212672	54	5833
2026-01-20 11:16:15.37	220.05	18.99	-41.6	-45.5	12.4	1.55e-04	0	57	0	287309824	54	5735
2026-01-20 11:16:16.38	220.22	19.08	-41.8	-45.6	12.3	1.38e-04	0	57	0	289406976	54	5828
2026-01-20 11:16:17.39	220.40	19.17	-41.7	-45.5	12.3	1.94e-04	0	57	0	291504128	54	5764
2026-01-20 11:16:18.40	220.57	19.26	-41.7	-45.4	12.5	1.44e-04	0	57	0	292552704	54	5716
2026-01-20 11:16:19.41	220.75	19.35	-41.8	-45.7	12.2	2.07e-04	0	57	0	294649856	54	5879
2026-01-20 11:16:20.42	220.93	19.44	-41.8	-45.5	12.4	8.31e-05	0	57	0	296747008	54	5775
2026-01-20 11:16:21.43	221.11	19.53	-41.7	-45.4	12.5	1.43e-04	0	57	0	298844160	54	5678
2026-01-20 11:16:22.44	221.29	19.62	-41.7	-45.5	12.4	1.06e-04	0	58	0	300941312	54	5745
2026-01-20 11:16:23.44	221.47	19.71	-41.6	-45.3	12.6	7.32e-05	0	57	0	301989888	54	5620
2026-01-20 11:16:24.45	221.66	19.80	-41.5	-44.9	13.0	5.79e-05	0	57	0	304087040	54	5378
2026-01-20 11:16:25.46	221.84	19.89	-41.6	-45.1	12.8	6.02e-05	0	57	0	306184192	54	5497
2026-01-20 11:16:26.47	222.03	19.98	-41.5	-45.1	12.9	5.03e-05	0	57	0	308281344	54	5498
2026-01-20 11:16:27.48	222.21	20.07	-41.4	-44.9	13.1	4.19e-05	0	57	0	310378496	54	5342
2026-01-20 11:16:28.49	222.40	20.16	-41.4	-44.9	13.0	3.35e-05	0	57	0	311427072	54	5376
2026-01-20 11:16:29.50	222.59	20.25	-41.4	-44.8	13.2	2.97e-05	0	57	0	313524224	54	5286
2026-01-20 11:16:30.51	222.78	20.34	-41.4	-44.8	13.1	2.97e-05	0	57	0	315621376	54	5325
2026-01-20 11:16:31.53	222.97	20.44	-41.3	-44.6	13.4	2.44e-05	0	58	0	317718528	54	5175
2026-01-20 11:16:32.54	223.17	20.53	-41.3	-44.6	13.3	1.98e-05	0	57	0	319815680	54	5214
2026-01-20 11:16:33.55	223.36	20.62	-41.3	-44.7	13.2	2.44e-05	0	57	0	320864256	54	5271
2026-01-20 11:16:34.56	223.55	20.71	-41.4	-44.7	13.2	2.36e-05	0	57	0	322961408	54	5277
2026-01-20 11:16:35.57	223.75	20.80	-41.3	-44.7	13.3	2.89e-05	0	57	0	325058560	54	5226
2026-01-20 11:16:36.58	223.94	20.89	-41.3	-44.7	13.3	2.97e-05	0	57	0	327155712	54	5243
2026-01-20 11:16:37.59	224.14	20.98	-41.3	-44.6	13.3	2.21e-05	0	57	0	329252864	54	5203
2026-01-20 11:16:38.60	224.34	21.07	-41.3	-44.6	13.3	1.06e-05	0	58	0	330301440	54	5204
2026-01-20 11:16:39.60	224.54	21.16	-41.2	-44.5	13.5	1.06e-05	0	58	0	332398592	54	5127
2026-01-20 11:16:40.61	224.74	21.25	-41.3	-44.6	13.3	8.30e-06	0	57	0	334495744	54	5190
2026-01-20 11:16:41.62	224.94	21.34	-41.2	-44.4	13.5	1.29e-05	0	57	0	336592896	54	5099
2026-01-20 11:16:42.63	225.15	21.43	-41.1	-44.5	13.4	1.14e-05	0	57	0	338690048	54	5125
2026-01-20 11:16:43.64	225.35	21.52	-41.4	-44.7	13.2	1.83e-05	0	58	0	340787200	54	5276
2026-01-20 11:16:44.65	225.56	21.61	-41.5	-44.9	13.0	2.74e-05	0	57	0	341835776	54	5382
2026-01-20 11:16:45.66	225.76	21.70	-41.6	-45.1	12.8	4.73e-05	0	58	0	343932928	54	5524
2026-01-20 11:16:46.67	225.97	21.79	-41.5	-45.1	12.9	4.80e-05	0	57	0	346030080	54	5470
2026-01-20 11:16:47.68	226.18	21.88	-41.7	-45.3	12.7	5.18e-05	0	57	0	348127232	54	5629
2026-01-20 11:16:48.69	226.39	21.97	-41.7	-45.4	12.6	6.63e-05	0	58	0	350224384	54	5701
2026-01-20 11:16:49.70	226.60	22.06	-41.8	-45.6	12.4	1.18e-04	0	58	0	351272960	54	5826
2026-01-20 11:16:50.71	226.81	22.15	-41.8	-45.5	12.5	1.07e-04	0	57	0	353370112	54	5768
2026-01-20 11:16:51.72	227.03	22.24	-41.8	-45.5	12.4	1.56e-04	0	58	0	355467264	54	5788
2026-01-20 11:16:52.73	227.24	22.33	-41.7	-45.4	12.6	1.23e-04	0	57	0	357564416	54	5664
2026-01-20 11:16:53.73	227.46	22.42	-41.8	-45.5	12.5	1.27e-04	0	58	0	359661568	54	5736
2026-01-20 11:16:54.74	227.68	22.51	-41.6	-45.2	12.8	9.68e-05	0	57	0	360710144	54	5577
2026-01-20 11:16:55.75	227.89	22.60	-41.6	-45.2	12.8	6.40e-05	0	58	0	362807296	54	5552
2026-01-20 11:16:56.76	228.11	22.69	-41.5	-45.0	13.0	3.28e-05	0	58	0	364904448	54	5431
2026-01-20 11:16:57.77	228.34	22.78	-41.4	-44.8	13.2	2.97e-05	0	58	0	367001600	54	5286
2026-01-20 11:16:58.78	228.56	22.87	-41.3	-44.6	13.4	2.13e-05	0	58	0	369098752	54	5203
2026-01-20 11:16:59.79	228.78	22.96	-41.4	-44.7	13.3	1.60e-05	0	58	0	370147328	54	5241
2026-01-20 11:17:00.80	229.01	23.05	-41.2	-44.5	13.4	9.90e-06	0	58	0	372244480	54	5157
2026-01-20 11:17:01.81	229.23	23.14	-41.3	-44.6	13.5	1.06e-05	0	58	0	374341632	54	5184
2026-01-20 11:17:02.82	229.46	23.22	-41.3	-44.5	13.4	1.90e-05	0	58	0	376438784	54	5158
2026-01-20 11:17:03.83	229.69	23.31	-41.3	-44.6	13.3	1.37e-05	0	58	0	378535936	54	5206
2026-01-20 11:17:04.84	229.92	23.40	-41.3	-44.6	13.4	1.44e-05	0	57	0	379584512	54	5195
2026-01-20 11:17:05.85	230.15	23.49	-41.4	-44.8	13.2	1.60e-05	0	58	0	381681664	54	5302
2026-01-20 11:17:06.85	230.38	23.58	-41.3	-44.6	13.4	2.21e-05	0	58	0	383778816	54	5177
2026-01-20 11:17:07.86	230.62	23.66	-41.4	-44.8	13.2	1.90e-05	0	58	0	385875968	54	5302
2026-01-20 11:17:08.87	230.85	23.75	-41.3	-44.7	13.3	2.82e-05	0	58	0	387973120	54	5233
2026-01-20 11:17:09.88	231.09	23.84	-41.1	-44.5	13.5	2.44e-05	0	58	0	389021696	54	5150
2026-01-20 11:17:10.89	231.33	23.93	-41.2	-44.3	13.6	1.44e-05	0	58	0	391118848	53	5334
2026-01-20 11:17:11.90	231.56	24.01	-41.1	-44.3	13.7	4.50e-06	0	58	0	393216000	53	5285
2026-01-20 11:17:12.91	231.80	24.10	-41.2	-44.3	13.7	6.10e-06	0	58	0	395313152	53	5339
2026-01-20 11:17:13.92	232.05	24.19	-41.1	-44.3	13.7	6.80e-06	0	58	0	397410304	53	5297
2026-01-20 11:17:14.93	232.29	24.27	-41.1	-44.2	13.8	4.50e-06	0	58	0	398458880	53	5252
2026-01-20 11:17:15.94	232.53	24.36	-41.2	-44.4	13.6	3.00e-06	0	58	0	400556032	53	5356
2026-01-20 11:17:16.95	232.78	24.44	-41.3	-44.6	13.4	8.30e-06	0	58	0	402653184	53	5490
2026-01-20 11:17:17.96	233.03	24.53	-41.4	-44.8	13.2	2.05e-05	0	58	0	404750336	53	5607
2026-01-20 11:17:18.97	233.27	24.62	-41.5	-45.0	13.0	2.21e-05	0	58	0	406847488	53	5726
2026-01-20 11:17:19.98	233.52	24.70	-41.6	-45.1	12.9	3.58e-05	0	58	0	407896064	53	5837
2026-01-20 11:17:20.99	233.77	24.79	-41.8	-45.5	12.5	8.16e-05	0	58	0	409993216	54	5728
2026-01-20 11:17:22.00	234.03	24.87	-41.7	-45.4	12.6	1.46e-04	0	58	0	412090368	54	5674
2026-01-20 11:17:23.01	234.28	24.95	-41.7	-45.3	12.6	1.20e-04	0	58	0	414187520	54	5641
2026-01-20 11:17:24.02	234.53	25.04	-41.6	-45.1	12.9	6.86e-05	0	58	0	416284672	54	5505
2026-01-20 11:17:25.03	234.79	25.12	-41.7	-45.4	12.6	8.08e-05	0	58	0	418381824	54	5658
2026-01-20 11:17:26.03	235.05	25.20	-41.6	-45.1	12.9	6.79e-05	0	58	0	419430400	54	5520
2026-01-20 11:17:27.04	235.30	25.29	-41.8	-45.6	12.5	7.78e-05	0	58	0	421527552	54	5790
2026-01-20 11:17:28.05	235.56	25.37	-41.9	-45.6	12.4	1.08e-04	0	58	0	423624704	54	5819
2026-01-20 11:17:29.06	235.83	25.45	-41.9	-45.6	12.4	1.63e-04	0	58	0	425721856	54	5830
2026-01-20 11:17:30.07	236.09	25.53	-41.8	-45.6	12.4	1.34e-04	0	58	0	427819008	54	5817
2026-01-20 11:17:31.08	236.35	25.61	-41.8	-45.4	12.6	1.20e-04	0	58	0	428867584	54	5714
2026-01-20 11:17:32.09	236.62	25.69	-41.7	-45.4	12.6	9.68e-05	0	58	0	430964736	54	5667
2026-01-20 11:17:33.10	236.88	25.77	-41.7	-45.4	12.6	9.68e-05	0	58	0	433061888	54	5679
2026-01-20 11:17:34.11	237.15	25.85	-41.7	-45.4	12.6	9.30e-05	0	58	0	435159040	54	5659
2026-01-20 11:17:35.12	237.42	25.93	-41.6	-45.1	12.9	5.87e-05	0	58	0	437256192	54	5486
2026-01-20 11:17:36.13	237.69	26.01	-41.5	-44.9	13.1	3.20e-05	0	58	0	438304768	54	5346
2026-01-20 11:17:37.14	237.96	26.09	-41.4	-44.7	13.2	1.75e-05	0	58	0	440401920	54	5276
2026-01-20 11:17:38.15	238.24	26.17	-41.4	-44.8	13.3	2.28e-05	0	58	0	442499072	54	5280
2026-01-20 11:17:39.16	238.51	26.25	-41.5	-44.8	13.1	3.35e-05	0	58	0	444596224	54	5335
2026-01-20 11:17:40.17	238.79	26.33	-41.6	-45.2	12.8	3.35e-05	0	58	0	446693376	54	5531
2026-01-20 11:17:41.18	239.07	26.40	-41.8	-45.5	12.5	6.10e-05	0	58	0	447741952	54	5731
2026-01-20 11:17:42.19	239.34	26.48	-42.0	-45.8	12.2	1.33e-04	0	58	0	449839104	54	5963
2026-01-20 11:17:43.19	239.62	26.55	-41.9	-45.7	12.3	1.90e-04	0	58	0	451936256	54	5905
2026-01-20 11:17:44.20	239.90	26.63	-42.0	-45.9	12.1	2.62e-04	0	58	0	454033408	54	6037
2026-01-20 11:17:45.21	240.19	26.70	-42.0	-45.9	12.1	2.88e-04	0	58	0	456130560	54	6030
2026-01-20 11:17:46.22	240.47	26.78	-42.1	-46.1	11.9	4.58e-04	0	58	0	457179136	55	5829
2026-01-20 11:17:47.23	240.75	26.85	-42.0	-45.9	12.1	4.20e-04	0	58	0	459276288	55	5692
2026-01-20 11:17:48.24	241.04	26.93	-41.8	-45.4	12.6	1.43e-04	0	58	0	461373440	55	5391
2026-01-20 11:17:49.25	241.33	27.00	-41.8	-45.4	12.6	8.92e-05	0	58	0	463470592	55	5366
2026-01-20 11:17:50.26	241.62	27.07	-41.7	-45.2	12.8	7.55e-05	0	58	0	465567744	55	5251
2026-01-20 11:17:51.27	241.91	27.14	-41.6	-45.1	12.9	6.10e-05	0	58	0	466616320	55	5199
2026-01-20 11:17:52.27	242.20	27.21	-41.7	-45.3	12.6	4.27e-05	0	58	0	468713472	55	5337
2026-01-20 11:17:53.28	242.49	27.28	-41.6	-45.1	12.9	6.56e-05	0	58	0	470810624	55	5210
2026-01-20 11:17:54.29	242.78	27.35	-41.6	-45.2	12.8	4.50e-05	0	58	0	472907776	55	5222
2026-01-20 11:17:55.30	243.08	27.42	-41.7	-45.3	12.7	6.02e-05	0	58	0	475004928	55	5295
2026-01-20 11:17:56.31	243.37	27.49	-41.9	-45.6	12.4	1.14e-04	0	58	0	476053504	55	5514
2026-01-20 11:17:57.32	243.67	27.56	-42.2	-46.2	11.8	2.92e-04	0	58	0	478150656	55	5899
2026-01-20 11:17:58.33	243.97	27.62	-42.3	-46.6	11.4	7.61e-04	0	58	0	480247808	55	6137
2026-01-20 11:17:59.34	244.27	27.69	-42.3	-46.5	11.5	9.19e-04	0	58	0	482344960	55	6116
2026-01-20 11:18:00.35	244.57	27.76	-42.1	-46.1	11.8	7.08e-04	0	58	0	484442112	55	5855
2026-01-20 11:18:01.36	244.87	27.82	-41.7	-45.2	12.8	9.23e-05	0	58	0	485490688	55	5241
2026-01-20 11:18:02.37	245.18	27.89	-41.5	-44.8	13.2	4.65e-05	0	58	0	487587840	55	5037
2026-01-20 11:18:03.38	245.48	27.95	-41.3	-44.6	13.4	2.28e-05	0	58	0	489684992	54	5203
2026-01-20 11:18:04.39	245.79	28.01	-41.4	-44.7	13.3	1.44e-05	0	58	0	491782144	54	5270
2026-01-20 11:18:05.40	246.10	28.08	-41.8	-45.4	12.6	4.34e-05	0	58	0	493879296	54	5704
2026-01-20 11:18:06.41	246.41	28.14	-41.8	-45.5	12.5	5.72e-05	0	58	0	494927872	54	5733
2026-01-20 11:18:07.42	246.72	28.20	-42.0	-45.8	12.2	1.94e-04	0	58	0	497025024	54	5937
2026-01-20 11:18:08.43	247.03	28.26	-42.1	-46.0	12.0	2.72e-04	0	58	0	499122176	54	6130
2026-01-20 11:18:09.44	247.34	28.32	-42.0	-45.7	12.3	2.27e-04	0	58	0	501219328	54	5916
2026-01-20 11:18:10.44	247.65	28.38	-42.0	-45.7	12.3	2.11e-04	0	58	0	503316480	54	5908
2026-01-20 11:18:11.45	247.96	28.43	-42.1	-45.9	12.0	2.80e-04	0	58	0	504365056	54	6061
2026-01-20 11:18:12.46	248.28	28.49	-41.9	-45.7	12.3	1.64e-04	0	58	0	506462208	54	5890
2026-01-20 11:18:13.47	248.59	28.55	-41.8	-45.5	12.5	1.75e-04	0	58	0	508559360	54	5773
2026-01-20 11:18:14.48	248.91	28.60	-41.8	-45.4	12.6	1.01e-04	0	58	0	510656512	54	5696
2026-01-20 11:18:15.49	249.23	28.66	-41.8	-45.4	12.6	7.93e-05	0	58	0	512753664	54	5714
2026-01-20 11:18:16.50	249.55	28.71	-42.0	-45.9	12.1	1.20e-04	0	58	0	514850816	54	6003
2026-01-20 11:18:17.51	249.87	28.76	-42.1	-46.0	12.0	3.54e-04	0	58	0	515899392	54	6105
2026-01-20 11:18:18.52	250.19	28.81	-42.4	-46.7	11.3	7.61e-04	0	58	0	517996544	55	6227
2026-01-20 11:18:19.53	250.51	28.86	-42.5	-46.9	11.1	1.33e-03	0	58	0	520093696	55	6385
2026-01-20 11:18:20.54	250.84	28.91	-42.6	-47.1	10.9	2.02e-03	0	58	0	522190848	55	6495
2026-01-20 11:18:21.55	251.16	28.96	-42.5	-47.0	10.9	2.18e-03	0	58	0	524288000	55	6438
2026-01-20 11:18:22.56	251.49	29.01	-42.4	-46.7	11.3	1.42e-03	0	58	0	525336576	55	6232
2026-01-20 11:18:23.57	251.81	29.06	-42.4	-46.8	11.2	1.40e-03	0	58	0	527433728	55	6284
2026-01-20 11:18:24.57	252.14	29.11	-42.7	-47.3	10.7	2.41e-03	0	58	0	529530880	55	6664
2026-01-20 11:18:25.58	252.47	29.15	-43.2	-48.3	9.8	5.08e-03	0	58	0	531628032	56	7111
2026-01-20 11:18:26.59	252.80	29.20	-43.4	-49.1	8.9	1.60e-02	0	58	0	533725184	57	7320
2026-01-20 11:18:27.60	253.13	29.24	-43.5	-49.4	8.7	3.32e-02	0	58	0	534773760	57	7546
2026-01-20 11:18:28.61	253.46	29.28	-43.4	-49.1	8.9	2.90e-02	0	58	0	536870912	57	7297
2026-01-20 11:18:29.62	253.79	29.32	-43.2	-48.3	9.7	1.81e-02	0	58	0	538968064	57	6699
2026-01-20 11:18:30.63	254.12	29.37	-42.7	-47.2	10.9	4.00e-03	0	58	0	541065216	57	5883
2026-01-20 11:18:31.64	254.45	29.40	-42.5	-46.8	11.4	1.22e-03	0	58	0	543162368	57	5598
2026-01-20 11:18:32.65	254.79	29.44	-42.4	-46.5	11.6	7.67e-04	0	58	0	544210944	56	5762
2026-01-20 11:18:33.66	255.12	29.48	-42.7	-47.2	11.0	1.57e-03	0	58	0	546308096	56	6241
2026-01-20 11:18:34.67	255.46	29.52	-43.0	-47.8	10.3	3.25e-03	0	58	0	548405248	56	6706
2026-01-20 11:18:35.68	255.80	29.55	-43.0	-48.0	10.1	5.02e-03	0	58	0	550502400	56	6828
2026-01-20 11:18:36.69	256.13	29.59	-43.0	-47.8	10.2	6.19e-03	0	58	0	552599552	56	6718
2026-01-20 11:18:37.70	256.47	29.62	-42.9	-47.7	10.4	3.78e-03	0	58	0	553648128	56	6604
2026-01-20 11:18:38.71	256.81	29.66	-43.1	-48.0	10.0	6.40e-03	0	58	0	555745280	56	6827
2026-01-20 11:18:39.72	257.15	29.69	-43.2	-48.4	9.6	1.15e-02	0	58	0	557842432	57	6784
2026-01-20 11:18:40.73	257.49	29.72	-43.2	-48.3	9.8	1.35e-02	0	58	0	559939584	57	6677
2026-01-20 11:18:41.74	257.83	29.75	-43.0	-47.9	10.2	7.70e-03	0	58	0	562036736	57	6360
2026-01-20 11:18:42.75	258.17	29.78	-42.7	-47.1	11.0	3.17e-03	0	58	0	563085312	57	5825
2026-01-20 11:18:43.76	258.51	29.80	-42.3	-46.3	11.9	5.22e-04	0	58	0	565182464	56	5632
2026-01-20 11:18:44.77	258.85	29.83	-42.4	-46.5	11.7	5.62e-04	0	58	0	567279616	56	5740
2026-01-20 11:18:45.78	259.20	29.86	-42.6	-46.9	11.3	7.82e-04	0	58	0	569376768	56	6023
2026-01-20 11:18:46.79	259.54	29.88	-42.6	-47.0	11.0	1.76e-03	0	58	0	571473920	56	6130
2026-01-20 11:18:47.80	259.88	29.90	-42.5	-46.7	11.5	1.29e-03	0	58	0	572522496	56	5870
2026-01-20 11:18:48.81	260.23	29.92	-42.2	-46.0	12.1	4.02e-04	0	58	0	574619648	56	5442
2026-01-20 11:18:49.82	260.57	29.95	-42.1	-45.8	12.3	2.07e-04	0	58	0	576716800	56	5332
2026-01-20 11:18:50.83	260.92	29.97	-42.2	-46.1	12.1	1.88e-04	0	58	0	578813952	56	5489
2026-01-20 11:18:51.84	261.26	29.98	-42.4	-46.5	11.7	3.43e-04	0	58	0	580911104	56	5745
2026-01-20 11:18:52.85	261.61	30.00	-42.5	-46.6	11.5	9.18e-04	0	58	0	583008256	56	5834
2026-01-20 11:18:53.86	261.96	30.02	-42.3	-46.3	11.9	5.48e-04	0	58	0	584056832	56	5621
2026-01-20 11:18:54.87	262.30	30.03	-42.0	-45.7	12.5	2.20e-04	0	58	0	586153984	56	5246
2026-01-20 11:18:55.88	262.65	30.05	-41.7	-45.2	12.8	9.76e-05	0	58	0	588251136	55	5234
2026-01-20 11:18:56.88	262.99	30.06	-41.7	-45.2	12.8	4.50e-05	0	58	0	590348288	55	5228
2026-01-20 11:18:57.89	263.34	30.07	-41.7	-45.3	12.8	6.71e-05	0	58	0	592445440	55	5282
2026-01-20 11:18:58.90	263.69	30.08	-41.7	-45.2	12.9	8.31e-05	0	58	0	593494016	55	5231
2026-01-20 11:18:59.91	264.04	30.09	-41.5	-44.9	13.1	3.66e-05	0	58	0	595591168	55	5100
2026-01-20 11:19:00.92	264.38	30.10	-41.5	-44.8	13.1	2.44e-05	0	58	0	597688320	54	5313
2026-01-20 11:19:01.93	264.73	30.11	-41.5	-44.8	13.2	1.98e-05	0	58	0	599785472	54	5327
2026-01-20 11:19:02.94	265.08	30.12	-41.8	-45.3	12.7	6.40e-05	0	58	0	601882624	54	5652
2026-01-20 11:19:03.95	265.43	30.12	-41.9	-45.6	12.4	9.84e-05	0	58	0	602931200	54	5820
2026-01-20 11:19:04.96	265.78	30.13	-42.1	-46.0	11.9	2.18e-04	0	58	0	605028352	54	6104
2026-01-20 11:19:05.97	266.13	30.13	-42.4	-46.6	11.4	7.86e-04	0	58	0	607125504	55	6182
2026-01-20 11:19:06.98	266.47	30.13	-42.6	-47.0	10.9	1.60e-03	0	58	0	609222656	55	6477
2026-01-20 11:19:07.99	266.82	30.13	-42.6	-47.0	10.9	1.88e-03	0	58	0	611319808	55	6457
2026-01-20 11:19:09.00	267.17	30.13	-42.4	-46.6	11.3	1.77e-03	0	58	0	612368384	55	6176
2026-01-20 11:19:10.01	267.52	30.13	-42.3	-46.5	11.5	1.01e-03	0	59	0	614465536	55	6077
2026-01-20 11:19:11.01	267.87	30.13	-42.4	-46.7	11.3	8.81e-04	0	58	0	616562688	55	6208
2026-01-20 11:19:12.02	268.21	30.12	-42.5	-47.0	11.0	1.42e-03	0	58	0	618659840	55	6442
2026-01-20 11:19:13.03	268.56	30.12	-42.6	-47.1	10.9	2.40e-03	0	58	0	620756992	55	6498
2026-01-20 11:19:14.04	268.91	30.11	-42.3	-46.5	11.4	1.43e-03	0	58	0	621805568	55	6109
2026-01-20 11:19:15.05	269.26	30.10	-42.1	-45.9	12.1	5.68e-04	0	58	0	623902720	55	5710
2026-01-20 11:19:16.06	269.61	30.10	-42.0	-45.8	12.1	2.22e-04	0	58	0	625999872	55	5631
2026-01-20 11:19:17.07	269.95	30.09	-42.1	-46.1	11.9	2.32e-04	0	58	0	628097024	55	5808
2026-01-20 11:19:18.08	270.30	30.08	-42.5	-46.9	11.1	7.42e-04	0	59	0	630194176	55	6384
2026-01-20 11:19:19.09	270.65	30.06	-42.9	-47.7	10.4	3.53e-03	0	58	0	631242752	56	6643
2026-01-20 11:19:20.10	271.00	30.05	-42.9	-47.5	10.6	3.24e-03	0	58	0	633339904	56	6458
2026-01-20 11:19:21.11	271.34	30.04	-42.7	-47.0	11.1	1.92e-03	0	59	0	635437056	56	6118
2026-01-20 11:19:22.12	271.69	30.02	-42.6	-46.9	11.1	1.33e-03	0	58	0	637534208	56	6041
2026-01-20 11:19:23.13	272.03	30.01	-42.7	-47.1	11.1	1.37e-03	0	58	0	639631360	56	6168
2026-01-20 11:19:24.14	272.38	29.99	-42.8	-47.3	10.9	1.99e-03	0	58	0	640679936	56	6295
2026-01-20 11:19:25.15	272.73	29.97	-42.9	-47.5	10.5	3.04e-03	0	58	0	642777088	56	6482
2026-01-20 11:19:26.16	273.07	29.95	-42.8	-47.4	10.7	3.82e-03	0	58	0	644874240	56	6399
2026-01-20 11:19:27.17	273.41	29.93	-42.8	-47.3	10.8	2.82e-03	0	59	0	646971392	56	6315
2026-01-20 11:19:28.18	273.76	29.91	-42.7	-47.1	11.0	2.35e-03	0	58	0	649068544	56	6143
2026-01-20 11:19:29.18	274.10	29.89	-42.8	-47.4	10.7	2.15e-03	0	59	0	651165696	56	6378
2026-01-20 11:19:30.19	274.44	29.86	-43.0	-47.8	10.3	3.20e-03	0	58	0	652214272	56	6695
2026-01-20 11:19:31.20	274.78	29.84	-43.2	-48.3	9.7	7.48e-03	0	58	0	654311424	56	7099
2026-01-20 11:19:32.21	275.13	29.81	-43.4	-49.0	9.2	1.85e-02	0	59	0	656408576	57	7225
2026-01-20 11:19:33.22	275.47	29.78	-43.2	-48.5	9.6	1.58e-02	0	58	0	658505728	57	6854
2026-01-20 11:19:34.23	275.81	29.75	-43.0	-48.0	10.1	8.74e-03	0	58	0	660602880	57	6428
2026-01-20 11:19:35.24	276.15	29.73	-42.9	-47.8	10.4	5.15e-03	0	58	0	661651456	57	6286
2026-01-20 11:19:36.25	276.49	29.70	-43.0	-48.0	10.2	4.65e-03	0	58	0	663748608	57	6423
2026-01-20 11:19:37.26	276.83	29.66	-43.2	-48.3	9.8	7.89e-03	0	58	0	665845760	57	6683
2026-01-20 11:19:38.26	277.16	29.63	-43.1	-48.0	9.9	1.01e-02	0	58	0	667942912	57	6470
2026-01-20 11:19:39.27	277.50	29.60	-43.1	-48.0	10.1	7.62e-03	0	58	0	670040064	57	6476
2026-01-20 11:19:40.28	277.84	29.56	-43.0	-47.8	10.3	6.24e-03	0	59	0	671088640	57	6325
2026-01-20 11:19:41.29	278.17	29.53	-43.1	-48.2	9.9	7.52e-03	0	58	0	673185792	57	6605
2026-01-20 11:19:42.30	278.51	29.49	-43.3	-48.8	9.2	2.07e-02	0	58	0	675282944	57	7085
2026-01-20 11:19:43.31	278.84	29.45	-43.5	-49.4	8.6	3.43e-02	0	59	0	677380096	57	7596
2026-01-20 11:19:44.32	279.17	29.42	-43.5	-49.5	8.6	3.94e-02	0	58	0	679477248	57	7653
2026-01-20 11:19:45.33	279.51	29.38	-43.4	-49.1	8.9	3.35e-02	0	59	0	680525824	57	7338
2026-01-20 11:19:46.34	279.84	29.34	-43.3	-48.8	9.2	2.81e-02	0	59	0	682622976	57	7116
2026-01-20 11:19:47.35	280.17	29.29	-43.5	-49.3	8.8	2.62e-02	0	58	0	684720128	57	7473
2026-01-20 11:19:48.36	280.50	29.25	-43.6	-49.6	8.3	4.41e-02	0	59	0	686817280	57	7768
2026-01-20 11:19:49.37	280.83	29.21	-43.7	-49.9	8.1	5.45e-02	0	59	0	688914432	57	8065
2026-01-20 11:19:50.38	281.16	29.16	-43.7	-49.8	8.2	7.22e-02	0	58	0	689963008	58	7499
2026-01-20 11:19:51.39	281.49	29.12	-43.5	-49.3	8.7	4.44e-02	0	59	0	692060160	58	7085
2026-01-20 11:19:52.40	281.81	29.07	-43.3	-48.8	9.2	2.17e-02	0	58	0	694157312	58	6668
2026-01-20 11:19:53.41	282.14	29.03	-43.3	-48.7	9.4	1.44e-02	0	59	0	696254464	58	6571
2026-01-20 11:19:54.42	282.47	28.98	-43.6	-49.5	8.6	2.31e-02	0	59	0	698351616	58	7224
2026-01-20 11:19:55.43	282.79	28.93	-43.9	-50.8	7.3	1.07e-01	0	59	0	699400192	58	8417
2026-01-20 11:19:56.44	283.11	28.88	-44.0	-51.3	6.7	1.93e-01	0	59	0	701497344	58	8930
2026-01-20 11:19:57.45	283.43	28.83	-43.9	-50.8	7.2	1.66e-01	0	58	0	703594496	58	8412
2026-01-20 11:19:58.46	283.76	28.78	-43.6	-49.6	8.3	6.41e-02	0	58	0	705691648	58	7328
2026-01-20 11:19:59.47	284.08	28.73	-43.4	-48.9	9.2	2.94e-02	0	59	0	707788800	58	6742
2026-01-20 11:20:00.48	284.39	28.67	-43.2	-48.4	9.6	1.90e-02	0	59	0	708837376	58	6394
2026-01-20 11:20:01.49	284.71	28.62	-43.1	-48.1	9.9	1.11e-02	0	58	0	710934528	58	6199
2026-01-20 11:20:02.50	285.03	28.56	-43.1	-48.1	10.0	9.02e-03	0	58	0	713031680	58	6170
2026-01-20 11:20:03.51	285.34	28.51	-43.0	-47.8	10.3	7.35e-03	0	58	0	715128832	58	5979
2026-01-20 11:20:04.52	285.66	28.45	-42.8	-47.5	10.6	3.31e-03	0	59	0	717225984	57	6101
2026-01-20 11:20:05.53	285.97	28.39	-42.8	-47.4	10.7	2.73e-03	0	58	0	719323136	57	6008
2026-01-20 11:20:06.54	286.28	28.34	-42.8	-47.3	10.8	2.63e-03	0	59	0	720371712	57	5977
2026-01-20 11:20:07.55	286.60	28.28	-42.7	-47.2	10.9	2.16e-03	0	59	0	722468864	57	5863
2026-01-20 11:20:08.56	286.91	28.22	-42.9	-47.5	10.5	3.76e-03	0	58	0	724566016	57	6123
2026-01-20 11:20:09.57	287.22	28.16	-42.9	-47.8	10.3	5.82e-03	0	59	0	726663168	57	6284
2026-01-20 11:20:10.58	287.52	28.10	-43.0	-47.9	10.2	6.20e-03	0	59	0	728760320	57	6381
2026-01-20 11:20:11.59	287.83	28.03	-42.9	-47.7	10.4	5.15e-03	0	58	0	729808896	57	6216
2026-01-20 11:20:12.59	288.13	27.97	-42.8	-47.5	10.6	3.66e-03	0	59	0	731906048	57	6071
2026-01-20 11:20:13.60	288.44	27.91	-42.7	-47.1	10.9	2.86e-03	0	58	0	734003200	57	5849
2026-01-20 11:20:14.61	288.74	27.85	-42.7	-47.1	11.0	2.53e-03	0	59	0	736100352	57	5824
2026-01-20 11:20:15.62	289.04	27.78	-42.8	-47.4	10.7	3.19e-03	0	59	0	738197504	57	6024
2026-01-20 11:20:16.63	289.34	27.72	-42.9	-47.7	10.3	4.13e-03	0	59	0	739246080	57	6240
2026-01-20 11:20:17.64	289.64	27.65	-42.9	-47.6	10.4	4.91e-03	0	59	0	741343232	57	6175
2026-01-20 11:20:18.65	289.94	27.58	-42.8	-47.5	10.6	3.21e-03	0	59	0	743440384	57	6073
2026-01-20 11:20:19.66	290.24	27.52	-42.7	-47.1	10.9	2.31e-03	0	58	0	745537536	57	5849
2026-01-20 11:20:20.67	290.53	27.45	-42.6	-47.0	11.0	1.89e-03	0	58	0	747634688	57	5773
2026-01-20 11:20:21.67	290.82	27.38	-42.7	-47.2	10.8	2.50e-03	0	59	0	748683264	57	5918
2026-01-20 11:20:22.68	291.12	27.31	-42.9	-47.5	10.5	4.77e-03	0	59	0	750780416	57	6121
2026-01-20 11:20:23.69	291.41	27.24	-42.8	-47.4	10.6	3.30e-03	0	59	0	752877568	57	6039
2026-01-20 11:20:24.70	291.70	27.17	-42.7	-47.3	10.8	3.38e-03	0	59	0	754974720	57	5926
2026-01-20 11:20:25.71	291.99	27.10	-42.7	-47.3	10.8	2.29e-03	0	59	0	757071872	57	5932
2026-01-20 11:20:26.72	292.28	27.03	-42.7	-47.2	10.9	2.06e-03	0	59	0	758120448	57	5864
2026-01-20 11:20:27.73	292.56	26.96	-42.7	-47.2	10.9	2.70e-03	0	59	0	760217600	57	5888
2026-01-20 11:20:28.74	292.85	26.88	-42.9	-47.7	10.3	5.03e-03	0	59	0	762314752	57	6226
2026-01-20 11:20:29.75	293.13	26.81	-43.2	-48.5	9.5	1.12e-02	0	59	0	764411904	57	6821
2026-01-20 11:20:30.76	293.42	26.74	-43.3	-48.7	9.2	1.99e-02	0	59	0	766509056	57	7038
2026-01-20 11:20:31.77	293.70	26.66	-43.4	-49.0	9.0	2.24e-02	0	59	0	767557632	57	7239
2026-01-20 11:20:32.78	293.98	26.59	-43.1	-48.3	9.6	1.40e-02	0	59	0	769654784	57	6715
2026-01-20 11:20:33.79	294.26	26.51	-43.0	-47.9	10.2	6.99e-03	0	59	0	771751936	57	6392
2026-01-20 11:20:34.79	294.53	26.44	-42.7	-47.2	10.8	4.91e-03	0	59	0	773849088	57	5889
2026-01-20 11:20:35.80	294.81	26.36	-42.7	-47.2	10.8	3.63e-03	0	59	0	775946240	57	5914
2026-01-20 11:20:36.81	295.09	26.28	-42.8	-47.4	10.6	2.60e-03	0	59	0	776994816	57	6023
2026-01-20 11:20:37.82	295.36	26.21	-42.7	-47.4	10.7	3.63e-03	0	59	0	779091968	57	6000
2026-01-20 11:20:38.84	295.64	26.13	-42.7	-47.3	10.6	3.23e-03	0	59	0	781189120	57	5932
2026-01-20 11:20:39.84	295.90	26.05	-42.5	-46.8	11.3	1.98e-03	0	59	0	783286272	57	5633
2026-01-20 11:20:40.86	296.18	25.97	-42.4	-46.6	11.5	9.49e-04	0	59	0	785383424	56	5796
2026-01-20 11:20:41.87	296.45	25.89	-42.3	-46.3	11.8	7.91e-04	0	58	0	786432000	56	5627
2026-01-20 11:20:42.87	296.71	25.81	-42.6	-46.9	11.1	1.03e-03	0	59	0	788529152	56	6053
2026-01-20 11:20:43.89	296.98	25.73	-42.8	-47.5	10.6	2.88e-03	0	58	0	790626304	56	6425
2026-01-20 11:20:44.90	297.24	25.65	-42.9	-47.7	10.5	5.55e-03	0	58	0	792723456	56	6578
2026-01-20 11:20:45.91	297.51	25.57	-42.8	-47.5	10.4	5.46e-03	0	59	0	794820608	56	6491
2026-01-20 11:20:46.91	297.77	25.49	-42.6	-47.1	10.9	2.46e-03	0	59	0	795869184	56	6157
2026-01-20 11:20:47.92	298.03	25.41	-42.4	-46.5	11.5	1.35e-03	0	59	0	797966336	56	5785
2026-01-20 11:20:48.93	298.29	25.33	-42.2	-46.1	12.0	7.58e-04	0	59	0	800063488	56	5518
2026-01-20 11:20:49.94	298.54	25.25	-42.2	-46.1	12.0	3.75e-04	0	59	0	802160640	56	5504
2026-01-20 11:20:50.95	298.80	25.17	-42.2	-46.1	12.0	4.02e-04	0	59	0	804257792	56	5491
2026-01-20 11:20:51.96	299.06	25.08	-42.0	-45.8	12.2	2.93e-04	0	59	0	805306368	56	5323
2026-01-20 11:20:52.97	299.31	25.00	-42.1	-46.0	12.1	2.87e-04	0	59	0	807403520	56	5426
2026-01-20 11:20:53.98	299.56	24.92	-42.0	-45.8	12.3	2.93e-04	0	59	0	809500672	56	5315
2026-01-20 11:20:54.99	299.81	24.83	-41.8	-45.6	12.4	1.90e-04	0	59	0	811597824	55	5466
2026-01-20 11:20:56.00	300.06	24.75	-41.8	-45.5	12.3	1.72e-04	0	59	0	813694976	55	5462
2026-01-20 11:20:57.01	300.31	24.67	-41.8	-45.6	12.2	1.81e-04	0	59	0	815792128	55	5505
2026-01-20 11:20:58.02	300.56	24.58	-41.9	-45.7	12.2	1.62e-04	0	59	0	816840704	55	5554
2026-01-20 11:20:59.03	300.81	24.50	-42.0	-45.9	12.0	3.45e-04	0	59	0	818937856	55	5684
2026-01-20 11:21:00.04	301.05	24.41	-42.1	-46.2	11.7	4.56e-04	0	59	0	821035008	55	5891
2026-01-20 11:21:01.05	301.30	24.33	-42.2	-46.4	11.5	7.56e-04	0	59	0	823132160	55	6028
2026-01-20 11:21:02.06	301.54	24.24	-42.0	-45.9	11.9	5.81e-04	0	59	0	825229312	55	5693
2026-01-20 11:21:03.07	301.78	24.15	-41.8	-45.5	12.3	2.91e-04	0	59	0	826277888	55	5464
2026-01-20 11:21:04.08	302.02	24.07	-41.5	-45.0	12.8	7.40e-05	0	59	0	828375040	55	5139
2026-01-20 11:21:05.09	302.26	23.98	-41.4	-44.8	13.1	2.44e-05	0	59	0	830472192	54	5299
2026-01-20 11:21:06.10	302.49	23.90	-41.4	-44.8	13.1	1.67e-05	0	59	0	832569344	54	5314
2026-01-20 11:21:07.11	302.73	23.81	-41.4	-44.8	13.1	2.21e-05	0	59	0	834666496	54	5287
2026-01-20 11:21:08.11	302.96	23.72	-41.8	-45.5	12.4	7.40e-05	0	59	0	835715072	54	5748
2026-01-20 11:21:09.12	303.20	23.64	-41.9	-45.7	12.2	2.02e-04	0	59	0	837812224	54	5886
2026-01-20 11:21:10.13	303.43	23.55	-42.0	-45.9	12.0	3.07e-04	0	59	0	839909376	54	6019
2026-01-20 11:21:11.14	303.66	23.46	-41.7	-45.4	12.4	2.18e-04	0	59	0	842006528	54	5705
2026-01-20 11:21:12.15	303.89	23.37	-41.6	-45.1	12.8	8.31e-05	0	59	0	844103680	54	5486
2026-01-20 11:21:13.16	304.12	23.29	-41.5	-45.0	12.9	6.86e-05	0	59	0	845152256	54	5444
2026-01-20 11:21:14.17	304.34	23.20	-41.5	-45.0	13.0	4.88e-05	0	59	0	847249408	54	5429
2026-01-20 11:21:15.18	304.57	23.11	-41.8	-45.7	12.2	7.85e-05	0	59	0	849346560	54	5869
2026-01-20 11:21:16.19	304.79	23.02	-41.8	-45.7	12.2	2.17e-04	0	59	0	851443712	54	5860
2026-01-20 11:21:17.20	305.02	22.93	-41.9	-45.8	12.0	3.65e-04	0	59	0	853540864	54	5950
2026-01-20 11:21:18.21	305.24	22.85	-41.9	-45.8	12.1	4.37e-04	0	58	0	854589440	54	5946
2026-01-20 11:21:19.22	305.46	22.76	-41.6	-45.2	12.6	9.99e-05	0	59	0	856686592	54	5548
2026-01-20 11:21:20.23	305.68	22.67	-41.6	-45.1	12.7	8.46e-05	0	59	0	858783744	54	5505
2026-01-20 11:21:21.24	305.90	22.58	-41.2	-44.5	13.3	3.43e-05	0	59	0	860880896	54	5120
2026-01-20 11:21:22.24	306.11	22.49	-41.2	-44.5	13.4	6.10e-06	0	59	0	862978048	54	5115
2026-01-20 11:21:23.25	306.33	22.40	-41.5	-45.0	12.9	3.20e-05	0	59	0	864026624	54	5423
2026-01-20 11:21:24.26	306.54	22.31	-41.9	-45.8	12.1	1.35e-04	0	59	0	866123776	54	5966
2026-01-20 11:21:25.27	306.76	22.22	-42.1	-46.3	11.5	6.23e-04	0	59	0	868220928	54	6312
2026-01-20 11:21:26.29	306.97	22.13	-42.3	-46.6	11.2	1.75e-03	0	59	0	870318080	55	6185
2026-01-20 11:21:27.30	307.18	22.04	-42.3	-46.7	11.1	1.86e-03	0	59	0	872415232	55	6205
2026-01-20 11:21:28.31	307.39	21.96	-42.0	-46.0	11.8	9.63e-04	0	59	0	873463808	55	5763
2026-01-20 11:21:29.32	307.60	21.87	-41.8	-45.5	12.3	2.55e-04	0	59	0	875560960	55	5458
2026-01-20 11:21:30.33	307.81	21.78	-41.5	-45.0	12.8	7.47e-05	0	59	0	877658112	55	5157
2026-01-20 11:21:31.34	308.02	21.69	-41.4	-44.9	13.0	2.89e-05	0	59	0	879755264	54	5346
2026-01-20 11:21:32.35	308.22	21.60	-41.6	-45.3	12.5	6.94e-05	0	59	0	881852416	54	5611
2026-01-20 11:21:33.36	308.43	21.51	-41.6	-45.2	12.6	1.04e-04	0	59	0	883949568	54	5561
2026-01-20 11:21:34.37	308.63	21.42	-41.7	-45.4	12.4	1.13e-04	0	59	0	884998144	54	5722
2026-01-20 11:21:35.38	308.83	21.33	-41.8	-45.6	12.2	2.36e-04	0	59	0	887095296	54	5835
2026-01-20 11:21:36.39	309.03	21.24	-41.6	-45.3	12.5	1.30e-04	0	59	0	889192448	54	5613
2026-01-20 11:21:37.40	309.23	21.15	-41.6	-45.2	12.7	9.00e-05	0	59	0	891289600	54	5554
2026-01-20 11:21:38.40	309.43	21.06	-41.6	-45.2	12.6	9.30e-05	0	59	0	893386752	54	5535
2026-01-20 11:21:39.41	309.62	20.97	-41.5	-45.0	12.8	4.95e-05	0	59	0	894435328	54	5452
2026-01-20 11:21:40.42	309.82	20.88	-41.7	-45.3	12.5	1.14e-04	0	59	0	896532480	54	5633
2026-01-20 11:21:41.43	310.01	20.79	-41.9	-45.8	12.0	2.20e-04	0	59	0	898629632	54	5961
2026-01-20 11:21:42.44	310.21	20.70	-42.2	-46.4	11.3	7.65e-04	0	59	0	900726784	54	6400
2026-01-20 11:21:43.45	310.40	20.61	-42.4	-46.9	10.8	2.06e-03	0	59	0	902823936	55	6405
2026-01-20 11:21:44.46	310.59	20.52	-42.5	-47.2	10.5	4.67e-03	0	59	0	903872512	55	6638
2026-01-20 11:21:45.47	310.78	20.43	-42.5	-47.1	10.6	4.25e-03	0	59	0	905969664	55	6544
2026-01-20 11:21:46.48	310.97	20.34	-42.3	-46.7	11.0	2.40e-03	0	59	0	908066816	55	6261
2026-01-20 11:21:47.49	311.16	20.25	-42.3	-46.6	11.1	1.66e-03	0	59	0	910163968	55	6196
2026-01-20 11:21:48.50	311.35	20.16	-42.0	-46.0	11.6	9.49e-04	0	59	0	912261120	55	5770
2026-01-20 11:21:49.51	311.54	20.07	-42.0	-46.2	11.6	5.93e-04	0	59	0	913309696	55	5859
2026-01-20 11:21:50.52	311.72	19.98	-42.1	-46.2	11.5	6.00e-04	0	59	0	915406848	55	5905
2026-01-20 11:21:51.52	311.90	19.89	-42.0	-46.2	11.6	6.55e-04	0	59	0	917504000	55	5858
2026-01-20 11:21:52.53	312.09	19.80	-42.2	-46.5	11.3	1.19e-03	0	59	0	919601152	55	6063
2026-01-20 11:21:53.54	312.27	19.71	-42.0	-46.0	11.6	7.72e-04	0	59	0	921698304	55	5785
2026-01-20 11:21:54.55	312.45	19.62	-41.8	-45.7	12.0	3.68e-04	0	59	0	922746880	55	5556
2026-01-20 11:21:55.56	312.63	19.53	-41.8	-45.6	12.1	2.97e-04	0	59	0	924844032	55	5520
2026-01-20 11:21:56.57	312.81	19.45	-41.4	-44.8	12.9	8.54e-05	0	59	0	926941184	54	5334
2026-01-20 11:21:57.58	312.99	19.36	-41.3	-44.8	13.0	3.43e-05	0	59	0	929038336	54	5293
2026-01-20 11:21:58.59	313.16	19.27	-41.2	-44.6	13.2	3.81e-05	0	59	0	931135488	54	5183
2026-01-20 11:21:59.60	313.34	19.18	-41.3	-44.7	13.1	2.74e-05	0	59	0	932184064	54	5232
2026-01-20 11:22:00.59	313.51	19.09	-41.4	-44.9	12.9	4.88e-05	0	59	0	934281216	54	5341
2026-01-20 11:22:01.60	313.68	19.00	-41.5	-45.1	12.6	6.94e-05	0	59	0	936378368	54	5509
2026-01-20 11:22:02.60	313.86	18.91	-41.5	-45.2	12.6	9.53e-05	0	59	0	938475520	54	5556
2026-01-20 11:22:03.61	314.03	18.82	-41.5	-45.2	12.5	1.41e-04	0	59	0	940572672	54	5557
2026-01-20 11:22:04.62	314.20	18.73	-41.6	-45.3	12.4	1.36e-04	0	59	0	941621248	54	5629
2026-01-20 11:22:05.63	314.37	18.65	-41.6	-45.3	12.5	1.30e-04	0	59	0	943718400	54	5605
2026-01-20 11:22:06.64	314.54	18.56	-41.5	-45.2	12.5	1.43e-04	0	59	0	945815552	54	5560
2026-01-20 11:22:07.66	314.71	18.47	-41.6	-45.2	12.5	1.53e-04	0	59	0	947912704	54	5556
2026-01-20 11:22:08.66	314.87	18.38	-41.7	-45.4	12.3	1.65e-04	0	59	0	950009856	54	5700
2026-01-20 11:22:09.67	315.04	18.29	-41.8	-45.8	11.9	2.30e-04	0	59	0	952107008	54	5929
2026-01-20 11:22:10.68	315.20	18.20	-42.1	-46.3	11.5	5.27e-04	0	59	0	953155584	54	6278
2026-01-20 11:22:11.70	315.37	18.11	-42.2	-46.7	11.0	1.62e-03	0	59	0	955252736	54	6580
2026-01-20 11:22:12.70	315.53	18.03	-42.3	-46.9	10.7	2.32e-03	0	59	0	957349888	55	6412
2026-01-20 11:22:13.71	315.70	17.94	-42.3	-46.8	10.8	2.99e-03	0	59	0	959447040	55	6324
2026-01-20 11:22:14.72	315.86	17.85	-42.2	-46.7	11.0	1.92e-03	0	59	0	961544192	55	6214
2026-01-20 11:22:15.73	316.02	17.76	-42.1	-46.4	11.2	1.69e-03	0	59	0	962592768	55	6031
2026-01-20 11:22:16.74	316.18	17.67	-41.9	-46.0	11.7	9.22e-04	0	59	0	964689920	55	5748
2026-01-20 11:22:17.75	316.34	17.59	-41.7	-45.6	12.1	3.80e-04	0	59	0	966787072	55	5495
2026-01-20 11:22:18.76	316.49	17.50	-41.6	-45.4	12.3	2.08e-04	0	59	0	968884224	55	5364
2026-01-20 11:22:19.77	316.65	17.41	-41.5	-45.1	12.5	1.51e-04	0	59	0	970981376	54	5519
2026-01-20 11:22:20.78	316.81	17.32	-41.5	-45.1	12.6	8.08e-05	0	59	0	972029952	54	5467
2026-01-20 11:22:21.79	316.96	17.24	-41.6	-45.3	12.4	9.30e-05	0	59	0	974127104	54	5601
2026-01-20 11:22:22.80	317.12	17.15	-41.4	-45.0	12.7	1.07e-04	0	59	0	976224256	54	5420
2026-01-20 11:22:23.81	317.27	17.06	-41.5	-45.2	12.5	1.09e-04	0	59	0	978321408	54	5552
2026-01-20 11:22:24.82	317.42	16.98	-41.4	-44.9	12.8	8.01e-05	0	59	0	980418560	54	5365
2026-01-20 11:22:25.83	317.58	16.89	-41.4	-45.0	12.7	8.16e-05	0	59	0	981467136	54	5415
2026-01-20 11:22:26.84	317.73	16.80	-41.4	-44.9	12.8	7.70e-05	0	59	0	983564288	54	5368
2026-01-20 11:22:27.85	317.88	16.72	-41.2	-44.6	13.0	4.04e-05	0	59	0	985661440	54	5214
2026-01-20 11:22:28.86	318.03	16.63	-41.2	-44.6	13.1	3.43e-05	0	59	0	987758592	54	5193
2026-01-20 11:22:29.87	318.17	16.54	-41.2	-44.5	13.1	2.59e-05	0	59	0	989855744	54	5157
2026-01-20 11:22:30.87	318.32	16.46	-41.2	-44.5	13.2	1.75e-05	0	59	0	990904320	54	5142
2026-01-20 11:22:31.88	318.47	16.37	-41.2	-44.6	13.1	2.67e-05	0	59	0	993001472	54	5182
2026-01-20 11:22:32.89	318.61	16.29	-41.3	-44.7	12.9	4.04e-05	0	59	0	995098624	54	5278
2026-01-20 11:22:33.90	318.76	16.20	-41.4	-44.9	12.8	6.40e-05	0	59	0	997195776	54	5359
2026-01-20 11:22:34.91	318.90	16.12	-41.5	-45.1	12.5	1.01e-04	0	59	0	999292928	54	5502
2026-01-20 11:22:35.92	319.05	16.03	-41.6	-45.4	12.3	1.50e-04	0	59	0	1000341504	54	5662
2026-01-20 11:22:36.93	319.19	15.94	-41.7	-45.5	12.0	2.16e-04	0	59	0	1002438656	54	5776
2026-01-20 11:22:37.94	319.33	15.86	-41.8	-45.8	11.8	3.45e-04	0	59	0	1004535808	54	5988
2026-01-20 11:22:38.95	319.47	15.77	-41.8	-45.9	11.7	4.49e-04	0	59	0	1006632960	54	6008
2026-01-20 11:22:39.96	319.61	15.69	-42.0	-46.2	11.4	7.33e-04	0	59	0	1008730112	54	6224
2026-01-20 11:22:40.97	319.75	15.60	-41.9	-46.2	11.4	9.29e-04	0	59	0	1009778688	54	6222
2026-01-20 11:22:41.97	319.89	15.52	-41.9	-46.2	11.4	9.06e-04	0	59	0	1011875840	54	6211
2026-01-20 11:22:42.99	320.03	15.44	-42.0	-46.2	11.4	8.77e-04	0	59	0	1013972992	54	6236
2026-01-20 11:22:43.99	320.17	15.35	-41.9	-46.1	11.5	9.64e-04	0	59	0	1016070144	54	6141
2026-01-20 11:22:45.00	320.30	15.27	-41.7	-45.8	11.7	6.27e-04	0	59	0	1018167296	54	5930
2026-01-20 11:22:46.01	320.44	15.18	-41.8	-45.8	11.7	5.58e-04	0	59	0	1019215872	54	5989
2026-01-20 11:22:47.02	320.58	15.10	-41.8	-45.8	11.7	5.46e-04	0	59	0	1021313024	54	5971
2026-01-20 11:22:48.03	320.71	15.02	-41.8	-45.8	11.7	4.73e-04	0	59	0	1023410176	54	5978
2026-01-20 11:22:49.04	320.84	14.93	-41.7	-45.7	11.9	4.38e-04	0	59	0	1025507328	54	5859
2026-01-20 11:22:50.05	320.98	14.85	-41.6	-45.5	12.0	3.25e-04	0	59	0	1027604480	54	5763
2026-01-20 11:22:51.06	321.11	14.77	-41.6	-45.6	12.0	3.46e-04	0	59	0	1028653056	54	5805
2026-01-20 11:22:52.07	321.24	14.68	-41.7	-45.6	11.9	4.44e-04	0	59	0	1030750208	54	5848
2026-01-20 11:22:53.08	321.37	14.60	-41.6	-45.5	12.0	3.69e-04	0	59	0	1032847360	54	5783
2026-01-20 11:22:54.09	321.50	14.52	-41.6	-45.6	11.9	4.10e-04	0	59	0	1034944512	54	5816
2026-01-20 11:22:55.10	321.63	14.43	-41.6	-45.5	12.0	2.97e-04	0	58	0	1037041664	54	5729
2026-01-20 11:22:56.11	321.76	14.35	-41.5	-45.4	12.1	3.07e-04	0	59	0	1038090240	54	5686
2026-01-20 11:22:57.12	321.89	14.27	-41.5	-45.3	12.3	1.68e-04	0	59	0	1040187392	54	5601
2026-01-20 11:22:58.13	322.02	14.19	-41.5	-45.3	12.2	1.40e-04	0	59	0	1042284544	54	5595
2026-01-20 11:22:59.13	322.14	14.10	-41.3	-45.0	12.6	1.23e-04	0	59	0	1044381696	54	5403
2026-01-20 11:23:00.14	322.27	14.02	-41.3	-45.0	12.6	1.04e-04	0	59	0	1046478848	54	5410
2026-01-20 11:23:01.15	322.39	13.94	-41.3	-44.9	12.6	9.84e-05	0	59	0	1048576000	54	5378
2026-01-20 11:23:02.16	322.52	13.86	-41.3	-44.9	12.6	1.04e-04	0	59	0	1049624576	54	5391
2026-01-20 11:23:03.17	322.64	13.78	-41.3	-45.0	12.5	9.15e-05	0	59	0	1051721728	54	5405
2026-01-20 11:23:04.18	322.77	13.70	-41.4	-45.1	12.4	1.27e-04	0	59	0	1053818880	54	5494
2026-01-20 11:23:05.19	322.89	13.62	-41.5	-45.2	12.2	1.62e-04	0	59	0	1055916032	54	5583
2026-01-20 11:23:06.20	323.01	13.53	-41.6	-45.5	12.0	2.33e-04	0	59	0	1058013184	54	5740
2026-01-20 11:23:07.21	323.13	13.45	-41.7	-45.7	11.8	4.69e-04	0	59	0	1059061760	54	5895
2026-01-20 11:23:08.22	323.25	13.37	-41.8	-46.0	11.4	7.46e-04	0	59	0	1061158912	54	6123
2026-01-20 11:23:09.23	323.37	13.29	-41.9	-46.2	11.2	1.08e-03	0	59	0	1063256064	54	6261
2026-01-20 11:23:10.24	323.49	13.21	-41.9	-46.2	11.3	1.33e-03	0	59	0	1065353216	54	6237
2026-01-20 11:23:11.24	323.61	13.13	-42.0	-46.4	11.0	1.93e-03	0	59	0	1067450368	54	6418
2026-01-20 11:23:12.25	323.73	13.05	-42.0	-46.5	10.9	2.11e-03	0	59	0	1068498944	54	6435
2026-01-20 11:23:13.26	323.85	12.97	-42.1	-46.6	10.7	2.02e-03	0	59	0	1070596096	54	6526
2026-01-20 11:23:14.27	323.96	12.89	-42.0	-46.4	10.9	2.25e-03	0	59	0	1072693248	54	6386
2026-01-20 11:23:15.28	324.08	12.81	-42.0	-46.3	11.0	2.03e-03	0	59	0	1074790400	54	6334
2026-01-20 11:23:16.29	324.20	12.73	-41.9	-46.2	11.1	1.74e-03	0	59	0	1076887552	54	6274
2026-01-20 11:23:17.30	324.31	12.65	-41.9	-46.2	11.1	1.53e-03	0	59	0	1077936128	54	6222
2026-01-20 11:23:18.32	324.43	12.57	-41.8	-46.1	11.3	1.41e-03	0	59	0	1080033280	54	6168
2026-01-20 11:23:19.32	324.54	12.50	-41.9	-46.2	11.2	1.57e-03	0	59	0	1082130432	54	6223
2026-01-20 11:23:20.33	324.65	12.42	-41.9	-46.3	11.1	1.35e-03	0	59	0	1084227584	54	6286
2026-01-20 11:23:21.34	324.77	12.34	-41.9	-46.3	11.0	1.58e-03	0	59	0	1086324736	54	6339
2026-01-20 11:23:22.35	324.88	12.26	-42.0	-46.5	10.9	2.06e-03	0	59	0	1087373312	54	6441
2026-01-20 11:23:23.36	324.99	12.18	-42.0	-46.6	10.8	2.57e-03	0	59	0	1089470464	54	6501
2026-01-20 11:23:24.37	325.10	12.10	-42.1	-46.9	10.4	3.75e-03	0	59	0	1091567616	54	6731
2026-01-20 11:23:25.38	325.21	12.02	-42.1	-46.8	10.5	3.84e-03	0	59	0	1093664768	54	6698
2026-01-20 11:23:26.39	325.32	11.95	-42.2	-47.0	10.3	4.09e-03	0	59	0	1095761920	54	6811
2026-01-20 11:23:27.40	325.43	11.87	-42.3	-47.2	10.1	5.71e-03	0	59	0	1096810496	55	6596
2026-01-20 11:23:28.41	325.54	11.79	-42.1	-46.9	10.3	4.83e-03	0	59	0	1098907648	55	6365
2026-01-20 11:23:29.42	325.65	11.71	-42.2	-47.0	10.3	5.44e-03	0	59	0	1101004800	55	6493
2026-01-20 11:23:30.43	325.76	11.64	-42.1	-46.9	10.3	5.75e-03	0	59	0	1103101952	55	6412
2026-01-20 11:23:31.44	325.87	11.56	-42.0	-46.5	10.6	5.07e-03	0	59	0	1105199104	55	6125
2026-01-20 11:23:32.45	325.97	11.48	-42.0	-46.7	10.5	4.65e-03	0	59	0	1106247680	55	6234
2026-01-20 11:23:33.46	326.08	11.41	-41.9	-46.5	10.8	3.03e-03	0	59	0	1108344832	55	6084
2026-01-20 11:23:34.47	326.19	11.33	-42.0	-46.5	10.7	2.51e-03	0	59	0	1110441984	55	6090
2026-01-20 11:23:35.48	326.29	11.25	-42.0	-46.7	10.5	2.89e-03	0	59	0	1112539136	55	6206
2026-01-20 11:23:36.48	326.39	11.18	-42.0	-46.5	10.7	2.84e-03	0	59	0	1114636288	55	6112
2026-01-20 11:23:37.49	326.50	11.10	-42.1	-46.9	10.3	3.75e-03	0	59	0	1116733440	55	6348
2026-01-20 11:23:38.50	326.60	11.03	-42.1	-46.8	10.4	4.32e-03	0	59	0	1117782016	55	6308
2026-01-20 11:23:39.51	326.71	10.95	-42.0	-46.6	10.6	4.31e-03	0	59	0	1119879168	55	6182
2026-01-20 11:23:40.52	326.81	10.87	-42.2	-47.1	10.1	5.84e-03	0	59	0	1121976320	55	6528
2026-01-20 11:23:41.53	326.91	10.80	-42.1	-46.9	10.2	6.85e-03	0	59	0	1124073472	55	6393
2026-01-20 11:23:42.54	327.01	10.72	-42.2	-47.3	9.8	7.82e-03	0	59	0	1126170624	55	6712
2026-01-20 11:23:43.55	327.11	10.65	-42.4	-47.7	9.4	1.35e-02	0	59	0	1127219200	55	7021
2026-01-20 11:23:44.56	327.21	10.57	-42.3	-47.6	9.5	1.32e-02	0	59	0	1129316352	55	6930
2026-01-20 11:23:45.57	327.31	10.50	-42.4	-47.8	9.2	1.61e-02	0	59	0	1131413504	55	7069
2026-01-20 11:23:46.58	327.41	10.42	-42.3	-47.5	9.7	1.52e-02	0	59	0	1133510656	55	6830
2026-01-20 11:23:47.59	327.51	10.35	-42.2	-47.4	9.7	1.29e-02	0	59	0	1135607808	55	6771
2026-01-20 11:23:48.60	327.61	10.27	-42.2	-47.5	9.6	1.30e-02	0	59	0	1136656384	55	6813
2026-01-20 11:23:49.61	327.71	10.20	-42.1	-47.1	10.0	8.95e-03	0	59	0	1138753536	55	6533
2026-01-20 11:23:50.62	327.81	10.13	-42.1	-47.1	10.0	6.71e-03	0	59	0	1140850688	55	6506
2026-01-20 11:23:51.63	327.91	10.05	-42.1	-47.1	10.0	8.95e-03	0	59	0	1142947840	55	6519
2026-01-20 11:23:52.64	328.00	9.98	-41.9	-46.7	10.3	5.26e-03	0	59	0	1145044992	55	6258
2026-01-20 11:23:53.65	328.10	9.90	-42.0	-46.9	10.2	5.11e-03	0	59	0	1146093568	55	6349
2026-01-20 11:23:54.65	328.19	9.83	-42.0	-46.8	10.3	5.70e-03	0	59	0	1148190720	55	6276
2026-01-20 11:23:55.66	328.29	9.76	-41.9	-46.5	10.5	4.02e-03	0	59	0	1150287872	55	6111
2026-01-20 11:23:56.67	328.38	9.68	-42.0	-46.9	10.2	5.49e-03	0	59	0	1152385024	55	6348
2026-01-20 11:23:57.68	328.48	9.61	-42.0	-46.9	10.1	5.56e-03	0	59	0	1154482176	55	6412
2026-01-20 11:23:58.69	328.57	9.54	-42.1	-47.0	10.0	6.53e-03	0	59	0	1155530752	55	6469
2026-01-20 11:23:59.70	328.67	9.47	-42.1	-47.2	9.8	9.30e-03	0	59	0	1157627904	55	6622
2026-01-20 11:24:00.71	328.76	9.39	-42.2	-47.4	9.6	1.15e-02	0	59	0	1159725056	55	6735
2026-01-20 11:24:01.72	328.85	9.32	-42.2	-47.5	9.4	1.61e-02	0	59	0	1161822208	55	6836
