passes_logs/2026/01/20/R2.0S_Moscow/R2.0S_Moscow__20260120_202255_FENGYUN_3G_rec.log

#Pass ID: 20260120_202255_FENGYUN 3G
#Satellite: FENGYUN 3G
#Configuration: FENGYUN 3G
#almurnet v.1.7.20251203
#Start time: 2026-01-20 20:22:56

#Version: 2.2.20231116
#Station: R2.0S_Moscow
#Location: 37.707566 lon 55.798166 lat
#TLE: 1 56232U 23055A   26020.00144243  .00036531  00000+0  56251-3 0  9990
#TLE: 2 56232  49.9940  30.1229 0004155  52.6154 307.5191 15.53783627156971

#Time	Az	El	Level	Level2	SNR	BER	BlckErr	Temp	State	Recorded	gain1	gain2
2026-01-20 20:22:56.88	241.19	2.10	-44.1	-62.2	3.8	8.47e-01	0	49	0	0	60	27834
2026-01-20 20:22:57.88	241.13	2.16	-44.1	-62.2	3.8	8.44e-01	0	49	104	0	60	27824
2026-01-20 20:22:58.90	241.06	2.23	-44.1	-62.2	3.8	8.48e-01	0	49	104	0	60	27837
2026-01-20 20:22:59.91	240.99	2.29	-44.1	-62.2	3.8	8.45e-01	0	49	104	0	60	27810
2026-01-20 20:23:00.90	240.92	2.36	-44.1	-62.2	3.8	8.45e-01	0	49	104	0	60	27875
2026-01-20 20:23:01.91	240.85	2.43	-44.1	-62.2	3.8	8.47e-01	0	49	104	0	60	27897
2026-01-20 20:23:02.92	240.78	2.49	-44.1	-62.2	3.8	8.47e-01	0	49	104	0	60	27904
2026-01-20 20:23:03.93	240.71	2.56	-44.1	-62.1	3.8	8.47e-01	0	49	104	0	60	27698
2026-01-20 20:23:04.94	240.64	2.63	-44.1	-62.1	3.8	8.46e-01	0	49	104	0	60	27544
2026-01-20 20:23:05.96	240.57	2.70	-44.1	-62.1	3.8	8.46e-01	0	49	104	0	60	27609
2026-01-20 20:23:06.96	240.50	2.76	-44.1	-62.1	3.8	8.46e-01	0	50	104	0	60	27567
2026-01-20 20:23:07.97	240.43	2.83	-44.1	-62.0	3.8	8.45e-01	0	50	104	0	60	27246
2026-01-20 20:23:08.98	240.35	2.90	-44.1	-62.1	3.8	8.47e-01	0	50	104	0	60	27410
2026-01-20 20:23:09.99	240.28	2.97	-44.1	-62.1	3.8	8.47e-01	0	50	104	0	60	27584
2026-01-20 20:23:11.00	240.21	3.04	-44.1	-62.1	3.8	8.46e-01	0	50	104	0	60	27646
2026-01-20 20:23:12.01	240.13	3.11	-44.1	-62.2	3.8	8.46e-01	0	50	104	0	60	27711
2026-01-20 20:23:13.03	240.06	3.18	-44.1	-62.1	3.8	8.45e-01	0	50	104	0	60	27650
2026-01-20 20:23:14.04	239.98	3.25	-44.1	-62.1	3.8	8.45e-01	0	50	104	0	60	27682
2026-01-20 20:23:15.05	239.91	3.32	-44.1	-62.2	3.8	8.46e-01	0	50	104	0	60	27933
2026-01-20 20:23:16.06	239.83	3.39	-44.1	-62.3	3.8	8.46e-01	0	50	104	0	60	28034
2026-01-20 20:23:17.07	239.75	3.46	-44.1	-62.3	3.8	8.46e-01	0	50	104	0	60	28037
2026-01-20 20:23:18.08	239.68	3.53	-44.1	-62.2	3.8	8.47e-01	0	50	104	0	60	28015
2026-01-20 20:23:19.09	239.60	3.60	-44.1	-62.2	3.8	8.46e-01	0	50	104	0	60	27942
2026-01-20 20:23:20.10	239.52	3.67	-44.1	-62.2	3.8	8.46e-01	0	50	104	0	60	27805
2026-01-20 20:23:21.11	239.44	3.74	-44.1	-62.1	3.8	8.45e-01	0	51	104	0	60	27611
2026-01-20 20:23:22.12	239.36	3.81	-44.1	-62.1	3.8	8.46e-01	0	50	104	0	60	27681
2026-01-20 20:23:23.13	239.28	3.88	-44.1	-62.2	3.8	8.46e-01	0	51	104	0	60	27869
2026-01-20 20:23:24.15	239.20	3.95	-44.1	-62.2	3.8	8.46e-01	0	51	104	0	60	27851
2026-01-20 20:23:25.16	239.12	4.03	-44.1	-62.2	3.8	8.45e-01	0	51	104	0	60	27784
2026-01-20 20:23:26.17	239.04	4.10	-44.1	-62.0	3.8	8.47e-01	0	51	104	0	60	27388
2026-01-20 20:23:27.18	238.95	4.17	-44.1	-61.9	3.8	8.47e-01	0	51	104	0	60	26969
2026-01-20 20:23:28.19	238.87	4.24	-44.1	-61.6	3.8	8.46e-01	0	51	104	0	60	26090
2026-01-20 20:23:29.20	238.79	4.32	-44.1	-61.3	3.8	8.45e-01	0	51	104	0	60	25088
2026-01-20 20:23:30.21	238.70	4.39	-44.1	-61.2	3.8	8.45e-01	0	51	104	0	60	24840
2026-01-20 20:23:31.22	238.62	4.46	-44.1	-61.0	3.8	8.46e-01	0	51	104	0	60	24145
2026-01-20 20:23:32.23	238.53	4.54	-44.1	-60.9	3.8	8.46e-01	0	51	104	0	60	24075
2026-01-20 20:23:33.24	238.44	4.61	-44.1	-61.0	3.8	8.46e-01	0	51	104	0	60	24305
2026-01-20 20:23:34.25	238.36	4.69	-44.1	-61.2	3.8	8.45e-01	0	51	104	0	60	24849
2026-01-20 20:23:35.26	238.27	4.76	-44.1	-61.4	3.8	8.46e-01	0	52	104	0	60	25285
2026-01-20 20:23:36.27	238.18	4.84	-44.1	-61.8	3.8	8.46e-01	0	51	104	0	60	26520
2026-01-20 20:23:37.28	238.09	4.91	-44.1	-61.8	3.8	8.47e-01	0	51	104	0	60	26753
2026-01-20 20:23:38.29	238.00	4.99	-44.1	-61.8	3.8	8.46e-01	0	51	104	0	60	26671
2026-01-20 20:23:39.30	237.91	5.06	-44.1	-61.5	3.8	8.45e-01	0	51	104	0	60	25638
2026-01-20 20:23:40.31	237.82	5.14	-44.1	-61.1	3.8	8.45e-01	0	52	104	0	60	24456
2026-01-20 20:23:41.32	237.73	5.21	-44.1	-60.5	3.8	8.45e-01	0	52	104	0	60	22923
2026-01-20 20:23:42.33	237.64	5.29	-44.1	-60.0	3.9	8.45e-01	0	52	104	0	60	21577
2026-01-20 20:23:43.34	237.55	5.37	-44.0	-59.3	4.1	8.45e-01	0	52	0	0	60	20068
2026-01-20 20:23:44.35	237.45	5.44	-44.0	-58.6	4.2	8.45e-01	0	52	0	0	60	18417
2026-01-20 20:23:45.36	237.36	5.52	-44.0	-58.5	4.2	8.39e-01	0	52	0	0	60	18230
2026-01-20 20:23:46.37	237.26	5.60	-44.0	-58.4	4.3	8.39e-01	0	52	0	0	60	17889
2026-01-20 20:23:47.38	237.17	5.68	-44.0	-58.3	4.3	8.35e-01	0	52	0	0	60	17783
2026-01-20 20:23:48.39	237.07	5.76	-44.0	-58.3	4.3	8.34e-01	0	52	0	0	60	17847
2026-01-20 20:23:49.40	236.97	5.84	-44.0	-58.5	4.2	8.34e-01	0	52	0	0	60	18151
2026-01-20 20:23:50.41	236.87	5.91	-44.0	-58.4	4.3	8.34e-01	0	52	0	0	60	17965
2026-01-20 20:23:51.42	236.78	5.99	-44.0	-58.3	4.2	8.35e-01	0	52	0	0	60	17870
2026-01-20 20:23:52.43	236.68	6.07	-44.0	-57.8	4.4	8.33e-01	0	52	0	0	60	16739
2026-01-20 20:23:53.44	236.58	6.15	-44.0	-56.9	4.8	8.33e-01	0	52	0	0	59	16069
2026-01-20 20:23:54.45	236.47	6.23	-44.0	-56.0	5.3	8.04e-01	0	52	0	0	59	14519
2026-01-20 20:23:55.46	236.37	6.31	-43.8	-54.4	6.5	6.32e-01	0	53	0	524288	59	12062
2026-01-20 20:23:56.47	236.27	6.39	-43.6	-53.1	7.7	6.32e-01	0	52	0	1572864	59	10324
2026-01-20 20:23:57.48	236.17	6.48	-43.5	-52.1	8.7	1.70e-01	0	53	0	2621440	59	9210
2026-01-20 20:23:58.49	236.06	6.56	-43.3	-51.0	9.8	4.53e-02	0	53	0	4194304	58	8638
2026-01-20 20:23:59.50	235.96	6.64	-43.1	-50.4	10.3	4.53e-02	0	53	0	5242880	58	8071
2026-01-20 20:24:00.51	235.85	6.72	-43.1	-50.2	10.6	1.04e-02	0	52	0	6291456	58	7812
2026-01-20 20:24:01.52	235.74	6.80	-43.2	-50.5	10.3	4.90e-03	0	52	0	7340032	58	8136
2026-01-20 20:24:02.53	235.63	6.89	-43.3	-51.2	9.5	9.48e-03	0	53	0	8388608	58	8825
2026-01-20 20:24:03.54	235.53	6.97	-43.6	-52.6	8.2	9.48e-03	0	53	0	9437184	58	10393
2026-01-20 20:24:04.55	235.42	7.05	-43.9	-54.9	6.1	5.38e-02	0	53	0	11010048	58	13547
2026-01-20 20:24:05.56	235.31	7.14	-44.1	-58.7	4.2	5.17e-01	0	53	0	11010048	58	21014
2026-01-20 20:24:06.57	235.19	7.22	-44.2	-59.8	3.8	5.17e-01	0	53	104	11010048	58	23784
2026-01-20 20:24:07.59	235.08	7.31	-43.9	-55.7	5.4	8.43e-01	0	53	0	11010048	58	14863
2026-01-20 20:24:08.60	234.97	7.39	-43.5	-52.3	8.5	5.26e-01	0	53	0	12058624	58	9946
2026-01-20 20:24:09.61	234.85	7.48	-43.0	-49.8	11.2	5.26e-01	0	53	0	13107200	58	7532
2026-01-20 20:24:10.62	234.74	7.56	-42.4	-48.0	13.1	2.13e-02	0	53	0	14155776	56	6838
2026-01-20 20:24:11.63	234.62	7.65	-41.8	-46.5	14.4	1.75e-04	0	53	0	15204352	55	6113
2026-01-20 20:24:12.64	234.50	7.73	-41.5	-45.9	15.1	1.75e-04	0	53	0	16252928	55	5713
2026-01-20 20:24:13.65	234.39	7.82	-41.4	-45.7	15.3	2.20e-06	0	53	0	17301504	54	5917
2026-01-20 20:24:14.66	234.27	7.91	-41.5	-45.9	15.2	0.00e+00	0	53	0	18874368	54	6015
2026-01-20 20:24:15.67	234.15	7.99	-41.8	-46.6	14.4	0.00e+00	0	53	0	19922944	54	6555
2026-01-20 20:24:16.68	234.03	8.08	-41.5	-45.8	15.4	0.00e+00	0	53	0	20971520	54	5964
2026-01-20 20:24:17.69	233.90	8.17	-41.9	-46.8	14.3	2.20e-06	0	53	0	22020096	54	6693
2026-01-20 20:24:18.70	233.78	8.26	-43.4	-51.3	10.7	1.10e-06	0	53	0	23068672	57	9403
2026-01-20 20:24:19.71	233.66	8.35	-41.4	-45.5	15.4	1.10e-06	0	53	0	24117248	54	5738
2026-01-20 20:24:20.72	233.53	8.44	-43.0	-49.7	13.5	2.33e-01	0	53	0	25165824	56	8340
2026-01-20 20:24:21.73	233.40	8.53	-41.7	-46.4	14.1	2.21e-01	0	53	0	26214400	55	5999
2026-01-20 20:24:22.74	233.28	8.62	-40.8	-44.6	16.5	2.21e-01	0	53	0	27262976	53	5503
2026-01-20 20:24:23.75	233.15	8.71	-40.8	-44.4	16.8	2.26e-03	0	53	0	28311552	53	5385
2026-01-20 20:24:24.76	233.02	8.80	-40.8	-44.5	16.7	0.00e+00	0	53	0	29360128	53	5409
2026-01-20 20:24:25.77	232.89	8.89	-40.8	-44.5	16.6	0.00e+00	0	53	0	30408704	53	5448
2026-01-20 20:24:26.78	232.76	8.98	-40.8	-44.4	16.7	0.00e+00	0	54	0	31457280	53	5395
2026-01-20 20:24:27.79	232.62	9.07	-40.7	-44.3	16.9	0.00e+00	0	54	0	33030144	53	5288
2026-01-20 20:24:28.80	232.49	9.16	-40.7	-44.3	16.9	0.00e+00	0	54	0	34078720	53	5331
2026-01-20 20:24:29.81	232.35	9.26	-40.7	-44.3	16.9	0.00e+00	0	54	0	35127296	53	5310
2026-01-20 20:24:30.82	232.22	9.35	-40.7	-44.2	17.0	0.00e+00	0	54	0	36175872	53	5249
2026-01-20 20:24:31.83	232.08	9.44	-40.7	-44.3	17.0	0.00e+00	0	54	0	37224448	53	5309
2026-01-20 20:24:32.83	231.94	9.54	-40.6	-44.1	17.1	0.00e+00	0	54	0	38273024	53	5176
2026-01-20 20:24:33.84	231.80	9.63	-40.5	-43.9	17.3	0.00e+00	0	54	0	39845888	53	5095
2026-01-20 20:24:34.85	231.66	9.72	-40.5	-43.9	17.3	0.00e+00	0	54	0	40894464	53	5091
2026-01-20 20:24:35.86	231.52	9.82	-40.5	-43.9	17.3	0.00e+00	0	54	0	41943040	53	5090
2026-01-20 20:24:36.87	231.37	9.92	-40.5	-43.9	17.4	0.00e+00	0	54	0	42991616	52	5375
2026-01-20 20:24:37.88	231.23	10.01	-40.5	-43.9	17.4	0.00e+00	0	54	0	44040192	52	5377
2026-01-20 20:24:38.89	231.08	10.11	-40.6	-44.0	17.3	0.00e+00	0	54	0	45088768	52	5458
2026-01-20 20:24:39.90	230.93	10.20	-40.6	-44.1	17.3	0.00e+00	0	54	0	46137344	52	5467
2026-01-20 20:24:40.91	230.78	10.30	-40.6	-44.1	17.2	0.00e+00	0	54	0	47710208	52	5478
2026-01-20 20:24:41.92	230.63	10.40	-40.6	-44.0	17.3	0.00e+00	0	54	0	48758784	52	5457
2026-01-20 20:24:42.93	230.48	10.50	-40.6	-44.0	17.3	0.00e+00	0	54	0	49807360	52	5445
2026-01-20 20:24:43.94	230.33	10.60	-40.6	-44.1	17.3	0.00e+00	0	54	0	50855936	52	5478
2026-01-20 20:24:44.95	230.17	10.69	-40.5	-43.9	17.5	0.00e+00	0	54	0	51904512	52	5354
2026-01-20 20:24:45.96	230.01	10.79	-40.5	-43.9	17.5	0.00e+00	0	54	0	52953088	52	5344
2026-01-20 20:24:46.96	229.86	10.89	-40.5	-43.8	17.6	0.00e+00	0	54	0	54525952	52	5297
2026-01-20 20:24:47.98	229.70	10.99	-40.3	-43.6	17.8	0.00e+00	0	54	0	55574528	52	5173
2026-01-20 20:24:48.99	229.54	11.10	-40.3	-43.5	17.8	0.00e+00	0	54	0	56623104	52	5158
2026-01-20 20:24:50.00	229.37	11.20	-40.3	-43.4	17.9	0.00e+00	0	54	0	57671680	52	5099
2026-01-20 20:24:51.00	229.21	11.30	-40.3	-43.4	18.0	0.00e+00	0	54	0	58720256	52	5090
2026-01-20 20:24:52.01	229.05	11.40	-40.3	-43.5	17.9	0.00e+00	0	54	0	59768832	52	5140
2026-01-20 20:24:53.02	228.88	11.50	-40.3	-43.5	17.9	0.00e+00	0	54	0	61341696	52	5145
2026-01-20 20:24:54.03	228.71	11.60	-40.4	-43.6	17.8	0.00e+00	0	54	0	62390272	52	5212
2026-01-20 20:24:55.04	228.54	11.71	-40.3	-43.5	18.0	0.00e+00	0	54	0	63438848	52	5121
2026-01-20 20:24:56.05	228.37	11.81	-40.4	-43.6	17.8	0.00e+00	0	54	0	64487424	52	5203
2026-01-20 20:24:57.06	228.20	11.92	-40.4	-43.6	17.8	0.00e+00	0	54	0	65536000	52	5189
2026-01-20 20:24:58.07	228.02	12.02	-40.3	-43.4	18.1	0.00e+00	0	54	0	66584576	52	5063
2026-01-20 20:24:59.08	227.85	12.13	-40.4	-43.5	17.9	0.00e+00	0	54	0	68157440	52	5150
2026-01-20 20:25:00.08	227.67	12.23	-40.3	-43.4	18.0	0.00e+00	0	55	0	69206016	52	5074
2026-01-20 20:25:01.09	227.49	12.34	-40.1	-43.2	18.3	0.00e+00	0	54	0	70254592	52	4943
2026-01-20 20:25:02.10	227.31	12.44	-40.1	-43.1	18.3	0.00e+00	0	54	0	71303168	52	4909
2026-01-20 20:25:03.11	227.12	12.55	-40.0	-43.0	18.4	0.00e+00	0	54	0	72351744	52	4854
2026-01-20 20:25:04.12	226.94	12.66	-40.1	-43.0	18.6	0.00e+00	0	55	0	73400320	51	5122
2026-01-20 20:25:05.13	226.75	12.77	-39.9	-42.7	18.9	0.00e+00	0	55	0	74973184	51	4955
2026-01-20 20:25:06.14	226.56	12.88	-39.7	-42.5	19.1	0.00e+00	0	54	0	76021760	51	4834
2026-01-20 20:25:07.15	226.37	12.98	-39.8	-42.6	19.0	0.00e+00	0	55	0	77070336	51	4908
2026-01-20 20:25:08.16	226.18	13.09	-39.8	-42.6	18.9	0.00e+00	0	54	0	78118912	51	4925
2026-01-20 20:25:09.17	225.99	13.20	-39.8	-42.6	19.0	0.00e+00	0	55	0	79167488	51	4886
2026-01-20 20:25:10.18	225.79	13.31	-39.9	-42.7	18.9	0.00e+00	0	55	0	80740352	51	4966
2026-01-20 20:25:11.19	225.59	13.43	-39.8	-42.6	19.0	0.00e+00	0	55	0	81788928	51	4905
2026-01-20 20:25:12.20	225.39	13.54	-39.9	-42.7	19.0	0.00e+00	0	55	0	82837504	51	4930
2026-01-20 20:25:13.21	225.19	13.65	-39.7	-42.4	19.2	0.00e+00	0	55	0	83886080	51	4800
2026-01-20 20:25:14.22	224.99	13.76	-39.7	-42.4	19.3	0.00e+00	0	55	0	84934656	51	4785
2026-01-20 20:25:15.22	224.78	13.87	-39.6	-42.3	19.3	0.00e+00	0	55	0	85983232	51	4756
2026-01-20 20:25:16.23	224.57	13.99	-39.5	-42.2	19.5	0.00e+00	0	55	0	87031808	51	4675
2026-01-20 20:25:17.24	224.36	14.10	-39.5	-42.1	19.6	0.00e+00	0	55	0	88604672	50	4875
2026-01-20 20:25:18.25	224.15	14.21	-39.4	-42.0	19.7	0.00e+00	0	55	0	89653248	50	4841
2026-01-20 20:25:19.26	223.94	14.33	-39.4	-41.9	19.7	0.00e+00	0	55	0	90701824	50	4811
2026-01-20 20:25:20.27	223.72	14.44	-39.5	-42.0	19.7	0.00e+00	0	55	0	91750400	50	4869
2026-01-20 20:25:21.28	223.50	14.56	-39.6	-42.2	19.5	0.00e+00	0	55	0	92798976	50	4980
2026-01-20 20:25:22.29	223.28	14.67	-39.7	-42.3	19.4	0.00e+00	0	54	0	93847552	50	5036
2026-01-20 20:25:23.30	223.06	14.79	-39.7	-42.4	19.4	0.00e+00	0	55	0	95420416	50	5044
2026-01-20 20:25:24.31	222.83	14.91	-39.7	-42.3	19.4	0.00e+00	0	55	0	96468992	50	5030
2026-01-20 20:25:25.32	222.60	15.03	-39.5	-42.1	19.6	0.00e+00	0	55	0	97517568	50	4919
2026-01-20 20:25:26.33	222.37	15.14	-39.5	-42.1	19.6	0.00e+00	0	55	0	98566144	50	4899
2026-01-20 20:25:27.34	222.14	15.26	-39.5	-42.1	19.6	0.00e+00	0	55	0	99614720	50	4925
2026-01-20 20:25:28.35	221.91	15.38	-39.4	-41.9	19.8	0.00e+00	0	55	0	100663296	50	4802
2026-01-20 20:25:29.36	221.67	15.50	-39.2	-41.7	20.0	0.00e+00	0	55	0	102236160	50	4690
2026-01-20 20:25:30.37	221.43	15.62	-39.1	-41.6	20.2	0.00e+00	0	55	0	103284736	50	4601
2026-01-20 20:25:31.38	221.19	15.74	-39.3	-41.8	20.0	0.00e+00	0	55	0	104333312	50	4732
2026-01-20 20:25:32.39	220.94	15.86	-39.3	-41.8	19.9	0.00e+00	0	55	0	105381888	50	4746
2026-01-20 20:25:33.40	220.69	15.98	-39.3	-41.8	20.0	0.00e+00	0	55	0	106430464	50	4741
2026-01-20 20:25:34.41	220.44	16.10	-39.3	-41.8	19.9	0.00e+00	0	55	0	107479040	50	4755
2026-01-20 20:25:35.42	220.19	16.22	-39.3	-41.8	20.0	0.00e+00	0	55	0	109051904	50	4715
2026-01-20 20:25:36.42	219.94	16.34	-39.3	-41.8	20.0	0.00e+00	0	55	0	110100480	50	4710
2026-01-20 20:25:37.43	219.68	16.47	-39.1	-41.6	20.2	0.00e+00	0	55	0	111149056	50	4599
2026-01-20 20:25:38.44	219.42	16.59	-38.8	-41.1	20.6	0.00e+00	0	55	0	112197632	49	4633
2026-01-20 20:25:39.45	219.16	16.71	-38.7	-41.0	20.8	0.00e+00	0	55	0	113246208	49	4547
2026-01-20 20:25:40.46	218.89	16.84	-38.6	-40.8	20.9	0.00e+00	0	55	0	114294784	49	4481
2026-01-20 20:25:41.48	218.62	16.96	-38.7	-40.9	20.8	0.00e+00	0	55	0	115867648	49	4543
2026-01-20 20:25:42.48	218.36	17.08	-38.7	-40.9	20.9	0.00e+00	0	55	0	116916224	49	4531
2026-01-20 20:25:43.49	218.08	17.21	-38.6	-40.8	21.0	0.00e+00	0	55	0	117964800	49	4471
2026-01-20 20:25:44.50	217.80	17.33	-38.7	-41.0	20.9	0.00e+00	0	55	0	119013376	49	4551
2026-01-20 20:25:45.52	217.52	17.46	-39.0	-41.3	20.5	0.00e+00	0	55	0	120061952	49	4758
2026-01-20 20:25:46.52	217.24	17.59	-39.1	-41.5	20.3	0.00e+00	0	55	0	121110528	49	4867
2026-01-20 20:25:47.53	216.96	17.71	-39.1	-41.5	20.2	0.00e+00	0	55	0	122683392	49	4869
2026-01-20 20:25:48.54	216.67	17.84	-39.1	-41.5	20.3	0.00e+00	0	55	0	123731968	49	4851
2026-01-20 20:25:49.55	216.38	17.96	-39.1	-41.5	20.3	0.00e+00	0	55	0	124780544	49	4840
2026-01-20 20:25:50.56	216.08	18.09	-39.0	-41.4	20.5	0.00e+00	0	55	0	125829120	49	4774
2026-01-20 20:25:51.57	215.79	18.22	-39.0	-41.3	20.5	0.00e+00	0	55	0	126877696	49	4744
2026-01-20 20:25:52.58	215.48	18.35	-38.8	-41.0	20.8	0.00e+00	0	55	0	127926272	49	4598
2026-01-20 20:25:53.59	215.18	18.47	-38.7	-41.0	20.8	0.00e+00	0	55	0	129499136	49	4570
2026-01-20 20:25:54.60	214.87	18.60	-38.7	-41.0	20.8	0.00e+00	0	56	0	130547712	49	4565
2026-01-20 20:25:55.61	214.56	18.73	-38.7	-40.9	20.9	0.00e+00	0	55	0	131596288	49	4529
2026-01-20 20:25:56.62	214.25	18.86	-38.7	-40.9	21.0	0.00e+00	0	55	0	132644864	49	4510
2026-01-20 20:25:57.63	213.93	18.99	-38.7	-41.0	20.9	0.00e+00	0	55	0	133693440	49	4546
2026-01-20 20:25:58.64	213.61	19.11	-38.8	-41.1	20.7	0.00e+00	0	56	0	134742016	49	4643
2026-01-20 20:25:59.65	213.29	19.24	-38.8	-41.1	20.7	0.00e+00	0	55	0	136314880	49	4642
2026-01-20 20:26:00.66	212.96	19.37	-38.9	-41.2	20.7	0.00e+00	0	55	0	137363456	49	4661
2026-01-20 20:26:01.67	212.63	19.50	-38.6	-40.9	20.9	0.00e+00	0	55	0	138412032	49	4515
2026-01-20 20:26:02.68	212.30	19.63	-38.6	-40.9	21.0	0.00e+00	0	55	0	139460608	49	4506
2026-01-20 20:26:03.69	211.96	19.76	-38.4	-40.5	21.3	0.00e+00	0	55	0	140509184	48	4597
2026-01-20 20:26:04.70	211.62	19.89	-38.1	-40.1	21.7	0.00e+00	0	56	0	141557760	48	4384
2026-01-20 20:26:05.71	211.28	20.02	-38.0	-40.0	21.9	0.00e+00	0	56	0	143130624	48	4330
2026-01-20 20:26:06.72	210.93	20.15	-37.9	-40.0	21.8	0.00e+00	0	55	0	144179200	47	4577
2026-01-20 20:26:07.73	210.58	20.28	-38.1	-40.2	21.7	0.00e+00	0	55	0	145227776	47	4674
2026-01-20 20:26:08.74	210.23	20.40	-38.1	-40.3	21.6	0.00e+00	0	56	0	146276352	47	4713
2026-01-20 20:26:09.75	209.87	20.53	-38.2	-40.3	21.5	0.00e+00	0	55	0	147324928	47	4728
2026-01-20 20:26:10.76	209.51	20.66	-38.4	-40.6	21.3	0.00e+00	0	55	0	148373504	47	4907
2026-01-20 20:26:11.77	209.14	20.79	-38.5	-40.8	21.1	0.00e+00	0	56	0	149946368	47	4999
2026-01-20 20:26:12.78	208.77	20.92	-38.5	-40.7	21.2	0.00e+00	0	56	0	150994944	47	4961
2026-01-20 20:26:13.79	208.40	21.05	-38.5	-40.7	21.2	0.00e+00	0	56	0	152043520	47	4942
2026-01-20 20:26:14.80	208.03	21.18	-38.4	-40.6	21.3	0.00e+00	0	56	0	153092096	47	4891
2026-01-20 20:26:15.81	207.64	21.30	-38.0	-40.1	21.7	0.00e+00	0	56	0	154140672	47	4622
2026-01-20 20:26:16.82	207.26	21.43	-38.0	-40.1	21.8	0.00e+00	0	56	0	155189248	47	4608
2026-01-20 20:26:17.83	206.87	21.56	-37.7	-39.7	22.1	0.00e+00	0	56	0	156762112	47	4421
2026-01-20 20:26:18.84	206.48	21.69	-37.9	-39.9	21.9	0.00e+00	0	56	0	157810688	47	4525
2026-01-20 20:26:19.85	206.09	21.81	-38.0	-40.0	21.8	0.00e+00	0	56	0	158859264	47	4592
2026-01-20 20:26:20.86	205.69	21.94	-37.9	-39.9	21.9	0.00e+00	0	56	0	159907840	47	4516
2026-01-20 20:26:21.87	205.28	22.06	-37.9	-40.0	21.9	0.00e+00	0	56	0	160956416	47	4552
2026-01-20 20:26:22.88	204.88	22.19	-38.0	-40.0	21.8	0.00e+00	0	56	0	162004992	47	4587
2026-01-20 20:26:23.89	204.47	22.32	-38.0	-40.1	21.8	0.00e+00	0	56	0	163577856	47	4620
2026-01-20 20:26:24.90	204.05	22.44	-37.9	-40.0	21.9	0.00e+00	0	56	0	164626432	47	4571
2026-01-20 20:26:25.91	203.63	22.56	-38.1	-40.2	21.8	0.00e+00	0	56	0	165675008	47	4658
2026-01-20 20:26:26.92	203.21	22.69	-38.0	-40.1	21.8	0.00e+00	0	56	0	166723584	47	4600
2026-01-20 20:26:27.93	202.78	22.81	-37.9	-40.0	21.9	0.00e+00	0	56	0	167772160	47	4570
2026-01-20 20:26:28.94	202.35	22.93	-37.9	-40.0	21.9	0.00e+00	0	56	0	168820736	47	4556
2026-01-20 20:26:29.95	201.92	23.05	-37.6	-39.6	22.2	0.00e+00	0	56	0	170393600	47	4377
2026-01-20 20:26:30.96	201.48	23.17	-37.6	-39.5	22.4	0.00e+00	0	56	0	171442176	47	4321
2026-01-20 20:26:31.97	201.04	23.29	-37.5	-39.5	22.4	0.00e+00	0	56	0	172490752	46	4547
2026-01-20 20:26:32.98	200.59	23.41	-37.5	-39.4	22.5	0.00e+00	0	56	0	173539328	46	4517
2026-01-20 20:26:33.99	200.14	23.53	-37.5	-39.5	22.4	0.00e+00	0	56	0	174587904	46	4553
2026-01-20 20:26:34.99	199.69	23.64	-37.5	-39.5	22.4	0.00e+00	0	56	0	175636480	46	4549
2026-01-20 20:26:36.00	199.23	23.76	-37.6	-39.5	22.2	0.00e+00	0	56	0	177209344	46	4578
2026-01-20 20:26:37.01	198.77	23.87	-37.4	-39.3	22.6	0.00e+00	0	56	0	178257920	46	4482
2026-01-20 20:26:38.02	198.30	23.98	-37.3	-39.2	22.6	0.00e+00	0	56	0	179306496	46	4438
2026-01-20 20:26:39.03	197.83	24.10	-37.4	-39.3	22.6	0.00e+00	0	56	0	180355072	46	4454
2026-01-20 20:26:40.04	197.36	24.21	-37.5	-39.4	22.5	0.00e+00	0	56	0	181403648	46	4531
2026-01-20 20:26:41.05	196.88	24.32	-37.5	-39.4	22.4	0.00e+00	0	56	0	182452224	46	4531
2026-01-20 20:26:42.05	196.40	24.42	-37.7	-39.6	22.2	0.00e+00	0	56	0	184025088	46	4649
2026-01-20 20:26:43.06	195.92	24.53	-37.6	-39.6	22.3	0.00e+00	0	56	0	185073664	46	4626
2026-01-20 20:26:44.07	195.43	24.64	-37.5	-39.5	22.4	0.00e+00	0	56	0	186122240	46	4561
2026-01-20 20:26:45.08	194.94	24.74	-37.6	-39.6	22.3	0.00e+00	0	56	0	187170816	46	4609
2026-01-20 20:26:46.09	194.44	24.84	-37.8	-39.8	22.1	0.00e+00	0	56	0	188219392	46	4740
2026-01-20 20:26:47.10	193.94	24.95	-37.6	-39.6	22.3	0.00e+00	0	56	0	189267968	46	4617
2026-01-20 20:26:48.11	193.43	25.05	-37.7	-39.7	22.1	0.00e+00	0	56	0	190840832	46	4702
2026-01-20 20:26:49.12	192.92	25.14	-38.1	-40.1	21.8	0.00e+00	0	56	0	191889408	46	4908
2026-01-20 20:26:50.13	192.41	25.24	-37.8	-39.8	22.1	0.00e+00	0	56	0	192937984	46	4727
2026-01-20 20:26:51.14	191.90	25.33	-37.7	-39.7	22.1	0.00e+00	0	56	0	193986560	46	4695
2026-01-20 20:26:52.15	191.38	25.43	-37.6	-39.6	22.3	0.00e+00	0	56	0	195035136	46	4620
2026-01-20 20:26:53.16	190.86	25.52	-37.4	-39.4	22.5	0.00e+00	0	56	0	196083712	46	4504
2026-01-20 20:26:54.17	190.33	25.61	-37.5	-39.5	22.4	0.00e+00	0	56	0	197656576	46	4569
2026-01-20 20:26:55.18	189.80	25.69	-37.6	-39.6	22.3	0.00e+00	0	56	0	198705152	46	4609
2026-01-20 20:26:56.19	189.27	25.78	-37.5	-39.4	22.5	0.00e+00	0	56	0	199753728	46	4519
2026-01-20 20:26:57.20	188.73	25.86	-37.6	-39.6	22.2	0.00e+00	0	56	0	200802304	46	4625
2026-01-20 20:26:58.21	188.19	25.94	-37.5	-39.5	22.4	0.00e+00	0	56	0	201850880	46	4566
2026-01-20 20:26:59.22	187.65	26.02	-37.5	-39.4	22.4	0.00e+00	0	56	0	202899456	46	4518
2026-01-20 20:27:00.23	187.11	26.10	-37.4	-39.3	22.5	0.00e+00	0	56	0	204472320	46	4468
2026-01-20 20:27:01.24	186.56	26.17	-37.6	-39.6	22.2	0.00e+00	0	56	0	205520896	46	4600
2026-01-20 20:27:02.25	186.01	26.24	-37.4	-39.3	22.5	0.00e+00	0	56	0	206569472	46	4481
2026-01-20 20:27:03.26	185.45	26.31	-37.3	-39.2	22.6	0.00e+00	0	56	0	207618048	46	4441
2026-01-20 20:27:04.27	184.90	26.38	-36.9	-38.8	23.0	0.00e+00	0	56	0	208666624	45	4465
2026-01-20 20:27:05.28	184.34	26.44	-36.9	-38.8	23.0	0.00e+00	0	56	0	209715200	45	4467
2026-01-20 20:27:06.29	183.78	26.51	-37.0	-38.9	23.0	0.00e+00	0	56	0	211288064	45	4510
2026-01-20 20:27:07.30	183.21	26.57	-37.2	-39.0	22.8	0.00e+00	0	56	0	212336640	45	4595
2026-01-20 20:27:08.31	182.65	26.62	-37.2	-39.1	22.8	0.00e+00	0	56	0	213385216	45	4632
2026-01-20 20:27:09.32	182.08	26.68	-37.2	-39.1	22.8	0.00e+00	0	56	0	214433792	45	4602
2026-01-20 20:27:10.33	181.51	26.73	-37.1	-38.9	22.9	0.00e+00	0	56	0	215482368	45	4530
2026-01-20 20:27:11.33	180.94	26.78	-37.0	-38.8	23.1	0.00e+00	0	56	0	216530944	45	4464
2026-01-20 20:27:12.35	180.36	26.82	-37.1	-38.9	23.0	0.00e+00	0	56	0	218103808	45	4533
2026-01-20 20:27:13.35	179.79	26.87	-37.2	-39.0	22.9	0.00e+00	0	56	0	219152384	45	4581
2026-01-20 20:27:14.36	179.21	26.91	-37.2	-39.0	22.8	0.00e+00	0	56	0	220200960	45	4594
2026-01-20 20:27:15.37	178.63	26.95	-37.4	-39.3	22.6	0.00e+00	0	56	0	221249536	45	4724
2026-01-20 20:27:16.38	178.05	26.98	-37.2	-39.1	22.8	0.00e+00	0	56	0	222298112	45	4600
2026-01-20 20:27:17.39	177.46	27.02	-37.1	-38.9	22.9	0.00e+00	0	56	0	223346688	45	4536
2026-01-20 20:27:18.40	176.88	27.05	-37.2	-39.1	22.8	0.00e+00	0	56	0	224919552	45	4631
2026-01-20 20:27:19.41	176.29	27.07	-37.5	-39.4	22.8	0.00e+00	0	56	0	225968128	45	4797
2026-01-20 20:27:20.42	175.71	27.10	-37.3	-39.2	22.8	0.00e+00	0	56	0	227016704	45	4656
2026-01-20 20:27:21.43	175.12	27.12	-37.2	-39.0	22.9	0.00e+00	0	56	0	228065280	45	4576
2026-01-20 20:27:22.44	174.53	27.14	-37.2	-39.0	22.9	0.00e+00	0	56	0	229113856	45	4579
2026-01-20 20:27:23.45	173.94	27.15	-37.1	-38.9	23.0	0.00e+00	0	56	0	230162432	45	4528
2026-01-20 20:27:24.46	173.35	27.16	-37.2	-39.0	23.0	0.00e+00	0	56	0	231735296	45	4595
2026-01-20 20:27:25.46	172.77	27.17	-37.3	-39.2	22.7	0.00e+00	0	56	0	232783872	45	4685
2026-01-20 20:27:26.47	172.18	27.18	-37.3	-39.3	22.7	0.00e+00	0	56	0	233832448	45	4712
2026-01-20 20:27:27.48	171.59	27.18	-37.3	-39.2	22.7	0.00e+00	0	56	0	234881024	45	4698
2026-01-20 20:27:28.49	171.00	27.18	-37.3	-39.2	22.7	0.00e+00	0	56	0	235929600	45	4683
2026-01-20 20:27:29.50	170.41	27.18	-37.4	-39.3	22.7	0.00e+00	0	56	0	236978176	45	4755
2026-01-20 20:27:30.51	169.81	27.17	-37.6	-39.6	22.5	0.00e+00	0	56	0	238551040	45	4887
2026-01-20 20:27:31.52	169.22	27.16	-37.6	-39.5	22.5	0.00e+00	0	56	0	239599616	45	4854
2026-01-20 20:27:32.53	168.63	27.15	-37.6	-39.5	22.6	0.00e+00	0	56	0	240648192	45	4829
2026-01-20 20:27:33.54	168.05	27.14	-37.2	-39.0	23.0	0.00e+00	0	56	0	241696768	45	4587
2026-01-20 20:27:34.55	167.46	27.12	-37.2	-39.0	23.1	0.00e+00	0	56	0	242745344	45	4568
2026-01-20 20:27:35.56	166.87	27.10	-37.0	-38.8	23.2	0.00e+00	0	56	0	243793920	45	4453
2026-01-20 20:27:36.57	166.28	27.08	-37.0	-38.8	23.2	0.00e+00	0	56	0	245366784	45	4458
2026-01-20 20:27:37.58	165.70	27.05	-37.3	-39.2	22.7	0.00e+00	0	56	0	246415360	45	4681
2026-01-20 20:27:38.59	165.11	27.02	-37.6	-39.5	22.5	0.00e+00	0	56	0	247463936	45	4869
2026-01-20 20:27:39.60	164.53	26.99	-37.9	-39.9	22.2	0.00e+00	0	56	0	248512512	46	4769
2026-01-20 20:27:40.61	163.95	26.95	-37.4	-39.3	22.6	0.00e+00	0	56	0	249561088	46	4448
2026-01-20 20:27:41.62	163.37	26.92	-37.0	-38.8	23.1	0.00e+00	0	56	0	250609664	46	4220
2026-01-20 20:27:42.62	162.79	26.88	-36.8	-38.6	23.4	0.00e+00	0	56	0	252182528	45	4387
2026-01-20 20:27:43.63	162.22	26.83	-37.0	-38.8	23.2	0.00e+00	0	56	0	253231104	45	4458
2026-01-20 20:27:44.64	161.64	26.79	-37.3	-39.1	22.9	0.00e+00	0	56	0	254279680	45	4635
2026-01-20 20:27:45.65	161.07	26.74	-37.5	-39.5	22.6	0.00e+00	0	56	0	255328256	45	4825
2026-01-20 20:27:46.66	160.50	26.69	-37.3	-39.2	22.8	0.00e+00	0	56	0	256376832	45	4695
2026-01-20 20:27:47.67	159.93	26.63	-37.3	-39.2	22.8	0.00e+00	0	56	0	257425408	45	4685
2026-01-20 20:27:48.68	159.36	26.58	-37.5	-39.4	22.6	0.00e+00	0	56	0	258998272	45	4774
2026-01-20 20:27:49.69	158.80	26.52	-37.2	-39.1	22.9	0.00e+00	0	56	0	260046848	45	4645
2026-01-20 20:27:50.70	158.24	26.45	-37.2	-39.1	23.0	0.00e+00	0	56	0	261095424	45	4616
2026-01-20 20:27:51.71	157.68	26.39	-37.2	-39.1	22.9	0.00e+00	0	56	0	262144000	45	4646
2026-01-20 20:27:52.72	157.12	26.32	-37.4	-39.3	22.9	0.00e+00	0	56	0	263192576	45	4722
2026-01-20 20:27:53.73	156.57	26.25	-37.5	-39.5	22.6	0.00e+00	0	57	0	264241152	45	4817
2026-01-20 20:27:54.74	156.02	26.18	-37.6	-39.6	22.5	0.00e+00	0	56	0	265814016	45	4875
2026-01-20 20:27:55.74	155.47	26.11	-37.7	-39.7	22.4	0.00e+00	0	56	0	266862592	46	4682
2026-01-20 20:27:56.75	154.93	26.03	-38.1	-40.1	22.1	0.00e+00	0	56	0	267911168	46	4908
2026-01-20 20:27:57.76	154.39	25.96	-38.1	-40.1	22.0	0.00e+00	0	56	0	268959744	46	4921
2026-01-20 20:27:58.77	153.85	25.88	-38.2	-40.3	21.9	0.00e+00	0	57	0	270008320	46	5021
2026-01-20 20:27:59.78	153.31	25.79	-38.4	-40.5	21.7	0.00e+00	0	57	0	271056896	47	4852
2026-01-20 20:28:00.79	152.78	25.71	-38.1	-40.2	21.9	0.00e+00	0	56	0	272629760	47	4696
2026-01-20 20:28:01.80	152.25	25.62	-38.1	-40.1	22.1	0.00e+00	0	56	0	273678336	47	4639
2026-01-20 20:28:02.81	151.73	25.53	-38.1	-40.1	22.1	0.00e+00	0	56	0	274726912	47	4635
2026-01-20 20:28:03.82	151.20	25.44	-37.9	-40.0	22.2	0.00e+00	0	57	0	275775488	47	4557
2026-01-20 20:28:04.83	150.68	25.35	-37.5	-39.5	22.7	0.00e+00	0	56	0	276824064	47	4298
2026-01-20 20:28:05.84	150.17	25.26	-37.6	-39.5	22.7	0.00e+00	0	56	0	277872640	46	4579
2026-01-20 20:28:06.85	149.66	25.16	-37.8	-39.8	22.4	0.00e+00	0	57	0	279445504	46	4747
2026-01-20 20:28:07.86	149.15	25.06	-37.9	-40.0	22.3	0.00e+00	0	56	0	280494080	46	4825
2026-01-20 20:28:08.87	148.64	24.97	-38.1	-40.1	22.1	0.00e+00	0	57	0	281542656	46	4920
2026-01-20 20:28:09.88	148.14	24.86	-38.0	-40.0	22.2	0.00e+00	0	56	0	282591232	46	4852
2026-01-20 20:28:10.89	147.65	24.76	-38.0	-40.0	22.2	0.00e+00	0	57	0	283639808	46	4849
2026-01-20 20:28:11.90	147.15	24.66	-37.8	-39.8	22.4	0.00e+00	0	56	0	284688384	46	4757
2026-01-20 20:28:12.91	146.66	24.55	-37.8	-39.8	22.4	0.00e+00	0	57	0	286261248	46	4733
2026-01-20 20:28:13.91	146.18	24.45	-38.0	-40.1	22.2	0.00e+00	0	57	0	287309824	46	4876
2026-01-20 20:28:14.92	145.70	24.34	-38.2	-40.3	22.0	0.00e+00	0	56	0	288358400	46	5008
2026-01-20 20:28:15.93	145.22	24.23	-38.2	-40.4	21.9	0.00e+00	0	57	0	289406976	47	4766
2026-01-20 20:28:16.94	144.75	24.12	-38.1	-40.1	22.1	0.00e+00	0	56	0	290455552	47	4636
2026-01-20 20:28:17.95	144.28	24.01	-37.7	-39.6	22.6	0.00e+00	0	57	0	291504128	47	4383
2026-01-20 20:28:18.96	143.81	23.90	-37.6	-39.6	22.6	0.00e+00	0	56	0	293076992	47	4366
2026-01-20 20:28:19.97	143.35	23.78	-37.3	-39.2	23.0	0.00e+00	0	56	0	294125568	46	4438
2026-01-20 20:28:20.98	142.89	23.67	-37.5	-39.5	22.7	0.00e+00	0	57	0	295174144	46	4571
2026-01-20 20:28:21.99	142.44	23.55	-37.8	-39.8	22.4	0.00e+00	0	57	0	296222720	46	4754
2026-01-20 20:28:23.00	141.99	23.43	-38.0	-40.1	22.1	0.00e+00	0	57	0	297271296	46	4895
2026-01-20 20:28:24.01	141.54	23.31	-38.1	-40.2	22.0	0.00e+00	0	57	0	298319872	46	4976
2026-01-20 20:28:25.02	141.10	23.20	-38.0	-40.0	22.2	0.00e+00	0	57	0	299368448	46	4851
2026-01-20 20:28:26.03	140.66	23.08	-38.0	-40.1	22.1	0.00e+00	0	56	0	300941312	46	4875
2026-01-20 20:28:27.03	140.23	22.96	-38.1	-40.1	22.1	0.00e+00	0	57	0	301989888	46	4923
2026-01-20 20:28:28.04	139.80	22.84	-37.9	-39.9	22.3	0.00e+00	0	57	0	303038464	46	4796
2026-01-20 20:28:29.05	139.37	22.71	-37.8	-39.8	22.4	0.00e+00	0	57	0	304087040	46	4735
2026-01-20 20:28:30.06	138.95	22.59	-37.6	-39.6	22.6	0.00e+00	0	57	0	305135616	46	4621
2026-01-20 20:28:31.07	138.53	22.47	-37.7	-39.6	22.5	0.00e+00	0	56	0	306184192	46	4648
2026-01-20 20:28:32.08	138.11	22.34	-37.8	-39.8	22.4	0.00e+00	0	57	0	307757056	46	4750
2026-01-20 20:28:33.09	137.70	22.22	-38.0	-40.1	22.2	0.00e+00	0	57	0	308805632	46	4873
2026-01-20 20:28:34.10	137.30	22.09	-38.1	-40.2	22.0	0.00e+00	0	57	0	309854208	46	4967
2026-01-20 20:28:35.11	136.89	21.97	-38.3	-40.5	21.7	0.00e+00	0	57	0	310902784	47	4816
2026-01-20 20:28:36.12	136.49	21.84	-38.3	-40.4	21.8	0.00e+00	0	57	0	311951360	47	4798
2026-01-20 20:28:37.13	136.10	21.72	-38.2	-40.4	21.8	0.00e+00	0	57	0	313524224	47	4783
2026-01-20 20:28:38.14	135.71	21.59	-38.3	-40.4	21.7	0.00e+00	0	57	0	314572800	47	4814
2026-01-20 20:28:39.15	135.32	21.46	-38.2	-40.3	21.9	0.00e+00	0	57	0	315621376	47	4739
2026-01-20 20:28:40.16	134.93	21.34	-38.2	-40.4	21.8	0.00e+00	0	57	0	316669952	47	4762
2026-01-20 20:28:41.17	134.55	21.21	-38.3	-40.5	21.7	0.00e+00	0	57	0	317718528	47	4823
2026-01-20 20:28:42.17	134.18	21.08	-38.5	-40.7	21.5	0.00e+00	0	57	0	318767104	47	4942
2026-01-20 20:28:43.18	133.81	20.95	-38.4	-40.6	21.5	0.00e+00	0	57	0	320339968	47	4908
2026-01-20 20:28:44.20	133.44	20.82	-38.3	-40.5	21.6	0.00e+00	0	57	0	321388544	47	4862
2026-01-20 20:28:45.20	133.07	20.70	-38.4	-40.6	21.6	0.00e+00	0	57	0	322437120	47	4898
2026-01-20 20:28:46.21	132.71	20.57	-38.5	-40.8	21.3	0.00e+00	0	57	0	323485696	47	5016
2026-01-20 20:28:47.22	132.35	20.44	-38.6	-40.9	21.2	0.00e+00	0	57	0	324534272	47	5051
2026-01-20 20:28:48.23	132.00	20.31	-38.5	-40.8	21.3	0.00e+00	0	57	0	325582848	47	4998
2026-01-20 20:28:49.24	131.65	20.18	-38.2	-40.8	20.6	0.00e+00	0	57	0	327155712	47	5022
2026-01-20 20:28:50.25	131.30	20.05	-38.2	-40.9	20.8	0.00e+00	0	57	0	328204288	47	5046
2026-01-20 20:28:51.26	130.96	19.92	-38.4	-40.7	21.0	0.00e+00	0	57	0	329252864	47	4944
2026-01-20 20:28:52.27	130.62	19.80	-38.0	-40.7	20.7	0.00e+00	0	57	0	330301440	47	4937
2026-01-20 20:28:53.28	130.28	19.67	-38.7	-41.1	21.0	0.00e+00	0	57	0	331350016	48	4900
2026-01-20 20:28:54.29	129.95	19.54	-38.8	-41.4	19.0	0.00e+00	0	57	0	332398592	48	5060
2026-01-20 20:28:55.29	129.62	19.41	-38.8	-41.1	20.8	9.10e-06	0	57	0	333971456	48	4921
2026-01-20 20:28:56.30	129.29	19.28	-38.3	-40.8	21.1	9.10e-06	0	57	0	335020032	47	5024
2026-01-20 20:28:57.31	128.97	19.15	-38.5	-40.8	21.1	2.20e-06	0	57	0	336068608	47	5034
2026-01-20 20:28:58.32	128.65	19.03	-38.5	-40.8	20.7	3.40e-06	0	57	0	337117184	47	5019
2026-01-20 20:28:59.33	128.33	18.90	-38.4	-41.0	20.2	3.40e-06	0	57	0	338165760	47	5118
2026-01-20 20:29:00.34	128.02	18.77	-38.7	-41.1	20.3	0.00e+00	0	57	0	339214336	48	4926
2026-01-20 20:29:01.35	127.71	18.64	-38.8	-41.1	20.9	2.20e-06	0	57	0	340262912	48	4871
2026-01-20 20:29:02.36	127.40	18.51	-38.8	-41.1	20.4	2.20e-06	0	57	0	341835776	48	4875
2026-01-20 20:29:03.37	127.10	18.39	-38.5	-40.9	20.5	0.00e+00	0	57	0	342884352	47	5053
2026-01-20 20:29:04.38	126.80	18.26	-38.6	-40.9	20.5	1.10e-06	0	57	0	343932928	47	5081
2026-01-20 20:29:05.39	126.50	18.13	-38.7	-41.1	20.4	1.10e-06	0	57	0	344981504	47	5160
2026-01-20 20:29:06.40	126.21	18.01	-38.9	-41.3	20.0	0.00e+00	0	57	0	346030080	48	5029
2026-01-20 20:29:07.41	125.92	17.88	-39.1	-41.6	20.3	0.00e+00	0	57	0	347078656	48	5163
2026-01-20 20:29:08.42	125.63	17.75	-39.1	-41.6	20.3	0.00e+00	0	57	0	348651520	48	5162
2026-01-20 20:29:09.43	125.34	17.63	-39.0	-41.5	20.3	0.00e+00	0	57	0	349700096	48	5113
2026-01-20 20:29:10.44	125.06	17.50	-38.9	-41.3	20.5	0.00e+00	0	57	0	350748672	48	5034
2026-01-20 20:29:11.45	124.78	17.38	-38.8	-41.2	20.7	0.00e+00	0	57	0	351797248	48	4939
2026-01-20 20:29:12.46	124.50	17.25	-38.4	-41.3	20.5	0.00e+00	0	57	0	352845824	48	5022
2026-01-20 20:29:13.47	124.23	17.13	-39.0	-41.5	20.4	0.00e+00	0	57	0	353894400	48	5111
2026-01-20 20:29:14.48	123.96	17.00	-39.0	-41.5	20.0	0.00e+00	0	57	0	355467264	48	5159
2026-01-20 20:29:15.49	123.69	16.88	-38.9	-41.6	20.0	0.00e+00	0	57	0	356515840	48	5192
2026-01-20 20:29:16.50	123.42	16.76	-39.3	-41.8	20.0	0.00e+00	0	57	0	357564416	49	5020
2026-01-20 20:29:17.51	123.16	16.63	-39.4	-42.0	19.8	0.00e+00	0	57	0	358612992	49	5142
2026-01-20 20:29:18.52	122.90	16.51	-39.4	-42.1	19.7	0.00e+00	0	57	0	359661568	49	5201
2026-01-20 20:29:19.53	122.64	16.39	-39.4	-42.2	19.6	2.20e-06	0	57	0	361234432	49	5223
2026-01-20 20:29:20.53	122.39	16.27	-39.3	-42.2	18.2	3.54e-05	0	57	0	362283008	49	5247
2026-01-20 20:29:21.54	122.14	16.15	-39.2	-42.1	19.0	3.77e-05	0	57	0	363331584	48	5522
2026-01-20 20:29:22.55	121.89	16.02	-36.8	-42.1	18.4	3.77e-05	0	57	0	364380160	47	5812
2026-01-20 20:29:23.56	121.64	15.90	-39.1	-42.1	19.2	1.04e-04	0	57	0	365428736	49	5185
2026-01-20 20:29:24.57	121.40	15.78	-33.6	-41.8	19.2	9.19e-04	0	57	0	366477312	47	5625
2026-01-20 20:29:25.58	121.15	15.66	-38.7	-41.9	18.8	9.19e-04	0	57	0	368050176	47	5718
2026-01-20 20:29:26.59	120.91	15.54	-37.7	-42.2	17.9	5.80e-04	0	57	0	369098752	48	5559
2026-01-20 20:29:27.60	120.68	15.43	-34.1	-41.8	15.6	3.05e-03	0	57	0	370147328	41	7955
2026-01-20 20:29:28.61	120.44	15.31	-37.4	-42.4	17.7	3.05e-03	0	57	0	371195904	46	6385
2026-01-20 20:29:29.62	120.21	15.19	-33.8	-42.1	13.2	5.92e-03	0	57	0	372244480	42	7771
2026-01-20 20:29:30.63	119.98	15.07	-38.4	-42.4	16.9	6.52e-03	0	57	0	373293056	45	6794
2026-01-20 20:29:31.64	119.75	14.95	-37.3	-42.7	16.5	3.35e-03	0	57	0	374865920	48	5900
2026-01-20 20:29:32.65	119.53	14.84	-33.9	-42.3	14.4	3.35e-03	0	57	0	375914496	43	7492
2026-01-20 20:29:33.66	119.30	14.72	-36.7	-42.4	12.2	3.67e-03	0	57	0	376963072	43	7603
2026-01-20 20:29:34.67	119.08	14.60	-36.0	-42.8	16.4	1.28e-02	0	57	0	378011648	48	5945
2026-01-20 20:29:35.67	118.87	14.49	-33.5	-42.2	11.1	1.28e-02	0	57	0	379060224	37	10430
2026-01-20 20:29:36.68	118.65	14.38	-38.2	-42.6	15.8	2.51e-02	0	57	0	380108800	44	7316
2026-01-20 20:29:37.69	118.43	14.26	-35.8	-42.1	11.9	7.18e-03	0	57	0	381157376	33	12983
2026-01-20 20:29:38.70	118.22	14.15	-35.8	-43.2	14.3	7.18e-03	0	57	0	382730240	41	9283
2026-01-20 20:29:39.71	118.01	14.03	-25.2	-42.7	13.4	3.15e-02	0	57	0	383778816	39	9832
2026-01-20 20:29:40.72	117.80	13.92	-36.0	-43.1	14.4	1.23e-01	0	57	0	384827392	43	8199
2026-01-20 20:29:41.73	117.60	13.81	-35.7	-43.2	11.4	1.23e-01	0	57	0	385875968	43	8286
2026-01-20 20:29:42.74	117.39	13.70	-33.3	-43.0	8.8	2.69e-02	0	57	0	386924544	33	14461
2026-01-20 20:29:43.75	117.19	13.58	-23.7	-43.1	11.7	6.29e-02	0	57	0	387973120	37	11640
2026-01-20 20:29:44.76	116.99	13.47	-27.8	-42.6	8.7	1.15e-01	0	57	0	389021696	23	24598
2026-01-20 20:29:45.77	116.79	13.36	-21.1	-42.6	6.8	1.15e-01	0	57	0	390070272	16	36708
2026-01-20 20:29:46.78	116.60	13.25	-36.4	-43.4	14.7	1.21e-01	0	57	0	391118848	44	7994
2026-01-20 20:29:47.78	116.40	13.14	-35.1	-43.1	10.2	8.31e-02	0	57	0	392167424	30	17424
2026-01-20 20:29:48.79	116.21	13.03	-35.9	-43.6	13.9	8.31e-02	0	57	0	393216000	37	12265
2026-01-20 20:29:49.80	116.02	12.92	-37.1	-44.1	15.5	3.27e-02	0	57	0	393740288	39	11590
2026-01-20 20:29:50.81	115.83	12.82	-37.3	-44.0	15.2	1.11e-01	0	57	0	395313152	45	8136
2026-01-20 20:29:51.82	115.64	12.71	-36.5	-44.1	15.3	1.11e-01	0	57	0	395837440	37	12982
2026-01-20 20:29:52.83	115.46	12.60	-33.5	-43.7	14.6	1.12e-01	0	57	0	397410304	46	7406
2026-01-20 20:29:53.84	115.28	12.49	-23.1	-41.7	7.1	2.47e-02	0	57	0	397934592	28	16513
2026-01-20 20:29:54.85	115.09	12.39	-36.9	-44.6	13.6	2.47e-02	0	57	0	398983168	45	8690
2026-01-20 20:29:55.86	114.91	12.28	-39.0	-44.3	14.5	1.24e-01	0	57	0	400031744	48	7092
2026-01-20 20:29:56.87	114.74	12.18	-38.1	-43.8	12.0	7.55e-02	0	57	0	401604608	46	7531
2026-01-20 20:29:57.87	114.56	12.07	-27.8	-42.1	7.8	1.60e-01	0	57	0	402128896	28	17471
2026-01-20 20:29:58.88	114.39	11.97	-38.1	-44.7	13.0	1.60e-01	0	57	0	403177472	45	8842
2026-01-20 20:29:59.89	114.21	11.86	-27.1	-42.7	9.6	9.49e-02	0	57	0	404226048	37	11107
2026-01-20 20:30:00.90	114.04	11.76	-37.5	-44.6	12.4	1.48e-01	0	57	0	405274624	45	8669
2026-01-20 20:30:01.91	113.87	11.65	-37.0	-44.6	13.2	1.48e-01	0	57	0	406323200	45	8698
2026-01-20 20:30:02.92	113.70	11.55	-36.2	-44.2	12.5	1.67e-01	0	57	0	407371776	42	9889
2026-01-20 20:30:03.93	113.54	11.45	-36.6	-44.6	11.6	1.72e-01	0	57	0	408420352	43	9789
2026-01-20 20:30:04.94	113.37	11.35	-31.3	-44.5	9.5	1.72e-01	0	57	0	409468928	39	12121
2026-01-20 20:30:05.95	113.21	11.25	-34.7	-43.9	10.8	2.39e-01	0	57	0	409993216	40	10773
2026-01-20 20:30:06.96	113.05	11.14	-36.2	-45.2	9.2	1.77e-01	0	57	0	411041792	40	12431
2026-01-20 20:30:07.97	112.89	11.04	-27.7	-43.7	9.4	1.77e-01	0	57	0	412090368	36	13119
2026-01-20 20:30:08.98	112.73	10.94	-34.5	-44.5	10.0	1.86e-01	0	57	0	413138944	40	11541
2026-01-20 20:30:09.99	112.57	10.84	-34.7	-43.5	9.2	2.65e-01	0	57	0	414187520	28	20523
2026-01-20 20:30:10.99	112.41	10.75	-25.8	-43.3	8.6	1.83e-01	0	57	0	415236096	36	12628
2026-01-20 20:30:12.00	112.26	10.65	-32.5	-45.7	7.6	1.83e-01	0	57	0	415760384	35	17503
2026-01-20 20:30:13.01	112.11	10.55	-32.8	-45.7	7.3	2.79e-01	0	57	0	416808960	32	20871
2026-01-20 20:30:14.02	111.95	10.45	-35.1	-45.6	9.1	3.04e-01	0	57	0	417857536	41	12289
2026-01-20 20:30:15.03	111.80	10.35	-33.9	-45.6	9.0	3.04e-01	0	57	0	418906112	37	15550
2026-01-20 20:30:16.04	111.65	10.26	-34.0	-46.1	7.0	2.54e-01	0	57	0	419430400	36	17401
2026-01-20 20:30:17.05	111.50	10.16	-34.3	-45.2	9.5	3.27e-01	0	57	0	420478976	38	14019
2026-01-20 20:30:18.06	111.36	10.06	-24.9	-42.8	8.1	3.27e-01	0	57	0	421527552	30	16871
2026-01-20 20:30:19.07	111.21	9.97	-35.2	-44.8	10.1	2.63e-01	0	57	0	422576128	38	13311
2026-01-20 20:30:20.08	111.07	9.87	-35.5	-45.6	10.1	2.32e-01	0	57	0	423100416	40	12968
2026-01-20 20:30:21.09	110.93	9.78	-34.4	-45.1	10.5	2.32e-01	0	57	0	424148992	40	12341
2026-01-20 20:30:22.10	110.78	9.68	-35.5	-45.8	9.3	2.11e-01	0	57	0	425197568	39	14088
2026-01-20 20:30:23.11	110.64	9.59	-35.0	-45.7	9.0	2.39e-01	0	57	0	426246144	38	14775
2026-01-20 20:30:24.11	110.51	9.49	-34.3	-45.7	9.4	2.97e-01	0	57	0	427294720	40	13159
2026-01-20 20:30:25.12	110.37	9.40	-27.4	-44.9	8.4	2.97e-01	0	57	0	427819008	32	18964
2026-01-20 20:30:26.13	110.23	9.31	-35.7	-45.5	10.4	3.24e-01	0	57	0	428867584	40	12854
2026-01-20 20:30:27.14	110.10	9.22	-27.6	-43.8	7.1	9.40e-02	0	57	0	429916160	30	18847
2026-01-20 20:30:28.15	109.96	9.12	-29.6	-44.7	5.2	9.40e-02	0	57	104	430440448	31	19759
2026-01-20 20:30:29.17	109.83	9.03	-32.0	-45.0	9.6	5.26e-01	0	57	0	430964736	37	14432
2026-01-20 20:30:30.17	109.70	8.94	-37.0	-45.9	11.4	1.30e-01	0	57	0	432013312	44	10775
2026-01-20 20:30:31.18	109.57	8.85	-27.6	-43.7	8.2	1.30e-01	0	57	0	433061888	32	16534
2026-01-20 20:30:32.19	109.44	8.76	-34.1	-46.1	8.5	2.13e-01	0	57	0	434110464	38	15404
2026-01-20 20:30:33.20	109.31	8.67	-30.5	-45.5	7.0	4.28e-01	0	57	0	434110464	31	21620
2026-01-20 20:30:34.21	109.18	8.58	-28.5	-45.4	7.9	4.28e-01	0	57	0	435159040	32	20169
2026-01-20 20:30:35.22	109.05	8.49	-36.8	-46.9	7.2	4.38e-01	0	57	0	436207616	37	17955
2026-01-20 20:30:36.23	108.93	8.40	-36.7	-46.6	10.6	1.24e-01	0	57	0	437256192	44	11662
2026-01-20 20:30:37.24	108.81	8.31	-32.6	-45.7	8.5	1.04e-01	0	57	0	438304768	36	16673
2026-01-20 20:30:38.25	108.68	8.22	-37.0	-45.3	11.8	1.04e-01	0	57	0	439353344	42	11170
2026-01-20 20:30:39.26	108.56	8.13	-36.7	-48.3	7.7	7.00e-02	0	57	0	440401920	41	16756
2026-01-20 20:30:40.27	108.44	8.05	-38.0	-51.1	6.2	2.52e-01	0	57	0	441450496	45	18406
2026-01-20 20:30:41.28	108.32	7.96	-41.1	-59.4	4.3	2.52e-01	0	57	104	441450496	54	28395
2026-01-20 20:30:42.29	108.20	7.87	-44.7	-63.1	3.8	7.22e-01	0	57	104	441450496	60	30930
2026-01-20 20:30:43.30	108.08	7.79	-44.9	-63.2	3.8	8.46e-01	0	57	104	441450496	60	31267
2026-01-20 20:30:44.31	107.96	7.70	-45.2	-63.4	3.8	8.46e-01	0	58	104	441450496	60	32104
2026-01-20 20:30:45.32	107.85	7.61	-45.4	-63.7	3.8	8.46e-01	0	57	104	441450496	61	31172
2026-01-20 20:30:46.33	107.73	7.53	-45.5	-63.8	3.8	8.47e-01	0	57	104	441450496	61	31602
2026-01-20 20:30:47.34	107.62	7.44	-45.6	-63.9	3.8	8.47e-01	0	57	104	441450496	61	31960
2026-01-20 20:30:48.35	107.51	7.36	-45.8	-64.4	3.8	8.46e-01	0	57	104	441450496	62	31852
2026-01-20 20:30:49.36	107.39	7.28	-45.8	-64.1	3.8	8.46e-01	0	58	104	441450496	62	30850
2026-01-20 20:30:50.37	107.28	7.19	-45.8	-64.1	3.8	8.46e-01	0	57	104	441450496	62	30868
2026-01-20 20:30:51.38	107.17	7.11	-45.7	-64.0	3.8	8.46e-01	0	58	104	441450496	62	30559
2026-01-20 20:30:52.40	107.06	7.02	-45.6	-63.9	3.8	8.46e-01	0	58	104	441450496	62	30132
2026-01-20 20:30:53.41	106.95	6.94	-45.6	-63.8	3.8	8.46e-01	0	57	104	441450496	62	29782
2026-01-20 20:30:54.42	106.84	6.86	-45.5	-63.7	3.8	8.46e-01	0	58	104	441450496	62	29470
2026-01-20 20:30:55.43	106.74	6.77	-45.5	-63.6	3.8	8.46e-01	0	57	104	441450496	62	29280
2026-01-20 20:30:56.44	106.63	6.69	-45.5	-63.6	3.8	8.46e-01	0	57	104	441450496	62	29103
2026-01-20 20:30:57.45	106.53	6.61	-45.3	-63.5	3.8	8.46e-01	0	57	104	441450496	61	30405
2026-01-20 20:30:58.46	106.42	6.53	-45.4	-63.5	3.8	8.46e-01	0	57	104	441450496	61	30446
2026-01-20 20:30:59.47	106.32	6.45	-45.4	-63.5	3.8	8.46e-01	0	57	104	441450496	61	30389
2026-01-20 20:31:00.48	106.21	6.37	-45.3	-63.4	3.8	8.45e-01	0	57	104	441450496	61	30305
2026-01-20 20:31:01.49	106.11	6.29	-45.4	-63.5	3.8	8.45e-01	0	58	104	441450496	61	30402
2026-01-20 20:31:02.50	106.01	6.21	-45.3	-63.4	3.8	8.47e-01	0	57	104	441450496	61	30299
2026-01-20 20:31:03.51	105.91	6.13	-45.3	-63.5	3.8	8.46e-01	0	57	104	441450496	61	30382
2026-01-20 20:31:04.52	105.81	6.05	-45.3	-63.4	3.8	8.46e-01	0	58	104	441450496	61	30264
2026-01-20 20:31:05.53	105.71	5.97	-45.4	-63.4	3.8	8.46e-01	0	58	104	441450496	61	30349
2026-01-20 20:31:06.54	105.61	5.89	-45.4	-63.4	3.8	8.47e-01	0	57	104	441450496	61	30274
2026-01-20 20:31:07.55	105.52	5.81	-45.4	-63.4	3.8	8.47e-01	0	58	104	441450496	61	30306
2026-01-20 20:31:08.56	105.42	5.73	-45.3	-63.4	3.8	8.47e-01	0	57	104	441450496	61	30311
2026-01-20 20:31:09.57	105.32	5.65	-45.3	-63.4	3.8	8.45e-01	0	57	104	441450496	61	30257
2026-01-20 20:31:10.58	105.23	5.58	-45.3	-63.4	3.8	8.45e-01	0	57	104	441450496	61	30267
2026-01-20 20:31:11.59	105.14	5.50	-45.3	-63.4	3.8	8.47e-01	0	58	104	441450496	61	30267
2026-01-20 20:31:12.60	105.04	5.42	-45.3	-63.4	3.8	8.46e-01	0	58	104	441450496	61	30205
2026-01-20 20:31:13.61	104.95	5.35	-45.3	-63.4	3.8	8.47e-01	0	58	104	441450496	61	30203
2026-01-20 20:31:14.62	104.86	5.27	-45.3	-63.4	3.8	8.47e-01	0	57	104	441450496	61	30273
2026-01-20 20:31:15.63	104.77	5.19	-45.3	-63.4	3.8	8.47e-01	0	57	104	441450496	61	30233
2026-01-20 20:31:16.64	104.67	5.12	-45.3	-63.4	3.8	8.46e-01	0	57	104	441450496	61	30271
2026-01-20 20:31:17.65	104.58	5.04	-45.3	-63.4	3.8	8.46e-01	0	57	104	441450496	61	30241
2026-01-20 20:31:18.66	104.49	4.97	-45.3	-63.4	3.8	8.46e-01	0	58	104	441450496	61	30239
2026-01-20 20:31:19.68	104.40	4.89	-45.3	-63.4	3.8	8.47e-01	0	58	104	441450496	61	30351
2026-01-20 20:31:20.69	104.32	4.82	-45.3	-63.4	3.8	8.47e-01	0	58	104	441450496	61	30288
2026-01-20 20:31:21.70	104.23	4.74	-45.3	-63.4	3.8	8.46e-01	0	57	104	441450496	61	30255
2026-01-20 20:31:22.71	104.14	4.67	-45.3	-63.4	3.8	8.46e-01	0	57	104	441450496	61	30248
2026-01-20 20:31:23.72	104.06	4.59	-45.3	-63.4	3.8	8.46e-01	0	57	104	441450496	61	30305
2026-01-20 20:31:24.73	103.97	4.52	-45.3	-63.4	3.8	8.47e-01	0	57	104	441450496	61	30247
2026-01-20 20:31:25.74	103.89	4.44	-45.3	-63.4	3.8	8.47e-01	0	58	104	441450496	61	30310
2026-01-20 20:31:26.75	103.80	4.37	-45.3	-63.4	3.8	8.47e-01	0	57	104	441450496	61	30204
2026-01-20 20:31:27.76	103.72	4.30	-45.3	-63.4	3.8	8.47e-01	0	58	104	441450496	61	30296
2026-01-20 20:31:28.77	103.63	4.23	-45.3	-63.4	3.8	8.46e-01	0	58	104	441450496	61	30189
2026-01-20 20:31:29.78	103.55	4.15	-45.3	-63.4	3.8	8.48e-01	0	57	104	441450496	61	30160
2026-01-20 20:31:30.79	103.47	4.08	-45.3	-63.4	3.8	8.48e-01	0	58	104	441450496	61	30179
2026-01-20 20:31:31.80	103.39	4.01	-45.3	-63.4	3.8	8.47e-01	0	58	104	441450496	61	30076
2026-01-20 20:31:32.81	103.31	3.94	-45.3	-63.4	3.8	8.46e-01	0	58	104	441450496	61	30119
2026-01-20 20:31:33.82	103.23	3.87	-45.2	-63.4	3.8	8.46e-01	0	58	104	441450496	61	30085
2026-01-20 20:31:34.83	103.15	3.79	-45.3	-63.4	3.8	8.45e-01	0	58	104	441450496	61	30191
2026-01-20 20:31:35.84	103.07	3.72	-45.3	-63.4	3.8	8.47e-01	0	58	104	441450496	61	30168
2026-01-20 20:31:36.85	102.99	3.65	-45.3	-63.4	3.8	8.47e-01	0	58	104	441450496	61	30203
2026-01-20 20:31:37.86	102.91	3.58	-45.3	-63.4	3.8	8.45e-01	0	57	104	441450496	61	30228
2026-01-20 20:31:38.87	102.84	3.51	-45.2	-63.4	3.8	8.45e-01	0	58	104	441450496	61	30226
2026-01-20 20:31:39.88	102.76	3.44	-45.3	-63.4	3.8	8.46e-01	0	58	104	441450496	61	30132
2026-01-20 20:31:40.90	102.68	3.37	-45.1	-63.4	3.8	8.46e-01	0	58	104	441450496	61	30150
2026-01-20 20:31:41.91	102.61	3.30	-45.3	-63.4	3.8	8.45e-01	0	58	104	441450496	61	30211
2026-01-20 20:31:42.92	102.53	3.23	-44.9	-63.1	3.8	8.46e-01	0	58	104	441450496	60	30735
2026-01-20 20:31:43.93	102.46	3.16	-45.3	-63.4	3.8	8.46e-01	0	57	104	441450496	61	30227
2026-01-20 20:31:44.94	102.38	3.09	-45.1	-63.4	3.8	8.46e-01	0	57	104	441450496	61	30206
2026-01-20 20:31:45.95	102.31	3.02	-45.3	-63.4	3.8	8.45e-01	0	58	104	441450496	61	30063
2026-01-20 20:31:46.96	102.24	2.96	-45.1	-63.4	3.8	8.45e-01	0	58	104	441450496	61	30138
2026-01-20 20:31:47.97	102.16	2.89	-45.2	-63.3	3.8	8.45e-01	0	58	104	441450496	61	30031
2026-01-20 20:31:48.98	102.09	2.82	-45.3	-63.5	3.8	8.46e-01	0	58	104	441450496	61	30603
2026-01-20 20:31:49.99	102.02	2.75	-45.3	-63.4	3.8	8.44e-01	0	58	104	441450496	61	30054
2026-01-20 20:31:51.00	101.95	2.68	-44.6	-63.4	3.8	8.44e-01	0	57	104	441450496	61	30167
2026-01-20 20:31:52.01	101.88	2.62	-45.3	-63.4	3.8	8.45e-01	0	58	104	441450496	61	30116
2026-01-20 20:31:53.02	101.81	2.55	-45.3	-63.7	3.8	8.46e-01	0	58	104	441450496	61	31193
2026-01-20 20:31:54.03	101.74	2.48	-45.3	-63.3	3.8	8.46e-01	0	58	104	441450496	61	30025
2026-01-20 20:31:55.04	101.67	2.42	-45.3	-63.4	3.8	8.46e-01	0	58	104	441450496	61	30115
2026-01-20 20:31:56.05	101.60	2.35	-45.3	-63.4	3.8	8.46e-01	0	58	104	441450496	61	30133
2026-01-20 20:31:57.06	101.53	2.28	-45.3	-63.4	3.8	8.46e-01	0	58	104	441450496	61	30072
2026-01-20 20:31:58.07	101.46	2.22	-45.3	-63.4	3.8	8.46e-01	0	58	104	441450496	61	30178
2026-01-20 20:31:59.08	101.40	2.15	-45.3	-63.4	3.8	8.46e-01	0	58	104	441450496	61	30082
2026-01-20 20:32:00.09	101.33	2.08	-45.2	-63.4	3.8	8.46e-01	0	58	104	441450496	61	30066
2026-01-20 20:32:01.11	101.26	2.02	-45.3	-63.4	3.8	8.46e-01	0	58	104	441450496	61	30043

#Closed at: 2026-01-20 20:32:01
#Recorded file [441 MB]: D:/lorett/data/31039_260120_232256.dat