passes_logs/2026/01/20/R2.0S_Moscow/R2.0S_Moscow__20260120_104212_NOAA_21_JPSS-2_rec.log

#Pass ID: 20260120_104212_NOAA 21 (JPSS-2)
#Satellite: NOAA 21 (JPSS-2)
#Configuration: NOAA-21
#almurnet v.1.7.20251203
#Start time: 2026-01-20 10:43:49

#Version: 2.2.20231116
#Station: R2.0S_Moscow
#Location: 37.707566 lon 55.798166 lat
#TLE: 1 54234U 22150A   26019.59425193  .00000067  00000+0  52811-4 0  9997
#TLE: 2 54234  98.7505 320.4385 0000607 256.3203 103.7906 14.19535690165464

#Time	Az	El	Level	Level2	SNR	BER	BlckErr	Temp	State	Recorded	gain1	gain2
2026-01-20 10:43:49.23	188.22	8.67	-44.9	-56.7	3.8	8.46e-01	0	59	0	0	60	14716
2026-01-20 10:43:50.24	188.28	8.75	-45.2	-57.6	3.8	1.49e+00	0	59	104	0	62	14590
2026-01-20 10:43:51.25	188.34	8.83	-45.2	-57.6	3.8	1.49e+00	0	59	104	0	62	14603
2026-01-20 10:43:52.26	188.39	8.91	-45.2	-57.6	3.8	1.49e+00	0	59	104	0	62	14597
2026-01-20 10:43:53.27	188.45	8.99	-45.1	-57.5	3.8	1.49e+00	0	59	104	0	62	14472
2026-01-20 10:43:54.28	188.51	9.07	-45.0	-57.4	3.8	1.49e+00	0	59	104	0	62	14301
2026-01-20 10:43:55.29	188.57	9.15	-44.8	-57.2	3.8	1.49e+00	0	59	104	0	61	14811
2026-01-20 10:43:56.30	188.63	9.23	-42.5	-54.6	3.8	1.49e+00	0	59	104	0	55	15546
2026-01-20 10:43:57.31	188.69	9.31	-43.9	-55.9	3.8	1.49e+00	0	59	104	0	58	15166
2026-01-20 10:43:58.32	188.76	9.39	-43.9	-55.9	3.8	1.49e+00	0	59	104	0	58	15187
2026-01-20 10:43:59.33	188.82	9.47	-43.9	-55.8	3.8	1.49e+00	0	59	104	0	58	14996
2026-01-20 10:44:00.34	188.88	9.55	-43.9	-55.8	3.8	1.49e+00	0	59	104	0	58	14911
2026-01-20 10:44:01.36	188.94	9.64	-43.9	-55.7	3.8	1.49e+00	0	59	104	0	58	14756
2026-01-20 10:44:02.37	189.00	9.72	-43.9	-55.7	3.8	1.49e+00	0	59	104	0	58	14758
2026-01-20 10:44:03.38	189.07	9.80	-43.9	-55.6	3.8	1.49e+00	0	59	104	0	58	14652
2026-01-20 10:44:04.39	189.13	9.88	-43.9	-55.5	3.8	1.49e+00	0	59	104	0	58	14494
2026-01-20 10:44:05.40	189.19	9.97	-43.9	-55.4	3.8	1.49e+00	0	59	104	0	58	14371
2026-01-20 10:44:06.41	189.26	10.05	-43.9	-55.3	3.8	1.49e+00	0	59	104	0	58	14127
2026-01-20 10:44:07.42	189.32	10.13	-43.8	-55.2	3.8	1.49e+00	0	59	104	0	58	13971
2026-01-20 10:44:08.43	189.39	10.21	-43.8	-55.1	3.8	1.49e+00	0	59	104	0	58	13747
2026-01-20 10:44:09.44	189.45	10.30	-43.8	-54.8	3.8	1.49e+00	0	59	104	0	58	13348
2026-01-20 10:44:10.45	189.52	10.38	-43.8	-54.6	3.8	1.49e+00	0	59	104	0	58	13015
2026-01-20 10:44:11.46	189.58	10.47	-43.8	-54.4	3.8	1.49e+00	0	59	104	0	58	12672
2026-01-20 10:44:12.47	189.65	10.55	-43.7	-54.0	3.9	1.48e+00	0	59	104	0	58	12168
2026-01-20 10:44:13.48	189.71	10.63	-43.6	-53.6	3.9	1.47e+00	0	59	104	0	58	11615
2026-01-20 10:44:14.49	189.78	10.72	-43.6	-52.6	4.2	1.47e+00	0	59	104	0	58	10325
2026-01-20 10:44:15.50	189.85	10.80	-43.5	-52.6	3.9	1.45e+00	0	59	104	0	58	10401
2026-01-20 10:44:16.51	189.91	10.89	-43.4	-51.5	4.6	1.28e+00	0	59	104	0	58	9092
2026-01-20 10:44:17.52	189.98	10.97	-43.3	-51.6	4.0	9.89e-01	0	59	104	0	58	9184
2026-01-20 10:44:18.54	190.05	11.06	-43.2	-50.4	5.2	6.49e-01	0	59	0	1048576	58	8005
2026-01-20 10:44:19.55	190.12	11.15	-43.1	-50.0	5.4	5.39e-01	0	59	0	4194304	58	7661
2026-01-20 10:44:20.56	190.19	11.23	-43.0	-49.6	5.7	4.29e-01	0	59	0	7340032	58	7306
2026-01-20 10:44:21.56	190.26	11.32	-42.9	-49.2	5.9	3.53e-01	0	59	0	10485760	57	7421
2026-01-20 10:44:22.57	190.33	11.41	-42.8	-48.9	6.2	2.93e-01	0	59	0	13631488	57	7131
2026-01-20 10:44:23.59	190.40	11.49	-42.8	-48.9	6.2	3.00e-01	0	59	0	16777216	57	7167
2026-01-20 10:44:24.59	190.47	11.58	-42.8	-48.9	6.1	2.95e-01	0	59	0	19922944	57	7174
2026-01-20 10:44:25.60	190.54	11.67	-42.8	-49.0	6.1	3.02e-01	0	59	0	23068672	57	7255
2026-01-20 10:44:26.61	190.61	11.76	-42.9	-49.3	5.9	3.46e-01	0	59	0	26214400	57	7495
2026-01-20 10:44:27.62	190.68	11.85	-43.0	-49.5	5.7	3.98e-01	0	59	0	29360128	57	7711
2026-01-20 10:44:28.63	190.75	11.93	-43.0	-49.7	5.6	4.47e-01	0	59	0	32505856	57	7891
2026-01-20 10:44:29.64	190.82	12.02	-43.0	-49.7	5.6	4.58e-01	0	59	0	35651584	57	7829
2026-01-20 10:44:30.65	190.90	12.11	-43.0	-49.4	5.8	3.95e-01	0	59	0	38797312	57	7619
2026-01-20 10:44:31.66	190.97	12.20	-42.8	-48.9	6.2	3.20e-01	0	59	0	41943040	57	7162
2026-01-20 10:44:32.67	191.04	12.29	-42.6	-48.1	6.8	2.07e-01	0	59	0	45088768	57	6552
2026-01-20 10:44:33.68	191.12	12.38	-42.3	-47.2	7.7	1.07e-01	0	59	0	48234496	56	6217
2026-01-20 10:44:34.69	191.19	12.47	-41.8	-46.2	8.5	4.83e-02	0	59	0	51380224	55	5891
2026-01-20 10:44:35.70	191.27	12.56	-41.4	-45.3	9.4	1.78e-02	0	59	0	54525952	54	5646
2026-01-20 10:44:36.72	191.34	12.65	-41.0	-44.6	10.1	8.98e-03	0	59	0	57671680	54	5208
2026-01-20 10:44:37.73	191.42	12.74	-40.7	-44.0	10.8	3.23e-03	0	59	0	60817408	53	5119
2026-01-20 10:44:38.74	191.50	12.84	-40.4	-43.4	11.4	1.17e-03	0	59	0	63963136	52	5093
2026-01-20 10:44:39.75	191.57	12.93	-40.2	-43.2	11.7	7.41e-04	0	59	0	67108864	52	4961
2026-01-20 10:44:40.76	191.65	13.02	-40.1	-43.0	11.8	5.42e-04	0	59	0	70254592	52	4867
2026-01-20 10:44:41.77	191.73	13.11	-40.1	-43.1	11.8	4.32e-04	0	59	0	73400320	52	4873
2026-01-20 10:44:42.78	191.81	13.20	-40.3	-43.3	11.5	7.44e-04	0	59	0	76546048	52	5004
2026-01-20 10:44:43.79	191.88	13.30	-44.3	-55.3	3.8	1.22e-02	0	59	104	79691776	59	13384
2026-01-20 10:44:44.80	191.96	13.39	-42.1	-47.6	7.3	5.05e-01	0	59	0	79691776	54	7329
2026-01-20 10:44:45.81	192.04	13.48	-41.4	-45.3	9.4	4.86e-03	0	59	0	79691776	53	5992
2026-01-20 10:44:46.82	192.12	13.58	-41.3	-45.1	9.7	1.32e-02	0	59	0	82837504	54	5497
2026-01-20 10:44:47.83	192.20	13.67	-43.1	-49.8	5.8	1.78e-02	0	59	0	85983232	56	8404
2026-01-20 10:44:48.84	192.28	13.77	-40.2	-43.2	11.2	8.43e-03	0	59	0	87031808	52	4977
2026-01-20 10:44:49.85	192.37	13.86	-40.2	-43.2	11.5	8.03e-04	0	59	0	90177536	52	4928
2026-01-20 10:44:50.86	192.45	13.96	-40.1	-43.0	11.7	6.95e-04	0	59	0	93323264	52	4845
2026-01-20 10:44:51.87	192.53	14.05	-40.2	-43.0	11.8	4.89e-04	0	59	0	96468992	52	4870
2026-01-20 10:44:52.88	192.61	14.15	-40.0	-42.7	12.2	3.51e-04	0	59	0	99614720	52	4694
2026-01-20 10:44:53.89	192.70	14.25	-40.1	-42.9	12.0	2.75e-04	0	59	0	102760448	52	4784
2026-01-20 10:44:54.90	192.78	14.34	-40.0	-42.8	12.2	2.19e-04	0	59	0	105906176	52	4713
2026-01-20 10:44:55.91	192.87	14.44	-40.1	-42.9	12.1	2.46e-04	0	59	0	109051904	52	4777
2026-01-20 10:44:56.92	192.95	14.54	-40.1	-42.8	12.3	1.69e-04	0	59	0	112197632	52	4724
2026-01-20 10:44:57.93	193.04	14.63	-40.1	-42.9	12.2	1.84e-04	0	59	0	115343360	52	4797
2026-01-20 10:44:58.94	193.12	14.73	-40.1	-42.9	12.2	2.08e-04	0	59	0	118489088	52	4786
2026-01-20 10:44:59.95	193.21	14.83	-40.1	-42.8	12.3	2.26e-04	0	59	0	121634816	52	4755
2026-01-20 10:45:00.96	193.30	14.93	-40.0	-42.8	12.3	1.82e-04	0	59	0	124780544	52	4714
2026-01-20 10:45:01.97	193.39	15.03	-40.1	-42.9	12.1	2.78e-04	0	59	0	127926272	52	4814
2026-01-20 10:45:02.98	193.47	15.13	-40.1	-42.9	12.1	2.57e-04	0	59	0	132120576	52	4789
2026-01-20 10:45:03.99	193.56	15.23	-40.1	-43.0	11.9	3.03e-04	0	59	0	135266304	52	4823
2026-01-20 10:45:05.00	193.65	15.33	-40.0	-42.9	11.9	3.81e-04	0	59	0	138412032	52	4762
2026-01-20 10:45:06.01	193.74	15.43	-40.0	-43.0	11.6	6.48e-04	0	59	0	140509184	51	5108
2026-01-20 10:45:07.02	193.83	15.53	-40.0	-42.9	11.6	6.45e-04	0	59	0	143654912	51	5089
2026-01-20 10:45:08.03	193.92	15.63	-39.9	-42.9	11.4	8.84e-04	0	59	0	147849216	51	5092
2026-01-20 10:45:09.03	194.02	15.73	-39.9	-42.8	11.3	1.01e-03	0	59	0	150994944	51	5039
2026-01-20 10:45:10.04	194.11	15.83	-39.9	-43.0	11.1	1.55e-03	0	59	0	154140672	51	5147
2026-01-20 10:45:11.05	194.20	15.93	-39.9	-42.9	11.1	1.63e-03	0	59	0	157286400	51	5095
2026-01-20 10:45:12.06	194.30	16.03	-39.8	-42.9	11.1	1.51e-03	0	59	0	160432128	51	5042
2026-01-20 10:45:13.07	194.39	16.14	-39.8	-42.9	11.1	1.55e-03	0	59	0	162529280	51	5056
2026-01-20 10:45:14.08	194.48	16.24	-40.0	-43.1	10.9	2.10e-03	0	59	0	166723584	51	5189
2026-01-20 10:45:15.09	194.58	16.34	-40.1	-43.2	10.9	1.92e-03	0	59	0	169869312	51	5235
2026-01-20 10:45:16.10	194.68	16.45	-40.0	-43.0	11.3	1.41e-03	0	59	0	173015040	51	5153
2026-01-20 10:45:17.11	194.77	16.55	-40.1	-43.1	11.4	9.82e-04	0	59	0	176160768	51	5192
2026-01-20 10:45:18.12	194.87	16.65	-40.2	-43.2	11.4	1.01e-03	0	59	0	179306496	51	5243
2026-01-20 10:45:19.13	194.97	16.76	-40.3	-43.2	11.6	7.92e-04	0	59	0	182452224	51	5231
2026-01-20 10:45:20.14	195.07	16.86	-40.3	-43.2	11.8	5.62e-04	0	59	0	185597952	51	5233
2026-01-20 10:45:21.15	195.17	16.97	-40.3	-43.2	11.8	5.31e-04	0	59	0	188743680	51	5251
2026-01-20 10:45:22.16	195.27	17.08	-40.3	-43.1	11.9	3.36e-04	0	59	0	191889408	51	5203
2026-01-20 10:45:23.17	195.37	17.18	-40.3	-43.1	11.9	3.84e-04	0	59	0	195035136	51	5217
2026-01-20 10:45:24.18	195.47	17.29	-40.3	-43.1	12.0	2.99e-04	0	59	0	198180864	51	5161
2026-01-20 10:45:25.18	195.57	17.40	-40.4	-43.2	12.0	3.68e-04	0	59	0	201326592	51	5250
2026-01-20 10:45:26.20	195.68	17.50	-40.5	-43.3	12.0	3.07e-04	0	59	0	204472320	51	5335
2026-01-20 10:45:27.20	195.78	17.61	-40.4	-43.2	12.2	2.46e-04	0	59	0	207618048	51	5219
2026-01-20 10:45:28.21	195.88	17.72	-40.4	-43.1	12.3	1.86e-04	0	60	0	210763776	51	5192
2026-01-20 10:45:29.22	195.99	17.83	-40.5	-43.1	12.4	1.62e-04	0	59	0	213909504	51	5213
2026-01-20 10:45:30.23	196.09	17.94	-40.4	-43.0	12.5	1.18e-04	0	59	0	217055232	51	5140
2026-01-20 10:45:31.24	196.20	18.05	-40.5	-43.1	12.5	1.04e-04	0	59	0	220200960	51	5191
2026-01-20 10:45:32.25	196.31	18.16	-40.5	-43.2	12.5	1.28e-04	0	59	0	223346688	51	5237
2026-01-20 10:45:33.26	196.42	18.27	-40.5	-43.1	12.6	8.01e-05	0	59	0	226492416	51	5211
2026-01-20 10:45:34.28	196.53	18.38	-40.5	-43.1	12.6	1.01e-04	0	59	0	229638144	51	5216
2026-01-20 10:45:35.29	196.64	18.49	-40.4	-43.0	12.7	8.08e-05	0	59	0	232783872	51	5148
2026-01-20 10:45:36.30	196.75	18.60	-40.4	-43.0	12.7	8.62e-05	0	59	0	235929600	51	5125
2026-01-20 10:45:37.31	196.86	18.71	-40.4	-43.0	12.6	7.47e-05	0	59	0	239075328	51	5153
2026-01-20 10:45:38.32	196.97	18.83	-40.3	-42.9	12.8	5.49e-05	0	59	0	242221056	51	5043
2026-01-20 10:45:39.33	197.08	18.94	-40.2	-42.8	12.9	6.02e-05	0	59	0	245366784	51	4998
2026-01-20 10:45:40.34	197.20	19.05	-40.2	-42.7	12.9	4.34e-05	0	59	0	248512512	51	4966
2026-01-20 10:45:41.35	197.31	19.17	-40.1	-42.6	13.0	3.05e-05	0	59	0	251658240	51	4909
2026-01-20 10:45:42.36	197.43	19.28	-40.2	-42.6	13.0	3.12e-05	0	59	0	254803968	51	4913
2026-01-20 10:45:43.37	197.54	19.39	-40.1	-42.6	13.1	2.51e-05	0	59	0	257949696	51	4893
2026-01-20 10:45:44.38	197.66	19.51	-40.1	-42.5	13.2	1.67e-05	0	59	0	261095424	51	4841
2026-01-20 10:45:45.39	197.78	19.62	-40.1	-42.5	13.2	2.05e-05	0	59	0	264241152	51	4829
2026-01-20 10:45:46.40	197.90	19.74	-40.1	-42.4	13.3	1.98e-05	0	59	0	267386880	51	4807
2026-01-20 10:45:47.41	198.01	19.86	-40.0	-42.4	13.2	2.05e-05	0	59	0	270532608	51	4805
2026-01-20 10:45:48.41	198.13	19.97	-40.1	-42.5	13.1	2.13e-05	0	59	0	273678336	51	4861
2026-01-20 10:45:49.42	198.26	20.09	-40.0	-42.5	13.2	1.90e-05	0	59	0	276824064	51	4818
2026-01-20 10:45:50.43	198.38	20.20	-40.0	-42.4	13.2	1.75e-05	0	59	0	279969792	51	4805
2026-01-20 10:45:51.44	198.50	20.32	-40.0	-42.3	13.3	1.44e-05	0	59	0	283115520	51	4757
2026-01-20 10:45:52.45	198.62	20.44	-39.9	-42.2	13.5	1.52e-05	0	59	0	286261248	51	4672
2026-01-20 10:45:53.46	198.75	20.56	-39.9	-42.2	13.5	1.44e-05	0	59	0	289406976	51	4667
2026-01-20 10:45:54.48	198.88	20.68	-39.9	-42.3	13.4	1.52e-05	0	59	0	292552704	51	4724
2026-01-20 10:45:55.48	199.00	20.80	-39.8	-42.1	13.6	8.30e-06	0	59	0	295698432	51	4633
2026-01-20 10:45:56.49	199.13	20.92	-39.7	-42.0	13.8	4.50e-06	0	59	0	298844160	51	4563
2026-01-20 10:45:57.50	199.26	21.04	-39.7	-41.9	13.9	3.80e-06	0	59	0	301989888	51	4495
2026-01-20 10:45:58.52	199.39	21.16	-39.6	-41.8	13.9	5.30e-06	0	59	0	305135616	51	4482
2026-01-20 10:45:59.53	199.52	21.28	-39.6	-41.8	14.0	7.00e-07	0	59	0	308281344	51	4473
2026-01-20 10:46:00.54	199.65	21.40	-39.7	-41.9	13.9	7.00e-07	0	59	0	311427072	51	4525
2026-01-20 10:46:01.55	199.79	21.52	-39.7	-41.9	13.9	0.00e+00	0	59	0	314572800	51	4505
2026-01-20 10:46:02.56	199.92	21.65	-39.7	-42.0	13.8	2.20e-06	0	59	0	317718528	51	4562
2026-01-20 10:46:03.57	200.05	21.77	-39.8	-42.0	13.8	4.50e-06	0	59	0	320864256	51	4584
2026-01-20 10:46:04.58	200.19	21.89	-39.8	-42.0	13.8	7.60e-06	0	59	0	324009984	51	4588
2026-01-20 10:46:05.59	200.33	22.02	-39.7	-42.0	13.8	7.00e-07	0	59	0	327155712	51	4562
2026-01-20 10:46:06.59	200.46	22.14	-39.6	-41.8	13.9	4.50e-06	0	59	0	330301440	51	4484
2026-01-20 10:46:07.60	200.60	22.27	-39.6	-41.8	14.0	3.80e-06	0	59	0	333447168	51	4465
2026-01-20 10:46:08.61	200.74	22.39	-39.6	-41.8	14.0	3.80e-06	0	59	0	336592896	51	4467
2026-01-20 10:46:09.62	200.88	22.52	-39.6	-41.8	14.0	1.50e-06	0	59	0	339738624	51	4476
2026-01-20 10:46:10.63	201.03	22.64	-39.6	-41.8	14.0	7.00e-07	0	59	0	342884352	51	4488
2026-01-20 10:46:11.64	201.17	22.77	-39.5	-41.7	14.2	2.20e-06	0	59	0	346030080	51	4393
2026-01-20 10:46:12.65	201.31	22.90	-39.5	-41.7	14.1	7.00e-07	0	59	0	349175808	51	4410
2026-01-20 10:46:13.66	201.46	23.02	-39.6	-41.8	14.0	0.00e+00	0	59	0	352321536	51	4482
2026-01-20 10:46:14.67	201.61	23.15	-39.6	-41.8	14.1	1.50e-06	0	59	0	355467264	51	4446
2026-01-20 10:46:15.68	201.75	23.28	-39.5	-41.7	14.2	0.00e+00	0	59	0	358612992	51	4409
2026-01-20 10:46:16.69	201.90	23.41	-39.6	-41.7	14.1	2.20e-06	0	59	0	361758720	51	4424
2026-01-20 10:46:17.70	202.05	23.54	-39.5	-41.6	14.2	1.50e-06	0	59	0	364904448	50	4623
2026-01-20 10:46:18.71	202.21	23.67	-39.5	-41.6	14.2	7.00e-07	0	60	0	368050176	50	4637
2026-01-20 10:46:19.71	202.36	23.79	-39.5	-41.6	14.2	1.50e-06	0	59	0	371195904	50	4616
2026-01-20 10:46:20.72	202.51	23.93	-39.5	-41.6	14.3	7.00e-07	0	59	0	374341632	50	4599
2026-01-20 10:46:21.73	202.67	24.06	-39.4	-41.4	14.4	7.00e-07	0	59	0	377487360	50	4533
2026-01-20 10:46:22.74	202.82	24.19	-39.4	-41.4	14.5	0.00e+00	0	59	0	380633088	50	4531
2026-01-20 10:46:23.75	202.98	24.32	-39.3	-41.4	14.4	7.00e-07	0	59	0	383778816	50	4529
2026-01-20 10:46:24.76	203.14	24.45	-39.4	-41.5	14.4	0.00e+00	0	59	0	386924544	50	4566
2026-01-20 10:46:25.77	203.30	24.58	-39.4	-41.6	14.3	7.00e-07	0	59	0	390070272	50	4599
2026-01-20 10:46:26.78	203.46	24.72	-39.4	-41.5	14.4	2.20e-06	0	59	0	393216000	50	4578
2026-01-20 10:46:27.79	203.63	24.85	-39.4	-41.5	14.4	1.50e-06	0	59	0	396361728	50	4564
2026-01-20 10:46:28.80	203.79	24.98	-39.5	-41.6	14.3	0.00e+00	0	59	0	399507456	50	4619
2026-01-20 10:46:29.81	203.96	25.12	-39.6	-41.7	14.3	1.50e-06	0	59	0	402653184	50	4669
2026-01-20 10:46:30.82	204.12	25.25	-39.5	-41.7	14.3	0.00e+00	0	59	0	405798912	50	4657
2026-01-20 10:46:31.83	204.29	25.39	-39.7	-41.8	14.1	1.50e-06	0	59	0	408944640	50	4755
2026-01-20 10:46:32.83	204.46	25.52	-39.7	-41.8	14.1	2.20e-06	0	59	0	412090368	50	4753
2026-01-20 10:46:33.84	204.63	25.66	-39.8	-42.0	14.0	0.00e+00	0	60	0	415236096	50	4816
2026-01-20 10:46:34.85	204.81	25.80	-39.8	-42.0	14.0	1.50e-06	0	59	0	418381824	50	4816
2026-01-20 10:46:35.86	204.98	25.93	-39.7	-41.9	14.0	3.80e-06	0	59	0	421527552	50	4785
2026-01-20 10:46:36.87	205.16	26.07	-39.8	-42.0	14.0	3.80e-06	0	59	0	424673280	50	4827
2026-01-20 10:46:37.88	205.33	26.21	-39.8	-42.1	13.9	1.50e-06	0	59	0	427819008	50	4878
2026-01-20 10:46:38.89	205.51	26.35	-39.8	-42.0	14.0	3.80e-06	0	59	0	430964736	50	4823
2026-01-20 10:46:39.90	205.69	26.49	-39.9	-42.1	13.8	2.20e-06	0	59	0	434110464	50	4897
2026-01-20 10:46:40.91	205.87	26.63	-40.0	-42.2	13.7	3.80e-06	0	59	0	437256192	50	4956
2026-01-20 10:46:41.92	206.06	26.76	-39.9	-42.2	13.7	5.30e-06	0	59	0	440401920	50	4969
2026-01-20 10:46:42.93	206.24	26.90	-40.0	-42.3	13.6	9.10e-06	0	59	0	443547648	50	5028
2026-01-20 10:46:43.94	206.43	27.05	-40.0	-42.3	13.7	5.30e-06	0	59	0	446693376	50	4993
2026-01-20 10:46:44.95	206.62	27.19	-40.1	-42.4	13.5	9.90e-06	0	59	0	449839104	50	5091
2026-01-20 10:46:45.96	206.81	27.33	-40.1	-42.5	13.4	1.60e-05	0	59	0	452984832	50	5115
2026-01-20 10:46:46.97	207.00	27.47	-40.2	-42.5	13.4	1.14e-05	0	60	0	456130560	50	5147
2026-01-20 10:46:47.99	207.19	27.61	-40.2	-42.5	13.4	9.90e-06	0	59	0	459276288	51	4861
2026-01-20 10:46:48.99	207.39	27.75	-40.2	-42.5	13.4	1.83e-05	0	59	0	462422016	51	4849
2026-01-20 10:46:50.00	207.58	27.90	-40.1	-42.4	13.5	1.29e-05	0	59	0	465567744	51	4803
2026-01-20 10:46:51.01	207.78	28.04	-40.2	-42.5	13.4	1.29e-05	0	59	0	468713472	51	4857
2026-01-20 10:46:52.03	207.99	28.18	-40.3	-42.7	13.3	1.75e-05	0	59	0	472907776	51	4928
2026-01-20 10:46:53.03	208.19	28.33	-40.2	-42.5	13.4	1.75e-05	0	59	0	476053504	51	4868
2026-01-20 10:46:54.05	208.39	28.47	-40.1	-42.5	13.5	9.10e-06	0	59	0	479199232	51	4838
2026-01-20 10:46:55.06	208.60	28.62	-40.2	-42.6	13.4	9.90e-06	0	59	0	481296384	51	4885
2026-01-20 10:46:56.06	208.80	28.76	-40.2	-42.5	13.4	1.90e-05	0	59	0	484442112	51	4862
2026-01-20 10:46:57.07	209.01	28.91	-40.2	-42.5	13.4	1.22e-05	0	60	0	488636416	51	4840
2026-01-20 10:46:58.08	209.22	29.05	-40.2	-42.6	13.4	1.29e-05	0	59	0	491782144	51	4875
2026-01-20 10:46:59.10	209.44	29.20	-40.1	-42.4	13.5	7.60e-06	0	60	0	494927872	51	4807
2026-01-20 10:47:00.11	209.65	29.34	-40.2	-42.5	13.5	1.14e-05	0	59	0	498073600	51	4828
2026-01-20 10:47:01.12	209.87	29.49	-40.2	-42.5	13.5	6.10e-06	0	59	0	501219328	51	4845
2026-01-20 10:47:02.13	210.09	29.64	-40.1	-42.5	13.5	6.80e-06	0	59	0	504365056	51	4821
2026-01-20 10:47:03.14	210.31	29.79	-40.1	-42.4	13.6	1.44e-05	0	59	0	507510784	51	4795
2026-01-20 10:47:04.15	210.53	29.93	-40.1	-42.4	13.6	6.10e-06	0	60	0	510656512	51	4762
2026-01-20 10:47:05.16	210.75	30.08	-40.1	-42.4	13.5	7.60e-06	0	59	0	513802240	51	4809
2026-01-20 10:47:06.17	210.98	30.23	-40.1	-42.5	13.6	8.30e-06	0	59	0	516947968	51	4815
2026-01-20 10:47:07.18	211.21	30.38	-40.1	-42.4	13.6	4.50e-06	0	59	0	520093696	51	4799
2026-01-20 10:47:08.19	211.44	30.53	-40.1	-42.3	13.7	9.90e-06	0	59	0	523239424	51	4745
2026-01-20 10:47:09.20	211.67	30.68	-40.1	-42.4	13.7	5.30e-06	0	59	0	526385152	51	4768
2026-01-20 10:47:10.21	211.91	30.83	-40.0	-42.2	13.8	4.50e-06	0	59	0	529530880	51	4705
2026-01-20 10:47:11.22	212.15	30.97	-40.0	-42.2	13.8	2.20e-06	0	59	0	532676608	51	4703
2026-01-20 10:47:12.23	212.38	31.12	-40.1	-42.3	13.7	3.00e-06	0	60	0	535822336	51	4746
2026-01-20 10:47:13.24	212.63	31.27	-40.1	-42.4	13.6	6.80e-06	0	59	0	538968064	51	4769
2026-01-20 10:47:14.25	212.87	31.42	-40.1	-42.4	13.7	8.30e-06	0	60	0	542113792	51	4762
2026-01-20 10:47:15.26	213.12	31.57	-40.2	-42.6	13.5	8.30e-06	0	60	0	545259520	51	4873
2026-01-20 10:47:16.26	213.36	31.72	-40.3	-42.7	13.3	1.37e-05	0	59	0	548405248	51	4943
2026-01-20 10:47:17.27	213.61	31.87	-40.4	-42.9	13.1	1.98e-05	0	59	0	551550976	51	5063
2026-01-20 10:47:18.28	213.86	32.03	-40.6	-43.1	12.9	4.65e-05	0	60	0	554696704	51	5190
2026-01-20 10:47:19.29	214.12	32.18	-40.7	-43.3	12.7	7.24e-05	0	59	0	557842432	51	5301
2026-01-20 10:47:20.30	214.38	32.33	-40.6	-43.2	12.7	7.93e-05	0	60	0	560988160	52	4943
2026-01-20 10:47:21.31	214.64	32.48	-40.6	-43.1	12.8	6.40e-05	0	59	0	564133888	52	4910
2026-01-20 10:47:22.32	214.90	32.63	-40.6	-43.2	12.7	7.70e-05	0	59	0	567279616	52	4948
2026-01-20 10:47:23.33	215.16	32.78	-40.6	-43.2	12.7	7.24e-05	0	59	0	570425344	52	4962
2026-01-20 10:47:24.34	215.43	32.93	-40.7	-43.4	12.5	1.31e-04	0	59	0	573571072	52	5076
2026-01-20 10:47:25.35	215.70	33.09	-40.7	-43.3	12.6	9.61e-05	0	60	0	576716800	52	5040
2026-01-20 10:47:26.36	215.97	33.24	-40.7	-43.3	12.6	9.76e-05	0	59	0	579862528	52	5018
2026-01-20 10:47:27.37	216.24	33.39	-40.7	-43.3	12.6	8.69e-05	0	59	0	583008256	52	5013
2026-01-20 10:47:28.38	216.52	33.54	-40.7	-43.4	12.5	1.16e-04	0	59	0	586153984	52	5063
2026-01-20 10:47:29.39	216.80	33.69	-40.8	-43.4	12.5	1.05e-04	0	59	0	589299712	52	5073
2026-01-20 10:47:30.40	217.08	33.85	-40.8	-43.5	12.5	1.28e-04	0	59	0	592445440	52	5108
2026-01-20 10:47:31.41	217.37	34.00	-40.7	-43.3	12.6	9.38e-05	0	60	0	595591168	52	5024
2026-01-20 10:47:32.42	217.65	34.15	-40.6	-43.2	12.7	8.46e-05	0	59	0	598736896	52	4958
2026-01-20 10:47:33.43	217.94	34.30	-40.6	-43.2	12.7	7.62e-05	0	60	0	601882624	52	4960
2026-01-20 10:47:34.44	218.24	34.45	-40.7	-43.4	12.5	6.86e-05	0	59	0	605028352	52	5052
2026-01-20 10:47:35.45	218.53	34.60	-40.7	-43.4	12.6	7.93e-05	0	59	0	608174080	52	5046
2026-01-20 10:47:36.46	218.83	34.76	-40.8	-43.5	12.4	1.42e-04	0	60	0	611319808	52	5145
2026-01-20 10:47:37.47	219.13	34.91	-40.8	-43.5	12.4	1.31e-04	0	59	0	614465536	52	5139
2026-01-20 10:47:38.48	219.43	35.06	-40.8	-43.6	12.3	1.92e-04	0	59	0	617611264	52	5198
2026-01-20 10:47:39.49	219.74	35.21	-40.9	-43.6	12.3	1.77e-04	0	59	0	620756992	52	5185
2026-01-20 10:47:40.50	220.05	35.36	-40.9	-43.6	12.3	1.51e-04	0	59	0	623902720	52	5216
2026-01-20 10:47:41.51	220.36	35.51	-40.9	-43.7	12.3	1.55e-04	0	60	0	627048448	52	5246
2026-01-20 10:47:42.53	220.68	35.66	-41.0	-43.8	12.1	2.75e-04	0	60	0	630194176	52	5338
2026-01-20 10:47:43.54	221.00	35.81	-41.1	-44.0	12.0	3.17e-04	0	59	0	633339904	52	5412
2026-01-20 10:47:44.55	221.32	35.96	-41.1	-44.1	11.9	3.74e-04	0	59	0	636485632	52	5471
2026-01-20 10:47:45.56	221.64	36.11	-41.3	-44.3	11.6	6.48e-04	0	60	0	639631360	53	5305
2026-01-20 10:47:46.57	221.97	36.26	-41.3	-44.2	11.7	5.57e-04	0	59	0	642777088	53	5275
2026-01-20 10:47:47.58	222.29	36.41	-41.3	-44.3	11.6	6.87e-04	0	59	0	645922816	53	5307
2026-01-20 10:47:48.59	222.63	36.56	-41.3	-44.3	11.6	7.06e-04	0	59	0	649068544	53	5312
2026-01-20 10:47:49.60	222.96	36.71	-41.4	-44.4	11.5	7.74e-04	0	60	0	652214272	53	5389
2026-01-20 10:47:50.61	223.30	36.86	-41.4	-44.4	11.5	7.09e-04	0	60	0	655360000	53	5369
2026-01-20 10:47:51.61	223.64	37.00	-41.4	-44.5	11.5	8.56e-04	0	59	0	658505728	53	5410
2026-01-20 10:47:52.62	223.98	37.15	-41.4	-44.4	11.5	8.03e-04	0	59	0	661651456	53	5395
2026-01-20 10:47:53.63	224.33	37.30	-41.5	-44.6	11.3	1.19e-03	0	59	0	664797184	53	5501
2026-01-20 10:47:54.64	224.68	37.44	-41.6	-44.7	11.2	1.18e-03	0	59	0	667942912	53	5569
2026-01-20 10:47:55.65	225.03	37.59	-41.5	-44.5	11.4	1.10e-03	0	59	0	671088640	53	5450
2026-01-20 10:47:56.66	225.39	37.73	-41.4	-44.5	11.5	9.25e-04	0	60	0	674234368	53	5407
2026-01-20 10:47:57.67	225.75	37.88	-41.2	-44.2	11.8	5.39e-04	0	59	0	677380096	53	5219
2026-01-20 10:47:58.68	226.11	38.02	-41.3	-44.2	11.7	4.92e-04	0	59	0	680525824	53	5238
2026-01-20 10:47:59.69	226.48	38.16	-41.2	-44.0	11.9	4.38e-04	0	60	0	683671552	53	5158
2026-01-20 10:48:00.70	226.85	38.31	-41.1	-43.9	12.0	3.08e-04	0	59	0	686817280	53	5069
2026-01-20 10:48:01.71	227.22	38.45	-41.1	-43.9	12.0	3.27e-04	0	60	0	689963008	53	5075
2026-01-20 10:48:02.72	227.59	38.59	-41.1	-43.9	12.0	3.94e-04	0	59	0	693108736	53	5075
2026-01-20 10:48:03.73	227.97	38.73	-41.0	-43.8	12.0	3.11e-04	0	60	0	696254464	53	5029
2026-01-20 10:48:04.73	228.35	38.87	-40.9	-43.7	12.2	2.66e-04	0	60	0	699400192	53	4970
2026-01-20 10:48:05.74	228.74	39.01	-41.0	-43.8	12.2	2.22e-04	0	60	0	702545920	53	4984
2026-01-20 10:48:06.75	229.12	39.14	-41.1	-43.9	12.1	3.17e-04	0	60	0	705691648	53	5080
2026-01-20 10:48:07.76	229.52	39.28	-41.1	-44.0	12.0	2.94e-04	0	60	0	708837376	53	5109
2026-01-20 10:48:08.77	229.91	39.41	-41.2	-44.1	11.9	3.62e-04	0	59	0	711983104	53	5166
2026-01-20 10:48:09.78	230.31	39.55	-41.2	-44.1	11.9	3.62e-04	0	60	0	715128832	53	5190
2026-01-20 10:48:10.79	230.71	39.68	-41.2	-44.1	11.9	3.49e-04	0	60	0	718274560	53	5161
2026-01-20 10:48:11.80	231.11	39.82	-41.2	-44.1	11.8	4.83e-04	0	59	0	721420288	53	5187
2026-01-20 10:48:12.81	231.52	39.95	-41.3	-44.3	11.7	6.23e-04	0	60	0	724566016	53	5308
2026-01-20 10:48:13.82	231.93	40.08	-41.3	-44.3	11.7	6.40e-04	0	60	0	727711744	53	5300
2026-01-20 10:48:14.83	232.35	40.21	-41.3	-44.4	11.6	7.35e-04	0	60	0	730857472	53	5352
2026-01-20 10:48:15.84	232.76	40.33	-41.5	-44.5	11.5	9.03e-04	0	60	0	734003200	53	5430
2026-01-20 10:48:16.85	233.19	40.46	-41.6	-44.7	11.2	1.23e-03	0	60	0	737148928	53	5590
2026-01-20 10:48:17.86	233.61	40.59	-41.7	-45.0	11.0	2.05e-03	0	60	0	740294656	54	5411
2026-01-20 10:48:18.87	234.04	40.71	-41.8	-45.1	10.9	2.15e-03	0	59	0	743440384	54	5466
2026-01-20 10:48:19.88	234.47	40.83	-41.7	-44.9	11.0	1.81e-03	0	59	0	746586112	54	5385
2026-01-20 10:48:20.89	234.90	40.95	-41.6	-44.7	11.3	1.44e-03	0	59	0	749731840	54	5248
2026-01-20 10:48:21.90	235.34	41.07	-41.6	-44.8	11.1	1.30e-03	0	59	0	752877568	54	5306
2026-01-20 10:48:22.90	235.77	41.19	-41.6	-44.8	11.1	1.45e-03	0	60	0	756023296	54	5327
2026-01-20 10:48:23.91	236.22	41.31	-41.7	-45.0	11.0	1.75e-03	0	60	0	759169024	54	5406
2026-01-20 10:48:24.92	236.66	41.42	-41.8	-45.0	10.9	1.88e-03	0	59	0	762314752	54	5446
2026-01-20 10:48:25.93	237.11	41.54	-41.8	-45.1	10.8	2.27e-03	0	60	0	765460480	54	5527
2026-01-20 10:48:26.94	237.56	41.65	-41.9	-45.2	10.7	2.75e-03	0	60	0	768606208	54	5571
2026-01-20 10:48:27.95	238.02	41.76	-41.9	-45.3	10.6	3.32e-03	0	59	0	771751936	54	5598
2026-01-20 10:48:28.96	238.48	41.87	-41.9	-45.3	10.6	2.98e-03	0	59	0	774897664	54	5639
2026-01-20 10:48:29.97	238.94	41.98	-42.0	-45.4	10.4	4.50e-03	0	59	0	778043392	54	5704
2026-01-20 10:48:30.98	239.41	42.08	-42.2	-45.8	10.1	6.44e-03	0	59	0	781189120	54	5968
2026-01-20 10:48:31.99	239.87	42.19	-42.2	-45.8	10.0	7.59e-03	0	59	0	784334848	55	5645
2026-01-20 10:48:33.00	240.34	42.29	-42.1	-45.6	10.2	6.59e-03	0	60	0	787480576	55	5508
2026-01-20 10:48:34.01	240.82	42.39	-42.1	-45.6	10.3	5.67e-03	0	59	0	790626304	55	5486
2026-01-20 10:48:35.02	241.29	42.49	-42.0	-45.4	10.4	4.56e-03	0	59	0	793772032	55	5398
2026-01-20 10:48:36.03	241.77	42.58	-41.9	-45.2	10.6	3.31e-03	0	60	0	796917760	55	5247
2026-01-20 10:48:37.04	242.26	42.68	-41.9	-45.3	10.5	4.10e-03	0	59	0	800063488	55	5287
2026-01-20 10:48:38.05	242.74	42.77	-42.0	-45.5	10.3	4.65e-03	0	59	0	803209216	55	5454
2026-01-20 10:48:39.06	243.23	42.86	-41.9	-45.2	10.6	3.83e-03	0	59	0	806354944	55	5263
2026-01-20 10:48:40.07	243.72	42.95	-41.7	-44.9	10.9	2.26e-03	0	60	0	809500672	55	5092
2026-01-20 10:48:41.08	244.21	43.04	-41.5	-44.6	11.4	1.12e-03	0	59	0	813694976	55	4879
2026-01-20 10:48:42.09	244.71	43.12	-41.6	-44.7	11.2	1.06e-03	0	59	0	816840704	54	5238
2026-01-20 10:48:43.10	245.20	43.20	-41.9	-45.2	10.6	2.39e-03	0	59	0	818937856	54	5591
2026-01-20 10:48:44.11	245.71	43.28	-42.1	-45.6	10.2	5.60e-03	0	60	0	822083584	54	5838
2026-01-20 10:48:45.12	246.21	43.36	-42.1	-45.7	10.1	6.78e-03	0	59	0	825229312	54	5900
2026-01-20 10:48:46.13	246.71	43.43	-41.8	-45.2	10.7	3.40e-03	0	59	0	829423616	54	5546
2026-01-20 10:48:47.14	247.22	43.51	-41.9	-45.3	10.6	2.86e-03	0	60	0	832569344	54	5618
2026-01-20 10:48:48.15	247.73	43.58	-41.9	-45.2	10.6	3.33e-03	0	60	0	835715072	54	5571
2026-01-20 10:48:49.16	248.24	43.64	-42.1	-45.7	10.1	5.42e-03	0	60	0	838860800	54	5873
2026-01-20 10:48:50.17	248.76	43.71	-42.3	-46.2	9.5	1.16e-02	0	60	0	842006528	55	5890
2026-01-20 10:48:51.18	249.27	43.77	-42.4	-46.3	9.4	1.75e-02	0	60	0	845152256	55	5969
2026-01-20 10:48:52.19	249.79	43.83	-42.1	-45.6	10.2	7.29e-03	0	59	0	848297984	55	5512
2026-01-20 10:48:53.20	250.31	43.89	-41.9	-45.2	10.7	3.20e-03	0	60	0	851443712	55	5232
2026-01-20 10:48:54.21	250.83	43.95	-41.8	-45.1	10.7	2.88e-03	0	60	0	854589440	55	5218
2026-01-20 10:48:55.22	251.36	44.00	-41.8	-45.1	10.8	2.84e-03	0	60	0	857735168	55	5200
2026-01-20 10:48:56.23	251.88	44.05	-41.8	-45.2	10.7	3.45e-03	0	60	0	860880896	55	5223
2026-01-20 10:48:57.24	252.41	44.10	-41.8	-45.0	10.8	2.41e-03	0	60	0	864026624	55	5158
2026-01-20 10:48:58.25	252.94	44.15	-41.7	-44.9	11.1	1.79e-03	0	60	0	867172352	55	5042
2026-01-20 10:48:59.26	253.47	44.19	-41.7	-44.8	11.1	1.45e-03	0	60	0	870318080	55	5016
2026-01-20 10:49:00.27	254.00	44.23	-41.6	-44.8	11.1	1.53e-03	0	60	0	873463808	55	4991
2026-01-20 10:49:01.28	254.53	44.27	-41.7	-44.9	10.9	1.97e-03	0	60	0	876609536	55	5082
2026-01-20 10:49:02.29	255.06	44.30	-41.7	-44.8	11.1	1.71e-03	0	60	0	879755264	55	5029
2026-01-20 10:49:03.30	255.60	44.34	-41.6	-44.7	11.2	1.40e-03	0	60	0	882900992	55	4971
2026-01-20 10:49:04.31	256.14	44.37	-41.7	-44.9	11.0	1.70e-03	0	60	0	886046720	55	5077
2026-01-20 10:49:05.32	256.67	44.39	-41.8	-45.0	10.9	2.11e-03	0	60	0	889192448	55	5143
2026-01-20 10:49:06.33	257.21	44.42	-41.8	-45.1	10.8	2.49e-03	0	59	0	892338176	55	5188
2026-01-20 10:49:07.34	257.75	44.44	-41.9	-45.2	10.7	2.90e-03	0	60	0	895483904	55	5225
2026-01-20 10:49:08.35	258.29	44.46	-41.9	-45.3	10.6	3.60e-03	0	59	0	898629632	55	5298
2026-01-20 10:49:09.36	258.83	44.47	-42.1	-45.6	10.3	4.50e-03	0	59	0	901775360	55	5467
2026-01-20 10:49:10.37	259.37	44.49	-42.0	-45.5	10.4	5.22e-03	0	60	0	904921088	55	5437
2026-01-20 10:49:11.38	259.91	44.50	-41.8	-45.2	10.7	3.24e-03	0	60	0	908066816	55	5248
2026-01-20 10:49:12.39	260.45	44.50	-41.7	-44.9	11.0	1.82e-03	0	60	0	911212544	55	5044
2026-01-20 10:49:13.40	260.99	44.51	-41.8	-45.0	10.8	2.15e-03	0	60	0	914358272	55	5134
2026-01-20 10:49:14.40	261.52	44.51	-41.7	-45.0	10.9	2.10e-03	0	60	0	917504000	55	5102
2026-01-20 10:49:15.42	262.07	44.51	-41.6	-44.8	11.1	1.86e-03	0	60	0	920649728	55	5010
2026-01-20 10:49:16.42	262.61	44.51	-41.5	-44.6	11.3	1.17e-03	0	60	0	923795456	55	4895
2026-01-20 10:49:17.43	263.15	44.50	-41.5	-44.5	11.3	1.16e-03	0	60	0	926941184	55	4868
2026-01-20 10:49:18.44	263.69	44.49	-41.5	-44.5	11.4	1.08e-03	0	60	0	930086912	54	5143
2026-01-20 10:49:19.45	264.23	44.48	-41.4	-44.4	11.4	9.50e-04	0	60	0	933232640	54	5091
2026-01-20 10:49:20.46	264.77	44.47	-41.6	-44.7	11.2	1.26e-03	0	60	0	936378368	54	5255
2026-01-20 10:49:21.47	265.31	44.45	-41.7	-44.9	11.0	1.79e-03	0	60	0	939524096	54	5378
2026-01-20 10:49:22.48	265.85	44.43	-41.8	-45.0	10.8	2.35e-03	0	60	0	942669824	54	5455
2026-01-20 10:49:23.49	266.38	44.41	-41.8	-45.2	10.6	2.95e-03	0	60	0	945815552	54	5547
2026-01-20 10:49:24.50	266.92	44.38	-41.6	-44.8	11.1	2.28e-03	0	60	0	948961280	54	5280
2026-01-20 10:49:25.51	267.46	44.35	-41.5	-44.5	11.3	1.17e-03	0	60	0	952107008	54	5134
2026-01-20 10:49:26.52	267.99	44.32	-41.4	-44.5	11.3	1.20e-03	0	60	0	955252736	54	5104
2026-01-20 10:49:27.53	268.53	44.29	-41.5	-44.5	11.3	1.15e-03	0	60	0	958398464	54	5112
2026-01-20 10:49:28.54	269.06	44.25	-41.5	-44.5	11.3	1.17e-03	0	60	0	961544192	54	5144
2026-01-20 10:49:29.55	269.59	44.22	-41.4	-44.3	11.6	9.51e-04	0	60	0	964689920	54	5006
2026-01-20 10:49:30.56	270.12	44.17	-41.3	-44.2	11.7	5.18e-04	0	60	0	967835648	54	4943
2026-01-20 10:49:31.57	270.65	44.13	-41.4	-44.4	11.5	7.17e-04	0	60	0	970981376	54	5062
2026-01-20 10:49:32.58	271.18	44.08	-41.6	-44.8	11.0	1.94e-03	0	60	0	974127104	54	5318
2026-01-20 10:49:33.59	271.70	44.03	-41.6	-44.7	11.1	1.80e-03	0	60	0	977272832	54	5269
2026-01-20 10:49:34.60	272.23	43.98	-41.5	-44.6	11.2	1.16e-03	0	60	0	980418560	54	5174
2026-01-20 10:49:35.61	272.75	43.93	-41.6	-44.8	11.1	1.52e-03	0	60	0	983564288	54	5280
2026-01-20 10:49:36.62	273.27	43.87	-41.9	-45.4	10.4	2.97e-03	0	60	0	986710016	54	5684
2026-01-20 10:49:37.63	273.79	43.81	-42.2	-45.9	10.0	6.47e-03	0	60	0	989855744	54	6003
2026-01-20 10:49:38.64	274.30	43.75	-42.2	-45.9	9.9	8.24e-03	0	60	0	993001472	55	5678
2026-01-20 10:49:39.65	274.82	43.69	-42.0	-45.5	10.2	5.92e-03	0	60	0	996147200	55	5451
2026-01-20 10:49:40.65	275.33	43.62	-41.8	-45.1	10.7	3.40e-03	0	60	0	999292928	55	5217
2026-01-20 10:49:41.66	275.84	43.55	-41.7	-45.0	10.8	2.51e-03	0	60	0	1002438656	55	5128
2026-01-20 10:49:42.67	276.34	43.48	-41.7	-44.9	10.9	2.12e-03	0	60	0	1005584384	55	5084
2026-01-20 10:49:43.68	276.85	43.41	-41.6	-44.8	11.0	1.91e-03	0	60	0	1008730112	55	5018
2026-01-20 10:49:44.69	277.35	43.33	-41.6	-44.7	11.2	1.29e-03	0	60	0	1011875840	55	4945
2026-01-20 10:49:45.70	277.86	43.25	-41.7	-45.0	11.0	2.01e-03	0	60	0	1015021568	55	5103
2026-01-20 10:49:46.71	278.35	43.17	-41.9	-45.3	10.5	3.61e-03	0	60	0	1018167296	55	5332
2026-01-20 10:49:47.72	278.85	43.09	-41.9	-45.3	10.6	3.29e-03	0	60	0	1021313024	55	5305
2026-01-20 10:49:48.73	279.34	43.01	-41.7	-45.0	10.9	2.70e-03	0	60	0	1024458752	55	5129
2026-01-20 10:49:49.74	279.83	42.92	-41.5	-44.6	11.3	1.17e-03	0	60	0	1027604480	55	4875
2026-01-20 10:49:50.75	280.32	42.83	-41.4	-44.4	11.4	9.51e-04	0	60	0	1030750208	54	5083
2026-01-20 10:49:51.76	280.81	42.74	-41.3	-44.2	11.7	5.54e-04	0	60	0	1033895936	54	4944
2026-01-20 10:49:52.77	281.29	42.65	-41.3	-44.3	11.6	6.31e-04	0	60	0	1037041664	54	5008
2026-01-20 10:49:53.78	281.77	42.55	-41.7	-44.8	11.1	1.42e-03	0	59	0	1040187392	54	5339
2026-01-20 10:49:54.79	282.25	42.46	-42.0	-45.5	10.4	4.02e-03	0	60	0	1043333120	54	5739
2026-01-20 10:49:55.80	282.72	42.36	-42.7	-46.1	9.9	8.07e-03	0	60	0	1046478848	55	5795
2026-01-20 10:49:56.81	283.19	42.26	-42.2	-45.8	10.0	9.47e-03	0	60	0	1049624576	55	5623
2026-01-20 10:49:57.82	283.66	42.16	-42.0	-45.4	10.4	5.55e-03	0	60	0	1052770304	55	5377
2026-01-20 10:49:58.83	284.13	42.05	-41.7	-45.0	10.8	2.85e-03	0	60	0	1055916032	55	5121
2026-01-20 10:49:59.84	284.59	41.95	-41.7	-44.9	10.9	2.97e-03	0	60	0	1059061760	55	5082
2026-01-20 10:50:00.85	285.05	41.84	-41.6	-44.7	11.1	1.85e-03	0	60	0	1062207488	55	4960
2026-01-20 10:50:01.86	285.51	41.73	-41.5	-44.5	11.3	1.08e-03	0	60	0	1065353216	54	5138
2026-01-20 10:50:02.87	285.96	41.62	-41.6	-44.8	11.0	1.48e-03	0	60	0	1068498944	54	5303
2026-01-20 10:50:03.88	286.41	41.50	-41.9	-45.3	10.4	4.16e-03	0	60	0	1071644672	54	5654
2026-01-20 10:50:04.89	286.86	41.39	-42.1	-45.8	9.9	7.88e-03	0	60	0	1074790400	54	5945
2026-01-20 10:50:05.90	287.30	41.28	-42.1	-45.6	10.1	9.17e-03	0	60	0	1077936128	54	5840
2026-01-20 10:50:06.91	287.74	41.16	-41.7	-44.8	11.0	2.64e-03	0	59	0	1081081856	54	5327
2026-01-20 10:50:07.92	288.18	41.04	-41.4	-44.5	11.3	1.05e-03	0	60	0	1084227584	54	5116
2026-01-20 10:50:08.93	288.62	40.92	-41.5	-44.6	11.1	1.44e-03	0	60	0	1087373312	54	5171
2026-01-20 10:50:09.94	289.05	40.80	-41.6	-44.7	11.0	1.92e-03	0	60	0	1090519040	54	5274
2026-01-20 10:50:10.95	289.47	40.68	-41.7	-44.9	10.8	2.13e-03	0	60	0	1093664768	54	5370
2026-01-20 10:50:11.96	289.90	40.55	-41.9	-45.3	10.5	4.04e-03	0	60	0	1096810496	54	5604
2026-01-20 10:50:12.97	290.32	40.43	-42.0	-45.5	10.3	5.66e-03	0	60	0	1099956224	54	5751
2026-01-20 10:50:13.98	290.74	40.30	-41.9	-45.4	10.4	4.78e-03	0	60	0	1103101952	54	5676
2026-01-20 10:50:14.99	291.15	40.17	-41.8	-45.3	10.5	3.60e-03	0	60	0	1106247680	54	5595
2026-01-20 10:50:16.00	291.57	40.04	-41.6	-44.8	11.1	2.02e-03	0	59	0	1109393408	54	5286
2026-01-20 10:50:17.01	291.98	39.91	-41.4	-44.5	11.4	1.12e-03	0	59	0	1112539136	54	5110
2026-01-20 10:50:18.02	292.38	39.78	-41.4	-44.5	11.3	9.40e-04	0	59	0	1115684864	54	5124
2026-01-20 10:50:19.03	292.78	39.65	-41.6	-44.7	11.1	1.16e-03	0	60	0	1118830592	54	5242
2026-01-20 10:50:20.04	293.18	39.52	-41.6	-44.8	11.0	1.72e-03	0	60	0	1121976320	54	5320
2026-01-20 10:50:21.05	293.58	39.38	-41.8	-45.1	10.8	2.36e-03	0	60	0	1125122048	54	5480
2026-01-20 10:50:22.06	293.97	39.25	-41.7	-44.9	10.9	2.36e-03	0	59	0	1128267776	54	5398
2026-01-20 10:50:23.07	294.36	39.11	-41.5	-44.5	11.4	1.28e-03	0	60	0	1131413504	54	5130
2026-01-20 10:50:24.08	294.75	38.97	-41.4	-44.4	11.4	1.08e-03	0	60	0	1134559232	54	5075
2026-01-20 10:50:25.09	295.13	38.84	-41.6	-44.7	11.1	1.35e-03	0	60	0	1137704960	54	5256
2026-01-20 10:50:26.10	295.51	38.70	-41.6	-44.8	11.1	1.82e-03	0	60	0	1140850688	54	5297
2026-01-20 10:50:27.11	295.88	38.56	-41.7	-44.9	11.0	1.77e-03	0	60	0	1143996416	54	5346
2026-01-20 10:50:28.12	296.26	38.42	-41.5	-44.6	11.3	1.28e-03	0	60	0	1147142144	54	5163
2026-01-20 10:50:29.13	296.63	38.28	-41.5	-44.7	11.2	1.46e-03	0	60	0	1151336448	54	5230
2026-01-20 10:50:30.14	296.99	38.13	-41.7	-44.9	10.9	2.25e-03	0	60	0	1154482176	54	5398
2026-01-20 10:50:31.15	297.36	37.99	-41.8	-45.1	10.7	2.55e-03	0	60	0	1157627904	54	5520
2026-01-20 10:50:32.16	297.72	37.85	-41.6	-44.8	11.1	1.97e-03	0	60	0	1159725056	54	5291
2026-01-20 10:50:33.17	298.08	37.71	-41.5	-44.5	11.3	1.36e-03	0	60	0	1163919360	54	5142
2026-01-20 10:50:34.18	298.43	37.56	-41.3	-44.2	11.6	7.66e-04	0	60	0	1167065088	54	4970
2026-01-20 10:50:35.19	298.78	37.42	-41.1	-44.0	11.9	4.72e-04	0	60	0	1170210816	54	4820
2026-01-20 10:50:36.20	299.13	37.27	-40.9	-43.6	12.2	2.23e-04	0	60	0	1173356544	53	4880
2026-01-20 10:50:37.21	299.47	37.13	-40.8	-43.5	12.3	1.76e-04	0	60	0	1176502272	53	4844
2026-01-20 10:50:38.22	299.82	36.98	-40.9	-43.5	12.3	1.73e-04	0	60	0	1179648000	53	4854
2026-01-20 10:50:39.23	300.15	36.83	-40.8	-43.5	12.3	1.66e-04	0	60	0	1182793728	53	4834
2026-01-20 10:50:40.24	300.49	36.69	-40.9	-43.7	12.2	2.30e-04	0	60	0	1185939456	53	4927
2026-01-20 10:50:41.25	300.82	36.54	-41.1	-43.9	11.9	3.87e-04	0	60	0	1189085184	53	5081
2026-01-20 10:50:42.26	301.15	36.39	-41.1	-43.9	11.9	4.31e-04	0	60	0	1192230912	53	5085
2026-01-20 10:50:43.27	301.48	36.24	-41.1	-44.0	11.7	5.32e-04	0	60	0	1195376640	53	5129
2026-01-20 10:50:44.28	301.81	36.09	-41.1	-43.9	11.9	4.52e-04	0	60	0	1198522368	53	5072
2026-01-20 10:50:45.28	302.12	35.95	-41.1	-43.9	11.9	4.10e-04	0	60	0	1201668096	53	5063
2026-01-20 10:50:46.29	302.44	35.80	-41.1	-44.1	11.7	5.79e-04	0	60	0	1204813824	53	5161
2026-01-20 10:50:47.30	302.76	35.65	-41.2	-44.1	11.6	6.41e-04	0	60	0	1207959552	53	5218
2026-01-20 10:50:48.31	303.07	35.50	-41.2	-44.2	11.6	6.19e-04	0	60	0	1211105280	53	5247
2026-01-20 10:50:49.32	303.38	35.35	-41.2	-44.1	11.7	5.03e-04	0	60	0	1214251008	53	5169
2026-01-20 10:50:50.33	303.69	35.20	-41.2	-44.1	11.7	5.35e-04	0	60	0	1217396736	53	5186
2026-01-20 10:50:51.34	303.99	35.05	-41.2	-44.2	11.6	6.38e-04	0	60	0	1220542464	53	5260
2026-01-20 10:50:52.35	304.29	34.90	-41.3	-44.3	11.6	6.93e-04	0	59	0	1223688192	53	5284
2026-01-20 10:50:53.36	304.59	34.75	-41.2	-44.2	11.6	7.00e-04	0	60	0	1226833920	53	5253
2026-01-20 10:50:54.37	304.89	34.59	-41.2	-44.2	11.6	7.25e-04	0	60	0	1229979648	53	5253
2026-01-20 10:50:55.38	305.18	34.44	-41.2	-44.1	11.7	6.43e-04	0	59	0	1233125376	53	5197
2026-01-20 10:50:56.39	305.47	34.29	-40.9	-43.6	12.2	2.87e-04	0	60	0	1236271104	53	4908
2026-01-20 10:50:57.40	305.76	34.14	-40.8	-43.4	12.3	1.62e-04	0	60	0	1239416832	53	4812
2026-01-20 10:50:58.41	306.04	33.99	-40.8	-43.4	12.4	1.46e-04	0	60	0	1242562560	53	4796
2026-01-20 10:50:59.42	306.33	33.84	-40.8	-43.4	12.4	1.38e-04	0	60	0	1245708288	53	4790
2026-01-20 10:51:00.43	306.61	33.69	-40.8	-43.4	12.4	1.41e-04	0	60	0	1248854016	53	4796
2026-01-20 10:51:01.44	306.89	33.54	-40.6	-43.2	12.6	9.84e-05	0	60	0	1251999744	53	4697
2026-01-20 10:51:02.44	307.16	33.39	-40.5	-43.0	12.8	7.24e-05	0	59	0	1255145472	53	4590
2026-01-20 10:51:03.45	307.43	33.24	-40.4	-42.9	12.9	6.02e-05	0	60	0	1258291200	52	4787
2026-01-20 10:51:04.47	307.70	33.09	-40.5	-43.0	12.8	6.02e-05	0	59	0	1261436928	52	4854
2026-01-20 10:51:05.48	307.97	32.93	-40.4	-42.9	12.9	7.47e-05	0	60	0	1264582656	52	4808
2026-01-20 10:51:06.49	308.24	32.78	-40.3	-42.7	13.0	3.12e-05	0	60	0	1267728384	52	4698
2026-01-20 10:51:07.49	308.50	32.63	-40.1	-42.5	13.4	2.21e-05	0	60	0	1270874112	52	4554
2026-01-20 10:51:08.50	308.76	32.48	-40.1	-42.5	13.4	1.83e-05	0	60	0	1274019840	52	4548
2026-01-20 10:51:09.52	309.02	32.33	-40.0	-42.3	13.6	8.30e-06	0	60	0	1277165568	51	4738
2026-01-20 10:51:10.52	309.27	32.18	-40.0	-42.2	13.7	3.80e-06	0	60	0	1280311296	51	4664
2026-01-20 10:51:11.53	309.52	32.03	-40.0	-42.3	13.6	9.90e-06	0	60	0	1283457024	51	4711
2026-01-20 10:51:12.54	309.78	31.88	-40.0	-42.3	13.6	4.50e-06	0	60	0	1286602752	51	4706
2026-01-20 10:51:13.56	310.03	31.73	-39.9	-42.1	13.7	3.80e-06	0	60	0	1289748480	51	4640
2026-01-20 10:51:14.57	310.27	31.58	-39.9	-42.1	13.8	3.80e-06	0	59	0	1292894208	51	4603
2026-01-20 10:51:15.58	310.52	31.43	-39.9	-42.1	13.7	5.30e-06	0	59	0	1296039936	51	4649
2026-01-20 10:51:16.59	310.76	31.28	-40.0	-42.3	13.5	8.30e-06	0	60	0	1299185664	51	4735
2026-01-20 10:51:17.60	311.00	31.14	-39.9	-42.2	13.7	6.80e-06	0	60	0	1302331392	51	4660
2026-01-20 10:51:18.61	311.24	30.99	-39.9	-42.2	13.7	1.06e-05	0	60	0	1305477120	51	4662
2026-01-20 10:51:19.61	311.47	30.84	-39.8	-42.0	13.8	4.50e-06	0	60	0	1308622848	51	4589
2026-01-20 10:51:20.62	311.71	30.69	-39.7	-41.9	13.9	4.50e-06	0	60	0	1311768576	51	4519
2026-01-20 10:51:21.63	311.94	30.54	-39.8	-42.0	13.8	6.80e-06	0	60	0	1314914304	51	4590
2026-01-20 10:51:22.64	312.17	30.40	-39.8	-42.0	13.8	5.30e-06	0	60	0	1318060032	51	4562
2026-01-20 10:51:23.65	312.39	30.25	-39.8	-42.0	13.8	4.50e-06	0	59	0	1321205760	51	4553
2026-01-20 10:51:24.66	312.62	30.10	-39.9	-42.1	13.7	2.20e-06	0	59	0	1324351488	51	4611
2026-01-20 10:51:25.67	312.84	29.96	-39.9	-42.2	13.6	9.90e-06	0	59	0	1327497216	51	4670
2026-01-20 10:51:26.68	313.07	29.81	-40.0	-42.2	13.6	6.80e-06	0	60	0	1330642944	51	4692
2026-01-20 10:51:27.69	313.28	29.66	-40.0	-42.4	13.4	6.80e-06	0	59	0	1333788672	51	4764
2026-01-20 10:51:28.70	313.50	29.52	-40.0	-42.4	13.5	9.90e-06	0	60	0	1336934400	51	4762
2026-01-20 10:51:29.71	313.72	29.37	-40.0	-42.3	13.5	9.90e-06	0	59	0	1340080128	51	4719
2026-01-20 10:51:30.72	313.93	29.23	-40.1	-42.3	13.4	1.44e-05	0	60	0	1343225856	51	4758
2026-01-20 10:51:31.73	314.14	29.08	-40.0	-42.3	13.4	1.06e-05	0	60	0	1346371584	51	4730
2026-01-20 10:51:32.74	314.35	28.94	-40.1	-42.5	13.3	1.83e-05	0	60	0	1349517312	51	4820
2026-01-20 10:51:33.75	314.56	28.79	-40.1	-42.5	13.2	1.83e-05	0	60	0	1352663040	51	4842
2026-01-20 10:51:34.76	314.77	28.65	-40.2	-42.5	13.2	1.75e-05	0	60	0	1355808768	51	4863
2026-01-20 10:51:35.77	314.97	28.51	-40.0	-42.4	13.4	1.52e-05	0	59	0	1358954496	51	4764
2026-01-20 10:51:36.78	315.18	28.36	-39.9	-42.2	13.6	7.60e-06	0	60	0	1362100224	51	4697
2026-01-20 10:51:37.79	315.38	28.22	-39.9	-42.2	13.6	9.90e-06	0	60	0	1365245952	51	4683
2026-01-20 10:51:38.81	315.58	28.08	-40.1	-42.4	13.4	1.14e-05	0	60	0	1368391680	51	4783
2026-01-20 10:51:39.82	315.77	27.93	-40.0	-42.3	13.5	6.80e-06	0	60	0	1371537408	51	4745
2026-01-20 10:51:40.83	315.97	27.79	-40.0	-42.3	13.5	1.52e-05	0	60	0	1374683136	51	4742
2026-01-20 10:51:41.83	316.16	27.65	-40.0	-42.3	13.5	8.30e-06	0	60	0	1377828864	51	4750
2026-01-20 10:51:42.84	316.36	27.51	-40.0	-42.3	13.5	1.67e-05	0	60	0	1380974592	51	4738
2026-01-20 10:51:43.85	316.55	27.37	-40.0	-42.3	13.5	1.06e-05	0	60	0	1384120320	51	4754
2026-01-20 10:51:44.86	316.74	27.23	-40.1	-42.4	13.4	1.52e-05	0	60	0	1387266048	51	4794
2026-01-20 10:51:45.87	316.92	27.09	-40.1	-42.4	13.4	1.29e-05	0	60	0	1390411776	51	4783
2026-01-20 10:51:46.88	317.11	26.95	-40.1	-42.5	13.3	1.37e-05	0	60	0	1393557504	51	4826
2026-01-20 10:51:47.89	317.29	26.81	-40.0	-42.3	13.5	1.14e-05	0	59	0	1396703232	51	4733
2026-01-20 10:51:48.90	317.48	26.67	-39.8	-42.1	13.7	8.30e-06	0	60	0	1399848960	51	4622
2026-01-20 10:51:49.91	317.66	26.54	-39.8	-42.0	13.8	5.30e-06	0	60	0	1402994688	51	4575
2026-01-20 10:51:50.92	317.84	26.40	-39.7	-41.9	13.9	1.50e-06	0	60	0	1406140416	51	4529
2026-01-20 10:51:51.93	318.02	26.26	-39.7	-41.9	13.9	1.50e-06	0	60	0	1409286144	51	4506
2026-01-20 10:51:52.94	318.19	26.12	-39.7	-41.9	13.9	3.00e-06	0	60	0	1412431872	51	4526
2026-01-20 10:51:53.95	318.37	25.99	-39.6	-41.7	14.1	4.50e-06	0	60	0	1415577600	51	4410
2026-01-20 10:51:54.96	318.54	25.85	-39.5	-41.5	14.2	7.00e-07	0	60	0	1418723328	50	4596
2026-01-20 10:51:55.97	318.71	25.72	-39.4	-41.5	14.3	2.20e-06	0	59	0	1421869056	50	4567
2026-01-20 10:51:56.98	318.88	25.58	-39.4	-41.5	14.2	0.00e+00	0	60	0	1425014784	50	4579
2026-01-20 10:51:57.99	319.05	25.45	-39.5	-41.6	14.2	1.50e-06	0	60	0	1428160512	50	4622
2026-01-20 10:51:59.00	319.22	25.31	-39.5	-41.6	14.1	7.00e-07	0	60	0	1431306240	50	4644
2026-01-20 10:52:00.01	319.39	25.18	-39.5	-41.7	14.0	2.20e-06	0	60	0	1434451968	50	4664
2026-01-20 10:52:01.02	319.55	25.05	-39.7	-41.8	13.9	1.50e-06	0	60	0	1437597696	50	4754
2026-01-20 10:52:02.03	319.72	24.91	-39.7	-41.9	13.8	4.50e-06	0	60	0	1440743424	50	4803
2026-01-20 10:52:03.04	319.88	24.78	-39.7	-42.0	13.8	3.00e-06	0	59	0	1443889152	50	4832
2026-01-20 10:52:04.05	320.04	24.65	-39.8	-42.0	13.7	7.60e-06	0	60	0	1447034880	50	4869
2026-01-20 10:52:05.06	320.20	24.52	-39.8	-42.1	13.6	4.50e-06	0	59	0	1450180608	50	4894
2026-01-20 10:52:06.07	320.36	24.38	-39.8	-42.1	13.6	7.60e-06	0	60	0	1453326336	50	4916
2026-01-20 10:52:07.08	320.52	24.25	-39.8	-42.1	13.6	9.10e-06	0	59	0	1456472064	50	4886
2026-01-20 10:52:08.09	320.67	24.12	-39.9	-42.2	13.6	9.90e-06	0	60	0	1459617792	50	4930
2026-01-20 10:52:09.10	320.83	23.99	-39.8	-42.1	13.7	5.30e-06	0	60	0	1462763520	50	4871
2026-01-20 10:52:10.11	320.98	23.86	-39.8	-42.0	13.7	3.00e-06	0	60	0	1465909248	50	4846
2026-01-20 10:52:11.12	321.14	23.74	-39.8	-42.1	13.6	9.90e-06	0	59	0	1469054976	50	4907
2026-01-20 10:52:12.13	321.29	23.61	-39.9	-42.2	13.5	1.14e-05	0	60	0	1473249280	50	4932
2026-01-20 10:52:13.14	321.44	23.48	-39.8	-42.1	13.6	6.80e-06	0	59	0	1475346432	50	4878
2026-01-20 10:52:14.15	321.59	23.35	-39.8	-42.0	13.6	1.37e-05	0	60	0	1478492160	50	4860
2026-01-20 10:52:15.16	321.73	23.22	-39.8	-42.1	13.6	9.90e-06	0	59	0	1481637888	50	4895
2026-01-20 10:52:16.16	321.88	23.10	-39.8	-42.1	13.6	1.14e-05	0	60	0	1484783616	50	4919
2026-01-20 10:52:17.17	322.02	22.97	-39.8	-42.0	13.7	9.10e-06	0	59	0	1488977920	50	4856
2026-01-20 10:52:18.18	322.17	22.85	-39.8	-42.0	13.6	6.80e-06	0	60	0	1492123648	50	4852
2026-01-20 10:52:19.19	322.31	22.72	-39.8	-42.0	13.6	5.30e-06	0	60	0	1495269376	50	4870
2026-01-20 10:52:20.20	322.45	22.60	-39.8	-42.1	13.6	8.30e-06	0	60	0	1497366528	50	4893
2026-01-20 10:52:21.21	322.59	22.47	-39.9	-42.2	13.5	1.14e-05	0	60	0	1500512256	50	4955
2026-01-20 10:52:22.22	322.73	22.35	-39.9	-42.3	13.4	1.44e-05	0	60	0	1503657984	50	4985
2026-01-20 10:52:23.23	322.87	22.22	-39.9	-42.2	13.5	1.06e-05	0	59	0	1507852288	50	4937
2026-01-20 10:52:24.24	323.01	22.10	-39.8	-42.1	13.6	1.22e-05	0	59	0	1510998016	50	4897
2026-01-20 10:52:25.24	323.15	21.98	-39.8	-42.1	13.6	8.30e-06	0	60	0	1514143744	50	4900
2026-01-20 10:52:26.25	323.28	21.86	-39.9	-42.2	13.4	1.14e-05	0	59	0	1517289472	50	4977
2026-01-20 10:52:27.26	323.42	21.73	-39.9	-42.3	13.4	1.60e-05	0	60	0	1520435200	50	4999
2026-01-20 10:52:28.27	323.55	21.61	-40.0	-42.4	13.2	2.28e-05	0	59	0	1522532352	50	5072
2026-01-20 10:52:29.28	323.68	21.49	-40.0	-42.3	13.3	1.37e-05	0	59	0	1526726656	50	5036
2026-01-20 10:52:30.29	323.81	21.37	-39.9	-42.3	13.3	1.98e-05	0	60	0	1529872384	50	5011
2026-01-20 10:52:31.30	323.95	21.25	-39.9	-42.3	13.3	9.90e-06	0	60	0	1533018112	50	5005
2026-01-20 10:52:32.31	324.07	21.13	-40.0	-42.3	13.3	2.05e-05	0	59	0	1536163840	50	5037
2026-01-20 10:52:33.32	324.20	21.01	-39.8	-42.1	13.5	1.22e-05	0	59	0	1539309568	50	4906
2026-01-20 10:52:34.33	324.33	20.89	-39.8	-42.1	13.5	6.10e-06	0	59	0	1542455296	50	4917
2026-01-20 10:52:35.34	324.46	20.77	-39.8	-42.1	13.5	6.80e-06	0	59	0	1545601024	50	4875
2026-01-20 10:52:36.34	324.58	20.66	-39.8	-42.1	13.5	9.10e-06	0	60	0	1548746752	50	4904
2026-01-20 10:52:37.35	324.71	20.54	-39.8	-42.1	13.5	1.29e-05	0	59	0	1551892480	50	4910
2026-01-20 10:52:38.36	324.83	20.42	-39.9	-42.2	13.4	1.29e-05	0	60	0	1555038208	50	4952
2026-01-20 10:52:39.37	324.95	20.30	-39.8	-42.2	13.4	1.22e-05	0	60	0	1558183936	50	4937
2026-01-20 10:52:40.38	325.08	20.19	-39.8	-42.1	13.6	9.10e-06	0	60	0	1561329664	50	4874
2026-01-20 10:52:41.39	325.20	20.07	-39.8	-42.1	13.5	5.30e-06	0	60	0	1564475392	50	4884
2026-01-20 10:52:42.40	325.32	19.96	-39.8	-42.1	13.5	7.60e-06	0	60	0	1567621120	50	4899
2026-01-20 10:52:43.41	325.44	19.84	-39.8	-42.1	13.4	1.44e-05	0	60	0	1570766848	50	4921
2026-01-20 10:52:44.42	325.56	19.73	-39.9	-42.2	13.4	1.22e-05	0	59	0	1573912576	50	4960
2026-01-20 10:52:45.43	325.67	19.61	-39.8	-42.1	13.4	6.80e-06	0	59	0	1577058304	50	4919
2026-01-20 10:52:46.44	325.79	19.50	-39.8	-42.1	13.5	9.90e-06	0	60	0	1580204032	50	4908
2026-01-20 10:52:47.45	325.91	19.39	-39.8	-42.1	13.4	6.10e-06	0	59	0	1583349760	50	4907
2026-01-20 10:52:48.46	326.02	19.27	-39.8	-42.1	13.5	8.30e-06	0	60	0	1586495488	50	4888
2026-01-20 10:52:49.47	326.14	19.16	-39.8	-42.1	13.4	1.06e-05	0	59	0	1589641216	50	4889
2026-01-20 10:52:50.48	326.25	19.05	-39.6	-41.9	13.6	9.90e-06	0	59	0	1592786944	50	4782
2026-01-20 10:52:51.49	326.36	18.94	-39.5	-41.8	13.8	3.00e-06	0	60	0	1595932672	50	4716
2026-01-20 10:52:52.50	326.48	18.82	-39.6	-41.8	13.7	5.30e-06	0	59	0	1599078400	50	4737
2026-01-20 10:52:53.51	326.59	18.71	-39.6	-41.9	13.6	6.10e-06	0	59	0	1602224128	50	4768
2026-01-20 10:52:54.52	326.70	18.60	-39.6	-41.9	13.6	9.10e-06	0	60	0	1605369856	50	4760
2026-01-20 10:52:55.53	326.81	18.49	-39.7	-42.0	13.5	6.80e-06	0	60	0	1608515584	50	4825
2026-01-20 10:52:56.54	326.92	18.38	-39.7	-42.0	13.5	1.06e-05	0	59	0	1611661312	50	4827
2026-01-20 10:52:57.55	327.03	18.27	-39.8	-42.1	13.4	1.60e-05	0	59	0	1614807040	50	4890
2026-01-20 10:52:58.56	327.13	18.16	-39.7	-42.0	13.4	7.60e-06	0	59	0	1617952768	50	4854
2026-01-20 10:52:59.57	327.24	18.05	-39.8	-42.1	13.4	9.10e-06	0	60	0	1621098496	50	4898
2026-01-20 10:53:00.58	327.35	17.95	-39.8	-42.2	13.2	2.28e-05	0	60	0	1624244224	50	4949
2026-01-20 10:53:01.59	327.45	17.84	-39.9	-42.2	13.2	2.05e-05	0	59	0	1627389952	50	4971
2026-01-20 10:53:02.60	327.56	17.73	-40.0	-42.4	13.0	2.13e-05	0	59	0	1630535680	50	5086
2026-01-20 10:53:03.61	327.66	17.62	-40.0	-42.4	13.0	3.66e-05	0	59	0	1633681408	50	5100
2026-01-20 10:53:04.62	327.76	17.52	-40.1	-42.6	12.9	5.41e-05	0	60	0	1636827136	50	5169
2026-01-20 10:53:05.63	327.87	17.41	-40.1	-42.6	12.9	5.56e-05	0	59	0	1639972864	50	5164
2026-01-20 10:53:06.64	327.97	17.30	-40.1	-42.6	12.8	4.27e-05	0	60	0	1643118592	50	5198
2026-01-20 10:53:07.65	328.07	17.20	-40.2	-42.8	12.7	5.72e-05	0	59	0	1646264320	50	5281
2026-01-20 10:53:08.65	328.17	17.09	-40.2	-42.7	12.8	6.63e-05	0	60	0	1649410048	50	5251
2026-01-20 10:53:09.66	328.27	16.99	-40.2	-42.9	12.6	9.15e-05	0	60	0	1652555776	51	5044
2026-01-20 10:53:10.68	328.37	16.88	-40.2	-42.8	12.6	9.99e-05	0	59	0	1655701504	51	5020
2026-01-20 10:53:11.68	328.47	16.78	-40.1	-42.7	12.7	7.70e-05	0	59	0	1658847232	51	4953
2026-01-20 10:53:12.70	328.56	16.68	-40.2	-42.8	12.6	9.15e-05	0	60	0	1661992960	51	5028
2026-01-20 10:53:13.70	328.66	16.57	-40.3	-42.9	12.4	1.32e-04	0	60	0	1665138688	51	5088
2026-01-20 10:53:14.71	328.76	16.47	-40.3	-43.0	12.4	1.40e-04	0	59	0	1668284416	51	5119
2026-01-20 10:53:15.72	328.85	16.37	-40.4	-43.1	12.3	1.61e-04	0	59	0	1671430144	51	5166
2026-01-20 10:53:16.73	328.95	16.27	-40.4	-43.0	12.3	1.61e-04	0	59	0	1674575872	51	5153
2026-01-20 10:53:17.74	329.04	16.16	-40.4	-43.2	12.1	1.72e-04	0	59	0	1677721600	51	5228
2026-01-20 10:53:18.75	329.14	16.06	-40.4	-43.1	12.2	2.31e-04	0	60	0	1680867328	51	5203
2026-01-20 10:53:19.76	329.23	15.96	-40.4	-43.1	12.3	2.20e-04	0	59	0	1684013056	51	5215
2026-01-20 10:53:20.77	329.32	15.86	-40.3	-43.0	12.3	1.80e-04	0	59	0	1687158784	51	5147
2026-01-20 10:53:21.78	329.42	15.76	-40.4	-43.1	12.2	1.76e-04	0	59	0	1690304512	51	5161
2026-01-20 10:53:22.79	329.51	15.66	-40.3	-42.9	12.3	1.58e-04	0	60	0	1693450240	51	5093
2026-01-20 10:53:23.80	329.60	15.56	-40.3	-43.0	12.4	1.69e-04	0	60	0	1696595968	51	5117
2026-01-20 10:53:24.81	329.69	15.46	-40.2	-42.8	12.5	1.16e-04	0	59	0	1699741696	51	5008
2026-01-20 10:53:25.82	329.78	15.36	-40.3	-42.9	12.3	1.51e-04	0	60	0	1702887424	51	5088
2026-01-20 10:53:26.82	329.87	15.26	-40.2	-42.8	12.5	1.32e-04	0	59	0	1706033152	51	4998
2026-01-20 10:53:27.83	329.96	15.16	-40.2	-42.8	12.4	1.37e-04	0	59	0	1709178880	51	4997
2026-01-20 10:53:28.84	330.04	15.07	-40.3	-42.9	12.3	1.65e-04	0	59	0	1712324608	51	5098
2026-01-20 10:53:29.85	330.13	14.97	-40.3	-43.0	12.2	1.65e-04	0	59	0	1715470336	51	5138
2026-01-20 10:53:30.86	330.22	14.87	-40.3	-43.0	12.2	2.13e-04	0	60	0	1718616064	51	5148
2026-01-20 10:53:31.87	330.31	14.77	-40.3	-43.0	12.3	1.88e-04	0	59	0	1721761792	51	5125
2026-01-20 10:53:32.88	330.39	14.68	-40.3	-43.1	12.2	2.29e-04	0	59	0	1724907520	51	5161
2026-01-20 10:53:33.89	330.48	14.58	-40.3	-43.1	12.1	2.77e-04	0	59	0	1728053248	51	5163
2026-01-20 10:53:34.90	330.56	14.48	-40.4	-43.1	12.1	2.71e-04	0	59	0	1731198976	51	5196
2026-01-20 10:53:35.91	330.65	14.39	-40.3	-43.0	12.2	2.34e-04	0	59	0	1734344704	51	5149
2026-01-20 10:53:36.92	330.73	14.29	-40.3	-43.1	12.1	2.76e-04	0	59	0	1737490432	51	5166
2026-01-20 10:53:37.93	330.82	14.20	-40.4	-43.2	12.0	3.13e-04	0	59	0	1740636160	51	5262
2026-01-20 10:53:38.93	330.90	14.10	-40.4	-43.2	12.0	3.16e-04	0	59	0	1743781888	51	5274
2026-01-20 10:53:39.94	330.98	14.01	-40.4	-43.2	12.0	3.81e-04	0	59	0	1746927616	51	5273
2026-01-20 10:53:40.95	331.06	13.92	-40.5	-43.4	11.8	4.67e-04	0	59	0	1750073344	51	5354
2026-01-20 10:53:41.96	331.14	13.82	-40.4	-43.3	11.9	4.74e-04	0	59	0	1753219072	51	5283
2026-01-20 10:53:42.97	331.23	13.73	-40.5	-43.5	11.7	5.35e-04	0	60	0	1756364800	51	5411
2026-01-20 10:53:43.98	331.31	13.63	-40.5	-43.3	11.8	4.52e-04	0	59	0	1759510528	51	5338
2026-01-20 10:53:44.99	331.39	13.54	-40.5	-43.4	11.8	5.85e-04	0	59	0	1762656256	51	5393
2026-01-20 10:53:46.00	331.47	13.45	-40.6	-43.5	11.6	6.74e-04	0	59	0	1765801984	51	5449
2026-01-20 10:53:47.01	331.54	13.36	-40.6	-43.6	11.5	8.19e-04	0	59	0	1768947712	51	5521
2026-01-20 10:53:48.02	331.62	13.26	-40.6	-43.5	11.6	6.35e-04	0	60	0	1772093440	51	5441
2026-01-20 10:53:49.03	331.70	13.17	-40.6	-43.5	11.5	7.62e-04	0	59	0	1775239168	51	5445
2026-01-20 10:53:50.04	331.78	13.08	-40.6	-43.6	11.4	8.13e-04	0	59	0	1778384896	51	5523
2026-01-20 10:53:51.05	331.86	12.99	-40.6	-43.6	11.5	9.10e-04	0	60	0	1781530624	51	5505
2026-01-20 10:53:52.06	331.93	12.90	-40.6	-43.7	11.3	1.17e-03	0	60	0	1784676352	52	5268
2026-01-20 10:53:53.07	332.01	12.81	-40.7	-43.8	11.2	1.25e-03	0	59	0	1787822080	52	5288
2026-01-20 10:53:54.08	332.09	12.72	-40.5	-43.6	11.4	1.20e-03	0	59	0	1790967808	52	5175
2026-01-20 10:53:55.09	332.16	12.63	-40.6	-43.8	11.2	1.31e-03	0	59	0	1794113536	52	5289
2026-01-20 10:53:56.10	332.24	12.54	-40.7	-43.9	11.1	1.50e-03	0	59	0	1797259264	52	5358
2026-01-20 10:53:57.11	332.31	12.45	-40.7	-43.9	11.0	1.55e-03	0	59	0	1800404992	52	5381
2026-01-20 10:53:58.12	332.39	12.36	-40.7	-43.9	11.0	1.78e-03	0	60	0	1803550720	52	5382
2026-01-20 10:53:59.13	332.46	12.27	-40.7	-43.9	11.0	1.76e-03	0	59	0	1806696448	52	5358
2026-01-20 10:54:00.14	332.53	12.18	-40.8	-44.0	10.8	2.33e-03	0	60	0	1809842176	52	5441
2026-01-20 10:54:01.15	332.61	12.09	-40.8	-44.1	10.8	2.27e-03	0	59	0	1812987904	52	5512
2026-01-20 10:54:02.16	332.68	12.01	-40.7	-43.9	10.9	2.47e-03	0	59	0	1816133632	52	5392
2026-01-20 10:54:03.17	332.75	11.92	-40.7	-44.0	10.9	1.97e-03	0	59	0	1819279360	52	5407
2026-01-20 10:54:04.18	332.82	11.83	-40.6	-43.8	11.0	1.98e-03	0	60	0	1822425088	52	5321
2026-01-20 10:54:05.19	332.89	11.74	-40.7	-44.0	10.9	2.12e-03	0	59	0	1825570816	52	5416
2026-01-20 10:54:06.20	332.97	11.66	-40.6	-43.8	11.0	2.01e-03	0	59	0	1828716544	52	5317
2026-01-20 10:54:07.21	333.04	11.57	-40.6	-43.8	11.0	2.05e-03	0	60	0	1831862272	52	5332
2026-01-20 10:54:08.22	333.11	11.48	-40.7	-43.9	10.9	2.13e-03	0	60	0	1836056576	52	5388
2026-01-20 10:54:09.23	333.18	11.40	-40.7	-43.9	11.0	2.30e-03	0	59	0	1838153728	52	5348
2026-01-20 10:54:10.24	333.25	11.31	-40.6	-43.8	11.0	1.83e-03	0	59	0	1841299456	52	5287
2026-01-20 10:54:11.25	333.31	11.23	-40.6	-43.8	11.0	1.65e-03	0	60	0	1844445184	52	5296
2026-01-20 10:54:12.26	333.38	11.14	-40.6	-43.8	10.9	1.99e-03	0	59	0	1847590912	52	5308
2026-01-20 10:54:13.27	333.45	11.06	-40.6	-43.8	11.0	1.97e-03	0	59	0	1850736640	52	5324
2026-01-20 10:54:14.28	333.52	10.97	-40.6	-43.9	10.9	2.32e-03	0	59	0	1854930944	52	5361
2026-01-20 10:54:15.29	333.59	10.89	-40.7	-44.0	10.7	2.79e-03	0	60	0	1858076672	52	5424
2026-01-20 10:54:16.30	333.65	10.80	-40.7	-43.9	10.8	2.30e-03	0	59	0	1860173824	52	5401
2026-01-20 10:54:17.31	333.72	10.72	-40.6	-43.9	10.8	2.23e-03	0	59	0	1863319552	52	5374
2026-01-20 10:54:18.32	333.79	10.64	-40.7	-44.0	10.7	2.91e-03	0	59	0	1866465280	52	5452
2026-01-20 10:54:19.33	333.85	10.55	-40.7	-44.1	10.7	2.99e-03	0	60	0	1870659584	52	5476
2026-01-20 10:54:20.34	333.92	10.47	-40.7	-44.0	10.7	2.96e-03	0	59	0	1873805312	52	5426
2026-01-20 10:54:21.35	333.99	10.39	-40.6	-43.9	10.8	2.74e-03	0	59	0	1876951040	52	5377
2026-01-20 10:54:22.36	334.05	10.30	-40.6	-44.0	10.6	2.94e-03	0	60	0	1880096768	52	5453
2026-01-20 10:54:23.37	334.12	10.22	-40.6	-44.0	10.6	3.34e-03	0	59	0	1883242496	52	5448
2026-01-20 10:54:24.37	334.18	10.14	-40.6	-43.9	10.7	3.18e-03	0	59	0	1886388224	52	5353
2026-01-20 10:54:25.38	334.24	10.06	-40.6	-43.9	10.7	3.16e-03	0	59	0	1889533952	52	5389
2026-01-20 10:54:26.39	334.31	9.98	-40.5	-43.8	10.8	2.72e-03	0	60	0	1892679680	52	5321
2026-01-20 10:54:27.40	334.37	9.89	-40.6	-43.9	10.7	2.83e-03	0	59	0	1895825408	52	5370
2026-01-20 10:54:28.41	334.43	9.81	-40.6	-44.0	10.6	3.27e-03	0	60	0	1898971136	52	5415
2026-01-20 10:54:29.42	334.50	9.73	-40.6	-44.1	10.5	3.13e-03	0	59	0	1902116864	52	5486
2026-01-20 10:54:30.43	334.56	9.65	-40.6	-44.0	10.5	3.92e-03	0	59	0	1905262592	52	5463
2026-01-20 10:54:31.44	334.62	9.57	-40.5	-43.9	10.6	3.40e-03	0	59	0	1908408320	52	5387
2026-01-20 10:54:32.45	334.68	9.49	-40.5	-43.9	10.7	3.36e-03	0	59	0	1911554048	52	5344
2026-01-20 10:54:33.46	334.75	9.41	-40.6	-44.0	10.4	4.47e-03	0	59	0	1914699776	52	5464
2026-01-20 10:54:34.47	334.81	9.33	-40.6	-44.1	10.4	4.39e-03	0	59	0	1917845504	52	5478
2026-01-20 10:54:35.48	334.87	9.25	-40.5	-43.9	10.5	4.05e-03	0	59	0	1920991232	52	5376
2026-01-20 10:54:36.49	334.93	9.17	-40.5	-44.0	10.4	4.73e-03	0	59	0	1924136960	52	5413
2026-01-20 10:54:37.50	334.99	9.09	-40.6	-44.1	10.2	5.08e-03	0	59	0	1927282688	52	5516
2026-01-20 10:54:38.51	335.05	9.01	-40.6	-44.2	10.1	6.94e-03	0	59	0	1930428416	52	5575
2026-01-20 10:54:39.52	335.11	8.93	-40.6	-44.2	10.1	7.43e-03	0	60	0	1933574144	52	5576
2026-01-20 10:54:40.53	335.17	8.86	-40.7	-44.3	10.0	8.74e-03	0	59	0	1936719872	52	5619
2026-01-20 10:54:41.54	335.23	8.78	-40.7	-44.4	9.9	8.99e-03	0	59	0	1939865600	52	5688
2026-01-20 10:54:42.55	335.29	8.70	-40.7	-44.4	9.9	8.44e-03	0	60	0	1943011328	52	5668
2026-01-20 10:54:43.56	335.34	8.62	-40.6	-44.3	9.8	1.01e-02	0	60	0	1946157056	52	5651
2026-01-20 10:54:44.57	335.40	8.54	-40.8	-44.6	9.5	1.15e-02	0	60	0	1949302784	52	5847
2026-01-20 10:54:45.58	335.46	8.47	-40.7	-44.6	9.5	1.30e-02	0	59	0	1952448512	52	5818
2026-01-20 10:54:46.59	335.52	8.39	-40.6	-44.3	9.8	1.11e-02	0	59	0	1955594240	52	5654
2026-01-20 10:54:47.60	335.58	8.31	-40.7	-44.6	9.6	1.20e-02	0	59	0	1958739968	52	5803
2026-01-20 10:54:48.61	335.63	8.24	-40.7	-44.5	9.6	1.23e-02	0	60	0	1961885696	52	5776
2026-01-20 10:54:49.62	335.69	8.16	-40.8	-44.7	9.3	1.56e-02	0	60	0	1965031424	52	5902
2026-01-20 10:54:50.62	335.75	8.08	-40.8	-44.7	9.3	1.55e-02	0	60	0	1968177152	52	5896
2026-01-20 10:54:51.63	335.80	8.01	-43.5	-55.1	3.8	3.77e-02	0	59	104	1971322880	57	14637
2026-01-20 10:54:52.64	335.86	7.93	-44.3	-56.3	3.8	1.49e+00	0	59	104	1971322880	59	14886
2026-01-20 10:54:53.65	335.91	7.86	-44.6	-56.8	3.8	1.49e+00	0	60	104	1971322880	59	15811
2026-01-20 10:54:54.66	335.97	7.78	-44.8	-57.1	3.8	1.49e+00	0	60	104	1971322880	60	15468
2026-01-20 10:54:55.67	336.03	7.71	-44.9	-57.3	3.8	1.49e+00	0	59	104	1971322880	60	15863
2026-01-20 10:54:56.68	336.08	7.63	-45.1	-57.4	3.8	1.49e+00	0	59	104	1971322880	60	16122
2026-01-20 10:54:57.69	336.13	7.56	-45.1	-57.4	3.8	1.49e+00	0	60	104	1971322880	60	16127
2026-01-20 10:54:58.70	336.19	7.48	-45.2	-57.5	3.8	1.49e+00	0	60	104	1971322880	60	16284
2026-01-20 10:54:59.71	336.24	7.41	-45.2	-57.6	3.8	1.49e+00	0	60	104	1971322880	60	16356
2026-01-20 10:55:00.72	336.30	7.33	-45.2	-57.6	3.8	1.49e+00	0	60	104	1971322880	61	15476
2026-01-20 10:55:01.73	336.35	7.26	-45.2	-57.5	3.8	1.49e+00	0	60	104	1971322880	60	16290
2026-01-20 10:55:02.75	336.41	7.18	-45.1	-57.5	3.8	1.49e+00	0	59	104	1971322880	60	16240
2026-01-20 10:55:03.76	336.46	7.11	-45.1	-57.5	3.8	1.49e+00	0	60	104	1971322880	60	16224
2026-01-20 10:55:04.77	336.51	7.04	-45.2	-57.5	3.8	1.49e+00	0	60	104	1971322880	60	16141
2026-01-20 10:55:05.78	336.56	6.96	-45.2	-57.5	3.8	1.49e+00	0	60	104	1971322880	60	16164
2026-01-20 10:55:06.79	336.62	6.89	-45.1	-57.4	3.8	1.49e+00	0	59	104	1971322880	60	16031
2026-01-20 10:55:07.80	336.67	6.82	-45.1	-57.5	3.8	1.49e+00	0	60	104	1971322880	60	16130
2026-01-20 10:55:08.81	336.72	6.74	-44.8	-57.4	3.8	1.49e+00	0	60	104	1971322880	60	16044
2026-01-20 10:55:09.82	336.77	6.67	-45.0	-57.4	3.8	1.49e+00	0	60	104	1971322880	60	16017
2026-01-20 10:55:10.83	336.82	6.60	-45.1	-57.5	3.8	1.49e+00	0	59	104	1971322880	60	16149
2026-01-20 10:55:11.84	336.88	6.53	-45.0	-57.4	3.8	1.49e+00	0	59	104	1971322880	60	16088
2026-01-20 10:55:12.85	336.93	6.46	-45.1	-57.4	3.8	1.49e+00	0	59	104	1971322880	60	16042
2026-01-20 10:55:13.86	336.98	6.38	-45.1	-57.4	3.8	1.49e+00	0	60	104	1971322880	60	16064
2026-01-20 10:55:14.87	337.03	6.31	-45.1	-57.4	3.8	1.49e+00	0	59	104	1971322880	60	16020
2026-01-20 10:55:15.88	337.08	6.24	-45.0	-57.4	3.8	1.49e+00	0	60	104	1971322880	60	15990
2026-01-20 10:55:16.89	337.13	6.17	-45.0	-57.4	3.8	1.49e+00	0	59	104	1971322880	60	16055
2026-01-20 10:55:17.90	337.18	6.10	-45.1	-57.4	3.8	1.49e+00	0	60	104	1971322880	60	15995
