passes_logs/2026/01/20/R2.0S_Moscow/R2.0S_Moscow__20260120_225216_NOAA_21_JPSS-2_rec.log

#Pass ID: 20260120_225216_NOAA 21 (JPSS-2)
#Satellite: NOAA 21 (JPSS-2)
#Configuration: NOAA-21
#almurnet v.1.7.20251203
#Start time: 2026-01-20 22:52:16

#Version: 2.2.20231116
#Station: R2.0S_Moscow
#Location: 37.707566 lon 55.798166 lat
#TLE: 1 54234U 22150A   26020.29910383  .00000141  00000+0  87571-4 0  9990
#TLE: 2 54234  98.7506 321.1348 0000615 250.8428 109.2682 14.19536295165564

#Time	Az	El	Level	Level2	SNR	BER	BlckErr	Temp	State	Recorded	gain1	gain2
2026-01-20 22:52:16.87	20.25	2.04	-42.1	-54.8	3.8	1.49e+00	0	48	0	0	56	14892
2026-01-20 22:52:17.87	20.29	2.10	-41.9	-54.6	3.8	1.49e+00	0	49	104	0	55	15421
2026-01-20 22:52:18.88	20.33	2.16	-41.9	-54.6	3.8	1.49e+00	0	49	104	0	55	15459
2026-01-20 22:52:19.89	20.37	2.23	-41.9	-54.6	3.8	1.49e+00	0	49	104	0	55	15452
2026-01-20 22:52:20.90	20.42	2.29	-41.9	-54.5	3.8	1.49e+00	0	49	104	0	55	15391
2026-01-20 22:52:21.91	20.46	2.35	-41.9	-54.6	3.8	1.49e+00	0	49	104	0	55	15433
2026-01-20 22:52:22.92	20.50	2.41	-41.9	-54.6	3.8	1.49e+00	0	49	104	0	55	15433
2026-01-20 22:52:23.93	20.54	2.47	-41.9	-54.6	3.8	1.49e+00	0	49	104	0	55	15442
2026-01-20 22:52:24.94	20.58	2.54	-41.9	-54.6	3.8	1.49e+00	0	49	104	0	55	15440
2026-01-20 22:52:25.95	20.62	2.60	-41.9	-54.6	3.8	1.49e+00	0	49	104	0	55	15416
2026-01-20 22:52:26.96	20.66	2.66	-41.9	-54.6	3.8	1.49e+00	0	49	104	0	55	15435
2026-01-20 22:52:27.98	20.70	2.73	-41.9	-54.6	3.8	1.49e+00	0	50	104	0	55	15469
2026-01-20 22:52:28.99	20.75	2.79	-41.9	-54.6	3.8	1.49e+00	0	50	104	0	55	15432
2026-01-20 22:52:29.99	20.79	2.85	-41.9	-54.6	3.8	1.49e+00	0	50	104	0	55	15474
2026-01-20 22:52:31.01	20.83	2.92	-41.9	-54.6	3.8	1.49e+00	0	50	104	0	55	15441
2026-01-20 22:52:32.02	20.87	2.98	-41.9	-54.6	3.8	1.49e+00	0	50	104	0	55	15448
2026-01-20 22:52:33.03	20.91	3.04	-41.9	-54.6	3.8	1.49e+00	0	50	104	0	55	15441
2026-01-20 22:52:34.04	20.96	3.11	-41.9	-54.6	3.8	1.49e+00	0	50	104	0	55	15437
2026-01-20 22:52:35.05	21.00	3.17	-41.9	-54.6	3.8	1.49e+00	0	50	104	0	55	15462
2026-01-20 22:52:36.06	21.04	3.23	-41.9	-54.6	3.8	1.49e+00	0	50	104	0	55	15461
2026-01-20 22:52:37.07	21.08	3.30	-41.9	-54.6	3.8	1.49e+00	0	50	104	0	55	15479
2026-01-20 22:52:38.08	21.13	3.36	-41.9	-54.6	3.8	1.49e+00	0	50	104	0	55	15431
2026-01-20 22:52:39.09	21.17	3.43	-41.9	-54.6	3.8	1.49e+00	0	50	104	0	55	15405
2026-01-20 22:52:40.10	21.21	3.49	-41.9	-54.6	3.8	1.49e+00	0	50	104	0	55	15452
2026-01-20 22:52:41.11	21.26	3.56	-41.9	-54.6	3.8	1.49e+00	0	50	104	0	55	15450
2026-01-20 22:52:42.12	21.30	3.62	-41.9	-54.6	3.8	1.49e+00	0	50	104	0	55	15417
2026-01-20 22:52:43.13	21.35	3.69	-41.9	-54.6	3.8	1.49e+00	0	51	104	0	55	15414
2026-01-20 22:52:44.14	21.39	3.75	-41.9	-54.6	3.8	1.49e+00	0	50	104	0	55	15430
2026-01-20 22:52:45.15	21.44	3.82	-41.9	-54.6	3.8	1.49e+00	0	51	104	0	55	15437
2026-01-20 22:52:46.16	21.48	3.88	-41.9	-54.6	3.8	1.49e+00	0	51	104	0	55	15452
2026-01-20 22:52:47.18	21.53	3.95	-41.9	-54.5	3.8	1.49e+00	0	51	104	0	55	15401
2026-01-20 22:52:48.19	21.57	4.02	-41.9	-54.6	3.8	1.49e+00	0	51	104	0	55	15404
2026-01-20 22:52:49.19	21.61	4.08	-41.9	-54.5	3.8	1.49e+00	0	51	104	0	55	15384
2026-01-20 22:52:50.21	21.66	4.15	-41.9	-54.6	3.8	1.49e+00	0	51	104	0	55	15423
2026-01-20 22:52:51.22	21.71	4.21	-41.9	-54.6	3.8	1.49e+00	0	51	104	0	55	15424
2026-01-20 22:52:52.22	21.75	4.28	-41.9	-54.5	3.8	1.49e+00	0	51	104	0	55	15396
2026-01-20 22:52:53.23	21.80	4.35	-41.9	-54.6	3.8	1.49e+00	0	51	104	0	55	15412
2026-01-20 22:52:54.25	21.84	4.41	-41.9	-54.5	3.8	1.49e+00	0	51	104	0	55	15382
2026-01-20 22:52:55.26	21.89	4.48	-41.9	-54.5	3.8	1.49e+00	0	51	104	0	55	15381
2026-01-20 22:52:56.27	21.94	4.55	-41.9	-54.6	3.8	1.49e+00	0	51	104	0	55	15405
2026-01-20 22:52:57.28	21.98	4.61	-41.9	-54.6	3.8	1.49e+00	0	51	104	0	55	15448
2026-01-20 22:52:58.29	22.03	4.68	-41.9	-54.6	3.8	1.49e+00	0	51	104	0	55	15413
2026-01-20 22:52:59.30	22.08	4.75	-41.9	-54.6	3.8	1.49e+00	0	51	104	0	55	15483
2026-01-20 22:53:00.31	22.12	4.82	-41.9	-54.5	3.8	1.49e+00	0	52	104	0	55	15394
2026-01-20 22:53:01.32	22.17	4.88	-41.9	-54.5	3.8	1.49e+00	0	52	104	0	55	15391
2026-01-20 22:53:02.33	22.22	4.95	-41.9	-54.6	3.8	1.49e+00	0	52	104	0	55	15422
2026-01-20 22:53:03.34	22.27	5.02	-41.9	-54.6	3.8	1.49e+00	0	52	104	0	55	15443
2026-01-20 22:53:04.35	22.31	5.09	-41.9	-54.5	3.8	1.49e+00	0	52	104	0	55	15393
2026-01-20 22:53:05.36	22.36	5.16	-41.9	-54.5	3.8	1.49e+00	0	52	104	0	55	15381
2026-01-20 22:53:06.37	22.41	5.23	-41.9	-54.5	3.8	1.49e+00	0	52	104	0	55	15388
2026-01-20 22:53:07.38	22.46	5.29	-41.9	-54.5	3.8	1.49e+00	0	52	104	0	55	15391
2026-01-20 22:53:08.39	22.51	5.36	-41.9	-54.6	3.8	1.49e+00	0	52	104	0	55	15405
2026-01-20 22:53:09.40	22.56	5.43	-41.9	-54.5	3.8	1.49e+00	0	52	104	0	55	15323
2026-01-20 22:53:10.41	22.61	5.50	-41.9	-54.5	3.8	1.49e+00	0	52	104	0	55	15358
2026-01-20 22:53:11.42	22.66	5.57	-41.9	-54.5	3.8	1.49e+00	0	52	104	0	55	15389
2026-01-20 22:53:12.43	22.71	5.64	-41.9	-54.6	3.8	1.49e+00	0	52	104	0	55	15418
2026-01-20 22:53:13.44	22.76	5.71	-41.9	-54.5	3.8	1.49e+00	0	52	104	0	55	15400
2026-01-20 22:53:14.45	22.81	5.78	-41.9	-54.5	3.8	1.49e+00	0	52	104	0	55	15377
2026-01-20 22:53:15.46	22.86	5.85	-41.9	-54.5	3.8	1.49e+00	0	52	104	0	55	15391
2026-01-20 22:53:16.47	22.91	5.92	-41.9	-54.5	3.8	1.49e+00	0	52	104	0	55	15379
2026-01-20 22:53:17.48	22.96	5.99	-41.9	-54.5	3.8	1.49e+00	0	52	104	0	55	15348
2026-01-20 22:53:18.50	23.01	6.06	-41.9	-54.5	3.8	1.49e+00	0	53	104	0	55	15339
2026-01-20 22:53:19.51	23.06	6.13	-41.9	-54.5	3.8	1.49e+00	0	52	104	0	55	15386
2026-01-20 22:53:20.52	23.11	6.20	-41.9	-54.5	3.8	1.49e+00	0	53	104	0	55	15374
2026-01-20 22:53:21.53	23.16	6.27	-41.9	-54.5	3.8	1.49e+00	0	53	104	0	55	15372
2026-01-20 22:53:22.54	23.22	6.35	-41.9	-54.5	3.8	1.49e+00	0	53	104	0	55	15346
2026-01-20 22:53:23.55	23.27	6.42	-41.9	-54.5	3.8	1.49e+00	0	53	104	0	55	15384
2026-01-20 22:53:24.56	23.32	6.49	-41.9	-54.5	3.8	1.49e+00	0	53	104	0	55	15390
2026-01-20 22:53:25.57	23.37	6.56	-41.9	-54.6	3.8	1.49e+00	0	53	104	0	55	15416
2026-01-20 22:53:26.58	23.43	6.63	-41.9	-54.5	3.8	1.49e+00	0	53	104	0	55	15325
2026-01-20 22:53:27.59	23.48	6.71	-41.9	-54.6	3.8	1.49e+00	0	53	104	0	55	15426
2026-01-20 22:53:28.60	23.53	6.78	-41.9	-54.5	3.8	1.49e+00	0	53	104	0	55	15346
2026-01-20 22:53:29.61	23.59	6.85	-41.9	-54.5	3.8	1.49e+00	0	53	104	0	55	15317
2026-01-20 22:53:30.62	23.64	6.92	-41.9	-54.5	3.8	1.49e+00	0	53	104	0	55	15345
2026-01-20 22:53:31.63	23.69	7.00	-41.9	-54.5	3.8	1.49e+00	0	53	104	0	55	15311
2026-01-20 22:53:32.64	23.75	7.07	-41.9	-54.5	3.8	1.49e+00	0	53	104	0	55	15325
2026-01-20 22:53:33.65	23.80	7.14	-41.9	-54.5	3.8	1.49e+00	0	53	104	0	55	15291
2026-01-20 22:53:34.66	23.86	7.22	-41.9	-54.4	3.8	1.49e+00	0	53	104	0	55	15202
2026-01-20 22:53:35.67	23.91	7.29	-41.9	-54.4	3.8	1.49e+00	0	53	104	0	55	15076
2026-01-20 22:53:36.68	23.97	7.36	-41.9	-54.3	3.8	1.49e+00	0	53	104	0	55	14936
2026-01-20 22:53:37.69	24.02	7.44	-41.9	-54.0	3.8	1.49e+00	0	53	104	0	55	14491
2026-01-20 22:53:38.70	24.08	7.51	-41.8	-53.7	3.8	1.49e+00	0	53	104	0	55	14037
2026-01-20 22:53:39.71	24.14	7.59	-41.8	-53.2	3.8	1.49e+00	0	53	104	0	55	13164
2026-01-20 22:53:40.72	24.19	7.66	-41.7	-52.1	4.0	1.49e+00	0	53	104	0	55	11658
2026-01-20 22:53:41.73	24.25	7.74	-41.6	-51.6	3.9	1.47e+00	0	53	104	0	55	10939
2026-01-20 22:53:42.75	24.31	7.81	-41.4	-50.0	4.5	1.35e+00	4	54	104	0	54	9612
2026-01-20 22:53:43.76	24.36	7.89	-41.2	-48.8	5.1	6.94e-01	0	53	0	0	54	8372
2026-01-20 22:53:44.77	24.42	7.96	-40.9	-47.7	5.8	4.76e-01	0	54	0	3145728	53	7829
2026-01-20 22:53:45.78	24.48	8.04	-40.6	-46.7	6.6	2.54e-01	0	54	0	6291456	53	6974
2026-01-20 22:53:46.79	24.54	8.11	-42.4	-53.1	3.8	2.77e-01	0	54	104	9437184	55	13046
2026-01-20 22:53:47.80	24.59	8.19	-41.6	-54.0	3.8	1.49e+00	0	54	104	9437184	55	14456
2026-01-20 22:53:48.81	24.65	8.27	-40.0	-43.4	10.6	8.19e-01	0	54	104	9437184	51	5399
2026-01-20 22:53:49.82	24.71	8.34	-41.3	-46.1	8.2	2.36e-02	0	54	0	11534336	53	6555
2026-01-20 22:53:50.82	24.77	8.42	-41.0	-47.3	6.4	5.29e-02	0	54	0	14680064	52	7967
2026-01-20 22:53:51.83	24.83	8.50	-40.4	-44.3	9.7	2.36e-02	0	54	0	17825792	52	5643
2026-01-20 22:53:52.84	24.89	8.57	-40.4	-44.2	9.9	9.41e-03	0	54	0	20971520	52	5581
2026-01-20 22:53:53.85	24.95	8.65	-40.5	-44.4	9.8	1.04e-02	0	54	0	24117248	52	5664
2026-01-20 22:53:54.86	25.01	8.73	-40.4	-44.1	10.1	6.98e-03	0	54	0	27262976	52	5512
2026-01-20 22:53:55.87	25.07	8.81	-40.3	-43.8	10.4	5.92e-03	0	54	0	30408704	52	5323
2026-01-20 22:53:56.88	25.13	8.88	-40.2	-43.8	10.5	3.96e-03	0	54	0	33554432	52	5294
2026-01-20 22:53:57.89	25.19	8.96	-40.5	-44.2	10.1	5.60e-03	0	54	0	36700160	52	5552
2026-01-20 22:53:58.90	25.25	9.04	-40.5	-44.2	10.1	9.03e-03	0	54	0	39845888	52	5554
2026-01-20 22:53:59.91	25.32	9.12	-40.3	-43.9	10.5	4.49e-03	0	54	0	42991616	52	5348
2026-01-20 22:54:00.92	25.38	9.20	-40.4	-43.9	10.5	3.26e-03	0	54	0	46137344	52	5358
2026-01-20 22:54:01.93	25.44	9.28	-40.4	-44.0	10.5	3.79e-03	0	54	0	50331648	52	5427
2026-01-20 22:54:02.94	25.50	9.36	-40.4	-44.0	10.5	3.87e-03	0	54	0	52428800	52	5405
2026-01-20 22:54:03.94	25.57	9.44	-40.3	-43.6	10.9	2.37e-03	0	54	0	55574528	52	5199
2026-01-20 22:54:04.95	25.63	9.52	-40.3	-43.7	10.8	2.18e-03	0	54	0	58720256	52	5263
2026-01-20 22:54:05.96	25.69	9.60	-40.3	-43.6	11.0	3.04e-03	0	54	0	61865984	52	5182
2026-01-20 22:54:06.97	25.76	9.68	-40.3	-43.6	11.1	1.29e-03	0	54	0	66060288	52	5204
2026-01-20 22:54:07.98	25.82	9.76	-40.4	-43.6	11.1	1.90e-03	0	54	0	69206016	52	5185
2026-01-20 22:54:08.99	25.89	9.84	-40.4	-43.5	11.3	1.15e-03	0	54	0	72351744	52	5159
2026-01-20 22:54:10.00	25.95	9.92	-40.5	-43.7	11.1	1.55e-03	0	55	0	75497472	52	5253
2026-01-20 22:54:11.01	26.02	10.00	-40.4	-43.5	11.4	1.05e-03	0	54	0	77594624	52	5121
2026-01-20 22:54:12.02	26.08	10.08	-40.5	-43.7	11.2	1.32e-03	0	54	0	81788928	52	5227
2026-01-20 22:54:13.03	26.15	10.16	-40.4	-43.5	11.4	1.06e-03	0	54	0	84934656	52	5135
2026-01-20 22:54:14.04	26.21	10.24	-40.4	-43.6	11.4	1.17e-03	0	55	0	88080384	52	5169
2026-01-20 22:54:15.05	26.28	10.33	-40.4	-43.5	11.5	8.12e-04	0	54	0	91226112	52	5127
2026-01-20 22:54:16.06	26.35	10.41	-40.4	-43.4	11.6	7.82e-04	0	55	0	94371840	52	5081
2026-01-20 22:54:17.06	26.41	10.49	-40.3	-43.4	11.6	6.65e-04	0	55	0	97517568	52	5065
2026-01-20 22:54:18.07	26.48	10.57	-40.3	-43.2	11.8	5.74e-04	0	55	0	100663296	52	4976
2026-01-20 22:54:19.09	26.55	10.66	-40.3	-43.2	11.8	4.67e-04	0	55	0	103809024	52	4973
2026-01-20 22:54:20.10	26.62	10.74	-40.2	-43.2	11.9	4.95e-04	0	55	0	106954752	52	4955
2026-01-20 22:54:21.10	26.69	10.82	-40.3	-43.2	11.9	4.05e-04	0	55	0	110100480	52	4942
2026-01-20 22:54:22.11	26.76	10.91	-40.2	-43.1	12.0	2.94e-04	0	55	0	113246208	52	4911
2026-01-20 22:54:23.12	26.83	10.99	-40.2	-43.1	12.1	3.07e-04	0	55	0	116391936	52	4908
2026-01-20 22:54:24.14	26.90	11.08	-40.2	-43.0	12.2	2.52e-04	0	55	0	119537664	52	4849
2026-01-20 22:54:25.15	26.97	11.16	-40.2	-43.0	12.1	2.41e-04	0	55	0	122683392	52	4865
2026-01-20 22:54:26.16	27.04	11.25	-40.1	-42.9	12.3	1.78e-04	0	55	0	125829120	52	4778
2026-01-20 22:54:27.17	27.11	11.33	-40.2	-43.0	12.2	1.90e-04	0	55	0	128974848	52	4829
2026-01-20 22:54:28.18	27.18	11.42	-40.1	-42.9	12.3	1.90e-04	0	55	0	132120576	52	4812
2026-01-20 22:54:29.19	27.25	11.50	-40.1	-42.9	12.3	1.86e-04	0	55	0	135266304	52	4809
2026-01-20 22:54:30.20	27.33	11.59	-40.1	-42.9	12.3	2.05e-04	0	55	0	138412032	52	4798
2026-01-20 22:54:31.21	27.40	11.68	-40.1	-42.9	12.4	1.81e-04	0	55	0	141557760	52	4794
2026-01-20 22:54:32.22	27.47	11.76	-40.1	-42.9	12.4	1.83e-04	0	55	0	144703488	52	4802
2026-01-20 22:54:33.22	27.54	11.85	-40.1	-42.8	12.4	1.48e-04	0	55	0	147849216	52	4753
2026-01-20 22:54:34.23	27.62	11.94	-40.1	-42.9	12.4	1.74e-04	0	55	0	150994944	52	4770
2026-01-20 22:54:35.24	27.69	12.02	-40.0	-42.7	12.5	1.27e-04	0	55	0	154140672	52	4696
2026-01-20 22:54:36.25	27.77	12.11	-40.1	-42.8	12.5	1.19e-04	0	55	0	157286400	52	4738
2026-01-20 22:54:37.26	27.84	12.20	-40.1	-42.7	12.6	1.20e-04	0	55	0	160432128	52	4702
2026-01-20 22:54:38.27	27.92	12.29	-40.0	-42.6	12.7	9.15e-05	0	55	0	163577856	52	4642
2026-01-20 22:54:39.28	27.99	12.38	-40.1	-42.8	12.7	7.09e-05	0	55	0	166723584	51	4995
2026-01-20 22:54:40.29	28.07	12.46	-40.1	-42.8	12.7	8.92e-05	0	55	0	169869312	51	4996
2026-01-20 22:54:41.30	28.15	12.55	-40.1	-42.8	12.7	7.55e-05	0	55	0	173015040	51	4989
2026-01-20 22:54:42.31	28.22	12.64	-40.1	-42.8	12.7	8.46e-05	0	55	0	176160768	51	4985
2026-01-20 22:54:43.32	28.30	12.73	-40.1	-42.7	12.8	5.72e-05	0	55	0	179306496	51	4967
2026-01-20 22:54:44.33	28.38	12.82	-40.2	-42.8	12.7	9.38e-05	0	55	0	182452224	51	5031
2026-01-20 22:54:45.34	28.46	12.91	-40.2	-42.8	12.7	8.77e-05	0	55	0	185597952	51	5041
2026-01-20 22:54:46.35	28.54	13.00	-40.1	-42.7	12.8	5.72e-05	0	55	0	188743680	51	4948
2026-01-20 22:54:47.36	28.62	13.09	-40.1	-42.7	12.8	4.95e-05	0	55	0	191889408	51	4952
2026-01-20 22:54:48.37	28.70	13.18	-40.1	-42.7	12.8	7.17e-05	0	55	0	195035136	51	4948
2026-01-20 22:54:49.38	28.78	13.28	-40.1	-42.7	12.9	5.26e-05	0	55	0	198180864	51	4940
2026-01-20 22:54:50.39	28.86	13.37	-40.1	-42.8	12.8	4.95e-05	0	55	0	201326592	51	4995
2026-01-20 22:54:51.40	28.94	13.46	-40.0	-42.6	13.0	4.73e-05	0	55	0	204472320	51	4888
2026-01-20 22:54:52.41	29.02	13.55	-40.2	-42.8	12.8	6.33e-05	0	55	0	207618048	51	5001
2026-01-20 22:54:53.42	29.11	13.64	-40.0	-42.6	13.0	4.65e-05	0	55	0	210763776	51	4905
2026-01-20 22:54:54.43	29.19	13.74	-40.0	-42.6	13.0	4.42e-05	0	55	0	213909504	51	4885
2026-01-20 22:54:55.44	29.27	13.83	-40.1	-42.6	13.0	3.50e-05	0	55	0	217055232	51	4924
2026-01-20 22:54:56.45	29.36	13.92	-40.1	-42.6	13.0	3.05e-05	0	56	0	220200960	51	4917
2026-01-20 22:54:57.46	29.44	14.02	-40.1	-42.6	13.0	3.05e-05	0	55	0	223346688	51	4909
2026-01-20 22:54:58.47	29.52	14.11	-40.1	-42.6	13.0	3.89e-05	0	55	0	226492416	51	4914
2026-01-20 22:54:59.48	29.61	14.21	-40.1	-42.6	13.0	4.42e-05	0	56	0	229638144	51	4924
2026-01-20 22:55:00.49	29.70	14.30	-40.1	-42.7	13.0	3.96e-05	0	56	0	232783872	51	4929
2026-01-20 22:55:01.50	29.78	14.40	-40.1	-42.6	13.1	3.89e-05	0	56	0	235929600	51	4909
2026-01-20 22:55:02.51	29.87	14.49	-40.2	-42.8	12.9	3.96e-05	0	56	0	239075328	51	4990
2026-01-20 22:55:03.52	29.96	14.59	-40.2	-42.8	12.9	5.11e-05	0	56	0	242221056	51	5003
2026-01-20 22:55:04.53	30.05	14.68	-40.2	-42.8	12.9	3.96e-05	0	56	0	245366784	51	5020
2026-01-20 22:55:05.54	30.13	14.78	-40.2	-42.8	12.9	6.10e-05	0	56	0	248512512	51	5011
2026-01-20 22:55:06.55	30.22	14.87	-40.3	-42.9	12.8	4.19e-05	0	56	0	251658240	51	5061
2026-01-20 22:55:07.56	30.31	14.97	-40.2	-42.8	12.9	4.19e-05	0	56	0	254803968	51	5027
2026-01-20 22:55:08.57	30.40	15.07	-40.2	-42.8	12.9	5.03e-05	0	56	0	257949696	51	5004
2026-01-20 22:55:09.58	30.49	15.17	-40.2	-42.9	12.8	6.40e-05	0	56	0	261095424	51	5046
2026-01-20 22:55:10.59	30.59	15.26	-40.2	-42.8	12.9	3.89e-05	0	56	0	264241152	51	5015
2026-01-20 22:55:11.60	30.68	15.36	-40.2	-42.8	12.9	3.28e-05	0	56	0	267386880	51	4989
2026-01-20 22:55:12.61	30.77	15.46	-40.2	-42.8	12.9	5.72e-05	0	56	0	270532608	51	5003
2026-01-20 22:55:13.62	30.86	15.56	-40.2	-42.7	13.0	5.03e-05	0	56	0	273678336	51	4982
2026-01-20 22:55:14.63	30.96	15.66	-40.2	-42.7	13.0	4.88e-05	0	56	0	276824064	51	4979
2026-01-20 22:55:15.64	31.05	15.76	-40.2	-42.8	12.9	4.11e-05	0	56	0	279969792	51	5033
2026-01-20 22:55:16.65	31.15	15.86	-40.2	-42.8	13.0	4.42e-05	0	56	0	283115520	51	5011
2026-01-20 22:55:17.65	31.24	15.96	-40.3	-42.9	12.9	4.57e-05	0	56	0	286261248	51	5056
2026-01-20 22:55:18.67	31.34	16.06	-40.3	-43.0	12.8	6.71e-05	0	56	0	289406976	51	5105
2026-01-20 22:55:19.67	31.43	16.16	-40.4	-43.0	12.7	6.17e-05	0	56	0	292552704	51	5141
2026-01-20 22:55:20.68	31.53	16.26	-40.4	-43.1	12.7	6.86e-05	0	56	0	295698432	51	5193
2026-01-20 22:55:21.69	31.63	16.36	-40.5	-43.2	12.6	9.23e-05	0	56	0	298844160	51	5241
2026-01-20 22:55:22.70	31.73	16.46	-40.5	-43.2	12.6	1.17e-04	0	56	0	301989888	51	5263
2026-01-20 22:55:23.71	31.83	16.57	-40.5	-43.2	12.5	1.23e-04	0	56	0	305135616	51	5279
2026-01-20 22:55:24.72	31.93	16.67	-40.6	-43.3	12.5	1.22e-04	0	56	0	308281344	51	5297
2026-01-20 22:55:25.73	32.03	16.77	-40.6	-43.3	12.5	1.04e-04	0	56	0	311427072	51	5300
2026-01-20 22:55:26.75	32.13	16.88	-40.6	-43.4	12.4	1.24e-04	0	56	0	314572800	51	5347
2026-01-20 22:55:27.75	32.23	16.98	-40.7	-43.5	12.3	1.82e-04	0	56	0	317718528	51	5409
2026-01-20 22:55:28.77	32.33	17.09	-40.6	-43.4	12.4	1.30e-04	0	56	0	320864256	51	5344
2026-01-20 22:55:29.78	32.44	17.19	-40.6	-43.3	12.5	1.37e-04	0	56	0	324009984	51	5337
2026-01-20 22:55:30.79	32.54	17.29	-40.7	-43.5	12.3	1.47e-04	0	56	0	327155712	51	5422
2026-01-20 22:55:31.80	32.65	17.40	-40.6	-43.3	12.5	1.30e-04	0	56	0	330301440	51	5312
2026-01-20 22:55:32.81	32.75	17.51	-40.6	-43.2	12.6	9.99e-05	0	56	0	333447168	51	5272
2026-01-20 22:55:33.82	32.86	17.61	-40.6	-43.3	12.5	9.30e-05	0	56	0	336592896	51	5308
2026-01-20 22:55:34.83	32.96	17.72	-40.6	-43.3	12.6	1.03e-04	0	56	0	339738624	51	5287
2026-01-20 22:55:35.84	33.07	17.82	-40.6	-43.3	12.6	9.84e-05	0	56	0	342884352	51	5309
2026-01-20 22:55:36.85	33.18	17.93	-40.6	-43.3	12.5	1.20e-04	0	56	0	346030080	51	5314
2026-01-20 22:55:37.86	33.29	18.04	-40.7	-43.4	12.4	1.28e-04	0	56	0	349175808	51	5379
2026-01-20 22:55:38.86	33.40	18.15	-40.7	-43.4	12.3	1.44e-04	0	56	0	352321536	52	5084
2026-01-20 22:55:39.87	33.51	18.25	-40.7	-43.5	12.3	1.48e-04	0	56	0	355467264	52	5104
2026-01-20 22:55:40.89	33.62	18.36	-40.6	-43.3	12.5	1.33e-04	0	56	0	358612992	52	5013
2026-01-20 22:55:41.89	33.73	18.47	-40.6	-43.3	12.5	1.04e-04	0	56	0	361758720	52	5020
2026-01-20 22:55:42.91	33.85	18.58	-40.6	-43.3	12.5	1.23e-04	0	56	0	364904448	52	5031
2026-01-20 22:55:43.92	33.96	18.69	-40.5	-43.2	12.6	1.10e-04	0	56	0	368050176	52	4958
2026-01-20 22:55:44.93	34.07	18.80	-40.5	-43.1	12.7	6.40e-05	0	56	0	371195904	52	4893
2026-01-20 22:55:45.94	34.19	18.91	-40.4	-43.0	12.8	5.79e-05	0	56	0	374341632	52	4851
2026-01-20 22:55:46.95	34.30	19.02	-40.4	-42.9	12.9	4.34e-05	0	56	0	377487360	52	4813
2026-01-20 22:55:47.96	34.42	19.13	-40.3	-42.9	13.0	4.73e-05	0	56	0	380633088	52	4769
2026-01-20 22:55:48.97	34.54	19.25	-40.4	-43.0	12.9	6.02e-05	0	57	0	384827392	52	4857
2026-01-20 22:55:49.98	34.66	19.36	-40.3	-42.8	13.1	3.35e-05	0	57	0	387973120	52	4712
2026-01-20 22:55:50.99	34.78	19.47	-40.2	-42.7	13.2	3.43e-05	0	56	0	391118848	52	4688
2026-01-20 22:55:52.00	34.90	19.58	-40.3	-42.7	13.1	2.51e-05	0	56	0	393216000	52	4697
2026-01-20 22:55:53.01	35.02	19.70	-40.2	-42.7	13.1	2.51e-05	0	57	0	396361728	52	4679
2026-01-20 22:55:54.01	35.14	19.81	-40.2	-42.6	13.2	2.28e-05	0	56	0	399507456	52	4637
2026-01-20 22:55:55.02	35.26	19.92	-40.1	-42.5	13.3	1.29e-05	0	57	0	403701760	52	4585
2026-01-20 22:55:56.03	35.38	20.04	-40.1	-42.5	13.4	9.10e-06	0	56	0	406847488	52	4570
2026-01-20 22:55:57.04	35.51	20.15	-40.1	-42.5	13.3	2.21e-05	0	56	0	409993216	52	4578
2026-01-20 22:55:58.05	35.63	20.27	-40.1	-42.5	13.4	1.29e-05	0	56	0	413138944	52	4550
2026-01-20 22:55:59.06	35.76	20.38	-40.1	-42.4	13.6	1.06e-05	0	56	0	416284672	51	4795
2026-01-20 22:56:00.07	35.89	20.50	-40.0	-42.4	13.6	9.90e-06	0	57	0	419430400	51	4768
2026-01-20 22:56:01.08	36.02	20.62	-40.0	-42.3	13.6	9.90e-06	0	56	0	422576128	51	4741
2026-01-20 22:56:02.09	36.15	20.73	-40.0	-42.3	13.7	4.50e-06	0	56	0	425721856	51	4734
2026-01-20 22:56:03.10	36.28	20.85	-40.0	-42.3	13.6	4.50e-06	0	56	0	428867584	51	4740
2026-01-20 22:56:04.11	36.41	20.97	-39.9	-42.2	13.8	7.60e-06	0	57	0	432013312	51	4681
2026-01-20 22:56:05.12	36.54	21.09	-39.8	-42.1	13.9	6.10e-06	0	57	0	435159040	51	4620
2026-01-20 22:56:06.13	36.67	21.21	-39.9	-42.1	13.8	6.10e-06	0	56	0	438304768	51	4647
2026-01-20 22:56:07.14	36.81	21.32	-39.8	-42.0	13.9	3.80e-06	0	57	0	441450496	51	4586
2026-01-20 22:56:08.15	36.94	21.44	-39.7	-41.9	14.1	2.20e-06	0	57	0	444596224	51	4513
2026-01-20 22:56:09.16	37.08	21.56	-39.7	-41.9	14.1	4.50e-06	0	56	0	447741952	51	4509
2026-01-20 22:56:10.17	37.21	21.68	-39.7	-41.9	14.1	1.50e-06	0	57	0	450887680	51	4513
2026-01-20 22:56:11.18	37.35	21.80	-39.7	-41.8	14.1	1.50e-06	0	57	0	454033408	51	4480
2026-01-20 22:56:12.19	37.49	21.93	-39.7	-41.8	14.1	2.20e-06	0	56	0	457179136	51	4491
2026-01-20 22:56:13.20	37.63	22.05	-39.7	-41.8	14.1	7.00e-07	0	57	0	460324864	51	4491
2026-01-20 22:56:14.21	37.77	22.17	-39.7	-41.8	14.1	1.50e-06	0	57	0	463470592	51	4486
2026-01-20 22:56:15.22	37.91	22.29	-39.6	-41.8	14.2	7.00e-07	0	57	0	466616320	51	4478
2026-01-20 22:56:16.23	38.06	22.41	-39.6	-41.7	14.2	1.50e-06	0	57	0	469762048	51	4425
2026-01-20 22:56:17.24	38.20	22.54	-39.5	-41.7	14.3	0.00e+00	0	57	0	472907776	51	4403
2026-01-20 22:56:18.24	38.35	22.66	-39.5	-41.6	14.4	7.00e-07	0	57	0	476053504	50	4639
2026-01-20 22:56:19.25	38.49	22.78	-39.6	-41.7	14.3	0.00e+00	0	57	0	479199232	50	4685
2026-01-20 22:56:20.26	38.64	22.91	-39.6	-41.7	14.3	7.00e-07	0	57	0	482344960	50	4686
2026-01-20 22:56:21.28	38.79	23.03	-39.5	-41.6	14.4	7.00e-07	0	57	0	485490688	50	4608
2026-01-20 22:56:22.29	38.94	23.16	-39.5	-41.6	14.4	7.00e-07	0	57	0	488636416	50	4633
2026-01-20 22:56:23.30	39.09	23.28	-39.5	-41.7	14.4	7.00e-07	0	57	0	491782144	50	4659
2026-01-20 22:56:24.30	39.24	23.41	-39.5	-41.6	14.4	0.00e+00	0	57	0	494927872	50	4629
2026-01-20 22:56:25.31	39.40	23.53	-39.5	-41.6	14.4	7.00e-07	0	57	0	498073600	50	4649
2026-01-20 22:56:26.32	39.55	23.66	-39.5	-41.6	14.5	1.50e-06	0	57	0	501219328	50	4633
2026-01-20 22:56:27.33	39.71	23.79	-39.5	-41.6	14.5	0.00e+00	0	57	0	504365056	50	4632
2026-01-20 22:56:28.34	39.87	23.92	-39.5	-41.5	14.5	7.00e-07	0	57	0	507510784	50	4594
2026-01-20 22:56:29.35	40.03	24.04	-39.6	-41.7	14.4	1.50e-06	0	57	0	510656512	50	4666
2026-01-20 22:56:30.36	40.19	24.17	-39.5	-41.6	14.4	0.00e+00	0	57	0	513802240	50	4649
2026-01-20 22:56:31.37	40.35	24.30	-39.6	-41.7	14.4	1.50e-06	0	57	0	516947968	50	4666
2026-01-20 22:56:32.39	40.51	24.43	-39.6	-41.7	14.4	1.50e-06	0	57	0	520093696	50	4677
2026-01-20 22:56:33.40	40.67	24.56	-39.6	-41.7	14.4	7.00e-07	0	57	0	523239424	50	4697
2026-01-20 22:56:34.41	40.84	24.69	-39.7	-41.9	14.2	1.50e-06	0	57	0	526385152	50	4778
2026-01-20 22:56:35.41	41.00	24.82	-39.7	-41.8	14.3	1.50e-06	0	57	0	529530880	50	4744
2026-01-20 22:56:36.42	41.17	24.95	-39.7	-41.8	14.3	1.50e-06	0	57	0	532676608	50	4759
2026-01-20 22:56:37.43	41.34	25.08	-39.7	-41.9	14.2	7.00e-07	0	57	0	535822336	50	4777
2026-01-20 22:56:38.45	41.51	25.22	-39.8	-42.0	14.2	0.00e+00	0	57	0	538968064	50	4825
2026-01-20 22:56:39.45	41.68	25.35	-39.8	-42.0	14.2	7.00e-07	0	57	0	542113792	50	4826
2026-01-20 22:56:40.46	41.86	25.48	-39.8	-42.0	14.1	7.00e-07	0	57	0	545259520	50	4867
2026-01-20 22:56:41.48	42.03	25.61	-39.8	-42.0	14.2	1.50e-06	0	57	0	548405248	50	4835
2026-01-20 22:56:42.49	42.21	25.75	-39.8	-42.0	14.2	7.00e-07	0	57	0	551550976	50	4831
2026-01-20 22:56:43.50	42.39	25.88	-39.9	-42.1	14.1	3.00e-06	0	57	0	554696704	50	4903
2026-01-20 22:56:44.51	42.57	26.02	-39.9	-42.0	14.1	7.00e-07	0	57	0	557842432	50	4865
2026-01-20 22:56:45.52	42.75	26.15	-39.9	-42.1	14.1	0.00e+00	0	57	0	560988160	50	4902
2026-01-20 22:56:46.53	42.93	26.28	-40.0	-42.2	13.9	3.80e-06	0	57	0	564133888	50	4964
2026-01-20 22:56:47.54	43.11	26.42	-40.1	-42.4	13.8	2.20e-06	0	57	0	567279616	50	5069
2026-01-20 22:56:48.55	43.30	26.56	-40.1	-42.4	13.7	7.60e-06	0	57	0	570425344	50	5097
2026-01-20 22:56:49.56	43.49	26.69	-40.3	-42.7	13.5	6.80e-06	0	57	0	573571072	51	4946
2026-01-20 22:56:50.57	43.67	26.83	-40.3	-42.7	13.4	1.37e-05	0	57	0	576716800	51	4964
2026-01-20 22:56:51.58	43.86	26.96	-40.4	-42.9	13.3	1.22e-05	0	57	0	579862528	51	5043
2026-01-20 22:56:52.59	44.06	27.10	-40.6	-43.1	13.1	3.20e-05	0	57	0	583008256	51	5191
2026-01-20 22:56:53.59	44.25	27.24	-40.6	-43.2	13.0	3.43e-05	0	57	0	586153984	51	5226
2026-01-20 22:56:54.61	44.44	27.38	-40.6	-43.2	13.0	3.35e-05	0	57	0	589299712	51	5223
2026-01-20 22:56:55.62	44.64	27.52	-40.7	-43.2	13.0	4.57e-05	0	57	0	592445440	51	5265
2026-01-20 22:56:56.63	44.84	27.65	-40.7	-43.2	13.0	4.73e-05	0	57	0	595591168	51	5263
2026-01-20 22:56:57.64	45.04	27.79	-40.7	-43.3	12.9	4.73e-05	0	57	0	598736896	51	5285
2026-01-20 22:56:58.64	45.24	27.93	-40.7	-43.2	12.9	3.96e-05	0	57	0	601882624	51	5267
2026-01-20 22:56:59.65	45.44	28.07	-40.6	-43.1	13.0	3.12e-05	0	57	0	605028352	52	4909
2026-01-20 22:57:00.66	45.65	28.21	-40.6	-43.1	13.0	4.27e-05	0	57	0	608174080	52	4904
2026-01-20 22:57:01.67	45.85	28.35	-40.6	-43.1	13.0	3.89e-05	0	57	0	611319808	52	4920
2026-01-20 22:57:02.68	46.06	28.49	-40.5	-43.1	13.1	3.20e-05	0	57	0	614465536	52	4880
2026-01-20 22:57:03.69	46.27	28.63	-40.6	-43.1	13.0	3.89e-05	0	57	0	617611264	52	4921
2026-01-20 22:57:04.70	46.48	28.77	-40.6	-43.1	13.0	3.50e-05	0	57	0	620756992	52	4908
2026-01-20 22:57:05.71	46.70	28.91	-40.5	-43.0	13.1	3.43e-05	0	57	0	623902720	52	4839
2026-01-20 22:57:06.72	46.91	29.06	-40.4	-42.9	13.2	2.89e-05	0	57	0	627048448	52	4795
2026-01-20 22:57:07.74	47.13	29.20	-40.5	-43.0	13.2	2.89e-05	0	57	0	630194176	52	4815
2026-01-20 22:57:08.75	47.35	29.34	-40.3	-42.8	13.3	1.60e-05	0	57	0	633339904	52	4724
2026-01-20 22:57:09.76	47.57	29.48	-40.4	-42.8	13.4	7.60e-06	0	57	0	636485632	52	4722
2026-01-20 22:57:10.77	47.80	29.63	-40.4	-42.8	13.3	1.83e-05	0	57	0	639631360	52	4719
2026-01-20 22:57:11.78	48.02	29.77	-40.2	-42.5	13.6	1.29e-05	0	57	0	642777088	52	4587
2026-01-20 22:57:12.79	48.25	29.91	-40.2	-42.5	13.6	5.30e-06	0	57	0	645922816	52	4563
2026-01-20 22:57:13.80	48.48	30.06	-40.1	-42.4	13.7	4.50e-06	0	57	0	649068544	52	4543
2026-01-20 22:57:14.80	48.71	30.20	-40.2	-42.5	13.6	7.60e-06	0	57	0	652214272	52	4570
2026-01-20 22:57:15.81	48.94	30.34	-40.2	-42.6	13.6	1.52e-05	0	57	0	655360000	52	4610
2026-01-20 22:57:16.82	49.18	30.49	-40.3	-42.7	13.5	1.22e-05	0	57	0	658505728	52	4671
2026-01-20 22:57:17.83	49.42	30.63	-40.3	-42.7	13.4	1.06e-05	0	57	0	661651456	52	4674
2026-01-20 22:57:18.84	49.66	30.78	-40.2	-42.6	13.5	1.22e-05	0	57	0	664797184	52	4642
2026-01-20 22:57:19.85	49.90	30.92	-40.2	-42.6	13.6	8.30e-06	0	57	0	667942912	52	4608
2026-01-20 22:57:20.86	50.14	31.07	-40.2	-42.6	13.6	5.30e-06	0	57	0	671088640	52	4601
2026-01-20 22:57:21.87	50.39	31.21	-40.2	-42.5	13.7	8.30e-06	0	57	0	674234368	52	4562
2026-01-20 22:57:22.88	50.64	31.36	-40.2	-42.5	13.7	3.00e-06	0	57	0	677380096	52	4554
2026-01-20 22:57:23.89	50.89	31.50	-40.1	-42.3	13.8	9.90e-06	0	57	0	680525824	52	4486
2026-01-20 22:57:24.90	51.14	31.65	-40.2	-42.5	13.7	5.30e-06	0	57	0	683671552	52	4582
2026-01-20 22:57:25.91	51.39	31.79	-40.2	-42.6	13.6	4.50e-06	0	57	0	686817280	52	4607
2026-01-20 22:57:26.92	51.65	31.94	-40.3	-42.6	13.5	5.30e-06	0	57	0	689963008	52	4642
2026-01-20 22:57:27.93	51.91	32.09	-40.2	-42.5	13.6	9.90e-06	0	57	0	693108736	52	4581
2026-01-20 22:57:28.94	52.17	32.23	-40.3	-42.6	13.5	5.30e-06	0	57	0	696254464	52	4647
2026-01-20 22:57:29.95	52.44	32.38	-40.3	-42.7	13.5	1.52e-05	0	57	0	699400192	52	4683
2026-01-20 22:57:30.96	52.70	32.52	-40.5	-42.9	13.3	1.44e-05	0	57	0	702545920	52	4790
2026-01-20 22:57:31.97	52.97	32.67	-40.5	-43.0	13.2	2.13e-05	0	57	0	706740224	52	4820
2026-01-20 22:57:32.98	53.24	32.82	-40.5	-43.0	13.1	2.59e-05	0	57	0	709885952	52	4869
2026-01-20 22:57:33.99	53.52	32.96	-40.6	-43.1	13.1	3.35e-05	0	57	0	711983104	52	4873
2026-01-20 22:57:35.00	53.79	33.11	-40.6	-43.1	13.1	2.89e-05	0	57	0	715128832	52	4895
2026-01-20 22:57:36.01	54.07	33.26	-40.6	-43.2	13.0	3.89e-05	0	57	0	718274560	52	4941
2026-01-20 22:57:37.02	54.35	33.40	-40.6	-43.1	13.1	4.19e-05	0	57	0	721420288	52	4912
2026-01-20 22:57:38.03	54.64	33.55	-40.6	-43.2	13.0	3.35e-05	0	57	0	725614592	52	4938
2026-01-20 22:57:39.03	54.92	33.69	-40.6	-43.2	13.1	4.19e-05	0	57	0	728760320	52	4936
2026-01-20 22:57:40.04	55.21	33.84	-40.7	-43.2	13.0	3.35e-05	0	57	0	731906048	52	4973
2026-01-20 22:57:41.05	55.50	33.98	-40.7	-43.3	12.9	5.49e-05	0	57	0	734003200	52	5016
2026-01-20 22:57:42.06	55.79	34.13	-40.7	-43.3	12.8	5.26e-05	0	57	0	737148928	52	5029
2026-01-20 22:57:43.07	56.09	34.28	-40.8	-43.5	12.6	8.16e-05	0	57	0	741343232	52	5117
2026-01-20 22:57:44.08	56.39	34.42	-40.9	-43.5	12.6	1.17e-04	0	57	0	744488960	52	5152
2026-01-20 22:57:45.09	56.69	34.57	-40.9	-43.6	12.5	1.04e-04	0	58	0	747634688	52	5182
2026-01-20 22:57:46.10	56.99	34.71	-40.9	-43.5	12.6	8.92e-05	0	57	0	750780416	52	5149
2026-01-20 22:57:47.12	57.30	34.86	-40.8	-43.4	12.7	7.55e-05	0	57	0	753926144	52	5094
2026-01-20 22:57:48.12	57.61	35.00	-40.9	-43.5	12.6	8.92e-05	0	57	0	757071872	52	5146
2026-01-20 22:57:49.13	57.92	35.15	-40.9	-43.5	12.6	7.55e-05	0	57	0	760217600	52	5142
2026-01-20 22:57:50.14	58.24	35.29	-41.1	-43.8	12.4	1.43e-04	0	57	0	763363328	52	5313
2026-01-20 22:57:51.15	58.55	35.43	-41.1	-43.9	12.2	1.81e-04	0	57	0	766509056	52	5365
2026-01-20 22:57:52.16	58.88	35.58	-41.2	-44.0	12.1	2.12e-04	0	57	0	769654784	52	5455
2026-01-20 22:57:53.17	59.20	35.72	-41.2	-44.1	12.1	2.87e-04	0	57	0	772800512	53	5173
2026-01-20 22:57:54.18	59.52	35.86	-41.2	-44.1	12.1	2.96e-04	0	57	0	775946240	53	5175
2026-01-20 22:57:55.19	59.85	36.01	-41.2	-44.1	12.1	2.78e-04	0	57	0	779091968	53	5171
2026-01-20 22:57:56.20	60.19	36.15	-41.2	-44.0	12.2	2.28e-04	0	57	0	782237696	53	5103
2026-01-20 22:57:57.21	60.52	36.29	-41.2	-44.0	12.1	2.16e-04	0	57	0	785383424	53	5159
2026-01-20 22:57:58.22	60.86	36.43	-41.2	-44.1	12.1	2.59e-04	0	57	0	788529152	53	5166
2026-01-20 22:57:59.23	61.20	36.57	-41.3	-44.2	12.1	3.04e-04	0	57	0	791674880	53	5219
2026-01-20 22:58:00.24	61.54	36.71	-41.3	-44.2	12.0	3.25e-04	0	58	0	794820608	53	5238
2026-01-20 22:58:01.25	61.89	36.85	-41.3	-44.2	12.0	3.05e-04	0	57	0	797966336	53	5265
2026-01-20 22:58:02.26	62.24	36.99	-41.2	-44.0	12.2	2.71e-04	0	57	0	801112064	53	5159
2026-01-20 22:58:03.27	62.59	37.13	-41.1	-43.9	12.4	1.73e-04	0	58	0	804257792	53	5042
2026-01-20 22:58:04.28	62.95	37.27	-41.0	-43.7	12.6	9.61e-05	0	57	0	807403520	53	4931
2026-01-20 22:58:05.29	63.30	37.40	-41.0	-43.6	12.7	8.46e-05	0	58	0	810549248	53	4895
2026-01-20 22:58:06.30	63.67	37.54	-41.0	-43.7	12.5	1.14e-04	0	58	0	813694976	53	4968
2026-01-20 22:58:07.31	64.03	37.68	-41.2	-43.9	12.3	1.73e-04	0	57	0	816840704	53	5098
2026-01-20 22:58:08.32	64.40	37.81	-41.2	-44.0	12.3	1.52e-04	0	57	0	819986432	53	5112
2026-01-20 22:58:09.33	64.77	37.95	-41.3	-44.1	12.1	2.09e-04	0	58	0	823132160	53	5216
2026-01-20 22:58:10.34	65.14	38.08	-41.4	-44.3	12.0	3.23e-04	0	57	0	826277888	53	5314
2026-01-20 22:58:11.35	65.52	38.21	-41.4	-44.3	12.0	3.62e-04	0	58	0	829423616	53	5307
2026-01-20 22:58:12.36	65.90	38.35	-41.4	-44.3	11.9	3.76e-04	0	58	0	832569344	53	5324
2026-01-20 22:58:13.37	66.28	38.48	-41.4	-44.4	11.9	4.13e-04	0	58	0	835715072	53	5365
2026-01-20 22:58:14.38	66.66	38.61	-41.5	-44.4	11.9	3.29e-04	0	57	0	838860800	53	5381
2026-01-20 22:58:15.39	67.05	38.74	-41.5	-44.5	11.7	4.23e-04	0	57	0	842006528	53	5449
2026-01-20 22:58:16.40	67.44	38.86	-41.6	-44.7	11.6	6.81e-04	0	57	0	845152256	53	5552
2026-01-20 22:58:17.41	67.84	38.99	-41.9	-45.1	11.2	1.15e-03	0	58	0	848297984	54	5473
2026-01-20 22:58:18.42	68.24	39.12	-42.0	-45.4	10.9	2.19e-03	0	58	0	851443712	54	5679
2026-01-20 22:58:19.43	68.64	39.24	-42.1	-45.5	10.8	2.41e-03	0	58	0	854589440	54	5724
2026-01-20 22:58:20.44	69.04	39.37	-41.9	-45.1	11.1	1.63e-03	0	58	0	857735168	54	5521
2026-01-20 22:58:21.45	69.45	39.49	-41.9	-45.1	11.2	1.41e-03	0	57	0	860880896	54	5470
2026-01-20 22:58:22.46	69.86	39.61	-41.9	-45.2	11.1	1.75e-03	0	57	0	864026624	54	5535
2026-01-20 22:58:23.47	70.27	39.73	-42.0	-45.3	11.0	1.59e-03	0	58	0	867172352	54	5614
2026-01-20 22:58:24.48	70.69	39.85	-42.0	-45.3	11.0	1.99e-03	0	58	0	870318080	54	5621
2026-01-20 22:58:25.49	71.11	39.97	-42.2	-45.7	10.6	2.69e-03	0	57	0	873463808	54	5861
2026-01-20 22:58:26.50	71.53	40.09	-42.2	-45.7	10.5	3.71e-03	0	57	0	876609536	55	5586
2026-01-20 22:58:27.50	71.95	40.20	-42.2	-45.7	10.5	3.86e-03	0	57	0	879755264	55	5541
2026-01-20 22:58:28.51	72.38	40.31	-42.1	-45.5	10.7	3.48e-03	0	58	0	882900992	55	5449
2026-01-20 22:58:29.52	72.81	40.43	-42.1	-45.4	10.8	2.47e-03	0	58	0	886046720	55	5400
2026-01-20 22:58:30.54	73.25	40.54	-42.0	-45.3	10.9	2.41e-03	0	58	0	889192448	55	5325
2026-01-20 22:58:31.54	73.68	40.65	-41.9	-45.1	11.1	1.92e-03	0	58	0	892338176	55	5217
2026-01-20 22:58:32.55	74.12	40.76	-41.9	-45.2	11.1	1.72e-03	0	58	0	895483904	55	5236
2026-01-20 22:58:33.56	74.56	40.86	-42.0	-45.3	10.9	1.92e-03	0	57	0	898629632	55	5282
2026-01-20 22:58:34.58	75.01	40.97	-42.1	-45.5	10.8	2.87e-03	0	58	0	901775360	55	5435
2026-01-20 22:58:35.59	75.46	41.07	-42.2	-45.8	10.5	3.73e-03	0	57	0	904921088	55	5596
2026-01-20 22:58:36.59	75.91	41.17	-42.1	-45.6	10.7	3.34e-03	0	58	0	908066816	55	5483
2026-01-20 22:58:37.60	76.36	41.27	-42.1	-45.5	10.8	2.75e-03	0	58	0	911212544	55	5429
2026-01-20 22:58:38.61	76.82	41.37	-42.0	-45.4	10.9	2.29e-03	0	58	0	914358272	55	5360
2026-01-20 22:58:39.62	77.28	41.47	-42.0	-45.2	11.0	2.08e-03	0	58	0	917504000	55	5252
2026-01-20 22:58:40.63	77.74	41.56	-41.9	-45.1	11.1	1.47e-03	0	58	0	920649728	55	5184
2026-01-20 22:58:41.64	78.21	41.66	-42.1	-45.4	10.8	2.26e-03	0	58	0	923795456	55	5391
2026-01-20 22:58:42.65	78.67	41.75	-42.2	-45.6	10.7	3.03e-03	0	58	0	926941184	55	5489
2026-01-20 22:58:43.66	79.14	41.84	-42.3	-45.8	10.5	4.18e-03	0	58	0	930086912	55	5626
2026-01-20 22:58:44.67	79.62	41.92	-42.1	-45.4	10.8	3.41e-03	0	57	0	933232640	55	5394
2026-01-20 22:58:45.68	80.09	42.01	-41.8	-44.9	11.4	1.25e-03	0	58	0	936378368	55	5071
2026-01-20 22:58:46.69	80.57	42.09	-41.8	-45.0	11.3	1.21e-03	0	58	0	939524096	55	5119
2026-01-20 22:58:47.70	81.05	42.18	-41.9	-45.2	10.9	1.65e-03	0	58	0	942669824	55	5274
2026-01-20 22:58:48.71	81.53	42.26	-42.0	-45.4	10.8	2.57e-03	0	58	0	945815552	55	5388
2026-01-20 22:58:49.72	82.02	42.33	-41.9	-45.1	11.1	1.89e-03	0	57	0	948961280	55	5185
2026-01-20 22:58:50.73	82.51	42.41	-41.8	-44.9	11.5	9.89e-04	0	58	0	952107008	55	5051
2026-01-20 22:58:51.74	83.00	42.48	-41.7	-44.8	11.5	8.67e-04	0	58	0	955252736	55	4987
2026-01-20 22:58:52.75	83.49	42.55	-41.7	-44.7	11.6	7.17e-04	0	58	0	958398464	55	4934
2026-01-20 22:58:53.76	83.98	42.62	-41.8	-44.9	11.4	9.46e-04	0	57	0	961544192	55	5077
2026-01-20 22:58:54.77	84.48	42.69	-41.8	-45.0	11.3	1.21e-03	0	58	0	964689920	55	5136
2026-01-20 22:58:55.78	84.98	42.75	-41.8	-44.8	11.5	9.96e-04	0	58	0	967835648	55	5034
2026-01-20 22:58:56.79	85.48	42.81	-41.8	-44.9	11.4	8.35e-04	0	58	0	970981376	55	5067
2026-01-20 22:58:57.80	85.98	42.87	-42.0	-45.3	11.1	1.51e-03	0	58	0	974127104	55	5283
2026-01-20 22:58:58.81	86.48	42.93	-42.2	-45.6	10.7	2.33e-03	0	58	0	977272832	55	5493
2026-01-20 22:58:59.82	86.99	42.99	-42.1	-45.5	10.7	3.02e-03	0	58	0	980418560	55	5463
2026-01-20 22:59:00.83	87.50	43.04	-41.9	-45.1	11.1	2.04e-03	0	58	0	983564288	55	5203
2026-01-20 22:59:01.83	88.00	43.09	-41.8	-44.9	11.5	9.53e-04	0	58	0	986710016	55	5042
2026-01-20 22:59:02.84	88.51	43.14	-41.6	-44.6	11.8	6.84e-04	0	58	0	989855744	55	4911
2026-01-20 22:59:03.85	89.02	43.18	-41.6	-44.6	11.8	4.56e-04	0	58	0	993001472	55	4882
2026-01-20 22:59:04.86	89.54	43.23	-41.7	-44.8	11.5	6.90e-04	0	58	0	996147200	55	5004
2026-01-20 22:59:05.87	90.05	43.27	-41.9	-45.0	11.3	1.02e-03	0	58	0	999292928	55	5147
2026-01-20 22:59:06.88	90.57	43.31	-41.9	-45.0	11.3	1.13e-03	0	58	0	1002438656	55	5139
2026-01-20 22:59:07.89	91.08	43.34	-41.8	-44.9	11.4	1.09e-03	0	58	0	1005584384	55	5091
2026-01-20 22:59:08.90	91.60	43.37	-41.7	-44.7	11.7	6.28e-04	0	58	0	1008730112	55	4933
2026-01-20 22:59:09.91	92.12	43.40	-41.6	-44.6	11.8	5.32e-04	0	58	0	1011875840	55	4912
2026-01-20 22:59:10.92	92.64	43.43	-41.8	-44.9	11.5	7.16e-04	0	58	0	1015021568	55	5056
2026-01-20 22:59:11.93	93.16	43.46	-41.9	-45.1	11.2	1.37e-03	0	58	0	1018167296	55	5211
2026-01-20 22:59:12.94	93.68	43.48	-42.0	-45.2	11.2	1.56e-03	0	58	0	1021313024	55	5225
2026-01-20 22:59:13.95	94.21	43.50	-41.9	-45.0	11.3	1.25e-03	0	58	0	1024458752	55	5157
2026-01-20 22:59:14.96	94.73	43.52	-41.9	-45.0	11.3	1.30e-03	0	58	0	1027604480	55	5141
2026-01-20 22:59:15.97	95.25	43.53	-41.8	-44.9	11.4	9.70e-04	0	58	0	1030750208	55	5068
2026-01-20 22:59:16.98	95.78	43.55	-41.8	-44.9	11.5	8.14e-04	0	57	0	1033895936	55	5051
2026-01-20 22:59:17.99	96.30	43.56	-41.7	-44.7	11.6	7.06e-04	0	58	0	1037041664	55	4967
2026-01-20 22:59:18.99	96.82	43.56	-41.7	-44.7	11.7	5.95e-04	0	58	0	1040187392	55	4947
2026-01-20 22:59:20.00	97.35	43.57	-41.5	-44.4	11.9	4.05e-04	0	58	0	1043333120	55	4811
2026-01-20 22:59:21.01	97.87	43.57	-41.7	-44.7	11.7	4.71e-04	0	58	0	1046478848	55	4952
2026-01-20 22:59:22.02	98.40	43.57	-41.7	-44.7	11.6	6.96e-04	0	58	0	1050673152	55	4976
2026-01-20 22:59:23.03	98.93	43.57	-41.7	-44.7	11.6	6.01e-04	0	58	0	1052770304	55	4967
2026-01-20 22:59:24.04	99.45	43.56	-41.7	-44.8	11.6	7.03e-04	0	58	0	1055916032	55	4984
2026-01-20 22:59:25.05	99.98	43.55	-41.9	-45.0	11.3	1.18e-03	0	58	0	1059061760	55	5150
2026-01-20 22:59:26.06	100.50	43.54	-41.9	-45.2	11.1	1.40e-03	0	58	0	1062207488	55	5228
2026-01-20 22:59:27.07	101.03	43.53	-42.0	-45.2	11.0	1.46e-03	0	58	0	1065353216	55	5266
2026-01-20 22:59:28.08	101.55	43.51	-41.9	-45.0	11.4	1.41e-03	0	58	0	1069547520	55	5147
2026-01-20 22:59:29.09	102.07	43.49	-41.8	-45.0	11.4	9.67e-04	0	58	0	1072693248	55	5102
2026-01-20 22:59:30.10	102.60	43.47	-41.9	-45.1	11.2	1.28e-03	0	58	0	1074790400	55	5173
2026-01-20 22:59:31.11	103.12	43.45	-41.9	-45.1	11.1	1.65e-03	0	58	0	1077936128	55	5204
2026-01-20 22:59:32.12	103.64	43.42	-41.9	-45.1	11.2	1.28e-03	0	58	0	1082130432	55	5177
2026-01-20 22:59:33.13	104.16	43.39	-41.8	-44.9	11.4	1.02e-03	0	58	0	1085276160	55	5063
2026-01-20 22:59:34.14	104.68	43.36	-42.0	-45.3	11.0	1.47e-03	0	58	0	1088421888	55	5296
2026-01-20 22:59:35.15	105.20	43.33	-42.2	-45.6	10.6	3.30e-03	0	58	0	1091567616	55	5523
2026-01-20 22:59:36.16	105.71	43.29	-42.4	-46.1	10.2	5.82e-03	0	58	0	1094713344	55	5795
2026-01-20 22:59:37.17	106.23	43.25	-42.4	-46.0	10.3	5.02e-03	0	58	0	1097859072	55	5740
2026-01-20 22:59:38.18	106.74	43.21	-42.2	-45.6	10.8	2.92e-03	0	58	0	1101004800	55	5473
2026-01-20 22:59:39.19	107.26	43.16	-42.1	-45.5	10.8	2.63e-03	0	58	0	1104150528	55	5448
2026-01-20 22:59:40.20	107.77	43.12	-42.0	-45.3	10.9	2.12e-03	0	58	0	1107296256	55	5323
2026-01-20 22:59:41.21	108.28	43.07	-42.0	-45.2	11.1	1.75e-03	0	58	0	1110441984	55	5272
2026-01-20 22:59:42.22	108.79	43.02	-41.8	-45.0	11.4	1.09e-03	0	58	0	1113587712	55	5114
2026-01-20 22:59:43.23	109.30	42.96	-41.9	-45.1	11.3	1.19e-03	0	58	0	1116733440	55	5163
2026-01-20 22:59:44.23	109.80	42.91	-42.0	-45.3	11.1	1.41e-03	0	58	0	1119879168	55	5291
2026-01-20 22:59:45.24	110.30	42.85	-42.1	-45.5	10.8	2.30e-03	0	58	0	1123024896	55	5464
2026-01-20 22:59:46.25	110.80	42.79	-42.1	-45.6	10.7	2.93e-03	0	58	0	1126170624	55	5470
2026-01-20 22:59:47.26	111.30	42.72	-41.9	-45.2	11.2	1.76e-03	0	58	0	1129316352	55	5256
2026-01-20 22:59:48.27	111.80	42.66	-41.7	-44.7	11.7	8.08e-04	0	58	0	1132462080	55	4953
2026-01-20 22:59:49.28	112.30	42.59	-41.4	-44.3	12.1	3.65e-04	0	58	0	1135607808	54	5011
2026-01-20 22:59:50.29	112.79	42.52	-41.5	-44.4	12.0	2.70e-04	0	58	0	1138753536	54	5063
2026-01-20 22:59:51.30	113.28	42.45	-41.5	-44.5	11.9	3.53e-04	0	58	0	1141899264	54	5126
2026-01-20 22:59:52.31	113.77	42.37	-41.9	-45.1	11.3	1.06e-03	0	58	0	1145044992	54	5514
2026-01-20 22:59:53.32	114.26	42.30	-42.3	-45.8	10.5	3.13e-03	0	58	0	1148190720	55	5628
2026-01-20 22:59:54.33	114.74	42.22	-42.4	-46.1	10.3	4.95e-03	0	58	0	1151336448	55	5817
2026-01-20 22:59:55.34	115.23	42.14	-42.3	-45.9	10.4	4.88e-03	0	58	0	1154482176	55	5681
2026-01-20 22:59:56.35	115.71	42.05	-42.0	-45.2	11.0	2.02e-03	0	58	0	1157627904	55	5269
2026-01-20 22:59:57.36	116.19	41.97	-41.9	-45.0	11.3	1.21e-03	0	58	0	1160773632	55	5155
2026-01-20 22:59:58.37	116.66	41.88	-41.8	-44.9	11.5	1.00e-03	0	58	0	1163919360	55	5081
2026-01-20 22:59:59.38	117.13	41.79	-41.8	-44.9	11.4	1.11e-03	0	58	0	1167065088	55	5071
2026-01-20 23:00:00.39	117.60	41.70	-41.8	-44.9	11.4	7.98e-04	0	58	0	1170210816	55	5073
2026-01-20 23:00:01.40	118.07	41.61	-42.0	-45.3	11.0	1.36e-03	0	58	0	1173356544	55	5312
2026-01-20 23:00:02.41	118.54	41.52	-42.3	-45.9	10.3	3.95e-03	0	58	0	1176502272	55	5703
2026-01-20 23:00:03.41	118.99	41.42	-42.5	-46.2	10.0	8.16e-03	0	58	0	1179648000	55	5905
2026-01-20 23:00:04.42	119.45	41.32	-42.2	-45.7	10.5	5.48e-03	0	58	0	1182793728	55	5591
2026-01-20 23:00:05.43	119.91	41.22	-41.9	-45.1	11.2	1.50e-03	0	58	0	1185939456	55	5188
2026-01-20 23:00:06.44	120.36	41.12	-41.9	-45.1	11.2	1.50e-03	0	58	0	1189085184	55	5184
2026-01-20 23:00:07.45	120.82	41.02	-42.1	-45.5	10.8	2.71e-03	0	58	0	1192230912	55	5408
2026-01-20 23:00:08.46	121.26	40.92	-42.0	-45.4	10.9	2.44e-03	0	58	0	1195376640	55	5351
2026-01-20 23:00:09.47	121.71	40.81	-42.1	-45.4	10.8	2.18e-03	0	58	0	1198522368	55	5388
2026-01-20 23:00:10.48	122.15	40.70	-42.2	-45.7	10.6	3.33e-03	0	58	0	1201668096	55	5529
2026-01-20 23:00:11.49	122.59	40.59	-42.2	-45.6	10.7	3.16e-03	0	58	0	1204813824	55	5488
2026-01-20 23:00:12.50	123.03	40.48	-42.1	-45.5	10.8	2.35e-03	0	58	0	1207959552	55	5439
2026-01-20 23:00:13.51	123.46	40.37	-41.9	-45.1	11.2	1.42e-03	0	58	0	1211105280	55	5177
2026-01-20 23:00:14.52	123.89	40.26	-41.6	-44.6	11.7	7.55e-04	0	58	0	1214251008	55	4923
2026-01-20 23:00:15.52	124.32	40.14	-41.5	-44.5	11.9	5.08e-04	0	58	0	1217396736	55	4823
2026-01-20 23:00:16.53	124.74	40.02	-41.5	-44.5	11.9	3.42e-04	0	58	0	1220542464	54	5114
2026-01-20 23:00:17.54	125.16	39.91	-41.7	-44.8	11.6	6.54e-04	0	58	0	1223688192	54	5297
2026-01-20 23:00:18.55	125.58	39.79	-41.9	-45.1	11.2	1.17e-03	0	58	0	1226833920	54	5494
2026-01-20 23:00:19.57	126.00	39.67	-41.9	-45.1	11.2	1.43e-03	0	58	0	1229979648	54	5485
2026-01-20 23:00:20.57	126.41	39.55	-41.6	-44.6	11.8	8.77e-04	0	58	0	1233125376	54	5164
2026-01-20 23:00:21.58	126.82	39.42	-41.4	-44.2	12.1	3.61e-04	0	58	0	1236271104	54	4972
2026-01-20 23:00:22.59	127.23	39.30	-41.7	-44.8	11.6	6.07e-04	0	58	0	1239416832	54	5296
2026-01-20 23:00:23.60	127.63	39.17	-41.9	-45.1	11.2	1.36e-03	0	58	0	1242562560	54	5514
2026-01-20 23:00:24.61	128.03	39.05	-42.0	-45.3	11.0	1.98e-03	0	58	0	1245708288	54	5644
2026-01-20 23:00:25.62	128.43	38.92	-41.9	-45.1	11.3	1.37e-03	0	58	0	1248854016	54	5468
2026-01-20 23:00:26.63	128.82	38.79	-41.9	-45.1	11.2	1.37e-03	0	58	0	1251999744	54	5489
2026-01-20 23:00:27.64	129.22	38.66	-42.0	-45.3	11.0	1.63e-03	0	58	0	1255145472	54	5629
2026-01-20 23:00:28.65	129.60	38.53	-42.1	-45.5	10.8	2.40e-03	0	58	0	1258291200	54	5728
2026-01-20 23:00:29.66	129.99	38.40	-41.9	-45.1	11.3	1.44e-03	0	58	0	1261436928	54	5476
2026-01-20 23:00:30.67	130.37	38.27	-41.8	-44.9	11.4	1.05e-03	0	58	0	1264582656	54	5399
2026-01-20 23:00:31.68	130.75	38.14	-41.8	-44.8	11.5	9.39e-04	0	58	0	1267728384	54	5338
2026-01-20 23:00:32.69	131.13	38.00	-41.6	-44.5	11.8	5.23e-04	0	58	0	1270874112	54	5153
2026-01-20 23:00:33.70	131.50	37.87	-41.6	-44.6	11.7	4.79e-04	0	58	0	1274019840	54	5194
2026-01-20 23:00:34.71	131.87	37.73	-41.5	-44.4	11.9	3.91e-04	0	58	0	1277165568	54	5077
2026-01-20 23:00:35.72	132.24	37.59	-41.4	-44.3	12.0	3.42e-04	0	58	0	1280311296	54	5037
2026-01-20 23:00:36.73	132.60	37.46	-41.3	-44.2	12.2	2.42e-04	0	58	0	1283457024	54	4930
2026-01-20 23:00:37.73	132.96	37.32	-41.3	-44.1	12.2	2.19e-04	0	58	0	1286602752	54	4924
2026-01-20 23:00:38.75	133.32	37.18	-41.3	-44.1	12.2	2.20e-04	0	58	0	1289748480	54	4920
2026-01-20 23:00:39.76	133.68	37.04	-41.3	-44.1	12.3	2.07e-04	0	58	0	1292894208	54	4890
2026-01-20 23:00:40.76	134.02	36.90	-41.2	-44.0	12.3	1.91e-04	0	58	0	1296039936	54	4834
2026-01-20 23:00:41.77	134.37	36.76	-41.2	-43.9	12.4	1.69e-04	0	58	0	1299185664	54	4771
2026-01-20 23:00:42.78	134.72	36.62	-41.2	-43.9	12.4	1.93e-04	0	58	0	1302331392	54	4811
2026-01-20 23:00:43.79	135.06	36.48	-41.1	-43.8	12.6	1.23e-04	0	58	0	1305477120	54	4711
2026-01-20 23:00:44.80	135.40	36.34	-41.1	-43.8	12.5	1.09e-04	0	58	0	1308622848	54	4725
2026-01-20 23:00:45.81	135.74	36.20	-41.1	-43.8	12.5	1.14e-04	0	58	0	1311768576	54	4759
2026-01-20 23:00:46.82	136.08	36.06	-41.2	-43.9	12.4	1.53e-04	0	58	0	1314914304	54	4795
2026-01-20 23:00:47.83	136.41	35.91	-41.2	-43.9	12.4	1.21e-04	0	58	0	1318060032	54	4813
2026-01-20 23:00:48.84	136.74	35.77	-41.2	-44.0	12.3	1.72e-04	0	58	0	1321205760	54	4852
2026-01-20 23:00:49.85	137.06	35.63	-41.3	-44.1	12.2	1.81e-04	0	58	0	1324351488	54	4874
2026-01-20 23:00:50.86	137.38	35.48	-41.2	-44.0	12.3	1.76e-04	0	58	0	1327497216	54	4824
2026-01-20 23:00:51.87	137.71	35.34	-41.2	-44.0	12.3	1.94e-04	0	58	0	1330642944	54	4821
2026-01-20 23:00:52.88	138.02	35.19	-41.2	-43.9	12.4	1.34e-04	0	58	0	1333788672	54	4792
2026-01-20 23:00:53.89	138.34	35.05	-41.2	-43.9	12.4	1.67e-04	0	58	0	1336934400	54	4806
2026-01-20 23:00:54.89	138.65	34.90	-41.2	-44.0	12.3	1.69e-04	0	58	0	1340080128	54	4847
2026-01-20 23:00:55.90	138.96	34.76	-41.2	-43.9	12.3	1.97e-04	0	58	0	1343225856	54	4814
2026-01-20 23:00:56.92	139.27	34.61	-41.1	-43.9	12.4	1.59e-04	0	58	0	1346371584	54	4795
2026-01-20 23:00:57.93	139.57	34.46	-41.1	-43.9	12.4	1.26e-04	0	58	0	1349517312	54	4765
2026-01-20 23:00:58.94	139.87	34.32	-41.1	-43.8	12.5	1.18e-04	0	58	0	1352663040	54	4741
2026-01-20 23:00:59.95	140.17	34.17	-40.9	-43.5	12.7	7.24e-05	0	58	0	1355808768	53	4861
2026-01-20 23:01:00.96	140.47	34.02	-40.8	-43.4	12.9	4.80e-05	0	58	0	1358954496	53	4802
2026-01-20 23:01:01.97	140.76	33.88	-40.8	-43.4	12.9	5.34e-05	0	58	0	1362100224	53	4794
2026-01-20 23:01:02.98	141.05	33.73	-40.9	-43.5	12.8	4.19e-05	0	58	0	1365245952	53	4827
2026-01-20 23:01:03.99	141.34	33.58	-40.7	-43.3	13.0	3.66e-05	0	58	0	1368391680	53	4717
2026-01-20 23:01:05.00	141.62	33.44	-40.6	-43.1	13.2	1.67e-05	0	58	0	1371537408	53	4607
2026-01-20 23:01:06.01	141.91	33.29	-40.4	-42.7	13.6	9.10e-06	0	58	0	1374683136	52	4704
2026-01-20 23:01:07.02	142.19	33.14	-40.3	-42.6	13.7	6.10e-06	0	58	0	1377828864	52	4646
2026-01-20 23:01:08.03	142.47	32.99	-40.3	-42.7	13.7	3.00e-06	0	58	0	1380974592	52	4662
2026-01-20 23:01:09.04	142.74	32.85	-40.2	-42.5	13.9	6.80e-06	0	58	0	1384120320	52	4556
2026-01-20 23:01:10.05	143.01	32.70	-40.0	-42.2	14.1	2.20e-06	0	58	0	1387266048	52	4437
2026-01-20 23:01:11.05	143.28	32.55	-40.0	-42.3	14.1	1.50e-06	0	58	0	1390411776	52	4442
2026-01-20 23:01:12.06	143.55	32.41	-40.1	-42.2	14.2	3.80e-06	0	58	0	1393557504	51	4704
2026-01-20 23:01:13.07	143.82	32.26	-40.0	-42.2	14.2	1.50e-06	0	58	0	1396703232	51	4692
2026-01-20 23:01:14.08	144.08	32.11	-40.1	-42.3	14.1	2.20e-06	0	58	0	1399848960	51	4718
2026-01-20 23:01:15.09	144.34	31.96	-40.1	-42.3	14.2	7.00e-07	0	58	0	1402994688	51	4709
2026-01-20 23:01:16.10	144.60	31.82	-40.0	-42.2	14.2	1.50e-06	0	58	0	1406140416	51	4674
2026-01-20 23:01:17.11	144.86	31.67	-40.1	-42.3	14.1	1.50e-06	0	58	0	1409286144	51	4728
2026-01-20 23:01:18.12	145.11	31.52	-40.1	-42.4	14.0	2.20e-06	0	58	0	1413480448	51	4772
2026-01-20 23:01:19.13	145.37	31.38	-40.2	-42.5	13.9	1.50e-06	0	58	0	1415577600	51	4843
2026-01-20 23:01:20.14	145.62	31.23	-40.1	-42.4	14.0	2.20e-06	0	58	0	1418723328	51	4777
2026-01-20 23:01:21.15	145.86	31.08	-40.1	-42.4	13.9	3.80e-06	0	58	0	1421869056	51	4785
2026-01-20 23:01:22.17	146.11	30.94	-40.1	-42.3	14.0	7.00e-07	0	58	0	1425014784	51	4746
2026-01-20 23:01:23.18	146.36	30.79	-39.9	-42.0	14.3	7.00e-07	0	58	0	1429209088	51	4590
2026-01-20 23:01:24.18	146.59	30.65	-39.9	-42.0	14.3	3.00e-06	0	58	0	1432354816	51	4581
2026-01-20 23:01:25.19	146.83	30.50	-39.8	-42.0	14.4	1.50e-06	0	58	0	1435500544	51	4555
2026-01-20 23:01:26.21	147.07	30.35	-39.9	-42.0	14.4	7.00e-07	0	58	0	1437597696	51	4565
2026-01-20 23:01:27.21	147.31	30.21	-40.0	-42.2	14.2	1.50e-06	0	58	0	1440743424	51	4658
2026-01-20 23:01:28.22	147.54	30.07	-40.1	-42.3	14.1	1.50e-06	0	58	0	1444937728	51	4715
2026-01-20 23:01:29.23	147.77	29.92	-40.2	-42.4	14.0	3.00e-06	0	58	0	1448083456	51	4793
2026-01-20 23:01:30.24	148.00	29.78	-40.2	-42.5	13.9	3.00e-06	0	58	0	1451229184	51	4832
2026-01-20 23:01:31.25	148.23	29.63	-40.1	-42.3	14.0	3.00e-06	0	58	0	1454374912	51	4742
2026-01-20 23:01:32.26	148.45	29.49	-40.1	-42.4	14.0	7.00e-07	0	58	0	1457520640	51	4784
2026-01-20 23:01:33.27	148.67	29.34	-40.2	-42.5	13.8	4.50e-06	0	58	0	1460666368	51	4864
2026-01-20 23:01:34.28	148.90	29.20	-40.3	-42.6	13.7	9.10e-06	0	58	0	1463812096	51	4910
2026-01-20 23:01:35.29	149.11	29.06	-40.3	-42.6	13.7	6.10e-06	0	58	0	1466957824	51	4908
2026-01-20 23:01:36.30	149.33	28.92	-40.3	-42.6	13.7	5.30e-06	0	58	0	1470103552	51	4916
2026-01-20 23:01:37.31	149.55	28.77	-40.3	-42.5	13.8	5.30e-06	0	58	0	1473249280	51	4865
2026-01-20 23:01:38.32	149.76	28.63	-40.2	-42.5	13.8	4.50e-06	0	58	0	1476395008	51	4860
2026-01-20 23:01:39.33	149.97	28.49	-40.3	-42.7	13.6	6.80e-06	0	58	0	1479540736	51	4927
2026-01-20 23:01:40.34	150.18	28.35	-40.4	-42.8	13.5	7.60e-06	0	58	0	1482686464	51	5023
2026-01-20 23:01:41.35	150.39	28.21	-40.4	-42.8	13.5	1.29e-05	0	58	0	1485832192	51	5025
2026-01-20 23:01:42.36	150.60	28.06	-40.5	-43.0	13.3	9.90e-06	0	58	0	1488977920	51	5114
2026-01-20 23:01:43.37	150.80	27.92	-40.4	-42.8	13.5	1.29e-05	0	58	0	1492123648	51	5028
2026-01-20 23:01:44.38	151.00	27.78	-40.4	-42.8	13.5	1.22e-05	0	58	0	1495269376	51	5021
2026-01-20 23:01:45.39	151.21	27.64	-40.4	-42.9	13.4	9.90e-06	0	58	0	1498415104	51	5043
2026-01-20 23:01:46.40	151.40	27.50	-40.5	-42.9	13.4	1.52e-05	0	58	0	1501560832	51	5066
2026-01-20 23:01:47.41	151.60	27.36	-40.4	-42.9	13.4	1.37e-05	0	58	0	1504706560	51	5057
2026-01-20 23:01:48.42	151.80	27.22	-40.5	-42.9	13.4	1.44e-05	0	58	0	1507852288	51	5082
2026-01-20 23:01:49.43	151.99	27.09	-40.4	-42.7	13.5	1.44e-05	0	58	0	1510998016	51	4982
2026-01-20 23:01:50.44	152.19	26.95	-40.4	-42.8	13.4	1.52e-05	0	58	0	1514143744	51	5023
2026-01-20 23:01:51.45	152.38	26.81	-40.5	-43.0	13.3	1.37e-05	0	58	0	1517289472	51	5103
2026-01-20 23:01:52.46	152.57	26.67	-40.4	-42.8	13.4	1.83e-05	0	58	0	1520435200	51	5007
2026-01-20 23:01:53.47	152.75	26.54	-40.3	-42.7	13.6	6.10e-06	0	58	0	1523580928	51	4937
2026-01-20 23:01:54.48	152.94	26.40	-40.2	-42.5	13.7	6.10e-06	0	58	0	1526726656	51	4840
2026-01-20 23:01:55.49	153.12	26.26	-40.1	-42.4	13.9	3.80e-06	0	58	0	1529872384	51	4770
2026-01-20 23:01:56.50	153.31	26.13	-40.1	-42.3	13.9	3.80e-06	0	58	0	1533018112	51	4758
2026-01-20 23:01:57.51	153.49	25.99	-39.9	-42.0	14.2	3.00e-06	0	58	0	1536163840	51	4598
2026-01-20 23:01:58.52	153.67	25.86	-39.8	-42.0	14.3	2.20e-06	0	58	0	1539309568	51	4553
2026-01-20 23:01:59.53	153.85	25.72	-39.9	-42.0	14.2	0.00e+00	0	58	0	1542455296	51	4593
2026-01-20 23:02:00.54	154.03	25.59	-39.8	-42.0	14.2	7.00e-07	0	58	0	1545601024	51	4582
2026-01-20 23:02:01.55	154.20	25.45	-40.0	-42.2	14.1	1.50e-06	0	58	0	1548746752	51	4667
2026-01-20 23:02:02.56	154.38	25.32	-40.0	-42.3	14.0	2.20e-06	0	58	0	1551892480	51	4708
2026-01-20 23:02:03.57	154.55	25.18	-40.1	-42.3	13.9	4.50e-06	0	58	0	1555038208	51	4747
2026-01-20 23:02:04.58	154.72	25.05	-40.2	-42.5	13.8	2.20e-06	0	58	0	1558183936	51	4822
2026-01-20 23:02:05.60	154.89	24.92	-40.1	-42.4	13.8	4.50e-06	0	58	0	1561329664	51	4812
2026-01-20 23:02:06.61	155.06	24.79	-40.1	-42.4	13.9	2.20e-06	0	58	0	1564475392	51	4773
2026-01-20 23:02:07.62	155.23	24.65	-40.0	-42.3	13.9	5.30e-06	0	58	0	1567621120	51	4737
2026-01-20 23:02:08.63	155.39	24.52	-40.0	-42.3	14.0	3.00e-06	0	58	0	1570766848	51	4709
2026-01-20 23:02:09.64	155.56	24.39	-39.9	-42.2	14.0	2.20e-06	0	58	0	1573912576	51	4664
2026-01-20 23:02:10.65	155.72	24.26	-40.0	-42.2	14.0	2.20e-06	0	58	0	1577058304	51	4677
2026-01-20 23:02:11.66	155.88	24.13	-40.0	-42.2	14.0	4.50e-06	0	58	0	1580204032	51	4688
2026-01-20 23:02:12.67	156.04	24.00	-39.9	-42.2	14.0	2.20e-06	0	58	0	1583349760	51	4658
2026-01-20 23:02:13.67	156.20	23.87	-39.9	-42.1	14.0	3.80e-06	0	58	0	1586495488	51	4625
2026-01-20 23:02:14.68	156.36	23.75	-39.9	-42.2	13.9	2.20e-06	0	58	0	1589641216	51	4655
2026-01-20 23:02:15.69	156.52	23.62	-39.9	-42.1	14.0	5.30e-06	0	58	0	1592786944	51	4619
2026-01-20 23:02:16.70	156.67	23.49	-39.9	-42.1	13.9	3.80e-06	0	58	0	1595932672	51	4647
2026-01-20 23:02:17.71	156.83	23.36	-40.0	-42.3	13.8	8.30e-06	0	58	0	1599078400	51	4724
2026-01-20 23:02:18.72	156.98	23.23	-39.9	-42.2	14.0	7.00e-07	0	58	0	1602224128	51	4663
2026-01-20 23:02:19.73	157.13	23.11	-39.9	-42.2	13.9	5.30e-06	0	58	0	1605369856	51	4675
2026-01-20 23:02:20.74	157.28	22.98	-40.0	-42.3	13.8	3.80e-06	0	58	0	1608515584	51	4718
2026-01-20 23:02:21.75	157.43	22.86	-40.0	-42.3	13.8	5.30e-06	0	58	0	1611661312	51	4712
2026-01-20 23:02:22.76	157.58	22.73	-40.0	-42.3	13.8	3.00e-06	0	58	0	1614807040	51	4752
2026-01-20 23:02:23.77	157.73	22.61	-40.0	-42.3	13.8	4.50e-06	0	58	0	1617952768	51	4706
2026-01-20 23:02:24.78	157.87	22.48	-40.0	-42.2	13.8	2.20e-06	0	58	0	1621098496	51	4696
2026-01-20 23:02:25.79	158.02	22.36	-40.0	-42.3	13.8	1.50e-06	0	58	0	1624244224	51	4715
2026-01-20 23:02:26.80	158.16	22.23	-40.0	-42.3	13.7	5.30e-06	0	58	0	1627389952	51	4729
2026-01-20 23:02:27.81	158.31	22.11	-40.1	-42.4	13.7	3.80e-06	0	58	0	1630535680	51	4765
2026-01-20 23:02:28.82	158.45	21.99	-40.1	-42.4	13.7	3.80e-06	0	58	0	1633681408	51	4771
2026-01-20 23:02:29.83	158.59	21.86	-40.0	-42.3	13.7	7.60e-06	0	58	0	1636827136	51	4752
2026-01-20 23:02:30.84	158.73	21.74	-40.0	-42.3	13.7	8.30e-06	0	58	0	1639972864	51	4733
2026-01-20 23:02:31.85	158.87	21.62	-40.0	-42.3	13.7	2.20e-06	0	58	0	1643118592	51	4752
2026-01-20 23:02:32.86	159.00	21.50	-40.0	-42.3	13.8	9.10e-06	0	58	0	1646264320	51	4715
2026-01-20 23:02:33.87	159.14	21.38	-40.0	-42.2	13.8	5.30e-06	0	58	0	1649410048	51	4701
2026-01-20 23:02:34.88	159.28	21.26	-39.9	-42.2	13.8	4.50e-06	0	58	0	1652555776	51	4674
2026-01-20 23:02:35.89	159.41	21.14	-40.0	-42.2	13.8	2.20e-06	0	58	0	1655701504	51	4692
2026-01-20 23:02:36.90	159.54	21.02	-40.0	-42.2	13.8	3.80e-06	0	58	0	1658847232	51	4684
2026-01-20 23:02:37.91	159.68	20.90	-40.0	-42.2	13.8	3.80e-06	0	58	0	1661992960	51	4681
2026-01-20 23:02:38.92	159.81	20.78	-39.9	-42.2	13.8	2.20e-06	0	58	0	1665138688	51	4681
2026-01-20 23:02:39.93	159.94	20.66	-40.0	-42.3	13.8	2.20e-06	0	58	0	1668284416	51	4720
2026-01-20 23:02:40.94	160.07	20.54	-40.0	-42.3	13.7	6.10e-06	0	58	0	1671430144	51	4739
2026-01-20 23:02:41.95	160.20	20.43	-40.1	-42.5	13.6	8.30e-06	0	58	0	1674575872	51	4826
2026-01-20 23:02:42.96	160.32	20.31	-40.0	-42.4	13.6	2.20e-06	0	58	0	1677721600	51	4771
2026-01-20 23:02:43.97	160.45	20.19	-40.1	-42.5	13.6	8.30e-06	0	58	0	1680867328	51	4825
2026-01-20 23:02:44.98	160.58	20.08	-40.2	-42.6	13.5	1.52e-05	0	58	0	1684013056	51	4880
2026-01-20 23:02:45.99	160.70	19.96	-40.2	-42.6	13.4	1.98e-05	0	58	0	1687158784	51	4891
2026-01-20 23:02:47.00	160.82	19.85	-40.2	-42.6	13.4	1.44e-05	0	58	0	1690304512	51	4891
2026-01-20 23:02:48.00	160.95	19.73	-40.2	-42.6	13.4	1.98e-05	0	58	0	1693450240	51	4910
2026-01-20 23:02:49.01	161.07	19.62	-40.2	-42.6	13.4	1.06e-05	0	58	0	1696595968	51	4881
2026-01-20 23:02:50.02	161.19	19.50	-40.2	-42.6	13.4	1.60e-05	0	58	0	1699741696	51	4876
2026-01-20 23:02:51.03	161.31	19.39	-40.1	-42.5	13.4	9.90e-06	0	58	0	1702887424	51	4855
2026-01-20 23:02:52.04	161.43	19.28	-40.2	-42.5	13.4	1.98e-05	0	58	0	1706033152	51	4868
2026-01-20 23:02:53.05	161.55	19.16	-40.1	-42.4	13.5	1.14e-05	0	58	0	1709178880	51	4814
2026-01-20 23:02:54.06	161.67	19.05	-40.2	-42.5	13.3	1.67e-05	0	58	0	1712324608	51	4867
2026-01-20 23:02:55.07	161.78	18.94	-40.1	-42.5	13.4	1.37e-05	0	58	0	1715470336	51	4855
2026-01-20 23:02:56.08	161.90	18.83	-40.1	-42.5	13.4	1.22e-05	0	58	0	1718616064	51	4837
2026-01-20 23:02:57.09	162.01	18.71	-40.0	-42.3	13.6	1.06e-05	0	58	0	1721761792	51	4751
2026-01-20 23:02:58.10	162.13	18.60	-40.0	-42.3	13.5	6.10e-06	0	58	0	1724907520	51	4741
2026-01-20 23:02:59.11	162.24	18.49	-40.0	-42.4	13.5	9.10e-06	0	58	0	1728053248	51	4760
2026-01-20 23:03:00.12	162.35	18.38	-40.0	-42.3	13.6	1.06e-05	0	58	0	1731198976	51	4720
2026-01-20 23:03:01.12	162.47	18.27	-39.9	-42.2	13.6	6.80e-06	0	58	0	1734344704	51	4701
2026-01-20 23:03:02.13	162.58	18.16	-40.0	-42.3	13.5	7.60e-06	0	58	0	1737490432	51	4749
2026-01-20 23:03:03.14	162.69	18.06	-39.9	-42.2	13.7	8.30e-06	0	58	0	1740636160	51	4671
2026-01-20 23:03:04.15	162.80	17.95	-39.8	-42.0	13.8	4.50e-06	0	58	0	1743781888	51	4587
2026-01-20 23:03:05.16	162.91	17.84	-39.8	-42.0	13.8	4.50e-06	0	58	0	1746927616	51	4579
2026-01-20 23:03:06.17	163.01	17.73	-39.8	-42.0	13.8	4.50e-06	0	58	0	1751121920	51	4575
2026-01-20 23:03:07.18	163.12	17.62	-39.8	-42.1	13.7	8.30e-06	0	58	0	1753219072	51	4624
2026-01-20 23:03:08.19	163.23	17.52	-39.9	-42.2	13.7	4.50e-06	0	58	0	1756364800	51	4662
2026-01-20 23:03:09.20	163.33	17.41	-40.0	-42.3	13.5	8.30e-06	0	58	0	1759510528	51	4721
2026-01-20 23:03:10.21	163.44	17.30	-40.0	-42.4	13.4	9.90e-06	0	58	0	1762656256	51	4770
2026-01-20 23:03:11.22	163.54	17.20	-40.1	-42.5	13.3	1.37e-05	0	58	0	1766850560	51	4848
2026-01-20 23:03:12.23	163.65	17.09	-40.2	-42.6	13.2	2.36e-05	0	58	0	1769996288	51	4909
2026-01-20 23:03:13.24	163.75	16.98	-40.3	-42.8	13.0	2.59e-05	0	58	0	1773142016	51	4986
2026-01-20 23:03:14.25	163.85	16.88	-40.3	-42.9	12.9	4.04e-05	0	58	0	1776287744	51	5054
2026-01-20 23:03:15.26	163.96	16.78	-40.4	-43.0	12.8	5.11e-05	0	58	0	1778384896	51	5119
2026-01-20 23:03:16.27	164.06	16.67	-40.5	-43.0	12.7	7.01e-05	0	58	0	1782579200	51	5151
2026-01-20 23:03:17.28	164.16	16.57	-40.5	-43.1	12.7	7.32e-05	0	58	0	1785724928	51	5197
2026-01-20 23:03:18.29	164.26	16.46	-40.6	-43.2	12.5	9.61e-05	0	58	0	1788870656	51	5261
2026-01-20 23:03:19.30	164.36	16.36	-40.6	-43.3	12.4	1.07e-04	0	58	0	1792016384	51	5303
2026-01-20 23:03:20.31	164.46	16.26	-40.6	-43.4	12.4	1.53e-04	0	58	0	1795162112	51	5344
2026-01-20 23:03:21.33	164.55	16.15	-40.6	-43.4	12.2	2.14e-04	0	58	0	1798307840	52	5061
2026-01-20 23:03:22.34	164.65	16.05	-40.6	-43.4	12.2	1.88e-04	0	58	0	1801453568	52	5077
2026-01-20 23:03:23.35	164.75	15.95	-40.7	-43.4	12.2	2.40e-04	0	58	0	1804599296	52	5099
2026-01-20 23:03:24.36	164.84	15.85	-40.5	-43.2	12.4	1.67e-04	0	58	0	1807745024	52	4956
2026-01-20 23:03:25.37	164.94	15.75	-40.5	-43.2	12.5	1.30e-04	0	58	0	1810890752	52	4928
2026-01-20 23:03:26.38	165.03	15.65	-40.4	-43.1	12.5	1.08e-04	0	58	0	1814036480	52	4890
2026-01-20 23:03:27.39	165.13	15.55	-40.4	-43.0	12.6	1.19e-04	0	58	0	1817182208	52	4832
2026-01-20 23:03:28.40	165.22	15.45	-40.3	-43.0	12.6	9.61e-05	0	58	0	1820327936	52	4817
2026-01-20 23:03:29.41	165.32	15.35	-40.4	-43.0	12.5	1.16e-04	0	58	0	1823473664	52	4836
2026-01-20 23:03:30.42	165.41	15.25	-40.4	-43.0	12.5	1.20e-04	0	58	0	1826619392	52	4853
2026-01-20 23:03:31.42	165.50	15.15	-40.4	-43.0	12.5	1.37e-04	0	58	0	1829765120	52	4853
2026-01-20 23:03:32.43	165.59	15.05	-40.4	-43.0	12.6	9.68e-05	0	58	0	1832910848	52	4841
2026-01-20 23:03:33.44	165.68	14.95	-40.4	-43.1	12.5	1.18e-04	0	58	0	1836056576	52	4882
2026-01-20 23:03:34.45	165.77	14.85	-40.4	-43.0	12.5	1.03e-04	0	58	0	1839202304	52	4850
2026-01-20 23:03:35.46	165.86	14.76	-40.4	-43.1	12.4	1.23e-04	0	58	0	1842348032	52	4905
2026-01-20 23:03:36.48	165.95	14.66	-40.4	-43.1	12.4	1.46e-04	0	58	0	1845493760	52	4903
2026-01-20 23:03:37.49	166.04	14.56	-40.4	-43.1	12.4	1.31e-04	0	58	0	1848639488	52	4897
2026-01-20 23:03:38.50	166.13	14.46	-40.3	-42.9	12.6	1.01e-04	0	58	0	1851785216	52	4810
2026-01-20 23:03:39.51	166.21	14.37	-40.3	-42.9	12.6	1.13e-04	0	58	0	1854930944	52	4797
2026-01-20 23:03:40.52	166.30	14.27	-40.3	-42.9	12.6	7.93e-05	0	58	0	1858076672	52	4800
2026-01-20 23:03:41.53	166.39	14.18	-40.3	-42.9	12.6	9.23e-05	0	58	0	1861222400	52	4802
2026-01-20 23:03:42.53	166.47	14.08	-40.3	-42.9	12.7	1.02e-04	0	58	0	1864368128	52	4770
2026-01-20 23:03:43.54	166.56	13.99	-40.2	-42.8	12.7	8.31e-05	0	58	0	1867513856	52	4757
2026-01-20 23:03:44.55	166.64	13.89	-40.3	-42.9	12.6	8.23e-05	0	58	0	1870659584	52	4793
2026-01-20 23:03:45.56	166.72	13.80	-40.3	-42.9	12.6	9.00e-05	0	58	0	1873805312	52	4804
2026-01-20 23:03:46.57	166.81	13.70	-40.4	-43.0	12.5	1.13e-04	0	58	0	1876951040	52	4845
2026-01-20 23:03:47.59	166.89	13.61	-40.4	-43.1	12.4	1.32e-04	0	58	0	1880096768	52	4886
2026-01-20 23:03:48.60	166.97	13.51	-40.4	-43.2	12.3	1.91e-04	0	58	0	1883242496	52	4928
2026-01-20 23:03:49.61	167.06	13.42	-40.4	-43.2	12.3	1.75e-04	0	58	0	1886388224	52	4934
2026-01-20 23:03:50.62	167.14	13.33	-40.5	-43.2	12.2	1.91e-04	0	58	0	1889533952	52	4963
2026-01-20 23:03:51.62	167.22	13.24	-40.5	-43.2	12.2	2.08e-04	0	58	0	1892679680	52	4967
2026-01-20 23:03:52.63	167.30	13.14	-40.5	-43.3	12.1	2.20e-04	0	58	0	1895825408	52	5007
2026-01-20 23:03:53.64	167.38	13.05	-40.6	-43.4	12.0	2.60e-04	0	58	0	1898971136	52	5053
2026-01-20 23:03:54.65	167.46	12.96	-40.5	-43.4	12.0	3.06e-04	0	58	0	1902116864	52	5053
2026-01-20 23:03:55.66	167.54	12.87	-40.6	-43.5	11.9	3.70e-04	0	58	0	1905262592	52	5105
