passes_logs/2026/01/05/R3.0SM8_Murmansk_STILSPACE/R3.0SM8_Murmansk_STILSPACE__20260105_085618_AQUA_rec.log

#Pass ID: 20260105_085618_AQUA
#Satellite: AQUA
#Configuration: AQUA
#almurnet v.1.7.20240730
#Start time: 2026-01-05 08:58:47

#Version: 2.2.20231116
#Station: R3.0SM8_Murmansk_STILSPACE
#Location: 33.092731 lon 68.902999 lat
#TLE: 1 27424U 02022A   26003.93831470  .00001925  00000+0  39553-3 0  9995
#TLE: 2 27424  98.4067 330.1809 0002003  92.1713 343.8415 14.61796291259276

#Time	Az	El	Level	Level2	SNR	BER	BlckErr	Temp	State	Recorded	gain1	gain2
2026-01-05 08:58:47.57	81.22	14.04	-52.6	-62.8	3.8	8.47e-01	0	57	0	0	66	12612
2026-01-05 08:58:48.56	81.07	14.13	-54.4	-74.4	3.8	7.44e-01	0	58	104	0	71	36976
2026-01-05 08:58:49.55	80.92	14.21	-54.4	-74.3	3.8	7.46e-01	0	58	104	0	71	36937
2026-01-05 08:58:50.54	80.77	14.30	-54.4	-74.4	3.8	7.44e-01	0	58	104	0	71	37154
2026-01-05 08:58:51.52	80.62	14.39	-54.4	-74.4	3.8	7.45e-01	0	58	104	0	71	37135
2026-01-05 08:58:52.51	80.46	14.47	-54.4	-74.4	3.8	7.49e-01	0	58	104	0	71	37023
2026-01-05 08:58:53.50	80.31	14.56	-54.4	-74.4	3.8	7.44e-01	0	58	104	0	71	36991
2026-01-05 08:58:54.50	80.15	14.65	-54.4	-74.4	3.8	7.42e-01	0	58	104	0	71	36963
2026-01-05 08:58:55.49	79.99	14.73	-54.4	-74.3	3.8	7.46e-01	0	58	104	0	71	36920
2026-01-05 08:58:56.48	79.83	14.82	-54.4	-74.3	3.8	7.45e-01	0	58	104	0	71	36876
2026-01-05 08:58:57.47	79.67	14.91	-54.4	-74.3	3.8	7.45e-01	0	58	104	0	71	36847
2026-01-05 08:58:58.46	79.51	14.99	-54.4	-74.3	3.8	7.44e-01	0	58	104	0	71	36838
2026-01-05 08:58:59.46	79.35	15.08	-54.4	-74.3	3.8	7.43e-01	0	58	104	0	71	36773
2026-01-05 08:59:00.45	79.19	15.17	-54.4	-74.3	3.8	7.42e-01	0	58	104	0	71	36718
2026-01-05 08:59:01.44	79.03	15.26	-54.4	-74.3	3.8	7.43e-01	0	58	104	0	71	36674
2026-01-05 08:59:02.43	78.86	15.34	-54.3	-74.3	3.8	7.42e-01	0	58	104	0	71	36564
2026-01-05 08:59:03.43	78.70	15.43	-54.3	-74.2	3.8	7.48e-01	0	58	104	0	71	36475
2026-01-05 08:59:04.42	78.53	15.52	-54.3	-74.1	3.8	7.46e-01	0	58	104	0	71	36062
2026-01-05 08:59:05.41	78.36	15.61	-54.3	-74.2	3.8	7.45e-01	0	58	104	0	71	36306
2026-01-05 08:59:06.40	78.19	15.70	-54.3	-74.2	3.8	7.43e-01	0	58	104	0	71	36248
2026-01-05 08:59:07.40	78.02	15.79	-54.2	-74.1	3.8	7.44e-01	0	58	104	0	71	36027
2026-01-05 08:59:08.39	77.85	15.87	-54.2	-74.0	3.8	7.46e-01	0	58	104	0	71	35311
2026-01-05 08:59:09.38	77.68	15.96	-54.2	-74.0	3.8	7.44e-01	0	58	104	0	71	35291
2026-01-05 08:59:10.37	77.51	16.05	-54.1	-74.0	3.8	7.44e-01	0	58	104	0	71	35507
2026-01-05 08:59:11.36	77.33	16.14	-54.1	-73.9	3.8	7.46e-01	0	58	104	0	71	34925
2026-01-05 08:59:12.35	77.16	16.23	-54.1	-73.5	3.8	7.44e-01	0	58	104	0	71	33374
2026-01-05 08:59:13.34	76.98	16.32	-54.1	-73.6	3.8	7.45e-01	0	58	104	0	71	33915
2026-01-05 08:59:14.33	76.80	16.41	-54.1	-73.6	3.8	7.46e-01	0	58	104	0	71	33980
2026-01-05 08:59:15.31	76.63	16.49	-54.1	-73.6	3.8	7.46e-01	0	58	104	0	71	34022
2026-01-05 08:59:16.30	76.45	16.58	-54.1	-73.6	3.8	7.47e-01	0	58	104	0	71	34009
2026-01-05 08:59:17.29	76.27	16.67	-54.1	-73.6	3.8	7.46e-01	0	58	104	0	71	33860
2026-01-05 08:59:18.28	76.09	16.76	-54.1	-73.5	3.8	7.44e-01	0	58	104	0	71	33603
2026-01-05 08:59:19.27	75.90	16.85	-54.1	-73.4	3.8	7.44e-01	0	58	104	0	71	33099
2026-01-05 08:59:20.25	75.72	16.94	-54.1	-73.1	3.8	7.44e-01	0	58	104	0	71	31989
2026-01-05 08:59:21.24	75.53	17.03	-54.1	-72.7	3.8	7.45e-01	0	58	104	0	71	30517
2026-01-05 08:59:22.23	75.35	17.12	-54.0	-72.2	3.8	7.43e-01	0	58	104	0	71	29002
2026-01-05 08:59:23.22	75.16	17.21	-54.0	-72.0	3.8	7.41e-01	0	58	104	0	71	28222
2026-01-05 08:59:24.21	74.97	17.30	-54.0	-71.6	3.9	7.45e-01	0	58	104	0	71	26882
2026-01-05 08:59:25.20	74.78	17.39	-54.0	-71.4	3.9	7.43e-01	0	58	104	0	71	26356
2026-01-05 08:59:26.20	74.59	17.48	-54.0	-70.5	4.2	7.34e-01	0	58	104	0	71	23708
2026-01-05 08:59:27.19	74.40	17.57	-54.0	-70.6	3.9	7.39e-01	0	58	104	0	71	23967
2026-01-05 08:59:28.17	74.20	17.65	-54.0	-70.1	4.3	7.30e-01	0	58	104	0	71	22723
2026-01-05 08:59:29.15	74.01	17.74	-54.0	-71.2	3.8	7.40e-01	0	58	104	0	71	25585
2026-01-05 08:59:30.15	73.81	17.83	-54.0	-71.2	4.0	7.39e-01	0	58	104	0	71	25711
2026-01-05 08:59:31.14	73.61	17.92	-54.0	-71.8	3.8	7.45e-01	0	58	104	0	71	27409
2026-01-05 08:59:32.13	73.42	18.01	-54.0	-71.3	3.9	7.42e-01	0	58	104	0	71	26134
2026-01-05 08:59:33.13	73.21	18.10	-54.0	-71.5	3.8	7.43e-01	0	58	104	0	71	26733
2026-01-05 08:59:34.12	73.01	18.19	-54.0	-71.5	4.0	7.39e-01	0	58	104	0	71	26670
2026-01-05 08:59:35.11	72.81	18.28	-54.1	-72.9	3.8	7.42e-01	0	58	104	0	71	31431
2026-01-05 08:59:36.10	72.61	18.37	-54.1	-73.9	3.8	7.45e-01	0	58	104	0	71	35136
2026-01-05 08:59:37.08	72.40	18.46	-54.1	-73.0	3.8	7.43e-01	0	58	104	0	71	31664
2026-01-05 08:59:38.06	72.20	18.55	-54.0	-69.2	4.2	7.26e-01	0	58	104	0	71	20371
2026-01-05 08:59:39.05	71.99	18.64	-53.7	-65.0	7.6	6.50e-01	91	58	0	1048576	71	12585
2026-01-05 08:59:40.03	71.78	18.73	-53.3	-61.6	11.1	6.09e-01	0	58	0	2621440	70	9050
2026-01-05 08:59:41.02	71.57	18.82	-52.9	-59.5	13.3	6.03e-01	0	58	0	4718592	69	7524
2026-01-05 08:59:42.00	71.36	18.91	-52.5	-58.3	14.6	6.03e-01	0	58	0	6291456	68	6883
2026-01-05 08:59:42.99	71.15	19.00	-52.5	-58.2	14.7	6.00e-01	0	58	0	8388608	68	6867
2026-01-05 08:59:43.98	70.94	19.09	-52.7	-58.6	14.4	6.02e-01	0	58	0	9961472	68	7198
2026-01-05 08:59:44.96	70.72	19.18	-52.6	-58.5	14.5	6.02e-01	0	58	0	12058624	68	7055
2026-01-05 08:59:45.95	70.51	19.27	-52.5	-58.3	14.7	6.05e-01	0	58	0	13631488	68	6896
2026-01-05 08:59:46.94	70.29	19.36	-52.5	-58.2	14.7	6.01e-01	0	58	0	15728640	68	6806
2026-01-05 08:59:47.93	70.07	19.45	-52.5	-58.1	14.8	6.02e-01	0	58	0	17301504	68	6785
2026-01-05 08:59:48.92	69.85	19.54	-52.9	-59.4	13.5	6.03e-01	0	58	0	19398656	68	7880
2026-01-05 08:59:49.91	69.62	19.62	-52.6	-58.4	14.5	6.04e-01	0	58	0	20971520	68	6987
2026-01-05 08:59:50.90	69.40	19.71	-52.1	-56.9	16.0	6.02e-01	0	58	0	23068672	67	6254
2026-01-05 08:59:51.88	69.18	19.80	-51.5	-55.5	17.3	6.02e-01	0	58	0	25165824	66	5644
2026-01-05 08:59:52.87	68.95	19.89	-50.9	-54.4	18.5	6.01e-01	0	58	0	26738688	65	5230
2026-01-05 08:59:53.86	68.72	19.98	-50.5	-53.5	19.4	6.03e-01	0	58	0	28311552	64	5014
2026-01-05 08:59:54.85	68.49	20.07	-50.1	-52.8	20.2	6.02e-01	0	58	0	30408704	63	4888
2026-01-05 08:59:55.84	68.26	20.16	-49.7	-52.2	20.8	6.01e-01	0	58	0	32505856	63	4560
2026-01-05 08:59:56.83	68.03	20.25	-49.4	-51.7	21.3	6.01e-01	0	58	0	34078720	62	4554
2026-01-05 08:59:57.82	67.79	20.33	-49.0	-51.2	21.7	6.01e-01	0	58	0	36175872	61	4565
2026-01-05 08:59:58.81	67.56	20.42	-48.7	-50.8	22.1	6.02e-01	0	58	0	37748736	61	4342
2026-01-05 08:59:59.81	67.32	20.51	-48.5	-50.4	22.5	6.00e-01	0	57	0	39845888	60	4424
2026-01-05 09:00:00.80	67.08	20.60	-48.3	-50.1	22.7	6.02e-01	0	58	0	41418752	60	4276
2026-01-05 09:00:01.79	66.84	20.69	-48.6	-50.4	22.8	6.02e-01	0	58	0	43515904	59	4691
2026-01-05 09:00:02.78	66.60	20.78	-48.7	-50.6	22.6	6.05e-01	0	58	0	45088768	59	4790
2026-01-05 09:00:03.76	66.36	20.86	-48.7	-50.6	22.5	6.03e-01	0	58	0	47185920	59	4809
2026-01-05 09:00:04.75	66.12	20.95	-48.7	-50.6	22.6	6.00e-01	0	58	0	48758784	59	4792
2026-01-05 09:00:05.74	65.87	21.04	-48.8	-50.7	22.5	6.02e-01	0	57	0	50855936	59	4845
2026-01-05 09:00:06.73	65.63	21.12	-48.7	-50.6	22.6	6.02e-01	0	57	0	52953088	59	4773
2026-01-05 09:00:07.72	65.38	21.21	-48.6	-50.5	22.7	6.04e-01	0	58	0	54525952	59	4736
2026-01-05 09:00:08.71	65.13	21.30	-48.6	-50.5	22.7	6.03e-01	0	57	0	56623104	59	4741
2026-01-05 09:00:09.70	64.88	21.38	-48.8	-50.7	22.5	5.99e-01	0	58	0	58195968	59	4845
2026-01-05 09:00:10.69	64.62	21.47	-48.7	-50.7	22.5	6.02e-01	0	58	0	60293120	59	4827
2026-01-05 09:00:11.68	64.37	21.55	-48.7	-50.6	22.7	6.00e-01	0	58	0	61865984	59	4762
2026-01-05 09:00:12.66	64.12	21.64	-48.6	-50.5	22.7	6.02e-01	0	58	0	63963136	59	4742
2026-01-05 09:00:13.65	63.86	21.72	-48.8	-50.8	22.5	6.05e-01	0	57	0	65536000	59	4878
2026-01-05 09:00:14.63	63.60	21.81	-48.8	-50.7	22.6	6.03e-01	0	57	0	67633152	59	4846
2026-01-05 09:00:15.62	63.34	21.89	-48.8	-50.8	22.5	6.03e-01	0	57	0	69206016	59	4879
2026-01-05 09:00:16.61	63.08	21.97	-48.5	-50.4	22.5	6.02e-01	0	57	0	71303168	60	4439
2026-01-05 09:00:17.60	62.82	22.06	-48.6	-50.5	22.4	5.99e-01	0	57	0	72876032	60	4470
2026-01-05 09:00:18.58	62.56	22.14	-48.6	-50.6	22.3	6.03e-01	0	57	0	74973184	60	4512
2026-01-05 09:00:19.57	62.29	22.22	-48.6	-50.6	22.3	6.02e-01	0	57	0	77070336	60	4520
2026-01-05 09:00:20.56	62.02	22.31	-48.6	-50.6	22.3	6.04e-01	0	57	0	78643200	60	4507
2026-01-05 09:00:21.55	61.75	22.39	-48.7	-50.7	22.2	6.04e-01	0	57	0	80740352	60	4580
2026-01-05 09:00:22.55	61.48	22.47	-48.6	-50.6	22.3	6.05e-01	0	57	0	82313216	60	4526
2026-01-05 09:00:23.53	61.21	22.55	-48.4	-50.3	22.5	6.03e-01	0	57	0	84410368	60	4385
2026-01-05 09:00:24.52	60.94	22.63	-48.4	-50.3	22.6	6.03e-01	0	57	0	85983232	60	4368
2026-01-05 09:00:25.51	60.66	22.72	-48.4	-50.3	22.6	6.02e-01	0	57	0	88080384	60	4366
2026-01-05 09:00:26.50	60.38	22.80	-48.4	-50.3	22.6	6.03e-01	0	57	0	89653248	60	4375
2026-01-05 09:00:27.49	60.11	22.88	-48.5	-50.5	22.4	6.01e-01	0	57	0	91750400	60	4443
2026-01-05 09:00:28.48	59.83	22.96	-48.7	-50.7	22.2	6.03e-01	0	57	0	93323264	60	4592
2026-01-05 09:00:29.46	59.55	23.03	-48.7	-50.6	22.3	6.04e-01	0	57	0	95420416	60	4543
2026-01-05 09:00:30.45	59.26	23.11	-48.4	-50.3	22.6	6.04e-01	0	57	0	96993280	60	4371
2026-01-05 09:00:31.44	58.98	23.19	-48.2	-50.0	22.9	6.02e-01	0	57	0	99090432	60	4234
2026-01-05 09:00:32.43	58.69	23.27	-48.7	-50.5	22.7	6.02e-01	0	57	0	101187584	59	4752
2026-01-05 09:00:33.42	58.41	23.35	-48.6	-50.5	22.7	6.04e-01	0	57	0	102760448	59	4746
2026-01-05 09:00:34.41	58.12	23.42	-48.7	-50.6	22.7	6.02e-01	0	57	0	104333312	59	4797
2026-01-05 09:00:35.40	57.83	23.50	-48.8	-50.7	22.5	6.02e-01	0	57	0	106430464	59	4852
2026-01-05 09:00:36.39	57.54	23.58	-48.8	-50.7	22.5	6.01e-01	0	57	0	108527616	59	4865
2026-01-05 09:00:37.38	57.24	23.65	-48.9	-50.8	22.4	6.02e-01	0	57	0	110100480	59	4908
2026-01-05 09:00:38.37	56.95	23.73	-48.6	-50.5	22.3	6.01e-01	0	57	0	112197632	60	4478
2026-01-05 09:00:39.36	56.65	23.80	-48.6	-50.6	22.3	6.01e-01	0	57	0	113770496	60	4525
2026-01-05 09:00:40.35	56.35	23.87	-48.8	-50.8	22.1	6.02e-01	0	57	0	115867648	60	4615
2026-01-05 09:00:41.34	56.06	23.95	-48.8	-50.9	22.1	6.01e-01	0	57	0	117440512	60	4658
2026-01-05 09:00:42.32	55.76	24.02	-48.9	-51.0	21.9	6.05e-01	0	57	0	119537664	60	4725
2026-01-05 09:00:43.31	55.46	24.09	-48.8	-50.8	22.2	6.00e-01	0	57	0	121110528	60	4613
2026-01-05 09:00:44.30	55.15	24.16	-48.7	-50.7	22.2	6.03e-01	0	57	0	123207680	60	4589
2026-01-05 09:00:45.28	54.85	24.23	-48.8	-50.8	22.1	6.03e-01	0	57	0	124780544	60	4650
2026-01-05 09:00:46.27	54.54	24.30	-48.6	-50.6	22.3	6.01e-01	0	57	0	126877696	60	4527
2026-01-05 09:00:47.27	54.23	24.37	-48.6	-50.6	22.4	6.04e-01	0	57	0	128450560	60	4520
2026-01-05 09:00:48.26	53.92	24.44	-48.8	-50.8	22.2	6.04e-01	0	57	0	130547712	60	4609
2026-01-05 09:00:49.25	53.61	24.51	-48.8	-50.8	22.1	6.04e-01	0	57	0	132644864	60	4647
2026-01-05 09:00:50.24	53.30	24.57	-48.9	-50.9	22.0	6.06e-01	0	57	0	134217728	60	4694
2026-01-05 09:00:51.23	52.99	24.64	-48.6	-50.5	22.4	5.99e-01	0	57	0	136314880	60	4479
2026-01-05 09:00:52.21	52.68	24.70	-48.5	-50.4	22.5	6.01e-01	0	57	0	137887744	60	4426
2026-01-05 09:00:53.20	52.36	24.77	-48.3	-50.2	22.8	6.01e-01	0	57	0	139984896	60	4302
2026-01-05 09:00:54.20	52.04	24.83	-48.6	-50.4	22.9	5.98e-01	0	57	0	141557760	59	4676
2026-01-05 09:00:55.18	51.73	24.90	-48.7	-50.6	22.7	6.00e-01	0	57	0	143654912	59	4775
2026-01-05 09:00:56.17	51.41	24.96	-48.7	-50.6	22.7	6.02e-01	0	57	0	145227776	59	4801
2026-01-05 09:00:57.16	51.08	25.02	-48.7	-50.6	22.6	6.03e-01	0	57	0	147324928	59	4813
2026-01-05 09:00:58.14	50.76	25.08	-48.6	-50.5	22.8	6.00e-01	0	57	0	148897792	59	4716
2026-01-05 09:00:59.14	50.44	25.14	-48.6	-50.4	22.8	6.02e-01	0	57	0	150994944	59	4694
2026-01-05 09:01:00.12	50.12	25.20	-48.5	-50.4	22.9	6.00e-01	0	57	0	153092096	59	4660
2026-01-05 09:01:01.11	49.79	25.26	-48.7	-50.6	22.7	6.03e-01	0	57	0	154664960	59	4795
2026-01-05 09:01:02.11	49.46	25.32	-48.8	-50.7	22.6	6.00e-01	0	57	0	156762112	59	4855
2026-01-05 09:01:03.10	49.13	25.38	-48.7	-50.7	22.7	6.00e-01	0	57	0	158334976	59	4822
2026-01-05 09:01:04.09	48.80	25.43	-48.7	-50.6	22.7	6.03e-01	0	57	0	160432128	59	4768
2026-01-05 09:01:05.08	48.47	25.49	-48.6	-50.4	22.8	6.02e-01	0	57	0	162004992	59	4675
2026-01-05 09:01:06.07	48.13	25.54	-48.6	-50.5	22.8	6.04e-01	0	57	0	164102144	59	4733
2026-01-05 09:01:07.06	47.80	25.59	-48.7	-50.6	22.7	6.04e-01	0	57	0	165675008	59	4792
2026-01-05 09:01:08.05	47.46	25.65	-48.7	-50.8	22.4	6.04e-01	0	57	0	167772160	59	4889
2026-01-05 09:01:09.04	47.13	25.70	-48.5	-50.6	22.6	6.02e-01	0	57	0	169345024	59	4795
2026-01-05 09:01:10.02	46.79	25.75	-48.5	-50.6	22.6	5.99e-01	0	57	0	171442176	59	4772
2026-01-05 09:01:11.01	46.46	25.80	-48.5	-50.7	22.5	6.07e-01	0	57	0	173015040	59	4843
2026-01-05 09:01:12.00	46.12	25.85	-48.3	-50.5	22.7	6.00e-01	0	57	0	175112192	59	4756
2026-01-05 09:01:12.99	45.78	25.89	-48.4	-50.5	22.7	6.00e-01	0	57	0	177209344	59	4727
2026-01-05 09:01:13.97	45.44	25.94	-48.4	-50.5	22.7	6.02e-01	0	57	0	178782208	59	4731
2026-01-05 09:01:14.96	45.10	25.98	-48.7	-50.7	22.6	6.04e-01	0	57	0	180879360	59	4818
2026-01-05 09:01:15.95	44.75	26.03	-48.8	-50.9	22.5	5.99e-01	0	57	0	182452224	59	4936
2026-01-05 09:01:16.94	44.41	26.07	-48.6	-50.6	22.6	6.04e-01	0	57	0	184549376	59	4802
2026-01-05 09:01:17.93	44.06	26.12	-48.6	-50.5	22.7	6.03e-01	0	57	0	186122240	59	4758
2026-01-05 09:01:18.93	43.71	26.16	-48.6	-50.6	22.7	6.01e-01	0	57	0	188219392	59	4791
2026-01-05 09:01:19.92	43.36	26.20	-48.7	-50.8	22.5	6.01e-01	0	57	0	189792256	59	4878
2026-01-05 09:01:20.91	43.02	26.24	-48.7	-50.6	22.6	6.04e-01	0	57	0	191889408	59	4808
2026-01-05 09:01:21.89	42.67	26.27	-48.8	-50.8	22.5	6.04e-01	0	57	0	193462272	59	4875
2026-01-05 09:01:22.87	42.32	26.31	-48.7	-50.6	22.7	6.02e-01	0	57	0	195559424	59	4796
2026-01-05 09:01:23.86	41.97	26.35	-48.7	-50.6	22.7	6.03e-01	0	57	0	197132288	59	4786
2026-01-05 09:01:24.85	41.62	26.38	-48.7	-50.7	22.7	6.03e-01	0	57	0	199229440	59	4817
2026-01-05 09:01:25.84	41.27	26.42	-48.6	-50.4	22.8	6.04e-01	0	57	0	201326592	59	4694
2026-01-05 09:01:26.84	40.91	26.45	-48.7	-50.6	22.6	6.02e-01	0	57	0	202899456	59	4807
2026-01-05 09:01:27.83	40.56	26.48	-48.6	-50.5	22.8	6.04e-01	0	57	0	204996608	59	4724
2026-01-05 09:01:28.82	40.20	26.51	-48.6	-50.5	22.8	6.00e-01	0	57	0	206569472	59	4710
2026-01-05 09:01:29.80	39.85	26.54	-48.8	-50.7	22.6	6.03e-01	0	57	0	208666624	59	4848
2026-01-05 09:01:30.80	39.49	26.57	-48.8	-50.8	22.6	6.04e-01	0	57	0	210239488	59	4875
2026-01-05 09:01:31.79	39.13	26.60	-48.7	-50.7	22.7	6.02e-01	0	57	0	212336640	59	4817
2026-01-05 09:01:32.78	38.77	26.62	-48.8	-50.8	22.1	6.01e-01	0	57	0	213909504	60	4649
2026-01-05 09:01:33.77	38.42	26.65	-48.5	-50.4	22.5	6.04e-01	0	57	0	216006656	60	4420
2026-01-05 09:01:34.75	38.06	26.67	-48.3	-50.1	22.9	6.02e-01	0	57	0	217579520	60	4257
2026-01-05 09:01:35.75	37.70	26.69	-48.2	-50.0	22.9	6.02e-01	0	57	0	219676672	60	4238
2026-01-05 09:01:36.74	37.34	26.71	-48.3	-50.2	22.8	6.01e-01	0	57	0	221249536	60	4304
2026-01-05 09:01:37.73	36.98	26.74	-48.5	-50.4	22.6	6.03e-01	0	57	0	223346688	60	4401
2026-01-05 09:01:38.72	36.62	26.75	-48.4	-50.3	22.7	6.03e-01	0	57	0	225443840	60	4358
2026-01-05 09:01:39.71	36.26	26.77	-48.4	-50.2	22.7	6.00e-01	0	57	0	227016704	60	4324
2026-01-05 09:01:40.70	35.90	26.79	-48.3	-50.1	22.9	6.04e-01	0	57	0	229113856	60	4254
2026-01-05 09:01:41.69	35.53	26.80	-48.4	-50.2	22.7	6.03e-01	0	57	0	230686720	60	4327
2026-01-05 09:01:42.68	35.17	26.82	-48.4	-50.3	22.7	6.03e-01	0	57	0	232783872	60	4343
2026-01-05 09:01:43.66	34.81	26.83	-48.6	-50.6	22.4	6.04e-01	0	57	0	234356736	60	4514
2026-01-05 09:01:44.65	34.45	26.84	-48.5	-50.4	22.6	6.02e-01	0	57	0	236453888	60	4410
2026-01-05 09:01:45.64	34.09	26.85	-48.2	-50.0	22.9	6.02e-01	0	57	0	238026752	60	4213
2026-01-05 09:01:46.63	33.72	26.86	-48.7	-50.5	22.8	6.05e-01	0	57	0	240123904	59	4759
2026-01-05 09:01:47.61	33.36	26.87	-48.7	-50.6	22.7	6.00e-01	0	57	0	241696768	59	4794
2026-01-05 09:01:48.61	33.00	26.88	-48.7	-50.7	22.6	6.01e-01	0	57	0	243793920	59	4827
2026-01-05 09:01:49.60	32.63	26.88	-48.7	-50.6	22.6	6.03e-01	0	57	0	245366784	59	4811
2026-01-05 09:01:50.59	32.27	26.89	-48.8	-50.8	22.5	6.00e-01	0	57	0	247463936	59	4882
2026-01-05 09:01:51.58	31.90	26.89	-48.9	-50.8	22.5	6.03e-01	0	57	0	249561088	59	4904
2026-01-05 09:01:52.57	31.54	26.89	-48.6	-50.5	22.5	6.00e-01	0	57	0	251133952	60	4452
2026-01-05 09:01:53.56	31.18	26.89	-48.8	-50.8	22.2	6.00e-01	0	57	0	253231104	60	4646
2026-01-05 09:01:54.55	30.81	26.89	-48.9	-50.9	22.0	6.03e-01	0	57	0	254803968	60	4704
2026-01-05 09:01:55.53	30.45	26.89	-48.8	-50.8	22.1	6.04e-01	0	57	0	256901120	60	4649
2026-01-05 09:01:56.53	30.08	26.88	-48.8	-50.9	22.1	6.03e-01	0	57	0	258473984	60	4665
2026-01-05 09:01:57.52	29.72	26.88	-48.7	-50.7	22.3	6.02e-01	0	57	0	260571136	60	4558
2026-01-05 09:01:58.50	29.36	26.87	-48.8	-50.8	22.2	6.03e-01	0	57	0	262144000	60	4624
2026-01-05 09:01:59.48	29.00	26.87	-48.7	-50.7	22.2	6.05e-01	0	57	0	264241152	60	4589
2026-01-05 09:02:00.47	28.64	26.86	-48.9	-51.0	22.0	6.01e-01	0	57	0	265814016	60	4751
2026-01-05 09:02:01.45	28.28	26.85	-49.0	-51.1	21.9	6.00e-01	0	57	0	267911168	60	4761
2026-01-05 09:02:02.43	27.92	26.84	-48.7	-50.7	22.2	6.04e-01	0	57	0	269484032	60	4597
2026-01-05 09:02:03.43	27.55	26.83	-48.6	-50.5	22.5	5.98e-01	0	57	0	271581184	60	4452
2026-01-05 09:02:04.42	27.19	26.81	-48.5	-50.4	22.5	6.00e-01	0	57	0	273154048	60	4431
2026-01-05 09:02:05.41	26.83	26.80	-48.6	-50.6	22.3	6.01e-01	0	57	0	275251200	60	4528
2026-01-05 09:02:06.39	26.47	26.79	-48.6	-50.5	22.4	6.04e-01	0	57	0	277348352	60	4478
2026-01-05 09:02:07.38	26.11	26.77	-48.8	-50.8	22.2	6.05e-01	0	57	0	278921216	60	4604
2026-01-05 09:02:08.37	25.75	26.75	-49.0	-51.1	21.8	6.02e-01	0	57	0	281018368	60	4796
2026-01-05 09:02:09.37	25.38	26.73	-49.1	-51.3	21.6	6.01e-01	0	57	0	282591232	60	4896
2026-01-05 09:02:10.35	25.03	26.71	-49.0	-51.1	21.8	6.03e-01	0	57	0	284688384	60	4814
2026-01-05 09:02:11.34	24.67	26.69	-49.2	-51.4	21.6	6.01e-01	0	57	0	286261248	60	4929
2026-01-05 09:02:12.33	24.31	26.67	-49.2	-51.4	21.5	6.02e-01	0	57	0	288358400	60	4963
2026-01-05 09:02:13.32	23.95	26.64	-49.0	-51.1	21.8	6.01e-01	0	57	0	289931264	60	4810
2026-01-05 09:02:14.31	23.59	26.62	-49.1	-51.2	21.8	6.04e-01	0	57	0	292028416	60	4846
2026-01-05 09:02:15.30	23.23	26.59	-49.1	-51.2	21.7	6.03e-01	0	57	0	293601280	60	4864
2026-01-05 09:02:16.29	22.88	26.57	-49.0	-51.1	21.8	6.02e-01	0	57	0	295698432	60	4799
2026-01-05 09:02:17.28	22.52	26.54	-48.8	-50.8	22.2	6.02e-01	0	57	0	297795584	60	4623
2026-01-05 09:02:18.26	22.17	26.51	-48.7	-50.7	22.3	6.03e-01	0	57	0	299368448	60	4561
2026-01-05 09:02:19.25	21.81	26.48	-48.5	-50.4	22.5	6.05e-01	0	57	0	300941312	60	4398
2026-01-05 09:02:20.24	21.46	26.45	-48.5	-50.4	22.5	6.04e-01	0	57	0	303038464	60	4413
2026-01-05 09:02:21.23	21.11	26.41	-48.6	-50.6	22.3	6.02e-01	0	57	0	305135616	60	4529
2026-01-05 09:02:22.22	20.76	26.38	-48.8	-50.9	22.1	6.02e-01	0	57	0	306708480	60	4654
2026-01-05 09:02:23.21	20.40	26.34	-48.5	-50.4	22.5	6.00e-01	0	57	0	308805632	60	4422
2026-01-05 09:02:24.20	20.05	26.31	-48.4	-50.3	22.6	6.03e-01	0	57	0	310378496	60	4379
2026-01-05 09:02:25.18	19.71	26.27	-48.8	-50.8	22.1	6.00e-01	0	57	0	312475648	60	4647
2026-01-05 09:02:26.18	19.35	26.23	-48.8	-50.8	22.1	6.03e-01	0	57	0	314048512	60	4646
2026-01-05 09:02:27.16	19.01	26.19	-48.6	-50.6	22.3	6.04e-01	0	57	0	316145664	60	4533
2026-01-05 09:02:28.15	18.66	26.15	-48.6	-50.6	22.3	6.04e-01	0	57	0	317718528	60	4499
2026-01-05 09:02:29.13	18.32	26.11	-48.7	-50.8	22.1	6.04e-01	0	57	0	319815680	60	4608
2026-01-05 09:02:30.12	17.98	26.07	-48.7	-50.7	22.2	6.04e-01	0	57	0	321388544	60	4587
2026-01-05 09:02:31.10	17.63	26.02	-48.5	-50.5	22.4	6.04e-01	0	57	0	323485696	60	4450
2026-01-05 09:02:32.10	17.29	25.98	-48.8	-50.9	22.1	6.02e-01	0	57	0	325058560	60	4655
2026-01-05 09:02:33.09	16.95	25.93	-48.7	-50.8	22.1	6.00e-01	0	57	0	327155712	60	4613
2026-01-05 09:02:34.07	16.61	25.89	-48.8	-50.8	22.1	6.00e-01	0	57	0	329252864	60	4626
2026-01-05 09:02:35.07	16.26	25.84	-49.0	-51.1	21.7	6.04e-01	0	57	0	330825728	60	4793
2026-01-05 09:02:36.06	15.93	25.79	-48.8	-50.9	22.0	6.06e-01	0	57	0	332922880	60	4695
2026-01-05 09:02:37.05	15.59	25.74	-48.9	-51.1	21.8	6.02e-01	0	57	0	334495744	60	4766
2026-01-05 09:02:38.03	15.25	25.69	-48.9	-51.0	21.7	6.03e-01	0	57	0	336592896	60	4734
2026-01-05 09:02:39.02	14.92	25.64	-48.8	-50.9	21.8	6.03e-01	0	57	0	338165760	60	4671
2026-01-05 09:02:40.01	14.58	25.59	-48.9	-51.1	21.6	6.03e-01	0	57	0	340262912	60	4765
2026-01-05 09:02:41.00	14.25	25.53	-48.8	-51.1	21.4	6.03e-01	0	57	0	341835776	60	4771
2026-01-05 09:02:41.99	13.92	25.48	-48.7	-50.8	21.7	6.02e-01	0	57	0	343932928	60	4637
2026-01-05 09:02:42.98	13.59	25.42	-48.5	-50.6	21.7	6.03e-01	0	57	0	345505792	60	4544
2026-01-05 09:02:43.97	13.26	25.37	-48.4	-50.5	21.7	6.01e-01	0	57	0	347602944	60	4480
2026-01-05 09:02:44.96	12.93	25.31	-48.7	-51.0	21.3	6.03e-01	0	57	0	349175808	60	4706
2026-01-05 09:02:45.95	12.60	25.25	-48.6	-50.8	21.3	6.03e-01	0	57	0	351272960	60	4628
2026-01-05 09:02:46.94	12.28	25.19	-48.5	-50.8	21.3	6.00e-01	0	57	0	353370112	60	4620
2026-01-05 09:02:47.94	11.95	25.13	-48.9	-51.3	20.8	6.02e-01	0	57	0	354942976	60	4920
2026-01-05 09:02:48.92	11.63	25.08	-49.3	-52.0	20.0	6.02e-01	0	57	0	357040128	60	5324
2026-01-05 09:02:49.92	11.30	25.01	-49.5	-52.4	19.5	6.02e-01	0	57	0	358612992	61	5274
2026-01-05 09:02:50.91	10.98	24.95	-49.5	-52.6	19.2	6.02e-01	0	57	0	360710144	61	5386
2026-01-05 09:02:51.90	10.66	24.89	-50.1	-54.1	17.5	6.04e-01	0	57	0	362283008	62	6058
2026-01-05 09:02:52.89	10.34	24.83	-50.4	-55.0	16.3	6.03e-01	0	57	0	364380160	63	6339
2026-01-05 09:02:53.88	10.03	24.76	-50.8	-56.5	14.7	6.03e-01	0	57	0	365953024	63	7471
2026-01-05 09:02:54.87	9.71	24.70	-50.8	-56.9	14.1	6.04e-01	0	57	0	368050176	64	7385
2026-01-05 09:02:55.86	9.40	24.63	-50.9	-57.5	13.5	6.02e-01	0	57	0	369623040	64	7900
2026-01-05 09:02:56.85	9.09	24.56	-51.0	-57.5	13.5	6.04e-01	0	57	0	371720192	64	7931
2026-01-05 09:02:57.83	8.78	24.50	-51.0	-57.3	13.7	6.03e-01	0	57	0	373817344	64	7787
2026-01-05 09:02:58.82	8.47	24.43	-51.1	-57.3	13.8	6.01e-01	0	57	0	375390208	64	7733
2026-01-05 09:02:59.81	8.16	24.36	-51.1	-56.8	14.6	6.00e-01	0	57	0	376963072	64	7328
2026-01-05 09:03:00.81	7.85	24.29	-51.1	-56.3	15.3	6.00e-01	0	57	0	379060224	64	6918
2026-01-05 09:03:01.79	7.55	24.22	-50.8	-55.4	16.3	6.03e-01	0	57	0	381157376	64	6261
2026-01-05 09:03:02.78	7.24	24.15	-50.4	-54.4	17.4	6.01e-01	0	57	0	382730240	64	5564
2026-01-05 09:03:03.77	6.94	24.08	-50.2	-53.8	18.1	6.03e-01	0	57	0	384827392	63	5510
2026-01-05 09:03:04.75	6.64	24.01	-50.1	-53.6	18.5	6.02e-01	0	57	0	386400256	63	5341
2026-01-05 09:03:05.74	6.34	23.94	-50.3	-53.7	18.5	6.03e-01	0	57	0	388497408	63	5449
2026-01-05 09:03:06.73	6.04	23.87	-50.1	-53.3	18.9	6.05e-01	0	57	0	390070272	63	5201
2026-01-05 09:03:07.72	5.75	23.79	-50.1	-53.3	19.1	6.01e-01	0	57	0	392167424	63	5168
2026-01-05 09:03:08.71	5.45	23.72	-50.4	-53.7	18.7	6.02e-01	0	57	0	393740288	63	5437
2026-01-05 09:03:09.70	5.16	23.64	-50.5	-54.4	17.8	6.00e-01	0	57	0	395837440	63	5861
2026-01-05 09:03:10.69	4.86	23.57	-50.9	-55.7	16.2	6.00e-01	0	57	0	397410304	64	6432
2026-01-05 09:03:11.68	4.57	23.49	-51.0	-56.5	15.0	6.01e-01	0	57	0	399507456	64	7077
2026-01-05 09:03:12.68	4.28	23.42	-51.1	-57.3	13.9	6.03e-01	0	57	0	401604608	64	7806
2026-01-05 09:03:13.66	4.00	23.34	-51.3	-57.9	13.4	6.07e-01	0	57	0	403177472	64	8291
2026-01-05 09:03:14.65	3.71	23.26	-51.1	-56.8	14.6	6.03e-01	0	57	0	405274624	64	7299
2026-01-05 09:03:15.64	3.43	23.18	-50.9	-55.6	16.0	6.02e-01	0	57	0	406847488	64	6412
2026-01-05 09:03:16.63	3.14	23.11	-50.8	-55.1	16.8	6.02e-01	0	57	0	408944640	64	6047
2026-01-05 09:03:17.62	2.86	23.03	-50.4	-54.1	17.9	6.04e-01	0	57	0	410517504	64	5363
2026-01-05 09:03:18.61	2.58	22.95	-49.9	-52.9	19.3	6.02e-01	0	57	0	412614656	63	4947
2026-01-05 09:03:19.60	2.30	22.87	-49.7	-52.5	19.9	6.02e-01	0	57	0	414187520	63	4740
2026-01-05 09:03:20.59	2.02	22.79	-49.8	-52.6	20.1	6.03e-01	0	57	0	416284672	63	4761
2026-01-05 09:03:21.58	1.75	22.71	-49.6	-52.1	20.5	6.04e-01	0	57	0	417857536	62	4806
2026-01-05 09:03:22.57	1.47	22.63	-49.6	-52.1	20.7	6.05e-01	0	57	0	419954688	62	4779
2026-01-05 09:03:23.55	1.20	22.55	-49.7	-52.2	20.6	6.01e-01	0	57	0	421527552	62	4846
2026-01-05 09:03:24.54	0.93	22.47	-49.6	-52.0	20.8	6.00e-01	0	57	0	423624704	62	4746
2026-01-05 09:03:25.53	0.66	22.38	-49.4	-51.7	21.1	6.02e-01	0	57	0	425721856	62	4585
2026-01-05 09:03:26.51	0.39	22.30	-49.6	-52.1	20.7	6.00e-01	0	57	0	427294720	62	4789
2026-01-05 09:03:27.50	0.13	22.22	-49.7	-52.2	20.7	6.03e-01	0	57	0	429391872	62	4837
2026-01-05 09:03:28.49	359.86	22.14	-49.7	-52.2	20.8	6.04e-01	0	57	0	430964736	62	4850
2026-01-05 09:03:29.49	359.60	22.05	-49.9	-52.5	20.3	6.03e-01	0	57	0	433061888	62	5035
2026-01-05 09:03:30.48	359.33	21.97	-49.9	-52.6	20.3	6.04e-01	0	57	0	434634752	62	5068
2026-01-05 09:03:31.46	359.08	21.89	-49.6	-52.0	20.9	6.01e-01	0	57	0	436731904	62	4743
2026-01-05 09:03:32.45	358.82	21.80	-49.4	-51.7	21.1	6.02e-01	0	57	0	438304768	62	4597
2026-01-05 09:03:33.44	358.56	21.72	-49.6	-52.0	20.9	6.01e-01	0	57	0	440401920	62	4746
2026-01-05 09:03:34.44	358.30	21.63	-49.3	-51.7	21.1	6.01e-01	0	57	0	441974784	62	4559
2026-01-05 09:03:35.42	358.05	21.55	-49.4	-51.8	21.0	6.02e-01	0	57	0	444071936	62	4634
2026-01-05 09:03:36.41	357.79	21.46	-49.6	-52.1	20.8	6.03e-01	0	57	0	445644800	62	4763
2026-01-05 09:03:37.40	357.54	21.38	-49.3	-51.7	21.1	6.01e-01	0	57	0	447741952	62	4562
2026-01-05 09:03:38.39	357.29	21.29	-49.3	-51.6	21.2	6.03e-01	0	57	0	449839104	62	4503
2026-01-05 09:03:39.38	357.04	21.20	-49.5	-52.0	20.8	6.01e-01	0	57	0	451411968	62	4737
2026-01-05 09:03:40.37	356.79	21.12	-49.4	-51.8	21.0	6.03e-01	0	57	0	453509120	62	4620
2026-01-05 09:03:41.36	356.55	21.03	-49.3	-51.6	21.3	6.01e-01	0	57	0	455081984	62	4501
2026-01-05 09:03:42.35	356.30	20.94	-49.3	-51.6	21.2	6.03e-01	0	57	0	457179136	62	4537
2026-01-05 09:03:43.34	356.06	20.86	-49.3	-51.7	21.1	6.03e-01	0	57	0	458752000	62	4569
2026-01-05 09:03:44.33	355.82	20.77	-49.1	-51.3	21.5	5.99e-01	0	57	0	460849152	61	4622
2026-01-05 09:03:45.32	355.58	20.68	-49.3	-51.7	21.1	6.01e-01	0	57	0	462422016	61	4836
2026-01-05 09:03:46.31	355.34	20.59	-49.5	-51.9	20.9	6.01e-01	0	57	0	464519168	61	4966
2026-01-05 09:03:47.29	355.10	20.51	-49.6	-52.1	20.7	6.00e-01	0	57	0	466092032	61	5098
2026-01-05 09:03:48.28	354.87	20.42	-49.8	-52.4	20.3	5.99e-01	0	57	0	468189184	62	4951
2026-01-05 09:03:49.27	354.63	20.33	-49.5	-51.9	20.8	6.03e-01	0	57	0	469762048	62	4684
2026-01-05 09:03:50.26	354.40	20.24	-49.2	-51.5	21.3	6.00e-01	0	57	0	471859200	62	4455
2026-01-05 09:03:51.25	354.17	20.15	-49.4	-51.8	20.9	6.02e-01	0	57	0	473432064	61	4907
2026-01-05 09:03:52.24	353.94	20.07	-49.3	-51.7	21.0	6.04e-01	0	57	0	475529216	61	4835
2026-01-05 09:03:53.23	353.71	19.98	-49.4	-51.8	20.9	6.03e-01	0	57	0	477626368	61	4916
2026-01-05 09:03:54.22	353.48	19.89	-49.3	-51.7	21.0	6.02e-01	0	57	0	479199232	61	4860
2026-01-05 09:03:55.21	353.26	19.80	-49.5	-51.9	20.7	6.03e-01	0	57	0	481296384	61	4967
2026-01-05 09:03:56.20	353.03	19.71	-49.1	-51.4	21.2	6.03e-01	0	57	0	482869248	61	4698
2026-01-05 09:03:57.18	352.81	19.62	-49.0	-51.3	21.4	6.01e-01	0	57	0	484966400	61	4605
2026-01-05 09:03:58.17	352.59	19.53	-48.6	-50.6	22.0	6.03e-01	0	57	0	486539264	60	4533
2026-01-05 09:03:59.16	352.37	19.44	-48.6	-50.7	21.9	6.05e-01	0	57	0	488636416	60	4573
2026-01-05 09:04:00.15	352.15	19.36	-48.7	-50.8	21.9	6.04e-01	0	57	0	490209280	60	4608
2026-01-05 09:04:01.14	351.93	19.27	-48.4	-50.4	22.1	6.02e-01	0	57	0	492306432	60	4425
2026-01-05 09:04:02.13	351.72	19.18	-49.1	-51.4	21.2	6.01e-01	0	57	0	493879296	60	4968
2026-01-05 09:04:03.11	351.50	19.09	-48.3	-50.2	22.4	6.00e-01	0	57	0	495976448	60	4302
2026-01-05 09:04:04.11	351.29	19.00	-49.1	-51.5	21.0	6.02e-01	0	57	0	497549312	60	4998
2026-01-05 09:04:05.09	351.08	18.91	-48.8	-50.9	22.0	5.99e-01	0	57	0	499646464	59	4933
2026-01-05 09:04:06.08	350.87	18.82	-48.3	-50.3	22.0	6.02e-01	0	57	0	501743616	60	4378
2026-01-05 09:04:07.08	350.65	18.73	-48.9	-51.3	21.3	6.02e-01	0	57	0	503316480	60	4879
2026-01-05 09:04:08.07	350.45	18.64	-48.7	-50.8	21.7	6.03e-01	0	57	0	505413632	60	4628
2026-01-05 09:04:09.06	350.24	18.55	-49.0	-51.3	21.1	6.02e-01	0	57	0	506986496	60	4926
2026-01-05 09:04:10.04	350.04	18.46	-48.8	-51.0	21.4	6.02e-01	0	57	0	509083648	60	4747
2026-01-05 09:04:11.04	349.83	18.37	-49.5	-52.1	20.3	6.02e-01	0	57	0	510656512	61	5066
2026-01-05 09:04:12.04	349.62	18.28	-49.1	-51.5	20.9	6.02e-01	0	57	0	512753664	61	4758
2026-01-05 09:04:13.02	349.42	18.19	-48.8	-51.0	21.3	6.03e-01	0	57	0	514326528	61	4480
2026-01-05 09:04:14.01	349.22	18.10	-49.4	-52.0	20.5	6.03e-01	0	57	0	516423680	61	4999
2026-01-05 09:04:15.01	349.02	18.01	-48.6	-50.8	21.5	6.03e-01	0	57	0	517996544	60	4602
2026-01-05 09:04:16.00	348.82	17.92	-49.2	-51.9	20.5	6.01e-01	0	57	0	520093696	60	5226
2026-01-05 09:04:16.99	348.63	17.83	-48.2	-50.2	22.1	6.04e-01	0	57	0	522190848	60	4310
2026-01-05 09:04:17.98	348.43	17.74	-49.2	-51.8	20.4	6.01e-01	0	57	0	523763712	60	5180
2026-01-05 09:04:18.96	348.24	17.65	-48.4	-50.5	21.6	6.00e-01	0	57	0	525860864	60	4479
2026-01-05 09:04:19.95	348.05	17.56	-49.3	-52.2	19.8	6.03e-01	0	57	0	527433728	60	5435
2026-01-05 09:04:20.95	347.85	17.47	-48.8	-51.3	20.7	6.02e-01	0	57	0	529530880	60	4897
2026-01-05 09:04:21.94	347.66	17.38	-49.9	-53.3	18.5	6.03e-01	0	57	0	531103744	61	5823
2026-01-05 09:04:22.93	347.47	17.30	-49.8	-53.2	18.4	6.02e-01	0	57	0	533200896	61	5768
2026-01-05 09:04:23.92	347.28	17.21	-50.5	-55.1	16.1	5.99e-01	0	57	0	534773760	63	6412
2026-01-05 09:04:24.91	347.10	17.12	-50.7	-56.0	15.3	6.01e-01	0	57	0	536870912	63	7071
2026-01-05 09:04:25.90	346.91	17.03	-51.1	-58.6	12.0	6.09e-01	0	57	0	538443776	64	9062
2026-01-05 09:04:26.89	346.73	16.94	-51.3	-60.2	10.4	6.15e-01	0	57	0	540540928	64	10785
2026-01-05 09:04:27.89	346.54	16.85	-51.4	-63.2	6.9	6.65e-01	92	57	0	542638080	65	14498
2026-01-05 09:04:28.87	346.36	16.76	-51.2	-61.6	8.3	6.37e-01	40	57	0	544210944	65	12085
2026-01-05 09:04:29.85	346.18	16.67	-51.1	-61.6	8.3	6.38e-01	31	57	0	546308096	65	12005
2026-01-05 09:04:30.83	346.00	16.58	-51.1	-61.1	8.9	6.33e-01	0	57	0	547880960	65	11311
2026-01-05 09:04:31.82	345.83	16.50	-51.3	-61.9	8.2	6.40e-01	48	57	0	549978112	65	12428
2026-01-05 09:04:32.82	345.65	16.41	-51.0	-59.6	10.5	6.15e-01	0	57	0	551550976	65	9593
2026-01-05 09:04:33.81	345.47	16.32	-50.5	-57.4	12.8	6.06e-01	0	57	0	553648128	64	7823
2026-01-05 09:04:34.80	345.29	16.23	-49.7	-54.2	16.3	6.02e-01	0	57	0	555220992	63	5770
2026-01-05 09:04:35.79	345.12	16.14	-49.8	-54.5	16.1	6.01e-01	0	57	0	557318144	62	6300
2026-01-05 09:04:36.77	344.95	16.05	-48.7	-52.6	17.6	6.00e-01	0	57	0	558891008	61	5361
2026-01-05 09:04:37.76	344.78	15.96	-49.4	-53.4	17.4	6.04e-01	0	57	0	560988160	61	5860
2026-01-05 09:04:38.76	344.60	15.88	-49.5	-53.7	16.9	6.00e-01	0	57	0	562561024	61	6109
2026-01-05 09:04:39.75	344.43	15.79	-50.0	-54.7	16.2	6.02e-01	0	57	0	564658176	62	6437
2026-01-05 09:04:40.74	344.27	15.70	-50.7	-57.1	13.6	6.06e-01	0	57	0	566755328	63	8021
2026-01-05 09:04:41.73	344.10	15.61	-50.9	-57.5	13.2	6.04e-01	0	57	0	568328192	63	8451
2026-01-05 09:04:42.72	343.93	15.52	-50.8	-57.8	12.7	6.06e-01	0	57	0	569901056	64	8263
2026-01-05 09:04:43.71	343.77	15.44	-50.7	-57.3	13.3	6.04e-01	0	57	0	571998208	64	7752
2026-01-05 09:04:44.70	343.60	15.35	-50.8	-57.6	13.0	6.05e-01	0	57	0	574095360	64	8032
2026-01-05 09:04:45.70	343.44	15.26	-50.9	-58.5	11.9	6.09e-01	0	57	0	575668224	64	8897
2026-01-05 09:04:46.69	343.27	15.17	-50.8	-58.3	12.0	6.08e-01	0	57	0	577765376	64	8683
2026-01-05 09:04:47.68	343.11	15.09	-50.9	-59.5	10.7	6.14e-01	0	57	0	579338240	64	9955
2026-01-05 09:04:48.67	342.95	15.00	-50.8	-59.4	10.6	6.15e-01	0	57	0	581435392	64	9899
2026-01-05 09:04:49.67	342.79	14.91	-50.9	-60.5	9.5	6.27e-01	0	57	0	583008256	64	11179
2026-01-05 09:04:50.65	342.63	14.83	-50.9	-61.6	8.1	6.42e-01	75	57	0	585105408	64	12762
2026-01-05 09:04:51.64	342.48	14.74	-50.9	-61.7	8.1	6.45e-01	77	57	0	586678272	64	12837
2026-01-05 09:04:52.63	342.32	14.65	-51.0	-63.2	6.6	6.70e-01	91	57	0	588775424	64	15326
2026-01-05 09:04:53.62	342.16	14.57	-50.9	-63.0	6.8	6.69e-01	92	57	0	590872576	64	15041
2026-01-05 09:04:54.61	342.01	14.48	-50.9	-63.2	6.4	6.75e-01	91	57	0	592445440	64	15387
2026-01-05 09:04:55.61	341.85	14.39	-50.8	-64.1	5.7	6.93e-01	91	57	0	594018304	64	17048
2026-01-05 09:04:56.60	341.70	14.31	-50.8	-64.4	5.4	6.98e-01	0	57	0	594542592	64	17501
2026-01-05 09:04:57.60	341.55	14.22	-50.8	-65.4	4.9	7.15e-01	0	57	0	595066880	64	19678
2026-01-05 09:04:58.59	341.40	14.14	-50.6	-65.2	4.9	7.13e-01	0	57	104	595066880	64	19277
2026-01-05 09:04:59.58	341.25	14.05	-50.5	-65.1	4.9	7.11e-01	2	57	0	595066880	64	18960
2026-01-05 09:05:00.57	341.10	13.96	-50.5	-66.4	4.0	7.41e-01	0	57	104	595066880	64	22218
2026-01-05 09:05:01.57	340.95	13.88	-50.5	-66.3	3.9	7.28e-01	0	58	104	595066880	64	21943
2026-01-05 09:05:02.56	340.80	13.79	-50.4	-65.5	4.6	7.20e-01	0	57	104	595066880	64	20011
2026-01-05 09:05:03.55	340.66	13.71	-50.3	-64.8	4.6	7.16e-01	0	57	104	595066880	64	18452
2026-01-05 09:05:04.54	340.51	13.62	-50.3	-64.6	5.0	7.11e-01	0	57	0	595066880	63	18950
2026-01-05 09:05:05.53	340.37	13.54	-50.2	-64.4	5.0	7.11e-01	0	57	0	595066880	63	18579
2026-01-05 09:05:06.51	340.23	13.46	-50.1	-65.5	4.4	7.41e-01	0	57	104	595066880	63	21248
2026-01-05 09:05:07.50	340.09	13.37	-50.2	-66.1	4.2	7.39e-01	0	57	104	595066880	63	22525
2026-01-05 09:05:08.49	339.94	13.29	-50.1	-65.8	4.5	7.25e-01	0	57	104	595066880	63	21763
2026-01-05 09:05:09.48	339.80	13.20	-50.1	-66.5	4.2	7.40e-01	0	57	104	595066880	63	23662
2026-01-05 09:05:10.47	339.66	13.12	-50.0	-66.1	4.3	7.31e-01	0	57	104	595066880	63	22554
2026-01-05 09:05:11.46	339.52	13.04	-50.0	-66.5	4.1	7.36e-01	0	57	104	595066880	63	23699
2026-01-05 09:05:12.45	339.39	12.95	-50.0	-68.4	3.8	7.43e-01	0	57	104	595066880	63	29498
2026-01-05 09:05:13.43	339.25	12.87	-50.1	-69.8	3.8	7.47e-01	0	57	104	595066880	63	34812
2026-01-05 09:05:14.42	339.12	12.79	-50.2	-67.0	3.9	7.39e-01	0	57	104	595066880	63	25056
2026-01-05 09:05:15.40	338.98	12.70	-50.0	-62.4	6.4	6.75e-01	92	57	0	595066880	63	14740
2026-01-05 09:05:16.39	338.85	12.62	-49.9	-60.1	8.6	6.33e-01	3	57	0	2097152	63	11292
2026-01-05 09:05:17.38	338.71	12.54	-49.8	-58.5	10.4	6.15e-01	0	57	0	3670016	63	9392
2026-01-05 09:05:18.38	338.58	12.46	-49.7	-57.6	11.4	6.10e-01	0	57	0	5767168	63	8492
2026-01-05 09:05:19.37	338.45	12.37	-49.7	-57.0	12.2	6.05e-01	0	57	0	7340032	62	8433
2026-01-05 09:05:20.36	338.32	12.29	-49.5	-56.1	13.2	6.03e-01	0	57	0	9437184	62	7593
2026-01-05 09:05:21.35	338.18	12.21	-49.4	-55.1	14.4	6.01e-01	0	57	0	11534336	62	6798
2026-01-05 09:05:22.33	338.06	12.13	-49.4	-54.9	14.8	6.05e-01	0	57	0	13107200	62	6605
2026-01-05 09:05:23.32	337.93	12.05	-49.4	-54.7	15.1	6.02e-01	0	57	0	15204352	62	6486
2026-01-05 09:05:24.31	337.80	11.97	-49.6	-54.7	15.3	6.02e-01	0	57	0	16777216	62	6479
2026-01-05 09:05:25.30	337.67	11.88	-50.0	-54.8	15.9	6.02e-01	0	57	0	18874368	62	6515
2026-01-05 09:05:26.29	337.55	11.80	-50.5	-55.7	15.4	6.03e-01	0	57	0	20447232	63	6864
2026-01-05 09:05:27.28	337.42	11.72	-50.8	-56.0	15.4	6.02e-01	0	57	0	22544384	63	7107
2026-01-05 09:05:28.27	337.29	11.64	-51.0	-56.2	15.5	6.04e-01	0	57	0	24117248	64	6828
2026-01-05 09:05:29.26	337.17	11.56	-51.1	-56.1	15.7	6.01e-01	0	57	0	26214400	64	6783
2026-01-05 09:05:30.24	337.05	11.48	-51.2	-56.1	15.9	6.04e-01	0	57	0	27787264	64	6763
2026-01-05 09:05:31.23	336.93	11.40	-51.1	-55.6	16.5	6.03e-01	0	57	0	29884416	64	6360
2026-01-05 09:05:32.22	336.80	11.32	-51.0	-55.3	16.9	6.02e-01	0	57	0	31457280	64	6140
2026-01-05 09:05:33.21	336.68	11.24	-50.7	-54.5	17.7	6.02e-01	0	57	0	33554432	64	5613
2026-01-05 09:05:34.19	336.56	11.16	-50.3	-53.8	18.4	5.97e-01	0	57	0	35651584	64	5203
2026-01-05 09:05:35.17	336.44	11.08	-50.1	-53.3	19.0	6.02e-01	0	57	0	37224448	63	5161
2026-01-05 09:05:36.17	336.32	11.00	-49.8	-52.8	19.5	6.02e-01	0	57	0	38797312	63	4881
2026-01-05 09:05:37.16	336.21	10.92	-49.6	-52.3	19.9	5.99e-01	0	57	0	40894464	62	4913
2026-01-05 09:05:38.14	336.09	10.84	-49.3	-51.8	20.5	6.02e-01	0	57	0	42991616	62	4619
2026-01-05 09:05:39.13	335.97	10.76	-49.1	-51.6	20.7	6.01e-01	0	57	0	44564480	61	4765
2026-01-05 09:05:40.12	335.86	10.69	-48.9	-51.3	21.0	6.01e-01	0	57	0	46661632	61	4641
2026-01-05 09:05:41.11	335.74	10.61	-48.9	-51.2	21.1	6.01e-01	0	57	0	48234496	61	4581
2026-01-05 09:05:42.10	335.62	10.53	-48.9	-51.3	21.0	6.01e-01	0	57	0	50331648	61	4612
2026-01-05 09:05:43.10	335.51	10.45	-48.9	-51.3	21.0	6.00e-01	0	57	0	51904512	61	4643
2026-01-05 09:05:44.09	335.40	10.37	-48.8	-51.1	21.2	6.02e-01	0	57	0	54001664	61	4512
2026-01-05 09:05:45.07	335.28	10.29	-48.8	-51.1	21.2	5.99e-01	0	57	0	55574528	61	4544
2026-01-05 09:05:46.06	335.17	10.22	-49.0	-51.4	21.0	6.02e-01	0	57	0	57671680	61	4654
2026-01-05 09:05:47.05	335.06	10.14	-49.1	-51.5	20.8	6.01e-01	0	57	0	59244544	61	4736
2026-01-05 09:05:48.03	334.95	10.06	-48.8	-51.2	21.1	5.99e-01	0	57	0	61341696	61	4563
2026-01-05 09:05:49.03	334.84	9.98	-48.8	-51.2	21.1	5.99e-01	0	57	0	63438848	61	4559
2026-01-05 09:05:50.02	334.73	9.91	-48.9	-51.2	21.1	6.02e-01	0	57	0	65011712	61	4573
2026-01-05 09:05:51.02	334.62	9.83	-49.1	-51.5	20.9	6.00e-01	0	57	0	67108864	61	4718
2026-01-05 09:05:52.01	334.51	9.75	-48.8	-51.1	21.2	6.00e-01	0	57	0	68681728	61	4538
2026-01-05 09:05:53.00	334.40	9.68	-48.8	-51.2	21.1	6.00e-01	0	57	0	70778880	61	4554
2026-01-05 09:05:53.99	334.30	9.60	-49.0	-51.5	20.8	6.02e-01	0	57	0	72351744	61	4727
2026-01-05 09:05:54.98	334.19	9.52	-49.0	-51.4	20.8	6.03e-01	0	57	0	74448896	61	4704
2026-01-05 09:05:55.97	334.08	9.45	-49.1	-51.6	20.7	6.02e-01	0	57	0	76021760	61	4810
2026-01-05 09:05:56.96	333.98	9.37	-49.1	-51.6	20.7	6.01e-01	0	57	0	78118912	61	4782
2026-01-05 09:05:57.95	333.87	9.30	-49.3	-51.9	20.4	6.03e-01	0	57	0	79691776	61	4967
2026-01-05 09:05:58.94	333.77	9.22	-49.2	-51.8	20.5	5.99e-01	0	57	0	81788928	61	4881
2026-01-05 09:05:59.92	333.67	9.15	-49.0	-51.5	20.8	6.00e-01	0	57	0	83361792	61	4736
2026-01-05 09:06:00.91	333.57	9.07	-48.9	-51.3	20.9	6.00e-01	0	57	0	85458944	61	4609
2026-01-05 09:06:01.89	333.46	9.00	-49.0	-51.4	20.9	6.01e-01	0	57	0	87556096	61	4659
2026-01-05 09:06:02.89	333.36	8.92	-48.9	-51.3	20.9	6.02e-01	0	57	0	89128960	61	4637
2026-01-05 09:06:03.88	333.26	8.85	-49.1	-51.6	20.7	6.00e-01	0	57	0	91226112	61	4794
2026-01-05 09:06:04.86	333.16	8.77	-49.0	-51.4	20.8	6.01e-01	0	57	0	92798976	61	4693
2026-01-05 09:06:05.84	333.06	8.70	-49.0	-51.4	20.8	5.99e-01	0	57	0	94896128	61	4692
2026-01-05 09:06:06.83	332.96	8.62	-49.1	-51.6	20.7	6.02e-01	0	57	0	96468992	61	4783
2026-01-05 09:06:07.82	332.86	8.55	-49.2	-51.7	20.5	6.02e-01	0	57	0	98566144	61	4869
2026-01-05 09:06:08.81	332.77	8.48	-49.2	-51.8	20.5	6.02e-01	0	57	0	100139008	61	4922
2026-01-05 09:06:09.79	332.67	8.40	-49.3	-51.9	20.3	6.01e-01	0	57	0	102236160	61	4962
2026-01-05 09:06:10.78	332.57	8.33	-49.2	-51.8	20.5	6.01e-01	0	57	0	103809024	61	4871
2026-01-05 09:06:11.77	332.48	8.26	-49.2	-51.8	20.5	6.02e-01	0	57	0	105906176	61	4892
2026-01-05 09:06:12.76	332.38	8.18	-49.2	-51.8	20.4	6.00e-01	0	57	0	107479040	61	4920
2026-01-05 09:06:13.74	332.29	8.11	-49.2	-51.7	20.5	6.02e-01	0	57	0	109576192	61	4861
2026-01-05 09:06:14.74	332.19	8.04	-49.2	-51.7	20.5	6.00e-01	0	57	0	111673344	61	4859
2026-01-05 09:06:15.73	332.09	7.96	-49.3	-51.9	20.3	6.01e-01	0	57	0	113246208	61	4953
2026-01-05 09:06:16.72	332.00	7.89	-49.4	-52.0	20.3	6.04e-01	0	57	0	115343360	61	5012
2026-01-05 09:06:17.71	331.91	7.82	-49.4	-52.0	20.2	6.01e-01	0	57	0	116916224	61	5039
2026-01-05 09:06:18.70	331.81	7.75	-49.5	-52.2	20.1	6.00e-01	0	57	0	119013376	61	5124
2026-01-05 09:06:19.69	331.72	7.67	-49.4	-52.1	20.1	6.01e-01	0	57	0	120586240	61	5079
2026-01-05 09:06:20.67	331.63	7.60	-49.5	-52.2	20.0	6.01e-01	0	57	0	122683392	61	5135
2026-01-05 09:06:21.65	331.54	7.53	-49.5	-52.3	19.9	5.98e-01	0	57	0	124256256	61	5186
2026-01-05 09:06:22.64	331.45	7.46	-49.6	-52.5	19.8	6.00e-01	0	57	0	126353408	61	5302
2026-01-05 09:06:23.62	331.36	7.39	-49.6	-52.5	19.7	6.00e-01	0	57	0	127926272	61	5326
2026-01-05 09:06:24.61	331.27	7.32	-49.6	-52.4	19.8	6.01e-01	0	57	0	130023424	61	5254
2026-01-05 09:06:25.60	331.18	7.25	-49.6	-52.5	19.7	6.03e-01	0	57	0	131596288	61	5326
2026-01-05 09:06:26.60	331.09	7.17	-49.7	-52.6	19.6	6.02e-01	0	57	0	133693440	61	5363
2026-01-05 09:06:27.58	331.01	7.10	-49.5	-52.2	20.0	6.01e-01	0	57	0	135266304	61	5152
2026-01-05 09:06:28.57	330.92	7.03	-49.4	-52.1	20.1	5.99e-01	0	57	0	137363456	61	5052
2026-01-05 09:06:29.55	330.83	6.96	-49.4	-52.1	20.1	6.01e-01	0	57	0	138936320	61	5059
2026-01-05 09:06:30.54	330.74	6.89	-49.4	-52.2	19.9	5.99e-01	0	57	0	141033472	61	5142
2026-01-05 09:06:31.53	330.66	6.82	-49.5	-52.4	19.8	6.00e-01	0	57	0	143130624	61	5243
2026-01-05 09:06:32.52	330.57	6.75	-49.5	-52.3	19.8	6.01e-01	0	57	0	144703488	61	5179
2026-01-05 09:06:33.52	330.49	6.68	-49.5	-52.3	19.9	6.01e-01	0	57	0	146800640	61	5178
2026-01-05 09:06:34.51	330.40	6.61	-49.6	-52.5	19.7	5.99e-01	0	57	0	148373504	61	5281
2026-01-05 09:06:35.49	330.32	6.54	-49.6	-52.6	19.5	6.00e-01	0	57	0	150470656	61	5360
2026-01-05 09:06:36.49	330.23	6.47	-49.7	-52.6	19.5	6.02e-01	0	57	0	152043520	61	5374
2026-01-05 09:06:37.47	330.15	6.40	-49.4	-52.3	19.8	6.01e-01	0	57	0	154140672	61	5179
2026-01-05 09:06:38.47	330.07	6.33	-49.4	-52.2	19.9	6.02e-01	0	57	0	155713536	61	5135
2026-01-05 09:06:39.46	329.98	6.27	-49.5	-52.3	19.7	6.01e-01	0	57	0	157810688	61	5199
2026-01-05 09:06:40.45	329.90	6.20	-49.4	-52.2	19.8	6.02e-01	0	57	0	159383552	61	5146
2026-01-05 09:06:41.44	329.82	6.13	-49.4	-52.3	19.8	6.01e-01	0	57	0	161480704	61	5163
2026-01-05 09:06:42.43	329.74	6.06	-49.4	-52.3	19.7	6.01e-01	0	57	0	163577856	61	5188
2026-01-05 09:06:43.42	329.66	5.99	-49.4	-52.2	19.8	6.01e-01	0	57	0	165150720	61	5122
2026-01-05 09:06:44.41	329.58	5.92	-49.6	-52.5	19.5	6.01e-01	0	57	0	167247872	61	5303
2026-01-05 09:06:45.40	329.50	5.85	-49.6	-52.7	19.3	6.02e-01	0	57	0	168820736	61	5417
2026-01-05 09:06:46.39	329.42	5.79	-49.6	-52.6	19.4	6.01e-01	0	57	0	170917888	61	5379
2026-01-05 09:06:47.38	329.34	5.72	-49.6	-52.5	19.4	6.00e-01	0	57	0	172490752	61	5325
2026-01-05 09:06:48.38	329.26	5.65	-49.7	-52.7	19.3	6.02e-01	0	57	0	174587904	61	5441
2026-01-05 09:06:49.36	329.18	5.58	-49.7	-52.7	19.2	5.98e-01	0	57	0	176160768	61	5446
2026-01-05 09:06:50.34	329.10	5.52	-49.9	-53.1	18.9	6.00e-01	0	57	0	178257920	61	5681
2026-01-05 09:06:51.33	329.02	5.45	-49.6	-52.7	19.3	6.01e-01	0	57	0	179830784	61	5406
2026-01-05 09:06:52.33	328.95	5.38	-49.7	-52.8	19.2	6.02e-01	0	57	0	181927936	61	5474
2026-01-05 09:06:53.32	328.87	5.31	-49.8	-52.9	19.1	6.00e-01	0	57	0	183500800	61	5580
2026-01-05 09:06:54.30	328.79	5.25	-49.7	-52.8	19.1	6.01e-01	0	57	0	185597952	61	5514
2026-01-05 09:06:55.30	328.72	5.18	-49.8	-52.9	19.1	6.03e-01	0	57	0	187695104	61	5569
2026-01-05 09:06:56.29	328.64	5.11	-49.9	-53.2	18.8	6.01e-01	0	57	0	189267968	62	5426
2026-01-05 09:06:57.28	328.57	5.05	-53.2	-72.2	3.5	7.50e-01	0	57	104	190840832	68	34149
2026-01-05 09:06:58.27	328.49	4.98	-53.2	-72.5	3.9	7.42e-01	0	57	104	190840832	68	35613
2026-01-05 09:06:59.26	328.42	4.91	-49.4	-69.1	3.9	7.46e-01	0	57	104	190840832	62	34079
2026-01-05 09:07:00.25	328.34	4.85	-49.4	-69.1	3.8	7.47e-01	0	57	104	190840832	62	33969
2026-01-05 09:07:01.24	328.27	4.78	-50.8	-70.4	3.8	7.42e-01	0	57	104	190840832	63	37279
2026-01-05 09:07:02.22	328.20	4.72	-52.8	-72.6	3.8	7.42e-01	0	57	104	190840832	67	37951
2026-01-05 09:07:03.20	328.13	4.65	-53.9	-73.8	3.9	7.45e-01	0	57	104	190840832	70	36899
2026-01-05 09:07:04.20	328.05	4.59	-54.1	-74.0	3.8	7.45e-01	0	57	104	190840832	70	37569
2026-01-05 09:07:05.18	327.98	4.52	-54.1	-74.0	3.8	7.45e-01	0	57	104	190840832	70	37766
2026-01-05 09:07:06.18	327.91	4.46	-54.2	-74.1	3.8	7.43e-01	0	57	104	190840832	70	38078
2026-01-05 09:07:07.17	327.84	4.39	-54.2	-74.1	3.8	7.47e-01	0	57	104	190840832	70	38206
2026-01-05 09:07:08.16	327.77	4.33	-54.2	-74.2	3.8	7.47e-01	0	57	104	190840832	70	38412
2026-01-05 09:07:09.15	327.70	4.26	-54.3	-74.2	3.8	7.45e-01	0	57	104	190840832	70	38500
2026-01-05 09:07:10.14	327.63	4.20	-54.3	-74.2	3.8	7.46e-01	0	57	104	190840832	70	38588
2026-01-05 09:07:11.13	327.56	4.13	-54.3	-74.3	3.8	7.47e-01	0	57	104	190840832	70	38742
2026-01-05 09:07:12.12	327.49	4.07	-54.4	-74.3	3.8	7.45e-01	0	57	104	190840832	70	38831
2026-01-05 09:07:13.11	327.42	4.00	-54.4	-74.3	3.8	7.48e-01	0	57	104	190840832	70	38984
2026-01-05 09:07:14.11	327.35	3.94	-54.4	-74.3	3.8	7.45e-01	0	57	104	190840832	70	38942
2026-01-05 09:07:15.11	327.28	3.87	-54.4	-74.3	3.8	7.45e-01	0	57	104	190840832	71	36881
2026-01-05 09:07:16.10	327.21	3.81	-54.4	-74.3	3.8	7.44e-01	0	57	104	190840832	71	36929
2026-01-05 09:07:17.09	327.14	3.75	-54.4	-74.3	3.8	7.44e-01	0	57	104	190840832	71	36936
2026-01-05 09:07:18.08	327.07	3.68	-54.4	-74.3	3.8	7.45e-01	0	57	104	190840832	71	36916
2026-01-05 09:07:19.07	327.01	3.62	-54.4	-74.4	3.8	7.47e-01	0	57	104	190840832	71	37107
2026-01-05 09:07:20.06	326.94	3.56	-54.5	-74.4	3.8	7.43e-01	0	57	104	190840832	71	37099
2026-01-05 09:07:21.05	326.87	3.49	-54.4	-74.3	3.8	7.45e-01	0	57	104	190840832	71	36652
2026-01-05 09:07:22.04	326.81	3.43	-54.5	-74.4	3.8	7.44e-01	0	57	104	190840832	71	37209
2026-01-05 09:07:23.03	326.74	3.37	-54.5	-74.4	3.8	7.44e-01	0	57	104	190840832	71	37162
2026-01-05 09:07:24.02	326.68	3.30	-54.4	-74.4	3.8	7.46e-01	0	57	104	190840832	71	37106
2026-01-05 09:07:25.02	326.61	3.24	-54.5	-74.4	3.8	7.44e-01	0	57	104	190840832	71	37147
2026-01-05 09:07:26.01	326.55	3.18	-54.4	-74.4	3.8	7.44e-01	0	57	104	190840832	71	37084
2026-01-05 09:07:26.99	326.48	3.12	-54.4	-74.4	3.8	7.46e-01	0	57	104	190840832	71	37041
2026-01-05 09:07:27.98	326.42	3.05	-54.4	-74.4	3.8	7.48e-01	0	57	104	190840832	71	37029
2026-01-05 09:07:28.97	326.35	2.99	-54.4	-74.4	3.8	7.45e-01	0	57	104	190840832	71	37035
2026-01-05 09:07:29.95	326.29	2.93	-54.4	-74.4	3.8	7.47e-01	0	57	104	190840832	71	37090
2026-01-05 09:07:30.94	326.23	2.87	-54.4	-74.4	3.8	7.42e-01	0	57	104	190840832	71	37073

#Closed at: 2026-01-05 09:07:31
#Recorded file [190 MB]: D:/Data/31026_260105_120657.dat