passes_logs/2026/01/05/R3.0SM8_Murmansk_STILSPACE/R3.0SM8_Murmansk_STILSPACE__20260105_022939_AQUA_rec.log

#Pass ID: 20260105_022939_AQUA
#Satellite: AQUA
#Configuration: AQUA
#almurnet v.1.7.20240730
#Start time: 2026-01-05 02:29:40

#Version: 2.2.20231116
#Station: R3.0SM8_Murmansk_STILSPACE
#Location: 33.092731 lon 68.902999 lat
#TLE: 1 27424U 02022A   26003.93831470  .00001925  00000+0  39553-3 0  9995
#TLE: 2 27424  98.4067 330.1809 0002003  92.1713 343.8415 14.61796291259276

#Time	Az	El	Level	Level2	SNR	BER	BlckErr	Temp	State	Recorded	gain1	gain2
2026-01-05 02:29:40.88	24.06	3.10	-54.0	-73.9	3.8	7.47e-01	0	47	0	0	70	37339
2026-01-05 02:29:41.86	24.06	3.17	-53.8	-73.7	3.8	7.44e-01	0	47	104	0	70	36440
2026-01-05 02:29:42.86	24.05	3.24	-53.7	-73.6	3.8	7.47e-01	0	47	104	0	70	35953
2026-01-05 02:29:43.84	24.05	3.31	-53.5	-73.4	3.8	7.43e-01	0	47	104	0	70	35011
2026-01-05 02:29:44.82	24.05	3.38	-53.3	-73.2	3.8	7.45e-01	0	47	104	0	70	34212
2026-01-05 02:29:45.81	24.04	3.44	-53.0	-70.1	4.0	7.40e-01	0	47	104	0	69	25556
2026-01-05 02:29:46.80	24.04	3.51	-53.0	-70.4	4.0	7.44e-01	0	47	104	0	69	26192
2026-01-05 02:29:47.79	24.04	3.58	-53.0	-69.1	4.1	7.29e-01	0	47	104	0	69	22659
2026-01-05 02:29:48.78	24.04	3.65	-53.0	-68.8	4.4	7.42e-01	0	47	104	0	69	21811
2026-01-05 02:29:49.78	24.03	3.72	-52.9	-67.2	5.1	7.07e-01	0	48	104	0	68	19301
2026-01-05 02:29:50.77	24.03	3.79	-52.9	-66.1	5.8	6.88e-01	48	48	0	0	68	16946
2026-01-05 02:29:51.76	24.03	3.86	-52.9	-66.0	5.9	6.83e-01	92	48	0	2097152	68	16715
2026-01-05 02:29:52.75	24.02	3.93	-52.8	-65.3	6.4	6.75e-01	93	48	0	3145728	68	15473
2026-01-05 02:29:53.74	24.02	4.01	-52.8	-64.6	7.0	6.61e-01	91	48	0	5242880	68	14344
2026-01-05 02:29:54.73	24.02	4.08	-52.4	-63.7	7.9	6.45e-01	87	48	0	6815744	68	12944
2026-01-05 02:29:55.72	24.01	4.15	-52.7	-63.5	8.1	6.41e-01	65	48	0	8912896	68	12550
2026-01-05 02:29:56.70	24.01	4.22	-52.6	-63.0	8.6	6.33e-01	7	48	0	10485760	68	11907
2026-01-05 02:29:57.69	24.01	4.29	-52.6	-62.2	9.4	6.25e-01	0	48	0	12582912	68	10871
2026-01-05 02:29:58.68	24.00	4.36	-52.4	-61.2	10.4	6.13e-01	0	48	0	14155776	68	9709
2026-01-05 02:29:59.68	24.00	4.43	-52.3	-60.5	11.1	6.11e-01	0	48	0	16252928	68	8954
2026-01-05 02:30:00.67	24.00	4.51	-52.1	-59.6	12.1	6.05e-01	0	48	0	17825792	67	8511
2026-01-05 02:30:01.66	23.99	4.58	-51.9	-58.7	13.1	6.07e-01	0	49	0	19922944	67	7689
2026-01-05 02:30:02.65	23.99	4.65	-51.8	-58.3	13.5	6.02e-01	0	48	0	21495808	67	7308
2026-01-05 02:30:03.64	23.99	4.72	-51.5	-57.2	14.6	6.01e-01	0	48	0	23592960	66	6853
2026-01-05 02:30:04.63	23.98	4.80	-51.4	-56.8	14.9	6.00e-01	0	48	0	25690112	66	6548
2026-01-05 02:30:05.61	23.98	4.87	-50.8	-56.0	15.7	6.03e-01	0	48	0	27262976	65	6335
2026-01-05 02:30:06.61	23.97	4.94	-50.8	-55.4	16.4	6.01e-01	0	49	0	29360128	65	5892
2026-01-05 02:30:07.59	23.97	5.02	-50.7	-55.1	16.7	6.02e-01	0	49	0	30932992	65	5703
2026-01-05 02:30:08.58	23.97	5.09	-50.6	-54.7	17.1	6.00e-01	0	49	0	33030144	64	5775
2026-01-05 02:30:09.58	23.96	5.17	-50.7	-55.1	16.8	5.98e-01	0	49	0	34603008	64	6019
2026-01-05 02:30:10.57	23.96	5.24	-50.7	-54.9	17.0	6.02e-01	0	49	0	36700160	64	5876
2026-01-05 02:30:11.56	23.96	5.32	-50.4	-54.4	17.5	5.99e-01	0	49	0	38273024	64	5554
2026-01-05 02:30:12.55	23.95	5.39	-50.2	-53.8	18.0	6.02e-01	0	49	0	40370176	64	5212
2026-01-05 02:30:13.54	23.95	5.47	-50.1	-53.5	18.4	5.99e-01	0	49	0	41943040	63	5321
2026-01-05 02:30:14.53	23.94	5.54	-49.9	-53.2	18.7	6.00e-01	0	49	0	44040192	63	5126
2026-01-05 02:30:15.52	23.94	5.62	-49.7	-52.9	19.0	6.00e-01	0	49	0	45613056	62	5265
2026-01-05 02:30:16.52	23.93	5.69	-49.7	-52.9	19.0	6.02e-01	0	49	0	47710208	62	5270
2026-01-05 02:30:17.50	23.93	5.77	-49.6	-52.6	19.3	5.99e-01	0	49	0	49283072	62	5092
2026-01-05 02:30:18.49	23.93	5.85	-49.8	-53.1	18.9	5.98e-01	0	49	0	51380224	62	5347
2026-01-05 02:30:19.48	23.92	5.92	-49.9	-53.2	18.8	6.01e-01	0	49	0	53477376	62	5435
2026-01-05 02:30:20.47	23.92	6.00	-49.6	-52.7	19.3	6.00e-01	0	49	0	55050240	62	5134
2026-01-05 02:30:21.47	23.91	6.08	-49.5	-52.5	19.5	6.02e-01	0	49	0	57147392	62	5018
2026-01-05 02:30:22.47	23.91	6.16	-49.4	-52.2	19.8	5.99e-01	0	49	0	58720256	62	4835
2026-01-05 02:30:23.45	23.90	6.23	-49.2	-51.9	20.2	6.00e-01	0	49	0	60817408	61	4928
2026-01-05 02:30:24.44	23.90	6.31	-49.1	-51.7	20.3	6.01e-01	0	50	0	62390272	61	4866
2026-01-05 02:30:25.43	23.89	6.39	-49.1	-51.8	20.1	5.98e-01	0	49	0	64487424	61	4898
2026-01-05 02:30:26.42	23.89	6.47	-49.1	-51.8	20.2	6.01e-01	0	50	0	66060288	61	4903
2026-01-05 02:30:27.40	23.89	6.55	-49.1	-51.8	20.3	6.03e-01	0	50	0	68157440	61	4876
2026-01-05 02:30:28.39	23.88	6.62	-49.0	-51.5	20.5	6.01e-01	0	50	0	69730304	61	4743
2026-01-05 02:30:29.37	23.88	6.70	-49.0	-51.5	20.5	6.02e-01	0	50	0	71827456	61	4747
2026-01-05 02:30:30.36	23.87	6.78	-49.1	-51.7	20.3	6.01e-01	0	50	0	73400320	61	4832
2026-01-05 02:30:31.35	23.87	6.86	-49.1	-51.6	20.5	6.00e-01	0	50	0	75497472	61	4810
2026-01-05 02:30:32.34	23.86	6.94	-49.1	-51.6	20.5	5.99e-01	0	50	0	77594624	61	4801
2026-01-05 02:30:33.32	23.86	7.02	-49.0	-51.6	20.6	5.99e-01	0	50	0	79167488	61	4766
2026-01-05 02:30:34.31	23.85	7.10	-49.1	-51.6	20.5	6.04e-01	0	50	0	81264640	61	4804
2026-01-05 02:30:35.30	23.85	7.18	-49.0	-51.5	20.6	6.00e-01	0	50	0	82837504	61	4743
2026-01-05 02:30:36.30	23.84	7.27	-48.9	-51.3	20.8	6.01e-01	0	50	0	84934656	60	4905
2026-01-05 02:30:37.29	23.83	7.35	-48.9	-51.4	20.8	6.00e-01	0	50	0	86507520	60	4932
2026-01-05 02:30:38.27	23.83	7.43	-48.9	-51.4	20.8	6.02e-01	0	50	0	88604672	60	4958
2026-01-05 02:30:39.26	23.82	7.51	-49.0	-51.5	20.7	6.00e-01	0	50	0	90177536	60	5015
2026-01-05 02:30:40.24	23.82	7.59	-48.8	-51.2	21.0	6.00e-01	0	50	0	92274688	60	4837
2026-01-05 02:30:41.23	23.81	7.67	-48.7	-51.0	21.2	5.98e-01	0	50	0	93847552	60	4733
2026-01-05 02:30:42.22	23.81	7.76	-48.6	-50.9	21.3	6.02e-01	0	50	0	95944704	60	4667
2026-01-05 02:30:43.22	23.80	7.84	-48.7	-51.1	21.1	6.02e-01	0	50	0	97517568	60	4779
2026-01-05 02:30:44.21	23.80	7.92	-48.8	-51.2	21.1	6.00e-01	0	50	0	99614720	60	4820
2026-01-05 02:30:45.20	23.79	8.01	-48.8	-51.3	21.0	6.01e-01	0	51	0	101711872	60	4872
2026-01-05 02:30:46.20	23.78	8.09	-48.7	-51.1	21.1	6.01e-01	0	51	0	103284736	60	4782
2026-01-05 02:30:47.19	23.78	8.18	-48.8	-51.2	21.1	5.98e-01	0	51	0	105381888	60	4826
2026-01-05 02:30:48.17	23.77	8.26	-48.9	-51.3	21.0	6.02e-01	0	51	0	106954752	60	4897
2026-01-05 02:30:49.16	23.77	8.35	-48.8	-51.1	21.1	6.02e-01	0	51	0	109051904	60	4802
2026-01-05 02:30:50.15	23.76	8.43	-48.9	-51.2	21.0	6.02e-01	0	51	0	110624768	60	4862
2026-01-05 02:30:51.14	23.75	8.52	-49.0	-51.5	20.8	6.01e-01	0	51	0	112721920	60	4991
2026-01-05 02:30:52.12	23.75	8.60	-48.9	-51.3	21.0	6.00e-01	0	51	0	114294784	60	4901
2026-01-05 02:30:53.11	23.74	8.69	-49.0	-51.4	20.9	6.03e-01	0	51	0	116391936	60	4976
2026-01-05 02:30:54.09	23.74	8.78	-48.6	-51.2	21.0	6.00e-01	0	51	0	117964800	60	4825
2026-01-05 02:30:55.07	23.73	8.86	-48.7	-51.0	21.3	6.03e-01	0	51	0	120061952	60	4713
2026-01-05 02:30:56.06	23.72	8.95	-48.7	-50.9	21.4	6.01e-01	0	51	0	121634816	60	4683
2026-01-05 02:30:57.05	23.72	9.04	-48.7	-51.0	21.3	6.01e-01	0	51	0	123731968	60	4725
2026-01-05 02:30:58.04	23.71	9.13	-48.7	-51.0	21.3	6.01e-01	0	51	0	125829120	60	4749
2026-01-05 02:30:59.03	23.70	9.21	-48.7	-50.9	21.4	6.01e-01	0	51	0	127401984	60	4701
2026-01-05 02:31:00.01	23.70	9.30	-48.6	-50.7	21.6	6.00e-01	0	51	0	128974848	60	4593
2026-01-05 02:31:01.00	23.69	9.39	-48.6	-50.9	21.5	6.01e-01	0	51	0	131072000	60	4661
2026-01-05 02:31:01.99	23.68	9.48	-48.6	-50.8	21.6	6.02e-01	0	51	0	133169152	60	4603
2026-01-05 02:31:02.97	23.67	9.57	-48.6	-50.8	21.5	6.01e-01	0	51	0	134742016	60	4640
2026-01-05 02:31:03.96	23.67	9.66	-48.7	-50.9	21.4	6.00e-01	0	51	0	136839168	60	4702
2026-01-05 02:31:04.94	23.66	9.75	-48.6	-50.9	21.5	5.99e-01	0	51	0	138412032	60	4659
2026-01-05 02:31:05.93	23.65	9.84	-48.6	-50.8	21.6	6.01e-01	0	51	0	140509184	60	4616
2026-01-05 02:31:06.92	23.65	9.93	-48.6	-50.7	21.7	5.99e-01	0	51	0	142082048	60	4582
2026-01-05 02:31:07.91	23.64	10.02	-48.7	-50.9	21.5	6.00e-01	0	51	0	144179200	60	4677
2026-01-05 02:31:08.90	23.63	10.12	-48.6	-50.8	21.6	6.01e-01	0	52	0	145752064	60	4609
2026-01-05 02:31:09.89	23.62	10.21	-48.5	-50.6	21.8	6.01e-01	0	51	0	147849216	60	4515
2026-01-05 02:31:10.87	23.62	10.30	-48.5	-50.6	21.8	6.01e-01	0	51	0	149422080	60	4528
2026-01-05 02:31:11.86	23.61	10.39	-48.4	-50.5	21.9	6.00e-01	0	52	0	151519232	60	4478
2026-01-05 02:31:12.85	23.60	10.49	-48.5	-50.6	21.8	6.02e-01	0	51	0	153092096	60	4544
2026-01-05 02:31:13.84	23.59	10.58	-48.8	-51.0	21.4	6.02e-01	0	51	0	155189248	60	4755
2026-01-05 02:31:14.83	23.58	10.68	-48.7	-50.9	21.5	6.03e-01	0	52	0	157286400	60	4690
2026-01-05 02:31:15.82	23.58	10.77	-48.7	-51.0	21.2	6.02e-01	0	52	0	158859264	60	4738
2026-01-05 02:31:16.81	23.57	10.87	-49.0	-51.4	21.0	6.01e-01	0	52	0	160956416	60	4969
2026-01-05 02:31:17.80	23.56	10.96	-48.9	-51.2	20.9	6.02e-01	0	52	0	162529280	60	4850
2026-01-05 02:31:18.79	23.55	11.06	-48.6	-50.8	21.6	6.02e-01	0	52	0	164626432	60	4608
2026-01-05 02:31:19.78	23.54	11.15	-48.4	-50.5	22.0	6.01e-01	0	52	0	166199296	60	4449
2026-01-05 02:31:20.76	23.53	11.25	-48.2	-50.2	22.2	5.99e-01	0	52	0	168296448	60	4310
2026-01-05 02:31:21.75	23.53	11.35	-48.6	-50.6	22.2	5.99e-01	0	52	0	169869312	59	4788
2026-01-05 02:31:22.73	23.52	11.45	-48.7	-50.8	22.0	6.00e-01	0	52	0	171966464	59	4886
2026-01-05 02:31:23.72	23.51	11.54	-48.6	-50.7	22.1	6.02e-01	0	52	0	173539328	59	4849
2026-01-05 02:31:24.71	23.50	11.64	-48.7	-50.7	22.0	6.00e-01	0	52	0	175636480	59	4855
2026-01-05 02:31:25.70	23.49	11.74	-48.7	-50.8	21.9	6.03e-01	0	52	0	177209344	59	4901
2026-01-05 02:31:26.68	23.48	11.84	-48.9	-51.0	21.8	6.01e-01	0	52	0	179306496	59	5016
2026-01-05 02:31:27.67	23.47	11.94	-48.4	-50.5	22.0	6.00e-01	0	52	0	180879360	60	4447
2026-01-05 02:31:28.66	23.46	12.04	-48.4	-50.5	21.9	6.01e-01	0	52	0	182976512	60	4473
2026-01-05 02:31:29.64	23.45	12.14	-48.4	-50.4	22.0	6.02e-01	0	52	0	185073664	60	4436
2026-01-05 02:31:30.63	23.44	12.24	-48.6	-50.6	22.2	6.00e-01	0	52	0	186646528	59	4805
2026-01-05 02:31:31.62	23.44	12.34	-48.6	-50.6	22.2	6.02e-01	0	52	0	188743680	59	4793
2026-01-05 02:31:32.61	23.43	12.45	-48.7	-50.8	22.1	6.02e-01	0	52	0	190316544	59	4885
2026-01-05 02:31:33.59	23.42	12.55	-48.7	-50.7	22.1	6.03e-01	0	52	0	192413696	59	4848
2026-01-05 02:31:34.58	23.41	12.65	-48.7	-50.8	22.1	5.98e-01	0	52	0	193986560	59	4874
2026-01-05 02:31:35.57	23.40	12.75	-48.9	-51.0	21.9	6.03e-01	0	52	0	196083712	59	5018
2026-01-05 02:31:36.56	23.39	12.86	-48.7	-50.9	21.6	6.00e-01	0	52	0	197656576	60	4694
2026-01-05 02:31:37.55	23.38	12.96	-48.7	-50.9	21.6	5.99e-01	0	52	0	199753728	60	4665
2026-01-05 02:31:38.55	23.37	13.07	-48.5	-50.5	22.0	6.02e-01	0	52	0	201326592	60	4491
2026-01-05 02:31:39.53	23.35	13.18	-48.2	-50.2	22.3	6.00e-01	0	52	0	203423744	60	4294
2026-01-05 02:31:40.52	23.34	13.28	-48.5	-50.4	22.5	6.01e-01	0	52	0	204996608	59	4681
2026-01-05 02:31:41.51	23.33	13.39	-48.4	-50.4	22.5	6.02e-01	0	52	0	207093760	59	4657
2026-01-05 02:31:42.50	23.32	13.50	-48.5	-50.5	22.4	6.01e-01	0	52	0	208666624	59	4734
2026-01-05 02:31:43.49	23.31	13.60	-48.6	-50.6	22.3	6.01e-01	0	52	0	210763776	59	4776
2026-01-05 02:31:44.49	23.30	13.71	-48.5	-50.5	22.4	6.01e-01	0	52	0	212860928	59	4732
2026-01-05 02:31:45.48	23.29	13.82	-48.7	-50.8	22.2	6.00e-01	0	52	0	214433792	59	4879
2026-01-05 02:31:46.47	23.28	13.93	-48.8	-50.9	21.9	6.02e-01	0	52	0	216530944	59	4959
2026-01-05 02:31:47.46	23.27	14.04	-48.6	-50.6	22.3	6.01e-01	0	52	0	218103808	59	4792
2026-01-05 02:31:48.45	23.26	14.15	-48.4	-50.4	22.5	6.02e-01	0	52	0	220200960	59	4653
2026-01-05 02:31:49.44	23.24	14.26	-48.4	-50.3	22.6	6.00e-01	0	52	0	221773824	59	4651
2026-01-05 02:31:50.44	23.23	14.38	-48.4	-50.3	22.6	6.00e-01	0	52	0	223870976	59	4641
2026-01-05 02:31:51.43	23.22	14.49	-48.5	-50.5	22.5	6.01e-01	0	53	0	225443840	59	4713
2026-01-05 02:31:52.42	23.21	14.60	-48.6	-50.5	22.4	6.03e-01	0	53	0	227540992	59	4748
2026-01-05 02:31:53.41	23.20	14.71	-48.4	-50.3	22.7	6.01e-01	0	53	0	229113856	59	4617
2026-01-05 02:31:54.40	23.18	14.83	-48.2	-50.1	22.9	6.01e-01	0	53	0	231211008	59	4503
2026-01-05 02:31:55.39	23.17	14.94	-48.2	-50.0	23.0	5.98e-01	0	53	0	233308160	59	4468
2026-01-05 02:31:56.38	23.16	15.06	-48.2	-50.0	22.9	6.01e-01	0	53	0	234881024	59	4485
2026-01-05 02:31:57.37	23.15	15.17	-48.2	-50.0	22.9	6.01e-01	0	53	0	236978176	59	4473
2026-01-05 02:31:58.35	23.13	15.29	-48.2	-50.1	22.8	6.00e-01	0	53	0	238551040	59	4514
2026-01-05 02:31:59.34	23.12	15.41	-48.3	-50.2	22.7	6.02e-01	0	53	0	240648192	59	4569
2026-01-05 02:32:00.33	23.11	15.52	-48.2	-50.0	22.9	6.04e-01	0	53	0	242221056	59	4466
2026-01-05 02:32:01.32	23.09	15.64	-48.0	-49.8	23.2	6.02e-01	0	53	0	244318208	59	4346
2026-01-05 02:32:02.31	23.08	15.76	-48.0	-49.7	23.2	6.01e-01	0	53	0	245891072	59	4321
2026-01-05 02:32:03.30	23.07	15.88	-47.9	-49.7	23.3	6.02e-01	0	53	0	247988224	59	4297
2026-01-05 02:32:04.29	23.05	16.00	-47.9	-49.7	23.3	6.02e-01	0	53	0	249561088	59	4306
2026-01-05 02:32:05.29	23.04	16.12	-48.0	-49.7	23.3	6.02e-01	0	53	0	251658240	59	4326
2026-01-05 02:32:06.28	23.03	16.25	-47.8	-49.5	23.4	6.01e-01	0	53	0	253231104	59	4237
2026-01-05 02:32:07.27	23.01	16.37	-47.8	-49.5	23.4	6.01e-01	0	53	0	255328256	59	4223
2026-01-05 02:32:08.26	23.00	16.49	-47.9	-49.6	23.4	6.01e-01	0	53	0	257425408	59	4245
2026-01-05 02:32:09.24	22.98	16.61	-47.9	-49.6	23.4	6.02e-01	0	53	0	258998272	59	4275
2026-01-05 02:32:10.23	22.97	16.74	-47.9	-49.6	23.4	6.00e-01	0	53	0	261095424	59	4261
2026-01-05 02:32:11.22	22.95	16.86	-47.9	-49.6	23.4	6.02e-01	0	53	0	262668288	59	4250
2026-01-05 02:32:12.21	22.94	16.99	-48.0	-49.7	23.3	6.02e-01	0	53	0	264765440	59	4315
2026-01-05 02:32:13.20	22.92	17.11	-47.9	-49.6	23.3	6.03e-01	0	53	0	266338304	59	4281
2026-01-05 02:32:14.19	22.91	17.24	-47.8	-49.6	23.4	6.00e-01	0	53	0	268435456	59	4243
2026-01-05 02:32:15.18	22.89	17.37	-47.9	-49.7	23.3	6.02e-01	0	53	0	270008320	59	4300
2026-01-05 02:32:16.17	22.88	17.50	-48.0	-49.7	23.3	6.01e-01	0	53	0	272105472	59	4307
2026-01-05 02:32:17.16	22.86	17.63	-48.0	-49.8	23.3	6.00e-01	0	53	0	273678336	59	4342
2026-01-05 02:32:18.15	22.85	17.76	-48.1	-49.9	23.1	6.01e-01	0	53	0	275775488	59	4408
2026-01-05 02:32:19.14	22.83	17.89	-48.2	-50.1	22.9	6.00e-01	0	53	0	277872640	59	4506
2026-01-05 02:32:20.13	22.81	18.02	-48.1	-49.9	23.1	6.01e-01	0	53	0	279445504	59	4433
2026-01-05 02:32:21.12	22.80	18.15	-48.3	-50.2	22.8	6.00e-01	0	53	0	281542656	59	4572
2026-01-05 02:32:22.11	22.78	18.29	-48.6	-50.5	22.6	6.00e-01	0	53	0	283115520	59	4724
2026-01-05 02:32:23.11	22.76	18.42	-48.4	-50.2	22.8	5.99e-01	0	53	0	285212672	59	4596
2026-01-05 02:32:24.09	22.75	18.55	-48.5	-50.4	22.6	6.00e-01	0	53	0	286785536	59	4675
2026-01-05 02:32:25.08	22.73	18.69	-48.6	-50.6	22.5	6.00e-01	0	54	0	288882688	59	4768
2026-01-05 02:32:26.07	22.71	18.83	-48.5	-50.5	22.5	6.00e-01	0	53	0	290455552	59	4713
2026-01-05 02:32:27.07	22.69	18.96	-48.7	-50.6	22.5	6.01e-01	0	53	0	292552704	59	4804
2026-01-05 02:32:28.05	22.67	19.10	-48.5	-50.5	22.6	6.00e-01	0	53	0	294125568	59	4710
2026-01-05 02:32:29.04	22.66	19.24	-48.7	-50.6	22.5	6.00e-01	0	53	0	296222720	59	4799
2026-01-05 02:32:30.02	22.64	19.38	-48.5	-50.4	22.7	6.01e-01	0	53	0	297795584	59	4663
2026-01-05 02:32:31.01	22.62	19.52	-48.4	-50.3	22.6	5.99e-01	0	54	0	299892736	59	4624
2026-01-05 02:32:32.00	22.60	19.66	-48.4	-50.2	22.9	5.99e-01	0	53	0	301989888	59	4593
2026-01-05 02:32:32.99	22.58	19.80	-48.4	-50.2	22.8	6.03e-01	0	54	0	303562752	59	4590
2026-01-05 02:32:33.98	22.56	19.95	-48.5	-50.3	22.7	6.01e-01	0	53	0	305135616	59	4649
2026-01-05 02:32:34.96	22.54	20.09	-48.6	-50.5	22.6	6.00e-01	0	53	0	307232768	59	4727
2026-01-05 02:32:35.94	22.52	20.23	-48.5	-50.4	22.8	6.01e-01	0	53	0	309329920	59	4658
2026-01-05 02:32:36.94	22.50	20.38	-48.6	-50.5	22.6	5.98e-01	0	53	0	310902784	59	4749
2026-01-05 02:32:37.93	22.48	20.53	-48.9	-50.9	22.3	6.01e-01	0	54	0	312999936	59	4937
2026-01-05 02:32:38.92	22.46	20.68	-48.7	-50.7	22.4	6.01e-01	0	54	0	314572800	59	4833
2026-01-05 02:32:39.91	22.44	20.82	-48.8	-50.9	22.3	6.02e-01	0	54	0	316669952	59	4942
2026-01-05 02:32:40.91	22.42	20.98	-48.5	-50.4	22.4	6.01e-01	0	54	0	318242816	60	4429
2026-01-05 02:32:41.89	22.40	21.12	-48.3	-50.3	22.5	6.01e-01	0	54	0	320339968	60	4351
2026-01-05 02:32:42.88	22.38	21.28	-48.3	-50.2	22.6	6.01e-01	0	54	0	321912832	60	4309
2026-01-05 02:32:43.87	22.36	21.43	-48.3	-50.2	22.6	5.99e-01	0	54	0	324009984	60	4310
2026-01-05 02:32:44.86	22.33	21.58	-48.5	-50.4	22.4	6.00e-01	0	54	0	325582848	60	4438
2026-01-05 02:32:45.85	22.31	21.74	-48.4	-50.3	22.6	6.01e-01	0	54	0	327680000	60	4345
2026-01-05 02:32:46.83	22.29	21.89	-48.2	-50.0	22.8	6.02e-01	0	54	0	329252864	60	4234
2026-01-05 02:32:47.82	22.27	22.05	-48.5	-50.3	22.8	6.02e-01	0	54	0	331350016	59	4648
2026-01-05 02:32:48.81	22.24	22.21	-48.5	-50.4	22.8	5.99e-01	0	54	0	333447168	59	4692
2026-01-05 02:32:49.80	22.22	22.37	-48.5	-50.4	22.8	6.02e-01	0	54	0	335020032	59	4659
2026-01-05 02:32:50.77	22.20	22.52	-48.5	-50.4	22.8	6.00e-01	0	54	0	337117184	59	4684
2026-01-05 02:32:51.76	22.17	22.68	-48.7	-50.7	22.5	6.00e-01	0	54	0	338690048	59	4828
2026-01-05 02:32:52.75	22.15	22.85	-48.7	-50.6	22.6	6.03e-01	0	54	0	340787200	59	4779
2026-01-05 02:32:53.74	22.12	23.01	-48.5	-50.3	22.8	6.02e-01	0	54	0	342360064	59	4631
2026-01-05 02:32:54.72	22.10	23.17	-48.3	-50.2	23.0	6.02e-01	0	54	0	344457216	59	4554
2026-01-05 02:32:55.71	22.07	23.34	-48.3	-50.1	23.0	6.00e-01	0	54	0	346030080	59	4540
2026-01-05 02:32:56.70	22.05	23.51	-48.3	-50.1	23.1	6.01e-01	0	54	0	348127232	59	4508
2026-01-05 02:32:57.67	22.02	23.67	-48.3	-50.0	23.1	6.04e-01	0	54	0	349700096	59	4487
2026-01-05 02:32:58.67	22.00	23.84	-48.5	-50.3	22.9	6.00e-01	0	54	0	351797248	59	4624
2026-01-05 02:32:59.66	21.97	24.01	-48.4	-50.2	23.0	6.02e-01	0	54	0	353370112	59	4568
2026-01-05 02:33:00.65	21.94	24.18	-48.3	-50.0	23.2	6.01e-01	0	54	0	355467264	59	4477
2026-01-05 02:33:01.63	21.92	24.35	-48.2	-50.0	23.2	6.02e-01	0	54	0	357564416	59	4446
2026-01-05 02:33:02.62	21.89	24.53	-48.2	-50.0	23.2	6.00e-01	0	54	0	359137280	59	4444
2026-01-05 02:33:03.61	21.86	24.70	-48.3	-50.1	23.1	6.02e-01	0	54	0	361234432	59	4513
2026-01-05 02:33:04.61	21.83	24.88	-48.4	-50.3	22.9	6.00e-01	0	54	0	362807296	59	4609
2026-01-05 02:33:05.60	21.80	25.06	-48.5	-50.3	22.9	6.01e-01	0	54	0	364904448	59	4632
2026-01-05 02:33:06.58	21.77	25.24	-48.4	-50.2	22.9	6.02e-01	0	54	0	366477312	59	4587
2026-01-05 02:33:07.56	21.74	25.42	-48.4	-50.2	22.9	6.00e-01	0	54	0	368574464	59	4547
2026-01-05 02:33:08.55	21.71	25.60	-48.4	-50.3	22.8	6.03e-01	0	54	0	370147328	59	4609
2026-01-05 02:33:09.54	21.68	25.78	-48.6	-50.5	22.8	6.01e-01	0	54	0	372244480	59	4722
2026-01-05 02:33:10.53	21.65	25.96	-48.6	-50.5	22.6	6.00e-01	0	54	0	373817344	59	4756
2026-01-05 02:33:11.53	21.62	26.15	-48.7	-50.6	22.6	6.01e-01	0	54	0	375914496	59	4761
2026-01-05 02:33:12.52	21.59	26.34	-48.6	-50.5	22.7	6.01e-01	0	54	0	377487360	59	4717
2026-01-05 02:33:13.50	21.56	26.53	-48.6	-50.5	22.7	6.01e-01	0	54	0	379584512	59	4757
2026-01-05 02:33:14.48	21.52	26.71	-48.8	-50.7	22.5	6.02e-01	0	54	0	381681664	59	4846
2026-01-05 02:33:15.48	21.49	26.91	-48.7	-50.6	22.6	6.00e-01	0	54	0	383254528	59	4762
2026-01-05 02:33:16.47	21.46	27.10	-48.6	-50.4	22.8	5.99e-01	0	54	0	384827392	59	4695
2026-01-05 02:33:17.45	21.42	27.29	-48.7	-50.6	22.6	6.02e-01	0	54	0	386924544	59	4774
2026-01-05 02:33:18.44	21.39	27.49	-48.4	-50.2	23.0	5.99e-01	0	54	0	389021696	59	4550
2026-01-05 02:33:19.43	21.35	27.69	-48.2	-50.0	23.2	6.00e-01	0	54	0	390594560	59	4475
2026-01-05 02:33:20.42	21.32	27.89	-48.2	-50.0	23.2	6.02e-01	0	54	0	392691712	59	4455
2026-01-05 02:33:21.40	21.28	28.08	-48.3	-50.1	23.1	6.02e-01	0	54	0	394264576	59	4520
2026-01-05 02:33:22.39	21.25	28.29	-48.3	-50.1	23.0	6.02e-01	0	54	0	396361728	59	4537
2026-01-05 02:33:23.38	21.21	28.49	-48.4	-50.2	22.9	6.02e-01	0	54	0	397934592	59	4569
2026-01-05 02:33:24.38	21.17	28.70	-48.3	-50.1	23.0	6.00e-01	0	54	0	400031744	59	4519
2026-01-05 02:33:25.37	21.13	28.90	-48.0	-49.7	23.4	6.03e-01	0	54	0	401604608	59	4306
2026-01-05 02:33:26.37	21.09	29.11	-47.8	-49.4	23.7	6.00e-01	0	54	0	403701760	59	4170
2026-01-05 02:33:27.36	21.06	29.32	-47.7	-49.3	23.7	6.01e-01	0	54	0	405274624	59	4145
2026-01-05 02:33:28.34	21.02	29.53	-47.8	-49.5	23.5	6.00e-01	0	54	0	407371776	59	4215
2026-01-05 02:33:29.33	20.98	29.75	-47.8	-49.4	23.5	6.01e-01	0	54	0	409468928	59	4189
2026-01-05 02:33:30.31	20.93	29.96	-47.9	-49.7	23.2	6.01e-01	0	54	0	411041792	59	4304
2026-01-05 02:33:31.31	20.89	30.18	-48.1	-49.9	23.0	6.00e-01	0	54	0	413138944	59	4401
2026-01-05 02:33:32.29	20.85	30.40	-48.3	-50.2	22.6	6.00e-01	0	54	0	414711808	59	4569
2026-01-05 02:33:33.28	20.81	30.62	-48.3	-50.3	22.4	6.02e-01	0	54	0	416808960	59	4606
2026-01-05 02:33:34.27	20.76	30.84	-48.4	-50.5	22.1	6.03e-01	0	54	0	418381824	59	4709
2026-01-05 02:33:35.26	20.72	31.06	-48.6	-50.8	21.8	5.99e-01	0	54	0	420478976	59	4897
2026-01-05 02:33:36.25	20.67	31.29	-48.8	-51.1	21.4	6.00e-01	0	54	0	422051840	59	5082
2026-01-05 02:33:37.24	20.63	31.52	-48.8	-51.2	20.9	5.99e-01	0	54	0	424148992	60	4844
2026-01-05 02:33:38.23	20.58	31.75	-48.9	-51.5	20.5	6.01e-01	0	54	0	425721856	60	5028
2026-01-05 02:33:39.22	20.53	31.98	-49.2	-52.0	20.0	6.00e-01	0	55	0	427819008	60	5309
2026-01-05 02:33:40.21	20.49	32.21	-49.4	-52.4	19.6	6.02e-01	0	54	0	429391872	61	5224
2026-01-05 02:33:41.19	20.44	32.44	-49.5	-52.5	19.4	6.02e-01	0	54	0	431489024	61	5332
2026-01-05 02:33:42.19	20.39	32.68	-49.5	-52.4	19.5	6.01e-01	0	55	0	433586176	61	5222
2026-01-05 02:33:43.17	20.34	32.92	-49.6	-52.5	19.6	6.02e-01	0	54	0	435159040	61	5282
2026-01-05 02:33:44.17	20.29	33.17	-49.7	-52.6	19.6	6.02e-01	0	54	0	437256192	61	5381
2026-01-05 02:33:45.16	20.23	33.41	-49.8	-52.8	19.4	6.01e-01	0	54	0	438829056	61	5509
2026-01-05 02:33:46.15	20.18	33.65	-49.2	-51.7	20.6	6.01e-01	0	55	0	440926208	61	4820
2026-01-05 02:33:47.14	20.13	33.90	-48.5	-50.6	21.8	6.01e-01	0	55	0	442499072	60	4531
2026-01-05 02:33:48.13	20.07	34.15	-48.5	-50.4	22.6	5.99e-01	0	54	0	444596224	59	4662
2026-01-05 02:33:49.12	20.02	34.40	-48.4	-50.3	22.9	6.03e-01	0	55	0	446169088	59	4602
2026-01-05 02:33:50.11	19.96	34.66	-48.6	-50.6	22.6	5.99e-01	0	54	0	448266240	59	4762
2026-01-05 02:33:51.10	19.90	34.91	-48.8	-50.8	22.4	6.00e-01	0	54	0	449839104	59	4887
2026-01-05 02:33:52.09	19.84	35.17	-48.8	-50.7	22.5	6.00e-01	0	54	0	451936256	59	4864
2026-01-05 02:33:53.09	19.78	35.44	-48.7	-50.7	22.3	6.03e-01	0	54	0	454033408	60	4547
2026-01-05 02:33:54.07	19.72	35.70	-49.0	-51.1	21.9	6.02e-01	0	55	0	455606272	60	4767
2026-01-05 02:33:55.06	19.66	35.96	-48.9	-50.9	22.1	6.02e-01	0	55	0	457703424	60	4687
2026-01-05 02:33:56.05	19.60	36.23	-49.0	-51.1	21.9	5.99e-01	0	54	0	459276288	60	4813
2026-01-05 02:33:57.04	19.54	36.50	-49.1	-51.3	21.7	6.01e-01	0	55	0	461373440	60	4878
2026-01-05 02:33:58.02	19.47	36.77	-49.1	-51.2	21.7	6.01e-01	0	55	0	462946304	60	4832
2026-01-05 02:33:59.01	19.40	37.04	-49.2	-51.4	21.7	5.99e-01	0	55	0	465043456	60	4935
2026-01-05 02:34:00.00	19.34	37.32	-49.5	-51.9	21.2	6.01e-01	0	55	0	466616320	61	4929
2026-01-05 02:34:00.99	19.27	37.60	-49.5	-51.8	21.2	6.01e-01	0	55	0	468713472	61	4910
2026-01-05 02:34:01.99	19.20	37.88	-49.5	-51.8	21.3	6.01e-01	0	55	0	470286336	61	4880
2026-01-05 02:34:02.98	19.13	38.17	-49.5	-51.8	21.3	6.02e-01	0	55	0	472383488	61	4873
2026-01-05 02:34:03.96	19.05	38.45	-49.6	-52.0	21.0	6.02e-01	0	55	0	473956352	61	5038
2026-01-05 02:34:04.96	18.98	38.74	-49.4	-51.7	21.3	6.01e-01	0	55	0	476053504	61	4844
2026-01-05 02:34:05.95	18.90	39.04	-49.3	-51.5	21.6	6.00e-01	0	55	0	478150656	61	4706
2026-01-05 02:34:06.94	18.83	39.33	-49.2	-51.3	21.8	6.00e-01	0	55	0	479723520	61	4633
2026-01-05 02:34:07.93	18.75	39.63	-49.2	-51.4	21.6	6.00e-01	0	55	0	481820672	61	4692
2026-01-05 02:34:08.92	18.67	39.93	-49.2	-51.4	21.7	6.03e-01	0	55	0	483393536	61	4673
2026-01-05 02:34:09.91	18.58	40.23	-49.1	-51.2	21.8	6.01e-01	0	55	0	485490688	61	4587
2026-01-05 02:34:10.90	18.50	40.53	-49.2	-51.4	21.7	6.03e-01	0	55	0	487063552	61	4680
2026-01-05 02:34:11.89	18.42	40.84	-49.2	-51.3	21.8	6.01e-01	0	55	0	489160704	61	4621
2026-01-05 02:34:12.87	18.33	41.15	-49.0	-51.1	22.0	6.00e-01	0	55	0	490733568	61	4522
2026-01-05 02:34:13.86	18.24	41.46	-49.0	-51.1	22.0	6.02e-01	0	55	0	492830720	61	4509
2026-01-05 02:34:14.85	18.15	41.78	-48.9	-50.9	22.0	6.03e-01	0	55	0	494403584	61	4432
2026-01-05 02:34:15.84	18.06	42.10	-48.8	-50.8	22.3	6.02e-01	0	55	0	496500736	61	4359
2026-01-05 02:34:16.83	17.96	42.42	-48.8	-50.8	22.3	6.00e-01	0	55	0	498073600	61	4381
2026-01-05 02:34:17.82	17.87	42.74	-48.9	-50.9	22.1	6.00e-01	0	55	0	500170752	61	4433
2026-01-05 02:34:18.80	17.77	43.07	-48.6	-50.4	22.6	6.01e-01	0	55	0	501743616	60	4435
2026-01-05 02:34:19.79	17.67	43.40	-48.4	-50.2	22.8	6.01e-01	0	55	0	503840768	60	4317
2026-01-05 02:34:20.78	17.57	43.73	-48.5	-50.4	22.7	5.98e-01	0	55	0	505937920	60	4423
2026-01-05 02:34:21.78	17.46	44.07	-48.3	-50.2	22.9	6.00e-01	0	55	0	507510784	60	4294
2026-01-05 02:34:22.76	17.35	44.41	-48.4	-50.1	23.2	6.01e-01	0	55	0	509607936	59	4528
2026-01-05 02:34:23.75	17.24	44.75	-48.5	-50.3	23.1	6.00e-01	0	55	0	511180800	59	4618
2026-01-05 02:34:24.74	17.13	45.09	-48.5	-50.3	23.1	6.02e-01	0	55	0	513277952	59	4600
2026-01-05 02:34:25.73	17.02	45.44	-48.4	-50.1	23.2	6.01e-01	0	55	0	514850816	59	4525
2026-01-05 02:34:26.71	16.90	45.79	-48.6	-50.4	23.0	6.01e-01	0	55	0	516947968	59	4658
2026-01-05 02:34:27.70	16.78	46.15	-48.7	-50.6	22.8	6.02e-01	0	55	0	518520832	59	4766
2026-01-05 02:34:28.68	16.66	46.50	-48.5	-50.2	23.1	6.00e-01	0	55	0	520617984	59	4594
2026-01-05 02:34:29.66	16.53	46.86	-48.3	-50.0	23.3	6.00e-01	0	55	0	522190848	59	4469
2026-01-05 02:34:30.65	16.40	47.22	-48.6	-50.5	23.0	6.00e-01	0	55	0	524288000	59	4706
2026-01-05 02:34:31.64	16.27	47.59	-48.5	-50.3	22.7	6.01e-01	0	55	0	525860864	60	4387
2026-01-05 02:34:32.63	16.13	47.96	-48.5	-50.2	23.1	6.02e-01	0	55	0	527958016	59	4589
2026-01-05 02:34:33.62	15.99	48.33	-48.4	-50.1	23.2	6.00e-01	0	55	0	529530880	59	4541
2026-01-05 02:34:34.61	15.85	48.71	-48.7	-50.6	22.8	6.00e-01	0	55	0	531628032	59	4785
2026-01-05 02:34:35.60	15.70	49.08	-48.8	-50.6	22.8	6.00e-01	0	55	0	533725184	59	4803
2026-01-05 02:34:36.58	15.55	49.46	-48.7	-50.6	22.8	6.03e-01	0	55	0	535298048	59	4775
2026-01-05 02:34:37.57	15.40	49.85	-48.7	-50.5	22.9	6.02e-01	0	55	0	537395200	59	4759
2026-01-05 02:34:38.56	15.24	50.24	-48.4	-50.2	23.2	5.99e-01	0	55	0	538968064	59	4561
2026-01-05 02:34:39.55	15.08	50.63	-48.4	-50.1	23.3	6.01e-01	0	55	0	541065216	59	4525
2026-01-05 02:34:40.54	14.91	51.03	-48.5	-50.2	23.1	6.00e-01	0	55	0	542638080	59	4597
2026-01-05 02:34:41.52	14.74	51.42	-48.6	-50.4	23.0	6.01e-01	0	55	0	544735232	59	4681
2026-01-05 02:34:42.51	14.56	51.82	-48.3	-50.0	23.4	6.02e-01	0	55	0	546308096	59	4466
2026-01-05 02:34:43.49	14.38	52.22	-47.7	-49.2	24.1	5.99e-01	0	55	0	548405248	59	4093
2026-01-05 02:34:44.48	14.20	52.63	-47.9	-49.5	23.9	6.02e-01	0	55	0	549978112	58	4459
2026-01-05 02:34:45.47	14.00	53.04	-47.8	-49.4	23.9	6.01e-01	0	55	0	552075264	58	4398
2026-01-05 02:34:46.46	13.81	53.46	-47.8	-49.4	24.0	6.02e-01	0	55	0	553648128	58	4406
2026-01-05 02:34:47.44	13.60	53.87	-47.7	-49.3	24.0	6.02e-01	0	55	0	555745280	58	4363
2026-01-05 02:34:48.43	13.39	54.29	-48.0	-49.6	23.8	6.02e-01	0	55	0	557842432	58	4508
2026-01-05 02:34:49.42	13.18	54.72	-48.0	-49.6	23.7	6.00e-01	0	55	0	559415296	58	4530
2026-01-05 02:34:50.40	12.96	55.14	-48.0	-49.6	23.8	5.99e-01	0	55	0	560988160	58	4508
2026-01-05 02:34:51.40	12.72	55.58	-48.1	-49.7	23.7	6.01e-01	0	55	0	563085312	58	4571
2026-01-05 02:34:52.39	12.49	56.01	-48.2	-49.9	23.5	6.02e-01	0	55	0	565182464	58	4686
2026-01-05 02:34:53.39	12.24	56.45	-48.3	-50.0	23.4	6.01e-01	0	55	0	566755328	58	4712
2026-01-05 02:34:54.37	11.99	56.89	-48.6	-50.4	23.1	6.02e-01	0	55	0	568852480	59	4670
2026-01-05 02:34:55.36	11.72	57.33	-48.6	-50.5	22.6	6.02e-01	0	55	0	570425344	60	4471
2026-01-05 02:34:56.35	11.45	57.78	-48.3	-50.1	23.1	6.03e-01	0	55	0	572522496	60	4253
2026-01-05 02:34:57.34	11.17	58.23	-48.6	-50.4	22.7	5.99e-01	0	55	0	574095360	60	4440
2026-01-05 02:34:58.34	10.88	58.68	-48.6	-50.5	22.6	6.04e-01	0	55	0	576192512	60	4452
2026-01-05 02:34:59.33	10.58	59.14	-48.6	-50.5	22.6	6.02e-01	0	55	0	577765376	60	4490
2026-01-05 02:35:00.32	10.27	59.60	-48.8	-50.8	22.3	6.02e-01	0	55	0	579862528	60	4643
2026-01-05 02:35:01.31	9.95	60.06	-48.7	-50.7	22.4	6.02e-01	0	55	0	581435392	60	4555
2026-01-05 02:35:02.30	9.61	60.52	-48.6	-50.5	22.7	6.04e-01	0	55	0	583532544	60	4467
2026-01-05 02:35:03.29	9.26	60.99	-49.2	-51.4	21.8	6.01e-01	0	55	0	585629696	60	4962
2026-01-05 02:35:04.27	8.91	61.45	-48.9	-50.9	22.2	6.02e-01	0	55	0	587202560	60	4685
2026-01-05 02:35:05.26	8.53	61.92	-49.0	-51.0	22.1	6.02e-01	0	55	0	589299712	60	4728
2026-01-05 02:35:06.26	8.14	62.40	-49.3	-51.4	21.8	6.02e-01	0	55	0	590872576	60	4978
2026-01-05 02:35:07.25	7.73	62.87	-49.2	-51.4	21.8	6.00e-01	0	55	0	592969728	60	4941
2026-01-05 02:35:08.24	7.31	63.35	-49.4	-51.6	21.6	6.01e-01	0	55	0	594542592	60	5042
2026-01-05 02:35:09.23	6.87	63.83	-49.6	-51.9	21.3	6.01e-01	0	55	0	596639744	61	4957
2026-01-05 02:35:10.22	6.41	64.31	-49.7	-52.1	21.2	5.99e-01	0	55	0	598212608	61	5048
2026-01-05 02:35:11.20	5.94	64.79	-50.0	-52.5	20.7	6.02e-01	0	55	0	600309760	62	5015
2026-01-05 02:35:12.19	5.44	65.27	-50.4	-53.1	20.2	6.02e-01	0	55	0	601882624	62	5380
2026-01-05 02:35:13.19	4.91	65.76	-50.5	-53.2	20.0	6.02e-01	0	55	0	603979776	63	5155
2026-01-05 02:35:14.18	4.36	66.25	-50.8	-53.8	19.5	6.02e-01	0	55	0	606076928	63	5489
2026-01-05 02:35:15.17	3.79	66.74	-50.9	-54.2	19.0	5.99e-01	0	55	0	607649792	64	5425
2026-01-05 02:35:16.17	3.19	67.23	-50.9	-54.1	19.1	6.02e-01	0	55	0	609746944	64	5347
2026-01-05 02:35:17.16	2.56	67.72	-50.9	-54.1	19.2	6.03e-01	0	55	0	611319808	64	5363
2026-01-05 02:35:18.15	1.90	68.21	-51.2	-54.5	18.6	6.01e-01	0	55	0	613416960	64	5644
2026-01-05 02:35:19.14	1.21	68.70	-51.2	-54.7	18.5	6.00e-01	0	55	0	614989824	64	5724
2026-01-05 02:35:20.12	0.49	69.19	-50.5	-53.3	19.8	6.04e-01	0	55	0	617086976	64	4877
2026-01-05 02:35:21.11	359.72	69.67	-51.2	-54.7	18.6	6.00e-01	0	55	0	618659840	64	5731
2026-01-05 02:35:22.09	358.92	70.16	-50.9	-54.0	19.1	6.01e-01	0	55	0	620756992	64	5325
2026-01-05 02:35:23.08	358.07	70.64	-50.7	-53.7	19.5	6.00e-01	0	55	0	622329856	64	5101
2026-01-05 02:35:24.07	357.17	71.13	-50.9	-54.1	19.1	5.99e-01	0	55	0	624427008	64	5371
2026-01-05 02:35:25.06	356.23	71.61	-50.8	-54.0	19.3	6.02e-01	0	56	0	625999872	64	5284
2026-01-05 02:35:26.05	355.22	72.09	-50.6	-53.5	19.7	6.02e-01	0	55	0	628097024	64	5006
2026-01-05 02:35:27.03	354.18	72.56	-50.7	-53.7	19.5	6.00e-01	0	55	0	630194176	64	5108
2026-01-05 02:35:28.02	353.05	73.03	-51.1	-54.5	18.7	6.01e-01	0	55	0	631767040	64	5623
2026-01-05 02:35:29.00	351.88	73.50	-50.6	-53.5	19.6	6.01e-01	0	55	0	633864192	64	5020
2026-01-05 02:35:29.99	350.61	73.96	-51.0	-54.3	19.0	6.00e-01	0	55	0	635437056	64	5500
2026-01-05 02:35:30.98	349.27	74.41	-51.2	-54.6	18.6	6.02e-01	0	55	0	637009920	64	5673
2026-01-05 02:35:31.97	347.85	74.86	-50.7	-53.7	19.4	6.02e-01	0	56	0	639107072	64	5154
2026-01-05 02:35:32.96	346.34	75.30	-51.0	-54.2	19.1	5.99e-01	0	55	0	641204224	64	5419
2026-01-05 02:35:33.95	344.73	75.74	-51.0	-54.2	18.9	6.00e-01	0	56	0	642777088	64	5459
2026-01-05 02:35:34.94	343.01	76.16	-50.4	-53.3	19.9	6.00e-01	0	55	0	644874240	64	4882
2026-01-05 02:35:35.92	341.21	76.56	-50.5	-53.3	20.0	6.01e-01	0	55	0	646447104	64	4884
2026-01-05 02:35:36.92	339.25	76.96	-51.2	-54.7	18.5	6.00e-01	0	55	0	648544256	64	5786
2026-01-05 02:35:37.90	337.20	77.34	-50.0	-52.5	20.7	6.00e-01	0	56	0	650117120	63	4743
2026-01-05 02:35:38.89	335.01	77.71	-50.4	-53.2	20.2	6.01e-01	0	56	0	652214272	63	5107
2026-01-05 02:35:39.87	332.70	78.06	-50.1	-52.7	20.5	5.99e-01	0	55	0	653787136	63	4847
2026-01-05 02:35:40.86	330.24	78.39	-49.8	-52.2	21.0	5.99e-01	0	55	0	655884288	63	4569
2026-01-05 02:35:41.85	327.62	78.69	-49.8	-52.1	21.1	6.01e-01	0	55	0	657457152	62	4795
2026-01-05 02:35:42.84	324.87	78.98	-50.0	-52.5	20.7	5.98e-01	0	56	0	659554304	62	5008
2026-01-05 02:35:43.83	321.97	79.24	-49.7	-52.0	21.2	6.00e-01	0	56	0	661127168	62	4724
2026-01-05 02:35:44.82	318.94	79.47	-49.6	-51.8	21.4	6.00e-01	0	55	0	663224320	62	4650
2026-01-05 02:35:45.81	315.78	79.67	-49.5	-51.8	21.4	6.00e-01	0	55	0	665321472	62	4611
2026-01-05 02:35:46.80	312.50	79.83	-49.5	-51.7	21.5	6.00e-01	0	55	0	666894336	62	4570
2026-01-05 02:35:47.79	309.11	79.97	-49.5	-51.7	21.5	6.01e-01	0	55	0	668991488	62	4568
2026-01-05 02:35:48.78	305.65	80.07	-49.0	-51.0	22.2	6.02e-01	0	55	0	670564352	61	4447
2026-01-05 02:35:49.77	302.13	80.13	-49.3	-51.5	21.5	6.01e-01	0	55	0	672661504	61	4752
2026-01-05 02:35:50.76	298.58	80.16	-49.0	-51.1	22.1	6.00e-01	0	55	0	674234368	61	4511
2026-01-05 02:35:51.74	295.06	80.14	-49.5	-51.7	21.5	6.02e-01	0	55	0	676331520	61	4863
2026-01-05 02:35:52.73	291.52	80.10	-49.4	-51.5	21.6	6.02e-01	0	56	0	677904384	61	4749
2026-01-05 02:35:53.72	288.03	80.01	-49.6	-51.9	21.3	5.99e-01	0	55	0	680001536	61	4940
2026-01-05 02:35:54.71	284.62	79.89	-49.8	-52.3	21.0	6.00e-01	0	56	0	681574400	61	5179
2026-01-05 02:35:55.70	281.29	79.73	-50.2	-52.8	20.3	6.01e-01	0	56	0	683671552	62	5211
2026-01-05 02:35:56.69	278.08	79.55	-50.0	-52.5	20.6	6.01e-01	0	55	0	685768704	62	5033
2026-01-05 02:35:57.68	275.00	79.33	-50.7	-53.7	19.7	6.02e-01	0	55	0	687341568	63	5408
2026-01-05 02:35:58.67	272.05	79.08	-50.6	-53.4	19.8	5.98e-01	0	56	0	689438720	63	5246
2026-01-05 02:35:59.66	269.24	78.81	-50.1	-52.7	20.5	6.01e-01	0	56	0	691011584	63	4841
2026-01-05 02:36:00.64	266.59	78.51	-50.4	-53.1	20.1	6.01e-01	0	56	0	693108736	63	5064
2026-01-05 02:36:01.64	264.04	78.18	-50.6	-53.4	19.8	6.02e-01	0	55	0	694681600	63	5251
2026-01-05 02:36:02.62	261.69	77.85	-50.4	-53.2	20.1	6.02e-01	0	56	0	696778752	63	5106
2026-01-05 02:36:03.61	259.44	77.49	-51.0	-54.3	18.9	6.00e-01	0	55	0	698351616	64	5475
2026-01-05 02:36:04.60	257.33	77.11	-50.8	-54.0	19.2	6.02e-01	0	55	0	700448768	64	5284
2026-01-05 02:36:05.59	255.34	76.72	-51.2	-54.7	18.5	6.02e-01	0	55	0	702021632	64	5733
2026-01-05 02:36:06.57	253.49	76.31	-51.2	-54.8	18.5	6.01e-01	0	56	0	704118784	64	5792
2026-01-05 02:36:07.56	251.73	75.90	-51.4	-55.1	18.1	6.01e-01	0	56	0	705691648	65	5665
2026-01-05 02:36:08.55	250.08	75.47	-51.7	-55.6	17.6	5.99e-01	0	56	0	707788800	65	6050
2026-01-05 02:36:09.54	248.53	75.03	-51.9	-56.2	16.9	6.02e-01	0	55	0	709885952	66	6118
2026-01-05 02:36:10.52	247.09	74.59	-51.5	-55.3	17.8	6.01e-01	0	56	0	711458816	66	5514
2026-01-05 02:36:11.51	245.71	74.13	-51.4	-55.0	18.2	6.00e-01	0	56	0	713555968	66	5288
2026-01-05 02:36:12.50	244.42	73.67	-51.8	-56.0	17.3	6.01e-01	0	56	0	715128832	66	5939
2026-01-05 02:36:13.48	243.21	73.21	-51.6	-55.6	17.5	6.01e-01	0	56	0	717225984	66	5660
2026-01-05 02:36:14.48	242.05	72.74	-52.0	-56.3	16.9	5.99e-01	0	56	0	718798848	66	6179
2026-01-05 02:36:15.47	240.97	72.26	-52.1	-56.7	16.5	6.00e-01	0	56	0	720896000	66	6460
2026-01-05 02:36:16.46	239.95	71.78	-51.9	-56.2	17.0	6.00e-01	0	56	0	722468864	66	6112
2026-01-05 02:36:17.47	238.96	71.29	-51.7	-55.8	17.4	6.00e-01	0	56	0	724566016	66	5799
2026-01-05 02:36:18.45	238.05	70.81	-51.4	-55.0	18.2	6.01e-01	0	56	0	726138880	66	5337
2026-01-05 02:36:19.44	237.19	70.32	-52.3	-57.1	16.0	6.01e-01	0	56	0	728236032	66	6769
2026-01-05 02:36:20.43	236.36	69.84	-51.9	-56.1	17.0	6.01e-01	0	56	0	729808896	66	6003
2026-01-05 02:36:21.41	235.59	69.35	-51.9	-56.0	17.2	6.01e-01	0	56	0	731906048	66	5972
2026-01-05 02:36:22.40	234.85	68.86	-52.4	-57.5	15.5	6.02e-01	0	56	0	733478912	67	6653
2026-01-05 02:36:23.39	234.15	68.37	-52.3	-57.2	15.9	6.00e-01	0	56	0	735576064	67	6450
2026-01-05 02:36:24.39	233.47	67.88	-52.3	-57.1	16.0	6.03e-01	0	56	0	737673216	67	6418
2026-01-05 02:36:25.38	232.83	67.39	-52.6	-58.1	15.0	6.00e-01	0	56	0	739246080	67	7124
2026-01-05 02:36:26.36	232.22	66.90	-52.5	-57.7	15.5	6.00e-01	0	56	0	741343232	67	6808
2026-01-05 02:36:27.35	231.64	66.41	-52.5	-57.7	15.3	6.00e-01	0	56	0	742916096	67	6842
2026-01-05 02:36:28.34	231.09	65.93	-51.9	-56.1	17.0	6.02e-01	0	56	0	745013248	67	5681
2026-01-05 02:36:29.33	230.56	65.44	-51.1	-54.6	18.5	6.01e-01	0	56	0	746586112	65	5345
2026-01-05 02:36:30.31	230.05	64.96	-51.4	-55.0	18.1	6.02e-01	0	56	0	748683264	65	5632
2026-01-05 02:36:31.29	229.57	64.48	-51.5	-55.4	17.8	6.01e-01	0	56	0	750256128	65	5870
2026-01-05 02:36:32.28	229.10	64.00	-50.7	-53.7	19.3	6.03e-01	0	56	0	752353280	65	4853
2026-01-05 02:36:33.27	228.66	63.51	-49.9	-52.3	20.8	6.00e-01	0	56	0	753926144	63	4648
2026-01-05 02:36:34.25	228.23	63.04	-49.9	-52.4	20.8	6.02e-01	0	56	0	756023296	63	4672
2026-01-05 02:36:35.24	227.82	62.56	-50.0	-52.6	20.6	6.02e-01	0	56	0	757596160	63	4768
2026-01-05 02:36:36.23	227.42	62.09	-50.1	-52.7	20.5	6.00e-01	0	56	0	759693312	63	4865
2026-01-05 02:36:37.21	227.05	61.62	-49.9	-52.3	20.8	6.00e-01	0	56	0	761266176	63	4610
2026-01-05 02:36:38.20	226.68	61.15	-49.3	-51.4	21.8	6.01e-01	0	56	0	763363328	62	4399
2026-01-05 02:36:39.19	226.33	60.68	-49.2	-51.4	21.8	5.99e-01	0	56	0	765460480	61	4675
2026-01-05 02:36:40.18	225.99	60.22	-49.6	-52.0	21.2	6.01e-01	0	56	0	767033344	61	5004
2026-01-05 02:36:41.17	225.66	59.75	-49.6	-52.0	21.1	6.02e-01	0	56	0	769130496	61	4998
2026-01-05 02:36:42.16	225.34	59.30	-49.2	-51.3	21.8	6.01e-01	0	56	0	770703360	61	4627
2026-01-05 02:36:43.15	225.04	58.84	-49.2	-51.2	21.9	6.02e-01	0	56	0	772800512	61	4592
2026-01-05 02:36:44.13	224.75	58.39	-49.5	-51.7	21.4	6.00e-01	0	56	0	774373376	61	4860
2026-01-05 02:36:45.12	224.46	57.94	-49.5	-51.7	21.4	6.01e-01	0	56	0	776470528	61	4862
2026-01-05 02:36:46.09	224.19	57.50	-49.6	-52.0	21.2	6.01e-01	0	56	0	778043392	61	5007
2026-01-05 02:36:47.09	223.92	57.05	-48.9	-50.9	22.1	6.01e-01	0	56	0	780140544	61	4433
2026-01-05 02:36:48.08	223.67	56.61	-48.8	-50.7	22.4	6.00e-01	0	56	0	781713408	61	4308
2026-01-05 02:36:49.07	223.42	56.17	-48.9	-50.9	22.3	5.99e-01	0	56	0	783810560	61	4398
2026-01-05 02:36:50.05	223.18	55.73	-49.3	-51.5	21.7	6.02e-01	0	56	0	785383424	61	4715
2026-01-05 02:36:51.05	222.94	55.30	-49.2	-51.3	21.8	5.98e-01	0	56	0	787480576	61	4636
2026-01-05 02:36:52.04	222.72	54.87	-49.6	-52.0	21.3	6.00e-01	0	56	0	789577728	61	4992
2026-01-05 02:36:53.03	222.50	54.44	-48.8	-50.8	22.3	6.01e-01	0	56	0	791150592	61	4351
2026-01-05 02:36:54.02	222.28	54.02	-48.2	-50.0	23.0	6.01e-01	0	56	0	793247744	60	4224
2026-01-05 02:36:55.01	222.08	53.60	-48.3	-50.0	23.4	6.01e-01	0	56	0	794820608	59	4454
2026-01-05 02:36:56.00	221.88	53.18	-48.6	-50.4	23.1	6.02e-01	0	56	0	796917760	59	4680
2026-01-05 02:36:56.99	221.68	52.76	-48.7	-50.6	22.9	6.00e-01	0	56	0	798490624	59	4765
2026-01-05 02:36:57.99	221.49	52.35	-48.8	-50.8	22.3	5.98e-01	0	56	0	800587776	60	4618
2026-01-05 02:36:58.98	221.31	51.94	-49.1	-51.2	21.9	6.04e-01	0	56	0	802160640	60	4835
2026-01-05 02:36:59.97	221.13	51.54	-49.4	-51.6	21.4	6.01e-01	0	56	0	804257792	61	4814
2026-01-05 02:37:00.96	220.95	51.14	-49.2	-51.3	21.9	6.00e-01	0	56	0	805830656	61	4608
2026-01-05 02:37:01.95	220.78	50.74	-48.8	-50.8	22.4	6.02e-01	0	56	0	807927808	61	4342
2026-01-05 02:37:02.94	220.62	50.34	-48.4	-50.3	22.8	6.02e-01	0	56	0	810024960	60	4344
2026-01-05 02:37:03.93	220.46	49.95	-48.7	-50.6	22.5	6.02e-01	0	56	0	811597824	60	4503
2026-01-05 02:37:04.92	220.30	49.56	-49.0	-51.1	22.1	6.01e-01	0	56	0	813170688	60	4792
2026-01-05 02:37:05.90	220.15	49.18	-49.0	-51.1	21.9	6.01e-01	0	56	0	815267840	60	4774
2026-01-05 02:37:06.89	220.00	48.80	-49.2	-51.3	21.8	6.01e-01	0	56	0	817364992	60	4900
2026-01-05 02:37:07.89	219.86	48.42	-48.9	-50.9	22.2	6.00e-01	0	56	0	818937856	60	4674
2026-01-05 02:37:08.88	219.72	48.04	-48.4	-50.2	22.8	5.98e-01	0	56	0	821035008	60	4308
2026-01-05 02:37:09.87	219.58	47.67	-48.4	-50.1	23.2	6.00e-01	0	56	0	822607872	59	4525
2026-01-05 02:37:10.85	219.44	47.31	-48.2	-49.9	23.4	6.02e-01	0	56	0	824705024	59	4433
2026-01-05 02:37:11.83	219.32	46.95	-48.4	-50.2	23.2	6.01e-01	0	56	0	826277888	59	4573
2026-01-05 02:37:12.83	219.19	46.58	-48.6	-50.4	23.0	6.01e-01	0	56	0	828375040	59	4680
2026-01-05 02:37:13.83	219.06	46.22	-48.6	-50.4	23.0	6.01e-01	0	56	0	829947904	59	4668
2026-01-05 02:37:14.81	218.94	45.86	-48.7	-50.6	22.8	6.01e-01	0	56	0	832045056	59	4781
2026-01-05 02:37:15.80	218.82	45.51	-48.6	-50.4	23.0	6.00e-01	0	56	0	833617920	59	4684
2026-01-05 02:37:16.80	218.70	45.16	-48.3	-50.0	23.4	6.01e-01	0	56	0	835715072	59	4467
2026-01-05 02:37:17.79	218.59	44.81	-48.1	-49.7	23.6	6.00e-01	0	56	0	837812224	59	4323
2026-01-05 02:37:18.78	218.48	44.47	-48.2	-49.8	23.6	5.99e-01	0	56	0	839385088	59	4379
2026-01-05 02:37:19.77	218.37	44.12	-48.2	-49.9	23.5	6.04e-01	0	56	0	841482240	59	4402
2026-01-05 02:37:20.75	218.26	43.79	-48.4	-50.2	23.2	6.02e-01	0	56	0	843055104	59	4582
2026-01-05 02:37:21.74	218.16	43.45	-48.6	-50.5	22.9	6.01e-01	0	56	0	845152256	59	4720
2026-01-05 02:37:22.74	218.06	43.12	-48.8	-50.7	22.7	6.01e-01	0	56	0	846725120	59	4829
2026-01-05 02:37:23.73	217.96	42.79	-48.8	-50.7	22.7	5.99e-01	0	56	0	848822272	59	4860
2026-01-05 02:37:24.71	217.86	42.47	-48.6	-50.5	22.6	6.01e-01	0	56	0	850395136	60	4482
2026-01-05 02:37:25.70	217.77	42.14	-48.8	-50.8	22.3	6.01e-01	0	56	0	852492288	60	4618
2026-01-05 02:37:26.68	217.67	41.83	-48.9	-50.9	22.2	5.99e-01	0	56	0	854065152	60	4691
2026-01-05 02:37:27.67	217.58	41.51	-48.9	-51.0	22.1	6.02e-01	0	56	0	856162304	60	4723
2026-01-05 02:37:28.66	217.49	41.19	-49.0	-51.1	22.0	6.03e-01	0	56	0	857735168	60	4807
2026-01-05 02:37:29.65	217.40	40.88	-49.1	-51.1	22.0	6.00e-01	0	56	0	859832320	60	4805
2026-01-05 02:37:30.63	217.32	40.57	-49.1	-51.3	21.8	6.03e-01	0	56	0	861929472	60	4885
2026-01-05 02:37:31.62	217.24	40.27	-49.2	-51.4	21.7	6.02e-01	0	56	0	863502336	60	4949
2026-01-05 02:37:32.61	217.15	39.96	-49.3	-51.5	21.6	6.02e-01	0	56	0	865599488	60	5028
2026-01-05 02:37:33.60	217.07	39.66	-49.4	-51.7	21.4	6.01e-01	0	56	0	867172352	61	4823
2026-01-05 02:37:34.59	216.99	39.36	-49.3	-51.5	21.6	6.00e-01	0	56	0	869269504	61	4759
2026-01-05 02:37:35.57	216.92	39.07	-49.4	-51.6	21.5	6.01e-01	0	56	0	870842368	61	4809
2026-01-05 02:37:36.56	216.84	38.78	-49.4	-51.6	21.4	6.01e-01	0	56	0	872939520	61	4814
2026-01-05 02:37:37.55	216.76	38.49	-49.4	-51.7	21.4	5.99e-01	0	56	0	874512384	61	4864
2026-01-05 02:37:38.54	216.69	38.20	-49.3	-51.5	21.5	6.00e-01	0	56	0	876609536	61	4748
2026-01-05 02:37:39.52	216.62	37.91	-49.1	-51.2	21.9	6.00e-01	0	56	0	878182400	61	4553
2026-01-05 02:37:40.51	216.55	37.63	-49.0	-51.0	22.0	6.01e-01	0	56	0	880279552	61	4475
2026-01-05 02:37:41.50	216.48	37.35	-49.0	-51.1	22.0	6.02e-01	0	56	0	881852416	61	4517
2026-01-05 02:37:42.49	216.41	37.07	-49.1	-51.2	21.9	6.01e-01	0	56	0	883949568	61	4559
2026-01-05 02:37:43.47	216.34	36.80	-49.0	-51.2	21.9	6.03e-01	0	56	0	885522432	61	4547
2026-01-05 02:37:44.45	216.28	36.53	-48.9	-51.0	22.1	6.00e-01	0	56	0	887619584	61	4463
2026-01-05 02:37:45.44	216.21	36.25	-48.8	-50.8	22.2	6.00e-01	0	56	0	889716736	61	4368
2026-01-05 02:37:46.42	216.15	35.99	-48.8	-50.8	22.3	6.03e-01	0	56	0	891289600	61	4346
2026-01-05 02:37:47.41	216.09	35.72	-48.9	-50.9	22.1	5.99e-01	0	56	0	892862464	61	4437
2026-01-05 02:37:48.41	216.03	35.45	-49.1	-51.2	21.9	6.02e-01	0	56	0	894959616	61	4564
2026-01-05 02:37:49.40	215.97	35.19	-48.9	-51.0	22.1	5.98e-01	0	56	0	897056768	61	4461
2026-01-05 02:37:50.38	215.91	34.94	-48.7	-50.6	22.4	6.00e-01	0	56	0	898629632	61	4280
2026-01-05 02:37:51.37	215.85	34.68	-48.5	-50.4	22.6	6.03e-01	0	56	0	900726784	60	4433
2026-01-05 02:37:52.35	215.79	34.42	-48.6	-50.5	22.5	5.99e-01	0	56	0	902299648	60	4474
2026-01-05 02:37:53.34	215.74	34.17	-48.6	-50.5	22.5	5.99e-01	0	56	0	904396800	60	4483
2026-01-05 02:37:54.33	215.68	33.92	-48.5	-50.3	22.7	6.02e-01	0	56	0	905969664	60	4388
2026-01-05 02:37:55.32	215.63	33.67	-48.7	-50.6	22.4	5.98e-01	0	56	0	908066816	60	4530
2026-01-05 02:37:56.31	215.57	33.42	-48.3	-50.1	22.9	6.01e-01	0	56	0	909639680	60	4277
2026-01-05 02:37:57.30	215.52	33.18	-48.5	-50.3	23.0	6.01e-01	0	56	0	911736832	59	4622
2026-01-05 02:37:58.30	215.47	32.93	-48.6	-50.4	22.9	6.00e-01	0	56	0	913309696	59	4690
2026-01-05 02:37:59.29	215.42	32.69	-48.3	-50.0	23.3	6.00e-01	0	56	0	915406848	59	4465
2026-01-05 02:38:00.28	215.37	32.45	-48.1	-49.8	23.5	6.00e-01	0	56	0	916979712	59	4356
2026-01-05 02:38:01.26	215.32	32.22	-48.0	-49.7	23.6	6.01e-01	0	56	0	919076864	59	4298
2026-01-05 02:38:02.25	215.27	31.98	-48.0	-49.6	23.6	6.00e-01	0	56	0	921174016	59	4291
2026-01-05 02:38:03.25	215.22	31.75	-47.9	-49.5	23.8	5.99e-01	0	56	0	922746880	59	4219
2026-01-05 02:38:04.23	215.17	31.52	-47.8	-49.4	23.9	5.99e-01	0	56	0	924844032	59	4159
2026-01-05 02:38:05.22	215.13	31.29	-47.7	-49.3	23.9	6.00e-01	0	56	0	926416896	59	4140
2026-01-05 02:38:06.22	215.08	31.06	-47.9	-49.5	23.8	6.00e-01	0	56	0	928514048	59	4208
2026-01-05 02:38:07.21	215.04	30.84	-47.7	-49.2	24.0	6.02e-01	0	56	0	930086912	58	4331
2026-01-05 02:38:08.20	214.99	30.61	-47.6	-49.2	24.1	6.01e-01	0	56	0	932184064	58	4323
2026-01-05 02:38:09.20	214.95	30.39	-47.7	-49.2	24.0	6.02e-01	0	56	0	933756928	58	4338
2026-01-05 02:38:10.18	214.91	30.17	-47.8	-49.4	23.9	6.00e-01	0	56	0	935854080	58	4407
2026-01-05 02:38:11.17	214.86	29.95	-48.0	-49.7	23.6	6.02e-01	0	56	0	937426944	58	4566
2026-01-05 02:38:12.16	214.82	29.74	-47.7	-49.3	24.0	6.01e-01	0	56	0	939524096	58	4349
2026-01-05 02:38:13.15	214.78	29.52	-47.4	-48.9	24.3	6.02e-01	0	56	0	941621248	58	4175
2026-01-05 02:38:14.14	214.74	29.31	-47.4	-48.8	24.4	5.99e-01	0	56	0	943194112	58	4141
2026-01-05 02:38:15.13	214.70	29.10	-47.5	-49.0	24.3	6.01e-01	0	56	0	945291264	58	4220
2026-01-05 02:38:16.11	214.66	28.89	-47.7	-49.3	24.0	6.02e-01	0	56	0	946864128	58	4344
2026-01-05 02:38:17.10	214.62	28.68	-47.7	-49.3	24.0	6.00e-01	0	56	0	948961280	58	4348
2026-01-05 02:38:18.09	214.58	28.48	-47.9	-49.5	23.8	6.00e-01	0	56	0	950534144	58	4460
2026-01-05 02:38:19.08	214.55	28.27	-47.8	-49.4	23.8	6.02e-01	0	56	0	952631296	58	4426
2026-01-05 02:38:20.08	214.51	28.07	-48.0	-49.7	23.6	6.02e-01	0	56	0	954204160	58	4552
2026-01-05 02:38:21.07	214.47	27.87	-47.9	-49.5	23.7	6.01e-01	0	56	0	956301312	58	4483
2026-01-05 02:38:22.06	214.44	27.67	-48.0	-49.7	23.5	6.02e-01	0	56	0	957874176	58	4585
2026-01-05 02:38:23.05	214.40	27.47	-48.0	-49.6	23.6	6.02e-01	0	56	0	959971328	58	4545
2026-01-05 02:38:24.04	214.37	27.27	-48.2	-49.9	23.3	6.02e-01	0	56	0	962068480	58	4683
2026-01-05 02:38:25.03	214.33	27.07	-48.1	-49.8	23.5	6.02e-01	0	56	0	963641344	58	4617
2026-01-05 02:38:26.02	214.30	26.88	-48.0	-49.7	23.5	6.01e-01	0	56	0	965738496	58	4589
2026-01-05 02:38:27.01	214.26	26.69	-48.1	-49.8	23.4	6.01e-01	0	56	0	967311360	58	4623
2026-01-05 02:38:28.00	214.23	26.50	-48.2	-50.0	23.3	6.03e-01	0	56	0	969408512	58	4710
2026-01-05 02:38:28.98	214.20	26.31	-48.4	-50.2	23.1	6.00e-01	0	56	0	970981376	59	4594
2026-01-05 02:38:29.97	214.17	26.12	-48.4	-50.2	23.0	6.01e-01	0	56	0	973078528	59	4586
2026-01-05 02:38:30.96	214.14	25.93	-48.5	-50.4	22.9	6.00e-01	0	56	0	974651392	59	4675
2026-01-05 02:38:31.95	214.10	25.75	-48.5	-50.4	22.9	6.03e-01	0	56	0	976748544	59	4654
2026-01-05 02:38:32.94	214.07	25.56	-48.5	-50.4	22.9	6.01e-01	0	56	0	978321408	59	4675
2026-01-05 02:38:33.93	214.04	25.38	-48.5	-50.4	22.8	6.01e-01	0	56	0	980418560	59	4676
2026-01-05 02:38:34.92	214.01	25.20	-48.7	-50.7	22.6	6.03e-01	0	56	0	981991424	59	4824
2026-01-05 02:38:35.91	213.98	25.02	-48.6	-50.5	22.7	5.98e-01	0	56	0	984088576	59	4741
2026-01-05 02:38:36.89	213.95	24.84	-48.7	-50.7	22.6	6.00e-01	0	56	0	985661440	59	4824
2026-01-05 02:38:37.87	213.93	24.67	-48.6	-50.5	22.7	5.99e-01	0	56	0	987758592	59	4737
2026-01-05 02:38:38.86	213.90	24.49	-48.4	-50.2	23.0	6.02e-01	0	56	0	989331456	59	4597
2026-01-05 02:38:39.84	213.87	24.32	-48.4	-50.2	23.1	6.01e-01	0	56	0	991428608	59	4549
2026-01-05 02:38:40.83	213.84	24.15	-48.5	-50.3	22.9	6.00e-01	0	56	0	993525760	59	4642
2026-01-05 02:38:41.82	213.81	23.97	-48.6	-50.5	22.7	6.01e-01	0	56	0	995098624	59	4743
2026-01-05 02:38:42.80	213.79	23.80	-48.6	-50.4	22.8	6.00e-01	0	56	0	997195776	59	4698
2026-01-05 02:38:43.79	213.76	23.63	-48.6	-50.5	22.7	6.00e-01	0	56	0	998768640	59	4738
2026-01-05 02:38:44.79	213.73	23.46	-48.8	-50.8	22.5	6.02e-01	0	56	0	1000865792	59	4873
2026-01-05 02:38:45.77	213.71	23.30	-48.8	-50.7	22.4	6.01e-01	0	56	0	1002438656	59	4846
2026-01-05 02:38:46.76	213.68	23.13	-48.8	-50.7	22.5	5.99e-01	0	56	0	1004535808	59	4849
2026-01-05 02:38:47.75	213.66	22.97	-48.6	-50.6	22.3	6.02e-01	0	56	0	1006108672	60	4499
2026-01-05 02:38:48.74	213.63	22.80	-48.7	-50.8	22.1	6.02e-01	0	56	0	1008205824	60	4600
2026-01-05 02:38:49.72	213.61	22.64	-48.7	-50.7	22.1	6.01e-01	0	56	0	1009778688	60	4573
2026-01-05 02:38:50.72	213.58	22.48	-48.7	-50.8	22.1	6.02e-01	0	56	0	1011875840	60	4609
2026-01-05 02:38:51.71	213.56	22.32	-49.0	-51.1	21.7	6.00e-01	0	56	0	1013448704	60	4812
2026-01-05 02:38:52.70	213.53	22.16	-49.0	-51.1	21.7	6.00e-01	0	56	0	1015545856	60	4806
2026-01-05 02:38:53.69	213.51	22.00	-48.7	-50.7	22.1	6.03e-01	0	56	0	1017643008	60	4576
2026-01-05 02:38:54.67	213.49	21.84	-48.5	-50.4	22.4	6.01e-01	0	56	0	1019215872	60	4441
2026-01-05 02:38:55.66	213.46	21.68	-48.4	-50.3	22.5	6.00e-01	0	56	0	1021313024	60	4362
2026-01-05 02:38:56.66	213.44	21.53	-48.4	-50.3	22.5	6.03e-01	0	56	0	1022885888	60	4360
2026-01-05 02:38:57.64	213.42	21.37	-48.4	-50.3	22.6	6.01e-01	0	56	0	1024983040	60	4363
2026-01-05 02:38:58.63	213.40	21.22	-48.5	-50.4	22.5	6.03e-01	0	56	0	1026555904	60	4418
2026-01-05 02:38:59.62	213.37	21.07	-48.5	-50.4	22.4	6.00e-01	0	56	0	1028653056	60	4411
2026-01-05 02:39:00.61	213.35	20.92	-48.2	-50.1	22.7	6.01e-01	0	56	0	1030225920	60	4243
2026-01-05 02:39:01.60	213.33	20.77	-48.4	-50.3	22.9	6.00e-01	0	56	0	1032323072	59	4607
2026-01-05 02:39:02.60	213.31	20.62	-48.4	-50.3	22.9	6.00e-01	0	56	0	1033895936	59	4603
2026-01-05 02:39:03.59	213.29	20.47	-48.5	-50.3	22.8	6.01e-01	0	56	0	1035993088	59	4649
2026-01-05 02:39:04.57	213.27	20.32	-48.6	-50.5	22.7	5.99e-01	0	56	0	1037565952	59	4718
2026-01-05 02:39:05.56	213.25	20.17	-48.6	-50.5	22.7	6.00e-01	0	56	0	1039663104	59	4731
2026-01-05 02:39:06.55	213.23	20.03	-48.5	-50.4	22.8	6.03e-01	0	56	0	1041760256	59	4675
2026-01-05 02:39:07.53	213.21	19.89	-48.6	-50.5	22.7	5.99e-01	0	56	0	1043333120	59	4721
2026-01-05 02:39:08.52	213.19	19.74	-48.8	-50.7	22.5	6.01e-01	0	56	0	1045430272	59	4843
2026-01-05 02:39:09.50	213.17	19.60	-48.5	-50.4	22.4	6.00e-01	0	56	0	1047003136	60	4411
2026-01-05 02:39:10.50	213.15	19.46	-48.4	-50.4	22.4	6.01e-01	0	56	0	1049100288	60	4404
2026-01-05 02:39:11.48	213.13	19.32	-48.5	-50.4	22.4	6.04e-01	0	56	0	1050673152	60	4432
2026-01-05 02:39:12.47	213.11	19.18	-48.5	-50.5	22.4	5.99e-01	0	56	0	1052770304	60	4449
2026-01-05 02:39:13.45	213.09	19.04	-48.6	-50.6	22.2	6.00e-01	0	56	0	1054343168	60	4516
2026-01-05 02:39:14.44	213.07	18.90	-48.3	-50.3	22.5	6.01e-01	0	56	0	1056440320	60	4341
2026-01-05 02:39:15.43	213.06	18.76	-48.2	-50.1	22.6	6.00e-01	0	56	0	1058013184	60	4276
2026-01-05 02:39:16.42	213.04	18.62	-48.6	-50.5	22.6	6.00e-01	0	56	0	1060110336	59	4755
2026-01-05 02:39:17.41	213.02	18.49	-48.6	-50.5	22.6	6.00e-01	0	56	0	1061683200	59	4737
2026-01-05 02:39:18.40	213.00	18.35	-48.6	-50.5	22.7	5.97e-01	0	56	0	1063780352	59	4726
2026-01-05 02:39:19.38	212.99	18.22	-48.8	-50.8	22.3	6.02e-01	0	56	0	1065353216	59	4925
2026-01-05 02:39:20.38	212.97	18.08	-48.8	-50.9	21.9	6.04e-01	0	56	0	1067450368	60	4661
2026-01-05 02:39:21.37	212.95	17.95	-49.0	-51.2	21.6	5.98e-01	0	56	0	1069023232	60	4843
2026-01-05 02:39:22.35	212.93	17.82	-48.8	-50.9	21.9	6.02e-01	0	56	0	1071120384	60	4672
2026-01-05 02:39:23.34	212.92	17.69	-49.1	-51.3	21.5	6.01e-01	0	56	0	1073217536	60	4923
2026-01-05 02:39:24.32	212.90	17.56	-49.4	-51.8	21.0	6.01e-01	0	56	0	1074790400	61	4890
2026-01-05 02:39:25.31	212.88	17.43	-49.1	-51.3	21.4	6.03e-01	0	56	0	1076887552	61	4630
2026-01-05 02:39:26.30	212.87	17.30	-49.1	-51.4	21.4	6.01e-01	0	56	0	1078460416	61	4668
2026-01-05 02:39:27.28	212.85	17.17	-49.3	-51.7	21.1	6.01e-01	0	56	0	1080557568	61	4821
2026-01-05 02:39:28.27	212.84	17.05	-49.2	-51.5	21.3	5.99e-01	0	56	0	1082130432	61	4721
2026-01-05 02:39:29.26	212.82	16.92	-49.3	-51.6	21.1	6.01e-01	0	56	0	1084227584	61	4804
2026-01-05 02:39:30.24	212.81	16.79	-49.5	-51.9	20.9	6.01e-01	0	56	0	1085800448	61	4955
2026-01-05 02:39:31.22	212.79	16.67	-49.4	-51.8	21.0	6.00e-01	0	56	0	1087897600	61	4907
2026-01-05 02:39:32.22	212.78	16.54	-49.7	-52.2	20.5	6.01e-01	0	56	0	1089470464	61	5145
2026-01-05 02:39:33.20	212.76	16.42	-49.3	-51.7	21.0	6.01e-01	0	56	0	1091567616	61	4825
2026-01-05 02:39:34.19	212.75	16.30	-49.0	-51.2	21.5	5.99e-01	0	56	0	1093140480	61	4551
2026-01-05 02:39:35.18	212.73	16.18	-48.7	-50.7	21.9	6.01e-01	0	56	0	1095237632	60	4585
2026-01-05 02:39:36.17	212.72	16.05	-48.4	-50.4	22.3	6.00e-01	0	56	0	1096810496	60	4418
2026-01-05 02:39:37.16	212.70	15.93	-48.3	-50.3	22.4	6.00e-01	0	56	0	1098907648	60	4342
2026-01-05 02:39:38.15	212.69	15.81	-48.2	-50.1	22.5	6.01e-01	0	56	0	1101004800	60	4291
2026-01-05 02:39:39.14	212.67	15.69	-48.3	-50.2	22.5	6.01e-01	0	56	0	1102577664	60	4303
2026-01-05 02:39:40.13	212.66	15.57	-48.2	-50.1	22.5	6.01e-01	0	56	0	1104674816	60	4278
2026-01-05 02:39:41.12	212.65	15.45	-48.5	-50.4	22.6	6.03e-01	0	56	0	1106247680	59	4671
2026-01-05 02:39:42.10	212.63	15.34	-48.6	-50.6	22.4	6.02e-01	0	56	0	1108344832	59	4772
2026-01-05 02:39:43.09	212.62	15.22	-48.4	-50.3	22.6	6.02e-01	0	56	0	1109917696	59	4634
2026-01-05 02:39:44.08	212.61	15.10	-48.4	-50.3	22.6	6.01e-01	0	56	0	1112014848	59	4633
2026-01-05 02:39:45.07	212.59	14.99	-48.4	-50.3	22.6	6.01e-01	0	56	0	1113587712	59	4643
2026-01-05 02:39:46.06	212.58	14.87	-48.6	-50.6	22.4	6.00e-01	0	56	0	1115684864	59	4766
2026-01-05 02:39:47.06	212.57	14.75	-48.4	-50.4	22.6	6.00e-01	0	56	0	1117257728	59	4656
2026-01-05 02:39:48.05	212.55	14.64	-48.5	-50.4	22.5	6.00e-01	0	56	0	1119354880	59	4697
2026-01-05 02:39:49.04	212.54	14.52	-48.5	-50.4	22.6	6.04e-01	0	56	0	1121452032	59	4667
2026-01-05 02:39:50.03	212.53	14.41	-48.5	-50.5	22.5	6.00e-01	0	56	0	1123024896	59	4711
2026-01-05 02:39:51.02	212.52	14.30	-48.7	-50.7	22.3	6.04e-01	0	56	0	1124597760	59	4821
2026-01-05 02:39:52.01	212.50	14.19	-48.6	-50.5	22.4	6.03e-01	0	56	0	1126694912	59	4745
2026-01-05 02:39:53.00	212.49	14.08	-48.6	-50.6	22.3	6.02e-01	0	56	0	1128792064	59	4809
2026-01-05 02:39:53.99	212.48	13.96	-48.6	-50.6	21.8	6.00e-01	0	56	0	1130364928	60	4522
2026-01-05 02:39:54.98	212.47	13.85	-48.7	-50.9	21.8	6.03e-01	0	56	0	1132462080	60	4669
2026-01-05 02:39:55.96	212.46	13.74	-48.9	-51.1	21.5	5.99e-01	0	56	0	1134034944	60	4787
2026-01-05 02:39:56.95	212.45	13.64	-48.8	-51.0	21.6	6.00e-01	0	56	0	1136132096	60	4722
2026-01-05 02:39:57.94	212.43	13.53	-49.0	-51.2	21.4	6.01e-01	0	56	0	1137704960	60	4868
2026-01-05 02:39:58.93	212.42	13.42	-48.9	-51.1	21.5	6.01e-01	0	56	0	1139802112	60	4767
2026-01-05 02:39:59.92	212.41	13.31	-48.8	-50.9	21.7	6.02e-01	0	56	0	1141374976	60	4687
2026-01-05 02:40:00.91	212.40	13.20	-48.9	-51.1	21.6	6.01e-01	0	56	0	1143472128	60	4768
2026-01-05 02:40:01.90	212.39	13.10	-49.1	-51.4	21.2	6.03e-01	0	56	0	1145044992	60	4943
2026-01-05 02:40:02.90	212.38	12.99	-48.9	-51.2	21.4	6.00e-01	0	56	0	1147142144	60	4832
2026-01-05 02:40:03.88	212.37	12.88	-48.7	-50.9	21.7	6.00e-01	0	56	0	1149239296	60	4658
2026-01-05 02:40:04.88	212.36	12.78	-48.5	-50.6	21.9	6.02e-01	0	56	0	1150812160	60	4530
2026-01-05 02:40:05.87	212.35	12.67	-48.4	-50.5	22.0	6.02e-01	0	56	0	1152909312	60	4466
2026-01-05 02:40:06.85	212.34	12.57	-48.5	-50.5	22.1	5.99e-01	0	56	0	1154482176	60	4466
2026-01-05 02:40:07.85	212.33	12.47	-48.6	-50.7	21.8	5.99e-01	0	56	0	1156579328	60	4594
2026-01-05 02:40:08.84	212.31	12.36	-48.6	-50.7	21.9	6.00e-01	0	56	0	1158152192	60	4554
2026-01-05 02:40:09.83	212.30	12.26	-48.7	-50.8	21.7	6.02e-01	0	56	0	1160249344	60	4646
2026-01-05 02:40:10.81	212.29	12.16	-48.9	-51.1	21.5	6.02e-01	0	56	0	1161822208	60	4767
2026-01-05 02:40:11.80	212.28	12.06	-48.7	-50.9	21.6	6.01e-01	0	56	0	1163919360	60	4688
2026-01-05 02:40:12.79	212.27	11.96	-48.5	-50.6	21.9	6.01e-01	0	56	0	1165492224	60	4520
2026-01-05 02:40:13.77	212.27	11.86	-48.4	-50.4	22.1	6.01e-01	0	56	0	1167589376	60	4434
2026-01-05 02:40:14.75	212.26	11.76	-48.4	-50.4	22.1	6.00e-01	0	56	0	1169162240	60	4399
2026-01-05 02:40:15.74	212.25	11.66	-48.4	-50.4	22.1	6.03e-01	0	56	0	1171259392	60	4440
2026-01-05 02:40:16.73	212.24	11.56	-48.5	-50.6	21.9	6.00e-01	0	56	0	1172832256	60	4512
2026-01-05 02:40:17.72	212.23	11.46	-48.5	-50.6	21.9	6.01e-01	0	56	0	1174929408	60	4501
2026-01-05 02:40:18.70	212.22	11.36	-48.5	-50.6	21.9	6.03e-01	0	56	0	1177026560	60	4497
2026-01-05 02:40:19.69	212.21	11.26	-48.6	-50.8	21.7	6.01e-01	0	56	0	1178599424	60	4610
2026-01-05 02:40:20.67	212.20	11.17	-48.6	-50.8	21.7	6.02e-01	0	56	0	1180696576	60	4612
2026-01-05 02:40:21.67	212.19	11.07	-48.6	-50.8	21.7	6.00e-01	0	56	0	1182269440	60	4617
2026-01-05 02:40:22.65	212.18	10.97	-48.9	-51.2	21.3	6.01e-01	0	56	0	1184366592	60	4821
2026-01-05 02:40:23.64	212.17	10.88	-48.9	-51.2	21.2	6.00e-01	0	56	0	1185939456	60	4860
2026-01-05 02:40:24.64	212.16	10.78	-49.0	-51.3	21.1	6.03e-01	0	56	0	1188036608	60	4907
2026-01-05 02:40:25.63	212.15	10.68	-49.0	-51.4	21.0	6.02e-01	0	56	0	1189609472	60	4952
2026-01-05 02:40:26.63	212.15	10.59	-49.1	-51.5	21.0	6.02e-01	0	56	0	1191706624	60	4995
2026-01-05 02:40:27.61	212.14	10.49	-49.1	-51.5	21.0	6.03e-01	0	56	0	1193279488	60	4984
2026-01-05 02:40:28.60	212.13	10.40	-49.2	-51.7	20.7	6.01e-01	0	56	0	1195376640	60	5131
2026-01-05 02:40:29.59	212.12	10.30	-49.2	-51.6	20.8	6.02e-01	0	56	0	1197473792	60	5090
2026-01-05 02:40:30.58	212.11	10.21	-49.0	-51.3	21.1	5.99e-01	0	56	0	1199046656	60	4903
2026-01-05 02:40:31.57	212.10	10.12	-48.8	-51.1	21.4	5.98e-01	0	56	0	1201143808	60	4767
2026-01-05 02:40:32.56	212.10	10.02	-48.8	-51.0	21.4	6.02e-01	0	56	0	1202716672	60	4729
2026-01-05 02:40:33.55	212.09	9.93	-48.7	-50.9	21.5	6.01e-01	0	56	0	1204813824	60	4699
2026-01-05 02:40:34.53	212.08	9.84	-48.7	-50.9	21.5	6.01e-01	0	56	0	1206386688	60	4700
2026-01-05 02:40:35.53	212.07	9.75	-48.9	-51.3	21.2	6.01e-01	0	56	0	1208483840	60	4876
2026-01-05 02:40:36.51	212.06	9.66	-49.1	-51.4	21.0	6.02e-01	0	56	0	1210056704	60	4980
2026-01-05 02:40:37.50	212.06	9.57	-48.8	-51.1	21.2	6.02e-01	0	56	0	1212153856	60	4802
2026-01-05 02:40:38.49	212.05	9.48	-48.7	-50.9	21.5	6.01e-01	0	56	0	1213726720	60	4686
2026-01-05 02:40:39.48	212.04	9.39	-48.7	-50.9	21.4	5.99e-01	0	56	0	1215823872	60	4680
2026-01-05 02:40:40.47	212.03	9.30	-48.7	-50.9	21.4	5.99e-01	0	56	0	1217396736	60	4701
2026-01-05 02:40:41.46	212.03	9.21	-48.7	-51.0	21.3	6.00e-01	0	56	0	1219493888	60	4733
2026-01-05 02:40:42.46	212.02	9.12	-48.9	-51.2	21.2	6.01e-01	0	56	0	1221066752	60	4824
2026-01-05 02:40:43.45	212.01	9.03	-48.8	-51.1	21.2	6.02e-01	0	56	0	1223163904	60	4804
2026-01-05 02:40:44.43	212.00	8.94	-48.9	-51.3	21.0	5.99e-01	0	56	0	1225261056	60	4898
2026-01-05 02:40:45.42	212.00	8.85	-48.9	-51.2	21.1	6.00e-01	0	56	0	1226833920	60	4845
2026-01-05 02:40:46.41	211.99	8.76	-49.1	-51.5	20.8	6.01e-01	0	56	0	1228931072	60	5021
2026-01-05 02:40:47.40	211.98	8.68	-49.3	-51.9	20.5	6.04e-01	0	56	0	1230503936	60	5222
2026-01-05 02:40:48.39	211.98	8.59	-49.2	-51.7	20.6	6.00e-01	0	56	0	1232601088	60	5104
2026-01-05 02:40:49.38	211.97	8.50	-49.3	-51.8	20.5	5.99e-01	0	56	0	1234173952	60	5216
2026-01-05 02:40:50.37	211.96	8.42	-49.3	-51.8	20.5	6.01e-01	0	57	0	1236271104	60	5212
2026-01-05 02:40:51.36	211.96	8.33	-49.2	-51.7	20.6	6.01e-01	0	56	0	1237843968	60	5124
2026-01-05 02:40:52.35	211.95	8.25	-49.1	-51.6	20.7	6.02e-01	0	56	0	1239941120	60	5087
2026-01-05 02:40:53.34	211.94	8.16	-49.2	-51.8	20.4	6.01e-01	0	56	0	1241513984	60	5200
2026-01-05 02:40:54.33	211.94	8.08	-49.2	-51.7	20.5	6.00e-01	0	56	0	1243611136	60	5143
2026-01-05 02:40:55.31	211.93	7.99	-49.4	-52.0	20.3	5.99e-01	0	56	0	1245184000	60	5318
2026-01-05 02:40:56.31	211.92	7.91	-49.3	-51.9	20.3	6.02e-01	0	56	0	1247281152	60	5250
2026-01-05 02:40:57.30	211.92	7.82	-49.5	-52.2	20.0	5.99e-01	0	56	0	1249378304	61	5153
2026-01-05 02:40:58.29	211.91	7.74	-49.7	-52.6	19.6	5.99e-01	0	56	0	1250951168	61	5370
2026-01-05 02:40:59.27	211.90	7.66	-49.5	-52.4	19.9	6.02e-01	0	56	0	1253048320	61	5230
2026-01-05 02:41:00.27	211.90	7.57	-49.8	-52.8	19.5	6.00e-01	0	56	0	1254621184	61	5502
2026-01-05 02:41:01.26	211.89	7.49	-49.9	-53.0	19.2	5.98e-01	0	56	0	1256718336	62	5310
