passes_logs/2026/01/05/R3.0SM8_Murmansk_STILSPACE/R3.0SM8_Murmansk_STILSPACE__20260105_093645_NOAA_20_JPSS-1_rec.log

#Pass ID: 20260105_093645_NOAA 20 (JPSS-1)
#Satellite: NOAA 20 (JPSS-1)
#Configuration: NOAA 20
#almurnet v.1.7.20240730
#Start time: 2026-01-05 09:36:47

#Version: 2.2.20231116
#Station: R3.0SM8_Murmansk_STILSPACE
#Location: 33.092731 lon 68.902999 lat
#TLE: 1 43013U 17073A   26004.47528369  .00000132  00000+0  83671-4 0  9999
#TLE: 2 43013  98.7626 305.5264 0001854  54.5883 305.5466 14.19533142421242

#Time	Az	El	Level	Level2	SNR	BER	BlckErr	Temp	State	Recorded	gain1	gain2
2026-01-05 09:36:47.64	153.87	3.11	-52.3	-66.1	3.8	1.49e+00	0	47	0	0	66	18653
2026-01-05 09:36:48.64	153.87	3.18	-52.0	-65.9	3.8	1.49e+00	0	47	104	0	67	17247
2026-01-05 09:36:49.62	153.88	3.25	-52.0	-65.8	3.8	1.49e+00	0	47	104	0	66	18037
2026-01-05 09:36:50.62	153.88	3.31	-51.9	-65.7	3.8	1.49e+00	0	47	104	0	66	17851
2026-01-05 09:36:51.61	153.89	3.38	-51.7	-65.5	3.8	1.49e+00	0	47	104	0	66	17467
2026-01-05 09:36:52.61	153.89	3.45	-51.1	-64.9	3.8	1.49e+00	0	47	104	0	65	17222
2026-01-05 09:36:53.60	153.90	3.52	-49.3	-63.0	3.8	1.49e+00	0	47	104	0	61	17296
2026-01-05 09:36:54.59	153.91	3.58	-49.2	-62.6	3.8	1.49e+00	0	47	104	0	61	16683
2026-01-05 09:36:55.59	153.91	3.65	-49.1	-62.3	3.8	1.49e+00	0	48	104	0	61	15949
2026-01-05 09:36:56.57	153.92	3.72	-49.1	-61.8	3.8	1.49e+00	0	47	104	0	61	15167
2026-01-05 09:36:57.56	153.92	3.78	-49.1	-61.1	3.8	1.49e+00	0	47	104	0	61	14031
2026-01-05 09:36:58.56	153.93	3.85	-49.1	-60.3	4.0	1.47e+00	0	48	104	0	61	12687
2026-01-05 09:36:59.55	153.93	3.92	-49.0	-59.6	4.2	1.43e+00	0	48	0	0	61	11684
2026-01-05 09:37:00.54	153.94	3.99	-48.8	-58.9	4.3	1.34e+00	74	48	0	0	60	11526
2026-01-05 09:37:01.54	153.94	4.06	-48.8	-58.1	4.7	1.03e+00	0	48	0	2097152	60	10443
2026-01-05 09:37:02.53	153.95	4.13	-48.8	-57.4	5.0	7.01e-01	0	48	0	3145728	60	9703
2026-01-05 09:37:03.52	153.95	4.20	-48.7	-56.9	5.3	6.05e-01	0	48	0	5242880	60	9134
2026-01-05 09:37:04.51	153.96	4.26	-48.6	-56.6	5.5	4.62e-01	0	48	0	7340032	60	8833
2026-01-05 09:37:05.51	153.97	4.33	-48.6	-56.4	5.7	4.43e-01	0	48	0	9437184	60	8606
2026-01-05 09:37:06.50	153.97	4.40	-48.6	-56.4	5.7	4.26e-01	0	48	0	11534336	60	8613
2026-01-05 09:37:07.49	153.98	4.47	-48.6	-56.4	5.7	4.30e-01	0	48	0	12582912	60	8600
2026-01-05 09:37:08.48	153.98	4.54	-48.6	-56.8	5.4	4.73e-01	0	48	0	14680064	60	9049
2026-01-05 09:37:09.46	153.99	4.61	-48.7	-57.0	5.3	5.56e-01	0	48	0	16777216	60	9223
2026-01-05 09:37:10.45	153.99	4.68	-48.7	-57.2	5.2	5.84e-01	0	48	0	18874368	60	9417
2026-01-05 09:37:11.44	154.00	4.75	-48.7	-57.2	5.2	6.15e-01	0	49	0	19922944	60	9421
2026-01-05 09:37:12.43	154.00	4.82	-48.7	-56.6	5.6	5.34e-01	0	49	0	22020096	60	8786
2026-01-05 09:37:13.42	154.01	4.89	-48.6	-56.3	5.8	4.21e-01	0	48	0	24117248	60	8519
2026-01-05 09:37:14.40	154.02	4.96	-48.4	-56.0	6.0	3.39e-01	0	49	0	26214400	60	8188
2026-01-05 09:37:15.40	154.02	5.03	-48.6	-56.0	6.0	3.39e-01	0	49	0	28311552	60	8188
2026-01-05 09:37:16.38	154.03	5.11	-48.5	-55.7	6.3	3.22e-01	0	49	0	29360128	60	7939
2026-01-05 09:37:17.38	154.03	5.18	-48.6	-55.3	6.7	1.83e-01	0	49	0	31457280	60	7628
2026-01-05 09:37:18.37	154.04	5.25	-48.8	-56.2	6.1	3.10e-01	0	49	0	33554432	60	8375
2026-01-05 09:37:19.36	154.04	5.32	-48.9	-56.5	5.9	2.92e-01	0	49	0	35651584	60	8721
2026-01-05 09:37:20.35	154.05	5.39	-49.1	-57.7	5.2	5.31e-01	0	49	0	36700160	60	9946
2026-01-05 09:37:21.33	154.06	5.46	-49.3	-57.6	5.3	5.65e-01	0	49	0	38797312	60	9904
2026-01-05 09:37:22.32	154.06	5.54	-49.3	-57.6	5.3	5.73e-01	0	49	0	40894464	60	9858
2026-01-05 09:37:23.31	154.07	5.61	-49.2	-56.9	5.8	4.92e-01	0	49	0	42991616	60	9127
2026-01-05 09:37:24.30	154.07	5.68	-49.1	-56.1	6.4	3.48e-01	0	49	0	44040192	60	8302
2026-01-05 09:37:25.28	154.08	5.75	-49.0	-55.6	6.9	1.78e-01	0	49	0	46137344	60	7885
2026-01-05 09:37:26.27	154.08	5.83	-49.0	-55.3	7.2	1.36e-01	0	49	0	48234496	60	7629
2026-01-05 09:37:27.25	154.09	5.90	-49.1	-55.4	7.2	1.31e-01	0	49	0	50331648	60	7706
2026-01-05 09:37:28.24	154.10	5.97	-49.2	-55.8	7.0	1.33e-01	0	49	0	51380224	60	8026
2026-01-05 09:37:29.22	154.10	6.04	-49.4	-56.5	6.4	2.35e-01	0	49	0	53477376	60	8676
2026-01-05 09:37:30.19	154.11	6.12	-49.5	-56.3	6.7	2.02e-01	0	49	0	55574528	60	8487
2026-01-05 09:37:31.18	154.11	6.19	-49.7	-56.9	6.2	2.44e-01	0	49	0	57671680	61	8568
2026-01-05 09:37:32.17	154.12	6.27	-49.7	-56.2	7.0	2.28e-01	0	49	0	58720256	61	7970
2026-01-05 09:37:33.15	154.13	6.34	-49.6	-55.6	7.8	1.01e-01	0	50	0	60817408	61	7377
2026-01-05 09:37:34.15	154.13	6.42	-49.6	-54.9	8.6	4.70e-02	0	49	0	62914560	61	6862
2026-01-05 09:37:35.13	154.14	6.49	-49.6	-54.5	9.2	2.99e-02	0	50	0	65011712	61	6498
2026-01-05 09:37:36.12	154.14	6.56	-49.4	-53.9	9.9	1.34e-02	0	50	0	67108864	61	6082
2026-01-05 09:37:37.11	154.15	6.64	-49.4	-53.6	10.3	5.52e-03	0	50	0	68157440	61	5905
2026-01-05 09:37:38.09	154.15	6.71	-49.3	-53.5	10.5	4.10e-03	0	50	0	70254592	61	5797
2026-01-05 09:37:39.09	154.16	6.79	-49.5	-53.8	10.2	4.73e-03	0	50	0	72351744	61	6032
2026-01-05 09:37:40.08	154.17	6.87	-49.5	-53.7	10.3	5.77e-03	0	50	0	74448896	61	5971
2026-01-05 09:37:41.07	154.17	6.94	-49.4	-53.7	10.3	4.74e-03	0	50	0	75497472	61	5966
2026-01-05 09:37:42.07	154.18	7.02	-49.3	-53.4	10.6	4.23e-03	0	50	0	77594624	61	5764
2026-01-05 09:37:43.05	154.18	7.10	-49.3	-53.4	10.7	2.86e-03	0	50	0	79691776	61	5766
2026-01-05 09:37:44.05	154.19	7.17	-49.4	-53.5	10.7	3.05e-03	0	50	0	81788928	61	5801
2026-01-05 09:37:45.04	154.20	7.25	-49.4	-53.5	10.6	3.16e-03	0	50	0	82837504	61	5854
2026-01-05 09:37:46.03	154.20	7.33	-49.5	-53.8	10.4	4.03e-03	0	50	0	84934656	61	6009
2026-01-05 09:37:47.02	154.21	7.41	-49.4	-53.5	10.7	4.21e-03	0	50	0	87031808	61	5829
2026-01-05 09:37:48.01	154.22	7.48	-49.3	-53.2	11.1	1.97e-03	0	50	0	89128960	61	5603
2026-01-05 09:37:49.00	154.22	7.56	-49.2	-53.0	11.3	1.35e-03	0	50	0	91226112	61	5503
2026-01-05 09:37:49.99	154.23	7.64	-49.1	-52.7	11.6	8.65e-04	0	51	0	92274688	61	5292
2026-01-05 09:37:50.98	154.23	7.72	-49.0	-52.6	11.7	5.51e-04	0	50	0	94371840	61	5241
2026-01-05 09:37:51.97	154.24	7.80	-49.1	-52.6	11.8	5.15e-04	0	51	0	96468992	61	5245
2026-01-05 09:37:52.96	154.25	7.88	-49.0	-52.5	11.9	4.12e-04	0	51	0	98566144	61	5160
2026-01-05 09:37:53.95	154.25	7.96	-49.1	-52.6	11.7	4.31e-04	0	51	0	99614720	61	5276
2026-01-05 09:37:54.94	154.26	8.04	-49.1	-52.5	11.9	5.50e-04	0	51	0	101711872	61	5184
2026-01-05 09:37:55.92	154.26	8.12	-49.2	-52.6	11.8	4.13e-04	0	51	0	103809024	61	5266
2026-01-05 09:37:56.92	154.27	8.20	-49.2	-52.7	11.7	5.11e-04	0	51	0	105906176	61	5331
2026-01-05 09:37:57.91	154.28	8.28	-49.1	-52.7	11.7	6.30e-04	0	51	0	108003328	61	5317
2026-01-05 09:37:58.90	154.28	8.36	-49.1	-52.5	12.0	4.07e-04	0	51	0	109051904	61	5160
2026-01-05 09:37:59.89	154.29	8.44	-49.0	-52.3	12.1	2.53e-04	0	51	0	111149056	61	5071
2026-01-05 09:38:00.87	154.30	8.52	-49.0	-52.5	12.0	3.26e-04	0	51	0	113246208	61	5178
2026-01-05 09:38:01.86	154.30	8.60	-49.0	-52.3	12.1	3.60e-04	0	51	0	115343360	61	5087
2026-01-05 09:38:02.84	154.31	8.68	-49.0	-52.4	12.0	3.03e-04	0	51	0	116391936	61	5139
2026-01-05 09:38:03.84	154.31	8.76	-48.9	-52.4	12.1	2.50e-04	0	51	0	118489088	61	5117
2026-01-05 09:38:04.83	154.32	8.85	-49.0	-52.4	12.1	2.67e-04	0	51	0	120586240	61	5133
2026-01-05 09:38:05.82	154.33	8.93	-49.0	-52.5	12.0	3.56e-04	0	51	0	122683392	61	5175
2026-01-05 09:38:06.81	154.33	9.01	-48.9	-52.3	12.2	2.00e-04	0	51	0	123731968	61	5068
2026-01-05 09:38:07.80	154.34	9.10	-49.0	-52.4	12.1	2.32e-04	0	51	0	125829120	60	5446
2026-01-05 09:38:08.79	154.35	9.18	-49.0	-52.3	12.1	3.23e-04	0	51	0	127926272	60	5402
2026-01-05 09:38:09.78	154.35	9.26	-48.9	-52.2	12.3	2.41e-04	0	51	0	130023424	60	5304
2026-01-05 09:38:10.77	154.36	9.35	-49.0	-52.3	12.2	1.88e-04	0	51	0	131072000	60	5381
2026-01-05 09:38:11.76	154.37	9.43	-49.1	-52.5	12.0	2.58e-04	0	51	0	133169152	60	5482
2026-01-05 09:38:12.75	154.37	9.51	-49.1	-52.3	12.2	2.88e-04	0	51	0	135266304	60	5388
2026-01-05 09:38:13.74	154.38	9.60	-48.9	-52.1	12.5	1.37e-04	0	51	0	137363456	60	5221
2026-01-05 09:38:14.73	154.39	9.68	-48.9	-52.0	12.5	8.77e-05	0	51	0	139460608	60	5201
2026-01-05 09:38:15.72	154.39	9.77	-48.9	-51.9	12.6	1.05e-04	0	52	0	140509184	60	5146
2026-01-05 09:38:16.71	154.40	9.86	-48.8	-51.9	12.7	8.31e-05	0	52	0	142606336	60	5134
2026-01-05 09:38:17.70	154.40	9.94	-49.0	-52.2	12.4	1.48e-04	0	52	0	144703488	60	5296
2026-01-05 09:38:18.69	154.41	10.03	-48.9	-52.1	12.5	1.17e-04	0	52	0	146800640	60	5229
2026-01-05 09:38:19.69	154.42	10.12	-48.9	-52.0	12.5	1.35e-04	0	52	0	147849216	60	5206
2026-01-05 09:38:20.68	154.42	10.20	-48.8	-52.0	12.6	1.32e-04	0	52	0	149946368	60	5183
2026-01-05 09:38:21.67	154.43	10.29	-48.8	-52.0	12.6	8.92e-05	0	52	0	152043520	60	5163
2026-01-05 09:38:22.66	154.44	10.38	-49.0	-52.2	12.4	1.10e-04	0	52	0	154140672	60	5291
2026-01-05 09:38:23.65	154.44	10.46	-48.9	-52.0	12.6	1.46e-04	0	52	0	156237824	60	5209
2026-01-05 09:38:24.63	154.45	10.55	-49.0	-52.1	12.5	8.39e-05	0	52	0	157286400	60	5273
2026-01-05 09:38:25.62	154.46	10.64	-48.9	-52.0	12.6	1.42e-04	0	52	0	159383552	60	5201
2026-01-05 09:38:26.61	154.46	10.73	-48.7	-51.7	12.9	6.86e-05	0	52	0	161480704	60	5032
2026-01-05 09:38:27.59	154.47	10.82	-48.6	-51.6	13.1	3.58e-05	0	52	0	163577856	60	4933
2026-01-05 09:38:28.57	154.48	10.91	-48.6	-51.5	13.2	2.28e-05	0	52	0	164626432	60	4884
2026-01-05 09:38:29.55	154.49	10.99	-48.6	-51.4	13.3	2.13e-05	0	52	0	166723584	60	4833
2026-01-05 09:38:30.54	154.49	11.08	-48.6	-51.4	13.3	1.83e-05	0	52	0	168820736	60	4838
2026-01-05 09:38:31.54	154.50	11.18	-48.5	-51.3	13.4	1.75e-05	0	52	0	170917888	60	4777
2026-01-05 09:38:32.53	154.51	11.27	-48.6	-51.4	13.3	1.75e-05	0	52	0	171966464	60	4865
2026-01-05 09:38:33.51	154.51	11.36	-48.6	-51.5	13.2	3.35e-05	0	52	0	174063616	60	4873
2026-01-05 09:38:34.51	154.52	11.45	-48.5	-51.3	13.4	1.98e-05	0	52	0	176160768	60	4790
2026-01-05 09:38:35.50	154.53	11.54	-48.7	-51.6	13.2	1.52e-05	0	52	0	178257920	60	4933
2026-01-05 09:38:36.49	154.53	11.63	-48.7	-51.5	13.2	2.05e-05	0	52	0	180355072	60	4919
2026-01-05 09:38:37.49	154.54	11.73	-48.6	-51.6	13.1	2.89e-05	0	52	0	181403648	60	4943
2026-01-05 09:38:38.48	154.55	11.82	-48.7	-51.6	13.1	3.43e-05	0	52	0	183500800	60	4969
2026-01-05 09:38:39.47	154.55	11.91	-48.6	-51.5	13.2	2.44e-05	0	52	0	185597952	60	4911
2026-01-05 09:38:40.47	154.56	12.01	-48.7	-51.5	13.2	3.05e-05	0	52	0	187695104	60	4922
2026-01-05 09:38:41.45	154.57	12.10	-48.6	-51.4	13.3	1.75e-05	0	52	0	188743680	60	4870
2026-01-05 09:38:42.44	154.58	12.19	-48.7	-51.6	13.1	2.59e-05	0	52	0	190840832	60	4950
2026-01-05 09:38:43.43	154.58	12.29	-48.8	-51.7	13.0	2.89e-05	0	52	0	192937984	60	5015
2026-01-05 09:38:44.42	154.59	12.38	-48.8	-51.8	12.9	4.65e-05	0	52	0	195035136	60	5073
2026-01-05 09:38:45.40	154.60	12.48	-48.6	-51.4	13.3	3.28e-05	0	52	0	196083712	60	4863
2026-01-05 09:38:46.40	154.60	12.57	-48.4	-51.1	13.7	9.90e-06	0	52	0	198180864	60	4667
2026-01-05 09:38:47.38	154.61	12.67	-48.4	-50.9	13.9	2.20e-06	0	52	0	200278016	59	4843
2026-01-05 09:38:48.37	154.62	12.76	-48.3	-50.8	14.0	1.50e-06	0	52	0	202375168	59	4789
2026-01-05 09:38:49.35	154.63	12.86	-48.3	-50.8	14.1	3.80e-06	0	53	0	204472320	59	4760
2026-01-05 09:38:50.35	154.63	12.96	-48.3	-50.7	14.1	3.00e-06	0	53	0	205520896	59	4759
2026-01-05 09:38:51.34	154.64	13.06	-48.4	-50.8	13.9	2.20e-06	0	53	0	207618048	59	4807
2026-01-05 09:38:52.33	154.65	13.15	-48.2	-50.6	14.3	7.00e-07	0	53	0	209715200	59	4663
2026-01-05 09:38:53.33	154.66	13.25	-48.1	-50.4	14.4	7.00e-07	0	53	0	211812352	59	4580
2026-01-05 09:38:54.32	154.66	13.35	-48.1	-50.4	14.4	2.20e-06	0	52	0	212860928	59	4597
2026-01-05 09:38:55.31	154.67	13.45	-48.1	-50.5	14.4	7.00e-07	0	53	0	214958080	59	4603
2026-01-05 09:38:56.31	154.68	13.55	-48.1	-50.4	14.5	0.00e+00	0	53	0	217055232	59	4564
2026-01-05 09:38:57.30	154.69	13.65	-48.2	-50.5	14.3	7.00e-07	0	52	0	219152384	59	4648
2026-01-05 09:38:58.28	154.69	13.75	-48.3	-50.8	14.0	7.00e-07	0	52	0	220200960	59	4792
2026-01-05 09:38:59.27	154.70	13.85	-48.4	-51.0	13.9	3.80e-06	0	53	0	222298112	59	4884
2026-01-05 09:39:00.26	154.71	13.95	-48.2	-50.6	14.2	3.00e-06	0	53	0	224395264	59	4699
2026-01-05 09:39:01.25	154.72	14.06	-48.0	-50.4	14.5	0.00e+00	0	53	0	226492416	59	4555
2026-01-05 09:39:02.24	154.72	14.16	-48.0	-50.2	14.6	0.00e+00	0	53	0	228589568	59	4485
2026-01-05 09:39:03.23	154.73	14.26	-48.0	-50.2	14.7	7.00e-07	0	53	0	229638144	59	4485
2026-01-05 09:39:04.22	154.74	14.36	-47.9	-50.2	14.7	0.00e+00	0	53	0	231735296	58	4716
2026-01-05 09:39:05.21	154.75	14.47	-48.0	-50.4	14.5	7.00e-07	0	53	0	233832448	58	4817
2026-01-05 09:39:06.20	154.75	14.57	-48.1	-50.5	14.4	0.00e+00	0	53	0	235929600	58	4909
2026-01-05 09:39:07.18	154.76	14.67	-48.0	-50.3	14.6	0.00e+00	0	53	0	236978176	58	4801
2026-01-05 09:39:08.17	154.77	14.78	-48.1	-50.5	14.4	1.50e-06	0	53	0	239075328	58	4918
2026-01-05 09:39:09.17	154.78	14.88	-48.3	-50.8	14.1	0.00e+00	0	53	0	241172480	58	5045
2026-01-05 09:39:10.16	154.79	14.99	-48.1	-50.4	14.5	0.00e+00	0	53	0	243269632	58	4837
2026-01-05 09:39:11.15	154.79	15.10	-47.9	-50.1	14.8	0.00e+00	0	53	0	244318208	58	4684
2026-01-05 09:39:12.15	154.80	15.20	-47.8	-49.9	15.0	0.00e+00	0	53	0	246415360	58	4570
2026-01-05 09:39:13.13	154.81	15.31	-47.7	-49.7	15.2	0.00e+00	0	53	0	248512512	58	4477
2026-01-05 09:39:14.13	154.82	15.42	-47.7	-49.7	15.2	0.00e+00	0	53	0	250609664	58	4474
2026-01-05 09:39:15.12	154.82	15.53	-47.7	-49.7	15.3	0.00e+00	0	53	0	252706816	58	4458
2026-01-05 09:39:16.11	154.83	15.63	-47.7	-49.7	15.2	0.00e+00	0	53	0	253755392	58	4482
2026-01-05 09:39:17.09	154.84	15.74	-47.8	-49.9	15.0	0.00e+00	0	53	0	255852544	58	4570
2026-01-05 09:39:18.08	154.85	15.85	-47.9	-50.2	14.8	7.00e-07	0	53	0	257949696	58	4716
2026-01-05 09:39:19.06	154.86	15.96	-47.8	-49.9	15.0	0.00e+00	0	53	0	260046848	58	4595
2026-01-05 09:39:20.05	154.87	16.07	-47.6	-49.7	15.3	0.00e+00	0	53	0	261095424	58	4467
2026-01-05 09:39:21.04	154.87	16.18	-47.4	-49.4	15.6	0.00e+00	0	53	0	263192576	58	4310
2026-01-05 09:39:22.03	154.88	16.29	-47.5	-49.5	15.5	0.00e+00	0	53	0	265289728	58	4345
2026-01-05 09:39:23.03	154.89	16.41	-47.5	-49.5	15.5	0.00e+00	0	53	0	267386880	58	4349
2026-01-05 09:39:24.02	154.90	16.52	-47.5	-49.4	15.5	0.00e+00	0	53	0	268435456	58	4327
2026-01-05 09:39:25.00	154.91	16.63	-47.6	-49.6	15.4	0.00e+00	0	53	0	270532608	58	4396
2026-01-05 09:39:25.99	154.92	16.74	-47.8	-49.8	15.1	0.00e+00	0	53	0	272629760	58	4528
2026-01-05 09:39:26.98	154.92	16.86	-47.6	-49.6	15.3	0.00e+00	0	53	0	274726912	58	4417
2026-01-05 09:39:27.97	154.93	16.97	-47.4	-49.3	15.6	0.00e+00	0	54	0	276824064	58	4291
2026-01-05 09:39:28.96	154.94	17.09	-47.3	-49.2	15.8	0.00e+00	0	54	0	277872640	57	4458
2026-01-05 09:39:29.95	154.95	17.20	-47.4	-49.3	15.7	0.00e+00	0	53	0	279969792	57	4521
2026-01-05 09:39:30.94	154.96	17.32	-47.3	-49.2	15.8	0.00e+00	0	53	0	282066944	57	4465
2026-01-05 09:39:31.92	154.97	17.44	-47.3	-49.2	15.8	0.00e+00	0	53	0	284164096	57	4478
2026-01-05 09:39:32.91	154.97	17.55	-47.4	-49.4	15.6	0.00e+00	0	53	0	285212672	57	4574
2026-01-05 09:39:33.91	154.98	17.67	-47.4	-49.3	15.7	0.00e+00	0	54	0	287309824	57	4533
2026-01-05 09:39:34.89	154.99	17.79	-47.3	-49.1	15.8	0.00e+00	0	53	0	289406976	57	4435
2026-01-05 09:39:35.88	155.00	17.91	-47.2	-49.1	15.9	0.00e+00	0	53	0	291504128	57	4436
2026-01-05 09:39:36.87	155.01	18.03	-47.5	-49.4	15.6	0.00e+00	0	54	0	292552704	57	4595
2026-01-05 09:39:37.86	155.02	18.15	-47.3	-49.3	15.8	0.00e+00	0	54	0	294649856	57	4496
2026-01-05 09:39:38.85	155.03	18.27	-47.3	-49.2	15.7	0.00e+00	0	54	0	296747008	57	4493
2026-01-05 09:39:39.84	155.04	18.39	-47.5	-49.4	15.6	0.00e+00	0	54	0	298844160	57	4591
2026-01-05 09:39:40.83	155.05	18.51	-47.3	-49.1	15.9	0.00e+00	0	54	0	300941312	57	4435
2026-01-05 09:39:41.82	155.05	18.63	-47.3	-49.1	15.9	0.00e+00	0	54	0	301989888	57	4423
2026-01-05 09:39:42.81	155.06	18.76	-47.3	-49.1	15.9	0.00e+00	0	54	0	304087040	57	4434
2026-01-05 09:39:43.80	155.07	18.88	-47.4	-49.2	15.8	0.00e+00	0	54	0	306184192	57	4478
2026-01-05 09:39:44.78	155.08	19.00	-47.3	-49.1	15.9	0.00e+00	0	54	0	308281344	57	4440
2026-01-05 09:39:45.77	155.09	19.13	-47.2	-49.1	15.9	0.00e+00	0	54	0	309329920	57	4412
2026-01-05 09:39:46.76	155.10	19.26	-47.1	-48.9	16.1	0.00e+00	0	54	0	311427072	57	4335
2026-01-05 09:39:47.76	155.11	19.38	-47.3	-49.2	15.8	0.00e+00	0	54	0	313524224	57	4468
2026-01-05 09:39:48.74	155.12	19.51	-47.2	-49.1	16.0	0.00e+00	0	54	0	315621376	57	4399
2026-01-05 09:39:49.73	155.13	19.64	-47.1	-48.9	16.2	0.00e+00	0	54	0	316669952	57	4302
2026-01-05 09:39:50.72	155.14	19.76	-47.1	-48.9	16.2	0.00e+00	0	54	0	318767104	57	4309
2026-01-05 09:39:51.71	155.15	19.89	-47.2	-49.0	16.0	0.00e+00	0	54	0	320864256	57	4366
2026-01-05 09:39:52.71	155.16	20.02	-47.2	-49.0	16.0	0.00e+00	0	54	0	322961408	57	4388
2026-01-05 09:39:53.70	155.17	20.15	-47.1	-49.0	16.0	0.00e+00	0	54	0	325058560	57	4369
2026-01-05 09:39:54.69	155.18	20.29	-47.4	-49.3	15.7	0.00e+00	0	54	0	326107136	57	4530
2026-01-05 09:39:55.68	155.19	20.42	-47.3	-49.2	15.8	0.00e+00	0	54	0	328204288	57	4484
2026-01-05 09:39:56.66	155.20	20.55	-47.1	-48.9	16.2	0.00e+00	0	54	0	330301440	57	4310
2026-01-05 09:39:57.64	155.21	20.68	-47.0	-48.7	16.4	0.00e+00	0	54	0	332398592	57	4215
2026-01-05 09:39:58.64	155.22	20.82	-47.0	-48.8	16.3	0.00e+00	0	54	0	333447168	57	4248
2026-01-05 09:39:59.62	155.23	20.95	-47.0	-48.8	16.3	0.00e+00	0	54	0	335544320	57	4243
2026-01-05 09:40:00.62	155.24	21.08	-47.1	-48.8	16.3	0.00e+00	0	54	0	337641472	57	4258
2026-01-05 09:40:01.62	155.25	21.22	-47.3	-49.2	15.9	0.00e+00	0	54	0	339738624	57	4459
2026-01-05 09:40:02.61	155.26	21.36	-47.4	-49.3	15.8	0.00e+00	0	54	0	340787200	57	4517
2026-01-05 09:40:03.59	155.27	21.49	-47.1	-48.9	16.2	0.00e+00	0	54	0	342884352	57	4295
2026-01-05 09:40:04.58	155.28	21.63	-47.0	-48.7	16.4	0.00e+00	0	54	0	344981504	56	4458
2026-01-05 09:40:05.56	155.29	21.77	-46.8	-48.5	16.6	0.00e+00	0	54	0	347078656	56	4363
2026-01-05 09:40:06.55	155.30	21.91	-46.9	-48.5	16.5	0.00e+00	0	54	0	349175808	56	4383
2026-01-05 09:40:07.54	155.31	22.05	-46.8	-48.5	16.5	0.00e+00	0	54	0	350224384	56	4387
2026-01-05 09:40:08.53	155.32	22.19	-46.9	-48.6	16.4	0.00e+00	0	54	0	352321536	56	4439
2026-01-05 09:40:09.52	155.33	22.33	-47.0	-48.7	16.4	0.00e+00	0	54	0	354418688	56	4462
2026-01-05 09:40:10.51	155.34	22.48	-46.9	-48.6	16.5	0.00e+00	0	54	0	356515840	56	4416
2026-01-05 09:40:11.50	155.35	22.62	-46.8	-48.6	16.5	0.00e+00	0	54	0	357564416	56	4405
2026-01-05 09:40:12.49	155.36	22.76	-47.0	-48.7	16.4	0.00e+00	0	54	0	359661568	56	4458
2026-01-05 09:40:13.48	155.37	22.91	-46.9	-48.7	16.4	0.00e+00	0	54	0	361758720	56	4443
2026-01-05 09:40:14.46	155.38	23.05	-47.0	-48.7	16.4	0.00e+00	0	54	0	363855872	56	4483
2026-01-05 09:40:15.45	155.39	23.20	-47.0	-48.8	16.4	0.00e+00	0	54	0	364904448	56	4499
2026-01-05 09:40:16.45	155.40	23.35	-46.9	-48.6	16.5	0.00e+00	0	54	0	367001600	56	4417
2026-01-05 09:40:17.44	155.41	23.50	-46.9	-48.6	16.5	0.00e+00	0	54	0	369098752	56	4434
2026-01-05 09:40:18.42	155.43	23.65	-47.0	-48.7	16.4	0.00e+00	0	54	0	371195904	56	4478
2026-01-05 09:40:19.41	155.44	23.80	-47.0	-48.6	16.5	0.00e+00	0	54	0	373293056	56	4440
2026-01-05 09:40:20.40	155.45	23.95	-47.0	-48.7	16.4	0.00e+00	0	54	0	374341632	56	4483
2026-01-05 09:40:21.39	155.46	24.10	-47.2	-49.0	16.1	0.00e+00	0	54	0	376438784	56	4623
2026-01-05 09:40:22.38	155.47	24.25	-47.2	-48.9	16.1	0.00e+00	0	54	0	378535936	56	4595
2026-01-05 09:40:23.38	155.48	24.41	-47.1	-48.8	16.3	0.00e+00	0	54	0	380633088	56	4509
2026-01-05 09:40:24.37	155.49	24.56	-47.1	-48.8	16.4	0.00e+00	0	54	0	381681664	56	4508
2026-01-05 09:40:25.37	155.51	24.72	-47.3	-49.0	16.1	0.00e+00	0	54	0	383778816	56	4645
2026-01-05 09:40:26.35	155.52	24.88	-47.4	-49.2	15.9	0.00e+00	0	54	0	385875968	56	4758
2026-01-05 09:40:27.34	155.53	25.03	-47.5	-49.3	15.8	0.00e+00	0	54	0	387973120	56	4812
2026-01-05 09:40:28.32	155.54	25.19	-47.5	-49.4	15.7	0.00e+00	0	54	0	389021696	56	4838
2026-01-05 09:40:29.31	155.55	25.35	-47.6	-49.6	15.5	0.00e+00	0	54	0	391118848	57	4670
2026-01-05 09:40:30.29	155.56	25.51	-47.7	-49.7	15.4	0.00e+00	0	54	0	393216000	57	4735
2026-01-05 09:40:31.28	155.58	25.67	-47.7	-49.7	15.5	0.00e+00	0	55	0	395313152	57	4711
2026-01-05 09:40:32.27	155.59	25.83	-47.9	-50.0	15.1	0.00e+00	0	55	0	397410304	57	4896
2026-01-05 09:40:33.26	155.60	26.00	-47.7	-49.7	15.4	0.00e+00	0	54	0	398458880	57	4751
2026-01-05 09:40:34.25	155.61	26.16	-47.7	-49.6	15.5	0.00e+00	0	54	0	400556032	57	4693
2026-01-05 09:40:35.23	155.63	26.32	-47.7	-49.7	15.4	0.00e+00	0	55	0	402653184	57	4726
2026-01-05 09:40:36.23	155.64	26.49	-47.9	-49.9	15.2	0.00e+00	0	55	0	404750336	57	4868
2026-01-05 09:40:37.20	155.65	26.66	-47.8	-49.8	15.4	0.00e+00	0	55	0	405798912	57	4783
2026-01-05 09:40:38.20	155.66	26.83	-48.0	-50.1	15.1	0.00e+00	0	55	0	407896064	57	4931
2026-01-05 09:40:39.19	155.68	27.00	-48.0	-50.0	15.1	0.00e+00	0	54	0	409993216	57	4923
2026-01-05 09:40:40.18	155.69	27.17	-47.9	-50.0	15.2	0.00e+00	0	55	0	412090368	57	4892
2026-01-05 09:40:41.17	155.70	27.34	-47.8	-49.9	15.3	0.00e+00	0	54	0	413138944	57	4830
2026-01-05 09:40:42.16	155.72	27.51	-47.9	-50.0	15.2	0.00e+00	0	55	0	415236096	57	4880
2026-01-05 09:40:43.15	155.73	27.68	-48.1	-50.3	14.8	0.00e+00	0	55	0	417333248	58	4813
2026-01-05 09:40:44.14	155.74	27.86	-48.2	-50.5	14.7	0.00e+00	0	55	0	419430400	58	4909
2026-01-05 09:40:45.12	155.76	28.03	-48.3	-50.6	14.6	0.00e+00	0	55	0	420478976	58	4964
2026-01-05 09:40:46.11	155.77	28.21	-48.6	-51.1	14.1	7.00e-07	0	54	0	422576128	59	4935
2026-01-05 09:40:47.11	155.78	28.39	-48.5	-51.0	14.2	1.50e-06	0	55	0	424673280	59	4912
2026-01-05 09:40:48.10	155.80	28.57	-48.7	-51.3	13.9	1.50e-06	0	55	0	426770432	59	5052
2026-01-05 09:40:49.08	155.81	28.75	-48.8	-51.4	13.8	7.60e-06	0	55	0	428867584	59	5123
2026-01-05 09:40:50.08	155.83	28.93	-49.0	-51.7	13.5	6.80e-06	0	55	0	429916160	59	5318
2026-01-05 09:40:51.07	155.84	29.12	-49.2	-52.0	13.1	1.67e-05	0	55	0	432013312	60	5218
2026-01-05 09:40:52.06	155.85	29.30	-49.2	-52.2	12.9	3.66e-05	0	55	0	434110464	60	5319
2026-01-05 09:40:53.05	155.87	29.49	-49.3	-52.3	12.9	4.50e-05	0	55	0	436207616	60	5361
2026-01-05 09:40:54.03	155.88	29.67	-49.3	-52.4	12.8	5.26e-05	0	55	0	437256192	60	5450
2026-01-05 09:40:55.02	155.90	29.86	-49.3	-52.4	12.7	6.25e-05	0	55	0	439353344	60	5435
2026-01-05 09:40:56.02	155.91	30.05	-49.5	-52.7	12.4	8.46e-05	0	55	0	441450496	60	5620
2026-01-05 09:40:57.01	155.93	30.24	-49.4	-52.5	12.6	9.91e-05	0	55	0	443547648	60	5519
2026-01-05 09:40:58.00	155.94	30.43	-49.6	-52.9	12.3	1.48e-04	0	55	0	445644800	61	5422
2026-01-05 09:40:59.00	155.96	30.63	-49.4	-52.5	12.6	1.33e-04	0	55	0	446693376	61	5201
2026-01-05 09:40:59.98	155.97	30.82	-49.4	-52.5	12.7	9.68e-05	0	55	0	448790528	61	5168
2026-01-05 09:41:00.96	155.99	31.01	-49.4	-52.5	12.6	9.91e-05	0	55	0	450887680	61	5210
2026-01-05 09:41:01.95	156.00	31.21	-49.5	-52.8	12.3	1.36e-04	0	55	0	452984832	61	5399
2026-01-05 09:41:02.94	156.02	31.41	-49.4	-52.6	12.5	1.36e-04	0	55	0	454033408	61	5265
2026-01-05 09:41:03.93	156.04	31.61	-49.4	-52.5	12.7	7.62e-05	0	55	0	456130560	61	5169
2026-01-05 09:41:04.93	156.05	31.81	-49.4	-52.5	12.6	5.64e-05	0	55	0	458227712	61	5214
2026-01-05 09:41:05.92	156.07	32.01	-49.4	-52.5	12.6	8.62e-05	0	55	0	460324864	61	5213
2026-01-05 09:41:06.91	156.08	32.21	-49.3	-52.4	12.9	7.32e-05	0	55	0	461373440	61	5103
2026-01-05 09:41:07.90	156.10	32.42	-49.5	-52.6	12.5	6.79e-05	0	55	0	463470592	61	5273
2026-01-05 09:41:08.89	156.12	32.63	-49.3	-52.4	12.8	8.01e-05	0	55	0	465567744	61	5111
2026-01-05 09:41:09.87	156.13	32.83	-49.2	-52.1	13.0	4.50e-05	0	55	0	467664896	61	4944
2026-01-05 09:41:10.86	156.15	33.04	-49.1	-52.0	13.2	2.28e-05	0	55	0	469762048	61	4889
2026-01-05 09:41:11.84	156.17	33.25	-49.1	-51.9	13.3	2.51e-05	0	55	0	470810624	61	4832
2026-01-05 09:41:12.83	156.19	33.46	-49.0	-51.7	13.5	1.67e-05	0	55	0	472907776	61	4754
2026-01-05 09:41:13.82	156.20	33.67	-49.0	-51.7	13.5	9.10e-06	0	55	0	475004928	61	4719
2026-01-05 09:41:14.81	156.22	33.89	-49.0	-51.7	13.5	7.60e-06	0	55	0	477102080	61	4715
2026-01-05 09:41:15.79	156.24	34.10	-49.0	-51.6	13.6	1.22e-05	0	55	0	478150656	61	4691
2026-01-05 09:41:16.78	156.26	34.32	-49.1	-51.9	13.3	6.10e-06	0	55	0	480247808	61	4850
2026-01-05 09:41:17.77	156.28	34.54	-48.9	-51.5	13.7	9.10e-06	0	55	0	482344960	60	4876
2026-01-05 09:41:18.76	156.29	34.76	-48.7	-51.3	14.0	1.50e-06	0	55	0	484442112	60	4767
2026-01-05 09:41:19.74	156.31	34.98	-49.0	-51.7	13.5	3.00e-06	0	55	0	485490688	60	5018
2026-01-05 09:41:20.73	156.33	35.21	-48.8	-51.5	13.7	6.10e-06	0	55	0	487587840	60	4875
2026-01-05 09:41:21.72	156.35	35.43	-48.4	-50.8	14.4	0.00e+00	0	55	0	489684992	60	4526
2026-01-05 09:41:22.70	156.37	35.66	-48.1	-50.2	15.0	0.00e+00	0	55	0	491782144	59	4482
2026-01-05 09:41:23.69	156.39	35.89	-48.0	-50.0	15.2	0.00e+00	0	55	0	493879296	59	4391
2026-01-05 09:41:24.68	156.41	36.12	-48.0	-50.1	15.2	0.00e+00	0	55	0	494927872	59	4402
2026-01-05 09:41:25.67	156.43	36.35	-47.9	-49.9	15.3	0.00e+00	0	55	0	497025024	58	4576
2026-01-05 09:41:26.66	156.45	36.59	-47.7	-49.6	15.6	0.00e+00	0	55	0	499122176	58	4439
2026-01-05 09:41:27.65	156.47	36.82	-47.3	-49.1	16.2	0.00e+00	0	55	0	501219328	57	4405
2026-01-05 09:41:28.63	156.49	37.06	-46.9	-48.5	16.7	0.00e+00	0	55	0	502267904	56	4379
2026-01-05 09:41:29.62	156.51	37.30	-46.5	-48.0	17.3	0.00e+00	0	55	0	504365056	56	4104
2026-01-05 09:41:30.61	156.53	37.54	-46.2	-47.5	17.5	0.00e+00	0	55	0	506462208	55	4143
2026-01-05 09:41:31.60	156.55	37.78	-45.9	-47.3	17.9	0.00e+00	0	55	0	508559360	55	4020
2026-01-05 09:41:32.59	156.58	38.02	-45.9	-47.3	17.9	0.00e+00	0	55	0	509607936	54	4246
2026-01-05 09:41:33.59	156.60	38.27	-45.8	-47.1	18.0	0.00e+00	0	55	0	511705088	54	4185
2026-01-05 09:41:34.58	156.62	38.52	-45.8	-47.1	18.0	0.00e+00	0	55	0	513802240	54	4167
2026-01-05 09:41:35.58	156.64	38.77	-45.9	-47.2	17.9	0.00e+00	0	55	0	515899392	54	4215
2026-01-05 09:41:36.56	156.67	39.02	-46.2	-47.6	17.6	0.00e+00	0	55	0	517996544	54	4413
2026-01-05 09:41:37.56	156.69	39.28	-46.1	-47.5	17.7	0.00e+00	0	55	0	519045120	54	4351
2026-01-05 09:41:38.55	156.71	39.53	-46.0	-47.3	17.8	0.00e+00	0	55	0	521142272	54	4268
2026-01-05 09:41:39.54	156.74	39.79	-46.0	-47.3	17.8	0.00e+00	0	55	0	523239424	54	4278
2026-01-05 09:41:40.54	156.76	40.05	-45.9	-47.3	17.9	0.00e+00	0	55	0	525336576	54	4244
2026-01-05 09:41:41.53	156.79	40.31	-45.9	-47.3	17.9	0.00e+00	0	55	0	526385152	54	4250
2026-01-05 09:41:42.52	156.81	40.58	-45.9	-47.3	17.9	0.00e+00	0	55	0	528482304	54	4250
2026-01-05 09:41:43.51	156.84	40.84	-45.8	-47.1	18.0	0.00e+00	0	55	0	530579456	54	4173
2026-01-05 09:41:44.50	156.86	41.11	-45.7	-46.9	18.2	0.00e+00	0	56	0	532676608	54	4095
2026-01-05 09:41:45.49	156.89	41.38	-45.7	-46.9	18.2	0.00e+00	0	55	0	533725184	54	4090
2026-01-05 09:41:46.48	156.91	41.65	-45.8	-47.1	18.1	0.00e+00	0	56	0	535822336	54	4159
2026-01-05 09:41:47.47	156.94	41.92	-45.8	-47.1	18.1	0.00e+00	0	55	0	537919488	54	4173
2026-01-05 09:41:48.47	156.97	42.20	-46.1	-47.5	17.7	0.00e+00	0	55	0	540016640	54	4363
2026-01-05 09:41:49.46	157.00	42.48	-46.2	-47.7	17.5	0.00e+00	0	55	0	542113792	54	4448
2026-01-05 09:41:50.45	157.02	42.76	-46.4	-47.9	17.3	0.00e+00	0	55	0	543162368	54	4566
2026-01-05 09:41:51.44	157.05	43.04	-46.5	-48.0	17.1	0.00e+00	0	55	0	545259520	54	4643
2026-01-05 09:41:52.43	157.08	43.32	-46.6	-48.2	17.0	0.00e+00	0	56	0	547356672	55	4449
2026-01-05 09:41:53.42	157.11	43.61	-46.8	-48.4	16.7	0.00e+00	0	55	0	549453824	55	4590
2026-01-05 09:41:54.42	157.14	43.90	-47.1	-48.8	16.4	0.00e+00	0	56	0	550502400	55	4792
2026-01-05 09:41:55.40	157.17	44.19	-47.4	-49.1	16.1	0.00e+00	0	55	0	552599552	56	4698
2026-01-05 09:41:56.39	157.20	44.48	-47.3	-49.1	16.2	0.00e+00	0	56	0	554696704	56	4691
2026-01-05 09:41:57.38	157.23	44.77	-47.6	-49.4	15.9	0.00e+00	0	55	0	556793856	57	4578
2026-01-05 09:41:58.37	157.26	45.07	-47.8	-49.8	15.5	0.00e+00	0	55	0	557842432	57	4766
2026-01-05 09:41:59.36	157.30	45.37	-48.0	-50.1	15.2	0.00e+00	0	56	0	559939584	57	4957
2026-01-05 09:42:00.36	157.33	45.67	-48.3	-50.6	14.8	0.00e+00	0	56	0	562036736	58	4937
2026-01-05 09:42:01.35	157.36	45.97	-48.6	-51.1	14.2	7.00e-07	0	56	0	564133888	59	4933
2026-01-05 09:42:02.33	157.40	46.28	-48.8	-51.3	14.0	1.50e-06	0	56	0	566231040	59	5069
2026-01-05 09:42:03.33	157.43	46.59	-49.0	-51.6	13.7	3.80e-06	0	55	0	567279616	59	5257
2026-01-05 09:42:04.31	157.46	46.89	-49.1	-52.0	13.3	1.44e-05	0	55	0	569376768	60	5163
2026-01-05 09:42:05.30	157.50	47.21	-48.8	-51.4	13.9	3.80e-06	0	55	0	571473920	60	4863
2026-01-05 09:42:06.29	157.54	47.52	-48.7	-51.2	14.1	5.30e-06	0	55	0	573571072	60	4757
2026-01-05 09:42:07.28	157.57	47.84	-48.7	-51.2	14.1	1.50e-06	0	55	0	574619648	60	4729
2026-01-05 09:42:08.27	157.61	48.16	-48.8	-51.5	13.8	1.50e-06	0	55	0	576716800	60	4905
2026-01-05 09:42:09.25	157.65	48.47	-48.9	-51.6	13.7	4.50e-06	0	56	0	578813952	60	4944
2026-01-05 09:42:10.25	157.69	48.80	-49.1	-51.9	13.4	1.14e-05	0	56	0	580911104	60	5143
2026-01-05 09:42:11.24	157.73	49.13	-49.3	-52.2	13.1	1.90e-05	0	56	0	583008256	60	5286
2026-01-05 09:42:12.23	157.77	49.46	-49.4	-52.3	12.9	3.43e-05	0	55	0	584056832	60	5389
2026-01-05 09:42:13.22	157.81	49.79	-49.1	-51.9	13.4	1.67e-05	0	55	0	586153984	60	5140
2026-01-05 09:42:14.21	157.85	50.12	-49.1	-51.9	13.4	7.60e-06	0	55	0	588251136	60	5113
2026-01-05 09:42:15.20	157.90	50.46	-48.8	-51.4	13.9	6.80e-06	0	56	0	590348288	60	4822
2026-01-05 09:42:16.19	157.94	50.79	-48.7	-51.1	14.2	7.00e-07	0	56	0	591396864	60	4660
2026-01-05 09:42:17.18	157.99	51.13	-48.4	-50.7	14.7	7.00e-07	0	56	0	593494016	59	4730
2026-01-05 09:42:18.17	158.03	51.48	-48.3	-50.5	14.8	0.00e+00	0	56	0	595591168	59	4623
2026-01-05 09:42:19.16	158.08	51.82	-48.3	-50.5	14.9	0.00e+00	0	56	0	597688320	59	4601
2026-01-05 09:42:20.16	158.13	52.18	-47.7	-49.6	15.8	0.00e+00	0	56	0	598736896	58	4402
2026-01-05 09:42:21.14	158.17	52.52	-47.2	-48.9	16.5	0.00e+00	0	56	0	600834048	57	4296
2026-01-05 09:42:22.13	158.22	52.88	-46.8	-48.3	17.1	0.00e+00	0	56	0	602931200	56	4254
2026-01-05 09:42:23.12	158.28	53.23	-46.9	-48.5	16.9	0.00e+00	0	56	0	605028352	56	4358
2026-01-05 09:42:24.11	158.33	53.59	-47.2	-48.9	16.4	0.00e+00	0	55	0	607125504	56	4592
2026-01-05 09:42:25.11	158.38	53.95	-47.0	-48.6	16.7	0.00e+00	0	56	0	608174080	56	4437
2026-01-05 09:42:26.10	158.44	54.32	-46.8	-48.4	16.9	0.00e+00	0	55	0	610271232	56	4315
2026-01-05 09:42:27.08	158.49	54.68	-47.1	-48.7	16.6	0.00e+00	0	56	0	612368384	56	4459
2026-01-05 09:42:28.07	158.55	55.05	-47.2	-48.8	16.5	0.00e+00	0	56	0	614465536	56	4540
2026-01-05 09:42:29.05	158.61	55.41	-47.3	-49.0	16.3	0.00e+00	0	56	0	615514112	56	4651
2026-01-05 09:42:30.04	158.67	55.79	-47.8	-49.8	15.5	0.00e+00	0	55	0	617611264	57	4789
2026-01-05 09:42:31.02	158.73	56.16	-47.7	-49.6	15.7	0.00e+00	0	56	0	619708416	57	4670
2026-01-05 09:42:32.01	158.79	56.54	-47.7	-49.6	15.8	0.00e+00	0	56	0	621805568	57	4678
2026-01-05 09:42:33.00	158.86	56.92	-47.5	-49.4	15.9	0.00e+00	0	56	0	622854144	57	4569
2026-01-05 09:42:34.00	158.93	57.31	-47.6	-49.4	15.9	0.00e+00	0	56	0	624951296	57	4587
2026-01-05 09:42:34.99	158.99	57.69	-47.7	-49.5	15.8	0.00e+00	0	56	0	627048448	57	4649
2026-01-05 09:42:35.98	159.06	58.08	-48.0	-50.0	15.3	0.00e+00	0	56	0	629145600	57	4897
2026-01-05 09:42:36.97	159.14	58.47	-48.0	-50.1	15.3	0.00e+00	0	56	0	631242752	57	4947
2026-01-05 09:42:37.96	159.21	58.87	-48.0	-50.1	15.3	0.00e+00	0	56	0	632291328	58	4664
2026-01-05 09:42:38.95	159.29	59.26	-47.6	-49.4	16.0	0.00e+00	0	56	0	634388480	58	4322
2026-01-05 09:42:39.94	159.37	59.66	-46.9	-48.5	16.8	0.00e+00	0	56	0	636485632	57	4128
2026-01-05 09:42:40.93	159.45	60.06	-46.5	-47.9	17.5	0.00e+00	0	56	0	638582784	56	4069
2026-01-05 09:42:41.92	159.53	60.47	-46.2	-47.6	17.7	0.00e+00	0	56	0	639631360	55	4147
2026-01-05 09:42:42.91	159.62	60.87	-46.3	-47.7	17.5	0.00e+00	0	56	0	641728512	55	4223
2026-01-05 09:42:43.89	159.71	61.28	-46.0	-47.3	17.9	0.00e+00	0	56	0	643825664	55	4018
2026-01-05 09:42:44.89	159.80	61.69	-46.2	-47.6	17.7	0.00e+00	0	56	0	645922816	55	4156
2026-01-05 09:42:45.87	159.89	62.10	-45.7	-46.9	18.3	0.00e+00	0	56	0	646971392	54	4079
2026-01-05 09:42:46.86	159.99	62.52	-45.2	-46.3	18.8	0.00e+00	0	56	0	649068544	53	4034
2026-01-05 09:42:47.85	160.09	62.94	-45.0	-46.1	19.1	0.00e+00	0	56	0	651165696	53	3939
2026-01-05 09:42:48.85	160.20	63.36	-45.3	-46.4	18.8	0.00e+00	0	56	0	653262848	53	4087
2026-01-05 09:42:49.84	160.31	63.79	-45.6	-46.9	18.3	0.00e+00	0	56	0	654311424	53	4309
2026-01-05 09:42:50.83	160.42	64.21	-46.7	-48.2	17.0	0.00e+00	0	56	0	656408576	55	4487
2026-01-05 09:42:51.82	160.54	64.64	-47.2	-48.9	16.5	0.00e+00	0	56	0	658505728	56	4548
2026-01-05 09:42:52.81	160.66	65.07	-47.7	-49.7	15.7	0.00e+00	0	56	0	660602880	57	4714
2026-01-05 09:42:53.80	160.78	65.51	-47.7	-49.6	15.8	0.00e+00	0	56	0	662700032	57	4658
2026-01-05 09:42:54.79	160.91	65.94	-47.5	-49.3	16.0	0.00e+00	0	56	0	663748608	57	4524
2026-01-05 09:42:55.78	161.05	66.38	-47.4	-49.2	16.1	0.00e+00	0	56	0	665845760	57	4482
2026-01-05 09:42:56.77	161.19	66.82	-47.3	-49.1	16.2	0.00e+00	0	56	0	667942912	57	4422
2026-01-05 09:42:57.76	161.34	67.26	-47.5	-49.3	16.0	0.00e+00	0	56	0	670040064	57	4541
2026-01-05 09:42:58.74	161.49	67.70	-48.1	-50.2	15.2	0.00e+00	0	56	0	671088640	58	4709
2026-01-05 09:42:59.73	161.65	68.15	-48.4	-50.7	14.7	0.00e+00	0	56	0	673185792	58	5000
2026-01-05 09:43:00.72	161.81	68.60	-48.6	-51.0	14.3	7.00e-07	0	56	0	675282944	59	4883
2026-01-05 09:43:01.71	161.99	69.05	-48.3	-50.4	15.0	0.00e+00	0	56	0	677380096	59	4576
2026-01-05 09:43:02.69	162.17	69.50	-47.8	-49.8	15.5	0.00e+00	0	56	0	679477248	58	4511
2026-01-05 09:43:03.68	162.36	69.95	-47.6	-49.4	15.9	0.00e+00	0	56	0	680525824	58	4294
2026-01-05 09:43:04.67	162.56	70.41	-47.3	-49.0	16.4	0.00e+00	0	56	0	682622976	57	4360
2026-01-05 09:43:05.66	162.77	70.87	-47.4	-49.2	16.1	0.00e+00	0	56	0	684720128	57	4451
2026-01-05 09:43:06.66	162.99	71.33	-47.7	-49.6	15.7	0.00e+00	0	56	0	686817280	57	4692
2026-01-05 09:43:07.64	163.22	71.79	-48.2	-50.3	15.1	0.00e+00	0	56	0	687865856	58	4791
2026-01-05 09:43:08.64	163.47	72.26	-48.2	-50.4	15.0	0.00e+00	0	56	0	689963008	58	4825
2026-01-05 09:43:09.63	163.73	72.72	-48.3	-50.4	14.8	0.00e+00	0	56	0	692060160	58	4868
2026-01-05 09:43:10.61	164.00	73.18	-48.3	-50.4	14.9	7.00e-07	0	56	0	694157312	58	4817
2026-01-05 09:43:11.60	164.29	73.65	-48.7	-51.2	14.2	0.00e+00	0	56	0	695205888	59	5000
2026-01-05 09:43:12.59	164.60	74.12	-49.0	-51.7	13.6	3.80e-06	0	56	0	697303040	60	4991
2026-01-05 09:43:13.57	164.92	74.59	-49.3	-52.1	13.2	1.52e-05	0	56	0	699400192	60	5239
2026-01-05 09:43:14.57	165.27	75.07	-49.3	-52.0	13.4	4.11e-05	0	56	0	701497344	60	5209
2026-01-05 09:43:15.55	165.64	75.53	-48.8	-51.3	14.1	1.44e-05	0	56	0	703594496	60	4762
2026-01-05 09:43:16.54	166.04	76.01	-48.4	-50.5	14.9	0.00e+00	0	56	0	704643072	59	4623
2026-01-05 09:43:17.53	166.47	76.49	-48.4	-50.5	14.9	0.00e+00	0	56	0	706740224	59	4644
2026-01-05 09:43:18.52	166.92	76.96	-48.3	-50.4	14.9	0.00e+00	0	56	0	708837376	59	4557
2026-01-05 09:43:19.51	167.42	77.44	-48.1	-50.1	15.2	0.00e+00	0	56	0	710934528	59	4435
2026-01-05 09:43:20.50	167.95	77.92	-47.8	-49.8	15.6	0.00e+00	0	56	0	711983104	58	4502
2026-01-05 09:43:21.50	168.54	78.40	-47.5	-49.3	16.1	0.00e+00	0	56	0	714080256	58	4245
2026-01-05 09:43:22.48	169.16	78.87	-47.1	-48.8	16.5	0.00e+00	0	56	0	716177408	57	4269
2026-01-05 09:43:23.47	169.84	79.35	-46.9	-48.5	16.7	0.00e+00	0	56	0	718274560	57	4136
2026-01-05 09:43:24.46	170.60	79.83	-46.8	-48.4	17.0	0.00e+00	0	56	0	719323136	56	4297
2026-01-05 09:43:25.45	171.42	80.30	-46.9	-48.5	16.9	0.00e+00	0	56	0	721420288	56	4368
2026-01-05 09:43:26.44	172.33	80.78	-47.2	-48.8	16.6	0.00e+00	0	56	0	723517440	56	4538
2026-01-05 09:43:27.42	173.34	81.25	-47.5	-49.3	16.0	0.00e+00	0	56	0	725614592	56	4796
2026-01-05 09:43:28.41	174.46	81.72	-48.7	-51.1	14.3	0.00e+00	0	56	0	727711744	59	4942
2026-01-05 09:43:29.40	175.73	82.19	-49.8	-53.3	11.9	4.42e-05	0	56	0	728760320	61	5693
2026-01-05 09:43:30.39	177.16	82.66	-49.9	-53.5	11.7	9.83e-04	0	56	0	730857472	62	5470
2026-01-05 09:43:31.38	178.78	83.12	-49.4	-52.3	12.9	5.64e-05	0	56	0	732954624	61	5063
2026-01-05 09:43:32.37	180.63	83.58	-49.3	-52.2	13.1	2.74e-05	0	56	0	735051776	61	5002
2026-01-05 09:43:33.36	182.77	84.02	-49.1	-51.9	13.4	3.05e-05	0	56	0	736100352	61	4850
2026-01-05 09:43:34.36	185.28	84.47	-49.3	-52.3	13.0	1.22e-05	0	56	0	738197504	61	5048
2026-01-05 09:43:35.34	188.16	84.89	-50.2	-53.8	11.4	3.82e-04	0	56	0	740294656	62	5708
2026-01-05 09:43:36.34	191.63	85.31	-50.4	-54.6	10.7	2.05e-03	0	56	0	742391808	62	6222
2026-01-05 09:43:37.34	195.77	85.71	-51.0	-55.9	9.2	6.47e-03	0	56	0	743440384	63	6839
2026-01-05 09:43:38.33	200.66	86.08	-51.2	-56.7	8.4	2.43e-02	0	56	0	745537536	64	7044
2026-01-05 09:43:39.31	206.46	86.41	-51.3	-57.2	7.8	6.86e-02	0	56	0	747634688	64	7541
2026-01-05 09:43:40.29	213.34	86.70	-51.6	-58.4	6.8	1.29e-01	0	56	0	749731840	65	8085
2026-01-05 09:43:41.28	221.48	86.93	-51.7	-58.8	6.3	2.30e-01	0	56	0	750780416	65	8512
2026-01-05 09:43:42.27	230.74	87.09	-51.7	-59.1	6.1	3.19e-01	0	56	0	752877568	65	8858
2026-01-05 09:43:43.25	240.70	87.17	-51.7	-59.1	6.1	3.30e-01	0	56	0	754974720	65	8833
2026-01-05 09:43:44.24	251.00	87.16	-51.7	-59.0	6.1	3.17e-01	0	56	0	757071872	65	8725
2026-01-05 09:43:45.23	260.92	87.06	-51.6	-59.1	6.1	2.93e-01	0	56	0	759169024	65	8846
2026-01-05 09:43:46.22	269.93	86.88	-51.8	-59.0	6.1	3.07e-01	0	56	0	760217600	65	8746
2026-01-05 09:43:47.21	277.79	86.63	-51.9	-59.6	5.7	3.66e-01	0	56	0	762314752	65	9376
2026-01-05 09:43:48.20	284.47	86.33	-51.8	-59.8	5.6	4.73e-01	0	56	0	764411904	65	9513
2026-01-05 09:43:49.18	290.01	85.99	-51.8	-59.3	5.9	3.94e-01	0	56	0	766509056	65	9011
2026-01-05 09:43:50.18	294.74	85.61	-51.9	-59.6	5.8	3.65e-01	0	56	0	767557632	65	9295
2026-01-05 09:43:51.17	298.65	85.21	-51.8	-59.5	5.8	3.94e-01	0	56	0	769654784	65	9244
2026-01-05 09:43:52.15	301.92	84.80	-51.7	-58.7	6.4	3.07e-01	0	56	0	771751936	65	8380
2026-01-05 09:43:53.14	304.73	84.37	-51.7	-58.9	6.3	2.20e-01	0	56	0	773849088	65	8599
2026-01-05 09:43:54.13	307.13	83.93	-51.9	-60.0	5.5	4.06e-01	0	56	0	774897664	65	9765
2026-01-05 09:43:55.12	309.20	83.47	-52.1	-61.2	4.8	6.76e-01	0	56	0	776994816	66	10543
2026-01-05 09:43:56.11	310.99	83.02	-52.2	-61.9	4.5	9.29e-01	11	56	0	779091968	66	11521
2026-01-05 09:43:57.10	312.57	82.55	-52.3	-62.3	4.3	1.30e+00	86	56	0	781189120	66	12026
2026-01-05 09:43:58.09	313.96	82.09	-52.2	-61.8	4.6	1.12e+00	0	56	0	782237696	66	11289
2026-01-05 09:43:59.08	315.19	81.62	-52.2	-61.7	4.6	9.74e-01	0	56	0	784334848	66	11160
2026-01-05 09:44:00.06	316.28	81.15	-52.1	-61.2	4.8	9.09e-01	0	56	0	786432000	66	10599
2026-01-05 09:44:01.04	317.26	80.68	-52.1	-60.9	5.0	7.12e-01	0	56	0	788529152	66	10212
2026-01-05 09:44:02.04	318.16	80.20	-52.1	-60.8	5.0	7.12e-01	0	56	0	789577728	66	10140
2026-01-05 09:44:03.02	318.96	79.73	-51.8	-59.9	5.6	5.19e-01	0	56	0	791674880	66	9144
2026-01-05 09:44:04.02	319.70	79.25	-52.1	-61.4	4.7	5.95e-01	0	56	0	793772032	66	10851
2026-01-05 09:44:05.01	320.38	78.77	-52.1	-62.0	4.5	9.88e-01	9	56	0	795869184	66	11573
2026-01-05 09:44:05.99	320.99	78.30	-52.3	-63.0	4.1	1.38e+00	0	56	0	795869184	66	13066
2026-01-05 09:44:06.99	321.56	77.81	-52.3	-62.7	4.2	1.36e+00	0	56	0	795869184	66	12619
2026-01-05 09:44:07.97	322.08	77.34	-52.4	-63.7	3.9	1.42e+00	0	56	104	795869184	66	14196
2026-01-05 09:44:08.96	322.57	76.87	-52.4	-64.7	3.8	1.49e+00	0	56	104	795869184	66	15869
2026-01-05 09:44:09.95	323.02	76.39	-52.4	-64.1	3.8	1.49e+00	0	56	104	795869184	66	14792
2026-01-05 09:44:10.94	323.44	75.92	-52.2	-62.9	4.1	1.48e+00	0	56	104	795869184	66	12908
2026-01-05 09:44:11.93	323.83	75.44	-52.2	-62.0	4.4	1.32e+00	46	56	0	795869184	66	11682
2026-01-05 09:44:12.92	324.19	74.97	-52.3	-62.4	4.3	1.27e+00	91	56	0	2097152	66	12127
2026-01-05 09:44:13.91	324.54	74.50	-52.3	-62.8	4.2	1.39e+00	0	56	0	2097152	66	12797
2026-01-05 09:44:14.90	324.86	74.03	-52.0	-60.4	5.1	1.15e+00	0	56	0	3145728	66	9715
2026-01-05 09:44:15.88	325.16	73.56	-51.9	-59.7	5.8	4.58e-01	0	56	0	5242880	66	8880
2026-01-05 09:44:16.87	325.45	73.10	-52.1	-60.7	5.1	5.45e-01	0	56	0	7340032	66	9945
2026-01-05 09:44:17.86	325.72	72.63	-51.8	-59.9	5.5	6.32e-01	0	56	0	9437184	66	9103
2026-01-05 09:44:18.85	325.98	72.16	-51.6	-58.3	6.8	3.42e-01	0	56	0	10485760	66	7583
2026-01-05 09:44:19.84	326.22	71.70	-51.1	-56.3	8.7	1.07e-01	0	56	0	12582912	65	6396
2026-01-05 09:44:20.83	326.45	71.24	-50.7	-55.1	10.0	1.18e-02	0	56	0	14680064	64	5893
2026-01-05 09:44:21.82	326.67	70.78	-50.6	-55.1	10.0	5.86e-03	0	57	0	16777216	64	5869
2026-01-05 09:44:22.81	326.87	70.32	-51.2	-56.9	8.3	1.37e-02	0	57	0	17825792	64	7225
2026-01-05 09:44:23.80	327.07	69.87	-51.7	-58.8	6.3	2.03e-01	0	56	0	19922944	65	8539
2026-01-05 09:44:24.79	327.26	69.42	-51.4	-57.4	7.6	1.51e-01	0	57	0	22020096	65	7261
2026-01-05 09:44:25.78	327.44	68.96	-51.0	-56.1	8.9	4.48e-02	0	56	0	24117248	65	6262
2026-01-05 09:44:26.77	327.61	68.52	-51.3	-57.3	7.7	3.88e-02	0	56	0	26214400	65	7175
2026-01-05 09:44:27.76	327.78	68.07	-51.9	-59.8	5.6	3.39e-01	0	56	0	27262976	65	9559
2026-01-05 09:44:28.74	327.94	67.63	-51.7	-58.8	6.3	4.52e-01	0	56	0	29360128	65	8488
2026-01-05 09:44:29.72	328.09	67.19	-51.2	-56.6	8.4	1.40e-01	0	57	0	31457280	65	6645
2026-01-05 09:44:30.70	328.23	66.75	-50.6	-54.9	10.2	2.16e-02	0	56	0	33554432	64	5732
2026-01-05 09:44:31.70	328.37	66.31	-50.2	-53.9	11.3	1.83e-03	0	56	0	34603008	63	5431
2026-01-05 09:44:32.69	328.51	65.87	-50.4	-54.3	11.0	1.20e-03	0	56	0	36700160	63	5688
2026-01-05 09:44:33.68	328.64	65.44	-50.8	-55.3	10.0	5.36e-03	0	56	0	38797312	63	6381
2026-01-05 09:44:34.67	328.76	65.01	-49.9	-53.6	11.6	7.36e-03	0	56	0	40894464	63	5242
2026-01-05 09:44:35.66	328.88	64.58	-48.6	-51.0	14.4	6.80e-06	0	56	0	41943040	60	4608
2026-01-05 09:44:36.66	329.00	64.15	-47.9	-49.9	15.5	0.00e+00	0	56	0	44040192	58	4546
2026-01-05 09:44:37.65	329.11	63.72	-47.8	-49.6	15.7	0.00e+00	0	56	0	46137344	58	4437
2026-01-05 09:44:38.64	329.22	63.30	-47.7	-49.5	15.8	0.00e+00	0	57	0	48234496	58	4372
2026-01-05 09:44:39.63	329.32	62.88	-47.5	-49.3	16.1	0.00e+00	0	56	0	50331648	58	4249
2026-01-05 09:44:40.62	329.42	62.46	-47.8	-49.7	15.6	0.00e+00	0	56	0	51380224	58	4480
2026-01-05 09:44:41.61	329.52	62.05	-47.4	-49.2	16.1	0.00e+00	0	56	0	53477376	58	4206
2026-01-05 09:44:42.60	329.61	61.63	-47.0	-48.6	16.7	0.00e+00	0	56	0	55574528	57	4163
2026-01-05 09:44:43.59	329.70	61.22	-47.3	-49.1	16.2	0.00e+00	0	56	0	57671680	57	4422
2026-01-05 09:44:44.59	329.79	60.81	-48.8	-51.3	14.1	0.00e+00	0	56	0	58720256	59	5058
2026-01-05 09:44:45.57	329.88	60.41	-49.7	-52.9	12.4	5.95e-05	0	56	0	60817408	61	5459
2026-01-05 09:44:46.55	329.96	60.01	-49.2	-52.0	13.2	4.80e-05	0	56	0	62914560	61	4908
2026-01-05 09:44:47.54	330.04	59.61	-49.0	-51.7	13.6	9.10e-06	0	57	0	65011712	61	4719
2026-01-05 09:44:48.53	330.12	59.22	-49.4	-52.4	12.9	2.05e-05	0	56	0	66060288	61	5150
2026-01-05 09:44:49.51	330.20	58.83	-49.9	-53.6	11.7	2.52e-04	0	56	0	68157440	61	5857
2026-01-05 09:44:50.50	330.27	58.43	-50.3	-54.4	10.8	1.31e-03	0	57	0	70254592	62	6067
2026-01-05 09:44:51.49	330.34	58.04	-50.6	-54.7	10.5	4.43e-03	0	56	0	72351744	63	5964
2026-01-05 09:44:52.48	330.41	57.66	-50.5	-54.8	10.4	3.83e-03	0	56	0	73400320	63	6031
2026-01-05 09:44:53.47	330.48	57.27	-50.5	-54.6	10.6	7.59e-03	0	57	0	75497472	63	5878
2026-01-05 09:44:54.47	330.55	56.89	-49.5	-52.6	12.6	4.75e-04	0	56	0	77594624	62	4937
2026-01-05 09:44:55.45	330.61	56.51	-48.5	-50.9	14.4	3.80e-06	0	56	0	79691776	60	4582
2026-01-05 09:44:56.45	330.68	56.13	-48.3	-50.5	14.9	0.00e+00	0	57	0	81788928	59	4628
2026-01-05 09:44:57.44	330.74	55.75	-48.3	-50.4	14.9	0.00e+00	0	57	0	82837504	59	4594
2026-01-05 09:44:58.43	330.80	55.38	-47.8	-49.7	15.6	0.00e+00	0	56	0	84934656	58	4485
2026-01-05 09:44:59.43	330.86	55.01	-47.1	-48.7	16.6	0.00e+00	0	56	0	87031808	57	4232
2026-01-05 09:45:00.42	330.91	54.64	-46.9	-48.5	16.8	0.00e+00	0	56	0	89128960	56	4370
2026-01-05 09:45:01.41	330.97	54.28	-47.4	-49.2	16.2	0.00e+00	0	56	0	90177536	56	4714
2026-01-05 09:45:02.41	331.03	53.91	-47.8	-49.8	15.6	0.00e+00	0	56	0	92274688	57	4772
2026-01-05 09:45:03.39	331.08	53.56	-47.8	-49.7	15.6	0.00e+00	0	56	0	94371840	57	4746
2026-01-05 09:45:04.38	331.13	53.20	-46.8	-48.4	17.0	0.00e+00	0	56	0	96468992	56	4295
2026-01-05 09:45:05.37	331.18	52.85	-46.6	-48.0	17.3	0.00e+00	0	57	0	98566144	56	4127
2026-01-05 09:45:06.36	331.23	52.50	-46.8	-48.4	16.9	0.00e+00	0	56	0	99614720	56	4295
2026-01-05 09:45:07.34	331.28	52.15	-47.6	-49.5	15.9	0.00e+00	0	56	0	101711872	57	4605
2026-01-05 09:45:08.33	331.33	51.80	-48.3	-50.4	14.9	0.00e+00	0	56	0	103809024	58	4849
2026-01-05 09:45:09.32	331.37	51.46	-48.7	-51.1	14.2	7.00e-07	0	56	0	105906176	59	4957
2026-01-05 09:45:10.31	331.42	51.12	-49.1	-51.8	13.5	5.30e-06	0	56	0	106954752	60	5072
2026-01-05 09:45:11.30	331.46	50.78	-49.5	-52.5	12.7	2.28e-05	0	56	0	109051904	60	5519
2026-01-05 09:45:12.28	331.51	50.44	-49.5	-52.5	12.7	9.38e-05	0	57	0	111149056	60	5518
2026-01-05 09:45:13.27	331.55	50.11	-49.4	-52.5	12.8	6.40e-05	0	56	0	113246208	60	5477
2026-01-05 09:45:14.26	331.59	49.78	-49.0	-51.7	13.6	2.51e-05	0	56	0	114294784	60	5004
2026-01-05 09:45:15.26	331.64	49.44	-48.9	-51.6	13.6	1.50e-06	0	56	0	116391936	60	4966
2026-01-05 09:45:16.25	331.68	49.12	-49.6	-52.8	12.4	6.25e-05	0	56	0	118489088	61	5373
2026-01-05 09:45:17.23	331.72	48.80	-50.8	-55.5	9.6	2.05e-03	0	56	0	120586240	63	6555
2026-01-05 09:45:18.23	331.76	48.47	-52.0	-60.8	4.9	2.41e-01	0	56	0	122683392	65	10748
2026-01-05 09:45:19.22	331.79	48.15	-51.0	-57.1	7.6	6.02e-01	0	57	0	123731968	65	6970
2026-01-05 09:45:20.22	331.83	47.83	-49.6	-52.9	12.2	2.42e-03	0	56	0	125829120	62	5113
2026-01-05 09:45:21.20	331.87	47.52	-48.2	-50.4	14.8	1.50e-06	0	56	0	127926272	59	4576
2026-01-05 09:45:22.20	331.90	47.20	-47.6	-49.5	15.7	0.00e+00	0	56	0	130023424	58	4377
2026-01-05 09:45:23.19	331.94	46.89	-47.5	-49.3	16.0	0.00e+00	0	56	0	131072000	58	4275
2026-01-05 09:45:24.17	331.98	46.58	-47.8	-49.8	15.5	0.00e+00	0	56	0	133169152	58	4542
2026-01-05 09:45:25.17	332.01	46.27	-48.1	-50.1	15.2	0.00e+00	0	56	0	135266304	58	4703
2026-01-05 09:45:26.16	332.04	45.97	-48.8	-51.3	14.0	0.00e+00	0	56	0	137363456	59	5075
2026-01-05 09:45:27.15	332.08	45.67	-48.8	-51.2	14.0	3.00e-06	0	56	0	139460608	59	5029
2026-01-05 09:45:28.13	332.11	45.37	-49.0	-51.8	13.6	6.10e-06	0	56	0	140509184	59	5343
2026-01-05 09:45:29.11	332.14	45.08	-48.7	-51.2	14.1	6.80e-06	0	56	0	142606336	59	5018
2026-01-05 09:45:30.09	332.17	44.79	-48.2	-50.3	14.9	0.00e+00	0	56	0	144703488	59	4544
2026-01-05 09:45:31.08	332.20	44.49	-47.4	-49.2	16.0	0.00e+00	0	56	0	146800640	58	4229
2026-01-05 09:45:32.06	332.23	44.21	-46.8	-48.3	16.9	0.00e+00	0	56	0	147849216	56	4288
2026-01-05 09:45:33.05	332.26	43.92	-46.5	-48.0	17.3	0.00e+00	0	57	0	149946368	56	4110
2026-01-05 09:45:34.05	332.30	43.63	-46.6	-48.0	17.2	0.00e+00	0	56	0	152043520	56	4137
2026-01-05 09:45:35.04	332.32	43.34	-47.1	-48.7	16.5	0.00e+00	0	56	0	154140672	56	4491
2026-01-05 09:45:36.03	332.35	43.06	-47.5	-49.2	16.1	0.00e+00	0	56	0	155189248	56	4737
2026-01-05 09:45:37.02	332.38	42.78	-47.7	-49.7	15.6	0.00e+00	0	56	0	157286400	57	4707
2026-01-05 09:45:38.01	332.41	42.50	-48.4	-50.8	14.5	0.00e+00	0	56	0	159383552	58	5075
2026-01-05 09:45:39.00	332.44	42.23	-49.1	-51.9	13.3	6.10e-06	0	56	0	161480704	60	5150
2026-01-05 09:45:39.99	332.46	41.95	-49.7	-53.2	12.1	1.30e-04	0	56	0	163577856	61	5615
2026-01-05 09:45:40.98	332.49	41.68	-49.7	-53.0	12.2	3.12e-04	0	56	0	164626432	61	5503
2026-01-05 09:45:41.97	332.52	41.41	-48.9	-51.6	13.6	1.04e-04	0	56	0	166723584	61	4703
2026-01-05 09:45:42.95	332.54	41.15	-48.1	-50.3	15.0	7.00e-07	0	56	0	168820736	59	4506
2026-01-05 09:45:43.94	332.57	40.88	-47.6	-49.5	15.8	7.00e-07	0	57	0	169869312	58	4344
2026-01-05 09:45:44.92	332.59	40.62	-47.1	-48.7	16.5	0.00e+00	0	56	0	171966464	57	4241
2026-01-05 09:45:45.91	332.62	40.36	-47.0	-48.6	16.7	0.00e+00	0	57	0	174063616	57	4166
2026-01-05 09:45:46.90	332.64	40.10	-47.2	-48.8	16.5	0.00e+00	0	56	0	176160768	57	4271
2026-01-05 09:45:47.89	332.67	39.84	-47.3	-49.1	16.2	0.00e+00	0	56	0	178257920	57	4395
2026-01-05 09:45:48.88	332.69	39.58	-48.0	-50.0	15.3	0.00e+00	0	57	0	179306496	57	4874
2026-01-05 09:45:49.87	332.72	39.33	-48.5	-50.9	14.4	7.00e-07	0	57	0	181403648	58	5105
2026-01-05 09:45:50.86	332.74	39.07	-49.3	-52.2	13.0	1.83e-05	0	57	0	183500800	60	5305
2026-01-05 09:45:51.86	332.76	38.82	-49.8	-53.3	11.8	1.87e-04	0	57	0	185597952	61	5686
2026-01-05 09:45:52.85	332.79	38.57	-50.4	-54.9	10.2	1.29e-03	0	56	0	186646528	62	6444
2026-01-05 09:45:53.85	332.81	38.32	-50.6	-55.2	9.8	1.03e-02	0	57	0	188743680	63	6345
2026-01-05 09:45:54.84	332.83	38.08	-50.7	-55.5	9.5	1.37e-02	0	56	0	190840832	63	6557
2026-01-05 09:45:55.82	332.85	37.84	-50.6	-55.2	9.8	1.20e-02	0	57	0	192937984	63	6337
2026-01-05 09:45:56.80	332.87	37.60	-50.3	-54.4	10.7	5.70e-03	0	57	0	195035136	63	5738
2026-01-05 09:45:57.80	332.90	37.35	-50.0	-53.6	11.5	1.26e-03	0	56	0	196083712	63	5261
2026-01-05 09:45:58.78	332.92	37.12	-50.0	-53.6	11.6	8.09e-04	0	57	0	198180864	63	5239
2026-01-05 09:45:59.77	332.94	36.88	-49.8	-53.1	12.0	8.37e-04	0	57	0	200278016	62	5254
2026-01-05 09:46:00.77	332.96	36.64	-49.3	-52.3	12.9	5.79e-05	0	56	0	202375168	61	5052
2026-01-05 09:46:01.75	332.98	36.41	-49.2	-52.0	13.2	3.50e-05	0	57	0	203423744	61	4886
2026-01-05 09:46:02.75	333.00	36.18	-49.1	-51.8	13.4	1.44e-05	0	57	0	205520896	61	4793
2026-01-05 09:46:03.73	333.02	35.95	-49.0	-51.6	13.6	1.37e-05	0	57	0	207618048	61	4701
2026-01-05 09:46:04.72	333.04	35.72	-49.0	-51.7	13.5	6.10e-06	0	56	0	209715200	61	4723
2026-01-05 09:46:05.71	333.06	35.50	-49.2	-52.2	13.0	1.75e-05	0	57	0	210763776	61	5015
2026-01-05 09:46:06.70	333.08	35.27	-49.5	-52.6	12.5	7.93e-05	0	57	0	212860928	61	5256
2026-01-05 09:46:07.69	333.10	35.05	-49.8	-53.4	11.7	1.40e-04	0	56	0	214958080	61	5778
2026-01-05 09:46:08.67	333.12	34.83	-50.4	-54.7	10.4	3.34e-03	0	57	0	217055232	62	6293
2026-01-05 09:46:09.67	333.14	34.61	-50.9	-56.0	9.0	1.21e-02	0	56	0	219152384	63	6929
2026-01-05 09:46:10.66	333.15	34.39	-51.2	-57.2	7.7	5.88e-02	0	56	0	220200960	64	7505
2026-01-05 09:46:11.65	333.17	34.17	-51.2	-57.7	7.2	9.65e-02	0	57	0	222298112	64	7941
2026-01-05 09:46:12.64	333.19	33.95	-51.4	-58.0	7.0	1.51e-01	0	57	0	224395264	64	8187
2026-01-05 09:46:13.63	333.21	33.74	-51.3	-57.3	7.5	1.42e-01	0	57	0	226492416	64	7618
2026-01-05 09:46:14.62	333.23	33.53	-51.1	-56.8	8.1	8.61e-02	0	57	0	227540992	64	7147
2026-01-05 09:46:15.61	333.24	33.32	-51.0	-56.4	8.5	4.88e-02	0	57	0	229638144	64	6860
2026-01-05 09:46:16.60	333.26	33.11	-50.8	-55.8	9.1	2.66e-02	0	57	0	231735296	64	6365
2026-01-05 09:46:17.58	333.28	32.90	-50.7	-55.6	9.3	1.99e-02	0	57	0	233832448	64	6251
2026-01-05 09:46:18.56	333.30	32.69	-50.7	-55.5	9.4	1.68e-02	0	57	0	234881024	64	6181
2026-01-05 09:46:19.55	333.31	32.49	-50.6	-55.2	9.7	1.48e-02	0	57	0	236978176	64	5990
2026-01-05 09:46:20.55	333.33	32.28	-50.3	-54.4	10.6	5.16e-03	0	57	0	239075328	63	5763
2026-01-05 09:46:21.54	333.35	32.08	-50.1	-53.9	11.2	2.40e-03	0	57	0	241172480	63	5439
2026-01-05 09:46:22.53	333.36	31.88	-49.9	-53.7	11.4	1.14e-03	0	56	0	243269632	63	5290
2026-01-05 09:46:23.52	333.38	31.68	-49.9	-53.5	11.6	7.31e-04	0	57	0	244318208	62	5502
2026-01-05 09:46:24.51	333.40	31.48	-50.0	-53.7	11.4	7.99e-04	0	57	0	246415360	62	5608
2026-01-05 09:46:25.49	333.41	31.28	-50.0	-53.7	11.4	1.14e-03	0	57	0	248512512	62	5636
2026-01-05 09:46:26.49	333.43	31.09	-50.0	-53.8	11.3	1.06e-03	0	57	0	250609664	62	5670
2026-01-05 09:46:27.48	333.44	30.89	-50.0	-53.7	11.4	1.40e-03	0	57	0	251658240	62	5646
2026-01-05 09:46:28.47	333.46	30.70	-49.9	-53.6	11.5	7.08e-04	0	57	0	253755392	62	5555
2026-01-05 09:46:29.45	333.47	30.51	-49.9	-53.5	11.5	7.86e-04	0	57	0	255852544	62	5526
2026-01-05 09:46:30.45	333.49	30.31	-49.8	-53.4	11.7	5.98e-04	0	57	0	257949696	62	5413
2026-01-05 09:46:31.44	333.50	30.13	-49.9	-53.5	11.7	6.74e-04	0	57	0	260046848	62	5468
2026-01-05 09:46:32.43	333.52	29.94	-49.9	-53.4	11.7	5.79e-04	0	57	0	261095424	62	5423
2026-01-05 09:46:33.42	333.53	29.75	-49.9	-53.4	11.6	6.37e-04	0	56	0	263192576	62	5464
2026-01-05 09:46:34.41	333.55	29.56	-49.9	-53.4	11.7	5.76e-04	0	57	0	265289728	62	5444
2026-01-05 09:46:35.39	333.56	29.38	-49.8	-53.5	11.7	5.68e-04	0	57	0	267386880	62	5470
2026-01-05 09:46:36.38	333.58	29.20	-49.8	-53.6	11.5	7.18e-04	0	57	0	268435456	62	5537
2026-01-05 09:46:37.36	333.59	29.02	-49.9	-53.6	11.5	6.58e-04	0	57	0	270532608	62	5545
2026-01-05 09:46:38.36	333.61	28.83	-50.0	-53.8	11.3	1.03e-03	0	57	0	272629760	62	5663
2026-01-05 09:46:39.34	333.62	28.66	-50.0	-53.8	11.2	1.44e-03	0	57	0	274726912	62	5686
2026-01-05 09:46:40.33	333.64	28.48	-49.9	-53.7	11.4	9.56e-04	0	57	0	275775488	62	5606
2026-01-05 09:46:41.31	333.65	28.30	-49.8	-53.5	11.6	7.63e-04	0	56	0	277872640	62	5484
2026-01-05 09:46:42.31	333.66	28.12	-49.6	-53.0	12.1	2.90e-04	0	57	0	279969792	62	5161
2026-01-05 09:46:43.30	333.68	27.95	-49.4	-52.6	12.5	1.55e-04	0	57	0	282066944	62	4976
2026-01-05 09:46:44.28	333.69	27.78	-49.4	-52.5	12.6	1.03e-04	0	57	0	283115520	61	5195
2026-01-05 09:46:45.26	333.70	27.60	-49.4	-52.6	12.5	9.38e-05	0	57	0	285212672	61	5224
2026-01-05 09:46:46.25	333.72	27.43	-49.1	-52.1	13.0	4.57e-05	0	57	0	287309824	61	4937
2026-01-05 09:46:47.24	333.73	27.26	-49.4	-52.4	12.6	6.79e-05	0	57	0	289406976	61	5136
2026-01-05 09:46:48.22	333.74	27.09	-48.9	-51.7	13.4	2.82e-05	0	57	0	290455552	61	4721
2026-01-05 09:46:49.21	333.76	26.92	-48.6	-51.2	13.9	9.10e-06	0	57	0	292552704	60	4717
2026-01-05 09:46:50.20	333.77	26.76	-48.4	-50.8	14.4	1.50e-06	0	57	0	294649856	59	4780
2026-01-05 09:46:51.20	333.78	26.59	-48.3	-50.5	14.7	7.00e-07	0	57	0	296747008	59	4634
2026-01-05 09:46:52.18	333.80	26.42	-48.1	-50.2	14.9	0.00e+00	0	57	0	298844160	59	4476
2026-01-05 09:46:53.17	333.81	26.26	-48.1	-50.2	14.9	7.00e-07	0	57	0	299892736	59	4493
2026-01-05 09:46:54.16	333.82	26.09	-48.1	-50.4	14.8	0.00e+00	0	57	0	301989888	59	4548
2026-01-05 09:46:55.16	333.84	25.93	-48.1	-50.3	14.8	0.00e+00	0	57	0	304087040	59	4530
2026-01-05 09:46:56.14	333.85	25.77	-48.1	-50.3	14.8	0.00e+00	0	57	0	306184192	59	4533
2026-01-05 09:46:57.13	333.86	25.61	-48.0	-50.1	15.0	0.00e+00	0	57	0	307232768	59	4437
2026-01-05 09:46:58.12	333.87	25.45	-48.2	-50.5	14.7	7.00e-07	0	57	0	309329920	59	4603
2026-01-05 09:46:59.11	333.89	25.29	-48.0	-50.2	14.9	0.00e+00	0	57	0	311427072	59	4477
2026-01-05 09:47:00.10	333.90	25.13	-48.0	-50.1	15.1	0.00e+00	0	57	0	313524224	59	4403
2026-01-05 09:47:01.08	333.91	24.98	-48.1	-50.3	14.8	0.00e+00	0	57	0	314572800	59	4536
2026-01-05 09:47:02.07	333.92	24.82	-47.8	-49.9	15.3	0.00e+00	0	57	0	316669952	58	4547
2026-01-05 09:47:03.06	333.93	24.66	-47.5	-49.4	15.7	0.00e+00	0	57	0	318767104	58	4332
2026-01-05 09:47:04.04	333.95	24.51	-47.2	-49.0	16.1	0.00e+00	0	56	0	320864256	57	4379
2026-01-05 09:47:05.03	333.96	24.36	-47.0	-48.7	16.4	0.00e+00	0	57	0	322961408	57	4218
2026-01-05 09:47:06.02	333.97	24.21	-46.9	-48.6	16.5	0.00e+00	0	57	0	324009984	56	4427
2026-01-05 09:47:07.01	333.98	24.05	-47.0	-48.7	16.3	0.00e+00	0	56	0	326107136	56	4487
2026-01-05 09:47:08.00	333.99	23.90	-46.7	-48.3	16.7	0.00e+00	0	57	0	328204288	56	4281
2026-01-05 09:47:09.00	334.00	23.75	-46.6	-48.2	16.9	0.00e+00	0	57	0	330301440	56	4204
2026-01-05 09:47:09.99	334.02	23.60	-46.8	-48.4	16.7	0.00e+00	0	57	0	331350016	56	4323
2026-01-05 09:47:10.98	334.03	23.46	-46.7	-48.2	16.8	0.00e+00	0	56	0	333447168	56	4230
2026-01-05 09:47:11.96	334.04	23.31	-46.6	-48.2	16.9	0.00e+00	0	57	0	335544320	56	4199
2026-01-05 09:47:12.95	334.05	23.16	-46.5	-48.1	16.9	0.00e+00	0	57	0	337641472	56	4178
2026-01-05 09:47:13.94	334.06	23.02	-46.5	-48.0	17.0	0.00e+00	0	57	0	339738624	56	4141
2026-01-05 09:47:14.92	334.07	22.87	-46.8	-48.5	16.5	0.00e+00	0	57	0	340787200	56	4387
2026-01-05 09:47:15.90	334.08	22.73	-47.2	-49.1	15.9	0.00e+00	0	57	0	342884352	56	4675
2026-01-05 09:47:16.89	334.09	22.59	-47.2	-49.0	16.0	0.00e+00	0	57	0	344981504	56	4631
2026-01-05 09:47:17.87	334.10	22.45	-47.4	-49.3	15.6	0.00e+00	0	57	0	346030080	56	4808
2026-01-05 09:47:18.86	334.12	22.31	-47.8	-49.9	15.0	0.00e+00	0	57	0	348127232	57	4862
2026-01-05 09:47:19.85	334.13	22.17	-47.9	-50.2	14.7	0.00e+00	0	57	0	350224384	57	5004
2026-01-05 09:47:20.84	334.14	22.03	-47.9	-50.1	14.7	1.50e-06	0	57	0	352321536	57	4965
2026-01-05 09:47:21.83	334.15	21.89	-48.0	-50.3	14.5	7.00e-07	0	57	0	354418688	57	5057
2026-01-05 09:47:22.82	334.16	21.75	-47.8	-50.0	14.8	0.00e+00	0	57	0	355467264	57	4918
2026-01-05 09:47:23.81	334.17	21.61	-48.0	-50.3	14.5	0.00e+00	0	57	0	357564416	57	5066
2026-01-05 09:47:24.81	334.18	21.47	-48.0	-50.4	14.3	7.00e-07	0	57	0	359661568	58	4863
2026-01-05 09:47:25.80	334.19	21.33	-48.2	-50.7	14.0	7.00e-07	0	57	0	361758720	58	5022
2026-01-05 09:47:26.79	334.20	21.20	-48.4	-51.0	13.6	3.80e-06	0	57	0	362807296	58	5192
2026-01-05 09:47:27.76	334.21	21.07	-48.6	-51.4	13.2	1.98e-05	0	57	0	364904448	58	5444
2026-01-05 09:47:28.74	334.22	20.93	-48.5	-51.4	13.2	3.66e-05	0	57	0	367001600	59	5123
2026-01-05 09:47:29.73	334.23	20.80	-48.6	-51.6	12.9	3.81e-05	0	57	0	369098752	59	5273
2026-01-05 09:47:30.71	334.24	20.67	-48.6	-51.7	12.8	6.17e-05	0	57	0	370147328	59	5313
2026-01-05 09:47:31.70	334.25	20.54	-48.7	-51.7	12.8	6.10e-05	0	57	0	372244480	59	5291
2026-01-05 09:47:32.68	334.26	20.41	-48.7	-51.6	13.0	4.27e-05	0	57	0	374341632	59	5219
2026-01-05 09:47:33.68	334.27	20.28	-48.4	-51.0	13.7	1.06e-05	0	57	0	376438784	59	4881
2026-01-05 09:47:34.66	334.28	20.15	-48.3	-50.9	14.0	3.80e-06	0	57	0	378535936	59	4816
2026-01-05 09:47:35.65	334.29	20.02	-48.2	-50.6	14.3	1.50e-06	0	57	0	379584512	59	4678
2026-01-05 09:47:36.65	334.30	19.89	-48.3	-50.7	14.2	1.50e-06	0	57	0	381681664	59	4714
2026-01-05 09:47:37.64	334.31	19.76	-48.3	-50.7	14.3	0.00e+00	0	57	0	383778816	59	4706
2026-01-05 09:47:38.63	334.32	19.63	-48.2	-50.5	14.5	2.20e-06	0	57	0	385875968	59	4611
2026-01-05 09:47:39.62	334.33	19.51	-48.2	-50.5	14.5	0.00e+00	0	57	0	386924544	59	4637
2026-01-05 09:47:40.60	334.34	19.38	-48.2	-50.5	14.5	2.20e-06	0	57	0	389021696	59	4639
2026-01-05 09:47:41.59	334.35	19.26	-48.5	-50.9	14.0	1.50e-06	0	57	0	391118848	59	4867
2026-01-05 09:47:42.59	334.36	19.13	-48.6	-51.2	13.8	3.00e-06	0	57	0	393216000	59	5024
2026-01-05 09:47:43.57	334.37	19.01	-48.6	-51.1	13.9	3.80e-06	0	57	0	394264576	59	4965
2026-01-05 09:47:44.57	334.38	18.88	-48.5	-51.0	14.0	3.80e-06	0	57	0	396361728	59	4884
2026-01-05 09:47:45.56	334.39	18.76	-48.3	-50.6	14.4	1.50e-06	0	57	0	398458880	59	4679
2026-01-05 09:47:46.55	334.40	18.64	-48.0	-50.3	14.7	7.00e-07	0	57	0	400556032	59	4538
2026-01-05 09:47:47.53	334.41	18.52	-48.0	-50.3	14.7	0.00e+00	0	57	0	402653184	59	4515
2026-01-05 09:47:48.53	334.42	18.39	-48.0	-50.3	14.7	0.00e+00	0	57	0	403701760	58	4776
2026-01-05 09:47:49.52	334.43	18.27	-48.2	-50.5	14.6	7.00e-07	0	57	0	405798912	58	4888
2026-01-05 09:47:50.51	334.44	18.15	-48.3	-50.6	14.3	7.00e-07	0	57	0	407896064	58	4977
2026-01-05 09:47:51.50	334.45	18.03	-48.3	-50.7	14.3	7.00e-07	0	57	0	409993216	58	5007
2026-01-05 09:47:52.49	334.46	17.92	-48.3	-50.7	14.3	1.50e-06	0	57	0	411041792	58	4995
2026-01-05 09:47:53.48	334.46	17.80	-48.1	-50.4	14.5	1.50e-06	0	57	0	413138944	58	4858
2026-01-05 09:47:54.48	334.47	17.68	-48.0	-50.2	14.8	0.00e+00	0	57	0	415236096	58	4717
2026-01-05 09:47:55.46	334.48	17.56	-47.9	-50.0	14.9	0.00e+00	0	57	0	417333248	58	4642
2026-01-05 09:47:56.45	334.49	17.45	-47.9	-50.0	15.0	0.00e+00	0	57	0	419430400	58	4634
2026-01-05 09:47:57.44	334.50	17.33	-47.8	-49.9	15.0	0.00e+00	0	57	0	420478976	58	4597
2026-01-05 09:47:58.44	334.51	17.21	-47.8	-49.9	15.1	0.00e+00	0	57	0	422576128	58	4572
2026-01-05 09:47:59.43	334.52	17.10	-47.5	-49.5	15.5	0.00e+00	0	57	0	424673280	58	4356
2026-01-05 09:48:00.41	334.53	16.99	-47.8	-49.9	15.0	0.00e+00	0	57	0	426770432	58	4593
2026-01-05 09:48:01.40	334.54	16.87	-47.8	-49.9	15.0	0.00e+00	0	57	0	427819008	58	4578
2026-01-05 09:48:02.39	334.55	16.76	-47.8	-50.0	15.0	0.00e+00	0	57	0	429916160	58	4606
2026-01-05 09:48:03.38	334.55	16.65	-47.9	-50.1	14.9	7.00e-07	0	57	0	432013312	58	4665
2026-01-05 09:48:04.37	334.56	16.53	-48.0	-50.2	14.7	7.00e-07	0	57	0	434110464	58	4723
2026-01-05 09:48:05.36	334.57	16.42	-48.0	-50.3	14.6	0.00e+00	0	57	0	435159040	58	4795
2026-01-05 09:48:06.34	334.58	16.31	-48.1	-50.4	14.5	7.00e-07	0	57	0	437256192	58	4846
2026-01-05 09:48:07.33	334.59	16.20	-48.0	-50.3	14.6	7.00e-07	0	57	0	439353344	58	4805
