passes_logs/2026/01/05/R3.0SM8_Murmansk_STILSPACE/R3.0SM8_Murmansk_STILSPACE__20260105_034005_FENGYUN_3D_rec.log

#Pass ID: 20260105_034005_FENGYUN 3D
#Satellite: FENGYUN 3D
#Configuration: FENGYUN 3D
#almurnet v.1.7.20240730
#Start time: 2026-01-05 03:40:07

#Version: 2.2.20231116
#Station: R3.0SM8_Murmansk_STILSPACE
#Location: 33.092731 lon 68.902999 lat
#TLE: 1 43010U 17072A   26004.50247883 -.00000063  00000+0 -78815-5 0  9998
#TLE: 2 43010  98.9915 336.1565 0001968 126.3752 233.7605 14.19691805421760

#Time	Az	El	Level	Level2	SNR	BER	BlckErr	Temp	State	Recorded	gain1	gain2
2026-01-05 03:40:07.48	28.87	3.15	-52.4	-63.0	3.8	8.46e-01	0	46	0	0	67	12358
2026-01-05 03:40:08.46	28.85	3.22	-52.1	-62.9	3.8	8.47e-01	0	47	104	0	67	12160
2026-01-05 03:40:09.46	28.83	3.28	-52.1	-62.8	3.8	8.46e-01	0	47	104	0	67	11997
2026-01-05 03:40:10.45	28.81	3.35	-52.0	-62.7	3.8	8.45e-01	0	47	104	0	66	12555
2026-01-05 03:40:11.44	28.79	3.41	-51.8	-62.4	3.8	8.46e-01	0	47	104	0	66	12219
2026-01-05 03:40:12.43	28.77	3.48	-51.4	-61.4	3.8	8.46e-01	0	47	104	0	65	11479
2026-01-05 03:40:13.43	28.75	3.55	-51.2	-60.7	3.8	8.45e-01	0	47	104	0	65	10624
2026-01-05 03:40:14.41	28.73	3.61	-51.3	-60.4	3.8	8.45e-01	0	47	104	0	65	10262
2026-01-05 03:40:15.39	28.71	3.68	-51.1	-60.1	3.8	8.45e-01	0	47	104	0	65	9832
2026-01-05 03:40:16.38	28.69	3.74	-51.1	-59.6	4.0	8.45e-01	0	47	104	0	65	9378
2026-01-05 03:40:17.36	28.67	3.81	-51.1	-59.1	4.1	8.42e-01	0	47	0	0	65	8793
2026-01-05 03:40:18.35	28.64	3.88	-51.0	-58.7	4.2	8.40e-01	0	47	0	0	65	8449
2026-01-05 03:40:19.34	28.62	3.94	-50.9	-58.3	4.3	8.35e-01	0	47	0	0	64	8556
2026-01-05 03:40:20.33	28.60	4.01	-50.8	-57.9	4.4	8.30e-01	0	47	0	0	64	8089
2026-01-05 03:40:21.32	28.58	4.08	-50.7	-57.4	4.6	8.17e-01	0	47	0	0	64	7636
2026-01-05 03:40:22.31	28.56	4.15	-50.6	-56.8	4.9	7.90e-01	0	48	0	0	64	7196
2026-01-05 03:40:23.30	28.54	4.21	-50.5	-56.2	5.3	7.27e-01	0	47	0	0	63	7073
2026-01-05 03:40:24.28	28.51	4.28	-50.3	-55.6	5.8	4.32e-01	0	48	0	2097152	63	6575
2026-01-05 03:40:25.27	28.49	4.35	-50.1	-54.9	6.2	3.49e-01	0	48	0	7340032	63	6088
2026-01-05 03:40:26.26	28.47	4.42	-49.9	-54.4	6.6	2.51e-01	0	48	0	12582912	63	5782
2026-01-05 03:40:27.25	28.45	4.48	-49.6	-53.5	7.6	1.30e-01	0	48	0	18874368	62	5476
2026-01-05 03:40:28.24	28.43	4.55	-49.1	-52.5	8.5	6.04e-02	0	48	0	24117248	61	5201
2026-01-05 03:40:29.22	28.40	4.62	-48.9	-52.1	8.9	4.66e-02	0	48	0	29360128	61	4941
2026-01-05 03:40:30.22	28.38	4.69	-48.5	-51.4	9.6	1.89e-02	0	48	0	34603008	60	4825
2026-01-05 03:40:31.21	28.36	4.76	-48.3	-50.9	10.2	9.68e-03	0	48	0	40894464	59	4841
2026-01-05 03:40:32.20	28.33	4.83	-47.8	-50.0	11.1	2.90e-03	0	48	0	46137344	58	4637
2026-01-05 03:40:33.19	28.31	4.90	-47.5	-49.7	11.5	1.34e-03	0	48	0	51380224	58	4442
2026-01-05 03:40:34.18	28.29	4.97	-47.3	-49.3	11.8	1.11e-03	0	48	0	57671680	57	4543
2026-01-05 03:40:35.17	28.26	5.04	-47.1	-49.0	12.1	4.61e-04	0	48	0	62914560	57	4375
2026-01-05 03:40:36.16	28.24	5.11	-47.0	-49.0	12.2	2.52e-04	0	48	0	68157440	57	4358
2026-01-05 03:40:37.15	28.22	5.18	-47.3	-49.3	11.9	5.79e-04	0	48	0	74448896	57	4511
2026-01-05 03:40:38.14	28.19	5.25	-47.1	-49.1	12.1	4.10e-04	0	48	0	79691776	57	4413
2026-01-05 03:40:39.12	28.17	5.32	-46.7	-48.5	12.7	1.56e-04	0	49	0	84934656	56	4375
2026-01-05 03:40:40.11	28.15	5.39	-46.6	-48.3	12.9	8.69e-05	0	48	0	90177536	56	4278
2026-01-05 03:40:41.09	28.12	5.46	-46.8	-48.6	12.6	9.95e-05	0	49	0	96468992	56	4422
2026-01-05 03:40:42.08	28.10	5.53	-46.6	-48.3	13.0	7.78e-05	0	49	0	101711872	56	4260
2026-01-05 03:40:43.08	28.07	5.60	-46.1	-47.6	13.5	2.28e-05	0	49	0	106954752	55	4189
2026-01-05 03:40:44.07	28.05	5.67	-46.0	-47.5	13.6	1.14e-05	0	49	0	113246208	55	4140
2026-01-05 03:40:45.06	28.02	5.74	-45.8	-47.3	13.9	3.40e-06	0	49	0	118489088	54	4252
2026-01-05 03:40:46.05	28.00	5.81	-45.6	-47.0	14.3	1.10e-06	0	49	0	123731968	54	4104
2026-01-05 03:40:47.04	27.97	5.88	-45.6	-47.0	14.2	3.40e-06	0	49	0	130023424	54	4132
2026-01-05 03:40:48.04	27.95	5.96	-45.8	-47.2	14.0	4.50e-06	0	49	0	135266304	54	4230
2026-01-05 03:40:49.02	27.92	6.03	-45.2	-46.6	14.6	2.20e-06	0	49	0	140509184	53	4154
2026-01-05 03:40:50.01	27.90	6.10	-45.2	-46.5	14.7	0.00e+00	0	49	0	146800640	53	4112
2026-01-05 03:40:51.00	27.87	6.17	-44.9	-46.1	15.1	0.00e+00	0	49	0	152043520	52	4168
2026-01-05 03:40:51.99	27.85	6.25	-44.9	-46.1	15.1	0.00e+00	0	49	0	157286400	52	4168
2026-01-05 03:40:52.97	27.82	6.32	-44.9	-46.1	15.2	0.00e+00	0	50	0	162529280	52	4154
2026-01-05 03:40:53.97	27.79	6.39	-45.0	-46.2	15.0	0.00e+00	0	49	0	168820736	52	4240
2026-01-05 03:40:54.96	27.77	6.47	-44.9	-46.2	15.1	0.00e+00	0	49	0	174063616	52	4201
2026-01-05 03:40:55.94	27.74	6.54	-44.8	-46.0	15.3	0.00e+00	0	49	0	179306496	52	4115
2026-01-05 03:40:56.93	27.71	6.61	-44.8	-46.0	15.2	0.00e+00	0	50	0	185597952	52	4137
2026-01-05 03:40:57.91	27.69	6.69	-45.0	-46.3	15.0	0.00e+00	0	50	0	190840832	52	4257
2026-01-05 03:40:58.89	27.66	6.76	-44.9	-46.1	15.2	0.00e+00	0	50	0	196083712	52	4185
2026-01-05 03:40:59.88	27.63	6.83	-44.8	-46.0	15.3	0.00e+00	0	50	0	201326592	52	4127
2026-01-05 03:41:00.86	27.61	6.91	-44.8	-45.9	15.3	0.00e+00	0	50	0	207618048	52	4096
2026-01-05 03:41:01.85	27.58	6.98	-45.1	-46.3	15.0	0.00e+00	0	50	0	212860928	52	4263
2026-01-05 03:41:02.84	27.55	7.06	-44.8	-46.0	15.3	0.00e+00	0	50	0	219152384	52	4142
2026-01-05 03:41:03.83	27.53	7.13	-44.7	-45.9	15.4	0.00e+00	0	50	0	224395264	52	4065
2026-01-05 03:41:04.82	27.50	7.21	-44.8	-46.0	15.4	0.00e+00	0	50	0	229638144	52	4115
2026-01-05 03:41:05.82	27.47	7.28	-45.1	-46.4	15.0	2.20e-06	0	50	0	234881024	52	4297
2026-01-05 03:41:06.80	27.44	7.36	-44.9	-46.1	15.3	0.00e+00	0	50	0	241172480	52	4173
2026-01-05 03:41:07.79	27.41	7.44	-44.6	-45.8	15.6	0.00e+00	0	50	0	246415360	52	4013
2026-01-05 03:41:08.79	27.38	7.51	-44.6	-45.7	15.7	0.00e+00	0	50	0	251658240	52	3985
2026-01-05 03:41:09.77	27.36	7.59	-44.5	-45.6	15.8	0.00e+00	0	50	0	257949696	52	3947
2026-01-05 03:41:10.77	27.33	7.67	-44.7	-45.8	15.6	0.00e+00	0	50	0	263192576	52	4044
2026-01-05 03:41:11.76	27.30	7.74	-44.5	-45.7	15.7	0.00e+00	0	50	0	268435456	52	3973
2026-01-05 03:41:12.75	27.27	7.82	-44.5	-45.5	16.0	0.00e+00	0	50	0	274726912	51	4143
2026-01-05 03:41:13.74	27.24	7.90	-44.5	-45.7	15.9	0.00e+00	0	51	0	279969792	51	4194
2026-01-05 03:41:14.73	27.21	7.98	-44.5	-45.6	16.0	0.00e+00	0	50	0	285212672	51	4153
2026-01-05 03:41:15.71	27.18	8.05	-44.4	-45.5	16.0	0.00e+00	0	50	0	290455552	51	4128
2026-01-05 03:41:16.71	27.15	8.13	-44.5	-45.6	15.9	0.00e+00	0	51	0	296747008	51	4173
2026-01-05 03:41:17.69	27.12	8.21	-44.5	-45.6	15.9	0.00e+00	0	51	0	301989888	51	4189
2026-01-05 03:41:18.68	27.09	8.29	-44.5	-45.5	16.0	0.00e+00	0	51	0	307232768	51	4138
2026-01-05 03:41:19.68	27.06	8.37	-44.3	-45.4	16.2	0.00e+00	0	51	0	313524224	51	4058
2026-01-05 03:41:20.66	27.03	8.45	-44.3	-45.3	16.2	0.00e+00	0	51	0	318767104	51	4035
2026-01-05 03:41:21.65	27.00	8.52	-44.3	-45.3	16.2	0.00e+00	0	51	0	324009984	51	4024
2026-01-05 03:41:22.64	26.97	8.60	-44.2	-45.2	16.3	0.00e+00	0	51	0	330301440	51	4004
2026-01-05 03:41:23.63	26.94	8.68	-44.3	-45.4	16.2	0.00e+00	0	51	0	335544320	51	4073
2026-01-05 03:41:24.62	26.90	8.76	-44.4	-45.4	16.1	0.00e+00	0	51	0	340787200	51	4098
2026-01-05 03:41:25.61	26.87	8.84	-44.4	-45.4	16.1	0.00e+00	0	51	0	347078656	51	4095
2026-01-05 03:41:26.60	26.84	8.93	-44.4	-45.4	16.2	0.00e+00	0	51	0	352321536	51	4092
2026-01-05 03:41:27.59	26.81	9.01	-44.4	-45.5	16.1	0.00e+00	0	51	0	357564416	51	4119
2026-01-05 03:41:28.58	26.78	9.09	-44.6	-45.7	16.0	0.00e+00	0	51	0	362807296	51	4195
2026-01-05 03:41:29.55	26.75	9.17	-44.5	-45.6	16.0	0.00e+00	0	51	0	369098752	51	4167
2026-01-05 03:41:30.54	26.71	9.25	-44.6	-45.7	15.9	0.00e+00	0	51	0	374341632	51	4213
2026-01-05 03:41:31.54	26.68	9.33	-44.6	-45.7	16.0	0.00e+00	0	51	0	379584512	51	4194
2026-01-05 03:41:32.52	26.65	9.41	-44.4	-45.4	16.2	0.00e+00	0	51	0	385875968	51	4095
2026-01-05 03:41:33.51	26.61	9.49	-44.1	-45.1	16.5	0.00e+00	0	51	0	391118848	51	3954
2026-01-05 03:41:34.50	26.58	9.58	-44.1	-45.1	16.5	0.00e+00	0	52	0	396361728	51	3944
2026-01-05 03:41:35.49	26.55	9.66	-44.1	-45.1	16.5	0.00e+00	0	51	0	402653184	51	3941
2026-01-05 03:41:36.48	26.51	9.74	-44.1	-45.2	16.5	0.00e+00	0	51	0	407896064	51	3960
2026-01-05 03:41:37.46	26.48	9.83	-44.2	-45.2	16.4	0.00e+00	0	52	0	413138944	51	3992
2026-01-05 03:41:38.45	26.44	9.91	-44.4	-45.5	16.2	0.00e+00	0	52	0	418381824	51	4115
2026-01-05 03:41:39.44	26.41	9.99	-44.5	-45.6	16.1	0.00e+00	0	51	0	424673280	51	4147
2026-01-05 03:41:40.42	26.38	10.08	-44.3	-45.3	16.4	0.00e+00	0	51	0	429916160	51	4006
2026-01-05 03:41:41.42	26.34	10.16	-44.1	-45.1	16.5	0.00e+00	0	51	0	435159040	51	3944
2026-01-05 03:41:42.40	26.31	10.25	-44.0	-45.0	16.7	0.00e+00	0	52	0	441450496	51	3883
2026-01-05 03:41:43.40	26.27	10.33	-44.2	-45.2	16.5	0.00e+00	0	51	0	446693376	51	3982
2026-01-05 03:41:44.40	26.23	10.42	-44.3	-45.3	16.4	0.00e+00	0	52	0	451936256	51	4028
2026-01-05 03:41:45.39	26.20	10.50	-44.1	-45.0	16.7	0.00e+00	0	52	0	458227712	51	3910
2026-01-05 03:41:46.37	26.16	10.59	-44.1	-45.1	16.6	0.00e+00	0	52	0	463470592	51	3927
2026-01-05 03:41:47.36	26.13	10.67	-44.2	-45.2	16.5	0.00e+00	0	52	0	468713472	51	4000
2026-01-05 03:41:48.35	26.09	10.76	-44.3	-45.3	16.4	0.00e+00	0	52	0	475004928	51	4008
2026-01-05 03:41:49.34	26.05	10.85	-44.2	-45.2	16.5	0.00e+00	0	52	0	480247808	51	3969
2026-01-05 03:41:50.34	26.01	10.94	-44.4	-45.4	16.3	0.00e+00	0	52	0	485490688	51	4090
2026-01-05 03:41:51.33	25.98	11.02	-44.5	-45.5	16.2	0.00e+00	0	52	0	490733568	51	4134
2026-01-05 03:41:52.32	25.94	11.11	-44.2	-45.2	16.6	0.00e+00	0	52	0	497025024	51	3961
2026-01-05 03:41:53.30	25.90	11.20	-44.0	-45.0	16.8	0.00e+00	0	52	0	502267904	51	3877
2026-01-05 03:41:54.30	25.86	11.29	-43.8	-44.8	17.0	0.00e+00	0	52	0	508559360	50	4011
2026-01-05 03:41:55.29	25.83	11.38	-43.8	-44.7	17.0	0.00e+00	0	52	0	513802240	50	3983
2026-01-05 03:41:56.27	25.79	11.46	-43.8	-44.7	17.0	0.00e+00	0	52	0	519045120	50	3997
2026-01-05 03:41:57.27	25.75	11.55	-43.7	-44.6	17.2	0.00e+00	0	52	0	524288000	50	3923
2026-01-05 03:41:58.26	25.71	11.64	-43.6	-44.5	17.3	0.00e+00	0	52	0	530579456	50	3890
2026-01-05 03:41:59.25	25.67	11.73	-43.6	-44.5	17.3	0.00e+00	0	52	0	535822336	50	3894
2026-01-05 03:42:00.24	25.63	11.82	-43.6	-44.5	17.2	0.00e+00	0	52	0	541065216	50	3903
2026-01-05 03:42:01.24	25.59	11.91	-43.5	-44.4	17.3	0.00e+00	0	52	0	547356672	50	3857
2026-01-05 03:42:02.23	25.55	12.00	-43.6	-44.5	17.2	0.00e+00	0	52	0	552599552	50	3906
2026-01-05 03:42:03.22	25.51	12.10	-43.8	-44.7	17.1	0.00e+00	0	52	0	557842432	50	3987
2026-01-05 03:42:04.21	25.47	12.19	-43.7	-44.6	17.2	0.00e+00	0	52	0	564133888	50	3940
2026-01-05 03:42:05.19	25.43	12.28	-43.7	-44.7	17.1	0.00e+00	0	52	0	569376768	50	3962
2026-01-05 03:42:06.18	25.39	12.37	-43.7	-44.6	17.2	0.00e+00	0	53	0	574619648	50	3931
2026-01-05 03:42:07.17	25.34	12.46	-43.7	-44.6	17.2	0.00e+00	0	53	0	579862528	50	3928
2026-01-05 03:42:08.16	25.30	12.56	-43.8	-44.7	17.1	0.00e+00	0	52	0	586153984	50	3976
2026-01-05 03:42:09.14	25.26	12.65	-43.6	-44.5	17.2	0.00e+00	0	53	0	591396864	50	3912
2026-01-05 03:42:10.12	25.22	12.74	-43.9	-44.8	16.9	0.00e+00	0	53	0	596639744	50	4049
2026-01-05 03:42:11.10	25.18	12.83	-43.5	-44.4	17.4	0.00e+00	0	53	0	602931200	50	3855
2026-01-05 03:42:12.09	25.13	12.93	-43.3	-44.2	17.6	0.00e+00	0	53	0	608174080	49	3965
2026-01-05 03:42:13.08	25.09	13.02	-43.1	-44.0	17.8	0.00e+00	0	52	0	613416960	49	3871
2026-01-05 03:42:14.08	25.05	13.12	-43.1	-43.9	17.9	0.00e+00	0	53	0	618659840	49	3846
2026-01-05 03:42:15.06	25.00	13.21	-43.1	-44.0	17.8	0.00e+00	0	53	0	624951296	49	3876
2026-01-05 03:42:16.05	24.96	13.31	-43.0	-43.8	17.9	0.00e+00	0	52	0	630194176	49	3818
2026-01-05 03:42:17.04	24.91	13.40	-43.0	-43.9	17.9	0.00e+00	0	53	0	636485632	49	3837
2026-01-05 03:42:18.03	24.87	13.50	-42.9	-43.8	18.1	0.00e+00	0	53	0	641728512	49	3783
2026-01-05 03:42:19.02	24.82	13.60	-43.0	-43.8	18.0	0.00e+00	0	53	0	646971392	49	3801
2026-01-05 03:42:20.00	24.78	13.69	-42.9	-43.8	18.0	0.00e+00	0	53	0	652214272	49	3800
2026-01-05 03:42:20.99	24.73	13.79	-43.0	-43.8	18.0	0.00e+00	0	53	0	658505728	49	3817
2026-01-05 03:42:21.98	24.69	13.89	-43.1	-43.9	17.9	0.00e+00	0	53	0	663748608	49	3832
2026-01-05 03:42:22.97	24.64	13.98	-42.9	-43.7	18.1	0.00e+00	0	53	0	668991488	49	3750
2026-01-05 03:42:23.96	24.59	14.08	-42.9	-43.7	18.2	0.00e+00	0	53	0	675282944	48	3964
2026-01-05 03:42:24.95	24.55	14.18	-42.9	-43.7	18.1	0.00e+00	0	53	0	680525824	48	3993
2026-01-05 03:42:25.94	24.50	14.28	-42.8	-43.6	18.2	0.00e+00	0	53	0	685768704	48	3930
2026-01-05 03:42:26.93	24.45	14.38	-42.8	-43.5	18.3	0.00e+00	0	53	0	691011584	48	3909
2026-01-05 03:42:27.91	24.40	14.48	-42.8	-43.6	18.2	0.00e+00	0	53	0	697303040	48	3958
2026-01-05 03:42:28.89	24.36	14.58	-43.0	-43.8	18.0	0.00e+00	0	53	0	702545920	48	4017
2026-01-05 03:42:29.87	24.31	14.68	-42.8	-43.6	18.2	0.00e+00	0	53	0	707788800	48	3953
2026-01-05 03:42:30.87	24.26	14.78	-42.8	-43.5	18.3	0.00e+00	0	53	0	714080256	48	3912
2026-01-05 03:42:31.85	24.21	14.88	-42.7	-43.5	18.3	0.00e+00	0	53	0	719323136	48	3904
2026-01-05 03:42:32.84	24.16	14.98	-42.8	-43.6	18.2	0.00e+00	0	53	0	724566016	48	3942
2026-01-05 03:42:33.82	24.11	15.08	-43.0	-43.8	18.1	0.00e+00	0	53	0	729808896	48	4009
2026-01-05 03:42:34.80	24.06	15.19	-42.8	-43.6	18.2	0.00e+00	0	53	0	736100352	48	3954
2026-01-05 03:42:35.78	24.01	15.29	-42.8	-43.6	18.3	0.00e+00	0	53	0	741343232	48	3932
2026-01-05 03:42:36.77	23.96	15.39	-42.8	-43.5	18.3	0.00e+00	0	53	0	746586112	48	3909
2026-01-05 03:42:37.75	23.90	15.49	-42.8	-43.6	18.2	0.00e+00	0	53	0	752877568	48	3949
2026-01-05 03:42:38.74	23.85	15.60	-43.0	-43.8	18.1	0.00e+00	0	53	0	758120448	48	4021
2026-01-05 03:42:39.73	23.80	15.70	-42.8	-43.6	18.3	0.00e+00	0	53	0	763363328	48	3933
2026-01-05 03:42:40.72	23.75	15.81	-42.9	-43.7	18.2	0.00e+00	0	53	0	768606208	48	3962
2026-01-05 03:42:41.70	23.69	15.91	-42.8	-43.6	18.3	0.00e+00	0	53	0	774897664	48	3934
2026-01-05 03:42:42.69	23.64	16.02	-42.5	-43.3	18.6	0.00e+00	0	53	0	780140544	48	3796
2026-01-05 03:42:43.69	23.59	16.13	-42.3	-43.0	18.7	0.00e+00	0	53	0	786432000	47	3889
2026-01-05 03:42:44.68	23.53	16.23	-42.2	-42.9	18.8	0.00e+00	0	53	0	791674880	47	3842
2026-01-05 03:42:45.66	23.48	16.34	-42.1	-42.9	18.9	0.00e+00	0	53	0	796917760	47	3833
2026-01-05 03:42:46.66	23.42	16.45	-42.1	-42.8	19.0	0.00e+00	0	53	0	802160640	47	3789
2026-01-05 03:42:47.65	23.36	16.56	-42.0	-42.7	19.0	0.00e+00	0	54	0	808452096	47	3754
2026-01-05 03:42:48.64	23.31	16.67	-41.9	-42.7	19.1	0.00e+00	0	53	0	813694976	47	3738
2026-01-05 03:42:49.63	23.25	16.77	-42.1	-42.8	18.9	0.00e+00	0	53	0	818937856	47	3794
2026-01-05 03:42:50.62	23.19	16.88	-42.2	-42.9	18.8	0.00e+00	0	53	0	825229312	47	3866
2026-01-05 03:42:51.61	23.14	16.99	-42.1	-42.9	18.9	0.00e+00	0	54	0	830472192	47	3829
2026-01-05 03:42:52.61	23.08	17.11	-41.9	-42.6	19.1	0.00e+00	0	54	0	835715072	47	3729
2026-01-05 03:42:53.60	23.02	17.22	-41.9	-42.6	19.2	0.00e+00	0	54	0	842006528	46	3917
2026-01-05 03:42:54.59	22.96	17.33	-41.8	-42.5	19.3	0.00e+00	0	54	0	847249408	46	3893
2026-01-05 03:42:55.58	22.90	17.44	-41.8	-42.5	19.2	0.00e+00	0	54	0	852492288	46	3899
2026-01-05 03:42:56.57	22.84	17.55	-41.9	-42.6	19.1	0.00e+00	0	54	0	857735168	46	3949
2026-01-05 03:42:57.55	22.78	17.67	-41.9	-42.7	19.1	0.00e+00	0	54	0	864026624	46	3959
2026-01-05 03:42:58.55	22.72	17.78	-41.7	-42.4	19.3	0.00e+00	0	54	0	869269504	46	3860
2026-01-05 03:42:59.53	22.66	17.89	-41.6	-42.3	19.4	0.00e+00	0	54	0	874512384	46	3809
2026-01-05 03:43:00.52	22.60	18.01	-41.5	-42.2	19.5	0.00e+00	0	54	0	880803840	46	3770
2026-01-05 03:43:01.51	22.53	18.12	-41.6	-42.2	19.5	0.00e+00	0	54	0	886046720	46	3776
2026-01-05 03:43:02.50	22.47	18.24	-41.6	-42.3	19.5	0.00e+00	0	54	0	891289600	46	3786
2026-01-05 03:43:03.50	22.41	18.35	-41.8	-42.5	19.3	0.00e+00	0	54	0	897581056	46	3874
2026-01-05 03:43:04.49	22.34	18.47	-41.8	-42.5	19.3	0.00e+00	0	54	0	902823936	46	3888
2026-01-05 03:43:05.47	22.28	18.59	-41.6	-42.2	19.5	0.00e+00	0	54	0	908066816	46	3775
2026-01-05 03:43:06.47	22.21	18.71	-41.5	-42.1	19.6	0.00e+00	0	54	0	914358272	46	3729
2026-01-05 03:43:07.45	22.15	18.82	-41.5	-42.2	19.6	0.00e+00	0	54	0	919601152	46	3742
2026-01-05 03:43:08.44	22.08	18.94	-41.5	-42.1	19.6	0.00e+00	0	54	0	924844032	46	3732
2026-01-05 03:43:09.44	22.01	19.06	-41.4	-42.1	19.6	0.00e+00	0	54	0	931135488	46	3717
2026-01-05 03:43:10.43	21.95	19.18	-41.5	-42.2	19.6	0.00e+00	0	54	0	936378368	46	3753
2026-01-05 03:43:11.41	21.88	19.30	-41.5	-42.2	19.6	0.00e+00	0	54	0	941621248	46	3758
2026-01-05 03:43:12.41	21.81	19.42	-41.4	-42.1	19.7	0.00e+00	0	54	0	946864128	46	3720
2026-01-05 03:43:13.40	21.74	19.54	-41.5	-42.2	19.6	0.00e+00	0	54	0	953155584	46	3759
2026-01-05 03:43:14.39	21.67	19.66	-41.6	-42.3	19.4	0.00e+00	0	54	0	958398464	46	3818
2026-01-05 03:43:15.38	21.60	19.79	-41.5	-42.2	19.7	0.00e+00	0	54	0	963641344	46	3742
2026-01-05 03:43:16.37	21.53	19.91	-41.5	-42.2	19.6	0.00e+00	0	54	0	969932800	46	3765
2026-01-05 03:43:17.36	21.46	20.03	-41.7	-42.4	19.4	0.00e+00	0	54	0	975175680	46	3842
2026-01-05 03:43:18.35	21.39	20.16	-41.8	-42.4	19.3	0.00e+00	0	54	0	980418560	46	3866
2026-01-05 03:43:19.34	21.31	20.28	-41.5	-42.2	19.6	0.00e+00	0	54	0	986710016	46	3764
2026-01-05 03:43:20.33	21.24	20.41	-41.4	-42.1	19.7	0.00e+00	0	54	0	991952896	46	3720
2026-01-05 03:43:21.32	21.17	20.53	-41.4	-42.0	19.7	0.00e+00	0	54	0	997195776	45	3911
2026-01-05 03:43:22.31	21.09	20.66	-41.3	-42.0	19.8	0.00e+00	0	54	0	1003487232	45	3888
2026-01-05 03:43:23.30	21.02	20.79	-41.3	-41.9	19.9	0.00e+00	0	54	0	1008730112	45	3857
2026-01-05 03:43:24.29	20.94	20.91	-41.4	-42.0	19.8	0.00e+00	0	54	0	1013972992	45	3891
2026-01-05 03:43:25.28	20.87	21.04	-41.4	-42.1	19.7	0.00e+00	0	54	0	1019215872	45	3933
2026-01-05 03:43:26.27	20.79	21.17	-41.2	-41.8	20.0	0.00e+00	0	54	0	1025507328	45	3809
2026-01-05 03:43:27.26	20.71	21.30	-41.0	-41.7	20.1	0.00e+00	0	54	0	1030750208	45	3750
2026-01-05 03:43:28.24	20.63	21.43	-41.0	-41.6	20.1	0.00e+00	0	54	0	1037041664	45	3737
2026-01-05 03:43:29.22	20.56	21.56	-41.1	-41.7	20.1	0.00e+00	0	54	0	1042284544	45	3759
2026-01-05 03:43:30.20	20.48	21.69	-41.0	-41.6	20.2	0.00e+00	0	54	0	1047527424	45	3715
2026-01-05 03:43:31.19	20.40	21.82	-41.1	-41.7	20.0	0.00e+00	0	54	0	1052770304	45	3778
2026-01-05 03:43:32.17	20.32	21.95	-41.0	-41.6	20.2	0.00e+00	0	54	0	1058013184	45	3708
2026-01-05 03:43:33.16	20.23	22.08	-40.9	-41.6	20.2	0.00e+00	0	54	0	1064304640	45	3699
2026-01-05 03:43:34.15	20.15	22.22	-41.0	-41.6	20.2	0.00e+00	0	54	0	1069547520	45	3732
2026-01-05 03:43:35.14	20.07	22.35	-41.2	-41.8	20.0	0.00e+00	0	54	0	1075838976	45	3808
2026-01-05 03:43:36.12	19.98	22.48	-41.0	-41.6	20.2	0.00e+00	0	54	0	1081081856	45	3724
2026-01-05 03:43:37.12	19.90	22.62	-41.0	-41.6	20.2	0.00e+00	0	54	0	1086324736	45	3714
2026-01-05 03:43:38.11	19.81	22.76	-41.0	-41.7	20.2	0.00e+00	0	54	0	1091567616	45	3738
2026-01-05 03:43:39.09	19.73	22.89	-41.1	-41.8	20.1	0.00e+00	0	54	0	1097859072	45	3792
2026-01-05 03:43:40.09	19.64	23.03	-40.9	-41.5	20.3	0.00e+00	0	54	0	1103101952	45	3684
2026-01-05 03:43:41.08	19.55	23.17	-40.8	-41.4	20.4	0.00e+00	0	54	0	1108344832	44	3846
2026-01-05 03:43:42.07	19.46	23.31	-40.8	-41.4	20.4	0.00e+00	0	54	0	1114636288	44	3835
2026-01-05 03:43:43.06	19.37	23.45	-40.9	-41.5	20.3	0.00e+00	0	55	0	1119879168	44	3898
2026-01-05 03:43:44.05	19.28	23.59	-40.7	-41.3	20.5	0.00e+00	0	54	0	1125122048	44	3814
2026-01-05 03:43:45.03	19.19	23.73	-40.9	-41.5	20.3	0.00e+00	0	54	0	1131413504	44	3905
2026-01-05 03:43:46.02	19.10	23.87	-41.2	-41.8	20.0	0.00e+00	0	55	0	1136656384	44	4027
2026-01-05 03:43:47.01	19.01	24.01	-40.8	-41.4	20.4	0.00e+00	0	55	0	1141899264	44	3868
2026-01-05 03:43:47.99	18.91	24.15	-40.6	-41.2	20.6	0.00e+00	0	54	0	1147142144	44	3771
2026-01-05 03:43:48.99	18.82	24.30	-40.4	-41.0	20.8	0.00e+00	0	54	0	1153433600	44	3682
2026-01-05 03:43:49.99	18.72	24.44	-40.5	-41.1	20.7	0.00e+00	0	55	0	1158676480	44	3715
2026-01-05 03:43:50.98	18.62	24.59	-40.2	-40.8	20.9	0.00e+00	0	55	0	1163919360	43	3804
2026-01-05 03:43:51.96	18.53	24.73	-40.1	-40.7	20.9	0.00e+00	0	54	0	1170210816	43	3771
2026-01-05 03:43:52.94	18.43	24.88	-40.2	-40.7	20.9	0.00e+00	0	55	0	1175453696	43	3774
2026-01-05 03:43:53.93	18.33	25.02	-40.4	-41.0	20.7	0.00e+00	0	55	0	1180696576	43	3891
2026-01-05 03:43:54.92	18.23	25.17	-40.2	-40.7	20.9	0.00e+00	0	55	0	1185939456	43	3776
2026-01-05 03:43:55.91	18.13	25.32	-40.1	-40.6	21.1	0.00e+00	0	55	0	1192230912	43	3730
2026-01-05 03:43:56.90	18.02	25.47	-40.2	-40.7	20.9	0.00e+00	0	55	0	1197473792	43	3779
2026-01-05 03:43:57.89	17.92	25.62	-40.2	-40.8	20.9	0.00e+00	0	55	0	1203765248	43	3805
2026-01-05 03:43:58.88	17.82	25.77	-40.3	-40.9	20.8	0.00e+00	0	55	0	1209008128	43	3845
2026-01-05 03:43:59.87	17.71	25.92	-40.1	-40.7	21.0	0.00e+00	0	55	0	1214251008	43	3766
2026-01-05 03:44:00.86	17.60	26.07	-40.0	-40.6	21.1	0.00e+00	0	55	0	1219493888	43	3698
2026-01-05 03:44:01.85	17.50	26.23	-40.0	-40.6	21.0	0.00e+00	0	55	0	1225785344	43	3725
2026-01-05 03:44:02.84	17.39	26.38	-40.0	-40.6	21.1	0.00e+00	0	55	0	1231028224	43	3699
2026-01-05 03:44:03.83	17.28	26.53	-40.1	-40.6	21.0	0.00e+00	0	55	0	1236271104	43	3736
2026-01-05 03:44:04.82	17.17	26.69	-40.0	-40.6	21.0	0.00e+00	0	55	0	1242562560	43	3699
2026-01-05 03:44:05.80	17.05	26.84	-39.9	-40.5	21.1	0.00e+00	0	55	0	1247805440	43	3668
2026-01-05 03:44:06.79	16.94	27.00	-40.0	-40.5	21.0	0.00e+00	0	55	0	1253048320	43	3685
2026-01-05 03:44:07.78	16.83	27.16	-40.2	-40.7	20.8	0.00e+00	0	55	0	1259339776	43	3773
2026-01-05 03:44:08.77	16.71	27.32	-40.1	-40.7	20.7	0.00e+00	0	55	0	1264582656	43	3772
2026-01-05 03:44:09.75	16.60	27.47	-40.2	-40.8	20.5	0.00e+00	0	55	0	1269825536	43	3816
2026-01-05 03:44:10.74	16.48	27.63	-40.4	-41.0	20.2	0.00e+00	0	55	0	1276116992	43	3909
2026-01-05 03:44:11.73	16.36	27.80	-40.6	-41.2	19.9	0.00e+00	0	55	0	1281359872	43	4001
2026-01-05 03:44:12.72	16.24	27.96	-40.7	-41.4	19.6	0.00e+00	0	55	0	1286602752	43	4078
2026-01-05 03:44:13.71	16.12	28.12	-41.1	-41.8	19.3	0.00e+00	0	55	0	1291845632	43	4260
2026-01-05 03:44:14.70	15.99	28.28	-41.7	-42.5	18.7	0.00e+00	0	55	0	1298137088	45	4100
2026-01-05 03:44:15.69	15.87	28.45	-42.5	-43.3	17.7	0.00e+00	0	55	0	1303379968	46	4285
2026-01-05 03:44:16.69	15.74	28.61	-43.4	-44.4	16.7	0.00e+00	0	55	0	1308622848	48	4301
2026-01-05 03:44:17.68	15.62	28.78	-44.0	-45.2	15.7	0.00e+00	0	55	0	1314914304	49	4443
2026-01-05 03:44:18.67	15.49	28.95	-44.4	-45.6	15.3	0.00e+00	0	55	0	1320157184	50	4436
2026-01-05 03:44:19.67	15.36	29.11	-44.5	-45.7	15.2	0.00e+00	0	55	0	1325400064	50	4455
2026-01-05 03:44:20.66	15.22	29.28	-44.5	-45.7	15.2	0.00e+00	0	55	0	1331691520	50	4486
2026-01-05 03:44:21.65	15.09	29.45	-44.7	-46.0	15.0	0.00e+00	0	55	0	1336934400	51	4365
2026-01-05 03:44:22.64	14.96	29.62	-44.9	-46.2	14.8	0.00e+00	0	55	0	1342177280	51	4464
2026-01-05 03:44:23.63	14.82	29.79	-44.7	-45.9	15.3	0.00e+00	0	55	0	1348468736	51	4305
2026-01-05 03:44:24.62	14.69	29.96	-44.0	-45.0	16.3	0.00e+00	0	55	0	1353711616	51	3905
2026-01-05 03:44:25.61	14.55	30.14	-43.1	-44.0	17.7	0.00e+00	0	55	0	1358954496	49	3875
2026-01-05 03:44:26.60	14.41	30.31	-42.5	-43.2	18.6	0.00e+00	0	55	0	1365245952	48	3767
2026-01-05 03:44:27.59	14.27	30.48	-42.0	-42.7	19.0	0.00e+00	0	55	0	1370488832	47	3773
2026-01-05 03:44:28.57	14.12	30.66	-42.1	-42.8	19.0	0.00e+00	0	55	0	1375731712	47	3801
2026-01-05 03:44:29.56	13.98	30.83	-41.7	-42.4	19.4	0.00e+00	0	55	0	1380974592	46	3846
2026-01-05 03:44:30.55	13.83	31.01	-41.4	-42.0	19.8	0.00e+00	0	55	0	1387266048	45	3901
2026-01-05 03:44:31.53	13.69	31.18	-41.5	-42.2	19.7	0.00e+00	0	55	0	1392508928	45	3965
2026-01-05 03:44:32.52	13.54	31.36	-41.5	-42.1	19.7	0.00e+00	0	55	0	1397751808	45	3957
2026-01-05 03:44:33.51	13.39	31.54	-41.3	-42.0	19.9	0.00e+00	0	55	0	1404043264	45	3880
2026-01-05 03:44:34.49	13.23	31.72	-41.5	-42.1	19.8	0.00e+00	0	55	0	1409286144	45	3939
2026-01-05 03:44:35.49	13.08	31.90	-41.4	-42.0	19.9	0.00e+00	0	55	0	1414529024	45	3913
2026-01-05 03:44:36.47	12.92	32.08	-41.0	-41.7	20.2	0.00e+00	0	55	0	1419771904	45	3749
2026-01-05 03:44:37.45	12.77	32.26	-40.7	-41.3	20.6	0.00e+00	0	55	0	1426063360	44	3796
2026-01-05 03:44:38.44	12.61	32.45	-40.4	-41.0	20.8	0.00e+00	0	55	0	1431306240	44	3684
2026-01-05 03:44:39.43	12.44	32.63	-40.1	-40.7	21.0	0.00e+00	0	55	0	1436549120	43	3763
2026-01-05 03:44:40.42	12.28	32.82	-40.2	-40.7	21.0	0.00e+00	0	55	0	1442840576	43	3774
2026-01-05 03:44:41.41	12.11	33.00	-40.3	-40.8	20.9	0.00e+00	0	55	0	1448083456	43	3814
2026-01-05 03:44:42.39	11.95	33.19	-40.3	-40.8	20.9	0.00e+00	0	55	0	1453326336	43	3822
2026-01-05 03:44:43.39	11.78	33.38	-40.0	-40.5	21.2	0.00e+00	0	55	0	1459617792	43	3692
2026-01-05 03:44:44.37	11.61	33.56	-39.8	-40.3	21.4	0.00e+00	0	55	0	1464860672	42	3820
2026-01-05 03:44:45.36	11.43	33.75	-39.7	-40.3	21.5	0.00e+00	0	55	0	1470103552	42	3802
2026-01-05 03:44:46.35	11.26	33.94	-39.7	-40.3	21.5	0.00e+00	0	55	0	1475346432	42	3788
2026-01-05 03:44:47.34	11.08	34.14	-39.7	-40.3	21.5	0.00e+00	0	55	0	1481637888	42	3781
2026-01-05 03:44:48.32	10.90	34.33	-39.9	-40.4	21.3	0.00e+00	0	55	0	1486880768	42	3859
2026-01-05 03:44:49.31	10.72	34.52	-40.1	-40.7	21.1	0.00e+00	0	55	0	1492123648	42	3971
2026-01-05 03:44:50.30	10.53	34.71	-40.2	-40.8	21.0	0.00e+00	0	55	0	1498415104	42	4038
2026-01-05 03:44:51.29	10.35	34.91	-40.2	-40.7	21.0	0.00e+00	0	55	0	1503657984	42	4002
2026-01-05 03:44:52.27	10.16	35.10	-40.2	-40.8	20.9	0.00e+00	0	55	0	1508900864	42	4039
2026-01-05 03:44:53.27	9.97	35.30	-40.0	-40.5	21.2	0.00e+00	0	55	0	1514143744	42	3907
2026-01-05 03:44:54.25	9.77	35.50	-39.8	-40.3	21.4	0.00e+00	0	55	0	1520435200	42	3816
2026-01-05 03:44:55.25	9.57	35.70	-39.8	-40.3	21.5	0.00e+00	0	55	0	1525678080	42	3803
2026-01-05 03:44:56.23	9.38	35.89	-39.8	-40.4	21.4	0.00e+00	0	55	0	1531969536	42	3838
2026-01-05 03:44:57.21	9.18	36.09	-39.8	-40.4	21.4	0.00e+00	0	55	0	1537212416	42	3830
2026-01-05 03:44:58.20	8.98	36.29	-40.1	-40.7	21.2	0.00e+00	0	55	0	1542455296	42	3967
2026-01-05 03:44:59.19	8.77	36.49	-40.0	-40.5	21.3	0.00e+00	0	56	0	1547698176	42	3896
2026-01-05 03:45:00.18	8.56	36.70	-40.3	-40.8	21.0	0.00e+00	0	56	0	1553989632	42	4049
2026-01-05 03:45:01.17	8.35	36.90	-39.9	-40.5	21.3	0.00e+00	0	56	0	1559232512	42	3887
2026-01-05 03:45:02.15	8.14	37.10	-39.7	-40.3	21.5	0.00e+00	0	55	0	1564475392	42	3793
2026-01-05 03:45:03.14	7.92	37.30	-39.6	-40.2	21.6	0.00e+00	0	55	0	1570766848	42	3738
2026-01-05 03:45:04.13	7.70	37.51	-39.7	-40.3	21.5	0.00e+00	0	55	0	1576009728	42	3799
2026-01-05 03:45:05.11	7.48	37.71	-39.8	-40.3	21.4	0.00e+00	0	56	0	1581252608	42	3816
2026-01-05 03:45:06.10	7.25	37.92	-39.9	-40.4	21.4	0.00e+00	0	55	0	1586495488	42	3849
2026-01-05 03:45:07.09	7.03	38.13	-39.6	-40.1	21.7	0.00e+00	0	56	0	1592786944	42	3715
2026-01-05 03:45:08.07	6.80	38.34	-39.4	-39.9	21.8	0.00e+00	0	55	0	1598029824	42	3632
2026-01-05 03:45:09.07	6.56	38.55	-39.5	-40.0	21.8	0.00e+00	0	56	0	1603272704	42	3680
2026-01-05 03:45:10.05	6.33	38.76	-39.5	-40.0	21.8	0.00e+00	0	56	0	1609564160	42	3682
2026-01-05 03:45:11.05	6.08	38.97	-39.7	-40.2	21.6	0.00e+00	0	56	0	1614807040	42	3769
2026-01-05 03:45:12.03	5.84	39.18	-40.1	-40.6	21.2	0.00e+00	0	56	0	1620049920	42	3948
2026-01-05 03:45:13.02	5.59	39.39	-39.9	-40.5	21.3	0.00e+00	0	56	0	1625292800	42	3878
2026-01-05 03:45:14.01	5.34	39.60	-40.0	-40.5	21.3	0.00e+00	0	55	0	1631584256	42	3907
2026-01-05 03:45:14.99	5.09	39.81	-40.2	-40.8	21.0	0.00e+00	0	56	0	1636827136	42	4035
2026-01-05 03:45:15.98	4.84	40.03	-40.0	-40.5	21.3	0.00e+00	0	56	0	1643118592	42	3890
2026-01-05 03:45:16.97	4.58	40.24	-39.9	-40.4	21.4	0.00e+00	0	56	0	1648361472	42	3849
2026-01-05 03:45:17.96	4.31	40.46	-40.1	-40.7	21.1	0.00e+00	0	56	0	1653604352	42	3990
2026-01-05 03:45:18.95	4.04	40.67	-40.2	-40.8	21.1	0.00e+00	0	56	0	1658847232	42	4019
2026-01-05 03:45:19.94	3.77	40.89	-40.2	-40.8	21.1	0.00e+00	0	56	0	1665138688	42	4012
2026-01-05 03:45:20.94	3.49	41.11	-40.3	-40.8	21.0	0.00e+00	0	56	0	1670381568	42	4043
2026-01-05 03:45:21.93	3.22	41.33	-40.5	-41.1	20.8	0.00e+00	0	56	0	1675624448	42	4151
2026-01-05 03:45:22.92	2.93	41.55	-40.2	-40.8	21.1	0.00e+00	0	56	0	1681915904	42	4011
2026-01-05 03:45:23.91	2.65	41.77	-40.0	-40.5	21.3	0.00e+00	0	56	0	1687158784	42	3898
2026-01-05 03:45:24.90	2.36	41.98	-40.1	-40.6	21.2	0.00e+00	0	56	0	1692401664	42	3947
2026-01-05 03:45:25.88	2.07	42.20	-40.1	-40.7	21.1	0.00e+00	0	56	0	1697644544	42	3982
2026-01-05 03:45:26.87	1.77	42.42	-40.0	-40.6	21.3	0.00e+00	0	56	0	1703936000	42	3925
2026-01-05 03:45:27.85	1.47	42.64	-39.9	-40.5	21.3	0.00e+00	0	56	0	1709178880	42	3897
2026-01-05 03:45:28.84	1.16	42.86	-40.0	-40.5	21.3	0.00e+00	0	56	0	1714421760	42	3909
2026-01-05 03:45:29.82	0.85	43.08	-40.1	-40.7	21.1	0.00e+00	0	56	0	1720713216	42	3982
2026-01-05 03:45:30.81	0.54	43.30	-40.0	-40.6	21.2	0.00e+00	0	56	0	1725956096	42	3933
2026-01-05 03:45:31.80	0.22	43.52	-39.9	-40.5	21.4	0.00e+00	0	56	0	1731198976	42	3881
2026-01-05 03:45:32.78	359.90	43.74	-39.8	-40.4	21.4	0.00e+00	0	56	0	1736441856	42	3837
2026-01-05 03:45:33.78	359.56	43.97	-39.8	-40.4	21.4	0.00e+00	0	56	0	1742733312	42	3826
2026-01-05 03:45:34.77	359.23	44.19	-39.9	-40.5	21.3	0.00e+00	0	56	0	1747976192	42	3876
2026-01-05 03:45:35.76	358.89	44.41	-40.3	-40.9	21.0	0.00e+00	0	56	0	1753219072	42	4055
2026-01-05 03:45:36.75	358.55	44.64	-40.3	-40.9	21.0	0.00e+00	0	56	0	1759510528	42	4066
2026-01-05 03:45:37.74	358.20	44.86	-40.0	-40.6	21.2	0.00e+00	0	56	0	1764753408	42	3941
2026-01-05 03:45:38.73	357.85	45.08	-40.0	-40.6	21.3	0.00e+00	0	56	0	1769996288	42	3915
2026-01-05 03:45:39.72	357.49	45.31	-40.0	-40.5	21.3	0.00e+00	0	56	0	1776287744	42	3904
2026-01-05 03:45:40.71	357.12	45.53	-40.1	-40.7	21.2	0.00e+00	0	56	0	1781530624	42	3970
2026-01-05 03:45:41.69	356.76	45.75	-40.3	-40.8	21.0	0.00e+00	0	56	0	1786773504	42	4040
2026-01-05 03:45:42.69	356.38	45.98	-40.4	-41.0	20.9	0.00e+00	0	56	0	1793064960	42	4105
2026-01-05 03:45:43.67	356.01	46.20	-40.4	-41.0	20.9	0.00e+00	0	56	0	1798307840	42	4119
2026-01-05 03:45:44.67	355.62	46.42	-40.5	-41.1	20.8	0.00e+00	0	56	0	1803550720	42	4152
2026-01-05 03:45:45.65	355.23	46.64	-40.5	-41.1	20.7	0.00e+00	0	56	0	1809842176	42	4187
2026-01-05 03:45:46.65	354.83	46.86	-40.4	-41.0	20.9	0.00e+00	0	56	0	1815085056	43	3900
2026-01-05 03:45:47.63	354.43	47.08	-40.7	-41.3	20.6	0.00e+00	0	56	0	1820327936	43	4011
2026-01-05 03:45:48.62	354.03	47.31	-40.9	-41.5	20.4	0.00e+00	0	56	0	1825570816	43	4141
2026-01-05 03:45:49.60	353.62	47.52	-40.9	-41.5	20.3	0.00e+00	0	56	0	1831862272	43	4145
2026-01-05 03:45:50.59	353.20	47.74	-40.9	-41.5	20.3	0.00e+00	0	56	0	1837105152	43	4141
2026-01-05 03:45:51.58	352.77	47.96	-41.3	-41.9	20.1	0.00e+00	0	56	0	1842348032	44	4081
2026-01-05 03:45:52.57	352.34	48.18	-41.2	-41.8	20.2	0.00e+00	0	56	0	1848639488	44	4042
2026-01-05 03:45:53.56	351.91	48.40	-41.0	-41.6	20.4	0.00e+00	0	56	0	1853882368	44	3919
2026-01-05 03:45:54.55	351.46	48.62	-41.1	-41.7	20.3	0.00e+00	0	56	0	1859125248	44	3979
2026-01-05 03:45:55.54	351.01	48.84	-41.2	-41.9	20.1	0.00e+00	0	56	0	1865416704	44	4052
2026-01-05 03:45:56.53	350.56	49.05	-41.2	-41.8	20.2	0.00e+00	0	56	0	1870659584	44	4046
2026-01-05 03:45:57.51	350.10	49.26	-41.3	-41.9	20.1	0.00e+00	0	56	0	1875902464	44	4094
2026-01-05 03:45:58.51	349.62	49.48	-41.5	-42.2	19.9	0.00e+00	0	56	0	1882193920	44	4208
2026-01-05 03:45:59.50	349.15	49.69	-41.8	-42.5	19.5	0.00e+00	0	56	0	1887436800	45	4133
2026-01-05 03:46:00.47	348.68	49.90	-42.0	-42.7	19.4	0.00e+00	0	56	0	1892679680	46	3965
2026-01-05 03:46:01.47	348.18	50.11	-41.4	-42.0	20.0	0.00e+00	0	56	0	1897922560	45	3900
2026-01-05 03:46:02.46	347.68	50.32	-41.0	-41.6	20.4	0.00e+00	0	56	0	1904214016	45	3737
2026-01-05 03:46:03.44	347.19	50.53	-41.1	-41.7	20.3	0.00e+00	0	56	0	1909456896	45	3761
2026-01-05 03:46:04.42	346.68	50.73	-41.1	-41.7	20.3	0.00e+00	0	56	0	1914699776	45	3769
2026-01-05 03:46:05.41	346.16	50.94	-41.2	-41.8	20.2	0.00e+00	0	56	0	1920991232	45	3803
2026-01-05 03:46:06.40	345.64	51.14	-41.4	-42.0	20.0	0.00e+00	0	56	0	1926234112	45	3899
2026-01-05 03:46:07.39	345.11	51.34	-41.4	-42.1	19.9	0.00e+00	0	56	0	1931476992	45	3926
2026-01-05 03:46:08.37	344.57	51.54	-41.1	-41.7	20.3	0.00e+00	0	56	0	1936719872	45	3761
2026-01-05 03:46:09.36	344.03	51.74	-40.9	-41.5	20.5	0.00e+00	0	56	0	1943011328	45	3679
2026-01-05 03:46:10.35	343.48	51.93	-41.0	-41.6	20.5	0.00e+00	0	56	0	1948254208	45	3705
2026-01-05 03:46:11.34	342.91	52.13	-41.1	-41.7	20.4	0.00e+00	0	56	0	1953497088	45	3743
2026-01-05 03:46:12.33	342.35	52.32	-41.1	-41.7	20.3	0.00e+00	0	56	0	1959788544	45	3763
2026-01-05 03:46:13.32	341.77	52.51	-41.1	-41.7	20.3	0.00e+00	0	56	0	1965031424	45	3780
2026-01-05 03:46:14.31	341.19	52.70	-41.0	-41.6	20.4	0.00e+00	0	56	0	1970274304	45	3732
2026-01-05 03:46:15.29	340.60	52.88	-41.1	-41.7	20.3	0.00e+00	0	56	0	1976565760	45	3779
2026-01-05 03:46:16.28	340.01	53.06	-41.3	-42.0	20.1	0.00e+00	0	56	0	1981808640	45	3873
2026-01-05 03:46:17.28	339.39	53.24	-40.9	-41.5	20.6	0.00e+00	0	56	0	1987051520	45	3660
2026-01-05 03:46:18.27	338.78	53.42	-40.8	-41.4	20.7	0.00e+00	0	56	0	1992294400	44	3826
2026-01-05 03:46:19.26	338.16	53.60	-40.8	-41.3	20.7	0.00e+00	0	56	0	1998585856	44	3821
2026-01-05 03:46:20.25	337.53	53.77	-40.4	-41.0	21.0	0.00e+00	0	56	0	2003828736	44	3666
2026-01-05 03:46:21.23	336.90	53.93	-40.7	-41.3	20.7	0.00e+00	0	56	0	2010120192	44	3794
2026-01-05 03:46:22.23	336.25	54.10	-41.1	-41.8	20.3	0.00e+00	0	56	0	2015363072	44	4016
2026-01-05 03:46:23.21	335.61	54.26	-41.1	-41.8	20.3	0.00e+00	0	56	0	2020605952	44	4010
2026-01-05 03:46:24.21	334.95	54.42	-41.2	-41.8	20.2	0.00e+00	0	56	0	2025848832	44	4037
2026-01-05 03:46:25.20	334.28	54.58	-41.2	-41.8	20.2	0.00e+00	0	56	0	2032140288	44	4038
2026-01-05 03:46:26.20	333.60	54.73	-41.1	-41.7	20.3	0.00e+00	0	56	0	2037383168	44	3987
2026-01-05 03:46:27.19	332.92	54.88	-41.2	-41.8	20.2	0.00e+00	0	56	0	2042626048	44	4050
2026-01-05 03:46:28.17	332.24	55.02	-41.2	-41.9	20.3	0.00e+00	0	56	0	2048917504	44	4062
2026-01-05 03:46:29.16	331.55	55.16	-40.8	-41.4	20.6	0.00e+00	0	56	0	2054160384	44	3842
2026-01-05 03:46:30.14	330.86	55.30	-40.6	-41.2	20.9	0.00e+00	0	56	0	2059403264	44	3745
2026-01-05 03:46:31.13	330.15	55.43	-40.8	-41.4	20.7	0.00e+00	0	56	0	2065694720	44	3828
2026-01-05 03:46:32.12	329.43	55.56	-40.8	-41.4	20.6	0.00e+00	0	56	0	2070937600	44	3855
2026-01-05 03:46:33.11	328.71	55.69	-40.9	-41.5	20.5	0.00e+00	0	56	0	2076180480	44	3907
2026-01-05 03:46:34.10	327.99	55.81	-41.1	-41.7	20.3	0.00e+00	0	56	0	2082471936	44	3998
2026-01-05 03:46:35.09	327.25	55.93	-42.0	-42.6	19.5	0.00e+00	0	56	0	2087714816	45	4193
2026-01-05 03:46:36.08	326.52	56.04	-42.0	-42.7	19.4	0.00e+00	0	56	0	2092957696	45	4213
2026-01-05 03:46:37.06	325.78	56.15	-42.0	-42.7	19.4	0.00e+00	0	56	0	2098200576	46	3984
2026-01-05 03:46:38.06	325.02	56.25	-41.5	-42.1	20.0	0.00e+00	0	56	0	2104492032	46	3716
2026-01-05 03:46:39.04	324.27	56.35	-41.3	-41.9	20.1	0.00e+00	0	56	0	2109734912	45	3859
2026-01-05 03:46:40.04	323.50	56.44	-41.1	-41.8	20.3	0.00e+00	0	56	0	2114977792	45	3792
2026-01-05 03:46:41.03	322.74	56.53	-40.8	-41.4	20.6	0.00e+00	0	56	0	2121269248	44	3843
2026-01-05 03:46:42.02	321.96	56.62	-40.7	-41.3	20.8	0.00e+00	0	56	0	2126512128	44	3796
2026-01-05 03:46:43.01	321.19	56.70	-40.9	-41.4	20.6	0.00e+00	0	56	0	2131755008	44	3859
2026-01-05 03:46:44.00	320.41	56.77	-41.0	-41.6	20.5	0.00e+00	0	56	0	2138046464	44	3946
2026-01-05 03:46:44.99	319.62	56.84	-41.1	-41.7	20.4	0.00e+00	0	56	0	2143289344	44	3992
2026-01-05 03:46:45.99	318.83	56.90	-41.1	-41.7	20.4	0.00e+00	0	56	0	2148532224	44	3990
2026-01-05 03:46:46.99	318.03	56.96	-41.2	-41.8	20.3	0.00e+00	0	56	0	2154823680	44	4037
2026-01-05 03:46:47.97	317.24	57.02	-40.7	-41.3	20.7	0.00e+00	0	56	0	2160066560	44	3824
2026-01-05 03:46:48.96	316.44	57.07	-40.1	-40.7	21.2	0.00e+00	0	56	0	2165309440	43	3751
2026-01-05 03:46:49.95	315.64	57.11	-40.2	-40.7	21.2	0.00e+00	0	56	0	2171600896	43	3759
2026-01-05 03:46:50.94	314.84	57.15	-40.7	-41.3	20.6	0.00e+00	0	56	0	2176843776	43	4023
2026-01-05 03:46:51.93	314.03	57.18	-40.7	-41.3	20.6	0.00e+00	0	56	0	2182086656	43	4040
2026-01-05 03:46:52.91	313.23	57.21	-40.8	-41.5	20.5	0.00e+00	0	56	0	2187329536	43	4099
2026-01-05 03:46:53.90	312.42	57.23	-40.6	-41.2	20.7	0.00e+00	0	56	0	2193620992	43	3979
2026-01-05 03:46:54.89	311.61	57.24	-40.4	-40.9	21.0	0.00e+00	0	56	0	2198863872	43	3851
2026-01-05 03:46:55.88	310.80	57.25	-40.4	-40.9	21.0	0.00e+00	0	56	0	2204106752	43	3861
2026-01-05 03:46:56.87	309.99	57.26	-40.7	-41.3	20.6	0.00e+00	0	56	0	2210398208	43	4017
2026-01-05 03:46:57.86	309.18	57.26	-40.8	-41.4	20.5	0.00e+00	0	56	0	2215641088	43	4084
2026-01-05 03:46:58.85	308.37	57.25	-41.0	-41.6	20.4	0.00e+00	0	56	0	2220883968	43	4158
2026-01-05 03:46:59.85	307.55	57.24	-40.7	-41.3	20.7	0.00e+00	0	56	0	2227175424	43	4011
2026-01-05 03:47:00.84	306.74	57.22	-40.6	-41.2	20.8	0.00e+00	0	57	0	2232418304	43	3962
2026-01-05 03:47:01.84	305.92	57.20	-40.6	-41.2	20.7	0.00e+00	0	56	0	2237661184	43	4000
2026-01-05 03:47:02.83	305.11	57.17	-40.5	-41.1	20.8	0.00e+00	0	56	0	2242904064	43	3947
2026-01-05 03:47:03.82	304.31	57.14	-40.4	-41.0	20.9	0.00e+00	0	56	0	2249195520	43	3886
2026-01-05 03:47:04.81	303.51	57.10	-40.4	-41.0	20.9	0.00e+00	0	56	0	2254438400	43	3892
2026-01-05 03:47:05.81	302.70	57.06	-40.5	-41.1	20.8	0.00e+00	0	56	0	2260729856	43	3942
2026-01-05 03:47:06.80	301.90	57.01	-40.5	-41.1	20.8	0.00e+00	0	56	0	2265972736	43	3951
2026-01-05 03:47:07.79	301.10	56.95	-40.6	-41.2	20.7	0.00e+00	0	56	0	2271215616	43	3982
2026-01-05 03:47:08.78	300.31	56.89	-40.6	-41.1	20.8	0.00e+00	0	56	0	2276458496	43	3956
2026-01-05 03:47:09.77	299.52	56.83	-40.6	-41.2	20.7	0.00e+00	0	56	0	2282749952	43	4000
2026-01-05 03:47:10.75	298.75	56.76	-40.9	-41.5	20.4	0.00e+00	0	56	0	2287992832	43	4135
2026-01-05 03:47:11.75	297.96	56.68	-40.8	-41.4	20.5	0.00e+00	0	56	0	2293235712	43	4080
2026-01-05 03:47:12.74	297.18	56.60	-40.8	-41.4	20.6	0.00e+00	0	56	0	2299527168	43	4070
2026-01-05 03:47:13.73	296.41	56.52	-40.7	-41.3	20.6	0.00e+00	0	56	0	2304770048	43	4039
2026-01-05 03:47:14.71	295.65	56.43	-40.7	-41.3	20.6	0.00e+00	0	56	0	2310012928	43	4044
2026-01-05 03:47:15.70	294.89	56.33	-40.8	-41.5	20.5	0.00e+00	0	57	0	2316304384	43	4099
2026-01-05 03:47:16.69	294.14	56.23	-40.6	-41.2	20.7	0.00e+00	0	56	0	2321547264	43	3983
2026-01-05 03:47:17.68	293.39	56.13	-40.7	-41.3	20.6	0.00e+00	0	56	0	2326790144	43	4037
2026-01-05 03:47:18.66	292.65	56.02	-40.9	-41.5	20.5	0.00e+00	0	56	0	2332033024	43	4111
2026-01-05 03:47:19.65	291.91	55.91	-40.8	-41.4	20.5	0.00e+00	0	56	0	2338324480	43	4078
2026-01-05 03:47:20.63	291.19	55.79	-40.4	-41.0	21.0	0.00e+00	0	56	0	2343567360	43	3876
2026-01-05 03:47:21.62	290.46	55.67	-40.3	-40.8	21.1	0.00e+00	0	56	0	2348810240	43	3810
2026-01-05 03:47:22.61	289.74	55.54	-40.5	-41.1	20.9	0.00e+00	0	56	0	2355101696	43	3930
2026-01-05 03:47:23.59	289.03	55.41	-40.6	-41.2	20.7	0.00e+00	0	56	0	2360344576	43	3963
2026-01-05 03:47:24.59	288.32	55.28	-40.0	-40.5	21.3	0.00e+00	0	56	0	2365587456	43	3692
2026-01-05 03:47:25.58	287.62	55.14	-39.8	-40.3	21.6	0.00e+00	0	57	0	2371878912	42	3797
2026-01-05 03:47:26.57	286.93	55.00	-40.0	-40.5	21.4	0.00e+00	0	57	0	2377121792	42	3898
2026-01-05 03:47:27.57	286.23	54.85	-40.2	-40.8	21.2	0.00e+00	0	56	0	2382364672	42	4009
2026-01-05 03:47:28.55	285.56	54.70	-40.0	-40.5	21.3	0.00e+00	0	57	0	2388656128	42	3913
2026-01-05 03:47:29.53	284.90	54.55	-39.9	-40.4	21.4	0.00e+00	0	56	0	2393899008	42	3862
2026-01-05 03:47:30.51	284.24	54.40	-40.2	-40.8	21.1	0.00e+00	0	56	0	2399141888	42	4021
2026-01-05 03:47:31.49	283.59	54.24	-40.7	-41.3	20.7	0.00e+00	0	57	0	2404384768	43	4009
2026-01-05 03:47:32.48	282.94	54.08	-40.8	-41.4	20.5	0.00e+00	0	56	0	2410676224	43	4096
2026-01-05 03:47:33.46	282.30	53.91	-40.7	-41.3	20.6	0.00e+00	0	57	0	2415919104	43	4026
2026-01-05 03:47:34.45	281.66	53.74	-40.8	-41.4	20.6	0.00e+00	0	56	0	2421161984	43	4052
2026-01-05 03:47:35.44	281.04	53.57	-40.9	-41.5	20.4	0.00e+00	0	56	0	2427453440	43	4126
2026-01-05 03:47:36.42	280.42	53.40	-41.1	-41.7	20.2	0.00e+00	0	57	0	2432696320	43	4207
2026-01-05 03:47:37.41	279.81	53.22	-41.0	-41.6	20.4	0.00e+00	0	57	0	2437939200	44	3949
2026-01-05 03:47:38.40	279.20	53.04	-40.7	-41.3	20.7	0.00e+00	0	57	0	2443182080	44	3789
2026-01-05 03:47:39.39	278.61	52.86	-40.2	-40.8	21.1	0.00e+00	0	56	0	2449473536	43	3805
2026-01-05 03:47:40.38	278.02	52.67	-40.0	-40.5	21.4	0.00e+00	0	57	0	2454716416	43	3678
2026-01-05 03:47:41.37	277.43	52.48	-40.0	-40.6	21.3	0.00e+00	0	56	0	2459959296	43	3699
2026-01-05 03:47:42.36	276.86	52.29	-40.3	-40.9	21.0	0.00e+00	0	56	0	2466250752	43	3842
2026-01-05 03:47:43.36	276.28	52.10	-40.4	-41.0	20.9	0.00e+00	0	56	0	2471493632	43	3877
2026-01-05 03:47:44.35	275.72	51.90	-40.4	-41.0	20.9	0.00e+00	0	57	0	2476736512	43	3882
2026-01-05 03:47:45.33	275.18	51.71	-40.5	-41.1	20.8	0.00e+00	0	57	0	2483027968	43	3925
2026-01-05 03:47:46.32	274.63	51.51	-40.7	-41.3	20.7	0.00e+00	0	57	0	2488270848	43	4015
2026-01-05 03:47:47.32	274.09	51.31	-40.4	-40.9	21.0	0.00e+00	0	57	0	2493513728	43	3858
2026-01-05 03:47:48.30	273.56	51.11	-40.4	-41.0	21.0	0.00e+00	0	57	0	2499805184	43	3871
2026-01-05 03:47:49.29	273.03	50.90	-40.6	-41.2	20.7	0.00e+00	0	57	0	2505048064	43	3984
2026-01-05 03:47:50.29	272.51	50.70	-40.4	-40.9	21.0	0.00e+00	0	57	0	2510290944	43	3859
2026-01-05 03:47:51.27	272.01	50.49	-40.1	-40.6	21.3	0.00e+00	0	57	0	2515533824	43	3711
2026-01-05 03:47:52.27	271.50	50.28	-40.1	-40.7	21.2	0.00e+00	0	57	0	2521825280	43	3738
2026-01-05 03:47:53.26	271.00	50.07	-40.4	-41.0	21.0	0.00e+00	0	57	0	2527068160	43	3870
2026-01-05 03:47:54.24	270.52	49.86	-40.3	-40.9	21.0	0.00e+00	0	57	0	2532311040	43	3838
2026-01-05 03:47:55.23	270.04	49.65	-40.2	-40.8	21.1	0.00e+00	0	56	0	2538602496	43	3811
2026-01-05 03:47:56.22	269.56	49.44	-40.2	-40.8	21.1	0.00e+00	0	57	0	2543845376	43	3800
2026-01-05 03:47:57.20	269.10	49.22	-40.4	-41.0	20.9	0.00e+00	0	57	0	2549088256	43	3889
2026-01-05 03:47:58.20	268.63	49.01	-40.4	-41.0	20.9	0.00e+00	0	57	0	2555379712	43	3902
2026-01-05 03:47:59.18	268.18	48.79	-40.3	-40.9	21.0	0.00e+00	0	57	0	2560622592	43	3853
2026-01-05 03:48:00.17	267.73	48.57	-40.4	-41.0	20.9	0.00e+00	0	57	0	2565865472	43	3897
2026-01-05 03:48:01.16	267.28	48.36	-40.6	-41.2	20.7	0.00e+00	0	56	0	2571108352	43	3990
2026-01-05 03:48:02.15	266.85	48.14	-40.2	-40.8	21.1	0.00e+00	0	57	0	2577399808	43	3784
2026-01-05 03:48:03.14	266.42	47.92	-39.8	-40.3	21.6	0.00e+00	0	57	0	2582642688	42	3809
2026-01-05 03:48:04.13	265.99	47.70	-39.6	-40.1	21.7	0.00e+00	0	57	0	2587885568	42	3731
2026-01-05 03:48:05.12	265.57	47.48	-39.8	-40.3	21.6	0.00e+00	0	57	0	2594177024	42	3807
2026-01-05 03:48:06.11	265.16	47.25	-39.9	-40.4	21.4	0.00e+00	0	57	0	2599419904	42	3855
2026-01-05 03:48:07.10	264.75	47.03	-39.8	-40.4	21.5	0.00e+00	0	57	0	2604662784	42	3835
2026-01-05 03:48:08.09	264.35	46.81	-40.0	-40.6	21.3	0.00e+00	0	57	0	2610954240	42	3937
2026-01-05 03:48:09.08	263.96	46.59	-40.3	-40.9	21.1	0.00e+00	0	57	0	2616197120	42	4061
2026-01-05 03:48:10.07	263.57	46.36	-40.1	-40.6	21.3	0.00e+00	0	57	0	2621440000	42	3943
2026-01-05 03:48:11.06	263.18	46.14	-40.2	-40.7	21.1	0.00e+00	0	57	0	2627731456	42	3995
2026-01-05 03:48:12.04	262.81	45.92	-40.5	-41.1	20.8	0.00e+00	0	57	0	2632974336	42	4169
2026-01-05 03:48:13.03	262.43	45.70	-40.6	-41.1	20.8	0.00e+00	0	57	0	2638217216	42	4191
2026-01-05 03:48:14.02	262.06	45.47	-40.6	-41.2	20.7	0.00e+00	0	57	0	2643460096	43	3966
2026-01-05 03:48:15.01	261.70	45.25	-40.4	-40.9	20.9	0.00e+00	0	57	0	2649751552	43	3864
2026-01-05 03:48:15.99	261.35	45.03	-40.2	-40.8	21.1	0.00e+00	0	57	0	2654994432	43	3787
2026-01-05 03:48:16.98	260.99	44.80	-40.2	-40.8	21.2	0.00e+00	0	57	0	2660237312	43	3790
2026-01-05 03:48:17.97	260.65	44.58	-40.1	-40.6	21.2	0.00e+00	0	57	0	2666528768	43	3736
2026-01-05 03:48:18.97	260.30	44.36	-40.6	-41.2	20.7	0.00e+00	0	57	0	2671771648	43	3983
2026-01-05 03:48:19.95	259.96	44.13	-40.6	-41.2	20.7	0.00e+00	0	57	0	2677014528	43	3980
2026-01-05 03:48:20.93	259.63	43.91	-41.2	-41.9	20.1	0.00e+00	0	57	0	2682257408	44	4068
2026-01-05 03:48:21.92	259.30	43.69	-40.9	-41.6	20.4	0.00e+00	0	57	0	2688548864	44	3930
2026-01-05 03:48:22.91	258.98	43.47	-40.4	-41.0	21.0	0.00e+00	0	57	0	2693791744	44	3674
2026-01-05 03:48:23.89	258.66	43.25	-39.8	-40.4	21.5	0.00e+00	0	57	0	2700083200	42	3831
2026-01-05 03:48:24.89	258.34	43.02	-39.5	-40.0	21.8	0.00e+00	0	56	0	2705326080	42	3674
2026-01-05 03:48:25.88	258.03	42.80	-39.3	-39.8	22.0	0.00e+00	0	57	0	2710568960	41	3820
2026-01-05 03:48:26.87	257.73	42.58	-39.4	-39.9	21.9	0.00e+00	0	57	0	2715811840	41	3850
2026-01-05 03:48:27.85	257.43	42.36	-39.4	-39.9	21.9	0.00e+00	0	57	0	2722103296	41	3847
2026-01-05 03:48:28.84	257.13	42.14	-39.3	-39.9	21.9	0.00e+00	0	57	0	2727346176	41	3828
2026-01-05 03:48:29.82	256.84	41.92	-39.3	-39.8	22.0	0.00e+00	0	57	0	2732589056	41	3795
2026-01-05 03:48:30.81	256.55	41.70	-39.3	-39.8	22.0	0.00e+00	0	57	0	2738880512	41	3804
2026-01-05 03:48:31.80	256.26	41.48	-39.6	-40.1	21.7	0.00e+00	0	57	0	2744123392	41	3948
2026-01-05 03:48:32.78	255.98	41.27	-39.5	-40.0	21.8	0.00e+00	0	57	0	2749366272	41	3905
2026-01-05 03:48:33.76	255.70	41.05	-39.7	-40.3	21.6	0.00e+00	0	57	0	2754609152	41	4016
2026-01-05 03:48:34.74	255.43	40.83	-39.9	-40.4	21.4	0.00e+00	0	57	0	2760900608	41	4092
2026-01-05 03:48:35.72	255.16	40.62	-39.9	-40.4	21.4	0.00e+00	0	57	0	2766143488	41	4098
2026-01-05 03:48:36.71	254.90	40.40	-39.9	-40.4	21.4	0.00e+00	0	57	0	2771386368	41	4090
2026-01-05 03:48:37.70	254.63	40.19	-40.0	-40.5	21.3	0.00e+00	0	57	0	2777677824	41	4138
2026-01-05 03:48:38.69	254.37	39.97	-40.3	-40.8	21.0	0.00e+00	0	57	0	2782920704	42	4048
2026-01-05 03:48:39.68	254.11	39.76	-40.1	-40.7	21.2	0.00e+00	0	57	0	2788163584	42	3975
2026-01-05 03:48:40.67	253.86	39.54	-40.4	-41.0	20.9	0.00e+00	0	57	0	2793406464	42	4109
2026-01-05 03:48:41.66	253.61	39.33	-40.3	-40.8	21.0	0.00e+00	0	57	0	2799697920	43	3818
2026-01-05 03:48:42.65	253.36	39.12	-40.0	-40.5	21.3	0.00e+00	0	57	0	2804940800	43	3683
2026-01-05 03:48:43.64	253.12	38.90	-39.7	-40.2	21.6	0.00e+00	0	57	0	2810183680	42	3779
2026-01-05 03:48:44.63	252.88	38.69	-39.6	-40.1	21.7	0.00e+00	0	57	0	2816475136	42	3712
2026-01-05 03:48:45.62	252.64	38.48	-39.5	-40.1	21.8	0.00e+00	0	57	0	2821718016	42	3695
2026-01-05 03:48:46.61	252.41	38.27	-39.5	-40.0	21.8	0.00e+00	0	57	0	2826960896	42	3694
2026-01-05 03:48:47.60	252.17	38.06	-39.5	-40.0	21.8	0.00e+00	0	57	0	2833252352	42	3691
2026-01-05 03:48:48.59	251.95	37.85	-39.4	-40.0	21.9	0.00e+00	0	57	0	2838495232	42	3662
2026-01-05 03:48:49.58	251.72	37.65	-39.4	-40.0	21.8	0.00e+00	0	57	0	2843738112	42	3671
2026-01-05 03:48:50.57	251.50	37.44	-39.5	-40.0	21.8	0.00e+00	0	57	0	2848980992	42	3686
2026-01-05 03:48:51.56	251.28	37.23	-39.5	-40.0	21.8	0.00e+00	0	57	0	2855272448	42	3669
2026-01-05 03:48:52.55	251.06	37.03	-39.6	-40.2	21.7	0.00e+00	0	57	0	2860515328	42	3751
2026-01-05 03:48:53.54	250.85	36.82	-39.6	-40.2	21.6	0.00e+00	0	57	0	2866806784	42	3740
2026-01-05 03:48:54.53	250.63	36.62	-39.5	-40.1	21.8	0.00e+00	0	57	0	2872049664	42	3702
2026-01-05 03:48:55.51	250.43	36.42	-39.7	-40.2	21.6	0.00e+00	0	57	0	2877292544	42	3767
2026-01-05 03:48:56.50	250.22	36.22	-39.7	-40.2	21.6	0.00e+00	0	57	0	2882535424	42	3755
2026-01-05 03:48:57.49	250.02	36.02	-39.4	-40.0	21.8	0.00e+00	0	57	0	2888826880	42	3657
2026-01-05 03:48:58.48	249.82	35.82	-39.4	-39.9	21.9	0.00e+00	0	57	0	2894069760	41	3836
2026-01-05 03:48:59.48	249.62	35.62	-39.4	-39.9	21.9	0.00e+00	0	57	0	2899312640	41	3847
2026-01-05 03:49:00.46	249.42	35.42	-39.7	-40.2	21.6	0.00e+00	0	57	0	2905604096	41	3992
2026-01-05 03:49:01.44	249.23	35.22	-39.8	-40.4	21.4	0.00e+00	0	57	0	2910846976	41	4067
2026-01-05 03:49:02.43	249.04	35.03	-39.9	-40.4	21.4	0.00e+00	0	57	0	2916089856	41	4086
2026-01-05 03:49:03.42	248.85	34.83	-40.2	-40.8	21.1	0.00e+00	0	57	0	2921332736	42	4024
2026-01-05 03:49:04.40	248.66	34.64	-40.2	-40.8	21.1	0.00e+00	0	57	0	2927624192	42	4020
2026-01-05 03:49:05.40	248.48	34.44	-39.7	-40.3	21.6	0.00e+00	0	57	0	2932867072	42	3790
2026-01-05 03:49:06.39	248.29	34.25	-39.5	-40.0	21.8	0.00e+00	0	57	0	2939158528	42	3674
2026-01-05 03:49:07.38	248.11	34.05	-39.3	-39.8	21.9	0.00e+00	0	57	0	2944401408	41	3818
2026-01-05 03:49:08.38	247.93	33.86	-39.3	-39.9	21.9	0.00e+00	0	57	0	2949644288	41	3838
2026-01-05 03:49:09.36	247.76	33.67	-39.4	-39.9	21.9	0.00e+00	0	57	0	2954887168	41	3839
2026-01-05 03:49:10.36	247.58	33.48	-39.3	-39.8	21.9	0.00e+00	0	57	0	2961178624	41	3819
2026-01-05 03:49:11.35	247.41	33.29	-39.4	-39.9	21.9	0.00e+00	0	57	0	2966421504	41	3853
2026-01-05 03:49:12.34	247.24	33.10	-39.4	-39.9	21.9	0.00e+00	0	57	0	2971664384	41	3844
2026-01-05 03:49:13.33	247.07	32.91	-39.5	-40.1	21.7	0.00e+00	0	57	0	2977955840	41	3923
2026-01-05 03:49:14.32	246.91	32.73	-39.7	-40.2	21.6	0.00e+00	0	57	0	2983198720	41	3991
2026-01-05 03:49:15.30	246.75	32.54	-39.5	-40.1	21.7	0.00e+00	0	57	0	2988441600	41	3925
2026-01-05 03:49:16.29	246.58	32.36	-39.5	-40.0	21.7	0.00e+00	0	57	0	2994733056	41	3903
2026-01-05 03:49:17.29	246.42	32.17	-39.7	-40.3	21.5	0.00e+00	0	57	0	2999975936	41	4028
2026-01-05 03:49:18.28	246.26	31.99	-39.9	-40.4	21.3	0.00e+00	0	57	0	3005218816	41	4093
2026-01-05 03:49:19.27	246.11	31.81	-39.7	-40.3	21.5	0.00e+00	0	57	0	3010461696	41	4027
2026-01-05 03:49:20.26	245.95	31.63	-39.8	-40.4	21.4	0.00e+00	0	57	0	3016753152	41	4068
2026-01-05 03:49:21.24	245.80	31.45	-39.9	-40.5	21.3	0.00e+00	0	57	0	3021996032	41	4101
2026-01-05 03:49:22.23	245.65	31.27	-39.8	-40.4	21.4	0.00e+00	0	57	0	3027238912	41	4076
2026-01-05 03:49:23.22	245.50	31.09	-40.0	-40.6	21.2	0.00e+00	0	57	0	3033530368	41	4159
2026-01-05 03:49:24.21	245.35	30.91	-40.2	-40.8	21.1	0.00e+00	0	57	0	3038773248	42	4007
2026-01-05 03:49:25.21	245.20	30.73	-40.1	-40.7	21.2	0.00e+00	0	57	0	3044016128	42	3963
2026-01-05 03:49:26.20	245.06	30.56	-40.1	-40.6	21.2	0.00e+00	0	57	0	3050307584	42	3953
2026-01-05 03:49:27.19	244.91	30.38	-40.1	-40.7	21.1	0.00e+00	0	57	0	3055550464	42	3986
2026-01-05 03:49:28.18	244.77	30.21	-40.0	-40.6	21.2	0.00e+00	0	57	0	3060793344	42	3934
2026-01-05 03:49:29.16	244.63	30.04	-40.3	-40.8	21.0	0.00e+00	0	57	0	3067084800	42	4043
2026-01-05 03:49:30.15	244.50	29.86	-40.4	-40.9	20.9	0.00e+00	0	57	0	3072327680	42	4091
2026-01-05 03:49:31.14	244.36	29.69	-40.3	-40.8	21.0	0.00e+00	0	57	0	3077570560	42	4038
2026-01-05 03:49:32.13	244.22	29.52	-40.5	-41.1	20.7	0.00e+00	0	57	0	3083862016	42	4170
2026-01-05 03:49:33.12	244.09	29.35	-40.3	-40.9	20.9	0.00e+00	0	57	0	3089104896	42	4086
2026-01-05 03:49:34.11	243.96	29.18	-40.6	-41.2	20.6	0.00e+00	0	57	0	3094347776	43	3992
2026-01-05 03:49:35.10	243.83	29.01	-41.0	-41.6	20.2	0.00e+00	0	57	0	3099590656	43	4179
2026-01-05 03:49:36.08	243.70	28.85	-40.6	-41.2	20.6	0.00e+00	0	57	0	3105882112	43	3999
2026-01-05 03:49:37.07	243.57	28.68	-40.9	-41.5	20.3	0.00e+00	0	57	0	3111124992	43	4138
2026-01-05 03:49:38.07	243.44	28.51	-40.6	-41.2	20.7	0.00e+00	0	57	0	3116367872	43	3959
2026-01-05 03:49:39.05	243.32	28.35	-40.4	-40.9	20.9	0.00e+00	0	57	0	3122659328	43	3861
2026-01-05 03:49:40.05	243.19	28.18	-40.3	-40.8	21.0	0.00e+00	0	57	0	3127902208	43	3821
2026-01-05 03:49:41.04	243.07	28.02	-40.4	-41.0	20.8	0.00e+00	0	57	0	3133145088	43	3878
2026-01-05 03:49:42.03	242.94	27.86	-40.6	-41.1	20.7	0.00e+00	0	57	0	3138387968	43	3956
2026-01-05 03:49:43.01	242.82	27.70	-40.3	-41.0	20.9	0.00e+00	0	57	0	3144679424	43	3870
2026-01-05 03:49:44.00	242.71	27.54	-40.2	-40.8	21.1	0.00e+00	0	57	0	3149922304	43	3786
2026-01-05 03:49:44.99	242.59	27.38	-40.1	-40.7	21.1	0.00e+00	0	57	0	3156213760	43	3765
2026-01-05 03:49:45.98	242.47	27.22	-40.2	-40.7	21.0	0.00e+00	0	57	0	3161456640	43	3780
2026-01-05 03:49:46.98	242.35	27.06	-40.3	-40.9	20.9	0.00e+00	0	57	0	3166699520	43	3851
2026-01-05 03:49:47.97	242.24	26.90	-40.2	-40.7	21.1	0.00e+00	0	57	0	3171942400	43	3770
2026-01-05 03:49:48.96	242.12	26.74	-40.1	-40.7	21.1	0.00e+00	0	57	0	3178233856	43	3750
2026-01-05 03:49:49.94	242.01	26.59	-40.2	-40.7	21.1	0.00e+00	0	57	0	3183476736	43	3774
2026-01-05 03:49:50.93	241.90	26.43	-40.1	-40.6	21.1	0.00e+00	0	57	0	3188719616	43	3728
2026-01-05 03:49:51.92	241.79	26.28	-40.3	-40.9	20.9	0.00e+00	0	57	0	3195011072	43	3847
2026-01-05 03:49:52.91	241.68	26.12	-40.1	-40.7	21.1	0.00e+00	0	57	0	3200253952	43	3764
2026-01-05 03:49:53.90	241.58	25.97	-39.9	-40.4	21.4	0.00e+00	0	57	0	3205496832	42	3852
2026-01-05 03:49:54.89	241.47	25.82	-39.8	-40.3	21.4	0.00e+00	0	57	0	3211788288	42	3816
2026-01-05 03:49:55.88	241.36	25.66	-39.8	-40.4	21.4	0.00e+00	0	56	0	3217031168	42	3837
2026-01-05 03:49:56.86	241.26	25.51	-39.8	-40.3	21.4	0.00e+00	0	57	0	3222274048	42	3805
2026-01-05 03:49:57.85	241.16	25.36	-39.8	-40.4	21.4	0.00e+00	0	57	0	3227516928	42	3830
2026-01-05 03:49:58.84	241.05	25.21	-39.9	-40.4	21.3	0.00e+00	0	57	0	3233808384	42	3861
2026-01-05 03:49:59.84	240.95	25.06	-39.9	-40.5	21.3	0.00e+00	0	57	0	3239051264	42	3882
2026-01-05 03:50:00.83	240.85	24.92	-40.1	-40.7	21.1	0.00e+00	0	57	0	3244294144	42	3965
2026-01-05 03:50:01.82	240.75	24.77	-40.0	-40.6	21.2	0.00e+00	0	57	0	3250585600	42	3925
2026-01-05 03:50:02.81	240.65	24.62	-40.0	-40.5	21.2	0.00e+00	0	57	0	3255828480	42	3901
2026-01-05 03:50:03.79	240.55	24.48	-40.0	-40.6	21.2	0.00e+00	0	57	0	3261071360	42	3932
2026-01-05 03:50:04.77	240.46	24.33	-40.2	-40.8	21.0	0.00e+00	0	57	0	3267362816	42	4007
2026-01-05 03:50:05.75	240.36	24.19	-40.1	-40.7	21.1	0.00e+00	0	57	0	3272605696	42	3983
2026-01-05 03:50:06.74	240.27	24.05	-40.2	-40.8	21.0	0.00e+00	0	57	0	3277848576	42	4024
2026-01-05 03:50:07.74	240.17	23.90	-40.4	-41.0	20.8	0.00e+00	0	57	0	3284140032	42	4102
2026-01-05 03:50:08.73	240.08	23.76	-40.3	-40.9	20.9	0.00e+00	0	57	0	3289382912	42	4072
2026-01-05 03:50:09.72	239.99	23.62	-40.4	-41.0	20.8	0.00e+00	0	57	0	3294625792	42	4119
2026-01-05 03:50:10.71	239.89	23.48	-40.6	-41.2	20.6	0.00e+00	0	57	0	3299868672	42	4216
2026-01-05 03:50:11.70	239.80	23.34	-40.5	-41.1	20.6	0.00e+00	0	57	0	3306160128	43	3958
2026-01-05 03:50:12.70	239.71	23.20	-40.6	-41.2	20.6	0.00e+00	0	57	0	3311403008	43	3981
2026-01-05 03:50:13.69	239.62	23.06	-40.9	-41.5	20.3	0.00e+00	0	57	0	3317694464	43	4111
2026-01-05 03:50:14.68	239.53	22.92	-40.8	-41.4	20.4	0.00e+00	0	57	0	3322937344	43	4070
2026-01-05 03:50:15.66	239.45	22.78	-40.6	-41.2	20.5	0.00e+00	0	57	0	3328180224	43	3986
2026-01-05 03:50:16.66	239.36	22.64	-40.6	-41.2	20.5	0.00e+00	0	57	0	3333423104	43	3990
2026-01-05 03:50:17.65	239.27	22.51	-40.9	-41.5	20.3	0.00e+00	0	57	0	3339714560	43	4116
2026-01-05 03:50:18.63	239.19	22.37	-40.7	-41.3	20.4	0.00e+00	0	57	0	3344957440	43	4047
2026-01-05 03:50:19.63	239.10	22.24	-40.5	-41.1	20.7	0.00e+00	0	57	0	3350200320	43	3919
2026-01-05 03:50:20.62	239.02	22.10	-40.4	-41.0	20.7	0.00e+00	0	57	0	3356491776	43	3902
2026-01-05 03:50:21.61	238.94	21.97	-40.4	-41.0	20.7	0.00e+00	0	57	0	3361734656	43	3904
2026-01-05 03:50:22.60	238.86	21.84	-40.6	-41.2	20.5	0.00e+00	0	57	0	3366977536	43	3990
2026-01-05 03:50:23.59	238.77	21.70	-40.7	-41.3	20.5	0.00e+00	0	57	0	3373268992	43	4008
2026-01-05 03:50:24.57	238.69	21.57	-40.7	-41.3	20.5	0.00e+00	0	57	0	3378511872	43	4007
2026-01-05 03:50:25.56	238.61	21.44	-40.9	-41.5	20.2	0.00e+00	0	57	0	3383754752	43	4140
2026-01-05 03:50:26.56	238.53	21.31	-41.1	-41.7	20.2	0.00e+00	0	57	0	3388997632	44	3987
2026-01-05 03:50:27.55	238.46	21.18	-41.1	-41.7	20.1	0.00e+00	0	57	0	3395289088	44	4003
2026-01-05 03:50:28.54	238.38	21.05	-41.4	-42.1	19.8	0.00e+00	0	57	0	3400531968	44	4166
2026-01-05 03:50:29.52	238.30	20.92	-41.6	-42.2	19.6	0.00e+00	0	57	0	3405774848	45	4001
2026-01-05 03:50:30.50	238.23	20.80	-41.5	-42.2	19.7	0.00e+00	0	57	0	3412066304	45	3980
2026-01-05 03:50:31.48	238.15	20.67	-41.8	-42.5	19.4	0.00e+00	0	57	0	3417309184	45	4131
2026-01-05 03:50:32.47	238.07	20.54	-42.0	-42.8	19.2	0.00e+00	0	57	0	3422552064	46	4008
2026-01-05 03:50:33.46	238.00	20.42	-41.7	-42.4	19.5	0.00e+00	0	57	0	3427794944	46	3855
2026-01-05 03:50:34.46	237.93	20.29	-41.6	-42.3	19.6	0.00e+00	0	57	0	3434086400	46	3788
2026-01-05 03:50:35.45	237.85	20.16	-41.6	-42.2	19.6	0.00e+00	0	57	0	3439329280	46	3779
2026-01-05 03:50:36.44	237.78	20.04	-41.8	-42.5	19.4	0.00e+00	0	57	0	3445620736	46	3907
2026-01-05 03:50:37.43	237.71	19.91	-42.0	-42.7	19.2	0.00e+00	0	57	0	3450863616	46	3989
2026-01-05 03:50:38.42	237.64	19.79	-41.8	-42.5	19.5	0.00e+00	0	57	0	3456106496	46	3870
2026-01-05 03:50:39.40	237.56	19.67	-41.5	-42.2	19.7	0.00e+00	0	57	0	3461349376	46	3749
2026-01-05 03:50:40.39	237.49	19.55	-41.3	-41.9	19.9	0.00e+00	0	57	0	3467640832	45	3865
2026-01-05 03:50:41.38	237.42	19.42	-41.2	-41.9	20.0	0.00e+00	0	57	0	3472883712	45	3832
2026-01-05 03:50:42.37	237.36	19.30	-41.3	-41.9	19.9	0.00e+00	0	57	0	3478126592	45	3864
2026-01-05 03:50:43.35	237.29	19.18	-41.5	-42.1	19.7	0.00e+00	0	57	0	3484418048	45	3956
2026-01-05 03:50:44.35	237.22	19.06	-41.6	-42.2	19.6	0.00e+00	0	57	0	3489660928	45	3999
2026-01-05 03:50:45.33	237.15	18.94	-41.6	-42.2	19.6	0.00e+00	0	57	0	3494903808	45	4003
2026-01-05 03:50:46.32	237.08	18.82	-41.7	-42.4	19.4	0.00e+00	0	57	0	3500146688	45	4075
2026-01-05 03:50:47.31	237.02	18.71	-41.6	-42.3	19.6	0.00e+00	0	57	0	3506438144	45	4014
2026-01-05 03:50:48.30	236.95	18.59	-41.6	-42.2	19.6	0.00e+00	0	57	0	3511681024	45	3999
2026-01-05 03:50:49.29	236.89	18.47	-41.7	-42.4	19.4	0.00e+00	0	57	0	3516923904	45	4071
2026-01-05 03:50:50.28	236.82	18.35	-41.6	-42.3	19.5	0.00e+00	0	57	0	3523215360	45	4021
2026-01-05 03:50:51.28	236.76	18.23	-41.6	-42.3	19.5	0.00e+00	0	57	0	3528458240	45	4032
2026-01-05 03:50:52.26	236.69	18.12	-41.6	-42.3	19.5	0.00e+00	0	57	0	3533701120	45	4045
2026-01-05 03:50:53.25	236.63	18.00	-41.7	-42.4	19.3	0.00e+00	0	57	0	3539992576	45	4086
2026-01-05 03:50:54.24	236.57	17.89	-41.7	-42.3	19.4	0.00e+00	0	57	0	3545235456	45	4050
2026-01-05 03:50:55.24	236.50	17.77	-41.8	-42.5	19.3	0.00e+00	0	57	0	3550478336	45	4114
2026-01-05 03:50:56.22	236.44	17.66	-42.0	-42.7	19.0	0.00e+00	0	57	0	3556769792	45	4242
2026-01-05 03:50:57.20	236.38	17.55	-41.8	-42.5	19.3	0.00e+00	0	57	0	3562012672	45	4124
2026-01-05 03:50:58.19	236.32	17.43	-42.0	-42.8	19.0	0.00e+00	0	57	0	3567255552	45	4243
2026-01-05 03:50:59.18	236.26	17.32	-42.3	-43.0	18.8	0.00e+00	0	57	0	3573547008	46	4117
2026-01-05 03:51:00.17	236.20	17.21	-42.1	-42.8	19.0	0.00e+00	0	57	0	3578789888	46	4018
2026-01-05 03:51:01.16	236.14	17.10	-41.9	-42.6	19.2	0.00e+00	0	56	0	3584032768	46	3916
2026-01-05 03:51:02.15	236.08	16.99	-41.8	-42.5	19.3	0.00e+00	0	57	0	3589275648	46	3899
2026-01-05 03:51:03.14	236.02	16.88	-42.0	-42.7	19.0	0.00e+00	0	57	0	3595567104	46	3997
2026-01-05 03:51:04.13	235.97	16.77	-41.9	-42.6	19.2	0.00e+00	0	57	0	3600809984	46	3918
2026-01-05 03:51:05.12	235.91	16.66	-41.8	-42.5	19.2	0.00e+00	0	57	0	3606052864	46	3904
2026-01-05 03:51:06.11	235.85	16.55	-42.0	-42.7	19.1	0.00e+00	0	57	0	3612344320	46	3969
2026-01-05 03:51:07.09	235.80	16.44	-42.2	-42.9	18.8	0.00e+00	0	57	0	3617587200	46	4073
2026-01-05 03:51:08.08	235.74	16.33	-42.1	-42.8	18.9	0.00e+00	0	57	0	3622830080	46	4040
2026-01-05 03:51:09.08	235.68	16.22	-42.3	-43.1	18.6	0.00e+00	0	57	0	3628072960	46	4160
2026-01-05 03:51:10.07	235.63	16.11	-42.2	-43.0	18.7	0.00e+00	0	57	0	3634364416	46	4099
2026-01-05 03:51:11.07	235.57	16.01	-42.5	-43.2	18.4	0.00e+00	0	57	0	3639607296	46	4242
2026-01-05 03:51:12.05	235.52	15.90	-42.3	-43.1	18.6	0.00e+00	0	57	0	3645898752	46	4156
2026-01-05 03:51:13.04	235.46	15.79	-42.3	-43.1	18.6	0.00e+00	0	57	0	3651141632	46	4155
2026-01-05 03:51:14.02	235.41	15.69	-42.4	-43.2	18.5	0.00e+00	0	57	0	3656384512	46	4222
2026-01-05 03:51:15.01	235.36	15.58	-42.3	-43.1	18.6	0.00e+00	0	57	0	3661627392	46	4177
2026-01-05 03:51:16.01	235.30	15.48	-42.5	-43.3	18.4	0.00e+00	0	57	0	3667918848	46	4255
2026-01-05 03:51:17.00	235.25	15.37	-42.8	-43.6	18.1	0.00e+00	0	57	0	3673161728	47	4160
2026-01-05 03:51:17.99	235.20	15.27	-42.6	-43.4	18.3	0.00e+00	0	57	0	3678404608	47	4067
2026-01-05 03:51:18.98	235.15	15.17	-42.8	-43.6	18.0	0.00e+00	0	57	0	3684696064	47	4177
2026-01-05 03:51:19.97	235.09	15.06	-42.7	-43.5	18.2	0.00e+00	0	57	0	3689938944	47	4103
2026-01-05 03:51:20.96	235.04	14.96	-42.8	-43.6	18.0	0.00e+00	0	57	0	3695181824	47	4188
2026-01-05 03:51:21.95	234.99	14.86	-43.3	-44.2	17.6	0.00e+00	0	57	0	3701473280	48	4200
2026-01-05 03:51:22.94	234.94	14.76	-43.3	-44.1	17.7	0.00e+00	0	57	0	3706716160	48	4171
2026-01-05 03:51:23.93	234.89	14.65	-43.3	-44.2	17.6	0.00e+00	0	57	0	3711959040	48	4210
