passes_logs/2026/01/05/R3.0SM8_Murmansk_STILSPACE/R3.0SM8_Murmansk_STILSPACE__20260105_054407_AQUA_rec.log

#Pass ID: 20260105_054407_AQUA
#Satellite: AQUA
#Configuration: AQUA
#almurnet v.1.7.20240730
#Start time: 2026-01-05 05:44:07

#Version: 2.2.20231116
#Station: R3.0SM8_Murmansk_STILSPACE
#Location: 33.092731 lon 68.902999 lat
#TLE: 1 27424U 02022A   26003.93831470  .00001925  00000+0  39553-3 0  9995
#TLE: 2 27424  98.4067 330.1809 0002003  92.1713 343.8415 14.61796291259276

#Time	Az	El	Level	Level2	SNR	BER	BlckErr	Temp	State	Recorded	gain1	gain2
2026-01-05 05:44:07.06	42.58	3.00	-54.1	-74.1	3.8	7.46e-01	0	50	0	0	70	37893
2026-01-05 05:44:08.04	42.50	3.05	-54.0	-73.9	3.8	7.45e-01	0	50	104	0	70	37260
2026-01-05 05:44:09.03	42.42	3.11	-53.9	-73.9	3.8	7.46e-01	0	50	104	0	70	36949
2026-01-05 05:44:10.02	42.34	3.17	-53.8	-73.8	3.8	7.47e-01	0	50	104	0	70	36587
2026-01-05 05:44:11.01	42.26	3.23	-53.7	-73.6	3.8	7.44e-01	0	50	104	0	70	36023
2026-01-05 05:44:12.00	42.18	3.29	-53.6	-73.4	3.8	7.45e-01	0	50	104	0	70	35260
2026-01-05 05:44:12.99	42.10	3.35	-53.3	-73.1	3.8	7.43e-01	0	50	104	0	70	34046
2026-01-05 05:44:13.99	42.01	3.41	-53.1	-72.9	3.8	7.43e-01	0	50	104	0	69	35226
2026-01-05 05:44:14.98	41.93	3.47	-53.1	-72.9	3.8	7.46e-01	0	50	104	0	69	35215
2026-01-05 05:44:15.97	41.85	3.53	-53.1	-72.9	3.8	7.45e-01	0	50	104	0	69	34995
2026-01-05 05:44:16.96	41.76	3.59	-53.1	-72.9	3.8	7.47e-01	0	50	104	0	69	35000
2026-01-05 05:44:17.95	41.68	3.65	-53.1	-72.9	3.8	7.46e-01	0	51	104	0	69	34889
2026-01-05 05:44:18.94	41.59	3.71	-53.1	-72.8	3.8	7.48e-01	0	50	104	0	69	34693
2026-01-05 05:44:19.94	41.51	3.77	-53.1	-72.8	3.8	7.44e-01	0	51	104	0	69	34698
2026-01-05 05:44:20.93	41.42	3.83	-53.1	-72.8	3.8	7.46e-01	0	51	104	0	69	34676
2026-01-05 05:44:21.92	41.34	3.88	-53.1	-72.8	3.8	7.44e-01	0	51	104	0	69	34705
2026-01-05 05:44:22.90	41.25	3.94	-53.1	-72.8	3.8	7.46e-01	0	51	104	0	69	34792
2026-01-05 05:44:23.90	41.16	4.00	-53.1	-72.8	3.8	7.44e-01	0	51	104	0	69	34849
2026-01-05 05:44:24.90	41.08	4.07	-53.1	-72.9	3.8	7.45e-01	0	51	104	0	69	34976
2026-01-05 05:44:25.88	40.99	4.13	-53.1	-72.9	3.8	7.43e-01	0	51	104	0	69	35098
2026-01-05 05:44:26.87	40.90	4.19	-53.1	-73.0	3.8	7.45e-01	0	51	104	0	69	35323
2026-01-05 05:44:27.85	40.81	4.25	-53.1	-73.0	3.8	7.47e-01	0	51	104	0	69	35289
2026-01-05 05:44:28.84	40.73	4.31	-53.1	-72.9	3.8	7.45e-01	0	51	104	0	69	35128
2026-01-05 05:44:29.82	40.64	4.37	-53.1	-72.8	3.8	7.46e-01	0	51	104	0	69	34866
2026-01-05 05:44:30.81	40.55	4.43	-53.1	-72.7	3.8	7.46e-01	0	51	104	0	69	34233
2026-01-05 05:44:31.80	40.46	4.49	-53.0	-72.3	3.8	7.44e-01	0	51	104	0	69	32850
2026-01-05 05:44:32.80	40.37	4.55	-53.0	-71.9	3.8	7.45e-01	0	51	104	0	69	31422
2026-01-05 05:44:33.78	40.28	4.61	-52.9	-71.4	3.8	7.45e-01	0	51	104	0	69	29480
2026-01-05 05:44:34.77	40.19	4.67	-52.8	-70.8	3.9	7.43e-01	0	51	104	0	69	27410
2026-01-05 05:44:35.76	40.09	4.73	-52.6	-69.8	3.8	7.45e-01	0	51	104	0	68	26047
2026-01-05 05:44:36.75	40.00	4.79	-52.4	-68.8	3.8	7.43e-01	0	51	104	0	68	23104
2026-01-05 05:44:37.74	39.91	4.85	-52.2	-68.1	3.8	7.46e-01	0	51	104	0	68	21265
2026-01-05 05:44:38.73	39.82	4.91	-51.9	-67.1	3.8	7.40e-01	0	52	104	0	67	20114
2026-01-05 05:44:39.72	39.72	4.98	-51.6	-66.3	3.8	7.50e-01	0	51	104	0	66	19609
2026-01-05 05:44:40.71	39.63	5.04	-51.4	-65.8	3.8	7.44e-01	0	51	104	0	66	18419
2026-01-05 05:44:41.70	39.54	5.10	-51.4	-65.8	3.8	7.45e-01	0	51	104	0	66	18320
2026-01-05 05:44:42.69	39.44	5.16	-51.5	-65.9	3.8	7.46e-01	0	52	104	0	66	18681
2026-01-05 05:44:43.67	39.35	5.22	-51.6	-66.3	3.8	7.44e-01	0	52	104	0	66	19489
2026-01-05 05:44:44.66	39.25	5.28	-51.8	-66.7	3.8	7.46e-01	0	52	104	0	66	20513
2026-01-05 05:44:45.65	39.15	5.35	-51.9	-67.1	3.8	7.42e-01	0	52	104	0	66	21451
2026-01-05 05:44:46.64	39.06	5.41	-52.1	-67.4	3.8	7.47e-01	0	52	104	0	66	22165
2026-01-05 05:44:47.63	38.96	5.47	-52.3	-68.2	3.8	7.46e-01	0	52	104	0	66	24294
2026-01-05 05:44:48.62	38.86	5.53	-52.5	-68.9	3.8	7.46e-01	0	52	104	0	67	24732
2026-01-05 05:44:49.60	38.77	5.59	-52.6	-69.5	3.8	7.43e-01	0	52	104	0	67	26744
2026-01-05 05:44:50.60	38.67	5.66	-52.8	-70.0	3.8	7.49e-01	0	52	104	0	67	28175
2026-01-05 05:44:51.58	38.57	5.72	-52.8	-70.4	3.8	7.44e-01	0	52	104	0	67	29483
2026-01-05 05:44:52.57	38.47	5.78	-53.0	-70.8	3.8	7.47e-01	0	52	104	0	68	29147
2026-01-05 05:44:53.57	38.37	5.84	-53.0	-71.1	3.8	7.45e-01	0	52	104	0	68	30197
2026-01-05 05:44:54.57	38.27	5.91	-53.0	-71.0	3.8	7.42e-01	0	52	104	0	68	29916
2026-01-05 05:44:55.56	38.17	5.97	-53.0	-70.9	3.8	7.42e-01	0	52	104	0	68	29607
2026-01-05 05:44:56.55	38.07	6.03	-53.0	-70.8	3.8	7.48e-01	0	52	104	0	68	29053
2026-01-05 05:44:57.53	37.97	6.10	-53.0	-70.6	3.8	7.47e-01	0	52	104	0	68	28432
2026-01-05 05:44:58.52	37.86	6.16	-53.0	-70.6	3.8	7.43e-01	0	52	104	0	68	28417
2026-01-05 05:44:59.50	37.76	6.22	-52.9	-70.3	3.8	7.43e-01	0	52	104	0	68	27475
2026-01-05 05:45:00.50	37.66	6.29	-52.8	-69.8	3.8	7.44e-01	0	52	104	0	68	25892
2026-01-05 05:45:01.48	37.55	6.35	-52.6	-69.1	3.8	7.48e-01	0	52	104	0	68	23891
2026-01-05 05:45:02.48	37.45	6.41	-52.4	-68.2	3.8	7.51e-01	0	52	104	0	68	21630
2026-01-05 05:45:03.47	37.34	6.48	-52.1	-67.2	3.8	7.45e-01	0	52	104	0	67	20353
2026-01-05 05:45:04.47	37.24	6.54	-51.7	-66.1	3.8	7.47e-01	0	52	104	0	67	18037
2026-01-05 05:45:05.45	37.13	6.60	-51.3	-65.2	3.8	7.44e-01	0	52	104	0	66	17207
2026-01-05 05:45:06.45	37.03	6.67	-51.1	-64.7	3.8	7.47e-01	0	53	104	0	65	17168
2026-01-05 05:45:07.43	36.92	6.73	-51.0	-64.4	3.8	7.42e-01	0	52	104	0	65	16684
2026-01-05 05:45:08.42	36.81	6.79	-50.9	-64.2	3.8	7.43e-01	0	53	104	0	65	16283
2026-01-05 05:45:09.41	36.70	6.86	-50.9	-64.2	3.8	7.42e-01	0	53	104	0	65	16250
2026-01-05 05:45:10.40	36.60	6.92	-50.9	-64.2	3.8	7.41e-01	0	53	104	0	65	16267
2026-01-05 05:45:11.39	36.49	6.99	-50.9	-64.4	3.8	7.42e-01	0	53	104	0	65	16530
2026-01-05 05:45:12.38	36.38	7.05	-50.9	-64.4	3.8	7.44e-01	0	53	104	0	65	16529
2026-01-05 05:45:13.37	36.27	7.12	-50.6	-63.8	3.8	7.43e-01	0	53	104	0	64	16381
2026-01-05 05:45:14.36	36.16	7.18	-50.5	-63.4	3.8	7.43e-01	0	53	104	0	64	15719
2026-01-05 05:45:15.34	36.05	7.24	-50.3	-63.1	3.8	7.46e-01	0	53	104	0	64	15185
2026-01-05 05:45:16.33	35.93	7.31	-50.2	-62.9	3.8	7.48e-01	0	53	104	0	63	15680
2026-01-05 05:45:17.32	35.82	7.37	-50.1	-62.7	3.8	7.43e-01	0	53	104	0	63	15317
2026-01-05 05:45:18.31	35.71	7.44	-50.3	-63.0	3.8	7.45e-01	0	53	104	0	63	15880
2026-01-05 05:45:19.29	35.60	7.50	-50.4	-63.2	3.8	7.45e-01	0	53	104	0	63	16284
2026-01-05 05:45:20.28	35.48	7.57	-50.1	-62.8	3.8	7.44e-01	0	53	104	0	63	15410
2026-01-05 05:45:21.27	35.37	7.63	-49.9	-62.4	3.8	7.46e-01	0	53	104	0	63	14784
2026-01-05 05:45:22.26	35.25	7.70	-49.8	-62.2	3.8	7.42e-01	0	53	104	0	63	14536
2026-01-05 05:45:23.24	35.14	7.76	-49.8	-62.1	3.8	7.45e-01	0	53	104	0	63	14345
2026-01-05 05:45:24.23	35.02	7.83	-49.8	-62.2	3.8	7.45e-01	0	53	104	0	63	14477
2026-01-05 05:45:25.21	34.91	7.89	-50.0	-62.5	3.8	7.43e-01	0	53	104	0	63	14919
2026-01-05 05:45:26.20	34.79	7.96	-50.3	-63.0	3.8	7.45e-01	0	53	104	0	63	15794
2026-01-05 05:45:27.19	34.67	8.02	-50.7	-63.6	3.8	7.43e-01	0	53	104	0	63	17081
2026-01-05 05:45:28.18	34.55	8.09	-50.9	-64.2	3.8	7.41e-01	0	53	104	0	64	17232
2026-01-05 05:45:29.17	34.43	8.16	-51.3	-65.0	3.8	7.44e-01	0	53	104	0	64	18766
2026-01-05 05:45:30.16	34.31	8.22	-51.7	-65.9	3.8	7.48e-01	0	53	104	0	65	19720
2026-01-05 05:45:31.15	34.19	8.29	-52.1	-66.9	3.8	7.45e-01	0	53	104	0	66	20999
2026-01-05 05:45:32.14	34.07	8.35	-52.2	-67.2	3.8	7.44e-01	0	53	104	0	66	21513
2026-01-05 05:45:33.12	33.95	8.42	-52.3	-67.4	3.8	7.45e-01	0	53	104	0	66	22160
2026-01-05 05:45:34.11	33.83	8.48	-52.4	-67.7	3.8	7.42e-01	0	53	104	0	66	22818
2026-01-05 05:45:35.09	33.71	8.55	-52.5	-68.1	3.8	7.46e-01	0	53	104	0	67	22527
2026-01-05 05:45:36.08	33.58	8.62	-52.6	-68.4	3.8	7.45e-01	0	53	104	0	67	23557
2026-01-05 05:45:37.07	33.46	8.68	-52.7	-68.8	3.8	7.42e-01	0	53	104	0	67	24532
2026-01-05 05:45:38.06	33.33	8.75	-52.9	-69.4	3.8	7.48e-01	0	53	104	0	67	26433
2026-01-05 05:45:39.06	33.21	8.82	-53.0	-69.9	3.8	7.44e-01	0	53	104	0	68	26420
2026-01-05 05:45:40.04	33.08	8.88	-53.1	-70.3	3.8	7.45e-01	0	53	104	0	68	27664
2026-01-05 05:45:41.03	32.96	8.95	-53.2	-70.8	3.8	7.46e-01	0	53	104	0	68	29191
2026-01-05 05:45:42.02	32.83	9.02	-53.1	-70.4	3.8	7.45e-01	0	53	104	0	68	27943
2026-01-05 05:45:43.01	32.70	9.08	-53.1	-70.0	3.8	7.46e-01	0	53	104	0	68	26655
2026-01-05 05:45:43.99	32.57	9.15	-53.1	-70.4	3.8	7.45e-01	0	54	104	0	68	27735
2026-01-05 05:45:44.97	32.44	9.21	-53.0	-70.0	3.8	7.45e-01	0	54	104	0	68	26461
2026-01-05 05:45:45.96	32.31	9.28	-52.9	-69.5	3.8	7.46e-01	0	53	104	0	68	25198
2026-01-05 05:45:46.94	32.19	9.35	-52.9	-69.2	3.8	7.44e-01	0	54	104	0	68	24308
2026-01-05 05:45:47.93	32.05	9.41	-52.8	-68.9	3.8	7.47e-01	0	54	104	0	68	23499
2026-01-05 05:45:48.92	31.92	9.48	-52.8	-68.8	3.8	7.45e-01	0	54	104	0	68	23155
2026-01-05 05:45:49.91	31.79	9.55	-52.5	-68.0	3.8	7.44e-01	0	54	104	0	68	21088
2026-01-05 05:45:50.91	31.65	9.62	-52.2	-67.0	3.8	7.43e-01	0	54	104	0	68	18942
2026-01-05 05:45:51.90	31.52	9.68	-51.8	-66.0	3.8	7.46e-01	0	54	104	0	67	17687
2026-01-05 05:45:52.89	31.39	9.75	-51.4	-65.0	3.8	7.45e-01	0	54	104	0	66	16819
2026-01-05 05:45:53.88	31.25	9.82	-50.9	-64.1	3.8	7.44e-01	0	54	104	0	65	16080
2026-01-05 05:45:54.87	31.11	9.89	-50.5	-63.4	3.8	7.46e-01	0	54	104	0	64	15605
2026-01-05 05:45:55.86	30.98	9.95	-50.2	-62.8	3.8	7.43e-01	0	54	104	0	64	14646
2026-01-05 05:45:56.84	30.84	10.02	-50.1	-62.6	3.8	7.46e-01	0	54	104	0	63	15055
2026-01-05 05:45:57.84	30.70	10.09	-50.1	-62.5	3.8	7.47e-01	0	54	104	0	63	14919
2026-01-05 05:45:58.81	30.57	10.16	-50.1	-62.4	3.8	7.44e-01	0	54	104	0	63	14825
2026-01-05 05:45:59.80	30.43	10.22	-50.1	-62.5	3.8	7.42e-01	0	54	104	0	63	15003
2026-01-05 05:46:00.79	30.29	10.29	-50.2	-62.7	3.8	7.46e-01	0	54	104	0	63	15342
2026-01-05 05:46:01.78	30.15	10.36	-50.3	-62.9	3.8	7.45e-01	0	54	104	0	63	15739
2026-01-05 05:46:02.77	30.00	10.43	-50.2	-62.7	3.8	7.45e-01	0	54	104	0	63	15308
2026-01-05 05:46:03.76	29.86	10.50	-50.0	-62.3	3.8	7.47e-01	0	54	104	0	63	14672
2026-01-05 05:46:04.75	29.72	10.56	-49.8	-62.0	3.8	7.46e-01	0	54	104	0	63	14168
2026-01-05 05:46:05.75	29.57	10.63	-49.8	-62.1	3.8	7.41e-01	0	54	104	0	63	14297
2026-01-05 05:46:06.73	29.43	10.70	-50.0	-62.4	3.8	7.45e-01	0	54	104	0	63	14720
2026-01-05 05:46:07.72	29.28	10.77	-50.2	-62.7	3.8	7.48e-01	0	54	104	0	63	15312
2026-01-05 05:46:08.71	29.14	10.84	-50.4	-63.1	3.8	7.44e-01	0	54	104	0	63	16016
2026-01-05 05:46:09.70	28.99	10.90	-50.4	-63.0	3.8	7.44e-01	0	54	104	0	63	15790
2026-01-05 05:46:10.70	28.84	10.97	-50.1	-62.6	3.8	7.44e-01	0	54	104	0	63	15053
2026-01-05 05:46:11.68	28.69	11.04	-50.0	-62.3	3.8	7.45e-01	0	54	104	0	63	14596
2026-01-05 05:46:12.67	28.55	11.11	-49.8	-62.0	3.8	7.41e-01	0	54	104	0	63	14154
2026-01-05 05:46:13.65	28.40	11.18	-49.7	-61.9	3.8	7.43e-01	0	54	104	0	63	13941
2026-01-05 05:46:14.64	28.25	11.24	-49.9	-62.2	3.8	7.47e-01	0	54	104	0	63	14469
2026-01-05 05:46:15.63	28.09	11.31	-50.3	-62.8	3.8	7.46e-01	0	54	104	0	63	15460
2026-01-05 05:46:16.62	27.94	11.38	-50.7	-63.5	3.8	7.45e-01	0	54	104	0	63	16817
2026-01-05 05:46:17.61	27.79	11.45	-51.2	-64.5	3.8	7.47e-01	0	54	104	0	64	17712
2026-01-05 05:46:18.60	27.64	11.52	-51.6	-65.4	3.8	7.46e-01	0	54	104	0	65	18623
2026-01-05 05:46:19.59	27.48	11.59	-52.1	-66.5	3.8	7.43e-01	0	54	104	0	66	20010
2026-01-05 05:46:20.58	27.33	11.65	-52.5	-67.7	3.8	7.47e-01	0	54	104	0	67	21753
2026-01-05 05:46:21.57	27.17	11.72	-52.6	-68.2	3.8	7.46e-01	0	54	104	0	67	22968
2026-01-05 05:46:22.56	27.01	11.79	-52.6	-68.2	3.8	7.45e-01	0	54	104	0	67	22919
2026-01-05 05:46:23.55	26.85	11.86	-52.7	-68.4	3.8	7.45e-01	0	54	104	0	67	23345
2026-01-05 05:46:24.54	26.70	11.93	-52.7	-68.6	3.8	7.48e-01	0	54	104	0	67	23904
2026-01-05 05:46:25.53	26.54	12.00	-52.8	-68.7	3.8	7.43e-01	0	54	104	0	67	24295
2026-01-05 05:46:26.52	26.38	12.07	-52.9	-69.2	3.8	7.43e-01	0	55	104	0	68	24321
2026-01-05 05:46:27.51	26.21	12.13	-53.1	-69.5	3.8	7.48e-01	0	54	104	0	68	25254
2026-01-05 05:46:28.49	26.05	12.20	-53.2	-70.0	3.8	7.46e-01	0	54	104	0	68	26708
2026-01-05 05:46:29.47	25.89	12.27	-53.2	-70.1	3.8	7.44e-01	0	54	104	0	68	26894
2026-01-05 05:46:30.46	25.73	12.34	-53.1	-69.6	3.8	7.43e-01	0	55	104	0	68	25475
2026-01-05 05:46:31.46	25.56	12.41	-53.0	-69.1	3.8	7.43e-01	0	54	104	0	68	23898
2026-01-05 05:46:32.45	25.40	12.48	-52.7	-68.4	3.8	7.44e-01	0	55	104	0	68	22031
2026-01-05 05:46:33.44	25.23	12.55	-52.6	-68.0	3.8	7.45e-01	0	54	104	0	68	21036
2026-01-05 05:46:34.43	25.07	12.61	-52.7	-68.1	3.8	7.44e-01	0	55	104	0	68	21276
2026-01-05 05:46:35.42	24.90	12.68	-52.5	-67.5	3.8	7.44e-01	0	55	104	0	68	19904
2026-01-05 05:46:36.40	24.73	12.75	-52.3	-67.0	3.8	7.45e-01	0	55	104	0	68	18859
2026-01-05 05:46:37.40	24.56	12.82	-52.1	-66.5	3.8	7.44e-01	0	55	104	0	67	18863
2026-01-05 05:46:38.38	24.39	12.89	-52.0	-66.2	3.8	7.47e-01	0	55	104	0	67	18234
2026-01-05 05:46:39.38	24.22	12.96	-51.7	-65.7	3.8	7.41e-01	0	55	104	0	67	17127
2026-01-05 05:46:40.37	24.05	13.02	-51.3	-64.7	3.8	7.45e-01	0	55	104	0	66	16194
2026-01-05 05:46:41.35	23.87	13.09	-50.8	-63.8	3.8	7.44e-01	0	55	104	0	65	15462
2026-01-05 05:46:42.34	23.70	13.16	-50.4	-63.0	3.8	7.45e-01	0	55	104	0	64	14901
2026-01-05 05:46:43.32	23.53	13.23	-50.1	-62.3	3.8	7.43e-01	0	55	104	0	63	14690
2026-01-05 05:46:44.30	23.35	13.30	-49.7	-61.8	3.8	7.41e-01	0	55	104	0	63	13759
2026-01-05 05:46:45.29	23.18	13.36	-49.4	-61.3	3.8	7.46e-01	0	55	104	0	62	13870
2026-01-05 05:46:46.28	23.00	13.43	-49.1	-60.9	3.8	7.43e-01	0	55	104	0	61	13993
2026-01-05 05:46:47.26	22.82	13.50	-49.1	-60.9	3.8	7.46e-01	0	55	104	0	61	13963
2026-01-05 05:46:48.25	22.64	13.57	-49.0	-60.8	3.8	7.41e-01	0	55	104	0	61	13843
2026-01-05 05:46:49.24	22.46	13.63	-49.1	-60.8	3.8	7.42e-01	0	55	104	0	61	13856
2026-01-05 05:46:50.23	22.28	13.70	-49.2	-61.1	3.8	7.44e-01	0	55	104	0	61	14220
2026-01-05 05:46:51.22	22.10	13.77	-49.4	-61.3	3.8	7.45e-01	0	55	104	0	61	14654
2026-01-05 05:46:52.22	21.92	13.84	-49.5	-61.6	3.8	7.47e-01	0	55	104	0	61	15071
2026-01-05 05:46:53.21	21.73	13.91	-49.4	-61.4	3.9	7.43e-01	0	55	104	0	61	14755
2026-01-05 05:46:54.20	21.55	13.97	-49.6	-61.7	3.8	7.46e-01	0	55	104	0	61	15246
2026-01-05 05:46:55.19	21.36	14.04	-49.8	-61.9	3.8	7.43e-01	0	55	104	0	61	15653
2026-01-05 05:46:56.17	21.18	14.11	-50.0	-62.2	3.8	7.42e-01	0	55	104	0	62	15386
2026-01-05 05:46:57.16	20.99	14.18	-50.3	-62.7	3.8	7.46e-01	0	55	104	0	62	16250
2026-01-05 05:46:58.16	20.80	14.24	-50.5	-63.1	3.9	7.44e-01	0	55	104	0	63	16072
2026-01-05 05:46:59.15	20.61	14.31	-50.8	-63.6	3.8	7.43e-01	0	55	104	0	63	16996
2026-01-05 05:47:00.14	20.42	14.38	-50.6	-63.2	3.8	7.43e-01	0	55	104	0	63	16207
2026-01-05 05:47:01.12	20.23	14.45	-50.4	-62.9	3.8	7.45e-01	0	55	104	0	63	15744
2026-01-05 05:47:02.12	20.04	14.51	-50.3	-62.7	3.8	7.41e-01	0	55	104	0	63	15326
2026-01-05 05:47:03.10	19.85	14.58	-50.2	-62.6	3.8	7.43e-01	0	55	104	0	63	15118
2026-01-05 05:47:04.09	19.65	14.65	-50.2	-62.5	3.8	7.45e-01	0	55	104	0	63	14952
2026-01-05 05:47:05.08	19.46	14.71	-50.6	-63.3	3.8	7.43e-01	0	55	104	0	63	16470
2026-01-05 05:47:06.08	19.26	14.78	-51.0	-64.1	3.8	7.46e-01	0	55	104	0	64	17053
2026-01-05 05:47:07.07	19.06	14.85	-51.6	-65.1	3.8	7.42e-01	0	55	104	0	65	18087
2026-01-05 05:47:08.06	18.87	14.91	-52.0	-66.2	3.8	7.44e-01	0	55	104	0	66	19241
2026-01-05 05:47:09.05	18.67	14.98	-52.4	-67.3	3.8	7.44e-01	0	55	104	0	67	20583
2026-01-05 05:47:10.05	18.47	15.04	-52.7	-68.3	3.8	7.45e-01	0	55	104	0	67	23238
2026-01-05 05:47:11.03	18.27	15.11	-53.1	-69.3	3.8	7.41e-01	0	55	104	0	68	24490
2026-01-05 05:47:12.02	18.07	15.18	-53.0	-69.2	3.8	7.45e-01	0	55	104	0	68	24232
2026-01-05 05:47:13.01	17.86	15.24	-53.0	-69.2	3.8	7.46e-01	0	55	104	0	68	24188
2026-01-05 05:47:14.00	17.66	15.31	-53.1	-69.2	3.8	7.48e-01	0	55	104	0	68	24333
2026-01-05 05:47:14.99	17.46	15.37	-53.1	-69.4	3.8	7.42e-01	0	55	104	0	68	24891
2026-01-05 05:47:15.98	17.25	15.44	-53.2	-69.7	3.8	7.44e-01	0	55	104	0	68	25760
2026-01-05 05:47:16.96	17.05	15.50	-53.3	-70.1	3.8	7.43e-01	0	55	104	0	68	26878
2026-01-05 05:47:17.96	16.84	15.57	-53.1	-69.7	3.8	7.44e-01	0	55	104	0	68	25562
2026-01-05 05:47:18.94	16.63	15.63	-53.0	-69.0	3.8	7.44e-01	0	55	104	0	68	23667
2026-01-05 05:47:19.92	16.42	15.69	-52.7	-68.1	3.8	7.42e-01	0	55	104	0	68	21493
2026-01-05 05:47:20.91	16.21	15.76	-52.4	-67.2	3.8	7.43e-01	0	55	104	0	68	19332
2026-01-05 05:47:21.90	16.00	15.82	-52.0	-66.2	3.8	7.45e-01	0	55	104	0	67	18132
2026-01-05 05:47:22.89	15.79	15.89	-51.6	-65.3	3.8	7.44e-01	0	55	104	0	66	17372
2026-01-05 05:47:23.88	15.58	15.95	-51.8	-65.7	3.8	7.47e-01	0	55	104	0	66	18208
2026-01-05 05:47:24.88	15.36	16.01	-51.6	-65.2	3.8	7.44e-01	0	55	104	0	66	17253
2026-01-05 05:47:25.86	15.15	16.08	-51.3	-64.5	3.8	7.45e-01	0	55	104	0	66	15937
2026-01-05 05:47:26.85	14.93	16.14	-51.0	-64.1	3.8	7.44e-01	0	55	104	0	65	15953
2026-01-05 05:47:27.84	14.72	16.20	-50.8	-63.6	3.8	7.44e-01	0	55	104	0	65	15214
2026-01-05 05:47:28.82	14.50	16.26	-50.6	-63.3	3.8	7.43e-01	0	55	104	0	64	15406
2026-01-05 05:47:29.81	14.28	16.33	-50.2	-62.6	3.8	7.44e-01	0	55	104	0	64	14342
2026-01-05 05:47:30.80	14.06	16.39	-49.9	-62.1	3.8	7.46e-01	0	55	104	0	63	14241
2026-01-05 05:47:31.79	13.84	16.45	-49.6	-61.6	3.8	7.45e-01	0	55	104	0	62	14257
2026-01-05 05:47:32.78	13.62	16.51	-49.3	-61.1	3.8	7.44e-01	0	55	104	0	62	13518
2026-01-05 05:47:33.77	13.40	16.57	-49.0	-60.8	3.8	7.45e-01	0	55	104	0	61	13767
2026-01-05 05:47:34.76	13.17	16.63	-48.8	-60.5	3.8	7.43e-01	0	56	104	0	61	13319
2026-01-05 05:47:35.75	12.95	16.70	-49.0	-60.7	3.8	7.45e-01	0	55	104	0	61	13650
2026-01-05 05:47:36.74	12.72	16.76	-48.9	-60.6	3.8	7.42e-01	0	56	104	0	61	13553
2026-01-05 05:47:37.74	12.49	16.82	-48.9	-60.5	3.8	7.45e-01	0	55	104	0	61	13379
2026-01-05 05:47:38.73	12.26	16.88	-48.9	-60.6	3.8	7.44e-01	0	55	104	0	61	13454
2026-01-05 05:47:39.71	12.04	16.94	-49.0	-60.6	3.8	7.44e-01	0	55	104	0	61	13537
2026-01-05 05:47:40.71	11.81	17.00	-49.2	-60.9	3.8	7.44e-01	0	55	104	0	61	14038
2026-01-05 05:47:41.70	11.57	17.06	-49.5	-61.5	3.8	7.43e-01	0	55	104	0	61	14905
2026-01-05 05:47:42.69	11.34	17.11	-49.8	-62.0	3.8	7.45e-01	0	55	104	0	61	15841
2026-01-05 05:47:43.68	11.11	17.17	-50.1	-62.4	3.8	7.43e-01	0	56	104	0	62	15590
2026-01-05 05:47:44.67	10.88	17.23	-50.2	-62.6	3.8	7.46e-01	0	55	104	0	62	16082
2026-01-05 05:47:45.65	10.64	17.29	-50.4	-62.9	3.8	7.45e-01	0	55	104	0	63	15720
2026-01-05 05:47:46.65	10.41	17.35	-50.7	-63.3	3.8	7.46e-01	0	56	104	0	63	16495
2026-01-05 05:47:47.64	10.17	17.40	-51.0	-64.0	3.8	7.42e-01	0	55	104	0	64	16724
2026-01-05 05:47:48.62	9.94	17.46	-51.3	-64.5	3.8	7.45e-01	0	56	104	0	64	17847
2026-01-05 05:47:49.61	9.70	17.52	-51.2	-64.4	3.8	7.44e-01	0	55	104	0	65	16596
2026-01-05 05:47:50.60	9.46	17.57	-51.1	-64.2	3.8	7.45e-01	0	55	104	0	65	16158
2026-01-05 05:47:51.59	9.22	17.63	-50.9	-63.9	3.8	7.42e-01	0	56	104	0	65	15648
2026-01-05 05:47:52.57	8.98	17.68	-50.9	-63.7	3.8	7.46e-01	0	56	104	0	65	15354
2026-01-05 05:47:53.56	8.74	17.74	-50.8	-63.6	3.8	7.46e-01	0	55	104	0	65	15101
2026-01-05 05:47:54.56	8.49	17.80	-51.0	-64.0	3.8	7.43e-01	0	56	104	0	65	15888
2026-01-05 05:47:55.55	8.25	17.85	-51.4	-64.8	3.8	7.45e-01	0	56	104	0	65	17328
2026-01-05 05:47:56.54	8.00	17.90	-51.9	-65.9	3.8	7.43e-01	0	56	104	0	65	19670
2026-01-05 05:47:57.53	7.75	17.96	-52.4	-67.1	3.8	7.44e-01	0	56	104	0	66	21430
2026-01-05 05:47:58.52	7.51	18.01	-52.7	-68.2	3.8	7.44e-01	0	56	104	0	67	22997
2026-01-05 05:47:59.51	7.26	18.06	-52.7	-68.2	3.8	7.45e-01	0	55	104	0	67	23015
2026-01-05 05:48:00.50	7.01	18.12	-52.3	-67.0	3.8	7.45e-01	0	56	104	0	67	20059
2026-01-05 05:48:01.50	6.76	18.17	-52.0	-66.4	3.8	7.44e-01	0	56	104	0	67	18561
2026-01-05 05:48:02.49	6.51	18.22	-51.8	-66.5	3.8	7.46e-01	0	56	104	0	67	18801
2026-01-05 05:48:03.47	6.26	18.27	-51.7	-66.6	3.8	7.44e-01	0	56	104	0	67	19033
2026-01-05 05:48:04.46	6.01	18.32	-51.6	-66.7	3.8	7.46e-01	0	56	104	0	66	20466
2026-01-05 05:48:05.45	5.75	18.37	-51.7	-67.4	3.8	7.46e-01	0	56	104	0	66	22034
2026-01-05 05:48:06.44	5.50	18.42	-51.7	-68.5	3.8	7.50e-01	0	56	104	0	66	25132
2026-01-05 05:48:07.42	5.25	18.47	-51.4	-69.5	3.8	7.45e-01	0	56	104	0	66	28275
2026-01-05 05:48:08.41	4.99	18.52	-51.3	-70.2	3.8	7.47e-01	0	56	104	0	66	30487
2026-01-05 05:48:09.40	4.73	18.57	-51.1	-70.2	3.8	7.46e-01	0	56	104	0	65	32397
2026-01-05 05:48:10.39	4.48	18.62	-51.0	-69.4	3.8	7.44e-01	0	56	104	0	65	29398
2026-01-05 05:48:11.37	4.22	18.66	-50.7	-68.4	3.8	7.46e-01	0	56	104	0	65	26266
2026-01-05 05:48:12.35	3.96	18.71	-50.5	-68.1	3.8	7.44e-01	0	56	104	0	64	26999
2026-01-05 05:48:13.34	3.70	18.76	-50.4	-68.3	3.8	7.51e-01	0	56	104	0	64	27506
2026-01-05 05:48:14.33	3.44	18.80	-50.4	-68.8	3.8	7.43e-01	0	56	104	0	64	29172
2026-01-05 05:48:15.32	3.18	18.85	-50.5	-69.1	3.8	7.44e-01	0	56	104	0	64	30319
2026-01-05 05:48:16.31	2.92	18.89	-50.7	-69.1	3.8	7.45e-01	0	56	104	0	64	30252
2026-01-05 05:48:17.30	2.65	18.94	-50.8	-68.5	3.8	7.46e-01	0	56	104	0	64	28268
2026-01-05 05:48:18.29	2.39	18.98	-50.9	-67.4	3.8	7.44e-01	0	56	104	0	64	24703
2026-01-05 05:48:19.29	2.12	19.03	-50.9	-66.1	3.8	7.44e-01	0	56	104	0	64	21443
2026-01-05 05:48:20.29	1.85	19.07	-50.6	-64.3	3.8	7.44e-01	0	56	104	0	64	17455
2026-01-05 05:48:21.27	1.59	19.11	-50.1	-62.8	3.8	7.46e-01	0	56	104	0	63	15466
2026-01-05 05:48:22.26	1.32	19.15	-49.5	-61.5	3.8	7.44e-01	0	56	104	0	62	14199
2026-01-05 05:48:23.26	1.05	19.20	-49.1	-60.9	3.8	7.42e-01	0	56	104	0	61	14009
2026-01-05 05:48:24.24	0.78	19.24	-49.0	-60.8	3.8	7.47e-01	0	56	104	0	61	13794
2026-01-05 05:48:25.23	0.51	19.28	-49.1	-60.9	3.8	7.47e-01	0	56	104	0	61	14005
2026-01-05 05:48:26.22	0.24	19.32	-49.4	-61.4	3.8	7.45e-01	0	56	104	0	61	14720
2026-01-05 05:48:27.22	359.97	19.36	-49.4	-61.3	3.8	7.45e-01	0	56	104	0	61	14696
2026-01-05 05:48:28.20	359.70	19.39	-49.4	-61.4	3.8	7.41e-01	0	56	104	0	61	14819
2026-01-05 05:48:29.19	359.42	19.43	-49.5	-61.4	3.9	7.47e-01	0	56	104	0	61	14863
2026-01-05 05:48:30.17	359.15	19.47	-49.7	-61.8	3.8	7.41e-01	0	56	104	0	61	15430
2026-01-05 05:48:31.15	358.88	19.51	-50.0	-62.2	3.8	7.43e-01	0	56	104	0	62	15282
2026-01-05 05:48:32.14	358.61	19.54	-50.4	-62.8	3.8	7.46e-01	0	56	104	0	62	16436
2026-01-05 05:48:33.14	358.33	19.58	-50.5	-63.1	3.8	7.44e-01	0	56	104	0	63	16005
2026-01-05 05:48:34.13	358.05	19.61	-50.7	-63.4	3.8	7.43e-01	0	56	104	0	63	16631
2026-01-05 05:48:35.13	357.77	19.65	-50.9	-63.7	3.8	7.47e-01	0	56	104	0	64	16296
2026-01-05 05:48:36.12	357.49	19.68	-51.2	-64.4	3.8	7.46e-01	0	56	104	0	64	17523
2026-01-05 05:48:37.11	357.21	19.71	-51.6	-65.1	3.8	7.43e-01	0	56	104	0	65	17998
2026-01-05 05:48:38.10	356.94	19.75	-52.0	-66.1	3.8	7.47e-01	0	56	104	0	66	19105
2026-01-05 05:48:39.09	356.66	19.78	-52.2	-66.6	3.8	7.43e-01	0	56	104	0	66	20269
2026-01-05 05:48:40.09	356.37	19.81	-52.0	-66.1	3.8	7.40e-01	0	56	104	0	66	19024
2026-01-05 05:48:41.07	356.09	19.84	-51.8	-65.6	3.8	7.43e-01	0	56	104	0	66	17966
2026-01-05 05:48:42.06	355.81	19.87	-51.7	-65.3	3.8	7.44e-01	0	56	104	0	66	17407
2026-01-05 05:48:43.05	355.53	19.90	-51.5	-65.1	3.8	7.43e-01	0	56	104	0	66	16926
2026-01-05 05:48:44.04	355.25	19.93	-51.5	-65.0	3.8	7.46e-01	0	56	104	0	66	16748
2026-01-05 05:48:45.03	354.96	19.96	-51.9	-65.8	3.8	7.43e-01	0	56	104	0	66	18318
2026-01-05 05:48:46.02	354.68	19.98	-52.3	-66.8	3.8	7.45e-01	0	56	104	0	66	20773
2026-01-05 05:48:47.01	354.40	20.01	-52.7	-68.1	3.8	7.45e-01	0	56	104	0	67	22613
2026-01-05 05:48:48.00	354.11	20.04	-52.4	-67.2	3.8	7.45e-01	0	56	104	0	67	20526
2026-01-05 05:48:48.99	353.83	20.06	-52.0	-66.0	3.8	7.46e-01	0	56	104	0	67	17856
2026-01-05 05:48:49.98	353.54	20.09	-51.5	-65.0	3.8	7.45e-01	0	56	104	0	66	16724
2026-01-05 05:48:50.96	353.26	20.11	-50.9	-63.9	3.8	7.48e-01	0	56	104	0	65	15613
2026-01-05 05:48:51.95	352.97	20.13	-50.9	-63.8	3.8	7.44e-01	0	56	104	0	65	15496
2026-01-05 05:48:52.95	352.68	20.16	-50.9	-63.9	3.8	7.44e-01	0	56	104	0	65	15710
2026-01-05 05:48:53.94	352.39	20.18	-51.1	-64.1	3.8	7.42e-01	0	56	104	0	65	16012
2026-01-05 05:48:54.92	352.11	20.20	-51.2	-64.4	3.8	7.45e-01	0	56	104	0	65	16586
2026-01-05 05:48:55.92	351.82	20.22	-51.3	-64.6	3.8	7.44e-01	0	56	104	0	65	17036
2026-01-05 05:48:56.91	351.53	20.24	-51.5	-65.1	3.8	7.43e-01	0	56	104	0	65	18024
2026-01-05 05:48:57.90	351.24	20.26	-51.3	-64.7	3.8	7.41e-01	0	56	104	0	65	17103
2026-01-05 05:48:58.89	350.95	20.27	-50.9	-64.0	3.8	7.44e-01	0	56	104	0	65	15876
2026-01-05 05:48:59.87	350.66	20.29	-50.5	-63.2	3.8	7.43e-01	0	56	104	0	64	15275
2026-01-05 05:49:00.86	350.37	20.31	-50.2	-62.5	3.8	7.46e-01	0	56	104	0	64	14139
2026-01-05 05:49:01.85	350.08	20.32	-50.1	-62.4	3.8	7.45e-01	0	56	104	0	63	14769
2026-01-05 05:49:02.84	349.79	20.34	-49.9	-62.1	3.8	7.44e-01	0	56	104	0	63	14275
2026-01-05 05:49:03.83	349.50	20.35	-50.1	-62.4	3.8	7.43e-01	0	56	104	0	63	14721
2026-01-05 05:49:04.82	349.21	20.37	-49.9	-62.1	3.8	7.39e-01	0	56	104	0	63	14252
2026-01-05 05:49:05.81	348.91	20.38	-49.5	-61.5	3.8	7.45e-01	0	56	104	0	62	14096
2026-01-05 05:49:06.80	348.62	20.39	-49.4	-61.3	3.8	7.38e-01	0	56	104	0	62	13784
2026-01-05 05:49:07.79	348.33	20.40	-49.1	-60.9	3.8	7.44e-01	0	56	104	0	61	13915
2026-01-05 05:49:08.78	348.04	20.42	-48.9	-60.7	3.8	7.48e-01	0	56	104	0	61	13613
2026-01-05 05:49:09.76	347.75	20.43	-49.3	-61.2	3.8	7.44e-01	0	56	104	0	61	14519
2026-01-05 05:49:10.76	347.45	20.43	-49.8	-62.1	3.8	7.45e-01	0	56	104	0	61	16105
2026-01-05 05:49:11.74	347.16	20.44	-50.0	-62.6	3.8	7.46e-01	0	56	104	0	62	16015
2026-01-05 05:49:12.73	346.87	20.45	-50.1	-62.6	3.8	7.43e-01	0	56	104	0	62	16030
2026-01-05 05:49:13.72	346.57	20.46	-50.1	-62.5	3.8	7.42e-01	0	56	104	0	62	15851
2026-01-05 05:49:14.71	346.28	20.46	-49.8	-62.0	3.8	7.44e-01	0	56	104	0	62	14904
2026-01-05 05:49:15.71	345.98	20.47	-49.9	-62.1	3.8	7.44e-01	0	56	104	0	62	15143
2026-01-05 05:49:16.69	345.69	20.47	-50.0	-62.3	3.8	7.47e-01	0	56	104	0	62	15422
2026-01-05 05:49:17.68	345.40	20.48	-50.1	-62.5	3.8	7.43e-01	0	56	104	0	62	15919
2026-01-05 05:49:18.67	345.10	20.48	-50.3	-62.6	3.8	7.46e-01	0	56	104	0	62	16070
2026-01-05 05:49:19.66	344.81	20.48	-50.4	-62.9	3.9	7.42e-01	0	56	104	0	63	15620
2026-01-05 05:49:20.65	344.52	20.49	-50.6	-63.2	3.8	7.44e-01	0	56	104	0	63	16240
2026-01-05 05:49:21.64	344.22	20.49	-50.8	-63.7	3.9	7.48e-01	0	56	104	0	64	16262
2026-01-05 05:49:22.63	343.93	20.49	-51.0	-64.1	3.8	7.47e-01	0	56	104	0	64	16929
2026-01-05 05:49:23.62	343.63	20.49	-51.2	-64.4	3.8	7.45e-01	0	56	104	0	64	17644
2026-01-05 05:49:24.61	343.34	20.48	-51.4	-64.9	3.8	7.44e-01	0	56	104	0	65	17558
2026-01-05 05:49:25.60	343.04	20.48	-51.7	-65.5	3.8	7.43e-01	0	56	104	0	65	18836
2026-01-05 05:49:26.59	342.75	20.48	-52.1	-66.4	3.8	7.46e-01	0	56	104	0	66	19767
2026-01-05 05:49:27.57	342.46	20.48	-52.5	-67.5	3.8	7.47e-01	0	56	104	0	67	21146
2026-01-05 05:49:28.56	342.17	20.47	-52.8	-68.3	3.8	7.42e-01	0	56	104	0	67	23198
2026-01-05 05:49:29.54	341.87	20.47	-52.8	-68.2	3.8	7.45e-01	0	56	104	0	67	22821
2026-01-05 05:49:30.54	341.58	20.46	-52.6	-67.6	3.8	7.44e-01	0	56	104	0	67	21452
2026-01-05 05:49:31.53	341.28	20.45	-52.5	-67.4	3.8	7.48e-01	0	56	104	0	67	20938
2026-01-05 05:49:32.52	340.99	20.45	-52.4	-67.2	3.8	7.47e-01	0	56	104	0	67	20501
2026-01-05 05:49:33.50	340.70	20.44	-52.3	-66.9	3.8	7.43e-01	0	56	104	0	67	19742
2026-01-05 05:49:34.49	340.41	20.43	-52.4	-67.3	3.8	7.43e-01	0	56	104	0	67	20603
2026-01-05 05:49:35.47	340.12	20.42	-52.6	-68.0	3.8	7.43e-01	0	56	104	0	67	22329
2026-01-05 05:49:36.47	339.82	20.41	-52.3	-67.1	3.8	7.46e-01	0	56	104	0	67	20201
2026-01-05 05:49:37.46	339.53	20.40	-52.0	-66.4	3.8	7.44e-01	0	56	104	0	67	18664
2026-01-05 05:49:38.44	339.24	20.39	-51.7	-65.8	3.8	7.43e-01	0	56	104	0	67	17340
2026-01-05 05:49:39.43	338.95	20.37	-51.5	-65.5	3.8	7.46e-01	0	56	104	0	66	17767
2026-01-05 05:49:40.42	338.66	20.36	-51.4	-65.2	3.8	7.42e-01	0	56	104	0	66	17206
2026-01-05 05:49:41.41	338.36	20.35	-51.1	-64.8	3.8	7.45e-01	0	56	104	0	65	17400
2026-01-05 05:49:42.40	338.07	20.33	-51.0	-64.4	3.8	7.43e-01	0	56	104	0	65	16651
2026-01-05 05:49:43.38	337.79	20.31	-51.2	-65.0	3.8	7.43e-01	0	56	104	0	65	17878
2026-01-05 05:49:44.37	337.49	20.30	-51.3	-65.4	3.8	7.41e-01	0	57	104	0	65	18720
2026-01-05 05:49:45.36	337.20	20.28	-51.3	-65.4	3.8	7.43e-01	0	56	104	0	65	18689
2026-01-05 05:49:46.35	336.91	20.26	-51.3	-65.4	3.8	7.48e-01	0	56	104	0	65	18668
2026-01-05 05:49:47.34	336.62	20.24	-51.1	-64.8	3.8	7.42e-01	0	56	104	0	65	17325
2026-01-05 05:49:48.34	336.33	20.23	-50.6	-63.7	3.8	7.44e-01	0	56	104	0	64	16211
2026-01-05 05:49:49.33	336.04	20.21	-50.3	-63.3	3.8	7.43e-01	0	56	104	0	64	15577
2026-01-05 05:49:50.32	335.76	20.18	-50.0	-62.6	3.8	7.44e-01	0	56	104	0	63	15135
2026-01-05 05:49:51.31	335.47	20.16	-49.7	-61.8	3.9	7.42e-01	0	56	104	0	62	14689
2026-01-05 05:49:52.30	335.18	20.14	-49.6	-61.8	3.8	7.46e-01	0	56	104	0	62	14695
2026-01-05 05:49:53.29	334.89	20.12	-49.5	-61.7	3.8	7.44e-01	0	56	104	0	62	14476
2026-01-05 05:49:54.28	334.61	20.09	-49.6	-61.8	3.8	7.44e-01	0	56	104	0	62	14641
2026-01-05 05:49:55.27	334.32	20.07	-49.2	-61.1	3.8	7.44e-01	0	57	104	0	62	13525
2026-01-05 05:49:56.26	334.03	20.05	-48.8	-60.6	3.8	7.45e-01	0	56	104	0	61	13484
2026-01-05 05:49:57.24	333.75	20.02	-48.5	-60.0	3.8	7.45e-01	0	56	104	0	60	13279
2026-01-05 05:49:58.23	333.47	19.99	-48.5	-60.1	3.8	7.43e-01	0	57	104	0	60	13567
2026-01-05 05:49:59.22	333.18	19.97	-48.8	-60.6	3.8	7.44e-01	0	56	104	0	60	14292
2026-01-05 05:50:00.21	332.90	19.94	-49.0	-60.6	3.8	7.48e-01	0	56	104	0	60	14352
2026-01-05 05:50:01.20	332.62	19.91	-49.2	-61.0	3.8	7.45e-01	0	56	104	0	60	14987
2026-01-05 05:50:02.19	332.33	19.88	-49.3	-61.3	3.8	7.47e-01	0	56	104	0	60	15457
2026-01-05 05:50:03.18	332.05	19.85	-49.4	-61.1	3.8	7.42e-01	0	56	104	0	61	14281
2026-01-05 05:50:04.18	331.77	19.82	-49.7	-61.8	3.8	7.44e-01	0	56	104	0	61	15411
2026-01-05 05:50:05.17	331.49	19.79	-49.9	-62.3	3.8	7.43e-01	0	56	104	0	61	16324
2026-01-05 05:50:06.15	331.21	19.76	-50.0	-61.9	3.8	7.43e-01	0	56	104	0	62	14822
2026-01-05 05:50:07.15	330.93	19.73	-50.1	-62.1	3.8	7.46e-01	0	56	104	0	62	15223
2026-01-05 05:50:08.13	330.65	19.69	-50.3	-63.0	3.8	7.45e-01	0	57	104	0	62	16757
2026-01-05 05:50:09.12	330.37	19.66	-50.5	-63.0	3.8	7.43e-01	0	57	104	0	63	15922
2026-01-05 05:50:10.11	330.10	19.63	-50.7	-63.0	3.8	7.45e-01	0	56	104	0	63	15768
2026-01-05 05:50:11.10	329.82	19.59	-50.9	-63.8	3.8	7.44e-01	0	56	104	0	64	16492
2026-01-05 05:50:12.09	329.54	19.56	-51.2	-64.4	3.8	7.41e-01	0	56	104	0	64	17595
2026-01-05 05:50:13.08	329.27	19.52	-51.4	-64.5	3.8	7.46e-01	0	57	104	0	65	16770
2026-01-05 05:50:14.07	328.99	19.48	-51.7	-65.6	3.8	7.45e-01	0	57	104	0	65	18950
2026-01-05 05:50:15.05	328.72	19.45	-52.1	-65.8	3.8	7.40e-01	0	56	104	0	66	18475
2026-01-05 05:50:16.04	328.45	19.41	-52.5	-67.3	3.8	7.46e-01	0	56	104	0	67	20542
2026-01-05 05:50:17.03	328.17	19.37	-52.8	-68.4	3.8	7.47e-01	0	56	104	0	67	23533
2026-01-05 05:50:18.02	327.90	19.33	-52.5	-66.6	3.8	7.45e-01	0	56	104	0	67	19009
2026-01-05 05:50:19.01	327.63	19.29	-52.7	-68.1	3.8	7.46e-01	0	56	104	0	67	22574
2026-01-05 05:50:20.00	327.36	19.25	-52.5	-67.1	3.8	7.44e-01	0	56	104	0	67	20265
2026-01-05 05:50:20.99	327.09	19.21	-52.2	-66.1	3.8	7.45e-01	0	56	104	0	67	18005
2026-01-05 05:50:21.98	326.82	19.17	-52.0	-66.4	3.8	7.46e-01	0	56	104	0	67	18717
2026-01-05 05:50:22.97	326.55	19.13	-51.8	-64.8	3.8	7.44e-01	0	56	104	0	67	15510
2026-01-05 05:50:23.96	326.29	19.09	-51.6	-65.5	3.8	7.44e-01	0	56	104	0	66	17703
2026-01-05 05:50:24.95	326.02	19.04	-51.2	-64.9	3.8	7.41e-01	0	56	104	0	66	16654
2026-01-05 05:50:25.93	325.76	19.00	-50.7	-62.5	3.8	7.45e-01	0	57	104	0	65	13356
2026-01-05 05:50:26.92	325.49	18.96	-50.4	-63.0	3.8	7.47e-01	0	56	104	0	64	14901
2026-01-05 05:50:27.90	325.23	18.91	-50.2	-62.7	3.8	7.43e-01	0	57	104	0	63	15337
2026-01-05 05:50:28.89	324.97	18.87	-49.9	-62.3	3.8	7.44e-01	0	56	104	0	63	14544
2026-01-05 05:50:29.87	324.71	18.82	-49.8	-61.5	3.8	7.45e-01	0	56	104	0	63	13363
2026-01-05 05:50:30.86	324.44	18.78	-49.6	-60.9	3.8	7.42e-01	0	57	104	0	62	13231
2026-01-05 05:50:31.85	324.18	18.73	-49.5	-62.4	3.8	7.43e-01	0	56	104	0	62	15583
2026-01-05 05:50:32.84	323.92	18.68	-49.2	-61.0	3.8	7.45e-01	0	56	104	0	62	13270
2026-01-05 05:50:33.83	323.66	18.64	-49.1	-60.4	3.8	7.41e-01	0	56	104	0	61	13209
2026-01-05 05:50:34.82	323.41	18.59	-49.1	-60.9	3.8	7.46e-01	0	57	104	0	61	13915
2026-01-05 05:50:35.81	323.15	18.54	-49.1	-60.7	3.8	7.48e-01	0	56	104	0	61	13574
2026-01-05 05:50:36.80	322.89	18.49	-49.3	-61.6	3.8	7.43e-01	0	56	104	0	61	15224
2026-01-05 05:50:37.79	322.64	18.44	-49.2	-60.3	3.8	7.44e-01	0	56	104	0	61	13044
2026-01-05 05:50:38.77	322.38	18.39	-49.1	-61.0	3.9	7.43e-01	0	56	104	0	61	14150
2026-01-05 05:50:39.77	322.13	18.34	-49.0	-60.8	3.8	7.48e-01	0	56	104	0	61	13881
2026-01-05 05:50:40.76	321.87	18.29	-49.1	-60.7	3.8	7.46e-01	0	57	104	0	61	13714
2026-01-05 05:50:41.75	321.62	18.24	-48.6	-50.7	21.2	6.03e-01	0	57	0	0	60	4557
2026-01-05 05:50:42.75	321.37	18.19	-48.9	-51.0	21.6	6.04e-01	0	57	0	1572864	60	4742
2026-01-05 05:50:43.74	321.12	18.14	-48.6	-50.6	22.2	6.03e-01	0	56	0	3670016	60	4502
2026-01-05 05:50:44.73	320.87	18.08	-48.7	-50.7	21.9	6.02e-01	0	56	0	5767168	60	4595
2026-01-05 05:50:45.71	320.62	18.03	-49.1	-51.3	21.5	6.01e-01	0	56	0	7340032	60	4906
2026-01-05 05:50:46.71	320.37	17.98	-48.8	-50.9	21.8	5.99e-01	0	56	0	9437184	60	4697
2026-01-05 05:50:47.70	320.13	17.92	-49.1	-51.4	21.4	6.04e-01	0	56	0	11010048	60	4956
2026-01-05 05:50:48.68	319.88	17.87	-48.7	-50.7	22.0	6.04e-01	0	56	0	13107200	60	4566
2026-01-05 05:50:49.67	319.64	17.82	-48.9	-51.1	21.6	6.05e-01	0	56	0	14680064	60	4778
2026-01-05 05:50:50.66	319.39	17.76	-48.7	-50.8	22.0	6.05e-01	0	56	0	16777216	60	4615
2026-01-05 05:50:51.66	319.15	17.70	-49.0	-51.2	21.6	6.01e-01	0	56	0	18350080	60	4837
2026-01-05 05:50:52.65	318.91	17.65	-48.8	-50.8	21.8	6.03e-01	0	56	0	20447232	60	4648
2026-01-05 05:50:53.64	318.67	17.59	-49.0	-51.2	21.6	6.02e-01	0	57	0	22020096	60	4842
2026-01-05 05:50:54.63	318.43	17.54	-48.6	-50.7	22.1	6.02e-01	0	56	0	24117248	60	4552
2026-01-05 05:50:55.62	318.19	17.48	-49.2	-51.6	21.2	6.05e-01	0	57	0	26214400	60	5063
2026-01-05 05:50:56.61	317.95	17.42	-48.6	-50.5	22.2	6.02e-01	0	57	0	27787264	60	4486
2026-01-05 05:50:57.60	317.71	17.37	-49.0	-51.2	21.5	6.04e-01	0	56	0	29360128	60	4851
2026-01-05 05:50:58.59	317.48	17.31	-48.5	-50.5	22.2	6.04e-01	0	56	0	31457280	60	4476
2026-01-05 05:50:59.58	317.24	17.25	-48.8	-50.9	21.7	6.05e-01	0	57	0	33554432	60	4691
2026-01-05 05:51:00.56	317.01	17.19	-48.8	-50.9	21.8	6.02e-01	0	57	0	35127296	60	4699
2026-01-05 05:51:01.56	316.77	17.13	-48.4	-50.4	22.3	6.04e-01	0	56	0	37224448	60	4396
2026-01-05 05:51:02.54	316.54	17.08	-48.8	-50.9	21.3	6.04e-01	0	57	0	38797312	60	4662
2026-01-05 05:51:03.53	316.31	17.02	-48.4	-50.3	22.4	6.04e-01	0	57	0	40894464	60	4375
2026-01-05 05:51:04.52	316.08	16.96	-48.8	-50.9	21.8	6.05e-01	0	57	0	42467328	60	4700
2026-01-05 05:51:05.50	315.85	16.90	-48.2	-50.1	22.6	6.03e-01	0	57	0	44564480	60	4282
2026-01-05 05:51:06.49	315.63	16.84	-48.9	-51.1	21.4	6.02e-01	0	57	0	46137344	60	4810
2026-01-05 05:51:07.48	315.40	16.78	-48.6	-50.5	22.5	6.02e-01	0	56	0	48234496	59	4741
2026-01-05 05:51:08.47	315.17	16.72	-48.7	-50.8	21.5	6.03e-01	0	57	0	49807360	60	4648
2026-01-05 05:51:09.47	314.94	16.66	-48.7	-50.6	22.4	6.02e-01	0	56	0	51904512	59	4810
2026-01-05 05:51:10.46	314.72	16.60	-48.6	-50.7	21.8	6.03e-01	0	56	0	53477376	60	4547
2026-01-05 05:51:11.44	314.50	16.53	-48.5	-50.4	22.6	6.02e-01	0	57	0	55574528	59	4692
2026-01-05 05:51:12.43	314.28	16.47	-48.4	-50.4	22.1	6.04e-01	0	56	0	57671680	60	4427
2026-01-05 05:51:13.41	314.06	16.41	-48.8	-50.9	22.1	6.05e-01	0	57	0	59244544	59	4940
2026-01-05 05:51:14.41	313.83	16.35	-48.6	-50.7	21.9	6.02e-01	0	56	0	61341696	60	4549
2026-01-05 05:51:15.39	313.62	16.29	-48.7	-50.8	21.9	6.04e-01	0	57	0	62914560	60	4628
2026-01-05 05:51:16.38	313.40	16.22	-48.5	-50.4	22.1	6.03e-01	0	57	0	65011712	60	4434
2026-01-05 05:51:17.37	313.18	16.16	-48.8	-50.8	22.2	6.04e-01	0	57	0	66584576	59	4924
2026-01-05 05:51:18.36	312.96	16.10	-48.5	-50.4	22.1	6.01e-01	0	57	0	68681728	60	4435
2026-01-05 05:51:19.35	312.75	16.04	-48.8	-50.9	22.2	6.04e-01	0	56	0	70254592	59	4938
2026-01-05 05:51:20.34	312.53	15.97	-48.6	-50.6	22.0	6.03e-01	0	57	0	72351744	60	4524
2026-01-05 05:51:21.34	312.32	15.91	-48.8	-50.9	22.2	6.02e-01	0	56	0	73924608	59	4932
2026-01-05 05:51:22.32	312.11	15.84	-48.5	-50.5	22.0	6.01e-01	0	57	0	76021760	60	4484
2026-01-05 05:51:23.31	311.89	15.78	-48.7	-50.6	22.4	6.03e-01	0	57	0	78118912	59	4810
2026-01-05 05:51:24.30	311.68	15.72	-48.8	-51.0	21.6	6.01e-01	0	56	0	79691776	60	4732
2026-01-05 05:51:25.29	311.47	15.65	-48.3	-50.2	22.4	6.02e-01	0	57	0	81788928	60	4307
2026-01-05 05:51:26.28	311.26	15.59	-48.9	-51.1	21.6	6.04e-01	0	57	0	83361792	60	4786
2026-01-05 05:51:27.27	311.06	15.52	-48.4	-50.4	22.2	6.04e-01	0	57	0	85458944	60	4425
2026-01-05 05:51:28.26	310.85	15.46	-48.7	-50.8	21.9	6.04e-01	0	57	0	87031808	60	4634
2026-01-05 05:51:29.25	310.64	15.39	-48.7	-50.8	21.9	6.01e-01	0	57	0	89128960	60	4623
2026-01-05 05:51:30.23	310.44	15.33	-48.6	-50.6	22.1	6.03e-01	0	57	0	90701824	60	4532
2026-01-05 05:51:31.23	310.23	15.26	-48.5	-50.5	22.1	6.01e-01	0	57	0	92798976	60	4489
2026-01-05 05:51:32.22	310.03	15.20	-48.7	-50.9	21.9	6.03e-01	0	57	0	94371840	60	4653
2026-01-05 05:51:33.21	309.83	15.13	-48.9	-51.1	21.6	6.04e-01	0	56	0	96468992	60	4770
2026-01-05 05:51:34.20	309.63	15.06	-48.9	-51.1	21.6	6.02e-01	0	57	0	98041856	60	4794
2026-01-05 05:51:35.19	309.43	15.00	-48.9	-51.2	21.5	6.01e-01	0	56	0	100139008	60	4831
2026-01-05 05:51:36.18	309.23	14.93	-48.8	-50.9	21.8	6.04e-01	0	57	0	102236160	60	4670
2026-01-05 05:51:37.17	309.03	14.87	-48.9	-51.1	21.6	6.03e-01	0	57	0	103809024	60	4791
2026-01-05 05:51:38.16	308.83	14.80	-48.6	-50.6	22.0	6.05e-01	0	57	0	105906176	60	4533
2026-01-05 05:51:39.15	308.64	14.73	-48.9	-51.1	21.6	6.03e-01	0	57	0	107479040	60	4773
2026-01-05 05:51:40.13	308.44	14.67	-49.1	-51.3	21.3	6.02e-01	0	57	0	109576192	60	4925
2026-01-05 05:51:41.13	308.25	14.60	-48.5	-50.5	22.1	6.02e-01	0	57	0	111149056	60	4491
2026-01-05 05:51:42.11	308.05	14.53	-48.9	-51.1	21.6	6.04e-01	0	57	0	113246208	60	4775
2026-01-05 05:51:43.10	307.86	14.47	-48.9	-51.2	21.4	6.02e-01	0	57	0	114819072	60	4821
2026-01-05 05:51:44.09	307.67	14.40	-48.3	-50.2	22.4	6.03e-01	0	57	0	116916224	60	4297
2026-01-05 05:51:45.07	307.48	14.33	-48.9	-51.1	21.5	6.03e-01	0	57	0	118489088	60	4795
2026-01-05 05:51:46.06	307.29	14.27	-48.7	-50.8	21.8	6.03e-01	0	57	0	120586240	60	4627
2026-01-05 05:51:47.05	307.10	14.20	-48.3	-50.3	22.3	6.04e-01	0	57	0	122159104	60	4353
2026-01-05 05:51:48.04	306.91	14.13	-48.5	-50.5	22.2	6.01e-01	0	57	0	124256256	60	4472
2026-01-05 05:51:49.03	306.73	14.06	-48.6	-50.7	21.9	6.04e-01	0	57	0	125829120	60	4581
2026-01-05 05:51:50.03	306.54	14.00	-48.6	-50.6	22.0	6.04e-01	0	57	0	127926272	60	4545
2026-01-05 05:51:51.02	306.35	13.93	-48.7	-50.8	21.9	6.02e-01	0	57	0	130023424	60	4617
2026-01-05 05:51:52.02	306.17	13.86	-48.8	-50.9	21.7	6.04e-01	0	57	0	131596288	60	4697
2026-01-05 05:51:53.01	305.98	13.79	-48.5	-50.6	22.1	6.03e-01	0	57	0	133693440	60	4501
2026-01-05 05:51:54.00	305.80	13.72	-48.7	-50.9	21.8	6.03e-01	0	57	0	135266304	60	4672
2026-01-05 05:51:54.99	305.62	13.66	-48.7	-50.8	21.8	6.02e-01	0	57	0	137363456	60	4603
2026-01-05 05:51:55.98	305.44	13.59	-48.5	-50.5	22.1	6.02e-01	0	57	0	138936320	60	4481
2026-01-05 05:51:56.96	305.26	13.52	-48.9	-51.1	21.5	6.02e-01	0	57	0	141033472	60	4779
2026-01-05 05:51:57.95	305.08	13.45	-49.1	-51.4	21.3	6.03e-01	0	57	0	142606336	60	4963
2026-01-05 05:51:58.94	304.91	13.38	-48.9	-51.1	21.5	6.04e-01	0	57	0	144703488	60	4769
2026-01-05 05:51:59.94	304.73	13.31	-48.7	-50.7	21.9	6.02e-01	0	57	0	146276352	60	4598
2026-01-05 05:52:00.93	304.55	13.25	-49.0	-51.3	21.3	6.02e-01	0	57	0	148373504	60	4896
2026-01-05 05:52:01.91	304.38	13.18	-49.2	-51.5	21.1	6.02e-01	0	57	0	150470656	60	5022
2026-01-05 05:52:02.90	304.20	13.11	-49.0	-51.3	21.4	6.02e-01	0	57	0	152043520	60	4881
2026-01-05 05:52:03.89	304.03	13.04	-49.2	-51.6	21.1	6.03e-01	0	57	0	154140672	60	5059
2026-01-05 05:52:04.89	303.85	12.97	-49.3	-51.8	20.8	6.04e-01	0	56	0	155713536	60	5187
2026-01-05 05:52:05.87	303.68	12.91	-48.8	-50.9	21.5	6.04e-01	0	57	0	157810688	60	4704
2026-01-05 05:52:06.86	303.51	12.84	-48.4	-50.4	22.1	6.03e-01	0	57	0	159383552	60	4427
2026-01-05 05:52:07.85	303.34	12.77	-48.6	-50.7	21.8	6.05e-01	0	57	0	161480704	60	4582
2026-01-05 05:52:08.84	303.17	12.70	-48.8	-51.1	21.5	6.02e-01	0	57	0	163053568	60	4773
2026-01-05 05:52:09.83	303.01	12.63	-48.8	-50.9	21.6	6.03e-01	0	57	0	165150720	60	4700
2026-01-05 05:52:10.83	302.84	12.56	-48.7	-50.8	21.8	6.03e-01	0	57	0	166723584	60	4631
2026-01-05 05:52:11.81	302.67	12.49	-48.8	-51.1	21.5	6.02e-01	0	57	0	168820736	60	4762
2026-01-05 05:52:12.80	302.51	12.43	-48.9	-51.2	21.3	6.05e-01	0	57	0	170393600	60	4849
2026-01-05 05:52:13.78	302.34	12.36	-48.9	-51.2	21.3	6.01e-01	0	57	0	172490752	60	4825
2026-01-05 05:52:14.78	302.18	12.29	-48.6	-50.7	21.7	6.02e-01	0	57	0	174587904	60	4585
2026-01-05 05:52:15.77	302.01	12.22	-48.6	-50.8	21.7	6.02e-01	0	57	0	176160768	60	4610
2026-01-05 05:52:16.76	301.85	12.15	-48.8	-51.0	21.4	6.02e-01	0	57	0	178257920	60	4739
2026-01-05 05:52:17.75	301.69	12.08	-48.7	-51.0	21.4	6.03e-01	0	57	0	179830784	60	4732
2026-01-05 05:52:18.74	301.53	12.01	-48.6	-50.7	21.6	6.01e-01	0	57	0	181927936	60	4569
2026-01-05 05:52:19.73	301.37	11.94	-48.8	-51.0	21.4	6.05e-01	0	57	0	183500800	60	4733
2026-01-05 05:52:20.72	301.21	11.88	-49.0	-51.5	20.9	6.04e-01	0	57	0	185597952	60	4986
2026-01-05 05:52:21.70	301.05	11.81	-49.0	-51.5	20.8	6.02e-01	0	57	0	187170816	60	4992
2026-01-05 05:52:22.70	300.89	11.74	-48.8	-51.1	21.1	6.02e-01	0	57	0	189267968	60	4774
2026-01-05 05:52:23.68	300.74	11.67	-48.7	-50.9	21.3	6.01e-01	0	57	0	190840832	60	4689
2026-01-05 05:52:24.68	300.58	11.60	-49.0	-51.4	20.8	6.02e-01	0	57	0	192937984	60	4965
2026-01-05 05:52:25.66	300.43	11.53	-49.2	-51.9	20.3	6.04e-01	0	57	0	195035136	60	5231
2026-01-05 05:52:26.65	300.27	11.47	-49.2	-51.8	20.3	6.03e-01	0	57	0	196608000	60	5175
2026-01-05 05:52:27.63	300.12	11.40	-49.0	-51.5	20.5	6.04e-01	0	57	0	198705152	60	5018
2026-01-05 05:52:28.62	299.97	11.33	-49.0	-51.6	20.4	6.02e-01	0	57	0	200278016	60	5052
2026-01-05 05:52:29.61	299.81	11.26	-49.3	-52.1	19.9	6.03e-01	0	57	0	202375168	60	5360
2026-01-05 05:52:30.60	299.66	11.19	-49.5	-52.5	19.4	6.01e-01	0	57	0	203948032	61	5311
2026-01-05 05:52:31.58	299.51	11.12	-49.4	-52.3	19.5	6.02e-01	0	57	0	206045184	61	5200
2026-01-05 05:52:32.57	299.36	11.06	-49.4	-52.3	19.5	6.04e-01	0	57	0	207618048	61	5170
2026-01-05 05:52:33.56	299.22	10.99	-49.4	-52.3	19.5	6.03e-01	0	57	0	209715200	61	5185
2026-01-05 05:52:34.55	299.07	10.92	-49.6	-52.9	18.9	6.02e-01	0	57	0	211288064	61	5540
2026-01-05 05:52:35.54	298.92	10.85	-49.9	-53.4	18.2	6.01e-01	0	57	0	213385216	62	5579
2026-01-05 05:52:36.53	298.77	10.78	-49.9	-53.6	18.0	6.03e-01	0	57	0	214958080	62	5689
2026-01-05 05:52:37.52	298.63	10.71	-49.8	-53.3	18.2	6.02e-01	0	57	0	217055232	62	5523
2026-01-05 05:52:38.51	298.48	10.65	-49.4	-52.6	18.8	6.04e-01	0	57	0	218628096	62	5093
2026-01-05 05:52:39.50	298.34	10.58	-49.3	-52.4	19.0	6.02e-01	0	57	0	220725248	62	4938
2026-01-05 05:52:40.49	298.19	10.51	-49.5	-52.9	18.5	6.02e-01	0	57	0	222298112	62	5271
2026-01-05 05:52:41.48	298.05	10.44	-49.9	-53.7	17.7	6.02e-01	0	57	0	224395264	62	5731
2026-01-05 05:52:42.47	297.91	10.37	-50.0	-54.0	17.4	6.05e-01	0	57	0	226492416	62	5944
2026-01-05 05:52:43.46	297.77	10.31	-50.0	-53.9	17.4	6.04e-01	0	57	0	228065280	62	5895
2026-01-05 05:52:44.45	297.63	10.24	-50.0	-54.0	17.4	6.03e-01	0	57	0	230162432	62	5934
2026-01-05 05:52:45.44	297.49	10.17	-50.1	-54.0	17.4	6.01e-01	0	57	0	231735296	62	5963
2026-01-05 05:52:46.43	297.35	10.10	-50.0	-54.0	17.3	6.03e-01	0	57	0	233832448	62	5950
2026-01-05 05:52:47.41	297.21	10.04	-50.1	-54.3	17.0	6.04e-01	0	57	0	235405312	62	6138
2026-01-05 05:52:48.40	297.07	9.97	-50.3	-54.6	16.6	6.05e-01	0	57	0	237502464	62	6403
2026-01-05 05:52:49.39	296.93	9.90	-50.2	-54.5	16.7	6.01e-01	0	57	0	239075328	62	6340
2026-01-05 05:52:50.39	296.80	9.83	-50.1	-54.4	16.9	6.04e-01	0	57	0	241172480	62	6204
2026-01-05 05:52:51.38	296.66	9.76	-50.2	-54.4	16.9	6.03e-01	0	57	0	242745344	62	6226
2026-01-05 05:52:52.37	296.52	9.70	-50.2	-54.5	16.7	6.02e-01	0	57	0	244842496	62	6313
2026-01-05 05:52:53.36	296.39	9.63	-50.2	-54.5	16.8	6.01e-01	0	57	0	246939648	62	6300
2026-01-05 05:52:54.35	296.26	9.56	-50.4	-54.9	16.3	6.03e-01	0	57	0	248512512	62	6617
2026-01-05 05:52:55.34	296.12	9.50	-50.4	-55.1	16.2	6.02e-01	0	57	0	250609664	63	6369
2026-01-05 05:52:56.33	295.99	9.43	-50.5	-55.2	16.2	6.03e-01	0	57	0	252182528	63	6462
2026-01-05 05:52:57.32	295.86	9.36	-50.5	-55.1	16.2	6.03e-01	0	57	0	254279680	63	6373
2026-01-05 05:52:58.32	295.73	9.29	-50.3	-54.7	16.6	6.05e-01	0	57	0	255852544	63	6091
2026-01-05 05:52:59.31	295.60	9.23	-50.2	-54.5	16.8	6.03e-01	0	57	0	257949696	63	5947
2026-01-05 05:53:00.29	295.47	9.16	-50.2	-54.5	16.7	6.02e-01	0	57	0	259522560	63	5968
2026-01-05 05:53:01.28	295.34	9.09	-50.2	-54.5	16.8	6.02e-01	0	57	0	261619712	63	5938
2026-01-05 05:53:02.27	295.21	9.03	-50.4	-55.0	16.3	6.03e-01	0	57	0	263192576	63	6322
2026-01-05 05:53:03.26	295.08	8.96	-50.4	-54.9	16.4	6.04e-01	0	57	0	265289728	63	6225
2026-01-05 05:53:04.25	294.95	8.89	-50.5	-55.2	16.1	6.01e-01	0	57	0	266862592	63	6486
2026-01-05 05:53:05.24	294.83	8.83	-50.3	-54.8	16.5	6.02e-01	0	57	0	268959744	63	6149
2026-01-05 05:53:06.23	294.70	8.76	-50.2	-54.4	16.9	6.00e-01	0	57	0	271056896	63	5905
2026-01-05 05:53:07.22	294.58	8.69	-50.1	-54.2	17.2	6.03e-01	0	57	0	272629760	63	5730
2026-01-05 05:53:08.21	294.45	8.63	-50.0	-53.9	17.4	6.03e-01	0	57	0	274726912	63	5564
2026-01-05 05:53:09.19	294.33	8.56	-49.9	-53.8	17.5	6.02e-01	0	57	0	276299776	63	5492
2026-01-05 05:53:10.18	294.21	8.49	-50.0	-53.9	17.5	6.02e-01	0	57	0	278396928	63	5536
2026-01-05 05:53:11.18	294.08	8.43	-50.0	-53.9	17.4	6.04e-01	0	57	0	279969792	63	5543
2026-01-05 05:53:12.16	293.96	8.36	-50.0	-54.0	17.3	6.04e-01	0	57	0	282066944	63	5643
2026-01-05 05:53:13.15	293.84	8.30	-50.1	-54.2	17.1	6.02e-01	0	57	0	283639808	63	5759
2026-01-05 05:53:14.14	293.72	8.23	-50.3	-54.6	16.8	6.05e-01	0	57	0	285736960	63	6019
2026-01-05 05:53:15.13	293.60	8.16	-50.2	-54.6	16.6	6.04e-01	0	57	0	287309824	63	6059
2026-01-05 05:53:16.12	293.48	8.10	-50.4	-54.9	16.3	6.04e-01	0	57	0	289406976	63	6268
2026-01-05 05:53:17.11	293.36	8.03	-50.3	-54.9	16.3	6.03e-01	0	57	0	291504128	63	6204
2026-01-05 05:53:18.10	293.24	7.97	-50.3	-55.0	16.1	6.05e-01	0	57	0	293076992	63	6296
2026-01-05 05:53:19.09	293.12	7.90	-50.3	-55.1	16.0	6.01e-01	0	57	0	295174144	63	6391
2026-01-05 05:53:20.07	293.01	7.84	-50.4	-55.3	15.8	6.04e-01	0	57	0	296747008	63	6522
2026-01-05 05:53:21.06	292.89	7.77	-50.4	-55.3	15.6	6.02e-01	0	57	0	298844160	63	6539
2026-01-05 05:53:22.05	292.77	7.71	-50.4	-55.5	15.4	6.06e-01	0	57	0	300417024	63	6719
2026-01-05 05:53:23.04	292.66	7.64	-50.4	-55.6	15.3	6.01e-01	0	57	0	302514176	63	6750
2026-01-05 05:53:24.03	292.54	7.58	-50.5	-55.9	15.0	6.02e-01	0	57	0	304087040	63	6993
2026-01-05 05:53:25.02	292.43	7.51	-50.4	-55.9	14.9	6.03e-01	0	57	0	306184192	63	6987
2026-01-05 05:53:26.00	292.32	7.45	-50.5	-56.1	14.6	6.06e-01	0	57	0	307757056	63	7186
2026-01-05 05:53:27.00	292.20	7.38	-50.6	-56.6	14.2	6.04e-01	0	57	0	309854208	63	7579
2026-01-05 05:53:27.99	292.09	7.32	-50.6	-56.5	14.1	6.04e-01	0	57	0	311427072	63	7511
2026-01-05 05:53:28.96	291.98	7.25	-50.7	-56.8	13.9	6.05e-01	0	57	0	313524224	63	7745
2026-01-05 05:53:29.95	291.87	7.19	-50.6	-56.6	14.0	6.06e-01	0	57	0	315097088	63	7612
2026-01-05 05:53:30.94	291.76	7.12	-50.7	-57.0	13.6	6.04e-01	0	57	0	317194240	63	7957
2026-01-05 05:53:31.93	291.65	7.06	-50.6	-56.7	13.8	6.04e-01	0	57	0	318767104	63	7694
2026-01-05 05:53:32.93	291.53	6.99	-50.5	-56.4	14.2	6.04e-01	0	57	0	320864256	63	7451
2026-01-05 05:53:33.92	291.42	6.93	-50.4	-56.3	14.3	6.03e-01	0	57	0	322961408	63	7292
2026-01-05 05:53:34.91	291.32	6.86	-50.4	-56.1	14.5	6.01e-01	0	57	0	324534272	63	7160
2026-01-05 05:53:35.90	291.21	6.80	-50.4	-56.2	14.4	6.04e-01	0	57	0	326631424	63	7238
2026-01-05 05:53:36.88	291.10	6.74	-50.4	-56.3	14.2	6.04e-01	0	57	0	328204288	63	7340
2026-01-05 05:53:37.87	290.99	6.67	-50.5	-56.8	13.7	6.03e-01	0	57	0	330301440	63	7766
2026-01-05 05:53:38.86	290.89	6.61	-50.4	-56.6	13.9	6.04e-01	0	57	0	331874304	63	7572
2026-01-05 05:53:39.85	290.78	6.55	-50.3	-56.4	14.0	6.05e-01	0	57	0	333971456	63	7408
2026-01-05 05:53:40.83	290.68	6.48	-50.2	-56.4	13.9	6.03e-01	0	57	0	335544320	63	7423
2026-01-05 05:53:41.82	290.57	6.42	-50.3	-56.7	13.6	6.04e-01	0	57	0	337641472	63	7693
2026-01-05 05:53:42.81	290.47	6.35	-50.3	-56.7	13.5	6.04e-01	0	57	0	339214336	63	7653
2026-01-05 05:53:43.80	290.36	6.29	-50.4	-57.1	13.1	6.06e-01	0	57	0	341311488	63	8065
2026-01-05 05:53:44.79	290.26	6.23	-50.4	-57.3	12.9	6.08e-01	0	57	0	342884352	63	8178
2026-01-05 05:53:45.78	290.15	6.16	-50.4	-57.4	12.7	6.07e-01	0	57	0	344981504	63	8346
2026-01-05 05:53:46.77	290.05	6.10	-50.3	-57.5	12.6	6.08e-01	0	57	0	347078656	63	8373
2026-01-05 05:53:47.77	289.95	6.04	-50.3	-57.5	12.6	6.08e-01	0	57	0	348651520	63	8407
2026-01-05 05:53:48.76	289.85	5.97	-50.3	-57.6	12.4	6.09e-01	0	57	0	350748672	63	8535
2026-01-05 05:53:49.76	289.74	5.91	-50.2	-57.6	12.4	6.09e-01	0	57	0	352321536	63	8481
2026-01-05 05:53:50.75	289.64	5.85	-50.3	-57.8	12.2	6.11e-01	0	57	0	354418688	63	8735
2026-01-05 05:53:51.73	289.54	5.79	-50.3	-57.8	12.0	6.10e-01	0	57	0	355991552	63	8744
2026-01-05 05:53:52.72	289.44	5.72	-50.2	-57.7	12.0	6.07e-01	0	57	0	358088704	63	8637
2026-01-05 05:53:53.71	289.35	5.66	-50.3	-58.1	11.6	6.10e-01	0	57	0	359661568	63	9022
2026-01-05 05:53:54.70	289.25	5.60	-50.3	-58.2	11.4	6.11e-01	0	57	0	361758720	63	9139
2026-01-05 05:53:55.70	289.15	5.54	-50.3	-58.5	11.2	6.10e-01	0	57	0	363331584	63	9410
2026-01-05 05:53:56.68	289.05	5.47	-50.3	-59.0	10.6	6.17e-01	0	57	0	365428736	63	9957
2026-01-05 05:53:57.67	288.95	5.41	-50.4	-59.2	10.4	6.18e-01	0	57	0	367525888	63	10237
2026-01-05 05:53:58.66	288.86	5.35	-50.3	-59.3	10.1	6.19e-01	0	57	0	369098752	63	10406
2026-01-05 05:53:59.65	288.76	5.29	-50.2	-59.3	10.1	6.21e-01	0	57	0	371195904	63	10338
2026-01-05 05:54:00.64	288.66	5.23	-50.2	-59.3	10.0	6.20e-01	0	57	0	372768768	63	10401
2026-01-05 05:54:01.63	288.57	5.16	-50.3	-59.4	9.9	6.26e-01	0	57	0	374865920	63	10501
2026-01-05 05:54:02.62	288.47	5.10	-50.2	-59.4	9.9	6.21e-01	0	57	0	376438784	63	10505
2026-01-05 05:54:03.61	288.38	5.04	-50.2	-59.7	9.5	6.26e-01	0	57	0	378535936	63	10888
2026-01-05 05:54:04.59	288.28	4.98	-51.2	-70.6	3.8	7.44e-01	0	57	104	379060224	64	35913
2026-01-05 05:54:05.58	288.19	4.92	-51.3	-70.9	3.8	7.45e-01	0	57	104	379060224	65	35207
2026-01-05 05:54:06.58	288.10	4.86	-53.7	-73.6	3.8	7.45e-01	0	57	104	379060224	69	37871
2026-01-05 05:54:07.57	288.00	4.79	-53.8	-73.7	3.8	7.47e-01	0	57	104	379060224	69	38535
2026-01-05 05:54:08.56	287.91	4.73	-53.9	-73.8	3.8	7.43e-01	0	57	104	379060224	70	36818
2026-01-05 05:54:09.55	287.82	4.67	-53.1	-72.8	3.8	7.47e-01	0	57	104	379060224	68	36805
2026-01-05 05:54:10.53	287.73	4.61	-54.0	-73.9	3.8	7.48e-01	0	57	104	379060224	70	37024
2026-01-05 05:54:11.53	287.64	4.55	-54.1	-74.0	3.8	7.42e-01	0	57	104	379060224	70	37499
2026-01-05 05:54:12.52	287.55	4.49	-54.1	-74.0	3.8	7.43e-01	0	57	104	379060224	70	37757
2026-01-05 05:54:13.51	287.46	4.43	-54.2	-74.1	3.8	7.47e-01	0	57	104	379060224	70	37984
2026-01-05 05:54:14.50	287.37	4.37	-54.2	-74.1	3.8	7.45e-01	0	57	104	379060224	70	38055
2026-01-05 05:54:15.48	287.28	4.31	-54.2	-74.1	3.8	7.44e-01	0	57	104	379060224	70	38149
2026-01-05 05:54:16.47	287.19	4.25	-54.2	-74.2	3.8	7.44e-01	0	57	104	379060224	70	38397
2026-01-05 05:54:17.47	287.10	4.19	-54.3	-74.2	3.8	7.46e-01	0	57	104	379060224	70	38499
2026-01-05 05:54:18.45	287.01	4.13	-54.3	-74.2	3.8	7.47e-01	0	57	104	379060224	70	38677
2026-01-05 05:54:19.44	286.92	4.07	-54.3	-74.3	3.8	7.42e-01	0	57	104	379060224	70	38801
2026-01-05 05:54:20.43	286.84	4.01	-54.3	-74.3	3.8	7.46e-01	0	57	104	379060224	70	38900
2026-01-05 05:54:21.42	286.75	3.95	-54.4	-74.3	3.8	7.45e-01	0	57	104	379060224	70	38936
2026-01-05 05:54:22.40	286.66	3.89	-54.4	-74.3	3.8	7.48e-01	0	57	104	379060224	70	38969
2026-01-05 05:54:23.39	286.58	3.83	-54.4	-74.3	3.8	7.44e-01	0	57	104	379060224	70	38993
2026-01-05 05:54:24.38	286.49	3.77	-54.4	-74.3	3.9	7.44e-01	0	57	104	379060224	71	36920
2026-01-05 05:54:25.37	286.41	3.71	-54.4	-74.4	3.8	7.45e-01	0	57	104	379060224	71	36962
2026-01-05 05:54:26.35	286.32	3.65	-54.4	-74.4	3.8	7.46e-01	0	57	104	379060224	71	36982
2026-01-05 05:54:27.34	286.24	3.59	-54.4	-74.4	3.8	7.42e-01	0	57	104	379060224	71	37088
2026-01-05 05:54:28.33	286.15	3.53	-54.4	-74.4	3.8	7.48e-01	0	57	104	379060224	71	37064
2026-01-05 05:54:29.32	286.07	3.47	-54.4	-74.4	3.8	7.45e-01	0	57	104	379060224	71	37163
2026-01-05 05:54:30.30	285.99	3.41	-54.4	-74.4	3.8	7.44e-01	0	57	104	379060224	71	37163
2026-01-05 05:54:31.30	285.90	3.35	-54.4	-74.4	3.8	7.44e-01	0	57	104	379060224	71	37064
2026-01-05 05:54:32.29	285.82	3.29	-54.4	-74.4	3.8	7.47e-01	0	57	104	379060224	71	37051
2026-01-05 05:54:33.27	285.74	3.23	-54.4	-74.4	3.8	7.46e-01	0	57	104	379060224	71	36965
2026-01-05 05:54:34.26	285.66	3.17	-54.4	-74.3	3.8	7.46e-01	0	57	104	379060224	71	36894
2026-01-05 05:54:35.25	285.58	3.12	-54.4	-74.3	3.8	7.45e-01	0	57	104	379060224	71	36939
2026-01-05 05:54:36.24	285.49	3.06	-54.4	-74.3	3.8	7.43e-01	0	57	104	379060224	71	36921
2026-01-05 05:54:37.24	285.41	3.00	-54.4	-74.3	3.8	7.46e-01	0	57	104	379060224	71	36920
2026-01-05 05:54:38.22	285.33	2.94	-54.4	-74.3	3.8	7.46e-01	0	57	104	379060224	71	36918

#Closed at: 2026-01-05 05:54:39
#Recorded file [379 MB]: D:/Data/31026_260105_085404.dat