passes_logs/2026/01/05/R3.0SM8_Murmansk_STILSPACE/R3.0SM8_Murmansk_STILSPACE__20260105_115705_FENGYUN_3D_rec.log

#Pass ID: 20260105_115705_FENGYUN 3D
#Satellite: FENGYUN 3D
#Configuration: FENGYUN 3D
#almurnet v.1.7.20240730
#Start time: 2026-01-05 11:57:07

#Version: 2.2.20231116
#Station: R3.0SM8_Murmansk_STILSPACE
#Location: 33.092731 lon 68.902999 lat
#TLE: 1 43010U 17072A   26005.27772741  .00000192  00000+0  11272-3 0  9992
#TLE: 2 43010  98.9919 336.9437 0001997 125.0511 235.0852 14.19692734421874

#Time	Az	El	Level	Level2	SNR	BER	BlckErr	Temp	State	Recorded	gain1	gain2
2026-01-05 11:57:07.41	161.59	3.12	-48.4	-59.2	3.8	8.46e-01	0	46	0	0	58	13356
2026-01-05 11:57:08.41	161.60	3.19	-48.5	-59.2	3.8	8.46e-01	0	46	104	0	59	12634
2026-01-05 11:57:09.40	161.62	3.26	-48.5	-59.2	3.8	8.46e-01	0	46	104	0	59	12663
2026-01-05 11:57:10.38	161.63	3.32	-48.5	-59.2	3.8	8.46e-01	0	46	104	0	59	12602
2026-01-05 11:57:11.36	161.65	3.39	-48.4	-59.2	3.8	8.46e-01	0	46	104	0	59	12610
2026-01-05 11:57:12.34	161.66	3.45	-48.5	-59.2	3.8	8.46e-01	0	47	104	0	59	12627
2026-01-05 11:57:13.33	161.68	3.52	-48.4	-59.2	3.8	8.46e-01	0	46	104	0	59	12619
2026-01-05 11:57:14.32	161.69	3.59	-48.5	-59.2	3.8	8.46e-01	0	47	104	0	59	12624
2026-01-05 11:57:15.32	161.71	3.66	-48.5	-59.2	3.8	8.47e-01	0	47	104	0	59	12639
2026-01-05 11:57:16.31	161.72	3.72	-48.5	-59.2	3.8	8.46e-01	0	47	104	0	59	12592
2026-01-05 11:57:17.29	161.74	3.79	-48.5	-59.2	3.8	8.47e-01	0	47	104	0	59	12639
2026-01-05 11:57:18.28	161.76	3.86	-48.5	-59.2	3.8	8.46e-01	0	47	104	0	59	12630
2026-01-05 11:57:19.27	161.77	3.92	-48.5	-59.2	3.8	8.47e-01	0	47	104	0	59	12608
2026-01-05 11:57:20.25	161.79	3.99	-48.5	-59.3	3.8	8.46e-01	0	47	104	0	59	12666
2026-01-05 11:57:21.23	161.80	4.06	-48.5	-59.2	3.8	8.46e-01	0	47	104	0	59	12636
2026-01-05 11:57:22.22	161.82	4.13	-48.4	-59.2	3.8	8.45e-01	0	47	104	0	59	12619
2026-01-05 11:57:23.20	161.84	4.19	-48.5	-59.2	3.8	8.45e-01	0	47	104	0	59	12639
2026-01-05 11:57:24.19	161.85	4.26	-48.5	-59.2	3.8	8.47e-01	0	47	104	0	59	12634
2026-01-05 11:57:25.18	161.87	4.33	-48.4	-59.2	3.8	8.46e-01	0	47	104	0	59	12621
2026-01-05 11:57:26.18	161.89	4.40	-48.4	-59.2	3.8	8.46e-01	0	47	104	0	59	12648
2026-01-05 11:57:27.16	161.90	4.47	-48.4	-59.2	3.8	8.45e-01	0	48	104	0	59	12635
2026-01-05 11:57:28.14	161.92	4.54	-48.4	-59.2	3.8	8.46e-01	0	48	104	0	58	13391
2026-01-05 11:57:29.13	161.93	4.61	-48.5	-59.2	3.8	8.45e-01	0	48	104	0	58	13407
2026-01-05 11:57:30.12	161.95	4.68	-48.5	-59.2	3.8	8.46e-01	0	48	104	0	58	13412
2026-01-05 11:57:31.11	161.97	4.75	-48.5	-59.2	3.8	8.46e-01	0	48	104	0	58	13400
2026-01-05 11:57:32.09	161.98	4.82	-48.5	-59.3	3.8	8.47e-01	0	48	104	0	58	13425
2026-01-05 11:57:33.08	162.00	4.89	-48.5	-59.2	3.8	8.46e-01	0	48	104	0	58	13400
2026-01-05 11:57:34.07	162.02	4.96	-48.5	-59.2	3.8	8.46e-01	0	48	104	0	58	13404
2026-01-05 11:57:35.06	162.03	5.03	-48.5	-59.3	3.8	8.45e-01	0	48	104	0	58	13415
2026-01-05 11:57:36.05	162.05	5.10	-48.5	-59.2	3.8	8.46e-01	0	48	104	0	58	13392
2026-01-05 11:57:37.03	162.07	5.17	-48.5	-59.2	3.8	8.46e-01	0	48	104	0	58	13364
2026-01-05 11:57:38.02	162.09	5.24	-48.4	-59.2	3.8	8.46e-01	0	48	104	0	58	13362
2026-01-05 11:57:39.01	162.10	5.31	-48.5	-59.2	3.8	8.46e-01	0	48	104	0	58	13401
2026-01-05 11:57:40.00	162.12	5.38	-48.3	-59.2	3.8	8.46e-01	0	48	104	0	58	13399
2026-01-05 11:57:40.99	162.14	5.45	-48.4	-59.3	3.8	8.46e-01	0	48	104	0	58	13424
2026-01-05 11:57:41.97	162.15	5.52	-48.4	-59.2	3.8	8.45e-01	0	48	104	0	58	13375
2026-01-05 11:57:42.96	162.17	5.60	-48.4	-59.3	3.8	8.47e-01	0	49	104	0	58	13440
2026-01-05 11:57:43.94	162.19	5.67	-48.5	-59.3	3.8	8.46e-01	0	49	104	0	58	13438
2026-01-05 11:57:44.93	162.21	5.74	-48.5	-59.2	3.8	8.47e-01	0	49	104	0	58	13393
2026-01-05 11:57:45.92	162.22	5.81	-48.5	-59.3	3.8	8.47e-01	0	49	104	0	58	13417
2026-01-05 11:57:46.90	162.24	5.88	-48.5	-59.2	3.8	8.46e-01	0	49	104	0	58	13404
2026-01-05 11:57:47.89	162.26	5.96	-48.5	-59.3	3.8	8.45e-01	0	49	104	0	58	13437
2026-01-05 11:57:48.88	162.28	6.03	-48.5	-59.2	3.8	8.46e-01	0	49	104	0	58	13377
2026-01-05 11:57:49.86	162.30	6.10	-48.5	-59.2	3.8	8.45e-01	0	49	104	0	58	13387
2026-01-05 11:57:50.85	162.31	6.18	-48.5	-59.3	3.8	8.47e-01	0	49	104	0	58	13435
2026-01-05 11:57:51.85	162.33	6.25	-48.4	-59.2	3.8	8.46e-01	0	49	104	0	58	13411
2026-01-05 11:57:52.84	162.35	6.33	-48.5	-59.2	3.8	8.45e-01	0	49	104	0	58	13412
2026-01-05 11:57:53.83	162.37	6.40	-48.4	-59.3	3.8	8.47e-01	0	49	104	0	58	13428
2026-01-05 11:57:54.83	162.39	6.47	-48.5	-59.2	3.8	8.47e-01	0	49	104	0	58	13384
2026-01-05 11:57:55.81	162.41	6.55	-48.5	-59.3	3.8	8.46e-01	0	49	104	0	58	13437
2026-01-05 11:57:56.81	162.42	6.62	-48.4	-59.2	3.8	8.47e-01	0	49	104	0	58	13386
2026-01-05 11:57:57.80	162.44	6.70	-48.5	-59.2	3.8	8.47e-01	0	49	104	0	58	13399
2026-01-05 11:57:58.79	162.46	6.77	-48.5	-59.2	3.8	8.46e-01	0	49	104	0	58	13387
2026-01-05 11:57:59.78	162.48	6.85	-48.4	-59.3	3.8	8.46e-01	0	50	104	0	58	13420
2026-01-05 11:58:00.77	162.50	6.93	-48.5	-59.3	3.8	8.46e-01	0	50	104	0	58	13415
2026-01-05 11:58:01.75	162.52	7.00	-48.5	-59.3	3.8	8.46e-01	0	50	104	0	58	13424
2026-01-05 11:58:02.74	162.54	7.08	-48.5	-59.3	3.8	8.47e-01	0	50	104	0	58	13425
2026-01-05 11:58:03.73	162.56	7.15	-48.5	-59.2	3.8	8.48e-01	0	50	104	0	58	13409
2026-01-05 11:58:04.72	162.57	7.23	-48.5	-59.3	3.8	8.47e-01	0	50	104	0	58	13426
2026-01-05 11:58:05.71	162.59	7.31	-48.5	-59.3	3.8	8.47e-01	0	50	104	0	58	13442
2026-01-05 11:58:06.70	162.61	7.38	-48.5	-59.2	3.8	8.47e-01	0	50	104	0	58	13406
2026-01-05 11:58:07.68	162.63	7.46	-48.5	-59.2	3.8	8.47e-01	0	50	104	0	58	13404
2026-01-05 11:58:08.67	162.65	7.54	-48.5	-59.2	3.8	8.46e-01	0	50	104	0	58	13414
2026-01-05 11:58:09.66	162.67	7.62	-48.5	-59.3	3.8	8.45e-01	0	50	104	0	58	13416
2026-01-05 11:58:10.65	162.69	7.69	-48.5	-59.2	3.8	8.47e-01	0	50	104	0	58	13376
2026-01-05 11:58:11.64	162.71	7.77	-48.5	-59.2	3.8	8.46e-01	0	50	104	0	58	13368
2026-01-05 11:58:12.62	162.73	7.85	-48.5	-59.2	3.8	8.46e-01	0	50	104	0	58	13399
2026-01-05 11:58:13.61	162.75	7.93	-48.5	-59.3	3.8	8.47e-01	0	50	104	0	58	13428
2026-01-05 11:58:14.60	162.77	8.01	-48.5	-59.3	3.8	8.46e-01	0	50	104	0	58	13423
2026-01-05 11:58:15.59	162.79	8.09	-48.5	-59.3	3.8	8.46e-01	0	51	104	0	58	13415
2026-01-05 11:58:16.58	162.81	8.17	-48.5	-59.2	3.8	8.46e-01	0	50	104	0	58	13379
2026-01-05 11:58:17.56	162.83	8.25	-48.5	-59.2	3.8	8.46e-01	0	51	104	0	58	13396
2026-01-05 11:58:18.56	162.85	8.33	-48.5	-59.3	3.8	8.46e-01	0	51	104	0	58	13439
2026-01-05 11:58:19.55	162.87	8.41	-48.5	-59.2	3.8	8.47e-01	0	51	104	0	58	13378
2026-01-05 11:58:20.54	162.89	8.49	-48.5	-59.2	3.8	8.47e-01	0	51	104	0	58	13413
2026-01-05 11:58:21.53	162.91	8.57	-48.5	-59.2	3.8	8.46e-01	0	51	104	0	58	13385
2026-01-05 11:58:22.52	162.93	8.65	-48.5	-59.2	3.8	8.46e-01	0	51	104	0	58	13411
2026-01-05 11:58:23.50	162.95	8.73	-48.5	-59.3	3.8	8.47e-01	0	51	104	0	58	13438
2026-01-05 11:58:24.49	162.97	8.81	-48.5	-59.2	3.8	8.45e-01	0	51	104	0	58	13387
2026-01-05 11:58:25.48	163.00	8.89	-48.5	-59.2	3.8	8.45e-01	0	51	104	0	58	13397
2026-01-05 11:58:26.47	163.02	8.98	-48.5	-59.3	3.8	8.47e-01	0	51	104	0	58	13417
2026-01-05 11:58:27.45	163.04	9.06	-48.5	-59.3	3.8	8.45e-01	0	51	104	0	58	13420
2026-01-05 11:58:28.44	163.06	9.14	-48.5	-59.2	3.8	8.46e-01	0	51	104	0	58	13405
2026-01-05 11:58:29.42	163.08	9.22	-48.5	-59.2	3.8	8.47e-01	0	51	104	0	58	13400
2026-01-05 11:58:30.41	163.10	9.30	-48.5	-59.2	3.8	8.46e-01	0	51	104	0	58	13387
2026-01-05 11:58:31.39	163.12	9.39	-48.5	-59.3	3.8	8.47e-01	0	51	104	0	58	13431
2026-01-05 11:58:32.38	163.14	9.47	-48.5	-59.3	3.8	8.46e-01	0	51	104	0	58	13417
2026-01-05 11:58:33.37	163.17	9.55	-48.5	-59.2	3.8	8.45e-01	0	51	104	0	58	13384
2026-01-05 11:58:34.36	163.19	9.64	-48.4	-59.2	3.8	8.46e-01	0	51	104	0	58	13380
2026-01-05 11:58:35.35	163.21	9.72	-48.5	-59.3	3.8	8.46e-01	0	51	104	0	58	13424
2026-01-05 11:58:36.33	163.23	9.81	-48.5	-59.3	3.8	8.46e-01	0	51	104	0	58	13473
2026-01-05 11:58:37.32	163.25	9.89	-48.5	-59.2	3.8	8.46e-01	0	51	104	0	58	13410
2026-01-05 11:58:38.30	163.28	9.98	-48.5	-59.2	3.8	8.46e-01	0	51	104	0	58	13402
2026-01-05 11:58:39.29	163.30	10.06	-48.5	-59.3	3.8	8.46e-01	0	51	104	0	58	13446
2026-01-05 11:58:40.28	163.32	10.15	-48.5	-59.2	3.8	8.45e-01	0	52	104	0	58	13414
2026-01-05 11:58:41.26	163.34	10.23	-48.5	-59.3	3.8	8.47e-01	0	52	104	0	58	13444
2026-01-05 11:58:42.24	163.37	10.32	-47.5	-59.2	3.8	8.45e-01	0	52	104	0	58	13400
2026-01-05 11:58:43.23	163.39	10.41	-48.5	-59.2	3.8	8.46e-01	0	52	104	0	58	13384
2026-01-05 11:58:44.21	163.41	10.49	-48.4	-59.3	3.8	8.47e-01	0	52	104	0	58	13424
2026-01-05 11:58:45.20	163.44	10.58	-48.5	-59.3	3.8	8.46e-01	0	52	104	0	58	13454
2026-01-05 11:58:46.19	163.46	10.67	-48.5	-59.2	3.8	8.45e-01	0	52	104	0	58	13359
2026-01-05 11:58:47.17	163.48	10.76	-48.5	-59.3	3.8	8.46e-01	0	52	104	0	58	13421
2026-01-05 11:58:48.17	163.51	10.85	-48.5	-59.2	3.8	8.47e-01	0	52	104	0	58	13405
2026-01-05 11:58:49.15	163.53	10.93	-48.5	-59.2	3.8	8.46e-01	0	52	104	0	58	13387
2026-01-05 11:58:50.14	163.55	11.02	-48.4	-59.2	3.8	8.46e-01	0	52	104	0	58	13396
2026-01-05 11:58:51.13	163.58	11.11	-48.5	-59.3	3.8	8.47e-01	0	52	104	0	58	13428
2026-01-05 11:58:52.12	163.60	11.20	-48.5	-59.2	3.8	8.45e-01	0	52	104	0	58	13392
2026-01-05 11:58:53.10	163.62	11.29	-48.5	-59.2	3.8	8.46e-01	0	52	104	0	58	13389
2026-01-05 11:58:54.08	163.65	11.38	-48.5	-59.2	3.8	8.45e-01	0	52	104	0	58	13411
2026-01-05 11:58:55.07	163.67	11.47	-48.5	-59.2	3.8	8.47e-01	0	52	104	0	58	13412
2026-01-05 11:58:56.05	163.70	11.56	-48.5	-59.2	3.8	8.46e-01	0	52	104	0	58	13408
2026-01-05 11:58:57.04	163.72	11.65	-48.5	-59.2	3.8	8.45e-01	0	52	104	0	58	13414
2026-01-05 11:58:58.03	163.75	11.74	-48.5	-59.3	3.8	8.45e-01	0	52	104	0	58	13444
2026-01-05 11:58:59.02	163.77	11.84	-48.5	-59.3	3.8	8.47e-01	0	52	104	0	58	13423
2026-01-05 11:59:00.02	163.80	11.93	-48.4	-59.2	3.8	8.47e-01	0	52	104	0	58	13411
2026-01-05 11:59:01.00	163.82	12.02	-48.5	-59.3	3.8	8.46e-01	0	52	104	0	58	13435
2026-01-05 11:59:01.98	163.85	12.11	-48.5	-59.3	3.8	8.46e-01	0	53	104	0	58	13432
2026-01-05 11:59:02.98	163.87	12.21	-48.5	-59.3	3.8	8.46e-01	0	53	104	0	58	13445
2026-01-05 11:59:03.97	163.90	12.30	-48.5	-59.3	3.8	8.46e-01	0	52	104	0	58	13433
2026-01-05 11:59:04.97	163.92	12.40	-48.5	-59.3	3.8	8.45e-01	0	53	104	0	58	13442
2026-01-05 11:59:05.95	163.95	12.49	-48.5	-59.3	3.8	8.46e-01	0	53	104	0	58	13459
2026-01-05 11:59:06.94	163.98	12.59	-48.5	-59.3	3.8	8.46e-01	0	53	104	0	58	13422
2026-01-05 11:59:07.92	164.00	12.68	-48.5	-59.3	3.8	8.45e-01	0	53	104	0	58	13447
2026-01-05 11:59:08.91	164.03	12.78	-48.5	-59.3	3.8	8.45e-01	0	53	104	0	58	13432
2026-01-05 11:59:09.89	164.05	12.87	-48.5	-59.3	3.8	8.45e-01	0	53	104	0	58	13431
2026-01-05 11:59:10.89	164.08	12.97	-48.5	-59.3	3.8	8.46e-01	0	53	104	0	58	13457
2026-01-05 11:59:11.88	164.11	13.06	-48.5	-59.2	3.8	8.46e-01	0	53	104	0	58	13376
2026-01-05 11:59:12.87	164.13	13.16	-48.5	-59.2	3.8	8.45e-01	0	53	104	0	58	13412
2026-01-05 11:59:13.86	164.16	13.26	-48.5	-59.3	3.8	8.47e-01	0	53	104	0	58	13438
2026-01-05 11:59:14.86	164.19	13.36	-48.5	-59.3	3.8	8.46e-01	0	53	104	0	58	13450
2026-01-05 11:59:15.85	164.22	13.46	-48.5	-59.2	3.8	8.46e-01	0	53	104	0	58	13405
2026-01-05 11:59:16.84	164.24	13.56	-48.5	-59.2	3.8	8.47e-01	0	53	104	0	58	13399
2026-01-05 11:59:17.82	164.27	13.65	-48.4	-59.2	3.8	8.46e-01	0	53	104	0	58	13406
2026-01-05 11:59:18.80	164.30	13.75	-48.5	-59.2	3.8	8.46e-01	0	53	104	0	58	13369
2026-01-05 11:59:19.79	164.33	13.85	-48.5	-59.2	3.8	8.46e-01	0	53	104	0	58	13400
2026-01-05 11:59:20.78	164.36	13.95	-48.5	-59.2	3.8	8.46e-01	0	53	104	0	58	13373
2026-01-05 11:59:21.77	164.38	14.05	-48.5	-59.3	3.8	8.46e-01	0	53	104	0	58	13439
2026-01-05 11:59:22.75	164.41	14.15	-48.5	-59.3	3.8	8.46e-01	0	53	104	0	58	13429
2026-01-05 11:59:23.74	164.44	14.25	-48.5	-59.2	3.8	8.46e-01	0	53	104	0	58	13377
2026-01-05 11:59:24.73	164.47	14.36	-48.5	-59.2	3.8	8.46e-01	0	53	104	0	58	13392
2026-01-05 11:59:25.72	164.50	14.46	-48.5	-59.3	3.8	8.47e-01	0	54	104	0	58	13419
2026-01-05 11:59:26.71	164.53	14.56	-48.5	-59.3	3.8	8.46e-01	0	53	104	0	58	13438
2026-01-05 11:59:27.70	164.56	14.66	-48.5	-59.2	3.8	8.46e-01	0	53	104	0	58	13357
2026-01-05 11:59:28.68	164.59	14.77	-48.5	-59.3	3.8	8.47e-01	0	53	104	0	58	13427
2026-01-05 11:59:29.66	164.62	14.87	-48.5	-59.3	3.8	8.46e-01	0	53	104	0	58	13415
2026-01-05 11:59:30.64	164.65	14.97	-48.5	-59.2	3.8	8.46e-01	0	53	104	0	58	13413
2026-01-05 11:59:31.63	164.68	15.08	-48.4	-59.3	3.8	8.47e-01	0	53	104	0	58	13429
2026-01-05 11:59:32.61	164.71	15.18	-48.5	-59.3	3.8	8.47e-01	0	54	104	0	58	13437
2026-01-05 11:59:33.60	164.74	15.29	-48.5	-59.2	3.8	8.47e-01	0	54	104	0	58	13392
2026-01-05 11:59:34.58	164.77	15.39	-48.5	-59.3	3.8	8.46e-01	0	53	104	0	58	13429
2026-01-05 11:59:35.57	164.80	15.50	-48.4	-59.3	3.8	8.46e-01	0	54	104	0	58	13447
2026-01-05 11:59:36.56	164.83	15.61	-48.5	-59.2	3.8	8.45e-01	0	54	104	0	58	13393
2026-01-05 11:59:37.54	164.86	15.72	-48.5	-59.3	3.8	8.45e-01	0	54	104	0	58	13452
2026-01-05 11:59:38.53	164.89	15.82	-48.5	-59.3	3.8	8.46e-01	0	54	104	0	58	13448
2026-01-05 11:59:39.52	164.92	15.93	-48.5	-59.3	3.8	8.45e-01	0	54	104	0	58	13441
2026-01-05 11:59:40.52	164.95	16.04	-48.5	-59.3	3.8	8.46e-01	0	54	104	0	58	13462
2026-01-05 11:59:41.50	164.99	16.15	-48.5	-59.3	3.8	8.46e-01	0	54	104	0	58	13444
2026-01-05 11:59:42.50	165.02	16.26	-48.5	-59.3	3.8	8.46e-01	0	54	104	0	58	13444
2026-01-05 11:59:43.49	165.05	16.37	-48.5	-59.3	3.8	8.45e-01	0	54	104	0	58	13443
2026-01-05 11:59:44.47	165.08	16.48	-48.5	-59.2	3.8	8.46e-01	0	54	104	0	58	13401
2026-01-05 11:59:45.45	165.12	16.59	-48.5	-59.2	3.8	8.47e-01	0	54	104	0	58	13410
2026-01-05 11:59:46.43	165.15	16.70	-48.5	-59.2	3.8	8.48e-01	0	54	104	0	58	13400
2026-01-05 11:59:47.43	165.18	16.82	-48.5	-59.3	3.8	8.45e-01	0	54	104	0	58	13426
2026-01-05 11:59:48.41	165.22	16.93	-48.5	-59.3	3.8	8.46e-01	0	54	104	0	58	13423
2026-01-05 11:59:49.40	165.25	17.04	-48.5	-59.3	3.8	8.46e-01	0	54	104	0	58	13422
2026-01-05 11:59:50.39	165.28	17.16	-48.5	-59.3	3.8	8.46e-01	0	54	104	0	58	13467
2026-01-05 11:59:51.37	165.32	17.27	-48.5	-59.2	3.8	8.46e-01	0	54	104	0	58	13383
2026-01-05 11:59:52.35	165.35	17.39	-48.5	-59.2	3.8	8.46e-01	0	54	104	0	58	13412
2026-01-05 11:59:53.34	165.39	17.50	-48.5	-59.2	3.8	8.46e-01	0	54	104	0	58	13404
2026-01-05 11:59:54.33	165.42	17.62	-48.5	-59.3	3.8	8.46e-01	0	54	104	0	58	13424
2026-01-05 11:59:55.31	165.46	17.73	-48.5	-59.2	3.8	8.47e-01	0	54	104	0	58	13371
2026-01-05 11:59:56.29	165.49	17.85	-48.5	-59.2	3.8	8.46e-01	0	54	104	0	58	13405
2026-01-05 11:59:57.28	165.53	17.97	-48.4	-59.3	3.8	8.46e-01	0	54	104	0	58	13425
2026-01-05 11:59:58.27	165.56	18.09	-48.5	-59.2	3.8	8.46e-01	0	54	104	0	58	13414
2026-01-05 11:59:59.25	165.60	18.20	-48.5	-59.3	3.8	8.46e-01	0	54	104	0	58	13451
2026-01-05 12:00:00.25	165.64	18.32	-48.5	-59.3	3.8	8.47e-01	0	54	104	0	58	13416
2026-01-05 12:00:01.23	165.67	18.44	-48.5	-59.3	3.8	8.47e-01	0	54	104	0	58	13435
2026-01-05 12:00:02.22	165.71	18.56	-48.5	-59.2	3.8	8.46e-01	0	54	104	0	58	13384
2026-01-05 12:00:03.21	165.75	18.69	-48.5	-59.3	3.8	8.46e-01	0	54	104	0	58	13439
2026-01-05 12:00:04.20	165.78	18.81	-48.5	-59.2	3.8	8.46e-01	0	54	104	0	58	13397
2026-01-05 12:00:05.20	165.82	18.93	-48.5	-59.2	3.8	8.47e-01	0	54	104	0	58	13411
2026-01-05 12:00:06.19	165.86	19.06	-48.5	-59.2	3.8	8.46e-01	0	54	104	0	58	13401
2026-01-05 12:00:07.18	165.90	19.18	-48.5	-59.3	3.8	8.45e-01	0	54	104	0	58	13415
2026-01-05 12:00:08.17	165.94	19.30	-48.5	-59.2	3.8	8.47e-01	0	54	104	0	58	13403
2026-01-05 12:00:09.16	165.98	19.43	-48.4	-59.3	3.8	8.48e-01	0	55	104	0	58	13420
2026-01-05 12:00:10.14	166.01	19.55	-48.5	-59.3	3.8	8.45e-01	0	55	104	0	58	13427
2026-01-05 12:00:11.14	166.05	19.68	-48.5	-59.3	3.8	8.46e-01	0	54	104	0	58	13421
2026-01-05 12:00:12.12	166.09	19.81	-48.5	-59.3	3.8	8.45e-01	0	54	104	0	58	13425
2026-01-05 12:00:13.11	166.13	19.93	-48.5	-59.2	3.8	8.47e-01	0	54	104	0	58	13410
2026-01-05 12:00:14.09	166.17	20.06	-48.5	-59.2	3.8	8.46e-01	0	54	104	0	58	13402
2026-01-05 12:00:15.08	166.21	20.19	-48.4	-59.2	3.8	8.47e-01	0	54	104	0	58	13400
2026-01-05 12:00:16.07	166.26	20.32	-48.5	-59.3	3.8	8.48e-01	0	54	104	0	58	13423
2026-01-05 12:00:17.06	166.30	20.45	-48.5	-59.2	3.8	8.46e-01	0	54	104	0	58	13409
2026-01-05 12:00:18.05	166.34	20.58	-48.5	-59.2	3.8	8.47e-01	0	55	104	0	58	13384
2026-01-05 12:00:19.03	166.38	20.71	-48.5	-59.3	3.8	8.46e-01	0	54	104	0	58	13417
2026-01-05 12:00:20.02	166.42	20.84	-48.5	-59.3	3.8	8.46e-01	0	55	104	0	58	13436
2026-01-05 12:00:21.01	166.46	20.97	-48.5	-59.2	3.8	8.46e-01	0	55	104	0	58	13382
2026-01-05 12:00:21.99	166.51	21.11	-48.6	-59.3	3.8	8.45e-01	0	55	104	0	58	13441
2026-01-05 12:00:22.99	166.55	21.24	-48.5	-59.3	3.8	8.46e-01	0	55	104	0	58	13443
2026-01-05 12:00:23.98	166.59	21.38	-48.5	-59.3	3.8	8.46e-01	0	55	104	0	58	13443
2026-01-05 12:00:24.97	166.64	21.51	-48.5	-59.3	3.8	8.45e-01	0	55	104	0	58	13474
2026-01-05 12:00:25.95	166.68	21.65	-48.5	-59.3	3.8	8.47e-01	0	55	104	0	58	13439
2026-01-05 12:00:26.93	166.73	21.78	-48.5	-59.2	3.8	8.46e-01	0	55	104	0	58	13407
2026-01-05 12:00:27.91	166.77	21.92	-48.5	-59.3	3.8	8.47e-01	0	55	104	0	58	13430
2026-01-05 12:00:28.89	166.82	22.06	-48.5	-59.3	3.8	8.45e-01	0	55	104	0	58	13418
2026-01-05 12:00:29.87	166.86	22.20	-48.4	-59.2	3.8	8.47e-01	0	55	104	0	58	13386
2026-01-05 12:00:30.86	166.91	22.34	-48.5	-59.3	3.8	8.47e-01	0	55	104	0	58	13448
2026-01-05 12:00:31.85	166.95	22.48	-48.5	-59.3	3.8	8.47e-01	0	55	104	0	58	13415
2026-01-05 12:00:32.83	167.00	22.62	-48.5	-59.2	3.8	8.46e-01	0	55	104	0	58	13414
2026-01-05 12:00:33.81	167.05	22.76	-48.5	-59.2	3.8	8.47e-01	0	55	104	0	58	13403
2026-01-05 12:00:34.80	167.09	22.90	-47.7	-59.3	3.8	8.47e-01	0	55	104	0	58	13452
2026-01-05 12:00:35.79	167.14	23.04	-48.5	-59.3	3.8	8.47e-01	0	55	104	0	58	13462
2026-01-05 12:00:36.78	167.19	23.19	-48.5	-59.3	3.8	8.46e-01	0	55	104	0	58	13420
2026-01-05 12:00:37.78	167.24	23.34	-48.5	-59.2	3.8	8.47e-01	0	55	104	0	58	13413
2026-01-05 12:00:38.76	167.29	23.48	-48.5	-59.3	3.8	8.46e-01	0	55	104	0	58	13432
2026-01-05 12:00:39.76	167.34	23.63	-48.5	-59.3	3.8	8.45e-01	0	55	104	0	58	13434
2026-01-05 12:00:40.74	167.39	23.77	-48.4	-59.3	3.8	8.47e-01	0	55	104	0	58	13444
2026-01-05 12:00:41.72	167.44	23.92	-48.5	-59.3	3.8	8.46e-01	0	55	104	0	58	13418
2026-01-05 12:00:42.71	167.49	24.07	-48.4	-59.2	3.8	8.47e-01	0	55	104	0	58	13412
2026-01-05 12:00:43.69	167.54	24.22	-48.5	-59.3	3.8	8.47e-01	0	55	104	0	58	13452
2026-01-05 12:00:44.68	167.59	24.37	-48.5	-59.3	3.8	8.46e-01	0	55	104	0	58	13420
2026-01-05 12:00:45.67	167.65	24.52	-48.5	-59.3	3.8	8.47e-01	0	55	104	0	58	13428
2026-01-05 12:00:46.66	167.70	24.68	-48.5	-59.2	3.8	8.47e-01	0	55	104	0	58	13397
2026-01-05 12:00:47.65	167.75	24.83	-48.5	-59.2	3.8	8.46e-01	0	55	104	0	58	13407
2026-01-05 12:00:48.64	167.81	24.98	-48.5	-59.2	3.8	8.47e-01	0	55	104	0	58	13411
2026-01-05 12:00:49.63	167.86	25.14	-48.5	-59.3	3.8	8.46e-01	0	55	104	0	58	13425
2026-01-05 12:00:50.62	167.92	25.30	-48.5	-59.3	3.8	8.47e-01	0	55	104	0	58	13439
2026-01-05 12:00:51.61	167.97	25.45	-48.5	-59.2	3.8	8.45e-01	0	55	104	0	58	13396
2026-01-05 12:00:52.60	168.03	25.61	-48.5	-59.2	3.8	8.46e-01	0	55	104	0	58	13402
2026-01-05 12:00:53.58	168.08	25.77	-48.5	-59.2	3.8	8.47e-01	0	55	104	0	58	13397
2026-01-05 12:00:54.56	168.14	25.93	-48.5	-59.3	3.8	8.46e-01	0	55	104	0	58	13429
2026-01-05 12:00:55.55	168.20	26.09	-48.5	-59.3	3.8	8.46e-01	0	55	104	0	58	13426
2026-01-05 12:00:56.54	168.26	26.25	-48.5	-59.3	3.8	8.47e-01	0	55	104	0	58	13433
2026-01-05 12:00:57.53	168.31	26.41	-48.5	-59.3	3.8	8.47e-01	0	55	104	0	58	13440
2026-01-05 12:00:58.52	168.37	26.58	-48.5	-59.2	3.8	8.46e-01	0	55	104	0	58	13405
2026-01-05 12:00:59.50	168.43	26.74	-48.5	-59.2	3.8	8.45e-01	0	55	104	0	58	13414
2026-01-05 12:01:00.50	168.49	26.91	-48.5	-59.3	3.8	8.46e-01	0	55	104	0	58	13418
2026-01-05 12:01:01.48	168.55	27.07	-48.5	-59.3	3.8	8.47e-01	0	55	104	0	58	13427
2026-01-05 12:01:02.46	168.61	27.24	-48.5	-59.3	3.8	8.46e-01	0	55	104	0	58	13477
2026-01-05 12:01:03.46	168.68	27.41	-48.5	-59.3	3.8	8.46e-01	0	55	104	0	58	13433
2026-01-05 12:01:04.44	168.74	27.58	-48.5	-59.3	3.8	8.46e-01	0	55	104	0	58	13433
2026-01-05 12:01:05.42	168.80	27.75	-48.5	-59.3	3.8	8.46e-01	0	55	104	0	58	13438
2026-01-05 12:01:06.41	168.87	27.92	-48.5	-59.3	3.8	8.45e-01	0	55	104	0	58	13452
2026-01-05 12:01:07.40	168.93	28.09	-48.6	-59.3	3.8	8.47e-01	0	55	104	0	58	13469
2026-01-05 12:01:08.39	169.00	28.27	-48.5	-59.3	3.8	8.46e-01	0	56	104	0	58	13433
2026-01-05 12:01:09.37	169.06	28.44	-48.5	-59.3	3.8	8.45e-01	0	55	104	0	58	13415
2026-01-05 12:01:10.35	169.13	28.61	-48.5	-59.2	3.8	8.46e-01	0	55	104	0	58	13393
2026-01-05 12:01:11.34	169.20	28.79	-48.5	-59.2	3.8	8.46e-01	0	55	104	0	58	13402
2026-01-05 12:01:12.32	169.26	28.97	-48.5	-59.3	3.8	8.45e-01	0	55	104	0	58	13456
2026-01-05 12:01:13.31	169.33	29.15	-48.5	-59.3	3.8	8.46e-01	0	56	104	0	58	13427
2026-01-05 12:01:14.30	169.40	29.33	-48.5	-59.2	3.8	8.47e-01	0	55	104	0	58	13412
2026-01-05 12:01:15.28	169.47	29.51	-48.5	-59.2	3.8	8.46e-01	0	56	104	0	58	13411
2026-01-05 12:01:16.26	169.54	29.69	-48.5	-59.3	3.8	8.47e-01	0	55	104	0	58	13438
2026-01-05 12:01:17.25	169.61	29.87	-48.5	-59.2	3.8	8.46e-01	0	56	104	0	58	13408
2026-01-05 12:01:18.23	169.68	30.05	-48.5	-59.2	3.8	8.46e-01	0	56	104	0	58	13400
2026-01-05 12:01:19.22	169.76	30.24	-48.5	-59.2	3.8	8.46e-01	0	55	104	0	58	13404
2026-01-05 12:01:20.20	169.83	30.43	-48.5	-59.3	3.8	8.47e-01	0	56	104	0	58	13449
2026-01-05 12:01:21.19	169.91	30.61	-48.5	-59.2	3.8	8.46e-01	0	56	104	0	58	13400
2026-01-05 12:01:22.18	169.98	30.80	-48.5	-59.3	3.8	8.46e-01	0	55	104	0	58	13468
2026-01-05 12:01:23.16	170.06	30.99	-48.5	-59.2	3.8	8.46e-01	0	56	104	0	58	13400
2026-01-05 12:01:24.15	170.14	31.18	-48.5	-59.3	3.8	8.46e-01	0	56	104	0	58	13422
2026-01-05 12:01:25.14	170.21	31.38	-48.5	-59.2	3.8	8.46e-01	0	56	104	0	58	13389
2026-01-05 12:01:26.13	170.29	31.57	-48.4	-59.3	3.8	8.46e-01	0	56	104	0	58	13419
2026-01-05 12:01:27.12	170.37	31.77	-48.5	-59.3	3.8	8.46e-01	0	56	104	0	58	13440
2026-01-05 12:01:28.10	170.45	31.96	-48.5	-59.3	3.8	8.46e-01	0	56	104	0	58	13447
2026-01-05 12:01:29.09	170.54	32.16	-48.5	-59.3	3.8	8.46e-01	0	56	104	0	58	13425
2026-01-05 12:01:30.08	170.62	32.36	-48.4	-59.3	3.8	8.45e-01	0	56	104	0	58	13415
2026-01-05 12:01:31.07	170.70	32.56	-48.5	-59.3	3.8	8.46e-01	0	56	104	0	58	13416
2026-01-05 12:01:32.05	170.79	32.76	-48.5	-59.3	3.8	8.47e-01	0	56	104	0	58	13426
2026-01-05 12:01:33.04	170.87	32.96	-48.5	-59.2	3.8	8.46e-01	0	56	104	0	58	13396
2026-01-05 12:01:34.03	170.96	33.17	-48.5	-59.3	3.8	8.46e-01	0	56	104	0	58	13428
2026-01-05 12:01:35.02	171.05	33.37	-48.5	-59.3	3.8	8.45e-01	0	56	104	0	58	13459
2026-01-05 12:01:36.01	171.14	33.58	-48.5	-59.3	3.8	8.46e-01	0	56	104	0	58	13427
2026-01-05 12:01:36.99	171.23	33.79	-48.5	-59.3	3.8	8.46e-01	0	56	104	0	58	13452
2026-01-05 12:01:37.98	171.32	34.00	-48.5	-59.3	3.8	8.48e-01	0	56	104	0	58	13423
2026-01-05 12:01:38.97	171.41	34.21	-48.5	-59.3	3.8	8.46e-01	0	56	104	0	58	13448
2026-01-05 12:01:39.95	171.50	34.42	-48.5	-59.3	3.8	8.47e-01	0	55	104	0	58	13480
2026-01-05 12:01:40.94	171.60	34.63	-48.5	-59.2	3.8	8.45e-01	0	56	104	0	58	13383
2026-01-05 12:01:41.92	171.69	34.85	-48.5	-59.3	3.8	8.45e-01	0	56	104	0	58	13423
2026-01-05 12:01:42.91	171.79	35.06	-48.5	-59.2	3.8	8.46e-01	0	56	104	0	58	13402
2026-01-05 12:01:43.90	171.89	35.28	-48.5	-59.3	3.8	8.47e-01	0	56	104	0	58	13427
2026-01-05 12:01:44.90	171.99	35.50	-48.5	-59.3	3.8	8.47e-01	0	56	104	0	58	13438
2026-01-05 12:01:45.89	172.09	35.73	-48.5	-59.3	3.8	8.46e-01	0	56	104	0	58	13449
2026-01-05 12:01:46.88	172.19	35.95	-48.5	-59.3	3.8	8.47e-01	0	56	104	0	58	13428
2026-01-05 12:01:47.87	172.30	36.17	-48.5	-59.3	3.8	8.46e-01	0	56	104	0	58	13415
2026-01-05 12:01:48.86	172.40	36.40	-48.5	-59.2	3.8	8.45e-01	0	56	104	0	58	13354
2026-01-05 12:01:49.84	172.51	36.62	-48.5	-59.2	3.8	8.46e-01	0	56	104	0	58	13395
2026-01-05 12:01:50.83	172.61	36.85	-48.5	-59.2	3.8	8.45e-01	0	56	104	0	58	13370
2026-01-05 12:01:51.81	172.72	37.08	-48.5	-59.2	3.8	8.46e-01	0	56	104	0	58	13395
2026-01-05 12:01:52.80	172.83	37.31	-48.5	-59.3	3.8	8.46e-01	0	56	104	0	58	13431
2026-01-05 12:01:53.78	172.94	37.54	-48.5	-59.2	3.8	8.47e-01	0	56	104	0	58	13414
2026-01-05 12:01:54.76	173.06	37.77	-48.5	-59.3	3.8	8.45e-01	0	56	104	0	58	13461
2026-01-05 12:01:55.74	173.17	38.00	-48.5	-59.3	3.8	8.46e-01	0	55	104	0	58	13421
2026-01-05 12:01:56.73	173.29	38.24	-48.5	-59.3	3.8	8.46e-01	0	56	104	0	58	13496
2026-01-05 12:01:57.72	173.41	38.48	-48.5	-59.3	3.8	8.46e-01	0	56	104	0	58	13450
2026-01-05 12:01:58.71	173.53	38.72	-48.5	-59.3	3.8	8.46e-01	0	56	104	0	58	13425
2026-01-05 12:01:59.70	173.65	38.96	-48.5	-59.3	3.8	8.48e-01	0	56	104	0	58	13488
2026-01-05 12:02:00.69	173.77	39.21	-48.5	-59.3	3.8	8.45e-01	0	56	104	0	58	13459
2026-01-05 12:02:01.68	173.90	39.45	-48.5	-59.2	3.8	8.46e-01	0	56	104	0	58	13373
2026-01-05 12:02:02.67	174.03	39.70	-48.5	-59.2	3.8	8.46e-01	0	56	104	0	58	13411
2026-01-05 12:02:03.66	174.16	39.95	-48.5	-59.3	3.8	8.45e-01	0	56	104	0	58	13421
2026-01-05 12:02:04.64	174.29	40.20	-48.5	-59.3	3.8	8.46e-01	0	56	104	0	58	13472
2026-01-05 12:02:05.64	174.42	40.45	-48.5	-59.3	3.8	8.47e-01	0	56	104	0	58	13419
2026-01-05 12:02:06.62	174.56	40.70	-48.5	-59.3	3.8	8.48e-01	0	56	104	0	58	13447
2026-01-05 12:02:07.61	174.69	40.96	-48.5	-59.3	3.8	8.46e-01	0	56	104	0	58	13482
2026-01-05 12:02:08.60	174.83	41.21	-48.5	-59.3	3.8	8.45e-01	0	56	104	0	58	13459
2026-01-05 12:02:09.59	174.98	41.47	-48.5	-59.3	3.8	8.46e-01	0	56	104	0	58	13421
2026-01-05 12:02:10.58	175.12	41.73	-48.5	-59.2	3.8	8.44e-01	0	56	104	0	58	13394
2026-01-05 12:02:11.56	175.26	41.99	-48.5	-59.3	3.8	8.47e-01	0	56	104	0	58	13435
2026-01-05 12:02:12.56	175.41	42.25	-48.5	-59.3	3.8	8.46e-01	0	56	104	0	58	13434
2026-01-05 12:02:13.54	175.56	42.52	-48.5	-59.3	3.8	8.46e-01	0	56	104	0	58	13455
2026-01-05 12:02:14.52	175.72	42.78	-48.5	-59.3	3.8	8.46e-01	0	56	104	0	58	13417
2026-01-05 12:02:15.51	175.87	43.05	-48.5	-59.3	3.8	8.46e-01	0	56	104	0	58	13440
2026-01-05 12:02:16.50	176.03	43.32	-48.5	-59.3	3.8	8.46e-01	0	56	104	0	58	13416
2026-01-05 12:02:17.49	176.19	43.59	-48.5	-59.3	3.8	8.46e-01	0	56	104	0	58	13444
2026-01-05 12:02:18.47	176.35	43.86	-48.5	-59.3	3.8	8.46e-01	0	56	104	0	58	13425
2026-01-05 12:02:19.46	176.52	44.13	-48.5	-59.3	3.8	8.46e-01	0	56	104	0	58	13423
2026-01-05 12:02:20.44	176.69	44.41	-48.5	-59.3	3.8	8.46e-01	0	56	104	0	58	13449
2026-01-05 12:02:21.44	176.86	44.69	-48.5	-59.3	3.8	8.45e-01	0	56	104	0	58	13423
2026-01-05 12:02:22.42	177.04	44.97	-48.5	-59.3	3.8	8.46e-01	0	56	104	0	58	13458
2026-01-05 12:02:23.41	177.21	45.25	-48.5	-59.3	3.8	8.46e-01	0	56	104	0	58	13436
2026-01-05 12:02:24.40	177.40	45.53	-48.5	-59.2	3.8	8.47e-01	0	56	104	0	58	13414
2026-01-05 12:02:25.39	177.58	45.82	-48.5	-59.2	3.8	8.46e-01	0	56	104	0	58	13398
2026-01-05 12:02:26.37	177.77	46.10	-48.5	-59.3	3.8	8.47e-01	0	56	104	0	58	13452
2026-01-05 12:02:27.36	177.96	46.39	-48.6	-59.3	3.8	8.44e-01	0	56	104	0	58	13461
2026-01-05 12:02:28.35	178.15	46.68	-48.5	-59.3	3.8	8.46e-01	0	56	104	0	58	13432
2026-01-05 12:02:29.34	178.35	46.97	-48.5	-59.3	3.8	8.46e-01	0	56	104	0	58	13451
2026-01-05 12:02:30.32	178.55	47.26	-48.5	-59.3	3.8	8.45e-01	0	56	104	0	58	13496
2026-01-05 12:02:31.31	178.76	47.56	-48.5	-59.3	3.8	8.46e-01	0	56	104	0	58	13455
2026-01-05 12:02:32.30	178.97	47.85	-48.5	-59.3	3.8	8.47e-01	0	56	104	0	58	13425
2026-01-05 12:02:33.29	179.18	48.15	-48.5	-59.3	3.8	8.46e-01	0	56	104	0	58	13444
2026-01-05 12:02:34.28	179.40	48.45	-48.5	-59.2	3.8	8.47e-01	0	56	104	0	58	13403
2026-01-05 12:02:35.27	179.62	48.75	-48.5	-59.3	3.8	8.47e-01	0	56	104	0	58	13429
2026-01-05 12:02:36.26	179.85	49.06	-48.5	-59.3	3.8	8.46e-01	0	56	104	0	58	13417
2026-01-05 12:02:37.25	180.08	49.36	-48.5	-59.3	3.8	8.46e-01	0	56	104	0	58	13441
2026-01-05 12:02:38.24	180.31	49.67	-48.5	-59.2	3.8	8.47e-01	0	56	104	0	58	13412
2026-01-05 12:02:39.22	180.55	49.97	-48.5	-59.3	3.8	8.47e-01	0	56	104	0	58	13463
2026-01-05 12:02:40.20	180.79	50.28	-48.5	-59.3	3.8	8.46e-01	0	56	104	0	58	13418
2026-01-05 12:02:41.19	181.04	50.59	-48.5	-59.3	3.8	8.47e-01	0	56	104	0	58	13427
2026-01-05 12:02:42.17	181.29	50.90	-48.5	-59.3	3.8	8.47e-01	0	56	104	0	58	13444
2026-01-05 12:02:43.16	181.55	51.21	-48.4	-59.3	3.8	8.46e-01	0	56	104	0	58	13451
2026-01-05 12:02:44.15	181.82	51.53	-48.5	-59.3	3.8	8.47e-01	0	56	104	0	58	13485
2026-01-05 12:02:45.14	182.09	51.85	-48.5	-59.3	3.8	8.45e-01	0	57	104	0	58	13415
2026-01-05 12:02:46.13	182.37	52.16	-48.5	-59.3	3.8	8.46e-01	0	56	104	0	58	13437
2026-01-05 12:02:47.12	182.65	52.48	-48.5	-59.3	3.8	8.46e-01	0	56	104	0	58	13488
2026-01-05 12:02:48.10	182.93	52.80	-48.5	-59.3	3.8	8.46e-01	0	56	104	0	58	13458
2026-01-05 12:02:49.08	183.23	53.12	-48.5	-59.3	3.8	8.46e-01	0	56	104	0	58	13438
2026-01-05 12:02:50.07	183.53	53.45	-48.5	-59.3	3.8	8.46e-01	0	56	104	0	58	13442
2026-01-05 12:02:51.04	183.83	53.76	-48.5	-59.3	3.8	8.45e-01	0	56	104	0	58	13429
2026-01-05 12:02:52.03	184.15	54.09	-48.5	-59.3	3.8	8.46e-01	0	56	104	0	58	13427
2026-01-05 12:02:53.02	184.47	54.42	-48.5	-59.3	3.8	8.46e-01	0	56	104	0	58	13431
2026-01-05 12:02:54.00	184.79	54.74	-48.5	-59.3	3.8	8.47e-01	0	56	104	0	58	13427
2026-01-05 12:02:55.00	185.13	55.08	-48.5	-59.3	3.8	8.47e-01	0	56	104	0	58	13488
2026-01-05 12:02:55.98	185.48	55.41	-48.5	-59.3	3.8	8.45e-01	0	56	104	0	58	13461
2026-01-05 12:02:56.96	185.82	55.73	-48.5	-59.3	3.8	8.46e-01	0	56	104	0	58	13428
2026-01-05 12:02:57.96	186.19	56.07	-48.5	-59.3	3.8	8.46e-01	0	56	104	0	58	13434
2026-01-05 12:02:58.94	186.56	56.40	-48.5	-59.3	3.8	8.46e-01	0	56	104	0	58	13452
2026-01-05 12:02:59.93	186.93	56.74	-48.5	-59.3	3.8	8.46e-01	0	56	104	0	58	13430
2026-01-05 12:03:00.91	187.32	57.07	-48.5	-59.3	3.8	8.47e-01	0	56	104	0	58	13426
2026-01-05 12:03:01.90	187.72	57.40	-48.5	-59.3	3.8	8.45e-01	0	56	104	0	58	13505
2026-01-05 12:03:02.89	188.12	57.74	-48.5	-59.3	3.8	8.45e-01	0	56	104	0	58	13471
2026-01-05 12:03:03.88	188.54	58.08	-48.5	-59.3	3.8	8.47e-01	0	56	104	0	58	13425
2026-01-05 12:03:04.86	188.96	58.41	-48.5	-59.3	3.8	8.45e-01	0	57	104	0	58	13458
2026-01-05 12:03:05.86	189.41	58.76	-48.5	-59.3	3.8	8.46e-01	0	56	104	0	58	13456
2026-01-05 12:03:06.84	189.85	59.09	-48.5	-59.3	3.8	8.47e-01	0	56	104	0	58	13436
2026-01-05 12:03:07.83	190.32	59.43	-48.5	-59.3	3.8	8.46e-01	0	56	104	0	58	13468
2026-01-05 12:03:08.81	190.78	59.77	-48.5	-59.3	3.8	8.47e-01	0	56	104	0	58	13474
2026-01-05 12:03:09.80	191.27	60.11	-48.5	-59.3	3.8	8.45e-01	0	56	104	0	58	13441
2026-01-05 12:03:10.79	191.77	60.45	-48.5	-59.2	3.8	8.46e-01	0	57	104	0	58	13395
2026-01-05 12:03:11.76	192.27	60.78	-48.5	-59.3	3.8	8.46e-01	0	57	104	0	58	13454
2026-01-05 12:03:12.74	192.79	61.11	-48.5	-59.3	3.8	8.46e-01	0	57	104	0	58	13438
2026-01-05 12:03:13.73	193.33	61.45	-48.5	-59.3	3.8	8.46e-01	0	57	104	0	58	13438
2026-01-05 12:03:14.71	193.88	61.79	-48.5	-59.3	3.8	8.46e-01	0	57	104	0	58	13427
2026-01-05 12:03:15.69	194.45	62.12	-48.5	-59.3	3.8	8.46e-01	0	56	104	0	58	13462
2026-01-05 12:03:16.67	195.03	62.45	-48.5	-59.3	3.8	8.46e-01	0	56	104	0	58	13436
2026-01-05 12:03:17.66	195.63	62.79	-48.5	-59.3	3.8	8.47e-01	0	56	104	0	58	13455
2026-01-05 12:03:18.65	196.25	63.12	-48.5	-59.3	3.8	8.46e-01	0	57	104	0	58	13452
2026-01-05 12:03:19.63	196.88	63.45	-48.5	-59.3	3.8	8.47e-01	0	56	104	0	58	13469
2026-01-05 12:03:20.63	197.54	63.79	-48.5	-59.3	3.8	8.45e-01	0	57	104	0	58	13491
2026-01-05 12:03:21.61	198.20	64.12	-48.5	-59.3	3.8	8.48e-01	0	56	104	0	58	13454
2026-01-05 12:03:22.60	198.90	64.45	-48.5	-59.3	3.8	8.46e-01	0	56	104	0	58	13464
2026-01-05 12:03:23.59	199.61	64.77	-48.5	-59.3	3.8	8.47e-01	0	57	104	0	58	13432
2026-01-05 12:03:24.58	200.34	65.10	-48.5	-59.3	3.8	8.46e-01	0	57	104	0	58	13439
2026-01-05 12:03:25.55	201.08	65.41	-48.5	-59.2	3.8	8.46e-01	0	56	104	0	58	13413
2026-01-05 12:03:26.54	201.86	65.73	-48.5	-59.3	3.8	8.45e-01	0	56	104	0	58	13466
2026-01-05 12:03:27.52	202.65	66.05	-48.5	-59.2	3.8	8.46e-01	0	56	104	0	58	13406
2026-01-05 12:03:28.51	203.47	66.36	-48.5	-59.3	3.8	8.46e-01	0	57	104	0	58	13425
2026-01-05 12:03:29.48	204.30	66.66	-48.5	-59.3	3.8	8.45e-01	0	56	104	0	58	13470
2026-01-05 12:03:30.46	205.16	66.97	-48.5	-59.3	3.8	8.46e-01	0	57	104	0	58	13441
2026-01-05 12:03:31.45	206.05	67.27	-48.5	-59.3	3.8	8.47e-01	0	57	104	0	58	13486
2026-01-05 12:03:32.44	206.98	67.57	-48.5	-59.3	3.8	8.47e-01	0	57	104	0	58	13479
2026-01-05 12:03:33.42	207.91	67.86	-48.5	-59.3	3.8	8.45e-01	0	56	104	0	58	13442
2026-01-05 12:03:34.40	208.88	68.15	-48.5	-59.3	3.8	8.46e-01	0	57	104	0	58	13442
2026-01-05 12:03:35.40	209.89	68.44	-48.5	-59.3	3.8	8.46e-01	0	57	104	0	58	13467
2026-01-05 12:03:36.40	210.94	68.72	-48.5	-59.3	3.8	8.44e-01	0	57	104	0	58	13442
2026-01-05 12:03:37.38	211.99	68.99	-48.5	-59.3	3.8	8.46e-01	0	57	104	0	58	13434
2026-01-05 12:03:38.36	213.07	69.26	-48.5	-59.3	3.8	8.46e-01	0	57	104	0	58	13449
2026-01-05 12:03:39.34	214.18	69.51	-48.5	-59.3	3.8	8.47e-01	0	57	104	0	58	13443
2026-01-05 12:03:40.32	215.32	69.77	-48.5	-59.3	3.8	8.46e-01	0	57	104	0	58	13464
2026-01-05 12:03:41.31	216.50	70.02	-48.5	-59.3	3.8	8.46e-01	0	57	104	0	58	13418
2026-01-05 12:03:42.30	217.71	70.26	-48.5	-59.3	3.8	8.46e-01	0	57	104	0	58	13463
2026-01-05 12:03:43.28	218.94	70.49	-48.5	-59.3	3.8	8.45e-01	0	56	104	0	58	13419
2026-01-05 12:03:44.27	220.22	70.71	-48.5	-59.3	3.8	8.46e-01	0	57	104	0	58	13461
2026-01-05 12:03:45.25	221.51	70.92	-46.7	-59.3	3.8	8.46e-01	0	57	104	0	58	13427
2026-01-05 12:03:46.25	222.86	71.13	-48.5	-59.3	3.8	8.45e-01	0	57	104	0	58	13449
2026-01-05 12:03:47.23	224.22	71.33	-48.5	-59.2	3.8	8.47e-01	0	57	104	0	58	13405
2026-01-05 12:03:48.22	225.62	71.52	-48.5	-59.3	3.8	8.46e-01	0	57	104	0	58	13442
2026-01-05 12:03:49.22	227.06	71.69	-48.5	-59.3	3.8	8.47e-01	0	57	104	0	58	13419
2026-01-05 12:03:50.20	228.50	71.86	-48.5	-59.3	3.8	8.46e-01	0	57	104	0	58	13495
2026-01-05 12:03:51.19	229.99	72.02	-48.5	-59.3	3.8	8.46e-01	0	57	104	0	58	13415
2026-01-05 12:03:52.17	231.48	72.16	-48.5	-59.3	3.8	8.47e-01	0	57	104	0	58	13442
2026-01-05 12:03:53.16	233.02	72.29	-48.5	-59.3	3.8	8.46e-01	0	57	104	0	58	13492
2026-01-05 12:03:54.14	234.56	72.41	-48.5	-59.3	3.8	8.46e-01	0	57	104	0	58	13457
2026-01-05 12:03:55.13	236.14	72.52	-48.5	-59.3	3.8	8.46e-01	0	57	104	0	58	13457
2026-01-05 12:03:56.12	237.74	72.62	-48.5	-59.3	3.8	8.45e-01	0	56	104	0	58	13438
2026-01-05 12:03:57.10	239.34	72.70	-48.6	-59.2	3.8	8.47e-01	0	57	104	0	58	13400
2026-01-05 12:03:58.09	240.97	72.77	-48.5	-59.3	3.8	8.46e-01	0	57	104	0	58	13452
2026-01-05 12:03:59.08	242.61	72.82	-48.5	-59.3	3.8	8.46e-01	0	57	104	0	58	13480
2026-01-05 12:04:00.07	244.26	72.87	-48.5	-59.2	3.8	8.46e-01	0	57	104	0	58	13411
2026-01-05 12:04:01.04	245.89	72.90	-48.5	-59.3	3.8	8.47e-01	0	57	104	0	58	13476
2026-01-05 12:04:02.03	247.56	72.91	-48.5	-59.3	3.8	8.48e-01	0	57	104	0	58	13456
2026-01-05 12:04:03.02	249.23	72.92	-48.5	-59.3	3.8	8.46e-01	0	57	104	0	58	13440
2026-01-05 12:04:04.00	250.88	72.91	-48.5	-59.3	3.8	8.45e-01	0	57	104	0	58	13455
2026-01-05 12:04:04.99	252.54	72.88	-48.5	-59.3	3.8	8.46e-01	0	57	104	0	58	13432
2026-01-05 12:04:05.97	254.18	72.84	-48.5	-59.3	3.8	8.46e-01	0	57	104	0	58	13441
2026-01-05 12:04:06.96	255.83	72.79	-48.5	-59.3	3.8	8.45e-01	0	57	104	0	58	13453
2026-01-05 12:04:07.95	257.46	72.73	-48.5	-59.3	3.8	8.46e-01	0	57	104	0	58	13484
2026-01-05 12:04:08.94	259.09	72.65	-48.5	-59.3	3.8	8.47e-01	0	57	104	0	58	13460
2026-01-05 12:04:09.91	260.66	72.56	-48.5	-59.3	3.8	8.44e-01	0	57	104	0	58	13443
2026-01-05 12:04:10.90	262.25	72.46	-48.5	-59.3	3.8	8.46e-01	0	57	104	0	58	13461
2026-01-05 12:04:11.89	263.81	72.34	-48.5	-59.3	3.8	8.46e-01	0	57	104	0	58	13493
2026-01-05 12:04:12.88	265.36	72.21	-48.5	-59.3	3.8	8.46e-01	0	57	104	0	58	13460
2026-01-05 12:04:13.87	266.88	72.07	-48.5	-59.3	3.8	8.46e-01	0	57	104	0	58	13446
2026-01-05 12:04:14.86	268.37	71.92	-48.5	-59.3	3.8	8.48e-01	0	57	104	0	58	13466
2026-01-05 12:04:15.85	269.84	71.76	-48.5	-59.2	3.8	8.46e-01	0	57	104	0	58	13414
2026-01-05 12:04:16.83	271.26	71.59	-48.5	-59.3	3.8	8.45e-01	0	57	104	0	58	13437
2026-01-05 12:04:17.81	272.66	71.41	-48.5	-59.3	3.8	8.46e-01	0	57	104	0	58	13420
2026-01-05 12:04:18.81	274.05	71.21	-48.5	-59.3	3.8	8.47e-01	0	57	104	0	58	13446
2026-01-05 12:04:19.79	275.39	71.01	-48.5	-59.3	3.8	8.45e-01	0	57	104	0	58	13423
2026-01-05 12:04:20.77	276.69	70.80	-48.5	-59.3	3.8	8.45e-01	0	57	104	0	58	13433
2026-01-05 12:04:21.77	277.99	70.58	-48.5	-59.3	3.8	8.45e-01	0	57	104	0	58	13454
2026-01-05 12:04:22.75	279.24	70.35	-48.5	-59.3	3.8	8.46e-01	0	57	104	0	58	13452
2026-01-05 12:04:23.73	280.45	70.12	-48.5	-59.3	3.8	8.46e-01	0	57	104	0	58	13443
2026-01-05 12:04:24.72	281.65	69.87	-48.5	-59.3	3.8	8.46e-01	0	57	104	0	58	13434
2026-01-05 12:04:25.71	282.81	69.62	-48.5	-59.3	3.8	8.46e-01	0	57	104	0	58	13439
2026-01-05 12:04:26.69	283.93	69.37	-48.5	-59.3	3.8	8.46e-01	0	57	104	0	58	13440
2026-01-05 12:04:27.67	285.02	69.10	-48.5	-59.3	3.8	8.47e-01	0	57	104	0	58	13448
2026-01-05 12:04:28.65	286.08	68.84	-48.5	-59.2	3.8	8.46e-01	0	57	104	0	58	13392
2026-01-05 12:04:29.63	287.12	68.56	-48.5	-59.3	3.8	8.46e-01	0	57	104	0	58	13458
2026-01-05 12:04:30.62	288.13	68.28	-48.5	-59.3	3.8	8.46e-01	0	57	104	0	58	13473
2026-01-05 12:04:31.60	289.11	67.99	-48.5	-59.3	3.8	8.47e-01	0	57	104	0	58	13456
2026-01-05 12:04:32.59	290.07	67.70	-48.5	-59.3	3.8	8.45e-01	0	57	104	0	58	13464
2026-01-05 12:04:33.58	291.00	67.41	-48.5	-59.3	3.8	8.47e-01	0	57	104	0	58	13447
2026-01-05 12:04:34.57	291.91	67.10	-48.5	-59.3	3.8	8.46e-01	0	57	104	0	58	13425
2026-01-05 12:04:35.56	292.79	66.80	-48.5	-59.3	3.8	8.46e-01	0	57	104	0	58	13455
2026-01-05 12:04:36.54	293.63	66.49	-48.5	-59.3	3.8	8.47e-01	0	57	104	0	58	13466
2026-01-05 12:04:37.53	294.46	66.18	-48.6	-59.3	3.8	8.46e-01	0	57	104	0	58	13456
2026-01-05 12:04:38.52	295.27	65.87	-48.6	-59.3	3.8	8.47e-01	0	57	104	0	58	13468
2026-01-05 12:04:39.50	296.05	65.55	-48.6	-59.3	3.8	8.45e-01	0	57	104	0	58	13463
2026-01-05 12:04:40.49	296.81	65.23	-48.5	-59.3	3.8	8.46e-01	0	57	104	0	58	13474
2026-01-05 12:04:41.49	297.56	64.90	-48.6	-59.3	3.8	8.47e-01	0	57	104	0	58	13436
2026-01-05 12:04:42.48	298.28	64.58	-48.5	-59.2	3.8	8.46e-01	0	57	104	0	58	13394
2026-01-05 12:04:43.46	298.97	64.26	-48.5	-59.3	3.8	8.45e-01	0	57	104	0	58	13452
2026-01-05 12:04:44.45	299.65	63.93	-48.6	-59.3	3.8	8.47e-01	0	57	104	0	58	13437
2026-01-05 12:04:45.44	300.31	63.60	-48.6	-59.3	3.8	8.45e-01	0	57	104	0	58	13453
2026-01-05 12:04:46.42	300.95	63.27	-48.5	-59.3	3.8	8.47e-01	0	57	104	0	58	13447
2026-01-05 12:04:47.42	301.58	62.93	-48.5	-59.3	3.8	8.46e-01	0	57	104	0	58	13436
2026-01-05 12:04:48.39	302.18	62.60	-48.5	-59.3	3.8	8.46e-01	0	57	104	0	58	13454
2026-01-05 12:04:49.38	302.77	62.27	-48.5	-59.3	3.8	8.46e-01	0	57	104	0	58	13428
2026-01-05 12:04:50.36	303.34	61.93	-48.5	-59.3	3.8	8.47e-01	0	57	104	0	58	13490
2026-01-05 12:04:51.35	303.90	61.60	-48.5	-59.3	3.8	8.47e-01	0	57	104	0	58	13446
2026-01-05 12:04:52.34	304.44	61.26	-48.5	-59.3	3.8	8.46e-01	0	57	104	0	58	13444
2026-01-05 12:04:53.32	304.97	60.92	-48.6	-59.3	3.8	8.46e-01	0	57	104	0	58	13460
2026-01-05 12:04:54.32	305.49	60.58	-48.6	-59.3	3.8	8.47e-01	0	57	104	0	58	13464
2026-01-05 12:04:55.30	305.99	60.25	-48.6	-59.3	3.8	8.47e-01	0	57	104	0	58	13439
2026-01-05 12:04:56.29	306.48	59.91	-48.5	-59.3	3.8	8.45e-01	0	57	104	0	58	13429
2026-01-05 12:04:57.27	306.95	59.57	-48.6	-59.3	3.8	8.47e-01	0	57	104	0	58	13479
2026-01-05 12:04:58.25	307.41	59.24	-48.5	-59.3	3.8	8.47e-01	0	57	104	0	58	13442
2026-01-05 12:04:59.23	307.86	58.90	-48.5	-59.3	3.8	8.45e-01	0	57	104	0	58	13443
2026-01-05 12:05:00.21	308.30	58.57	-48.5	-59.3	3.8	8.45e-01	0	57	104	0	58	13456
2026-01-05 12:05:01.20	308.74	58.23	-48.5	-59.3	3.8	8.46e-01	0	57	104	0	58	13454
2026-01-05 12:05:02.19	309.16	57.89	-48.5	-59.3	3.8	8.45e-01	0	57	104	0	58	13484
2026-01-05 12:05:03.16	309.56	57.56	-48.4	-59.3	3.8	8.46e-01	0	57	104	0	58	13440
2026-01-05 12:05:04.14	309.96	57.23	-48.5	-59.3	3.8	8.46e-01	0	57	104	0	58	13422
2026-01-05 12:05:05.13	310.35	56.90	-48.6	-59.3	3.8	8.46e-01	0	57	104	0	58	13427
2026-01-05 12:05:06.12	310.73	56.56	-48.5	-59.3	3.8	8.45e-01	0	57	104	0	58	13430
2026-01-05 12:05:07.10	311.10	56.23	-48.5	-59.3	3.8	8.46e-01	0	57	104	0	58	13470
2026-01-05 12:05:08.08	311.46	55.90	-48.5	-59.3	3.8	8.45e-01	0	57	104	0	58	13440
2026-01-05 12:05:09.07	311.82	55.57	-48.5	-59.3	3.8	8.46e-01	0	57	104	0	58	13475
2026-01-05 12:05:10.05	312.16	55.24	-48.5	-59.3	3.8	8.46e-01	0	57	104	0	58	13448
2026-01-05 12:05:11.04	312.50	54.91	-48.5	-59.3	3.8	8.45e-01	0	57	104	0	58	13427
2026-01-05 12:05:12.04	312.84	54.58	-48.5	-59.3	3.8	8.46e-01	0	57	104	0	58	13485
2026-01-05 12:05:13.03	313.16	54.25	-48.5	-59.3	3.8	8.47e-01	0	57	104	0	58	13421
2026-01-05 12:05:14.02	313.48	53.93	-48.5	-59.2	3.8	8.46e-01	0	57	104	0	58	13413
2026-01-05 12:05:15.02	313.79	53.60	-48.5	-59.3	3.8	8.46e-01	0	57	104	0	58	13490
2026-01-05 12:05:16.00	314.10	53.28	-48.6	-59.3	3.8	8.47e-01	0	57	104	0	58	13445
2026-01-05 12:05:16.99	314.39	52.96	-48.5	-59.3	3.8	8.45e-01	0	57	104	0	58	13447
2026-01-05 12:05:17.97	314.68	52.64	-48.5	-59.3	3.8	8.47e-01	0	57	104	0	58	13452
2026-01-05 12:05:18.96	314.97	52.32	-48.5	-59.3	3.8	8.46e-01	0	57	104	0	58	13438
2026-01-05 12:05:19.94	315.24	52.00	-48.6	-59.3	3.8	8.47e-01	0	57	104	0	58	13485
2026-01-05 12:05:20.93	315.52	51.69	-48.5	-59.3	3.8	8.46e-01	0	57	104	0	58	13428
2026-01-05 12:05:21.90	315.78	51.38	-48.5	-59.3	3.8	8.46e-01	0	57	104	0	58	13424
2026-01-05 12:05:22.89	316.04	51.06	-48.5	-59.3	3.8	8.46e-01	0	57	104	0	58	13472
2026-01-05 12:05:23.87	316.29	50.76	-48.5	-59.3	3.8	8.46e-01	0	57	104	0	58	13446
2026-01-05 12:05:24.86	316.55	50.44	-48.5	-59.3	3.8	8.46e-01	0	57	104	0	58	13437
2026-01-05 12:05:25.84	316.79	50.14	-48.5	-59.2	3.8	8.45e-01	0	57	104	0	58	13414
2026-01-05 12:05:26.83	317.03	49.83	-48.5	-59.3	3.8	8.46e-01	0	57	104	0	58	13458
2026-01-05 12:05:27.81	317.27	49.53	-48.6	-59.3	3.8	8.46e-01	0	57	104	0	58	13441
2026-01-05 12:05:28.80	317.50	49.22	-48.5	-59.3	3.8	8.46e-01	0	57	104	0	58	13451
2026-01-05 12:05:29.78	317.72	48.92	-48.5	-59.3	3.8	8.46e-01	0	57	104	0	58	13448
2026-01-05 12:05:30.77	317.95	48.62	-48.6	-59.3	3.8	8.46e-01	0	57	104	0	58	13432
2026-01-05 12:05:31.76	318.17	48.32	-48.6	-59.3	3.8	8.47e-01	0	57	104	0	58	13475
2026-01-05 12:05:32.74	318.38	48.03	-48.5	-59.3	3.8	8.46e-01	0	57	104	0	58	13480
2026-01-05 12:05:33.73	318.59	47.73	-48.6	-59.3	3.8	8.47e-01	0	57	104	0	58	13421
2026-01-05 12:05:34.72	318.80	47.43	-48.5	-59.3	3.8	8.47e-01	0	57	104	0	58	13420
2026-01-05 12:05:35.70	319.00	47.14	-48.5	-59.3	3.8	8.47e-01	0	57	104	0	58	13447
2026-01-05 12:05:36.68	319.20	46.85	-48.5	-59.2	3.8	8.46e-01	0	57	104	0	58	13402
2026-01-05 12:05:37.67	319.40	46.56	-48.5	-59.3	3.8	8.46e-01	0	57	104	0	58	13473
2026-01-05 12:05:38.65	319.59	46.28	-48.5	-59.3	3.8	8.46e-01	0	57	104	0	58	13456
2026-01-05 12:05:39.65	319.78	45.99	-48.5	-59.3	3.8	8.47e-01	0	57	104	0	58	13439
2026-01-05 12:05:40.64	319.96	45.70	-48.5	-59.3	3.8	8.46e-01	0	57	104	0	58	13440
2026-01-05 12:05:41.62	320.15	45.42	-48.5	-59.3	3.8	8.47e-01	0	57	104	0	58	13459
2026-01-05 12:05:42.60	320.32	45.15	-48.5	-59.3	3.8	8.46e-01	0	57	104	0	58	13464
2026-01-05 12:05:43.58	320.50	44.87	-47.8	-59.3	3.8	8.45e-01	0	57	104	0	58	13464
2026-01-05 12:05:44.57	320.67	44.59	-48.5	-59.3	3.8	8.45e-01	0	57	104	0	58	13429
2026-01-05 12:05:45.55	320.84	44.32	-48.5	-59.3	3.8	8.46e-01	0	57	104	0	58	13517
2026-01-05 12:05:46.54	321.01	44.04	-48.5	-59.3	3.8	8.45e-01	0	57	104	0	58	13465
2026-01-05 12:05:47.52	321.17	43.77	-48.5	-59.3	3.8	8.46e-01	0	57	104	0	58	13427
2026-01-05 12:05:48.51	321.34	43.50	-48.5	-59.3	3.8	8.48e-01	0	57	104	0	58	13437
2026-01-05 12:05:49.50	321.50	43.23	-48.5	-59.3	3.8	8.46e-01	0	57	104	0	58	13425
2026-01-05 12:05:50.49	321.65	42.96	-48.5	-59.3	3.8	8.46e-01	0	57	104	0	58	13465
2026-01-05 12:05:51.48	321.81	42.70	-48.5	-59.2	3.8	8.46e-01	0	57	104	0	58	13391
2026-01-05 12:05:52.47	321.96	42.43	-48.5	-59.3	3.8	8.47e-01	0	57	104	0	58	13454
2026-01-05 12:05:53.46	322.11	42.17	-48.5	-59.3	3.8	8.47e-01	0	57	104	0	58	13481
2026-01-05 12:05:54.45	322.26	41.91	-48.4	-59.2	3.8	8.46e-01	0	57	104	0	58	13409
2026-01-05 12:05:55.43	322.40	41.65	-48.5	-59.3	3.8	8.47e-01	0	57	104	0	58	13441
2026-01-05 12:05:56.43	322.55	41.39	-48.5	-59.3	3.8	8.46e-01	0	57	104	0	58	13442
2026-01-05 12:05:57.41	322.68	41.13	-48.5	-59.2	3.8	8.46e-01	0	57	104	0	58	13378
2026-01-05 12:05:58.40	322.82	40.88	-48.5	-59.3	3.8	8.46e-01	0	57	104	0	58	13461
2026-01-05 12:05:59.38	322.96	40.63	-48.5	-59.3	3.8	8.47e-01	0	57	104	0	58	13443
2026-01-05 12:06:00.38	323.09	40.37	-48.5	-59.3	3.8	8.46e-01	0	57	104	0	58	13462
2026-01-05 12:06:01.36	323.23	40.13	-48.6	-59.3	3.8	8.46e-01	0	57	104	0	58	13434
2026-01-05 12:06:02.34	323.35	39.88	-48.6	-59.3	3.8	8.46e-01	0	57	104	0	58	13486
2026-01-05 12:06:03.33	323.48	39.63	-48.5	-59.2	3.8	8.46e-01	0	57	104	0	58	13411
2026-01-05 12:06:04.32	323.61	39.39	-48.6	-59.3	3.8	8.46e-01	0	57	104	0	58	13447
2026-01-05 12:06:05.30	323.73	39.15	-48.5	-59.3	3.8	8.46e-01	0	57	104	0	58	13432
2026-01-05 12:06:06.29	323.86	38.90	-48.5	-59.3	3.8	8.46e-01	0	57	104	0	58	13449
2026-01-05 12:06:07.27	323.98	38.67	-48.6	-59.3	3.8	8.47e-01	0	57	104	0	58	13463
2026-01-05 12:06:08.26	324.10	38.43	-48.5	-59.2	3.8	8.45e-01	0	57	104	0	58	13409
2026-01-05 12:06:09.25	324.22	38.19	-48.5	-59.3	3.8	8.46e-01	0	57	104	0	58	13473
2026-01-05 12:06:10.23	324.33	37.96	-48.5	-59.3	3.8	8.46e-01	0	57	104	0	58	13442
2026-01-05 12:06:11.22	324.45	37.72	-48.5	-59.3	3.8	8.46e-01	0	57	104	0	58	13452
2026-01-05 12:06:12.20	324.56	37.49	-48.5	-59.3	3.8	8.47e-01	0	57	104	0	58	13433
2026-01-05 12:06:13.19	324.67	37.26	-48.5	-59.3	3.8	8.47e-01	0	57	104	0	58	13470
2026-01-05 12:06:14.18	324.78	37.03	-48.5	-59.3	3.8	8.44e-01	0	57	104	0	58	13432
2026-01-05 12:06:15.16	324.89	36.80	-48.5	-59.3	3.8	8.47e-01	0	57	104	0	58	13451
2026-01-05 12:06:16.16	325.00	36.57	-48.5	-59.2	3.8	8.46e-01	0	57	104	0	58	13368
2026-01-05 12:06:17.14	325.10	36.35	-48.5	-59.3	3.8	8.45e-01	0	57	104	0	58	13428
2026-01-05 12:06:18.13	325.21	36.13	-48.5	-59.2	3.8	8.45e-01	0	57	104	0	58	13350
2026-01-05 12:06:19.11	325.31	35.91	-48.5	-59.2	3.8	8.45e-01	0	57	104	0	58	13379
2026-01-05 12:06:20.09	325.41	35.69	-48.5	-59.3	3.8	8.47e-01	0	57	104	0	58	13444
2026-01-05 12:06:21.08	325.51	35.47	-48.5	-59.3	3.8	8.47e-01	0	57	104	0	58	13495
2026-01-05 12:06:22.07	325.61	35.25	-48.5	-59.3	3.8	8.46e-01	0	57	104	0	58	13441
2026-01-05 12:06:23.06	325.71	35.03	-48.6	-59.2	3.8	8.45e-01	0	57	104	0	58	13406
2026-01-05 12:06:24.03	325.80	34.82	-48.6	-59.3	3.8	8.45e-01	0	57	104	0	58	13437
2026-01-05 12:06:25.02	325.90	34.61	-48.5	-59.2	3.8	8.46e-01	0	57	104	0	58	13368
2026-01-05 12:06:26.01	325.99	34.40	-48.5	-59.2	3.8	8.45e-01	0	57	104	0	58	13407
2026-01-05 12:06:27.00	326.08	34.18	-48.5	-59.2	3.8	8.46e-01	0	57	104	0	58	13400
2026-01-05 12:06:27.99	326.18	33.97	-48.5	-59.2	3.8	8.47e-01	0	57	104	0	58	13393
2026-01-05 12:06:28.97	326.27	33.77	-48.5	-59.2	3.8	8.47e-01	0	57	104	0	58	13393
2026-01-05 12:06:29.96	326.36	33.56	-48.5	-59.3	3.8	8.46e-01	0	57	104	0	58	13418
2026-01-05 12:06:30.95	326.45	33.35	-48.5	-59.3	3.8	8.46e-01	0	57	104	0	58	13434
2026-01-05 12:06:31.93	326.53	33.15	-48.5	-59.3	3.8	8.46e-01	0	57	104	0	58	13448
2026-01-05 12:06:32.92	326.62	32.95	-48.5	-59.2	3.8	8.46e-01	0	57	104	0	58	13407
2026-01-05 12:06:33.91	326.70	32.75	-48.5	-59.3	3.8	8.46e-01	0	57	104	0	58	13424
2026-01-05 12:06:34.89	326.79	32.55	-48.6	-59.2	3.8	8.47e-01	0	57	104	0	58	13395
2026-01-05 12:06:35.88	326.87	32.35	-48.5	-59.3	3.8	8.46e-01	0	57	104	0	58	13428
2026-01-05 12:06:36.87	326.95	32.15	-48.5	-59.3	3.8	8.47e-01	0	57	104	0	58	13434
2026-01-05 12:06:37.86	327.04	31.95	-48.5	-59.3	3.8	8.47e-01	0	57	104	0	58	13454
2026-01-05 12:06:38.85	327.12	31.76	-48.5	-59.3	3.8	8.46e-01	0	57	104	0	58	13430
2026-01-05 12:06:39.84	327.20	31.56	-48.5	-59.2	3.8	8.47e-01	0	57	104	0	58	13399
2026-01-05 12:06:40.83	327.28	31.37	-48.5	-59.2	3.8	8.46e-01	0	57	104	0	58	13378
2026-01-05 12:06:41.82	327.35	31.18	-48.5	-59.2	3.8	8.47e-01	0	57	104	0	58	13376
2026-01-05 12:06:42.81	327.43	30.99	-48.5	-59.3	3.8	8.47e-01	0	57	104	0	58	13439
2026-01-05 12:06:43.79	327.51	30.80	-48.5	-59.3	3.8	8.47e-01	0	58	104	0	58	13421
2026-01-05 12:06:44.79	327.58	30.61	-48.5	-59.2	3.8	8.45e-01	0	57	104	0	58	13385
2026-01-05 12:06:45.77	327.66	30.42	-48.5	-59.2	3.8	8.46e-01	0	57	104	0	58	13413
2026-01-05 12:06:46.75	327.73	30.24	-48.5	-59.3	3.8	8.47e-01	0	57	104	0	58	13450
2026-01-05 12:06:47.75	327.81	30.05	-48.4	-59.3	3.8	8.46e-01	0	57	104	0	58	13452
2026-01-05 12:06:48.73	327.88	29.87	-48.5	-59.3	3.8	8.46e-01	0	57	104	0	58	13451
2026-01-05 12:06:49.71	327.95	29.69	-48.5	-59.2	3.8	8.46e-01	0	57	104	0	58	13391
2026-01-05 12:06:50.70	328.02	29.51	-48.4	-59.3	3.8	8.47e-01	0	58	104	0	58	13438
2026-01-05 12:06:51.69	328.09	29.33	-48.5	-59.2	3.8	8.45e-01	0	57	104	0	58	13315
2026-01-05 12:06:52.68	328.16	29.15	-48.5	-59.3	3.8	8.45e-01	0	57	104	0	58	13416
2026-01-05 12:06:53.67	328.23	28.97	-48.5	-59.2	3.8	8.46e-01	0	57	104	0	58	13390
2026-01-05 12:06:54.65	328.29	28.79	-48.5	-59.2	3.8	8.46e-01	0	57	104	0	58	13397
2026-01-05 12:06:55.64	328.36	28.62	-48.5	-59.2	3.8	8.46e-01	0	57	104	0	58	13372
2026-01-05 12:06:56.63	328.43	28.44	-48.5	-59.3	3.8	8.47e-01	0	57	104	0	58	13471
2026-01-05 12:06:57.62	328.49	28.27	-48.5	-59.2	3.8	8.47e-01	0	57	104	0	58	13395
2026-01-05 12:06:58.61	328.56	28.09	-48.5	-59.3	3.8	8.47e-01	0	57	104	0	58	13438
2026-01-05 12:06:59.60	328.62	27.92	-48.5	-59.3	3.8	8.46e-01	0	57	104	0	58	13420
2026-01-05 12:07:00.59	328.69	27.75	-48.5	-59.3	3.8	8.46e-01	0	57	104	0	58	13432
2026-01-05 12:07:01.58	328.75	27.58	-48.5	-59.3	3.8	8.46e-01	0	57	104	0	58	13457
2026-01-05 12:07:02.56	328.81	27.41	-48.5	-59.2	3.8	8.45e-01	0	57	104	0	58	13401
2026-01-05 12:07:03.56	328.88	27.25	-48.4	-59.3	3.8	8.46e-01	0	57	104	0	58	13471
2026-01-05 12:07:04.54	328.94	27.08	-48.5	-59.3	3.8	8.47e-01	0	57	104	0	58	13442
2026-01-05 12:07:05.53	329.00	26.91	-48.5	-59.2	3.8	8.46e-01	0	57	104	0	58	13402
2026-01-05 12:07:06.51	329.06	26.75	-48.5	-59.3	3.8	8.46e-01	0	57	104	0	58	13427
2026-01-05 12:07:07.50	329.12	26.59	-48.5	-59.2	3.8	8.46e-01	0	57	104	0	58	13381
2026-01-05 12:07:08.49	329.18	26.42	-48.5	-59.3	3.8	8.46e-01	0	57	104	0	58	13459
2026-01-05 12:07:09.48	329.24	26.26	-48.5	-59.3	3.8	8.45e-01	0	57	104	0	58	13421
2026-01-05 12:07:10.47	329.29	26.10	-48.5	-59.3	3.8	8.46e-01	0	57	104	0	58	13458
2026-01-05 12:07:11.46	329.35	25.94	-48.5	-59.3	3.8	8.46e-01	0	57	104	0	58	13467
2026-01-05 12:07:12.44	329.41	25.78	-48.5	-59.2	3.8	8.47e-01	0	57	104	0	58	13408
2026-01-05 12:07:13.43	329.46	25.62	-48.5	-59.3	3.8	8.47e-01	0	57	104	0	58	13463
2026-01-05 12:07:14.43	329.52	25.47	-48.5	-59.2	3.8	8.46e-01	0	57	104	0	58	13414
2026-01-05 12:07:15.41	329.58	25.31	-48.5	-59.3	3.8	8.47e-01	0	57	104	0	58	13449
2026-01-05 12:07:16.40	329.63	25.16	-48.5	-59.3	3.8	8.45e-01	0	57	104	0	58	13445
2026-01-05 12:07:17.39	329.69	25.00	-48.5	-59.3	3.8	8.47e-01	0	57	104	0	58	13438
2026-01-05 12:07:18.38	329.74	24.85	-48.5	-59.3	3.8	8.46e-01	0	57	104	0	58	13426
2026-01-05 12:07:19.37	329.79	24.69	-48.5	-59.3	3.8	8.46e-01	0	57	104	0	58	13422
2026-01-05 12:07:20.35	329.85	24.54	-48.5	-59.3	3.8	8.46e-01	0	57	104	0	58	13433
2026-01-05 12:07:21.34	329.90	24.39	-48.5	-59.3	3.8	8.45e-01	0	57	104	0	58	13428
2026-01-05 12:07:22.33	329.95	24.24	-48.5	-59.3	3.8	8.45e-01	0	57	104	0	58	13484
2026-01-05 12:07:23.32	330.00	24.09	-48.5	-59.2	3.8	8.45e-01	0	57	104	0	58	13412
2026-01-05 12:07:24.31	330.05	23.94	-48.5	-59.3	3.8	8.47e-01	0	57	104	0	58	13470
2026-01-05 12:07:25.30	330.10	23.80	-48.5	-59.3	3.8	8.47e-01	0	57	104	0	58	13432
2026-01-05 12:07:26.29	330.15	23.65	-48.5	-59.3	3.8	8.46e-01	0	57	104	0	58	13417
2026-01-05 12:07:27.28	330.20	23.50	-48.5	-59.3	3.8	8.47e-01	0	57	104	0	58	13436
2026-01-05 12:07:28.26	330.25	23.36	-48.5	-59.3	3.8	8.46e-01	0	57	104	0	58	13416
2026-01-05 12:07:29.24	330.30	23.22	-48.5	-59.3	3.8	8.46e-01	0	57	104	0	58	13447
2026-01-05 12:07:30.22	330.35	23.07	-48.5	-59.2	3.8	8.46e-01	0	57	104	0	58	13406
2026-01-05 12:07:31.21	330.40	22.93	-48.5	-59.3	3.8	8.46e-01	0	57	104	0	58	13429
2026-01-05 12:07:32.20	330.45	22.79	-48.5	-59.3	3.8	8.46e-01	0	57	104	0	58	13427
2026-01-05 12:07:33.19	330.49	22.65	-48.5	-59.2	3.8	8.46e-01	0	57	104	0	58	13408
2026-01-05 12:07:34.16	330.54	22.51	-48.5	-59.3	3.8	8.47e-01	0	57	104	0	58	13441
2026-01-05 12:07:35.14	330.59	22.37	-48.5	-59.2	3.8	8.46e-01	0	57	104	0	58	13402
2026-01-05 12:07:36.13	330.63	22.23	-48.5	-59.2	3.8	8.46e-01	0	57	104	0	58	13412
2026-01-05 12:07:37.11	330.68	22.09	-48.5	-59.2	3.8	8.46e-01	0	57	104	0	58	13402
2026-01-05 12:07:38.11	330.72	21.95	-48.5	-59.2	3.8	8.47e-01	0	57	104	0	58	13409
2026-01-05 12:07:39.10	330.77	21.82	-48.5	-59.2	3.8	8.47e-01	0	57	104	0	58	13405
2026-01-05 12:07:40.09	330.81	21.68	-48.5	-59.2	3.8	8.45e-01	0	57	104	0	58	13388
2026-01-05 12:07:41.07	330.86	21.55	-48.5	-59.2	3.8	8.45e-01	0	57	104	0	58	13386
2026-01-05 12:07:42.07	330.90	21.41	-48.5	-59.2	3.8	8.46e-01	0	57	104	0	58	13408
2026-01-05 12:07:43.06	330.95	21.28	-48.5	-59.3	3.8	8.46e-01	0	57	104	0	58	13451
2026-01-05 12:07:44.04	330.99	21.14	-48.5	-59.3	3.8	8.46e-01	0	57	104	0	58	13424
2026-01-05 12:07:45.03	331.03	21.01	-48.6	-59.3	3.8	8.47e-01	0	57	104	0	58	13444
2026-01-05 12:07:46.01	331.08	20.88	-48.5	-59.2	3.8	8.46e-01	0	57	104	0	58	13382
2026-01-05 12:07:47.00	331.12	20.75	-48.5	-59.2	3.8	8.46e-01	0	57	104	0	58	13412
2026-01-05 12:07:47.99	331.16	20.62	-48.5	-59.2	3.8	8.46e-01	0	57	104	0	58	13411
2026-01-05 12:07:48.98	331.20	20.49	-48.6	-59.3	3.8	8.46e-01	0	57	104	0	58	13420
2026-01-05 12:07:49.97	331.24	20.36	-48.5	-59.3	3.8	8.45e-01	0	57	104	0	58	13427
2026-01-05 12:07:50.96	331.28	20.23	-48.5	-59.2	3.8	8.45e-01	0	57	104	0	58	13408
2026-01-05 12:07:51.95	331.33	20.10	-48.5	-59.3	3.8	8.46e-01	0	57	104	0	58	13454
2026-01-05 12:07:52.94	331.37	19.97	-48.5	-59.3	3.8	8.45e-01	0	57	104	0	58	13449
2026-01-05 12:07:53.93	331.41	19.85	-48.5	-59.3	3.8	8.46e-01	0	57	104	0	58	13418
2026-01-05 12:07:54.92	331.45	19.72	-48.4	-59.2	3.8	8.46e-01	0	57	104	0	58	13395
2026-01-05 12:07:55.91	331.49	19.59	-48.5	-59.2	3.8	8.44e-01	0	57	104	0	58	13392
2026-01-05 12:07:56.90	331.53	19.47	-48.5	-59.3	3.8	8.45e-01	0	57	104	0	58	13466
2026-01-05 12:07:57.89	331.56	19.35	-48.5	-59.2	3.8	8.46e-01	0	57	104	0	58	13412
2026-01-05 12:07:58.88	331.60	19.22	-48.5	-59.2	3.8	8.45e-01	0	57	104	0	58	13377
2026-01-05 12:07:59.87	331.64	19.10	-48.5	-59.3	3.8	8.46e-01	0	57	104	0	58	13438
2026-01-05 12:08:00.86	331.68	18.98	-48.5	-59.3	3.8	8.46e-01	0	57	104	0	58	13424
2026-01-05 12:08:01.85	331.72	18.85	-48.5	-59.3	3.8	8.46e-01	0	57	104	0	58	13447
2026-01-05 12:08:02.84	331.76	18.73	-48.5	-59.3	3.8	8.45e-01	0	57	104	0	58	13429
2026-01-05 12:08:03.83	331.79	18.61	-48.5	-59.3	3.8	8.46e-01	0	57	104	0	58	13419
2026-01-05 12:08:04.81	331.83	18.49	-48.5	-59.3	3.8	8.46e-01	0	57	104	0	58	13436
2026-01-05 12:08:05.80	331.87	18.37	-48.5	-59.3	3.8	8.46e-01	0	57	104	0	58	13442
2026-01-05 12:08:06.79	331.90	18.25	-48.5	-59.3	3.8	8.47e-01	0	57	104	0	58	13444
2026-01-05 12:08:07.78	331.94	18.14	-48.5	-59.3	3.8	8.46e-01	0	57	104	0	58	13420
2026-01-05 12:08:08.78	331.98	18.02	-48.5	-59.2	3.8	8.47e-01	0	57	104	0	58	13413
2026-01-05 12:08:09.76	332.01	17.90	-48.5	-59.2	3.8	8.46e-01	0	57	104	0	58	13412
2026-01-05 12:08:10.75	332.05	17.78	-48.5	-59.3	3.8	8.46e-01	0	57	104	0	58	13422
2026-01-05 12:08:11.74	332.08	17.67	-48.5	-59.3	3.8	8.45e-01	0	57	104	0	58	13425
2026-01-05 12:08:12.73	332.12	17.55	-48.5	-59.3	3.8	8.47e-01	0	57	104	0	58	13430
2026-01-05 12:08:13.72	332.16	17.44	-48.5	-59.3	3.8	8.46e-01	0	57	104	0	58	13424
2026-01-05 12:08:14.71	332.19	17.32	-48.5	-59.3	3.8	8.47e-01	0	57	104	0	58	13446
2026-01-05 12:08:15.69	332.22	17.21	-48.5	-59.3	3.8	8.46e-01	0	57	104	0	58	13444
2026-01-05 12:08:16.68	332.26	17.09	-48.5	-59.3	3.8	8.47e-01	0	57	104	0	58	13467
2026-01-05 12:08:17.67	332.29	16.98	-48.5	-59.3	3.8	8.46e-01	0	57	104	0	58	13448
2026-01-05 12:08:18.66	332.33	16.87	-48.5	-59.3	3.8	8.46e-01	0	57	104	0	58	13445
2026-01-05 12:08:19.66	332.36	16.76	-48.5	-59.3	3.8	8.47e-01	0	57	104	0	58	13445
2026-01-05 12:08:20.65	332.39	16.64	-48.5	-59.3	3.8	8.46e-01	0	57	104	0	58	13417
2026-01-05 12:08:21.65	332.43	16.53	-48.5	-59.3	3.8	8.46e-01	0	57	104	0	58	13454
2026-01-05 12:08:22.63	332.46	16.42	-48.5	-59.3	3.8	8.46e-01	0	57	104	0	58	13419
2026-01-05 12:08:23.61	332.49	16.31	-48.5	-59.3	3.8	8.46e-01	0	57	104	0	58	13441
2026-01-05 12:08:24.59	332.53	16.21	-48.5	-59.3	3.8	8.46e-01	0	57	104	0	58	13479
2026-01-05 12:08:25.57	332.56	16.10	-48.5	-59.3	3.8	8.47e-01	0	57	104	0	58	13429
2026-01-05 12:08:26.56	332.59	15.99	-48.5	-59.3	3.8	8.46e-01	0	57	104	0	58	13460
2026-01-05 12:08:27.54	332.62	15.88	-48.5	-59.3	3.8	8.46e-01	0	57	104	0	58	13443
2026-01-05 12:08:28.54	332.65	15.77	-48.5	-59.2	3.8	8.46e-01	0	57	104	0	58	13389
2026-01-05 12:08:29.52	332.68	15.67	-48.5	-59.3	3.8	8.46e-01	0	57	104	0	58	13484
2026-01-05 12:08:30.50	332.72	15.56	-48.5	-59.3	3.8	8.47e-01	0	57	104	0	58	13446
2026-01-05 12:08:31.49	332.75	15.45	-48.5	-59.2	3.8	8.45e-01	0	57	104	0	58	13374
2026-01-05 12:08:32.47	332.78	15.35	-48.5	-59.3	3.8	8.46e-01	0	57	104	0	58	13420
2026-01-05 12:08:33.44	332.81	15.25	-48.5	-59.3	3.8	8.46e-01	0	57	104	0	58	13437
2026-01-05 12:08:34.42	332.84	15.14	-48.5	-59.3	3.8	8.46e-01	0	57	104	0	58	13505
2026-01-05 12:08:35.41	332.87	15.04	-48.5	-59.3	3.8	8.46e-01	0	57	104	0	58	13487
2026-01-05 12:08:36.41	332.90	14.93	-48.5	-59.3	3.8	8.46e-01	0	57	104	0	58	13451
2026-01-05 12:08:37.40	332.93	14.83	-48.5	-59.3	3.8	8.46e-01	0	57	104	0	58	13426
2026-01-05 12:08:38.39	332.96	14.73	-48.5	-59.3	3.8	8.47e-01	0	57	104	0	58	13463
2026-01-05 12:08:39.39	332.99	14.62	-48.5	-59.3	3.8	8.46e-01	0	57	104	0	58	13474
2026-01-05 12:08:40.38	333.02	14.52	-48.5	-59.3	3.8	8.46e-01	0	57	104	0	58	13440
2026-01-05 12:08:41.37	333.05	14.42	-48.5	-59.3	3.8	8.47e-01	0	57	104	0	58	13447
2026-01-05 12:08:42.36	333.08	14.32	-48.5	-59.2	3.8	8.46e-01	0	57	104	0	58	13396
2026-01-05 12:08:43.35	333.11	14.22	-48.6	-59.3	3.8	8.46e-01	0	57	104	0	58	13415
2026-01-05 12:08:44.35	333.14	14.11	-48.5	-59.3	3.8	8.46e-01	0	57	104	0	58	13436
2026-01-05 12:08:45.34	333.17	14.01	-48.5	-59.3	3.8	8.47e-01	0	57	104	0	58	13445
2026-01-05 12:08:46.32	333.19	13.91	-48.5	-59.3	3.8	8.46e-01	0	57	104	0	58	13439
2026-01-05 12:08:47.31	333.22	13.82	-48.5	-59.3	3.8	8.46e-01	0	57	104	0	58	13475
2026-01-05 12:08:48.30	333.25	13.72	-48.5	-59.3	3.8	8.46e-01	0	57	104	0	58	13462
2026-01-05 12:08:49.28	333.28	13.62	-48.5	-59.3	3.8	8.46e-01	0	57	104	0	58	13475
2026-01-05 12:08:50.27	333.31	13.52	-48.5	-59.2	3.8	8.46e-01	0	57	104	0	58	13412
2026-01-05 12:08:51.27	333.33	13.42	-48.6	-59.3	3.8	8.46e-01	0	57	104	0	58	13455
2026-01-05 12:08:52.25	333.36	13.32	-48.5	-59.3	3.8	8.45e-01	0	57	104	0	58	13439
2026-01-05 12:08:53.25	333.39	13.23	-48.5	-59.3	3.8	8.46e-01	0	57	104	0	58	13443
2026-01-05 12:08:54.23	333.42	13.13	-48.5	-59.3	3.8	8.46e-01	0	57	104	0	58	13451
2026-01-05 12:08:55.21	333.44	13.04	-48.5	-59.3	3.8	8.45e-01	0	57	104	0	58	13470
2026-01-05 12:08:56.21	333.47	12.94	-48.5	-59.3	3.8	8.45e-01	0	57	104	0	58	13472
2026-01-05 12:08:57.20	333.50	12.84	-48.5	-59.3	3.8	8.46e-01	0	57	104	0	58	13436
2026-01-05 12:08:58.19	333.52	12.75	-48.5	-59.3	3.8	8.46e-01	0	57	104	0	58	13432
2026-01-05 12:08:59.19	333.55	12.65	-48.5	-59.3	3.8	8.45e-01	0	57	104	0	58	13446
2026-01-05 12:09:00.18	333.58	12.56	-48.5	-59.3	3.8	8.46e-01	0	57	104	0	58	13447
2026-01-05 12:09:01.16	333.60	12.46	-48.5	-59.2	3.8	8.47e-01	0	57	104	0	58	13383
2026-01-05 12:09:02.15	333.63	12.37	-48.5	-59.2	3.8	8.46e-01	0	57	104	0	58	13374
2026-01-05 12:09:03.14	333.66	12.28	-48.5	-59.3	3.8	8.47e-01	0	57	104	0	58	13450
2026-01-05 12:09:04.13	333.68	12.18	-48.5	-59.2	3.8	8.46e-01	0	57	104	0	58	13414
2026-01-05 12:09:05.12	333.71	12.09	-48.5	-59.3	3.8	8.46e-01	0	57	104	0	58	13425
2026-01-05 12:09:06.11	333.73	12.00	-48.5	-59.2	3.8	8.45e-01	0	57	104	0	58	13412
2026-01-05 12:09:07.09	333.76	11.91	-48.5	-59.3	3.8	8.46e-01	0	57	104	0	58	13446
2026-01-05 12:09:08.09	333.78	11.82	-48.6	-59.3	3.8	8.46e-01	0	57	104	0	58	13458
2026-01-05 12:09:09.07	333.81	11.73	-48.5	-59.3	3.8	8.46e-01	0	57	104	0	58	13462
2026-01-05 12:09:10.06	333.83	11.63	-48.5	-59.3	3.8	8.47e-01	0	57	104	0	58	13469
2026-01-05 12:09:11.05	333.86	11.54	-48.5	-59.3	3.8	8.47e-01	0	57	104	0	58	13421
2026-01-05 12:09:12.05	333.88	11.45	-48.5	-59.3	3.8	8.47e-01	0	57	104	0	58	13440
2026-01-05 12:09:13.03	333.91	11.36	-48.5	-59.3	3.8	8.46e-01	0	57	104	0	58	13430
