passes_logs/2026/01/05/R3.0SM8_Murmansk_STILSPACE/R3.0SM8_Murmansk_STILSPACE__20260105_023911_SUOMI_NPP_rec.log

#Pass ID: 20260105_023911_SUOMI NPP
#Satellite: SUOMI NPP
#Configuration: NPP
#almurnet v.1.7.20240730
#Start time: 2026-01-05 02:42:08

#Version: 2.2.20231116
#Station: R3.0SM8_Murmansk_STILSPACE
#Location: 33.092731 lon 68.902999 lat
#TLE: 1 37849U 11061A   26003.96724563  .00000164  00000+0  98899-4 0  9990
#TLE: 2 37849  98.7800 306.1116 0002573  82.3190 277.8279 14.19522066735141

#Time	Az	El	Level	Level2	SNR	BER	BlckErr	Temp	State	Recorded	gain1	gain2
2026-01-05 02:42:08.21	21.39	16.88	-54.3	-74.2	3.8	7.44e-01	0	56	0	0	70	38640
2026-01-05 02:42:09.19	21.28	16.98	-52.6	-66.4	3.8	1.49e+00	0	57	104	0	68	17180
2026-01-05 02:42:10.18	21.17	17.07	-52.5	-66.4	3.8	1.49e+00	0	56	104	0	68	17108
2026-01-05 02:42:11.16	21.05	17.17	-52.6	-66.4	3.8	1.49e+00	0	56	104	0	68	17143
2026-01-05 02:42:12.16	20.93	17.27	-52.5	-66.4	3.8	1.49e+00	0	56	104	0	68	17181
2026-01-05 02:42:13.13	20.82	17.37	-52.6	-66.4	3.8	1.49e+00	0	56	104	0	68	17155
2026-01-05 02:42:14.12	20.70	17.47	-52.5	-66.3	3.8	1.49e+00	0	56	104	0	67	17990
2026-01-05 02:42:15.11	20.58	17.57	-52.5	-66.3	3.8	1.49e+00	0	57	104	0	67	17938
2026-01-05 02:42:16.10	20.46	17.67	-52.5	-66.3	3.8	1.49e+00	0	57	104	0	67	18032
2026-01-05 02:42:17.08	20.34	17.77	-52.5	-66.3	3.8	1.49e+00	0	57	104	0	67	17968
2026-01-05 02:42:18.07	20.22	17.87	-52.5	-66.3	3.8	1.49e+00	0	57	104	0	67	17986
2026-01-05 02:42:19.05	20.10	17.97	-52.5	-66.3	3.8	1.49e+00	0	57	104	0	67	17930
2026-01-05 02:42:20.04	19.98	18.07	-52.5	-66.3	3.8	1.49e+00	0	56	104	0	67	17930
2026-01-05 02:42:21.03	19.85	18.17	-52.3	-66.2	3.8	1.49e+00	0	56	104	0	67	17888
2026-01-05 02:42:22.02	19.73	18.27	-52.4	-66.2	3.8	1.49e+00	0	57	104	0	67	17843
2026-01-05 02:42:23.00	19.60	18.37	-52.3	-66.2	3.8	1.49e+00	0	56	104	0	67	17842
2026-01-05 02:42:23.99	19.48	18.47	-52.3	-66.2	3.8	1.49e+00	0	57	104	0	67	17865
2026-01-05 02:42:24.98	19.35	18.57	-52.4	-66.2	3.8	1.49e+00	0	56	104	0	67	17770
2026-01-05 02:42:25.97	19.22	18.68	-52.4	-66.2	3.8	1.49e+00	0	57	104	0	67	17779
2026-01-05 02:42:26.96	19.09	18.78	-52.4	-66.2	3.8	1.49e+00	0	57	104	0	67	17811
2026-01-05 02:42:27.95	18.96	18.88	-52.4	-66.2	3.8	1.49e+00	0	57	104	0	67	17783
2026-01-05 02:42:28.93	18.83	18.99	-52.4	-66.2	3.8	1.49e+00	0	57	104	0	67	17739
2026-01-05 02:42:29.92	18.70	19.09	-52.3	-66.1	3.8	1.49e+00	0	57	104	0	67	17655
2026-01-05 02:42:30.91	18.57	19.19	-52.3	-66.1	3.8	1.49e+00	0	57	104	0	67	17593
2026-01-05 02:42:31.89	18.44	19.30	-51.8	-65.7	3.8	1.49e+00	0	56	104	0	66	17764
2026-01-05 02:42:32.88	18.30	19.40	-51.1	-64.7	3.8	1.49e+00	0	57	104	0	64	17800
2026-01-05 02:42:33.87	18.17	19.51	-52.0	-65.9	3.8	1.49e+00	0	57	104	0	66	18206
2026-01-05 02:42:34.86	18.03	19.61	-52.2	-65.9	3.8	1.49e+00	0	57	104	0	66	18114
2026-01-05 02:42:35.86	17.89	19.72	-52.1	-65.8	3.8	1.49e+00	0	57	104	0	66	18044
2026-01-05 02:42:36.84	17.75	19.82	-52.1	-65.9	3.8	1.49e+00	0	57	104	0	66	18114
2026-01-05 02:42:37.83	17.61	19.93	-52.2	-65.9	3.8	1.49e+00	0	57	104	0	66	18102
2026-01-05 02:42:38.82	17.47	20.03	-52.2	-65.8	3.8	1.49e+00	0	57	104	0	66	17991
2026-01-05 02:42:39.81	17.33	20.14	-52.1	-65.8	3.8	1.49e+00	0	57	104	0	66	18026
2026-01-05 02:42:40.80	17.19	20.25	-52.2	-65.6	3.8	1.49e+00	0	57	104	0	66	17565
2026-01-05 02:42:41.79	17.05	20.35	-52.0	-65.5	3.8	1.49e+00	0	57	104	0	66	17391
2026-01-05 02:42:42.78	16.90	20.46	-52.1	-65.5	3.8	1.49e+00	0	57	104	0	66	17387
2026-01-05 02:42:43.76	16.76	20.57	-52.0	-65.5	3.8	1.49e+00	0	56	104	0	66	17335
2026-01-05 02:42:44.75	16.61	20.67	-52.2	-65.6	3.8	1.49e+00	0	57	104	0	66	17663
2026-01-05 02:42:45.74	16.46	20.78	-52.2	-65.6	3.8	1.49e+00	0	57	104	0	66	17605
2026-01-05 02:42:46.73	16.32	20.89	-52.2	-65.8	3.8	1.49e+00	0	57	104	0	66	17933
2026-01-05 02:42:47.72	16.17	21.00	-52.2	-65.7	3.8	1.49e+00	0	57	104	0	66	17755
2026-01-05 02:42:48.71	16.01	21.11	-52.2	-65.7	3.8	1.49e+00	0	57	104	0	66	17743
2026-01-05 02:42:49.70	15.86	21.22	-52.2	-65.5	3.8	1.49e+00	0	57	104	0	66	17363
2026-01-05 02:42:50.68	15.71	21.32	-52.2	-65.5	3.8	1.49e+00	0	57	104	0	66	17303
2026-01-05 02:42:51.67	15.56	21.43	-52.2	-65.6	3.8	1.49e+00	0	57	104	0	66	17547
2026-01-05 02:42:52.66	15.40	21.54	-52.2	-65.8	3.8	1.49e+00	0	57	104	0	66	17945
2026-01-05 02:42:53.66	15.24	21.65	-52.2	-65.9	3.8	1.49e+00	0	57	104	0	66	18283
2026-01-05 02:42:54.65	15.09	21.76	-52.1	-65.9	3.8	1.49e+00	0	57	104	0	66	18106
2026-01-05 02:42:55.64	14.93	21.87	-52.1	-65.1	3.8	1.49e+00	0	57	104	0	66	16543
2026-01-05 02:42:56.63	14.77	21.99	-52.0	-63.7	3.8	1.49e+00	0	57	104	0	66	14116
2026-01-05 02:42:57.62	14.61	22.10	-51.8	-61.1	4.7	1.16e+00	0	57	0	0	66	10421
2026-01-05 02:42:58.60	14.45	22.21	-51.4	-58.8	6.0	5.56e-01	0	57	0	2097152	66	8033
2026-01-05 02:42:59.59	14.28	22.32	-50.7	-56.0	8.6	1.14e-01	0	57	0	4194304	64	6561
2026-01-05 02:43:00.58	14.12	22.43	-49.9	-54.1	10.8	1.78e-02	0	57	0	5242880	63	5533
2026-01-05 02:43:01.56	13.96	22.54	-49.2	-52.5	12.4	4.71e-04	0	57	0	7340032	61	5178
2026-01-05 02:43:02.55	13.79	22.65	-49.0	-51.9	12.9	3.73e-05	0	57	0	9437184	61	4860
2026-01-05 02:43:03.54	13.62	22.76	-48.9	-51.9	13.0	2.89e-05	0	57	0	11534336	60	5101
2026-01-05 02:43:04.53	13.45	22.88	-48.7	-51.5	13.3	3.28e-05	0	57	0	12582912	60	4894
2026-01-05 02:43:05.52	13.28	22.99	-48.6	-51.3	13.5	6.80e-06	0	57	0	14680064	60	4802
2026-01-05 02:43:06.50	13.11	23.10	-48.6	-51.4	13.4	1.75e-05	0	57	0	16777216	60	4849
2026-01-05 02:43:07.49	12.94	23.21	-48.8	-51.8	13.0	2.89e-05	0	57	0	18874368	60	5046
2026-01-05 02:43:08.47	12.76	23.33	-48.5	-51.3	13.4	2.82e-05	0	57	0	20971520	60	4777
2026-01-05 02:43:09.46	12.59	23.44	-48.5	-51.2	13.6	1.60e-05	0	57	0	22020096	60	4724
2026-01-05 02:43:10.45	12.41	23.55	-48.2	-50.7	14.1	7.60e-06	0	57	0	24117248	59	4721
2026-01-05 02:43:11.44	12.23	23.67	-47.8	-50.0	14.7	3.00e-06	0	57	0	26214400	58	4648
2026-01-05 02:43:12.43	12.05	23.78	-47.4	-49.4	15.2	0.00e+00	0	57	0	28311552	57	4579
2026-01-05 02:43:13.42	11.87	23.90	-47.0	-48.9	15.7	0.00e+00	0	57	0	29360128	57	4319
2026-01-05 02:43:14.41	11.69	24.01	-46.8	-48.6	16.0	0.00e+00	0	57	0	31457280	56	4417
2026-01-05 02:43:15.40	11.51	24.13	-46.8	-48.7	15.8	0.00e+00	0	57	0	33554432	56	4476
2026-01-05 02:43:16.38	11.32	24.24	-47.1	-49.2	15.2	0.00e+00	0	57	0	35651584	56	4737
2026-01-05 02:43:17.37	11.14	24.35	-47.5	-49.8	14.4	7.00e-07	0	57	0	36700160	56	5099
2026-01-05 02:43:18.36	10.95	24.47	-48.0	-50.6	13.5	1.50e-06	0	57	0	38797312	57	5279
2026-01-05 02:43:19.34	10.76	24.58	-48.6	-52.0	11.9	1.83e-04	0	57	0	40894464	59	5483
2026-01-05 02:43:20.33	10.57	24.70	-48.9	-52.9	10.8	1.25e-03	0	57	0	42991616	59	6094
2026-01-05 02:43:21.31	10.38	24.81	-49.1	-54.0	9.4	1.02e-02	0	57	0	45088768	60	6500
2026-01-05 02:43:22.30	10.19	24.93	-49.2	-54.2	9.0	2.16e-02	0	57	0	46137344	60	6713
2026-01-05 02:43:23.29	9.99	25.05	-49.4	-55.3	7.8	5.97e-02	0	57	0	48234496	60	7568
2026-01-05 02:43:24.28	9.80	25.16	-49.4	-55.4	7.6	8.53e-02	0	57	0	50331648	60	7719
2026-01-05 02:43:25.26	9.60	25.28	-49.6	-56.1	7.0	1.24e-01	0	57	0	52428800	61	7852
2026-01-05 02:43:26.25	9.40	25.39	-49.8	-56.7	6.5	1.69e-01	0	57	0	53477376	61	8393
2026-01-05 02:43:27.24	9.20	25.51	-49.8	-56.5	6.9	1.89e-01	0	57	0	55574528	61	8250
2026-01-05 02:43:28.23	9.00	25.63	-49.9	-56.0	7.4	1.19e-01	0	57	0	57671680	61	7789
2026-01-05 02:43:29.22	8.79	25.74	-49.7	-54.9	8.7	5.74e-02	0	57	0	59768832	61	6849
2026-01-05 02:43:30.20	8.59	25.86	-49.5	-53.9	9.9	1.89e-02	0	57	0	60817408	61	6104
2026-01-05 02:43:31.19	8.38	25.98	-49.1	-53.0	11.2	4.24e-03	0	57	0	62914560	61	5478
2026-01-05 02:43:32.19	8.17	26.09	-49.1	-52.6	11.7	9.18e-04	0	57	0	65011712	61	5275
2026-01-05 02:43:33.18	7.96	26.21	-49.3	-52.9	11.5	7.60e-04	0	57	0	67108864	61	5450
2026-01-05 02:43:34.17	7.75	26.33	-49.3	-52.8	11.7	5.57e-04	0	57	0	69206016	61	5386
2026-01-05 02:43:35.16	7.54	26.45	-49.3	-52.8	11.8	3.33e-04	0	57	0	70254592	61	5376
2026-01-05 02:43:36.15	7.32	26.56	-49.6	-53.6	11.0	1.01e-03	0	57	0	72351744	61	5918
2026-01-05 02:43:37.14	7.11	26.68	-49.6	-53.6	11.0	1.22e-03	0	57	0	74448896	61	5889
2026-01-05 02:43:38.13	6.89	26.80	-49.6	-53.6	11.0	1.49e-03	0	57	0	76546048	61	5907
2026-01-05 02:43:39.13	6.67	26.92	-49.6	-53.5	11.1	1.52e-03	0	57	0	77594624	61	5826
2026-01-05 02:43:40.12	6.45	27.04	-49.2	-53.0	11.7	7.48e-04	0	57	0	79691776	61	5472
2026-01-05 02:43:41.11	6.22	27.15	-48.7	-51.7	13.0	1.39e-04	0	57	0	81788928	60	4989
2026-01-05 02:43:42.10	6.00	27.27	-48.5	-51.3	13.4	5.03e-05	0	57	0	83886080	60	4793
2026-01-05 02:43:43.10	5.77	27.39	-48.3	-50.9	13.8	1.98e-05	0	57	0	84934656	59	4855
2026-01-05 02:43:44.09	5.54	27.51	-48.0	-50.5	14.2	3.00e-06	0	57	0	87031808	58	4879
2026-01-05 02:43:45.08	5.31	27.62	-48.2	-50.7	14.1	1.50e-06	0	57	0	89128960	58	4993
2026-01-05 02:43:46.06	5.08	27.74	-48.1	-50.5	14.2	2.20e-06	0	57	0	91226112	58	4888
2026-01-05 02:43:47.05	4.85	27.86	-48.0	-50.3	14.5	7.00e-07	0	57	0	92274688	58	4778
2026-01-05 02:43:48.04	4.61	27.98	-48.2	-50.7	14.1	7.00e-07	0	57	0	94371840	58	5013
2026-01-05 02:43:49.03	4.38	28.09	-48.0	-50.3	14.5	4.50e-06	0	57	0	96468992	58	4806
2026-01-05 02:43:50.02	4.14	28.21	-47.9	-50.2	14.6	0.00e+00	0	57	0	98566144	58	4718
2026-01-05 02:43:51.00	3.90	28.33	-47.9	-50.1	14.8	1.29e-04	0	57	0	100663296	58	4674
2026-01-05 02:43:51.99	3.66	28.44	-48.1	-50.4	14.5	0.00e+00	0	57	0	101711872	58	4836
2026-01-05 02:43:52.98	3.41	28.56	-48.1	-50.5	14.4	1.50e-06	0	57	0	103809024	58	4896
2026-01-05 02:43:53.97	3.17	28.68	-48.3	-50.7	14.2	3.80e-06	0	57	0	105906176	58	5035
2026-01-05 02:43:54.96	2.92	28.80	-48.4	-51.0	14.0	3.80e-06	0	57	0	108003328	58	5178
2026-01-05 02:43:55.95	2.67	28.91	-48.5	-51.2	13.8	7.00e-07	0	57	0	109051904	58	5287
2026-01-05 02:43:56.94	2.42	29.03	-48.3	-50.8	14.1	3.00e-06	0	57	0	111149056	58	5089
2026-01-05 02:43:57.93	2.17	29.15	-48.4	-51.0	13.9	3.00e-06	0	57	0	113246208	58	5200
2026-01-05 02:43:58.91	1.92	29.26	-48.7	-51.4	13.6	5.30e-06	0	57	0	115343360	59	5127
2026-01-05 02:43:59.90	1.66	29.38	-48.8	-51.7	13.3	4.50e-06	0	57	0	116391936	59	5293
2026-01-05 02:44:00.89	1.40	29.49	-48.7	-51.5	13.4	4.50e-06	0	57	0	118489088	59	5205
2026-01-05 02:44:01.89	1.14	29.61	-48.8	-51.6	13.3	2.44e-05	0	57	0	120586240	59	5262
2026-01-05 02:44:02.87	0.88	29.73	-48.8	-51.7	13.3	1.07e-04	0	57	0	122683392	60	4984
2026-01-05 02:44:03.86	0.61	29.84	-48.7	-51.5	13.4	1.22e-05	0	57	0	124780544	60	4925
2026-01-05 02:44:04.85	0.35	29.96	-48.7	-51.5	13.4	1.37e-05	0	57	0	125829120	60	4910
2026-01-05 02:44:05.85	0.08	30.07	-48.6	-51.3	13.7	3.80e-06	0	57	0	127926272	59	5045
2026-01-05 02:44:06.84	359.81	30.19	-48.5	-51.1	13.9	4.50e-06	0	57	0	130023424	59	4937
2026-01-05 02:44:07.82	359.54	30.30	-48.7	-51.3	13.6	3.80e-06	0	57	0	132120576	59	5088
2026-01-05 02:44:08.81	359.26	30.42	-48.7	-51.4	13.5	1.52e-05	0	57	0	133169152	59	5156
2026-01-05 02:44:09.80	358.99	30.53	-49.0	-52.0	13.0	2.59e-05	0	57	0	135266304	59	5475
2026-01-05 02:44:10.79	358.71	30.64	-49.0	-51.9	13.1	2.89e-05	0	57	0	137363456	59	5426
2026-01-05 02:44:11.78	358.43	30.76	-48.8	-51.5	13.4	2.28e-05	0	57	0	139460608	59	5214
2026-01-05 02:44:12.77	358.15	30.87	-48.8	-51.6	13.3	1.37e-05	0	57	0	141557760	59	5253
2026-01-05 02:44:13.76	357.86	30.98	-48.7	-51.4	13.6	9.10e-06	0	57	0	142606336	59	5116
2026-01-05 02:44:14.75	357.58	31.09	-48.5	-51.2	13.8	2.44e-05	0	57	0	144703488	59	4989
2026-01-05 02:44:15.73	357.29	31.21	-48.7	-51.4	13.5	6.80e-06	0	57	0	146800640	59	5157
2026-01-05 02:44:16.73	357.00	31.32	-48.9	-52.0	13.0	2.28e-05	0	57	0	148897792	59	5480
2026-01-05 02:44:17.71	356.71	31.43	-49.0	-52.3	12.7	5.87e-05	0	57	0	149946368	60	5343
2026-01-05 02:44:18.70	356.42	31.54	-49.4	-53.1	11.7	2.34e-04	0	57	0	152043520	61	5591
2026-01-05 02:44:19.69	356.12	31.65	-49.5	-53.3	11.6	6.14e-04	0	57	0	154140672	61	5709
2026-01-05 02:44:20.68	355.82	31.76	-49.6	-53.4	11.5	6.37e-04	0	57	0	156237824	61	5757
2026-01-05 02:44:21.66	355.52	31.87	-49.4	-53.1	11.9	9.74e-04	0	57	0	157286400	61	5540
2026-01-05 02:44:22.66	355.22	31.98	-49.4	-53.1	11.8	3.11e-04	0	57	0	159383552	61	5573
2026-01-05 02:44:23.65	354.91	32.08	-49.4	-53.2	11.5	4.64e-04	0	57	0	161480704	61	5629
2026-01-05 02:44:24.64	354.61	32.19	-49.6	-53.5	11.4	7.37e-04	0	57	0	163577856	61	5792
2026-01-05 02:44:25.63	354.30	32.30	-49.7	-53.8	11.1	1.08e-03	0	57	0	165675008	61	6007
2026-01-05 02:44:26.62	353.99	32.41	-49.7	-53.8	11.1	1.36e-03	0	57	0	166723584	61	6032
2026-01-05 02:44:27.60	353.68	32.51	-49.6	-53.3	11.6	5.97e-04	0	57	0	168820736	61	5670
2026-01-05 02:44:28.59	353.37	32.62	-49.6	-53.3	11.6	4.04e-04	0	57	0	170917888	61	5710
2026-01-05 02:44:29.58	353.05	32.72	-49.4	-52.9	12.0	2.62e-04	0	57	0	173015040	61	5429
2026-01-05 02:44:30.56	352.73	32.82	-49.5	-53.2	11.7	4.01e-04	0	57	0	174063616	61	5608
2026-01-05 02:44:31.55	352.41	32.93	-49.9	-54.1	10.8	1.35e-03	0	57	0	176160768	61	6203
2026-01-05 02:44:32.54	352.09	33.03	-50.2	-55.0	10.0	5.85e-03	0	57	0	178257920	62	6541
2026-01-05 02:44:33.54	351.76	33.13	-50.4	-55.4	9.4	1.58e-02	0	57	0	180355072	62	6848
2026-01-05 02:44:34.53	351.44	33.24	-50.6	-56.2	8.4	2.26e-02	0	57	0	181403648	63	7104
2026-01-05 02:44:35.52	351.11	33.34	-50.2	-54.7	10.1	7.86e-03	0	57	0	183500800	63	5945
2026-01-05 02:44:36.51	350.78	33.44	-49.9	-53.9	10.8	4.68e-03	0	57	0	185597952	62	5783
2026-01-05 02:44:37.50	350.44	33.54	-49.8	-53.8	11.1	2.43e-03	0	57	0	187695104	62	5657
2026-01-05 02:44:38.49	350.11	33.63	-49.7	-53.5	11.4	9.96e-04	0	57	0	188743680	62	5496
2026-01-05 02:44:39.48	349.77	33.73	-49.9	-54.0	11.0	2.50e-03	0	57	0	190840832	62	5797
2026-01-05 02:44:40.47	349.43	33.83	-50.2	-54.9	10.0	5.03e-03	0	57	0	192937984	62	6428
2026-01-05 02:44:41.46	349.09	33.92	-50.7	-56.2	8.7	1.59e-02	0	57	0	195035136	63	7058
2026-01-05 02:44:42.45	348.75	34.02	-50.5	-55.6	9.2	3.58e-02	0	57	0	197132288	63	6583
2026-01-05 02:44:43.44	348.40	34.11	-50.5	-56.0	8.9	3.77e-02	0	57	0	198180864	63	6881
2026-01-05 02:44:44.43	348.05	34.21	-50.4	-55.2	9.7	1.43e-02	0	57	0	200278016	63	6276
2026-01-05 02:44:45.43	347.70	34.30	-50.4	-55.2	9.7	1.08e-02	0	57	0	202375168	63	6315
2026-01-05 02:44:46.41	347.35	34.39	-50.6	-55.6	9.1	2.84e-02	0	57	0	204472320	63	6646
2026-01-05 02:44:47.39	347.00	34.48	-50.5	-55.6	9.2	1.88e-02	0	57	0	205520896	63	6632
2026-01-05 02:44:48.38	346.65	34.57	-50.4	-55.3	9.7	2.09e-02	0	57	0	207618048	63	6360
2026-01-05 02:44:49.37	346.29	34.66	-50.5	-55.7	9.2	2.63e-02	0	57	0	209715200	63	6649
2026-01-05 02:44:50.37	345.93	34.75	-50.4	-55.3	9.5	1.39e-02	0	57	0	211812352	63	6364
2026-01-05 02:44:51.35	345.57	34.83	-49.7	-53.6	11.3	2.69e-03	0	57	0	212860928	62	5580
2026-01-05 02:44:52.33	345.21	34.92	-49.5	-53.0	11.8	8.47e-04	0	57	0	214958080	62	5209
2026-01-05 02:44:53.33	344.84	35.00	-49.4	-53.0	11.9	2.48e-04	0	57	0	217055232	61	5503
2026-01-05 02:44:54.31	344.48	35.08	-49.2	-52.9	12.0	2.00e-04	0	57	0	219152384	61	5410
2026-01-05 02:44:55.30	344.11	35.17	-49.5	-53.4	11.5	6.22e-04	0	57	0	221249536	61	5743
2026-01-05 02:44:56.29	343.74	35.25	-49.5	-53.2	11.6	6.78e-04	0	57	0	222298112	61	5649
2026-01-05 02:44:57.28	343.37	35.33	-48.8	-51.8	13.1	7.09e-05	0	57	0	224395264	60	5079
2026-01-05 02:44:58.27	343.00	35.40	-48.5	-51.5	13.4	1.60e-05	0	57	0	226492416	60	4872
2026-01-05 02:44:59.26	342.62	35.48	-48.5	-51.5	13.4	8.30e-06	0	57	0	228589568	60	4871
2026-01-05 02:45:00.24	342.25	35.56	-48.6	-51.6	13.3	6.10e-06	0	57	0	229638144	59	5266
2026-01-05 02:45:01.23	341.87	35.63	-48.6	-51.6	13.4	1.52e-05	0	57	0	231735296	59	5238
2026-01-05 02:45:02.22	341.49	35.70	-48.7	-51.6	13.3	7.60e-06	0	57	0	233832448	59	5251
2026-01-05 02:45:03.20	341.11	35.78	-48.5	-51.3	13.6	9.90e-06	0	57	0	235929600	59	5048
2026-01-05 02:45:04.19	340.72	35.85	-48.1	-50.6	14.4	2.20e-06	0	57	0	236978176	59	4659
2026-01-05 02:45:05.18	340.34	35.92	-47.7	-50.0	15.0	0.00e+00	0	57	0	239075328	58	4623
2026-01-05 02:45:06.16	339.95	35.98	-47.6	-49.9	15.0	0.00e+00	0	57	0	241172480	58	4579
2026-01-05 02:45:07.16	339.56	36.05	-47.5	-49.7	15.3	0.00e+00	0	57	0	243269632	58	4466
2026-01-05 02:45:08.15	339.17	36.12	-47.8	-50.2	14.8	2.44e-05	0	57	0	245366784	58	4714
2026-01-05 02:45:09.14	338.77	36.18	-47.8	-50.2	14.8	7.00e-07	0	57	0	246415360	58	4712
2026-01-05 02:45:10.12	338.38	36.24	-47.4	-49.4	15.5	0.00e+00	0	57	0	248512512	57	4579
2026-01-05 02:45:11.11	337.99	36.30	-47.2	-49.2	15.7	0.00e+00	0	57	0	250609664	57	4469
2026-01-05 02:45:12.10	337.59	36.36	-47.4	-49.4	15.5	0.00e+00	0	57	0	252706816	57	4594
2026-01-05 02:45:13.09	337.19	36.42	-47.1	-49.0	16.0	0.00e+00	0	57	0	253755392	57	4345
2026-01-05 02:45:14.07	336.80	36.48	-47.0	-48.9	16.0	0.00e+00	0	57	0	255852544	57	4326
2026-01-05 02:45:15.06	336.40	36.53	-47.2	-49.1	15.9	0.00e+00	0	57	0	257949696	56	4697
2026-01-05 02:45:16.04	336.00	36.59	-47.6	-49.8	15.1	0.00e+00	0	57	0	260046848	57	4805
2026-01-05 02:45:17.04	335.59	36.64	-47.6	-49.8	15.2	0.00e+00	0	57	0	261095424	57	4783
2026-01-05 02:45:18.03	335.18	36.69	-47.3	-49.4	15.6	0.00e+00	0	57	0	263192576	57	4560
2026-01-05 02:45:19.02	334.78	36.74	-47.0	-48.8	16.1	0.00e+00	0	57	0	265289728	57	4287
2026-01-05 02:45:20.02	334.36	36.79	-46.8	-48.5	16.4	0.00e+00	0	57	0	267386880	56	4388
2026-01-05 02:45:21.00	333.96	36.83	-46.9	-48.7	16.3	0.00e+00	0	57	0	268435456	56	4451
2026-01-05 02:45:22.00	333.54	36.88	-47.0	-48.8	16.3	6.80e-06	0	57	0	270532608	56	4518
2026-01-05 02:45:22.99	333.13	36.92	-47.6	-49.8	15.2	0.00e+00	0	57	0	272629760	57	4765
2026-01-05 02:45:23.98	332.72	36.96	-47.3	-49.3	15.7	0.00e+00	0	57	0	274726912	57	4509
2026-01-05 02:45:24.97	332.31	37.00	-46.6	-48.2	16.7	0.00e+00	0	58	0	276824064	56	4221
2026-01-05 02:45:25.94	331.90	37.04	-46.6	-48.3	16.6	0.00e+00	0	57	0	277872640	56	4267
2026-01-05 02:45:26.94	331.48	37.08	-46.8	-48.5	16.5	0.00e+00	0	57	0	279969792	56	4353
2026-01-05 02:45:27.92	331.07	37.11	-47.1	-49.0	16.0	0.00e+00	0	57	0	282066944	56	4624
2026-01-05 02:45:28.90	330.66	37.14	-48.0	-50.3	14.8	7.00e-07	0	57	0	284164096	57	5082
2026-01-05 02:45:29.89	330.24	37.17	-47.9	-50.1	14.9	0.00e+00	0	57	0	285212672	58	4691
2026-01-05 02:45:30.87	329.82	37.20	-47.6	-49.7	15.3	0.00e+00	0	58	0	287309824	58	4448
2026-01-05 02:45:31.86	329.40	37.23	-47.2	-49.1	16.0	0.00e+00	0	57	0	289406976	57	4392
2026-01-05 02:45:32.85	328.98	37.26	-47.1	-48.8	16.2	0.00e+00	0	57	0	291504128	57	4279
2026-01-05 02:45:33.84	328.56	37.28	-47.3	-49.1	15.8	0.00e+00	0	57	0	292552704	57	4437
2026-01-05 02:45:34.82	328.15	37.30	-47.0	-48.7	16.3	0.00e+00	0	57	0	294649856	57	4232
2026-01-05 02:45:35.81	327.72	37.32	-47.2	-49.1	16.0	0.00e+00	0	57	0	296747008	57	4406
2026-01-05 02:45:36.80	327.30	37.34	-47.6	-49.5	15.5	0.00e+00	0	57	0	298844160	57	4650
2026-01-05 02:45:37.79	326.88	37.36	-48.1	-50.3	14.8	0.00e+00	0	57	0	300941312	57	5067
2026-01-05 02:45:38.77	326.46	37.37	-48.2	-50.5	14.5	2.20e-06	0	57	0	301989888	58	4914
2026-01-05 02:45:39.76	326.04	37.39	-48.2	-50.5	14.6	0.00e+00	0	57	0	304087040	58	4894
2026-01-05 02:45:40.76	325.61	37.40	-48.4	-50.7	14.3	0.00e+00	0	58	0	306184192	58	5035
2026-01-05 02:45:41.75	325.18	37.41	-48.7	-51.3	13.8	1.50e-06	0	58	0	308281344	59	5066
2026-01-05 02:45:42.73	324.76	37.42	-49.2	-52.2	12.8	3.73e-05	0	58	0	309329920	60	5318
2026-01-05 02:45:43.72	324.34	37.42	-49.4	-52.7	12.4	1.40e-04	0	57	0	311427072	60	5609
2026-01-05 02:45:44.71	323.91	37.43	-49.5	-53.1	11.9	3.08e-04	0	57	0	313524224	61	5535
2026-01-05 02:45:45.70	323.49	37.43	-49.8	-53.6	11.4	7.57e-04	0	57	0	315621376	61	5871
2026-01-05 02:45:46.69	323.06	37.43	-49.9	-53.8	11.1	1.01e-03	0	57	0	316669952	61	6045
2026-01-05 02:45:47.68	322.64	37.43	-49.6	-53.3	11.8	1.08e-03	0	58	0	318767104	61	5678
2026-01-05 02:45:48.67	322.21	37.43	-49.6	-53.0	12.0	3.36e-04	0	57	0	320864256	61	5502
2026-01-05 02:45:49.66	321.79	37.43	-49.3	-52.4	12.5	2.42e-04	0	58	0	322961408	61	5154
2026-01-05 02:45:50.64	321.37	37.42	-49.1	-52.2	12.9	5.95e-05	0	57	0	325058560	61	5012
2026-01-05 02:45:51.63	320.94	37.41	-49.2	-52.4	12.7	6.40e-05	0	57	0	326107136	61	5127
2026-01-05 02:45:52.62	320.52	37.40	-49.4	-52.6	12.4	7.47e-05	0	57	0	328204288	61	5270
2026-01-05 02:45:53.61	320.09	37.39	-49.4	-52.7	12.4	1.81e-04	0	57	0	330301440	61	5306
2026-01-05 02:45:54.59	319.67	37.38	-48.8	-51.5	13.5	5.49e-05	0	57	0	332398592	60	4926
2026-01-05 02:45:55.58	319.25	37.36	-48.3	-50.6	14.4	6.10e-06	0	58	0	333447168	59	4671
2026-01-05 02:45:56.57	318.82	37.34	-47.9	-50.0	15.1	7.00e-07	0	57	0	335544320	58	4625
2026-01-05 02:45:57.56	318.40	37.33	-47.9	-50.1	14.9	0.00e+00	0	57	0	337641472	58	4687
2026-01-05 02:45:58.55	317.98	37.31	-48.2	-50.6	14.4	0.00e+00	0	57	0	339738624	58	4980
2026-01-05 02:45:59.54	317.56	37.28	-48.6	-51.3	13.8	7.00e-07	0	57	0	340787200	59	5068
2026-01-05 02:46:00.54	317.13	37.26	-49.0	-52.0	13.1	7.00e-07	0	57	0	342884352	59	5475
2026-01-05 02:46:01.52	316.72	37.23	-48.9	-51.8	13.3	2.82e-05	0	57	0	344981504	59	5363
2026-01-05 02:46:02.52	316.29	37.21	-49.1	-52.1	12.9	2.59e-05	0	57	0	347078656	59	5581
2026-01-05 02:46:03.51	315.87	37.18	-49.5	-53.1	11.9	3.55e-04	0	57	0	349175808	60	5868
2026-01-05 02:46:04.50	315.46	37.15	-49.7	-53.6	11.4	4.45e-04	0	57	0	350224384	61	5884
2026-01-05 02:46:05.49	315.04	37.11	-49.6	-53.4	11.6	1.96e-03	0	57	0	352321536	61	5786
2026-01-05 02:46:06.48	314.62	37.08	-49.1	-52.6	12.3	9.30e-05	0	57	0	354418688	61	5269
2026-01-05 02:46:07.47	314.21	37.04	-48.6	-51.6	13.3	1.83e-05	0	57	0	356515840	60	4931
2026-01-05 02:46:08.46	313.79	37.01	-48.7	-51.6	13.3	1.22e-05	0	57	0	357564416	60	4977
2026-01-05 02:46:09.45	313.38	36.97	-48.8	-51.9	12.9	2.74e-05	0	57	0	359661568	60	5153
2026-01-05 02:46:10.44	312.96	36.93	-48.7	-51.8	13.2	6.56e-05	0	58	0	361758720	60	5043
2026-01-05 02:46:11.42	312.56	36.88	-48.9	-52.2	12.9	1.11e-04	0	57	0	363855872	60	5280
2026-01-05 02:46:12.42	312.14	36.84	-48.7	-51.7	13.2	2.28e-05	0	57	0	364904448	60	5017
2026-01-05 02:46:13.41	311.73	36.79	-48.5	-51.3	13.7	1.06e-05	0	57	0	367001600	59	5048
2026-01-05 02:46:14.40	311.32	36.75	-48.5	-51.3	13.7	5.30e-06	0	57	0	369098752	59	5062
2026-01-05 02:46:15.39	310.92	36.70	-48.5	-51.1	13.9	4.50e-06	0	57	0	371195904	59	4951
2026-01-05 02:46:16.39	310.51	36.65	-48.5	-51.2	13.8	2.20e-06	0	57	0	373293056	59	5030
2026-01-05 02:46:17.37	310.11	36.59	-48.4	-51.1	13.9	4.50e-06	0	58	0	374341632	59	4960
2026-01-05 02:46:18.37	309.70	36.54	-48.2	-50.8	14.1	6.80e-06	0	57	0	376438784	59	4782
2026-01-05 02:46:19.37	309.29	36.48	-48.9	-52.1	12.8	8.30e-06	0	57	0	378535936	59	5572
2026-01-05 02:46:20.35	308.90	36.43	-48.8	-52.0	12.9	4.04e-05	0	58	0	380633088	59	5499
2026-01-05 02:46:21.34	308.50	36.37	-48.7	-51.7	13.3	1.29e-05	0	57	0	381681664	59	5294
2026-01-05 02:46:22.33	308.10	36.31	-48.7	-51.8	13.1	1.60e-05	0	58	0	383778816	59	5392
2026-01-05 02:46:23.32	307.70	36.25	-49.0	-52.4	12.5	4.04e-05	0	57	0	385875968	59	5769
2026-01-05 02:46:24.31	307.31	36.19	-49.4	-53.3	11.6	5.51e-04	0	58	0	387973120	60	6041
2026-01-05 02:46:25.30	306.92	36.12	-49.4	-53.4	11.6	5.39e-04	0	57	0	389021696	60	6091
2026-01-05 02:46:26.29	306.52	36.06	-49.1	-52.7	12.3	2.82e-04	0	58	0	391118848	60	5640
2026-01-05 02:46:27.27	306.14	35.99	-49.1	-52.7	12.3	9.68e-05	0	58	0	393216000	60	5615
2026-01-05 02:46:28.25	305.75	35.92	-49.0	-52.4	12.5	1.37e-04	0	57	0	395313152	60	5463
2026-01-05 02:46:29.24	305.37	35.85	-48.4	-51.2	13.7	2.28e-05	0	57	0	397410304	60	4726
2026-01-05 02:46:30.24	304.98	35.78	-48.1	-50.5	14.4	0.00e+00	0	57	0	398458880	59	4639
2026-01-05 02:46:31.23	304.59	35.71	-48.3	-50.9	14.1	3.00e-06	0	57	0	400556032	59	4856
2026-01-05 02:46:32.22	304.21	35.64	-48.7	-51.7	13.3	3.00e-06	0	58	0	402653184	59	5331
2026-01-05 02:46:33.22	303.83	35.56	-49.0	-52.3	12.7	4.88e-05	0	58	0	404750336	59	5694
2026-01-05 02:46:34.21	303.45	35.48	-48.3	-50.9	14.1	2.05e-05	0	58	0	405798912	59	4843
2026-01-05 02:46:35.20	303.07	35.41	-47.7	-49.9	15.1	0.00e+00	0	57	0	407896064	58	4585
2026-01-05 02:46:36.19	302.70	35.33	-47.3	-49.3	15.6	0.00e+00	0	57	0	409993216	57	4545
2026-01-05 02:46:37.17	302.33	35.25	-47.2	-49.1	15.9	0.00e+00	0	57	0	412090368	56	4673
2026-01-05 02:46:38.16	301.96	35.17	-47.0	-48.8	16.1	0.00e+00	0	58	0	413138944	56	4541
2026-01-05 02:46:39.16	301.59	35.09	-47.0	-48.9	16.1	0.00e+00	0	57	0	415236096	56	4556
2026-01-05 02:46:40.15	301.22	35.00	-47.6	-49.7	15.3	0.00e+00	0	58	0	417333248	56	5024
2026-01-05 02:46:41.14	300.85	34.92	-48.1	-50.6	14.5	0.00e+00	0	57	0	419430400	57	5245
2026-01-05 02:46:42.14	300.49	34.83	-48.3	-51.0	14.0	7.00e-07	0	58	0	421527552	58	5179
2026-01-05 02:46:43.13	300.13	34.75	-48.4	-51.1	13.8	6.10e-06	0	58	0	422576128	58	5275
2026-01-05 02:46:44.13	299.76	34.66	-48.6	-51.6	13.4	6.10e-06	0	58	0	424673280	59	5232
2026-01-05 02:46:45.12	299.40	34.57	-48.8	-51.9	13.1	1.83e-05	0	58	0	426770432	59	5405
2026-01-05 02:46:46.12	299.05	34.48	-48.4	-51.1	13.9	3.00e-06	0	57	0	428867584	59	4947
2026-01-05 02:46:47.11	298.69	34.39	-48.0	-50.4	14.6	0.00e+00	0	58	0	430964736	59	4583
2026-01-05 02:46:48.09	298.34	34.30	-48.1	-50.6	14.4	1.50e-06	0	58	0	432013312	58	4983
2026-01-05 02:46:49.08	297.99	34.21	-48.6	-51.5	13.6	1.50e-06	0	57	0	434110464	59	5163
2026-01-05 02:46:50.07	297.65	34.11	-48.7	-51.6	13.4	1.14e-05	0	58	0	436207616	59	5225
2026-01-05 02:46:51.05	297.30	34.02	-48.9	-52.0	12.9	5.26e-05	0	58	0	438304768	60	5201
2026-01-05 02:46:52.04	296.96	33.92	-49.1	-52.3	12.7	2.97e-05	0	58	0	439353344	60	5352
2026-01-05 02:46:53.03	296.62	33.83	-49.3	-52.7	12.4	1.63e-04	0	57	0	441450496	60	5635
2026-01-05 02:46:54.03	296.28	33.73	-49.3	-52.7	12.3	2.22e-04	0	58	0	443547648	60	5611
2026-01-05 02:46:55.02	295.94	33.63	-49.1	-52.3	12.7	1.48e-04	0	58	0	445644800	60	5371
2026-01-05 02:46:56.01	295.60	33.53	-48.6	-51.3	13.6	2.74e-05	0	58	0	446693376	60	4792
2026-01-05 02:46:57.00	295.27	33.43	-48.4	-50.9	14.0	1.50e-06	0	57	0	448790528	59	4869
2026-01-05 02:46:58.00	294.93	33.33	-48.8	-51.7	13.4	4.50e-06	0	57	0	450887680	59	5296
2026-01-05 02:46:58.98	294.61	33.23	-48.5	-51.0	14.0	1.44e-05	0	58	0	452984832	59	4896
2026-01-05 02:46:59.97	294.28	33.13	-48.1	-50.4	14.6	7.00e-07	0	58	0	455081984	59	4595
2026-01-05 02:47:00.96	293.96	33.03	-48.5	-51.0	14.1	0.00e+00	0	58	0	456130560	59	4883
2026-01-05 02:47:01.95	293.63	32.93	-48.3	-50.7	14.4	0.00e+00	0	58	0	458227712	59	4753
2026-01-05 02:47:02.95	293.31	32.82	-48.7	-51.4	13.6	0.00e+00	0	57	0	460324864	59	5141
2026-01-05 02:47:03.94	292.99	32.72	-49.0	-52.2	12.8	3.43e-05	0	58	0	462422016	60	5299
2026-01-05 02:47:04.93	292.67	32.61	-49.1	-52.1	12.8	6.86e-05	0	58	0	463470592	60	5277
2026-01-05 02:47:05.92	292.36	32.51	-49.0	-52.0	13.0	6.86e-05	0	58	0	465567744	60	5173
2026-01-05 02:47:06.90	292.05	32.40	-48.9	-51.7	13.3	4.19e-05	0	58	0	467664896	60	5019
2026-01-05 02:47:07.89	291.74	32.29	-48.3	-50.8	14.3	3.00e-06	0	58	0	469762048	59	4764
2026-01-05 02:47:08.88	291.43	32.19	-48.0	-50.2	14.6	0.00e+00	0	58	0	470810624	59	4469
2026-01-05 02:47:09.88	291.12	32.08	-48.0	-50.2	14.9	0.00e+00	0	58	0	472907776	59	4464
2026-01-05 02:47:10.87	290.81	31.97	-48.6	-51.1	13.9	7.00e-07	0	57	0	475004928	59	4972
2026-01-05 02:47:11.86	290.51	31.86	-48.7	-51.4	13.6	6.10e-06	0	57	0	477102080	59	5141
2026-01-05 02:47:12.85	290.21	31.75	-48.9	-51.8	13.1	2.28e-05	0	58	0	478150656	59	5354
2026-01-05 02:47:13.84	289.91	31.64	-48.9	-51.8	13.2	2.28e-05	0	57	0	480247808	59	5367
2026-01-05 02:47:14.84	289.61	31.53	-48.5	-51.1	13.9	9.90e-06	0	58	0	482344960	59	4932
2026-01-05 02:47:15.84	289.31	31.42	-48.2	-50.6	14.4	0.00e+00	0	58	0	484442112	59	4653
2026-01-05 02:47:16.82	289.02	31.31	-48.2	-50.7	14.3	2.20e-06	0	58	0	486539264	59	4750
2026-01-05 02:47:17.81	288.73	31.19	-48.3	-50.8	14.3	7.00e-07	0	58	0	487587840	59	4772
2026-01-05 02:47:18.80	288.45	31.08	-48.6	-51.3	13.7	1.50e-06	0	58	0	489684992	59	5089
2026-01-05 02:47:19.79	288.16	30.97	-48.5	-51.3	13.8	5.30e-06	0	58	0	491782144	59	5060
2026-01-05 02:47:20.78	287.87	30.86	-48.8	-51.6	13.4	7.60e-06	0	58	0	493879296	59	5274
2026-01-05 02:47:21.76	287.59	30.75	-48.9	-52.1	12.9	5.41e-05	0	58	0	494927872	60	5241
2026-01-05 02:47:22.76	287.31	30.63	-49.2	-52.5	12.5	7.32e-05	0	58	0	497025024	60	5508
2026-01-05 02:47:23.75	287.03	30.52	-49.6	-53.3	11.6	3.67e-04	0	57	0	499122176	61	5705
2026-01-05 02:47:24.74	286.76	30.40	-49.4	-53.0	11.8	5.23e-04	0	58	0	501219328	61	5526
2026-01-05 02:47:25.73	286.48	30.29	-49.2	-52.4	12.5	4.16e-04	0	58	0	503316480	61	5149
2026-01-05 02:47:26.72	286.21	30.17	-48.9	-51.8	13.2	3.05e-05	0	58	0	504365056	60	5049
2026-01-05 02:47:27.70	285.94	30.06	-48.8	-51.7	13.3	3.05e-05	0	57	0	506462208	60	5008
2026-01-05 02:47:28.68	285.68	29.94	-49.2	-52.3	12.7	5.03e-05	0	58	0	508559360	60	5359
2026-01-05 02:47:29.67	285.41	29.83	-49.4	-52.7	12.2	9.76e-05	0	58	0	510656512	60	5648
2026-01-05 02:47:30.66	285.14	29.71	-48.9	-51.9	13.0	1.61e-04	0	58	0	511705088	60	5127
2026-01-05 02:47:31.65	284.88	29.60	-48.9	-51.8	13.1	2.82e-05	0	58	0	513802240	60	5094
2026-01-05 02:47:32.65	284.62	29.48	-48.5	-51.2	13.9	1.83e-05	0	58	0	515899392	60	4715
2026-01-05 02:47:33.64	284.36	29.36	-48.4	-51.0	14.0	3.80e-06	0	58	0	517996544	59	4890
2026-01-05 02:47:34.63	284.10	29.25	-48.4	-50.8	14.2	1.50e-06	0	58	0	519045120	59	4807
2026-01-05 02:47:35.62	283.85	29.13	-48.0	-50.3	14.7	7.00e-07	0	58	0	521142272	59	4501
2026-01-05 02:47:36.61	283.59	29.01	-47.8	-50.0	15.0	0.00e+00	0	57	0	523239424	58	4618
2026-01-05 02:47:37.60	283.34	28.90	-47.8	-50.0	15.0	0.00e+00	0	58	0	525336576	58	4624
2026-01-05 02:47:38.59	283.09	28.78	-47.4	-49.4	15.6	0.00e+00	0	57	0	527433728	58	4319
2026-01-05 02:47:39.58	282.84	28.66	-47.3	-49.2	15.8	0.00e+00	0	58	0	528482304	57	4457
2026-01-05 02:47:40.57	282.60	28.54	-47.6	-49.6	15.4	0.00e+00	0	58	0	530579456	57	4694
2026-01-05 02:47:41.55	282.35	28.43	-47.7	-49.8	15.3	7.00e-07	0	58	0	532676608	57	4764
2026-01-05 02:47:42.54	282.11	28.31	-48.0	-50.3	14.7	0.00e+00	0	58	0	534773760	57	5056
2026-01-05 02:47:43.53	281.87	28.19	-48.1	-50.4	14.7	7.00e-07	0	58	0	535822336	58	4848
2026-01-05 02:47:44.52	281.63	28.08	-48.2	-50.5	14.5	0.00e+00	0	58	0	537919488	58	4907
2026-01-05 02:47:45.51	281.40	27.96	-48.4	-50.8	14.3	1.50e-06	0	58	0	540016640	58	5058
2026-01-05 02:47:46.50	281.16	27.84	-48.4	-50.8	14.2	7.00e-07	0	58	0	542113792	58	5092
2026-01-05 02:47:47.50	280.92	27.72	-47.9	-50.0	15.0	0.00e+00	0	58	0	543162368	58	4618
2026-01-05 02:47:48.49	280.69	27.60	-47.5	-49.5	15.5	0.00e+00	0	58	0	545259520	58	4373
2026-01-05 02:47:49.48	280.46	27.49	-47.3	-49.2	15.9	0.00e+00	0	58	0	547356672	57	4460
2026-01-05 02:47:50.48	280.23	27.37	-47.6	-49.6	15.5	0.00e+00	0	58	0	549453824	57	4658
2026-01-05 02:47:51.47	280.00	27.25	-47.6	-49.6	15.2	0.00e+00	0	57	0	551550976	57	4705
2026-01-05 02:47:52.46	279.78	27.13	-48.0	-50.3	14.8	0.00e+00	0	57	0	552599552	57	5071
2026-01-05 02:47:53.44	279.56	27.01	-47.9	-50.3	14.7	0.00e+00	0	58	0	554696704	58	4768
2026-01-05 02:47:54.44	279.33	26.89	-47.4	-49.5	15.6	0.00e+00	0	58	0	556793856	58	4357
2026-01-05 02:47:55.43	279.11	26.78	-47.2	-49.0	16.0	0.00e+00	0	57	0	558891008	57	4362
2026-01-05 02:47:56.42	278.89	26.66	-46.7	-48.4	16.6	0.00e+00	0	57	0	559939584	56	4320
2026-01-05 02:47:57.41	278.68	26.54	-46.6	-48.3	16.7	0.00e+00	0	58	0	562036736	56	4269
2026-01-05 02:47:58.41	278.46	26.42	-46.6	-48.1	16.9	0.00e+00	0	58	0	564133888	56	4192
2026-01-05 02:47:59.39	278.25	26.31	-46.6	-48.2	16.7	0.00e+00	0	58	0	566231040	56	4238
2026-01-05 02:48:00.38	278.04	26.19	-46.5	-48.2	16.8	0.00e+00	0	58	0	568328192	56	4212
2026-01-05 02:48:01.36	277.83	26.07	-46.7	-48.3	16.6	0.00e+00	0	58	0	569376768	56	4287
2026-01-05 02:48:02.36	277.62	25.95	-46.6	-48.3	16.7	0.00e+00	0	58	0	571473920	56	4274
2026-01-05 02:48:03.34	277.41	25.84	-46.8	-48.4	16.5	0.00e+00	0	57	0	573571072	56	4336
2026-01-05 02:48:04.33	277.21	25.72	-46.9	-48.7	16.3	0.00e+00	0	58	0	575668224	56	4455
2026-01-05 02:48:05.32	277.00	25.60	-47.1	-48.9	16.1	0.00e+00	0	58	0	576716800	56	4582
2026-01-05 02:48:06.31	276.80	25.49	-47.3	-49.2	15.8	0.00e+00	0	58	0	578813952	56	4723
2026-01-05 02:48:07.30	276.60	25.37	-47.2	-49.1	15.9	0.00e+00	0	58	0	580911104	56	4652
2026-01-05 02:48:08.28	276.40	25.25	-47.0	-48.8	16.2	0.00e+00	0	58	0	583008256	56	4509
2026-01-05 02:48:09.27	276.20	25.14	-46.8	-48.5	16.4	0.00e+00	0	57	0	584056832	56	4374
2026-01-05 02:48:10.27	276.00	25.02	-47.0	-48.9	16.1	0.00e+00	0	58	0	586153984	56	4550
2026-01-05 02:48:11.26	275.81	24.90	-46.8	-48.5	16.5	0.00e+00	0	58	0	588251136	56	4376
2026-01-05 02:48:12.25	275.61	24.79	-47.0	-48.8	16.2	0.00e+00	0	57	0	590348288	56	4530
2026-01-05 02:48:13.24	275.42	24.67	-47.1	-48.9	16.0	0.00e+00	0	58	0	591396864	56	4572
2026-01-05 02:48:14.23	275.23	24.56	-47.1	-49.0	16.0	0.00e+00	0	58	0	593494016	56	4600
2026-01-05 02:48:15.22	275.04	24.44	-47.4	-49.3	15.7	0.00e+00	0	57	0	595591168	56	4763
2026-01-05 02:48:16.21	274.85	24.32	-46.9	-48.7	16.3	0.00e+00	0	57	0	597688320	56	4455
2026-01-05 02:48:17.19	274.67	24.21	-46.9	-48.7	16.3	0.00e+00	0	58	0	599785472	56	4457
2026-01-05 02:48:18.18	274.48	24.10	-47.0	-48.8	16.2	0.00e+00	0	58	0	600834048	56	4532
2026-01-05 02:48:19.16	274.30	23.98	-46.8	-48.6	16.4	0.00e+00	0	57	0	602931200	56	4392
2026-01-05 02:48:20.15	274.12	23.87	-46.8	-48.5	16.5	0.00e+00	0	58	0	605028352	56	4357
2026-01-05 02:48:21.14	273.94	23.75	-47.1	-49.0	16.0	0.00e+00	0	57	0	607125504	56	4625
2026-01-05 02:48:22.14	273.75	23.64	-47.2	-49.1	15.9	0.00e+00	0	58	0	608174080	56	4660
2026-01-05 02:48:23.12	273.58	23.52	-47.4	-49.3	15.6	0.00e+00	0	57	0	610271232	56	4808
2026-01-05 02:48:24.11	273.40	23.41	-47.4	-49.3	15.6	0.00e+00	0	58	0	612368384	57	4545
2026-01-05 02:48:25.10	273.22	23.30	-47.6	-49.6	15.3	0.00e+00	0	58	0	614465536	57	4697
2026-01-05 02:48:26.09	273.05	23.18	-47.7	-49.8	15.1	0.00e+00	0	57	0	615514112	57	4776
2026-01-05 02:48:27.08	272.88	23.07	-47.5	-49.5	15.5	0.00e+00	0	58	0	617611264	57	4604
2026-01-05 02:48:28.07	272.70	22.96	-47.5	-49.5	15.5	0.00e+00	0	58	0	619708416	57	4603
2026-01-05 02:48:29.05	272.53	22.84	-47.2	-49.1	15.8	0.00e+00	0	58	0	621805568	57	4435
2026-01-05 02:48:30.03	272.37	22.73	-47.5	-49.6	15.4	0.00e+00	0	58	0	623902720	57	4656
2026-01-05 02:48:31.02	272.20	22.62	-47.6	-49.6	15.3	0.00e+00	0	58	0	624951296	57	4695
2026-01-05 02:48:32.00	272.03	22.51	-47.9	-50.1	14.9	0.00e+00	0	57	0	627048448	57	4979
2026-01-05 02:48:32.99	271.87	22.40	-47.9	-50.2	14.8	0.00e+00	0	57	0	629145600	58	4713
2026-01-05 02:48:33.98	271.70	22.29	-47.9	-50.1	14.9	0.00e+00	0	58	0	631242752	58	4669
2026-01-05 02:48:34.97	271.54	22.17	-48.1	-50.5	14.5	1.50e-06	0	58	0	632291328	58	4876
2026-01-05 02:48:35.96	271.37	22.06	-48.1	-50.5	14.5	0.00e+00	0	58	0	634388480	58	4895
2026-01-05 02:48:36.94	271.22	21.95	-48.2	-50.6	14.4	1.50e-06	0	58	0	636485632	58	4944
2026-01-05 02:48:37.93	271.06	21.84	-48.3	-50.8	14.2	2.20e-06	0	58	0	638582784	58	5048
2026-01-05 02:48:38.92	270.90	21.73	-48.6	-51.2	13.8	3.80e-06	0	58	0	639631360	58	5306
2026-01-05 02:48:39.91	270.74	21.62	-48.3	-50.8	14.2	0.00e+00	0	58	0	641728512	58	5084
2026-01-05 02:48:40.91	270.58	21.51	-48.4	-50.9	14.1	0.00e+00	0	58	0	643825664	58	5120
2026-01-05 02:48:41.90	270.42	21.40	-48.2	-50.7	14.2	7.00e-07	0	58	0	645922816	58	5005
2026-01-05 02:48:42.90	270.27	21.29	-47.9	-50.2	14.7	7.00e-07	0	58	0	648019968	58	4738
2026-01-05 02:48:43.88	270.12	21.18	-47.7	-49.8	15.2	0.00e+00	0	58	0	649068544	58	4494
2026-01-05 02:48:44.87	269.96	21.07	-47.9	-50.2	14.8	7.00e-07	0	58	0	651165696	58	4711
2026-01-05 02:48:45.86	269.81	20.96	-47.5	-49.5	15.5	0.00e+00	0	58	0	653262848	58	4376
2026-01-05 02:48:46.85	269.66	20.85	-47.2	-49.1	15.8	0.00e+00	0	58	0	655360000	57	4417
2026-01-05 02:48:47.84	269.51	20.74	-47.6	-49.6	15.3	0.00e+00	0	58	0	656408576	57	4678
2026-01-05 02:48:48.83	269.37	20.64	-47.5	-49.5	15.5	0.00e+00	0	58	0	658505728	57	4644
2026-01-05 02:48:49.83	269.22	20.53	-47.6	-49.8	15.2	0.00e+00	0	58	0	660602880	57	4770
2026-01-05 02:48:50.83	269.07	20.42	-47.8	-49.9	15.0	0.00e+00	0	58	0	662700032	57	4866
2026-01-05 02:48:51.82	268.93	20.31	-47.8	-50.0	14.9	0.00e+00	0	58	0	664797184	57	4892
2026-01-05 02:48:52.81	268.78	20.20	-47.9	-50.1	14.7	0.00e+00	0	58	0	665845760	57	4981
2026-01-05 02:48:53.80	268.64	20.10	-48.0	-50.3	14.7	0.00e+00	0	57	0	667942912	57	5061
2026-01-05 02:48:54.79	268.50	19.99	-47.5	-49.6	15.3	7.00e-07	0	58	0	670040064	58	4404
2026-01-05 02:48:55.78	268.36	19.89	-47.1	-48.9	16.0	0.00e+00	0	58	0	672137216	57	4311
2026-01-05 02:48:56.76	268.22	19.78	-46.8	-48.5	16.4	0.00e+00	0	58	0	673185792	56	4372
2026-01-05 02:48:57.75	268.08	19.67	-46.5	-48.2	16.7	0.00e+00	0	57	0	675282944	56	4194
2026-01-05 02:48:58.74	267.94	19.57	-46.7	-48.3	16.6	0.00e+00	0	58	0	677380096	56	4269
2026-01-05 02:48:59.72	267.81	19.46	-46.6	-48.2	16.7	0.00e+00	0	58	0	679477248	56	4211
2026-01-05 02:49:00.71	267.67	19.36	-46.8	-48.6	16.3	0.00e+00	0	58	0	680525824	56	4392
2026-01-05 02:49:01.70	267.54	19.26	-47.0	-48.8	16.1	0.00e+00	0	58	0	682622976	56	4497
2026-01-05 02:49:02.70	267.40	19.15	-47.2	-49.1	15.8	0.00e+00	0	58	0	684720128	56	4702
2026-01-05 02:49:03.68	267.27	19.05	-47.7	-49.8	15.0	0.00e+00	0	58	0	686817280	57	4805
2026-01-05 02:49:04.67	267.14	18.94	-48.0	-50.3	14.6	7.00e-07	0	58	0	687865856	57	5078
2026-01-05 02:49:05.66	267.01	18.84	-48.4	-50.9	14.0	4.50e-06	0	58	0	689963008	58	5155
2026-01-05 02:49:06.65	266.87	18.74	-48.7	-51.5	13.4	1.50e-06	0	58	0	692060160	59	5190
2026-01-05 02:49:07.64	266.75	18.63	-49.0	-52.2	12.7	5.64e-05	0	58	0	694157312	60	5303
2026-01-05 02:49:08.63	266.62	18.53	-49.4	-52.8	12.1	1.93e-04	0	58	0	696254464	60	5706
2026-01-05 02:49:09.62	266.49	18.43	-49.4	-52.7	12.2	2.05e-04	0	58	0	697303040	60	5600
2026-01-05 02:49:10.61	266.36	18.33	-49.4	-52.9	12.0	3.58e-04	0	58	0	699400192	61	5408
2026-01-05 02:49:11.60	266.24	18.22	-49.4	-52.6	12.3	2.79e-04	0	58	0	701497344	61	5260
2026-01-05 02:49:12.58	266.11	18.12	-49.1	-52.1	12.8	1.43e-04	0	58	0	703594496	61	4973
2026-01-05 02:49:13.57	265.99	18.02	-48.7	-51.5	13.4	2.21e-05	0	58	0	704643072	60	4918
2026-01-05 02:49:14.56	265.87	17.92	-48.6	-51.2	13.7	3.80e-06	0	58	0	706740224	60	4752
2026-01-05 02:49:15.55	265.74	17.82	-48.2	-50.4	14.5	1.50e-06	0	58	0	708837376	59	4595
2026-01-05 02:49:16.54	265.62	17.72	-47.9	-50.0	15.0	0.00e+00	0	58	0	710934528	58	4602
2026-01-05 02:49:17.52	265.50	17.62	-47.8	-49.9	15.0	0.00e+00	0	58	0	711983104	58	4584
2026-01-05 02:49:18.51	265.38	17.52	-47.7	-49.7	15.2	7.00e-07	0	58	0	714080256	58	4478
2026-01-05 02:49:19.50	265.26	17.42	-47.9	-50.0	14.9	0.00e+00	0	58	0	716177408	58	4614
2026-01-05 02:49:20.49	265.14	17.32	-48.2	-50.4	14.5	2.20e-06	0	58	0	718274560	58	4863
2026-01-05 02:49:21.47	265.03	17.22	-48.4	-50.8	14.1	0.00e+00	0	58	0	720371712	58	5096
2026-01-05 02:49:22.46	264.91	17.12	-48.6	-51.2	13.6	3.80e-06	0	58	0	721420288	59	5022
2026-01-05 02:49:23.45	264.79	17.03	-48.8	-51.5	13.4	3.80e-06	0	58	0	723517440	59	5213
2026-01-05 02:49:24.43	264.68	16.93	-49.0	-51.9	13.0	4.65e-05	0	58	0	725614592	60	5153
2026-01-05 02:49:25.42	264.57	16.83	-48.6	-51.3	13.6	2.44e-05	0	58	0	727711744	60	4793
2026-01-05 02:49:26.41	264.45	16.73	-48.7	-51.4	13.5	1.52e-05	0	57	0	728760320	60	4843
2026-01-05 02:49:27.40	264.34	16.63	-48.4	-51.0	13.9	7.60e-06	0	57	0	730857472	60	4611
2026-01-05 02:49:28.38	264.23	16.54	-48.4	-50.9	14.0	7.00e-07	0	58	0	732954624	59	4846
2026-01-05 02:49:29.37	264.12	16.44	-48.4	-50.9	14.1	2.20e-06	0	58	0	735051776	59	4815
2026-01-05 02:49:30.35	264.01	16.35	-48.1	-50.3	14.6	0.00e+00	0	58	0	736100352	59	4540
2026-01-05 02:49:31.34	263.90	16.25	-47.8	-49.9	15.0	0.00e+00	0	58	0	738197504	58	4591
2026-01-05 02:49:32.32	263.79	16.15	-47.8	-49.9	15.0	0.00e+00	0	58	0	740294656	58	4585
2026-01-05 02:49:33.31	263.68	16.06	-47.8	-49.9	15.0	0.00e+00	0	58	0	742391808	58	4577
2026-01-05 02:49:34.30	263.57	15.96	-47.9	-50.0	14.8	0.00e+00	0	58	0	743440384	58	4635
2026-01-05 02:49:35.29	263.46	15.87	-48.0	-50.1	14.7	0.00e+00	0	58	0	745537536	58	4705
2026-01-05 02:49:36.28	263.36	15.77	-48.0	-50.2	14.7	0.00e+00	0	58	0	747634688	58	4729
2026-01-05 02:49:37.27	263.25	15.68	-48.2	-50.5	14.4	0.00e+00	0	58	0	749731840	58	4906
2026-01-05 02:49:38.26	263.15	15.58	-48.1	-50.4	14.5	7.00e-07	0	58	0	751828992	58	4829
2026-01-05 02:49:39.25	263.04	15.49	-48.1	-50.4	14.6	7.00e-07	0	58	0	752877568	58	4833
2026-01-05 02:49:40.24	262.94	15.39	-48.1	-50.4	14.5	1.50e-06	0	57	0	754974720	58	4824
2026-01-05 02:49:41.23	262.83	15.30	-48.2	-50.5	14.4	0.00e+00	0	58	0	757071872	58	4906
2026-01-05 02:49:42.22	262.73	15.21	-48.1	-50.4	14.5	1.50e-06	0	58	0	759169024	58	4856
2026-01-05 02:49:43.21	262.63	15.11	-48.3	-50.8	14.1	1.50e-06	0	58	0	760217600	58	5062
2026-01-05 02:49:44.19	262.53	15.02	-48.3	-50.6	14.3	3.80e-06	0	58	0	762314752	58	4956
2026-01-05 02:49:45.18	262.43	14.93	-48.2	-50.5	14.4	7.00e-07	0	58	0	764411904	58	4894
2026-01-05 02:49:46.18	262.33	14.84	-48.4	-50.9	14.0	0.00e+00	0	58	0	766509056	58	5108
2026-01-05 02:49:47.17	262.23	14.74	-48.5	-51.1	13.8	5.30e-06	0	58	0	767557632	59	4929
2026-01-05 02:49:48.16	262.13	14.65	-48.4	-50.8	14.0	4.50e-06	0	58	0	769654784	59	4814
2026-01-05 02:49:49.15	262.03	14.56	-48.3	-50.7	14.1	7.00e-07	0	58	0	771751936	59	4750
2026-01-05 02:49:50.14	261.94	14.47	-48.4	-50.9	13.9	3.00e-06	0	58	0	773849088	59	4831
2026-01-05 02:49:51.13	261.84	14.38	-48.6	-51.1	13.7	1.50e-06	0	58	0	775946240	59	4972
2026-01-05 02:49:52.13	261.74	14.29	-48.2	-50.5	14.3	7.60e-06	0	58	0	776994816	59	4615
2026-01-05 02:49:53.12	261.65	14.19	-47.9	-50.1	14.8	0.00e+00	0	57	0	779091968	59	4418
2026-01-05 02:49:54.11	261.55	14.10	-47.8	-49.8	14.9	0.00e+00	0	58	0	781189120	58	4522
2026-01-05 02:49:55.10	261.46	14.01	-47.8	-49.8	15.0	0.00e+00	0	58	0	783286272	58	4541
2026-01-05 02:49:56.09	261.36	13.92	-47.6	-49.7	15.2	0.00e+00	0	58	0	784334848	58	4452
2026-01-05 02:49:57.08	261.27	13.83	-47.7	-49.8	15.0	0.00e+00	0	58	0	786432000	58	4514
2026-01-05 02:49:58.07	261.18	13.75	-47.9	-50.1	14.8	7.00e-07	0	57	0	788529152	58	4653
2026-01-05 02:49:59.05	261.09	13.66	-47.9	-50.1	14.7	0.00e+00	0	58	0	790626304	58	4673
2026-01-05 02:50:00.03	260.99	13.57	-48.1	-50.5	14.3	7.00e-07	0	58	0	791674880	58	4915
2026-01-05 02:50:01.03	260.90	13.48	-48.3	-50.7	14.1	2.20e-06	0	58	0	793772032	58	5028
2026-01-05 02:50:02.02	260.81	13.39	-48.6	-51.3	13.5	3.00e-06	0	58	0	795869184	59	5046
2026-01-05 02:50:03.01	260.72	13.30	-48.7	-51.3	13.5	7.60e-06	0	58	0	797966336	59	5096
2026-01-05 02:50:04.00	260.63	13.22	-49.0	-52.0	12.8	2.05e-05	0	58	0	800063488	59	5490
2026-01-05 02:50:04.99	260.54	13.13	-49.1	-52.1	12.7	8.08e-05	0	58	0	801112064	60	5254
2026-01-05 02:50:05.98	260.46	13.04	-49.4	-52.7	12.0	2.04e-04	0	58	0	803209216	60	5652
2026-01-05 02:50:06.97	260.37	12.95	-49.3	-52.5	12.3	3.07e-04	0	58	0	805306368	60	5518
2026-01-05 02:50:07.96	260.28	12.87	-49.4	-52.7	12.0	2.91e-04	0	58	0	807403520	60	5653
2026-01-05 02:50:08.95	260.20	12.78	-49.4	-52.8	11.9	3.43e-04	0	58	0	808452096	60	5664
2026-01-05 02:50:09.93	260.11	12.69	-49.4	-52.7	12.0	2.75e-04	0	58	0	810549248	60	5656
2026-01-05 02:50:10.92	260.02	12.61	-49.4	-52.9	11.9	3.50e-04	0	58	0	812646400	60	5731
2026-01-05 02:50:11.91	259.94	12.52	-49.1	-52.2	12.5	2.02e-04	0	58	0	814743552	60	5335
2026-01-05 02:50:12.90	259.86	12.44	-48.7	-51.5	13.1	6.17e-05	0	58	0	815792128	60	4924
2026-01-05 02:50:13.89	259.77	12.35	-48.5	-51.2	13.5	1.90e-05	0	58	0	817889280	60	4738
2026-01-05 02:50:14.89	259.69	12.26	-48.5	-51.2	13.6	8.30e-06	0	58	0	819986432	60	4724
2026-01-05 02:50:15.88	259.60	12.18	-48.4	-50.9	13.9	6.10e-06	0	58	0	822083584	59	4822
2026-01-05 02:50:16.86	259.52	12.10	-48.2	-50.7	14.1	2.20e-06	0	57	0	824180736	59	4719
2026-01-05 02:50:17.85	259.44	12.01	-48.1	-50.5	14.2	0.00e+00	0	58	0	825229312	59	4621
2026-01-05 02:50:18.84	259.36	11.93	-48.0	-50.3	14.4	2.20e-06	0	58	0	827326464	59	4542
2026-01-05 02:50:19.83	259.28	11.84	-48.2	-50.7	14.1	7.00e-07	0	58	0	829423616	59	4718
2026-01-05 02:50:20.82	259.20	11.76	-48.0	-50.3	14.5	0.00e+00	0	58	0	831520768	59	4520
2026-01-05 02:50:21.80	259.12	11.68	-47.9	-50.2	14.6	3.00e-06	0	58	0	832569344	58	4721
2026-01-05 02:50:22.79	259.04	11.59	-48.0	-50.2	14.6	0.00e+00	0	58	0	834666496	58	4734
2026-01-05 02:50:23.78	258.96	11.51	-48.0	-50.3	14.4	0.00e+00	0	58	0	836763648	58	4805
2026-01-05 02:50:24.77	258.88	11.43	-48.0	-50.3	14.5	0.00e+00	0	58	0	838860800	58	4760
2026-01-05 02:50:25.75	258.80	11.34	-47.9	-50.2	14.5	0.00e+00	0	58	0	839909376	58	4727
2026-01-05 02:50:26.74	258.72	11.26	-48.0	-50.3	14.4	0.00e+00	0	58	0	842006528	58	4808
2026-01-05 02:50:27.72	258.65	11.18	-48.2	-50.5	14.2	3.00e-06	0	58	0	844103680	58	4923
2026-01-05 02:50:28.71	258.57	11.10	-48.2	-50.5	14.2	7.00e-07	0	58	0	846200832	58	4911
2026-01-05 02:50:29.69	258.50	11.02	-48.3	-50.7	14.0	1.50e-06	0	58	0	847249408	58	5024
2026-01-05 02:50:30.68	258.42	10.94	-48.1	-50.5	14.2	7.00e-07	0	58	0	849346560	58	4908
2026-01-05 02:50:31.67	258.34	10.85	-48.2	-50.7	14.0	2.20e-06	0	58	0	851443712	58	4984
2026-01-05 02:50:32.65	258.27	10.77	-48.2	-50.6	14.1	4.50e-06	0	58	0	853540864	58	4957
2026-01-05 02:50:33.64	258.20	10.69	-48.2	-50.6	14.2	1.50e-06	0	58	0	855638016	58	4937
2026-01-05 02:50:34.63	258.12	10.61	-48.3	-50.8	13.9	3.80e-06	0	58	0	856686592	58	5062
2026-01-05 02:50:35.62	258.05	10.53	-48.6	-51.2	13.4	7.60e-06	0	58	0	858783744	59	5019
2026-01-05 02:50:36.61	257.97	10.45	-48.5	-51.1	13.5	1.37e-05	0	58	0	860880896	59	4965
2026-01-05 02:50:37.59	257.90	10.37	-48.5	-51.0	13.6	6.80e-06	0	58	0	862978048	59	4922
2026-01-05 02:50:38.58	257.83	10.29	-48.6	-51.2	13.4	1.37e-05	0	58	0	864026624	59	5029
2026-01-05 02:50:39.58	257.76	10.21	-48.5	-51.1	13.5	1.14e-05	0	58	0	866123776	59	4980
2026-01-05 02:50:40.57	257.68	10.13	-48.7	-51.5	13.2	1.67e-05	0	58	0	868220928	59	5180
2026-01-05 02:50:41.55	257.61	10.05	-48.8	-51.5	13.2	3.89e-05	0	58	0	870318080	59	5203
2026-01-05 02:50:42.54	257.54	9.98	-48.7	-51.4	13.3	3.66e-05	0	58	0	871366656	59	5120
2026-01-05 02:50:43.53	257.47	9.90	-48.6	-51.3	13.4	1.37e-05	0	58	0	873463808	59	5078
2026-01-05 02:50:44.52	257.40	9.82	-48.6	-51.3	13.4	1.29e-05	0	58	0	875560960	59	5083
2026-01-05 02:50:45.50	257.33	9.74	-48.6	-51.4	13.3	1.98e-05	0	58	0	877658112	59	5116
2026-01-05 02:50:46.49	257.26	9.66	-48.8	-51.6	13.0	2.97e-05	0	58	0	879755264	59	5276
2026-01-05 02:50:47.49	257.19	9.58	-48.8	-51.6	13.0	6.63e-05	0	58	0	880803840	59	5272
2026-01-05 02:50:48.48	257.12	9.51	-48.7	-51.5	13.1	3.28e-05	0	58	0	882900992	59	5209
2026-01-05 02:50:49.47	257.06	9.43	-48.9	-51.8	12.8	5.87e-05	0	58	0	884998144	59	5399
2026-01-05 02:50:50.46	256.99	9.35	-49.0	-52.0	12.6	8.62e-05	0	58	0	887095296	59	5527
2026-01-05 02:50:51.45	256.92	9.27	-48.8	-51.7	12.9	5.95e-05	0	58	0	888143872	59	5328
2026-01-05 02:50:52.45	256.85	9.20	-48.9	-51.9	12.8	4.95e-05	0	58	0	890241024	59	5412
2026-01-05 02:50:53.43	256.79	9.12	-48.9	-52.0	12.6	1.28e-04	0	58	0	892338176	59	5512
2026-01-05 02:50:54.42	256.72	9.04	-48.9	-52.0	12.6	9.23e-05	0	58	0	894435328	59	5483
2026-01-05 02:50:55.42	256.65	8.97	-49.1	-52.2	12.4	1.13e-04	0	58	0	896532480	59	5644
2026-01-05 02:50:56.40	256.59	8.89	-49.1	-52.5	12.1	2.68e-04	0	58	0	897581056	60	5468
2026-01-05 02:50:57.40	256.52	8.81	-49.1	-52.4	12.1	2.39e-04	0	58	0	899678208	60	5440
2026-01-05 02:50:58.38	256.46	8.74	-49.4	-53.0	11.5	4.41e-04	0	58	0	901775360	60	5838
2026-01-05 02:50:59.37	256.39	8.66	-49.5	-53.2	11.3	1.34e-03	0	58	0	903872512	61	5631
2026-01-05 02:51:00.36	256.33	8.59	-49.5	-53.1	11.3	1.02e-03	0	58	0	904921088	61	5588
2026-01-05 02:51:01.35	256.27	8.51	-49.6	-53.4	11.1	1.42e-03	0	58	0	907018240	61	5746
2026-01-05 02:51:02.34	256.20	8.44	-49.5	-53.3	11.2	1.39e-03	0	58	0	909115392	61	5687
2026-01-05 02:51:03.33	256.14	8.36	-49.6	-53.5	11.0	1.61e-03	0	58	0	911212544	61	5800
2026-01-05 02:51:04.32	256.08	8.29	-49.7	-53.6	10.8	2.38e-03	0	58	0	912261120	61	5918
2026-01-05 02:51:05.30	256.01	8.21	-49.7	-53.8	10.6	3.33e-03	0	58	0	914358272	61	6026
2026-01-05 02:51:06.29	255.95	8.14	-49.6	-53.7	10.7	3.44e-03	0	58	0	916455424	61	5988
2026-01-05 02:51:07.28	255.89	8.06	-49.7	-53.8	10.7	3.58e-03	0	58	0	918552576	61	5999
2026-01-05 02:51:08.27	255.83	7.99	-49.6	-53.5	10.9	2.76e-03	0	58	0	919601152	61	5853
2026-01-05 02:51:09.25	255.77	7.92	-49.4	-53.0	11.4	1.53e-03	0	58	0	921698304	61	5524
2026-01-05 02:51:10.25	255.71	7.84	-49.6	-53.5	11.0	1.29e-03	0	58	0	923795456	61	5791
2026-01-05 02:51:11.24	255.65	7.77	-49.4	-53.1	11.4	1.43e-03	0	58	0	925892608	61	5537
2026-01-05 02:51:12.23	255.59	7.70	-49.3	-52.9	11.5	8.49e-04	0	58	0	927989760	61	5451
2026-01-05 02:51:13.22	255.53	7.62	-49.3	-53.1	11.3	1.35e-03	0	58	0	929038336	61	5550
2026-01-05 02:51:14.21	255.47	7.55	-49.2	-52.7	11.7	9.34e-04	0	58	0	931135488	61	5303
2026-01-05 02:51:15.20	255.41	7.48	-49.2	-52.7	11.7	5.73e-04	0	58	0	933232640	61	5331
2026-01-05 02:51:16.19	255.35	7.41	-49.4	-53.2	11.2	1.01e-03	0	58	0	935329792	61	5635
2026-01-05 02:51:17.18	255.29	7.33	-49.1	-52.4	12.0	5.80e-04	0	58	0	936378368	61	5148
2026-01-05 02:51:18.16	255.23	7.26	-48.9	-52.1	12.3	2.04e-04	0	58	0	938475520	60	5244
2026-01-05 02:51:19.15	255.17	7.19	-48.8	-52.0	12.4	1.79e-04	0	58	0	940572672	60	5164
2026-01-05 02:51:20.13	255.12	7.12	-48.7	-51.7	12.7	8.62e-05	0	58	0	942669824	60	5012
2026-01-05 02:51:21.12	255.06	7.05	-48.6	-51.6	12.8	6.79e-05	0	58	0	943718400	60	4969
2026-01-05 02:51:22.11	255.00	6.98	-48.6	-51.7	12.7	7.85e-05	0	58	0	945815552	60	4992
2026-01-05 02:51:23.10	254.94	6.90	-48.9	-52.1	12.3	1.66e-04	0	58	0	947912704	60	5223
2026-01-05 02:51:24.09	254.89	6.83	-48.7	-51.7	12.7	9.23e-05	0	58	0	950009856	60	5026
2026-01-05 02:51:25.08	254.83	6.76	-48.5	-51.4	12.9	6.63e-05	0	58	0	952107008	60	4870
2026-01-05 02:51:26.07	254.78	6.69	-48.4	-51.4	13.0	3.66e-05	0	58	0	953155584	60	4832
2026-01-05 02:51:27.06	254.72	6.62	-48.5	-51.4	13.0	4.57e-05	0	58	0	955252736	60	4831
2026-01-05 02:51:28.04	254.67	6.55	-48.7	-51.8	12.5	6.63e-05	0	58	0	957349888	60	5068
2026-01-05 02:51:29.03	254.61	6.48	-48.6	-51.6	12.8	9.99e-05	0	58	0	959447040	60	4927
2026-01-05 02:51:30.02	254.56	6.41	-48.6	-51.6	12.8	6.86e-05	0	58	0	960495616	60	4933
2026-01-05 02:51:31.01	254.50	6.34	-48.7	-51.8	12.4	1.11e-04	0	58	0	962592768	60	5095
2026-01-05 02:51:32.00	254.45	6.27	-48.6	-51.7	12.6	1.08e-04	0	58	0	964689920	60	5012
2026-01-05 02:51:32.98	254.39	6.20	-48.7	-51.8	12.5	1.02e-04	0	58	0	966787072	60	5055
2026-01-05 02:51:33.97	254.34	6.13	-48.8	-52.0	12.2	1.75e-04	0	58	0	967835648	60	5193
2026-01-05 02:51:34.96	254.29	6.06	-48.8	-52.0	12.2	2.20e-04	0	58	0	969932800	60	5189
2026-01-05 02:51:35.94	254.23	5.99	-48.9	-52.2	12.0	1.98e-04	0	58	0	972029952	60	5312
2026-01-05 02:51:36.94	254.18	5.93	-49.0	-52.4	11.8	3.81e-04	0	58	0	974127104	60	5423
2026-01-05 02:51:37.93	254.13	5.86	-49.1	-52.6	11.6	5.26e-04	0	58	0	976224256	60	5580
2026-01-05 02:51:38.91	254.07	5.79	-49.1	-52.7	11.5	8.19e-04	0	58	0	977272832	60	5637
2026-01-05 02:51:39.90	254.02	5.72	-49.2	-52.9	11.3	8.70e-04	0	58	0	979369984	60	5734
2026-01-05 02:51:40.89	253.97	5.65	-49.2	-53.0	11.3	1.16e-03	0	58	0	981467136	60	5799
2026-01-05 02:51:41.88	253.92	5.58	-49.3	-53.2	10.9	2.01e-03	0	58	0	983564288	60	5977
2026-01-05 02:51:42.87	253.87	5.51	-49.3	-53.3	10.9	2.42e-03	0	58	0	984612864	60	6002
2026-01-05 02:51:43.86	253.82	5.45	-49.5	-53.6	10.5	2.82e-03	0	58	0	986710016	60	6231
2026-01-05 02:51:44.86	253.76	5.38	-49.5	-53.6	10.5	4.24e-03	0	58	0	988807168	60	6249
2026-01-05 02:51:45.85	253.71	5.31	-49.5	-53.8	10.3	4.18e-03	0	58	0	990904320	60	6358
2026-01-05 02:51:46.83	253.66	5.24	-49.6	-53.9	10.2	6.03e-03	0	58	0	991952896	61	6063
2026-01-05 02:51:47.83	253.61	5.18	-49.6	-54.0	10.1	7.26e-03	0	58	0	994050048	61	6162
2026-01-05 02:51:48.82	253.56	5.11	-49.6	-54.0	10.0	5.98e-03	0	58	0	996147200	61	6168
2026-01-05 02:51:49.81	253.51	5.04	-50.2	-55.6	8.7	8.23e-03	0	58	0	998244352	62	7000
2026-01-05 02:51:50.81	253.46	4.97	-51.6	-65.4	3.8	1.49e+00	0	58	104	998244352	65	18161
2026-01-05 02:51:51.80	253.41	4.91	-51.6	-65.5	3.8	1.49e+00	0	58	104	998244352	65	18363
2026-01-05 02:51:52.79	253.37	4.84	-51.8	-65.6	3.8	1.49e+00	0	58	104	998244352	65	18664
2026-01-05 02:51:53.77	253.32	4.78	-50.7	-64.5	3.8	1.49e+00	0	58	104	998244352	63	18431
2026-01-05 02:51:54.77	253.27	4.71	-52.2	-66.0	3.8	1.49e+00	0	58	104	998244352	66	18359
2026-01-05 02:51:55.76	253.22	4.64	-52.3	-66.1	3.8	1.49e+00	0	58	104	998244352	66	18525
2026-01-05 02:51:56.75	253.17	4.58	-52.3	-66.1	3.8	1.49e+00	0	58	104	998244352	66	18682
2026-01-05 02:51:57.73	253.12	4.51	-52.3	-66.1	3.8	1.49e+00	0	58	104	998244352	66	18649
2026-01-05 02:51:58.73	253.08	4.44	-52.3	-66.1	3.8	1.49e+00	0	58	104	998244352	66	18679
2026-01-05 02:51:59.72	253.03	4.38	-52.4	-66.2	3.8	1.49e+00	0	58	104	998244352	66	18795
2026-01-05 02:52:00.70	252.98	4.31	-52.3	-66.2	3.8	1.49e+00	0	58	104	998244352	66	18814
2026-01-05 02:52:01.70	252.94	4.25	-52.4	-66.2	3.8	1.49e+00	0	58	104	998244352	66	18870
2026-01-05 02:52:02.69	252.89	4.18	-52.4	-66.2	3.8	1.49e+00	0	58	104	998244352	66	18940
2026-01-05 02:52:03.69	252.84	4.12	-52.4	-66.2	3.8	1.49e+00	0	58	104	998244352	66	18945
2026-01-05 02:52:04.68	252.80	4.05	-52.5	-66.3	3.8	1.49e+00	0	58	104	998244352	66	19038
2026-01-05 02:52:05.67	252.75	3.99	-52.5	-66.3	3.8	1.49e+00	0	58	104	998244352	66	19121
2026-01-05 02:52:06.66	252.70	3.92	-52.4	-66.3	3.8	1.49e+00	0	58	104	998244352	66	19116
2026-01-05 02:52:07.65	252.66	3.86	-52.5	-66.3	3.8	1.49e+00	0	58	104	998244352	66	19161
2026-01-05 02:52:08.64	252.61	3.79	-52.6	-66.4	3.8	1.49e+00	0	58	104	998244352	66	19183
2026-01-05 02:52:09.63	252.57	3.73	-52.5	-66.4	3.8	1.49e+00	0	58	104	998244352	66	19289
2026-01-05 02:52:10.61	252.52	3.67	-52.6	-66.4	3.8	1.49e+00	0	58	104	998244352	66	19204
2026-01-05 02:52:11.59	252.48	3.60	-52.6	-66.4	3.8	1.49e+00	0	58	104	998244352	67	18160
2026-01-05 02:52:12.58	252.43	3.54	-52.6	-66.4	3.8	1.49e+00	0	58	104	998244352	67	18122
2026-01-05 02:52:13.57	252.39	3.48	-52.5	-66.4	3.8	1.49e+00	0	58	104	998244352	67	18146
2026-01-05 02:52:14.56	252.35	3.41	-52.6	-66.4	3.8	1.49e+00	0	58	104	998244352	67	18200
2026-01-05 02:52:15.55	252.30	3.35	-52.5	-66.4	3.8	1.49e+00	0	58	104	998244352	67	18175
2026-01-05 02:52:16.55	252.26	3.29	-52.4	-66.4	3.8	1.49e+00	0	58	104	998244352	67	18186
2026-01-05 02:52:17.53	252.21	3.22	-52.5	-66.4	3.8	1.49e+00	0	58	104	998244352	67	18152
2026-01-05 02:52:18.52	252.17	3.16	-52.5	-66.4	3.8	1.49e+00	0	58	104	998244352	67	18157
2026-01-05 02:52:19.51	252.13	3.10	-52.4	-66.4	3.8	1.49e+00	0	58	104	998244352	67	18100
2026-01-05 02:52:20.50	252.09	3.03	-52.5	-66.4	3.8	1.49e+00	0	58	104	998244352	67	18173
2026-01-05 02:52:21.49	252.04	2.97	-52.4	-66.3	3.8	1.49e+00	0	58	104	998244352	67	18076
2026-01-05 02:52:22.48	252.00	2.91	-52.5	-66.4	3.8	1.49e+00	0	58	104	998244352	67	18115

#Closed at: 2026-01-05 02:52:23
#Recorded file [998 MB]: D:/Data/31026_260105_055150.dat