passes_logs/2026/01/05/R3.0SM8_Murmansk_STILSPACE/R3.0SM8_Murmansk_STILSPACE__20260105_133844_FENGYUN_3D_rec.log

#Pass ID: 20260105_133844_FENGYUN 3D
#Satellite: FENGYUN 3D
#Configuration: FENGYUN 3D
#almurnet v.1.7.20240730
#Start time: 2026-01-05 13:38:46

#Version: 2.2.20231116
#Station: R3.0SM8_Murmansk_STILSPACE
#Location: 33.092731 lon 68.902999 lat
#TLE: 1 43010U 17072A   26004.99581904 -.00000126  00000+0 -37613-4 0  9996
#TLE: 2 43010  98.9917 336.6574 0001994 126.4096 233.7264 14.19691690421839

#Time	Az	El	Level	Level2	SNR	BER	BlckErr	Temp	State	Recorded	gain1	gain2
2026-01-05 13:38:46.54	205.46	3.13	-48.5	-59.3	3.8	8.47e-01	0	50	0	0	58	13417
2026-01-05 13:38:47.52	205.53	3.19	-48.5	-59.2	3.8	8.47e-01	0	50	104	0	59	12646
2026-01-05 13:38:48.50	205.59	3.25	-48.5	-59.3	3.8	8.45e-01	0	50	104	0	59	12668
2026-01-05 13:38:49.49	205.66	3.31	-48.5	-59.2	3.8	8.46e-01	0	50	104	0	59	12654
2026-01-05 13:38:50.47	205.73	3.37	-48.5	-59.3	3.8	8.47e-01	0	50	104	0	59	12669
2026-01-05 13:38:51.46	205.79	3.42	-48.5	-59.3	3.8	8.46e-01	0	50	104	0	59	12668
2026-01-05 13:38:52.45	205.86	3.48	-48.5	-59.2	3.8	8.47e-01	0	51	104	0	59	12646
2026-01-05 13:38:53.43	205.93	3.54	-48.5	-59.2	3.8	8.48e-01	0	50	104	0	59	12644
2026-01-05 13:38:54.42	206.00	3.60	-48.5	-59.2	3.8	8.46e-01	0	50	104	0	59	12653
2026-01-05 13:38:55.41	206.07	3.66	-48.5	-59.2	3.8	8.47e-01	0	51	104	0	59	12635
2026-01-05 13:38:56.39	206.14	3.72	-48.5	-59.2	3.8	8.46e-01	0	51	104	0	59	12649
2026-01-05 13:38:57.38	206.21	3.78	-48.5	-59.3	3.8	8.46e-01	0	51	104	0	59	12676
2026-01-05 13:38:58.36	206.27	3.84	-48.5	-59.3	3.8	8.46e-01	0	51	104	0	59	12676
2026-01-05 13:38:59.35	206.34	3.90	-48.5	-59.3	3.8	8.45e-01	0	51	104	0	59	12676
2026-01-05 13:39:00.33	206.41	3.96	-48.5	-59.3	3.8	8.46e-01	0	51	104	0	59	12668
2026-01-05 13:39:01.31	206.48	4.01	-48.5	-59.2	3.8	8.44e-01	0	51	104	0	59	12650
2026-01-05 13:39:02.29	206.55	4.07	-48.5	-59.2	3.8	8.46e-01	0	51	104	0	59	12615
2026-01-05 13:39:03.28	206.62	4.13	-48.5	-59.2	3.8	8.47e-01	0	51	104	0	59	12647
2026-01-05 13:39:04.26	206.70	4.19	-48.5	-59.2	3.8	8.46e-01	0	51	104	0	59	12601
2026-01-05 13:39:05.24	206.77	4.25	-48.5	-59.2	3.8	8.46e-01	0	51	104	0	59	12629
2026-01-05 13:39:06.23	206.84	4.31	-48.5	-59.2	3.8	8.47e-01	0	51	104	0	59	12627
2026-01-05 13:39:07.22	206.91	4.37	-48.5	-59.2	3.8	8.44e-01	0	51	104	0	59	12634
2026-01-05 13:39:08.21	206.98	4.43	-48.5	-59.2	3.8	8.46e-01	0	51	104	0	59	12639
2026-01-05 13:39:09.20	207.06	4.49	-48.5	-59.3	3.8	8.45e-01	0	51	104	0	59	12683
2026-01-05 13:39:10.18	207.13	4.55	-48.5	-59.2	3.8	8.46e-01	0	52	104	0	59	12652
2026-01-05 13:39:11.16	207.20	4.61	-48.5	-59.2	3.8	8.47e-01	0	52	104	0	59	12639
2026-01-05 13:39:12.15	207.27	4.67	-48.5	-59.3	3.8	8.46e-01	0	52	104	0	59	12719
2026-01-05 13:39:13.14	207.35	4.74	-48.5	-59.2	3.8	8.47e-01	0	52	104	0	59	12655
2026-01-05 13:39:14.12	207.42	4.80	-48.5	-59.3	3.8	8.46e-01	0	52	104	0	59	12676
2026-01-05 13:39:15.10	207.49	4.86	-48.5	-59.2	3.8	8.47e-01	0	52	104	0	59	12645
2026-01-05 13:39:16.09	207.57	4.92	-48.5	-59.2	3.8	8.46e-01	0	52	104	0	59	12639
2026-01-05 13:39:17.07	207.64	4.98	-48.5	-59.2	3.8	8.47e-01	0	52	104	0	59	12638
2026-01-05 13:39:18.06	207.72	5.04	-48.5	-59.2	3.8	8.46e-01	0	52	104	0	59	12664
2026-01-05 13:39:19.04	207.79	5.10	-48.5	-59.2	3.8	8.46e-01	0	52	104	0	59	12642
2026-01-05 13:39:20.02	207.87	5.16	-48.5	-59.2	3.8	8.46e-01	0	53	104	0	59	12653
2026-01-05 13:39:21.01	207.94	5.22	-48.5	-59.2	3.8	8.46e-01	0	52	104	0	59	12634
2026-01-05 13:39:21.99	208.02	5.28	-48.5	-59.2	3.8	8.47e-01	0	53	104	0	59	12653
2026-01-05 13:39:22.98	208.10	5.35	-48.5	-59.2	3.8	8.46e-01	0	53	104	0	59	12663
2026-01-05 13:39:23.97	208.17	5.41	-48.5	-59.3	3.8	8.46e-01	0	53	104	0	59	12667
2026-01-05 13:39:24.95	208.25	5.47	-48.5	-59.2	3.8	8.46e-01	0	53	104	0	59	12644
2026-01-05 13:39:25.94	208.33	5.53	-48.5	-59.2	3.8	8.46e-01	0	53	104	0	59	12651
2026-01-05 13:39:26.92	208.41	5.59	-48.5	-59.3	3.8	8.46e-01	0	53	104	0	59	12696
2026-01-05 13:39:27.91	208.48	5.66	-48.5	-59.2	3.8	8.46e-01	0	53	104	0	59	12654
2026-01-05 13:39:28.89	208.56	5.72	-48.5	-59.2	3.8	8.46e-01	0	53	104	0	59	12629
2026-01-05 13:39:29.88	208.64	5.78	-48.5	-59.2	3.8	8.46e-01	0	53	104	0	59	12664
2026-01-05 13:39:30.86	208.72	5.84	-48.5	-59.2	3.8	8.46e-01	0	53	104	0	59	12645
2026-01-05 13:39:31.85	208.80	5.91	-48.5	-59.2	3.8	8.46e-01	0	53	104	0	59	12642
2026-01-05 13:39:32.83	208.88	5.97	-48.5	-59.2	3.8	8.47e-01	0	53	104	0	59	12654
2026-01-05 13:39:33.82	208.96	6.03	-48.5	-59.2	3.8	8.46e-01	0	53	104	0	59	12644
2026-01-05 13:39:34.80	209.04	6.09	-48.5	-59.2	3.8	8.46e-01	0	53	104	0	59	12641
2026-01-05 13:39:35.78	209.12	6.16	-48.5	-59.2	3.8	8.47e-01	0	53	104	0	59	12642
2026-01-05 13:39:36.77	209.20	6.22	-48.5	-59.2	3.8	8.46e-01	0	53	104	0	59	12633
2026-01-05 13:39:37.75	209.28	6.28	-48.5	-59.2	3.8	8.47e-01	0	54	104	0	59	12650
2026-01-05 13:39:38.74	209.36	6.35	-48.5	-59.2	3.8	8.46e-01	0	54	104	0	59	12646
2026-01-05 13:39:39.73	209.45	6.41	-48.5	-59.2	3.8	8.47e-01	0	54	104	0	59	12635
2026-01-05 13:39:40.71	209.53	6.47	-48.5	-59.2	3.8	8.48e-01	0	54	104	0	59	12649
2026-01-05 13:39:41.69	209.61	6.54	-48.5	-59.3	3.8	8.47e-01	0	54	104	0	59	12683
2026-01-05 13:39:42.67	209.69	6.60	-48.5	-59.3	3.8	8.46e-01	0	54	104	0	59	12684
2026-01-05 13:39:43.66	209.78	6.67	-48.5	-59.2	3.8	8.47e-01	0	54	104	0	59	12652
2026-01-05 13:39:44.64	209.86	6.73	-48.5	-59.2	3.8	8.46e-01	0	54	104	0	59	12647
2026-01-05 13:39:45.63	209.94	6.79	-48.5	-59.2	3.8	8.47e-01	0	54	104	0	59	12644
2026-01-05 13:39:46.62	210.03	6.86	-48.5	-59.3	3.8	8.48e-01	0	54	104	0	59	12665
2026-01-05 13:39:47.60	210.11	6.92	-48.5	-59.2	3.8	8.47e-01	0	54	104	0	59	12624
2026-01-05 13:39:48.59	210.20	6.99	-48.5	-59.2	3.8	8.45e-01	0	54	104	0	59	12636
2026-01-05 13:39:49.58	210.28	7.05	-48.5	-59.2	3.8	8.47e-01	0	54	104	0	59	12633
2026-01-05 13:39:50.58	210.37	7.12	-48.5	-59.2	3.8	8.47e-01	0	54	104	0	59	12658
2026-01-05 13:39:51.58	210.46	7.18	-48.5	-59.3	3.8	8.46e-01	0	54	104	0	59	12675
2026-01-05 13:39:52.57	210.54	7.25	-48.5	-59.2	3.8	8.47e-01	0	54	104	0	59	12664
2026-01-05 13:39:53.56	210.63	7.31	-48.5	-59.3	3.8	8.46e-01	0	54	104	0	59	12696
2026-01-05 13:39:54.54	210.72	7.38	-48.5	-59.3	3.8	8.46e-01	0	54	104	0	59	12669
2026-01-05 13:39:55.52	210.81	7.44	-48.5	-59.2	3.8	8.45e-01	0	55	104	0	59	12650
2026-01-05 13:39:56.51	210.89	7.51	-48.5	-59.3	3.8	8.45e-01	0	54	104	0	59	12680
2026-01-05 13:39:57.49	210.98	7.57	-48.5	-59.2	3.8	8.47e-01	0	55	104	0	59	12664
2026-01-05 13:39:58.48	211.07	7.64	-48.5	-59.2	3.8	8.47e-01	0	54	104	0	59	12652
2026-01-05 13:39:59.47	211.16	7.71	-48.5	-59.3	3.8	8.47e-01	0	55	104	0	59	12690
2026-01-05 13:40:00.45	211.25	7.77	-48.6	-59.2	3.8	8.46e-01	0	55	104	0	59	12653
2026-01-05 13:40:01.44	211.34	7.84	-48.5	-59.2	3.8	8.45e-01	0	55	104	0	59	12622
2026-01-05 13:40:02.43	211.43	7.90	-48.5	-59.3	3.8	8.46e-01	0	55	104	0	59	12691
2026-01-05 13:40:03.42	211.52	7.97	-48.5	-59.2	3.8	8.45e-01	0	55	104	0	59	12656
2026-01-05 13:40:04.41	211.61	8.04	-48.5	-59.3	3.8	8.46e-01	0	55	104	0	59	12668
2026-01-05 13:40:05.39	211.70	8.10	-48.5	-59.2	3.8	8.46e-01	0	55	104	0	59	12643
2026-01-05 13:40:06.38	211.80	8.17	-48.5	-59.3	3.8	8.47e-01	0	55	104	0	59	12673
2026-01-05 13:40:07.36	211.89	8.24	-48.5	-59.2	3.8	8.45e-01	0	55	104	0	59	12626
2026-01-05 13:40:08.34	211.98	8.30	-48.6	-59.2	3.8	8.47e-01	0	55	104	0	59	12654
2026-01-05 13:40:09.33	212.07	8.37	-48.5	-59.2	3.8	8.45e-01	0	55	104	0	59	12649
2026-01-05 13:40:10.31	212.17	8.44	-48.5	-59.2	3.8	8.47e-01	0	55	104	0	59	12628
2026-01-05 13:40:11.30	212.26	8.50	-48.5	-59.3	3.8	8.48e-01	0	55	104	0	59	12688
2026-01-05 13:40:12.29	212.36	8.57	-48.5	-59.3	3.8	8.45e-01	0	55	104	0	59	12683
2026-01-05 13:40:13.27	212.45	8.64	-48.5	-59.2	3.8	8.46e-01	0	55	104	0	59	12648
2026-01-05 13:40:14.26	212.55	8.71	-48.5	-59.2	3.8	8.46e-01	0	55	104	0	59	12657
2026-01-05 13:40:15.24	212.64	8.77	-48.5	-59.3	3.8	8.46e-01	0	55	104	0	59	12687
2026-01-05 13:40:16.23	212.74	8.84	-48.5	-59.2	3.8	8.45e-01	0	55	104	0	59	12662
2026-01-05 13:40:17.21	212.83	8.91	-48.5	-59.2	3.8	8.46e-01	0	55	104	0	59	12638
2026-01-05 13:40:18.20	212.93	8.98	-48.5	-59.3	3.8	8.47e-01	0	55	104	0	59	12679
2026-01-05 13:40:19.19	213.03	9.04	-48.5	-59.2	3.8	8.45e-01	0	55	104	0	59	12660
2026-01-05 13:40:20.17	213.13	9.11	-48.5	-59.3	3.8	8.47e-01	0	56	104	0	59	12680
2026-01-05 13:40:21.16	213.22	9.18	-48.5	-59.2	3.8	8.46e-01	0	56	104	0	59	12653
2026-01-05 13:40:22.15	213.32	9.25	-48.5	-59.3	3.8	8.47e-01	0	56	104	0	59	12703
2026-01-05 13:40:23.14	213.42	9.32	-48.5	-59.2	3.8	8.45e-01	0	56	104	0	59	12629
2026-01-05 13:40:24.13	213.52	9.39	-48.5	-59.3	3.8	8.45e-01	0	56	104	0	59	12672
2026-01-05 13:40:25.11	213.62	9.46	-48.5	-59.3	3.8	8.47e-01	0	55	104	0	59	12676
2026-01-05 13:40:26.10	213.72	9.52	-48.5	-59.2	3.8	8.47e-01	0	56	104	0	59	12634
2026-01-05 13:40:27.09	213.83	9.59	-48.5	-59.3	3.8	8.47e-01	0	56	104	0	59	12666
2026-01-05 13:40:28.07	213.93	9.66	-48.6	-59.3	3.8	8.46e-01	0	56	104	0	59	12709
2026-01-05 13:40:29.05	214.03	9.73	-48.5	-59.3	3.8	8.47e-01	0	56	104	0	59	12714
2026-01-05 13:40:30.04	214.13	9.80	-48.5	-59.3	3.8	8.45e-01	0	56	104	0	59	12679
2026-01-05 13:40:31.02	214.23	9.87	-48.6	-59.3	3.8	8.46e-01	0	56	104	0	59	12671
2026-01-05 13:40:32.01	214.34	9.94	-48.6	-59.3	3.8	8.47e-01	0	56	104	0	59	12718
2026-01-05 13:40:33.00	214.44	10.01	-48.6	-59.2	3.8	8.45e-01	0	56	104	0	59	12645
2026-01-05 13:40:33.98	214.54	10.08	-48.5	-59.3	3.8	8.46e-01	0	56	104	0	59	12683
2026-01-05 13:40:34.96	214.65	10.15	-48.6	-59.3	3.8	8.46e-01	0	56	104	0	59	12687
2026-01-05 13:40:35.95	214.75	10.22	-48.5	-59.3	3.8	8.46e-01	0	56	104	0	59	12672
2026-01-05 13:40:36.94	214.86	10.29	-48.5	-59.3	3.8	8.46e-01	0	56	104	0	59	12683
2026-01-05 13:40:37.93	214.97	10.36	-48.5	-59.3	3.8	8.46e-01	0	56	104	0	59	12667
2026-01-05 13:40:38.91	215.07	10.43	-48.5	-59.3	3.8	8.47e-01	0	56	104	0	59	12693
2026-01-05 13:40:39.90	215.18	10.50	-48.5	-59.2	3.8	8.46e-01	0	56	104	0	59	12638
2026-01-05 13:40:40.88	215.29	10.57	-48.5	-59.2	3.8	8.46e-01	0	56	104	0	59	12662
2026-01-05 13:40:41.86	215.39	10.64	-48.5	-59.2	3.8	8.46e-01	0	56	104	0	59	12650
2026-01-05 13:40:42.85	215.50	10.71	-48.5	-59.2	3.8	8.47e-01	0	56	104	0	59	12636
2026-01-05 13:40:43.83	215.61	10.78	-48.5	-59.2	3.8	8.46e-01	0	57	104	0	59	12661
2026-01-05 13:40:44.82	215.72	10.85	-48.5	-59.3	3.8	8.46e-01	0	56	104	0	59	12672
2026-01-05 13:40:45.81	215.83	10.92	-48.6	-59.3	3.8	8.47e-01	0	57	104	0	59	12699
2026-01-05 13:40:46.79	215.94	11.00	-48.5	-59.3	3.8	8.46e-01	0	57	104	0	59	12689
2026-01-05 13:40:47.78	216.05	11.07	-48.5	-59.3	3.8	8.46e-01	0	57	104	0	59	12692
2026-01-05 13:40:48.76	216.16	11.14	-48.5	-59.2	3.8	8.46e-01	0	57	104	0	59	12654
2026-01-05 13:40:49.74	216.28	11.21	-48.5	-59.3	3.8	8.46e-01	0	57	104	0	59	12686
2026-01-05 13:40:50.73	216.39	11.28	-48.5	-59.3	3.8	8.47e-01	0	57	104	0	59	12710
2026-01-05 13:40:51.72	216.50	11.35	-48.5	-59.3	3.8	8.47e-01	0	57	104	0	59	12693
2026-01-05 13:40:52.70	216.62	11.43	-48.5	-59.3	3.8	8.46e-01	0	57	104	0	59	12684
2026-01-05 13:40:53.69	216.73	11.50	-48.5	-59.2	3.8	8.47e-01	0	57	104	0	59	12662
2026-01-05 13:40:54.67	216.84	11.57	-48.6	-59.3	3.8	8.47e-01	0	57	104	0	59	12686
2026-01-05 13:40:55.66	216.96	11.64	-48.5	-59.3	3.8	8.46e-01	0	57	104	0	59	12687
2026-01-05 13:40:56.65	217.08	11.71	-48.5	-59.3	3.8	8.47e-01	0	57	104	0	59	12668
2026-01-05 13:40:57.63	217.19	11.79	-48.6	-59.3	3.8	8.47e-01	0	57	104	0	59	12717
2026-01-05 13:40:58.62	217.31	11.86	-48.5	-59.3	3.8	8.46e-01	0	57	104	0	59	12689
2026-01-05 13:40:59.60	217.43	11.93	-48.6	-59.3	3.8	8.45e-01	0	57	104	0	59	12695
2026-01-05 13:41:00.58	217.54	12.00	-48.5	-59.3	3.8	8.46e-01	0	57	104	0	59	12686
2026-01-05 13:41:01.57	217.66	12.08	-48.5	-59.3	3.8	8.46e-01	0	57	104	0	59	12699
2026-01-05 13:41:02.56	217.78	12.15	-48.5	-59.2	3.8	8.46e-01	0	57	104	0	59	12663
2026-01-05 13:41:03.54	217.90	12.22	-48.5	-59.3	3.8	8.46e-01	0	57	104	0	59	12696
2026-01-05 13:41:04.53	218.02	12.30	-48.5	-59.3	3.8	8.46e-01	0	57	104	0	59	12692
2026-01-05 13:41:05.51	218.14	12.37	-48.6	-59.3	3.8	8.46e-01	0	57	104	0	59	12702
2026-01-05 13:41:06.50	218.27	12.44	-48.6	-59.3	3.8	8.44e-01	0	57	104	0	59	12667
2026-01-05 13:41:07.49	218.39	12.52	-48.6	-59.3	3.8	8.47e-01	0	57	104	0	59	12689
2026-01-05 13:41:08.47	218.51	12.59	-48.6	-59.3	3.8	8.47e-01	0	57	104	0	59	12666
2026-01-05 13:41:09.45	218.63	12.66	-48.5	-59.3	3.8	8.46e-01	0	57	104	0	59	12672
2026-01-05 13:41:10.44	218.76	12.74	-48.6	-59.3	3.8	8.46e-01	0	57	104	0	59	12709
2026-01-05 13:41:11.42	218.88	12.81	-48.6	-59.3	3.8	8.45e-01	0	57	104	0	59	12668
2026-01-05 13:41:12.41	219.01	12.89	-48.5	-59.3	3.8	8.46e-01	0	57	104	0	59	12681
2026-01-05 13:41:13.39	219.13	12.96	-48.5	-59.3	3.8	8.46e-01	0	57	104	0	59	12697
2026-01-05 13:41:14.38	219.26	13.03	-48.5	-59.3	3.8	8.45e-01	0	57	104	0	59	12675
2026-01-05 13:41:15.37	219.39	13.11	-48.5	-59.3	3.8	8.46e-01	0	57	104	0	59	12686
2026-01-05 13:41:16.35	219.51	13.18	-48.5	-59.3	3.8	8.47e-01	0	57	104	0	59	12691
2026-01-05 13:41:17.34	219.64	13.26	-48.5	-59.3	3.8	8.46e-01	0	58	104	0	59	12673
2026-01-05 13:41:18.33	219.77	13.33	-48.5	-59.3	3.8	8.45e-01	0	57	104	0	59	12703
2026-01-05 13:41:19.32	219.90	13.41	-48.5	-59.3	3.8	8.47e-01	0	58	104	0	59	12681
2026-01-05 13:41:20.31	220.03	13.48	-48.6	-59.2	3.8	8.45e-01	0	58	104	0	59	12640
2026-01-05 13:41:21.30	220.16	13.56	-48.5	-59.3	3.8	8.45e-01	0	58	104	0	59	12673
2026-01-05 13:41:22.28	220.29	13.63	-48.5	-59.3	3.8	8.46e-01	0	57	104	0	59	12680
2026-01-05 13:41:23.27	220.43	13.71	-48.5	-59.2	3.8	8.46e-01	0	58	104	0	59	12658
2026-01-05 13:41:24.26	220.56	13.78	-48.5	-59.2	3.8	8.46e-01	0	58	104	0	59	12663
2026-01-05 13:41:25.25	220.69	13.86	-48.5	-59.2	3.8	8.48e-01	0	58	104	0	59	12664
2026-01-05 13:41:26.23	220.83	13.94	-48.5	-59.2	3.8	8.44e-01	0	58	104	0	59	12662
2026-01-05 13:41:27.22	220.96	14.01	-48.5	-59.3	3.8	8.47e-01	0	58	104	0	59	12696
2026-01-05 13:41:28.21	221.10	14.09	-48.5	-59.2	3.8	8.45e-01	0	58	104	0	59	12651
2026-01-05 13:41:29.19	221.23	14.16	-48.5	-59.3	3.8	8.48e-01	0	58	104	0	59	12722
2026-01-05 13:41:30.18	221.37	14.24	-48.5	-59.2	3.8	8.47e-01	0	58	104	0	59	12659
2026-01-05 13:41:31.16	221.51	14.31	-48.5	-59.3	3.8	8.47e-01	0	58	104	0	59	12666
2026-01-05 13:41:32.15	221.65	14.39	-48.5	-59.3	3.8	8.46e-01	0	58	104	0	59	12672
2026-01-05 13:41:33.14	221.78	14.47	-48.5	-59.3	3.8	8.46e-01	0	58	104	0	59	12705
2026-01-05 13:41:34.12	221.92	14.54	-48.5	-59.2	3.8	8.45e-01	0	58	104	0	59	12651
2026-01-05 13:41:35.11	222.06	14.62	-48.5	-59.2	3.8	8.47e-01	0	58	104	0	59	12645
2026-01-05 13:41:36.09	222.20	14.70	-48.5	-59.2	3.8	8.46e-01	0	58	104	0	59	12662
2026-01-05 13:41:37.08	222.35	14.77	-48.5	-59.3	3.8	8.46e-01	0	58	104	0	59	12689
2026-01-05 13:41:38.07	222.49	14.85	-48.5	-59.3	3.8	8.47e-01	0	58	104	0	59	12703
2026-01-05 13:41:39.05	222.63	14.93	-48.5	-59.3	3.8	8.46e-01	0	58	104	0	59	12690
2026-01-05 13:41:40.04	222.78	15.00	-48.6	-59.3	3.8	8.45e-01	0	58	104	0	59	12690
2026-01-05 13:41:41.02	222.92	15.08	-48.5	-59.3	3.8	8.46e-01	0	58	104	0	59	12700
2026-01-05 13:41:42.01	223.06	15.16	-48.5	-59.3	3.8	8.45e-01	0	58	104	0	59	12716
2026-01-05 13:41:42.99	223.21	15.23	-48.5	-59.3	3.8	8.46e-01	0	58	104	0	59	12679
2026-01-05 13:41:43.97	223.35	15.31	-48.6	-59.3	3.8	8.45e-01	0	58	104	0	59	12711
2026-01-05 13:41:44.96	223.50	15.39	-48.5	-59.3	3.8	8.46e-01	0	58	104	0	59	12687
2026-01-05 13:41:45.95	223.65	15.46	-48.5	-59.3	3.8	8.46e-01	0	58	104	0	59	12707
2026-01-05 13:41:46.93	223.80	15.54	-48.5	-59.3	3.8	8.46e-01	0	58	104	0	59	12677
2026-01-05 13:41:47.91	223.95	15.62	-48.5	-59.3	3.8	8.46e-01	0	58	104	0	59	12678
2026-01-05 13:41:48.90	224.10	15.69	-48.5	-59.3	3.8	8.46e-01	0	58	104	0	59	12700
2026-01-05 13:41:49.88	224.25	15.77	-48.5	-59.3	3.8	8.46e-01	0	58	104	0	59	12689
2026-01-05 13:41:50.87	224.40	15.85	-48.5	-59.3	3.8	8.46e-01	0	58	104	0	59	12698
2026-01-05 13:41:51.86	224.55	15.93	-48.5	-59.3	3.8	8.46e-01	0	58	104	0	59	12693
2026-01-05 13:41:52.84	224.71	16.00	-48.5	-59.3	3.8	8.47e-01	0	58	104	0	59	12709
2026-01-05 13:41:53.83	224.86	16.08	-48.5	-59.3	3.8	8.46e-01	0	58	104	0	59	12684
2026-01-05 13:41:54.81	225.01	16.16	-48.6	-59.3	3.8	8.45e-01	0	58	104	0	59	12695
2026-01-05 13:41:55.79	225.17	16.24	-48.5	-59.2	3.8	8.46e-01	0	58	104	0	59	12656
2026-01-05 13:41:56.77	225.32	16.31	-48.6	-59.3	3.8	8.46e-01	0	58	104	0	59	12682
2026-01-05 13:41:57.75	225.48	16.39	-48.6	-59.3	3.8	8.46e-01	0	58	104	0	59	12713
2026-01-05 13:41:58.74	225.64	16.47	-48.6	-59.3	3.8	8.46e-01	0	58	104	0	59	12692
2026-01-05 13:41:59.73	225.80	16.55	-48.6	-59.3	3.8	8.46e-01	0	59	104	0	59	12715
2026-01-05 13:42:00.71	225.96	16.62	-48.6	-59.3	3.8	8.45e-01	0	59	104	0	59	12672
2026-01-05 13:42:01.69	226.12	16.70	-48.6	-59.3	3.8	8.47e-01	0	59	104	0	59	12734
2026-01-05 13:42:02.68	226.28	16.78	-48.6	-59.3	3.8	8.46e-01	0	59	104	0	59	12680
2026-01-05 13:42:03.66	226.44	16.86	-48.6	-59.3	3.8	8.46e-01	0	59	104	0	59	12704
2026-01-05 13:42:04.64	226.60	16.94	-48.5	-59.3	3.8	8.45e-01	0	59	104	0	59	12685
2026-01-05 13:42:05.63	226.76	17.01	-48.5	-59.3	3.8	8.46e-01	0	59	104	0	59	12698
2026-01-05 13:42:06.61	226.93	17.09	-48.5	-59.3	3.8	8.47e-01	0	59	104	0	59	12731
2026-01-05 13:42:07.59	227.09	17.17	-48.5	-59.3	3.8	8.47e-01	0	59	104	0	59	12677
2026-01-05 13:42:08.58	227.26	17.25	-48.5	-59.3	3.8	8.46e-01	0	59	104	0	59	12705
2026-01-05 13:42:09.57	227.43	17.33	-48.5	-59.3	3.8	8.46e-01	0	59	104	0	59	12753
2026-01-05 13:42:10.55	227.59	17.40	-48.5	-59.3	3.8	8.47e-01	0	59	104	0	59	12703
2026-01-05 13:42:11.54	227.76	17.48	-48.5	-59.3	3.8	8.46e-01	0	59	104	0	59	12690
2026-01-05 13:42:12.52	227.93	17.56	-48.5	-59.3	3.8	8.48e-01	0	59	104	0	59	12701
2026-01-05 13:42:13.51	228.10	17.64	-48.5	-59.3	3.8	8.45e-01	0	59	104	0	59	12718
2026-01-05 13:42:14.49	228.27	17.72	-48.6	-59.3	3.8	8.46e-01	0	59	104	0	59	12730
2026-01-05 13:42:15.48	228.44	17.80	-48.6	-59.3	3.8	8.46e-01	0	59	104	0	59	12701
2026-01-05 13:42:16.47	228.62	17.87	-48.6	-59.3	3.8	8.47e-01	0	59	104	0	59	12725
2026-01-05 13:42:17.45	228.79	17.95	-48.5	-59.3	3.8	8.47e-01	0	59	104	0	59	12707
2026-01-05 13:42:18.43	228.96	18.03	-48.5	-59.3	3.8	8.45e-01	0	59	104	0	59	12697
2026-01-05 13:42:19.42	229.14	18.11	-48.6	-59.3	3.8	8.45e-01	0	59	104	0	59	12697
2026-01-05 13:42:20.40	229.32	18.19	-48.6	-59.3	3.8	8.47e-01	0	59	104	0	59	12706
2026-01-05 13:42:21.39	229.49	18.26	-48.6	-59.3	3.8	8.47e-01	0	59	104	0	59	12694
2026-01-05 13:42:22.37	229.67	18.34	-48.6	-59.3	3.8	8.46e-01	0	59	104	0	59	12676
2026-01-05 13:42:23.35	229.85	18.42	-48.6	-59.3	3.8	8.46e-01	0	59	104	0	59	12693
2026-01-05 13:42:24.34	230.03	18.50	-48.5	-59.3	3.8	8.46e-01	0	59	104	0	59	12711
2026-01-05 13:42:25.32	230.21	18.58	-48.6	-59.3	3.8	8.47e-01	0	59	104	0	59	12699
2026-01-05 13:42:26.30	230.39	18.65	-48.5	-59.3	3.8	8.47e-01	0	59	104	0	59	12669
2026-01-05 13:42:27.29	230.57	18.73	-48.5	-59.3	3.8	8.47e-01	0	59	104	0	59	12694
2026-01-05 13:42:28.28	230.76	18.81	-48.6	-59.3	3.8	8.46e-01	0	59	104	0	59	12759
2026-01-05 13:42:29.26	230.94	18.89	-48.6	-59.3	3.8	8.46e-01	0	59	104	0	59	12701
2026-01-05 13:42:30.25	231.13	18.97	-48.5	-59.3	3.8	8.46e-01	0	59	104	0	59	12708
2026-01-05 13:42:31.24	231.31	19.05	-48.6	-59.3	3.8	8.46e-01	0	59	104	0	59	12741
2026-01-05 13:42:32.22	231.50	19.12	-48.6	-59.3	3.8	8.46e-01	0	59	104	0	59	12727
2026-01-05 13:42:33.21	231.69	19.20	-48.6	-59.3	3.8	8.47e-01	0	59	104	0	59	12711
2026-01-05 13:42:34.19	231.88	19.28	-48.6	-59.3	3.8	8.47e-01	0	59	104	0	59	12691
2026-01-05 13:42:35.18	232.07	19.36	-48.6	-59.3	3.8	8.46e-01	0	59	104	0	59	12678
2026-01-05 13:42:36.16	232.26	19.43	-48.5	-59.3	3.8	8.46e-01	0	59	104	0	59	12732
2026-01-05 13:42:37.14	232.45	19.51	-48.6	-59.3	3.8	8.46e-01	0	59	104	0	59	12727
2026-01-05 13:42:38.13	232.64	19.59	-48.6	-59.3	3.8	8.46e-01	0	59	104	0	59	12732
2026-01-05 13:42:39.11	232.83	19.67	-48.6	-59.3	3.8	8.45e-01	0	59	104	0	59	12717
2026-01-05 13:42:40.10	233.03	19.74	-48.6	-59.3	3.8	8.46e-01	0	60	104	0	59	12701
2026-01-05 13:42:41.09	233.22	19.82	-48.6	-59.3	3.8	8.46e-01	0	60	104	0	59	12745
2026-01-05 13:42:42.07	233.42	19.90	-48.5	-59.3	3.8	8.47e-01	0	60	104	0	59	12688
2026-01-05 13:42:43.06	233.62	19.97	-48.5	-59.3	3.8	8.48e-01	0	59	104	0	59	12711
2026-01-05 13:42:44.04	233.82	20.05	-48.6	-59.3	3.8	8.47e-01	0	60	104	0	59	12716
2026-01-05 13:42:45.02	234.01	20.13	-48.6	-59.3	3.8	8.46e-01	0	60	104	0	59	12690
2026-01-05 13:42:46.01	234.22	20.20	-48.5	-59.3	3.8	8.47e-01	0	60	104	0	59	12733
2026-01-05 13:42:47.00	234.42	20.28	-48.6	-59.3	3.8	8.46e-01	0	60	104	0	59	12706
2026-01-05 13:42:47.99	234.62	20.36	-48.5	-59.3	3.8	8.46e-01	0	60	104	0	59	12710
2026-01-05 13:42:48.98	234.82	20.44	-48.5	-59.3	3.8	8.45e-01	0	60	104	0	59	12711
2026-01-05 13:42:49.96	235.03	20.51	-48.6	-59.3	3.8	8.48e-01	0	60	104	0	59	12731
2026-01-05 13:42:50.95	235.23	20.59	-48.6	-59.3	3.8	8.47e-01	0	60	104	0	59	12702
2026-01-05 13:42:51.94	235.44	20.66	-48.5	-59.3	3.8	8.47e-01	0	60	104	0	59	12680
2026-01-05 13:42:52.92	235.65	20.74	-48.6	-59.3	3.8	8.46e-01	0	60	104	0	59	12672
2026-01-05 13:42:53.91	235.86	20.82	-48.5	-59.3	3.8	8.46e-01	0	60	104	0	59	12715
2026-01-05 13:42:54.89	236.06	20.89	-48.6	-59.3	3.8	8.46e-01	0	60	104	0	59	12724
2026-01-05 13:42:55.87	236.27	20.97	-48.5	-59.3	3.8	8.47e-01	0	60	104	0	59	12733
2026-01-05 13:42:56.86	236.49	21.04	-48.5	-59.3	3.8	8.47e-01	0	60	104	0	59	12686
2026-01-05 13:42:57.84	236.70	21.12	-48.5	-59.3	3.8	8.45e-01	0	60	104	0	59	12685
2026-01-05 13:42:58.83	236.91	21.19	-48.6	-59.3	3.8	8.46e-01	0	60	104	0	59	12713
2026-01-05 13:42:59.82	237.13	21.27	-48.6	-59.3	3.8	8.46e-01	0	60	104	0	59	12713
2026-01-05 13:43:00.80	237.34	21.34	-48.6	-59.3	3.8	8.46e-01	0	60	104	0	59	12696
2026-01-05 13:43:01.78	237.56	21.41	-48.5	-59.3	3.8	8.47e-01	0	60	104	0	59	12702
2026-01-05 13:43:02.77	237.77	21.49	-48.6	-59.3	3.8	8.47e-01	0	60	104	0	59	12715
2026-01-05 13:43:03.75	237.99	21.56	-48.6	-59.3	3.8	8.46e-01	0	60	104	0	59	12720
2026-01-05 13:43:04.73	238.21	21.64	-48.6	-59.3	3.8	8.45e-01	0	60	104	0	59	12710
2026-01-05 13:43:05.72	238.43	21.71	-48.5	-59.2	3.8	8.46e-01	0	60	104	0	59	12657
2026-01-05 13:43:06.70	238.65	21.78	-48.5	-59.3	3.8	8.46e-01	0	60	104	0	59	12746
2026-01-05 13:43:07.69	238.87	21.86	-48.6	-59.2	3.8	8.46e-01	0	60	104	0	59	12664
2026-01-05 13:43:08.67	239.10	21.93	-48.6	-59.3	3.8	8.47e-01	0	60	104	0	59	12719
2026-01-05 13:43:09.66	239.32	22.00	-48.5	-59.3	3.8	8.46e-01	0	60	104	0	59	12699
2026-01-05 13:43:10.64	239.55	22.07	-48.5	-59.3	3.8	8.46e-01	0	60	104	0	59	12729
2026-01-05 13:43:11.63	239.77	22.15	-48.6	-59.3	3.8	8.47e-01	0	60	104	0	59	12733
2026-01-05 13:43:12.61	240.00	22.22	-48.6	-59.3	3.8	8.46e-01	0	60	104	0	59	12727
2026-01-05 13:43:13.86	240.29	22.31	-48.6	-59.3	3.8	8.47e-01	0	60	104	0	59	12709
2026-01-05 13:43:14.69	240.48	22.37	-48.5	-59.3	3.8	8.46e-01	0	60	104	0	59	12707
2026-01-05 13:43:15.82	240.75	22.45	-48.6	-59.3	3.8	8.46e-01	0	60	104	0	59	12709
2026-01-05 13:43:16.67	240.95	22.51	-48.6	-59.3	3.8	8.47e-01	0	60	104	0	59	12720
2026-01-05 13:43:17.80	241.22	22.59	-48.6	-59.3	3.8	8.46e-01	0	60	104	0	59	12734
2026-01-05 13:43:18.64	241.41	22.65	-48.6	-59.3	3.8	8.46e-01	0	60	104	0	59	12693
2026-01-05 13:43:19.77	241.68	22.73	-48.6	-59.3	3.8	8.46e-01	0	60	104	0	59	12687
2026-01-05 13:43:20.62	241.89	22.79	-48.6	-59.3	3.8	8.46e-01	0	60	104	0	59	12749
2026-01-05 13:43:21.75	242.16	22.87	-48.6	-59.3	3.8	8.47e-01	0	60	104	0	59	12728
2026-01-05 13:43:22.59	242.36	22.93	-48.6	-59.3	3.8	8.46e-01	0	60	104	0	59	12734
2026-01-05 13:43:23.71	242.63	23.01	-48.6	-59.3	3.8	8.47e-01	0	60	104	0	59	12708
2026-01-05 13:43:24.56	242.84	23.07	-48.6	-59.3	3.8	8.46e-01	0	60	104	0	59	12707
2026-01-05 13:43:25.69	243.12	23.15	-48.6	-59.3	3.8	8.46e-01	0	60	104	0	59	12710
2026-01-05 13:43:26.53	243.32	23.21	-48.6	-59.3	3.8	8.45e-01	0	60	104	0	59	12751
2026-01-05 13:43:27.66	243.60	23.28	-48.6	-59.3	3.8	8.46e-01	0	60	104	0	59	12738
2026-01-05 13:43:28.51	243.81	23.34	-48.5	-59.3	3.8	8.46e-01	0	60	104	0	59	12695
2026-01-05 13:43:29.64	244.09	23.42	-48.6	-59.3	3.8	8.48e-01	0	60	104	0	59	12699
2026-01-05 13:43:30.48	244.30	23.47	-48.6	-59.3	3.8	8.47e-01	0	60	104	0	59	12736
2026-01-05 13:43:31.61	244.59	23.55	-48.6	-59.3	3.8	8.46e-01	0	60	104	0	59	12717
2026-01-05 13:43:32.46	244.80	23.61	-48.6	-59.3	3.8	8.45e-01	0	60	104	0	59	12690
2026-01-05 13:43:33.59	245.09	23.68	-48.6	-59.3	3.8	8.45e-01	0	60	104	0	59	12732
2026-01-05 13:43:34.43	245.30	23.74	-48.6	-59.3	3.8	8.46e-01	0	60	104	0	59	12729
2026-01-05 13:43:35.56	245.59	23.81	-48.5	-59.3	3.8	8.46e-01	0	60	104	0	59	12683
2026-01-05 13:43:36.41	245.81	23.87	-48.6	-59.3	3.8	8.47e-01	0	60	104	0	59	12783
2026-01-05 13:43:37.53	246.09	23.94	-48.6	-59.3	3.8	8.46e-01	0	60	104	0	59	12743
2026-01-05 13:43:38.38	246.31	23.99	-48.5	-59.3	3.8	8.47e-01	0	60	104	0	59	12729
2026-01-05 13:43:39.51	246.61	24.06	-48.6	-59.3	3.8	8.46e-01	0	60	104	0	59	12702
2026-01-05 13:43:40.36	246.83	24.12	-48.6	-59.3	3.8	8.46e-01	0	60	104	0	59	12720
2026-01-05 13:43:41.49	247.12	24.19	-48.5	-59.3	3.8	8.46e-01	0	60	104	0	59	12738
2026-01-05 13:43:42.33	247.34	24.24	-48.6	-59.3	3.8	8.47e-01	0	60	104	0	59	12719
2026-01-05 13:43:43.46	247.64	24.31	-48.6	-59.3	3.8	8.46e-01	0	60	104	0	59	12699
2026-01-05 13:43:44.31	247.86	24.36	-48.6	-59.3	3.8	8.47e-01	0	60	104	0	59	12740
2026-01-05 13:43:45.44	248.16	24.43	-48.6	-59.3	3.8	8.46e-01	0	61	104	0	59	12707
2026-01-05 13:43:46.28	248.39	24.48	-48.6	-59.3	3.8	8.46e-01	0	60	104	0	59	12687
2026-01-05 13:43:47.41	248.69	24.55	-48.6	-59.3	3.8	8.45e-01	0	60	104	0	59	12719
2026-01-05 13:43:48.26	248.92	24.60	-48.6	-59.3	3.8	8.46e-01	0	60	104	0	59	12726
2026-01-05 13:43:49.39	249.22	24.67	-48.6	-59.3	3.8	8.47e-01	0	60	104	0	59	12775
2026-01-05 13:43:50.24	249.45	24.72	-48.6	-59.3	3.8	8.45e-01	0	60	104	0	59	12690
2026-01-05 13:43:51.36	249.75	24.78	-48.6	-59.3	3.8	8.47e-01	0	61	104	0	59	12746
2026-01-05 13:43:52.21	249.98	24.83	-48.6	-59.3	3.8	8.46e-01	0	61	104	0	59	12721
2026-01-05 13:43:53.33	250.29	24.90	-48.6	-59.3	3.8	8.46e-01	0	60	104	0	59	12744
2026-01-05 13:43:54.18	250.52	24.94	-48.6	-59.3	3.8	8.47e-01	0	60	104	0	59	12748
2026-01-05 13:43:55.30	250.83	25.01	-48.5	-59.3	3.8	8.47e-01	0	60	104	0	59	12752
2026-01-05 13:43:56.15	251.06	25.05	-48.6	-59.3	3.8	8.46e-01	0	61	104	0	59	12740
2026-01-05 13:43:57.27	251.37	25.11	-48.6	-59.3	3.8	8.47e-01	0	61	104	0	59	12700
2026-01-05 13:43:58.12	251.61	25.16	-48.6	-59.3	3.8	8.46e-01	0	60	104	0	59	12707
2026-01-05 13:43:59.24	251.92	25.22	-48.6	-59.3	3.8	8.46e-01	0	61	104	0	59	12723
2026-01-05 13:44:00.09	252.16	25.26	-48.5	-59.3	3.8	8.45e-01	0	61	104	0	59	12703
2026-01-05 13:44:01.22	252.48	25.32	-48.6	-59.3	3.8	8.46e-01	0	61	104	0	59	12710
2026-01-05 13:44:02.07	252.71	25.37	-48.5	-59.3	3.8	8.47e-01	0	61	104	0	59	12721
2026-01-05 13:44:03.20	253.03	25.43	-48.5	-59.3	3.8	8.45e-01	0	61	104	0	59	12733
2026-01-05 13:44:04.04	253.27	25.47	-48.5	-59.3	3.8	8.46e-01	0	61	104	0	59	12723
2026-01-05 13:44:05.17	253.59	25.52	-48.6	-59.3	3.8	8.46e-01	0	61	104	0	59	12713
2026-01-05 13:44:06.02	253.83	25.57	-48.6	-59.3	3.8	8.46e-01	0	61	104	0	59	12732
2026-01-05 13:44:07.16	254.16	25.62	-48.6	-59.3	3.8	8.46e-01	0	60	104	0	59	12736
2026-01-05 13:44:08.00	254.40	25.66	-48.5	-59.3	3.8	8.46e-01	0	61	104	0	59	12722
2026-01-05 13:44:09.13	254.72	25.72	-48.6	-59.3	3.8	8.46e-01	0	61	104	0	59	12727
2026-01-05 13:44:09.98	254.97	25.75	-48.6	-59.3	3.8	8.46e-01	0	61	104	0	59	12772
2026-01-05 13:44:11.10	255.29	25.81	-48.6	-59.3	3.8	8.45e-01	0	61	104	0	59	12738
2026-01-05 13:44:11.95	255.54	25.84	-48.5	-59.3	3.8	8.46e-01	0	61	104	0	59	12725
2026-01-05 13:44:13.08	255.87	25.90	-48.6	-59.3	3.8	8.48e-01	0	61	104	0	59	12708
2026-01-05 13:44:13.92	256.11	25.93	-48.6	-59.3	3.8	8.45e-01	0	61	104	0	59	12698
2026-01-05 13:44:15.05	256.44	25.98	-48.5	-59.3	3.8	8.45e-01	0	61	104	0	59	12695
2026-01-05 13:44:15.90	256.69	26.02	-48.6	-59.3	3.8	8.47e-01	0	61	104	0	59	12720
2026-01-05 13:44:17.03	257.02	26.06	-48.6	-59.3	3.8	8.47e-01	0	61	104	0	59	12700
2026-01-05 13:44:17.88	257.27	26.10	-48.5	-59.3	3.8	8.47e-01	0	61	104	0	59	12749
2026-01-05 13:44:19.00	257.60	26.14	-48.6	-59.3	3.8	8.46e-01	0	61	104	0	59	12737
2026-01-05 13:44:19.85	257.85	26.18	-48.6	-59.3	3.8	8.47e-01	0	61	104	0	59	12734
2026-01-05 13:44:20.98	258.19	26.22	-48.6	-59.3	3.8	8.45e-01	0	61	104	0	59	12689
2026-01-05 13:44:21.83	258.44	26.25	-48.6	-59.3	3.8	8.46e-01	0	61	104	0	59	12739
2026-01-05 13:44:22.95	258.77	26.30	-48.6	-59.3	3.8	8.46e-01	0	61	104	0	59	12716
2026-01-05 13:44:23.80	259.02	26.33	-48.6	-59.3	3.8	8.47e-01	0	61	104	0	59	12723
2026-01-05 13:44:24.93	259.36	26.37	-48.6	-59.3	3.8	8.46e-01	0	61	104	0	59	12715
2026-01-05 13:44:25.78	259.62	26.40	-48.6	-59.3	3.8	8.48e-01	0	61	104	0	59	12723
2026-01-05 13:44:26.91	259.96	26.44	-48.6	-59.3	3.8	8.47e-01	0	61	104	0	59	12699
2026-01-05 13:44:27.75	260.21	26.47	-48.6	-59.3	3.8	8.46e-01	0	61	104	0	59	12738
2026-01-05 13:44:28.88	260.55	26.50	-48.6	-59.3	3.8	8.46e-01	0	61	104	0	59	12754
2026-01-05 13:44:29.73	260.81	26.53	-48.6	-59.3	3.8	8.46e-01	0	61	104	0	59	12746
2026-01-05 13:44:30.86	261.15	26.57	-48.6	-59.3	3.8	8.46e-01	0	61	104	0	59	12762
2026-01-05 13:44:31.70	261.40	26.59	-48.6	-59.3	3.8	8.46e-01	0	61	104	0	59	12747
2026-01-05 13:44:32.83	261.75	26.62	-48.6	-59.3	3.8	8.46e-01	0	61	104	0	59	12708
2026-01-05 13:44:33.68	262.00	26.65	-48.5	-59.3	3.8	8.46e-01	0	61	104	0	59	12723
2026-01-05 13:44:34.81	262.35	26.68	-48.5	-59.3	3.8	8.47e-01	0	61	104	0	59	12706
2026-01-05 13:44:35.66	262.61	26.70	-48.6	-59.3	3.8	8.46e-01	0	61	104	0	59	12754
2026-01-05 13:44:36.78	262.95	26.73	-48.6	-59.3	3.8	8.46e-01	0	61	104	0	59	12739
2026-01-05 13:44:37.63	263.21	26.76	-48.6	-59.3	3.8	8.47e-01	0	61	104	0	59	12722
2026-01-05 13:44:38.75	263.55	26.78	-48.6	-59.3	3.8	8.45e-01	0	61	104	0	59	12732
2026-01-05 13:44:39.60	263.82	26.80	-48.6	-59.3	3.8	8.45e-01	0	61	104	0	59	12692
2026-01-05 13:44:40.73	264.16	26.83	-48.6	-59.3	3.8	8.46e-01	0	61	104	0	59	12726
2026-01-05 13:44:41.57	264.42	26.85	-48.6	-59.3	3.8	8.46e-01	0	61	104	0	59	12724
2026-01-05 13:44:42.70	264.77	26.87	-48.6	-59.3	3.8	8.45e-01	0	61	104	0	59	12704
2026-01-05 13:44:43.55	265.03	26.89	-48.6	-59.3	3.8	8.46e-01	0	61	104	0	59	12696
2026-01-05 13:44:44.67	265.38	26.91	-48.6	-59.3	3.8	8.46e-01	0	61	104	0	59	12767
2026-01-05 13:44:45.52	265.64	26.93	-48.6	-59.3	3.8	8.45e-01	0	61	104	0	59	12738
2026-01-05 13:44:46.65	265.99	26.95	-48.6	-59.3	3.8	8.46e-01	0	61	104	0	59	12726
2026-01-05 13:44:47.49	266.25	26.96	-48.6	-59.3	3.8	8.46e-01	0	61	104	0	59	12732
2026-01-05 13:44:48.62	266.60	26.98	-48.6	-59.3	3.8	8.46e-01	0	61	104	0	59	12728
2026-01-05 13:44:49.47	266.87	26.99	-48.6	-59.3	3.8	8.46e-01	0	61	104	0	59	12727
2026-01-05 13:44:50.60	267.22	27.01	-48.6	-59.3	3.8	8.47e-01	0	61	104	0	59	12719
2026-01-05 13:44:51.44	267.48	27.02	-48.6	-59.3	3.8	8.46e-01	0	61	104	0	59	12743
2026-01-05 13:44:52.57	267.83	27.04	-48.6	-59.3	3.8	8.46e-01	0	61	104	0	59	12699
2026-01-05 13:44:53.42	268.10	27.05	-48.6	-59.3	3.8	8.46e-01	0	61	104	0	59	12752
2026-01-05 13:44:54.55	268.45	27.06	-48.6	-59.3	3.8	8.46e-01	0	61	104	0	59	12718
2026-01-05 13:44:55.40	268.72	27.07	-48.6	-59.3	3.8	8.47e-01	0	61	104	0	59	12714
2026-01-05 13:44:56.53	269.07	27.08	-48.6	-59.3	3.8	8.46e-01	0	61	104	0	59	12704
2026-01-05 13:44:57.37	269.33	27.09	-48.6	-59.3	3.8	8.45e-01	0	61	104	0	59	12746
2026-01-05 13:44:58.50	269.69	27.10	-48.6	-59.3	3.8	8.46e-01	0	61	104	0	59	12740
2026-01-05 13:44:59.34	269.95	27.10	-48.6	-59.3	3.8	8.47e-01	0	61	104	0	59	12728
2026-01-05 13:45:00.47	270.30	27.11	-48.6	-59.3	3.8	8.46e-01	0	61	104	0	59	12753
2026-01-05 13:45:01.32	270.57	27.11	-48.6	-59.3	3.8	8.47e-01	0	61	104	0	59	12725
2026-01-05 13:45:02.45	270.92	27.12	-48.6	-59.3	3.8	8.47e-01	0	61	104	0	59	12747
2026-01-05 13:45:03.30	271.19	27.12	-48.6	-59.3	3.8	8.45e-01	0	61	104	0	59	12736
2026-01-05 13:45:04.43	271.54	27.12	-48.6	-59.3	3.8	8.46e-01	0	61	104	0	59	12767
2026-01-05 13:45:05.27	271.81	27.12	-48.6	-59.3	3.8	8.46e-01	0	61	104	0	59	12770
2026-01-05 13:45:06.41	272.16	27.12	-48.6	-59.3	3.8	8.45e-01	0	61	104	0	59	12699
2026-01-05 13:45:07.25	272.43	27.12	-48.6	-59.3	3.8	8.46e-01	0	61	104	0	59	12721
2026-01-05 13:45:08.37	272.78	27.12	-48.6	-59.3	3.8	8.46e-01	0	61	104	0	59	12711
2026-01-05 13:45:09.21	273.04	27.12	-48.6	-59.3	3.8	8.47e-01	0	61	104	0	59	12699
2026-01-05 13:45:10.34	273.39	27.12	-48.6	-59.3	3.8	8.46e-01	0	61	104	0	59	12735
2026-01-05 13:45:11.18	273.66	27.11	-48.6	-59.3	3.8	8.47e-01	0	61	104	0	59	12771
2026-01-05 13:45:12.31	274.01	27.11	-48.6	-59.3	3.8	8.46e-01	0	61	104	0	59	12698
2026-01-05 13:45:13.16	274.28	27.10	-48.6	-59.3	3.8	8.48e-01	0	61	104	0	59	12723
2026-01-05 13:45:14.28	274.63	27.09	-48.6	-59.3	3.8	8.46e-01	0	61	104	0	59	12758
2026-01-05 13:45:15.13	274.89	27.09	-48.6	-59.3	3.8	8.47e-01	0	61	104	0	59	12713
2026-01-05 13:45:16.26	275.25	27.08	-48.6	-59.3	3.8	8.47e-01	0	61	104	0	59	12736
2026-01-05 13:45:17.11	275.51	27.07	-48.6	-59.3	3.8	8.47e-01	0	61	104	0	59	12711
2026-01-05 13:45:18.24	275.86	27.06	-48.6	-59.3	3.8	8.47e-01	0	61	104	0	59	12718
2026-01-05 13:45:19.08	276.13	27.05	-48.6	-59.3	3.8	8.46e-01	0	61	104	0	59	12799
2026-01-05 13:45:20.21	276.48	27.04	-48.6	-59.3	3.8	8.46e-01	0	61	104	0	59	12707
2026-01-05 13:45:21.06	276.74	27.03	-48.5	-59.3	3.8	8.46e-01	0	61	104	0	59	12716
2026-01-05 13:45:22.19	277.09	27.01	-48.6	-59.3	3.8	8.47e-01	0	61	104	0	59	12749
2026-01-05 13:45:23.03	277.36	27.00	-48.6	-59.3	3.8	8.46e-01	0	61	104	0	59	12734
2026-01-05 13:45:24.16	277.71	26.98	-48.6	-59.3	3.8	8.46e-01	0	61	104	0	59	12713
2026-01-05 13:45:25.00	277.97	26.97	-48.6	-59.3	3.8	8.47e-01	0	61	104	0	59	12745
2026-01-05 13:45:26.14	278.32	26.95	-48.6	-59.3	3.8	8.46e-01	0	61	104	0	59	12762
2026-01-05 13:45:26.98	278.58	26.93	-48.6	-59.3	3.8	8.46e-01	0	61	104	0	59	12755
2026-01-05 13:45:28.11	278.93	26.91	-48.5	-59.3	3.8	8.45e-01	0	61	104	0	59	12711
2026-01-05 13:45:28.96	279.19	26.89	-48.6	-59.3	3.8	8.48e-01	0	61	104	0	59	12721
2026-01-05 13:45:30.08	279.54	26.87	-48.6	-59.3	3.8	8.45e-01	0	61	104	0	59	12771
2026-01-05 13:45:30.93	279.80	26.85	-48.6	-59.3	3.8	8.47e-01	0	61	104	0	59	12737
2026-01-05 13:45:32.06	280.15	26.83	-48.6	-59.3	3.8	8.46e-01	0	61	104	0	59	12749
2026-01-05 13:45:32.91	280.41	26.81	-48.6	-59.3	3.8	8.46e-01	0	61	104	0	59	12701
2026-01-05 13:45:34.03	280.75	26.78	-48.6	-59.3	3.8	8.47e-01	0	61	104	0	59	12752
2026-01-05 13:45:34.87	281.01	26.76	-48.6	-59.3	3.8	8.46e-01	0	61	104	0	59	12707
2026-01-05 13:45:36.00	281.36	26.73	-48.6	-59.3	3.8	8.46e-01	0	61	104	0	59	12745
2026-01-05 13:45:36.85	281.62	26.71	-48.6	-59.3	3.8	8.47e-01	0	61	104	0	59	12735
2026-01-05 13:45:37.98	281.96	26.68	-48.6	-59.3	3.8	8.46e-01	0	61	104	0	59	12749
2026-01-05 13:45:38.83	282.22	26.66	-48.6	-59.3	3.8	8.46e-01	0	61	104	0	59	12800
2026-01-05 13:45:39.96	282.56	26.62	-48.6	-59.3	3.8	8.45e-01	0	61	104	0	59	12741
2026-01-05 13:45:40.81	282.82	26.60	-48.6	-59.3	3.8	8.47e-01	0	61	104	0	59	12768
2026-01-05 13:45:41.94	283.16	26.56	-48.6	-59.3	3.8	8.45e-01	0	61	104	0	59	12762
2026-01-05 13:45:42.78	283.42	26.54	-48.6	-59.3	3.8	8.47e-01	0	61	104	0	59	12730
2026-01-05 13:45:43.91	283.76	26.50	-48.6	-59.3	3.8	8.46e-01	0	62	104	0	59	12737
2026-01-05 13:45:44.76	284.01	26.47	-48.6	-59.3	3.8	8.46e-01	0	62	104	0	59	12773
2026-01-05 13:45:45.88	284.35	26.44	-48.6	-59.3	3.8	8.45e-01	0	62	104	0	59	12758
2026-01-05 13:45:46.73	284.60	26.41	-48.6	-59.3	3.8	8.46e-01	0	61	104	0	59	12756
2026-01-05 13:45:47.86	284.94	26.37	-48.6	-59.3	3.8	8.47e-01	0	61	104	0	59	12753
2026-01-05 13:45:48.71	285.20	26.34	-48.6	-59.3	3.8	8.45e-01	0	62	104	0	59	12768
2026-01-05 13:45:49.83	285.53	26.30	-48.6	-59.3	3.8	8.47e-01	0	62	104	0	59	12752
2026-01-05 13:45:50.68	285.78	26.26	-48.6	-59.3	3.8	8.46e-01	0	62	104	0	59	12747
2026-01-05 13:45:51.80	286.11	26.22	-48.6	-59.3	3.8	8.46e-01	0	62	104	0	59	12721
2026-01-05 13:45:52.65	286.37	26.19	-48.6	-59.3	3.8	8.46e-01	0	61	104	0	59	12749
2026-01-05 13:45:53.78	286.70	26.14	-48.6	-59.3	3.8	8.46e-01	0	61	104	0	59	12724
2026-01-05 13:45:54.63	286.95	26.11	-48.6	-59.3	3.8	8.46e-01	0	62	104	0	59	12779
2026-01-05 13:45:55.76	287.28	26.06	-48.6	-59.3	3.8	8.46e-01	0	62	104	0	59	12745
2026-01-05 13:45:56.60	287.53	26.03	-48.6	-59.3	3.8	8.46e-01	0	62	104	0	59	12731
2026-01-05 13:45:57.73	287.86	25.98	-48.6	-59.3	3.8	8.45e-01	0	62	104	0	59	12758
2026-01-05 13:45:58.58	288.11	25.94	-48.6	-59.3	3.8	8.46e-01	0	61	104	0	59	12757
2026-01-05 13:45:59.71	288.43	25.90	-48.6	-59.3	3.8	8.47e-01	0	62	104	0	59	12760
2026-01-05 13:46:00.56	288.68	25.86	-48.6	-59.3	3.8	8.46e-01	0	62	104	0	59	12796
2026-01-05 13:46:01.69	289.01	25.81	-48.6	-59.3	3.8	8.46e-01	0	62	104	0	59	12773
2026-01-05 13:46:02.53	289.25	25.77	-48.6	-59.3	3.8	8.46e-01	0	61	104	0	59	12713
2026-01-05 13:46:03.66	289.57	25.72	-48.5	-59.3	3.8	8.46e-01	0	62	104	0	59	12720
2026-01-05 13:46:04.51	289.82	25.68	-48.6	-59.3	3.8	8.46e-01	0	62	104	0	59	12742
2026-01-05 13:46:05.64	290.14	25.62	-48.6	-59.3	3.8	8.46e-01	0	62	104	0	59	12709
2026-01-05 13:46:06.48	290.38	25.58	-48.6	-59.3	3.8	8.46e-01	0	62	104	0	59	12708
2026-01-05 13:46:07.61	290.70	25.53	-48.5	-59.3	3.8	8.45e-01	0	62	104	0	59	12726
2026-01-05 13:46:08.46	290.94	25.48	-48.6	-59.3	3.8	8.47e-01	0	62	104	0	59	12805
2026-01-05 13:46:09.59	291.26	25.43	-48.6	-59.3	3.8	8.46e-01	0	62	104	0	59	12754
2026-01-05 13:46:10.43	291.50	25.38	-48.6	-59.3	3.8	8.47e-01	0	62	104	0	59	12764
2026-01-05 13:46:11.56	291.81	25.33	-48.6	-59.3	3.8	8.46e-01	0	62	104	0	59	12737
2026-01-05 13:46:12.40	292.05	25.28	-48.6	-59.3	3.8	8.45e-01	0	62	104	0	59	12784
2026-01-05 13:46:13.54	292.37	25.22	-48.6	-59.3	3.8	8.46e-01	0	62	104	0	59	12744
2026-01-05 13:46:14.38	292.60	25.18	-48.6	-59.3	3.8	8.46e-01	0	62	104	0	59	12741
2026-01-05 13:46:15.51	292.91	25.12	-48.6	-59.3	3.8	8.46e-01	0	62	104	0	59	12794
2026-01-05 13:46:16.36	293.15	25.07	-48.6	-59.3	3.8	8.47e-01	0	62	104	0	59	12724
2026-01-05 13:46:17.49	293.46	25.01	-48.6	-59.3	3.8	8.46e-01	0	62	104	0	59	12747
2026-01-05 13:46:18.34	293.69	24.96	-48.6	-59.3	3.8	8.46e-01	0	62	104	0	59	12751
2026-01-05 13:46:19.48	294.00	24.90	-48.6	-59.3	3.8	8.46e-01	0	62	104	0	59	12735
2026-01-05 13:46:20.32	294.23	24.85	-48.6	-59.3	3.8	8.45e-01	0	62	104	0	59	12803
2026-01-05 13:46:21.44	294.54	24.79	-48.6	-59.3	3.8	8.47e-01	0	62	104	0	59	12770
2026-01-05 13:46:22.28	294.76	24.74	-48.6	-59.3	3.8	8.46e-01	0	62	104	0	59	12734
2026-01-05 13:46:23.40	295.06	24.67	-48.6	-59.3	3.8	8.47e-01	0	62	104	0	59	12771
2026-01-05 13:46:24.24	295.29	24.62	-48.6	-59.3	3.8	8.46e-01	0	62	104	0	59	12747
2026-01-05 13:46:25.37	295.59	24.56	-48.6	-59.3	3.8	8.46e-01	0	62	104	0	59	12775
2026-01-05 13:46:26.21	295.82	24.51	-48.6	-59.3	3.8	8.46e-01	0	62	104	0	59	12762
2026-01-05 13:46:27.33	296.11	24.44	-48.6	-59.3	3.8	8.46e-01	0	62	104	0	59	12702
2026-01-05 13:46:28.17	296.34	24.39	-48.6	-59.3	3.8	8.46e-01	0	62	104	0	59	12741
2026-01-05 13:46:29.29	296.63	24.32	-48.6	-59.3	3.8	8.47e-01	0	62	104	0	59	12716
2026-01-05 13:46:30.13	296.85	24.27	-48.6	-59.3	3.8	8.46e-01	0	62	104	0	59	12702
2026-01-05 13:46:31.26	297.15	24.20	-48.6	-59.3	3.8	8.46e-01	0	62	104	0	59	12757
2026-01-05 13:46:32.10	297.37	24.15	-48.5	-59.3	3.8	8.45e-01	0	62	104	0	59	12737
2026-01-05 13:46:33.22	297.66	24.07	-48.6	-59.3	3.8	8.45e-01	0	62	104	0	59	12729
2026-01-05 13:46:34.06	297.87	24.02	-48.5	-59.3	3.8	8.46e-01	0	62	104	0	59	12734
2026-01-05 13:46:35.19	298.16	23.95	-48.6	-59.3	3.8	8.45e-01	0	62	104	0	59	12727
2026-01-05 13:46:36.03	298.38	23.90	-48.5	-59.3	3.8	8.46e-01	0	62	104	0	59	12734
2026-01-05 13:46:37.14	298.66	23.82	-48.6	-59.3	3.8	8.46e-01	0	62	104	0	59	12748
2026-01-05 13:46:37.99	298.88	23.77	-48.5	-59.3	3.8	8.45e-01	0	62	104	0	59	12715
2026-01-05 13:46:39.11	299.16	23.70	-48.6	-59.3	3.8	8.46e-01	0	62	104	0	59	12759
2026-01-05 13:46:39.96	299.38	23.64	-48.6	-59.3	3.8	8.45e-01	0	62	104	0	59	12803
2026-01-05 13:46:41.08	299.66	23.57	-48.6	-59.3	3.8	8.45e-01	0	62	104	0	59	12772
2026-01-05 13:46:41.92	299.87	23.51	-48.6	-59.3	3.8	8.45e-01	0	62	104	0	59	12756
2026-01-05 13:46:43.06	300.15	23.43	-48.6	-59.3	3.8	8.47e-01	0	62	104	0	59	12752
2026-01-05 13:46:43.90	300.36	23.38	-48.5	-59.3	3.8	8.46e-01	0	62	104	0	59	12714
2026-01-05 13:46:45.03	300.64	23.30	-48.6	-59.3	3.8	8.46e-01	0	62	104	0	59	12776
2026-01-05 13:46:45.87	300.85	23.24	-48.6	-59.3	3.8	8.46e-01	0	62	104	0	59	12750
2026-01-05 13:46:47.00	301.13	23.17	-48.6	-59.3	3.8	8.46e-01	0	62	104	0	59	12769
2026-01-05 13:46:47.85	301.33	23.11	-48.6	-59.3	3.8	8.45e-01	0	62	104	0	59	12728
2026-01-05 13:46:48.98	301.61	23.03	-48.5	-59.3	3.8	8.46e-01	0	62	104	0	59	12712
2026-01-05 13:46:49.83	301.81	22.97	-48.6	-59.3	3.8	8.47e-01	0	62	104	0	59	12751
2026-01-05 13:46:50.95	302.08	22.89	-48.6	-59.3	3.8	8.45e-01	0	62	104	0	59	12722
2026-01-05 13:46:51.79	302.29	22.83	-48.6	-59.3	3.8	8.44e-01	0	62	104	0	59	12739
2026-01-05 13:46:52.92	302.56	22.75	-48.6	-59.3	3.8	8.46e-01	0	62	104	0	59	12741
2026-01-05 13:46:53.76	302.76	22.69	-48.6	-59.3	3.8	8.47e-01	0	62	104	0	59	12728
2026-01-05 13:46:54.88	303.02	22.61	-48.6	-59.3	3.8	8.46e-01	0	62	104	0	59	12727
2026-01-05 13:46:55.73	303.22	22.55	-48.5	-59.3	3.8	8.46e-01	0	62	104	0	59	12714
2026-01-05 13:46:56.85	303.49	22.47	-48.6	-59.3	3.8	8.46e-01	0	62	104	0	59	12747
2026-01-05 13:46:57.70	303.68	22.41	-48.6	-59.3	3.8	8.46e-01	0	62	104	0	59	12726
2026-01-05 13:46:58.82	303.94	22.33	-48.6	-59.3	3.8	8.46e-01	0	62	104	0	59	12766
2026-01-05 13:46:59.67	304.14	22.27	-48.5	-59.2	3.8	8.46e-01	0	62	104	0	59	12566
2026-01-05 13:47:00.79	304.40	22.19	-48.6	-59.3	3.8	8.46e-01	0	62	104	0	59	12684
2026-01-05 13:47:01.63	304.59	22.13	-48.6	-59.3	3.8	8.45e-01	0	62	104	0	59	12729
2026-01-05 13:47:02.76	304.85	22.05	-48.6	-59.3	3.8	8.46e-01	0	62	104	0	59	12756
2026-01-05 13:47:03.61	305.04	21.98	-48.6	-59.3	3.8	8.48e-01	0	62	104	0	59	12759
2026-01-05 13:47:04.74	305.30	21.90	-48.6	-59.3	3.8	8.46e-01	0	62	104	0	59	12697
2026-01-05 13:47:05.58	305.49	21.84	-48.6	-59.3	3.8	8.48e-01	0	62	104	0	59	12774
2026-01-05 13:47:06.71	305.74	21.75	-48.6	-59.3	3.8	8.46e-01	0	62	104	0	59	12778
2026-01-05 13:47:07.56	305.93	21.69	-48.6	-59.3	3.8	8.47e-01	0	62	104	0	59	12804
2026-01-05 13:47:08.69	306.18	21.61	-48.6	-59.3	3.8	8.46e-01	0	62	104	0	59	12741
2026-01-05 13:47:09.53	306.37	21.54	-48.6	-59.3	3.8	8.45e-01	0	62	104	0	59	12786
2026-01-05 13:47:10.66	306.62	21.46	-48.6	-59.3	3.8	8.47e-01	0	62	104	0	59	12771
2026-01-05 13:47:11.50	306.80	21.40	-48.6	-59.3	3.8	8.46e-01	0	62	104	0	59	12747
2026-01-05 13:47:12.63	307.05	21.31	-48.6	-59.3	3.8	8.46e-01	0	62	104	0	59	12719
2026-01-05 13:47:13.47	307.23	21.25	-48.6	-59.2	3.8	8.46e-01	0	62	104	0	59	12603
2026-01-05 13:47:14.60	307.48	21.16	-48.6	-59.3	3.8	8.46e-01	0	62	104	0	59	12774
2026-01-05 13:47:15.45	307.66	21.10	-48.6	-59.3	3.8	8.46e-01	0	62	104	0	59	12779
2026-01-05 13:47:16.58	307.90	21.01	-48.6	-59.3	3.8	8.46e-01	0	62	104	0	59	12770
2026-01-05 13:47:17.42	308.08	20.95	-48.6	-59.3	3.8	8.46e-01	0	62	104	0	59	12735
2026-01-05 13:47:18.55	308.32	20.86	-48.6	-59.3	3.8	8.46e-01	0	62	104	0	59	12787
2026-01-05 13:47:19.39	308.50	20.80	-48.6	-59.3	3.8	8.47e-01	0	62	104	0	59	12779
2026-01-05 13:47:20.52	308.74	20.71	-48.6	-59.3	3.8	8.47e-01	0	62	104	0	59	12786
2026-01-05 13:47:21.36	308.91	20.65	-48.6	-59.3	3.8	8.46e-01	0	62	104	0	59	12800
2026-01-05 13:47:22.49	309.15	20.56	-48.6	-59.3	3.8	8.47e-01	0	62	104	0	59	12742
2026-01-05 13:47:23.33	309.32	20.50	-48.6	-59.3	3.8	8.46e-01	0	62	104	0	59	12756
2026-01-05 13:47:24.45	309.55	20.41	-48.6	-59.3	3.8	8.45e-01	0	62	104	0	59	12793
2026-01-05 13:47:25.30	309.73	20.35	-48.6	-59.3	3.8	8.46e-01	0	62	104	0	59	12764
2026-01-05 13:47:26.42	309.95	20.26	-48.6	-59.3	3.8	8.45e-01	0	62	104	0	59	12764
2026-01-05 13:47:27.27	310.13	20.19	-48.6	-59.3	3.8	8.46e-01	0	62	104	0	59	12775
2026-01-05 13:47:28.40	310.36	20.11	-48.6	-59.3	3.8	8.47e-01	0	62	104	0	59	12753
2026-01-05 13:47:29.24	310.52	20.04	-48.6	-59.3	3.8	8.46e-01	0	62	104	0	59	12765
2026-01-05 13:47:30.37	310.75	19.95	-48.6	-59.3	3.8	8.47e-01	0	62	104	0	59	12753
2026-01-05 13:47:31.22	310.92	19.89	-48.6	-59.3	3.8	8.46e-01	0	62	104	0	59	12772
2026-01-05 13:47:32.34	311.14	19.80	-48.6	-59.3	3.8	8.46e-01	0	62	104	0	59	12776
2026-01-05 13:47:33.18	311.31	19.73	-48.6	-59.3	3.8	8.47e-01	0	62	104	0	59	12723
2026-01-05 13:47:34.31	311.53	19.65	-48.6	-59.3	3.8	8.45e-01	0	62	104	0	59	12743
2026-01-05 13:47:35.16	311.70	19.58	-48.6	-59.3	3.8	8.46e-01	0	62	104	0	59	12801
2026-01-05 13:47:36.29	311.92	19.49	-48.6	-59.3	3.8	8.46e-01	0	62	104	0	59	12737
2026-01-05 13:47:37.13	312.08	19.42	-48.6	-59.3	3.8	8.46e-01	0	62	104	0	59	12768
2026-01-05 13:47:38.26	312.30	19.34	-48.6	-59.3	3.8	8.46e-01	0	62	104	0	59	12742
2026-01-05 13:47:39.11	312.46	19.27	-48.6	-59.3	3.8	8.47e-01	0	62	104	0	59	12809
2026-01-05 13:47:40.23	312.67	19.18	-48.6	-59.3	3.8	8.46e-01	0	62	104	0	59	12753
2026-01-05 13:47:41.07	312.83	19.12	-48.6	-59.3	3.8	8.46e-01	0	62	104	0	59	12769
2026-01-05 13:47:42.20	313.05	19.03	-48.6	-59.3	3.8	8.45e-01	0	62	104	0	59	12782
2026-01-05 13:47:43.04	313.20	18.96	-48.6	-59.3	3.8	8.47e-01	0	62	104	0	59	12779
2026-01-05 13:47:44.17	313.41	18.87	-48.6	-59.3	3.8	8.47e-01	0	62	104	0	59	12793
2026-01-05 13:47:45.01	313.57	18.81	-48.6	-59.3	3.8	8.46e-01	0	62	104	0	59	12777
2026-01-05 13:47:46.14	313.78	18.72	-48.6	-59.3	3.8	8.47e-01	0	62	104	0	59	12783
2026-01-05 13:47:46.99	313.94	18.65	-48.6	-59.3	3.8	8.47e-01	0	62	104	0	59	12791
2026-01-05 13:47:48.11	314.14	18.56	-48.6	-59.3	3.8	8.45e-01	0	62	104	0	59	12766
2026-01-05 13:47:48.96	314.30	18.49	-48.6	-59.3	3.8	8.45e-01	0	62	104	0	59	12759
2026-01-05 13:47:50.08	314.50	18.41	-48.6	-59.3	3.8	8.45e-01	0	62	104	0	59	12782
2026-01-05 13:47:50.93	314.65	18.34	-48.6	-59.3	3.8	8.47e-01	0	62	104	0	59	12764
2026-01-05 13:47:52.05	314.85	18.25	-48.6	-59.3	3.8	8.46e-01	0	62	104	0	59	12780
2026-01-05 13:47:52.90	315.01	18.18	-48.6	-59.3	3.8	8.47e-01	0	62	104	0	59	12769
2026-01-05 13:47:54.03	315.21	18.09	-48.6	-59.3	3.8	8.46e-01	0	62	104	0	59	12730
2026-01-05 13:47:54.87	315.36	18.03	-48.6	-59.3	3.8	8.46e-01	0	62	104	0	59	12782
2026-01-05 13:47:56.00	315.55	17.94	-48.6	-59.3	3.8	8.46e-01	0	62	104	0	59	12705
2026-01-05 13:47:56.84	315.70	17.87	-48.6	-59.3	3.8	8.44e-01	0	62	104	0	59	12715
2026-01-05 13:47:57.97	315.90	17.78	-48.6	-59.3	3.8	8.46e-01	0	62	104	0	59	12696
2026-01-05 13:47:58.81	316.04	17.72	-48.6	-59.3	3.8	8.46e-01	0	62	104	0	59	12712
2026-01-05 13:47:59.94	316.24	17.63	-48.6	-59.3	3.8	8.47e-01	0	62	104	0	59	12791
2026-01-05 13:48:00.78	316.38	17.56	-48.6	-59.3	3.8	8.45e-01	0	62	104	0	59	12773
2026-01-05 13:48:01.91	316.58	17.47	-48.6	-59.3	3.8	8.47e-01	0	62	104	0	59	12784
2026-01-05 13:48:02.75	316.72	17.41	-48.6	-59.3	3.8	8.46e-01	0	62	104	0	59	12768
2026-01-05 13:48:03.87	316.91	17.32	-48.6	-59.3	3.8	8.47e-01	0	62	104	0	59	12761
2026-01-05 13:48:04.72	317.05	17.25	-48.6	-59.3	3.8	8.46e-01	0	62	104	0	59	12775
2026-01-05 13:48:05.84	317.24	17.16	-48.6	-59.3	3.8	8.46e-01	0	62	104	0	59	12780
2026-01-05 13:48:06.69	317.38	17.10	-48.6	-59.3	3.8	8.46e-01	0	62	104	0	59	12719
2026-01-05 13:48:07.81	317.57	17.01	-48.6	-59.3	3.8	8.45e-01	0	62	104	0	59	12777
2026-01-05 13:48:08.65	317.71	16.94	-48.6	-59.3	3.8	8.47e-01	0	62	104	0	59	12757
2026-01-05 13:48:09.78	317.89	16.85	-48.6	-59.3	3.8	8.46e-01	0	62	104	0	59	12783
2026-01-05 13:48:10.63	318.03	16.79	-48.6	-59.3	3.8	8.44e-01	0	62	104	0	59	12781
2026-01-05 13:48:11.76	318.21	16.70	-48.6	-59.3	3.8	8.47e-01	0	62	104	0	59	12810
2026-01-05 13:48:12.60	318.35	16.63	-48.6	-59.3	3.8	8.47e-01	0	62	104	0	59	12698
2026-01-05 13:48:13.73	318.53	16.54	-48.6	-59.3	3.8	8.47e-01	0	62	104	0	59	12749
2026-01-05 13:48:14.57	318.67	16.48	-48.6	-59.3	3.8	8.45e-01	0	62	104	0	59	12773
2026-01-05 13:48:15.69	318.85	16.39	-48.6	-59.3	3.8	8.47e-01	0	62	104	0	59	12759
2026-01-05 13:48:16.54	318.98	16.32	-48.6	-59.3	3.8	8.47e-01	0	62	104	0	59	12714
2026-01-05 13:48:17.66	319.16	16.23	-48.6	-59.3	3.8	8.46e-01	0	62	104	0	59	12747
2026-01-05 13:48:18.51	319.29	16.17	-48.6	-59.3	3.8	8.45e-01	0	62	104	0	59	12787
2026-01-05 13:48:19.64	319.47	16.08	-48.6	-59.3	3.8	8.46e-01	0	62	104	0	59	12723
2026-01-05 13:48:20.48	319.60	16.01	-48.6	-59.3	3.8	8.46e-01	0	62	104	0	59	12688
2026-01-05 13:48:21.61	319.77	15.93	-48.6	-59.3	3.8	8.47e-01	0	62	104	0	59	12714
2026-01-05 13:48:22.45	319.90	15.86	-48.6	-59.3	3.8	8.46e-01	0	62	104	0	59	12713
2026-01-05 13:48:23.58	320.07	15.77	-48.6	-59.3	3.8	8.46e-01	0	62	104	0	59	12735
2026-01-05 13:48:24.42	320.20	15.71	-48.6	-59.3	3.8	8.47e-01	0	62	104	0	59	12674
2026-01-05 13:48:25.55	320.37	15.62	-48.6	-59.3	3.8	8.49e-01	0	62	104	0	59	12667
2026-01-05 13:48:26.39	320.50	15.55	-48.6	-59.3	3.8	8.46e-01	0	62	104	0	59	12698
2026-01-05 13:48:27.52	320.67	15.46	-48.6	-59.3	3.8	8.45e-01	0	62	104	0	59	12728
2026-01-05 13:48:28.37	320.80	15.40	-48.6	-59.3	3.8	8.47e-01	0	62	104	0	59	12721
2026-01-05 13:48:29.49	320.96	15.31	-48.6	-59.3	3.8	8.46e-01	0	62	104	0	59	12706
2026-01-05 13:48:30.33	321.09	15.25	-48.6	-59.3	3.8	8.47e-01	0	62	104	0	59	12729
2026-01-05 13:48:31.46	321.25	15.16	-48.6	-59.3	3.8	8.46e-01	0	62	104	0	59	12740
2026-01-05 13:48:32.30	321.38	15.09	-48.6	-59.3	3.8	8.46e-01	0	62	104	0	59	12754
2026-01-05 13:48:33.42	321.54	15.01	-48.6	-59.3	3.8	8.47e-01	0	62	104	0	59	12715
2026-01-05 13:48:34.27	321.66	14.94	-48.6	-59.3	3.8	8.46e-01	0	62	104	0	59	12750
2026-01-05 13:48:35.40	321.83	14.85	-48.6	-59.3	3.8	8.46e-01	0	62	104	0	59	12726
2026-01-05 13:48:36.24	321.95	14.79	-48.6	-59.3	3.8	8.45e-01	0	62	104	0	59	12723
2026-01-05 13:48:37.37	322.11	14.70	-48.6	-59.3	3.8	8.46e-01	0	62	104	0	59	12733
2026-01-05 13:48:38.21	322.23	14.64	-48.6	-59.3	3.8	8.46e-01	0	62	104	0	59	12761
2026-01-05 13:48:39.33	322.39	14.55	-48.6	-59.3	3.8	8.46e-01	0	62	104	0	59	12723
2026-01-05 13:48:40.18	322.51	14.49	-48.6	-59.3	3.8	8.46e-01	0	62	104	0	59	12728
2026-01-05 13:48:41.30	322.66	14.40	-48.6	-59.3	3.8	8.47e-01	0	62	104	0	59	12737
2026-01-05 13:48:42.15	322.78	14.34	-48.6	-59.3	3.8	8.46e-01	0	62	104	0	59	12783
2026-01-05 13:48:43.27	322.94	14.25	-48.6	-59.3	3.8	8.47e-01	0	62	104	0	59	12779
2026-01-05 13:48:44.12	323.05	14.19	-48.6	-59.3	3.8	8.46e-01	0	62	104	0	59	12768
2026-01-05 13:48:45.24	323.21	14.10	-48.6	-59.3	3.8	8.47e-01	0	62	104	0	59	12743
2026-01-05 13:48:46.09	323.32	14.04	-48.6	-59.3	3.8	8.47e-01	0	62	104	0	59	12726
2026-01-05 13:48:47.22	323.48	13.95	-48.6	-59.3	3.8	8.46e-01	0	62	104	0	59	12747
2026-01-05 13:48:48.06	323.59	13.89	-48.6	-59.3	3.8	8.47e-01	0	62	104	0	59	12736
2026-01-05 13:48:49.19	323.74	13.80	-48.6	-59.3	3.8	8.46e-01	0	62	104	0	59	12747
2026-01-05 13:48:50.03	323.86	13.74	-48.6	-59.3	3.8	8.46e-01	0	62	104	0	59	12734
2026-01-05 13:48:51.15	324.01	13.65	-48.6	-59.2	3.8	8.45e-01	0	62	104	0	59	12657
2026-01-05 13:48:51.99	324.12	13.59	-48.6	-59.3	3.8	8.45e-01	0	62	104	0	59	12715
2026-01-05 13:48:53.12	324.27	13.50	-48.6	-59.3	3.8	8.46e-01	0	62	104	0	59	12693
2026-01-05 13:48:53.96	324.38	13.44	-48.6	-59.3	3.8	8.46e-01	0	62	104	0	59	12725
2026-01-05 13:48:55.09	324.53	13.35	-48.6	-59.3	3.8	8.47e-01	0	62	104	0	59	12779
2026-01-05 13:48:55.94	324.64	13.29	-48.6	-59.3	3.8	8.47e-01	0	62	104	0	59	12785
2026-01-05 13:48:57.06	324.78	13.21	-48.6	-59.3	3.8	8.46e-01	0	62	104	0	59	12755
2026-01-05 13:48:57.91	324.89	13.14	-48.6	-59.3	3.8	8.46e-01	0	62	104	0	59	12808
2026-01-05 13:48:59.04	325.04	13.06	-48.6	-59.3	3.8	8.46e-01	0	62	104	0	59	12771
2026-01-05 13:48:59.88	325.14	12.99	-48.6	-59.3	3.8	8.46e-01	0	62	104	0	59	12784
2026-01-05 13:49:01.01	325.29	12.91	-48.6	-59.3	3.8	8.46e-01	0	62	104	0	59	12757
2026-01-05 13:49:01.85	325.39	12.85	-48.6	-59.3	3.8	8.45e-01	0	62	104	0	59	12779
2026-01-05 13:49:02.97	325.54	12.76	-48.6	-59.3	3.8	8.46e-01	0	62	104	0	59	12773
2026-01-05 13:49:03.82	325.64	12.70	-48.6	-59.3	3.8	8.46e-01	0	62	104	0	59	12754
2026-01-05 13:49:04.95	325.78	12.62	-48.6	-59.3	3.8	8.46e-01	0	62	104	0	59	12756
2026-01-05 13:49:05.79	325.89	12.55	-48.6	-59.3	3.8	8.46e-01	0	62	104	0	59	12780
2026-01-05 13:49:06.91	326.03	12.47	-48.6	-59.4	3.8	8.46e-01	0	62	104	0	59	12821
2026-01-05 13:49:07.76	326.13	12.41	-48.6	-59.3	3.8	8.46e-01	0	62	104	0	59	12765
2026-01-05 13:49:08.89	326.27	12.32	-48.6	-59.3	3.8	8.46e-01	0	62	104	0	59	12784
2026-01-05 13:49:09.73	326.37	12.26	-48.6	-59.3	3.8	8.46e-01	0	62	104	0	59	12743
2026-01-05 13:49:10.86	326.51	12.18	-48.6	-59.3	3.8	8.46e-01	0	62	104	0	59	12782
2026-01-05 13:49:11.70	326.61	12.12	-48.6	-59.3	3.8	8.45e-01	0	62	104	0	59	12753
2026-01-05 13:49:12.82	326.74	12.04	-48.6	-59.3	3.8	8.45e-01	0	62	104	0	59	12797
2026-01-05 13:49:13.66	326.84	11.97	-48.6	-59.3	3.8	8.47e-01	0	62	104	0	59	12734
2026-01-05 13:49:14.79	326.98	11.89	-48.6	-59.4	3.8	8.46e-01	0	62	104	0	59	12816
2026-01-05 13:49:15.64	327.08	11.83	-48.6	-59.3	3.8	8.46e-01	0	62	104	0	59	12777
2026-01-05 13:49:16.76	327.21	11.75	-48.6	-59.3	3.8	8.45e-01	0	62	104	0	59	12756
2026-01-05 13:49:17.61	327.31	11.69	-48.6	-59.3	3.8	8.45e-01	0	62	104	0	59	12777
2026-01-05 13:49:18.74	327.44	11.60	-48.6	-59.3	3.8	8.47e-01	0	62	104	0	59	12773
2026-01-05 13:49:19.58	327.54	11.54	-48.6	-59.3	3.8	8.47e-01	0	62	104	0	59	12808
2026-01-05 13:49:20.71	327.67	11.46	-48.6	-59.3	3.8	8.46e-01	0	62	104	0	59	12742
2026-01-05 13:49:21.55	327.77	11.40	-48.6	-59.3	3.8	8.46e-01	0	62	104	0	59	12726
2026-01-05 13:49:22.68	327.90	11.32	-48.6	-59.3	3.8	8.46e-01	0	62	104	0	59	12775
2026-01-05 13:49:23.52	327.99	11.26	-48.6	-59.3	3.8	8.45e-01	0	62	104	0	59	12767
2026-01-05 13:49:24.65	328.12	11.18	-48.6	-59.4	3.8	8.45e-01	0	62	104	0	59	12822
2026-01-05 13:49:25.49	328.22	11.11	-48.6	-59.3	3.8	8.45e-01	0	62	104	0	59	12738
2026-01-05 13:49:26.62	328.34	11.03	-48.6	-59.3	3.8	8.46e-01	0	62	104	0	59	12793
2026-01-05 13:49:27.46	328.44	10.97	-48.6	-59.3	3.8	8.47e-01	0	62	104	0	59	12792
2026-01-05 13:49:28.59	328.56	10.89	-48.6	-59.3	3.8	8.46e-01	0	62	104	0	59	12737
2026-01-05 13:49:29.43	328.66	10.83	-48.6	-59.3	3.8	8.47e-01	0	62	104	0	59	12768
2026-01-05 13:49:30.55	328.78	10.75	-48.6	-59.3	3.8	8.46e-01	0	62	104	0	59	12774
2026-01-05 13:49:31.40	328.87	10.69	-48.6	-59.3	3.8	8.45e-01	0	62	104	0	59	12779
2026-01-05 13:49:32.52	329.00	10.61	-48.6	-59.3	3.8	8.47e-01	0	62	104	0	59	12769
2026-01-05 13:49:33.37	329.09	10.55	-48.6	-59.3	3.8	8.45e-01	0	62	104	0	59	12724
2026-01-05 13:49:34.50	329.21	10.47	-48.6	-59.3	3.8	8.46e-01	0	62	104	0	59	12792
2026-01-05 13:49:35.34	329.30	10.41	-48.6	-59.3	3.8	8.46e-01	0	62	104	0	59	12766
2026-01-05 13:49:36.47	329.42	10.33	-48.6	-59.3	3.8	8.44e-01	0	62	104	0	59	12734
2026-01-05 13:49:37.31	329.51	10.27	-48.6	-59.3	3.8	8.46e-01	0	62	104	0	59	12758
2026-01-05 13:49:38.44	329.63	10.19	-48.6	-59.3	3.8	8.46e-01	0	62	104	0	59	12772
2026-01-05 13:49:39.29	329.72	10.13	-48.6	-59.3	3.8	8.47e-01	0	62	104	0	59	12731
2026-01-05 13:49:40.41	329.84	10.05	-48.6	-59.3	3.8	8.46e-01	0	62	104	0	59	12754
2026-01-05 13:49:41.26	329.93	9.99	-48.6	-59.3	3.8	8.46e-01	0	62	104	0	59	12777
2026-01-05 13:49:42.38	330.05	9.92	-48.6	-59.3	3.8	8.45e-01	0	62	104	0	59	12758
2026-01-05 13:49:43.23	330.14	9.86	-48.6	-59.3	3.8	8.47e-01	0	62	104	0	59	12772
2026-01-05 13:49:44.36	330.26	9.78	-48.6	-59.3	3.8	8.46e-01	0	62	104	0	59	12755
2026-01-05 13:49:45.20	330.34	9.72	-48.6	-59.3	3.8	8.46e-01	0	62	104	0	59	12790
2026-01-05 13:49:46.33	330.46	9.64	-48.6	-59.3	3.8	8.46e-01	0	62	104	0	59	12769
2026-01-05 13:49:47.17	330.54	9.58	-48.6	-59.3	3.8	8.45e-01	0	62	104	0	59	12805
2026-01-05 13:49:48.30	330.66	9.50	-48.6	-59.3	3.8	8.46e-01	0	62	104	0	59	12768
2026-01-05 13:49:49.14	330.74	9.45	-48.6	-59.4	3.8	8.45e-01	0	62	104	0	59	12814
2026-01-05 13:49:50.27	330.86	9.37	-48.6	-59.3	3.8	8.46e-01	0	62	104	0	59	12777
2026-01-05 13:49:51.12	330.94	9.31	-48.6	-59.3	3.8	8.47e-01	0	62	104	0	59	12794
2026-01-05 13:49:52.24	331.06	9.23	-48.6	-59.3	3.8	8.45e-01	0	62	104	0	59	12753
2026-01-05 13:49:53.09	331.14	9.17	-48.6	-59.3	3.8	8.45e-01	0	62	104	0	59	12751
2026-01-05 13:49:54.22	331.25	9.10	-48.6	-59.3	3.8	8.47e-01	0	62	104	0	59	12771
2026-01-05 13:49:55.06	331.34	9.04	-48.6	-59.3	3.8	8.47e-01	0	62	104	0	59	12749
2026-01-05 13:49:56.19	331.45	8.96	-48.6	-59.3	3.8	8.47e-01	0	62	104	0	59	12780
2026-01-05 13:49:57.03	331.53	8.90	-48.6	-59.3	3.8	8.47e-01	0	62	104	0	59	12732
2026-01-05 13:49:58.15	331.64	8.83	-48.6	-59.3	3.8	8.47e-01	0	62	104	0	59	12806
2026-01-05 13:49:58.99	331.72	8.77	-48.6	-59.3	3.8	8.46e-01	0	62	104	0	59	12777
2026-01-05 13:50:00.12	331.83	8.69	-48.6	-59.3	3.8	8.45e-01	0	62	104	0	59	12731
2026-01-05 13:50:00.93	331.91	8.64	-48.6	-59.3	3.8	8.46e-01	0	62	104	0	59	12746
2026-01-05 13:50:02.07	332.02	8.56	-48.6	-59.3	3.8	8.46e-01	0	62	104	0	59	12777
2026-01-05 13:50:02.92	332.10	8.50	-48.6	-59.3	3.8	8.46e-01	0	62	104	0	59	12764
2026-01-05 13:50:04.05	332.20	8.43	-48.6	-59.3	3.8	8.46e-01	0	62	104	0	59	12752
2026-01-05 13:50:04.89	332.28	8.37	-48.6	-59.3	3.8	8.46e-01	0	62	104	0	59	12753
2026-01-05 13:50:06.02	332.39	8.30	-48.6	-59.3	3.8	8.46e-01	0	62	104	0	59	12798
2026-01-05 13:50:06.87	332.47	8.24	-48.6	-59.3	3.8	8.46e-01	0	62	104	0	59	12753
2026-01-05 13:50:07.99	332.57	8.16	-48.6	-59.3	3.8	8.46e-01	0	62	104	0	59	12784
2026-01-05 13:50:08.84	332.65	8.11	-48.6	-59.3	3.8	8.46e-01	0	62	104	0	59	12773
2026-01-05 13:50:09.96	332.76	8.03	-48.6	-59.3	3.8	8.46e-01	0	62	104	0	59	12771
2026-01-05 13:50:10.80	332.83	7.98	-48.6	-59.3	3.8	8.47e-01	0	62	104	0	59	12762
2026-01-05 13:50:11.92	332.94	7.90	-48.6	-59.3	3.8	8.45e-01	0	62	104	0	59	12748
2026-01-05 13:50:12.77	333.01	7.84	-48.6	-59.3	3.8	8.47e-01	0	62	104	0	59	12761
2026-01-05 13:50:13.90	333.12	7.77	-48.6	-59.3	3.8	8.46e-01	0	62	104	0	59	12737
2026-01-05 13:50:14.74	333.19	7.71	-48.6	-59.3	3.8	8.47e-01	0	62	104	0	59	12756
2026-01-05 13:50:15.87	333.30	7.64	-48.6	-59.3	3.8	8.46e-01	0	62	104	0	59	12783
2026-01-05 13:50:16.71	333.37	7.58	-48.6	-59.3	3.8	8.46e-01	0	62	104	0	59	12749
2026-01-05 13:50:17.83	333.47	7.51	-48.6	-59.3	3.8	8.46e-01	0	62	104	0	59	12708
2026-01-05 13:50:18.68	333.55	7.45	-48.6	-59.3	3.8	8.45e-01	0	62	104	0	59	12732
2026-01-05 13:50:19.81	333.65	7.38	-48.6	-59.3	3.8	8.46e-01	0	62	104	0	59	12756
2026-01-05 13:50:20.66	333.72	7.32	-48.6	-59.3	3.8	8.46e-01	0	62	104	0	59	12756
2026-01-05 13:50:21.78	333.82	7.25	-48.6	-59.3	3.8	8.45e-01	0	62	104	0	59	12751
2026-01-05 13:50:22.63	333.90	7.20	-48.6	-59.3	3.8	8.46e-01	0	62	104	0	59	12782
2026-01-05 13:50:23.76	333.99	7.12	-48.6	-59.4	3.8	8.46e-01	0	62	104	0	59	12822
2026-01-05 13:50:24.60	334.07	7.07	-48.6	-59.3	3.8	8.47e-01	0	62	104	0	59	12737
2026-01-05 13:50:25.72	334.16	6.99	-48.6	-59.3	3.8	8.46e-01	0	62	104	0	59	12778
2026-01-05 13:50:26.57	334.24	6.94	-48.6	-59.3	3.8	8.46e-01	0	62	104	0	59	12707
2026-01-05 13:50:27.69	334.33	6.87	-48.6	-59.3	3.8	8.46e-01	0	62	104	0	59	12792
2026-01-05 13:50:28.54	334.41	6.81	-48.6	-59.3	3.8	8.45e-01	0	62	104	0	59	12745
2026-01-05 13:50:29.66	334.50	6.74	-48.6	-59.3	3.8	8.46e-01	0	62	104	0	59	12761
2026-01-05 13:50:30.51	334.57	6.68	-48.6	-59.3	3.8	8.46e-01	0	62	104	0	59	12787
2026-01-05 13:50:31.64	334.67	6.61	-48.6	-59.3	3.8	8.47e-01	0	62	104	0	59	12747
2026-01-05 13:50:32.48	334.74	6.56	-48.6	-59.3	3.8	8.46e-01	0	62	104	0	59	12773
2026-01-05 13:50:33.61	334.83	6.49	-48.6	-59.3	3.8	8.46e-01	0	62	104	0	59	12763
2026-01-05 13:50:34.45	334.90	6.43	-48.6	-59.3	3.8	8.47e-01	0	62	104	0	59	12746
2026-01-05 13:50:35.58	335.00	6.36	-48.6	-59.3	3.8	8.46e-01	0	62	104	0	59	12800
2026-01-05 13:50:36.42	335.07	6.31	-48.6	-59.3	3.8	8.46e-01	0	62	104	0	59	12770
2026-01-05 13:50:37.55	335.16	6.23	-48.6	-59.3	3.8	8.46e-01	0	62	104	0	59	12780
2026-01-05 13:50:38.39	335.23	6.18	-48.6	-59.3	3.8	8.46e-01	0	62	104	0	59	12729
2026-01-05 13:50:39.52	335.32	6.11	-48.6	-59.3	3.8	8.46e-01	0	62	104	0	59	12735
2026-01-05 13:50:40.37	335.39	6.06	-48.6	-59.3	3.8	8.46e-01	0	62	104	0	59	12716
2026-01-05 13:50:41.50	335.48	5.98	-48.5	-59.3	3.8	8.46e-01	0	62	104	0	59	12762
2026-01-05 13:50:42.34	335.55	5.93	-48.6	-59.3	3.8	8.47e-01	0	62	104	0	59	12769
2026-01-05 13:50:43.47	335.64	5.86	-48.6	-59.3	3.8	8.46e-01	0	62	104	0	59	12759
2026-01-05 13:50:44.31	335.71	5.81	-48.6	-59.3	3.8	8.47e-01	0	62	104	0	59	12787
2026-01-05 13:50:45.44	335.80	5.74	-48.6	-59.3	3.8	8.46e-01	0	62	104	0	59	12722
2026-01-05 13:50:46.28	335.86	5.68	-48.6	-59.3	3.8	8.46e-01	0	62	104	0	59	12804
2026-01-05 13:50:47.41	335.95	5.61	-48.6	-59.3	3.8	8.45e-01	0	62	104	0	59	12756
2026-01-05 13:50:48.25	336.02	5.56	-48.6	-59.3	3.8	8.45e-01	0	62	104	0	59	12760
2026-01-05 13:50:49.38	336.11	5.49	-48.6	-59.3	3.8	8.46e-01	0	62	104	0	59	12772
2026-01-05 13:50:50.22	336.17	5.44	-48.6	-59.3	3.8	8.47e-01	0	62	104	0	59	12774
2026-01-05 13:50:51.35	336.26	5.37	-48.6	-59.3	3.8	8.47e-01	0	62	104	0	59	12767
2026-01-05 13:50:52.19	336.33	5.32	-48.6	-59.3	3.8	8.46e-01	0	62	104	0	59	12803
