passes_logs/2026/01/05/R3.0SM8_Murmansk_STILSPACE/R3.0SM8_Murmansk_STILSPACE__20260105_084631_FENGYUN_3E_rec.log

#Pass ID: 20260105_084631_FENGYUN 3E
#Satellite: FENGYUN 3E
#Configuration: FENGYUN 3E
#almurnet v.1.7.20240730
#Start time: 2026-01-05 08:50:59

#Version: 2.2.20231116
#Station: R3.0SM8_Murmansk_STILSPACE
#Location: 33.092731 lon 68.902999 lat
#TLE: 1 49008U 21062A   26004.29457719  .00000106  00000+0  70678-4 0  9996
#TLE: 2 49008  98.7471   9.5487 0001503 159.9821 200.1414 14.19883545233329

#Time	Az	El	Level	Level2	SNR	BER	BlckErr	Temp	State	Recorded	gain1	gain2
2026-01-05 08:50:59.16	16.34	20.87	-52.5	-63.4	3.8	8.45e-01	0	56	0	0	67	12847
2026-01-05 08:51:00.14	16.11	20.93	-52.6	-62.9	3.8	8.46e-01	0	57	104	0	68	11328
2026-01-05 08:51:01.12	15.88	20.99	-52.7	-62.8	3.8	8.46e-01	0	57	104	0	68	11280
2026-01-05 08:51:02.11	15.65	21.05	-52.6	-62.9	3.8	8.46e-01	0	57	104	0	68	11327
2026-01-05 08:51:03.10	15.42	21.10	-52.7	-62.9	3.8	8.45e-01	0	57	104	0	68	11345
2026-01-05 08:51:04.09	15.19	21.16	-52.5	-62.9	3.8	8.45e-01	0	57	104	0	68	11353
2026-01-05 08:51:05.08	14.96	21.22	-52.6	-62.8	3.8	8.46e-01	0	57	104	0	67	11890
2026-01-05 08:51:06.06	14.72	21.27	-52.6	-62.7	3.8	8.46e-01	0	57	104	0	67	11727
2026-01-05 08:51:07.04	14.49	21.33	-52.5	-62.8	3.8	8.46e-01	0	57	104	0	67	11826
2026-01-05 08:51:08.03	14.26	21.38	-52.3	-62.4	3.8	8.46e-01	0	57	104	0	67	11332
2026-01-05 08:51:09.02	14.02	21.43	-52.5	-62.7	3.8	8.46e-01	0	57	104	0	67	11777
2026-01-05 08:51:10.02	13.78	21.49	-52.5	-62.7	3.8	8.45e-01	0	57	104	0	67	11786
2026-01-05 08:51:11.01	13.54	21.54	-52.5	-62.7	3.8	8.45e-01	0	57	104	0	67	11816
2026-01-05 08:51:12.00	13.30	21.60	-52.5	-62.7	3.8	8.46e-01	0	57	104	0	67	11812
2026-01-05 08:51:12.99	13.06	21.65	-52.6	-62.7	3.8	8.46e-01	0	57	104	0	67	11736
2026-01-05 08:51:13.98	12.82	21.70	-52.6	-62.7	3.8	8.47e-01	0	57	104	0	67	11792
2026-01-05 08:51:14.97	12.58	21.75	-52.5	-62.6	3.8	8.45e-01	0	57	104	0	67	11671
2026-01-05 08:51:15.95	12.34	21.81	-52.5	-62.5	3.8	8.46e-01	0	57	104	0	67	11526
2026-01-05 08:51:16.94	12.09	21.86	-52.5	-62.6	3.8	8.46e-01	0	57	104	0	67	11611
2026-01-05 08:51:17.93	11.85	21.91	-52.4	-62.6	3.8	8.45e-01	0	57	104	0	67	11622
2026-01-05 08:51:18.92	11.61	21.96	-52.3	-62.6	3.8	8.46e-01	0	57	104	0	67	11556
2026-01-05 08:51:19.91	11.36	22.01	-52.4	-62.5	3.8	8.46e-01	0	57	104	0	67	11482
2026-01-05 08:51:20.90	11.11	22.06	-52.2	-62.2	3.8	8.47e-01	0	57	104	0	67	11101
2026-01-05 08:51:21.88	10.87	22.10	-51.8	-61.8	3.8	8.46e-01	0	57	104	0	66	11239
2026-01-05 08:51:22.88	10.62	22.15	-51.8	-61.9	3.8	8.47e-01	0	57	104	0	66	11299
2026-01-05 08:51:23.86	10.37	22.20	-51.8	-61.8	3.8	8.45e-01	0	57	104	0	66	11188
2026-01-05 08:51:24.85	10.12	22.25	-51.7	-61.5	3.8	8.46e-01	0	57	104	0	66	10829
2026-01-05 08:51:25.84	9.87	22.30	-51.7	-61.3	3.8	8.46e-01	0	57	104	0	66	10534
2026-01-05 08:51:26.83	9.62	22.34	-51.6	-60.9	3.8	8.45e-01	0	57	104	0	66	10140
2026-01-05 08:51:27.82	9.37	22.39	-51.6	-60.7	3.8	8.46e-01	0	57	104	0	66	9928
2026-01-05 08:51:28.80	9.12	22.43	-51.7	-61.4	3.8	8.47e-01	0	57	104	0	66	10746
2026-01-05 08:51:29.79	8.86	22.48	-51.8	-61.9	3.8	8.47e-01	0	57	104	0	66	11368
2026-01-05 08:51:30.78	8.61	22.52	-51.7	-61.7	3.8	8.46e-01	0	57	104	0	66	11088
2026-01-05 08:51:31.77	8.36	22.57	-51.7	-61.4	3.8	8.46e-01	0	57	104	0	66	10708
2026-01-05 08:51:32.77	8.10	22.61	-51.6	-60.9	3.8	8.46e-01	0	57	104	0	66	10145
2026-01-05 08:51:33.76	7.84	22.65	-51.7	-61.6	3.8	8.46e-01	0	57	104	0	66	10958
2026-01-05 08:51:34.75	7.58	22.69	-51.7	-62.0	3.8	8.46e-01	0	57	104	0	66	11436
2026-01-05 08:51:35.75	7.32	22.74	-51.7	-61.7	3.8	8.46e-01	0	57	104	0	66	11043
2026-01-05 08:51:36.74	7.07	22.78	-51.5	-60.5	3.8	8.46e-01	0	57	104	0	65	10287
2026-01-05 08:51:37.73	6.81	22.82	-51.6	-61.8	3.8	8.47e-01	0	57	104	0	65	11849
2026-01-05 08:51:38.73	6.54	22.86	-51.4	-59.9	3.8	8.46e-01	0	57	104	0	65	9509
2026-01-05 08:51:39.71	6.29	22.90	-51.6	-61.3	3.8	8.46e-01	0	57	104	0	65	11269
2026-01-05 08:51:40.71	6.02	22.94	-51.6	-61.0	3.8	8.46e-01	0	57	104	0	65	10826
2026-01-05 08:51:41.69	5.76	22.97	-51.6	-61.2	3.8	8.45e-01	0	57	104	0	65	11070
2026-01-05 08:51:42.69	5.50	23.01	-51.7	-61.8	3.8	8.46e-01	0	57	104	0	65	11826
2026-01-05 08:51:43.67	5.24	23.05	-51.6	-61.6	3.8	8.46e-01	0	57	104	0	65	11610
2026-01-05 08:51:44.67	4.97	23.09	-51.6	-61.4	3.8	8.46e-01	0	57	104	0	65	11349
2026-01-05 08:51:45.66	4.71	23.12	-51.4	-60.6	3.8	8.45e-01	0	57	104	0	65	10372
2026-01-05 08:51:46.66	4.44	23.16	-51.5	-60.3	3.8	8.45e-01	0	57	104	0	65	10023
2026-01-05 08:51:47.65	4.17	23.19	-51.3	-59.3	3.9	8.44e-01	0	57	104	0	65	8883
2026-01-05 08:51:48.64	3.91	23.22	-50.7	-56.3	5.0	8.18e-01	0	57	0	0	64	6712
2026-01-05 08:51:49.63	3.64	23.26	-49.2	-52.4	8.4	7.71e-02	0	57	0	5242880	61	5055
2026-01-05 08:51:50.62	3.37	23.29	-47.6	-49.6	11.4	2.55e-03	0	57	0	12582912	58	4344
2026-01-05 08:51:51.62	3.10	23.32	-45.8	-47.2	13.7	3.89e-05	0	57	0	18874368	54	4150
2026-01-05 08:51:52.61	2.83	23.35	-44.6	-45.6	15.5	0.00e+00	0	57	0	26214400	51	4133
2026-01-05 08:51:53.60	2.57	23.39	-44.0	-44.9	16.2	0.00e+00	0	57	0	33554432	50	4036
2026-01-05 08:51:54.60	2.29	23.42	-43.7	-44.5	16.9	0.00e+00	0	57	0	40894464	50	3844
2026-01-05 08:51:55.59	2.02	23.45	-43.6	-44.4	17.0	0.00e+00	0	57	0	48234496	50	3790
2026-01-05 08:51:56.57	1.76	23.47	-43.5	-44.2	17.2	0.00e+00	0	57	0	55574528	49	3951
2026-01-05 08:51:57.55	1.49	23.50	-43.4	-44.1	17.3	0.00e+00	0	57	0	61865984	49	3909
2026-01-05 08:51:58.54	1.22	23.53	-43.4	-44.1	17.3	0.00e+00	0	57	0	69206016	49	3906
2026-01-05 08:51:59.53	0.94	23.56	-43.6	-44.4	17.2	0.00e+00	0	57	0	76546048	49	4025
2026-01-05 08:52:00.51	0.67	23.58	-43.7	-44.5	16.9	0.00e+00	0	57	0	83886080	49	4067
2026-01-05 08:52:01.50	0.40	23.61	-43.1	-43.8	17.6	0.00e+00	0	57	0	90177536	49	3769
2026-01-05 08:52:02.50	0.13	23.63	-42.6	-43.2	18.3	0.00e+00	0	57	0	97517568	48	3728
2026-01-05 08:52:03.49	359.85	23.66	-42.1	-42.8	18.5	0.00e+00	0	57	0	104857600	47	3756
2026-01-05 08:52:04.48	359.58	23.68	-41.7	-42.3	19.1	0.00e+00	0	57	0	112197632	46	3754
2026-01-05 08:52:05.47	359.30	23.70	-41.3	-41.9	19.4	0.00e+00	0	57	0	119537664	45	3795
2026-01-05 08:52:06.46	359.03	23.72	-41.0	-41.6	19.7	0.00e+00	0	57	0	125829120	44	3884
2026-01-05 08:52:07.45	358.75	23.75	-40.8	-41.3	20.0	0.00e+00	0	57	0	133169152	44	3749
2026-01-05 08:52:08.44	358.48	23.77	-40.5	-41.0	20.1	0.00e+00	0	57	0	140509184	43	3832
2026-01-05 08:52:09.42	358.20	23.79	-40.3	-40.7	20.3	0.00e+00	0	57	0	147849216	43	3725
2026-01-05 08:52:10.41	357.93	23.80	-40.4	-40.9	20.2	0.00e+00	0	57	0	155189248	43	3786
2026-01-05 08:52:11.39	357.65	23.82	-40.3	-40.9	20.3	0.00e+00	0	57	0	161480704	43	3781
2026-01-05 08:52:12.39	357.37	23.84	-40.2	-40.7	20.3	0.00e+00	0	57	0	168820736	43	3708
2026-01-05 08:52:13.37	357.10	23.86	-40.3	-40.8	20.5	0.00e+00	0	57	0	176160768	42	3959
2026-01-05 08:52:14.36	356.82	23.87	-40.2	-40.7	20.4	0.00e+00	0	57	0	183500800	42	3932
2026-01-05 08:52:15.35	356.54	23.89	-40.2	-40.7	20.3	0.00e+00	0	57	0	190840832	42	3950
2026-01-05 08:52:16.34	356.27	23.91	-40.1	-40.6	20.6	0.00e+00	0	57	0	197132288	42	3900
2026-01-05 08:52:17.33	355.99	23.92	-40.0	-40.5	20.5	0.00e+00	0	57	0	204472320	42	3856
2026-01-05 08:52:18.31	355.71	23.93	-40.1	-40.6	20.6	0.00e+00	0	57	0	211812352	42	3903
2026-01-05 08:52:19.30	355.43	23.95	-40.0	-40.4	20.6	0.00e+00	0	57	0	219152384	42	3817
2026-01-05 08:52:20.31	355.15	23.96	-40.2	-40.7	20.5	0.00e+00	0	57	0	226492416	42	3948
2026-01-05 08:52:21.29	354.87	23.97	-40.2	-40.7	20.4	0.00e+00	0	57	0	233832448	42	3916
2026-01-05 08:52:22.29	354.59	23.98	-40.4	-40.9	20.2	0.00e+00	0	57	0	240123904	42	4034
2026-01-05 08:52:23.28	354.31	23.99	-40.4	-40.9	20.2	0.00e+00	0	57	0	247463936	42	4014
2026-01-05 08:52:24.28	354.03	24.00	-40.4	-40.9	20.2	0.00e+00	0	57	0	254803968	42	4020
2026-01-05 08:52:25.26	353.75	24.01	-40.5	-41.0	20.1	0.00e+00	0	57	0	262144000	42	4086
2026-01-05 08:52:26.25	353.47	24.01	-40.7	-41.3	19.9	0.00e+00	0	57	0	269484032	43	3961
2026-01-05 08:52:27.24	353.19	24.02	-40.5	-41.0	20.0	0.00e+00	0	57	0	276824064	43	3867
2026-01-05 08:52:28.23	352.91	24.03	-40.8	-41.3	19.9	0.00e+00	0	57	0	283115520	43	3991
2026-01-05 08:52:29.22	352.63	24.03	-40.7	-41.3	19.9	0.00e+00	0	57	0	290455552	43	3972
2026-01-05 08:52:30.20	352.35	24.04	-40.5	-41.0	20.0	0.00e+00	0	57	0	297795584	43	3859
2026-01-05 08:52:31.20	352.07	24.04	-40.4	-40.9	20.3	0.00e+00	0	57	0	305135616	43	3815
2026-01-05 08:52:32.19	351.78	24.04	-40.6	-41.2	20.0	0.00e+00	0	57	0	312475648	43	3923
2026-01-05 08:52:33.19	351.50	24.05	-40.8	-41.3	19.8	0.00e+00	0	57	0	318767104	43	3998
2026-01-05 08:52:34.18	351.22	24.05	-40.5	-41.0	20.1	0.00e+00	0	57	0	326107136	43	3826
2026-01-05 08:52:35.17	350.94	24.05	-40.9	-41.4	19.7	0.00e+00	0	57	0	333447168	43	4041
2026-01-05 08:52:36.16	350.66	24.05	-41.0	-41.6	19.6	0.00e+00	0	57	0	340787200	43	4101
2026-01-05 08:52:37.15	350.38	24.05	-40.8	-41.3	19.9	0.00e+00	0	57	0	348127232	43	3994
2026-01-05 08:52:38.15	350.09	24.05	-40.4	-40.9	20.1	0.00e+00	0	57	0	355467264	43	3806
2026-01-05 08:52:39.13	349.81	24.04	-40.3	-40.8	20.4	0.00e+00	0	57	0	361758720	43	3759
2026-01-05 08:52:40.12	349.53	24.04	-40.4	-40.9	20.2	0.00e+00	0	57	0	369098752	43	3798
2026-01-05 08:52:41.11	349.25	24.04	-40.3	-40.8	20.3	0.00e+00	0	57	0	376438784	43	3759
2026-01-05 08:52:42.10	348.97	24.03	-40.7	-41.2	19.9	0.00e+00	0	57	0	383778816	43	3940
2026-01-05 08:52:43.10	348.69	24.03	-40.3	-40.8	20.2	0.00e+00	0	57	0	391118848	43	3766
2026-01-05 08:52:44.08	348.41	24.02	-40.7	-41.2	19.9	0.00e+00	0	57	0	398458880	43	3955
2026-01-05 08:52:45.07	348.13	24.02	-41.3	-41.8	19.3	0.00e+00	0	57	0	404750336	44	3988
2026-01-05 08:52:46.05	347.85	24.01	-40.9	-41.4	19.8	0.00e+00	0	57	0	412090368	44	3823
2026-01-05 08:52:47.04	347.57	24.00	-40.6	-41.1	20.1	0.00e+00	0	58	0	419430400	44	3664
2026-01-05 08:52:48.03	347.29	23.99	-40.3	-40.8	20.3	0.00e+00	0	57	0	426770432	43	3760
2026-01-05 08:52:49.01	347.02	23.98	-40.2	-40.7	20.4	0.00e+00	0	57	0	434110464	43	3717
2026-01-05 08:52:50.01	346.73	23.97	-40.3	-40.8	20.3	0.00e+00	0	57	0	440401920	43	3768
2026-01-05 08:52:51.00	346.45	23.96	-40.3	-40.8	20.3	0.00e+00	0	57	0	447741952	43	3764
2026-01-05 08:52:51.99	346.17	23.95	-40.2	-40.7	20.4	0.00e+00	0	57	0	455081984	43	3729
2026-01-05 08:52:52.98	345.90	23.94	-40.2	-40.7	20.4	0.00e+00	0	57	0	462422016	43	3720
2026-01-05 08:52:53.97	345.62	23.92	-40.2	-40.7	20.3	0.00e+00	0	57	0	469762048	43	3729
2026-01-05 08:52:54.96	345.34	23.91	-40.3	-40.8	20.3	0.00e+00	0	57	0	477102080	43	3738
2026-01-05 08:52:55.96	345.06	23.89	-40.4	-40.9	20.2	0.00e+00	0	57	0	483393536	43	3803
2026-01-05 08:52:56.95	344.78	23.88	-40.4	-40.9	20.3	0.00e+00	0	57	0	490733568	43	3817
2026-01-05 08:52:57.94	344.50	23.86	-40.5	-41.0	20.1	0.00e+00	0	57	0	498073600	43	3840
2026-01-05 08:52:58.93	344.22	23.85	-40.6	-41.1	20.0	0.00e+00	0	58	0	505413632	43	3882
2026-01-05 08:52:59.92	343.95	23.83	-40.9	-41.4	19.7	0.00e+00	0	57	0	512753664	43	4026
2026-01-05 08:53:00.91	343.67	23.81	-40.6	-41.2	20.0	0.00e+00	0	57	0	520093696	43	3917
2026-01-05 08:53:01.91	343.39	23.79	-40.4	-41.0	20.2	0.00e+00	0	57	0	526385152	43	3827
2026-01-05 08:53:02.90	343.11	23.77	-40.4	-40.9	20.2	0.00e+00	0	57	0	533725184	43	3816
2026-01-05 08:53:03.88	342.84	23.75	-40.5	-41.0	20.1	0.00e+00	0	57	0	541065216	43	3829
2026-01-05 08:53:04.87	342.57	23.73	-40.6	-41.1	20.0	0.00e+00	0	57	0	548405248	43	3887
2026-01-05 08:53:05.87	342.29	23.71	-40.9	-41.4	19.7	0.00e+00	0	57	0	555745280	43	4044
2026-01-05 08:53:06.86	342.01	23.68	-40.6	-41.1	20.0	0.00e+00	0	57	0	562036736	43	3880
2026-01-05 08:53:07.85	341.74	23.66	-40.3	-40.8	20.3	0.00e+00	0	57	0	569376768	43	3766
2026-01-05 08:53:08.82	341.47	23.64	-40.1	-40.6	20.4	0.00e+00	0	57	0	576716800	43	3678
2026-01-05 08:53:09.82	341.19	23.61	-40.0	-40.5	20.6	0.00e+00	0	57	0	584056832	43	3626
2026-01-05 08:53:10.80	340.92	23.59	-40.1	-40.6	20.5	0.00e+00	0	57	0	590348288	43	3664
2026-01-05 08:53:11.79	340.65	23.56	-40.2	-40.7	20.4	0.00e+00	0	57	0	597688320	43	3730
2026-01-05 08:53:12.79	340.38	23.54	-40.3	-40.8	20.3	0.00e+00	0	57	0	605028352	43	3761
2026-01-05 08:53:13.77	340.11	23.51	-40.1	-40.6	20.4	0.00e+00	0	57	0	612368384	43	3685
2026-01-05 08:53:14.75	339.84	23.48	-40.1	-40.6	20.5	0.00e+00	0	57	0	619708416	43	3662
2026-01-05 08:53:15.74	339.57	23.45	-40.1	-40.5	20.5	0.00e+00	0	57	0	625999872	42	3862
2026-01-05 08:53:16.73	339.30	23.42	-40.1	-40.6	20.5	0.00e+00	0	57	0	633339904	42	3889
2026-01-05 08:53:17.72	339.03	23.39	-40.1	-40.6	20.5	0.00e+00	0	57	0	640679936	42	3883
2026-01-05 08:53:18.70	338.76	23.36	-40.2	-40.6	20.4	0.00e+00	0	57	0	648019968	42	3910
2026-01-05 08:53:19.68	338.50	23.33	-40.1	-40.6	20.5	0.00e+00	0	57	0	655360000	42	3903
2026-01-05 08:53:20.67	338.23	23.30	-40.1	-40.6	20.5	0.00e+00	0	57	0	661651456	42	3872
2026-01-05 08:53:21.66	337.96	23.27	-39.9	-40.4	20.7	0.00e+00	0	57	0	668991488	42	3806
2026-01-05 08:53:22.65	337.69	23.23	-40.0	-40.5	20.6	0.00e+00	0	57	0	676331520	42	3826
2026-01-05 08:53:23.63	337.43	23.20	-40.2	-40.6	20.4	0.00e+00	0	57	0	683671552	42	3912
2026-01-05 08:53:24.62	337.16	23.17	-40.4	-40.9	20.2	0.00e+00	0	58	0	691011584	42	4020
2026-01-05 08:53:25.61	336.90	23.13	-40.3	-40.8	20.3	0.00e+00	0	57	0	697303040	42	3980
2026-01-05 08:53:26.60	336.63	23.10	-40.2	-40.7	20.4	0.00e+00	0	57	0	704643072	42	3935
2026-01-05 08:53:27.58	336.37	23.06	-40.1	-40.6	20.5	0.00e+00	0	57	0	711983104	42	3880
2026-01-05 08:53:28.55	336.11	23.02	-40.1	-40.6	20.4	0.00e+00	0	57	0	719323136	42	3900
2026-01-05 08:53:29.54	335.85	22.99	-40.3	-40.8	20.3	0.00e+00	0	57	0	725614592	42	3969
2026-01-05 08:53:30.53	335.59	22.95	-40.5	-41.0	20.0	0.00e+00	0	57	0	732954624	42	4090
2026-01-05 08:53:31.52	335.33	22.91	-40.9	-41.4	19.6	0.00e+00	0	57	0	740294656	43	4034
2026-01-05 08:53:32.51	335.07	22.87	-41.1	-41.7	19.3	0.00e+00	0	57	0	747634688	43	4165
2026-01-05 08:53:33.49	334.81	22.83	-41.4	-42.0	19.1	0.00e+00	0	57	0	754974720	44	4063
2026-01-05 08:53:34.48	334.55	22.79	-41.4	-41.9	19.0	0.00e+00	0	57	0	761266176	44	4051
2026-01-05 08:53:35.47	334.29	22.75	-41.4	-41.9	19.1	0.00e+00	0	57	0	768606208	44	4050
2026-01-05 08:53:36.46	334.03	22.71	-40.9	-41.5	19.6	0.00e+00	0	57	0	775946240	44	3842
2026-01-05 08:53:37.46	333.77	22.67	-40.9	-41.4	19.8	0.00e+00	0	57	0	783286272	44	3801
2026-01-05 08:53:38.45	333.52	22.62	-40.7	-41.2	20.0	0.00e+00	0	58	0	790626304	44	3717
2026-01-05 08:53:39.44	333.26	22.58	-40.6	-41.1	20.1	0.00e+00	0	57	0	797966336	44	3679
2026-01-05 08:53:40.43	333.00	22.54	-40.6	-41.1	20.2	0.00e+00	0	57	0	804257792	44	3662
2026-01-05 08:53:41.42	332.75	22.49	-40.3	-40.8	20.3	0.00e+00	0	57	0	811597824	43	3768
2026-01-05 08:53:42.42	332.49	22.45	-40.5	-41.0	20.2	0.00e+00	0	57	0	818937856	43	3837
2026-01-05 08:53:43.40	332.24	22.40	-40.6	-41.1	20.1	0.00e+00	0	58	0	826277888	43	3887
2026-01-05 08:53:44.39	331.99	22.36	-40.6	-41.1	20.1	0.00e+00	0	57	0	833617920	43	3893
2026-01-05 08:53:45.38	331.74	22.31	-40.6	-41.1	20.0	0.00e+00	0	57	0	840957952	43	3901
2026-01-05 08:53:46.37	331.49	22.26	-40.3	-40.8	20.3	0.00e+00	0	57	0	847249408	43	3763
2026-01-05 08:53:47.36	331.24	22.22	-40.2	-40.7	20.4	0.00e+00	0	57	0	854589440	43	3714
2026-01-05 08:53:48.35	330.99	22.17	-40.2	-40.7	20.5	0.00e+00	0	57	0	861929472	43	3713
2026-01-05 08:53:49.34	330.74	22.12	-40.2	-40.7	20.4	0.00e+00	0	57	0	869269504	43	3725
2026-01-05 08:53:50.33	330.49	22.07	-40.3	-40.8	20.4	0.00e+00	0	57	0	876609536	43	3757
2026-01-05 08:53:51.32	330.25	22.02	-40.5	-41.1	20.1	0.00e+00	0	57	0	882900992	43	3876
2026-01-05 08:53:52.31	330.00	21.97	-40.6	-41.1	20.0	0.00e+00	0	57	0	890241024	43	3888
2026-01-05 08:53:53.29	329.76	21.92	-40.8	-41.3	19.9	0.00e+00	0	57	0	897581056	43	3996
2026-01-05 08:53:54.28	329.51	21.87	-40.7	-41.3	19.9	0.00e+00	0	58	0	904921088	43	3974
2026-01-05 08:53:55.28	329.27	21.82	-40.8	-41.4	19.8	0.00e+00	0	57	0	912261120	43	4027
2026-01-05 08:53:56.27	329.02	21.77	-40.6	-41.1	20.0	0.00e+00	0	58	0	919601152	43	3906
2026-01-05 08:53:57.27	328.78	21.72	-40.5	-41.0	20.1	0.00e+00	0	57	0	925892608	43	3863
2026-01-05 08:53:58.26	328.54	21.66	-40.6	-41.1	20.1	0.00e+00	0	58	0	933232640	43	3876
2026-01-05 08:53:59.24	328.30	21.61	-40.6	-41.1	20.0	0.00e+00	0	57	0	940572672	43	3913
2026-01-05 08:54:00.23	328.06	21.56	-40.4	-40.9	20.3	0.00e+00	0	58	0	947912704	43	3789
2026-01-05 08:54:01.22	327.82	21.51	-40.2	-40.7	20.4	0.00e+00	0	58	0	955252736	43	3731
2026-01-05 08:54:02.22	327.58	21.45	-40.2	-40.7	20.4	0.00e+00	0	57	0	962592768	43	3720
2026-01-05 08:54:03.20	327.34	21.40	-40.2	-40.7	20.4	0.00e+00	0	57	0	968884224	43	3729
2026-01-05 08:54:04.19	327.11	21.34	-40.2	-40.7	20.5	0.00e+00	0	58	0	976224256	43	3706
2026-01-05 08:54:05.18	326.87	21.29	-40.2	-40.7	20.5	0.00e+00	0	58	0	983564288	43	3716
2026-01-05 08:54:06.17	326.64	21.23	-40.4	-40.9	20.2	0.00e+00	0	58	0	990904320	43	3797
2026-01-05 08:54:07.17	326.40	21.17	-40.5	-41.1	20.1	0.00e+00	0	57	0	998244352	43	3872
2026-01-05 08:54:08.16	326.17	21.12	-40.5	-41.0	20.1	0.00e+00	0	57	0	1004535808	43	3844
2026-01-05 08:54:09.15	325.94	21.06	-40.4	-40.9	20.3	0.00e+00	0	57	0	1011875840	43	3786
2026-01-05 08:54:10.14	325.71	21.00	-40.4	-41.0	20.2	0.00e+00	0	57	0	1019215872	43	3829
2026-01-05 08:54:11.13	325.48	20.95	-40.6	-41.1	20.0	0.00e+00	0	57	0	1026555904	43	3901
2026-01-05 08:54:12.12	325.25	20.89	-40.8	-41.4	19.8	0.00e+00	0	57	0	1033895936	43	4005
2026-01-05 08:54:13.11	325.02	20.83	-40.6	-41.1	20.0	0.00e+00	0	58	0	1040187392	43	3902
2026-01-05 08:54:14.10	324.79	20.77	-40.7	-41.2	19.9	0.00e+00	0	58	0	1047527424	43	3946
2026-01-05 08:54:15.10	324.56	20.71	-40.9	-41.4	19.7	0.00e+00	0	58	0	1054867456	43	4044
2026-01-05 08:54:16.09	324.33	20.65	-40.6	-41.1	20.1	0.00e+00	0	58	0	1062207488	43	3895
2026-01-05 08:54:17.08	324.11	20.59	-40.7	-41.2	19.9	0.00e+00	0	58	0	1069547520	43	3939
2026-01-05 08:54:18.07	323.89	20.53	-40.8	-41.3	19.8	0.00e+00	0	58	0	1076887552	43	3975
2026-01-05 08:54:19.07	323.66	20.47	-40.7	-41.2	19.5	0.00e+00	0	57	0	1084227584	43	3931
2026-01-05 08:54:20.06	323.44	20.41	-40.9	-41.4	19.7	0.00e+00	0	58	0	1090519040	43	4044
2026-01-05 08:54:21.05	323.22	20.35	-41.3	-41.9	19.4	0.00e+00	0	57	0	1097859072	44	4030
2026-01-05 08:54:22.05	322.99	20.29	-41.0	-41.6	19.7	0.00e+00	0	57	0	1105199104	44	3882
2026-01-05 08:54:23.04	322.77	20.23	-41.3	-41.8	19.5	0.00e+00	0	58	0	1112539136	44	3994
2026-01-05 08:54:24.03	322.55	20.17	-41.1	-41.6	19.6	0.00e+00	0	57	0	1119879168	44	3903
2026-01-05 08:54:25.02	322.34	20.10	-41.0	-41.6	19.7	0.00e+00	0	57	0	1126170624	44	3872
2026-01-05 08:54:26.01	322.12	20.04	-41.2	-41.8	19.5	0.00e+00	0	58	0	1133510656	44	3962
2026-01-05 08:54:26.99	321.91	19.98	-41.2	-41.7	19.5	0.00e+00	0	58	0	1140850688	44	3955
2026-01-05 08:54:27.97	321.69	19.92	-41.3	-41.8	19.4	0.00e+00	0	57	0	1148190720	44	4004
2026-01-05 08:54:28.96	321.48	19.85	-41.2	-41.7	19.5	0.00e+00	0	57	0	1154482176	44	3947
2026-01-05 08:54:29.95	321.26	19.79	-41.0	-41.6	19.7	0.00e+00	0	57	0	1161822208	44	3870
2026-01-05 08:54:30.94	321.05	19.73	-41.0	-41.5	19.7	0.00e+00	0	57	0	1169162240	44	3861
2026-01-05 08:54:31.94	320.84	19.66	-41.0	-41.5	19.7	0.00e+00	0	57	0	1176502272	44	3857
2026-01-05 08:54:32.93	320.63	19.60	-41.1	-41.6	19.7	0.00e+00	0	58	0	1183842304	44	3900
2026-01-05 08:54:33.92	320.42	19.53	-41.2	-41.8	19.5	0.00e+00	0	58	0	1191182336	44	3967
2026-01-05 08:54:34.91	320.21	19.47	-41.1	-41.6	19.6	0.00e+00	0	58	0	1197473792	44	3902
2026-01-05 08:54:35.90	320.00	19.40	-41.2	-41.8	19.4	0.00e+00	0	58	0	1204813824	44	3984
2026-01-05 08:54:36.88	319.79	19.34	-41.5	-42.1	19.1	0.00e+00	0	58	0	1212153856	44	4121
2026-01-05 08:54:37.88	319.59	19.27	-41.4	-42.0	19.3	0.00e+00	0	58	0	1219493888	44	4056
2026-01-05 08:54:38.87	319.38	19.21	-41.6	-42.2	19.1	0.00e+00	0	57	0	1226833920	44	4159
2026-01-05 08:54:39.85	319.18	19.14	-41.5	-42.0	19.2	0.00e+00	0	57	0	1233125376	45	3862
2026-01-05 08:54:40.84	318.97	19.08	-41.3	-41.9	19.3	0.00e+00	0	58	0	1240465408	45	3803
2026-01-05 08:54:41.83	318.77	19.01	-41.5	-42.1	19.2	0.00e+00	0	58	0	1247805440	45	3869
2026-01-05 08:54:42.82	318.57	18.94	-41.7	-42.3	19.0	0.00e+00	0	57	0	1255145472	45	3974
2026-01-05 08:54:43.81	318.37	18.88	-41.6	-42.2	19.0	0.00e+00	0	57	0	1262485504	45	3944
2026-01-05 08:54:44.79	318.17	18.81	-41.8	-42.4	18.9	0.00e+00	0	58	0	1268776960	45	4006
2026-01-05 08:54:45.79	317.97	18.74	-41.6	-42.2	19.0	0.00e+00	0	58	0	1276116992	45	3955
2026-01-05 08:54:46.78	317.77	18.68	-41.4	-42.0	19.2	0.00e+00	0	57	0	1283457024	45	3850
2026-01-05 08:54:47.76	317.58	18.61	-41.4	-42.0	19.3	0.00e+00	0	57	0	1290797056	45	3839
2026-01-05 08:54:48.75	317.38	18.54	-41.5	-42.0	19.2	0.00e+00	0	58	0	1298137088	45	3862
2026-01-05 08:54:49.75	317.18	18.47	-41.7	-42.3	19.0	0.00e+00	0	57	0	1305477120	45	3963
2026-01-05 08:54:50.74	316.99	18.41	-41.4	-42.0	19.3	0.00e+00	0	57	0	1311768576	45	3841
2026-01-05 08:54:51.73	316.79	18.34	-41.2	-41.7	19.5	0.00e+00	0	58	0	1319108608	45	3731
2026-01-05 08:54:52.73	316.60	18.27	-41.1	-41.7	19.5	0.00e+00	0	57	0	1326448640	45	3699
2026-01-05 08:54:53.71	316.41	18.20	-41.1	-41.6	19.6	0.00e+00	0	57	0	1333788672	45	3682
2026-01-05 08:54:54.70	316.22	18.13	-41.1	-41.6	19.6	0.00e+00	0	58	0	1341128704	45	3679
2026-01-05 08:54:55.69	316.02	18.07	-41.3	-41.8	19.4	0.00e+00	0	58	0	1347420160	45	3769
2026-01-05 08:54:56.67	315.84	18.00	-41.3	-41.8	19.4	0.00e+00	0	58	0	1354760192	45	3775
2026-01-05 08:54:57.67	315.65	17.93	-41.2	-41.8	19.4	0.00e+00	0	58	0	1362100224	45	3751
2026-01-05 08:54:58.66	315.46	17.86	-41.3	-41.9	19.3	0.00e+00	0	58	0	1369440256	45	3782
2026-01-05 08:54:59.65	315.27	17.79	-41.3	-41.9	19.3	0.00e+00	0	58	0	1376780288	45	3795
2026-01-05 08:55:00.64	315.09	17.72	-41.4	-41.9	19.2	0.00e+00	0	58	0	1384120320	45	3822
2026-01-05 08:55:01.62	314.90	17.65	-41.5	-42.1	19.1	0.00e+00	0	57	0	1390411776	45	3883
2026-01-05 08:55:02.62	314.72	17.58	-41.5	-42.1	19.1	0.00e+00	0	58	0	1397751808	45	3904
2026-01-05 08:55:03.61	314.53	17.51	-41.6	-42.2	19.0	0.00e+00	0	58	0	1405091840	45	3922
2026-01-05 08:55:04.60	314.35	17.44	-41.5	-42.1	19.1	0.00e+00	0	58	0	1412431872	45	3880
2026-01-05 08:55:05.60	314.17	17.37	-41.4	-42.0	19.3	0.00e+00	0	58	0	1419771904	45	3833
2026-01-05 08:55:06.59	313.99	17.30	-41.4	-42.0	19.2	0.00e+00	0	58	0	1427111936	45	3833
2026-01-05 08:55:07.58	313.81	17.23	-41.4	-42.0	19.2	0.00e+00	0	58	0	1433403392	45	3856
2026-01-05 08:55:08.57	313.63	17.16	-41.8	-42.4	18.9	0.00e+00	0	58	0	1440743424	45	4015
2026-01-05 08:55:09.55	313.45	17.09	-41.9	-42.5	18.7	0.00e+00	0	58	0	1448083456	45	4078
2026-01-05 08:55:10.54	313.27	17.02	-42.0	-42.6	18.6	0.00e+00	0	57	0	1455423488	45	4113
2026-01-05 08:55:11.53	313.09	16.95	-42.1	-42.7	18.5	0.00e+00	0	58	0	1462763520	45	4189
2026-01-05 08:55:12.53	312.92	16.88	-42.1	-42.8	18.4	0.00e+00	0	58	0	1469054976	45	4210
2026-01-05 08:55:13.52	312.74	16.81	-42.2	-42.9	18.4	0.00e+00	0	57	0	1476395008	46	4011
2026-01-05 08:55:14.51	312.57	16.74	-42.2	-42.9	18.3	0.00e+00	0	58	0	1483735040	46	4020
2026-01-05 08:55:15.51	312.39	16.67	-42.3	-42.9	18.3	0.00e+00	0	58	0	1491075072	46	4027
2026-01-05 08:55:16.50	312.22	16.60	-42.1	-42.7	18.5	0.00e+00	0	58	0	1498415104	46	3929
2026-01-05 08:55:17.49	312.05	16.53	-42.1	-42.8	18.4	0.00e+00	0	58	0	1505755136	46	3965
2026-01-05 08:55:18.48	311.88	16.46	-42.3	-42.9	18.3	0.00e+00	0	58	0	1512046592	46	4044
2026-01-05 08:55:19.47	311.71	16.39	-42.4	-43.1	18.2	0.00e+00	0	58	0	1519386624	46	4111
2026-01-05 08:55:20.46	311.54	16.32	-42.4	-43.1	18.1	0.00e+00	0	58	0	1526726656	46	4131
2026-01-05 08:55:21.45	311.37	16.25	-42.6	-43.3	18.0	0.00e+00	0	58	0	1534066688	46	4210
2026-01-05 08:55:22.44	311.20	16.17	-42.6	-43.3	18.0	0.00e+00	0	58	0	1541406720	46	4204
2026-01-05 08:55:23.43	311.03	16.10	-42.6	-43.2	18.0	0.00e+00	0	58	0	1548746752	47	3953
2026-01-05 08:55:24.41	310.87	16.03	-42.3	-42.9	18.3	0.00e+00	0	58	0	1555038208	47	3823
2026-01-05 08:55:25.40	310.70	15.96	-42.1	-42.7	18.5	0.00e+00	0	58	0	1562378240	47	3710
2026-01-05 08:55:26.40	310.54	15.89	-41.9	-42.6	18.7	0.00e+00	0	58	0	1569718272	46	3875
2026-01-05 08:55:27.38	310.38	15.82	-41.9	-42.5	18.7	0.00e+00	0	58	0	1577058304	46	3860
2026-01-05 08:55:28.35	310.22	15.75	-41.9	-42.5	18.7	0.00e+00	0	58	0	1583349760	46	3837
2026-01-05 08:55:29.34	310.05	15.68	-41.8	-42.4	18.8	0.00e+00	0	58	0	1590689792	46	3786
2026-01-05 08:55:30.34	309.89	15.61	-41.8	-42.5	18.7	0.00e+00	0	58	0	1598029824	46	3833
2026-01-05 08:55:31.32	309.73	15.54	-41.9	-42.6	18.6	0.00e+00	0	58	0	1605369856	46	3882
2026-01-05 08:55:32.31	309.57	15.46	-41.9	-42.5	18.7	0.00e+00	0	57	0	1611661312	46	3861
2026-01-05 08:55:33.29	309.42	15.39	-42.0	-42.6	18.6	0.00e+00	0	58	0	1619001344	46	3889
2026-01-05 08:55:34.28	309.26	15.32	-42.1	-42.8	18.4	0.00e+00	0	58	0	1626341376	46	3966
2026-01-05 08:55:35.26	309.10	15.25	-42.1	-42.7	18.5	0.00e+00	0	58	0	1633681408	46	3949
2026-01-05 08:55:36.25	308.94	15.18	-42.1	-42.8	18.4	0.00e+00	0	58	0	1641021440	46	3984
2026-01-05 08:55:37.24	308.79	15.11	-42.2	-42.9	18.3	0.00e+00	0	58	0	1648361472	46	4019
2026-01-05 08:55:38.23	308.63	15.04	-42.1	-42.8	18.4	0.00e+00	0	58	0	1654652928	46	3976
2026-01-05 08:55:39.22	308.48	14.97	-42.1	-42.7	18.4	0.00e+00	0	58	0	1661992960	46	3958
2026-01-05 08:55:40.21	308.32	14.90	-42.2	-42.8	18.4	0.00e+00	0	58	0	1669332992	46	3980
2026-01-05 08:55:41.20	308.17	14.82	-42.3	-43.0	18.2	0.00e+00	0	58	0	1676673024	46	4072
2026-01-05 08:55:42.19	308.02	14.75	-42.2	-42.9	18.3	0.00e+00	0	58	0	1684013056	46	4029
2026-01-05 08:55:43.19	307.87	14.68	-42.5	-43.2	18.0	0.00e+00	0	58	0	1690304512	46	4149
2026-01-05 08:55:44.18	307.72	14.61	-42.3	-43.0	18.2	0.00e+00	0	58	0	1697644544	46	4085
2026-01-05 08:55:45.16	307.57	14.54	-42.6	-43.3	17.9	0.00e+00	0	58	0	1704984576	46	4223
2026-01-05 08:55:46.15	307.42	14.47	-42.5	-43.2	18.0	0.00e+00	0	58	0	1712324608	46	4165
2026-01-05 08:55:47.14	307.27	14.40	-42.6	-43.3	17.8	0.00e+00	0	58	0	1719664640	46	4235
2026-01-05 08:55:48.12	307.12	14.33	-42.8	-43.5	17.7	0.00e+00	0	58	0	1727004672	47	4089
2026-01-05 08:55:49.11	306.98	14.25	-42.7	-43.4	17.8	0.00e+00	0	58	0	1733296128	47	4021
2026-01-05 08:55:50.10	306.83	14.18	-42.9	-43.6	17.6	0.00e+00	0	58	0	1740636160	47	4126
2026-01-05 08:55:51.09	306.68	14.11	-42.7	-43.4	17.8	0.00e+00	0	58	0	1747976192	47	4015
2026-01-05 08:55:52.07	306.54	14.04	-42.6	-43.3	17.9	0.00e+00	0	58	0	1755316224	47	3963
2026-01-05 08:55:53.07	306.39	13.97	-42.5	-43.2	17.9	0.00e+00	0	58	0	1762656256	47	3955
2026-01-05 08:55:54.06	306.25	13.90	-42.5	-43.2	18.0	0.00e+00	0	58	0	1768947712	47	3925
2026-01-05 08:55:55.05	306.11	13.83	-42.4	-43.0	18.1	0.00e+00	0	58	0	1776287744	47	3860
2026-01-05 08:55:56.04	305.96	13.76	-42.5	-43.1	18.0	0.00e+00	0	57	0	1783627776	47	3905
2026-01-05 08:55:57.03	305.82	13.69	-42.4	-43.1	18.0	0.00e+00	0	58	0	1790967808	47	3886
2026-01-05 08:55:58.02	305.68	13.61	-42.5	-43.2	17.9	0.00e+00	0	57	0	1798307840	47	3940
2026-01-05 08:55:59.01	305.54	13.54	-42.5	-43.2	18.0	0.00e+00	0	58	0	1804599296	47	3918
2026-01-05 08:55:59.99	305.40	13.47	-42.5	-43.2	17.9	0.00e+00	0	58	0	1811939328	47	3943
2026-01-05 08:56:00.98	305.27	13.40	-42.7	-43.3	17.8	0.00e+00	0	58	0	1819279360	47	4003
2026-01-05 08:56:01.97	305.13	13.33	-42.8	-43.6	17.6	0.00e+00	0	58	0	1826619392	47	4106
2026-01-05 08:56:02.97	304.99	13.26	-42.7	-43.4	17.7	0.00e+00	0	58	0	1833959424	47	4036
2026-01-05 08:56:03.96	304.85	13.19	-42.9	-43.6	17.5	0.00e+00	0	58	0	1840250880	47	4132
2026-01-05 08:56:04.94	304.72	13.12	-42.8	-43.5	17.6	0.00e+00	0	58	0	1847590912	47	4083
2026-01-05 08:56:05.94	304.58	13.05	-43.0	-43.7	17.4	0.00e+00	0	58	0	1854930944	47	4172
2026-01-05 08:56:06.93	304.45	12.98	-43.0	-43.8	17.3	0.00e+00	0	58	0	1862270976	47	4220
2026-01-05 08:56:07.91	304.31	12.91	-43.2	-43.9	17.2	0.00e+00	0	58	0	1869611008	47	4281
2026-01-05 08:56:08.91	304.18	12.84	-43.2	-43.9	17.2	0.00e+00	0	58	0	1875902464	47	4283
2026-01-05 08:56:09.90	304.05	12.76	-43.4	-44.2	17.2	0.00e+00	0	58	0	1883242496	48	4146
2026-01-05 08:56:10.89	303.91	12.69	-43.5	-44.3	17.0	0.00e+00	0	58	0	1890582528	48	4230
2026-01-05 08:56:11.88	303.78	12.62	-43.6	-44.4	16.9	0.00e+00	0	58	0	1897922560	48	4262
2026-01-05 08:56:12.87	303.65	12.55	-43.9	-44.8	16.6	0.00e+00	0	58	0	1905262592	49	4208
2026-01-05 08:56:13.85	303.52	12.48	-43.7	-44.6	16.7	0.00e+00	0	58	0	1911554048	49	4108
2026-01-05 08:56:14.84	303.39	12.41	-43.5	-44.3	17.0	0.00e+00	0	58	0	1918894080	49	3997
2026-01-05 08:56:15.84	303.26	12.34	-43.3	-44.1	17.2	0.00e+00	0	58	0	1926234112	49	3875
2026-01-05 08:56:16.83	303.13	12.27	-43.1	-43.8	17.5	0.00e+00	0	58	0	1933574144	49	3756
2026-01-05 08:56:17.82	303.01	12.20	-43.0	-43.8	17.4	0.00e+00	0	58	0	1940914176	49	3748
2026-01-05 08:56:18.82	302.88	12.13	-43.0	-43.7	17.6	0.00e+00	0	58	0	1948254208	48	3924
2026-01-05 08:56:19.81	302.75	12.06	-43.0	-43.7	17.5	0.00e+00	0	58	0	1954545664	48	3953
2026-01-05 08:56:20.80	302.63	11.99	-43.2	-43.9	17.3	0.00e+00	0	58	0	1961885696	48	4033
2026-01-05 08:56:21.80	302.50	11.92	-43.0	-43.8	17.4	0.00e+00	0	58	0	1969225728	48	3959
2026-01-05 08:56:22.79	302.37	11.85	-42.9	-43.7	17.5	0.00e+00	0	58	0	1976565760	48	3914
2026-01-05 08:56:23.79	302.25	11.78	-43.1	-43.9	17.3	0.00e+00	0	58	0	1983905792	48	4020
2026-01-05 08:56:24.77	302.13	11.71	-43.2	-44.0	17.1	0.00e+00	0	58	0	1991245824	48	4067
2026-01-05 08:56:25.76	302.00	11.64	-43.4	-44.2	16.9	0.00e+00	0	58	0	1997537280	48	4158
2026-01-05 08:56:26.76	301.88	11.57	-43.5	-44.3	16.8	0.00e+00	0	58	0	2004877312	48	4228
2026-01-05 08:56:27.75	301.76	11.50	-43.7	-44.6	16.5	0.00e+00	0	58	0	2012217344	49	4126
2026-01-05 08:56:28.73	301.64	11.43	-43.8	-44.7	16.3	0.00e+00	0	58	0	2019557376	49	4167
2026-01-05 08:56:29.72	301.52	11.36	-43.9	-44.8	16.2	0.00e+00	0	58	0	2026897408	49	4238
2026-01-05 08:56:30.70	301.40	11.30	-43.9	-44.8	16.1	0.00e+00	0	58	0	2033188864	49	4240
2026-01-05 08:56:31.69	301.28	11.23	-43.8	-44.7	16.2	0.00e+00	0	58	0	2040528896	49	4165
2026-01-05 08:56:32.68	301.16	11.16	-43.8	-44.7	16.2	0.00e+00	0	58	0	2047868928	49	4172
2026-01-05 08:56:33.67	301.04	11.09	-44.0	-44.9	15.9	0.00e+00	0	58	0	2055208960	49	4287
2026-01-05 08:56:34.66	300.93	11.02	-43.9	-44.9	15.4	0.00e+00	0	58	0	2062548992	49	4257
2026-01-05 08:56:35.65	300.81	10.95	-44.0	-45.0	15.8	0.00e+00	0	58	0	2069889024	49	4300
2026-01-05 08:56:36.64	300.69	10.88	-44.4	-45.4	15.4	0.00e+00	0	58	0	2076180480	50	4247
2026-01-05 08:56:37.62	300.58	10.81	-44.7	-45.7	15.0	0.00e+00	0	58	0	2083520512	50	4439
2026-01-05 08:56:38.61	300.46	10.75	-44.7	-45.8	14.9	0.00e+00	0	58	0	2090860544	51	4221
2026-01-05 08:56:39.60	300.35	10.68	-44.9	-46.0	14.7	0.00e+00	0	58	0	2098200576	51	4325
2026-01-05 08:56:40.59	300.23	10.61	-45.0	-46.2	14.5	0.00e+00	0	58	0	2105540608	51	4406
2026-01-05 08:56:41.58	300.12	10.54	-45.1	-46.3	14.3	0.00e+00	0	58	0	2112880640	51	4460
2026-01-05 08:56:42.57	300.01	10.47	-45.3	-46.5	13.9	0.00e+00	0	58	0	2119172096	52	4333
2026-01-05 08:56:43.56	299.89	10.40	-45.4	-46.8	13.7	4.57e-05	0	58	0	2126512128	52	4442
2026-01-05 08:56:44.55	299.78	10.33	-45.2	-46.5	13.9	3.40e-06	0	58	0	2133852160	52	4330
2026-01-05 08:56:45.54	299.67	10.27	-45.0	-46.2	14.1	1.10e-06	0	58	0	2141192192	52	4176
2026-01-05 08:56:46.53	299.56	10.20	-44.8	-46.0	14.2	1.10e-06	0	58	0	2148532224	52	4074
2026-01-05 08:56:47.52	299.45	10.13	-44.9	-46.1	14.2	1.10e-06	0	58	0	2154823680	52	4109
2026-01-05 08:56:48.51	299.34	10.06	-45.2	-46.5	13.7	4.50e-06	0	58	0	2162163712	52	4292
2026-01-05 08:56:49.48	299.23	10.00	-45.4	-46.7	13.4	1.71e-05	0	58	0	2169503744	52	4432
2026-01-05 08:56:50.48	299.12	9.93	-45.2	-46.6	13.5	1.37e-05	0	58	0	2176843776	52	4351
2026-01-05 08:56:51.47	299.01	9.86	-45.4	-46.8	13.2	1.37e-05	0	58	0	2184183808	52	4471
2026-01-05 08:56:52.46	298.90	9.79	-45.6	-47.1	12.9	4.57e-05	0	58	0	2190475264	52	4616
2026-01-05 08:56:53.45	298.80	9.73	-45.7	-47.3	12.6	7.78e-05	0	58	0	2197815296	53	4458
2026-01-05 08:56:54.45	298.69	9.66	-45.9	-47.6	12.2	2.57e-04	0	58	0	2205155328	53	4641
2026-01-05 08:56:55.44	298.58	9.59	-46.0	-47.8	12.0	3.25e-04	0	58	0	2212495360	53	4732
2026-01-05 08:56:56.43	298.48	9.52	-46.5	-48.4	11.4	8.43e-04	0	58	0	2219835392	54	4800
2026-01-05 08:56:57.42	298.37	9.46	-46.6	-48.7	11.0	2.08e-03	0	58	0	2227175424	55	4666
2026-01-05 08:56:58.40	298.27	9.39	-46.5	-48.5	11.1	1.94e-03	0	58	0	2233466880	55	4594
2026-01-05 08:56:59.39	298.16	9.32	-46.4	-48.4	11.1	1.72e-03	0	58	0	2240806912	55	4525
2026-01-05 08:57:00.38	298.06	9.26	-46.5	-48.5	11.0	1.87e-03	0	58	0	2248146944	55	4588
2026-01-05 08:57:01.37	297.96	9.19	-46.6	-48.8	10.7	2.87e-03	0	58	0	2255486976	55	4717
2026-01-05 08:57:02.36	297.85	9.12	-46.5	-48.6	10.8	3.29e-03	0	58	0	2261778432	55	4629
2026-01-05 08:57:03.35	297.75	9.06	-46.4	-48.6	10.8	2.56e-03	0	58	0	2269118464	55	4604
2026-01-05 08:57:04.34	297.65	8.99	-46.3	-48.4	11.0	2.20e-03	0	58	0	2276458496	54	4766
2026-01-05 08:57:05.32	297.55	8.92	-46.3	-48.5	10.8	2.51e-03	0	58	0	2283798528	54	4817
2026-01-05 08:57:06.31	297.45	8.86	-46.5	-48.7	10.6	3.81e-03	0	58	0	2291138560	54	4934
2026-01-05 08:57:07.30	297.35	8.79	-46.5	-48.7	10.5	3.96e-03	0	58	0	2297430016	54	4937
2026-01-05 08:57:08.29	297.25	8.72	-46.6	-48.9	10.3	5.20e-03	0	58	0	2304770048	54	5056
2026-01-05 08:57:09.28	297.15	8.66	-46.6	-48.8	10.3	5.04e-03	0	58	0	2312110080	54	5033
2026-01-05 08:57:10.28	297.05	8.59	-46.6	-48.9	10.3	5.67e-03	0	58	0	2319450112	54	5065
2026-01-05 08:57:11.27	296.95	8.53	-46.5	-48.8	10.4	5.27e-03	0	58	0	2326790144	54	4999
2026-01-05 08:57:12.26	296.85	8.46	-46.5	-48.8	10.3	7.66e-03	0	58	0	2334130176	54	5007
2026-01-05 08:57:13.25	296.75	8.39	-46.5	-48.7	10.5	4.65e-03	0	58	0	2340421632	54	4938
2026-01-05 08:57:14.24	296.65	8.33	-46.4	-48.6	10.6	3.66e-03	0	58	0	2347761664	54	4880
2026-01-05 08:57:15.23	296.56	8.26	-46.5	-48.7	10.6	5.16e-03	0	58	0	2355101696	54	4931
2026-01-05 08:57:16.22	296.46	8.20	-46.5	-48.6	10.7	3.35e-03	0	58	0	2362441728	54	4922
2026-01-05 08:57:17.21	296.37	8.13	-46.5	-48.7	10.6	4.43e-03	0	58	0	2369781760	54	4963
2026-01-05 08:57:18.20	296.27	8.07	-46.3	-48.4	10.9	4.35e-03	0	58	0	2376073216	54	4775
2026-01-05 08:57:19.19	296.17	8.00	-46.2	-48.2	11.1	1.73e-03	0	58	0	2383413248	54	4676
2026-01-05 08:57:20.17	296.08	7.94	-46.2	-48.2	11.1	1.84e-03	0	58	0	2390753280	54	4668
2026-01-05 08:57:21.16	295.99	7.87	-46.2	-48.2	11.1	2.44e-03	0	58	0	2398093312	54	4704
2026-01-05 08:57:22.15	295.89	7.81	-46.2	-48.3	11.0	2.16e-03	0	58	0	2405433344	54	4728
2026-01-05 08:57:23.14	295.80	7.74	-46.4	-48.5	10.9	2.20e-03	0	58	0	2412773376	54	4836
2026-01-05 08:57:24.13	295.71	7.68	-46.5	-48.7	10.7	2.84e-03	0	58	0	2419064832	54	4929
2026-01-05 08:57:25.12	295.61	7.61	-46.3	-48.4	10.9	2.56e-03	0	58	0	2426404864	54	4788
2026-01-05 08:57:26.11	295.52	7.55	-46.2	-48.2	11.1	1.93e-03	0	58	0	2433744896	54	4690
2026-01-05 08:57:27.10	295.43	7.49	-46.2	-48.2	11.0	1.93e-03	0	58	0	2441084928	54	4681
2026-01-05 08:57:28.09	295.34	7.42	-46.3	-48.3	11.0	2.33e-03	0	58	0	2448424960	54	4724
2026-01-05 08:57:29.07	295.25	7.36	-46.6	-48.9	10.4	3.94e-03	0	58	0	2455764992	54	5042
2026-01-05 08:57:30.06	295.16	7.29	-46.3	-48.4	10.8	3.02e-03	0	58	0	2462056448	54	4803
2026-01-05 08:57:31.05	295.07	7.23	-46.3	-48.4	10.9	2.70e-03	0	58	0	2469396480	54	4790
2026-01-05 08:57:32.04	294.98	7.17	-46.5	-48.8	10.5	4.07e-03	0	58	0	2476736512	54	4999
2026-01-05 08:57:33.03	294.89	7.10	-46.4	-48.5	10.8	3.09e-03	0	58	0	2484076544	54	4834
2026-01-05 08:57:34.02	294.80	7.04	-46.3	-48.4	10.8	3.10e-03	0	58	0	2491416576	54	4810
2026-01-05 08:57:35.01	294.71	6.97	-46.6	-48.8	10.4	4.54e-03	0	58	0	2497708032	54	5027
2026-01-05 08:57:36.00	294.63	6.91	-46.4	-48.6	10.5	4.63e-03	0	58	0	2505048064	54	4920
2026-01-05 08:57:36.99	294.54	6.85	-46.6	-48.9	10.3	5.59e-03	0	58	0	2512388096	54	5056
2026-01-05 08:57:37.97	294.45	6.78	-46.5	-48.7	10.4	5.66e-03	0	58	0	2519728128	54	4973
2026-01-05 08:57:38.95	294.37	6.72	-46.4	-48.7	10.4	4.80e-03	0	58	0	2526019584	54	4938
2026-01-05 08:57:39.95	294.28	6.66	-46.6	-48.8	10.3	5.36e-03	0	58	0	2533359616	54	5039
2026-01-05 08:57:40.94	294.19	6.59	-46.8	-49.2	9.9	7.88e-03	0	58	0	2540699648	55	4950
2026-01-05 08:57:41.92	294.11	6.53	-46.7	-49.2	9.9	1.04e-02	0	58	0	2548039680	55	4955
2026-01-05 08:57:42.91	294.02	6.47	-47.0	-49.6	9.5	1.35e-02	0	58	0	2555379712	55	5168
2026-01-05 08:57:43.90	293.94	6.41	-46.9	-49.5	9.4	1.53e-02	0	58	0	2561671168	55	5127
2026-01-05 08:57:44.89	293.85	6.34	-47.1	-49.8	9.2	1.71e-02	0	58	0	2569011200	55	5324
2026-01-05 08:57:45.88	293.77	6.28	-47.2	-50.0	9.0	2.29e-02	0	58	0	2576351232	55	5410
2026-01-05 08:57:46.87	293.68	6.22	-47.4	-50.4	8.6	4.48e-02	0	58	0	2583691264	56	5376
2026-01-05 08:57:47.86	293.60	6.16	-47.3	-50.3	8.7	3.14e-02	0	58	0	2591031296	56	5281
2026-01-05 08:57:48.86	293.52	6.09	-47.3	-50.3	8.7	3.24e-02	0	58	0	2597322752	56	5289
2026-01-05 08:57:49.85	293.44	6.03	-47.5	-50.7	8.2	5.55e-02	0	58	0	2604662784	56	5576
2026-01-05 08:57:50.84	293.35	5.97	-47.6	-51.0	7.8	6.88e-02	0	58	0	2612002816	56	5725
2026-01-05 08:57:51.84	293.27	5.91	-47.7	-51.3	7.5	8.92e-02	0	58	0	2619342848	57	5634
2026-01-05 08:57:52.82	293.19	5.84	-47.8	-51.4	7.3	1.16e-01	0	58	0	2626682880	57	5710
2026-01-05 08:57:53.81	293.11	5.78	-47.8	-51.4	7.2	1.30e-01	0	58	0	2632974336	57	5718
2026-01-05 08:57:54.80	293.03	5.72	-47.8	-51.7	7.0	1.46e-01	0	58	0	2640314368	57	5863
2026-01-05 08:57:55.79	292.95	5.66	-47.8	-51.7	6.9	1.81e-01	0	58	0	2647654400	57	5909
2026-01-05 08:57:56.78	292.87	5.60	-47.9	-52.0	6.7	2.05e-01	0	58	0	2654994432	57	6067
2026-01-05 08:57:57.77	292.79	5.54	-47.9	-51.9	6.7	2.06e-01	0	58	0	2662334464	57	6024
2026-01-05 08:57:58.76	292.71	5.47	-48.0	-52.2	6.4	2.33e-01	0	58	0	2668625920	57	6234
2026-01-05 08:57:59.75	292.63	5.41	-47.9	-52.1	6.4	2.29e-01	0	58	0	2675965952	57	6197
2026-01-05 08:58:00.75	292.55	5.35	-47.8	-51.8	6.6	1.98e-01	0	58	0	2683305984	57	5977
2026-01-05 08:58:01.73	292.47	5.29	-47.7	-51.8	6.6	1.98e-01	0	58	0	2690646016	57	5931
2026-01-05 08:58:02.72	292.39	5.23	-47.7	-51.7	6.7	1.93e-01	0	58	0	2697986048	57	5922
2026-01-05 08:58:03.71	292.32	5.17	-47.8	-52.0	6.5	2.19e-01	0	58	0	2704277504	57	6085
2026-01-05 08:58:04.70	292.24	5.11	-47.8	-51.9	6.5	2.34e-01	0	58	0	2711617536	57	6006
2026-01-05 08:58:05.69	292.16	5.05	-47.9	-52.3	6.2	2.49e-01	0	58	0	2718957568	57	6318
2026-01-05 08:58:06.68	292.08	4.99	-49.3	-59.3	3.8	8.46e-01	0	58	104	2720006144	60	11913
2026-01-05 08:58:07.67	292.01	4.92	-51.3	-61.6	3.8	8.46e-01	0	58	104	2720006144	64	12266
2026-01-05 08:58:08.66	291.93	4.86	-51.9	-62.2	3.8	8.47e-01	0	58	104	2720006144	65	12418
2026-01-05 08:58:09.65	291.86	4.80	-52.1	-62.3	3.8	8.46e-01	0	58	104	2720006144	65	12582
2026-01-05 08:58:10.64	291.78	4.74	-52.1	-62.2	3.8	8.46e-01	0	58	104	2720006144	65	12519
2026-01-05 08:58:11.63	291.71	4.68	-51.9	-62.1	3.8	8.46e-01	0	58	104	2720006144	65	12280
2026-01-05 08:58:12.63	291.63	4.62	-52.2	-62.4	3.8	8.46e-01	0	58	104	2720006144	66	12080
2026-01-05 08:58:13.62	291.56	4.56	-52.3	-62.5	3.8	8.46e-01	0	58	104	2720006144	66	12204
2026-01-05 08:58:14.61	291.48	4.50	-51.9	-62.2	3.9	8.45e-01	0	58	104	2720006144	66	11702
2026-01-05 08:58:15.61	291.41	4.44	-51.9	-62.4	3.8	8.42e-01	0	58	104	2720006144	66	12072
2026-01-05 08:58:16.60	291.33	4.38	-52.0	-62.5	3.8	8.46e-01	0	58	104	2720006144	66	12131
2026-01-05 08:58:17.59	291.26	4.32	-52.0	-62.5	3.8	8.44e-01	0	58	104	2720006144	66	12200
2026-01-05 08:58:18.58	291.19	4.26	-51.7	-62.3	3.9	8.45e-01	0	58	104	2720006144	66	11916
2026-01-05 08:58:19.57	291.12	4.20	-51.5	-62.3	3.9	8.42e-01	0	58	104	2720006144	65	12564
2026-01-05 08:58:20.56	291.04	4.14	-51.4	-62.2	3.9	8.41e-01	0	58	104	2720006144	65	12460
2026-01-05 08:58:21.54	290.97	4.08	-51.4	-62.3	3.9	8.42e-01	0	58	104	2720006144	65	12650
2026-01-05 08:58:22.53	290.90	4.02	-51.2	-62.3	3.9	8.41e-01	0	58	104	2720006144	65	12562
2026-01-05 08:58:23.52	290.83	3.97	-51.3	-62.3	3.9	8.40e-01	0	58	104	2720006144	65	12602
2026-01-05 08:58:24.51	290.76	3.91	-51.4	-62.4	3.9	8.41e-01	0	58	104	2720006144	65	12776
2026-01-05 08:58:25.51	290.69	3.85	-50.9	-62.3	4.0	8.42e-01	0	58	104	2720006144	64	13299
2026-01-05 08:58:26.50	290.62	3.79	-51.6	-62.4	3.9	8.42e-01	0	58	104	2720006144	65	12700
2026-01-05 08:58:27.49	290.55	3.73	-51.7	-62.5	3.9	8.43e-01	0	58	104	2720006144	65	12900
2026-01-05 08:58:28.48	290.48	3.67	-51.9	-62.5	3.9	8.41e-01	0	58	104	2720006144	65	12828
2026-01-05 08:58:29.47	290.41	3.61	-51.8	-62.4	3.9	8.41e-01	0	58	104	2720006144	65	12712
2026-01-05 08:58:30.45	290.34	3.55	-51.9	-62.5	3.9	8.43e-01	0	58	104	2720006144	65	12828
2026-01-05 08:58:31.45	290.27	3.49	-52.2	-62.6	3.9	8.43e-01	0	58	104	2720006144	66	12262
2026-01-05 08:58:32.45	290.20	3.43	-52.2	-62.7	3.8	8.43e-01	0	58	104	2720006144	66	12380
2026-01-05 08:58:33.44	290.13	3.38	-52.2	-62.7	3.8	8.44e-01	0	58	104	2720006144	66	12508
2026-01-05 08:58:34.43	290.06	3.32	-52.2	-62.7	3.8	8.44e-01	0	58	104	2720006144	66	12470
2026-01-05 08:58:35.43	289.99	3.26	-52.6	-62.8	3.8	8.44e-01	0	58	104	2720006144	66	12621
2026-01-05 08:58:36.43	289.93	3.20	-52.7	-62.8	3.8	8.47e-01	0	58	104	2720006144	66	12632
2026-01-05 08:58:37.41	289.86	3.14	-52.6	-62.8	3.8	8.46e-01	0	58	104	2720006144	66	12659
2026-01-05 08:58:38.40	289.79	3.08	-52.6	-62.9	3.8	8.45e-01	0	58	104	2720006144	66	12707
2026-01-05 08:58:39.40	289.73	3.03	-52.6	-62.8	3.8	8.45e-01	0	58	104	2720006144	66	12610
2026-01-05 08:58:40.39	289.66	2.97	-52.6	-62.8	3.8	8.45e-01	0	58	104	2720006144	66	12639

#Closed at: 2026-01-05 08:58:40
#Recorded file [2720 MB]: D:/Data/31026_260105_115806.dat