passes_logs/2026/01/05/R3.0SM8_Murmansk_STILSPACE/R3.0SM8_Murmansk_STILSPACE__20260105_120410_FENGYUN_3E_rec.log

#Pass ID: 20260105_120410_FENGYUN 3E
#Satellite: FENGYUN 3E
#Configuration: FENGYUN 3E
#almurnet v.1.7.20240730
#Start time: 2026-01-05 12:11:59

#Version: 2.2.20231116
#Station: R3.0SM8_Murmansk_STILSPACE
#Location: 33.092731 lon 68.902999 lat
#TLE: 1 49008U 21062A   26005.28112830  .00000370  00000+0  19519-3 0  9997
#TLE: 2 49008  98.7472  10.5234 0001546 158.4425 201.6816 14.19884714233469

#Time	Az	El	Level	Level2	SNR	BER	BlckErr	Temp	State	Recorded	gain1	gain2
2026-01-05 12:11:59.77	9.18	34.69	-48.5	-58.6	3.8	8.47e-01	0	57	0	0	58	12320
2026-01-05 12:12:00.75	8.85	34.58	-48.5	-58.6	3.8	8.46e-01	0	57	0	0	59	11667
2026-01-05 12:12:01.74	8.51	34.47	-48.5	-58.6	3.8	8.46e-01	0	56	0	0	59	11667
2026-01-05 12:12:02.72	8.19	34.36	-48.5	-58.6	3.8	8.46e-01	0	56	0	0	59	11667
2026-01-05 12:12:03.71	7.86	34.24	-48.5	-58.6	3.8	8.46e-01	0	56	0	0	59	11667
2026-01-05 12:12:04.69	7.53	34.13	-48.5	-58.6	3.8	8.46e-01	0	56	0	0	59	11667
2026-01-05 12:12:05.68	7.21	34.02	-48.5	-58.6	3.8	8.46e-01	0	56	0	0	59	11667
2026-01-05 12:12:06.66	6.89	33.90	-48.5	-58.6	3.8	8.46e-01	0	56	0	0	59	11667
2026-01-05 12:12:07.65	6.57	33.79	-48.5	-58.6	3.8	8.46e-01	0	56	0	0	59	11667
2026-01-05 12:12:08.63	6.25	33.67	-48.5	-58.6	3.8	8.46e-01	0	56	0	0	59	11667
2026-01-05 12:12:09.62	5.94	33.55	-48.5	-58.6	3.8	8.46e-01	0	56	0	0	59	11667
2026-01-05 12:12:10.60	5.63	33.44	-48.5	-58.6	3.8	8.46e-01	0	56	0	0	59	11667
2026-01-05 12:12:11.58	5.32	33.32	-48.5	-58.6	3.8	8.46e-01	0	55	0	0	59	11667
2026-01-05 12:12:12.57	5.01	33.20	-48.5	-58.6	3.8	8.46e-01	0	55	0	0	59	11667
2026-01-05 12:12:13.55	4.70	33.08	-48.5	-58.6	3.8	8.46e-01	0	55	0	0	59	11667
2026-01-05 12:12:14.54	4.40	32.97	-48.5	-58.6	3.8	8.46e-01	0	55	0	0	59	11667
2026-01-05 12:12:15.53	4.10	32.85	-48.5	-58.6	3.8	8.46e-01	0	55	0	0	59	11667
2026-01-05 12:12:16.50	3.80	32.73	-48.5	-58.6	3.8	8.46e-01	0	55	0	0	59	11667
2026-01-05 12:12:17.49	3.50	32.61	-48.5	-58.6	3.8	8.46e-01	0	55	0	0	59	11667
2026-01-05 12:12:18.47	3.21	32.49	-48.5	-58.6	3.8	8.46e-01	0	55	0	0	59	11667
2026-01-05 12:12:19.45	2.92	32.37	-48.5	-58.6	3.8	8.46e-01	0	55	0	0	59	11667
2026-01-05 12:12:20.44	2.63	32.25	-48.5	-58.6	3.8	8.46e-01	0	55	0	0	59	11667
2026-01-05 12:12:21.42	2.34	32.12	-48.5	-58.6	3.8	8.46e-01	0	55	0	0	59	11667
2026-01-05 12:12:22.41	2.06	32.00	-48.5	-58.6	3.8	8.46e-01	0	55	0	0	59	11667
2026-01-05 12:12:23.39	1.78	31.88	-48.5	-58.6	3.8	8.46e-01	0	55	0	0	59	11667
2026-01-05 12:12:24.37	1.50	31.76	-48.5	-58.6	3.8	8.46e-01	0	55	0	0	59	11667
2026-01-05 12:12:25.36	1.22	31.64	-48.5	-58.6	3.8	8.46e-01	0	55	0	0	59	11667
2026-01-05 12:12:26.36	0.93	31.51	
2026-01-05 12:12:27.36	0.66	31.39	-48.5	-58.6	3.8	8.46e-01	0	54	0	0	59	11667
2026-01-05 12:12:28.35	0.38	31.26	-48.5	-58.6	3.8	8.46e-01	0	54	0	0	59	11667
2026-01-05 12:12:29.33	0.11	31.14	-48.5	-58.6	3.8	8.46e-01	0	54	0	0	59	11667
2026-01-05 12:12:30.32	359.84	31.01	-48.5	-58.6	3.8	8.46e-01	0	54	0	0	59	11667
2026-01-05 12:12:31.30	359.58	30.89	-48.5	-58.6	3.8	8.46e-01	0	54	0	0	59	11667
2026-01-05 12:12:32.29	359.31	30.77	-48.5	-58.6	3.8	8.46e-01	0	54	0	0	59	11667
2026-01-05 12:12:33.27	359.05	30.64	-48.5	-58.6	3.8	8.46e-01	0	54	0	0	59	11667
2026-01-05 12:12:34.25	358.79	30.52	-48.5	-58.6	3.8	8.46e-01	0	54	0	0	59	11667
2026-01-05 12:12:35.23	358.53	30.39	-48.5	-58.6	3.8	8.46e-01	0	54	0	0	59	11667
2026-01-05 12:12:36.21	358.28	30.27	-48.5	-58.6	3.8	8.46e-01	0	53	0	0	59	11667
2026-01-05 12:12:37.19	358.03	30.15	-48.5	-58.6	3.8	8.46e-01	0	54	0	0	59	11667
2026-01-05 12:12:38.18	357.77	30.02	-48.5	-58.6	3.8	8.46e-01	0	53	0	0	59	11667
2026-01-05 12:12:39.16	357.52	29.90	-48.5	-58.6	3.8	8.46e-01	0	53	0	0	59	11667
2026-01-05 12:12:40.14	357.28	29.77	-48.5	-58.6	3.8	8.46e-01	0	53	0	0	59	11667
2026-01-05 12:12:41.13	357.03	29.65	-48.5	-58.6	3.8	8.46e-01	0	53	0	0	59	11667
2026-01-05 12:12:42.11	356.79	29.52	-48.5	-58.6	3.8	8.46e-01	0	53	0	0	59	11667
2026-01-05 12:12:43.10	356.54	29.40	-48.5	-58.6	3.8	8.46e-01	0	53	0	0	59	11667
2026-01-05 12:12:44.08	356.30	29.27	-48.5	-58.6	3.8	8.46e-01	0	53	0	0	59	11667
2026-01-05 12:12:45.07	356.06	29.15	-48.5	-58.6	3.8	8.46e-01	0	53	0	0	59	11667
2026-01-05 12:12:46.06	355.82	29.02	-48.5	-58.6	3.8	8.46e-01	0	53	0	0	59	11667
2026-01-05 12:12:47.05	355.59	28.89	-48.5	-58.6	3.8	8.46e-01	0	53	0	0	59	11667
2026-01-05 12:12:48.04	355.35	28.77	-48.5	-58.6	3.8	8.46e-01	0	53	0	0	59	11667
2026-01-05 12:12:49.03	355.12	28.64	-48.5	-58.6	3.8	8.46e-01	0	53	0	0	59	11667
2026-01-05 12:12:50.01	354.89	28.52	-48.5	-58.6	3.8	8.46e-01	0	53	0	0	59	11667
2026-01-05 12:12:51.00	354.66	28.39	-48.5	-58.6	3.8	8.46e-01	0	52	0	0	59	11667
2026-01-05 12:12:51.98	354.44	28.27	-48.5	-58.6	3.8	8.46e-01	0	53	0	0	59	11667
2026-01-05 12:12:52.97	354.21	28.14	-48.5	-58.6	3.8	8.46e-01	0	52	0	0	59	11667
2026-01-05 12:12:53.95	353.99	28.02	-48.5	-58.6	3.8	8.46e-01	0	52	0	0	59	11667
2026-01-05 12:12:54.93	353.77	27.89	-48.5	-58.6	3.8	8.46e-01	0	53	0	0	59	11667
2026-01-05 12:12:55.92	353.55	27.77	-48.5	-58.6	3.8	8.46e-01	0	52	0	0	59	11667
2026-01-05 12:12:56.90	353.34	27.64	-48.5	-58.6	3.8	8.46e-01	0	52	0	0	59	11667
2026-01-05 12:12:57.89	353.12	27.52	-48.5	808.6	3.8	8.46e-01	0	52	0	0	59	11667
2026-01-05 12:12:58.88	352.91	27.39	-48.5	-58.6	3.8	8.46e-01	0	52	0	0	59	11667
2026-01-05 12:12:59.86	352.70	27.27	-48.5	-58.6	3.8	8.46e-01	0	52	0	0	59	11667
2026-01-05 12:13:00.84	352.49	27.15	-48.5	-58.6	3.8	8.46e-01	0	52	0	0	59	11667
2026-01-05 12:13:01.82	352.28	27.02	-48.5	-58.6	3.8	8.46e-01	0	52	0	0	59	11667
2026-01-05 12:13:02.81	352.07	26.90	-48.5	-58.6	3.8	8.46e-01	0	52	0	0	59	11667
2026-01-05 12:13:03.80	351.86	26.78	-48.5	-58.6	3.8	8.46e-01	0	52	0	0	59	11667
2026-01-05 12:13:04.79	351.66	26.65	-48.5	-58.6	3.8	8.46e-01	0	52	0	0	59	11667
2026-01-05 12:13:05.78	351.46	26.53	-48.5	-58.6	3.8	8.46e-01	0	51	0	0	59	11667
2026-01-05 12:13:06.77	351.25	26.40	-48.5	-58.6	3.8	8.46e-01	0	51	0	0	59	11667
2026-01-05 12:13:07.77	351.05	26.28	-48.5	-58.6	3.8	8.46e-01	0	52	0	0	59	11667
2026-01-05 12:13:08.75	350.86	26.16	-48.5	-58.6	3.8	8.46e-01	0	51	0	0	59	11667
2026-01-05 12:13:09.74	350.66	26.03	-48.5	-58.6	3.8	8.46e-01	0	51	0	0	59	11667
2026-01-05 12:13:10.73	350.46	25.91	-48.5	-58.6	3.8	8.46e-01	0	51	0	0	59	11667
2026-01-05 12:13:11.71	350.27	25.79	-48.5	-58.6	3.8	8.46e-01	0	51	0	0	59	11667
2026-01-05 12:13:12.70	350.08	25.67	-48.5	-58.6	3.8	8.46e-01	0	51	0	0	59	11667
2026-01-05 12:13:13.69	349.89	25.54	-48.5	-58.6	3.8	8.46e-01	0	51	0	0	59	11667
2026-01-05 12:13:14.67	349.70	25.42	-48.5	-58.6	3.8	8.46e-01	0	51	0	0	59	11667
2026-01-05 12:13:15.66	349.51	25.30	-48.5	-58.6	3.8	8.46e-01	0	51	0	0	59	11667
2026-01-05 12:13:16.64	349.33	25.18	-48.5	-58.6	3.8	8.46e-01	0	51	0	0	59	11667
2026-01-05 12:13:17.63	349.14	25.06	-48.5	-58.6	3.8	8.46e-01	0	51	0	0	59	11667
2026-01-05 12:13:18.62	348.96	24.94	-48.5	-58.6	3.8	8.46e-01	0	51	0	0	59	11667
2026-01-05 12:13:19.61	348.78	24.82	-48.5	-58.6	3.8	8.46e-01	0	51	0	0	59	11667
2026-01-05 12:13:20.60	348.60	24.69	-48.5	-58.6	3.8	8.46e-01	0	51	0	0	59	11667
2026-01-05 12:13:21.58	348.42	24.58	-48.5	-58.6	3.8	8.46e-01	0	51	0	0	59	11667
2026-01-05 12:13:22.57	348.24	24.45	-48.5	-58.6	3.8	8.46e-01	0	50	0	0	59	11667
2026-01-05 12:13:23.57	348.06	24.33	-48.5	-58.6	3.8	8.46e-01	0	51	0	0	59	11667
2026-01-05 12:13:24.56	347.89	24.21	-48.5	-58.6	3.8	8.46e-01	0	50	0	0	59	11667
2026-01-05 12:13:25.54	347.72	24.10	-48.5	-58.6	3.8	8.46e-01	0	51	0	0	59	11667
2026-01-05 12:13:26.52	347.54	23.98	-48.5	-58.6	3.8	8.46e-01	0	50	0	0	59	11667
2026-01-05 12:13:27.51	347.37	23.86	-48.5	-58.6	3.8	8.46e-01	0	50	0	0	59	11667
2026-01-05 12:13:28.49	347.21	23.74	-48.5	-58.6	3.8	8.46e-01	0	50	0	0	59	11667
2026-01-05 12:13:29.47	347.04	23.62	-48.5	-58.6	3.8	8.46e-01	0	50	0	0	59	11667
2026-01-05 12:13:30.47	346.87	23.50	-48.5	-58.6	3.8	8.46e-01	0	50	0	0	59	11667
2026-01-05 12:13:31.46	346.70	23.39	-48.5	-58.6	3.8	8.46e-01	0	50	0	0	59	11667
2026-01-05 12:13:32.45	346.54	23.27	-48.5	-58.6	3.8	8.46e-01	0	50	0	0	59	11667
2026-01-05 12:13:33.44	346.38	23.15	-48.5	-58.6	3.8	8.46e-01	0	50	0	0	59	11667
2026-01-05 12:13:34.42	346.22	23.03	-48.5	-58.6	3.8	8.46e-01	0	50	0	0	59	11667
2026-01-05 12:13:35.41	346.05	22.92	-48.5	-58.6	3.8	8.46e-01	0	50	0	0	59	11667
2026-01-05 12:13:36.39	345.90	22.80	-48.5	-58.6	3.8	8.46e-01	0	50	0	0	59	11667
2026-01-05 12:13:37.37	345.74	22.69	-48.5	-58.6	3.8	8.46e-01	0	50	0	0	59	11667
2026-01-05 12:13:38.37	345.58	22.57	-48.5	-58.6	3.8	8.46e-01	0	50	0	0	59	11667
2026-01-05 12:13:39.35	345.43	22.45	-48.5	-58.6	3.8	8.46e-01	0	50	0	0	59	11667
2026-01-05 12:13:40.34	345.27	22.34	-48.5	-58.6	3.8	8.46e-01	0	50	0	0	59	11667
2026-01-05 12:13:41.34	345.12	22.22	-48.5	-58.6	3.8	8.46e-01	0	50	0	0	59	11667
2026-01-05 12:13:42.33	344.96	22.11	-48.5	-58.6	3.8	8.46e-01	0	49	0	0	59	11667
2026-01-05 12:13:43.31	344.81	21.99	-48.5	-58.6	3.8	8.46e-01	0	50	0	0	59	11667
2026-01-05 12:13:44.30	344.66	21.88	-48.5	-58.6	3.8	8.46e-01	0	49	0	0	59	11667
2026-01-05 12:13:45.29	344.51	21.77	-48.5	-58.6	3.8	8.46e-01	0	49	0	0	59	11667
2026-01-05 12:13:46.28	344.36	21.65	-48.5	-58.6	3.8	8.46e-01	0	50	0	0	59	11667
2026-01-05 12:13:47.26	344.22	21.54	-48.5	-58.6	3.8	8.46e-01	0	49	0	0	59	11667
2026-01-05 12:13:48.25	344.07	21.43	-48.5	-58.6	3.8	8.46e-01	0	49	0	0	59	11667
2026-01-05 12:13:49.24	343.93	21.31	-48.5	-58.6	3.8	8.46e-01	0	49	0	0	59	11667
2026-01-05 12:13:50.23	343.78	21.20	-48.5	-58.6	3.8	8.46e-01	0	49	0	0	59	11667
2026-01-05 12:13:51.21	343.64	21.09	-48.5	-58.6	3.8	8.46e-01	0	49	0	0	59	11667
2026-01-05 12:13:52.19	343.50	20.98	-48.5	-58.6	3.8	8.46e-01	0	49	0	0	59	11667
2026-01-05 12:13:53.19	343.36	20.87	-48.5	-58.6	3.8	8.46e-01	0	49	0	0	59	11667
2026-01-05 12:13:54.18	343.22	20.76	-48.5	-58.6	3.8	8.46e-01	0	49	0	0	59	11667
2026-01-05 12:13:55.17	343.08	20.64	-48.5	-58.6	3.8	8.46e-01	0	49	0	0	59	11667
2026-01-05 12:13:56.15	342.95	20.54	-48.5	-58.6	3.8	8.46e-01	0	49	0	0	59	11667
2026-01-05 12:13:57.14	342.81	20.42	-48.5	-58.6	3.8	8.46e-01	0	49	0	0	59	11667
2026-01-05 12:13:58.12	342.68	20.32	-48.5	-58.6	3.8	8.46e-01	0	49	0	0	59	11667
2026-01-05 12:13:59.12	342.54	20.21	-48.5	-58.3	3.8	8.46e-01	0	49	0	0	59	11667
2026-01-05 12:14:00.11	342.41	20.10	-48.5	-58.6	3.8	8.46e-01	0	49	0	0	59	11667
2026-01-05 12:14:01.10	342.27	19.99	-48.5	-58.6	3.8	8.46e-01	0	49	0	0	59	11667
2026-01-05 12:14:02.09	342.14	19.88	-48.5	-58.6	3.8	8.46e-01	0	49	0	0	59	11667
2026-01-05 12:14:03.07	342.01	19.77	-48.5	-58.6	3.8	8.46e-01	0	49	0	0	59	11667
2026-01-05 12:14:04.06	341.88	19.66	-48.5	-58.6	3.8	8.46e-01	0	49	0	0	59	11667
2026-01-05 12:14:05.04	341.76	19.56	-48.5	-58.6	3.8	8.46e-01	0	49	0	0	59	11667
2026-01-05 12:14:06.03	341.63	19.45	-48.5	-58.6	3.8	8.46e-01	0	49	0	0	59	11667
2026-01-05 12:14:07.02	341.50	19.34	-48.5	-58.6	3.8	8.46e-01	0	48	0	0	59	11667
2026-01-05 12:14:08.01	341.38	19.23	-48.5	-58.6	3.8	8.46e-01	0	49	0	0	59	11667
2026-01-05 12:14:09.00	341.25	19.13	-48.5	-58.6	3.8	8.46e-01	0	49	0	0	59	11667
2026-01-05 12:14:10.00	341.12	19.02	-48.5	-58.6	3.8	8.46e-01	0	48	0	0	59	11667
2026-01-05 12:14:10.99	341.00	18.91	-48.5	-58.6	3.8	8.46e-01	0	48	0	0	59	11667
2026-01-05 12:14:11.97	340.88	18.81	-48.5	-58.6	3.8	8.46e-01	0	48	0	0	59	11667
2026-01-05 12:14:12.96	340.76	18.70	-48.5	-58.6	3.8	8.46e-01	0	48	0	0	59	11667
2026-01-05 12:14:13.95	340.64	18.60	-48.5	-58.6	3.8	8.46e-01	0	48	0	0	59	11667
2026-01-05 12:14:14.93	340.52	18.50	-48.5	-58.6	3.8	8.46e-01	0	48	0	0	59	11667
2026-01-05 12:14:15.91	340.40	18.39	-48.5	-58.6	3.8	8.46e-01	0	48	0	0	59	11667
2026-01-05 12:14:16.90	340.28	18.29	-48.5	-58.6	3.8	8.46e-01	0	48	0	0	59	11667
2026-01-05 12:14:17.89	340.17	18.18	-48.5	-58.6	3.8	8.46e-01	0	48	0	0	59	11667
2026-01-05 12:14:18.88	340.05	18.08	-48.5	-58.6	3.8	8.46e-01	0	48	0	0	59	11667
2026-01-05 12:14:19.87	339.93	17.98	-48.5	-58.6	3.8	8.46e-01	0	48	0	0	59	11667
2026-01-05 12:14:20.86	339.82	17.87	-48.5	-58.6	3.8	8.46e-01	0	48	0	0	59	11667
2026-01-05 12:14:21.84	339.70	17.77	-48.5	-58.6	3.8	8.46e-01	0	48	0	0	59	11667
2026-01-05 12:14:22.83	339.59	17.67	-48.5	-58.6	3.8	8.46e-01	0	48	0	0	59	11667
2026-01-05 12:14:23.82	339.48	17.57	-48.5	-58.6	3.8	8.46e-01	0	48	0	0	59	11667
2026-01-05 12:14:24.81	339.37	17.47	-48.5	-58.6	3.8	8.46e-01	0	48	0	0	59	11667
2026-01-05 12:14:25.80	339.26	17.37	-48.5	-58.6	3.8	8.46e-01	0	48	0	0	59	11667
2026-01-05 12:14:26.79	339.15	17.26	-48.5	-58.6	3.8	8.46e-01	0	48	0	0	59	11667
2026-01-05 12:14:27.79	339.03	17.16	-48.5	-58.6	3.8	8.46e-01	0	48	0	0	59	11667
2026-01-05 12:14:28.77	338.93	17.06	-48.5	-58.6	3.8	8.46e-01	0	48	0	0	59	11667
2026-01-05 12:14:29.76	338.82	16.96	-48.5	-58.6	3.8	8.46e-01	0	48	0	0	59	11667
2026-01-05 12:14:30.75	338.71	16.86	-48.5	-58.6	3.8	8.46e-01	0	47	0	0	59	11667
2026-01-05 12:14:31.73	338.61	16.76	-48.5	-58.6	3.8	8.46e-01	0	48	0	0	59	11667
2026-01-05 12:14:32.72	338.50	16.67	-48.5	-58.6	3.8	8.46e-01	0	48	0	0	59	11667
2026-01-05 12:14:33.70	338.40	16.57	-48.5	-58.6	3.8	8.46e-01	0	48	0	0	59	11667
2026-01-05 12:14:34.69	338.29	16.47	-48.5	-58.6	3.8	8.46e-01	0	47	0	0	59	11667
2026-01-05 12:14:35.68	338.19	16.37	-48.5	-58.6	3.8	8.46e-01	0	47	0	0	59	11667
2026-01-05 12:14:36.67	338.09	16.27	-48.5	-58.6	3.8	8.46e-01	0	47	0	0	59	11667
2026-01-05 12:14:37.66	337.98	16.17	-48.5	-58.6	3.8	8.46e-01	0	47	0	0	59	11667
2026-01-05 12:14:38.64	337.88	16.08	-48.5	-58.6	3.8	8.46e-01	0	47	0	0	59	11667
2026-01-05 12:14:39.63	337.78	15.98	-48.5	-58.6	3.8	8.46e-01	0	47	0	0	59	11667
2026-01-05 12:14:40.62	337.68	15.88	-48.5	-58.6	3.8	8.46e-01	0	47	0	0	59	11667
2026-01-05 12:14:41.60	337.58	15.79	-48.5	-58.6	3.8	8.46e-01	0	47	0	0	59	11667
2026-01-05 12:14:42.58	337.48	15.69	-48.5	-58.6	3.8	8.46e-01	0	47	0	0	59	11667
2026-01-05 12:14:43.57	337.39	15.60	-48.5	-58.6	3.8	8.46e-01	0	47	0	0	59	11667
2026-01-05 12:14:44.55	337.29	15.50	-48.5	-58.6	3.8	8.46e-01	0	47	0	0	59	11667
2026-01-05 12:14:45.54	337.19	15.41	-48.5	-58.6	3.8	8.46e-01	0	47	0	0	59	11667
2026-01-05 12:14:46.53	337.10	15.31	-48.5	-58.6	3.8	8.46e-01	0	47	0	0	59	11667
2026-01-05 12:14:47.52	337.00	15.22	-48.5	-58.6	3.8	8.46e-01	0	47	0	0	59	11667
2026-01-05 12:14:48.52	336.90	15.12	-48.5	-58.6	3.8	8.46e-01	0	47	0	0	59	11667
2026-01-05 12:14:49.51	336.81	15.03	-48.5	-58.6	3.8	8.46e-01	0	47	0	0	59	11667
2026-01-05 12:14:50.49	336.72	14.93	-48.5	-58.6	3.8	8.46e-01	0	47	0	0	59	11667
2026-01-05 12:14:51.48	336.62	14.84	-48.5	-58.6	3.8	8.46e-01	0	47	0	0	59	11667
2026-01-05 12:14:52.46	336.53	14.75	-48.5	-58.6	3.8	8.46e-01	0	47	0	0	59	11667
2026-01-05 12:14:53.46	336.44	14.65	-48.5	-58.6	3.8	8.46e-01	0	47	0	0	59	11667
2026-01-05 12:14:54.45	336.35	14.56	-48.5	-58.6	3.8	8.46e-01	0	47	0	0	59	11667
2026-01-05 12:14:55.43	336.26	14.47	-48.5	-58.6	3.8	8.46e-01	0	47	0	0	59	11667
2026-01-05 12:14:56.42	336.17	14.38	-48.5	-58.6	3.8	8.46e-01	0	47	0	0	59	11667
2026-01-05 12:14:57.41	336.08	14.28	-48.5	-58.6	3.8	8.46e-01	0	47	0	0	59	11667
2026-01-05 12:14:58.40	335.99	14.19	-48.5	-58.6	3.8	8.46e-01	0	47	0	0	59	11667
2026-01-05 12:14:59.38	335.90	14.10	-48.5	-58.6	3.8	8.46e-01	0	47	0	0	59	11667
2026-01-05 12:15:00.37	335.81	14.01	-48.5	-58.6	3.867
2026-01-05 12:15:00.37	335.81	14.01	-48.5	-58.6	3.8	8.46e-01	0	47	0	0	59	11667
2026-01-05 12:15:01.36	335.73	13.92	-48.5	-58.6	3.8	8.46e-01	0	47	0	0	59	11667
2026-01-05 12:15:02.34	335.64	13.83	-48.5	-58.6	3.8	8.46e-01	0	47	0	0	59	11667
2026-01-05 12:15:03.33	335.55	13.74	-48.5	-58.6	3.8	8.46e-01	0	47	0	0	59	11667
2026-01-05 12:15:04.31	335.47	13.65	-48.5	-58.6	3.8	8.46e-01	0	47	0	0	59	11667
2026-01-05 12:15:05.30	335.38	13.56	-48.5	-58.6	3.8	8.46e-01	0	47	0	0	59	11667
2026-01-05 12:15:06.29	335.30	13.47	-48.5	-58.6	3.8	8.46e-01	0	47	0	0	59	11667
2026-01-05 12:15:07.27	335.21	13.38	-48.5	-58.6	3.8	8.46e-01	0	47	0	0	59	11667
2026-01-05 12:15:08.27	335.13	13.29	-48.5	-58.6	3.8	8.46e-01	0	47	0	0	59	11667
2026-01-05 12:15:09.27	335.05	13.20	-48.5	-58.6	3.8	8.46e-01	0	47	0	0	59	11667
2026-01-05 12:15:10.26	334.96	13.11	-48.5	-58.6	3.8	8.46e-01	0	46	0	0	59	11667
2026-01-05 12:15:11.24	334.88	13.03	-48.5	-58.6	3.8	8.46e-01	0	46	0	0	59	11667
2026-01-05 12:15:12.23	334.80	12.94	-48.5	-58.6	3.8	8.46e-01	0	46	0	0	59	11667
2026-01-05 12:15:13.22	334.72	12.85	-48.5	-58.6	3.8	8.46e-01	0	46	0	0	59	11667
2026-01-05 12:15:14.20	334.64	12.76	-48.5	-58.6	3.8	8.46e-01	0	46	0	0	59	11667
2026-01-05 12:15:15.19	334.56	12.68	-48.5	-58.6	3.8	8.46e-01	0	46	0	0	59	11667
2026-01-05 12:15:16.18	334.48	12.59	-48.5	-58.6	3.8	8.46e-01	0	46	0	0	59	11667
2026-01-05 12:15:17.17	334.40	12.50	-48.5	-58.6	3.8	8.46e-01	0	46	0	0	59	11667
2026-01-05 12:15:18.15	334.32	12.42	-48.5	-58.6	3.8	8.46e-01	0	46	0	0	59	11667
2026-01-05 12:15:19.13	334.25	12.33	-48.5	-58.6	3.8	8.46e-01	0	46	0	0	59	11667
2026-01-05 12:15:20.12	334.17	12.25	-48.5	-58.6	3.8	8.46e-01	0	46	0	0	59	11667
2026-01-05 12:15:21.10	334.09	12.16	-48.5	-58.6	3.8	8.46e-01	0	46	0	0	59	11667
2026-01-05 12:15:22.08	334.02	12.08	-48.5	-58.6	3.8	8.46e-01	0	46	0	0	59	11667
2026-01-05 12:15:23.07	333.94	11.99	-48.5	-58.6	3.8	8.46e-01	0	46	0	0	59	11667
2026-01-05 12:15:24.06	333.86	11.91	-48.5	-58.6	3.8	8.46e-01	0	46	0	0	59	11667
2026-01-05 12:15:25.05	333.79	11.82	-48.5	-58.6	3.8	8.46e-01	0	46	0	0	59	11667
2026-01-05 12:15:26.02	333.71	11.74	-48.5	-58.6	3.8	8.46e-01	0	46	0	0	59	11667
2026-01-05 12:15:27.01	333.64	11.65	-48.5	-58.6	3.8	8.46e-01	0	46	0	0	59	11667
2026-01-05 12:15:27.99	333.57	11.57	-48.5	-58.6	3.8	8.46e-01	0	46	0	0	59	11667
2026-01-05 12:15:28.98	333.49	11.49	-48.5	-58.6	3.8	8.46e-01	0	46	0	0	59	11667
2026-01-05 12:15:29.96	333.42	11.40	-48.5	-58.6	3.8	8.46e-01	0	46	0	0	59	11667
2026-01-05 12:15:30.94	333.35	11.32	-48.5	-58.6	3.8	8.46e-01	0	46	0	0	59	11667
2026-01-05 12:15:31.92	333.28	11.24	-48.5	-58.6	3.8	8.46e-01	0	46	0	0	59	11667
2026-01-05 12:15:32.92	333.20	11.16	-48.5	-58.6	3.8	8.46e-01	0	46	0	0	59	11667
2026-01-05 12:15:33.91	333.13	11.07	-48.5	-58.6	3.8	8.46e-01	0	46	0	0	59	11667
2026-01-05 12:15:34.89	333.06	10.99	-48.5	-58.6	3.8	8.46e-01	0	46	0	0	59	11667
2026-01-05 12:15:35.87	332.99	10.91	-48.5	-58.6	3.8	8.46e-01	0	46	0	0	59	11667
2026-01-05 12:15:36.85	332.92	10.83	-48.5	-58.6	3.8	8.46e-01	0	46	0	0	59	11667
2026-01-05 12:15:37.84	332.85	10.75	-48.5	-58.6	3.8	8.46e-01	0	46	0	0	59	11667
2026-01-05 12:15:38.83	332.78	10.67	-48.5	-58.6	3.8	8.46e-01	0	46	0	0	59	11667
2026-01-05 12:15:39.81	332.72	10.58	-48.5	-58.6	3.8	8.46e-01	0	46	0	0	59	11667
2026-01-05 12:15:40.79	332.65	10.50	-48.5	-58.6	3.8	8.46e-01	0	46	0	0	59	11667
2026-01-05 12:15:41.78	332.58	10.42	-48.5	-58.6	3.8	8.46e-01	0	46	0	0	59	11667
2026-01-05 12:15:42.77	332.51	10.34	-48.5	-58.6	3.8	8.46e-01	0	46	0	0	59	11667
2026-01-05 12:15:43.75	332.45	10.26	-48.5	-58.6	3.8	8.46e-01	0	46	0	0	59	11667
2026-01-05 12:15:44.73	332.38	10.18	-48.5	-58.6	3.8	8.46e-01	0	46	0	0	59	11667
2026-01-05 12:15:45.72	332.31	10.10	-48.5	-58.6	3.8	8.46e-01	0	46	0	0	59	11667
2026-01-05 12:15:46.70	332.25	10.03	-48.5	-58.6	3.8	8.46e-01	0	46	0	0	59	11667
2026-01-05 12:15:47.69	332.18	9.95	-48.5	-58.6	3.8	8.46e-01	0	46	0	0	59	11667
2026-01-05 12:15:48.67	332.12	9.87	-48.5	-58.6	3.8	8.46e-01	0	46	0	0	59	11667
2026-01-05 12:15:49.66	332.05	9.79	-48.5	-58.6	3.8	8.46e-01	0	46	0	0	59	11667
2026-01-05 12:15:50.64	331.99	9.71	-48.5	-58.6	3.8	8.46e-01	0	46	0	0	59	11667
2026-01-05 12:15:51.62	331.92	9.63	-48.5	-58.6	3.8	8.46e-01	0	46	0	0	59	11667
2026-01-05 12:15:52.61	331.86	9.55	-48.5	-58.6	3.8	8.46e-01	0	46	0	0	59	11667
2026-01-05 12:15:53.61	331.80	9.47	-48.5	-58.6	3.8	8.46e-01	0	46	0	0	59	11667
2026-01-05 12:15:54.59	331.73	9.40	-48.5	-58.6	3.8	8.46e-01	0	46	0	0	59	11667
2026-01-05 12:15:55.58	331.67	9.32	-48.5	-58.6	3.8	8.46e-01	0	46	0	0	59	11667
2026-01-05 12:15:56.56	331.61	9.24	-48.5	-58.6	3.8	8.46e-01	0	46	0	0	59	11667
2026-01-05 12:15:57.56	331.55	9.16	-48.5	-58.6	3.8	8.46e-01	0	46	0	0	59	11667
2026-01-05 12:15:58.54	331.48	9.09	-48.5	-58.6	3.8	8.46e-01	0	46	0	0	59	11667
2026-01-05 12:15:59.53	331.42	9.01	-48.5	-58.6	3.8	8.46e-01	0	46	0	0	59	11667
2026-01-05 12:16:00.52	331.36	8.93	-48.5	-58.6	3.8	8.46e-01	0	45	0	0	59	11667e-e-01	0	46	0	0	59	11667
2026-01-05 12:16:02.51	331.24	8.78	-48.5	-58.6	3.8	8.46e-01	0	45	0	0	59	11667
2026-01-05 12:16:03.50	331.18	8.70	-48.5	-58.6	3.8	8.46e-01	0	46	0	0	59	11667
2026-01-05 12:16:04.48	331.12	8.63	-48.5	-58.6	3.8	8.46e-01	0	46	0	0	59	11667
2026-01-05 12:16:05.47	331.06	8.55	-48.5	-58.6	3.8	8.46e-01	0	46	0	0	59	11667
2026-01-05 12:16:06.46	331.00	8.48	-48.5	-58.6	3.8	8.46e-01	0	45	0	0	59	11667
2026-01-05 12:16:07.45	330.94	8.40	-48.5	-58.6	3.8	8.46e-01	0	46	0	0	59	11667
2026-01-05 12:16:08.44	330.88	8.33	-48.5	-58.6	3.8	8.46e-01	0	45	0	0	59	11667
2026-01-05 12:16:09.43	330.83	8.25	-48.5	-58.6	3.8	8.46e-01	0	45	0	0	59	11667
2026-01-05 12:16:10.42	330.77	8.18	-48.5	-58.6	3.8	8.46e-01	0	46	0	0	59	11667
2026-01-05 12:16:11.41	330.71	8.10	-48.5	-58.6	3.8	8.46e-01	0	45	0	0	59	11667
2026-01-05 12:16:12.39	330.65	8.03	-48.5	-58.6	3.8	8.46e-01	0	45	0	0	59	11667
2026-01-05 12:16:13.39	330.60	7.95	-48.5	-58.6	3.8	8.46e-01	0	45	0	0	59	11667
2026-01-05 12:16:14.37	330.54	7.88	-48.5	-58.6	3.8	8.46e-01	0	46	0	0	59	11667
2026-01-05 12:16:15.36	330.48	7.81	-48.5	-58.6	3.8	8.46e-01	0	45	0	0	59	11667
2026-01-05 12:16:16.35	330.43	7.73	-48.5	-58.6	3.8	8.46e-01	0	45	0	0	59	11667
2026-01-05 12:16:17.34	330.37	7.66	-48.5	-58.6	3.8	8.46e-01	0	45	0	0	59	11667
2026-01-05 12:16:18.33	330.32	7.58	-48.5	-58.6	3.8	8.46e-01	0	45	0	0	59	11667
2026-01-05 12:16:19.31	330.26	7.51	-48.5	-58.6	3.8	8.46e-01	0	45	0	0	59	11667
2026-01-05 12:16:20.29	330.21	7.44	-48.5	-58.6	3.8	8.46e-01	0	45	0	0	59	11667
2026-01-05 12:16:21.28	330.15	7.37	-48.5	-58.6	3.8	8.46e-01	0	45	0	0	59	11667
2026-01-05 12:16:22.27	330.10	7.29	-48.5	-58.6	3.8	8.46e-01	0	45	0	0	59	11667
2026-01-05 12:16:23.25	330.05	7.22	-48.5	-58.6	3.8	8.46e-01	0	45	0	0	59	11667
2026-01-05 12:16:24.24	329.99	7.15	-48.5	-58.6	3.8	8.46e-01	0	45	0	0	59	11667
2026-01-05 12:16:25.22	329.94	7.08	-48.5	-58.6	3.8	8.46e-01	0	45	0	0	59	11667
2026-01-05 12:16:26.21	329.89	7.01	-48.5	-58.6	3.8	8.46e-01	0	45	0	0	59	11667
2026-01-05 12:16:27.19	329.83	6.94	-48.5	-58.6	3.8	8.46e-01	0	45	0	0	59	11667
2026-01-05 12:16:28.17	329.78	6.87	-48.5	-58.6	3.8	8.46e-01	0	45	0	0	59	11667
2026-01-05 12:16:29.12	329.73	6.80	-48.5	-58.6	3.8	8.46e-01	0	45	0	0	59	11667
2026-01-05 12:16:30.10	329.68	6.73	-48.5	-58.6	3.8	8.46e-01	0	45	0	0	59	11667
2026-01-05 12:16:31.10	329.63	6.65	-48.5	-58.6	3.8	8.46e-01	0	45	0	0	59	11667
2026-01-05 12:16:32.08	329.58	6.58	-48.5	-58.6	3.8	8.46e-01	0	45	0	0	59	11667
2026-01-05 12:16:33.07	329.53	6.51	-48.5	-58.6	3.8	8.46e-01	0	45	0	0	59	11667
2026-01-05 12:16:34.06	329.47	6.44	-48.5	-58.6	3.8	8.46e-01	0	45	0	0	59	11667
2026-01-05 12:16:35.04	329.42	6.37	-48.5	-58.6	3.8	8.46e-01	0	45	0	0	59	11667
2026-01-05 12:16:36.03	329.37	6.30	-48.5	-58.6	3.8	8.46e-01	0	45	0	0	59	11667
2026-01-05 12:16:37.03	329.32	6.23	-48.5	-58.6	3.8	8.46e-01	0	45	0	0	59	11667
2026-01-05 12:16:38.02	329.27	6.16	-48.5	-58.6	3.8	8.46e-01	0	45	0	0	59	11667
2026-01-05 12:16:39.01	329.22	6.09	-48.5	-58.6	3.8	8.46e-01	0	45	0	0	59	11667
2026-01-05 12:16:40.01	329.17	6.02	-48.5	-58.6	3.8	8.46e-01	0	45	0	0	59	11667
2026-01-05 12:16:41.00	329.12	5.95	-48.5	-58.6	3.8	8.46e-01	0	45	0	0	59	11667
2026-01-05 12:16:41.99	329.08	5.88	-48.5	-58.6	3.8	8.46e-01	0	45	0	0	59	11667
2026-01-05 12:16:42.98	329.03	5.81	-48.5	-58.6	3.8	8.46e-01	0	45	0	0	59	11667
2026-01-05 12:16:43.97	328.98	5.75	-48.5	-58.6	3.8	8.46e-01	0	45	0	0	59	11667
2026-01-05 12:16:44.95	328.93	5.68	-48.5	-58.6	3.8	8.46e-01	0	45	0	0	59	11667
2026-01-05 12:16:45.94	328.88	5.61	-48.5	-58.6	3.8	8.46e-01	0	45	0	0	59	11667
2026-01-05 12:16:46.93	328.84	5.54	-48.5	-58.6	3.8	8.46e-01	0	45	0	0	59	11667
2026-01-05 12:16:47.93	328.79	5.47	-48.5	-58.6	3.8	8.46e-01	0	45	0	0	59	11667
2026-01-05 12:16:48.91	328.74	5.40	-48.5	-58.6	3.8	8.46e-01	0	45	0	0	59	11667
2026-01-05 12:16:49.90	328.69	5.34	-48.5	-58.6	3.8	8.46e-01	0	45	0	0	59	11667
2026-01-05 12:16:50.88	328.65	5.27	-48.5	-58.6	3.8	8.46e-01	0	45	0	0	59	11667
2026-01-05 12:16:51.87	328.60	5.20	-48.5	-58.6	3.8	8.46e-01	0	45	0	0	59	11667
2026-01-05 12:16:52.86	328.56	5.13	-48.5	-58.6	3.8	8.46e-01	0	45	0	0	59	11667
2026-01-05 12:16:53.85	328.51	5.07	-48.5	-58.6	3.8	8.46e-01	0	45	0	0	59	11667
2026-01-05 12:16:54.84	328.46	5.00	-48.5	-58.6	3.8	8.46e-01	0	45	0	0	59	11667
2026-01-05 12:16:55.83	328.42	4.93	-48.5	-58.6	3.8	8.46e-01	0	45	0	0	59	11667
2026-01-05 12:16:56.82	328.37	4.87	-48.5	-58.6	3.8	8.46e-01	0	45	0	0	59	11667
2026-01-05 12:16:57.81	328.33	4.80	-48.5	-58.6	3.8	8.46e-01	0	45	0	0	59	11667
2026-01-05 12:16:58.80	328.28	4.73	-48.5	-58.6	3.8	8.46e-01	0	45	0	0	59	11667
2026-01-05 12:16:59.79	328.24	4.67	-48.5	-58.6	3.8	8.46e-01	0	45	0	0	59	11667
2026-01-05 12:17:00.78	328.19	4.60	-48.5	-58.6	3.8	8.46e-01	0	45	0	0	59	11667
2026-01-05 12:17:01.76	328.15	4.53	-48.5	-58.6	3.8	8.46e-01	0	45	0	0	59	11667
2026-01-05 12:17:02.75	328.11	4.47	-48.5	-58.6	3.8	8.46e-	0	0	45	0	0	59	11667
2026-01-05 12:17:03.73	328.06	4.40	-48.5	-58.6	3.8	8.46e-01	0	45	0	0	59	11667
2026-01-05 12:17:04.72	328.02	4.34	-48.5	-58.6	3.8	8.46e-01	0	45	0	0	59	11667
2026-01-05 12:17:05.72	327.98	4.27	-48.5	-58.6	3.8	8.46e-01	0	45	0	0	59	11667
2026-01-05 12:17:06.71	327.93	4.20	-48.5	-58.6	3.8	8.46e-01	0	45	0	0	59	11667
2026-01-05 12:17:07.70	327.89	4.14	-48.5	-58.6	3.8	8.46e-01	0	45	0	0	59	11667
2026-01-05 12:17:08.68	327.85	4.08	-48.5	-58.6	3.8	8.46e-01	0	45	0	0	59	11667
2026-01-05 12:17:09.67	327.80	4.01	-48.5	-58.6	3.8	8.46e-01	0	45	0	0	59	11667
2026-01-05 12:17:10.65	327.76	3.95	-48.5	-58.6	3.8	8.46e-01	0	45	0	0	59	11667
2026-01-05 12:17:11.64	327.72	3.88	-48.5	-58.6	3.8	8.46e-01	0	45	0	0	59	11667
2026-01-05 12:17:12.63	327.68	3.82	-48.5	-58.6	3.8	8.46e-01	0	45	0	0	59	11667
2026-01-05 12:17:13.60	327.64	3.75	-48.5	-58.6	3.8	8.46e-01	0	45	0	0	59	11667
2026-01-05 12:17:14.58	327.60	3.69	-48.5	-58.6	3.8	8.46e-01	0	45	0	0	59	11667
2026-01-05 12:17:15.58	327.55	3.62	-48.5	-58.6	3.8	8.46e-01	0	45	0	0	59	11667
2026-01-05 12:17:16.57	327.51	3.56	-48.5	-58.6	3.8	8.46e-01	0	44	0	0	59	11667
2026-01-05 12:17:17.56	327.47	3.50	-48.5	-58.6	3.8	8.46e-01	0	45	0	0	59	11667
2026-01-05 12:17:18.54	327.43	3.43	-48.5	-58.6	3.8	8.46e-01	0	45	0	0	59	11667
2026-01-05 12:17:19.53	327.39	3.37	-48.5	-58.6	3.8	8.46e-01	0	44	0	0	59	11667
2026-01-05 12:17:20.52	327.35	3.31	-48.5	-58.6	3.8	8.46e-01	0	45	0	0	59	11667
2026-01-05 12:17:21.50	327.31	3.24	-48.5	-58.6	3.8	8.46e-01	0	45	0	0	59	11667
2026-01-05 12:17:22.49	327.27	3.18	-48.5	-58.6	3.8	8.46e-01	0	45	0	0	59	11667
2026-01-05 12:17:23.48	327.23	3.12	-48.5	-58.6	3.8	8.46e-01	0	44	0	0	59	11667
2026-01-05 12:17:24.47	327.19	3.05	-48.5	-58.6	3.8	8.46e-01	0	44	0	0	59	11667

#Closed at: 2026-01-05 12:17:25
#Recorded file [0 MB]: D:/Data/31026_260105_151159.datle [0 MB]: D:/Data/31026_260105_151159.dat
2026-01-05 12:16:36.63	329.34	6.26	-48.5	-58.6	3.8	8.46e-01	0	45	0	0	59	11667
2026-01-05 12:16:37.63	329.29	6.19	-48.5	-58.6	3.8	8.46e-01	0	45	0	0	59	11667
2026-01-05 12:16:38.62	329.24	6.12	-48.5	-58.6	3.8	8.46e-01	0	45	0	0	59	11667
2026-01-05 12:16:39.61	329.19	6.05	-48.5	-58.6	3.8	8.46e-01	0	45	0	0	59	11667
2026-01-05 12:16:40.60	329.14	5.98	-48.5	-58.6	3.8	8.46e-01	0	45	0	0	59	11667
2026-01-05 12:16:41.60	329.10	5.91	-48.5	-58.6	3.8	8.46e-01	0	45	0	0	59	11667
2026-01-05 12:16:42.59	329.05	5.84	-48.5	-58.6	3.8	8.46e-01	0	45	0	0	59	11667
2026-01-05 12:16:43.58	329.00	5.77	-48.5	-58.6	3.8	8.46e-01	0	45	0	0	59	11667
2026-01-05 12:16:44.56	328.95	5.70	-48.5	-58.6	3.8	8.46e-01	0	45	0	0	59	11667
2026-01-05 12:16:45.55	328.90	5.64	-48.5	-58.6	3.8	8.46e-01	0	45	0	0	59	11667
2026-01-05 12:16:46.54	328.85	5.57	-48.5	-58.6	3.8	8.46e-01	0	45	0	0	59	11667
2026-01-05 12:16:47.54	328.81	5.50	-48.5	-58.6	3.8	8.46e-01	0	45	0	0	59	11667
2026-01-05 12:16:48.52	328.76	5.43	-48.5	-58.6	3.8	8.46e-01	0	45	0	0	59	11667
2026-01-05 12:16:49.51	328.71	5.36	-48.5	-58.6	3.8	8.46e-01	0	45	0	0	59	11667
2026-01-05 12:16:50.49	328.67	5.30	-48.5	-58.6	3.8	8.46e-01	0	45	0	0	59	11667
2026-01-05 12:16:51.48	328.62	5.23	-48.5	-58.6	3.8	8.46e-01	0	45	0	0	59	11667
2026-01-05 12:16:52.46	328.57	5.16	-48.5	-58.6	3.8	8.46e-01	0	45	0	0	59	11667
2026-01-05 12:16:53.46	328.53	5.09	-48.5	-58.6	3.8	8.46e-01	0	45	0	0	59	11667
2026-01-05 12:16:54.44	328.48	5.03	-48.5	-58.6	3.8	8.46e-01	0	45	0	0	59	11667
2026-01-05 12:16:55.43	328.44	4.96	-48.5	-58.6	3.8	8.46e-01	0	45	0	0	59	11667
2026-01-05 12:16:56.43	328.39	4.89	-48.5	-58.6	3.8	8.46e-01	0	45	0	0	59	11667
2026-01-05 12:16:57.41	328.35	4.83	-48.5	-58.6	3.8	8.46e-01	0	45	0	0	59	11667
2026-01-05 12:16:58.40	328.30	4.76	-48.5	-58.6	3.8	8.46e-01	0	45	0	0	59	11667
2026-01-05 12:16:59.39	328.26	4.69	-48.5	-58.6	3.8	8.46e-01	0	45	0	0	59	11667
2026-01-05 12:17:00.38	328.21	4.63	-48.5	-58.6	3.8	8.46e-01	0	45	0	0	59	11667
2026-01-05 12:17:01.37	328.17	4.56	-48.5	-58.6	3.8	8.46e-01	0	45	0	0	59	11667
2026-01-05 12:17:02.35	328.12	4.49	-48.5	-58.6	3.8	8.46e-01	0	45	0	0	59	11667
2026-01-05 12:17:03.34	328.08	4.43	-48.5	-58.6	3.8	8.46e-01	0	45	0	0	59	11667
2026-01-05 12:17:04.32	328.04	4.36	-48.5	-58.6	3.8	8.46e-01	0	45	0	0	59	11667
2026-01-05 12:17:05.32	327.99	4.30	-48.5	-58.6	3.8	8.46e-01	0	45	0	0	59	11667
2026-01-05 12:17:06.32	327.95	4.23	-48.5	-58.6	3.8	8.46e-01	0	45	0	0	59	11667
2026-01-05 12:17:07.30	327.91	4.17	-48.5	-58.6	3.8	8.46e-01	0	45	0	0	59	11667
2026-01-05 12:17:08.29	327.86	4.10	-48.5	-58.6	3.8	8.46e-01	0	45	0	0	59	11667
2026-01-05 12:17:09.27	327.82	4.04	-48.5	-58.6	3.8	8.46e-01	0	45	0	0	59	11667
2026-01-05 12:17:10.26	327.78	3.97	-48.5	-58.6	3.8	8.46e-01	0	45	0	0	59	11667
2026-01-05 12:17:11.25	327.74	3.91	-48.5	-58.6	3.8	8.46e-01	0	45	0	0	59	11667
2026-01-05 12:17:12.23	327.70	3.84	-48.5	-58.6	3.8	8.46e-01	0	45	0	0	59	11667
2026-01-05 12:17:13.22	327.65	3.78	-48.5	-58.6	3.8	8.46e-01	0	45	0	0	59	11667
2026-01-05 12:17:14.20	327.61	3.71	-48.5	-58.6	3.8	8.46e-01	0	45	0	0	59	11667
2026-01-05 12:17:15.18	327.57	3.65	-48.5	-58.6	3.8	8.46e-01	0	45	0	0	59	11667
2026-01-05 12:17:16.18	327.53	3.59	-48.5	-58.6	3.8	8.46e-01	0	45	0	0	59	11667
2026-01-05 12:17:17.17	327.49	3.52	-48.5	-58.6	3.8	8.46e-01	0	45	0	0	59	11667
2026-01-05 12:17:18.15	327.45	3.46	-48.5	-58.6	3.8	8.46e-01	0	44	0	0	59	11667
2026-01-05 12:17:19.14	327.41	3.39	-48.5	-58.6	3.8	8.46e-01	0	45	0	0	59	11667
2026-01-05 12:17:20.12	327.37	3.33	-48.5	-58.6	3.8	8.46e-01	0	45	0	0	59	11667
2026-01-05 12:17:21.11	327.33	3.27	-48.5	-58.6	3.8	8.46e-01	0	45	0	0	59	11667
2026-01-05 12:17:22.10	327.29	3.21	-48.5	-58.6	3.8	8.46e-01	0	44	0	0	59	11667
2026-01-05 12:17:23.09	327.25	3.14	-48.5	-58.6	3.8	8.46e-01	0	44	0	0	59	11667
2026-01-05 12:17:24.08	327.21	3.08	-48.5	-58.6	3.8	8.46e-01	0	44	0	0	59	11667
2026-01-05 12:17:25.07	327.17	3.02	-48.5	-58.6	3.8	8.46e-01	0	44	0	0	59	11667
2026-01-05 12:17:26.06	327.13	2.95	-48.5	-58.6	3.8	8.46e-01	0	44	0	0	59	11667
2026-01-05 12:17:27.04	327.09	2.89	-48.5	-58.6	3.8	8.46e-01	0	45	0	0	59	11667
2026-01-05 12:17:28.03	327.05	2.83	-48.5	-58.6	3.8	8.46e-01	0	45	0	0	59	11667

#Closed at: 2026-01-05 12:17:29
#Recorded file [0 MB]: D:/Data/31026_260105_151159.dat