passes_logs/2026/01/05/R3.0SM8_Murmansk_STILSPACE/R3.0SM8_Murmansk_STILSPACE__20260105_091601_SUOMI_NPP_rec.log

#Pass ID: 20260105_091601_SUOMI NPP
#Satellite: SUOMI NPP
#Configuration: NPP
#almurnet v.1.7.20240730
#Start time: 2026-01-05 09:16:02

#Version: 2.2.20231116
#Station: R3.0SM8_Murmansk_STILSPACE
#Location: 33.092731 lon 68.902999 lat
#TLE: 1 37849U 11061A   26003.96724563  .00000164  00000+0  98899-4 0  9990
#TLE: 2 37849  98.7800 306.1116 0002573  82.3190 277.8279 14.19522066735141

#Time	Az	El	Level	Level2	SNR	BER	BlckErr	Temp	State	Recorded	gain1	gain2
2026-01-05 09:16:02.14	143.73	3.03	-52.1	-66.1	3.8	1.49e+00	0	46	0	0	66	18642
2026-01-05 09:16:03.12	143.72	3.09	-52.0	-66.0	3.8	1.49e+00	0	46	104	0	67	17399
2026-01-05 09:16:04.11	143.72	3.16	-52.1	-66.0	3.8	1.49e+00	0	46	104	0	67	17349
2026-01-05 09:16:05.11	143.71	3.23	-52.0	-66.0	3.8	1.49e+00	0	46	104	0	67	17291
2026-01-05 09:16:06.11	143.70	3.29	-52.0	-65.9	3.8	1.49e+00	0	46	104	0	67	17165
2026-01-05 09:16:07.09	143.70	3.36	-51.9	-65.8	3.8	1.49e+00	0	47	104	0	66	18028
2026-01-05 09:16:08.09	143.69	3.43	-51.8	-65.7	3.8	1.49e+00	0	47	104	0	66	17863
2026-01-05 09:16:09.07	143.68	3.49	-51.7	-65.6	3.8	1.49e+00	0	47	104	0	66	17596
2026-01-05 09:16:10.07	143.68	3.56	-51.4	-65.3	3.8	1.49e+00	0	47	104	0	66	16936
2026-01-05 09:16:11.05	143.67	3.63	-51.4	-65.0	3.8	1.49e+00	0	47	104	0	65	17358
2026-01-05 09:16:12.04	143.66	3.70	-51.4	-64.9	3.8	1.49e+00	0	47	104	0	65	17242
2026-01-05 09:16:13.03	143.66	3.76	-51.4	-64.9	3.8	1.49e+00	0	47	104	0	65	17177
2026-01-05 09:16:14.02	143.65	3.83	-51.4	-64.8	3.8	1.49e+00	0	47	104	0	65	16992
2026-01-05 09:16:15.00	143.64	3.90	-51.4	-64.6	3.8	1.49e+00	0	47	104	0	65	16640
2026-01-05 09:16:15.99	143.64	3.97	-51.3	-64.5	3.8	1.49e+00	0	47	104	0	65	16325
2026-01-05 09:16:16.97	143.63	4.03	-51.4	-64.2	3.8	1.49e+00	0	47	104	0	65	15818
2026-01-05 09:16:17.96	143.62	4.10	-51.4	-63.9	3.8	1.49e+00	0	47	104	0	65	15251
2026-01-05 09:16:18.96	143.62	4.17	-51.3	-63.6	3.8	1.49e+00	0	47	104	0	65	14843
2026-01-05 09:16:19.94	143.61	4.24	-51.3	-63.3	3.8	1.49e+00	0	47	104	0	65	14235
2026-01-05 09:16:20.93	143.60	4.31	-51.3	-63.0	3.8	1.49e+00	0	47	104	0	65	13804
2026-01-05 09:16:21.91	143.59	4.38	-51.2	-62.7	4.0	1.49e+00	0	47	104	0	65	13307
2026-01-05 09:16:22.90	143.59	4.45	-51.2	-62.5	3.9	1.47e+00	0	47	104	0	65	12990
2026-01-05 09:16:23.89	143.58	4.52	-51.2	-62.1	4.1	1.43e+00	0	47	0	0	65	12471
2026-01-05 09:16:24.89	143.57	4.59	-51.1	-61.6	4.2	1.39e+00	0	47	0	0	65	11795
2026-01-05 09:16:25.88	143.57	4.66	-51.2	-61.2	4.3	1.35e+00	0	48	0	0	65	11251
2026-01-05 09:16:26.86	143.56	4.73	-51.2	-61.0	4.4	1.22e+00	0	48	0	1048576	65	10906
2026-01-05 09:16:27.84	143.55	4.80	-51.0	-60.1	4.8	9.89e-01	0	48	0	3145728	65	9911
2026-01-05 09:16:28.81	143.54	4.86	-50.9	-59.7	5.0	6.90e-01	0	48	0	5242880	64	9974
2026-01-05 09:16:29.79	143.54	4.93	-50.9	-58.9	5.5	5.62e-01	0	48	0	7340032	64	9132
2026-01-05 09:16:30.78	143.53	5.01	-50.6	-57.9	6.2	3.59e-01	0	48	0	8388608	64	8128
2026-01-05 09:16:31.77	143.52	5.08	-50.6	-57.6	6.5	2.64e-01	0	48	0	10485760	64	7842
2026-01-05 09:16:32.76	143.51	5.15	-50.5	-57.2	6.9	1.76e-01	0	48	0	12582912	64	7476
2026-01-05 09:16:33.75	143.50	5.22	-50.7	-57.8	6.3	2.10e-01	0	48	0	14680064	64	8078
2026-01-05 09:16:34.74	143.50	5.29	-50.6	-57.6	6.5	2.78e-01	0	48	0	16777216	64	7825
2026-01-05 09:16:35.73	143.49	5.36	-50.5	-56.6	7.5	1.60e-01	0	48	0	17825792	63	7397
2026-01-05 09:16:36.72	143.48	5.43	-50.3	-56.0	8.1	8.01e-02	0	48	0	19922944	63	6918
2026-01-05 09:16:37.71	143.47	5.51	-50.0	-55.1	8.9	4.63e-02	0	48	0	22020096	63	6269
2026-01-05 09:16:38.70	143.47	5.58	-49.9	-54.8	9.2	2.09e-02	0	49	0	24117248	62	6418
2026-01-05 09:16:39.68	143.46	5.65	-49.8	-54.3	9.8	1.07e-02	0	48	0	25165824	62	6054
2026-01-05 09:16:40.67	143.45	5.72	-49.5	-53.8	10.3	6.77e-03	0	48	0	27262976	62	5681
2026-01-05 09:16:41.66	143.44	5.80	-49.5	-53.7	10.4	4.23e-03	0	49	0	29360128	62	5649
2026-01-05 09:16:42.65	143.43	5.87	-49.7	-54.1	10.1	4.83e-03	0	49	0	31457280	62	5863
2026-01-05 09:16:43.64	143.42	5.94	-49.5	-53.7	10.4	4.65e-03	0	49	0	32505856	62	5620
2026-01-05 09:16:44.63	143.42	6.02	-49.3	-53.3	10.9	2.67e-03	0	49	0	34603008	61	5694
2026-01-05 09:16:45.62	143.41	6.09	-49.3	-53.2	10.9	2.31e-03	0	49	0	36700160	61	5642
2026-01-05 09:16:46.60	143.40	6.16	-49.0	-52.6	11.6	9.99e-04	0	49	0	38797312	61	5251
2026-01-05 09:16:47.59	143.39	6.24	-48.8	-52.3	11.9	5.07e-04	0	49	0	40894464	60	5372
2026-01-05 09:16:48.57	143.38	6.31	-49.0	-52.4	11.8	4.29e-04	0	49	0	41943040	60	5458
2026-01-05 09:16:49.56	143.37	6.38	-49.0	-52.5	11.7	4.09e-04	0	49	0	44040192	60	5505
2026-01-05 09:16:50.54	143.36	6.46	-49.1	-52.7	11.5	6.20e-04	0	49	0	46137344	60	5627
2026-01-05 09:16:51.53	143.36	6.53	-49.1	-52.7	11.6	5.93e-04	0	49	0	48234496	60	5601
2026-01-05 09:16:52.53	143.35	6.61	-49.0	-52.5	11.7	9.30e-04	0	49	0	49283072	60	5518
2026-01-05 09:16:53.51	143.34	6.68	-48.9	-52.3	12.0	5.20e-04	0	49	0	51380224	60	5380
2026-01-05 09:16:54.50	143.33	6.76	-48.7	-51.9	12.4	1.76e-04	0	49	0	53477376	60	5144
2026-01-05 09:16:55.49	143.32	6.84	-48.5	-51.5	12.8	9.07e-05	0	49	0	55574528	60	4906
2026-01-05 09:16:56.47	143.31	6.91	-48.4	-51.3	13.1	5.87e-05	0	49	0	56623104	59	5043
2026-01-05 09:16:57.46	143.30	6.99	-48.4	-51.3	13.0	3.20e-05	0	49	0	58720256	59	5056
2026-01-05 09:16:58.45	143.29	7.06	-48.4	-51.4	13.0	2.89e-05	0	50	0	60817408	59	5134
2026-01-05 09:16:59.44	143.28	7.14	-48.4	-51.3	13.0	3.89e-05	0	50	0	62914560	59	5099
2026-01-05 09:17:00.43	143.27	7.22	-48.5	-51.6	12.7	4.73e-05	0	50	0	65011712	59	5251
2026-01-05 09:17:01.43	143.26	7.30	-48.7	-51.9	12.4	8.31e-05	0	50	0	66060288	59	5444
2026-01-05 09:17:02.42	143.25	7.37	-48.6	-51.7	12.6	1.11e-04	0	50	0	68157440	59	5307
2026-01-05 09:17:03.41	143.25	7.45	-48.7	-51.8	12.5	8.85e-05	0	50	0	70254592	59	5396
2026-01-05 09:17:04.40	143.24	7.53	-48.8	-52.1	12.3	3.14e-04	0	50	0	72351744	59	5551
2026-01-05 09:17:05.38	143.23	7.61	-48.8	-52.0	12.4	1.18e-04	0	50	0	73400320	59	5497
2026-01-05 09:17:06.36	143.22	7.68	-48.8	-51.9	12.5	1.02e-04	0	50	0	75497472	59	5445
2026-01-05 09:17:07.36	143.21	7.76	-48.9	-52.1	12.3	2.23e-04	0	50	0	77594624	59	5551
2026-01-05 09:17:08.35	143.20	7.84	-48.8	-52.0	12.5	1.64e-04	0	50	0	79691776	59	5465
2026-01-05 09:17:09.34	143.19	7.92	-48.8	-51.9	12.5	1.02e-04	0	50	0	80740352	59	5431
2026-01-05 09:17:10.33	143.18	8.00	-48.6	-51.5	12.9	4.50e-05	0	50	0	82837504	59	5198
2026-01-05 09:17:11.31	143.17	8.08	-48.6	-51.6	12.8	6.10e-05	0	50	0	84934656	59	5253
2026-01-05 09:17:12.30	143.16	8.16	-48.6	-51.5	12.9	7.62e-05	0	50	0	87031808	59	5189
2026-01-05 09:17:13.29	143.15	8.24	-48.9	-52.1	12.4	6.56e-05	0	50	0	88080384	59	5534
2026-01-05 09:17:14.28	143.14	8.32	-49.0	-52.4	12.0	2.40e-04	0	50	0	90177536	59	5775
2026-01-05 09:17:15.27	143.12	8.40	-48.8	-52.1	12.3	2.90e-04	0	50	0	92274688	60	5244
2026-01-05 09:17:16.25	143.11	8.48	-49.0	-52.5	11.9	2.02e-04	0	50	0	94371840	60	5515
2026-01-05 09:17:17.25	143.10	8.56	-49.3	-53.2	11.2	6.58e-04	0	50	0	96468992	60	5953
2026-01-05 09:17:18.23	143.09	8.64	-49.1	-52.6	11.8	5.79e-04	0	51	0	97517568	60	5590
2026-01-05 09:17:19.21	143.08	8.72	-49.2	-53.0	11.5	5.63e-04	0	50	0	99614720	60	5794
2026-01-05 09:17:20.20	143.07	8.81	-49.4	-53.4	11.0	1.25e-03	0	50	0	101711872	60	6069
2026-01-05 09:17:21.19	143.06	8.89	-49.4	-53.2	11.2	1.42e-03	0	50	0	103809024	60	5953
2026-01-05 09:17:22.18	143.05	8.97	-49.5	-53.3	11.2	1.49e-03	0	51	0	104857600	60	6001
2026-01-05 09:17:23.17	143.04	9.05	-49.5	-53.4	11.1	1.71e-03	0	51	0	106954752	60	6073
2026-01-05 09:17:24.17	143.03	9.14	-49.5	-53.3	11.1	1.35e-03	0	51	0	109051904	60	6049
2026-01-05 09:17:25.16	143.02	9.22	-49.6	-53.5	11.0	1.69e-03	0	51	0	111149056	61	5799
2026-01-05 09:17:26.15	143.00	9.30	-49.2	-52.5	11.9	5.28e-04	0	51	0	112197632	61	5215
2026-01-05 09:17:27.15	142.99	9.39	-49.0	-52.2	12.3	3.33e-04	0	51	0	114294784	61	5007
2026-01-05 09:17:28.12	142.98	9.47	-48.8	-51.8	12.7	1.21e-04	0	51	0	116391936	60	5093
2026-01-05 09:17:29.10	142.97	9.56	-48.5	-51.3	13.2	3.66e-05	0	51	0	118489088	60	4814
2026-01-05 09:17:30.10	142.96	9.64	-48.3	-50.9	13.6	9.90e-06	0	51	0	120586240	59	4853
2026-01-05 09:17:31.09	142.95	9.73	-48.3	-50.8	13.8	6.80e-06	0	51	0	121634816	59	4782
2026-01-05 09:17:32.08	142.94	9.81	-48.1	-50.5	14.0	3.00e-06	0	51	0	123731968	59	4650
2026-01-05 09:17:33.08	142.92	9.90	-48.2	-50.8	13.9	3.80e-06	0	51	0	125829120	59	4761
2026-01-05 09:17:34.07	142.91	9.98	-48.1	-50.6	14.0	3.00e-06	0	51	0	127926272	59	4698
2026-01-05 09:17:35.06	142.90	10.07	-48.3	-51.1	13.5	3.80e-06	0	51	0	128974848	59	4951
2026-01-05 09:17:36.05	142.89	10.16	-48.1	-50.8	13.8	5.30e-06	0	51	0	131072000	59	4774
2026-01-05 09:17:37.04	142.87	10.24	-48.4	-51.2	13.4	9.90e-06	0	51	0	133169152	59	5015
2026-01-05 09:17:38.04	142.86	10.33	-48.7	-51.6	13.0	2.59e-05	0	51	0	135266304	59	5269
2026-01-05 09:17:39.04	142.85	10.42	-48.4	-51.1	13.5	2.74e-05	0	51	0	137363456	59	4959
2026-01-05 09:17:40.02	142.84	10.51	-48.7	-51.7	13.0	2.59e-05	0	51	0	138412032	59	5292
2026-01-05 09:17:41.01	142.82	10.59	-48.7	-51.7	13.0	4.27e-05	0	51	0	140509184	59	5290
2026-01-05 09:17:41.99	142.81	10.68	-48.7	-51.6	13.0	3.96e-05	0	51	0	142606336	59	5275
2026-01-05 09:17:42.98	142.80	10.77	-48.7	-51.7	12.9	4.57e-05	0	51	0	144703488	59	5317
2026-01-05 09:17:43.97	142.79	10.86	-48.9	-52.0	12.7	7.70e-05	0	51	0	145752064	59	5476
2026-01-05 09:17:44.96	142.77	10.95	-48.7	-51.6	13.0	4.65e-05	0	52	0	147849216	59	5272
2026-01-05 09:17:45.95	142.76	11.04	-48.6	-51.4	13.3	2.74e-05	0	52	0	149946368	59	5137
2026-01-05 09:17:46.94	142.75	11.13	-48.6	-51.4	13.2	2.36e-05	0	52	0	152043520	59	5125
2026-01-05 09:17:47.93	142.73	11.22	-48.7	-51.5	13.1	1.90e-05	0	52	0	153092096	59	5216
2026-01-05 09:17:48.91	142.72	11.31	-48.8	-51.8	12.8	4.73e-05	0	52	0	155189248	59	5350
2026-01-05 09:17:49.90	142.71	11.40	-48.5	-51.4	13.3	7.40e-05	0	52	0	157286400	59	5103
2026-01-05 09:17:50.89	142.69	11.49	-48.3	-50.9	13.8	5.30e-06	0	52	0	159383552	59	4832
2026-01-05 09:17:51.88	142.68	11.58	-48.1	-50.7	14.0	0.00e+00	0	52	0	161480704	59	4708
2026-01-05 09:17:52.87	142.66	11.68	-47.8	-50.1	14.6	0.00e+00	0	52	0	162529280	58	4672
2026-01-05 09:17:53.85	142.65	11.77	-47.7	-50.0	14.7	0.00e+00	0	52	0	164626432	58	4607
2026-01-05 09:17:54.83	142.64	11.86	-47.6	-49.7	15.0	7.00e-07	0	52	0	166723584	58	4457
2026-01-05 09:17:55.82	142.62	11.95	-47.5	-49.6	15.1	0.00e+00	0	52	0	167772160	58	4394
2026-01-05 09:17:56.80	142.61	12.04	-47.6	-49.7	15.0	0.00e+00	0	52	0	169869312	58	4467
2026-01-05 09:17:57.79	142.59	12.14	-47.5	-49.6	15.1	7.00e-07	0	52	0	171966464	58	4405
2026-01-05 09:17:58.77	142.58	12.23	-47.5	-49.7	15.0	0.00e+00	0	52	0	174063616	58	4445
2026-01-05 09:17:59.76	142.56	12.32	-47.5	-49.7	15.0	0.00e+00	0	52	0	176160768	58	4476
2026-01-05 09:18:00.75	142.55	12.42	-47.4	-49.5	15.2	0.00e+00	0	52	0	177209344	57	4614
2026-01-05 09:18:01.74	142.54	12.51	-47.6	-49.8	14.9	0.00e+00	0	52	0	179306496	57	4787
2026-01-05 09:18:02.73	142.52	12.61	-47.7	-49.9	14.8	0.00e+00	0	52	0	181403648	57	4825
2026-01-05 09:18:03.72	142.50	12.71	-47.6	-49.6	15.1	0.00e+00	0	52	0	183500800	57	4705
2026-01-05 09:18:04.71	142.49	12.80	-47.7	-49.9	14.8	0.00e+00	0	52	0	184549376	57	4825
2026-01-05 09:18:05.70	142.47	12.90	-47.7	-49.8	14.9	0.00e+00	0	52	0	186646528	57	4813
2026-01-05 09:18:06.69	142.46	13.00	-47.8	-49.9	14.8	0.00e+00	0	52	0	188743680	57	4863
2026-01-05 09:18:07.68	142.44	13.09	-47.7	-49.9	14.8	0.00e+00	0	52	0	190840832	57	4840
2026-01-05 09:18:08.67	142.43	13.19	-47.6	-49.7	15.0	0.00e+00	0	52	0	191889408	57	4715
2026-01-05 09:18:09.66	142.41	13.29	-47.7	-49.9	14.8	0.00e+00	0	52	0	193986560	57	4833
2026-01-05 09:18:10.65	142.40	13.39	-48.0	-50.3	14.4	7.00e-07	0	52	0	196083712	57	5087
2026-01-05 09:18:11.65	142.38	13.49	-47.9	-50.1	14.6	0.00e+00	0	53	0	198180864	57	4980
2026-01-05 09:18:12.64	142.36	13.59	-47.7	-49.9	14.9	0.00e+00	0	52	0	200278016	57	4817
2026-01-05 09:18:13.62	142.35	13.69	-47.5	-49.6	15.1	0.00e+00	0	52	0	201326592	57	4673
2026-01-05 09:18:14.61	142.33	13.79	-47.5	-49.7	15.1	0.00e+00	0	52	0	203423744	57	4717
2026-01-05 09:18:15.61	142.31	13.89	-47.6	-49.8	15.1	0.00e+00	0	52	0	205520896	57	4768
2026-01-05 09:18:16.59	142.30	13.99	-47.8	-50.1	14.7	0.00e+00	0	52	0	207618048	57	4930
2026-01-05 09:18:17.57	142.28	14.09	-47.8	-50.0	14.8	0.00e+00	0	52	0	208666624	57	4909
2026-01-05 09:18:18.57	142.26	14.19	-47.7	-49.9	14.9	0.00e+00	0	52	0	210763776	57	4845
2026-01-05 09:18:19.56	142.25	14.29	-47.4	-49.7	15.1	0.00e+00	0	52	0	212860928	57	4707
2026-01-05 09:18:20.55	142.23	14.40	-47.3	-49.5	15.2	0.00e+00	0	52	0	214958080	57	4624
2026-01-05 09:18:21.54	142.21	14.50	-47.4	-49.6	15.1	0.00e+00	0	53	0	217055232	57	4680
2026-01-05 09:18:22.53	142.19	14.60	-47.3	-49.5	15.2	0.00e+00	0	52	0	218103808	57	4621
2026-01-05 09:18:23.52	142.17	14.71	-47.2	-49.3	15.4	0.00e+00	0	52	0	220200960	57	4545
2026-01-05 09:18:24.51	142.16	14.81	-47.3	-49.4	15.3	0.00e+00	0	52	0	222298112	57	4588
2026-01-05 09:18:25.50	142.14	14.92	-47.3	-49.5	15.3	0.00e+00	0	53	0	224395264	57	4601
2026-01-05 09:18:26.48	142.12	15.02	-47.6	-49.9	14.9	0.00e+00	0	53	0	225443840	57	4824
2026-01-05 09:18:27.47	142.10	15.13	-47.6	-49.9	14.8	0.00e+00	0	52	0	227540992	57	4869
2026-01-05 09:18:28.46	142.08	15.23	-47.3	-49.5	15.2	0.00e+00	0	53	0	229638144	57	4636
2026-01-05 09:18:29.44	142.07	15.34	-47.1	-49.2	15.5	0.00e+00	0	53	0	231735296	57	4462
2026-01-05 09:18:30.42	142.05	15.45	-46.9	-48.9	15.8	0.00e+00	0	53	0	232783872	56	4574
2026-01-05 09:18:31.40	142.03	15.55	-46.8	-48.7	16.0	0.00e+00	0	53	0	234881024	56	4491
2026-01-05 09:18:32.39	142.01	15.66	-46.7	-48.6	16.1	0.00e+00	0	53	0	236978176	56	4417
2026-01-05 09:18:33.37	141.99	15.77	-46.8	-48.7	16.1	0.00e+00	0	53	0	239075328	56	4455
2026-01-05 09:18:34.36	141.97	15.88	-46.9	-48.8	16.0	0.00e+00	0	53	0	240123904	56	4512
2026-01-05 09:18:35.35	141.95	15.99	-46.5	-48.4	16.4	0.00e+00	0	53	0	242221056	56	4303
2026-01-05 09:18:36.34	141.93	16.10	-46.3	-48.0	16.7	0.00e+00	0	53	0	244318208	55	4348
2026-01-05 09:18:37.32	141.91	16.21	-46.3	-48.1	16.5	0.00e+00	0	53	0	246415360	55	4408
2026-01-05 09:18:38.31	141.89	16.32	-46.2	-48.0	16.7	0.00e+00	0	53	0	247463936	55	4341
2026-01-05 09:18:39.29	141.87	16.43	-46.2	-47.9	16.7	0.00e+00	0	53	0	249561088	55	4302
2026-01-05 09:18:40.28	141.85	16.54	-46.2	-48.0	16.7	0.00e+00	0	53	0	251658240	55	4344
2026-01-05 09:18:41.28	141.83	16.65	-46.5	-48.3	16.3	0.00e+00	0	53	0	253755392	55	4538
2026-01-05 09:18:42.27	141.81	16.77	-46.5	-48.4	16.3	0.00e+00	0	53	0	255852544	55	4566
2026-01-05 09:18:43.26	141.79	16.88	-46.4	-48.3	16.3	0.00e+00	0	53	0	256901120	55	4505
2026-01-05 09:18:44.25	141.77	17.00	-46.3	-47.9	16.7	0.00e+00	0	53	0	258998272	55	4326
2026-01-05 09:18:45.24	141.74	17.11	-46.2	-47.9	16.8	0.00e+00	0	53	0	261095424	55	4298
2026-01-05 09:18:46.22	141.72	17.22	-46.1	-47.8	16.8	0.00e+00	0	53	0	263192576	55	4272
2026-01-05 09:18:47.21	141.70	17.34	-46.2	-47.8	16.8	0.00e+00	0	53	0	264241152	55	4281
2026-01-05 09:18:48.20	141.68	17.46	-46.3	-48.0	16.7	0.00e+00	0	53	0	266338304	55	4349
2026-01-05 09:18:49.20	141.66	17.58	-46.3	-47.9	16.7	0.00e+00	0	53	0	268435456	55	4319
2026-01-05 09:18:50.19	141.63	17.69	-46.3	-47.9	16.7	0.00e+00	0	53	0	270532608	55	4331
2026-01-05 09:18:51.17	141.61	17.81	-46.4	-48.2	16.5	0.00e+00	0	53	0	271581184	55	4451
2026-01-05 09:18:52.16	141.59	17.93	-46.3	-48.0	16.6	0.00e+00	0	53	0	273678336	55	4369
2026-01-05 09:18:53.16	141.56	18.05	-46.4	-48.2	16.5	0.00e+00	0	53	0	275775488	55	4446
2026-01-05 09:18:54.15	141.54	18.17	-46.4	-48.1	16.5	0.00e+00	0	53	0	277872640	55	4426
2026-01-05 09:18:55.14	141.52	18.29	-46.4	-48.2	16.5	0.00e+00	0	53	0	279969792	55	4449
2026-01-05 09:18:56.13	141.49	18.41	-46.3	-48.0	16.7	0.00e+00	0	53	0	281018368	55	4355
2026-01-05 09:18:57.11	141.47	18.53	-46.2	-47.9	16.8	0.00e+00	0	53	0	283115520	55	4304
2026-01-05 09:18:58.10	141.45	18.65	-46.2	-47.8	16.9	0.00e+00	0	53	0	285212672	55	4283
2026-01-05 09:18:59.10	141.42	18.78	-46.2	-47.9	16.8	0.00e+00	0	54	0	287309824	55	4300
2026-01-05 09:19:00.08	141.40	18.90	-46.3	-48.0	16.7	0.00e+00	0	53	0	288358400	55	4368
2026-01-05 09:19:01.08	141.37	19.02	-46.4	-48.2	16.6	0.00e+00	0	53	0	290455552	55	4448
2026-01-05 09:19:02.07	141.35	19.15	-46.6	-48.3	16.4	0.00e+00	0	53	0	292552704	55	4545
2026-01-05 09:19:03.06	141.32	19.27	-46.5	-48.2	16.5	0.00e+00	0	54	0	294649856	55	4461
2026-01-05 09:19:04.05	141.30	19.40	-46.2	-48.0	16.7	0.00e+00	0	53	0	296747008	55	4352
2026-01-05 09:19:05.04	141.27	19.52	-46.5	-48.3	16.4	0.00e+00	0	53	0	297795584	55	4508
2026-01-05 09:19:06.03	141.25	19.65	-46.3	-47.9	16.8	0.00e+00	0	54	0	299892736	55	4333
2026-01-05 09:19:07.02	141.22	19.78	-46.4	-48.1	16.6	0.00e+00	0	54	0	301989888	55	4411
2026-01-05 09:19:08.00	141.19	19.91	-46.4	-48.1	16.6	0.00e+00	0	53	0	304087040	55	4427
2026-01-05 09:19:08.99	141.17	20.04	-46.3	-48.0	16.8	0.00e+00	0	54	0	305135616	55	4351
2026-01-05 09:19:09.99	141.14	20.17	-46.3	-48.0	16.7	0.00e+00	0	54	0	307232768	55	4349
2026-01-05 09:19:10.98	141.11	20.30	-46.4	-48.1	16.6	0.00e+00	0	53	0	309329920	55	4435
2026-01-05 09:19:11.97	141.08	20.43	-46.4	-48.2	16.6	0.00e+00	0	54	0	311427072	55	4450
2026-01-05 09:19:12.96	141.06	20.56	-46.4	-48.1	16.6	0.00e+00	0	54	0	312475648	55	4424
2026-01-05 09:19:13.95	141.03	20.69	-46.5	-48.3	16.4	0.00e+00	0	54	0	314572800	55	4516
2026-01-05 09:19:14.94	141.00	20.83	-46.3	-48.0	16.6	0.00e+00	0	54	0	316669952	55	4385
2026-01-05 09:19:15.93	140.97	20.96	-46.5	-48.2	16.5	0.00e+00	0	54	0	318767104	55	4477
2026-01-05 09:19:16.93	140.94	21.09	-46.6	-48.3	16.4	0.00e+00	0	54	0	320864256	55	4542
2026-01-05 09:19:17.92	140.91	21.23	-46.9	-48.8	15.9	0.00e+00	0	54	0	321912832	55	4806
2026-01-05 09:19:18.91	140.88	21.37	-46.8	-48.6	16.2	0.00e+00	0	54	0	324009984	55	4671
2026-01-05 09:19:19.90	140.85	21.50	-46.7	-48.6	16.2	0.00e+00	0	54	0	326107136	55	4669
2026-01-05 09:19:20.90	140.82	21.64	-46.6	-48.5	16.3	0.00e+00	0	54	0	328204288	55	4613
2026-01-05 09:19:21.89	140.79	21.78	-46.8	-48.7	16.1	0.00e+00	0	54	0	329252864	55	4715
2026-01-05 09:19:22.87	140.76	21.92	-46.8	-48.7	16.1	0.00e+00	0	54	0	331350016	55	4712
2026-01-05 09:19:23.86	140.73	22.06	-46.8	-48.6	16.2	0.00e+00	0	54	0	333447168	55	4694
2026-01-05 09:19:24.84	140.70	22.20	-47.2	-49.1	15.7	0.00e+00	0	54	0	335544320	56	4670
2026-01-05 09:19:25.82	140.67	22.34	-47.1	-49.0	15.9	0.00e+00	0	54	0	337641472	56	4623
2026-01-05 09:19:26.82	140.64	22.48	-47.3	-49.3	15.7	0.00e+00	0	54	0	338690048	56	4770
2026-01-05 09:19:27.81	140.61	22.62	-47.3	-49.3	15.6	0.00e+00	0	54	0	340787200	56	4779
2026-01-05 09:19:28.79	140.57	22.76	-47.3	-49.2	15.7	0.00e+00	0	54	0	342884352	56	4731
2026-01-05 09:19:29.77	140.54	22.91	-47.5	-49.6	15.3	0.00e+00	0	54	0	343932928	57	4674
2026-01-05 09:19:30.76	140.51	23.05	-47.4	-49.5	15.4	0.00e+00	0	54	0	346030080	57	4599
2026-01-05 09:19:31.75	140.47	23.20	-47.5	-49.5	15.4	0.00e+00	0	54	0	348127232	57	4639
2026-01-05 09:19:32.74	140.44	23.34	-47.6	-49.6	15.2	0.00e+00	0	54	0	350224384	57	4705
2026-01-05 09:19:33.72	140.41	23.49	-47.8	-50.0	14.9	0.00e+00	0	54	0	352321536	57	4899
2026-01-05 09:19:34.70	140.37	23.64	-47.7	-49.9	15.0	0.00e+00	0	54	0	353370112	57	4856
2026-01-05 09:19:35.69	140.34	23.79	-47.9	-50.2	14.8	0.00e+00	0	54	0	355467264	57	5018
2026-01-05 09:19:36.67	140.30	23.93	-47.8	-50.0	15.0	0.00e+00	0	54	0	357564416	57	4879
2026-01-05 09:19:37.67	140.27	24.09	-47.6	-49.7	15.3	0.00e+00	0	54	0	359661568	57	4711
2026-01-05 09:19:38.67	140.23	24.24	-47.7	-49.9	15.1	0.00e+00	0	54	0	360710144	57	4817
2026-01-05 09:19:39.66	140.19	24.39	-47.6	-49.7	15.3	0.00e+00	0	54	0	362807296	57	4740
2026-01-05 09:19:40.65	140.16	24.55	-47.9	-50.1	14.8	0.00e+00	0	54	0	364904448	57	4970
2026-01-05 09:19:41.64	140.12	24.70	-48.0	-50.2	14.8	0.00e+00	0	54	0	367001600	58	4740
2026-01-05 09:19:42.62	140.08	24.85	-48.1	-50.4	14.6	7.00e-07	0	54	0	368050176	58	4827
2026-01-05 09:19:43.62	140.04	25.01	-48.3	-50.7	14.2	2.20e-06	0	54	0	370147328	58	5032
2026-01-05 09:19:44.61	140.01	25.17	-48.3	-50.8	14.2	7.00e-07	0	54	0	372244480	58	5088
2026-01-05 09:19:45.60	139.97	25.33	-48.6	-51.2	13.8	3.80e-06	0	54	0	374341632	59	5023
2026-01-05 09:19:46.58	139.93	25.48	-48.9	-51.8	13.1	1.37e-05	0	54	0	376438784	59	5386
2026-01-05 09:19:47.57	139.89	25.64	-48.7	-51.4	13.6	6.80e-06	0	54	0	377487360	59	5113
2026-01-05 09:19:48.56	139.85	25.80	-48.7	-51.4	13.6	9.10e-06	0	54	0	379584512	59	5149
2026-01-05 09:19:49.56	139.81	25.97	-49.0	-51.8	13.1	1.29e-05	0	54	0	381681664	59	5395
2026-01-05 09:19:50.55	139.77	26.13	-48.7	-51.5	13.5	1.37e-05	0	54	0	383778816	59	5160
2026-01-05 09:19:51.55	139.72	26.30	-48.6	-51.2	13.9	4.50e-06	0	54	0	384827392	59	5004
2026-01-05 09:19:52.53	139.68	26.46	-48.4	-50.9	14.1	7.00e-07	0	54	0	386924544	59	4834
2026-01-05 09:19:53.52	139.64	26.63	-48.6	-51.2	13.9	3.00e-06	0	54	0	389021696	59	4999
2026-01-05 09:19:54.52	139.60	26.79	-48.8	-51.5	13.5	1.67e-05	0	54	0	391118848	59	5198
2026-01-05 09:19:55.52	139.55	26.96	-48.3	-50.7	14.3	2.20e-06	0	54	0	393216000	59	4733
2026-01-05 09:19:56.51	139.51	27.13	-48.1	-50.4	14.6	0.00e+00	0	54	0	394264576	59	4558
2026-01-05 09:19:57.50	139.46	27.30	-48.3	-50.6	14.3	0.00e+00	0	54	0	396361728	59	4694
2026-01-05 09:19:58.48	139.42	27.47	-48.1	-50.5	14.5	1.50e-06	0	54	0	398458880	59	4625
2026-01-05 09:19:59.48	139.37	27.64	-48.3	-50.7	14.2	7.00e-07	0	54	0	400556032	59	4750
2026-01-05 09:20:00.46	139.33	27.82	-48.4	-50.7	14.2	1.50e-06	0	54	0	401604608	59	4749
2026-01-05 09:20:01.45	139.28	27.99	-48.6	-51.1	13.8	3.00e-06	0	55	0	403701760	59	4978
2026-01-05 09:20:02.43	139.24	28.16	-48.8	-51.4	13.5	1.22e-05	0	54	0	405798912	59	5151
2026-01-05 09:20:03.42	139.19	28.34	-48.5	-50.9	14.1	2.20e-06	0	55	0	407896064	59	4851
2026-01-05 09:20:04.41	139.14	28.52	-48.7	-51.4	13.6	6.10e-06	0	54	0	408944640	59	5119
2026-01-05 09:20:05.39	139.09	28.69	-49.1	-52.0	13.0	1.37e-05	0	54	0	411041792	60	5215
2026-01-05 09:20:06.38	139.04	28.87	-48.6	-51.3	13.7	4.50e-06	0	54	0	413138944	60	4804
2026-01-05 09:20:07.37	138.99	29.05	-48.7	-51.5	13.5	1.75e-05	0	55	0	415236096	60	4887
2026-01-05 09:20:08.36	138.94	29.23	-48.8	-51.6	13.4	2.13e-05	0	54	0	417333248	60	4944
2026-01-05 09:20:09.35	138.89	29.42	-49.1	-52.1	12.9	2.44e-05	0	54	0	418381824	60	5266
2026-01-05 09:20:10.34	138.84	29.60	-49.3	-52.5	12.5	1.27e-04	0	55	0	420478976	60	5511
2026-01-05 09:20:11.33	138.79	29.79	-49.4	-52.6	12.4	1.33e-04	0	55	0	422576128	60	5581
2026-01-05 09:20:12.32	138.73	29.97	-49.7	-53.4	11.6	3.82e-04	0	54	0	424673280	61	5754
2026-01-05 09:20:13.31	138.68	30.16	-50.1	-54.2	10.7	1.11e-03	0	55	0	425721856	62	5946
2026-01-05 09:20:14.29	138.63	30.35	-49.7	-53.3	11.7	6.33e-04	0	55	0	427819008	62	5400
2026-01-05 09:20:15.28	138.57	30.54	-49.5	-52.9	12.1	3.07e-04	0	55	0	429916160	62	5102
2026-01-05 09:20:16.27	138.52	30.73	-49.3	-52.5	12.5	2.12e-04	0	55	0	432013312	61	5197
2026-01-05 09:20:17.26	138.46	30.92	-49.0	-52.1	12.9	7.32e-05	0	55	0	433061888	61	4950
2026-01-05 09:20:18.24	138.40	31.11	-49.0	-52.1	13.0	3.05e-05	0	55	0	435159040	61	4950
2026-01-05 09:20:19.23	138.34	31.31	-49.1	-52.2	12.9	6.48e-05	0	55	0	437256192	61	5009
2026-01-05 09:20:20.21	138.29	31.50	-49.0	-52.0	13.0	7.85e-05	0	55	0	439353344	61	4875
2026-01-05 09:20:21.20	138.23	31.70	-49.0	-52.1	13.0	4.95e-05	0	55	0	440401920	61	4938
2026-01-05 09:20:22.19	138.17	31.90	-49.2	-52.2	12.9	5.56e-05	0	55	0	442499072	61	5029
2026-01-05 09:20:23.18	138.11	32.10	-49.5	-53.1	11.9	1.87e-04	0	55	0	444596224	61	5532
2026-01-05 09:20:24.16	138.04	32.30	-49.6	-53.2	11.8	3.25e-04	0	55	0	446693376	61	5608
2026-01-05 09:20:25.15	137.98	32.50	-49.9	-53.9	11.1	1.34e-03	0	55	0	448790528	61	6074
2026-01-05 09:20:26.14	137.92	32.70	-49.6	-53.3	11.6	1.07e-03	0	55	0	449839104	61	5660
2026-01-05 09:20:27.13	137.85	32.91	-49.8	-53.6	11.4	9.73e-04	0	55	0	451936256	61	5862
2026-01-05 09:20:28.11	137.79	33.11	-49.6	-53.1	11.8	1.08e-03	0	55	0	454033408	61	5573
2026-01-05 09:20:29.10	137.72	33.32	-49.7	-53.4	11.6	5.71e-04	0	55	0	456130560	61	5733
2026-01-05 09:20:30.09	137.66	33.53	-49.7	-53.3	11.7	5.20e-04	0	55	0	457179136	61	5663
2026-01-05 09:20:31.08	137.59	33.74	-49.7	-53.3	11.6	5.84e-04	0	55	0	459276288	61	5703
2026-01-05 09:20:32.07	137.52	33.96	-49.9	-53.7	11.3	1.06e-03	0	55	0	461373440	61	5966
2026-01-05 09:20:33.06	137.45	34.17	-49.8	-53.7	11.2	1.61e-03	0	55	0	463470592	61	5963
2026-01-05 09:20:34.04	137.38	34.38	-50.3	-54.9	10.1	3.92e-03	0	55	0	464519168	62	6421
2026-01-05 09:20:35.03	137.31	34.60	-49.9	-53.8	11.1	4.10e-03	0	55	0	466616320	62	5714
2026-01-05 09:20:36.02	137.24	34.82	-49.6	-53.2	11.8	1.25e-03	0	55	0	468713472	62	5313
2026-01-05 09:20:37.01	137.16	35.04	-49.2	-52.5	12.5	2.27e-04	0	55	0	470810624	61	5209
2026-01-05 09:20:37.99	137.09	35.26	-48.8	-51.9	13.1	5.79e-05	0	55	0	472907776	60	5139
2026-01-05 09:20:38.99	137.01	35.48	-48.7	-51.5	13.5	8.30e-06	0	55	0	473956352	60	4914
2026-01-05 09:20:39.98	136.94	35.70	-48.6	-51.2	13.9	0.00e+00	0	55	0	476053504	59	5015
2026-01-05 09:20:40.97	136.86	35.93	-48.6	-51.3	13.8	7.00e-07	0	55	0	478150656	59	5078
2026-01-05 09:20:41.96	136.78	36.16	-48.9	-51.9	13.1	1.44e-05	0	55	0	480247808	59	5441
2026-01-05 09:20:42.94	136.70	36.38	-49.0	-52.1	13.0	2.51e-05	0	55	0	481296384	59	5541
2026-01-05 09:20:43.93	136.62	36.61	-49.2	-52.7	12.3	1.45e-04	0	55	0	483393536	60	5644
2026-01-05 09:20:44.92	136.54	36.84	-49.0	-52.2	12.9	1.27e-04	0	55	0	485490688	60	5317
2026-01-05 09:20:45.91	136.45	37.08	-48.7	-51.7	13.4	2.05e-05	0	55	0	487587840	60	5026
2026-01-05 09:20:46.91	136.37	37.31	-48.4	-51.1	14.0	5.30e-06	0	55	0	488636416	59	4971
2026-01-05 09:20:47.90	136.28	37.55	-47.7	-49.9	15.1	7.00e-07	0	55	0	490733568	58	4568
2026-01-05 09:20:48.88	136.19	37.79	-47.7	-49.9	15.2	0.00e+00	0	55	0	492830720	58	4574
2026-01-05 09:20:49.87	136.11	38.03	-47.8	-49.9	15.3	0.00e+00	0	55	0	494927872	58	4560
2026-01-05 09:20:50.85	136.02	38.27	-48.0	-50.2	14.9	0.00e+00	0	55	0	495976448	58	4751
2026-01-05 09:20:51.84	135.92	38.51	-47.9	-50.1	15.0	0.00e+00	0	55	0	498073600	58	4698
2026-01-05 09:20:52.84	135.83	38.76	-48.2	-50.7	14.3	1.50e-06	0	55	0	500170752	58	5001
2026-01-05 09:20:53.83	135.74	39.00	-48.3	-50.8	14.2	0.00e+00	0	55	0	502267904	58	5091
2026-01-05 09:20:54.82	135.64	39.25	-48.7	-51.6	13.4	7.00e-07	0	55	0	504365056	59	5237
2026-01-05 09:20:55.81	135.54	39.50	-48.7	-51.6	13.5	1.14e-05	0	55	0	505413632	59	5242
2026-01-05 09:20:56.80	135.44	39.75	-48.7	-51.5	13.7	1.60e-05	0	55	0	507510784	59	5163
2026-01-05 09:20:57.78	135.34	40.00	-48.7	-51.5	13.6	5.30e-06	0	55	0	509607936	59	5208
2026-01-05 09:20:58.78	135.24	40.26	-48.9	-51.8	13.2	1.52e-05	0	55	0	511705088	59	5365
2026-01-05 09:20:59.76	135.14	40.51	-48.5	-51.1	13.9	9.90e-06	0	55	0	512753664	60	4696
2026-01-05 09:21:00.75	135.03	40.77	-48.2	-50.6	14.4	1.50e-06	0	55	0	514850816	59	4658
2026-01-05 09:21:01.74	134.92	41.03	-48.1	-50.6	14.4	7.00e-07	0	55	0	516947968	59	4690
2026-01-05 09:21:02.74	134.81	41.29	-48.2	-50.6	14.5	7.00e-07	0	55	0	519045120	59	4702
2026-01-05 09:21:03.72	134.70	41.56	-48.2	-50.6	14.5	1.50e-06	0	55	0	520093696	59	4686
2026-01-05 09:21:04.71	134.59	41.82	-48.2	-50.8	14.3	2.20e-06	0	55	0	522190848	59	4773
2026-01-05 09:21:05.70	134.47	42.09	-48.6	-51.4	13.7	1.50e-06	0	55	0	524288000	59	5103
2026-01-05 09:21:06.70	134.36	42.36	-49.1	-52.2	12.9	1.98e-05	0	55	0	526385152	59	5607
2026-01-05 09:21:07.69	134.24	42.63	-49.0	-52.3	12.8	3.73e-05	0	55	0	528482304	60	5369
2026-01-05 09:21:08.68	134.11	42.90	-49.1	-52.6	12.6	4.27e-05	0	55	0	529530880	60	5548
2026-01-05 09:21:09.67	133.99	43.18	-49.1	-52.4	12.7	2.55e-04	0	55	0	531628032	60	5446
2026-01-05 09:21:10.66	133.87	43.45	-49.3	-53.0	12.0	3.26e-04	0	55	0	533725184	60	5850
2026-01-05 09:21:11.65	133.74	43.73	-49.5	-53.4	11.7	3.44e-04	0	55	0	535822336	60	6107
2026-01-05 09:21:12.65	133.61	44.01	-49.1	-52.7	12.2	3.43e-04	0	55	0	536870912	60	5646
2026-01-05 09:21:13.64	133.47	44.30	-48.8	-52.1	12.9	5.11e-05	0	55	0	538968064	60	5227
2026-01-05 09:21:14.63	133.34	44.58	-48.6	-51.7	13.3	3.89e-05	0	55	0	541065216	60	5020
2026-01-05 09:21:15.62	133.20	44.86	-48.3	-50.9	14.0	1.44e-05	0	55	0	543162368	59	4870
2026-01-05 09:21:16.61	133.06	45.15	-47.9	-50.3	14.8	1.50e-06	0	55	0	545259520	59	4510
2026-01-05 09:21:17.60	132.92	45.44	-47.8	-50.1	15.0	0.00e+00	0	55	0	546308096	58	4692
2026-01-05 09:21:18.58	132.78	45.73	-47.7	-50.0	15.1	0.00e+00	0	55	0	548405248	58	4602
2026-01-05 09:21:19.57	132.63	46.02	-47.7	-49.9	15.3	0.00e+00	0	55	0	550502400	58	4577
2026-01-05 09:21:20.56	132.48	46.32	-48.2	-50.8	14.3	0.00e+00	0	55	0	552599552	58	5066
2026-01-05 09:21:21.56	132.32	46.62	-48.8	-51.8	13.3	1.06e-05	0	55	0	553648128	59	5347
2026-01-05 09:21:22.54	132.17	46.91	-48.6	-51.4	13.7	2.13e-05	0	55	0	555745280	59	5127
2026-01-05 09:21:23.53	132.01	47.21	-49.1	-52.5	12.5	7.62e-05	0	55	0	557842432	60	5493
2026-01-05 09:21:24.53	131.84	47.52	-48.6	-51.5	13.7	9.53e-05	0	55	0	559939584	60	4876
2026-01-05 09:21:25.52	131.67	47.82	-48.1	-50.5	14.6	2.20e-06	0	55	0	560988160	59	4630
2026-01-05 09:21:26.50	131.51	48.13	-47.9	-50.2	15.0	0.00e+00	0	55	0	563085312	58	4730
2026-01-05 09:21:27.49	131.33	48.43	-47.7	-49.8	15.2	0.00e+00	0	55	0	565182464	58	4528
2026-01-05 09:21:28.48	131.16	48.74	-47.7	-49.8	15.3	0.00e+00	0	55	0	567279616	58	4521
2026-01-05 09:21:29.46	130.98	49.05	-47.4	-49.4	15.7	0.00e+00	0	55	0	569376768	58	4314
2026-01-05 09:21:30.45	130.79	49.37	-47.0	-48.8	16.3	0.00e+00	0	55	0	570425344	56	4524
2026-01-05 09:21:31.44	130.61	49.68	-46.5	-48.2	16.9	0.00e+00	0	55	0	572522496	56	4196
2026-01-05 09:21:32.43	130.41	50.00	-46.5	-48.2	16.8	0.00e+00	0	55	0	574619648	55	4448
2026-01-05 09:21:33.41	130.22	50.32	-46.9	-48.7	16.2	0.00e+00	0	55	0	576716800	55	4741
2026-01-05 09:21:34.40	130.02	50.64	-47.2	-49.1	15.9	0.00e+00	0	55	0	577765376	56	4688
2026-01-05 09:21:35.40	129.81	50.96	-47.1	-49.0	16.2	0.00e+00	0	55	0	579862528	56	4616
2026-01-05 09:21:36.39	129.60	51.29	-47.0	-48.8	16.2	0.00e+00	0	56	0	581959680	56	4534
2026-01-05 09:21:37.37	129.39	51.61	-47.0	-48.8	16.3	0.00e+00	0	55	0	584056832	56	4543
2026-01-05 09:21:38.36	129.17	51.94	-47.2	-49.1	16.0	0.00e+00	0	55	0	585105408	56	4654
2026-01-05 09:21:39.35	128.95	52.27	-47.5	-49.6	15.5	0.00e+00	0	55	0	587202560	56	4941
2026-01-05 09:21:40.35	128.72	52.61	-47.9	-50.3	14.9	0.00e+00	0	55	0	589299712	57	5099
2026-01-05 09:21:41.34	128.48	52.94	-48.1	-50.7	14.5	0.00e+00	0	55	0	591396864	58	4985
2026-01-05 09:21:42.32	128.24	53.27	-47.7	-50.0	15.0	7.00e-07	0	55	0	593494016	58	4620
2026-01-05 09:21:43.31	128.00	53.61	-47.2	-49.1	15.9	0.00e+00	0	56	0	594542592	57	4429
2026-01-05 09:21:44.30	127.75	53.95	-47.3	-49.3	15.8	0.00e+00	0	55	0	596639744	56	4761
2026-01-05 09:21:45.28	127.49	54.29	-47.3	-49.2	15.8	0.00e+00	0	55	0	598736896	56	4737
2026-01-05 09:21:46.27	127.23	54.63	-47.4	-49.5	15.6	0.00e+00	0	56	0	600834048	56	4879
2026-01-05 09:21:47.27	126.96	54.97	-47.9	-50.2	14.9	0.00e+00	0	56	0	601882624	57	5001
2026-01-05 09:21:48.26	126.68	55.32	-47.7	-50.1	15.0	0.00e+00	0	55	0	603979776	57	4936
2026-01-05 09:21:49.25	126.40	55.67	-47.6	-49.8	15.2	0.00e+00	0	56	0	606076928	57	4794
2026-01-05 09:21:50.23	126.11	56.01	-47.3	-49.2	15.8	0.00e+00	0	55	0	608174080	57	4492
2026-01-05 09:21:51.22	125.81	56.36	-47.3	-49.2	15.9	0.00e+00	0	56	0	609222656	57	4462
2026-01-05 09:21:52.21	125.50	56.71	-47.7	-49.7	15.4	0.00e+00	0	56	0	611319808	57	4711
2026-01-05 09:21:53.20	125.19	57.07	-47.8	-49.9	15.2	7.00e-07	0	55	0	613416960	57	4870
2026-01-05 09:21:54.19	124.87	57.42	-48.5	-51.0	14.1	0.00e+00	0	55	0	615514112	58	5198
2026-01-05 09:21:55.18	124.53	57.78	-49.0	-52.1	13.0	1.37e-05	0	55	0	617611264	60	5243
2026-01-05 09:21:56.17	124.19	58.13	-48.8	-51.8	13.2	2.21e-05	0	56	0	618659840	60	5068
2026-01-05 09:21:57.16	123.84	58.49	-48.8	-51.6	13.6	9.10e-06	0	55	0	620756992	60	4966
2026-01-05 09:21:58.15	123.49	58.85	-49.0	-51.9	13.3	1.98e-05	0	55	0	622854144	60	5102
2026-01-05 09:21:59.13	123.12	59.21	-49.1	-52.1	13.0	5.18e-05	0	56	0	624951296	60	5267
2026-01-05 09:22:00.12	122.74	59.57	-49.1	-52.2	12.9	4.57e-05	0	55	0	625999872	60	5313
2026-01-05 09:22:01.11	122.35	59.93	-49.7	-53.2	11.7	1.94e-04	0	56	0	628097024	61	5634
2026-01-05 09:22:02.10	121.95	60.29	-49.1	-52.2	12.8	2.03e-04	0	56	0	630194176	61	4992
2026-01-05 09:22:03.08	121.54	60.65	-48.6	-51.3	13.8	5.30e-06	0	56	0	632291328	60	4794
2026-01-05 09:22:04.07	121.12	61.01	-48.1	-50.3	14.8	0.00e+00	0	56	0	633339904	59	4545
2026-01-05 09:22:05.07	120.67	61.38	-47.5	-49.5	15.4	0.00e+00	0	56	0	635437056	57	4644
2026-01-05 09:22:06.05	120.23	61.74	-47.1	-48.9	16.2	0.00e+00	0	56	0	637534208	57	4304
2026-01-05 09:22:07.04	119.76	62.11	-46.9	-48.6	16.4	0.00e+00	0	56	0	639631360	56	4404
2026-01-05 09:22:08.04	119.28	62.48	-46.6	-48.2	16.8	0.00e+00	0	56	0	641728512	55	4451
2026-01-05 09:22:09.03	118.79	62.85	-45.8	-47.1	17.8	0.00e+00	0	56	0	642777088	54	4170
2026-01-05 09:22:10.02	118.28	63.21	-45.4	-46.7	18.1	0.00e+00	0	56	0	644874240	54	3995
2026-01-05 09:22:11.01	117.75	63.58	-45.9	-47.4	17.5	0.00e+00	0	56	0	646971392	53	4558
2026-01-05 09:22:12.00	117.21	63.94	-46.6	-48.3	16.7	0.00e+00	0	56	0	649068544	55	4513
2026-01-05 09:22:13.00	116.65	64.31	-46.3	-47.9	17.0	0.00e+00	0	56	0	650117120	55	4324
2026-01-05 09:22:13.99	116.07	64.68	-45.9	-47.4	17.6	0.00e+00	0	56	0	652214272	54	4323
2026-01-05 09:22:14.98	115.47	65.04	-46.1	-47.6	17.4	0.00e+00	0	56	0	654311424	54	4410
2026-01-05 09:22:15.97	114.86	65.41	-46.4	-47.9	17.0	0.00e+00	0	56	0	656408576	54	4594
2026-01-05 09:22:16.96	114.22	65.77	-48.0	-50.4	14.8	0.00e+00	0	56	0	657457152	57	5149
2026-01-05 09:22:17.95	113.56	66.13	-48.3	-50.9	14.3	0.00e+00	0	56	0	659554304	58	5131
2026-01-05 09:22:18.94	112.88	66.49	-48.1	-50.3	14.8	0.00e+00	0	56	0	661651456	58	4810
2026-01-05 09:22:19.94	112.17	66.85	-47.9	-50.1	15.1	0.00e+00	0	56	0	663748608	58	4661
2026-01-05 09:22:20.93	111.44	67.21	-47.9	-49.9	15.2	0.00e+00	0	56	0	665845760	58	4579
2026-01-05 09:22:21.92	110.69	67.56	-47.5	-49.4	15.7	0.00e+00	0	56	0	666894336	58	4325
2026-01-05 09:22:22.90	109.91	67.91	-48.0	-50.2	14.9	0.00e+00	0	56	0	668991488	58	4746
2026-01-05 09:22:23.89	109.11	68.26	-48.2	-50.5	14.8	0.00e+00	0	56	0	671088640	58	4889
2026-01-05 09:22:24.88	108.27	68.61	-48.7	-51.3	13.9	2.20e-06	0	56	0	673185792	59	5054
2026-01-05 09:22:25.87	107.40	68.95	-48.9	-51.6	13.5	7.60e-06	0	56	0	674234368	59	5249
2026-01-05 09:22:26.86	106.51	69.29	-49.5	-52.9	12.1	5.95e-05	0	56	0	676331520	60	5740
2026-01-05 09:22:27.85	105.58	69.63	-49.8	-53.8	11.2	5.20e-04	0	56	0	678428672	61	6017
2026-01-05 09:22:28.84	104.61	69.96	-49.1	-52.2	12.7	3.67e-04	0	56	0	680525824	61	5029
2026-01-05 09:22:29.82	103.63	70.29	-48.9	-51.9	13.3	5.41e-05	0	56	0	681574400	61	4825
2026-01-05 09:22:30.80	102.60	70.61	-48.8	-51.6	13.4	3.80e-06	0	56	0	683671552	60	4978
2026-01-05 09:22:31.80	101.52	70.93	-48.9	-51.6	13.4	1.44e-05	0	56	0	685768704	60	4967
2026-01-05 09:22:32.79	100.41	71.24	-48.1	-50.4	14.7	2.20e-06	0	56	0	687865856	59	4563
2026-01-05 09:22:33.77	99.28	71.55	-48.0	-50.2	14.9	7.00e-07	0	56	0	688914432	58	4707
2026-01-05 09:22:34.76	98.09	71.85	-48.3	-50.7	14.5	0.00e+00	0	56	0	691011584	58	5004
2026-01-05 09:22:35.75	96.86	72.14	-47.7	-49.8	15.3	0.00e+00	0	56	0	693108736	58	4521
2026-01-05 09:22:36.74	95.58	72.43	-47.0	-48.7	16.3	0.00e+00	0	56	0	695205888	57	4241
2026-01-05 09:22:37.73	94.26	72.71	-46.4	-47.9	17.1	0.00e+00	0	56	0	697303040	56	4085
2026-01-05 09:22:38.72	92.90	72.98	-46.4	-47.9	17.1	0.00e+00	0	56	0	698351616	55	4322
2026-01-05 09:22:39.72	91.48	73.24	-46.5	-48.0	17.0	0.00e+00	0	56	0	700448768	55	4355
2026-01-05 09:22:40.71	90.02	73.49	-46.6	-48.2	16.8	0.00e+00	0	56	0	702545920	55	4469
2026-01-05 09:22:41.70	88.52	73.74	-46.6	-48.2	16.8	0.00e+00	0	56	0	704643072	55	4459
2026-01-05 09:22:42.69	86.97	73.97	-46.6	-48.2	16.8	0.00e+00	0	56	0	706740224	55	4476
2026-01-05 09:22:43.68	85.38	74.19	-48.3	-50.6	14.4	0.00e+00	0	56	0	707788800	58	4981
2026-01-05 09:22:44.67	83.74	74.40	-48.3	-50.7	14.5	2.20e-06	0	56	0	709885952	59	4749
2026-01-05 09:22:45.66	82.05	74.59	-47.6	-49.5	15.7	0.00e+00	0	56	0	711983104	58	4356
2026-01-05 09:22:46.64	80.34	74.77	-47.6	-49.5	15.6	0.00e+00	0	56	0	714080256	57	4651
2026-01-05 09:22:47.64	78.55	74.94	-48.5	-50.9	14.3	0.00e+00	0	56	0	715128832	58	5140
2026-01-05 09:22:48.63	76.74	75.10	-48.7	-51.3	14.0	7.00e-07	0	56	0	717225984	59	5058
2026-01-05 09:22:49.62	74.89	75.24	-49.0	-51.9	13.2	6.80e-06	0	56	0	719323136	60	5134
2026-01-05 09:22:50.61	73.01	75.37	-49.6	-53.1	12.1	7.17e-05	0	56	0	721420288	61	5589
2026-01-05 09:22:51.60	71.09	75.48	-49.6	-53.1	12.1	1.59e-04	0	56	0	722468864	61	5533
2026-01-05 09:22:52.59	69.15	75.57	-50.4	-55.0	10.2	2.57e-03	0	56	0	724566016	62	6496
2026-01-05 09:22:53.58	67.18	75.65	-50.1	-54.2	10.7	6.07e-03	0	56	0	726663168	63	5621
2026-01-05 09:22:54.56	65.21	75.71	-48.4	-50.8	14.2	2.01e-04	0	56	0	728760320	60	4536
2026-01-05 09:22:55.55	63.21	75.76	-47.7	-49.7	15.4	0.00e+00	0	56	0	729808896	58	4473
2026-01-05 09:22:56.54	61.19	75.78	-47.5	-49.4	15.8	0.00e+00	0	56	0	731906048	57	4577
2026-01-05 09:22:57.53	59.17	75.80	-47.6	-49.6	15.5	7.00e-07	0	56	0	734003200	57	4664
2026-01-05 09:22:58.51	57.17	75.79	-48.3	-50.6	14.7	7.00e-07	0	56	0	736100352	58	4936
2026-01-05 09:22:59.50	55.16	75.77	-48.8	-51.5	13.7	6.80e-06	0	56	0	738197504	59	5160
2026-01-05 09:23:00.50	53.13	75.73	-48.8	-51.5	13.6	4.50e-06	0	56	0	739246080	59	5186
2026-01-05 09:23:01.48	51.16	75.67	-48.8	-51.8	13.2	9.30e-05	0	56	0	741343232	60	5099
2026-01-05 09:23:02.47	49.18	75.60	-47.6	-49.7	15.4	0.00e+00	0	56	0	743440384	58	4466
2026-01-05 09:23:03.46	47.23	75.51	-47.1	-48.9	16.4	0.00e+00	0	56	0	745537536	57	4299
2026-01-05 09:23:04.45	45.31	75.40	-48.2	-50.5	14.8	0.00e+00	0	56	0	746586112	58	4887
2026-01-05 09:23:05.44	43.41	75.28	-48.9	-51.6	13.6	0.00e+00	0	56	0	748683264	59	5222
2026-01-05 09:23:06.44	41.53	75.14	-48.9	-51.9	13.1	5.56e-05	0	56	0	750780416	60	5102
2026-01-05 09:23:07.42	39.73	74.99	-49.3	-52.5	12.8	3.43e-05	0	56	0	752877568	60	5465
2026-01-05 09:23:08.41	37.95	74.83	-48.6	-51.2	14.0	1.06e-05	0	56	0	753926144	60	4731
2026-01-05 09:23:09.40	36.21	74.65	-48.5	-51.0	14.2	0.00e+00	0	56	0	756023296	59	4874
2026-01-05 09:23:10.39	34.51	74.46	-48.5	-50.9	14.4	1.50e-06	0	56	0	758120448	59	4837
2026-01-05 09:23:11.38	32.86	74.25	-49.1	-51.8	13.6	1.50e-06	0	56	0	760217600	59	5381
2026-01-05 09:23:12.37	31.25	74.03	-49.8	-53.4	11.9	1.37e-05	0	56	0	762314752	61	5729
2026-01-05 09:23:13.36	29.69	73.81	-50.2	-54.1	11.2	1.80e-03	0	56	0	763363328	62	5897
2026-01-05 09:23:14.34	28.19	73.57	-50.5	-54.8	10.3	3.57e-03	0	56	0	765460480	62	6415
2026-01-05 09:23:15.33	26.72	73.32	-50.2	-54.1	11.1	4.40e-03	0	56	0	767557632	63	5571
2026-01-05 09:23:16.32	25.30	73.06	-49.8	-53.2	11.9	8.22e-04	0	56	0	769654784	62	5333
2026-01-05 09:23:17.30	23.93	72.80	-49.8	-53.1	12.1	2.24e-04	0	56	0	770703360	62	5238
2026-01-05 09:23:18.29	22.60	72.52	-50.8	-55.7	9.4	4.13e-03	0	56	0	772800512	63	6669
2026-01-05 09:23:19.28	21.31	72.24	-51.0	-56.4	8.6	2.78e-02	0	56	0	774897664	63	7265
2026-01-05 09:23:20.27	20.07	71.95	-50.6	-55.2	9.8	2.61e-02	0	56	0	776994816	63	6325
2026-01-05 09:23:21.26	18.87	71.65	-50.2	-54.1	11.1	1.67e-03	0	56	0	778043392	63	5544
2026-01-05 09:23:22.25	17.71	71.35	-50.2	-54.6	10.7	1.96e-03	0	56	0	780140544	63	5900
2026-01-05 09:23:23.24	16.59	71.04	-49.8	-53.3	11.7	1.14e-03	0	56	0	782237696	62	5397
2026-01-05 09:23:24.23	15.50	70.72	-49.5	-52.8	12.4	1.33e-04	0	56	0	784334848	61	5377
2026-01-05 09:23:25.21	14.47	70.40	-49.5	-52.8	12.3	9.00e-05	0	56	0	785383424	61	5394
2026-01-05 09:23:26.20	13.46	70.07	-48.4	-51.0	14.1	7.60e-06	0	56	0	787480576	60	4600
2026-01-05 09:23:27.19	12.49	69.74	-48.5	-51.0	14.1	0.00e+00	0	56	0	789577728	59	4918
2026-01-05 09:23:28.19	11.54	69.40	-49.9	-53.9	11.3	6.33e-05	0	56	0	791674880	61	6105
2026-01-05 09:23:29.17	10.64	69.07	-49.9	-53.5	11.6	8.59e-04	0	56	0	793772032	61	5804
2026-01-05 09:23:30.15	9.77	68.73	-48.9	-51.7	13.6	5.56e-05	0	56	0	794820608	60	4987
2026-01-05 09:23:31.14	8.93	68.38	-49.3	-52.5	12.6	3.58e-05	0	56	0	796917760	60	5519
2026-01-05 09:23:32.13	8.11	68.04	-48.9	-51.8	13.4	2.74e-05	0	56	0	799014912	60	5057
2026-01-05 09:23:33.11	7.33	67.69	-48.5	-51.2	13.9	1.14e-05	0	56	0	801112064	60	4742
2026-01-05 09:23:34.09	6.58	67.34	-48.7	-51.3	13.8	7.00e-07	0	56	0	802160640	59	5057
2026-01-05 09:23:35.08	5.84	66.98	-49.0	-51.9	13.2	1.44e-05	0	56	0	804257792	60	5119
2026-01-05 09:23:36.06	5.14	66.63	-49.0	-52.0	13.2	1.75e-05	0	56	0	806354944	60	5167
2026-01-05 09:23:37.05	4.45	66.27	-48.8	-51.7	13.4	9.90e-06	0	56	0	808452096	60	5000
2026-01-05 09:23:38.05	3.77	65.91	-49.1	-52.1	13.0	3.81e-05	0	56	0	809500672	60	5258
2026-01-05 09:23:39.04	3.13	65.55	-47.8	-49.8	15.2	4.50e-06	0	56	0	811597824	58	4544
2026-01-05 09:23:40.03	2.51	65.18	-46.9	-48.6	16.5	0.00e+00	0	56	0	813694976	56	4418
2026-01-05 09:23:41.02	1.91	64.82	-46.8	-48.5	16.6	0.00e+00	0	56	0	815792128	56	4371
2026-01-05 09:23:42.01	1.32	64.46	-46.9	-48.7	16.3	0.00e+00	0	56	0	817889280	56	4492
2026-01-05 09:23:43.00	0.76	64.09	-47.1	-48.9	16.3	0.00e+00	0	56	0	818937856	56	4588
2026-01-05 09:23:43.99	0.21	63.73	-45.8	-47.2	17.6	0.00e+00	0	56	0	821035008	54	4210
2026-01-05 09:23:44.97	359.68	63.36	-45.6	-46.9	18.0	0.00e+00	0	56	0	823132160	54	4064
2026-01-05 09:23:45.96	359.17	63.00	-46.3	-47.9	17.1	0.00e+00	0	56	0	825229312	54	4555
2026-01-05 09:23:46.95	358.67	62.63	-47.4	-49.4	15.7	0.00e+00	0	56	0	826277888	57	4569
2026-01-05 09:23:47.94	358.19	62.27	-46.5	-48.0	17.0	0.00e+00	0	56	0	828375040	56	4130
2026-01-05 09:23:48.93	357.72	61.90	-47.0	-48.7	16.3	0.00e+00	0	56	0	830472192	55	4710
2026-01-05 09:23:49.93	357.26	61.53	-47.5	-49.4	15.8	0.00e+00	0	56	0	832569344	56	4848
2026-01-05 09:23:50.92	356.81	61.17	-48.5	-50.9	14.3	0.00e+00	0	56	0	833617920	58	5141
2026-01-05 09:23:51.91	356.39	60.81	-48.9	-51.8	13.7	1.50e-06	0	56	0	835715072	59	5343
2026-01-05 09:23:52.90	355.97	60.44	-49.1	-52.1	13.0	2.05e-05	0	56	0	837812224	60	5273
2026-01-05 09:23:53.88	355.57	60.09	-48.8	-51.5	13.5	1.67e-05	0	56	0	839909376	60	4905
2026-01-05 09:23:54.87	355.17	59.72	-49.2	-52.4	12.7	4.65e-05	0	56	0	842006528	60	5437
2026-01-05 09:23:55.86	354.79	59.36	-50.5	-55.4	9.6	3.93e-03	0	56	0	843055104	62	6838
2026-01-05 09:23:56.86	354.41	59.00	-50.1	-54.3	10.7	1.50e-02	0	56	0	845152256	63	5687
2026-01-05 09:23:57.85	354.05	58.64	-48.3	-50.8	14.2	1.23e-04	0	56	0	847249408	60	4536
2026-01-05 09:23:58.83	353.70	58.29	-47.2	-49.0	16.0	0.00e+00	0	56	0	849346560	57	4364
2026-01-05 09:23:59.82	353.36	57.93	-47.6	-49.5	15.5	0.00e+00	0	56	0	850395136	57	4630
2026-01-05 09:24:00.81	353.03	57.58	-47.2	-49.1	15.9	0.00e+00	0	56	0	852492288	57	4403
2026-01-05 09:24:01.80	352.70	57.22	-47.1	-48.9	16.2	0.00e+00	0	56	0	854589440	57	4307
2026-01-05 09:24:02.79	352.38	56.87	-47.3	-49.3	15.7	0.00e+00	0	56	0	856686592	57	4523
2026-01-05 09:24:03.78	352.07	56.52	-47.8	-50.1	15.0	0.00e+00	0	56	0	858783744	57	4951
2026-01-05 09:24:04.77	351.77	56.17	-47.8	-50.1	15.0	0.00e+00	0	56	0	859832320	57	4938
2026-01-05 09:24:05.76	351.48	55.82	-47.9	-50.2	14.7	0.00e+00	0	56	0	861929472	58	4737
2026-01-05 09:24:06.75	351.19	55.47	-47.5	-49.6	15.5	0.00e+00	0	56	0	864026624	57	4680
2026-01-05 09:24:07.74	350.91	55.13	-47.3	-49.3	15.7	0.00e+00	0	56	0	866123776	57	4512
2026-01-05 09:24:08.72	350.65	54.79	-47.2	-49.2	15.8	0.00e+00	0	56	0	867172352	57	4477
2026-01-05 09:24:09.71	350.38	54.45	-47.1	-49.1	16.0	0.00e+00	0	56	0	869269504	57	4411
2026-01-05 09:24:10.70	350.12	54.11	-47.7	-49.9	15.2	0.00e+00	0	56	0	871366656	57	4816
2026-01-05 09:24:11.68	349.87	53.77	-47.7	-49.9	15.2	0.00e+00	0	56	0	873463808	57	4841
2026-01-05 09:24:12.67	349.62	53.43	-47.1	-49.1	15.8	0.00e+00	0	56	0	874512384	57	4425
2026-01-05 09:24:13.65	349.38	53.10	-46.8	-48.6	16.4	0.00e+00	0	56	0	876609536	56	4402
2026-01-05 09:24:14.64	349.15	52.77	-46.8	-48.7	16.3	0.00e+00	0	56	0	878706688	56	4480
2026-01-05 09:24:15.63	348.92	52.44	-47.3	-49.4	15.6	0.00e+00	0	56	0	880803840	56	4823
2026-01-05 09:24:16.62	348.69	52.11	-47.7	-49.9	15.1	0.00e+00	0	56	0	881852416	57	4865
2026-01-05 09:24:17.61	348.47	51.78	-48.2	-50.7	14.3	0.00e+00	0	56	0	883949568	58	4998
2026-01-05 09:24:18.60	348.25	51.45	-49.0	-52.4	12.6	4.65e-05	0	56	0	886046720	60	5407
2026-01-05 09:24:19.58	348.04	51.13	-49.0	-52.4	12.6	3.20e-05	0	56	0	888143872	60	5422
2026-01-05 09:24:20.57	347.84	50.81	-48.9	-52.2	12.7	4.95e-05	0	56	0	889192448	60	5291
2026-01-05 09:24:21.56	347.64	50.49	-48.1	-50.5	14.5	1.50e-06	0	56	0	891289600	59	4638
2026-01-05 09:24:22.55	347.44	50.17	-47.9	-50.2	14.8	0.00e+00	0	56	0	893386752	58	4734
2026-01-05 09:24:23.54	347.25	49.85	-48.0	-50.4	15.2	0.00e+00	0	56	0	895483904	58	4819
2026-01-05 09:24:24.53	347.06	49.53	-48.3	-50.8	14.3	7.00e-07	0	56	0	897581056	58	5074
2026-01-05 09:24:25.51	346.87	49.22	-48.3	-50.9	14.2	7.00e-07	0	56	0	898629632	58	5137
2026-01-05 09:24:26.50	346.69	48.91	-48.6	-51.4	13.6	1.50e-06	0	56	0	900726784	59	5140
2026-01-05 09:24:27.48	346.51	48.60	-48.3	-50.8	14.2	1.50e-06	0	56	0	902823936	59	4809
2026-01-05 09:24:28.47	346.34	48.30	-48.4	-51.0	14.1	7.00e-07	0	56	0	904921088	59	4874
2026-01-05 09:24:29.46	346.17	47.99	-48.5	-51.3	13.8	4.50e-06	0	56	0	905969664	59	5056
2026-01-05 09:24:30.45	346.00	47.69	-49.2	-52.5	12.6	2.97e-05	0	56	0	908066816	60	5517
2026-01-05 09:24:31.45	345.84	47.38	-49.1	-52.4	12.7	1.57e-04	0	56	0	910163968	60	5454
2026-01-05 09:24:32.44	345.67	47.08	-48.7	-51.8	13.2	1.98e-05	0	56	0	912261120	60	5047
2026-01-05 09:24:33.43	345.52	46.78	-48.7	-51.4	13.6	4.50e-06	0	56	0	914358272	59	5155
2026-01-05 09:24:34.41	345.36	46.49	-49.4	-53.0	12.0	2.97e-05	0	56	0	915406848	60	5798
2026-01-05 09:24:35.41	345.21	46.19	-49.8	-53.8	11.2	9.33e-04	0	56	0	917504000	61	5993
2026-01-05 09:24:36.40	345.06	45.90	-49.2	-52.4	12.6	1.89e-04	0	56	0	919601152	61	5139
2026-01-05 09:24:37.39	344.92	45.60	-48.3	-50.7	14.3	6.33e-05	0	56	0	921698304	59	4742
2026-01-05 09:24:38.38	344.77	45.32	-48.2	-50.5	14.7	7.00e-07	0	56	0	922746880	59	4642
2026-01-05 09:24:39.37	344.63	45.03	-48.1	-50.3	14.8	0.00e+00	0	56	0	924844032	59	4533
2026-01-05 09:24:40.36	344.49	44.74	-48.2	-50.5	14.6	0.00e+00	0	56	0	926941184	58	4893
2026-01-05 09:24:41.34	344.36	44.46	-48.8	-51.6	13.5	2.20e-06	0	56	0	929038336	59	5232
2026-01-05 09:24:42.34	344.22	44.18	-49.4	-52.7	12.3	3.28e-05	0	56	0	930086912	60	5621
2026-01-05 09:24:43.33	344.09	43.90	-49.4	-52.8	12.1	6.06e-04	0	56	0	932184064	61	5376
2026-01-05 09:24:44.32	343.97	43.62	-49.1	-52.3	12.7	8.39e-05	0	56	0	934281216	61	5083
2026-01-05 09:24:45.31	343.84	43.34	-49.3	-52.8	12.3	2.16e-04	0	56	0	936378368	61	5365
2026-01-05 09:24:46.30	343.72	43.07	-49.1	-52.3	12.7	1.30e-04	0	56	0	938475520	61	5060
2026-01-05 09:24:47.28	343.59	42.80	-48.8	-51.8	13.2	3.05e-05	0	56	0	939524096	60	5052
2026-01-05 09:24:48.28	343.47	42.53	-48.5	-51.3	13.8	5.30e-06	0	56	0	941621248	59	5074
2026-01-05 09:24:49.27	343.36	42.26	-48.9	-52.1	13.1	2.51e-05	0	56	0	943718400	60	5239
2026-01-05 09:24:50.25	343.24	41.99	-49.4	-53.0	11.8	1.47e-04	0	56	0	945815552	61	5512
2026-01-05 09:24:51.23	343.13	41.73	-49.9	-54.3	10.6	1.42e-03	0	56	0	946864128	61	6418
2026-01-05 09:24:52.23	343.02	41.46	-49.9	-54.1	10.9	4.69e-03	0	56	0	948961280	62	5867
2026-01-05 09:24:53.22	342.91	41.20	-49.2	-52.5	12.3	4.25e-04	0	56	0	951058432	61	5213
2026-01-05 09:24:54.21	342.80	40.94	-48.2	-50.6	14.5	3.05e-05	0	56	0	953155584	59	4683
2026-01-05 09:24:55.19	342.69	40.69	-47.6	-49.8	15.3	0.00e+00	0	56	0	954204160	58	4499
2026-01-05 09:24:56.18	342.59	40.43	-47.9	-50.1	15.0	0.00e+00	0	56	0	956301312	58	4670
2026-01-05 09:24:57.16	342.49	40.18	-48.1	-50.4	14.7	1.50e-06	0	56	0	958398464	58	4851
2026-01-05 09:24:58.15	342.38	39.92	-48.2	-50.6	14.6	7.00e-07	0	56	0	960495616	58	4970
2026-01-05 09:24:59.13	342.29	39.68	-48.3	-50.7	14.3	0.00e+00	0	56	0	961544192	58	5029
2026-01-05 09:25:00.12	342.19	39.43	-48.9	-51.9	13.2	1.06e-05	0	56	0	963641344	59	5419
2026-01-05 09:25:01.12	342.09	39.17	-48.7	-51.7	13.4	2.74e-05	0	56	0	965738496	59	5296
2026-01-05 09:25:02.11	342.00	38.93	-49.1	-52.4	12.6	3.28e-05	0	56	0	967835648	60	5457
2026-01-05 09:25:03.10	341.90	38.68	-48.6	-51.4	13.5	2.28e-05	0	56	0	969932800	60	4863
2026-01-05 09:25:04.09	341.81	38.44	-48.4	-51.0	14.0	1.22e-05	0	56	0	970981376	59	4884
2026-01-05 09:25:05.08	341.72	38.20	-47.8	-50.1	14.8	1.50e-06	0	56	0	973078528	58	4703
2026-01-05 09:25:06.06	341.63	37.96	-48.0	-50.3	14.7	2.20e-06	0	56	0	975175680	58	4782
2026-01-05 09:25:07.05	341.54	37.72	-48.3	-50.9	14.1	2.20e-06	0	56	0	977272832	58	5106
2026-01-05 09:25:08.03	341.46	37.49	-48.2	-50.8	14.2	7.00e-07	0	56	0	978321408	58	5051
2026-01-05 09:25:09.02	341.37	37.25	-48.1	-50.5	14.5	3.00e-06	0	56	0	980418560	58	4874
2026-01-05 09:25:10.01	341.29	37.02	-47.9	-50.1	14.8	0.00e+00	0	56	0	982515712	58	4696
2026-01-05 09:25:11.00	341.21	36.79	-48.3	-50.8	14.1	0.00e+00	0	56	0	984612864	58	5059
2026-01-05 09:25:11.99	341.12	36.56	-48.1	-50.5	14.4	2.20e-06	0	56	0	985661440	59	4637
2026-01-05 09:25:12.98	341.04	36.33	-48.3	-50.9	14.0	7.00e-07	0	56	0	987758592	59	4828
2026-01-05 09:25:13.97	340.96	36.10	-48.4	-51.1	13.8	2.20e-06	0	56	0	989855744	59	4927
2026-01-05 09:25:14.96	340.89	35.88	-48.4	-51.1	13.9	6.10e-06	0	56	0	991952896	59	4937
2026-01-05 09:25:15.95	340.81	35.65	-48.9	-52.0	13.0	1.75e-05	0	56	0	994050048	59	5482
2026-01-05 09:25:16.94	340.73	35.43	-49.2	-52.6	12.3	3.73e-05	0	56	0	995098624	60	5590
2026-01-05 09:25:17.93	340.66	35.21	-49.1	-52.3	12.5	1.94e-04	0	56	0	997195776	60	5400
2026-01-05 09:25:18.92	340.58	34.99	-49.0	-52.3	12.7	1.23e-04	0	56	0	999292928	60	5366
2026-01-05 09:25:19.90	340.51	34.77	-48.8	-51.9	13.0	4.73e-05	0	56	0	1001390080	60	5121
2026-01-05 09:25:20.90	340.44	34.56	-48.6	-51.4	13.6	2.97e-05	0	56	0	1002438656	60	4830
2026-01-05 09:25:21.88	340.37	34.34	-48.5	-51.3	13.7	4.50e-06	0	56	0	1004535808	60	4762
2026-01-05 09:25:22.87	340.30	34.13	-48.7	-51.5	13.5	3.00e-06	0	56	0	1006632960	60	4898
2026-01-05 09:25:23.86	340.23	33.92	-48.3	-50.8	14.2	6.80e-06	0	56	0	1008730112	59	4768
2026-01-05 09:25:24.85	340.16	33.71	-48.8	-51.5	13.7	5.30e-06	0	56	0	1009778688	59	5189
2026-01-05 09:25:25.84	340.10	33.50	-48.5	-51.2	13.8	4.50e-06	0	56	0	1011875840	59	4999
2026-01-05 09:25:26.83	340.03	33.29	-48.7	-51.3	13.6	3.80e-06	0	56	0	1013972992	59	5099
2026-01-05 09:25:27.82	339.97	33.08	-49.1	-52.1	12.8	1.67e-05	0	56	0	1016070144	60	5249
2026-01-05 09:25:28.80	339.90	32.88	-48.8	-51.6	13.3	2.36e-05	0	56	0	1018167296	60	4970
2026-01-05 09:25:29.78	339.84	32.68	-48.7	-51.4	13.5	1.75e-05	0	56	0	1019215872	60	4865
2026-01-05 09:25:30.77	339.78	32.47	-49.0	-52.0	13.0	4.34e-05	0	56	0	1021313024	60	5174
2026-01-05 09:25:31.76	339.71	32.27	-49.3	-52.4	12.6	4.34e-05	0	56	0	1023410176	60	5412
2026-01-05 09:25:32.74	339.65	32.07	-49.1	-52.1	12.9	6.17e-05	0	56	0	1025507328	60	5224
2026-01-05 09:25:33.73	339.59	31.87	-48.8	-51.6	13.3	2.44e-05	0	56	0	1026555904	60	4961
2026-01-05 09:25:34.72	339.53	31.68	-48.6	-51.4	13.6	1.29e-05	0	56	0	1028653056	60	4828
2026-01-05 09:25:35.72	339.48	31.48	-48.8	-51.5	13.5	6.10e-06	0	57	0	1030750208	59	5179
2026-01-05 09:25:36.70	339.42	31.29	-48.8	-51.5	13.5	5.30e-06	0	56	0	1032847360	59	5172
2026-01-05 09:25:37.70	339.36	31.09	-48.6	-51.3	13.7	1.37e-05	0	56	0	1033895936	59	5061
2026-01-05 09:25:38.68	339.30	30.90	-48.9	-51.7	13.4	1.75e-05	0	56	0	1035993088	59	5294
2026-01-05 09:25:39.67	339.25	30.71	-48.7	-51.6	13.4	1.90e-05	0	56	0	1038090240	59	5221
2026-01-05 09:25:40.66	339.19	30.52	-48.5	-51.2	13.8	6.10e-06	0	56	0	1040187392	59	5003
2026-01-05 09:25:41.65	339.14	30.33	-48.5	-51.2	13.7	3.80e-06	0	56	0	1041235968	59	5026
2026-01-05 09:25:42.64	339.09	30.14	-48.8	-51.7	13.2	1.44e-05	0	56	0	1043333120	59	5280
2026-01-05 09:25:43.63	339.03	29.95	-48.7	-51.6	13.3	3.96e-05	0	56	0	1045430272	60	4948
2026-01-05 09:25:44.62	338.98	29.77	-49.0	-52.0	12.9	5.95e-05	0	56	0	1047527424	60	5176
2026-01-05 09:25:45.61	338.93	29.59	-49.2	-52.4	12.5	1.23e-04	0	56	0	1049624576	60	5440
2026-01-05 09:25:46.60	338.88	29.40	-49.2	-52.5	12.4	1.31e-04	0	56	0	1050673152	60	5484
2026-01-05 09:25:47.59	338.83	29.22	-49.2	-52.3	12.5	1.07e-04	0	56	0	1052770304	60	5392
2026-01-05 09:25:48.58	338.78	29.04	-48.9	-51.9	13.0	7.01e-05	0	56	0	1054867456	60	5123
2026-01-05 09:25:49.57	338.73	28.86	-48.5	-51.1	13.8	1.44e-05	0	56	0	1056964608	60	4689
2026-01-05 09:25:50.56	338.68	28.68	-48.1	-50.5	14.4	3.00e-06	0	56	0	1058013184	59	4627
2026-01-05 09:25:51.55	338.63	28.50	-48.0	-50.2	15.0	0.00e+00	0	56	0	1060110336	58	4718
2026-01-05 09:25:52.54	338.58	28.33	-47.9	-50.1	14.8	0.00e+00	0	56	0	1062207488	58	4693
2026-01-05 09:25:53.53	338.54	28.15	-48.1	-50.6	14.4	0.00e+00	0	56	0	1064304640	58	4929
2026-01-05 09:25:54.52	338.49	27.98	-48.2	-50.6	14.3	0.00e+00	0	56	0	1065353216	58	4979
2026-01-05 09:25:55.50	338.45	27.81	-48.1	-50.5	14.4	1.50e-06	0	56	0	1067450368	58	4919
2026-01-05 09:25:56.49	338.40	27.64	-48.4	-51.0	14.0	7.00e-07	0	56	0	1069547520	58	5172
2026-01-05 09:25:57.48	338.36	27.47	-48.6	-51.3	13.6	9.10e-06	0	56	0	1071644672	59	5082
2026-01-05 09:25:58.46	338.31	27.30	-48.5	-51.1	13.8	7.60e-06	0	56	0	1073741824	59	4972
2026-01-05 09:25:59.45	338.27	27.13	-48.6	-51.2	13.7	5.30e-06	0	56	0	1074790400	59	5037
2026-01-05 09:26:00.45	338.22	26.96	-48.6	-51.3	13.7	4.50e-06	0	56	0	1076887552	59	5071
2026-01-05 09:26:01.43	338.18	26.79	-48.5	-51.0	13.9	5.30e-06	0	56	0	1078984704	59	4916
2026-01-05 09:26:02.42	338.14	26.63	-48.3	-50.8	14.1	3.80e-06	0	56	0	1081081856	59	4813
2026-01-05 09:26:03.41	338.10	26.46	-48.4	-50.9	14.1	2.20e-06	0	56	0	1082130432	59	4845
2026-01-05 09:26:04.39	338.06	26.30	-48.2	-50.7	14.3	0.00e+00	0	56	0	1084227584	59	4722
2026-01-05 09:26:05.38	338.02	26.14	-47.6	-49.8	15.1	1.50e-06	0	56	0	1086324736	58	4500
2026-01-05 09:26:06.38	337.98	25.97	-47.4	-49.5	15.4	0.00e+00	0	56	0	1088421888	58	4352
2026-01-05 09:26:07.36	337.94	25.82	-47.1	-49.0	15.9	0.00e+00	0	56	0	1089470464	57	4376
2026-01-05 09:26:08.35	337.90	25.66	-47.0	-48.8	16.1	0.00e+00	0	56	0	1091567616	57	4271
2026-01-05 09:26:09.33	337.86	25.50	-47.2	-49.1	15.8	0.00e+00	0	56	0	1093664768	57	4420
2026-01-05 09:26:10.32	337.82	25.34	-47.2	-49.2	15.7	0.00e+00	0	56	0	1095761920	57	4462
2026-01-05 09:26:11.30	337.78	25.18	-47.1	-49.0	15.9	0.00e+00	0	56	0	1097859072	57	4369
2026-01-05 09:26:12.30	337.74	25.03	-47.4	-49.4	15.5	0.00e+00	0	56	0	1098907648	57	4588
2026-01-05 09:26:13.28	337.71	24.87	-47.3	-49.3	15.6	0.00e+00	0	56	0	1101004800	57	4502
2026-01-05 09:26:14.28	337.67	24.72	-47.4	-49.4	15.5	0.00e+00	0	56	0	1103101952	57	4571
2026-01-05 09:26:15.27	337.63	24.56	-47.6	-49.7	15.2	0.00e+00	0	56	0	1105199104	57	4717
2026-01-05 09:26:16.25	337.60	24.41	-47.6	-49.8	15.0	0.00e+00	0	56	0	1106247680	57	4791
2026-01-05 09:26:17.23	337.56	24.26	-47.8	-50.0	14.8	0.00e+00	0	56	0	1108344832	57	4914
2026-01-05 09:26:18.22	337.52	24.11	-47.9	-50.2	14.6	0.00e+00	0	56	0	1110441984	57	5002
2026-01-05 09:26:19.21	337.49	23.96	-48.2	-50.7	14.2	7.00e-07	0	56	0	1112539136	58	4984
2026-01-05 09:26:20.19	337.46	23.81	-48.3	-50.9	14.0	7.00e-07	0	56	0	1113587712	58	5102
2026-01-05 09:26:21.18	337.42	23.66	-48.6	-51.4	13.5	5.30e-06	0	56	0	1115684864	59	5141
2026-01-05 09:26:22.16	337.39	23.52	-48.6	-51.3	13.6	1.52e-05	0	56	0	1117782016	59	5054
2026-01-05 09:26:23.15	337.35	23.37	-48.7	-51.6	13.3	6.80e-06	0	56	0	1119879168	59	5221
2026-01-05 09:26:24.14	337.32	23.23	-48.8	-51.7	13.1	3.50e-05	0	56	0	1120927744	59	5324
2026-01-05 09:26:25.13	337.29	23.08	-48.9	-51.9	12.9	2.89e-05	0	56	0	1123024896	59	5437
2026-01-05 09:26:26.13	337.25	22.93	-48.9	-52.0	13.0	2.67e-05	0	56	0	1125122048	59	5514
2026-01-05 09:26:27.12	337.22	22.79	-48.7	-51.6	13.2	4.42e-05	0	56	0	1127219200	59	5221
2026-01-05 09:26:28.11	337.19	22.65	-48.4	-51.2	13.7	1.37e-05	0	56	0	1129316352	59	4992
2026-01-05 09:26:29.10	337.16	22.51	-48.3	-50.9	13.9	6.10e-06	0	56	0	1130364928	59	4864
2026-01-05 09:26:30.09	337.13	22.37	-48.4	-51.0	13.8	2.20e-06	0	56	0	1132462080	59	4901
2026-01-05 09:26:31.07	337.10	22.23	-48.1	-50.6	14.1	4.50e-06	0	56	0	1134559232	59	4692
2026-01-05 09:26:32.05	337.07	22.09	-48.1	-50.6	14.1	1.50e-06	0	56	0	1136656384	59	4679
2026-01-05 09:26:33.05	337.04	21.95	-48.5	-51.1	13.6	3.80e-06	0	56	0	1137704960	59	4966
2026-01-05 09:26:34.04	337.01	21.81	-48.3	-50.9	13.7	3.80e-06	0	56	0	1139802112	59	4825
2026-01-05 09:26:35.03	336.98	21.67	-48.5	-51.2	13.4	1.29e-05	0	56	0	1141899264	59	5023
2026-01-05 09:26:36.02	336.95	21.54	-48.9	-52.1	12.4	4.73e-05	0	56	0	1143996416	59	5576
2026-01-05 09:26:37.01	336.92	21.40	-49.0	-52.2	12.2	2.06e-04	0	56	0	1145044992	59	5655
2026-01-05 09:26:38.00	336.89	21.26	-48.9	-52.1	12.3	1.58e-04	0	56	0	1147142144	59	5537
2026-01-05 09:26:38.98	336.86	21.13	-49.0	-52.4	11.9	2.34e-04	0	56	0	1149239296	59	5754
2026-01-05 09:26:39.97	336.83	21.00	-48.9	-52.4	11.9	4.06e-04	0	56	0	1151336448	59	5736
2026-01-05 09:26:40.96	336.80	20.86	-49.0	-52.8	11.5	6.80e-04	0	56	0	1153433600	60	5664
2026-01-05 09:26:41.95	336.78	20.73	-49.1	-52.8	11.3	9.01e-04	0	56	0	1154482176	60	5696
2026-01-05 09:26:42.94	336.75	20.60	-49.2	-53.2	10.9	1.38e-03	0	56	0	1156579328	60	5960
2026-01-05 09:26:43.93	336.72	20.47	-49.3	-53.4	10.7	2.35e-03	0	56	0	1158676480	60	6077
2026-01-05 09:26:44.93	336.69	20.34	-49.4	-53.6	10.4	3.88e-03	0	56	0	1160773632	60	6271
2026-01-05 09:26:45.91	336.67	20.21	-48.9	-52.7	11.4	2.02e-03	0	56	0	1161822208	60	5600
2026-01-05 09:26:46.90	336.64	20.08	-48.4	-51.6	12.5	3.45e-04	0	56	0	1163919360	60	4946
2026-01-05 09:26:47.90	336.61	19.95	-48.1	-50.9	13.3	4.04e-05	0	56	0	1166016512	59	4846
2026-01-05 09:26:48.89	336.59	19.82	-47.7	-50.2	14.0	3.00e-06	0	56	0	1168113664	58	4745
2026-01-05 09:26:49.87	336.56	19.70	-47.5	-49.9	14.4	1.50e-06	0	56	0	1169162240	58	4565
2026-01-05 09:26:50.86	336.54	19.57	-47.2	-49.4	14.8	0.00e+00	0	56	0	1171259392	57	4587
2026-01-05 09:26:51.85	336.51	19.44	-47.0	-49.1	15.2	0.00e+00	0	56	0	1173356544	57	4418
2026-01-05 09:26:52.83	336.49	19.32	-47.0	-49.0	15.4	0.00e+00	0	56	0	1175453696	57	4381
2026-01-05 09:26:53.82	336.46	19.20	-46.6	-48.4	16.0	0.00e+00	0	56	0	1176502272	56	4329
2026-01-05 09:26:54.82	336.44	19.07	-46.6	-48.5	16.1	0.00e+00	0	56	0	1178599424	56	4347
2026-01-05 09:26:55.81	336.41	18.95	-46.6	-48.5	16.1	0.00e+00	0	56	0	1180696576	56	4356
2026-01-05 09:26:56.80	336.39	18.82	-46.6	-48.5	16.1	0.00e+00	0	56	0	1182793728	56	4356
2026-01-05 09:26:57.79	336.37	18.70	-47.1	-49.2	15.4	0.00e+00	0	56	0	1184890880	56	4725
2026-01-05 09:26:58.78	336.34	18.58	-47.4	-49.5	15.1	7.00e-07	0	56	0	1185939456	56	4906
2026-01-05 09:26:59.78	336.32	18.46	-47.7	-50.0	14.7	0.00e+00	0	56	0	1188036608	57	4887
2026-01-05 09:27:00.73	336.30	18.34	-48.2	-50.7	14.0	7.00e-07	0	56	0	1190133760	58	5031
2026-01-05 09:27:01.72	336.27	18.22	-48.4	-51.2	13.5	8.30e-06	0	56	0	1192230912	58	5285
2026-01-05 09:27:02.70	336.25	18.10	-48.6	-51.5	13.2	1.37e-05	0	56	0	1193279488	59	5185
2026-01-05 09:27:03.70	336.23	17.98	-48.7	-51.7	12.8	4.42e-05	0	56	0	1195376640	59	5330
2026-01-05 09:27:04.69	336.21	17.87	-49.0	-52.3	12.4	7.32e-05	0	56	0	1197473792	59	5662
2026-01-05 09:27:05.69	336.18	17.75	-49.1	-52.5	12.1	2.68e-04	0	56	0	1199570944	60	5525
2026-01-05 09:27:06.68	336.16	17.63	-48.9	-52.2	12.4	1.59e-04	0	56	0	1201668096	60	5328
2026-01-05 09:27:07.67	336.14	17.51	-49.2	-52.7	11.9	2.32e-04	0	56	0	1202716672	60	5653
2026-01-05 09:27:08.66	336.12	17.40	-49.4	-53.1	11.6	5.32e-04	0	56	0	1204813824	60	5890
2026-01-05 09:27:09.66	336.10	17.28	-49.2	-52.7	11.9	5.49e-04	0	56	0	1206910976	60	5630
2026-01-05 09:27:10.64	336.08	17.17	-49.3	-53.0	11.7	8.05e-04	0	56	0	1209008128	60	5792
2026-01-05 09:27:11.64	336.06	17.05	-49.3	-52.9	11.8	6.90e-04	0	56	0	1210056704	60	5740
2026-01-05 09:27:12.63	336.03	16.94	-49.3	-53.0	11.6	4.76e-04	0	56	0	1212153856	60	5819
2026-01-05 09:27:13.61	336.01	16.83	-49.3	-53.0	11.6	7.38e-04	0	56	0	1214251008	60	5802
2026-01-05 09:27:14.59	335.99	16.72	-49.2	-52.8	11.7	5.38e-04	0	56	0	1216348160	60	5711
2026-01-05 09:27:15.59	335.97	16.60	-49.1	-52.7	12.0	3.23e-04	0	56	0	1217396736	60	5603
2026-01-05 09:27:16.57	335.95	16.49	-49.2	-52.8	11.8	2.87e-04	0	56	0	1219493888	60	5682
2026-01-05 09:27:17.56	335.93	16.38	-49.0	-52.4	12.2	3.26e-04	0	56	0	1221591040	60	5425
2026-01-05 09:27:18.55	335.91	16.27	-49.2	-52.8	11.9	3.46e-04	0	56	0	1223688192	60	5668
2026-01-05 09:27:19.54	335.89	16.16	-49.2	-52.9	11.8	5.88e-04	0	56	0	1225785344	60	5728
2026-01-05 09:27:20.53	335.88	16.05	-49.1	-52.7	11.9	4.80e-04	0	56	0	1226833920	60	5637
