passes_logs/2026/01/05/R3.0SM8_Murmansk_STILSPACE/R3.0SM8_Murmansk_STILSPACE__20260105_005202_AQUA_rec.log

#Pass ID: 20260105_005202_AQUA
#Satellite: AQUA
#Configuration: AQUA
#almurnet v.1.7.20240730
#Start time: 2026-01-05 00:52:02

#Version: 2.2.20231116
#Station: R3.0SM8_Murmansk_STILSPACE
#Location: 33.092731 lon 68.902999 lat
#TLE: 1 27424U 02022A   26003.93831470  .00001925  00000+0  39553-3 0  9995
#TLE: 2 27424  98.4067 330.1809 0002003  92.1713 343.8415 14.61796291259276

#Time	Az	El	Level	Level2	SNR	BER	BlckErr	Temp	State	Recorded	gain1	gain2
2026-01-05 00:52:02.40	22.03	2.99	-52.8	-72.7	3.8	7.50e-01	0	46	0	0	69	34314
2026-01-05 00:52:03.39	22.08	3.06	-54.0	-74.0	3.8	7.44e-01	0	46	104	0	70	37517
2026-01-05 00:52:04.38	22.14	3.12	-54.0	-73.9	3.8	7.47e-01	0	47	104	0	70	37162
2026-01-05 00:52:05.38	22.20	3.19	-53.9	-73.8	3.8	7.45e-01	0	47	104	0	70	36731
2026-01-05 00:52:06.36	22.25	3.25	-53.8	-73.7	3.8	7.52e-01	0	47	104	0	70	36122
2026-01-05 00:52:07.35	22.31	3.31	-53.6	-73.4	3.8	7.46e-01	0	47	104	0	70	35257
2026-01-05 00:52:08.35	22.37	3.38	-53.3	-73.1	3.8	7.47e-01	0	47	104	0	70	34028
2026-01-05 00:52:09.33	22.43	3.44	-52.8	-70.0	4.0	7.39e-01	0	47	104	0	69	25198
2026-01-05 00:52:10.33	22.48	3.51	-52.7	-70.0	4.0	7.46e-01	0	47	104	0	69	25181
2026-01-05 00:52:11.32	22.54	3.57	-52.7	-69.0	4.2	7.32e-01	0	47	104	0	68	23833
2026-01-05 00:52:12.31	22.60	3.64	-52.7	-69.2	4.3	7.43e-01	0	47	104	0	68	24227
2026-01-05 00:52:13.30	22.66	3.70	-52.7	-68.6	4.4	7.31e-01	0	47	104	0	68	22617
2026-01-05 00:52:14.29	22.72	3.77	-52.6	-68.1	4.5	7.21e-01	0	47	104	0	68	21362
2026-01-05 00:52:15.28	22.78	3.83	-52.6	-68.3	4.1	7.23e-01	0	47	104	0	68	21811
2026-01-05 00:52:16.26	22.84	3.90	-52.7	-69.0	4.2	7.34e-01	0	48	104	0	68	23624
2026-01-05 00:52:17.24	22.90	3.96	-52.7	-69.4	3.9	7.39e-01	0	47	104	0	68	24949
2026-01-05 00:52:18.23	22.96	4.03	-52.6	-67.5	4.8	7.15e-01	0	47	104	0	68	19956
2026-01-05 00:52:19.22	23.02	4.09	-52.5	-65.8	5.7	6.91e-01	35	48	0	0	68	16384
2026-01-05 00:52:20.21	23.08	4.16	-52.5	-64.6	6.8	6.69e-01	92	48	0	1572864	68	14264
2026-01-05 00:52:21.19	23.14	4.23	-52.4	-63.7	7.6	6.53e-01	91	48	0	3670016	68	12862
2026-01-05 00:52:22.18	23.20	4.29	-52.3	-62.1	9.0	6.31e-01	0	48	0	5242880	68	10773
2026-01-05 00:52:23.18	23.26	4.36	-52.0	-60.8	10.5	6.21e-01	0	48	0	7340032	67	9747
2026-01-05 00:52:24.16	23.32	4.43	-51.9	-60.1	11.2	6.12e-01	0	48	0	8912896	67	9068
2026-01-05 00:52:25.15	23.39	4.49	-51.8	-59.3	12.1	6.09e-01	0	48	0	11010048	67	8204
2026-01-05 00:52:26.14	23.45	4.56	-51.6	-58.5	12.9	6.07e-01	0	48	0	12582912	66	7951
2026-01-05 00:52:27.13	23.51	4.63	-51.6	-58.4	13.0	6.06e-01	0	48	0	14680064	66	7858
2026-01-05 00:52:28.12	23.57	4.69	-51.5	-58.3	13.2	6.06e-01	0	48	0	16252928	66	7751
2026-01-05 00:52:29.11	23.64	4.76	-51.4	-57.6	13.8	6.05e-01	0	48	0	18350080	66	7177
2026-01-05 00:52:30.08	23.70	4.83	-51.4	-57.8	13.7	6.05e-01	0	48	0	19922944	66	7294
2026-01-05 00:52:31.06	23.76	4.90	-51.3	-57.4	14.1	6.05e-01	0	48	0	22020096	66	6963
2026-01-05 00:52:32.05	23.83	4.96	-51.2	-57.1	14.4	6.05e-01	0	48	0	24117248	66	6729
2026-01-05 00:52:33.03	23.89	5.03	-51.3	-57.3	14.2	6.06e-01	0	48	0	25690112	66	6908
2026-01-05 00:52:34.01	23.95	5.10	-51.2	-56.8	14.7	6.05e-01	0	49	0	27787264	65	6932
2026-01-05 00:52:35.00	24.02	5.17	-51.0	-56.3	15.2	6.04e-01	0	49	0	29360128	65	6530
2026-01-05 00:52:35.98	24.08	5.24	-51.1	-56.6	15.0	6.02e-01	0	48	0	30932992	65	6729
2026-01-05 00:52:36.97	24.15	5.30	-51.3	-57.1	14.4	6.04e-01	0	49	0	33030144	65	7157
2026-01-05 00:52:37.96	24.22	5.37	-51.2	-56.8	14.7	6.03e-01	0	49	0	35127296	65	6895
2026-01-05 00:52:38.95	24.28	5.44	-51.3	-57.1	14.5	6.02e-01	0	49	0	36700160	65	7171
2026-01-05 00:52:39.93	24.35	5.51	-51.0	-56.2	15.4	6.06e-01	0	49	0	38797312	65	6425
2026-01-05 00:52:40.91	24.41	5.58	-50.7	-55.3	16.4	6.02e-01	0	49	0	40370176	65	5797
2026-01-05 00:52:41.89	24.48	5.65	-50.5	-54.8	16.9	6.03e-01	0	49	0	42467328	64	5802
2026-01-05 00:52:42.88	24.55	5.72	-50.3	-54.2	17.6	6.04e-01	0	49	0	44040192	64	5420
2026-01-05 00:52:43.86	24.62	5.79	-50.2	-53.8	18.1	6.04e-01	0	49	0	46137344	63	5517
2026-01-05 00:52:44.84	24.68	5.86	-50.0	-53.5	18.4	6.03e-01	0	49	0	47710208	63	5311
2026-01-05 00:52:45.83	24.75	5.93	-50.0	-53.4	18.5	6.01e-01	0	49	0	49807360	63	5228
2026-01-05 00:52:46.81	24.82	6.00	-50.0	-53.5	18.4	6.01e-01	0	49	0	51380224	63	5299
2026-01-05 00:52:47.80	24.89	6.07	-50.2	-53.7	18.2	6.04e-01	0	49	0	53477376	63	5459
2026-01-05 00:52:48.78	24.96	6.14	-50.0	-53.3	18.6	6.04e-01	0	49	0	55050240	63	5199
2026-01-05 00:52:49.77	25.03	6.21	-49.9	-53.1	18.9	6.05e-01	0	49	0	57147392	63	5058
2026-01-05 00:52:50.76	25.10	6.28	-49.7	-52.8	19.2	6.04e-01	0	49	0	58720256	63	4884
2026-01-05 00:52:51.75	25.17	6.35	-49.6	-52.5	19.5	6.07e-01	0	49	0	60817408	62	5026
2026-01-05 00:52:52.74	25.24	6.43	-49.5	-52.3	19.7	6.04e-01	0	49	0	62390272	62	4914
2026-01-05 00:52:53.73	25.31	6.50	-49.5	-52.4	19.7	6.04e-01	0	50	0	64487424	62	4939
2026-01-05 00:52:54.72	25.38	6.57	-49.6	-52.6	19.5	6.02e-01	0	49	0	66584576	62	5053
2026-01-05 00:52:55.71	25.46	6.64	-49.5	-52.4	19.7	6.05e-01	0	50	0	68157440	62	4938
2026-01-05 00:52:56.69	25.53	6.71	-49.4	-52.2	19.8	6.01e-01	0	50	0	70254592	62	4870
2026-01-05 00:52:57.68	25.60	6.79	-49.4	-52.3	19.9	6.01e-01	0	50	0	71827456	62	4889
2026-01-05 00:52:58.68	25.67	6.86	-49.6	-52.5	19.6	6.05e-01	0	50	0	73924608	62	5009
2026-01-05 00:52:59.67	25.75	6.93	-49.5	-52.4	19.7	6.01e-01	0	50	0	75497472	62	4959
2026-01-05 00:53:00.66	25.82	7.01	-49.5	-52.3	19.9	6.03e-01	0	49	0	77594624	62	4898
2026-01-05 00:53:01.65	25.90	7.08	-49.5	-52.3	19.8	6.02e-01	0	50	0	79167488	62	4913
2026-01-05 00:53:02.64	25.97	7.15	-49.4	-52.2	20.0	6.01e-01	0	50	0	81264640	62	4834
2026-01-05 00:53:03.63	26.05	7.23	-49.4	-52.2	20.0	6.03e-01	0	50	0	82837504	62	4849
2026-01-05 00:53:04.61	26.12	7.30	-49.5	-52.2	19.9	6.01e-01	0	50	0	84934656	62	4867
2026-01-05 00:53:05.60	26.20	7.38	-49.6	-52.5	19.6	6.02e-01	0	50	0	87031808	62	5039
2026-01-05 00:53:06.59	26.27	7.45	-49.7	-52.7	19.5	6.02e-01	0	50	0	88604672	62	5120
2026-01-05 00:53:07.58	26.35	7.53	-49.7	-52.6	19.6	6.03e-01	0	50	0	90177536	62	5090
2026-01-05 00:53:08.57	26.43	7.60	-49.6	-52.4	19.8	6.04e-01	0	50	0	92274688	62	4957
2026-01-05 00:53:09.56	26.50	7.68	-49.5	-52.3	19.9	6.04e-01	0	50	0	94371840	62	4877
2026-01-05 00:53:10.55	26.58	7.75	-49.5	-52.2	20.0	6.03e-01	0	50	0	95944704	62	4869
2026-01-05 00:53:11.54	26.66	7.83	-49.5	-52.3	19.9	6.03e-01	0	50	0	98041856	62	4906
2026-01-05 00:53:12.53	26.74	7.90	-49.6	-52.4	19.8	6.06e-01	0	50	0	99614720	62	4958
2026-01-05 00:53:13.51	26.82	7.98	-49.6	-52.4	19.8	6.03e-01	0	50	0	101711872	62	4941
2026-01-05 00:53:14.49	26.90	8.05	-49.5	-52.3	20.0	6.05e-01	0	50	0	103284736	62	4872
2026-01-05 00:53:15.48	26.98	8.13	-49.6	-52.5	19.8	6.05e-01	0	50	0	105381888	62	5000
2026-01-05 00:53:16.47	27.06	8.21	-49.7	-52.6	19.7	6.04e-01	0	50	0	106954752	62	5043
2026-01-05 00:53:17.46	27.14	8.28	-49.7	-52.5	19.8	6.04e-01	0	51	0	109051904	62	5018
2026-01-05 00:53:18.45	27.22	8.36	-49.9	-52.9	19.4	6.04e-01	0	50	0	110624768	62	5224
2026-01-05 00:53:19.45	27.30	8.44	-49.9	-52.9	19.3	6.04e-01	0	50	0	112721920	62	5276
2026-01-05 00:53:20.44	27.38	8.52	-49.9	-52.9	19.3	6.05e-01	0	51	0	114294784	62	5271
2026-01-05 00:53:21.42	27.46	8.59	-50.0	-53.2	19.2	6.05e-01	0	51	0	116391936	62	5404
2026-01-05 00:53:22.41	27.55	8.67	-50.1	-53.2	19.1	6.05e-01	0	51	0	118489088	62	5428
2026-01-05 00:53:23.40	27.63	8.75	-49.9	-53.0	19.3	6.04e-01	0	51	0	120061952	62	5305
2026-01-05 00:53:24.39	27.71	8.83	-49.9	-52.9	19.5	6.02e-01	0	51	0	122159104	62	5237
2026-01-05 00:53:25.38	27.80	8.91	-50.0	-53.1	19.3	6.03e-01	0	51	0	123731968	62	5350
2026-01-05 00:53:26.37	27.88	8.98	-50.1	-53.2	19.1	6.02e-01	0	51	0	125829120	62	5446
2026-01-05 00:53:27.35	27.97	9.06	-49.8	-52.7	19.6	6.05e-01	0	51	0	127401984	62	5149
2026-01-05 00:53:28.35	28.06	9.14	-49.6	-52.3	20.1	6.04e-01	0	51	0	129499136	62	4885
2026-01-05 00:53:29.34	28.14	9.22	-49.4	-52.0	20.4	6.04e-01	0	51	0	131072000	62	4732
2026-01-05 00:53:30.33	28.23	9.30	-49.2	-51.7	20.6	6.05e-01	0	51	0	133169152	62	4587
2026-01-05 00:53:31.32	28.32	9.38	-49.2	-51.6	20.8	6.03e-01	0	51	0	134742016	61	4796
2026-01-05 00:53:32.31	28.40	9.46	-49.1	-51.5	21.0	6.02e-01	0	51	0	136839168	61	4711
2026-01-05 00:53:33.30	28.49	9.54	-49.1	-51.5	21.0	6.05e-01	0	51	0	138936320	61	4726
2026-01-05 00:53:34.29	28.58	9.62	-49.1	-51.5	20.9	6.04e-01	0	51	0	140509184	61	4725
2026-01-05 00:53:35.27	28.67	9.70	-49.2	-51.7	20.7	6.07e-01	0	51	0	142606336	61	4832
2026-01-05 00:53:36.27	28.76	9.79	-49.0	-51.4	21.1	6.03e-01	0	51	0	144179200	61	4656
2026-01-05 00:53:37.25	28.85	9.87	-48.9	-51.1	21.3	6.01e-01	0	51	0	146276352	61	4536
2026-01-05 00:53:38.24	28.94	9.95	-48.7	-51.0	21.4	6.03e-01	0	51	0	147849216	61	4454
2026-01-05 00:53:39.23	29.03	10.03	-48.8	-51.0	21.4	6.01e-01	0	51	0	149946368	61	4485
2026-01-05 00:53:40.21	29.12	10.11	-48.8	-51.0	21.5	6.06e-01	0	51	0	151519232	61	4459
2026-01-05 00:53:41.20	29.21	10.19	-48.8	-51.0	21.5	6.03e-01	0	51	0	153616384	61	4456
2026-01-05 00:53:42.19	29.31	10.28	-48.8	-51.1	20.5	6.04e-01	0	51	0	155189248	61	4502
2026-01-05 00:53:43.17	29.40	10.36	-48.9	-51.2	21.3	6.02e-01	0	51	0	157286400	61	4549
2026-01-05 00:53:44.16	29.49	10.44	-48.7	-51.0	21.5	6.01e-01	0	51	0	158859264	61	4445
2026-01-05 00:53:45.15	29.59	10.53	-48.7	-50.9	21.6	6.01e-01	0	51	0	160956416	60	4656
2026-01-05 00:53:46.14	29.68	10.61	-48.8	-51.0	21.5	6.06e-01	0	51	0	162529280	60	4713
2026-01-05 00:53:47.14	29.78	10.69	-48.9	-51.2	21.3	6.03e-01	0	51	0	164626432	60	4821
2026-01-05 00:53:48.13	29.88	10.78	-48.8	-51.1	21.4	6.03e-01	0	51	0	166723584	60	4792
2026-01-05 00:53:49.11	29.97	10.86	-49.0	-51.3	21.3	6.04e-01	0	51	0	168296448	60	4874
2026-01-05 00:53:50.10	30.07	10.95	-49.0	-51.4	21.1	6.05e-01	0	51	0	170393600	60	4944
2026-01-05 00:53:51.09	30.17	11.03	-49.2	-51.7	20.8	6.03e-01	0	51	0	171966464	60	5109
2026-01-05 00:53:52.08	30.27	11.12	-49.0	-51.3	21.2	6.03e-01	0	52	0	174063616	60	4922
2026-01-05 00:53:53.08	30.37	11.20	-48.8	-51.0	21.4	6.04e-01	0	51	0	175636480	60	4757
2026-01-05 00:53:54.06	30.47	11.29	-48.8	-51.0	21.5	6.05e-01	0	52	0	177733632	60	4739
2026-01-05 00:53:55.05	30.57	11.37	-48.8	-51.0	21.5	6.05e-01	0	52	0	179306496	60	4709
2026-01-05 00:53:56.04	30.67	11.46	-48.9	-51.2	21.3	6.03e-01	0	52	0	181403648	60	4842
2026-01-05 00:53:57.03	30.77	11.55	-48.7	-50.9	21.6	6.04e-01	0	52	0	182976512	60	4688
2026-01-05 00:53:58.02	30.87	11.63	-48.5	-50.6	21.9	6.04e-01	0	52	0	185073664	60	4527
2026-01-05 00:53:59.01	30.97	11.72	-48.4	-50.4	22.1	6.05e-01	0	52	0	186646528	60	4431
2026-01-05 00:54:00.00	31.08	11.81	-48.5	-50.5	22.1	6.02e-01	0	52	0	188743680	60	4466
2026-01-05 00:54:00.99	31.18	11.90	-48.4	-50.5	22.1	6.04e-01	0	52	0	190316544	60	4456
2026-01-05 00:54:01.99	31.29	11.99	-48.5	-50.6	22.0	6.03e-01	0	52	0	192413696	60	4514
2026-01-05 00:54:02.97	31.39	12.07	-48.7	-50.9	21.7	6.03e-01	0	52	0	194510848	60	4655
2026-01-05 00:54:03.96	31.50	12.16	-48.6	-50.7	21.9	6.04e-01	0	52	0	196083712	60	4550
2026-01-05 00:54:04.95	31.60	12.25	-48.5	-50.5	22.0	6.06e-01	0	52	0	198180864	60	4470
2026-01-05 00:54:05.94	31.71	12.34	-48.6	-50.6	22.0	6.06e-01	0	52	0	199753728	60	4544
2026-01-05 00:54:06.92	31.82	12.43	-48.7	-50.9	21.7	6.02e-01	0	52	0	201850880	60	4681
2026-01-05 00:54:07.91	31.93	12.52	-48.6	-50.6	21.9	6.03e-01	0	52	0	203423744	60	4533
2026-01-05 00:54:08.89	32.04	12.61	-48.6	-50.6	21.9	6.02e-01	0	52	0	205520896	60	4540
2026-01-05 00:54:09.88	32.15	12.70	-48.7	-50.8	21.8	6.03e-01	0	52	0	207093760	60	4643
2026-01-05 00:54:10.87	32.26	12.79	-48.6	-50.7	21.9	6.05e-01	0	52	0	209190912	60	4568
2026-01-05 00:54:11.85	32.37	12.88	-48.6	-50.7	21.9	6.02e-01	0	52	0	210763776	60	4592
2026-01-05 00:54:12.84	32.48	12.97	-48.8	-50.9	21.7	6.05e-01	0	52	0	212860928	60	4688
2026-01-05 00:54:13.83	32.59	13.06	-48.6	-50.7	21.9	6.05e-01	0	52	0	214433792	60	4578
2026-01-05 00:54:14.82	32.71	13.15	-48.5	-50.5	22.1	6.03e-01	0	52	0	216530944	60	4489
2026-01-05 00:54:15.81	32.82	13.24	-48.5	-50.5	22.1	6.05e-01	0	52	0	218628096	60	4458
2026-01-05 00:54:16.79	32.93	13.33	-48.5	-50.5	22.2	6.04e-01	0	52	0	220200960	60	4477
2026-01-05 00:54:17.78	33.05	13.43	-48.5	-50.5	22.1	6.04e-01	0	52	0	222298112	60	4475
2026-01-05 00:54:18.77	33.17	13.52	-48.7	-50.8	21.9	6.05e-01	0	52	0	223870976	60	4602
2026-01-05 00:54:19.75	33.28	13.61	-48.5	-50.6	22.1	6.02e-01	0	52	0	225968128	60	4510
2026-01-05 00:54:20.74	33.40	13.70	-48.4	-50.4	22.2	6.01e-01	0	52	0	227540992	60	4427
2026-01-05 00:54:21.74	33.52	13.80	-48.3	-50.3	22.3	6.03e-01	0	52	0	229638144	60	4376
2026-01-05 00:54:22.73	33.64	13.89	-48.3	-50.3	22.4	6.02e-01	0	53	0	231211008	60	4353
2026-01-05 00:54:23.72	33.76	13.99	-48.2	-50.2	22.4	6.03e-01	0	53	0	233308160	60	4294
2026-01-05 00:54:24.71	33.88	14.08	-48.3	-50.2	22.5	6.03e-01	0	53	0	234881024	60	4311
2026-01-05 00:54:25.70	34.00	14.18	-48.2	-50.1	22.5	6.04e-01	0	52	0	236978176	60	4284
2026-01-05 00:54:26.68	34.12	14.27	-48.2	-50.1	22.6	6.03e-01	0	52	0	238551040	60	4278
2026-01-05 00:54:27.66	34.25	14.36	-48.6	-50.6	22.5	6.03e-01	0	53	0	240648192	59	4771
2026-01-05 00:54:28.65	34.37	14.46	-48.6	-50.5	22.5	6.04e-01	0	53	0	242745344	59	4727
2026-01-05 00:54:29.64	34.50	14.56	-48.6	-50.6	22.4	6.02e-01	0	52	0	244318208	59	4771
2026-01-05 00:54:30.64	34.62	14.65	-48.7	-50.7	22.3	6.04e-01	0	52	0	246415360	59	4819
2026-01-05 00:54:31.63	34.75	14.75	-48.7	-50.6	22.3	6.03e-01	0	53	0	247988224	59	4806
2026-01-05 00:54:32.62	34.88	14.85	-48.6	-50.5	22.5	6.03e-01	0	53	0	250085376	59	4724
2026-01-05 00:54:33.60	35.01	14.94	-48.5	-50.4	22.6	6.02e-01	0	53	0	251658240	59	4702
2026-01-05 00:54:34.59	35.14	15.04	-48.6	-50.5	22.5	6.04e-01	0	53	0	253755392	59	4740
2026-01-05 00:54:35.58	35.27	15.14	-48.7	-50.6	22.4	6.04e-01	0	53	0	255328256	59	4797
2026-01-05 00:54:36.57	35.40	15.24	-48.8	-50.8	22.3	6.02e-01	0	53	0	257425408	59	4888
2026-01-05 00:54:37.57	35.53	15.34	-48.4	-50.3	22.3	6.03e-01	0	53	0	258998272	60	4382
2026-01-05 00:54:38.56	35.66	15.44	-48.2	-50.1	22.6	6.04e-01	0	53	0	261095424	60	4264
2026-01-05 00:54:39.56	35.80	15.54	-48.5	-50.4	22.7	6.03e-01	0	53	0	263192576	59	4667
2026-01-05 00:54:40.54	35.93	15.63	-48.5	-50.4	22.7	6.04e-01	0	53	0	264765440	59	4653
2026-01-05 00:54:41.54	36.07	15.74	-48.6	-50.5	22.6	6.05e-01	0	53	0	266338304	59	4750
2026-01-05 00:54:42.53	36.21	15.84	-48.6	-50.6	22.6	6.02e-01	0	53	0	268435456	59	4771
2026-01-05 00:54:43.52	36.34	15.94	-48.6	-50.6	22.6	6.04e-01	0	53	0	270532608	59	4765
2026-01-05 00:54:44.51	36.48	16.04	-48.8	-50.8	22.3	6.04e-01	0	53	0	272105472	59	4875
2026-01-05 00:54:45.50	36.62	16.14	-48.8	-50.8	21.9	6.02e-01	0	53	0	274202624	60	4645
2026-01-05 00:54:46.49	36.76	16.24	-48.8	-51.0	21.8	6.04e-01	0	53	0	275775488	60	4706
2026-01-05 00:54:47.48	36.90	16.34	-48.7	-50.7	22.0	6.06e-01	0	53	0	277872640	60	4583
2026-01-05 00:54:48.48	37.05	16.44	-48.7	-50.8	22.0	6.05e-01	0	53	0	279445504	60	4612
2026-01-05 00:54:49.47	37.19	16.55	-48.6	-50.6	22.1	6.05e-01	0	53	0	281542656	60	4545
2026-01-05 00:54:50.46	37.34	16.65	-48.6	-50.5	22.3	6.02e-01	0	53	0	283115520	60	4489
2026-01-05 00:54:51.45	37.48	16.75	-48.6	-50.6	22.2	6.02e-01	0	53	0	285212672	60	4507
2026-01-05 00:54:52.44	37.63	16.85	-48.7	-50.7	22.1	6.04e-01	0	53	0	286785536	60	4567
2026-01-05 00:54:53.43	37.78	16.96	-48.9	-51.0	21.8	6.04e-01	0	53	0	288882688	60	4748
2026-01-05 00:54:54.43	37.93	17.06	-48.9	-51.1	21.7	6.03e-01	0	53	0	290979840	60	4787
2026-01-05 00:54:55.41	38.07	17.17	-48.7	-50.8	22.0	6.01e-01	0	53	0	292552704	60	4626
2026-01-05 00:54:56.40	38.23	17.27	-48.6	-50.6	22.3	6.03e-01	0	53	0	294649856	60	4500
2026-01-05 00:54:57.39	38.38	17.37	-48.5	-50.4	22.4	6.01e-01	0	53	0	296222720	60	4421
2026-01-05 00:54:58.39	38.53	17.48	-48.4	-50.4	22.4	6.03e-01	0	53	0	298319872	60	4407
2026-01-05 00:54:59.37	38.68	17.59	-48.5	-50.5	22.4	6.05e-01	0	53	0	299892736	60	4457
2026-01-05 00:55:00.36	38.84	17.69	-48.5	-50.5	22.3	6.02e-01	0	53	0	301989888	60	4460
2026-01-05 00:55:01.36	39.00	17.80	-48.4	-50.3	22.5	6.05e-01	0	53	0	303562752	60	4370
2026-01-05 00:55:02.35	39.15	17.90	-48.3	-50.1	22.7	6.01e-01	0	53	0	305659904	60	4284
2026-01-05 00:55:03.34	39.31	18.01	-48.6	-50.5	22.6	6.04e-01	0	53	0	307232768	59	4720
2026-01-05 00:55:04.33	39.47	18.12	-48.6	-50.5	22.6	6.04e-01	0	53	0	309329920	59	4744
2026-01-05 00:55:05.32	39.63	18.23	-48.6	-50.6	22.7	6.03e-01	0	53	0	311427072	59	4762
2026-01-05 00:55:06.30	39.79	18.33	-48.7	-50.7	22.5	6.04e-01	0	53	0	312999936	59	4817
2026-01-05 00:55:07.30	39.96	18.44	-48.4	-50.4	22.5	6.06e-01	0	53	0	315097088	60	4400
2026-01-05 00:55:08.29	40.12	18.55	-48.3	-50.1	22.7	6.05e-01	0	53	0	316669952	60	4274
2026-01-05 00:55:09.27	40.29	18.66	-48.5	-50.4	22.8	6.04e-01	0	53	0	318767104	59	4658
2026-01-05 00:55:10.27	40.46	18.77	-48.6	-50.5	22.7	6.05e-01	0	54	0	320339968	59	4755
2026-01-05 00:55:11.26	40.62	18.88	-48.8	-50.7	22.5	6.03e-01	0	54	0	322437120	59	4850
2026-01-05 00:55:12.25	40.79	18.99	-48.6	-50.5	22.7	6.04e-01	0	54	0	324009984	59	4747
2026-01-05 00:55:13.23	40.96	19.09	-48.7	-50.6	22.5	6.02e-01	0	53	0	326107136	59	4796
2026-01-05 00:55:14.23	41.14	19.20	-48.8	-50.8	22.4	6.03e-01	0	53	0	327680000	59	4891
2026-01-05 00:55:15.22	41.31	19.32	-48.6	-50.6	22.6	6.01e-01	0	54	0	329777152	59	4760
2026-01-05 00:55:16.21	41.48	19.43	-48.6	-50.6	22.6	6.04e-01	0	53	0	331874304	59	4765
2026-01-05 00:55:17.20	41.66	19.54	-48.8	-50.8	22.4	6.04e-01	0	54	0	333447168	59	4893
2026-01-05 00:55:18.19	41.84	19.65	-48.7	-50.6	22.6	6.05e-01	0	53	0	335544320	59	4776
2026-01-05 00:55:19.17	42.01	19.76	-48.8	-50.8	22.4	6.04e-01	0	54	0	337117184	59	4903
2026-01-05 00:55:20.17	42.19	19.87	-48.6	-50.6	22.3	6.03e-01	0	54	0	339214336	60	4531
2026-01-05 00:55:21.16	42.38	19.98	-48.9	-50.9	21.9	6.04e-01	0	53	0	340787200	60	4694
2026-01-05 00:55:22.15	42.56	20.10	-48.6	-50.5	22.4	6.03e-01	0	54	0	342884352	60	4488
2026-01-05 00:55:23.14	42.74	20.21	-48.4	-50.3	22.7	6.03e-01	0	54	0	344457216	60	4341
2026-01-05 00:55:24.13	42.93	20.32	-48.6	-50.4	22.9	6.02e-01	0	53	0	346554368	59	4681
2026-01-05 00:55:25.11	43.11	20.43	-48.5	-50.3	22.9	6.03e-01	0	54	0	348127232	59	4632
2026-01-05 00:55:26.11	43.30	20.55	-48.6	-50.5	22.8	6.03e-01	0	54	0	350224384	59	4726
2026-01-05 00:55:27.09	43.49	20.66	-48.7	-50.6	22.6	6.02e-01	0	53	0	351797248	59	4786
2026-01-05 00:55:28.07	43.68	20.77	-48.6	-50.5	22.7	6.02e-01	0	54	0	353894400	59	4709
2026-01-05 00:55:29.06	43.87	20.89	-48.7	-50.7	22.6	6.03e-01	0	54	0	355991552	59	4823
2026-01-05 00:55:30.06	44.07	21.00	-48.6	-50.6	22.4	6.03e-01	0	54	0	357564416	60	4528
2026-01-05 00:55:31.05	44.26	21.12	-48.8	-50.9	22.1	6.03e-01	0	54	0	359661568	60	4673
2026-01-05 00:55:32.04	44.46	21.23	-48.6	-50.5	22.4	6.02e-01	0	54	0	361234432	60	4472
2026-01-05 00:55:33.02	44.65	21.35	-48.7	-50.7	22.2	6.03e-01	0	54	0	363331584	60	4556
2026-01-05 00:55:34.02	44.86	21.46	-48.8	-50.9	22.1	6.06e-01	0	54	0	364904448	60	4673
2026-01-05 00:55:35.01	45.06	21.58	-48.7	-50.7	22.2	6.04e-01	0	54	0	367001600	60	4565
2026-01-05 00:55:35.99	45.26	21.69	-48.9	-51.0	22.0	6.03e-01	0	54	0	368574464	60	4711
2026-01-05 00:55:36.97	45.46	21.81	-48.7	-50.7	22.2	6.04e-01	0	54	0	370671616	60	4566
2026-01-05 00:55:37.97	45.67	21.93	-48.6	-50.5	22.4	6.05e-01	0	54	0	372244480	60	4483
2026-01-05 00:55:38.96	45.88	22.04	-48.6	-50.6	22.3	6.03e-01	0	54	0	374341632	60	4518
2026-01-05 00:55:39.95	46.09	22.16	-48.8	-50.8	22.2	6.04e-01	0	54	0	376438784	60	4630
2026-01-05 00:55:40.94	46.30	22.28	-49.0	-51.1	21.8	6.04e-01	0	54	0	378011648	60	4803
2026-01-05 00:55:41.93	46.51	22.40	-48.7	-50.6	22.2	6.05e-01	0	54	0	379584512	60	4542
2026-01-05 00:55:42.92	46.72	22.51	-48.4	-50.3	22.7	6.04e-01	0	54	0	381681664	60	4342
2026-01-05 00:55:43.91	46.94	22.63	-48.3	-50.1	22.8	6.04e-01	0	54	0	383778816	60	4268
2026-01-05 00:55:44.90	47.16	22.75	-48.3	-50.2	22.8	6.05e-01	0	54	0	385351680	60	4294
2026-01-05 00:55:45.88	47.37	22.87	-48.4	-50.3	22.6	6.04e-01	0	54	0	387448832	60	4368
2026-01-05 00:55:46.87	47.60	22.98	-48.6	-50.5	22.4	6.04e-01	0	54	0	389021696	60	4483
2026-01-05 00:55:47.87	47.82	23.10	-48.4	-50.3	22.6	6.04e-01	0	54	0	391118848	60	4379
2026-01-05 00:55:48.85	48.04	23.22	-48.3	-50.1	22.7	6.06e-01	0	54	0	392691712	60	4289
2026-01-05 00:55:49.84	48.27	23.34	-48.3	-50.2	22.7	6.06e-01	0	54	0	394788864	60	4310
2026-01-05 00:55:50.83	48.50	23.46	-48.6	-50.5	22.5	6.05e-01	0	54	0	396361728	60	4468
2026-01-05 00:55:51.81	48.72	23.58	-48.4	-50.3	22.6	6.04e-01	0	54	0	398458880	60	4358
2026-01-05 00:55:52.80	48.96	23.70	-48.3	-50.1	22.8	6.03e-01	0	54	0	400031744	60	4269
2026-01-05 00:55:53.79	49.19	23.82	-48.4	-50.2	22.7	6.03e-01	0	54	0	402128896	60	4320
2026-01-05 00:55:54.78	49.42	23.94	-48.5	-50.4	22.6	6.04e-01	0	54	0	403701760	60	4392
2026-01-05 00:55:55.77	49.66	24.06	-48.5	-50.4	22.5	6.02e-01	0	54	0	405798912	60	4419
2026-01-05 00:55:56.76	49.90	24.18	-48.4	-50.2	22.7	6.04e-01	0	54	0	407896064	60	4337
2026-01-05 00:55:57.75	50.14	24.30	-48.3	-50.2	22.8	6.02e-01	0	54	0	409468928	60	4311
2026-01-05 00:55:58.74	50.38	24.42	-48.6	-50.5	22.5	6.05e-01	0	54	0	411566080	60	4487
2026-01-05 00:55:59.72	50.63	24.53	-48.6	-50.5	22.4	6.03e-01	0	54	0	413138944	60	4493
2026-01-05 00:56:00.70	50.87	24.65	-48.7	-50.7	22.3	6.05e-01	0	54	0	415236096	60	4564
2026-01-05 00:56:01.69	51.12	24.77	-48.8	-50.8	22.2	6.04e-01	0	54	0	416808960	60	4612
2026-01-05 00:56:02.68	51.37	24.89	-48.7	-50.7	22.2	6.04e-01	0	54	0	418906112	60	4575
2026-01-05 00:56:03.67	51.62	25.01	-48.9	-50.9	22.1	6.03e-01	0	54	0	420478976	60	4676
2026-01-05 00:56:04.67	51.88	25.14	-48.9	-51.0	22.0	6.05e-01	0	54	0	422576128	60	4731
2026-01-05 00:56:05.66	52.13	25.26	-48.8	-50.9	22.1	6.05e-01	0	54	0	424148992	60	4652
2026-01-05 00:56:06.65	52.39	25.38	-48.8	-50.8	22.2	6.05e-01	0	54	0	426246144	60	4638
2026-01-05 00:56:07.64	52.65	25.50	-48.9	-50.9	22.1	6.04e-01	0	54	0	427819008	60	4699
2026-01-05 00:56:08.63	52.91	25.62	-48.9	-50.9	22.0	6.03e-01	0	54	0	429916160	60	4705
2026-01-05 00:56:09.62	53.18	25.74	-48.7	-50.7	22.3	6.02e-01	0	54	0	432013312	60	4585
2026-01-05 00:56:10.61	53.44	25.86	-48.6	-50.5	22.4	6.05e-01	0	54	0	433586176	60	4482
2026-01-05 00:56:11.60	53.71	25.98	-48.7	-50.6	22.3	6.06e-01	0	54	0	435683328	60	4538
2026-01-05 00:56:12.59	53.98	26.10	-48.8	-50.8	22.2	6.02e-01	0	54	0	437256192	60	4604
2026-01-05 00:56:13.58	54.26	26.22	-48.8	-50.7	22.2	6.04e-01	0	54	0	439353344	60	4592
2026-01-05 00:56:14.56	54.53	26.34	-48.9	-51.0	22.1	6.03e-01	0	54	0	440926208	60	4717
2026-01-05 00:56:15.55	54.80	26.46	-49.0	-51.0	22.0	6.04e-01	0	54	0	443023360	60	4754
2026-01-05 00:56:16.55	55.09	26.58	-48.6	-50.6	22.3	6.04e-01	0	54	0	444596224	60	4513
2026-01-05 00:56:17.53	55.36	26.70	-48.4	-50.3	22.7	6.01e-01	0	54	0	446693376	60	4372
2026-01-05 00:56:18.52	55.65	26.82	-48.4	-50.2	22.7	6.05e-01	0	54	0	448266240	60	4334
2026-01-05 00:56:19.51	55.93	26.94	-48.5	-50.4	22.6	6.03e-01	0	54	0	450363392	60	4435
2026-01-05 00:56:20.50	56.22	27.06	-48.5	-50.4	22.6	6.02e-01	0	54	0	452460544	60	4425
2026-01-05 00:56:21.50	56.51	27.18	-48.5	-50.4	22.7	6.02e-01	0	54	0	454033408	60	4393
2026-01-05 00:56:22.49	56.81	27.30	-48.5	-50.4	22.7	6.03e-01	0	54	0	456130560	60	4412
2026-01-05 00:56:23.48	57.10	27.42	-48.5	-50.4	22.6	6.03e-01	0	54	0	457703424	60	4400
2026-01-05 00:56:24.47	57.40	27.54	-48.6	-50.5	22.5	6.05e-01	0	54	0	459800576	60	4451
2026-01-05 00:56:25.45	57.69	27.65	-48.6	-50.5	22.5	6.03e-01	0	54	0	461373440	60	4456
2026-01-05 00:56:26.44	57.99	27.77	-48.4	-50.3	22.7	6.05e-01	0	54	0	463470592	60	4362
2026-01-05 00:56:27.44	58.30	27.89	-48.6	-50.5	22.5	6.03e-01	0	54	0	465043456	60	4473
2026-01-05 00:56:28.42	58.60	28.01	-48.8	-50.9	22.2	6.01e-01	0	55	0	467140608	60	4655
2026-01-05 00:56:29.40	58.91	28.12	-48.7	-50.7	22.3	6.02e-01	0	55	0	468713472	60	4584
2026-01-05 00:56:30.39	59.22	28.24	-48.9	-50.9	22.1	6.02e-01	0	55	0	470810624	60	4695
2026-01-05 00:56:31.38	59.53	28.36	-49.0	-51.1	21.9	6.04e-01	0	55	0	472383488	60	4786
2026-01-05 00:56:32.37	59.85	28.47	-48.8	-50.8	22.3	6.03e-01	0	54	0	474480640	60	4617
2026-01-05 00:56:33.36	60.16	28.59	-48.9	-51.0	22.1	6.01e-01	0	55	0	476053504	60	4718
2026-01-05 00:56:34.35	60.48	28.70	-49.1	-51.2	21.8	6.02e-01	0	55	0	478150656	60	4858
2026-01-05 00:56:35.35	60.81	28.82	-48.8	-50.8	22.1	6.05e-01	0	54	0	480247808	60	4647
2026-01-05 00:56:36.34	61.13	28.93	-48.7	-50.6	22.4	6.03e-01	0	55	0	481820672	60	4538
2026-01-05 00:56:37.33	61.46	29.05	-48.8	-50.8	22.2	6.02e-01	0	55	0	483917824	60	4620
2026-01-05 00:56:38.31	61.79	29.16	-49.0	-51.1	21.9	6.03e-01	0	54	0	485490688	60	4791
2026-01-05 00:56:39.30	62.12	29.27	-49.0	-51.1	21.9	6.04e-01	0	55	0	487587840	60	4805
2026-01-05 00:56:40.28	62.45	29.39	-48.7	-50.6	22.3	6.02e-01	0	55	0	489160704	60	4541
2026-01-05 00:56:41.27	62.78	29.50	-48.6	-50.5	22.6	6.02e-01	0	55	0	491257856	60	4445
2026-01-05 00:56:42.27	63.13	29.61	-48.7	-50.6	22.4	6.04e-01	0	55	0	492830720	60	4545
2026-01-05 00:56:43.26	63.47	29.72	-48.7	-50.6	22.4	6.04e-01	0	55	0	494927872	60	4517
2026-01-05 00:56:44.24	63.81	29.83	-48.5	-50.4	22.6	6.03e-01	0	54	0	496500736	60	4428
2026-01-05 00:56:45.23	64.15	29.94	-48.6	-50.5	22.5	6.04e-01	0	55	0	498597888	60	4482
2026-01-05 00:56:46.21	64.50	30.05	-48.6	-50.5	22.6	6.03e-01	0	55	0	500170752	60	4471
2026-01-05 00:56:47.20	64.85	30.16	-48.8	-50.8	22.3	6.03e-01	0	55	0	502267904	60	4638
2026-01-05 00:56:48.19	65.20	30.27	-49.1	-51.3	21.8	6.02e-01	0	55	0	503840768	60	4895
2026-01-05 00:56:49.18	65.56	30.37	-48.8	-50.8	22.3	6.02e-01	0	54	0	505937920	60	4622
2026-01-05 00:56:50.17	65.91	30.48	-48.5	-50.4	22.6	6.04e-01	0	55	0	508035072	60	4418
2026-01-05 00:56:51.16	66.27	30.58	-48.6	-50.5	22.6	6.03e-01	0	55	0	509607936	60	4458
2026-01-05 00:56:52.14	66.63	30.69	-48.5	-50.3	22.7	6.04e-01	0	55	0	511705088	60	4375
2026-01-05 00:56:53.14	67.00	30.79	-48.5	-50.4	22.6	6.04e-01	0	55	0	513277952	60	4424
2026-01-05 00:56:54.12	67.37	30.89	-48.8	-50.8	22.2	6.04e-01	0	55	0	515375104	60	4635
2026-01-05 00:56:55.11	67.74	31.00	-48.7	-50.6	22.5	6.03e-01	0	55	0	516947968	60	4512
2026-01-05 00:56:56.10	68.11	31.10	-48.6	-50.5	22.6	6.03e-01	0	55	0	519045120	60	4442
2026-01-05 00:56:57.09	68.48	31.20	-48.6	-50.5	22.6	6.03e-01	0	55	0	520617984	60	4445
2026-01-05 00:56:58.08	68.86	31.30	-48.7	-50.6	22.4	6.03e-01	0	55	0	522715136	60	4529
2026-01-05 00:56:59.07	69.24	31.40	-48.6	-50.5	22.6	6.02e-01	0	55	0	524288000	60	4449
2026-01-05 00:57:00.06	69.62	31.50	-48.7	-50.6	22.4	6.04e-01	0	55	0	526385152	60	4531
2026-01-05 00:57:01.05	70.00	31.59	-48.8	-50.8	22.3	6.03e-01	0	55	0	527958016	60	4612
2026-01-05 00:57:02.03	70.39	31.69	-48.6	-50.5	22.5	6.02e-01	0	55	0	530055168	60	4469
2026-01-05 00:57:03.03	70.78	31.78	-48.6	-50.5	22.5	6.04e-01	0	55	0	532152320	60	4474
2026-01-05 00:57:04.01	71.17	31.87	-48.6	-50.5	22.6	6.01e-01	0	55	0	533725184	60	4452
2026-01-05 00:57:05.00	71.56	31.97	-48.8	-50.8	22.3	6.03e-01	0	55	0	535822336	60	4642
2026-01-05 00:57:05.99	71.95	32.06	-48.5	-50.4	22.6	6.04e-01	0	55	0	537395200	60	4429
2026-01-05 00:57:06.98	72.35	32.15	-48.5	-50.3	22.7	6.04e-01	0	55	0	539492352	60	4385
2026-01-05 00:57:07.97	72.75	32.24	-48.6	-50.5	22.5	6.06e-01	0	55	0	541065216	60	4464
2026-01-05 00:57:08.97	73.16	32.33	-48.6	-50.5	22.5	6.03e-01	0	55	0	543162368	60	4488
2026-01-05 00:57:09.96	73.56	32.41	-48.9	-50.9	22.0	6.02e-01	0	55	0	544735232	60	4689
2026-01-05 00:57:10.95	73.97	32.50	-48.9	-50.9	22.2	6.02e-01	0	55	0	546832384	60	4677
2026-01-05 00:57:11.94	74.38	32.58	-48.7	-50.7	22.4	6.05e-01	0	55	0	548405248	60	4566
2026-01-05 00:57:12.93	74.79	32.66	-48.8	-50.8	22.3	6.04e-01	0	55	0	550502400	60	4622
2026-01-05 00:57:13.92	75.20	32.74	-48.7	-50.7	22.4	6.03e-01	0	55	0	552599552	60	4566
2026-01-05 00:57:14.92	75.62	32.83	-48.7	-50.7	22.4	6.03e-01	0	55	0	554172416	60	4554
2026-01-05 00:57:15.91	76.04	32.90	-48.8	-50.8	22.3	6.02e-01	0	55	0	556269568	60	4625
2026-01-05 00:57:16.90	76.46	32.98	-48.7	-50.6	22.5	6.03e-01	0	55	0	557842432	60	4514
2026-01-05 00:57:17.88	76.87	33.06	-48.5	-50.3	22.7	6.03e-01	0	55	0	559939584	60	4377
2026-01-05 00:57:18.87	77.30	33.13	-48.2	-50.0	23.0	6.04e-01	0	55	0	561512448	60	4228
2026-01-05 00:57:19.85	77.72	33.20	-48.4	-50.2	22.9	6.05e-01	0	55	0	563609600	60	4302
2026-01-05 00:57:20.83	78.14	33.27	-48.4	-50.3	22.8	6.01e-01	0	55	0	565182464	60	4362
2026-01-05 00:57:21.82	78.57	33.34	-48.4	-50.2	22.8	6.03e-01	0	55	0	567279616	60	4313
2026-01-05 00:57:22.81	79.00	33.41	-48.4	-50.3	22.8	6.02e-01	0	55	0	568852480	60	4350
2026-01-05 00:57:23.79	79.43	33.48	-48.7	-50.6	22.5	6.03e-01	0	55	0	570949632	60	4512
2026-01-05 00:57:24.77	79.86	33.54	-48.6	-50.5	22.5	6.04e-01	0	55	0	572522496	60	4474
2026-01-05 00:57:25.77	80.30	33.60	-48.6	-50.5	22.6	6.03e-01	0	55	0	574619648	60	4471
2026-01-05 00:57:26.76	80.74	33.67	-48.7	-50.7	22.4	6.03e-01	0	55	0	576192512	60	4546
2026-01-05 00:57:27.75	81.18	33.73	-48.6	-50.5	22.5	6.03e-01	0	55	0	578289664	60	4485
2026-01-05 00:57:28.74	81.62	33.78	-48.5	-50.3	22.8	6.02e-01	0	55	0	579862528	60	4371
2026-01-05 00:57:29.73	82.06	33.84	-48.7	-50.7	22.4	6.05e-01	0	55	0	581959680	60	4555
2026-01-05 00:57:30.72	82.50	33.90	-48.6	-50.4	22.6	6.04e-01	0	55	0	584056832	60	4436
2026-01-05 00:57:31.71	82.95	33.95	-48.6	-50.5	22.6	6.03e-01	0	55	0	585629696	60	4479
2026-01-05 00:57:32.69	83.39	34.00	-48.6	-50.5	22.6	6.04e-01	0	55	0	587726848	60	4458
2026-01-05 00:57:33.67	83.84	34.05	-48.5	-50.4	22.7	6.05e-01	0	55	0	589299712	60	4401
2026-01-05 00:57:34.66	84.29	34.10	-48.5	-50.3	23.0	6.03e-01	0	55	0	591396864	59	4649
2026-01-05 00:57:35.65	84.74	34.14	-48.5	-50.3	23.1	6.04e-01	0	55	0	592969728	59	4640
2026-01-05 00:57:36.64	85.19	34.19	-48.4	-50.1	23.3	6.04e-01	0	55	0	595066880	59	4527
2026-01-05 00:57:37.62	85.64	34.23	-48.7	-50.6	22.9	6.04e-01	0	55	0	596639744	59	4785
2026-01-05 00:57:38.62	86.10	34.27	-48.7	-50.5	22.8	6.03e-01	0	55	0	598736896	59	4752
2026-01-05 00:57:39.61	86.56	34.31	-49.4	-51.1	22.6	6.01e-01	0	55	0	600309760	60	4807
2026-01-05 00:57:40.60	87.01	34.34	-48.6	-50.5	22.5	6.06e-01	0	55	0	602406912	60	4466
2026-01-05 00:57:41.59	87.47	34.38	-48.2	-50.0	23.0	6.02e-01	0	55	0	603979776	60	4229
2026-01-05 00:57:42.58	87.93	34.41	-48.6	-50.4	23.0	6.04e-01	0	55	0	606076928	59	4671
2026-01-05 00:57:43.58	88.39	34.44	-48.7	-50.5	22.9	6.03e-01	0	55	0	608174080	59	4748
2026-01-05 00:57:44.57	88.86	34.47	-48.8	-50.6	22.8	6.04e-01	0	55	0	609746944	59	4801
2026-01-05 00:57:45.56	89.32	34.50	-48.4	-50.2	22.9	6.03e-01	0	55	0	611844096	60	4305
2026-01-05 00:57:46.54	89.78	34.52	-48.4	-50.2	23.2	6.06e-01	0	55	0	613416960	59	4560
2026-01-05 00:57:47.52	90.23	34.55	-48.6	-50.4	23.0	6.03e-01	0	55	0	615514112	59	4680
2026-01-05 00:57:48.52	90.70	34.57	-48.6	-50.4	23.0	6.01e-01	0	55	0	617086976	59	4686
2026-01-05 00:57:49.51	91.17	34.59	-48.6	-50.4	23.0	6.02e-01	0	55	0	619184128	59	4682
2026-01-05 00:57:50.49	91.63	34.60	-48.7	-50.5	22.9	6.04e-01	0	55	0	620756992	59	4733
2026-01-05 00:57:51.48	92.09	34.62	-48.8	-50.7	22.7	6.02e-01	0	56	0	622854144	59	4835
2026-01-05 00:57:52.47	92.56	34.63	-48.9	-50.9	22.2	6.05e-01	0	55	0	624427008	60	4672
2026-01-05 00:57:53.46	93.02	34.64	-49.0	-51.0	22.0	6.02e-01	0	55	0	626524160	60	4751
2026-01-05 00:57:54.45	93.49	34.65	-48.6	-50.5	22.5	6.05e-01	0	55	0	628621312	60	4479
2026-01-05 00:57:55.44	93.96	34.66	-48.3	-50.1	23.0	6.01e-01	0	55	0	630194176	60	4256
2026-01-05 00:57:56.43	94.43	34.66	-48.5	-50.3	23.1	6.04e-01	0	55	0	632291328	59	4640
2026-01-05 00:57:57.41	94.89	34.66	-48.6	-50.5	22.7	6.04e-01	0	55	0	633864192	60	4467
2026-01-05 00:57:58.40	95.35	34.66	-48.8	-50.7	22.4	6.05e-01	0	55	0	635961344	60	4597
2026-01-05 00:57:59.39	95.82	34.66	-48.7	-50.7	22.4	6.05e-01	0	55	0	637534208	60	4556
2026-01-05 00:58:00.38	96.29	34.66	-48.4	-50.3	22.8	6.03e-01	0	55	0	639631360	60	4345
2026-01-05 00:58:01.36	96.75	34.65	-48.4	-50.2	22.9	6.03e-01	0	55	0	641204224	60	4322
2026-01-05 00:58:02.35	97.22	34.65	-48.2	-49.9	23.1	6.01e-01	0	55	0	643301376	60	4185
2026-01-05 00:58:03.34	97.68	34.64	-48.2	-50.0	23.1	6.08e-01	0	55	0	644874240	60	4223
2026-01-05 00:58:04.32	98.15	34.62	-48.4	-50.3	22.8	6.03e-01	0	55	0	646971392	60	4357
2026-01-05 00:58:05.31	98.61	34.61	-48.5	-50.4	22.7	6.05e-01	0	55	0	648544256	60	4395
2026-01-05 00:58:06.31	99.08	34.59	-48.2	-49.9	23.1	6.05e-01	0	55	0	650641408	60	4187
2026-01-05 00:58:07.30	99.55	34.58	-48.4	-50.2	23.2	6.02e-01	0	55	0	652214272	59	4553
2026-01-05 00:58:08.29	100.01	34.56	-48.3	-50.0	23.4	6.04e-01	0	55	0	654311424	59	4484
2026-01-05 00:58:09.28	100.47	34.54	-48.3	-50.0	23.4	6.02e-01	0	55	0	655884288	59	4493
2026-01-05 00:58:10.28	100.94	34.51	-48.3	-50.0	23.4	6.04e-01	0	55	0	657981440	59	4451
2026-01-05 00:58:11.27	101.41	34.49	-48.4	-50.1	23.3	6.01e-01	0	55	0	660078592	59	4545
2026-01-05 00:58:12.25	101.86	34.46	-48.5	-50.2	23.2	6.05e-01	0	56	0	661651456	59	4592
2026-01-05 00:58:13.24	102.32	34.43	-48.4	-50.2	23.2	6.05e-01	0	55	0	663748608	59	4584
2026-01-05 00:58:14.22	102.78	34.40	-48.5	-50.3	23.1	6.02e-01	0	55	0	665321472	59	4644
2026-01-05 00:58:15.22	103.24	34.36	-48.2	-49.9	23.5	6.04e-01	0	55	0	667418624	59	4440
2026-01-05 00:58:16.21	103.70	34.33	-48.2	-49.9	23.5	6.04e-01	0	56	0	668991488	59	4422
2026-01-05 00:58:17.20	104.16	34.29	-48.3	-50.1	23.3	6.00e-01	0	55	0	671088640	59	4506
2026-01-05 00:58:18.18	104.61	34.25	-48.5	-50.3	23.0	6.02e-01	0	55	0	672661504	59	4627
2026-01-05 00:58:19.17	105.06	34.21	-48.3	-50.1	23.4	6.03e-01	0	55	0	674758656	59	4514
2026-01-05 00:58:20.17	105.52	34.17	-48.1	-49.8	23.6	6.05e-01	0	55	0	676331520	59	4363
2026-01-05 00:58:21.16	105.98	34.12	-48.3	-50.0	23.5	6.03e-01	0	55	0	678428672	59	4448
2026-01-05 00:58:22.15	106.43	34.07	-48.2	-49.9	23.5	6.02e-01	0	56	0	680525824	59	4430
2026-01-05 00:58:23.14	106.88	34.03	-48.3	-50.0	23.4	6.05e-01	0	55	0	682098688	59	4464
2026-01-05 00:58:24.14	107.33	33.97	-48.4	-50.1	23.3	6.04e-01	0	55	0	684195840	59	4517
2026-01-05 00:58:25.13	107.78	33.92	-48.4	-50.1	23.3	6.02e-01	0	55	0	685768704	59	4539
2026-01-05 00:58:26.12	108.22	33.87	-48.8	-50.7	22.7	6.05e-01	0	55	0	687865856	59	4835
2026-01-05 00:58:27.11	108.67	33.81	-48.6	-50.4	23.0	6.04e-01	0	55	0	689438720	59	4685
2026-01-05 00:58:28.09	109.10	33.76	-48.3	-50.0	23.3	6.04e-01	0	55	0	691535872	59	4471
2026-01-05 00:58:29.07	109.54	33.70	-47.9	-49.5	23.8	6.04e-01	0	55	0	693108736	59	4241
2026-01-05 00:58:30.05	109.98	33.64	-48.1	-49.7	23.7	6.04e-01	0	55	0	695205888	59	4313
2026-01-05 00:58:31.04	110.41	33.57	-48.1	-49.8	23.5	6.04e-01	0	55	0	696778752	59	4375
2026-01-05 00:58:32.04	110.85	33.51	-48.1	-49.7	23.7	6.03e-01	0	55	0	698875904	59	4329
2026-01-05 00:58:33.03	111.29	33.44	-48.2	-50.0	23.4	6.03e-01	0	55	0	700448768	59	4442
2026-01-05 00:58:34.02	111.72	33.38	-48.0	-49.6	23.8	6.04e-01	0	55	0	702545920	59	4253
2026-01-05 00:58:35.00	112.15	33.31	-48.0	-49.6	23.7	6.02e-01	0	55	0	704643072	59	4282
2026-01-05 00:58:36.00	112.58	33.24	-48.0	-49.6	23.7	6.03e-01	0	55	0	706215936	59	4274
2026-01-05 00:58:36.99	113.01	33.16	-47.9	-49.6	23.8	6.03e-01	0	55	0	708313088	59	4248
2026-01-05 00:58:37.97	113.43	33.09	-48.0	-49.6	23.7	6.05e-01	0	56	0	709885952	59	4288
2026-01-05 00:58:38.96	113.85	33.02	-48.0	-49.7	23.7	6.03e-01	0	55	0	711983104	59	4312
2026-01-05 00:58:39.95	114.27	32.94	-48.0	-49.7	23.7	6.04e-01	0	55	0	713555968	59	4308
2026-01-05 00:58:40.94	114.69	32.86	-48.2	-49.9	23.5	6.04e-01	0	55	0	715653120	59	4414
2026-01-05 00:58:41.93	115.11	32.78	-48.4	-50.2	23.2	6.04e-01	0	56	0	717225984	59	4549
2026-01-05 00:58:42.92	115.52	32.70	-48.2	-49.9	23.5	6.04e-01	0	56	0	719323136	59	4414
2026-01-05 00:58:43.91	115.93	32.62	-48.3	-50.0	23.3	6.03e-01	0	56	0	720896000	59	4473
2026-01-05 00:58:44.89	116.34	32.54	-48.3	-50.0	23.4	6.04e-01	0	55	0	722993152	59	4467
2026-01-05 00:58:45.88	116.75	32.45	-48.4	-50.1	23.3	6.03e-01	0	55	0	724566016	59	4526
2026-01-05 00:58:46.87	117.16	32.36	-48.4	-50.2	23.2	6.04e-01	0	56	0	726663168	59	4561
2026-01-05 00:58:47.86	117.56	32.28	-48.2	-49.9	23.4	6.03e-01	0	55	0	728760320	59	4424
2026-01-05 00:58:48.85	117.96	32.19	-48.2	-49.9	23.5	6.00e-01	0	56	0	730333184	59	4405
2026-01-05 00:58:49.84	118.36	32.10	-48.2	-49.9	23.5	6.04e-01	0	55	0	731906048	59	4415
2026-01-05 00:58:50.83	118.76	32.01	-48.2	-49.8	23.5	6.04e-01	0	55	0	734003200	59	4386
2026-01-05 00:58:51.82	119.15	31.92	-48.0	-49.6	23.7	6.06e-01	0	56	0	736100352	59	4268
2026-01-05 00:58:52.81	119.55	31.82	-47.7	-49.2	24.1	6.02e-01	0	56	0	737673216	59	4082
2026-01-05 00:58:53.79	119.93	31.73	-47.6	-49.2	24.2	6.03e-01	0	55	0	739770368	58	4296
2026-01-05 00:58:54.78	120.32	31.63	-47.7	-49.2	24.1	6.03e-01	0	55	0	741343232	58	4328
2026-01-05 00:58:55.77	120.71	31.54	-47.9	-49.5	23.9	6.03e-01	0	56	0	743440384	58	4468
2026-01-05 00:58:56.75	121.09	31.44	-47.7	-49.3	24.0	6.04e-01	0	56	0	745013248	58	4372
2026-01-05 00:58:57.73	121.47	31.34	-47.8	-49.4	23.9	6.03e-01	0	56	0	747110400	58	4412
2026-01-05 00:58:58.73	121.85	31.24	-47.8	-49.4	23.9	6.05e-01	0	56	0	748683264	58	4427
2026-01-05 00:58:59.72	122.23	31.14	-47.9	-49.5	23.9	6.04e-01	0	56	0	750780416	58	4470
2026-01-05 00:59:00.71	122.60	31.04	-48.1	-49.8	23.6	6.05e-01	0	56	0	752353280	58	4631
2026-01-05 00:59:01.70	122.97	30.94	-48.1	-49.7	23.6	6.04e-01	0	55	0	754450432	58	4570
2026-01-05 00:59:02.69	123.34	30.84	-47.9	-49.5	23.8	6.02e-01	0	55	0	756023296	58	4490
2026-01-05 00:59:03.68	123.71	30.73	-47.7	-49.3	24.0	6.03e-01	0	55	0	758120448	58	4350
2026-01-05 00:59:04.66	124.07	30.63	-47.6	-49.1	24.2	6.03e-01	0	56	0	760217600	58	4255
2026-01-05 00:59:05.66	124.44	30.52	-47.6	-49.1	24.2	6.03e-01	0	56	0	761790464	58	4273
2026-01-05 00:59:06.66	124.80	30.41	-47.6	-49.2	24.1	6.05e-01	0	55	0	763887616	58	4308
2026-01-05 00:59:07.65	125.16	30.31	-47.8	-49.3	24.0	6.04e-01	0	55	0	765460480	58	4383
2026-01-05 00:59:08.63	125.51	30.20	-47.8	-49.4	23.9	6.03e-01	0	55	0	767557632	58	4411
2026-01-05 00:59:09.62	125.86	30.09	-47.8	-49.4	24.0	6.05e-01	0	56	0	769130496	58	4396
2026-01-05 00:59:10.61	126.21	29.98	-47.7	-49.3	24.1	6.03e-01	0	56	0	771227648	58	4371
2026-01-05 00:59:11.61	126.56	29.87	-47.7	-49.3	23.9	6.02e-01	0	56	0	772800512	58	4379
2026-01-05 00:59:12.60	126.91	29.76	-47.8	-49.4	23.9	6.01e-01	0	56	0	774897664	58	4412
2026-01-05 00:59:13.58	127.25	29.65	-48.0	-49.6	23.8	6.03e-01	0	56	0	776470528	58	4502
2026-01-05 00:59:14.58	127.59	29.54	-48.0	-49.7	23.7	6.01e-01	0	55	0	778567680	58	4548
2026-01-05 00:59:15.57	127.93	29.42	-48.1	-49.8	23.6	6.06e-01	0	55	0	780664832	58	4601
2026-01-05 00:59:16.55	128.26	29.31	-48.1	-49.8	23.6	6.06e-01	0	56	0	782237696	58	4617
2026-01-05 00:59:17.54	128.60	29.20	-47.9	-49.6	23.7	6.04e-01	0	56	0	784334848	58	4496
2026-01-05 00:59:18.53	128.93	29.09	-48.1	-49.7	23.6	6.03e-01	0	56	0	785907712	58	4579
2026-01-05 00:59:19.52	129.26	28.97	-48.2	-49.8	23.5	6.04e-01	0	56	0	788004864	58	4648
2026-01-05 00:59:20.51	129.58	28.86	-48.1	-49.7	23.6	6.04e-01	0	56	0	789577728	58	4588
2026-01-05 00:59:21.50	129.91	28.74	-47.9	-49.5	23.7	6.02e-01	0	56	0	791674880	58	4490
2026-01-05 00:59:22.49	130.23	28.62	-47.8	-49.4	23.9	6.03e-01	0	56	0	793247744	58	4420
2026-01-05 00:59:23.48	130.55	28.51	-47.9	-49.5	23.9	6.01e-01	0	56	0	795344896	58	4479
2026-01-05 00:59:24.47	130.87	28.39	-47.9	-49.6	23.8	6.04e-01	0	56	0	796917760	58	4494
2026-01-05 00:59:25.46	131.18	28.27	-48.1	-49.8	23.6	6.05e-01	0	56	0	799014912	58	4609
2026-01-05 00:59:26.45	131.49	28.16	-48.2	-49.8	23.5	6.01e-01	0	56	0	801112064	58	4648
2026-01-05 00:59:27.44	131.80	28.04	-48.1	-49.7	23.6	6.03e-01	0	56	0	802684928	58	4579
2026-01-05 00:59:28.43	132.11	27.92	-47.9	-49.5	23.7	6.06e-01	0	56	0	804782080	58	4481
2026-01-05 00:59:29.41	132.41	27.80	-47.9	-49.5	23.8	6.06e-01	0	56	0	806354944	58	4485
2026-01-05 00:59:30.40	132.72	27.69	-48.1	-49.7	23.6	6.04e-01	0	56	0	808452096	58	4580
2026-01-05 00:59:31.40	133.02	27.57	-48.1	-49.8	23.5	6.05e-01	0	56	0	810024960	58	4620
2026-01-05 00:59:32.39	133.32	27.45	-48.1	-49.8	23.5	6.03e-01	0	56	0	812122112	58	4640
2026-01-05 00:59:33.38	133.61	27.33	-48.1	-49.8	23.6	6.02e-01	0	56	0	813694976	58	4603
2026-01-05 00:59:34.37	133.91	27.21	-48.0	-49.6	23.6	6.03e-01	0	56	0	815792128	58	4545
2026-01-05 00:59:35.35	134.20	27.09	-48.1	-49.8	23.5	6.03e-01	0	56	0	817364992	58	4617
2026-01-05 00:59:36.34	134.49	26.97	-48.3	-50.0	23.4	6.07e-01	0	56	0	819462144	58	4730
2026-01-05 00:59:37.32	134.77	26.85	-48.2	-50.0	23.4	6.03e-01	0	56	0	821035008	58	4712
2026-01-05 00:59:38.31	135.06	26.73	-48.2	-50.0	23.3	6.04e-01	0	56	0	823132160	58	4709
2026-01-05 00:59:39.30	135.34	26.61	-48.4	-50.1	23.2	6.03e-01	0	56	0	825229312	59	4539
2026-01-05 00:59:40.29	135.62	26.49	-48.5	-50.3	23.1	6.04e-01	0	56	0	826802176	59	4634
2026-01-05 00:59:41.29	135.90	26.37	-48.3	-50.0	23.3	6.05e-01	0	56	0	828375040	59	4457
2026-01-05 00:59:42.27	136.18	26.25	-48.2	-49.9	23.4	6.04e-01	0	56	0	830472192	59	4419
2026-01-05 00:59:43.25	136.45	26.13	-48.3	-50.0	23.3	6.04e-01	0	56	0	832569344	59	4465
2026-01-05 00:59:44.25	136.72	26.01	-48.3	-50.1	23.3	6.05e-01	0	56	0	834142208	59	4519
2026-01-05 00:59:45.24	136.99	25.88	-48.4	-50.2	23.2	6.04e-01	0	56	0	836239360	59	4547
2026-01-05 00:59:46.22	137.26	25.76	-48.3	-50.0	23.3	6.02e-01	0	56	0	837812224	59	4448
2026-01-05 00:59:47.22	137.53	25.64	-48.3	-50.0	23.3	6.03e-01	0	56	0	839909376	59	4465
2026-01-05 00:59:48.20	137.79	25.52	-48.4	-50.1	23.2	6.03e-01	0	56	0	841482240	59	4542
2026-01-05 00:59:49.19	138.05	25.40	-48.5	-50.3	23.0	6.04e-01	0	56	0	843579392	59	4644
2026-01-05 00:59:50.19	138.31	25.28	-48.6	-50.4	23.0	6.04e-01	0	56	0	845152256	59	4667
2026-01-05 00:59:51.17	138.57	25.16	-48.7	-50.6	22.7	6.03e-01	0	56	0	847249408	59	4801
2026-01-05 00:59:52.16	138.82	25.04	-48.8	-50.7	22.6	6.04e-01	0	56	0	848822272	59	4855
2026-01-05 00:59:53.15	139.08	24.92	-48.6	-50.4	22.9	6.01e-01	0	56	0	850919424	59	4664
2026-01-05 00:59:54.14	139.33	24.80	-48.5	-50.3	23.0	6.04e-01	0	56	0	852492288	59	4624
2026-01-05 00:59:55.12	139.58	24.68	-48.6	-50.4	22.9	6.04e-01	0	56	0	854589440	59	4661
2026-01-05 00:59:56.12	139.83	24.55	-48.4	-50.2	23.1	6.02e-01	0	56	0	856686592	59	4579
2026-01-05 00:59:57.11	140.07	24.43	-48.5	-50.3	23.0	6.03e-01	0	56	0	858259456	59	4624
2026-01-05 00:59:58.11	140.32	24.31	-48.7	-50.6	22.7	6.06e-01	0	56	0	860356608	59	4768
2026-01-05 00:59:59.09	140.56	24.19	-48.6	-50.4	22.9	6.01e-01	0	56	0	861929472	59	4686
2026-01-05 01:00:00.08	140.80	24.07	-48.7	-50.6	22.8	6.05e-01	0	56	0	864026624	59	4766
2026-01-05 01:00:01.08	141.04	23.95	-48.9	-50.8	22.5	6.03e-01	0	56	0	865599488	59	4896
2026-01-05 01:00:02.07	141.28	23.83	-48.7	-50.6	22.8	6.04e-01	0	56	0	867696640	59	4772
2026-01-05 01:00:03.06	141.51	23.71	-48.5	-50.4	22.8	6.05e-01	0	56	0	869269504	59	4662
2026-01-05 01:00:04.04	141.74	23.59	-48.7	-50.6	22.7	6.03e-01	0	56	0	871366656	59	4763
2026-01-05 01:00:05.04	141.98	23.47	-48.6	-50.6	22.4	6.05e-01	0	56	0	872939520	60	4505
2026-01-05 01:00:06.02	142.20	23.35	-49.1	-51.2	21.8	6.05e-01	0	56	0	875036672	60	4842
2026-01-05 01:00:07.01	142.43	23.23	-48.8	-50.8	22.2	6.02e-01	0	56	0	877133824	60	4623
2026-01-05 01:00:08.00	142.66	23.11	-48.5	-50.4	22.5	6.03e-01	0	56	0	878706688	60	4429
2026-01-05 01:00:08.99	142.88	22.99	-48.3	-50.2	22.7	6.05e-01	0	56	0	880803840	60	4314
2026-01-05 01:00:09.98	143.10	22.87	-48.2	-50.0	22.9	6.05e-01	0	56	0	882376704	60	4218
2026-01-05 01:00:10.97	143.32	22.75	-48.6	-50.4	22.8	6.05e-01	0	56	0	884473856	59	4692
2026-01-05 01:00:11.97	143.54	22.63	-48.6	-50.5	22.8	6.03e-01	0	56	0	886046720	59	4708
2026-01-05 01:00:12.95	143.76	22.52	-48.8	-50.8	22.5	6.01e-01	0	56	0	888143872	59	4879
2026-01-05 01:00:13.94	143.98	22.40	-48.6	-50.5	22.7	6.02e-01	0	56	0	889716736	59	4729
2026-01-05 01:00:14.94	144.19	22.28	-48.4	-50.2	23.0	6.04e-01	0	56	0	891813888	59	4560
2026-01-05 01:00:15.93	144.40	22.16	-48.3	-50.0	23.2	6.01e-01	0	56	0	893386752	59	4472
2026-01-05 01:00:16.92	144.61	22.04	-48.2	-49.9	23.3	6.06e-01	0	56	0	895483904	59	4409
2026-01-05 01:00:17.91	144.82	21.93	-48.2	-49.9	23.3	6.04e-01	0	56	0	897581056	59	4436
2026-01-05 01:00:18.90	145.03	21.81	-48.3	-50.0	23.2	6.02e-01	0	56	0	899153920	59	4467
2026-01-05 01:00:19.90	145.24	21.69	-48.4	-50.2	23.0	6.04e-01	0	56	0	901251072	59	4556
2026-01-05 01:00:20.89	145.44	21.57	-48.3	-50.1	23.1	6.04e-01	0	56	0	902823936	59	4519
2026-01-05 01:00:21.87	145.64	21.46	-48.3	-50.0	23.1	6.03e-01	0	56	0	904921088	59	4474
2026-01-05 01:00:22.86	145.84	21.34	-48.3	-50.1	23.2	6.04e-01	0	56	0	906493952	59	4496
2026-01-05 01:00:23.84	146.04	21.23	-48.5	-50.3	22.9	6.04e-01	0	56	0	908591104	59	4614
2026-01-05 01:00:24.84	146.24	21.11	-48.4	-50.2	23.0	6.04e-01	0	56	0	910163968	59	4554
2026-01-05 01:00:25.82	146.43	21.00	-48.5	-50.3	23.0	6.03e-01	0	56	0	912261120	59	4617
2026-01-05 01:00:26.81	146.63	20.88	-48.6	-50.5	22.8	6.04e-01	0	56	0	913833984	59	4724
2026-01-05 01:00:27.78	146.82	20.77	-48.5	-50.3	22.9	6.02e-01	0	56	0	915931136	59	4621
2026-01-05 01:00:28.77	147.01	20.65	-48.3	-50.0	23.1	6.04e-01	0	56	0	917504000	59	4488
2026-01-05 01:00:29.76	147.20	20.54	-48.2	-49.9	23.2	6.04e-01	0	56	0	919601152	59	4440
2026-01-05 01:00:30.75	147.39	20.42	-48.3	-50.0	23.2	6.05e-01	0	56	0	921698304	59	4479
2026-01-05 01:00:31.73	147.58	20.31	-48.3	-50.1	23.1	6.05e-01	0	56	0	923271168	59	4524
2026-01-05 01:00:32.73	147.76	20.20	-48.3	-50.0	23.2	6.05e-01	0	56	0	924844032	59	4477
2026-01-05 01:00:33.72	147.95	20.08	-48.3	-50.0	23.2	6.05e-01	0	56	0	926941184	59	4479
2026-01-05 01:00:34.71	148.13	19.97	-48.5	-50.3	22.9	6.04e-01	0	56	0	929038336	59	4633
2026-01-05 01:00:35.71	148.32	19.86	-48.4	-50.2	23.1	6.03e-01	0	56	0	930611200	59	4556
2026-01-05 01:00:36.70	148.50	19.74	-48.3	-50.0	23.2	6.04e-01	0	56	0	932708352	59	4472
2026-01-05 01:00:37.69	148.68	19.63	-48.1	-49.9	23.3	6.04e-01	0	56	0	934281216	59	4401
2026-01-05 01:00:38.68	148.85	19.52	-48.1	-49.8	23.4	6.04e-01	0	56	0	936378368	59	4391
2026-01-05 01:00:39.67	149.03	19.41	-48.3	-50.0	23.2	6.05e-01	0	56	0	937951232	59	4488
2026-01-05 01:00:40.67	149.21	19.29	-48.2	-49.9	23.2	6.03e-01	0	56	0	940048384	59	4432
2026-01-05 01:00:41.66	149.38	19.18	-48.3	-50.1	23.1	6.05e-01	0	56	0	941621248	59	4495
2026-01-05 01:00:42.65	149.55	19.07	-48.6	-50.4	22.8	6.06e-01	0	56	0	943718400	59	4705
2026-01-05 01:00:43.64	149.73	18.96	-48.6	-50.5	22.7	6.04e-01	0	56	0	945291264	59	4726
2026-01-05 01:00:44.63	149.90	18.85	-48.6	-50.5	22.6	6.04e-01	0	56	0	947388416	59	4751
2026-01-05 01:00:45.62	150.07	18.74	-48.6	-50.5	22.7	6.03e-01	0	56	0	949485568	59	4720
2026-01-05 01:00:46.61	150.23	18.63	-48.6	-50.4	22.7	6.01e-01	0	56	0	951058432	59	4698
2026-01-05 01:00:47.60	150.40	18.52	-48.7	-50.7	22.5	6.03e-01	0	56	0	953155584	59	4821
2026-01-05 01:00:48.58	150.56	18.42	-48.6	-50.6	22.6	6.03e-01	0	56	0	954728448	59	4762
2026-01-05 01:00:49.58	150.73	18.31	-48.5	-50.3	22.8	6.03e-01	0	56	0	956825600	59	4637
2026-01-05 01:00:50.57	150.89	18.20	-48.4	-50.2	22.9	6.06e-01	0	56	0	958398464	59	4562
2026-01-05 01:00:51.56	151.05	18.09	-48.4	-50.2	22.9	6.05e-01	0	56	0	960495616	59	4592
2026-01-05 01:00:52.54	151.21	17.98	-48.4	-50.2	22.9	6.05e-01	0	56	0	962068480	59	4580
2026-01-05 01:00:53.53	151.37	17.88	-48.2	-49.9	23.2	6.06e-01	0	56	0	964165632	59	4435
2026-01-05 01:00:54.52	151.53	17.77	-48.1	-49.9	23.3	6.01e-01	0	56	0	965738496	59	4395
2026-01-05 01:00:55.51	151.69	17.66	-48.1	-49.8	23.3	6.06e-01	0	56	0	967835648	59	4374
2026-01-05 01:00:56.50	151.84	17.56	-48.1	-49.8	23.3	6.03e-01	0	56	0	969932800	59	4373
2026-01-05 01:00:57.49	152.00	17.45	-48.1	-49.9	23.2	6.04e-01	0	56	0	971505664	59	4402
2026-01-05 01:00:58.47	152.15	17.34	-48.1	-49.8	23.3	6.05e-01	0	56	0	973602816	59	4381
2026-01-05 01:00:59.46	152.30	17.24	-48.1	-49.8	23.3	6.05e-01	0	56	0	975175680	59	4380
2026-01-05 01:01:00.44	152.45	17.14	-48.1	-49.8	23.2	6.04e-01	0	56	0	977272832	59	4389
2026-01-05 01:01:01.43	152.60	17.03	-48.1	-49.8	23.3	6.04e-01	0	56	0	978845696	59	4353
2026-01-05 01:01:02.43	152.75	16.92	-48.2	-49.9	23.2	6.04e-01	0	56	0	980942848	59	4427
2026-01-05 01:01:03.42	152.90	16.82	-48.2	-50.0	23.1	6.03e-01	0	56	0	982515712	59	4468
2026-01-05 01:01:04.42	153.05	16.72	-48.1	-49.8	23.3	6.02e-01	0	56	0	984612864	59	4372
2026-01-05 01:01:05.40	153.19	16.61	-48.2	-50.0	23.1	6.03e-01	0	56	0	986185728	59	4466
2026-01-05 01:01:06.40	153.34	16.51	-48.4	-50.2	22.9	6.04e-01	0	56	0	988282880	59	4551
2026-01-05 01:01:07.39	153.48	16.41	-48.1	-49.9	23.2	6.04e-01	0	56	0	989855744	59	4412
2026-01-05 01:01:08.37	153.63	16.30	-48.0	-49.8	23.3	6.02e-01	0	56	0	991952896	59	4341
2026-01-05 01:01:09.36	153.77	16.20	-48.1	-49.8	23.3	6.03e-01	0	56	0	994050048	59	4348
2026-01-05 01:01:10.35	153.91	16.10	-48.2	-49.9	23.2	6.03e-01	0	56	0	995622912	59	4433
2026-01-05 01:01:11.35	154.05	16.00	-48.3	-50.1	23.0	6.04e-01	0	56	0	997720064	59	4524
2026-01-05 01:01:12.34	154.19	15.90	-48.4	-50.2	22.8	6.01e-01	0	56	0	999292928	59	4597
2026-01-05 01:01:13.33	154.33	15.79	-48.3	-50.2	22.9	6.03e-01	0	56	0	1001390080	59	4556
2026-01-05 01:01:14.32	154.46	15.69	-48.5	-50.4	22.7	6.02e-01	0	56	0	1002962944	59	4703
2026-01-05 01:01:15.32	154.60	15.59	-48.7	-50.6	22.5	6.04e-01	0	56	0	1005060096	59	4803
2026-01-05 01:01:16.30	154.74	15.49	-48.4	-50.3	22.8	6.04e-01	0	56	0	1006632960	59	4617
2026-01-05 01:01:17.29	154.87	15.39	-48.3	-50.1	23.0	6.03e-01	0	56	0	1008730112	59	4533
2026-01-05 01:01:18.28	155.00	15.29	-48.2	-50.0	23.0	6.00e-01	0	56	0	1010302976	59	4472
2026-01-05 01:01:19.27	155.14	15.19	-48.3	-50.1	23.0	6.05e-01	0	56	0	1012400128	59	4494
2026-01-05 01:01:20.26	155.27	15.10	-48.3	-50.1	22.9	6.03e-01	0	56	0	1014497280	59	4544
2026-01-05 01:01:21.24	155.40	15.00	-48.4	-50.3	22.8	6.02e-01	0	56	0	1016070144	59	4632
2026-01-05 01:01:22.23	155.53	14.90	-48.3	-50.1	22.9	6.04e-01	0	56	0	1017643008	59	4545
2026-01-05 01:01:23.22	155.66	14.80	-48.5	-50.4	22.7	6.04e-01	0	56	0	1019740160	59	4671
2026-01-05 01:01:24.21	155.79	14.70	-48.6	-50.6	22.5	6.05e-01	0	56	0	1021837312	59	4784
2026-01-05 01:01:25.20	155.91	14.61	-48.4	-50.3	22.8	6.03e-01	0	56	0	1023410176	59	4616
2026-01-05 01:01:26.19	156.04	14.51	-48.3	-50.1	23.0	6.01e-01	0	56	0	1025507328	59	4505
2026-01-05 01:01:27.17	156.16	14.41	-48.1	-49.9	23.1	6.02e-01	0	56	0	1027080192	59	4423
2026-01-05 01:01:28.15	156.29	14.32	-48.0	-49.8	23.2	6.05e-01	0	56	0	1029177344	59	4355
2026-01-05 01:01:29.13	156.41	14.22	-48.1	-49.8	23.2	6.05e-01	0	56	0	1030750208	59	4365
2026-01-05 01:01:30.11	156.53	14.13	-48.1	-49.8	23.2	6.06e-01	0	56	0	1032847360	59	4390
2026-01-05 01:01:31.11	156.65	14.03	-48.2	-49.9	23.0	6.00e-01	0	56	0	1034420224	59	4438
2026-01-05 01:01:32.09	156.77	13.94	-48.1	-49.8	23.2	6.05e-01	0	56	0	1036517376	59	4379
2026-01-05 01:01:33.08	156.90	13.84	-48.2	-50.0	23.0	6.03e-01	0	56	0	1038090240	59	4465
2026-01-05 01:01:34.08	157.02	13.75	-48.4	-50.3	22.7	6.04e-01	0	56	0	1040187392	59	4638
2026-01-05 01:01:35.07	157.14	13.65	-48.3	-50.1	22.9	6.05e-01	0	56	0	1041760256	59	4526
2026-01-05 01:01:36.07	157.26	13.56	-48.2	-50.0	23.0	6.02e-01	0	56	0	1043857408	59	4469
2026-01-05 01:01:37.06	157.37	13.47	-48.3	-50.2	22.8	6.05e-01	0	56	0	1045954560	59	4551
2026-01-05 01:01:38.04	157.49	13.37	-48.4	-50.3	22.7	6.02e-01	0	56	0	1047527424	59	4622
2026-01-05 01:01:39.03	157.60	13.28	-48.4	-50.2	22.8	6.02e-01	0	56	0	1049624576	59	4589
2026-01-05 01:01:40.02	157.72	13.19	-48.5	-50.4	22.6	6.01e-01	0	56	0	1051197440	59	4670
2026-01-05 01:01:41.01	157.83	13.09	-48.6	-50.6	22.5	6.03e-01	0	56	0	1053294592	59	4767
2026-01-05 01:01:42.00	157.95	13.00	-48.5	-50.4	22.2	6.04e-01	0	56	0	1054867456	59	4685
2026-01-05 01:01:42.99	158.06	12.91	-48.6	-50.6	22.4	6.03e-01	0	56	0	1056964608	59	4793
2026-01-05 01:01:43.98	158.17	12.82	-48.5	-50.4	22.5	6.07e-01	0	56	0	1058537472	59	4697
2026-01-05 01:01:44.97	158.29	12.73	-48.7	-50.7	22.3	6.03e-01	0	56	0	1060634624	59	4827
2026-01-05 01:01:45.95	158.40	12.64	-48.6	-50.7	22.0	6.04e-01	0	56	0	1062207488	60	4559
2026-01-05 01:01:46.94	158.51	12.55	-49.0	-51.2	21.5	6.02e-01	0	56	0	1064304640	60	4838
2026-01-05 01:01:47.92	158.61	12.46	-48.7	-50.9	21.8	6.02e-01	0	56	0	1065877504	60	4655
2026-01-05 01:01:48.91	158.72	12.37	-48.4	-50.4	22.2	6.04e-01	0	56	0	1067974656	60	4434
2026-01-05 01:01:49.89	158.83	12.28	-48.2	-50.2	22.4	6.04e-01	0	56	0	1069547520	60	4292
2026-01-05 01:01:50.88	158.94	12.19	-48.5	-50.4	22.5	6.02e-01	0	56	0	1071644672	59	4694
2026-01-05 01:01:51.87	159.04	12.10	-48.6	-50.5	22.4	6.05e-01	0	56	0	1073741824	59	4751
2026-01-05 01:01:52.87	159.15	12.01	-48.8	-50.8	22.1	6.02e-01	0	56	0	1075314688	59	4899
2026-01-05 01:01:53.86	159.26	11.92	-48.6	-50.6	22.3	6.04e-01	0	56	0	1077411840	59	4803
2026-01-05 01:01:54.85	159.36	11.83	-48.5	-50.5	22.4	6.02e-01	0	56	0	1078984704	59	4729
2026-01-05 01:01:55.84	159.47	11.74	-48.6	-50.6	22.3	6.03e-01	0	56	0	1081081856	59	4797
2026-01-05 01:01:56.83	159.57	11.66	-48.7	-50.7	22.2	6.03e-01	0	56	0	1082654720	59	4857
2026-01-05 01:01:57.82	159.67	11.57	-48.6	-50.7	22.2	6.04e-01	0	56	0	1084751872	59	4815
2026-01-05 01:01:58.81	159.77	11.48	-48.8	-50.8	22.1	6.03e-01	0	56	0	1086324736	59	4926
2026-01-05 01:01:59.80	159.88	11.39	-48.7	-50.7	22.2	6.03e-01	0	56	0	1088421888	59	4826
2026-01-05 01:02:00.78	159.98	11.31	-48.8	-50.9	22.0	6.05e-01	0	56	0	1089994752	59	4956
2026-01-05 01:02:01.77	160.08	11.22	-48.7	-50.8	22.1	6.05e-01	0	56	0	1092091904	59	4888
2026-01-05 01:02:02.76	160.18	11.13	-48.6	-50.6	22.3	6.04e-01	0	56	0	1094189056	59	4789
2026-01-05 01:02:03.74	160.27	11.05	-48.6	-50.5	22.3	6.04e-01	0	56	0	1095761920	59	4755
2026-01-05 01:02:04.73	160.37	10.96	-48.6	-50.6	22.3	6.06e-01	0	56	0	1097334784	59	4782
2026-01-05 01:02:05.72	160.47	10.88	-48.6	-50.6	22.3	6.03e-01	0	56	0	1099431936	59	4775
2026-01-05 01:02:06.71	160.57	10.79	-48.6	-50.6	22.3	6.02e-01	0	56	0	1101529088	59	4764
2026-01-05 01:02:07.70	160.67	10.71	-48.6	-50.6	22.3	6.04e-01	0	56	0	1103101952	59	4787
2026-01-05 01:02:08.69	160.76	10.62	-48.6	-50.6	22.2	6.03e-01	0	56	0	1105199104	59	4801
2026-01-05 01:02:09.68	160.86	10.54	-48.6	-50.6	22.2	6.03e-01	0	56	0	1106771968	59	4814
2026-01-05 01:02:10.67	160.95	10.45	-48.6	-50.6	22.2	6.04e-01	0	56	0	1108869120	59	4796
2026-01-05 01:02:11.66	161.05	10.37	-48.7	-50.7	22.1	6.03e-01	0	56	0	1110441984	59	4834
2026-01-05 01:02:12.65	161.14	10.29	-48.7	-50.7	22.2	6.04e-01	0	56	0	1112539136	59	4833
2026-01-05 01:02:13.64	161.24	10.20	-48.7	-50.7	22.1	6.04e-01	0	56	0	1114112000	59	4839
2026-01-05 01:02:14.63	161.33	10.12	-48.9	-51.0	21.8	6.02e-01	0	56	0	1116209152	59	5031
2026-01-05 01:02:15.62	161.42	10.04	-48.8	-51.0	21.5	6.04e-01	0	56	0	1117782016	60	4755
2026-01-05 01:02:16.60	161.51	9.95	-48.8	-51.0	21.5	6.06e-01	0	56	0	1119879168	60	4717
2026-01-05 01:02:17.59	161.60	9.87	-48.6	-50.7	21.8	6.03e-01	0	56	0	1121452032	60	4561
2026-01-05 01:02:18.58	161.69	9.79	-48.4	-50.4	22.0	6.04e-01	0	56	0	1123549184	60	4424
2026-01-05 01:02:19.57	161.78	9.71	-48.3	-50.4	22.1	6.04e-01	0	56	0	1125646336	60	4396
2026-01-05 01:02:20.56	161.87	9.63	-48.4	-50.4	22.1	6.03e-01	0	56	0	1127219200	60	4424
2026-01-05 01:02:21.55	161.96	9.54	-48.4	-50.4	22.0	6.02e-01	0	56	0	1129316352	60	4441
2026-01-05 01:02:22.53	162.05	9.46	-48.5	-50.5	21.9	6.03e-01	0	56	0	1130889216	60	4492
2026-01-05 01:02:23.53	162.14	9.38	-48.6	-50.8	21.6	6.04e-01	0	56	0	1132986368	60	4623
2026-01-05 01:02:24.52	162.23	9.30	-48.6	-50.8	21.6	6.04e-01	0	56	0	1134559232	60	4622
2026-01-05 01:02:25.51	162.31	9.22	-48.7	-50.9	21.6	6.04e-01	0	56	0	1136656384	60	4660
2026-01-05 01:02:26.50	162.40	9.14	-48.7	-51.0	21.4	6.05e-01	0	56	0	1138229248	60	4711
2026-01-05 01:02:27.49	162.49	9.06	-48.7	-50.9	21.5	6.02e-01	0	56	0	1140326400	60	4672
2026-01-05 01:02:28.48	162.57	8.98	-48.9	-51.2	21.2	6.03e-01	0	56	0	1141899264	60	4845
2026-01-05 01:02:29.46	162.66	8.90	-49.0	-51.3	21.1	6.03e-01	0	56	0	1143996416	60	4914
2026-01-05 01:02:30.46	162.74	8.82	-48.9	-51.3	21.1	6.05e-01	0	56	0	1146093568	60	4894
2026-01-05 01:02:31.44	162.83	8.74	-49.1	-51.6	20.8	6.04e-01	0	56	0	1147666432	60	5065
2026-01-05 01:02:32.43	162.91	8.66	-49.3	-51.8	20.5	6.04e-01	0	56	0	1149763584	60	5204
2026-01-05 01:02:33.42	162.99	8.59	-49.1	-51.5	20.9	6.03e-01	0	56	0	1151336448	60	5016
2026-01-05 01:02:34.41	163.08	8.51	-49.1	-51.6	20.8	6.03e-01	0	56	0	1153433600	60	5046
2026-01-05 01:02:35.40	163.16	8.43	-49.2	-51.7	20.7	6.02e-01	0	56	0	1155006464	60	5106
2026-01-05 01:02:36.39	163.24	8.35	-49.3	-51.8	20.5	6.07e-01	0	56	0	1157103616	60	5193
2026-01-05 01:02:37.39	163.32	8.27	-49.2	-51.7	20.6	6.05e-01	0	56	0	1158676480	60	5158
2026-01-05 01:02:38.37	163.40	8.20	-49.3	-51.9	20.4	6.03e-01	0	56	0	1160773632	60	5261
2026-01-05 01:02:39.36	163.48	8.12	-49.2	-51.7	20.6	6.02e-01	0	56	0	1162346496	60	5119
2026-01-05 01:02:40.35	163.57	8.04	-49.2	-51.7	20.6	6.04e-01	0	56	0	1164443648	60	5142
2026-01-05 01:02:41.34	163.64	7.96	-49.2	-51.7	20.6	6.03e-01	0	56	0	1166016512	60	5141
2026-01-05 01:02:42.33	163.72	7.89	-49.3	-51.9	20.3	6.03e-01	0	56	0	1168113664	60	5265
2026-01-05 01:02:43.32	163.80	7.81	-49.5	-52.2	20.0	6.06e-01	0	56	0	1170210816	61	5152
2026-01-05 01:02:44.31	163.88	7.74	-49.2	-51.7	20.5	6.05e-01	0	56	0	1171783680	61	4869
2026-01-05 01:02:45.30	163.96	7.66	-49.0	-51.5	20.8	6.06e-01	0	57	0	1173880832	61	4707
2026-01-05 01:02:46.29	164.04	7.58	-49.0	-51.5	20.7	6.05e-01	0	56	0	1175453696	61	4728
2026-01-05 01:02:47.28	164.11	7.51	-49.1	-51.7	20.5	6.03e-01	0	56	0	1177550848	61	4818
2026-01-05 01:02:48.27	164.19	7.43	-49.0	-51.5	20.8	6.04e-01	0	56	0	1179123712	61	4711
2026-01-05 01:02:49.26	164.27	7.36	-49.1	-51.6	20.6	6.03e-01	0	56	0	1181220864	61	4797
2026-01-05 01:02:50.25	164.34	7.28	-49.0	-51.5	20.7	6.03e-01	0	56	0	1182793728	61	4738
2026-01-05 01:02:51.24	164.42	7.21	-49.1	-51.7	20.4	6.02e-01	0	56	0	1184890880	61	4850
2026-01-05 01:02:52.22	164.49	7.13	-49.2	-51.8	20.3	6.03e-01	0	56	0	1186463744	61	4903
2026-01-05 01:02:53.22	164.57	7.06	-49.1	-51.7	20.4	6.01e-01	0	56	0	1188560896	61	4830
2026-01-05 01:02:54.20	164.64	6.99	-49.3	-52.0	20.1	6.02e-01	0	57	0	1190658048	61	5008
2026-01-05 01:02:55.20	164.72	6.91	-49.4	-52.2	19.7	6.04e-01	0	56	0	1192230912	61	5159
2026-01-05 01:02:56.19	164.79	6.84	-49.3	-52.2	19.8	6.03e-01	0	56	0	1193803776	61	5105
2026-01-05 01:02:57.17	164.86	6.76	-49.4	-52.3	19.7	6.04e-01	0	57	0	1195900928	61	5173
2026-01-05 01:02:58.17	164.94	6.69	-49.5	-52.5	19.3	6.03e-01	0	56	0	1197998080	61	5314
2026-01-05 01:02:59.15	165.01	6.62	-49.2	-52.0	19.9	6.04e-01	0	57	0	1199570944	61	4990
2026-01-05 01:03:00.14	165.08	6.54	-49.2	-51.9	19.9	6.04e-01	0	56	0	1201668096	61	4972
2026-01-05 01:03:01.13	165.15	6.47	-49.2	-52.0	19.8	6.09e-01	0	56	0	1203240960	61	5015
2026-01-05 01:03:02.12	165.23	6.40	-49.4	-52.4	19.4	6.05e-01	0	56	0	1205338112	61	5236
2026-01-05 01:03:03.11	165.30	6.33	-49.2	-52.1	19.6	6.07e-01	0	56	0	1206910976	61	5059
2026-01-05 01:03:04.10	165.37	6.25	-49.1	-52.0	19.8	6.04e-01	0	56	0	1209008128	61	5000
2026-01-05 01:03:05.08	165.44	6.18	-49.1	-52.0	19.7	6.01e-01	0	56	0	1210580992	61	4987
2026-01-05 01:03:06.06	165.51	6.11	-49.1	-52.1	19.4	6.02e-01	0	56	0	1212678144	61	5070
2026-01-05 01:03:07.06	165.58	6.04	-49.2	-52.4	19.0	6.02e-01	0	56	0	1214251008	61	5227
2026-01-05 01:03:08.04	165.64	5.97	-49.0	-52.0	19.2	6.03e-01	0	56	0	1216348160	61	5041
2026-01-05 01:03:09.03	165.71	5.90	-49.0	-52.1	19.2	6.03e-01	0	56	0	1217921024	61	5055
2026-01-05 01:03:10.03	165.78	5.83	-49.2	-52.5	18.7	6.03e-01	0	56	0	1220018176	61	5298
2026-01-05 01:03:11.02	165.85	5.76	-49.4	-53.0	18.1	6.03e-01	0	56	0	1222115328	61	5628
2026-01-05 01:03:12.01	165.92	5.68	-49.4	-53.3	17.6	6.03e-01	0	56	0	1223688192	61	5800
2026-01-05 01:03:12.99	165.99	5.61	-49.5	-53.6	17.2	6.05e-01	0	56	0	1225785344	61	6029
2026-01-05 01:03:13.98	166.05	5.54	-49.6	-54.1	16.4	6.02e-01	0	56	0	1227358208	61	6375
2026-01-05 01:03:14.97	166.12	5.47	-49.6	-54.1	16.3	6.04e-01	0	56	0	1229455360	61	6413
2026-01-05 01:03:15.95	166.19	5.40	-49.6	-54.7	15.4	6.02e-01	0	56	0	1231028224	61	6868
2026-01-05 01:03:16.94	166.25	5.34	-49.5	-54.9	15.0	6.03e-01	0	57	0	1233125376	61	6993
2026-01-05 01:03:17.93	166.32	5.27	-49.6	-55.7	13.9	6.05e-01	0	56	0	1234698240	61	7678
2026-01-05 01:03:18.91	166.38	5.20	-49.7	-56.3	13.2	6.04e-01	0	57	0	1236795392	61	8201
2026-01-05 01:03:19.90	166.45	5.13	-49.7	-57.4	11.8	6.10e-01	0	56	0	1238368256	61	9316
2026-01-05 01:03:20.90	166.51	5.06	-50.3	-58.0	11.8	6.08e-01	0	56	0	1240465408	62	9492
2026-01-05 01:03:21.88	166.58	4.99	-53.0	-72.8	3.8	7.43e-01	0	56	104	1240989696	68	36538
2026-01-05 01:03:22.87	166.64	4.92	-53.6	-73.3	3.8	7.45e-01	0	56	104	1240989696	69	36700
2026-01-05 01:03:23.86	166.71	4.85	-53.8	-73.7	3.8	7.48e-01	0	56	104	1240989696	69	38354
