passes_logs/2026/01/05/R3.0SM8_Murmansk_STILSPACE/R3.0SM8_Murmansk_STILSPACE__20260105_152249_FENGYUN_3D_rec.log

#Pass ID: 20260105_152249_FENGYUN 3D
#Satellite: FENGYUN 3D
#Configuration: FENGYUN 3D
#almurnet v.1.7.20240730
#Start time: 2026-01-05 15:22:51

#Version: 2.2.20231116
#Station: R3.0SM8_Murmansk_STILSPACE
#Location: 33.092731 lon 68.902999 lat
#TLE: 1 43010U 17072A   26004.99581904 -.00000126  00000+0 -37613-4 0  9996
#TLE: 2 43010  98.9917 336.6574 0001994 126.4096 233.7264 14.19691690421839

#Time	Az	El	Level	Level2	SNR	BER	BlckErr	Temp	State	Recorded	gain1	gain2
2026-01-05 15:22:51.34	256.45	3.09	-48.6	-59.3	3.8	8.45e-01	0	50	0	0	58	13458
2026-01-05 15:22:52.33	256.56	3.13	-48.4	-59.2	3.8	8.46e-01	0	50	104	0	60	11916
2026-01-05 15:22:53.32	256.68	3.17	-48.4	-59.2	3.8	8.47e-01	0	50	104	0	60	11920
2026-01-05 15:22:54.30	256.79	3.21	-48.4	-59.2	3.8	8.46e-01	0	50	104	0	60	11918
2026-01-05 15:22:55.29	256.90	3.25	-48.4	-59.2	3.8	8.46e-01	0	50	104	0	60	11955
2026-01-05 15:22:56.28	257.02	3.28	-48.5	-59.3	3.8	8.46e-01	0	50	104	0	59	12680
2026-01-05 15:22:57.26	257.13	3.32	-48.5	-59.3	3.8	8.47e-01	0	50	104	0	59	12721
2026-01-05 15:22:58.25	257.25	3.36	-48.5	-59.3	3.8	8.45e-01	0	50	104	0	59	12683
2026-01-05 15:22:59.23	257.37	3.40	-48.5	-59.3	3.8	8.46e-01	0	50	104	0	59	12695
2026-01-05 15:23:00.22	257.48	3.44	-48.5	-59.3	3.8	8.47e-01	0	50	104	0	59	12693
2026-01-05 15:23:01.20	257.60	3.47	-48.5	-59.3	3.8	8.46e-01	0	51	104	0	59	12712
2026-01-05 15:23:02.19	257.72	3.51	-48.5	-59.3	3.8	8.47e-01	0	51	104	0	59	12714
2026-01-05 15:23:03.17	257.83	3.55	-48.5	-59.3	3.8	8.46e-01	0	51	104	0	59	12705
2026-01-05 15:23:04.16	257.95	3.59	-48.6	-59.3	3.8	8.46e-01	0	51	104	0	59	12717
2026-01-05 15:23:05.14	258.07	3.62	-48.5	-59.3	3.8	8.46e-01	0	51	104	0	59	12678
2026-01-05 15:23:06.13	258.19	3.66	-48.5	-59.3	3.8	8.46e-01	0	51	104	0	59	12734
2026-01-05 15:23:07.11	258.30	3.70	-48.5	-59.3	3.8	8.48e-01	0	51	104	0	59	12691
2026-01-05 15:23:08.10	258.42	3.74	-48.5	-59.3	3.8	8.46e-01	0	51	104	0	59	12668
2026-01-05 15:23:09.09	258.54	3.78	-48.6	-59.2	3.8	8.46e-01	0	51	104	0	59	12659
2026-01-05 15:23:10.07	258.66	3.81	-48.6	-59.3	3.8	8.46e-01	0	51	104	0	59	12682
2026-01-05 15:23:11.06	258.78	3.85	-48.5	-59.3	3.8	8.48e-01	0	51	104	0	59	12694
2026-01-05 15:23:12.05	258.90	3.89	-48.6	-59.3	3.8	8.46e-01	0	51	104	0	59	12693
2026-01-05 15:23:13.04	259.02	3.93	-48.6	-59.3	3.8	8.46e-01	0	52	104	0	59	12692
2026-01-05 15:23:14.02	259.14	3.96	-48.5	-59.3	3.8	8.47e-01	0	51	104	0	59	12685
2026-01-05 15:23:15.01	259.26	4.00	-48.5	-59.3	3.8	8.46e-01	0	52	104	0	59	12694
2026-01-05 15:23:16.00	259.38	4.04	-48.5	-59.3	3.8	8.46e-01	0	52	104	0	59	12702
2026-01-05 15:23:16.99	259.50	4.08	-48.6	-59.3	3.8	8.45e-01	0	52	104	0	59	12694
2026-01-05 15:23:17.97	259.62	4.11	-48.5	-59.3	3.8	8.46e-01	0	52	104	0	59	12732
2026-01-05 15:23:18.96	259.75	4.15	-48.6	-59.3	3.8	8.47e-01	0	52	104	0	59	12688
2026-01-05 15:23:19.95	259.87	4.19	-48.5	-59.3	3.8	8.46e-01	0	52	104	0	59	12683
2026-01-05 15:23:20.94	259.99	4.22	-48.6	-59.3	3.8	8.46e-01	0	52	104	0	59	12693
2026-01-05 15:23:21.93	260.12	4.26	-48.6	-59.3	3.8	8.46e-01	0	52	104	0	59	12714
2026-01-05 15:23:22.91	260.24	4.30	-48.6	-59.3	3.8	8.46e-01	0	52	104	0	59	12720
2026-01-05 15:23:23.90	260.36	4.33	-48.6	-59.3	3.8	8.47e-01	0	52	104	0	59	12697
2026-01-05 15:23:24.89	260.49	4.37	-48.5	-59.3	3.8	8.46e-01	0	52	104	0	59	12714
2026-01-05 15:23:25.88	260.61	4.41	-48.6	-59.3	3.8	8.46e-01	0	52	104	0	59	12688
2026-01-05 15:23:26.86	260.73	4.44	-48.5	-59.3	3.8	8.46e-01	0	52	104	0	59	12680
2026-01-05 15:23:27.85	260.86	4.48	-48.5	-59.3	3.8	8.46e-01	0	52	104	0	59	12714
2026-01-05 15:23:28.84	260.98	4.52	-48.5	-59.3	3.8	8.45e-01	0	53	104	0	59	12725
2026-01-05 15:23:29.83	261.11	4.55	-48.5	-59.3	3.8	8.47e-01	0	53	104	0	59	12729
2026-01-05 15:23:30.81	261.23	4.59	-48.5	-59.3	3.8	8.47e-01	0	53	104	0	59	12720
2026-01-05 15:23:31.79	261.36	4.63	-48.5	-59.3	3.8	8.47e-01	0	53	104	0	59	12693
2026-01-05 15:23:32.78	261.48	4.66	-48.5	-59.3	3.8	8.46e-01	0	53	104	0	59	12704
2026-01-05 15:23:33.77	261.61	4.70	-48.5	-59.3	3.8	8.46e-01	0	53	104	0	59	12743
2026-01-05 15:23:34.76	261.74	4.74	-48.5	-59.3	3.8	8.46e-01	0	53	104	0	59	12706
2026-01-05 15:23:35.75	261.87	4.77	-48.5	-59.3	3.8	8.44e-01	0	53	104	0	59	12744
2026-01-05 15:23:36.74	261.99	4.81	-48.5	-59.3	3.8	8.46e-01	0	53	104	0	59	12748
2026-01-05 15:23:37.73	262.12	4.84	-48.5	-59.3	3.8	8.46e-01	0	53	104	0	59	12715
2026-01-05 15:23:38.71	262.25	4.88	-48.5	-59.3	3.8	8.46e-01	0	53	104	0	59	12727
2026-01-05 15:23:39.70	262.38	4.92	-48.5	-59.2	3.8	8.47e-01	0	53	104	0	59	12662
2026-01-05 15:23:40.68	262.50	4.95	-48.5	-59.3	3.8	8.47e-01	0	53	104	0	59	12689
2026-01-05 15:23:41.67	262.63	4.99	-48.5	-59.3	3.8	8.47e-01	0	53	104	0	59	12723
2026-01-05 15:23:42.66	262.76	5.02	-48.6	-59.3	3.8	8.47e-01	0	53	104	0	59	12708
2026-01-05 15:23:43.65	262.89	5.06	-48.6	-59.3	3.8	8.46e-01	0	53	104	0	59	12738
2026-01-05 15:23:44.63	263.02	5.09	-48.5	-59.3	3.8	8.45e-01	0	54	104	0	59	12703
2026-01-05 15:23:45.62	263.15	5.13	-48.6	-59.3	3.8	8.48e-01	0	54	104	0	59	12736
2026-01-05 15:23:46.61	263.28	5.16	-48.6	-59.3	3.8	8.47e-01	0	54	104	0	59	12728
2026-01-05 15:23:47.59	263.41	5.20	-48.6	-59.3	3.8	8.45e-01	0	54	104	0	59	12725
2026-01-05 15:23:48.58	263.54	5.23	-48.5	-59.3	3.8	8.46e-01	0	54	104	0	59	12672
2026-01-05 15:23:49.57	263.67	5.27	-48.6	-59.3	3.8	8.45e-01	0	53	104	0	59	12700
2026-01-05 15:23:50.55	263.81	5.30	-48.5	-59.3	3.8	8.46e-01	0	54	104	0	59	12674
2026-01-05 15:23:51.54	263.94	5.34	-48.6	-59.3	3.8	8.45e-01	0	54	104	0	59	12751
2026-01-05 15:23:52.53	264.07	5.38	-48.6	-59.3	3.8	8.47e-01	0	54	104	0	59	12729
2026-01-05 15:23:53.52	264.20	5.41	-48.5	-59.3	3.8	8.46e-01	0	54	104	0	59	12721
2026-01-05 15:23:54.50	264.33	5.44	-48.5	-59.3	3.8	8.47e-01	0	54	104	0	59	12719
2026-01-05 15:23:55.49	264.47	5.48	-48.6	-59.3	3.8	8.46e-01	0	54	104	0	59	12699
2026-01-05 15:23:56.48	264.60	5.51	-48.5	-59.3	3.8	8.46e-01	0	54	104	0	59	12698
2026-01-05 15:23:57.47	264.74	5.55	-48.5	-59.3	3.8	8.46e-01	0	54	104	0	59	12671
2026-01-05 15:23:58.46	264.87	5.58	-48.5	-59.3	3.8	8.46e-01	0	54	104	0	59	12712
2026-01-05 15:23:59.44	265.00	5.62	-48.5	-59.3	3.8	8.47e-01	0	54	104	0	59	12726
2026-01-05 15:24:00.42	265.14	5.65	-48.5	-59.3	3.8	8.46e-01	0	54	104	0	59	12720
2026-01-05 15:24:01.41	265.27	5.69	-48.5	-59.3	3.8	8.46e-01	0	54	104	0	59	12709
2026-01-05 15:24:02.40	265.41	5.72	-48.6	-59.3	3.8	8.46e-01	0	54	104	0	59	12723
2026-01-05 15:24:03.39	265.54	5.75	-48.6	-59.3	3.8	8.46e-01	0	54	104	0	59	12731
2026-01-05 15:24:04.38	265.68	5.79	-48.6	-59.3	3.8	8.47e-01	0	55	104	0	59	12686
2026-01-05 15:24:05.36	265.81	5.82	-48.5	-59.3	3.8	8.46e-01	0	55	104	0	59	12687
2026-01-05 15:24:06.35	265.95	5.85	-48.5	-59.3	3.8	8.46e-01	0	55	104	0	59	12737
2026-01-05 15:24:07.34	266.09	5.89	-48.6	-59.3	3.8	8.46e-01	0	55	104	0	59	12740
2026-01-05 15:24:08.32	266.22	5.92	-48.5	-59.3	3.8	8.47e-01	0	55	104	0	59	12704
2026-01-05 15:24:09.31	266.36	5.96	-48.5	-59.3	3.8	8.45e-01	0	55	104	0	59	12728
2026-01-05 15:24:10.30	266.50	5.99	-48.5	-59.3	3.8	8.45e-01	0	55	104	0	59	12731
2026-01-05 15:24:11.29	266.64	6.02	-48.5	-59.3	3.8	8.45e-01	0	55	104	0	59	12727
2026-01-05 15:24:12.28	266.78	6.06	-48.6	-59.3	3.8	8.46e-01	0	55	104	0	59	12734
2026-01-05 15:24:13.27	266.92	6.09	-48.5	-59.3	3.8	8.47e-01	0	55	104	0	59	12708
2026-01-05 15:24:14.25	267.05	6.12	-48.5	-59.3	3.8	8.46e-01	0	55	104	0	59	12727
2026-01-05 15:24:15.24	267.19	6.15	-48.5	-59.3	3.8	8.46e-01	0	55	104	0	59	12700
2026-01-05 15:24:16.23	267.33	6.19	-48.5	-59.3	3.8	8.46e-01	0	55	104	0	59	12676
2026-01-05 15:24:17.21	267.47	6.22	-48.5	-59.3	3.8	8.47e-01	0	55	104	0	59	12714
2026-01-05 15:24:18.20	267.61	6.25	-48.5	-59.3	3.8	8.47e-01	0	55	104	0	59	12738
2026-01-05 15:24:19.19	267.75	6.28	-48.5	-59.3	3.8	8.47e-01	0	55	104	0	59	12735
2026-01-05 15:24:20.18	267.89	6.32	-48.5	-59.3	3.8	8.47e-01	0	55	104	0	59	12700
2026-01-05 15:24:21.16	268.03	6.35	-48.5	-59.3	3.8	8.46e-01	0	55	104	0	59	12732
2026-01-05 15:24:22.15	268.17	6.38	-48.5	-59.3	3.8	8.45e-01	0	55	104	0	59	12727
2026-01-05 15:24:23.13	268.31	6.41	-48.5	-59.2	3.8	8.47e-01	0	55	104	0	59	12521
2026-01-05 15:24:24.12	268.46	6.44	-48.5	-59.2	3.8	8.44e-01	0	55	104	0	59	12655
2026-01-05 15:24:25.12	268.60	6.48	-48.6	-59.3	3.8	8.45e-01	0	56	104	0	59	12720
2026-01-05 15:24:26.10	268.74	6.51	-48.5	-59.3	3.8	8.46e-01	0	55	104	0	59	12678
2026-01-05 15:24:27.09	268.89	6.54	-48.5	-59.3	3.8	8.46e-01	0	56	104	0	59	12739
2026-01-05 15:24:28.07	269.03	6.57	-48.5	-59.3	3.8	8.45e-01	0	56	104	0	59	12697
2026-01-05 15:24:29.06	269.17	6.60	-48.5	-59.3	3.8	8.47e-01	0	56	104	0	59	12690
2026-01-05 15:24:30.05	269.31	6.63	-48.5	-59.3	3.8	8.45e-01	0	56	104	0	59	12686
2026-01-05 15:24:31.03	269.46	6.66	-48.5	-59.3	3.8	8.47e-01	0	56	104	0	59	12668
2026-01-05 15:24:32.02	269.60	6.70	-48.5	-59.3	3.8	8.47e-01	0	56	104	0	59	12690
2026-01-05 15:24:33.01	269.75	6.73	-48.5	-59.3	3.8	8.46e-01	0	56	104	0	59	12707
2026-01-05 15:24:34.00	269.89	6.76	-48.6	-59.3	3.8	8.46e-01	0	56	104	0	59	12704
2026-01-05 15:24:34.99	270.04	6.79	-48.6	-59.3	3.8	8.46e-01	0	56	104	0	59	12728
2026-01-05 15:24:35.97	270.18	6.82	-48.6	-59.3	3.8	8.46e-01	0	56	104	0	59	12715
2026-01-05 15:24:36.96	270.33	6.85	-48.5	-59.3	3.8	8.47e-01	0	56	104	0	59	12717
2026-01-05 15:24:37.95	270.47	6.88	-48.6	-59.3	3.8	8.46e-01	0	56	104	0	59	12673
2026-01-05 15:24:38.94	270.62	6.91	-48.6	-59.3	3.8	8.47e-01	0	56	104	0	59	12677
2026-01-05 15:24:39.93	270.77	6.94	-48.6	-59.3	3.8	8.47e-01	0	56	104	0	59	12685
2026-01-05 15:24:40.92	270.91	6.97	-48.6	-59.3	3.8	8.46e-01	0	56	104	0	59	12687
2026-01-05 15:24:41.91	271.06	7.00	-48.5	-59.3	3.8	8.46e-01	0	56	104	0	59	12673
2026-01-05 15:24:42.89	271.21	7.03	-48.5	-59.3	3.8	8.46e-01	0	56	104	0	59	12683
2026-01-05 15:24:43.88	271.36	7.06	-48.5	-59.3	3.8	8.46e-01	0	56	104	0	59	12732
2026-01-05 15:24:44.86	271.50	7.09	-48.5	-59.3	3.8	8.46e-01	0	56	104	0	59	12721
2026-01-05 15:24:45.85	271.65	7.12	-48.5	-59.3	3.8	8.45e-01	0	56	104	0	59	12709
2026-01-05 15:24:46.84	271.80	7.15	-48.5	-59.3	3.8	8.46e-01	0	56	104	0	59	12696
2026-01-05 15:24:47.83	271.95	7.18	-48.6	-59.3	3.8	8.46e-01	0	56	104	0	59	12679
2026-01-05 15:24:48.82	272.10	7.21	-48.5	-59.3	3.8	8.45e-01	0	57	104	0	59	12716
2026-01-05 15:24:49.80	272.25	7.23	-48.5	-59.3	3.8	8.45e-01	0	57	104	0	59	12708
2026-01-05 15:24:50.79	272.40	7.26	-48.5	-59.3	3.8	8.47e-01	0	57	104	0	59	12702
2026-01-05 15:24:51.78	272.55	7.29	-48.5	-59.3	3.8	8.45e-01	0	57	104	0	59	12715
2026-01-05 15:24:52.76	272.70	7.32	-48.5	-59.3	3.8	8.45e-01	0	56	104	0	59	12730
2026-01-05 15:24:53.75	272.85	7.35	-48.5	-59.3	3.8	8.48e-01	0	57	104	0	59	12713
2026-01-05 15:24:54.74	273.00	7.38	-48.5	-59.3	3.8	8.45e-01	0	57	104	0	59	12749
2026-01-05 15:24:55.73	273.15	7.40	-48.5	-59.3	3.8	8.45e-01	0	57	104	0	59	12722
2026-01-05 15:24:56.72	273.30	7.43	-48.5	-59.3	3.8	8.46e-01	0	57	104	0	59	12716
2026-01-05 15:24:57.71	273.45	7.46	-48.6	-59.3	3.8	8.46e-01	0	57	104	0	59	12730
2026-01-05 15:24:58.69	273.60	7.49	-48.5	-59.3	3.8	8.45e-01	0	57	104	0	59	12710
2026-01-05 15:24:59.68	273.76	7.52	-48.6	-59.3	3.8	8.46e-01	0	57	104	0	59	12704
2026-01-05 15:25:00.67	273.91	7.54	-48.6	-59.3	3.8	8.47e-01	0	57	104	0	59	12754
2026-01-05 15:25:01.65	274.06	7.57	-48.5	-59.3	3.8	8.46e-01	0	57	104	0	59	12739
2026-01-05 15:25:02.64	274.22	7.60	-48.5	-59.3	3.8	8.47e-01	0	57	104	0	59	12749
2026-01-05 15:25:03.63	274.37	7.62	-48.5	-59.3	3.8	8.47e-01	0	57	104	0	59	12753
2026-01-05 15:25:04.61	274.52	7.65	-48.6	-59.3	3.8	8.46e-01	0	57	104	0	59	12681
2026-01-05 15:25:05.60	274.68	7.68	-48.6	-59.2	3.8	8.46e-01	0	57	104	0	59	12652
2026-01-05 15:25:06.59	274.83	7.70	-48.5	-59.3	3.8	8.46e-01	0	57	104	0	59	12707
2026-01-05 15:25:07.57	274.98	7.73	-48.5	-59.3	3.8	8.47e-01	0	57	104	0	59	12739
2026-01-05 15:25:08.56	275.14	7.76	-48.6	-59.3	3.8	8.45e-01	0	57	104	0	59	12671
2026-01-05 15:25:09.55	275.29	7.78	-48.5	-59.3	3.8	8.46e-01	0	57	104	0	59	12706
2026-01-05 15:25:10.53	275.45	7.81	-48.5	-59.3	3.8	8.47e-01	0	57	104	0	59	12692
2026-01-05 15:25:11.52	275.60	7.83	-48.6	-59.2	3.8	8.45e-01	0	57	104	0	59	12651
2026-01-05 15:25:12.50	275.76	7.86	-48.6	-59.2	3.8	8.46e-01	0	57	104	0	59	12662
2026-01-05 15:25:13.49	275.91	7.88	-48.6	-59.2	3.8	8.46e-01	0	57	104	0	59	12601
2026-01-05 15:25:14.48	276.07	7.91	-48.6	-59.2	3.8	8.46e-01	0	57	104	0	59	12617
2026-01-05 15:25:15.46	276.23	7.93	-48.6	-59.2	3.8	8.47e-01	0	57	104	0	59	12589
2026-01-05 15:25:16.45	276.38	7.96	-48.6	-59.2	3.8	8.46e-01	0	57	104	0	59	12656
2026-01-05 15:25:17.43	276.54	7.98	-48.5	-59.3	3.8	8.46e-01	0	57	104	0	59	12674
2026-01-05 15:25:18.42	276.70	8.01	-48.6	-59.3	3.8	8.47e-01	0	57	104	0	59	12697
2026-01-05 15:25:19.41	276.85	8.03	-48.6	-59.3	3.8	8.46e-01	0	57	104	0	59	12724
2026-01-05 15:25:20.39	277.01	8.06	-48.6	-59.3	3.8	8.45e-01	0	58	104	0	59	12689
2026-01-05 15:25:21.38	277.17	8.08	-48.6	-59.3	3.8	8.46e-01	0	58	104	0	59	12689
2026-01-05 15:25:22.37	277.33	8.11	-48.6	-59.3	3.8	8.43e-01	0	58	104	0	59	12689
2026-01-05 15:25:23.36	277.49	8.13	-48.6	-59.3	3.8	8.45e-01	0	58	104	0	59	12738
2026-01-05 15:25:24.35	277.65	8.15	-48.6	-59.3	3.8	8.46e-01	0	58	104	0	59	12747
2026-01-05 15:25:25.33	277.80	8.18	-48.6	-59.3	3.8	8.45e-01	0	57	104	0	59	12707
2026-01-05 15:25:26.32	277.96	8.20	-48.5	-59.3	3.8	8.46e-01	0	58	104	0	59	12707
2026-01-05 15:25:27.31	278.12	8.22	-48.6	-59.3	3.8	8.45e-01	0	58	104	0	59	12701
2026-01-05 15:25:28.30	278.28	8.25	-48.5	-59.3	3.8	8.47e-01	0	58	104	0	59	12691
2026-01-05 15:25:29.28	278.44	8.27	-48.5	-59.3	3.8	8.47e-01	0	58	104	0	59	12738
2026-01-05 15:25:30.27	278.60	8.29	-48.6	-59.3	3.8	8.47e-01	0	58	104	0	59	12714
2026-01-05 15:25:31.26	278.76	8.31	-48.5	-59.3	3.8	8.46e-01	0	58	104	0	59	12708
2026-01-05 15:25:32.25	278.92	8.34	-48.5	-59.3	3.8	8.45e-01	0	58	104	0	59	12697
2026-01-05 15:25:33.23	279.08	8.36	-48.5	-59.3	3.8	8.46e-01	0	58	104	0	59	12769
2026-01-05 15:25:34.22	279.25	8.38	-48.6	-59.3	3.8	8.46e-01	0	58	104	0	59	12722
2026-01-05 15:25:35.21	279.41	8.40	-48.6	-59.3	3.8	8.47e-01	0	58	104	0	59	12742
2026-01-05 15:25:36.19	279.57	8.42	-48.5	-59.3	3.8	8.46e-01	0	58	104	0	59	12734
2026-01-05 15:25:37.18	279.73	8.44	-48.5	-59.3	3.8	8.46e-01	0	58	104	0	59	12721
2026-01-05 15:25:38.17	279.89	8.47	-48.6	-59.3	3.8	8.47e-01	0	58	104	0	59	12751
2026-01-05 15:25:39.16	280.05	8.49	-48.5	-59.3	3.8	8.45e-01	0	58	104	0	59	12708
2026-01-05 15:25:40.15	280.22	8.51	-48.6	-59.3	3.8	8.48e-01	0	58	104	0	59	12679
2026-01-05 15:25:41.13	280.38	8.53	-48.6	-59.3	3.8	8.46e-01	0	58	104	0	59	12701
2026-01-05 15:25:42.12	280.54	8.55	-48.6	-59.3	3.8	8.46e-01	0	58	104	0	59	12758
2026-01-05 15:25:43.10	280.70	8.57	-48.6	-59.3	3.8	8.45e-01	0	58	104	0	59	12708
2026-01-05 15:25:44.09	280.87	8.59	-48.5	-59.3	3.8	8.46e-01	0	58	104	0	59	12742
2026-01-05 15:25:45.08	281.03	8.61	-48.5	-59.3	3.8	8.46e-01	0	58	104	0	59	12723
2026-01-05 15:25:46.06	281.19	8.63	-48.6	-59.3	3.8	8.46e-01	0	58	104	0	59	12691
2026-01-05 15:25:47.05	281.36	8.65	-48.6	-59.3	3.8	8.46e-01	0	58	104	0	59	12708
2026-01-05 15:25:48.03	281.52	8.67	-48.6	-59.3	3.8	8.46e-01	0	58	104	0	59	12706
2026-01-05 15:25:49.02	281.69	8.69	-48.6	-59.3	3.8	8.47e-01	0	58	104	0	59	12699
2026-01-05 15:25:50.01	281.85	8.71	-48.6	-59.3	3.8	8.45e-01	0	58	104	0	59	12735
2026-01-05 15:25:50.99	282.02	8.72	-48.6	-59.3	3.8	8.46e-01	0	58	104	0	59	12696
2026-01-05 15:25:51.98	282.18	8.74	-48.6	-59.3	3.8	8.46e-01	0	59	104	0	59	12703
2026-01-05 15:25:52.97	282.35	8.76	-48.6	-59.3	3.8	8.45e-01	0	59	104	0	59	12701
2026-01-05 15:25:53.96	282.51	8.78	-48.5	-59.3	3.8	8.47e-01	0	59	104	0	59	12672
2026-01-05 15:25:54.95	282.68	8.80	-48.5	-59.3	3.8	8.47e-01	0	59	104	0	59	12672
2026-01-05 15:25:55.93	282.84	8.82	-48.5	-59.3	3.8	8.45e-01	0	58	104	0	59	12695
2026-01-05 15:25:56.91	283.01	8.83	-48.5	-59.2	3.8	8.46e-01	0	58	104	0	59	12634
2026-01-05 15:25:57.90	283.17	8.85	-48.5	-59.3	3.8	8.47e-01	0	59	104	0	59	12680
2026-01-05 15:25:58.89	283.34	8.87	-48.6	-59.3	3.8	8.47e-01	0	59	104	0	59	12678
2026-01-05 15:25:59.87	283.51	8.89	-48.6	-59.3	3.8	8.46e-01	0	58	104	0	59	12735
2026-01-05 15:26:00.86	283.67	8.90	-48.6	-59.3	3.8	8.46e-01	0	58	104	0	59	12706
2026-01-05 15:26:01.84	283.84	8.92	-48.6	-59.3	3.8	8.46e-01	0	59	104	0	59	12740
2026-01-05 15:26:02.83	284.01	8.94	-48.6	-59.3	3.8	8.45e-01	0	59	104	0	59	12703
2026-01-05 15:26:03.82	284.17	8.95	-48.6	-59.3	3.8	8.46e-01	0	59	104	0	59	12728
2026-01-05 15:26:04.81	284.34	8.97	-48.6	-59.3	3.8	8.46e-01	0	59	104	0	59	12755
2026-01-05 15:26:05.79	284.51	8.98	-48.6	-59.3	3.8	8.46e-01	0	59	104	0	59	12767
2026-01-05 15:26:06.79	284.68	9.00	-48.6	-59.3	3.8	8.45e-01	0	59	104	0	59	12736
2026-01-05 15:26:07.77	284.85	9.01	-48.6	-59.3	3.8	8.47e-01	0	59	104	0	59	12721
2026-01-05 15:26:08.76	285.01	9.03	-48.6	-59.3	3.8	8.45e-01	0	59	104	0	59	12729
2026-01-05 15:26:09.75	285.18	9.05	-48.6	-59.3	3.8	8.46e-01	0	59	104	0	59	12770
2026-01-05 15:26:10.74	285.35	9.06	-48.6	-59.3	3.8	8.47e-01	0	59	104	0	59	12761
2026-01-05 15:26:11.73	285.52	9.07	-48.6	-59.3	3.8	8.48e-01	0	59	104	0	59	12707
2026-01-05 15:26:12.71	285.69	9.09	-48.6	-59.3	3.8	8.46e-01	0	59	104	0	59	12738
2026-01-05 15:26:13.70	285.86	9.10	-48.6	-59.3	3.8	8.45e-01	0	59	104	0	59	12715
2026-01-05 15:26:14.69	286.03	9.12	-48.6	-59.3	3.8	8.47e-01	0	59	104	0	59	12742
2026-01-05 15:26:15.67	286.20	9.13	-48.6	-59.3	3.8	8.46e-01	0	59	104	0	59	12666
2026-01-05 15:26:16.66	286.37	9.15	-48.6	-59.3	3.8	8.45e-01	0	59	104	0	59	12676
2026-01-05 15:26:17.65	286.54	9.16	-48.6	-59.3	3.8	8.46e-01	0	59	104	0	59	12791
2026-01-05 15:26:18.64	286.71	9.17	-48.6	-59.3	3.8	8.47e-01	0	59	104	0	59	12728
2026-01-05 15:26:19.63	286.88	9.18	-48.6	-59.3	3.8	8.45e-01	0	59	104	0	59	12693
2026-01-05 15:26:20.61	287.04	9.20	-48.6	-59.3	3.8	8.45e-01	0	59	104	0	59	12732
2026-01-05 15:26:21.60	287.22	9.21	-48.6	-59.3	3.8	8.46e-01	0	59	104	0	59	12723
2026-01-05 15:26:22.58	287.38	9.22	-48.6	-59.3	3.8	8.47e-01	0	59	104	0	59	12759
2026-01-05 15:26:23.57	287.56	9.23	-48.6	-59.3	3.8	8.46e-01	0	59	104	0	59	12732
2026-01-05 15:26:24.56	287.73	9.25	-48.6	-59.3	3.8	8.46e-01	0	59	104	0	59	12715
2026-01-05 15:26:25.55	287.90	9.26	-48.6	-59.3	3.8	8.46e-01	0	59	104	0	59	12692
2026-01-05 15:26:26.53	288.07	9.27	-48.6	-59.3	3.8	8.48e-01	0	59	104	0	59	12688
2026-01-05 15:26:27.52	288.24	9.28	-48.6	-59.3	3.8	8.46e-01	0	59	104	0	59	12731
2026-01-05 15:26:28.51	288.41	9.29	-48.6	-59.2	3.8	8.45e-01	0	59	104	0	59	12651
2026-01-05 15:26:29.49	288.58	9.30	-48.6	-59.3	3.8	8.46e-01	0	59	104	0	59	12699
2026-01-05 15:26:30.48	288.75	9.31	-48.6	-59.3	3.8	8.46e-01	0	59	104	0	59	12692
2026-01-05 15:26:31.46	288.92	9.32	-48.6	-59.3	3.8	8.45e-01	0	59	104	0	59	12759
2026-01-05 15:26:32.45	289.09	9.33	-48.6	-59.3	3.8	8.46e-01	0	59	104	0	59	12716
2026-01-05 15:26:33.44	289.27	9.34	-48.6	-59.3	3.8	8.46e-01	0	59	104	0	59	12716
2026-01-05 15:26:34.43	289.44	9.35	-48.6	-59.3	3.8	8.45e-01	0	59	104	0	59	12733
2026-01-05 15:26:35.41	289.61	9.36	-48.6	-59.3	3.8	8.47e-01	0	59	104	0	59	12721
2026-01-05 15:26:36.40	289.78	9.37	-48.6	-59.3	3.8	8.46e-01	0	59	104	0	59	12773
2026-01-05 15:26:37.39	289.95	9.38	-48.6	-59.3	3.8	8.47e-01	0	59	104	0	59	12686
2026-01-05 15:26:38.37	290.12	9.39	-48.6	-59.3	3.8	8.45e-01	0	59	104	0	59	12712
2026-01-05 15:26:39.36	290.30	9.40	-48.6	-59.3	3.8	8.45e-01	0	59	104	0	59	12777
2026-01-05 15:26:40.35	290.47	9.41	-48.6	-59.3	3.8	8.45e-01	0	59	104	0	59	12764
2026-01-05 15:26:41.33	290.64	9.42	-48.6	-59.3	3.8	8.46e-01	0	59	104	0	59	12733
2026-01-05 15:26:42.32	290.81	9.42	-48.6	-59.3	3.8	8.46e-01	0	59	104	0	59	12766
2026-01-05 15:26:43.31	290.99	9.43	-48.6	-59.3	3.8	8.46e-01	0	59	104	0	59	12713
2026-01-05 15:26:44.30	291.16	9.44	-48.6	-59.3	3.8	8.46e-01	0	59	104	0	59	12731
2026-01-05 15:26:45.29	291.33	9.45	-48.6	-59.3	3.8	8.46e-01	0	59	104	0	59	12777
2026-01-05 15:26:46.28	291.51	9.45	-48.6	-59.3	3.8	8.45e-01	0	59	104	0	59	12729
2026-01-05 15:26:47.27	291.68	9.46	-48.6	-59.3	3.8	8.46e-01	0	59	104	0	59	12731
2026-01-05 15:26:48.25	291.85	9.47	-48.6	-59.3	3.8	8.47e-01	0	59	104	0	59	12760
2026-01-05 15:26:49.24	292.03	9.47	-48.6	-59.3	3.8	8.46e-01	0	60	104	0	59	12741
2026-01-05 15:26:50.22	292.20	9.48	-48.6	-59.3	3.8	8.46e-01	0	60	104	0	59	12799
2026-01-05 15:26:51.21	292.37	9.49	-48.6	-59.3	3.8	8.46e-01	0	60	104	0	59	12786
2026-01-05 15:26:52.20	292.55	9.49	-48.6	-59.3	3.8	8.47e-01	0	60	104	0	59	12727
2026-01-05 15:26:53.19	292.72	9.50	-48.6	-59.3	3.8	8.46e-01	0	60	104	0	59	12727
2026-01-05 15:26:54.18	292.89	9.50	-48.6	-59.3	3.8	8.47e-01	0	59	104	0	59	12756
2026-01-05 15:26:55.16	293.07	9.51	-48.6	-59.3	3.8	8.46e-01	0	60	104	0	59	12737
2026-01-05 15:26:56.14	293.24	9.51	-48.6	-59.3	3.8	8.46e-01	0	60	104	0	59	12741
2026-01-05 15:26:57.13	293.41	9.52	-48.6	-59.3	3.8	8.46e-01	0	60	104	0	59	12782
2026-01-05 15:26:58.12	293.59	9.52	-48.6	-59.3	3.8	8.46e-01	0	60	104	0	59	12754
2026-01-05 15:26:59.10	293.76	9.53	-48.6	-59.3	3.8	8.46e-01	0	60	104	0	59	12755
2026-01-05 15:27:00.09	293.93	9.53	-48.6	-59.3	3.8	8.46e-01	0	60	104	0	59	12739
2026-01-05 15:27:01.08	294.11	9.53	-48.6	-59.3	3.8	8.46e-01	0	60	104	0	59	12754
2026-01-05 15:27:02.07	294.28	9.54	-48.6	-59.3	3.8	8.46e-01	0	60	104	0	59	12725
2026-01-05 15:27:03.06	294.46	9.54	-48.6	-59.3	3.8	8.46e-01	0	60	104	0	59	12756
2026-01-05 15:27:04.04	294.63	9.54	-48.6	-59.3	3.8	8.47e-01	0	60	104	0	59	12796
2026-01-05 15:27:05.03	294.80	9.55	-48.6	-59.3	3.8	8.46e-01	0	60	104	0	59	12778
2026-01-05 15:27:06.02	294.98	9.55	-48.6	-59.3	3.8	8.46e-01	0	60	104	0	59	12738
2026-01-05 15:27:07.01	295.15	9.55	-48.6	-59.3	3.8	8.46e-01	0	60	104	0	59	12767
2026-01-05 15:27:08.00	295.33	9.55	-48.6	-59.4	3.8	8.46e-01	0	60	104	0	59	12813
2026-01-05 15:27:08.99	295.50	9.56	-48.6	-59.3	3.8	8.47e-01	0	60	104	0	59	12801
2026-01-05 15:27:09.97	295.67	9.56	-48.6	-59.4	3.8	8.46e-01	0	60	104	0	59	12813
2026-01-05 15:27:10.96	295.85	9.56	-48.6	-59.3	3.8	8.47e-01	0	60	104	0	59	12785
2026-01-05 15:27:11.95	296.02	9.56	-48.6	-59.3	3.8	8.46e-01	0	60	104	0	59	12745
2026-01-05 15:27:12.94	296.20	9.56	-48.6	-59.4	3.8	8.46e-01	0	60	104	0	59	12815
2026-01-05 15:27:13.93	296.37	9.56	-48.6	-59.3	3.8	8.46e-01	0	60	104	0	59	12733
2026-01-05 15:27:14.92	296.55	9.56	-48.6	-59.3	3.8	8.47e-01	0	60	104	0	59	12781
2026-01-05 15:27:15.91	296.72	9.56	-48.6	-59.3	3.8	8.46e-01	0	60	104	0	59	12774
2026-01-05 15:27:16.89	296.89	9.56	-48.6	-59.3	3.8	8.47e-01	0	60	104	0	59	12786
2026-01-05 15:27:17.88	297.07	9.56	-48.6	-59.3	3.8	8.48e-01	0	60	104	0	59	12733
2026-01-05 15:27:18.87	297.24	9.56	-48.6	-59.4	3.8	8.45e-01	0	60	104	0	59	12820
2026-01-05 15:27:19.85	297.42	9.56	-48.6	-59.3	3.8	8.46e-01	0	60	104	0	59	12750
2026-01-05 15:27:20.84	297.59	9.56	-48.6	-59.3	3.8	8.46e-01	0	60	104	0	59	12749
2026-01-05 15:27:21.83	297.77	9.56	-48.6	-59.3	3.8	8.46e-01	0	60	104	0	59	12781
2026-01-05 15:27:22.81	297.94	9.56	-48.6	-59.3	3.8	8.46e-01	0	60	104	0	59	12779
2026-01-05 15:27:23.80	298.11	9.56	-48.6	-59.3	3.8	8.46e-01	0	60	104	0	59	12768
2026-01-05 15:27:24.79	298.29	9.55	-48.6	-59.3	3.8	8.46e-01	0	60	104	0	59	12771
2026-01-05 15:27:25.77	298.46	9.55	-48.6	-59.3	3.8	8.47e-01	0	60	104	0	59	12745
2026-01-05 15:27:26.76	298.63	9.55	-48.6	-59.3	3.8	8.45e-01	0	60	104	0	59	12754
2026-01-05 15:27:27.74	298.81	9.55	-48.6	-59.3	3.8	8.45e-01	0	60	104	0	59	12755
2026-01-05 15:27:28.73	298.98	9.54	-48.6	-59.3	3.8	8.45e-01	0	60	104	0	59	12778
2026-01-05 15:27:29.72	299.16	9.54	-48.6	-59.3	3.8	8.45e-01	0	60	104	0	59	12783
2026-01-05 15:27:30.70	299.33	9.54	-48.6	-59.3	3.8	8.46e-01	0	60	104	0	59	12790
2026-01-05 15:27:31.69	299.50	9.54	-48.6	-59.3	3.8	8.46e-01	0	60	104	0	59	12763
2026-01-05 15:27:32.68	299.68	9.53	-48.6	-59.3	3.8	8.46e-01	0	60	104	0	59	12788
2026-01-05 15:27:33.67	299.85	9.53	-48.6	-59.3	3.8	8.46e-01	0	60	104	0	59	12702
2026-01-05 15:27:34.66	300.03	9.52	-48.6	-59.3	3.8	8.47e-01	0	60	104	0	59	12734
2026-01-05 15:27:35.65	300.20	9.52	-48.6	-59.3	3.8	8.46e-01	0	60	104	0	59	12809
2026-01-05 15:27:36.64	300.37	9.51	-48.6	-59.3	3.8	8.46e-01	0	60	104	0	59	12728
2026-01-05 15:27:37.62	300.55	9.51	-48.6	-59.3	3.8	8.44e-01	0	60	104	0	59	12792
2026-01-05 15:27:38.61	300.72	9.51	-48.6	-59.3	3.8	8.46e-01	0	61	104	0	59	12727
2026-01-05 15:27:39.60	300.89	9.50	-48.6	-59.4	3.8	8.46e-01	0	60	104	0	59	12827
2026-01-05 15:27:40.59	301.07	9.49	-48.6	-59.3	3.8	8.47e-01	0	60	104	0	59	12766
2026-01-05 15:27:41.57	301.24	9.49	-48.6	-59.3	3.8	8.46e-01	0	60	104	0	59	12751
2026-01-05 15:27:42.56	301.41	9.48	-48.6	-59.3	3.8	8.45e-01	0	61	104	0	59	12808
2026-01-05 15:27:43.54	301.58	9.48	-48.6	-59.3	3.8	8.47e-01	0	61	104	0	59	12809
2026-01-05 15:27:44.53	301.76	9.47	-48.6	-59.3	3.8	8.46e-01	0	60	104	0	59	12763
2026-01-05 15:27:45.52	301.93	9.46	-48.6	-59.3	3.8	8.45e-01	0	60	104	0	59	12796
2026-01-05 15:27:46.51	302.10	9.46	-48.6	-59.3	3.8	8.47e-01	0	61	104	0	59	12784
2026-01-05 15:27:47.50	302.28	9.45	-48.6	-59.3	3.8	8.46e-01	0	60	104	0	59	12758
2026-01-05 15:27:48.48	302.45	9.44	-48.6	-59.3	3.8	8.46e-01	0	60	104	0	59	12800
2026-01-05 15:27:49.47	302.62	9.44	-48.6	-59.4	3.8	8.46e-01	0	60	104	0	59	12813
2026-01-05 15:27:50.46	302.80	9.43	-48.6	-59.3	3.8	8.45e-01	0	61	104	0	59	12789
2026-01-05 15:27:51.45	302.97	9.42	-48.6	-59.3	3.8	8.47e-01	0	61	104	0	59	12792
2026-01-05 15:27:52.44	303.14	9.41	-48.6	-59.3	3.8	8.46e-01	0	60	104	0	59	12755
2026-01-05 15:27:53.42	303.31	9.40	-48.6	-59.4	3.8	8.46e-01	0	61	104	0	59	12829
2026-01-05 15:27:54.41	303.49	9.39	-48.6	-59.3	3.8	8.45e-01	0	60	104	0	59	12747
2026-01-05 15:27:55.40	303.66	9.39	-48.6	-59.3	3.8	8.46e-01	0	60	104	0	59	12782
2026-01-05 15:27:56.39	303.83	9.38	-48.6	-59.3	3.8	8.47e-01	0	61	104	0	59	12760
2026-01-05 15:27:57.38	304.00	9.37	-48.6	-59.3	3.8	8.46e-01	0	61	104	0	59	12799
2026-01-05 15:27:58.37	304.17	9.36	-48.6	-59.3	3.8	8.46e-01	0	61	104	0	59	12807
2026-01-05 15:27:59.36	304.35	9.35	-48.6	-59.3	3.8	8.46e-01	0	61	104	0	59	12787
2026-01-05 15:28:00.35	304.52	9.34	-48.6	-59.3	3.8	8.47e-01	0	61	104	0	59	12754
2026-01-05 15:28:01.33	304.69	9.33	-48.6	-59.3	3.8	8.47e-01	0	61	104	0	59	12787
2026-01-05 15:28:02.31	304.86	9.32	-48.6	-59.3	3.8	8.45e-01	0	61	104	0	59	12799
2026-01-05 15:28:03.30	305.03	9.31	-48.6	-59.3	3.8	8.45e-01	0	61	104	0	59	12806
2026-01-05 15:28:04.29	305.20	9.30	-48.6	-59.3	3.8	8.46e-01	0	61	104	0	59	12765
2026-01-05 15:28:05.27	305.37	9.29	-48.6	-59.3	3.8	8.46e-01	0	61	104	0	59	12760
2026-01-05 15:28:06.26	305.54	9.27	-48.6	-59.3	3.8	8.46e-01	0	61	104	0	59	12760
2026-01-05 15:28:07.25	305.71	9.26	-48.6	-59.3	3.8	8.45e-01	0	61	104	0	59	12776
2026-01-05 15:28:08.23	305.88	9.25	-48.6	-59.3	3.8	8.46e-01	0	61	104	0	59	12809
2026-01-05 15:28:09.22	306.05	9.24	-48.6	-59.3	3.8	8.46e-01	0	61	104	0	59	12793
2026-01-05 15:28:10.21	306.22	9.23	-48.6	-59.3	3.8	8.45e-01	0	61	104	0	59	12776
2026-01-05 15:28:11.20	306.40	9.22	-48.6	-59.3	3.8	8.47e-01	0	61	104	0	59	12762
2026-01-05 15:28:12.19	306.57	9.20	-48.6	-59.3	3.8	8.45e-01	0	61	104	0	59	12806
2026-01-05 15:28:13.17	306.73	9.19	-48.6	-59.3	3.8	8.45e-01	0	61	104	0	59	12803
2026-01-05 15:28:14.16	306.90	9.18	-48.6	-59.3	3.8	8.47e-01	0	61	104	0	59	12784
2026-01-05 15:28:15.14	307.07	9.16	-48.6	-59.3	3.8	8.47e-01	0	61	104	0	59	12805
2026-01-05 15:28:16.14	307.24	9.15	-48.6	-59.3	3.8	8.46e-01	0	61	104	0	59	12810
2026-01-05 15:28:17.12	307.41	9.14	-48.6	-59.3	3.8	8.46e-01	0	61	104	0	59	12806
2026-01-05 15:28:18.11	307.58	9.12	-48.6	-59.3	3.8	8.46e-01	0	61	104	0	59	12789
2026-01-05 15:28:19.10	307.75	9.11	-48.6	-59.3	3.8	8.47e-01	0	61	104	0	59	12776
2026-01-05 15:28:20.09	307.92	9.10	-48.6	-59.3	3.8	8.47e-01	0	61	104	0	59	12721
2026-01-05 15:28:21.08	308.09	9.08	-48.6	-59.4	3.8	8.46e-01	0	61	104	0	59	12821
2026-01-05 15:28:22.06	308.26	9.07	-48.6	-59.3	3.8	8.46e-01	0	61	104	0	59	12746
2026-01-05 15:28:23.05	308.43	9.05	-48.6	-59.3	3.8	8.45e-01	0	61	104	0	59	12783
2026-01-05 15:28:24.04	308.59	9.04	-48.6	-59.3	3.8	8.45e-01	0	61	104	0	59	12751
2026-01-05 15:28:25.02	308.76	9.02	-48.6	-59.3	3.8	8.46e-01	0	61	104	0	59	12780
2026-01-05 15:28:26.01	308.93	9.01	-48.6	-59.3	3.8	8.47e-01	0	61	104	0	59	12805
2026-01-05 15:28:27.00	309.10	8.99	-48.6	-59.3	3.8	8.46e-01	0	61	104	0	59	12796
2026-01-05 15:28:27.99	309.27	8.98	-48.6	-59.3	3.8	8.47e-01	0	61	104	0	59	12775
2026-01-05 15:28:28.97	309.43	8.96	-48.6	-59.3	3.8	8.46e-01	0	61	104	0	59	12795
2026-01-05 15:28:29.96	309.60	8.94	-48.6	-59.3	3.8	8.47e-01	0	61	104	0	59	12789
2026-01-05 15:28:30.95	309.77	8.93	-48.6	-59.3	3.8	8.47e-01	0	61	104	0	59	12782
2026-01-05 15:28:31.94	309.93	8.91	-48.6	-59.3	3.8	8.46e-01	0	61	104	0	59	12771
2026-01-05 15:28:32.93	310.10	8.89	-48.6	-59.3	3.8	8.47e-01	0	61	104	0	59	12801
2026-01-05 15:28:33.91	310.27	8.88	-48.6	-59.4	3.8	8.46e-01	0	61	104	0	59	12823
2026-01-05 15:28:34.90	310.43	8.86	-48.6	-59.4	3.8	8.47e-01	0	61	104	0	59	12823
2026-01-05 15:28:35.89	310.60	8.84	-48.6	-59.3	3.8	8.46e-01	0	61	104	0	59	12758
2026-01-05 15:28:36.88	310.76	8.82	-48.6	-59.3	3.8	8.47e-01	0	61	104	0	59	12794
2026-01-05 15:28:37.87	310.93	8.81	-48.6	-59.4	3.8	8.46e-01	0	61	104	0	59	12832
2026-01-05 15:28:38.85	311.09	8.79	-48.6	-59.4	3.8	8.46e-01	0	61	104	0	59	12826
2026-01-05 15:28:39.84	311.26	8.77	-48.6	-59.4	3.8	8.45e-01	0	61	104	0	59	12823
2026-01-05 15:28:40.82	311.42	8.75	-48.6	-59.3	3.8	8.47e-01	0	61	104	0	59	12787
2026-01-05 15:28:41.80	311.59	8.73	-48.6	-59.3	3.8	8.46e-01	0	61	104	0	59	12767
2026-01-05 15:28:42.79	311.75	8.72	-48.6	-59.3	3.8	8.47e-01	0	61	104	0	59	12789
2026-01-05 15:28:43.77	311.92	8.70	-48.6	-59.3	3.8	8.46e-01	0	61	104	0	59	12776
2026-01-05 15:28:44.76	312.08	8.68	-48.6	-59.3	3.8	8.45e-01	0	61	104	0	59	12778
2026-01-05 15:28:45.75	312.24	8.66	-48.6	-59.4	3.8	8.46e-01	0	61	104	0	59	12811
2026-01-05 15:28:46.73	312.41	8.64	-48.6	-59.4	3.8	8.46e-01	0	61	104	0	59	12821
2026-01-05 15:28:47.72	312.57	8.62	-48.6	-59.3	3.8	8.47e-01	0	61	104	0	59	12801
2026-01-05 15:28:48.70	312.73	8.60	-48.6	-59.3	3.8	8.46e-01	0	61	104	0	59	12805
2026-01-05 15:28:49.69	312.90	8.58	-48.6	-59.3	3.8	8.46e-01	0	61	104	0	59	12775
2026-01-05 15:28:50.68	313.06	8.56	-48.6	-59.3	3.8	8.46e-01	0	61	104	0	59	12765
2026-01-05 15:28:51.66	313.22	8.54	-48.6	-59.4	3.8	8.46e-01	0	61	104	0	59	12838
2026-01-05 15:28:52.65	313.38	8.52	-48.6	-59.3	3.8	8.46e-01	0	61	104	0	59	12797
2026-01-05 15:28:53.64	313.55	8.50	-48.6	-59.3	3.8	8.47e-01	0	61	104	0	59	12796
2026-01-05 15:28:54.62	313.71	8.48	-48.6	-59.3	3.8	8.47e-01	0	61	104	0	59	12787
2026-01-05 15:28:55.61	313.87	8.46	-48.6	-59.3	3.8	8.48e-01	0	61	104	0	59	12804
2026-01-05 15:28:56.60	314.03	8.44	-48.6	-59.3	3.8	8.47e-01	0	61	104	0	59	12799
2026-01-05 15:28:57.58	314.19	8.41	-48.6	-59.3	3.8	8.46e-01	0	61	104	0	59	12774
2026-01-05 15:28:58.57	314.35	8.39	-48.6	-59.3	3.8	8.46e-01	0	61	104	0	59	12780
2026-01-05 15:28:59.55	314.51	8.37	-48.6	-59.4	3.8	8.47e-01	0	61	104	0	59	12823
2026-01-05 15:29:00.54	314.67	8.35	-48.6	-59.3	3.8	8.46e-01	0	61	104	0	59	12792
2026-01-05 15:29:01.53	314.83	8.33	-48.6	-59.3	3.8	8.45e-01	0	61	104	0	59	12810
2026-01-05 15:29:02.52	315.00	8.30	-48.6	-59.3	3.8	8.45e-01	0	62	104	0	59	12759
2026-01-05 15:29:03.50	315.15	8.28	-48.6	-59.3	3.8	8.46e-01	0	61	104	0	59	12800
2026-01-05 15:29:04.49	315.31	8.26	-48.6	-59.3	3.8	8.46e-01	0	61	104	0	59	12770
2026-01-05 15:29:05.48	315.47	8.24	-48.6	-59.3	3.8	8.47e-01	0	61	104	0	59	12769
2026-01-05 15:29:06.47	315.63	8.21	-48.6	-59.3	3.8	8.46e-01	0	61	104	0	59	12764
2026-01-05 15:29:07.46	315.79	8.19	-48.6	-59.3	3.8	8.47e-01	0	61	104	0	59	12806
2026-01-05 15:29:08.44	315.95	8.17	-48.6	-59.3	3.8	8.48e-01	0	61	104	0	59	12789
2026-01-05 15:29:09.43	316.11	8.14	-48.6	-59.3	3.8	8.46e-01	0	62	104	0	59	12738
2026-01-05 15:29:10.42	316.27	8.12	-48.6	-59.3	3.8	8.46e-01	0	61	104	0	59	12763
2026-01-05 15:29:11.40	316.42	8.10	-48.6	-59.3	3.8	8.47e-01	0	62	104	0	59	12742
2026-01-05 15:29:12.39	316.58	8.07	-48.6	-59.4	3.8	8.47e-01	0	61	104	0	59	12838
2026-01-05 15:29:13.37	316.74	8.05	-48.6	-59.3	3.8	8.46e-01	0	61	104	0	59	12771
2026-01-05 15:29:14.36	316.90	8.02	-48.6	-59.3	3.8	8.46e-01	0	61	104	0	59	12773
2026-01-05 15:29:15.35	317.05	8.00	-48.6	-59.3	3.8	8.47e-01	0	61	104	0	59	12749
2026-01-05 15:29:16.34	317.21	7.98	-48.6	-59.3	3.8	8.45e-01	0	61	104	0	59	12792
2026-01-05 15:29:17.33	317.37	7.95	-48.6	-59.3	3.8	8.46e-01	0	61	104	0	59	12774
2026-01-05 15:29:18.32	317.52	7.93	-48.6	-59.3	3.8	8.46e-01	0	61	104	0	59	12766
2026-01-05 15:29:19.31	317.68	7.90	-48.6	-59.3	3.8	8.47e-01	0	61	104	0	59	12788
2026-01-05 15:29:20.29	317.83	7.88	-48.6	-59.4	3.8	8.46e-01	0	61	104	0	59	12813
2026-01-05 15:29:21.28	317.99	7.85	-48.6	-59.4	3.8	8.45e-01	0	61	104	0	59	12825
2026-01-05 15:29:22.26	318.14	7.82	-48.6	-59.3	3.8	8.46e-01	0	62	104	0	59	12769
2026-01-05 15:29:23.25	318.30	7.80	-48.6	-59.3	3.8	8.46e-01	0	61	104	0	59	12800
2026-01-05 15:29:24.24	318.45	7.77	-48.6	-59.3	3.8	8.45e-01	0	61	104	0	59	12787
2026-01-05 15:29:25.23	318.61	7.75	-48.6	-59.3	3.8	8.45e-01	0	61	104	0	59	12799
2026-01-05 15:29:26.22	318.76	7.72	-48.6	-59.4	3.8	8.46e-01	0	61	104	0	59	12819
2026-01-05 15:29:27.21	318.92	7.69	-48.6	-59.3	3.8	8.46e-01	0	62	104	0	59	12788
2026-01-05 15:29:28.19	319.07	7.67	-48.6	-59.3	3.8	8.46e-01	0	62	104	0	59	12758
2026-01-05 15:29:29.18	319.22	7.64	-48.6	-59.3	3.8	8.47e-01	0	62	104	0	59	12769
2026-01-05 15:29:30.16	319.38	7.62	-48.6	-59.4	3.8	8.46e-01	0	62	104	0	59	12811
2026-01-05 15:29:31.15	319.53	7.59	-48.6	-59.3	3.8	8.47e-01	0	61	104	0	59	12788
2026-01-05 15:29:32.13	319.68	7.56	-48.6	-59.3	3.8	8.47e-01	0	61	104	0	59	12797
2026-01-05 15:29:33.12	319.83	7.53	-48.6	-59.3	3.8	8.46e-01	0	62	104	0	59	12766
2026-01-05 15:29:34.12	319.99	7.51	-48.6	-59.3	3.8	8.46e-01	0	61	104	0	59	12701
2026-01-05 15:29:35.10	320.14	7.48	-48.6	-59.2	3.8	8.45e-01	0	62	104	0	59	12664
2026-01-05 15:29:36.09	320.29	7.45	-48.6	-59.3	3.8	8.47e-01	0	62	104	0	59	12679
2026-01-05 15:29:37.08	320.44	7.42	-48.6	-59.3	3.8	8.46e-01	0	62	104	0	59	12723
2026-01-05 15:29:38.07	320.59	7.40	-48.6	-59.3	3.8	8.46e-01	0	62	104	0	59	12734
2026-01-05 15:29:39.06	320.74	7.37	-48.6	-59.3	3.8	8.46e-01	0	62	104	0	59	12740
2026-01-05 15:29:40.04	320.89	7.34	-48.6	-59.3	3.8	8.46e-01	0	62	104	0	59	12770
2026-01-05 15:29:41.03	321.04	7.31	-48.6	-59.4	3.8	8.45e-01	0	61	104	0	59	12811
2026-01-05 15:29:42.02	321.19	7.28	-48.6	-59.3	3.8	8.47e-01	0	62	104	0	59	12762
2026-01-05 15:29:43.00	321.34	7.26	-48.6	-59.3	3.8	8.45e-01	0	62	104	0	59	12783
2026-01-05 15:29:43.99	321.49	7.23	-48.6	-59.3	3.8	8.46e-01	0	62	104	0	59	12803
2026-01-05 15:29:44.98	321.64	7.20	-48.6	-59.4	3.8	8.47e-01	0	62	104	0	59	12812
2026-01-05 15:29:45.97	321.79	7.17	-48.6	-59.3	3.8	8.46e-01	0	62	104	0	59	12809
2026-01-05 15:29:46.95	321.93	7.14	-48.6	-59.4	3.8	8.46e-01	0	62	104	0	59	12811
2026-01-05 15:29:47.94	322.08	7.11	-48.6	-59.3	3.8	8.46e-01	0	62	104	0	59	12793
2026-01-05 15:29:48.93	322.23	7.08	-48.6	-59.3	3.8	8.46e-01	0	62	104	0	59	12754
2026-01-05 15:29:49.91	322.38	7.05	-48.6	-59.3	3.8	8.45e-01	0	62	104	0	59	12744
2026-01-05 15:29:50.90	322.52	7.02	-48.6	-59.3	3.8	8.46e-01	0	62	104	0	59	12783
2026-01-05 15:29:51.89	322.67	6.99	-48.6	-59.3	3.8	8.46e-01	0	62	104	0	59	12767
2026-01-05 15:29:52.88	322.82	6.96	-48.6	-59.3	3.8	8.45e-01	0	62	104	0	59	12788
2026-01-05 15:29:53.87	322.97	6.93	-48.6	-59.3	3.8	8.47e-01	0	62	104	0	59	12789
2026-01-05 15:29:54.85	323.11	6.90	-48.6	-59.3	3.8	8.46e-01	0	62	104	0	59	12765
2026-01-05 15:29:55.84	323.26	6.87	-48.6	-59.3	3.8	8.47e-01	0	62	104	0	59	12785
2026-01-05 15:29:56.82	323.40	6.84	-48.6	-59.3	3.8	8.46e-01	0	62	104	0	59	12761
2026-01-05 15:29:57.82	323.55	6.81	-48.6	-59.3	3.8	8.46e-01	0	62	104	0	59	12762
2026-01-05 15:29:58.80	323.69	6.78	-48.6	-59.3	3.8	8.46e-01	0	62	104	0	59	12798
2026-01-05 15:29:59.79	323.84	6.75	-48.6	-59.3	3.8	8.46e-01	0	62	104	0	59	12796
2026-01-05 15:30:00.78	323.98	6.72	-48.6	-59.4	3.8	8.47e-01	0	62	104	0	59	12841
2026-01-05 15:30:01.77	324.12	6.69	-48.6	-59.4	3.8	8.48e-01	0	62	104	0	59	12812
2026-01-05 15:30:02.75	324.27	6.66	-48.6	-59.3	3.8	8.47e-01	0	62	104	0	59	12810
2026-01-05 15:30:03.74	324.41	6.63	-48.6	-59.4	3.8	8.47e-01	0	62	104	0	59	12828
2026-01-05 15:30:04.73	324.55	6.60	-48.6	-59.4	3.8	8.48e-01	0	62	104	0	59	12817
2026-01-05 15:30:05.72	324.70	6.57	-48.6	-59.3	3.8	8.46e-01	0	62	104	0	59	12799
2026-01-05 15:30:06.71	324.84	6.53	-48.6	-59.4	3.8	8.45e-01	0	62	104	0	59	12813
2026-01-05 15:30:07.69	324.98	6.50	-48.6	-59.3	3.8	8.47e-01	0	62	104	0	59	12800
2026-01-05 15:30:08.68	325.12	6.47	-48.6	-59.3	3.8	8.46e-01	0	62	104	0	59	12802
2026-01-05 15:30:09.66	325.26	6.44	-48.6	-59.3	3.8	8.47e-01	0	62	104	0	59	12799
2026-01-05 15:30:10.65	325.41	6.41	-48.6	-59.3	3.8	8.45e-01	0	62	104	0	59	12795
2026-01-05 15:30:11.64	325.55	6.38	-48.6	-59.3	3.8	8.46e-01	0	62	104	0	59	12785
2026-01-05 15:30:12.63	325.69	6.34	-48.6	-59.4	3.8	8.48e-01	0	62	104	0	59	12827
2026-01-05 15:30:13.62	325.83	6.31	-48.6	-59.3	3.8	8.45e-01	0	62	104	0	59	12798
2026-01-05 15:30:14.60	325.97	6.28	-48.6	-59.3	3.8	8.46e-01	0	62	104	0	59	12794
2026-01-05 15:30:15.59	326.11	6.25	-48.6	-59.4	3.8	8.47e-01	0	62	104	0	59	12836
2026-01-05 15:30:16.58	326.25	6.22	-48.6	-59.4	3.8	8.46e-01	0	62	104	0	59	12816
2026-01-05 15:30:17.56	326.39	6.18	-48.6	-59.4	3.8	8.47e-01	0	62	104	0	59	12822
2026-01-05 15:30:18.55	326.52	6.15	-48.6	-59.3	3.8	8.44e-01	0	62	104	0	59	12798
2026-01-05 15:30:19.53	326.66	6.12	-48.7	-59.4	3.8	8.46e-01	0	62	104	0	59	12822
2026-01-05 15:30:20.52	326.80	6.09	-48.6	-59.3	3.8	8.46e-01	0	62	104	0	59	12781
2026-01-05 15:30:21.51	326.94	6.05	-48.6	-59.3	3.8	8.46e-01	0	62	104	0	59	12805
2026-01-05 15:30:22.50	327.08	6.02	-48.6	-59.4	3.8	8.46e-01	0	62	104	0	59	12824
2026-01-05 15:30:23.48	327.21	5.99	-48.6	-59.4	3.8	8.47e-01	0	62	104	0	59	12813
2026-01-05 15:30:24.47	327.35	5.95	-48.6	-59.3	3.8	8.46e-01	0	62	104	0	59	12782
2026-01-05 15:30:25.46	327.49	5.92	-48.6	-59.3	3.8	8.46e-01	0	62	104	0	59	12771
2026-01-05 15:30:26.45	327.62	5.89	-48.6	-59.3	3.8	8.46e-01	0	62	104	0	59	12794
2026-01-05 15:30:27.43	327.76	5.85	-48.6	-59.4	3.8	8.46e-01	0	62	104	0	59	12812
2026-01-05 15:30:28.42	327.90	5.82	-48.6	-59.3	3.8	8.46e-01	0	62	104	0	59	12795
2026-01-05 15:30:29.41	328.03	5.79	-48.6	-59.3	3.8	8.46e-01	0	62	104	0	59	12810
2026-01-05 15:30:30.39	328.17	5.75	-48.6	-59.3	3.8	8.47e-01	0	62	104	0	59	12804
2026-01-05 15:30:31.38	328.30	5.72	-48.6	-59.4	3.8	8.45e-01	0	62	104	0	59	12816
2026-01-05 15:30:32.37	328.44	5.69	-48.6	-59.3	3.8	8.48e-01	0	62	104	0	59	12795
2026-01-05 15:30:33.36	328.57	5.65	-48.6	-59.4	3.8	8.47e-01	0	62	104	0	59	12817
2026-01-05 15:30:34.35	328.71	5.62	-48.6	-59.3	3.8	8.45e-01	0	62	104	0	59	12797
2026-01-05 15:30:35.33	328.84	5.58	-48.6	-59.3	3.8	8.46e-01	0	62	104	0	59	12801
2026-01-05 15:30:36.32	328.97	5.55	-48.6	-59.4	3.8	8.46e-01	0	62	104	0	59	12821
2026-01-05 15:30:37.31	329.11	5.51	-48.6	-59.4	3.8	8.45e-01	0	62	104	0	59	12829
2026-01-05 15:30:38.30	329.24	5.48	-48.6	-59.3	3.8	8.47e-01	0	62	104	0	59	12807
2026-01-05 15:30:39.29	329.37	5.45	-48.6	-59.4	3.8	8.45e-01	0	62	104	0	59	12820
2026-01-05 15:30:40.28	329.50	5.41	-48.6	-59.4	3.8	8.46e-01	0	62	104	0	59	12816
2026-01-05 15:30:41.26	329.63	5.38	-48.6	-59.3	3.8	8.46e-01	0	62	104	0	59	12783
2026-01-05 15:30:42.25	329.77	5.34	-48.6	-59.4	3.8	8.46e-01	0	62	104	0	59	12838
2026-01-05 15:30:43.24	329.90	5.31	-48.6	-59.4	3.8	8.45e-01	0	62	104	0	59	12837
2026-01-05 15:30:44.23	330.03	5.27	-48.6	-59.4	3.8	8.47e-01	0	62	104	0	59	12823
2026-01-05 15:30:45.22	330.16	5.24	-48.6	-59.4	3.8	8.46e-01	0	62	104	0	59	12818
2026-01-05 15:30:46.20	330.29	5.20	-48.6	-59.3	3.8	8.46e-01	0	62	104	0	59	12796
2026-01-05 15:30:47.19	330.42	5.17	-48.6	-59.4	3.8	8.47e-01	0	62	104	0	59	12851
2026-01-05 15:30:48.18	330.55	5.13	-48.6	-59.3	3.8	8.47e-01	0	62	104	0	59	12802
2026-01-05 15:30:49.17	330.68	5.10	-48.6	-59.4	3.8	8.45e-01	0	62	104	0	59	12832
2026-01-05 15:30:50.16	330.81	5.06	-48.6	-59.3	3.8	8.45e-01	0	62	104	0	59	12773
2026-01-05 15:30:51.15	330.94	5.03	-48.6	-59.4	3.8	8.46e-01	0	62	104	0	59	12811
2026-01-05 15:30:52.14	331.07	4.99	-48.6	-59.3	3.8	8.46e-01	0	62	104	0	59	12782
2026-01-05 15:30:53.12	331.20	4.95	-48.7	-59.4	3.8	8.46e-01	0	62	104	0	59	12814
2026-01-05 15:30:54.11	331.32	4.92	-48.7	-59.4	3.8	8.47e-01	0	62	104	0	59	12812
2026-01-05 15:30:55.10	331.45	4.88	-48.6	-59.3	3.8	8.47e-01	0	62	104	0	59	12773
2026-01-05 15:30:56.08	331.58	4.85	-48.6	-59.3	3.8	8.47e-01	0	62	104	0	59	12796
2026-01-05 15:30:57.07	331.71	4.81	-48.6	-59.3	3.8	8.46e-01	0	62	104	0	59	12791
2026-01-05 15:30:58.06	331.83	4.78	-48.6	-59.3	3.8	8.47e-01	0	62	104	0	59	12800
2026-01-05 15:30:59.05	331.96	4.74	-48.7	-59.4	3.8	8.46e-01	0	62	104	0	59	12820
2026-01-05 15:31:00.03	332.09	4.70	-48.7	-59.4	3.8	8.46e-01	0	62	104	0	59	12833
2026-01-05 15:31:01.02	332.21	4.67	-48.7	-59.4	3.8	8.45e-01	0	62	104	0	59	12868
2026-01-05 15:31:02.01	332.34	4.63	-48.7	-59.4	3.8	8.46e-01	0	62	104	0	59	12816
2026-01-05 15:31:03.00	332.46	4.60	-48.6	-59.4	3.8	8.46e-01	0	62	104	0	59	12813
2026-01-05 15:31:03.99	332.59	4.56	-48.6	-59.4	3.8	8.46e-01	0	62	104	0	59	12856
2026-01-05 15:31:04.97	332.71	4.52	-48.6	-59.4	3.8	8.46e-01	0	62	104	0	59	12834
2026-01-05 15:31:05.96	332.84	4.49	-48.6	-59.4	3.8	8.46e-01	0	62	104	0	59	12825
2026-01-05 15:31:06.95	332.96	4.45	-48.7	-59.4	3.8	8.46e-01	0	62	104	0	59	12820
2026-01-05 15:31:07.94	333.09	4.41	-48.7	-59.3	3.8	8.46e-01	0	62	104	0	59	12798
2026-01-05 15:31:08.92	333.21	4.38	-48.6	-59.4	3.8	8.47e-01	0	62	104	0	59	12857
2026-01-05 15:31:09.91	333.33	4.34	-48.6	-59.4	3.8	8.47e-01	0	62	104	0	59	12832
2026-01-05 15:31:10.90	333.46	4.30	-48.6	-59.4	3.8	8.46e-01	0	62	104	0	59	12852
2026-01-05 15:31:11.88	333.58	4.27	-48.7	-59.4	3.8	8.47e-01	0	62	104	0	59	12835
2026-01-05 15:31:12.87	333.70	4.23	-48.6	-59.4	3.8	8.46e-01	0	62	104	0	59	12826
2026-01-05 15:31:13.86	333.82	4.19	-48.6	-59.4	3.8	8.47e-01	0	62	104	0	59	12826
2026-01-05 15:31:14.85	333.94	4.16	-48.6	-59.4	3.8	8.47e-01	0	62	104	0	59	12848
2026-01-05 15:31:15.83	334.06	4.12	-48.6	-59.4	3.8	8.46e-01	0	62	104	0	59	12828
2026-01-05 15:31:16.82	334.19	4.08	-48.6	-59.4	3.8	8.46e-01	0	62	104	0	59	12820
2026-01-05 15:31:17.81	334.31	4.05	-48.6	-59.4	3.8	8.47e-01	0	62	104	0	59	12876
2026-01-05 15:31:18.80	334.43	4.01	-48.6	-59.4	3.8	8.47e-01	0	62	104	0	59	12823
2026-01-05 15:31:19.79	334.55	3.97	-48.7	-59.4	3.8	8.46e-01	0	62	104	0	59	12831
2026-01-05 15:31:20.77	334.67	3.94	-48.6	-59.4	3.8	8.46e-01	0	62	104	0	59	12823
2026-01-05 15:31:21.76	334.79	3.90	-48.6	-59.3	3.8	8.45e-01	0	62	104	0	59	12809
2026-01-05 15:31:22.74	334.91	3.86	-48.6	-59.4	3.8	8.47e-01	0	62	104	0	59	12816
2026-01-05 15:31:23.73	335.03	3.82	-48.6	-59.4	3.8	8.45e-01	0	62	104	0	59	12818
2026-01-05 15:31:24.72	335.15	3.79	-48.6	-59.4	3.8	8.45e-01	0	62	104	0	59	12812
2026-01-05 15:31:25.70	335.26	3.75	-48.6	-59.4	3.8	8.46e-01	0	62	104	0	59	12819
2026-01-05 15:31:26.69	335.38	3.71	-48.6	-59.4	3.8	8.46e-01	0	62	104	0	59	12817
2026-01-05 15:31:27.68	335.50	3.67	-48.6	-59.4	3.8	8.46e-01	0	62	104	0	59	12828
2026-01-05 15:31:28.66	335.62	3.64	-48.6	-59.4	3.8	8.46e-01	0	62	104	0	59	12835
2026-01-05 15:31:29.65	335.73	3.60	-48.6	-59.4	3.8	8.48e-01	0	62	104	0	59	12824
2026-01-05 15:31:30.64	335.85	3.56	-48.6	-59.4	3.8	8.45e-01	0	62	104	0	59	12864
2026-01-05 15:31:31.63	335.97	3.52	-48.6	-59.4	3.8	8.46e-01	0	62	104	0	59	12874
2026-01-05 15:31:32.61	336.09	3.49	-48.6	-59.4	3.8	8.47e-01	0	62	104	0	59	12835
2026-01-05 15:31:33.60	336.20	3.45	-48.6	-59.4	3.8	8.45e-01	0	62	104	0	59	12814
2026-01-05 15:31:34.58	336.32	3.41	-48.6	-59.3	3.8	8.46e-01	0	62	104	0	59	12789
2026-01-05 15:31:35.57	336.43	3.37	-48.6	-59.4	3.8	8.46e-01	0	62	104	0	59	12866
2026-01-05 15:31:36.56	336.55	3.34	-48.6	-59.3	3.8	8.45e-01	0	62	104	0	59	12809
2026-01-05 15:31:37.55	336.66	3.30	-48.6	-59.4	3.8	8.46e-01	0	62	104	0	59	12811
2026-01-05 15:31:38.53	336.78	3.26	-48.6	-59.4	3.8	8.46e-01	0	62	104	0	59	12829
2026-01-05 15:31:39.52	336.89	3.22	-48.6	-59.4	3.8	8.47e-01	0	62	104	0	59	12836
2026-01-05 15:31:40.51	337.01	3.18	-48.6	-59.4	3.8	8.46e-01	0	62	104	0	59	12867
2026-01-05 15:31:41.49	337.12	3.15	-48.6	-59.4	3.8	8.46e-01	0	62	104	0	59	12828
2026-01-05 15:31:42.48	337.23	3.11	-48.6	-59.4	3.8	8.46e-01	0	62	104	0	59	12815
2026-01-05 15:31:43.47	337.35	3.07	-48.6	-59.3	3.8	8.46e-01	0	62	104	0	59	12793
2026-01-05 15:31:44.45	337.46	3.03	-48.6	-59.4	3.8	8.47e-01	0	62	104	0	59	12815
2026-01-05 15:31:45.43	337.57	2.99	-48.6	-59.4	3.8	8.47e-01	0	62	104	0	59	12827
2026-01-05 15:31:46.42	337.69	2.96	-48.6	-59.4	3.8	8.45e-01	0	62	104	0	59	12831

#Closed at: 2026-01-05 15:31:47
#Recorded file [0 MB]: D:/Data/31026_260105_182251.dat