passes_logs/2026/01/05/R3.0SM8_Murmansk_STILSPACE/R3.0SM8_Murmansk_STILSPACE__20260105_015942_FENGYUN_3D_rec.log

#Pass ID: 20260105_015942_FENGYUN 3D
#Satellite: FENGYUN 3D
#Configuration: FENGYUN 3D
#almurnet v.1.7.20240730
#Start time: 2026-01-05 01:59:42

#Version: 2.2.20231116
#Station: R3.0SM8_Murmansk_STILSPACE
#Location: 33.092731 lon 68.902999 lat
#TLE: 1 43010U 17072A   26004.50247883 -.00000063  00000+0 -78815-5 0  9998
#TLE: 2 43010  98.9915 336.1565 0001968 126.3752 233.7605 14.19691805421760

#Time	Az	El	Level	Level2	SNR	BER	BlckErr	Temp	State	Recorded	gain1	gain2
2026-01-05 01:59:42.36	23.00	2.99	-52.1	-62.8	3.8	8.46e-01	0	46	0	0	67	12062
2026-01-05 01:59:43.34	23.02	3.06	-52.5	-63.3	3.8	8.46e-01	0	46	104	0	68	11957
2026-01-05 01:59:44.34	23.05	3.12	-52.4	-63.1	3.8	8.47e-01	0	46	104	0	67	12439
2026-01-05 01:59:45.32	23.08	3.18	-52.3	-63.1	3.8	8.47e-01	0	46	104	0	67	12386
2026-01-05 01:59:46.32	23.10	3.25	-52.1	-62.9	3.8	8.47e-01	0	47	104	0	67	12185
2026-01-05 01:59:47.30	23.13	3.31	-52.1	-62.9	3.8	8.46e-01	0	46	104	0	67	12113
2026-01-05 01:59:48.29	23.16	3.38	-51.9	-62.7	3.8	8.47e-01	0	46	104	0	66	12572
2026-01-05 01:59:49.28	23.18	3.44	-51.6	-62.1	3.8	8.47e-01	0	47	104	0	66	11759
2026-01-05 01:59:50.26	23.21	3.51	-48.7	-52.1	8.5	6.71e-01	0	46	104	0	60	5232
2026-01-05 01:59:51.26	23.24	3.58	-48.0	-50.8	10.0	1.03e-02	0	46	0	5242880	59	4789
2026-01-05 01:59:52.25	23.27	3.64	-47.9	-50.6	10.2	8.06e-03	0	47	0	10485760	59	4658
2026-01-05 01:59:53.24	23.29	3.71	-48.0	-50.7	10.0	7.58e-03	0	47	0	16777216	58	5030
2026-01-05 01:59:54.23	23.32	3.77	-48.0	-50.7	10.1	8.27e-03	0	47	0	22020096	58	4988
2026-01-05 01:59:55.23	23.35	3.84	-47.9	-50.5	10.3	8.22e-03	0	47	0	27262976	58	4914
2026-01-05 01:59:56.21	23.38	3.91	-47.8	-50.4	10.4	6.25e-03	0	47	0	32505856	58	4835
2026-01-05 01:59:57.21	23.40	3.97	-47.9	-50.5	10.3	6.30e-03	0	47	0	38797312	58	4912
2026-01-05 01:59:58.20	23.43	4.04	-47.7	-50.2	10.6	5.71e-03	0	47	0	44040192	58	4736
2026-01-05 01:59:59.19	23.46	4.11	-47.4	-49.7	11.1	2.27e-03	0	47	0	49283072	58	4465
2026-01-05 02:00:00.17	23.49	4.17	-47.3	-49.5	11.3	2.02e-03	0	47	0	55574528	57	4621
2026-01-05 02:00:01.16	23.51	4.24	-47.1	-49.3	11.5	1.51e-03	0	47	0	60817408	57	4520
2026-01-05 02:00:02.16	23.54	4.31	-47.3	-49.5	11.3	1.66e-03	0	47	0	66060288	57	4637
2026-01-05 02:00:03.15	23.57	4.37	-47.1	-49.2	11.7	8.94e-04	0	48	0	72351744	57	4460
2026-01-05 02:00:04.14	23.60	4.44	-47.1	-49.2	11.6	7.29e-04	0	48	0	77594624	57	4468
2026-01-05 02:00:05.12	23.63	4.51	-47.1	-49.3	11.5	9.12e-04	0	48	0	82837504	57	4520
2026-01-05 02:00:06.12	23.66	4.58	-47.3	-49.5	11.3	1.20e-03	0	48	0	89128960	57	4637
2026-01-05 02:00:07.10	23.69	4.65	-47.3	-49.6	11.2	1.80e-03	0	48	0	94371840	57	4674
2026-01-05 02:00:08.09	23.71	4.71	-47.3	-49.6	11.2	1.48e-03	0	48	0	99614720	57	4681
2026-01-05 02:00:09.09	23.74	4.78	-47.5	-49.9	11.0	2.48e-03	0	48	0	105906176	57	4822
2026-01-05 02:00:10.07	23.77	4.85	-47.6	-50.0	10.9	2.51e-03	0	48	0	111149056	57	4879
2026-01-05 02:00:11.07	23.80	4.92	-47.6	-50.0	10.8	4.47e-03	0	48	0	116391936	57	4900
2026-01-05 02:00:12.06	23.83	4.99	-47.7	-50.2	10.6	3.95e-03	0	48	0	121634816	57	4996
2026-01-05 02:00:13.04	23.86	5.06	-47.7	-50.3	10.5	4.29e-03	0	48	0	127926272	57	5049
2026-01-05 02:00:14.02	23.89	5.13	-47.7	-50.2	10.5	5.05e-03	0	48	0	133169152	57	5041
2026-01-05 02:00:15.02	23.92	5.20	-47.3	-49.5	11.4	1.62e-03	0	48	0	138412032	57	4605
2026-01-05 02:00:16.01	23.95	5.27	-47.5	-49.8	11.0	1.67e-03	0	48	0	144703488	57	4796
2026-01-05 02:00:17.01	23.98	5.34	-47.1	-49.2	11.8	9.62e-04	0	48	0	149946368	57	4444
2026-01-05 02:00:18.00	24.01	5.41	-46.9	-48.9	12.1	4.05e-04	0	48	0	155189248	56	4568
2026-01-05 02:00:18.98	24.04	5.48	-46.5	-48.3	12.8	1.52e-04	0	49	0	161480704	56	4273
2026-01-05 02:00:19.97	24.07	5.55	-46.5	-48.2	12.9	8.92e-05	0	49	0	166723584	56	4225
2026-01-05 02:00:20.96	24.10	5.62	-46.1	-47.8	13.3	4.11e-05	0	49	0	171966464	55	4258
2026-01-05 02:00:21.95	24.13	5.69	-46.0	-47.6	13.5	1.25e-05	0	49	0	177209344	55	4180
2026-01-05 02:00:22.94	24.16	5.76	-45.9	-47.5	13.7	1.02e-05	0	49	0	183500800	55	4106
2026-01-05 02:00:23.93	24.19	5.83	-46.0	-47.6	13.6	1.71e-05	0	49	0	188743680	55	4157
2026-01-05 02:00:24.91	24.22	5.90	-46.3	-47.9	13.2	2.40e-05	0	49	0	193986560	55	4318
2026-01-05 02:00:25.90	24.25	5.97	-45.9	-47.4	13.8	2.51e-05	0	49	0	200278016	55	4077
2026-01-05 02:00:26.89	24.28	6.04	-45.5	-46.9	14.3	0.00e+00	0	49	0	205520896	54	4063
2026-01-05 02:00:27.87	24.32	6.11	-45.2	-46.5	14.8	0.00e+00	0	49	0	210763776	53	4107
2026-01-05 02:00:28.85	24.35	6.19	-45.0	-46.2	15.0	0.00e+00	0	49	0	217055232	53	4000
2026-01-05 02:00:29.84	24.38	6.26	-44.8	-46.0	15.3	0.00e+00	0	49	0	222298112	52	4099
2026-01-05 02:00:30.83	24.41	6.33	-44.8	-45.9	15.3	0.00e+00	0	49	0	227540992	52	4094
2026-01-05 02:00:31.82	24.44	6.40	-44.6	-45.8	15.5	0.00e+00	0	49	0	233832448	52	4010
2026-01-05 02:00:32.82	24.47	6.48	-44.7	-45.9	15.4	0.00e+00	0	49	0	239075328	52	4079
2026-01-05 02:00:33.82	24.51	6.55	-44.7	-45.8	15.4	0.00e+00	0	49	0	244318208	52	4051
2026-01-05 02:00:34.80	24.54	6.62	-44.6	-45.7	15.6	0.00e+00	0	49	0	249561088	52	3999
2026-01-05 02:00:35.79	24.57	6.70	-44.6	-45.7	15.6	0.00e+00	0	49	0	255852544	52	3996
2026-01-05 02:00:36.78	24.60	6.77	-44.6	-45.8	15.6	0.00e+00	0	50	0	261095424	52	4026
2026-01-05 02:00:37.77	24.64	6.84	-44.8	-46.0	15.3	0.00e+00	0	50	0	267386880	52	4139
2026-01-05 02:00:38.76	24.67	6.92	-44.8	-46.0	15.4	0.00e+00	0	50	0	272629760	52	4102
2026-01-05 02:00:39.75	24.70	6.99	-44.6	-45.8	15.6	0.00e+00	0	50	0	277872640	52	4024
2026-01-05 02:00:40.73	24.73	7.07	-44.8	-46.0	15.3	0.00e+00	0	50	0	283115520	52	4131
2026-01-05 02:00:41.72	24.77	7.14	-44.6	-45.8	15.6	0.00e+00	0	50	0	289406976	52	4025
2026-01-05 02:00:42.72	24.80	7.22	-44.5	-45.6	15.8	0.00e+00	0	50	0	294649856	52	3923
2026-01-05 02:00:43.71	24.83	7.29	-44.4	-45.5	15.9	0.00e+00	0	50	0	299892736	52	3895
2026-01-05 02:00:44.70	24.87	7.37	-44.5	-45.6	15.9	0.00e+00	0	50	0	306184192	51	4182
2026-01-05 02:00:45.68	24.90	7.44	-44.3	-45.4	16.1	0.00e+00	0	50	0	311427072	51	4072
2026-01-05 02:00:46.67	24.94	7.52	-44.1	-45.1	16.4	0.00e+00	0	50	0	316669952	51	3955
2026-01-05 02:00:47.66	24.97	7.59	-44.1	-45.1	16.5	0.00e+00	0	50	0	321912832	51	3919
2026-01-05 02:00:48.65	25.00	7.67	-44.1	-45.1	16.5	0.00e+00	0	50	0	328204288	51	3925
2026-01-05 02:00:49.64	25.04	7.75	-44.1	-45.1	16.5	0.00e+00	0	50	0	333447168	51	3937
2026-01-05 02:00:50.63	25.07	7.82	-44.1	-45.1	16.5	0.00e+00	0	50	0	338690048	51	3927
2026-01-05 02:00:51.61	25.11	7.90	-44.0	-45.0	16.6	0.00e+00	0	50	0	344981504	51	3900
2026-01-05 02:00:52.61	25.14	7.98	-44.2	-45.2	16.4	0.00e+00	0	50	0	350224384	51	3980
2026-01-05 02:00:53.60	25.18	8.05	-44.2	-45.2	16.4	0.00e+00	0	50	0	355467264	51	3976
2026-01-05 02:00:54.58	25.21	8.13	-44.0	-45.0	16.6	0.00e+00	0	51	0	361758720	51	3903
2026-01-05 02:00:55.57	25.25	8.21	-44.0	-45.0	16.7	0.00e+00	0	51	0	367001600	51	3879
2026-01-05 02:00:56.56	25.28	8.29	-44.1	-45.1	16.5	0.00e+00	0	51	0	372244480	51	3928
2026-01-05 02:00:57.54	25.32	8.36	-44.3	-45.3	16.3	0.00e+00	0	51	0	377487360	51	4047
2026-01-05 02:00:58.53	25.36	8.44	-44.3	-45.3	16.2	0.00e+00	0	51	0	383778816	51	4047
2026-01-05 02:00:59.52	25.39	8.52	-44.1	-45.2	16.5	0.00e+00	0	51	0	389021696	51	3960
2026-01-05 02:01:00.51	25.43	8.60	-44.1	-45.1	16.6	0.00e+00	0	51	0	394264576	51	3931
2026-01-05 02:01:01.50	25.46	8.68	-44.2	-45.2	16.5	0.00e+00	0	51	0	400556032	51	3972
2026-01-05 02:01:02.49	25.50	8.76	-44.2	-45.2	16.5	0.00e+00	0	51	0	405798912	51	3985
2026-01-05 02:01:03.48	25.54	8.84	-44.2	-45.2	16.5	0.00e+00	0	51	0	411041792	51	3964
2026-01-05 02:01:04.47	25.57	8.92	-44.2	-45.3	16.4	0.00e+00	0	51	0	417333248	51	4007
2026-01-05 02:01:05.46	25.61	9.00	-44.2	-45.3	16.4	0.00e+00	0	51	0	422576128	51	4008
2026-01-05 02:01:06.44	25.65	9.08	-44.2	-45.2	16.5	0.00e+00	0	51	0	427819008	51	3997
2026-01-05 02:01:07.43	25.69	9.16	-44.5	-45.6	16.1	0.00e+00	0	51	0	434110464	51	4167
2026-01-05 02:01:08.42	25.72	9.24	-44.6	-45.7	16.0	0.00e+00	0	51	0	439353344	51	4195
2026-01-05 02:01:09.41	25.76	9.32	-44.3	-45.3	16.4	0.00e+00	0	51	0	444596224	51	4016
2026-01-05 02:01:10.39	25.80	9.40	-44.1	-45.1	16.6	0.00e+00	0	51	0	449839104	51	3932
2026-01-05 02:01:11.38	25.84	9.48	-44.0	-44.9	16.8	0.00e+00	0	51	0	456130560	51	3858
2026-01-05 02:01:12.36	25.88	9.57	-44.0	-44.9	16.8	0.00e+00	0	51	0	461373440	51	3868
2026-01-05 02:01:13.36	25.91	9.65	-44.0	-45.0	16.8	0.00e+00	0	51	0	466616320	51	3877
2026-01-05 02:01:14.35	25.95	9.73	-44.1	-45.0	16.7	0.00e+00	0	51	0	472907776	51	3908
2026-01-05 02:01:15.34	25.99	9.81	-44.1	-45.2	16.6	0.00e+00	0	51	0	478150656	51	3959
2026-01-05 02:01:16.33	26.03	9.90	-44.2	-45.2	16.5	0.00e+00	0	51	0	483393536	51	3979
2026-01-05 02:01:17.32	26.07	9.98	-44.1	-45.1	16.6	0.00e+00	0	51	0	489684992	51	3939
2026-01-05 02:01:18.31	26.11	10.06	-44.0	-45.0	16.7	0.00e+00	0	51	0	494927872	51	3895
2026-01-05 02:01:19.30	26.15	10.15	-44.1	-45.1	16.7	0.00e+00	0	51	0	500170752	51	3922
2026-01-05 02:01:20.29	26.19	10.23	-44.2	-45.2	16.6	0.00e+00	0	51	0	506462208	51	3965
2026-01-05 02:01:21.27	26.23	10.32	-44.0	-44.9	16.8	0.00e+00	0	52	0	511705088	51	3860
2026-01-05 02:01:22.26	26.27	10.40	-44.0	-44.9	16.9	0.00e+00	0	52	0	516947968	51	3854
2026-01-05 02:01:23.25	26.31	10.49	-44.0	-44.9	16.8	0.00e+00	0	52	0	522190848	51	3860
2026-01-05 02:01:24.24	26.35	10.57	-43.9	-44.8	17.0	0.00e+00	0	52	0	528482304	50	4029
2026-01-05 02:01:25.23	26.39	10.66	-43.9	-44.8	17.0	0.00e+00	0	52	0	533725184	50	4030
2026-01-05 02:01:26.22	26.43	10.74	-44.0	-44.9	16.9	0.00e+00	0	52	0	538968064	50	4095
2026-01-05 02:01:27.21	26.48	10.83	-43.8	-44.7	17.1	0.00e+00	0	52	0	545259520	50	3971
2026-01-05 02:01:28.20	26.52	10.91	-43.6	-44.5	17.3	0.00e+00	0	52	0	550502400	50	3892
2026-01-05 02:01:29.18	26.56	11.00	-43.5	-44.4	17.4	0.00e+00	0	52	0	555745280	50	3862
2026-01-05 02:01:30.17	26.60	11.09	-43.5	-44.4	17.4	0.00e+00	0	52	0	562036736	50	3837
2026-01-05 02:01:31.16	26.64	11.17	-43.5	-44.4	17.4	0.00e+00	0	52	0	567279616	50	3845
2026-01-05 02:01:32.15	26.69	11.26	-43.7	-44.6	17.2	0.00e+00	0	52	0	572522496	50	3945
2026-01-05 02:01:33.14	26.73	11.35	-43.6	-44.5	17.3	0.00e+00	0	52	0	577765376	50	3899
2026-01-05 02:01:34.13	26.77	11.44	-43.6	-44.5	17.4	0.00e+00	0	52	0	584056832	50	3873
2026-01-05 02:01:35.12	26.81	11.53	-43.7	-44.6	17.3	0.00e+00	0	52	0	589299712	50	3919
2026-01-05 02:01:36.11	26.86	11.62	-43.5	-44.4	17.5	0.00e+00	0	52	0	594542592	50	3829
2026-01-05 02:01:37.10	26.90	11.71	-43.4	-44.3	17.6	0.00e+00	0	52	0	600834048	50	3793
2026-01-05 02:01:38.09	26.95	11.79	-43.5	-44.4	17.4	0.00e+00	0	52	0	606076928	50	3848
2026-01-05 02:01:39.07	26.99	11.88	-43.5	-44.3	17.6	0.00e+00	0	52	0	611319808	50	3807
2026-01-05 02:01:40.06	27.03	11.97	-43.6	-44.5	17.4	0.00e+00	0	52	0	616562688	50	3890
2026-01-05 02:01:41.04	27.08	12.06	-43.4	-44.3	17.6	0.00e+00	0	52	0	622854144	50	3787
2026-01-05 02:01:42.03	27.12	12.15	-43.2	-44.0	17.8	0.00e+00	0	52	0	628097024	49	3912
2026-01-05 02:01:43.02	27.17	12.25	-43.1	-43.9	18.0	0.00e+00	0	52	0	634388480	49	3838
2026-01-05 02:01:44.02	27.21	12.34	-43.1	-43.9	18.0	0.00e+00	0	52	0	639631360	49	3841
2026-01-05 02:01:45.00	27.26	12.43	-43.0	-43.8	18.0	0.00e+00	0	52	0	644874240	49	3820
2026-01-05 02:01:45.99	27.31	12.52	-43.1	-43.9	18.0	0.00e+00	0	52	0	650117120	49	3837
2026-01-05 02:01:46.98	27.35	12.61	-43.1	-43.9	18.0	0.00e+00	0	52	0	656408576	49	3845
2026-01-05 02:01:47.98	27.40	12.71	-43.0	-43.9	18.0	0.00e+00	0	52	0	661651456	49	3835
2026-01-05 02:01:48.97	27.45	12.80	-43.1	-44.0	17.9	0.00e+00	0	53	0	666894336	49	3878
2026-01-05 02:01:49.95	27.49	12.89	-43.3	-44.2	17.7	0.00e+00	0	52	0	673185792	49	3968
2026-01-05 02:01:50.94	27.54	12.99	-43.6	-44.5	17.4	0.00e+00	0	52	0	678428672	49	4118
2026-01-05 02:01:51.93	27.59	13.08	-43.6	-44.5	17.3	0.00e+00	0	52	0	683671552	49	4135
2026-01-05 02:01:52.92	27.63	13.17	-43.7	-44.6	17.3	0.00e+00	0	53	0	689963008	49	4166
2026-01-05 02:01:53.91	27.68	13.27	-43.7	-44.6	17.3	0.00e+00	0	53	0	695205888	49	4188
2026-01-05 02:01:54.90	27.73	13.36	-43.8	-44.8	17.1	0.00e+00	0	53	0	700448768	49	4247
2026-01-05 02:01:55.88	27.78	13.46	-43.7	-44.6	17.3	0.00e+00	0	53	0	705691648	49	4162
2026-01-05 02:01:56.87	27.83	13.55	-43.6	-44.4	17.5	0.00e+00	0	53	0	711983104	49	4094
2026-01-05 02:01:57.86	27.88	13.65	-43.5	-44.3	17.6	0.00e+00	0	53	0	717225984	49	4048
2026-01-05 02:01:58.85	27.93	13.75	-43.5	-44.4	17.6	0.00e+00	0	53	0	722468864	49	4053
2026-01-05 02:01:59.84	27.98	13.84	-43.5	-44.4	17.5	0.00e+00	0	53	0	728760320	49	4064
2026-01-05 02:02:00.82	28.03	13.94	-43.2	-44.0	17.9	0.00e+00	0	53	0	734003200	49	3895
2026-01-05 02:02:01.81	28.08	14.04	-42.9	-43.7	18.2	0.00e+00	0	53	0	739246080	49	3745
2026-01-05 02:02:02.80	28.13	14.14	-42.8	-43.5	18.4	0.00e+00	0	53	0	745537536	48	3906
2026-01-05 02:02:03.79	28.18	14.24	-42.7	-43.5	18.4	0.00e+00	0	53	0	750780416	48	3890
2026-01-05 02:02:04.79	28.23	14.34	-42.6	-43.4	18.5	0.00e+00	0	53	0	756023296	48	3848
2026-01-05 02:02:05.77	28.28	14.43	-42.7	-43.5	18.5	0.00e+00	0	53	0	762314752	48	3876
2026-01-05 02:02:06.76	28.33	14.53	-42.7	-43.4	18.5	0.00e+00	0	53	0	767557632	48	3860
2026-01-05 02:02:07.75	28.39	14.63	-42.7	-43.5	18.5	0.00e+00	0	53	0	772800512	48	3881
2026-01-05 02:02:08.74	28.44	14.73	-42.8	-43.6	18.3	0.00e+00	0	53	0	778043392	48	3936
2026-01-05 02:02:09.73	28.49	14.83	-43.0	-43.8	18.1	0.00e+00	0	53	0	784334848	48	4049
2026-01-05 02:02:10.71	28.54	14.93	-43.0	-43.7	18.2	0.00e+00	0	53	0	789577728	48	4000
2026-01-05 02:02:11.70	28.60	15.04	-42.7	-43.4	18.5	0.00e+00	0	53	0	794820608	48	3863
2026-01-05 02:02:12.69	28.65	15.14	-42.5	-43.3	18.7	0.00e+00	0	53	0	801112064	48	3793
2026-01-05 02:02:13.68	28.71	15.24	-42.5	-43.2	18.7	0.00e+00	0	53	0	806354944	48	3762
2026-01-05 02:02:14.66	28.76	15.34	-42.5	-43.2	18.7	0.00e+00	0	53	0	811597824	48	3771
2026-01-05 02:02:15.65	28.82	15.45	-42.6	-43.4	18.6	0.00e+00	0	53	0	816840704	48	3826
2026-01-05 02:02:16.64	28.87	15.55	-42.6	-43.3	18.7	0.00e+00	0	53	0	823132160	48	3805
2026-01-05 02:02:17.63	28.93	15.65	-42.4	-43.2	18.8	0.00e+00	0	53	0	828375040	48	3761
2026-01-05 02:02:18.62	28.98	15.76	-42.4	-43.2	18.8	0.00e+00	0	53	0	834666496	48	3751
2026-01-05 02:02:19.61	29.04	15.86	-42.6	-43.3	18.7	0.00e+00	0	53	0	839909376	48	3803
2026-01-05 02:02:20.59	29.10	15.97	-42.6	-43.3	18.6	0.00e+00	0	53	0	845152256	48	3813
2026-01-05 02:02:21.58	29.15	16.07	-42.5	-43.3	18.7	0.00e+00	0	53	0	850395136	48	3785
2026-01-05 02:02:22.58	29.21	16.18	-42.6	-43.4	18.6	0.00e+00	0	53	0	856686592	48	3825
2026-01-05 02:02:23.57	29.27	16.29	-42.5	-43.2	18.8	0.00e+00	0	53	0	861929472	48	3765
2026-01-05 02:02:24.56	29.33	16.40	-42.1	-42.9	19.0	0.00e+00	0	53	0	867172352	47	3833
2026-01-05 02:02:25.54	29.38	16.50	-42.0	-42.8	19.1	0.00e+00	0	53	0	873463808	47	3789
2026-01-05 02:02:26.54	29.44	16.61	-42.0	-42.7	19.1	0.00e+00	0	53	0	878706688	47	3762
2026-01-05 02:02:27.53	29.50	16.72	-42.0	-42.7	19.1	0.00e+00	0	53	0	883949568	47	3760
2026-01-05 02:02:28.52	29.56	16.83	-41.9	-42.6	19.2	0.00e+00	0	54	0	890241024	47	3730
2026-01-05 02:02:29.50	29.62	16.94	-41.9	-42.6	19.3	0.00e+00	0	53	0	895483904	46	3917
2026-01-05 02:02:30.49	29.68	17.05	-41.9	-42.5	19.3	0.00e+00	0	54	0	900726784	46	3912
2026-01-05 02:02:31.48	29.74	17.16	-41.9	-42.6	19.3	0.00e+00	0	53	0	905969664	46	3933
2026-01-05 02:02:32.47	29.81	17.27	-41.9	-42.6	19.2	0.00e+00	0	54	0	912261120	46	3958
2026-01-05 02:02:33.46	29.87	17.38	-41.9	-42.6	19.2	0.00e+00	0	53	0	917504000	46	3945
2026-01-05 02:02:34.45	29.93	17.49	-41.9	-42.6	19.2	0.00e+00	0	54	0	922746880	46	3929
2026-01-05 02:02:35.44	29.99	17.60	-42.0	-42.7	19.1	0.00e+00	0	54	0	929038336	46	3973
2026-01-05 02:02:36.44	30.06	17.72	-41.8	-42.5	19.3	0.00e+00	0	54	0	934281216	46	3897
2026-01-05 02:02:37.42	30.12	17.83	-41.8	-42.5	19.4	0.00e+00	0	54	0	939524096	46	3876
2026-01-05 02:02:38.41	30.18	17.94	-41.9	-42.6	19.3	0.00e+00	0	54	0	944766976	46	3937
2026-01-05 02:02:39.41	30.25	18.06	-41.9	-42.6	19.2	0.00e+00	0	54	0	951058432	46	3953
2026-01-05 02:02:40.39	30.31	18.17	-41.8	-42.5	19.4	0.00e+00	0	54	0	956301312	46	3872
2026-01-05 02:02:41.37	30.38	18.29	-41.7	-42.4	19.4	0.00e+00	0	53	0	962592768	46	3856
2026-01-05 02:02:42.37	30.45	18.40	-41.7	-42.4	19.4	0.00e+00	0	54	0	967835648	46	3864
2026-01-05 02:02:43.35	30.51	18.52	-41.9	-42.6	19.3	0.00e+00	0	54	0	973078528	46	3947
2026-01-05 02:02:44.34	30.58	18.64	-42.0	-42.7	19.2	0.00e+00	0	54	0	978321408	46	3984
2026-01-05 02:02:45.33	30.65	18.75	-41.7	-42.4	19.5	0.00e+00	0	54	0	984612864	46	3850
2026-01-05 02:02:46.32	30.71	18.87	-41.5	-42.2	19.7	0.00e+00	0	54	0	989855744	46	3747
2026-01-05 02:02:47.30	30.78	18.99	-41.5	-42.1	19.8	0.00e+00	0	54	0	995098624	46	3730
2026-01-05 02:02:48.30	30.85	19.11	-41.5	-42.2	19.7	0.00e+00	0	54	0	1001390080	46	3763
2026-01-05 02:02:49.29	30.92	19.23	-41.5	-42.2	19.7	0.00e+00	0	54	0	1006632960	46	3756
2026-01-05 02:02:50.28	30.99	19.35	-41.7	-42.4	19.5	0.00e+00	0	54	0	1011875840	46	3840
2026-01-05 02:02:51.26	31.06	19.47	-41.8	-42.5	19.4	0.00e+00	0	54	0	1017118720	46	3895
2026-01-05 02:02:52.26	31.13	19.59	-41.6	-42.3	19.6	0.00e+00	0	54	0	1023410176	46	3794
2026-01-05 02:02:53.25	31.20	19.71	-41.5	-42.2	19.7	0.00e+00	0	54	0	1028653056	46	3740
2026-01-05 02:02:54.24	31.27	19.83	-41.7	-42.4	19.5	0.00e+00	0	54	0	1034944512	46	3853
2026-01-05 02:02:55.24	31.35	19.96	-41.9	-42.6	19.3	0.00e+00	0	54	0	1040187392	46	3934
2026-01-05 02:02:56.23	31.42	20.08	-41.7	-42.4	19.5	0.00e+00	0	54	0	1045430272	46	3840
2026-01-05 02:02:57.22	31.49	20.20	-41.7	-42.4	19.5	0.00e+00	0	54	0	1051721728	46	3845
2026-01-05 02:02:58.21	31.57	20.33	-41.9	-42.5	19.4	0.00e+00	0	54	0	1056964608	46	3909
2026-01-05 02:02:59.19	31.64	20.45	-41.9	-42.6	19.3	0.00e+00	0	54	0	1062207488	46	3955
2026-01-05 02:03:00.18	31.72	20.58	-41.7	-42.4	19.5	0.00e+00	0	54	0	1067450368	46	3839
2026-01-05 02:03:01.18	31.79	20.71	-41.5	-42.1	19.7	0.00e+00	0	54	0	1073741824	46	3736
2026-01-05 02:03:02.16	31.87	20.83	-41.5	-42.2	19.8	0.00e+00	0	54	0	1078984704	46	3744
2026-01-05 02:03:03.16	31.95	20.96	-41.6	-42.3	19.7	0.00e+00	0	54	0	1084227584	46	3784
2026-01-05 02:03:04.15	32.02	21.09	-41.4	-42.0	19.9	0.00e+00	0	54	0	1090519040	46	3694
2026-01-05 02:03:05.14	32.10	21.22	-41.1	-41.7	20.2	0.00e+00	0	54	0	1095761920	45	3778
2026-01-05 02:03:06.13	32.18	21.35	-41.0	-41.6	20.3	0.00e+00	0	54	0	1101004800	45	3723
2026-01-05 02:03:07.13	32.26	21.48	-41.0	-41.6	20.3	0.00e+00	0	54	0	1107296256	45	3718
2026-01-05 02:03:08.12	32.34	21.61	-41.0	-41.6	20.3	0.00e+00	0	54	0	1112539136	45	3705
2026-01-05 02:03:09.11	32.42	21.74	-41.0	-41.6	20.3	0.00e+00	0	54	0	1117782016	45	3725
2026-01-05 02:03:10.09	32.50	21.87	-41.2	-41.8	20.1	0.00e+00	0	54	0	1124073472	45	3809
2026-01-05 02:03:11.08	32.59	22.00	-41.3	-42.0	20.0	0.00e+00	0	54	0	1129316352	45	3870
2026-01-05 02:03:12.08	32.67	22.14	-41.2	-41.8	20.1	0.00e+00	0	54	0	1134559232	45	3802
2026-01-05 02:03:13.07	32.75	22.27	-41.2	-41.8	20.1	0.00e+00	0	54	0	1140850688	45	3810
2026-01-05 02:03:14.06	32.84	22.41	-41.3	-41.9	20.0	0.00e+00	0	54	0	1146093568	45	3862
2026-01-05 02:03:15.05	32.92	22.54	-41.1	-41.8	20.2	0.00e+00	0	54	0	1151336448	45	3791
2026-01-05 02:03:16.04	33.01	22.68	-41.1	-41.7	20.2	0.00e+00	0	54	0	1156579328	45	3780
2026-01-05 02:03:17.02	33.09	22.81	-41.1	-41.8	20.1	0.00e+00	0	54	0	1162870784	45	3786
2026-01-05 02:03:18.02	33.18	22.95	-41.4	-42.1	19.9	0.00e+00	0	54	0	1168113664	45	3924
2026-01-05 02:03:19.01	33.27	23.09	-41.1	-41.7	20.2	0.00e+00	0	54	0	1173356544	45	3780
2026-01-05 02:03:19.99	33.36	23.22	-40.9	-41.6	20.4	0.00e+00	0	54	0	1179648000	45	3698
2026-01-05 02:03:20.98	33.44	23.36	-40.8	-41.4	20.5	0.00e+00	0	54	0	1184890880	44	3833
2026-01-05 02:03:21.98	33.54	23.50	-40.8	-41.4	20.5	0.00e+00	0	54	0	1190133760	44	3842
2026-01-05 02:03:22.97	33.63	23.64	-40.8	-41.4	20.5	0.00e+00	0	54	0	1196425216	44	3835
2026-01-05 02:03:23.95	33.72	23.78	-40.7	-41.3	20.6	0.00e+00	0	54	0	1201668096	44	3824
2026-01-05 02:03:24.94	33.81	23.93	-40.8	-41.4	20.5	0.00e+00	0	54	0	1206910976	44	3852
2026-01-05 02:03:25.93	33.90	24.07	-41.0	-41.6	20.3	0.00e+00	0	54	0	1213202432	44	3927
2026-01-05 02:03:26.91	33.99	24.21	-40.8	-41.4	20.5	0.00e+00	0	54	0	1218445312	44	3827
2026-01-05 02:03:27.90	34.09	24.35	-40.6	-41.2	20.7	0.00e+00	0	54	0	1223688192	44	3766
2026-01-05 02:03:28.88	34.18	24.50	-40.6	-41.2	20.7	0.00e+00	0	55	0	1228931072	44	3759
2026-01-05 02:03:29.87	34.28	24.64	-40.5	-41.1	20.8	0.00e+00	0	54	0	1235222528	44	3708
2026-01-05 02:03:30.86	34.38	24.79	-40.6	-41.2	20.8	0.00e+00	0	55	0	1240465408	44	3738
2026-01-05 02:03:31.85	34.48	24.94	-40.2	-40.8	21.0	0.00e+00	0	55	0	1245708288	43	3793
2026-01-05 02:03:32.84	34.57	25.08	-39.9	-40.5	21.3	0.00e+00	0	55	0	1251999744	43	3673
2026-01-05 02:03:33.83	34.67	25.23	-39.9	-40.4	21.3	0.00e+00	0	55	0	1257242624	42	3858
2026-01-05 02:03:34.82	34.78	25.38	-39.9	-40.4	21.4	0.00e+00	0	55	0	1262485504	42	3851
2026-01-05 02:03:35.81	34.88	25.53	-39.9	-40.5	21.3	0.00e+00	0	55	0	1267728384	42	3895
2026-01-05 02:03:36.81	34.98	25.68	-40.1	-40.7	21.2	0.00e+00	0	55	0	1274019840	42	3959
2026-01-05 02:03:37.80	35.08	25.83	-40.3	-40.9	20.9	0.00e+00	0	54	0	1279262720	42	4070
2026-01-05 02:03:38.78	35.19	25.99	-40.3	-40.8	21.0	0.00e+00	0	55	0	1284505600	42	4050
2026-01-05 02:03:39.78	35.29	26.14	-40.2	-40.8	21.0	0.00e+00	0	54	0	1290797056	42	4022
2026-01-05 02:03:40.76	35.40	26.29	-40.3	-40.8	21.0	0.00e+00	0	55	0	1296039936	42	4043
2026-01-05 02:03:41.75	35.51	26.45	-40.4	-40.9	20.9	0.00e+00	0	55	0	1301282816	42	4097
2026-01-05 02:03:42.74	35.62	26.60	-40.4	-41.0	20.9	0.00e+00	0	55	0	1307574272	42	4100
2026-01-05 02:03:43.73	35.72	26.76	-40.3	-40.9	20.9	0.00e+00	0	55	0	1312817152	42	4074
2026-01-05 02:03:44.72	35.83	26.91	-40.4	-41.0	20.8	0.00e+00	0	55	0	1318060032	42	4123
2026-01-05 02:03:45.70	35.95	27.07	-40.6	-41.2	20.7	0.00e+00	0	54	0	1324351488	42	4209
2026-01-05 02:03:46.70	36.06	27.23	-40.6	-41.1	20.7	0.00e+00	0	55	0	1329594368	43	3955
2026-01-05 02:03:47.68	36.17	27.39	-40.4	-41.0	20.8	0.00e+00	0	55	0	1334837248	43	3880
2026-01-05 02:03:48.68	36.29	27.55	-40.3	-40.9	21.0	0.00e+00	0	55	0	1341128704	43	3829
2026-01-05 02:03:49.66	36.40	27.71	-40.3	-40.9	20.9	0.00e+00	0	55	0	1346371584	43	3844
2026-01-05 02:03:50.65	36.52	27.87	-40.6	-41.1	20.7	0.00e+00	0	55	0	1351614464	43	3952
2026-01-05 02:03:51.64	36.64	28.03	-40.5	-41.1	20.8	0.00e+00	0	55	0	1356857344	43	3917
2026-01-05 02:03:52.62	36.76	28.20	-40.3	-40.8	21.0	0.00e+00	0	55	0	1363148800	43	3822
2026-01-05 02:03:53.62	36.88	28.36	-40.3	-40.9	21.0	0.00e+00	0	55	0	1368391680	43	3828
2026-01-05 02:03:54.60	37.00	28.53	-40.3	-40.9	21.0	0.00e+00	0	55	0	1373634560	43	3843
2026-01-05 02:03:55.59	37.12	28.69	-40.3	-40.9	21.0	0.00e+00	0	55	0	1379926016	43	3834
2026-01-05 02:03:56.59	37.25	28.86	-40.3	-40.9	21.0	0.00e+00	0	55	0	1385168896	43	3827
2026-01-05 02:03:57.58	37.37	29.03	-40.2	-40.8	21.1	0.00e+00	0	55	0	1390411776	43	3788
2026-01-05 02:03:58.55	37.50	29.19	-40.1	-40.6	21.2	0.00e+00	0	55	0	1395654656	43	3722
2026-01-05 02:03:59.55	37.62	29.36	-40.0	-40.6	21.3	0.00e+00	0	55	0	1401946112	43	3697
2026-01-05 02:04:00.54	37.75	29.54	-39.9	-40.5	21.4	0.00e+00	0	55	0	1407188992	43	3672
2026-01-05 02:04:01.53	37.88	29.71	-39.9	-40.4	21.4	0.00e+00	0	55	0	1413480448	42	3857
2026-01-05 02:04:02.52	38.02	29.88	-39.8	-40.4	21.4	0.00e+00	0	55	0	1418723328	42	3843
2026-01-05 02:04:03.50	38.15	30.05	-39.9	-40.5	21.4	0.00e+00	0	55	0	1423966208	42	3872
2026-01-05 02:04:04.49	38.28	30.22	-40.1	-40.7	21.2	0.00e+00	0	55	0	1429209088	42	3983
2026-01-05 02:04:05.47	38.42	30.40	-40.2	-40.8	21.1	0.00e+00	0	55	0	1435500544	42	4015
2026-01-05 02:04:06.47	38.56	30.57	-40.0	-40.6	21.3	0.00e+00	0	55	0	1440743424	42	3915
2026-01-05 02:04:07.45	38.69	30.75	-40.0	-40.5	21.3	0.00e+00	0	55	0	1445986304	42	3912
2026-01-05 02:04:08.45	38.84	30.93	-40.1	-40.6	21.2	0.00e+00	0	55	0	1452277760	42	3958
2026-01-05 02:04:09.43	38.98	31.11	-40.1	-40.7	21.1	0.00e+00	0	55	0	1457520640	42	3991
2026-01-05 02:04:10.41	39.12	31.28	-40.1	-40.6	21.2	0.00e+00	0	55	0	1462763520	42	3952
2026-01-05 02:04:11.40	39.26	31.46	-40.1	-40.7	21.2	0.00e+00	0	55	0	1468006400	42	3978
2026-01-05 02:04:12.39	39.41	31.64	-40.3	-40.8	21.0	0.00e+00	0	55	0	1474297856	42	4047
2026-01-05 02:04:13.37	39.56	31.82	-40.2	-40.8	21.1	0.00e+00	0	55	0	1479540736	42	4026
2026-01-05 02:04:14.36	39.71	32.01	-39.9	-40.5	21.4	0.00e+00	0	55	0	1484783616	42	3875
2026-01-05 02:04:15.35	39.86	32.19	-39.7	-40.3	21.6	0.00e+00	0	55	0	1491075072	42	3792
2026-01-05 02:04:16.34	40.01	32.38	-39.6	-40.2	21.7	0.00e+00	0	55	0	1496317952	42	3746
2026-01-05 02:04:17.33	40.17	32.56	-39.7	-40.2	21.6	0.00e+00	0	55	0	1501560832	42	3764
2026-01-05 02:04:18.33	40.32	32.75	-39.8	-40.3	21.5	0.00e+00	0	55	0	1507852288	42	3793
2026-01-05 02:04:19.32	40.48	32.94	-39.6	-40.2	21.7	0.00e+00	0	55	0	1513095168	42	3739
2026-01-05 02:04:20.32	40.64	33.13	-39.9	-40.4	21.4	0.00e+00	0	55	0	1518338048	42	3857
2026-01-05 02:04:21.31	40.81	33.32	-40.1	-40.6	21.2	0.00e+00	0	55	0	1523580928	42	3951
2026-01-05 02:04:22.30	40.97	33.51	-39.9	-40.4	21.4	0.00e+00	0	55	0	1529872384	42	3856
2026-01-05 02:04:23.29	41.14	33.70	-39.8	-40.4	21.5	0.00e+00	0	55	0	1535115264	42	3835
2026-01-05 02:04:24.28	41.30	33.89	-39.8	-40.4	21.5	0.00e+00	0	55	0	1541406720	42	3828
2026-01-05 02:04:25.27	41.47	34.09	-39.8	-40.4	21.4	0.00e+00	0	55	0	1546649600	42	3845
2026-01-05 02:04:26.26	41.64	34.28	-39.8	-40.3	21.5	0.00e+00	0	55	0	1551892480	42	3823
2026-01-05 02:04:27.26	41.82	34.48	-39.8	-40.4	21.5	0.00e+00	0	55	0	1557135360	42	3844
2026-01-05 02:04:28.24	41.99	34.67	-39.9	-40.5	21.4	0.00e+00	0	55	0	1563426816	42	3887
2026-01-05 02:04:29.22	42.17	34.87	-39.9	-40.4	21.5	0.00e+00	0	55	0	1568669696	42	3857
2026-01-05 02:04:30.21	42.35	35.07	-40.0	-40.6	21.2	0.00e+00	0	55	0	1573912576	42	3941
2026-01-05 02:04:31.20	42.53	35.27	-39.9	-40.4	21.5	0.00e+00	0	55	0	1580204032	42	3858
2026-01-05 02:04:32.19	42.72	35.47	-39.7	-40.3	21.6	0.00e+00	0	55	0	1585446912	42	3787
2026-01-05 02:04:33.18	42.90	35.67	-39.7	-40.2	21.6	0.00e+00	0	55	0	1590689792	42	3779
2026-01-05 02:04:34.18	43.09	35.87	-39.8	-40.3	21.5	0.00e+00	0	55	0	1596981248	42	3815
2026-01-05 02:04:35.16	43.28	36.07	-39.9	-40.4	21.4	0.00e+00	0	55	0	1602224128	42	3864
2026-01-05 02:04:36.16	43.48	36.28	-39.7	-40.2	21.7	0.00e+00	0	55	0	1607467008	42	3766
2026-01-05 02:04:37.16	43.67	36.48	-39.6	-40.1	21.8	0.00e+00	0	55	0	1613758464	42	3719
2026-01-05 02:04:38.15	43.87	36.69	-39.6	-40.1	21.8	0.00e+00	0	55	0	1619001344	42	3717
2026-01-05 02:04:39.13	44.07	36.89	-39.6	-40.1	21.8	0.00e+00	0	55	0	1624244224	42	3713
2026-01-05 02:04:40.12	44.27	37.10	-39.7	-40.3	21.6	0.00e+00	0	55	0	1630535680	42	3781
2026-01-05 02:04:41.11	44.48	37.31	-39.6	-40.1	21.8	0.00e+00	0	55	0	1635778560	42	3720
2026-01-05 02:04:42.10	44.69	37.52	-39.4	-40.0	21.9	0.00e+00	0	55	0	1641021440	42	3665
2026-01-05 02:04:43.10	44.90	37.73	-39.4	-39.9	22.0	0.00e+00	0	55	0	1646264320	41	3833
2026-01-05 02:04:44.09	45.11	37.94	-39.4	-39.9	21.9	0.00e+00	0	55	0	1652555776	41	3857
2026-01-05 02:04:45.07	45.33	38.15	-39.6	-40.2	21.7	0.00e+00	0	55	0	1657798656	41	3964
2026-01-05 02:04:46.06	45.55	38.37	-39.4	-39.9	21.9	0.00e+00	0	55	0	1663041536	41	3863
2026-01-05 02:04:47.05	45.77	38.58	-39.7	-40.2	21.6	0.00e+00	0	55	0	1669332992	41	3993
2026-01-05 02:04:48.04	45.99	38.80	-39.7	-40.3	21.6	0.00e+00	0	55	0	1674575872	41	4009
2026-01-05 02:04:49.03	46.22	39.01	-39.9	-40.4	21.5	0.00e+00	0	55	0	1679818752	41	4091
2026-01-05 02:04:50.02	46.45	39.23	-39.7	-40.3	21.6	0.00e+00	0	55	0	1686110208	41	4023
2026-01-05 02:04:51.00	46.68	39.44	-39.8	-40.3	21.6	0.00e+00	0	55	0	1691353088	41	4019
2026-01-05 02:04:52.00	46.92	39.66	-39.7	-40.3	21.6	0.00e+00	0	56	0	1696595968	41	4012
2026-01-05 02:04:52.99	47.16	39.88	-39.6	-40.1	21.7	0.00e+00	0	56	0	1702887424	41	3951
2026-01-05 02:04:53.98	47.41	40.10	-39.5	-40.0	21.8	0.00e+00	0	55	0	1708130304	41	3912
2026-01-05 02:04:54.98	47.66	40.33	-39.6	-40.2	21.7	0.00e+00	0	56	0	1713373184	41	3965
2026-01-05 02:04:55.97	47.90	40.55	-39.8	-40.3	21.6	0.00e+00	0	55	0	1719664640	41	4051
2026-01-05 02:04:56.96	48.16	40.77	-39.6	-40.1	21.7	0.00e+00	0	55	0	1724907520	41	3955
2026-01-05 02:04:57.95	48.41	40.99	-39.6	-40.1	21.7	0.00e+00	0	55	0	1730150400	41	3954
2026-01-05 02:04:58.93	48.67	41.22	-39.8	-40.3	21.6	0.00e+00	0	55	0	1735393280	41	4036
2026-01-05 02:04:59.92	48.94	41.44	-39.8	-40.4	21.5	0.00e+00	0	56	0	1741684736	41	4058
2026-01-05 02:05:00.91	49.20	41.67	-39.9	-40.5	21.4	0.00e+00	0	56	0	1746927616	41	4106
2026-01-05 02:05:01.89	49.47	41.89	-39.9	-40.4	21.5	0.00e+00	0	56	0	1752170496	41	4069
2026-01-05 02:05:02.89	49.75	42.12	-39.9	-40.4	21.5	0.00e+00	0	56	0	1758461952	41	4074
2026-01-05 02:05:03.88	50.03	42.35	-40.2	-40.7	21.2	0.00e+00	0	56	0	1763704832	42	3985
2026-01-05 02:05:04.87	50.31	42.57	-40.2	-40.8	21.1	0.00e+00	0	56	0	1768947712	42	4028
2026-01-05 02:05:05.86	50.60	42.80	-40.3	-40.9	21.0	0.00e+00	0	56	0	1774190592	42	4082
2026-01-05 02:05:06.85	50.89	43.03	-40.3	-40.8	21.1	0.00e+00	0	56	0	1780482048	42	4049
2026-01-05 02:05:07.84	51.18	43.26	-40.2	-40.8	21.1	0.00e+00	0	56	0	1785724928	42	4025
2026-01-05 02:05:08.82	51.48	43.49	-40.3	-40.8	21.1	0.00e+00	0	56	0	1792016384	42	4038
2026-01-05 02:05:09.82	51.78	43.72	-40.5	-41.1	20.9	0.00e+00	0	56	0	1797259264	42	4149
2026-01-05 02:05:10.81	52.09	43.96	-40.5	-41.1	20.9	0.00e+00	0	56	0	1802502144	42	4146
2026-01-05 02:05:11.80	52.40	44.19	-40.1	-40.6	21.3	0.00e+00	0	56	0	1807745024	42	3952
2026-01-05 02:05:12.79	52.72	44.42	-39.8	-40.3	21.6	0.00e+00	0	56	0	1814036480	42	3805
2026-01-05 02:05:13.79	53.04	44.66	-39.9	-40.4	21.5	0.00e+00	0	56	0	1819279360	42	3861
2026-01-05 02:05:14.77	53.37	44.89	-40.2	-40.7	21.2	0.00e+00	0	56	0	1824522240	42	4002
2026-01-05 02:05:15.75	53.69	45.12	-40.4	-41.0	20.9	0.00e+00	0	56	0	1830813696	42	4142
2026-01-05 02:05:16.74	54.03	45.35	-40.4	-41.0	20.9	0.00e+00	0	56	0	1836056576	42	4137
2026-01-05 02:05:17.73	54.37	45.59	-40.3	-40.8	21.1	0.00e+00	0	56	0	1841299456	42	4033
2026-01-05 02:05:18.72	54.72	45.82	-40.2	-40.7	21.2	0.00e+00	0	56	0	1847590912	42	3997
2026-01-05 02:05:19.71	55.07	46.06	-40.4	-41.0	21.0	0.00e+00	0	56	0	1852833792	42	4099
2026-01-05 02:05:20.70	55.42	46.29	-40.3	-40.9	21.1	0.00e+00	0	56	0	1858076672	42	4060
2026-01-05 02:05:21.69	55.78	46.53	-40.1	-40.7	21.3	0.00e+00	0	55	0	1864368128	42	3968
2026-01-05 02:05:22.67	56.14	46.76	-40.1	-40.6	21.3	0.00e+00	0	56	0	1869611008	42	3936
2026-01-05 02:05:23.66	56.52	47.00	-40.2	-40.8	21.2	0.00e+00	0	56	0	1874853888	42	4021
2026-01-05 02:05:24.65	56.89	47.23	-40.4	-41.0	21.0	0.00e+00	0	56	0	1880096768	42	4124
2026-01-05 02:05:25.65	57.28	47.47	-40.3	-40.9	21.0	0.00e+00	0	56	0	1886388224	42	4087
2026-01-05 02:05:26.64	57.67	47.71	-40.1	-40.7	21.3	0.00e+00	0	56	0	1891631104	42	3964
2026-01-05 02:05:27.63	58.06	47.94	-40.2	-40.7	21.2	0.00e+00	0	56	0	1896873984	42	4004
2026-01-05 02:05:28.61	58.46	48.17	-40.2	-40.8	21.2	0.00e+00	0	56	0	1903165440	42	4023
2026-01-05 02:05:29.59	58.86	48.41	-40.2	-40.7	21.2	0.00e+00	0	56	0	1908408320	42	3986
2026-01-05 02:05:30.59	59.28	48.64	-40.2	-40.8	21.2	0.00e+00	0	56	0	1913651200	42	4020
2026-01-05 02:05:31.57	59.70	48.88	-40.5	-41.1	20.9	0.00e+00	0	56	0	1919942656	42	4168
2026-01-05 02:05:32.57	60.12	49.11	-40.5	-41.1	20.9	0.00e+00	0	56	0	1925185536	43	3940
2026-01-05 02:05:33.56	60.56	49.35	-40.2	-40.8	21.2	0.00e+00	0	56	0	1930428416	43	3795
2026-01-05 02:05:34.55	61.00	49.58	-40.2	-40.7	21.2	0.00e+00	0	56	0	1935671296	43	3764
2026-01-05 02:05:35.54	61.44	49.81	-40.2	-40.8	21.2	0.00e+00	0	56	0	1941962752	43	3785
2026-01-05 02:05:36.53	61.89	50.04	-40.4	-40.9	21.1	0.00e+00	0	56	0	1947205632	43	3849
2026-01-05 02:05:37.52	62.35	50.28	-40.8	-41.4	20.6	0.00e+00	0	56	0	1953497088	43	4084
2026-01-05 02:05:38.51	62.82	50.51	-41.1	-41.8	20.3	0.00e+00	0	56	0	1958739968	44	4028
2026-01-05 02:05:39.50	63.29	50.74	-40.8	-41.5	20.6	0.00e+00	0	56	0	1963982848	44	3873
2026-01-05 02:05:40.49	63.77	50.96	-40.7	-41.3	20.8	0.00e+00	0	56	0	1969225728	44	3806
2026-01-05 02:05:41.48	64.26	51.19	-40.8	-41.4	20.8	0.00e+00	0	56	0	1975517184	44	3826
2026-01-05 02:05:42.47	64.75	51.42	-40.6	-41.2	20.9	0.00e+00	0	56	0	1980760064	44	3759
2026-01-05 02:05:43.46	65.26	51.64	-40.4	-40.9	21.2	0.00e+00	0	56	0	1986002944	44	3644
2026-01-05 02:05:44.44	65.76	51.87	-40.3	-40.9	21.1	0.00e+00	0	56	0	1992294400	43	3830
2026-01-05 02:05:45.44	66.28	52.09	-40.5	-41.0	21.0	0.00e+00	0	56	0	1997537280	43	3909
2026-01-05 02:05:46.43	66.81	52.31	-40.6	-41.2	20.8	0.00e+00	0	56	0	2002780160	43	3973
2026-01-05 02:05:47.42	67.34	52.53	-40.2	-40.8	21.1	0.00e+00	0	56	0	2009071616	43	3813
2026-01-05 02:05:48.40	67.88	52.75	-40.1	-40.6	21.4	0.00e+00	0	56	0	2014314496	43	3727
2026-01-05 02:05:49.39	68.43	52.97	-40.5	-41.0	20.9	0.00e+00	0	56	0	2019557376	43	3904
2026-01-05 02:05:50.38	68.98	53.18	-41.0	-41.6	20.4	0.00e+00	0	56	0	2024800256	43	4188
2026-01-05 02:05:51.37	69.55	53.40	-41.3	-42.0	20.2	0.00e+00	0	56	0	2031091712	44	4102
2026-01-05 02:05:52.37	70.13	53.61	-41.5	-42.1	20.0	0.00e+00	0	56	0	2036334592	44	4187
2026-01-05 02:05:53.35	70.70	53.82	-41.5	-42.1	20.0	0.00e+00	0	56	0	2041577472	44	4186
2026-01-05 02:05:54.34	71.30	54.03	-41.4	-42.0	20.1	0.00e+00	0	56	0	2047868928	44	4115
2026-01-05 02:05:55.32	71.89	54.23	-41.3	-41.9	20.2	0.00e+00	0	56	0	2053111808	44	4073
2026-01-05 02:05:56.31	72.50	54.43	-41.5	-42.2	20.0	0.00e+00	0	56	0	2058354688	44	4203
2026-01-05 02:05:57.30	73.11	54.63	-41.5	-42.1	20.0	0.00e+00	0	56	0	2063597568	44	4176
2026-01-05 02:05:58.30	73.74	54.83	-41.5	-42.1	20.0	0.00e+00	0	56	0	2069889024	44	4177
2026-01-05 02:05:59.28	74.37	55.03	-41.6	-42.2	19.9	0.00e+00	0	56	0	2075131904	45	3982
2026-01-05 02:06:00.28	75.02	55.22	-41.1	-41.7	20.4	0.00e+00	0	56	0	2081423360	45	3753
2026-01-05 02:06:01.27	75.67	55.41	-41.2	-41.8	20.3	0.00e+00	0	56	0	2086666240	45	3810
2026-01-05 02:06:02.26	76.33	55.60	-41.6	-42.3	19.9	0.00e+00	0	56	0	2091909120	45	4006
2026-01-05 02:06:03.24	76.99	55.78	-41.6	-42.3	19.9	0.00e+00	0	56	0	2097152000	45	4011
2026-01-05 02:06:04.24	77.67	55.96	-41.5	-42.1	20.0	0.00e+00	0	56	0	2103443456	45	3948
2026-01-05 02:06:05.22	78.35	56.14	-41.6	-42.3	19.8	0.00e+00	0	56	0	2108686336	45	4038
2026-01-05 02:06:06.21	79.05	56.31	-41.7	-42.4	19.8	0.00e+00	0	56	0	2113929216	45	4058
2026-01-05 02:06:07.21	79.75	56.48	-41.4	-42.1	20.1	0.00e+00	0	56	0	2120220672	45	3918
2026-01-05 02:06:08.19	80.46	56.65	-41.3	-42.0	20.1	0.00e+00	0	56	0	2125463552	45	3872
2026-01-05 02:06:09.18	81.18	56.81	-41.5	-42.1	20.0	0.00e+00	0	56	0	2130706432	45	3949
2026-01-05 02:06:10.17	81.91	56.97	-41.2	-41.9	20.3	0.00e+00	0	56	0	2136997888	45	3825
2026-01-05 02:06:11.16	82.64	57.13	-40.9	-41.5	20.6	0.00e+00	0	56	0	2142240768	45	3676
2026-01-05 02:06:12.15	83.39	57.28	-41.6	-42.2	19.9	0.00e+00	0	56	0	2147483648	45	3985
2026-01-05 02:06:13.14	84.14	57.42	-41.4	-42.0	20.1	0.00e+00	0	56	0	2153775104	45	3906
2026-01-05 02:06:14.13	84.90	57.57	-41.5	-42.2	20.0	0.00e+00	0	56	0	2159017984	45	3965
2026-01-05 02:06:15.11	85.66	57.70	-42.1	-42.8	19.4	0.00e+00	0	56	0	2164260864	46	4007
2026-01-05 02:06:16.11	86.45	57.84	-41.5	-42.1	20.0	0.00e+00	0	56	0	2169503744	46	3737
2026-01-05 02:06:17.10	87.23	57.97	-40.8	-41.4	20.7	0.00e+00	0	56	0	2175795200	44	3866
2026-01-05 02:06:18.09	88.02	58.09	-40.6	-41.2	21.0	0.00e+00	0	56	0	2181038080	44	3741
2026-01-05 02:06:19.08	88.82	58.21	-40.5	-41.1	21.0	0.00e+00	0	56	0	2186280960	44	3699
2026-01-05 02:06:20.07	89.63	58.33	-40.7	-41.2	20.9	0.00e+00	0	56	0	2192572416	44	3769
2026-01-05 02:06:21.05	90.43	58.44	-40.5	-41.1	21.0	0.00e+00	0	56	0	2197815296	44	3703
2026-01-05 02:06:22.04	91.25	58.54	-40.8	-41.4	20.7	0.00e+00	0	56	0	2203058176	44	3833
2026-01-05 02:06:23.03	92.08	58.64	-40.4	-41.0	21.1	0.00e+00	0	56	0	2209349632	44	3656
2026-01-05 02:06:24.03	92.92	58.73	-40.1	-40.7	21.3	0.00e+00	0	56	0	2214592512	43	3747
2026-01-05 02:06:25.02	93.76	58.82	-40.4	-41.0	20.9	0.00e+00	0	56	0	2219835392	43	3898
2026-01-05 02:06:26.01	94.60	58.91	-40.5	-41.1	20.9	0.00e+00	0	56	0	2225078272	43	3920
2026-01-05 02:06:27.00	95.45	58.98	-40.5	-41.1	20.9	0.00e+00	0	56	0	2231369728	43	3925
2026-01-05 02:06:27.99	96.30	59.05	-40.4	-41.0	21.0	0.00e+00	0	56	0	2236612608	43	3883
2026-01-05 02:06:28.98	97.16	59.12	-40.7	-41.3	20.7	0.00e+00	0	56	0	2242904064	43	4015
2026-01-05 02:06:29.97	98.02	59.18	-40.6	-41.2	20.8	0.00e+00	0	56	0	2248146944	43	3987
2026-01-05 02:06:30.96	98.88	59.24	-40.2	-40.7	21.2	0.00e+00	0	56	0	2253389824	43	3758
2026-01-05 02:06:31.95	99.75	59.28	-40.2	-40.7	21.2	0.00e+00	0	56	0	2258632704	43	3777
2026-01-05 02:06:32.94	100.62	59.33	-40.8	-41.4	20.6	0.00e+00	0	56	0	2264924160	43	4078
2026-01-05 02:06:33.92	101.49	59.36	-40.5	-41.1	20.8	0.00e+00	0	57	0	2270167040	43	3944
2026-01-05 02:06:34.91	102.36	59.39	-40.5	-41.1	20.9	0.00e+00	0	56	0	2275409920	43	3920
2026-01-05 02:06:35.90	103.24	59.42	-40.7	-41.3	20.7	0.00e+00	0	56	0	2281701376	43	4046
2026-01-05 02:06:36.88	104.11	59.44	-40.8	-41.4	20.5	0.00e+00	0	56	0	2286944256	43	4089
2026-01-05 02:06:37.86	104.99	59.45	-41.0	-41.7	20.3	0.00e+00	0	56	0	2292187136	43	4217
2026-01-05 02:06:38.85	105.87	59.46	-40.8	-41.4	20.7	0.00e+00	0	56	0	2297430016	44	3856
2026-01-05 02:06:39.84	106.75	59.46	-40.6	-41.2	20.9	0.00e+00	0	56	0	2303721472	44	3772
2026-01-05 02:06:40.83	107.63	59.45	-40.4	-41.0	21.1	0.00e+00	0	56	0	2308964352	44	3671
2026-01-05 02:06:41.81	108.50	59.44	-40.1	-40.6	21.3	0.00e+00	0	56	0	2314207232	43	3735
2026-01-05 02:06:42.80	109.38	59.42	-40.2	-40.8	21.2	0.00e+00	0	56	0	2320498688	43	3800
2026-01-05 02:06:43.79	110.26	59.40	-40.2	-40.8	21.2	0.00e+00	0	56	0	2325741568	43	3793
2026-01-05 02:06:44.78	111.14	59.37	-40.3	-40.9	21.1	0.00e+00	0	56	0	2330984448	43	3826
2026-01-05 02:06:45.76	112.00	59.33	-40.3	-40.9	21.1	0.00e+00	0	56	0	2336227328	43	3831
2026-01-05 02:06:46.75	112.88	59.29	-40.4	-40.9	21.0	0.00e+00	0	56	0	2342518784	43	3867
2026-01-05 02:06:47.73	113.74	59.25	-40.4	-41.0	21.0	0.00e+00	0	56	0	2347761664	43	3893
2026-01-05 02:06:48.71	114.60	59.19	-40.6	-41.2	20.8	0.00e+00	0	56	0	2353004544	43	3985
2026-01-05 02:06:49.71	115.47	59.13	-40.4	-41.0	21.0	0.00e+00	0	56	0	2359296000	43	3891
2026-01-05 02:06:50.69	116.32	59.07	-40.3	-40.8	21.1	0.00e+00	0	56	0	2364538880	43	3817
2026-01-05 02:06:51.68	117.17	59.00	-40.5	-41.1	20.9	0.00e+00	0	57	0	2369781760	43	3946
2026-01-05 02:06:52.67	118.02	58.92	-40.8	-41.4	20.5	0.00e+00	0	56	0	2376073216	43	4094
2026-01-05 02:06:53.66	118.86	58.84	-40.9	-41.5	20.5	0.00e+00	0	56	0	2381316096	43	4125
2026-01-05 02:06:54.64	119.69	58.75	-41.0	-41.6	20.4	0.00e+00	0	56	0	2386558976	43	4168
2026-01-05 02:06:55.63	120.53	58.66	-41.2	-41.8	20.3	0.00e+00	0	56	0	2391801856	44	4039
2026-01-05 02:06:56.61	121.35	58.56	-41.1	-41.7	20.5	0.00e+00	0	56	0	2398093312	44	3970
2026-01-05 02:06:57.60	122.17	58.46	-40.9	-41.5	20.6	0.00e+00	0	56	0	2403336192	44	3885
2026-01-05 02:06:58.59	122.98	58.35	-40.8	-41.3	20.8	0.00e+00	0	56	0	2408579072	44	3814
2026-01-05 02:06:59.57	123.78	58.24	-40.8	-41.4	20.8	0.00e+00	0	57	0	2414870528	44	3833
2026-01-05 02:07:00.56	124.59	58.12	-40.9	-41.5	20.6	0.00e+00	0	56	0	2420113408	44	3907
2026-01-05 02:07:01.54	125.37	58.00	-41.0	-41.5	20.6	0.00e+00	0	56	0	2425356288	44	3911
2026-01-05 02:07:02.53	126.16	57.87	-41.5	-42.1	20.1	0.00e+00	0	56	0	2431647744	44	4164
2026-01-05 02:07:03.53	126.95	57.74	-42.2	-43.0	19.3	0.00e+00	0	56	0	2436890624	46	4101
2026-01-05 02:07:04.51	127.71	57.60	-42.3	-43.0	19.1	0.00e+00	0	56	0	2442133504	46	4142
2026-01-05 02:07:05.50	128.47	57.46	-42.0	-42.7	19.5	0.00e+00	0	57	0	2447376384	46	3970
2026-01-05 02:07:06.50	129.24	57.31	-42.0	-42.7	19.5	0.00e+00	0	57	0	2453667840	46	3977
2026-01-05 02:07:07.49	129.98	57.16	-42.2	-42.9	19.3	0.00e+00	0	56	0	2458910720	46	4072
2026-01-05 02:07:08.49	130.73	57.01	-42.5	-43.3	18.9	0.00e+00	0	56	0	2464153600	46	4253
2026-01-05 02:07:09.47	131.46	56.85	-42.5	-43.3	19.0	0.00e+00	0	56	0	2470445056	47	4008
2026-01-05 02:07:10.46	132.18	56.69	-41.8	-42.4	19.8	0.00e+00	0	56	0	2475687936	46	3852
2026-01-05 02:07:11.46	132.90	56.52	-41.5	-42.1	20.1	0.00e+00	0	56	0	2480930816	46	3722
2026-01-05 02:07:12.44	133.60	56.35	-41.9	-42.6	19.6	0.00e+00	0	56	0	2487222272	46	3929
2026-01-05 02:07:13.44	134.30	56.17	-42.1	-42.8	19.4	0.00e+00	0	56	0	2492465152	46	4040
2026-01-05 02:07:14.42	134.98	56.00	-41.6	-42.2	19.9	0.00e+00	0	56	0	2497708032	46	3773
2026-01-05 02:07:15.40	135.66	55.82	-41.4	-42.0	20.2	0.00e+00	0	56	0	2502950912	45	3889
2026-01-05 02:07:16.39	136.33	55.64	-41.4	-42.0	20.1	0.00e+00	0	57	0	2509242368	45	3906
2026-01-05 02:07:17.38	136.99	55.45	-41.5	-42.2	20.0	0.00e+00	0	56	0	2514485248	45	3963
2026-01-05 02:07:18.36	137.64	55.26	-41.6	-42.2	19.9	0.00e+00	0	56	0	2519728128	45	3984
2026-01-05 02:07:19.35	138.28	55.07	-41.2	-41.8	20.4	0.00e+00	0	56	0	2526019584	45	3798
2026-01-05 02:07:20.33	138.91	54.88	-40.8	-41.4	20.7	0.00e+00	0	56	0	2531262464	44	3860
2026-01-05 02:07:21.33	139.55	54.68	-41.1	-41.7	20.4	0.00e+00	0	56	0	2536505344	44	3992
2026-01-05 02:07:22.32	140.16	54.48	-41.3	-41.9	20.3	0.00e+00	0	56	0	2542796800	44	4072
2026-01-05 02:07:23.31	140.78	54.27	-41.0	-41.6	20.5	0.00e+00	0	57	0	2548039680	44	3934
2026-01-05 02:07:24.31	141.38	54.07	-41.2	-41.8	20.4	0.00e+00	0	56	0	2553282560	44	4008
2026-01-05 02:07:25.29	141.97	53.86	-41.5	-42.1	20.0	0.00e+00	0	56	0	2559574016	45	3946
2026-01-05 02:07:26.29	142.56	53.65	-41.4	-42.0	20.1	0.00e+00	0	56	0	2564816896	45	3897
2026-01-05 02:07:27.27	143.13	53.44	-41.7	-42.4	19.8	0.00e+00	0	56	0	2570059776	45	4077
2026-01-05 02:07:28.26	143.70	53.23	-41.4	-42.1	20.1	0.00e+00	0	56	0	2575302656	45	3939
2026-01-05 02:07:29.24	144.26	53.01	-41.1	-41.7	20.4	0.00e+00	0	56	0	2581594112	45	3774
2026-01-05 02:07:30.23	144.81	52.80	-40.9	-41.5	20.7	0.00e+00	0	56	0	2586836992	45	3663
2026-01-05 02:07:31.22	145.35	52.58	-40.9	-41.5	20.6	0.00e+00	0	56	0	2592079872	44	3901
2026-01-05 02:07:32.21	145.89	52.36	-41.2	-41.8	20.3	0.00e+00	0	56	0	2598371328	44	4042
2026-01-05 02:07:33.19	146.41	52.14	-41.1	-41.7	20.4	0.00e+00	0	56	0	2603614208	44	3994
2026-01-05 02:07:34.18	146.93	51.91	-41.1	-41.8	20.3	0.00e+00	0	57	0	2608857088	44	4018
2026-01-05 02:07:35.17	147.44	51.69	-41.2	-41.8	20.3	0.00e+00	0	57	0	2615148544	44	4040
2026-01-05 02:07:36.16	147.95	51.46	-40.8	-41.3	20.7	0.00e+00	0	56	0	2620391424	44	3824
2026-01-05 02:07:37.15	148.45	51.23	-40.5	-41.1	21.0	0.00e+00	0	56	0	2625634304	44	3705
2026-01-05 02:07:38.14	148.94	51.01	-40.5	-41.0	21.1	0.00e+00	0	56	0	2630877184	44	3677
2026-01-05 02:07:39.13	149.42	50.78	-40.6	-41.2	20.9	0.00e+00	0	56	0	2637168640	44	3752
2026-01-05 02:07:40.11	149.89	50.55	-40.6	-41.2	20.9	0.00e+00	0	56	0	2642411520	44	3767
2026-01-05 02:07:41.11	150.36	50.32	-40.6	-41.1	21.0	0.00e+00	0	57	0	2647654400	44	3736
2026-01-05 02:07:42.10	150.82	50.08	-40.6	-41.2	20.9	0.00e+00	0	56	0	2653945856	44	3753
2026-01-05 02:07:43.09	151.28	49.85	-40.8	-41.4	20.7	0.00e+00	0	56	0	2659188736	44	3854
2026-01-05 02:07:44.08	151.73	49.62	-41.1	-41.8	20.4	0.00e+00	0	56	0	2664431616	44	4005
2026-01-05 02:07:45.06	152.16	49.39	-40.6	-41.2	21.0	0.00e+00	0	57	0	2669674496	44	3740
2026-01-05 02:07:46.05	152.60	49.15	-40.7	-41.3	20.8	0.00e+00	0	57	0	2675965952	44	3788
2026-01-05 02:07:47.04	153.02	48.92	-41.1	-41.7	20.5	0.00e+00	0	56	0	2681208832	44	3969
2026-01-05 02:07:48.03	153.45	48.68	-40.9	-41.6	20.6	0.00e+00	0	57	0	2687500288	44	3924
2026-01-05 02:07:49.01	153.86	48.45	-41.1	-41.7	20.4	0.00e+00	0	57	0	2692743168	44	3977
2026-01-05 02:07:50.00	154.27	48.21	-40.6	-41.2	20.9	0.00e+00	0	57	0	2697986048	44	3750
2026-01-05 02:07:50.98	154.66	47.98	-40.1	-40.7	21.3	0.00e+00	0	56	0	2703228928	43	3745
2026-01-05 02:07:51.97	155.06	47.74	-40.1	-40.6	21.3	0.00e+00	0	56	0	2709520384	43	3736
2026-01-05 02:07:52.96	155.45	47.51	-40.3	-40.8	21.1	0.00e+00	0	57	0	2714763264	43	3824
2026-01-05 02:07:53.94	155.83	47.27	-40.2	-40.8	21.2	0.00e+00	0	56	0	2720006144	43	3797
2026-01-05 02:07:54.93	156.21	47.04	-40.8	-41.3	20.6	0.00e+00	0	56	0	2726297600	43	4042
2026-01-05 02:07:55.92	156.59	46.80	-40.5	-41.1	20.9	0.00e+00	0	57	0	2731540480	43	3920
2026-01-05 02:07:56.91	156.96	46.56	-40.3	-40.9	21.1	0.00e+00	0	57	0	2736783360	43	3857
2026-01-05 02:07:57.90	157.32	46.33	-40.1	-40.7	21.3	0.00e+00	0	57	0	2742026240	43	3747
2026-01-05 02:07:58.88	157.67	46.09	-39.9	-40.5	21.5	0.00e+00	0	57	0	2748317696	43	3671
2026-01-05 02:07:59.86	158.02	45.86	-39.9	-40.4	21.5	0.00e+00	0	56	0	2753560576	42	3855
2026-01-05 02:08:00.84	158.37	45.63	-39.8	-40.3	21.6	0.00e+00	0	57	0	2758803456	42	3813
2026-01-05 02:08:01.83	158.71	45.39	-39.9	-40.5	21.5	0.00e+00	0	57	0	2765094912	42	3875
2026-01-05 02:08:02.82	159.04	45.16	-39.8	-40.4	21.5	0.00e+00	0	57	0	2770337792	42	3838
2026-01-05 02:08:03.82	159.38	44.92	-39.9	-40.5	21.5	0.00e+00	0	57	0	2775580672	42	3871
2026-01-05 02:08:04.81	159.71	44.68	-40.1	-40.7	21.3	0.00e+00	0	57	0	2780823552	42	3968
2026-01-05 02:08:05.80	160.03	44.45	-40.0	-40.6	21.4	0.00e+00	0	56	0	2787115008	42	3940
2026-01-05 02:08:06.79	160.35	44.22	-39.9	-40.5	21.5	0.00e+00	0	57	0	2792357888	42	3886
2026-01-05 02:08:07.78	160.66	43.98	-40.0	-40.5	21.4	0.00e+00	0	57	0	2798649344	42	3899
2026-01-05 02:08:08.78	160.98	43.75	-40.2	-40.7	21.3	0.00e+00	0	57	0	2803892224	42	3995
2026-01-05 02:08:09.76	161.28	43.52	-40.1	-40.7	21.3	0.00e+00	0	56	0	2809135104	42	3981
2026-01-05 02:08:10.76	161.58	43.28	-40.1	-40.7	21.3	0.00e+00	0	56	0	2814377984	42	3974
2026-01-05 02:08:11.75	161.88	43.05	-40.2	-40.8	21.2	0.00e+00	0	57	0	2820669440	42	4009
2026-01-05 02:08:12.75	162.17	42.82	-40.4	-41.0	21.0	0.00e+00	0	56	0	2825912320	42	4120
2026-01-05 02:08:13.74	162.46	42.59	-40.2	-40.8	21.1	0.00e+00	0	57	0	2831155200	42	4024
2026-01-05 02:08:14.72	162.74	42.36	-40.3	-40.8	21.1	0.00e+00	0	57	0	2837446656	42	4039
2026-01-05 02:08:15.70	163.02	42.14	-40.6	-41.1	20.8	0.00e+00	0	57	0	2842689536	42	4187
2026-01-05 02:08:16.69	163.29	41.91	-40.6	-41.2	20.8	0.00e+00	0	57	0	2847932416	43	3964
2026-01-05 02:08:17.69	163.57	41.68	-40.4	-41.0	20.9	0.00e+00	0	57	0	2854223872	43	3906
2026-01-05 02:08:18.67	163.84	41.46	-40.5	-41.0	20.9	0.00e+00	0	57	0	2859466752	43	3906
2026-01-05 02:08:19.66	164.10	41.23	-40.6	-41.2	20.8	0.00e+00	0	57	0	2864709632	43	3960
2026-01-05 02:08:20.65	164.36	41.00	-40.8	-41.4	20.6	0.00e+00	0	57	0	2869952512	43	4069
2026-01-05 02:08:21.64	164.62	40.78	-40.6	-41.2	20.7	0.00e+00	0	57	0	2876243968	43	3999
2026-01-05 02:08:22.62	164.87	40.56	-40.3	-40.9	21.1	0.00e+00	0	57	0	2881486848	43	3833
2026-01-05 02:08:23.60	165.12	40.34	-40.1	-40.6	21.3	0.00e+00	0	57	0	2886729728	43	3737
2026-01-05 02:08:24.59	165.37	40.12	-40.0	-40.6	21.3	0.00e+00	0	57	0	2893021184	43	3706
2026-01-05 02:08:25.58	165.61	39.90	-40.0	-40.6	21.4	0.00e+00	0	57	0	2898264064	43	3706
2026-01-05 02:08:26.56	165.85	39.68	-40.1	-40.6	21.3	0.00e+00	0	57	0	2903506944	43	3726
2026-01-05 02:08:27.55	166.09	39.46	-40.1	-40.6	21.3	0.00e+00	0	56	0	2908749824	43	3726
2026-01-05 02:08:28.54	166.32	39.24	-39.9	-40.5	21.5	0.00e+00	0	56	0	2915041280	43	3672
2026-01-05 02:08:29.53	166.55	39.02	-39.8	-40.4	21.6	0.00e+00	0	57	0	2920284160	42	3830
2026-01-05 02:08:30.52	166.78	38.80	-39.8	-40.4	21.6	0.00e+00	0	56	0	2926575616	42	3828
2026-01-05 02:08:31.50	167.01	38.59	-39.7	-40.2	21.7	0.00e+00	0	56	0	2931818496	42	3779
2026-01-05 02:08:32.49	167.23	38.38	-39.7	-40.2	21.7	0.00e+00	0	57	0	2937061376	42	3753
2026-01-05 02:08:33.48	167.45	38.16	-39.8	-40.3	21.6	0.00e+00	0	57	0	2942304256	42	3807
2026-01-05 02:08:34.46	167.67	37.95	-39.8	-40.3	21.6	0.00e+00	0	57	0	2947547136	42	3824
2026-01-05 02:08:35.45	167.88	37.74	-39.5	-40.0	21.8	0.00e+00	0	57	0	2953838592	42	3689
2026-01-05 02:08:36.44	168.09	37.53	-39.4	-39.9	22.0	0.00e+00	0	57	0	2959081472	42	3629
2026-01-05 02:08:37.43	168.30	37.32	-39.4	-39.9	22.0	0.00e+00	0	57	0	2965372928	41	3842
2026-01-05 02:08:38.42	168.51	37.11	-39.6	-40.1	21.8	0.00e+00	0	57	0	2970615808	41	3946
2026-01-05 02:08:39.41	168.71	36.90	-39.8	-40.3	21.6	0.00e+00	0	57	0	2975858688	41	4040
2026-01-05 02:08:40.39	168.91	36.69	-39.8	-40.4	21.5	0.00e+00	0	56	0	2981101568	41	4061
2026-01-05 02:08:41.38	169.11	36.48	-39.9	-40.5	21.4	0.00e+00	0	57	0	2987393024	41	4111
2026-01-05 02:08:42.36	169.30	36.28	-40.1	-40.7	21.2	0.00e+00	0	57	0	2992635904	41	4196
2026-01-05 02:08:43.35	169.50	36.08	-40.3	-40.9	21.1	0.00e+00	0	57	0	2997878784	42	4061
2026-01-05 02:08:44.34	169.69	35.87	-40.2	-40.8	21.2	0.00e+00	0	56	0	3004170240	42	4006
2026-01-05 02:08:45.33	169.88	35.67	-40.3	-40.9	21.0	0.00e+00	0	57	0	3009413120	42	4086
2026-01-05 02:08:46.32	170.07	35.47	-40.2	-40.8	21.1	0.00e+00	0	57	0	3014656000	42	4034
2026-01-05 02:08:47.31	170.25	35.27	-40.2	-40.7	21.2	0.00e+00	0	57	0	3019898880	42	3990
2026-01-05 02:08:48.30	170.44	35.06	-40.2	-40.8	21.2	0.00e+00	0	57	0	3026190336	42	4011
2026-01-05 02:08:49.30	170.62	34.86	-40.3	-40.9	21.0	0.00e+00	0	56	0	3031433216	42	4084
2026-01-05 02:08:50.29	170.80	34.67	-40.5	-41.1	20.9	0.00e+00	0	57	0	3037724672	42	4163
2026-01-05 02:08:51.28	170.97	34.47	-40.2	-40.8	21.2	0.00e+00	0	57	0	3042967552	42	4006
2026-01-05 02:08:52.27	171.15	34.27	-40.0	-40.6	21.3	0.00e+00	0	57	0	3048210432	42	3914
2026-01-05 02:08:53.26	171.32	34.08	-39.9	-40.5	21.4	0.00e+00	0	57	0	3053453312	42	3875
2026-01-05 02:08:54.25	171.49	33.88	-40.0	-40.6	21.1	0.00e+00	0	56	0	3059744768	42	3930
2026-01-05 02:08:55.24	171.66	33.69	-40.2	-40.8	20.9	0.00e+00	0	57	0	3064987648	42	4037
2026-01-05 02:08:56.23	171.82	33.50	-39.9	-40.5	21.1	0.00e+00	0	57	0	3070230528	42	3911
2026-01-05 02:08:57.22	171.99	33.30	-39.7	-40.3	21.3	0.00e+00	0	57	0	3076521984	42	3807
2026-01-05 02:08:58.22	172.15	33.11	-39.6	-40.2	21.4	0.00e+00	0	57	0	3081764864	42	3775
2026-01-05 02:08:59.21	172.31	32.92	-39.6	-40.2	21.4	0.00e+00	0	57	0	3087007744	42	3776
2026-01-05 02:09:00.19	172.47	32.73	-39.8	-40.4	21.3	0.00e+00	0	57	0	3093299200	42	3846
2026-01-05 02:09:01.19	172.63	32.54	-40.0	-40.6	21.0	0.00e+00	0	57	0	3098542080	42	3958
2026-01-05 02:09:02.17	172.78	32.36	-39.9	-40.5	21.2	0.00e+00	0	57	0	3103784960	42	3889
2026-01-05 02:09:03.16	172.94	32.17	-40.1	-40.7	20.9	0.00e+00	0	57	0	3109027840	42	4001
2026-01-05 02:09:04.15	173.09	31.99	-39.9	-40.5	21.1	0.00e+00	0	57	0	3115319296	42	3900
2026-01-05 02:09:05.14	173.24	31.80	-39.8	-40.4	21.3	0.00e+00	0	57	0	3120562176	42	3837
2026-01-05 02:09:06.12	173.39	31.62	-39.7	-40.4	21.3	0.00e+00	0	57	0	3126853632	42	3829
2026-01-05 02:09:07.12	173.53	31.44	-39.9	-40.5	21.2	0.00e+00	0	57	0	3132096512	42	3888
2026-01-05 02:09:08.10	173.68	31.26	-39.7	-40.3	21.3	0.00e+00	0	57	0	3137339392	42	3816
2026-01-05 02:09:09.09	173.82	31.08	-39.9	-40.6	21.1	0.00e+00	0	57	0	3142582272	42	3923
2026-01-05 02:09:10.08	173.97	30.90	-40.3	-40.9	20.8	0.00e+00	0	57	0	3148873728	42	4072
2026-01-05 02:09:11.07	174.11	30.72	-39.9	-40.5	21.1	0.00e+00	0	57	0	3154116608	42	3912
2026-01-05 02:09:12.06	174.25	30.54	-39.8	-40.4	21.3	0.00e+00	0	57	0	3159359488	42	3829
2026-01-05 02:09:13.05	174.38	30.37	-39.7	-40.3	21.3	0.00e+00	0	57	0	3165650944	42	3806
2026-01-05 02:09:14.03	174.52	30.19	-39.7	-40.3	21.3	0.00e+00	0	57	0	3170893824	42	3815
2026-01-05 02:09:15.02	174.65	30.02	-39.7	-40.3	21.3	0.00e+00	0	57	0	3176136704	42	3820
2026-01-05 02:09:16.00	174.79	29.85	-39.7	-40.3	21.3	0.00e+00	0	57	0	3181379584	42	3810
2026-01-05 02:09:16.99	174.92	29.67	-39.9	-40.5	21.2	0.00e+00	0	56	0	3187671040	42	3897
2026-01-05 02:09:17.98	175.05	29.50	-39.8	-40.4	21.2	0.00e+00	0	57	0	3192913920	42	3848
2026-01-05 02:09:18.97	175.18	29.33	-39.9	-40.6	21.1	0.00e+00	0	57	0	3198156800	42	3918
2026-01-05 02:09:19.95	175.31	29.16	-40.3	-40.9	20.8	0.00e+00	0	57	0	3204448256	42	4079
2026-01-05 02:09:20.94	175.43	28.99	-40.1	-40.7	20.9	0.00e+00	0	57	0	3209691136	42	4003
2026-01-05 02:09:21.93	175.56	28.82	-40.0	-40.6	21.1	0.00e+00	0	57	0	3214934016	42	3928
2026-01-05 02:09:22.91	175.68	28.66	-39.9	-40.6	21.1	0.00e+00	0	57	0	3220176896	42	3927
2026-01-05 02:09:23.90	175.80	28.49	-40.0	-40.6	21.0	0.00e+00	0	57	0	3226468352	42	3955
2026-01-05 02:09:24.89	175.93	28.32	-40.1	-40.8	20.9	0.00e+00	0	57	0	3231711232	42	4018
2026-01-05 02:09:25.88	176.05	28.16	-40.0	-40.7	21.0	0.00e+00	0	57	0	3236954112	42	3971
2026-01-05 02:09:26.87	176.17	27.99	-40.1	-40.7	21.0	0.00e+00	0	57	0	3243245568	42	3984
2026-01-05 02:09:27.86	176.29	27.83	-40.2	-40.8	20.8	0.00e+00	0	57	0	3248488448	42	4045
2026-01-05 02:09:28.84	176.40	27.67	-40.4	-41.0	20.7	0.00e+00	0	57	0	3253731328	42	4134
2026-01-05 02:09:29.83	176.52	27.51	-40.2	-40.8	20.9	0.00e+00	0	57	0	3260022784	42	4020
2026-01-05 02:09:30.82	176.63	27.35	-40.1	-40.7	20.9	0.00e+00	0	57	0	3265265664	42	4003
2026-01-05 02:09:31.81	176.75	27.19	-40.3	-40.9	20.8	0.00e+00	0	57	0	3270508544	42	4061
2026-01-05 02:09:32.80	176.86	27.03	-40.1	-40.7	20.9	0.00e+00	0	57	0	3276800000	42	4000
2026-01-05 02:09:33.79	176.97	26.87	-39.9	-40.5	21.1	0.00e+00	0	57	0	3282042880	42	3905
2026-01-05 02:09:34.78	177.08	26.71	-39.9	-40.5	21.1	0.00e+00	0	57	0	3287285760	42	3906
2026-01-05 02:09:35.77	177.19	26.55	-40.0	-40.6	21.1	0.00e+00	0	57	0	3293577216	42	3925
2026-01-05 02:09:36.76	177.30	26.40	-39.9	-40.5	21.1	0.00e+00	0	57	0	3298820096	42	3893
2026-01-05 02:09:37.76	177.41	26.24	-39.8	-40.4	21.2	0.00e+00	0	57	0	3304062976	42	3850
2026-01-05 02:09:38.74	177.51	26.09	-39.9	-40.5	21.2	0.00e+00	0	57	0	3309305856	42	3873
2026-01-05 02:09:39.72	177.62	25.93	-40.0	-40.7	21.0	0.00e+00	0	57	0	3315597312	42	3964
2026-01-05 02:09:40.71	177.72	25.78	-40.0	-40.7	21.0	0.00e+00	0	57	0	3320840192	42	3966
2026-01-05 02:09:41.70	177.83	25.63	-40.1	-40.7	21.0	0.00e+00	0	57	0	3326083072	42	3986
2026-01-05 02:09:42.68	177.93	25.48	-40.3	-40.9	20.8	0.00e+00	0	57	0	3332374528	42	4080
2026-01-05 02:09:43.66	178.03	25.33	-40.2	-40.9	20.8	0.00e+00	0	57	0	3337617408	42	4061
2026-01-05 02:09:44.65	178.13	25.18	-40.1	-40.8	20.9	0.00e+00	0	57	0	3342860288	42	4010
2026-01-05 02:09:45.65	178.23	25.03	-40.2	-40.8	20.8	0.00e+00	0	57	0	3348103168	42	4043
2026-01-05 02:09:46.63	178.33	24.88	-40.2	-40.8	20.8	0.00e+00	0	57	0	3354394624	42	4051
2026-01-05 02:09:47.63	178.43	24.73	-40.2	-40.9	20.8	0.00e+00	0	57	0	3359637504	42	4073
2026-01-05 02:09:48.61	178.52	24.59	-40.4	-41.0	20.7	0.00e+00	0	57	0	3364880384	42	4139
2026-01-05 02:09:49.61	178.62	24.44	-40.5	-41.2	20.5	0.00e+00	0	57	0	3371171840	42	4208
2026-01-05 02:09:50.59	178.72	24.30	-40.5	-41.2	20.5	0.00e+00	0	57	0	3376414720	42	4199
2026-01-05 02:09:51.58	178.81	24.15	-40.5	-41.2	20.5	0.00e+00	0	57	0	3381657600	42	4221
2026-01-05 02:09:52.57	178.90	24.01	-40.7	-41.4	20.3	0.00e+00	0	57	0	3387949056	43	4052
2026-01-05 02:09:53.56	179.00	23.86	-40.7	-41.3	20.4	0.00e+00	0	57	0	3393191936	43	4036
2026-01-05 02:09:54.56	179.09	23.72	-40.6	-41.2	20.4	0.00e+00	0	57	0	3398434816	43	3998
2026-01-05 02:09:55.54	179.18	23.58	-40.4	-41.1	20.6	0.00e+00	0	57	0	3404726272	43	3933
2026-01-05 02:09:56.53	179.27	23.44	-40.5	-41.2	20.5	0.00e+00	0	57	0	3409969152	43	3968
2026-01-05 02:09:57.52	179.36	23.30	-40.7	-41.3	20.3	0.00e+00	0	57	0	3415212032	43	4045
2026-01-05 02:09:58.51	179.45	23.16	-40.7	-41.4	20.3	0.00e+00	0	57	0	3420454912	43	4062
2026-01-05 02:09:59.49	179.54	23.02	-40.5	-41.1	20.5	0.00e+00	0	57	0	3426746368	43	3952
2026-01-05 02:10:00.48	179.63	22.88	-40.4	-41.0	20.6	0.00e+00	0	57	0	3431989248	43	3895
2026-01-05 02:10:01.47	179.71	22.74	-40.4	-41.0	20.6	0.00e+00	0	57	0	3437232128	43	3898
2026-01-05 02:10:02.45	179.80	22.61	-40.6	-41.2	20.4	0.00e+00	0	57	0	3443523584	43	3984
2026-01-05 02:10:03.44	179.88	22.47	-40.7	-41.4	20.3	0.00e+00	0	57	0	3448766464	43	4067
2026-01-05 02:10:04.44	179.97	22.33	-40.8	-41.4	20.2	0.00e+00	0	57	0	3454009344	43	4084
2026-01-05 02:10:05.42	180.05	22.20	-40.9	-41.6	20.1	0.00e+00	0	57	0	3460300800	43	4166
2026-01-05 02:10:06.42	180.14	22.07	-41.2	-41.9	19.9	0.00e+00	0	57	0	3465543680	44	4086
2026-01-05 02:10:07.41	180.22	21.93	-41.3	-42.0	19.8	0.00e+00	0	57	0	3470786560	44	4121
2026-01-05 02:10:08.40	180.30	21.80	-41.3	-42.0	19.8	0.00e+00	0	57	0	3476029440	44	4117
2026-01-05 02:10:09.39	180.38	21.67	-41.4	-42.1	19.7	0.00e+00	0	57	0	3482320896	44	4161
2026-01-05 02:10:10.38	180.46	21.53	-41.3	-42.1	19.7	0.00e+00	0	57	0	3487563776	44	4147
2026-01-05 02:10:11.37	180.54	21.40	-41.5	-42.2	19.6	0.00e+00	0	57	0	3493855232	44	4216
2026-01-05 02:10:12.36	180.62	21.27	-41.4	-42.1	19.7	0.00e+00	0	57	0	3499098112	44	4158
2026-01-05 02:10:13.34	180.70	21.14	-41.3	-42.0	19.8	0.00e+00	0	57	0	3504340992	44	4144
2026-01-05 02:10:14.33	180.78	21.01	-41.5	-42.2	19.6	0.00e+00	0	57	0	3509583872	44	4206
2026-01-05 02:10:15.33	180.86	20.88	-41.6	-42.3	19.5	0.00e+00	0	57	0	3515875328	45	4026
2026-01-05 02:10:16.32	180.93	20.76	-41.6	-42.3	19.5	0.00e+00	0	57	0	3521118208	45	4027
2026-01-05 02:10:17.30	181.01	20.63	-41.7	-42.5	19.3	0.00e+00	0	57	0	3526361088	45	4110
2026-01-05 02:10:18.29	181.09	20.50	-41.5	-42.2	19.5	0.00e+00	0	57	0	3532652544	45	4004
2026-01-05 02:10:19.28	181.16	20.38	-41.4	-42.1	19.7	0.00e+00	0	57	0	3537895424	45	3922
2026-01-05 02:10:20.26	181.23	20.25	-41.3	-42.0	19.7	0.00e+00	0	57	0	3543138304	45	3913
2026-01-05 02:10:21.25	181.31	20.13	-41.5	-42.2	19.6	0.00e+00	0	57	0	3548381184	45	3988
2026-01-05 02:10:22.24	181.38	20.00	-41.4	-42.1	19.6	0.00e+00	0	57	0	3554672640	45	3942
2026-01-05 02:10:23.23	181.45	19.88	-41.4	-42.1	19.7	0.00e+00	0	57	0	3559915520	45	3929
2026-01-05 02:10:24.22	181.53	19.75	-41.5	-42.2	19.5	0.00e+00	0	57	0	3566206976	45	3999
2026-01-05 02:10:25.21	181.60	19.63	-41.5	-42.2	19.6	0.00e+00	0	57	0	3571449856	45	3989
2026-01-05 02:10:26.20	181.67	19.51	-41.7	-42.4	19.4	0.00e+00	0	57	0	3576692736	45	4080
2026-01-05 02:10:27.19	181.74	19.39	-41.8	-42.6	19.2	0.00e+00	0	57	0	3581935616	45	4179
2026-01-05 02:10:28.18	181.81	19.27	-41.7	-42.5	19.3	0.00e+00	0	57	0	3588227072	45	4111
2026-01-05 02:10:29.16	181.88	19.15	-41.9	-42.6	19.2	0.00e+00	0	57	0	3593469952	45	4182
2026-01-05 02:10:30.15	181.95	19.03	-42.1	-42.9	19.0	0.00e+00	0	57	0	3598712832	45	4295
2026-01-05 02:10:31.13	182.02	18.91	-41.9	-42.7	19.1	0.00e+00	0	57	0	3605004288	45	4202
2026-01-05 02:10:32.12	182.09	18.79	-42.1	-42.9	18.9	0.00e+00	0	57	0	3610247168	45	4302
2026-01-05 02:10:33.11	182.15	18.67	-42.4	-43.2	18.6	0.00e+00	0	57	0	3615490048	46	4219
2026-01-05 02:10:34.10	182.22	18.55	-42.1	-42.9	18.9	0.00e+00	0	57	0	3620732928	46	4071
2026-01-05 02:10:35.07	182.29	18.44	-42.3	-43.1	18.7	0.00e+00	0	57	0	3627024384	46	4183
2026-01-05 02:10:36.06	182.35	18.32	-42.5	-43.3	18.5	0.00e+00	0	57	0	3632267264	46	4284
2026-01-05 02:10:37.05	182.42	18.20	-42.3	-43.1	18.7	0.00e+00	0	57	0	3637510144	46	4146
2026-01-05 02:10:38.05	182.48	18.09	-42.1	-42.9	19.0	0.00e+00	0	57	0	3643801600	46	4053
2026-01-05 02:10:39.03	182.55	17.97	-42.0	-42.8	19.1	0.00e+00	0	57	0	3649044480	46	4005
2026-01-05 02:10:40.01	182.61	17.86	-41.9	-42.7	19.1	0.00e+00	0	57	0	3654287360	46	3985
2026-01-05 02:10:41.00	182.67	17.75	-42.0	-42.7	19.1	0.00e+00	0	57	0	3659530240	46	3996
2026-01-05 02:10:41.99	182.74	17.63	-41.8	-42.5	19.3	0.00e+00	0	57	0	3665821696	46	3891
2026-01-05 02:10:42.97	182.80	17.52	-41.6	-42.3	19.4	0.00e+00	0	57	0	3671064576	46	3824
2026-01-05 02:10:43.96	182.86	17.41	-41.6	-42.3	19.5	0.00e+00	0	57	0	3676307456	46	3810
2026-01-05 02:10:44.95	182.93	17.29	-41.7	-42.4	19.4	0.00e+00	0	57	0	3682598912	46	3828
2026-01-05 02:10:45.94	182.99	17.18	-41.7	-42.4	19.4	0.00e+00	0	57	0	3687841792	46	3838
2026-01-05 02:10:46.93	183.05	17.07	-41.7	-42.5	19.3	0.00e+00	0	57	0	3693084672	46	3871
2026-01-05 02:10:47.91	183.11	16.96	-41.9	-42.6	19.2	0.00e+00	0	57	0	3698327552	46	3951
2026-01-05 02:10:48.91	183.17	16.85	-41.9	-42.6	19.2	0.00e+00	0	57	0	3704619008	46	3933
2026-01-05 02:10:49.90	183.23	16.74	-42.0	-42.7	19.0	0.00e+00	0	57	0	3709861888	46	3988
2026-01-05 02:10:50.88	183.29	16.63	-42.0	-42.7	19.1	0.00e+00	0	57	0	3715104768	46	3992
2026-01-05 02:10:51.87	183.35	16.52	-42.1	-42.9	18.9	0.00e+00	0	57	0	3721396224	46	4056
2026-01-05 02:10:52.86	183.41	16.41	-42.1	-42.8	18.9	0.00e+00	0	57	0	3726639104	46	4047
2026-01-05 02:10:53.85	183.46	16.30	-42.2	-43.0	18.8	0.00e+00	0	57	0	3731881984	46	4121
2026-01-05 02:10:54.84	183.52	16.20	-42.2	-43.0	18.8	0.00e+00	0	57	0	3738173440	46	4119
2026-01-05 02:10:55.82	183.58	16.09	-42.4	-43.2	18.6	0.00e+00	0	57	0	3743416320	46	4200
2026-01-05 02:10:56.81	183.64	15.98	-42.3	-43.1	18.7	0.00e+00	0	57	0	3748659200	46	4163
2026-01-05 02:10:57.80	183.69	15.88	-42.3	-43.0	18.7	0.00e+00	0	57	0	3753902080	46	4143
2026-01-05 02:10:58.79	183.75	15.77	-42.3	-43.1	18.6	0.00e+00	0	57	0	3760193536	46	4180
