passes_logs/2026/01/05/R3.0SM8_Murmansk_STILSPACE/R3.0SM8_Murmansk_STILSPACE__20260105_075704_NOAA_20_JPSS-1_rec.log

#Pass ID: 20260105_075704_NOAA 20 (JPSS-1)
#Satellite: NOAA 20 (JPSS-1)
#Configuration: NOAA 20
#almurnet v.1.7.20240730
#Start time: 2026-01-05 07:57:06

#Version: 2.2.20231116
#Station: R3.0SM8_Murmansk_STILSPACE
#Location: 33.092731 lon 68.902999 lat
#TLE: 1 43013U 17073A   26004.47528369  .00000132  00000+0  83671-4 0  9999
#TLE: 2 43013  98.7626 305.5264 0001854  54.5883 305.5466 14.19533142421242

#Time	Az	El	Level	Level2	SNR	BER	BlckErr	Temp	State	Recorded	gain1	gain2
2026-01-05 07:57:06.84	114.61	3.12	-52.4	-66.1	3.8	1.49e+00	0	47	0	0	66	18712
2026-01-05 07:57:07.83	114.58	3.19	-52.2	-66.0	3.8	1.49e+00	0	47	104	0	67	17345
2026-01-05 07:57:08.82	114.54	3.25	-52.2	-65.9	3.8	1.49e+00	0	47	104	0	67	17228
2026-01-05 07:57:09.81	114.50	3.31	-52.1	-65.9	3.8	1.49e+00	0	47	104	0	67	17089
2026-01-05 07:57:10.80	114.46	3.38	-51.9	-65.7	3.8	1.49e+00	0	47	104	0	66	17847
2026-01-05 07:57:11.79	114.43	3.44	-51.8	-65.5	3.8	1.49e+00	0	47	104	0	66	17430
2026-01-05 07:57:12.78	114.39	3.51	-51.6	-65.2	3.8	1.49e+00	0	48	104	0	66	16752
2026-01-05 07:57:13.78	114.35	3.57	-51.6	-65.2	3.8	1.49e+00	0	48	104	0	66	16801
2026-01-05 07:57:14.77	114.31	3.64	-51.6	-65.2	3.8	1.49e+00	0	48	104	0	66	16809
2026-01-05 07:57:15.76	114.27	3.70	-51.6	-65.2	3.8	1.49e+00	0	48	104	0	66	16785
2026-01-05 07:57:16.74	114.23	3.77	-51.6	-65.2	3.8	1.49e+00	0	48	104	0	66	16849
2026-01-05 07:57:17.74	114.19	3.83	-51.6	-65.2	3.8	1.49e+00	0	48	104	0	66	16784
2026-01-05 07:57:18.72	114.16	3.90	-51.6	-65.2	3.8	1.49e+00	0	48	104	0	66	16792
2026-01-05 07:57:19.71	114.12	3.96	-51.5	-65.1	3.8	1.49e+00	0	48	104	0	66	16529
2026-01-05 07:57:20.71	114.08	4.03	-51.5	-65.0	3.8	1.49e+00	0	48	104	0	66	16399
2026-01-05 07:57:21.70	114.04	4.09	-51.5	-64.8	3.8	1.49e+00	0	48	104	0	66	16104
2026-01-05 07:57:22.69	114.00	4.16	-51.5	-64.6	3.8	1.49e+00	0	48	104	0	65	16571
2026-01-05 07:57:23.68	113.96	4.23	-51.5	-64.5	3.8	1.49e+00	0	48	104	0	65	16346
2026-01-05 07:57:24.67	113.92	4.29	-51.5	-64.1	3.8	1.49e+00	0	48	104	0	65	15627
2026-01-05 07:57:25.65	113.88	4.36	-51.5	-63.9	3.8	1.49e+00	0	48	104	0	65	15253
2026-01-05 07:57:26.64	113.84	4.43	-51.4	-63.5	3.8	1.49e+00	0	48	104	0	65	14566
2026-01-05 07:57:27.63	113.80	4.49	-51.4	-63.2	3.8	1.48e+00	0	49	104	0	65	14119
2026-01-05 07:57:28.62	113.75	4.56	-51.4	-62.6	4.0	1.48e+00	0	48	104	0	65	13215
2026-01-05 07:57:29.60	113.71	4.62	-51.4	-62.3	4.1	1.46e+00	0	49	0	0	65	12723
2026-01-05 07:57:30.59	113.67	4.69	-51.3	-61.7	4.2	1.40e+00	0	49	0	0	65	11820
2026-01-05 07:57:31.58	113.63	4.76	-51.3	-61.3	4.4	1.35e+00	91	49	0	0	65	11351
2026-01-05 07:57:32.57	113.59	4.83	-51.1	-60.6	4.6	1.09e+00	0	48	0	1048576	65	10506
2026-01-05 07:57:33.56	113.55	4.89	-51.1	-60.1	4.9	8.12e-01	0	49	0	3145728	65	9865
2026-01-05 07:57:34.55	113.50	4.96	-51.1	-59.5	5.2	6.43e-01	0	49	0	5242880	65	9276
2026-01-05 07:57:35.55	113.46	5.03	-51.0	-58.8	5.6	5.09e-01	0	49	0	7340032	64	9035
2026-01-05 07:57:36.54	113.42	5.10	-50.9	-58.6	5.8	4.01e-01	0	49	0	9437184	64	8844
2026-01-05 07:57:37.53	113.38	5.17	-50.9	-59.1	5.5	4.43e-01	0	49	0	10485760	64	9356
2026-01-05 07:57:38.51	113.33	5.24	-50.9	-58.9	5.6	5.34e-01	0	49	0	12582912	64	9147
2026-01-05 07:57:39.50	113.29	5.30	-50.9	-58.3	6.1	3.98e-01	0	49	0	14680064	64	8465
2026-01-05 07:57:40.49	113.25	5.37	-50.8	-57.9	6.4	2.46e-01	0	49	0	16777216	64	8093
2026-01-05 07:57:41.48	113.20	5.44	-50.7	-57.3	6.8	2.00e-01	0	49	0	17825792	64	7611
2026-01-05 07:57:42.47	113.16	5.51	-50.5	-56.9	7.3	1.43e-01	0	49	0	19922944	64	7208
2026-01-05 07:57:43.46	113.11	5.58	-50.5	-56.5	7.6	1.17e-01	0	49	0	22020096	64	6951
2026-01-05 07:57:44.45	113.07	5.65	-50.5	-56.4	7.8	8.44e-02	0	49	0	24117248	63	7286
2026-01-05 07:57:45.44	113.02	5.72	-50.6	-56.6	7.6	8.64e-02	0	50	0	25165824	63	7421
2026-01-05 07:57:46.43	112.98	5.79	-50.5	-56.3	7.9	8.99e-02	0	50	0	27262976	63	7155
2026-01-05 07:57:47.42	112.93	5.86	-50.3	-55.7	8.6	5.77e-02	0	50	0	29360128	63	6657
2026-01-05 07:57:48.41	112.89	5.93	-50.1	-54.9	9.3	2.19e-02	0	50	0	31457280	63	6092
2026-01-05 07:57:49.40	112.84	6.00	-49.8	-54.3	10.0	1.09e-02	0	50	0	33554432	62	6010
2026-01-05 07:57:50.39	112.80	6.07	-49.6	-53.7	10.6	6.22e-03	0	50	0	34603008	62	5626
2026-01-05 07:57:51.39	112.75	6.14	-49.4	-53.3	11.1	2.61e-03	0	50	0	36700160	62	5362
2026-01-05 07:57:52.38	112.71	6.21	-49.2	-52.9	11.4	1.33e-03	0	50	0	38797312	61	5415
2026-01-05 07:57:53.37	112.66	6.28	-49.0	-52.5	11.8	6.42e-04	0	50	0	40894464	61	5213
2026-01-05 07:57:54.36	112.61	6.35	-48.9	-52.3	12.1	3.16e-04	0	50	0	41943040	60	5362
2026-01-05 07:57:55.35	112.56	6.42	-48.8	-52.0	12.3	1.65e-04	0	50	0	44040192	60	5216
2026-01-05 07:57:56.34	112.52	6.50	-48.9	-52.3	12.1	2.75e-04	0	50	0	46137344	60	5359
2026-01-05 07:57:57.33	112.47	6.57	-49.0	-52.4	12.0	3.22e-04	0	50	0	48234496	60	5415
2026-01-05 07:57:58.32	112.42	6.64	-48.9	-52.1	12.3	2.62e-04	0	50	0	50331648	60	5255
2026-01-05 07:57:59.30	112.37	6.71	-48.8	-52.0	12.4	1.46e-04	0	50	0	51380224	60	5167
2026-01-05 07:58:00.30	112.33	6.78	-48.7	-51.8	12.6	1.04e-04	0	50	0	53477376	60	5098
2026-01-05 07:58:01.30	112.28	6.86	-48.8	-51.9	12.5	1.21e-04	0	50	0	55574528	60	5140
2026-01-05 07:58:02.29	112.23	6.93	-48.9	-52.1	12.3	1.11e-04	0	50	0	57671680	60	5269
2026-01-05 07:58:03.28	112.18	7.00	-49.0	-52.3	12.2	2.05e-04	0	50	0	58720256	60	5346
2026-01-05 07:58:04.26	112.13	7.07	-48.8	-51.9	12.5	1.53e-04	0	50	0	60817408	60	5132
2026-01-05 07:58:05.26	112.08	7.15	-48.6	-51.6	12.8	7.01e-05	0	51	0	62914560	60	4978
2026-01-05 07:58:06.25	112.03	7.22	-48.6	-51.5	12.9	4.73e-05	0	50	0	65011712	60	4912
2026-01-05 07:58:07.24	111.98	7.30	-48.4	-51.1	13.4	1.29e-05	0	51	0	66060288	59	4950
2026-01-05 07:58:08.23	111.93	7.37	-48.4	-51.2	13.4	1.90e-05	0	51	0	68157440	59	4987
2026-01-05 07:58:09.22	111.88	7.44	-48.4	-51.1	13.4	9.90e-06	0	50	0	70254592	59	4975
2026-01-05 07:58:10.20	111.83	7.52	-48.5	-51.3	13.2	2.28e-05	0	51	0	72351744	59	5082
2026-01-05 07:58:11.19	111.78	7.59	-48.4	-51.0	13.5	1.52e-05	0	51	0	74448896	59	4918
2026-01-05 07:58:12.17	111.73	7.66	-48.2	-50.8	13.7	1.52e-05	0	51	0	75497472	59	4794
2026-01-05 07:58:13.17	111.67	7.74	-48.3	-51.1	13.5	8.30e-06	0	51	0	77594624	59	4927
2026-01-05 07:58:14.15	111.62	7.81	-48.3	-51.0	13.6	4.50e-06	0	51	0	79691776	59	4878
2026-01-05 07:58:15.13	111.57	7.89	-48.3	-51.0	13.6	6.10e-06	0	51	0	81788928	59	4882
2026-01-05 07:58:16.13	111.52	7.96	-48.4	-51.1	13.5	6.80e-06	0	51	0	82837504	59	4943
2026-01-05 07:58:17.12	111.46	8.04	-48.3	-50.9	13.7	5.30e-06	0	51	0	84934656	59	4848
2026-01-05 07:58:18.11	111.41	8.11	-48.2	-50.7	13.8	9.90e-06	0	51	0	87031808	59	4750
2026-01-05 07:58:19.09	111.36	8.19	-48.2	-50.8	13.8	3.80e-06	0	51	0	89128960	59	4778
2026-01-05 07:58:20.08	111.30	8.27	-48.1	-50.7	13.9	6.10e-06	0	51	0	90177536	59	4716
2026-01-05 07:58:21.07	111.25	8.34	-48.2	-50.8	13.8	6.10e-06	0	51	0	92274688	59	4792
2026-01-05 07:58:22.06	111.20	8.42	-48.1	-50.7	14.0	1.50e-06	0	51	0	94371840	59	4719
2026-01-05 07:58:23.06	111.14	8.50	-48.3	-50.9	13.7	3.80e-06	0	51	0	96468992	59	4855
2026-01-05 07:58:24.05	111.09	8.57	-48.6	-51.3	13.4	1.22e-05	0	51	0	98566144	59	5057
2026-01-05 07:58:25.05	111.03	8.65	-48.3	-50.9	13.7	4.50e-06	0	51	0	99614720	59	4833
2026-01-05 07:58:26.03	110.97	8.73	-48.2	-50.6	14.0	3.00e-06	0	51	0	101711872	59	4700
2026-01-05 07:58:27.02	110.92	8.80	-48.1	-50.5	14.1	1.50e-06	0	51	0	103809024	59	4641
2026-01-05 07:58:28.01	110.86	8.88	-48.0	-50.5	14.2	3.80e-06	0	51	0	105906176	59	4611
2026-01-05 07:58:28.99	110.81	8.96	-48.2	-50.7	14.0	1.50e-06	0	52	0	106954752	59	4714
2026-01-05 07:58:29.98	110.75	9.04	-48.1	-50.6	14.0	7.00e-07	0	52	0	109051904	59	4697
2026-01-05 07:58:30.97	110.69	9.12	-48.1	-50.6	14.1	7.00e-07	0	52	0	111149056	59	4653
2026-01-05 07:58:31.95	110.64	9.19	-48.2	-50.7	14.0	4.50e-06	0	51	0	113246208	59	4706
2026-01-05 07:58:32.95	110.58	9.27	-48.3	-50.9	13.7	6.10e-06	0	52	0	114294784	59	4870
2026-01-05 07:58:33.93	110.52	9.35	-48.2	-50.6	14.0	3.80e-06	0	52	0	116391936	59	4705
2026-01-05 07:58:34.92	110.46	9.43	-48.1	-50.5	14.2	7.00e-07	0	51	0	118489088	59	4611
2026-01-05 07:58:35.91	110.40	9.51	-48.0	-50.4	14.3	3.00e-06	0	52	0	120586240	59	4550
2026-01-05 07:58:36.90	110.34	9.59	-48.0	-50.3	14.4	7.00e-07	0	52	0	122683392	59	4530
2026-01-05 07:58:37.89	110.28	9.67	-48.0	-50.3	14.4	2.20e-06	0	52	0	123731968	59	4539
2026-01-05 07:58:38.87	110.22	9.75	-48.0	-50.3	14.4	1.50e-06	0	52	0	125829120	59	4540
2026-01-05 07:58:39.86	110.16	9.83	-48.0	-50.4	14.4	0.00e+00	0	52	0	127926272	59	4555
2026-01-05 07:58:40.85	110.10	9.91	-48.2	-50.7	14.0	2.20e-06	0	52	0	130023424	59	4711
2026-01-05 07:58:41.84	110.04	9.99	-48.1	-50.5	14.3	0.00e+00	0	52	0	131072000	59	4610
2026-01-05 07:58:42.83	109.98	10.07	-48.0	-50.3	14.4	7.00e-07	0	52	0	133169152	59	4511
2026-01-05 07:58:43.82	109.92	10.15	-47.9	-50.2	14.6	7.00e-07	0	52	0	135266304	58	4712
2026-01-05 07:58:44.81	109.86	10.23	-47.9	-50.2	14.6	0.00e+00	0	52	0	137363456	58	4710
2026-01-05 07:58:45.80	109.80	10.32	-47.9	-50.2	14.6	7.00e-07	0	52	0	138412032	58	4717
2026-01-05 07:58:46.79	109.73	10.40	-47.8	-50.0	14.7	0.00e+00	0	52	0	140509184	58	4638
2026-01-05 07:58:47.78	109.67	10.48	-47.8	-50.0	14.8	0.00e+00	0	52	0	142606336	58	4599
2026-01-05 07:58:48.77	109.61	10.56	-47.8	-50.0	14.8	0.00e+00	0	52	0	144703488	58	4610
2026-01-05 07:58:49.76	109.54	10.65	-47.8	-50.0	14.8	7.00e-07	0	52	0	146800640	58	4617
2026-01-05 07:58:50.75	109.48	10.73	-47.9	-50.1	14.7	0.00e+00	0	52	0	147849216	58	4679
2026-01-05 07:58:51.74	109.41	10.81	-48.0	-50.3	14.5	0.00e+00	0	52	0	149946368	58	4786
2026-01-05 07:58:52.73	109.35	10.90	-47.9	-50.1	14.7	7.00e-07	0	52	0	152043520	58	4673
2026-01-05 07:58:53.72	109.28	10.98	-47.9	-50.2	14.7	0.00e+00	0	52	0	154140672	58	4706
2026-01-05 07:58:54.71	109.22	11.06	-47.9	-50.1	14.7	0.00e+00	0	52	0	155189248	58	4687
2026-01-05 07:58:55.70	109.15	11.15	-47.9	-50.1	14.7	0.00e+00	0	52	0	157286400	58	4705
2026-01-05 07:58:56.69	109.08	11.23	-47.9	-50.1	14.7	0.00e+00	0	52	0	159383552	58	4702
2026-01-05 07:58:57.68	109.02	11.32	-48.0	-50.2	14.6	0.00e+00	0	53	0	161480704	58	4738
2026-01-05 07:58:58.67	108.95	11.40	-47.9	-50.0	14.8	1.50e-06	0	52	0	162529280	58	4640
2026-01-05 07:58:59.66	108.88	11.49	-47.7	-49.7	15.1	0.00e+00	0	52	0	164626432	58	4490
2026-01-05 07:59:00.65	108.81	11.57	-47.5	-49.6	15.3	0.00e+00	0	53	0	166723584	58	4395
2026-01-05 07:59:01.63	108.75	11.66	-47.5	-49.6	15.2	0.00e+00	0	53	0	168820736	58	4398
2026-01-05 07:59:02.62	108.68	11.74	-47.6	-49.6	15.2	0.00e+00	0	52	0	170917888	58	4415
2026-01-05 07:59:03.62	108.61	11.83	-47.6	-49.7	15.1	0.00e+00	0	52	0	171966464	58	4466
2026-01-05 07:59:04.61	108.54	11.92	-47.7	-49.8	15.1	0.00e+00	0	53	0	174063616	58	4506
2026-01-05 07:59:05.60	108.47	12.00	-47.8	-49.9	15.0	0.00e+00	0	53	0	176160768	58	4571
2026-01-05 07:59:06.59	108.40	12.09	-47.8	-50.0	14.9	0.00e+00	0	52	0	178257920	58	4608
2026-01-05 07:59:07.58	108.32	12.18	-47.8	-49.9	15.0	0.00e+00	0	52	0	179306496	58	4573
2026-01-05 07:59:08.57	108.25	12.26	-48.0	-50.2	14.7	0.00e+00	0	53	0	181403648	58	4748
2026-01-05 07:59:09.55	108.18	12.35	-47.9	-50.2	14.7	0.00e+00	0	53	0	183500800	58	4707
2026-01-05 07:59:10.55	108.11	12.44	-47.9	-50.1	14.8	0.00e+00	0	53	0	185597952	58	4663
2026-01-05 07:59:11.53	108.04	12.53	-48.1	-50.3	14.5	1.50e-06	0	52	0	186646528	58	4813
2026-01-05 07:59:12.53	107.96	12.62	-48.1	-50.4	14.5	0.00e+00	0	53	0	188743680	58	4832
2026-01-05 07:59:13.52	107.89	12.71	-47.9	-50.1	14.8	0.00e+00	0	53	0	190840832	58	4686
2026-01-05 07:59:14.51	107.81	12.80	-47.8	-49.9	15.0	0.00e+00	0	53	0	192937984	58	4563
2026-01-05 07:59:15.50	107.74	12.89	-47.7	-49.8	15.1	0.00e+00	0	53	0	195035136	58	4498
2026-01-05 07:59:16.49	107.66	12.97	-47.7	-49.8	15.1	0.00e+00	0	53	0	196083712	58	4532
2026-01-05 07:59:17.48	107.59	13.06	-47.7	-49.8	15.1	0.00e+00	0	53	0	198180864	58	4501
2026-01-05 07:59:18.47	107.51	13.16	-47.6	-49.6	15.2	0.00e+00	0	53	0	200278016	58	4427
2026-01-05 07:59:19.46	107.43	13.25	-47.6	-49.6	15.3	0.00e+00	0	53	0	202375168	58	4413
2026-01-05 07:59:20.45	107.36	13.34	-47.6	-49.6	15.4	0.00e+00	0	53	0	203423744	58	4393
2026-01-05 07:59:21.44	107.28	13.43	-47.6	-49.5	15.4	0.00e+00	0	53	0	205520896	58	4385
2026-01-05 07:59:22.43	107.20	13.52	-47.7	-49.7	15.2	0.00e+00	0	53	0	207618048	58	4486
2026-01-05 07:59:23.42	107.12	13.61	-47.8	-49.8	15.1	0.00e+00	0	53	0	209715200	58	4545
2026-01-05 07:59:24.40	107.04	13.70	-47.7	-49.8	15.1	0.00e+00	0	53	0	210763776	58	4528
2026-01-05 07:59:25.40	106.96	13.80	-47.7	-49.8	15.1	0.00e+00	0	53	0	212860928	58	4525
2026-01-05 07:59:26.39	106.88	13.89	-47.8	-50.0	14.9	0.00e+00	0	53	0	214958080	58	4616
2026-01-05 07:59:27.37	106.80	13.98	-47.8	-50.0	14.9	0.00e+00	0	53	0	217055232	58	4622
2026-01-05 07:59:28.34	106.72	14.07	-47.9	-50.1	14.8	0.00e+00	0	53	0	218103808	58	4674
2026-01-05 07:59:29.32	106.64	14.16	-48.0	-50.2	14.7	0.00e+00	0	53	0	220200960	58	4725
2026-01-05 07:59:30.31	106.56	14.26	-48.0	-50.2	14.8	0.00e+00	0	53	0	222298112	58	4707
2026-01-05 07:59:31.30	106.48	14.35	-48.0	-50.3	14.6	7.00e-07	0	53	0	224395264	58	4790
2026-01-05 07:59:32.29	106.39	14.45	-47.8	-49.9	15.0	0.00e+00	0	53	0	226492416	58	4582
2026-01-05 07:59:33.29	106.31	14.54	-47.6	-49.7	15.2	0.00e+00	0	53	0	227540992	58	4471
2026-01-05 07:59:34.27	106.23	14.64	-47.6	-49.7	15.3	0.00e+00	0	53	0	229638144	58	4464
2026-01-05 07:59:35.27	106.14	14.73	-47.7	-49.7	15.2	0.00e+00	0	53	0	231735296	58	4481
2026-01-05 07:59:36.26	106.05	14.83	-47.7	-49.8	15.2	0.00e+00	0	53	0	233832448	58	4497
2026-01-05 07:59:37.25	105.97	14.92	-47.7	-49.9	15.1	0.00e+00	0	53	0	234881024	58	4558
2026-01-05 07:59:38.24	105.88	15.02	-47.6	-49.7	15.2	0.00e+00	0	54	0	236978176	58	4465
2026-01-05 07:59:39.23	105.79	15.12	-47.6	-49.7	15.3	0.00e+00	0	53	0	239075328	58	4444
2026-01-05 07:59:40.22	105.70	15.21	-47.8	-49.9	15.1	0.00e+00	0	53	0	241172480	58	4558
2026-01-05 07:59:41.20	105.62	15.31	-47.9	-50.0	15.0	0.00e+00	0	54	0	243269632	58	4629
2026-01-05 07:59:42.19	105.53	15.41	-47.8	-49.8	15.1	0.00e+00	0	54	0	244318208	58	4543
2026-01-05 07:59:43.17	105.44	15.50	-47.8	-49.8	15.1	0.00e+00	0	53	0	246415360	58	4544
2026-01-05 07:59:44.17	105.35	15.60	-47.9	-50.0	15.0	0.00e+00	0	54	0	248512512	58	4614
2026-01-05 07:59:45.16	105.26	15.70	-47.8	-49.9	15.0	0.00e+00	0	54	0	250609664	58	4583
2026-01-05 07:59:46.15	105.16	15.80	-47.9	-50.0	14.9	0.00e+00	0	54	0	251658240	58	4639
2026-01-05 07:59:47.14	105.07	15.90	-47.8	-49.9	15.1	7.00e-07	0	54	0	253755392	58	4556
2026-01-05 07:59:48.13	104.98	16.00	-48.0	-50.1	14.8	7.00e-07	0	54	0	255852544	58	4695
2026-01-05 07:59:49.12	104.89	16.10	-48.1	-50.4	14.6	0.00e+00	0	54	0	257949696	58	4840
2026-01-05 07:59:50.11	104.79	16.20	-47.9	-50.0	14.9	0.00e+00	0	54	0	258998272	58	4651
2026-01-05 07:59:51.09	104.70	16.30	-47.8	-49.9	15.1	0.00e+00	0	54	0	261095424	58	4568
2026-01-05 07:59:52.08	104.60	16.40	-47.8	-49.8	15.1	0.00e+00	0	54	0	263192576	58	4544
2026-01-05 07:59:53.07	104.51	16.50	-47.7	-49.8	15.2	0.00e+00	0	54	0	265289728	58	4518
2026-01-05 07:59:54.05	104.41	16.60	-47.7	-49.7	15.3	0.00e+00	0	54	0	267386880	58	4478
2026-01-05 07:59:55.04	104.31	16.70	-47.6	-49.6	15.4	0.00e+00	0	54	0	268435456	58	4429
2026-01-05 07:59:56.03	104.21	16.80	-47.8	-50.0	15.1	0.00e+00	0	54	0	270532608	58	4599
2026-01-05 07:59:57.02	104.12	16.91	-47.6	-49.6	15.3	0.00e+00	0	54	0	272629760	58	4431
2026-01-05 07:59:58.00	104.02	17.01	-47.5	-49.4	15.6	0.00e+00	0	54	0	274726912	58	4340
2026-01-05 07:59:59.00	103.92	17.11	-47.4	-49.4	15.6	0.00e+00	0	54	0	275775488	57	4560
2026-01-05 07:59:59.98	103.82	17.21	-47.5	-49.5	15.5	0.00e+00	0	54	0	277872640	57	4621
2026-01-05 08:00:00.97	103.71	17.32	-47.5	-49.5	15.5	0.00e+00	0	54	0	279969792	57	4617
2026-01-05 08:00:01.96	103.61	17.42	-47.5	-49.5	15.5	0.00e+00	0	54	0	282066944	57	4651
2026-01-05 08:00:02.95	103.51	17.53	-47.7	-49.7	15.3	0.00e+00	0	54	0	283115520	57	4753
2026-01-05 08:00:03.94	103.40	17.63	-47.6	-49.6	15.4	0.00e+00	0	54	0	285212672	57	4676
2026-01-05 08:00:04.93	103.30	17.74	-47.5	-49.4	15.6	0.00e+00	0	54	0	287309824	57	4591
2026-01-05 08:00:05.92	103.19	17.84	-47.5	-49.5	15.5	0.00e+00	0	54	0	289406976	57	4645
2026-01-05 08:00:06.91	103.09	17.95	-47.8	-49.9	15.1	0.00e+00	0	54	0	290455552	57	4856
2026-01-05 08:00:07.90	102.98	18.05	-47.9	-50.0	15.0	0.00e+00	0	54	0	292552704	57	4916
2026-01-05 08:00:08.89	102.87	18.16	-47.9	-50.0	14.9	7.00e-07	0	54	0	294649856	57	4926
2026-01-05 08:00:09.89	102.76	18.27	-47.9	-50.1	15.0	0.00e+00	0	54	0	296747008	57	4928
2026-01-05 08:00:10.88	102.66	18.37	-48.0	-50.1	14.9	7.00e-07	0	54	0	298844160	57	4970
2026-01-05 08:00:11.86	102.55	18.48	-47.8	-49.9	15.1	7.00e-07	0	54	0	299892736	57	4849
2026-01-05 08:00:12.86	102.43	18.59	-47.7	-49.8	15.3	0.00e+00	0	54	0	301989888	57	4762
2026-01-05 08:00:13.84	102.32	18.70	-47.7	-49.8	15.3	0.00e+00	0	54	0	304087040	57	4775
2026-01-05 08:00:14.83	102.21	18.81	-47.7	-49.8	15.3	0.00e+00	0	54	0	306184192	57	4780
2026-01-05 08:00:15.82	102.10	18.92	-47.8	-50.0	15.0	0.00e+00	0	54	0	307232768	57	4913
2026-01-05 08:00:16.81	101.98	19.02	-47.7	-49.8	15.3	0.00e+00	0	54	0	309329920	57	4766
2026-01-05 08:00:17.81	101.87	19.14	-47.5	-49.5	15.5	0.00e+00	0	55	0	311427072	57	4647
2026-01-05 08:00:18.79	101.75	19.24	-47.4	-49.3	15.7	0.00e+00	0	54	0	313524224	57	4544
2026-01-05 08:00:19.79	101.64	19.36	-47.5	-49.4	15.6	0.00e+00	0	54	0	314572800	57	4573
2026-01-05 08:00:20.78	101.52	19.47	-47.7	-49.7	15.4	0.00e+00	0	54	0	316669952	57	4723
2026-01-05 08:00:21.77	101.40	19.58	-47.6	-49.5	15.5	0.00e+00	0	54	0	318767104	57	4643
2026-01-05 08:00:22.76	101.28	19.69	-47.7	-49.7	15.4	0.00e+00	0	54	0	320864256	57	4716
2026-01-05 08:00:23.75	101.16	19.80	-47.7	-49.7	15.4	0.00e+00	0	54	0	322961408	57	4738
2026-01-05 08:00:24.74	101.04	19.91	-47.7	-49.7	15.3	0.00e+00	0	54	0	324009984	57	4742
2026-01-05 08:00:25.73	100.92	20.03	-47.8	-49.9	15.2	0.00e+00	0	54	0	326107136	57	4839
2026-01-05 08:00:26.72	100.79	20.14	-47.9	-49.9	15.1	0.00e+00	0	54	0	328204288	57	4869
2026-01-05 08:00:27.71	100.67	20.25	-47.9	-49.9	15.2	0.00e+00	0	54	0	330301440	57	4867
2026-01-05 08:00:28.69	100.55	20.37	-48.0	-50.2	14.9	0.00e+00	0	55	0	331350016	57	5014
2026-01-05 08:00:29.67	100.42	20.48	-48.0	-50.1	15.0	0.00e+00	0	54	0	333447168	57	4942
2026-01-05 08:00:30.66	100.30	20.59	-47.7	-49.8	15.2	0.00e+00	0	54	0	335544320	57	4784
2026-01-05 08:00:31.64	100.17	20.71	-47.7	-49.8	15.3	0.00e+00	0	54	0	337641472	57	4772
2026-01-05 08:00:32.63	100.04	20.82	-47.7	-49.7	15.4	0.00e+00	0	55	0	338690048	57	4730
2026-01-05 08:00:33.61	99.91	20.94	-47.8	-49.8	15.3	0.00e+00	0	54	0	340787200	57	4810
2026-01-05 08:00:34.61	99.78	21.05	-47.8	-49.8	15.3	0.00e+00	0	54	0	342884352	57	4780
2026-01-05 08:00:35.59	99.65	21.17	-47.7	-49.8	15.2	0.00e+00	0	54	0	344981504	57	4782
2026-01-05 08:00:36.58	99.52	21.29	-47.8	-49.9	15.2	0.00e+00	0	55	0	347078656	57	4829
2026-01-05 08:00:37.57	99.38	21.40	-47.8	-49.9	15.1	7.00e-07	0	54	0	348127232	57	4849
2026-01-05 08:00:38.56	99.25	21.52	-47.8	-49.9	15.2	0.00e+00	0	55	0	350224384	57	4825
2026-01-05 08:00:39.55	99.11	21.64	-47.8	-49.9	15.3	0.00e+00	0	54	0	352321536	57	4816
2026-01-05 08:00:40.55	98.97	21.76	-47.9	-49.9	15.2	0.00e+00	0	55	0	354418688	57	4850
2026-01-05 08:00:41.53	98.84	21.88	-47.9	-50.0	15.1	7.00e-07	0	55	0	355467264	57	4885
2026-01-05 08:00:42.52	98.70	21.99	-47.7	-49.7	15.4	0.00e+00	0	55	0	357564416	57	4731
2026-01-05 08:00:43.52	98.56	22.11	-47.7	-49.6	15.4	0.00e+00	0	54	0	359661568	57	4692
2026-01-05 08:00:44.50	98.42	22.23	-47.6	-49.6	15.5	0.00e+00	0	55	0	361758720	57	4705
2026-01-05 08:00:45.48	98.28	22.35	-47.6	-49.6	15.5	0.00e+00	0	55	0	362807296	57	4675
2026-01-05 08:00:46.47	98.13	22.47	-47.6	-49.5	15.5	0.00e+00	0	55	0	364904448	57	4646
2026-01-05 08:00:47.46	97.99	22.59	-47.6	-49.5	15.6	0.00e+00	0	54	0	367001600	57	4609
2026-01-05 08:00:48.45	97.84	22.71	-47.5	-49.3	15.8	0.00e+00	0	55	0	369098752	57	4516
2026-01-05 08:00:49.44	97.70	22.84	-47.5	-49.4	15.7	0.00e+00	0	55	0	370147328	57	4594
2026-01-05 08:00:50.42	97.55	22.96	-47.7	-49.7	15.4	0.00e+00	0	55	0	372244480	57	4747
2026-01-05 08:00:51.42	97.40	23.08	-47.7	-49.7	15.4	0.00e+00	0	55	0	374341632	57	4736
2026-01-05 08:00:52.41	97.25	23.20	-47.7	-49.7	15.4	0.00e+00	0	55	0	376438784	57	4758
2026-01-05 08:00:53.41	97.10	23.33	-47.8	-49.9	15.2	0.00e+00	0	55	0	378535936	57	4818
2026-01-05 08:00:54.40	96.94	23.45	-47.8	-49.9	15.3	0.00e+00	0	55	0	379584512	57	4815
2026-01-05 08:00:55.39	96.79	23.57	-47.8	-49.8	15.3	0.00e+00	0	55	0	381681664	57	4766
2026-01-05 08:00:56.38	96.63	23.70	-47.8	-49.8	15.3	0.00e+00	0	55	0	383778816	57	4801
2026-01-05 08:00:57.37	96.48	23.82	-47.8	-49.9	15.3	7.00e-07	0	55	0	385875968	57	4832
2026-01-05 08:00:58.36	96.32	23.95	-47.9	-49.9	15.3	0.00e+00	0	55	0	386924544	57	4851
2026-01-05 08:00:59.35	96.16	24.07	-47.9	-50.0	15.1	0.00e+00	0	55	0	389021696	57	4893
2026-01-05 08:01:00.34	96.00	24.20	-47.8	-49.9	15.2	0.00e+00	0	55	0	391118848	57	4826
2026-01-05 08:01:01.33	95.84	24.33	-48.1	-50.3	14.9	0.00e+00	0	55	0	393216000	57	5047
2026-01-05 08:01:02.31	95.68	24.45	-48.3	-50.5	14.6	0.00e+00	0	55	0	395313152	58	4902
2026-01-05 08:01:03.30	95.51	24.58	-48.1	-50.3	14.9	0.00e+00	0	55	0	396361728	58	4763
2026-01-05 08:01:04.29	95.35	24.70	-48.2	-50.4	14.8	0.00e+00	0	55	0	398458880	58	4818
2026-01-05 08:01:05.28	95.18	24.83	-47.9	-50.0	15.1	0.00e+00	0	55	0	400556032	58	4648
2026-01-05 08:01:06.27	95.01	24.96	-47.7	-49.8	15.4	0.00e+00	0	55	0	402653184	58	4513
2026-01-05 08:01:07.27	94.84	25.09	-47.8	-49.8	15.3	0.00e+00	0	55	0	403701760	58	4535
2026-01-05 08:01:08.26	94.67	25.22	-47.9	-50.0	15.2	0.00e+00	0	55	0	405798912	58	4608
2026-01-05 08:01:09.26	94.49	25.35	-47.9	-50.0	15.1	0.00e+00	0	55	0	407896064	58	4645
2026-01-05 08:01:10.25	94.32	25.48	-48.0	-50.2	14.9	0.00e+00	0	55	0	409993216	58	4748
2026-01-05 08:01:11.23	94.15	25.60	-48.2	-50.5	14.7	7.00e-07	0	55	0	411041792	58	4890
2026-01-05 08:01:12.23	93.97	25.73	-47.9	-50.1	15.0	0.00e+00	0	55	0	413138944	58	4684
2026-01-05 08:01:13.22	93.79	25.86	-47.9	-50.1	15.1	0.00e+00	0	55	0	415236096	58	4655
2026-01-05 08:01:14.21	93.61	26.00	-47.9	-50.1	15.0	0.00e+00	0	55	0	417333248	58	4693
2026-01-05 08:01:15.19	93.43	26.12	-47.9	-50.1	15.1	0.00e+00	0	55	0	419430400	58	4677
2026-01-05 08:01:16.18	93.25	26.26	-48.1	-50.2	14.9	0.00e+00	0	55	0	420478976	58	4738
2026-01-05 08:01:17.17	93.06	26.39	-48.2	-50.4	14.8	0.00e+00	0	55	0	422576128	58	4849
2026-01-05 08:01:18.17	92.87	26.52	-48.1	-50.4	14.8	0.00e+00	0	55	0	424673280	58	4835
2026-01-05 08:01:19.16	92.69	26.65	-48.2	-50.5	14.6	0.00e+00	0	55	0	426770432	58	4897
2026-01-05 08:01:20.14	92.50	26.78	-48.3	-50.5	14.6	0.00e+00	0	55	0	427819008	58	4926
2026-01-05 08:01:21.13	92.31	26.91	-48.3	-50.6	14.5	0.00e+00	0	55	0	429916160	58	4961
2026-01-05 08:01:22.11	92.12	27.05	-48.3	-50.6	14.5	0.00e+00	0	55	0	432013312	58	4971
2026-01-05 08:01:23.10	91.92	27.18	-48.3	-50.5	14.7	0.00e+00	0	55	0	434110464	58	4889
2026-01-05 08:01:24.09	91.73	27.31	-48.4	-50.8	14.4	1.50e-06	0	55	0	435159040	58	5046
2026-01-05 08:01:25.08	91.53	27.45	-48.6	-51.0	14.2	1.50e-06	0	55	0	437256192	58	5176
2026-01-05 08:01:26.07	91.33	27.58	-48.7	-51.2	14.0	0.00e+00	0	55	0	439353344	59	5001
2026-01-05 08:01:27.05	91.13	27.71	-48.8	-51.5	13.7	0.00e+00	0	55	0	441450496	59	5190
2026-01-05 08:01:28.04	90.93	27.85	-48.9	-51.6	13.6	4.50e-06	0	55	0	443547648	59	5230
2026-01-05 08:01:29.03	90.73	27.98	-49.1	-51.9	13.2	1.22e-05	0	55	0	444596224	59	5441
2026-01-05 08:01:30.00	90.52	28.11	-49.2	-52.1	13.1	2.28e-05	0	55	0	446693376	60	5231
2026-01-05 08:01:30.99	90.32	28.25	-49.4	-52.5	12.6	5.18e-05	0	55	0	448790528	60	5491
2026-01-05 08:01:31.98	90.11	28.38	-49.5	-52.7	12.4	9.99e-05	0	55	0	450887680	60	5603
2026-01-05 08:01:32.96	89.90	28.52	-49.6	-53.0	12.1	2.01e-04	0	55	0	451936256	61	5492
2026-01-05 08:01:33.95	89.69	28.65	-49.7	-53.1	12.0	3.14e-04	0	55	0	454033408	61	5592
2026-01-05 08:01:34.94	89.47	28.79	-49.9	-53.4	11.7	4.38e-04	0	55	0	456130560	61	5740
2026-01-05 08:01:35.93	89.25	28.93	-49.9	-53.4	11.7	5.57e-04	0	55	0	458227712	61	5730
2026-01-05 08:01:36.91	89.04	29.06	-49.9	-53.6	11.5	7.61e-04	0	55	0	459276288	61	5888
2026-01-05 08:01:37.90	88.82	29.20	-49.8	-53.3	11.8	6.15e-04	0	55	0	461373440	61	5711
2026-01-05 08:01:38.90	88.59	29.34	-49.8	-53.3	11.8	5.07e-04	0	55	0	463470592	61	5706
2026-01-05 08:01:39.89	88.37	29.47	-49.8	-53.4	11.7	5.26e-04	0	55	0	465567744	61	5753
2026-01-05 08:01:40.89	88.14	29.61	-49.7	-53.2	12.0	4.15e-04	0	55	0	466616320	61	5610
2026-01-05 08:01:41.87	87.91	29.75	-49.9	-53.4	11.7	4.05e-04	0	55	0	468713472	61	5759
2026-01-05 08:01:42.86	87.68	29.88	-49.8	-53.2	11.9	5.56e-04	0	56	0	470810624	61	5607
2026-01-05 08:01:43.85	87.45	30.02	-49.6	-52.8	12.3	2.27e-04	0	55	0	472907776	61	5374
2026-01-05 08:01:44.84	87.22	30.16	-49.5	-52.8	12.3	1.74e-04	0	55	0	475004928	61	5391
2026-01-05 08:01:45.83	86.98	30.30	-49.6	-52.9	12.3	2.20e-04	0	55	0	476053504	61	5431
2026-01-05 08:01:46.82	86.74	30.44	-49.6	-52.8	12.2	2.18e-04	0	55	0	478150656	61	5396
2026-01-05 08:01:47.81	86.50	30.57	-49.6	-52.9	12.2	2.10e-04	0	55	0	480247808	61	5446
2026-01-05 08:01:48.81	86.26	30.71	-49.8	-53.3	11.9	4.19e-04	0	55	0	482344960	61	5671
2026-01-05 08:01:49.79	86.02	30.85	-49.8	-53.2	11.9	4.11e-04	0	55	0	483393536	61	5621
2026-01-05 08:01:50.78	85.77	30.99	-49.7	-53.0	12.1	1.81e-04	0	55	0	485490688	61	5502
2026-01-05 08:01:51.77	85.52	31.13	-49.7	-53.1	12.0	2.95e-04	0	55	0	487587840	61	5543
2026-01-05 08:01:52.76	85.27	31.26	-49.7	-53.1	12.0	4.00e-04	0	55	0	489684992	61	5590
2026-01-05 08:01:53.74	85.02	31.40	-49.8	-53.2	11.9	4.77e-04	0	55	0	490733568	61	5656
2026-01-05 08:01:54.73	84.76	31.54	-49.8	-53.3	11.9	3.70e-04	0	55	0	492830720	61	5686
2026-01-05 08:01:55.72	84.51	31.68	-49.9	-53.6	11.6	6.15e-04	0	55	0	494927872	61	5877
2026-01-05 08:01:56.71	84.25	31.82	-49.9	-53.5	11.6	7.15e-04	0	55	0	497025024	61	5834
2026-01-05 08:01:57.70	83.99	31.95	-50.0	-53.6	11.5	7.31e-04	0	55	0	499122176	61	5893
2026-01-05 08:01:58.68	83.72	32.09	-49.9	-53.7	11.4	1.02e-03	0	56	0	500170752	61	5924
2026-01-05 08:01:59.67	83.46	32.23	-50.0	-53.8	11.3	9.96e-04	0	55	0	502267904	61	6018
2026-01-05 08:02:00.66	83.19	32.37	-50.1	-54.0	11.1	1.30e-03	0	56	0	504365056	62	5841
2026-01-05 08:02:01.64	82.92	32.50	-50.0	-53.8	11.3	1.83e-03	0	55	0	506462208	62	5667
2026-01-05 08:02:02.63	82.65	32.64	-49.9	-53.3	11.8	5.61e-04	0	55	0	507510784	62	5392
2026-01-05 08:02:03.62	82.37	32.78	-49.6	-52.8	12.4	1.65e-04	0	55	0	509607936	62	5060
2026-01-05 08:02:04.61	82.09	32.92	-49.2	-52.1	13.1	5.41e-05	0	56	0	511705088	61	4932
2026-01-05 08:02:05.59	81.82	33.05	-49.0	-51.9	13.3	1.90e-05	0	55	0	513802240	61	4815
2026-01-05 08:02:06.58	81.53	33.19	-48.9	-51.6	13.6	1.14e-05	0	56	0	514850816	60	4939
2026-01-05 08:02:07.57	81.25	33.33	-49.0	-51.8	13.4	1.22e-05	0	56	0	516947968	60	5060
2026-01-05 08:02:08.56	80.96	33.46	-49.0	-51.7	13.5	1.83e-05	0	56	0	519045120	60	5006
2026-01-05 08:02:09.55	80.67	33.60	-48.9	-51.5	13.7	4.50e-06	0	56	0	521142272	60	4922
2026-01-05 08:02:10.55	80.38	33.74	-48.8	-51.4	13.8	3.80e-06	0	56	0	523239424	60	4828
2026-01-05 08:02:11.54	80.08	33.87	-48.7	-51.3	13.8	4.50e-06	0	55	0	524288000	60	4809
2026-01-05 08:02:12.53	79.78	34.01	-48.8	-51.5	13.7	4.50e-06	0	56	0	526385152	60	4892
2026-01-05 08:02:13.52	79.48	34.15	-48.9	-51.6	13.7	9.90e-06	0	55	0	528482304	60	4943
2026-01-05 08:02:14.50	79.18	34.28	-48.9	-51.7	13.5	6.80e-06	0	56	0	530579456	60	5021
2026-01-05 08:02:15.48	78.88	34.41	-49.2	-52.2	13.0	1.52e-05	0	56	0	531628032	60	5323
2026-01-05 08:02:16.47	78.58	34.55	-49.3	-52.5	12.7	9.00e-05	0	55	0	533725184	60	5484
2026-01-05 08:02:17.46	78.27	34.68	-49.2	-52.3	12.8	5.41e-05	0	56	0	535822336	60	5387
2026-01-05 08:02:18.45	77.95	34.82	-49.3	-52.3	12.8	6.17e-05	0	56	0	537919488	60	5395
2026-01-05 08:02:19.44	77.64	34.95	-49.1	-52.0	13.2	2.13e-05	0	56	0	538968064	60	5186
2026-01-05 08:02:20.43	77.32	35.08	-49.2	-52.0	13.2	2.13e-05	0	55	0	541065216	60	5181
2026-01-05 08:02:21.42	77.00	35.21	-49.2	-52.0	13.2	1.90e-05	0	55	0	543162368	60	5204
2026-01-05 08:02:22.42	76.67	35.35	-49.4	-52.4	12.8	6.10e-05	0	56	0	545259520	60	5421
2026-01-05 08:02:23.40	76.35	35.48	-49.5	-52.5	12.6	4.73e-05	0	56	0	547356672	60	5524
2026-01-05 08:02:24.38	76.03	35.61	-49.6	-52.7	12.5	1.49e-04	0	56	0	548405248	61	5333
2026-01-05 08:02:25.38	75.69	35.74	-49.3	-52.2	13.0	5.11e-05	0	56	0	550502400	61	5011
2026-01-05 08:02:26.37	75.36	35.87	-49.1	-51.9	13.3	2.89e-05	0	56	0	552599552	61	4825
2026-01-05 08:02:27.35	75.02	36.00	-49.1	-52.0	13.2	2.67e-05	0	55	0	554696704	61	4873
2026-01-05 08:02:28.35	74.68	36.13	-49.4	-52.4	12.8	3.73e-05	0	56	0	555745280	61	5118
2026-01-05 08:02:29.33	74.34	36.25	-49.5	-52.6	12.7	6.17e-05	0	56	0	557842432	61	5220
2026-01-05 08:02:30.32	74.00	36.38	-49.5	-52.6	12.6	8.31e-05	0	56	0	559939584	61	5249
2026-01-05 08:02:31.30	73.66	36.51	-49.6	-52.7	12.5	1.04e-04	0	56	0	562036736	61	5317
2026-01-05 08:02:32.29	73.31	36.63	-49.6	-52.8	12.5	1.33e-04	0	56	0	563085312	61	5365
2026-01-05 08:02:33.28	72.95	36.76	-49.7	-53.1	12.1	2.82e-04	0	56	0	565182464	61	5552
2026-01-05 08:02:34.28	72.59	36.88	-49.5	-52.7	12.5	1.79e-04	0	56	0	567279616	61	5286
2026-01-05 08:02:35.27	72.24	37.01	-49.3	-52.3	13.0	6.10e-05	0	56	0	569376768	61	5042
2026-01-05 08:02:36.27	71.87	37.13	-49.2	-52.1	13.2	3.12e-05	0	56	0	571473920	61	4954
2026-01-05 08:02:37.26	71.51	37.25	-49.2	-52.0	13.2	1.83e-05	0	56	0	572522496	61	4898
2026-01-05 08:02:38.24	71.15	37.37	-49.0	-51.9	13.3	2.21e-05	0	56	0	574619648	61	4823
2026-01-05 08:02:39.23	70.78	37.49	-49.2	-52.0	13.1	2.67e-05	0	56	0	576716800	61	4925
2026-01-05 08:02:40.22	70.41	37.61	-49.3	-52.3	12.9	3.05e-05	0	56	0	578813952	61	5083
2026-01-05 08:02:41.21	70.03	37.73	-49.3	-52.2	12.9	5.41e-05	0	56	0	579862528	61	5003
2026-01-05 08:02:42.20	69.65	37.85	-49.2	-52.0	13.2	3.28e-05	0	56	0	581959680	61	4896
2026-01-05 08:02:43.18	69.28	37.96	-49.0	-51.7	13.5	1.52e-05	0	56	0	584056832	61	4755
2026-01-05 08:02:44.17	68.90	38.08	-49.0	-51.8	13.4	2.05e-05	0	56	0	586153984	61	4796
2026-01-05 08:02:45.16	68.51	38.19	-49.0	-51.7	13.5	1.22e-05	0	56	0	587202560	61	4737
2026-01-05 08:02:46.15	68.12	38.30	-49.0	-51.8	13.4	1.14e-05	0	56	0	589299712	60	5072
2026-01-05 08:02:47.14	67.73	38.41	-48.9	-51.6	13.7	1.29e-05	0	56	0	591396864	60	4929
2026-01-05 08:02:48.12	67.34	38.52	-48.8	-51.5	13.7	4.50e-06	0	56	0	593494016	60	4898
2026-01-05 08:02:49.12	66.94	38.63	-48.9	-51.6	13.7	4.50e-06	0	56	0	595591168	60	4927
2026-01-05 08:02:50.11	66.55	38.74	-49.1	-51.8	13.4	1.14e-05	0	56	0	596639744	60	5081
2026-01-05 08:02:51.10	66.14	38.85	-49.0	-51.8	13.4	9.10e-06	0	56	0	598736896	60	5054
2026-01-05 08:02:52.09	65.74	38.96	-49.2	-52.1	13.1	2.28e-05	0	56	0	600834048	60	5249
2026-01-05 08:02:53.08	65.33	39.06	-48.9	-51.7	13.6	6.80e-06	0	56	0	602931200	60	4985
2026-01-05 08:02:54.08	64.92	39.16	-48.9	-51.5	13.8	5.30e-06	0	56	0	603979776	60	4894
2026-01-05 08:02:55.07	64.51	39.27	-49.0	-51.7	13.6	6.80e-06	0	56	0	606076928	60	5015
2026-01-05 08:02:56.06	64.09	39.37	-49.1	-51.8	13.5	1.37e-05	0	56	0	608174080	60	5071
2026-01-05 08:02:57.04	63.68	39.46	-49.3	-52.3	12.9	3.12e-05	0	56	0	610271232	60	5342
2026-01-05 08:02:58.04	63.26	39.56	-49.0	-51.7	13.5	1.83e-05	0	56	0	611319808	60	5041
2026-01-05 08:02:59.02	62.84	39.66	-48.7	-51.1	14.2	5.30e-06	0	56	0	613416960	60	4702
2026-01-05 08:03:00.01	62.42	39.75	-48.4	-50.8	14.5	7.00e-07	0	56	0	615514112	60	4499
2026-01-05 08:03:01.01	61.99	39.84	-48.2	-50.4	14.8	0.00e+00	0	56	0	617611264	59	4586
2026-01-05 08:03:02.00	61.56	39.94	-48.0	-50.0	15.3	0.00e+00	0	56	0	619708416	59	4371
2026-01-05 08:03:02.98	61.13	40.02	-47.8	-49.7	15.6	0.00e+00	0	56	0	620756992	58	4489
2026-01-05 08:03:03.97	60.69	40.11	-47.6	-49.5	15.7	0.00e+00	0	56	0	622854144	58	4366
2026-01-05 08:03:04.96	60.26	40.20	-47.6	-49.5	15.8	0.00e+00	0	56	0	624951296	58	4345
2026-01-05 08:03:05.95	59.82	40.28	-47.4	-49.1	16.2	0.00e+00	0	56	0	627048448	57	4407
2026-01-05 08:03:06.95	59.37	40.37	-47.1	-48.8	16.5	0.00e+00	0	56	0	628097024	57	4266
2026-01-05 08:03:07.94	58.93	40.45	-47.1	-48.7	16.5	0.00e+00	0	56	0	630194176	57	4221
2026-01-05 08:03:08.93	58.49	40.53	-47.2	-48.9	16.3	0.00e+00	0	56	0	632291328	57	4329
2026-01-05 08:03:09.92	58.04	40.60	-47.0	-48.7	16.6	0.00e+00	0	56	0	634388480	57	4210
2026-01-05 08:03:10.91	57.59	40.68	-46.9	-48.5	16.7	0.00e+00	0	56	0	636485632	57	4131
2026-01-05 08:03:11.90	57.14	40.75	-47.2	-48.8	16.5	0.00e+00	0	56	0	637534208	56	4538
2026-01-05 08:03:12.89	56.68	40.83	-47.3	-49.1	16.1	0.00e+00	0	56	0	639631360	56	4705
2026-01-05 08:03:13.88	56.23	40.90	-47.6	-49.5	15.8	0.00e+00	0	56	0	641728512	57	4629
2026-01-05 08:03:14.87	55.77	40.96	-47.4	-49.2	16.1	0.00e+00	0	56	0	643825664	57	4473
2026-01-05 08:03:15.86	55.31	41.03	-47.2	-49.0	16.3	0.00e+00	0	56	0	644874240	57	4342
2026-01-05 08:03:16.85	54.85	41.09	-47.2	-48.9	16.4	0.00e+00	0	56	0	646971392	57	4293
2026-01-05 08:03:17.84	54.39	41.16	-47.4	-49.2	16.1	0.00e+00	0	56	0	649068544	57	4464
2026-01-05 08:03:18.83	53.92	41.22	-47.3	-49.0	16.3	0.00e+00	0	56	0	651165696	57	4364
2026-01-05 08:03:19.82	53.45	41.27	-46.9	-48.6	16.7	0.00e+00	0	56	0	652214272	57	4146
2026-01-05 08:03:20.81	52.99	41.33	-46.9	-48.5	16.8	0.00e+00	0	56	0	654311424	56	4369
2026-01-05 08:03:21.79	52.52	41.38	-46.9	-48.5	16.7	0.00e+00	0	56	0	656408576	56	4380
2026-01-05 08:03:22.78	52.05	41.43	-47.0	-48.6	16.7	0.00e+00	0	56	0	658505728	56	4417
2026-01-05 08:03:23.78	51.57	41.48	-47.1	-48.7	16.6	0.00e+00	0	56	0	659554304	56	4472
2026-01-05 08:03:24.77	51.10	41.53	-46.9	-48.6	16.7	0.00e+00	0	56	0	661651456	56	4395
2026-01-05 08:03:25.76	50.62	41.58	-47.0	-48.6	16.7	0.00e+00	0	56	0	663748608	56	4417
2026-01-05 08:03:26.75	50.14	41.62	-47.2	-48.9	16.5	0.00e+00	0	56	0	665845760	56	4556
2026-01-05 08:03:27.74	49.66	41.66	-47.1	-48.8	16.5	0.00e+00	0	56	0	667942912	56	4502
2026-01-05 08:03:28.73	49.19	41.70	-47.1	-48.8	16.5	0.00e+00	0	56	0	668991488	56	4514
2026-01-05 08:03:29.71	48.71	41.74	-47.2	-48.9	16.3	0.00e+00	0	56	0	671088640	56	4596
2026-01-05 08:03:30.69	48.23	41.77	-47.3	-49.1	16.2	0.00e+00	0	56	0	673185792	56	4672
2026-01-05 08:03:31.68	47.75	41.80	-47.5	-49.3	16.0	0.00e+00	0	56	0	675282944	56	4802
2026-01-05 08:03:32.67	47.27	41.83	-47.5	-49.3	16.1	0.00e+00	0	56	0	676331520	56	4762
2026-01-05 08:03:33.65	46.79	41.86	-47.3	-49.1	16.2	0.00e+00	0	56	0	678428672	56	4673
2026-01-05 08:03:34.63	46.31	41.88	-47.5	-49.3	16.0	0.00e+00	0	56	0	680525824	56	4784
2026-01-05 08:03:35.62	45.82	41.91	-47.5	-49.4	15.9	0.00e+00	0	56	0	682622976	57	4549
2026-01-05 08:03:36.62	45.33	41.93	-47.4	-49.1	16.1	0.00e+00	0	56	0	683671552	57	4440
2026-01-05 08:03:37.60	44.85	41.94	-47.5	-49.4	15.9	0.00e+00	0	56	0	685768704	57	4567
2026-01-05 08:03:38.59	44.36	41.96	-47.8	-49.8	15.5	0.00e+00	0	56	0	687865856	57	4793
2026-01-05 08:03:39.58	43.87	41.97	-48.0	-50.1	15.2	0.00e+00	0	56	0	689963008	57	4951
2026-01-05 08:03:40.57	43.38	41.98	-48.2	-50.3	14.9	0.00e+00	0	56	0	692060160	58	4814
2026-01-05 08:03:41.56	42.89	41.99	-48.1	-50.1	15.1	0.00e+00	0	56	0	693108736	58	4685
2026-01-05 08:03:42.55	42.41	42.00	-48.1	-50.2	15.2	7.00e-07	0	56	0	695205888	58	4739
2026-01-05 08:03:43.54	41.92	42.00	-48.2	-50.4	14.9	0.00e+00	0	56	0	697303040	58	4835
2026-01-05 08:03:44.53	41.43	42.01	-48.3	-50.5	14.8	0.00e+00	0	56	0	699400192	58	4898
2026-01-05 08:03:45.51	40.94	42.00	-48.6	-50.9	14.3	7.00e-07	0	56	0	700448768	58	5145
2026-01-05 08:03:46.49	40.46	42.00	-48.6	-51.0	14.2	0.00e+00	0	56	0	702545920	59	4920
2026-01-05 08:03:47.48	39.97	42.00	-48.7	-51.1	14.3	0.00e+00	0	56	0	704643072	59	4928
2026-01-05 08:03:48.47	39.48	41.99	-48.8	-51.3	14.0	2.20e-06	0	56	0	706740224	59	5055
2026-01-05 08:03:49.45	39.00	41.98	-49.0	-51.6	13.7	3.00e-06	0	56	0	707788800	59	5219
2026-01-05 08:03:50.45	38.50	41.97	-49.0	-51.7	13.6	1.22e-05	0	56	0	709885952	60	5013
2026-01-05 08:03:51.44	38.02	41.95	-49.0	-51.7	13.5	1.14e-05	0	56	0	711983104	60	5025
2026-01-05 08:03:52.43	37.53	41.93	-48.9	-51.5	13.8	4.50e-06	0	56	0	714080256	60	4891
2026-01-05 08:03:53.41	37.05	41.91	-49.0	-51.6	13.7	9.90e-06	0	56	0	716177408	60	4947
2026-01-05 08:03:54.41	36.56	41.89	-49.2	-52.0	13.3	9.90e-06	0	56	0	717225984	60	5181
2026-01-05 08:03:55.39	36.08	41.87	-49.3	-52.2	13.1	3.58e-05	0	56	0	719323136	60	5290
2026-01-05 08:03:56.39	35.59	41.84	-49.6	-52.8	12.5	9.91e-05	0	56	0	721420288	61	5378
2026-01-05 08:03:57.38	35.10	41.81	-49.6	-52.8	12.4	1.23e-04	0	56	0	723517440	61	5399
2026-01-05 08:03:58.36	34.63	41.78	-49.8	-53.2	11.9	1.67e-04	0	56	0	724566016	61	5629
2026-01-05 08:03:59.35	34.14	41.75	-50.0	-53.5	11.7	5.42e-04	0	56	0	726663168	61	5846
2026-01-05 08:04:00.34	33.66	41.71	-50.1	-53.9	11.2	1.04e-03	0	56	0	728760320	62	5764
2026-01-05 08:04:01.33	33.18	41.68	-50.1	-53.7	11.4	1.28e-03	0	56	0	730857472	62	5654
2026-01-05 08:04:02.32	32.70	41.64	-50.0	-53.7	11.5	9.50e-04	0	56	0	731906048	62	5652
2026-01-05 08:04:03.30	32.23	41.60	-50.0	-53.7	11.5	1.06e-03	0	56	0	734003200	62	5625
2026-01-05 08:04:04.29	31.76	41.55	-50.1	-53.9	11.3	1.06e-03	0	56	0	736100352	62	5766
2026-01-05 08:04:05.29	31.28	41.50	-50.3	-54.3	10.8	1.65e-03	0	56	0	738197504	62	6036
2026-01-05 08:04:06.28	30.80	41.46	-50.4	-54.4	10.7	2.68e-03	0	56	0	739246080	62	6097
2026-01-05 08:04:07.26	30.34	41.40	-50.4	-54.5	10.7	4.00e-03	0	56	0	741343232	62	6146
2026-01-05 08:04:08.25	29.87	41.35	-50.2	-53.9	11.3	1.67e-03	0	56	0	743440384	62	5780
2026-01-05 08:04:09.24	29.40	41.30	-49.8	-53.2	12.0	8.72e-04	0	56	0	745537536	62	5328
2026-01-05 08:04:10.23	28.93	41.24	-49.8	-53.1	12.1	2.66e-04	0	56	0	747634688	62	5256
2026-01-05 08:04:11.22	28.47	41.18	-49.7	-52.9	12.3	2.43e-04	0	56	0	748683264	62	5124
2026-01-05 08:04:12.21	28.00	41.12	-49.4	-52.4	12.8	1.17e-04	0	56	0	750780416	61	5115
2026-01-05 08:04:13.21	27.54	41.06	-48.8	-51.5	13.6	1.75e-05	0	56	0	752877568	60	4924
2026-01-05 08:04:14.20	27.08	40.99	-48.6	-51.1	14.2	2.20e-06	0	56	0	754974720	60	4655
2026-01-05 08:04:15.19	26.62	40.92	-48.3	-50.6	14.6	7.00e-07	0	56	0	756023296	59	4689
2026-01-05 08:04:16.18	26.16	40.85	-48.4	-50.6	14.8	0.00e+00	0	56	0	758120448	59	4670
2026-01-05 08:04:17.17	25.71	40.78	-48.4	-50.7	14.6	1.50e-06	0	56	0	760217600	59	4749
2026-01-05 08:04:18.16	25.26	40.71	-48.1	-50.2	15.0	0.00e+00	0	56	0	762314752	59	4482
2026-01-05 08:04:19.16	24.80	40.63	-47.8	-49.7	15.5	0.00e+00	0	56	0	764411904	58	4491
2026-01-05 08:04:20.14	24.36	40.56	-47.5	-49.4	15.8	0.00e+00	0	56	0	765460480	58	4317
2026-01-05 08:04:21.13	23.91	40.48	-47.6	-49.4	15.8	0.00e+00	0	56	0	767557632	58	4315
2026-01-05 08:04:22.12	23.47	40.40	-47.7	-49.6	15.6	0.00e+00	0	56	0	769654784	58	4430
2026-01-05 08:04:23.11	23.03	40.32	-47.3	-49.0	16.2	0.00e+00	0	56	0	771751936	57	4357
2026-01-05 08:04:24.10	22.59	40.23	-46.9	-48.5	16.7	0.00e+00	0	56	0	772800512	57	4129
2026-01-05 08:04:25.10	22.15	40.15	-46.9	-48.5	16.8	0.00e+00	0	56	0	774897664	56	4357
2026-01-05 08:04:26.09	21.71	40.06	-47.1	-48.8	16.5	0.00e+00	0	56	0	776994816	56	4504
2026-01-05 08:04:27.07	21.28	39.97	-47.2	-48.9	16.3	0.00e+00	0	56	0	779091968	56	4594
2026-01-05 08:04:28.06	20.85	39.88	-46.8	-48.3	16.9	0.00e+00	0	56	0	780140544	56	4269
2026-01-05 08:04:29.04	20.43	39.79	-46.6	-48.1	17.1	0.00e+00	0	56	0	782237696	56	4146
2026-01-05 08:04:30.02	20.01	39.70	-46.1	-47.5	17.6	0.00e+00	0	56	0	784334848	55	4137
2026-01-05 08:04:31.01	19.59	39.60	-46.1	-47.5	17.7	0.00e+00	0	56	0	786432000	55	4102
2026-01-05 08:04:32.01	19.17	39.51	-46.2	-47.6	17.5	0.00e+00	0	56	0	788529152	55	4186
2026-01-05 08:04:33.00	18.75	39.41	-46.3	-47.8	17.3	0.00e+00	0	56	0	789577728	55	4258
2026-01-05 08:04:34.00	18.33	39.31	-46.6	-48.1	17.0	0.00e+00	0	56	0	791674880	55	4416
2026-01-05 08:04:34.99	17.92	39.21	-46.8	-48.4	16.8	0.00e+00	0	57	0	793772032	55	4565
2026-01-05 08:04:35.98	17.51	39.11	-46.7	-48.2	16.9	0.00e+00	0	56	0	795869184	55	4481
2026-01-05 08:04:36.97	17.10	39.00	-46.5	-48.1	17.1	0.00e+00	0	56	0	796917760	55	4415
2026-01-05 08:04:37.96	16.70	38.90	-46.5	-48.0	17.2	0.00e+00	0	56	0	799014912	55	4351
2026-01-05 08:04:38.95	16.29	38.79	-46.6	-48.1	17.0	0.00e+00	0	56	0	801112064	55	4414
2026-01-05 08:04:39.94	15.90	38.68	-46.4	-47.9	17.2	0.00e+00	0	57	0	803209216	55	4337
2026-01-05 08:04:40.93	15.50	38.57	-46.4	-47.9	17.3	0.00e+00	0	56	0	804257792	55	4310
2026-01-05 08:04:41.92	15.11	38.46	-46.3	-47.8	17.3	0.00e+00	0	56	0	806354944	55	4289
2026-01-05 08:04:42.91	14.71	38.35	-46.3	-47.7	17.3	0.00e+00	0	56	0	808452096	55	4241
2026-01-05 08:04:43.91	14.32	38.24	-46.4	-47.8	17.3	0.00e+00	0	56	0	810549248	55	4287
2026-01-05 08:04:44.90	13.94	38.13	-46.3	-47.8	17.4	0.00e+00	0	56	0	812646400	55	4257
2026-01-05 08:04:45.89	13.55	38.01	-46.3	-47.7	17.4	0.00e+00	0	56	0	813694976	55	4239
2026-01-05 08:04:46.88	13.17	37.90	-46.6	-48.1	17.0	0.00e+00	0	56	0	815792128	55	4432
2026-01-05 08:04:47.88	12.79	37.78	-46.5	-48.0	17.1	0.00e+00	0	56	0	817889280	55	4359
2026-01-05 08:04:48.87	12.42	37.66	-46.6	-48.2	16.8	0.00e+00	0	57	0	819986432	55	4491
2026-01-05 08:04:49.87	12.04	37.54	-46.6	-48.2	16.9	0.00e+00	0	56	0	821035008	55	4465
2026-01-05 08:04:50.85	11.68	37.42	-46.7	-48.3	16.8	0.00e+00	0	56	0	823132160	55	4534
2026-01-05 08:04:51.84	11.31	37.30	-46.9	-48.6	16.6	0.00e+00	0	56	0	825229312	55	4653
2026-01-05 08:04:52.84	10.94	37.18	-46.8	-48.3	16.8	0.00e+00	0	56	0	827326464	55	4543
2026-01-05 08:04:53.83	10.58	37.06	-46.9	-48.5	16.7	0.00e+00	0	57	0	829423616	55	4601
2026-01-05 08:04:54.82	10.22	36.94	-47.0	-48.6	16.5	0.00e+00	0	56	0	830472192	55	4673
2026-01-05 08:04:55.82	9.86	36.81	-47.3	-49.0	16.3	0.00e+00	0	57	0	832569344	56	4631
2026-01-05 08:04:56.81	9.51	36.69	-47.3	-49.1	16.2	0.00e+00	0	56	0	834666496	56	4670
2026-01-05 08:04:57.80	9.16	36.56	-47.4	-49.2	16.0	0.00e+00	0	56	0	836763648	56	4746
2026-01-05 08:04:58.79	8.81	36.43	-47.4	-49.2	16.0	0.00e+00	0	57	0	837812224	56	4733
2026-01-05 08:04:59.78	8.47	36.31	-47.3	-49.0	16.3	0.00e+00	0	56	0	839909376	56	4616
2026-01-05 08:05:00.77	8.13	36.18	-47.3	-49.1	16.1	0.00e+00	0	56	0	842006528	56	4694
2026-01-05 08:05:01.77	7.78	36.05	-47.4	-49.2	16.0	0.00e+00	0	56	0	844103680	56	4754
2026-01-05 08:05:02.75	7.45	35.92	-47.5	-49.5	15.8	0.00e+00	0	56	0	846200832	57	4603
2026-01-05 08:05:03.74	7.12	35.79	-47.7	-49.6	15.5	0.00e+00	0	56	0	847249408	57	4701
2026-01-05 08:05:04.74	6.78	35.66	-47.8	-49.8	15.5	0.00e+00	0	56	0	849346560	57	4778
2026-01-05 08:05:05.72	6.46	35.53	-47.9	-49.9	15.4	0.00e+00	0	57	0	851443712	57	4840
2026-01-05 08:05:06.71	6.13	35.40	-48.0	-50.1	15.1	0.00e+00	0	56	0	853540864	57	4964
2026-01-05 08:05:07.69	5.81	35.27	-48.2	-50.3	14.9	0.00e+00	0	57	0	854589440	58	4806
2026-01-05 08:05:08.68	5.49	35.14	-48.4	-50.7	14.6	7.00e-07	0	57	0	856686592	58	4996
2026-01-05 08:05:09.67	5.17	35.01	-48.2	-50.4	14.9	7.00e-07	0	57	0	858783744	58	4838
2026-01-05 08:05:10.66	4.86	34.88	-48.1	-50.2	15.1	0.00e+00	0	57	0	860880896	58	4744
2026-01-05 08:05:11.65	4.54	34.74	-48.1	-50.2	15.1	0.00e+00	0	56	0	861929472	58	4723
2026-01-05 08:05:12.64	4.23	34.61	-48.1	-50.3	15.0	7.00e-07	0	56	0	864026624	58	4769
2026-01-05 08:05:13.63	3.93	34.47	-48.3	-50.4	14.8	0.00e+00	0	57	0	866123776	58	4859
2026-01-05 08:05:14.62	3.62	34.34	-48.3	-50.6	14.7	0.00e+00	0	56	0	868220928	58	4927
2026-01-05 08:05:15.60	3.32	34.21	-48.4	-50.7	14.6	0.00e+00	0	56	0	870318080	58	5011
2026-01-05 08:05:16.60	3.02	34.07	-48.5	-50.9	14.3	7.00e-07	0	57	0	871366656	58	5133
2026-01-05 08:05:17.59	2.72	33.94	-48.6	-51.1	14.0	2.20e-06	0	56	0	873463808	59	4975
2026-01-05 08:05:18.58	2.43	33.80	-48.7	-51.2	14.1	2.20e-06	0	56	0	875560960	59	5005
2026-01-05 08:05:19.57	2.13	33.66	-48.6	-51.0	14.2	0.00e+00	0	57	0	877658112	59	4906
2026-01-05 08:05:20.56	1.84	33.53	-48.8	-51.3	14.0	2.20e-06	0	57	0	878706688	59	5048
2026-01-05 08:05:21.56	1.55	33.39	-49.0	-51.7	13.5	7.60e-06	0	57	0	880803840	59	5281
2026-01-05 08:05:22.55	1.27	33.25	-49.0	-51.8	13.3	1.29e-05	0	56	0	882900992	60	5089
2026-01-05 08:05:23.53	0.99	33.12	-49.2	-52.0	13.1	2.59e-05	0	56	0	884998144	60	5216
2026-01-05 08:05:24.52	0.71	32.98	-49.2	-52.1	13.0	4.65e-05	0	57	0	886046720	60	5269
2026-01-05 08:05:25.51	0.43	32.84	-49.4	-52.4	12.7	4.73e-05	0	57	0	888143872	60	5442
2026-01-05 08:05:26.50	0.15	32.71	-49.4	-52.5	12.7	8.54e-05	0	57	0	890241024	60	5477
2026-01-05 08:05:27.48	359.88	32.57	-49.3	-52.3	12.8	5.87e-05	0	57	0	892338176	60	5385
2026-01-05 08:05:28.47	359.61	32.43	-49.5	-52.6	12.5	8.54e-05	0	56	0	893386752	60	5572
2026-01-05 08:05:29.46	359.34	32.30	-49.5	-52.8	12.3	1.65e-04	0	56	0	895483904	60	5693
2026-01-05 08:05:30.45	359.08	32.16	-49.6	-52.9	12.3	1.52e-04	0	56	0	897581056	61	5448
2026-01-05 08:05:31.44	358.81	32.02	-49.7	-53.2	11.9	2.27e-04	0	57	0	899678208	61	5632
2026-01-05 08:05:32.43	358.55	31.88	-49.6	-53.0	12.2	3.51e-04	0	57	0	901775360	61	5488
2026-01-05 08:05:33.41	358.29	31.75	-49.3	-52.5	12.6	1.59e-04	0	57	0	902823936	61	5198
2026-01-05 08:05:34.40	358.04	31.61	-49.5	-52.8	12.3	1.23e-04	0	56	0	904921088	61	5381
2026-01-05 08:05:35.39	357.78	31.47	-49.5	-52.8	12.3	1.64e-04	0	57	0	907018240	61	5349
2026-01-05 08:05:36.39	357.52	31.33	-49.6	-53.0	12.1	1.90e-04	0	57	0	909115392	61	5500
2026-01-05 08:05:37.37	357.28	31.19	-49.6	-52.9	12.2	1.85e-04	0	57	0	910163968	61	5451
2026-01-05 08:05:38.36	357.03	31.06	-49.5	-52.8	12.4	2.12e-04	0	56	0	912261120	61	5349
2026-01-05 08:05:39.36	356.78	30.92	-49.3	-52.4	12.7	7.93e-05	0	57	0	914358272	61	5119
2026-01-05 08:05:40.35	356.53	30.78	-49.1	-52.0	13.1	4.80e-05	0	56	0	916455424	61	4905
2026-01-05 08:05:41.33	356.29	30.64	-49.0	-51.8	13.3	2.28e-05	0	57	0	917504000	61	4796
2026-01-05 08:05:42.32	356.05	30.51	-49.1	-51.9	13.2	1.37e-05	0	57	0	919601152	61	4861
2026-01-05 08:05:43.32	355.81	30.37	-49.1	-51.9	13.3	1.60e-05	0	57	0	921698304	61	4833
2026-01-05 08:05:44.31	355.58	30.23	-49.0	-51.8	13.2	1.14e-05	0	57	0	923795456	61	4810
2026-01-05 08:05:45.29	355.34	30.09	-49.0	-51.8	13.4	1.67e-05	0	57	0	925892608	61	4793
2026-01-05 08:05:46.28	355.11	29.96	-49.0	-51.7	13.5	1.83e-05	0	57	0	926941184	60	5010
2026-01-05 08:05:47.27	354.88	29.82	-48.7	-51.3	13.7	6.10e-06	0	57	0	929038336	60	4809
2026-01-05 08:05:48.26	354.65	29.68	-48.9	-51.6	13.6	5.30e-06	0	57	0	931135488	60	4947
2026-01-05 08:05:49.25	354.43	29.55	-48.7	-51.3	13.8	4.50e-06	0	57	0	933232640	60	4780
2026-01-05 08:05:50.24	354.20	29.41	-48.6	-51.0	14.2	3.00e-06	0	57	0	934281216	60	4638
2026-01-05 08:05:51.23	353.98	29.27	-48.5	-50.9	14.3	7.00e-07	0	57	0	936378368	59	4815
2026-01-05 08:05:52.22	353.76	29.14	-48.4	-50.8	14.4	0.00e+00	0	56	0	938475520	59	4792
2026-01-05 08:05:53.21	353.54	29.00	-48.4	-50.7	14.4	0.00e+00	0	56	0	940572672	59	4743
2026-01-05 08:05:54.20	353.33	28.87	-48.4	-50.7	14.4	7.00e-07	0	56	0	942669824	59	4750
2026-01-05 08:05:55.19	353.11	28.73	-48.4	-50.6	14.6	0.00e+00	0	57	0	943718400	59	4694
2026-01-05 08:05:56.17	352.90	28.60	-48.2	-50.4	14.7	2.20e-06	0	57	0	945815552	59	4589
2026-01-05 08:05:57.16	352.69	28.46	-48.2	-50.4	14.7	0.00e+00	0	57	0	947912704	59	4566
2026-01-05 08:05:58.16	352.48	28.32	-48.1	-50.3	14.8	0.00e+00	0	57	0	950009856	59	4528
2026-01-05 08:05:59.15	352.27	28.19	-48.3	-50.6	14.5	0.00e+00	0	57	0	951058432	59	4692
2026-01-05 08:06:00.14	352.06	28.05	-48.2	-50.4	14.8	0.00e+00	0	56	0	953155584	59	4564
2026-01-05 08:06:01.13	351.86	27.92	-48.2	-50.4	14.6	7.00e-07	0	57	0	955252736	59	4595
2026-01-05 08:06:02.12	351.66	27.79	-48.3	-50.5	14.6	7.00e-07	0	57	0	957349888	59	4620
2026-01-05 08:06:03.10	351.46	27.65	-48.2	-50.4	14.7	0.00e+00	0	57	0	958398464	59	4556
2026-01-05 08:06:04.09	351.26	27.52	-48.0	-50.1	15.1	0.00e+00	0	57	0	960495616	59	4406
2026-01-05 08:06:05.08	351.06	27.39	-48.0	-50.1	15.1	0.00e+00	0	56	0	962592768	58	4661
2026-01-05 08:06:06.06	350.87	27.26	-47.9	-50.0	15.2	0.00e+00	0	57	0	964689920	58	4634
2026-01-05 08:06:07.05	350.67	27.12	-47.9	-50.0	15.1	1.50e-06	0	56	0	966787072	58	4630
2026-01-05 08:06:08.05	350.48	26.99	-48.2	-50.4	14.8	7.00e-07	0	57	0	967835648	58	4867
2026-01-05 08:06:09.04	350.29	26.86	-48.1	-50.3	14.8	0.00e+00	0	56	0	969932800	58	4782
2026-01-05 08:06:10.02	350.10	26.73	-48.3	-50.6	14.6	0.00e+00	0	57	0	972029952	58	4951
2026-01-05 08:06:11.01	349.91	26.59	-48.2	-50.5	14.6	1.50e-06	0	57	0	974127104	58	4884
2026-01-05 08:06:12.00	349.73	26.46	-48.2	-50.5	14.7	0.00e+00	0	57	0	975175680	58	4890
2026-01-05 08:06:12.99	349.54	26.33	-48.3	-50.6	14.6	7.00e-07	0	56	0	977272832	58	4938
2026-01-05 08:06:13.97	349.36	26.20	-48.2	-50.5	14.7	0.00e+00	0	56	0	979369984	58	4914
2026-01-05 08:06:14.95	349.18	26.07	-48.2	-50.6	14.6	7.00e-07	0	57	0	981467136	58	4933
2026-01-05 08:06:15.94	349.00	25.94	-48.4	-50.7	14.4	0.00e+00	0	57	0	982515712	58	5005
2026-01-05 08:06:16.93	348.82	25.81	-48.3	-50.6	14.5	0.00e+00	0	56	0	984612864	58	4942
2026-01-05 08:06:17.92	348.65	25.68	-48.4	-50.8	14.3	0.00e+00	0	57	0	986710016	58	5063
2026-01-05 08:06:18.91	348.47	25.56	-48.8	-51.4	13.8	3.00e-06	0	57	0	988807168	59	5127
2026-01-05 08:06:19.91	348.30	25.43	-48.9	-51.6	13.6	6.10e-06	0	57	0	989855744	59	5246
2026-01-05 08:06:20.90	348.12	25.30	-49.0	-51.8	13.4	1.83e-05	0	57	0	991952896	59	5348
2026-01-05 08:06:21.89	347.95	25.17	-49.0	-51.7	13.3	9.90e-06	0	57	0	994050048	59	5326
2026-01-05 08:06:22.87	347.78	25.04	-49.0	-51.9	13.2	2.36e-05	0	57	0	996147200	60	5121
2026-01-05 08:06:23.86	347.62	24.91	-49.0	-51.8	13.2	1.90e-05	0	57	0	998244352	60	5079
2026-01-05 08:06:24.85	347.45	24.79	-49.1	-52.1	13.0	2.74e-05	0	57	0	999292928	60	5238
2026-01-05 08:06:25.84	347.28	24.66	-49.0	-51.9	13.2	3.20e-05	0	57	0	1001390080	60	5102
2026-01-05 08:06:26.83	347.12	24.53	-49.3	-52.4	12.7	3.81e-05	0	57	0	1003487232	60	5416
2026-01-05 08:06:27.82	346.96	24.41	-49.1	-52.1	12.9	4.57e-05	0	57	0	1005584384	60	5248
2026-01-05 08:06:28.80	346.80	24.28	-48.9	-51.6	13.4	2.21e-05	0	57	0	1006632960	60	4962
2026-01-05 08:06:29.78	346.64	24.16	-48.5	-51.0	14.0	6.10e-06	0	57	0	1008730112	60	4641
2026-01-05 08:06:30.77	346.48	24.04	-48.4	-50.9	14.2	2.20e-06	0	57	0	1010827264	60	4578
2026-01-05 08:06:31.76	346.32	23.91	-48.3	-50.6	14.5	7.00e-07	0	57	0	1012924416	59	4690
2026-01-05 08:06:32.76	346.16	23.78	-48.2	-50.5	14.7	0.00e+00	0	57	0	1013972992	59	4612
2026-01-05 08:06:33.75	346.01	23.66	-48.1	-50.4	14.6	7.00e-07	0	57	0	1016070144	59	4592
2026-01-05 08:06:34.75	345.85	23.54	-48.2	-50.5	14.6	0.00e+00	0	56	0	1018167296	59	4628
2026-01-05 08:06:35.73	345.70	23.41	-48.3	-50.6	14.5	7.00e-07	0	57	0	1020264448	59	4668
2026-01-05 08:06:36.73	345.55	23.29	-48.4	-50.8	14.3	7.00e-07	0	57	0	1022361600	59	4792
2026-01-05 08:06:37.72	345.40	23.17	-48.2	-50.5	14.5	1.50e-06	0	57	0	1023410176	59	4620
2026-01-05 08:06:38.71	345.25	23.05	-48.1	-50.3	14.9	0.00e+00	0	57	0	1025507328	59	4511
2026-01-05 08:06:39.70	345.10	22.92	-48.0	-50.1	14.9	0.00e+00	0	57	0	1027604480	59	4420
2026-01-05 08:06:40.69	344.95	22.80	-48.1	-50.3	14.8	0.00e+00	0	57	0	1029701632	59	4524
2026-01-05 08:06:41.69	344.81	22.68	-48.2	-50.4	14.6	0.00e+00	0	57	0	1030750208	59	4593
2026-01-05 08:06:42.67	344.66	22.56	-48.2	-50.6	14.5	0.00e+00	0	57	0	1032847360	59	4671
2026-01-05 08:06:43.67	344.52	22.44	-48.2	-50.5	14.5	7.00e-07	0	57	0	1034944512	59	4617
2026-01-05 08:06:44.66	344.38	22.32	-48.3	-50.6	14.3	3.80e-06	0	57	0	1037041664	59	4700
2026-01-05 08:06:45.64	344.24	22.20	-48.2	-50.6	14.5	0.00e+00	0	57	0	1038090240	59	4660
2026-01-05 08:06:46.63	344.10	22.08	-48.4	-50.9	14.2	7.00e-07	0	57	0	1040187392	59	4836
2026-01-05 08:06:47.62	343.96	21.96	-48.3	-50.7	14.2	1.50e-06	0	57	0	1042284544	59	4757
2026-01-05 08:06:48.61	343.82	21.84	-48.3	-50.7	14.3	7.00e-07	0	57	0	1044381696	59	4727
2026-01-05 08:06:49.60	343.68	21.73	-48.3	-50.7	14.2	1.50e-06	0	57	0	1046478848	59	4754
2026-01-05 08:06:50.59	343.55	21.61	-48.3	-50.8	14.2	1.50e-06	0	57	0	1047527424	59	4768
2026-01-05 08:06:51.58	343.41	21.49	-48.4	-50.9	14.1	1.50e-06	0	57	0	1049624576	59	4815
2026-01-05 08:06:52.57	343.28	21.38	-48.5	-51.1	13.9	1.50e-06	0	57	0	1051721728	59	4934
2026-01-05 08:06:53.56	343.15	21.26	-48.5	-51.0	13.9	3.80e-06	0	57	0	1053818880	59	4921
2026-01-05 08:06:54.55	343.02	21.14	-48.3	-50.7	14.2	3.00e-06	0	57	0	1054867456	59	4757
2026-01-05 08:06:55.54	342.89	21.03	-48.3	-50.7	14.3	0.00e+00	0	57	0	1056964608	59	4726
2026-01-05 08:06:56.53	342.76	20.91	-48.3	-50.8	14.1	1.50e-06	0	57	0	1059061760	59	4779
2026-01-05 08:06:57.52	342.63	20.80	-48.2	-50.6	14.3	2.20e-06	0	57	0	1061158912	59	4688
2026-01-05 08:06:58.50	342.50	20.68	-48.1	-50.4	14.5	7.00e-07	0	57	0	1062207488	59	4572
2026-01-05 08:06:59.49	342.38	20.57	-47.9	-50.1	14.8	0.00e+00	0	57	0	1064304640	58	4661
2026-01-05 08:07:00.48	342.25	20.45	-47.9	-50.1	14.8	0.00e+00	0	57	0	1066401792	58	4657
2026-01-05 08:07:01.48	342.12	20.34	-48.0	-50.4	14.4	0.00e+00	0	57	0	1068498944	58	4850
2026-01-05 08:07:02.47	342.00	20.23	-48.3	-50.8	14.0	1.50e-06	0	57	0	1070596096	58	5091
2026-01-05 08:07:03.47	341.88	20.11	-48.6	-51.4	13.3	6.10e-06	0	56	0	1071644672	59	5120
2026-01-05 08:07:04.45	341.76	20.00	-48.8	-51.8	12.8	2.51e-05	0	57	0	1073741824	59	5395
2026-01-05 08:07:05.44	341.63	19.89	-49.0	-52.3	12.2	1.72e-04	0	57	0	1075838976	59	5666
2026-01-05 08:07:06.42	341.52	19.78	-49.1	-52.5	11.9	2.54e-04	0	57	0	1077936128	60	5504
2026-01-05 08:07:07.41	341.40	19.67	-49.2	-53.1	11.3	8.51e-04	0	57	0	1078984704	60	5869
2026-01-05 08:07:08.41	341.28	19.55	-49.4	-53.4	10.7	1.49e-03	0	57	0	1081081856	60	6121
2026-01-05 08:07:09.39	341.16	19.45	-49.6	-54.1	10.0	5.81e-03	0	57	0	1083179008	61	6264
2026-01-05 08:07:10.39	341.04	19.33	-49.7	-54.3	9.8	1.07e-02	0	57	0	1085276160	61	6357
2026-01-05 08:07:11.38	340.93	19.22	-49.6	-54.0	9.9	9.96e-03	0	57	0	1086324736	61	6187
2026-01-05 08:07:12.36	340.81	19.12	-49.7	-54.4	9.6	9.94e-03	0	57	0	1088421888	61	6471
2026-01-05 08:07:13.35	340.70	19.01	-49.8	-54.8	9.1	2.11e-02	0	57	0	1090519040	61	6783
2026-01-05 08:07:14.34	340.59	18.90	-49.9	-54.9	9.0	2.07e-02	0	57	0	1092616192	61	6872
2026-01-05 08:07:15.33	340.48	18.79	-50.0	-55.3	8.7	3.76e-02	0	57	0	1094713344	61	7177
2026-01-05 08:07:16.32	340.36	18.68	-49.7	-54.5	9.5	1.91e-02	0	57	0	1095761920	61	6529
2026-01-05 08:07:17.31	340.25	18.57	-49.3	-53.5	10.5	6.55e-03	0	57	0	1097859072	61	5806
2026-01-05 08:07:18.30	340.14	18.47	-49.1	-52.7	11.4	1.70e-03	0	57	0	1099956224	61	5327
2026-01-05 08:07:19.29	340.03	18.36	-48.8	-52.2	12.0	5.98e-04	0	57	0	1102053376	60	5304
2026-01-05 08:07:20.28	339.93	18.25	-48.8	-52.2	12.1	2.48e-04	0	57	0	1103101952	60	5284
2026-01-05 08:07:21.27	339.82	18.15	-48.8	-52.1	12.2	2.90e-04	0	57	0	1105199104	60	5220
2026-01-05 08:07:22.26	339.71	18.04	-48.5	-51.4	13.0	6.94e-05	0	57	0	1107296256	60	4856
2026-01-05 08:07:23.25	339.61	17.93	-48.6	-51.4	13.0	3.58e-05	0	57	0	1109393408	59	5154
2026-01-05 08:07:24.24	339.50	17.83	-48.6	-51.6	12.9	5.87e-05	0	57	0	1110441984	59	5230
2026-01-05 08:07:25.22	339.40	17.72	-48.4	-51.1	13.4	2.36e-05	0	57	0	1112539136	59	4979
2026-01-05 08:07:26.22	339.29	17.62	-48.5	-51.3	13.3	1.37e-05	0	57	0	1114636288	59	5085
2026-01-05 08:07:27.21	339.19	17.51	-48.7	-51.6	13.1	1.90e-05	0	57	0	1116733440	59	5234
2026-01-05 08:07:28.19	339.09	17.41	-49.0	-52.1	12.5	9.46e-05	0	57	0	1118830592	59	5558
2026-01-05 08:07:29.16	338.99	17.31	-49.0	-52.2	12.4	1.36e-04	0	57	0	1119879168	60	5318
2026-01-05 08:07:30.14	338.89	17.21	-48.8	-51.7	13.0	8.54e-05	0	57	0	1121976320	60	5008
2026-01-05 08:07:31.13	338.79	17.10	-48.6	-51.4	13.2	2.67e-05	0	57	0	1124073472	60	4859
2026-01-05 08:07:32.12	338.69	17.00	-48.5	-51.2	13.6	9.90e-06	0	57	0	1126170624	59	5006
2026-01-05 08:07:33.11	338.59	16.90	-48.6	-51.3	13.6	7.60e-06	0	57	0	1127219200	59	5051
2026-01-05 08:07:34.11	338.49	16.80	-48.6	-51.4	13.4	8.30e-06	0	57	0	1129316352	59	5102
2026-01-05 08:07:35.10	338.40	16.70	-48.6	-51.2	13.6	1.29e-05	0	57	0	1131413504	59	5004
2026-01-05 08:07:36.08	338.30	16.60	-48.7	-51.4	13.3	1.37e-05	0	57	0	1133510656	59	5129
2026-01-05 08:07:37.07	338.20	16.49	-48.5	-51.2	13.6	1.06e-05	0	57	0	1134559232	59	5033
2026-01-05 08:07:38.06	338.11	16.39	-48.3	-50.7	14.1	6.80e-06	0	57	0	1136656384	59	4751
2026-01-05 08:07:39.06	338.01	16.29	-48.3	-50.8	14.1	2.20e-06	0	57	0	1138753536	59	4764
2026-01-05 08:07:40.05	337.92	16.19	-48.4	-51.0	13.8	3.80e-06	0	57	0	1140850688	59	4874
2026-01-05 08:07:41.04	337.83	16.09	-48.2	-50.7	14.1	4.50e-06	0	57	0	1141899264	59	4754
2026-01-05 08:07:42.02	337.73	15.99	-48.4	-51.0	13.8	1.50e-06	0	57	0	1143996416	59	4872
2026-01-05 08:07:43.01	337.64	15.90	-48.4	-50.9	13.8	2.20e-06	0	57	0	1146093568	59	4834
2026-01-05 08:07:44.00	337.55	15.80	-48.4	-50.9	13.9	3.00e-06	0	57	0	1148190720	59	4845
2026-01-05 08:07:44.99	337.46	15.70	-48.3	-50.9	13.9	3.00e-06	0	57	0	1150287872	59	4815
2026-01-05 08:07:45.97	337.37	15.60	-48.4	-50.9	13.9	4.50e-06	0	57	0	1151336448	59	4865
2026-01-05 08:07:46.96	337.28	15.50	-48.5	-51.1	13.8	3.00e-06	0	57	0	1153433600	59	4955
2026-01-05 08:07:47.95	337.19	15.41	-48.4	-50.9	13.8	4.50e-06	0	57	0	1155530752	59	4853
2026-01-05 08:07:48.94	337.10	15.31	-48.6	-51.2	13.6	7.60e-06	0	57	0	1157627904	59	5010
2026-01-05 08:07:49.93	337.02	15.21	-48.4	-50.9	13.9	5.30e-06	0	57	0	1158676480	59	4837
2026-01-05 08:07:50.92	336.93	15.12	-48.3	-50.9	13.9	4.50e-06	0	57	0	1160773632	59	4837
2026-01-05 08:07:51.91	336.84	15.02	-48.3	-50.9	13.9	1.50e-06	0	57	0	1162870784	59	4841
2026-01-05 08:07:52.89	336.76	14.93	-48.6	-51.2	13.6	3.80e-06	0	57	0	1164967936	59	4997
2026-01-05 08:07:53.88	336.67	14.83	-48.4	-51.0	13.8	9.90e-06	0	57	0	1166016512	59	4887
2026-01-05 08:07:54.87	336.59	14.74	-48.1	-51.0	13.8	6.80e-06	0	57	0	1168113664	59	4891
2026-01-05 08:07:55.86	336.50	14.64	-48.4	-51.0	13.8	3.00e-06	0	57	0	1170210816	59	4885
2026-01-05 08:07:56.85	336.42	14.55	-48.4	-51.0	13.7	3.80e-06	0	57	0	1172307968	59	4926
2026-01-05 08:07:57.84	336.34	14.45	-48.6	-51.3	13.5	9.90e-06	0	57	0	1174405120	59	5050
2026-01-05 08:07:58.83	336.25	14.36	-48.5	-51.1	13.6	8.30e-06	0	57	0	1175453696	59	4978
2026-01-05 08:07:59.82	336.17	14.26	-48.6	-51.3	13.5	1.06e-05	0	57	0	1177550848	59	5075
2026-01-05 08:08:00.81	336.09	14.17	-48.8	-51.7	13.1	1.29e-05	0	57	0	1179648000	59	5332
2026-01-05 08:08:01.80	336.01	14.08	-48.9	-51.9	12.9	3.73e-05	0	57	0	1181745152	59	5427
2026-01-05 08:08:02.79	335.93	13.99	-49.0	-51.9	12.9	5.49e-05	0	57	0	1182793728	59	5448
2026-01-05 08:08:03.78	335.85	13.89	-48.9	-51.8	12.9	6.02e-05	0	57	0	1184890880	59	5402
2026-01-05 08:08:04.76	335.77	13.80	-49.0	-52.0	12.8	5.26e-05	0	57	0	1186988032	59	5476
2026-01-05 08:08:05.75	335.69	13.71	-49.0	-52.1	12.7	8.54e-05	0	57	0	1189085184	60	5272
2026-01-05 08:08:06.74	335.61	13.62	-49.1	-52.4	12.3	1.17e-04	0	57	0	1190133760	60	5441
2026-01-05 08:08:07.73	335.53	13.53	-49.2	-52.4	12.4	2.14e-04	0	57	0	1192230912	60	5416
2026-01-05 08:08:08.72	335.46	13.44	-49.0	-52.1	12.6	1.36e-04	0	57	0	1194328064	60	5274
2026-01-05 08:08:09.71	335.38	13.34	-49.2	-52.3	12.4	1.30e-04	0	57	0	1196425216	60	5394
2026-01-05 08:08:10.69	335.30	13.26	-49.1	-52.2	12.5	1.61e-04	0	57	0	1198522368	60	5320
2026-01-05 08:08:11.68	335.23	13.17	-49.1	-52.2	12.6	9.61e-05	0	57	0	1199570944	60	5292
2026-01-05 08:08:12.66	335.15	13.08	-49.0	-52.2	12.5	1.12e-04	0	57	0	1201668096	60	5288
2026-01-05 08:08:13.65	335.08	12.99	-49.1	-52.4	12.4	1.33e-04	0	57	0	1203765248	60	5408
2026-01-05 08:08:14.64	335.00	12.90	-49.1	-52.3	12.4	1.83e-04	0	57	0	1205862400	60	5370
2026-01-05 08:08:15.63	334.93	12.81	-49.0	-52.0	12.7	1.18e-04	0	57	0	1206910976	60	5203
2026-01-05 08:08:16.63	334.86	12.72	-48.8	-51.7	13.0	3.20e-05	0	57	0	1209008128	60	5000
2026-01-05 08:08:17.62	334.78	12.63	-48.6	-51.4	13.3	1.75e-05	0	57	0	1211105280	60	4855
2026-01-05 08:08:18.61	334.71	12.54	-48.7	-51.4	13.3	1.44e-05	0	57	0	1213202432	59	5129
2026-01-05 08:08:19.60	334.64	12.45	-48.6	-51.4	13.4	1.67e-05	0	57	0	1215299584	59	5118
2026-01-05 08:08:20.58	334.57	12.37	-48.6	-51.4	13.4	1.29e-05	0	57	0	1216348160	59	5107
2026-01-05 08:08:21.58	334.49	12.28	-48.9	-51.8	13.0	2.51e-05	0	57	0	1218445312	59	5342
2026-01-05 08:08:22.57	334.42	12.19	-48.8	-51.7	13.1	4.11e-05	0	57	0	1220542464	59	5287
2026-01-05 08:08:23.56	334.35	12.10	-48.7	-51.4	13.3	1.75e-05	0	57	0	1222639616	59	5155
2026-01-05 08:08:24.54	334.28	12.02	-48.6	-51.3	13.5	1.14e-05	0	57	0	1223688192	59	5068
2026-01-05 08:08:25.53	334.21	11.93	-48.6	-51.4	13.4	9.10e-06	0	57	0	1225785344	59	5107
2026-01-05 08:08:26.52	334.15	11.85	-48.6	-51.4	13.3	1.29e-05	0	57	0	1227882496	59	5109
2026-01-05 08:08:27.51	334.08	11.76	-48.7	-51.5	13.2	2.21e-05	0	57	0	1229979648	59	5203
2026-01-05 08:08:28.49	334.01	11.68	-48.8	-51.7	13.0	3.12e-05	0	57	0	1231028224	59	5304
