passes_logs/2026/01/05/R3.0SM8_Murmansk_STILSPACE/R3.0SM8_Murmansk_STILSPACE__20260105_061815_NOAA_20_JPSS-1_rec.log

#Pass ID: 20260105_061815_NOAA 20 (JPSS-1)
#Satellite: NOAA 20 (JPSS-1)
#Configuration: NOAA 20
#almurnet v.1.7.20240730
#Start time: 2026-01-05 06:18:16

#Version: 2.2.20231116
#Station: R3.0SM8_Murmansk_STILSPACE
#Location: 33.092731 lon 68.902999 lat
#TLE: 1 43013U 17073A   26004.47528369  .00000132  00000+0  83671-4 0  9999
#TLE: 2 43013  98.7626 305.5264 0001854  54.5883 305.5466 14.19533142421242

#Time	Az	El	Level	Level2	SNR	BER	BlckErr	Temp	State	Recorded	gain1	gain2
2026-01-05 06:18:16.86	80.24	3.07	-52.3	-66.1	3.8	1.49e+00	0	46	0	0	67	17594
2026-01-05 06:18:17.84	80.18	3.13	-52.1	-65.9	3.8	1.49e+00	0	46	104	0	67	17151
2026-01-05 06:18:18.83	80.12	3.19	-52.0	-65.8	3.8	1.49e+00	0	46	104	0	67	16999
2026-01-05 06:18:19.82	80.05	3.25	-51.9	-65.7	3.8	1.49e+00	0	46	104	0	66	17753
2026-01-05 06:18:20.82	79.99	3.31	-51.7	-65.5	3.8	1.49e+00	0	47	104	0	66	17423
2026-01-05 06:18:21.81	79.92	3.37	-51.6	-65.3	3.8	1.49e+00	0	47	104	0	66	17041
2026-01-05 06:18:22.80	79.86	3.43	-51.6	-65.3	3.8	1.49e+00	0	47	104	0	66	17025
2026-01-05 06:18:23.79	79.80	3.49	-51.4	-65.3	3.8	1.49e+00	0	47	104	0	66	17025
2026-01-05 06:18:24.79	79.73	3.55	-51.6	-65.3	3.8	1.49e+00	0	47	104	0	66	16981
2026-01-05 06:18:25.78	79.67	3.61	-51.5	-65.3	3.8	1.49e+00	0	47	104	0	66	17011
2026-01-05 06:18:26.77	79.60	3.67	-51.5	-65.3	3.8	1.49e+00	0	47	104	0	66	16995
2026-01-05 06:18:27.76	79.54	3.73	-51.6	-65.3	3.8	1.49e+00	0	47	104	0	66	17015
2026-01-05 06:18:28.75	79.47	3.79	-51.5	-65.3	3.8	1.49e+00	0	47	104	0	66	17014
2026-01-05 06:18:29.73	79.40	3.85	-51.5	-65.3	3.8	1.49e+00	0	47	104	0	66	16982
2026-01-05 06:18:30.72	79.34	3.91	-51.6	-65.3	3.8	1.49e+00	0	47	104	0	66	17054
2026-01-05 06:18:31.71	79.27	3.97	-51.5	-65.3	3.8	1.49e+00	0	47	104	0	66	17003
2026-01-05 06:18:32.71	79.20	4.03	-51.6	-65.3	3.8	1.49e+00	0	47	104	0	66	17034
2026-01-05 06:18:33.70	79.14	4.09	-51.6	-65.3	3.8	1.49e+00	0	47	104	0	66	17020
2026-01-05 06:18:34.69	79.07	4.15	-51.6	-65.3	3.8	1.49e+00	0	47	104	0	66	17023
2026-01-05 06:18:35.68	79.00	4.21	-51.6	-65.3	3.8	1.49e+00	0	48	104	0	65	17966
2026-01-05 06:18:36.66	78.93	4.27	-51.5	-65.2	3.8	1.49e+00	0	48	104	0	65	17779
2026-01-05 06:18:37.65	78.87	4.33	-51.5	-65.1	3.8	1.49e+00	0	48	104	0	65	17557
2026-01-05 06:18:38.64	78.80	4.39	-51.5	-65.0	3.8	1.49e+00	0	48	104	0	65	17285
2026-01-05 06:18:39.63	78.73	4.45	-51.5	-64.6	3.8	1.49e+00	0	48	104	0	65	16676
2026-01-05 06:18:40.62	78.66	4.51	-51.5	-64.2	3.8	1.49e+00	0	48	104	0	65	15924
2026-01-05 06:18:41.61	78.59	4.58	-51.5	-63.8	3.8	1.49e+00	0	48	104	0	65	15072
2026-01-05 06:18:42.60	78.52	4.64	-51.3	-63.2	3.8	1.49e+00	0	48	104	0	65	14143
2026-01-05 06:18:43.58	78.45	4.70	-51.3	-62.4	4.1	1.47e+00	0	48	0	0	65	12835
2026-01-05 06:18:44.57	78.38	4.76	-51.3	-61.6	4.3	1.40e+00	0	48	0	0	65	11737
2026-01-05 06:18:45.56	78.31	4.82	-51.2	-60.9	4.5	1.30e+00	9	48	0	0	65	10803
2026-01-05 06:18:46.56	78.24	4.88	-51.1	-60.1	4.8	9.28e-01	0	48	0	2097152	65	9934
2026-01-05 06:18:47.54	78.17	4.94	-51.0	-59.4	5.2	6.56e-01	0	49	0	4194304	65	9158
2026-01-05 06:18:48.54	78.09	5.01	-50.9	-58.9	5.5	5.29e-01	0	48	0	6291456	64	9173
2026-01-05 06:18:49.53	78.02	5.07	-50.8	-58.6	5.7	4.08e-01	0	49	0	8388608	64	8820
2026-01-05 06:18:50.51	77.95	5.13	-50.9	-58.9	5.5	4.26e-01	0	49	0	9437184	64	9110
2026-01-05 06:18:51.51	77.88	5.19	-51.0	-58.9	5.5	4.91e-01	0	49	0	11534336	64	9154
2026-01-05 06:18:52.49	77.81	5.26	-50.9	-58.4	5.9	4.02e-01	0	49	0	13631488	64	8617
2026-01-05 06:18:53.48	77.73	5.32	-50.8	-58.1	6.1	3.38e-01	0	49	0	15728640	64	8309
2026-01-05 06:18:54.47	77.66	5.38	-50.8	-57.9	6.3	2.66e-01	0	49	0	16777216	64	8085
2026-01-05 06:18:55.47	77.58	5.44	-50.8	-57.9	6.3	2.67e-01	0	49	0	18874368	64	8135
2026-01-05 06:18:56.45	77.51	5.51	-50.9	-58.4	6.0	2.74e-01	0	49	0	20971520	64	8611
2026-01-05 06:18:57.44	77.44	5.57	-51.0	-58.6	5.8	4.44e-01	0	49	0	23068672	64	8809
2026-01-05 06:18:58.44	77.36	5.63	-50.7	-57.6	6.6	2.59e-01	0	49	0	24117248	64	7833
2026-01-05 06:18:59.43	77.28	5.70	-50.5	-56.7	7.4	1.52e-01	0	49	0	26214400	64	7057
2026-01-05 06:19:00.42	77.21	5.76	-50.4	-56.0	8.2	8.10e-02	0	49	0	28311552	63	6956
2026-01-05 06:19:01.41	77.13	5.82	-50.2	-55.3	8.9	3.32e-02	0	49	0	30408704	63	6411
2026-01-05 06:19:02.40	77.06	5.89	-50.0	-55.0	9.3	2.27e-02	0	49	0	32505856	63	6150
2026-01-05 06:19:03.40	76.98	5.95	-49.8	-54.3	9.9	1.37e-02	0	49	0	33554432	62	6054
2026-01-05 06:19:04.39	76.90	6.01	-49.6	-54.0	10.3	7.44e-03	0	50	0	35651584	62	5801
2026-01-05 06:19:05.37	76.82	6.08	-49.5	-53.6	10.7	3.26e-03	0	49	0	37748736	62	5556
2026-01-05 06:19:06.36	76.75	6.14	-49.3	-53.1	11.1	2.13e-03	0	49	0	39845888	61	5581
2026-01-05 06:19:07.35	76.67	6.20	-49.3	-53.0	11.3	1.16e-03	0	50	0	40894464	61	5508
2026-01-05 06:19:08.33	76.59	6.27	-49.2	-52.7	11.5	1.03e-03	0	50	0	42991616	61	5333
2026-01-05 06:19:09.31	76.51	6.33	-49.3	-53.0	11.3	1.07e-03	0	50	0	45088768	61	5508
2026-01-05 06:19:10.31	76.43	6.40	-49.4	-53.3	11.0	1.36e-03	0	50	0	47185920	61	5686
2026-01-05 06:19:11.29	76.35	6.46	-49.4	-53.2	11.0	2.08e-03	0	50	0	48234496	61	5655
2026-01-05 06:19:12.29	76.27	6.53	-49.3	-53.1	11.2	1.53e-03	0	50	0	50331648	61	5553
2026-01-05 06:19:13.27	76.19	6.59	-49.2	-52.9	11.5	1.06e-03	0	50	0	52428800	61	5429
2026-01-05 06:19:14.26	76.11	6.65	-49.3	-53.1	11.2	1.20e-03	0	50	0	54525952	61	5582
2026-01-05 06:19:15.25	76.03	6.72	-49.5	-53.3	11.0	1.83e-03	0	50	0	56623104	61	5720
2026-01-05 06:19:16.23	75.95	6.78	-49.3	-53.1	11.3	1.64e-03	0	50	0	57671680	61	5538
2026-01-05 06:19:17.22	75.87	6.85	-49.5	-53.4	11.0	1.80e-03	0	50	0	59768832	61	5756
2026-01-05 06:19:18.21	75.79	6.91	-49.4	-53.2	11.1	1.49e-03	0	50	0	61865984	61	5631
2026-01-05 06:19:19.20	75.71	6.98	-49.5	-53.4	10.9	1.62e-03	0	50	0	63963136	61	5788
2026-01-05 06:19:20.20	75.62	7.05	-49.6	-53.8	10.6	2.98e-03	0	50	0	65011712	61	6003
2026-01-05 06:19:21.18	75.54	7.11	-49.5	-53.5	10.9	2.55e-03	0	50	0	67108864	61	5795
2026-01-05 06:19:22.17	75.46	7.18	-49.3	-53.1	11.3	1.60e-03	0	50	0	69206016	61	5550
2026-01-05 06:19:23.16	75.37	7.24	-49.3	-52.9	11.5	1.14e-03	0	50	0	71303168	61	5405
2026-01-05 06:19:24.15	75.29	7.31	-49.1	-52.5	11.9	4.90e-04	0	50	0	72351744	61	5207
2026-01-05 06:19:25.13	75.20	7.37	-49.0	-52.5	11.9	3.81e-04	0	50	0	74448896	61	5202
2026-01-05 06:19:26.13	75.12	7.44	-49.1	-52.5	11.9	3.83e-04	0	50	0	76546048	61	5216
2026-01-05 06:19:27.12	75.03	7.51	-49.0	-52.3	12.1	3.50e-04	0	50	0	78643200	61	5067
2026-01-05 06:19:28.11	74.95	7.57	-48.9	-52.1	12.3	1.69e-04	0	51	0	80740352	60	5267
2026-01-05 06:19:29.09	74.86	7.64	-48.9	-52.2	12.2	1.96e-04	0	51	0	81788928	60	5308
2026-01-05 06:19:30.08	74.77	7.70	-48.9	-52.1	12.3	1.89e-04	0	51	0	83886080	60	5256
2026-01-05 06:19:31.07	74.69	7.77	-48.9	-52.2	12.3	1.66e-04	0	51	0	85983232	60	5287
2026-01-05 06:19:32.06	74.60	7.84	-48.9	-52.1	12.3	2.18e-04	0	51	0	88080384	60	5256
2026-01-05 06:19:33.05	74.51	7.90	-49.0	-52.4	12.1	2.45e-04	0	51	0	89128960	60	5422
2026-01-05 06:19:34.03	74.42	7.97	-49.2	-52.7	11.8	3.39e-04	0	51	0	91226112	60	5597
2026-01-05 06:19:35.03	74.33	8.04	-49.0	-52.2	12.2	3.48e-04	0	51	0	93323264	60	5339
2026-01-05 06:19:36.02	74.24	8.10	-48.9	-52.0	12.5	1.22e-04	0	51	0	95420416	60	5198
2026-01-05 06:19:37.01	74.15	8.17	-48.8	-51.9	12.6	1.03e-04	0	51	0	96468992	60	5125
2026-01-05 06:19:38.00	74.06	8.24	-48.8	-51.9	12.6	1.10e-04	0	51	0	98566144	60	5154
2026-01-05 06:19:38.98	73.97	8.31	-48.8	-51.9	12.6	9.30e-05	0	51	0	100663296	60	5111
2026-01-05 06:19:39.97	73.88	8.37	-48.8	-51.9	12.6	1.12e-04	0	51	0	102760448	60	5148
2026-01-05 06:19:40.96	73.79	8.44	-48.9	-52.1	12.4	1.11e-04	0	51	0	103809024	60	5235
2026-01-05 06:19:41.95	73.70	8.51	-48.9	-52.0	12.5	1.38e-04	0	51	0	105906176	60	5180
2026-01-05 06:19:42.93	73.61	8.58	-48.8	-51.9	12.6	9.23e-05	0	51	0	108003328	60	5142
2026-01-05 06:19:43.92	73.51	8.64	-48.9	-52.0	12.6	9.23e-05	0	51	0	110100480	60	5177
2026-01-05 06:19:44.91	73.42	8.71	-49.0	-52.1	12.4	1.15e-04	0	52	0	112197632	60	5275
2026-01-05 06:19:45.90	73.33	8.78	-49.0	-52.3	12.2	1.62e-04	0	51	0	113246208	60	5377
2026-01-05 06:19:46.89	73.23	8.85	-49.0	-52.2	12.4	1.72e-04	0	51	0	115343360	60	5285
2026-01-05 06:19:47.87	73.14	8.92	-49.1	-52.4	12.2	1.77e-04	0	51	0	117440512	60	5411
2026-01-05 06:19:48.85	73.04	8.98	-48.9	-52.1	12.5	2.12e-04	0	51	0	119537664	60	5242
2026-01-05 06:19:49.84	72.95	9.05	-48.8	-51.9	12.7	9.61e-05	0	51	0	120586240	60	5134
2026-01-05 06:19:50.82	72.85	9.12	-48.8	-51.8	12.8	7.40e-05	0	52	0	122683392	60	5057
2026-01-05 06:19:51.81	72.76	9.19	-48.7	-51.8	12.8	5.95e-05	0	52	0	124780544	60	5050
2026-01-05 06:19:52.80	72.66	9.26	-48.7	-51.8	12.8	5.72e-05	0	51	0	126877696	60	5047
2026-01-05 06:19:53.78	72.56	9.33	-48.8	-51.9	12.7	5.72e-05	0	52	0	127926272	60	5130
2026-01-05 06:19:54.78	72.46	9.40	-48.8	-51.9	12.6	7.01e-05	0	52	0	130023424	60	5153
2026-01-05 06:19:55.76	72.37	9.47	-48.9	-52.0	12.6	8.23e-05	0	52	0	132120576	60	5166
2026-01-05 06:19:56.75	72.27	9.54	-49.0	-52.1	12.4	1.09e-04	0	52	0	134217728	60	5276
2026-01-05 06:19:57.74	72.17	9.61	-48.9	-52.0	12.6	1.81e-04	0	52	0	136314880	60	5200
2026-01-05 06:19:58.73	72.07	9.67	-48.8	-51.8	12.8	7.32e-05	0	52	0	137363456	60	5059
2026-01-05 06:19:59.72	71.97	9.74	-48.7	-51.6	13.0	5.03e-05	0	52	0	139460608	60	4967
2026-01-05 06:20:00.71	71.87	9.81	-48.6	-51.6	13.0	2.82e-05	0	52	0	141557760	60	4965
2026-01-05 06:20:01.69	71.77	9.88	-48.5	-51.5	13.1	3.81e-05	0	52	0	143654912	59	5212
2026-01-05 06:20:02.68	71.67	9.95	-48.1	-51.5	13.1	2.97e-05	0	52	0	144703488	59	5186
2026-01-05 06:20:03.68	71.56	10.02	-47.8	-51.6	12.9	3.35e-05	0	52	0	146800640	58	5578
2026-01-05 06:20:04.67	71.46	10.09	-47.8	-51.7	12.8	4.57e-05	0	52	0	148897792	58	5654
2026-01-05 06:20:05.65	71.36	10.16	-48.2	-51.6	13.0	4.80e-05	0	52	0	150994944	58	5570
2026-01-05 06:20:06.64	71.25	10.24	-48.5	-51.4	13.3	3.05e-05	0	52	0	152043520	58	5418
2026-01-05 06:20:07.63	71.15	10.31	-48.5	-51.2	13.5	1.14e-05	0	52	0	154140672	58	5320
2026-01-05 06:20:08.62	71.04	10.38	-48.5	-51.2	13.4	9.10e-06	0	52	0	156237824	58	5339
2026-01-05 06:20:09.61	70.94	10.45	-48.5	-51.2	13.5	1.06e-05	0	52	0	158334976	58	5283
2026-01-05 06:20:10.59	70.83	10.52	-48.4	-51.0	13.6	1.22e-05	0	52	0	159383552	58	5214
2026-01-05 06:20:11.58	70.73	10.59	-48.5	-51.2	13.5	8.30e-06	0	52	0	161480704	58	5293
2026-01-05 06:20:12.57	70.62	10.66	-48.5	-51.2	13.5	1.52e-05	0	52	0	163577856	58	5283
2026-01-05 06:20:13.56	70.51	10.73	-48.5	-51.1	13.5	2.20e-06	0	52	0	165675008	58	5274
2026-01-05 06:20:14.55	70.40	10.80	-48.7	-51.4	13.3	6.10e-06	0	52	0	167772160	59	5139
2026-01-05 06:20:15.54	70.29	10.87	-48.7	-51.5	13.2	1.60e-05	0	52	0	168820736	59	5176
2026-01-05 06:20:16.52	70.19	10.94	-48.7	-51.4	13.3	1.52e-05	0	52	0	170917888	59	5158
2026-01-05 06:20:17.50	70.08	11.02	-48.8	-51.6	13.0	2.51e-05	0	52	0	173015040	59	5275
2026-01-05 06:20:18.49	69.97	11.09	-48.8	-51.8	12.9	4.34e-05	0	52	0	175112192	59	5361
2026-01-05 06:20:19.48	69.86	11.16	-48.9	-51.8	13.0	5.18e-05	0	53	0	176160768	59	5352
2026-01-05 06:20:20.46	69.75	11.23	-48.9	-51.8	12.9	3.35e-05	0	52	0	178257920	59	5367
2026-01-05 06:20:21.46	69.63	11.30	-48.9	-51.9	12.8	5.18e-05	0	53	0	180355072	59	5437
2026-01-05 06:20:22.45	69.52	11.38	-49.0	-52.1	12.7	7.55e-05	0	52	0	182452224	59	5538
2026-01-05 06:20:23.43	69.41	11.45	-48.9	-51.8	12.9	6.79e-05	0	53	0	183500800	59	5376
2026-01-05 06:20:24.42	69.30	11.52	-48.8	-51.6	13.2	3.58e-05	0	53	0	185597952	59	5226
2026-01-05 06:20:25.41	69.18	11.59	-48.7	-51.4	13.3	2.59e-05	0	53	0	187695104	59	5153
2026-01-05 06:20:26.40	69.07	11.66	-48.7	-51.4	13.3	1.83e-05	0	53	0	189792256	59	5156
2026-01-05 06:20:27.39	68.95	11.74	-48.7	-51.5	13.2	1.52e-05	0	53	0	191889408	59	5201
2026-01-05 06:20:28.38	68.83	11.81	-48.8	-51.7	13.1	2.21e-05	0	53	0	192937984	59	5290
2026-01-05 06:20:29.36	68.72	11.88	-48.9	-51.9	12.8	3.66e-05	0	53	0	195035136	59	5453
2026-01-05 06:20:30.35	68.60	11.96	-49.0	-52.0	12.7	6.17e-05	0	53	0	197132288	59	5487
2026-01-05 06:20:31.34	68.48	12.03	-48.9	-51.9	12.8	4.88e-05	0	53	0	199229440	59	5460
2026-01-05 06:20:32.33	68.37	12.10	-49.1	-52.1	12.6	7.32e-05	0	53	0	200278016	59	5561
2026-01-05 06:20:33.31	68.25	12.17	-49.2	-52.4	12.4	1.01e-04	0	53	0	202375168	60	5418
2026-01-05 06:20:34.31	68.13	12.25	-49.2	-52.4	12.3	2.04e-04	0	53	0	204472320	60	5415
2026-01-05 06:20:35.30	68.01	12.32	-49.1	-52.2	12.5	1.24e-04	0	53	0	206569472	60	5309
2026-01-05 06:20:36.28	67.89	12.39	-49.1	-52.4	12.4	1.40e-04	0	53	0	207618048	60	5403
2026-01-05 06:20:37.26	67.77	12.47	-49.0	-52.0	12.7	8.54e-05	0	53	0	209715200	60	5192
2026-01-05 06:20:38.26	67.64	12.54	-48.8	-51.7	13.1	3.89e-05	0	53	0	211812352	60	5005
2026-01-05 06:20:39.25	67.52	12.62	-48.7	-51.6	13.2	3.35e-05	0	53	0	213909504	60	4936
2026-01-05 06:20:40.24	67.40	12.69	-48.7	-51.6	13.2	3.73e-05	0	53	0	216006656	60	4929
2026-01-05 06:20:41.22	67.27	12.76	-48.7	-51.5	13.2	9.10e-06	0	53	0	217055232	60	4915
2026-01-05 06:20:42.20	67.15	12.84	-48.8	-51.7	13.1	3.20e-05	0	53	0	219152384	60	5020
2026-01-05 06:20:43.19	67.03	12.91	-48.9	-51.9	12.9	3.43e-05	0	53	0	221249536	60	5139
2026-01-05 06:20:44.18	66.90	12.99	-48.8	-51.7	13.1	3.12e-05	0	53	0	223346688	60	4998
2026-01-05 06:20:45.17	66.77	13.06	-48.7	-51.4	13.4	1.75e-05	0	53	0	224395264	60	4833
2026-01-05 06:20:46.15	66.65	13.13	-48.4	-51.0	13.8	1.06e-05	0	53	0	226492416	60	4629
2026-01-05 06:20:47.14	66.52	13.21	-48.4	-50.9	14.0	5.30e-06	0	53	0	228589568	59	4817
2026-01-05 06:20:48.13	66.39	13.28	-48.3	-50.8	14.1	2.20e-06	0	53	0	230686720	59	4760
2026-01-05 06:20:49.13	66.26	13.36	-48.3	-50.7	14.1	1.50e-06	0	53	0	231735296	59	4753
2026-01-05 06:20:50.12	66.13	13.43	-48.3	-50.7	14.2	2.20e-06	0	53	0	233832448	59	4730
2026-01-05 06:20:51.11	66.00	13.51	-48.4	-50.9	13.9	1.50e-06	0	53	0	235929600	59	4851
2026-01-05 06:20:52.11	65.87	13.58	-48.5	-51.2	13.6	3.00e-06	0	53	0	238026752	59	5005
2026-01-05 06:20:53.10	65.74	13.66	-48.3	-50.6	14.2	3.80e-06	0	53	0	239075328	59	4705
2026-01-05 06:20:54.09	65.60	13.73	-48.1	-50.3	14.5	7.00e-07	0	53	0	241172480	59	4536
2026-01-05 06:20:55.08	65.47	13.81	-48.0	-50.2	14.6	7.00e-07	0	53	0	243269632	59	4492
2026-01-05 06:20:56.08	65.33	13.89	-48.0	-50.3	14.6	7.00e-07	0	53	0	245366784	59	4495
2026-01-05 06:20:57.06	65.20	13.96	-48.1	-50.3	14.5	0.00e+00	0	53	0	247463936	59	4541
2026-01-05 06:20:58.05	65.07	14.04	-48.1	-50.4	14.4	0.00e+00	0	53	0	248512512	59	4593
2026-01-05 06:20:59.03	64.93	14.11	-48.0	-50.3	14.6	0.00e+00	0	54	0	250609664	59	4505
2026-01-05 06:21:00.02	64.79	14.19	-48.1	-50.4	14.4	0.00e+00	0	53	0	252706816	59	4590
2026-01-05 06:21:01.02	64.66	14.26	-48.2	-50.5	14.3	7.00e-07	0	54	0	254803968	59	4642
2026-01-05 06:21:02.01	64.52	14.34	-48.3	-50.7	14.1	2.20e-06	0	53	0	255852544	59	4757
2026-01-05 06:21:03.00	64.38	14.41	-48.2	-50.6	14.3	2.20e-06	0	54	0	257949696	59	4657
2026-01-05 06:21:03.98	64.24	14.49	-48.3	-50.6	14.3	0.00e+00	0	54	0	260046848	59	4703
2026-01-05 06:21:04.97	64.10	14.56	-48.4	-50.8	14.0	4.50e-06	0	54	0	262144000	59	4812
2026-01-05 06:21:05.95	63.96	14.64	-48.2	-50.6	14.2	7.00e-07	0	53	0	263192576	59	4682
2026-01-05 06:21:06.94	63.82	14.72	-48.0	-50.4	14.5	0.00e+00	0	54	0	265289728	59	4546
2026-01-05 06:21:07.92	63.68	14.79	-48.1	-50.3	14.5	7.00e-07	0	54	0	267386880	59	4545
2026-01-05 06:21:08.92	63.53	14.87	-48.0	-50.3	14.6	7.00e-07	0	54	0	269484032	59	4509
2026-01-05 06:21:09.91	63.39	14.94	-48.1	-50.4	14.5	7.00e-07	0	53	0	271581184	59	4553
2026-01-05 06:21:10.89	63.25	15.02	-48.0	-50.2	14.6	0.00e+00	0	54	0	272629760	59	4492
2026-01-05 06:21:11.88	63.10	15.10	-47.9	-50.1	14.8	0.00e+00	0	54	0	274726912	58	4670
2026-01-05 06:21:12.87	62.95	15.17	-47.8	-49.9	15.0	0.00e+00	0	54	0	276824064	58	4593
2026-01-05 06:21:13.86	62.81	15.25	-47.8	-49.9	15.0	7.00e-07	0	54	0	278921216	58	4597
2026-01-05 06:21:14.85	62.66	15.33	-47.7	-49.8	15.1	0.00e+00	0	54	0	279969792	58	4519
2026-01-05 06:21:15.85	62.51	15.40	-47.7	-49.9	15.0	0.00e+00	0	54	0	282066944	58	4552
2026-01-05 06:21:16.84	62.36	15.48	-47.7	-49.8	15.1	0.00e+00	0	54	0	284164096	58	4502
2026-01-05 06:21:17.82	62.21	15.55	-47.7	-49.8	15.1	0.00e+00	0	54	0	286261248	58	4529
2026-01-05 06:21:18.81	62.06	15.63	-47.8	-49.9	15.1	0.00e+00	0	54	0	288358400	58	4547
2026-01-05 06:21:19.81	61.91	15.71	-47.8	-49.9	15.0	0.00e+00	0	54	0	289406976	58	4592
2026-01-05 06:21:20.79	61.76	15.78	-47.8	-50.0	15.0	0.00e+00	0	54	0	291504128	58	4601
2026-01-05 06:21:21.79	61.60	15.86	-47.9	-50.1	14.8	0.00e+00	0	54	0	293601280	58	4660
2026-01-05 06:21:22.76	61.45	15.94	-48.0	-50.1	14.8	0.00e+00	0	54	0	295698432	58	4701
2026-01-05 06:21:23.76	61.29	16.01	-48.0	-50.2	14.8	0.00e+00	0	54	0	296747008	58	4736
2026-01-05 06:21:24.75	61.14	16.09	-48.1	-50.4	14.6	0.00e+00	0	54	0	298844160	58	4833
2026-01-05 06:21:25.74	60.98	16.17	-48.0	-50.3	14.7	1.50e-06	0	54	0	300941312	58	4774
2026-01-05 06:21:26.73	60.82	16.25	-48.0	-50.2	14.7	0.00e+00	0	54	0	303038464	58	4731
2026-01-05 06:21:27.72	60.66	16.32	-48.0	-50.2	14.7	0.00e+00	0	54	0	304087040	58	4749
2026-01-05 06:21:28.71	60.51	16.40	-48.1	-50.4	14.6	0.00e+00	0	54	0	306184192	58	4840
2026-01-05 06:21:29.69	60.35	16.48	-48.2	-50.5	14.5	0.00e+00	0	54	0	308281344	58	4873
2026-01-05 06:21:30.67	60.19	16.55	-48.2	-50.6	14.4	0.00e+00	0	54	0	310378496	58	4945
2026-01-05 06:21:31.66	60.03	16.63	-48.2	-50.5	14.4	7.00e-07	0	54	0	312475648	58	4909
2026-01-05 06:21:32.65	59.86	16.71	-48.1	-50.4	14.5	7.00e-07	0	54	0	313524224	58	4854
2026-01-05 06:21:33.63	59.70	16.78	-48.2	-50.5	14.5	0.00e+00	0	54	0	315621376	58	4886
2026-01-05 06:21:34.62	59.54	16.86	-48.3	-50.6	14.3	7.00e-07	0	54	0	317718528	58	4966
2026-01-05 06:21:35.61	59.37	16.94	-48.3	-50.6	14.3	7.00e-07	0	54	0	319815680	58	4964
2026-01-05 06:21:36.61	59.21	17.01	-48.3	-50.7	14.2	1.50e-06	0	54	0	320864256	58	4998
2026-01-05 06:21:37.60	59.04	17.09	-48.3	-50.6	14.3	1.50e-06	0	54	0	322961408	58	4983
2026-01-05 06:21:38.59	58.87	17.17	-48.2	-50.5	14.5	7.00e-07	0	54	0	325058560	58	4881
2026-01-05 06:21:39.58	58.70	17.24	-48.0	-50.2	14.7	0.00e+00	0	54	0	327155712	58	4755
2026-01-05 06:21:40.57	58.53	17.32	-48.0	-50.2	14.7	7.00e-07	0	54	0	328204288	58	4747
2026-01-05 06:21:41.56	58.36	17.40	-48.1	-50.3	14.6	0.00e+00	0	54	0	330301440	58	4795
2026-01-05 06:21:42.54	58.20	17.47	-48.1	-50.3	14.7	0.00e+00	0	54	0	332398592	58	4772
2026-01-05 06:21:43.54	58.02	17.55	-48.0	-50.2	14.7	0.00e+00	0	54	0	334495744	58	4758
2026-01-05 06:21:44.53	57.85	17.63	-48.1	-50.4	14.6	0.00e+00	0	54	0	335544320	58	4823
2026-01-05 06:21:45.52	57.68	17.70	-48.1	-50.4	14.6	7.00e-07	0	55	0	337641472	58	4825
2026-01-05 06:21:46.50	57.50	17.78	-48.0	-50.3	14.7	0.00e+00	0	54	0	339738624	58	4768
2026-01-05 06:21:47.50	57.33	17.86	-48.1	-50.3	14.6	7.00e-07	0	54	0	341835776	58	4811
2026-01-05 06:21:48.49	57.15	17.93	-48.2	-50.6	14.4	7.00e-07	0	54	0	343932928	58	4931
2026-01-05 06:21:49.48	56.97	18.01	-48.3	-50.7	14.3	0.00e+00	0	54	0	344981504	58	5036
2026-01-05 06:21:50.47	56.79	18.09	-48.2	-50.7	14.3	1.50e-06	0	54	0	347078656	58	5004
2026-01-05 06:21:51.46	56.61	18.16	-48.3	-50.7	14.3	3.80e-06	0	54	0	349175808	58	5007
2026-01-05 06:21:52.45	56.43	18.24	-48.2	-50.5	14.5	0.00e+00	0	55	0	351272960	58	4917
2026-01-05 06:21:53.44	56.25	18.32	-48.3	-50.6	14.4	0.00e+00	0	55	0	352321536	58	4979
2026-01-05 06:21:54.43	56.07	18.39	-48.3	-50.6	14.4	2.20e-06	0	55	0	354418688	58	4964
2026-01-05 06:21:55.41	55.89	18.47	-48.2	-50.5	14.4	0.00e+00	0	55	0	356515840	58	4923
2026-01-05 06:21:56.40	55.71	18.54	-48.2	-50.5	14.5	7.00e-07	0	55	0	358612992	58	4903
2026-01-05 06:21:57.39	55.52	18.62	-48.2	-50.4	14.6	0.00e+00	0	55	0	359661568	58	4853
2026-01-05 06:21:58.38	55.34	18.70	-48.2	-50.4	14.6	0.00e+00	0	55	0	361758720	58	4855
2026-01-05 06:21:59.37	55.15	18.77	-48.1	-50.4	14.6	0.00e+00	0	55	0	363855872	58	4821
2026-01-05 06:22:00.36	54.96	18.85	-48.0	-50.1	14.8	0.00e+00	0	55	0	365953024	58	4702
2026-01-05 06:22:01.36	54.77	18.92	-48.0	-50.1	14.8	0.00e+00	0	55	0	368050176	58	4698
2026-01-05 06:22:02.35	54.58	19.00	-48.0	-50.2	14.8	0.00e+00	0	55	0	369098752	58	4743
2026-01-05 06:22:03.34	54.39	19.08	-48.0	-50.2	14.8	0.00e+00	0	55	0	371195904	58	4752
2026-01-05 06:22:04.33	54.20	19.15	-47.9	-50.1	15.0	0.00e+00	0	55	0	373293056	58	4670
2026-01-05 06:22:05.32	54.01	19.23	-47.8	-49.9	15.1	0.00e+00	0	55	0	375390208	58	4573
2026-01-05 06:22:06.31	53.82	19.30	-47.8	-49.9	15.1	0.00e+00	0	55	0	376438784	58	4563
2026-01-05 06:22:07.31	53.62	19.38	-47.8	-49.8	15.2	0.00e+00	0	55	0	378535936	58	4526
2026-01-05 06:22:08.30	53.43	19.45	-47.8	-49.9	15.1	0.00e+00	0	55	0	380633088	58	4573
2026-01-05 06:22:09.30	53.23	19.53	-47.7	-49.7	15.3	0.00e+00	0	55	0	382730240	58	4479
2026-01-05 06:22:10.29	53.03	19.60	-47.7	-49.8	15.3	0.00e+00	0	55	0	384827392	58	4499
2026-01-05 06:22:11.28	52.83	19.68	-47.6	-49.5	15.5	0.00e+00	0	55	0	385875968	58	4374
2026-01-05 06:22:12.27	52.63	19.75	-47.5	-49.4	15.6	0.00e+00	0	55	0	387973120	58	4334
2026-01-05 06:22:13.26	52.43	19.83	-47.5	-49.5	15.5	0.00e+00	0	55	0	390070272	58	4347
2026-01-05 06:22:14.25	52.23	19.90	-47.4	-49.3	15.8	0.00e+00	0	55	0	392167424	57	4507
2026-01-05 06:22:15.23	52.03	19.97	-47.4	-49.3	15.8	0.00e+00	0	55	0	393216000	57	4495
2026-01-05 06:22:16.23	51.83	20.05	-47.4	-49.3	15.7	0.00e+00	0	55	0	395313152	57	4503
2026-01-05 06:22:17.22	51.62	20.12	-47.5	-49.4	15.6	0.00e+00	0	55	0	397410304	57	4572
2026-01-05 06:22:18.21	51.42	20.20	-47.4	-49.3	15.7	0.00e+00	0	55	0	399507456	57	4533
2026-01-05 06:22:19.19	51.21	20.27	-47.1	-48.9	16.1	0.00e+00	0	55	0	400556032	57	4323
2026-01-05 06:22:20.18	51.01	20.34	-47.0	-48.6	16.3	0.00e+00	0	55	0	402653184	57	4193
2026-01-05 06:22:21.17	50.80	20.41	-46.9	-48.6	16.4	0.00e+00	0	55	0	404750336	56	4392
2026-01-05 06:22:22.16	50.59	20.49	-46.8	-48.5	16.5	0.00e+00	0	55	0	406847488	56	4367
2026-01-05 06:22:23.15	50.38	20.56	-46.7	-48.3	16.7	0.00e+00	0	55	0	408944640	56	4279
2026-01-05 06:22:24.14	50.17	20.63	-46.8	-48.4	16.6	0.00e+00	0	55	0	409993216	56	4327
2026-01-05 06:22:25.13	49.96	20.70	-46.9	-48.6	16.3	0.00e+00	0	55	0	412090368	56	4439
2026-01-05 06:22:26.12	49.75	20.78	-46.6	-48.2	16.8	0.00e+00	0	55	0	414187520	56	4212
2026-01-05 06:22:27.10	49.53	20.85	-46.4	-47.9	17.1	0.00e+00	0	55	0	416284672	56	4092
2026-01-05 06:22:28.09	49.32	20.92	-46.3	-47.8	17.1	0.00e+00	0	55	0	417333248	55	4260
2026-01-05 06:22:29.08	49.10	20.99	-46.3	-47.7	17.2	0.00e+00	0	55	0	419430400	55	4242
2026-01-05 06:22:30.07	48.89	21.06	-46.2	-47.7	17.2	0.00e+00	0	55	0	421527552	55	4217
2026-01-05 06:22:31.07	48.67	21.13	-46.3	-47.8	17.2	0.00e+00	0	55	0	423624704	55	4258
2026-01-05 06:22:32.06	48.45	21.20	-46.4	-47.9	17.0	0.00e+00	0	55	0	424673280	55	4319
2026-01-05 06:22:33.04	48.23	21.27	-46.3	-47.8	17.1	0.00e+00	0	55	0	426770432	55	4251
2026-01-05 06:22:34.04	48.01	21.34	-46.3	-47.8	17.1	0.00e+00	0	55	0	428867584	55	4271
2026-01-05 06:22:35.02	47.79	21.41	-46.3	-47.7	17.2	0.00e+00	0	55	0	430964736	55	4239
2026-01-05 06:22:36.01	47.56	21.48	-46.3	-47.8	17.2	0.00e+00	0	55	0	432013312	55	4248
2026-01-05 06:22:37.00	47.34	21.55	-46.4	-47.9	17.1	0.00e+00	0	55	0	434110464	55	4316
2026-01-05 06:22:37.99	47.11	21.62	-46.5	-48.1	16.9	0.00e+00	0	55	0	436207616	55	4393
2026-01-05 06:22:38.99	46.89	21.69	-46.3	-47.8	17.1	0.00e+00	0	55	0	438304768	55	4281
2026-01-05 06:22:39.98	46.66	21.76	-46.2	-47.7	17.3	0.00e+00	0	55	0	440401920	55	4198
2026-01-05 06:22:40.96	46.43	21.83	-46.2	-47.6	17.3	0.00e+00	0	55	0	441450496	55	4180
2026-01-05 06:22:41.95	46.20	21.89	-46.1	-47.5	17.3	0.00e+00	0	55	0	443547648	55	4145
2026-01-05 06:22:42.93	45.98	21.96	-46.2	-47.7	17.3	0.00e+00	0	55	0	445644800	55	4205
2026-01-05 06:22:43.93	45.74	22.03	-46.1	-47.5	17.4	0.00e+00	0	55	0	447741952	55	4136
2026-01-05 06:22:44.91	45.51	22.09	-46.0	-47.3	17.6	0.00e+00	0	55	0	448790528	55	4050
2026-01-05 06:22:45.91	45.28	22.16	-46.0	-47.4	17.5	0.00e+00	0	55	0	450887680	55	4073
2026-01-05 06:22:46.90	45.04	22.23	-46.1	-47.5	17.5	0.00e+00	0	55	0	452984832	55	4132
2026-01-05 06:22:47.89	44.81	22.29	-45.9	-47.4	17.5	0.00e+00	0	55	0	455081984	55	4057
2026-01-05 06:22:48.88	44.57	22.36	-46.0	-47.5	17.5	0.00e+00	0	55	0	457179136	55	4100
2026-01-05 06:22:49.87	44.33	22.42	-46.3	-47.8	17.2	0.00e+00	0	55	0	458227712	55	4249
2026-01-05 06:22:50.86	44.10	22.49	-46.3	-47.7	17.2	0.00e+00	0	55	0	460324864	55	4239
2026-01-05 06:22:51.85	43.86	22.55	-46.3	-47.8	17.2	0.00e+00	0	55	0	462422016	55	4250
2026-01-05 06:22:52.84	43.62	22.62	-46.3	-47.9	17.0	0.00e+00	0	55	0	464519168	55	4296
2026-01-05 06:22:53.83	43.38	22.68	-46.3	-47.8	17.1	0.00e+00	0	55	0	465567744	55	4287
2026-01-05 06:22:54.82	43.13	22.74	-46.4	-47.9	17.1	0.00e+00	0	55	0	467664896	55	4294
2026-01-05 06:22:55.81	42.89	22.81	-46.4	-47.9	17.1	0.00e+00	0	55	0	469762048	55	4300
2026-01-05 06:22:56.80	42.65	22.87	-46.3	-47.8	17.1	0.00e+00	0	55	0	471859200	55	4250
2026-01-05 06:22:57.79	42.40	22.93	-46.4	-47.8	17.1	0.00e+00	0	55	0	472907776	55	4288
2026-01-05 06:22:58.78	42.16	22.99	-46.4	-48.0	17.0	0.00e+00	0	55	0	475004928	55	4351
2026-01-05 06:22:59.77	41.91	23.05	-46.3	-47.8	17.1	0.00e+00	0	55	0	477102080	55	4274
2026-01-05 06:23:00.76	41.66	23.11	-46.4	-47.9	17.1	0.00e+00	0	55	0	479199232	55	4295
2026-01-05 06:23:01.75	41.41	23.17	-46.4	-48.0	17.0	0.00e+00	0	55	0	481296384	55	4353
2026-01-05 06:23:02.74	41.16	23.23	-46.4	-47.9	17.0	0.00e+00	0	55	0	482344960	55	4337
2026-01-05 06:23:03.73	40.91	23.29	-46.3	-47.8	17.2	0.00e+00	0	55	0	484442112	55	4258
2026-01-05 06:23:04.72	40.66	23.35	-46.2	-47.7	17.2	0.00e+00	0	55	0	486539264	55	4208
2026-01-05 06:23:05.71	40.41	23.41	-46.1	-47.5	17.4	0.00e+00	0	55	0	488636416	55	4140
2026-01-05 06:23:06.70	40.15	23.47	-46.1	-47.6	17.4	0.00e+00	0	55	0	489684992	55	4150
2026-01-05 06:23:07.70	39.90	23.53	-46.2	-47.6	17.3	0.00e+00	0	55	0	491782144	55	4192
2026-01-05 06:23:08.69	39.64	23.58	-46.2	-47.7	17.3	0.00e+00	0	55	0	493879296	55	4222
2026-01-05 06:23:09.68	39.38	23.64	-46.2	-47.7	17.3	0.00e+00	0	55	0	495976448	55	4196
2026-01-05 06:23:10.67	39.13	23.70	-46.0	-47.5	17.4	0.00e+00	0	55	0	498073600	55	4122
2026-01-05 06:23:11.66	38.87	23.75	-46.1	-47.5	17.4	0.00e+00	0	56	0	499122176	55	4136
2026-01-05 06:23:12.65	38.61	23.81	-46.2	-47.6	17.3	0.00e+00	0	55	0	501219328	55	4172
2026-01-05 06:23:13.64	38.35	23.86	-46.2	-47.7	17.3	0.00e+00	0	56	0	503316480	55	4215
2026-01-05 06:23:14.63	38.09	23.91	-46.1	-47.6	17.4	0.00e+00	0	55	0	505413632	55	4154
2026-01-05 06:23:15.62	37.83	23.97	-46.1	-47.5	17.5	0.00e+00	0	55	0	506462208	55	4115
2026-01-05 06:23:16.60	37.57	24.02	-45.9	-47.3	17.6	0.00e+00	0	55	0	508559360	55	4041
2026-01-05 06:23:17.59	37.30	24.07	-46.0	-47.4	17.6	0.00e+00	0	55	0	510656512	55	4080
2026-01-05 06:23:18.58	37.04	24.12	-46.0	-47.4	17.6	0.00e+00	0	55	0	512753664	55	4060
2026-01-05 06:23:19.58	36.77	24.18	-45.8	-47.2	17.7	0.00e+00	0	55	0	513802240	54	4224
2026-01-05 06:23:20.57	36.50	24.23	-45.8	-47.1	17.8	0.00e+00	0	56	0	515899392	54	4179
2026-01-05 06:23:21.56	36.23	24.28	-45.7	-47.0	17.9	0.00e+00	0	55	0	517996544	54	4143
2026-01-05 06:23:22.55	35.97	24.33	-45.7	-47.0	18.0	0.00e+00	0	56	0	520093696	54	4124
2026-01-05 06:23:23.55	35.69	24.37	-45.8	-47.1	17.8	0.00e+00	0	55	0	522190848	54	4193
2026-01-05 06:23:24.53	35.43	24.42	-46.0	-47.4	17.5	0.00e+00	0	56	0	523239424	54	4329
2026-01-05 06:23:25.52	35.16	24.47	-46.1	-47.6	17.4	0.00e+00	0	55	0	525336576	54	4411
2026-01-05 06:23:26.52	34.88	24.52	-46.2	-47.7	17.2	0.00e+00	0	56	0	527433728	54	4480
2026-01-05 06:23:27.50	34.61	24.56	-46.2	-47.7	17.3	0.00e+00	0	56	0	529530880	54	4472
2026-01-05 06:23:28.49	34.34	24.61	-46.2	-47.7	17.3	0.00e+00	0	56	0	530579456	54	4470
2026-01-05 06:23:29.47	34.07	24.65	-46.3	-47.8	17.2	0.00e+00	0	56	0	532676608	54	4501
2026-01-05 06:23:30.46	33.79	24.70	-46.5	-48.1	16.9	0.00e+00	0	55	0	534773760	54	4652
2026-01-05 06:23:31.45	33.52	24.74	-46.6	-48.2	16.7	0.00e+00	0	56	0	536870912	55	4478
2026-01-05 06:23:32.44	33.24	24.79	-46.6	-48.2	16.8	0.00e+00	0	56	0	537919488	55	4445
2026-01-05 06:23:33.42	32.97	24.83	-46.7	-48.3	16.7	0.00e+00	0	56	0	540016640	55	4500
2026-01-05 06:23:34.41	32.69	24.87	-46.8	-48.5	16.5	0.00e+00	0	56	0	542113792	55	4606
2026-01-05 06:23:35.40	32.41	24.91	-46.9	-48.6	16.3	0.00e+00	0	55	0	544210944	55	4688
2026-01-05 06:23:36.39	32.13	24.95	-47.0	-48.7	16.2	0.00e+00	0	55	0	546308096	55	4756
2026-01-05 06:23:37.38	31.85	24.99	-47.3	-49.2	15.9	0.00e+00	0	56	0	547356672	56	4710
2026-01-05 06:23:38.38	31.57	25.03	-47.3	-49.2	15.9	0.00e+00	0	56	0	549453824	56	4709
2026-01-05 06:23:39.36	31.29	25.07	-47.5	-49.4	15.7	0.00e+00	0	56	0	551550976	56	4868
2026-01-05 06:23:40.35	31.01	25.11	-47.2	-49.0	16.1	0.00e+00	0	55	0	553648128	56	4615
2026-01-05 06:23:41.34	30.73	25.14	-47.2	-49.0	16.1	0.00e+00	0	56	0	554696704	56	4607
2026-01-05 06:23:42.33	30.44	25.18	-47.3	-49.1	16.0	0.00e+00	0	56	0	556793856	56	4695
2026-01-05 06:23:43.32	30.16	25.21	-47.5	-49.4	15.7	0.00e+00	0	55	0	558891008	56	4825
2026-01-05 06:23:44.31	29.88	25.25	-47.6	-49.5	15.6	0.00e+00	0	56	0	560988160	56	4894
2026-01-05 06:23:45.29	29.59	25.28	-47.5	-49.4	15.6	0.00e+00	0	56	0	562036736	56	4859
2026-01-05 06:23:46.29	29.30	25.32	-47.5	-49.5	15.6	0.00e+00	0	55	0	564133888	56	4872
2026-01-05 06:23:47.28	29.02	25.35	-47.6	-49.6	15.5	0.00e+00	0	56	0	566231040	57	4669
2026-01-05 06:23:48.28	28.73	25.38	-47.6	-49.6	15.5	0.00e+00	0	56	0	568328192	57	4666
2026-01-05 06:23:49.26	28.44	25.41	-47.7	-49.7	15.4	0.00e+00	0	56	0	570425344	57	4720
2026-01-05 06:23:50.25	28.16	25.44	-47.7	-49.7	15.4	0.00e+00	0	56	0	571473920	57	4755
2026-01-05 06:23:51.23	27.87	25.47	-47.6	-49.6	15.5	0.00e+00	0	55	0	573571072	57	4652
2026-01-05 06:23:52.22	27.58	25.50	-47.7	-49.6	15.5	0.00e+00	0	56	0	575668224	57	4702
2026-01-05 06:23:53.21	27.29	25.53	-47.8	-49.8	15.3	0.00e+00	0	56	0	577765376	57	4767
2026-01-05 06:23:54.19	27.00	25.56	-47.8	-49.8	15.3	0.00e+00	0	56	0	578813952	57	4765
2026-01-05 06:23:55.18	26.71	25.58	-47.7	-49.7	15.4	0.00e+00	0	56	0	580911104	57	4746
2026-01-05 06:23:56.17	26.42	25.61	-47.8	-49.9	15.2	0.00e+00	0	56	0	583008256	57	4824
2026-01-05 06:23:57.17	26.13	25.63	-47.7	-49.7	15.4	0.00e+00	0	56	0	585105408	57	4721
2026-01-05 06:23:58.17	25.83	25.66	-47.7	-49.7	15.4	0.00e+00	0	55	0	586153984	57	4729
2026-01-05 06:23:59.16	25.54	25.68	-47.8	-49.9	15.2	0.00e+00	0	55	0	588251136	57	4855
2026-01-05 06:24:00.14	25.25	25.70	-47.9	-50.0	15.2	0.00e+00	0	56	0	590348288	57	4891
2026-01-05 06:24:01.13	24.96	25.73	-48.1	-50.3	14.7	0.00e+00	0	56	0	592445440	58	4812
2026-01-05 06:24:02.11	24.67	25.75	-48.1	-50.2	14.9	0.00e+00	0	56	0	594542592	58	4746
2026-01-05 06:24:03.11	24.37	25.77	-48.1	-50.3	14.8	0.00e+00	0	56	0	595591168	58	4790
2026-01-05 06:24:04.10	24.07	25.79	-48.3	-50.5	14.6	0.00e+00	0	56	0	597688320	58	4904
2026-01-05 06:24:05.09	23.78	25.80	-48.0	-50.2	14.9	0.00e+00	0	55	0	599785472	58	4708
2026-01-05 06:24:06.08	23.48	25.82	-47.9	-50.0	15.1	0.00e+00	0	56	0	601882624	58	4636
2026-01-05 06:24:07.07	23.19	25.84	-47.9	-50.0	15.1	7.00e-07	0	56	0	602931200	58	4600
2026-01-05 06:24:08.06	22.89	25.85	-48.0	-50.1	15.0	0.00e+00	0	56	0	605028352	58	4660
2026-01-05 06:24:09.05	22.60	25.87	-47.9	-50.0	15.2	0.00e+00	0	56	0	607125504	58	4600
2026-01-05 06:24:10.04	22.30	25.88	-47.8	-49.9	15.2	0.00e+00	0	56	0	609222656	58	4560
2026-01-05 06:24:11.03	22.00	25.90	-47.9	-50.0	15.1	0.00e+00	0	56	0	610271232	58	4640
2026-01-05 06:24:12.02	21.71	25.91	-48.3	-50.5	14.6	0.00e+00	0	56	0	612368384	58	4893
2026-01-05 06:24:13.00	21.41	25.92	-48.2	-50.5	14.6	0.00e+00	0	56	0	614465536	58	4891
2026-01-05 06:24:14.00	21.11	25.93	-48.2	-50.5	14.6	0.00e+00	0	56	0	616562688	58	4889
2026-01-05 06:24:14.98	20.82	25.94	-48.0	-50.3	14.7	0.00e+00	0	56	0	618659840	58	4791
2026-01-05 06:24:15.97	20.52	25.95	-48.1	-50.3	14.8	0.00e+00	0	56	0	619708416	58	4800
2026-01-05 06:24:16.96	20.22	25.96	-48.2	-50.4	14.7	0.00e+00	0	56	0	621805568	58	4861
2026-01-05 06:24:17.95	19.92	25.97	-47.9	-50.0	15.1	7.00e-07	0	56	0	623902720	58	4624
2026-01-05 06:24:18.95	19.62	25.98	-47.8	-49.9	15.2	0.00e+00	0	56	0	625999872	58	4565
2026-01-05 06:24:19.93	19.33	25.98	-47.7	-49.7	15.4	0.00e+00	0	56	0	627048448	58	4454
2026-01-05 06:24:20.93	19.03	25.99	-47.6	-49.6	15.5	0.00e+00	0	56	0	629145600	58	4433
2026-01-05 06:24:21.92	18.73	25.99	-47.6	-49.6	15.5	0.00e+00	0	56	0	631242752	58	4404
2026-01-05 06:24:22.91	18.43	25.99	-47.5	-49.4	15.7	0.00e+00	0	56	0	633339904	58	4336
2026-01-05 06:24:23.90	18.13	26.00	-47.5	-49.5	15.7	0.00e+00	0	56	0	634388480	58	4342
2026-01-05 06:24:24.89	17.83	26.00	-47.5	-49.4	15.7	0.00e+00	0	56	0	636485632	58	4332
2026-01-05 06:24:25.88	17.53	26.00	-47.6	-49.5	15.6	7.00e-07	0	56	0	638582784	58	4373
2026-01-05 06:24:26.88	17.23	26.00	-47.7	-49.6	15.5	0.00e+00	0	56	0	640679936	58	4433
2026-01-05 06:24:27.86	16.94	26.00	-47.6	-49.6	15.5	0.00e+00	0	56	0	642777088	58	4405
2026-01-05 06:24:28.84	16.64	26.00	-47.7	-49.7	15.2	0.00e+00	0	56	0	643825664	58	4484
2026-01-05 06:24:29.83	16.34	25.99	-47.5	-49.4	15.6	0.00e+00	0	56	0	645922816	58	4329
2026-01-05 06:24:30.81	16.05	25.99	-47.3	-49.1	15.8	0.00e+00	0	56	0	648019968	57	4438
2026-01-05 06:24:31.80	15.75	25.98	-47.0	-48.8	16.2	0.00e+00	0	56	0	650117120	57	4258
2026-01-05 06:24:32.80	15.45	25.98	-46.9	-48.7	16.3	0.00e+00	0	56	0	651165696	56	4459
2026-01-05 06:24:33.78	15.15	25.97	-46.8	-48.5	16.5	0.00e+00	0	56	0	653262848	56	4348
2026-01-05 06:24:34.77	14.85	25.97	-46.9	-48.6	16.3	0.00e+00	0	56	0	655360000	56	4433
2026-01-05 06:24:35.76	14.55	25.96	-46.9	-48.6	16.2	0.00e+00	0	56	0	657457152	56	4428
2026-01-05 06:24:36.75	14.26	25.95	-46.7	-48.4	16.4	0.00e+00	0	56	0	658505728	56	4311
2026-01-05 06:24:37.73	13.96	25.94	-46.8	-48.6	16.0	0.00e+00	0	56	0	660602880	56	4422
2026-01-05 06:24:38.72	13.66	25.93	-46.9	-48.8	15.7	0.00e+00	0	56	0	662700032	56	4504
2026-01-05 06:24:39.71	13.37	25.92	-47.1	-49.0	15.4	0.00e+00	0	56	0	664797184	56	4650
2026-01-05 06:24:40.69	13.07	25.91	-47.2	-49.2	15.2	0.00e+00	0	56	0	665845760	56	4725
2026-01-05 06:24:41.68	12.78	25.89	-47.4	-49.6	14.8	0.00e+00	0	56	0	667942912	56	4931
2026-01-05 06:24:42.67	12.48	25.88	-47.5	-49.8	14.5	7.00e-07	0	56	0	670040064	56	5064
2026-01-05 06:24:43.65	12.19	25.87	-47.8	-50.3	13.9	0.00e+00	0	56	0	672137216	57	5064
2026-01-05 06:24:44.64	11.89	25.85	-47.8	-50.4	13.7	8.30e-06	0	56	0	674234368	57	5118
2026-01-05 06:24:45.63	11.59	25.83	-47.8	-50.5	13.5	3.80e-06	0	56	0	675282944	57	5197
2026-01-05 06:24:46.62	11.30	25.82	-48.0	-50.9	13.1	2.36e-05	0	56	0	677380096	57	5416
2026-01-05 06:24:47.61	11.00	25.80	-48.3	-51.5	12.2	1.04e-04	0	56	0	679477248	58	5503
2026-01-05 06:24:48.60	10.71	25.78	-48.5	-52.3	11.2	7.18e-04	0	56	0	681574400	58	6040
2026-01-05 06:24:49.59	10.42	25.76	-48.8	-53.1	10.1	2.61e-03	0	56	0	682622976	59	6263
2026-01-05 06:24:50.57	10.12	25.74	-49.0	-53.9	9.2	1.56e-02	0	56	0	684720128	59	6869
2026-01-05 06:24:51.54	9.84	25.72	-49.2	-54.4	8.7	2.88e-02	0	56	0	686817280	60	6864
2026-01-05 06:24:52.54	9.54	25.70	-49.3	-54.6	8.7	3.02e-02	0	56	0	688914432	60	6990
2026-01-05 06:24:53.53	9.25	25.68	-49.3	-54.5	8.9	3.99e-02	0	56	0	689963008	60	6882
2026-01-05 06:24:54.52	8.96	25.65	-49.0	-53.3	10.2	9.94e-03	0	56	0	692060160	60	6028
2026-01-05 06:24:55.51	8.66	25.63	-48.7	-52.3	11.6	1.96e-03	0	56	0	694157312	60	5380
2026-01-05 06:24:56.50	8.37	25.60	-48.4	-51.3	12.9	2.05e-04	0	56	0	696254464	59	5059
2026-01-05 06:24:57.50	8.08	25.58	-47.9	-50.3	14.2	7.00e-07	0	56	0	698351616	59	4509
2026-01-05 06:24:58.49	7.79	25.55	-47.7	-49.9	14.8	0.00e+00	0	56	0	699400192	58	4578
2026-01-05 06:24:59.47	7.50	25.52	-47.6	-49.7	15.2	0.00e+00	0	56	0	701497344	58	4448
2026-01-05 06:25:00.46	7.21	25.50	-47.7	-49.8	15.0	0.00e+00	0	56	0	703594496	58	4495
2026-01-05 06:25:01.45	6.92	25.47	-47.6	-49.7	15.1	0.00e+00	0	56	0	705691648	58	4479
2026-01-05 06:25:02.44	6.63	25.44	-47.3	-49.2	15.7	0.00e+00	0	56	0	706740224	57	4456
2026-01-05 06:25:03.43	6.35	25.41	-47.2	-49.1	15.7	0.00e+00	0	56	0	708837376	57	4418
2026-01-05 06:25:04.43	6.06	25.37	-47.3	-49.3	15.6	0.00e+00	0	56	0	710934528	57	4507
2026-01-05 06:25:05.41	5.77	25.34	-47.5	-49.6	15.3	7.00e-07	0	56	0	713031680	57	4661
2026-01-05 06:25:06.40	5.49	25.31	-47.6	-49.6	15.3	0.00e+00	0	56	0	714080256	57	4667
2026-01-05 06:25:07.38	5.20	25.28	-47.9	-50.2	14.6	0.00e+00	0	56	0	716177408	57	4986
2026-01-05 06:25:08.37	4.92	25.24	-48.7	-51.6	13.1	2.20e-06	0	56	0	718274560	59	5241
2026-01-05 06:25:09.36	4.63	25.21	-49.5	-53.6	10.6	8.62e-04	0	56	0	720371712	60	6231
2026-01-05 06:25:10.35	4.35	25.17	-49.9	-55.5	8.3	2.77e-02	0	56	0	721420288	61	7361
2026-01-05 06:25:11.34	4.07	25.14	-50.1	-56.5	7.0	8.67e-02	0	56	0	723517440	61	8265
2026-01-05 06:25:12.33	3.79	25.10	-50.1	-57.1	6.4	2.60e-01	0	56	0	725614592	62	8365
2026-01-05 06:25:13.30	3.51	25.06	-49.8	-55.7	7.7	1.36e-01	0	56	0	727711744	62	7121
2026-01-05 06:25:14.29	3.23	25.02	-49.2	-53.7	10.0	2.74e-02	0	56	0	729808896	61	5935
2026-01-05 06:25:15.29	2.95	24.98	-48.5	-51.6	12.4	1.80e-03	0	56	0	730857472	60	4978
2026-01-05 06:25:16.27	2.67	24.94	-47.8	-50.2	14.2	3.80e-06	0	56	0	732954624	58	4720
2026-01-05 06:25:17.26	2.39	24.90	-47.3	-49.2	15.5	0.00e+00	0	56	0	735051776	57	4476
2026-01-05 06:25:18.25	2.11	24.86	-47.2	-49.0	15.8	0.00e+00	0	56	0	737148928	57	4378
2026-01-05 06:25:19.25	1.83	24.82	-47.4	-49.3	15.7	0.00e+00	0	56	0	738197504	57	4500
2026-01-05 06:25:20.23	1.56	24.78	-47.6	-49.6	15.4	0.00e+00	0	56	0	740294656	57	4680
2026-01-05 06:25:21.22	1.28	24.73	-48.1	-50.3	14.7	0.00e+00	0	56	0	742391808	58	4807
2026-01-05 06:25:22.21	1.01	24.69	-47.9	-50.0	15.0	0.00e+00	0	56	0	744488960	58	4641
2026-01-05 06:25:23.20	0.73	24.65	-47.7	-49.7	15.3	0.00e+00	0	56	0	745537536	58	4467
2026-01-05 06:25:24.18	0.46	24.60	-47.5	-49.5	15.5	0.00e+00	0	56	0	747634688	58	4367
2026-01-05 06:25:25.17	0.19	24.56	-47.5	-49.4	15.6	0.00e+00	0	56	0	749731840	58	4335
2026-01-05 06:25:26.16	359.92	24.51	-47.7	-49.6	15.4	0.00e+00	0	56	0	751828992	58	4440
2026-01-05 06:25:27.15	359.65	24.46	-47.6	-49.6	15.4	0.00e+00	0	56	0	753926144	58	4437
2026-01-05 06:25:28.14	359.38	24.41	-47.6	-49.6	15.4	0.00e+00	0	56	0	754974720	58	4419
2026-01-05 06:25:29.11	359.11	24.37	-47.7	-49.7	15.3	0.00e+00	0	56	0	757071872	58	4475
2026-01-05 06:25:30.10	358.84	24.32	-47.7	-49.7	15.4	0.00e+00	0	56	0	759169024	58	4465
2026-01-05 06:25:31.09	358.58	24.27	-47.8	-49.8	15.2	7.00e-07	0	56	0	761266176	58	4521
2026-01-05 06:25:32.07	358.31	24.22	-47.9	-50.0	15.1	0.00e+00	0	56	0	762314752	58	4603
2026-01-05 06:25:33.07	358.04	24.17	-47.8	-49.9	15.1	0.00e+00	0	56	0	764411904	58	4578
2026-01-05 06:25:34.06	357.78	24.12	-48.1	-50.2	14.8	0.00e+00	0	56	0	766509056	58	4755
2026-01-05 06:25:35.04	357.52	24.07	-48.0	-50.1	14.9	7.00e-07	0	56	0	768606208	58	4688
2026-01-05 06:25:36.04	357.25	24.01	-48.1	-50.4	14.6	0.00e+00	0	56	0	769654784	58	4845
2026-01-05 06:25:37.02	356.99	23.96	-48.0	-50.1	14.8	0.00e+00	0	56	0	771751936	58	4699
2026-01-05 06:25:38.01	356.73	23.91	-47.9	-50.0	15.1	0.00e+00	0	56	0	773849088	58	4611
2026-01-05 06:25:39.00	356.47	23.85	-47.8	-49.8	15.3	0.00e+00	0	56	0	775946240	58	4508
2026-01-05 06:25:39.99	356.21	23.80	-47.7	-49.7	15.3	0.00e+00	0	56	0	778043392	58	4460
2026-01-05 06:25:40.98	355.95	23.74	-47.8	-49.9	15.2	0.00e+00	0	56	0	779091968	58	4567
2026-01-05 06:25:41.98	355.69	23.69	-47.7	-49.7	15.3	0.00e+00	0	56	0	781189120	58	4463
2026-01-05 06:25:42.97	355.43	23.63	-47.5	-49.5	15.5	0.00e+00	0	56	0	783286272	58	4353
2026-01-05 06:25:43.96	355.18	23.58	-47.5	-49.4	15.6	7.00e-07	0	56	0	785383424	58	4314
2026-01-05 06:25:44.95	354.92	23.52	-47.6	-49.5	15.5	0.00e+00	0	56	0	786432000	58	4372
2026-01-05 06:25:45.93	354.67	23.46	-47.8	-49.8	15.2	0.00e+00	0	56	0	788529152	58	4533
2026-01-05 06:25:46.92	354.42	23.40	-47.8	-49.9	15.1	0.00e+00	0	56	0	790626304	58	4571
2026-01-05 06:25:47.92	354.16	23.35	-48.0	-50.2	14.8	0.00e+00	0	56	0	792723456	58	4723
2026-01-05 06:25:48.90	353.91	23.29	-48.0	-50.2	14.8	0.00e+00	0	56	0	793772032	58	4746
2026-01-05 06:25:49.90	353.66	23.23	-47.9	-50.1	14.9	0.00e+00	0	56	0	795869184	58	4678
2026-01-05 06:25:50.89	353.41	23.17	-47.8	-49.8	15.2	0.00e+00	0	56	0	797966336	58	4538
2026-01-05 06:25:51.88	353.16	23.11	-47.7	-49.8	15.2	0.00e+00	0	56	0	800063488	58	4510
2026-01-05 06:25:52.88	352.91	23.05	-47.9	-50.0	15.0	0.00e+00	0	56	0	802160640	58	4601
2026-01-05 06:25:53.87	352.66	22.98	-47.8	-49.8	15.2	0.00e+00	0	56	0	803209216	58	4545
2026-01-05 06:25:54.86	352.42	22.92	-48.0	-50.2	14.8	0.00e+00	0	56	0	805306368	58	4706
2026-01-05 06:25:55.85	352.17	22.86	-47.9	-50.0	15.0	7.00e-07	0	56	0	807403520	58	4641
2026-01-05 06:25:56.84	351.93	22.80	-48.0	-50.1	14.9	0.00e+00	0	57	0	809500672	58	4680
2026-01-05 06:25:57.84	351.69	22.74	-48.1	-50.3	14.7	0.00e+00	0	56	0	810549248	58	4787
2026-01-05 06:25:58.82	351.45	22.67	-47.8	-50.0	15.0	7.00e-07	0	56	0	812646400	58	4614
2026-01-05 06:25:59.82	351.20	22.61	-47.6	-49.6	15.4	0.00e+00	0	56	0	814743552	58	4392
2026-01-05 06:26:00.79	350.97	22.55	-47.4	-49.4	15.6	0.00e+00	0	56	0	816840704	58	4294
2026-01-05 06:26:01.78	350.73	22.48	-47.3	-49.2	15.8	0.00e+00	0	56	0	817889280	57	4446
2026-01-05 06:26:02.76	350.49	22.42	-47.2	-49.1	15.9	0.00e+00	0	56	0	819986432	57	4392
2026-01-05 06:26:03.75	350.26	22.35	-47.2	-49.0	16.0	0.00e+00	0	56	0	822083584	57	4368
2026-01-05 06:26:04.74	350.02	22.29	-47.2	-49.0	16.0	0.00e+00	0	56	0	824180736	57	4351
2026-01-05 06:26:05.72	349.79	22.22	-47.2	-49.0	16.0	0.00e+00	0	56	0	826277888	57	4362
2026-01-05 06:26:06.71	349.56	22.16	-47.4	-49.4	15.6	0.00e+00	0	56	0	827326464	57	4551
2026-01-05 06:26:07.70	349.32	22.09	-47.2	-49.1	15.8	0.00e+00	0	56	0	829423616	57	4403
2026-01-05 06:26:08.69	349.09	22.02	-47.0	-48.7	16.3	0.00e+00	0	56	0	831520768	57	4217
2026-01-05 06:26:09.68	348.86	21.96	-46.8	-48.5	16.4	0.00e+00	0	56	0	833617920	56	4379
2026-01-05 06:26:10.68	348.63	21.89	-46.8	-48.5	16.5	0.00e+00	0	56	0	834666496	56	4342
2026-01-05 06:26:11.67	348.40	21.82	-46.7	-48.3	16.6	0.00e+00	0	57	0	836763648	56	4259
2026-01-05 06:26:12.66	348.17	21.75	-46.7	-48.4	16.5	0.00e+00	0	56	0	838860800	56	4308
2026-01-05 06:26:13.65	347.95	21.68	-46.8	-48.5	16.4	0.00e+00	0	56	0	840957952	56	4358
2026-01-05 06:26:14.64	347.72	21.62	-46.7	-48.4	16.5	0.00e+00	0	56	0	842006528	56	4309
2026-01-05 06:26:15.63	347.50	21.55	-46.6	-48.2	16.7	0.00e+00	0	56	0	844103680	56	4223
2026-01-05 06:26:16.63	347.27	21.48	-46.7	-48.4	16.5	0.00e+00	0	57	0	846200832	56	4308
2026-01-05 06:26:17.61	347.05	21.41	-46.8	-48.5	16.4	0.00e+00	0	57	0	848297984	56	4350
2026-01-05 06:26:18.61	346.83	21.34	-46.7	-48.5	16.4	0.00e+00	0	57	0	850395136	56	4342
2026-01-05 06:26:19.60	346.61	21.27	-46.9	-48.6	16.2	0.00e+00	0	56	0	851443712	56	4441
2026-01-05 06:26:20.59	346.39	21.20	-46.9	-48.7	16.2	0.00e+00	0	56	0	853540864	56	4448
2026-01-05 06:26:21.59	346.17	21.13	-46.9	-48.7	16.3	0.00e+00	0	56	0	855638016	56	4453
2026-01-05 06:26:22.58	345.95	21.06	-46.9	-48.7	16.2	0.00e+00	0	57	0	857735168	56	4452
2026-01-05 06:26:23.57	345.73	20.98	-47.1	-49.0	15.9	0.00e+00	0	57	0	858783744	56	4617
2026-01-05 06:26:24.57	345.51	20.91	-47.3	-49.3	15.6	0.00e+00	0	57	0	860880896	56	4793
2026-01-05 06:26:25.56	345.30	20.84	-47.4	-49.4	15.5	0.00e+00	0	56	0	862978048	56	4849
2026-01-05 06:26:26.55	345.09	20.77	-47.5	-49.5	15.4	0.00e+00	0	57	0	865075200	56	4872
2026-01-05 06:26:27.54	344.87	20.70	-47.5	-49.6	15.3	0.00e+00	0	56	0	867172352	56	4937
2026-01-05 06:26:28.52	344.67	20.63	-47.6	-49.7	15.2	0.00e+00	0	56	0	868220928	57	4736
2026-01-05 06:26:29.50	344.46	20.55	-47.4	-49.4	15.4	0.00e+00	0	57	0	870318080	57	4576
2026-01-05 06:26:30.50	344.25	20.48	-47.3	-49.1	15.7	0.00e+00	0	56	0	872415232	57	4440
2026-01-05 06:26:31.49	344.04	20.41	-47.3	-49.2	15.6	0.00e+00	0	57	0	874512384	57	4462
2026-01-05 06:26:32.48	343.83	20.34	-47.4	-49.5	15.4	0.00e+00	0	56	0	875560960	57	4599
2026-01-05 06:26:33.47	343.62	20.26	-47.3	-49.2	15.6	0.00e+00	0	57	0	877658112	57	4462
2026-01-05 06:26:34.46	343.42	20.19	-46.8	-48.6	16.2	0.00e+00	0	56	0	879755264	56	4406
2026-01-05 06:26:35.45	343.21	20.12	-46.5	-48.2	16.6	0.00e+00	0	56	0	881852416	56	4199
2026-01-05 06:26:36.44	343.01	20.04	-46.5	-48.1	16.5	0.00e+00	0	56	0	882900992	56	4192
2026-01-05 06:26:37.43	342.81	19.97	-46.7	-48.4	16.2	0.00e+00	0	56	0	884998144	56	4340
2026-01-05 06:26:38.43	342.60	19.89	-46.9	-48.8	15.8	0.00e+00	0	56	0	887095296	56	4512
2026-01-05 06:26:39.41	342.41	19.82	-46.9	-48.8	15.7	0.00e+00	0	56	0	889192448	56	4501
2026-01-05 06:26:40.41	342.20	19.75	-46.8	-48.8	15.5	0.00e+00	0	56	0	891289600	56	4502
2026-01-05 06:26:41.40	342.01	19.67	-46.9	-48.9	15.3	0.00e+00	0	56	0	892338176	56	4593
2026-01-05 06:26:42.40	341.81	19.60	-47.2	-49.4	14.7	0.00e+00	0	56	0	894435328	56	4843
2026-01-05 06:26:43.38	341.61	19.52	-47.4	-49.9	14.2	7.00e-07	0	56	0	896532480	56	5115
2026-01-05 06:26:44.38	341.41	19.45	-48.0	-50.8	13.2	3.80e-06	0	57	0	898629632	57	5356
2026-01-05 06:26:45.37	341.22	19.37	-48.3	-51.4	12.6	4.95e-05	0	57	0	899678208	58	5407
2026-01-05 06:26:46.36	341.03	19.30	-48.3	-51.4	12.5	1.50e-04	0	56	0	901775360	58	5455
2026-01-05 06:26:47.35	340.83	19.22	-48.2	-51.1	12.9	7.09e-05	0	57	0	903872512	58	5249
2026-01-05 06:26:48.33	340.64	19.15	-48.0	-50.8	13.3	2.67e-05	0	57	0	905969664	58	5061
2026-01-05 06:26:49.33	340.45	19.07	-48.0	-50.7	13.6	1.06e-05	0	57	0	908066816	58	4988
2026-01-05 06:26:50.32	340.26	19.00	-48.0	-50.6	13.7	2.20e-06	0	56	0	909115392	58	4931
2026-01-05 06:26:51.31	340.07	18.92	-48.1	-50.7	13.7	8.30e-06	0	56	0	911212544	58	5008
2026-01-05 06:26:52.31	339.88	18.84	-47.9	-50.4	13.9	3.80e-06	0	57	0	913309696	58	4847
2026-01-05 06:26:53.30	339.70	18.77	-47.9	-50.3	14.0	6.10e-06	0	56	0	915406848	58	4807
2026-01-05 06:26:54.29	339.51	18.69	-47.5	-49.8	14.6	1.50e-06	0	57	0	916455424	58	4494
2026-01-05 06:26:55.29	339.32	18.62	-47.1	-49.1	15.2	0.00e+00	0	57	0	918552576	57	4429
2026-01-05 06:26:56.28	339.14	18.54	-46.9	-48.8	15.6	0.00e+00	0	56	0	920649728	56	4525
2026-01-05 06:26:57.26	338.96	18.46	-46.8	-48.7	15.8	0.00e+00	0	57	0	922746880	56	4454
2026-01-05 06:26:58.25	338.77	18.39	-46.8	-48.6	15.9	0.00e+00	0	57	0	923795456	56	4413
2026-01-05 06:26:59.24	338.59	18.31	-46.7	-48.5	16.0	0.00e+00	0	57	0	925892608	56	4382
2026-01-05 06:27:00.23	338.41	18.24	-46.2	-47.9	16.6	0.00e+00	0	56	0	927989760	55	4319
2026-01-05 06:27:01.21	338.24	18.16	-46.2	-47.8	16.7	0.00e+00	0	57	0	930086912	55	4270
2026-01-05 06:27:02.20	338.06	18.08	-46.4	-48.0	16.5	0.00e+00	0	57	0	932184064	55	4390
2026-01-05 06:27:03.20	337.88	18.01	-46.5	-48.2	16.4	0.00e+00	0	57	0	933232640	55	4464
2026-01-05 06:27:04.19	337.70	17.93	-46.4	-48.1	16.6	0.00e+00	0	57	0	935329792	55	4403
2026-01-05 06:27:05.17	337.53	17.85	-46.3	-47.9	16.7	0.00e+00	0	57	0	937426944	55	4333
2026-01-05 06:27:06.16	337.35	17.78	-46.4	-48.0	16.6	0.00e+00	0	57	0	939524096	55	4364
2026-01-05 06:27:07.15	337.18	17.70	-46.5	-48.2	16.5	0.00e+00	0	56	0	940572672	55	4460
2026-01-05 06:27:08.14	337.00	17.62	-46.3	-47.9	16.8	0.00e+00	0	57	0	942669824	55	4330
2026-01-05 06:27:09.13	336.83	17.55	-46.2	-47.8	16.9	0.00e+00	0	57	0	944766976	55	4243
2026-01-05 06:27:10.12	336.66	17.47	-46.1	-47.5	17.2	0.00e+00	0	57	0	946864128	55	4138
2026-01-05 06:27:11.10	336.49	17.40	-46.1	-47.6	17.1	0.00e+00	0	57	0	947912704	55	4173
2026-01-05 06:27:12.09	336.32	17.32	-46.2	-47.7	17.0	0.00e+00	0	56	0	950009856	55	4240
2026-01-05 06:27:13.07	336.15	17.24	-46.1	-47.6	17.2	0.00e+00	0	57	0	952107008	55	4163
2026-01-05 06:27:14.06	335.99	17.17	-46.0	-47.5	17.2	0.00e+00	0	57	0	954204160	55	4113
2026-01-05 06:27:15.05	335.82	17.09	-46.1	-47.6	17.2	0.00e+00	0	57	0	955252736	55	4151
2026-01-05 06:27:16.04	335.65	17.01	-46.2	-47.7	17.1	0.00e+00	0	57	0	957349888	55	4218
2026-01-05 06:27:17.03	335.49	16.94	-46.1	-47.6	17.2	0.00e+00	0	57	0	959447040	55	4153
2026-01-05 06:27:18.02	335.32	16.86	-46.1	-47.6	17.2	0.00e+00	0	57	0	961544192	55	4154
2026-01-05 06:27:19.01	335.16	16.78	-46.1	-47.6	17.1	0.00e+00	0	57	0	963641344	55	4182
2026-01-05 06:27:20.00	335.00	16.71	-46.3	-47.9	16.9	0.00e+00	0	56	0	964689920	55	4297
2026-01-05 06:27:20.99	334.84	16.63	-46.2	-47.7	17.1	0.00e+00	0	57	0	966787072	55	4217
2026-01-05 06:27:21.98	334.67	16.55	-46.3	-47.9	16.9	0.00e+00	0	57	0	968884224	55	4316
2026-01-05 06:27:22.97	334.51	16.48	-46.2	-47.7	17.0	0.00e+00	0	57	0	970981376	55	4236
2026-01-05 06:27:23.96	334.36	16.40	-46.2	-47.7	17.1	0.00e+00	0	57	0	972029952	55	4205
2026-01-05 06:27:24.95	334.20	16.32	-46.2	-47.7	17.1	0.00e+00	0	57	0	974127104	55	4228
2026-01-05 06:27:25.94	334.04	16.24	-46.2	-47.8	17.0	0.00e+00	0	57	0	976224256	55	4251
2026-01-05 06:27:26.93	333.88	16.17	-46.5	-48.1	16.7	0.00e+00	0	57	0	978321408	55	4407
2026-01-05 06:27:27.91	333.73	16.09	-46.5	-48.1	16.7	0.00e+00	0	57	0	980418560	55	4392
2026-01-05 06:27:28.89	333.57	16.02	-46.6	-48.3	16.5	0.00e+00	0	57	0	981467136	55	4520
2026-01-05 06:27:29.88	333.42	15.94	-46.6	-48.3	16.5	0.00e+00	0	57	0	983564288	55	4522
2026-01-05 06:27:30.87	333.27	15.86	-46.8	-48.6	16.2	0.00e+00	0	57	0	985661440	55	4675
2026-01-05 06:27:31.86	333.11	15.79	-46.8	-48.6	16.2	0.00e+00	0	57	0	987758592	55	4664
2026-01-05 06:27:32.85	332.96	15.71	-46.9	-48.7	16.1	0.00e+00	0	57	0	988807168	55	4709
2026-01-05 06:27:33.84	332.81	15.63	-47.0	-48.8	15.9	0.00e+00	0	57	0	990904320	55	4812
2026-01-05 06:27:34.83	332.66	15.56	-47.0	-48.8	16.0	0.00e+00	0	57	0	993001472	55	4783
2026-01-05 06:27:35.82	332.51	15.48	-46.9	-48.7	16.0	0.00e+00	0	57	0	995098624	55	4750
2026-01-05 06:27:36.81	332.36	15.40	-47.0	-48.9	15.9	0.00e+00	0	57	0	996147200	55	4820
2026-01-05 06:27:37.79	332.21	15.33	-47.2	-49.0	15.9	0.00e+00	0	57	0	998244352	56	4602
2026-01-05 06:27:38.79	332.06	15.25	-47.2	-49.1	15.9	0.00e+00	0	57	0	1000341504	56	4654
2026-01-05 06:27:39.78	331.92	15.18	-47.4	-49.3	15.6	0.00e+00	0	57	0	1002438656	56	4780
2026-01-05 06:27:40.77	331.77	15.10	-47.3	-49.2	15.6	0.00e+00	0	56	0	1004535808	56	4753
2026-01-05 06:27:41.76	331.63	15.02	-47.4	-49.3	15.6	0.00e+00	0	57	0	1005584384	56	4790
2026-01-05 06:27:42.75	331.48	14.95	-47.6	-49.7	15.2	0.00e+00	0	57	0	1007681536	57	4727
2026-01-05 06:27:43.74	331.34	14.87	-47.5	-49.5	15.3	0.00e+00	0	57	0	1009778688	57	4636
2026-01-05 06:27:44.73	331.20	14.79	-47.4	-49.3	15.5	0.00e+00	0	57	0	1011875840	57	4535
2026-01-05 06:27:45.72	331.05	14.72	-47.2	-49.1	15.8	0.00e+00	0	57	0	1012924416	57	4416
2026-01-05 06:27:46.71	330.91	14.64	-47.2	-49.0	15.8	0.00e+00	0	57	0	1015021568	57	4387
2026-01-05 06:27:47.70	330.77	14.57	-47.3	-49.1	15.8	0.00e+00	0	57	0	1017118720	57	4435
2026-01-05 06:27:48.69	330.63	14.49	-47.3	-49.3	15.6	0.00e+00	0	57	0	1019215872	57	4500
2026-01-05 06:27:49.68	330.49	14.42	-47.3	-49.2	15.7	0.00e+00	0	57	0	1020264448	57	4476
2026-01-05 06:27:50.66	330.36	14.34	-47.2	-49.0	15.9	0.00e+00	0	57	0	1022361600	57	4369
2026-01-05 06:27:51.65	330.22	14.26	-47.2	-49.1	15.8	0.00e+00	0	57	0	1024458752	57	4409
2026-01-05 06:27:52.64	330.08	14.19	-47.4	-49.3	15.6	0.00e+00	0	56	0	1026555904	57	4507
2026-01-05 06:27:53.63	329.94	14.11	-47.4	-49.3	15.5	0.00e+00	0	57	0	1028653056	57	4530
2026-01-05 06:27:54.62	329.81	14.04	-47.4	-49.4	15.5	0.00e+00	0	57	0	1029701632	57	4546
2026-01-05 06:27:55.62	329.67	13.96	-47.5	-49.4	15.5	0.00e+00	0	57	0	1031798784	57	4582
2026-01-05 06:27:56.61	329.54	13.89	-47.5	-49.5	15.4	0.00e+00	0	57	0	1033895936	57	4615
2026-01-05 06:27:57.60	329.40	13.81	-47.5	-49.5	15.4	0.00e+00	0	57	0	1035993088	57	4608
2026-01-05 06:27:58.59	329.27	13.74	-47.6	-49.6	15.2	0.00e+00	0	57	0	1037041664	57	4678
2026-01-05 06:27:59.58	329.14	13.66	-47.7	-49.8	15.1	0.00e+00	0	57	0	1039138816	57	4790
2026-01-05 06:28:00.57	329.01	13.59	-47.7	-49.8	15.0	0.00e+00	0	57	0	1041235968	57	4804
2026-01-05 06:28:01.55	328.88	13.51	-47.5	-49.5	15.3	0.00e+00	0	57	0	1043333120	57	4647
2026-01-05 06:28:02.54	328.75	13.44	-47.5	-49.5	15.3	0.00e+00	0	57	0	1044381696	57	4630
2026-01-05 06:28:03.53	328.62	13.36	-47.6	-49.6	15.2	0.00e+00	0	57	0	1046478848	57	4703
2026-01-05 06:28:04.52	328.49	13.29	-47.6	-49.6	15.2	0.00e+00	0	57	0	1048576000	57	4704
2026-01-05 06:28:05.51	328.36	13.21	-47.6	-49.7	15.1	0.00e+00	0	57	0	1050673152	57	4752
2026-01-05 06:28:06.50	328.23	13.14	-47.6	-49.8	15.0	0.00e+00	0	57	0	1051721728	57	4767
2026-01-05 06:28:07.49	328.11	13.07	-47.8	-50.0	14.8	0.00e+00	0	56	0	1053818880	57	4907
2026-01-05 06:28:08.48	327.98	12.99	-47.8	-50.1	14.8	0.00e+00	0	57	0	1055916032	57	4930
2026-01-05 06:28:09.46	327.86	12.92	-47.9	-50.1	14.7	0.00e+00	0	57	0	1058013184	57	4952
2026-01-05 06:28:10.45	327.73	12.84	-47.9	-50.1	14.7	7.00e-07	0	57	0	1060110336	57	4975
2026-01-05 06:28:11.44	327.61	12.77	-47.7	-49.8	15.0	0.00e+00	0	57	0	1061158912	57	4785
2026-01-05 06:28:12.43	327.49	12.70	-47.6	-49.8	15.0	0.00e+00	0	57	0	1063256064	57	4769
2026-01-05 06:28:13.42	327.36	12.62	-47.6	-49.7	15.1	0.00e+00	0	57	0	1065353216	57	4723
2026-01-05 06:28:14.42	327.24	12.55	-47.6	-49.7	15.1	0.00e+00	0	57	0	1067450368	57	4729
2026-01-05 06:28:15.41	327.12	12.47	-47.6	-49.7	15.1	0.00e+00	0	57	0	1068498944	57	4719
2026-01-05 06:28:16.40	327.00	12.40	-47.7	-49.8	15.0	0.00e+00	0	57	0	1070596096	57	4768
2026-01-05 06:28:17.39	326.88	12.33	-47.6	-49.7	15.1	0.00e+00	0	57	0	1072693248	57	4735
2026-01-05 06:28:18.38	326.76	12.25	-47.8	-49.9	14.9	0.00e+00	0	57	0	1074790400	57	4842
2026-01-05 06:28:19.37	326.64	12.18	-47.9	-50.1	14.7	7.00e-07	0	57	0	1076887552	57	4952
2026-01-05 06:28:20.36	326.52	12.11	-47.9	-50.1	14.7	0.00e+00	0	57	0	1077936128	57	4946
2026-01-05 06:28:21.35	326.40	12.03	-47.9	-50.2	14.6	0.00e+00	0	57	0	1080033280	57	5013
2026-01-05 06:28:22.35	326.28	11.96	-47.9	-50.1	14.7	0.00e+00	0	57	0	1082130432	57	4965
2026-01-05 06:28:23.33	326.17	11.89	-47.9	-50.1	14.7	7.00e-07	0	57	0	1084227584	57	4969
2026-01-05 06:28:24.32	326.05	11.82	-47.9	-50.2	14.6	7.00e-07	0	57	0	1085276160	57	4993
2026-01-05 06:28:25.31	325.93	11.74	-47.9	-50.1	14.6	0.00e+00	0	57	0	1087373312	57	4978
2026-01-05 06:28:26.30	325.82	11.67	-47.9	-50.3	14.5	7.00e-07	0	57	0	1089470464	57	5046
2026-01-05 06:28:27.29	325.70	11.60	-48.0	-50.4	14.4	0.00e+00	0	57	0	1091567616	57	5114
2026-01-05 06:28:28.27	325.59	11.53	-48.1	-50.6	14.2	1.50e-06	0	57	0	1092616192	58	4931
2026-01-05 06:28:29.25	325.48	11.45	-48.1	-50.5	14.2	7.00e-07	0	57	0	1094713344	58	4914
2026-01-05 06:28:30.24	325.37	11.38	-48.2	-50.7	14.0	2.20e-06	0	57	0	1096810496	58	5006
2026-01-05 06:28:31.23	325.25	11.31	-48.4	-51.0	13.8	8.30e-06	0	57	0	1098907648	58	5174
2026-01-05 06:28:32.21	325.14	11.24	-48.2	-50.7	14.0	3.00e-06	0	57	0	1101004800	58	5032
2026-01-05 06:28:33.21	325.03	11.17	-48.2	-50.7	14.0	7.00e-07	0	57	0	1102053376	58	4992
2026-01-05 06:28:34.20	324.92	11.09	-48.3	-50.9	13.9	2.20e-06	0	57	0	1104150528	58	5104
2026-01-05 06:28:35.19	324.81	11.02	-48.4	-51.1	13.7	5.30e-06	0	57	0	1106247680	58	5221
2026-01-05 06:28:36.18	324.70	10.95	-48.4	-51.0	13.7	3.80e-06	0	57	0	1108344832	58	5182
2026-01-05 06:28:37.16	324.59	10.88	-48.5	-51.1	13.6	8.30e-06	0	57	0	1109393408	58	5272
2026-01-05 06:28:38.15	324.49	10.81	-48.6	-51.4	13.3	1.83e-05	0	57	0	1111490560	59	5112
2026-01-05 06:28:39.14	324.38	10.74	-48.6	-51.2	13.5	1.37e-05	0	57	0	1113587712	59	5040
2026-01-05 06:28:40.13	324.27	10.67	-48.6	-51.4	13.3	1.83e-05	0	57	0	1115684864	59	5126
2026-01-05 06:28:41.13	324.16	10.60	-48.6	-51.4	13.3	2.21e-05	0	57	0	1116733440	59	5105
2026-01-05 06:28:42.11	324.06	10.52	-48.7	-51.5	13.2	2.82e-05	0	57	0	1118830592	59	5199
2026-01-05 06:28:43.11	323.95	10.45	-48.8	-51.7	12.9	3.81e-05	0	57	0	1120927744	59	5325
2026-01-05 06:28:44.09	323.85	10.38	-48.7	-51.5	13.1	2.82e-05	0	57	0	1123024896	59	5189
2026-01-05 06:28:45.09	323.74	10.31	-48.8	-51.7	13.0	3.20e-05	0	57	0	1124073472	59	5311
2026-01-05 06:28:46.08	323.64	10.24	-48.6	-51.4	13.2	2.36e-05	0	57	0	1126170624	59	5137
2026-01-05 06:28:47.08	323.53	10.17	-48.8	-51.7	12.9	3.35e-05	0	57	0	1128267776	59	5324
2026-01-05 06:28:48.07	323.43	10.10	-48.6	-51.4	13.3	3.96e-05	0	57	0	1130364928	59	5130
2026-01-05 06:28:49.06	323.33	10.03	-48.5	-51.3	13.4	6.80e-06	0	57	0	1132462080	59	5045
2026-01-05 06:28:50.05	323.23	9.96	-48.5	-51.2	13.5	9.90e-06	0	57	0	1133510656	59	4998
2026-01-05 06:28:51.04	323.12	9.89	-48.5	-51.3	13.4	1.29e-05	0	57	0	1135607808	59	5045
2026-01-05 06:28:52.03	323.02	9.82	-48.7	-51.5	13.1	1.67e-05	0	57	0	1137704960	59	5199
2026-01-05 06:28:53.01	322.92	9.75	-48.5	-51.2	13.4	1.60e-05	0	57	0	1139802112	59	5039
2026-01-05 06:28:54.00	322.82	9.68	-48.5	-51.1	13.5	1.29e-05	0	57	0	1140850688	59	4973
2026-01-05 06:28:54.99	322.72	9.61	-48.5	-51.2	13.4	1.14e-05	0	57	0	1142947840	59	5017
2026-01-05 06:28:55.98	322.63	9.54	-48.6	-51.4	13.2	7.60e-06	0	57	0	1145044992	59	5143
2026-01-05 06:28:56.97	322.53	9.47	-48.5	-51.3	13.4	1.37e-05	0	57	0	1147142144	59	5062
2026-01-05 06:28:57.96	322.43	9.40	-48.5	-51.2	13.5	1.37e-05	0	57	0	1149239296	59	5002
2026-01-05 06:28:58.95	322.33	9.33	-48.5	-51.2	13.4	1.22e-05	0	57	0	1150287872	59	5037
2026-01-05 06:28:59.94	322.23	9.27	-48.5	-51.2	13.4	2.28e-05	0	57	0	1152385024	59	5029
2026-01-05 06:29:00.93	322.14	9.20	-48.5	-51.2	13.4	1.06e-05	0	57	0	1154482176	59	5035
2026-01-05 06:29:01.92	322.04	9.13	-48.5	-51.3	13.4	1.22e-05	0	57	0	1156579328	59	5046
2026-01-05 06:29:02.92	321.94	9.06	-48.6	-51.3	13.3	1.37e-05	0	57	0	1157627904	59	5055
2026-01-05 06:29:03.91	321.85	8.99	-48.6	-51.3	13.3	1.22e-05	0	57	0	1159725056	59	5090
2026-01-05 06:29:04.89	321.76	8.92	-48.7	-51.5	13.0	2.44e-05	0	57	0	1161822208	59	5201
2026-01-05 06:29:05.88	321.66	8.85	-48.7	-51.6	13.0	4.80e-05	0	57	0	1163919360	59	5248
2026-01-05 06:29:06.88	321.57	8.79	-48.8	-51.7	12.8	5.79e-05	0	57	0	1164967936	59	5313
2026-01-05 06:29:07.86	321.47	8.72	-48.8	-51.7	12.8	5.26e-05	0	57	0	1167065088	59	5318
2026-01-05 06:29:08.85	321.38	8.65	-48.8	-51.8	12.8	5.64e-05	0	57	0	1169162240	59	5354
2026-01-05 06:29:09.84	321.29	8.58	-48.9	-52.0	12.6	7.40e-05	0	57	0	1171259392	59	5477
2026-01-05 06:29:10.83	321.20	8.51	-48.9	-51.9	12.6	1.17e-04	0	57	0	1173356544	59	5445
2026-01-05 06:29:11.82	321.11	8.45	-49.0	-52.1	12.4	1.28e-04	0	57	0	1174405120	59	5582
2026-01-05 06:29:12.81	321.01	8.38	-49.0	-52.1	12.4	1.40e-04	0	57	0	1176502272	59	5586
2026-01-05 06:29:13.80	320.92	8.31	-49.0	-52.2	12.3	1.41e-04	0	57	0	1178599424	59	5655
2026-01-05 06:29:14.78	320.83	8.25	-49.0	-52.1	12.4	1.94e-04	0	57	0	1180696576	59	5571
2026-01-05 06:29:15.77	320.74	8.18	-48.9	-52.0	12.5	1.23e-04	0	57	0	1181745152	59	5518
2026-01-05 06:29:16.76	320.65	8.11	-49.0	-52.2	12.3	1.36e-04	0	57	0	1183842304	59	5599
2026-01-05 06:29:17.76	320.57	8.04	-48.9	-52.1	12.4	1.35e-04	0	57	0	1185939456	59	5531
2026-01-05 06:29:18.75	320.48	7.98	-48.9	-52.0	12.5	1.14e-04	0	57	0	1188036608	59	5515
2026-01-05 06:29:19.74	320.39	7.91	-48.9	-52.1	12.4	1.33e-04	0	57	0	1189085184	59	5560
2026-01-05 06:29:20.74	320.30	7.84	-49.0	-52.3	12.2	2.05e-04	0	57	0	1191182336	59	5671
2026-01-05 06:29:21.74	320.21	7.77	-49.0	-52.4	12.1	2.53e-04	0	57	0	1193279488	60	5403
2026-01-05 06:29:22.73	320.12	7.71	-49.0	-52.5	12.0	3.38e-04	0	57	0	1195376640	60	5488
2026-01-05 06:29:23.72	320.04	7.64	-49.2	-52.7	11.8	4.23e-04	0	57	0	1197473792	60	5622
2026-01-05 06:29:24.70	319.95	7.58	-49.3	-53.0	11.4	7.32e-04	0	57	0	1198522368	60	5823
2026-01-05 06:29:25.69	319.87	7.51	-49.3	-52.9	11.5	9.86e-04	0	57	0	1200619520	60	5781
2026-01-05 06:29:26.68	319.78	7.44	-49.3	-53.0	11.4	8.29e-04	0	57	0	1202716672	60	5841
2026-01-05 06:29:27.66	319.70	7.38	-49.4	-53.2	11.2	1.25e-03	0	57	0	1204813824	60	5934
2026-01-05 06:29:28.64	319.61	7.31	-49.4	-53.1	11.3	1.31e-03	0	57	0	1205862400	60	5897
2026-01-05 06:29:29.63	319.53	7.25	-49.3	-53.0	11.4	1.10e-03	0	57	0	1207959552	60	5810
2026-01-05 06:29:30.62	319.45	7.18	-49.3	-53.1	11.3	1.06e-03	0	57	0	1210056704	60	5858
2026-01-05 06:29:31.61	319.36	7.12	-49.4	-53.2	11.2	1.11e-03	0	57	0	1212153856	60	5939
2026-01-05 06:29:32.60	319.28	7.05	-49.4	-53.1	11.3	1.79e-03	0	57	0	1213202432	60	5908
2026-01-05 06:29:33.59	319.20	6.99	-49.2	-52.8	11.5	1.07e-03	0	57	0	1215299584	60	5717
2026-01-05 06:29:34.58	319.12	6.92	-49.1	-52.6	11.7	6.00e-04	0	57	0	1217396736	60	5583
2026-01-05 06:29:35.56	319.03	6.86	-49.0	-52.5	11.9	4.20e-04	0	57	0	1219493888	60	5486
2026-01-05 06:29:36.55	318.95	6.79	-49.0	-52.5	11.8	3.98e-04	0	57	0	1221591040	60	5497
2026-01-05 06:29:37.54	318.87	6.73	-49.1	-52.5	11.8	4.63e-04	0	57	0	1222639616	60	5528
2026-01-05 06:29:38.53	318.79	6.66	-49.1	-52.6	11.7	5.59e-04	0	57	0	1224736768	60	5584
2026-01-05 06:29:39.52	318.71	6.60	-49.1	-52.7	11.6	7.93e-04	0	57	0	1226833920	60	5627
2026-01-05 06:29:40.51	318.63	6.53	-49.1	-52.7	11.6	5.55e-04	0	57	0	1228931072	60	5634
2026-01-05 06:29:41.50	318.55	6.47	-49.3	-53.1	11.3	1.08e-03	0	57	0	1229979648	60	5862
