passes_logs/2026/01/05/R3.0SM8_Murmansk_STILSPACE/R3.0SM8_Murmansk_STILSPACE__20260105_070657_FENGYUN_3E_rec.log

#Pass ID: 20260105_070657_FENGYUN 3E
#Satellite: FENGYUN 3E
#Configuration: FENGYUN 3E
#almurnet v.1.7.20240730
#Start time: 2026-01-05 07:11:44

#Version: 2.2.20231116
#Station: R3.0SM8_Murmansk_STILSPACE
#Location: 33.092731 lon 68.902999 lat
#TLE: 1 49008U 21062A   26004.29457719  .00000106  00000+0  70678-4 0  9996
#TLE: 2 49008  98.7471   9.5487 0001503 159.9821 200.1414 14.19883545233329

#Time	Az	El	Level	Level2	SNR	BER	BlckErr	Temp	State	Recorded	gain1	gain2
2026-01-05 07:11:44.48	1.70	27.71	-52.6	-63.4	3.8	8.46e-01	0	57	0	0	67	12856
2026-01-05 07:11:45.46	1.45	27.81	-52.7	-62.9	3.8	8.45e-01	0	57	104	0	68	11360
2026-01-05 07:11:46.57	1.16	27.92	-52.7	-62.9	3.8	8.46e-01	0	58	104	0	68	11367
2026-01-05 07:11:47.41	0.93	28.01	-52.7	-62.9	3.8	8.47e-01	0	58	104	0	68	11404
2026-01-05 07:11:48.55	0.63	28.12	-52.7	-62.9	3.8	8.45e-01	0	58	104	0	68	11388
2026-01-05 07:11:49.39	0.41	28.21	-52.6	-63.0	3.8	8.45e-01	0	58	104	0	68	11418
2026-01-05 07:11:50.53	0.10	28.32	-52.7	-62.9	3.8	8.47e-01	0	58	104	0	68	11369
2026-01-05 07:11:51.37	359.87	28.40	-52.6	-62.9	3.8	8.46e-01	0	58	104	0	68	11347
2026-01-05 07:11:52.50	359.57	28.52	-52.7	-62.9	3.8	8.45e-01	0	58	104	0	68	11380
2026-01-05 07:11:53.35	359.33	28.60	-52.6	-62.9	3.8	8.46e-01	0	58	104	0	68	11340
2026-01-05 07:11:54.48	359.02	28.71	-52.7	-62.9	3.8	8.47e-01	0	58	104	0	68	11319
2026-01-05 07:11:55.33	358.79	28.79	-52.7	-62.9	3.8	8.47e-01	0	58	104	0	68	11305
2026-01-05 07:11:56.45	358.48	28.90	-52.6	-62.8	3.8	8.47e-01	0	58	104	0	68	11196
2026-01-05 07:11:57.30	358.24	28.99	-52.6	-62.7	3.8	8.46e-01	0	57	104	0	67	11690
2026-01-05 07:11:58.43	357.92	29.10	-52.5	-62.7	3.8	8.46e-01	0	58	104	0	67	11786
2026-01-05 07:11:59.29	357.67	29.18	-52.6	-62.7	3.8	8.45e-01	0	58	104	0	67	11724
2026-01-05 07:12:00.42	357.35	29.29	-52.6	-62.7	3.8	8.46e-01	0	58	104	0	67	11734
2026-01-05 07:12:01.26	357.11	29.37	-52.5	-62.7	3.8	8.47e-01	0	58	104	0	67	11737
2026-01-05 07:12:02.40	356.78	29.48	-52.4	-62.7	3.8	8.46e-01	0	57	104	0	67	11695
2026-01-05 07:12:03.25	356.53	29.56	-52.5	-62.6	3.8	8.46e-01	0	58	104	0	67	11568
2026-01-05 07:12:04.38	356.20	29.66	-52.4	-62.6	3.8	8.46e-01	0	58	104	0	67	11591
2026-01-05 07:12:05.24	355.95	29.74	-52.4	-62.6	3.8	8.46e-01	0	58	104	0	67	11600
2026-01-05 07:12:06.37	355.62	29.85	-52.4	-62.5	3.8	8.46e-01	0	58	104	0	67	11510
2026-01-05 07:12:07.22	355.36	29.93	-52.3	-62.5	3.8	8.46e-01	0	58	104	0	67	11505
2026-01-05 07:12:08.36	355.02	30.03	-52.3	-62.5	3.8	8.46e-01	0	58	104	0	67	11512
2026-01-05 07:12:09.21	354.77	30.11	-52.4	-62.6	3.8	8.47e-01	0	58	104	0	67	11585
2026-01-05 07:12:10.34	354.42	30.21	-52.4	-62.4	3.8	8.47e-01	0	58	104	0	67	11409
2026-01-05 07:12:11.20	354.16	30.29	-52.3	-62.3	3.8	8.46e-01	0	58	104	0	67	11198
2026-01-05 07:12:12.33	353.82	30.39	-52.4	-62.2	3.8	8.45e-01	0	58	104	0	67	11047
2026-01-05 07:12:13.18	353.56	30.46	-52.3	-62.3	3.8	8.45e-01	0	58	104	0	67	11184
2026-01-05 07:12:14.32	353.20	30.56	-52.3	-62.4	3.8	8.47e-01	0	58	104	0	67	11375
2026-01-05 07:12:15.17	352.94	30.64	-52.4	-62.5	3.8	8.46e-01	0	58	104	0	67	11491
2026-01-05 07:12:16.30	352.58	30.74	-52.3	-62.5	3.8	8.45e-01	0	58	104	0	67	11462
2026-01-05 07:12:17.14	352.32	30.81	-52.3	-62.4	3.8	8.46e-01	0	58	104	0	67	11373
2026-01-05 07:12:18.28	351.96	30.90	-52.3	-62.4	3.8	8.45e-01	0	58	104	0	67	11338
2026-01-05 07:12:19.12	351.69	30.98	-52.3	-62.5	3.8	8.46e-01	0	58	104	0	67	11477
2026-01-05 07:12:20.26	351.33	31.07	-52.3	-62.4	3.8	8.46e-01	0	58	104	0	67	11386
2026-01-05 07:12:21.11	351.06	31.14	-52.4	-62.3	3.8	8.46e-01	0	58	104	0	67	11274
2026-01-05 07:12:22.24	350.69	31.23	-52.4	-62.4	3.8	8.45e-01	0	58	104	0	67	11309
2026-01-05 07:12:23.09	350.42	31.30	-52.4	-62.3	3.8	8.46e-01	0	58	104	0	67	11237
2026-01-05 07:12:24.22	350.05	31.39	-52.4	-62.2	3.8	8.46e-01	0	58	104	0	67	11156
2026-01-05 07:12:25.07	349.77	31.46	-52.3	-61.7	3.8	8.46e-01	0	58	104	0	67	10529
2026-01-05 07:12:26.20	349.40	31.55	-52.1	-60.6	3.9	8.45e-01	0	58	104	0	67	9229
2026-01-05 07:12:27.05	349.12	31.62	-51.9	-59.6	4.1	8.43e-01	0	58	104	0	66	8745
2026-01-05 07:12:28.17	348.74	31.70	-51.9	-59.1	4.2	8.39e-01	0	58	0	0	66	8238
2026-01-05 07:12:29.02	348.46	31.77	-51.9	-59.3	4.1	8.38e-01	0	58	0	0	66	8400
2026-01-05 07:12:30.15	348.08	31.85	-52.0	-59.4	4.1	8.40e-01	0	58	0	0	66	8540
2026-01-05 07:12:31.00	347.79	31.92	-51.9	-59.2	4.1	8.40e-01	0	58	0	0	66	8352
2026-01-05 07:12:32.13	347.41	32.00	-52.0	-59.7	4.0	8.40e-01	0	58	0	0	66	8774
2026-01-05 07:12:32.98	347.12	32.06	-52.1	-60.6	3.8	8.45e-01	0	58	104	0	66	9790
2026-01-05 07:12:34.12	346.73	32.14	-51.6	-57.6	4.7	8.28e-01	0	58	0	0	66	6928
2026-01-05 07:12:34.97	346.44	32.20	-49.9	-53.1	8.3	1.01e-01	0	58	0	3145728	62	5194
2026-01-05 07:12:36.11	346.05	32.28	-46.2	-47.4	14.1	1.94e-05	0	58	0	11534336	55	4047
2026-01-05 07:12:36.96	345.75	32.34	-43.7	-44.4	17.2	0.00e+00	0	58	0	17825792	50	3815
2026-01-05 07:12:38.09	345.36	32.42	-42.0	-42.6	18.9	0.00e+00	0	58	0	26214400	46	3873
2026-01-05 07:12:38.94	345.06	32.47	-41.8	-42.4	19.0	0.00e+00	0	58	0	32505856	46	3810
2026-01-05 07:12:40.07	344.67	32.55	-42.0	-42.6	18.8	0.00e+00	0	58	0	39845888	46	3909
2026-01-05 07:12:40.92	344.37	32.60	-41.8	-42.4	19.0	0.00e+00	0	58	0	46137344	46	3820
2026-01-05 07:12:42.05	343.97	32.67	-41.5	-42.1	19.3	0.00e+00	0	58	0	54525952	46	3670
2026-01-05 07:12:42.90	343.67	32.73	-41.6	-42.1	19.3	0.00e+00	0	58	0	60817408	45	3900
2026-01-05 07:12:44.04	343.26	32.80	-41.4	-42.0	19.4	0.00e+00	0	58	0	69206016	45	3848
2026-01-05 07:12:44.89	342.96	32.85	-41.9	-42.5	18.9	0.00e+00	0	58	0	75497472	45	4088
2026-01-05 07:12:46.02	342.55	32.91	-41.5	-42.0	19.3	0.00e+00	0	57	0	82837504	45	3859
2026-01-05 07:12:46.87	342.25	32.96	-41.1	-41.6	19.8	0.00e+00	0	58	0	89128960	45	3678
2026-01-05 07:12:48.01	341.84	33.03	-40.6	-41.1	20.3	0.00e+00	0	58	0	97517568	44	3667
2026-01-05 07:12:48.85	341.53	33.07	-40.2	-40.7	20.5	0.00e+00	0	58	0	103809024	43	3708
2026-01-05 07:12:49.98	341.12	33.13	-40.0	-40.4	20.8	0.00e+00	0	58	0	112197632	42	3816
2026-01-05 07:12:50.83	340.81	33.18	-39.7	-40.2	21.0	0.00e+00	0	58	0	117440512	42	3707
2026-01-05 07:12:51.96	340.40	33.24	-39.5	-39.9	21.2	0.00e+00	0	58	0	125829120	42	3607
2026-01-05 07:12:52.81	340.09	33.28	-39.4	-39.9	21.3	0.00e+00	0	58	0	132120576	41	3786
2026-01-05 07:12:53.94	339.67	33.34	-39.5	-40.0	21.3	0.00e+00	0	58	0	140509184	41	3827
2026-01-05 07:12:54.79	339.36	33.38	-39.4	-39.8	21.3	0.00e+00	0	58	0	146800640	41	3771
2026-01-05 07:12:55.92	338.94	33.43	-39.4	-39.9	21.3	0.00e+00	0	58	0	154140672	41	3800
2026-01-05 07:12:56.77	338.62	33.47	-39.6	-40.1	21.1	0.00e+00	0	58	0	160432128	41	3891
2026-01-05 07:12:57.90	338.20	33.52	-39.4	-39.9	21.3	0.00e+00	0	58	0	168820736	41	3793
2026-01-05 07:12:58.75	337.88	33.55	-39.3	-39.7	21.5	0.00e+00	0	58	0	175112192	41	3704
2026-01-05 07:12:59.88	337.46	33.60	-39.3	-39.7	21.5	0.00e+00	0	58	0	182452224	41	3718
2026-01-05 07:13:00.73	337.14	33.63	-39.4	-39.8	21.4	0.00e+00	0	58	0	188743680	41	3766
2026-01-05 07:13:01.86	336.71	33.68	-39.6	-40.1	21.2	0.00e+00	0	58	0	197132288	41	3888
2026-01-05 07:13:02.71	336.39	33.71	-39.7	-40.2	21.1	0.00e+00	0	58	0	203423744	41	3920
2026-01-05 07:13:03.84	335.97	33.75	-39.8	-40.3	21.0	0.00e+00	0	58	0	211812352	41	3975
2026-01-05 07:13:04.68	335.65	33.78	-39.7	-40.2	21.0	0.00e+00	0	58	0	218103808	41	3935
2026-01-05 07:13:05.81	335.22	33.82	-39.5	-39.9	21.3	0.00e+00	0	58	0	225443840	41	3822
2026-01-05 07:13:06.66	334.90	33.84	-39.4	-39.9	21.3	0.00e+00	0	58	0	231735296	41	3790
2026-01-05 07:13:07.79	334.47	33.88	-39.4	-39.9	21.3	0.00e+00	0	57	0	240123904	41	3798
2026-01-05 07:13:08.64	334.14	33.90	-39.7	-40.2	21.1	0.00e+00	0	58	0	246415360	41	3945
2026-01-05 07:13:09.78	333.70	33.93	-39.7	-40.2	21.0	0.00e+00	0	58	0	254803968	41	3936
2026-01-05 07:13:10.62	333.38	33.96	-39.6	-40.1	21.1	0.00e+00	0	58	0	260046848	41	3899
2026-01-05 07:13:11.75	332.95	33.98	-39.6	-40.1	21.2	0.00e+00	0	58	0	268435456	41	3893
2026-01-05 07:13:12.60	332.62	34.00	-39.7	-40.1	21.1	0.00e+00	0	58	0	274726912	41	3899
2026-01-05 07:13:13.73	332.19	34.03	-39.8	-40.2	21.0	0.00e+00	0	58	0	283115520	41	3947
2026-01-05 07:13:14.58	331.86	34.05	-39.6	-40.1	21.1	0.00e+00	0	58	0	289406976	41	3875
2026-01-05 07:13:15.72	331.42	34.07	-39.5	-40.0	21.3	0.00e+00	0	58	0	297795584	41	3830
2026-01-05 07:13:16.56	331.10	34.08	-39.5	-39.9	21.3	0.00e+00	0	58	0	303038464	41	3823
2026-01-05 07:13:17.69	330.66	34.10	-39.6	-40.1	21.1	0.00e+00	0	57	0	311427072	41	3884
2026-01-05 07:13:18.54	330.33	34.11	-39.6	-40.0	21.2	0.00e+00	0	58	0	317718528	41	3867
2026-01-05 07:13:19.68	329.89	34.13	-39.4	-39.9	21.3	0.00e+00	0	58	0	326107136	41	3785
2026-01-05 07:13:20.53	329.56	34.14	-39.3	-39.8	21.4	0.00e+00	0	58	0	332398592	41	3741
2026-01-05 07:13:21.66	329.12	34.15	-39.4	-39.9	21.3	0.00e+00	0	58	0	340787200	41	3788
2026-01-05 07:13:22.51	328.79	34.16	-39.4	-39.9	21.3	0.00e+00	0	58	0	346030080	41	3785
2026-01-05 07:13:23.64	328.35	34.17	-39.3	-39.7	21.5	0.00e+00	0	58	0	354418688	41	3737
2026-01-05 07:13:24.49	328.02	34.17	-39.4	-39.8	21.4	0.00e+00	0	58	0	360710144	41	3774
2026-01-05 07:13:25.62	327.58	34.18	-39.3	-39.7	21.5	0.00e+00	0	58	0	369098752	41	3716
2026-01-05 07:13:26.48	327.25	34.18	-39.2	-39.7	21.5	0.00e+00	0	58	0	375390208	41	3714
2026-01-05 07:13:27.61	326.81	34.18	-39.3	-39.8	21.5	0.00e+00	0	58	0	383778816	41	3754
2026-01-05 07:13:28.45	326.48	34.18	-39.5	-40.0	21.3	0.00e+00	0	58	0	389021696	41	3829
2026-01-05 07:13:29.57	326.05	34.18	-39.6	-40.1	21.1	0.00e+00	0	57	0	397410304	41	3888
2026-01-05 07:13:30.41	325.72	34.18	-39.7	-40.2	21.1	0.00e+00	0	58	0	403701760	41	3917
2026-01-05 07:13:31.55	325.28	34.17	-39.7	-40.1	21.1	0.00e+00	0	58	0	412090368	41	3909
2026-01-05 07:13:32.40	324.95	34.17	-39.6	-40.0	21.2	0.00e+00	0	58	0	418381824	41	3846
2026-01-05 07:13:33.53	324.51	34.16	-39.4	-39.9	21.3	0.00e+00	0	58	0	425721856	41	3793
2026-01-05 07:13:34.38	324.18	34.15	-39.5	-40.0	21.3	0.00e+00	0	58	0	432013312	41	3836
2026-01-05 07:13:35.52	323.73	34.14	-39.5	-40.0	21.2	0.00e+00	0	58	0	440401920	41	3843
2026-01-05 07:13:36.37	323.40	34.13	-39.4	-39.9	21.4	0.00e+00	0	58	0	446693376	41	3791
2026-01-05 07:13:37.50	322.97	34.11	-39.4	-39.8	21.4	0.00e+00	0	58	0	455081984	41	3776
2026-01-05 07:13:38.35	322.64	34.10	-39.5	-40.0	21.3	0.00e+00	0	58	0	461373440	41	3828
2026-01-05 07:13:39.48	322.20	34.08	-39.6	-40.0	21.2	0.00e+00	0	58	0	468713472	41	3862
2026-01-05 07:13:40.33	321.87	34.07	-39.7	-40.2	21.1	0.00e+00	0	58	0	475004928	41	3922
2026-01-05 07:13:41.45	321.44	34.04	-39.7	-40.2	21.1	0.00e+00	0	58	0	483393536	41	3930
2026-01-05 07:13:42.30	321.11	34.03	-39.7	-40.2	21.1	0.00e+00	0	58	0	489684992	41	3932
2026-01-05 07:13:43.42	320.68	34.00	-39.9	-40.3	20.9	0.00e+00	0	58	0	497025024	41	3986
2026-01-05 07:13:44.28	320.35	33.98	-39.9	-40.4	20.9	0.00e+00	0	58	0	503316480	41	4021
2026-01-05 07:13:45.41	319.92	33.95	-39.9	-40.4	20.9	0.00e+00	0	58	0	511705088	41	4013
2026-01-05 07:13:46.26	319.59	33.93	-39.8	-40.2	21.0	0.00e+00	0	58	0	517996544	41	3953
2026-01-05 07:13:47.38	319.16	33.90	-39.8	-40.3	21.0	0.00e+00	0	58	0	525336576	41	3989
2026-01-05 07:13:48.23	318.84	33.87	-40.0	-40.4	20.8	0.00e+00	0	58	0	531628032	41	4051
2026-01-05 07:13:49.36	318.41	33.84	-40.2	-40.7	20.7	0.00e+00	0	58	0	540016640	42	3931
2026-01-05 07:13:50.21	318.08	33.81	-39.7	-40.2	21.1	0.00e+00	0	58	0	546308096	42	3701
2026-01-05 07:13:51.33	317.66	33.77	-39.3	-39.7	21.5	0.00e+00	0	58	0	554696704	41	3731
2026-01-05 07:13:52.18	317.34	33.75	-39.2	-39.6	21.6	0.00e+00	0	58	0	560988160	41	3680
2026-01-05 07:13:53.31	316.91	33.70	-39.3	-39.8	21.5	0.00e+00	0	58	0	568328192	41	3748
2026-01-05 07:13:54.16	316.59	33.67	-39.5	-39.9	21.4	0.00e+00	0	58	0	574619648	41	3809
2026-01-05 07:13:55.29	316.16	33.63	-39.4	-39.8	21.4	0.00e+00	0	58	0	583008256	41	3775
2026-01-05 07:13:56.14	315.84	33.59	-39.4	-39.8	21.4	0.00e+00	0	58	0	589299712	41	3768
2026-01-05 07:13:57.26	315.42	33.55	-39.2	-39.6	21.6	0.00e+00	0	58	0	597688320	41	3671
2026-01-05 07:13:58.11	315.11	33.51	-39.1	-39.5	21.7	0.00e+00	0	58	0	603979776	41	3639
2026-01-05 07:13:59.24	314.68	33.46	-39.2	-39.6	21.6	0.00e+00	0	58	0	611319808	41	3690
2026-01-05 07:14:00.09	314.37	33.42	-39.2	-39.6	21.6	0.00e+00	0	58	0	617611264	41	3684
2026-01-05 07:14:01.23	313.95	33.37	-39.4	-39.8	21.4	0.00e+00	0	58	0	625999872	41	3767
2026-01-05 07:14:02.08	313.63	33.33	-39.5	-39.9	21.3	0.00e+00	0	58	0	632291328	41	3822
2026-01-05 07:14:03.21	313.22	33.27	-39.6	-40.0	21.2	0.00e+00	0	58	0	640679936	41	3868
2026-01-05 07:14:04.06	312.90	33.23	-39.5	-40.0	21.3	0.00e+00	0	58	0	645922816	41	3828
2026-01-05 07:14:05.20	312.49	33.17	-39.8	-40.2	21.0	0.00e+00	0	58	0	654311424	41	3954
2026-01-05 07:14:06.05	312.18	33.12	-40.1	-40.6	20.7	0.00e+00	0	58	0	660602880	41	4107
2026-01-05 07:14:07.18	311.76	33.06	-39.7	-40.2	21.0	0.00e+00	0	58	0	668991488	41	3936
2026-01-05 07:14:08.03	311.46	33.02	-39.6	-40.0	21.2	0.00e+00	0	58	0	675282944	41	3853
2026-01-05 07:14:09.16	311.05	32.95	-39.5	-39.9	21.4	0.00e+00	0	58	0	683671552	41	3802
2026-01-05 07:14:10.01	310.74	32.90	-39.6	-40.1	21.2	0.00e+00	0	58	0	688914432	41	3890
2026-01-05 07:14:11.13	310.34	32.84	-39.8	-40.3	20.9	0.00e+00	0	58	0	697303040	41	3978
2026-01-05 07:14:11.98	310.04	32.79	-39.8	-40.2	21.0	0.00e+00	0	58	0	703594496	41	3958
2026-01-05 07:14:13.11	309.63	32.72	-39.8	-40.3	20.9	0.00e+00	0	58	0	711983104	41	3992
2026-01-05 07:14:13.96	309.33	32.66	-40.0	-40.5	20.7	0.00e+00	0	58	0	718274560	41	4092
2026-01-05 07:14:15.09	308.93	32.59	-39.8	-40.2	21.0	0.00e+00	0	58	0	726663168	41	3958
2026-01-05 07:14:15.94	308.63	32.54	-39.6	-40.1	21.2	0.00e+00	0	58	0	731906048	41	3876
2026-01-05 07:14:17.07	308.24	32.46	-39.5	-40.0	21.3	0.00e+00	0	58	0	740294656	41	3825
2026-01-05 07:14:17.92	307.94	32.41	-39.5	-39.9	21.3	0.00e+00	0	58	0	746586112	41	3811
2026-01-05 07:14:19.05	307.55	32.33	-39.8	-40.2	21.0	0.00e+00	0	58	0	754974720	41	3944
2026-01-05 07:14:19.91	307.25	32.27	-39.5	-39.9	21.3	0.00e+00	0	58	0	761266176	41	3815
2026-01-05 07:14:21.03	306.86	32.19	-39.3	-39.7	21.5	0.00e+00	0	58	0	768606208	41	3737
2026-01-05 07:14:21.89	306.57	32.13	-39.2	-39.6	21.5	0.00e+00	0	58	0	774897664	41	3684
2026-01-05 07:14:23.02	306.18	32.05	-39.3	-39.8	21.5	0.00e+00	0	58	0	783286272	41	3739
2026-01-05 07:14:23.86	305.89	31.99	-39.5	-39.9	21.4	0.00e+00	0	58	0	789577728	41	3801
2026-01-05 07:14:24.99	305.51	31.91	-39.6	-40.0	21.2	0.00e+00	0	58	0	797966336	41	3858
2026-01-05 07:14:25.84	305.22	31.84	-39.6	-40.1	21.1	0.00e+00	0	58	0	804257792	41	3882
2026-01-05 07:14:26.97	304.85	31.76	-39.8	-40.3	21.0	0.00e+00	0	58	0	811597824	41	3963
2026-01-05 07:14:27.82	304.56	31.69	-39.9	-40.3	20.9	0.00e+00	0	58	0	817889280	41	3998
2026-01-05 07:14:28.94	304.19	31.61	-40.0	-40.5	20.8	0.00e+00	0	58	0	826277888	41	4057
2026-01-05 07:14:29.80	303.90	31.54	-39.9	-40.4	20.9	0.00e+00	0	58	0	832569344	41	4014
2026-01-05 07:14:30.93	303.53	31.45	-40.2	-40.7	20.6	0.00e+00	0	58	0	839909376	41	4147
2026-01-05 07:14:31.78	303.25	31.38	-39.9	-40.3	20.9	0.00e+00	0	58	0	846200832	42	3767
2026-01-05 07:14:32.92	302.88	31.29	-39.5	-39.9	21.3	0.00e+00	0	58	0	854589440	41	3812
2026-01-05 07:14:33.76	302.61	31.22	-39.4	-39.8	21.4	0.00e+00	0	58	0	860880896	41	3762
2026-01-05 07:14:34.88	302.25	31.13	-39.3	-39.8	21.4	0.00e+00	0	58	0	869269504	41	3748
2026-01-05 07:14:35.73	301.97	31.06	-39.3	-39.8	21.4	0.00e+00	0	58	0	874512384	41	3749
2026-01-05 07:14:36.86	301.61	30.96	-39.4	-39.9	21.3	0.00e+00	0	58	0	882900992	41	3781
2026-01-05 07:14:37.71	301.34	30.89	-39.5	-39.9	21.3	0.00e+00	0	58	0	889192448	41	3807
2026-01-05 07:14:38.84	300.98	30.79	-39.6	-40.1	21.1	0.00e+00	0	58	0	897581056	41	3888
2026-01-05 07:14:39.69	300.72	30.72	-39.6	-40.0	21.2	0.00e+00	0	58	0	903872512	41	3849
2026-01-05 07:14:40.82	300.36	30.62	-39.7	-40.1	21.1	0.00e+00	0	58	0	911212544	41	3905
2026-01-05 07:14:41.66	300.10	30.55	-39.8	-40.3	20.9	0.00e+00	0	58	0	917504000	41	3969
2026-01-05 07:14:42.80	299.75	30.45	-39.8	-40.3	21.0	0.00e+00	0	58	0	925892608	41	3963
2026-01-05 07:14:43.65	299.48	30.37	-39.8	-40.3	20.9	0.00e+00	0	58	0	932184064	41	3980
2026-01-05 07:14:44.78	299.14	30.27	-39.8	-40.3	20.9	0.00e+00	0	58	0	940572672	41	3987
2026-01-05 07:14:45.63	298.88	30.20	-39.7	-40.1	21.1	0.00e+00	0	58	0	945815552	41	3900
2026-01-05 07:14:46.76	298.54	30.09	-39.6	-40.1	21.1	0.00e+00	0	58	0	954204160	41	3870
2026-01-05 07:14:47.61	298.28	30.02	-39.6	-40.0	21.1	0.00e+00	0	58	0	960495616	41	3864
2026-01-05 07:14:48.74	297.94	29.91	-39.7	-40.2	21.0	0.00e+00	0	58	0	968884224	41	3932
2026-01-05 07:14:49.59	297.69	29.83	-39.9	-40.3	20.9	0.00e+00	0	58	0	975175680	41	4002
2026-01-05 07:14:50.72	297.35	29.73	-39.8	-40.3	20.9	0.00e+00	0	58	0	983564288	41	3986
2026-01-05 07:14:51.57	297.10	29.65	-39.7	-40.2	21.1	0.00e+00	0	58	0	988807168	41	3929
2026-01-05 07:14:52.71	296.77	29.54	-39.8	-40.2	21.0	0.00e+00	0	58	0	997195776	41	3957
2026-01-05 07:14:53.56	296.52	29.46	-40.0	-40.4	20.8	0.00e+00	0	58	0	1003487232	41	4036
2026-01-05 07:14:54.70	296.19	29.35	-39.9	-40.4	20.8	0.00e+00	0	58	0	1011875840	41	4029
2026-01-05 07:14:55.54	295.95	29.27	-40.0	-40.4	20.8	0.00e+00	0	58	0	1018167296	41	4048
2026-01-05 07:14:56.68	295.62	29.16	-39.9	-40.4	20.8	0.00e+00	0	58	0	1026555904	41	4024
2026-01-05 07:14:57.53	295.38	29.08	-39.8	-40.2	21.0	0.00e+00	0	58	0	1031798784	41	3945
2026-01-05 07:14:58.66	295.06	28.97	-39.7	-40.2	21.0	0.00e+00	0	58	0	1040187392	41	3914
2026-01-05 07:14:59.52	294.82	28.89	-40.0	-40.4	20.8	0.00e+00	0	58	0	1046478848	41	4038
2026-01-05 07:15:00.65	294.51	28.78	-40.0	-40.4	20.8	0.00e+00	0	58	0	1054867456	41	4040
2026-01-05 07:15:01.50	294.27	28.69	-39.8	-40.3	20.9	0.00e+00	0	58	0	1061158912	41	3974
2026-01-05 07:15:02.62	293.96	28.58	-39.7	-40.2	21.0	0.00e+00	0	57	0	1069547520	41	3926
2026-01-05 07:15:03.47	293.73	28.50	-39.9	-40.3	20.9	0.00e+00	0	58	0	1074790400	41	3993
2026-01-05 07:15:04.61	293.42	28.38	-40.1	-40.5	20.7	0.00e+00	0	58	0	1083179008	41	4094
2026-01-05 07:15:05.46	293.19	28.30	-40.1	-40.6	20.7	0.00e+00	0	58	0	1089470464	42	3902
2026-01-05 07:15:06.59	292.88	28.19	-40.2	-40.7	20.5	0.00e+00	0	58	0	1097859072	42	3953
2026-01-05 07:15:07.44	292.66	28.10	-40.3	-40.8	20.4	0.00e+00	0	58	0	1104150528	42	3983
2026-01-05 07:15:08.58	292.35	27.98	-40.2	-40.7	20.5	0.00e+00	0	58	0	1111490560	42	3920
2026-01-05 07:15:09.43	292.13	27.90	-40.5	-41.0	20.2	0.00e+00	0	58	0	1118830592	42	4072
2026-01-05 07:15:10.55	291.84	27.79	-40.6	-41.1	20.1	0.00e+00	0	58	0	1126170624	42	4119
2026-01-05 07:15:11.40	291.61	27.70	-40.6	-41.1	20.1	0.00e+00	0	58	0	1132462080	42	4129
2026-01-05 07:15:12.54	291.32	27.58	-40.6	-41.2	20.1	0.00e+00	0	58	0	1140850688	42	4149
2026-01-05 07:15:13.39	291.10	27.50	-40.7	-41.2	20.1	0.00e+00	0	58	0	1147142144	43	3923
2026-01-05 07:15:14.52	290.81	27.38	-40.5	-41.0	20.3	0.00e+00	0	58	0	1154482176	43	3849
2026-01-05 07:15:15.36	290.60	27.29	-40.4	-40.9	20.4	0.00e+00	0	58	0	1160773632	43	3788
2026-01-05 07:15:16.50	290.31	27.18	-40.4	-40.9	20.3	0.00e+00	0	58	0	1169162240	43	3811
2026-01-05 07:15:17.35	290.10	27.09	-40.4	-40.9	20.3	0.00e+00	0	58	0	1175453696	43	3813
2026-01-05 07:15:18.48	289.82	26.97	-40.5	-41.0	20.3	0.00e+00	0	58	0	1183842304	43	3852
2026-01-05 07:15:19.33	289.60	26.88	-40.2	-40.7	20.5	0.00e+00	0	58	0	1189085184	43	3720
2026-01-05 07:15:20.47	289.32	26.76	-40.0	-40.5	20.8	0.00e+00	0	58	0	1197473792	42	3825
2026-01-05 07:15:21.31	289.12	26.68	-40.0	-40.5	20.7	0.00e+00	0	58	0	1203765248	42	3841
2026-01-05 07:15:22.44	288.84	26.56	-40.2	-40.8	20.5	0.00e+00	0	58	0	1212153856	42	3960
2026-01-05 07:15:23.29	288.64	26.47	-40.4	-40.9	20.3	0.00e+00	0	58	0	1218445312	42	4026
2026-01-05 07:15:24.42	288.37	26.35	-40.4	-40.9	20.3	0.00e+00	0	58	0	1226833920	42	4033
2026-01-05 07:15:25.27	288.17	26.26	-40.4	-40.9	20.3	0.00e+00	0	58	0	1232076800	42	4023
2026-01-05 07:15:26.40	287.90	26.14	-40.6	-41.1	20.1	0.00e+00	0	58	0	1240465408	42	4119
2026-01-05 07:15:27.24	287.70	26.06	-40.6	-41.1	20.1	0.00e+00	0	58	0	1246756864	43	3910
2026-01-05 07:15:28.38	287.44	25.94	-40.4	-40.9	20.3	0.00e+00	0	58	0	1255145472	43	3806
2026-01-05 07:15:29.24	287.24	25.85	-40.3	-40.8	20.4	0.00e+00	0	58	0	1261436928	43	3759
2026-01-05 07:15:30.38	286.97	25.73	-40.3	-40.8	20.4	0.00e+00	0	58	0	1269825536	43	3763
2026-01-05 07:15:31.22	286.78	25.64	-40.4	-40.9	20.3	0.00e+00	0	58	0	1275068416	43	3816
2026-01-05 07:15:32.35	286.52	25.52	-40.6	-41.1	20.1	0.00e+00	0	58	0	1283457024	43	3899
2026-01-05 07:15:33.19	286.33	25.43	-40.4	-40.9	20.2	0.00e+00	0	58	0	1289748480	43	3801
2026-01-05 07:15:34.33	286.08	25.31	-40.3	-40.8	20.3	0.00e+00	0	58	0	1298137088	43	3757
2026-01-05 07:15:35.17	285.89	25.22	-40.2	-40.7	20.3	0.00e+00	0	58	0	1304428544	43	3730
2026-01-05 07:15:36.30	285.64	25.10	-40.3	-40.8	20.3	0.00e+00	0	58	0	1312817152	43	3775
2026-01-05 07:15:37.15	285.45	25.01	-40.4	-40.9	20.2	0.00e+00	0	58	0	1318060032	43	3808
2026-01-05 07:15:38.27	285.21	24.89	-40.5	-41.0	20.1	0.00e+00	0	58	0	1326448640	43	3829
2026-01-05 07:15:39.12	285.03	24.80	-40.5	-41.1	20.0	0.00e+00	0	58	0	1332740096	43	3877
2026-01-05 07:15:40.25	284.78	24.68	-40.5	-41.1	20.0	0.00e+00	0	58	0	1341128704	43	3879
2026-01-05 07:15:41.09	284.60	24.59	-40.5	-41.0	20.0	0.00e+00	0	58	0	1347420160	43	3850
2026-01-05 07:15:42.22	284.36	24.47	-40.7	-41.2	19.9	0.00e+00	0	58	0	1354760192	43	3929
2026-01-05 07:15:43.07	284.18	24.38	-40.5	-41.0	20.1	0.00e+00	0	58	0	1361051648	43	3855
2026-01-05 07:15:44.20	283.95	24.26	-40.6	-41.1	20.0	0.00e+00	0	58	0	1369440256	43	3909
2026-01-05 07:15:45.05	283.77	24.17	-40.7	-41.3	19.8	0.00e+00	0	58	0	1375731712	43	3959
2026-01-05 07:15:46.18	283.53	24.05	-40.5	-41.0	20.1	0.00e+00	0	58	0	1383071744	43	3836
2026-01-05 07:15:47.03	283.36	23.97	-40.4	-40.9	20.2	0.00e+00	0	58	0	1389363200	43	3802
2026-01-05 07:15:48.16	283.13	23.85	-40.6	-41.1	20.1	0.00e+00	0	58	0	1397751808	43	3882
2026-01-05 07:15:49.01	282.96	23.76	-40.7	-41.2	19.9	0.00e+00	0	57	0	1404043264	43	3955
2026-01-05 07:15:50.14	282.73	23.64	-40.9	-41.4	19.7	0.00e+00	0	58	0	1412431872	43	4045
2026-01-05 07:15:50.99	282.56	23.55	-41.1	-41.6	19.6	0.00e+00	0	58	0	1418723328	43	4126
2026-01-05 07:15:52.12	282.33	23.43	-40.7	-41.2	20.0	0.00e+00	0	57	0	1426063360	43	3951
2026-01-05 07:15:52.97	282.17	23.34	-40.5	-41.0	20.2	0.00e+00	0	58	0	1432354816	43	3830
2026-01-05 07:15:54.10	281.95	23.22	-40.3	-40.8	20.4	0.00e+00	0	58	0	1440743424	43	3757
2026-01-05 07:15:54.95	281.78	23.13	-40.3	-40.7	20.4	0.00e+00	0	58	0	1447034880	43	3733
2026-01-05 07:15:56.08	281.56	23.01	-40.3	-40.8	20.3	0.00e+00	0	58	0	1455423488	43	3740
2026-01-05 07:15:56.93	281.40	22.92	-40.5	-41.0	20.2	0.00e+00	0	58	0	1461714944	43	3858
2026-01-05 07:15:58.07	281.18	22.80	-40.2	-40.7	20.5	0.00e+00	0	58	0	1469054976	43	3723
2026-01-05 07:15:58.92	281.02	22.71	-40.2	-40.6	20.5	0.00e+00	0	58	0	1475346432	43	3691
2026-01-05 07:16:00.05	280.81	22.59	-40.4	-40.9	20.3	0.00e+00	0	58	0	1483735040	43	3802
2026-01-05 07:16:00.90	280.65	22.50	-40.7	-41.2	20.0	0.00e+00	0	58	0	1490026496	43	3935
2026-01-05 07:16:02.03	280.44	22.38	-40.5	-41.0	20.2	0.00e+00	0	58	0	1498415104	43	3833
2026-01-05 07:16:02.88	280.28	22.29	-40.5	-41.0	20.1	0.00e+00	0	58	0	1503657984	43	3867
2026-01-05 07:16:04.01	280.07	22.18	-40.7	-41.3	19.9	0.00e+00	0	58	0	1512046592	43	3968
2026-01-05 07:16:04.86	279.92	22.09	-40.6	-41.1	20.1	0.00e+00	0	58	0	1518338048	43	3888
2026-01-05 07:16:05.99	279.71	21.97	-40.8	-41.3	19.9	0.00e+00	0	58	0	1526726656	43	3986
2026-01-05 07:16:06.84	279.56	21.88	-41.0	-41.6	19.6	0.00e+00	0	58	0	1533018112	43	4120
2026-01-05 07:16:07.96	279.36	21.76	-41.1	-41.7	19.7	0.00e+00	0	58	0	1540358144	44	3918
2026-01-05 07:16:08.81	279.21	21.68	-41.1	-41.6	19.7	0.00e+00	0	58	0	1546649600	44	3901
2026-01-05 07:16:09.94	279.01	21.56	-41.1	-41.6	19.7	0.00e+00	0	58	0	1555038208	44	3895
2026-01-05 07:16:10.79	278.86	21.47	-41.1	-41.7	19.6	0.00e+00	0	58	0	1561329664	44	3931
2026-01-05 07:16:11.92	278.67	21.35	-41.2	-41.7	19.5	0.00e+00	0	57	0	1569718272	44	3952
2026-01-05 07:16:12.77	278.52	21.27	-41.2	-41.8	19.5	0.00e+00	0	58	0	1574961152	44	3967
2026-01-05 07:16:13.91	278.33	21.15	-41.3	-41.8	19.5	0.00e+00	0	58	0	1583349760	44	3990
2026-01-05 07:16:14.75	278.18	21.06	-41.1	-41.6	19.6	0.00e+00	0	57	0	1589641216	44	3899
2026-01-05 07:16:15.88	277.99	20.94	-40.9	-41.4	19.9	0.00e+00	0	58	0	1598029824	44	3789
2026-01-05 07:16:16.73	277.85	20.86	-40.8	-41.3	19.9	0.00e+00	0	58	0	1604321280	44	3773
2026-01-05 07:16:17.86	277.66	20.74	-40.9	-41.4	19.9	0.00e+00	0	58	0	1612709888	44	3804
2026-01-05 07:16:18.71	277.52	20.65	-40.8	-41.4	20.0	0.00e+00	0	58	0	1617952768	44	3786
2026-01-05 07:16:19.83	277.34	20.54	-40.8	-41.3	20.0	0.00e+00	0	58	0	1626341376	44	3758
2026-01-05 07:16:20.68	277.20	20.45	-40.8	-41.3	20.0	0.00e+00	0	58	0	1632632832	44	3779
2026-01-05 07:16:21.81	277.01	20.34	-40.8	-41.4	19.9	0.00e+00	0	58	0	1641021440	44	3788
2026-01-05 07:16:22.66	276.88	20.25	-40.8	-41.3	19.9	0.00e+00	0	58	0	1647312896	44	3772
2026-01-05 07:16:23.79	276.69	20.13	-40.9	-41.4	19.9	0.00e+00	0	58	0	1655701504	44	3807
2026-01-05 07:16:24.63	276.56	20.05	-41.0	-41.6	19.7	0.00e+00	0	58	0	1660944384	44	3873
2026-01-05 07:16:25.76	276.38	19.93	-41.2	-41.8	19.5	0.00e+00	0	58	0	1669332992	44	3969
2026-01-05 07:16:26.61	276.25	19.85	-41.1	-41.7	19.6	0.00e+00	0	58	0	1675624448	44	3927
2026-01-05 07:16:27.73	276.07	19.74	-41.1	-41.6	19.6	0.00e+00	0	58	0	1684013056	44	3908
2026-01-05 07:16:28.56	275.95	19.65	-41.1	-41.6	19.7	0.00e+00	0	58	0	1689255936	44	3894
2026-01-05 07:16:29.70	275.77	19.54	-40.8	-41.4	19.9	0.00e+00	0	58	0	1697644544	44	3781
2026-01-05 07:16:30.55	275.64	19.45	-40.9	-41.4	19.8	0.00e+00	0	58	0	1703936000	44	3809
2026-01-05 07:16:31.67	275.47	19.34	-41.2	-41.8	19.3	0.00e+00	0	58	0	1712324608	44	3967
2026-01-05 07:16:32.52	275.34	19.25	-41.2	-41.8	19.5	0.00e+00	0	58	0	1718616064	44	3982
2026-01-05 07:16:33.66	275.17	19.14	-41.2	-41.7	19.6	0.00e+00	0	58	0	1725956096	44	3931
2026-01-05 07:16:34.50	275.05	19.06	-41.2	-41.8	19.5	0.00e+00	0	58	0	1732247552	44	3959
2026-01-05 07:16:35.64	274.88	18.94	-41.4	-42.0	19.3	0.00e+00	0	57	0	1740636160	44	4055
2026-01-05 07:16:36.48	274.75	18.86	-41.5	-42.1	19.2	0.00e+00	0	58	0	1746927616	44	4120
2026-01-05 07:16:37.61	274.59	18.75	-41.5	-42.1	19.2	0.00e+00	0	57	0	1755316224	44	4130
2026-01-05 07:16:38.46	274.46	18.66	-41.5	-42.1	19.2	0.00e+00	0	58	0	1760559104	44	4101
2026-01-05 07:16:39.59	274.30	18.55	-41.5	-42.1	19.2	0.00e+00	0	58	0	1768947712	44	4103
2026-01-05 07:16:40.43	274.18	18.47	-41.4	-42.0	19.3	0.00e+00	0	58	0	1775239168	44	4068
2026-01-05 07:16:41.57	274.02	18.36	-41.2	-41.8	19.5	0.00e+00	0	58	0	1783627776	44	3968
2026-01-05 07:16:42.42	273.90	18.27	-41.2	-41.7	19.5	0.00e+00	0	58	0	1789919232	44	3942
2026-01-05 07:16:43.54	273.74	18.16	-41.2	-41.7	19.5	0.00e+00	0	58	0	1797259264	44	3953
2026-01-05 07:16:44.39	273.62	18.08	-41.2	-41.7	19.5	0.00e+00	0	58	0	1803550720	44	3944
2026-01-05 07:16:45.53	273.46	17.97	-41.2	-41.8	19.5	0.00e+00	0	58	0	1811939328	44	3971
2026-01-05 07:16:46.37	273.35	17.89	-41.4	-41.9	19.3	0.00e+00	0	57	0	1818230784	44	4037
2026-01-05 07:16:47.50	273.19	17.78	-41.6	-42.2	19.1	0.00e+00	0	58	0	1826619392	44	4171
2026-01-05 07:16:48.36	273.08	17.69	-41.6	-42.2	19.0	0.00e+00	0	57	0	1832910848	45	3957
2026-01-05 07:16:49.48	272.93	17.59	-41.7	-42.3	18.9	0.00e+00	0	58	0	1840250880	45	4001
2026-01-05 07:16:50.33	272.81	17.50	-41.9	-42.5	18.7	0.00e+00	0	58	0	1846542336	45	4087
2026-01-05 07:16:51.46	272.66	17.40	-41.9	-42.5	18.7	0.00e+00	0	57	0	1854930944	45	4078
2026-01-05 07:16:52.31	272.55	17.31	-42.1	-42.7	18.5	0.00e+00	0	58	0	1861222400	45	4184
2026-01-05 07:16:53.43	272.40	17.21	-42.3	-42.9	18.4	0.00e+00	0	58	0	1869611008	46	4047
2026-01-05 07:16:54.28	272.29	17.13	-42.3	-43.0	18.3	0.00e+00	0	58	0	1874853888	46	4076
2026-01-05 07:16:55.42	272.14	17.02	-42.5	-43.2	18.0	0.00e+00	0	57	0	1883242496	46	4181
2026-01-05 07:16:56.26	272.03	16.94	-42.5	-43.2	18.1	0.00e+00	0	58	0	1889533952	46	4148
2026-01-05 07:16:57.40	271.89	16.83	-42.5	-43.2	18.1	0.00e+00	0	58	0	1897922560	46	4158
2026-01-05 07:16:58.25	271.78	16.75	-42.6	-43.3	18.0	0.00e+00	0	57	0	1904214016	46	4197
2026-01-05 07:16:59.38	271.63	16.64	-42.3	-42.9	18.3	0.00e+00	0	57	0	1912602624	46	4048
2026-01-05 07:17:00.23	271.53	16.56	-42.1	-42.8	18.5	0.00e+00	0	57	0	1917845504	46	3963
2026-01-05 07:17:01.36	271.39	16.45	-42.0	-42.6	18.6	0.00e+00	0	58	0	1926234112	46	3883
2026-01-05 07:17:02.21	271.28	16.38	-42.0	-42.6	18.6	0.00e+00	0	57	0	1932525568	46	3897
2026-01-05 07:17:03.34	271.14	16.27	-42.0	-42.6	18.6	0.00e+00	0	57	0	1940914176	46	3882
2026-01-05 07:17:04.20	271.04	16.19	-41.7	-42.3	18.9	0.00e+00	0	57	0	1947205632	46	3765
2026-01-05 07:17:05.33	270.90	16.08	-41.6	-42.2	19.0	0.00e+00	0	58	0	1955594240	46	3717
2026-01-05 07:17:06.18	270.79	16.00	-41.6	-42.2	19.0	0.00e+00	0	58	0	1960837120	46	3701
2026-01-05 07:17:07.32	270.66	15.90	-41.5	-42.0	19.2	0.00e+00	0	58	0	1969225728	45	3865
2026-01-05 07:17:08.15	270.56	15.82	-41.5	-42.1	19.1	0.00e+00	0	58	0	1975517184	45	3887
2026-01-05 07:17:09.29	270.42	15.72	-41.6	-42.2	19.0	0.00e+00	0	57	0	1983905792	45	3925
2026-01-05 07:17:10.14	270.32	15.64	-41.6	-42.1	19.0	0.00e+00	0	57	0	1990197248	45	3906
2026-01-05 07:17:11.27	270.19	15.53	-41.8	-42.4	18.8	0.00e+00	0	58	0	1997537280	45	4031
2026-01-05 07:17:12.12	270.09	15.46	-42.0	-42.6	18.6	0.00e+00	0	58	0	2003828736	45	4116
2026-01-05 07:17:13.25	269.96	15.35	-42.0	-42.7	18.6	0.00e+00	0	58	0	2012217344	45	4156
2026-01-05 07:17:14.10	269.86	15.28	-42.1	-42.8	18.4	0.00e+00	0	58	0	2018508800	45	4209
2026-01-05 07:17:15.23	269.73	15.17	-42.3	-43.0	18.3	0.00e+00	0	58	0	2026897408	46	4057
2026-01-05 07:17:16.07	269.63	15.10	-42.3	-43.0	18.3	0.00e+00	0	57	0	2033188864	46	4066
2026-01-05 07:17:17.21	269.51	14.99	-42.4	-43.1	18.1	0.00e+00	0	58	0	2040528896	46	4118
2026-01-05 07:17:18.06	269.41	14.92	-42.6	-43.3	17.9	0.00e+00	0	57	0	2046820352	46	4197
2026-01-05 07:17:19.19	269.28	14.81	-42.4	-43.0	18.1	0.00e+00	0	58	0	2055208960	46	4090
2026-01-05 07:17:20.03	269.19	14.74	-42.3	-43.0	18.2	0.00e+00	0	57	0	2061500416	46	4074
2026-01-05 07:17:21.16	269.07	14.64	-42.4	-43.1	18.1	0.00e+00	0	58	0	2068840448	46	4119
2026-01-05 07:17:22.01	268.97	14.56	-42.7	-43.4	17.8	0.00e+00	0	58	0	2075131904	46	4254
2026-01-05 07:17:23.14	268.85	14.46	-42.6	-43.3	17.9	0.00e+00	0	58	0	2083520512	46	4196
2026-01-05 07:17:23.98	268.76	14.39	-42.5	-43.2	17.9	0.00e+00	0	58	0	2089811968	46	4172
2026-01-05 07:17:25.11	268.64	14.29	-42.7	-43.4	17.8	0.00e+00	0	58	0	2098200576	47	4021
2026-01-05 07:17:25.96	268.54	14.21	-42.9	-43.6	17.6	0.00e+00	0	58	0	2103443456	47	4127
2026-01-05 07:17:27.10	268.42	14.11	-42.8	-43.5	17.7	0.00e+00	0	58	0	2111832064	47	4074
2026-01-05 07:17:27.94	268.33	14.04	-42.8	-43.5	17.7	0.00e+00	0	58	0	2118123520	47	4068
2026-01-05 07:17:29.07	268.22	13.94	-42.8	-43.5	17.6	0.00e+00	0	58	0	2126512128	47	4097
2026-01-05 07:17:29.92	268.13	13.86	-43.0	-43.7	17.4	0.00e+00	0	58	0	2132803584	47	4159
2026-01-05 07:17:31.05	268.01	13.76	-42.8	-43.5	17.7	0.00e+00	0	58	0	2140143616	47	4065
2026-01-05 07:17:31.90	267.92	13.69	-42.7	-43.4	17.7	0.00e+00	0	57	0	2146435072	47	4048
2026-01-05 07:17:33.03	267.80	13.59	-42.7	-43.5	17.7	0.00e+00	0	57	0	2154823680	47	4052
2026-01-05 07:17:33.87	267.72	13.52	-42.6	-43.3	17.8	0.00e+00	0	58	0	2161115136	47	3990
2026-01-05 07:17:35.01	267.60	13.42	-42.4	-43.1	18.1	0.00e+00	0	58	0	2169503744	47	3874
2026-01-05 07:17:35.85	267.52	13.35	-42.3	-43.0	18.2	0.00e+00	0	58	0	2175795200	47	3838
2026-01-05 07:17:36.99	267.40	13.25	-42.3	-43.0	18.1	0.00e+00	0	57	0	2183135232	47	3830
2026-01-05 07:17:37.84	267.32	13.17	-42.4	-43.1	18.0	0.00e+00	0	58	0	2189426688	47	3880
2026-01-05 07:17:38.98	267.21	13.08	-42.7	-43.4	17.8	0.00e+00	0	58	0	2197815296	47	4007
2026-01-05 07:17:39.82	267.12	13.00	-42.5	-43.2	17.9	0.00e+00	0	57	0	2204106752	47	3926
2026-01-05 07:17:40.96	267.01	12.91	-42.7	-43.4	17.7	0.00e+00	0	57	0	2212495360	47	4049
2026-01-05 07:17:41.80	266.93	12.84	-42.8	-43.5	17.7	0.00e+00	0	58	0	2217738240	47	4061
2026-01-05 07:17:42.94	266.82	12.74	-42.8	-43.5	17.6	0.00e+00	0	58	0	2226126848	47	4092
2026-01-05 07:17:43.79	266.74	12.67	-42.9	-43.7	17.5	0.00e+00	0	57	0	2232418304	47	4147
2026-01-05 07:17:44.91	266.63	12.57	-43.0	-43.7	17.3	0.00e+00	0	58	0	2240806912	47	4189
2026-01-05 07:17:45.76	266.55	12.50	-43.0	-43.7	17.4	0.00e+00	0	58	0	2247098368	47	4184
2026-01-05 07:17:46.89	266.44	12.40	-43.1	-43.9	17.3	0.00e+00	0	58	0	2255486976	47	4251
2026-01-05 07:17:47.74	266.36	12.33	-43.2	-43.9	17.4	0.00e+00	0	58	0	2260729856	48	4039
2026-01-05 07:17:48.86	266.26	12.24	-43.4	-44.1	17.2	0.00e+00	0	58	0	2269118464	48	4133
2026-01-05 07:17:49.71	266.18	12.17	-43.6	-44.4	16.9	0.00e+00	0	58	0	2275409920	48	4280
2026-01-05 07:17:50.84	266.07	12.07	-43.5	-44.3	17.0	0.00e+00	0	58	0	2283798528	48	4222
2026-01-05 07:17:51.68	266.00	12.00	-43.3	-44.1	17.3	0.00e+00	0	58	0	2290089984	48	4104
2026-01-05 07:17:52.82	265.89	11.91	-43.2	-44.0	17.3	0.00e+00	0	58	0	2297430016	48	4068
2026-01-05 07:17:53.66	265.82	11.84	-43.3	-44.0	17.3	0.00e+00	0	58	0	2303721472	48	4085
2026-01-05 07:17:54.79	265.71	11.75	-43.6	-44.3	17.0	0.00e+00	0	58	0	2312110080	48	4237
2026-01-05 07:17:55.64	265.64	11.68	-43.5	-44.2	17.1	0.00e+00	0	57	0	2318401536	48	4185
2026-01-05 07:17:56.77	265.54	11.58	-43.3	-44.1	17.2	0.00e+00	0	58	0	2326790144	48	4100
2026-01-05 07:17:57.62	265.46	11.52	-43.2	-44.0	17.3	0.00e+00	0	58	0	2333081600	48	4068
2026-01-05 07:17:58.75	265.36	11.42	-43.3	-44.1	17.2	0.00e+00	0	57	0	2340421632	48	4122
2026-01-05 07:17:59.60	265.29	11.35	-43.4	-44.2	17.1	0.00e+00	0	57	0	2346713088	48	4190
2026-01-05 07:18:00.74	265.19	11.26	-43.4	-44.2	17.1	0.00e+00	0	57	0	2355101696	48	4173
2026-01-05 07:18:01.59	265.11	11.19	-43.5	-44.3	16.9	0.00e+00	0	58	0	2361393152	48	4219
2026-01-05 07:18:02.72	265.02	11.10	-43.7	-44.5	16.8	0.00e+00	0	58	0	2369781760	49	4064
2026-01-05 07:18:03.57	264.94	11.03	-43.6	-44.5	16.8	0.00e+00	0	57	0	2375024640	49	4056
2026-01-05 07:18:04.70	264.85	10.94	-43.7	-44.5	16.8	0.00e+00	0	58	0	2383413248	49	4064
2026-01-05 07:18:05.55	264.78	10.87	-43.8	-44.7	16.5	0.00e+00	0	58	0	2389704704	49	4168
2026-01-05 07:18:06.68	264.68	10.78	-43.7	-44.6	16.7	0.00e+00	0	58	0	2398093312	49	4113
2026-01-05 07:18:07.54	264.61	10.71	-43.7	-44.5	16.7	0.00e+00	0	58	0	2404384768	49	4084
2026-01-05 07:18:08.66	264.51	10.62	-43.7	-44.5	16.8	0.00e+00	0	57	0	2411724800	49	4072
2026-01-05 07:18:09.51	264.44	10.56	-43.4	-44.2	17.0	0.00e+00	0	57	0	2418016256	49	3937
2026-01-05 07:18:10.64	264.35	10.47	-43.4	-44.1	17.1	0.00e+00	0	58	0	2426404864	49	3907
2026-01-05 07:18:11.50	264.28	10.40	-43.4	-44.1	17.1	0.00e+00	0	57	0	2432696320	49	3904
2026-01-05 07:18:12.63	264.19	10.31	-43.3	-44.1	17.1	0.00e+00	0	58	0	2441084928	49	3882
2026-01-05 07:18:13.47	264.12	10.24	-43.2	-43.9	17.3	0.00e+00	0	58	0	2447376384	49	3811
2026-01-05 07:18:14.60	264.03	10.16	-43.0	-43.7	17.5	0.00e+00	0	57	0	2454716416	48	3950
2026-01-05 07:18:15.45	263.96	10.09	-42.9	-43.6	17.6	0.00e+00	0	58	0	2461007872	48	3905
2026-01-05 07:18:16.58	263.87	10.00	-43.0	-43.7	17.5	0.00e+00	0	58	0	2469396480	48	3946
2026-01-05 07:18:17.43	263.80	9.93	-42.9	-43.6	17.6	0.00e+00	0	57	0	2475687936	48	3906
2026-01-05 07:18:18.56	263.71	9.85	-42.9	-43.6	17.5	0.00e+00	0	57	0	2483027968	48	3907
2026-01-05 07:18:19.40	263.65	9.78	-43.1	-43.8	17.4	0.00e+00	0	57	0	2489319424	48	3979
2026-01-05 07:18:20.54	263.56	9.69	-43.2	-43.9	17.3	0.00e+00	0	57	0	2497708032	48	4042
2026-01-05 07:18:21.38	263.49	9.63	-43.2	-43.9	17.2	0.00e+00	0	58	0	2503999488	48	4045
2026-01-05 07:18:22.51	263.41	9.54	-43.3	-44.1	17.0	0.00e+00	0	57	0	2512388096	48	4123
2026-01-05 07:18:23.35	263.34	9.48	-43.4	-44.2	16.9	0.00e+00	0	58	0	2518679552	48	4157
2026-01-05 07:18:24.48	263.25	9.39	-43.5	-44.3	16.8	0.00e+00	0	58	0	2526019584	48	4232
2026-01-05 07:18:25.33	263.19	9.33	-43.5	-44.4	16.8	0.00e+00	0	58	0	2532311040	48	4245
2026-01-05 07:18:26.45	263.11	9.24	-43.6	-44.4	16.7	0.00e+00	0	58	0	2540699648	48	4281
2026-01-05 07:18:27.30	263.04	9.17	-43.8	-44.7	16.5	0.00e+00	0	58	0	2546991104	49	4152
2026-01-05 07:18:28.43	262.96	9.09	-43.9	-44.8	16.3	0.00e+00	0	58	0	2555379712	49	4209
2026-01-05 07:18:29.27	262.89	9.03	-44.0	-44.9	16.2	0.00e+00	0	58	0	2560622592	49	4261
2026-01-05 07:18:30.40	262.81	8.94	-44.2	-45.2	16.0	0.00e+00	0	57	0	2569011200	50	4156
2026-01-05 07:18:31.25	262.75	8.88	-44.5	-45.4	15.7	0.00e+00	0	58	0	2575302656	50	4283
2026-01-05 07:18:32.38	262.67	8.79	-44.5	-45.5	15.7	0.00e+00	0	57	0	2583691264	50	4300
2026-01-05 07:18:33.24	262.60	8.73	-44.6	-45.6	15.6	0.00e+00	0	57	0	2589982720	50	4364
2026-01-05 07:18:34.36	262.52	8.64	-44.6	-45.6	15.5	0.00e+00	0	57	0	2597322752	50	4367
2026-01-05 07:18:35.21	262.46	8.58	-44.6	-45.6	15.5	0.00e+00	0	57	0	2603614208	51	4120
2026-01-05 07:18:36.34	262.38	8.49	-44.7	-45.8	15.3	0.00e+00	0	57	0	2612002816	51	4214
2026-01-05 07:18:37.19	262.32	8.43	-44.7	-45.8	15.3	0.00e+00	0	58	0	2618294272	51	4221
2026-01-05 07:18:38.32	262.24	8.35	-44.8	-45.8	15.3	0.00e+00	0	58	0	2626682880	51	4238
2026-01-05 07:18:39.17	262.18	8.28	-44.7	-45.8	15.3	0.00e+00	0	57	0	2631925760	51	4200
2026-01-05 07:18:40.31	262.10	8.20	-44.7	-45.7	15.4	0.00e+00	0	58	0	2640314368	51	4176
2026-01-05 07:18:41.16	262.04	8.14	-44.7	-45.7	15.3	0.00e+00	0	58	0	2646605824	51	4187
2026-01-05 07:18:42.29	261.96	8.06	-44.7	-45.8	15.3	0.00e+00	0	57	0	2654994432	51	4196
2026-01-05 07:18:43.14	261.90	7.99	-44.7	-45.7	15.4	0.00e+00	0	57	0	2661285888	51	4181
2026-01-05 07:18:44.28	261.82	7.91	-44.9	-45.9	15.1	0.00e+00	0	58	0	2669674496	51	4284
2026-01-05 07:18:45.13	261.77	7.85	-45.0	-46.0	15.0	0.00e+00	0	57	0	2675965952	51	4335
2026-01-05 07:18:46.25	261.69	7.77	-44.8	-45.8	15.2	0.00e+00	0	57	0	2683305984	51	4229
2026-01-05 07:18:47.11	261.63	7.70	-44.6	-45.6	15.4	0.00e+00	0	58	0	2689597440	51	4142
2026-01-05 07:18:48.24	261.55	7.62	-44.6	-45.7	15.3	0.00e+00	0	58	0	2697986048	51	4150
2026-01-05 07:18:49.08	261.50	7.56	-44.6	-45.6	15.4	0.00e+00	0	58	0	2704277504	51	4134
2026-01-05 07:18:50.21	261.42	7.48	-44.7	-45.7	15.3	0.00e+00	0	58	0	2711617536	51	4169
2026-01-05 07:18:51.06	261.37	7.42	-44.8	-45.9	15.1	0.00e+00	0	57	0	2717908992	51	4257
2026-01-05 07:18:52.19	261.29	7.34	-44.7	-45.7	15.3	0.00e+00	0	57	0	2726297600	51	4163
2026-01-05 07:18:53.04	261.24	7.28	-44.8	-45.8	15.2	0.00e+00	0	57	0	2732589056	51	4229
2026-01-05 07:18:54.17	261.16	7.20	-45.0	-46.1	14.9	0.00e+00	0	58	0	2740977664	51	4356
2026-01-05 07:18:55.02	261.11	7.13	-44.8	-45.8	15.2	0.00e+00	0	57	0	2747269120	51	4215
2026-01-05 07:18:56.15	261.03	7.05	-45.0	-46.0	14.9	0.00e+00	0	57	0	2754609152	51	4337
2026-01-05 07:18:57.00	260.98	6.99	-45.2	-46.3	14.6	0.00e+00	0	58	0	2760900608	52	4224
2026-01-05 07:18:58.13	260.91	6.91	-45.1	-46.2	14.6	0.00e+00	0	58	0	2769289216	52	4183
2026-01-05 07:18:58.98	260.85	6.85	-45.2	-46.3	14.5	1.10e-06	0	58	0	2775580672	52	4230
2026-01-05 07:19:00.12	260.78	6.77	-45.3	-46.5	14.3	3.40e-06	0	57	0	2783969280	52	4332
2026-01-05 07:19:00.96	260.73	6.71	-45.2	-46.3	14.5	0.00e+00	0	58	0	2789212160	52	4237
2026-01-05 07:19:02.10	260.66	6.63	-45.0	-46.1	14.7	0.00e+00	0	58	0	2797600768	52	4136
2026-01-05 07:19:02.95	260.60	6.57	-45.0	-46.2	14.7	1.10e-06	0	58	0	2803892224	52	4146
2026-01-05 07:19:04.08	260.53	6.50	-45.0	-46.1	14.7	0.00e+00	0	58	0	2812280832	52	4140
2026-01-05 07:19:04.93	260.48	6.44	-45.3	-46.5	14.3	1.10e-06	0	58	0	2818572288	52	4318
2026-01-05 07:19:06.05	260.41	6.36	-45.1	-46.2	14.6	0.00e+00	0	57	0	2825912320	52	4185
2026-01-05 07:19:06.90	260.36	6.30	-44.8	-45.8	15.0	1.10e-06	0	58	0	2832203776	52	4002
2026-01-05 07:19:08.03	260.29	6.22	-44.6	-45.6	15.3	0.00e+00	0	58	0	2840592384	51	4104
2026-01-05 07:19:08.88	260.24	6.16	-44.4	-45.4	15.5	0.00e+00	0	58	0	2846883840	51	4018
2026-01-05 07:19:10.02	260.17	6.08	-44.3	-45.3	15.5	0.00e+00	0	58	0	2855272448	51	4000
2026-01-05 07:19:10.87	260.12	6.03	-44.4	-45.4	15.4	0.00e+00	0	57	0	2861563904	51	4015
2026-01-05 07:19:11.99	260.05	5.95	-44.4	-45.4	15.4	0.00e+00	0	58	0	2868903936	51	4032
2026-01-05 07:19:12.84	260.00	5.89	-44.7	-45.8	15.0	0.00e+00	0	58	0	2875195392	51	4199
2026-01-05 07:19:13.96	259.94	5.81	-44.5	-45.5	15.3	0.00e+00	0	57	0	2883584000	51	4072
2026-01-05 07:19:14.80	259.89	5.76	-44.5	-45.5	15.3	0.00e+00	0	58	0	2889875456	51	4052
2026-01-05 07:19:15.93	259.82	5.68	-44.6	-45.6	15.2	1.10e-06	0	58	0	2898264064	51	4133
2026-01-05 07:19:16.78	259.77	5.62	-44.8	-45.9	14.8	0.00e+00	0	58	0	2903506944	51	4271
2026-01-05 07:19:17.91	259.71	5.54	-44.7	-45.8	14.9	0.00e+00	0	58	0	2911895552	51	4237
2026-01-05 07:19:18.75	259.66	5.49	-44.8	-45.9	14.8	0.00e+00	0	58	0	2918187008	51	4271
2026-01-05 07:19:19.87	259.59	5.41	-44.9	-46.0	14.7	0.00e+00	0	58	0	2926575616	51	4314
2026-01-05 07:19:20.72	259.54	5.35	-45.1	-46.3	14.4	3.40e-06	0	58	0	2931818496	51	4457
2026-01-05 07:19:21.84	259.48	5.28	-45.1	-46.2	14.4	0.00e+00	0	58	0	2940207104	52	4193
2026-01-05 07:19:22.69	259.43	5.22	-45.3	-46.5	14.1	1.10e-06	0	58	0	2946498560	52	4308
2026-01-05 07:19:23.82	259.37	5.15	-45.2	-46.5	14.1	1.10e-06	0	58	0	2954887168	52	4299
2026-01-05 07:19:24.67	259.32	5.09	-45.0	-46.1	14.5	1.10e-06	0	58	0	2961178624	52	4143
2026-01-05 07:19:25.80	259.26	5.01	-46.1	-47.6	13.1	2.20e-06	0	58	0	2968518656	53	4613
2026-01-05 07:19:26.64	259.21	4.96	-51.5	-61.2	3.8	8.47e-01	0	58	104	2970615808	64	11804
2026-01-05 07:19:27.76	259.15	4.88	-50.2	-60.4	3.8	8.46e-01	0	58	104	2970615808	63	11325
2026-01-05 07:19:28.61	259.10	4.83	-51.7	-61.8	3.8	8.46e-01	0	58	104	2970615808	65	11951
2026-01-05 07:19:29.73	259.04	4.75	-52.0	-62.2	3.8	8.46e-01	0	58	104	2970615808	65	12412
2026-01-05 07:19:30.58	259.00	4.70	-52.2	-62.4	3.8	8.47e-01	0	58	104	2970615808	66	12079
2026-01-05 07:19:31.71	258.93	4.62	-52.3	-62.5	3.8	8.46e-01	0	58	104	2970615808	66	12169
2026-01-05 07:19:32.56	258.89	4.57	-52.4	-62.6	3.8	8.46e-01	0	58	104	2970615808	66	12266
2026-01-05 07:19:33.69	258.83	4.49	-52.4	-62.5	3.8	8.46e-01	0	58	104	2970615808	66	12175
2026-01-05 07:19:34.54	258.78	4.44	-52.4	-62.5	3.8	8.46e-01	0	58	104	2970615808	66	12227
2026-01-05 07:19:35.67	258.72	4.36	-52.4	-62.6	3.8	8.45e-01	0	58	104	2970615808	66	12312
2026-01-05 07:19:36.52	258.68	4.31	-52.5	-62.7	3.8	8.46e-01	0	58	104	2970615808	66	12408
2026-01-05 07:19:37.65	258.62	4.24	-52.5	-62.6	3.8	8.46e-01	0	58	104	2970615808	66	12369
2026-01-05 07:19:38.49	258.57	4.18	-52.5	-62.7	3.8	8.45e-01	0	58	104	2970615808	66	12452
2026-01-05 07:19:39.62	258.51	4.11	-52.5	-62.7	3.8	8.46e-01	0	58	104	2970615808	66	12496
2026-01-05 07:19:40.47	258.47	4.05	-52.5	-62.7	3.8	8.45e-01	0	58	104	2970615808	66	12490
2026-01-05 07:19:41.60	258.41	3.98	-52.5	-62.7	3.8	8.46e-01	0	58	104	2970615808	66	12508
2026-01-05 07:19:42.44	258.37	3.93	-52.5	-62.8	3.8	8.46e-01	0	58	104	2970615808	66	12524
2026-01-05 07:19:43.57	258.31	3.85	-52.6	-62.8	3.8	8.46e-01	0	58	104	2970615808	66	12527
2026-01-05 07:19:44.42	258.27	3.80	-52.6	-62.8	3.8	8.47e-01	0	58	104	2970615808	66	12598
2026-01-05 07:19:45.55	258.21	3.73	-52.6	-62.8	3.8	8.47e-01	0	58	104	2970615808	66	12565
2026-01-05 07:19:46.40	258.17	3.67	-52.6	-62.8	3.8	8.45e-01	0	58	104	2970615808	66	12570
2026-01-05 07:19:47.54	258.11	3.60	-52.7	-62.8	3.8	8.46e-01	0	58	104	2970615808	66	12645
2026-01-05 07:19:48.39	258.07	3.54	-52.6	-62.8	3.8	8.47e-01	0	58	104	2970615808	66	12616
2026-01-05 07:19:49.52	258.01	3.47	-52.7	-62.9	3.8	8.45e-01	0	58	104	2970615808	66	12676
2026-01-05 07:19:50.37	257.97	3.42	-52.6	-62.8	3.8	8.45e-01	0	58	104	2970615808	66	12651
2026-01-05 07:19:51.50	257.91	3.35	-52.7	-62.8	3.8	8.46e-01	0	58	104	2970615808	66	12586
2026-01-05 07:19:52.35	257.87	3.29	-52.6	-62.8	3.8	8.46e-01	0	58	104	2970615808	67	11889
2026-01-05 07:19:53.48	257.82	3.22	-52.6	-62.8	3.8	8.46e-01	0	58	104	2970615808	67	11934
2026-01-05 07:19:54.33	257.77	3.17	-52.6	-62.8	3.8	8.46e-01	0	58	104	2970615808	67	11920
2026-01-05 07:19:55.46	257.72	3.10	-52.6	-62.8	3.8	8.46e-01	0	58	104	2970615808	67	11901
2026-01-05 07:19:56.32	257.68	3.04	-52.6	-62.8	3.8	8.46e-01	0	58	104	2970615808	67	11888
2026-01-05 07:19:57.45	257.62	2.97	-52.6	-62.8	3.8	8.45e-01	0	58	104	2970615808	67	11912
2026-01-05 07:19:58.29	257.58	2.92	-52.6	-62.8	3.8	8.45e-01	0	58	104	2970615808	67	11869

#Closed at: 2026-01-05 07:19:59
#Recorded file [2970 MB]: D:/Data/31026_260105_101926.dat