passes_logs/2026/01/05/R3.0SM8_Murmansk_STILSPACE/R3.0SM8_Murmansk_STILSPACE__20260105_101710_FENGYUN_3D_rec.log

#Pass ID: 20260105_101710_FENGYUN 3D
#Satellite: FENGYUN 3D
#Configuration: FENGYUN 3D
#almurnet v.1.7.20240730
#Start time: 2026-01-05 10:17:11

#Version: 2.2.20231116
#Station: R3.0SM8_Murmansk_STILSPACE
#Location: 33.092731 lon 68.902999 lat
#TLE: 1 43010U 17072A   26004.50247883 -.00000063  00000+0 -78815-5 0  9998
#TLE: 2 43010  98.9915 336.1565 0001968 126.3752 233.7605 14.19691805421760

#Time	Az	El	Level	Level2	SNR	BER	BlckErr	Temp	State	Recorded	gain1	gain2
2026-01-05 10:17:11.57	121.74	3.09	-52.3	-63.1	3.8	8.47e-01	0	46	0	0	67	12480
2026-01-05 10:17:12.56	121.71	3.15	-52.2	-63.0	3.8	8.46e-01	0	46	104	0	67	12268
2026-01-05 10:17:13.55	121.68	3.22	-52.1	-62.9	3.8	8.45e-01	0	46	104	0	67	12183
2026-01-05 10:17:14.53	121.65	3.28	-52.0	-62.8	3.8	8.46e-01	0	46	104	0	66	12711
2026-01-05 10:17:15.52	121.62	3.35	-51.8	-62.6	3.8	8.47e-01	0	46	104	0	66	12451
2026-01-05 10:17:16.51	121.59	3.41	-51.4	-61.5	3.8	8.46e-01	0	46	104	0	66	11013
2026-01-05 10:17:17.50	121.56	3.48	-51.4	-61.6	3.8	8.46e-01	0	46	104	0	66	11091
2026-01-05 10:17:18.49	121.53	3.54	-51.4	-61.6	3.8	8.45e-01	0	46	104	0	65	11694
2026-01-05 10:17:19.48	121.50	3.61	-51.5	-61.5	3.8	8.46e-01	0	46	104	0	65	11564
2026-01-05 10:17:20.47	121.47	3.67	-51.4	-61.2	3.8	8.47e-01	0	46	104	0	65	11279
2026-01-05 10:17:21.46	121.44	3.74	-51.4	-61.0	3.8	8.45e-01	0	46	104	0	65	11018
2026-01-05 10:17:22.45	121.41	3.81	-51.3	-60.7	3.8	8.46e-01	0	46	104	0	65	10654
2026-01-05 10:17:23.44	121.38	3.87	-51.3	-60.3	3.9	8.45e-01	0	47	104	0	65	10166
2026-01-05 10:17:24.42	121.35	3.94	-51.2	-59.9	3.8	8.44e-01	0	46	104	0	65	9682
2026-01-05 10:17:25.41	121.32	4.00	-51.1	-59.4	4.1	8.42e-01	0	47	0	0	65	9146
2026-01-05 10:17:26.40	121.29	4.07	-51.1	-59.1	4.1	8.39e-01	0	47	0	0	65	8816
2026-01-05 10:17:27.39	121.26	4.14	-51.0	-58.4	4.3	8.35e-01	0	47	0	0	65	8165
2026-01-05 10:17:28.38	121.22	4.21	-50.9	-58.1	4.4	8.25e-01	0	47	0	0	64	8282
2026-01-05 10:17:29.37	121.19	4.27	-50.8	-57.4	4.7	8.12e-01	0	47	0	0	64	7690
2026-01-05 10:17:30.36	121.16	4.34	-50.8	-57.1	4.9	7.97e-01	0	47	0	0	64	7425
2026-01-05 10:17:31.35	121.13	4.41	-50.6	-56.8	5.0	7.72e-01	0	47	0	0	64	7130
2026-01-05 10:17:32.33	121.10	4.47	-50.5	-56.1	5.4	7.32e-01	0	47	0	0	64	6625
2026-01-05 10:17:33.33	121.06	4.54	-50.4	-55.6	5.9	4.08e-01	0	47	0	3145728	63	6599
2026-01-05 10:17:34.31	121.03	4.61	-50.2	-55.0	6.3	3.16e-01	0	47	0	8388608	63	6182
2026-01-05 10:17:35.30	121.00	4.68	-49.9	-54.3	7.0	2.09e-01	0	47	0	13631488	62	5994
2026-01-05 10:17:36.29	120.97	4.75	-49.7	-53.9	7.3	1.48e-01	0	47	0	19922944	62	5723
2026-01-05 10:17:37.28	120.93	4.82	-49.3	-53.0	8.1	9.49e-02	0	47	0	25165824	61	5512
2026-01-05 10:17:38.28	120.90	4.89	-49.2	-52.6	8.6	5.32e-02	0	48	0	31457280	61	5235
2026-01-05 10:17:39.27	120.87	4.95	-49.0	-52.2	8.9	4.30e-02	0	48	0	36700160	61	5037
2026-01-05 10:17:40.26	120.83	5.02	-48.8	-51.8	9.4	2.30e-02	0	48	0	41943040	60	5057
2026-01-05 10:17:41.25	120.80	5.09	-48.9	-51.9	9.2	2.13e-02	0	48	0	47185920	60	5157
2026-01-05 10:17:42.25	120.76	5.16	-49.1	-52.3	8.9	3.01e-02	0	48	0	53477376	60	5402
2026-01-05 10:17:43.23	120.73	5.23	-48.7	-51.8	9.5	2.14e-02	0	48	0	58720256	60	5042
2026-01-05 10:17:44.22	120.70	5.30	-48.5	-51.3	9.9	1.19e-02	0	48	0	63963136	60	4790
2026-01-05 10:17:45.21	120.66	5.37	-48.3	-50.9	10.4	7.72e-03	0	48	0	70254592	59	4826
2026-01-05 10:17:46.20	120.63	5.44	-48.2	-50.7	10.5	5.02e-03	0	48	0	75497472	59	4759
2026-01-05 10:17:47.18	120.59	5.51	-48.2	-50.8	10.6	4.85e-03	0	48	0	80740352	59	4773
2026-01-05 10:17:48.18	120.56	5.58	-48.3	-50.8	10.5	5.93e-03	0	48	0	87031808	59	4810
2026-01-05 10:17:49.17	120.52	5.65	-48.0	-50.4	11.0	2.86e-03	0	48	0	92274688	59	4549
2026-01-05 10:17:50.16	120.49	5.72	-47.4	-49.6	11.8	1.28e-03	0	48	0	97517568	58	4394
2026-01-05 10:17:51.16	120.45	5.79	-47.1	-49.0	12.4	2.95e-04	0	48	0	102760448	57	4368
2026-01-05 10:17:52.15	120.41	5.87	-46.6	-48.4	13.0	1.21e-04	0	48	0	109051904	56	4300
2026-01-05 10:17:53.13	120.38	5.94	-46.1	-47.7	13.6	1.25e-05	0	48	0	114294784	55	4199
2026-01-05 10:17:54.12	120.34	6.01	-46.1	-47.7	13.6	8.00e-06	0	48	0	119537664	55	4208
2026-01-05 10:17:55.12	120.31	6.08	-45.6	-47.0	14.3	3.40e-06	0	49	0	125829120	54	4129
2026-01-05 10:17:56.11	120.27	6.15	-45.5	-46.9	14.4	1.10e-06	0	49	0	131072000	54	4095
2026-01-05 10:17:57.10	120.23	6.22	-45.1	-46.5	14.9	0.00e+00	0	49	0	136314880	53	4106
2026-01-05 10:17:58.09	120.20	6.30	-45.1	-46.4	14.9	0.00e+00	0	49	0	142606336	53	4076
2026-01-05 10:17:59.09	120.16	6.37	-44.9	-46.2	15.1	0.00e+00	0	49	0	147849216	52	4216
2026-01-05 10:18:00.08	120.12	6.44	-44.9	-46.2	15.1	0.00e+00	0	49	0	153092096	52	4231
2026-01-05 10:18:01.07	120.08	6.52	-45.0	-46.3	15.1	0.00e+00	0	49	0	159383552	52	4263
2026-01-05 10:18:02.07	120.05	6.59	-45.0	-46.4	15.0	0.00e+00	0	49	0	164626432	52	4305
2026-01-05 10:18:03.05	120.01	6.66	-45.4	-46.7	14.7	0.00e+00	0	49	0	169869312	52	4481
2026-01-05 10:18:04.04	119.97	6.73	-45.1	-46.4	15.0	0.00e+00	0	49	0	176160768	52	4324
2026-01-05 10:18:05.02	119.93	6.81	-44.9	-46.2	15.2	0.00e+00	0	49	0	181403648	52	4218
2026-01-05 10:18:06.01	119.89	6.88	-44.7	-46.0	15.4	0.00e+00	0	49	0	186646528	52	4101
2026-01-05 10:18:07.00	119.85	6.96	-44.6	-45.8	15.6	0.00e+00	0	49	0	191889408	52	4040
2026-01-05 10:18:07.99	119.82	7.03	-44.6	-45.8	15.6	0.00e+00	0	49	0	198180864	52	4015
2026-01-05 10:18:08.98	119.78	7.10	-44.6	-45.8	15.6	0.00e+00	0	49	0	203423744	52	4032
2026-01-05 10:18:09.97	119.74	7.18	-44.6	-45.8	15.6	0.00e+00	0	49	0	208666624	52	4025
2026-01-05 10:18:10.95	119.70	7.25	-44.8	-46.1	15.3	0.00e+00	0	50	0	214958080	52	4156
2026-01-05 10:18:11.94	119.66	7.33	-45.1	-46.4	15.0	0.00e+00	0	49	0	220200960	52	4316
2026-01-05 10:18:12.93	119.62	7.40	-44.8	-46.0	15.4	0.00e+00	0	50	0	225443840	52	4130
2026-01-05 10:18:13.92	119.58	7.48	-44.5	-45.7	15.7	0.00e+00	0	50	0	230686720	52	3997
2026-01-05 10:18:14.91	119.54	7.55	-44.5	-45.7	15.9	0.00e+00	0	49	0	236978176	51	4196
2026-01-05 10:18:15.90	119.50	7.63	-44.4	-45.5	16.0	0.00e+00	0	50	0	242221056	51	4137
2026-01-05 10:18:16.88	119.45	7.71	-44.5	-45.6	15.9	0.00e+00	0	50	0	248512512	51	4176
2026-01-05 10:18:17.87	119.41	7.78	-44.5	-45.6	15.9	0.00e+00	0	50	0	253755392	51	4173
2026-01-05 10:18:18.85	119.37	7.86	-44.6	-45.8	15.8	0.00e+00	0	50	0	258998272	51	4248
2026-01-05 10:18:19.85	119.33	7.93	-44.4	-45.6	16.0	0.00e+00	0	50	0	264241152	51	4148
2026-01-05 10:18:20.85	119.29	8.01	-44.4	-45.5	16.0	0.00e+00	0	50	0	270532608	51	4135
2026-01-05 10:18:21.84	119.25	8.09	-44.4	-45.5	16.1	0.00e+00	0	50	0	275775488	51	4135
2026-01-05 10:18:22.83	119.20	8.17	-44.5	-45.6	16.0	0.00e+00	0	50	0	281018368	51	4173
2026-01-05 10:18:23.81	119.16	8.24	-44.6	-45.7	15.9	0.00e+00	0	50	0	287309824	51	4233
2026-01-05 10:18:24.80	119.12	8.32	-44.4	-45.5	16.1	0.00e+00	0	50	0	292552704	51	4125
2026-01-05 10:18:25.79	119.08	8.40	-44.4	-45.5	16.1	0.00e+00	0	50	0	297795584	51	4110
2026-01-05 10:18:26.79	119.03	8.48	-44.3	-45.3	16.3	0.00e+00	0	50	0	304087040	51	4048
2026-01-05 10:18:27.77	118.99	8.56	-44.5	-45.6	16.0	0.00e+00	0	50	0	309329920	51	4164
2026-01-05 10:18:28.76	118.94	8.64	-44.2	-45.3	16.3	0.00e+00	0	50	0	314572800	51	4010
2026-01-05 10:18:29.74	118.90	8.71	-44.5	-45.6	16.1	0.00e+00	0	50	0	320864256	51	4154
2026-01-05 10:18:30.73	118.86	8.79	-44.6	-45.7	15.9	0.00e+00	0	50	0	326107136	51	4240
2026-01-05 10:18:31.71	118.81	8.87	-44.7	-45.8	15.8	0.00e+00	0	50	0	331350016	51	4291
2026-01-05 10:18:32.69	118.77	8.95	-44.2	-45.3	16.3	0.00e+00	0	50	0	336592896	51	4019
2026-01-05 10:18:33.69	118.72	9.03	-44.1	-45.1	16.5	0.00e+00	0	50	0	342884352	51	3946
2026-01-05 10:18:34.68	118.68	9.11	-43.9	-44.9	16.7	0.00e+00	0	51	0	348127232	50	4091
2026-01-05 10:18:35.67	118.63	9.19	-44.0	-45.1	16.5	0.00e+00	0	51	0	353370112	50	4161
2026-01-05 10:18:36.66	118.58	9.27	-44.2	-45.2	16.4	0.00e+00	0	50	0	359661568	50	4231
2026-01-05 10:18:37.65	118.54	9.35	-44.0	-45.1	16.6	0.00e+00	0	51	0	364904448	50	4146
2026-01-05 10:18:38.65	118.49	9.43	-43.9	-44.9	16.7	0.00e+00	0	51	0	370147328	50	4085
2026-01-05 10:18:39.64	118.44	9.52	-44.2	-45.2	16.4	0.00e+00	0	51	0	376438784	50	4235
2026-01-05 10:18:40.63	118.40	9.60	-44.1	-45.2	16.5	0.00e+00	0	51	0	381681664	50	4200
2026-01-05 10:18:41.61	118.35	9.68	-44.2	-45.2	16.5	0.00e+00	0	51	0	386924544	50	4226
2026-01-05 10:18:42.60	118.30	9.76	-44.1	-45.1	16.6	0.00e+00	0	51	0	392167424	50	4166
2026-01-05 10:18:43.59	118.25	9.84	-44.0	-45.0	16.7	0.00e+00	0	51	0	398458880	50	4140
2026-01-05 10:18:44.58	118.21	9.93	-44.0	-45.0	16.7	0.00e+00	0	51	0	403701760	50	4130
2026-01-05 10:18:45.57	118.16	10.01	-44.2	-45.3	16.5	0.00e+00	0	51	0	408944640	50	4259
2026-01-05 10:18:46.56	118.11	10.09	-44.2	-45.2	16.5	0.00e+00	0	51	0	415236096	50	4223
2026-01-05 10:18:47.54	118.06	10.17	-44.0	-45.0	16.8	0.00e+00	0	51	0	420478976	50	4122
2026-01-05 10:18:48.53	118.01	10.26	-43.9	-44.9	16.8	0.00e+00	0	51	0	425721856	50	4083
2026-01-05 10:18:49.53	117.96	10.34	-43.9	-44.9	16.8	0.00e+00	0	51	0	432013312	50	4066
2026-01-05 10:18:50.52	117.91	10.43	-44.0	-45.0	16.7	0.00e+00	0	51	0	437256192	50	4134
2026-01-05 10:18:51.51	117.86	10.51	-43.8	-44.9	16.9	0.00e+00	0	51	0	442499072	50	4058
2026-01-05 10:18:52.51	117.81	10.60	-44.0	-45.1	16.7	0.00e+00	0	51	0	448790528	50	4163
2026-01-05 10:18:53.49	117.76	10.68	-43.9	-44.9	16.9	0.00e+00	0	51	0	454033408	50	4055
2026-01-05 10:18:54.48	117.71	10.77	-43.8	-44.8	16.9	0.00e+00	0	51	0	459276288	50	4047
2026-01-05 10:18:55.46	117.66	10.85	-43.8	-44.8	16.9	0.00e+00	0	51	0	464519168	50	4042
2026-01-05 10:18:56.45	117.60	10.94	-43.9	-45.0	16.8	0.00e+00	0	51	0	470810624	50	4107
2026-01-05 10:18:57.44	117.55	11.02	-44.3	-45.3	16.5	0.00e+00	0	51	0	476053504	50	4282
2026-01-05 10:18:58.44	117.50	11.11	-44.2	-45.3	16.5	0.00e+00	0	51	0	481296384	50	4246
2026-01-05 10:18:59.43	117.45	11.20	-43.9	-44.9	17.0	0.00e+00	0	51	0	487587840	50	4069
2026-01-05 10:19:00.41	117.39	11.28	-43.8	-44.8	17.0	0.00e+00	0	51	0	492830720	50	4030
2026-01-05 10:19:01.40	117.34	11.37	-44.1	-45.1	16.7	0.00e+00	0	51	0	498073600	50	4177
2026-01-05 10:19:02.39	117.29	11.46	-43.5	-44.5	17.3	0.00e+00	0	51	0	504365056	50	3869
2026-01-05 10:19:03.38	117.23	11.54	-43.9	-44.9	16.8	0.00e+00	0	52	0	509607936	50	4088
2026-01-05 10:19:04.38	117.18	11.63	-43.8	-44.8	17.1	0.00e+00	0	51	0	514850816	50	4035
2026-01-05 10:19:05.37	117.12	11.72	-44.0	-45.0	16.7	0.00e+00	0	51	0	520093696	49	4355
2026-01-05 10:19:06.35	117.07	11.81	-43.5	-44.5	17.3	0.00e+00	0	51	0	526385152	50	3886
2026-01-05 10:19:07.34	117.01	11.90	-43.9	-44.9	16.9	0.00e+00	0	51	0	531628032	50	4074
2026-01-05 10:19:08.34	116.95	11.99	-43.6	-44.6	17.3	0.00e+00	0	52	0	537919488	50	3915
2026-01-05 10:19:09.32	116.90	12.08	-43.6	-44.6	17.2	0.00e+00	0	52	0	543162368	50	3926
2026-01-05 10:19:10.31	116.84	12.17	-43.6	-44.5	17.3	0.00e+00	0	52	0	548405248	49	4144
2026-01-05 10:19:11.29	116.78	12.25	-43.6	-44.5	17.2	0.00e+00	0	52	0	553648128	50	3913
2026-01-05 10:19:12.28	116.73	12.35	-44.2	-45.2	16.6	0.00e+00	0	52	0	559939584	50	4228
2026-01-05 10:19:13.28	116.67	12.44	-44.1	-45.1	16.8	0.00e+00	0	52	0	565182464	51	3954
2026-01-05 10:19:14.26	116.61	12.53	-44.0	-45.0	16.8	0.00e+00	0	52	0	570425344	51	3893
2026-01-05 10:19:15.25	116.55	12.62	-43.7	-44.7	17.1	0.00e+00	0	52	0	576716800	50	3966
2026-01-05 10:19:16.24	116.49	12.71	-43.3	-44.2	17.6	0.00e+00	0	52	0	581959680	49	3980
2026-01-05 10:19:17.23	116.43	12.80	-43.1	-44.0	17.8	0.00e+00	0	52	0	587202560	49	3881
2026-01-05 10:19:18.22	116.37	12.89	-43.4	-44.4	17.4	0.00e+00	0	52	0	592445440	49	4057
2026-01-05 10:19:19.20	116.31	12.99	-43.2	-44.1	17.6	0.00e+00	0	52	0	598736896	49	3947
2026-01-05 10:19:20.20	116.25	13.08	-43.3	-44.2	17.6	0.00e+00	0	52	0	603979776	49	3975
2026-01-05 10:19:21.18	116.19	13.17	-43.3	-44.2	17.7	0.00e+00	0	52	0	610271232	49	3961
2026-01-05 10:19:22.18	116.13	13.27	-43.3	-44.2	17.7	0.00e+00	0	52	0	615514112	49	3962
2026-01-05 10:19:23.16	116.07	13.36	-43.5	-44.5	17.3	0.00e+00	0	52	0	620756992	49	4122
2026-01-05 10:19:24.15	116.01	13.45	-43.3	-44.2	17.6	0.00e+00	0	52	0	625999872	49	3996
2026-01-05 10:19:25.14	115.95	13.55	-43.0	-43.9	17.9	0.00e+00	0	52	0	632291328	49	3846
2026-01-05 10:19:26.13	115.88	13.64	-43.0	-43.9	17.9	0.00e+00	0	52	0	637534208	48	4064
2026-01-05 10:19:27.11	115.82	13.74	-43.3	-44.2	17.6	0.00e+00	0	52	0	642777088	48	4208
2026-01-05 10:19:28.10	115.76	13.83	-42.9	-43.8	18.0	0.00e+00	0	52	0	649068544	48	4038
2026-01-05 10:19:29.09	115.69	13.93	-43.2	-44.1	17.8	0.00e+00	0	52	0	654311424	48	4164
2026-01-05 10:19:30.08	115.63	14.02	-43.3	-44.2	17.7	0.00e+00	0	52	0	659554304	48	4214
2026-01-05 10:19:31.06	115.56	14.12	-43.1	-44.0	17.9	0.00e+00	0	52	0	664797184	48	4128
2026-01-05 10:19:32.06	115.50	14.22	-43.0	-43.8	18.0	0.00e+00	0	53	0	671088640	48	4036
2026-01-05 10:19:33.05	115.43	14.31	-42.8	-43.6	18.2	0.00e+00	0	52	0	676331520	48	3956
2026-01-05 10:19:34.04	115.36	14.41	-43.0	-43.9	18.0	0.00e+00	0	52	0	681574400	48	4067
2026-01-05 10:19:35.03	115.30	14.51	-42.9	-43.7	18.1	0.00e+00	0	52	0	687865856	48	3993
2026-01-05 10:19:36.02	115.23	14.61	-42.7	-43.6	18.2	0.00e+00	0	53	0	693108736	48	3936
2026-01-05 10:19:37.00	115.16	14.71	-42.8	-43.6	18.2	0.00e+00	0	53	0	698351616	48	3944
2026-01-05 10:19:38.00	115.09	14.81	-43.1	-43.9	17.9	0.00e+00	0	53	0	704643072	48	4080
2026-01-05 10:19:38.99	115.02	14.91	-43.3	-44.2	17.7	0.00e+00	0	53	0	709885952	48	4219
2026-01-05 10:19:39.98	114.95	15.00	-43.0	-43.8	18.0	0.00e+00	0	53	0	715128832	48	4046
2026-01-05 10:19:40.97	114.88	15.10	-42.7	-43.6	18.3	0.00e+00	0	53	0	720371712	48	3915
2026-01-05 10:19:41.97	114.81	15.21	-42.6	-43.4	18.5	0.00e+00	0	53	0	726663168	48	3835
2026-01-05 10:19:42.95	114.74	15.31	-42.7	-43.5	18.3	0.00e+00	0	53	0	731906048	48	3891
2026-01-05 10:19:43.94	114.67	15.41	-42.6	-43.4	18.5	0.00e+00	0	53	0	738197504	48	3853
2026-01-05 10:19:44.92	114.60	15.51	-42.6	-43.5	18.4	0.00e+00	0	53	0	743440384	48	3874
2026-01-05 10:19:45.92	114.53	15.61	-42.5	-43.3	18.6	0.00e+00	0	53	0	748683264	48	3808
2026-01-05 10:19:46.91	114.45	15.71	-42.4	-43.2	18.5	0.00e+00	0	53	0	753926144	47	3967
2026-01-05 10:19:47.90	114.38	15.82	-42.7	-43.6	18.2	0.00e+00	0	53	0	760217600	47	4152
2026-01-05 10:19:48.89	114.31	15.92	-42.5	-43.3	18.5	0.00e+00	0	53	0	765460480	47	4017
2026-01-05 10:19:49.88	114.23	16.02	-42.3	-43.1	18.5	0.00e+00	0	53	0	770703360	47	3948
2026-01-05 10:19:50.88	114.16	16.13	-42.5	-43.3	18.5	0.00e+00	0	53	0	776994816	47	4013
2026-01-05 10:19:51.87	114.08	16.23	-42.4	-43.3	18.4	0.00e+00	0	53	0	782237696	47	4009
2026-01-05 10:19:52.87	114.00	16.34	-42.3	-43.2	18.5	0.00e+00	0	53	0	787480576	47	3960
2026-01-05 10:19:53.85	113.93	16.44	-42.3	-43.1	18.6	0.00e+00	0	53	0	793772032	47	3956
2026-01-05 10:19:54.85	113.85	16.55	-42.4	-43.2	18.5	0.00e+00	0	53	0	799014912	47	3978
2026-01-05 10:19:55.84	113.77	16.65	-42.3	-43.2	18.5	0.00e+00	0	53	0	804257792	47	3962
2026-01-05 10:19:56.84	113.69	16.76	-42.4	-43.3	18.5	0.00e+00	0	53	0	810549248	47	4012
2026-01-05 10:19:57.83	113.61	16.87	-42.6	-43.4	18.3	0.00e+00	0	53	0	815792128	47	4074
2026-01-05 10:19:58.82	113.54	16.97	-42.4	-43.2	18.5	0.00e+00	0	53	0	821035008	47	3984
2026-01-05 10:19:59.81	113.46	17.08	-42.1	-42.9	18.7	0.00e+00	0	53	0	827326464	47	3863
2026-01-05 10:20:00.80	113.37	17.19	-42.2	-43.0	18.7	0.00e+00	0	53	0	832569344	47	3894
2026-01-05 10:20:01.79	113.29	17.30	-42.3	-43.1	18.6	0.00e+00	0	53	0	837812224	47	3958
2026-01-05 10:20:02.77	113.21	17.41	-42.2	-43.0	18.8	0.00e+00	0	53	0	843055104	47	3873
2026-01-05 10:20:03.76	113.13	17.51	-42.0	-42.8	18.9	0.00e+00	0	53	0	849346560	47	3790
2026-01-05 10:20:04.75	113.05	17.62	-42.0	-42.7	19.0	0.00e+00	0	53	0	854589440	46	4000
2026-01-05 10:20:05.74	112.96	17.73	-42.0	-42.8	18.9	0.00e+00	0	53	0	860880896	46	4010
2026-01-05 10:20:06.73	112.88	17.84	-42.0	-42.8	18.9	0.00e+00	0	53	0	866123776	46	4040
2026-01-05 10:20:07.72	112.79	17.96	-42.3	-43.1	18.6	0.00e+00	0	53	0	871366656	46	4164
2026-01-05 10:20:08.70	112.71	18.07	-42.2	-43.0	18.7	0.00e+00	0	53	0	876609536	46	4136
2026-01-05 10:20:09.70	112.62	18.18	-42.0	-42.8	19.0	0.00e+00	0	53	0	882900992	46	4022
2026-01-05 10:20:10.69	112.53	18.29	-41.7	-42.5	19.2	0.00e+00	0	53	0	888143872	46	3869
2026-01-05 10:20:11.67	112.45	18.40	-41.8	-42.6	19.2	0.00e+00	0	53	0	893386752	46	3916
2026-01-05 10:20:12.66	112.36	18.51	-42.0	-42.8	18.9	0.00e+00	0	53	0	899678208	46	4024
2026-01-05 10:20:13.65	112.27	18.63	-42.0	-42.8	18.9	0.00e+00	0	53	0	904921088	46	4032
2026-01-05 10:20:14.64	112.18	18.74	-41.7	-42.5	19.2	0.00e+00	0	53	0	910163968	46	3896
2026-01-05 10:20:15.64	112.09	18.86	-41.9	-42.7	19.0	0.00e+00	0	54	0	916455424	46	3965
2026-01-05 10:20:16.63	112.00	18.97	-42.1	-42.8	18.9	0.00e+00	0	54	0	921698304	46	4051
2026-01-05 10:20:17.62	111.91	19.09	-41.9	-42.6	19.1	0.00e+00	0	53	0	926941184	46	3955
2026-01-05 10:20:18.61	111.81	19.20	-41.8	-42.6	19.2	0.00e+00	0	53	0	932184064	46	3932
2026-01-05 10:20:19.59	111.72	19.32	-41.6	-42.4	19.3	0.00e+00	0	53	0	938475520	46	3843
2026-01-05 10:20:20.58	111.63	19.44	-41.5	-42.3	19.4	0.00e+00	0	54	0	943718400	46	3800
2026-01-05 10:20:21.57	111.53	19.55	-41.6	-42.4	19.4	0.00e+00	0	54	0	950009856	46	3836
2026-01-05 10:20:22.57	111.44	19.67	-41.5	-42.3	19.5	0.00e+00	0	54	0	955252736	45	4017
2026-01-05 10:20:23.57	111.34	19.79	-41.6	-42.4	19.3	0.00e+00	0	54	0	960495616	45	4067
2026-01-05 10:20:24.56	111.24	19.91	-41.6	-42.4	19.3	0.00e+00	0	54	0	965738496	45	4069
2026-01-05 10:20:25.56	111.14	20.03	-41.4	-42.1	19.7	0.00e+00	0	54	0	972029952	45	3926
2026-01-05 10:20:26.55	111.04	20.15	-41.2	-41.9	19.8	0.00e+00	0	54	0	977272832	45	3828
2026-01-05 10:20:27.54	110.94	20.27	-41.3	-42.0	19.7	0.00e+00	0	54	0	982515712	45	3877
2026-01-05 10:20:28.52	110.85	20.39	-41.3	-42.0	19.7	0.00e+00	0	54	0	988807168	45	3880
2026-01-05 10:20:29.50	110.75	20.51	-41.4	-42.0	19.8	0.00e+00	0	54	0	994050048	45	3910
2026-01-05 10:20:30.48	110.64	20.63	-41.3	-42.0	19.9	0.00e+00	0	54	0	999292928	45	3892
2026-01-05 10:20:31.47	110.54	20.75	-41.3	-42.0	19.9	0.00e+00	0	54	0	1005584384	45	3871
2026-01-05 10:20:32.45	110.44	20.87	-41.5	-42.2	19.7	0.00e+00	0	54	0	1010827264	45	3961
2026-01-05 10:20:33.44	110.34	20.99	-41.4	-42.1	19.8	0.00e+00	0	54	0	1016070144	45	3928
2026-01-05 10:20:34.43	110.23	21.12	-41.2	-41.9	19.9	0.00e+00	0	54	0	1021313024	45	3832
2026-01-05 10:20:35.43	110.12	21.24	-41.3	-41.9	19.9	0.00e+00	0	54	0	1027604480	45	3862
2026-01-05 10:20:36.42	110.02	21.37	-41.2	-41.9	20.0	0.00e+00	0	54	0	1032847360	45	3835
2026-01-05 10:20:37.41	109.91	21.49	-41.2	-41.9	20.0	0.00e+00	0	54	0	1038090240	45	3836
2026-01-05 10:20:38.40	109.80	21.62	-41.3	-41.9	20.0	0.00e+00	0	54	0	1044381696	45	3856
2026-01-05 10:20:39.38	109.69	21.74	-41.4	-42.1	19.8	0.00e+00	0	54	0	1049624576	45	3926
2026-01-05 10:20:40.37	109.58	21.87	-41.7	-42.4	19.5	0.00e+00	0	54	0	1054867456	45	4069
2026-01-05 10:20:41.36	109.47	21.99	-41.5	-42.2	19.7	0.00e+00	0	54	0	1060110336	45	3970
2026-01-05 10:20:42.35	109.36	22.12	-41.9	-42.6	19.3	0.00e+00	0	54	0	1066401792	45	4167
2026-01-05 10:20:43.34	109.24	22.25	-42.0	-42.7	19.1	0.00e+00	0	54	0	1071644672	46	3974
2026-01-05 10:20:44.33	109.13	22.38	-42.2	-43.0	19.0	0.00e+00	0	54	0	1077936128	46	4102
2026-01-05 10:20:45.31	109.01	22.51	-42.1	-42.8	19.2	0.00e+00	0	54	0	1083179008	46	4023
2026-01-05 10:20:46.31	108.90	22.64	-41.9	-42.6	19.3	0.00e+00	0	54	0	1088421888	46	3945
2026-01-05 10:20:47.29	108.78	22.77	-42.0	-42.7	19.3	0.00e+00	0	54	0	1093664768	46	3963
2026-01-05 10:20:48.28	108.66	22.90	-42.1	-42.8	19.2	0.00e+00	0	54	0	1099956224	46	4015
2026-01-05 10:20:49.27	108.54	23.03	-42.2	-42.9	19.1	0.00e+00	0	54	0	1105199104	46	4072
2026-01-05 10:20:50.25	108.42	23.16	-42.2	-42.9	19.0	0.00e+00	0	54	0	1110441984	46	4098
2026-01-05 10:20:51.24	108.30	23.29	-42.1	-42.8	19.1	0.00e+00	0	54	0	1116733440	46	4016
2026-01-05 10:20:52.23	108.18	23.42	-42.3	-43.0	18.9	0.00e+00	0	54	0	1121976320	46	4138
2026-01-05 10:20:53.22	108.06	23.56	-42.5	-43.3	18.7	0.00e+00	0	54	0	1127219200	47	4031
2026-01-05 10:20:54.21	107.93	23.69	-42.2	-42.9	19.0	0.00e+00	0	54	0	1132462080	47	3848
2026-01-05 10:20:55.20	107.81	23.82	-42.0	-42.7	19.2	0.00e+00	0	54	0	1138753536	46	3960
2026-01-05 10:20:56.18	107.68	23.96	-41.5	-42.2	19.7	0.00e+00	0	54	0	1143996416	46	3764
2026-01-05 10:20:57.17	107.55	24.09	-42.0	-42.7	19.3	0.00e+00	0	54	0	1149239296	46	3965
2026-01-05 10:20:58.15	107.43	24.23	-41.8	-42.5	19.5	0.00e+00	0	54	0	1155530752	46	3874
2026-01-05 10:20:59.15	107.29	24.37	-41.7	-42.4	19.6	0.00e+00	0	54	0	1160773632	46	3854
2026-01-05 10:21:00.14	107.16	24.50	-41.9	-42.6	19.4	0.00e+00	0	54	0	1166016512	46	3916
2026-01-05 10:21:01.13	107.03	24.64	-42.0	-42.7	19.2	0.00e+00	0	54	0	1172307968	46	3997
2026-01-05 10:21:02.12	106.90	24.78	-41.8	-42.5	19.5	0.00e+00	0	54	0	1177550848	46	3887
2026-01-05 10:21:03.10	106.76	24.92	-41.6	-42.3	19.7	0.00e+00	0	54	0	1182793728	46	3783
2026-01-05 10:21:04.08	106.63	25.05	-41.5	-42.2	19.8	0.00e+00	0	54	0	1189085184	46	3739
2026-01-05 10:21:05.07	106.49	25.19	-41.5	-42.1	19.8	0.00e+00	0	54	0	1194328064	45	3937
2026-01-05 10:21:06.06	106.35	25.33	-41.6	-42.2	19.7	0.00e+00	0	54	0	1199570944	45	3994
2026-01-05 10:21:07.06	106.21	25.48	-41.4	-42.1	19.8	0.00e+00	0	54	0	1204813824	45	3916
2026-01-05 10:21:08.05	106.07	25.62	-41.1	-41.7	20.2	0.00e+00	0	54	0	1211105280	45	3767
2026-01-05 10:21:09.04	105.93	25.76	-40.9	-41.6	20.4	0.00e+00	0	55	0	1216348160	45	3697
2026-01-05 10:21:10.03	105.78	25.90	-40.8	-41.4	20.5	0.00e+00	0	55	0	1221591040	44	3839
2026-01-05 10:21:11.02	105.64	26.04	-40.8	-41.5	20.4	0.00e+00	0	54	0	1227882496	44	3872
2026-01-05 10:21:12.01	105.49	26.19	-41.0	-41.6	20.3	0.00e+00	0	54	0	1233125376	44	3935
2026-01-05 10:21:13.00	105.34	26.33	-41.2	-41.9	20.0	0.00e+00	0	55	0	1238368256	44	4061
2026-01-05 10:21:13.98	105.20	26.48	-41.0	-41.6	20.2	0.00e+00	0	55	0	1244659712	44	3953
2026-01-05 10:21:14.97	105.05	26.62	-40.8	-41.4	20.5	0.00e+00	0	54	0	1249902592	44	3853
2026-01-05 10:21:15.96	104.89	26.77	-40.7	-41.4	20.5	0.00e+00	0	55	0	1255145472	44	3833
2026-01-05 10:21:16.96	104.74	26.92	-40.8	-41.5	20.4	0.00e+00	0	55	0	1260388352	44	3884
2026-01-05 10:21:17.95	104.58	27.06	-41.1	-41.8	20.2	0.00e+00	0	55	0	1266679808	44	4009
2026-01-05 10:21:18.94	104.43	27.21	-41.0	-41.7	20.2	0.00e+00	0	54	0	1271922688	44	3974
2026-01-05 10:21:19.94	104.27	27.36	-41.2	-41.9	20.1	0.00e+00	0	55	0	1278214144	44	4075
2026-01-05 10:21:20.93	104.11	27.51	-41.4	-42.1	19.9	0.00e+00	0	55	0	1283457024	44	4165
2026-01-05 10:21:21.92	103.95	27.66	-41.2	-41.9	20.1	0.00e+00	0	55	0	1288699904	44	4069
2026-01-05 10:21:22.91	103.79	27.81	-40.9	-41.6	20.4	0.00e+00	0	55	0	1293942784	44	3922
2026-01-05 10:21:23.89	103.62	27.96	-40.7	-41.3	20.6	0.00e+00	0	55	0	1300234240	44	3794
2026-01-05 10:21:24.88	103.46	28.11	-40.5	-41.1	20.8	0.00e+00	0	55	0	1305477120	44	3731
2026-01-05 10:21:25.87	103.29	28.26	-40.5	-41.1	20.9	0.00e+00	0	55	0	1310720000	44	3700
2026-01-05 10:21:26.86	103.12	28.41	-40.9	-41.5	20.4	0.00e+00	0	55	0	1317011456	44	3894
2026-01-05 10:21:27.85	102.95	28.56	-40.6	-41.2	20.7	0.00e+00	0	55	0	1322254336	44	3767
2026-01-05 10:21:28.83	102.78	28.71	-40.1	-40.7	21.1	0.00e+00	0	55	0	1327497216	43	3769
2026-01-05 10:21:29.82	102.61	28.87	-40.0	-40.6	21.2	0.00e+00	0	55	0	1332740096	43	3696
2026-01-05 10:21:30.81	102.43	29.02	-39.9	-40.5	21.3	0.00e+00	0	55	0	1339031552	42	3883
2026-01-05 10:21:31.81	102.25	29.18	-39.9	-40.4	21.3	0.00e+00	0	55	0	1344274432	42	3859
2026-01-05 10:21:32.80	102.08	29.33	-40.0	-40.6	21.2	0.00e+00	0	55	0	1349517312	42	3925
2026-01-05 10:21:33.79	101.90	29.49	-40.1	-40.7	21.1	0.00e+00	0	55	0	1355808768	42	3968
2026-01-05 10:21:34.78	101.71	29.65	-40.2	-40.8	21.0	0.00e+00	0	55	0	1361051648	42	4023
2026-01-05 10:21:35.78	101.53	29.80	-40.2	-40.8	21.0	0.00e+00	0	55	0	1367343104	42	4016
2026-01-05 10:21:36.77	101.34	29.96	-40.3	-40.9	20.9	0.00e+00	0	55	0	1372585984	42	4068
2026-01-05 10:21:37.76	101.15	30.12	-40.2	-40.8	21.0	0.00e+00	0	55	0	1377828864	42	4034
2026-01-05 10:21:38.75	100.96	30.28	-40.2	-40.7	21.1	0.00e+00	0	55	0	1383071744	42	3999
2026-01-05 10:21:39.75	100.77	30.44	-40.3	-40.9	20.9	0.00e+00	0	55	0	1389363200	42	4072
2026-01-05 10:21:40.74	100.58	30.60	-40.3	-40.8	21.0	0.00e+00	0	55	0	1394606080	42	4049
2026-01-05 10:21:41.73	100.38	30.76	-40.1	-40.6	21.2	0.00e+00	0	55	0	1400897536	42	3953
2026-01-05 10:21:42.72	100.18	30.92	-40.0	-40.5	21.3	0.00e+00	0	55	0	1406140416	42	3898
2026-01-05 10:21:43.72	99.98	31.08	-40.0	-40.5	21.3	0.00e+00	0	55	0	1411383296	42	3904
2026-01-05 10:21:44.71	99.78	31.24	-40.3	-40.9	20.9	0.00e+00	0	55	0	1416626176	42	4065
2026-01-05 10:21:45.69	99.58	31.40	-40.3	-40.8	21.0	0.00e+00	0	55	0	1422917632	42	4048
2026-01-05 10:21:46.68	99.37	31.57	-40.4	-41.0	20.8	0.00e+00	0	55	0	1428160512	42	4123
2026-01-05 10:21:47.67	99.17	31.73	-40.2	-40.8	21.0	0.00e+00	0	55	0	1433403392	42	4019
2026-01-05 10:21:48.65	98.96	31.89	-40.0	-40.6	21.2	0.00e+00	0	55	0	1439694848	42	3930
2026-01-05 10:21:49.64	98.75	32.05	-40.0	-40.6	21.2	0.00e+00	0	55	0	1444937728	42	3947
2026-01-05 10:21:50.63	98.53	32.22	-40.2	-40.8	21.0	0.00e+00	0	55	0	1450180608	42	4017
2026-01-05 10:21:51.63	98.31	32.39	-40.3	-40.9	20.9	0.00e+00	0	55	0	1456472064	42	4089
2026-01-05 10:21:52.62	98.10	32.55	-40.5	-41.1	20.7	0.00e+00	0	55	0	1461714944	42	4167
2026-01-05 10:21:53.61	97.87	32.72	-40.2	-40.8	21.0	0.00e+00	0	55	0	1466957824	42	4043
2026-01-05 10:21:54.60	97.65	32.88	-39.8	-40.4	21.4	0.00e+00	0	55	0	1472200704	42	3841
2026-01-05 10:21:55.59	97.43	33.05	-39.7	-40.3	21.5	0.00e+00	0	55	0	1478492160	42	3796
2026-01-05 10:21:56.59	97.20	33.22	-39.8	-40.3	21.5	0.00e+00	0	55	0	1483735040	42	3798
2026-01-05 10:21:57.58	96.97	33.38	-39.9	-40.4	21.4	0.00e+00	0	55	0	1490026496	42	3864
2026-01-05 10:21:58.57	96.73	33.55	-39.9	-40.5	21.3	0.00e+00	0	55	0	1495269376	42	3878
2026-01-05 10:21:59.55	96.50	33.72	-40.0	-40.5	21.3	0.00e+00	0	55	0	1500512256	42	3900
2026-01-05 10:22:00.54	96.26	33.89	-40.0	-40.6	21.3	0.00e+00	0	55	0	1505755136	42	3915
2026-01-05 10:22:01.53	96.02	34.05	-40.0	-40.6	21.2	0.00e+00	0	55	0	1512046592	42	3935
2026-01-05 10:22:02.52	95.78	34.22	-40.0	-40.6	21.3	0.00e+00	0	55	0	1517289472	42	3915
2026-01-05 10:22:03.50	95.54	34.39	-39.8	-40.3	21.5	0.00e+00	0	55	0	1522532352	42	3814
2026-01-05 10:22:04.50	95.29	34.56	-39.6	-40.2	21.6	0.00e+00	0	55	0	1528823808	42	3743
2026-01-05 10:22:05.48	95.04	34.73	-39.6	-40.2	21.6	0.00e+00	0	55	0	1534066688	42	3741
2026-01-05 10:22:06.47	94.79	34.90	-39.6	-40.2	21.7	0.00e+00	0	55	0	1539309568	42	3742
2026-01-05 10:22:07.46	94.53	35.07	-39.6	-40.1	21.6	0.00e+00	0	55	0	1544552448	42	3724
2026-01-05 10:22:08.45	94.27	35.24	-39.7	-40.3	21.6	0.00e+00	0	55	0	1550843904	42	3791
2026-01-05 10:22:09.44	94.01	35.41	-39.8	-40.3	21.5	0.00e+00	0	55	0	1556086784	42	3814
2026-01-05 10:22:10.43	93.75	35.58	-39.8	-40.3	21.5	0.00e+00	0	55	0	1561329664	42	3819
2026-01-05 10:22:11.42	93.48	35.76	-39.6	-40.2	21.6	0.00e+00	0	55	0	1567621120	42	3755
2026-01-05 10:22:12.41	93.21	35.93	-39.7	-40.2	21.6	0.00e+00	0	55	0	1572864000	42	3765
2026-01-05 10:22:13.40	92.94	36.10	-39.7	-40.3	21.6	0.00e+00	0	55	0	1578106880	42	3782
2026-01-05 10:22:14.39	92.66	36.27	-39.9	-40.5	21.4	0.00e+00	0	55	0	1584398336	42	3882
2026-01-05 10:22:15.38	92.39	36.44	-40.0	-40.6	21.3	0.00e+00	0	55	0	1589641216	42	3922
2026-01-05 10:22:16.37	92.10	36.62	-39.8	-40.4	21.4	0.00e+00	0	55	0	1594884096	42	3838
2026-01-05 10:22:17.36	91.82	36.79	-39.9	-40.4	21.4	0.00e+00	0	55	0	1600126976	42	3850
2026-01-05 10:22:18.35	91.53	36.96	-40.1	-40.6	21.2	0.00e+00	0	56	0	1606418432	42	3948
2026-01-05 10:22:19.34	91.24	37.13	-40.4	-40.9	20.9	0.00e+00	0	55	0	1611661312	42	4096
2026-01-05 10:22:20.33	90.95	37.31	-40.4	-41.0	20.8	0.00e+00	0	56	0	1617952768	42	4135
2026-01-05 10:22:21.32	90.65	37.48	-40.4	-40.9	20.9	0.00e+00	0	55	0	1623195648	42	4087
2026-01-05 10:22:22.31	90.35	37.65	-40.4	-41.0	20.9	0.00e+00	0	55	0	1628438528	42	4107
2026-01-05 10:22:23.29	90.05	37.82	-40.4	-41.0	20.9	0.00e+00	0	56	0	1633681408	42	4113
2026-01-05 10:22:24.28	89.75	37.99	-40.3	-40.8	21.0	0.00e+00	0	56	0	1639972864	42	4040
2026-01-05 10:22:25.28	89.43	38.17	-40.3	-40.9	21.0	0.00e+00	0	56	0	1645215744	42	4063
2026-01-05 10:22:26.27	89.12	38.34	-40.4	-40.9	20.9	0.00e+00	0	56	0	1650458624	42	4095
2026-01-05 10:22:27.26	88.81	38.51	-40.4	-41.0	20.8	0.00e+00	0	56	0	1656750080	42	4126
2026-01-05 10:22:28.25	88.49	38.68	-40.8	-41.4	20.5	0.00e+00	0	55	0	1661992960	43	4072
2026-01-05 10:22:29.24	88.16	38.86	-40.6	-41.2	20.7	0.00e+00	0	56	0	1667235840	43	3976
2026-01-05 10:22:30.22	87.84	39.03	-40.3	-40.8	21.0	0.00e+00	0	56	0	1673527296	43	3819
2026-01-05 10:22:31.21	87.51	39.20	-40.0	-40.6	21.3	0.00e+00	0	56	0	1678770176	43	3704
2026-01-05 10:22:32.20	87.18	39.37	-40.0	-40.5	21.3	0.00e+00	0	56	0	1684013056	43	3682
2026-01-05 10:22:33.19	86.84	39.54	-39.9	-40.5	21.4	0.00e+00	0	56	0	1690304512	43	3666
2026-01-05 10:22:34.18	86.50	39.71	-39.8	-40.4	21.5	0.00e+00	0	56	0	1695547392	42	3846
2026-01-05 10:22:35.16	86.16	39.88	-39.8	-40.3	21.5	0.00e+00	0	56	0	1700790272	42	3809
2026-01-05 10:22:36.16	85.81	40.05	-39.8	-40.3	21.5	0.00e+00	0	56	0	1706033152	42	3799
2026-01-05 10:22:37.15	85.46	40.22	-39.6	-40.1	21.7	0.00e+00	0	56	0	1712324608	42	3734
2026-01-05 10:22:38.14	85.10	40.39	-39.6	-40.2	21.7	0.00e+00	0	56	0	1717567488	42	3745
2026-01-05 10:22:39.13	84.74	40.56	-39.8	-40.3	21.5	0.00e+00	0	55	0	1722810368	42	3806
2026-01-05 10:22:40.12	84.38	40.73	-40.1	-40.7	21.2	0.00e+00	0	56	0	1729101824	42	3974
2026-01-05 10:22:41.12	84.01	40.90	-40.2	-40.8	21.1	0.00e+00	0	56	0	1734344704	42	4012
2026-01-05 10:22:42.10	83.64	41.06	-40.1	-40.7	21.1	0.00e+00	0	56	0	1739587584	42	3988
2026-01-05 10:22:43.09	83.27	41.23	-40.1	-40.7	21.2	0.00e+00	0	56	0	1745879040	42	3983
2026-01-05 10:22:44.08	82.89	41.39	-40.2	-40.8	21.1	0.00e+00	0	56	0	1751121920	42	4006
2026-01-05 10:22:45.07	82.51	41.56	-40.2	-40.8	21.1	0.00e+00	0	56	0	1756364800	42	4034
2026-01-05 10:22:46.05	82.13	41.72	-40.5	-41.1	20.8	0.00e+00	0	56	0	1761607680	42	4174
2026-01-05 10:22:47.05	81.73	41.89	-40.4	-41.0	20.9	0.00e+00	0	56	0	1767899136	42	4116
2026-01-05 10:22:48.04	81.34	42.05	-40.6	-41.2	20.7	0.00e+00	0	55	0	1773142016	43	3970
2026-01-05 10:22:49.03	80.94	42.21	-40.9	-41.5	20.4	0.00e+00	0	56	0	1779433472	43	4113
2026-01-05 10:22:50.02	80.54	42.37	-40.6	-41.2	20.7	0.00e+00	0	56	0	1784676352	43	3964
2026-01-05 10:22:51.01	80.13	42.53	-40.5	-41.1	20.8	0.00e+00	0	56	0	1789919232	43	3949
2026-01-05 10:22:52.00	79.72	42.69	-40.7	-41.3	20.6	0.00e+00	0	56	0	1795162112	43	4027
2026-01-05 10:22:53.00	79.30	42.85	-40.6	-41.2	20.7	0.00e+00	0	56	0	1801453568	43	3987
2026-01-05 10:22:54.00	78.88	43.01	-41.0	-41.6	20.3	0.00e+00	0	56	0	1806696448	43	4191
2026-01-05 10:22:54.98	78.46	43.17	-40.7	-41.4	20.6	0.00e+00	0	56	0	1811939328	43	4055
2026-01-05 10:22:55.98	78.03	43.32	-40.4	-40.9	20.9	0.00e+00	0	56	0	1818230784	43	3867
2026-01-05 10:22:56.97	77.60	43.48	-40.0	-40.6	21.3	0.00e+00	0	56	0	1823473664	43	3710
2026-01-05 10:22:57.96	77.17	43.63	-39.9	-40.4	21.5	0.00e+00	0	56	0	1828716544	42	3858
2026-01-05 10:22:58.95	76.73	43.78	-39.7	-40.3	21.5	0.00e+00	0	56	0	1835008000	42	3800
2026-01-05 10:22:59.94	76.28	43.93	-39.6	-40.2	21.7	0.00e+00	0	56	0	1840250880	42	3750
2026-01-05 10:23:00.94	75.83	44.08	-39.4	-39.9	21.9	0.00e+00	0	56	0	1845493760	42	3628
2026-01-05 10:23:01.93	75.38	44.23	-39.5	-40.1	21.8	0.00e+00	0	56	0	1851785216	42	3697
2026-01-05 10:23:02.93	74.92	44.37	-39.8	-40.3	21.5	0.00e+00	0	56	0	1857028096	42	3813
2026-01-05 10:23:03.92	74.46	44.52	-39.6	-40.1	21.7	0.00e+00	0	56	0	1862270976	42	3723
2026-01-05 10:23:04.90	74.00	44.66	-39.5	-40.0	21.8	0.00e+00	0	56	0	1868562432	42	3686
2026-01-05 10:23:05.89	73.53	44.80	-39.6	-40.1	21.7	0.00e+00	0	56	0	1873805312	42	3722
2026-01-05 10:23:06.88	73.06	44.94	-39.7	-40.2	21.6	0.00e+00	0	56	0	1879048192	42	3771
2026-01-05 10:23:07.88	72.58	45.08	-39.9	-40.5	21.4	0.00e+00	0	56	0	1885339648	42	3885
2026-01-05 10:23:08.86	72.10	45.21	-40.1	-40.7	21.2	0.00e+00	0	56	0	1890582528	42	3991
2026-01-05 10:23:09.85	71.62	45.35	-40.3	-40.9	21.0	0.00e+00	0	56	0	1895825408	42	4058
2026-01-05 10:23:10.84	71.13	45.48	-40.1	-40.6	21.2	0.00e+00	0	56	0	1901068288	42	3958
2026-01-05 10:23:11.83	70.63	45.61	-39.8	-40.4	21.5	0.00e+00	0	56	0	1907359744	42	3840
2026-01-05 10:23:12.83	70.13	45.74	-39.9	-40.4	21.5	0.00e+00	0	56	0	1912602624	42	3850
2026-01-05 10:23:13.82	69.63	45.87	-40.3	-40.9	21.0	0.00e+00	0	56	0	1917845504	42	4082
2026-01-05 10:23:14.80	69.13	45.99	-40.6	-41.2	20.7	0.00e+00	0	56	0	1924136960	43	3967
2026-01-05 10:23:15.79	68.62	46.11	-40.5	-41.1	20.8	0.00e+00	0	56	0	1929379840	43	3927
2026-01-05 10:23:16.79	68.10	46.23	-40.7	-41.3	20.6	0.00e+00	0	56	0	1934622720	43	4036
2026-01-05 10:23:17.77	67.59	46.35	-40.6	-41.2	20.7	0.00e+00	0	56	0	1940914176	43	3969
2026-01-05 10:23:18.77	67.06	46.46	-40.6	-41.2	20.7	0.00e+00	0	56	0	1946157056	43	3991
2026-01-05 10:23:19.75	66.54	46.58	-40.6	-41.2	20.7	0.00e+00	0	56	0	1951399936	43	3989
2026-01-05 10:23:20.74	66.02	46.69	-40.6	-41.2	20.7	0.00e+00	0	56	0	1957691392	43	3982
2026-01-05 10:23:21.73	65.48	46.80	-40.7	-41.3	20.6	0.00e+00	0	56	0	1962934272	43	4045
2026-01-05 10:23:22.71	64.95	46.90	-41.3	-41.9	20.2	0.00e+00	0	56	0	1968177152	44	4059
2026-01-05 10:23:23.71	64.41	47.00	-41.2	-41.8	20.2	0.00e+00	0	56	0	1973420032	44	4050
2026-01-05 10:23:24.70	63.86	47.11	-41.1	-41.8	20.3	0.00e+00	0	56	0	1979711488	44	4007
2026-01-05 10:23:25.69	63.32	47.20	-41.5	-42.1	19.9	0.00e+00	0	56	0	1984954368	44	4179
2026-01-05 10:23:26.68	62.77	47.30	-41.3	-42.0	20.1	0.00e+00	0	56	0	1991245824	44	4107
2026-01-05 10:23:27.67	62.21	47.39	-41.5	-42.2	19.9	0.00e+00	0	56	0	1996488704	44	4195
2026-01-05 10:23:28.65	61.66	47.48	-41.2	-41.9	20.2	0.00e+00	0	56	0	2001731584	45	3827
2026-01-05 10:23:29.63	61.11	47.57	-40.9	-41.5	20.6	0.00e+00	0	56	0	2006974464	44	3882
2026-01-05 10:23:30.62	60.55	47.65	-40.7	-41.3	20.7	0.00e+00	0	56	0	2012217344	44	3799
2026-01-05 10:23:31.60	59.99	47.73	-40.8	-41.4	20.7	0.00e+00	0	56	0	2018508800	44	3844
2026-01-05 10:23:32.59	59.42	47.81	-41.0	-41.6	20.5	0.00e+00	0	56	0	2023751680	44	3936
2026-01-05 10:23:33.59	58.84	47.89	-41.1	-41.7	20.4	0.00e+00	0	56	0	2030043136	44	3969
2026-01-05 10:23:34.58	58.27	47.96	-40.9	-41.5	20.6	0.00e+00	0	56	0	2035286016	44	3890
2026-01-05 10:23:35.57	57.69	48.03	-40.8	-41.4	20.6	0.00e+00	0	56	0	2040528896	44	3849
2026-01-05 10:23:36.56	57.11	48.10	-40.8	-41.4	20.7	0.00e+00	0	56	0	2045771776	44	3856
2026-01-05 10:23:37.55	56.53	48.16	-40.7	-41.3	20.8	0.00e+00	0	56	0	2052063232	44	3794
2026-01-05 10:23:38.54	55.94	48.22	-40.9	-41.5	20.6	0.00e+00	0	56	0	2057306112	44	3887
2026-01-05 10:23:39.53	55.36	48.28	-41.0	-41.6	20.4	0.00e+00	0	56	0	2062548992	44	3950
2026-01-05 10:23:40.52	54.77	48.33	-41.0	-41.6	20.4	0.00e+00	0	56	0	2068840448	44	3935
2026-01-05 10:23:41.51	54.18	48.38	-41.1	-41.7	20.3	0.00e+00	0	56	0	2074083328	44	4002
2026-01-05 10:23:42.50	53.59	48.43	-41.3	-41.9	20.2	0.00e+00	0	56	0	2079326208	44	4068
2026-01-05 10:23:43.49	52.99	48.48	-41.2	-41.9	20.2	0.00e+00	0	56	0	2085617664	44	4076
2026-01-05 10:23:44.48	52.39	48.52	-41.0	-41.6	20.4	0.00e+00	0	56	0	2090860544	44	3952
2026-01-05 10:23:45.47	51.80	48.55	-41.1	-41.7	20.3	0.00e+00	0	56	0	2096103424	44	3976
2026-01-05 10:23:46.47	51.19	48.59	-41.2	-41.8	20.2	0.00e+00	0	56	0	2101346304	44	4038
2026-01-05 10:23:47.45	50.60	48.62	-41.4	-42.0	20.1	0.00e+00	0	56	0	2107637760	44	4137
2026-01-05 10:23:48.45	49.99	48.65	-41.4	-42.0	20.1	0.00e+00	0	56	0	2112880640	44	4139
2026-01-05 10:23:49.44	49.39	48.67	-41.1	-41.8	20.3	0.00e+00	0	56	0	2119172096	44	4011
2026-01-05 10:23:50.43	48.79	48.69	-40.8	-41.4	20.7	0.00e+00	0	56	0	2124414976	44	3834
2026-01-05 10:23:51.42	48.18	48.71	-40.5	-41.1	20.9	0.00e+00	0	56	0	2129657856	44	3719
2026-01-05 10:23:52.40	47.58	48.72	-40.7	-41.3	20.8	0.00e+00	0	56	0	2134900736	44	3789
2026-01-05 10:23:53.39	46.98	48.73	-40.5	-41.1	20.9	0.00e+00	0	56	0	2141192192	44	3711
2026-01-05 10:23:54.38	46.37	48.74	-40.2	-40.7	21.2	0.00e+00	0	56	0	2146435072	43	3764
2026-01-05 10:23:55.37	45.77	48.74	-40.1	-40.7	21.2	0.00e+00	0	56	0	2151677952	43	3740
2026-01-05 10:23:56.37	45.16	48.74	-40.2	-40.8	21.2	0.00e+00	0	56	0	2157969408	43	3785
2026-01-05 10:23:57.36	44.55	48.74	-40.4	-41.0	21.0	0.00e+00	0	56	0	2163212288	43	3885
2026-01-05 10:23:58.34	43.95	48.73	-40.4	-41.0	20.9	0.00e+00	0	56	0	2168455168	43	3893
2026-01-05 10:23:59.34	43.34	48.72	-40.4	-41.0	20.9	0.00e+00	0	56	0	2174746624	43	3904
2026-01-05 10:24:00.33	42.74	48.71	-40.5	-41.1	20.8	0.00e+00	0	56	0	2179989504	43	3948
2026-01-05 10:24:01.31	42.14	48.69	-40.2	-40.7	21.2	0.00e+00	0	56	0	2185232384	43	3767
2026-01-05 10:24:02.30	41.53	48.67	-40.3	-40.8	21.1	0.00e+00	0	56	0	2190475264	43	3822
2026-01-05 10:24:03.30	40.93	48.65	-40.5	-41.1	20.8	0.00e+00	0	56	0	2196766720	43	3931
2026-01-05 10:24:04.28	40.33	48.62	-40.5	-41.1	20.8	0.00e+00	0	56	0	2202009600	43	3957
2026-01-05 10:24:05.28	39.73	48.59	-40.4	-41.0	20.9	0.00e+00	0	56	0	2208301056	43	3878
2026-01-05 10:24:06.27	39.13	48.55	-40.3	-40.9	21.1	0.00e+00	0	56	0	2213543936	43	3834
2026-01-05 10:24:07.27	38.52	48.52	-40.1	-40.7	21.2	0.00e+00	0	56	0	2218786816	43	3749
2026-01-05 10:24:08.25	37.93	48.48	-40.1	-40.6	21.2	0.00e+00	0	56	0	2224029696	43	3729
2026-01-05 10:24:09.25	37.33	48.43	-40.1	-40.7	21.3	0.00e+00	0	56	0	2230321152	43	3747
2026-01-05 10:24:10.24	36.74	48.38	-40.1	-40.7	21.2	0.00e+00	0	56	0	2235564032	43	3760
2026-01-05 10:24:11.23	36.15	48.33	-40.3	-40.9	21.0	0.00e+00	0	56	0	2240806912	43	3838
2026-01-05 10:24:12.22	35.56	48.28	-40.3	-40.9	21.0	0.00e+00	0	56	0	2247098368	43	3853
2026-01-05 10:24:13.21	34.98	48.22	-40.3	-40.9	21.0	0.00e+00	0	56	0	2252341248	43	3850
2026-01-05 10:24:14.20	34.39	48.16	-40.4	-41.0	20.9	0.00e+00	0	56	0	2257584128	43	3903
2026-01-05 10:24:15.19	33.81	48.10	-40.6	-41.2	20.7	0.00e+00	0	56	0	2263875584	43	3995
2026-01-05 10:24:16.18	33.23	48.03	-40.7	-41.3	20.6	0.00e+00	0	56	0	2269118464	43	4045
2026-01-05 10:24:17.17	32.65	47.96	-40.7	-41.3	20.6	0.00e+00	0	56	0	2274361344	43	4046
2026-01-05 10:24:18.16	32.08	47.89	-40.8	-41.4	20.5	0.00e+00	0	56	0	2280652800	43	4078
2026-01-05 10:24:19.16	31.50	47.81	-40.8	-41.4	20.5	0.00e+00	0	56	0	2285895680	43	4088
2026-01-05 10:24:20.15	30.93	47.73	-40.1	-40.7	21.2	0.00e+00	0	56	0	2291138560	43	3747
2026-01-05 10:24:21.14	30.37	47.65	-39.8	-40.4	21.5	0.00e+00	0	56	0	2297430016	42	3844
2026-01-05 10:24:22.13	29.81	47.57	-39.9	-40.4	21.5	0.00e+00	0	56	0	2302672896	42	3859
2026-01-05 10:24:23.13	29.24	47.48	-40.0	-40.5	21.4	0.00e+00	0	57	0	2307915776	42	3895
2026-01-05 10:24:24.12	28.69	47.39	-39.8	-40.3	21.5	0.00e+00	0	56	0	2313158656	42	3823
2026-01-05 10:24:25.11	28.13	47.30	-39.8	-40.3	21.6	0.00e+00	0	56	0	2319450112	42	3803
2026-01-05 10:24:26.10	27.58	47.20	-39.9	-40.5	21.4	0.00e+00	0	56	0	2324692992	42	3882
2026-01-05 10:24:27.09	27.04	47.10	-40.2	-40.8	21.1	0.00e+00	0	56	0	2330984448	42	4028
2026-01-05 10:24:28.07	26.50	47.00	-40.2	-40.8	21.1	0.00e+00	0	56	0	2336227328	42	4019
2026-01-05 10:24:29.05	25.97	46.90	-40.1	-40.6	21.3	0.00e+00	0	56	0	2341470208	42	3956
2026-01-05 10:24:30.04	25.43	46.80	-40.2	-40.7	21.1	0.00e+00	0	56	0	2346713088	42	3990
2026-01-05 10:24:31.03	24.90	46.69	-40.5	-41.1	20.8	0.00e+00	0	56	0	2353004544	42	4154
2026-01-05 10:24:32.02	24.37	46.58	-40.4	-41.1	20.9	0.00e+00	0	57	0	2358247424	42	4153
2026-01-05 10:24:33.01	23.85	46.46	-40.5	-41.1	20.8	0.00e+00	0	56	0	2363490304	42	4174
2026-01-05 10:24:33.99	23.33	46.35	-40.0	-40.6	21.3	0.00e+00	0	57	0	2369781760	42	3920
2026-01-05 10:24:34.98	22.82	46.23	-39.8	-40.3	21.5	0.00e+00	0	56	0	2375024640	42	3810
2026-01-05 10:24:35.97	22.30	46.11	-39.8	-40.4	21.5	0.00e+00	0	56	0	2380267520	42	3826
2026-01-05 10:24:36.96	21.79	45.99	-40.0	-40.5	21.4	0.00e+00	0	56	0	2385510400	42	3903
2026-01-05 10:24:37.94	21.29	45.87	-40.1	-40.6	21.2	0.00e+00	0	56	0	2391801856	42	3951
2026-01-05 10:24:38.93	20.79	45.74	-40.0	-40.6	21.3	0.00e+00	0	56	0	2397044736	42	3924
2026-01-05 10:24:39.92	20.30	45.61	-39.8	-40.3	21.6	0.00e+00	0	56	0	2402287616	42	3817
2026-01-05 10:24:40.91	19.80	45.48	-39.6	-40.2	21.7	0.00e+00	0	56	0	2408579072	42	3748
2026-01-05 10:24:41.90	19.32	45.35	-39.9	-40.4	21.5	0.00e+00	0	56	0	2413821952	42	3846
2026-01-05 10:24:42.90	18.83	45.22	-39.8	-40.3	21.5	0.00e+00	0	56	0	2419064832	42	3805
2026-01-05 10:24:43.89	18.35	45.08	-39.6	-40.2	21.7	0.00e+00	0	57	0	2425356288	42	3743
2026-01-05 10:24:44.88	17.87	44.94	-39.4	-39.9	21.9	0.00e+00	0	56	0	2430599168	42	3649
2026-01-05 10:24:45.87	17.40	44.80	-39.6	-40.1	21.7	0.00e+00	0	57	0	2435842048	42	3735
2026-01-05 10:24:46.86	16.93	44.66	-39.8	-40.3	21.6	0.00e+00	0	56	0	2441084928	42	3806
2026-01-05 10:24:47.85	16.47	44.52	-39.7	-40.3	21.6	0.00e+00	0	56	0	2447376384	42	3792
2026-01-05 10:24:48.85	16.00	44.38	-39.8	-40.4	21.5	0.00e+00	0	57	0	2452619264	42	3836
2026-01-05 10:24:49.84	15.55	44.23	-39.7	-40.3	21.6	0.00e+00	0	57	0	2458910720	42	3784
2026-01-05 10:24:50.82	15.10	44.08	-39.6	-40.1	21.7	0.00e+00	0	56	0	2464153600	42	3734
2026-01-05 10:24:51.81	14.65	43.94	-39.6	-40.2	21.7	0.00e+00	0	56	0	2469396480	42	3745
2026-01-05 10:24:52.81	14.21	43.78	-39.5	-40.0	21.8	0.00e+00	0	56	0	2474639360	42	3668
2026-01-05 10:24:53.80	13.77	43.63	-39.7	-40.3	21.6	0.00e+00	0	56	0	2480930816	42	3809
2026-01-05 10:24:54.79	13.33	43.48	-39.6	-40.1	21.7	0.00e+00	0	56	0	2486173696	42	3714
2026-01-05 10:24:55.78	12.90	43.33	-39.3	-39.8	22.0	0.00e+00	0	56	0	2491416576	41	3795
2026-01-05 10:24:56.77	12.48	43.17	-39.3	-39.8	22.0	0.00e+00	0	56	0	2497708032	41	3817
2026-01-05 10:24:57.77	12.05	43.02	-39.3	-39.8	22.0	0.00e+00	0	57	0	2502950912	41	3797
2026-01-05 10:24:58.76	11.63	42.86	-39.4	-39.9	21.9	0.00e+00	0	56	0	2508193792	41	3841
2026-01-05 10:24:59.75	11.22	42.70	-39.4	-40.0	21.8	0.00e+00	0	57	0	2514485248	41	3882
2026-01-05 10:25:00.74	10.81	42.54	-39.4	-39.9	21.9	0.00e+00	0	56	0	2519728128	41	3839
2026-01-05 10:25:01.74	10.40	42.38	-39.4	-39.9	21.9	0.00e+00	0	57	0	2524971008	41	3849
2026-01-05 10:25:02.73	10.00	42.22	-39.4	-39.9	21.9	0.00e+00	0	56	0	2531262464	41	3856
2026-01-05 10:25:03.72	9.60	42.06	-39.7	-40.2	21.6	0.00e+00	0	56	0	2536505344	41	3971
2026-01-05 10:25:04.71	9.21	41.90	-39.7	-40.2	21.6	0.00e+00	0	56	0	2541748224	41	3996
2026-01-05 10:25:05.70	8.82	41.73	-40.0	-40.6	21.3	0.00e+00	0	56	0	2548039680	41	4162
2026-01-05 10:25:06.69	8.43	41.57	-40.2	-40.8	21.1	0.00e+00	0	56	0	2553282560	42	4023
2026-01-05 10:25:07.69	8.05	41.40	-40.1	-40.7	21.2	0.00e+00	0	57	0	2558525440	42	3990
2026-01-05 10:25:08.68	7.67	41.24	-40.1	-40.6	21.2	0.00e+00	0	57	0	2564816896	42	3950
2026-01-05 10:25:09.67	7.30	41.07	-40.2	-40.8	21.1	0.00e+00	0	56	0	2570059776	42	4010
2026-01-05 10:25:10.65	6.93	40.91	-40.3	-40.9	21.0	0.00e+00	0	56	0	2575302656	42	4077
2026-01-05 10:25:11.64	6.57	40.74	-40.3	-40.9	20.9	0.00e+00	0	57	0	2581594112	42	4085
2026-01-05 10:25:12.64	6.20	40.57	-40.6	-41.2	20.7	0.00e+00	0	56	0	2586836992	43	3992
2026-01-05 10:25:13.62	5.85	40.40	-40.6	-41.1	20.7	0.00e+00	0	57	0	2592079872	43	3957
2026-01-05 10:25:14.61	5.49	40.23	-40.2	-40.7	21.1	0.00e+00	0	57	0	2597322752	43	3769
2026-01-05 10:25:15.61	5.14	40.06	-39.9	-40.4	21.4	0.00e+00	0	56	0	2603614208	43	3650
2026-01-05 10:25:16.60	4.79	39.89	-39.8	-40.3	21.5	0.00e+00	0	56	0	2608857088	42	3824
2026-01-05 10:25:17.59	4.45	39.72	-39.8	-40.4	21.4	0.00e+00	0	57	0	2614099968	42	3835
2026-01-05 10:25:18.58	4.11	39.55	-40.0	-40.5	21.3	0.00e+00	0	57	0	2620391424	42	3911
2026-01-05 10:25:19.57	3.77	39.38	-39.9	-40.4	21.4	0.00e+00	0	56	0	2625634304	42	3863
2026-01-05 10:25:20.55	3.44	39.21	-39.6	-40.1	21.7	0.00e+00	0	56	0	2630877184	42	3737
2026-01-05 10:25:21.54	3.11	39.04	-39.4	-40.0	21.8	0.00e+00	0	56	0	2637168640	42	3666
2026-01-05 10:25:22.53	2.79	38.87	-39.4	-40.0	21.8	0.00e+00	0	56	0	2642411520	42	3661
2026-01-05 10:25:23.52	2.46	38.70	-39.5	-40.1	21.8	0.00e+00	0	56	0	2647654400	42	3705
2026-01-05 10:25:24.51	2.14	38.53	-39.5	-40.0	21.8	0.00e+00	0	56	0	2652897280	42	3690
2026-01-05 10:25:25.50	1.83	38.35	-39.4	-39.9	21.9	0.00e+00	0	57	0	2659188736	42	3650
2026-01-05 10:25:26.49	1.52	38.18	-39.4	-40.0	21.9	0.00e+00	0	57	0	2664431616	42	3654
2026-01-05 10:25:27.48	1.21	38.01	-39.6	-40.1	21.7	0.00e+00	0	56	0	2670723072	42	3729
2026-01-05 10:25:28.46	0.90	37.84	-39.6	-40.2	21.6	0.00e+00	0	56	0	2675965952	42	3745
2026-01-05 10:25:29.45	0.60	37.67	-39.3	-39.8	21.9	0.00e+00	0	57	0	2681208832	41	3823
2026-01-05 10:25:30.44	0.30	37.50	-39.1	-39.6	22.1	0.00e+00	0	57	0	2686451712	41	3736
2026-01-05 10:25:31.43	0.01	37.32	-39.1	-39.6	22.2	0.00e+00	0	56	0	2692743168	41	3699
2026-01-05 10:25:32.42	359.71	37.15	-39.1	-39.6	22.2	0.00e+00	0	56	0	2697986048	41	3700
2026-01-05 10:25:33.41	359.42	36.98	-39.2	-39.7	22.0	0.00e+00	0	56	0	2703228928	41	3763
2026-01-05 10:25:34.40	359.14	36.81	-39.3	-39.8	21.9	0.00e+00	0	56	0	2709520384	41	3802
2026-01-05 10:25:35.39	358.85	36.64	-39.2	-39.7	22.0	0.00e+00	0	56	0	2714763264	41	3775
2026-01-05 10:25:36.38	358.57	36.46	-39.3	-39.9	21.9	0.00e+00	0	56	0	2720006144	41	3841
2026-01-05 10:25:37.37	358.30	36.29	-39.3	-39.9	21.9	0.00e+00	0	56	0	2725249024	41	3829
2026-01-05 10:25:38.36	358.02	36.12	-39.5	-40.1	21.7	0.00e+00	0	56	0	2731540480	41	3924
2026-01-05 10:25:39.35	357.75	35.95	-39.6	-40.2	21.6	0.00e+00	0	56	0	2736783360	41	3974
2026-01-05 10:25:40.33	357.48	35.78	-39.5	-40.1	21.7	0.00e+00	0	56	0	2742026240	41	3929
2026-01-05 10:25:41.32	357.22	35.61	-39.5	-40.0	21.7	0.00e+00	0	56	0	2748317696	41	3895
2026-01-05 10:25:42.31	356.95	35.44	-39.3	-39.8	21.9	0.00e+00	0	57	0	2753560576	41	3802
2026-01-05 10:25:43.30	356.69	35.27	-39.3	-39.8	22.0	0.00e+00	0	56	0	2758803456	41	3786
2026-01-05 10:25:44.28	356.44	35.10	-39.4	-39.9	21.9	0.00e+00	0	56	0	2765094912	41	3834
2026-01-05 10:25:45.27	356.18	34.93	-39.4	-39.9	21.8	0.00e+00	0	56	0	2770337792	41	3857
2026-01-05 10:25:46.26	355.93	34.76	-39.7	-40.2	21.6	0.00e+00	0	57	0	2775580672	41	3973
2026-01-05 10:25:47.24	355.68	34.59	-39.4	-39.9	21.9	0.00e+00	0	57	0	2780823552	41	3831
2026-01-05 10:25:48.23	355.43	34.42	-39.2	-39.7	22.1	0.00e+00	0	56	0	2787115008	41	3760
2026-01-05 10:25:49.21	355.19	34.25	-39.1	-39.7	22.1	0.00e+00	0	56	0	2792357888	41	3741
2026-01-05 10:25:50.20	354.95	34.09	-39.4	-39.9	21.9	0.00e+00	0	56	0	2797600768	41	3846
2026-01-05 10:25:51.20	354.71	33.92	-39.5	-40.0	21.7	0.00e+00	0	56	0	2803892224	41	3904
2026-01-05 10:25:52.20	354.47	33.75	-39.5	-40.1	21.7	0.00e+00	0	56	0	2809135104	41	3934
2026-01-05 10:25:53.18	354.24	33.58	-39.4	-40.0	21.8	0.00e+00	0	57	0	2814377984	41	3874
2026-01-05 10:25:54.18	354.00	33.41	-39.6	-40.1	21.7	0.00e+00	0	56	0	2820669440	41	3936
2026-01-05 10:25:55.17	353.77	33.24	-39.8	-40.3	21.4	0.00e+00	0	56	0	2825912320	41	4049
2026-01-05 10:25:56.16	353.55	33.08	-39.6	-40.1	21.6	0.00e+00	0	56	0	2831155200	41	3945
2026-01-05 10:25:57.15	353.32	32.91	-40.0	-40.5	21.2	0.00e+00	0	57	0	2837446656	41	4140
2026-01-05 10:25:58.15	353.10	32.74	-39.8	-40.4	21.4	0.00e+00	0	57	0	2842689536	41	4072
2026-01-05 10:25:59.14	352.87	32.58	-39.9	-40.5	21.3	0.00e+00	0	56	0	2847932416	41	4122
2026-01-05 10:26:00.14	352.65	32.41	-40.1	-40.7	21.1	0.00e+00	0	56	0	2854223872	41	4205
2026-01-05 10:26:01.13	352.44	32.25	-40.3	-40.9	20.9	0.00e+00	0	56	0	2859466752	42	4078
2026-01-05 10:26:02.12	352.22	32.08	-40.2	-40.7	21.1	0.00e+00	0	57	0	2864709632	42	3996
2026-01-05 10:26:03.11	352.01	31.92	-40.1	-40.7	21.1	0.00e+00	0	56	0	2869952512	42	3984
2026-01-05 10:26:04.10	351.80	31.76	-40.2	-40.8	21.0	0.00e+00	0	57	0	2876243968	42	4024
2026-01-05 10:26:05.10	351.59	31.59	-40.0	-40.6	21.2	0.00e+00	0	56	0	2881486848	42	3915
2026-01-05 10:26:06.09	351.39	31.43	-39.8	-40.3	21.4	0.00e+00	0	57	0	2887778304	42	3809
2026-01-05 10:26:07.09	351.18	31.27	-39.6	-40.2	21.6	0.00e+00	0	56	0	2893021184	42	3744
2026-01-05 10:26:08.09	350.98	31.11	-39.6	-40.2	21.6	0.00e+00	0	56	0	2898264064	42	3744
2026-01-05 10:26:09.08	350.78	30.95	-39.5	-40.0	21.7	0.00e+00	0	57	0	2904555520	42	3661
2026-01-05 10:26:10.07	350.59	30.79	-39.4	-40.0	21.8	0.00e+00	0	57	0	2909798400	42	3657
2026-01-05 10:26:11.06	350.39	30.63	-39.6	-40.2	21.5	0.00e+00	0	57	0	2915041280	42	3756
2026-01-05 10:26:12.05	350.20	30.47	-39.7	-40.2	21.5	0.00e+00	0	57	0	2921332736	42	3768
2026-01-05 10:26:13.04	350.01	30.31	-39.8	-40.4	21.4	0.00e+00	0	57	0	2926575616	42	3831
2026-01-05 10:26:14.03	349.82	30.15	-40.0	-40.6	21.2	0.00e+00	0	56	0	2931818496	42	3939
2026-01-05 10:26:15.02	349.63	29.99	-39.8	-40.4	21.3	0.00e+00	0	56	0	2938109952	42	3841
2026-01-05 10:26:16.01	349.44	29.84	-39.8	-40.3	21.4	0.00e+00	0	56	0	2943352832	42	3812
2026-01-05 10:26:17.00	349.26	29.68	-39.8	-40.4	21.3	0.00e+00	0	56	0	2948595712	42	3841
2026-01-05 10:26:18.00	349.08	29.52	-39.8	-40.4	21.4	0.00e+00	0	57	0	2953838592	42	3833
2026-01-05 10:26:18.99	348.90	29.37	-40.1	-40.7	21.1	0.00e+00	0	57	0	2960130048	42	3960
2026-01-05 10:26:19.98	348.72	29.21	-39.9	-40.5	21.3	0.00e+00	0	57	0	2965372928	42	3871
2026-01-05 10:26:20.98	348.54	29.06	-40.1	-40.7	21.0	0.00e+00	0	56	0	2971664384	42	3989
2026-01-05 10:26:21.97	348.37	28.90	-40.0	-40.6	21.1	0.00e+00	0	56	0	2976907264	42	3932
2026-01-05 10:26:22.94	348.20	28.75	-40.0	-40.5	21.1	0.00e+00	0	56	0	2982150144	42	3901
2026-01-05 10:26:23.93	348.02	28.60	-40.1	-40.7	21.0	0.00e+00	0	56	0	2987393024	42	3995
2026-01-05 10:26:24.92	347.85	28.45	-40.2	-40.7	21.0	0.00e+00	0	57	0	2992635904	42	3999
2026-01-05 10:26:25.91	347.69	28.29	-40.2	-40.8	20.9	0.00e+00	0	56	0	2998927360	42	4012
2026-01-05 10:26:26.89	347.52	28.14	-40.3	-40.9	20.8	0.00e+00	0	57	0	3004170240	42	4081
2026-01-05 10:26:27.88	347.36	27.99	-40.1	-40.7	21.0	0.00e+00	0	57	0	3010461696	42	3991
2026-01-05 10:26:28.86	347.19	27.85	-40.1	-40.6	21.0	0.00e+00	0	57	0	3015704576	42	3956
2026-01-05 10:26:29.84	347.03	27.70	-40.2	-40.8	20.9	0.00e+00	0	57	0	3020947456	42	4024
2026-01-05 10:26:30.83	346.87	27.55	-40.1	-40.7	21.0	0.00e+00	0	57	0	3026190336	42	3974
2026-01-05 10:26:31.83	346.71	27.40	-40.2	-40.7	20.9	0.00e+00	0	56	0	3032481792	42	3998
2026-01-05 10:26:32.81	346.56	27.25	-40.4	-41.0	20.7	0.00e+00	0	57	0	3037724672	42	4117
2026-01-05 10:26:33.80	346.40	27.11	-40.2	-40.8	20.9	0.00e+00	0	56	0	3042967552	42	4025
2026-01-05 10:26:34.79	346.25	26.96	-40.0	-40.6	21.1	0.00e+00	0	57	0	3049259008	42	3924
2026-01-05 10:26:35.78	346.09	26.81	-39.9	-40.5	21.2	0.00e+00	0	56	0	3054501888	42	3896
2026-01-05 10:26:36.78	345.94	26.67	-39.9	-40.5	21.2	0.00e+00	0	57	0	3059744768	42	3884
2026-01-05 10:26:37.77	345.79	26.52	-39.8	-40.4	21.3	0.00e+00	0	57	0	3064987648	42	3849
2026-01-05 10:26:38.76	345.64	26.38	-39.9	-40.5	21.2	0.00e+00	0	57	0	3071279104	42	3899
2026-01-05 10:26:39.75	345.50	26.23	-40.1	-40.6	21.1	0.00e+00	0	57	0	3076521984	42	3949
2026-01-05 10:26:40.73	345.35	26.09	-40.0	-40.6	21.1	0.00e+00	0	57	0	3081764864	42	3926
2026-01-05 10:26:41.73	345.20	25.95	-39.8	-40.4	21.3	0.00e+00	0	57	0	3088056320	42	3844
2026-01-05 10:26:42.71	345.06	25.81	-39.9	-40.4	21.2	0.00e+00	0	57	0	3093299200	42	3867
2026-01-05 10:26:43.71	344.92	25.66	-40.0	-40.6	21.1	0.00e+00	0	57	0	3098542080	42	3928
2026-01-05 10:26:44.69	344.78	25.52	-40.1	-40.7	21.0	0.00e+00	0	57	0	3104833536	42	3992
2026-01-05 10:26:45.68	344.64	25.38	-40.1	-40.7	20.9	0.00e+00	0	57	0	3110076416	42	3994
2026-01-05 10:26:46.67	344.50	25.24	-40.3	-40.9	20.8	0.00e+00	0	57	0	3115319296	42	4092
2026-01-05 10:26:47.67	344.36	25.10	-40.3	-40.9	20.8	0.00e+00	0	57	0	3120562176	42	4074
2026-01-05 10:26:48.66	344.23	24.96	-40.1	-40.6	21.0	0.00e+00	0	56	0	3126853632	42	3955
2026-01-05 10:26:49.64	344.10	24.82	-40.0	-40.6	21.1	0.00e+00	0	56	0	3132096512	42	3940
2026-01-05 10:26:50.63	343.96	24.69	-40.0	-40.6	21.0	0.00e+00	0	57	0	3138387968	42	3938
2026-01-05 10:26:51.61	343.83	24.55	-40.2	-40.7	20.9	0.00e+00	0	57	0	3143630848	42	4003
2026-01-05 10:26:52.60	343.70	24.41	-40.2	-40.8	20.9	0.00e+00	0	57	0	3148873728	42	4024
2026-01-05 10:26:53.59	343.57	24.28	-40.3	-40.8	20.8	0.00e+00	0	57	0	3154116608	42	4046
2026-01-05 10:26:54.59	343.44	24.14	-40.3	-40.9	20.8	0.00e+00	0	57	0	3160408064	42	4074
2026-01-05 10:26:55.59	343.31	24.00	-40.4	-41.0	20.7	0.00e+00	0	57	0	3165650944	42	4136
2026-01-05 10:26:56.58	343.19	23.87	-40.4	-41.0	20.7	0.00e+00	0	56	0	3170893824	42	4099
2026-01-05 10:26:57.56	343.06	23.74	-40.4	-41.0	20.7	0.00e+00	0	57	0	3177185280	42	4103
2026-01-05 10:26:58.55	342.94	23.60	-40.6	-41.2	20.5	0.00e+00	0	57	0	3182428160	42	4219
2026-01-05 10:26:59.54	342.81	23.47	-40.6	-41.2	20.5	0.00e+00	0	57	0	3187671040	43	3974
2026-01-05 10:27:00.51	342.69	23.34	-40.4	-41.0	20.6	0.00e+00	0	57	0	3192913920	43	3908
2026-01-05 10:27:01.49	342.57	23.21	-40.4	-41.0	20.7	0.00e+00	0	57	0	3199205376	43	3895
2026-01-05 10:27:02.48	342.45	23.08	-40.6	-41.2	20.5	0.00e+00	0	56	0	3204448256	43	3971
2026-01-05 10:27:03.48	342.33	22.95	-40.7	-41.4	20.3	0.00e+00	0	57	0	3210739712	43	4058
2026-01-05 10:27:04.46	342.22	22.82	-40.6	-41.2	20.4	0.00e+00	0	57	0	3215982592	43	3986
2026-01-05 10:27:05.45	342.10	22.69	-40.7	-41.3	20.4	0.00e+00	0	57	0	3221225472	43	4019
2026-01-05 10:27:06.43	341.99	22.56	-40.6	-41.3	20.4	0.00e+00	0	57	0	3226468352	43	4005
2026-01-05 10:27:07.42	341.87	22.43	-40.8	-41.4	20.2	0.00e+00	0	57	0	3231711232	43	4095
2026-01-05 10:27:08.41	341.76	22.30	-40.9	-41.5	20.1	0.00e+00	0	57	0	3238002688	43	4119
2026-01-05 10:27:09.40	341.64	22.18	-40.8	-41.4	20.2	0.00e+00	0	57	0	3243245568	43	4084
2026-01-05 10:27:10.39	341.53	22.05	-40.8	-41.4	20.2	0.00e+00	0	57	0	3249537024	43	4080
2026-01-05 10:27:11.38	341.42	21.92	-40.6	-41.2	20.4	0.00e+00	0	57	0	3254779904	43	3973
2026-01-05 10:27:12.37	341.31	21.80	-40.4	-41.0	20.6	0.00e+00	0	57	0	3260022784	43	3877
2026-01-05 10:27:13.37	341.20	21.67	-40.5	-41.1	20.5	0.00e+00	0	57	0	3265265664	43	3935
2026-01-05 10:27:14.35	341.09	21.55	-40.8	-41.4	20.2	0.00e+00	0	57	0	3271557120	43	4064
2026-01-05 10:27:15.34	340.99	21.42	-40.8	-41.4	20.1	0.00e+00	0	57	0	3276800000	43	4098
2026-01-05 10:27:16.34	340.88	21.30	-40.8	-41.4	20.2	0.00e+00	0	57	0	3282042880	43	4067
2026-01-05 10:27:17.32	340.77	21.17	-40.5	-41.1	20.4	0.00e+00	0	57	0	3288334336	43	3925
2026-01-05 10:27:18.32	340.67	21.05	-40.5	-41.1	20.4	0.00e+00	0	57	0	3293577216	43	3917
2026-01-05 10:27:19.30	340.56	20.93	-40.8	-41.4	20.1	0.00e+00	0	57	0	3298820096	43	4067
2026-01-05 10:27:20.29	340.46	20.80	-40.9	-41.6	19.8	0.00e+00	0	57	0	3305111552	43	4172
2026-01-05 10:27:21.28	340.36	20.68	-41.4	-42.1	19.5	0.00e+00	0	57	0	3310354432	44	4163
2026-01-05 10:27:22.27	340.26	20.56	-41.5	-42.3	19.2	0.00e+00	0	57	0	3315597312	45	4006
2026-01-05 10:27:23.26	340.16	20.44	-42.1	-42.9	18.5	0.00e+00	0	57	0	3320840192	46	4088
2026-01-05 10:27:24.25	340.06	20.32	-42.8	-43.7	17.7	0.00e+00	0	57	0	3327131648	47	4216
2026-01-05 10:27:25.24	339.96	20.20	-43.4	-44.4	17.1	0.00e+00	0	57	0	3332374528	48	4308
2026-01-05 10:27:26.23	339.86	20.08	-44.0	-45.0	16.4	0.00e+00	0	57	0	3338665984	49	4375
2026-01-05 10:27:27.21	339.76	19.96	-44.1	-45.2	16.2	0.00e+00	0	57	0	3343908864	50	4208
2026-01-05 10:27:28.19	339.67	19.85	-44.1	-45.2	16.1	0.00e+00	0	57	0	3349151744	50	4218
2026-01-05 10:27:29.18	339.57	19.73	-44.0	-45.1	16.2	0.00e+00	0	57	0	3354394624	50	4162
2026-01-05 10:27:30.16	339.48	19.61	-44.0	-45.0	16.2	0.00e+00	0	57	0	3359637504	50	4143
2026-01-05 10:27:31.16	339.38	19.50	-43.8	-44.8	16.5	0.00e+00	0	57	0	3365928960	50	4011
2026-01-05 10:27:32.15	339.29	19.38	-44.0	-45.0	16.3	0.00e+00	0	57	0	3371171840	50	4117
2026-01-05 10:27:33.13	339.20	19.26	-44.3	-45.5	15.9	0.00e+00	0	57	0	3377463296	50	4343
2026-01-05 10:27:34.12	339.11	19.15	-44.3	-45.3	16.0	0.00e+00	0	57	0	3382706176	50	4288
2026-01-05 10:27:35.11	339.01	19.03	-43.8	-44.9	16.5	0.00e+00	0	57	0	3387949056	50	4052
2026-01-05 10:27:36.09	338.92	18.92	-43.3	-44.2	17.1	0.00e+00	0	57	0	3393191936	49	3990
2026-01-05 10:27:37.07	338.84	18.81	-42.9	-43.8	17.6	0.00e+00	0	57	0	3398434816	49	3803
2026-01-05 10:27:38.06	338.75	18.69	-42.7	-43.5	18.0	0.00e+00	0	57	0	3404726272	48	3887
2026-01-05 10:27:39.05	338.66	18.58	-42.7	-43.5	18.1	0.00e+00	0	57	0	3409969152	48	3885
2026-01-05 10:27:40.03	338.57	18.47	-41.9	-42.7	18.7	0.00e+00	0	57	0	3416260608	47	3740
2026-01-05 10:27:41.02	338.48	18.36	-41.4	-42.1	19.3	0.00e+00	0	57	0	3421503488	46	3720
2026-01-05 10:27:42.00	338.40	18.25	-41.0	-41.7	19.8	0.00e+00	0	57	0	3426746368	45	3746
2026-01-05 10:27:43.00	338.31	18.13	-40.9	-41.5	19.9	0.00e+00	0	57	0	3431989248	44	3903
2026-01-05 10:27:43.98	338.23	18.02	-41.4	-42.1	19.4	0.00e+00	0	57	0	3438280704	44	4150
2026-01-05 10:27:44.97	338.14	17.91	-41.8	-42.5	19.0	0.00e+00	0	57	0	3443523584	45	4140
2026-01-05 10:27:45.96	338.06	17.80	-41.9	-42.6	19.0	0.00e+00	0	57	0	3448766464	45	4160
2026-01-05 10:27:46.95	337.97	17.69	-41.9	-42.6	19.0	0.00e+00	0	57	0	3455057920	45	4156
2026-01-05 10:27:47.95	337.89	17.58	-41.9	-42.6	19.0	0.00e+00	0	57	0	3460300800	45	4179
2026-01-05 10:27:48.94	337.81	17.47	-42.0	-42.8	18.9	0.00e+00	0	57	0	3465543680	46	4005
2026-01-05 10:27:49.93	337.73	17.36	-41.9	-42.6	19.1	0.00e+00	0	57	0	3471835136	46	3921
2026-01-05 10:27:50.92	337.65	17.26	-42.2	-42.9	18.8	0.00e+00	0	57	0	3477078016	46	4080
2026-01-05 10:27:51.91	337.57	17.15	-42.2	-42.9	18.7	0.00e+00	0	57	0	3482320896	46	4091
2026-01-05 10:27:52.91	337.48	17.04	-42.2	-43.0	18.7	0.00e+00	0	57	0	3488612352	46	4118
2026-01-05 10:27:53.90	337.41	16.93	-42.5	-43.3	18.3	0.00e+00	0	57	0	3493855232	46	4280
2026-01-05 10:27:54.90	337.33	16.83	-42.5	-43.3	18.3	0.00e+00	0	57	0	3499098112	47	4039
2026-01-05 10:27:55.89	337.25	16.72	-42.6	-43.4	18.3	0.00e+00	0	57	0	3505389568	47	4083
2026-01-05 10:27:56.88	337.17	16.61	-43.0	-43.8	17.9	0.00e+00	0	57	0	3510632448	47	4289
2026-01-05 10:27:57.87	337.09	16.51	-42.9	-43.7	18.0	0.00e+00	0	57	0	3515875328	47	4217
2026-01-05 10:27:58.86	337.02	16.40	-42.7	-43.6	18.1	0.00e+00	0	57	0	3521118208	47	4153
2026-01-05 10:27:59.85	336.94	16.30	-42.8	-43.7	18.0	0.00e+00	0	57	0	3527409664	47	4216
2026-01-05 10:28:00.84	336.87	16.19	-42.8	-43.7	18.0	0.00e+00	0	57	0	3532652544	47	4209
2026-01-05 10:28:01.83	336.79	16.09	-42.8	-43.7	18.0	0.00e+00	0	57	0	3538944000	47	4196
2026-01-05 10:28:02.83	336.72	15.99	-43.4	-44.3	17.6	0.00e+00	0	57	0	3544186880	48	4246
2026-01-05 10:28:03.82	336.64	15.88	-43.1	-44.0	17.8	0.00e+00	0	57	0	3549429760	48	4119
2026-01-05 10:28:04.80	336.57	15.78	-42.7	-43.5	18.3	0.00e+00	0	57	0	3554672640	48	3909
2026-01-05 10:28:05.79	336.50	15.68	-42.5	-43.3	18.6	0.00e+00	0	57	0	3560964096	48	3783
2026-01-05 10:28:06.78	336.43	15.58	-42.2	-43.0	18.6	0.00e+00	0	57	0	3566206976	47	3884
2026-01-05 10:28:07.77	336.36	15.48	-42.1	-42.9	18.7	0.00e+00	0	57	0	3571449856	47	3842
2026-01-05 10:28:08.76	336.29	15.38	-42.2	-43.0	18.6	0.00e+00	0	57	0	3577741312	47	3896
2026-01-05 10:28:09.75	336.21	15.28	-42.3	-43.0	18.6	0.00e+00	0	57	0	3582984192	47	3899
2026-01-05 10:28:10.74	336.14	15.18	-42.5	-43.3	18.3	0.00e+00	0	57	0	3588227072	47	4046
2026-01-05 10:28:11.73	336.08	15.08	-42.5	-43.3	18.4	0.00e+00	0	57	0	3594518528	47	4020
2026-01-05 10:28:12.71	336.01	14.98	-42.4	-43.2	18.4	0.00e+00	0	57	0	3599761408	47	3960
2026-01-05 10:28:13.70	335.94	14.88	-42.1	-42.8	18.8	0.00e+00	0	57	0	3605004288	47	3806
2026-01-05 10:28:14.69	335.87	14.78	-42.1	-42.8	18.8	0.00e+00	0	57	0	3610247168	47	3807
2026-01-05 10:28:15.68	335.80	14.68	-42.1	-42.9	18.8	0.00e+00	0	57	0	3616538624	47	3831
2026-01-05 10:28:16.67	335.74	14.58	-42.3	-43.0	18.6	0.00e+00	0	57	0	3621781504	47	3903
2026-01-05 10:28:17.67	335.67	14.48	-42.4	-43.2	18.5	0.00e+00	0	57	0	3627024384	47	3970
2026-01-05 10:28:18.66	335.60	14.39	-42.4	-43.2	18.5	0.00e+00	0	57	0	3633315840	47	3959
2026-01-05 10:28:19.65	335.54	14.29	-42.4	-43.2	18.5	0.00e+00	0	57	0	3638558720	47	3978
2026-01-05 10:28:20.64	335.47	14.19	-42.5	-43.3	18.3	0.00e+00	0	57	0	3643801600	47	4019
2026-01-05 10:28:21.63	335.41	14.10	-42.6	-43.4	18.3	0.00e+00	0	57	0	3650093056	47	4056
2026-01-05 10:28:22.63	335.34	14.00	-42.7	-43.5	18.1	0.00e+00	0	57	0	3655335936	47	4118
2026-01-05 10:28:23.62	335.28	13.90	-42.7	-43.5	18.1	0.00e+00	0	57	0	3660578816	47	4141
2026-01-05 10:28:24.61	335.21	13.81	-43.2	-44.0	17.8	0.00e+00	0	57	0	3666870272	48	4144
2026-01-05 10:28:25.60	335.15	13.71	-43.2	-44.1	17.7	0.00e+00	0	57	0	3672113152	48	4154
2026-01-05 10:28:26.59	335.09	13.62	-43.0	-43.9	18.0	0.00e+00	0	57	0	3677356032	48	4057
2026-01-05 10:28:27.58	335.03	13.52	-42.8	-43.6	18.2	0.00e+00	0	57	0	3683647488	48	3944
