passes_logs/2026/01/05/R3.0SM8_Murmansk_STILSPACE/R3.0SM8_Murmansk_STILSPACE__20260105_005857_SUOMI_NPP_rec.log

#Pass ID: 20260105_005857_SUOMI NPP
#Satellite: SUOMI NPP
#Configuration: NPP
#almurnet v.1.7.20240730
#Start time: 2026-01-05 01:03:59

#Version: 2.2.20231116
#Station: R3.0SM8_Murmansk_STILSPACE
#Location: 33.092731 lon 68.902999 lat
#TLE: 1 37849U 11061A   26003.96724563  .00000164  00000+0  98899-4 0  9990
#TLE: 2 37849  98.7800 306.1116 0002573  82.3190 277.8279 14.19522066735141

#Time	Az	El	Level	Level2	SNR	BER	BlckErr	Temp	State	Recorded	gain1	gain2
2026-01-05 01:03:59.61	19.79	41.34	-54.4	-74.4	3.8	7.42e-01	0	56	0	0	71	37168
2026-01-05 01:04:00.58	19.72	41.60	-52.7	-66.5	3.8	1.49e+00	0	56	104	0	68	17459
2026-01-05 01:04:01.57	19.64	41.87	-52.6	-66.5	3.8	1.49e+00	0	57	104	0	68	17435
2026-01-05 01:04:02.55	19.56	42.13	-52.7	-66.5	3.8	1.49e+00	0	57	104	0	68	17441
2026-01-05 01:04:03.54	19.48	42.41	-52.7	-66.5	3.8	1.49e+00	0	56	104	0	68	17435
2026-01-05 01:04:04.53	19.40	42.68	-52.7	-66.5	3.8	1.49e+00	0	56	104	0	68	17469
2026-01-05 01:04:05.53	19.32	42.96	-52.7	-66.6	3.8	1.49e+00	0	56	104	0	68	17485
2026-01-05 01:04:06.51	19.24	43.23	-52.7	-66.5	3.8	1.49e+00	0	56	104	0	68	17459
2026-01-05 01:04:07.49	19.15	43.51	-52.7	-66.6	3.8	1.49e+00	0	57	104	0	68	17497
2026-01-05 01:04:08.48	19.07	43.79	-52.7	-66.5	3.8	1.49e+00	0	56	104	0	68	17455
2026-01-05 01:04:09.47	18.98	44.08	-52.7	-66.5	3.8	1.49e+00	0	57	104	0	68	17480
2026-01-05 01:04:10.46	18.89	44.36	-52.7	-66.5	3.8	1.49e+00	0	57	104	0	68	17408
2026-01-05 01:04:11.45	18.80	44.65	-52.7	-66.5	3.8	1.49e+00	0	57	104	0	68	17377
2026-01-05 01:04:12.44	18.70	44.94	-52.7	-66.5	3.8	1.49e+00	0	57	104	0	68	17382
2026-01-05 01:04:13.43	18.61	45.23	-52.7	-66.5	3.8	1.49e+00	0	56	104	0	68	17364
2026-01-05 01:04:14.42	18.51	45.53	-52.5	-66.5	3.8	1.49e+00	0	57	104	0	68	17302
2026-01-05 01:04:15.41	18.41	45.83	-52.7	-66.5	3.8	1.49e+00	0	57	104	0	68	17347
2026-01-05 01:04:16.40	18.31	46.12	-52.6	-66.5	3.8	1.49e+00	0	57	104	0	68	17407
2026-01-05 01:04:17.39	18.21	46.42	-52.7	-66.5	3.8	1.49e+00	0	57	104	0	68	17424
2026-01-05 01:04:18.38	18.10	46.73	-52.7	-66.5	3.8	1.49e+00	0	56	104	0	68	17391
2026-01-05 01:04:19.36	18.00	47.03	-52.6	-66.5	3.8	1.49e+00	0	57	104	0	68	17420
2026-01-05 01:04:20.35	17.89	47.34	-52.6	-66.5	3.8	1.49e+00	0	57	104	0	68	17401
2026-01-05 01:04:21.34	17.78	47.65	-52.7	-66.5	3.8	1.49e+00	0	57	104	0	68	17438
2026-01-05 01:04:22.33	17.66	47.96	-52.7	-66.5	3.8	1.49e+00	0	56	104	0	68	17413
2026-01-05 01:04:23.33	17.55	48.27	-52.6	-66.5	3.8	1.49e+00	0	57	104	0	68	17350
2026-01-05 01:04:24.32	17.43	48.59	-52.6	-66.5	3.8	1.49e+00	0	57	104	0	68	17310
2026-01-05 01:04:25.30	17.31	48.90	-52.7	-66.5	3.8	1.49e+00	0	56	104	0	68	17328
2026-01-05 01:04:26.29	17.18	49.22	-52.7	-66.5	3.8	1.49e+00	0	57	104	0	68	17350
2026-01-05 01:04:27.27	17.06	49.54	-52.7	-66.4	3.8	1.49e+00	0	57	104	0	68	17273
2026-01-05 01:04:28.27	16.93	49.87	-52.6	-66.4	3.8	1.49e+00	0	56	104	0	68	17161
2026-01-05 01:04:29.26	16.80	50.19	-52.7	-66.5	3.8	1.49e+00	0	56	104	0	68	17298
2026-01-05 01:04:30.24	16.66	50.52	-52.6	-66.5	3.8	1.49e+00	0	57	104	0	68	17362
2026-01-05 01:04:31.22	16.53	50.85	-52.6	-66.4	3.8	1.49e+00	0	57	104	0	68	17248
2026-01-05 01:04:32.20	16.39	51.18	-52.5	-66.3	3.8	1.49e+00	0	56	104	0	68	17067
2026-01-05 01:04:33.19	16.24	51.51	-52.7	-66.3	3.8	1.49e+00	0	57	104	0	68	16956
2026-01-05 01:04:34.18	16.09	51.85	-52.5	-66.3	3.8	1.49e+00	0	56	104	0	68	17077
2026-01-05 01:04:35.15	15.95	52.18	-52.7	-66.4	3.8	1.49e+00	0	57	104	0	68	17154
2026-01-05 01:04:36.15	15.79	52.53	-52.7	-66.3	3.8	1.49e+00	0	57	104	0	68	16968
2026-01-05 01:04:37.14	15.63	52.87	-52.6	-66.3	3.8	1.49e+00	0	57	104	0	68	16924
2026-01-05 01:04:38.14	15.47	53.22	-52.7	-66.3	3.8	1.49e+00	0	57	104	0	68	16996
2026-01-05 01:04:39.13	15.30	53.57	-52.7	-66.4	3.8	1.49e+00	0	57	104	0	68	17086
2026-01-05 01:04:40.12	15.13	53.92	-52.7	-66.4	3.8	1.49e+00	0	56	104	0	68	17142
2026-01-05 01:04:41.11	14.95	54.27	-52.7	-66.3	3.8	1.49e+00	0	57	104	0	68	16975
2026-01-05 01:04:42.10	14.77	54.62	-52.7	-66.3	3.8	1.49e+00	0	57	104	0	68	17008
2026-01-05 01:04:43.09	14.59	54.98	-52.7	-66.4	3.8	1.49e+00	0	57	104	0	68	17147
2026-01-05 01:04:44.07	14.40	55.33	-52.5	-66.3	3.8	1.49e+00	0	57	104	0	68	17062
2026-01-05 01:04:45.07	14.21	55.70	-52.6	-66.4	3.8	1.49e+00	0	57	104	0	68	17140
2026-01-05 01:04:46.05	14.01	56.06	-52.5	-66.3	3.8	1.49e+00	0	57	104	0	68	17077
2026-01-05 01:04:47.04	13.81	56.42	-52.5	-66.2	3.8	1.49e+00	0	57	104	0	68	16810
2026-01-05 01:04:48.04	13.59	56.79	-52.5	-65.9	3.8	1.49e+00	0	57	104	0	68	16244
2026-01-05 01:04:49.03	13.38	57.16	-52.6	-65.9	3.8	1.49e+00	0	56	104	0	68	16251
2026-01-05 01:04:50.02	13.16	57.53	-52.5	-66.0	3.8	1.49e+00	0	57	104	0	68	16446
2026-01-05 01:04:51.01	12.93	57.91	-52.6	-65.3	3.8	1.49e+00	0	57	104	0	68	15104
2026-01-05 01:04:52.01	12.69	58.28	-52.3	-62.3	4.4	1.41e+00	0	57	0	0	67	11392
2026-01-05 01:04:52.99	12.45	58.66	-51.5	-58.0	6.9	3.92e-01	0	57	0	1048576	66	7326
2026-01-05 01:04:53.98	12.20	59.04	-50.4	-54.9	10.1	4.64e-02	0	57	0	3145728	64	5731
2026-01-05 01:04:54.97	11.95	59.42	-49.9	-53.6	11.6	1.64e-03	0	57	0	5242880	62	5555
2026-01-05 01:04:55.96	11.69	59.80	-49.8	-53.3	11.9	1.68e-04	0	57	0	7340032	62	5402
2026-01-05 01:04:56.94	11.42	60.18	-49.2	-52.0	13.2	2.44e-05	0	57	0	8388608	61	4907
2026-01-05 01:04:57.94	11.13	60.57	-48.8	-51.6	13.7	7.60e-06	0	57	0	10485760	60	4932
2026-01-05 01:04:58.92	10.85	60.95	-48.9	-51.8	13.5	1.06e-05	0	57	0	12582912	60	5054
2026-01-05 01:04:59.90	10.55	61.34	-49.1	-52.0	13.2	1.06e-05	0	57	0	14680064	60	5215
2026-01-05 01:05:00.89	10.25	61.73	-48.9	-51.7	13.4	1.90e-05	0	57	0	15728640	60	5026
2026-01-05 01:05:01.88	9.93	62.12	-48.6	-51.1	14.2	0.00e+00	0	57	0	17825792	60	4671
2026-01-05 01:05:02.86	9.60	62.51	-47.9	-49.9	15.3	0.00e+00	0	57	0	19922944	58	4589
2026-01-05 01:05:03.85	9.26	62.90	-47.6	-49.5	15.8	0.00e+00	0	57	0	22020096	58	4378
2026-01-05 01:05:04.84	8.91	63.30	-47.6	-49.4	15.9	0.00e+00	0	56	0	23068672	58	4330
2026-01-05 01:05:05.82	8.56	63.70	-47.8	-49.8	15.5	0.00e+00	0	57	0	25165824	58	4497
2026-01-05 01:05:06.82	8.18	64.10	-47.5	-49.5	15.8	0.00e+00	0	57	0	27262976	57	4605
2026-01-05 01:05:07.80	7.79	64.49	-47.2	-48.9	16.3	0.00e+00	0	57	0	29360128	57	4330
2026-01-05 01:05:08.79	7.39	64.90	-46.6	-48.2	16.9	0.00e+00	0	57	0	31457280	56	4211
2026-01-05 01:05:09.78	6.97	65.30	-46.7	-48.3	16.7	0.00e+00	0	57	0	32505856	55	4545
2026-01-05 01:05:10.77	6.54	65.70	-47.8	-49.9	15.5	0.00e+00	0	57	0	34603008	57	4818
2026-01-05 01:05:11.76	6.09	66.10	-48.1	-50.4	14.8	0.00e+00	0	57	0	36700160	58	4842
2026-01-05 01:05:12.75	5.62	66.51	-48.1	-50.4	14.9	0.00e+00	0	57	0	38797312	58	4865
2026-01-05 01:05:13.75	5.13	66.92	-48.3	-50.5	14.9	0.00e+00	0	57	0	39845888	58	4888
2026-01-05 01:05:14.73	4.64	67.32	-48.4	-50.8	14.4	0.00e+00	0	57	0	41943040	58	5071
2026-01-05 01:05:15.72	4.11	67.73	-48.3	-50.6	14.8	0.00e+00	0	57	0	44040192	58	4971
2026-01-05 01:05:16.70	3.57	68.13	-48.4	-50.8	14.5	0.00e+00	0	57	0	46137344	58	5096
2026-01-05 01:05:17.68	3.01	68.53	-48.4	-50.8	14.4	7.00e-07	0	57	0	47185920	59	4788
2026-01-05 01:05:18.67	2.42	68.93	-48.3	-50.7	14.5	0.00e+00	0	57	0	49283072	59	4744
2026-01-05 01:05:19.66	1.80	69.34	-48.1	-50.3	15.1	7.00e-07	0	57	0	51380224	59	4514
2026-01-05 01:05:20.65	1.16	69.74	-48.4	-50.8	14.6	0.00e+00	0	57	0	53477376	58	5042
2026-01-05 01:05:21.64	0.49	70.15	-48.0	-50.3	15.1	0.00e+00	0	57	0	54525952	58	4771
2026-01-05 01:05:22.63	359.79	70.55	-47.1	-48.8	16.4	0.00e+00	0	57	0	56623104	57	4288
2026-01-05 01:05:23.62	359.06	70.95	-46.4	-47.9	17.3	0.00e+00	0	56	0	58720256	55	4302
2026-01-05 01:05:24.61	358.29	71.35	-46.2	-47.6	17.5	0.00e+00	0	57	0	60817408	55	4181
2026-01-05 01:05:25.59	357.50	71.75	-46.2	-47.6	17.5	0.00e+00	0	57	0	62914560	55	4177
2026-01-05 01:05:26.58	356.66	72.14	-45.6	-46.9	18.2	0.00e+00	0	57	0	63963136	54	4078
2026-01-05 01:05:27.56	355.79	72.53	-45.9	-47.2	17.7	0.00e+00	0	57	0	66060288	54	4234
2026-01-05 01:05:28.54	354.87	72.92	-46.2	-47.7	17.5	0.00e+00	0	57	0	68157440	54	4444
2026-01-05 01:05:29.52	353.92	73.30	-46.4	-47.9	17.2	0.00e+00	0	57	0	70254592	54	4576
2026-01-05 01:05:30.51	352.90	73.69	-46.6	-48.1	17.1	0.00e+00	0	57	0	71303168	55	4412
2026-01-05 01:05:31.50	351.83	74.07	-47.5	-49.5	15.8	0.00e+00	0	57	0	73400320	56	4897
2026-01-05 01:05:32.49	350.71	74.44	-48.8	-51.4	13.8	7.00e-07	0	57	0	75497472	59	5155
2026-01-05 01:05:33.48	349.53	74.81	-48.8	-51.4	13.8	6.10e-06	0	57	0	77594624	59	5159
2026-01-05 01:05:34.47	348.29	75.18	-48.8	-51.3	14.1	1.50e-06	0	57	0	78643200	59	5057
2026-01-05 01:05:35.45	347.00	75.54	-49.6	-53.1	12.4	3.73e-05	0	57	0	80740352	61	5533
2026-01-05 01:05:36.44	345.63	75.89	-49.4	-52.7	12.5	7.93e-05	0	57	0	82837504	61	5286
2026-01-05 01:05:37.42	344.20	76.23	-49.3	-52.1	13.3	2.89e-05	0	57	0	84934656	61	4975
2026-01-05 01:05:38.40	342.69	76.57	-49.5	-52.5	12.7	9.84e-05	0	57	0	85983232	61	5196
2026-01-05 01:05:39.39	341.09	76.89	-50.5	-54.7	10.4	1.09e-03	0	57	0	88080384	62	6290
2026-01-05 01:05:40.38	339.41	77.21	-50.0	-53.4	12.0	1.77e-03	0	57	0	90177536	62	5435
2026-01-05 01:05:41.37	337.64	77.52	-49.7	-52.9	12.4	1.85e-04	0	57	0	92274688	62	5143
2026-01-05 01:05:42.35	335.80	77.82	-49.6	-52.7	12.6	2.65e-04	0	57	0	94371840	62	5024
2026-01-05 01:05:43.34	333.84	78.10	-49.4	-52.3	12.9	9.76e-05	0	57	0	95420416	61	5075
2026-01-05 01:05:44.34	331.77	78.37	-49.5	-52.6	12.8	8.16e-05	0	57	0	97517568	61	5223
2026-01-05 01:05:45.33	329.63	78.63	-49.6	-52.7	12.5	1.01e-04	0	57	0	99614720	61	5317
2026-01-05 01:05:46.32	327.38	78.87	-49.8	-53.2	12.1	3.07e-04	0	57	0	101711872	62	5281
2026-01-05 01:05:47.30	325.06	79.09	-50.7	-55.0	10.4	2.10e-03	0	57	0	102760448	63	6149
2026-01-05 01:05:48.29	322.63	79.29	-51.0	-56.2	8.9	8.17e-03	0	57	0	104857600	64	6657
2026-01-05 01:05:49.28	320.10	79.47	-51.3	-57.5	7.7	7.89e-02	0	57	0	106954752	64	7729
2026-01-05 01:05:50.28	317.45	79.64	-51.4	-58.1	7.0	9.39e-02	0	57	0	109051904	64	8300
2026-01-05 01:05:51.26	314.79	79.78	-51.7	-58.8	6.4	2.38e-01	0	57	0	111149056	65	8521
2026-01-05 01:05:52.25	312.02	79.90	-51.7	-59.2	6.1	2.18e-01	0	57	0	112197632	65	8892
2026-01-05 01:05:53.23	309.22	79.99	-52.3	-62.0	4.4	1.04e+00	0	57	0	114294784	66	11660
2026-01-05 01:05:54.22	306.35	80.06	-52.1	-61.1	4.8	1.06e+00	0	57	0	116391936	66	10504
2026-01-05 01:05:55.21	303.44	80.11	-52.1	-61.1	4.9	6.81e-01	0	57	0	118489088	66	10420
2026-01-05 01:05:56.19	300.54	80.13	-52.2	-61.6	4.6	7.85e-01	0	57	0	119537664	66	11104
2026-01-05 01:05:57.18	297.61	80.13	-52.3	-62.6	4.3	1.29e+00	0	57	0	121634816	66	12427
2026-01-05 01:05:58.17	294.68	80.10	-52.4	-63.5	3.9	1.46e+00	0	57	104	121634816	66	13837
2026-01-05 01:05:59.15	291.81	80.04	-52.3	-62.5	4.2	1.38e+00	0	57	0	121634816	66	12326
2026-01-05 01:06:00.14	288.96	79.96	-52.4	-62.9	4.2	1.41e+00	0	57	104	121634816	66	12896
2026-01-05 01:06:01.13	286.15	79.86	-52.3	-62.1	4.4	1.27e+00	0	57	0	121634816	66	11720
2026-01-05 01:06:02.12	283.41	79.73	-52.2	-61.5	4.7	1.06e+00	0	57	0	2097152	66	10991
2026-01-05 01:06:03.11	280.74	79.58	-51.8	-59.7	5.8	7.38e-01	0	57	0	4194304	66	8878
2026-01-05 01:06:04.10	278.15	79.41	-51.9	-59.3	6.0	3.68e-01	0	57	0	6291456	66	8549
2026-01-05 01:06:05.09	275.66	79.22	-52.0	-60.2	5.3	4.03e-01	0	57	0	8388608	66	9422
2026-01-05 01:06:06.08	273.26	79.01	-51.8	-59.3	6.1	4.34e-01	0	57	0	9437184	66	8516
2026-01-05 01:06:07.08	270.93	78.78	-51.9	-59.9	5.6	3.10e-01	0	57	0	11534336	66	9080
2026-01-05 01:06:08.07	268.72	78.53	-52.3	-62.1	4.4	8.59e-01	0	57	0	13631488	66	11802
2026-01-05 01:06:09.06	266.61	78.27	-52.1	-61.4	4.7	1.14e+00	0	57	0	15728640	66	10814
2026-01-05 01:06:10.06	264.57	77.99	-52.0	-61.0	4.9	6.68e-01	0	57	0	16777216	66	10365
2026-01-05 01:06:11.04	262.67	77.70	-52.1	-61.8	4.5	7.82e-01	0	57	0	18874368	66	11347
2026-01-05 01:06:12.03	260.85	77.40	-52.2	-62.1	4.4	1.27e+00	0	57	0	20971520	66	11808
2026-01-05 01:06:13.03	259.09	77.09	-52.2	-62.0	4.5	1.10e+00	0	57	0	22020096	66	11585
2026-01-05 01:06:14.02	257.44	76.76	-52.3	-62.8	4.2	1.28e+00	0	57	0	24117248	66	12704
2026-01-05 01:06:15.00	255.89	76.43	-52.3	-63.9	3.8	1.41e+00	0	57	104	24117248	66	14438
2026-01-05 01:06:15.99	254.40	76.09	-52.1	-60.7	5.0	1.18e+00	0	57	0	24117248	66	10025
2026-01-05 01:06:16.97	253.00	75.75	-51.7	-58.6	6.5	4.23e-01	0	57	0	2097152	66	7850
2026-01-05 01:06:17.96	251.65	75.39	-51.2	-56.7	8.3	1.11e-01	0	57	0	4194304	65	6722
2026-01-05 01:06:18.95	250.37	75.03	-50.9	-55.6	9.4	3.67e-02	0	57	0	5242880	64	6253
2026-01-05 01:06:19.94	249.16	74.66	-50.2	-53.8	11.5	1.53e-03	0	57	0	7340032	63	5373
2026-01-05 01:06:20.93	248.00	74.29	-49.6	-52.7	12.6	2.34e-04	0	57	0	9437184	62	5009
2026-01-05 01:06:21.92	246.90	73.91	-49.2	-52.0	13.3	3.35e-05	0	57	0	11534336	61	4890
2026-01-05 01:06:22.90	245.86	73.53	-48.5	-50.8	14.5	1.14e-05	0	57	0	12582912	60	4542
2026-01-05 01:06:23.89	244.87	73.14	-47.8	-49.7	15.7	0.00e+00	0	57	0	14680064	58	4470
2026-01-05 01:06:24.88	243.92	72.75	-46.8	-48.4	16.9	0.00e+00	0	57	0	16777216	56	4294
2026-01-05 01:06:25.87	243.01	72.36	-47.5	-49.3	16.1	0.00e+00	0	57	0	18874368	56	4796
2026-01-05 01:06:26.87	242.14	71.96	-48.3	-50.6	14.6	0.00e+00	0	57	0	20971520	58	4967
2026-01-05 01:06:27.85	241.33	71.57	-48.1	-50.2	15.1	0.00e+00	0	57	0	22020096	59	4486
2026-01-05 01:06:28.84	240.54	71.17	-47.3	-49.0	16.2	0.00e+00	0	57	0	24117248	57	4352
2026-01-05 01:06:29.83	239.79	70.77	-46.3	-47.7	17.3	0.00e+00	0	57	0	26214400	55	4242
2026-01-05 01:06:30.82	239.07	70.37	-46.8	-48.5	16.7	0.00e+00	0	57	0	28311552	55	4615
2026-01-05 01:06:31.81	238.38	69.96	-48.3	-50.6	14.6	0.00e+00	0	57	0	29360128	58	4981
2026-01-05 01:06:32.80	237.72	69.56	-47.1	-48.9	16.3	0.00e+00	0	57	0	31457280	57	4320
2026-01-05 01:06:33.80	237.09	69.15	-47.5	-49.4	15.8	0.00e+00	0	57	0	33554432	57	4574
2026-01-05 01:06:34.79	236.48	68.74	-48.1	-50.4	14.9	0.00e+00	0	57	0	35651584	58	4845
2026-01-05 01:06:35.78	235.90	68.34	-48.5	-51.1	14.2	0.00e+00	0	57	0	36700160	58	5223
2026-01-05 01:06:36.78	235.34	67.93	-48.4	-50.8	14.3	7.00e-07	0	57	0	38797312	59	4806
2026-01-05 01:06:37.77	234.80	67.52	-47.8	-49.9	15.2	0.00e+00	0	57	0	40894464	58	4595
2026-01-05 01:06:38.76	234.29	67.11	-46.6	-48.3	16.9	0.00e+00	0	57	0	42991616	56	4264
2026-01-05 01:06:39.74	233.80	66.71	-46.0	-47.5	17.6	0.00e+00	0	57	0	45088768	55	4101
2026-01-05 01:06:40.74	233.32	66.30	-46.8	-48.4	16.7	0.00e+00	0	57	0	46137344	55	4594
2026-01-05 01:06:41.73	232.86	65.90	-47.5	-49.4	15.9	0.00e+00	0	57	0	48234496	56	4818
2026-01-05 01:06:42.72	232.42	65.49	-47.5	-49.5	15.7	0.00e+00	0	57	0	50331648	57	4618
2026-01-05 01:06:43.71	231.99	65.09	-47.8	-49.9	15.3	0.00e+00	0	57	0	52428800	57	4821
2026-01-05 01:06:44.70	231.58	64.69	-48.4	-50.8	14.4	0.00e+00	0	57	0	53477376	58	5094
2026-01-05 01:06:45.69	231.19	64.29	-47.9	-50.1	15.2	7.00e-07	0	57	0	55574528	58	4665
2026-01-05 01:06:46.67	230.81	63.89	-48.2	-50.5	14.9	0.00e+00	0	57	0	57671680	58	4890
2026-01-05 01:06:47.66	230.44	63.49	-49.9	-53.8	11.3	2.28e-05	0	57	0	59768832	61	6039
2026-01-05 01:06:48.65	230.08	63.09	-50.2	-54.4	10.8	1.87e-03	0	57	0	60817408	62	6086
2026-01-05 01:06:49.64	229.74	62.70	-49.6	-53.2	12.1	5.00e-04	0	57	0	62914560	62	5287
2026-01-05 01:06:50.63	229.40	62.30	-50.4	-54.9	10.3	9.70e-04	0	57	0	65011712	62	6474
2026-01-05 01:06:51.62	229.08	61.91	-49.9	-53.7	11.5	1.11e-02	0	57	0	67108864	62	5605
2026-01-05 01:06:52.61	228.77	61.51	-48.8	-51.5	13.7	2.67e-05	0	57	0	69206016	60	4888
2026-01-05 01:06:53.60	228.46	61.12	-48.4	-50.7	14.6	4.50e-06	0	57	0	70254592	59	4731
2026-01-05 01:06:54.59	228.17	60.74	-48.1	-50.1	15.1	0.00e+00	0	57	0	72351744	59	4440
2026-01-05 01:06:55.57	227.89	60.35	-47.9	-50.0	15.4	7.00e-07	0	57	0	74448896	58	4615
2026-01-05 01:06:56.55	227.62	59.97	-48.3	-50.4	14.9	0.00e+00	0	57	0	76546048	58	4869
2026-01-05 01:06:57.54	227.35	59.59	-48.6	-51.0	14.3	2.20e-06	0	57	0	77594624	59	4880
2026-01-05 01:06:58.54	227.09	59.20	-48.6	-50.9	14.3	0.00e+00	0	57	0	79691776	59	4845
2026-01-05 01:06:59.53	226.83	58.82	-48.7	-51.3	14.0	8.30e-06	0	57	0	81788928	60	4788
2026-01-05 01:07:00.52	226.59	58.44	-49.1	-51.8	13.5	4.50e-06	0	57	0	83886080	60	5078
2026-01-05 01:07:01.51	226.35	58.06	-49.2	-52.0	13.2	1.11e-04	0	57	0	84934656	61	4911
2026-01-05 01:07:02.50	226.12	57.69	-48.3	-50.5	14.8	7.00e-07	0	57	0	87031808	59	4619
2026-01-05 01:07:03.50	225.89	57.31	-47.9	-49.8	15.5	0.00e+00	0	57	0	89128960	58	4522
2026-01-05 01:07:04.48	225.67	56.95	-47.7	-49.6	15.7	0.00e+00	0	57	0	91226112	58	4430
2026-01-05 01:07:05.48	225.46	56.57	-48.6	-51.0	14.3	7.00e-07	0	57	0	93323264	58	5196
2026-01-05 01:07:06.47	225.25	56.21	-49.6	-53.0	12.4	1.52e-05	0	57	0	94371840	61	5479
2026-01-05 01:07:07.45	225.05	55.85	-49.5	-52.7	12.6	1.71e-04	0	57	0	96468992	61	5297
2026-01-05 01:07:08.44	224.86	55.48	-49.8	-53.4	11.9	2.94e-04	0	57	0	98566144	61	5762
2026-01-05 01:07:09.44	224.66	55.12	-49.5	-53.0	12.2	3.47e-04	0	57	0	100663296	61	5486
2026-01-05 01:07:10.43	224.48	54.76	-48.5	-51.1	14.1	1.90e-05	0	57	0	101711872	60	4690
2026-01-05 01:07:11.42	224.29	54.41	-48.2	-50.5	14.8	7.00e-07	0	57	0	103809024	59	4651
2026-01-05 01:07:12.41	224.12	54.05	-48.1	-50.3	14.9	7.00e-07	0	57	0	105906176	59	4533
2026-01-05 01:07:13.40	223.94	53.70	-47.7	-49.8	15.6	0.00e+00	0	57	0	108003328	58	4499
2026-01-05 01:07:14.39	223.77	53.35	-47.7	-49.8	15.5	0.00e+00	0	57	0	109051904	58	4494
2026-01-05 01:07:15.38	223.61	53.00	-48.4	-50.7	14.5	7.00e-07	0	57	0	111149056	58	5032
2026-01-05 01:07:16.36	223.45	52.66	-48.1	-50.4	14.8	0.00e+00	0	57	0	113246208	58	4834
2026-01-05 01:07:17.35	223.29	52.32	-48.1	-50.4	14.8	0.00e+00	0	57	0	115343360	58	4868
2026-01-05 01:07:18.34	223.14	51.98	-48.5	-50.9	14.4	0.00e+00	0	57	0	117440512	58	5114
2026-01-05 01:07:19.33	222.99	51.64	-48.5	-51.0	14.3	0.00e+00	0	57	0	118489088	58	5174
2026-01-05 01:07:20.32	222.84	51.30	-49.1	-52.0	13.1	1.90e-05	0	57	0	120586240	60	5217
2026-01-05 01:07:21.31	222.70	50.97	-48.9	-51.8	13.5	3.20e-05	0	57	0	122683392	60	5044
2026-01-05 01:07:22.30	222.56	50.63	-48.7	-51.3	13.9	1.29e-05	0	57	0	124780544	60	4812
2026-01-05 01:07:23.28	222.43	50.31	-49.2	-52.3	12.9	2.21e-05	0	57	0	125829120	60	5402
2026-01-05 01:07:24.27	222.29	49.98	-49.9	-53.6	11.6	3.65e-04	0	57	0	127926272	61	5894
2026-01-05 01:07:25.27	222.16	49.65	-49.8	-53.5	11.7	1.01e-03	0	57	0	130023424	61	5838
2026-01-05 01:07:26.25	222.03	49.33	-50.0	-53.7	11.3	1.14e-03	0	57	0	132120576	62	5647
2026-01-05 01:07:27.24	221.91	49.01	-49.3	-52.4	12.8	1.02e-04	0	57	0	133169152	61	5124
2026-01-05 01:07:28.22	221.79	48.69	-49.7	-53.1	12.0	7.70e-05	0	57	0	135266304	61	5591
2026-01-05 01:07:29.20	221.67	48.38	-49.9	-53.8	11.4	6.33e-04	0	57	0	137363456	62	5662
2026-01-05 01:07:30.18	221.55	48.07	-50.5	-55.1	9.6	1.37e-03	0	57	0	139460608	63	6260
2026-01-05 01:07:31.17	221.44	47.75	-50.7	-55.5	9.6	7.38e-03	0	57	0	141557760	63	6516
2026-01-05 01:07:32.16	221.32	47.44	-50.4	-54.7	10.3	8.13e-03	0	57	0	142606336	63	5931
2026-01-05 01:07:33.15	221.21	47.13	-49.9	-53.5	11.7	2.05e-03	0	57	0	144703488	62	5496
2026-01-05 01:07:34.13	221.11	46.83	-50.1	-53.8	11.3	1.31e-03	0	57	0	146800640	62	5719
2026-01-05 01:07:35.12	221.00	46.53	-50.1	-53.8	11.3	1.88e-03	0	57	0	148897792	62	5714
2026-01-05 01:07:36.12	220.90	46.22	-50.1	-54.0	11.2	1.11e-03	0	57	0	149946368	62	5812
2026-01-05 01:07:37.11	220.79	45.92	-49.1	-52.2	13.0	4.52e-04	0	57	0	152043520	61	4993
2026-01-05 01:07:38.10	220.69	45.62	-49.0	-51.8	13.5	1.14e-05	0	57	0	154140672	60	5043
2026-01-05 01:07:39.08	220.60	45.33	-49.3	-52.4	12.8	3.89e-05	0	57	0	156237824	60	5437
2026-01-05 01:07:40.08	220.50	45.03	-49.3	-52.3	12.9	6.10e-05	0	57	0	157286400	60	5366
2026-01-05 01:07:41.07	220.40	44.74	-49.6	-52.9	12.3	1.11e-04	0	57	0	159383552	61	5418
2026-01-05 01:07:42.06	220.31	44.45	-49.6	-53.1	12.2	2.27e-04	0	57	0	161480704	61	5533
2026-01-05 01:07:43.05	220.22	44.16	-49.6	-53.0	12.2	2.46e-04	0	57	0	163577856	61	5484
2026-01-05 01:07:44.04	220.13	43.88	-49.6	-53.1	12.1	3.33e-04	0	57	0	164626432	61	5572
2026-01-05 01:07:45.02	220.05	43.60	-49.8	-53.5	11.7	6.30e-04	0	57	0	166723584	61	5795
2026-01-05 01:07:46.02	219.96	43.31	-49.5	-52.8	12.4	1.31e-04	0	57	0	168820736	61	5352
2026-01-05 01:07:47.01	219.87	43.03	-49.8	-53.6	11.5	3.35e-04	0	57	0	170917888	61	5882
2026-01-05 01:07:48.00	219.79	42.75	-50.3	-54.7	10.3	2.09e-03	0	57	0	173015040	62	6317
2026-01-05 01:07:48.99	219.71	42.48	-51.2	-57.6	7.5	4.00e-02	0	57	0	174063616	64	7845
2026-01-05 01:07:49.98	219.63	42.20	-50.6	-55.7	9.2	6.11e-02	0	57	0	176160768	64	6280
2026-01-05 01:07:50.97	219.55	41.93	-49.7	-53.1	12.0	2.86e-03	0	57	0	178257920	62	5257
2026-01-05 01:07:51.97	219.47	41.66	-49.0	-51.7	13.5	1.30e-04	0	57	0	180355072	60	5018
2026-01-05 01:07:52.96	219.40	41.39	-49.3	-52.5	12.7	3.28e-05	0	57	0	181403648	60	5484
2026-01-05 01:07:53.94	219.32	41.13	-49.5	-52.8	12.4	1.73e-04	0	57	0	183500800	61	5375
2026-01-05 01:07:54.94	219.25	40.86	-49.3	-52.5	12.7	5.26e-05	0	57	0	185597952	61	5189
2026-01-05 01:07:55.93	219.18	40.60	-49.1	-52.1	13.1	9.61e-05	0	57	0	187695104	61	4948
2026-01-05 01:07:56.92	219.11	40.34	-49.0	-52.0	13.2	1.29e-05	0	57	0	189792256	60	5211
2026-01-05 01:07:57.92	219.04	40.08	-49.2	-52.3	12.9	3.96e-05	0	57	0	190840832	60	5388
2026-01-05 01:07:58.91	218.97	39.82	-49.4	-52.7	12.5	5.72e-05	0	57	0	192937984	60	5624
2026-01-05 01:07:59.90	218.90	39.56	-49.9	-53.8	11.2	1.86e-04	0	57	0	195035136	61	6052
2026-01-05 01:08:00.90	218.83	39.31	-49.6	-53.2	11.9	1.35e-03	0	57	0	197132288	61	5619
2026-01-05 01:08:01.88	218.77	39.06	-49.3	-52.5	12.6	2.20e-04	0	57	0	198180864	61	5197
2026-01-05 01:08:02.87	218.70	38.81	-48.8	-51.6	13.5	3.12e-05	0	57	0	200278016	60	4977
2026-01-05 01:08:03.86	218.64	38.56	-48.5	-51.0	14.2	2.20e-06	0	57	0	202375168	60	4632
2026-01-05 01:08:04.85	218.58	38.32	-48.7	-51.4	13.9	0.00e+00	0	57	0	204472320	60	4821
2026-01-05 01:08:05.84	218.52	38.07	-48.5	-51.0	14.3	7.00e-07	0	57	0	205520896	59	4889
2026-01-05 01:08:06.83	218.46	37.83	-48.9	-51.6	13.6	6.80e-06	0	57	0	207618048	59	5265
2026-01-05 01:08:07.82	218.40	37.59	-49.2	-52.2	13.0	4.80e-05	0	57	0	209715200	60	5310
2026-01-05 01:08:08.82	218.34	37.35	-49.8	-53.4	11.7	2.09e-04	0	57	0	211812352	61	5763
2026-01-05 01:08:09.82	218.28	37.11	-49.8	-53.5	11.6	6.07e-04	0	57	0	213909504	61	5828
2026-01-05 01:08:10.81	218.22	36.87	-50.0	-53.8	11.4	1.09e-03	0	57	0	214958080	62	5669
2026-01-05 01:08:11.79	218.17	36.64	-49.8	-53.4	11.7	6.48e-04	0	57	0	217055232	62	5443
2026-01-05 01:08:12.78	218.11	36.41	-49.8	-53.4	11.9	6.68e-04	0	57	0	219152384	62	5461
2026-01-05 01:08:13.76	218.06	36.18	-50.2	-54.1	11.0	1.95e-03	0	57	0	221249536	62	5905
2026-01-05 01:08:14.75	218.01	35.95	-50.3	-54.4	10.7	2.93e-03	0	57	0	222298112	62	6077
2026-01-05 01:08:15.74	217.96	35.72	-50.3	-54.5	10.6	2.74e-03	0	57	0	224395264	62	6135
2026-01-05 01:08:16.73	217.90	35.49	-50.2	-54.4	10.7	4.00e-03	0	57	0	226492416	62	6096
2026-01-05 01:08:17.73	217.85	35.27	-50.2	-54.4	10.7	4.06e-03	0	57	0	228589568	62	6075
2026-01-05 01:08:18.72	217.80	35.04	-49.9	-53.6	11.6	1.10e-03	0	57	0	230686720	62	5555
2026-01-05 01:08:19.71	217.75	34.82	-49.8	-53.3	11.8	9.05e-04	0	57	0	231735296	62	5388
2026-01-05 01:08:20.70	217.70	34.60	-49.8	-53.3	11.8	6.45e-04	0	57	0	233832448	62	5385
2026-01-05 01:08:21.69	217.66	34.38	-49.6	-52.8	12.3	3.84e-04	0	57	0	235929600	62	5097
2026-01-05 01:08:22.68	217.61	34.17	-49.5	-52.8	12.3	1.40e-04	0	57	0	238026752	62	5092
2026-01-05 01:08:23.66	217.56	33.95	-49.6	-53.0	12.1	1.81e-04	0	57	0	239075328	62	5209
2026-01-05 01:08:24.65	217.52	33.74	-49.7	-53.0	12.1	2.01e-04	0	57	0	241172480	62	5200
2026-01-05 01:08:25.63	217.47	33.53	-49.8	-53.4	11.8	2.84e-04	0	57	0	243269632	62	5441
2026-01-05 01:08:26.62	217.43	33.32	-50.0	-53.8	11.3	1.14e-03	0	57	0	245366784	62	5672
2026-01-05 01:08:27.61	217.38	33.11	-49.8	-53.5	11.6	6.57e-04	0	57	0	246415360	62	5495
2026-01-05 01:08:28.58	217.34	32.90	-49.8	-53.5	11.6	5.39e-04	0	57	0	248512512	62	5512
2026-01-05 01:08:29.57	217.30	32.70	-49.9	-53.5	11.6	7.16e-04	0	57	0	250609664	62	5523
2026-01-05 01:08:30.56	217.25	32.49	-49.9	-53.5	11.7	3.65e-04	0	57	0	252706816	62	5471
2026-01-05 01:08:31.55	217.21	32.29	-49.6	-53.0	12.3	8.23e-04	0	57	0	253755392	62	5164
2026-01-05 01:08:32.54	217.17	32.08	-49.8	-53.2	12.0	9.38e-04	0	57	0	255852544	62	5291
2026-01-05 01:08:33.53	217.13	31.88	-49.7	-53.0	12.1	5.94e-04	0	57	0	257949696	62	5193
2026-01-05 01:08:34.52	217.09	31.68	-49.2	-52.3	12.8	1.18e-04	0	57	0	260046848	61	5094
2026-01-05 01:08:35.51	217.05	31.48	-49.2	-52.2	12.9	5.26e-05	0	57	0	262144000	61	5016
2026-01-05 01:08:36.50	217.01	31.28	-49.0	-51.9	13.2	2.05e-05	0	57	0	263192576	61	4861
2026-01-05 01:08:37.48	216.97	31.09	-49.1	-51.9	13.2	2.21e-05	0	57	0	265289728	60	5154
2026-01-05 01:08:38.47	216.93	30.90	-49.1	-52.1	13.1	4.95e-05	0	57	0	267386880	60	5229
2026-01-05 01:08:39.46	216.90	30.70	-49.2	-52.1	13.1	2.36e-05	0	57	0	269484032	60	5252
2026-01-05 01:08:40.45	216.86	30.51	-49.1	-52.0	13.0	3.43e-05	0	57	0	270532608	60	5216
2026-01-05 01:08:41.44	216.82	30.32	-49.1	-52.0	13.2	2.05e-05	0	57	0	272629760	60	5168
2026-01-05 01:08:42.43	216.79	30.13	-49.0	-51.9	13.2	1.83e-05	0	57	0	274726912	60	5116
2026-01-05 01:08:43.42	216.75	29.94	-49.2	-52.2	12.9	2.97e-05	0	57	0	276824064	60	5294
2026-01-05 01:08:44.40	216.72	29.75	-49.2	-52.4	12.7	8.54e-05	0	57	0	277872640	60	5430
2026-01-05 01:08:45.40	216.68	29.57	-48.8	-51.5	13.5	2.36e-05	0	57	0	279969792	60	4886
2026-01-05 01:08:46.39	216.65	29.38	-48.7	-51.4	13.7	6.10e-06	0	57	0	282066944	60	4850
2026-01-05 01:08:47.38	216.61	29.20	-48.8	-51.5	13.6	9.90e-06	0	57	0	284164096	60	4877
2026-01-05 01:08:48.37	216.58	29.01	-48.6	-51.2	13.9	7.60e-06	0	57	0	286261248	60	4740
2026-01-05 01:08:49.36	216.55	28.83	-48.2	-50.5	14.6	7.00e-07	0	57	0	287309824	59	4624
2026-01-05 01:08:50.35	216.51	28.65	-47.7	-49.8	15.3	0.00e+00	0	57	0	289406976	58	4507
2026-01-05 01:08:51.34	216.48	28.47	-47.5	-49.4	15.7	0.00e+00	0	57	0	291504128	58	4317
2026-01-05 01:08:52.33	216.45	28.30	-47.6	-49.6	15.6	0.00e+00	0	57	0	293601280	58	4409
2026-01-05 01:08:53.32	216.42	28.12	-47.6	-49.6	15.6	0.00e+00	0	57	0	294649856	58	4402
2026-01-05 01:08:54.31	216.39	27.94	-47.6	-49.5	15.6	0.00e+00	0	57	0	296747008	58	4382
2026-01-05 01:08:55.30	216.36	27.77	-47.9	-50.0	15.2	0.00e+00	0	57	0	298844160	58	4630
2026-01-05 01:08:56.29	216.33	27.59	-47.9	-50.0	15.1	0.00e+00	0	57	0	300941312	58	4645
2026-01-05 01:08:57.28	216.30	27.42	-48.1	-50.3	14.9	0.00e+00	0	57	0	301989888	58	4768
2026-01-05 01:08:58.27	216.27	27.25	-48.5	-50.9	14.3	0.00e+00	0	57	0	304087040	59	4837
2026-01-05 01:08:59.27	216.24	27.08	-48.3	-50.6	14.6	0.00e+00	0	57	0	306184192	59	4676
2026-01-05 01:09:00.26	216.21	26.91	-47.8	-49.9	15.3	0.00e+00	0	57	0	308281344	58	4547
2026-01-05 01:09:01.25	216.18	26.74	-47.5	-49.4	15.7	0.00e+00	0	57	0	310378496	58	4305
2026-01-05 01:09:02.23	216.15	26.58	-47.3	-49.1	16.0	0.00e+00	0	57	0	311427072	57	4417
2026-01-05 01:09:03.22	216.12	26.41	-47.3	-49.1	16.0	0.00e+00	0	57	0	313524224	57	4399
2026-01-05 01:09:04.20	216.10	26.25	-47.1	-48.8	16.3	0.00e+00	0	57	0	315621376	57	4266
2026-01-05 01:09:05.19	216.07	26.08	-47.1	-48.9	16.2	0.00e+00	0	57	0	317718528	57	4314
2026-01-05 01:09:06.18	216.04	25.92	-46.9	-48.5	16.5	0.00e+00	0	57	0	318767104	56	4390
2026-01-05 01:09:07.17	216.01	25.76	-46.8	-48.5	16.6	0.00e+00	0	57	0	320864256	56	4365
2026-01-05 01:09:08.17	215.99	25.59	-46.9	-48.6	16.5	0.00e+00	0	57	0	322961408	56	4428
2026-01-05 01:09:09.15	215.96	25.43	-46.9	-48.7	16.4	0.00e+00	0	57	0	325058560	56	4448
2026-01-05 01:09:10.15	215.94	25.27	-47.1	-48.9	16.2	0.00e+00	0	57	0	326107136	56	4567
2026-01-05 01:09:11.13	215.91	25.12	-47.2	-49.0	16.1	0.00e+00	0	57	0	328204288	56	4619
2026-01-05 01:09:12.11	215.89	24.96	-47.2	-49.1	16.0	0.00e+00	0	57	0	330301440	56	4658
2026-01-05 01:09:13.11	215.86	24.80	-47.1	-48.9	16.1	0.00e+00	0	57	0	332398592	56	4596
2026-01-05 01:09:14.10	215.84	24.65	-47.3	-49.2	15.9	0.00e+00	0	57	0	334495744	56	4750
2026-01-05 01:09:15.09	215.81	24.49	-47.4	-49.4	15.7	0.00e+00	0	57	0	335544320	56	4834
2026-01-05 01:09:16.08	215.79	24.34	-47.5	-49.4	15.6	0.00e+00	0	57	0	337641472	56	4868
2026-01-05 01:09:17.07	215.76	24.18	-47.7	-49.7	15.3	0.00e+00	0	57	0	339738624	57	4753
2026-01-05 01:09:18.06	215.74	24.03	-47.9	-49.9	15.2	0.00e+00	0	57	0	341835776	57	4862
2026-01-05 01:09:19.04	215.72	23.88	-47.9	-49.9	15.2	0.00e+00	0	57	0	342884352	58	4582
2026-01-05 01:09:20.03	215.69	23.73	-48.4	-50.8	14.4	7.00e-07	0	57	0	344981504	58	5054
2026-01-05 01:09:21.02	215.67	23.58	-48.5	-50.8	14.3	7.00e-07	0	57	0	347078656	58	5097
2026-01-05 01:09:22.02	215.65	23.43	-48.7	-51.3	13.9	1.50e-06	0	57	0	349175808	59	5061
2026-01-05 01:09:23.01	215.63	23.29	-48.8	-51.4	13.7	3.80e-06	0	57	0	351272960	59	5117
2026-01-05 01:09:24.00	215.60	23.14	-48.5	-51.0	14.1	3.00e-06	0	57	0	352321536	59	4914
2026-01-05 01:09:25.00	215.58	22.99	-48.4	-50.8	14.3	0.00e+00	0	57	0	354418688	59	4782
2026-01-05 01:09:25.99	215.56	22.85	-48.4	-50.8	14.3	0.00e+00	0	57	0	356515840	59	4781
2026-01-05 01:09:26.98	215.54	22.70	-48.3	-50.6	14.5	7.00e-07	0	57	0	358612992	59	4701
2026-01-05 01:09:27.96	215.52	22.56	-48.3	-50.6	14.5	0.00e+00	0	57	0	359661568	59	4701
2026-01-05 01:09:28.94	215.50	22.42	-48.1	-50.3	14.8	7.00e-07	0	57	0	361758720	59	4538
2026-01-05 01:09:29.93	215.48	22.28	-47.8	-49.8	15.3	0.00e+00	0	57	0	363855872	58	4534
2026-01-05 01:09:30.91	215.46	22.14	-47.6	-49.5	15.6	0.00e+00	0	57	0	365953024	58	4346
2026-01-05 01:09:31.90	215.44	21.99	-47.7	-49.7	15.4	0.00e+00	0	56	0	367001600	58	4463
2026-01-05 01:09:32.89	215.42	21.85	-47.4	-49.2	15.8	0.00e+00	0	57	0	369098752	58	4217
2026-01-05 01:09:33.88	215.40	21.72	-47.1	-48.7	16.3	0.00e+00	0	57	0	371195904	57	4242
2026-01-05 01:09:34.87	215.38	21.58	-47.2	-48.9	16.2	0.00e+00	0	57	0	373293056	57	4301
2026-01-05 01:09:35.85	215.36	21.44	-47.1	-48.8	16.3	0.00e+00	0	57	0	374341632	57	4245
2026-01-05 01:09:36.85	215.34	21.30	-47.0	-48.6	16.5	0.00e+00	0	57	0	376438784	56	4426
2026-01-05 01:09:37.84	215.32	21.17	-47.1	-48.8	16.3	0.00e+00	0	57	0	378535936	56	4511
2026-01-05 01:09:38.82	215.30	21.03	-47.1	-48.8	16.3	0.00e+00	0	57	0	380633088	56	4502
2026-01-05 01:09:39.82	215.28	20.90	-47.1	-48.8	16.2	0.00e+00	0	57	0	382730240	56	4544
2026-01-05 01:09:40.80	215.26	20.76	-47.3	-49.0	16.0	0.00e+00	0	57	0	383778816	56	4627
2026-01-05 01:09:41.79	215.25	20.63	-47.3	-49.1	15.9	0.00e+00	0	57	0	385875968	56	4702
2026-01-05 01:09:42.79	215.23	20.50	-47.4	-49.3	15.8	0.00e+00	0	57	0	387973120	56	4766
2026-01-05 01:09:43.77	215.21	20.37	-47.4	-49.3	15.8	0.00e+00	0	57	0	390070272	56	4777
2026-01-05 01:09:44.76	215.19	20.24	-47.5	-49.4	15.6	0.00e+00	0	57	0	391118848	56	4866
2026-01-05 01:09:45.75	215.17	20.11	-47.5	-49.4	15.6	0.00e+00	0	57	0	393216000	57	4568
2026-01-05 01:09:46.74	215.16	19.98	-47.5	-49.3	15.7	0.00e+00	0	57	0	395313152	57	4543
2026-01-05 01:09:47.73	215.14	19.85	-47.0	-48.7	16.3	0.00e+00	0	57	0	397410304	57	4226
2026-01-05 01:09:48.71	215.12	19.72	-46.9	-48.6	16.5	0.00e+00	0	57	0	398458880	56	4396
2026-01-05 01:09:49.70	215.11	19.59	-47.0	-48.7	16.3	0.00e+00	0	56	0	400556032	56	4464
2026-01-05 01:09:50.68	215.09	19.47	-47.0	-48.6	16.4	0.00e+00	0	57	0	402653184	56	4440
2026-01-05 01:09:51.67	215.07	19.34	-47.1	-48.8	16.2	0.00e+00	0	57	0	404750336	56	4537
2026-01-05 01:09:52.65	215.06	19.21	-47.3	-49.1	15.9	0.00e+00	0	57	0	406847488	56	4679
2026-01-05 01:09:53.65	215.04	19.09	-47.2	-49.0	16.1	0.00e+00	0	57	0	407896064	56	4609
2026-01-05 01:09:54.63	215.02	18.97	-47.6	-49.5	15.5	0.00e+00	0	57	0	409993216	56	4895
2026-01-05 01:09:55.62	215.01	18.84	-47.7	-49.7	15.3	0.00e+00	0	57	0	412090368	57	4739
2026-01-05 01:09:56.62	214.99	18.72	-47.9	-50.0	15.0	0.00e+00	0	57	0	414187520	57	4887
2026-01-05 01:09:57.61	214.98	18.59	-48.2	-50.4	14.7	0.00e+00	0	57	0	415236096	58	4820
2026-01-05 01:09:58.59	214.96	18.47	-48.2	-50.4	14.6	0.00e+00	0	57	0	417333248	58	4867
2026-01-05 01:09:59.58	214.95	18.35	-48.5	-50.9	14.1	7.00e-07	0	57	0	419430400	59	4861
2026-01-05 01:10:00.57	214.93	18.23	-48.6	-51.1	13.9	5.30e-06	0	57	0	421527552	59	4968
2026-01-05 01:10:01.56	214.92	18.11	-48.7	-51.3	13.7	4.50e-06	0	57	0	422576128	59	5058
2026-01-05 01:10:02.54	214.90	17.99	-49.0	-51.7	13.3	6.10e-06	0	57	0	424673280	59	5284
2026-01-05 01:10:03.53	214.89	17.87	-49.3	-52.5	12.5	5.87e-05	0	57	0	426770432	60	5483
2026-01-05 01:10:04.52	214.87	17.75	-49.4	-52.7	12.3	2.24e-04	0	57	0	428867584	60	5608
2026-01-05 01:10:05.50	214.86	17.64	-49.5	-52.8	12.2	1.56e-04	0	57	0	429916160	60	5658
2026-01-05 01:10:06.49	214.84	17.52	-49.8	-53.4	11.5	4.55e-04	0	57	0	432013312	61	5766
2026-01-05 01:10:07.48	214.83	17.40	-49.7	-53.2	11.8	4.96e-04	0	57	0	434110464	61	5651
2026-01-05 01:10:08.47	214.82	17.29	-49.8	-53.5	11.4	7.67e-04	0	57	0	436207616	61	5833
2026-01-05 01:10:09.47	214.80	17.17	-50.1	-54.1	10.7	2.66e-03	0	57	0	438304768	62	5920
2026-01-05 01:10:10.45	214.79	17.05	-50.1	-54.1	10.8	3.20e-03	0	57	0	439353344	62	5874
2026-01-05 01:10:11.45	214.78	16.94	-50.1	-54.4	10.5	2.99e-03	0	57	0	441450496	62	6063
2026-01-05 01:10:12.44	214.76	16.82	-50.3	-54.5	10.4	4.32e-03	0	57	0	443547648	62	6147
2026-01-05 01:10:13.43	214.75	16.71	-50.1	-54.2	10.7	3.57e-03	0	57	0	445644800	62	5940
2026-01-05 01:10:14.42	214.74	16.60	-50.3	-54.6	10.3	3.32e-03	0	57	0	446693376	62	6254
2026-01-05 01:10:15.40	214.72	16.49	-50.4	-54.7	10.1	6.97e-03	0	57	0	448790528	62	6326
2026-01-05 01:10:16.39	214.71	16.37	-50.2	-54.3	10.6	4.22e-03	0	57	0	450887680	62	6012
2026-01-05 01:10:17.38	214.70	16.26	-50.3	-54.7	10.1	6.23e-03	0	57	0	452984832	62	6316
2026-01-05 01:10:18.37	214.68	16.15	-50.1	-54.2	10.6	5.40e-03	0	57	0	454033408	62	5982
2026-01-05 01:10:19.36	214.67	16.04	-50.3	-54.9	9.9	5.16e-03	0	57	0	456130560	62	6489
2026-01-05 01:10:20.35	214.66	15.93	-50.6	-55.6	9.2	1.75e-02	0	57	0	458227712	63	6614
2026-01-05 01:10:21.34	214.65	15.82	-50.5	-55.0	9.8	1.65e-02	0	57	0	460324864	63	6188
2026-01-05 01:10:22.33	214.63	15.71	-50.3	-54.6	10.2	7.38e-03	0	57	0	462422016	63	5912
2026-01-05 01:10:23.31	214.62	15.60	-50.2	-54.4	10.4	5.01e-03	0	57	0	463470592	63	5757
2026-01-05 01:10:24.31	214.61	15.49	-50.0	-53.9	10.9	3.28e-03	0	57	0	465567744	63	5430
2026-01-05 01:10:25.30	214.60	15.39	-50.1	-54.3	10.6	4.75e-03	0	57	0	467664896	63	5657
2026-01-05 01:10:26.29	214.59	15.28	-50.2	-54.5	10.4	5.48e-03	0	57	0	469762048	63	5799
2026-01-05 01:10:27.28	214.57	15.17	-50.4	-54.9	9.9	6.64e-03	0	57	0	470810624	63	6099
2026-01-05 01:10:28.26	214.56	15.07	-50.5	-55.1	9.7	1.02e-02	0	57	0	472907776	63	6208
2026-01-05 01:10:29.25	214.55	14.96	-50.3	-54.9	9.9	8.92e-03	0	57	0	475004928	63	6103
2026-01-05 01:10:30.24	214.54	14.86	-50.1	-54.2	10.5	4.96e-03	0	57	0	477102080	63	5656
2026-01-05 01:10:31.23	214.53	14.75	-50.1	-54.1	10.7	2.22e-03	0	57	0	478150656	63	5544
2026-01-05 01:10:32.22	214.52	14.65	-49.7	-53.4	11.4	1.54e-03	0	57	0	480247808	62	5426
2026-01-05 01:10:33.21	214.51	14.54	-49.7	-53.2	11.6	1.04e-03	0	57	0	482344960	62	5317
2026-01-05 01:10:34.20	214.50	14.44	-49.7	-53.3	11.6	6.34e-04	0	57	0	484442112	62	5379
2026-01-05 01:10:35.19	214.48	14.34	-49.7	-53.4	11.4	9.25e-04	0	57	0	486539264	62	5464
2026-01-05 01:10:36.17	214.47	14.24	-49.6	-53.2	11.6	6.33e-04	0	57	0	487587840	62	5288
2026-01-05 01:10:37.16	214.46	14.13	-49.8	-53.6	11.3	7.95e-04	0	57	0	489684992	62	5532
2026-01-05 01:10:38.15	214.45	14.03	-49.8	-53.6	11.3	1.94e-03	0	57	0	491782144	62	5553
2026-01-05 01:10:39.15	214.44	13.93	-49.6	-53.1	11.7	6.51e-04	0	57	0	493879296	62	5219
2026-01-05 01:10:40.13	214.43	13.83	-49.5	-52.9	12.0	4.72e-04	0	57	0	494927872	62	5142
2026-01-05 01:10:41.11	214.42	13.73	-49.5	-53.0	11.8	4.87e-04	0	57	0	497025024	62	5162
2026-01-05 01:10:42.10	214.41	13.63	-49.5	-53.0	11.8	4.52e-04	0	57	0	499122176	62	5192
2026-01-05 01:10:43.10	214.40	13.53	-49.7	-53.3	11.4	6.31e-04	0	57	0	501219328	62	5387
2026-01-05 01:10:44.08	214.39	13.43	-49.5	-52.9	11.9	5.37e-04	0	57	0	502267904	62	5109
2026-01-05 01:10:45.07	214.38	13.33	-49.3	-52.6	12.2	2.45e-04	0	57	0	504365056	61	5262
2026-01-05 01:10:46.07	214.37	13.23	-49.1	-52.2	12.7	1.68e-04	0	57	0	506462208	61	5001
2026-01-05 01:10:47.05	214.36	13.13	-49.0	-52.0	12.8	6.02e-05	0	57	0	508559360	60	5182
2026-01-05 01:10:48.04	214.35	13.04	-49.0	-52.1	12.7	5.87e-05	0	57	0	509607936	60	5242
2026-01-05 01:10:49.03	214.34	12.94	-48.9	-51.8	13.0	3.96e-05	0	57	0	511705088	60	5093
2026-01-05 01:10:50.02	214.33	12.84	-49.1	-52.1	12.7	5.56e-05	0	56	0	513802240	60	5264
2026-01-05 01:10:51.00	214.32	12.75	-49.0	-52.1	12.7	8.23e-05	0	57	0	515899392	60	5225
2026-01-05 01:10:51.99	214.31	12.65	-48.7	-51.5	13.4	3.50e-05	0	57	0	517996544	60	4873
2026-01-05 01:10:52.98	214.31	12.55	-48.6	-51.3	13.5	1.29e-05	0	57	0	519045120	60	4791
2026-01-05 01:10:53.96	214.30	12.46	-48.5	-51.3	13.5	1.29e-05	0	57	0	521142272	60	4772
2026-01-05 01:10:54.95	214.29	12.36	-48.6	-51.3	13.5	9.90e-06	0	56	0	523239424	60	4791
2026-01-05 01:10:55.94	214.28	12.27	-48.6	-51.4	13.4	9.90e-06	0	57	0	525336576	60	4829
2026-01-05 01:10:56.92	214.27	12.18	-48.7	-51.6	13.2	1.60e-05	0	57	0	526385152	60	4957
2026-01-05 01:10:57.91	214.26	12.08	-48.8	-51.7	13.2	2.05e-05	0	57	0	528482304	60	4986
2026-01-05 01:10:58.90	214.25	11.99	-48.8	-51.7	13.1	2.21e-05	0	57	0	530579456	60	5008
2026-01-05 01:10:59.89	214.24	11.90	-48.7	-51.5	13.2	1.75e-05	0	57	0	532676608	60	4903
2026-01-05 01:11:00.88	214.23	11.80	-48.7	-51.6	13.1	2.28e-05	0	57	0	533725184	60	4967
2026-01-05 01:11:01.87	214.23	11.71	-48.7	-51.6	13.2	3.73e-05	0	57	0	535822336	60	4936
2026-01-05 01:11:02.87	214.22	11.62	-48.9	-51.9	12.9	4.27e-05	0	57	0	537919488	60	5137
2026-01-05 01:11:03.86	214.21	11.52	-48.9	-51.8	12.9	4.57e-05	0	57	0	540016640	60	5090
2026-01-05 01:11:04.85	214.20	11.43	-49.0	-52.1	12.6	5.95e-05	0	57	0	542113792	60	5262
2026-01-05 01:11:05.83	214.19	11.34	-48.8	-51.8	12.9	6.71e-05	0	57	0	543162368	60	5090
2026-01-05 01:11:06.82	214.18	11.25	-48.8	-51.7	13.0	4.27e-05	0	57	0	545259520	60	5013
2026-01-05 01:11:07.81	214.18	11.16	-48.8	-51.9	12.9	3.96e-05	0	57	0	547356672	60	5108
2026-01-05 01:11:08.79	214.17	11.07	-48.9	-52.0	12.7	5.49e-05	0	57	0	549453824	60	5166
2026-01-05 01:11:09.78	214.16	10.98	-49.0	-52.1	12.7	6.10e-05	0	57	0	550502400	60	5222
2026-01-05 01:11:10.78	214.15	10.89	-49.1	-52.3	12.4	1.40e-04	0	57	0	552599552	60	5399
2026-01-05 01:11:11.78	214.14	10.80	-49.1	-52.3	12.4	2.41e-04	0	57	0	554696704	60	5343
2026-01-05 01:11:12.77	214.14	10.71	-48.9	-52.0	12.8	8.01e-05	0	57	0	556793856	60	5164
2026-01-05 01:11:13.75	214.13	10.62	-48.9	-51.9	12.8	7.93e-05	0	57	0	557842432	60	5116
2026-01-05 01:11:14.74	214.12	10.54	-48.8	-51.8	12.9	4.50e-05	0	57	0	559939584	60	5054
2026-01-05 01:11:15.73	214.11	10.45	-49.1	-52.3	12.4	7.70e-05	0	57	0	562036736	60	5373
2026-01-05 01:11:16.72	214.11	10.36	-49.1	-52.2	12.4	1.70e-04	0	57	0	564133888	60	5308
2026-01-05 01:11:17.71	214.10	10.27	-48.9	-51.9	12.8	7.85e-05	0	57	0	566231040	60	5117
2026-01-05 01:11:18.69	214.09	10.19	-48.9	-52.0	12.7	5.64e-05	0	57	0	567279616	60	5176
2026-01-05 01:11:19.68	214.08	10.10	-49.0	-52.0	12.6	9.68e-05	0	57	0	569376768	60	5205
2026-01-05 01:11:20.67	214.08	10.01	-49.1	-52.3	12.3	1.01e-04	0	57	0	571473920	60	5376
2026-01-05 01:11:21.66	214.07	9.93	-49.1	-52.4	12.2	2.52e-04	0	57	0	573571072	60	5446
2026-01-05 01:11:22.64	214.06	9.84	-49.0	-52.2	12.5	1.24e-04	0	57	0	574619648	60	5290
2026-01-05 01:11:23.63	214.06	9.76	-49.3	-52.7	12.0	2.12e-04	0	57	0	576716800	60	5594
2026-01-05 01:11:24.62	214.05	9.67	-49.3	-52.7	11.9	4.00e-04	0	57	0	578813952	60	5631
2026-01-05 01:11:25.61	214.04	9.59	-49.0	-52.1	12.5	2.05e-04	0	57	0	580911104	60	5271
2026-01-05 01:11:26.61	214.03	9.50	-49.0	-52.2	12.5	1.39e-04	0	57	0	583008256	60	5281
2026-01-05 01:11:27.59	214.03	9.42	-48.9	-51.9	12.7	1.01e-04	0	57	0	584056832	60	5147
2026-01-05 01:11:28.58	214.02	9.33	-48.9	-51.9	12.7	1.04e-04	0	57	0	586153984	60	5151
2026-01-05 01:11:29.57	214.01	9.25	-48.9	-51.8	12.8	7.85e-05	0	57	0	588251136	60	5099
2026-01-05 01:11:30.55	214.01	9.17	-48.7	-51.6	13.0	5.64e-05	0	57	0	589299712	60	4967
2026-01-05 01:11:31.54	214.00	9.08	-48.8	-51.9	12.6	5.03e-05	0	57	0	591396864	60	5137
2026-01-05 01:11:32.53	213.99	9.00	-48.8	-51.8	12.7	1.13e-04	0	57	0	593494016	60	5074
2026-01-05 01:11:33.52	213.99	8.92	-48.7	-51.6	13.0	5.72e-05	0	57	0	595591168	60	4943
2026-01-05 01:11:34.52	213.98	8.84	-48.8	-51.8	12.8	3.96e-05	0	57	0	597688320	60	5082
2026-01-05 01:11:35.51	213.98	8.75	-48.8	-51.9	12.7	9.91e-05	0	57	0	598736896	60	5106
2026-01-05 01:11:36.50	213.97	8.67	-48.8	-51.8	12.7	6.71e-05	0	57	0	600834048	60	5095
2026-01-05 01:11:37.50	213.96	8.59	-48.8	-51.9	12.7	7.70e-05	0	57	0	602931200	60	5133
2026-01-05 01:11:38.49	213.96	8.51	-48.8	-51.9	12.7	8.77e-05	0	57	0	605028352	60	5102
2026-01-05 01:11:39.47	213.95	8.43	-48.9	-52.0	12.5	8.62e-05	0	57	0	606076928	60	5178
2026-01-05 01:11:40.46	213.94	8.35	-49.0	-52.2	12.4	1.62e-04	0	57	0	608174080	60	5292
2026-01-05 01:11:41.44	213.94	8.27	-48.9	-52.1	12.4	1.24e-04	0	56	0	610271232	60	5245
2026-01-05 01:11:42.43	213.93	8.19	-49.1	-52.3	12.2	2.48e-04	0	57	0	612368384	60	5391
2026-01-05 01:11:43.42	213.93	8.11	-49.0	-52.3	12.1	2.08e-04	0	56	0	614465536	60	5397
2026-01-05 01:11:44.41	213.92	8.03	-49.2	-52.6	11.9	2.14e-04	0	57	0	615514112	60	5568
2026-01-05 01:11:45.40	213.91	7.95	-49.2	-52.7	11.8	5.16e-04	0	57	0	617611264	60	5613
2026-01-05 01:11:46.39	213.91	7.87	-49.0	-52.3	12.1	3.51e-04	0	57	0	619708416	60	5390
2026-01-05 01:11:47.38	213.90	7.79	-48.9	-52.1	12.4	1.27e-04	0	57	0	621805568	60	5237
2026-01-05 01:11:48.37	213.90	7.71	-48.9	-52.2	12.3	1.86e-04	0	57	0	622854144	60	5285
2026-01-05 01:11:49.36	213.89	7.63	-49.0	-52.2	12.3	2.19e-04	0	57	0	624951296	60	5318
2026-01-05 01:11:50.35	213.89	7.55	-48.9	-52.0	12.5	2.16e-04	0	57	0	627048448	60	5213
2026-01-05 01:11:51.34	213.88	7.48	-49.1	-52.5	11.9	2.40e-04	0	57	0	629145600	60	5503
2026-01-05 01:11:52.33	213.88	7.40	-49.1	-52.5	11.9	3.54e-04	0	57	0	630194176	60	5480
2026-01-05 01:11:53.32	213.87	7.32	-49.0	-52.4	12.0	3.58e-04	0	57	0	632291328	60	5422
2026-01-05 01:11:54.31	213.86	7.24	-49.0	-52.2	12.2	2.11e-04	0	57	0	634388480	60	5329
2026-01-05 01:11:55.30	213.86	7.17	-49.0	-52.4	12.0	2.51e-04	0	57	0	636485632	60	5415
2026-01-05 01:11:56.29	213.85	7.09	-49.0	-52.4	11.9	3.24e-04	0	57	0	638582784	60	5448
2026-01-05 01:11:57.27	213.85	7.01	-49.2	-52.7	11.8	4.31e-04	0	57	0	639631360	60	5606
2026-01-05 01:11:58.26	213.84	6.94	-49.1	-52.5	11.9	4.00e-04	0	57	0	641728512	60	5470
2026-01-05 01:11:59.25	213.84	6.86	-49.1	-52.7	11.7	4.68e-04	0	57	0	643825664	60	5612
2026-01-05 01:12:00.23	213.83	6.78	-49.0	-52.3	12.0	4.03e-04	0	57	0	645922816	60	5399
2026-01-05 01:12:01.22	213.83	6.71	-49.0	-52.4	12.0	3.78e-04	0	57	0	646971392	60	5410
2026-01-05 01:12:02.20	213.82	6.63	-49.1	-52.6	11.8	4.42e-04	0	57	0	649068544	60	5549
2026-01-05 01:12:03.19	213.82	6.56	-49.2	-52.8	11.5	5.73e-04	0	57	0	651165696	60	5709
2026-01-05 01:12:04.18	213.81	6.48	-49.1	-52.6	11.7	5.72e-04	0	57	0	653262848	60	5553
2026-01-05 01:12:05.17	213.81	6.41	-49.2	-52.8	11.4	6.79e-04	0	57	0	654311424	60	5721
2026-01-05 01:12:06.16	213.80	6.33	-49.2	-52.7	11.6	9.63e-04	0	57	0	656408576	60	5647
2026-01-05 01:12:07.15	213.80	6.26	-49.2	-52.8	11.4	6.51e-04	0	57	0	658505728	60	5704
2026-01-05 01:12:08.14	213.79	6.18	-49.3	-53.2	11.1	1.41e-03	0	57	0	660602880	60	5947
2026-01-05 01:12:09.13	213.79	6.11	-49.2	-52.9	11.4	1.63e-03	0	57	0	662700032	60	5749
2026-01-05 01:12:10.13	213.78	6.04	-49.2	-52.8	11.4	1.33e-03	0	57	0	663748608	60	5683
2026-01-05 01:12:11.12	213.78	5.96	-49.4	-53.3	10.9	1.54e-03	0	57	0	665845760	60	5998
2026-01-05 01:12:12.11	213.77	5.89	-49.3	-53.2	11.0	1.64e-03	0	57	0	667942912	60	5946
2026-01-05 01:12:13.10	213.77	5.82	-49.2	-53.1	11.1	1.55e-03	0	57	0	670040064	60	5858
2026-01-05 01:12:14.09	213.77	5.74	-49.2	-53.4	10.8	2.00e-03	0	57	0	671088640	60	6065
2026-01-05 01:12:15.07	213.76	5.67	-49.3	-53.3	10.9	2.37e-03	0	57	0	673185792	60	6014
2026-01-05 01:12:16.06	213.76	5.60	-49.4	-53.2	10.9	2.42e-03	0	57	0	675282944	60	5980
2026-01-05 01:12:17.05	213.75	5.53	-49.3	-53.2	11.0	2.19e-03	0	57	0	677380096	60	5968
2026-01-05 01:12:18.04	213.75	5.45	-49.3	-53.1	11.1	2.15e-03	0	57	0	678428672	60	5906
2026-01-05 01:12:19.03	213.74	5.38	-49.4	-53.4	10.7	2.28e-03	0	57	0	680525824	60	6124
2026-01-05 01:12:20.02	213.74	5.31	-49.4	-53.5	10.7	3.28e-03	0	57	0	682622976	60	6143
2026-01-05 01:12:21.01	213.73	5.24	-49.4	-53.6	10.5	2.92e-03	0	57	0	684720128	60	6217
2026-01-05 01:12:22.00	213.73	5.17	-49.5	-53.8	10.3	4.02e-03	0	57	0	685768704	60	6403
2026-01-05 01:12:22.98	213.73	5.10	-49.4	-53.4	10.7	3.64e-03	0	57	0	687865856	60	6088
2026-01-05 01:12:23.97	213.72	5.03	-50.6	-57.3	7.3	5.10e-03	0	57	0	689963008	63	8081
2026-01-05 01:12:24.97	213.72	4.95	-51.4	-65.1	3.8	1.49e+00	0	57	104	689963008	64	18522
2026-01-05 01:12:25.96	213.71	4.88	-51.3	-65.1	3.8	1.49e+00	0	57	104	689963008	64	18518
2026-01-05 01:12:26.95	213.71	4.81	-52.0	-65.8	3.8	1.49e+00	0	57	104	689963008	65	19005
2026-01-05 01:12:27.93	213.71	4.74	-52.2	-66.0	3.8	1.49e+00	0	57	104	689963008	66	18376
2026-01-05 01:12:28.92	213.70	4.67	-52.2	-66.1	3.8	1.49e+00	0	57	104	689963008	66	18524
2026-01-05 01:12:29.90	213.70	4.60	-52.3	-66.1	3.8	1.49e+00	0	57	104	689963008	66	18654
2026-01-05 01:12:30.88	213.69	4.53	-52.0	-65.9	3.8	1.49e+00	0	57	104	689963008	66	18137
2026-01-05 01:12:31.87	213.69	4.46	-52.3	-66.2	3.8	1.49e+00	0	57	104	689963008	66	18792
2026-01-05 01:12:32.85	213.69	4.40	-52.4	-66.2	3.8	1.49e+00	0	57	104	689963008	66	18843
2026-01-05 01:12:33.83	213.68	4.33	-52.4	-66.2	3.8	1.49e+00	0	57	104	689963008	66	18911
2026-01-05 01:12:34.82	213.68	4.26	-52.5	-66.2	3.8	1.49e+00	0	57	104	689963008	66	18897
2026-01-05 01:12:35.81	213.67	4.19	-52.4	-66.2	3.8	1.49e+00	0	57	104	689963008	66	18924
2026-01-05 01:12:36.81	213.67	4.12	-52.5	-66.3	3.8	1.49e+00	0	57	104	689963008	66	19007
2026-01-05 01:12:37.79	213.67	4.05	-52.5	-66.3	3.8	1.49e+00	0	57	104	689963008	66	19030
2026-01-05 01:12:38.78	213.66	3.98	-52.5	-66.3	3.8	1.49e+00	0	57	104	689963008	66	19045
2026-01-05 01:12:39.77	213.66	3.92	-52.5	-66.3	3.8	1.49e+00	0	57	104	689963008	66	19126
2026-01-05 01:12:40.77	213.66	3.85	-52.5	-66.3	3.8	1.49e+00	0	57	104	689963008	66	19100
2026-01-05 01:12:41.75	213.65	3.78	-52.5	-66.4	3.8	1.49e+00	0	57	104	689963008	66	19208
2026-01-05 01:12:42.74	213.65	3.71	-52.6	-66.4	3.8	1.49e+00	0	57	104	689963008	66	19206
2026-01-05 01:12:43.73	213.65	3.65	-52.6	-66.4	3.8	1.49e+00	0	57	104	689963008	67	18166
2026-01-05 01:12:44.72	213.64	3.58	-52.5	-66.4	3.8	1.49e+00	0	57	104	689963008	67	18188
2026-01-05 01:12:45.70	213.64	3.51	-52.6	-66.4	3.8	1.49e+00	0	57	104	689963008	67	18211
2026-01-05 01:12:46.69	213.63	3.44	-52.3	-66.4	3.8	1.49e+00	0	57	104	689963008	67	18173
2026-01-05 01:12:47.68	213.63	3.38	-52.3	-66.4	3.8	1.49e+00	0	57	104	689963008	67	18182
2026-01-05 01:12:48.67	213.63	3.31	-52.5	-66.4	3.8	1.49e+00	0	57	104	689963008	67	18203
2026-01-05 01:12:49.66	213.62	3.24	-52.5	-66.4	3.8	1.49e+00	0	57	104	689963008	67	18235
2026-01-05 01:12:50.65	213.62	3.18	-52.6	-66.4	3.8	1.49e+00	0	57	104	689963008	67	18244
2026-01-05 01:12:51.65	213.62	3.11	-52.6	-66.4	3.8	1.49e+00	0	57	104	689963008	67	18213
2026-01-05 01:12:52.62	213.61	3.05	-52.6	-66.4	3.8	1.49e+00	0	57	104	689963008	67	18209

#Closed at: 2026-01-05 01:12:53
#Recorded file [689 MB]: D:/Data/31026_260105_041224.dat