passes_logs/2026/01/05/R3.0SM8_Murmansk_STILSPACE/R3.0SM8_Murmansk_STILSPACE__20260105_065927_FENGYUN_3D_rec.log

#Pass ID: 20260105_065927_FENGYUN 3D
#Satellite: FENGYUN 3D
#Configuration: FENGYUN 3D
#almurnet v.1.7.20240730
#Start time: 2026-01-05 06:59:29

#Version: 2.2.20231116
#Station: R3.0SM8_Murmansk_STILSPACE
#Location: 33.092731 lon 68.902999 lat
#TLE: 1 43010U 17072A   26004.50247883 -.00000063  00000+0 -78815-5 0  9998
#TLE: 2 43010  98.9915 336.1565 0001968 126.3752 233.7605 14.19691805421760

#Time	Az	El	Level	Level2	SNR	BER	BlckErr	Temp	State	Recorded	gain1	gain2
2026-01-05 06:59:29.26	58.36	3.09	-52.4	-63.1	3.8	8.46e-01	0	46	0	0	66	13169
2026-01-05 06:59:30.24	58.30	3.15	-52.1	-62.9	3.8	8.46e-01	0	46	104	0	67	12150
2026-01-05 06:59:31.23	58.23	3.20	-52.0	-62.8	3.8	8.47e-01	0	46	104	0	67	12064
2026-01-05 06:59:32.22	58.16	3.26	-52.0	-62.7	3.8	8.46e-01	0	46	104	0	67	11919
2026-01-05 06:59:33.22	58.09	3.32	-51.8	-62.6	3.8	8.47e-01	0	46	104	0	66	12405
2026-01-05 06:59:34.20	58.02	3.38	-51.6	-62.3	3.8	8.46e-01	0	46	104	0	66	12029
2026-01-05 06:59:35.20	57.96	3.44	-51.5	-62.2	3.8	8.47e-01	0	47	104	0	66	11896
2026-01-05 06:59:36.19	57.89	3.50	-51.5	-62.2	3.8	8.46e-01	0	47	104	0	65	12579
2026-01-05 06:59:37.18	57.82	3.55	-51.5	-62.2	3.8	8.46e-01	0	47	104	0	65	12591
2026-01-05 06:59:38.17	57.75	3.61	-51.5	-62.1	3.8	8.46e-01	0	47	104	0	65	12513
2026-01-05 06:59:39.17	57.68	3.67	-51.3	-62.1	3.8	8.45e-01	0	47	104	0	65	12500
2026-01-05 06:59:40.16	57.61	3.73	-51.4	-62.1	3.8	8.46e-01	0	47	104	0	65	12384
2026-01-05 06:59:41.15	57.54	3.79	-51.4	-62.1	3.8	8.46e-01	0	47	104	0	65	12402
2026-01-05 06:59:42.14	57.47	3.85	-51.4	-62.1	3.8	8.46e-01	0	47	104	0	65	12386
2026-01-05 06:59:43.14	57.40	3.91	-51.4	-62.1	3.8	8.46e-01	0	47	104	0	65	12396
2026-01-05 06:59:44.12	57.33	3.97	-51.4	-62.1	3.8	8.47e-01	0	47	104	0	65	12499
2026-01-05 06:59:45.11	57.26	4.03	-51.5	-62.2	3.8	8.46e-01	0	47	104	0	65	12561
2026-01-05 06:59:46.11	57.18	4.09	-51.4	-62.1	3.8	8.47e-01	0	47	104	0	65	12504
2026-01-05 06:59:47.10	57.11	4.15	-51.4	-62.2	3.8	8.46e-01	0	48	104	0	65	12526
2026-01-05 06:59:48.09	57.04	4.21	-51.4	-62.1	3.8	8.46e-01	0	47	104	0	65	12406
2026-01-05 06:59:49.07	56.97	4.26	-51.4	-61.9	3.8	8.46e-01	0	48	104	0	65	12160
2026-01-05 06:59:50.07	56.89	4.32	-51.3	-61.6	3.8	8.45e-01	0	48	104	0	65	11815
2026-01-05 06:59:51.06	56.82	4.38	-51.4	-61.3	3.8	8.45e-01	0	48	104	0	65	11357
2026-01-05 06:59:52.05	56.75	4.44	-51.2	-60.7	3.8	8.46e-01	0	48	104	0	65	10541
2026-01-05 06:59:53.04	56.67	4.50	-51.1	-59.7	4.0	8.46e-01	0	48	104	0	65	9465
2026-01-05 06:59:54.03	56.60	4.56	-51.0	-58.7	4.2	8.41e-01	0	48	0	0	65	8403
2026-01-05 06:59:55.02	56.53	4.62	-50.8	-57.8	4.5	8.30e-01	0	48	0	0	64	8010
2026-01-05 06:59:56.01	56.45	4.68	-50.6	-56.8	4.9	7.93e-01	0	48	0	0	64	7186
2026-01-05 06:59:57.00	56.38	4.74	-50.4	-55.8	5.6	7.32e-01	0	48	0	0	63	6738
2026-01-05 06:59:57.98	56.30	4.80	-50.1	-54.9	6.2	4.05e-01	0	48	0	4194304	63	6111
2026-01-05 06:59:58.96	56.23	4.86	-49.7	-54.1	7.0	2.19e-01	0	48	0	10485760	62	5890
2026-01-05 06:59:59.95	56.15	4.92	-49.5	-53.6	7.4	1.59e-01	0	48	0	15728640	62	5579
2026-01-05 07:00:00.95	56.07	4.99	-49.4	-53.0	8.0	8.41e-02	0	49	0	20971520	61	5525
2026-01-05 07:00:01.94	56.00	5.05	-49.0	-52.3	8.7	4.92e-02	0	48	0	27262976	61	5071
2026-01-05 07:00:02.93	55.92	5.11	-49.1	-52.5	8.5	4.93e-02	0	49	0	32505856	61	5207
2026-01-05 07:00:03.92	55.84	5.17	-49.1	-52.4	8.6	5.12e-02	0	48	0	37748736	61	5136
2026-01-05 07:00:04.91	55.77	5.23	-49.0	-52.2	8.8	3.79e-02	0	48	0	42991616	61	5006
2026-01-05 07:00:05.90	55.69	5.29	-48.8	-52.0	9.0	3.03e-02	0	49	0	49283072	60	5200
2026-01-05 07:00:06.90	55.61	5.35	-48.7	-51.8	9.3	2.36e-02	0	49	0	54525952	60	5046
2026-01-05 07:00:07.89	55.53	5.41	-48.7	-51.7	9.4	2.25e-02	0	49	0	60817408	60	4992
2026-01-05 07:00:08.88	55.45	5.47	-48.7	-51.7	9.4	2.05e-02	0	49	0	66060288	60	4986
2026-01-05 07:00:09.87	55.37	5.54	-49.2	-52.7	8.4	3.46e-02	0	49	0	71303168	60	5638
2026-01-05 07:00:10.85	55.29	5.60	-48.8	-51.8	9.3	2.87e-02	0	49	0	76546048	60	5084
2026-01-05 07:00:11.85	55.21	5.66	-48.3	-50.9	10.3	1.08e-02	0	49	0	82837504	59	4854
2026-01-05 07:00:12.84	55.13	5.72	-47.8	-50.1	11.2	3.42e-03	0	49	0	88080384	58	4660
2026-01-05 07:00:13.83	55.05	5.78	-47.3	-49.4	11.8	8.04e-04	0	49	0	93323264	57	4561
2026-01-05 07:00:14.82	54.97	5.84	-46.9	-48.8	12.4	4.26e-04	0	49	0	99614720	57	4281
2026-01-05 07:00:15.81	54.89	5.91	-46.7	-48.5	12.7	1.10e-04	0	49	0	104857600	56	4370
2026-01-05 07:00:16.80	54.81	5.97	-46.3	-47.9	13.3	6.75e-05	0	49	0	110100480	55	4315
2026-01-05 07:00:17.80	54.72	6.03	-46.0	-47.5	13.6	1.48e-05	0	49	0	116391936	55	4144
2026-01-05 07:00:18.79	54.64	6.09	-45.6	-47.0	14.2	5.70e-06	0	50	0	121634816	54	4115
2026-01-05 07:00:19.78	54.56	6.16	-45.2	-46.5	14.7	0.00e+00	0	50	0	126877696	53	4108
2026-01-05 07:00:20.77	54.47	6.22	-45.0	-46.2	14.9	1.10e-06	0	50	0	133169152	53	3999
2026-01-05 07:00:21.76	54.39	6.28	-44.8	-46.1	15.1	0.00e+00	0	49	0	138412032	52	4154
2026-01-05 07:00:22.76	54.31	6.34	-44.8	-46.0	15.2	1.10e-06	0	50	0	143654912	52	4107
2026-01-05 07:00:23.74	54.22	6.41	-44.9	-46.2	15.0	0.00e+00	0	50	0	149946368	52	4209
2026-01-05 07:00:24.74	54.14	6.47	-44.8	-46.1	15.1	0.00e+00	0	50	0	155189248	52	4153
2026-01-05 07:00:25.73	54.05	6.53	-44.9	-46.1	15.1	0.00e+00	0	50	0	160432128	52	4189
2026-01-05 07:00:26.71	53.97	6.59	-44.8	-46.0	15.2	0.00e+00	0	50	0	165675008	52	4137
2026-01-05 07:00:27.70	53.88	6.66	-44.9	-46.1	15.1	0.00e+00	0	50	0	171966464	52	4163
2026-01-05 07:00:28.68	53.80	6.72	-44.8	-46.0	15.2	0.00e+00	0	50	0	177209344	52	4128
2026-01-05 07:00:29.67	53.71	6.78	-44.8	-46.0	15.3	0.00e+00	0	50	0	182452224	52	4108
2026-01-05 07:00:30.67	53.62	6.85	-45.0	-46.3	15.0	0.00e+00	0	50	0	188743680	52	4272
2026-01-05 07:00:31.66	53.53	6.91	-45.0	-46.3	15.0	0.00e+00	0	50	0	193986560	52	4265
2026-01-05 07:00:32.65	53.45	6.97	-45.0	-46.3	15.0	0.00e+00	0	50	0	199229440	52	4274
2026-01-05 07:00:33.64	53.36	7.04	-45.1	-46.4	14.9	0.00e+00	0	50	0	205520896	52	4305
2026-01-05 07:00:34.62	53.27	7.10	-44.9	-46.2	15.1	0.00e+00	0	50	0	210763776	52	4214
2026-01-05 07:00:35.61	53.18	7.16	-44.7	-45.9	15.4	0.00e+00	0	50	0	216006656	52	4059
2026-01-05 07:00:36.60	53.09	7.23	-44.8	-46.0	15.3	0.00e+00	0	50	0	222298112	52	4143
2026-01-05 07:00:37.59	53.00	7.29	-44.8	-46.1	15.2	0.00e+00	0	50	0	227540992	52	4148
2026-01-05 07:00:38.58	52.91	7.36	-44.8	-46.0	15.4	0.00e+00	0	50	0	232783872	52	4106
2026-01-05 07:00:39.57	52.82	7.42	-45.1	-46.4	14.9	0.00e+00	0	51	0	239075328	52	4312
2026-01-05 07:00:40.56	52.73	7.48	-44.9	-46.2	15.2	0.00e+00	0	51	0	244318208	52	4211
2026-01-05 07:00:41.54	52.64	7.55	-44.8	-46.0	15.3	0.00e+00	0	51	0	249561088	52	4124
2026-01-05 07:00:42.52	52.55	7.61	-44.7	-45.9	15.4	0.00e+00	0	51	0	254803968	52	4084
2026-01-05 07:00:43.51	52.45	7.68	-44.5	-45.7	15.7	0.00e+00	0	51	0	261095424	52	3985
2026-01-05 07:00:44.50	52.36	7.74	-44.5	-45.7	15.7	0.00e+00	0	51	0	266338304	52	3960
2026-01-05 07:00:45.49	52.27	7.81	-44.5	-45.7	15.7	0.00e+00	0	51	0	271581184	52	3967
2026-01-05 07:00:46.48	52.17	7.87	-44.6	-45.7	15.8	0.00e+00	0	51	0	277872640	51	4223
2026-01-05 07:00:47.47	52.08	7.93	-44.5	-45.6	15.8	0.00e+00	0	51	0	283115520	51	4186
2026-01-05 07:00:48.46	51.99	8.00	-44.5	-45.5	15.9	0.00e+00	0	51	0	288358400	51	4140
2026-01-05 07:00:49.44	51.89	8.06	-44.3	-45.4	16.1	0.00e+00	0	51	0	293601280	51	4078
2026-01-05 07:00:50.42	51.80	8.13	-44.4	-45.5	16.0	0.00e+00	0	51	0	299892736	51	4109
2026-01-05 07:00:51.40	51.70	8.19	-44.5	-45.6	16.0	0.00e+00	0	51	0	305135616	51	4146
2026-01-05 07:00:52.39	51.61	8.26	-44.5	-45.6	15.9	0.00e+00	0	51	0	310378496	51	4182
2026-01-05 07:00:53.38	51.51	8.32	-44.5	-45.6	15.9	0.00e+00	0	51	0	316669952	51	4184
2026-01-05 07:00:54.36	51.41	8.39	-44.4	-45.5	16.0	0.00e+00	0	51	0	321912832	51	4136
2026-01-05 07:00:55.35	51.32	8.45	-44.5	-45.6	15.9	0.00e+00	0	51	0	327155712	51	4175
2026-01-05 07:00:56.35	51.22	8.52	-44.5	-45.6	16.0	0.00e+00	0	51	0	332398592	51	4146
2026-01-05 07:00:57.34	51.12	8.59	-44.7	-45.8	15.9	0.00e+00	0	51	0	338690048	51	4250
2026-01-05 07:00:58.32	51.02	8.65	-44.8	-45.9	15.7	0.00e+00	0	51	0	343932928	51	4323
2026-01-05 07:00:59.32	50.92	8.72	-44.6	-45.8	15.8	0.00e+00	0	51	0	350224384	51	4246
2026-01-05 07:01:00.31	50.82	8.78	-44.6	-45.7	15.9	0.00e+00	0	51	0	355467264	51	4200
2026-01-05 07:01:01.30	50.72	8.85	-44.5	-45.6	16.0	0.00e+00	0	51	0	360710144	51	4191
2026-01-05 07:01:02.29	50.62	8.92	-44.6	-45.7	15.9	0.00e+00	0	51	0	365953024	51	4238
2026-01-05 07:01:03.28	50.52	8.98	-44.7	-45.8	15.8	0.00e+00	0	51	0	372244480	51	4263
2026-01-05 07:01:04.26	50.42	9.05	-44.7	-45.8	15.8	0.00e+00	0	51	0	377487360	51	4269
2026-01-05 07:01:05.26	50.31	9.12	-44.7	-45.8	15.8	0.00e+00	0	52	0	382730240	51	4252
2026-01-05 07:01:06.25	50.21	9.18	-44.5	-45.5	16.1	0.00e+00	0	51	0	389021696	51	4141
2026-01-05 07:01:07.24	50.11	9.25	-44.2	-45.3	16.3	0.00e+00	0	52	0	394264576	51	4019
2026-01-05 07:01:08.24	50.00	9.32	-44.1	-45.1	16.5	0.00e+00	0	52	0	399507456	51	3933
2026-01-05 07:01:09.23	49.90	9.38	-44.3	-45.4	16.2	0.00e+00	0	52	0	405798912	51	4063
2026-01-05 07:01:10.21	49.79	9.45	-44.5	-45.6	16.0	0.00e+00	0	52	0	411041792	51	4174
2026-01-05 07:01:11.20	49.69	9.52	-44.5	-45.5	16.0	0.00e+00	0	52	0	416284672	51	4145
2026-01-05 07:01:12.18	49.58	9.58	-44.4	-45.5	16.1	0.00e+00	0	52	0	421527552	51	4109
2026-01-05 07:01:13.17	49.48	9.65	-44.3	-45.4	16.3	0.00e+00	0	52	0	427819008	51	4064
2026-01-05 07:01:14.17	49.37	9.72	-44.4	-45.4	16.2	0.00e+00	0	52	0	433061888	51	4077
2026-01-05 07:01:15.16	49.26	9.79	-44.6	-45.6	16.0	0.00e+00	0	52	0	438304768	51	4190
2026-01-05 07:01:16.14	49.16	9.85	-44.5	-45.6	16.0	0.00e+00	0	52	0	444596224	51	4154
2026-01-05 07:01:17.13	49.05	9.92	-44.6	-45.7	16.0	0.00e+00	0	52	0	449839104	51	4198
2026-01-05 07:01:18.12	48.94	9.99	-44.6	-45.7	16.0	0.00e+00	0	52	0	455081984	51	4195
2026-01-05 07:01:19.11	48.83	10.05	-44.4	-45.5	16.2	0.00e+00	0	52	0	461373440	51	4115
2026-01-05 07:01:20.09	48.72	10.12	-44.3	-45.3	16.4	0.00e+00	0	52	0	466616320	51	4027
2026-01-05 07:01:21.08	48.61	10.19	-44.1	-45.1	16.6	0.00e+00	0	52	0	471859200	51	3937
2026-01-05 07:01:22.07	48.50	10.26	-44.1	-45.1	16.6	0.00e+00	0	52	0	478150656	51	3917
2026-01-05 07:01:23.06	48.39	10.33	-44.1	-45.1	16.6	0.00e+00	0	52	0	483393536	51	3922
2026-01-05 07:01:24.04	48.28	10.39	-44.0	-44.9	16.8	0.00e+00	0	52	0	488636416	50	4096
2026-01-05 07:01:25.04	48.16	10.46	-44.1	-45.1	16.6	0.00e+00	0	52	0	493879296	50	4158
2026-01-05 07:01:26.03	48.05	10.53	-44.3	-45.3	16.4	0.00e+00	0	52	0	500170752	50	4270
2026-01-05 07:01:27.02	47.94	10.60	-43.8	-44.8	16.9	0.00e+00	0	52	0	505413632	50	4019
2026-01-05 07:01:28.01	47.82	10.67	-43.7	-44.6	17.1	0.00e+00	0	52	0	510656512	50	3945
2026-01-05 07:01:28.99	47.71	10.73	-43.8	-44.7	17.0	0.00e+00	0	52	0	516947968	50	3980
2026-01-05 07:01:29.98	47.59	10.80	-43.8	-44.8	16.9	0.00e+00	0	52	0	522190848	50	4019
2026-01-05 07:01:30.97	47.48	10.87	-43.7	-44.6	17.1	0.00e+00	0	52	0	527433728	50	3949
2026-01-05 07:01:31.97	47.36	10.94	-43.7	-44.7	17.0	0.00e+00	0	53	0	533725184	50	3972
2026-01-05 07:01:32.95	47.24	11.01	-44.0	-45.0	16.8	0.00e+00	0	53	0	538968064	50	4107
2026-01-05 07:01:33.94	47.13	11.08	-43.7	-44.7	17.1	0.00e+00	0	52	0	544210944	50	3974
2026-01-05 07:01:34.94	47.01	11.15	-43.6	-44.6	17.2	0.00e+00	0	53	0	550502400	50	3921
2026-01-05 07:01:35.93	46.89	11.22	-43.7	-44.7	17.0	0.00e+00	0	53	0	555745280	50	3976
2026-01-05 07:01:36.91	46.77	11.28	-44.0	-45.0	16.8	0.00e+00	0	52	0	560988160	50	4109
2026-01-05 07:01:37.90	46.65	11.35	-43.8	-44.7	17.0	0.00e+00	0	53	0	566231040	50	3972
2026-01-05 07:01:38.89	46.53	11.42	-43.7	-44.6	17.1	0.00e+00	0	53	0	572522496	50	3925
2026-01-05 07:01:39.88	46.41	11.49	-43.7	-44.6	17.2	0.00e+00	0	53	0	577765376	50	3942
2026-01-05 07:01:40.87	46.29	11.56	-43.9	-44.8	16.9	0.00e+00	0	53	0	583008256	50	4043
2026-01-05 07:01:41.86	46.17	11.63	-44.1	-45.0	16.7	0.00e+00	0	53	0	589299712	50	4136
2026-01-05 07:01:42.84	46.04	11.70	-43.8	-44.7	17.1	0.00e+00	0	53	0	594542592	50	3978
2026-01-05 07:01:43.83	45.92	11.77	-43.7	-44.6	17.2	0.00e+00	0	53	0	599785472	50	3932
2026-01-05 07:01:44.81	45.80	11.84	-43.5	-44.4	17.4	0.00e+00	0	53	0	605028352	50	3829
2026-01-05 07:01:45.80	45.67	11.91	-43.6	-44.5	17.2	0.00e+00	0	53	0	611319808	50	3910
2026-01-05 07:01:46.78	45.55	11.98	-43.8	-44.7	17.0	0.00e+00	0	53	0	616562688	50	3998
2026-01-05 07:01:47.78	45.42	12.05	-43.6	-44.5	17.3	0.00e+00	0	53	0	621805568	50	3885
2026-01-05 07:01:48.77	45.30	12.12	-43.3	-44.2	17.6	0.00e+00	0	53	0	628097024	49	3985
2026-01-05 07:01:49.76	45.17	12.19	-43.5	-44.4	17.4	0.00e+00	0	53	0	633339904	49	4066
2026-01-05 07:01:50.75	45.04	12.26	-43.4	-44.3	17.5	0.00e+00	0	53	0	638582784	49	4011
2026-01-05 07:01:51.74	44.91	12.33	-43.6	-44.4	17.3	0.00e+00	0	53	0	644874240	49	4095
2026-01-05 07:01:52.73	44.78	12.40	-43.5	-44.4	17.4	0.00e+00	0	53	0	650117120	49	4078
2026-01-05 07:01:53.73	44.65	12.47	-43.5	-44.4	17.4	0.00e+00	0	53	0	655360000	49	4068
2026-01-05 07:01:54.71	44.53	12.54	-43.6	-44.6	17.3	0.00e+00	0	53	0	660602880	49	4148
2026-01-05 07:01:55.70	44.39	12.61	-43.8	-44.7	17.1	0.00e+00	0	53	0	666894336	49	4210
2026-01-05 07:01:56.69	44.26	12.68	-43.6	-44.5	17.2	0.00e+00	0	53	0	672137216	49	4122
2026-01-05 07:01:57.67	44.13	12.75	-43.4	-44.3	17.5	0.00e+00	0	53	0	678428672	49	4028
2026-01-05 07:01:58.67	44.00	12.82	-43.4	-44.3	17.5	0.00e+00	0	53	0	683671552	49	4025
2026-01-05 07:01:59.65	43.87	12.89	-43.2	-44.1	17.7	0.00e+00	0	53	0	688914432	49	3917
2026-01-05 07:02:00.64	43.73	12.96	-43.2	-44.1	17.7	0.00e+00	0	53	0	694157312	49	3929
2026-01-05 07:02:01.63	43.60	13.03	-43.3	-44.2	17.6	0.00e+00	0	53	0	700448768	49	3969
2026-01-05 07:02:02.63	43.46	13.10	-43.4	-44.3	17.5	0.00e+00	0	53	0	705691648	49	4013
2026-01-05 07:02:03.62	43.33	13.17	-43.4	-44.2	17.5	0.00e+00	0	53	0	710934528	49	3988
2026-01-05 07:02:04.61	43.19	13.24	-43.1	-43.9	17.9	0.00e+00	0	53	0	717225984	49	3839
2026-01-05 07:02:05.60	43.05	13.31	-43.0	-43.8	18.0	0.00e+00	0	53	0	722468864	48	4043
2026-01-05 07:02:06.58	42.91	13.38	-43.0	-43.8	18.0	0.00e+00	0	53	0	727711744	48	4029
2026-01-05 07:02:07.57	42.78	13.45	-43.0	-43.8	18.0	0.00e+00	0	53	0	734003200	48	4030
2026-01-05 07:02:08.56	42.64	13.52	-43.0	-43.8	18.0	0.00e+00	0	53	0	739246080	48	4022
2026-01-05 07:02:09.54	42.50	13.59	-42.9	-43.8	18.1	0.00e+00	0	53	0	744488960	48	4007
2026-01-05 07:02:10.53	42.36	13.67	-42.9	-43.7	18.1	0.00e+00	0	53	0	750780416	48	3995
2026-01-05 07:02:11.52	42.22	13.74	-42.9	-43.7	18.1	0.00e+00	0	54	0	756023296	48	3992
2026-01-05 07:02:12.51	42.07	13.81	-43.1	-43.9	17.9	0.00e+00	0	53	0	761266176	48	4080
2026-01-05 07:02:13.50	41.93	13.88	-43.3	-44.1	17.7	0.00e+00	0	54	0	766509056	48	4190
2026-01-05 07:02:14.49	41.79	13.95	-43.3	-44.2	17.7	0.00e+00	0	54	0	772800512	48	4196
2026-01-05 07:02:15.47	41.65	14.02	-43.2	-44.1	17.7	0.00e+00	0	54	0	778043392	48	4158
2026-01-05 07:02:16.47	41.50	14.09	-43.4	-44.3	17.6	0.00e+00	0	54	0	783286272	48	4250
2026-01-05 07:02:17.45	41.36	14.16	-43.4	-44.3	17.6	0.00e+00	0	54	0	789577728	48	4274
2026-01-05 07:02:18.44	41.21	14.23	-43.2	-44.1	17.8	0.00e+00	0	54	0	794820608	48	4169
2026-01-05 07:02:19.42	41.06	14.30	-43.1	-44.0	17.9	0.00e+00	0	54	0	800063488	48	4107
2026-01-05 07:02:20.41	40.92	14.37	-43.1	-43.9	17.9	0.00e+00	0	54	0	805306368	48	4081
2026-01-05 07:02:21.40	40.77	14.45	-43.3	-44.2	17.7	0.00e+00	0	54	0	811597824	48	4197
2026-01-05 07:02:22.39	40.62	14.52	-43.4	-44.3	17.6	0.00e+00	0	54	0	816840704	48	4259
2026-01-05 07:02:23.38	40.47	14.59	-43.1	-43.9	17.9	0.00e+00	0	54	0	822083584	48	4076
2026-01-05 07:02:24.36	40.32	14.66	-42.9	-43.7	18.2	0.00e+00	0	54	0	828375040	48	3969
2026-01-05 07:02:25.35	40.17	14.73	-42.5	-43.3	18.6	0.00e+00	0	54	0	833617920	48	3801
2026-01-05 07:02:26.34	40.02	14.80	-42.5	-43.3	18.6	0.00e+00	0	54	0	838860800	48	3791
2026-01-05 07:02:27.32	39.86	14.87	-42.6	-43.3	18.5	0.00e+00	0	54	0	845152256	48	3824
2026-01-05 07:02:28.31	39.71	14.94	-42.5	-43.3	18.6	0.00e+00	0	54	0	850395136	48	3791
2026-01-05 07:02:29.28	39.56	15.01	-42.5	-43.3	18.6	0.00e+00	0	54	0	855638016	48	3792
2026-01-05 07:02:30.26	39.41	15.08	-42.6	-43.4	18.4	0.00e+00	0	54	0	860880896	48	3841
2026-01-05 07:02:31.25	39.25	15.15	-42.3	-43.0	18.7	0.00e+00	0	54	0	867172352	47	3911
2026-01-05 07:02:32.25	39.09	15.23	-42.2	-43.0	18.7	0.00e+00	0	54	0	872415232	47	3886
2026-01-05 07:02:33.24	38.94	15.30	-42.3	-43.0	18.6	0.00e+00	0	54	0	877658112	47	3893
2026-01-05 07:02:34.22	38.78	15.37	-42.2	-43.0	18.7	0.00e+00	0	54	0	883949568	47	3878
2026-01-05 07:02:35.21	38.62	15.44	-42.3	-43.1	18.6	0.00e+00	0	54	0	889192448	47	3918
2026-01-05 07:02:36.20	38.46	15.51	-42.5	-43.3	18.5	0.00e+00	0	54	0	894435328	47	4020
2026-01-05 07:02:37.19	38.30	15.58	-42.4	-43.1	18.6	0.00e+00	0	54	0	899678208	47	3956
2026-01-05 07:02:38.19	38.14	15.65	-42.6	-43.4	18.4	0.00e+00	0	54	0	905969664	47	4058
2026-01-05 07:02:39.17	37.98	15.72	-42.7	-43.5	18.2	0.00e+00	0	54	0	911212544	47	4113
2026-01-05 07:02:40.17	37.81	15.80	-42.6	-43.3	18.3	0.00e+00	0	54	0	917504000	47	4047
2026-01-05 07:02:41.15	37.65	15.87	-42.7	-43.5	18.2	0.00e+00	0	54	0	922746880	47	4138
2026-01-05 07:02:42.15	37.48	15.94	-42.7	-43.6	18.2	0.00e+00	0	54	0	927989760	47	4151
2026-01-05 07:02:43.14	37.32	16.01	-42.8	-43.7	18.1	0.00e+00	0	54	0	933232640	47	4200
2026-01-05 07:02:44.13	37.15	16.08	-43.0	-43.9	17.9	0.00e+00	0	54	0	939524096	47	4308
2026-01-05 07:02:45.12	36.99	16.15	-42.8	-43.6	18.1	0.00e+00	0	54	0	944766976	47	4152
2026-01-05 07:02:46.10	36.82	16.22	-42.6	-43.4	18.3	0.00e+00	0	54	0	950009856	47	4074
2026-01-05 07:02:47.09	36.65	16.29	-42.6	-43.4	18.4	0.00e+00	0	54	0	956301312	47	4057
2026-01-05 07:02:48.09	36.48	16.36	-42.6	-43.4	18.4	0.00e+00	0	54	0	961544192	47	4069
2026-01-05 07:02:49.08	36.31	16.43	-42.5	-43.3	18.5	0.00e+00	0	54	0	966787072	47	4018
2026-01-05 07:02:50.07	36.14	16.50	-42.3	-43.1	18.7	0.00e+00	0	54	0	973078528	47	3922
2026-01-05 07:02:51.05	35.97	16.57	-42.2	-42.9	18.8	0.00e+00	0	54	0	978321408	47	3847
2026-01-05 07:02:52.05	35.80	16.64	-42.2	-43.0	18.8	0.00e+00	0	54	0	983564288	47	3879
2026-01-05 07:02:53.04	35.62	16.71	-42.1	-42.9	18.8	0.00e+00	0	54	0	989855744	47	3847
2026-01-05 07:02:54.03	35.45	16.78	-42.3	-43.1	18.7	0.00e+00	0	54	0	995098624	47	3934
2026-01-05 07:02:55.03	35.27	16.86	-42.5	-43.3	18.4	0.00e+00	0	54	0	1000341504	47	4040
2026-01-05 07:02:56.02	35.10	16.93	-42.5	-43.3	18.4	0.00e+00	0	54	0	1006632960	47	4042
2026-01-05 07:02:57.01	34.92	17.00	-42.5	-43.3	18.5	0.00e+00	0	54	0	1011875840	47	4044
2026-01-05 07:02:58.00	34.74	17.07	-42.5	-43.3	18.5	0.00e+00	0	55	0	1017118720	47	4009
2026-01-05 07:02:58.98	34.57	17.14	-42.6	-43.3	18.4	0.00e+00	0	55	0	1022361600	47	4044
2026-01-05 07:02:59.97	34.39	17.21	-42.6	-43.4	18.3	0.00e+00	0	54	0	1028653056	47	4084
2026-01-05 07:03:00.97	34.21	17.28	-42.3	-43.1	18.7	0.00e+00	0	55	0	1033895936	47	3918
2026-01-05 07:03:01.95	34.03	17.34	-42.5	-43.3	18.5	0.00e+00	0	55	0	1039138816	47	4019
2026-01-05 07:03:02.94	33.85	17.41	-42.9	-43.7	18.1	0.00e+00	0	55	0	1045430272	47	4222
2026-01-05 07:03:03.93	33.66	17.48	-42.7	-43.5	18.2	0.00e+00	0	55	0	1050673152	47	4123
2026-01-05 07:03:04.92	33.48	17.55	-43.0	-43.9	17.9	0.00e+00	0	55	0	1055916032	47	4310
2026-01-05 07:03:05.91	33.30	17.62	-42.8	-43.6	18.3	0.00e+00	0	55	0	1061158912	48	3934
2026-01-05 07:03:06.89	33.11	17.69	-43.0	-43.8	18.1	0.00e+00	0	55	0	1067450368	48	4042
2026-01-05 07:03:07.88	32.93	17.76	-42.7	-43.5	18.5	0.00e+00	0	55	0	1072693248	48	3879
2026-01-05 07:03:08.87	32.74	17.83	-42.3	-43.0	18.7	0.00e+00	0	55	0	1078984704	47	3903
2026-01-05 07:03:09.86	32.55	17.90	-42.1	-42.9	18.9	0.00e+00	0	55	0	1084227584	47	3829
2026-01-05 07:03:10.85	32.36	17.97	-42.1	-42.9	18.9	0.00e+00	0	55	0	1089470464	47	3830
2026-01-05 07:03:11.83	32.18	18.03	-42.1	-42.8	19.0	0.00e+00	0	55	0	1094713344	47	3804
2026-01-05 07:03:12.82	31.99	18.10	-42.2	-42.9	18.9	0.00e+00	0	55	0	1101004800	47	3855
2026-01-05 07:03:13.81	31.80	18.17	-42.1	-42.8	18.9	0.00e+00	0	55	0	1106247680	47	3810
2026-01-05 07:03:14.81	31.60	18.24	-42.3	-43.1	18.7	0.00e+00	0	55	0	1111490560	47	3919
2026-01-05 07:03:15.80	31.41	18.31	-42.2	-42.9	18.9	0.00e+00	0	55	0	1117782016	47	3854
2026-01-05 07:03:16.79	31.22	18.38	-41.9	-42.6	19.2	0.00e+00	0	55	0	1123024896	46	3917
2026-01-05 07:03:17.78	31.02	18.44	-41.5	-42.2	19.5	0.00e+00	0	55	0	1128267776	46	3744
2026-01-05 07:03:18.77	30.83	18.51	-41.3	-41.9	19.8	0.00e+00	0	55	0	1134559232	45	3868
2026-01-05 07:03:19.75	30.63	18.58	-41.3	-41.9	19.8	0.00e+00	0	55	0	1139802112	45	3856
2026-01-05 07:03:20.74	30.43	18.64	-41.2	-41.9	19.9	0.00e+00	0	55	0	1145044992	45	3845
2026-01-05 07:03:21.73	30.24	18.71	-41.2	-41.9	19.9	0.00e+00	0	55	0	1150287872	45	3831
2026-01-05 07:03:22.71	30.04	18.78	-41.2	-41.8	19.9	0.00e+00	0	55	0	1156579328	45	3812
2026-01-05 07:03:23.70	29.84	18.84	-41.2	-41.9	19.9	0.00e+00	0	55	0	1161822208	45	3834
2026-01-05 07:03:24.68	29.64	18.91	-41.4	-42.0	19.7	0.00e+00	0	55	0	1167065088	45	3910
2026-01-05 07:03:25.67	29.44	18.98	-41.4	-42.1	19.6	0.00e+00	0	55	0	1173356544	45	3946
2026-01-05 07:03:26.67	29.23	19.04	-41.5	-42.1	19.6	0.00e+00	0	55	0	1178599424	45	3946
2026-01-05 07:03:27.66	29.03	19.11	-41.5	-42.2	19.6	0.00e+00	0	55	0	1183842304	45	3966
2026-01-05 07:03:28.65	28.83	19.17	-41.4	-42.0	19.7	0.00e+00	0	55	0	1189085184	45	3904
2026-01-05 07:03:29.63	28.62	19.24	-41.3	-41.9	19.8	0.00e+00	0	55	0	1195376640	45	3858
2026-01-05 07:03:30.62	28.42	19.30	-41.3	-41.9	19.8	0.00e+00	0	55	0	1200619520	45	3857
2026-01-05 07:03:31.61	28.21	19.37	-41.2	-41.8	19.9	0.00e+00	0	55	0	1205862400	45	3824
2026-01-05 07:03:32.60	28.00	19.43	-41.3	-42.0	19.7	0.00e+00	0	55	0	1212153856	45	3891
2026-01-05 07:03:33.59	27.79	19.50	-41.4	-42.1	19.7	0.00e+00	0	55	0	1217396736	45	3925
2026-01-05 07:03:34.58	27.58	19.56	-41.3	-42.0	19.8	0.00e+00	0	55	0	1222639616	45	3880
2026-01-05 07:03:35.57	27.37	19.63	-41.4	-42.0	19.6	0.00e+00	0	55	0	1228931072	45	3913
2026-01-05 07:03:36.55	27.16	19.69	-41.6	-42.3	19.5	0.00e+00	0	55	0	1234173952	45	4022
2026-01-05 07:03:37.54	26.95	19.75	-41.6	-42.3	19.5	0.00e+00	0	55	0	1239416832	45	4010
2026-01-05 07:03:38.53	26.74	19.82	-41.4	-42.0	19.7	0.00e+00	0	55	0	1245708288	45	3912
2026-01-05 07:03:39.51	26.53	19.88	-41.3	-41.9	19.8	0.00e+00	0	55	0	1250951168	45	3868
2026-01-05 07:03:40.50	26.31	19.94	-41.2	-41.8	19.9	0.00e+00	0	55	0	1256194048	45	3814
2026-01-05 07:03:41.49	26.10	20.00	-41.2	-41.9	19.9	0.00e+00	0	55	0	1261436928	45	3838
2026-01-05 07:03:42.48	25.88	20.07	-41.3	-42.0	19.8	0.00e+00	0	55	0	1267728384	45	3878
2026-01-05 07:03:43.47	25.66	20.13	-41.5	-42.2	19.6	0.00e+00	0	55	0	1272971264	45	3980
2026-01-05 07:03:44.47	25.44	20.19	-41.6	-42.2	19.5	0.00e+00	0	55	0	1279262720	45	3992
2026-01-05 07:03:45.46	25.22	20.25	-41.3	-42.0	19.8	0.00e+00	0	55	0	1284505600	45	3885
2026-01-05 07:03:46.45	25.00	20.31	-41.2	-41.9	19.9	0.00e+00	0	55	0	1289748480	45	3840
2026-01-05 07:03:47.44	24.78	20.37	-41.2	-41.8	19.9	0.00e+00	0	55	0	1294991360	45	3814
2026-01-05 07:03:48.43	24.56	20.43	-41.3	-41.9	19.8	0.00e+00	0	55	0	1301282816	45	3862
2026-01-05 07:03:49.41	24.34	20.49	-41.3	-41.9	19.8	0.00e+00	0	55	0	1306525696	45	3866
2026-01-05 07:03:50.40	24.11	20.55	-41.3	-42.0	19.8	0.00e+00	0	55	0	1311768576	45	3880
2026-01-05 07:03:51.39	23.89	20.61	-41.2	-41.9	19.8	0.00e+00	0	55	0	1318060032	45	3836
2026-01-05 07:03:52.38	23.66	20.67	-41.3	-41.9	19.8	0.00e+00	0	55	0	1323302912	45	3862
2026-01-05 07:03:53.38	23.44	20.73	-41.4	-42.1	19.7	0.00e+00	0	55	0	1328545792	45	3922
2026-01-05 07:03:54.37	23.21	20.79	-41.6	-42.3	19.5	0.00e+00	0	55	0	1334837248	45	4030
2026-01-05 07:03:55.35	22.98	20.85	-41.7	-42.4	19.4	0.00e+00	0	56	0	1340080128	45	4066
2026-01-05 07:03:56.35	22.75	20.91	-41.7	-42.4	19.3	0.00e+00	0	55	0	1345323008	45	4082
2026-01-05 07:03:57.34	22.52	20.96	-41.8	-42.5	19.4	0.00e+00	0	55	0	1350565888	45	4104
2026-01-05 07:03:58.34	22.29	21.02	-42.0	-42.7	19.1	0.00e+00	0	55	0	1356857344	45	4206
2026-01-05 07:03:59.33	22.06	21.08	-42.0	-42.7	19.1	0.00e+00	0	55	0	1362100224	46	3975
2026-01-05 07:04:00.32	21.82	21.13	-41.8	-42.5	19.3	0.00e+00	0	55	0	1368391680	46	3909
2026-01-05 07:04:01.32	21.59	21.19	-41.7	-42.4	19.4	0.00e+00	0	56	0	1373634560	46	3856
2026-01-05 07:04:02.31	21.35	21.25	-41.8	-42.5	19.4	0.00e+00	0	56	0	1378877440	46	3880
2026-01-05 07:04:03.30	21.12	21.30	-41.8	-42.5	19.3	0.00e+00	0	55	0	1384120320	46	3892
2026-01-05 07:04:04.28	20.88	21.36	-42.0	-42.7	19.1	0.00e+00	0	56	0	1390411776	46	4002
2026-01-05 07:04:05.27	20.65	21.41	-41.6	-42.3	19.5	0.00e+00	0	55	0	1395654656	46	3795
2026-01-05 07:04:06.25	20.41	21.46	-41.3	-42.0	19.8	0.00e+00	0	55	0	1400897536	45	3880
2026-01-05 07:04:07.25	20.17	21.52	-41.1	-41.7	20.0	0.00e+00	0	55	0	1407188992	45	3779
2026-01-05 07:04:08.23	19.93	21.57	-41.0	-41.6	20.1	0.00e+00	0	56	0	1412431872	45	3722
2026-01-05 07:04:09.22	19.69	21.62	-40.9	-41.6	20.2	0.00e+00	0	56	0	1417674752	44	3915
2026-01-05 07:04:10.21	19.45	21.68	-40.9	-41.6	20.2	0.00e+00	0	56	0	1422917632	44	3923
2026-01-05 07:04:11.19	19.21	21.73	-41.1	-41.7	20.0	0.00e+00	0	56	0	1429209088	44	3987
2026-01-05 07:04:12.17	18.97	21.78	-41.3	-41.9	19.9	0.00e+00	0	56	0	1434451968	44	4090
2026-01-05 07:04:13.16	18.73	21.83	-41.1	-41.7	20.0	0.00e+00	0	56	0	1439694848	44	3986
2026-01-05 07:04:14.15	18.49	21.88	-41.0	-41.7	20.1	0.00e+00	0	56	0	1445986304	44	3968
2026-01-05 07:04:15.14	18.24	21.93	-41.2	-41.8	19.9	0.00e+00	0	55	0	1451229184	44	4051
2026-01-05 07:04:16.12	18.00	21.98	-41.2	-41.9	19.9	0.00e+00	0	56	0	1456472064	44	4059
2026-01-05 07:04:17.11	17.75	22.03	-41.1	-41.7	20.0	0.00e+00	0	56	0	1461714944	44	3983
2026-01-05 07:04:18.10	17.50	22.08	-41.1	-41.7	20.0	0.00e+00	0	55	0	1468006400	44	3986
2026-01-05 07:04:19.09	17.26	22.13	-40.9	-41.5	20.2	0.00e+00	0	56	0	1473249280	44	3905
2026-01-05 07:04:20.08	17.01	22.17	-41.1	-41.7	20.0	0.00e+00	0	56	0	1478492160	44	3997
2026-01-05 07:04:21.06	16.76	22.22	-40.9	-41.5	20.3	0.00e+00	0	56	0	1484783616	44	3898
2026-01-05 07:04:22.05	16.51	22.27	-41.1	-41.7	20.1	0.00e+00	0	56	0	1490026496	44	3985
2026-01-05 07:04:23.04	16.26	22.31	-40.8	-41.4	20.3	0.00e+00	0	56	0	1495269376	44	3850
2026-01-05 07:04:24.03	16.01	22.36	-40.6	-41.2	20.5	0.00e+00	0	56	0	1501560832	44	3763
2026-01-05 07:04:25.01	15.76	22.40	-40.5	-41.1	20.7	0.00e+00	0	56	0	1506803712	44	3697
2026-01-05 07:04:26.01	15.50	22.45	-40.5	-41.1	20.6	0.00e+00	0	56	0	1512046592	44	3737
2026-01-05 07:04:27.00	15.25	22.49	-40.6	-41.2	20.5	0.00e+00	0	56	0	1517289472	44	3763
2026-01-05 07:04:27.99	14.99	22.54	-40.7	-41.3	20.5	0.00e+00	0	56	0	1523580928	44	3793
2026-01-05 07:04:28.97	14.74	22.58	-40.7	-41.3	20.4	0.00e+00	0	56	0	1528823808	44	3790
2026-01-05 07:04:29.95	14.48	22.62	-40.5	-41.1	20.6	0.00e+00	0	56	0	1534066688	44	3716
2026-01-05 07:04:30.94	14.23	22.66	-40.5	-41.1	20.6	0.00e+00	0	56	0	1540358144	44	3728
2026-01-05 07:04:31.93	13.97	22.70	-40.8	-41.4	20.4	0.00e+00	0	56	0	1545601024	44	3842
2026-01-05 07:04:32.92	13.71	22.74	-40.9	-41.5	20.2	0.00e+00	0	56	0	1550843904	44	3901
2026-01-05 07:04:33.91	13.45	22.79	-40.8	-41.4	20.4	0.00e+00	0	56	0	1557135360	44	3863
2026-01-05 07:04:34.90	13.19	22.82	-40.8	-41.4	20.3	0.00e+00	0	56	0	1562378240	44	3865
2026-01-05 07:04:35.89	12.93	22.86	-41.0	-41.6	20.1	0.00e+00	0	56	0	1567621120	44	3945
2026-01-05 07:04:36.88	12.67	22.90	-40.6	-41.2	20.5	0.00e+00	0	56	0	1573912576	44	3773
2026-01-05 07:04:37.87	12.41	22.94	-40.5	-41.0	20.6	0.00e+00	0	56	0	1579155456	44	3687
2026-01-05 07:04:38.86	12.15	22.98	-40.4	-41.0	20.6	0.00e+00	0	56	0	1584398336	44	3692
2026-01-05 07:04:39.85	11.88	23.02	-40.5	-41.1	20.5	0.00e+00	0	56	0	1589641216	44	3736
2026-01-05 07:04:40.84	11.62	23.05	-40.6	-41.2	20.5	0.00e+00	0	56	0	1595932672	44	3770
2026-01-05 07:04:41.83	11.36	23.09	-40.7	-41.4	20.2	0.00e+00	0	56	0	1601175552	44	3829
2026-01-05 07:04:42.82	11.09	23.12	-40.7	-41.3	20.2	0.00e+00	0	56	0	1607467008	44	3809
2026-01-05 07:04:43.81	10.83	23.16	-40.5	-41.1	20.4	0.00e+00	0	56	0	1612709888	44	3730
2026-01-05 07:04:44.79	10.56	23.19	-40.5	-41.1	20.4	0.00e+00	0	56	0	1617952768	44	3700
2026-01-05 07:04:45.77	10.30	23.22	-40.3	-40.9	20.3	0.00e+00	0	56	0	1623195648	43	3868
2026-01-05 07:04:46.75	10.03	23.25	-40.4	-41.0	20.1	0.00e+00	0	56	0	1628438528	43	3900
2026-01-05 07:04:47.75	9.76	23.29	-40.8	-41.4	19.6	0.00e+00	0	56	0	1634729984	43	4093
2026-01-05 07:04:48.73	9.50	23.32	-41.0	-41.7	19.2	0.00e+00	0	56	0	1639972864	43	4229
2026-01-05 07:04:49.72	9.23	23.35	-41.5	-42.2	18.6	0.00e+00	0	56	0	1646264320	44	4230
2026-01-05 07:04:50.71	8.96	23.38	-41.8	-42.6	18.2	0.00e+00	0	56	0	1651507200	45	4169
2026-01-05 07:04:51.69	8.69	23.41	-42.3	-43.2	17.6	0.00e+00	0	56	0	1656750080	46	4207
2026-01-05 07:04:52.68	8.42	23.44	-42.8	-43.7	17.1	0.00e+00	0	56	0	1661992960	47	4204
2026-01-05 07:04:53.67	8.15	23.46	-43.0	-44.0	16.7	0.00e+00	0	56	0	1668284416	47	4368
2026-01-05 07:04:54.65	7.88	23.49	-43.7	-44.7	16.1	0.00e+00	0	56	0	1673527296	49	4238
2026-01-05 07:04:55.64	7.61	23.52	-44.2	-45.3	15.5	0.00e+00	0	56	0	1678770176	50	4277
2026-01-05 07:04:56.63	7.34	23.54	-44.4	-45.7	15.1	0.00e+00	0	56	0	1685061632	50	4452
2026-01-05 07:04:57.62	7.07	23.57	-44.6	-45.8	14.9	0.00e+00	0	56	0	1690304512	51	4285
2026-01-05 07:04:58.61	6.79	23.59	-44.5	-45.7	15.1	0.00e+00	0	56	0	1695547392	51	4214
2026-01-05 07:04:59.60	6.52	23.62	-44.1	-45.3	15.6	0.00e+00	0	56	0	1700790272	51	4011
2026-01-05 07:05:00.59	6.25	23.64	-44.0	-45.1	16.0	0.00e+00	0	56	0	1707081728	51	3940
2026-01-05 07:05:01.58	5.97	23.66	-43.8	-44.7	16.6	0.00e+00	0	56	0	1712324608	50	3994
2026-01-05 07:05:02.57	5.70	23.69	-43.7	-44.7	16.9	0.00e+00	0	56	0	1717567488	50	3960
2026-01-05 07:05:03.55	5.43	23.71	-43.8	-44.8	16.9	0.00e+00	0	56	0	1723858944	50	4031
2026-01-05 07:05:04.54	5.15	23.73	-44.2	-45.2	16.5	0.00e+00	0	56	0	1729101824	50	4202
2026-01-05 07:05:05.54	4.87	23.75	-44.7	-45.8	15.7	0.00e+00	0	56	0	1734344704	51	4270
2026-01-05 07:05:06.52	4.60	23.77	-45.4	-46.8	14.4	0.00e+00	0	56	0	1740636160	52	4523
2026-01-05 07:05:07.51	4.32	23.78	-46.0	-47.7	13.1	1.94e-05	0	56	0	1745879040	53	4755
2026-01-05 07:05:08.50	4.04	23.80	-46.3	-48.2	12.4	1.84e-04	0	56	0	1751121920	54	4727
2026-01-05 07:05:09.49	3.77	23.82	-46.0	-47.9	12.6	2.28e-04	0	56	0	1756364800	54	4546
2026-01-05 07:05:10.48	3.49	23.84	-45.4	-47.0	13.5	5.72e-05	0	56	0	1762656256	54	4135
2026-01-05 07:05:11.47	3.21	23.85	-45.1	-46.5	14.2	1.10e-06	0	56	0	1767899136	53	4099
2026-01-05 07:05:12.46	2.93	23.87	-44.6	-45.9	14.9	0.00e+00	0	56	0	1773142016	52	4068
2026-01-05 07:05:13.45	2.66	23.88	-44.4	-45.6	15.5	0.00e+00	0	56	0	1779433472	51	4175
2026-01-05 07:05:14.44	2.38	23.89	-44.1	-45.2	16.1	0.00e+00	0	56	0	1784676352	51	3968
2026-01-05 07:05:15.42	2.10	23.91	-44.1	-45.1	16.5	0.00e+00	0	56	0	1789919232	51	3917
2026-01-05 07:05:16.41	1.82	23.92	-43.9	-44.8	17.0	0.00e+00	0	56	0	1795162112	51	3794
2026-01-05 07:05:17.40	1.54	23.93	-43.5	-44.3	17.7	0.00e+00	0	56	0	1801453568	50	3812
2026-01-05 07:05:18.39	1.26	23.94	-43.7	-44.6	17.4	0.00e+00	0	56	0	1806696448	50	3935
2026-01-05 07:05:19.38	0.98	23.95	-43.8	-44.7	17.3	0.00e+00	0	56	0	1812987904	50	3999
2026-01-05 07:05:20.37	0.70	23.96	-43.6	-44.5	17.6	0.00e+00	0	56	0	1818230784	50	3869
2026-01-05 07:05:21.36	0.42	23.97	-43.5	-44.3	17.7	0.00e+00	0	56	0	1823473664	50	3815
2026-01-05 07:05:22.35	0.14	23.97	-43.3	-44.1	17.9	0.00e+00	0	56	0	1828716544	49	3948
2026-01-05 07:05:23.34	359.86	23.98	-43.2	-44.1	18.0	0.00e+00	0	56	0	1835008000	49	3919
2026-01-05 07:05:24.33	359.58	23.99	-43.2	-44.0	18.0	0.00e+00	0	56	0	1840250880	49	3908
2026-01-05 07:05:25.31	359.31	23.99	-43.2	-44.0	18.0	0.00e+00	0	56	0	1845493760	49	3881
2026-01-05 07:05:26.30	359.03	24.00	-42.4	-43.1	18.9	0.00e+00	0	56	0	1851785216	48	3719
2026-01-05 07:05:27.29	358.75	24.00	-41.6	-42.3	19.5	0.00e+00	0	56	0	1857028096	46	3805
2026-01-05 07:05:28.27	358.47	24.00	-41.1	-41.7	20.0	0.00e+00	0	56	0	1862270976	45	3777
2026-01-05 07:05:29.26	358.19	24.01	-40.7	-41.3	20.4	0.00e+00	0	56	0	1867513856	44	3807
2026-01-05 07:05:30.25	357.91	24.01	-40.5	-41.1	20.7	0.00e+00	0	56	0	1873805312	44	3699
2026-01-05 07:05:31.24	357.63	24.01	-40.1	-40.7	21.0	0.00e+00	0	56	0	1879048192	43	3746
2026-01-05 07:05:32.22	357.35	24.01	-40.0	-40.6	21.0	0.00e+00	0	56	0	1885339648	43	3696
2026-01-05 07:05:33.21	357.07	24.01	-40.1	-40.7	20.9	0.00e+00	0	56	0	1890582528	43	3745
2026-01-05 07:05:34.20	356.79	24.01	-40.1	-40.7	21.0	0.00e+00	0	56	0	1895825408	43	3747
2026-01-05 07:05:35.19	356.51	24.00	-40.1	-40.6	21.0	0.00e+00	0	56	0	1901068288	43	3728
2026-01-05 07:05:36.18	356.23	24.00	-40.1	-40.7	20.9	0.00e+00	0	56	0	1907359744	43	3753
2026-01-05 07:05:37.17	355.94	24.00	-40.1	-40.7	21.0	0.00e+00	0	56	0	1912602624	43	3748
2026-01-05 07:05:38.16	355.66	23.99	-40.1	-40.7	20.9	0.00e+00	0	56	0	1917845504	43	3772
2026-01-05 07:05:39.15	355.38	23.99	-40.3	-40.8	20.8	0.00e+00	0	56	0	1924136960	43	3824
2026-01-05 07:05:40.14	355.10	23.98	-40.2	-40.7	20.9	0.00e+00	0	57	0	1929379840	43	3773
2026-01-05 07:05:41.13	354.82	23.97	-40.1	-40.7	20.9	0.00e+00	0	56	0	1934622720	43	3764
2026-01-05 07:05:42.12	354.54	23.97	-40.3	-40.8	20.8	0.00e+00	0	56	0	1940914176	43	3816
2026-01-05 07:05:43.10	354.27	23.96	-40.4	-41.0	20.6	0.00e+00	0	56	0	1946157056	43	3879
2026-01-05 07:05:44.09	353.99	23.95	-40.1	-40.7	20.9	0.00e+00	0	56	0	1951399936	43	3762
2026-01-05 07:05:45.08	353.71	23.94	-40.0	-40.6	21.0	0.00e+00	0	56	0	1956642816	43	3723
2026-01-05 07:05:46.07	353.43	23.93	-40.1	-40.7	20.9	0.00e+00	0	56	0	1962934272	43	3762
2026-01-05 07:05:47.05	353.15	23.92	-40.0	-40.6	20.9	0.00e+00	0	56	0	1968177152	43	3720
2026-01-05 07:05:48.04	352.87	23.91	-40.4	-41.0	20.7	0.00e+00	0	56	0	1973420032	43	3880
2026-01-05 07:05:49.03	352.59	23.90	-40.1	-40.7	20.9	0.00e+00	0	56	0	1979711488	43	3747
2026-01-05 07:05:50.03	352.31	23.88	-40.0	-40.5	21.1	0.00e+00	0	56	0	1984954368	43	3680
2026-01-05 07:05:51.02	352.03	23.87	-39.9	-40.5	21.1	0.00e+00	0	56	0	1990197248	43	3668
2026-01-05 07:05:52.00	351.76	23.85	-40.0	-40.6	21.1	0.00e+00	0	56	0	1995440128	43	3698
2026-01-05 07:05:52.99	351.48	23.84	-40.1	-40.7	21.0	0.00e+00	0	56	0	2001731584	43	3745
2026-01-05 07:05:53.98	351.20	23.82	-39.9	-40.5	21.1	0.00e+00	0	56	0	2006974464	43	3662
2026-01-05 07:05:54.96	350.93	23.81	-40.0	-40.5	21.1	0.00e+00	0	56	0	2012217344	43	3691
2026-01-05 07:05:55.96	350.65	23.79	-40.2	-40.8	20.8	0.00e+00	0	56	0	2018508800	43	3798
2026-01-05 07:05:56.95	350.37	23.77	-40.0	-40.6	21.0	0.00e+00	0	56	0	2023751680	43	3703
2026-01-05 07:05:57.93	350.10	23.75	-40.0	-40.5	21.1	0.00e+00	0	56	0	2028994560	43	3681
2026-01-05 07:05:58.92	349.82	23.73	-40.1	-40.7	20.9	0.00e+00	0	56	0	2035286016	43	3773
2026-01-05 07:05:59.91	349.55	23.71	-40.1	-40.7	20.9	0.00e+00	0	56	0	2040528896	43	3766
2026-01-05 07:06:00.89	349.27	23.69	-40.2	-40.7	20.8	0.00e+00	0	56	0	2045771776	43	3780
2026-01-05 07:06:01.89	349.00	23.67	-40.3	-40.8	20.7	0.00e+00	0	56	0	2052063232	43	3822
2026-01-05 07:06:02.87	348.72	23.65	-40.4	-41.0	20.6	0.00e+00	0	56	0	2057306112	43	3878
2026-01-05 07:06:03.87	348.45	23.62	-40.1	-40.7	20.9	0.00e+00	0	57	0	2062548992	43	3746
2026-01-05 07:06:04.85	348.18	23.60	-40.0	-40.5	21.1	0.00e+00	0	57	0	2067791872	43	3680
2026-01-05 07:06:05.85	347.90	23.57	-40.0	-40.6	21.0	0.00e+00	0	57	0	2074083328	43	3703
2026-01-05 07:06:06.84	347.63	23.55	-40.2	-40.7	20.9	0.00e+00	0	56	0	2079326208	43	3776
2026-01-05 07:06:07.82	347.36	23.52	-40.3	-40.8	20.7	0.00e+00	0	56	0	2084569088	43	3821
2026-01-05 07:06:08.81	347.09	23.50	-40.4	-41.0	20.6	0.00e+00	0	57	0	2090860544	43	3895
2026-01-05 07:06:09.80	346.82	23.47	-40.2	-40.8	20.8	0.00e+00	0	57	0	2096103424	43	3808
2026-01-05 07:06:10.78	346.55	23.44	-40.1	-40.6	20.9	0.00e+00	0	56	0	2101346304	43	3735
2026-01-05 07:06:11.77	346.28	23.41	-40.2	-40.8	20.8	0.00e+00	0	57	0	2107637760	43	3799
2026-01-05 07:06:12.76	346.01	23.38	-40.2	-40.8	20.8	0.00e+00	0	56	0	2112880640	43	3813
2026-01-05 07:06:13.75	345.74	23.35	-40.3	-40.9	20.7	0.00e+00	0	57	0	2118123520	43	3849
2026-01-05 07:06:14.75	345.47	23.32	-40.2	-40.8	20.8	0.00e+00	0	57	0	2124414976	43	3812
2026-01-05 07:06:15.73	345.20	23.29	-40.1	-40.7	20.9	0.00e+00	0	57	0	2129657856	43	3749
2026-01-05 07:06:16.72	344.93	23.26	-40.1	-40.7	20.9	0.00e+00	0	57	0	2134900736	43	3761
2026-01-05 07:06:17.71	344.66	23.23	-40.2	-40.8	20.8	0.00e+00	0	57	0	2140143616	43	3811
2026-01-05 07:06:18.70	344.40	23.19	-40.2	-40.8	20.8	0.00e+00	0	57	0	2146435072	43	3805
2026-01-05 07:06:19.69	344.13	23.16	-40.1	-40.7	20.8	0.00e+00	0	57	0	2151677952	43	3769
2026-01-05 07:06:20.67	343.87	23.13	-40.2	-40.8	20.8	0.00e+00	0	57	0	2156920832	43	3783
2026-01-05 07:06:21.66	343.60	23.09	-40.2	-40.7	20.9	0.00e+00	0	57	0	2163212288	43	3780
2026-01-05 07:06:22.65	343.34	23.06	-40.1	-40.6	20.9	0.00e+00	0	57	0	2168455168	43	3730
2026-01-05 07:06:23.65	343.07	23.02	-40.1	-40.7	20.9	0.00e+00	0	57	0	2173698048	43	3749
2026-01-05 07:06:24.64	342.81	22.98	-40.0	-40.6	21.0	0.00e+00	0	57	0	2179989504	43	3714
2026-01-05 07:06:25.63	342.55	22.95	-39.9	-40.5	21.1	0.00e+00	0	57	0	2185232384	42	3874
2026-01-05 07:06:26.63	342.28	22.91	-40.0	-40.5	21.1	0.00e+00	0	57	0	2190475264	42	3899
2026-01-05 07:06:27.61	342.02	22.87	-40.1	-40.7	20.9	0.00e+00	0	57	0	2195718144	42	3975
2026-01-05 07:06:28.60	341.76	22.83	-40.2	-40.8	20.8	0.00e+00	0	57	0	2202009600	42	4019
2026-01-05 07:06:29.58	341.51	22.79	-40.2	-40.8	20.8	0.00e+00	0	57	0	2207252480	42	4020
2026-01-05 07:06:30.56	341.25	22.75	-40.2	-40.8	20.7	0.00e+00	0	57	0	2212495360	42	4039
2026-01-05 07:06:31.55	340.99	22.71	-40.1	-40.7	20.9	0.00e+00	0	57	0	2218786816	42	3964
2026-01-05 07:06:32.55	340.73	22.67	-40.1	-40.7	20.9	0.00e+00	0	57	0	2224029696	42	3984
2026-01-05 07:06:33.55	340.47	22.63	-40.2	-40.8	20.8	0.00e+00	0	57	0	2229272576	42	4022
2026-01-05 07:06:34.54	340.21	22.58	-40.2	-40.8	20.7	0.00e+00	0	57	0	2235564032	42	4043
2026-01-05 07:06:35.53	339.96	22.54	-40.0	-40.6	21.0	0.00e+00	0	57	0	2240806912	42	3919
2026-01-05 07:06:36.52	339.70	22.50	-39.9	-40.5	21.1	0.00e+00	0	57	0	2246049792	42	3872
2026-01-05 07:06:37.50	339.45	22.45	-40.0	-40.6	21.0	0.00e+00	0	57	0	2252341248	42	3924
2026-01-05 07:06:38.49	339.20	22.41	-40.1	-40.7	20.8	0.00e+00	0	57	0	2257584128	42	3984
2026-01-05 07:06:39.48	338.95	22.36	-40.2	-40.8	20.7	0.00e+00	0	57	0	2262827008	42	4022
2026-01-05 07:06:40.47	338.69	22.32	-40.2	-40.7	20.8	0.00e+00	0	57	0	2269118464	42	3995
2026-01-05 07:06:41.46	338.44	22.27	-40.1	-40.7	20.8	0.00e+00	0	57	0	2274361344	42	3979
2026-01-05 07:06:42.45	338.19	22.23	-40.2	-40.8	20.8	0.00e+00	0	57	0	2279604224	42	4015
2026-01-05 07:06:43.44	337.94	22.18	-40.3	-40.9	20.6	0.00e+00	0	57	0	2284847104	42	4095
2026-01-05 07:06:44.43	337.69	22.13	-40.4	-41.0	20.5	0.00e+00	0	57	0	2291138560	42	4140
2026-01-05 07:06:45.42	337.44	22.08	-40.7	-41.4	20.1	0.00e+00	0	57	0	2296381440	43	4063
2026-01-05 07:06:46.42	337.19	22.03	-40.8	-41.4	19.9	0.00e+00	0	57	0	2302672896	43	4089
2026-01-05 07:06:47.41	336.95	21.98	-40.9	-41.6	19.8	0.00e+00	0	57	0	2307915776	43	4157
2026-01-05 07:06:48.40	336.70	21.93	-41.3	-42.0	19.5	0.00e+00	0	57	0	2313158656	44	4100
2026-01-05 07:06:49.39	336.46	21.88	-41.6	-42.3	19.1	0.00e+00	0	57	0	2318401536	44	4281
2026-01-05 07:06:50.39	336.21	21.83	-42.0	-42.7	18.6	0.00e+00	0	57	0	2324692992	45	4233
2026-01-05 07:06:51.37	335.97	21.78	-42.2	-43.0	18.4	0.00e+00	0	57	0	2329935872	46	4110
2026-01-05 07:06:52.36	335.73	21.73	-42.5	-43.3	18.0	0.00e+00	0	57	0	2335178752	46	4286
2026-01-05 07:06:53.35	335.48	21.68	-42.9	-43.7	17.6	0.00e+00	0	57	0	2341470208	47	4220
2026-01-05 07:06:54.33	335.25	21.63	-43.1	-44.0	17.3	0.00e+00	0	57	0	2346713088	47	4343
2026-01-05 07:06:55.33	335.00	21.57	-43.5	-44.4	16.9	0.00e+00	0	57	0	2351955968	48	4328
2026-01-05 07:06:56.32	334.76	21.52	-43.2	-44.1	17.2	0.00e+00	0	57	0	2358247424	48	4162
2026-01-05 07:06:57.31	334.52	21.47	-42.9	-43.8	17.4	0.00e+00	0	57	0	2363490304	48	4031
2026-01-05 07:06:58.29	334.29	21.41	-43.0	-43.9	17.4	0.00e+00	0	57	0	2368733184	48	4071
2026-01-05 07:06:59.29	334.05	21.36	-43.1	-44.0	17.3	0.00e+00	0	57	0	2373976064	48	4141
2026-01-05 07:07:00.28	333.81	21.30	-43.2	-44.1	17.3	0.00e+00	0	57	0	2380267520	48	4165
2026-01-05 07:07:01.27	333.58	21.25	-42.8	-43.7	17.9	0.00e+00	0	57	0	2385510400	48	3971
2026-01-05 07:07:02.26	333.34	21.19	-42.6	-43.4	18.2	0.00e+00	0	57	0	2390753280	48	3840
2026-01-05 07:07:03.25	333.11	21.14	-42.3	-43.1	18.5	0.00e+00	0	57	0	2397044736	47	3916
2026-01-05 07:07:04.24	332.88	21.08	-42.4	-43.2	18.5	0.00e+00	0	57	0	2402287616	47	3989
2026-01-05 07:07:05.22	332.65	21.02	-42.0	-42.8	19.0	0.00e+00	0	57	0	2407530496	47	3790
2026-01-05 07:07:06.21	332.42	20.97	-42.1	-42.8	19.0	0.00e+00	0	57	0	2413821952	47	3822
2026-01-05 07:07:07.19	332.19	20.91	-42.3	-43.1	18.7	0.00e+00	0	57	0	2419064832	47	3934
2026-01-05 07:07:08.19	331.96	20.85	-42.3	-43.1	18.7	0.00e+00	0	57	0	2424307712	47	3937
2026-01-05 07:07:09.18	331.73	20.79	-42.4	-43.1	18.7	0.00e+00	0	57	0	2430599168	47	3952
2026-01-05 07:07:10.17	331.50	20.74	-42.3	-43.0	18.8	0.00e+00	0	57	0	2435842048	47	3902
2026-01-05 07:07:11.16	331.28	20.68	-42.3	-43.0	18.8	0.00e+00	0	57	0	2441084928	47	3904
2026-01-05 07:07:12.15	331.05	20.62	-42.3	-43.0	18.8	0.00e+00	0	57	0	2446327808	47	3907
2026-01-05 07:07:13.14	330.83	20.56	-41.9	-42.6	19.2	0.00e+00	0	57	0	2452619264	47	3712
2026-01-05 07:07:14.13	330.60	20.50	-41.6	-42.3	19.6	0.00e+00	0	57	0	2457862144	46	3784
2026-01-05 07:07:15.11	330.38	20.44	-41.3	-42.0	19.8	0.00e+00	0	57	0	2463105024	45	3884
2026-01-05 07:07:16.09	330.16	20.38	-41.2	-41.8	20.0	0.00e+00	0	57	0	2469396480	45	3803
2026-01-05 07:07:17.08	329.94	20.32	-41.4	-42.1	19.7	0.00e+00	0	57	0	2474639360	45	3923
2026-01-05 07:07:18.07	329.72	20.26	-41.8	-42.5	19.4	0.00e+00	0	57	0	2479882240	45	4102
2026-01-05 07:07:19.06	329.50	20.20	-41.7	-42.4	19.4	0.00e+00	0	57	0	2485125120	45	4069
2026-01-05 07:07:20.05	329.28	20.13	-41.7	-42.4	19.5	0.00e+00	0	57	0	2491416576	45	4054
2026-01-05 07:07:21.04	329.06	20.07	-41.7	-42.4	19.4	0.00e+00	0	57	0	2496659456	45	4060
2026-01-05 07:07:22.02	328.85	20.01	-41.6	-42.3	19.5	0.00e+00	0	57	0	2502950912	45	4027
2026-01-05 07:07:23.02	328.63	19.95	-41.6	-42.3	19.5	0.00e+00	0	57	0	2508193792	45	4015
2026-01-05 07:07:24.00	328.42	19.89	-41.6	-42.2	19.6	0.00e+00	0	57	0	2513436672	45	3989
2026-01-05 07:07:25.00	328.20	19.82	-42.1	-42.8	19.0	0.00e+00	0	57	0	2518679552	45	4281
2026-01-05 07:07:25.99	327.99	19.76	-41.8	-42.5	19.3	0.00e+00	0	57	0	2524971008	46	3898
2026-01-05 07:07:26.97	327.78	19.70	-41.6	-42.2	19.6	0.00e+00	0	57	0	2530213888	46	3778
2026-01-05 07:07:27.96	327.56	19.63	-41.3	-42.0	19.8	0.00e+00	0	57	0	2535456768	45	3893
2026-01-05 07:07:28.94	327.36	19.57	-41.2	-41.9	19.9	0.00e+00	0	57	0	2541748224	45	3828
2026-01-05 07:07:29.92	327.15	19.50	-41.1	-41.8	20.0	0.00e+00	0	57	0	2546991104	45	3793
2026-01-05 07:07:30.91	326.94	19.44	-41.3	-41.9	19.9	0.00e+00	0	57	0	2552233984	45	3852
2026-01-05 07:07:31.90	326.73	19.38	-41.4	-42.1	19.7	0.00e+00	0	57	0	2557476864	45	3916
2026-01-05 07:07:32.89	326.52	19.31	-41.4	-42.1	19.6	0.00e+00	0	57	0	2563768320	45	3936
2026-01-05 07:07:33.88	326.32	19.24	-41.5	-42.2	19.6	0.00e+00	0	57	0	2569011200	45	3997
2026-01-05 07:07:34.87	326.11	19.18	-41.5	-42.2	19.6	0.00e+00	0	57	0	2574254080	45	3962
2026-01-05 07:07:35.86	325.91	19.11	-41.4	-42.1	19.7	0.00e+00	0	57	0	2580545536	45	3917
2026-01-05 07:07:36.84	325.71	19.05	-41.5	-42.2	19.6	0.00e+00	0	57	0	2585788416	45	3975
2026-01-05 07:07:37.83	325.50	18.98	-41.4	-42.1	19.7	0.00e+00	0	57	0	2591031296	45	3926
2026-01-05 07:07:38.82	325.30	18.92	-41.6	-42.3	19.5	0.00e+00	0	57	0	2597322752	45	4006
2026-01-05 07:07:39.81	325.10	18.85	-41.6	-42.3	19.5	0.00e+00	0	57	0	2602565632	45	4029
2026-01-05 07:07:40.80	324.90	18.78	-41.7	-42.4	19.4	0.00e+00	0	57	0	2607808512	45	4053
2026-01-05 07:07:41.79	324.70	18.72	-41.5	-42.2	19.6	0.00e+00	0	57	0	2613051392	45	3981
2026-01-05 07:07:42.78	324.50	18.65	-41.3	-41.9	19.8	0.00e+00	0	57	0	2619342848	45	3868
2026-01-05 07:07:43.77	324.31	18.58	-41.2	-41.8	20.0	0.00e+00	0	57	0	2624585728	45	3803
2026-01-05 07:07:44.76	324.11	18.52	-41.3	-41.9	19.8	0.00e+00	0	57	0	2629828608	45	3852
2026-01-05 07:07:45.75	323.91	18.45	-41.2	-41.9	19.9	0.00e+00	0	57	0	2636120064	45	3845
2026-01-05 07:07:46.74	323.72	18.38	-41.2	-41.9	19.9	0.00e+00	0	57	0	2641362944	45	3836
2026-01-05 07:07:47.73	323.53	18.31	-41.3	-42.0	19.8	0.00e+00	0	57	0	2646605824	45	3878
2026-01-05 07:07:48.71	323.33	18.24	-41.5	-42.1	19.6	0.00e+00	0	57	0	2651848704	45	3955
2026-01-05 07:07:49.70	323.14	18.18	-41.4	-42.0	19.7	0.00e+00	0	57	0	2658140160	45	3911
2026-01-05 07:07:50.69	322.95	18.11	-41.3	-41.9	19.8	0.00e+00	0	57	0	2663383040	45	3851
2026-01-05 07:07:51.69	322.76	18.04	-41.2	-41.8	19.9	0.00e+00	0	57	0	2669674496	45	3815
2026-01-05 07:07:52.67	322.57	17.97	-41.3	-41.9	19.8	0.00e+00	0	57	0	2674917376	45	3857
2026-01-05 07:07:53.66	322.38	17.90	-41.4	-42.0	19.7	0.00e+00	0	57	0	2680160256	45	3900
2026-01-05 07:07:54.64	322.20	17.83	-41.4	-42.1	19.7	0.00e+00	0	57	0	2685403136	45	3931
2026-01-05 07:07:55.63	322.01	17.77	-41.5	-42.2	19.5	0.00e+00	0	57	0	2691694592	45	3991
2026-01-05 07:07:56.62	321.82	17.70	-41.5	-42.2	19.5	0.00e+00	0	57	0	2696937472	45	3986
2026-01-05 07:07:57.60	321.64	17.63	-41.5	-42.1	19.6	0.00e+00	0	57	0	2702180352	45	3945
2026-01-05 07:07:58.59	321.46	17.56	-41.4	-42.1	19.6	0.00e+00	0	57	0	2708471808	45	3934
2026-01-05 07:07:59.58	321.27	17.49	-41.6	-42.2	19.5	0.00e+00	0	57	0	2713714688	45	4002
2026-01-05 07:08:00.57	321.09	17.42	-41.6	-42.3	19.5	0.00e+00	0	57	0	2718957568	45	4009
2026-01-05 07:08:01.56	320.91	17.35	-41.7	-42.4	19.4	0.00e+00	0	57	0	2724200448	45	4058
2026-01-05 07:08:02.55	320.73	17.28	-41.6	-42.3	19.4	0.00e+00	0	57	0	2730491904	45	4030
2026-01-05 07:08:03.54	320.55	17.21	-41.5	-42.2	19.6	0.00e+00	0	57	0	2735734784	45	3970
2026-01-05 07:08:04.53	320.37	17.14	-41.4	-42.1	19.7	0.00e+00	0	57	0	2742026240	45	3916
2026-01-05 07:08:05.52	320.19	17.07	-41.4	-42.0	19.7	0.00e+00	0	57	0	2747269120	45	3907
2026-01-05 07:08:06.51	320.01	17.00	-41.5	-42.2	19.5	0.00e+00	0	57	0	2752512000	45	3968
2026-01-05 07:08:07.50	319.84	16.93	-41.5	-42.2	19.5	0.00e+00	0	57	0	2757754880	45	3989
2026-01-05 07:08:08.49	319.66	16.86	-41.6	-42.3	19.5	0.00e+00	0	57	0	2764046336	45	4006
2026-01-05 07:08:09.48	319.48	16.79	-41.6	-42.3	19.4	0.00e+00	0	57	0	2769289216	45	4020
2026-01-05 07:08:10.46	319.31	16.72	-41.5	-42.1	19.6	0.00e+00	0	57	0	2774532096	45	3949
2026-01-05 07:08:11.46	319.14	16.65	-41.4	-42.1	19.6	0.00e+00	0	57	0	2780823552	45	3935
2026-01-05 07:08:12.45	318.96	16.58	-41.5	-42.1	19.6	0.00e+00	0	57	0	2786066432	45	3953
2026-01-05 07:08:13.44	318.79	16.51	-41.6	-42.2	19.5	0.00e+00	0	57	0	2791309312	45	3991
2026-01-05 07:08:14.43	318.62	16.44	-41.6	-42.3	19.4	0.00e+00	0	57	0	2797600768	45	4043
2026-01-05 07:08:15.41	318.45	16.37	-41.7	-42.4	19.3	0.00e+00	0	57	0	2802843648	45	4068
2026-01-05 07:08:16.39	318.29	16.30	-41.8	-42.5	19.2	0.00e+00	0	57	0	2808086528	45	4140
2026-01-05 07:08:17.38	318.12	16.23	-41.9	-42.6	19.1	0.00e+00	0	57	0	2813329408	45	4183
2026-01-05 07:08:18.37	317.95	16.16	-42.0	-42.7	19.0	0.00e+00	0	57	0	2819620864	45	4204
2026-01-05 07:08:19.36	317.78	16.09	-42.0	-42.7	19.0	0.00e+00	0	57	0	2824863744	45	4231
2026-01-05 07:08:20.35	317.62	16.01	-42.2	-42.9	18.8	0.00e+00	0	57	0	2830106624	46	4081
2026-01-05 07:08:21.34	317.45	15.94	-42.3	-43.0	18.7	0.00e+00	0	57	0	2836398080	46	4140
2026-01-05 07:08:22.32	317.29	15.87	-42.1	-42.8	18.9	0.00e+00	0	57	0	2841640960	46	4042
2026-01-05 07:08:23.32	317.12	15.80	-41.9	-42.7	19.1	0.00e+00	0	57	0	2846883840	46	3960
2026-01-05 07:08:24.31	316.96	15.73	-42.0	-42.7	19.1	0.00e+00	0	57	0	2852126720	46	3973
2026-01-05 07:08:25.30	316.80	15.66	-42.1	-42.8	19.0	0.00e+00	0	57	0	2858418176	46	4021
2026-01-05 07:08:26.29	316.64	15.59	-42.1	-42.9	18.9	0.00e+00	0	57	0	2863661056	46	4056
2026-01-05 07:08:27.27	316.48	15.52	-42.3	-43.0	18.7	0.00e+00	0	57	0	2869952512	46	4126
2026-01-05 07:08:28.26	316.32	15.45	-42.0	-42.7	19.0	0.00e+00	0	57	0	2875195392	46	3986
2026-01-05 07:08:29.25	316.16	15.38	-41.9	-42.6	19.1	0.00e+00	0	57	0	2880438272	46	3941
2026-01-05 07:08:30.24	316.00	15.30	-41.9	-42.6	19.1	0.00e+00	0	57	0	2885681152	46	3945
2026-01-05 07:08:31.23	315.84	15.23	-42.1	-42.8	18.9	0.00e+00	0	57	0	2891972608	46	4010
2026-01-05 07:08:32.22	315.69	15.16	-42.0	-42.7	19.0	0.00e+00	0	57	0	2897215488	46	3987
2026-01-05 07:08:33.21	315.53	15.09	-42.1	-42.9	18.8	0.00e+00	0	57	0	2902458368	46	4059
2026-01-05 07:08:34.20	315.37	15.02	-42.4	-43.1	18.6	0.00e+00	0	57	0	2908749824	46	4188
2026-01-05 07:08:35.19	315.22	14.95	-42.3	-43.0	18.7	0.00e+00	0	57	0	2913992704	46	4134
2026-01-05 07:08:36.18	315.07	14.88	-42.4	-43.2	18.5	0.00e+00	0	57	0	2919235584	46	4210
2026-01-05 07:08:37.17	314.91	14.81	-42.2	-43.0	18.8	0.00e+00	0	57	0	2925527040	46	4101
2026-01-05 07:08:38.16	314.76	14.73	-42.2	-43.0	18.8	0.00e+00	0	57	0	2930769920	46	4102
2026-01-05 07:08:39.15	314.61	14.66	-42.4	-43.1	18.6	0.00e+00	0	57	0	2936012800	46	4179
2026-01-05 07:08:40.13	314.46	14.59	-42.4	-43.2	18.6	0.00e+00	0	57	0	2941255680	46	4195
2026-01-05 07:08:41.13	314.31	14.52	-42.6	-43.4	18.4	0.00e+00	0	57	0	2947547136	46	4296
2026-01-05 07:08:42.12	314.16	14.45	-42.4	-43.2	18.5	0.00e+00	0	57	0	2952790016	46	4208
2026-01-05 07:08:43.11	314.01	14.38	-42.5	-43.3	18.5	0.00e+00	0	57	0	2958032896	46	4253
2026-01-05 07:08:44.10	313.86	14.31	-42.6	-43.3	18.4	0.00e+00	0	57	0	2964324352	46	4289
2026-01-05 07:08:45.10	313.71	14.24	-42.5	-43.2	18.5	0.00e+00	0	57	0	2969567232	46	4239
2026-01-05 07:08:46.08	313.57	14.16	-42.6	-43.4	18.4	0.00e+00	0	57	0	2974810112	47	4067
2026-01-05 07:08:47.07	313.42	14.09	-42.5	-43.2	18.5	0.00e+00	0	57	0	2981101568	47	3994
2026-01-05 07:08:48.05	313.28	14.02	-42.3	-43.1	18.6	0.00e+00	0	57	0	2986344448	47	3929
2026-01-05 07:08:49.04	313.14	13.95	-42.3	-43.1	18.6	0.00e+00	0	57	0	2991587328	47	3922
2026-01-05 07:08:50.02	312.99	13.88	-42.4	-43.2	18.5	0.00e+00	0	57	0	2997878784	47	3976
2026-01-05 07:08:51.01	312.85	13.81	-42.5	-43.3	18.4	0.00e+00	0	57	0	3003121664	47	4012
2026-01-05 07:08:51.99	312.71	13.74	-42.5	-43.3	18.4	0.00e+00	0	57	0	3008364544	47	4047
2026-01-05 07:08:52.98	312.57	13.67	-42.5	-43.2	18.5	0.00e+00	0	57	0	3013607424	47	3989
2026-01-05 07:08:53.97	312.43	13.60	-42.4	-43.2	18.5	0.00e+00	0	57	0	3019898880	47	3963
2026-01-05 07:08:54.96	312.29	13.53	-42.4	-43.2	18.5	0.00e+00	0	57	0	3025141760	47	3982
2026-01-05 07:08:55.95	312.15	13.46	-42.6	-43.3	18.3	0.00e+00	0	57	0	3030384640	47	4047
2026-01-05 07:08:56.94	312.01	13.39	-42.5	-43.3	18.4	0.00e+00	0	57	0	3036676096	47	4029
2026-01-05 07:08:57.92	311.87	13.32	-42.7	-43.5	18.2	0.00e+00	0	57	0	3041918976	47	4103
2026-01-05 07:08:58.91	311.73	13.25	-42.8	-43.6	18.1	0.00e+00	0	57	0	3047161856	47	4163
2026-01-05 07:08:59.91	311.60	13.17	-42.8	-43.6	18.1	0.00e+00	0	57	0	3052404736	47	4168
2026-01-05 07:09:00.90	311.46	13.10	-42.9	-43.7	17.9	0.00e+00	0	57	0	3058696192	47	4240
2026-01-05 07:09:01.89	311.33	13.03	-42.9	-43.7	18.0	0.00e+00	0	57	0	3063939072	47	4216
2026-01-05 07:09:02.89	311.19	12.96	-42.9	-43.7	18.0	0.00e+00	0	57	0	3070230528	47	4232
2026-01-05 07:09:03.88	311.05	12.89	-43.0	-43.8	17.8	0.00e+00	0	57	0	3075473408	47	4290
2026-01-05 07:09:04.85	310.92	12.82	-43.1	-43.9	17.8	0.00e+00	0	57	0	3080716288	47	4322
2026-01-05 07:09:05.84	310.79	12.75	-43.0	-43.8	18.0	0.00e+00	0	57	0	3085959168	48	4044
2026-01-05 07:09:06.83	310.66	12.68	-42.9	-43.7	18.0	0.00e+00	0	57	0	3092250624	48	4001
2026-01-05 07:09:07.82	310.53	12.61	-43.0	-43.9	18.0	0.00e+00	0	57	0	3097493504	48	4057
2026-01-05 07:09:08.81	310.40	12.54	-43.1	-43.9	17.9	0.00e+00	0	57	0	3102736384	48	4098
2026-01-05 07:09:09.79	310.27	12.47	-43.2	-44.0	17.8	0.00e+00	0	57	0	3109027840	48	4122
2026-01-05 07:09:10.77	310.14	12.40	-43.4	-44.3	17.5	0.00e+00	0	57	0	3114270720	48	4260
2026-01-05 07:09:11.76	310.01	12.33	-43.4	-44.2	17.6	0.00e+00	0	57	0	3119513600	48	4230
2026-01-05 07:09:12.76	309.88	12.26	-43.4	-44.3	17.5	0.00e+00	0	57	0	3124756480	48	4264
2026-01-05 07:09:13.74	309.75	12.19	-43.4	-44.2	17.6	0.00e+00	0	57	0	3131047936	48	4220
2026-01-05 07:09:14.73	309.63	12.12	-43.2	-44.1	17.7	0.00e+00	0	57	0	3136290816	48	4168
2026-01-05 07:09:15.72	309.50	12.05	-43.1	-44.0	17.8	0.00e+00	0	57	0	3141533696	48	4112
2026-01-05 07:09:16.71	309.37	11.98	-43.2	-44.0	17.8	0.00e+00	0	57	0	3147825152	48	4108
2026-01-05 07:09:17.70	309.25	11.91	-43.1	-44.0	17.8	0.00e+00	0	57	0	3153068032	48	4107
2026-01-05 07:09:18.69	309.12	11.84	-43.3	-44.1	17.7	0.00e+00	0	57	0	3158310912	48	4182
2026-01-05 07:09:19.68	309.00	11.77	-43.3	-44.1	17.7	0.00e+00	0	57	0	3164602368	48	4188
2026-01-05 07:09:20.67	308.88	11.70	-43.2	-44.0	17.7	0.00e+00	0	57	0	3169845248	48	4140
2026-01-05 07:09:21.66	308.75	11.63	-43.2	-44.1	17.8	0.00e+00	0	58	0	3175088128	48	4146
2026-01-05 07:09:22.64	308.63	11.56	-43.3	-44.1	17.7	0.00e+00	0	57	0	3180331008	48	4191
2026-01-05 07:09:23.63	308.51	11.49	-43.3	-44.1	17.7	0.00e+00	0	57	0	3186622464	48	4180
2026-01-05 07:09:24.62	308.39	11.43	-43.1	-44.0	17.8	0.00e+00	0	57	0	3191865344	48	4121
2026-01-05 07:09:25.61	308.27	11.36	-43.2	-44.0	17.7	0.00e+00	0	57	0	3197108224	48	4140
2026-01-05 07:09:26.60	308.15	11.29	-43.2	-44.1	17.7	0.00e+00	0	57	0	3203399680	48	4155
2026-01-05 07:09:27.59	308.03	11.22	-43.4	-44.2	17.6	0.00e+00	0	57	0	3208642560	48	4225
2026-01-05 07:09:28.57	307.91	11.15	-43.4	-44.3	17.5	0.00e+00	0	57	0	3213885440	48	4260
2026-01-05 07:09:29.56	307.79	11.08	-43.5	-44.3	17.4	0.00e+00	0	57	0	3219128320	48	4287
2026-01-05 07:09:30.55	307.68	11.01	-43.6	-44.5	17.2	0.00e+00	0	57	0	3225419776	49	4125
2026-01-05 07:09:31.54	307.56	10.94	-43.7	-44.6	17.1	0.00e+00	0	57	0	3230662656	49	4170
2026-01-05 07:09:32.53	307.44	10.87	-43.8	-44.8	17.0	0.00e+00	0	57	0	3236954112	49	4243
2026-01-05 07:09:33.52	307.33	10.81	-43.8	-44.8	17.0	0.00e+00	0	57	0	3242196992	49	4264
2026-01-05 07:09:34.51	307.21	10.74	-43.9	-44.8	16.9	0.00e+00	0	57	0	3247439872	49	4277
2026-01-05 07:09:35.50	307.10	10.67	-43.9	-44.8	16.9	0.00e+00	0	57	0	3252682752	49	4280
2026-01-05 07:09:36.49	306.98	10.60	-43.9	-44.8	17.0	0.00e+00	0	57	0	3258974208	49	4259
2026-01-05 07:09:37.48	306.87	10.53	-43.9	-44.8	16.9	0.00e+00	0	57	0	3264217088	49	4287
2026-01-05 07:09:38.46	306.76	10.46	-43.9	-44.8	16.9	0.00e+00	0	57	0	3269459968	49	4285
2026-01-05 07:09:39.45	306.64	10.40	-43.8	-44.7	17.0	0.00e+00	0	57	0	3275751424	49	4214
2026-01-05 07:09:40.44	306.53	10.33	-43.7	-44.6	17.1	0.00e+00	0	57	0	3280994304	49	4162
2026-01-05 07:09:41.44	306.42	10.26	-43.7	-44.6	17.1	0.00e+00	0	57	0	3286237184	49	4160
2026-01-05 07:09:42.43	306.31	10.19	-43.7	-44.7	17.0	0.00e+00	0	57	0	3292528640	49	4203
2026-01-05 07:09:43.42	306.20	10.12	-43.7	-44.7	17.0	0.00e+00	0	57	0	3297771520	49	4206
2026-01-05 07:09:44.40	306.09	10.06	-43.7	-44.6	17.1	0.00e+00	0	57	0	3303014400	49	4157
2026-01-05 07:09:45.39	305.98	9.99	-43.8	-44.7	16.9	0.00e+00	0	57	0	3309305856	49	4238
2026-01-05 07:09:46.37	305.87	9.92	-43.9	-44.8	16.8	0.00e+00	0	57	0	3314548736	49	4290
2026-01-05 07:09:47.36	305.76	9.85	-43.7	-44.6	17.1	0.00e+00	0	57	0	3319791616	49	4179
2026-01-05 07:09:48.35	305.66	9.79	-43.6	-44.5	17.1	0.00e+00	0	57	0	3325034496	49	4139
2026-01-05 07:09:49.34	305.55	9.72	-43.7	-44.6	17.0	0.00e+00	0	57	0	3331325952	49	4172
2026-01-05 07:09:50.32	305.44	9.65	-43.7	-44.7	16.9	0.00e+00	0	57	0	3336568832	49	4210
2026-01-05 07:09:51.31	305.34	9.59	-43.8	-44.8	16.8	0.00e+00	0	57	0	3341811712	49	4257
2026-01-05 07:09:52.30	305.23	9.52	-44.0	-45.0	16.7	0.00e+00	0	57	0	3348103168	49	4355
2026-01-05 07:09:53.29	305.12	9.45	-44.2	-45.2	16.4	0.00e+00	0	57	0	3353346048	50	4216
2026-01-05 07:09:54.29	305.02	9.38	-44.1	-45.1	16.5	0.00e+00	0	57	0	3358588928	50	4179
2026-01-05 07:09:55.27	304.91	9.32	-44.3	-45.3	16.3	0.00e+00	0	57	0	3364880384	50	4270
2026-01-05 07:09:56.27	304.81	9.25	-44.2	-45.3	16.4	0.00e+00	0	57	0	3370123264	50	4249
2026-01-05 07:09:57.26	304.71	9.18	-44.5	-45.5	16.1	0.00e+00	0	57	0	3375366144	50	4375
2026-01-05 07:09:58.25	304.60	9.12	-44.4	-45.4	16.2	0.00e+00	0	57	0	3380609024	50	4326
2026-01-05 07:09:59.24	304.50	9.05	-44.5	-45.5	16.0	0.00e+00	0	57	0	3386900480	50	4387
2026-01-05 07:10:00.23	304.40	8.98	-44.4	-45.5	16.1	0.00e+00	0	57	0	3392143360	50	4368
2026-01-05 07:10:01.22	304.30	8.92	-44.6	-45.7	15.8	0.00e+00	0	57	0	3398434816	51	4225
2026-01-05 07:10:02.21	304.20	8.85	-44.7	-45.8	15.7	0.00e+00	0	57	0	3403677696	51	4290
2026-01-05 07:10:03.19	304.10	8.79	-44.6	-45.7	15.7	0.00e+00	0	57	0	3408920576	51	4238
2026-01-05 07:10:04.18	304.00	8.72	-44.8	-46.0	15.5	0.00e+00	0	57	0	3414163456	51	4360
2026-01-05 07:10:05.17	303.90	8.65	-44.5	-45.6	15.8	0.00e+00	0	57	0	3420454912	51	4187
2026-01-05 07:10:06.16	303.80	8.59	-44.5	-45.6	15.8	0.00e+00	0	57	0	3425697792	51	4154
2026-01-05 07:10:07.15	303.70	8.52	-44.5	-45.6	15.8	0.00e+00	0	57	0	3430940672	51	4152
2026-01-05 07:10:08.14	303.60	8.46	-44.7	-45.8	15.5	0.00e+00	0	57	0	3437232128	51	4282
2026-01-05 07:10:09.14	303.50	8.39	-44.6	-45.7	15.6	0.00e+00	0	57	0	3442475008	51	4239
2026-01-05 07:10:10.12	303.41	8.32	-44.9	-46.2	15.1	0.00e+00	0	57	0	3447717888	51	4460
2026-01-05 07:10:11.10	303.31	8.26	-44.9	-46.1	15.2	1.10e-06	0	57	0	3452960768	51	4407
2026-01-05 07:10:12.10	303.21	8.19	-45.0	-46.3	14.9	1.10e-06	0	57	0	3459252224	52	4268
2026-01-05 07:10:13.09	303.12	8.13	-44.8	-46.1	15.1	0.00e+00	0	57	0	3464495104	52	4159
2026-01-05 07:10:14.09	303.02	8.06	-45.1	-46.5	14.7	0.00e+00	0	57	0	3469737984	52	4348
2026-01-05 07:10:15.08	302.92	8.00	-45.5	-46.9	14.2	0.00e+00	0	57	0	3476029440	52	4565
2026-01-05 07:10:16.07	302.83	7.93	-45.1	-46.5	14.6	2.20e-06	0	57	0	3481272320	52	4341
2026-01-05 07:10:17.06	302.74	7.87	-45.2	-46.6	14.4	1.10e-06	0	57	0	3486515200	52	4416
2026-01-05 07:10:18.05	302.64	7.80	-45.3	-46.7	14.3	4.50e-06	0	57	0	3492806656	52	4464
2026-01-05 07:10:19.04	302.55	7.74	-45.4	-46.8	14.0	2.20e-06	0	57	0	3498049536	52	4523
2026-01-05 07:10:20.03	302.46	7.67	-45.5	-46.9	13.9	5.70e-06	0	57	0	3503292416	52	4590
2026-01-05 07:10:21.02	302.36	7.61	-45.6	-47.2	13.7	6.80e-06	0	57	0	3509583872	53	4446
2026-01-05 07:10:22.00	302.27	7.55	-45.7	-47.3	13.5	1.83e-05	0	57	0	3514826752	53	4505
2026-01-05 07:10:23.00	302.18	7.48	-46.1	-47.8	12.8	5.26e-05	0	57	0	3520069632	53	4802
2026-01-05 07:10:23.99	302.09	7.42	-45.9	-47.7	12.9	8.81e-05	0	57	0	3526361088	54	4457
2026-01-05 07:10:24.97	302.00	7.35	-45.9	-47.6	12.9	6.75e-05	0	58	0	3531603968	54	4429
2026-01-05 07:10:25.96	301.91	7.29	-45.8	-47.5	13.0	6.98e-05	0	57	0	3536846848	54	4367
2026-01-05 07:10:26.95	301.82	7.22	-46.1	-47.9	12.5	1.25e-04	0	57	0	3542089728	54	4590
2026-01-05 07:10:27.93	301.73	7.16	-45.9	-47.7	12.7	1.81e-04	0	57	0	3548381184	54	4479
2026-01-05 07:10:28.92	301.64	7.10	-46.0	-47.9	12.4	2.18e-04	0	57	0	3553624064	54	4577
2026-01-05 07:10:29.91	301.55	7.03	-46.0	-47.9	12.3	2.27e-04	0	57	0	3558866944	54	4583
2026-01-05 07:10:30.91	301.46	6.97	-46.2	-48.2	12.1	3.39e-04	0	57	0	3565158400	54	4706
2026-01-05 07:10:31.89	301.37	6.91	-46.2	-48.2	11.9	5.12e-04	0	57	0	3570401280	54	4716
2026-01-05 07:10:32.88	301.29	6.84	-46.3	-48.4	11.7	7.49e-04	0	57	0	3575644160	54	4831
2026-01-05 07:10:33.87	301.20	6.78	-46.3	-48.5	11.6	1.04e-03	0	57	0	3581935616	54	4880
2026-01-05 07:10:34.86	301.11	6.72	-46.6	-48.9	11.1	1.74e-03	0	57	0	3587178496	54	5101
2026-01-05 07:10:35.85	301.03	6.65	-46.5	-48.9	10.9	2.53e-03	0	57	0	3592421376	55	4854
2026-01-05 07:10:36.84	300.94	6.59	-46.7	-49.2	10.6	3.68e-03	0	57	0	3598712832	55	5001
2026-01-05 07:10:37.82	300.86	6.53	-46.7	-49.2	10.6	5.11e-03	0	57	0	3603955712	55	5006
2026-01-05 07:10:38.80	300.77	6.47	-46.9	-49.6	10.1	6.97e-03	0	57	0	3609198592	55	5244
2026-01-05 07:10:39.80	300.69	6.40	-46.8	-49.4	10.2	8.43e-03	0	57	0	3614441472	55	5136
2026-01-05 07:10:40.79	300.60	6.34	-46.7	-49.4	10.1	7.90e-03	0	57	0	3620732928	55	5132
2026-01-05 07:10:41.78	300.52	6.28	-46.9	-49.8	9.7	1.24e-02	0	57	0	3625975808	55	5353
2026-01-05 07:10:42.77	300.43	6.21	-47.2	-50.2	9.4	1.92e-02	0	57	0	3631218688	56	5304
2026-01-05 07:10:43.77	300.35	6.15	-47.3	-50.5	8.9	2.96e-02	0	57	0	3637510144	56	5475
2026-01-05 07:10:44.76	300.27	6.09	-47.4	-50.6	8.8	3.37e-02	0	57	0	3642753024	56	5560
2026-01-05 07:10:45.75	300.18	6.03	-47.4	-50.8	8.5	4.59e-02	0	58	0	3647995904	56	5709
2026-01-05 07:10:46.74	300.10	5.96	-47.6	-51.1	8.2	5.97e-02	0	57	0	3654287360	56	5877
2026-01-05 07:10:47.73	300.02	5.90	-47.6	-51.3	7.9	7.60e-02	0	57	0	3659530240	57	5679
