passes_logs/2026/01/05/R3.0SM8_Murmansk_STILSPACE/R3.0SM8_Murmansk_STILSPACE__20260105_055753_SUOMI_NPP_rec.log

#Pass ID: 20260105_055753_SUOMI NPP
#Satellite: SUOMI NPP
#Configuration: NPP
#almurnet v.1.7.20240730
#Start time: 2026-01-05 05:57:53

#Version: 2.2.20231116
#Station: R3.0SM8_Murmansk_STILSPACE
#Location: 33.092731 lon 68.902999 lat
#TLE: 1 37849U 11061A   26003.96724563  .00000164  00000+0  98899-4 0  9990
#TLE: 2 37849  98.7800 306.1116 0002573  82.3190 277.8279 14.19522066735141

#Time	Az	El	Level	Level2	SNR	BER	BlckErr	Temp	State	Recorded	gain1	gain2
2026-01-05 05:57:53.43	72.85	3.01	-52.3	-66.2	3.8	1.49e+00	0	49	0	0	67	17796
2026-01-05 05:57:54.40	72.79	3.06	-52.3	-66.1	3.8	1.49e+00	0	50	104	0	67	17535
2026-01-05 05:57:55.39	72.72	3.12	-52.2	-66.0	3.8	1.49e+00	0	50	104	0	67	17421
2026-01-05 05:57:56.38	72.66	3.18	-52.2	-66.0	3.8	1.49e+00	0	50	104	0	67	17326
2026-01-05 05:57:57.37	72.59	3.24	-52.1	-65.9	3.8	1.49e+00	0	50	104	0	67	17122
2026-01-05 05:57:58.36	72.52	3.30	-51.9	-65.8	3.8	1.49e+00	0	50	104	0	66	17895
2026-01-05 05:57:59.35	72.46	3.36	-51.8	-65.6	3.8	1.49e+00	0	50	104	0	66	17522
2026-01-05 05:58:00.35	72.39	3.42	-51.6	-65.4	3.8	1.49e+00	0	50	104	0	66	17109
2026-01-05 05:58:01.34	72.32	3.47	-51.5	-65.3	3.8	1.49e+00	0	50	104	0	66	16954
2026-01-05 05:58:02.33	72.25	3.53	-51.5	-65.3	3.8	1.49e+00	0	50	104	0	65	17901
2026-01-05 05:58:03.32	72.18	3.59	-51.5	-65.3	3.8	1.49e+00	0	50	104	0	65	17955
2026-01-05 05:58:04.30	72.12	3.65	-51.4	-65.3	3.8	1.49e+00	0	50	104	0	65	17939
2026-01-05 05:58:05.29	72.05	3.71	-51.5	-65.2	3.8	1.49e+00	0	50	104	0	65	17846
2026-01-05 05:58:06.27	71.98	3.77	-51.5	-65.2	3.8	1.49e+00	0	50	104	0	65	17840
2026-01-05 05:58:07.26	71.91	3.83	-51.5	-65.2	3.8	1.49e+00	0	50	104	0	65	17873
2026-01-05 05:58:08.25	71.84	3.89	-51.5	-65.3	3.8	1.49e+00	0	50	104	0	65	17906
2026-01-05 05:58:09.23	71.77	3.95	-51.5	-65.3	3.8	1.49e+00	0	50	104	0	65	17937
2026-01-05 05:58:10.23	71.70	4.01	-51.5	-65.3	3.8	1.49e+00	0	51	104	0	65	17948
2026-01-05 05:58:11.22	71.63	4.07	-51.5	-65.3	3.8	1.49e+00	0	50	104	0	65	17992
2026-01-05 05:58:12.21	71.56	4.12	-51.5	-65.3	3.8	1.49e+00	0	51	104	0	65	17981
2026-01-05 05:58:13.20	71.49	4.18	-51.5	-65.3	3.8	1.49e+00	0	50	104	0	65	17932
2026-01-05 05:58:14.19	71.42	4.24	-51.4	-65.2	3.8	1.49e+00	0	51	104	0	65	17806
2026-01-05 05:58:15.18	71.35	4.30	-51.5	-65.1	3.8	1.49e+00	0	50	104	0	65	17595
2026-01-05 05:58:16.16	71.28	4.36	-51.5	-65.0	3.8	1.49e+00	0	51	104	0	65	17321
2026-01-05 05:58:17.15	71.20	4.42	-51.5	-64.7	3.8	1.49e+00	0	51	104	0	65	16780
2026-01-05 05:58:18.14	71.13	4.48	-51.4	-64.3	3.8	1.49e+00	0	51	104	0	65	16091
2026-01-05 05:58:19.12	71.06	4.54	-51.3	-63.8	3.8	1.49e+00	0	51	104	0	65	15060
2026-01-05 05:58:20.11	70.99	4.60	-51.3	-63.1	3.8	1.49e+00	0	51	104	0	65	13929
2026-01-05 05:58:21.10	70.91	4.66	-51.3	-62.2	4.1	1.48e+00	0	51	104	0	65	12644
2026-01-05 05:58:22.08	70.84	4.72	-51.1	-61.5	4.3	1.40e+00	0	51	0	0	65	11570
2026-01-05 05:58:23.08	70.76	4.79	-51.1	-60.7	4.6	1.28e+00	0	51	0	1048576	65	10600
2026-01-05 05:58:24.06	70.69	4.85	-51.0	-60.1	4.8	7.84e-01	0	51	0	3145728	64	10445
2026-01-05 05:58:25.06	70.61	4.91	-50.9	-59.3	5.3	6.48e-01	0	51	0	5242880	64	9519
2026-01-05 05:58:26.05	70.54	4.97	-50.8	-58.8	5.6	4.87e-01	0	51	0	6291456	64	9035
2026-01-05 05:58:27.03	70.46	5.03	-50.7	-58.2	6.0	4.15e-01	0	51	0	8388608	64	8462
2026-01-05 05:58:28.01	70.39	5.09	-50.7	-58.0	6.1	3.24e-01	0	51	0	10485760	64	8197
2026-01-05 05:58:28.99	70.31	5.15	-50.8	-58.4	5.8	3.45e-01	0	51	0	12582912	64	8657
2026-01-05 05:58:29.98	70.24	5.21	-50.7	-58.1	6.1	3.80e-01	0	51	0	13631488	64	8332
2026-01-05 05:58:30.96	70.16	5.27	-50.7	-57.8	6.3	2.96e-01	0	51	0	15728640	64	8071
2026-01-05 05:58:31.95	70.08	5.33	-50.6	-57.7	6.4	2.40e-01	0	51	0	17825792	64	7929
2026-01-05 05:58:32.94	70.01	5.40	-50.5	-57.5	6.6	2.30e-01	0	51	0	19922944	64	7791
2026-01-05 05:58:33.93	69.93	5.46	-50.6	-57.7	6.4	2.21e-01	0	51	0	20971520	64	7975
2026-01-05 05:58:34.92	69.85	5.52	-50.5	-57.1	6.9	2.19e-01	0	51	0	23068672	64	7429
2026-01-05 05:58:35.91	69.77	5.58	-50.3	-56.2	7.9	1.05e-01	0	51	0	25165824	63	7065
2026-01-05 05:58:36.90	69.69	5.64	-50.1	-55.5	8.5	5.76e-02	0	51	0	27262976	63	6546
2026-01-05 05:58:37.89	69.61	5.70	-49.9	-55.0	9.0	3.35e-02	0	52	0	28311552	62	6529
2026-01-05 05:58:38.87	69.54	5.77	-49.7	-54.3	9.8	1.52e-02	0	52	0	30408704	62	6035
2026-01-05 05:58:39.87	69.46	5.83	-49.5	-53.9	10.3	7.19e-03	0	52	0	32505856	62	5728
2026-01-05 05:58:40.86	69.38	5.89	-49.2	-53.2	10.9	3.67e-03	0	52	0	34603008	61	5636
2026-01-05 05:58:41.84	69.30	5.95	-49.0	-52.7	11.4	1.20e-03	0	52	0	36700160	61	5316
2026-01-05 05:58:42.82	69.22	6.02	-49.0	-52.7	11.4	8.06e-04	0	52	0	37748736	60	5597
2026-01-05 05:58:43.81	69.13	6.08	-48.9	-52.5	11.7	7.42e-04	0	52	0	39845888	60	5481
2026-01-05 05:58:44.80	69.05	6.14	-49.1	-52.9	11.3	7.91e-04	0	52	0	41943040	60	5742
2026-01-05 05:58:45.78	68.97	6.20	-49.2	-53.1	11.1	1.30e-03	0	52	0	44040192	60	5863
2026-01-05 05:58:46.78	68.89	6.27	-49.2	-53.0	11.3	1.31e-03	0	52	0	45088768	60	5789
2026-01-05 05:58:47.76	68.81	6.33	-49.1	-53.0	11.2	1.60e-03	0	52	0	47185920	60	5850
2026-01-05 05:58:48.74	68.72	6.39	-49.2	-53.1	11.1	2.06e-03	0	52	0	49283072	60	5889
2026-01-05 05:58:49.73	68.64	6.45	-49.1	-53.0	11.3	1.09e-03	0	52	0	51380224	60	5796
2026-01-05 05:58:50.72	68.56	6.52	-49.0	-52.9	11.4	7.39e-04	0	52	0	52428800	60	5745
2026-01-05 05:58:51.71	68.47	6.58	-49.1	-52.9	11.4	9.54e-04	0	52	0	54525952	60	5738
2026-01-05 05:58:52.70	68.39	6.64	-49.4	-53.6	10.7	1.87e-03	0	52	0	56623104	60	6214
2026-01-05 05:58:53.70	68.30	6.71	-49.4	-53.3	11.0	3.05e-03	0	52	0	58720256	60	6059
2026-01-05 05:58:54.69	68.22	6.77	-49.0	-52.8	11.4	1.16e-03	0	52	0	60817408	60	5691
2026-01-05 05:58:55.68	68.13	6.84	-48.8	-52.3	12.0	5.76e-04	0	52	0	61865984	60	5368
2026-01-05 05:58:56.67	68.04	6.90	-48.9	-52.3	11.9	5.18e-04	0	52	0	63963136	60	5401
2026-01-05 05:58:57.67	67.96	6.97	-48.7	-52.1	12.2	2.32e-04	0	52	0	66060288	60	5222
2026-01-05 05:58:58.66	67.87	7.03	-48.9	-52.5	11.7	3.66e-04	0	52	0	68157440	60	5519
2026-01-05 05:58:59.65	67.78	7.09	-49.0	-52.7	11.6	7.83e-04	0	52	0	69206016	60	5600
2026-01-05 05:59:00.64	67.69	7.16	-49.1	-52.8	11.5	7.14e-04	0	53	0	71303168	60	5682
2026-01-05 05:59:01.62	67.61	7.22	-49.1	-52.8	11.4	9.30e-04	0	53	0	73400320	60	5682
2026-01-05 05:59:02.61	67.52	7.29	-49.2	-53.0	11.3	1.10e-03	0	52	0	75497472	60	5839
2026-01-05 05:59:03.60	67.43	7.35	-49.1	-52.9	11.4	9.81e-04	0	53	0	76546048	60	5740
2026-01-05 05:59:04.59	67.34	7.41	-49.3	-53.3	11.0	1.24e-03	0	52	0	78643200	60	6011
2026-01-05 05:59:05.59	67.25	7.48	-49.2	-53.1	11.2	1.68e-03	0	53	0	80740352	60	5912
2026-01-05 05:59:06.57	67.16	7.54	-49.2	-53.1	11.2	1.18e-03	0	53	0	82837504	60	5919
2026-01-05 05:59:07.56	67.07	7.61	-49.2	-53.2	11.2	1.54e-03	0	53	0	84934656	60	5932
2026-01-05 05:59:08.55	66.98	7.67	-49.1	-52.8	11.5	8.71e-04	0	53	0	85983232	60	5675
2026-01-05 05:59:09.54	66.89	7.74	-49.1	-52.7	11.6	6.32e-04	0	53	0	88080384	60	5622
2026-01-05 05:59:10.52	66.80	7.80	-49.0	-52.6	11.7	5.55e-04	0	53	0	90177536	60	5585
2026-01-05 05:59:11.51	66.70	7.87	-49.3	-53.1	11.2	8.02e-04	0	53	0	92274688	60	5916
2026-01-05 05:59:12.50	66.61	7.93	-49.3	-53.2	11.1	1.13e-03	0	53	0	93323264	60	5950
2026-01-05 05:59:13.49	66.52	8.00	-49.2	-53.0	11.4	1.29e-03	0	53	0	95420416	60	5845
2026-01-05 05:59:14.48	66.42	8.07	-49.1	-52.8	11.6	9.61e-04	0	53	0	97517568	60	5667
2026-01-05 05:59:15.47	66.33	8.13	-48.9	-52.4	11.9	4.65e-04	0	53	0	99614720	60	5455
2026-01-05 05:59:16.46	66.23	8.20	-48.8	-52.2	12.2	1.76e-04	0	53	0	100663296	60	5283
2026-01-05 05:59:17.45	66.14	8.26	-48.8	-52.1	12.3	1.70e-04	0	53	0	102760448	60	5240
2026-01-05 05:59:18.43	66.04	8.33	-48.7	-51.9	12.5	1.70e-04	0	53	0	104857600	60	5103
2026-01-05 05:59:19.42	65.95	8.39	-48.6	-51.7	12.7	6.33e-05	0	53	0	106954752	60	5016
2026-01-05 05:59:20.40	65.85	8.46	-48.7	-51.9	12.6	1.23e-04	0	53	0	108003328	60	5104
2026-01-05 05:59:21.39	65.76	8.53	-48.5	-51.6	12.9	5.18e-05	0	53	0	110100480	60	4949
2026-01-05 05:59:22.38	65.66	8.59	-48.5	-51.5	13.0	4.50e-05	0	53	0	112197632	59	5175
2026-01-05 05:59:23.37	65.56	8.66	-48.5	-51.6	12.9	3.28e-05	0	53	0	114294784	59	5239
2026-01-05 05:59:24.36	65.46	8.73	-48.5	-51.4	13.0	3.05e-05	0	53	0	116391936	59	5133
2026-01-05 05:59:25.35	65.37	8.79	-48.5	-51.5	13.0	4.95e-05	0	53	0	117440512	59	5174
2026-01-05 05:59:26.34	65.27	8.86	-48.3	-51.2	13.3	2.21e-05	0	53	0	119537664	59	4988
2026-01-05 05:59:27.32	65.17	8.93	-48.4	-51.2	13.3	1.67e-05	0	53	0	121634816	59	4998
2026-01-05 05:59:28.31	65.07	8.99	-48.5	-51.4	13.1	2.67e-05	0	53	0	123731968	59	5118
2026-01-05 05:59:29.29	64.97	9.06	-48.3	-51.1	13.3	2.36e-05	0	53	0	124780544	59	4983
2026-01-05 05:59:30.27	64.87	9.13	-48.5	-51.4	13.2	1.52e-05	0	53	0	126877696	59	5124
2026-01-05 05:59:31.26	64.77	9.19	-48.3	-51.1	13.4	1.98e-05	0	53	0	128974848	59	4941
2026-01-05 05:59:32.25	64.66	9.26	-48.4	-51.3	13.3	1.75e-05	0	53	0	131072000	59	5047
2026-01-05 05:59:33.24	64.56	9.33	-48.5	-51.4	13.1	2.21e-05	0	53	0	132120576	59	5133
2026-01-05 05:59:34.24	64.46	9.40	-48.3	-51.1	13.4	1.83e-05	0	53	0	134217728	59	4956
2026-01-05 05:59:35.23	64.36	9.46	-48.4	-51.2	13.3	1.37e-05	0	53	0	136314880	59	5025
2026-01-05 05:59:36.22	64.25	9.53	-48.5	-51.3	13.2	2.59e-05	0	53	0	138412032	59	5091
2026-01-05 05:59:37.21	64.15	9.60	-48.4	-51.2	13.4	2.28e-05	0	53	0	140509184	59	5004
2026-01-05 05:59:38.20	64.04	9.67	-48.4	-51.2	13.3	1.22e-05	0	54	0	141557760	59	5034
2026-01-05 05:59:39.19	63.94	9.73	-48.5	-51.4	13.1	2.51e-05	0	54	0	143654912	59	5140
2026-01-05 05:59:40.18	63.83	9.80	-48.4	-51.2	13.3	1.60e-05	0	54	0	145752064	59	5024
2026-01-05 05:59:41.17	63.72	9.87	-48.5	-51.3	13.2	1.22e-05	0	54	0	147849216	59	5081
2026-01-05 05:59:42.15	63.62	9.94	-48.4	-51.3	13.3	2.21e-05	0	54	0	148897792	59	5084
2026-01-05 05:59:43.14	63.51	10.01	-48.4	-51.3	13.3	1.98e-05	0	54	0	150994944	59	5055
2026-01-05 05:59:44.12	63.40	10.07	-48.4	-51.2	13.3	2.44e-05	0	54	0	153092096	59	4990
2026-01-05 05:59:45.10	63.30	10.14	-48.4	-51.2	13.4	9.90e-06	0	54	0	155189248	59	5020
2026-01-05 05:59:46.09	63.19	10.21	-48.5	-51.5	13.2	8.30e-06	0	54	0	156237824	59	5167
2026-01-05 05:59:47.08	63.08	10.28	-48.5	-51.3	13.3	1.98e-05	0	54	0	158334976	59	5092
2026-01-05 05:59:48.07	62.97	10.35	-48.5	-51.3	13.3	1.44e-05	0	54	0	160432128	59	5094
2026-01-05 05:59:49.06	62.86	10.42	-48.8	-51.8	12.7	2.59e-05	0	54	0	162529280	59	5384
2026-01-05 05:59:50.05	62.75	10.49	-48.6	-51.6	13.0	3.89e-05	0	54	0	164626432	59	5241
2026-01-05 05:59:51.03	62.64	10.55	-48.7	-51.7	12.9	2.97e-05	0	54	0	165675008	59	5305
2026-01-05 05:59:52.03	62.52	10.62	-48.7	-51.7	12.9	4.42e-05	0	54	0	167772160	59	5280
2026-01-05 05:59:53.01	62.41	10.69	-48.5	-51.4	13.2	2.82e-05	0	54	0	169869312	59	5119
2026-01-05 05:59:54.00	62.30	10.76	-48.4	-51.2	13.3	1.67e-05	0	54	0	171966464	59	5025
2026-01-05 05:59:55.00	62.18	10.83	-48.4	-51.2	13.4	1.67e-05	0	54	0	173015040	59	4988
2026-01-05 05:59:55.99	62.07	10.90	-48.5	-51.2	13.3	2.13e-05	0	54	0	175112192	59	5029
2026-01-05 05:59:56.98	61.95	10.97	-48.7	-51.7	12.8	1.60e-05	0	54	0	177209344	59	5329
2026-01-05 05:59:57.97	61.84	11.04	-48.6	-51.6	13.1	4.73e-05	0	54	0	179306496	59	5229
2026-01-05 05:59:58.95	61.72	11.11	-48.7	-51.7	12.9	3.50e-05	0	54	0	180355072	59	5290
2026-01-05 05:59:59.94	61.61	11.18	-48.8	-51.8	12.8	6.86e-05	0	54	0	182452224	59	5362
2026-01-05 06:00:00.93	61.49	11.25	-48.8	-51.8	12.8	7.55e-05	0	54	0	184549376	59	5363
2026-01-05 06:00:01.92	61.37	11.32	-48.8	-51.8	12.8	6.17e-05	0	54	0	186646528	59	5398
2026-01-05 06:00:02.90	61.25	11.39	-48.7	-51.6	13.1	3.66e-05	0	54	0	187695104	59	5271
2026-01-05 06:00:03.89	61.14	11.46	-48.6	-51.4	13.2	2.28e-05	0	54	0	189792256	59	5149
2026-01-05 06:00:04.88	61.02	11.53	-48.6	-51.4	13.3	1.37e-05	0	54	0	191889408	59	5126
2026-01-05 06:00:05.87	60.90	11.60	-48.6	-51.5	13.2	1.75e-05	0	54	0	193986560	59	5176
2026-01-05 06:00:06.86	60.78	11.67	-49.0	-52.1	12.6	6.33e-05	0	54	0	196083712	59	5543
2026-01-05 06:00:07.84	60.66	11.74	-48.8	-51.7	12.9	8.31e-05	0	54	0	197132288	59	5336
2026-01-05 06:00:08.83	60.53	11.81	-48.3	-51.1	13.6	1.90e-05	0	54	0	199229440	59	4929
2026-01-05 06:00:09.82	60.41	11.88	-48.2	-50.8	13.8	5.30e-06	0	54	0	201326592	59	4810
2026-01-05 06:00:10.81	60.29	11.95	-48.0	-50.5	14.2	1.50e-06	0	54	0	203423744	59	4602
2026-01-05 06:00:11.81	60.16	12.02	-47.9	-50.3	14.3	2.20e-06	0	54	0	204472320	59	4543
2026-01-05 06:00:12.80	60.04	12.09	-48.0	-50.4	14.3	7.00e-07	0	54	0	206569472	59	4582
2026-01-05 06:00:13.79	59.91	12.16	-47.9	-50.3	14.4	0.00e+00	0	54	0	208666624	58	4791
2026-01-05 06:00:14.78	59.79	12.23	-48.0	-50.5	14.1	1.50e-06	0	54	0	210763776	58	4914
2026-01-05 06:00:15.78	59.66	12.31	-48.0	-50.4	14.3	0.00e+00	0	54	0	212860928	58	4842
2026-01-05 06:00:16.76	59.54	12.38	-47.9	-50.2	14.4	0.00e+00	0	54	0	213909504	58	4753
2026-01-05 06:00:17.75	59.41	12.45	-47.9	-50.3	14.4	0.00e+00	0	54	0	216006656	58	4773
2026-01-05 06:00:18.74	59.28	12.52	-48.0	-50.5	14.3	0.00e+00	0	54	0	218103808	58	4888
2026-01-05 06:00:19.73	59.15	12.59	-48.0	-50.5	14.3	1.50e-06	0	54	0	220200960	58	4880
2026-01-05 06:00:20.72	59.02	12.66	-47.9	-50.3	14.4	1.50e-06	0	55	0	221249536	58	4806
2026-01-05 06:00:21.72	58.89	12.73	-47.9	-50.4	14.3	7.00e-07	0	54	0	223346688	58	4819
2026-01-05 06:00:22.70	58.76	12.80	-48.0	-50.4	14.3	7.00e-07	0	54	0	225443840	58	4836
2026-01-05 06:00:23.69	58.63	12.87	-48.1	-50.6	14.1	2.20e-06	0	55	0	227540992	58	4983
2026-01-05 06:00:24.68	58.50	12.95	-48.3	-50.9	13.8	3.80e-06	0	55	0	228589568	58	5131
2026-01-05 06:00:25.67	58.37	13.02	-48.2	-50.8	13.9	6.80e-06	0	55	0	230686720	58	5080
2026-01-05 06:00:26.66	58.23	13.09	-47.9	-50.3	14.5	7.00e-07	0	55	0	232783872	58	4760
2026-01-05 06:00:27.65	58.10	13.16	-47.9	-50.1	14.6	0.00e+00	0	54	0	234881024	58	4704
2026-01-05 06:00:28.64	57.96	13.23	-47.8	-50.1	14.7	7.00e-07	0	55	0	236978176	58	4670
2026-01-05 06:00:29.63	57.83	13.30	-47.7	-50.0	14.7	0.00e+00	0	55	0	238026752	58	4618
2026-01-05 06:00:30.61	57.70	13.38	-47.9	-50.3	14.5	7.00e-07	0	55	0	240123904	58	4783
2026-01-05 06:00:31.60	57.56	13.45	-47.9	-50.3	14.5	0.00e+00	0	55	0	242221056	58	4785
2026-01-05 06:00:32.60	57.42	13.52	-47.7	-50.0	14.7	0.00e+00	0	55	0	244318208	58	4608
2026-01-05 06:00:33.58	57.28	13.59	-47.6	-49.8	14.9	0.00e+00	0	55	0	245366784	58	4526
2026-01-05 06:00:34.58	57.14	13.66	-47.5	-49.7	15.1	7.00e-07	0	55	0	247463936	58	4446
2026-01-05 06:00:35.57	57.00	13.74	-47.7	-49.9	14.8	0.00e+00	0	55	0	249561088	58	4565
2026-01-05 06:00:36.55	56.87	13.81	-47.7	-49.9	14.8	0.00e+00	0	55	0	251658240	58	4589
2026-01-05 06:00:37.54	56.72	13.88	-47.7	-50.0	14.8	0.00e+00	0	55	0	252706816	58	4617
2026-01-05 06:00:38.53	56.58	13.95	-47.7	-50.1	14.7	7.00e-07	0	55	0	254803968	58	4660
2026-01-05 06:00:39.52	56.44	14.02	-47.5	-49.7	15.0	0.00e+00	0	55	0	256901120	58	4473
2026-01-05 06:00:40.50	56.30	14.10	-47.6	-49.8	14.9	7.00e-07	0	55	0	258998272	58	4515
2026-01-05 06:00:41.49	56.16	14.17	-47.5	-49.8	14.9	0.00e+00	0	55	0	261095424	58	4507
2026-01-05 06:00:42.48	56.01	14.24	-47.6	-49.9	14.8	0.00e+00	0	55	0	262144000	58	4573
2026-01-05 06:00:43.46	55.87	14.31	-47.8	-50.2	14.5	0.00e+00	0	55	0	264241152	58	4731
2026-01-05 06:00:44.45	55.72	14.38	-47.8	-50.2	14.6	7.00e-07	0	55	0	266338304	58	4712
2026-01-05 06:00:45.44	55.58	14.46	-47.8	-50.2	14.6	0.00e+00	0	55	0	268435456	58	4709
2026-01-05 06:00:46.44	55.43	14.53	-48.0	-50.5	14.3	0.00e+00	0	55	0	269484032	58	4887
2026-01-05 06:00:47.43	55.28	14.60	-47.9	-50.3	14.4	7.00e-07	0	55	0	271581184	58	4807
2026-01-05 06:00:48.42	55.13	14.68	-48.0	-50.4	14.3	1.50e-06	0	55	0	273678336	58	4858
2026-01-05 06:00:49.41	54.98	14.75	-48.1	-50.8	14.0	2.20e-06	0	55	0	275775488	58	5050
2026-01-05 06:00:50.40	54.83	14.82	-48.1	-50.7	14.0	1.50e-06	0	55	0	276824064	58	5034
2026-01-05 06:00:51.39	54.68	14.89	-48.2	-50.9	13.9	2.20e-06	0	55	0	278921216	58	5126
2026-01-05 06:00:52.38	54.53	14.97	-48.1	-50.7	14.0	3.00e-06	0	55	0	281018368	58	5034
2026-01-05 06:00:53.37	54.38	15.04	-48.0	-50.6	14.2	3.80e-06	0	55	0	283115520	58	4953
2026-01-05 06:00:54.37	54.22	15.11	-48.1	-50.6	14.2	0.00e+00	0	55	0	284164096	58	4934
2026-01-05 06:00:55.36	54.07	15.18	-48.1	-50.6	14.1	1.50e-06	0	55	0	286261248	58	4977
2026-01-05 06:00:56.35	53.92	15.26	-48.0	-50.5	14.3	7.00e-07	0	55	0	288358400	58	4915
2026-01-05 06:00:57.33	53.76	15.33	-48.0	-50.5	14.3	7.00e-07	0	55	0	290455552	58	4874
2026-01-05 06:00:58.33	53.60	15.40	-48.1	-50.6	14.1	3.00e-06	0	55	0	292552704	58	4958
2026-01-05 06:00:59.31	53.45	15.47	-48.2	-50.7	14.1	3.00e-06	0	55	0	293601280	58	5011
2026-01-05 06:01:00.30	53.29	15.55	-47.9	-50.4	14.4	7.00e-07	0	55	0	295698432	58	4816
2026-01-05 06:01:01.30	53.13	15.62	-47.9	-50.3	14.5	7.00e-07	0	55	0	297795584	58	4807
2026-01-05 06:01:02.28	52.97	15.69	-48.1	-50.5	14.3	1.50e-06	0	55	0	299892736	58	4915
2026-01-05 06:01:03.27	52.81	15.76	-48.2	-50.7	14.0	3.80e-06	0	55	0	300941312	58	5036
2026-01-05 06:01:04.26	52.65	15.84	-48.4	-51.1	13.7	6.80e-06	0	55	0	303038464	58	5262
2026-01-05 06:01:05.26	52.49	15.91	-48.4	-51.2	13.6	9.10e-06	0	55	0	305135616	58	5283
2026-01-05 06:01:06.25	52.33	15.98	-48.4	-51.2	13.5	3.00e-06	0	55	0	307232768	58	5321
2026-01-05 06:01:07.25	52.16	16.06	-48.3	-51.0	13.8	4.50e-06	0	55	0	309329920	58	5172
2026-01-05 06:01:08.24	52.00	16.13	-48.2	-50.9	13.9	3.00e-06	0	55	0	310378496	58	5141
2026-01-05 06:01:09.23	51.83	16.20	-48.3	-51.0	13.8	3.00e-06	0	55	0	312475648	58	5192
2026-01-05 06:01:10.22	51.67	16.27	-48.2	-50.9	14.0	3.80e-06	0	55	0	314572800	58	5105
2026-01-05 06:01:11.22	51.50	16.35	-48.1	-50.6	14.1	2.20e-06	0	55	0	316669952	58	4963
2026-01-05 06:01:12.20	51.33	16.42	-48.0	-50.6	14.2	1.50e-06	0	55	0	317718528	58	4942
2026-01-05 06:01:13.18	51.17	16.49	-48.1	-50.6	14.2	7.00e-07	0	55	0	319815680	58	4948
2026-01-05 06:01:14.17	51.00	16.56	-48.3	-50.8	14.0	0.00e+00	0	55	0	321912832	58	5081
2026-01-05 06:01:15.15	50.83	16.63	-48.1	-50.6	14.2	2.20e-06	0	55	0	324009984	58	4981
2026-01-05 06:01:16.14	50.66	16.71	-48.2	-50.8	14.1	2.20e-06	0	55	0	325058560	58	5047
2026-01-05 06:01:17.14	50.49	16.78	-48.3	-50.9	13.9	2.20e-06	0	55	0	327155712	58	5127
2026-01-05 06:01:18.13	50.32	16.85	-48.3	-51.0	13.9	1.50e-06	0	55	0	329252864	58	5177
2026-01-05 06:01:19.12	50.14	16.92	-48.5	-51.2	13.6	5.30e-06	0	55	0	331350016	58	5325
2026-01-05 06:01:20.11	49.97	16.99	-48.2	-50.8	14.0	2.20e-06	0	55	0	333447168	58	5082
2026-01-05 06:01:21.10	49.79	17.07	-48.3	-50.9	13.9	1.50e-06	0	55	0	334495744	58	5143
2026-01-05 06:01:22.08	49.62	17.14	-48.3	-50.9	13.9	6.10e-06	0	55	0	336592896	58	5121
2026-01-05 06:01:23.07	49.44	17.21	-48.4	-51.1	13.8	4.50e-06	0	55	0	338690048	58	5225
2026-01-05 06:01:24.07	49.26	17.28	-48.2	-50.8	14.0	4.50e-06	0	55	0	340787200	58	5096
2026-01-05 06:01:25.06	49.09	17.35	-48.3	-51.0	13.8	4.50e-06	0	55	0	341835776	58	5201
2026-01-05 06:01:26.04	48.91	17.42	-48.1	-50.7	14.2	4.50e-06	0	55	0	343932928	58	4996
2026-01-05 06:01:27.03	48.73	17.50	-48.0	-50.4	14.4	0.00e+00	0	55	0	346030080	58	4852
2026-01-05 06:01:28.03	48.55	17.57	-47.9	-50.2	14.6	7.00e-07	0	55	0	348127232	58	4752
2026-01-05 06:01:29.01	48.37	17.64	-47.8	-50.1	14.7	1.50e-06	0	55	0	349175808	58	4656
2026-01-05 06:01:30.01	48.18	17.71	-48.1	-50.5	14.4	0.00e+00	0	56	0	351272960	58	4895
2026-01-05 06:01:30.99	48.00	17.78	-48.2	-50.7	14.0	1.50e-06	0	55	0	353370112	58	5039
2026-01-05 06:01:31.99	47.82	17.85	-48.2	-50.8	14.0	0.00e+00	0	56	0	355467264	58	5069
2026-01-05 06:01:32.98	47.63	17.92	-48.0	-50.4	14.4	1.50e-06	0	55	0	357564416	58	4870
2026-01-05 06:01:33.97	47.44	17.99	-48.0	-50.5	14.3	1.50e-06	0	55	0	358612992	58	4902
2026-01-05 06:01:34.95	47.26	18.06	-47.9	-50.4	14.4	0.00e+00	0	55	0	360710144	58	4826
2026-01-05 06:01:35.94	47.07	18.13	-47.9	-50.2	14.6	0.00e+00	0	55	0	362807296	58	4752
2026-01-05 06:01:36.94	46.88	18.21	-47.7	-49.9	14.9	7.00e-07	0	56	0	364904448	58	4571
2026-01-05 06:01:37.93	46.69	18.28	-47.6	-49.8	15.0	7.00e-07	0	55	0	365953024	58	4541
2026-01-05 06:01:38.92	46.50	18.35	-47.8	-50.0	14.9	0.00e+00	0	56	0	368050176	58	4615
2026-01-05 06:01:39.91	46.31	18.42	-47.5	-49.6	15.2	0.00e+00	0	56	0	370147328	58	4419
2026-01-05 06:01:40.89	46.12	18.48	-47.4	-49.5	15.3	0.00e+00	0	56	0	372244480	57	4621
2026-01-05 06:01:41.88	45.93	18.55	-47.5	-49.6	15.2	0.00e+00	0	56	0	374341632	57	4690
2026-01-05 06:01:42.88	45.73	18.63	-47.7	-49.9	14.9	7.00e-07	0	56	0	375390208	57	4850
2026-01-05 06:01:43.86	45.54	18.69	-47.7	-50.1	14.7	0.00e+00	0	56	0	377487360	57	4937
2026-01-05 06:01:44.85	45.34	18.76	-47.9	-50.2	14.6	7.00e-07	0	55	0	379584512	57	5027
2026-01-05 06:01:45.84	45.15	18.83	-47.8	-50.2	14.7	1.50e-06	0	56	0	381681664	57	4986
2026-01-05 06:01:46.83	44.95	18.90	-47.6	-49.9	14.9	0.00e+00	0	56	0	382730240	57	4818
2026-01-05 06:01:47.82	44.75	18.97	-47.4	-49.6	15.2	0.00e+00	0	56	0	384827392	57	4694
2026-01-05 06:01:48.80	44.55	19.04	-47.5	-49.6	15.2	0.00e+00	0	56	0	386924544	57	4696
2026-01-05 06:01:49.79	44.35	19.11	-47.3	-49.4	15.4	0.00e+00	0	55	0	389021696	57	4589
2026-01-05 06:01:50.78	44.15	19.17	-47.1	-49.2	15.6	0.00e+00	0	55	0	390070272	57	4469
2026-01-05 06:01:51.77	43.95	19.24	-47.0	-49.0	15.8	0.00e+00	0	56	0	392167424	57	4353
2026-01-05 06:01:52.76	43.75	19.31	-46.9	-48.8	16.0	0.00e+00	0	56	0	394264576	56	4495
2026-01-05 06:01:53.75	43.54	19.38	-46.8	-48.6	16.2	0.00e+00	0	56	0	396361728	56	4432
2026-01-05 06:01:54.74	43.34	19.45	-46.5	-48.3	16.5	0.00e+00	0	56	0	397410304	56	4251
2026-01-05 06:01:55.73	43.13	19.51	-46.5	-48.2	16.6	0.00e+00	0	56	0	399507456	56	4199
2026-01-05 06:01:56.73	42.92	19.58	-46.5	-48.2	16.6	0.00e+00	0	56	0	401604608	56	4212
2026-01-05 06:01:57.71	42.72	19.65	-46.7	-48.5	16.2	0.00e+00	0	55	0	403701760	56	4365
2026-01-05 06:01:58.71	42.51	19.72	-46.8	-48.6	16.2	0.00e+00	0	56	0	405798912	56	4417
2026-01-05 06:01:59.70	42.30	19.78	-46.9	-48.7	16.1	0.00e+00	0	56	0	406847488	56	4476
2026-01-05 06:02:00.68	42.09	19.85	-46.8	-48.6	16.2	0.00e+00	0	56	0	408944640	56	4423
2026-01-05 06:02:01.67	41.88	19.91	-46.9	-48.8	16.1	0.00e+00	0	56	0	411041792	56	4498
2026-01-05 06:02:02.66	41.66	19.98	-46.8	-48.7	16.1	0.00e+00	0	56	0	413138944	56	4486
2026-01-05 06:02:03.65	41.45	20.04	-46.7	-48.5	16.3	0.00e+00	0	56	0	414187520	56	4375
2026-01-05 06:02:04.64	41.24	20.11	-46.6	-48.3	16.5	0.00e+00	0	56	0	416284672	56	4287
2026-01-05 06:02:05.63	41.02	20.17	-46.6	-48.4	16.4	0.00e+00	0	56	0	418381824	56	4321
2026-01-05 06:02:06.62	40.81	20.24	-46.7	-48.5	16.3	0.00e+00	0	56	0	420478976	56	4361
2026-01-05 06:02:07.61	40.59	20.30	-46.6	-48.4	16.3	0.00e+00	0	56	0	421527552	56	4318
2026-01-05 06:02:08.61	40.37	20.37	-46.7	-48.6	16.2	0.00e+00	0	56	0	423624704	56	4418
2026-01-05 06:02:09.60	40.15	20.43	-46.9	-48.8	16.0	0.00e+00	0	56	0	425721856	56	4533
2026-01-05 06:02:10.58	39.93	20.50	-46.8	-48.6	16.1	0.00e+00	0	56	0	427819008	56	4431
2026-01-05 06:02:11.58	39.71	20.56	-46.7	-48.5	16.2	0.00e+00	0	56	0	429916160	56	4373
2026-01-05 06:02:12.57	39.49	20.62	-46.5	-48.2	16.6	0.00e+00	0	56	0	430964736	56	4235
2026-01-05 06:02:13.56	39.27	20.69	-46.3	-48.0	16.8	0.00e+00	0	56	0	433061888	55	4349
2026-01-05 06:02:14.55	39.04	20.75	-46.3	-48.0	16.7	0.00e+00	0	56	0	435159040	55	4368
2026-01-05 06:02:15.53	38.82	20.81	-46.1	-47.8	16.9	0.00e+00	0	56	0	437256192	55	4245
2026-01-05 06:02:16.53	38.60	20.87	-46.1	-47.7	16.9	0.00e+00	0	56	0	438304768	55	4225
2026-01-05 06:02:17.51	38.37	20.93	-46.1	-47.6	17.0	0.00e+00	0	56	0	440401920	55	4192
2026-01-05 06:02:18.50	38.14	20.99	-46.0	-47.5	17.1	0.00e+00	0	56	0	442499072	55	4140
2026-01-05 06:02:19.50	37.91	21.06	-45.7	-47.1	17.5	0.00e+00	0	56	0	444596224	54	4184
2026-01-05 06:02:20.49	37.69	21.12	-45.7	-47.2	17.5	0.00e+00	0	56	0	446693376	54	4199
2026-01-05 06:02:21.47	37.46	21.18	-45.9	-47.4	17.3	0.00e+00	0	56	0	447741952	54	4324
2026-01-05 06:02:22.47	37.23	21.24	-45.9	-47.4	17.3	0.00e+00	0	56	0	449839104	54	4324
2026-01-05 06:02:23.46	36.99	21.30	-46.0	-47.6	17.0	0.00e+00	0	56	0	451936256	54	4400
2026-01-05 06:02:24.44	36.76	21.35	-45.8	-47.2	17.5	0.00e+00	0	56	0	454033408	54	4231
2026-01-05 06:02:25.43	36.53	21.41	-45.9	-47.4	17.3	0.00e+00	0	56	0	455081984	54	4312
2026-01-05 06:02:26.42	36.30	21.47	-46.1	-47.6	17.1	0.00e+00	0	56	0	457179136	54	4433
2026-01-05 06:02:27.40	36.06	21.53	-45.9	-47.4	17.2	0.00e+00	0	56	0	459276288	54	4314
2026-01-05 06:02:28.39	35.83	21.59	-46.0	-47.5	17.1	0.00e+00	0	56	0	461373440	54	4384
2026-01-05 06:02:29.38	35.59	21.64	-46.0	-47.6	17.2	0.00e+00	0	56	0	462422016	54	4396
2026-01-05 06:02:30.37	35.35	21.70	-46.0	-47.5	17.2	0.00e+00	0	56	0	464519168	54	4363
2026-01-05 06:02:31.34	35.12	21.76	-46.0	-47.6	17.1	0.00e+00	0	56	0	466616320	54	4396
2026-01-05 06:02:32.33	34.88	21.81	-46.2	-47.7	17.1	0.00e+00	0	56	0	468713472	54	4481
2026-01-05 06:02:33.32	34.64	21.87	-46.1	-47.7	17.1	0.00e+00	0	56	0	469762048	54	4472
2026-01-05 06:02:34.32	34.40	21.92	-46.2	-47.9	17.0	0.00e+00	0	56	0	471859200	54	4548
2026-01-05 06:02:35.30	34.16	21.98	-46.2	-47.7	17.0	0.00e+00	0	56	0	473956352	54	4482
2026-01-05 06:02:36.29	33.92	22.03	-46.0	-47.5	17.2	0.00e+00	0	56	0	476053504	54	4387
2026-01-05 06:02:37.26	33.68	22.09	-46.0	-47.5	17.2	0.00e+00	0	56	0	477102080	54	4391
2026-01-05 06:02:38.25	33.43	22.14	-46.1	-47.7	17.1	0.00e+00	0	56	0	479199232	54	4446
2026-01-05 06:02:39.24	33.19	22.19	-46.3	-47.9	16.8	0.00e+00	0	56	0	481296384	54	4583
2026-01-05 06:02:40.23	32.94	22.24	-46.4	-48.0	16.7	0.00e+00	0	56	0	483393536	54	4638
2026-01-05 06:02:41.22	32.69	22.30	-46.6	-48.4	16.4	0.00e+00	0	56	0	485490688	55	4570
2026-01-05 06:02:42.21	32.45	22.35	-46.4	-48.1	16.5	0.00e+00	0	56	0	486539264	55	4419
2026-01-05 06:02:43.21	32.19	22.40	-46.3	-47.8	16.9	0.00e+00	0	56	0	488636416	55	4284
2026-01-05 06:02:44.20	31.94	22.45	-46.2	-47.8	16.9	0.00e+00	0	56	0	490733568	55	4284
2026-01-05 06:02:45.19	31.69	22.50	-46.3	-48.0	16.8	0.00e+00	0	56	0	492830720	55	4363
2026-01-05 06:02:46.18	31.44	22.55	-46.3	-47.9	16.9	0.00e+00	0	56	0	493879296	55	4340
2026-01-05 06:02:47.17	31.19	22.60	-46.4	-48.0	16.8	0.00e+00	0	56	0	495976448	55	4374
2026-01-05 06:02:48.16	30.94	22.65	-46.4	-48.0	16.7	0.00e+00	0	56	0	498073600	55	4352
2026-01-05 06:02:49.16	30.68	22.70	-46.5	-48.2	16.6	0.00e+00	0	56	0	500170752	55	4445
2026-01-05 06:02:50.14	30.43	22.74	-46.9	-48.7	16.0	0.00e+00	0	56	0	502267904	55	4753
2026-01-05 06:02:51.14	30.17	22.79	-46.8	-48.6	16.2	0.00e+00	0	56	0	503316480	55	4683
2026-01-05 06:02:52.13	29.92	22.84	-47.2	-49.2	15.8	0.00e+00	0	56	0	505413632	56	4730
2026-01-05 06:02:53.11	29.66	22.88	-47.3	-49.3	15.6	0.00e+00	0	56	0	507510784	56	4787
2026-01-05 06:02:54.11	29.40	22.93	-46.9	-48.8	16.1	0.00e+00	0	56	0	509607936	56	4498
2026-01-05 06:02:55.09	29.15	22.98	-47.1	-49.0	16.0	0.00e+00	0	56	0	510656512	56	4600
2026-01-05 06:02:56.08	28.89	23.02	-47.2	-49.2	15.7	0.00e+00	0	56	0	512753664	56	4716
2026-01-05 06:02:57.07	28.63	23.06	-47.0	-48.9	16.0	0.00e+00	0	56	0	514850816	56	4586
2026-01-05 06:02:58.06	28.37	23.11	-46.9	-48.7	16.0	0.00e+00	0	56	0	516947968	56	4461
2026-01-05 06:02:59.06	28.10	23.15	-46.8	-48.7	16.2	0.00e+00	0	56	0	517996544	56	4450
2026-01-05 06:03:00.05	27.84	23.19	-46.7	-48.4	16.5	0.00e+00	0	56	0	520093696	56	4319
2026-01-05 06:03:01.03	27.58	23.23	-46.6	-48.3	16.6	0.00e+00	0	56	0	522190848	56	4265
2026-01-05 06:03:02.02	27.32	23.27	-46.0	-47.5	17.2	0.00e+00	0	56	0	524288000	55	4110
2026-01-05 06:03:03.01	27.06	23.32	-45.7	-47.1	17.5	0.00e+00	0	56	0	526385152	54	4192
2026-01-05 06:03:04.00	26.79	23.36	-45.9	-47.4	17.3	0.00e+00	0	56	0	527433728	54	4307
2026-01-05 06:03:04.98	26.53	23.39	-46.3	-47.8	16.9	0.00e+00	0	56	0	529530880	54	4524
2026-01-05 06:03:05.97	26.26	23.43	-46.2	-47.7	17.0	0.00e+00	0	56	0	531628032	54	4478
2026-01-05 06:03:06.96	26.00	23.47	-46.3	-47.9	16.9	0.00e+00	0	56	0	533725184	54	4556
2026-01-05 06:03:07.95	25.73	23.51	-46.6	-48.3	16.5	0.00e+00	0	56	0	534773760	54	4775
2026-01-05 06:03:08.95	25.46	23.55	-46.8	-48.5	16.3	0.00e+00	0	56	0	536870912	55	4616
2026-01-05 06:03:09.94	25.19	23.58	-47.4	-49.5	15.3	0.00e+00	0	56	0	538968064	56	4888
2026-01-05 06:03:10.92	24.92	23.62	-47.7	-49.9	14.9	0.00e+00	0	56	0	541065216	57	4854
2026-01-05 06:03:11.90	24.66	23.65	-48.0	-50.5	14.4	0.00e+00	0	56	0	542113792	57	5166
2026-01-05 06:03:12.89	24.39	23.69	-47.9	-50.2	14.6	1.50e-06	0	56	0	544210944	58	4750
2026-01-05 06:03:13.88	24.11	23.72	-47.8	-50.0	14.7	0.00e+00	0	56	0	546308096	58	4635
2026-01-05 06:03:14.88	23.84	23.75	-47.8	-50.1	14.8	0.00e+00	0	56	0	548405248	58	4665
2026-01-05 06:03:15.86	23.57	23.78	-48.0	-50.3	14.5	7.00e-07	0	56	0	550502400	58	4795
2026-01-05 06:03:16.85	23.30	23.82	-47.7	-50.0	14.9	0.00e+00	0	56	0	551550976	58	4607
2026-01-05 06:03:17.84	23.03	23.85	-47.3	-49.3	15.4	0.00e+00	0	56	0	553648128	57	4535
2026-01-05 06:03:18.83	22.75	23.88	-47.0	-48.9	15.9	0.00e+00	0	56	0	555745280	57	4318
2026-01-05 06:03:19.82	22.48	23.91	-47.0	-48.8	16.0	0.00e+00	0	56	0	557842432	57	4271
2026-01-05 06:03:20.81	22.20	23.94	-47.2	-49.1	15.8	0.00e+00	0	56	0	558891008	56	4676
2026-01-05 06:03:21.80	21.93	23.96	-47.0	-48.9	15.9	0.00e+00	0	56	0	560988160	56	4563
2026-01-05 06:03:22.78	21.65	23.99	-47.1	-49.0	15.9	0.00e+00	0	56	0	563085312	56	4601
2026-01-05 06:03:23.77	21.38	24.02	-47.1	-49.0	15.9	0.00e+00	0	56	0	565182464	56	4621
2026-01-05 06:03:24.75	21.10	24.04	-47.1	-48.9	15.9	0.00e+00	0	56	0	566231040	56	4595
2026-01-05 06:03:25.74	20.83	24.07	-47.3	-49.3	15.6	0.00e+00	0	56	0	568328192	56	4783
2026-01-05 06:03:26.73	20.55	24.09	-47.1	-49.0	15.8	0.00e+00	0	56	0	570425344	56	4635
2026-01-05 06:03:27.71	20.27	24.12	-46.9	-48.8	16.0	0.00e+00	0	56	0	572522496	56	4524
2026-01-05 06:03:28.70	20.00	24.14	-47.3	-49.3	15.6	0.00e+00	0	56	0	573571072	56	4790
2026-01-05 06:03:29.68	19.72	24.16	-47.5	-49.6	15.2	0.00e+00	0	56	0	575668224	56	4982
2026-01-05 06:03:30.67	19.44	24.19	-47.5	-49.7	15.2	0.00e+00	0	56	0	577765376	57	4709
2026-01-05 06:03:31.66	19.16	24.21	-47.5	-49.7	15.2	0.00e+00	0	56	0	579862528	57	4709
2026-01-05 06:03:32.65	18.88	24.23	-47.6	-49.8	15.1	0.00e+00	0	56	0	581959680	57	4769
2026-01-05 06:03:33.63	18.60	24.25	-47.4	-49.6	15.3	0.00e+00	0	56	0	583008256	57	4656
2026-01-05 06:03:34.62	18.32	24.27	-47.7	-49.9	14.9	0.00e+00	0	56	0	585105408	57	4852
2026-01-05 06:03:35.61	18.04	24.28	-48.0	-50.4	14.5	0.00e+00	0	56	0	587202560	57	5137
2026-01-05 06:03:36.60	17.76	24.30	-48.0	-50.3	14.5	0.00e+00	0	56	0	589299712	57	5091
2026-01-05 06:03:37.58	17.48	24.32	-47.9	-50.3	14.6	1.50e-06	0	56	0	590348288	57	5072
2026-01-05 06:03:38.57	17.20	24.34	-47.8	-50.1	14.7	0.00e+00	0	56	0	592445440	57	4971
2026-01-05 06:03:39.57	16.91	24.35	-47.5	-49.7	15.2	7.00e-07	0	56	0	594542592	57	4706
2026-01-05 06:03:40.56	16.63	24.37	-47.3	-49.4	15.5	0.00e+00	0	56	0	596639744	57	4556
2026-01-05 06:03:41.55	16.35	24.38	-47.6	-49.7	15.2	0.00e+00	0	56	0	597688320	57	4750
2026-01-05 06:03:42.54	16.06	24.39	-47.8	-50.0	14.9	0.00e+00	0	56	0	599785472	57	4908
2026-01-05 06:03:43.53	15.78	24.40	-48.1	-50.5	14.3	7.00e-07	0	56	0	601882624	58	4883
2026-01-05 06:03:44.52	15.50	24.42	-48.2	-50.7	14.2	7.00e-07	0	56	0	603979776	58	5001
2026-01-05 06:03:45.51	15.21	24.43	-48.0	-50.5	14.3	7.00e-07	0	56	0	606076928	58	4902
2026-01-05 06:03:46.50	14.93	24.44	-47.8	-50.1	14.7	7.00e-07	0	56	0	607125504	58	4693
2026-01-05 06:03:47.49	14.65	24.45	-48.2	-50.8	14.0	7.00e-07	0	56	0	609222656	58	5062
2026-01-05 06:03:48.48	14.36	24.45	-48.2	-50.8	14.0	3.80e-06	0	56	0	611319808	58	5054
2026-01-05 06:03:49.47	14.08	24.46	-48.2	-50.7	14.1	3.00e-06	0	56	0	613416960	58	5028
2026-01-05 06:03:50.46	13.79	24.47	-48.0	-50.4	14.4	0.00e+00	0	56	0	614465536	58	4852
2026-01-05 06:03:51.45	13.51	24.48	-47.7	-49.9	14.9	0.00e+00	0	56	0	616562688	58	4585
2026-01-05 06:03:52.44	13.22	24.48	-47.0	-49.0	15.7	0.00e+00	0	56	0	618659840	57	4351
2026-01-05 06:03:53.44	12.94	24.49	-46.7	-48.6	16.0	0.00e+00	0	56	0	620756992	56	4428
2026-01-05 06:03:54.43	12.65	24.49	-46.8	-48.6	15.9	0.00e+00	0	56	0	622854144	56	4436
2026-01-05 06:03:55.41	12.37	24.49	-46.7	-48.7	15.9	0.00e+00	0	56	0	623902720	56	4442
2026-01-05 06:03:56.40	12.08	24.49	-47.1	-49.2	15.3	0.00e+00	0	56	0	625999872	56	4709
2026-01-05 06:03:57.40	11.80	24.50	-47.5	-49.9	14.4	7.00e-07	0	56	0	628097024	56	5121
2026-01-05 06:03:58.39	11.51	24.50	-47.8	-50.5	13.9	0.00e+00	0	56	0	630194176	57	5160
2026-01-05 06:03:59.38	11.23	24.50	-48.1	-51.0	13.1	1.44e-05	0	56	0	631242752	58	5186
2026-01-05 06:04:00.36	10.94	24.50	-48.3	-51.4	12.5	3.89e-05	0	56	0	633339904	58	5457
2026-01-05 06:04:01.35	10.66	24.50	-48.5	-52.1	11.6	4.61e-04	0	56	0	635437056	58	5880
2026-01-05 06:04:02.34	10.37	24.49	-48.8	-52.9	10.6	1.39e-03	0	56	0	637534208	59	6079
2026-01-05 06:04:03.33	10.09	24.49	-49.1	-54.0	9.3	9.13e-03	0	56	0	638582784	60	6504
2026-01-05 06:04:04.33	9.80	24.49	-49.2	-54.4	8.8	1.84e-02	0	57	0	640679936	60	6866
2026-01-05 06:04:05.32	9.52	24.48	-49.4	-55.0	8.2	5.95e-02	0	56	0	642777088	60	7361
2026-01-05 06:04:06.31	9.23	24.48	-49.3	-54.7	8.5	4.24e-02	0	56	0	644874240	60	7045
2026-01-05 06:04:07.30	8.95	24.47	-49.0	-53.9	9.3	2.65e-02	0	56	0	646971392	60	6442
2026-01-05 06:04:08.29	8.66	24.46	-49.1	-53.8	9.5	1.45e-02	0	56	0	648019968	60	6397
2026-01-05 06:04:09.28	8.38	24.46	-48.9	-53.4	10.1	7.80e-03	0	56	0	650117120	60	6075
2026-01-05 06:04:10.28	8.09	24.45	-49.0	-53.3	10.2	7.80e-03	0	56	0	652214272	60	6037
2026-01-05 06:04:11.26	7.81	24.44	-48.8	-52.8	10.9	4.04e-03	0	56	0	654311424	60	5668
2026-01-05 06:04:12.24	7.53	24.43	-48.7	-52.3	11.5	9.96e-04	0	56	0	655360000	60	5379
2026-01-05 06:04:13.23	7.24	24.42	-48.4	-51.7	12.1	4.41e-04	0	56	0	657457152	59	5295
2026-01-05 06:04:14.22	6.96	24.41	-48.3	-51.5	12.3	1.50e-04	0	56	0	659554304	59	5198
2026-01-05 06:04:15.21	6.68	24.39	-48.3	-51.5	12.4	1.88e-04	0	56	0	661651456	59	5195
2026-01-05 06:04:16.20	6.39	24.38	-48.0	-50.7	13.3	2.36e-05	0	57	0	662700032	59	4748
2026-01-05 06:04:17.19	6.11	24.37	-47.4	-49.6	14.6	1.50e-06	0	57	0	664797184	57	4696
2026-01-05 06:04:18.19	5.83	24.35	-47.0	-49.0	15.3	0.00e+00	0	56	0	666894336	57	4370
2026-01-05 06:04:19.17	5.55	24.34	-46.5	-48.3	16.2	0.00e+00	0	56	0	668991488	56	4257
2026-01-05 06:04:20.16	5.27	24.32	-46.5	-48.2	16.4	0.00e+00	0	56	0	670040064	56	4213
2026-01-05 06:04:21.15	4.98	24.30	-47.2	-49.3	15.3	0.00e+00	0	56	0	672137216	56	4768
2026-01-05 06:04:22.14	4.70	24.29	-47.7	-50.2	14.2	0.00e+00	0	56	0	674234368	57	4988
2026-01-05 06:04:23.14	4.42	24.27	-48.5	-51.7	12.4	5.95e-05	0	57	0	676331520	58	5648
2026-01-05 06:04:24.13	4.14	24.25	-48.9	-52.9	10.7	1.57e-03	0	57	0	678428672	59	6116
2026-01-05 06:04:25.11	3.86	24.23	-49.0	-53.8	9.5	7.62e-03	0	56	0	679477248	60	6414
2026-01-05 06:04:26.11	3.58	24.21	-48.6	-52.6	10.7	1.07e-02	0	56	0	681574400	60	5544
2026-01-05 06:04:27.10	3.30	24.19	-47.7	-50.4	13.3	1.17e-04	0	56	0	683671552	58	4840
2026-01-05 06:04:28.09	3.02	24.17	-46.7	-48.7	15.4	0.00e+00	0	56	0	685768704	56	4455
2026-01-05 06:04:29.07	2.74	24.14	-46.1	-47.7	16.7	0.00e+00	0	57	0	686817280	55	4212
2026-01-05 06:04:30.07	2.46	24.12	-46.0	-47.6	17.0	0.00e+00	0	56	0	688914432	55	4158
2026-01-05 06:04:31.06	2.18	24.10	-46.2	-47.7	17.0	0.00e+00	0	56	0	691011584	55	4238
2026-01-05 06:04:32.04	1.91	24.07	-45.8	-47.3	17.4	0.00e+00	0	57	0	693108736	54	4244
2026-01-05 06:04:33.04	1.63	24.05	-45.8	-47.2	17.4	0.00e+00	0	57	0	695205888	54	4234
2026-01-05 06:04:34.03	1.35	24.02	-45.9	-47.4	17.4	0.00e+00	0	56	0	696254464	54	4298
2026-01-05 06:04:35.02	1.08	23.99	-46.0	-47.6	17.1	0.00e+00	0	56	0	698351616	54	4400
2026-01-05 06:04:36.01	0.80	23.97	-46.0	-47.5	17.2	0.00e+00	0	56	0	700448768	54	4362
2026-01-05 06:04:36.99	0.53	23.94	-45.9	-47.3	17.4	0.00e+00	0	56	0	702545920	54	4264
2026-01-05 06:04:37.98	0.25	23.91	-46.0	-47.5	17.2	0.00e+00	0	57	0	703594496	54	4362
2026-01-05 06:04:38.97	359.98	23.88	-46.1	-47.6	17.1	0.00e+00	0	56	0	705691648	54	4408
2026-01-05 06:04:39.96	359.70	23.85	-46.2	-47.7	17.0	0.00e+00	0	56	0	707788800	54	4490
2026-01-05 06:04:40.95	359.43	23.82	-46.1	-47.7	17.0	0.00e+00	0	56	0	709885952	54	4450
2026-01-05 06:04:41.95	359.16	23.79	-45.9	-47.4	17.2	0.00e+00	0	56	0	710934528	54	4324
2026-01-05 06:04:42.93	358.89	23.75	-46.1	-47.6	17.1	0.00e+00	0	57	0	713031680	54	4406
2026-01-05 06:04:43.92	358.62	23.72	-46.2	-47.8	16.9	0.00e+00	0	56	0	715128832	54	4514
2026-01-05 06:04:44.91	358.34	23.69	-46.4	-48.0	16.6	0.00e+00	0	56	0	717225984	54	4647
2026-01-05 06:04:45.90	358.07	23.65	-46.7	-48.5	16.3	0.00e+00	0	56	0	719323136	55	4603
2026-01-05 06:04:46.88	357.81	23.62	-46.6	-48.3	16.4	0.00e+00	0	56	0	720371712	55	4532
2026-01-05 06:04:47.86	357.54	23.58	-46.5	-48.2	16.5	0.00e+00	0	56	0	722468864	55	4462
2026-01-05 06:04:48.85	357.27	23.55	-46.5	-48.1	16.6	0.00e+00	0	57	0	724566016	55	4430
2026-01-05 06:04:49.84	357.00	23.51	-46.7	-48.5	16.3	0.00e+00	0	57	0	726663168	55	4603
2026-01-05 06:04:50.83	356.74	23.47	-46.6	-48.3	16.4	0.00e+00	0	57	0	727711744	55	4526
2026-01-05 06:04:51.82	356.47	23.44	-46.8	-48.6	16.2	0.00e+00	0	56	0	729808896	55	4657
2026-01-05 06:04:52.81	356.20	23.40	-47.0	-48.8	15.9	0.00e+00	0	56	0	731906048	55	4811
2026-01-05 06:04:53.79	355.94	23.36	-47.2	-49.1	15.7	0.00e+00	0	56	0	734003200	56	4678
2026-01-05 06:04:54.78	355.68	23.32	-47.3	-49.2	15.6	0.00e+00	0	56	0	735051776	56	4752
2026-01-05 06:04:55.76	355.42	23.28	-47.4	-49.5	15.4	0.00e+00	0	56	0	737148928	57	4612
2026-01-05 06:04:56.76	355.15	23.24	-47.4	-49.5	15.3	0.00e+00	0	56	0	739246080	57	4607
2026-01-05 06:04:57.74	354.89	23.20	-47.6	-49.7	15.1	0.00e+00	0	57	0	741343232	57	4730
2026-01-05 06:04:58.72	354.63	23.15	-47.4	-49.4	15.4	0.00e+00	0	57	0	743440384	57	4595
2026-01-05 06:04:59.71	354.37	23.11	-47.6	-49.7	15.2	0.00e+00	0	57	0	744488960	57	4723
2026-01-05 06:05:00.70	354.11	23.07	-47.7	-49.8	15.0	0.00e+00	0	56	0	746586112	57	4802
2026-01-05 06:05:01.68	353.85	23.03	-47.7	-49.9	14.9	0.00e+00	0	57	0	748683264	57	4860
2026-01-05 06:05:02.68	353.59	22.98	-47.8	-50.1	14.7	0.00e+00	0	56	0	750780416	57	4957
2026-01-05 06:05:03.66	353.34	22.94	-47.8	-50.1	14.7	7.00e-07	0	57	0	751828992	57	4959
2026-01-05 06:05:04.66	353.08	22.89	-47.6	-49.8	14.9	0.00e+00	0	56	0	753926144	57	4800
2026-01-05 06:05:05.65	352.82	22.84	-47.4	-49.4	15.3	7.00e-07	0	56	0	756023296	57	4592
2026-01-05 06:05:06.64	352.56	22.80	-47.4	-49.4	15.3	0.00e+00	0	56	0	758120448	57	4563
2026-01-05 06:05:07.63	352.31	22.75	-47.2	-49.2	15.6	0.00e+00	0	57	0	759169024	57	4447
2026-01-05 06:05:08.62	352.05	22.70	-47.2	-49.3	15.5	0.00e+00	0	57	0	761266176	57	4494
2026-01-05 06:05:09.61	351.80	22.65	-47.4	-49.5	15.3	0.00e+00	0	56	0	763363328	57	4614
2026-01-05 06:05:10.60	351.55	22.61	-47.6	-49.8	15.0	0.00e+00	0	56	0	765460480	57	4778
2026-01-05 06:05:11.59	351.30	22.56	-47.5	-49.7	15.1	0.00e+00	0	57	0	766509056	57	4733
2026-01-05 06:05:12.58	351.05	22.51	-47.6	-49.8	15.0	0.00e+00	0	57	0	768606208	57	4773
2026-01-05 06:05:13.56	350.80	22.46	-47.4	-49.5	15.2	0.00e+00	0	57	0	770703360	57	4648
2026-01-05 06:05:14.55	350.55	22.41	-47.3	-49.4	15.4	0.00e+00	0	56	0	772800512	57	4582
2026-01-05 06:05:15.54	350.30	22.36	-47.2	-49.2	15.5	0.00e+00	0	57	0	774897664	57	4468
2026-01-05 06:05:16.53	350.05	22.30	-47.2	-49.2	15.6	0.00e+00	0	56	0	775946240	57	4454
2026-01-05 06:05:17.52	349.80	22.25	-47.2	-49.3	15.4	0.00e+00	0	57	0	778043392	57	4515
2026-01-05 06:05:18.50	349.56	22.20	-47.3	-49.4	15.4	0.00e+00	0	57	0	780140544	57	4560
2026-01-05 06:05:19.50	349.31	22.15	-47.4	-49.5	15.3	0.00e+00	0	57	0	782237696	57	4602
2026-01-05 06:05:20.49	349.07	22.09	-47.5	-49.7	15.0	0.00e+00	0	56	0	783286272	57	4724
2026-01-05 06:05:21.48	348.83	22.04	-47.3	-49.4	15.3	0.00e+00	0	56	0	785383424	57	4564
2026-01-05 06:05:22.47	348.58	21.98	-47.5	-49.8	15.0	0.00e+00	0	57	0	787480576	57	4785
2026-01-05 06:05:23.46	348.34	21.93	-47.9	-50.2	14.5	7.00e-07	0	56	0	789577728	57	5022
2026-01-05 06:05:24.45	348.10	21.88	-48.0	-50.5	14.2	7.00e-07	0	57	0	790626304	57	5201
2026-01-05 06:05:25.44	347.86	21.82	-48.2	-50.8	14.0	2.20e-06	0	57	0	792723456	58	5051
2026-01-05 06:05:26.43	347.62	21.76	-48.0	-50.5	14.2	2.20e-06	0	57	0	794820608	58	4918
2026-01-05 06:05:27.42	347.38	21.71	-47.8	-50.2	14.6	0.00e+00	0	57	0	796917760	58	4720
2026-01-05 06:05:28.40	347.15	21.65	-47.7	-50.0	14.8	0.00e+00	0	57	0	799014912	58	4601
2026-01-05 06:05:29.39	346.91	21.59	-47.6	-49.8	14.9	0.00e+00	0	56	0	800063488	58	4516
2026-01-05 06:05:30.38	346.67	21.54	-47.9	-50.3	14.5	7.00e-07	0	56	0	802160640	58	4773
2026-01-05 06:05:31.37	346.44	21.48	-47.7	-50.0	14.8	0.00e+00	0	56	0	804257792	58	4615
2026-01-05 06:05:32.36	346.21	21.42	-48.0	-50.4	14.3	0.00e+00	0	57	0	806354944	58	4870
2026-01-05 06:05:33.35	345.97	21.36	-48.2	-50.9	13.8	3.00e-06	0	56	0	807403520	58	5131
2026-01-05 06:05:34.33	345.74	21.30	-48.7	-51.9	12.9	2.44e-05	0	56	0	809500672	59	5403
2026-01-05 06:05:35.33	345.51	21.24	-48.9	-52.1	12.6	5.34e-05	0	57	0	811597824	59	5572
2026-01-05 06:05:36.31	345.28	21.18	-48.9	-52.2	12.5	1.15e-04	0	57	0	813694976	59	5639
2026-01-05 06:05:37.30	345.05	21.12	-48.8	-51.9	12.8	1.27e-04	0	57	0	814743552	59	5448
2026-01-05 06:05:38.29	344.82	21.06	-48.6	-51.5	13.2	5.49e-05	0	56	0	816840704	59	5211
2026-01-05 06:05:39.28	344.60	21.00	-48.0	-50.6	14.1	9.10e-06	0	57	0	818937856	59	4690
2026-01-05 06:05:40.27	344.37	20.94	-47.9	-50.3	14.5	1.50e-06	0	57	0	821035008	58	4763
2026-01-05 06:05:41.27	344.14	20.88	-47.7	-50.1	14.6	1.50e-06	0	57	0	822083584	58	4682
2026-01-05 06:05:42.26	343.92	20.82	-47.7	-50.1	14.7	0.00e+00	0	57	0	824180736	58	4659
2026-01-05 06:05:43.25	343.69	20.75	-47.6	-49.9	14.7	1.50e-06	0	56	0	826277888	58	4580
2026-01-05 06:05:44.24	343.47	20.69	-47.7	-50.0	14.7	0.00e+00	0	57	0	828375040	58	4613
2026-01-05 06:05:45.23	343.25	20.63	-47.8	-50.2	14.4	7.00e-07	0	57	0	830472192	58	4733
2026-01-05 06:05:46.22	343.03	20.57	-47.5	-49.7	14.8	0.00e+00	0	57	0	831520768	58	4464
2026-01-05 06:05:47.21	342.80	20.50	-47.1	-49.2	15.4	0.00e+00	0	57	0	833617920	57	4443
2026-01-05 06:05:48.19	342.59	20.44	-46.6	-48.5	15.9	0.00e+00	0	57	0	835715072	56	4363
2026-01-05 06:05:49.18	342.37	20.38	-46.0	-47.7	16.6	0.00e+00	0	57	0	837812224	55	4209
2026-01-05 06:05:50.17	342.15	20.31	-45.8	-47.4	16.8	0.00e+00	0	57	0	838860800	54	4338
2026-01-05 06:05:51.17	341.93	20.25	-46.0	-47.7	16.4	0.00e+00	0	56	0	840957952	54	4475
2026-01-05 06:05:52.15	341.72	20.18	-46.0	-47.8	16.3	0.00e+00	0	57	0	843055104	54	4542
2026-01-05 06:05:53.14	341.50	20.12	-46.1	-48.0	16.0	0.00e+00	0	57	0	845152256	54	4608
2026-01-05 06:05:54.14	341.29	20.05	-46.1	-47.9	16.2	0.00e+00	0	57	0	847249408	54	4546
2026-01-05 06:05:55.12	341.08	19.99	-46.3	-48.1	15.9	0.00e+00	0	57	0	848297984	54	4686
2026-01-05 06:05:56.11	340.87	19.92	-46.8	-48.9	15.0	0.00e+00	0	57	0	850395136	55	4852
2026-01-05 06:05:57.10	340.65	19.86	-47.5	-49.9	14.2	7.00e-07	0	57	0	852492288	56	5130
2026-01-05 06:05:58.08	340.45	19.79	-48.1	-50.9	13.1	1.44e-05	0	57	0	854589440	57	5428
2026-01-05 06:05:59.08	340.23	19.72	-48.5	-51.6	12.5	7.78e-05	0	57	0	855638016	58	5531
2026-01-05 06:06:00.07	340.03	19.66	-48.4	-51.6	12.5	1.06e-04	0	56	0	857735168	58	5566
2026-01-05 06:06:01.06	339.82	19.59	-48.6	-51.8	12.3	1.29e-04	0	56	0	859832320	58	5688
2026-01-05 06:06:02.05	339.61	19.52	-48.6	-52.0	12.0	2.10e-04	0	57	0	861929472	59	5500
2026-01-05 06:06:03.05	339.40	19.45	-48.6	-52.0	12.1	3.07e-04	0	57	0	862978048	59	5486
2026-01-05 06:06:04.03	339.20	19.39	-48.7	-52.2	11.9	2.98e-04	0	57	0	865075200	59	5608
2026-01-05 06:06:05.03	339.00	19.32	-49.0	-52.6	11.4	6.73e-04	0	56	0	867172352	59	5923
2026-01-05 06:06:06.02	338.79	19.25	-48.8	-52.5	11.6	6.48e-04	0	57	0	869269504	59	5801
2026-01-05 06:06:07.01	338.59	19.18	-48.5	-51.6	12.4	3.04e-04	0	57	0	871366656	59	5279
2026-01-05 06:06:08.00	338.39	19.12	-47.8	-50.5	13.7	6.94e-05	0	56	0	872415232	58	4874
2026-01-05 06:06:08.98	338.19	19.05	-47.4	-49.9	14.3	7.00e-07	0	57	0	874512384	58	4551
2026-01-05 06:06:09.98	337.99	18.98	-47.3	-49.6	14.6	7.00e-07	0	57	0	876609536	57	4679
2026-01-05 06:06:10.96	337.79	18.91	-47.2	-49.6	14.6	0.00e+00	0	57	0	878706688	57	4685
2026-01-05 06:06:11.95	337.60	18.84	-47.1	-49.4	14.8	0.00e+00	0	57	0	879755264	57	4591
2026-01-05 06:06:12.94	337.40	18.77	-46.8	-49.0	15.3	0.00e+00	0	57	0	881852416	56	4612
2026-01-05 06:06:13.94	337.20	18.70	-46.6	-48.5	15.7	0.00e+00	0	57	0	883949568	56	4388
2026-01-05 06:06:14.93	337.01	18.63	-46.9	-49.1	15.3	0.00e+00	0	57	0	886046720	56	4654
2026-01-05 06:06:15.91	336.82	18.56	-47.2	-49.4	15.0	0.00e+00	0	57	0	887095296	56	4832
2026-01-05 06:06:16.89	336.62	18.50	-47.5	-49.7	14.7	0.00e+00	0	57	0	889192448	56	5023
2026-01-05 06:06:17.88	336.43	18.43	-47.4	-49.6	14.9	0.00e+00	0	57	0	891289600	56	4941
2026-01-05 06:06:18.88	336.24	18.35	-47.6	-49.9	14.7	0.00e+00	0	56	0	893386752	57	4853
2026-01-05 06:06:19.87	336.05	18.28	-47.5	-49.7	14.8	0.00e+00	0	57	0	895483904	57	4756
2026-01-05 06:06:20.86	335.86	18.21	-47.4	-49.6	15.1	7.00e-07	0	57	0	896532480	57	4652
2026-01-05 06:06:21.86	335.67	18.14	-47.1	-49.2	15.4	0.00e+00	0	57	0	898629632	57	4473
2026-01-05 06:06:22.84	335.48	18.07	-46.9	-48.8	15.8	0.00e+00	0	56	0	900726784	57	4291
2026-01-05 06:06:23.83	335.30	18.00	-46.9	-48.8	16.0	0.00e+00	0	57	0	902823936	56	4512
2026-01-05 06:06:24.83	335.11	17.93	-47.0	-48.9	15.8	0.00e+00	0	57	0	903872512	56	4576
2026-01-05 06:06:25.82	334.92	17.86	-47.3	-49.4	15.4	0.00e+00	0	57	0	905969664	56	4822
2026-01-05 06:06:26.81	334.74	17.79	-47.3	-49.5	15.2	0.00e+00	0	57	0	908066816	56	4898
2026-01-05 06:06:27.79	334.56	17.72	-47.6	-49.9	14.9	0.00e+00	0	57	0	910163968	57	4842
2026-01-05 06:06:28.78	334.38	17.65	-47.6	-49.8	14.9	0.00e+00	0	57	0	912261120	57	4803
2026-01-05 06:06:29.76	334.20	17.58	-47.5	-49.7	15.0	0.00e+00	0	57	0	913309696	57	4758
2026-01-05 06:06:30.76	334.02	17.51	-47.7	-50.0	14.8	0.00e+00	0	57	0	915406848	57	4893
2026-01-05 06:06:31.74	333.84	17.44	-47.6	-49.8	14.9	0.00e+00	0	57	0	917504000	57	4809
2026-01-05 06:06:32.73	333.66	17.36	-47.5	-49.6	15.2	0.00e+00	0	57	0	919601152	57	4696
2026-01-05 06:06:33.72	333.48	17.29	-47.5	-49.6	15.1	0.00e+00	0	57	0	920649728	57	4702
2026-01-05 06:06:34.70	333.31	17.22	-47.4	-49.5	15.2	0.00e+00	0	57	0	922746880	57	4650
2026-01-05 06:06:35.69	333.13	17.15	-47.3	-49.3	15.4	0.00e+00	0	57	0	924844032	57	4537
2026-01-05 06:06:36.67	332.96	17.08	-47.2	-49.2	15.6	0.00e+00	0	57	0	926941184	57	4476
2026-01-05 06:06:37.66	332.78	17.01	-47.1	-49.1	15.7	0.00e+00	0	57	0	927989760	57	4394
2026-01-05 06:06:38.65	332.61	16.93	-47.1	-49.0	15.7	0.00e+00	0	57	0	930086912	57	4375
2026-01-05 06:06:39.64	332.43	16.86	-46.9	-48.7	16.1	0.00e+00	0	57	0	932184064	56	4459
2026-01-05 06:06:40.63	332.26	16.79	-46.8	-48.6	16.1	0.00e+00	0	57	0	934281216	56	4428
2026-01-05 06:06:41.62	332.09	16.72	-47.1	-49.0	15.7	0.00e+00	0	57	0	935329792	56	4628
2026-01-05 06:06:42.62	331.92	16.65	-47.1	-49.0	15.8	0.00e+00	0	57	0	937426944	56	4605
2026-01-05 06:06:43.61	331.75	16.57	-47.1	-49.1	15.7	0.00e+00	0	57	0	939524096	56	4663
2026-01-05 06:06:44.60	331.58	16.50	-47.2	-49.2	15.6	0.00e+00	0	57	0	941621248	56	4713
2026-01-05 06:06:45.59	331.41	16.43	-47.2	-49.2	15.6	0.00e+00	0	57	0	943718400	56	4712
2026-01-05 06:06:46.57	331.25	16.36	-46.9	-48.8	16.0	0.00e+00	0	57	0	944766976	56	4503
2026-01-05 06:06:47.56	331.08	16.29	-47.0	-48.8	16.0	0.00e+00	0	57	0	946864128	56	4530
2026-01-05 06:06:48.54	330.92	16.21	-46.9	-48.7	16.0	0.00e+00	0	57	0	948961280	56	4486
2026-01-05 06:06:49.53	330.75	16.14	-46.7	-48.4	16.4	0.00e+00	0	57	0	951058432	56	4297
2026-01-05 06:06:50.52	330.59	16.07	-46.7	-48.4	16.4	0.00e+00	0	57	0	952107008	56	4325
2026-01-05 06:06:51.51	330.43	16.00	-46.8	-48.5	16.2	0.00e+00	0	57	0	954204160	56	4386
2026-01-05 06:06:52.49	330.26	15.92	-46.8	-48.5	16.2	0.00e+00	0	57	0	956301312	56	4385
2026-01-05 06:06:53.48	330.10	15.85	-46.6	-48.2	16.5	0.00e+00	0	57	0	958398464	56	4242
2026-01-05 06:06:54.46	329.94	15.78	-46.5	-48.2	16.6	0.00e+00	0	57	0	959447040	56	4199
2026-01-05 06:06:55.45	329.78	15.71	-46.6	-48.3	16.5	0.00e+00	0	57	0	961544192	56	4258
2026-01-05 06:06:56.44	329.62	15.64	-46.7	-48.5	16.3	0.00e+00	0	57	0	963641344	56	4367
2026-01-05 06:06:57.43	329.47	15.56	-46.8	-48.5	16.2	0.00e+00	0	57	0	965738496	56	4382
2026-01-05 06:06:58.42	329.31	15.49	-46.8	-48.6	16.1	0.00e+00	0	57	0	966787072	56	4431
2026-01-05 06:06:59.40	329.15	15.42	-46.6	-48.3	16.4	0.00e+00	0	57	0	968884224	56	4262
2026-01-05 06:07:00.40	329.00	15.35	-46.4	-48.1	16.6	0.00e+00	0	57	0	970981376	56	4165
2026-01-05 06:07:01.38	328.84	15.27	-46.3	-47.9	16.7	0.00e+00	0	57	0	973078528	55	4305
2026-01-05 06:07:02.37	328.69	15.20	-46.1	-47.7	16.9	0.00e+00	0	57	0	975175680	55	4199
2026-01-05 06:07:03.36	328.53	15.13	-46.2	-47.8	16.8	0.00e+00	0	57	0	976224256	55	4250
2026-01-05 06:07:04.34	328.38	15.06	-46.2	-47.8	16.9	0.00e+00	0	57	0	978321408	55	4251
2026-01-05 06:07:05.34	328.23	14.98	-46.1	-47.7	17.0	0.00e+00	0	57	0	980418560	55	4216
2026-01-05 06:07:06.33	328.08	14.91	-46.3	-47.9	16.7	0.00e+00	0	57	0	982515712	55	4301
2026-01-05 06:07:07.32	327.93	14.84	-46.6	-48.4	16.2	0.00e+00	0	57	0	983564288	55	4561
2026-01-05 06:07:08.32	327.78	14.77	-46.9	-48.8	15.9	0.00e+00	0	57	0	985661440	55	4779
2026-01-05 06:07:09.31	327.63	14.69	-47.2	-49.1	15.7	0.00e+00	0	57	0	987758592	56	4669
2026-01-05 06:07:10.29	327.48	14.62	-47.3	-49.3	15.5	0.00e+00	0	57	0	989855744	56	4782
2026-01-05 06:07:11.28	327.33	14.55	-47.5	-49.5	15.2	0.00e+00	0	57	0	991952896	56	4918
2026-01-05 06:07:12.26	327.19	14.48	-47.7	-49.8	14.9	0.00e+00	0	57	0	993001472	57	4804
2026-01-05 06:07:13.25	327.04	14.40	-47.6	-49.8	15.0	0.00e+00	0	57	0	995098624	57	4771
2026-01-05 06:07:14.25	326.89	14.33	-47.3	-49.4	15.3	0.00e+00	0	57	0	997195776	57	4557
2026-01-05 06:07:15.24	326.75	14.26	-46.9	-48.8	15.9	0.00e+00	0	57	0	999292928	57	4251
2026-01-05 06:07:16.23	326.60	14.19	-46.7	-48.4	16.3	0.00e+00	0	57	0	1000341504	56	4332
2026-01-05 06:07:17.21	326.46	14.12	-46.7	-48.5	16.2	0.00e+00	0	57	0	1002438656	56	4354
2026-01-05 06:07:18.20	326.32	14.04	-46.5	-48.2	16.5	0.00e+00	0	57	0	1004535808	56	4212
2026-01-05 06:07:19.19	326.18	13.97	-46.4	-48.0	16.6	0.00e+00	0	57	0	1006632960	55	4384
2026-01-05 06:07:20.18	326.04	13.90	-46.4	-48.1	16.5	0.00e+00	0	57	0	1007681536	55	4406
2026-01-05 06:07:21.16	325.90	13.83	-46.6	-48.3	16.3	0.00e+00	0	57	0	1009778688	55	4507
2026-01-05 06:07:22.15	325.76	13.76	-46.9	-48.7	15.8	0.00e+00	0	57	0	1011875840	55	4748
2026-01-05 06:07:23.13	325.62	13.68	-46.5	-48.2	16.4	0.00e+00	0	57	0	1013972992	55	4466
2026-01-05 06:07:24.12	325.48	13.61	-46.4	-48.1	16.5	0.00e+00	0	57	0	1015021568	55	4400
2026-01-05 06:07:25.12	325.34	13.54	-46.3	-47.9	16.6	0.00e+00	0	57	0	1017118720	55	4340
2026-01-05 06:07:26.11	325.20	13.47	-46.8	-48.6	16.0	0.00e+00	0	57	0	1019215872	55	4701
2026-01-05 06:07:27.10	325.07	13.40	-47.0	-49.0	15.6	0.00e+00	0	57	0	1021313024	55	4880
2026-01-05 06:07:28.08	324.93	13.33	-47.4	-49.5	15.2	0.00e+00	0	57	0	1023410176	56	4887
2026-01-05 06:07:29.06	324.80	13.25	-47.6	-49.8	14.9	0.00e+00	0	57	0	1024458752	57	4806
2026-01-05 06:07:30.06	324.66	13.18	-47.8	-50.1	14.6	7.00e-07	0	57	0	1026555904	57	4932
2026-01-05 06:07:31.05	324.53	13.11	-47.9	-50.2	14.5	7.00e-07	0	57	0	1028653056	57	5014
2026-01-05 06:07:32.04	324.40	13.04	-47.7	-49.9	14.8	0.00e+00	0	57	0	1030750208	57	4829
2026-01-05 06:07:33.03	324.27	12.97	-47.8	-50.1	14.6	0.00e+00	0	57	0	1031798784	57	4979
2026-01-05 06:07:34.02	324.13	12.90	-47.9	-50.2	14.5	0.00e+00	0	57	0	1033895936	57	5011
2026-01-05 06:07:35.01	324.00	12.82	-47.4	-49.6	15.1	0.00e+00	0	57	0	1035993088	57	4664
2026-01-05 06:07:36.00	323.87	12.75	-46.9	-48.8	15.8	0.00e+00	0	57	0	1038090240	57	4291
2026-01-05 06:07:36.98	323.74	12.68	-46.7	-48.5	16.1	0.00e+00	0	57	0	1039138816	56	4372
2026-01-05 06:07:37.98	323.61	12.61	-46.6	-48.4	16.3	0.00e+00	0	57	0	1041235968	56	4296
2026-01-05 06:07:38.97	323.48	12.54	-46.6	-48.3	16.3	0.00e+00	0	57	0	1043333120	56	4276
2026-01-05 06:07:39.97	323.35	12.47	-46.8	-48.6	16.0	0.00e+00	0	57	0	1045430272	56	4421
2026-01-05 06:07:40.95	323.23	12.40	-46.7	-48.5	16.1	0.00e+00	0	57	0	1047527424	56	4363
2026-01-05 06:07:41.95	323.10	12.33	-46.8	-48.6	16.0	0.00e+00	0	57	0	1048576000	56	4432
2026-01-05 06:07:42.94	322.97	12.25	-47.0	-48.9	15.8	0.00e+00	0	57	0	1050673152	56	4560
2026-01-05 06:07:43.93	322.85	12.18	-46.8	-48.6	16.0	0.00e+00	0	57	0	1052770304	56	4413
2026-01-05 06:07:44.92	322.72	12.11	-46.8	-48.6	16.0	0.00e+00	0	57	0	1054867456	56	4393
2026-01-05 06:07:45.90	322.60	12.04	-46.8	-48.6	16.0	0.00e+00	0	57	0	1055916032	56	4413
2026-01-05 06:07:46.90	322.48	11.97	-47.0	-49.0	15.6	0.00e+00	0	57	0	1058013184	56	4612
2026-01-05 06:07:47.88	322.36	11.90	-46.8	-48.6	16.0	0.00e+00	0	57	0	1060110336	56	4435
2026-01-05 06:07:48.87	322.23	11.83	-46.9	-48.7	16.0	0.00e+00	0	57	0	1062207488	56	4458
2026-01-05 06:07:49.86	322.11	11.76	-47.0	-48.9	15.7	0.00e+00	0	57	0	1063256064	56	4565
2026-01-05 06:07:50.85	321.99	11.69	-47.0	-49.0	15.7	0.00e+00	0	57	0	1065353216	56	4601
2026-01-05 06:07:51.84	321.87	11.62	-47.3	-49.5	15.2	0.00e+00	0	57	0	1067450368	56	4876
2026-01-05 06:07:52.83	321.75	11.55	-47.3	-49.5	15.1	0.00e+00	0	57	0	1069547520	56	4880
2026-01-05 06:07:53.81	321.63	11.48	-47.4	-49.6	15.1	7.00e-07	0	57	0	1071644672	56	4941
2026-01-05 06:07:54.80	321.51	11.41	-47.5	-49.7	14.9	0.00e+00	0	57	0	1072693248	57	4745
2026-01-05 06:07:55.79	321.39	11.34	-47.7	-50.0	14.6	7.00e-07	0	57	0	1074790400	57	4896
2026-01-05 06:07:56.77	321.28	11.27	-47.8	-50.1	14.5	7.00e-07	0	57	0	1076887552	57	4965
2026-01-05 06:07:57.77	321.16	11.20	-47.7	-49.9	14.7	0.00e+00	0	57	0	1078984704	57	4865
2026-01-05 06:07:58.76	321.04	11.13	-47.6	-49.8	14.8	0.00e+00	0	57	0	1080033280	57	4793
2026-01-05 06:07:59.75	320.93	11.06	-47.5	-49.7	14.9	0.00e+00	0	57	0	1082130432	57	4757
2026-01-05 06:08:00.74	320.81	10.99	-47.6	-49.9	14.7	0.00e+00	0	57	0	1084227584	57	4843
2026-01-05 06:08:01.72	320.70	10.92	-47.8	-50.2	14.4	1.50e-06	0	57	0	1086324736	57	4989
2026-01-05 06:08:02.71	320.58	10.85	-47.9	-50.3	14.3	0.00e+00	0	57	0	1087373312	57	5074
2026-01-05 06:08:03.70	320.47	10.78	-47.9	-50.4	14.3	2.20e-06	0	57	0	1089470464	57	5104
2026-01-05 06:08:04.70	320.36	10.71	-48.1	-50.6	13.9	1.50e-06	0	57	0	1091567616	57	5273
2026-01-05 06:08:05.68	320.24	10.65	-48.2	-50.8	13.7	1.14e-05	0	57	0	1093664768	58	5085
2026-01-05 06:08:06.67	320.13	10.58	-48.2	-50.8	13.7	3.00e-06	0	57	0	1094713344	58	5094
2026-01-05 06:08:07.65	320.02	10.51	-48.4	-51.1	13.5	7.60e-06	0	57	0	1096810496	58	5256
2026-01-05 06:08:08.64	319.91	10.44	-48.2	-50.8	13.8	3.80e-06	0	57	0	1098907648	58	5055
2026-01-05 06:08:09.63	319.80	10.37	-48.2	-50.7	13.8	4.50e-06	0	57	0	1101004800	58	5040
2026-01-05 06:08:10.61	319.69	10.30	-48.2	-50.9	13.8	1.50e-06	0	57	0	1103101952	58	5104
2026-01-05 06:08:11.60	319.58	10.23	-48.1	-50.7	13.9	1.50e-06	0	57	0	1104150528	58	5005
2026-01-05 06:08:12.60	319.47	10.17	-48.0	-50.4	14.2	7.00e-07	0	57	0	1106247680	58	4864
2026-01-05 06:08:13.59	319.36	10.10	-47.9	-50.2	14.4	7.00e-07	0	57	0	1108344832	58	4752
2026-01-05 06:08:14.58	319.26	10.03	-48.1	-50.7	13.9	0.00e+00	0	57	0	1110441984	58	4985
2026-01-05 06:08:15.58	319.15	9.96	-47.9	-50.3	14.3	1.50e-06	0	57	0	1111490560	58	4771
2026-01-05 06:08:16.57	319.04	9.89	-47.8	-50.1	14.5	0.00e+00	0	57	0	1113587712	58	4679
2026-01-05 06:08:17.56	318.93	9.82	-47.7	-49.9	14.6	7.00e-07	0	57	0	1115684864	58	4597
2026-01-05 06:08:18.56	318.83	9.75	-47.6	-49.8	14.8	7.00e-07	0	57	0	1117782016	58	4507
2026-01-05 06:08:19.55	318.72	9.69	-47.6	-49.9	14.7	7.00e-07	0	57	0	1119879168	58	4558
2026-01-05 06:08:20.54	318.62	9.62	-47.8	-50.1	14.4	0.00e+00	0	57	0	1120927744	58	4693
2026-01-05 06:08:21.53	318.51	9.55	-48.0	-50.5	14.1	7.00e-07	0	57	0	1123024896	58	4914
2026-01-05 06:08:22.53	318.41	9.48	-48.1	-50.6	14.0	2.20e-06	0	57	0	1125122048	58	4935
2026-01-05 06:08:23.52	318.31	9.42	-48.0	-50.6	13.9	7.00e-07	0	57	0	1127219200	58	4949
2026-01-05 06:08:24.51	318.20	9.35	-48.2	-50.8	13.7	9.90e-06	0	56	0	1128267776	58	5095
2026-01-05 06:08:25.50	318.10	9.28	-48.0	-50.6	13.9	7.60e-06	0	57	0	1130364928	58	4935
2026-01-05 06:08:26.48	318.00	9.21	-48.0	-50.6	13.9	1.50e-06	0	57	0	1132462080	58	4964
2026-01-05 06:08:27.47	317.90	9.15	-48.0	-50.5	14.0	3.00e-06	0	57	0	1134559232	58	4889
2026-01-05 06:08:28.45	317.80	9.08	-48.0	-50.5	14.0	3.00e-06	0	57	0	1135607808	58	4918
2026-01-05 06:08:29.44	317.70	9.01	-48.1	-50.6	13.9	3.00e-06	0	57	0	1137704960	58	4966
2026-01-05 06:08:30.43	317.60	8.95	-48.1	-50.6	13.9	3.80e-06	0	57	0	1139802112	58	4947
2026-01-05 06:08:31.42	317.50	8.88	-47.8	-50.2	14.2	1.50e-06	0	57	0	1141899264	58	4757
2026-01-05 06:08:32.41	317.40	8.81	-47.8	-50.2	14.3	7.00e-07	0	57	0	1143996416	58	4717
2026-01-05 06:08:33.40	317.30	8.75	-47.7	-50.1	14.5	0.00e+00	0	57	0	1145044992	58	4660
2026-01-05 06:08:34.39	317.20	8.68	-47.7	-50.0	14.5	0.00e+00	0	57	0	1147142144	58	4645
2026-01-05 06:08:35.38	317.11	8.61	-47.8	-50.2	14.3	7.00e-07	0	57	0	1149239296	58	4755
2026-01-05 06:08:36.37	317.01	8.55	-47.9	-50.3	14.2	2.20e-06	0	57	0	1151336448	58	4773
2026-01-05 06:08:37.35	316.91	8.48	-47.7	-50.1	14.4	1.50e-06	0	57	0	1152385024	58	4682
2026-01-05 06:08:38.34	316.82	8.42	-48.1	-50.6	13.8	2.20e-06	0	57	0	1154482176	58	4972
2026-01-05 06:08:39.33	316.72	8.35	-48.2	-50.9	13.6	9.90e-06	0	57	0	1156579328	58	5107
2026-01-05 06:08:40.32	316.63	8.28	-48.2	-50.9	13.6	3.80e-06	0	57	0	1158676480	58	5107
2026-01-05 06:08:41.31	316.53	8.22	-48.2	-50.9	13.5	3.80e-06	0	57	0	1159725056	58	5155
2026-01-05 06:08:42.30	316.44	8.15	-48.4	-51.2	13.2	1.52e-05	0	57	0	1161822208	58	5309
2026-01-05 06:08:43.28	316.34	8.09	-48.5	-51.4	13.0	3.20e-05	0	57	0	1163919360	58	5457
2026-01-05 06:08:44.26	316.25	8.02	-48.5	-51.5	12.9	2.36e-05	0	57	0	1166016512	58	5487
2026-01-05 06:08:45.25	316.16	7.96	-48.7	-51.7	12.7	5.87e-05	0	57	0	1168113664	59	5332
2026-01-05 06:08:46.24	316.07	7.89	-48.6	-51.8	12.6	7.70e-05	0	57	0	1169162240	59	5368
2026-01-05 06:08:47.23	315.97	7.83	-48.7	-51.9	12.5	1.27e-04	0	57	0	1171259392	59	5433
2026-01-05 06:08:48.22	315.88	7.76	-48.8	-52.0	12.3	1.73e-04	0	57	0	1173356544	59	5521
2026-01-05 06:08:49.21	315.79	7.70	-49.0	-52.3	12.0	2.46e-04	0	57	0	1175453696	59	5701
2026-01-05 06:08:50.20	315.70	7.63	-48.9	-52.2	12.2	3.79e-04	0	57	0	1176502272	59	5643
2026-01-05 06:08:51.18	315.61	7.57	-49.0	-52.5	11.8	4.37e-04	0	57	0	1178599424	59	5823
2026-01-05 06:08:52.18	315.52	7.50	-49.2	-52.8	11.5	6.55e-04	0	57	0	1180696576	60	5702
2026-01-05 06:08:53.16	315.43	7.44	-49.1	-52.6	11.8	6.34e-04	0	57	0	1182793728	60	5540
2026-01-05 06:08:54.15	315.34	7.37	-49.2	-52.9	11.4	6.29e-04	0	57	0	1183842304	60	5758
2026-01-05 06:08:55.14	315.25	7.31	-49.3	-53.2	11.1	1.12e-03	0	57	0	1185939456	60	5939
2026-01-05 06:08:56.13	315.16	7.24	-49.3	-53.1	11.2	1.49e-03	0	57	0	1188036608	60	5908
2026-01-05 06:08:57.12	315.07	7.18	-49.3	-53.2	11.1	1.49e-03	0	57	0	1190133760	60	5924
2026-01-05 06:08:58.12	314.99	7.11	-49.3	-53.3	11.1	1.71e-03	0	57	0	1191182336	60	6006
2026-01-05 06:08:59.10	314.90	7.05	-49.4	-53.3	10.9	1.95e-03	0	57	0	1193279488	60	6059
2026-01-05 06:09:00.09	314.81	6.99	-49.3	-53.2	11.1	1.86e-03	0	57	0	1195376640	60	5958
2026-01-05 06:09:01.08	314.73	6.92	-49.3	-53.1	11.2	1.72e-03	0	57	0	1197473792	60	5870
2026-01-05 06:09:02.06	314.64	6.86	-49.3	-53.2	11.0	1.58e-03	0	57	0	1199570944	60	5940
2026-01-05 06:09:03.05	314.56	6.80	-49.4	-53.5	10.8	1.79e-03	0	57	0	1200619520	60	6137
2026-01-05 06:09:04.04	314.47	6.73	-49.2	-53.0	11.3	2.15e-03	0	57	0	1202716672	60	5843
2026-01-05 06:09:05.03	314.39	6.67	-49.1	-52.8	11.4	1.26e-03	0	57	0	1204813824	60	5721
2026-01-05 06:09:06.02	314.30	6.60	-49.1	-52.7	11.5	8.99e-04	0	57	0	1206910976	60	5649
2026-01-05 06:09:07.01	314.22	6.54	-49.2	-53.0	11.2	1.06e-03	0	57	0	1207959552	60	5797
2026-01-05 06:09:08.00	314.13	6.48	-49.2	-53.0	11.3	1.11e-03	0	57	0	1210056704	60	5809
2026-01-05 06:09:08.99	314.05	6.42	-49.3	-53.3	11.0	1.58e-03	0	57	0	1212153856	60	6002
2026-01-05 06:09:09.98	313.97	6.35	-49.4	-53.4	10.8	2.23e-03	0	57	0	1214251008	60	6078
2026-01-05 06:09:10.97	313.88	6.29	-49.4	-53.6	10.6	2.45e-03	0	57	0	1215299584	60	6241
2026-01-05 06:09:11.96	313.80	6.23	-49.4	-53.5	10.7	2.84e-03	0	57	0	1217396736	60	6166
2026-01-05 06:09:12.95	313.72	6.16	-49.6	-53.9	10.3	4.14e-03	0	57	0	1219493888	60	6434
2026-01-05 06:09:13.95	313.64	6.10	-49.5	-53.7	10.5	5.33e-03	0	57	0	1221591040	61	5945
2026-01-05 06:09:14.93	313.56	6.04	-49.4	-53.6	10.6	3.82e-03	0	57	0	1223688192	61	5886
2026-01-05 06:09:15.93	313.48	5.97	-49.6	-54.0	10.1	6.52e-03	0	57	0	1224736768	61	6159
2026-01-05 06:09:16.91	313.40	5.91	-49.5	-53.9	10.2	5.82e-03	0	57	0	1226833920	61	6087
2026-01-05 06:09:17.91	313.31	5.85	-49.4	-53.7	10.4	3.67e-03	0	57	0	1228931072	61	5947
