passes_logs/2026/01/05/R3.0SM8_Murmansk_STILSPACE/R3.0SM8_Murmansk_STILSPACE__20260105_052649_FENGYUN_3E_rec.log

#Pass ID: 20260105_052649_FENGYUN 3E
#Satellite: FENGYUN 3E
#Configuration: FENGYUN 3E
#almurnet v.1.7.20240730
#Start time: 2026-01-05 05:32:59

#Version: 2.2.20231116
#Station: R3.0SM8_Murmansk_STILSPACE
#Location: 33.092731 lon 68.902999 lat
#TLE: 1 49008U 21062A   26004.29457719  .00000106  00000+0  70678-4 0  9996
#TLE: 2 49008  98.7471   9.5487 0001503 159.9821 200.1414 14.19883545233329

#Time	Az	El	Level	Level2	SNR	BER	BlckErr	Temp	State	Recorded	gain1	gain2
2026-01-05 05:32:59.70	352.33	60.74	-52.7	-63.4	3.8	8.46e-01	0	56	0	0	67	12937
2026-01-05 05:33:00.68	351.73	61.05	-52.7	-62.9	3.8	8.48e-01	0	57	104	0	68	11307
2026-01-05 05:33:01.67	351.10	61.36	-52.7	-62.9	3.8	8.47e-01	0	57	104	0	68	11369
2026-01-05 05:33:02.66	350.46	61.66	-52.7	-62.9	3.8	8.47e-01	0	57	104	0	68	11373
2026-01-05 05:33:03.65	349.81	61.97	-52.7	-62.9	3.8	8.45e-01	0	57	104	0	68	11350
2026-01-05 05:33:04.64	349.13	62.27	-52.7	-62.9	3.8	8.45e-01	0	57	104	0	68	11312
2026-01-05 05:33:05.64	348.44	62.57	-52.6	-62.8	3.8	8.45e-01	0	57	104	0	68	11180
2026-01-05 05:33:06.62	347.74	62.87	-52.6	-62.8	3.8	8.46e-01	0	57	104	0	68	11237
2026-01-05 05:33:07.61	347.01	63.16	-52.5	-62.7	3.8	8.46e-01	0	58	104	0	67	11781
2026-01-05 05:33:08.60	346.27	63.46	-52.6	-62.7	3.8	8.47e-01	0	57	104	0	67	11800
2026-01-05 05:33:09.59	345.51	63.75	-52.6	-62.7	3.8	8.47e-01	0	57	104	0	67	11763
2026-01-05 05:33:10.59	344.72	64.04	-52.5	-62.7	3.8	8.46e-01	0	57	104	0	67	11729
2026-01-05 05:33:11.57	343.93	64.32	-52.6	-62.7	3.8	8.47e-01	0	57	104	0	67	11748
2026-01-05 05:33:12.57	343.10	64.60	-52.6	-62.7	3.8	8.47e-01	0	57	104	0	67	11800
2026-01-05 05:33:13.55	342.27	64.87	-52.7	-62.8	3.8	8.45e-01	0	57	104	0	67	11937
2026-01-05 05:33:14.54	341.41	65.15	-52.6	-62.8	3.8	8.46e-01	0	58	104	0	67	11849
2026-01-05 05:33:15.54	340.52	65.42	-52.6	-62.8	3.8	8.47e-01	0	57	104	0	67	11846
2026-01-05 05:33:16.53	339.61	65.68	-52.6	-62.7	3.8	8.45e-01	0	57	104	0	67	11790
2026-01-05 05:33:17.53	338.68	65.94	-52.7	-62.8	3.8	8.47e-01	0	57	104	0	67	11860
2026-01-05 05:33:18.52	337.73	66.20	-52.6	-62.7	3.8	8.46e-01	0	57	104	0	67	11759
2026-01-05 05:33:19.50	336.77	66.44	-52.6	-62.7	3.8	8.46e-01	0	58	104	0	67	11729
2026-01-05 05:33:20.50	335.77	66.69	-52.6	-62.7	3.8	8.47e-01	0	57	104	0	67	11796
2026-01-05 05:33:21.49	334.75	66.92	-52.6	-62.8	3.8	8.46e-01	0	58	104	0	67	11837
2026-01-05 05:33:22.48	333.71	67.15	-52.6	-62.7	3.8	8.45e-01	0	57	104	0	67	11779
2026-01-05 05:33:23.47	332.65	67.38	-52.6	-62.7	3.8	8.46e-01	0	57	104	0	67	11764
2026-01-05 05:33:24.46	331.56	67.60	-52.6	-62.7	3.8	8.48e-01	0	58	104	0	67	11754
2026-01-05 05:33:25.45	330.46	67.81	-52.6	-62.6	3.8	8.44e-01	0	57	104	0	67	11639
2026-01-05 05:33:26.44	329.33	68.01	-52.6	-62.7	3.8	8.46e-01	0	57	104	0	67	11782
2026-01-05 05:33:27.42	328.19	68.20	-52.6	-62.8	3.8	8.46e-01	0	58	104	0	67	11870
2026-01-05 05:33:28.41	327.01	68.39	-52.6	-62.7	3.8	8.46e-01	0	57	104	0	67	11797
2026-01-05 05:33:29.39	325.83	68.57	-52.6	-62.7	3.8	8.46e-01	0	57	104	0	67	11751
2026-01-05 05:33:30.37	324.62	68.74	-52.4	-62.6	3.8	8.45e-01	0	58	104	0	67	11663
2026-01-05 05:33:31.36	323.38	68.90	-52.5	-62.6	3.8	8.47e-01	0	58	104	0	67	11609
2026-01-05 05:33:32.35	322.12	69.05	-52.6	-62.6	3.8	8.47e-01	0	58	104	0	67	11662
2026-01-05 05:33:33.34	320.84	69.20	-52.7	-62.8	3.8	8.47e-01	0	58	104	0	67	11880
2026-01-05 05:33:34.32	319.56	69.33	-52.5	-62.7	3.8	8.46e-01	0	57	104	0	67	11757
2026-01-05 05:33:35.31	318.25	69.46	-52.5	-62.7	3.8	8.46e-01	0	58	104	0	67	11724
2026-01-05 05:33:36.30	316.91	69.57	-52.6	-62.7	3.8	8.47e-01	0	58	104	0	67	11732
2026-01-05 05:33:37.28	315.58	69.67	-52.5	-62.8	3.8	8.47e-01	0	58	104	0	67	11859
2026-01-05 05:33:38.27	314.22	69.77	-52.6	-62.8	3.8	8.46e-01	0	58	104	0	67	11883
2026-01-05 05:33:39.26	312.85	69.85	-52.5	-62.6	3.8	8.46e-01	0	58	104	0	67	11680
2026-01-05 05:33:40.25	311.46	69.92	-52.5	-62.6	3.8	8.47e-01	0	58	104	0	67	11615
2026-01-05 05:33:41.25	310.05	69.98	-52.6	-62.7	3.8	8.47e-01	0	58	104	0	67	11692
2026-01-05 05:33:42.23	308.66	70.03	-52.5	-62.8	3.8	8.46e-01	0	58	104	0	67	11821
2026-01-05 05:33:43.22	307.25	70.07	-52.6	-62.7	3.8	8.46e-01	0	58	104	0	67	11699
2026-01-05 05:33:44.22	305.82	70.10	-52.6	-62.6	3.8	8.44e-01	0	58	104	0	67	11624
2026-01-05 05:33:45.21	304.41	70.12	-52.6	-62.7	3.8	8.45e-01	0	58	104	0	67	11786
2026-01-05 05:33:46.20	302.99	70.12	-52.6	-62.7	3.8	8.46e-01	0	58	104	0	67	11726
2026-01-05 05:33:47.19	301.57	70.11	-52.4	-62.3	3.8	8.47e-01	0	58	104	0	67	11212
2026-01-05 05:33:48.18	300.15	70.09	-52.6	-62.8	3.8	8.46e-01	0	58	104	0	67	11820
2026-01-05 05:33:49.17	298.73	70.06	-52.2	-60.8	3.8	8.47e-01	0	58	104	0	67	9442
2026-01-05 05:33:50.17	297.31	70.02	-51.3	-56.5	5.4	7.48e-01	0	58	0	0	65	6494
2026-01-05 05:33:51.16	295.91	69.97	-50.8	-54.8	6.7	2.40e-01	0	58	0	5242880	64	5622
2026-01-05 05:33:52.15	294.52	69.91	-46.8	-48.0	13.7	1.26e-03	0	58	0	12582912	56	4096
2026-01-05 05:33:53.14	293.13	69.83	-41.7	-42.3	19.4	0.00e+00	0	58	0	19922944	46	3745
2026-01-05 05:33:54.13	291.76	69.74	-41.3	-41.9	19.7	0.00e+00	0	58	0	27262976	44	4030
2026-01-05 05:33:55.11	290.42	69.65	-41.5	-42.1	19.3	0.00e+00	0	58	0	33554432	44	4110
2026-01-05 05:33:56.11	289.06	69.54	-41.1	-41.6	19.9	0.00e+00	0	58	0	40894464	44	3894
2026-01-05 05:33:57.09	287.75	69.43	-41.0	-41.5	19.9	0.00e+00	0	58	0	48234496	44	3867
2026-01-05 05:33:58.08	286.44	69.30	-41.5	-42.1	19.5	0.00e+00	0	58	0	55574528	44	4123
2026-01-05 05:33:59.06	285.16	69.16	-41.3	-41.8	19.7	0.00e+00	0	58	0	62914560	44	3984
2026-01-05 05:34:00.05	283.88	69.02	-41.7	-42.3	19.3	0.00e+00	0	58	0	69206016	45	4002
2026-01-05 05:34:01.04	282.63	68.86	-41.5	-42.1	19.5	0.00e+00	0	58	0	76546048	45	3893
2026-01-05 05:34:02.03	281.39	68.70	-41.3	-41.8	19.8	0.00e+00	0	58	0	83886080	45	3770
2026-01-05 05:34:03.02	280.18	68.52	-41.4	-42.0	19.6	0.00e+00	0	58	0	91226112	45	3841
2026-01-05 05:34:04.01	278.99	68.34	-41.3	-41.8	19.6	0.00e+00	0	58	0	98566144	45	3775
2026-01-05 05:34:04.99	277.83	68.15	-41.1	-41.6	20.0	0.00e+00	0	58	0	104857600	45	3655
2026-01-05 05:34:05.98	276.68	67.96	-41.0	-41.5	20.1	0.00e+00	0	58	0	112197632	44	3844
2026-01-05 05:34:06.97	275.56	67.75	-41.4	-42.0	19.5	0.00e+00	0	58	0	119537664	44	4069
2026-01-05 05:34:07.96	274.45	67.54	-42.0	-42.5	18.9	0.00e+00	0	58	0	126877696	45	4089
2026-01-05 05:34:08.95	273.37	67.32	-41.9	-42.5	19.1	0.00e+00	0	58	0	133169152	45	4053
2026-01-05 05:34:09.94	272.32	67.09	-42.3	-42.9	18.7	0.00e+00	0	58	0	140509184	46	4022
2026-01-05 05:34:10.93	271.28	66.86	-41.6	-42.1	19.5	0.00e+00	0	58	0	147849216	46	3674
2026-01-05 05:34:11.92	270.27	66.62	-41.1	-41.7	19.9	0.00e+00	0	58	0	155189248	45	3707
2026-01-05 05:34:12.91	269.28	66.38	-40.6	-41.0	20.4	0.00e+00	0	58	0	162529280	44	3649
2026-01-05 05:34:13.91	268.31	66.12	-40.5	-41.0	20.4	0.00e+00	0	58	0	169869312	43	3856
2026-01-05 05:34:14.90	267.37	65.87	-40.5	-41.0	20.4	0.00e+00	0	58	0	176160768	43	3831
2026-01-05 05:34:15.89	266.45	65.61	-40.6	-41.1	20.3	0.00e+00	0	58	0	183500800	43	3901
2026-01-05 05:34:16.88	265.55	65.34	-40.4	-40.9	20.5	0.00e+00	0	58	0	190840832	43	3816
2026-01-05 05:34:17.87	264.67	65.07	-40.4	-40.9	20.4	0.00e+00	0	58	0	198180864	43	3811
2026-01-05 05:34:18.85	263.82	64.80	-40.6	-41.1	20.4	0.00e+00	0	58	0	205520896	43	3870
2026-01-05 05:34:19.84	262.98	64.52	-40.6	-41.1	20.4	0.00e+00	0	58	0	211812352	43	3895
2026-01-05 05:34:20.83	262.17	64.24	-40.8	-41.3	20.1	0.00e+00	0	58	0	219152384	43	3988
2026-01-05 05:34:21.82	261.37	63.96	-41.0	-41.6	19.8	0.00e+00	0	58	0	226492416	43	4100
2026-01-05 05:34:22.82	260.59	63.67	-41.1	-41.7	19.9	0.00e+00	0	58	0	233832448	44	3915
2026-01-05 05:34:23.81	259.83	63.38	-40.7	-41.2	20.4	0.00e+00	0	58	0	241172480	44	3702
2026-01-05 05:34:24.80	259.09	63.08	-40.0	-40.5	20.8	0.00e+00	0	58	0	248512512	43	3638
2026-01-05 05:34:25.79	258.37	62.78	-39.8	-40.3	21.1	0.00e+00	0	58	0	254803968	42	3738
2026-01-05 05:34:26.79	257.66	62.48	-40.0	-40.4	20.9	0.00e+00	0	58	0	262144000	42	3822
2026-01-05 05:34:27.76	256.99	62.19	-40.3	-40.8	20.7	0.00e+00	0	58	0	269484032	42	3971
2026-01-05 05:34:28.75	256.32	61.88	-40.7	-41.2	20.2	0.00e+00	0	58	0	276824064	42	4163
2026-01-05 05:34:29.74	255.67	61.58	-41.0	-41.5	19.9	0.00e+00	0	58	0	284164096	43	4072
2026-01-05 05:34:30.73	255.03	61.27	-41.1	-41.6	19.9	0.00e+00	0	58	0	291504128	44	3908
2026-01-05 05:34:31.72	254.41	60.96	-41.0	-41.6	20.0	0.00e+00	0	58	0	297795584	44	3871
2026-01-05 05:34:32.71	253.81	60.65	-41.2	-41.8	19.8	0.00e+00	0	58	0	305135616	44	3971
2026-01-05 05:34:33.70	253.22	60.34	-41.0	-41.6	19.9	0.00e+00	0	58	0	312475648	44	3873
2026-01-05 05:34:34.69	252.64	60.03	-40.8	-41.3	20.2	0.00e+00	0	58	0	319815680	44	3755
2026-01-05 05:34:35.67	252.08	59.72	-41.1	-41.6	19.9	0.00e+00	0	58	0	327155712	44	3902
2026-01-05 05:34:36.65	251.54	59.40	-41.3	-41.8	19.7	0.00e+00	0	58	0	333447168	44	3997
2026-01-05 05:34:37.64	251.00	59.09	-41.3	-41.9	19.7	0.00e+00	0	58	0	340787200	44	4013
2026-01-05 05:34:38.63	250.48	58.77	-41.3	-41.8	19.7	0.00e+00	0	58	0	348127232	44	4002
2026-01-05 05:34:39.62	249.97	58.46	-41.6	-42.1	19.4	0.00e+00	0	58	0	355467264	44	4126
2026-01-05 05:34:40.61	249.47	58.14	-41.4	-42.0	19.5	0.00e+00	0	58	0	362807296	45	3832
2026-01-05 05:34:41.60	248.98	57.82	-41.5	-42.0	19.4	0.00e+00	0	58	0	369098752	45	3846
2026-01-05 05:34:42.59	248.51	57.50	-41.7	-42.2	19.3	0.00e+00	0	58	0	376438784	45	3953
2026-01-05 05:34:43.58	248.04	57.19	-41.8	-42.4	19.2	0.00e+00	0	58	0	383778816	45	4015
2026-01-05 05:34:44.56	247.59	56.87	-41.5	-42.0	19.5	0.00e+00	0	58	0	391118848	45	3858
2026-01-05 05:34:45.55	247.15	56.55	-41.3	-41.8	19.7	0.00e+00	0	58	0	397410304	45	3775
2026-01-05 05:34:46.54	246.72	56.24	-41.3	-41.8	19.7	0.00e+00	0	58	0	404750336	45	3769
2026-01-05 05:34:47.54	246.29	55.92	-41.6	-42.1	19.5	0.00e+00	0	58	0	412090368	45	3898
2026-01-05 05:34:48.53	245.88	55.60	-41.4	-42.0	19.6	0.00e+00	0	58	0	419430400	45	3842
2026-01-05 05:34:49.51	245.48	55.29	-41.5	-42.1	19.4	0.00e+00	0	58	0	426770432	45	3878
2026-01-05 05:34:50.51	245.08	54.97	-41.5	-42.0	19.5	0.00e+00	0	58	0	434110464	45	3852
2026-01-05 05:34:51.49	244.69	54.66	-41.0	-41.5	19.8	0.00e+00	0	58	0	440401920	45	3622
2026-01-05 05:34:52.48	244.32	54.34	-41.0	-41.5	20.0	0.00e+00	0	58	0	447741952	44	3840
2026-01-05 05:34:53.47	243.95	54.03	-41.2	-41.7	19.7	0.00e+00	0	58	0	455081984	44	3951
2026-01-05 05:34:54.46	243.58	53.71	-41.3	-41.9	19.5	0.00e+00	0	58	0	462422016	44	4014
2026-01-05 05:34:55.46	243.23	53.40	-41.6	-42.2	19.3	0.00e+00	0	58	0	469762048	44	4183
2026-01-05 05:34:56.44	242.88	53.09	-41.8	-42.3	19.1	0.00e+00	0	58	0	476053504	45	4003
2026-01-05 05:34:57.43	242.54	52.78	-41.7	-42.3	19.2	0.00e+00	0	58	0	483393536	45	3997
2026-01-05 05:34:58.42	242.21	52.47	-41.9	-42.5	19.0	0.00e+00	0	58	0	490733568	45	4076
2026-01-05 05:34:59.41	241.89	52.16	-41.7	-42.3	19.3	0.00e+00	0	58	0	498073600	45	3971
2026-01-05 05:35:00.40	241.57	51.85	-41.3	-41.8	19.7	0.00e+00	0	58	0	505413632	45	3752
2026-01-05 05:35:01.39	241.26	51.54	-41.2	-41.7	19.8	0.00e+00	0	58	0	512753664	45	3714
2026-01-05 05:35:02.38	240.95	51.24	-41.3	-41.8	19.7	0.00e+00	0	58	0	519045120	45	3776
2026-01-05 05:35:03.38	240.65	50.93	-41.5	-42.1	19.4	0.00e+00	0	58	0	526385152	45	3887
2026-01-05 05:35:04.36	240.36	50.63	-41.5	-42.1	19.4	0.00e+00	0	58	0	533725184	45	3883
2026-01-05 05:35:05.36	240.07	50.32	-41.5	-42.1	19.4	0.00e+00	0	58	0	541065216	45	3895
2026-01-05 05:35:06.36	239.78	50.02	-41.4	-42.0	19.5	0.00e+00	0	58	0	548405248	45	3829
2026-01-05 05:35:07.34	239.51	49.72	-41.4	-41.9	19.6	0.00e+00	0	58	0	554696704	45	3812
2026-01-05 05:35:08.34	239.24	49.42	-41.6	-42.2	19.3	0.00e+00	0	58	0	562036736	45	3938
2026-01-05 05:35:09.33	238.97	49.12	-41.9	-42.5	19.0	0.00e+00	0	58	0	569376768	45	4060
2026-01-05 05:35:10.31	238.72	48.83	-42.1	-42.7	18.9	0.00e+00	0	58	0	576716800	45	4155
2026-01-05 05:35:11.29	238.46	48.54	-42.3	-42.9	18.6	0.00e+00	0	58	0	584056832	46	4050
2026-01-05 05:35:12.29	238.21	48.24	-42.1	-42.8	18.7	0.00e+00	0	58	0	591396864	46	3959
2026-01-05 05:35:13.28	237.97	47.95	-41.9	-42.5	19.1	0.00e+00	0	58	0	597688320	46	3825
2026-01-05 05:35:14.28	237.72	47.66	-41.9	-42.4	19.0	0.00e+00	0	58	0	605028352	46	3820
2026-01-05 05:35:15.27	237.49	47.37	-41.9	-42.4	19.0	0.00e+00	0	58	0	612368384	46	3817
2026-01-05 05:35:16.26	237.25	47.08	-41.7	-42.3	19.3	0.00e+00	0	58	0	619708416	46	3744
2026-01-05 05:35:17.25	237.03	46.79	-42.0	-42.6	19.0	0.00e+00	0	58	0	627048448	46	3889
2026-01-05 05:35:18.24	236.80	46.51	-41.7	-42.3	19.3	0.00e+00	0	58	0	634388480	46	3752
2026-01-05 05:35:19.23	236.58	46.23	-41.3	-41.9	19.5	0.00e+00	0	58	0	640679936	45	3785
2026-01-05 05:35:20.22	236.37	45.94	-41.0	-41.5	20.0	0.00e+00	0	58	0	648019968	45	3638
2026-01-05 05:35:21.20	236.16	45.67	-40.8	-41.3	20.2	0.00e+00	0	58	0	655360000	44	3747
2026-01-05 05:35:22.19	235.95	45.39	-40.7	-41.1	20.3	0.00e+00	0	58	0	662700032	44	3694
2026-01-05 05:35:23.17	235.75	45.11	-40.5	-41.0	20.4	0.00e+00	0	58	0	670040064	43	3835
2026-01-05 05:35:24.17	235.55	44.83	-40.5	-41.0	20.4	0.00e+00	0	58	0	676331520	43	3833
2026-01-05 05:35:25.16	235.35	44.56	-40.3	-40.8	20.6	0.00e+00	0	58	0	683671552	43	3754
2026-01-05 05:35:26.15	235.16	44.29	-40.1	-40.6	20.7	0.00e+00	0	58	0	691011584	43	3685
2026-01-05 05:35:27.14	234.97	44.02	-40.0	-40.5	20.8	0.00e+00	0	58	0	698351616	43	3627
2026-01-05 05:35:28.13	234.78	43.75	-40.1	-40.5	20.2	0.00e+00	0	58	0	705691648	42	3849
2026-01-05 05:35:29.11	234.60	43.48	-40.4	-40.9	20.4	0.00e+00	0	58	0	713031680	42	4007
2026-01-05 05:35:30.09	234.42	43.22	-40.1	-40.5	20.7	0.00e+00	0	58	0	719323136	42	3853
2026-01-05 05:35:31.08	234.24	42.95	-40.4	-40.9	20.5	0.00e+00	0	58	0	726663168	42	4010
2026-01-05 05:35:32.07	234.07	42.69	-40.4	-40.9	20.4	0.00e+00	0	58	0	734003200	42	4027
2026-01-05 05:35:33.06	233.89	42.43	-40.7	-41.2	20.1	0.00e+00	0	58	0	741343232	42	4181
2026-01-05 05:35:34.05	233.72	42.16	-40.5	-41.0	20.4	0.00e+00	0	58	0	747634688	42	4065
2026-01-05 05:35:35.03	233.56	41.91	-40.5	-41.0	20.3	0.00e+00	0	58	0	754974720	42	4095
2026-01-05 05:35:36.03	233.39	41.65	-40.6	-41.1	20.2	0.00e+00	0	58	0	762314752	42	4123
2026-01-05 05:35:37.02	233.23	41.39	-41.0	-41.5	19.9	0.00e+00	0	58	0	769654784	43	4069
2026-01-05 05:35:38.01	233.07	41.14	-40.5	-41.0	20.2	0.00e+00	0	58	0	776994816	43	3849
2026-01-05 05:35:39.00	232.92	40.88	-40.2	-40.7	20.6	0.00e+00	0	58	0	783286272	43	3725
2026-01-05 05:35:39.99	232.77	40.63	-40.1	-40.6	20.7	0.00e+00	0	58	0	790626304	43	3681
2026-01-05 05:35:40.98	232.61	40.38	-40.1	-40.6	20.7	0.00e+00	0	58	0	797966336	43	3686
2026-01-05 05:35:41.97	232.47	40.13	-40.2	-40.7	20.6	0.00e+00	0	58	0	805306368	43	3725
2026-01-05 05:35:42.96	232.32	39.89	-40.4	-40.9	20.4	0.00e+00	0	58	0	812646400	43	3812
2026-01-05 05:35:43.95	232.17	39.64	-40.2	-40.6	20.4	0.00e+00	0	58	0	818937856	43	3684
2026-01-05 05:35:44.94	232.03	39.40	-39.9	-40.4	20.9	0.00e+00	0	58	0	826277888	42	3784
2026-01-05 05:35:45.93	231.89	39.16	-39.8	-40.3	21.0	0.00e+00	0	58	0	833617920	42	3746
2026-01-05 05:35:46.91	231.76	38.92	-39.9	-40.3	20.9	0.00e+00	0	58	0	840957952	42	3778
2026-01-05 05:35:47.90	231.62	38.68	-39.9	-40.3	21.0	0.00e+00	0	58	0	848297984	42	3773
2026-01-05 05:35:48.90	231.49	38.44	-39.9	-40.3	20.9	0.00e+00	0	58	0	855638016	42	3777
2026-01-05 05:35:49.89	231.35	38.20	-40.0	-40.5	20.8	0.00e+00	0	58	0	861929472	42	3848
2026-01-05 05:35:50.87	231.23	37.97	-39.9	-40.3	20.9	0.00e+00	0	58	0	869269504	42	3778
2026-01-05 05:35:51.86	231.10	37.74	-40.2	-40.7	20.6	0.00e+00	0	58	0	876609536	42	3937
2026-01-05 05:35:52.85	230.97	37.50	-40.1	-40.6	20.7	0.00e+00	0	58	0	883949568	42	3881
2026-01-05 05:35:53.84	230.85	37.27	-39.9	-40.4	20.9	0.00e+00	0	58	0	891289600	42	3812
2026-01-05 05:35:54.83	230.73	37.04	-40.0	-40.4	20.9	0.00e+00	0	58	0	897581056	42	3819
2026-01-05 05:35:55.82	230.60	36.82	-39.8	-40.2	21.1	0.00e+00	0	58	0	904921088	42	3715
2026-01-05 05:35:56.81	230.49	36.59	-39.8	-40.2	21.0	0.00e+00	0	58	0	912261120	42	3732
2026-01-05 05:35:57.79	230.37	36.37	-39.9	-40.4	20.9	0.00e+00	0	58	0	919601152	42	3792
2026-01-05 05:35:58.79	230.25	36.14	-39.6	-40.1	21.0	0.00e+00	0	58	0	926941184	42	3669
2026-01-05 05:35:59.78	230.14	35.92	-39.4	-39.8	21.4	0.00e+00	0	58	0	934281216	41	3779
2026-01-05 05:36:00.77	230.03	35.70	-39.2	-39.6	21.6	0.00e+00	0	58	0	940572672	41	3679
2026-01-05 05:36:01.76	229.92	35.48	-39.1	-39.6	21.6	0.00e+00	0	58	0	947912704	41	3661
2026-01-05 05:36:02.74	229.81	35.26	-39.2	-39.6	21.5	0.00e+00	0	58	0	955252736	41	3691
2026-01-05 05:36:03.73	229.70	35.05	-39.3	-39.8	21.5	0.00e+00	0	58	0	962592768	41	3750
2026-01-05 05:36:04.71	229.59	34.83	-39.4	-39.9	21.4	0.00e+00	0	58	0	969932800	41	3798
2026-01-05 05:36:05.71	229.49	34.62	-39.5	-40.0	21.2	0.00e+00	0	58	0	977272832	41	3845
2026-01-05 05:36:06.70	229.38	34.40	-39.6	-40.1	21.2	0.00e+00	0	58	0	983564288	41	3869
2026-01-05 05:36:07.69	229.28	34.19	-39.6	-40.1	21.2	0.00e+00	0	58	0	990904320	41	3877
2026-01-05 05:36:08.67	229.18	33.99	-39.8	-40.3	21.0	0.00e+00	0	58	0	998244352	41	3975
2026-01-05 05:36:09.67	229.08	33.77	-39.7	-40.1	21.1	0.00e+00	0	58	0	1005584384	41	3899
2026-01-05 05:36:10.67	228.98	33.56	-39.6	-40.0	21.1	0.00e+00	0	58	0	1012924416	41	3867
2026-01-05 05:36:11.66	228.89	33.36	-39.8	-40.3	21.0	0.00e+00	0	58	0	1019215872	41	3969
2026-01-05 05:36:12.65	228.79	33.15	-39.6	-40.0	21.1	0.00e+00	0	58	0	1026555904	41	3867
2026-01-05 05:36:13.64	228.69	32.95	-39.4	-39.8	21.4	0.00e+00	0	58	0	1033895936	41	3761
2026-01-05 05:36:14.63	228.60	32.75	-39.3	-39.7	21.5	0.00e+00	0	58	0	1041235968	41	3724
2026-01-05 05:36:15.62	228.51	32.55	-39.3	-39.8	21.4	0.00e+00	0	58	0	1048576000	41	3749
2026-01-05 05:36:16.62	228.42	32.35	-39.3	-39.7	21.5	0.00e+00	0	58	0	1055916032	41	3729
2026-01-05 05:36:17.61	228.33	32.15	-39.3	-39.8	21.5	0.00e+00	0	58	0	1062207488	41	3756
2026-01-05 05:36:18.60	228.24	31.95	-39.5	-40.0	21.3	0.00e+00	0	58	0	1069547520	41	3830
2026-01-05 05:36:19.59	228.15	31.75	-39.4	-39.9	20.8	0.00e+00	0	58	0	1076887552	41	3788
2026-01-05 05:36:20.58	228.07	31.56	-39.4	-39.8	21.4	0.00e+00	0	58	0	1084227584	41	3773
2026-01-05 05:36:21.57	227.98	31.37	-39.3	-39.8	21.4	0.00e+00	0	58	0	1091567616	41	3738
2026-01-05 05:36:22.56	227.90	31.17	-39.4	-39.9	21.3	0.00e+00	0	58	0	1098907648	41	3782
2026-01-05 05:36:23.55	227.81	30.98	-39.5	-39.9	21.2	0.00e+00	0	58	0	1105199104	41	3804
2026-01-05 05:36:24.54	227.73	30.79	-39.5	-40.0	21.2	0.00e+00	0	58	0	1112539136	41	3852
2026-01-05 05:36:25.53	227.65	30.60	-39.5	-40.0	21.2	0.00e+00	0	58	0	1119879168	41	3839
2026-01-05 05:36:26.53	227.57	30.41	-39.7	-40.2	21.0	0.00e+00	0	58	0	1127219200	41	3918
2026-01-05 05:36:27.51	227.49	30.23	-39.7	-40.2	21.0	0.00e+00	0	58	0	1134559232	41	3933
2026-01-05 05:36:28.49	227.41	30.05	-39.6	-40.0	21.1	0.00e+00	0	58	0	1140850688	41	3868
2026-01-05 05:36:29.47	227.34	29.86	-39.5	-39.9	21.3	0.00e+00	0	58	0	1148190720	41	3822
2026-01-05 05:36:30.46	227.26	29.68	-39.5	-39.9	21.2	0.00e+00	0	58	0	1155530752	41	3804
2026-01-05 05:36:31.45	227.18	29.50	-39.6	-40.1	21.1	0.00e+00	0	58	0	1161822208	41	3885
2026-01-05 05:36:32.44	227.11	29.32	-39.8	-40.2	21.0	0.00e+00	0	58	0	1169162240	41	3951
2026-01-05 05:36:33.43	227.03	29.14	-39.4	-39.9	21.3	0.00e+00	0	58	0	1176502272	41	3795
2026-01-05 05:36:34.42	226.96	28.96	-39.4	-39.8	21.4	0.00e+00	0	58	0	1183842304	41	3756
2026-01-05 05:36:35.41	226.89	28.78	-39.3	-39.8	21.4	0.00e+00	0	58	0	1191182336	41	3746
2026-01-05 05:36:36.40	226.82	28.60	-39.4	-39.9	21.3	0.00e+00	0	58	0	1198522368	41	3788
2026-01-05 05:36:37.39	226.75	28.43	-39.6	-40.1	21.1	0.00e+00	0	58	0	1204813824	41	3879
2026-01-05 05:36:38.38	226.68	28.25	-39.4	-39.9	21.3	0.00e+00	0	58	0	1212153856	41	3800
2026-01-05 05:36:39.36	226.61	28.08	-39.7	-40.1	21.1	0.00e+00	0	58	0	1219493888	41	3902
2026-01-05 05:36:40.35	226.54	27.91	-39.8	-40.2	20.8	0.00e+00	0	58	0	1226833920	41	3949
2026-01-05 05:36:41.34	226.47	27.74	-39.7	-40.2	21.0	0.00e+00	0	58	0	1234173952	41	3940
2026-01-05 05:36:42.33	226.41	27.57	-39.9	-40.4	20.8	0.00e+00	0	58	0	1240465408	41	4012
2026-01-05 05:36:43.32	226.34	27.40	-39.8	-40.3	20.9	0.00e+00	0	58	0	1247805440	41	3964
2026-01-05 05:36:44.30	226.28	27.23	-39.8	-40.2	20.9	0.00e+00	0	58	0	1255145472	41	3951
2026-01-05 05:36:45.29	226.21	27.07	-40.0	-40.5	20.8	0.00e+00	0	58	0	1262485504	41	4056
2026-01-05 05:36:46.28	226.15	26.90	-40.2	-40.7	20.6	0.00e+00	0	58	0	1269825536	41	4153
2026-01-05 05:36:47.27	226.08	26.73	-40.4	-40.9	20.3	0.00e+00	0	58	0	1277165568	42	4043
2026-01-05 05:36:48.27	226.02	26.57	-40.2	-40.7	20.5	0.00e+00	0	58	0	1283457024	42	3930
2026-01-05 05:36:49.26	225.96	26.40	-40.1	-40.5	20.7	0.00e+00	0	58	0	1290797056	42	3867
2026-01-05 05:36:50.26	225.90	26.24	-39.9	-40.4	20.8	0.00e+00	0	58	0	1298137088	42	3804
2026-01-05 05:36:51.24	225.84	26.08	-40.0	-40.5	20.7	0.00e+00	0	58	0	1305477120	42	3846
2026-01-05 05:36:52.24	225.78	25.92	-40.1	-40.6	20.6	0.00e+00	0	58	0	1312817152	42	3902
2026-01-05 05:36:53.23	225.72	25.76	-39.9	-40.4	20.8	0.00e+00	0	58	0	1320157184	42	3808
2026-01-05 05:36:54.23	225.66	25.60	-39.8	-40.3	20.9	0.00e+00	0	58	0	1326448640	42	3751
2026-01-05 05:36:55.21	225.60	25.44	-39.8	-40.3	20.9	0.00e+00	0	58	0	1333788672	42	3743
2026-01-05 05:36:56.20	225.54	25.28	-39.8	-40.2	21.0	0.00e+00	0	58	0	1341128704	42	3727
2026-01-05 05:36:57.19	225.49	25.13	-39.9	-40.4	20.8	0.00e+00	0	58	0	1348468736	42	3786
2026-01-05 05:36:58.18	225.43	24.97	-40.0	-40.5	20.7	0.00e+00	0	58	0	1355808768	42	3839
2026-01-05 05:36:59.18	225.38	24.82	-39.9	-40.3	20.8	0.00e+00	0	58	0	1362100224	42	3776
2026-01-05 05:37:00.17	225.32	24.66	-40.0	-40.5	20.7	0.00e+00	0	58	0	1369440256	42	3853
2026-01-05 05:37:01.16	225.27	24.51	-40.3	-40.8	20.0	0.00e+00	0	58	0	1376780288	42	3984
2026-01-05 05:37:02.15	225.21	24.36	-40.1	-40.5	20.6	0.00e+00	0	58	0	1384120320	42	3861
2026-01-05 05:37:03.14	225.16	24.21	-39.9	-40.4	20.8	0.00e+00	0	58	0	1391460352	42	3794
2026-01-05 05:37:04.13	225.11	24.06	-39.9	-40.4	20.8	0.00e+00	0	58	0	1398800384	42	3792
2026-01-05 05:37:05.12	225.05	23.91	-40.0	-40.5	20.6	0.00e+00	0	58	0	1405091840	42	3835
2026-01-05 05:37:06.11	225.00	23.76	-40.2	-40.7	20.5	0.00e+00	0	58	0	1412431872	42	3938
2026-01-05 05:37:07.10	224.95	23.61	-40.1	-40.5	20.6	0.00e+00	0	58	0	1419771904	42	3860
2026-01-05 05:37:08.09	224.90	23.46	-39.9	-40.4	20.7	0.00e+00	0	58	0	1427111936	42	3809
2026-01-05 05:37:09.09	224.85	23.32	-40.1	-40.6	20.6	0.00e+00	0	58	0	1434451968	42	3882
2026-01-05 05:37:10.08	224.80	23.17	-40.4	-40.9	20.3	0.00e+00	0	58	0	1441792000	42	4007
2026-01-05 05:37:11.07	224.75	23.03	-40.2	-40.7	20.5	0.00e+00	0	58	0	1448083456	42	3914
2026-01-05 05:37:12.05	224.70	22.88	-40.3	-40.8	20.4	0.00e+00	0	58	0	1455423488	42	3959
2026-01-05 05:37:13.04	224.65	22.74	-40.5	-41.0	20.1	0.00e+00	0	58	0	1462763520	42	4082
2026-01-05 05:37:14.03	224.61	22.60	-40.4	-40.9	20.3	0.00e+00	0	58	0	1470103552	42	4007
2026-01-05 05:37:15.00	224.56	22.46	-40.6	-41.1	20.1	0.00e+00	0	58	0	1476395008	42	4104
2026-01-05 05:37:15.99	224.51	22.32	-40.8	-41.4	19.8	0.00e+00	0	58	0	1483735040	43	4010
2026-01-05 05:37:16.98	224.47	22.18	-40.6	-41.1	20.0	0.00e+00	0	58	0	1491075072	43	3912
2026-01-05 05:37:17.97	224.42	22.04	-40.8	-41.4	19.8	0.00e+00	0	58	0	1498415104	43	4008
2026-01-05 05:37:18.95	224.38	21.90	-41.1	-41.7	19.5	0.00e+00	0	58	0	1504706560	43	4163
2026-01-05 05:37:19.94	224.33	21.77	-40.9	-41.5	19.7	0.00e+00	0	58	0	1512046592	43	4054
2026-01-05 05:37:20.93	224.29	21.63	-40.7	-41.2	19.9	0.00e+00	0	58	0	1519386624	43	3953
2026-01-05 05:37:21.92	224.24	21.49	-40.5	-41.0	20.0	0.00e+00	0	58	0	1526726656	43	3838
2026-01-05 05:37:22.91	224.20	21.36	-40.5	-41.0	20.1	0.00e+00	0	58	0	1534066688	43	3850
2026-01-05 05:37:23.90	224.15	21.22	-40.5	-41.0	20.1	0.00e+00	0	58	0	1541406720	43	3862
2026-01-05 05:37:24.89	224.11	21.09	-40.4	-40.9	20.3	0.00e+00	0	58	0	1547698176	43	3787
2026-01-05 05:37:25.88	224.07	20.95	-40.2	-40.7	20.4	0.00e+00	0	58	0	1555038208	43	3715
2026-01-05 05:37:26.87	224.03	20.82	-40.2	-40.7	20.4	0.00e+00	0	58	0	1562378240	43	3729
2026-01-05 05:37:27.86	223.98	20.69	-40.3	-40.8	20.3	0.00e+00	0	58	0	1569718272	43	3760
2026-01-05 05:37:28.85	223.94	20.56	-40.5	-41.0	20.2	0.00e+00	0	58	0	1577058304	43	3832
2026-01-05 05:37:29.83	223.90	20.43	-40.5	-41.0	20.1	0.00e+00	0	58	0	1583349760	43	3844
2026-01-05 05:37:30.82	223.86	20.30	-40.6	-41.1	20.0	0.00e+00	0	58	0	1590689792	43	3897
2026-01-05 05:37:31.81	223.82	20.17	-40.8	-41.4	19.8	0.00e+00	0	58	0	1598029824	43	4010
2026-01-05 05:37:32.80	223.78	20.04	-40.9	-41.4	19.7	0.00e+00	0	58	0	1605369856	43	4026
2026-01-05 05:37:33.79	223.74	19.91	-41.0	-41.5	19.6	0.00e+00	0	58	0	1612709888	43	4095
2026-01-05 05:37:34.78	223.70	19.79	-41.0	-41.6	19.6	0.00e+00	0	58	0	1620049920	43	4103
2026-01-05 05:37:35.77	223.66	19.66	-41.2	-41.7	19.4	0.00e+00	0	58	0	1626341376	43	4187
2026-01-05 05:37:36.76	223.62	19.53	-41.3	-41.8	19.4	0.00e+00	0	58	0	1633681408	44	3991
2026-01-05 05:37:37.75	223.59	19.41	-41.4	-41.9	19.3	0.00e+00	0	58	0	1641021440	44	4051
2026-01-05 05:37:38.74	223.55	19.28	-41.4	-42.0	19.2	0.00e+00	0	58	0	1648361472	44	4069
2026-01-05 05:37:39.73	223.51	19.16	-41.5	-42.1	19.1	0.00e+00	0	58	0	1655701504	44	4114
2026-01-05 05:37:40.72	223.47	19.03	-41.8	-42.4	18.8	0.00e+00	0	58	0	1663041536	45	4037
2026-01-05 05:37:41.71	223.44	18.91	-41.9	-42.5	18.8	0.00e+00	0	58	0	1669332992	45	4062
2026-01-05 05:37:42.70	223.40	18.79	-41.9	-42.5	18.7	0.00e+00	0	58	0	1676673024	45	4086
2026-01-05 05:37:43.69	223.36	18.67	-42.2	-42.8	18.4	0.00e+00	0	58	0	1684013056	45	4228
2026-01-05 05:37:44.67	223.33	18.55	-42.2	-42.9	18.4	0.00e+00	0	58	0	1691353088	46	4013
2026-01-05 05:37:45.66	223.29	18.42	-42.3	-42.9	18.3	0.00e+00	0	58	0	1698693120	46	4041
2026-01-05 05:37:46.64	223.26	18.31	-42.2	-42.9	18.3	0.00e+00	0	58	0	1704984576	46	4035
2026-01-05 05:37:47.63	223.22	18.19	-42.3	-43.0	18.2	0.00e+00	0	58	0	1712324608	46	4064
2026-01-05 05:37:48.62	223.19	18.07	-42.6	-43.2	18.0	0.00e+00	0	58	0	1719664640	46	4191
2026-01-05 05:37:49.61	223.15	17.95	-42.6	-43.3	18.0	0.00e+00	0	58	0	1727004672	47	3960
2026-01-05 05:37:50.60	223.12	17.83	-42.3	-42.9	18.3	0.00e+00	0	58	0	1733296128	47	3817
2026-01-05 05:37:51.59	223.09	17.71	-42.1	-42.7	18.5	0.00e+00	0	58	0	1740636160	47	3725
2026-01-05 05:37:52.58	223.05	17.60	-42.0	-42.7	18.5	0.00e+00	0	58	0	1747976192	47	3704
2026-01-05 05:37:53.57	223.02	17.48	-42.2	-42.9	18.3	0.00e+00	0	58	0	1755316224	47	3796
2026-01-05 05:37:54.56	222.99	17.36	-42.3	-43.0	18.1	0.00e+00	0	58	0	1762656256	47	3828
2026-01-05 05:37:55.54	222.95	17.25	-42.3	-42.9	18.2	0.00e+00	0	58	0	1768947712	47	3813
2026-01-05 05:37:56.52	222.92	17.14	-42.6	-43.2	17.9	0.00e+00	0	58	0	1776287744	47	3954
2026-01-05 05:37:57.52	222.89	17.02	-42.6	-43.3	17.8	0.00e+00	0	58	0	1783627776	47	4004
2026-01-05 05:37:58.51	222.86	16.91	-42.4	-43.1	18.1	0.00e+00	0	58	0	1790967808	47	3877
2026-01-05 05:37:59.50	222.82	16.79	-42.2	-42.9	18.2	0.00e+00	0	58	0	1798307840	47	3806
2026-01-05 05:38:00.50	222.79	16.68	-42.2	-42.9	18.2	0.00e+00	0	58	0	1804599296	47	3799
2026-01-05 05:38:01.48	222.76	16.57	-42.4	-43.1	18.0	0.00e+00	0	58	0	1811939328	47	3889
2026-01-05 05:38:02.47	222.73	16.46	-42.6	-43.3	17.8	0.00e+00	0	58	0	1819279360	47	3997
2026-01-05 05:38:03.46	222.70	16.35	-42.5	-43.2	17.9	0.00e+00	0	58	0	1826619392	47	3924
2026-01-05 05:38:04.45	222.67	16.23	-42.7	-43.5	17.7	0.00e+00	0	58	0	1833959424	47	4054
2026-01-05 05:38:05.44	222.64	16.12	-43.0	-43.7	17.4	0.00e+00	0	58	0	1841299456	47	4173
2026-01-05 05:38:06.44	222.61	16.01	-42.9	-43.6	17.5	0.00e+00	0	58	0	1847590912	47	4132
2026-01-05 05:38:07.42	222.58	15.91	-43.1	-43.8	17.2	0.00e+00	0	58	0	1854930944	47	4232
2026-01-05 05:38:08.41	222.55	15.80	-43.1	-43.8	17.3	0.00e+00	0	58	0	1862270976	47	4229
2026-01-05 05:38:09.40	222.52	15.69	-43.3	-44.1	17.2	0.00e+00	0	58	0	1869611008	48	4103
2026-01-05 05:38:10.39	222.49	15.58	-43.3	-44.0	17.2	0.00e+00	0	58	0	1876951040	48	4093
2026-01-05 05:38:11.38	222.46	15.47	-43.4	-44.2	17.0	0.00e+00	0	58	0	1884291072	48	4164
2026-01-05 05:38:12.37	222.44	15.37	-43.2	-44.0	17.3	0.00e+00	0	58	0	1890582528	48	4064
2026-01-05 05:38:13.35	222.41	15.26	-43.0	-43.8	17.4	0.00e+00	0	58	0	1897922560	48	3973
2026-01-05 05:38:14.34	222.38	15.16	-43.0	-43.7	17.5	0.00e+00	0	58	0	1905262592	48	3939
2026-01-05 05:38:15.33	222.35	15.05	-42.9	-43.7	17.5	0.00e+00	0	58	0	1912602624	48	3917
2026-01-05 05:38:16.32	222.32	14.94	-43.0	-43.7	17.5	0.00e+00	0	58	0	1919942656	48	3952
2026-01-05 05:38:17.31	222.30	14.84	-42.9	-43.6	17.6	0.00e+00	0	58	0	1926234112	48	3904
2026-01-05 05:38:18.30	222.27	14.74	-42.8	-43.5	17.6	0.00e+00	0	58	0	1933574144	48	3851
2026-01-05 05:38:19.30	222.24	14.63	-42.9	-43.6	17.6	0.00e+00	0	58	0	1940914176	48	3871
2026-01-05 05:38:20.28	222.22	14.53	-43.0	-43.7	17.5	0.00e+00	0	58	0	1948254208	48	3929
2026-01-05 05:38:21.28	222.19	14.42	-43.1	-43.9	17.3	0.00e+00	0	58	0	1955594240	48	4014
2026-01-05 05:38:22.27	222.16	14.32	-43.1	-43.8	17.3	0.00e+00	0	58	0	1962934272	48	4004
2026-01-05 05:38:23.26	222.14	14.22	-43.2	-44.0	17.2	0.00e+00	0	58	0	1969225728	48	4079
2026-01-05 05:38:24.25	222.11	14.12	-43.3	-44.1	17.1	0.00e+00	0	58	0	1976565760	48	4112
2026-01-05 05:38:25.25	222.09	14.02	-43.4	-44.2	17.0	0.00e+00	0	58	0	1983905792	48	4148
2026-01-05 05:38:26.23	222.06	13.92	-43.6	-44.4	16.7	0.00e+00	0	58	0	1991245824	48	4267
2026-01-05 05:38:27.22	222.03	13.82	-43.5	-44.4	16.8	0.00e+00	0	58	0	1998585856	48	4245
2026-01-05 05:38:28.20	222.01	13.72	-43.7	-44.5	16.7	0.00e+00	0	58	0	2004877312	48	4305
2026-01-05 05:38:29.18	221.99	13.62	-43.6	-44.5	16.6	0.00e+00	0	58	0	2012217344	48	4303
2026-01-05 05:38:30.17	221.96	13.52	-43.9	-44.7	16.4	0.00e+00	0	58	0	2019557376	49	4179
2026-01-05 05:38:31.17	221.94	13.42	-43.8	-44.6	16.5	0.00e+00	0	58	0	2026897408	49	4129
2026-01-05 05:38:32.15	221.91	13.32	-44.0	-44.9	16.2	0.00e+00	0	58	0	2034237440	49	4245
2026-01-05 05:38:33.15	221.89	13.22	-43.8	-44.7	16.4	0.00e+00	0	58	0	2040528896	49	4162
2026-01-05 05:38:34.14	221.86	13.13	-44.0	-44.9	16.1	0.00e+00	0	58	0	2047868928	49	4286
2026-01-05 05:38:35.13	221.84	13.03	-44.0	-44.9	16.2	0.00e+00	0	58	0	2055208960	49	4244
2026-01-05 05:38:36.11	221.82	12.93	-43.9	-44.8	16.2	0.00e+00	0	58	0	2062548992	49	4228
2026-01-05 05:38:37.10	221.79	12.84	-44.0	-44.9	16.1	0.00e+00	0	58	0	2068840448	49	4289
2026-01-05 05:38:38.09	221.77	12.74	-44.1	-44.9	16.1	0.00e+00	0	58	0	2076180480	49	4291
2026-01-05 05:38:39.08	221.75	12.64	-44.2	-45.1	16.0	0.00e+00	0	58	0	2083520512	49	4363
2026-01-05 05:38:40.07	221.72	12.55	-44.3	-45.3	15.8	0.00e+00	0	58	0	2090860544	50	4209
2026-01-05 05:38:41.05	221.70	12.46	-44.2	-45.2	15.9	0.00e+00	0	58	0	2098200576	50	4159
2026-01-05 05:38:42.03	221.68	12.36	-44.2	-45.1	16.0	0.00e+00	0	58	0	2105540608	50	4109
2026-01-05 05:38:43.03	221.65	12.27	-44.3	-45.3	15.8	0.00e+00	0	58	0	2111832064	50	4196
2026-01-05 05:38:44.02	221.63	12.17	-44.2	-45.1	15.8	0.00e+00	0	58	0	2119172096	50	4137
2026-01-05 05:38:45.01	221.61	12.08	-44.4	-45.3	15.7	0.00e+00	0	58	0	2126512128	50	4232
2026-01-05 05:38:46.00	221.59	11.99	-44.6	-45.6	15.3	0.00e+00	0	58	0	2133852160	50	4388
2026-01-05 05:38:46.99	221.57	11.89	-44.5	-45.6	15.4	0.00e+00	0	58	0	2141192192	50	4341
2026-01-05 05:38:47.98	221.54	11.80	-44.7	-45.8	15.2	0.00e+00	0	58	0	2147483648	51	4195
2026-01-05 05:38:48.97	221.52	11.71	-44.9	-46.0	14.9	0.00e+00	0	58	0	2154823680	51	4337
2026-01-05 05:38:49.96	221.50	11.62	-44.9	-46.0	14.9	0.00e+00	0	58	0	2162163712	51	4305
2026-01-05 05:38:50.94	221.48	11.53	-45.0	-46.1	14.8	0.00e+00	0	58	0	2169503744	51	4385
2026-01-05 05:38:51.93	221.46	11.44	-45.1	-46.3	14.5	1.10e-06	0	58	0	2176843776	52	4203
2026-01-05 05:38:52.92	221.44	11.34	-45.0	-46.1	14.7	0.00e+00	0	58	0	2184183808	52	4137
2026-01-05 05:38:53.90	221.42	11.25	-45.2	-46.4	14.4	0.00e+00	0	58	0	2190475264	52	4259
2026-01-05 05:38:54.89	221.40	11.16	-45.1	-46.3	14.6	0.00e+00	0	58	0	2197815296	52	4195
2026-01-05 05:38:55.88	221.38	11.07	-44.9	-46.0	14.8	0.00e+00	0	58	0	2205155328	52	4066
2026-01-05 05:38:56.87	221.36	10.99	-44.7	-45.8	15.0	0.00e+00	0	58	0	2212495360	52	3967
2026-01-05 05:38:57.86	221.34	10.90	-44.6	-45.7	15.1	0.00e+00	0	58	0	2219835392	52	3922
2026-01-05 05:38:58.85	221.32	10.81	-44.7	-45.7	15.1	0.00e+00	0	58	0	2226126848	52	3950
2026-01-05 05:38:59.83	221.30	10.72	-44.8	-45.9	14.9	0.00e+00	0	58	0	2233466880	52	4028
2026-01-05 05:39:00.82	221.28	10.63	-44.8	-45.9	14.9	0.00e+00	0	58	0	2240806912	52	4023
2026-01-05 05:39:01.81	221.26	10.54	-44.9	-46.1	14.7	1.10e-06	0	58	0	2248146944	52	4102
2026-01-05 05:39:02.80	221.24	10.46	-44.9	-46.0	14.7	0.00e+00	0	58	0	2254438400	52	4087
2026-01-05 05:39:03.79	221.22	10.37	-45.0	-46.2	14.6	0.00e+00	0	58	0	2261778432	52	4156
2026-01-05 05:39:04.78	221.20	10.28	-45.0	-46.1	14.6	0.00e+00	0	58	0	2269118464	52	4129
2026-01-05 05:39:05.77	221.18	10.19	-44.9	-46.0	14.7	0.00e+00	0	58	0	2276458496	52	4092
2026-01-05 05:39:06.76	221.16	10.11	-45.0	-46.2	14.5	1.10e-06	0	58	0	2283798528	52	4160
2026-01-05 05:39:07.75	221.14	10.02	-44.9	-46.0	14.6	0.00e+00	0	58	0	2290089984	52	4094
2026-01-05 05:39:08.74	221.12	9.94	-44.8	-45.9	14.8	0.00e+00	0	58	0	2297430016	52	4017
2026-01-05 05:39:09.73	221.11	9.85	-44.8	-45.9	14.8	1.10e-06	0	58	0	2304770048	52	4038
2026-01-05 05:39:10.73	221.09	9.76	-45.0	-46.2	14.5	0.00e+00	0	58	0	2312110080	52	4154
2026-01-05 05:39:11.72	221.07	9.68	-45.0	-46.2	14.5	1.10e-06	0	58	0	2319450112	52	4176
2026-01-05 05:39:12.70	221.05	9.60	-45.1	-46.2	14.4	0.00e+00	0	58	0	2326790144	52	4188
2026-01-05 05:39:13.69	221.03	9.51	-45.3	-46.5	14.1	1.10e-06	0	58	0	2333081600	52	4318
2026-01-05 05:39:14.68	221.01	9.43	-45.5	-46.8	13.8	0.00e+00	0	58	0	2340421632	52	4458
2026-01-05 05:39:15.67	221.00	9.34	-45.5	-46.8	13.8	1.10e-06	0	58	0	2347761664	52	4491
2026-01-05 05:39:16.66	220.98	9.26	-45.6	-47.0	13.7	3.40e-06	0	58	0	2355101696	52	4550
2026-01-05 05:39:17.65	220.96	9.18	-45.6	-46.9	13.7	4.50e-06	0	58	0	2362441728	52	4543
2026-01-05 05:39:18.64	220.94	9.09	-45.8	-47.2	13.4	1.37e-05	0	58	0	2368733184	53	4405
2026-01-05 05:39:19.63	220.93	9.01	-45.7	-47.1	13.4	8.00e-06	0	58	0	2376073216	53	4382
2026-01-05 05:39:20.63	220.91	8.93	-45.8	-47.2	13.4	4.50e-06	0	58	0	2383413248	53	4424
2026-01-05 05:39:21.61	220.89	8.85	-45.9	-47.3	13.3	1.25e-05	0	58	0	2390753280	53	4470
2026-01-05 05:39:22.60	220.88	8.77	-45.9	-47.3	13.3	1.48e-05	0	58	0	2398093312	53	4473
2026-01-05 05:39:23.58	220.86	8.68	-46.0	-47.5	13.0	2.51e-05	0	58	0	2405433344	53	4570
2026-01-05 05:39:24.58	220.84	8.60	-46.0	-47.5	13.1	1.94e-05	0	58	0	2411724800	53	4550
2026-01-05 05:39:25.57	220.83	8.52	-46.1	-47.6	12.9	3.20e-05	0	58	0	2419064832	53	4624
2026-01-05 05:39:26.56	220.81	8.44	-46.0	-47.5	13.0	3.66e-05	0	58	0	2426404864	53	4586
2026-01-05 05:39:27.55	220.79	8.36	-46.3	-47.8	12.7	5.72e-05	0	58	0	2433744896	54	4474
2026-01-05 05:39:28.53	220.78	8.28	-46.3	-47.8	12.7	8.81e-05	0	58	0	2441084928	54	4469
2026-01-05 05:39:29.51	220.76	8.20	-46.1	-47.6	12.9	5.26e-05	0	58	0	2448424960	54	4371
2026-01-05 05:39:30.49	220.74	8.12	-46.1	-47.6	13.0	3.77e-05	0	58	0	2454716416	54	4341
2026-01-05 05:39:31.48	220.73	8.04	-46.0	-47.6	13.0	4.46e-05	0	58	0	2462056448	54	4346
2026-01-05 05:39:32.47	220.71	7.96	-46.3	-47.9	12.6	6.63e-05	0	58	0	2469396480	54	4501
2026-01-05 05:39:33.46	220.70	7.88	-46.4	-48.0	12.5	1.09e-04	0	58	0	2476736512	54	4552
2026-01-05 05:39:34.45	220.68	7.80	-46.3	-47.8	12.7	6.63e-05	0	58	0	2483027968	54	4467
2026-01-05 05:39:35.44	220.66	7.73	-46.6	-48.3	12.1	1.74e-04	0	58	0	2490368000	54	4734
2026-01-05 05:39:36.42	220.65	7.65	-46.8	-48.5	11.8	3.96e-04	0	58	0	2497708032	55	4592
2026-01-05 05:39:37.41	220.63	7.57	-46.7	-48.5	11.9	2.67e-04	0	58	0	2505048064	55	4568
2026-01-05 05:39:38.40	220.62	7.49	-46.9	-48.8	11.6	6.35e-04	0	58	0	2511339520	55	4734
2026-01-05 05:39:39.38	220.60	7.42	-46.8	-48.6	11.7	3.79e-04	0	58	0	2518679552	55	4633
2026-01-05 05:39:40.36	220.59	7.34	-46.9	-48.8	11.6	6.10e-04	0	58	0	2526019584	55	4717
2026-01-05 05:39:41.35	220.57	7.26	-46.8	-48.6	11.7	4.58e-04	0	58	0	2533359616	55	4646
2026-01-05 05:39:42.35	220.56	7.18	-47.0	-48.9	11.5	7.74e-04	0	58	0	2540699648	55	4786
2026-01-05 05:39:43.33	220.54	7.11	-47.1	-49.0	11.4	8.63e-04	0	58	0	2548039680	55	4823
2026-01-05 05:39:44.32	220.53	7.03	-47.0	-48.9	11.4	7.51e-04	0	58	0	2554331136	55	4784
2026-01-05 05:39:45.31	220.51	6.96	-47.4	-49.5	11.0	1.47e-03	0	58	0	2561671168	56	4834
2026-01-05 05:39:46.30	220.50	6.88	-47.6	-49.7	10.7	2.98e-03	0	58	0	2569011200	56	4969
2026-01-05 05:39:47.30	220.49	6.80	-47.3	-49.4	11.0	1.81e-03	0	58	0	2576351232	56	4762
2026-01-05 05:39:48.28	220.47	6.73	-47.1	-48.9	11.5	9.27e-04	0	58	0	2583691264	56	4531
2026-01-05 05:39:49.27	220.46	6.65	-46.8	-48.6	11.9	3.48e-04	0	58	0	2589982720	56	4348
2026-01-05 05:39:50.26	220.44	6.58	-46.0	-48.0	12.3	1.75e-04	0	58	0	2597322752	55	4318
2026-01-05 05:39:51.24	220.43	6.50	-46.2	-47.8	12.5	1.12e-04	0	58	0	2604662784	55	4225
2026-01-05 05:39:52.23	220.41	6.43	-46.2	-47.8	12.5	1.13e-04	0	58	0	2612002816	55	4236
2026-01-05 05:39:53.22	220.40	6.35	-46.1	-47.6	12.7	7.32e-05	0	58	0	2619342848	55	4139
2026-01-05 05:39:54.20	220.39	6.28	-46.2	-47.9	12.5	8.01e-05	0	58	0	2625634304	55	4256
2026-01-05 05:39:55.20	220.37	6.21	-46.5	-48.2	12.1	2.40e-04	0	58	0	2632974336	55	4435
2026-01-05 05:39:56.19	220.36	6.13	-46.3	-47.9	12.4	1.20e-04	0	58	0	2640314368	55	4283
2026-01-05 05:39:57.18	220.35	6.06	-46.6	-48.4	11.9	2.38e-04	0	58	0	2647654400	55	4514
2026-01-05 05:39:58.17	220.33	5.98	-46.8	-48.7	11.6	6.45e-04	0	58	0	2654994432	55	4671
2026-01-05 05:39:59.17	220.32	5.91	-46.6	-48.3	12.0	3.99e-04	0	58	0	2662334464	55	4479
2026-01-05 05:40:00.16	220.31	5.84	-47.0	-48.9	11.4	7.71e-04	0	58	0	2669674496	55	4800
2026-01-05 05:40:01.15	220.29	5.76	-46.9	-48.8	11.5	7.95e-04	0	58	0	2675965952	55	4731
2026-01-05 05:40:02.15	220.28	5.69	-47.0	-48.9	11.4	8.30e-04	0	58	0	2683305984	55	4769
2026-01-05 05:40:03.14	220.27	5.62	-47.1	-49.0	11.2	1.15e-03	0	58	0	2690646016	55	4861
2026-01-05 05:40:04.13	220.25	5.55	-47.0	-49.0	11.2	1.21e-03	0	58	0	2697986048	55	4823
2026-01-05 05:40:05.12	220.24	5.47	-47.2	-49.2	11.0	1.53e-03	0	58	0	2705326080	55	4946
2026-01-05 05:40:06.11	220.23	5.40	-47.5	-49.7	10.5	2.84e-03	0	58	0	2711617536	56	4961
2026-01-05 05:40:07.09	220.22	5.33	-47.3	-49.4	10.8	2.60e-03	0	58	0	2718957568	56	4805
2026-01-05 05:40:08.08	220.20	5.26	-47.8	-50.1	10.1	5.81e-03	0	58	0	2726297600	57	4924
2026-01-05 05:40:09.07	220.19	5.19	-47.4	-49.5	10.7	3.18e-03	0	58	0	2733637632	57	4559
2026-01-05 05:40:10.06	220.18	5.12	-47.1	-49.1	11.1	1.64e-03	0	58	0	2740977664	57	4385
2026-01-05 05:40:11.06	220.16	5.05	-49.8	-54.6	5.8	1.21e-01	0	58	0	2748317696	61	6524
2026-01-05 05:40:12.04	220.15	4.98	-51.0	-61.1	3.8	8.45e-01	0	58	104	2748317696	63	12308
2026-01-05 05:40:13.03	220.14	4.90	-51.5	-61.7	3.8	8.46e-01	0	58	104	2748317696	64	12403
2026-01-05 05:40:14.02	220.13	4.83	-52.0	-62.2	3.8	8.45e-01	0	58	104	2748317696	65	12441
2026-01-05 05:40:15.01	220.12	4.76	-52.2	-62.3	3.8	8.46e-01	0	58	104	2748317696	65	12604
2026-01-05 05:40:16.00	220.10	4.69	-52.2	-62.4	3.8	8.45e-01	0	58	104	2748317696	65	12675
2026-01-05 05:40:17.00	220.09	4.62	-52.2	-62.4	3.8	8.46e-01	0	58	104	2748317696	66	12051
2026-01-05 05:40:17.99	220.08	4.55	-52.0	-62.2	3.8	8.45e-01	0	58	104	2748317696	66	11689
2026-01-05 05:40:18.99	220.07	4.48	-52.3	-62.5	3.8	8.47e-01	0	58	104	2748317696	66	12197
2026-01-05 05:40:19.98	220.06	4.41	-52.4	-62.5	3.8	8.46e-01	0	58	104	2748317696	66	12213
2026-01-05 05:40:20.96	220.04	4.35	-52.4	-62.5	3.8	8.46e-01	0	58	104	2748317696	66	12221
2026-01-05 05:40:21.95	220.03	4.28	-52.4	-62.6	3.8	8.45e-01	0	58	104	2748317696	66	12256
2026-01-05 05:40:22.94	220.02	4.21	-52.4	-62.6	3.8	8.46e-01	0	58	104	2748317696	66	12254
2026-01-05 05:40:23.94	220.01	4.14	-52.5	-62.6	3.8	8.46e-01	0	58	104	2748317696	66	12309
2026-01-05 05:40:24.93	220.00	4.07	-52.5	-62.6	3.8	8.46e-01	0	58	104	2748317696	66	12320
2026-01-05 05:40:25.92	219.99	4.00	-52.5	-62.7	3.8	8.45e-01	0	58	104	2748317696	66	12381
2026-01-05 05:40:26.91	219.98	3.93	-52.5	-62.7	3.8	8.46e-01	0	58	104	2748317696	66	12426
2026-01-05 05:40:27.89	219.96	3.87	-52.5	-62.6	3.8	8.46e-01	0	58	104	2748317696	66	12370
2026-01-05 05:40:28.88	219.95	3.80	-52.5	-62.7	3.8	8.46e-01	0	58	104	2748317696	66	12399
2026-01-05 05:40:29.87	219.94	3.73	-52.5	-62.7	3.8	8.48e-01	0	58	104	2748317696	66	12445
2026-01-05 05:40:30.86	219.93	3.66	-52.5	-62.7	3.8	8.47e-01	0	58	104	2748317696	66	12458
2026-01-05 05:40:31.85	219.92	3.60	-52.5	-62.7	3.8	8.46e-01	0	58	104	2748317696	66	12422
2026-01-05 05:40:32.83	219.91	3.53	-52.6	-62.7	3.8	8.47e-01	0	58	104	2748317696	66	12484
2026-01-05 05:40:33.83	219.90	3.46	-52.5	-62.8	3.8	8.45e-01	0	58	104	2748317696	66	12537
2026-01-05 05:40:34.82	219.89	3.40	-52.6	-62.7	3.8	8.45e-01	0	58	104	2748317696	66	12485
2026-01-05 05:40:35.81	219.88	3.33	-52.6	-62.8	3.8	8.45e-01	0	58	104	2748317696	66	12536
2026-01-05 05:40:36.80	219.87	3.26	-52.6	-62.8	3.8	8.46e-01	0	58	104	2748317696	66	12531
2026-01-05 05:40:37.79	219.86	3.20	-52.6	-62.8	3.8	8.46e-01	0	58	104	2748317696	66	12536
2026-01-05 05:40:38.77	219.85	3.13	-52.6	-62.7	3.8	8.46e-01	0	58	104	2748317696	66	12507
2026-01-05 05:40:39.76	219.84	3.07	-52.5	-62.7	3.8	8.46e-01	0	58	104	2748317696	66	12483
2026-01-05 05:40:40.75	219.82	3.00	-52.6	-62.7	3.8	8.47e-01	0	58	104	2748317696	66	12438
2026-01-05 05:40:41.74	219.81	2.93	-52.5	-62.7	3.8	8.46e-01	0	58	104	2748317696	66	12470
2026-01-05 05:40:42.73	219.80	2.87	-52.6	-62.7	3.8	8.46e-01	0	58	104	2748317696	66	12437

#Closed at: 2026-01-05 05:40:43
#Recorded file [2748 MB]: D:/Data/31026_260105_084011.dat