passes_logs/2026/01/05/R3.0SM8_Murmansk_STILSPACE/R3.0SM8_Murmansk_STILSPACE__20260105_105651_SUOMI_NPP_rec.log

#Pass ID: 20260105_105651_SUOMI NPP
#Satellite: SUOMI NPP
#Configuration: NPP
#almurnet v.1.7.20240730
#Start time: 2026-01-05 10:56:51

#Version: 2.2.20231116
#Station: R3.0SM8_Murmansk_STILSPACE
#Location: 33.092731 lon 68.902999 lat
#TLE: 1 37849U 11061A   26003.96724563  .00000164  00000+0  98899-4 0  9990
#TLE: 2 37849  98.7800 306.1116 0002573  82.3190 277.8279 14.19522066735141

#Time	Az	El	Level	Level2	SNR	BER	BlckErr	Temp	State	Recorded	gain1	gain2
2026-01-05 10:56:51.70	185.67	3.02	-48.4	-62.1	3.8	1.49e+00	0	46	0	0	58	18716
2026-01-05 10:56:52.67	185.71	3.08	-48.3	-62.1	3.8	1.49e+00	0	46	104	0	58	18660
2026-01-05 10:56:53.66	185.75	3.14	-48.4	-62.1	3.8	1.49e+00	0	46	104	0	58	18729
2026-01-05 10:56:54.66	185.80	3.20	-48.4	-62.1	3.8	1.49e+00	0	46	104	0	58	18685
2026-01-05 10:56:55.65	185.84	3.27	-48.4	-62.1	3.8	1.49e+00	0	46	104	0	58	18727
2026-01-05 10:56:56.64	185.88	3.33	-48.4	-62.1	3.8	1.49e+00	0	46	104	0	58	18695
2026-01-05 10:56:57.64	185.93	3.40	-48.4	-62.1	3.8	1.49e+00	0	47	104	0	58	18681
2026-01-05 10:56:58.63	185.97	3.46	-48.4	-62.1	3.8	1.49e+00	0	47	104	0	58	18670
2026-01-05 10:56:59.63	186.02	3.52	-48.4	-62.1	3.8	1.49e+00	0	47	104	0	58	18668
2026-01-05 10:57:00.61	186.06	3.59	-48.4	-62.1	3.8	1.49e+00	0	47	104	0	58	18671
2026-01-05 10:57:01.61	186.11	3.65	-48.4	-62.1	3.8	1.49e+00	0	47	104	0	58	18718
2026-01-05 10:57:02.60	186.15	3.72	-48.4	-62.1	3.8	1.49e+00	0	47	104	0	58	18708
2026-01-05 10:57:03.60	186.20	3.78	-48.4	-62.1	3.8	1.49e+00	0	47	104	0	58	18651
2026-01-05 10:57:04.59	186.24	3.85	-48.4	-62.1	3.8	1.49e+00	0	47	104	0	58	18726
2026-01-05 10:57:05.58	186.29	3.91	-48.4	-62.1	3.8	1.49e+00	0	47	104	0	58	18700
2026-01-05 10:57:06.57	186.33	3.97	-48.4	-62.1	3.8	1.49e+00	0	47	104	0	58	18679
2026-01-05 10:57:07.55	186.38	4.04	-48.4	-62.1	3.8	1.49e+00	0	47	104	0	58	18687
2026-01-05 10:57:08.54	186.42	4.10	-48.4	-62.1	3.8	1.49e+00	0	47	104	0	58	18716
2026-01-05 10:57:09.52	186.47	4.17	-48.4	-62.1	3.8	1.49e+00	0	47	104	0	58	18673
2026-01-05 10:57:10.52	186.52	4.23	-48.3	-62.1	3.8	1.49e+00	0	47	104	0	58	18663
2026-01-05 10:57:11.51	186.56	4.30	-48.4	-62.1	3.8	1.49e+00	0	48	104	0	58	18702
2026-01-05 10:57:12.51	186.61	4.37	-48.4	-62.1	3.8	1.49e+00	0	48	104	0	58	18688
2026-01-05 10:57:13.49	186.66	4.43	-48.4	-62.1	3.8	1.49e+00	0	48	104	0	58	18725
2026-01-05 10:57:14.49	186.71	4.50	-48.4	-62.1	3.8	1.49e+00	0	48	104	0	58	18696
2026-01-05 10:57:15.48	186.75	4.56	-48.4	-62.1	3.8	1.49e+00	0	48	104	0	58	18680
2026-01-05 10:57:16.45	186.80	4.63	-48.4	-62.1	3.8	1.49e+00	0	48	104	0	58	18680
2026-01-05 10:57:17.45	186.85	4.70	-48.4	-62.1	3.8	1.49e+00	0	48	104	0	58	18661
2026-01-05 10:57:18.44	186.90	4.76	-48.4	-62.1	3.8	1.49e+00	0	48	104	0	58	18685
2026-01-05 10:57:19.43	186.94	4.83	-48.4	-62.1	3.8	1.49e+00	0	48	104	0	58	18697
2026-01-05 10:57:20.42	186.99	4.90	-48.4	-62.1	3.8	1.49e+00	0	48	104	0	58	18697
2026-01-05 10:57:21.41	187.04	4.96	-48.4	-62.1	3.8	1.49e+00	0	48	104	0	58	18727
2026-01-05 10:57:22.41	187.09	5.03	-48.4	-62.1	3.8	1.49e+00	0	48	104	0	58	18716
2026-01-05 10:57:23.40	187.14	5.10	-48.4	-62.1	3.8	1.49e+00	0	48	104	0	58	18640
2026-01-05 10:57:24.39	187.19	5.17	-48.4	-62.1	3.8	1.49e+00	0	48	104	0	58	18704
2026-01-05 10:57:25.38	187.24	5.23	-48.4	-62.1	3.8	1.49e+00	0	48	104	0	58	18640
2026-01-05 10:57:26.37	187.29	5.30	-48.4	-62.1	3.8	1.49e+00	0	48	104	0	58	18684
2026-01-05 10:57:27.36	187.34	5.37	-48.4	-62.1	3.8	1.49e+00	0	49	104	0	58	18725
2026-01-05 10:57:28.34	187.39	5.44	-48.4	-62.1	3.8	1.49e+00	0	49	104	0	58	18657
2026-01-05 10:57:29.33	187.44	5.50	-48.4	-62.1	3.8	1.49e+00	0	49	104	0	58	18680
2026-01-05 10:57:30.31	187.49	5.57	-48.4	-62.1	3.8	1.49e+00	0	49	104	0	58	18644
2026-01-05 10:57:31.30	187.54	5.64	-48.4	-62.1	3.8	1.49e+00	0	49	104	0	58	18644
2026-01-05 10:57:32.29	187.59	5.71	-48.4	-62.1	3.8	1.49e+00	0	49	104	0	58	18668
2026-01-05 10:57:33.28	187.64	5.78	-48.4	-62.1	3.8	1.49e+00	0	49	104	0	58	18648
2026-01-05 10:57:34.27	187.69	5.85	-48.4	-62.1	3.8	1.49e+00	0	49	104	0	58	18637
2026-01-05 10:57:35.25	187.74	5.92	-48.2	-62.1	3.8	1.49e+00	0	49	104	0	58	18658
2026-01-05 10:57:36.25	187.80	5.99	-48.4	-62.1	3.8	1.49e+00	0	49	104	0	58	18695
2026-01-05 10:57:37.24	187.85	6.06	-48.4	-62.1	3.8	1.49e+00	0	49	104	0	58	18696
2026-01-05 10:57:38.23	187.90	6.13	-48.4	-62.2	3.8	1.49e+00	0	49	104	0	58	18744
2026-01-05 10:57:39.23	187.95	6.20	-48.4	-62.1	3.8	1.49e+00	0	49	104	0	58	18686
2026-01-05 10:57:40.21	188.01	6.27	-48.4	-62.2	3.8	1.49e+00	0	49	104	0	58	18735
2026-01-05 10:57:41.19	188.06	6.33	-48.4	-62.2	3.8	1.49e+00	0	49	104	0	58	18740
2026-01-05 10:57:42.18	188.11	6.40	-48.4	-62.1	3.8	1.49e+00	0	49	104	0	58	18702
2026-01-05 10:57:43.17	188.17	6.48	-48.4	-62.1	3.8	1.49e+00	0	49	104	0	58	18672
2026-01-05 10:57:44.15	188.22	6.55	-48.4	-62.2	3.8	1.49e+00	0	49	104	0	58	18765
2026-01-05 10:57:45.14	188.27	6.62	-48.4	-62.1	3.8	1.49e+00	0	49	104	0	58	18701
2026-01-05 10:57:46.13	188.33	6.69	-48.4	-62.1	3.8	1.49e+00	0	50	104	0	58	18677
2026-01-05 10:57:47.12	188.38	6.76	-48.4	-62.1	3.8	1.49e+00	0	49	104	0	58	18713
2026-01-05 10:57:48.12	188.44	6.83	-48.4	-62.1	3.8	1.49e+00	0	50	104	0	58	18706
2026-01-05 10:57:49.10	188.49	6.90	-48.4	-62.1	3.8	1.49e+00	0	50	104	0	58	18645
2026-01-05 10:57:50.09	188.55	6.97	-48.4	-62.1	3.8	1.49e+00	0	50	104	0	58	18699
2026-01-05 10:57:51.09	188.60	7.05	-48.4	-62.1	3.8	1.49e+00	0	50	104	0	58	18672
2026-01-05 10:57:52.07	188.66	7.12	-48.4	-62.1	3.8	1.49e+00	0	50	104	0	58	18725
2026-01-05 10:57:53.06	188.71	7.19	-48.4	-62.1	3.8	1.49e+00	0	50	104	0	58	18676
2026-01-05 10:57:54.05	188.77	7.26	-48.4	-62.1	3.8	1.49e+00	0	50	104	0	58	18723
2026-01-05 10:57:55.05	188.83	7.34	-48.4	-62.1	3.8	1.49e+00	0	50	104	0	58	18721
2026-01-05 10:57:56.03	188.88	7.41	-48.4	-62.1	3.8	1.49e+00	0	50	104	0	58	18700
2026-01-05 10:57:57.02	188.94	7.48	-48.4	-62.1	3.8	1.49e+00	0	50	104	0	58	18678
2026-01-05 10:57:58.01	189.00	7.55	-48.4	-62.1	3.8	1.49e+00	0	50	104	0	58	18690
2026-01-05 10:57:59.01	189.06	7.63	-48.4	-62.1	3.8	1.49e+00	0	50	104	0	58	18692
2026-01-05 10:58:00.01	189.11	7.70	-48.4	-62.2	3.8	1.49e+00	0	50	104	0	58	18763
2026-01-05 10:58:01.00	189.17	7.78	-48.4	-62.1	3.8	1.49e+00	0	50	104	0	58	18716
2026-01-05 10:58:01.99	189.23	7.85	-48.4	-62.1	3.8	1.49e+00	0	50	104	0	58	18702
2026-01-05 10:58:02.99	189.29	7.93	-48.4	-62.1	3.8	1.49e+00	0	50	104	0	58	18724
2026-01-05 10:58:03.97	189.35	8.00	-48.4	-62.1	3.8	1.49e+00	0	50	104	0	58	18653
2026-01-05 10:58:04.96	189.41	8.07	-48.4	-62.1	3.8	1.49e+00	0	50	104	0	58	18701
2026-01-05 10:58:05.96	189.47	8.15	-48.4	-62.1	3.8	1.49e+00	0	50	104	0	58	18712
2026-01-05 10:58:06.95	189.53	8.22	-48.4	-62.1	3.8	1.49e+00	0	51	104	0	58	18716
2026-01-05 10:58:07.94	189.59	8.30	-48.4	-62.1	3.8	1.49e+00	0	51	104	0	58	18672
2026-01-05 10:58:08.92	189.65	8.37	-48.4	-62.1	3.8	1.49e+00	0	51	104	0	58	18710
2026-01-05 10:58:09.90	189.71	8.45	-48.3	-62.2	3.8	1.49e+00	0	51	104	0	58	18737
2026-01-05 10:58:10.89	189.77	8.53	-48.4	-62.1	3.8	1.49e+00	0	51	104	0	58	18690
2026-01-05 10:58:11.88	189.83	8.60	-48.4	-62.1	3.8	1.49e+00	0	51	104	0	58	18714
2026-01-05 10:58:12.88	189.89	8.68	-48.4	-62.1	3.8	1.49e+00	0	51	104	0	58	18712
2026-01-05 10:58:13.86	189.95	8.75	-48.4	-62.2	3.8	1.49e+00	0	51	104	0	58	18744
2026-01-05 10:58:14.85	190.02	8.83	-48.4	-62.1	3.8	1.49e+00	0	51	104	0	58	18731
2026-01-05 10:58:15.84	190.08	8.91	-48.4	-62.1	3.8	1.49e+00	0	51	104	0	58	18709
2026-01-05 10:58:16.83	190.14	8.98	-48.4	-62.2	3.8	1.49e+00	0	51	104	0	58	18748
2026-01-05 10:58:17.82	190.21	9.06	-48.4	-62.1	3.8	1.49e+00	0	51	104	0	58	18691
2026-01-05 10:58:18.81	190.27	9.14	-48.4	-62.2	3.8	1.49e+00	0	51	104	0	58	18746
2026-01-05 10:58:19.79	190.33	9.22	-48.4	-62.2	3.8	1.49e+00	0	51	104	0	58	18744
2026-01-05 10:58:20.78	190.40	9.29	-48.4	-62.2	3.8	1.49e+00	0	51	104	0	58	18742
2026-01-05 10:58:21.77	190.46	9.37	-48.4	-62.2	3.8	1.49e+00	0	51	104	0	58	18732
2026-01-05 10:58:22.76	190.53	9.45	-48.4	-62.2	3.8	1.49e+00	0	51	104	0	58	18742
2026-01-05 10:58:23.75	190.59	9.53	-48.4	-62.1	3.8	1.49e+00	0	51	104	0	58	18724
2026-01-05 10:58:24.74	190.66	9.61	-48.4	-62.2	3.8	1.49e+00	0	51	104	0	58	18736
2026-01-05 10:58:25.73	190.72	9.69	-48.4	-62.1	3.8	1.49e+00	0	51	104	0	58	18660
2026-01-05 10:58:26.71	190.79	9.77	-48.4	-62.1	3.8	1.49e+00	0	51	104	0	58	18717
2026-01-05 10:58:27.70	190.85	9.84	-48.4	-62.1	3.8	1.49e+00	0	51	104	0	58	18703
2026-01-05 10:58:28.69	190.92	9.92	-48.4	-62.1	3.8	1.49e+00	0	51	104	0	58	18726
2026-01-05 10:58:29.68	190.99	10.00	-48.4	-62.2	3.8	1.49e+00	0	51	104	0	58	18762
2026-01-05 10:58:30.66	191.05	10.08	-48.4	-62.1	3.8	1.49e+00	0	52	104	0	58	18726
2026-01-05 10:58:31.65	191.12	10.16	-48.4	-62.1	3.8	1.49e+00	0	52	104	0	58	18691
2026-01-05 10:58:32.64	191.19	10.24	-48.4	-62.1	3.8	1.49e+00	0	52	104	0	58	18720
2026-01-05 10:58:33.63	191.26	10.33	-48.4	-62.2	3.8	1.49e+00	0	51	104	0	58	18762
2026-01-05 10:58:34.62	191.33	10.41	-48.4	-62.1	3.8	1.49e+00	0	52	104	0	58	18700
2026-01-05 10:58:35.61	191.40	10.49	-48.4	-62.2	3.8	1.49e+00	0	52	104	0	58	18758
2026-01-05 10:58:36.60	191.47	10.57	-48.4	-62.2	3.8	1.49e+00	0	52	104	0	58	18751
2026-01-05 10:58:37.59	191.54	10.65	-48.4	-62.1	3.8	1.49e+00	0	52	104	0	58	18705
2026-01-05 10:58:38.58	191.61	10.73	-48.4	-62.1	3.8	1.49e+00	0	52	104	0	58	18728
2026-01-05 10:58:39.58	191.68	10.82	-48.4	-62.2	3.8	1.49e+00	0	52	104	0	58	18746
2026-01-05 10:58:40.58	191.75	10.90	-48.4	-62.2	3.8	1.49e+00	0	52	104	0	58	18757
2026-01-05 10:58:41.57	191.82	10.98	-48.4	-62.2	3.8	1.49e+00	0	52	104	0	58	18781
2026-01-05 10:58:42.55	191.89	11.06	-48.4	-62.1	3.8	1.49e+00	0	52	104	0	58	18716
2026-01-05 10:58:43.54	191.97	11.15	-48.4	-62.1	3.8	1.49e+00	0	52	104	0	58	18690
2026-01-05 10:58:44.53	192.04	11.23	-48.2	-62.1	3.8	1.49e+00	0	52	104	0	58	18713
2026-01-05 10:58:45.52	192.11	11.31	-48.4	-62.2	3.8	1.49e+00	0	52	104	0	58	18769
2026-01-05 10:58:46.51	192.18	11.40	-48.4	-62.1	3.8	1.49e+00	0	52	104	0	58	18716
2026-01-05 10:58:47.50	192.26	11.48	-48.4	-62.2	3.8	1.49e+00	0	52	104	0	58	18732
2026-01-05 10:58:48.48	192.33	11.57	-48.5	-62.2	3.8	1.49e+00	0	52	104	0	58	18776
2026-01-05 10:58:49.47	192.41	11.65	-48.4	-62.2	3.8	1.49e+00	0	52	104	0	58	18746
2026-01-05 10:58:50.46	192.48	11.74	-48.4	-62.2	3.8	1.49e+00	0	52	104	0	58	18767
2026-01-05 10:58:51.45	192.56	11.82	-48.4	-62.2	3.8	1.49e+00	0	52	104	0	58	18733
2026-01-05 10:58:52.44	192.63	11.91	-48.4	-62.2	3.8	1.49e+00	0	52	104	0	58	18768
2026-01-05 10:58:53.42	192.71	11.99	-48.4	-62.1	3.8	1.49e+00	0	52	104	0	58	18726
2026-01-05 10:58:54.41	192.79	12.08	-48.4	-62.2	3.8	1.49e+00	0	52	104	0	58	18756
2026-01-05 10:58:55.40	192.86	12.16	-48.4	-62.1	3.8	1.49e+00	0	52	104	0	58	18705
2026-01-05 10:58:56.39	192.94	12.25	-48.4	-62.2	3.8	1.49e+00	0	52	104	0	58	18747
2026-01-05 10:58:57.38	193.02	12.34	-48.4	-62.2	3.8	1.49e+00	0	52	104	0	58	18736
2026-01-05 10:58:58.36	193.10	12.42	-48.4	-62.2	3.8	1.49e+00	0	53	104	0	58	18787
2026-01-05 10:58:59.35	193.17	12.51	-48.4	-62.2	3.8	1.49e+00	0	53	104	0	58	18751
2026-01-05 10:59:00.33	193.25	12.60	-48.4	-62.2	3.8	1.49e+00	0	52	104	0	58	18741
2026-01-05 10:59:01.32	193.33	12.68	-48.4	-62.2	3.8	1.49e+00	0	52	104	0	58	18759
2026-01-05 10:59:02.31	193.41	12.77	-48.4	-62.2	3.8	1.49e+00	0	52	104	0	58	18823
2026-01-05 10:59:03.30	193.49	12.86	-48.4	-62.1	3.8	1.49e+00	0	52	104	0	58	18698
2026-01-05 10:59:04.29	193.58	12.95	-48.4	-62.2	3.8	1.49e+00	0	53	104	0	58	18784
2026-01-05 10:59:05.28	193.66	13.04	-48.4	-62.2	3.8	1.49e+00	0	53	104	0	58	18792
2026-01-05 10:59:06.27	193.74	13.13	-48.4	-62.2	3.8	1.49e+00	0	53	104	0	58	18736
2026-01-05 10:59:07.26	193.82	13.22	-48.4	-62.2	3.8	1.49e+00	0	53	104	0	58	18769
2026-01-05 10:59:08.25	193.90	13.31	-48.4	-62.2	3.8	1.49e+00	0	53	104	0	58	18792
2026-01-05 10:59:09.24	193.99	13.40	-48.4	-62.2	3.8	1.49e+00	0	53	104	0	58	18767
2026-01-05 10:59:10.23	194.07	13.49	-48.4	-62.2	3.8	1.49e+00	0	53	104	0	58	18741
2026-01-05 10:59:11.22	194.16	13.58	-48.4	-62.1	3.8	1.49e+00	0	53	104	0	58	18729
2026-01-05 10:59:12.22	194.24	13.67	-48.4	-62.2	3.8	1.49e+00	0	53	104	0	58	18737
2026-01-05 10:59:13.21	194.33	13.76	-48.4	-62.2	3.8	1.49e+00	0	53	104	0	58	18766
2026-01-05 10:59:14.20	194.41	13.85	-48.4	-62.2	3.8	1.49e+00	0	53	104	0	58	18733
2026-01-05 10:59:15.19	194.50	13.94	-48.4	-62.2	3.8	1.49e+00	0	53	104	0	58	18753
2026-01-05 10:59:16.18	194.59	14.03	-48.4	-62.2	3.8	1.49e+00	0	53	104	0	58	18745
2026-01-05 10:59:17.16	194.67	14.13	-48.4	-62.2	3.8	1.49e+00	0	53	104	0	58	18782
2026-01-05 10:59:18.15	194.76	14.22	-48.4	-62.2	3.8	1.49e+00	0	53	104	0	58	18779
2026-01-05 10:59:19.15	194.85	14.31	-48.4	-62.2	3.8	1.49e+00	0	53	104	0	58	18732
2026-01-05 10:59:20.13	194.94	14.40	-48.4	-62.2	3.8	1.49e+00	0	53	104	0	58	18766
2026-01-05 10:59:21.12	195.03	14.50	-48.4	-62.1	3.8	1.49e+00	0	53	104	0	58	18677
2026-01-05 10:59:22.10	195.12	14.59	-48.4	-62.1	3.8	1.49e+00	0	53	104	0	58	18716
2026-01-05 10:59:23.10	195.21	14.69	-48.4	-62.2	3.8	1.49e+00	0	53	104	0	58	18749
2026-01-05 10:59:24.09	195.30	14.78	-48.4	-62.2	3.8	1.49e+00	0	53	104	0	58	18782
2026-01-05 10:59:25.09	195.39	14.88	-48.4	-62.1	3.8	1.49e+00	0	53	104	0	58	18715
2026-01-05 10:59:26.08	195.49	14.97	-48.4	-62.2	3.8	1.49e+00	0	53	104	0	58	18736
2026-01-05 10:59:27.06	195.58	15.06	-48.4	-62.1	3.8	1.49e+00	0	53	104	0	58	18695
2026-01-05 10:59:28.05	195.67	15.16	-48.4	-62.1	3.8	1.49e+00	0	53	104	0	58	18706
2026-01-05 10:59:29.04	195.77	15.26	-48.4	-62.2	3.8	1.49e+00	0	53	104	0	58	18805
2026-01-05 10:59:30.02	195.86	15.35	-48.4	-62.1	3.8	1.49e+00	0	53	104	0	58	18718
2026-01-05 10:59:31.01	195.96	15.45	-48.4	-62.2	3.8	1.49e+00	0	53	104	0	58	18765
2026-01-05 10:59:32.00	196.05	15.54	-48.4	-62.1	3.8	1.49e+00	0	53	104	0	58	18719
2026-01-05 10:59:32.99	196.15	15.64	-48.4	-62.1	3.8	1.49e+00	0	53	104	0	58	18708
2026-01-05 10:59:33.99	196.25	15.74	-48.4	-62.1	3.8	1.49e+00	0	53	104	0	58	18688
2026-01-05 10:59:34.97	196.34	15.84	-48.4	-62.1	3.8	1.49e+00	0	53	104	0	58	18668
2026-01-05 10:59:35.97	196.44	15.94	-48.4	-62.2	3.8	1.49e+00	0	53	104	0	58	18762
2026-01-05 10:59:36.96	196.54	16.03	-48.4	-62.2	3.8	1.49e+00	0	53	104	0	58	18772
2026-01-05 10:59:37.95	196.64	16.13	-48.4	-62.1	3.8	1.49e+00	0	53	104	0	58	18719
2026-01-05 10:59:38.94	196.74	16.23	-48.4	-62.2	3.8	1.49e+00	0	54	104	0	58	18790
2026-01-05 10:59:39.93	196.84	16.33	-48.4	-62.1	3.8	1.49e+00	0	53	104	0	58	18729
2026-01-05 10:59:40.92	196.94	16.43	-48.4	-62.2	3.8	1.49e+00	0	53	104	0	58	18758
2026-01-05 10:59:41.91	197.04	16.53	-48.4	-62.1	3.8	1.49e+00	0	53	104	0	58	18724
2026-01-05 10:59:42.90	197.15	16.63	-48.4	-62.2	3.8	1.49e+00	0	54	104	0	58	18743
2026-01-05 10:59:43.88	197.25	16.73	-48.4	-62.2	3.8	1.49e+00	0	54	104	0	58	18797
2026-01-05 10:59:44.88	197.35	16.83	-48.4	-62.2	3.8	1.49e+00	0	54	104	0	58	18773
2026-01-05 10:59:45.87	197.46	16.93	-48.4	-62.1	3.8	1.49e+00	0	54	104	0	58	18716
2026-01-05 10:59:46.86	197.56	17.04	-48.5	-62.2	3.8	1.49e+00	0	54	104	0	58	18761
2026-01-05 10:59:47.86	197.67	17.14	-48.5	-62.1	3.8	1.49e+00	0	54	104	0	58	18710
2026-01-05 10:59:48.85	197.78	17.24	-48.4	-62.2	3.8	1.49e+00	0	53	104	0	58	18734
2026-01-05 10:59:49.84	197.89	17.34	-48.4	-62.1	3.8	1.49e+00	0	54	104	0	58	18713
2026-01-05 10:59:50.83	197.99	17.45	-48.4	-62.1	3.8	1.49e+00	0	54	104	0	58	18721
2026-01-05 10:59:51.82	198.10	17.55	-48.4	-62.2	3.8	1.49e+00	0	54	104	0	58	18744
2026-01-05 10:59:52.81	198.21	17.65	-48.4	-62.2	3.8	1.49e+00	0	54	104	0	58	18746
2026-01-05 10:59:53.80	198.32	17.76	-48.4	-62.1	3.8	1.49e+00	0	54	104	0	58	18724
2026-01-05 10:59:54.78	198.43	17.86	-48.4	-62.2	3.8	1.49e+00	0	54	104	0	58	18791
2026-01-05 10:59:55.77	198.54	17.97	-48.4	-62.1	3.8	1.49e+00	0	54	104	0	58	18729
2026-01-05 10:59:56.76	198.66	18.07	-48.4	-62.2	3.8	1.49e+00	0	54	104	0	58	18758
2026-01-05 10:59:57.75	198.77	18.18	-48.4	-62.2	3.8	1.49e+00	0	54	104	0	58	18764
2026-01-05 10:59:58.74	198.88	18.28	-48.4	-62.2	3.8	1.49e+00	0	54	104	0	58	18785
2026-01-05 10:59:59.74	199.00	18.39	-48.4	-62.1	3.8	1.49e+00	0	54	104	0	58	18730
2026-01-05 11:00:00.72	199.11	18.49	-48.4	-62.1	3.8	1.49e+00	0	54	104	0	58	18723
2026-01-05 11:00:01.71	199.23	18.60	-48.5	-62.1	3.8	1.49e+00	0	54	104	0	58	18729
2026-01-05 11:00:02.70	199.35	18.71	-48.4	-62.1	3.8	1.49e+00	0	54	104	0	58	18721
2026-01-05 11:00:03.70	199.47	18.82	-48.4	-62.2	3.8	1.49e+00	0	54	104	0	58	18751
2026-01-05 11:00:04.68	199.58	18.92	-48.5	-62.2	3.8	1.49e+00	0	54	104	0	58	18770
2026-01-05 11:00:05.68	199.70	19.03	-48.4	-62.1	3.8	1.49e+00	0	54	104	0	58	18728
2026-01-05 11:00:06.67	199.83	19.14	-48.4	-62.2	3.8	1.49e+00	0	54	104	0	58	18755
2026-01-05 11:00:07.66	199.95	19.25	-48.5	-62.2	3.8	1.49e+00	0	54	104	0	58	18746
2026-01-05 11:00:08.66	200.07	19.36	-48.5	-62.2	3.8	1.49e+00	0	54	104	0	58	18734
2026-01-05 11:00:09.65	200.19	19.47	-48.4	-62.2	3.8	1.49e+00	0	54	104	0	58	18790
2026-01-05 11:00:10.64	200.32	19.58	-48.4	-62.2	3.8	1.49e+00	0	54	104	0	58	18760
2026-01-05 11:00:11.63	200.44	19.69	-48.4	-62.1	3.8	1.49e+00	0	54	104	0	58	18722
2026-01-05 11:00:12.62	200.57	19.80	-48.4	-62.1	3.8	1.49e+00	0	54	104	0	58	18695
2026-01-05 11:00:13.61	200.69	19.91	-48.4	-62.2	3.8	1.49e+00	0	54	104	0	58	18758
2026-01-05 11:00:14.61	200.82	20.02	-48.5	-62.2	3.8	1.49e+00	0	54	104	0	58	18792
2026-01-05 11:00:15.60	200.95	20.14	-48.5	-62.2	3.8	1.49e+00	0	54	104	0	58	18778
2026-01-05 11:00:16.59	201.08	20.25	-48.4	-62.2	3.8	1.49e+00	0	54	104	0	58	18776
2026-01-05 11:00:17.58	201.21	20.36	-48.4	-62.2	3.8	1.49e+00	0	54	104	0	58	18761
2026-01-05 11:00:18.58	201.34	20.48	-48.4	-62.2	3.8	1.49e+00	0	54	104	0	58	18752
2026-01-05 11:00:19.57	201.47	20.59	-48.5	-62.2	3.8	1.49e+00	0	54	104	0	58	18759
2026-01-05 11:00:20.56	201.61	20.70	-48.4	-62.2	3.8	1.49e+00	0	54	104	0	58	18756
2026-01-05 11:00:21.55	201.74	20.82	-48.4	-62.2	3.8	1.49e+00	0	54	104	0	58	18835
2026-01-05 11:00:22.55	201.88	20.93	-48.4	-62.2	3.8	1.49e+00	0	54	104	0	58	18755
2026-01-05 11:00:23.54	202.01	21.05	-48.4	-62.2	3.8	1.49e+00	0	54	104	0	58	18786
2026-01-05 11:00:24.53	202.15	21.16	-48.5	-62.2	3.8	1.49e+00	0	54	104	0	58	18774
2026-01-05 11:00:25.53	202.29	21.28	-48.4	-62.2	3.8	1.49e+00	0	54	104	0	58	18798
2026-01-05 11:00:26.51	202.42	21.39	-48.5	-62.2	3.8	1.49e+00	0	54	104	0	58	18757
2026-01-05 11:00:27.50	202.56	21.51	-48.5	-62.2	3.8	1.49e+00	0	54	104	0	58	18743
2026-01-05 11:00:28.48	202.70	21.62	-48.5	-62.2	3.8	1.49e+00	0	54	104	0	58	18739
2026-01-05 11:00:29.46	202.84	21.74	-48.5	-62.2	3.8	1.49e+00	0	54	104	0	58	18752
2026-01-05 11:00:30.45	202.99	21.86	-48.5	-62.2	3.8	1.49e+00	0	54	104	0	58	18769
2026-01-05 11:00:31.44	203.13	21.98	-48.5	-62.2	3.8	1.49e+00	0	55	104	0	58	18769
2026-01-05 11:00:32.43	203.27	22.09	-48.4	-62.2	3.8	1.49e+00	0	55	104	0	58	18760
2026-01-05 11:00:33.43	203.42	22.21	-48.5	-62.2	3.8	1.49e+00	0	55	104	0	58	18832
2026-01-05 11:00:34.41	203.57	22.33	-48.5	-62.2	3.8	1.49e+00	0	54	104	0	58	18773
2026-01-05 11:00:35.40	203.72	22.45	-48.5	-62.2	3.8	1.49e+00	0	54	104	0	58	18775
2026-01-05 11:00:36.39	203.86	22.57	-48.5	-62.2	3.8	1.49e+00	0	55	104	0	58	18799
2026-01-05 11:00:37.38	204.01	22.69	-48.4	-62.2	3.8	1.49e+00	0	55	104	0	58	18765
2026-01-05 11:00:38.36	204.16	22.81	-48.4	-62.2	3.8	1.49e+00	0	55	104	0	58	18741
2026-01-05 11:00:39.35	204.32	22.93	-48.4	-62.2	3.8	1.49e+00	0	54	104	0	58	18750
2026-01-05 11:00:40.33	204.47	23.05	-48.4	-62.2	3.8	1.49e+00	0	55	104	0	58	18761
2026-01-05 11:00:41.32	204.62	23.17	-48.5	-62.2	3.8	1.49e+00	0	55	104	0	58	18812
2026-01-05 11:00:42.30	204.78	23.29	-48.5	-62.2	3.8	1.49e+00	0	55	104	0	58	18781
2026-01-05 11:00:43.30	204.94	23.41	-48.5	-62.2	3.8	1.49e+00	0	55	104	0	58	18777
2026-01-05 11:00:44.29	205.10	23.54	-48.4	-62.2	3.8	1.49e+00	0	54	104	0	58	18755
2026-01-05 11:00:45.29	205.26	23.66	-48.5	-62.2	3.8	1.49e+00	0	55	104	0	58	18748
2026-01-05 11:00:46.27	205.42	23.78	-48.4	-62.2	3.8	1.49e+00	0	55	104	0	58	18773
2026-01-05 11:00:47.26	205.58	23.90	-48.4	-62.2	3.8	1.49e+00	0	55	104	0	58	18778
2026-01-05 11:00:48.25	205.74	24.03	-48.4	-62.2	3.8	1.49e+00	0	55	104	0	58	18807
2026-01-05 11:00:49.24	205.91	24.15	-48.5	-62.2	3.8	1.49e+00	0	55	104	0	58	18772
2026-01-05 11:00:50.23	206.07	24.28	-48.4	-62.2	3.8	1.49e+00	0	55	104	0	58	18753
2026-01-05 11:00:51.22	206.24	24.40	-48.5	-62.2	3.8	1.49e+00	0	55	104	0	58	18790
2026-01-05 11:00:52.21	206.41	24.53	-48.4	-62.2	3.8	1.49e+00	0	55	104	0	58	18739
2026-01-05 11:00:53.20	206.58	24.65	-48.4	-62.2	3.8	1.49e+00	0	55	104	0	58	18754
2026-01-05 11:00:54.19	206.75	24.78	-48.4	-62.1	3.8	1.49e+00	0	55	104	0	58	18729
2026-01-05 11:00:55.17	206.92	24.90	-48.4	-62.2	3.8	1.49e+00	0	55	104	0	58	18782
2026-01-05 11:00:56.16	207.09	25.03	-48.4	-62.2	3.8	1.49e+00	0	55	104	0	58	18768
2026-01-05 11:00:57.16	207.27	25.16	-48.4	-62.2	3.8	1.49e+00	0	55	104	0	58	18735
2026-01-05 11:00:58.15	207.45	25.29	-48.4	-62.2	3.8	1.49e+00	0	55	104	0	58	18745
2026-01-05 11:00:59.14	207.62	25.41	-48.5	-62.2	3.8	1.49e+00	0	55	104	0	58	18817
2026-01-05 11:01:00.13	207.80	25.54	-48.3	-62.2	3.8	1.49e+00	0	55	104	0	58	18794
2026-01-05 11:01:01.12	207.98	25.67	-48.4	-62.2	3.8	1.49e+00	0	55	104	0	58	18761
2026-01-05 11:01:02.12	208.17	25.80	-48.4	-62.2	3.8	1.49e+00	0	55	104	0	58	18785
2026-01-05 11:01:03.11	208.35	25.93	-48.4	-62.2	3.8	1.49e+00	0	55	104	0	58	18779
2026-01-05 11:01:04.10	208.54	26.06	-48.5	-62.2	3.8	1.49e+00	0	55	104	0	58	18799
2026-01-05 11:01:05.09	208.72	26.19	-48.5	-62.2	3.8	1.49e+00	0	55	104	0	58	18759
2026-01-05 11:01:06.09	208.91	26.32	-48.5	-62.2	3.8	1.49e+00	0	55	104	0	58	18773
2026-01-05 11:01:07.07	209.10	26.45	-48.4	-62.2	3.8	1.49e+00	0	55	104	0	58	18760
2026-01-05 11:01:08.06	209.29	26.58	-48.4	-62.2	3.8	1.49e+00	0	55	104	0	58	18756
2026-01-05 11:01:09.05	209.48	26.71	-48.5	-62.2	3.8	1.49e+00	0	55	104	0	58	18750
2026-01-05 11:01:10.04	209.68	26.84	-48.4	-62.2	3.8	1.49e+00	0	55	104	0	58	18748
2026-01-05 11:01:11.03	209.87	26.97	-48.4	-62.2	3.8	1.49e+00	0	55	104	0	58	18754
2026-01-05 11:01:12.02	210.07	27.10	-48.4	-62.2	3.8	1.49e+00	0	55	104	0	58	18770
2026-01-05 11:01:13.02	210.27	27.24	-48.4	-62.2	3.8	1.49e+00	0	55	104	0	58	18778
2026-01-05 11:01:14.00	210.47	27.37	-48.5	-62.1	3.8	1.49e+00	0	55	104	0	58	18723
2026-01-05 11:01:14.99	210.67	27.50	-48.4	-62.2	3.8	1.49e+00	0	55	104	0	58	18761
2026-01-05 11:01:15.99	210.88	27.63	-48.5	-62.2	3.8	1.49e+00	0	55	104	0	58	18778
2026-01-05 11:01:16.98	211.08	27.77	-48.4	-62.2	3.8	1.49e+00	0	55	104	0	58	18806
2026-01-05 11:01:17.96	211.29	27.90	-48.5	-62.2	3.8	1.49e+00	0	55	104	0	58	18767
2026-01-05 11:01:18.95	211.50	28.03	-48.4	-62.2	3.8	1.49e+00	0	55	104	0	58	18772
2026-01-05 11:01:19.93	211.70	28.16	-48.5	-62.2	3.8	1.49e+00	0	55	104	0	58	18781
2026-01-05 11:01:20.93	211.92	28.30	-48.5	-62.2	3.8	1.49e+00	0	55	104	0	58	18820
2026-01-05 11:01:21.92	212.13	28.43	-48.5	-62.2	3.8	1.49e+00	0	55	104	0	58	18791
2026-01-05 11:01:22.91	212.35	28.57	-48.4	-62.2	3.8	1.49e+00	0	55	104	0	58	18792
2026-01-05 11:01:23.91	212.57	28.70	-48.4	-62.2	3.8	1.49e+00	0	55	104	0	58	18765
2026-01-05 11:01:24.89	212.78	28.84	-48.5	-62.2	3.8	1.49e+00	0	55	104	0	58	18814
2026-01-05 11:01:25.88	213.01	28.97	-48.5	-62.2	3.8	1.49e+00	0	55	104	0	58	18807
2026-01-05 11:01:26.87	213.23	29.11	-48.5	-62.2	3.8	1.49e+00	0	55	104	0	58	18815
2026-01-05 11:01:27.86	213.45	29.24	-48.5	-62.2	3.8	1.49e+00	0	55	104	0	58	18804
2026-01-05 11:01:28.84	213.68	29.38	-48.4	-62.2	3.8	1.49e+00	0	55	104	0	58	18782
2026-01-05 11:01:29.82	213.90	29.51	-48.4	-62.2	3.8	1.49e+00	0	55	104	0	58	18738
2026-01-05 11:01:30.81	214.13	29.65	-48.4	-62.2	3.8	1.49e+00	0	55	104	0	58	18757
2026-01-05 11:01:31.80	214.37	29.78	-48.4	-62.2	3.8	1.49e+00	0	55	104	0	58	18788
2026-01-05 11:01:32.78	214.60	29.92	-48.4	-62.2	3.8	1.49e+00	0	55	104	0	58	18759
2026-01-05 11:01:33.76	214.83	30.05	-48.4	-62.2	3.8	1.49e+00	0	55	104	0	58	18776
2026-01-05 11:01:34.75	215.07	30.19	-48.0	-62.2	3.8	1.49e+00	0	55	104	0	58	18794
2026-01-05 11:01:35.74	215.31	30.33	-48.5	-62.2	3.8	1.49e+00	0	55	104	0	58	18781
2026-01-05 11:01:36.73	215.55	30.46	-48.5	-62.2	3.8	1.49e+00	0	55	104	0	58	18752
2026-01-05 11:01:37.72	215.79	30.60	-48.5	-62.2	3.8	1.49e+00	0	55	104	0	58	18752
2026-01-05 11:01:38.71	216.04	30.74	-48.5	-62.2	3.8	1.49e+00	0	55	104	0	58	18824
2026-01-05 11:01:39.70	216.29	30.87	-48.5	-62.2	3.8	1.49e+00	0	55	104	0	58	18820
2026-01-05 11:01:40.68	216.54	31.01	-48.4	-62.2	3.8	1.49e+00	0	55	104	0	58	18746
2026-01-05 11:01:41.67	216.79	31.15	-48.4	-62.2	3.8	1.49e+00	0	55	104	0	58	18796
2026-01-05 11:01:42.66	217.04	31.28	-48.4	-62.2	3.8	1.49e+00	0	55	104	0	58	18773
2026-01-05 11:01:43.64	217.30	31.42	-48.4	-62.2	3.8	1.49e+00	0	55	104	0	58	18761
2026-01-05 11:01:44.62	217.55	31.56	-48.4	-62.2	3.8	1.49e+00	0	55	104	0	58	18783
2026-01-05 11:01:45.60	217.81	31.69	-48.4	-62.2	3.8	1.49e+00	0	55	104	0	58	18821
2026-01-05 11:01:46.59	218.07	31.83	-48.4	-62.2	3.8	1.49e+00	0	55	104	0	58	18778
2026-01-05 11:01:47.58	218.34	31.97	-48.4	-62.2	3.8	1.49e+00	0	56	104	0	58	18800
2026-01-05 11:01:48.57	218.60	32.10	-48.5	-62.2	3.8	1.49e+00	0	55	104	0	58	18782
2026-01-05 11:01:49.56	218.87	32.24	-48.5	-62.2	3.8	1.49e+00	0	55	104	0	58	18804
2026-01-05 11:01:50.55	219.14	32.38	-48.4	-62.2	3.8	1.49e+00	0	56	104	0	58	18745
2026-01-05 11:01:51.54	219.42	32.51	-48.4	-62.2	3.8	1.49e+00	0	55	104	0	58	18780
2026-01-05 11:01:52.52	219.69	32.65	-48.4	-62.2	3.8	1.49e+00	0	55	104	0	58	18755
2026-01-05 11:01:53.51	219.97	32.79	-48.4	-62.2	3.8	1.49e+00	0	56	104	0	58	18783
2026-01-05 11:01:54.51	220.25	32.92	-48.4	-62.2	3.8	1.49e+00	0	56	104	0	58	18843
2026-01-05 11:01:55.50	220.54	33.06	-48.5	-62.2	3.8	1.49e+00	0	55	104	0	58	18748
2026-01-05 11:01:56.49	220.82	33.20	-48.4	-62.2	3.8	1.49e+00	0	55	104	0	58	18732
2026-01-05 11:01:57.48	221.11	33.33	-48.4	-62.1	3.8	1.49e+00	0	56	104	0	58	18725
2026-01-05 11:01:58.47	221.40	33.47	-48.4	-62.2	3.8	1.49e+00	0	55	104	0	58	18736
2026-01-05 11:01:59.45	221.69	33.60	-48.5	-62.2	3.8	1.49e+00	0	56	104	0	58	18810
2026-01-05 11:02:00.45	221.99	33.74	-48.4	-62.2	3.8	1.49e+00	0	56	104	0	58	18769
2026-01-05 11:02:01.44	222.28	33.88	-48.4	-62.2	3.8	1.49e+00	0	56	104	0	58	18799
2026-01-05 11:02:02.42	222.58	34.01	-48.4	-62.2	3.8	1.49e+00	0	56	104	0	58	18798
2026-01-05 11:02:03.41	222.88	34.15	-48.5	-62.2	3.8	1.49e+00	0	55	104	0	58	18800
2026-01-05 11:02:04.39	223.18	34.28	-48.5	-62.2	3.8	1.49e+00	0	55	104	0	58	18780
2026-01-05 11:02:05.39	223.49	34.41	-48.5	-62.2	3.8	1.49e+00	0	56	104	0	58	18781
2026-01-05 11:02:06.38	223.80	34.55	-48.4	-62.1	3.8	1.49e+00	0	56	104	0	58	18699
2026-01-05 11:02:07.36	224.11	34.68	-48.4	-62.2	3.8	1.49e+00	0	56	104	0	58	18738
2026-01-05 11:02:08.35	224.43	34.81	-48.5	-62.2	3.8	1.49e+00	0	56	104	0	58	18812
2026-01-05 11:02:09.34	224.74	34.95	-48.5	-62.2	3.8	1.49e+00	0	56	104	0	58	18787
2026-01-05 11:02:10.34	225.07	35.08	-48.5	-62.2	3.8	1.49e+00	0	56	104	0	58	18809
2026-01-05 11:02:11.33	225.39	35.21	-48.5	-62.2	3.8	1.49e+00	0	56	104	0	58	18809
2026-01-05 11:02:12.32	225.71	35.34	-48.5	-62.2	3.8	1.49e+00	0	56	104	0	58	18787
2026-01-05 11:02:13.32	226.04	35.48	-48.4	-62.2	3.8	1.49e+00	0	56	104	0	58	18754
2026-01-05 11:02:14.30	226.37	35.61	-48.4	-62.2	3.8	1.49e+00	0	56	104	0	58	18760
2026-01-05 11:02:15.30	226.71	35.74	-48.4	-62.2	3.8	1.49e+00	0	56	104	0	58	18776
2026-01-05 11:02:16.29	227.04	35.87	-48.4	-62.2	3.8	1.49e+00	0	56	104	0	58	18788
2026-01-05 11:02:17.28	227.38	36.00	-48.5	-62.2	3.8	1.49e+00	0	56	104	0	58	18798
2026-01-05 11:02:18.27	227.72	36.12	-48.5	-62.2	3.8	1.49e+00	0	56	104	0	58	18766
2026-01-05 11:02:19.26	228.06	36.25	-48.5	-62.2	3.8	1.49e+00	0	56	104	0	58	18799
2026-01-05 11:02:20.25	228.41	36.38	-48.4	-62.2	3.8	1.49e+00	0	56	104	0	58	18754
2026-01-05 11:02:21.24	228.76	36.51	-48.4	-62.2	3.8	1.49e+00	0	56	104	0	58	18799
2026-01-05 11:02:22.23	229.11	36.63	-48.5	-62.2	3.8	1.49e+00	0	56	104	0	58	18805
2026-01-05 11:02:23.23	229.47	36.76	-48.5	-62.2	3.8	1.49e+00	0	56	104	0	58	18787
2026-01-05 11:02:24.22	229.82	36.88	-48.4	-62.2	3.8	1.49e+00	0	56	104	0	58	18767
2026-01-05 11:02:25.22	230.19	37.01	-48.4	-62.2	3.8	1.49e+00	0	56	104	0	58	18802
2026-01-05 11:02:26.20	230.54	37.13	-48.4	-62.2	3.8	1.49e+00	0	56	104	0	58	18821
2026-01-05 11:02:27.19	230.91	37.25	-48.4	-62.2	3.8	1.49e+00	0	56	104	0	58	18750
2026-01-05 11:02:28.17	231.27	37.37	-48.5	-62.2	3.8	1.49e+00	0	56	104	0	58	18847
2026-01-05 11:02:29.16	231.64	37.49	-48.5	-62.2	3.8	1.49e+00	0	56	104	0	58	18783
2026-01-05 11:02:30.15	232.01	37.61	-48.5	-62.2	3.8	1.49e+00	0	56	104	0	58	18834
2026-01-05 11:02:31.14	232.39	37.73	-48.4	-62.2	3.8	1.49e+00	0	56	104	0	58	18803
2026-01-05 11:02:32.13	232.77	37.85	-48.4	-62.2	3.8	1.49e+00	0	56	104	0	58	18786
2026-01-05 11:02:33.11	233.14	37.96	-48.5	-62.2	3.8	1.49e+00	0	56	104	0	58	18809
2026-01-05 11:02:34.11	233.53	38.08	-48.4	-62.2	3.8	1.49e+00	0	56	104	0	58	18819
2026-01-05 11:02:35.09	233.91	38.19	-48.4	-62.2	3.8	1.49e+00	0	56	104	0	58	18780
2026-01-05 11:02:36.08	234.30	38.31	-48.4	-62.2	3.8	1.49e+00	0	56	104	0	58	18798
2026-01-05 11:02:37.07	234.69	38.42	-48.4	-62.2	3.8	1.49e+00	0	56	104	0	58	18768
2026-01-05 11:02:38.05	235.08	38.53	-48.4	-62.2	3.8	1.49e+00	0	56	104	0	58	18802
2026-01-05 11:02:39.04	235.48	38.64	-48.4	-62.2	3.8	1.49e+00	0	56	104	0	58	18797
2026-01-05 11:02:40.02	235.87	38.75	-48.4	-62.2	3.8	1.49e+00	0	56	104	0	58	18732
2026-01-05 11:02:41.01	236.27	38.86	-48.4	-62.2	3.8	1.49e+00	0	56	104	0	58	18807
2026-01-05 11:02:42.00	236.68	38.96	-48.5	-62.2	3.8	1.49e+00	0	56	104	0	58	18780
2026-01-05 11:02:42.99	237.09	39.07	-48.4	-62.2	3.8	1.49e+00	0	56	104	0	58	18773
2026-01-05 11:02:43.98	237.49	39.17	-48.4	-62.2	3.8	1.49e+00	0	56	104	0	58	18797
2026-01-05 11:02:44.97	237.91	39.27	-48.4	-62.2	3.8	1.49e+00	0	56	104	0	58	18818
2026-01-05 11:02:45.96	238.32	39.38	-48.4	-62.2	3.8	1.49e+00	0	56	104	0	58	18783
2026-01-05 11:02:46.95	238.74	39.48	-48.4	-62.2	3.8	1.49e+00	0	56	104	0	58	18804
2026-01-05 11:02:47.94	239.16	39.58	-48.4	-62.2	3.8	1.49e+00	0	56	104	0	58	18813
2026-01-05 11:02:48.93	239.58	39.67	-48.4	-62.2	3.8	1.49e+00	0	56	104	0	58	18793
2026-01-05 11:02:49.92	240.00	39.77	-48.4	-62.2	3.8	1.49e+00	0	56	104	0	58	18763
2026-01-05 11:02:50.91	240.43	39.86	-48.4	-62.2	3.8	1.49e+00	0	56	104	0	58	18773
2026-01-05 11:02:51.90	240.86	39.96	-48.5	-62.2	3.8	1.49e+00	0	56	104	0	58	18805
2026-01-05 11:02:52.89	241.29	40.05	-48.4	-62.2	3.8	1.49e+00	0	56	104	0	58	18813
2026-01-05 11:02:53.88	241.73	40.14	-48.4	-62.2	3.8	1.49e+00	0	56	104	0	58	18768
2026-01-05 11:02:54.87	242.16	40.23	-48.4	-62.2	3.8	1.49e+00	0	56	104	0	58	18797
2026-01-05 11:02:55.86	242.60	40.31	-48.4	-62.2	3.8	1.49e+00	0	56	104	0	58	18789
2026-01-05 11:02:56.85	243.04	40.40	-48.4	-62.2	3.8	1.49e+00	0	56	104	0	58	18779
2026-01-05 11:02:57.84	243.49	40.48	-48.4	-62.2	3.8	1.49e+00	0	56	104	0	58	18823
2026-01-05 11:02:58.82	243.93	40.56	-48.4	-62.2	3.8	1.49e+00	0	56	104	0	58	18824
2026-01-05 11:02:59.81	244.38	40.64	-48.4	-62.2	3.8	1.49e+00	0	56	104	0	58	18756
2026-01-05 11:03:00.80	244.83	40.72	-48.4	-62.2	3.8	1.49e+00	0	56	104	0	58	18765
2026-01-05 11:03:01.79	245.28	40.79	-48.5	-62.2	3.8	1.49e+00	0	56	104	0	58	18790
2026-01-05 11:03:02.78	245.73	40.87	-48.5	-62.2	3.8	1.49e+00	0	56	104	0	58	18772
2026-01-05 11:03:03.77	246.19	40.94	-48.5	-62.2	3.8	1.49e+00	0	56	104	0	58	18799
2026-01-05 11:03:04.76	246.65	41.01	-48.5	-62.2	3.8	1.49e+00	0	56	104	0	58	18817
2026-01-05 11:03:05.75	247.11	41.08	-48.5	-62.2	3.8	1.49e+00	0	56	104	0	58	18768
2026-01-05 11:03:06.74	247.57	41.15	-48.5	-62.2	3.8	1.49e+00	0	56	104	0	58	18765
2026-01-05 11:03:07.74	248.04	41.21	-48.5	-62.2	3.8	1.49e+00	0	56	104	0	58	18786
2026-01-05 11:03:08.73	248.50	41.28	-48.4	-62.2	3.8	1.49e+00	0	56	104	0	58	18772
2026-01-05 11:03:09.73	248.98	41.34	-48.4	-62.2	3.8	1.49e+00	0	56	104	0	58	18769
2026-01-05 11:03:10.71	249.44	41.40	-48.4	-62.2	3.8	1.49e+00	0	56	104	0	58	18834
2026-01-05 11:03:11.71	249.92	41.45	-48.4	-62.2	3.8	1.49e+00	0	56	104	0	58	18756
2026-01-05 11:03:12.70	250.39	41.51	-48.4	-62.2	3.8	1.49e+00	0	56	104	0	58	18833
2026-01-05 11:03:13.70	250.87	41.56	-48.4	-62.2	3.8	1.49e+00	0	56	104	0	58	18788
2026-01-05 11:03:14.69	251.34	41.61	-48.4	-62.2	3.8	1.49e+00	0	56	104	0	58	18737
2026-01-05 11:03:15.68	251.82	41.66	-48.4	-62.2	3.8	1.49e+00	0	56	104	0	58	18812
2026-01-05 11:03:16.68	252.30	41.71	-48.4	-62.2	3.8	1.49e+00	0	56	104	0	58	18772
2026-01-05 11:03:17.67	252.78	41.75	-48.4	-62.2	3.8	1.49e+00	0	56	104	0	58	18788
2026-01-05 11:03:18.65	253.26	41.80	-48.4	-62.2	3.8	1.49e+00	0	56	104	0	58	18749
2026-01-05 11:03:19.65	253.75	41.84	-48.4	-62.2	3.8	1.49e+00	0	56	104	0	58	18798
2026-01-05 11:03:20.64	254.23	41.87	-48.5	-62.2	3.8	1.49e+00	0	56	104	0	58	18803
2026-01-05 11:03:21.62	254.71	41.91	-48.4	-62.2	3.8	1.49e+00	0	56	104	0	58	18759
2026-01-05 11:03:22.62	255.20	41.94	-48.4	-62.2	3.8	1.49e+00	0	56	104	0	58	18776
2026-01-05 11:03:23.61	255.69	41.98	-48.4	-62.2	3.8	1.49e+00	0	56	104	0	58	18759
2026-01-05 11:03:24.60	256.18	42.00	-48.5	-62.2	3.8	1.49e+00	0	56	104	0	58	18733
2026-01-05 11:03:25.60	256.67	42.03	-48.5	-62.2	3.8	1.49e+00	0	56	104	0	58	18748
2026-01-05 11:03:26.58	257.15	42.06	-48.4	-62.2	3.8	1.49e+00	0	56	104	0	58	18801
2026-01-05 11:03:27.57	257.64	42.08	-48.5	-62.2	3.8	1.49e+00	0	56	104	0	58	18822
2026-01-05 11:03:28.56	258.13	42.10	-48.5	-62.2	3.8	1.49e+00	0	56	104	0	58	18790
2026-01-05 11:03:29.54	258.62	42.11	-48.4	-62.2	3.8	1.49e+00	0	56	104	0	58	18734
2026-01-05 11:03:30.53	259.11	42.13	-48.5	-62.2	3.8	1.49e+00	0	56	104	0	58	18774
2026-01-05 11:03:31.53	259.61	42.14	-48.4	-62.2	3.8	1.49e+00	0	56	104	0	58	18773
2026-01-05 11:03:32.52	260.10	42.15	-48.4	-62.2	3.8	1.49e+00	0	56	104	0	58	18808
2026-01-05 11:03:33.50	260.59	42.16	-48.5	-62.2	3.8	1.49e+00	0	56	104	0	58	18753
2026-01-05 11:03:34.49	261.08	42.17	-48.4	-62.2	3.8	1.49e+00	0	56	104	0	58	18768
2026-01-05 11:03:35.48	261.57	42.17	-48.4	-62.2	3.8	1.49e+00	0	56	104	0	58	18820
2026-01-05 11:03:36.47	262.06	42.17	-48.4	-62.2	3.8	1.49e+00	0	56	104	0	58	18800
2026-01-05 11:03:37.45	262.55	42.17	-48.4	-62.2	3.8	1.49e+00	0	56	104	0	58	18832
2026-01-05 11:03:38.44	263.04	42.17	-48.4	-62.2	3.8	1.49e+00	0	56	104	0	58	18772
2026-01-05 11:03:39.43	263.54	42.16	-48.5	-62.2	3.8	1.49e+00	0	56	104	0	58	18794
2026-01-05 11:03:40.43	264.03	42.16	-48.5	-62.2	3.8	1.49e+00	0	56	104	0	58	18769
2026-01-05 11:03:41.42	264.53	42.15	-48.4	-62.2	3.8	1.49e+00	0	56	104	0	58	18783
2026-01-05 11:03:42.41	265.02	42.13	-48.5	-62.2	3.8	1.49e+00	0	56	104	0	58	18765
2026-01-05 11:03:43.41	265.51	42.12	-48.5	-62.2	3.8	1.49e+00	0	56	104	0	58	18878
2026-01-05 11:03:44.40	266.00	42.10	-48.5	-62.2	3.8	1.49e+00	0	56	104	0	58	18785
2026-01-05 11:03:45.39	266.49	42.08	-48.5	-62.2	3.8	1.49e+00	0	56	104	0	58	18803
2026-01-05 11:03:46.38	266.98	42.06	-48.5	-62.2	3.8	1.49e+00	0	56	104	0	58	18799
2026-01-05 11:03:47.38	267.48	42.04	-48.4	-62.2	3.8	1.49e+00	0	56	104	0	58	18802
2026-01-05 11:03:48.37	267.97	42.01	-48.4	-62.2	3.8	1.49e+00	0	56	104	0	58	18795
2026-01-05 11:03:49.36	268.45	41.98	-48.4	-62.2	3.8	1.49e+00	0	56	104	0	58	18790
2026-01-05 11:03:50.34	268.94	41.95	-47.9	-62.2	3.8	1.49e+00	0	56	104	0	58	18836
2026-01-05 11:03:51.33	269.42	41.92	-48.4	-62.2	3.8	1.49e+00	0	56	104	0	58	18763
2026-01-05 11:03:52.33	269.91	41.88	-48.4	-62.2	3.8	1.49e+00	0	56	104	0	58	18781
2026-01-05 11:03:53.32	270.39	41.85	-48.5	-62.2	3.8	1.49e+00	0	56	104	0	58	18827
2026-01-05 11:03:54.31	270.88	41.81	-48.4	-62.2	3.8	1.49e+00	0	56	104	0	58	18838
2026-01-05 11:03:55.30	271.36	41.77	-48.4	-62.2	3.8	1.49e+00	0	56	104	0	58	18781
2026-01-05 11:03:56.28	271.83	41.72	-48.4	-62.2	3.8	1.49e+00	0	56	104	0	58	18833
2026-01-05 11:03:57.28	272.31	41.68	-48.4	-62.2	3.8	1.49e+00	0	56	104	0	58	18757
2026-01-05 11:03:58.27	272.79	41.63	-48.4	-62.2	3.8	1.49e+00	0	56	104	0	58	18789
2026-01-05 11:03:59.25	273.26	41.58	-48.4	-62.2	3.8	1.49e+00	0	56	104	0	58	18789
2026-01-05 11:04:00.24	273.74	41.53	-48.4	-62.2	3.8	1.49e+00	0	56	104	0	58	18840
2026-01-05 11:04:01.23	274.21	41.47	-48.5	-62.2	3.8	1.49e+00	0	56	104	0	58	18781
2026-01-05 11:04:02.22	274.68	41.42	-48.4	-62.2	3.8	1.49e+00	0	56	104	0	58	18804
2026-01-05 11:04:03.22	275.15	41.36	-48.5	-62.2	3.8	1.49e+00	0	56	104	0	58	18786
2026-01-05 11:04:04.21	275.62	41.30	-48.4	-62.2	3.8	1.49e+00	0	56	104	0	58	18785
2026-01-05 11:04:05.19	276.08	41.24	-48.5	-62.2	3.8	1.49e+00	0	56	104	0	58	18767
2026-01-05 11:04:06.18	276.55	41.17	-48.5	-62.2	3.8	1.49e+00	0	56	104	0	58	18788
2026-01-05 11:04:07.17	277.01	41.10	-48.5	-62.2	3.8	1.49e+00	0	57	104	0	58	18800
2026-01-05 11:04:08.17	277.47	41.04	-48.5	-62.2	3.8	1.49e+00	0	56	104	0	58	18798
2026-01-05 11:04:09.16	277.93	40.97	-48.5	-62.2	3.8	1.49e+00	0	56	104	0	58	18782
2026-01-05 11:04:10.14	278.38	40.89	-48.4	-62.2	3.8	1.49e+00	0	56	104	0	58	18751
2026-01-05 11:04:11.14	278.84	40.82	-48.5	-62.2	3.8	1.49e+00	0	57	104	0	58	18786
2026-01-05 11:04:12.13	279.29	40.74	-48.5	-62.2	3.8	1.49e+00	0	56	104	0	58	18896
2026-01-05 11:04:13.12	279.74	40.67	-48.4	-62.2	3.8	1.49e+00	0	56	104	0	58	18784
2026-01-05 11:04:14.11	280.19	40.59	-48.5	-62.2	3.8	1.49e+00	0	56	104	0	58	18799
2026-01-05 11:04:15.11	280.64	40.51	-48.5	-62.2	3.8	1.49e+00	0	56	104	0	58	18830
2026-01-05 11:04:16.09	281.08	40.43	-48.4	-62.2	3.8	1.49e+00	0	56	104	0	58	18821
2026-01-05 11:04:17.09	281.53	40.34	-48.5	-62.2	3.8	1.49e+00	0	56	104	0	58	18822
2026-01-05 11:04:18.09	281.97	40.25	-48.4	-62.2	3.8	1.49e+00	0	57	104	0	58	18794
2026-01-05 11:04:19.07	282.40	40.17	-48.4	-62.2	3.8	1.49e+00	0	57	104	0	58	18830
2026-01-05 11:04:20.06	282.84	40.08	-48.5	-62.2	3.8	1.49e+00	0	57	104	0	58	18807
2026-01-05 11:04:21.05	283.27	39.99	-48.5	-62.2	3.8	1.49e+00	0	57	104	0	58	18810
2026-01-05 11:04:22.04	283.70	39.89	-48.5	-62.2	3.8	1.49e+00	0	57	104	0	58	18798
2026-01-05 11:04:23.03	284.13	39.80	-48.5	-62.2	3.8	1.49e+00	0	56	104	0	58	18780
2026-01-05 11:04:24.02	284.55	39.71	-48.5	-62.2	3.8	1.49e+00	0	56	104	0	58	18841
2026-01-05 11:04:25.02	284.98	39.61	-48.5	-62.2	3.8	1.49e+00	0	57	104	0	58	18778
2026-01-05 11:04:26.01	285.40	39.51	-48.5	-62.2	3.8	1.49e+00	0	57	104	0	58	18867
2026-01-05 11:04:27.00	285.81	39.41	-48.5	-62.2	3.8	1.49e+00	0	57	104	0	58	18780
2026-01-05 11:04:27.97	286.22	39.31	-48.5	-62.2	3.8	1.49e+00	0	56	104	0	58	18818
2026-01-05 11:04:28.95	286.63	39.21	-48.4	-62.2	3.8	1.49e+00	0	57	104	0	58	18819
2026-01-05 11:04:29.94	287.04	39.11	-48.5	-62.2	3.8	1.49e+00	0	57	104	0	58	18739
2026-01-05 11:04:30.94	287.45	39.00	-48.5	-62.2	3.8	1.49e+00	0	57	104	0	58	18802
2026-01-05 11:04:31.93	287.85	38.90	-48.5	-62.2	3.8	1.49e+00	0	57	104	0	58	18820
2026-01-05 11:04:32.92	288.25	38.79	-48.4	-62.2	3.8	1.49e+00	0	56	104	0	58	18756
2026-01-05 11:04:33.91	288.65	38.68	-48.5	-62.2	3.8	1.49e+00	0	56	104	0	58	18802
2026-01-05 11:04:34.91	289.05	38.57	-48.4	-62.2	3.8	1.49e+00	0	57	104	0	58	18818
2026-01-05 11:04:35.89	289.44	38.46	-48.5	-62.2	3.8	1.49e+00	0	57	104	0	58	18820
2026-01-05 11:04:36.88	289.83	38.35	-48.5	-62.2	3.8	1.49e+00	0	57	104	0	58	18791
2026-01-05 11:04:37.87	290.22	38.24	-48.5	-62.2	3.8	1.49e+00	0	57	104	0	58	18820
2026-01-05 11:04:38.87	290.61	38.12	-48.5	-62.2	3.8	1.49e+00	0	57	104	0	58	18793
2026-01-05 11:04:39.86	291.00	38.01	-48.5	-62.2	3.8	1.49e+00	0	57	104	0	58	18835
2026-01-05 11:04:40.85	291.38	37.89	-48.4	-62.2	3.8	1.49e+00	0	57	104	0	58	18802
2026-01-05 11:04:41.84	291.75	37.77	-48.5	-62.2	3.8	1.49e+00	0	57	104	0	58	18862
2026-01-05 11:04:42.84	292.13	37.65	-48.4	-62.2	3.8	1.49e+00	0	57	104	0	58	18823
2026-01-05 11:04:43.83	292.51	37.53	-48.5	-62.2	3.8	1.49e+00	0	57	104	0	58	18830
2026-01-05 11:04:44.81	292.87	37.42	-48.5	-62.2	3.8	1.49e+00	0	57	104	0	58	18825
2026-01-05 11:04:45.81	293.24	37.29	-48.5	-62.2	3.8	1.49e+00	0	57	104	0	58	18819
2026-01-05 11:04:46.79	293.60	37.17	-48.5	-62.2	3.8	1.49e+00	0	57	104	0	58	18822
2026-01-05 11:04:47.78	293.96	37.05	-48.4	-62.2	3.8	1.49e+00	0	57	104	0	58	18799
2026-01-05 11:04:48.77	294.32	36.93	-48.4	-62.2	3.8	1.49e+00	0	57	104	0	58	18775
2026-01-05 11:04:49.77	294.68	36.80	-48.4	-62.2	3.8	1.49e+00	0	57	104	0	58	18849
2026-01-05 11:04:50.76	295.04	36.68	-48.4	-62.2	3.8	1.49e+00	0	56	104	0	58	18844
2026-01-05 11:04:51.76	295.39	36.55	-48.4	-62.2	3.8	1.49e+00	0	57	104	0	58	18867
2026-01-05 11:04:52.75	295.74	36.43	-48.4	-62.2	3.8	1.49e+00	0	57	104	0	58	18833
2026-01-05 11:04:53.74	296.08	36.30	-48.4	-62.2	3.8	1.49e+00	0	57	104	0	58	18858
2026-01-05 11:04:54.73	296.43	36.17	-48.4	-62.2	3.8	1.49e+00	0	57	104	0	58	18822
2026-01-05 11:04:55.71	296.76	36.05	-48.4	-62.2	3.8	1.49e+00	0	57	104	0	58	18821
2026-01-05 11:04:56.71	297.11	35.92	-48.5	-62.2	3.8	1.49e+00	0	57	104	0	58	18844
2026-01-05 11:04:57.69	297.44	35.79	-48.4	-62.2	3.8	1.49e+00	0	57	104	0	58	18820
2026-01-05 11:04:58.68	297.77	35.66	-48.5	-62.2	3.8	1.49e+00	0	57	104	0	58	18816
2026-01-05 11:04:59.66	298.10	35.53	-48.4	-62.2	3.8	1.49e+00	0	57	104	0	58	18878
2026-01-05 11:05:00.65	298.42	35.40	-48.5	-62.2	3.8	1.49e+00	0	57	104	0	58	18796
2026-01-05 11:05:01.64	298.75	35.27	-48.5	-62.2	3.8	1.49e+00	0	57	104	0	58	18830
2026-01-05 11:05:02.62	299.07	35.14	-48.5	-62.2	3.8	1.49e+00	0	57	104	0	58	18839
2026-01-05 11:05:03.61	299.39	35.01	-48.5	-62.2	3.8	1.49e+00	0	57	104	0	58	18832
2026-01-05 11:05:04.60	299.70	34.88	-48.5	-62.2	3.8	1.49e+00	0	57	104	0	58	18838
2026-01-05 11:05:05.60	300.02	34.74	-48.4	-62.2	3.8	1.49e+00	0	57	104	0	58	18819
2026-01-05 11:05:06.59	300.33	34.61	-48.5	-62.2	3.8	1.49e+00	0	57	104	0	58	18800
2026-01-05 11:05:07.57	300.64	34.48	-48.4	-62.2	3.8	1.49e+00	0	57	104	0	58	18771
2026-01-05 11:05:08.56	300.95	34.35	-48.4	-62.2	3.8	1.49e+00	0	57	104	0	58	18808
2026-01-05 11:05:09.55	301.25	34.21	-48.5	-62.2	3.8	1.49e+00	0	57	104	0	58	18829
2026-01-05 11:05:10.54	301.55	34.08	-48.4	-62.2	3.8	1.49e+00	0	57	104	0	58	18794
2026-01-05 11:05:11.53	301.85	33.94	-48.4	-62.2	3.8	1.49e+00	0	57	104	0	58	18757
2026-01-05 11:05:12.51	302.15	33.81	-48.4	-62.2	3.8	1.49e+00	0	57	104	0	58	18787
2026-01-05 11:05:13.50	302.44	33.67	-48.5	-62.2	3.8	1.49e+00	0	57	104	0	58	18819
2026-01-05 11:05:14.48	302.73	33.54	-48.5	-62.2	3.8	1.49e+00	0	57	104	0	58	18832
2026-01-05 11:05:15.47	303.02	33.40	-48.5	-62.2	3.8	1.49e+00	0	57	104	0	58	18815
2026-01-05 11:05:16.46	303.31	33.27	-48.5	-62.2	3.8	1.49e+00	0	57	104	0	58	18843
2026-01-05 11:05:17.45	303.60	33.13	-48.5	-62.2	3.8	1.49e+00	0	57	104	0	58	18806
2026-01-05 11:05:18.44	303.88	33.00	-48.5	-62.2	3.8	1.49e+00	0	57	104	0	58	18833
2026-01-05 11:05:19.43	304.16	32.86	-48.5	-62.2	3.8	1.49e+00	0	57	104	0	58	18827
2026-01-05 11:05:20.43	304.44	32.72	-48.5	-62.2	3.8	1.49e+00	0	57	104	0	58	18862
2026-01-05 11:05:21.42	304.72	32.59	-48.4	-62.2	3.8	1.49e+00	0	57	104	0	58	18847
2026-01-05 11:05:22.41	304.99	32.45	-48.5	-62.2	3.8	1.49e+00	0	57	104	0	58	18871
2026-01-05 11:05:23.40	305.26	32.32	-48.5	-62.2	3.8	1.49e+00	0	57	104	0	58	18838
2026-01-05 11:05:24.39	305.53	32.18	-48.5	-62.2	3.8	1.49e+00	0	57	104	0	58	18788
2026-01-05 11:05:25.38	305.80	32.04	-48.5	-62.2	3.8	1.49e+00	0	57	104	0	58	18803
2026-01-05 11:05:26.37	306.06	31.91	-48.5	-62.2	3.8	1.49e+00	0	57	104	0	58	18781
2026-01-05 11:05:27.36	306.33	31.77	-48.5	-62.2	3.8	1.49e+00	0	57	104	0	58	18817
2026-01-05 11:05:28.35	306.59	31.63	-48.4	-62.2	3.8	1.49e+00	0	57	104	0	58	18849
2026-01-05 11:05:29.33	306.84	31.50	-48.5	-62.2	3.8	1.49e+00	0	57	104	0	58	18820
2026-01-05 11:05:30.32	307.10	31.36	-48.4	-62.2	3.8	1.49e+00	0	57	104	0	58	18847
2026-01-05 11:05:31.31	307.35	31.22	-48.4	-62.2	3.8	1.49e+00	0	57	104	0	58	18766
2026-01-05 11:05:32.30	307.61	31.09	-48.4	-62.2	3.8	1.49e+00	0	57	104	0	58	18828
2026-01-05 11:05:33.28	307.85	30.95	-48.4	-62.2	3.8	1.49e+00	0	57	104	0	58	18822
2026-01-05 11:05:34.27	308.10	30.82	-48.5	-62.2	3.8	1.49e+00	0	57	104	0	58	18801
2026-01-05 11:05:35.26	308.35	30.68	-48.5	-62.2	3.8	1.49e+00	0	57	104	0	58	18855
2026-01-05 11:05:36.25	308.59	30.54	-48.4	-62.2	3.8	1.49e+00	0	57	104	0	58	18831
2026-01-05 11:05:37.24	308.83	30.41	-48.4	-62.2	3.8	1.49e+00	0	57	104	0	58	18849
2026-01-05 11:05:38.22	309.07	30.27	-48.4	-62.2	3.8	1.49e+00	0	57	104	0	58	18804
2026-01-05 11:05:39.21	309.31	30.14	-48.5	-62.2	3.8	1.49e+00	0	57	104	0	58	18819
2026-01-05 11:05:40.20	309.55	30.00	-48.5	-62.2	3.8	1.49e+00	0	57	104	0	58	18846
2026-01-05 11:05:41.19	309.78	29.87	-48.4	-62.2	3.8	1.49e+00	0	57	104	0	58	18803
2026-01-05 11:05:42.18	310.01	29.73	-48.5	-62.2	3.8	1.49e+00	0	57	104	0	58	18816
2026-01-05 11:05:43.17	310.24	29.60	-48.5	-62.2	3.8	1.49e+00	0	57	104	0	58	18847
2026-01-05 11:05:44.17	310.47	29.46	-48.4	-62.2	3.8	1.49e+00	0	57	104	0	58	18818
2026-01-05 11:05:45.15	310.70	29.33	-48.4	-62.2	3.8	1.49e+00	0	57	104	0	58	18768
2026-01-05 11:05:46.14	310.92	29.19	-48.4	-62.2	3.8	1.49e+00	0	57	104	0	58	18827
2026-01-05 11:05:47.13	311.15	29.06	-48.4	-62.2	3.8	1.49e+00	0	57	104	0	58	18822
2026-01-05 11:05:48.12	311.37	28.92	-48.5	-62.2	3.8	1.49e+00	0	57	104	0	58	18815
2026-01-05 11:05:49.10	311.58	28.79	-48.5	-62.2	3.8	1.49e+00	0	57	104	0	58	18777
2026-01-05 11:05:50.10	311.80	28.65	-48.5	-62.2	3.8	1.49e+00	0	57	104	0	58	18829
2026-01-05 11:05:51.08	312.02	28.52	-48.5	-62.2	3.8	1.49e+00	0	57	104	0	58	18828
2026-01-05 11:05:52.07	312.23	28.39	-48.5	-62.2	3.8	1.49e+00	0	57	104	0	58	18872
2026-01-05 11:05:53.07	312.45	28.25	-48.5	-62.2	3.8	1.49e+00	0	57	104	0	58	18870
2026-01-05 11:05:54.05	312.65	28.12	-48.5	-62.2	3.8	1.49e+00	0	57	104	0	58	18830
2026-01-05 11:05:55.05	312.86	27.99	-48.5	-62.2	3.8	1.49e+00	0	57	104	0	58	18788
2026-01-05 11:05:56.03	313.07	27.86	-48.5	-62.2	3.8	1.49e+00	0	57	104	0	58	18836
2026-01-05 11:05:57.03	313.28	27.72	-48.5	-62.2	3.8	1.49e+00	0	57	104	0	58	18793
2026-01-05 11:05:58.02	313.48	27.59	-48.5	-62.2	3.8	1.49e+00	0	57	104	0	58	18834
2026-01-05 11:05:59.01	313.68	27.46	-48.5	-62.2	3.8	1.49e+00	0	57	104	0	58	18796
2026-01-05 11:06:00.00	313.88	27.33	-48.5	-62.2	3.8	1.49e+00	0	57	104	0	58	18864
2026-01-05 11:06:01.00	314.08	27.19	-48.5	-62.2	3.8	1.49e+00	0	57	104	0	58	18846
2026-01-05 11:06:01.99	314.28	27.06	-48.4	-62.2	3.8	1.49e+00	0	57	104	0	58	18861
2026-01-05 11:06:02.97	314.48	26.93	-48.4	-62.2	3.8	1.49e+00	0	57	104	0	58	18857
2026-01-05 11:06:03.96	314.67	26.80	-48.5	-62.2	3.8	1.49e+00	0	57	104	0	58	18818
2026-01-05 11:06:04.95	314.86	26.67	-48.5	-62.2	3.8	1.49e+00	0	57	104	0	58	18832
2026-01-05 11:06:05.94	315.05	26.54	-48.5	-62.2	3.8	1.49e+00	0	57	104	0	58	18860
2026-01-05 11:06:06.92	315.24	26.41	-48.5	-62.2	3.8	1.49e+00	0	57	104	0	58	18866
2026-01-05 11:06:07.90	315.43	26.29	-48.5	-62.2	3.8	1.49e+00	0	57	104	0	58	18821
2026-01-05 11:06:08.88	315.61	26.16	-48.5	-62.2	3.8	1.49e+00	0	57	104	0	58	18829
2026-01-05 11:06:09.87	315.80	26.03	-48.5	-62.2	3.8	1.49e+00	0	57	104	0	58	18840
2026-01-05 11:06:10.87	315.98	25.90	-48.4	-62.2	3.8	1.49e+00	0	57	104	0	58	18831
2026-01-05 11:06:11.86	316.17	25.77	-48.5	-62.2	3.8	1.49e+00	0	57	104	0	58	18879
2026-01-05 11:06:12.85	316.35	25.64	-48.5	-62.2	3.8	1.49e+00	0	57	104	0	58	18879
2026-01-05 11:06:13.84	316.53	25.52	-48.4	-62.2	3.8	1.49e+00	0	57	104	0	58	18823
2026-01-05 11:06:14.84	316.71	25.39	-48.5	-62.2	3.8	1.49e+00	0	57	104	0	58	18849
2026-01-05 11:06:15.83	316.88	25.26	-48.5	-62.2	3.8	1.49e+00	0	57	104	0	58	18769
2026-01-05 11:06:16.82	317.06	25.14	-48.5	-62.2	3.8	1.49e+00	0	57	104	0	58	18869
2026-01-05 11:06:17.81	317.23	25.01	-48.5	-62.2	3.8	1.49e+00	0	57	104	0	58	18785
2026-01-05 11:06:18.80	317.40	24.88	-48.5	-62.2	3.8	1.49e+00	0	57	104	0	58	18795
2026-01-05 11:06:19.80	317.58	24.76	-48.4	-62.2	3.8	1.49e+00	0	57	104	0	58	18836
2026-01-05 11:06:20.79	317.75	24.63	-48.4	-62.2	3.8	1.49e+00	0	57	104	0	58	18819
2026-01-05 11:06:21.78	317.92	24.51	-48.5	-62.2	3.8	1.49e+00	0	57	104	0	58	18830
2026-01-05 11:06:22.78	318.08	24.38	-48.5	-62.2	3.8	1.49e+00	0	57	104	0	58	18840
2026-01-05 11:06:23.77	318.25	24.26	-48.5	-62.2	3.8	1.49e+00	0	57	104	0	58	18826
2026-01-05 11:06:24.76	318.41	24.13	-48.4	-62.2	3.8	1.49e+00	0	57	104	0	58	18859
2026-01-05 11:06:25.75	318.58	24.01	-48.5	-62.2	3.8	1.49e+00	0	57	104	0	58	18849
2026-01-05 11:06:26.74	318.74	23.89	-48.5	-62.2	3.8	1.49e+00	0	57	104	0	58	18865
2026-01-05 11:06:27.72	318.90	23.77	-48.5	-62.2	3.8	1.49e+00	0	57	104	0	58	18885
2026-01-05 11:06:28.70	319.06	23.65	-48.5	-62.2	3.8	1.49e+00	0	57	104	0	58	18835
2026-01-05 11:06:29.69	319.22	23.52	-48.5	-62.2	3.8	1.49e+00	0	57	104	0	58	18859
2026-01-05 11:06:30.68	319.37	23.40	-48.5	-62.2	3.8	1.49e+00	0	57	104	0	58	18812
2026-01-05 11:06:31.67	319.53	23.28	-48.4	-62.2	3.8	1.49e+00	0	57	104	0	58	18836
2026-01-05 11:06:32.66	319.69	23.16	-48.5	-62.2	3.8	1.49e+00	0	57	104	0	58	18819
2026-01-05 11:06:33.65	319.84	23.04	-48.5	-62.2	3.8	1.49e+00	0	57	104	0	58	18767
2026-01-05 11:06:34.64	319.99	22.92	-48.5	-62.2	3.8	1.49e+00	0	57	104	0	58	18858
2026-01-05 11:06:35.62	320.14	22.80	-48.5	-62.2	3.8	1.49e+00	0	57	104	0	58	18774
2026-01-05 11:06:36.60	320.29	22.68	-48.5	-62.2	3.8	1.49e+00	0	57	104	0	58	18784
2026-01-05 11:06:37.59	320.44	22.56	-48.5	-62.2	3.8	1.49e+00	0	57	104	0	58	18854
2026-01-05 11:06:38.58	320.59	22.45	-48.4	-62.2	3.8	1.49e+00	0	57	104	0	58	18828
2026-01-05 11:06:39.57	320.74	22.33	-48.4	-62.2	3.8	1.49e+00	0	57	104	0	58	18805
2026-01-05 11:06:40.56	320.88	22.21	-48.5	-62.2	3.8	1.49e+00	0	57	104	0	58	18815
2026-01-05 11:06:41.55	321.03	22.09	-48.5	-62.2	3.8	1.49e+00	0	57	104	0	58	18846
2026-01-05 11:06:42.54	321.17	21.97	-48.5	-62.2	3.8	1.49e+00	0	57	104	0	58	18783
2026-01-05 11:06:43.53	321.32	21.86	-48.5	-62.2	3.8	1.49e+00	0	57	104	0	58	18794
2026-01-05 11:06:44.52	321.46	21.74	-48.5	-62.2	3.8	1.49e+00	0	57	104	0	58	18757
2026-01-05 11:06:45.51	321.60	21.63	-48.5	-62.2	3.8	1.49e+00	0	57	104	0	58	18838
2026-01-05 11:06:46.50	321.74	21.51	-48.5	-62.2	3.8	1.49e+00	0	57	104	0	58	18790
2026-01-05 11:06:47.49	321.88	21.39	-48.4	-62.2	3.8	1.49e+00	0	57	104	0	58	18769
2026-01-05 11:06:48.48	322.01	21.28	-48.5	-62.2	3.8	1.49e+00	0	57	104	0	58	18880
2026-01-05 11:06:49.47	322.15	21.16	-48.5	-62.2	3.8	1.49e+00	0	57	104	0	58	18849
2026-01-05 11:06:50.46	322.29	21.05	-48.5	-62.2	3.8	1.49e+00	0	57	104	0	58	18841
2026-01-05 11:06:51.45	322.42	20.94	-48.5	-62.2	3.8	1.49e+00	0	57	104	0	58	18850
2026-01-05 11:06:52.44	322.56	20.82	-48.5	-62.2	3.8	1.49e+00	0	57	104	0	58	18813
2026-01-05 11:06:53.42	322.69	20.71	-48.5	-62.2	3.8	1.49e+00	0	57	104	0	58	18796
2026-01-05 11:06:54.42	322.82	20.60	-48.5	-62.2	3.8	1.49e+00	0	57	104	0	58	18832
2026-01-05 11:06:55.41	322.95	20.48	-48.4	-62.2	3.8	1.49e+00	0	57	104	0	58	18803
2026-01-05 11:06:56.40	323.08	20.37	-48.5	-62.2	3.8	1.49e+00	0	57	104	0	58	18808
2026-01-05 11:06:57.39	323.21	20.26	-48.4	-62.2	3.8	1.49e+00	0	57	104	0	58	18830
2026-01-05 11:06:58.37	323.34	20.15	-48.5	-62.2	3.8	1.49e+00	0	57	104	0	58	18814
2026-01-05 11:06:59.36	323.47	20.04	-48.5	-62.2	3.8	1.49e+00	0	57	104	0	58	18878
2026-01-05 11:07:00.35	323.59	19.93	-48.5	-62.2	3.8	1.49e+00	0	57	104	0	58	18823
2026-01-05 11:07:01.34	323.72	19.82	-48.5	-62.2	3.8	1.49e+00	0	57	104	0	58	18830
2026-01-05 11:07:02.33	323.85	19.71	-48.5	-62.2	3.8	1.49e+00	0	57	104	0	58	18880
2026-01-05 11:07:03.32	323.97	19.60	-48.5	-62.2	3.8	1.49e+00	0	57	104	0	58	18843
2026-01-05 11:07:04.31	324.09	19.49	-48.5	-62.2	3.8	1.49e+00	0	57	104	0	58	18838
2026-01-05 11:07:05.30	324.22	19.38	-48.5	-62.2	3.8	1.49e+00	0	57	104	0	58	18834
2026-01-05 11:07:06.29	324.34	19.27	-48.5	-62.2	3.8	1.49e+00	0	57	104	0	58	18924
2026-01-05 11:07:07.27	324.46	19.17	-48.5	-62.2	3.8	1.49e+00	0	57	104	0	58	18813
2026-01-05 11:07:08.27	324.58	19.06	-48.5	-62.2	3.8	1.49e+00	0	57	104	0	58	18798
2026-01-05 11:07:09.26	324.70	18.95	-48.5	-62.2	3.8	1.49e+00	0	57	104	0	58	18812
2026-01-05 11:07:10.25	324.82	18.84	-48.5	-62.2	3.8	1.49e+00	0	57	104	0	58	18796
2026-01-05 11:07:11.24	324.93	18.74	-48.5	-62.2	3.8	1.49e+00	0	57	104	0	58	18784
2026-01-05 11:07:12.23	325.05	18.63	-48.1	-62.2	3.8	1.49e+00	0	57	104	0	58	18838
2026-01-05 11:07:13.22	325.17	18.52	-48.5	-62.2	3.8	1.49e+00	0	57	104	0	58	18851
2026-01-05 11:07:14.21	325.28	18.42	-48.5	-62.2	3.8	1.49e+00	0	57	104	0	58	18779
2026-01-05 11:07:15.20	325.40	18.31	-48.5	-62.2	3.8	1.49e+00	0	57	104	0	58	18830
2026-01-05 11:07:16.19	325.51	18.21	-48.4	-62.2	3.8	1.49e+00	0	57	104	0	58	18839
2026-01-05 11:07:17.18	325.62	18.10	-48.5	-62.2	3.8	1.49e+00	0	57	104	0	58	18892
2026-01-05 11:07:18.17	325.73	18.00	-48.5	-62.2	3.8	1.49e+00	0	57	104	0	58	18829
2026-01-05 11:07:19.16	325.85	17.89	-48.4	-62.2	3.8	1.49e+00	0	57	104	0	58	18835
2026-01-05 11:07:20.15	325.96	17.79	-48.5	-62.2	3.8	1.49e+00	0	57	104	0	58	18871
2026-01-05 11:07:21.14	326.07	17.69	-48.5	-62.2	3.8	1.49e+00	0	57	104	0	58	18831
2026-01-05 11:07:22.13	326.18	17.58	-48.5	-62.2	3.8	1.49e+00	0	57	104	0	58	18884
2026-01-05 11:07:23.12	326.28	17.48	-48.5	-62.2	3.8	1.49e+00	0	57	104	0	58	18865
2026-01-05 11:07:24.11	326.39	17.38	-48.5	-62.2	3.8	1.49e+00	0	57	104	0	58	18888
2026-01-05 11:07:25.10	326.50	17.28	-48.5	-62.2	3.8	1.49e+00	0	57	104	0	58	18901
2026-01-05 11:07:26.09	326.61	17.18	-48.5	-62.2	3.8	1.49e+00	0	57	104	0	58	18851
2026-01-05 11:07:27.08	326.71	17.07	-48.5	-62.2	3.8	1.49e+00	0	57	104	0	58	18852
2026-01-05 11:07:28.06	326.82	16.97	-48.5	-62.2	3.8	1.49e+00	0	57	104	0	58	18894
2026-01-05 11:07:29.04	326.92	16.87	-48.5	-62.2	3.8	1.49e+00	0	57	104	0	58	18849
2026-01-05 11:07:30.03	327.02	16.77	-48.5	-62.2	3.8	1.49e+00	0	57	104	0	58	18872
2026-01-05 11:07:31.02	327.13	16.67	-48.4	-62.2	3.8	1.49e+00	0	57	104	0	58	18790
2026-01-05 11:07:32.00	327.23	16.58	-48.5	-62.2	3.8	1.49e+00	0	57	104	0	58	18860
2026-01-05 11:07:32.99	327.33	16.48	-48.5	-62.2	3.8	1.49e+00	0	57	104	0	58	18867
2026-01-05 11:07:33.98	327.43	16.38	-48.4	-62.2	3.8	1.49e+00	0	57	104	0	58	18908
2026-01-05 11:07:34.97	327.53	16.28	-48.5	-62.2	3.8	1.49e+00	0	57	104	0	58	18864
2026-01-05 11:07:35.96	327.63	16.18	-48.5	-62.2	3.8	1.49e+00	0	57	104	0	58	18940
2026-01-05 11:07:36.95	327.73	16.08	-48.5	-62.2	3.8	1.49e+00	0	57	104	0	58	18872
2026-01-05 11:07:37.94	327.83	15.98	-48.5	-62.2	3.8	1.49e+00	0	57	104	0	58	18834
2026-01-05 11:07:38.93	327.93	15.89	-48.5	-62.2	3.8	1.49e+00	0	57	104	0	58	18827
2026-01-05 11:07:39.92	328.02	15.79	-48.5	-62.2	3.8	1.49e+00	0	57	104	0	58	18895
2026-01-05 11:07:40.91	328.12	15.69	-48.5	-62.2	3.8	1.49e+00	0	57	104	0	58	18857
2026-01-05 11:07:41.90	328.22	15.60	-48.5	-62.2	3.8	1.49e+00	0	57	104	0	58	18862
2026-01-05 11:07:42.89	328.31	15.50	-48.5	-62.2	3.8	1.49e+00	0	57	104	0	58	18857
2026-01-05 11:07:43.88	328.41	15.40	-48.4	-62.2	3.8	1.49e+00	0	57	104	0	58	18897
2026-01-05 11:07:44.87	328.50	15.31	-48.5	-62.2	3.8	1.49e+00	0	57	104	0	58	18911
2026-01-05 11:07:45.86	328.60	15.21	-48.5	-62.2	3.8	1.49e+00	0	57	104	0	58	18892
2026-01-05 11:07:46.84	328.69	15.12	-48.4	-62.2	3.8	1.49e+00	0	57	104	0	58	18831
2026-01-05 11:07:47.84	328.78	15.02	-48.5	-62.2	3.8	1.49e+00	0	57	104	0	58	18890
2026-01-05 11:07:48.83	328.88	14.93	-48.5	-62.2	3.8	1.49e+00	0	57	104	0	58	18939
2026-01-05 11:07:49.82	328.97	14.84	-48.5	-62.2	3.8	1.49e+00	0	57	104	0	58	18874
2026-01-05 11:07:50.82	329.06	14.74	-48.5	-62.2	3.8	1.49e+00	0	57	104	0	58	18905
2026-01-05 11:07:51.80	329.15	14.65	-48.4	-62.2	3.8	1.49e+00	0	57	104	0	58	18826
2026-01-05 11:07:52.80	329.24	14.55	-48.5	-62.2	3.8	1.49e+00	0	57	104	0	58	18901
2026-01-05 11:07:53.79	329.33	14.46	-48.5	-62.2	3.8	1.49e+00	0	57	104	0	58	18844
2026-01-05 11:07:54.77	329.42	14.37	-48.5	-62.2	3.8	1.49e+00	0	57	104	0	58	18856
2026-01-05 11:07:55.76	329.51	14.28	-48.5	-62.2	3.8	1.49e+00	0	57	104	0	58	18835
2026-01-05 11:07:56.75	329.60	14.19	-48.5	-62.2	3.8	1.49e+00	0	57	104	0	58	18910
2026-01-05 11:07:57.73	329.68	14.10	-48.5	-62.2	3.8	1.49e+00	0	57	104	0	58	18846
2026-01-05 11:07:58.72	329.77	14.00	-48.5	-62.2	3.8	1.49e+00	0	57	104	0	58	18876
2026-01-05 11:07:59.71	329.86	13.91	-48.5	-62.2	3.8	1.49e+00	0	57	104	0	58	18860
2026-01-05 11:08:00.69	329.94	13.82	-48.5	-62.2	3.8	1.49e+00	0	57	104	0	58	18881
2026-01-05 11:08:01.68	330.03	13.73	-48.5	-62.2	3.8	1.49e+00	0	57	104	0	58	18838
2026-01-05 11:08:02.67	330.11	13.64	-48.5	-62.2	3.8	1.49e+00	0	57	104	0	58	18890
2026-01-05 11:08:03.66	330.20	13.55	-48.5	-62.2	3.8	1.49e+00	0	57	104	0	58	18886
2026-01-05 11:08:04.65	330.28	13.46	-48.5	-62.2	3.8	1.49e+00	0	57	104	0	58	18893
2026-01-05 11:08:05.64	330.36	13.37	-48.4	-62.2	3.8	1.49e+00	0	57	104	0	58	18870
2026-01-05 11:08:06.63	330.45	13.28	-48.5	-62.2	3.8	1.49e+00	0	57	104	0	58	18850
2026-01-05 11:08:07.62	330.53	13.20	-48.5	-62.2	3.8	1.49e+00	0	57	104	0	58	18847
2026-01-05 11:08:08.62	330.61	13.11	-48.5	-62.2	3.8	1.49e+00	0	57	104	0	58	18910
2026-01-05 11:08:09.61	330.69	13.02	-48.4	-62.2	3.8	1.49e+00	0	57	104	0	58	18826
2026-01-05 11:08:10.59	330.77	12.93	-48.5	-62.2	3.8	1.49e+00	0	57	104	0	58	18885
2026-01-05 11:08:11.59	330.86	12.84	-48.5	-62.2	3.8	1.49e+00	0	57	104	0	58	18885
2026-01-05 11:08:12.58	330.94	12.75	-48.5	-62.2	3.8	1.49e+00	0	57	104	0	58	18844
2026-01-05 11:08:13.57	331.02	12.67	-48.5	-62.2	3.8	1.49e+00	0	57	104	0	58	18897
2026-01-05 11:08:14.56	331.10	12.58	-48.5	-62.2	3.8	1.49e+00	0	57	104	0	58	18884
2026-01-05 11:08:15.55	331.17	12.49	-48.5	-62.2	3.8	1.49e+00	0	57	104	0	58	18862
2026-01-05 11:08:16.54	331.25	12.41	-48.5	-62.2	3.8	1.49e+00	0	57	104	0	58	18877
2026-01-05 11:08:17.52	331.33	12.32	-48.5	-62.2	3.8	1.49e+00	0	57	104	0	58	18886
2026-01-05 11:08:18.51	331.41	12.24	-48.5	-62.2	3.8	1.49e+00	0	57	104	0	58	18860
2026-01-05 11:08:19.51	331.49	12.15	-48.5	-62.2	3.8	1.49e+00	0	57	104	0	58	18867
2026-01-05 11:08:20.50	331.56	12.06	-48.5	-62.2	3.8	1.49e+00	0	57	104	0	58	18885
2026-01-05 11:08:21.50	331.64	11.98	-48.5	-62.2	3.8	1.49e+00	0	57	104	0	58	18904
2026-01-05 11:08:22.49	331.72	11.89	-48.5	-62.2	3.8	1.49e+00	0	57	104	0	58	18847
2026-01-05 11:08:23.49	331.79	11.81	-48.5	-62.2	3.8	1.49e+00	0	57	104	0	58	18863
2026-01-05 11:08:24.47	331.87	11.72	-48.5	-62.2	3.8	1.49e+00	0	57	104	0	58	18923
2026-01-05 11:08:25.46	331.94	11.64	-48.5	-62.2	3.8	1.49e+00	0	57	104	0	58	18876
2026-01-05 11:08:26.44	332.02	11.56	-48.4	-62.2	3.8	1.49e+00	0	57	104	0	58	18859
2026-01-05 11:08:27.43	332.09	11.47	-48.5	-62.2	3.8	1.49e+00	0	57	104	0	58	18862
2026-01-05 11:08:28.41	332.16	11.39	-48.5	-62.2	3.8	1.49e+00	0	57	104	0	58	18868
2026-01-05 11:08:29.40	332.24	11.31	-48.5	-62.2	3.8	1.49e+00	0	57	104	0	58	18854
2026-01-05 11:08:30.39	332.31	11.22	-48.5	-62.2	3.8	1.49e+00	0	57	104	0	58	18866
2026-01-05 11:08:31.37	332.38	11.14	-48.5	-62.2	3.8	1.49e+00	0	57	104	0	58	18847
2026-01-05 11:08:32.36	332.45	11.06	-48.5	-62.2	3.8	1.49e+00	0	57	104	0	58	18847
2026-01-05 11:08:33.35	332.52	10.98	-48.5	-62.2	3.8	1.49e+00	0	57	104	0	58	18857
2026-01-05 11:08:34.35	332.60	10.90	-48.5	-62.2	3.8	1.49e+00	0	57	104	0	58	18864
2026-01-05 11:08:35.34	332.67	10.81	-48.5	-62.2	3.8	1.49e+00	0	57	104	0	58	18941
2026-01-05 11:08:36.33	332.74	10.73	-48.5	-62.2	3.8	1.49e+00	0	57	104	0	58	18869
2026-01-05 11:08:37.32	332.81	10.65	-48.5	-62.2	3.8	1.49e+00	0	57	104	0	58	18889
2026-01-05 11:08:38.30	332.88	10.57	-48.5	-62.2	3.8	1.49e+00	0	57	104	0	58	18894
2026-01-05 11:08:39.28	332.95	10.49	-48.5	-62.2	3.8	1.49e+00	0	57	104	0	58	18851
2026-01-05 11:08:40.27	333.02	10.41	-48.5	-62.2	3.8	1.49e+00	0	57	104	0	58	18879
2026-01-05 11:08:41.26	333.08	10.33	-48.5	-62.2	3.8	1.49e+00	0	57	104	0	58	18822
2026-01-05 11:08:42.25	333.15	10.25	-48.5	-62.2	3.8	1.49e+00	0	57	104	0	58	18872
2026-01-05 11:08:43.24	333.22	10.17	-48.5	-62.2	3.8	1.49e+00	0	57	104	0	58	18845
2026-01-05 11:08:44.23	333.29	10.09	-48.5	-62.2	3.8	1.49e+00	0	57	104	0	58	18934
2026-01-05 11:08:45.22	333.36	10.01	-48.5	-62.2	3.8	1.49e+00	0	57	104	0	58	18881
2026-01-05 11:08:46.22	333.42	9.93	-48.5	-62.2	3.8	1.49e+00	0	57	104	0	58	18892
2026-01-05 11:08:47.21	333.49	9.85	-48.5	-62.2	3.8	1.49e+00	0	57	104	0	58	18874
2026-01-05 11:08:48.21	333.56	9.77	-48.5	-62.2	3.8	1.49e+00	0	57	104	0	58	18866
2026-01-05 11:08:49.20	333.62	9.69	-48.5	-62.2	3.8	1.49e+00	0	57	104	0	58	18867
2026-01-05 11:08:50.19	333.69	9.62	-48.5	-62.2	3.8	1.49e+00	0	57	104	0	58	18851
2026-01-05 11:08:51.18	333.75	9.54	-48.5	-62.2	3.8	1.49e+00	0	57	104	0	58	18843
2026-01-05 11:08:52.17	333.82	9.46	-48.5	-62.2	3.8	1.49e+00	0	57	104	0	58	18794
2026-01-05 11:08:53.16	333.88	9.38	-48.5	-62.2	3.8	1.49e+00	0	57	104	0	58	18888
2026-01-05 11:08:54.15	333.95	9.30	-48.5	-62.2	3.8	1.49e+00	0	57	104	0	58	18866
2026-01-05 11:08:55.14	334.01	9.23	-48.5	-62.2	3.8	1.49e+00	0	57	104	0	58	18865
2026-01-05 11:08:56.14	334.08	9.15	-48.5	-62.2	3.8	1.49e+00	0	57	104	0	58	18839
2026-01-05 11:08:57.12	334.14	9.07	-48.5	-62.2	3.8	1.49e+00	0	57	104	0	58	18775
2026-01-05 11:08:58.11	334.20	9.00	-48.5	-62.2	3.8	1.49e+00	0	57	104	0	58	18864
2026-01-05 11:08:59.11	334.27	8.92	-48.5	-62.2	3.8	1.49e+00	0	57	104	0	58	18812
