passes_logs/2026/01/05/R3.0SM8_Murmansk_STILSPACE/R3.0SM8_Murmansk_STILSPACE__20260105_040706_AQUA_rec.log

#Pass ID: 20260105_040706_AQUA
#Satellite: AQUA
#Configuration: AQUA
#almurnet v.1.7.20240730
#Start time: 2026-01-05 04:07:06

#Version: 2.2.20231116
#Station: R3.0SM8_Murmansk_STILSPACE
#Location: 33.092731 lon 68.902999 lat
#TLE: 1 27424U 02022A   26003.93831470  .00001925  00000+0  39553-3 0  9995
#TLE: 2 27424  98.4067 330.1809 0002003  92.1713 343.8415 14.61796291259276

#Time	Az	El	Level	Level2	SNR	BER	BlckErr	Temp	State	Recorded	gain1	gain2
2026-01-05 04:07:06.86	30.19	2.99	-54.2	-74.1	3.8	7.45e-01	0	47	0	0	70	38081
2026-01-05 04:07:07.86	30.14	3.06	-54.0	-74.0	3.8	7.43e-01	0	47	104	0	70	37470
2026-01-05 04:07:08.84	30.09	3.12	-54.0	-73.9	3.8	7.47e-01	0	47	104	0	70	37237
2026-01-05 04:07:09.83	30.04	3.19	-53.9	-73.9	3.8	7.42e-01	0	47	104	0	70	36982
2026-01-05 04:07:10.82	29.99	3.25	-53.8	-73.6	3.8	7.45e-01	0	47	104	0	70	36098
2026-01-05 04:07:11.81	29.93	3.32	-53.7	-73.6	3.8	7.45e-01	0	47	104	0	70	35704
2026-01-05 04:07:12.80	29.88	3.38	-53.5	-73.3	3.8	7.45e-01	0	47	104	0	70	34507
2026-01-05 04:07:13.79	29.83	3.45	-53.3	-73.1	3.8	7.49e-01	0	47	104	0	70	33809
2026-01-05 04:07:14.77	29.78	3.51	-53.1	-72.8	3.8	7.45e-01	0	47	104	0	69	34817
2026-01-05 04:07:15.76	29.72	3.58	-53.1	-72.9	3.8	7.42e-01	0	47	104	0	69	34944
2026-01-05 04:07:16.76	29.67	3.64	-53.1	-72.9	3.8	7.45e-01	0	47	104	0	69	34980
2026-01-05 04:07:17.74	29.62	3.71	-53.1	-72.8	3.8	7.42e-01	0	47	104	0	69	34866
2026-01-05 04:07:18.73	29.56	3.78	-53.1	-72.8	3.8	7.44e-01	0	47	104	0	69	34858
2026-01-05 04:07:19.72	29.51	3.84	-53.1	-72.8	3.8	7.42e-01	0	47	104	0	69	34510
2026-01-05 04:07:20.71	29.45	3.91	-53.1	-72.6	3.8	7.46e-01	0	48	104	0	69	34055
2026-01-05 04:07:21.70	29.40	3.98	-53.0	-72.5	3.8	7.46e-01	0	48	104	0	69	33510
2026-01-05 04:07:22.68	29.34	4.04	-53.0	-72.3	3.8	7.44e-01	0	48	104	0	69	32785
2026-01-05 04:07:23.67	29.29	4.11	-53.0	-72.0	3.8	7.43e-01	0	48	104	0	69	31459
2026-01-05 04:07:24.66	29.23	4.18	-52.9	-71.7	3.8	7.46e-01	0	48	104	0	69	30674
2026-01-05 04:07:25.64	29.17	4.24	-52.9	-71.1	3.8	7.46e-01	0	48	104	0	69	28632
2026-01-05 04:07:26.63	29.12	4.31	-52.8	-70.5	3.8	7.46e-01	0	48	104	0	69	26740
2026-01-05 04:07:27.62	29.06	4.38	-52.6	-69.9	3.8	7.46e-01	0	48	104	0	68	26347
2026-01-05 04:07:28.60	29.00	4.44	-52.5	-69.3	3.8	7.45e-01	0	48	104	0	68	24455
2026-01-05 04:07:29.59	28.95	4.51	-52.2	-68.1	3.8	7.46e-01	0	48	104	0	68	21446
2026-01-05 04:07:30.58	28.89	4.58	-52.1	-67.7	3.8	7.42e-01	0	48	104	0	67	21617
2026-01-05 04:07:31.57	28.83	4.65	-51.7	-66.6	3.8	7.46e-01	0	48	104	0	67	19165
2026-01-05 04:07:32.56	28.77	4.72	-51.6	-66.2	3.8	7.44e-01	0	48	104	0	66	19264
2026-01-05 04:07:33.56	28.71	4.78	-51.4	-65.7	3.8	7.47e-01	0	48	104	0	66	18211
2026-01-05 04:07:34.55	28.65	4.85	-51.0	-64.9	3.8	7.44e-01	0	48	104	0	65	17541
2026-01-05 04:07:35.54	28.59	4.92	-50.9	-64.6	3.8	7.42e-01	0	49	104	0	65	16936
2026-01-05 04:07:36.53	28.54	4.99	-50.8	-64.3	3.8	7.43e-01	0	49	104	0	65	16468
2026-01-05 04:07:37.52	28.48	5.06	-50.8	-64.3	3.8	7.43e-01	0	49	104	0	65	16482
2026-01-05 04:07:38.50	28.42	5.13	-50.7	-64.3	3.8	7.44e-01	0	49	104	0	65	16339
2026-01-05 04:07:39.49	28.35	5.20	-50.9	-64.4	3.8	7.46e-01	0	49	104	0	65	16662
2026-01-05 04:07:40.48	28.29	5.27	-51.1	-65.0	3.8	7.46e-01	0	49	104	0	65	17820
2026-01-05 04:07:41.46	28.23	5.34	-51.2	-65.1	3.8	7.44e-01	0	49	104	0	65	18020
2026-01-05 04:07:42.45	28.17	5.41	-51.3	-65.5	3.8	7.46e-01	0	49	104	0	65	18881
2026-01-05 04:07:43.44	28.11	5.48	-51.6	-66.1	3.8	7.46e-01	0	49	104	0	65	20246
2026-01-05 04:07:44.43	28.05	5.55	-51.9	-66.8	3.8	7.45e-01	0	49	104	0	65	21958
2026-01-05 04:07:45.42	27.98	5.62	-52.2	-67.8	3.8	7.41e-01	0	49	104	0	66	23136
2026-01-05 04:07:46.41	27.92	5.69	-52.4	-68.6	3.8	7.43e-01	0	49	104	0	67	23997
2026-01-05 04:07:47.40	27.86	5.76	-52.6	-69.2	3.8	7.42e-01	0	49	104	0	67	25835
2026-01-05 04:07:48.39	27.79	5.83	-52.7	-69.9	3.8	7.43e-01	0	49	104	0	67	27791
2026-01-05 04:07:49.38	27.73	5.90	-52.8	-70.2	3.8	7.44e-01	0	50	104	0	67	28845
2026-01-05 04:07:50.37	27.66	5.97	-52.8	-70.3	3.8	7.47e-01	0	49	104	0	67	29161
2026-01-05 04:07:51.36	27.60	6.05	-52.8	-70.1	3.8	7.43e-01	0	49	104	0	67	28578
2026-01-05 04:07:52.35	27.53	6.12	-52.8	-70.0	3.8	7.44e-01	0	50	104	0	67	28350
2026-01-05 04:07:53.34	27.47	6.19	-52.8	-69.8	3.8	7.46e-01	0	49	104	0	67	27498
2026-01-05 04:07:54.32	27.40	6.26	-52.7	-69.6	3.8	7.47e-01	0	50	104	0	67	26988
2026-01-05 04:07:55.31	27.34	6.33	-52.7	-69.6	3.8	7.44e-01	0	50	104	0	67	26896
2026-01-05 04:07:56.30	27.27	6.41	-52.7	-69.4	3.8	7.44e-01	0	50	104	0	67	26449
2026-01-05 04:07:57.30	27.20	6.48	-52.3	-68.1	3.8	7.42e-01	0	50	104	0	67	22641
2026-01-05 04:07:58.28	27.14	6.55	-52.0	-67.0	3.8	7.44e-01	0	50	104	0	67	20048
2026-01-05 04:07:59.28	27.07	6.63	-51.6	-66.0	3.8	7.44e-01	0	50	104	0	66	18780
2026-01-05 04:08:00.26	27.00	6.70	-51.2	-65.0	3.8	7.43e-01	0	50	104	0	66	16810
2026-01-05 04:08:01.25	26.93	6.77	-50.9	-64.4	3.8	7.41e-01	0	50	104	0	65	16521
2026-01-05 04:08:02.24	26.86	6.85	-50.6	-63.7	3.8	7.46e-01	0	50	104	0	64	16232
2026-01-05 04:08:03.22	26.79	6.92	-50.6	-63.7	3.8	7.44e-01	0	50	104	0	64	16162
2026-01-05 04:08:04.21	26.72	6.99	-50.6	-63.7	3.8	7.41e-01	0	50	104	0	64	16288
2026-01-05 04:08:05.20	26.65	7.07	-50.8	-64.1	3.8	7.47e-01	0	50	104	0	64	17081
2026-01-05 04:08:06.20	26.58	7.14	-50.9	-64.3	3.8	7.44e-01	0	50	104	0	64	17439
2026-01-05 04:08:07.18	26.51	7.22	-51.1	-64.6	3.8	7.44e-01	0	50	104	0	64	18009
2026-01-05 04:08:08.17	26.44	7.29	-51.2	-64.9	3.8	7.46e-01	0	50	104	0	64	18603
2026-01-05 04:08:09.15	26.37	7.37	-51.0	-64.6	3.8	7.42e-01	0	50	104	0	64	18012
2026-01-05 04:08:10.14	26.29	7.44	-50.8	-64.0	3.8	7.41e-01	0	50	104	0	64	16872
2026-01-05 04:08:11.13	26.22	7.52	-50.6	-63.7	3.8	7.44e-01	0	51	104	0	64	16166
2026-01-05 04:08:12.12	26.15	7.59	-50.3	-63.2	3.8	7.47e-01	0	50	104	0	64	15378
2026-01-05 04:08:13.11	26.07	7.67	-50.1	-62.8	3.8	7.44e-01	0	51	104	0	63	15421
2026-01-05 04:08:14.10	26.00	7.74	-49.9	-62.4	3.8	7.45e-01	0	51	104	0	63	14852
2026-01-05 04:08:15.09	25.93	7.82	-49.7	-62.1	3.8	7.44e-01	0	50	104	0	63	14287
2026-01-05 04:08:16.09	25.85	7.90	-49.6	-61.8	3.8	7.48e-01	0	51	104	0	62	14631
2026-01-05 04:08:17.08	25.77	7.97	-49.3	-61.4	3.8	7.46e-01	0	51	104	0	62	13960
2026-01-05 04:08:18.07	25.70	8.05	-49.2	-61.3	3.8	7.48e-01	0	51	104	0	62	13757
2026-01-05 04:08:19.07	25.62	8.13	-49.1	-61.1	3.8	7.44e-01	0	51	104	0	61	14227
2026-01-05 04:08:20.06	25.54	8.21	-49.2	-61.2	3.8	7.44e-01	0	51	104	0	61	14375
2026-01-05 04:08:21.04	25.47	8.28	-49.2	-61.2	3.8	7.43e-01	0	51	104	0	61	14537
2026-01-05 04:08:22.03	25.39	8.36	-49.3	-61.4	3.8	7.44e-01	0	51	104	0	61	14830
2026-01-05 04:08:23.02	25.31	8.44	-49.5	-61.7	3.8	7.47e-01	0	51	104	0	61	15376
2026-01-05 04:08:24.01	25.23	8.52	-49.7	-62.0	3.8	7.47e-01	0	51	104	0	61	15896
2026-01-05 04:08:25.01	25.15	8.60	-50.0	-62.4	3.8	7.41e-01	0	51	104	0	62	15661
2026-01-05 04:08:26.00	25.07	8.68	-50.2	-62.9	3.8	7.45e-01	0	51	104	0	62	16560
2026-01-05 04:08:26.99	24.99	8.76	-50.5	-63.4	3.8	7.45e-01	0	51	104	0	63	16535
2026-01-05 04:08:27.96	24.91	8.83	-50.7	-63.7	3.8	7.43e-01	0	51	104	0	63	17191
2026-01-05 04:08:28.95	24.83	8.91	-50.8	-63.9	3.8	7.44e-01	0	51	104	0	64	16686
2026-01-05 04:08:29.94	24.75	8.99	-51.0	-64.4	3.8	7.45e-01	0	51	104	0	64	17512
2026-01-05 04:08:30.93	24.67	9.07	-51.3	-64.9	3.8	7.47e-01	0	51	104	0	64	18545
2026-01-05 04:08:31.92	24.59	9.15	-51.6	-65.6	3.8	7.45e-01	0	51	104	0	65	19012
2026-01-05 04:08:32.90	24.50	9.23	-51.4	-65.0	3.8	7.45e-01	0	51	104	0	65	17850
2026-01-05 04:08:33.90	24.42	9.31	-51.6	-65.5	3.8	7.45e-01	0	51	104	0	65	18912
2026-01-05 04:08:34.88	24.33	9.39	-52.0	-66.5	3.8	7.47e-01	0	51	104	0	66	19871
2026-01-05 04:08:35.87	24.25	9.47	-52.3	-67.2	3.8	7.42e-01	0	51	104	0	66	21721
2026-01-05 04:08:36.86	24.16	9.55	-52.5	-68.0	3.8	7.41e-01	0	51	104	0	67	22461
2026-01-05 04:08:37.85	24.08	9.64	-52.8	-68.8	3.8	7.45e-01	0	51	104	0	67	24565
2026-01-05 04:08:38.84	23.99	9.72	-53.0	-69.5	3.8	7.46e-01	0	51	104	0	68	25152
2026-01-05 04:08:39.84	23.90	9.80	-53.0	-69.5	3.8	7.43e-01	0	52	104	0	68	25088
2026-01-05 04:08:40.83	23.82	9.88	-52.9	-69.4	3.8	7.42e-01	0	52	104	0	68	24768
2026-01-05 04:08:41.83	23.73	9.97	-52.9	-69.2	3.8	7.45e-01	0	52	104	0	68	24408
2026-01-05 04:08:42.81	23.64	10.05	-52.9	-69.2	3.8	7.45e-01	0	52	104	0	68	24164
2026-01-05 04:08:43.81	23.55	10.13	-52.9	-69.1	3.8	7.43e-01	0	52	104	0	68	24027
2026-01-05 04:08:44.80	23.46	10.22	-52.9	-69.0	3.8	7.44e-01	0	52	104	0	68	23809
2026-01-05 04:08:45.79	23.37	10.30	-52.9	-69.0	3.8	7.47e-01	0	52	104	0	68	23658
2026-01-05 04:08:46.77	23.28	10.38	-52.6	-67.9	3.8	7.47e-01	0	52	104	0	68	20952
2026-01-05 04:08:47.76	23.19	10.47	-52.1	-66.6	3.8	7.45e-01	0	52	104	0	67	19089
2026-01-05 04:08:48.76	23.09	10.55	-51.6	-65.4	3.8	7.43e-01	0	52	104	0	66	17677
2026-01-05 04:08:49.75	23.00	10.64	-51.1	-64.4	3.8	7.44e-01	0	52	104	0	65	16678
2026-01-05 04:08:50.74	22.91	10.72	-50.7	-63.7	3.8	7.44e-01	0	52	104	0	65	15230
2026-01-05 04:08:51.73	22.81	10.80	-50.3	-62.9	3.8	7.45e-01	0	52	104	0	64	14807
2026-01-05 04:08:52.72	22.72	10.89	-50.3	-62.8	3.8	7.43e-01	0	52	104	0	63	15427
2026-01-05 04:08:53.70	22.62	10.97	-50.4	-63.1	3.8	7.45e-01	0	52	104	0	63	15953
2026-01-05 04:08:54.70	22.53	11.06	-50.6	-63.4	3.8	7.48e-01	0	52	104	0	63	16564
2026-01-05 04:08:55.69	22.43	11.15	-50.9	-63.8	3.8	7.45e-01	0	52	104	0	63	17462
2026-01-05 04:08:56.69	22.33	11.23	-50.7	-63.5	3.8	7.41e-01	0	52	104	0	64	15903
2026-01-05 04:08:57.67	22.24	11.32	-50.4	-63.2	3.8	7.45e-01	0	52	104	0	64	15259
2026-01-05 04:08:58.66	22.14	11.41	-50.3	-62.8	3.8	7.44e-01	0	52	104	0	63	15464
2026-01-05 04:08:59.66	22.04	11.49	-50.0	-62.4	3.8	7.44e-01	0	52	104	0	63	14781
2026-01-05 04:09:00.66	21.94	11.58	-49.7	-62.0	3.8	7.44e-01	0	52	104	0	63	14060
2026-01-05 04:09:01.64	21.84	11.67	-49.5	-61.5	3.8	7.44e-01	0	52	104	0	62	14079
2026-01-05 04:09:02.64	21.74	11.76	-49.2	-61.1	3.8	7.46e-01	0	52	104	0	61	14213
2026-01-05 04:09:03.63	21.63	11.85	-48.9	-60.7	3.8	7.43e-01	0	52	104	0	61	13614
2026-01-05 04:09:04.62	21.53	11.93	-48.8	-60.5	3.8	7.46e-01	0	52	104	0	61	13289
2026-01-05 04:09:05.62	21.43	12.02	-48.6	-60.3	3.8	7.43e-01	0	53	104	0	60	13773
2026-01-05 04:09:06.61	21.32	12.11	-48.6	-60.2	3.8	7.42e-01	0	52	104	0	60	13666
2026-01-05 04:09:07.60	21.22	12.20	-48.5	-60.1	3.8	7.45e-01	0	52	104	0	60	13534
2026-01-05 04:09:08.59	21.11	12.29	-48.6	-60.2	3.8	7.45e-01	0	52	104	0	60	13725
2026-01-05 04:09:09.58	21.01	12.38	-48.7	-60.5	3.8	7.46e-01	0	52	104	0	60	14058
2026-01-05 04:09:10.57	20.90	12.47	-49.0	-60.7	3.8	7.40e-01	0	52	104	0	60	14540
2026-01-05 04:09:11.57	20.79	12.56	-49.2	-61.1	3.8	7.45e-01	0	52	104	0	60	15092
2026-01-05 04:09:12.56	20.68	12.65	-49.3	-61.3	3.8	7.43e-01	0	52	104	0	60	15462
2026-01-05 04:09:13.55	20.58	12.74	-49.6	-61.6	3.8	7.47e-01	0	52	104	0	61	15192
2026-01-05 04:09:14.55	20.46	12.84	-49.7	-61.9	3.8	7.49e-01	0	53	104	0	61	15684
2026-01-05 04:09:15.54	20.35	12.93	-50.0	-62.3	3.8	7.45e-01	0	53	104	0	62	15464
2026-01-05 04:09:16.52	20.24	13.02	-50.3	-62.8	3.8	7.45e-01	0	53	104	0	62	16468
2026-01-05 04:09:17.52	20.13	13.11	-50.6	-63.4	3.8	7.44e-01	0	53	104	0	63	16596
2026-01-05 04:09:18.51	20.02	13.20	-50.9	-63.9	3.8	7.42e-01	0	53	104	0	64	16688
2026-01-05 04:09:19.50	19.90	13.29	-51.2	-64.6	3.8	7.43e-01	0	53	104	0	64	17955
2026-01-05 04:09:20.49	19.79	13.39	-51.2	-64.6	3.8	7.43e-01	0	53	104	0	65	16947
2026-01-05 04:09:21.47	19.68	13.48	-50.9	-63.9	3.8	7.46e-01	0	53	104	0	65	15596
2026-01-05 04:09:22.46	19.56	13.57	-50.6	-63.3	3.8	7.46e-01	0	53	104	0	64	15442
2026-01-05 04:09:23.46	19.44	13.67	-50.6	-63.3	3.8	7.46e-01	0	53	104	0	64	15494
2026-01-05 04:09:24.46	19.32	13.76	-51.0	-64.0	3.8	7.42e-01	0	53	104	0	64	16865
2026-01-05 04:09:25.45	19.21	13.86	-51.4	-64.9	3.8	7.42e-01	0	53	104	0	65	17645
2026-01-05 04:09:26.45	19.09	13.95	-51.9	-65.9	3.8	7.45e-01	0	53	104	0	65	19787
2026-01-05 04:09:27.43	18.97	14.05	-52.3	-66.9	3.8	7.45e-01	0	53	104	0	66	20835
2026-01-05 04:09:28.42	18.85	14.14	-52.6	-67.8	3.8	7.45e-01	0	53	104	0	67	21867
2026-01-05 04:09:29.41	18.72	14.24	-52.7	-68.2	3.8	7.43e-01	0	53	104	0	67	22976
2026-01-05 04:09:30.40	18.60	14.33	-52.7	-68.1	3.8	7.45e-01	0	53	104	0	67	22669
2026-01-05 04:09:31.39	18.48	14.43	-52.6	-68.0	3.8	7.48e-01	0	53	104	0	67	22393
2026-01-05 04:09:32.37	18.35	14.52	-52.6	-67.9	3.8	7.45e-01	0	53	104	0	67	22181
2026-01-05 04:09:33.37	18.23	14.62	-52.6	-68.0	3.8	7.45e-01	0	53	104	0	67	22306
2026-01-05 04:09:34.35	18.10	14.72	-52.6	-68.0	3.8	7.41e-01	0	53	104	0	67	22320
2026-01-05 04:09:35.35	17.98	14.81	-52.7	-68.0	3.8	7.43e-01	0	53	104	0	67	22371
2026-01-05 04:09:36.34	17.85	14.91	-52.6	-67.7	3.8	7.43e-01	0	53	104	0	67	21621
2026-01-05 04:09:37.33	17.72	15.01	-52.0	-66.2	3.8	7.46e-01	0	53	104	0	67	18177
2026-01-05 04:09:38.31	17.59	15.11	-51.6	-65.1	3.8	7.44e-01	0	53	104	0	66	16966
2026-01-05 04:09:39.30	17.46	15.20	-51.0	-64.0	3.8	7.45e-01	0	53	104	0	65	15821
2026-01-05 04:09:40.29	17.33	15.30	-50.6	-63.2	3.8	7.45e-01	0	53	104	0	64	15390
2026-01-05 04:09:41.28	17.20	15.40	-50.2	-62.7	3.8	7.40e-01	0	53	104	0	64	14379
2026-01-05 04:09:42.27	17.06	15.50	-50.1	-62.4	3.8	7.42e-01	0	53	104	0	63	14769
2026-01-05 04:09:43.25	16.93	15.60	-50.3	-62.8	3.8	7.46e-01	0	53	104	0	63	15440
2026-01-05 04:09:44.24	16.79	15.70	-50.5	-63.1	3.8	7.42e-01	0	53	104	0	63	16019
2026-01-05 04:09:45.24	16.66	15.80	-50.2	-62.6	3.8	7.46e-01	0	53	104	0	63	15146
2026-01-05 04:09:46.23	16.52	15.90	-49.9	-62.2	3.8	7.47e-01	0	53	104	0	63	14397
2026-01-05 04:09:47.22	16.38	16.00	-49.7	-61.8	3.8	7.44e-01	0	53	104	0	63	13871
2026-01-05 04:09:48.21	16.24	16.10	-49.6	-61.6	3.8	7.47e-01	0	54	104	0	62	14250
2026-01-05 04:09:49.20	16.10	16.20	-49.2	-61.0	3.8	7.46e-01	0	54	104	0	62	13405
2026-01-05 04:09:50.19	15.96	16.30	-48.9	-60.6	3.8	7.43e-01	0	53	104	0	61	13497
2026-01-05 04:09:51.18	15.81	16.40	-48.6	-60.2	3.8	7.47e-01	0	53	104	0	60	13684
2026-01-05 04:09:52.17	15.67	16.51	-48.4	-59.9	3.8	7.42e-01	0	54	104	0	60	13143
2026-01-05 04:09:53.16	15.53	16.61	-48.5	-60.0	3.8	7.45e-01	0	54	104	0	59	14094
2026-01-05 04:09:54.16	15.38	16.71	-48.3	-59.8	3.8	7.42e-01	0	54	104	0	59	13781
2026-01-05 04:09:55.14	15.23	16.81	-48.3	-59.7	3.8	7.47e-01	0	53	104	0	59	13726
2026-01-05 04:09:56.13	15.09	16.92	-48.4	-59.8	3.8	7.45e-01	0	54	104	0	59	13804
2026-01-05 04:09:57.12	14.94	17.02	-48.5	-60.0	3.8	7.44e-01	0	54	104	0	59	14177
2026-01-05 04:09:58.11	14.79	17.13	-48.8	-60.4	3.8	7.46e-01	0	54	104	0	59	14737
2026-01-05 04:09:59.09	14.64	17.23	-48.8	-60.4	3.8	7.46e-01	0	54	104	0	60	13988
2026-01-05 04:10:00.08	14.48	17.33	-49.2	-61.0	3.8	7.40e-01	0	54	104	0	60	14885
2026-01-05 04:10:01.08	14.33	17.44	-49.6	-61.7	3.8	7.44e-01	0	54	104	0	61	15249
2026-01-05 04:10:02.06	14.18	17.54	-49.7	-61.8	3.8	7.45e-01	0	54	104	0	61	15565
2026-01-05 04:10:03.05	14.02	17.65	-49.9	-62.0	3.8	7.42e-01	0	54	104	0	62	15047
2026-01-05 04:10:04.04	13.86	17.75	-50.1	-62.3	3.8	7.44e-01	0	54	104	0	62	15512
2026-01-05 04:10:05.03	13.70	17.86	-50.3	-62.8	3.8	7.46e-01	0	54	104	0	62	16350
2026-01-05 04:10:06.02	13.54	17.96	-50.6	-63.2	3.8	7.46e-01	0	54	104	0	63	16165
2026-01-05 04:10:07.02	13.38	18.07	-50.8	-63.7	3.9	7.42e-01	0	54	104	0	64	16201
2026-01-05 04:10:08.01	13.22	18.18	-51.2	-64.4	3.8	7.43e-01	0	54	104	0	64	17617
2026-01-05 04:10:09.00	13.06	18.29	-50.9	-63.9	3.8	7.44e-01	0	54	104	0	64	16561
2026-01-05 04:10:09.98	12.89	18.39	-50.6	-63.3	3.8	7.44e-01	0	54	104	0	64	15419
2026-01-05 04:10:10.97	12.73	18.50	-50.2	-62.6	3.8	7.43e-01	0	54	104	0	64	14366
2026-01-05 04:10:11.96	12.56	18.61	-50.0	-62.2	3.8	7.43e-01	0	54	104	0	63	14430
2026-01-05 04:10:12.95	12.39	18.71	-49.8	-61.8	3.8	7.42e-01	0	54	104	0	63	13827
2026-01-05 04:10:13.94	12.22	18.82	-50.1	-62.3	3.8	7.47e-01	0	54	104	0	63	14600
2026-01-05 04:10:14.93	12.05	18.93	-50.5	-62.9	3.8	7.43e-01	0	54	104	0	63	15708
2026-01-05 04:10:15.92	11.88	19.04	-50.9	-63.7	3.8	7.44e-01	0	54	104	0	64	16276
2026-01-05 04:10:16.90	11.71	19.15	-51.4	-64.7	3.8	7.43e-01	0	54	104	0	64	18169
2026-01-05 04:10:17.89	11.53	19.26	-52.0	-65.9	3.9	7.44e-01	0	54	104	0	66	18727
2026-01-05 04:10:18.88	11.36	19.37	-52.4	-67.1	3.8	7.44e-01	0	54	104	0	67	20212
2026-01-05 04:10:19.87	11.18	19.48	-52.5	-67.1	3.8	7.47e-01	0	54	104	0	67	20288
2026-01-05 04:10:20.85	11.00	19.59	-52.5	-67.2	3.8	7.44e-01	0	54	104	0	67	20331
2026-01-05 04:10:21.84	10.82	19.70	-52.4	-66.9	3.8	7.43e-01	0	54	104	0	67	19717
2026-01-05 04:10:22.82	10.64	19.80	-52.5	-67.3	3.8	7.42e-01	0	54	104	0	67	20663
2026-01-05 04:10:23.80	10.46	19.91	-52.5	-67.3	3.8	7.46e-01	0	54	104	0	67	20705
2026-01-05 04:10:24.80	10.27	20.03	-52.7	-67.7	3.8	7.46e-01	0	54	104	0	67	21623
2026-01-05 04:10:25.78	10.09	20.14	-52.7	-68.0	3.8	7.45e-01	0	54	104	0	67	22346
2026-01-05 04:10:26.77	9.90	20.25	-52.4	-67.0	3.8	7.44e-01	0	54	104	0	67	19896
2026-01-05 04:10:27.76	9.71	20.36	-52.1	-66.2	3.8	7.40e-01	0	54	104	0	67	18115
2026-01-05 04:10:28.75	9.52	20.47	-51.5	-64.9	3.8	7.44e-01	0	54	104	0	66	16536
2026-01-05 04:10:29.74	9.33	20.58	-51.3	-64.4	3.8	7.44e-01	0	54	104	0	66	15728
2026-01-05 04:10:30.73	9.14	20.70	-50.9	-63.7	3.8	7.46e-01	0	54	104	0	65	15298
2026-01-05 04:10:31.72	8.94	20.81	-50.5	-63.1	3.8	7.43e-01	0	54	104	0	64	15122
2026-01-05 04:10:32.72	8.75	20.92	-50.2	-62.6	3.8	7.45e-01	0	54	104	0	63	15107
2026-01-05 04:10:33.71	8.55	21.04	-50.0	-62.1	3.8	7.45e-01	0	54	104	0	63	14373
2026-01-05 04:10:34.70	8.35	21.15	-49.7	-61.7	3.8	7.49e-01	0	54	104	0	62	14406
2026-01-05 04:10:35.69	8.15	21.26	-49.6	-61.7	3.8	7.43e-01	0	54	104	0	62	14384
2026-01-05 04:10:36.68	7.94	21.38	-49.7	-61.9	3.8	7.43e-01	0	55	104	0	62	14820
2026-01-05 04:10:37.67	7.74	21.49	-49.8	-62.3	3.8	7.45e-01	0	54	104	0	62	15449
2026-01-05 04:10:38.66	7.53	21.60	-49.7	-62.3	3.8	7.42e-01	0	54	104	0	62	15509
2026-01-05 04:10:39.66	7.32	21.72	-49.8	-62.7	3.8	7.42e-01	0	54	104	0	62	16241
2026-01-05 04:10:40.65	7.12	21.83	-49.9	-63.1	3.8	7.45e-01	0	54	104	0	62	17001
2026-01-05 04:10:41.64	6.90	21.95	-50.2	-63.9	3.8	7.47e-01	0	55	104	0	62	18672
2026-01-05 04:10:42.62	6.69	22.06	-50.6	-65.2	3.8	7.46e-01	0	55	104	0	63	20455
2026-01-05 04:10:43.61	6.48	22.18	-50.9	-66.6	3.8	7.45e-01	0	54	104	0	64	22750
2026-01-05 04:10:44.60	6.26	22.29	-51.2	-67.7	3.8	7.46e-01	0	54	104	0	64	25580
2026-01-05 04:10:45.59	6.05	22.41	-51.2	-67.9	3.8	7.42e-01	0	55	104	0	64	26344
2026-01-05 04:10:46.59	5.82	22.52	-51.2	-67.4	3.8	7.48e-01	0	55	104	0	64	24786
2026-01-05 04:10:47.57	5.61	22.64	-51.3	-67.2	3.8	7.47e-01	0	55	104	0	64	24219
2026-01-05 04:10:48.57	5.38	22.75	-51.5	-67.2	3.8	7.44e-01	0	55	104	0	65	22810
2026-01-05 04:10:49.57	5.15	22.87	-51.7	-67.5	3.8	7.47e-01	0	55	104	0	65	23632
2026-01-05 04:10:50.55	4.93	22.98	-51.7	-67.5	3.8	7.44e-01	0	55	104	0	65	23704
2026-01-05 04:10:51.55	4.70	23.10	-51.5	-66.9	3.8	7.44e-01	0	54	104	0	65	22090
2026-01-05 04:10:52.53	4.47	23.22	-51.5	-67.1	3.8	7.47e-01	0	55	104	0	65	22542
2026-01-05 04:10:53.52	4.24	23.33	-51.4	-67.0	3.8	7.44e-01	0	55	104	0	65	22295
2026-01-05 04:10:54.52	4.00	23.45	-51.2	-66.5	3.8	7.45e-01	0	55	104	0	65	21037
2026-01-05 04:10:55.50	3.77	23.56	-51.2	-66.1	3.8	7.46e-01	0	55	104	0	65	20287
2026-01-05 04:10:56.49	3.53	23.68	-51.2	-65.8	3.8	7.47e-01	0	54	104	0	65	19538
2026-01-05 04:10:57.49	3.29	23.80	-51.2	-65.5	3.8	7.48e-01	0	55	104	0	65	18807
2026-01-05 04:10:58.48	3.05	23.91	-50.9	-64.4	3.8	7.44e-01	0	55	104	0	65	16674
2026-01-05 04:10:59.47	2.81	24.03	-50.4	-63.2	3.8	7.43e-01	0	55	104	0	64	15321
2026-01-05 04:11:00.46	2.56	24.15	-50.0	-62.4	3.8	7.44e-01	0	55	104	0	63	14748
2026-01-05 04:11:01.45	2.32	24.26	-49.7	-61.8	3.8	7.49e-01	0	55	104	0	63	13818
2026-01-05 04:11:02.43	2.07	24.38	-49.5	-61.5	3.8	7.45e-01	0	55	104	0	62	14087
2026-01-05 04:11:03.43	1.82	24.49	-49.5	-61.4	3.8	7.45e-01	0	55	104	0	62	14039
2026-01-05 04:11:04.41	1.57	24.61	-49.9	-62.0	3.8	7.45e-01	0	55	104	0	62	14990
2026-01-05 04:11:05.41	1.31	24.73	-50.4	-62.8	3.8	7.42e-01	0	55	104	0	62	16338
2026-01-05 04:11:06.40	1.05	24.84	-50.8	-63.4	3.8	7.43e-01	0	55	104	0	63	16671
2026-01-05 04:11:07.39	0.80	24.96	-51.2	-64.3	3.8	7.46e-01	0	55	104	0	64	17431
2026-01-05 04:11:08.38	0.54	25.07	-51.8	-65.4	3.8	7.43e-01	0	55	104	0	65	18634
2026-01-05 04:11:09.37	0.27	25.19	-52.2	-66.3	3.8	7.42e-01	0	55	104	0	66	19391
2026-01-05 04:11:10.35	0.01	25.31	-52.1	-66.2	3.8	7.46e-01	0	55	104	0	66	19258
2026-01-05 04:11:11.34	359.74	25.42	-52.2	-66.4	3.8	7.42e-01	0	55	104	0	66	19703
2026-01-05 04:11:12.34	359.47	25.54	-52.3	-66.6	3.8	7.44e-01	0	55	104	0	66	20145
2026-01-05 04:11:13.33	359.20	25.65	-52.5	-67.1	3.8	7.47e-01	0	55	104	0	67	20080
2026-01-05 04:11:14.33	358.93	25.77	-52.6	-67.3	3.8	7.48e-01	0	55	104	0	67	20620
2026-01-05 04:11:15.32	358.65	25.88	-52.4	-66.8	3.8	7.46e-01	0	55	104	0	67	19460
2026-01-05 04:11:16.31	358.37	26.00	-52.1	-66.1	3.8	7.45e-01	0	55	104	0	67	18033
2026-01-05 04:11:17.30	358.10	26.11	-51.6	-64.9	3.8	7.47e-01	0	55	104	0	66	16614
2026-01-05 04:11:18.30	357.81	26.23	-51.1	-63.9	3.8	7.42e-01	0	55	104	0	65	15726
2026-01-05 04:11:19.29	357.53	26.34	-50.6	-63.2	3.8	7.44e-01	0	55	104	0	64	15249
2026-01-05 04:11:20.27	357.25	26.46	-50.2	-62.5	3.8	7.44e-01	0	55	104	0	64	14059
2026-01-05 04:11:21.26	356.96	26.57	-49.9	-62.0	3.8	7.43e-01	0	55	104	0	63	14104
2026-01-05 04:11:22.25	356.67	26.68	-49.6	-61.5	3.8	7.44e-01	0	55	104	0	62	14082
2026-01-05 04:11:23.25	356.37	26.80	-49.3	-61.0	3.8	7.46e-01	0	55	104	0	62	13329
2026-01-05 04:11:24.24	356.08	26.91	-49.1	-60.8	3.8	7.44e-01	0	55	104	0	61	13786
2026-01-05 04:11:25.24	355.78	27.03	-49.0	-60.7	3.8	7.44e-01	0	55	104	0	61	13658
2026-01-05 04:11:26.22	355.48	27.14	-49.0	-60.7	3.8	7.44e-01	0	55	104	0	61	13570
2026-01-05 04:11:27.22	355.18	27.25	-49.1	-60.8	3.8	7.44e-01	0	55	104	0	61	13816
2026-01-05 04:11:28.20	354.88	27.36	-49.2	-61.0	3.8	7.45e-01	0	55	104	0	61	14075
2026-01-05 04:11:29.19	354.57	27.47	-49.0	-60.6	3.8	7.41e-01	0	55	104	0	61	13480
2026-01-05 04:11:30.18	354.27	27.58	-48.7	-60.2	3.8	7.44e-01	0	55	104	0	61	12922
2026-01-05 04:11:31.17	353.96	27.69	-48.5	-59.9	3.8	7.44e-01	0	55	104	0	60	13205
2026-01-05 04:11:32.16	353.64	27.80	-48.3	-59.7	3.8	7.40e-01	0	55	104	0	60	12900
2026-01-05 04:11:33.13	353.34	27.91	-48.2	-59.6	3.8	7.44e-01	0	55	104	0	60	12773
2026-01-05 04:11:34.13	353.02	28.02	-48.6	-59.9	3.8	7.43e-01	0	55	104	0	59	14046
2026-01-05 04:11:35.12	352.70	28.13	-48.8	-60.3	3.8	7.46e-01	0	55	104	0	59	14637
2026-01-05 04:11:36.11	352.38	28.24	-48.9	-60.5	3.8	7.47e-01	0	55	104	0	60	14109
2026-01-05 04:11:37.10	352.05	28.35	-49.3	-61.1	3.8	7.43e-01	0	55	104	0	60	15105
2026-01-05 04:11:38.09	351.73	28.45	-49.9	-62.0	3.8	7.43e-01	0	55	104	0	62	14959
2026-01-05 04:11:39.08	351.40	28.56	-49.3	-61.0	3.8	7.42e-01	0	55	104	0	62	13308
2026-01-05 04:11:40.07	351.07	28.66	-48.7	-60.3	3.8	7.46e-01	0	55	104	0	61	13006
2026-01-05 04:11:41.06	350.74	28.77	-48.4	-59.8	3.8	7.44e-01	0	55	104	0	60	13059
2026-01-05 04:11:42.05	350.40	28.87	-48.4	-59.8	3.8	7.46e-01	0	55	104	0	60	13054
2026-01-05 04:11:43.04	350.06	28.98	-48.4	-59.8	3.8	7.42e-01	0	55	104	0	60	13017
2026-01-05 04:11:44.03	349.72	29.08	-48.5	-60.0	3.8	7.45e-01	0	55	104	0	60	13386
2026-01-05 04:11:45.01	349.39	29.18	-48.7	-60.2	3.8	7.45e-01	0	55	104	0	60	13631
2026-01-05 04:11:45.99	349.05	29.28	-48.8	-60.4	3.8	7.46e-01	0	55	104	0	60	13949
2026-01-05 04:11:46.98	348.70	29.39	-49.2	-60.9	3.8	7.43e-01	0	55	104	0	60	14715
2026-01-05 04:11:47.97	348.35	29.49	-49.0	-60.6	3.8	7.42e-01	0	55	104	0	60	14357
2026-01-05 04:11:48.96	348.00	29.59	-48.8	-60.3	3.8	7.46e-01	0	55	104	0	60	13800
2026-01-05 04:11:49.95	347.65	29.68	-48.6	-60.1	3.8	7.47e-01	0	55	104	0	60	13506
2026-01-05 04:11:50.94	347.29	29.78	-48.6	-60.0	3.8	7.44e-01	0	55	104	0	60	13402
2026-01-05 04:11:51.92	346.94	29.88	-48.7	-60.2	3.8	7.43e-01	0	55	104	0	60	13640
2026-01-05 04:11:52.91	346.58	29.97	-48.9	-60.5	3.8	7.47e-01	0	55	104	0	60	14183
2026-01-05 04:11:53.90	346.22	30.07	-49.1	-60.8	3.8	7.46e-01	0	55	104	0	60	14588
2026-01-05 04:11:54.89	345.85	30.16	-49.4	-61.3	3.8	7.43e-01	0	55	104	0	61	14548
2026-01-05 04:11:55.88	345.49	30.26	-49.8	-61.8	3.8	7.46e-01	0	56	104	0	61	15415
2026-01-05 04:11:56.87	345.12	30.35	-50.2	-62.4	3.8	7.45e-01	0	55	104	0	62	15739
2026-01-05 04:11:57.87	344.74	30.44	-50.8	-63.3	3.8	7.45e-01	0	56	104	0	63	16484
2026-01-05 04:11:58.85	344.37	30.53	-51.2	-64.2	3.8	7.45e-01	0	56	104	0	64	17242
2026-01-05 04:11:59.84	344.00	30.62	-51.5	-64.7	3.8	7.47e-01	0	55	104	0	65	17226
2026-01-05 04:12:00.83	343.62	30.71	-51.7	-65.2	3.8	7.47e-01	0	56	104	0	65	18144
2026-01-05 04:12:01.82	343.24	30.80	-52.0	-65.8	3.8	7.47e-01	0	55	104	0	66	18464
2026-01-05 04:12:02.80	342.87	30.88	-51.9	-65.4	3.8	7.44e-01	0	56	104	0	66	17605
2026-01-05 04:12:03.78	342.49	30.97	-51.6	-64.9	3.8	7.43e-01	0	55	104	0	66	16552
2026-01-05 04:12:04.77	342.10	31.05	-51.4	-64.5	3.8	7.45e-01	0	56	104	0	66	15826
2026-01-05 04:12:05.76	341.71	31.13	-51.2	-64.1	3.8	7.41e-01	0	55	104	0	66	15186
2026-01-05 04:12:06.75	341.32	31.22	-50.7	-63.3	3.8	7.47e-01	0	56	104	0	65	14573
2026-01-05 04:12:07.74	340.93	31.30	-50.2	-62.4	3.8	7.45e-01	0	56	104	0	63	14809
2026-01-05 04:12:08.73	340.54	31.37	-49.7	-61.6	3.8	7.45e-01	0	56	104	0	63	13515
2026-01-05 04:12:09.72	340.14	31.45	-49.3	-61.1	3.8	7.43e-01	0	56	104	0	62	13445
2026-01-05 04:12:10.71	339.74	31.53	-49.0	-60.5	3.8	7.43e-01	0	56	104	0	61	13377
2026-01-05 04:12:11.71	339.34	31.60	-48.7	-60.2	3.8	7.45e-01	0	55	104	0	61	12949
2026-01-05 04:12:12.70	338.94	31.68	-48.6	-60.0	3.8	7.46e-01	0	56	104	0	60	13413
2026-01-05 04:12:13.68	338.54	31.75	-48.5	-59.9	3.8	7.44e-01	0	56	104	0	60	13202
2026-01-05 04:12:14.67	338.13	31.82	-48.4	-59.8	3.8	7.47e-01	0	56	104	0	60	13019
2026-01-05 04:12:15.66	337.73	31.89	-48.6	-60.1	3.8	7.45e-01	0	56	104	0	60	13433
2026-01-05 04:12:16.66	337.31	31.96	-48.8	-60.4	3.8	7.45e-01	0	56	104	0	60	14007
2026-01-05 04:12:17.65	336.90	32.03	-49.2	-60.9	3.8	7.48e-01	0	55	104	0	60	14838
2026-01-05 04:12:18.63	336.49	32.09	-49.2	-60.9	3.8	7.45e-01	0	55	104	0	60	14751
2026-01-05 04:12:19.62	336.08	32.16	-48.9	-60.5	3.8	7.46e-01	0	56	104	0	60	14070
2026-01-05 04:12:20.61	335.66	32.22	-48.7	-60.3	3.8	7.46e-01	0	55	104	0	60	13757
2026-01-05 04:12:21.60	335.25	32.28	-48.6	-60.1	3.8	7.42e-01	0	56	104	0	60	13553
2026-01-05 04:12:22.59	334.83	32.34	-48.5	-60.0	3.8	7.43e-01	0	56	104	0	60	13316
2026-01-05 04:12:23.57	334.41	32.39	-48.6	-60.0	3.8	7.48e-01	0	56	104	0	60	13299
2026-01-05 04:12:24.56	333.99	32.45	-48.9	-60.5	3.8	7.44e-01	0	56	104	0	60	14138
2026-01-05 04:12:25.55	333.57	32.51	-49.3	-61.1	3.8	7.46e-01	0	56	104	0	60	15075
2026-01-05 04:12:26.53	333.14	32.56	-49.4	-61.2	3.8	7.44e-01	0	56	104	0	61	14399
2026-01-05 04:12:27.52	332.72	32.61	-48.9	-60.4	3.8	7.46e-01	0	56	104	0	61	13232
2026-01-05 04:12:28.51	332.29	32.66	-48.5	-60.0	3.8	7.45e-01	0	56	104	0	60	13334
2026-01-05 04:12:29.49	331.86	32.71	-48.4	-59.8	3.8	7.43e-01	0	56	104	0	60	13109
2026-01-05 04:12:30.49	331.43	32.75	-48.3	-59.6	3.8	7.46e-01	0	56	104	0	60	12798
2026-01-05 04:12:31.48	331.00	32.80	-48.4	-59.8	3.8	7.44e-01	0	55	104	0	59	13783
2026-01-05 04:12:32.47	330.57	32.84	-48.4	-59.8	3.8	7.43e-01	0	56	104	0	59	13752
2026-01-05 04:12:33.46	330.13	32.88	-48.5	-59.8	3.8	7.43e-01	0	56	104	0	59	13857
2026-01-05 04:12:34.46	329.69	32.92	-48.6	-60.0	3.8	7.43e-01	0	56	104	0	59	14150
2026-01-05 04:12:35.44	329.26	32.96	-48.6	-60.0	3.8	7.45e-01	0	56	104	0	59	14156
2026-01-05 04:12:36.43	328.82	32.99	-48.7	-60.1	3.8	7.45e-01	0	56	104	0	59	14307
2026-01-05 04:12:37.42	328.38	33.03	-48.5	-60.0	3.8	7.42e-01	0	56	104	0	60	13327
2026-01-05 04:12:38.41	327.94	33.06	-48.6	-60.0	3.8	7.43e-01	0	56	104	0	60	13313
2026-01-05 04:12:39.40	327.50	33.09	-48.8	-60.4	3.8	7.45e-01	0	56	104	0	60	13975
2026-01-05 04:12:40.39	327.06	33.12	-49.0	-60.5	3.8	7.42e-01	0	56	104	0	60	14130
2026-01-05 04:12:41.37	326.63	33.14	-49.3	-60.9	3.8	7.42e-01	0	56	104	0	60	14828
2026-01-05 04:12:42.36	326.18	33.17	-49.8	-61.8	3.8	7.43e-01	0	56	104	0	61	15530
2026-01-05 04:12:43.35	325.74	33.19	-50.3	-62.5	3.8	7.46e-01	0	56	104	0	62	15893
2026-01-05 04:12:44.34	325.30	33.21	-50.3	-62.4	3.8	7.47e-01	0	56	104	0	62	15725
2026-01-05 04:12:45.33	324.85	33.23	-50.4	-62.6	3.8	7.43e-01	0	56	104	0	63	15207
2026-01-05 04:12:46.32	324.41	33.25	-50.7	-63.2	3.8	7.42e-01	0	56	104	0	63	16163
2026-01-05 04:12:47.30	323.97	33.26	-50.9	-63.7	3.8	7.45e-01	0	56	104	0	64	16156
2026-01-05 04:12:48.30	323.52	33.27	-51.2	-64.1	3.8	7.43e-01	0	56	104	0	64	17028
2026-01-05 04:12:49.29	323.07	33.29	-51.6	-64.8	3.8	7.45e-01	0	56	104	0	65	17403
2026-01-05 04:12:50.28	322.62	33.29	-51.8	-65.2	3.8	7.45e-01	0	56	104	0	66	17159
2026-01-05 04:12:51.27	322.18	33.30	-51.5	-64.7	3.8	7.45e-01	0	56	104	0	66	16142
2026-01-05 04:12:52.26	321.73	33.31	-51.3	-64.2	3.8	7.46e-01	0	56	104	0	66	15368
2026-01-05 04:12:53.25	321.28	33.31	-51.0	-63.6	3.8	7.43e-01	0	56	104	0	65	15191
2026-01-05 04:12:54.25	320.83	33.31	-50.7	-63.1	3.9	7.38e-01	0	56	104	0	65	14251
2026-01-05 04:12:55.24	320.39	33.31	-50.5	-62.7	3.8	7.42e-01	0	56	104	0	64	14537
2026-01-05 04:12:56.23	319.94	33.31	-50.5	-53.4	19.5	6.03e-01	0	56	0	1048576	64	4946
2026-01-05 04:12:57.22	319.49	33.31	-50.8	-54.1	19.0	6.04e-01	0	56	0	3145728	64	5364
2026-01-05 04:12:58.21	319.04	33.30	-50.3	-53.1	19.9	6.04e-01	0	56	0	4718592	64	4800
2026-01-05 04:12:59.19	318.60	33.29	-49.9	-52.4	20.8	6.03e-01	0	56	0	6815744	63	4656
2026-01-05 04:13:00.17	318.16	33.28	-49.5	-51.8	21.3	6.03e-01	0	56	0	8388608	62	4617
2026-01-05 04:13:01.16	317.71	33.27	-49.1	-51.2	21.9	6.03e-01	0	56	0	9961472	61	4565
2026-01-05 04:13:02.15	317.27	33.26	-48.9	-50.9	22.2	6.06e-01	0	56	0	12058624	61	4413
2026-01-05 04:13:03.14	316.82	33.24	-48.5	-50.4	22.6	6.02e-01	0	56	0	14155776	60	4423
2026-01-05 04:13:04.14	316.37	33.22	-48.2	-50.0	23.0	6.04e-01	0	56	0	15728640	60	4203
2026-01-05 04:13:05.12	315.94	33.20	-48.2	-49.9	23.0	6.02e-01	0	56	0	17825792	60	4182
2026-01-05 04:13:06.11	315.49	33.18	-48.6	-50.5	22.5	6.00e-01	0	56	0	19398656	60	4478
2026-01-05 04:13:07.10	315.05	33.16	-49.1	-51.2	21.9	6.03e-01	0	56	0	21495808	60	4840
2026-01-05 04:13:08.08	314.61	33.13	-48.7	-50.7	22.3	6.04e-01	0	56	0	23068672	60	4595
2026-01-05 04:13:09.07	314.17	33.11	-48.9	-50.8	22.6	6.04e-01	0	56	0	25165824	59	4912
2026-01-05 04:13:10.05	313.73	33.08	-48.7	-50.5	22.9	6.03e-01	0	56	0	26738688	59	4732
2026-01-05 04:13:11.04	313.29	33.05	-48.5	-50.3	23.1	6.04e-01	0	56	0	28835840	59	4622
2026-01-05 04:13:12.04	312.85	33.01	-48.4	-50.2	23.1	6.02e-01	0	56	0	30408704	59	4573
2026-01-05 04:13:13.03	312.41	32.98	-48.2	-50.0	23.0	6.01e-01	0	56	0	32505856	60	4200
2026-01-05 04:13:14.02	311.97	32.94	-48.4	-50.2	22.6	6.05e-01	0	56	0	34603008	60	4332
2026-01-05 04:13:15.00	311.54	32.91	-48.7	-50.7	22.3	6.03e-01	0	56	0	36175872	60	4563
2026-01-05 04:13:16.00	311.10	32.87	-48.9	-51.0	22.1	6.03e-01	0	56	0	38273024	60	4742
2026-01-05 04:13:16.98	310.67	32.82	-49.1	-51.2	22.0	6.05e-01	0	56	0	39845888	60	4828
2026-01-05 04:13:17.97	310.24	32.78	-49.0	-51.1	22.0	6.04e-01	0	56	0	41943040	60	4786
2026-01-05 04:13:18.96	309.81	32.74	-49.2	-51.3	21.8	6.01e-01	0	56	0	43515904	61	4611
2026-01-05 04:13:19.95	309.38	32.69	-49.1	-51.2	21.8	6.03e-01	0	56	0	45613056	61	4559
2026-01-05 04:13:20.94	308.95	32.64	-49.5	-51.9	21.2	6.01e-01	0	56	0	47185920	61	4932
2026-01-05 04:13:21.93	308.52	32.59	-49.2	-51.4	21.6	6.04e-01	0	56	0	49283072	61	4703
2026-01-05 04:13:22.92	308.09	32.54	-49.1	-51.2	21.9	6.05e-01	0	56	0	50855936	61	4562
2026-01-05 04:13:23.91	307.67	32.49	-48.6	-50.6	22.5	6.04e-01	0	56	0	52953088	60	4503
2026-01-05 04:13:24.89	307.25	32.43	-48.5	-50.3	23.1	6.03e-01	0	56	0	54525952	59	4638
2026-01-05 04:13:25.88	306.83	32.37	-48.6	-50.5	22.8	6.03e-01	0	56	0	56623104	59	4706
2026-01-05 04:13:26.87	306.41	32.32	-48.6	-50.6	22.4	6.03e-01	0	56	0	58720256	60	4508
2026-01-05 04:13:27.86	305.99	32.26	-48.4	-50.3	22.8	6.02e-01	0	56	0	60293120	60	4376
2026-01-05 04:13:28.85	305.57	32.19	-48.6	-50.5	22.9	6.03e-01	0	56	0	62390272	59	4732
2026-01-05 04:13:29.84	305.15	32.13	-48.3	-50.0	23.3	6.04e-01	0	56	0	63963136	59	4484
2026-01-05 04:13:30.83	304.74	32.07	-48.3	-50.0	23.2	6.01e-01	0	56	0	66060288	59	4472
2026-01-05 04:13:31.82	304.33	32.00	-48.5	-50.3	22.8	6.04e-01	0	56	0	67633152	59	4610
2026-01-05 04:13:32.81	303.92	31.93	-48.4	-50.2	22.6	6.03e-01	0	56	0	69730304	60	4321
2026-01-05 04:13:33.80	303.51	31.86	-48.6	-50.5	22.3	6.03e-01	0	56	0	71303168	60	4487
2026-01-05 04:13:34.80	303.10	31.79	-48.8	-50.9	22.0	6.02e-01	0	56	0	73400320	60	4668
2026-01-05 04:13:35.79	302.69	31.72	-49.2	-51.4	21.7	6.01e-01	0	56	0	74973184	60	4945
2026-01-05 04:13:36.79	302.28	31.65	-48.8	-50.8	22.3	6.03e-01	0	56	0	77070336	60	4602
2026-01-05 04:13:37.78	301.88	31.57	-48.5	-50.3	23.1	6.05e-01	0	56	0	79167488	59	4604
2026-01-05 04:13:38.76	301.49	31.50	-48.3	-50.1	23.3	6.04e-01	0	56	0	80740352	59	4500
2026-01-05 04:13:39.76	301.09	31.42	-48.2	-49.9	23.2	6.02e-01	0	56	0	82837504	59	4400
2026-01-05 04:13:40.74	300.69	31.34	-48.5	-50.4	22.1	6.05e-01	0	56	0	84410368	60	4432
2026-01-05 04:13:41.73	300.30	31.26	-49.1	-51.3	21.7	6.02e-01	0	56	0	86507520	60	4914
2026-01-05 04:13:42.72	299.91	31.18	-48.9	-50.9	22.5	6.03e-01	0	56	0	88080384	59	4933
2026-01-05 04:13:43.71	299.52	31.10	-48.5	-50.4	23.0	6.02e-01	0	56	0	90177536	59	4660
2026-01-05 04:13:44.69	299.14	31.02	-48.5	-50.3	23.1	6.03e-01	0	56	0	91750400	59	4603
2026-01-05 04:13:45.69	298.75	30.93	-48.4	-50.1	23.1	6.03e-01	0	56	0	93847552	59	4510
2026-01-05 04:13:46.68	298.36	30.85	-48.6	-50.5	22.3	6.03e-01	0	56	0	95420416	60	4469
2026-01-05 04:13:47.68	297.98	30.76	-48.9	-51.0	22.1	6.02e-01	0	56	0	97517568	60	4722
2026-01-05 04:13:48.66	297.60	30.67	-48.5	-50.3	23.0	6.03e-01	0	56	0	99614720	59	4628
2026-01-05 04:13:49.65	297.23	30.58	-48.3	-50.1	22.6	6.03e-01	0	56	0	101187584	60	4266
2026-01-05 04:13:50.64	296.85	30.49	-49.2	-51.3	21.6	6.04e-01	0	56	0	103284736	60	4926
2026-01-05 04:13:51.63	296.48	30.40	-48.9	-51.0	22.0	6.04e-01	0	56	0	104857600	60	4730
2026-01-05 04:13:52.62	296.11	30.31	-48.8	-50.8	22.2	6.06e-01	0	56	0	106954752	60	4637
2026-01-05 04:13:53.62	295.74	30.22	-49.3	-51.5	21.5	6.03e-01	0	56	0	108527616	60	5026
2026-01-05 04:13:54.61	295.37	30.12	-49.2	-51.4	21.6	6.04e-01	0	56	0	110624768	60	4960
2026-01-05 04:13:55.60	295.01	30.03	-49.0	-51.1	21.9	6.04e-01	0	56	0	112197632	60	4809
2026-01-05 04:13:56.60	294.64	29.93	-48.9	-51.0	22.0	6.04e-01	0	56	0	114294784	60	4723
2026-01-05 04:13:57.58	294.29	29.83	-48.9	-51.0	22.0	6.03e-01	0	56	0	115867648	60	4718
2026-01-05 04:13:58.57	293.93	29.74	-49.1	-51.3	21.7	6.04e-01	0	56	0	117964800	60	4895
2026-01-05 04:13:59.56	293.57	29.64	-49.2	-51.5	21.6	6.05e-01	0	56	0	119537664	60	4994
2026-01-05 04:14:00.55	293.22	29.54	-48.7	-50.6	22.3	6.04e-01	0	56	0	121634816	61	4263
2026-01-05 04:14:01.54	292.87	29.44	-49.2	-51.5	21.5	6.01e-01	0	56	0	123207680	60	5012
2026-01-05 04:14:02.53	292.52	29.34	-48.5	-50.4	22.6	6.05e-01	0	56	0	125304832	60	4410
2026-01-05 04:14:03.52	292.18	29.24	-49.1	-51.2	21.5	6.02e-01	0	56	0	127401984	61	4584
2026-01-05 04:14:04.51	291.83	29.13	-48.6	-50.6	22.4	6.03e-01	0	56	0	128974848	60	4526
2026-01-05 04:14:05.50	291.49	29.03	-48.3	-50.1	22.8	6.05e-01	0	56	0	131072000	60	4258
2026-01-05 04:14:06.49	291.15	28.93	-48.7	-50.6	22.3	6.03e-01	0	56	0	132644864	60	4544
2026-01-05 04:14:07.47	290.82	28.82	-48.7	-50.6	22.3	6.03e-01	0	56	0	134742016	60	4523
2026-01-05 04:14:08.46	290.49	28.72	-48.8	-50.9	22.1	6.03e-01	0	56	0	136314880	60	4676
2026-01-05 04:14:09.43	290.16	28.61	-48.3	-50.1	22.8	6.00e-01	0	56	0	138412032	60	4285
2026-01-05 04:14:10.43	289.83	28.51	-48.8	-50.8	22.3	6.03e-01	0	56	0	139984896	60	4628
2026-01-05 04:14:11.41	289.50	28.40	-48.5	-50.3	22.7	6.04e-01	0	56	0	142082048	60	4378
2026-01-05 04:14:12.40	289.18	28.29	-48.6	-50.6	22.3	6.03e-01	0	56	0	143654912	60	4527
2026-01-05 04:14:13.40	288.85	28.18	-48.6	-50.3	22.9	6.04e-01	0	56	0	145752064	59	4644
2026-01-05 04:14:14.38	288.53	28.08	-48.9	-51.0	21.9	6.03e-01	0	56	0	147324928	60	4720
2026-01-05 04:14:15.38	288.21	27.97	-48.6	-50.4	22.8	6.02e-01	0	56	0	149422080	59	4694
2026-01-05 04:14:16.37	287.89	27.86	-48.8	-50.9	21.9	6.04e-01	0	56	0	151519232	60	4658
2026-01-05 04:14:17.35	287.58	27.75	-48.6	-50.4	22.9	6.02e-01	0	56	0	153092096	59	4661
2026-01-05 04:14:18.34	287.27	27.64	-49.0	-51.2	21.7	6.03e-01	0	56	0	155189248	60	4859
2026-01-05 04:14:19.34	286.96	27.53	-48.2	-49.9	23.0	6.03e-01	0	56	0	156762112	60	4190
2026-01-05 04:14:20.34	286.65	27.41	-48.8	-50.9	22.1	6.04e-01	0	56	0	158859264	60	4668
2026-01-05 04:14:21.32	286.35	27.30	-48.4	-50.2	22.7	6.04e-01	0	56	0	160432128	60	4314
2026-01-05 04:14:22.31	286.04	27.19	-48.8	-50.9	22.1	6.04e-01	0	56	0	162529280	60	4696
2026-01-05 04:14:23.31	285.74	27.08	-48.3	-50.0	23.1	6.03e-01	0	56	0	164102144	59	4482
2026-01-05 04:14:24.30	285.44	26.96	-48.8	-50.8	22.1	6.02e-01	0	56	0	166199296	60	4626
2026-01-05 04:14:25.29	285.15	26.85	-48.4	-50.3	22.3	6.01e-01	0	56	0	167772160	60	4366
2026-01-05 04:14:26.28	284.85	26.74	-48.8	-50.7	22.4	6.06e-01	0	56	0	169869312	59	4846
2026-01-05 04:14:27.27	284.56	26.62	-48.8	-50.9	21.8	6.02e-01	0	56	0	171966464	60	4667
2026-01-05 04:14:28.26	284.27	26.51	-48.6	-50.4	22.9	6.04e-01	0	56	0	173539328	59	4654
2026-01-05 04:14:29.25	283.98	26.40	-49.0	-51.2	21.8	6.03e-01	0	56	0	175636480	60	4832
2026-01-05 04:14:30.23	283.70	26.28	-48.2	-50.0	22.9	6.03e-01	0	56	0	177209344	60	4198
2026-01-05 04:14:31.23	283.41	26.17	-48.9	-51.0	21.9	6.04e-01	0	56	0	179306496	60	4753
2026-01-05 04:14:32.21	283.13	26.05	-49.0	-51.1	21.5	6.04e-01	0	56	0	180879360	60	4802
2026-01-05 04:14:33.20	282.86	25.94	-48.6	-50.3	22.9	6.04e-01	0	57	0	182976512	59	4633
2026-01-05 04:14:34.20	282.58	25.82	-49.2	-51.5	21.4	6.03e-01	0	56	0	184549376	60	5037
2026-01-05 04:14:35.20	282.30	25.70	-48.2	-49.9	22.7	6.02e-01	0	56	0	186646528	60	4177
2026-01-05 04:14:36.19	282.03	25.59	-48.8	-50.7	22.4	6.03e-01	0	56	0	188219392	59	4866
2026-01-05 04:14:37.17	281.76	25.47	-49.6	-52.0	21.0	6.02e-01	0	56	0	190316544	61	5026
2026-01-05 04:14:38.17	281.49	25.36	-48.4	-50.2	22.6	6.03e-01	0	56	0	192413696	60	4295
2026-01-05 04:14:39.15	281.22	25.24	-48.6	-50.5	22.3	6.02e-01	0	56	0	193986560	60	4447
2026-01-05 04:14:40.12	280.96	25.13	-49.2	-51.6	21.3	6.04e-01	0	56	0	196083712	60	5045
2026-01-05 04:14:41.11	280.70	25.01	-48.4	-50.1	22.9	6.04e-01	0	56	0	197656576	59	4530
2026-01-05 04:14:42.11	280.44	24.89	-48.8	-50.7	22.4	6.04e-01	0	56	0	199753728	59	4846
2026-01-05 04:14:43.10	280.18	24.78	-49.2	-51.5	21.6	6.02e-01	0	56	0	201326592	60	4988
2026-01-05 04:14:44.09	279.92	24.66	-48.6	-50.5	22.2	6.04e-01	0	56	0	203423744	60	4466
2026-01-05 04:14:45.08	279.67	24.55	-48.8	-50.7	22.1	6.01e-01	0	56	0	204996608	60	4580
2026-01-05 04:14:46.06	279.42	24.43	-49.8	-52.3	20.7	6.02e-01	0	56	0	207093760	61	5207
2026-01-05 04:14:47.05	279.17	24.31	-49.0	-51.2	21.5	6.03e-01	0	56	0	208666624	61	4557
2026-01-05 04:14:48.04	278.92	24.20	-48.2	-50.0	22.9	6.04e-01	0	56	0	210763776	60	4211
2026-01-05 04:14:49.02	278.68	24.08	-48.6	-50.6	22.3	6.05e-01	0	56	0	212336640	60	4524
2026-01-05 04:14:50.01	278.43	23.96	-49.0	-51.2	21.8	6.01e-01	0	56	0	214433792	60	4815
2026-01-05 04:14:51.00	278.19	23.85	-48.5	-50.3	22.5	6.04e-01	0	56	0	216006656	60	4382
2026-01-05 04:14:51.99	277.95	23.73	-48.5	-50.3	22.5	6.03e-01	0	56	0	218103808	60	4385
2026-01-05 04:14:52.98	277.71	23.62	-49.3	-51.5	21.4	6.03e-01	0	56	0	219676672	60	5036
2026-01-05 04:14:53.98	277.47	23.50	-49.0	-51.2	21.7	6.03e-01	0	56	0	221773824	60	4837
2026-01-05 04:14:54.97	277.23	23.38	-48.5	-50.3	22.5	6.03e-01	0	56	0	223870976	60	4381
2026-01-05 04:14:55.96	277.00	23.27	-48.4	-50.3	22.6	6.05e-01	0	56	0	225443840	60	4353
2026-01-05 04:14:56.95	276.77	23.15	-48.8	-50.9	22.0	6.04e-01	0	56	0	227540992	60	4655
2026-01-05 04:14:57.95	276.54	23.03	-48.8	-50.9	22.1	6.03e-01	0	56	0	229113856	60	4661
2026-01-05 04:14:58.93	276.31	22.92	-48.4	-50.3	22.5	6.05e-01	0	56	0	231211008	60	4384
2026-01-05 04:14:59.92	276.09	22.80	-48.3	-50.1	22.8	6.02e-01	0	56	0	232783872	60	4273
2026-01-05 04:15:00.91	275.86	22.69	-48.5	-50.4	22.5	6.06e-01	0	56	0	234881024	60	4421
2026-01-05 04:15:01.90	275.64	22.57	-48.8	-50.8	22.2	6.03e-01	0	56	0	236453888	60	4620
2026-01-05 04:15:02.89	275.42	22.45	-48.9	-51.0	21.9	6.04e-01	0	56	0	238551040	60	4725
2026-01-05 04:15:03.87	275.20	22.34	-48.5	-50.5	22.3	6.04e-01	0	56	0	240123904	60	4455
2026-01-05 04:15:04.85	274.99	22.23	-48.4	-50.3	22.6	6.01e-01	0	56	0	242221056	60	4343
2026-01-05 04:15:05.84	274.77	22.11	-48.6	-50.6	22.3	6.04e-01	0	56	0	243793920	60	4520
2026-01-05 04:15:06.83	274.56	22.00	-48.5	-50.4	22.5	6.06e-01	0	56	0	245891072	60	4416
2026-01-05 04:15:07.82	274.34	21.88	-48.4	-50.3	22.6	6.03e-01	0	56	0	247988224	60	4354
2026-01-05 04:15:08.80	274.13	21.77	-48.4	-50.2	22.7	6.04e-01	0	56	0	249561088	60	4330
2026-01-05 04:15:09.79	273.93	21.65	-48.2	-50.1	22.8	6.02e-01	0	56	0	251658240	60	4248
2026-01-05 04:15:10.78	273.72	21.54	-48.3	-50.1	22.8	6.04e-01	0	56	0	253231104	60	4271
2026-01-05 04:15:11.77	273.51	21.42	-48.5	-50.5	22.5	6.03e-01	0	56	0	255328256	60	4446
2026-01-05 04:15:12.76	273.31	21.31	-48.6	-50.6	22.3	6.03e-01	0	56	0	256901120	60	4529
2026-01-05 04:15:13.75	273.10	21.20	-48.6	-50.6	22.3	6.04e-01	0	56	0	258998272	60	4524
2026-01-05 04:15:14.74	272.90	21.08	-48.5	-50.4	22.5	6.03e-01	0	56	0	260571136	60	4420
2026-01-05 04:15:15.73	272.70	20.97	-48.5	-50.5	22.4	6.03e-01	0	56	0	262668288	60	4447
2026-01-05 04:15:16.72	272.51	20.86	-48.6	-50.6	22.3	6.03e-01	0	57	0	264241152	60	4512
2026-01-05 04:15:17.70	272.31	20.74	-48.7	-50.7	22.2	6.02e-01	0	56	0	266338304	60	4582
2026-01-05 04:15:18.69	272.12	20.63	-48.8	-50.9	22.1	6.03e-01	0	56	0	267911168	60	4660
2026-01-05 04:15:19.67	271.93	20.52	-49.0	-51.2	21.7	5.99e-01	0	56	0	270008320	60	4828
2026-01-05 04:15:20.65	271.73	20.41	-49.0	-51.1	21.8	6.04e-01	0	56	0	271581184	60	4796
2026-01-05 04:15:21.64	271.54	20.30	-48.9	-51.0	21.8	6.02e-01	0	56	0	273678336	60	4736
2026-01-05 04:15:22.63	271.36	20.18	-49.0	-51.1	21.8	6.04e-01	0	56	0	275775488	60	4768
2026-01-05 04:15:23.62	271.17	20.07	-49.1	-51.2	21.7	6.04e-01	0	56	0	277348352	60	4844
2026-01-05 04:15:24.61	270.98	19.96	-48.9	-51.1	21.8	6.03e-01	0	56	0	278921216	60	4761
2026-01-05 04:15:25.60	270.80	19.85	-48.7	-50.7	22.2	6.03e-01	0	56	0	281018368	60	4547
2026-01-05 04:15:26.59	270.61	19.74	-48.5	-50.4	22.4	6.05e-01	0	57	0	283115520	60	4426
2026-01-05 04:15:27.57	270.43	19.63	-48.4	-50.3	22.6	6.02e-01	0	57	0	284688384	60	4367
2026-01-05 04:15:28.56	270.25	19.52	-48.4	-50.2	22.6	6.04e-01	0	56	0	286785536	60	4338
2026-01-05 04:15:29.56	270.07	19.41	-48.4	-50.3	22.5	6.03e-01	0	56	0	288358400	60	4378
2026-01-05 04:15:30.54	269.90	19.30	-48.4	-50.3	22.5	6.04e-01	0	56	0	290455552	60	4373
2026-01-05 04:15:31.53	269.72	19.19	-48.4	-50.3	22.5	6.05e-01	0	57	0	292028416	60	4380
2026-01-05 04:15:32.53	269.54	19.08	-48.4	-50.2	22.6	6.03e-01	0	57	0	294125568	60	4340
2026-01-05 04:15:33.52	269.37	18.97	-48.4	-50.3	22.4	6.03e-01	0	57	0	296222720	60	4387
2026-01-05 04:15:34.51	269.20	18.86	-48.5	-50.4	22.5	6.01e-01	0	57	0	297795584	60	4411
2026-01-05 04:15:35.49	269.03	18.75	-48.3	-50.2	22.6	6.05e-01	0	57	0	299368448	60	4317
2026-01-05 04:15:36.48	268.86	18.64	-48.2	-50.1	22.7	6.03e-01	0	56	0	301465600	60	4255
2026-01-05 04:15:37.48	268.69	18.53	-48.3	-50.2	22.6	6.02e-01	0	57	0	303562752	60	4338
2026-01-05 04:15:38.46	268.52	18.43	-48.4	-50.4	22.5	6.03e-01	0	57	0	305135616	60	4395
2026-01-05 04:15:39.45	268.36	18.32	-48.4	-50.3	22.5	6.02e-01	0	56	0	307232768	60	4377
2026-01-05 04:15:40.44	268.19	18.21	-48.5	-50.5	22.3	6.03e-01	0	57	0	308805632	60	4443
2026-01-05 04:15:41.44	268.03	18.10	-48.6	-50.7	22.2	6.04e-01	0	57	0	310902784	60	4549
2026-01-05 04:15:42.43	267.87	18.00	-48.6	-50.6	22.1	6.03e-01	0	57	0	312475648	60	4522
2026-01-05 04:15:43.41	267.71	17.89	-48.4	-50.3	22.5	6.05e-01	0	57	0	314572800	60	4370
2026-01-05 04:15:44.40	267.55	17.79	-48.4	-50.3	22.5	6.03e-01	0	56	0	316145664	60	4353
2026-01-05 04:15:45.40	267.39	17.68	-48.4	-50.3	22.5	6.03e-01	0	57	0	318242816	60	4390
2026-01-05 04:15:46.38	267.23	17.57	-48.3	-50.2	22.5	6.02e-01	0	57	0	319815680	60	4340
2026-01-05 04:15:47.37	267.08	17.47	-48.4	-50.3	22.5	6.02e-01	0	56	0	321912832	60	4365
2026-01-05 04:15:48.36	266.92	17.36	-48.5	-50.4	22.4	6.05e-01	0	57	0	323485696	60	4432
2026-01-05 04:15:49.34	266.77	17.26	-48.6	-50.5	22.2	6.05e-01	0	57	0	325582848	60	4479
2026-01-05 04:15:50.33	266.62	17.16	-48.7	-50.7	22.0	6.03e-01	0	57	0	327680000	60	4574
2026-01-05 04:15:51.32	266.46	17.05	-48.7	-50.7	22.1	6.02e-01	0	57	0	329252864	60	4566
2026-01-05 04:15:52.32	266.31	16.95	-48.9	-51.0	21.9	6.04e-01	0	56	0	331350016	60	4713
2026-01-05 04:15:53.30	266.16	16.84	-48.9	-51.0	21.9	6.02e-01	0	57	0	332922880	60	4713
2026-01-05 04:15:54.29	266.02	16.74	-48.9	-51.1	21.7	6.05e-01	0	57	0	335020032	60	4797
2026-01-05 04:15:55.27	265.87	16.64	-48.8	-50.9	21.9	6.02e-01	0	57	0	336592896	60	4656
2026-01-05 04:15:56.26	265.72	16.54	-48.5	-50.5	22.3	6.03e-01	0	56	0	338690048	60	4453
2026-01-05 04:15:57.25	265.58	16.43	-48.3	-50.2	22.5	6.04e-01	0	57	0	340262912	60	4335
2026-01-05 04:15:58.25	265.43	16.33	-48.3	-50.2	22.6	6.03e-01	0	57	0	342360064	60	4302
2026-01-05 04:15:59.24	265.29	16.23	-48.4	-50.3	22.5	6.03e-01	0	56	0	343932928	60	4346
2026-01-05 04:16:00.22	265.15	16.13	-48.5	-50.5	22.3	6.03e-01	0	57	0	346030080	60	4451
2026-01-05 04:16:01.21	265.01	16.03	-48.5	-50.5	22.3	6.04e-01	0	56	0	347602944	60	4445
2026-01-05 04:16:02.20	264.87	15.93	-48.7	-50.7	22.1	6.02e-01	0	57	0	349700096	60	4580
2026-01-05 04:16:03.19	264.73	15.82	-48.8	-51.0	21.8	6.03e-01	0	56	0	351797248	60	4709
2026-01-05 04:16:04.18	264.59	15.72	-48.6	-50.6	22.2	6.03e-01	0	57	0	353370112	60	4496
2026-01-05 04:16:05.16	264.46	15.63	-48.4	-50.3	22.4	6.03e-01	0	57	0	355467264	60	4378
2026-01-05 04:16:06.15	264.32	15.53	-48.3	-50.2	22.3	6.03e-01	0	56	0	357040128	60	4339
2026-01-05 04:16:07.14	264.19	15.43	-48.3	-50.2	22.5	6.02e-01	0	57	0	359137280	60	4304
2026-01-05 04:16:08.14	264.05	15.33	-48.3	-50.3	22.5	6.01e-01	0	56	0	360710144	60	4352
2026-01-05 04:16:09.13	263.92	15.23	-48.4	-50.3	22.5	6.02e-01	0	56	0	362807296	60	4355
2026-01-05 04:16:10.13	263.79	15.13	-48.4	-50.4	22.4	6.01e-01	0	56	0	364380160	60	4396
2026-01-05 04:16:11.12	263.66	15.03	-48.3	-50.3	22.5	6.04e-01	0	57	0	366477312	60	4356
2026-01-05 04:16:12.11	263.53	14.93	-48.4	-50.3	22.4	6.03e-01	0	57	0	368050176	60	4384
2026-01-05 04:16:13.10	263.40	14.83	-48.5	-50.5	22.3	6.04e-01	0	57	0	370147328	60	4468
2026-01-05 04:16:14.09	263.27	14.74	-48.3	-50.3	22.4	6.04e-01	0	57	0	372244480	60	4357
2026-01-05 04:16:15.08	263.14	14.64	-48.4	-50.4	22.4	6.02e-01	0	57	0	373817344	60	4401
2026-01-05 04:16:16.06	263.02	14.54	-48.6	-50.6	22.1	6.04e-01	0	57	0	375390208	60	4538
2026-01-05 04:16:17.05	262.89	14.45	-48.4	-50.4	22.3	6.05e-01	0	56	0	377487360	60	4411
2026-01-05 04:16:18.03	262.77	14.35	-48.4	-50.4	22.4	6.04e-01	0	57	0	379584512	60	4399
2026-01-05 04:16:19.02	262.64	14.25	-48.5	-50.5	22.2	6.02e-01	0	57	0	381157376	60	4465
2026-01-05 04:16:20.01	262.52	14.16	-48.8	-50.9	21.9	6.01e-01	0	56	0	383254528	60	4663
2026-01-05 04:16:21.00	262.40	14.06	-49.0	-51.2	21.5	6.03e-01	0	56	0	384827392	60	4837
2026-01-05 04:16:21.99	262.28	13.97	-48.9	-51.1	21.7	6.04e-01	0	57	0	386924544	60	4781
2026-01-05 04:16:22.97	262.16	13.87	-49.0	-51.3	21.5	6.01e-01	0	57	0	388497408	60	4873
2026-01-05 04:16:23.96	262.04	13.78	-48.9	-51.0	21.7	6.04e-01	0	57	0	390594560	60	4747
2026-01-05 04:16:24.96	261.92	13.68	-48.9	-51.0	21.7	6.04e-01	0	57	0	392167424	60	4733
2026-01-05 04:16:25.95	261.80	13.59	-48.8	-50.9	21.7	6.05e-01	0	57	0	394264576	60	4701
2026-01-05 04:16:26.94	261.69	13.50	-49.0	-51.3	21.5	6.04e-01	0	57	0	395837440	60	4880
2026-01-05 04:16:27.93	261.57	13.40	-48.7	-50.9	21.7	6.01e-01	0	57	0	397934592	60	4652
2026-01-05 04:16:28.67	261.48	13.33	-48.6	-50.6	22.0	6.02e-01	0	57	0	400031744	60	4539
2026-01-05 04:16:29.94	261.34	13.21	-48.4	-50.3	22.3	6.06e-01	0	57	0	402128896	60	4374
2026-01-05 04:16:30.74	261.24	13.14	-48.4	-50.3	22.3	6.03e-01	0	57	0	403701760	60	4371
2026-01-05 04:16:31.89	261.11	13.03	-48.4	-50.4	22.2	6.06e-01	0	57	0	405798912	60	4432
2026-01-05 04:16:32.74	261.02	12.95	-48.5	-50.5	22.2	6.02e-01	0	57	0	407371776	60	4465
2026-01-05 04:16:33.87	260.89	12.85	-48.5	-50.5	22.1	6.02e-01	0	57	0	409468928	60	4487
2026-01-05 04:16:34.71	260.80	12.77	-48.6	-50.7	22.0	6.04e-01	0	57	0	411041792	60	4569
2026-01-05 04:16:35.84	260.67	12.67	-48.9	-51.0	21.6	6.03e-01	0	57	0	413138944	60	4759
2026-01-05 04:16:36.69	260.58	12.59	-48.7	-50.9	21.8	6.00e-01	0	57	0	414711808	60	4657
2026-01-05 04:16:37.82	260.45	12.49	-48.9	-51.1	21.4	6.04e-01	0	57	0	416808960	60	4804
2026-01-05 04:16:38.67	260.36	12.41	-49.2	-51.5	21.2	6.04e-01	0	57	0	418381824	60	5003
2026-01-05 04:16:39.80	260.24	12.30	-49.1	-51.5	21.2	6.04e-01	0	57	0	420478976	60	4987
2026-01-05 04:16:40.65	260.15	12.23	-49.1	-51.4	21.2	6.04e-01	0	57	0	422051840	60	4954
2026-01-05 04:16:41.78	260.03	12.13	-49.1	-51.4	21.3	6.03e-01	0	57	0	424148992	60	4939
2026-01-05 04:16:42.63	259.94	12.05	-49.1	-51.4	21.2	6.02e-01	0	57	0	426246144	60	4973
2026-01-05 04:16:43.76	259.82	11.95	-49.1	-51.3	21.3	6.01e-01	0	57	0	427819008	60	4914
2026-01-05 04:16:44.61	259.73	11.87	-49.1	-51.4	21.3	6.04e-01	0	57	0	429391872	60	4942
2026-01-05 04:16:45.75	259.61	11.77	-49.5	-52.0	20.6	6.02e-01	0	57	0	432013312	61	5004
2026-01-05 04:16:46.59	259.52	11.69	-49.2	-51.6	21.0	6.02e-01	0	57	0	433586176	61	4773
2026-01-05 04:16:47.72	259.41	11.59	-49.0	-51.3	21.3	6.02e-01	0	57	0	435683328	61	4616
2026-01-05 04:16:48.57	259.32	11.52	-48.8	-51.0	21.6	6.05e-01	0	57	0	437256192	61	4474
2026-01-05 04:16:49.70	259.21	11.42	-48.7	-50.8	21.8	6.03e-01	0	57	0	439353344	60	4611
2026-01-05 04:16:50.55	259.12	11.34	-48.7	-50.9	21.8	6.03e-01	0	57	0	440926208	60	4663
2026-01-05 04:16:51.67	259.01	11.25	-48.7	-50.9	21.7	6.03e-01	0	57	0	443023360	60	4660
2026-01-05 04:16:52.52	258.93	11.17	-48.8	-51.0	21.6	6.03e-01	0	57	0	444596224	60	4742
2026-01-05 04:16:53.64	258.82	11.07	-49.1	-51.5	21.2	6.03e-01	0	57	0	446693376	60	4988
2026-01-05 04:16:54.49	258.73	11.00	-49.0	-51.3	21.3	6.02e-01	0	57	0	448266240	60	4874
2026-01-05 04:16:55.62	258.62	10.90	-48.8	-51.0	21.5	6.02e-01	0	57	0	450363392	60	4745
2026-01-05 04:16:56.47	258.54	10.83	-48.8	-51.0	21.5	6.04e-01	0	57	0	451936256	60	4725
2026-01-05 04:16:57.60	258.43	10.73	-48.9	-51.1	21.5	6.00e-01	0	57	0	454033408	60	4766
2026-01-05 04:16:58.45	258.35	10.66	-48.9	-51.2	21.3	6.04e-01	0	57	0	455606272	60	4836
2026-01-05 04:16:59.58	258.24	10.56	-49.0	-51.3	21.3	6.02e-01	0	57	0	457703424	60	4913
2026-01-05 04:17:00.43	258.16	10.49	-49.1	-51.4	21.2	6.04e-01	0	57	0	459276288	60	4936
2026-01-05 04:17:01.56	258.06	10.39	-49.1	-51.5	21.1	6.04e-01	0	57	0	461373440	60	4987
2026-01-05 04:17:02.41	257.98	10.32	-49.1	-51.4	21.1	6.03e-01	0	57	0	462946304	60	4972
2026-01-05 04:17:03.53	257.88	10.23	-49.1	-51.5	21.1	6.04e-01	0	57	0	465043456	60	5012
2026-01-05 04:17:04.38	257.80	10.15	-49.3	-51.7	20.9	6.03e-01	0	57	0	466616320	60	5136
2026-01-05 04:17:05.51	257.69	10.06	-49.2	-51.6	20.9	6.03e-01	0	57	0	468713472	60	5092
2026-01-05 04:17:06.36	257.62	9.99	-49.3	-51.8	20.8	6.03e-01	0	57	0	470286336	60	5175
2026-01-05 04:17:07.50	257.51	9.89	-49.5	-52.1	20.5	6.03e-01	0	57	0	472383488	61	5050
2026-01-05 04:17:08.35	257.44	9.82	-49.5	-52.1	20.4	6.01e-01	0	57	0	473956352	61	5094
2026-01-05 04:17:09.47	257.34	9.73	-49.3	-51.8	20.7	6.04e-01	0	57	0	476577792	61	4890
2026-01-05 04:17:10.31	257.26	9.66	-49.3	-51.8	20.7	6.03e-01	0	57	0	477626368	61	4882
2026-01-05 04:17:11.45	257.16	9.56	-49.5	-52.1	20.4	6.03e-01	0	57	0	480247808	61	5090
2026-01-05 04:17:12.30	257.09	9.49	-49.5	-52.0	20.5	6.04e-01	0	57	0	481820672	61	5031
2026-01-05 04:17:13.43	256.99	9.40	-49.2	-51.7	20.8	6.03e-01	0	57	0	483917824	61	4821
2026-01-05 04:17:14.28	256.92	9.33	-49.2	-51.6	21.0	6.01e-01	0	57	0	485490688	61	4789
2026-01-05 04:17:15.40	256.82	9.24	-49.2	-51.7	20.9	6.03e-01	0	57	0	487587840	61	4815
2026-01-05 04:17:16.25	256.75	9.17	-49.2	-51.6	20.8	6.03e-01	0	57	0	489160704	61	4784
2026-01-05 04:17:17.39	256.65	9.08	-49.3	-51.8	20.7	6.03e-01	0	57	0	491257856	61	4899
2026-01-05 04:17:18.24	256.58	9.01	-49.3	-51.7	20.7	6.02e-01	0	57	0	492830720	61	4860
2026-01-05 04:17:19.37	256.49	8.92	-49.1	-51.5	21.0	6.01e-01	0	57	0	494927872	61	4707
2026-01-05 04:17:20.22	256.42	8.85	-49.0	-51.4	21.1	6.01e-01	0	57	0	496500736	61	4666
2026-01-05 04:17:21.34	256.33	8.76	-49.0	-51.4	21.0	6.01e-01	0	57	0	498597888	61	4686
2026-01-05 04:17:22.18	256.26	8.69	-49.0	-51.4	21.0	6.03e-01	0	57	0	500170752	61	4674
2026-01-05 04:17:23.32	256.16	8.60	-49.1	-51.5	20.9	6.02e-01	0	57	0	502267904	61	4718
2026-01-05 04:17:24.17	256.10	8.53	-49.2	-51.6	20.8	6.03e-01	0	57	0	503840768	61	4796
2026-01-05 04:17:25.30	256.00	8.44	-49.2	-51.7	20.7	6.00e-01	0	57	0	505937920	61	4822
2026-01-05 04:17:26.15	255.94	8.38	-49.2	-51.7	20.7	6.04e-01	0	57	0	507510784	61	4862
2026-01-05 04:17:27.28	255.85	8.29	-49.2	-51.6	20.8	6.01e-01	0	57	0	509607936	61	4801
2026-01-05 04:17:28.12	255.78	8.22	-49.2	-51.7	20.7	6.03e-01	0	57	0	511180800	61	4850
2026-01-05 04:17:29.25	255.69	8.13	-49.2	-51.7	20.6	6.01e-01	0	57	0	513277952	61	4848
2026-01-05 04:17:30.10	255.62	8.06	-49.2	-51.7	20.7	6.02e-01	0	57	0	514850816	61	4849
2026-01-05 04:17:31.23	255.54	7.98	-49.4	-52.0	20.4	6.04e-01	0	57	0	516947968	61	5014
2026-01-05 04:17:32.08	255.47	7.91	-49.5	-52.2	20.1	6.02e-01	0	57	0	518520832	61	5158
2026-01-05 04:17:33.21	255.38	7.82	-49.3	-51.9	20.4	6.02e-01	0	57	0	520617984	61	4971
2026-01-05 04:17:34.06	255.32	7.76	-49.2	-51.7	20.7	6.05e-01	0	57	0	522190848	61	4855
2026-01-05 04:17:35.20	255.23	7.67	-49.2	-51.6	20.7	6.03e-01	0	57	0	524288000	61	4807
2026-01-05 04:17:36.05	255.17	7.60	-49.2	-51.8	20.6	6.03e-01	0	57	0	525860864	61	4889
2026-01-05 04:17:37.18	255.08	7.52	-49.2	-51.8	20.6	6.02e-01	0	57	0	528482304	61	4876
2026-01-05 04:17:38.03	255.02	7.45	-49.3	-51.9	20.4	6.04e-01	0	57	0	530055168	61	4951
2026-01-05 04:17:39.16	254.94	7.36	-49.4	-52.1	20.2	6.03e-01	0	57	0	532152320	61	5061
2026-01-05 04:17:40.00	254.88	7.30	-49.3	-51.8	20.5	6.04e-01	0	57	0	533725184	61	4910
2026-01-05 04:17:41.14	254.79	7.21	-49.2	-51.8	20.4	6.03e-01	0	57	0	535822336	61	4914
2026-01-05 04:17:42.00	254.73	7.15	-49.3	-52.0	20.3	6.03e-01	0	57	0	537395200	61	4992
2026-01-05 04:17:43.13	254.65	7.06	-49.3	-52.0	20.3	6.04e-01	0	57	0	539492352	61	4999
2026-01-05 04:17:43.98	254.59	7.00	-49.5	-52.2	20.0	6.00e-01	0	57	0	541065216	61	5122
2026-01-05 04:17:45.10	254.51	6.92	-49.5	-52.2	20.0	6.04e-01	0	57	0	543162368	61	5141
2026-01-05 04:17:45.96	254.45	6.85	-49.4	-52.1	20.1	6.04e-01	0	57	0	544735232	61	5075
2026-01-05 04:17:47.09	254.37	6.77	-49.2	-51.8	20.4	6.04e-01	0	57	0	546832384	61	4912
2026-01-05 04:17:47.94	254.31	6.70	-49.3	-51.9	20.3	6.02e-01	0	57	0	548405248	61	4964
2026-01-05 04:17:49.07	254.23	6.62	-49.2	-51.8	20.3	6.06e-01	0	57	0	550502400	61	4902
2026-01-05 04:17:49.92	254.17	6.56	-49.3	-52.0	20.2	6.02e-01	0	57	0	552075264	61	5004
2026-01-05 04:17:51.04	254.09	6.47	-49.3	-52.0	20.1	6.04e-01	0	57	0	554172416	61	5009
2026-01-05 04:17:51.90	254.03	6.41	-49.3	-52.0	20.2	6.05e-01	0	57	0	555745280	61	4987
2026-01-05 04:17:53.03	253.95	6.33	-49.5	-52.3	19.9	6.03e-01	0	57	0	557842432	61	5192
2026-01-05 04:17:53.87	253.90	6.26	-49.5	-52.3	19.8	6.03e-01	0	57	0	559415296	61	5193
2026-01-05 04:17:55.01	253.82	6.18	-49.4	-52.1	20.0	6.05e-01	0	57	0	561512448	61	5063
2026-01-05 04:17:55.86	253.76	6.12	-49.4	-52.1	20.0	6.02e-01	0	57	0	563085312	61	5091
2026-01-05 04:17:56.99	253.69	6.04	-49.5	-52.4	19.7	6.01e-01	0	57	0	565182464	61	5234
2026-01-05 04:17:57.84	253.63	5.98	-49.5	-52.4	19.7	6.04e-01	0	57	0	566755328	61	5243
2026-01-05 04:17:58.98	253.56	5.89	-49.5	-52.4	19.7	6.04e-01	0	57	0	569376768	61	5259
2026-01-05 04:17:59.82	253.50	5.83	-49.6	-52.5	19.6	6.04e-01	0	57	0	570949632	61	5319
2026-01-05 04:18:00.95	253.43	5.75	-49.6	-52.5	19.6	6.04e-01	0	57	0	573046784	61	5322
2026-01-05 04:18:01.79	253.37	5.69	-49.7	-52.7	19.4	6.02e-01	0	57	0	574619648	61	5420
2026-01-05 04:18:02.92	253.30	5.61	-49.7	-52.7	19.4	6.02e-01	0	57	0	576716800	61	5431
2026-01-05 04:18:03.77	253.24	5.55	-49.7	-52.8	19.3	6.04e-01	0	57	0	578289664	61	5470
2026-01-05 04:18:04.90	253.17	5.47	-49.9	-53.1	19.0	6.01e-01	0	57	0	580386816	61	5680
2026-01-05 04:18:05.76	253.12	5.41	-49.9	-53.1	18.9	6.02e-01	0	57	0	581959680	62	5379
2026-01-05 04:18:06.89	253.05	5.33	-49.8	-52.9	19.1	6.04e-01	0	57	0	584056832	62	5253
2026-01-05 04:18:07.74	252.99	5.27	-49.8	-53.0	19.0	6.03e-01	0	57	0	585629696	62	5301
2026-01-05 04:18:08.88	252.92	5.19	-49.9	-53.2	18.7	6.02e-01	0	57	0	587726848	62	5438
2026-01-05 04:18:09.72	252.87	5.13	-49.9	-53.2	18.7	6.04e-01	0	57	0	589299712	62	5428
2026-01-05 04:18:10.85	252.80	5.05	-52.9	-64.5	9.8	6.34e-01	39	57	0	591396864	67	14902
2026-01-05 04:18:11.70	252.75	4.99	-53.3	-72.5	3.8	7.44e-01	0	57	104	591396864	68	35514
2026-01-05 04:18:12.83	252.68	4.91	-52.6	-72.3	3.9	7.47e-01	0	57	104	591396864	68	34646
2026-01-05 04:18:13.67	252.63	4.85	-53.6	-73.5	3.8	7.47e-01	0	57	104	591396864	69	37565
2026-01-05 04:18:14.81	252.56	4.77	-53.2	-73.0	3.8	7.43e-01	0	57	104	591396864	68	37711
2026-01-05 04:18:15.66	252.51	4.71	-54.0	-73.9	3.8	7.42e-01	0	57	104	591396864	70	37276
2026-01-05 04:18:16.79	252.44	4.63	-54.1	-74.0	3.8	7.43e-01	0	57	104	591396864	70	37602
2026-01-05 04:18:17.63	252.39	4.58	-54.2	-74.1	3.8	7.46e-01	0	57	104	591396864	70	37877
2026-01-05 04:18:18.76	252.32	4.50	-54.2	-74.1	3.8	7.45e-01	0	57	104	591396864	70	37956
2026-01-05 04:18:19.61	252.27	4.44	-54.2	-74.1	3.8	7.47e-01	0	57	104	591396864	70	37923
2026-01-05 04:18:20.74	252.21	4.36	-54.2	-74.1	3.8	7.47e-01	0	57	104	591396864	70	38230
2026-01-05 04:18:21.59	252.16	4.30	-54.3	-74.2	3.8	7.43e-01	0	57	104	591396864	70	38427
2026-01-05 04:18:22.72	252.09	4.23	-54.3	-74.2	3.8	7.42e-01	0	57	104	591396864	70	38547
2026-01-05 04:18:23.57	252.04	4.17	-54.3	-74.2	3.8	7.45e-01	0	57	104	591396864	70	38613
2026-01-05 04:18:24.70	251.98	4.09	-54.3	-74.3	3.8	7.43e-01	0	57	104	591396864	70	38770
2026-01-05 04:18:25.55	251.93	4.03	-54.4	-74.3	3.8	7.45e-01	0	57	104	591396864	70	38892
2026-01-05 04:18:26.69	251.87	3.96	-54.4	-74.3	3.8	7.48e-01	0	57	104	591396864	70	39033
2026-01-05 04:18:27.53	251.82	3.90	-54.4	-74.3	3.8	7.41e-01	0	57	104	591396864	71	36881
2026-01-05 04:18:28.66	251.75	3.82	-54.4	-74.3	3.8	7.46e-01	0	57	104	591396864	71	36926
2026-01-05 04:18:29.50	251.71	3.77	-54.4	-74.4	3.8	7.46e-01	0	57	104	591396864	71	36977
2026-01-05 04:18:30.63	251.65	3.69	-54.4	-74.4	3.8	7.48e-01	0	57	104	591396864	71	37041
2026-01-05 04:18:31.48	251.60	3.64	-54.4	-74.4	3.8	7.49e-01	0	57	104	591396864	71	37057
2026-01-05 04:18:32.61	251.54	3.56	-54.4	-74.4	3.8	7.46e-01	0	57	104	591396864	71	37146
2026-01-05 04:18:33.46	251.49	3.50	-54.4	-74.4	3.8	7.45e-01	0	57	104	591396864	71	37175
2026-01-05 04:18:34.59	251.43	3.43	-54.5	-74.4	3.8	7.43e-01	0	57	104	591396864	71	37135
2026-01-05 04:18:35.44	251.38	3.37	-54.5	-74.4	3.8	7.47e-01	0	57	104	591396864	71	37257
2026-01-05 04:18:36.57	251.32	3.30	-54.5	-74.4	3.8	7.42e-01	0	57	104	591396864	71	37227
2026-01-05 04:18:37.42	251.28	3.24	-54.5	-74.4	3.8	7.44e-01	0	57	104	591396864	71	37198
2026-01-05 04:18:38.55	251.22	3.17	-54.5	-74.4	3.8	7.47e-01	0	57	104	591396864	71	37182
2026-01-05 04:18:39.40	251.17	3.11	-54.4	-74.4	3.8	7.43e-01	0	57	104	591396864	71	37160
2026-01-05 04:18:40.53	251.11	3.04	-54.4	-74.4	3.8	7.44e-01	0	57	104	591396864	71	37153
2026-01-05 04:18:41.38	251.07	2.98	-54.4	-74.4	3.8	7.43e-01	0	57	104	591396864	71	37078

#Closed at: 2026-01-05 04:18:42
#Recorded file [591 MB]: D:/Data/31026_260105_071810.dat