passes_logs/2026/01/05/R3.0SM8_Murmansk_STILSPACE/R3.0SM8_Murmansk_STILSPACE__20260105_020941_NOAA_21_JPSS-2_rec.log

#Pass ID: 20260105_020941_NOAA 21 (JPSS-2)
#Satellite: NOAA 21 (JPSS-2)
#Configuration: NOAA-21
#almurnet v.1.7.20240730
#Start time: 2026-01-05 02:17:31

#Version: 2.2.20231116
#Station: R3.0SM8_Murmansk_STILSPACE
#Location: 33.092731 lon 68.902999 lat
#TLE: 1 54234U 22150A   26004.22845673  .00000174  00000+0  10347-3 0  9996
#TLE: 2 54234  98.7489 305.2591 0001115 345.0884  15.0259 14.19531906163281

#Time	Az	El	Level	Level2	SNR	BER	BlckErr	Temp	State	Recorded	gain1	gain2
2026-01-05 02:17:31.10	285.92	38.84	-52.5	-62.8	3.8	8.46e-01	0	57	0	0	67	11865
2026-01-05 02:17:32.07	285.55	38.71	-52.8	-64.3	3.8	1.49e+00	0	58	104	0	68	13460
2026-01-05 02:17:33.06	285.17	38.58	-52.8	-64.3	3.8	1.49e+00	0	58	104	0	68	13455
2026-01-05 02:17:34.05	284.80	38.45	-52.7	-64.3	3.8	1.49e+00	0	58	104	0	68	13428
2026-01-05 02:17:35.04	284.44	38.31	-52.8	-64.3	3.8	1.49e+00	0	58	104	0	68	13485
2026-01-05 02:17:36.03	284.07	38.18	-52.8	-64.3	3.8	1.49e+00	0	58	104	0	68	13446
2026-01-05 02:17:37.02	283.71	38.04	-52.7	-64.3	3.8	1.49e+00	0	58	104	0	68	13460
2026-01-05 02:17:38.00	283.36	37.91	-52.8	-64.3	3.8	1.49e+00	0	58	104	0	68	13490
2026-01-05 02:17:39.00	283.00	37.77	-52.8	-64.3	3.8	1.49e+00	0	58	104	0	68	13424
2026-01-05 02:17:39.99	282.64	37.63	-52.8	-64.2	3.8	1.49e+00	0	58	104	0	68	13412
2026-01-05 02:17:40.98	282.30	37.49	-52.8	-64.2	3.8	1.49e+00	0	58	104	0	68	13336
2026-01-05 02:17:41.97	281.95	37.35	-52.8	-64.2	3.8	1.49e+00	0	58	104	0	68	13356
2026-01-05 02:17:42.96	281.61	37.21	-52.7	-64.2	3.8	1.49e+00	0	58	104	0	68	13399
2026-01-05 02:17:43.95	281.27	37.07	-52.7	-64.3	3.8	1.49e+00	0	58	104	0	68	13436
2026-01-05 02:17:44.93	280.93	36.93	-52.8	-64.2	3.8	1.49e+00	0	58	104	0	68	13321
2026-01-05 02:17:45.92	280.60	36.79	-52.8	-64.2	3.8	1.49e+00	0	58	104	0	68	13280
2026-01-05 02:17:46.91	280.26	36.65	-52.7	-64.2	3.8	1.49e+00	0	58	104	0	68	13293
2026-01-05 02:17:47.91	279.93	36.51	-52.7	-64.2	3.8	1.49e+00	0	58	104	0	68	13275
2026-01-05 02:17:48.91	279.60	36.36	-52.6	-64.0	3.8	1.49e+00	0	57	104	0	68	13084
2026-01-05 02:17:49.90	279.28	36.22	-52.7	-64.2	3.8	1.49e+00	0	57	104	0	68	13297
2026-01-05 02:17:50.89	278.96	36.08	-52.7	-64.1	3.8	1.49e+00	0	58	104	0	68	13222
2026-01-05 02:17:51.88	278.64	35.93	-52.5	-64.1	3.8	1.49e+00	0	57	104	0	68	13159
2026-01-05 02:17:52.86	278.33	35.79	-52.7	-64.1	3.8	1.49e+00	0	58	104	0	68	13146
2026-01-05 02:17:53.86	278.02	35.64	-52.7	-64.0	3.8	1.49e+00	0	58	104	0	68	13095
2026-01-05 02:17:54.85	277.71	35.50	-52.6	-64.1	3.8	1.49e+00	0	58	104	0	68	13150
2026-01-05 02:17:55.84	277.40	35.35	-52.7	-64.1	3.8	1.49e+00	0	57	104	0	68	13111
2026-01-05 02:17:56.83	277.10	35.21	-52.7	-64.0	3.8	1.49e+00	0	58	104	0	68	13084
2026-01-05 02:17:57.83	276.79	35.06	-52.6	-64.1	3.8	1.49e+00	0	58	104	0	68	13128
2026-01-05 02:17:58.83	276.49	34.91	-52.7	-64.1	3.8	1.49e+00	0	58	104	0	68	13202
2026-01-05 02:17:59.82	276.20	34.77	-52.7	-64.1	3.8	1.49e+00	0	58	104	0	68	13222
2026-01-05 02:18:00.80	275.91	34.62	-52.7	-64.2	3.8	1.49e+00	0	58	104	0	68	13304
2026-01-05 02:18:01.79	275.62	34.48	-52.7	-64.1	3.8	1.49e+00	0	58	104	0	68	13161
2026-01-05 02:18:02.79	275.33	34.33	-52.7	-63.9	3.8	1.49e+00	0	58	104	0	68	12931
2026-01-05 02:18:03.77	275.04	34.18	-52.7	-64.0	3.8	1.49e+00	0	58	104	0	68	12987
2026-01-05 02:18:04.76	274.76	34.04	-52.6	-64.1	3.8	1.49e+00	0	58	104	0	68	13123
2026-01-05 02:18:05.75	274.48	33.89	-52.7	-64.0	3.8	1.49e+00	0	58	104	0	68	12998
2026-01-05 02:18:06.74	274.21	33.74	-52.7	-64.0	3.8	1.49e+00	0	58	104	0	68	13021
2026-01-05 02:18:07.73	273.93	33.60	-52.7	-64.1	3.8	1.49e+00	0	58	104	0	68	13179
2026-01-05 02:18:08.72	273.66	33.45	-52.4	-64.0	3.8	1.49e+00	0	58	104	0	68	13062
2026-01-05 02:18:09.71	273.39	33.30	-52.5	-63.9	3.8	1.49e+00	0	58	104	0	68	12844
2026-01-05 02:18:10.70	273.12	33.15	-52.5	-64.0	3.8	1.49e+00	0	58	104	0	68	13002
2026-01-05 02:18:11.69	272.86	33.01	-52.6	-64.1	3.8	1.49e+00	0	58	104	0	68	13247
2026-01-05 02:18:12.68	272.59	32.86	-52.6	-63.9	3.8	1.49e+00	0	58	104	0	68	12884
2026-01-05 02:18:13.66	272.34	32.72	-52.3	-63.4	3.8	1.49e+00	0	58	104	0	67	12826
2026-01-05 02:18:14.66	272.08	32.57	-52.4	-62.9	3.8	1.49e+00	0	58	104	0	67	12213
2026-01-05 02:18:15.65	271.82	32.42	-52.4	-62.6	3.8	1.49e+00	0	58	104	0	67	11801
2026-01-05 02:18:16.64	271.57	32.27	-52.3	-62.0	3.8	1.49e+00	0	58	104	0	67	11002
2026-01-05 02:18:17.63	271.32	32.13	-51.9	-58.6	4.9	1.40e+00	0	58	104	0	66	7873
2026-01-05 02:18:18.61	271.07	31.98	-50.6	-54.6	8.1	1.44e-01	0	58	0	2097152	64	5547
2026-01-05 02:18:19.60	270.82	31.83	-48.9	-51.3	11.6	2.47e-03	0	58	0	5242880	61	4511
2026-01-05 02:18:20.59	270.58	31.69	-47.1	-48.6	14.3	3.80e-06	0	58	0	8388608	57	4180
2026-01-05 02:18:21.58	270.34	31.54	-45.5	-46.6	16.2	0.00e+00	0	58	0	11534336	54	3950
2026-01-05 02:18:22.57	270.10	31.40	-44.7	-45.7	17.1	0.00e+00	0	58	0	14680064	52	3984
2026-01-05 02:18:23.56	269.86	31.25	-44.9	-45.9	16.9	0.00e+00	0	57	0	17825792	52	4083
2026-01-05 02:18:24.54	269.63	31.10	-46.1	-47.4	15.5	0.00e+00	0	58	0	20971520	53	4554
2026-01-05 02:18:25.53	269.39	30.96	-47.2	-48.8	14.2	7.00e-07	0	58	0	24117248	56	4499
2026-01-05 02:18:26.52	269.16	30.81	-47.0	-48.5	14.5	7.00e-07	0	58	0	27262976	56	4341
2026-01-05 02:18:27.51	268.93	30.67	-46.8	-48.3	14.7	0.00e+00	0	58	0	30408704	56	4261
2026-01-05 02:18:28.49	268.71	30.52	-46.5	-47.9	15.1	0.00e+00	0	58	0	32505856	56	4064
2026-01-05 02:18:29.48	268.48	30.38	-45.6	-46.8	16.1	0.00e+00	0	58	0	35651584	54	4008
2026-01-05 02:18:30.47	268.26	30.24	-44.7	-45.7	17.1	0.00e+00	0	57	0	38797312	52	3975
2026-01-05 02:18:31.45	268.04	30.09	-44.0	-44.8	18.0	0.00e+00	0	58	0	41943040	51	3807
2026-01-05 02:18:32.43	267.83	29.95	-43.5	-44.2	18.5	0.00e+00	0	57	0	45088768	50	3780
2026-01-05 02:18:33.43	267.61	29.80	-43.4	-44.1	18.7	0.00e+00	0	58	0	48234496	49	3935
2026-01-05 02:18:34.41	267.39	29.66	-43.5	-44.3	18.5	0.00e+00	0	58	0	51380224	49	4017
2026-01-05 02:18:35.39	267.18	29.52	-43.8	-44.6	18.2	0.00e+00	0	58	0	54525952	49	4178
2026-01-05 02:18:36.38	266.97	29.38	-44.1	-44.9	17.9	0.00e+00	0	58	0	57671680	50	4090
2026-01-05 02:18:37.37	266.76	29.23	-44.2	-45.0	17.8	0.00e+00	0	58	0	60817408	50	4144
2026-01-05 02:18:38.35	266.56	29.09	-44.4	-45.3	17.6	0.00e+00	0	57	0	63963136	50	4249
2026-01-05 02:18:39.34	266.35	28.95	-44.3	-45.2	17.6	0.00e+00	0	58	0	67108864	50	4213
2026-01-05 02:18:40.33	266.15	28.81	-44.5	-45.4	17.5	0.00e+00	0	58	0	70254592	50	4310
2026-01-05 02:18:41.32	265.95	28.67	-44.5	-45.5	17.4	0.00e+00	0	57	0	73400320	51	4099
2026-01-05 02:18:42.31	265.75	28.53	-44.3	-45.2	17.6	0.00e+00	0	58	0	76546048	51	4002
2026-01-05 02:18:43.31	265.55	28.38	-44.5	-45.4	17.4	0.00e+00	0	57	0	79691776	51	4089
2026-01-05 02:18:44.30	265.35	28.24	-44.7	-45.7	17.2	0.00e+00	0	58	0	82837504	51	4212
2026-01-05 02:18:45.29	265.15	28.10	-44.7	-45.7	17.2	0.00e+00	0	57	0	85983232	51	4209
2026-01-05 02:18:46.28	264.96	27.96	-45.0	-46.0	16.9	0.00e+00	0	57	0	88080384	51	4374
2026-01-05 02:18:47.27	264.77	27.82	-44.9	-45.9	17.0	0.00e+00	0	57	0	91226112	51	4326
2026-01-05 02:18:48.25	264.58	27.69	-45.1	-46.2	16.6	0.00e+00	0	57	0	94371840	52	4224
2026-01-05 02:18:49.25	264.39	27.55	-45.4	-46.5	16.3	0.00e+00	0	57	0	97517568	52	4357
2026-01-05 02:18:50.24	264.20	27.41	-45.2	-46.3	16.6	0.00e+00	0	57	0	100663296	52	4258
2026-01-05 02:18:51.23	264.02	27.27	-45.1	-46.1	16.7	0.00e+00	0	57	0	103809024	52	4159
2026-01-05 02:18:52.22	263.84	27.13	-44.9	-45.9	16.9	0.00e+00	0	57	0	106954752	52	4075
2026-01-05 02:18:53.21	263.65	26.99	-44.8	-45.8	17.0	0.00e+00	0	58	0	110100480	52	4028
2026-01-05 02:18:54.20	263.47	26.86	-44.7	-45.7	17.1	0.00e+00	0	57	0	113246208	52	3968
2026-01-05 02:18:55.18	263.30	26.72	-44.4	-45.4	17.4	0.00e+00	0	57	0	116391936	52	3828
2026-01-05 02:18:56.16	263.12	26.59	-44.7	-45.6	17.1	0.00e+00	0	58	0	119537664	52	3936
2026-01-05 02:18:57.16	262.95	26.45	-44.9	-45.9	16.8	0.00e+00	0	57	0	122683392	52	4081
2026-01-05 02:18:58.15	262.77	26.31	-44.4	-45.3	17.4	0.00e+00	0	57	0	125829120	52	3813
2026-01-05 02:18:59.14	262.60	26.18	-44.2	-45.0	17.8	0.00e+00	0	57	0	128974848	51	3899
2026-01-05 02:19:00.13	262.43	26.04	-43.9	-44.7	18.1	0.00e+00	0	57	0	132120576	50	3982
2026-01-05 02:19:01.12	262.26	25.91	-43.8	-44.6	18.2	0.00e+00	0	57	0	135266304	50	3921
2026-01-05 02:19:02.11	262.09	25.77	-43.8	-44.6	18.2	0.00e+00	0	57	0	138412032	50	3939
2026-01-05 02:19:03.10	261.92	25.64	-43.8	-44.7	18.1	0.00e+00	0	57	0	141557760	50	3968
2026-01-05 02:19:04.09	261.76	25.51	-43.8	-44.6	18.1	0.00e+00	0	57	0	143654912	50	3958
2026-01-05 02:19:05.08	261.59	25.37	-43.9	-44.7	18.0	0.00e+00	0	57	0	146800640	50	3999
2026-01-05 02:19:06.07	261.43	25.24	-43.8	-44.6	18.2	0.00e+00	0	57	0	149946368	50	3946
2026-01-05 02:19:07.06	261.27	25.11	-43.9	-44.7	18.0	0.00e+00	0	57	0	153092096	50	4000
2026-01-05 02:19:08.05	261.11	24.98	-44.1	-45.0	17.8	0.00e+00	0	57	0	156237824	50	4107
2026-01-05 02:19:09.04	260.95	24.85	-43.9	-44.8	18.0	0.00e+00	0	57	0	159383552	50	4013
2026-01-05 02:19:10.03	260.80	24.72	-43.9	-44.8	18.0	0.00e+00	0	57	0	162529280	50	4019
2026-01-05 02:19:11.02	260.64	24.59	-44.2	-45.1	17.7	0.00e+00	0	57	0	165675008	50	4149
2026-01-05 02:19:12.01	260.49	24.46	-44.3	-45.2	17.6	0.00e+00	0	57	0	168820736	50	4215
2026-01-05 02:19:13.00	260.33	24.33	-44.5	-45.4	17.4	0.00e+00	0	57	0	171966464	50	4310
2026-01-05 02:19:13.99	260.18	24.20	-44.6	-45.6	17.2	0.00e+00	0	57	0	175112192	50	4394
2026-01-05 02:19:14.98	260.03	24.07	-44.7	-45.7	17.1	0.00e+00	0	57	0	178257920	51	4202
2026-01-05 02:19:15.97	259.88	23.94	-44.8	-45.8	17.0	0.00e+00	0	57	0	181403648	51	4258
2026-01-05 02:19:16.97	259.73	23.81	-44.9	-45.9	17.0	0.00e+00	0	57	0	184549376	51	4300
2026-01-05 02:19:17.97	259.58	23.68	-44.8	-45.8	17.1	0.00e+00	0	57	0	187695104	51	4247
2026-01-05 02:19:18.96	259.44	23.56	-44.7	-45.7	17.1	0.00e+00	0	57	0	190840832	51	4213
2026-01-05 02:19:19.94	259.29	23.43	-44.6	-45.6	17.2	0.00e+00	0	57	0	193986560	51	4160
2026-01-05 02:19:20.93	259.15	23.30	-44.5	-45.5	17.3	0.00e+00	0	57	0	197132288	51	4116
2026-01-05 02:19:21.92	259.01	23.18	-44.7	-45.7	17.1	0.00e+00	0	57	0	200278016	51	4225
2026-01-05 02:19:22.91	258.87	23.05	-44.4	-45.4	17.4	0.00e+00	0	57	0	203423744	51	4053
2026-01-05 02:19:23.90	258.73	22.93	-44.5	-45.4	17.3	0.00e+00	0	57	0	206569472	51	4097
2026-01-05 02:19:24.89	258.59	22.80	-44.7	-45.7	17.1	0.00e+00	0	57	0	208666624	51	4200
2026-01-05 02:19:25.87	258.45	22.68	-44.5	-45.4	17.4	0.00e+00	0	57	0	211812352	51	4094
2026-01-05 02:19:26.86	258.32	22.56	-44.4	-45.3	17.5	0.00e+00	0	57	0	214958080	51	4014
2026-01-05 02:19:27.86	258.18	22.43	-44.3	-45.2	17.6	0.00e+00	0	57	0	218103808	51	3976
2026-01-05 02:19:28.84	258.05	22.31	-44.3	-45.2	17.6	0.00e+00	0	57	0	221249536	51	3990
2026-01-05 02:19:29.82	257.92	22.19	-44.3	-45.2	17.5	0.00e+00	0	57	0	224395264	51	3991
2026-01-05 02:19:30.81	257.78	22.07	-44.4	-45.3	17.5	0.00e+00	0	57	0	227540992	51	4020
2026-01-05 02:19:31.81	257.65	21.94	-44.5	-45.4	17.3	0.00e+00	0	57	0	230686720	51	4091
2026-01-05 02:19:32.79	257.52	21.82	-44.4	-45.4	17.4	0.00e+00	0	57	0	233832448	51	4057
2026-01-05 02:19:33.78	257.39	21.70	-44.3	-45.3	17.5	0.00e+00	0	57	0	236978176	51	4005
2026-01-05 02:19:34.77	257.27	21.58	-44.3	-45.3	17.5	0.00e+00	0	57	0	240123904	51	4006
2026-01-05 02:19:35.76	257.14	21.46	-44.5	-45.4	17.3	0.00e+00	0	57	0	243269632	51	4065
2026-01-05 02:19:36.75	257.01	21.34	-44.4	-45.4	17.3	0.00e+00	0	57	0	246415360	51	4058
2026-01-05 02:19:37.74	256.89	21.22	-44.3	-45.3	17.4	0.00e+00	0	57	0	249561088	51	4006
2026-01-05 02:19:38.73	256.76	21.11	-44.4	-45.3	17.4	0.00e+00	0	57	0	252706816	51	4035
2026-01-05 02:19:39.71	256.64	20.99	-44.5	-45.4	17.3	0.00e+00	0	57	0	255852544	51	4086
2026-01-05 02:19:40.70	256.52	20.87	-44.4	-45.3	17.4	0.00e+00	0	57	0	258998272	51	4025
2026-01-05 02:19:41.69	256.40	20.75	-44.2	-45.1	17.6	0.00e+00	0	57	0	262144000	51	3943
2026-01-05 02:19:42.68	256.28	20.64	-44.2	-45.0	17.7	0.00e+00	0	57	0	264241152	51	3908
2026-01-05 02:19:43.66	256.16	20.52	-44.2	-45.1	17.7	0.00e+00	0	57	0	267386880	51	3927
2026-01-05 02:19:44.65	256.04	20.40	-44.4	-45.4	17.4	0.00e+00	0	57	0	270532608	51	4053
2026-01-05 02:19:45.64	255.93	20.29	-44.4	-45.3	17.4	0.00e+00	0	57	0	273678336	51	4039
2026-01-05 02:19:46.63	255.81	20.17	-44.2	-45.0	17.7	0.00e+00	0	57	0	276824064	51	3903
2026-01-05 02:19:47.61	255.69	20.06	-44.0	-44.8	17.9	0.00e+00	0	57	0	279969792	51	3822
2026-01-05 02:19:48.60	255.58	19.94	-44.0	-44.8	17.9	0.00e+00	0	57	0	283115520	51	3818
2026-01-05 02:19:49.59	255.47	19.83	-44.0	-44.9	17.8	0.00e+00	0	57	0	286261248	51	3839
2026-01-05 02:19:50.58	255.35	19.72	-44.1	-45.0	17.7	0.00e+00	0	57	0	289406976	51	3882
2026-01-05 02:19:51.56	255.24	19.60	-44.1	-44.9	17.8	0.00e+00	0	57	0	292552704	51	3867
2026-01-05 02:19:52.55	255.13	19.49	-44.2	-45.1	17.6	0.00e+00	0	57	0	295698432	51	3932
2026-01-05 02:19:53.54	255.02	19.38	-44.4	-45.3	17.4	0.00e+00	0	57	0	298844160	51	4033
2026-01-05 02:19:54.53	254.91	19.27	-44.4	-45.3	17.4	0.00e+00	0	57	0	301989888	51	4016
2026-01-05 02:19:55.52	254.80	19.15	-44.2	-45.1	17.6	0.00e+00	0	57	0	305135616	51	3936
2026-01-05 02:19:56.51	254.69	19.04	-44.1	-45.0	17.7	0.00e+00	0	57	0	308281344	51	3898
2026-01-05 02:19:57.50	254.59	18.93	-44.1	-45.0	17.7	0.00e+00	0	57	0	311427072	51	3875
2026-01-05 02:19:58.49	254.48	18.82	-44.2	-45.0	17.6	0.00e+00	0	57	0	314572800	51	3912
2026-01-05 02:19:59.48	254.37	18.71	-44.4	-45.3	17.4	0.00e+00	0	57	0	317718528	51	4018
2026-01-05 02:20:00.48	254.27	18.60	-44.4	-45.3	17.4	0.00e+00	0	57	0	320864256	51	4019
2026-01-05 02:20:01.47	254.16	18.49	-44.0	-44.9	17.7	0.00e+00	0	57	0	324009984	51	3847
2026-01-05 02:20:02.45	254.06	18.38	-43.8	-44.7	18.0	0.00e+00	0	57	0	326107136	50	3976
2026-01-05 02:20:03.45	253.96	18.27	-43.8	-44.7	18.0	0.00e+00	0	57	0	329252864	50	3969
2026-01-05 02:20:04.43	253.86	18.16	-43.8	-44.6	18.0	0.00e+00	0	57	0	332398592	50	3955
2026-01-05 02:20:05.42	253.76	18.06	-44.0	-44.8	17.8	0.00e+00	0	57	0	335544320	50	4027
2026-01-05 02:20:06.41	253.66	17.95	-43.9	-44.8	17.9	0.00e+00	0	57	0	338690048	50	4016
2026-01-05 02:20:07.40	253.56	17.84	-43.9	-44.7	17.9	0.00e+00	0	57	0	341835776	50	3986
2026-01-05 02:20:08.39	253.46	17.73	-43.9	-44.8	17.9	0.00e+00	0	57	0	344981504	50	4020
2026-01-05 02:20:09.38	253.36	17.63	-44.1	-44.9	17.7	0.00e+00	0	57	0	348127232	50	4090
2026-01-05 02:20:10.37	253.26	17.52	-44.1	-45.0	17.7	0.00e+00	0	57	0	351272960	50	4117
2026-01-05 02:20:11.36	253.16	17.42	-44.3	-45.2	17.5	0.00e+00	0	57	0	354418688	50	4220
2026-01-05 02:20:12.34	253.07	17.31	-44.4	-45.3	17.4	0.00e+00	0	57	0	357564416	50	4282
2026-01-05 02:20:13.32	252.98	17.21	-44.6	-45.6	17.1	0.00e+00	0	57	0	360710144	51	4160
2026-01-05 02:20:14.31	252.88	17.10	-44.6	-45.6	17.0	0.00e+00	0	57	0	363855872	51	4182
2026-01-05 02:20:15.29	252.79	17.00	-44.8	-45.8	16.8	0.00e+00	0	57	0	367001600	51	4270
2026-01-05 02:20:16.28	252.69	16.89	-44.9	-45.9	16.8	0.00e+00	0	57	0	370147328	51	4314
2026-01-05 02:20:17.27	252.60	16.79	-45.0	-46.1	16.6	0.00e+00	0	57	0	373293056	51	4404
2026-01-05 02:20:18.26	252.51	16.69	-45.0	-46.0	16.6	0.00e+00	0	57	0	376438784	51	4385
2026-01-05 02:20:19.26	252.42	16.58	-45.0	-46.1	16.5	0.00e+00	0	57	0	379584512	52	4165
2026-01-05 02:20:20.24	252.33	16.48	-45.1	-46.2	16.4	0.00e+00	0	57	0	381681664	52	4229
2026-01-05 02:20:21.22	252.24	16.38	-45.0	-46.0	16.6	0.00e+00	0	57	0	384827392	52	4142
2026-01-05 02:20:22.21	252.15	16.28	-44.9	-46.0	16.6	0.00e+00	0	57	0	387973120	52	4121
2026-01-05 02:20:23.20	252.06	16.18	-45.0	-46.1	16.5	0.00e+00	0	57	0	391118848	52	4166
2026-01-05 02:20:24.19	251.97	16.08	-45.2	-46.3	16.3	0.00e+00	0	57	0	394264576	52	4245
2026-01-05 02:20:25.19	251.88	15.97	-45.0	-46.0	16.5	0.00e+00	0	57	0	397410304	52	4140
2026-01-05 02:20:26.17	251.80	15.88	-44.8	-45.8	16.8	0.00e+00	0	57	0	400556032	52	4024
2026-01-05 02:20:27.16	251.71	15.78	-44.8	-45.8	16.8	0.00e+00	0	57	0	403701760	52	4040
2026-01-05 02:20:28.14	251.63	15.68	-44.8	-45.8	16.7	0.00e+00	0	57	0	406847488	52	4043
2026-01-05 02:20:29.13	251.54	15.58	-44.9	-45.9	16.7	0.00e+00	0	57	0	409993216	52	4070
2026-01-05 02:20:30.12	251.46	15.48	-45.1	-46.2	16.4	0.00e+00	0	57	0	413138944	52	4225
2026-01-05 02:20:31.10	251.37	15.38	-45.2	-46.3	16.3	0.00e+00	0	57	0	416284672	52	4257
2026-01-05 02:20:32.09	251.29	15.28	-45.1	-46.2	16.4	0.00e+00	0	57	0	419430400	52	4228
2026-01-05 02:20:33.09	251.20	15.18	-45.2	-46.3	16.2	0.00e+00	0	57	0	422576128	52	4289
2026-01-05 02:20:34.08	251.12	15.08	-45.4	-46.6	16.0	0.00e+00	0	57	0	425721856	52	4411
2026-01-05 02:20:35.07	251.04	14.99	-45.3	-46.4	16.2	0.00e+00	0	57	0	428867584	52	4323
2026-01-05 02:20:36.07	250.96	14.89	-45.4	-46.6	16.0	0.00e+00	0	57	0	432013312	52	4399
2026-01-05 02:20:37.06	250.88	14.79	-45.7	-47.0	15.6	0.00e+00	0	57	0	435159040	53	4348
2026-01-05 02:20:38.04	250.80	14.70	-45.5	-46.7	15.9	0.00e+00	0	57	0	437256192	53	4195
2026-01-05 02:20:39.03	250.72	14.60	-45.3	-46.4	16.2	0.00e+00	0	57	0	440401920	53	4067
2026-01-05 02:20:40.03	250.64	14.50	-45.2	-46.2	16.3	0.00e+00	0	57	0	443547648	53	4002
2026-01-05 02:20:41.01	250.56	14.41	-45.2	-46.3	16.2	0.00e+00	0	57	0	446693376	53	4039
2026-01-05 02:20:42.00	250.48	14.31	-45.2	-46.3	16.2	0.00e+00	0	57	0	449839104	53	4045
2026-01-05 02:20:42.99	250.41	14.22	-45.5	-46.7	15.9	0.00e+00	0	57	0	452984832	53	4221
2026-01-05 02:20:43.98	250.33	14.12	-45.2	-46.3	16.2	0.00e+00	0	57	0	456130560	53	4036
2026-01-05 02:20:44.98	250.25	14.03	-45.0	-46.0	16.5	0.00e+00	0	57	0	459276288	53	3902
2026-01-05 02:20:45.96	250.18	13.94	-44.9	-46.0	16.6	0.00e+00	0	57	0	462422016	52	4105
2026-01-05 02:20:46.95	250.10	13.84	-44.9	-45.9	16.6	0.00e+00	0	57	0	465567744	52	4090
2026-01-05 02:20:47.94	250.02	13.75	-44.9	-45.9	16.6	0.00e+00	0	57	0	468713472	52	4091
2026-01-05 02:20:48.93	249.95	13.66	-45.1	-46.2	16.4	0.00e+00	0	57	0	471859200	52	4196
2026-01-05 02:20:49.92	249.88	13.56	-45.4	-46.5	16.0	0.00e+00	0	57	0	475004928	52	4373
2026-01-05 02:20:50.90	249.80	13.47	-45.2	-46.3	16.2	0.00e+00	0	57	0	478150656	52	4275
2026-01-05 02:20:51.89	249.73	13.38	-44.9	-46.0	16.5	0.00e+00	0	57	0	481296384	52	4118
2026-01-05 02:20:52.88	249.66	13.29	-44.9	-46.0	16.6	0.00e+00	0	57	0	484442112	52	4101
2026-01-05 02:20:53.86	249.59	13.20	-45.0	-46.0	16.5	0.00e+00	0	57	0	487587840	52	4134
2026-01-05 02:20:54.85	249.51	13.11	-45.1	-46.2	16.3	0.00e+00	0	57	0	490733568	52	4226
2026-01-05 02:20:55.84	249.44	13.02	-45.2	-46.3	16.2	0.00e+00	0	57	0	492830720	52	4265
2026-01-05 02:20:56.83	249.37	12.92	-45.1	-46.3	16.2	0.00e+00	0	57	0	495976448	52	4258
2026-01-05 02:20:57.82	249.30	12.83	-45.3	-46.4	16.1	0.00e+00	0	57	0	499122176	52	4327
2026-01-05 02:20:58.81	249.23	12.74	-45.3	-46.4	16.1	0.00e+00	0	57	0	502267904	52	4320
2026-01-05 02:20:59.79	249.16	12.66	-45.3	-46.5	16.0	0.00e+00	0	57	0	505413632	52	4370
2026-01-05 02:21:00.78	249.09	12.57	-45.5	-46.7	15.8	0.00e+00	0	57	0	508559360	52	4458
2026-01-05 02:21:01.77	249.03	12.48	-45.5	-46.6	15.8	0.00e+00	0	57	0	511705088	52	4439
2026-01-05 02:21:02.76	248.96	12.39	-45.4	-46.6	15.9	0.00e+00	0	57	0	514850816	52	4412
2026-01-05 02:21:03.75	248.89	12.30	-45.4	-46.6	15.8	0.00e+00	0	57	0	517996544	52	4427
2026-01-05 02:21:04.74	248.82	12.21	-45.5	-46.7	15.7	0.00e+00	0	57	0	521142272	52	4483
2026-01-05 02:21:05.73	248.75	12.12	-45.5	-46.8	15.7	0.00e+00	0	57	0	524288000	53	4244
2026-01-05 02:21:06.72	248.69	12.04	-45.6	-46.8	15.7	0.00e+00	0	57	0	527433728	53	4275
2026-01-05 02:21:07.71	248.62	11.95	-45.9	-47.1	15.3	0.00e+00	0	57	0	530579456	53	4434
2026-01-05 02:21:08.69	248.56	11.86	-45.8	-47.1	15.4	0.00e+00	0	57	0	533725184	53	4397
2026-01-05 02:21:09.68	248.49	11.77	-45.9	-47.2	15.3	0.00e+00	0	57	0	536870912	53	4454
2026-01-05 02:21:10.68	248.43	11.69	-45.8	-47.1	15.3	0.00e+00	0	57	0	540016640	53	4429
2026-01-05 02:21:11.67	248.36	11.60	-45.6	-46.9	15.6	0.00e+00	0	57	0	543162368	53	4316
2026-01-05 02:21:12.66	248.30	11.51	-45.6	-46.8	15.6	0.00e+00	0	57	0	546308096	53	4287
2026-01-05 02:21:13.65	248.23	11.43	-45.6	-46.9	15.5	0.00e+00	0	57	0	549453824	53	4311
2026-01-05 02:21:14.64	248.17	11.34	-45.8	-47.1	15.3	0.00e+00	0	57	0	552599552	53	4432
2026-01-05 02:21:15.63	248.11	11.26	-45.9	-47.2	15.2	0.00e+00	0	57	0	554696704	53	4473
2026-01-05 02:21:16.62	248.05	11.17	-45.9	-47.2	15.2	0.00e+00	0	57	0	557842432	53	4491
2026-01-05 02:21:17.61	247.98	11.09	-46.3	-47.7	14.8	0.00e+00	0	57	0	560988160	54	4455
2026-01-05 02:21:18.60	247.92	11.00	-46.3	-47.8	14.7	7.00e-07	0	57	0	564133888	54	4498
2026-01-05 02:21:19.59	247.86	10.92	-46.0	-47.3	15.1	7.00e-07	0	57	0	567279616	54	4268
2026-01-05 02:21:20.58	247.80	10.83	-45.8	-47.1	15.3	0.00e+00	0	57	0	570425344	54	4176
2026-01-05 02:21:21.56	247.74	10.75	-45.8	-47.0	15.4	0.00e+00	0	57	0	573571072	54	4139
2026-01-05 02:21:22.55	247.68	10.67	-45.8	-47.0	15.4	0.00e+00	0	57	0	576716800	54	4135
2026-01-05 02:21:23.54	247.62	10.58	-45.8	-47.1	15.3	0.00e+00	0	57	0	579862528	54	4189
2026-01-05 02:21:24.53	247.56	10.50	-46.0	-47.3	15.1	0.00e+00	0	57	0	583008256	54	4274
2026-01-05 02:21:25.52	247.50	10.42	-45.9	-47.2	15.2	0.00e+00	0	57	0	586153984	54	4220
2026-01-05 02:21:26.51	247.44	10.34	-46.1	-47.4	15.0	7.00e-07	0	57	0	589299712	54	4331
2026-01-05 02:21:27.50	247.38	10.25	-46.2	-47.6	14.8	0.00e+00	0	57	0	592445440	54	4405
2026-01-05 02:21:28.49	247.32	10.17	-46.1	-47.5	15.0	0.00e+00	0	57	0	595591168	54	4350
2026-01-05 02:21:29.47	247.27	10.09	-46.3	-47.7	14.7	0.00e+00	0	57	0	598736896	54	4484
2026-01-05 02:21:30.47	247.21	10.01	-46.4	-47.8	14.5	0.00e+00	0	57	0	601882624	54	4543
2026-01-05 02:21:31.45	247.15	9.93	-46.3	-47.8	14.6	0.00e+00	0	57	0	605028352	54	4506
2026-01-05 02:21:32.45	247.09	9.84	-46.5	-48.0	14.4	0.00e+00	0	57	0	608174080	54	4609
2026-01-05 02:21:33.44	247.04	9.76	-46.7	-48.3	14.1	1.50e-06	0	57	0	611319808	55	4522
2026-01-05 02:21:34.43	246.98	9.68	-46.4	-47.9	14.4	0.00e+00	0	57	0	614465536	55	4332
2026-01-05 02:21:35.41	246.93	9.60	-46.4	-47.9	14.5	7.00e-07	0	57	0	616562688	55	4296
2026-01-05 02:21:36.41	246.87	9.52	-46.4	-47.9	14.5	0.00e+00	0	57	0	619708416	55	4305
2026-01-05 02:21:37.40	246.82	9.44	-46.4	-47.9	14.5	0.00e+00	0	57	0	622854144	55	4296
2026-01-05 02:21:38.38	246.76	9.36	-46.4	-47.8	14.5	0.00e+00	0	57	0	625999872	55	4278
2026-01-05 02:21:39.38	246.71	9.28	-46.6	-48.2	14.2	0.00e+00	0	57	0	629145600	55	4453
2026-01-05 02:21:40.37	246.65	9.20	-46.8	-48.5	13.9	2.20e-06	0	57	0	632291328	55	4603
2026-01-05 02:21:41.36	246.60	9.12	-46.5	-48.1	14.3	1.50e-06	0	57	0	635437056	55	4404
2026-01-05 02:21:42.36	246.54	9.05	-46.4	-47.9	14.5	0.00e+00	0	57	0	638582784	55	4296
2026-01-05 02:21:43.34	246.49	8.97	-46.3	-47.8	14.5	0.00e+00	0	57	0	641728512	55	4272
2026-01-05 02:21:44.33	246.44	8.89	-46.3	-47.8	14.5	0.00e+00	0	57	0	644874240	55	4278
2026-01-05 02:21:45.32	246.39	8.81	-46.4	-47.9	14.4	0.00e+00	0	57	0	648019968	55	4335
2026-01-05 02:21:46.31	246.33	8.73	-46.4	-47.9	14.4	1.50e-06	0	57	0	651165696	55	4301
2026-01-05 02:21:47.30	246.28	8.65	-46.5	-48.1	14.2	7.00e-07	0	57	0	654311424	55	4410
2026-01-05 02:21:48.29	246.23	8.58	-46.7	-48.2	14.0	3.00e-06	0	57	0	657457152	55	4487
2026-01-05 02:21:49.28	246.18	8.50	-46.5	-48.0	14.3	7.00e-07	0	57	0	660602880	55	4362
2026-01-05 02:21:50.27	246.13	8.42	-46.5	-48.0	14.3	7.00e-07	0	57	0	663748608	55	4380
2026-01-05 02:21:51.26	246.07	8.35	-46.6	-48.2	14.1	2.20e-06	0	57	0	666894336	55	4450
2026-01-05 02:21:52.25	246.02	8.27	-46.5	-48.0	14.2	0.00e+00	0	57	0	670040064	55	4377
2026-01-05 02:21:53.23	245.97	8.19	-46.7	-48.3	14.0	1.50e-06	0	57	0	673185792	55	4518
2026-01-05 02:21:54.22	245.92	8.12	-46.5	-48.1	14.2	7.00e-07	0	57	0	676331520	55	4399
2026-01-05 02:21:55.21	245.87	8.04	-46.5	-48.1	14.1	3.00e-06	0	57	0	679477248	55	4437
2026-01-05 02:21:56.20	245.82	7.97	-46.6	-48.2	14.1	5.30e-06	0	57	0	681574400	55	4458
2026-01-05 02:21:57.19	245.78	7.89	-46.7	-48.3	13.9	3.80e-06	0	57	0	684720128	55	4535
2026-01-05 02:21:58.18	245.73	7.81	-46.6	-48.2	14.1	2.20e-06	0	57	0	687865856	55	4456
2026-01-05 02:21:59.17	245.68	7.74	-46.7	-48.4	13.8	3.80e-06	0	57	0	691011584	55	4566
2026-01-05 02:22:00.17	245.63	7.66	-46.8	-48.5	13.7	5.30e-06	0	57	0	694157312	55	4635
2026-01-05 02:22:01.16	245.58	7.59	-46.7	-48.3	13.8	2.20e-06	0	57	0	697303040	55	4544
2026-01-05 02:22:02.14	245.53	7.51	-46.6	-48.2	14.0	5.30e-06	0	57	0	700448768	55	4460
2026-01-05 02:22:03.13	245.49	7.44	-46.7	-48.3	13.9	3.00e-06	0	57	0	703594496	55	4523
2026-01-05 02:22:04.12	245.44	7.37	-46.9	-48.7	13.5	6.10e-06	0	57	0	706740224	55	4721
2026-01-05 02:22:05.10	245.39	7.29	-47.0	-48.8	13.4	1.14e-05	0	57	0	709885952	55	4773
2026-01-05 02:22:06.10	245.34	7.22	-46.9	-48.6	13.5	1.29e-05	0	57	0	713031680	55	4686
2026-01-05 02:22:07.08	245.30	7.14	-47.1	-48.9	13.3	1.14e-05	0	57	0	716177408	55	4825
2026-01-05 02:22:08.07	245.25	7.07	-47.3	-49.2	13.0	2.97e-05	0	57	0	719323136	56	4751
2026-01-05 02:22:09.06	245.20	7.00	-47.2	-49.0	13.3	1.06e-05	0	57	0	722468864	56	4613
2026-01-05 02:22:10.05	245.16	6.92	-47.0	-48.8	13.5	9.90e-06	0	57	0	725614592	56	4499
2026-01-05 02:22:11.04	245.11	6.85	-47.1	-48.9	13.3	1.67e-05	0	57	0	728760320	56	4553
2026-01-05 02:22:12.03	245.07	6.78	-47.1	-48.8	13.3	1.60e-05	0	57	0	731906048	56	4535
2026-01-05 02:22:13.02	245.02	6.71	-46.9	-48.7	13.5	1.22e-05	0	57	0	735051776	56	4444
2026-01-05 02:22:14.00	244.98	6.63	-46.8	-48.5	13.8	1.14e-05	0	57	0	738197504	56	4344
2026-01-05 02:22:14.99	244.93	6.56	-46.8	-48.4	13.8	6.10e-06	0	57	0	740294656	56	4326
2026-01-05 02:22:15.98	244.89	6.49	-46.8	-48.5	13.7	6.10e-06	0	57	0	743440384	56	4347
2026-01-05 02:22:16.97	244.84	6.42	-46.9	-48.6	13.5	8.30e-06	0	57	0	746586112	56	4438
2026-01-05 02:22:17.96	244.80	6.35	-47.2	-49.0	13.2	2.21e-05	0	57	0	749731840	56	4621
2026-01-05 02:22:18.94	244.76	6.28	-47.0	-48.8	13.3	1.75e-05	0	57	0	752877568	56	4532
2026-01-05 02:22:19.93	244.71	6.21	-47.0	-48.8	13.4	1.14e-05	0	57	0	756023296	56	4495
2026-01-05 02:22:20.91	244.67	6.13	-47.1	-49.0	13.2	2.67e-05	0	57	0	759169024	56	4599
2026-01-05 02:22:21.90	244.63	6.06	-47.1	-48.9	13.2	3.05e-05	0	57	0	762314752	56	4571
2026-01-05 02:22:22.89	244.58	5.99	-47.2	-49.1	13.0	2.28e-05	0	57	0	765460480	56	4662
2026-01-05 02:22:23.88	244.54	5.92	-46.9	-48.7	13.4	1.44e-05	0	57	0	768606208	56	4467
2026-01-05 02:22:24.87	244.50	5.85	-47.1	-49.0	12.9	2.51e-05	0	57	0	771751936	56	4633
2026-01-05 02:22:25.86	244.46	5.78	-47.0	-48.8	13.2	2.28e-05	0	57	0	774897664	56	4512
2026-01-05 02:22:26.85	244.41	5.71	-46.9	-48.7	13.1	1.75e-05	0	57	0	778043392	56	4486
2026-01-05 02:22:27.84	244.37	5.64	-47.0	-49.0	12.9	5.26e-05	0	57	0	781189120	56	4629
2026-01-05 02:22:28.81	244.33	5.57	-47.1	-49.2	12.6	9.53e-05	0	57	0	784334848	56	4713
2026-01-05 02:22:29.79	244.29	5.50	-47.0	-49.0	12.8	6.40e-05	0	57	0	787480576	56	4600
2026-01-05 02:22:30.79	244.25	5.43	-46.7	-48.6	13.1	3.12e-05	0	57	0	789577728	56	4430
2026-01-05 02:22:31.77	244.21	5.37	-46.5	-48.3	13.3	1.83e-05	0	57	0	792723456	56	4269
2026-01-05 02:22:32.77	244.17	5.30	-46.7	-48.6	13.0	2.28e-05	0	57	0	795869184	56	4415
2026-01-05 02:22:33.76	244.13	5.23	-47.1	-49.2	12.3	1.26e-04	0	57	0	799014912	56	4745
2026-01-05 02:22:34.75	244.09	5.16	-47.6	-50.1	11.2	8.31e-04	0	57	0	802160640	56	5244
2026-01-05 02:22:35.74	244.05	5.09	-48.0	-50.8	10.4	3.98e-03	0	57	0	805306368	57	5401
2026-01-05 02:22:36.74	244.01	5.02	-48.5	-51.7	9.7	7.40e-03	0	57	0	808452096	58	5605
2026-01-05 02:22:37.73	243.97	4.95	-51.7	-63.0	3.8	1.49e+00	0	57	104	809500672	65	13841
2026-01-05 02:22:38.71	243.93	4.89	-51.9	-63.4	3.8	1.49e+00	0	57	104	809500672	65	14417
2026-01-05 02:22:39.70	243.89	4.82	-52.0	-63.5	3.8	1.49e+00	0	57	104	809500672	65	14562
2026-01-05 02:22:40.69	243.85	4.75	-52.2	-63.6	3.8	1.49e+00	0	57	104	809500672	66	14021
2026-01-05 02:22:41.68	243.81	4.68	-51.0	-62.5	3.8	1.49e+00	0	57	104	809500672	63	14554
2026-01-05 02:22:42.67	243.77	4.61	-52.3	-63.8	3.8	1.49e+00	0	57	104	809500672	66	14367
2026-01-05 02:22:43.67	243.73	4.55	-52.4	-63.9	3.8	1.49e+00	0	57	104	809500672	66	14489
2026-01-05 02:22:44.65	243.69	4.48	-52.4	-63.9	3.8	1.49e+00	0	57	104	809500672	66	14467
2026-01-05 02:22:45.64	243.66	4.41	-52.3	-63.9	3.8	1.49e+00	0	57	104	809500672	66	14523
2026-01-05 02:22:46.63	243.62	4.35	-52.4	-63.9	3.8	1.49e+00	0	57	104	809500672	66	14495
2026-01-05 02:22:47.62	243.58	4.28	-52.5	-64.0	3.8	1.49e+00	0	57	104	809500672	66	14557
2026-01-05 02:22:48.62	243.54	4.21	-52.5	-64.0	3.8	1.49e+00	0	57	104	809500672	66	14616
2026-01-05 02:22:49.61	243.50	4.15	-52.5	-64.0	3.8	1.49e+00	0	57	104	809500672	67	13858
2026-01-05 02:22:50.59	243.47	4.08	-52.6	-64.1	3.8	1.49e+00	0	57	104	809500672	67	13923
2026-01-05 02:22:51.58	243.43	4.01	-52.6	-64.1	3.8	1.49e+00	0	57	104	809500672	67	13908
2026-01-05 02:22:52.57	243.39	3.95	-52.6	-64.1	3.8	1.49e+00	0	57	104	809500672	67	13973
2026-01-05 02:22:53.56	243.36	3.88	-52.6	-64.1	3.8	1.49e+00	0	57	104	809500672	67	13994
2026-01-05 02:22:54.55	243.32	3.82	-52.6	-64.1	3.8	1.49e+00	0	57	104	809500672	67	14032
2026-01-05 02:22:55.54	243.28	3.75	-52.7	-64.1	3.8	1.49e+00	0	57	104	809500672	67	14014
2026-01-05 02:22:56.53	243.25	3.69	-52.7	-64.2	3.8	1.49e+00	0	57	104	809500672	67	14098
2026-01-05 02:22:57.52	243.21	3.62	-52.6	-64.1	3.8	1.49e+00	0	57	104	809500672	67	14044
2026-01-05 02:22:58.51	243.18	3.56	-52.7	-64.2	3.8	1.49e+00	0	57	104	809500672	67	14051
2026-01-05 02:22:59.50	243.14	3.49	-52.6	-64.2	3.8	1.49e+00	0	57	104	809500672	67	14088
2026-01-05 02:23:00.49	243.10	3.43	-52.7	-64.2	3.8	1.49e+00	0	57	104	809500672	67	14097
2026-01-05 02:23:01.48	243.07	3.36	-52.7	-64.2	3.8	1.49e+00	0	57	104	809500672	67	14100
2026-01-05 02:23:02.46	243.03	3.30	-52.6	-64.2	3.8	1.49e+00	0	57	104	809500672	67	14076
2026-01-05 02:23:03.46	243.00	3.23	-52.6	-64.2	3.8	1.49e+00	0	57	104	809500672	67	14086
2026-01-05 02:23:04.45	242.96	3.17	-52.7	-64.2	3.8	1.49e+00	0	57	104	809500672	67	14076
2026-01-05 02:23:05.44	242.93	3.10	-52.6	-64.1	3.8	1.49e+00	0	57	104	809500672	67	14045
2026-01-05 02:23:06.43	242.90	3.04	-52.6	-64.2	3.8	1.49e+00	0	57	104	809500672	67	14060
2026-01-05 02:23:07.41	242.86	2.98	-52.7	-64.2	3.8	1.49e+00	0	57	104	809500672	67	14057

#Closed at: 2026-01-05 02:23:08
#Recorded file [809 MB]: D:/Data/31026_260105_052236.dat