passes_logs/2026/01/05/R3.0SM8_Murmansk_STILSPACE/R3.0SM8_Murmansk_STILSPACE__20260105_083815_FENGYUN_3D_rec.log

#Pass ID: 20260105_083815_FENGYUN 3D
#Satellite: FENGYUN 3D
#Configuration: FENGYUN 3D
#almurnet v.1.7.20240730
#Start time: 2026-01-05 08:38:16

#Version: 2.2.20231116
#Station: R3.0SM8_Murmansk_STILSPACE
#Location: 33.092731 lon 68.902999 lat
#TLE: 1 43010U 17072A   26004.50247883 -.00000063  00000+0 -78815-5 0  9998
#TLE: 2 43010  98.9915 336.1565 0001968 126.3752 233.7605 14.19691805421760

#Time	Az	El	Level	Level2	SNR	BER	BlckErr	Temp	State	Recorded	gain1	gain2
2026-01-05 08:38:16.62	86.39	3.06	-52.3	-63.1	3.8	8.46e-01	0	45	0	0	67	12406
2026-01-05 08:38:17.61	86.33	3.12	-52.0	-62.8	3.8	8.46e-01	0	46	104	0	67	12091
2026-01-05 08:38:18.59	86.27	3.18	-52.0	-62.8	3.8	8.47e-01	0	46	104	0	66	12737
2026-01-05 08:38:19.58	86.21	3.24	-51.9	-62.6	3.8	8.45e-01	0	46	104	0	66	12508
2026-01-05 08:38:20.58	86.15	3.31	-51.7	-62.4	3.8	8.46e-01	0	46	104	0	66	12229
2026-01-05 08:38:21.57	86.09	3.37	-51.5	-62.2	3.8	8.46e-01	0	46	104	0	66	11954
2026-01-05 08:38:22.56	86.03	3.43	-51.5	-62.2	3.8	8.46e-01	0	46	104	0	66	11909
2026-01-05 08:38:23.54	85.97	3.49	-51.5	-62.2	3.8	8.46e-01	0	46	104	0	66	11919
2026-01-05 08:38:24.52	85.92	3.55	-51.4	-62.2	3.8	8.46e-01	0	46	104	0	66	11851
2026-01-05 08:38:25.51	85.85	3.61	-51.5	-62.2	3.8	8.46e-01	0	46	104	0	66	11865
2026-01-05 08:38:26.50	85.79	3.67	-51.5	-62.2	3.8	8.47e-01	0	46	104	0	66	11914
2026-01-05 08:38:27.48	85.73	3.73	-51.5	-62.2	3.8	8.46e-01	0	46	104	0	66	11887
2026-01-05 08:38:28.46	85.67	3.79	-51.5	-62.2	3.8	8.46e-01	0	47	104	0	66	11868
2026-01-05 08:38:29.45	85.61	3.85	-51.5	-62.2	3.8	8.46e-01	0	47	104	0	66	11929
2026-01-05 08:38:30.43	85.55	3.91	-51.5	-62.2	3.8	8.46e-01	0	47	104	0	66	11951
2026-01-05 08:38:31.41	85.49	3.97	-51.6	-62.2	3.8	8.46e-01	0	47	104	0	66	11937
2026-01-05 08:38:32.40	85.43	4.03	-51.5	-62.2	3.8	8.45e-01	0	47	104	0	66	11924
2026-01-05 08:38:33.39	85.37	4.10	-51.5	-62.2	3.8	8.45e-01	0	47	104	0	66	11867
2026-01-05 08:38:34.38	85.30	4.16	-51.6	-62.1	3.8	8.47e-01	0	47	104	0	66	11700
2026-01-05 08:38:35.37	85.24	4.22	-51.6	-61.8	3.8	8.46e-01	0	47	104	0	66	11397
2026-01-05 08:38:36.36	85.18	4.28	-51.4	-61.5	3.8	8.47e-01	0	47	104	0	65	11641
2026-01-05 08:38:37.35	85.11	4.34	-51.4	-61.0	3.8	8.45e-01	0	47	104	0	65	11005
2026-01-05 08:38:38.34	85.05	4.41	-51.4	-60.4	3.8	8.45e-01	0	47	104	0	65	10248
2026-01-05 08:38:39.32	84.99	4.47	-51.2	-59.8	3.9	8.45e-01	0	47	104	0	65	9519
2026-01-05 08:38:40.31	84.92	4.53	-51.0	-59.0	4.1	8.44e-01	0	47	104	0	65	8674
2026-01-05 08:38:41.30	84.86	4.59	-50.8	-57.9	4.5	8.27e-01	0	47	0	0	64	8168
2026-01-05 08:38:42.29	84.79	4.65	-50.7	-57.0	4.8	7.98e-01	0	48	0	0	64	7313
2026-01-05 08:38:43.28	84.73	4.72	-50.4	-56.2	5.3	7.55e-01	0	47	0	0	64	6697
2026-01-05 08:38:44.27	84.66	4.78	-50.3	-55.6	5.8	4.77e-01	0	48	0	2097152	63	6580
2026-01-05 08:38:45.26	84.59	4.84	-50.2	-55.1	6.2	3.43e-01	0	48	0	7340032	63	6213
2026-01-05 08:38:46.25	84.53	4.91	-49.8	-54.0	7.1	1.77e-01	0	48	0	12582912	62	5855
2026-01-05 08:38:47.24	84.46	4.97	-49.5	-53.3	7.8	1.11e-01	0	48	0	18874368	62	5344
2026-01-05 08:38:48.23	84.40	5.03	-49.4	-53.0	8.1	8.14e-02	0	48	0	24117248	61	5469
2026-01-05 08:38:49.22	84.33	5.10	-49.4	-53.0	8.1	6.59e-02	0	48	0	29360128	61	5489
2026-01-05 08:38:50.21	84.26	5.16	-49.5	-53.4	7.8	9.09e-02	0	48	0	34603008	61	5737
2026-01-05 08:38:51.21	84.19	5.22	-49.4	-53.0	8.1	7.94e-02	0	48	0	40894464	61	5497
2026-01-05 08:38:52.20	84.12	5.29	-49.3	-52.7	8.4	5.34e-02	0	48	0	46137344	61	5314
2026-01-05 08:38:53.19	84.06	5.35	-49.0	-52.2	8.9	4.26e-02	0	48	0	52428800	61	5028
2026-01-05 08:38:54.16	83.99	5.41	-48.8	-51.9	9.2	2.78e-02	0	48	0	57671680	60	5131
2026-01-05 08:38:55.15	83.92	5.48	-49.1	-52.4	8.7	2.81e-02	0	48	0	62914560	60	5457
2026-01-05 08:38:56.14	83.85	5.54	-48.9	-52.2	9.0	2.67e-02	0	48	0	68157440	60	5308
2026-01-05 08:38:57.13	83.78	5.61	-49.3	-52.9	8.3	5.76e-02	0	48	0	74448896	60	5746
2026-01-05 08:38:58.12	83.71	5.67	-48.8	-51.9	9.3	3.76e-02	0	48	0	79691776	60	5109
2026-01-05 08:38:59.11	83.64	5.74	-48.3	-50.9	10.4	7.89e-03	0	49	0	84934656	59	4815
2026-01-05 08:39:00.10	83.57	5.80	-47.8	-50.2	11.1	2.81e-03	0	49	0	91226112	58	4709
2026-01-05 08:39:01.09	83.50	5.87	-47.2	-49.2	12.1	9.43e-04	0	49	0	96468992	57	4491
2026-01-05 08:39:02.08	83.43	5.93	-47.0	-48.9	12.4	3.07e-04	0	49	0	101711872	57	4328
2026-01-05 08:39:03.07	83.36	6.00	-46.6	-48.3	13.0	9.95e-05	0	49	0	108003328	56	4271
2026-01-05 08:39:04.06	83.28	6.06	-46.0	-47.6	13.6	1.48e-05	0	49	0	113246208	55	4180
2026-01-05 08:39:05.04	83.21	6.13	-45.8	-47.4	13.9	5.70e-06	0	49	0	118489088	54	4293
2026-01-05 08:39:06.04	83.14	6.19	-45.6	-47.1	14.2	2.20e-06	0	49	0	123731968	54	4154
2026-01-05 08:39:07.02	83.07	6.26	-45.3	-46.6	14.6	0.00e+00	0	49	0	130023424	53	4187
2026-01-05 08:39:08.01	82.99	6.32	-45.1	-46.4	14.9	0.00e+00	0	49	0	135266304	53	4084
2026-01-05 08:39:09.00	82.92	6.39	-45.0	-46.3	14.9	0.00e+00	0	49	0	140509184	53	4028
2026-01-05 08:39:09.99	82.85	6.45	-44.8	-46.1	15.2	0.00e+00	0	49	0	146800640	52	4150
2026-01-05 08:39:10.98	82.77	6.52	-44.8	-46.0	15.2	0.00e+00	0	49	0	152043520	52	4124
2026-01-05 08:39:11.97	82.70	6.59	-44.7	-45.9	15.3	0.00e+00	0	49	0	157286400	52	4097
2026-01-05 08:39:12.96	82.62	6.65	-44.6	-45.9	15.4	0.00e+00	0	49	0	162529280	52	4055
2026-01-05 08:39:13.95	82.55	6.72	-44.9	-46.2	15.1	0.00e+00	0	49	0	168820736	52	4233
2026-01-05 08:39:14.94	82.47	6.78	-44.8	-46.0	15.3	0.00e+00	0	49	0	174063616	52	4122
2026-01-05 08:39:15.92	82.40	6.85	-44.7	-45.9	15.4	0.00e+00	0	49	0	180355072	52	4070
2026-01-05 08:39:16.90	82.32	6.92	-44.6	-45.8	15.4	0.00e+00	0	50	0	185597952	52	4046
2026-01-05 08:39:17.89	82.24	6.98	-44.6	-45.9	15.4	0.00e+00	0	49	0	190840832	52	4067
2026-01-05 08:39:18.88	82.17	7.05	-44.6	-45.8	15.4	0.00e+00	0	49	0	196083712	52	4048
2026-01-05 08:39:19.87	82.09	7.12	-44.9	-46.2	15.1	0.00e+00	0	50	0	202375168	52	4234
2026-01-05 08:39:20.86	82.01	7.19	-44.8	-46.0	15.3	0.00e+00	0	50	0	207618048	52	4123
2026-01-05 08:39:21.85	81.93	7.25	-44.7	-45.9	15.4	0.00e+00	0	50	0	212860928	52	4079
2026-01-05 08:39:22.84	81.85	7.32	-44.7	-45.9	15.4	0.00e+00	0	50	0	219152384	52	4080
2026-01-05 08:39:23.83	81.78	7.39	-44.8	-46.0	15.3	0.00e+00	0	50	0	224395264	52	4140
2026-01-05 08:39:24.82	81.70	7.46	-45.0	-46.3	15.1	0.00e+00	0	50	0	229638144	52	4245
2026-01-05 08:39:25.81	81.62	7.52	-44.9	-46.2	15.2	0.00e+00	0	50	0	234881024	52	4201
2026-01-05 08:39:26.80	81.54	7.59	-45.0	-46.2	15.2	0.00e+00	0	50	0	241172480	52	4229
2026-01-05 08:39:27.79	81.45	7.66	-45.2	-46.5	14.9	0.00e+00	0	50	0	246415360	52	4386
2026-01-05 08:39:28.77	81.37	7.73	-45.0	-46.3	15.1	0.00e+00	0	50	0	252706816	52	4289
2026-01-05 08:39:29.76	81.29	7.80	-44.9	-46.2	15.2	0.00e+00	0	50	0	257949696	52	4208
2026-01-05 08:39:30.74	81.21	7.86	-44.9	-46.1	15.2	0.00e+00	0	50	0	263192576	52	4189
2026-01-05 08:39:31.74	81.13	7.93	-45.1	-46.5	14.9	0.00e+00	0	50	0	268435456	52	4353
2026-01-05 08:39:32.72	81.05	8.00	-45.0	-46.2	15.2	0.00e+00	0	50	0	274726912	52	4234
2026-01-05 08:39:33.71	80.96	8.07	-44.6	-45.8	15.6	0.00e+00	0	50	0	279969792	52	4034
2026-01-05 08:39:34.70	80.88	8.14	-44.4	-45.5	16.0	0.00e+00	0	50	0	285212672	51	4136
2026-01-05 08:39:35.69	80.80	8.21	-44.3	-45.4	16.1	0.00e+00	0	50	0	291504128	51	4092
2026-01-05 08:39:36.68	80.71	8.28	-44.3	-45.5	16.0	0.00e+00	0	50	0	296747008	51	4109
2026-01-05 08:39:37.68	80.63	8.35	-44.6	-45.7	15.8	0.00e+00	0	50	0	301989888	51	4236
2026-01-05 08:39:38.67	80.54	8.42	-44.4	-45.6	15.9	0.00e+00	0	50	0	308281344	51	4172
2026-01-05 08:39:39.66	80.46	8.49	-44.2	-45.4	16.2	0.00e+00	0	51	0	313524224	51	4055
2026-01-05 08:39:40.65	80.37	8.56	-44.3	-45.4	16.2	0.00e+00	0	51	0	318767104	51	4056
2026-01-05 08:39:41.63	80.29	8.63	-44.4	-45.5	16.0	0.00e+00	0	51	0	324009984	51	4135
2026-01-05 08:39:42.62	80.20	8.70	-44.4	-45.5	16.0	0.00e+00	0	51	0	330301440	51	4124
2026-01-05 08:39:43.60	80.11	8.76	-44.3	-45.4	16.1	0.00e+00	0	51	0	335544320	51	4097
2026-01-05 08:39:44.60	80.02	8.84	-44.5	-45.7	15.9	0.00e+00	0	51	0	340787200	51	4211
2026-01-05 08:39:45.58	79.94	8.91	-44.6	-45.7	15.8	0.00e+00	0	51	0	347078656	51	4226
2026-01-05 08:39:46.57	79.85	8.98	-44.4	-45.6	16.0	0.00e+00	0	51	0	352321536	51	4165
2026-01-05 08:39:47.57	79.76	9.05	-44.3	-45.5	16.1	0.00e+00	0	51	0	357564416	51	4102
2026-01-05 08:39:48.55	79.67	9.12	-44.4	-45.5	16.0	0.00e+00	0	51	0	362807296	51	4131
2026-01-05 08:39:49.54	79.58	9.19	-44.4	-45.5	16.1	0.00e+00	0	51	0	369098752	51	4115
2026-01-05 08:39:50.53	79.49	9.26	-44.3	-45.4	16.2	0.00e+00	0	51	0	374341632	51	4075
2026-01-05 08:39:51.52	79.40	9.33	-44.1	-45.2	16.4	0.00e+00	0	51	0	380633088	51	3960
2026-01-05 08:39:52.50	79.31	9.40	-44.2	-45.3	16.3	0.00e+00	0	51	0	385875968	51	4036
2026-01-05 08:39:53.49	79.22	9.47	-44.2	-45.3	16.3	0.00e+00	0	51	0	391118848	51	4041
2026-01-05 08:39:54.48	79.13	9.54	-44.4	-45.6	16.1	0.00e+00	0	51	0	396361728	51	4146
2026-01-05 08:39:55.47	79.03	9.62	-44.4	-45.5	16.0	0.00e+00	0	51	0	401604608	51	4130
2026-01-05 08:39:56.46	78.94	9.69	-44.3	-45.4	16.2	0.00e+00	0	51	0	407896064	51	4082
2026-01-05 08:39:57.45	78.85	9.76	-44.5	-45.6	16.0	0.00e+00	0	51	0	413138944	51	4183
2026-01-05 08:39:58.44	78.75	9.83	-44.5	-45.6	16.0	0.00e+00	0	51	0	419430400	51	4185
2026-01-05 08:39:59.43	78.66	9.91	-44.3	-45.3	16.3	0.00e+00	0	51	0	424673280	51	4047
2026-01-05 08:40:00.42	78.56	9.98	-44.1	-45.1	16.5	0.00e+00	0	51	0	429916160	51	3937
2026-01-05 08:40:01.41	78.47	10.05	-44.0	-45.0	16.6	0.00e+00	0	51	0	435159040	51	3913
2026-01-05 08:40:02.40	78.37	10.12	-43.9	-44.9	16.7	0.00e+00	0	51	0	441450496	50	4080
2026-01-05 08:40:03.38	78.28	10.19	-43.9	-44.9	16.7	0.00e+00	0	51	0	446693376	50	4090
2026-01-05 08:40:04.38	78.18	10.27	-43.6	-44.6	17.0	0.00e+00	0	52	0	451936256	50	3938
2026-01-05 08:40:05.36	78.08	10.34	-43.5	-44.5	17.1	0.00e+00	0	51	0	458227712	50	3885
2026-01-05 08:40:06.36	77.98	10.42	-43.5	-44.5	17.2	0.00e+00	0	51	0	463470592	50	3880
2026-01-05 08:40:07.35	77.88	10.49	-43.6	-44.5	17.2	0.00e+00	0	52	0	468713472	50	3900
2026-01-05 08:40:08.34	77.78	10.56	-43.6	-44.5	17.1	0.00e+00	0	52	0	475004928	50	3907
2026-01-05 08:40:09.32	77.69	10.63	-43.5	-44.4	17.2	0.00e+00	0	51	0	480247808	50	3854
2026-01-05 08:40:10.32	77.59	10.71	-43.6	-44.6	17.1	0.00e+00	0	51	0	485490688	50	3933
2026-01-05 08:40:11.31	77.48	10.78	-43.6	-44.6	17.0	0.00e+00	0	52	0	490733568	50	3942
2026-01-05 08:40:12.29	77.38	10.86	-43.6	-44.6	17.1	0.00e+00	0	52	0	497025024	50	3922
2026-01-05 08:40:13.28	77.28	10.93	-43.5	-44.5	17.2	0.00e+00	0	52	0	502267904	50	3897
2026-01-05 08:40:14.27	77.18	11.01	-43.6	-44.5	17.1	0.00e+00	0	52	0	508559360	50	3900
2026-01-05 08:40:15.25	77.08	11.08	-43.7	-44.7	17.0	0.00e+00	0	52	0	513802240	50	3990
2026-01-05 08:40:16.24	76.98	11.15	-43.8	-44.9	16.8	0.00e+00	0	52	0	519045120	50	4059
2026-01-05 08:40:17.22	76.87	11.23	-43.9	-44.9	16.9	0.00e+00	0	52	0	524288000	50	4071
2026-01-05 08:40:18.21	76.77	11.30	-44.0	-44.9	16.9	0.00e+00	0	52	0	530579456	50	4083
2026-01-05 08:40:19.21	76.66	11.38	-43.9	-44.9	16.8	0.00e+00	0	52	0	535822336	50	4070
2026-01-05 08:40:20.19	76.56	11.45	-44.0	-44.9	16.8	0.00e+00	0	52	0	541065216	50	4084
2026-01-05 08:40:21.18	76.45	11.53	-44.1	-45.1	16.7	0.00e+00	0	52	0	547356672	50	4156
2026-01-05 08:40:22.18	76.35	11.60	-44.3	-45.3	16.5	0.00e+00	0	52	0	552599552	50	4252
2026-01-05 08:40:23.17	76.24	11.68	-44.2	-45.1	16.7	0.00e+00	0	52	0	557842432	50	4187
2026-01-05 08:40:24.16	76.13	11.76	-44.4	-45.4	16.4	0.00e+00	0	52	0	563085312	50	4308
2026-01-05 08:40:25.14	76.02	11.83	-44.5	-45.5	16.3	0.00e+00	0	52	0	569376768	50	4370
2026-01-05 08:40:26.12	75.92	11.91	-44.2	-45.3	16.5	0.00e+00	0	52	0	574619648	50	4247
2026-01-05 08:40:27.12	75.81	11.98	-44.5	-45.6	16.2	0.00e+00	0	52	0	580911104	50	4420
2026-01-05 08:40:28.10	75.70	12.06	-44.8	-45.9	15.9	0.00e+00	0	52	0	586153984	51	4319
2026-01-05 08:40:29.08	75.59	12.13	-44.5	-45.6	16.2	0.00e+00	0	52	0	591396864	51	4151
2026-01-05 08:40:30.07	75.48	12.21	-44.3	-45.3	16.5	0.00e+00	0	52	0	596639744	51	4037
2026-01-05 08:40:31.05	75.37	12.29	-44.2	-45.3	16.5	0.00e+00	0	52	0	601882624	51	4014
2026-01-05 08:40:32.04	75.25	12.36	-44.3	-45.3	16.5	0.00e+00	0	52	0	608174080	51	4017
2026-01-05 08:40:33.03	75.14	12.44	-44.2	-45.2	16.6	0.00e+00	0	52	0	613416960	51	3979
2026-01-05 08:40:34.02	75.03	12.52	-44.2	-45.2	16.6	0.00e+00	0	52	0	619708416	51	3996
2026-01-05 08:40:35.01	74.91	12.59	-44.3	-45.3	16.5	0.00e+00	0	52	0	624951296	51	4043
2026-01-05 08:40:36.00	74.80	12.67	-44.5	-45.5	16.3	0.00e+00	0	52	0	630194176	51	4144
2026-01-05 08:40:36.99	74.68	12.75	-44.2	-45.2	16.7	0.00e+00	0	52	0	635437056	51	3972
2026-01-05 08:40:37.98	74.57	12.83	-43.9	-44.9	16.9	0.00e+00	0	52	0	641728512	51	3845
2026-01-05 08:40:38.97	74.45	12.90	-43.8	-44.7	17.2	0.00e+00	0	52	0	646971392	50	3965
2026-01-05 08:40:39.96	74.33	12.98	-43.6	-44.5	17.3	0.00e+00	0	53	0	652214272	50	3876
2026-01-05 08:40:40.95	74.22	13.06	-43.5	-44.4	17.4	0.00e+00	0	52	0	658505728	50	3853
2026-01-05 08:40:41.95	74.10	13.14	-43.6	-44.5	17.4	0.00e+00	0	52	0	663748608	50	3872
2026-01-05 08:40:42.93	73.98	13.21	-43.7	-44.6	17.3	0.00e+00	0	53	0	668991488	50	3923
2026-01-05 08:40:43.92	73.86	13.29	-43.5	-44.4	17.5	0.00e+00	0	53	0	675282944	50	3841
2026-01-05 08:40:44.91	73.74	13.37	-43.3	-44.1	17.7	0.00e+00	0	53	0	680525824	49	3946
2026-01-05 08:40:45.90	73.62	13.45	-43.3	-44.1	17.7	0.00e+00	0	53	0	685768704	49	3934
2026-01-05 08:40:46.89	73.49	13.53	-43.2	-44.1	17.7	0.00e+00	0	53	0	691011584	49	3947
2026-01-05 08:40:47.88	73.37	13.61	-43.4	-44.3	17.6	0.00e+00	0	53	0	697303040	49	4006
2026-01-05 08:40:48.87	73.25	13.69	-43.2	-44.1	17.8	0.00e+00	0	53	0	702545920	49	3928
2026-01-05 08:40:49.85	73.13	13.76	-43.1	-44.0	17.9	0.00e+00	0	53	0	707788800	49	3870
2026-01-05 08:40:50.84	73.00	13.84	-43.0	-43.8	18.1	0.00e+00	0	53	0	714080256	49	3792
2026-01-05 08:40:51.82	72.88	13.92	-43.0	-43.8	18.0	0.00e+00	0	53	0	719323136	49	3822
2026-01-05 08:40:52.81	72.75	14.00	-43.2	-44.0	17.8	0.00e+00	0	53	0	724566016	49	3911
2026-01-05 08:40:53.80	72.63	14.08	-43.1	-44.0	17.9	0.00e+00	0	53	0	729808896	49	3869
2026-01-05 08:40:54.78	72.50	14.16	-43.3	-44.1	17.7	0.00e+00	0	53	0	736100352	49	3950
2026-01-05 08:40:55.78	72.37	14.24	-43.5	-44.4	17.4	0.00e+00	0	53	0	741343232	49	4079
2026-01-05 08:40:56.77	72.24	14.32	-43.3	-44.1	17.7	0.00e+00	0	53	0	747634688	49	3943
2026-01-05 08:40:57.76	72.11	14.40	-42.9	-43.7	18.1	0.00e+00	0	53	0	752877568	49	3756
2026-01-05 08:40:58.74	71.98	14.48	-42.7	-43.4	18.4	0.00e+00	0	53	0	758120448	48	3861
2026-01-05 08:40:59.72	71.86	14.56	-42.6	-43.4	18.5	0.00e+00	0	53	0	763363328	48	3840
2026-01-05 08:41:00.71	71.72	14.64	-42.7	-43.4	18.4	0.00e+00	0	53	0	769654784	48	3868
2026-01-05 08:41:01.70	71.59	14.72	-42.9	-43.7	18.2	0.00e+00	0	53	0	774897664	48	3961
2026-01-05 08:41:02.69	71.46	14.80	-42.7	-43.5	18.4	0.00e+00	0	53	0	780140544	48	3880
2026-01-05 08:41:03.68	71.33	14.88	-42.5	-43.3	18.6	0.00e+00	0	53	0	786432000	48	3783
2026-01-05 08:41:04.68	71.19	14.96	-42.4	-43.1	18.7	0.00e+00	0	53	0	791674880	48	3733
2026-01-05 08:41:05.67	71.05	15.04	-42.4	-43.1	18.6	0.00e+00	0	53	0	796917760	47	3954
2026-01-05 08:41:06.67	70.92	15.12	-42.4	-43.1	18.6	0.00e+00	0	53	0	803209216	47	3946
2026-01-05 08:41:07.66	70.78	15.20	-42.5	-43.3	18.4	0.00e+00	0	53	0	808452096	47	4019
2026-01-05 08:41:08.65	70.64	15.29	-42.5	-43.3	18.5	0.00e+00	0	53	0	813694976	47	4010
2026-01-05 08:41:09.64	70.51	15.37	-42.5	-43.3	18.4	0.00e+00	0	53	0	819986432	47	4016
2026-01-05 08:41:10.63	70.37	15.45	-42.5	-43.3	18.4	0.00e+00	0	53	0	825229312	47	4046
2026-01-05 08:41:11.61	70.23	15.53	-42.7	-43.5	18.2	0.00e+00	0	53	0	830472192	47	4138
2026-01-05 08:41:12.61	70.09	15.61	-42.7	-43.5	18.2	0.00e+00	0	53	0	835715072	47	4113
2026-01-05 08:41:13.59	69.95	15.69	-42.5	-43.3	18.4	0.00e+00	0	53	0	842006528	47	4038
2026-01-05 08:41:14.58	69.80	15.77	-42.6	-43.4	18.3	0.00e+00	0	53	0	847249408	47	4096
2026-01-05 08:41:15.58	69.66	15.86	-42.6	-43.4	18.3	0.00e+00	0	54	0	852492288	47	4067
2026-01-05 08:41:16.57	69.52	15.94	-42.6	-43.4	18.3	0.00e+00	0	53	0	858783744	47	4060
2026-01-05 08:41:17.56	69.37	16.02	-42.7	-43.5	18.3	0.00e+00	0	53	0	864026624	47	4105
2026-01-05 08:41:18.54	69.23	16.10	-42.6	-43.4	18.3	0.00e+00	0	53	0	869269504	47	4078
2026-01-05 08:41:19.53	69.08	16.18	-42.4	-43.2	18.5	0.00e+00	0	54	0	875560960	47	3991
2026-01-05 08:41:20.51	68.94	16.27	-42.3	-43.1	18.7	0.00e+00	0	53	0	880803840	47	3923
2026-01-05 08:41:21.50	68.79	16.35	-42.4	-43.1	18.6	0.00e+00	0	53	0	886046720	47	3955
2026-01-05 08:41:22.49	68.64	16.43	-42.4	-43.1	18.6	0.00e+00	0	53	0	891289600	47	3947
2026-01-05 08:41:23.48	68.49	16.51	-42.3	-43.0	18.7	0.00e+00	0	54	0	897581056	47	3913
2026-01-05 08:41:24.47	68.34	16.59	-42.3	-43.0	18.8	0.00e+00	0	53	0	902823936	47	3890
2026-01-05 08:41:25.47	68.19	16.68	-42.3	-43.0	18.8	0.00e+00	0	54	0	908066816	47	3895
2026-01-05 08:41:26.45	68.04	16.76	-42.5	-43.2	18.6	0.00e+00	0	53	0	914358272	47	3995
2026-01-05 08:41:27.43	67.89	16.84	-42.4	-43.2	18.6	0.00e+00	0	53	0	919601152	47	3964
2026-01-05 08:41:28.42	67.73	16.93	-42.2	-43.0	18.8	0.00e+00	0	54	0	924844032	47	3871
2026-01-05 08:41:29.40	67.58	17.01	-42.0	-42.8	19.0	0.00e+00	0	53	0	930086912	47	3782
2026-01-05 08:41:30.39	67.43	17.09	-42.0	-42.7	19.1	0.00e+00	0	54	0	936378368	47	3744
2026-01-05 08:41:31.37	67.27	17.17	-41.9	-42.6	19.1	0.00e+00	0	53	0	941621248	47	3714
2026-01-05 08:41:32.35	67.12	17.25	-41.9	-42.6	19.1	0.00e+00	0	54	0	946864128	47	3722
2026-01-05 08:41:33.34	66.96	17.34	-41.9	-42.5	19.2	0.00e+00	0	54	0	953155584	46	3907
2026-01-05 08:41:34.33	66.80	17.42	-41.9	-42.6	19.1	0.00e+00	0	54	0	958398464	46	3942
2026-01-05 08:41:35.33	66.64	17.51	-41.7	-42.4	19.4	0.00e+00	0	54	0	963641344	46	3859
2026-01-05 08:41:36.31	66.48	17.59	-41.7	-42.3	19.4	0.00e+00	0	54	0	968884224	46	3824
2026-01-05 08:41:37.30	66.32	17.67	-41.8	-42.5	19.3	0.00e+00	0	54	0	975175680	46	3875
2026-01-05 08:41:38.29	66.16	17.75	-41.9	-42.6	19.1	0.00e+00	0	54	0	980418560	46	3949
2026-01-05 08:41:39.28	65.99	17.84	-42.1	-42.9	18.9	0.00e+00	0	54	0	986710016	46	4062
2026-01-05 08:41:40.27	65.83	17.92	-42.1	-42.8	18.9	0.00e+00	0	54	0	991952896	46	4050
2026-01-05 08:41:41.26	65.66	18.00	-42.0	-42.8	19.0	0.00e+00	0	54	0	997195776	46	4005
2026-01-05 08:41:42.24	65.50	18.09	-42.1	-42.8	19.0	0.00e+00	0	54	0	1002438656	46	4024
2026-01-05 08:41:43.23	65.33	18.17	-42.0	-42.7	19.1	0.00e+00	0	54	0	1008730112	46	3973
2026-01-05 08:41:44.22	65.16	18.25	-42.0	-42.7	19.0	0.00e+00	0	54	0	1013972992	46	3997
2026-01-05 08:41:45.20	65.00	18.34	-42.1	-42.8	19.0	0.00e+00	0	54	0	1019215872	46	4019
2026-01-05 08:41:46.19	64.83	18.42	-42.2	-42.9	18.8	0.00e+00	0	54	0	1025507328	46	4091
2026-01-05 08:41:47.18	64.66	18.50	-41.9	-42.6	19.2	0.00e+00	0	54	0	1030750208	46	3936
2026-01-05 08:41:48.17	64.48	18.59	-41.7	-42.4	19.4	0.00e+00	0	54	0	1035993088	46	3857
2026-01-05 08:41:49.16	64.31	18.67	-41.6	-42.3	19.5	0.00e+00	0	54	0	1041235968	46	3805
2026-01-05 08:41:50.14	64.14	18.75	-41.7	-42.4	19.4	0.00e+00	0	54	0	1047527424	46	3858
2026-01-05 08:41:51.14	63.96	18.84	-41.9	-42.6	19.2	0.00e+00	0	54	0	1052770304	46	3922
2026-01-05 08:41:52.13	63.79	18.92	-42.0	-42.7	19.1	0.00e+00	0	54	0	1059061760	46	3972
2026-01-05 08:41:53.11	63.61	19.01	-42.3	-43.0	18.8	0.00e+00	0	54	0	1064304640	46	4136
2026-01-05 08:41:54.10	63.44	19.09	-41.9	-42.7	19.1	0.00e+00	0	54	0	1069547520	46	3963
2026-01-05 08:41:55.09	63.26	19.17	-41.7	-42.4	19.4	0.00e+00	0	54	0	1074790400	46	3858
2026-01-05 08:41:56.08	63.08	19.26	-41.6	-42.3	19.5	0.00e+00	0	54	0	1081081856	46	3799
2026-01-05 08:41:57.06	62.90	19.34	-41.7	-42.3	19.5	0.00e+00	0	54	0	1086324736	46	3822
2026-01-05 08:41:58.05	62.72	19.42	-41.6	-42.2	19.5	0.00e+00	0	54	0	1091567616	46	3776
2026-01-05 08:41:59.04	62.53	19.51	-41.6	-42.3	19.5	0.00e+00	0	54	0	1097859072	46	3800
2026-01-05 08:42:00.03	62.35	19.59	-41.7	-42.4	19.4	0.00e+00	0	54	0	1103101952	46	3866
2026-01-05 08:42:01.02	62.17	19.67	-41.5	-42.2	19.6	0.00e+00	0	54	0	1108344832	46	3769
2026-01-05 08:42:02.00	61.98	19.76	-41.5	-42.2	19.6	0.00e+00	0	54	0	1113587712	46	3758
2026-01-05 08:42:03.00	61.79	19.84	-41.5	-42.2	19.6	0.00e+00	0	54	0	1119879168	46	3745
2026-01-05 08:42:03.98	61.61	19.92	-41.7	-42.4	19.5	0.00e+00	0	54	0	1125122048	46	3829
2026-01-05 08:42:04.98	61.42	20.01	-41.7	-42.4	19.4	0.00e+00	0	54	0	1130364928	46	3844
2026-01-05 08:42:05.97	61.23	20.09	-41.6	-42.3	19.6	0.00e+00	0	54	0	1136656384	46	3782
2026-01-05 08:42:06.95	61.04	20.17	-41.6	-42.3	19.6	0.00e+00	0	54	0	1141899264	46	3785
2026-01-05 08:42:07.94	60.85	20.26	-41.5	-42.2	19.6	0.00e+00	0	54	0	1147142144	46	3759
2026-01-05 08:42:08.93	60.66	20.34	-41.6	-42.3	19.5	0.00e+00	0	54	0	1153433600	46	3799
2026-01-05 08:42:09.92	60.46	20.42	-41.8	-42.5	19.3	0.00e+00	0	54	0	1158676480	46	3910
2026-01-05 08:42:10.90	60.27	20.51	-41.7	-42.3	19.5	0.00e+00	0	54	0	1163919360	46	3819
2026-01-05 08:42:11.88	60.07	20.59	-41.8	-42.4	19.4	0.00e+00	0	54	0	1169162240	46	3861
2026-01-05 08:42:12.87	59.88	20.67	-41.9	-42.6	19.2	0.00e+00	0	54	0	1175453696	46	3953
2026-01-05 08:42:13.86	59.68	20.75	-42.1	-42.9	19.0	0.00e+00	0	54	0	1180696576	46	4055
2026-01-05 08:42:14.86	59.48	20.84	-41.8	-42.5	19.3	0.00e+00	0	54	0	1185939456	46	3873
2026-01-05 08:42:15.85	59.28	20.92	-41.4	-42.1	19.7	0.00e+00	0	54	0	1192230912	46	3714
2026-01-05 08:42:16.84	59.08	21.00	-41.2	-41.9	19.9	0.00e+00	0	54	0	1197473792	45	3841
2026-01-05 08:42:17.82	58.88	21.08	-41.2	-41.9	19.9	0.00e+00	0	54	0	1202716672	45	3834
2026-01-05 08:42:18.81	58.67	21.17	-41.3	-42.0	19.9	0.00e+00	0	54	0	1207959552	45	3870
2026-01-05 08:42:19.80	58.47	21.25	-41.4	-42.1	19.8	0.00e+00	0	54	0	1214251008	45	3929
2026-01-05 08:42:20.77	58.27	21.33	-41.2	-41.9	20.0	0.00e+00	0	54	0	1219493888	45	3825
2026-01-05 08:42:21.75	58.06	21.41	-40.9	-41.5	20.3	0.00e+00	0	54	0	1224736768	45	3671
2026-01-05 08:42:22.73	57.85	21.49	-40.8	-41.4	20.4	0.00e+00	0	54	0	1231028224	44	3836
2026-01-05 08:42:23.73	57.64	21.57	-40.8	-41.4	20.4	0.00e+00	0	55	0	1236271104	44	3862
2026-01-05 08:42:24.73	57.43	21.65	-41.0	-41.7	20.1	0.00e+00	0	55	0	1241513984	44	3979
2026-01-05 08:42:25.71	57.22	21.74	-41.1	-41.8	20.0	0.00e+00	0	55	0	1246756864	44	4031
2026-01-05 08:42:26.70	57.01	21.82	-41.1	-41.7	20.1	0.00e+00	0	55	0	1253048320	44	3994
2026-01-05 08:42:27.70	56.79	21.90	-41.2	-41.8	20.0	0.00e+00	0	55	0	1258291200	44	4037
2026-01-05 08:42:28.67	56.58	21.98	-41.1	-41.7	20.1	0.00e+00	0	55	0	1264582656	44	4000
2026-01-05 08:42:29.67	56.37	22.06	-41.1	-41.8	20.1	0.00e+00	0	55	0	1269825536	44	4009
2026-01-05 08:42:30.65	56.15	22.14	-41.2	-41.8	20.0	0.00e+00	0	55	0	1275068416	44	4049
2026-01-05 08:42:31.65	55.93	22.22	-41.2	-41.9	20.0	0.00e+00	0	55	0	1280311296	44	4059
2026-01-05 08:42:32.63	55.71	22.30	-41.1	-41.7	20.1	0.00e+00	0	55	0	1286602752	44	3986
2026-01-05 08:42:33.63	55.49	22.38	-41.0	-41.7	20.1	0.00e+00	0	54	0	1291845632	44	3976
2026-01-05 08:42:34.61	55.27	22.46	-41.0	-41.7	20.1	0.00e+00	0	55	0	1297088512	44	3975
2026-01-05 08:42:35.59	55.05	22.54	-40.9	-41.5	20.3	0.00e+00	0	55	0	1303379968	44	3904
2026-01-05 08:42:36.58	54.83	22.62	-40.7	-41.4	20.4	0.00e+00	0	55	0	1308622848	44	3829
2026-01-05 08:42:37.57	54.60	22.70	-40.7	-41.3	20.5	0.00e+00	0	55	0	1313865728	44	3812
2026-01-05 08:42:38.55	54.38	22.77	-40.8	-41.4	20.4	0.00e+00	0	55	0	1319108608	44	3851
2026-01-05 08:42:39.54	54.15	22.85	-41.1	-41.7	20.1	0.00e+00	0	55	0	1325400064	44	3980
2026-01-05 08:42:40.52	53.93	22.93	-41.0	-41.6	20.2	0.00e+00	0	55	0	1330642944	44	3958
2026-01-05 08:42:41.51	53.70	23.01	-40.8	-41.4	20.4	0.00e+00	0	55	0	1335885824	44	3868
2026-01-05 08:42:42.50	53.47	23.08	-40.7	-41.4	20.5	0.00e+00	0	55	0	1342177280	44	3829
2026-01-05 08:42:43.50	53.23	23.16	-40.8	-41.4	20.4	0.00e+00	0	55	0	1347420160	44	3845
2026-01-05 08:42:44.49	53.00	23.24	-40.8	-41.4	20.4	0.00e+00	0	55	0	1352663040	44	3861
2026-01-05 08:42:45.47	52.77	23.32	-40.9	-41.6	20.2	0.00e+00	0	55	0	1358954496	44	3927
2026-01-05 08:42:46.46	52.53	23.39	-41.1	-41.7	20.1	0.00e+00	0	55	0	1364197376	44	3993
2026-01-05 08:42:47.46	52.29	23.47	-41.2	-41.8	20.0	0.00e+00	0	55	0	1369440256	44	4040
2026-01-05 08:42:48.44	52.06	23.54	-41.2	-41.8	20.0	0.00e+00	0	55	0	1375731712	44	4050
2026-01-05 08:42:49.44	51.82	23.62	-41.3	-42.0	19.9	0.00e+00	0	55	0	1380974592	44	4103
2026-01-05 08:42:50.42	51.58	23.70	-41.0	-41.6	20.2	0.00e+00	0	55	0	1386217472	44	3958
2026-01-05 08:42:51.41	51.34	23.77	-40.8	-41.4	20.4	0.00e+00	0	55	0	1391460352	44	3836
2026-01-05 08:42:52.39	51.10	23.84	-40.7	-41.3	20.5	0.00e+00	0	55	0	1397751808	44	3807
2026-01-05 08:42:53.38	50.85	23.92	-40.7	-41.3	20.5	0.00e+00	0	55	0	1402994688	44	3802
2026-01-05 08:42:54.36	50.61	23.99	-40.7	-41.3	20.5	0.00e+00	0	55	0	1408237568	44	3815
2026-01-05 08:42:55.35	50.37	24.07	-40.9	-41.5	20.3	0.00e+00	0	55	0	1414529024	44	3907
2026-01-05 08:42:56.34	50.12	24.14	-40.7	-41.3	20.5	0.00e+00	0	55	0	1419771904	44	3823
2026-01-05 08:42:57.33	49.87	24.21	-40.6	-41.2	20.6	0.00e+00	0	55	0	1425014784	44	3770
2026-01-05 08:42:58.33	49.62	24.29	-40.6	-41.2	20.7	0.00e+00	0	55	0	1431306240	44	3742
2026-01-05 08:42:59.31	49.37	24.36	-40.5	-41.1	20.8	0.00e+00	0	55	0	1436549120	44	3711
2026-01-05 08:43:00.30	49.12	24.43	-40.6	-41.2	20.6	0.00e+00	0	55	0	1441792000	44	3744
2026-01-05 08:43:01.29	48.87	24.50	-40.6	-41.2	20.6	0.00e+00	0	55	0	1447034880	44	3777
2026-01-05 08:43:02.27	48.61	24.57	-40.8	-41.4	20.4	0.00e+00	0	55	0	1453326336	44	3845
2026-01-05 08:43:03.25	48.36	24.64	-40.7	-41.3	20.5	0.00e+00	0	55	0	1458569216	44	3817
2026-01-05 08:43:04.25	48.10	24.71	-40.7	-41.3	20.5	0.00e+00	0	55	0	1463812096	44	3814
2026-01-05 08:43:05.24	47.85	24.78	-40.8	-41.4	20.4	0.00e+00	0	55	0	1470103552	44	3848
2026-01-05 08:43:06.24	47.58	24.85	-40.6	-41.2	20.7	0.00e+00	0	55	0	1475346432	44	3749
2026-01-05 08:43:07.22	47.33	24.92	-40.5	-41.1	20.7	0.00e+00	0	55	0	1480589312	44	3714
2026-01-05 08:43:08.21	47.07	24.99	-40.4	-41.0	20.8	0.00e+00	0	55	0	1485832192	44	3680
2026-01-05 08:43:09.20	46.81	25.05	-40.1	-40.7	21.0	0.00e+00	0	55	0	1492123648	43	3743
2026-01-05 08:43:10.19	46.54	25.12	-40.1	-40.7	21.0	0.00e+00	0	55	0	1497366528	43	3757
2026-01-05 08:43:11.18	46.28	25.19	-40.1	-40.6	21.1	0.00e+00	0	55	0	1503657984	43	3735
2026-01-05 08:43:12.17	46.01	25.25	-40.1	-40.7	21.0	0.00e+00	0	55	0	1508900864	43	3767
2026-01-05 08:43:13.16	45.75	25.32	-40.1	-40.7	21.0	0.00e+00	0	55	0	1514143744	43	3761
2026-01-05 08:43:14.15	45.48	25.38	-40.2	-40.8	20.9	0.00e+00	0	55	0	1519386624	43	3795
2026-01-05 08:43:15.14	45.21	25.45	-40.3	-40.9	20.8	0.00e+00	0	55	0	1525678080	43	3830
2026-01-05 08:43:16.13	44.94	25.51	-40.5	-41.0	20.7	0.00e+00	0	55	0	1530920960	43	3912
2026-01-05 08:43:17.12	44.67	25.58	-40.6	-41.2	20.5	0.00e+00	0	55	0	1536163840	43	3976
2026-01-05 08:43:18.11	44.40	25.64	-40.4	-41.0	20.7	0.00e+00	0	55	0	1542455296	43	3887
2026-01-05 08:43:19.10	44.12	25.70	-40.3	-41.0	20.8	0.00e+00	0	55	0	1547698176	43	3869
2026-01-05 08:43:20.09	43.85	25.76	-40.5	-41.1	20.7	0.00e+00	0	55	0	1552941056	43	3937
2026-01-05 08:43:21.08	43.58	25.82	-40.4	-41.1	20.7	0.00e+00	0	55	0	1559232512	43	3919
2026-01-05 08:43:22.07	43.30	25.88	-40.5	-41.1	20.6	0.00e+00	0	55	0	1564475392	43	3945
2026-01-05 08:43:23.06	43.02	25.95	-40.7	-41.3	20.4	0.00e+00	0	55	0	1569718272	43	4033
2026-01-05 08:43:24.06	42.74	26.01	-40.5	-41.1	20.7	0.00e+00	0	55	0	1576009728	43	3921
2026-01-05 08:43:25.04	42.46	26.06	-40.3	-40.9	20.8	0.00e+00	0	55	0	1581252608	43	3858
2026-01-05 08:43:26.03	42.18	26.12	-40.3	-41.0	20.8	0.00e+00	0	55	0	1586495488	43	3871
2026-01-05 08:43:27.02	41.90	26.18	-40.5	-41.1	20.6	0.00e+00	0	55	0	1592786944	43	3938
2026-01-05 08:43:28.01	41.62	26.24	-40.3	-40.9	20.8	0.00e+00	0	55	0	1598029824	43	3856
2026-01-05 08:43:29.00	41.34	26.29	-40.4	-41.0	20.8	0.00e+00	0	55	0	1603272704	43	3875
2026-01-05 08:43:29.97	41.06	26.35	-40.4	-41.0	20.7	0.00e+00	0	55	0	1608515584	43	3876
2026-01-05 08:43:30.95	40.78	26.40	-40.1	-40.7	21.0	0.00e+00	0	55	0	1614807040	43	3754
2026-01-05 08:43:31.94	40.49	26.46	-40.0	-40.6	21.1	0.00e+00	0	55	0	1620049920	43	3702
2026-01-05 08:43:32.92	40.20	26.51	-40.1	-40.7	21.0	0.00e+00	0	55	0	1625292800	43	3766
2026-01-05 08:43:33.92	39.91	26.56	-40.3	-40.8	20.9	0.00e+00	0	55	0	1631584256	43	3817
2026-01-05 08:43:34.91	39.62	26.61	-40.3	-40.9	20.9	0.00e+00	0	55	0	1636827136	43	3829
2026-01-05 08:43:35.90	39.33	26.67	-40.3	-40.9	20.9	0.00e+00	0	55	0	1642070016	43	3840
2026-01-05 08:43:36.89	39.04	26.72	-40.4	-41.0	20.7	0.00e+00	0	55	0	1647312896	43	3887
2026-01-05 08:43:37.88	38.75	26.77	-40.1	-40.6	21.0	0.00e+00	0	55	0	1653604352	43	3732
2026-01-05 08:43:38.87	38.46	26.82	-40.0	-40.6	21.1	0.00e+00	0	55	0	1658847232	43	3695
2026-01-05 08:43:39.87	38.16	26.86	-40.1	-40.7	21.0	0.00e+00	0	55	0	1665138688	43	3748
2026-01-05 08:43:40.86	37.87	26.91	-40.1	-40.7	21.1	0.00e+00	0	55	0	1670381568	43	3750
2026-01-05 08:43:41.84	37.57	26.96	-40.2	-40.8	20.9	0.00e+00	0	55	0	1675624448	43	3799
2026-01-05 08:43:42.83	37.28	27.01	-40.4	-41.0	20.7	0.00e+00	0	55	0	1680867328	43	3913
2026-01-05 08:43:43.82	36.98	27.05	-40.2	-40.8	20.9	0.00e+00	0	56	0	1687158784	43	3788
2026-01-05 08:43:44.81	36.68	27.10	-40.0	-40.6	21.1	0.00e+00	0	55	0	1692401664	43	3715
2026-01-05 08:43:45.80	36.38	27.14	-40.0	-40.5	21.2	0.00e+00	0	55	0	1697644544	42	3900
2026-01-05 08:43:46.78	36.08	27.18	-40.0	-40.5	21.2	0.00e+00	0	55	0	1703936000	42	3905
2026-01-05 08:43:47.78	35.78	27.23	-39.8	-40.4	21.4	0.00e+00	0	55	0	1709178880	42	3840
2026-01-05 08:43:48.77	35.48	27.27	-39.7	-40.3	21.4	0.00e+00	0	55	0	1714421760	42	3793
2026-01-05 08:43:49.76	35.18	27.31	-39.9	-40.4	21.3	0.00e+00	0	56	0	1719664640	42	3863
2026-01-05 08:43:50.75	34.87	27.35	-39.8	-40.4	21.4	0.00e+00	0	55	0	1725956096	42	3839
2026-01-05 08:43:51.74	34.57	27.39	-39.9	-40.4	21.2	0.00e+00	0	55	0	1731198976	42	3866
2026-01-05 08:43:52.73	34.26	27.42	-40.0	-40.5	21.1	0.00e+00	0	55	0	1736441856	42	3907
2026-01-05 08:43:53.72	33.96	27.46	-39.9	-40.5	21.2	0.00e+00	0	55	0	1742733312	42	3874
2026-01-05 08:43:54.72	33.65	27.50	-39.8	-40.4	21.3	0.00e+00	0	55	0	1747976192	42	3834
2026-01-05 08:43:55.71	33.34	27.53	-39.8	-40.4	21.3	0.00e+00	0	55	0	1753219072	42	3826
2026-01-05 08:43:56.71	33.03	27.57	-40.1	-40.7	21.1	0.00e+00	0	55	0	1759510528	42	3977
2026-01-05 08:43:57.70	32.72	27.60	-40.0	-40.5	21.1	0.00e+00	0	56	0	1764753408	42	3913
2026-01-05 08:43:58.69	32.42	27.64	-40.0	-40.6	21.2	0.00e+00	0	56	0	1769996288	42	3918
2026-01-05 08:43:59.68	32.11	27.67	-39.8	-40.4	21.3	0.00e+00	0	56	0	1776287744	42	3825
2026-01-05 08:44:00.68	31.79	27.70	-39.8	-40.4	21.3	0.00e+00	0	56	0	1781530624	42	3841
2026-01-05 08:44:01.67	31.48	27.73	-39.8	-40.4	21.3	0.00e+00	0	55	0	1786773504	42	3845
2026-01-05 08:44:02.65	31.17	27.76	-39.9	-40.5	21.2	0.00e+00	0	56	0	1793064960	42	3898
2026-01-05 08:44:03.65	30.86	27.79	-40.2	-40.8	21.0	0.00e+00	0	56	0	1798307840	42	4028
2026-01-05 08:44:04.64	30.55	27.82	-40.2	-40.8	20.9	0.00e+00	0	56	0	1803550720	42	4016
2026-01-05 08:44:05.62	30.24	27.84	-39.9	-40.5	21.2	0.00e+00	0	55	0	1809842176	42	3898
2026-01-05 08:44:06.61	29.92	27.87	-39.9	-40.4	21.4	0.00e+00	0	56	0	1815085056	42	3852
2026-01-05 08:44:07.60	29.61	27.89	-39.6	-40.1	21.5	0.00e+00	0	55	0	1820327936	42	3717
2026-01-05 08:44:08.59	29.30	27.92	-39.7	-40.2	21.4	0.00e+00	0	55	0	1825570816	42	3775
2026-01-05 08:44:09.58	28.98	27.94	-39.7	-40.3	21.4	0.00e+00	0	55	0	1831862272	42	3799
2026-01-05 08:44:10.57	28.67	27.96	-39.8	-40.4	21.5	0.00e+00	0	56	0	1837105152	42	3827
2026-01-05 08:44:11.57	28.35	27.98	-40.0	-40.6	21.2	0.00e+00	0	56	0	1843396608	42	3926
2026-01-05 08:44:12.56	28.03	28.00	-39.9	-40.5	21.2	0.00e+00	0	56	0	1848639488	42	3887
2026-01-05 08:44:13.55	27.71	28.02	-39.6	-40.2	21.5	0.00e+00	0	56	0	1853882368	42	3738
2026-01-05 08:44:14.54	27.40	28.04	-39.3	-39.8	21.8	0.00e+00	0	55	0	1859125248	41	3818
2026-01-05 08:44:15.53	27.08	28.06	-39.4	-39.9	21.6	0.00e+00	0	55	0	1865416704	41	3844
2026-01-05 08:44:16.52	26.76	28.07	-39.5	-40.0	21.7	0.00e+00	0	55	0	1870659584	41	3894
2026-01-05 08:44:17.51	26.44	28.09	-39.6	-40.2	21.5	0.00e+00	0	56	0	1875902464	41	3976
2026-01-05 08:44:18.49	26.13	28.10	-39.5	-40.1	21.6	0.00e+00	0	55	0	1882193920	41	3914
2026-01-05 08:44:19.48	25.81	28.12	-39.5	-40.1	21.5	0.00e+00	0	56	0	1887436800	41	3922
2026-01-05 08:44:20.48	25.49	28.13	-39.5	-40.1	21.6	0.00e+00	0	56	0	1892679680	41	3928
2026-01-05 08:44:21.46	25.17	28.14	-39.6	-40.1	21.5	0.00e+00	0	56	0	1897922560	41	3938
2026-01-05 08:44:22.46	24.85	28.15	-39.6	-40.2	21.5	0.00e+00	0	55	0	1904214016	41	3968
2026-01-05 08:44:23.45	24.53	28.16	-39.7	-40.2	21.4	0.00e+00	0	56	0	1909456896	41	4001
2026-01-05 08:44:24.43	24.22	28.17	-39.8	-40.4	21.3	0.00e+00	0	56	0	1915748352	41	4057
2026-01-05 08:44:25.42	23.90	28.17	-39.7	-40.3	21.4	0.00e+00	0	56	0	1920991232	41	4028
2026-01-05 08:44:26.41	23.58	28.18	-39.8	-40.3	21.3	0.00e+00	0	56	0	1926234112	41	4041
2026-01-05 08:44:27.40	23.26	28.19	-39.9	-40.5	21.2	0.00e+00	0	55	0	1931476992	41	4109
2026-01-05 08:44:28.38	22.94	28.19	-39.8	-40.3	21.2	0.00e+00	0	56	0	1937768448	41	4032
2026-01-05 08:44:29.37	22.62	28.19	-39.9	-40.5	21.3	0.00e+00	0	56	0	1943011328	41	4100
2026-01-05 08:44:30.36	22.30	28.20	-39.8	-40.3	21.3	0.00e+00	0	56	0	1948254208	41	4042
2026-01-05 08:44:31.35	21.98	28.20	-39.6	-40.1	21.5	0.00e+00	0	56	0	1954545664	41	3949
2026-01-05 08:44:32.34	21.66	28.20	-39.6	-40.2	21.5	0.00e+00	0	56	0	1959788544	41	3973
2026-01-05 08:44:33.32	21.34	28.20	-39.6	-40.2	21.5	0.00e+00	0	56	0	1965031424	41	3983
2026-01-05 08:44:34.31	21.02	28.20	-39.6	-40.2	21.4	0.00e+00	0	56	0	1970274304	41	3984
2026-01-05 08:44:35.31	20.70	28.19	-39.7	-40.3	21.4	0.00e+00	0	56	0	1976565760	41	4013
2026-01-05 08:44:36.30	20.38	28.19	-39.5	-40.0	21.6	0.00e+00	0	56	0	1981808640	41	3895
2026-01-05 08:44:37.29	20.06	28.18	-39.6	-40.1	21.4	0.00e+00	0	56	0	1987051520	41	3956
2026-01-05 08:44:38.29	19.74	28.18	-39.8	-40.3	21.2	0.00e+00	0	56	0	1993342976	41	4045
2026-01-05 08:44:39.28	19.42	28.17	-39.7	-40.3	21.3	0.00e+00	0	56	0	1998585856	41	4027
2026-01-05 08:44:40.26	19.10	28.16	-39.7	-40.2	21.3	0.00e+00	0	56	0	2003828736	41	3991
2026-01-05 08:44:41.25	18.78	28.16	-39.7	-40.3	21.2	0.00e+00	0	56	0	2010120192	41	4025
2026-01-05 08:44:42.23	18.46	28.15	-39.8	-40.4	21.1	0.00e+00	0	56	0	2015363072	41	4071
2026-01-05 08:44:43.23	18.14	28.14	-39.9	-40.5	20.8	0.00e+00	0	56	0	2020605952	41	4129
2026-01-05 08:44:44.22	17.82	28.12	-40.0	-40.6	20.8	0.00e+00	0	56	0	2026897408	42	3943
2026-01-05 08:44:45.21	17.50	28.11	-40.0	-40.6	20.7	0.00e+00	0	56	0	2032140288	42	3953
2026-01-05 08:44:46.20	17.19	28.10	-40.2	-40.8	20.4	0.00e+00	0	56	0	2037383168	42	4046
2026-01-05 08:44:47.19	16.87	28.08	-40.3	-40.9	20.3	0.00e+00	0	56	0	2043674624	42	4081
2026-01-05 08:44:48.18	16.55	28.07	-40.5	-41.2	20.0	0.00e+00	0	56	0	2048917504	42	4196
2026-01-05 08:44:49.17	16.23	28.05	-40.7	-41.4	19.8	0.00e+00	0	56	0	2054160384	43	4087
2026-01-05 08:44:50.16	15.92	28.04	-41.4	-42.2	18.9	0.00e+00	0	56	0	2059403264	44	4194
2026-01-05 08:44:51.15	15.60	28.02	-42.2	-43.1	17.8	0.00e+00	0	56	0	2065694720	46	4155
2026-01-05 08:44:52.14	15.28	28.00	-42.6	-43.5	17.3	0.00e+00	0	56	0	2070937600	47	4130
2026-01-05 08:44:53.11	14.97	27.98	-43.4	-44.5	16.4	0.00e+00	0	56	0	2076180480	48	4357
2026-01-05 08:44:54.10	14.66	27.96	-43.7	-44.8	16.1	0.00e+00	0	56	0	2082471936	49	4266
2026-01-05 08:44:55.09	14.34	27.93	-44.4	-45.6	15.1	0.00e+00	0	56	0	2087714816	50	4439
2026-01-05 08:44:56.08	14.03	27.91	-44.2	-45.3	15.5	0.00e+00	0	56	0	2092957696	50	4288
2026-01-05 08:44:57.06	13.72	27.89	-44.2	-45.3	15.4	0.00e+00	0	56	0	2098200576	50	4279
2026-01-05 08:44:58.05	13.40	27.86	-44.2	-45.3	15.5	0.00e+00	0	56	0	2104492032	50	4287
2026-01-05 08:44:59.04	13.09	27.84	-44.2	-45.3	15.4	0.00e+00	0	56	0	2109734912	50	4288
2026-01-05 08:45:00.03	12.78	27.81	-44.4	-45.6	15.2	0.00e+00	0	56	0	2114977792	50	4420
2026-01-05 08:45:01.02	12.47	27.78	-44.1	-45.3	15.8	0.00e+00	0	56	0	2121269248	50	4253
2026-01-05 08:45:02.02	12.15	27.75	-43.3	-44.3	16.9	0.00e+00	0	56	0	2126512128	49	4033
2026-01-05 08:45:03.01	11.84	27.72	-42.7	-43.5	17.8	0.00e+00	0	56	0	2131755008	48	3900
2026-01-05 08:45:04.00	11.53	27.69	-42.1	-42.9	18.3	0.00e+00	0	56	0	2138046464	47	3834
2026-01-05 08:45:04.98	11.22	27.66	-41.8	-42.6	18.6	0.00e+00	0	56	0	2143289344	46	3941
2026-01-05 08:45:05.97	10.91	27.63	-42.0	-42.8	18.6	0.00e+00	0	56	0	2148532224	46	4020
2026-01-05 08:45:06.96	10.60	27.60	-41.6	-42.3	19.0	0.00e+00	0	56	0	2154823680	46	3785
2026-01-05 08:45:07.95	10.30	27.56	-41.0	-41.6	19.7	0.00e+00	0	56	0	2160066560	45	3732
2026-01-05 08:45:08.93	9.99	27.53	-40.7	-41.3	20.1	0.00e+00	0	56	0	2165309440	44	3805
2026-01-05 08:45:09.92	9.69	27.49	-40.3	-40.9	20.4	0.00e+00	0	56	0	2171600896	43	3848
2026-01-05 08:45:10.90	9.38	27.46	-40.3	-40.9	20.3	0.00e+00	0	56	0	2176843776	43	3846
2026-01-05 08:45:11.89	9.08	27.42	-40.2	-40.8	20.6	0.00e+00	0	56	0	2182086656	43	3816
2026-01-05 08:45:12.87	8.78	27.38	-40.1	-40.7	20.8	0.00e+00	0	56	0	2187329536	43	3763
2026-01-05 08:45:13.86	8.47	27.34	-40.0	-40.6	20.9	0.00e+00	0	56	0	2193620992	43	3729
2026-01-05 08:45:14.86	8.17	27.30	-39.9	-40.5	21.1	0.00e+00	0	56	0	2198863872	42	3875
2026-01-05 08:45:15.84	7.87	27.26	-39.7	-40.2	21.2	0.00e+00	0	56	0	2204106752	42	3763
2026-01-05 08:45:16.83	7.57	27.22	-39.7	-40.2	21.2	0.00e+00	0	56	0	2210398208	42	3766
2026-01-05 08:45:17.82	7.27	27.18	-40.0	-40.6	20.8	0.00e+00	0	56	0	2215641088	42	3917
2026-01-05 08:45:18.81	6.97	27.13	-40.0	-40.6	20.9	0.00e+00	0	56	0	2220883968	42	3933
2026-01-05 08:45:19.81	6.66	27.09	-40.2	-40.8	20.6	0.00e+00	0	56	0	2226126848	42	4024
2026-01-05 08:45:20.80	6.37	27.04	-40.3	-40.9	20.6	0.00e+00	0	56	0	2232418304	42	4054
2026-01-05 08:45:21.79	6.07	27.00	-40.4	-41.1	20.5	0.00e+00	0	56	0	2237661184	42	4147
2026-01-05 08:45:22.78	5.77	26.95	-40.5	-41.1	20.4	0.00e+00	0	56	0	2243952640	43	3943
2026-01-05 08:45:23.77	5.48	26.91	-40.5	-41.1	20.3	0.00e+00	0	56	0	2249195520	43	3955
2026-01-05 08:45:24.76	5.18	26.86	-40.8	-41.5	20.1	0.00e+00	0	56	0	2254438400	43	4116
2026-01-05 08:45:25.75	4.89	26.81	-41.4	-42.1	19.4	0.00e+00	0	56	0	2259681280	44	4168
2026-01-05 08:45:26.74	4.60	26.76	-42.1	-42.9	18.5	0.00e+00	0	56	0	2265972736	46	4079
2026-01-05 08:45:27.72	4.31	26.71	-43.2	-44.1	17.2	0.00e+00	0	56	0	2271215616	48	4166
2026-01-05 08:45:28.71	4.02	26.66	-43.5	-44.5	16.6	0.00e+00	0	56	0	2276458496	49	4115
2026-01-05 08:45:29.70	3.73	26.61	-43.5	-44.6	16.6	0.00e+00	0	56	0	2282749952	49	4149
2026-01-05 08:45:30.69	3.44	26.55	-43.8	-44.8	16.3	0.00e+00	0	56	0	2287992832	49	4273
2026-01-05 08:45:31.68	3.15	26.50	-43.1	-44.0	17.4	0.00e+00	0	56	0	2293235712	49	3901
2026-01-05 08:45:32.67	2.86	26.45	-41.5	-42.2	19.4	0.00e+00	0	56	0	2299527168	46	3762
2026-01-05 08:45:33.66	2.58	26.39	-40.4	-41.0	20.7	0.00e+00	0	56	0	2304770048	43	3878
2026-01-05 08:45:34.65	2.29	26.34	-39.7	-40.3	21.3	0.00e+00	0	56	0	2310012928	42	3790
2026-01-05 08:45:35.63	2.01	26.28	-39.6	-40.1	21.5	0.00e+00	0	56	0	2315255808	42	3727
2026-01-05 08:45:36.62	1.73	26.23	-39.5	-40.0	21.6	0.00e+00	0	56	0	2321547264	42	3693
2026-01-05 08:45:37.61	1.44	26.17	-39.7	-40.2	21.5	0.00e+00	0	56	0	2326790144	42	3752
2026-01-05 08:45:38.59	1.17	26.11	-39.7	-40.2	21.4	0.00e+00	0	56	0	2332033024	42	3760
2026-01-05 08:45:39.58	0.89	26.06	-39.7	-40.3	21.3	0.00e+00	0	56	0	2338324480	42	3803
2026-01-05 08:45:40.57	0.61	26.00	-39.6	-40.2	21.4	0.00e+00	0	56	0	2343567360	42	3759
2026-01-05 08:45:41.56	0.33	25.94	-39.8	-40.4	21.2	0.00e+00	0	56	0	2348810240	42	3837
2026-01-05 08:45:42.56	0.05	25.88	-39.8	-40.3	21.3	0.00e+00	0	56	0	2354053120	42	3807
2026-01-05 08:45:43.55	359.77	25.82	-39.6	-40.2	21.5	0.00e+00	0	56	0	2360344576	42	3750
2026-01-05 08:45:44.54	359.50	25.75	-39.8	-40.4	21.2	0.00e+00	0	56	0	2365587456	42	3846
2026-01-05 08:45:45.53	359.23	25.69	-40.0	-40.6	21.0	0.00e+00	0	56	0	2371878912	42	3930
2026-01-05 08:45:46.52	358.95	25.63	-40.1	-40.7	21.0	0.00e+00	0	56	0	2377121792	42	3983
2026-01-05 08:45:47.50	358.68	25.57	-40.2	-40.8	20.9	0.00e+00	0	56	0	2382364672	42	4015
2026-01-05 08:45:48.48	358.42	25.50	-40.3	-40.9	20.7	0.00e+00	0	56	0	2387607552	42	4074
2026-01-05 08:45:49.48	358.14	25.44	-40.1	-40.7	21.0	0.00e+00	0	56	0	2393899008	42	3997
2026-01-05 08:45:50.46	357.88	25.38	-40.2	-40.8	20.9	0.00e+00	0	56	0	2399141888	42	4019
2026-01-05 08:45:51.45	357.61	25.31	-40.3	-40.9	20.7	0.00e+00	0	56	0	2404384768	42	4071
2026-01-05 08:45:52.44	357.35	25.24	-40.3	-40.9	20.8	0.00e+00	0	56	0	2410676224	42	4066
2026-01-05 08:45:53.43	357.08	25.18	-40.2	-40.8	20.8	0.00e+00	0	56	0	2415919104	42	4038
2026-01-05 08:45:54.42	356.82	25.11	-40.3	-40.9	20.9	0.00e+00	0	56	0	2421161984	42	4083
2026-01-05 08:45:55.41	356.56	25.04	-40.1	-40.7	21.0	0.00e+00	0	56	0	2426404864	42	3982
2026-01-05 08:45:56.39	356.30	24.98	-39.9	-40.5	21.1	0.00e+00	0	56	0	2432696320	42	3891
2026-01-05 08:45:57.38	356.04	24.91	-40.0	-40.6	21.0	0.00e+00	0	56	0	2437939200	42	3924
2026-01-05 08:45:58.38	355.77	24.84	-40.3	-40.8	20.9	0.00e+00	0	56	0	2444230656	42	4041
2026-01-05 08:45:59.36	355.52	24.77	-40.3	-40.9	20.8	0.00e+00	0	56	0	2449473536	42	4058
2026-01-05 08:46:00.35	355.26	24.70	-40.2	-40.8	20.9	0.00e+00	0	56	0	2454716416	42	4025
2026-01-05 08:46:01.34	355.01	24.63	-40.3	-40.9	20.8	0.00e+00	0	56	0	2459959296	42	4077
2026-01-05 08:46:02.33	354.75	24.56	-40.7	-41.3	20.4	0.00e+00	0	56	0	2466250752	43	4005
2026-01-05 08:46:03.32	354.50	24.49	-40.6	-41.3	20.5	0.00e+00	0	56	0	2471493632	43	4005
2026-01-05 08:46:04.31	354.25	24.42	-40.7	-41.3	20.4	0.00e+00	0	56	0	2476736512	43	4034
2026-01-05 08:46:05.31	353.99	24.35	-40.7	-41.4	20.3	0.00e+00	0	56	0	2483027968	43	4067
2026-01-05 08:46:06.30	353.74	24.28	-40.7	-41.3	20.4	0.00e+00	0	56	0	2488270848	43	4035
2026-01-05 08:46:07.29	353.49	24.20	-40.5	-41.1	20.5	0.00e+00	0	56	0	2493513728	43	3952
2026-01-05 08:46:08.28	353.25	24.13	-40.5	-41.1	20.5	0.00e+00	0	56	0	2499805184	43	3956
2026-01-05 08:46:09.27	353.00	24.06	-40.6	-41.2	20.5	0.00e+00	0	56	0	2505048064	43	3989
2026-01-05 08:46:10.26	352.75	23.98	-40.8	-41.4	20.3	0.00e+00	0	56	0	2510290944	43	4059
2026-01-05 08:46:11.25	352.51	23.91	-40.3	-40.9	20.7	0.00e+00	0	56	0	2515533824	43	3849
2026-01-05 08:46:12.24	352.27	23.84	-40.0	-40.6	21.0	0.00e+00	0	56	0	2521825280	43	3711
2026-01-05 08:46:13.23	352.02	23.76	-39.9	-40.5	21.1	0.00e+00	0	56	0	2527068160	43	3682
2026-01-05 08:46:14.21	351.79	23.69	-40.2	-40.8	20.9	0.00e+00	0	56	0	2532311040	43	3790
2026-01-05 08:46:15.21	351.54	23.61	-40.3	-40.9	20.7	0.00e+00	0	56	0	2538602496	43	3855
2026-01-05 08:46:16.19	351.31	23.54	-40.3	-40.9	20.8	0.00e+00	0	56	0	2543845376	43	3826
2026-01-05 08:46:17.18	351.07	23.46	-40.1	-40.7	20.9	0.00e+00	0	56	0	2549088256	43	3764
2026-01-05 08:46:18.16	350.84	23.38	-40.0	-40.6	21.0	0.00e+00	0	56	0	2554331136	43	3706
2026-01-05 08:46:19.15	350.60	23.31	-40.1	-40.7	20.9	0.00e+00	0	56	0	2560622592	43	3749
2026-01-05 08:46:20.14	350.37	23.23	-40.3	-40.9	20.7	0.00e+00	0	56	0	2565865472	43	3855
2026-01-05 08:46:21.13	350.14	23.15	-40.3	-40.9	20.7	0.00e+00	0	56	0	2572156928	43	3851
2026-01-05 08:46:22.12	349.90	23.08	-40.5	-41.2	20.5	0.00e+00	0	56	0	2577399808	43	3962
2026-01-05 08:46:23.12	349.67	23.00	-40.3	-40.9	20.7	0.00e+00	0	56	0	2582642688	43	3858
2026-01-05 08:46:24.11	349.44	22.92	-40.5	-41.1	20.5	0.00e+00	0	56	0	2587885568	43	3956
2026-01-05 08:46:25.09	349.22	22.84	-40.9	-41.5	20.1	0.00e+00	0	56	0	2594177024	43	4136
2026-01-05 08:46:26.08	348.99	22.76	-40.6	-41.2	20.3	0.00e+00	0	56	0	2599419904	43	4004
2026-01-05 08:46:27.07	348.76	22.69	-40.5	-41.1	20.5	0.00e+00	0	56	0	2604662784	43	3921
2026-01-05 08:46:28.06	348.54	22.61	-40.4	-41.0	20.6	0.00e+00	0	56	0	2610954240	43	3878
2026-01-05 08:46:29.04	348.32	22.53	-40.6	-41.1	20.4	0.00e+00	0	56	0	2616197120	43	3958
2026-01-05 08:46:30.03	348.10	22.45	-40.6	-41.2	20.4	0.00e+00	0	56	0	2621440000	43	3995
2026-01-05 08:46:31.02	347.88	22.37	-40.4	-41.0	20.6	0.00e+00	0	56	0	2627731456	43	3888
2026-01-05 08:46:32.01	347.66	22.29	-40.3	-40.9	20.6	0.00e+00	0	56	0	2632974336	43	3846
2026-01-05 08:46:33.01	347.43	22.21	-40.5	-41.1	20.5	0.00e+00	0	56	0	2638217216	43	3937
2026-01-05 08:46:33.99	347.22	22.13	-40.8	-41.4	20.2	0.00e+00	0	56	0	2643460096	43	4084
2026-01-05 08:46:34.99	347.00	22.05	-40.9	-41.5	20.1	0.00e+00	0	56	0	2649751552	43	4145
2026-01-05 08:46:35.97	346.79	21.97	-40.8	-41.4	20.1	0.00e+00	0	56	0	2654994432	43	4084
2026-01-05 08:46:36.96	346.57	21.89	-40.9	-41.5	20.1	0.00e+00	0	56	0	2660237312	43	4132
2026-01-05 08:46:37.95	346.36	21.81	-41.0	-41.7	20.0	0.00e+00	0	56	0	2666528768	43	4197
2026-01-05 08:46:38.94	346.15	21.73	-41.6	-42.3	19.4	0.00e+00	0	56	0	2671771648	45	4013
2026-01-05 08:46:39.93	345.94	21.64	-41.2	-41.9	19.9	0.00e+00	0	56	0	2677014528	45	3828
2026-01-05 08:46:40.92	345.73	21.56	-40.9	-41.5	20.2	0.00e+00	0	56	0	2683305984	44	3891
2026-01-05 08:46:41.91	345.52	21.48	-40.8	-41.4	20.3	0.00e+00	0	56	0	2688548864	44	3839
2026-01-05 08:46:42.90	345.31	21.40	-40.7	-41.3	20.3	0.00e+00	0	56	0	2693791744	44	3823
2026-01-05 08:46:43.89	345.11	21.32	-40.8	-41.4	20.2	0.00e+00	0	56	0	2700083200	44	3855
2026-01-05 08:46:44.89	344.90	21.23	-40.8	-41.4	20.3	0.00e+00	0	56	0	2705326080	44	3853
2026-01-05 08:46:45.88	344.69	21.15	-41.0	-41.7	20.0	0.00e+00	0	56	0	2710568960	44	3972
2026-01-05 08:46:46.87	344.49	21.07	-41.0	-41.7	20.0	0.00e+00	0	56	0	2716860416	44	3979
2026-01-05 08:46:47.86	344.29	20.99	-41.1	-41.8	19.9	0.00e+00	0	56	0	2722103296	44	4016
2026-01-05 08:46:48.85	344.09	20.91	-41.3	-41.9	19.7	0.00e+00	0	56	0	2727346176	44	4085
2026-01-05 08:46:49.84	343.89	20.82	-41.2	-41.8	19.8	0.00e+00	0	56	0	2733637632	44	4039
2026-01-05 08:46:50.83	343.69	20.74	-40.9	-41.5	20.1	0.00e+00	0	56	0	2738880512	44	3890
2026-01-05 08:46:51.82	343.49	20.66	-41.1	-41.8	19.9	0.00e+00	0	56	0	2744123392	44	4022
2026-01-05 08:46:52.80	343.30	20.58	-41.2	-41.9	19.8	0.00e+00	0	56	0	2749366272	44	4055
2026-01-05 08:46:53.80	343.10	20.49	-41.2	-41.9	19.7	0.00e+00	0	56	0	2755657728	44	4078
2026-01-05 08:46:54.79	342.91	20.41	-40.9	-41.6	20.0	0.00e+00	0	56	0	2760900608	44	3919
2026-01-05 08:46:55.78	342.71	20.33	-41.0	-41.6	19.9	0.00e+00	0	56	0	2766143488	44	3944
2026-01-05 08:46:56.77	342.52	20.24	-41.1	-41.8	19.8	0.00e+00	0	57	0	2772434944	44	4015
2026-01-05 08:46:57.77	342.33	20.16	-41.6	-42.3	19.3	0.00e+00	0	56	0	2777677824	44	4248
2026-01-05 08:46:58.76	342.14	20.08	-41.7	-42.4	19.0	0.00e+00	0	56	0	2782920704	45	4080
2026-01-05 08:46:59.75	341.95	19.99	-42.2	-43.0	18.5	0.00e+00	0	57	0	2789212160	46	4107
2026-01-05 08:47:00.74	341.76	19.91	-42.4	-43.2	18.1	0.00e+00	0	57	0	2794455040	46	4217
2026-01-05 08:47:01.73	341.57	19.83	-42.8	-43.7	17.6	0.00e+00	0	56	0	2799697920	47	4208
2026-01-05 08:47:02.72	341.39	19.74	-42.9	-43.8	17.4	0.00e+00	0	57	0	2805989376	47	4269
2026-01-05 08:47:03.71	341.20	19.66	-43.1	-44.0	17.2	0.00e+00	0	56	0	2811232256	47	4353
2026-01-05 08:47:04.70	341.02	19.58	-43.4	-44.3	16.9	0.00e+00	0	56	0	2816475136	48	4277
2026-01-05 08:47:05.70	340.83	19.49	-43.5	-44.5	16.7	0.00e+00	0	56	0	2822766592	48	4385
2026-01-05 08:47:06.69	340.65	19.41	-43.8	-44.9	16.4	0.00e+00	0	57	0	2828009472	49	4294
2026-01-05 08:47:07.69	340.47	19.32	-43.7	-44.7	16.5	0.00e+00	0	57	0	2833252352	49	4242
2026-01-05 08:47:08.68	340.29	19.24	-43.5	-44.5	16.8	0.00e+00	0	56	0	2839543808	49	4122
2026-01-05 08:47:09.66	340.11	19.16	-43.5	-44.5	16.8	0.00e+00	0	57	0	2844786688	49	4117
2026-01-05 08:47:10.65	339.93	19.07	-43.6	-44.6	16.7	0.00e+00	0	57	0	2850029568	49	4159
2026-01-05 08:47:11.64	339.76	18.99	-43.6	-44.5	16.7	0.00e+00	0	57	0	2855272448	49	4140
2026-01-05 08:47:12.63	339.58	18.91	-43.4	-44.3	17.0	0.00e+00	0	56	0	2861563904	49	4048
2026-01-05 08:47:13.62	339.40	18.82	-43.2	-44.2	17.2	0.00e+00	0	57	0	2866806784	49	3968
2026-01-05 08:47:14.61	339.23	18.74	-42.8	-43.7	17.7	0.00e+00	0	57	0	2872049664	48	3982
2026-01-05 08:47:15.60	339.06	18.66	-42.0	-42.8	18.4	0.00e+00	0	57	0	2878341120	47	3812
2026-01-05 08:47:16.59	338.89	18.57	-41.7	-42.4	18.8	0.00e+00	0	56	0	2883584000	46	3842
2026-01-05 08:47:17.58	338.71	18.49	-41.5	-42.2	19.0	0.00e+00	0	57	0	2888826880	46	3757
2026-01-05 08:47:18.56	338.55	18.41	-41.3	-42.0	19.2	0.00e+00	0	57	0	2894069760	45	3900
2026-01-05 08:47:19.55	338.38	18.32	-41.5	-42.2	19.1	0.00e+00	0	57	0	2900361216	45	3989
2026-01-05 08:47:20.54	338.21	18.24	-41.7	-42.5	18.9	0.00e+00	0	57	0	2905604096	45	4103
2026-01-05 08:47:21.53	338.04	18.15	-42.0	-42.7	18.7	0.00e+00	0	56	0	2911895552	45	4238
2026-01-05 08:47:22.53	337.87	18.07	-42.4	-43.2	18.3	0.00e+00	0	57	0	2917138432	46	4233
2026-01-05 08:47:23.51	337.71	17.99	-42.5	-43.2	18.4	0.00e+00	0	56	0	2922381312	46	4242
2026-01-05 08:47:24.50	337.54	17.90	-42.4	-43.2	18.4	0.00e+00	0	56	0	2927624192	46	4220
2026-01-05 08:47:25.49	337.38	17.82	-42.5	-43.3	18.3	0.00e+00	0	57	0	2933915648	46	4243
2026-01-05 08:47:26.47	337.22	17.74	-42.7	-43.5	18.2	0.00e+00	0	57	0	2939158528	47	4119
2026-01-05 08:47:27.46	337.06	17.66	-42.6	-43.4	18.2	0.00e+00	0	57	0	2944401408	47	4082
2026-01-05 08:47:28.43	336.90	17.57	-42.3	-43.1	18.5	0.00e+00	0	56	0	2950692864	47	3937
2026-01-05 08:47:29.41	336.74	17.49	-42.2	-43.0	18.7	0.00e+00	0	56	0	2955935744	47	3872
2026-01-05 08:47:30.39	336.58	17.41	-42.1	-42.9	18.8	0.00e+00	0	57	0	2961178624	47	3841
2026-01-05 08:47:31.38	336.43	17.33	-42.2	-42.9	18.7	0.00e+00	0	57	0	2966421504	47	3846
2026-01-05 08:47:32.37	336.27	17.24	-42.3	-43.1	18.6	0.00e+00	0	57	0	2972712960	47	3914
2026-01-05 08:47:33.34	336.12	17.16	-42.2	-42.9	18.8	0.00e+00	0	57	0	2977955840	47	3862
2026-01-05 08:47:34.34	335.96	17.08	-42.1	-42.9	18.8	0.00e+00	0	56	0	2983198720	47	3838
2026-01-05 08:47:35.33	335.80	17.00	-42.0	-42.7	19.0	0.00e+00	0	56	0	2989490176	47	3770
2026-01-05 08:47:36.32	335.65	16.91	-41.7	-42.4	19.2	0.00e+00	0	56	0	2994733056	46	3865
2026-01-05 08:47:37.31	335.50	16.83	-41.8	-42.5	19.2	0.00e+00	0	57	0	2999975936	46	3891
2026-01-05 08:47:38.29	335.35	16.75	-41.9	-42.7	19.0	0.00e+00	0	57	0	3005218816	46	3969
2026-01-05 08:47:39.28	335.19	16.67	-41.9	-42.7	19.1	0.00e+00	0	56	0	3011510272	46	3968
2026-01-05 08:47:40.27	335.04	16.58	-42.1	-42.9	18.8	0.00e+00	0	57	0	3016753152	46	4055
2026-01-05 08:47:41.26	334.89	16.50	-42.0	-42.7	18.9	0.00e+00	0	56	0	3021996032	46	4000
2026-01-05 08:47:42.25	334.75	16.42	-42.1	-42.8	18.9	0.00e+00	0	56	0	3028287488	46	4046
2026-01-05 08:47:43.23	334.60	16.34	-42.3	-43.0	18.7	0.00e+00	0	57	0	3033530368	46	4132
2026-01-05 08:47:44.22	334.45	16.25	-42.2	-42.9	18.8	0.00e+00	0	57	0	3038773248	46	4076
2026-01-05 08:47:45.21	334.31	16.17	-42.3	-43.1	18.7	0.00e+00	0	56	0	3044016128	46	4146
2026-01-05 08:47:46.19	334.16	16.09	-42.5	-43.3	18.4	0.00e+00	0	57	0	3050307584	46	4273
2026-01-05 08:47:47.18	334.02	16.01	-42.4	-43.2	18.5	0.00e+00	0	57	0	3055550464	46	4200
2026-01-05 08:47:48.16	333.87	15.93	-42.5	-43.4	18.4	0.00e+00	0	56	0	3060793344	46	4292
2026-01-05 08:47:49.15	333.73	15.85	-42.7	-43.5	18.2	0.00e+00	0	56	0	3067084800	47	4106
2026-01-05 08:47:50.14	333.59	15.76	-42.6	-43.4	18.4	0.00e+00	0	56	0	3072327680	47	4054
2026-01-05 08:47:51.13	333.45	15.68	-42.7	-43.6	18.2	0.00e+00	0	57	0	3077570560	47	4147
2026-01-05 08:47:52.11	333.31	15.60	-42.9	-43.8	18.0	0.00e+00	0	57	0	3082813440	47	4252
2026-01-05 08:47:53.10	333.17	15.52	-42.8	-43.6	18.1	0.00e+00	0	57	0	3089104896	47	4173
2026-01-05 08:47:54.08	333.03	15.44	-43.3	-44.1	17.8	0.00e+00	0	57	0	3094347776	48	4176
2026-01-05 08:47:55.06	332.89	15.36	-43.6	-44.5	17.3	0.00e+00	0	56	0	3099590656	49	4120
2026-01-05 08:47:56.05	332.76	15.28	-43.4	-44.2	17.7	0.00e+00	0	57	0	3105882112	49	3997
2026-01-05 08:47:57.04	332.62	15.20	-43.2	-44.0	17.8	0.00e+00	0	57	0	3111124992	49	3910
2026-01-05 08:47:58.04	332.48	15.12	-43.1	-43.9	18.0	0.00e+00	0	57	0	3116367872	49	3827
2026-01-05 08:47:59.02	332.35	15.04	-42.9	-43.7	18.2	0.00e+00	0	57	0	3122659328	49	3763
2026-01-05 08:48:00.00	332.21	14.96	-42.9	-43.7	18.2	0.00e+00	0	57	0	3127902208	48	3987
2026-01-05 08:48:00.98	332.08	14.88	-42.9	-43.7	18.2	0.00e+00	0	57	0	3133145088	48	3975
2026-01-05 08:48:01.97	331.95	14.80	-42.7	-43.4	18.4	0.00e+00	0	57	0	3139436544	48	3862
2026-01-05 08:48:02.96	331.82	14.72	-42.8	-43.6	18.2	0.00e+00	0	56	0	3144679424	48	3935
2026-01-05 08:48:03.94	331.69	14.64	-43.1	-43.9	17.9	0.00e+00	0	57	0	3149922304	48	4098
2026-01-05 08:48:04.92	331.56	14.56	-42.8	-43.6	18.3	0.00e+00	0	57	0	3155165184	48	3923
2026-01-05 08:48:05.91	331.43	14.48	-42.6	-43.4	18.5	0.00e+00	0	56	0	3160408064	48	3839
2026-01-05 08:48:06.90	331.30	14.40	-42.4	-43.2	18.6	0.00e+00	0	56	0	3166699520	48	3767
2026-01-05 08:48:07.88	331.17	14.32	-42.5	-43.3	18.6	0.00e+00	0	56	0	3171942400	48	3782
2026-01-05 08:48:08.88	331.04	14.24	-42.5	-43.2	18.6	0.00e+00	0	57	0	3178233856	48	3772
2026-01-05 08:48:09.86	330.91	14.16	-42.6	-43.4	18.5	0.00e+00	0	57	0	3183476736	48	3832
2026-01-05 08:48:10.86	330.78	14.08	-42.6	-43.3	18.5	0.00e+00	0	56	0	3188719616	48	3816
2026-01-05 08:48:11.84	330.66	14.00	-42.5	-43.2	18.6	0.00e+00	0	57	0	3193962496	48	3779
2026-01-05 08:48:12.84	330.53	13.92	-42.5	-43.3	18.6	0.00e+00	0	57	0	3200253952	48	3788
2026-01-05 08:48:13.83	330.41	13.84	-42.5	-43.3	18.5	0.00e+00	0	56	0	3205496832	48	3799
2026-01-05 08:48:14.82	330.28	13.76	-42.7	-43.5	18.3	0.00e+00	0	57	0	3210739712	48	3895
2026-01-05 08:48:15.80	330.16	13.68	-42.8	-43.6	18.3	0.00e+00	0	57	0	3217031168	48	3928
2026-01-05 08:48:16.79	330.04	13.60	-42.8	-43.6	18.2	0.00e+00	0	57	0	3222274048	48	3941
2026-01-05 08:48:17.77	329.92	13.53	-43.0	-43.8	18.0	0.00e+00	0	57	0	3227516928	48	4045
2026-01-05 08:48:18.75	329.80	13.45	-43.0	-43.8	18.1	0.00e+00	0	57	0	3232759808	48	4010
2026-01-05 08:48:19.74	329.68	13.37	-43.1	-43.9	17.9	0.00e+00	0	57	0	3239051264	48	4087
2026-01-05 08:48:20.73	329.56	13.29	-43.1	-44.0	17.9	0.00e+00	0	57	0	3244294144	48	4104
2026-01-05 08:48:21.73	329.44	13.21	-43.3	-44.1	17.7	0.00e+00	0	57	0	3249537024	48	4189
2026-01-05 08:48:22.71	329.32	13.14	-43.5	-44.4	17.5	0.00e+00	0	57	0	3255828480	48	4300
2026-01-05 08:48:23.70	329.20	13.06	-43.4	-44.3	17.6	0.00e+00	0	57	0	3261071360	48	4244
2026-01-05 08:48:24.69	329.08	12.98	-43.2	-44.1	17.8	0.00e+00	0	57	0	3266314240	48	4160
2026-01-05 08:48:25.67	328.97	12.90	-43.1	-43.9	17.9	0.00e+00	0	57	0	3272605696	48	4092
2026-01-05 08:48:26.66	328.85	12.83	-43.2	-44.0	17.8	0.00e+00	0	56	0	3277848576	48	4113
2026-01-05 08:48:27.64	328.74	12.75	-43.3	-44.1	17.7	0.00e+00	0	57	0	3283091456	48	4181
2026-01-05 08:48:28.62	328.62	12.67	-43.5	-44.4	17.4	0.00e+00	0	57	0	3288334336	48	4295
2026-01-05 08:48:29.60	328.51	12.60	-43.5	-44.4	17.4	0.00e+00	0	57	0	3294625792	48	4308
2026-01-05 08:48:30.59	328.40	12.52	-43.4	-44.3	17.5	0.00e+00	0	57	0	3299868672	48	4252
2026-01-05 08:48:31.58	328.28	12.44	-43.4	-44.3	17.5	0.00e+00	0	57	0	3305111552	48	4252
2026-01-05 08:48:32.57	328.17	12.37	-43.6	-44.5	17.3	0.00e+00	0	57	0	3311403008	48	4349
2026-01-05 08:48:33.56	328.06	12.29	-43.5	-44.4	17.4	0.00e+00	0	56	0	3316645888	49	4078
2026-01-05 08:48:34.55	327.95	12.21	-43.6	-44.5	17.3	0.00e+00	0	56	0	3321888768	49	4112
2026-01-05 08:48:35.54	327.84	12.14	-43.8	-44.8	17.0	0.00e+00	0	57	0	3328180224	49	4256
2026-01-05 08:48:36.52	327.73	12.06	-43.8	-44.8	17.0	0.00e+00	0	57	0	3333423104	49	4254
2026-01-05 08:48:37.52	327.62	11.98	-43.5	-44.4	17.4	0.00e+00	0	57	0	3338665984	49	4085
2026-01-05 08:48:38.51	327.51	11.91	-43.4	-44.3	17.5	0.00e+00	0	57	0	3343908864	49	4006
2026-01-05 08:48:39.50	327.40	11.83	-43.3	-44.2	17.6	0.00e+00	0	56	0	3350200320	49	3974
2026-01-05 08:48:40.49	327.29	11.76	-43.4	-44.2	17.6	0.00e+00	0	57	0	3355443200	49	4000
2026-01-05 08:48:41.48	327.19	11.68	-43.3	-44.2	17.6	0.00e+00	0	57	0	3360686080	49	3973
2026-01-05 08:48:42.47	327.08	11.61	-43.4	-44.3	17.5	0.00e+00	0	57	0	3366977536	49	4022
2026-01-05 08:48:43.46	326.97	11.53	-43.5	-44.4	17.4	0.00e+00	0	56	0	3372220416	49	4055
2026-01-05 08:48:44.45	326.87	11.46	-43.4	-44.4	17.4	0.00e+00	0	57	0	3377463296	49	4063
2026-01-05 08:48:45.44	326.76	11.38	-43.5	-44.4	17.3	0.00e+00	0	57	0	3383754752	49	4086
2026-01-05 08:48:46.42	326.66	11.31	-43.4	-44.3	17.4	0.00e+00	0	57	0	3388997632	49	4035
2026-01-05 08:48:47.41	326.56	11.23	-43.6	-44.6	17.2	0.00e+00	0	57	0	3394240512	49	4149
2026-01-05 08:48:48.40	326.45	11.16	-43.8	-44.7	17.0	0.00e+00	0	56	0	3399483392	49	4220
2026-01-05 08:48:49.39	326.35	11.08	-43.6	-44.6	17.2	0.00e+00	0	56	0	3405774848	49	4146
2026-01-05 08:48:50.39	326.25	11.01	-43.6	-44.5	17.2	0.00e+00	0	56	0	3411017728	49	4140
2026-01-05 08:48:51.38	326.14	10.93	-43.8	-44.7	17.0	0.00e+00	0	57	0	3417309184	49	4236
2026-01-05 08:48:52.36	326.04	10.86	-43.9	-44.8	17.0	0.00e+00	0	57	0	3422552064	49	4274
2026-01-05 08:48:53.35	325.94	10.79	-43.7	-44.7	17.1	0.00e+00	0	57	0	3427794944	49	4204
2026-01-05 08:48:54.34	325.84	10.71	-43.8	-44.8	16.9	0.00e+00	0	57	0	3433037824	49	4263
2026-01-05 08:48:55.32	325.74	10.64	-44.0	-44.9	16.8	0.00e+00	0	57	0	3439329280	49	4340
2026-01-05 08:48:56.31	325.65	10.56	-43.9	-44.9	16.9	0.00e+00	0	57	0	3444572160	49	4304
2026-01-05 08:48:57.30	325.55	10.49	-44.1	-45.1	16.6	0.00e+00	0	56	0	3449815040	50	4193
2026-01-05 08:48:58.30	325.45	10.42	-44.3	-45.3	16.4	0.00e+00	0	56	0	3456106496	50	4288
2026-01-05 08:48:59.29	325.35	10.34	-44.1	-45.1	16.7	0.00e+00	0	57	0	3461349376	50	4156
2026-01-05 08:49:00.29	325.25	10.27	-44.0	-45.0	16.7	0.00e+00	0	56	0	3466592256	50	4119
2026-01-05 08:49:01.28	325.16	10.20	-44.1	-45.1	16.7	0.00e+00	0	57	0	3472883712	50	4146
2026-01-05 08:49:02.27	325.06	10.12	-44.2	-45.2	16.6	0.00e+00	0	56	0	3478126592	50	4206
2026-01-05 08:49:03.27	324.96	10.05	-44.3	-45.4	16.4	0.00e+00	0	56	0	3483369472	50	4298
2026-01-05 08:49:04.26	324.87	9.98	-44.2	-45.2	16.5	0.00e+00	0	57	0	3488612352	50	4210
2026-01-05 08:49:05.26	324.77	9.91	-44.3	-45.3	16.4	0.00e+00	0	57	0	3494903808	50	4282
2026-01-05 08:49:06.24	324.68	9.83	-44.0	-45.1	16.7	0.00e+00	0	57	0	3500146688	50	4154
2026-01-05 08:49:07.23	324.59	9.76	-44.0	-44.9	16.8	0.00e+00	0	57	0	3506438144	50	4087
2026-01-05 08:49:08.23	324.49	9.69	-43.9	-44.8	16.9	0.00e+00	0	57	0	3511681024	50	4037
2026-01-05 08:49:09.21	324.40	9.62	-43.8	-44.8	16.9	0.00e+00	0	56	0	3516923904	50	4010
2026-01-05 08:49:10.20	324.31	9.55	-43.9	-44.9	16.8	0.00e+00	0	57	0	3522166784	50	4059
2026-01-05 08:49:11.19	324.22	9.48	-43.9	-44.9	16.8	0.00e+00	0	57	0	3528458240	50	4086
2026-01-05 08:49:12.17	324.12	9.40	-43.9	-44.9	16.8	0.00e+00	0	57	0	3533701120	50	4072
2026-01-05 08:49:13.16	324.03	9.33	-44.1	-45.1	16.6	0.00e+00	0	56	0	3538944000	50	4174
2026-01-05 08:49:14.15	323.94	9.26	-44.2	-45.3	16.4	0.00e+00	0	56	0	3545235456	50	4245
2026-01-05 08:49:15.15	323.85	9.19	-44.0	-45.0	16.7	0.00e+00	0	57	0	3550478336	50	4123
2026-01-05 08:49:16.14	323.76	9.12	-43.9	-44.8	16.8	0.00e+00	0	57	0	3555721216	50	4051
2026-01-05 08:49:17.13	323.67	9.05	-43.9	-44.9	16.8	0.00e+00	0	57	0	3562012672	50	4055
2026-01-05 08:49:18.12	323.59	8.98	-44.0	-45.0	16.7	0.00e+00	0	57	0	3567255552	50	4099
2026-01-05 08:49:19.11	323.50	8.91	-44.0	-45.0	16.6	0.00e+00	0	57	0	3572498432	50	4125
2026-01-05 08:49:20.10	323.41	8.84	-44.1	-45.1	16.6	0.00e+00	0	57	0	3577741312	50	4161
2026-01-05 08:49:21.09	323.32	8.77	-44.2	-45.2	16.4	0.00e+00	0	57	0	3584032768	50	4229
2026-01-05 08:49:22.09	323.24	8.70	-44.0	-45.0	16.6	0.00e+00	0	56	0	3589275648	50	4125
2026-01-05 08:49:23.08	323.15	8.63	-44.0	-45.0	16.6	0.00e+00	0	57	0	3595567104	50	4143
2026-01-05 08:49:24.06	323.06	8.56	-44.1	-45.1	16.5	0.00e+00	0	57	0	3600809984	50	4167
2026-01-05 08:49:25.05	322.98	8.49	-44.3	-45.3	16.3	0.00e+00	0	57	0	3606052864	50	4288
2026-01-05 08:49:26.04	322.89	8.42	-44.4	-45.5	16.1	0.00e+00	0	56	0	3611295744	50	4383
2026-01-05 08:49:27.03	322.81	8.35	-44.3	-45.4	16.2	0.00e+00	0	57	0	3617587200	50	4310
2026-01-05 08:49:28.02	322.72	8.28	-44.2	-45.3	16.3	0.00e+00	0	57	0	3622830080	50	4258
2026-01-05 08:49:29.00	322.64	8.21	-44.4	-45.5	16.2	0.00e+00	0	57	0	3628072960	50	4346
2026-01-05 08:49:29.99	322.56	8.14	-44.3	-45.3	16.3	0.00e+00	0	57	0	3634364416	50	4265
2026-01-05 08:49:30.98	322.47	8.07	-44.3	-45.3	16.2	0.00e+00	0	57	0	3639607296	50	4282
2026-01-05 08:49:31.97	322.39	8.00	-44.4	-45.4	16.2	0.00e+00	0	57	0	3644850176	50	4319
2026-01-05 08:49:32.96	322.31	7.93	-44.2	-45.3	16.3	0.00e+00	0	57	0	3650093056	50	4248
2026-01-05 08:49:33.95	322.23	7.87	-44.2	-45.2	16.3	0.00e+00	0	57	0	3656384512	50	4227
2026-01-05 08:49:34.94	322.15	7.80	-44.2	-45.3	16.3	0.00e+00	0	56	0	3661627392	50	4244
2026-01-05 08:49:35.93	322.07	7.73	-44.3	-45.4	16.2	0.00e+00	0	57	0	3667918848	50	4309
