passes_logs/2026/01/05/R3.0SM8_Murmansk_STILSPACE/R3.0SM8_Murmansk_STILSPACE__20260105_111803_NOAA_20_JPSS-1_rec.log

#Pass ID: 20260105_111803_NOAA 20 (JPSS-1)
#Satellite: NOAA 20 (JPSS-1)
#Configuration: NOAA 20
#almurnet v.1.7.20240730
#Start time: 2026-01-05 11:18:03

#Version: 2.2.20231116
#Station: R3.0SM8_Murmansk_STILSPACE
#Location: 33.092731 lon 68.902999 lat
#TLE: 1 43013U 17073A   26004.47528369  .00000132  00000+0  83671-4 0  9999
#TLE: 2 43013  98.7626 305.5264 0001854  54.5883 305.5466 14.19533142421242

#Time	Az	El	Level	Level2	SNR	BER	BlckErr	Temp	State	Recorded	gain1	gain2
2026-01-05 11:18:03.89	196.82	3.04	-48.4	-62.2	3.8	1.49e+00	0	46	0	0	58	18750
2026-01-05 11:18:04.87	196.88	3.10	-48.4	-62.1	3.8	1.49e+00	0	47	104	0	59	17674
2026-01-05 11:18:05.85	196.94	3.16	-48.4	-62.2	3.8	1.49e+00	0	47	104	0	59	17717
2026-01-05 11:18:06.85	196.99	3.22	-48.4	-62.2	3.8	1.49e+00	0	47	104	0	59	17774
2026-01-05 11:18:07.83	197.05	3.28	-48.4	-62.2	3.8	1.49e+00	0	47	104	0	58	18742
2026-01-05 11:18:08.82	197.11	3.34	-48.4	-62.2	3.8	1.49e+00	0	47	104	0	58	18813
2026-01-05 11:18:09.80	197.16	3.40	-48.4	-62.2	3.8	1.49e+00	0	47	104	0	58	18765
2026-01-05 11:18:10.79	197.22	3.47	-48.4	-62.2	3.8	1.49e+00	0	47	104	0	58	18784
2026-01-05 11:18:11.79	197.28	3.53	-48.4	-62.2	3.8	1.49e+00	0	47	104	0	58	18805
2026-01-05 11:18:12.76	197.34	3.59	-48.4	-62.2	3.8	1.49e+00	0	47	104	0	58	18780
2026-01-05 11:18:13.74	197.39	3.65	-48.4	-62.2	3.8	1.49e+00	0	47	104	0	58	18763
2026-01-05 11:18:14.74	197.45	3.71	-48.4	-62.2	3.8	1.49e+00	0	47	104	0	58	18783
2026-01-05 11:18:15.72	197.51	3.77	-48.4	-62.2	3.8	1.49e+00	0	48	104	0	58	18805
2026-01-05 11:18:16.71	197.57	3.83	-48.4	-62.2	3.8	1.49e+00	0	48	104	0	58	18762
2026-01-05 11:18:17.70	197.63	3.90	-48.4	-62.1	3.8	1.49e+00	0	48	104	0	58	18703
2026-01-05 11:18:18.69	197.69	3.96	-48.4	-62.2	3.8	1.49e+00	0	48	104	0	58	18738
2026-01-05 11:18:19.68	197.75	4.02	-48.4	-62.2	3.8	1.49e+00	0	48	104	0	58	18755
2026-01-05 11:18:20.66	197.81	4.08	-48.4	-62.2	3.8	1.49e+00	0	48	104	0	58	18756
2026-01-05 11:18:21.66	197.87	4.15	-48.4	-62.2	3.8	1.49e+00	0	48	104	0	58	18753
2026-01-05 11:18:22.65	197.93	4.21	-48.4	-62.2	3.8	1.49e+00	0	48	104	0	58	18755
2026-01-05 11:18:23.63	197.99	4.27	-48.4	-62.2	3.8	1.49e+00	0	48	104	0	58	18757
2026-01-05 11:18:24.62	198.05	4.33	-48.4	-62.1	3.8	1.49e+00	0	48	104	0	58	18711
2026-01-05 11:18:25.62	198.11	4.40	-48.4	-62.1	3.8	1.49e+00	0	48	104	0	58	18718
2026-01-05 11:18:26.60	198.17	4.46	-48.4	-62.2	3.8	1.49e+00	0	48	104	0	58	18789
2026-01-05 11:18:27.60	198.23	4.52	-48.4	-62.2	3.8	1.49e+00	0	48	104	0	58	18786
2026-01-05 11:18:28.57	198.29	4.59	-48.4	-62.2	3.8	1.49e+00	0	48	104	0	58	18755
2026-01-05 11:18:29.56	198.35	4.65	-48.4	-62.2	3.8	1.49e+00	0	48	104	0	58	18774
2026-01-05 11:18:30.56	198.42	4.71	-48.4	-62.2	3.8	1.49e+00	0	48	104	0	58	18751
2026-01-05 11:18:31.54	198.48	4.78	-48.5	-62.2	3.8	1.49e+00	0	48	104	0	58	18766
2026-01-05 11:18:32.52	198.54	4.84	-48.4	-62.2	3.8	1.49e+00	0	48	104	0	58	18753
2026-01-05 11:18:33.51	198.60	4.90	-48.4	-62.2	3.8	1.49e+00	0	49	104	0	58	18743
2026-01-05 11:18:34.49	198.67	4.97	-48.4	-62.2	3.8	1.49e+00	0	49	104	0	58	18756
2026-01-05 11:18:35.48	198.73	5.03	-48.4	-62.2	3.8	1.49e+00	0	49	104	0	58	18769
2026-01-05 11:18:36.47	198.79	5.10	-48.4	-62.2	3.8	1.49e+00	0	49	104	0	58	18773
2026-01-05 11:18:37.46	198.86	5.16	-48.4	-62.2	3.8	1.49e+00	0	49	104	0	58	18762
2026-01-05 11:18:38.44	198.92	5.23	-48.4	-62.2	3.8	1.49e+00	0	49	104	0	58	18767
2026-01-05 11:18:39.43	198.99	5.29	-48.4	-62.2	3.8	1.49e+00	0	49	104	0	58	18753
2026-01-05 11:18:40.41	199.05	5.36	-48.4	-62.2	3.8	1.49e+00	0	49	104	0	58	18790
2026-01-05 11:18:41.40	199.12	5.42	-48.4	-62.2	3.8	1.49e+00	0	49	104	0	58	18793
2026-01-05 11:18:42.39	199.18	5.49	-48.4	-62.2	3.8	1.49e+00	0	49	104	0	58	18759
2026-01-05 11:18:43.38	199.25	5.55	-48.4	-62.2	3.8	1.49e+00	0	49	104	0	58	18749
2026-01-05 11:18:44.37	199.31	5.62	-48.4	-62.2	3.8	1.49e+00	0	49	104	0	58	18781
2026-01-05 11:18:45.37	199.38	5.68	-48.5	-62.2	3.8	1.49e+00	0	49	104	0	58	18771
2026-01-05 11:18:46.35	199.45	5.75	-48.5	-62.2	3.8	1.49e+00	0	49	104	0	58	18741
2026-01-05 11:18:47.34	199.51	5.81	-48.5	-62.2	3.8	1.49e+00	0	49	104	0	58	18778
2026-01-05 11:18:48.33	199.58	5.88	-48.4	-62.2	3.8	1.49e+00	0	49	104	0	58	18767
2026-01-05 11:18:49.31	199.65	5.95	-48.5	-62.2	3.8	1.49e+00	0	49	104	0	58	18767
2026-01-05 11:18:50.30	199.71	6.01	-48.4	-62.2	3.8	1.49e+00	0	49	104	0	58	18768
2026-01-05 11:18:51.29	199.78	6.08	-48.5	-62.1	3.8	1.49e+00	0	50	104	0	58	18731
2026-01-05 11:18:52.28	199.85	6.14	-48.5	-62.2	3.8	1.49e+00	0	50	104	0	58	18781
2026-01-05 11:18:53.27	199.92	6.21	-48.4	-62.2	3.8	1.49e+00	0	50	104	0	58	18811
2026-01-05 11:18:54.25	199.99	6.28	-48.5	-62.2	3.8	1.49e+00	0	50	104	0	58	18785
2026-01-05 11:18:55.24	200.06	6.34	-48.4	-62.1	3.8	1.49e+00	0	50	104	0	58	18731
2026-01-05 11:18:56.23	200.13	6.41	-48.4	-62.2	3.8	1.49e+00	0	50	104	0	58	18762
2026-01-05 11:18:57.21	200.19	6.48	-48.4	-62.2	3.8	1.49e+00	0	50	104	0	58	18740
2026-01-05 11:18:58.20	200.26	6.55	-48.5	-62.1	3.8	1.49e+00	0	50	104	0	58	18728
2026-01-05 11:18:59.19	200.33	6.61	-48.5	-62.2	3.8	1.49e+00	0	50	104	0	58	18755
2026-01-05 11:19:00.18	200.41	6.68	-48.4	-62.2	3.8	1.49e+00	0	50	104	0	58	18740
2026-01-05 11:19:01.16	200.48	6.75	-48.4	-62.2	3.8	1.49e+00	0	50	104	0	58	18786
2026-01-05 11:19:02.15	200.55	6.82	-48.4	-62.2	3.8	1.49e+00	0	50	104	0	58	18807
2026-01-05 11:19:03.14	200.62	6.88	-48.4	-62.1	3.8	1.49e+00	0	50	104	0	58	18697
2026-01-05 11:19:04.13	200.69	6.95	-48.4	-62.2	3.8	1.49e+00	0	50	104	0	58	18806
2026-01-05 11:19:05.12	200.76	7.02	-48.4	-62.1	3.8	1.49e+00	0	50	104	0	58	18730
2026-01-05 11:19:06.11	200.84	7.09	-48.4	-62.2	3.8	1.49e+00	0	50	104	0	58	18755
2026-01-05 11:19:07.10	200.91	7.16	-48.4	-62.1	3.8	1.49e+00	0	51	104	0	58	18723
2026-01-05 11:19:08.08	200.98	7.23	-48.4	-62.2	3.8	1.49e+00	0	51	104	0	58	18772
2026-01-05 11:19:09.07	201.05	7.30	-48.4	-62.1	3.8	1.49e+00	0	51	104	0	58	18717
2026-01-05 11:19:10.06	201.13	7.37	-48.5	-62.2	3.8	1.49e+00	0	51	104	0	58	18781
2026-01-05 11:19:11.04	201.20	7.43	-48.4	-62.2	3.8	1.49e+00	0	51	104	0	58	18787
2026-01-05 11:19:12.04	201.28	7.50	-48.4	-62.2	3.8	1.49e+00	0	51	104	0	58	18758
2026-01-05 11:19:13.03	201.35	7.57	-48.4	-62.2	3.8	1.49e+00	0	51	104	0	58	18741
2026-01-05 11:19:14.02	201.43	7.64	-48.4	-62.2	3.8	1.49e+00	0	51	104	0	58	18768
2026-01-05 11:19:15.01	201.50	7.71	-48.4	-62.2	3.8	1.49e+00	0	51	104	0	58	18741
2026-01-05 11:19:16.00	201.58	7.78	-48.4	-62.2	3.8	1.49e+00	0	51	104	0	58	18789
2026-01-05 11:19:16.99	201.65	7.85	-48.4	-62.1	3.8	1.49e+00	0	51	104	0	58	18725
2026-01-05 11:19:17.97	201.73	7.92	-48.5	-62.2	3.8	1.49e+00	0	51	104	0	58	18735
2026-01-05 11:19:18.96	201.81	7.99	-48.5	-62.2	3.8	1.49e+00	0	51	104	0	58	18748
2026-01-05 11:19:19.94	201.88	8.06	-48.4	-62.2	3.8	1.49e+00	0	51	104	0	58	18776
2026-01-05 11:19:20.93	201.96	8.13	-48.4	-62.2	3.8	1.49e+00	0	51	104	0	58	18818
2026-01-05 11:19:21.92	202.04	8.21	-48.5	-62.2	3.8	1.49e+00	0	51	104	0	58	18782
2026-01-05 11:19:22.91	202.12	8.28	-48.4	-62.2	3.8	1.49e+00	0	51	104	0	58	18837
2026-01-05 11:19:23.91	202.20	8.35	-48.4	-62.2	3.8	1.49e+00	0	51	104	0	58	18767
2026-01-05 11:19:24.89	202.28	8.42	-48.4	-62.2	3.8	1.49e+00	0	51	104	0	58	18737
2026-01-05 11:19:25.89	202.36	8.49	-48.5	-62.2	3.8	1.49e+00	0	52	104	0	58	18773
2026-01-05 11:19:26.88	202.44	8.56	-48.4	-62.2	3.8	1.49e+00	0	51	104	0	58	18772
2026-01-05 11:19:27.87	202.52	8.64	-48.4	-62.2	3.8	1.49e+00	0	51	104	0	58	18743
2026-01-05 11:19:28.85	202.60	8.71	-48.4	-62.2	3.8	1.49e+00	0	51	104	0	58	18814
2026-01-05 11:19:29.84	202.68	8.78	-48.4	-62.2	3.8	1.49e+00	0	51	104	0	58	18757
2026-01-05 11:19:30.83	202.76	8.85	-48.4	-62.2	3.8	1.49e+00	0	51	104	0	58	18789
2026-01-05 11:19:31.81	202.84	8.92	-48.4	-62.2	3.8	1.49e+00	0	52	104	0	58	18748
2026-01-05 11:19:32.80	202.92	9.00	-48.4	-62.2	3.8	1.49e+00	0	51	104	0	58	18786
2026-01-05 11:19:33.80	203.00	9.07	-48.4	-62.2	3.8	1.49e+00	0	52	104	0	58	18766
2026-01-05 11:19:34.79	203.09	9.14	-48.4	-62.2	3.8	1.49e+00	0	52	104	0	58	18797
2026-01-05 11:19:35.78	203.17	9.22	-48.4	-62.2	3.8	1.49e+00	0	52	104	0	58	18771
2026-01-05 11:19:36.78	203.26	9.29	-48.4	-62.2	3.8	1.49e+00	0	52	104	0	58	18779
2026-01-05 11:19:37.76	203.34	9.36	-48.5	-62.2	3.8	1.49e+00	0	52	104	0	58	18768
2026-01-05 11:19:38.75	203.42	9.44	-48.4	-62.2	3.8	1.49e+00	0	52	104	0	58	18770
2026-01-05 11:19:39.74	203.51	9.51	-48.4	-62.2	3.8	1.49e+00	0	52	104	0	58	18780
2026-01-05 11:19:40.73	203.59	9.59	-48.5	-62.2	3.8	1.49e+00	0	52	104	0	58	18738
2026-01-05 11:19:41.72	203.68	9.66	-48.4	-62.2	3.8	1.49e+00	0	52	104	0	58	18788
2026-01-05 11:19:42.71	203.77	9.73	-48.5	-62.2	3.8	1.49e+00	0	52	104	0	58	18789
2026-01-05 11:19:43.70	203.85	9.81	-48.4	-62.1	3.8	1.49e+00	0	52	104	0	58	18710
2026-01-05 11:19:44.69	203.94	9.88	-48.4	-62.2	3.8	1.49e+00	0	52	104	0	58	18753
2026-01-05 11:19:45.68	204.03	9.96	-48.4	-62.2	3.8	1.49e+00	0	52	104	0	58	18827
2026-01-05 11:19:46.67	204.11	10.03	-48.5	-62.2	3.8	1.49e+00	0	52	104	0	58	18825
2026-01-05 11:19:47.66	204.20	10.11	-48.4	-62.2	3.8	1.49e+00	0	52	104	0	58	18797
2026-01-05 11:19:48.65	204.29	10.18	-48.4	-62.2	3.8	1.49e+00	0	52	104	0	58	18797
2026-01-05 11:19:49.63	204.38	10.26	-48.4	-62.2	3.8	1.49e+00	0	52	104	0	58	18809
2026-01-05 11:19:50.62	204.47	10.34	-48.4	-62.2	3.8	1.49e+00	0	52	104	0	58	18791
2026-01-05 11:19:51.62	204.56	10.41	-48.4	-62.2	3.8	1.49e+00	0	52	104	0	58	18760
2026-01-05 11:19:52.61	204.65	10.49	-48.4	-62.2	3.8	1.49e+00	0	52	104	0	58	18746
2026-01-05 11:19:53.61	204.74	10.57	-48.4	-62.2	3.8	1.49e+00	0	52	104	0	58	18772
2026-01-05 11:19:54.59	204.83	10.64	-48.5	-62.2	3.8	1.49e+00	0	52	104	0	58	18754
2026-01-05 11:19:55.58	204.92	10.72	-48.5	-62.2	3.8	1.49e+00	0	52	104	0	58	18772
2026-01-05 11:19:56.57	205.02	10.79	-48.4	-62.2	3.8	1.49e+00	0	52	104	0	58	18757
2026-01-05 11:19:57.56	205.11	10.87	-48.5	-62.2	3.8	1.49e+00	0	52	104	0	58	18805
2026-01-05 11:19:58.55	205.20	10.95	-48.5	-62.2	3.8	1.49e+00	0	52	104	0	58	18808
2026-01-05 11:19:59.54	205.30	11.03	-48.5	-62.2	3.8	1.49e+00	0	53	104	0	58	18793
2026-01-05 11:20:00.52	205.39	11.10	-48.5	-62.2	3.8	1.49e+00	0	53	104	0	58	18764
2026-01-05 11:20:01.52	205.49	11.18	-48.4	-62.2	3.8	1.49e+00	0	52	104	0	58	18792
2026-01-05 11:20:02.51	205.58	11.26	-48.5	-62.2	3.8	1.49e+00	0	53	104	0	58	18794
2026-01-05 11:20:03.50	205.68	11.34	-48.5	-62.2	3.8	1.49e+00	0	53	104	0	58	18798
2026-01-05 11:20:04.49	205.77	11.42	-48.5	-62.2	3.8	1.49e+00	0	53	104	0	58	18801
2026-01-05 11:20:05.47	205.87	11.49	-48.4	-62.2	3.8	1.49e+00	0	53	104	0	58	18824
2026-01-05 11:20:06.46	205.97	11.57	-48.5	-62.2	3.8	1.49e+00	0	53	104	0	58	18792
2026-01-05 11:20:07.45	206.06	11.65	-48.4	-62.2	3.8	1.49e+00	0	53	104	0	58	18766
2026-01-05 11:20:08.44	206.16	11.73	-48.5	-62.2	3.8	1.49e+00	0	53	104	0	58	18759
2026-01-05 11:20:09.43	206.26	11.81	-48.5	-62.2	3.8	1.49e+00	0	53	104	0	58	18756
2026-01-05 11:20:10.42	206.36	11.89	-48.4	-62.2	3.8	1.49e+00	0	53	104	0	58	18751
2026-01-05 11:20:11.41	206.46	11.97	-48.5	-62.2	3.8	1.49e+00	0	53	104	0	58	18808
2026-01-05 11:20:12.40	206.56	12.05	-48.5	-62.2	3.8	1.49e+00	0	53	104	0	58	18790
2026-01-05 11:20:13.39	206.66	12.13	-48.5	-62.2	3.8	1.49e+00	0	53	104	0	58	18786
2026-01-05 11:20:14.38	206.76	12.21	-48.5	-62.2	3.8	1.49e+00	0	53	104	0	58	18755
2026-01-05 11:20:15.37	206.86	12.29	-48.5	-62.2	3.8	1.49e+00	0	53	104	0	58	18774
2026-01-05 11:20:16.36	206.96	12.37	-48.4	-62.2	3.8	1.49e+00	0	53	104	0	58	18812
2026-01-05 11:20:17.34	207.07	12.45	-48.4	-62.2	3.8	1.49e+00	0	53	104	0	58	18756
2026-01-05 11:20:18.33	207.17	12.53	-48.4	-62.2	3.8	1.49e+00	0	53	104	0	58	18790
2026-01-05 11:20:19.32	207.27	12.61	-48.4	-62.2	3.8	1.49e+00	0	53	104	0	58	18738
2026-01-05 11:20:20.31	207.38	12.69	-48.5	-62.2	3.8	1.49e+00	0	53	104	0	58	18780
2026-01-05 11:20:21.29	207.48	12.77	-48.4	-62.2	3.8	1.49e+00	0	53	104	0	58	18785
2026-01-05 11:20:22.28	207.59	12.85	-48.4	-62.2	3.8	1.49e+00	0	53	104	0	58	18765
2026-01-05 11:20:23.28	207.69	12.94	-48.4	-62.2	3.8	1.49e+00	0	53	104	0	58	18795
2026-01-05 11:20:24.27	207.80	13.02	-48.4	-62.1	3.8	1.49e+00	0	53	104	0	58	18716
2026-01-05 11:20:25.26	207.91	13.10	-48.4	-62.2	3.8	1.49e+00	0	53	104	0	58	18784
2026-01-05 11:20:26.25	208.02	13.18	-48.4	-62.2	3.8	1.49e+00	0	54	104	0	58	18798
2026-01-05 11:20:27.23	208.12	13.27	-48.4	-62.2	3.8	1.49e+00	0	53	104	0	58	18748
2026-01-05 11:20:28.22	208.23	13.35	-48.5	-62.2	3.8	1.49e+00	0	53	104	0	58	18826
2026-01-05 11:20:29.20	208.34	13.43	-48.5	-62.2	3.8	1.49e+00	0	53	104	0	58	18775
2026-01-05 11:20:30.18	208.45	13.51	-48.5	-62.2	3.8	1.49e+00	0	53	104	0	58	18804
2026-01-05 11:20:31.16	208.56	13.59	-48.5	-62.2	3.8	1.49e+00	0	54	104	0	58	18795
2026-01-05 11:20:32.15	208.67	13.68	-48.5	-62.2	3.8	1.49e+00	0	53	104	0	58	18799
2026-01-05 11:20:33.14	208.78	13.76	-48.5	-62.2	3.8	1.49e+00	0	53	104	0	58	18816
2026-01-05 11:20:34.14	208.90	13.85	-48.5	-62.2	3.8	1.49e+00	0	53	104	0	58	18776
2026-01-05 11:20:35.13	209.01	13.93	-48.5	-62.2	3.8	1.49e+00	0	54	104	0	58	18815
2026-01-05 11:20:36.11	209.12	14.01	-48.4	-62.2	3.8	1.49e+00	0	54	104	0	58	18803
2026-01-05 11:20:37.10	209.24	14.10	-48.4	-62.2	3.8	1.49e+00	0	53	104	0	58	18788
2026-01-05 11:20:38.09	209.35	14.18	-48.4	-62.2	3.8	1.49e+00	0	54	104	0	58	18776
2026-01-05 11:20:39.08	209.47	14.27	-48.4	-62.2	3.8	1.49e+00	0	54	104	0	58	18788
2026-01-05 11:20:40.07	209.58	14.35	-48.4	-62.2	3.8	1.49e+00	0	54	104	0	58	18809
2026-01-05 11:20:41.06	209.70	14.44	-48.4	-62.2	3.8	1.49e+00	0	54	104	0	58	18810
2026-01-05 11:20:42.04	209.82	14.52	-48.4	-62.2	3.8	1.49e+00	0	54	104	0	58	18760
2026-01-05 11:20:43.02	209.93	14.61	-48.4	-62.2	3.8	1.49e+00	0	54	104	0	58	18816
2026-01-05 11:20:44.02	210.05	14.69	-48.4	-62.2	3.8	1.49e+00	0	54	104	0	58	18799
2026-01-05 11:20:45.00	210.17	14.78	-48.5	-62.2	3.8	1.49e+00	0	54	104	0	58	18836
2026-01-05 11:20:45.99	210.29	14.87	-48.5	-62.2	3.8	1.49e+00	0	54	104	0	58	18791
2026-01-05 11:20:46.98	210.41	14.95	-48.5	-62.2	3.8	1.49e+00	0	54	104	0	58	18789
2026-01-05 11:20:47.97	210.54	15.04	-48.5	-62.2	3.8	1.49e+00	0	54	104	0	58	18833
2026-01-05 11:20:48.96	210.66	15.13	-48.4	-62.2	3.8	1.49e+00	0	54	104	0	58	18798
2026-01-05 11:20:49.95	210.78	15.21	-48.5	-62.2	3.8	1.49e+00	0	54	104	0	58	18782
2026-01-05 11:20:50.94	210.90	15.30	-48.4	-62.2	3.8	1.49e+00	0	54	104	0	58	18829
2026-01-05 11:20:51.93	211.03	15.39	-48.5	-62.2	3.8	1.49e+00	0	54	104	0	58	18790
2026-01-05 11:20:52.91	211.15	15.47	-48.5	-62.2	3.8	1.49e+00	0	54	104	0	58	18825
2026-01-05 11:20:53.90	211.28	15.56	-48.4	-62.2	3.8	1.49e+00	0	54	104	0	58	18827
2026-01-05 11:20:54.89	211.40	15.65	-48.4	-62.2	3.8	1.49e+00	0	54	104	0	58	18792
2026-01-05 11:20:55.88	211.53	15.74	-48.5	-62.2	3.8	1.49e+00	0	54	104	0	58	18782
2026-01-05 11:20:56.87	211.66	15.83	-48.5	-62.2	3.8	1.49e+00	0	54	104	0	58	18796
2026-01-05 11:20:57.87	211.79	15.91	-48.4	-62.2	3.8	1.49e+00	0	54	104	0	58	18772
2026-01-05 11:20:58.86	211.92	16.00	-48.4	-62.2	3.8	1.49e+00	0	54	104	0	58	18767
2026-01-05 11:20:59.86	212.05	16.09	-48.4	-62.2	3.8	1.49e+00	0	54	104	0	58	18771
2026-01-05 11:21:00.84	212.18	16.18	-48.4	-62.2	3.8	1.49e+00	0	54	104	0	58	18775
2026-01-05 11:21:01.82	212.31	16.27	-48.5	-62.2	3.8	1.49e+00	0	54	104	0	58	18779
2026-01-05 11:21:02.80	212.44	16.36	-48.5	-62.2	3.8	1.49e+00	0	54	104	0	58	18763
2026-01-05 11:21:03.79	212.57	16.45	-48.5	-62.2	3.8	1.49e+00	0	54	104	0	58	18813
2026-01-05 11:21:04.79	212.71	16.54	-48.5	-62.2	3.8	1.49e+00	0	54	104	0	58	18782
2026-01-05 11:21:05.77	212.84	16.63	-48.4	-62.2	3.8	1.49e+00	0	54	104	0	58	18781
2026-01-05 11:21:06.76	212.98	16.72	-48.5	-62.2	3.8	1.49e+00	0	54	104	0	58	18849
2026-01-05 11:21:07.76	213.11	16.81	-48.4	-62.2	3.8	1.49e+00	0	54	104	0	58	18808
2026-01-05 11:21:08.75	213.25	16.90	-48.4	-62.2	3.8	1.49e+00	0	54	104	0	58	18815
2026-01-05 11:21:09.74	213.39	16.99	-48.5	-62.2	3.8	1.49e+00	0	54	104	0	58	18805
2026-01-05 11:21:10.72	213.53	17.08	-48.4	-62.2	3.8	1.49e+00	0	54	104	0	58	18789
2026-01-05 11:21:11.71	213.67	17.17	-48.5	-62.2	3.8	1.49e+00	0	54	104	0	58	18826
2026-01-05 11:21:12.69	213.81	17.26	-48.4	-62.2	3.8	1.49e+00	0	54	104	0	58	18788
2026-01-05 11:21:13.68	213.95	17.35	-48.4	-62.2	3.8	1.49e+00	0	54	104	0	58	18797
2026-01-05 11:21:14.66	214.09	17.44	-48.4	-62.2	3.8	1.49e+00	0	54	104	0	58	18803
2026-01-05 11:21:15.66	214.23	17.54	-48.5	-62.2	3.8	1.49e+00	0	54	104	0	58	18795
2026-01-05 11:21:16.64	214.37	17.63	-48.5	-62.2	3.8	1.49e+00	0	55	104	0	58	18791
2026-01-05 11:21:17.63	214.52	17.72	-48.5	-62.2	3.8	1.49e+00	0	55	104	0	58	18802
2026-01-05 11:21:18.62	214.66	17.81	-48.5	-62.2	3.8	1.49e+00	0	54	104	0	58	18836
2026-01-05 11:21:19.62	214.81	17.90	-48.5	-62.2	3.8	1.49e+00	0	55	104	0	58	18803
2026-01-05 11:21:20.61	214.96	18.00	-48.5	-62.2	3.8	1.49e+00	0	55	104	0	58	18818
2026-01-05 11:21:21.58	215.10	18.09	-48.5	-62.2	3.8	1.49e+00	0	54	104	0	58	18798
2026-01-05 11:21:22.57	215.25	18.18	-48.5	-62.2	3.8	1.49e+00	0	55	104	0	58	18844
2026-01-05 11:21:23.56	215.40	18.27	-48.4	-62.2	3.8	1.49e+00	0	55	104	0	58	18788
2026-01-05 11:21:24.56	215.55	18.37	-48.5	-62.2	3.8	1.49e+00	0	55	104	0	58	18856
2026-01-05 11:21:25.54	215.70	18.46	-48.5	-62.2	3.8	1.49e+00	0	55	104	0	58	18807
2026-01-05 11:21:26.53	215.85	18.55	-48.5	-62.2	3.8	1.49e+00	0	55	104	0	58	18785
2026-01-05 11:21:27.51	216.01	18.65	-48.4	-62.2	3.8	1.49e+00	0	55	104	0	58	18807
2026-01-05 11:21:28.49	216.16	18.74	-48.4	-62.2	3.8	1.49e+00	0	55	104	0	58	18870
2026-01-05 11:21:29.48	216.31	18.83	-48.4	-62.2	3.8	1.49e+00	0	55	104	0	58	18803
2026-01-05 11:21:30.46	216.47	18.93	-48.4	-62.2	3.8	1.49e+00	0	55	104	0	58	18818
2026-01-05 11:21:31.46	216.63	19.02	-48.4	-62.2	3.8	1.49e+00	0	55	104	0	58	18814
2026-01-05 11:21:32.45	216.78	19.12	-48.5	-62.2	3.8	1.49e+00	0	55	104	0	58	18831
2026-01-05 11:21:33.44	216.94	19.21	-48.4	-62.2	3.8	1.49e+00	0	54	104	0	58	18811
2026-01-05 11:21:34.43	217.10	19.31	-48.5	-62.2	3.8	1.49e+00	0	55	104	0	58	18837
2026-01-05 11:21:35.42	217.26	19.40	-48.5	-62.2	3.8	1.49e+00	0	55	104	0	58	18817
2026-01-05 11:21:36.41	217.42	19.50	-48.5	-62.2	3.8	1.49e+00	0	55	104	0	58	18787
2026-01-05 11:21:37.40	217.59	19.59	-48.5	-62.2	3.8	1.49e+00	0	55	104	0	58	18832
2026-01-05 11:21:38.39	217.75	19.69	-48.5	-62.2	3.8	1.49e+00	0	55	104	0	58	18825
2026-01-05 11:21:39.38	217.91	19.78	-48.5	-62.2	3.8	1.49e+00	0	55	104	0	58	18813
2026-01-05 11:21:40.37	218.08	19.88	-48.5	-62.2	3.8	1.49e+00	0	55	104	0	58	18859
2026-01-05 11:21:41.36	218.25	19.97	-48.5	-62.2	3.8	1.49e+00	0	55	104	0	58	18798
2026-01-05 11:21:42.35	218.41	20.07	-48.5	-62.2	3.8	1.49e+00	0	55	104	0	58	18825
2026-01-05 11:21:43.33	218.58	20.17	-48.5	-62.2	3.8	1.49e+00	0	55	104	0	58	18860
2026-01-05 11:21:44.31	218.75	20.26	-48.4	-62.2	3.8	1.49e+00	0	55	104	0	58	18799
2026-01-05 11:21:45.30	218.92	20.36	-48.4	-62.2	3.8	1.49e+00	0	55	104	0	58	18754
2026-01-05 11:21:46.29	219.09	20.45	-48.4	-62.2	3.8	1.49e+00	0	55	104	0	58	18798
2026-01-05 11:21:47.27	219.26	20.55	-48.4	-62.2	3.8	1.49e+00	0	55	104	0	58	18819
2026-01-05 11:21:48.27	219.44	20.65	-48.4	-62.2	3.8	1.49e+00	0	55	104	0	58	18800
2026-01-05 11:21:49.25	219.61	20.74	-48.5	-62.2	3.8	1.49e+00	0	55	104	0	58	18800
2026-01-05 11:21:50.24	219.79	20.84	-48.5	-62.2	3.8	1.49e+00	0	55	104	0	58	18818
2026-01-05 11:21:51.23	219.96	20.94	-48.4	-62.2	3.8	1.49e+00	0	55	104	0	58	18859
2026-01-05 11:21:52.22	220.14	21.03	-48.5	-62.2	3.8	1.49e+00	0	55	104	0	58	18851
2026-01-05 11:21:53.20	220.32	21.13	-48.5	-62.2	3.8	1.49e+00	0	55	104	0	58	18840
2026-01-05 11:21:54.20	220.50	21.23	-48.5	-62.2	3.8	1.49e+00	0	55	104	0	58	18819
2026-01-05 11:21:55.19	220.68	21.33	-48.4	-62.2	3.8	1.49e+00	0	55	104	0	58	18882
2026-01-05 11:21:56.17	220.86	21.42	-48.5	-62.2	3.8	1.49e+00	0	55	104	0	58	18880
2026-01-05 11:21:57.16	221.05	21.52	-48.4	-62.2	3.8	1.49e+00	0	55	104	0	58	18809
2026-01-05 11:21:58.15	221.23	21.62	-48.4	-62.2	3.8	1.49e+00	0	55	104	0	58	18815
2026-01-05 11:21:59.14	221.42	21.71	-48.4	-62.2	3.8	1.49e+00	0	55	104	0	58	18739
2026-01-05 11:22:00.12	221.60	21.81	-48.4	-62.2	3.8	1.49e+00	0	55	104	0	58	18795
2026-01-05 11:22:01.11	221.79	21.91	-48.4	-62.2	3.8	1.49e+00	0	55	104	0	58	18801
2026-01-05 11:22:02.10	221.98	22.01	-48.4	-62.2	3.8	1.49e+00	0	55	104	0	58	18768
2026-01-05 11:22:03.09	222.17	22.11	-48.4	-62.2	3.8	1.49e+00	0	55	104	0	58	18796
2026-01-05 11:22:04.08	222.36	22.20	-48.4	-62.2	3.8	1.49e+00	0	55	104	0	58	18833
2026-01-05 11:22:05.08	222.56	22.30	-48.4	-62.2	3.8	1.49e+00	0	55	104	0	58	18817
2026-01-05 11:22:06.06	222.75	22.40	-48.4	-62.2	3.8	1.49e+00	0	55	104	0	58	18795
2026-01-05 11:22:07.05	222.94	22.50	-48.4	-62.2	3.8	1.49e+00	0	56	104	0	58	18802
2026-01-05 11:22:08.03	223.14	22.60	-48.5	-62.2	3.8	1.49e+00	0	55	104	0	58	18824
2026-01-05 11:22:09.03	223.34	22.69	-48.5	-62.2	3.8	1.49e+00	0	56	104	0	58	18814
2026-01-05 11:22:10.01	223.54	22.79	-48.5	-62.2	3.8	1.49e+00	0	55	104	0	58	18859
2026-01-05 11:22:11.01	223.74	22.89	-48.4	-62.2	3.8	1.49e+00	0	55	104	0	58	18845
2026-01-05 11:22:12.00	223.94	22.99	-48.5	-62.2	3.8	1.49e+00	0	56	104	0	58	18843
2026-01-05 11:22:12.99	224.14	23.09	-48.4	-62.2	3.8	1.49e+00	0	56	104	0	58	18838
2026-01-05 11:22:13.98	224.35	23.19	-48.4	-62.2	3.8	1.49e+00	0	56	104	0	58	18845
2026-01-05 11:22:14.97	224.55	23.28	-48.5	-62.2	3.8	1.49e+00	0	55	104	0	58	18837
2026-01-05 11:22:15.95	224.75	23.38	-48.4	-62.2	3.8	1.49e+00	0	55	104	0	58	18827
2026-01-05 11:22:16.94	224.96	23.48	-48.4	-62.2	3.8	1.49e+00	0	56	104	0	58	18845
2026-01-05 11:22:17.93	225.17	23.58	-48.5	-62.2	3.8	1.49e+00	0	56	104	0	58	18771
2026-01-05 11:22:18.92	225.38	23.68	-48.4	-62.2	3.8	1.49e+00	0	56	104	0	58	18835
2026-01-05 11:22:19.91	225.59	23.78	-48.4	-62.2	3.8	1.49e+00	0	55	104	0	58	18846
2026-01-05 11:22:20.91	225.81	23.88	-48.4	-62.2	3.8	1.49e+00	0	56	104	0	58	18859
2026-01-05 11:22:21.90	226.02	23.97	-48.4	-62.2	3.8	1.49e+00	0	56	104	0	58	18791
2026-01-05 11:22:22.88	226.23	24.07	-48.4	-62.2	3.8	1.49e+00	0	56	104	0	58	18814
2026-01-05 11:22:23.87	226.45	24.17	-48.5	-62.2	3.8	1.49e+00	0	56	104	0	58	18863
2026-01-05 11:22:24.86	226.67	24.27	-48.5	-62.2	3.8	1.49e+00	0	56	104	0	58	18791
2026-01-05 11:22:25.84	226.89	24.36	-48.5	-62.2	3.8	1.49e+00	0	56	104	0	58	18841
2026-01-05 11:22:26.83	227.11	24.46	-48.5	-62.2	3.8	1.49e+00	0	56	104	0	58	18883
2026-01-05 11:22:27.81	227.33	24.56	-48.5	-62.2	3.8	1.49e+00	0	56	104	0	58	18792
2026-01-05 11:22:28.80	227.55	24.66	-48.5	-62.2	3.8	1.49e+00	0	56	104	0	58	18825
2026-01-05 11:22:29.79	227.77	24.76	-48.4	-62.2	3.8	1.49e+00	0	56	104	0	58	18807
2026-01-05 11:22:30.78	228.00	24.85	-48.5	-62.2	3.8	1.49e+00	0	56	104	0	58	18830
2026-01-05 11:22:31.77	228.23	24.95	-48.5	-62.2	3.8	1.49e+00	0	56	104	0	58	18798
2026-01-05 11:22:32.75	228.45	25.05	-48.4	-62.2	3.8	1.49e+00	0	56	104	0	58	18865
2026-01-05 11:22:33.74	228.68	25.14	-48.5	-62.2	3.8	1.49e+00	0	56	104	0	58	18816
2026-01-05 11:22:34.74	228.92	25.24	-48.4	-62.2	3.8	1.49e+00	0	56	104	0	58	18843
2026-01-05 11:22:35.73	229.15	25.34	-48.4	-62.2	3.8	1.49e+00	0	56	104	0	58	18793
2026-01-05 11:22:36.73	229.39	25.44	-48.4	-62.2	3.8	1.49e+00	0	56	104	0	58	18808
2026-01-05 11:22:37.72	229.62	25.53	-48.4	-62.2	3.8	1.49e+00	0	56	104	0	58	18858
2026-01-05 11:22:38.71	229.86	25.63	-48.5	-62.2	3.8	1.49e+00	0	56	104	0	58	18867
2026-01-05 11:22:39.70	230.10	25.73	-48.4	-62.2	3.8	1.49e+00	0	56	104	0	58	18845
2026-01-05 11:22:40.69	230.34	25.82	-48.5	-62.2	3.8	1.49e+00	0	56	104	0	58	18801
2026-01-05 11:22:41.68	230.58	25.92	-48.5	-62.2	3.8	1.49e+00	0	56	104	0	58	18768
2026-01-05 11:22:42.67	230.82	26.02	-48.5	-62.2	3.8	1.49e+00	0	56	104	0	58	18849
2026-01-05 11:22:43.66	231.07	26.11	-48.5	-62.2	3.8	1.49e+00	0	56	104	0	58	18853
2026-01-05 11:22:44.64	231.31	26.21	-48.5	-62.2	3.8	1.49e+00	0	56	104	0	58	18888
2026-01-05 11:22:45.63	231.56	26.30	-48.5	-62.2	3.8	1.49e+00	0	56	104	0	58	18886
2026-01-05 11:22:46.62	231.81	26.40	-48.5	-62.2	3.8	1.49e+00	0	56	104	0	58	18822
2026-01-05 11:22:47.60	232.05	26.49	-48.5	-62.2	3.8	1.49e+00	0	56	104	0	58	18830
2026-01-05 11:22:48.59	232.31	26.59	-48.5	-62.2	3.8	1.49e+00	0	56	104	0	58	18868
2026-01-05 11:22:49.58	232.56	26.68	-48.5	-62.2	3.8	1.49e+00	0	56	104	0	58	18839
2026-01-05 11:22:50.56	232.81	26.77	-48.5	-62.2	3.8	1.49e+00	0	56	104	0	58	18858
2026-01-05 11:22:51.54	233.06	26.87	-48.5	-62.2	3.8	1.49e+00	0	56	104	0	58	18841
2026-01-05 11:22:52.53	233.32	26.96	-48.4	-62.2	3.8	1.49e+00	0	56	104	0	58	18885
2026-01-05 11:22:53.51	233.58	27.05	-48.5	-62.2	3.8	1.49e+00	0	56	104	0	58	18797
2026-01-05 11:22:54.49	233.83	27.15	-48.4	-62.2	3.8	1.49e+00	0	56	104	0	58	18816
2026-01-05 11:22:55.49	234.10	27.24	-48.5	-62.2	3.8	1.49e+00	0	56	104	0	58	18857
2026-01-05 11:22:56.48	234.36	27.33	-48.5	-62.2	3.8	1.49e+00	0	56	104	0	58	18785
2026-01-05 11:22:57.46	234.62	27.42	-48.4	-62.2	3.8	1.49e+00	0	56	104	0	58	18860
2026-01-05 11:22:58.45	234.89	27.51	-48.5	-62.2	3.8	1.49e+00	0	56	104	0	58	18841
2026-01-05 11:22:59.43	235.16	27.61	-48.4	-62.2	3.8	1.49e+00	0	56	104	0	58	18828
2026-01-05 11:23:00.42	235.42	27.70	-48.4	-62.2	3.8	1.49e+00	0	56	104	0	58	18814
2026-01-05 11:23:01.41	235.70	27.79	-48.5	-62.2	3.8	1.49e+00	0	56	104	0	58	18828
2026-01-05 11:23:02.41	235.97	27.88	-48.5	-62.2	3.8	1.49e+00	0	56	104	0	58	18824
2026-01-05 11:23:03.40	236.24	27.97	-48.4	-62.2	3.8	1.49e+00	0	56	104	0	58	18843
2026-01-05 11:23:04.39	236.52	28.06	-48.5	-62.2	3.8	1.49e+00	0	56	104	0	58	18818
2026-01-05 11:23:05.37	236.79	28.15	-48.5	-62.2	3.8	1.49e+00	0	56	104	0	58	18835
2026-01-05 11:23:06.37	237.07	28.24	-48.5	-62.2	3.8	1.49e+00	0	56	104	0	58	18852
2026-01-05 11:23:07.36	237.35	28.32	-48.5	-62.2	3.8	1.49e+00	0	56	104	0	58	18859
2026-01-05 11:23:08.35	237.64	28.41	-48.4	-62.2	3.8	1.49e+00	0	56	104	0	58	18871
2026-01-05 11:23:09.33	237.92	28.50	-48.5	-62.2	3.8	1.49e+00	0	56	104	0	58	18849
2026-01-05 11:23:10.31	238.20	28.58	-48.5	-62.2	3.8	1.49e+00	0	56	104	0	58	18842
2026-01-05 11:23:11.31	238.49	28.67	-48.4	-62.2	3.8	1.49e+00	0	56	104	0	58	18821
2026-01-05 11:23:12.29	238.77	28.76	-48.4	-62.2	3.8	1.49e+00	0	56	104	0	58	18885
2026-01-05 11:23:13.29	239.06	28.84	-48.5	-62.2	3.8	1.49e+00	0	56	104	0	58	18861
2026-01-05 11:23:14.28	239.35	28.93	-48.5	-62.2	3.8	1.49e+00	0	56	104	0	58	18807
2026-01-05 11:23:15.26	239.64	29.01	-48.5	-62.2	3.8	1.49e+00	0	56	104	0	58	18877
2026-01-05 11:23:16.25	239.93	29.10	-48.5	-62.2	3.8	1.49e+00	0	56	104	0	58	18852
2026-01-05 11:23:17.23	240.23	29.18	-48.4	-62.2	3.8	1.49e+00	0	56	104	0	58	18844
2026-01-05 11:23:18.22	240.52	29.26	-48.5	-62.2	3.8	1.49e+00	0	56	104	0	58	18874
2026-01-05 11:23:19.21	240.82	29.34	-48.5	-62.2	3.8	1.49e+00	0	56	104	0	58	18908
2026-01-05 11:23:20.20	241.12	29.42	-48.5	-62.2	3.8	1.49e+00	0	56	104	0	58	18829
2026-01-05 11:23:21.19	241.42	29.51	-48.5	-62.2	3.8	1.49e+00	0	56	104	0	58	18829
2026-01-05 11:23:22.19	241.72	29.59	-48.4	-62.2	3.8	1.49e+00	0	56	104	0	58	18837
2026-01-05 11:23:23.18	242.03	29.67	-48.4	-62.2	3.8	1.49e+00	0	56	104	0	58	18838
2026-01-05 11:23:24.16	242.33	29.74	-48.4	-62.2	3.8	1.49e+00	0	56	104	0	58	18853
2026-01-05 11:23:25.15	242.64	29.82	-48.4	-62.2	3.8	1.49e+00	0	57	104	0	58	18844
2026-01-05 11:23:26.13	242.94	29.90	-48.4	-62.2	3.8	1.49e+00	0	56	104	0	58	18822
2026-01-05 11:23:27.12	243.25	29.98	-48.4	-62.2	3.8	1.49e+00	0	56	104	0	58	18838
2026-01-05 11:23:28.10	243.56	30.05	-48.5	-62.2	3.8	1.49e+00	0	56	104	0	58	18802
2026-01-05 11:23:29.07	243.86	30.13	-48.4	-62.2	3.8	1.49e+00	0	56	104	0	58	18866
2026-01-05 11:23:30.06	244.18	30.20	-48.5	-62.2	3.8	1.49e+00	0	56	104	0	58	18808
2026-01-05 11:23:31.04	244.49	30.27	-48.5	-62.2	3.8	1.49e+00	0	56	104	0	58	18844
2026-01-05 11:23:32.03	244.81	30.35	-48.5	-62.2	3.8	1.49e+00	0	56	104	0	58	18834
2026-01-05 11:23:33.01	245.12	30.42	-48.5	-62.2	3.8	1.49e+00	0	56	104	0	58	18874
2026-01-05 11:23:34.00	245.44	30.49	-48.4	-62.2	3.8	1.49e+00	0	56	104	0	58	18819
2026-01-05 11:23:34.97	245.75	30.56	-48.4	-62.2	3.8	1.49e+00	0	56	104	0	58	18886
2026-01-05 11:23:35.96	246.08	30.63	-48.4	-62.2	3.8	1.49e+00	0	57	104	0	58	18895
2026-01-05 11:23:36.95	246.40	30.70	-48.5	-62.2	3.8	1.49e+00	0	56	104	0	58	18822
2026-01-05 11:23:37.93	246.72	30.77	-48.5	-62.2	3.8	1.49e+00	0	56	104	0	58	18840
2026-01-05 11:23:38.92	247.05	30.84	-48.4	-62.2	3.8	1.49e+00	0	56	104	0	58	18842
2026-01-05 11:23:39.91	247.38	30.90	-48.5	-62.2	3.8	1.49e+00	0	56	104	0	58	18842
2026-01-05 11:23:40.90	247.70	30.97	-48.5	-62.2	3.8	1.49e+00	0	56	104	0	58	18836
2026-01-05 11:23:41.89	248.03	31.04	-48.5	-62.2	3.8	1.49e+00	0	57	104	0	58	18875
2026-01-05 11:23:42.88	248.37	31.10	-48.5	-62.2	3.8	1.49e+00	0	56	104	0	58	18906
2026-01-05 11:23:43.87	248.70	31.16	-48.5	-62.2	3.8	1.49e+00	0	56	104	0	58	18882
2026-01-05 11:23:44.87	249.04	31.23	-48.5	-62.2	3.8	1.49e+00	0	57	104	0	58	18833
2026-01-05 11:23:45.86	249.37	31.29	-48.4	-62.2	3.8	1.49e+00	0	57	104	0	58	18847
2026-01-05 11:23:46.85	249.71	31.35	-48.5	-62.2	3.8	1.49e+00	0	57	104	0	58	18850
2026-01-05 11:23:47.84	250.04	31.41	-48.5	-62.2	3.8	1.49e+00	0	57	104	0	58	18835
2026-01-05 11:23:48.83	250.38	31.47	-48.5	-62.2	3.8	1.49e+00	0	57	104	0	58	18867
2026-01-05 11:23:49.82	250.72	31.53	-48.5	-62.2	3.8	1.49e+00	0	56	104	0	58	18890
2026-01-05 11:23:50.80	251.06	31.58	-48.5	-62.2	3.8	1.49e+00	0	57	104	0	58	18850
2026-01-05 11:23:51.79	251.40	31.64	-48.5	-62.2	3.8	1.49e+00	0	56	104	0	58	18844
2026-01-05 11:23:52.78	251.75	31.69	-48.4	-62.2	3.8	1.49e+00	0	57	104	0	58	18902
2026-01-05 11:23:53.77	252.09	31.75	-48.5	-62.2	3.8	1.49e+00	0	56	104	0	58	18855
2026-01-05 11:23:54.75	252.43	31.80	-48.5	-62.2	3.8	1.49e+00	0	57	104	0	58	18819
2026-01-05 11:23:55.74	252.78	31.85	-48.5	-62.2	3.8	1.49e+00	0	56	104	0	58	18867
2026-01-05 11:23:56.73	253.13	31.90	-48.5	-62.2	3.8	1.49e+00	0	57	104	0	58	18873
2026-01-05 11:23:57.72	253.48	31.95	-48.5	-62.2	3.8	1.49e+00	0	57	104	0	58	18861
2026-01-05 11:23:58.71	253.83	32.00	-48.5	-62.2	3.8	1.49e+00	0	56	104	0	58	18887
2026-01-05 11:23:59.69	254.18	32.05	-48.5	-62.2	3.8	1.49e+00	0	56	104	0	58	18892
2026-01-05 11:24:00.68	254.53	32.09	-48.5	-62.2	3.8	1.49e+00	0	57	104	0	58	18899
2026-01-05 11:24:01.67	254.88	32.14	-48.5	-62.2	3.8	1.49e+00	0	56	104	0	58	18909
2026-01-05 11:24:02.66	255.23	32.18	-48.5	-62.2	3.8	1.49e+00	0	57	104	0	58	18890
2026-01-05 11:24:03.65	255.59	32.23	-48.5	-62.2	3.8	1.49e+00	0	56	104	0	58	18885
2026-01-05 11:24:04.64	255.95	32.27	-48.5	-62.2	3.8	1.49e+00	0	56	104	0	58	18872
2026-01-05 11:24:05.63	256.30	32.31	-48.4	-62.2	3.8	1.49e+00	0	57	104	0	58	18856
2026-01-05 11:24:06.61	256.66	32.35	-48.5	-62.2	3.8	1.49e+00	0	57	104	0	58	18849
2026-01-05 11:24:07.61	257.02	32.39	-48.5	-62.2	3.8	1.49e+00	0	57	104	0	58	18872
2026-01-05 11:24:08.59	257.37	32.43	-48.5	-62.2	3.8	1.49e+00	0	57	104	0	58	18902
2026-01-05 11:24:09.58	257.73	32.46	-48.5	-62.2	3.8	1.49e+00	0	57	104	0	58	18846
2026-01-05 11:24:10.56	258.09	32.50	-48.5	-62.2	3.8	1.49e+00	0	57	104	0	58	18922
2026-01-05 11:24:11.55	258.45	32.53	-48.4	-62.2	3.8	1.49e+00	0	57	104	0	58	18925
2026-01-05 11:24:12.55	258.82	32.56	-48.4	-62.2	3.8	1.49e+00	0	57	104	0	58	18860
2026-01-05 11:24:13.54	259.18	32.59	-48.5	-62.2	3.8	1.49e+00	0	57	104	0	58	18847
2026-01-05 11:24:14.52	259.54	32.62	-48.5	-62.2	3.8	1.49e+00	0	57	104	0	58	18837
2026-01-05 11:24:15.51	259.91	32.65	-48.5	-62.2	3.8	1.49e+00	0	57	104	0	58	18848
2026-01-05 11:24:16.50	260.27	32.68	-48.4	-62.2	3.8	1.49e+00	0	56	104	0	58	18867
2026-01-05 11:24:17.48	260.63	32.71	-48.5	-62.2	3.8	1.49e+00	0	57	104	0	58	18860
2026-01-05 11:24:18.47	261.00	32.73	-48.5	-62.2	3.8	1.49e+00	0	57	104	0	58	18851
2026-01-05 11:24:19.46	261.36	32.76	-48.5	-62.2	3.8	1.49e+00	0	57	104	0	58	18827
2026-01-05 11:24:20.45	261.73	32.78	-48.5	-62.2	3.8	1.49e+00	0	56	104	0	58	18865
2026-01-05 11:24:21.44	262.10	32.80	-48.5	-62.2	3.8	1.49e+00	0	57	104	0	58	18878
2026-01-05 11:24:22.44	262.47	32.82	-48.5	-62.2	3.8	1.49e+00	0	57	104	0	58	18867
2026-01-05 11:24:23.43	262.84	32.84	-48.5	-62.2	3.8	1.49e+00	0	57	104	0	58	18886
2026-01-05 11:24:24.41	263.20	32.86	-48.4	-62.2	3.8	1.49e+00	0	57	104	0	58	18813
2026-01-05 11:24:25.40	263.57	32.87	-48.4	-62.2	3.8	1.49e+00	0	57	104	0	58	18901
2026-01-05 11:24:26.39	263.94	32.89	-48.4	-62.2	3.8	1.49e+00	0	57	104	0	58	18863
2026-01-05 11:24:27.37	264.31	32.90	-48.4	-62.2	3.8	1.49e+00	0	56	104	0	58	18847
2026-01-05 11:24:28.35	264.68	32.92	-48.5	-62.2	3.8	1.49e+00	0	57	104	0	58	18873
2026-01-05 11:24:29.33	265.04	32.93	-48.5	-62.2	3.8	1.49e+00	0	57	104	0	58	18897
2026-01-05 11:24:30.32	265.41	32.94	-48.5	-62.2	3.8	1.49e+00	0	57	104	0	58	18877
2026-01-05 11:24:31.30	265.78	32.95	-48.4	-62.2	3.8	1.49e+00	0	57	104	0	58	18819
2026-01-05 11:24:32.30	266.15	32.95	-48.5	-62.2	3.8	1.49e+00	0	57	104	0	58	18855
2026-01-05 11:24:33.28	266.52	32.96	-48.5	-62.2	3.8	1.49e+00	0	57	104	0	58	18861
2026-01-05 11:24:34.27	266.89	32.96	-48.5	-62.2	3.8	1.49e+00	0	57	104	0	58	18835
2026-01-05 11:24:35.26	267.26	32.97	-48.5	-62.2	3.8	1.49e+00	0	57	104	0	58	18918
2026-01-05 11:24:36.25	267.64	32.97	-48.5	-62.2	3.8	1.49e+00	0	57	104	0	58	18875
2026-01-05 11:24:37.23	268.00	32.97	-48.5	-62.2	3.8	1.49e+00	0	57	104	0	58	18912
2026-01-05 11:24:38.22	268.37	32.97	-48.4	-62.2	3.8	1.49e+00	0	57	104	0	58	18853
2026-01-05 11:24:39.21	268.75	32.97	-48.5	-62.2	3.8	1.49e+00	0	57	104	0	58	18857
2026-01-05 11:24:40.20	269.12	32.96	-48.5	-62.2	3.8	1.49e+00	0	57	104	0	58	18876
2026-01-05 11:24:41.20	269.49	32.96	-48.4	-62.2	3.8	1.49e+00	0	57	104	0	58	18884
2026-01-05 11:24:42.19	269.86	32.95	-48.5	-62.2	3.8	1.49e+00	0	57	104	0	58	18868
2026-01-05 11:24:43.18	270.23	32.95	-48.5	-62.2	3.8	1.49e+00	0	57	104	0	58	18829
2026-01-05 11:24:44.16	270.60	32.94	-48.4	-62.2	3.8	1.49e+00	0	57	104	0	58	18879
2026-01-05 11:24:45.15	270.97	32.93	-48.1	-62.2	3.8	1.49e+00	0	57	104	0	58	18842
2026-01-05 11:24:46.14	271.34	32.92	-48.4	-62.2	3.8	1.49e+00	0	57	104	0	58	18861
2026-01-05 11:24:47.12	271.71	32.91	-48.5	-62.2	3.8	1.49e+00	0	57	104	0	58	18872
2026-01-05 11:24:48.11	272.08	32.89	-48.4	-62.2	3.8	1.49e+00	0	57	104	0	58	18911
2026-01-05 11:24:49.11	272.45	32.88	-48.4	-62.2	3.8	1.49e+00	0	57	104	0	58	18851
2026-01-05 11:24:50.10	272.82	32.86	-48.5	-62.2	3.8	1.49e+00	0	57	104	0	58	18917
2026-01-05 11:24:51.09	273.19	32.84	-48.5	-62.2	3.8	1.49e+00	0	57	104	0	58	18898
2026-01-05 11:24:52.07	273.55	32.83	-48.4	-62.2	3.8	1.49e+00	0	57	104	0	58	18849
2026-01-05 11:24:53.07	273.93	32.81	-48.5	-62.2	3.8	1.49e+00	0	57	104	0	58	18811
2026-01-05 11:24:54.06	274.29	32.78	-48.5	-62.2	3.8	1.49e+00	0	57	104	0	58	18923
2026-01-05 11:24:55.05	274.66	32.76	-48.5	-62.2	3.8	1.49e+00	0	57	104	0	58	18863
2026-01-05 11:24:56.04	275.03	32.74	-48.5	-62.2	3.8	1.49e+00	0	57	104	0	58	18840
2026-01-05 11:24:57.02	275.39	32.71	-48.4	-62.2	3.8	1.49e+00	0	57	104	0	58	18872
2026-01-05 11:24:58.01	275.75	32.69	-48.4	-62.2	3.8	1.49e+00	0	57	104	0	58	18890
2026-01-05 11:24:59.01	276.12	32.66	-48.4	-62.2	3.8	1.49e+00	0	57	104	0	58	18878
2026-01-05 11:25:00.00	276.49	32.63	-48.5	-62.2	3.8	1.49e+00	0	57	104	0	58	18926
2026-01-05 11:25:00.99	276.85	32.60	-48.5	-62.2	3.8	1.49e+00	0	57	104	0	58	18921
2026-01-05 11:25:01.98	277.21	32.57	-48.5	-62.2	3.8	1.49e+00	0	57	104	0	58	18926
2026-01-05 11:25:02.97	277.57	32.54	-48.5	-62.2	3.8	1.49e+00	0	57	104	0	58	18847
2026-01-05 11:25:03.97	277.94	32.50	-48.5	-62.2	3.8	1.49e+00	0	57	104	0	58	18874
2026-01-05 11:25:04.96	278.30	32.47	-48.5	-62.2	3.8	1.49e+00	0	57	104	0	58	18911
2026-01-05 11:25:05.95	278.66	32.43	-48.5	-62.2	3.8	1.49e+00	0	57	104	0	58	18894
2026-01-05 11:25:06.94	279.02	32.40	-48.5	-62.2	3.8	1.49e+00	0	57	104	0	58	18890
2026-01-05 11:25:07.93	279.38	32.36	-48.5	-62.2	3.8	1.49e+00	0	57	104	0	58	18913
2026-01-05 11:25:08.91	279.73	32.32	-48.5	-62.2	3.8	1.49e+00	0	57	104	0	58	18902
2026-01-05 11:25:09.90	280.09	32.28	-48.5	-62.2	3.8	1.49e+00	0	57	104	0	58	18879
2026-01-05 11:25:10.89	280.44	32.24	-48.5	-62.2	3.8	1.49e+00	0	57	104	0	58	18865
2026-01-05 11:25:11.88	280.80	32.19	-48.4	-62.2	3.8	1.49e+00	0	57	104	0	58	18891
2026-01-05 11:25:12.87	281.15	32.15	-48.5	-62.2	3.8	1.49e+00	0	57	104	0	58	18901
2026-01-05 11:25:13.85	281.50	32.10	-48.5	-62.2	3.8	1.49e+00	0	57	104	0	58	18864
2026-01-05 11:25:14.84	281.85	32.06	-48.5	-62.2	3.8	1.49e+00	0	57	104	0	58	18863
2026-01-05 11:25:15.82	282.20	32.01	-48.4	-62.2	3.8	1.49e+00	0	57	104	0	58	18876
2026-01-05 11:25:16.82	282.55	31.96	-48.4	-62.2	3.8	1.49e+00	0	57	104	0	58	18902
2026-01-05 11:25:17.80	282.89	31.91	-48.5	-62.2	3.8	1.49e+00	0	57	104	0	58	18839
2026-01-05 11:25:18.78	283.24	31.86	-48.5	-62.2	3.8	1.49e+00	0	57	104	0	58	18902
2026-01-05 11:25:19.77	283.59	31.81	-48.5	-62.2	3.8	1.49e+00	0	57	104	0	58	18888
2026-01-05 11:25:20.76	283.93	31.76	-48.5	-62.2	3.8	1.49e+00	0	57	104	0	58	18912
2026-01-05 11:25:21.75	284.27	31.71	-48.5	-62.2	3.8	1.49e+00	0	57	104	0	58	18923
2026-01-05 11:25:22.74	284.62	31.65	-48.5	-62.2	3.8	1.49e+00	0	57	104	0	58	18849
2026-01-05 11:25:23.73	284.96	31.60	-48.5	-62.2	3.8	1.49e+00	0	57	104	0	58	18887
2026-01-05 11:25:24.72	285.30	31.54	-48.5	-62.2	3.8	1.49e+00	0	57	104	0	58	18923
2026-01-05 11:25:25.71	285.64	31.48	-48.5	-62.2	3.8	1.49e+00	0	57	104	0	58	18920
2026-01-05 11:25:26.70	285.98	31.42	-48.5	-62.2	3.8	1.49e+00	0	57	104	0	58	18873
2026-01-05 11:25:27.68	286.31	31.36	-48.4	-62.2	3.8	1.49e+00	0	57	104	0	58	18862
2026-01-05 11:25:28.66	286.64	31.30	-48.5	-62.2	3.8	1.49e+00	0	57	104	0	58	18863
2026-01-05 11:25:29.64	286.98	31.24	-48.5	-62.2	3.8	1.49e+00	0	57	104	0	58	18916
2026-01-05 11:25:30.63	287.31	31.18	-48.5	-62.2	3.8	1.49e+00	0	57	104	0	58	18919
2026-01-05 11:25:31.61	287.64	31.12	-48.5	-62.2	3.8	1.49e+00	0	57	104	0	58	18863
2026-01-05 11:25:32.60	287.97	31.05	-48.5	-62.2	3.8	1.49e+00	0	57	104	0	58	18870
2026-01-05 11:25:33.60	288.30	30.99	-48.5	-62.2	3.8	1.49e+00	0	57	104	0	58	18885
2026-01-05 11:25:34.59	288.63	30.92	-48.5	-62.2	3.8	1.49e+00	0	57	104	0	58	18849
2026-01-05 11:25:35.58	288.96	30.86	-48.5	-62.2	3.8	1.49e+00	0	57	104	0	58	18834
2026-01-05 11:25:36.58	289.29	30.79	-48.5	-62.2	3.8	1.49e+00	0	57	104	0	58	18886
2026-01-05 11:25:37.57	289.61	30.72	-48.5	-62.2	3.8	1.49e+00	0	57	104	0	58	18900
2026-01-05 11:25:38.56	289.93	30.65	-48.5	-62.2	3.8	1.49e+00	0	57	104	0	58	18933
2026-01-05 11:25:39.55	290.26	30.58	-48.5	-62.2	3.8	1.49e+00	0	57	104	0	58	18931
2026-01-05 11:25:40.53	290.57	30.51	-48.5	-62.2	3.8	1.49e+00	0	57	104	0	58	18855
2026-01-05 11:25:41.52	290.89	30.44	-48.5	-62.2	3.8	1.49e+00	0	57	104	0	58	18850
2026-01-05 11:25:42.50	291.20	30.37	-48.5	-62.2	3.8	1.49e+00	0	57	104	0	58	18881
2026-01-05 11:25:43.50	291.52	30.29	-48.5	-62.2	3.8	1.49e+00	0	57	104	0	58	18909
2026-01-05 11:25:44.48	291.84	30.22	-48.4	-62.2	3.8	1.49e+00	0	57	104	0	58	18892
2026-01-05 11:25:45.47	292.15	30.15	-48.5	-62.2	3.8	1.49e+00	0	57	104	0	58	18891
2026-01-05 11:25:46.45	292.46	30.07	-48.5	-62.2	3.8	1.49e+00	0	57	104	0	58	18884
2026-01-05 11:25:47.44	292.77	30.00	-48.5	-62.2	3.8	1.49e+00	0	57	104	0	58	18924
2026-01-05 11:25:48.44	293.08	29.92	-48.5	-62.2	3.8	1.49e+00	0	57	104	0	58	18863
2026-01-05 11:25:49.42	293.38	29.84	-48.5	-62.2	3.8	1.49e+00	0	57	104	0	58	18860
2026-01-05 11:25:50.41	293.69	29.76	-48.5	-62.2	3.8	1.49e+00	0	57	104	0	58	18907
2026-01-05 11:25:51.40	293.99	29.69	-48.5	-62.2	3.8	1.49e+00	0	57	104	0	58	18884
2026-01-05 11:25:52.39	294.30	29.61	-48.5	-62.2	3.8	1.49e+00	0	57	104	0	58	18901
2026-01-05 11:25:53.38	294.60	29.53	-48.5	-62.2	3.8	1.49e+00	0	57	104	0	58	18937
2026-01-05 11:25:54.36	294.90	29.45	-48.5	-62.2	3.8	1.49e+00	0	57	104	0	58	18882
2026-01-05 11:25:55.35	295.19	29.37	-48.5	-62.2	3.8	1.49e+00	0	57	104	0	58	18916
2026-01-05 11:25:56.35	295.49	29.28	-48.5	-62.2	3.8	1.49e+00	0	57	104	0	58	18894
2026-01-05 11:25:57.34	295.79	29.20	-47.8	-62.2	3.8	1.49e+00	0	57	104	0	58	18849
2026-01-05 11:25:58.33	296.08	29.12	-48.5	-62.2	3.8	1.49e+00	0	57	104	0	58	18891
2026-01-05 11:25:59.32	296.38	29.04	-48.5	-62.2	3.8	1.49e+00	0	57	104	0	58	18908
2026-01-05 11:26:00.30	296.67	28.95	-48.5	-62.2	3.8	1.49e+00	0	57	104	0	58	18921
2026-01-05 11:26:01.29	296.95	28.87	-48.5	-62.3	3.8	1.49e+00	0	57	104	0	58	19003
2026-01-05 11:26:02.28	297.24	28.78	-48.5	-62.2	3.8	1.49e+00	0	57	104	0	58	18874
2026-01-05 11:26:03.27	297.53	28.70	-48.4	-62.2	3.8	1.49e+00	0	57	104	0	58	18928
2026-01-05 11:26:04.26	297.81	28.61	-48.5	-62.2	3.8	1.49e+00	0	57	104	0	58	18915
2026-01-05 11:26:05.25	298.10	28.53	-48.5	-62.2	3.8	1.49e+00	0	57	104	0	58	18887
2026-01-05 11:26:06.24	298.38	28.44	-48.5	-62.2	3.8	1.49e+00	0	57	104	0	58	18914
2026-01-05 11:26:07.22	298.66	28.35	-48.5	-62.2	3.8	1.49e+00	0	57	104	0	58	18860
2026-01-05 11:26:08.22	298.94	28.26	-48.5	-62.2	3.8	1.49e+00	0	57	104	0	58	18868
2026-01-05 11:26:09.21	299.22	28.18	-48.5	-62.2	3.8	1.49e+00	0	57	104	0	58	18897
2026-01-05 11:26:10.21	299.50	28.09	-48.5	-62.2	3.8	1.49e+00	0	57	104	0	58	18934
2026-01-05 11:26:11.19	299.77	28.00	-48.5	-62.2	3.8	1.49e+00	0	57	104	0	58	18904
2026-01-05 11:26:12.18	300.04	27.91	-48.5	-62.2	3.8	1.49e+00	0	57	104	0	58	18875
2026-01-05 11:26:13.17	300.31	27.82	-48.5	-62.2	3.8	1.49e+00	0	57	104	0	58	18857
2026-01-05 11:26:14.17	300.59	27.73	-48.5	-62.2	3.8	1.49e+00	0	57	104	0	58	18887
2026-01-05 11:26:15.16	300.85	27.64	-48.5	-62.2	3.8	1.49e+00	0	57	104	0	58	18922
2026-01-05 11:26:16.15	301.12	27.55	-48.5	-62.2	3.8	1.49e+00	0	57	104	0	58	18894
2026-01-05 11:26:17.13	301.38	27.46	-48.5	-62.2	3.8	1.49e+00	0	57	104	0	58	18857
2026-01-05 11:26:18.12	301.65	27.36	-48.5	-62.2	3.8	1.49e+00	0	57	104	0	58	18907
2026-01-05 11:26:19.10	301.91	27.27	-48.5	-62.2	3.8	1.49e+00	0	57	104	0	58	18905
2026-01-05 11:26:20.08	302.17	27.18	-48.5	-62.3	3.8	1.49e+00	0	57	104	0	58	18952
2026-01-05 11:26:21.07	302.43	27.09	-48.5	-62.2	3.8	1.49e+00	0	57	104	0	58	18919
2026-01-05 11:26:22.07	302.69	26.99	-48.5	-62.2	3.8	1.49e+00	0	57	104	0	58	18906
2026-01-05 11:26:23.06	302.94	26.90	-48.4	-62.2	3.8	1.49e+00	0	57	104	0	58	18892
2026-01-05 11:26:24.05	303.20	26.81	-48.5	-62.2	3.8	1.49e+00	0	57	104	0	58	18941
2026-01-05 11:26:25.04	303.45	26.71	-48.5	-62.2	3.8	1.49e+00	0	57	104	0	58	18920
2026-01-05 11:26:26.02	303.70	26.62	-48.5	-62.2	3.8	1.49e+00	0	57	104	0	58	18915
2026-01-05 11:26:27.01	303.95	26.53	-48.5	-62.2	3.8	1.49e+00	0	57	104	0	58	18937
2026-01-05 11:26:27.98	304.20	26.44	-48.5	-62.2	3.8	1.49e+00	0	57	104	0	58	18899
2026-01-05 11:26:28.96	304.44	26.34	-48.5	-62.2	3.8	1.49e+00	0	57	104	0	58	18898
2026-01-05 11:26:29.95	304.69	26.25	-48.5	-62.2	3.8	1.49e+00	0	57	104	0	58	18890
2026-01-05 11:26:30.94	304.94	26.15	-48.5	-62.2	3.8	1.49e+00	0	57	104	0	58	18884
2026-01-05 11:26:31.93	305.18	26.06	-48.5	-62.2	3.8	1.49e+00	0	57	104	0	58	18892
2026-01-05 11:26:32.91	305.42	25.96	-48.5	-62.2	3.8	1.49e+00	0	57	104	0	58	18888
2026-01-05 11:26:33.90	305.66	25.87	-48.5	-62.3	3.8	1.49e+00	0	57	104	0	58	18963
2026-01-05 11:26:34.90	305.90	25.77	-48.5	-62.2	3.8	1.49e+00	0	57	104	0	58	18908
2026-01-05 11:26:35.88	306.14	25.67	-48.5	-62.2	3.8	1.49e+00	0	57	104	0	58	18841
2026-01-05 11:26:36.87	306.37	25.58	-48.5	-62.2	3.8	1.49e+00	0	57	104	0	58	18854
2026-01-05 11:26:37.86	306.61	25.48	-48.5	-62.2	3.8	1.49e+00	0	57	104	0	58	18905
2026-01-05 11:26:38.85	306.84	25.39	-48.5	-62.2	3.8	1.49e+00	0	57	104	0	58	18922
2026-01-05 11:26:39.84	307.08	25.29	-48.5	-62.3	3.8	1.49e+00	0	57	104	0	58	18957
2026-01-05 11:26:40.83	307.31	25.19	-48.5	-62.2	3.8	1.49e+00	0	57	104	0	58	18868
2026-01-05 11:26:41.83	307.54	25.09	-48.5	-62.2	3.8	1.49e+00	0	57	104	0	58	18900
2026-01-05 11:26:42.82	307.77	25.00	-48.5	-62.2	3.8	1.49e+00	0	57	104	0	58	18890
2026-01-05 11:26:43.81	307.99	24.90	-48.5	-62.2	3.8	1.49e+00	0	57	104	0	58	18885
2026-01-05 11:26:44.80	308.22	24.80	-48.5	-62.2	3.8	1.49e+00	0	57	104	0	58	18920
2026-01-05 11:26:45.79	308.44	24.71	-48.5	-62.2	3.8	1.49e+00	0	57	104	0	58	18919
2026-01-05 11:26:46.78	308.67	24.61	-48.5	-62.2	3.8	1.49e+00	0	57	104	0	58	18881
2026-01-05 11:26:47.77	308.89	24.51	-48.5	-62.2	3.8	1.49e+00	0	57	104	0	58	18904
2026-01-05 11:26:48.76	309.11	24.41	-48.5	-62.2	3.8	1.49e+00	0	57	104	0	58	18867
2026-01-05 11:26:49.75	309.33	24.32	-48.5	-62.2	3.8	1.49e+00	0	57	104	0	58	18902
2026-01-05 11:26:50.73	309.54	24.22	-48.5	-62.2	3.8	1.49e+00	0	57	104	0	58	18940
2026-01-05 11:26:51.71	309.76	24.12	-48.5	-62.2	3.8	1.49e+00	0	57	104	0	58	18934
2026-01-05 11:26:52.71	309.97	24.02	-48.5	-62.2	3.8	1.49e+00	0	57	104	0	58	18924
2026-01-05 11:26:53.69	310.19	23.93	-48.5	-62.3	3.8	1.49e+00	0	57	104	0	58	18974
2026-01-05 11:26:54.68	310.40	23.83	-48.5	-62.2	3.8	1.49e+00	0	57	104	0	58	18936
2026-01-05 11:26:55.67	310.61	23.73	-48.5	-62.2	3.8	1.49e+00	0	57	104	0	58	18878
2026-01-05 11:26:56.66	310.82	23.63	-48.5	-62.2	3.8	1.49e+00	0	57	104	0	58	18892
2026-01-05 11:26:57.65	311.03	23.54	-48.5	-62.2	3.8	1.49e+00	0	57	104	0	58	18866
2026-01-05 11:26:58.63	311.23	23.44	-48.5	-62.2	3.8	1.49e+00	0	57	104	0	58	18924
2026-01-05 11:26:59.62	311.44	23.34	-48.5	-62.2	3.8	1.49e+00	0	57	104	0	58	18940
2026-01-05 11:27:00.61	311.64	23.24	-48.5	-62.2	3.8	1.49e+00	0	57	104	0	58	18903
2026-01-05 11:27:01.60	311.85	23.15	-48.5	-62.3	3.8	1.49e+00	0	57	104	0	58	18992
2026-01-05 11:27:02.59	312.05	23.05	-48.5	-62.2	3.8	1.49e+00	0	57	104	0	58	18922
2026-01-05 11:27:03.58	312.25	22.95	-48.5	-62.3	3.8	1.49e+00	0	57	104	0	58	18962
2026-01-05 11:27:04.57	312.45	22.85	-48.5	-62.2	3.8	1.49e+00	0	57	104	0	58	18943
2026-01-05 11:27:05.56	312.65	22.76	-48.5	-62.3	3.8	1.49e+00	0	57	104	0	58	18959
2026-01-05 11:27:06.54	312.84	22.66	-48.1	-62.2	3.8	1.49e+00	0	57	104	0	58	18892
2026-01-05 11:27:07.53	313.04	22.56	-48.5	-62.2	3.8	1.49e+00	0	57	104	0	58	18918
2026-01-05 11:27:08.51	313.23	22.46	-48.4	-62.2	3.8	1.49e+00	0	57	104	0	58	18898
2026-01-05 11:27:09.50	313.42	22.37	-48.5	-62.2	3.8	1.49e+00	0	57	104	0	58	18903
2026-01-05 11:27:10.49	313.62	22.27	-48.5	-62.3	3.8	1.49e+00	0	57	104	0	58	18973
2026-01-05 11:27:11.48	313.81	22.17	-48.5	-62.2	3.8	1.49e+00	0	57	104	0	58	18889
2026-01-05 11:27:12.47	314.00	22.07	-48.5	-62.2	3.8	1.49e+00	0	57	104	0	58	18893
2026-01-05 11:27:13.46	314.19	21.98	-48.5	-62.2	3.8	1.49e+00	0	57	104	0	58	18894
2026-01-05 11:27:14.45	314.38	21.88	-48.5	-62.2	3.8	1.49e+00	0	57	104	0	58	18865
2026-01-05 11:27:15.44	314.56	21.78	-48.5	-62.2	3.8	1.49e+00	0	57	104	0	58	18934
2026-01-05 11:27:16.43	314.75	21.69	-48.5	-62.2	3.8	1.49e+00	0	57	104	0	58	18910
2026-01-05 11:27:17.42	314.93	21.59	-48.5	-62.2	3.8	1.49e+00	0	57	104	0	58	18903
2026-01-05 11:27:18.41	315.12	21.49	-48.5	-62.2	3.8	1.49e+00	0	57	104	0	58	18899
2026-01-05 11:27:19.40	315.30	21.39	-48.5	-62.2	3.8	1.49e+00	0	57	104	0	58	18918
2026-01-05 11:27:20.39	315.48	21.30	-48.5	-62.3	3.8	1.49e+00	0	57	104	0	58	18950
2026-01-05 11:27:21.38	315.66	21.20	-48.5	-62.2	3.8	1.49e+00	0	57	104	0	58	18904
2026-01-05 11:27:22.37	315.84	21.10	-48.5	-62.3	3.8	1.49e+00	0	57	104	0	58	18950
2026-01-05 11:27:23.37	316.02	21.01	-48.5	-62.2	3.8	1.49e+00	0	57	104	0	58	18897
2026-01-05 11:27:24.35	316.19	20.91	-48.5	-62.2	3.8	1.49e+00	0	57	104	0	58	18900
2026-01-05 11:27:25.34	316.37	20.82	-48.5	-62.3	3.8	1.49e+00	0	57	104	0	58	18982
2026-01-05 11:27:26.33	316.54	20.72	-48.5	-62.2	3.8	1.49e+00	0	57	104	0	58	18897
2026-01-05 11:27:27.31	316.72	20.62	-48.5	-62.2	3.8	1.49e+00	0	57	104	0	58	18938
2026-01-05 11:27:28.29	316.89	20.53	-48.5	-62.2	3.8	1.49e+00	0	57	104	0	58	18934
2026-01-05 11:27:29.28	317.06	20.43	-48.5	-62.3	3.8	1.49e+00	0	57	104	0	58	18978
2026-01-05 11:27:30.27	317.23	20.34	-48.5	-62.2	3.8	1.49e+00	0	57	104	0	58	18900
2026-01-05 11:27:31.26	317.40	20.24	-48.5	-62.2	3.8	1.49e+00	0	57	104	0	58	18926
2026-01-05 11:27:32.25	317.57	20.15	-48.5	-62.2	3.8	1.49e+00	0	57	104	0	58	18871
2026-01-05 11:27:33.24	317.73	20.05	-48.5	-62.3	3.8	1.49e+00	0	57	104	0	58	18957
2026-01-05 11:27:34.23	317.90	19.96	-48.5	-62.2	3.8	1.49e+00	0	57	104	0	58	18907
2026-01-05 11:27:35.21	318.06	19.86	-48.5	-62.2	3.8	1.49e+00	0	57	104	0	58	18933
2026-01-05 11:27:36.20	318.23	19.77	-48.5	-62.2	3.8	1.49e+00	0	57	104	0	58	18911
2026-01-05 11:27:37.19	318.39	19.67	-48.5	-62.2	3.8	1.49e+00	0	57	104	0	58	18904
2026-01-05 11:27:38.18	318.55	19.58	-48.5	-62.2	3.8	1.49e+00	0	57	104	0	58	18898
2026-01-05 11:27:39.18	318.72	19.48	-48.5	-62.2	3.8	1.49e+00	0	57	104	0	58	18942
2026-01-05 11:27:40.16	318.88	19.39	-48.5	-62.2	3.8	1.49e+00	0	57	104	0	58	18873
2026-01-05 11:27:41.15	319.04	19.29	-48.5	-62.2	3.8	1.49e+00	0	57	104	0	58	18919
2026-01-05 11:27:42.14	319.19	19.20	-48.5	-62.2	3.8	1.49e+00	0	57	104	0	58	18912
2026-01-05 11:27:43.12	319.35	19.11	-48.5	-62.2	3.8	1.49e+00	0	57	104	0	58	18889
2026-01-05 11:27:44.11	319.51	19.01	-48.5	-62.2	3.8	1.49e+00	0	57	104	0	58	18889
2026-01-05 11:27:45.09	319.66	18.92	-48.5	-62.2	3.8	1.49e+00	0	57	104	0	58	18871
2026-01-05 11:27:46.08	319.82	18.83	-48.5	-62.2	3.8	1.49e+00	0	57	104	0	58	18891
2026-01-05 11:27:47.07	319.97	18.73	-48.5	-62.2	3.8	1.49e+00	0	57	104	0	58	18937
2026-01-05 11:27:48.05	320.12	18.64	-48.5	-62.2	3.8	1.49e+00	0	57	104	0	58	18895
2026-01-05 11:27:49.04	320.27	18.55	-48.5	-62.2	3.8	1.49e+00	0	57	104	0	58	18912
2026-01-05 11:27:50.03	320.42	18.46	-48.5	-62.2	3.8	1.49e+00	0	57	104	0	58	18892
2026-01-05 11:27:51.02	320.57	18.36	-48.5	-62.2	3.8	1.49e+00	0	57	104	0	58	18874
2026-01-05 11:27:52.00	320.72	18.27	-48.5	-62.2	3.8	1.49e+00	0	57	104	0	58	18866
2026-01-05 11:27:52.99	320.87	18.18	-48.5	-62.2	3.8	1.49e+00	0	57	104	0	58	18931
2026-01-05 11:27:53.98	321.02	18.09	-48.5	-62.2	3.8	1.49e+00	0	57	104	0	58	18904
2026-01-05 11:27:54.96	321.16	18.00	-48.5	-62.2	3.8	1.49e+00	0	57	104	0	58	18890
2026-01-05 11:27:55.96	321.31	17.90	-48.5	-62.2	3.8	1.49e+00	0	58	104	0	58	18903
2026-01-05 11:27:56.94	321.46	17.81	-48.5	-62.3	3.8	1.49e+00	0	57	104	0	58	18953
2026-01-05 11:27:57.93	321.60	17.72	-48.4	-62.2	3.8	1.49e+00	0	57	104	0	58	18894
2026-01-05 11:27:58.92	321.74	17.63	-48.5	-62.2	3.8	1.49e+00	0	57	104	0	58	18917
2026-01-05 11:27:59.91	321.89	17.54	-48.5	-62.2	3.8	1.49e+00	0	57	104	0	58	18924
2026-01-05 11:28:00.89	322.03	17.45	-48.5	-62.2	3.8	1.49e+00	0	57	104	0	58	18914
2026-01-05 11:28:01.88	322.17	17.36	-48.5	-62.2	3.8	1.49e+00	0	57	104	0	58	18945
2026-01-05 11:28:02.87	322.31	17.27	-48.5	-62.2	3.8	1.49e+00	0	57	104	0	58	18895
2026-01-05 11:28:03.86	322.45	17.18	-48.5	-62.2	3.8	1.49e+00	0	57	104	0	58	18910
2026-01-05 11:28:04.85	322.59	17.09	-48.5	-62.2	3.8	1.49e+00	0	57	104	0	58	18934
2026-01-05 11:28:05.84	322.72	17.00	-48.5	-62.3	3.8	1.49e+00	0	57	104	0	58	18951
2026-01-05 11:28:06.83	322.86	16.91	-48.5	-62.2	3.8	1.49e+00	0	57	104	0	58	18928
2026-01-05 11:28:07.82	323.00	16.82	-48.5	-62.3	3.8	1.49e+00	0	57	104	0	58	18956
2026-01-05 11:28:08.81	323.13	16.73	-48.5	-62.2	3.8	1.49e+00	0	57	104	0	58	18911
2026-01-05 11:28:09.80	323.27	16.64	-48.5	-62.3	3.8	1.49e+00	0	57	104	0	58	18997
2026-01-05 11:28:10.79	323.40	16.55	-48.5	-62.2	3.8	1.49e+00	0	57	104	0	58	18919
2026-01-05 11:28:11.77	323.53	16.46	-48.5	-62.2	3.8	1.49e+00	0	57	104	0	58	18912
2026-01-05 11:28:12.76	323.67	16.37	-48.5	-62.2	3.8	1.49e+00	0	57	104	0	58	18912
2026-01-05 11:28:13.75	323.80	16.28	-48.5	-62.2	3.8	1.49e+00	0	57	104	0	58	18912
2026-01-05 11:28:14.73	323.93	16.19	-48.5	-62.2	3.8	1.49e+00	0	57	104	0	58	18911
2026-01-05 11:28:15.72	324.06	16.11	-48.5	-62.3	3.8	1.49e+00	0	57	104	0	58	18972
2026-01-05 11:28:16.72	324.19	16.02	-48.5	-62.2	3.8	1.49e+00	0	57	104	0	58	18928
2026-01-05 11:28:17.70	324.31	15.93	-48.5	-62.2	3.8	1.49e+00	0	57	104	0	58	18815
2026-01-05 11:28:18.69	324.44	15.84	-48.4	-62.2	3.8	1.49e+00	0	57	104	0	58	18897
2026-01-05 11:28:19.68	324.57	15.75	-48.5	-62.2	3.8	1.49e+00	0	57	104	0	58	18899
2026-01-05 11:28:20.67	324.70	15.67	-48.5	-62.2	3.8	1.49e+00	0	57	104	0	58	18922
2026-01-05 11:28:21.66	324.82	15.58	-48.5	-62.3	3.8	1.49e+00	0	57	104	0	58	18949
2026-01-05 11:28:22.65	324.95	15.49	-48.5	-62.3	3.8	1.49e+00	0	57	104	0	58	18952
2026-01-05 11:28:23.64	325.07	15.41	-48.5	-62.2	3.8	1.49e+00	0	57	104	0	58	18882
2026-01-05 11:28:24.63	325.20	15.32	-48.5	-62.2	3.8	1.49e+00	0	57	104	0	58	18909
2026-01-05 11:28:25.62	325.32	15.23	-48.5	-62.2	3.8	1.49e+00	0	57	104	0	58	18902
2026-01-05 11:28:26.61	325.44	15.15	-48.5	-62.2	3.8	1.49e+00	0	57	104	0	58	18946
2026-01-05 11:28:27.59	325.56	15.06	-48.5	-62.2	3.8	1.49e+00	0	57	104	0	58	18929
2026-01-05 11:28:28.58	325.68	14.98	-48.5	-62.2	3.8	1.49e+00	0	57	104	0	58	18934
2026-01-05 11:28:29.56	325.80	14.89	-48.5	-62.3	3.8	1.49e+00	0	57	104	0	58	18953
2026-01-05 11:28:30.55	325.92	14.81	-48.5	-62.2	3.8	1.49e+00	0	57	104	0	58	18930
2026-01-05 11:28:31.55	326.04	14.72	-48.5	-62.3	3.8	1.49e+00	0	57	104	0	58	18959
2026-01-05 11:28:32.53	326.16	14.64	-48.5	-62.3	3.8	1.49e+00	0	57	104	0	58	18954
2026-01-05 11:28:33.52	326.28	14.55	-48.5	-62.2	3.8	1.49e+00	0	57	104	0	58	18934
2026-01-05 11:28:34.51	326.39	14.47	-48.5	-62.3	3.8	1.49e+00	0	57	104	0	58	18953
2026-01-05 11:28:35.50	326.51	14.38	-48.5	-62.3	3.8	1.49e+00	0	57	104	0	58	19004
2026-01-05 11:28:36.49	326.63	14.30	-48.5	-62.2	3.8	1.49e+00	0	57	104	0	58	18913
2026-01-05 11:28:37.48	326.74	14.21	-48.5	-62.3	3.8	1.49e+00	0	57	104	0	58	18964
2026-01-05 11:28:38.47	326.86	14.13	-48.5	-62.2	3.8	1.49e+00	0	57	104	0	58	18920
2026-01-05 11:28:39.46	326.97	14.04	-48.5	-62.2	3.8	1.49e+00	0	57	104	0	58	18937
2026-01-05 11:28:40.45	327.08	13.96	-48.5	-62.2	3.8	1.49e+00	0	57	104	0	58	18916
2026-01-05 11:28:41.44	327.20	13.88	-48.5	-62.3	3.8	1.49e+00	0	57	104	0	58	18998
2026-01-05 11:28:42.43	327.31	13.79	-48.5	-62.2	3.8	1.49e+00	0	57	104	0	58	18932
2026-01-05 11:28:43.42	327.42	13.71	-48.5	-62.3	3.8	1.49e+00	0	57	104	0	58	18968
2026-01-05 11:28:44.40	327.53	13.63	-48.5	-62.2	3.8	1.49e+00	0	57	104	0	58	18947
2026-01-05 11:28:45.38	327.64	13.55	-48.5	-62.3	3.8	1.49e+00	0	57	104	0	58	18971
2026-01-05 11:28:46.37	327.75	13.47	-48.5	-62.2	3.8	1.49e+00	0	57	104	0	58	18898
2026-01-05 11:28:47.36	327.86	13.38	-48.5	-62.2	3.8	1.49e+00	0	57	104	0	58	18941
2026-01-05 11:28:48.36	327.97	13.30	-48.5	-62.2	3.8	1.49e+00	0	57	104	0	58	18923
2026-01-05 11:28:49.35	328.07	13.22	-48.5	-62.3	3.8	1.49e+00	0	57	104	0	58	18981
2026-01-05 11:28:50.33	328.18	13.14	-48.5	-62.2	3.8	1.49e+00	0	57	104	0	58	18931
2026-01-05 11:28:51.32	328.29	13.06	-48.5	-62.3	3.8	1.49e+00	0	57	104	0	58	18949
2026-01-05 11:28:52.31	328.39	12.97	-48.5	-62.3	3.8	1.49e+00	0	57	104	0	58	18966
2026-01-05 11:28:53.29	328.50	12.89	-48.5	-62.3	3.8	1.49e+00	0	57	104	0	58	18958
2026-01-05 11:28:54.28	328.60	12.81	-48.5	-62.3	3.8	1.49e+00	0	57	104	0	58	18977
2026-01-05 11:28:55.27	328.71	12.73	-48.5	-62.2	3.8	1.49e+00	0	57	104	0	58	18919
2026-01-05 11:28:56.26	328.81	12.65	-48.5	-62.2	3.8	1.49e+00	0	57	104	0	58	18910
2026-01-05 11:28:57.25	328.92	12.57	-48.5	-62.3	3.8	1.49e+00	0	57	104	0	58	18952
2026-01-05 11:28:58.23	329.02	12.49	-48.5	-62.2	3.8	1.49e+00	0	57	104	0	58	18918
2026-01-05 11:28:59.23	329.12	12.41	-48.5	-62.2	3.8	1.49e+00	0	57	104	0	58	18918
2026-01-05 11:29:00.21	329.22	12.33	-48.5	-62.2	3.8	1.49e+00	0	57	104	0	58	18940
2026-01-05 11:29:01.20	329.32	12.25	-48.5	-62.3	3.8	1.49e+00	0	57	104	0	58	18954
2026-01-05 11:29:02.19	329.43	12.17	-48.5	-62.2	3.8	1.49e+00	0	57	104	0	58	18911
2026-01-05 11:29:03.17	329.52	12.09	-48.5	-62.2	3.8	1.49e+00	0	57	104	0	58	18913
2026-01-05 11:29:04.16	329.62	12.01	-48.5	-62.3	3.8	1.49e+00	0	57	104	0	58	18954
2026-01-05 11:29:05.15	329.72	11.94	-48.5	-62.3	3.8	1.49e+00	0	57	104	0	58	18970
2026-01-05 11:29:06.14	329.82	11.86	-48.5	-62.2	3.8	1.49e+00	0	57	104	0	58	18938
2026-01-05 11:29:07.13	329.92	11.78	-48.5	-62.2	3.8	1.49e+00	0	57	104	0	58	18861
2026-01-05 11:29:08.12	330.02	11.70	-48.5	-62.3	3.8	1.49e+00	0	57	104	0	58	18987
2026-01-05 11:29:09.11	330.12	11.62	-48.5	-62.2	3.8	1.49e+00	0	57	104	0	58	18925
2026-01-05 11:29:10.10	330.21	11.54	-48.5	-62.2	3.8	1.49e+00	0	57	104	0	58	18940
2026-01-05 11:29:11.09	330.31	11.47	-48.5	-62.2	3.8	1.49e+00	0	57	104	0	58	18929
2026-01-05 11:29:12.07	330.41	11.39	-48.5	-62.3	3.8	1.49e+00	0	57	104	0	58	18986
2026-01-05 11:29:13.05	330.50	11.31	-48.5	-62.2	3.8	1.49e+00	0	57	104	0	58	18945
2026-01-05 11:29:14.04	330.59	11.24	-48.5	-62.2	3.8	1.49e+00	0	57	104	0	58	18927
2026-01-05 11:29:15.03	330.69	11.16	-48.5	-62.2	3.8	1.49e+00	0	57	104	0	58	18936
2026-01-05 11:29:16.02	330.78	11.08	-48.5	-62.2	3.8	1.49e+00	0	57	104	0	58	18932
2026-01-05 11:29:17.01	330.88	11.00	-48.5	-62.3	3.8	1.49e+00	0	57	104	0	58	18989
2026-01-05 11:29:17.99	330.97	10.93	-48.5	-62.3	3.8	1.49e+00	0	58	104	0	58	18978
2026-01-05 11:29:18.98	331.06	10.85	-48.5	-62.2	3.8	1.49e+00	0	57	104	0	58	18936
2026-01-05 11:29:19.97	331.15	10.78	-48.5	-62.2	3.8	1.49e+00	0	57	104	0	58	18919
2026-01-05 11:29:20.96	331.25	10.70	-48.5	-62.3	3.8	1.49e+00	0	57	104	0	58	18972
2026-01-05 11:29:21.95	331.34	10.62	-48.5	-62.3	3.8	1.49e+00	0	57	104	0	58	18963
2026-01-05 11:29:22.94	331.43	10.55	-48.5	-62.3	3.8	1.49e+00	0	57	104	0	58	18949
2026-01-05 11:29:23.93	331.52	10.47	-48.5	-62.2	3.8	1.49e+00	0	57	104	0	58	18941
2026-01-05 11:29:24.92	331.61	10.40	-48.5	-62.3	3.8	1.49e+00	0	57	104	0	58	18980
2026-01-05 11:29:25.91	331.70	10.32	-48.5	-62.2	3.8	1.49e+00	0	57	104	0	58	18907
2026-01-05 11:29:26.90	331.79	10.25	-48.5	-62.3	3.8	1.49e+00	0	57	104	0	58	18999
2026-01-05 11:29:27.88	331.87	10.17	-48.5	-62.3	3.8	1.49e+00	0	57	104	0	58	18958
2026-01-05 11:29:28.87	331.96	10.10	-48.5	-62.2	3.8	1.49e+00	0	57	104	0	58	18916
2026-01-05 11:29:29.86	332.05	10.02	-48.5	-62.3	3.8	1.49e+00	0	58	104	0	58	18957
2026-01-05 11:29:30.84	332.14	9.95	-48.5	-62.3	3.8	1.49e+00	0	57	104	0	58	18977
2026-01-05 11:29:31.84	332.23	9.87	-48.5	-62.2	3.8	1.49e+00	0	57	104	0	58	18894
2026-01-05 11:29:32.82	332.31	9.80	-48.5	-62.3	3.8	1.49e+00	0	57	104	0	58	18954
2026-01-05 11:29:33.82	332.40	9.73	-48.5	-62.2	3.8	1.49e+00	0	57	104	0	58	18891
2026-01-05 11:29:34.80	332.48	9.65	-48.5	-62.3	3.8	1.49e+00	0	57	104	0	58	18968
2026-01-05 11:29:35.79	332.57	9.58	-48.5	-62.3	3.8	1.49e+00	0	58	104	0	58	18994
2026-01-05 11:29:36.78	332.65	9.51	-48.5	-62.3	3.8	1.49e+00	0	57	104	0	58	18972
2026-01-05 11:29:37.77	332.74	9.43	-48.4	-62.2	3.8	1.49e+00	0	57	104	0	58	18913
2026-01-05 11:29:38.75	332.82	9.36	-48.5	-62.3	3.8	1.49e+00	0	57	104	0	58	18992
2026-01-05 11:29:39.74	332.90	9.29	-48.5	-62.2	3.8	1.49e+00	0	58	104	0	58	18938
2026-01-05 11:29:40.73	332.99	9.22	-48.5	-62.3	3.8	1.49e+00	0	57	104	0	58	18964
2026-01-05 11:29:41.71	333.07	9.14	-48.5	-62.3	3.8	1.49e+00	0	57	104	0	58	18950
2026-01-05 11:29:42.70	333.15	9.07	-48.5	-62.2	3.8	1.49e+00	0	57	104	0	58	18946
2026-01-05 11:29:43.69	333.24	9.00	-48.5	-62.2	3.8	1.49e+00	0	57	104	0	58	18919
2026-01-05 11:29:44.67	333.32	8.93	-48.5	-62.2	3.8	1.49e+00	0	57	104	0	58	18910
2026-01-05 11:29:45.66	333.40	8.86	-48.5	-62.2	3.8	1.49e+00	0	57	104	0	58	18940
2026-01-05 11:29:46.65	333.48	8.78	-48.5	-62.2	3.8	1.49e+00	0	58	104	0	58	18926
2026-01-05 11:29:47.64	333.56	8.71	-48.5	-62.3	3.8	1.49e+00	0	57	104	0	58	18967
2026-01-05 11:29:48.63	333.64	8.64	-48.5	-62.2	3.8	1.49e+00	0	58	104	0	58	18925
2026-01-05 11:29:49.62	333.72	8.57	-48.5	-62.2	3.8	1.49e+00	0	57	104	0	58	18924
2026-01-05 11:29:50.61	333.80	8.50	-48.5	-62.2	3.8	1.49e+00	0	57	104	0	58	18900
2026-01-05 11:29:51.59	333.88	8.43	-48.5	-62.2	3.8	1.49e+00	0	58	104	0	58	18921
2026-01-05 11:29:52.58	333.96	8.36	-48.5	-62.2	3.8	1.49e+00	0	57	104	0	58	18946
2026-01-05 11:29:53.57	334.03	8.29	-48.5	-62.3	3.8	1.49e+00	0	57	104	0	58	18964
2026-01-05 11:29:54.56	334.11	8.22	-48.5	-62.2	3.8	1.49e+00	0	57	104	0	58	18942
2026-01-05 11:29:55.55	334.19	8.15	-48.5	-62.2	3.8	1.49e+00	0	57	104	0	58	18934
2026-01-05 11:29:56.55	334.27	8.08	-48.5	-62.3	3.8	1.49e+00	0	57	104	0	58	18951
2026-01-05 11:29:57.54	334.35	8.00	-48.5	-62.3	3.8	1.49e+00	0	57	104	0	58	18988
2026-01-05 11:29:58.53	334.42	7.94	-48.5	-62.2	3.8	1.49e+00	0	57	104	0	58	18939
2026-01-05 11:29:59.52	334.50	7.87	-48.5	-62.2	3.8	1.49e+00	0	58	104	0	58	18946
2026-01-05 11:30:00.51	334.58	7.80	-48.5	-62.2	3.8	1.49e+00	0	57	104	0	58	18937
2026-01-05 11:30:01.49	334.65	7.73	-48.5	-62.2	3.8	1.49e+00	0	57	104	0	58	18912
2026-01-05 11:30:02.48	334.73	7.66	-48.5	-62.3	3.8	1.49e+00	0	57	104	0	58	18962
2026-01-05 11:30:03.47	334.80	7.59	-48.5	-62.2	3.8	1.49e+00	0	57	104	0	58	18932
2026-01-05 11:30:04.46	334.88	7.52	-48.5	-62.3	3.8	1.49e+00	0	57	104	0	58	18976
2026-01-05 11:30:05.46	334.95	7.45	-48.4	-62.2	3.8	1.49e+00	0	57	104	0	58	18925
2026-01-05 11:30:06.44	335.02	7.38	-48.5	-62.2	3.8	1.49e+00	0	57	104	0	58	18941
2026-01-05 11:30:07.42	335.10	7.31	-48.5	-62.3	3.8	1.49e+00	0	57	104	0	58	18952
2026-01-05 11:30:08.42	335.17	7.25	-48.5	-62.3	3.8	1.49e+00	0	57	104	0	58	18968
2026-01-05 11:30:09.40	335.24	7.18	-48.5	-62.2	3.8	1.49e+00	0	57	104	0	58	18946
2026-01-05 11:30:10.39	335.32	7.11	-48.5	-62.3	3.8	1.49e+00	0	57	104	0	58	18995
