passes_logs/2026/01/05/R3.0SM8_Murmansk_STILSPACE/R3.0SM8_Murmansk_STILSPACE__20260105_073638_SUOMI_NPP_rec.log

#Pass ID: 20260105_073638_SUOMI NPP
#Satellite: SUOMI NPP
#Configuration: NPP
#almurnet v.1.7.20240730
#Start time: 2026-01-05 07:36:40

#Version: 2.2.20231116
#Station: R3.0SM8_Murmansk_STILSPACE
#Location: 33.092731 lon 68.902999 lat
#TLE: 1 37849U 11061A   26003.96724563  .00000164  00000+0  98899-4 0  9990
#TLE: 2 37849  98.7800 306.1116 0002573  82.3190 277.8279 14.19522066735141

#Time	Az	El	Level	Level2	SNR	BER	BlckErr	Temp	State	Recorded	gain1	gain2
2026-01-05 07:36:40.20	105.46	3.12	-52.3	-66.1	3.8	1.49e+00	0	47	0	0	67	17559
2026-01-05 07:36:41.18	105.42	3.18	-52.1	-66.0	3.8	1.49e+00	0	48	104	0	67	17319
2026-01-05 07:36:42.18	105.37	3.24	-52.1	-65.9	3.8	1.49e+00	0	48	104	0	67	17091
2026-01-05 07:36:43.17	105.33	3.31	-52.0	-65.8	3.8	1.49e+00	0	48	104	0	67	16922
2026-01-05 07:36:44.15	105.28	3.37	-51.9	-65.6	3.8	1.49e+00	0	48	104	0	66	17663
2026-01-05 07:36:45.15	105.23	3.43	-51.6	-65.4	3.8	1.49e+00	0	48	104	0	66	17207
2026-01-05 07:36:46.15	105.19	3.50	-51.5	-65.3	3.8	1.49e+00	0	48	104	0	66	16951
2026-01-05 07:36:47.12	105.14	3.56	-51.5	-65.3	3.8	1.49e+00	0	48	104	0	66	16985
2026-01-05 07:36:48.11	105.09	3.62	-51.6	-65.2	3.8	1.49e+00	0	48	104	0	66	16883
2026-01-05 07:36:49.10	105.05	3.68	-51.5	-65.3	3.8	1.49e+00	0	48	104	0	66	16901
2026-01-05 07:36:50.10	105.00	3.75	-51.6	-65.2	3.8	1.49e+00	0	48	104	0	66	16874
2026-01-05 07:36:51.09	104.95	3.81	-51.5	-65.3	3.8	1.49e+00	0	48	104	0	66	16902
2026-01-05 07:36:52.08	104.91	3.88	-51.5	-65.2	3.8	1.49e+00	0	48	104	0	66	16838
2026-01-05 07:36:53.08	104.86	3.94	-51.6	-65.2	3.8	1.49e+00	0	48	104	0	66	16779
2026-01-05 07:36:54.07	104.81	4.01	-51.6	-65.1	3.8	1.49e+00	0	48	104	0	66	16684
2026-01-05 07:36:55.06	104.76	4.07	-51.5	-65.1	3.8	1.49e+00	0	49	104	0	66	16599
2026-01-05 07:36:56.06	104.71	4.14	-51.5	-65.0	3.8	1.49e+00	0	49	104	0	66	16373
2026-01-05 07:36:57.04	104.66	4.20	-51.5	-64.8	3.8	1.49e+00	0	49	104	0	66	15996
2026-01-05 07:36:58.03	104.61	4.27	-51.4	-64.6	3.8	1.49e+00	0	49	104	0	66	15692
2026-01-05 07:36:59.02	104.56	4.33	-51.4	-64.4	3.8	1.49e+00	0	49	104	0	65	16143
2026-01-05 07:37:00.01	104.52	4.40	-51.5	-64.1	3.8	1.49e+00	0	49	104	0	65	15689
2026-01-05 07:37:00.99	104.47	4.46	-51.5	-63.9	3.8	1.49e+00	0	49	104	0	65	15256
2026-01-05 07:37:01.97	104.42	4.52	-51.5	-63.4	3.9	1.49e+00	0	49	104	0	65	14403
2026-01-05 07:37:02.97	104.37	4.59	-51.4	-62.9	3.8	1.48e+00	0	49	104	0	65	13700
2026-01-05 07:37:03.95	104.32	4.66	-51.4	-62.5	3.9	1.46e+00	0	49	104	0	65	13057
2026-01-05 07:37:04.94	104.27	4.72	-51.3	-62.0	4.1	1.44e+00	0	49	0	0	65	12313
2026-01-05 07:37:05.93	104.21	4.79	-51.3	-61.5	4.3	1.38e+00	0	49	0	0	65	11603
2026-01-05 07:37:06.92	104.16	4.85	-51.2	-60.9	4.5	1.11e+00	0	49	0	1048576	65	10866
2026-01-05 07:37:07.92	104.11	4.92	-51.2	-60.6	4.6	9.86e-01	0	49	0	3145728	65	10476
2026-01-05 07:37:08.90	104.06	4.99	-51.1	-59.9	5.0	8.51e-01	0	49	0	5242880	65	9669
2026-01-05 07:37:09.90	104.01	5.05	-50.9	-59.5	5.2	6.89e-01	0	50	0	6291456	65	9227
2026-01-05 07:37:10.88	103.96	5.12	-51.0	-59.4	5.2	5.65e-01	0	50	0	8388608	65	9165
2026-01-05 07:37:11.88	103.90	5.19	-51.1	-60.0	4.9	6.36e-01	0	49	0	10485760	65	9726
2026-01-05 07:37:12.86	103.85	5.25	-51.1	-60.4	4.7	7.80e-01	0	50	0	12582912	65	10188
2026-01-05 07:37:13.85	103.80	5.32	-51.1	-60.0	4.9	7.65e-01	0	50	0	14680064	65	9743
2026-01-05 07:37:14.85	103.74	5.39	-51.0	-59.5	5.2	7.08e-01	0	50	0	15728640	65	9227
2026-01-05 07:37:15.83	103.69	5.45	-51.0	-59.4	5.2	5.75e-01	0	50	0	17825792	65	9117
2026-01-05 07:37:16.82	103.64	5.52	-50.9	-58.7	5.7	5.17e-01	0	50	0	19922944	65	8392
2026-01-05 07:37:17.81	103.58	5.59	-50.9	-58.6	5.8	4.24e-01	0	50	0	22020096	64	8801
2026-01-05 07:37:18.80	103.53	5.66	-50.8	-58.2	6.1	3.00e-01	0	50	0	23068672	64	8375
2026-01-05 07:37:19.80	103.48	5.73	-50.7	-57.7	6.5	2.87e-01	0	50	0	25165824	64	7958
2026-01-05 07:37:20.78	103.42	5.79	-50.8	-57.8	6.4	2.20e-01	0	50	0	27262976	64	8004
2026-01-05 07:37:21.77	103.37	5.86	-50.8	-57.8	6.4	2.62e-01	0	50	0	29360128	64	8011
2026-01-05 07:37:22.76	103.31	5.93	-50.7	-57.2	6.9	2.24e-01	0	50	0	30408704	64	7532
2026-01-05 07:37:23.75	103.26	6.00	-50.5	-56.4	7.7	1.17e-01	0	50	0	32505856	63	7273
2026-01-05 07:37:24.74	103.20	6.07	-50.4	-56.1	8.2	6.98e-02	0	50	0	34603008	63	6970
2026-01-05 07:37:25.73	103.14	6.14	-50.2	-55.4	8.8	3.12e-02	0	50	0	36700160	63	6442
2026-01-05 07:37:26.72	103.09	6.21	-50.0	-54.7	9.5	1.69e-02	0	50	0	38797312	63	5928
2026-01-05 07:37:27.71	103.03	6.28	-49.8	-54.2	10.0	1.09e-02	0	50	0	39845888	62	5961
2026-01-05 07:37:28.69	102.97	6.34	-49.7	-53.9	10.3	6.49e-03	0	51	0	41943040	62	5767
2026-01-05 07:37:29.68	102.92	6.41	-49.6	-53.8	10.5	3.35e-03	0	50	0	44040192	62	5658
2026-01-05 07:37:30.66	102.86	6.48	-49.7	-53.9	10.4	4.61e-03	0	51	0	46137344	62	5761
2026-01-05 07:37:31.64	102.80	6.55	-49.6	-53.7	10.5	5.31e-03	0	51	0	47185920	62	5653
2026-01-05 07:37:32.64	102.74	6.62	-49.5	-53.4	10.8	2.80e-03	0	51	0	49283072	62	5461
2026-01-05 07:37:33.63	102.69	6.69	-49.5	-53.6	10.7	2.57e-03	0	51	0	51380224	61	5897
2026-01-05 07:37:34.62	102.63	6.76	-49.6	-53.6	10.7	3.64e-03	0	51	0	53477376	61	5877
2026-01-05 07:37:35.61	102.57	6.83	-49.5	-53.5	10.8	3.32e-03	0	51	0	54525952	61	5797
2026-01-05 07:37:36.60	102.51	6.90	-49.8	-54.0	10.3	4.13e-03	0	51	0	56623104	61	6157
2026-01-05 07:37:37.58	102.45	6.97	-49.8	-54.1	10.1	7.77e-03	0	51	0	58720256	61	6266
2026-01-05 07:37:38.57	102.39	7.04	-49.4	-53.2	11.1	3.86e-03	0	51	0	60817408	61	5650
2026-01-05 07:37:39.56	102.33	7.12	-49.3	-53.0	11.3	1.92e-03	0	51	0	61865984	61	5525
2026-01-05 07:37:40.54	102.27	7.19	-49.1	-52.6	11.7	5.96e-04	0	51	0	63963136	61	5261
2026-01-05 07:37:41.53	102.21	7.26	-49.0	-52.4	12.0	2.53e-04	0	51	0	66060288	60	5403
2026-01-05 07:37:42.52	102.15	7.33	-48.8	-51.9	12.4	2.27e-04	0	51	0	68157440	60	5147
2026-01-05 07:37:43.51	102.09	7.40	-48.7	-51.8	12.5	1.50e-04	0	51	0	70254592	60	5068
2026-01-05 07:37:44.50	102.02	7.47	-48.7	-51.9	12.5	9.61e-05	0	51	0	71303168	60	5108
2026-01-05 07:37:45.50	101.96	7.55	-48.6	-51.7	12.7	6.63e-05	0	51	0	73400320	60	5015
2026-01-05 07:37:46.48	101.90	7.62	-48.5	-51.3	13.1	4.95e-05	0	51	0	75497472	60	4803
2026-01-05 07:37:47.48	101.84	7.69	-48.6	-51.6	12.8	6.71e-05	0	51	0	77594624	60	4949
2026-01-05 07:37:48.47	101.77	7.76	-48.5	-51.4	13.0	3.66e-05	0	51	0	78643200	60	4818
2026-01-05 07:37:49.46	101.71	7.84	-48.5	-51.3	13.2	1.14e-05	0	51	0	80740352	59	5042
2026-01-05 07:37:50.46	101.64	7.91	-48.4	-51.1	13.4	1.83e-05	0	51	0	82837504	59	4931
2026-01-05 07:37:51.45	101.58	7.98	-48.3	-51.1	13.4	1.29e-05	0	52	0	84934656	59	4931
2026-01-05 07:37:52.44	101.52	8.06	-48.4	-51.3	13.1	2.28e-05	0	52	0	85983232	59	5049
2026-01-05 07:37:53.43	101.45	8.13	-48.4	-51.2	13.3	1.44e-05	0	52	0	88080384	59	5006
2026-01-05 07:37:54.42	101.39	8.20	-48.2	-50.8	13.7	2.59e-05	0	52	0	90177536	59	4784
2026-01-05 07:37:55.41	101.32	8.28	-48.4	-51.2	13.3	1.52e-05	0	52	0	92274688	59	5008
2026-01-05 07:37:56.40	101.26	8.35	-48.5	-51.3	13.1	2.44e-05	0	52	0	94371840	59	5094
2026-01-05 07:37:57.39	101.19	8.43	-48.4	-51.2	13.3	1.29e-05	0	52	0	95420416	59	5023
2026-01-05 07:37:58.37	101.12	8.50	-48.4	-51.2	13.2	2.05e-05	0	52	0	97517568	59	5019
2026-01-05 07:37:59.36	101.06	8.57	-48.4	-51.3	13.2	3.20e-05	0	52	0	99614720	59	5070
2026-01-05 07:38:00.35	100.99	8.65	-48.5	-51.5	13.0	1.90e-05	0	52	0	101711872	59	5165
2026-01-05 07:38:01.34	100.92	8.72	-48.5	-51.5	13.0	3.12e-05	0	52	0	102760448	59	5164
2026-01-05 07:38:02.32	100.85	8.80	-48.2	-50.9	13.6	2.67e-05	0	52	0	104857600	59	4862
2026-01-05 07:38:03.32	100.78	8.88	-48.3	-51.0	13.5	8.30e-06	0	52	0	106954752	59	4899
2026-01-05 07:38:04.31	100.72	8.95	-48.3	-51.0	13.5	6.10e-06	0	52	0	109051904	59	4889
2026-01-05 07:38:05.29	100.65	9.03	-48.2	-51.0	13.6	1.14e-05	0	52	0	110100480	59	4906
2026-01-05 07:38:06.28	100.58	9.10	-48.5	-51.4	13.2	2.21e-05	0	52	0	112197632	59	5115
2026-01-05 07:38:07.27	100.51	9.18	-48.4	-51.2	13.3	2.21e-05	0	52	0	114294784	59	5027
2026-01-05 07:38:08.25	100.44	9.25	-48.5	-51.4	13.2	1.06e-05	0	52	0	116391936	59	5132
2026-01-05 07:38:09.24	100.37	9.33	-48.6	-51.6	12.9	3.43e-05	0	52	0	118489088	59	5265
2026-01-05 07:38:10.23	100.30	9.41	-48.5	-51.3	13.2	3.73e-05	0	52	0	119537664	59	5066
2026-01-05 07:38:11.23	100.23	9.48	-48.4	-51.3	13.3	1.29e-05	0	52	0	121634816	59	5052
2026-01-05 07:38:12.22	100.15	9.56	-48.5	-51.4	13.1	2.28e-05	0	52	0	123731968	59	5151
2026-01-05 07:38:13.20	100.08	9.64	-48.3	-51.1	13.5	1.67e-05	0	52	0	125829120	59	4946
2026-01-05 07:38:14.18	100.01	9.71	-48.5	-51.4	13.2	1.83e-05	0	52	0	126877696	59	5131
2026-01-05 07:38:15.18	99.94	9.79	-48.2	-50.9	13.6	1.22e-05	0	52	0	128974848	59	4844
2026-01-05 07:38:16.17	99.86	9.87	-48.2	-50.9	13.6	4.50e-06	0	52	0	131072000	59	4862
2026-01-05 07:38:17.15	99.79	9.95	-48.0	-50.6	14.0	3.80e-06	0	52	0	133169152	59	4666
2026-01-05 07:38:18.14	99.72	10.03	-48.1	-50.7	13.8	3.80e-06	0	52	0	134217728	59	4747
2026-01-05 07:38:19.12	99.64	10.10	-48.1	-50.7	13.9	2.20e-06	0	52	0	136314880	58	4991
2026-01-05 07:38:20.11	99.57	10.18	-48.1	-50.7	13.9	3.80e-06	0	52	0	138412032	58	5018
2026-01-05 07:38:21.10	99.49	10.26	-47.8	-50.2	14.4	3.00e-06	0	53	0	140509184	58	4733
2026-01-05 07:38:22.09	99.42	10.34	-48.0	-50.5	14.1	0.00e+00	0	53	0	141557760	58	4881
2026-01-05 07:38:23.08	99.34	10.42	-47.9	-50.4	14.2	1.50e-06	0	53	0	143654912	58	4817
2026-01-05 07:38:24.08	99.26	10.50	-47.8	-50.2	14.4	0.00e+00	0	53	0	145752064	58	4737
2026-01-05 07:38:25.07	99.18	10.58	-48.0	-50.5	14.1	1.50e-06	0	53	0	147849216	58	4911
2026-01-05 07:38:26.05	99.11	10.66	-47.8	-50.3	14.3	2.20e-06	0	53	0	149946368	58	4770
2026-01-05 07:38:27.04	99.03	10.74	-47.8	-50.2	14.4	1.50e-06	0	53	0	150994944	58	4731
2026-01-05 07:38:28.03	98.95	10.82	-47.8	-50.3	14.4	7.00e-07	0	53	0	153092096	58	4777
2026-01-05 07:38:29.01	98.87	10.90	-47.8	-50.2	14.4	1.50e-06	0	53	0	155189248	58	4714
2026-01-05 07:38:29.99	98.79	10.98	-48.1	-50.6	14.1	0.00e+00	0	53	0	157286400	58	4945
2026-01-05 07:38:30.97	98.72	11.06	-47.9	-50.2	14.4	2.20e-06	0	53	0	158334976	58	4752
2026-01-05 07:38:31.96	98.64	11.14	-47.6	-49.9	14.7	7.00e-07	0	53	0	160432128	58	4586
2026-01-05 07:38:32.96	98.55	11.22	-47.6	-49.9	14.7	7.00e-07	0	53	0	162529280	58	4563
2026-01-05 07:38:33.94	98.47	11.30	-47.7	-50.0	14.6	0.00e+00	0	53	0	164626432	58	4624
2026-01-05 07:38:34.93	98.39	11.38	-47.6	-50.0	14.7	0.00e+00	0	53	0	165675008	58	4600
2026-01-05 07:38:35.92	98.31	11.47	-47.9	-50.4	14.2	0.00e+00	0	53	0	167772160	58	4856
2026-01-05 07:38:36.91	98.23	11.55	-47.8	-50.2	14.5	2.20e-06	0	53	0	169869312	58	4724
2026-01-05 07:38:37.90	98.14	11.63	-47.8	-50.2	14.4	7.00e-07	0	53	0	171966464	58	4753
2026-01-05 07:38:38.89	98.06	11.71	-47.8	-50.3	14.4	1.50e-06	0	53	0	174063616	58	4771
2026-01-05 07:38:39.88	97.98	11.80	-48.1	-50.6	14.1	0.00e+00	0	53	0	175112192	58	4972
2026-01-05 07:38:40.87	97.89	11.88	-48.0	-50.5	14.2	0.00e+00	0	53	0	177209344	58	4883
2026-01-05 07:38:41.86	97.81	11.96	-48.0	-50.5	14.2	0.00e+00	0	53	0	179306496	58	4898
2026-01-05 07:38:42.85	97.72	12.05	-48.1	-50.7	14.0	3.00e-06	0	53	0	181403648	58	4995
2026-01-05 07:38:43.84	97.63	12.13	-48.2	-50.7	14.0	4.50e-06	0	53	0	182452224	58	5018
2026-01-05 07:38:44.83	97.55	12.21	-48.0	-50.4	14.2	3.00e-06	0	53	0	184549376	58	4865
2026-01-05 07:38:45.82	97.46	12.30	-47.7	-50.0	14.7	0.00e+00	0	53	0	186646528	58	4608
2026-01-05 07:38:46.81	97.37	12.38	-47.9	-50.2	14.5	0.00e+00	0	53	0	188743680	58	4756
2026-01-05 07:38:47.80	97.29	12.47	-47.9	-50.3	14.4	1.50e-06	0	53	0	190840832	58	4799
2026-01-05 07:38:48.79	97.20	12.55	-48.1	-50.5	14.2	4.50e-06	0	53	0	191889408	58	4913
2026-01-05 07:38:49.77	97.11	12.64	-48.1	-50.5	14.2	3.00e-06	0	53	0	193986560	58	4898
2026-01-05 07:38:50.77	97.02	12.72	-48.0	-50.5	14.2	7.00e-07	0	53	0	196083712	58	4880
2026-01-05 07:38:51.77	96.93	12.81	-48.1	-50.8	14.0	3.80e-06	0	54	0	198180864	58	5055
2026-01-05 07:38:52.75	96.84	12.89	-48.1	-50.6	14.1	1.50e-06	0	53	0	199229440	58	4973
2026-01-05 07:38:53.74	96.74	12.98	-47.9	-50.3	14.4	1.50e-06	0	53	0	201326592	58	4781
2026-01-05 07:38:54.73	96.65	13.07	-47.9	-50.2	14.5	7.00e-07	0	54	0	203423744	58	4756
2026-01-05 07:38:55.72	96.56	13.15	-47.7	-50.0	14.7	0.00e+00	0	53	0	205520896	58	4621
2026-01-05 07:38:56.70	96.47	13.24	-47.8	-50.2	14.6	7.00e-07	0	53	0	206569472	58	4721
2026-01-05 07:38:57.70	96.37	13.33	-47.7	-50.0	14.7	1.50e-06	0	53	0	208666624	58	4627
2026-01-05 07:38:58.69	96.28	13.41	-47.6	-49.8	14.9	0.00e+00	0	53	0	210763776	58	4536
2026-01-05 07:38:59.68	96.18	13.50	-47.7	-50.0	14.8	7.00e-07	0	54	0	212860928	58	4615
2026-01-05 07:39:00.68	96.09	13.59	-47.9	-50.3	14.5	1.50e-06	0	54	0	214958080	58	4777
2026-01-05 07:39:01.67	95.99	13.68	-47.9	-50.2	14.6	7.00e-07	0	53	0	216006656	58	4719
2026-01-05 07:39:02.66	95.90	13.76	-48.0	-50.5	14.3	7.00e-07	0	54	0	218103808	58	4875
2026-01-05 07:39:03.65	95.80	13.85	-48.1	-50.6	14.1	3.80e-06	0	54	0	220200960	58	4980
2026-01-05 07:39:04.64	95.70	13.94	-47.9	-50.2	14.5	0.00e+00	0	54	0	222298112	58	4730
2026-01-05 07:39:05.63	95.60	14.03	-47.7	-49.9	14.8	7.00e-07	0	54	0	223346688	58	4584
2026-01-05 07:39:06.63	95.50	14.12	-47.5	-49.7	15.1	7.00e-07	0	54	0	225443840	58	4454
2026-01-05 07:39:07.61	95.40	14.21	-47.5	-49.7	15.1	0.00e+00	0	54	0	227540992	57	4717
2026-01-05 07:39:08.60	95.30	14.30	-47.6	-49.8	14.9	0.00e+00	0	54	0	229638144	57	4779
2026-01-05 07:39:09.59	95.20	14.39	-47.5	-49.6	15.2	0.00e+00	0	54	0	230686720	57	4653
2026-01-05 07:39:10.58	95.10	14.48	-47.6	-49.8	15.0	7.00e-07	0	54	0	232783872	57	4771
2026-01-05 07:39:11.58	95.00	14.57	-47.7	-50.0	14.8	0.00e+00	0	54	0	234881024	57	4885
2026-01-05 07:39:12.56	94.90	14.66	-47.8	-50.1	14.7	0.00e+00	0	54	0	236978176	57	4943
2026-01-05 07:39:13.56	94.79	14.75	-47.5	-49.6	15.1	0.00e+00	0	54	0	239075328	57	4692
2026-01-05 07:39:14.55	94.69	14.84	-47.3	-49.3	15.5	0.00e+00	0	54	0	240123904	57	4509
2026-01-05 07:39:15.54	94.58	14.93	-47.3	-49.3	15.5	0.00e+00	0	54	0	242221056	57	4506
2026-01-05 07:39:16.54	94.48	15.02	-47.2	-49.1	15.7	0.00e+00	0	54	0	244318208	57	4419
2026-01-05 07:39:17.53	94.37	15.12	-46.9	-48.7	16.1	0.00e+00	0	54	0	246415360	56	4466
2026-01-05 07:39:18.52	94.27	15.21	-47.2	-49.1	15.7	7.00e-07	0	54	0	247463936	56	4669
2026-01-05 07:39:19.50	94.16	15.30	-47.1	-49.0	15.7	0.00e+00	0	54	0	249561088	56	4646
2026-01-05 07:39:20.49	94.05	15.39	-47.3	-49.2	15.6	0.00e+00	0	54	0	251658240	56	4757
2026-01-05 07:39:21.49	93.94	15.49	-47.3	-49.4	15.4	0.00e+00	0	54	0	253755392	56	4843
2026-01-05 07:39:22.48	93.83	15.58	-47.3	-49.2	15.6	0.00e+00	0	54	0	254803968	56	4756
2026-01-05 07:39:23.47	93.72	15.67	-46.9	-48.8	16.1	0.00e+00	0	54	0	256901120	56	4495
2026-01-05 07:39:24.46	93.61	15.76	-46.9	-48.7	16.1	0.00e+00	0	54	0	258998272	56	4459
2026-01-05 07:39:25.45	93.50	15.86	-47.0	-48.8	16.1	0.00e+00	0	54	0	261095424	56	4497
2026-01-05 07:39:26.45	93.39	15.95	-47.0	-48.8	15.9	0.00e+00	0	54	0	263192576	56	4544
2026-01-05 07:39:27.43	93.27	16.05	-47.1	-48.9	15.9	0.00e+00	0	54	0	264241152	56	4580
2026-01-05 07:39:28.41	93.16	16.14	-47.3	-49.2	15.6	0.00e+00	0	54	0	266338304	56	4742
2026-01-05 07:39:29.40	93.05	16.23	-47.5	-49.5	15.3	0.00e+00	0	54	0	268435456	56	4912
2026-01-05 07:39:30.39	92.93	16.33	-47.6	-49.7	15.1	0.00e+00	0	54	0	270532608	56	5021
2026-01-05 07:39:31.38	92.82	16.42	-47.7	-49.8	15.0	0.00e+00	0	54	0	271581184	57	4786
2026-01-05 07:39:32.37	92.70	16.52	-47.6	-49.8	15.0	0.00e+00	0	54	0	273678336	57	4793
2026-01-05 07:39:33.35	92.58	16.61	-47.4	-49.4	15.4	0.00e+00	0	54	0	275775488	57	4590
2026-01-05 07:39:34.35	92.46	16.71	-47.3	-49.4	15.5	0.00e+00	0	54	0	277872640	57	4558
2026-01-05 07:39:35.34	92.35	16.81	-47.4	-49.5	15.4	0.00e+00	0	54	0	278921216	57	4605
2026-01-05 07:39:36.32	92.23	16.90	-47.5	-49.5	15.3	0.00e+00	0	54	0	281018368	57	4650
2026-01-05 07:39:37.31	92.11	17.00	-47.7	-49.9	14.9	0.00e+00	0	54	0	283115520	57	4845
2026-01-05 07:39:38.29	91.99	17.10	-47.7	-49.8	15.1	0.00e+00	0	54	0	285212672	57	4780
2026-01-05 07:39:39.28	91.86	17.19	-47.8	-50.0	14.8	0.00e+00	0	54	0	287309824	57	4904
2026-01-05 07:39:40.27	91.74	17.29	-47.6	-49.8	15.0	0.00e+00	0	54	0	288358400	57	4807
2026-01-05 07:39:41.26	91.62	17.39	-47.8	-50.0	14.8	0.00e+00	0	54	0	290455552	57	4891
2026-01-05 07:39:42.26	91.49	17.49	-47.9	-50.2	14.7	0.00e+00	0	54	0	292552704	57	5005
2026-01-05 07:39:43.25	91.37	17.58	-48.2	-50.7	14.2	1.50e-06	0	55	0	294649856	58	4985
2026-01-05 07:39:44.24	91.24	17.68	-47.7	-49.8	15.0	0.00e+00	0	54	0	295698432	58	4535
2026-01-05 07:39:45.23	91.11	17.78	-47.6	-49.7	15.2	0.00e+00	0	54	0	297795584	58	4475
2026-01-05 07:39:46.22	90.99	17.88	-47.8	-50.0	14.9	0.00e+00	0	54	0	299892736	58	4634
2026-01-05 07:39:47.21	90.86	17.98	-48.1	-50.4	14.5	0.00e+00	0	55	0	301989888	58	4844
2026-01-05 07:39:48.21	90.73	18.08	-48.0	-50.4	14.5	7.00e-07	0	55	0	304087040	58	4819
2026-01-05 07:39:49.20	90.60	18.18	-48.1	-50.5	14.3	0.00e+00	0	54	0	305135616	58	4915
2026-01-05 07:39:50.19	90.46	18.28	-48.1	-50.5	14.4	0.00e+00	0	54	0	307232768	58	4875
2026-01-05 07:39:51.18	90.33	18.38	-47.8	-50.0	14.9	1.50e-06	0	54	0	309329920	58	4601
2026-01-05 07:39:52.17	90.20	18.48	-47.6	-49.6	15.3	0.00e+00	0	54	0	311427072	58	4427
2026-01-05 07:39:53.15	90.07	18.58	-47.4	-49.4	15.4	0.00e+00	0	54	0	312475648	57	4589
2026-01-05 07:39:54.15	89.93	18.68	-47.5	-49.6	15.3	0.00e+00	0	55	0	314572800	57	4699
2026-01-05 07:39:55.13	89.80	18.78	-47.7	-49.8	15.1	0.00e+00	0	55	0	316669952	57	4813
2026-01-05 07:39:56.13	89.66	18.88	-47.7	-49.8	15.0	0.00e+00	0	55	0	318767104	57	4809
2026-01-05 07:39:57.12	89.52	18.99	-48.0	-50.4	14.5	0.00e+00	0	55	0	319815680	57	5131
2026-01-05 07:39:58.11	89.38	19.09	-47.9	-50.3	14.6	0.00e+00	0	55	0	321912832	57	5043
2026-01-05 07:39:59.09	89.24	19.19	-48.1	-50.4	14.5	0.00e+00	0	54	0	324009984	58	4839
2026-01-05 07:40:00.08	89.10	19.29	-47.8	-50.0	14.9	7.00e-07	0	55	0	326107136	58	4624
2026-01-05 07:40:01.07	88.96	19.39	-47.7	-49.8	15.1	0.00e+00	0	54	0	328204288	58	4530
2026-01-05 07:40:02.06	88.82	19.50	-47.8	-49.9	15.0	0.00e+00	0	55	0	329252864	58	4597
2026-01-05 07:40:03.05	88.67	19.60	-47.7	-49.8	15.1	0.00e+00	0	55	0	331350016	58	4513
2026-01-05 07:40:04.04	88.53	19.70	-47.8	-50.0	14.9	0.00e+00	0	55	0	333447168	58	4608
2026-01-05 07:40:05.03	88.38	19.80	-48.2	-50.7	14.3	0.00e+00	0	55	0	335544320	58	5001
2026-01-05 07:40:06.03	88.24	19.91	-48.0	-50.3	14.7	0.00e+00	0	55	0	336592896	58	4760
2026-01-05 07:40:07.02	88.09	20.01	-48.0	-50.3	14.6	7.00e-07	0	55	0	338690048	58	4792
2026-01-05 07:40:08.02	87.94	20.12	-47.9	-50.2	14.7	7.00e-07	0	55	0	340787200	58	4733
2026-01-05 07:40:09.00	87.79	20.22	-47.7	-49.9	15.1	0.00e+00	0	55	0	342884352	58	4559
2026-01-05 07:40:10.00	87.64	20.33	-47.7	-49.8	15.1	0.00e+00	0	55	0	343932928	58	4535
2026-01-05 07:40:10.98	87.49	20.43	-47.8	-50.0	14.9	0.00e+00	0	55	0	346030080	58	4604
2026-01-05 07:40:11.97	87.34	20.54	-47.9	-50.1	14.8	0.00e+00	0	55	0	348127232	58	4699
2026-01-05 07:40:12.96	87.18	20.64	-48.4	-51.0	14.0	0.00e+00	0	55	0	350224384	58	5172
2026-01-05 07:40:13.95	87.03	20.75	-48.0	-50.4	14.6	0.00e+00	0	55	0	351272960	58	4818
2026-01-05 07:40:14.94	86.87	20.85	-47.7	-49.8	15.1	1.50e-06	0	55	0	353370112	58	4514
2026-01-05 07:40:15.93	86.72	20.96	-47.7	-49.9	15.0	0.00e+00	0	55	0	355467264	58	4552
2026-01-05 07:40:16.92	86.56	21.06	-47.5	-49.6	15.3	0.00e+00	0	55	0	357564416	58	4419
2026-01-05 07:40:17.91	86.40	21.17	-47.3	-49.3	15.6	0.00e+00	0	55	0	359661568	57	4514
2026-01-05 07:40:18.90	86.24	21.28	-47.4	-49.4	15.5	0.00e+00	0	55	0	360710144	57	4582
2026-01-05 07:40:19.89	86.08	21.38	-47.5	-49.5	15.4	0.00e+00	0	55	0	362807296	57	4614
2026-01-05 07:40:20.88	85.91	21.49	-47.6	-49.8	15.1	0.00e+00	0	55	0	364904448	57	4768
2026-01-05 07:40:21.87	85.75	21.60	-47.3	-49.3	15.6	0.00e+00	0	55	0	367001600	57	4511
2026-01-05 07:40:22.86	85.58	21.71	-47.3	-49.3	15.7	0.00e+00	0	55	0	368050176	57	4513
2026-01-05 07:40:23.85	85.42	21.81	-47.4	-49.4	15.4	0.00e+00	0	55	0	370147328	57	4592
2026-01-05 07:40:24.85	85.25	21.92	-47.3	-49.3	15.6	0.00e+00	0	55	0	372244480	57	4529
2026-01-05 07:40:25.85	85.08	22.03	-47.3	-49.3	15.6	0.00e+00	0	55	0	374341632	57	4535
2026-01-05 07:40:26.83	84.91	22.14	-47.3	-49.2	15.8	0.00e+00	0	55	0	376438784	57	4444
2026-01-05 07:40:27.83	84.74	22.25	-47.4	-49.5	15.5	0.00e+00	0	55	0	377487360	57	4599
2026-01-05 07:40:28.81	84.57	22.36	-47.3	-49.2	15.6	0.00e+00	0	55	0	379584512	57	4491
2026-01-05 07:40:29.80	84.40	22.46	-47.4	-49.4	15.6	0.00e+00	0	55	0	381681664	57	4556
2026-01-05 07:40:30.79	84.22	22.57	-47.6	-49.8	15.2	0.00e+00	0	55	0	383778816	57	4764
2026-01-05 07:40:31.77	84.05	22.68	-48.1	-50.5	14.4	0.00e+00	0	55	0	384827392	58	4916
2026-01-05 07:40:32.76	83.87	22.79	-47.9	-50.2	14.8	0.00e+00	0	55	0	386924544	58	4745
2026-01-05 07:40:33.75	83.69	22.90	-48.0	-50.2	14.8	0.00e+00	0	55	0	389021696	58	4742
2026-01-05 07:40:34.74	83.51	23.01	-48.1	-50.6	14.4	7.00e-07	0	55	0	391118848	58	4932
2026-01-05 07:40:35.74	83.33	23.12	-48.1	-50.5	14.6	7.00e-07	0	55	0	392167424	58	4876
2026-01-05 07:40:36.73	83.15	23.23	-48.3	-50.8	14.2	0.00e+00	0	55	0	394264576	58	5072
2026-01-05 07:40:37.72	82.96	23.34	-48.4	-50.9	14.0	3.80e-06	0	55	0	396361728	59	4862
2026-01-05 07:40:38.71	82.78	23.45	-48.5	-51.2	13.8	1.50e-06	0	55	0	398458880	59	4985
2026-01-05 07:40:39.71	82.59	23.56	-49.0	-52.0	12.9	1.67e-05	0	55	0	400556032	59	5528
2026-01-05 07:40:40.69	82.41	23.67	-49.0	-52.1	12.9	1.37e-05	0	55	0	401604608	59	5550
2026-01-05 07:40:41.68	82.22	23.78	-49.0	-52.0	13.0	4.95e-05	0	55	0	403701760	59	5488
2026-01-05 07:40:42.67	82.03	23.89	-48.8	-51.8	13.2	3.96e-05	0	55	0	405798912	60	5081
2026-01-05 07:40:43.67	81.83	24.00	-48.7	-51.6	13.3	3.35e-05	0	55	0	407896064	60	4978
2026-01-05 07:40:44.65	81.64	24.11	-48.6	-51.5	13.5	1.60e-05	0	55	0	408944640	60	4879
2026-01-05 07:40:45.64	81.45	24.22	-48.8	-51.8	13.2	1.60e-05	0	55	0	411041792	60	5057
2026-01-05 07:40:46.63	81.25	24.34	-48.7	-51.6	13.4	1.75e-05	0	55	0	413138944	60	4940
2026-01-05 07:40:47.62	81.06	24.45	-48.8	-51.7	13.3	7.60e-06	0	55	0	415236096	60	5000
2026-01-05 07:40:48.62	80.86	24.56	-48.7	-51.5	13.5	9.10e-06	0	55	0	417333248	59	5176
2026-01-05 07:40:49.61	80.66	24.67	-48.5	-51.2	13.8	6.10e-06	0	55	0	418381824	59	4994
2026-01-05 07:40:50.61	80.45	24.78	-48.6	-51.2	13.7	8.30e-06	0	55	0	420478976	59	5024
2026-01-05 07:40:51.60	80.25	24.89	-48.8	-51.5	13.5	1.37e-05	0	55	0	422576128	59	5184
2026-01-05 07:40:52.59	80.05	25.01	-48.7	-51.6	13.4	9.90e-06	0	55	0	424673280	59	5263
2026-01-05 07:40:53.58	79.84	25.12	-48.8	-51.8	13.2	3.81e-05	0	55	0	425721856	60	5042
2026-01-05 07:40:54.58	79.63	25.23	-48.6	-51.4	13.6	1.90e-05	0	56	0	427819008	60	4822
2026-01-05 07:40:55.57	79.42	25.34	-48.6	-51.3	13.8	4.50e-06	0	55	0	429916160	59	5047
2026-01-05 07:40:56.57	79.21	25.46	-48.1	-50.5	14.5	3.00e-06	0	55	0	432013312	59	4649
2026-01-05 07:40:57.56	79.00	25.57	-48.4	-51.0	14.0	1.50e-06	0	56	0	434110464	59	4902
2026-01-05 07:40:58.54	78.79	25.68	-48.5	-51.2	13.8	4.50e-06	0	55	0	435159040	59	4984
2026-01-05 07:40:59.53	78.57	25.79	-48.3	-50.9	14.1	7.00e-07	0	55	0	437256192	59	4830
2026-01-05 07:41:00.52	78.36	25.90	-48.3	-50.9	14.1	3.00e-06	0	55	0	439353344	59	4866
2026-01-05 07:41:01.50	78.14	26.01	-48.2	-50.7	14.3	1.50e-06	0	55	0	441450496	59	4727
2026-01-05 07:41:02.48	77.92	26.12	-48.3	-50.7	14.4	7.00e-07	0	56	0	442499072	59	4733
2026-01-05 07:41:03.48	77.70	26.24	-48.1	-50.6	14.5	1.50e-06	0	56	0	444596224	59	4654
2026-01-05 07:41:04.46	77.48	26.35	-48.1	-50.5	14.5	7.00e-07	0	56	0	446693376	59	4618
2026-01-05 07:41:05.45	77.26	26.46	-48.3	-50.7	14.3	0.00e+00	0	55	0	448790528	59	4731
2026-01-05 07:41:06.44	77.03	26.57	-48.0	-50.3	14.7	7.00e-07	0	56	0	449839104	59	4501
2026-01-05 07:41:07.43	76.80	26.68	-48.1	-50.5	14.6	0.00e+00	0	56	0	451936256	59	4615
2026-01-05 07:41:08.42	76.58	26.80	-48.2	-50.7	14.3	1.50e-06	0	56	0	454033408	59	4725
2026-01-05 07:41:09.41	76.35	26.91	-48.1	-50.5	14.5	7.00e-07	0	56	0	456130560	59	4605
2026-01-05 07:41:10.41	76.11	27.02	-48.0	-50.3	14.7	7.00e-07	0	56	0	458227712	59	4501
2026-01-05 07:41:11.39	75.88	27.13	-48.0	-50.3	14.8	0.00e+00	0	55	0	459276288	58	4771
2026-01-05 07:41:12.38	75.64	27.24	-47.9	-50.2	14.8	0.00e+00	0	55	0	461373440	58	4731
2026-01-05 07:41:13.37	75.41	27.35	-47.7	-49.8	15.2	0.00e+00	0	56	0	463470592	58	4530
2026-01-05 07:41:14.36	75.17	27.47	-47.6	-49.6	15.4	0.00e+00	0	55	0	465567744	58	4434
2026-01-05 07:41:15.34	74.93	27.58	-47.9	-50.1	14.9	1.50e-06	0	56	0	466616320	58	4680
2026-01-05 07:41:16.33	74.69	27.69	-48.1	-50.4	14.6	7.00e-07	0	56	0	468713472	58	4849
2026-01-05 07:41:17.32	74.44	27.80	-48.6	-51.2	13.8	0.00e+00	0	56	0	470810624	59	5037
2026-01-05 07:41:18.31	74.20	27.91	-48.6	-51.2	13.9	3.80e-06	0	56	0	472907776	59	4996
2026-01-05 07:41:19.30	73.95	28.02	-48.6	-51.3	13.8	2.20e-06	0	56	0	473956352	59	5067
2026-01-05 07:41:20.29	73.70	28.13	-48.8	-51.6	13.5	1.60e-05	0	56	0	476053504	59	5230
2026-01-05 07:41:21.27	73.45	28.24	-48.7	-51.4	13.7	6.80e-06	0	56	0	478150656	59	5138
2026-01-05 07:41:22.27	73.20	28.35	-48.5	-51.1	14.0	6.80e-06	0	56	0	480247808	59	4944
2026-01-05 07:41:23.25	72.95	28.46	-48.3	-50.7	14.3	2.20e-06	0	56	0	481296384	59	4712
2026-01-05 07:41:24.24	72.69	28.57	-48.3	-50.6	14.4	7.00e-07	0	56	0	483393536	59	4698
2026-01-05 07:41:25.22	72.44	28.68	-48.3	-50.6	14.4	7.00e-07	0	56	0	485490688	59	4653
2026-01-05 07:41:26.22	72.17	28.79	-48.5	-50.9	14.1	1.50e-06	0	56	0	487587840	59	4863
2026-01-05 07:41:27.20	71.92	28.90	-48.7	-51.3	13.7	2.20e-06	0	56	0	489684992	59	5062
2026-01-05 07:41:28.18	71.65	29.01	-48.8	-51.5	13.5	6.80e-06	0	56	0	490733568	59	5184
2026-01-05 07:41:29.17	71.39	29.12	-49.1	-52.0	13.1	3.12e-05	0	56	0	492830720	59	5480
2026-01-05 07:41:30.15	71.13	29.22	-49.0	-52.0	13.0	4.11e-05	0	56	0	494927872	60	5208
2026-01-05 07:41:31.16	70.85	29.33	-49.0	-52.1	12.9	1.90e-05	0	56	0	497025024	60	5257
2026-01-05 07:41:32.14	70.58	29.44	-49.3	-52.5	12.6	1.23e-04	0	56	0	498073600	60	5486
2026-01-05 07:41:33.13	70.31	29.55	-48.9	-51.7	13.1	6.56e-05	0	56	0	500170752	60	5041
2026-01-05 07:41:34.13	70.04	29.66	-48.8	-51.7	13.3	2.97e-05	0	56	0	502267904	60	5007
2026-01-05 07:41:35.12	69.76	29.76	-48.7	-51.6	13.4	8.30e-06	0	56	0	504365056	60	4946
2026-01-05 07:41:36.10	69.48	29.87	-49.1	-52.4	12.7	3.05e-05	0	56	0	505413632	60	5412
2026-01-05 07:41:37.09	69.20	29.97	-49.6	-53.1	11.9	1.64e-04	0	56	0	507510784	60	5923
2026-01-05 07:41:38.08	68.92	30.08	-49.6	-53.3	11.7	5.06e-04	0	56	0	509607936	61	5676
2026-01-05 07:41:39.07	68.64	30.19	-49.6	-53.4	11.5	8.09e-04	0	56	0	511705088	61	5782
2026-01-05 07:41:40.06	68.36	30.29	-49.6	-53.3	11.7	5.77e-04	0	56	0	513802240	61	5681
2026-01-05 07:41:41.04	68.07	30.39	-49.6	-53.2	11.8	4.04e-04	0	56	0	514850816	61	5626
2026-01-05 07:41:42.03	67.78	30.50	-49.5	-53.0	12.0	5.69e-04	0	56	0	516947968	61	5468
2026-01-05 07:41:43.01	67.49	30.60	-49.6	-53.1	11.9	2.82e-04	0	56	0	519045120	61	5571
2026-01-05 07:41:44.00	67.20	30.70	-49.2	-52.3	12.7	1.46e-04	0	56	0	521142272	61	5046
2026-01-05 07:41:45.00	66.90	30.81	-49.2	-52.4	12.6	6.63e-05	0	56	0	522190848	61	5147
2026-01-05 07:41:45.99	66.61	30.91	-49.6	-53.1	11.9	1.17e-04	0	56	0	524288000	61	5574
2026-01-05 07:41:46.98	66.31	31.01	-49.7	-53.4	11.6	3.90e-04	0	56	0	526385152	61	5782
2026-01-05 07:41:47.97	66.01	31.11	-50.0	-54.3	10.6	2.59e-03	0	56	0	528482304	61	6348
2026-01-05 07:41:48.95	65.71	31.21	-49.8	-53.7	11.2	4.02e-03	0	56	0	529530880	62	5635
2026-01-05 07:41:49.94	65.41	31.31	-49.9	-54.0	10.9	1.77e-03	0	56	0	531628032	62	5805
2026-01-05 07:41:50.93	65.10	31.41	-50.1	-54.5	10.5	2.89e-03	0	56	0	533725184	62	6153
2026-01-05 07:41:51.92	64.79	31.51	-50.7	-55.8	9.1	1.13e-02	0	56	0	535822336	63	6760
2026-01-05 07:41:52.91	64.48	31.61	-50.4	-55.3	9.6	2.13e-02	0	56	0	537919488	63	6419
2026-01-05 07:41:53.90	64.17	31.71	-50.3	-55.0	9.9	1.90e-02	0	56	0	538968064	63	6148
2026-01-05 07:41:54.89	63.86	31.80	-50.2	-54.7	10.1	1.77e-02	0	56	0	541065216	63	5984
2026-01-05 07:41:55.87	63.55	31.90	-50.1	-54.7	10.2	5.00e-03	0	56	0	543162368	63	5932
2026-01-05 07:41:56.87	63.23	32.00	-50.4	-55.5	9.4	5.78e-03	0	56	0	545259520	63	6521
2026-01-05 07:41:57.86	62.91	32.09	-50.3	-55.1	9.8	1.50e-02	0	56	0	546308096	63	6259
2026-01-05 07:41:58.86	62.58	32.19	-50.2	-54.8	10.1	1.19e-02	0	56	0	548405248	63	6001
2026-01-05 07:41:59.85	62.26	32.28	-49.8	-53.9	11.0	7.61e-03	0	56	0	550502400	62	5731
2026-01-05 07:42:00.84	61.94	32.37	-49.7	-53.7	11.2	2.76e-03	0	56	0	552599552	62	5634
2026-01-05 07:42:01.83	61.61	32.46	-49.6	-53.5	11.4	1.25e-03	0	56	0	553648128	62	5473
2026-01-05 07:42:02.82	61.28	32.56	-49.4	-53.0	12.0	1.38e-04	0	56	0	555745280	61	5487
2026-01-05 07:42:03.80	60.95	32.64	-49.1	-52.4	12.6	1.69e-04	0	56	0	557842432	61	5129
2026-01-05 07:42:04.79	60.62	32.73	-49.0	-52.1	13.0	7.09e-05	0	56	0	559939584	61	4942
2026-01-05 07:42:05.78	60.29	32.82	-49.1	-52.3	12.7	6.71e-05	0	56	0	560988160	61	5061
2026-01-05 07:42:06.77	59.95	32.91	-49.4	-52.8	12.2	1.33e-04	0	56	0	563085312	61	5401
2026-01-05 07:42:07.76	59.62	33.00	-49.7	-53.5	11.5	3.16e-04	0	56	0	565182464	61	5814
2026-01-05 07:42:08.75	59.28	33.08	-49.6	-53.2	11.8	3.15e-04	0	56	0	567279616	61	5649
2026-01-05 07:42:09.74	58.94	33.17	-49.6	-53.2	11.8	5.30e-04	0	56	0	569376768	61	5650
2026-01-05 07:42:10.73	58.59	33.25	-49.4	-52.8	12.1	6.31e-04	0	56	0	570425344	61	5380
2026-01-05 07:42:11.72	58.25	33.34	-49.3	-52.7	12.2	1.37e-04	0	56	0	572522496	61	5318
2026-01-05 07:42:12.71	57.90	33.42	-49.4	-53.0	11.9	3.13e-04	0	56	0	574619648	61	5524
2026-01-05 07:42:13.70	57.55	33.50	-49.6	-53.5	11.4	4.24e-04	0	56	0	576716800	61	5837
2026-01-05 07:42:14.69	57.20	33.58	-49.8	-54.0	10.9	7.64e-04	0	56	0	577765376	61	6186
2026-01-05 07:42:15.68	56.85	33.66	-49.8	-54.2	10.8	1.83e-03	0	56	0	579862528	61	6279
2026-01-05 07:42:16.67	56.50	33.74	-49.5	-53.5	11.4	2.19e-03	0	56	0	581959680	61	5816
2026-01-05 07:42:17.66	56.14	33.82	-49.2	-52.7	12.2	3.21e-04	0	56	0	584056832	61	5324
2026-01-05 07:42:18.64	55.79	33.89	-49.0	-52.3	12.7	9.84e-05	0	56	0	585105408	60	5342
2026-01-05 07:42:19.64	55.43	33.97	-48.9	-52.3	12.7	3.50e-05	0	56	0	587202560	60	5360
2026-01-05 07:42:20.63	55.07	34.04	-49.1	-52.5	12.5	5.79e-05	0	56	0	589299712	60	5465
2026-01-05 07:42:21.63	54.70	34.12	-49.0	-52.2	12.8	7.78e-05	0	56	0	591396864	60	5335
2026-01-05 07:42:22.62	54.34	34.19	-48.7	-51.9	13.1	7.55e-05	0	56	0	593494016	60	5102
2026-01-05 07:42:23.61	53.97	34.26	-48.4	-51.0	14.0	4.50e-06	0	56	0	594542592	59	4885
2026-01-05 07:42:24.60	53.61	34.33	-48.3	-50.8	14.2	7.00e-07	0	56	0	596639744	59	4773
2026-01-05 07:42:25.58	53.24	34.40	-48.0	-50.4	14.7	0.00e+00	0	56	0	598736896	59	4556
2026-01-05 07:42:26.57	52.87	34.46	-47.5	-49.5	15.4	0.00e+00	0	56	0	600834048	58	4391
2026-01-05 07:42:27.55	52.51	34.53	-47.2	-49.1	15.9	0.00e+00	0	56	0	601882624	57	4430
2026-01-05 07:42:28.54	52.13	34.59	-47.7	-49.8	15.3	7.00e-07	0	56	0	603979776	57	4769
2026-01-05 07:42:29.52	51.76	34.66	-47.9	-50.0	15.0	0.00e+00	0	56	0	606076928	58	4615
2026-01-05 07:42:30.51	51.39	34.72	-47.7	-49.8	15.2	0.00e+00	0	56	0	608174080	58	4539
2026-01-05 07:42:31.50	51.01	34.78	-47.8	-50.0	15.2	0.00e+00	0	56	0	609222656	58	4611
2026-01-05 07:42:32.49	50.63	34.84	-47.7	-49.8	15.2	0.00e+00	0	56	0	611319808	58	4533
2026-01-05 07:42:33.48	50.25	34.90	-47.6	-49.7	15.4	0.00e+00	0	56	0	613416960	58	4469
2026-01-05 07:42:34.47	49.87	34.95	-48.0	-50.3	14.8	7.00e-07	0	56	0	615514112	58	4765
2026-01-05 07:42:35.46	49.49	35.01	-48.4	-51.0	14.0	7.00e-07	0	56	0	617611264	58	5184
2026-01-05 07:42:36.45	49.11	35.06	-48.9	-51.8	13.3	5.30e-06	0	56	0	618659840	59	5356
2026-01-05 07:42:37.43	48.72	35.11	-48.9	-51.8	13.3	2.97e-05	0	56	0	620756992	60	5087
2026-01-05 07:42:38.42	48.34	35.17	-48.4	-51.0	14.1	3.00e-06	0	56	0	622854144	59	4904
2026-01-05 07:42:39.40	47.95	35.22	-47.8	-50.0	15.1	0.00e+00	0	56	0	624951296	58	4627
2026-01-05 07:42:40.40	47.56	35.26	-47.5	-49.5	15.6	0.00e+00	0	56	0	625999872	58	4359
2026-01-05 07:42:41.39	47.17	35.31	-47.0	-48.8	16.2	0.00e+00	0	56	0	628097024	57	4271
2026-01-05 07:42:42.39	46.78	35.36	-46.9	-48.8	16.3	0.00e+00	0	57	0	630194176	56	4499
2026-01-05 07:42:43.38	46.39	35.40	-46.9	-48.7	16.3	0.00e+00	0	56	0	632291328	56	4451
2026-01-05 07:42:44.36	46.00	35.44	-46.9	-48.7	16.3	0.00e+00	0	56	0	634388480	56	4474
2026-01-05 07:42:45.36	45.60	35.49	-47.1	-48.9	16.0	0.00e+00	0	57	0	635437056	56	4593
2026-01-05 07:42:46.35	45.20	35.53	-47.2	-49.1	15.9	0.00e+00	0	56	0	637534208	56	4680
2026-01-05 07:42:47.34	44.81	35.56	-47.2	-49.0	16.0	0.00e+00	0	56	0	639631360	56	4638
2026-01-05 07:42:48.33	44.41	35.60	-47.5	-49.6	15.5	0.00e+00	0	56	0	641728512	56	4954
2026-01-05 07:42:49.32	44.01	35.64	-47.5	-49.5	15.5	0.00e+00	0	56	0	642777088	56	4886
2026-01-05 07:42:50.31	43.62	35.67	-47.5	-49.6	15.4	0.00e+00	0	56	0	644874240	56	4937
2026-01-05 07:42:51.30	43.22	35.70	-47.0	-48.7	16.3	0.00e+00	0	56	0	646971392	56	4474
2026-01-05 07:42:52.30	42.81	35.73	-46.7	-48.4	16.7	0.00e+00	0	57	0	649068544	56	4295
2026-01-05 07:42:53.29	42.41	35.76	-47.0	-48.7	16.3	0.00e+00	0	56	0	650117120	56	4475
2026-01-05 07:42:54.28	42.01	35.79	-47.4	-49.4	15.6	0.00e+00	0	56	0	652214272	56	4853
2026-01-05 07:42:55.27	41.61	35.81	-48.2	-50.6	14.5	0.00e+00	0	56	0	654311424	58	4956
2026-01-05 07:42:56.27	41.20	35.84	-48.5	-51.1	14.0	7.00e-07	0	57	0	656408576	58	5262
2026-01-05 07:42:57.26	40.80	35.86	-48.6	-51.2	13.9	3.00e-06	0	57	0	658505728	59	5024
2026-01-05 07:42:58.25	40.39	35.88	-48.4	-50.9	14.2	0.00e+00	0	56	0	659554304	59	4847
2026-01-05 07:42:59.25	39.99	35.90	-48.2	-50.6	14.6	7.00e-07	0	57	0	661651456	59	4679
2026-01-05 07:43:00.24	39.58	35.92	-48.1	-50.5	14.6	7.00e-07	0	56	0	663748608	59	4627
2026-01-05 07:43:01.24	39.17	35.94	-48.0	-50.2	14.9	1.50e-06	0	57	0	665845760	59	4469
2026-01-05 07:43:02.24	38.76	35.95	-48.2	-50.6	14.6	7.00e-07	0	56	0	666894336	59	4660
2026-01-05 07:43:03.22	38.36	35.96	-48.3	-50.7	14.4	7.00e-07	0	57	0	668991488	59	4728
2026-01-05 07:43:04.22	37.95	35.97	-48.1	-50.5	14.7	0.00e+00	0	56	0	671088640	59	4615
2026-01-05 07:43:05.20	37.55	35.98	-48.2	-50.5	14.6	0.00e+00	0	56	0	673185792	59	4611
2026-01-05 07:43:06.19	37.14	35.99	-48.5	-51.1	14.1	2.20e-06	0	57	0	674234368	59	4950
2026-01-05 07:43:07.19	36.73	36.00	-48.3	-50.7	14.4	0.00e+00	0	56	0	676331520	59	4726
2026-01-05 07:43:08.18	36.32	36.00	-48.0	-50.2	14.9	0.00e+00	0	57	0	678428672	59	4466
2026-01-05 07:43:09.16	35.92	36.01	-47.6	-49.6	15.4	0.00e+00	0	57	0	680525824	58	4441
2026-01-05 07:43:10.16	35.51	36.01	-47.9	-50.1	15.0	0.00e+00	0	57	0	682622976	58	4676
2026-01-05 07:43:11.16	35.10	36.01	-48.1	-50.5	14.6	0.00e+00	0	56	0	683671552	58	4884
2026-01-05 07:43:12.14	34.69	36.00	-48.4	-50.9	14.2	7.00e-07	0	56	0	685768704	58	5140
2026-01-05 07:43:13.13	34.29	36.00	-48.8	-51.6	13.6	2.20e-06	0	56	0	687865856	59	5228
2026-01-05 07:43:14.11	33.88	36.00	-48.3	-50.7	14.3	1.50e-06	0	56	0	689963008	59	4756
2026-01-05 07:43:15.11	33.47	35.99	-48.2	-50.6	14.5	2.20e-06	0	56	0	692060160	59	4680
2026-01-05 07:43:16.10	33.07	35.98	-48.7	-51.4	13.6	5.30e-06	0	56	0	693108736	59	5154
2026-01-05 07:43:17.09	32.66	35.97	-48.4	-51.1	13.9	1.37e-05	0	56	0	695205888	59	4983
2026-01-05 07:43:18.08	32.25	35.96	-48.7	-51.5	13.5	7.60e-06	0	56	0	697303040	59	5214
2026-01-05 07:43:19.06	31.85	35.94	-48.3	-50.8	14.3	4.50e-06	0	56	0	699400192	59	4787
2026-01-05 07:43:20.05	31.45	35.93	-48.0	-50.4	14.7	0.00e+00	0	57	0	700448768	58	4820
2026-01-05 07:43:21.04	31.04	35.91	-48.0	-50.3	14.7	0.00e+00	0	57	0	702545920	58	4803
2026-01-05 07:43:22.03	30.64	35.89	-48.1	-50.5	14.3	0.00e+00	0	56	0	704643072	58	4921
2026-01-05 07:43:23.02	30.23	35.87	-48.8	-51.8	13.2	2.20e-06	0	56	0	706740224	59	5342
2026-01-05 07:43:24.01	29.83	35.85	-49.0	-52.1	12.8	5.95e-05	0	56	0	707788800	60	5260
2026-01-05 07:43:25.00	29.43	35.83	-49.2	-52.8	12.1	9.76e-05	0	57	0	709885952	60	5663
2026-01-05 07:43:25.98	29.03	35.80	-48.8	-51.9	13.0	1.16e-04	0	57	0	711983104	60	5154
2026-01-05 07:43:26.97	28.63	35.78	-48.7	-51.7	13.3	1.75e-05	0	56	0	714080256	60	4988
2026-01-05 07:43:27.96	28.23	35.75	-48.5	-51.1	13.8	8.30e-06	0	56	0	715128832	60	4688
2026-01-05 07:43:28.95	27.83	35.72	-48.5	-51.2	13.8	1.50e-06	0	56	0	717225984	60	4722
2026-01-05 07:43:29.92	27.43	35.69	-48.8	-51.7	13.3	7.60e-06	0	57	0	719323136	60	4991
2026-01-05 07:43:30.91	27.03	35.66	-49.1	-52.4	12.7	4.73e-05	0	57	0	721420288	60	5406
2026-01-05 07:43:31.90	26.64	35.62	-49.3	-52.6	12.3	1.18e-04	0	56	0	723517440	60	5561
2026-01-05 07:43:32.89	26.24	35.59	-49.4	-53.0	11.9	4.55e-04	0	57	0	724566016	61	5479
2026-01-05 07:43:33.88	25.84	35.55	-50.1	-54.4	10.5	1.14e-03	0	57	0	726663168	61	6440
2026-01-05 07:43:34.88	25.44	35.51	-50.2	-55.0	9.8	6.97e-03	0	56	0	728760320	62	6521
2026-01-05 07:43:35.87	25.05	35.47	-50.4	-55.6	8.9	1.83e-02	0	57	0	730857472	62	7027
2026-01-05 07:43:36.86	24.66	35.43	-50.0	-54.7	9.7	1.56e-02	0	57	0	731906048	62	6305
2026-01-05 07:43:37.85	24.26	35.39	-49.9	-54.5	9.9	1.13e-02	0	56	0	734003200	62	6190
2026-01-05 07:43:38.83	23.88	35.34	-49.7	-54.3	10.1	4.95e-03	0	56	0	736100352	62	6050
2026-01-05 07:43:39.82	23.49	35.30	-49.7	-54.1	10.2	4.70e-03	0	57	0	738197504	62	5914
2026-01-05 07:43:40.81	23.10	35.25	-49.3	-53.1	11.3	2.68e-03	0	57	0	739246080	61	5575
2026-01-05 07:43:41.81	22.71	35.20	-49.2	-52.6	12.1	3.97e-04	0	56	0	741343232	61	5243
2026-01-05 07:43:42.80	22.32	35.15	-49.3	-52.8	12.0	3.16e-04	0	57	0	743440384	61	5381
2026-01-05 07:43:43.79	21.93	35.10	-49.6	-53.4	11.4	4.25e-04	0	57	0	745537536	61	5772
2026-01-05 07:43:44.78	21.55	35.04	-49.5	-53.1	11.8	4.79e-04	0	56	0	747634688	61	5580
2026-01-05 07:43:45.78	21.16	34.99	-49.1	-52.5	12.4	2.12e-04	0	57	0	748683264	61	5190
2026-01-05 07:43:46.77	20.78	34.93	-49.0	-52.3	12.7	1.34e-04	0	57	0	750780416	60	5344
2026-01-05 07:43:47.76	20.40	34.87	-48.9	-51.9	13.0	7.93e-05	0	56	0	752877568	60	5141
2026-01-05 07:43:48.75	20.02	34.82	-48.6	-51.4	13.5	3.50e-05	0	56	0	754974720	60	4847
2026-01-05 07:43:49.75	19.64	34.76	-48.4	-50.9	14.0	4.50e-06	0	56	0	756023296	59	4834
2026-01-05 07:43:50.74	19.27	34.69	-48.5	-51.1	13.9	2.20e-06	0	57	0	758120448	59	4968
2026-01-05 07:43:51.73	18.89	34.63	-48.8	-51.7	13.3	6.80e-06	0	57	0	760217600	59	5299
2026-01-05 07:43:52.72	18.52	34.57	-49.2	-52.4	12.5	5.87e-05	0	57	0	762314752	60	5438
2026-01-05 07:43:53.71	18.15	34.50	-49.8	-53.8	11.1	1.04e-03	0	57	0	764411904	61	6022
2026-01-05 07:43:54.69	17.78	34.44	-49.9	-54.2	10.7	1.73e-03	0	57	0	765460480	61	6339
2026-01-05 07:43:55.68	17.41	34.37	-49.8	-53.7	11.2	2.60e-03	0	57	0	767557632	61	5955
2026-01-05 07:43:56.68	17.04	34.30	-48.9	-52.0	13.0	4.81e-04	0	57	0	769654784	61	4900
2026-01-05 07:43:57.67	16.68	34.23	-47.9	-50.2	14.9	1.50e-06	0	56	0	771751936	58	4731
2026-01-05 07:43:58.66	16.31	34.16	-47.3	-49.3	15.7	0.00e+00	0	57	0	772800512	57	4496
2026-01-05 07:43:59.65	15.95	34.09	-47.3	-49.2	15.8	0.00e+00	0	57	0	774897664	57	4476
2026-01-05 07:44:00.64	15.59	34.01	-47.6	-49.8	15.2	0.00e+00	0	57	0	776994816	57	4760
2026-01-05 07:44:01.63	15.23	33.94	-48.4	-51.1	14.0	1.50e-06	0	56	0	779091968	58	5231
2026-01-05 07:44:02.63	14.87	33.86	-48.9	-51.9	13.1	1.37e-05	0	56	0	780140544	59	5430
2026-01-05 07:44:03.62	14.51	33.79	-49.0	-52.1	12.9	2.13e-05	0	57	0	782237696	59	5551
2026-01-05 07:44:04.61	14.16	33.71	-49.2	-52.7	12.3	1.44e-04	0	57	0	784334848	60	5628
2026-01-05 07:44:05.60	13.81	33.63	-49.1	-52.5	12.5	9.91e-05	0	57	0	786432000	60	5490
2026-01-05 07:44:06.59	13.46	33.55	-49.1	-52.4	12.6	1.28e-04	0	57	0	788529152	60	5437
2026-01-05 07:44:07.58	13.11	33.47	-48.9	-52.0	12.9	1.59e-04	0	56	0	789577728	60	5202
2026-01-05 07:44:08.56	12.76	33.39	-49.0	-52.2	12.8	2.89e-05	0	57	0	791674880	60	5291
2026-01-05 07:44:09.55	12.42	33.31	-49.1	-52.5	12.5	1.16e-04	0	57	0	793772032	60	5495
2026-01-05 07:44:10.54	12.08	33.22	-49.3	-52.8	12.2	1.31e-04	0	57	0	795869184	60	5681
2026-01-05 07:44:11.53	11.73	33.14	-49.0	-52.3	12.7	1.62e-04	0	57	0	796917760	60	5376
2026-01-05 07:44:12.51	11.40	33.05	-49.2	-52.8	12.1	1.89e-04	0	57	0	799014912	60	5686
2026-01-05 07:44:13.51	11.06	32.97	-49.3	-52.9	12.0	7.70e-04	0	57	0	801112064	61	5458
2026-01-05 07:44:14.49	10.72	32.88	-49.1	-52.7	12.2	3.68e-04	0	57	0	803209216	61	5298
2026-01-05 07:44:15.48	10.39	32.79	-48.8	-51.9	13.0	4.73e-05	0	57	0	804257792	60	5122
2026-01-05 07:44:16.47	10.06	32.70	-48.5	-51.1	13.9	3.80e-06	0	57	0	806354944	59	4979
2026-01-05 07:44:17.46	9.73	32.61	-48.6	-51.5	13.5	1.67e-05	0	57	0	808452096	59	5169
2026-01-05 07:44:18.45	9.40	32.52	-48.7	-51.7	13.4	1.60e-05	0	57	0	810549248	59	5310
2026-01-05 07:44:19.43	9.07	32.43	-48.5	-51.1	13.9	1.37e-05	0	57	0	811597824	59	4959
2026-01-05 07:44:20.42	8.75	32.34	-47.7	-50.0	14.9	0.00e+00	0	57	0	813694976	58	4611
2026-01-05 07:44:21.40	8.43	32.25	-47.6	-49.7	15.4	0.00e+00	0	56	0	815792128	58	4444
2026-01-05 07:44:22.39	8.11	32.15	-47.6	-49.7	15.3	0.00e+00	0	57	0	817889280	58	4464
2026-01-05 07:44:23.38	7.79	32.06	-48.1	-50.5	14.5	0.00e+00	0	57	0	819986432	58	4924
2026-01-05 07:44:24.37	7.47	31.96	-48.6	-51.4	13.7	3.00e-06	0	57	0	821035008	58	5418
2026-01-05 07:44:25.36	7.15	31.87	-49.2	-52.7	12.2	6.94e-05	0	57	0	823132160	60	5613
2026-01-05 07:44:26.35	6.84	31.77	-48.9	-52.0	12.9	1.03e-04	0	57	0	825229312	60	5212
2026-01-05 07:44:27.34	6.53	31.68	-48.9	-51.8	13.1	5.34e-05	0	57	0	827326464	60	5098
2026-01-05 07:44:28.31	6.22	31.58	-48.4	-51.0	14.0	1.06e-05	0	57	0	828375040	59	4879
2026-01-05 07:44:29.30	5.91	31.48	-48.5	-51.1	13.9	4.50e-06	0	57	0	830472192	59	4966
2026-01-05 07:44:30.29	5.61	31.38	-48.6	-51.1	13.9	7.00e-07	0	57	0	832569344	59	4970
2026-01-05 07:44:31.27	5.31	31.28	-48.6	-51.1	13.9	3.00e-06	0	57	0	834666496	59	4975
2026-01-05 07:44:32.27	5.00	31.18	-49.0	-51.9	13.1	1.06e-05	0	57	0	835715072	59	5457
2026-01-05 07:44:33.26	4.70	31.08	-49.5	-53.2	11.8	1.50e-04	0	57	0	837812224	61	5616
2026-01-05 07:44:34.25	4.40	30.98	-49.7	-53.4	11.8	7.38e-04	0	57	0	839909376	61	5756
2026-01-05 07:44:35.24	4.10	30.88	-49.6	-53.2	11.7	5.97e-04	0	57	0	842006528	61	5647
2026-01-05 07:44:36.22	3.81	30.78	-49.6	-53.2	11.8	4.66e-04	0	57	0	844103680	61	5631
2026-01-05 07:44:37.21	3.52	30.68	-49.7	-53.3	11.6	3.85e-04	0	57	0	845152256	61	5695
2026-01-05 07:44:38.20	3.23	30.57	-49.6	-53.1	11.9	5.34e-04	0	57	0	847249408	61	5554
2026-01-05 07:44:39.19	2.94	30.47	-49.3	-52.5	12.5	1.69e-04	0	57	0	849346560	61	5186
2026-01-05 07:44:40.17	2.65	30.37	-49.0	-52.1	13.0	7.32e-05	0	57	0	851443712	60	5225
2026-01-05 07:44:41.16	2.37	30.26	-48.9	-51.9	13.1	2.97e-05	0	57	0	852492288	60	5108
2026-01-05 07:44:42.15	2.08	30.16	-48.7	-51.6	13.2	2.05e-05	0	57	0	854589440	60	4947
2026-01-05 07:44:43.15	1.80	30.05	-49.0	-52.0	13.0	1.22e-05	0	57	0	856686592	60	5218
2026-01-05 07:44:44.14	1.52	29.94	-49.3	-52.7	12.2	9.38e-05	0	57	0	858783744	60	5633
2026-01-05 07:44:45.12	1.24	29.84	-49.3	-52.8	12.2	1.80e-04	0	57	0	859832320	60	5657
2026-01-05 07:44:46.11	0.97	29.73	-49.1	-52.3	12.7	1.47e-04	0	57	0	861929472	60	5355
2026-01-05 07:44:47.11	0.69	29.62	-49.1	-52.2	12.7	6.71e-05	0	57	0	864026624	60	5329
2026-01-05 07:44:48.09	0.42	29.52	-49.5	-53.1	11.9	9.84e-05	0	57	0	866123776	61	5547
2026-01-05 07:44:49.08	0.15	29.41	-49.3	-52.7	12.3	1.98e-04	0	57	0	867172352	61	5286
2026-01-05 07:44:50.07	359.88	29.30	-49.7	-53.3	11.7	4.07e-04	0	57	0	869269504	61	5669
2026-01-05 07:44:51.06	359.61	29.20	-49.4	-52.6	12.4	2.39e-04	0	57	0	871366656	61	5266
2026-01-05 07:44:52.05	359.35	29.09	-49.3	-52.5	12.4	1.79e-04	0	57	0	873463808	61	5202
2026-01-05 07:44:53.04	359.08	28.98	-49.3	-52.5	12.4	1.04e-04	0	57	0	875560960	61	5196
2026-01-05 07:44:54.03	358.82	28.87	-49.0	-52.1	12.8	4.27e-05	0	57	0	876609536	61	4947
2026-01-05 07:44:55.02	358.56	28.76	-48.9	-51.7	13.2	3.73e-05	0	57	0	878706688	60	5041
2026-01-05 07:44:56.01	358.30	28.65	-48.8	-51.7	13.3	1.06e-05	0	57	0	880803840	60	5014
2026-01-05 07:44:56.99	358.05	28.54	-48.5	-51.0	14.0	2.20e-06	0	57	0	882900992	60	4637
2026-01-05 07:44:57.99	357.79	28.43	-48.3	-50.6	14.4	1.50e-06	0	57	0	883949568	59	4690
2026-01-05 07:44:58.97	357.54	28.32	-48.3	-50.7	14.3	1.50e-06	0	57	0	886046720	59	4719
2026-01-05 07:44:59.95	357.29	28.21	-48.1	-50.4	14.6	0.00e+00	0	57	0	888143872	59	4561
2026-01-05 07:45:00.93	357.04	28.10	-48.2	-50.5	14.5	0.00e+00	0	57	0	890241024	59	4646
2026-01-05 07:45:01.93	356.79	27.99	-48.6	-51.2	13.8	1.50e-06	0	57	0	891289600	59	4986
2026-01-05 07:45:02.91	356.55	27.88	-48.6	-51.3	13.7	9.90e-06	0	57	0	893386752	59	5058
2026-01-05 07:45:03.90	356.31	27.77	-49.0	-51.9	13.2	7.60e-06	0	57	0	895483904	59	5406
2026-01-05 07:45:04.89	356.06	27.66	-48.9	-51.8	13.3	2.74e-05	0	57	0	897581056	60	5066
2026-01-05 07:45:05.88	355.82	27.55	-48.7	-51.4	13.7	6.80e-06	0	57	0	899678208	60	4832
2026-01-05 07:45:06.87	355.58	27.44	-48.4	-51.0	14.0	2.20e-06	0	57	0	900726784	59	4910
2026-01-05 07:45:07.86	355.35	27.33	-48.1	-50.4	14.6	0.00e+00	0	57	0	902823936	59	4592
2026-01-05 07:45:08.84	355.11	27.22	-47.9	-50.1	15.1	0.00e+00	0	57	0	904921088	58	4656
2026-01-05 07:45:09.84	354.88	27.11	-47.8	-50.0	15.1	0.00e+00	0	57	0	907018240	58	4614
2026-01-05 07:45:10.83	354.64	26.99	-48.1	-50.4	14.6	0.00e+00	0	57	0	908066816	58	4868
2026-01-05 07:45:11.82	354.41	26.88	-48.3	-50.8	14.3	1.50e-06	0	57	0	910163968	58	5049
2026-01-05 07:45:12.81	354.18	26.77	-48.8	-51.6	13.4	3.00e-06	0	57	0	912261120	59	5253
2026-01-05 07:45:13.81	353.95	26.66	-48.8	-51.6	13.4	2.89e-05	0	57	0	914358272	59	5254
2026-01-05 07:45:14.79	353.73	26.55	-48.3	-50.8	14.3	3.00e-06	0	57	0	915406848	59	4773
2026-01-05 07:45:15.78	353.50	26.44	-47.7	-49.8	15.1	0.00e+00	0	57	0	917504000	58	4526
2026-01-05 07:45:16.77	353.28	26.32	-47.2	-49.1	16.0	0.00e+00	0	57	0	919601152	57	4398
2026-01-05 07:45:17.76	353.06	26.21	-46.7	-48.5	16.5	0.00e+00	0	57	0	921698304	56	4349
2026-01-05 07:45:18.75	352.84	26.10	-46.8	-48.5	16.5	0.00e+00	0	57	0	923795456	56	4369
2026-01-05 07:45:19.74	352.62	25.99	-47.0	-48.9	16.1	0.00e+00	0	57	0	924844032	56	4556
2026-01-05 07:45:20.73	352.41	25.88	-46.9	-48.8	16.1	0.00e+00	0	57	0	926941184	56	4529
2026-01-05 07:45:21.72	352.19	25.77	-47.1	-48.9	16.0	0.00e+00	0	57	0	929038336	56	4588
2026-01-05 07:45:22.72	351.97	25.65	-46.8	-48.6	16.2	0.00e+00	0	57	0	931135488	56	4436
2026-01-05 07:45:23.70	351.76	25.54	-47.1	-48.9	16.0	0.00e+00	0	57	0	932184064	56	4592
2026-01-05 07:45:24.69	351.55	25.43	-47.0	-48.8	16.1	0.00e+00	0	57	0	934281216	56	4515
2026-01-05 07:45:25.68	351.35	25.32	-47.1	-48.9	16.0	0.00e+00	0	57	0	936378368	56	4580
2026-01-05 07:45:26.67	351.14	25.21	-47.1	-48.9	16.0	0.00e+00	0	57	0	938475520	56	4593
2026-01-05 07:45:27.65	350.93	25.10	-47.0	-48.9	16.0	0.00e+00	0	57	0	940572672	56	4547
2026-01-05 07:45:28.64	350.73	24.99	-46.8	-48.7	16.3	0.00e+00	0	57	0	941621248	56	4450
2026-01-05 07:45:29.62	350.53	24.88	-46.9	-48.7	16.2	0.00e+00	0	57	0	943718400	56	4481
2026-01-05 07:45:30.60	350.33	24.77	-47.1	-48.9	16.0	0.00e+00	0	57	0	945815552	56	4583
2026-01-05 07:45:31.59	350.13	24.65	-46.8	-48.6	16.3	0.00e+00	0	57	0	946864128	56	4413
2026-01-05 07:45:32.59	349.93	24.54	-47.0	-48.8	16.1	0.00e+00	0	57	0	948961280	56	4536
2026-01-05 07:45:33.58	349.73	24.43	-47.3	-49.2	15.8	0.00e+00	0	57	0	951058432	56	4749
2026-01-05 07:45:34.58	349.53	24.32	-47.4	-49.4	15.5	0.00e+00	0	57	0	953155584	56	4835
2026-01-05 07:45:35.57	349.34	24.21	-47.3	-49.1	15.8	0.00e+00	0	57	0	955252736	56	4705
2026-01-05 07:45:36.55	349.15	24.10	-47.4	-49.4	15.6	0.00e+00	0	57	0	956301312	56	4833
2026-01-05 07:45:37.56	348.95	23.99	-47.4	-49.4	15.5	0.00e+00	0	57	0	958398464	56	4822
2026-01-05 07:45:38.55	348.76	23.87	-47.2	-49.2	15.7	7.00e-07	0	57	0	960495616	56	4713
2026-01-05 07:45:39.53	348.57	23.77	-47.6	-49.7	15.3	0.00e+00	0	57	0	962592768	56	4998
2026-01-05 07:45:40.53	348.38	23.65	-47.6	-49.7	15.2	7.00e-07	0	57	0	963641344	57	4753
2026-01-05 07:45:41.51	348.20	23.55	-47.9	-50.3	14.6	0.00e+00	0	57	0	965738496	57	5094
2026-01-05 07:45:42.50	348.01	23.44	-48.0	-50.4	14.5	0.00e+00	0	57	0	967835648	57	5130
2026-01-05 07:45:43.49	347.83	23.33	-48.3	-50.8	14.3	3.00e-06	0	57	0	969932800	58	5059
2026-01-05 07:45:44.48	347.65	23.22	-48.2	-50.5	14.4	0.00e+00	0	57	0	972029952	58	4926
2026-01-05 07:45:45.46	347.47	23.11	-48.5	-51.1	13.9	1.50e-06	0	57	0	973078528	58	5237
2026-01-05 07:45:46.46	347.29	23.00	-48.5	-51.0	14.0	7.00e-07	0	57	0	975175680	59	4887
2026-01-05 07:45:47.44	347.11	22.89	-48.4	-50.9	14.0	1.50e-06	0	57	0	977272832	59	4835
2026-01-05 07:45:48.43	346.93	22.78	-48.3	-50.7	14.2	2.20e-06	0	57	0	979369984	59	4732
2026-01-05 07:45:49.41	346.76	22.67	-48.3	-50.7	14.1	4.50e-06	0	57	0	980418560	59	4755
2026-01-05 07:45:50.40	346.58	22.56	-48.4	-50.9	14.0	2.20e-06	0	57	0	982515712	59	4851
2026-01-05 07:45:51.40	346.41	22.45	-48.3	-50.8	14.1	7.00e-07	0	57	0	984612864	59	4807
2026-01-05 07:45:52.39	346.24	22.35	-48.4	-50.9	14.0	3.80e-06	0	57	0	986710016	59	4830
2026-01-05 07:45:53.38	346.06	22.24	-48.1	-50.4	14.5	0.00e+00	0	57	0	987758592	59	4569
2026-01-05 07:45:54.37	345.89	22.13	-47.9	-50.1	14.7	7.00e-07	0	57	0	989855744	58	4696
2026-01-05 07:45:55.36	345.73	22.02	-47.8	-50.0	14.9	7.00e-07	0	57	0	991952896	58	4611
2026-01-05 07:45:56.35	345.56	21.91	-47.8	-49.9	14.9	0.00e+00	0	57	0	994050048	58	4598
2026-01-05 07:45:57.34	345.39	21.81	-47.9	-50.2	14.6	0.00e+00	0	57	0	996147200	58	4746
2026-01-05 07:45:58.33	345.23	21.70	-48.2	-50.7	14.1	7.00e-07	0	57	0	997195776	58	5016
2026-01-05 07:45:59.32	345.06	21.59	-48.3	-50.9	13.9	2.20e-06	0	57	0	999292928	58	5131
2026-01-05 07:46:00.31	344.90	21.49	-48.0	-50.5	14.4	7.00e-07	0	57	0	1001390080	58	4888
2026-01-05 07:46:01.29	344.74	21.38	-48.3	-50.8	14.0	3.00e-06	0	57	0	1003487232	58	5065
2026-01-05 07:46:02.28	344.58	21.27	-47.7	-49.9	14.9	1.50e-06	0	57	0	1004535808	58	4578
2026-01-05 07:46:03.26	344.42	21.17	-47.6	-49.8	15.1	0.00e+00	0	57	0	1006632960	58	4496
2026-01-05 07:46:04.25	344.26	21.06	-47.3	-49.3	15.4	0.00e+00	0	57	0	1008730112	57	4539
2026-01-05 07:46:05.24	344.11	20.96	-47.4	-49.4	15.3	0.00e+00	0	57	0	1010827264	57	4597
2026-01-05 07:46:06.23	343.95	20.85	-47.0	-48.9	15.9	0.00e+00	0	57	0	1011875840	57	4305
2026-01-05 07:46:07.22	343.79	20.75	-47.1	-49.0	15.8	0.00e+00	0	57	0	1013972992	57	4362
2026-01-05 07:46:08.21	343.64	20.64	-47.7	-49.8	14.9	0.00e+00	0	57	0	1016070144	57	4803
2026-01-05 07:46:09.20	343.49	20.54	-47.6	-49.8	15.0	0.00e+00	0	57	0	1018167296	57	4760
2026-01-05 07:46:10.19	343.34	20.43	-48.0	-50.4	14.4	0.00e+00	0	57	0	1020264448	57	5135
2026-01-05 07:46:11.18	343.18	20.33	-47.6	-49.8	14.9	1.50e-06	0	57	0	1021313024	57	4761
2026-01-05 07:46:12.17	343.03	20.22	-47.4	-49.5	15.1	0.00e+00	0	57	0	1023410176	57	4639
2026-01-05 07:46:13.16	342.89	20.12	-47.4	-49.5	15.1	0.00e+00	0	57	0	1025507328	57	4629
2026-01-05 07:46:14.15	342.74	20.01	-47.5	-49.7	14.9	0.00e+00	0	57	0	1027604480	57	4741
2026-01-05 07:46:15.13	342.59	19.91	-47.6	-49.9	14.6	0.00e+00	0	57	0	1028653056	57	4852
2026-01-05 07:46:16.13	342.45	19.81	-47.4	-49.6	14.8	7.00e-07	0	57	0	1030750208	57	4676
2026-01-05 07:46:17.11	342.30	19.71	-47.3	-49.5	14.9	0.00e+00	0	57	0	1032847360	57	4604
2026-01-05 07:46:18.10	342.16	19.60	-47.6	-50.0	14.3	7.00e-07	0	57	0	1034944512	57	4892
2026-01-05 07:46:19.10	342.01	19.50	-48.1	-50.8	13.4	0.00e+00	0	57	0	1035993088	58	5062
2026-01-05 07:46:20.08	341.87	19.40	-48.4	-51.5	12.6	6.10e-05	0	57	0	1038090240	58	5502
2026-01-05 07:46:21.07	341.73	19.30	-49.2	-53.4	10.6	9.05e-04	0	57	0	1040187392	60	6080
2026-01-05 07:46:22.07	341.59	19.19	-49.4	-54.0	9.7	7.51e-03	0	57	0	1042284544	60	6551
2026-01-05 07:46:23.06	341.45	19.09	-49.6	-54.5	9.1	2.02e-02	0	57	0	1044381696	61	6565
2026-01-05 07:46:24.05	341.32	18.99	-49.6	-54.9	8.7	2.68e-02	0	57	0	1045430272	61	6835
2026-01-05 07:46:25.04	341.18	18.89	-49.7	-55.2	8.4	3.38e-02	0	57	0	1047527424	61	7116
2026-01-05 07:46:26.03	341.04	18.79	-50.1	-56.3	7.4	5.89e-02	0	57	0	1049624576	61	8022
2026-01-05 07:46:27.02	340.91	18.69	-50.2	-56.6	7.2	1.24e-01	0	57	0	1051721728	62	7873
2026-01-05 07:46:28.01	340.77	18.59	-50.5	-57.7	6.2	2.35e-01	0	57	0	1052770304	62	8951
2026-01-05 07:46:29.00	340.64	18.49	-50.3	-56.7	7.2	2.23e-01	0	57	0	1054867456	62	7951
2026-01-05 07:46:29.99	340.51	18.39	-50.0	-55.5	8.5	7.88e-02	0	57	0	1056964608	62	6918
2026-01-05 07:46:30.98	340.38	18.29	-49.7	-54.5	9.6	1.64e-02	0	57	0	1059061760	62	6133
2026-01-05 07:46:31.97	340.25	18.19	-49.3	-53.3	10.9	3.80e-03	0	57	0	1060110336	61	5682
2026-01-05 07:46:32.96	340.12	18.09	-48.9	-52.4	11.9	1.13e-03	0	57	0	1062207488	61	5135
2026-01-05 07:46:33.94	339.99	17.99	-48.7	-52.0	12.4	2.49e-04	0	57	0	1064304640	60	5182
2026-01-05 07:46:34.94	339.86	17.89	-48.7	-51.7	12.8	1.02e-04	0	57	0	1066401792	60	5039
2026-01-05 07:46:35.93	339.73	17.79	-48.6	-51.5	13.1	3.12e-05	0	57	0	1068498944	60	4902
2026-01-05 07:46:36.92	339.61	17.69	-48.8	-52.1	12.5	3.05e-05	0	57	0	1069547520	60	5225
2026-01-05 07:46:37.92	339.48	17.59	-48.5	-51.4	13.2	5.26e-05	0	57	0	1071644672	60	4855
2026-01-05 07:46:38.90	339.35	17.50	-48.8	-51.8	12.9	3.66e-05	0	57	0	1073741824	60	5065
2026-01-05 07:46:39.89	339.23	17.40	-48.9	-52.1	12.6	1.01e-04	0	57	0	1075838976	60	5255
2026-01-05 07:46:40.88	339.11	17.30	-49.1	-52.5	12.1	1.24e-04	0	57	0	1076887552	60	5497
2026-01-05 07:46:41.87	338.99	17.20	-49.4	-52.9	11.8	4.67e-04	0	57	0	1078984704	60	5742
2026-01-05 07:46:42.86	338.86	17.11	-49.5	-53.1	11.5	4.86e-04	0	57	0	1081081856	60	5903
2026-01-05 07:46:43.84	338.75	17.01	-49.7	-53.5	11.1	1.30e-03	0	57	0	1083179008	61	5833
2026-01-05 07:46:44.84	338.62	16.91	-49.6	-53.4	11.3	1.61e-03	0	57	0	1084227584	61	5745
2026-01-05 07:46:45.82	338.51	16.82	-49.0	-52.2	12.4	2.72e-04	0	57	0	1086324736	61	5011
2026-01-05 07:46:46.81	338.39	16.72	-48.5	-51.3	13.3	6.25e-05	0	57	0	1088421888	60	4803
2026-01-05 07:46:47.80	338.27	16.63	-48.1	-50.5	14.2	3.00e-06	0	57	0	1090519040	59	4649
2026-01-05 07:46:48.80	338.15	16.53	-47.7	-49.9	14.8	0.00e+00	0	57	0	1092616192	58	4584
2026-01-05 07:46:49.78	338.04	16.44	-47.5	-49.6	15.1	1.50e-06	0	57	0	1093664768	58	4403
2026-01-05 07:46:50.78	337.92	16.34	-47.3	-49.4	15.3	0.00e+00	0	57	0	1095761920	57	4568
2026-01-05 07:46:51.76	337.81	16.25	-47.2	-49.3	15.3	0.00e+00	0	57	0	1097859072	57	4517
2026-01-05 07:46:52.76	337.69	16.15	-47.5	-49.7	15.0	0.00e+00	0	57	0	1099956224	57	4727
2026-01-05 07:46:53.76	337.58	16.06	-47.7	-49.9	14.8	7.00e-07	0	57	0	1101004800	57	4845
2026-01-05 07:46:54.74	337.47	15.96	-47.7	-50.0	14.8	0.00e+00	0	57	0	1103101952	57	4876
2026-01-05 07:46:55.73	337.36	15.87	-47.8	-50.2	14.5	0.00e+00	0	57	0	1105199104	57	4984
2026-01-05 07:46:56.72	337.25	15.78	-47.9	-50.3	14.4	2.20e-06	0	57	0	1107296256	57	5043
2026-01-05 07:46:57.71	337.14	15.68	-47.8	-50.1	14.5	0.00e+00	0	57	0	1109393408	57	4978
2026-01-05 07:46:58.70	337.03	15.59	-47.8	-50.1	14.5	7.00e-07	0	57	0	1110441984	57	4967
2026-01-05 07:46:59.69	336.92	15.50	-47.7	-49.9	14.8	1.50e-06	0	57	0	1112539136	57	4851
2026-01-05 07:47:00.69	336.81	15.41	-47.8	-50.1	14.6	7.00e-07	0	57	0	1114636288	57	4931
2026-01-05 07:47:01.68	336.70	15.31	-47.8	-50.1	14.5	0.00e+00	0	57	0	1116733440	57	4967
2026-01-05 07:47:02.67	336.59	15.22	-47.9	-50.1	14.5	0.00e+00	0	57	0	1117782016	57	4966
2026-01-05 07:47:03.66	336.49	15.13	-47.9	-50.2	14.5	0.00e+00	0	57	0	1119879168	57	5006
2026-01-05 07:47:04.65	336.38	15.04	-48.2	-50.6	14.1	1.50e-06	0	57	0	1121976320	58	4958
2026-01-05 07:47:05.64	336.28	14.95	-48.3	-50.8	13.9	1.50e-06	0	57	0	1124073472	58	5055
2026-01-05 07:47:06.63	336.17	14.86	-48.1	-50.4	14.2	0.00e+00	0	57	0	1125122048	58	4864
2026-01-05 07:47:07.62	336.07	14.77	-48.2	-50.6	14.0	1.50e-06	0	57	0	1127219200	58	4980
2026-01-05 07:47:08.61	335.97	14.68	-48.1	-50.6	14.1	7.00e-07	0	57	0	1129316352	58	4944
2026-01-05 07:47:09.60	335.87	14.59	-48.2	-50.6	14.1	2.20e-06	0	57	0	1131413504	58	4960
2026-01-05 07:47:10.59	335.76	14.50	-48.2	-50.6	14.0	1.50e-06	0	57	0	1133510656	58	4983
2026-01-05 07:47:11.58	335.66	14.41	-48.3	-50.7	14.1	3.00e-06	0	57	0	1134559232	58	5038
2026-01-05 07:47:12.56	335.57	14.32	-48.2	-50.6	14.1	7.00e-07	0	57	0	1136656384	58	4972
2026-01-05 07:47:13.54	335.47	14.23	-48.1	-50.5	14.2	1.50e-06	0	57	0	1138753536	58	4907
2026-01-05 07:47:14.53	335.37	14.14	-48.1	-50.5	14.2	7.00e-07	0	57	0	1140850688	58	4889
2026-01-05 07:47:15.52	335.27	14.05	-48.3	-50.8	14.0	1.50e-06	0	57	0	1141899264	58	5066
2026-01-05 07:47:16.52	335.17	13.96	-48.5	-51.1	13.6	1.37e-05	0	57	0	1143996416	58	5245
2026-01-05 07:47:17.50	335.07	13.87	-48.5	-51.1	13.6	9.90e-06	0	57	0	1146093568	59	4951
2026-01-05 07:47:18.50	334.98	13.79	-48.8	-51.7	13.0	1.67e-05	0	57	0	1148190720	59	5332
2026-01-05 07:47:19.49	334.88	13.70	-49.1	-52.1	12.6	4.57e-05	0	57	0	1149239296	59	5587
2026-01-05 07:47:20.47	334.79	13.61	-49.2	-52.5	12.1	2.00e-04	0	57	0	1151336448	60	5514
2026-01-05 07:47:21.46	334.69	13.52	-49.4	-52.9	11.8	2.68e-04	0	57	0	1153433600	60	5740
2026-01-05 07:47:22.45	334.60	13.44	-49.6	-53.4	11.2	8.39e-04	0	57	0	1155530752	61	5770
2026-01-05 07:47:23.44	334.50	13.35	-49.7	-53.6	11.0	1.32e-03	0	57	0	1156579328	61	5894
2026-01-05 07:47:24.43	334.41	13.26	-49.7	-53.8	10.8	2.34e-03	0	57	0	1158676480	61	6036
2026-01-05 07:47:25.42	334.32	13.18	-49.6	-53.4	11.2	1.55e-03	0	57	0	1160773632	61	5777
2026-01-05 07:47:26.41	334.23	13.09	-49.4	-53.1	11.5	9.42e-04	0	57	0	1162870784	61	5565
2026-01-05 07:47:27.40	334.14	13.00	-49.2	-52.7	11.9	4.54e-04	0	57	0	1164967936	61	5322
2026-01-05 07:47:28.39	334.04	12.92	-49.1	-52.5	12.2	2.95e-04	0	57	0	1166016512	61	5181
2026-01-05 07:47:29.37	333.96	12.83	-49.0	-52.3	12.3	2.07e-04	0	57	0	1168113664	61	5057
2026-01-05 07:47:30.36	333.87	12.75	-48.9	-52.1	12.6	1.57e-04	0	57	0	1170210816	60	5227
2026-01-05 07:47:31.35	333.78	12.66	-48.9	-52.1	12.5	1.61e-04	0	57	0	1172307968	60	5222
2026-01-05 07:47:32.34	333.69	12.58	-48.7	-51.6	13.0	4.88e-05	0	57	0	1173356544	60	4972
2026-01-05 07:47:33.33	333.60	12.49	-48.3	-51.0	13.7	2.59e-05	0	57	0	1175453696	59	4892
2026-01-05 07:47:34.32	333.51	12.41	-48.2	-50.8	13.9	1.50e-06	0	57	0	1177550848	59	4800
2026-01-05 07:47:35.31	333.43	12.33	-48.2	-50.7	13.9	1.50e-06	0	57	0	1179648000	59	4751
2026-01-05 07:47:36.31	333.34	12.24	-48.2	-50.7	14.0	6.10e-06	0	57	0	1181745152	59	4723
2026-01-05 07:47:37.30	333.25	12.16	-48.1	-50.5	14.1	1.50e-06	0	57	0	1182793728	59	4632
2026-01-05 07:47:38.28	333.17	12.07	-48.1	-50.6	14.0	1.50e-06	0	57	0	1184890880	59	4701
2026-01-05 07:47:39.28	333.08	11.99	-48.0	-50.4	14.2	1.50e-06	0	57	0	1186988032	59	4559
2026-01-05 07:47:40.26	333.00	11.91	-47.8	-50.1	14.5	0.00e+00	0	57	0	1189085184	58	4663
2026-01-05 07:47:41.25	332.91	11.83	-47.7	-50.0	14.6	0.00e+00	0	57	0	1190133760	58	4615
2026-01-05 07:47:42.25	332.83	11.74	-47.6	-49.8	14.8	7.00e-07	0	57	0	1192230912	58	4541
2026-01-05 07:47:43.24	332.75	11.66	-47.7	-49.9	14.7	7.00e-07	0	57	0	1194328064	58	4566
2026-01-05 07:47:44.23	332.66	11.58	-47.8	-50.2	14.4	7.00e-07	0	57	0	1196425216	58	4715
2026-01-05 07:47:45.21	332.58	11.50	-47.7	-50.0	14.6	7.00e-07	0	57	0	1197473792	58	4612
2026-01-05 07:47:46.20	332.50	11.41	-47.7	-50.0	14.6	0.00e+00	0	57	0	1199570944	58	4624
2026-01-05 07:47:47.19	332.42	11.33	-47.7	-50.1	14.5	0.00e+00	0	57	0	1201668096	58	4662
2026-01-05 07:47:48.19	332.34	11.25	-47.7	-50.0	14.6	0.00e+00	0	57	0	1203765248	58	4618
2026-01-05 07:47:49.18	332.26	11.17	-47.9	-50.2	14.4	1.50e-06	0	57	0	1205862400	58	4725
2026-01-05 07:47:50.17	332.18	11.09	-47.8	-50.2	14.4	1.50e-06	0	57	0	1206910976	58	4731
2026-01-05 07:47:51.16	332.10	11.01	-48.0	-50.6	14.0	1.50e-06	0	57	0	1209008128	58	4950
2026-01-05 07:47:52.16	332.02	10.93	-48.0	-50.6	14.0	0.00e+00	0	57	0	1211105280	58	4928
2026-01-05 07:47:53.15	331.94	10.85	-48.2	-50.8	13.8	2.20e-06	0	57	0	1213202432	58	5076
2026-01-05 07:47:54.14	331.86	10.77	-48.3	-50.9	13.7	6.80e-06	0	57	0	1214251008	58	5117
2026-01-05 07:47:55.14	331.79	10.69	-48.3	-50.9	13.6	5.30e-06	0	57	0	1216348160	58	5146
2026-01-05 07:47:56.13	331.71	10.61	-48.5	-51.3	13.2	1.75e-05	0	57	0	1218445312	58	5400
2026-01-05 07:47:57.12	331.63	10.53	-48.4	-51.1	13.4	1.52e-05	0	57	0	1220542464	58	5270
2026-01-05 07:47:58.11	331.56	10.45	-48.4	-51.2	13.4	1.22e-05	0	57	0	1222639616	58	5308
2026-01-05 07:47:59.10	331.48	10.37	-48.6	-51.5	13.1	1.44e-05	0	57	0	1223688192	59	5185
2026-01-05 07:48:00.09	331.40	10.29	-48.5	-51.4	13.2	2.05e-05	0	57	0	1225785344	59	5107
2026-01-05 07:48:01.08	331.33	10.21	-48.5	-51.4	13.1	2.28e-05	0	57	0	1227882496	59	5136
2026-01-05 07:48:02.08	331.25	10.13	-48.7	-51.7	12.9	3.66e-05	0	57	0	1229979648	59	5304
2026-01-05 07:48:03.07	331.18	10.05	-48.6	-51.4	13.1	3.20e-05	0	57	0	1231028224	59	5156
2026-01-05 07:48:04.05	331.11	9.98	-48.6	-51.5	13.1	3.81e-05	0	57	0	1233125376	59	5174
