passes_logs/2026/01/05/R3.0SM8_Murmansk_STILSPACE/R3.0SM8_Murmansk_STILSPACE__20260105_102525_FENGYUN_3E_rec.log

#Pass ID: 20260105_102525_FENGYUN 3E
#Satellite: FENGYUN 3E
#Configuration: FENGYUN 3E
#almurnet v.1.7.20240730
#Start time: 2026-01-05 10:30:51

#Version: 2.2.20231116
#Station: R3.0SM8_Murmansk_STILSPACE
#Location: 33.092731 lon 68.902999 lat
#TLE: 1 49008U 21062A   26004.29457719  .00000106  00000+0  70678-4 0  9996
#TLE: 2 49008  98.7471   9.5487 0001503 159.9821 200.1414 14.19883545233329

#Time	Az	El	Level	Level2	SNR	BER	BlckErr	Temp	State	Recorded	gain1	gain2
2026-01-05 10:30:51.17	27.33	24.54	-52.6	-63.4	3.8	8.47e-01	0	56	0	0	67	12898
2026-01-05 10:30:52.15	27.06	24.58	-52.5	-62.8	3.8	8.46e-01	0	57	104	0	67	11884
2026-01-05 10:30:53.13	26.78	24.61	-52.6	-62.8	3.8	8.46e-01	0	57	104	0	67	11904
2026-01-05 10:30:54.12	26.50	24.64	-52.6	-62.8	3.8	8.46e-01	0	57	104	0	67	11901
2026-01-05 10:30:55.11	26.22	24.67	-52.5	-62.8	3.8	8.46e-01	0	58	104	0	67	11903
2026-01-05 10:30:56.09	25.94	24.70	-52.6	-62.8	3.8	8.47e-01	0	58	104	0	67	11873
2026-01-05 10:30:57.09	25.66	24.73	-52.6	-62.8	3.8	8.45e-01	0	57	104	0	67	11887
2026-01-05 10:30:58.08	25.37	24.76	-52.5	-62.8	3.8	8.46e-01	0	57	104	0	67	11931
2026-01-05 10:30:59.07	25.09	24.78	-52.5	-62.8	3.8	8.45e-01	0	57	104	0	67	11879
2026-01-05 10:31:00.05	24.81	24.81	-52.5	-62.8	3.8	8.46e-01	0	58	104	0	67	11875
2026-01-05 10:31:01.05	24.52	24.84	-52.6	-62.7	3.8	8.47e-01	0	57	104	0	67	11782
2026-01-05 10:31:02.04	24.24	24.86	-52.5	-62.7	3.8	8.45e-01	0	57	104	0	67	11807
2026-01-05 10:31:03.03	23.95	24.89	-52.5	-62.7	3.8	8.47e-01	0	57	104	0	67	11768
2026-01-05 10:31:04.02	23.67	24.91	-52.4	-62.7	3.8	8.46e-01	0	57	104	0	67	11714
2026-01-05 10:31:05.00	23.39	24.93	-52.5	-62.6	3.8	8.47e-01	0	58	104	0	67	11641
2026-01-05 10:31:06.00	23.10	24.96	-52.5	-62.7	3.8	8.46e-01	0	57	104	0	67	11743
2026-01-05 10:31:06.98	22.81	24.98	-52.5	-62.7	3.8	8.47e-01	0	57	104	0	67	11703
2026-01-05 10:31:07.98	22.52	25.00	-52.5	-62.6	3.8	8.45e-01	0	58	104	0	67	11659
2026-01-05 10:31:08.97	22.24	25.02	-52.4	-62.6	3.8	8.47e-01	0	58	104	0	67	11631
2026-01-05 10:31:09.96	21.95	25.04	-52.3	-62.5	3.8	8.46e-01	0	58	104	0	67	11545
2026-01-05 10:31:10.95	21.66	25.06	-51.6	-61.8	3.8	8.46e-01	0	58	104	0	66	11202
2026-01-05 10:31:11.93	21.38	25.07	-51.4	-61.6	3.8	8.45e-01	0	58	104	0	64	12343
2026-01-05 10:31:12.93	21.08	25.09	-51.8	-61.9	3.8	8.46e-01	0	58	104	0	65	11976
2026-01-05 10:31:13.91	20.80	25.11	-51.9	-61.8	3.8	8.47e-01	0	57	104	0	65	11922
2026-01-05 10:31:14.90	20.51	25.12	-51.9	-62.1	3.8	8.47e-01	0	57	104	0	65	12282
2026-01-05 10:31:15.89	20.22	25.14	-51.9	-62.0	3.8	8.45e-01	0	57	104	0	65	12167
2026-01-05 10:31:16.88	19.93	25.15	-51.9	-61.9	3.8	8.47e-01	0	58	104	0	65	11963
2026-01-05 10:31:17.88	19.64	25.17	-51.9	-61.8	3.8	8.46e-01	0	57	104	0	65	11855
2026-01-05 10:31:18.87	19.35	25.18	-51.8	-61.5	3.8	8.45e-01	0	57	104	0	65	11548
2026-01-05 10:31:19.86	19.06	25.19	-51.9	-61.7	3.8	8.46e-01	0	58	104	0	65	11716
2026-01-05 10:31:20.85	18.77	25.20	-51.9	-61.7	3.8	8.45e-01	0	58	104	0	65	11702
2026-01-05 10:31:21.85	18.47	25.21	-51.8	-61.9	3.8	8.46e-01	0	58	104	0	65	11994
2026-01-05 10:31:22.84	18.18	25.22	-51.9	-62.0	3.8	8.46e-01	0	57	104	0	65	12174
2026-01-05 10:31:23.82	17.89	25.23	-51.9	-61.9	3.8	8.47e-01	0	58	104	0	65	12060
2026-01-05 10:31:24.81	17.60	25.23	-51.8	-61.8	3.8	8.45e-01	0	58	104	0	65	11849
2026-01-05 10:31:25.80	17.31	25.24	-51.8	-61.8	3.8	8.46e-01	0	58	104	0	65	11846
2026-01-05 10:31:26.78	17.02	25.25	-51.8	-61.1	3.8	8.48e-01	0	57	104	0	65	10904
2026-01-05 10:31:27.77	16.73	25.25	-51.9	-61.7	3.8	8.47e-01	0	58	104	0	65	11798
2026-01-05 10:31:28.76	16.44	25.26	-51.7	-60.9	3.8	8.45e-01	0	57	104	0	65	10766
2026-01-05 10:31:29.75	16.15	25.26	-51.7	-60.9	3.8	8.46e-01	0	58	104	0	65	10670
2026-01-05 10:31:30.74	15.85	25.26	-51.7	-60.8	3.8	8.46e-01	0	58	104	0	65	10628
2026-01-05 10:31:31.74	15.56	25.26	-51.6	-60.2	3.8	8.45e-01	0	58	104	0	65	9912
2026-01-05 10:31:32.74	15.26	25.26	-51.5	-59.4	3.8	8.45e-01	0	58	104	0	65	9057
2026-01-05 10:31:33.73	14.97	25.26	-51.7	-60.7	3.8	8.45e-01	0	58	104	0	65	10444
2026-01-05 10:31:34.72	14.68	25.26	-51.9	-61.7	3.8	8.46e-01	0	58	104	0	65	11802
2026-01-05 10:31:35.71	14.39	25.26	-51.8	-60.8	3.8	8.46e-01	0	58	104	0	65	10550
2026-01-05 10:31:36.70	14.10	25.26	-51.8	-61.1	3.8	8.46e-01	0	58	104	0	65	10966
2026-01-05 10:31:37.69	13.81	25.26	-51.9	-61.4	3.8	8.46e-01	0	58	104	0	65	11320
2026-01-05 10:31:38.68	13.51	25.25	-51.8	-60.9	3.8	8.44e-01	0	58	104	0	65	10763
2026-01-05 10:31:39.66	13.22	25.25	-51.7	-60.7	3.8	8.46e-01	0	58	104	0	65	10469
2026-01-05 10:31:40.65	12.93	25.24	-51.2	-57.7	4.5	8.40e-01	0	58	0	0	65	7411
2026-01-05 10:31:41.63	12.64	25.24	-49.7	-53.1	7.8	1.32e-01	0	57	0	3145728	62	5203
2026-01-05 10:31:42.62	12.35	25.23	-48.0	-50.0	11.0	5.37e-03	0	58	0	10485760	59	4321
2026-01-05 10:31:43.61	12.06	25.22	-46.4	-47.8	13.3	1.18e-04	0	58	0	16777216	55	4206
2026-01-05 10:31:44.61	11.77	25.21	-45.5	-46.7	14.4	1.10e-06	0	58	0	24117248	53	4150
2026-01-05 10:31:45.59	11.48	25.20	-45.4	-46.5	14.5	0.00e+00	0	58	0	31457280	53	4092
2026-01-05 10:31:46.58	11.19	25.19	-46.0	-47.3	13.5	2.20e-06	0	58	0	38797312	53	4484
2026-01-05 10:31:47.56	10.90	25.18	-46.7	-48.4	12.1	2.14e-04	0	58	0	46137344	55	4511
2026-01-05 10:31:48.55	10.61	25.17	-47.5	-49.6	10.8	1.53e-03	0	58	0	53477376	56	4894
2026-01-05 10:31:49.54	10.32	25.16	-48.1	-50.8	9.3	1.26e-02	0	58	0	59768832	57	5306
2026-01-05 10:31:50.53	10.03	25.14	-48.7	-52.1	7.8	6.59e-02	0	58	0	67108864	59	5511
2026-01-05 10:31:51.52	9.74	25.13	-49.2	-53.4	6.6	1.53e-01	0	58	0	74448896	60	6001
2026-01-05 10:31:52.51	9.45	25.11	-49.2	-53.3	6.6	2.77e-01	0	58	0	81788928	60	5958
2026-01-05 10:31:53.51	9.16	25.10	-48.2	-51.0	8.8	4.90e-02	0	58	0	89128960	59	4866
2026-01-05 10:31:54.50	8.87	25.08	-46.7	-48.7	11.4	3.97e-03	0	58	0	95420416	56	4398
2026-01-05 10:31:55.49	8.58	25.06	-45.3	-46.6	13.5	2.17e-05	0	58	0	102760448	53	4137
2026-01-05 10:31:56.47	8.30	25.04	-43.9	-44.9	15.5	0.00e+00	0	58	0	110100480	50	4047
2026-01-05 10:31:57.46	8.01	25.03	-42.7	-43.4	17.2	0.00e+00	0	58	0	117440512	48	3823
2026-01-05 10:31:58.45	7.72	25.01	-41.6	-42.2	18.3	0.00e+00	0	58	0	124780544	46	3718
2026-01-05 10:31:59.44	7.44	24.99	-40.9	-41.5	19.2	0.00e+00	0	58	0	132120576	44	3844
2026-01-05 10:32:00.43	7.15	24.96	-40.6	-41.1	19.6	0.00e+00	0	58	0	138412032	44	3679
2026-01-05 10:32:01.42	6.86	24.94	-40.6	-41.1	19.8	0.00e+00	0	58	0	145752064	44	3679
2026-01-05 10:32:02.41	6.58	24.92	-40.4	-40.9	20.0	0.00e+00	0	58	0	153092096	43	3793
2026-01-05 10:32:03.40	6.29	24.90	-40.4	-41.0	19.9	0.00e+00	0	58	0	160432128	43	3829
2026-01-05 10:32:04.39	6.01	24.87	-40.4	-40.9	20.0	0.00e+00	0	58	0	167772160	43	3808
2026-01-05 10:32:05.38	5.72	24.85	-40.2	-40.7	20.1	0.00e+00	0	58	0	174063616	43	3734
2026-01-05 10:32:06.37	5.44	24.82	-40.4	-40.9	19.9	0.00e+00	0	58	0	181403648	43	3800
2026-01-05 10:32:07.35	5.16	24.79	-41.1	-41.7	19.0	0.00e+00	0	58	0	188743680	43	4186
2026-01-05 10:32:08.34	4.88	24.77	-42.7	-43.5	16.9	0.00e+00	0	58	0	196083712	46	4307
2026-01-05 10:32:09.33	4.59	24.74	-44.0	-45.1	15.2	0.00e+00	0	58	0	203423744	49	4355
2026-01-05 10:32:10.31	4.31	24.71	-45.4	-46.9	13.1	1.83e-05	0	58	0	209715200	52	4511
2026-01-05 10:32:11.31	4.03	24.68	-46.0	-47.7	12.2	1.76e-04	0	58	0	217055232	53	4673
2026-01-05 10:32:12.30	3.75	24.65	-45.8	-47.3	12.7	1.25e-04	0	58	0	224395264	53	4485
2026-01-05 10:32:13.29	3.47	24.62	-44.8	-46.0	14.3	2.20e-06	0	58	0	231735296	52	4095
2026-01-05 10:32:14.29	3.19	24.59	-43.8	-44.7	16.1	0.00e+00	0	58	0	239075328	50	3953
2026-01-05 10:32:15.28	2.91	24.55	-42.8	-43.5	17.6	0.00e+00	0	58	0	246415360	48	3836
2026-01-05 10:32:16.27	2.63	24.52	-41.9	-42.5	18.6	0.00e+00	0	58	0	253755392	46	3859
2026-01-05 10:32:17.25	2.35	24.49	-41.8	-42.4	18.8	0.00e+00	0	58	0	260046848	46	3813
2026-01-05 10:32:18.24	2.08	24.45	-42.1	-42.7	18.5	0.00e+00	0	58	0	267386880	46	3948
2026-01-05 10:32:19.23	1.80	24.42	-42.5	-43.1	18.2	0.00e+00	0	58	0	274726912	46	4134
2026-01-05 10:32:20.21	1.53	24.38	-42.6	-43.3	18.0	0.00e+00	0	58	0	281018368	46	4224
2026-01-05 10:32:21.21	1.25	24.34	-42.7	-43.4	17.9	0.00e+00	0	58	0	288358400	47	4010
2026-01-05 10:32:22.20	0.97	24.31	-42.6	-43.3	17.9	0.00e+00	0	58	0	295698432	47	3998
2026-01-05 10:32:23.18	0.70	24.27	-42.7	-43.4	17.9	0.00e+00	0	58	0	303038464	47	4042
2026-01-05 10:32:24.17	0.43	24.23	-42.8	-43.6	17.8	0.00e+00	0	58	0	310378496	47	4108
2026-01-05 10:32:25.16	0.15	24.19	-43.0	-43.7	17.7	0.00e+00	0	58	0	316669952	47	4164
2026-01-05 10:32:26.14	359.88	24.15	-42.6	-43.2	18.1	0.00e+00	0	58	0	324009984	47	3956
2026-01-05 10:32:27.13	359.61	24.11	-42.0	-42.6	18.7	0.00e+00	0	58	0	331350016	46	3887
2026-01-05 10:32:28.12	359.34	24.07	-41.4	-42.0	19.3	0.00e+00	0	58	0	338690048	45	3851
2026-01-05 10:32:29.10	359.08	24.03	-40.9	-41.4	19.8	0.00e+00	0	58	0	346030080	44	3824
2026-01-05 10:32:30.09	358.81	23.99	-40.5	-41.0	20.2	0.00e+00	0	58	0	353370112	44	3638
2026-01-05 10:32:31.08	358.54	23.94	-40.1	-40.6	20.6	0.00e+00	0	58	0	359661568	43	3662
2026-01-05 10:32:32.07	358.27	23.90	-40.0	-40.4	20.7	0.00e+00	0	58	0	367001600	42	3822
2026-01-05 10:32:33.06	358.00	23.86	-40.2	-40.6	20.5	0.00e+00	0	58	0	374341632	42	3913
2026-01-05 10:32:34.05	357.74	23.81	-40.2	-40.7	20.4	0.00e+00	0	58	0	381681664	42	3941
2026-01-05 10:32:35.04	357.47	23.77	-40.4	-41.0	20.2	0.00e+00	0	58	0	389021696	42	4066
2026-01-05 10:32:36.03	357.21	23.72	-40.6	-41.1	20.0	0.00e+00	0	58	0	395313152	42	4143
2026-01-05 10:32:37.02	356.94	23.67	-40.5	-41.0	20.2	0.00e+00	0	58	0	402653184	42	4074
2026-01-05 10:32:38.00	356.68	23.63	-40.6	-41.1	20.1	0.00e+00	0	58	0	409993216	42	4117
2026-01-05 10:32:38.99	356.42	23.58	-40.9	-41.5	19.7	0.00e+00	0	58	0	417333248	43	4062
2026-01-05 10:32:39.98	356.16	23.53	-40.8	-41.4	19.8	0.00e+00	0	58	0	424673280	43	4024
2026-01-05 10:32:40.97	355.90	23.48	-40.8	-41.3	19.9	0.00e+00	0	58	0	432013312	43	3982
2026-01-05 10:32:41.96	355.64	23.43	-40.8	-41.4	19.8	0.00e+00	0	58	0	438304768	43	4007
2026-01-05 10:32:42.95	355.38	23.38	-40.9	-41.4	19.8	0.00e+00	0	58	0	445644800	43	4042
2026-01-05 10:32:43.94	355.12	23.33	-41.0	-41.5	19.7	0.00e+00	0	58	0	452984832	43	4079
2026-01-05 10:32:44.93	354.86	23.28	-41.2	-41.7	19.4	0.00e+00	0	58	0	460324864	43	4180
2026-01-05 10:32:45.92	354.60	23.23	-41.6	-42.2	19.1	0.00e+00	0	58	0	467664896	45	3944
2026-01-05 10:32:46.92	354.35	23.18	-41.3	-41.8	19.4	0.00e+00	0	58	0	473956352	45	3770
2026-01-05 10:32:47.91	354.09	23.13	-40.9	-41.4	19.8	0.00e+00	0	58	0	481296384	44	3823
2026-01-05 10:32:48.90	353.84	23.07	-40.6	-41.1	20.1	0.00e+00	0	58	0	488636416	44	3662
2026-01-05 10:32:49.89	353.58	23.02	-40.3	-40.8	20.3	0.00e+00	0	58	0	495976448	43	3779
2026-01-05 10:32:50.88	353.33	22.96	-40.3	-40.8	20.3	0.00e+00	0	58	0	503316480	43	3761
2026-01-05 10:32:51.87	353.08	22.91	-40.4	-40.9	20.2	0.00e+00	0	58	0	510656512	43	3798
2026-01-05 10:32:52.85	352.83	22.86	-40.2	-40.7	20.4	0.00e+00	0	58	0	516947968	43	3730
2026-01-05 10:32:53.84	352.58	22.80	-40.6	-41.1	20.0	0.00e+00	0	58	0	524288000	43	3892
2026-01-05 10:32:54.83	352.33	22.74	-40.4	-41.0	20.2	0.00e+00	0	58	0	531628032	43	3829
2026-01-05 10:32:55.82	352.09	22.69	-40.6	-41.1	19.9	0.00e+00	0	58	0	538968064	43	3899
2026-01-05 10:32:56.81	351.84	22.63	-41.0	-41.6	19.5	0.00e+00	0	58	0	545259520	43	4101
2026-01-05 10:32:57.81	351.59	22.57	-40.9	-41.4	19.7	0.00e+00	0	58	0	552599552	43	4039
2026-01-05 10:32:58.79	351.35	22.52	-40.5	-41.0	20.1	0.00e+00	0	58	0	559939584	43	3859
2026-01-05 10:32:59.79	351.10	22.46	-40.3	-40.9	20.2	0.00e+00	0	58	0	567279616	43	3782
2026-01-05 10:33:00.78	350.86	22.40	-40.2	-40.7	20.4	0.00e+00	0	58	0	574619648	43	3704
2026-01-05 10:33:01.77	350.62	22.34	-40.2	-40.7	20.3	0.00e+00	0	58	0	580911104	43	3726
2026-01-05 10:33:02.76	350.38	22.28	-40.2	-40.7	20.4	0.00e+00	0	58	0	588251136	43	3698
2026-01-05 10:33:03.75	350.14	22.22	-40.2	-40.7	20.4	0.00e+00	0	58	0	595591168	43	3704
2026-01-05 10:33:04.74	349.90	22.16	-40.3	-40.7	20.3	0.00e+00	0	58	0	602931200	43	3735
2026-01-05 10:33:05.73	349.66	22.10	-40.2	-40.7	20.4	0.00e+00	0	58	0	610271232	43	3700
2026-01-05 10:33:06.72	349.42	22.04	-40.2	-40.7	20.4	0.00e+00	0	58	0	617611264	43	3729
2026-01-05 10:33:07.71	349.18	21.98	-40.3	-40.8	20.3	0.00e+00	0	58	0	623902720	43	3751
2026-01-05 10:33:08.70	348.95	21.92	-40.2	-40.7	20.3	0.00e+00	0	58	0	631242752	43	3728
2026-01-05 10:33:09.69	348.71	21.85	-40.4	-40.9	20.2	0.00e+00	0	58	0	638582784	43	3795
2026-01-05 10:33:10.68	348.48	21.79	-40.3	-40.8	20.3	0.00e+00	0	58	0	645922816	43	3755
2026-01-05 10:33:11.67	348.25	21.73	-40.2	-40.7	20.3	0.00e+00	0	58	0	653262848	43	3724
2026-01-05 10:33:12.65	348.02	21.67	-40.3	-40.8	20.2	0.00e+00	0	58	0	659554304	43	3758
2026-01-05 10:33:13.65	347.78	21.60	-40.3	-40.8	20.2	0.00e+00	0	58	0	666894336	43	3756
2026-01-05 10:33:14.64	347.55	21.54	-40.3	-40.8	20.1	0.00e+00	0	58	0	674234368	43	3766
2026-01-05 10:33:15.62	347.33	21.48	-40.1	-40.6	20.2	0.00e+00	0	58	0	681574400	43	3689
2026-01-05 10:33:16.61	347.10	21.41	-40.2	-40.7	20.2	0.00e+00	0	58	0	688914432	43	3702
2026-01-05 10:33:17.60	346.87	21.35	-40.4	-40.9	20.0	0.00e+00	0	58	0	696254464	43	3787
2026-01-05 10:33:18.59	346.65	21.28	-40.2	-40.7	20.2	0.00e+00	0	58	0	702545920	43	3707
2026-01-05 10:33:19.58	346.42	21.22	-40.4	-40.9	20.0	0.00e+00	0	58	0	709885952	43	3804
2026-01-05 10:33:20.57	346.20	21.15	-40.6	-41.1	19.9	0.00e+00	0	58	0	717225984	43	3880
2026-01-05 10:33:21.56	345.97	21.08	-40.6	-41.1	19.9	0.00e+00	0	58	0	724566016	43	3911
2026-01-05 10:33:22.55	345.75	21.02	-40.5	-41.0	20.0	0.00e+00	0	58	0	731906048	43	3846
2026-01-05 10:33:23.53	345.53	20.95	-40.5	-41.0	20.0	0.00e+00	0	58	0	738197504	43	3851
2026-01-05 10:33:24.52	345.31	20.89	-40.6	-41.1	19.9	0.00e+00	0	58	0	745537536	43	3896
2026-01-05 10:33:25.51	345.09	20.82	-40.8	-41.3	19.6	0.00e+00	0	58	0	752877568	43	3999
2026-01-05 10:33:26.51	344.87	20.75	-40.8	-41.4	19.6	0.00e+00	0	58	0	760217600	43	4020
2026-01-05 10:33:27.49	344.66	20.68	-41.1	-41.7	19.3	0.00e+00	0	58	0	767557632	43	4158
2026-01-05 10:33:28.48	344.44	20.62	-41.7	-42.3	18.8	0.00e+00	0	58	0	774897664	44	4206
2026-01-05 10:33:29.46	344.23	20.55	-41.5	-42.2	18.9	0.00e+00	0	58	0	781189120	45	3923
2026-01-05 10:33:30.45	344.01	20.48	-41.5	-42.1	18.9	0.00e+00	0	58	0	788529152	45	3912
2026-01-05 10:33:31.44	343.80	20.41	-41.6	-42.2	18.8	0.00e+00	0	58	0	795869184	45	3919
2026-01-05 10:33:32.43	343.58	20.34	-41.9	-42.5	18.4	0.00e+00	0	58	0	803209216	45	4096
2026-01-05 10:33:33.43	343.37	20.27	-41.9	-42.6	18.3	0.00e+00	0	58	0	810549248	45	4107
2026-01-05 10:33:34.41	343.16	20.20	-41.5	-42.1	18.7	0.00e+00	0	58	0	816840704	45	3890
2026-01-05 10:33:35.39	342.95	20.14	-41.3	-41.9	18.8	0.00e+00	0	58	0	824180736	45	3796
2026-01-05 10:33:36.38	342.75	20.07	-41.5	-42.1	18.4	0.00e+00	0	58	0	831520768	45	3910
2026-01-05 10:33:37.36	342.54	20.00	-42.1	-42.8	17.6	0.00e+00	0	58	0	837812224	45	4241
2026-01-05 10:33:38.35	342.33	19.93	-42.5	-43.3	17.1	0.00e+00	0	58	0	845152256	46	4219
2026-01-05 10:33:39.33	342.13	19.86	-43.5	-44.4	16.0	0.00e+00	0	58	0	852492288	48	4267
2026-01-05 10:33:40.32	341.92	19.79	-43.3	-44.2	16.3	0.00e+00	0	58	0	859832320	48	4154
2026-01-05 10:33:41.31	341.72	19.72	-43.3	-44.3	16.1	0.00e+00	0	58	0	867172352	48	4201
2026-01-05 10:33:42.30	341.52	19.64	-43.4	-44.3	16.0	0.00e+00	0	58	0	874512384	48	4227
2026-01-05 10:33:43.30	341.31	19.57	-43.7	-44.7	15.6	0.00e+00	0	58	0	880803840	49	4154
2026-01-05 10:33:44.29	341.11	19.50	-44.7	-45.3	15.0	0.00e+00	0	58	0	888143872	50	4237
2026-01-05 10:33:45.28	340.91	19.43	-44.8	-46.0	14.4	1.10e-06	0	58	0	895483904	51	4327
2026-01-05 10:33:46.28	340.71	19.36	-45.4	-46.8	13.6	4.50e-06	0	58	0	902823936	52	4458
2026-01-05 10:33:47.27	340.51	19.29	-46.0	-47.4	12.4	6.06e-05	0	58	0	910163968	53	4542
2026-01-05 10:33:48.26	340.31	19.21	-45.6	-47.0	13.6	6.80e-06	0	58	0	917504000	53	4312
2026-01-05 10:33:49.25	340.12	19.14	-46.8	-48.5	11.9	1.90e-03	0	58	0	923795456	55	4580
2026-01-05 10:33:50.24	339.92	19.07	-45.5	-46.8	13.8	1.10e-06	0	58	0	931135488	52	4471
2026-01-05 10:33:51.23	339.73	19.00	-46.9	-48.7	11.9	2.44e-04	0	58	0	938475520	55	4683
2026-01-05 10:33:52.22	339.53	18.93	-48.8	-51.7	8.8	1.53e-02	0	58	0	945815552	59	5279
2026-01-05 10:33:53.21	339.34	18.85	-50.3	-55.3	5.5	2.71e-01	0	58	0	952107008	62	6656
2026-01-05 10:33:54.20	339.15	18.78	-50.9	-57.6	4.3	8.29e-01	0	58	0	952107008	63	8261
2026-01-05 10:33:55.19	338.96	18.71	-50.9	-57.7	4.3	8.33e-01	0	58	0	952107008	63	8363
2026-01-05 10:33:56.17	338.77	18.64	-50.9	-57.7	4.3	8.30e-01	0	58	0	952107008	63	8344
2026-01-05 10:33:57.16	338.58	18.56	-50.8	-57.4	4.4	8.29e-01	0	58	0	952107008	63	7996
2026-01-05 10:33:58.15	338.39	18.49	-50.7	-56.8	4.7	8.04e-01	0	58	0	952107008	63	7482
2026-01-05 10:33:59.13	338.21	18.42	-51.2	-59.5	3.8	8.40e-01	0	58	104	952107008	63	10269
2026-01-05 10:34:00.13	338.02	18.34	-51.3	-59.8	3.8	8.47e-01	0	58	104	952107008	64	10014
2026-01-05 10:34:01.12	337.84	18.27	-51.1	-58.6	4.1	8.40e-01	0	58	0	952107008	64	8729
2026-01-05 10:34:02.11	337.65	18.20	-51.4	-59.3	4.0	8.41e-01	0	58	0	952107008	64	9482
2026-01-05 10:34:03.10	337.47	18.12	-51.4	-59.8	3.8	8.46e-01	0	58	104	952107008	64	9999
2026-01-05 10:34:04.08	337.29	18.05	-51.4	-59.1	4.0	8.45e-01	0	58	104	952107008	64	9241
2026-01-05 10:34:05.07	337.11	17.98	-51.5	-60.2	3.8	8.45e-01	0	58	104	952107008	64	10487
2026-01-05 10:34:06.06	336.92	17.90	-51.2	-58.2	4.3	8.39e-01	0	58	0	952107008	64	8272
2026-01-05 10:34:07.06	336.74	17.83	-51.4	-58.9	4.1	8.33e-01	0	58	0	952107008	64	8979
2026-01-05 10:34:08.04	336.57	17.75	-51.4	-58.2	4.3	8.36e-01	0	58	104	952107008	64	8331
2026-01-05 10:34:09.03	336.39	17.68	-51.4	-58.4	4.3	8.30e-01	0	58	0	952107008	64	8471
2026-01-05 10:34:10.02	336.21	17.61	-51.6	-59.9	3.9	8.44e-01	0	58	104	952107008	65	9544
2026-01-05 10:34:11.01	336.03	17.53	-51.6	-59.3	3.9	8.43e-01	0	58	104	952107008	65	8914
2026-01-05 10:34:12.00	335.86	17.46	-51.8	-60.2	3.8	8.46e-01	0	58	104	952107008	65	9860
2026-01-05 10:34:12.99	335.68	17.38	-51.8	-60.5	3.8	8.44e-01	0	58	104	952107008	65	10247
2026-01-05 10:34:13.98	335.51	17.31	-51.9	-61.2	3.8	8.47e-01	0	58	104	952107008	65	11125
2026-01-05 10:34:14.97	335.34	17.23	-51.9	-61.4	3.8	8.46e-01	0	58	104	952107008	65	11318
2026-01-05 10:34:15.96	335.16	17.16	-52.0	-61.7	3.8	8.47e-01	0	58	104	952107008	65	11803
2026-01-05 10:34:16.96	334.99	17.09	-52.0	-61.7	3.8	8.46e-01	0	58	104	952107008	65	11696
2026-01-05 10:34:17.95	334.82	17.01	-52.0	-61.5	3.8	8.45e-01	0	58	104	952107008	65	11518
2026-01-05 10:34:18.94	334.65	16.94	-52.0	-61.6	3.8	8.45e-01	0	58	104	952107008	65	11588
2026-01-05 10:34:19.93	334.48	16.86	-52.0	-61.7	3.8	8.47e-01	0	58	104	952107008	65	11757
2026-01-05 10:34:20.92	334.32	16.79	-52.1	-62.0	3.8	8.46e-01	0	58	104	952107008	65	12112
2026-01-05 10:34:21.91	334.15	16.71	-52.0	-61.9	3.8	8.46e-01	0	58	104	952107008	65	11965
2026-01-05 10:34:22.91	333.98	16.64	-52.0	-61.5	3.8	8.45e-01	0	58	104	952107008	65	11430
2026-01-05 10:34:23.89	333.82	16.56	-52.0	-61.2	3.8	8.45e-01	0	58	104	952107008	65	11125
2026-01-05 10:34:24.88	333.65	16.49	-51.9	-60.7	3.8	8.45e-01	0	58	104	952107008	65	10460
2026-01-05 10:34:25.87	333.49	16.41	-51.8	-60.5	3.8	8.46e-01	0	58	104	952107008	65	10180
2026-01-05 10:34:26.87	333.32	16.34	-51.8	-60.3	3.8	8.45e-01	0	58	104	952107008	65	10040
2026-01-05 10:34:27.86	333.16	16.26	-51.9	-60.6	3.8	8.46e-01	0	58	104	952107008	65	10364
2026-01-05 10:34:28.84	333.00	16.19	-51.8	-60.7	3.8	8.45e-01	0	58	104	952107008	65	10505
2026-01-05 10:34:29.83	332.84	16.12	-51.8	-60.8	3.8	8.46e-01	0	58	104	952107008	65	10547
2026-01-05 10:34:30.82	332.68	16.04	-51.8	-60.7	3.8	8.44e-01	0	58	104	952107008	65	10439
2026-01-05 10:34:31.82	332.52	15.96	-51.9	-60.8	3.8	8.46e-01	0	58	104	952107008	65	10588
2026-01-05 10:34:32.80	332.37	15.89	-51.9	-60.6	3.8	8.44e-01	0	58	104	952107008	65	10393
2026-01-05 10:34:33.80	332.21	15.82	-51.9	-60.5	3.8	8.45e-01	0	58	104	952107008	65	10273
2026-01-05 10:34:34.78	332.05	15.74	-51.8	-60.3	3.8	8.45e-01	0	58	104	952107008	65	10041
2026-01-05 10:34:35.77	331.90	15.67	-51.8	-60.2	3.8	8.45e-01	0	58	104	952107008	65	9894
2026-01-05 10:34:36.76	331.74	15.59	-51.8	-60.3	3.8	8.45e-01	0	58	104	952107008	65	10003
2026-01-05 10:34:37.75	331.59	15.52	-51.8	-60.4	3.8	8.45e-01	0	58	104	952107008	65	10079
2026-01-05 10:34:38.74	331.44	15.44	-51.8	-60.3	3.8	8.44e-01	0	58	104	952107008	65	10025
2026-01-05 10:34:39.73	331.28	15.37	-51.9	-60.3	3.8	8.48e-01	0	58	104	952107008	65	9953
2026-01-05 10:34:40.72	331.13	15.29	-51.8	-60.1	3.8	8.44e-01	0	58	104	952107008	65	9818
2026-01-05 10:34:41.71	330.98	15.22	-51.7	-59.9	4.0	8.45e-01	0	58	104	952107008	65	9510
2026-01-05 10:34:42.70	330.83	15.14	-51.7	-59.5	3.9	8.42e-01	0	58	104	952107008	65	9147
2026-01-05 10:34:43.70	330.68	15.07	-51.6	-59.0	4.1	8.40e-01	0	58	0	952107008	65	8619
2026-01-05 10:34:44.69	330.53	15.00	-51.6	-58.7	4.2	8.39e-01	0	58	0	952107008	65	8332
2026-01-05 10:34:45.68	330.38	14.92	-51.5	-58.3	4.3	8.31e-01	0	58	0	952107008	64	8433
2026-01-05 10:34:46.68	330.24	14.85	-51.5	-58.0	4.4	8.28e-01	0	58	0	952107008	64	8161
2026-01-05 10:34:47.67	330.09	14.77	-51.3	-57.7	4.6	8.20e-01	0	58	0	952107008	64	7854
2026-01-05 10:34:48.66	329.94	14.70	-51.3	-57.5	4.6	8.16e-01	0	58	0	952107008	64	7690
2026-01-05 10:34:49.65	329.80	14.62	-51.3	-57.7	4.5	8.17e-01	0	58	0	952107008	64	7846
2026-01-05 10:34:50.65	329.65	14.55	-51.4	-57.9	4.5	8.22e-01	0	58	0	952107008	64	8032
2026-01-05 10:34:51.64	329.51	14.47	-51.4	-57.8	4.5	8.23e-01	0	58	0	952107008	64	7968
2026-01-05 10:34:52.63	329.37	14.40	-51.5	-58.0	4.4	8.24e-01	0	58	0	952107008	64	8118
2026-01-05 10:34:53.62	329.23	14.32	-51.1	-57.1	4.2	8.29e-01	0	58	0	952107008	64	7321
2026-01-05 10:34:54.61	329.09	14.25	-51.5	-58.1	4.4	8.28e-01	0	58	0	952107008	64	8229
2026-01-05 10:34:55.60	328.94	14.18	-51.4	-58.2	4.4	8.29e-01	0	58	0	952107008	64	8315
2026-01-05 10:34:56.59	328.81	14.10	-51.5	-58.3	4.3	8.31e-01	0	58	0	952107008	64	8458
2026-01-05 10:34:57.59	328.66	14.03	-51.5	-58.3	4.3	8.32e-01	0	58	0	952107008	64	8436
2026-01-05 10:34:58.57	328.53	13.96	-51.4	-58.2	4.4	8.31e-01	0	58	0	952107008	64	8290
2026-01-05 10:34:59.56	328.39	13.88	-51.4	-57.9	4.4	8.27e-01	0	58	0	952107008	64	8063
2026-01-05 10:35:00.56	328.25	13.81	-51.3	-57.8	4.5	8.22e-01	0	58	0	952107008	64	7922
2026-01-05 10:35:01.55	328.12	13.73	-51.4	-57.8	4.5	8.21e-01	0	58	0	952107008	64	7956
2026-01-05 10:35:02.53	327.98	13.66	-51.3	-57.6	4.6	8.18e-01	0	58	0	952107008	64	7753
2026-01-05 10:35:03.52	327.85	13.59	-51.2	-57.3	4.7	8.04e-01	0	58	0	952107008	64	7469
2026-01-05 10:35:04.51	327.71	13.51	-51.2	-57.2	4.8	7.99e-01	0	58	0	952107008	64	7391
2026-01-05 10:35:05.50	327.58	13.44	-51.2	-57.1	4.8	7.92e-01	0	58	0	952107008	64	7301
2026-01-05 10:35:06.49	327.45	13.37	-51.2	-57.0	4.8	7.90e-01	0	58	0	952107008	64	7280
2026-01-05 10:35:07.48	327.31	13.29	-51.2	-57.2	4.8	7.97e-01	0	58	0	952107008	64	7429
2026-01-05 10:35:08.48	327.18	13.22	-51.2	-57.3	4.7	8.02e-01	0	58	0	952107008	64	7513
2026-01-05 10:35:09.46	327.05	13.15	-51.3	-57.6	4.6	8.17e-01	0	58	0	952107008	64	7723
2026-01-05 10:35:10.44	326.92	13.07	-51.2	-57.2	4.7	8.07e-01	0	58	0	952107008	64	7456
2026-01-05 10:35:11.43	326.79	13.00	-51.1	-57.2	4.7	8.04e-01	0	58	0	952107008	64	7434
2026-01-05 10:35:12.41	326.67	12.93	-51.2	-57.4	4.7	8.04e-01	0	58	0	952107008	64	7549
2026-01-05 10:35:13.40	326.54	12.86	-51.2	-57.4	4.7	8.09e-01	0	58	0	952107008	64	7575
2026-01-05 10:35:14.39	326.41	12.78	-51.2	-57.2	4.7	8.02e-01	0	58	0	952107008	64	7416
2026-01-05 10:35:15.37	326.29	12.71	-51.2	-57.2	4.7	8.02e-01	0	58	0	952107008	64	7447
2026-01-05 10:35:16.36	326.16	12.64	-51.2	-57.3	4.7	8.01e-01	0	58	0	952107008	64	7463
2026-01-05 10:35:17.35	326.03	12.57	-51.2	-57.3	4.7	8.08e-01	0	58	0	952107008	64	7540
2026-01-05 10:35:18.34	325.91	12.49	-51.1	-57.0	4.8	7.95e-01	0	58	0	952107008	64	7244
2026-01-05 10:35:19.34	325.78	12.42	-51.0	-56.5	5.1	7.64e-01	0	58	0	952107008	64	6869
2026-01-05 10:35:20.32	325.66	12.35	-50.8	-56.0	5.4	7.27e-01	0	58	0	952107008	64	6421
2026-01-05 10:35:21.31	325.54	12.28	-50.6	-55.2	6.0	4.21e-01	0	58	0	3145728	64	5862
2026-01-05 10:35:22.30	325.42	12.20	-50.4	-54.6	6.5	2.62e-01	0	58	0	10485760	63	5836
2026-01-05 10:35:23.30	325.29	12.13	-50.0	-53.6	7.4	1.56e-01	0	58	0	17825792	62	5526
2026-01-05 10:35:24.29	325.17	12.06	-49.6	-52.8	8.2	6.51e-02	0	58	0	25165824	62	5001
2026-01-05 10:35:25.28	325.05	11.99	-49.2	-52.1	8.9	3.33e-02	0	58	0	32505856	61	4883
2026-01-05 10:35:26.27	324.93	11.92	-48.6	-51.1	9.9	1.29e-02	0	58	0	38797312	60	4628
2026-01-05 10:35:27.26	324.81	11.84	-48.4	-50.6	10.5	5.68e-03	0	58	0	46137344	59	4618
2026-01-05 10:35:28.25	324.69	11.77	-47.9	-49.9	11.3	1.86e-03	0	58	0	53477376	58	4494
2026-01-05 10:35:29.24	324.57	11.70	-47.7	-49.6	11.6	8.69e-04	0	58	0	60817408	58	4362
2026-01-05 10:35:30.21	324.46	11.63	-47.8	-49.7	11.4	6.36e-04	0	58	0	68157440	58	4414
2026-01-05 10:35:31.21	324.34	11.56	-48.1	-50.1	11.0	2.16e-03	0	58	0	75497472	58	4624
2026-01-05 10:35:32.19	324.22	11.49	-47.5	-49.3	11.8	6.33e-04	0	58	0	81788928	57	4484
2026-01-05 10:35:33.18	324.11	11.42	-47.0	-48.6	12.5	1.34e-04	0	58	0	89128960	56	4389
2026-01-05 10:35:34.16	323.99	11.35	-46.5	-47.9	13.2	4.00e-05	0	58	0	96468992	55	4259
2026-01-05 10:35:35.14	323.88	11.28	-46.0	-47.3	13.8	9.10e-06	0	58	0	103809024	54	4204
2026-01-05 10:35:36.13	323.77	11.21	-45.6	-46.8	14.3	0.00e+00	0	58	0	111149056	54	3966
2026-01-05 10:35:37.12	323.65	11.13	-45.4	-46.5	14.6	0.00e+00	0	58	0	117440512	53	4089
2026-01-05 10:35:38.11	323.54	11.06	-45.1	-46.2	14.9	0.00e+00	0	58	0	124780544	53	3936
2026-01-05 10:35:39.10	323.43	10.99	-44.9	-46.0	15.1	0.00e+00	0	58	0	132120576	52	4065
2026-01-05 10:35:40.08	323.32	10.92	-44.9	-46.0	15.1	1.10e-06	0	58	0	139460608	52	4074
2026-01-05 10:35:41.07	323.21	10.85	-45.1	-46.1	15.0	1.10e-06	0	58	0	146800640	52	4142
2026-01-05 10:35:42.06	323.09	10.78	-45.7	-46.9	14.2	1.10e-06	0	58	0	153092096	52	4513
2026-01-05 10:35:43.06	322.98	10.71	-45.0	-46.1	15.0	2.20e-06	0	58	0	160432128	52	4130
2026-01-05 10:35:44.04	322.87	10.64	-44.6	-45.6	15.6	0.00e+00	0	58	0	167772160	51	4133
2026-01-05 10:35:45.03	322.77	10.57	-44.6	-45.6	15.6	0.00e+00	0	58	0	175112192	51	4129
2026-01-05 10:35:46.02	322.66	10.50	-45.1	-46.2	15.0	0.00e+00	0	58	0	182452224	51	4423
2026-01-05 10:35:47.01	322.55	10.43	-44.7	-45.7	15.5	0.00e+00	0	58	0	188743680	51	4162
2026-01-05 10:35:48.00	322.44	10.36	-45.0	-46.0	15.1	0.00e+00	0	58	0	196083712	51	4323
2026-01-05 10:35:48.98	322.34	10.29	-44.9	-45.9	15.3	0.00e+00	0	58	0	203423744	51	4252
2026-01-05 10:35:49.97	322.23	10.22	-44.6	-45.6	15.6	0.00e+00	0	58	0	210763776	51	4115
2026-01-05 10:35:50.96	322.12	10.15	-44.5	-45.4	15.7	0.00e+00	0	58	0	217055232	51	4046
2026-01-05 10:35:51.95	322.02	10.08	-44.6	-45.6	15.6	0.00e+00	0	58	0	224395264	51	4130
2026-01-05 10:35:52.95	321.91	10.01	-45.3	-46.4	14.7	0.00e+00	0	58	0	231735296	52	4275
2026-01-05 10:35:53.94	321.81	9.94	-46.1	-47.5	13.6	2.20e-06	0	58	0	239075328	53	4549
2026-01-05 10:35:54.93	321.70	9.88	-47.3	-49.1	12.0	2.37e-04	0	58	0	246415360	56	4625
2026-01-05 10:35:55.92	321.60	9.81	-48.3	-50.6	10.4	3.05e-03	0	58	0	253755392	58	4914
2026-01-05 10:35:56.91	321.50	9.74	-49.2	-52.2	8.7	2.23e-02	0	58	0	260046848	60	5229
2026-01-05 10:35:57.89	321.39	9.67	-50.2	-54.1	6.8	1.62e-01	0	58	0	267386880	61	6189
2026-01-05 10:35:58.87	321.29	9.60	-50.9	-56.3	5.2	6.91e-01	0	58	0	273678336	63	7057
2026-01-05 10:35:59.87	321.19	9.53	-51.2	-57.9	4.4	8.16e-01	0	58	0	273678336	64	8045
2026-01-05 10:36:00.85	321.09	9.46	-51.5	-59.3	4.0	8.43e-01	0	58	0	273678336	64	9410
2026-01-05 10:36:01.84	320.99	9.40	-51.6	-59.7	4.0	8.44e-01	0	58	104	273678336	64	9892
2026-01-05 10:36:02.84	320.89	9.33	-51.6	-59.8	3.8	8.43e-01	0	58	104	273678336	64	9961
2026-01-05 10:36:03.82	320.79	9.26	-51.6	-59.5	4.0	8.43e-01	0	58	104	273678336	64	9663
2026-01-05 10:36:04.81	320.69	9.19	-51.5	-59.4	3.9	8.43e-01	0	58	104	273678336	64	9532
2026-01-05 10:36:05.80	320.59	9.12	-51.5	-59.2	3.8	8.41e-01	0	58	104	273678336	64	9340
2026-01-05 10:36:06.80	320.49	9.05	-51.4	-59.1	4.1	8.40e-01	0	58	0	273678336	64	9189
2026-01-05 10:36:07.78	320.40	8.99	-51.5	-59.1	4.1	8.40e-01	0	58	0	273678336	64	9209
2026-01-05 10:36:08.77	320.30	8.92	-51.4	-59.3	3.9	8.41e-01	0	58	104	273678336	64	9478
2026-01-05 10:36:09.75	320.20	8.85	-51.5	-59.4	4.0	8.43e-01	0	58	104	273678336	64	9532
2026-01-05 10:36:10.75	320.11	8.78	-51.5	-59.8	3.8	8.43e-01	0	58	104	273678336	64	10015
2026-01-05 10:36:11.74	320.01	8.72	-51.6	-60.0	3.8	8.44e-01	0	58	104	273678336	64	10225
2026-01-05 10:36:12.74	319.92	8.65	-51.6	-60.4	3.8	8.46e-01	0	58	104	273678336	65	10080
2026-01-05 10:36:13.73	319.82	8.58	-51.7	-60.8	3.8	8.46e-01	0	58	104	273678336	65	10570
2026-01-05 10:36:14.72	319.73	8.51	-51.8	-61.1	3.8	8.45e-01	0	58	104	273678336	65	11006
2026-01-05 10:36:15.71	319.63	8.45	-51.8	-61.4	3.8	8.46e-01	0	58	104	273678336	65	11344
2026-01-05 10:36:16.70	319.54	8.38	-51.8	-61.6	3.8	8.45e-01	0	58	104	273678336	65	11594
2026-01-05 10:36:17.69	319.45	8.31	-51.9	-61.8	3.8	8.47e-01	0	58	104	273678336	65	11889
2026-01-05 10:36:18.67	319.35	8.25	-51.8	-61.8	3.8	8.46e-01	0	58	104	273678336	65	11905
2026-01-05 10:36:19.66	319.26	8.18	-51.8	-61.8	3.8	8.46e-01	0	58	104	273678336	65	11860
2026-01-05 10:36:20.65	319.17	8.12	-51.8	-61.7	3.8	8.46e-01	0	58	104	273678336	65	11809
2026-01-05 10:36:21.64	319.08	8.05	-51.9	-61.7	3.8	8.45e-01	0	58	104	273678336	65	11778
2026-01-05 10:36:22.64	318.99	7.98	-51.8	-61.7	3.8	8.46e-01	0	58	104	273678336	65	11693
2026-01-05 10:36:23.63	318.90	7.92	-51.8	-61.6	3.8	8.46e-01	0	58	104	273678336	65	11582
2026-01-05 10:36:24.62	318.81	7.85	-51.8	-61.6	3.8	8.47e-01	0	58	104	273678336	65	11560
2026-01-05 10:36:25.61	318.72	7.78	-51.7	-61.5	3.8	8.47e-01	0	58	104	273678336	65	11451
2026-01-05 10:36:26.60	318.63	7.72	-51.8	-61.5	3.8	8.45e-01	0	58	104	273678336	65	11444
2026-01-05 10:36:27.59	318.54	7.65	-51.8	-61.5	3.8	8.45e-01	0	58	104	273678336	65	11497
2026-01-05 10:36:28.58	318.45	7.59	-51.8	-61.6	3.8	8.46e-01	0	58	104	273678336	65	11632
2026-01-05 10:36:29.57	318.36	7.52	-51.8	-61.7	3.8	8.46e-01	0	58	104	273678336	65	11689
2026-01-05 10:36:30.57	318.27	7.45	-51.8	-61.8	3.8	8.47e-01	0	58	104	273678336	65	11856
2026-01-05 10:36:31.56	318.19	7.39	-51.8	-61.7	3.8	8.47e-01	0	58	104	273678336	65	11799
2026-01-05 10:36:32.55	318.10	7.32	-51.8	-61.8	3.8	8.46e-01	0	58	104	273678336	65	11941
2026-01-05 10:36:33.54	318.01	7.26	-51.9	-61.8	3.8	8.47e-01	0	58	104	273678336	65	11927
2026-01-05 10:36:34.54	317.93	7.19	-51.7	-61.8	3.8	8.46e-01	0	58	104	273678336	65	11903
2026-01-05 10:36:35.52	317.84	7.13	-51.8	-61.9	3.8	8.47e-01	0	58	104	273678336	65	12029
2026-01-05 10:36:36.51	317.76	7.06	-51.8	-61.9	3.8	8.47e-01	0	58	104	273678336	65	11979
2026-01-05 10:36:37.51	317.67	7.00	-51.6	-61.0	3.8	8.45e-01	0	58	104	273678336	65	10842
2026-01-05 10:36:38.50	317.59	6.93	-51.8	-61.9	3.8	8.46e-01	0	58	104	273678336	65	12011
2026-01-05 10:36:39.49	317.50	6.87	-51.8	-61.9	3.8	8.46e-01	0	58	104	273678336	65	11976
2026-01-05 10:36:40.48	317.42	6.81	-51.8	-61.8	3.8	8.45e-01	0	58	104	273678336	65	11942
2026-01-05 10:36:41.47	317.34	6.74	-51.7	-61.9	3.8	8.46e-01	0	58	104	273678336	65	11973
2026-01-05 10:36:42.46	317.25	6.68	-51.8	-61.9	3.8	8.46e-01	0	58	104	273678336	65	12010
2026-01-05 10:36:43.44	317.17	6.61	-51.8	-61.9	3.8	8.46e-01	0	58	104	273678336	65	11972
2026-01-05 10:36:44.43	317.09	6.55	-51.9	-61.9	3.8	8.46e-01	0	58	104	273678336	65	11989
2026-01-05 10:36:45.42	317.01	6.49	-51.8	-61.9	3.8	8.45e-01	0	58	104	273678336	65	12059
2026-01-05 10:36:46.41	316.93	6.42	-51.8	-61.9	3.8	8.45e-01	0	58	104	273678336	65	12093
2026-01-05 10:36:47.40	316.85	6.36	-51.8	-62.0	3.8	8.45e-01	0	58	104	273678336	65	12126
2026-01-05 10:36:48.38	316.77	6.29	-51.8	-62.0	3.8	8.46e-01	0	58	104	273678336	65	12113
2026-01-05 10:36:49.38	316.68	6.23	-51.8	-62.0	3.8	8.46e-01	0	58	104	273678336	65	12128
2026-01-05 10:36:50.36	316.61	6.17	-51.7	-62.0	3.8	8.46e-01	0	58	104	273678336	65	12098
2026-01-05 10:36:51.35	316.53	6.10	-51.8	-62.0	3.8	8.47e-01	0	58	104	273678336	65	12145
2026-01-05 10:36:52.34	316.45	6.04	-51.8	-62.0	3.8	8.48e-01	0	58	104	273678336	65	12113
2026-01-05 10:36:53.33	316.37	5.98	-51.7	-62.0	3.8	8.46e-01	0	58	104	273678336	65	12105
2026-01-05 10:36:54.32	316.29	5.92	-51.8	-61.9	3.8	8.47e-01	0	58	104	273678336	65	12070
2026-01-05 10:36:55.31	316.21	5.85	-51.8	-61.9	3.8	8.46e-01	0	58	104	273678336	65	11999
2026-01-05 10:36:56.30	316.13	5.79	-51.7	-61.9	3.8	8.45e-01	0	58	104	273678336	65	11963
2026-01-05 10:36:57.28	316.06	5.73	-51.7	-61.9	3.8	8.47e-01	0	58	104	273678336	65	11986
2026-01-05 10:36:58.27	315.98	5.66	-51.8	-61.9	3.8	8.47e-01	0	58	104	273678336	65	11995
2026-01-05 10:36:59.25	315.90	5.60	-51.8	-61.9	3.8	8.46e-01	0	58	104	273678336	65	11963
2026-01-05 10:37:00.24	315.83	5.54	-51.7	-61.8	3.8	8.45e-01	0	58	104	273678336	65	11945
2026-01-05 10:37:01.23	315.75	5.48	-51.7	-61.8	3.8	8.47e-01	0	58	104	273678336	65	11945
2026-01-05 10:37:02.22	315.68	5.42	-51.8	-61.8	3.8	8.46e-01	0	58	104	273678336	65	11948
2026-01-05 10:37:03.21	315.60	5.35	-51.7	-61.9	3.8	8.45e-01	0	58	104	273678336	65	12007
2026-01-05 10:37:04.21	315.53	5.29	-51.8	-61.9	3.8	8.46e-01	0	58	104	273678336	65	11960
2026-01-05 10:37:05.19	315.45	5.23	-51.8	-61.9	3.8	8.45e-01	0	58	104	273678336	65	12047
2026-01-05 10:37:06.18	315.38	5.17	-51.8	-62.0	3.8	8.47e-01	0	58	104	273678336	65	12112
2026-01-05 10:37:07.18	315.30	5.11	-51.8	-61.9	3.8	8.46e-01	0	58	104	273678336	65	12050
2026-01-05 10:37:08.17	315.23	5.04	-51.8	-61.9	3.8	8.46e-01	0	58	104	273678336	65	12077
2026-01-05 10:37:09.17	315.15	4.98	-51.7	-62.0	3.8	8.46e-01	0	58	104	273678336	65	12138
2026-01-05 10:37:10.15	315.08	4.92	-51.8	-62.0	3.8	8.45e-01	0	58	104	273678336	65	12144
2026-01-05 10:37:11.14	315.01	4.86	-51.8	-62.0	3.8	8.47e-01	0	58	104	273678336	65	12132
2026-01-05 10:37:12.13	314.94	4.80	-51.8	-61.8	3.6	8.46e-01	0	58	104	273678336	65	11840
2026-01-05 10:37:13.11	314.87	4.74	-51.8	-62.0	3.8	8.46e-01	0	58	104	273678336	65	12099
2026-01-05 10:37:14.10	314.79	4.68	-51.8	-62.0	3.8	8.45e-01	0	58	104	273678336	65	12105
2026-01-05 10:37:15.10	314.72	4.62	-51.8	-61.9	3.8	8.45e-01	0	58	104	273678336	65	12062
2026-01-05 10:37:16.09	314.65	4.55	-51.8	-61.9	3.8	8.46e-01	0	58	104	273678336	65	12050
2026-01-05 10:37:17.07	314.58	4.49	-51.7	-62.0	3.8	8.46e-01	0	58	104	273678336	65	12114
2026-01-05 10:37:18.07	314.51	4.43	-51.8	-61.9	3.8	8.45e-01	0	58	104	273678336	65	12077
2026-01-05 10:37:19.05	314.44	4.37	-51.8	-62.0	3.8	8.46e-01	0	58	104	273678336	65	12118
2026-01-05 10:37:20.04	314.37	4.31	-51.8	-61.9	3.8	8.47e-01	0	58	104	273678336	65	12094
2026-01-05 10:37:21.03	314.30	4.25	-51.8	-62.0	3.8	8.46e-01	0	58	104	273678336	65	12157
2026-01-05 10:37:22.02	314.23	4.19	-51.8	-61.9	3.8	8.46e-01	0	58	104	273678336	65	12075
2026-01-05 10:37:23.01	314.16	4.13	-51.8	-62.0	3.8	8.45e-01	0	58	104	273678336	65	12145
2026-01-05 10:37:24.00	314.09	4.07	-51.8	-62.0	3.8	8.45e-01	0	58	104	273678336	65	12097
2026-01-05 10:37:24.99	314.03	4.01	-51.8	-62.0	3.8	8.47e-01	0	58	104	273678336	65	12104
2026-01-05 10:37:25.98	313.96	3.95	-51.8	-61.9	3.8	8.46e-01	0	58	104	273678336	65	12084
2026-01-05 10:37:26.97	313.89	3.89	-51.8	-61.9	3.8	8.46e-01	0	58	104	273678336	65	12092
2026-01-05 10:37:27.96	313.82	3.83	-51.7	-62.0	3.8	8.46e-01	0	58	104	273678336	65	12101
2026-01-05 10:37:28.94	313.76	3.77	-51.7	-61.9	3.8	8.46e-01	0	58	104	273678336	65	12065
2026-01-05 10:37:29.92	313.69	3.71	-51.8	-61.9	3.8	8.46e-01	0	58	104	273678336	65	12088
2026-01-05 10:37:30.91	313.62	3.65	-51.8	-62.0	3.8	8.46e-01	0	58	104	273678336	65	12099
2026-01-05 10:37:31.90	313.56	3.59	-51.7	-61.9	3.8	8.46e-01	0	58	104	273678336	65	12047
2026-01-05 10:37:32.89	313.49	3.54	-51.7	-61.9	3.8	8.45e-01	0	58	104	273678336	65	12051
2026-01-05 10:37:33.87	313.43	3.48	-51.7	-61.9	3.8	8.45e-01	0	58	104	273678336	65	12062
2026-01-05 10:37:34.86	313.36	3.42	-51.8	-61.9	3.8	8.46e-01	0	58	104	273678336	65	12050
2026-01-05 10:37:35.85	313.29	3.36	-51.8	-61.9	3.8	8.46e-01	0	58	104	273678336	65	12007
2026-01-05 10:37:36.84	313.23	3.30	-51.7	-61.9	3.8	8.46e-01	0	58	104	273678336	65	12027
2026-01-05 10:37:37.84	313.16	3.24	-51.7	-61.9	3.8	8.45e-01	0	58	104	273678336	65	12065
2026-01-05 10:37:38.82	313.10	3.18	-51.7	-61.9	3.8	8.47e-01	0	58	104	273678336	65	12028
2026-01-05 10:37:39.81	313.04	3.12	-51.7	-61.9	3.8	8.47e-01	0	58	104	273678336	65	12026
2026-01-05 10:37:40.80	312.97	3.07	-51.7	-61.9	3.8	8.46e-01	0	58	104	273678336	65	12048
2026-01-05 10:37:41.79	312.91	3.01	-51.7	-61.9	3.8	8.46e-01	0	58	104	273678336	65	12001
2026-01-05 10:37:42.78	312.85	2.95	-51.7	-61.9	3.8	8.46e-01	0	58	104	273678336	65	11996
2026-01-05 10:37:43.77	312.78	2.89	-51.6	-61.9	3.8	8.46e-01	0	58	104	273678336	65	12059

#Closed at: 2026-01-05 10:37:44
#Recorded file [273 MB]: D:/Data/31026_260105_133609.dat