passes_logs/2026/01/05/R3.0SM8_Murmansk_STILSPACE/R3.0SM8_Murmansk_STILSPACE__20260105_103238_AQUA_rec.log

#Pass ID: 20260105_103238_AQUA
#Satellite: AQUA
#Configuration: AQUA
#almurnet v.1.7.20240730
#Start time: 2026-01-05 10:37:51

#Version: 2.2.20231116
#Station: R3.0SM8_Murmansk_STILSPACE
#Location: 33.092731 lon 68.902999 lat
#TLE: 1 27424U 02022A   26003.93831470  .00001925  00000+0  39553-3 0  9995
#TLE: 2 27424  98.4067 330.1809 0002003  92.1713 343.8415 14.61796291259276

#Time	Az	El	Level	Level2	SNR	BER	BlckErr	Temp	State	Recorded	gain1	gain2
2026-01-05 10:37:51.68	95.07	48.69	-51.6	-61.9	3.8	8.46e-01	0	57	0	0	65	11990
2026-01-05 10:37:53.00	94.33	49.03	-53.4	-73.2	3.8	7.46e-01	0	58	104	0	68	38662
2026-01-05 10:37:53.70	93.93	49.21	-53.4	-73.2	3.8	7.49e-01	0	58	104	0	68	38654
2026-01-05 10:37:55.06	93.14	49.56	-53.4	-73.2	3.8	7.48e-01	0	58	104	0	68	38658
2026-01-05 10:37:55.77	92.72	49.73	-53.4	-73.2	3.8	7.44e-01	0	58	104	0	68	38614
2026-01-05 10:37:57.13	91.91	50.07	-53.4	-73.2	3.8	7.47e-01	0	58	104	0	68	38499
2026-01-05 10:37:57.84	91.48	50.25	-53.4	-73.2	3.8	7.42e-01	0	58	104	0	68	38535
2026-01-05 10:37:59.21	90.62	50.58	-53.4	-73.2	3.8	7.46e-01	0	58	104	0	68	38514
2026-01-05 10:37:59.92	90.18	50.76	-53.3	-73.2	3.8	7.42e-01	0	57	104	0	68	38561
2026-01-05 10:38:01.29	89.30	51.09	-53.3	-73.2	3.8	7.47e-01	0	58	104	0	68	38466
2026-01-05 10:38:01.99	88.84	51.25	-53.3	-73.2	3.8	7.42e-01	0	58	104	0	68	38548
2026-01-05 10:38:03.36	87.93	51.58	-53.4	-73.2	3.8	7.46e-01	0	58	104	0	68	38499
2026-01-05 10:38:04.07	87.45	51.74	-52.7	-73.2	3.8	7.45e-01	0	58	104	0	68	38383
2026-01-05 10:38:05.38	86.55	52.04	-53.3	-73.2	3.8	7.46e-01	0	58	104	0	68	38412
2026-01-05 10:38:06.08	86.06	52.20	-53.3	-73.2	3.8	7.44e-01	0	58	104	0	68	38519
2026-01-05 10:38:07.40	85.13	52.49	-53.3	-73.2	3.8	7.45e-01	0	58	104	0	68	38410
2026-01-05 10:38:08.11	84.62	52.65	-53.3	-73.2	3.8	7.47e-01	0	58	104	0	68	38368
2026-01-05 10:38:09.45	83.64	52.93	-53.3	-73.2	3.8	7.42e-01	0	58	104	0	68	38399
2026-01-05 10:38:10.16	83.12	53.08	-53.3	-73.2	3.8	7.42e-01	0	58	104	0	68	38415
2026-01-05 10:38:11.50	82.11	53.36	-53.3	-73.2	3.8	7.44e-01	0	58	104	0	68	38337
2026-01-05 10:38:12.20	81.58	53.50	-53.3	-73.2	3.8	7.46e-01	0	58	104	0	68	38411
2026-01-05 10:38:13.59	80.50	53.78	-53.3	-73.2	3.8	7.44e-01	0	58	104	0	68	38307
2026-01-05 10:38:14.30	79.94	53.92	-53.3	-73.2	3.8	7.43e-01	0	58	104	0	68	38282
2026-01-05 10:38:15.62	78.89	54.16	-53.2	-73.2	3.8	7.48e-01	0	58	104	0	68	38399
2026-01-05 10:38:16.33	78.32	54.29	-53.3	-73.2	3.8	7.43e-01	0	57	104	0	68	38322
2026-01-05 10:38:17.68	77.22	54.54	-53.3	-73.1	3.8	7.46e-01	0	57	104	0	68	38230
2026-01-05 10:38:18.39	76.63	54.66	-53.3	-73.2	3.8	7.46e-01	0	58	104	0	68	38252
2026-01-05 10:38:19.75	75.49	54.88	-53.3	-73.2	3.8	7.44e-01	0	58	104	0	68	38311
2026-01-05 10:38:20.45	74.90	55.00	-53.3	-73.2	3.8	7.47e-01	0	58	104	0	68	38272
2026-01-05 10:38:21.84	73.70	55.21	-53.3	-73.1	3.8	7.43e-01	0	58	104	0	68	38229
2026-01-05 10:38:22.55	73.09	55.32	-53.3	-73.1	3.8	7.43e-01	0	58	104	0	68	38128
2026-01-05 10:38:23.86	71.94	55.51	-53.3	-73.1	3.8	7.42e-01	0	58	104	0	68	38180
2026-01-05 10:38:24.57	71.31	55.60	-53.3	-73.1	3.8	7.43e-01	0	57	104	0	68	38163
2026-01-05 10:38:25.87	70.15	55.77	-53.3	-73.1	3.8	7.47e-01	0	58	104	0	68	38181
2026-01-05 10:38:26.59	69.50	55.86	-53.3	-73.1	3.8	7.46e-01	0	58	104	0	68	38140
2026-01-05 10:38:27.87	68.33	56.01	-53.3	-73.1	3.8	7.46e-01	0	58	104	0	68	38122
2026-01-05 10:38:28.66	67.61	56.10	-53.3	-73.1	3.8	7.45e-01	0	57	104	0	68	38094
2026-01-05 10:38:29.90	66.46	56.22	-53.3	-73.1	3.8	7.46e-01	0	58	104	0	68	38087
2026-01-05 10:38:30.76	65.66	56.31	-53.3	-73.1	3.8	7.46e-01	0	58	104	0	68	38107
2026-01-05 10:38:31.89	64.60	56.40	-53.2	-73.1	3.8	7.46e-01	0	58	104	0	68	37993
2026-01-05 10:38:32.73	63.80	56.47	-53.2	-73.1	3.8	7.47e-01	0	58	104	0	68	38018
2026-01-05 10:38:33.87	62.72	56.56	-53.3	-73.1	3.8	7.46e-01	0	58	104	0	68	38027
2026-01-05 10:38:34.72	61.91	56.61	-53.2	-73.1	3.8	7.44e-01	0	58	104	0	68	37991
2026-01-05 10:38:35.85	60.83	56.68	-53.2	-73.1	3.8	7.41e-01	0	58	104	0	68	38032
2026-01-05 10:38:36.70	60.01	56.72	-53.2	-73.1	3.8	7.42e-01	0	58	104	0	68	37949
2026-01-05 10:38:37.83	58.92	56.77	-53.2	-73.1	3.8	7.45e-01	0	58	104	0	68	37918
2026-01-05 10:38:38.68	58.09	56.80	-53.2	-73.1	3.8	7.45e-01	0	58	104	0	68	37942
2026-01-05 10:38:39.80	57.01	56.83	-53.2	-73.1	3.8	7.47e-01	0	57	104	0	68	37837
2026-01-05 10:38:40.64	56.19	56.85	-53.2	-73.1	3.8	7.46e-01	0	58	104	0	68	37857
2026-01-05 10:38:41.77	55.09	56.86	-53.2	-73.1	3.8	7.47e-01	0	58	104	0	68	37827
2026-01-05 10:38:42.62	54.26	56.86	-53.2	-73.1	3.8	7.43e-01	0	58	104	0	68	37877
2026-01-05 10:38:43.75	53.16	56.86	-53.2	-73.1	3.8	7.46e-01	0	57	104	0	68	37813
2026-01-05 10:38:44.60	52.34	56.85	-53.2	-73.1	3.8	7.42e-01	0	58	104	0	68	37821
2026-01-05 10:38:45.73	51.24	56.83	-53.2	-73.1	3.8	7.48e-01	0	58	104	0	68	37808
2026-01-05 10:38:46.58	50.41	56.80	-53.2	-73.0	3.8	7.46e-01	0	58	104	0	68	37789
2026-01-05 10:38:47.70	49.33	56.77	-53.2	-73.0	3.8	7.45e-01	0	58	104	0	68	37767
2026-01-05 10:38:48.55	48.51	56.73	-53.2	-73.0	3.8	7.45e-01	0	58	104	0	68	37732
2026-01-05 10:38:49.68	47.42	56.67	-53.2	-73.0	3.8	7.42e-01	0	57	104	0	68	37785
2026-01-05 10:38:50.52	46.61	56.62	-53.2	-73.0	3.8	7.45e-01	0	58	104	0	68	37678
2026-01-05 10:38:51.65	45.54	56.55	-53.2	-73.0	3.8	7.47e-01	0	57	104	0	68	37713
2026-01-05 10:38:52.50	44.73	56.49	-53.2	-73.0	3.8	7.44e-01	0	58	104	0	68	37686
2026-01-05 10:38:53.62	43.67	56.40	-53.2	-73.0	3.8	7.44e-01	0	58	104	0	68	37658
2026-01-05 10:38:54.47	42.87	56.32	-53.2	-73.0	3.8	7.45e-01	0	58	104	0	68	37609
2026-01-05 10:38:55.61	41.81	56.22	-53.2	-73.0	3.8	7.44e-01	0	58	104	0	68	37589
2026-01-05 10:38:56.45	41.03	56.13	-53.2	-73.0	3.8	7.47e-01	0	58	104	0	68	37595
2026-01-05 10:38:57.60	39.98	56.01	-53.2	-73.0	3.8	7.46e-01	0	58	104	0	68	37622
2026-01-05 10:38:58.45	39.20	55.91	-53.1	-73.0	3.8	7.45e-01	0	58	104	0	68	37567
2026-01-05 10:38:59.58	38.18	55.77	-53.1	-73.0	3.8	7.47e-01	0	57	104	0	68	37600
2026-01-05 10:39:00.42	37.43	55.66	-53.1	-73.0	3.8	7.45e-01	0	58	104	0	68	37510
2026-01-05 10:39:01.55	36.43	55.51	-53.1	-73.0	3.8	7.49e-01	0	58	104	0	68	37505
2026-01-05 10:39:02.40	35.68	55.39	-53.1	-73.0	3.8	7.47e-01	0	57	104	0	68	37484
2026-01-05 10:39:03.53	34.70	55.22	-53.1	-73.0	3.8	7.46e-01	0	58	104	0	68	37407
2026-01-05 10:39:04.38	33.97	55.09	-53.1	-73.0	3.8	7.46e-01	0	58	104	0	68	37452
2026-01-05 10:39:05.52	33.00	54.91	-53.1	-73.0	3.8	7.45e-01	0	58	104	0	68	37443
2026-01-05 10:39:06.36	32.29	54.78	-53.1	-73.0	3.8	7.46e-01	0	57	104	0	68	37394
2026-01-05 10:39:07.50	31.34	54.58	-53.1	-73.0	3.8	7.44e-01	0	58	104	0	68	37376
2026-01-05 10:39:08.35	30.64	54.43	-53.1	-73.0	3.8	7.46e-01	0	57	104	0	68	37375
2026-01-05 10:39:09.48	29.73	54.23	-53.1	-73.0	3.8	7.47e-01	0	58	104	0	68	37392
2026-01-05 10:39:10.33	29.05	54.07	-53.1	-72.9	3.8	7.44e-01	0	58	104	0	68	37243
2026-01-05 10:39:11.46	28.15	53.86	-53.1	-72.9	3.8	7.42e-01	0	58	104	0	68	37232
2026-01-05 10:39:12.31	27.49	53.69	-53.1	-72.9	3.8	7.44e-01	0	58	104	0	68	37300
2026-01-05 10:39:13.45	26.61	53.46	-53.1	-72.9	3.8	7.47e-01	0	58	104	0	68	37201
2026-01-05 10:39:14.30	25.97	53.29	-53.1	-72.9	3.8	7.45e-01	0	58	104	0	68	37252
2026-01-05 10:39:15.43	25.12	53.06	-53.1	-72.9	3.8	7.44e-01	0	58	104	0	68	37232
2026-01-05 10:39:16.28	24.50	52.88	-53.1	-72.9	3.9	7.43e-01	0	58	104	0	68	37206
2026-01-05 10:39:17.41	23.67	52.63	-53.1	-72.9	3.8	7.42e-01	0	58	104	0	68	37082
2026-01-05 10:39:18.26	23.07	52.45	-53.1	-72.9	3.8	7.45e-01	0	58	104	0	68	37116
2026-01-05 10:39:19.38	22.28	52.20	-53.1	-72.9	3.8	7.46e-01	0	57	104	0	68	37103
2026-01-05 10:39:20.22	21.69	52.01	-53.0	-72.9	3.8	7.46e-01	0	58	104	0	68	37110
2026-01-05 10:39:21.35	20.92	51.75	-53.0	-72.9	3.8	7.47e-01	0	58	104	0	68	37040
2026-01-05 10:39:22.19	20.35	51.56	-53.0	-72.9	3.8	7.48e-01	0	58	104	0	68	37049
2026-01-05 10:39:23.33	19.60	51.29	-53.0	-72.9	3.8	7.47e-01	0	58	104	0	68	37029
2026-01-05 10:39:24.18	19.04	51.09	-53.0	-72.9	3.8	7.46e-01	0	58	104	0	68	36975
2026-01-05 10:39:25.30	18.32	50.82	-53.0	-72.9	3.8	7.47e-01	0	58	104	0	68	36987
2026-01-05 10:39:26.16	17.78	50.61	-53.0	-72.9	3.8	7.45e-01	0	58	104	0	68	36997
2026-01-05 10:39:27.29	17.08	50.33	-53.0	-72.8	3.8	7.46e-01	0	57	104	0	68	36943
2026-01-05 10:39:28.13	16.56	50.13	-53.0	-72.8	3.8	7.44e-01	0	58	104	0	68	36886
2026-01-05 10:39:29.25	15.89	49.85	-53.0	-72.8	3.8	7.43e-01	0	58	104	0	68	36905
2026-01-05 10:39:30.10	15.39	49.64	-53.0	-72.8	3.8	7.46e-01	0	57	104	0	68	36909
2026-01-05 10:39:31.24	14.72	49.35	-53.0	-72.8	3.8	7.46e-01	0	58	104	0	68	36782
2026-01-05 10:39:32.09	14.23	49.13	-53.0	-72.8	3.8	7.48e-01	0	58	104	0	68	36778
2026-01-05 10:39:33.22	13.60	48.85	-53.0	-72.8	3.8	7.46e-01	0	58	104	0	68	36763
2026-01-05 10:39:34.08	13.12	48.62	-53.0	-72.8	3.8	7.44e-01	0	58	104	0	68	36769
2026-01-05 10:39:35.21	12.51	48.33	-53.0	-72.8	3.8	7.48e-01	0	58	104	0	68	36711
2026-01-05 10:39:36.06	12.05	48.11	-53.0	-72.8	3.8	7.48e-01	0	58	104	0	68	36570
2026-01-05 10:39:37.19	11.46	47.82	-52.9	-72.7	3.8	7.44e-01	0	57	104	0	68	36518
2026-01-05 10:39:38.04	11.02	47.60	-52.9	-72.7	3.8	7.44e-01	0	58	104	0	68	36506
2026-01-05 10:39:39.17	10.44	47.30	-52.9	-72.8	3.8	7.47e-01	0	58	104	0	68	36551
2026-01-05 10:39:40.01	10.02	47.08	-52.9	-72.8	3.8	7.42e-01	0	58	104	0	68	36603
2026-01-05 10:39:41.14	9.47	46.79	-52.9	-72.7	3.8	7.47e-01	0	58	104	0	68	36513
2026-01-05 10:39:41.99	9.05	46.56	-52.9	-72.7	3.8	7.43e-01	0	58	104	0	68	36520
2026-01-05 10:39:43.12	8.52	46.26	-52.9	-72.7	3.8	7.45e-01	0	58	104	0	67	38500
2026-01-05 10:39:43.97	8.12	46.04	-52.9	-72.7	3.8	7.44e-01	0	58	104	0	67	38415
2026-01-05 10:39:45.10	7.60	45.74	-52.8	-72.7	3.6	7.42e-01	0	58	104	0	67	38640
2026-01-05 10:39:45.95	7.21	45.52	-52.8	-72.7	3.8	7.45e-01	0	58	104	0	67	38457
2026-01-05 10:39:47.08	6.71	45.22	-52.8	-72.7	3.8	7.45e-01	0	58	104	0	67	38305
2026-01-05 10:39:47.93	6.34	44.99	-52.6	-72.7	3.8	7.48e-01	0	57	104	0	67	38308
2026-01-05 10:39:49.06	5.86	44.69	-52.8	-72.7	3.8	7.48e-01	0	58	104	0	67	38255
2026-01-05 10:39:49.90	5.50	44.47	-52.8	-72.7	3.8	7.46e-01	0	58	104	0	67	38266
2026-01-05 10:39:51.02	5.04	44.17	-52.8	-72.7	3.8	7.48e-01	0	58	104	0	67	38270
2026-01-05 10:39:51.87	4.69	43.95	-52.8	-72.6	3.8	7.46e-01	0	58	104	0	67	38223
2026-01-05 10:39:53.00	4.23	43.65	-52.8	-72.6	3.8	7.46e-01	0	58	104	0	67	38143
2026-01-05 10:39:53.86	3.89	43.43	-52.8	-72.6	3.8	7.45e-01	0	58	104	0	67	38183
2026-01-05 10:39:54.99	3.45	43.13	-52.8	-72.6	3.8	7.46e-01	0	58	104	0	67	38068
2026-01-05 10:39:55.84	3.13	42.91	-52.8	-72.6	3.8	7.43e-01	0	58	104	0	67	38095
2026-01-05 10:39:56.96	2.71	42.61	-52.8	-72.6	3.8	7.44e-01	0	58	104	0	67	38011
2026-01-05 10:39:57.81	2.39	42.39	-52.8	-72.6	3.8	7.43e-01	0	58	104	0	67	37912
2026-01-05 10:39:58.95	1.98	42.09	-52.7	-72.6	3.8	7.45e-01	0	58	104	0	67	37973
2026-01-05 10:39:59.79	1.68	41.87	-52.7	-72.6	3.8	7.43e-01	0	58	104	0	67	37871
2026-01-05 10:40:00.92	1.28	41.58	-52.7	-72.6	3.8	7.45e-01	0	58	104	0	67	37865
2026-01-05 10:40:01.77	0.99	41.36	-52.7	-72.6	3.8	7.44e-01	0	58	104	0	67	37854
2026-01-05 10:40:02.91	0.60	41.07	-52.7	-72.6	3.8	7.44e-01	0	58	104	0	67	37826
2026-01-05 10:40:03.76	0.31	40.85	-52.7	-72.6	3.8	7.43e-01	0	58	104	0	67	37810
2026-01-05 10:40:04.90	359.94	40.56	-52.7	-72.5	3.8	7.47e-01	0	58	104	0	67	37722
2026-01-05 10:40:05.74	359.66	40.34	-52.7	-72.5	3.8	7.44e-01	0	58	104	0	67	37635
2026-01-05 10:40:06.87	359.30	40.05	-52.7	-72.5	3.8	7.44e-01	0	58	104	0	67	37551
2026-01-05 10:40:07.73	359.03	39.83	-52.7	-72.5	3.8	7.47e-01	0	57	104	0	67	37607
2026-01-05 10:40:08.85	358.69	39.55	-52.7	-72.5	3.8	7.46e-01	0	58	104	0	67	37533
2026-01-05 10:40:09.70	358.43	39.34	-52.6	-72.5	3.8	7.46e-01	0	57	104	0	67	37604
2026-01-05 10:40:10.83	358.09	39.05	-52.6	-72.5	3.8	7.46e-01	0	58	104	0	67	37461
2026-01-05 10:40:11.68	357.84	38.84	-52.6	-72.5	3.8	7.46e-01	0	58	104	0	67	37514
2026-01-05 10:40:12.80	357.51	38.56	-52.6	-72.4	3.8	7.46e-01	0	58	104	0	67	37330
2026-01-05 10:40:13.64	357.27	38.36	-52.6	-72.5	3.8	7.45e-01	0	58	104	0	67	37388
2026-01-05 10:40:14.77	356.95	38.08	-52.6	-72.4	3.8	7.45e-01	0	58	104	0	67	37333
2026-01-05 10:40:15.62	356.72	37.87	-52.6	-72.4	3.8	7.45e-01	0	58	104	0	67	37285
2026-01-05 10:40:16.75	356.41	37.59	-50.8	-72.4	3.8	7.45e-01	0	57	104	0	67	37219
2026-01-05 10:40:17.60	356.18	37.39	-52.6	-72.4	3.8	7.47e-01	0	58	104	0	67	37137
2026-01-05 10:40:18.73	355.88	37.11	-52.6	-72.4	3.8	7.46e-01	0	58	104	0	67	37174
2026-01-05 10:40:19.59	355.66	36.91	-52.6	-72.4	3.8	7.45e-01	0	58	104	0	67	37052
2026-01-05 10:40:20.71	355.37	36.64	-52.6	-72.4	3.8	7.46e-01	0	58	104	0	67	37082
2026-01-05 10:40:21.57	355.15	36.43	-52.5	-72.3	3.8	7.45e-01	0	58	104	0	67	36937
2026-01-05 10:40:22.69	354.87	36.17	-52.5	-72.3	3.8	7.42e-01	0	58	104	0	67	36910
2026-01-05 10:40:23.54	354.66	35.97	-52.5	-72.3	3.8	7.49e-01	0	58	104	0	67	36837
2026-01-05 10:40:24.67	354.39	35.70	-52.5	-72.3	3.8	7.44e-01	0	58	104	0	67	36854
2026-01-05 10:40:25.52	354.19	35.50	-52.5	-72.3	3.8	7.45e-01	0	58	104	0	67	36816
2026-01-05 10:40:26.66	353.92	35.24	-52.5	-72.3	3.8	7.44e-01	0	58	104	0	67	36716
2026-01-05 10:40:27.50	353.72	35.05	-52.5	-72.3	3.8	7.43e-01	0	58	104	0	67	36720
2026-01-05 10:40:28.63	353.47	34.79	-52.5	-72.3	3.8	7.44e-01	0	58	104	0	67	36715
2026-01-05 10:40:29.48	353.28	34.59	-52.5	-72.3	3.8	7.42e-01	0	58	104	0	67	36622
2026-01-05 10:40:30.62	353.02	34.33	-52.4	-72.3	3.8	7.44e-01	0	57	104	0	67	36562
2026-01-05 10:40:31.46	352.84	34.14	-52.4	-72.3	3.8	7.46e-01	0	58	104	0	67	36595
2026-01-05 10:40:32.59	352.60	33.89	-52.4	-72.2	3.8	7.42e-01	0	58	104	0	67	36416
2026-01-05 10:40:33.43	352.42	33.70	-52.4	-72.2	3.8	7.43e-01	0	58	104	0	67	36414
2026-01-05 10:40:34.56	352.18	33.45	-52.4	-72.2	3.8	7.43e-01	0	58	104	0	67	36425
2026-01-05 10:40:35.41	352.00	33.26	-52.4	-72.2	3.8	7.48e-01	0	57	104	0	67	36368
2026-01-05 10:40:36.55	351.77	33.01	-52.4	-72.2	3.8	7.46e-01	0	58	104	0	67	36370
2026-01-05 10:40:37.40	351.60	32.83	-52.4	-72.2	3.8	7.45e-01	0	58	104	0	67	36249
2026-01-05 10:40:38.52	351.38	32.58	-52.4	-72.2	3.8	7.43e-01	0	58	104	0	67	36228
2026-01-05 10:40:39.37	351.21	32.40	-52.4	-72.2	3.8	7.47e-01	0	57	104	0	67	36111
2026-01-05 10:40:40.49	351.00	32.16	-52.3	-72.2	3.8	7.47e-01	0	58	104	0	66	38247
2026-01-05 10:40:41.33	350.84	31.98	-52.3	-72.1	3.8	7.42e-01	0	58	104	0	66	38187
2026-01-05 10:40:42.47	350.62	31.74	-52.3	-72.1	3.8	7.46e-01	0	58	104	0	66	38153
2026-01-05 10:40:43.32	350.47	31.56	-52.3	-72.1	3.8	7.48e-01	0	58	104	0	66	37979
2026-01-05 10:40:44.45	350.26	31.33	-52.3	-72.1	3.8	7.45e-01	0	58	104	0	66	37962
2026-01-05 10:40:45.31	350.10	31.15	-52.3	-72.1	3.8	7.42e-01	0	58	104	0	66	37882
2026-01-05 10:40:46.44	349.90	30.91	-52.3	-72.0	3.8	7.46e-01	0	58	104	0	66	37790
2026-01-05 10:40:47.29	349.75	30.74	-52.2	-72.0	3.8	7.45e-01	0	58	104	0	66	37806
2026-01-05 10:40:48.43	349.56	30.50	-52.2	-72.0	3.8	7.46e-01	0	58	104	0	66	37682
2026-01-05 10:40:49.27	349.41	30.33	-52.2	-72.0	3.8	7.45e-01	0	58	104	0	66	37726
2026-01-05 10:40:50.40	349.22	30.11	-52.2	-72.0	3.8	7.47e-01	0	58	104	0	66	37571
2026-01-05 10:40:51.25	349.08	29.94	-52.2	-72.0	3.8	7.45e-01	0	58	104	0	66	37496
2026-01-05 10:40:52.38	348.90	29.71	-52.2	-72.0	3.8	7.46e-01	0	58	104	0	66	37447
2026-01-05 10:40:53.24	348.76	29.54	-52.1	-71.9	3.8	7.45e-01	0	58	104	0	66	37335
2026-01-05 10:40:54.37	348.58	29.32	-52.1	-72.0	3.8	7.42e-01	0	58	104	0	66	37471
2026-01-05 10:40:55.22	348.44	29.15	-52.1	-71.9	3.8	7.46e-01	0	58	104	0	66	37174
2026-01-05 10:40:56.35	348.26	28.93	-52.1	-71.9	3.8	7.46e-01	0	57	104	0	66	37115
2026-01-05 10:40:57.21	348.13	28.76	-52.1	-71.9	3.6	7.42e-01	0	58	104	0	66	37249
2026-01-05 10:40:58.34	347.96	28.55	-52.0	-71.8	3.8	7.45e-01	0	58	104	0	66	36906
2026-01-05 10:40:59.19	347.83	28.39	-52.0	-71.9	3.8	7.46e-01	0	58	104	0	66	36964
2026-01-05 10:41:00.31	347.67	28.17	-52.0	-71.8	3.8	7.49e-01	0	58	104	0	66	36782
2026-01-05 10:41:01.15	347.54	28.01	-52.0	-71.8	3.8	7.45e-01	0	58	104	0	66	36753
2026-01-05 10:41:02.29	347.38	27.80	-52.0	-71.8	3.8	7.46e-01	0	58	104	0	66	36604
2026-01-05 10:41:03.14	347.26	27.64	-51.9	-71.7	3.8	7.44e-01	0	58	104	0	66	36521
2026-01-05 10:41:04.28	347.10	27.43	-51.9	-71.7	3.8	7.49e-01	0	58	104	0	66	36498
2026-01-05 10:41:05.13	346.98	27.27	-51.9	-71.7	3.8	7.44e-01	0	58	104	0	66	36403
2026-01-05 10:41:06.26	346.82	27.07	-51.9	-71.7	3.8	7.45e-01	0	58	104	0	66	36365
2026-01-05 10:41:07.11	346.70	26.91	-51.9	-71.7	3.8	7.48e-01	0	58	104	0	66	36278
2026-01-05 10:41:08.24	346.55	26.71	-51.9	-71.7	3.8	7.49e-01	0	58	104	0	66	36176
2026-01-05 10:41:09.08	346.44	26.56	-51.8	-71.6	3.8	7.46e-01	0	58	104	0	65	38154
2026-01-05 10:41:10.21	346.29	26.36	-51.8	-71.6	3.8	7.44e-01	0	58	104	0	65	38009
2026-01-05 10:41:11.07	346.18	26.20	-51.8	-71.6	3.8	7.45e-01	0	58	104	0	65	37951
2026-01-05 10:41:12.20	346.04	26.00	-51.8	-71.6	3.8	7.44e-01	0	58	104	0	65	37873
2026-01-05 10:41:13.05	345.93	25.86	-51.7	-71.5	3.8	7.47e-01	0	58	104	0	65	37778
2026-01-05 10:41:14.19	345.78	25.66	-51.7	-71.5	3.8	7.47e-01	0	58	104	0	65	37651
2026-01-05 10:41:15.04	345.68	25.51	-51.7	-71.5	3.8	7.45e-01	0	58	104	0	65	37543
2026-01-05 10:41:16.17	345.54	25.32	-51.7	-71.4	3.8	7.46e-01	0	58	104	0	65	37320
2026-01-05 10:41:17.01	345.44	25.17	-51.6	-71.4	3.8	7.43e-01	0	58	104	0	65	37186
2026-01-05 10:41:18.14	345.30	24.98	-51.6	-71.4	3.8	7.45e-01	0	58	104	0	65	37037
2026-01-05 10:41:18.98	345.20	24.84	-51.6	-71.4	3.8	7.48e-01	0	58	104	0	65	36959
2026-01-05 10:41:20.11	345.07	24.65	-51.6	-71.3	3.8	7.44e-01	0	58	104	0	65	36895
2026-01-05 10:41:20.97	344.97	24.51	-51.5	-71.3	3.8	7.42e-01	0	58	104	0	65	36803
2026-01-05 10:41:22.10	344.84	24.32	-51.5	-71.3	3.8	7.44e-01	0	58	104	0	65	36640
2026-01-05 10:41:22.94	344.75	24.18	-51.5	-71.3	3.8	7.47e-01	0	58	104	0	65	36554
2026-01-05 10:41:24.07	344.62	23.99	-51.5	-71.2	3.8	7.50e-01	0	58	104	0	65	36391
2026-01-05 10:41:24.92	344.53	23.86	-51.4	-71.2	3.8	7.45e-01	0	58	104	0	65	36240
2026-01-05 10:41:26.06	344.40	23.67	-51.4	-71.5	3.6	7.44e-01	0	58	104	0	65	37606
2026-01-05 10:41:26.91	344.31	23.53	-51.4	-71.2	3.8	7.44e-01	0	58	104	0	65	36113
2026-01-05 10:41:28.04	344.19	23.35	-51.3	-71.1	3.8	7.45e-01	0	58	104	0	65	35903
2026-01-05 10:41:28.88	344.10	23.22	-51.3	-71.2	3.9	7.46e-01	0	58	104	0	64	38285
2026-01-05 10:41:30.01	343.98	23.04	-51.3	-71.0	3.8	7.46e-01	0	58	104	0	64	37801
2026-01-05 10:41:30.85	343.90	22.91	-51.2	-71.0	3.8	7.46e-01	0	58	104	0	64	37648
2026-01-05 10:41:31.99	343.78	22.73	-51.2	-71.0	3.8	7.47e-01	0	58	104	0	64	37512
2026-01-05 10:41:32.84	343.69	22.60	-51.2	-71.0	3.8	7.45e-01	0	58	104	0	64	37445
2026-01-05 10:41:33.98	343.58	22.42	-51.1	-70.9	3.8	7.47e-01	0	58	104	0	64	37256
2026-01-05 10:41:34.83	343.49	22.29	-51.1	-70.9	3.8	7.44e-01	0	58	104	0	64	37163
2026-01-05 10:41:35.96	343.38	22.12	-51.1	-70.8	3.8	7.47e-01	0	58	104	0	64	36920
2026-01-05 10:41:36.80	343.30	21.99	-51.0	-70.8	3.8	7.46e-01	0	58	104	0	64	36832
2026-01-05 10:41:37.93	343.19	21.82	-51.0	-70.8	3.8	7.44e-01	0	58	104	0	64	36605
2026-01-05 10:41:38.79	343.11	21.69	-51.0	-70.7	3.8	7.47e-01	0	58	104	0	64	36469
2026-01-05 10:41:39.92	343.00	21.53	-50.9	-70.7	3.8	7.45e-01	0	58	104	0	64	36250
2026-01-05 10:41:40.77	342.92	21.40	-50.9	-70.7	3.8	7.45e-01	0	58	104	0	64	36230
2026-01-05 10:41:41.90	342.82	21.23	-50.8	-70.6	3.8	7.46e-01	0	58	104	0	64	35932
2026-01-05 10:41:42.75	342.74	21.11	-50.8	-70.6	3.8	7.45e-01	0	58	104	0	64	35845
2026-01-05 10:41:43.89	342.64	20.94	-50.8	-70.5	3.8	7.44e-01	0	58	104	0	64	35549
2026-01-05 10:41:44.73	342.56	20.82	-50.7	-70.5	3.8	7.43e-01	0	58	104	0	64	35509
2026-01-05 10:41:45.87	342.46	20.66	-50.7	-70.4	3.8	7.45e-01	0	58	104	0	64	35197
2026-01-05 10:41:46.72	342.39	20.54	-50.7	-70.5	3.8	7.44e-01	0	58	104	0	63	37413
2026-01-05 10:41:47.86	342.29	20.37	-50.7	-70.4	3.8	7.45e-01	0	58	104	0	63	37139
2026-01-05 10:41:48.70	342.22	20.25	-50.6	-70.4	3.8	7.45e-01	0	58	104	0	63	37145
2026-01-05 10:41:49.84	342.12	20.09	-50.6	-70.3	3.8	7.45e-01	0	58	104	0	63	36822
2026-01-05 10:41:50.69	342.05	19.98	-50.6	-70.3	3.8	7.45e-01	0	58	104	0	63	36646
2026-01-05 10:41:51.82	341.95	19.82	-50.5	-70.2	3.8	7.48e-01	0	58	104	0	63	36412
2026-01-05 10:41:52.67	341.88	19.70	-50.5	-70.2	3.8	7.45e-01	0	58	104	0	63	36314
2026-01-05 10:41:53.80	341.79	19.55	-50.4	-70.2	3.8	7.45e-01	0	58	104	0	63	36164
2026-01-05 10:41:54.65	341.72	19.43	-50.4	-70.1	3.8	7.48e-01	0	58	104	0	63	35917
2026-01-05 10:41:55.79	341.63	19.27	-50.3	-70.1	3.8	7.42e-01	0	58	104	0	62	37825
2026-01-05 10:41:56.64	341.56	19.16	-50.3	-70.0	3.8	7.45e-01	0	58	104	0	62	37639
2026-01-05 10:41:57.77	341.48	19.01	-50.3	-70.0	3.8	7.43e-01	0	58	104	0	62	37624
2026-01-05 10:41:58.62	341.41	18.89	-50.2	-69.9	3.8	7.49e-01	0	58	104	0	62	37292
2026-01-05 10:41:59.74	341.32	18.74	-50.2	-69.9	3.8	7.46e-01	0	58	104	0	62	37059
2026-01-05 10:42:00.59	341.26	18.63	-50.1	-70.4	3.9	7.60e-01	0	58	104	0	61	41697
2026-01-05 10:42:01.72	341.17	18.48	-50.1	-69.8	3.8	7.46e-01	0	58	104	0	62	36763
2026-01-05 10:42:02.57	341.11	18.37	-50.1	-69.8	3.8	7.44e-01	0	58	104	0	62	36668
2026-01-05 10:42:03.70	341.02	18.22	-50.1	-69.8	3.8	7.46e-01	0	58	104	0	62	36632
2026-01-05 10:42:04.56	340.96	18.11	-50.0	-69.7	3.8	7.44e-01	0	58	104	0	62	36411
2026-01-05 10:42:05.69	340.88	17.97	-50.0	-69.7	3.8	7.46e-01	0	58	104	0	62	36296
2026-01-05 10:42:06.53	340.82	17.86	-50.0	-69.7	3.8	7.47e-01	0	58	104	0	62	36397
2026-01-05 10:42:07.67	340.74	17.71	-49.9	-69.7	3.8	7.45e-01	0	58	104	0	62	36112
2026-01-05 10:42:08.51	340.68	17.61	-49.9	-69.6	3.8	7.46e-01	0	58	104	0	62	36005
2026-01-05 10:42:09.65	340.60	17.46	-49.9	-69.6	3.8	7.48e-01	0	58	104	0	62	35954
2026-01-05 10:42:10.50	340.54	17.36	-49.9	-69.6	3.8	7.44e-01	0	58	104	0	62	35903
2026-01-05 10:42:11.63	340.46	17.22	-49.9	-69.6	3.8	7.45e-01	0	58	104	0	62	35858
2026-01-05 10:42:12.48	340.40	17.11	-49.8	-69.5	3.8	7.45e-01	0	58	104	0	61	37802
2026-01-05 10:42:13.61	340.33	16.97	-49.8	-69.5	3.8	7.44e-01	0	58	104	0	61	37747
2026-01-05 10:42:14.47	340.27	16.86	-49.8	-69.5	3.8	7.48e-01	0	58	104	0	61	37733
2026-01-05 10:42:15.61	340.19	16.73	-49.8	-69.5	3.8	7.45e-01	0	58	104	0	61	37578
2026-01-05 10:42:16.46	340.14	16.62	-49.8	-69.5	3.8	7.46e-01	0	58	104	0	61	37635
2026-01-05 10:42:17.59	340.06	16.49	-49.8	-69.5	3.8	7.45e-01	0	58	104	0	61	37489
2026-01-05 10:42:18.43	340.01	16.38	-49.8	-69.5	3.8	7.47e-01	0	58	104	0	61	37502
2026-01-05 10:42:19.56	339.94	16.25	-49.7	-69.4	3.8	7.44e-01	0	58	104	0	61	37358
2026-01-05 10:42:20.41	339.88	16.15	-49.7	-69.5	3.8	7.42e-01	0	58	104	0	61	37381
2026-01-05 10:42:21.54	339.81	16.01	-49.7	-69.4	3.8	7.45e-01	0	58	104	0	61	37310
2026-01-05 10:42:22.39	339.76	15.91	-49.7	-69.4	3.8	7.46e-01	0	58	104	0	61	37208
2026-01-05 10:42:23.52	339.69	15.78	-49.7	-69.4	3.8	7.47e-01	0	58	104	0	61	37212
2026-01-05 10:42:24.37	339.64	15.68	-49.7	-69.4	3.8	7.45e-01	0	58	104	0	61	37164
2026-01-05 10:42:25.49	339.57	15.55	-49.7	-69.4	3.8	7.48e-01	0	58	104	0	61	37231
2026-01-05 10:42:26.34	339.52	15.45	-49.7	-69.4	3.8	7.47e-01	0	58	104	0	61	37191
2026-01-05 10:42:27.46	339.45	15.32	-49.7	-69.4	3.8	7.46e-01	0	58	104	0	61	37195
2026-01-05 10:42:28.31	339.40	15.23	-49.7	-69.4	3.8	7.45e-01	0	58	104	0	61	37143
2026-01-05 10:42:29.44	339.33	15.10	-50.2	-70.5	3.9	7.50e-01	0	58	104	0	61	42036
2026-01-05 10:42:30.29	339.28	15.00	-49.7	-69.4	3.8	7.40e-01	0	58	104	0	61	37111
2026-01-05 10:42:31.42	339.22	14.87	-49.7	-69.4	3.8	7.48e-01	0	58	104	0	61	37117
2026-01-05 10:42:32.27	339.17	14.78	-49.7	-69.4	3.8	7.46e-01	0	58	104	0	61	37081
2026-01-05 10:42:33.40	339.11	14.65	-49.7	-69.4	3.8	7.43e-01	0	58	104	0	61	37119
2026-01-05 10:42:34.25	339.06	14.56	-49.7	-69.4	3.8	7.44e-01	0	58	104	0	61	37136
2026-01-05 10:42:35.38	338.99	14.43	-49.7	-69.4	3.8	7.44e-01	0	58	104	0	61	37140
2026-01-05 10:42:36.24	338.95	14.34	-49.7	-69.4	3.8	7.42e-01	0	58	104	0	61	37142
2026-01-05 10:42:37.37	338.88	14.21	-49.7	-69.4	3.8	7.45e-01	0	58	104	0	61	37022
2026-01-05 10:42:38.21	338.84	14.12	-49.7	-69.4	3.8	7.44e-01	0	58	104	0	61	37085
2026-01-05 10:42:39.34	338.78	14.00	-49.7	-69.4	3.8	7.44e-01	0	58	104	0	61	37101
2026-01-05 10:42:40.18	338.73	13.91	-49.7	-69.4	3.8	7.44e-01	0	58	104	0	61	37225
2026-01-05 10:42:41.32	338.67	13.78	-49.7	-69.4	3.8	7.45e-01	0	58	104	0	61	37251
2026-01-05 10:42:42.16	338.63	13.69	-49.7	-69.4	3.8	7.45e-01	0	58	104	0	61	37181
2026-01-05 10:42:43.30	338.57	13.57	-49.7	-69.4	3.8	7.47e-01	0	58	104	0	61	37185
2026-01-05 10:42:44.15	338.52	13.48	-49.7	-69.4	3.8	7.47e-01	0	58	104	0	61	37218
2026-01-05 10:42:45.29	338.47	13.36	-49.7	-69.4	3.8	7.45e-01	0	58	104	0	61	37224
2026-01-05 10:42:46.14	338.42	13.27	-49.7	-69.4	3.8	7.44e-01	0	58	104	0	61	37220
2026-01-05 10:42:47.27	338.37	13.15	-49.7	-69.4	3.8	7.45e-01	0	58	104	0	61	37210
2026-01-05 10:42:48.12	338.32	13.06	-49.7	-69.4	3.8	7.44e-01	0	58	104	0	61	37164
2026-01-05 10:42:49.25	338.27	12.95	-49.7	-69.4	3.8	7.42e-01	0	58	104	0	61	37273
2026-01-05 10:42:50.10	338.23	12.86	-49.7	-69.4	3.8	7.44e-01	0	58	104	0	61	37160
2026-01-05 10:42:51.22	338.17	12.74	-49.7	-69.4	3.8	7.46e-01	0	58	104	0	61	37235
2026-01-05 10:42:52.07	338.13	12.66	-49.7	-69.4	3.8	7.44e-01	0	58	104	0	61	37253
2026-01-05 10:42:53.22	338.07	12.54	-49.7	-69.4	3.8	7.46e-01	0	58	104	0	61	37261
2026-01-05 10:42:54.06	338.03	12.45	-49.7	-69.4	3.8	7.45e-01	0	58	104	0	61	37268
2026-01-05 10:42:55.19	337.98	12.34	-49.8	-69.4	3.8	7.45e-01	0	58	104	0	61	37350
2026-01-05 10:42:56.04	337.94	12.25	-49.7	-69.4	3.8	7.46e-01	0	58	104	0	61	37278
2026-01-05 10:42:57.16	337.89	12.14	-49.7	-69.4	3.8	7.43e-01	0	58	104	0	61	37344
2026-01-05 10:42:58.01	337.85	12.06	-49.8	-69.4	3.8	7.43e-01	0	58	104	0	61	37349
2026-01-05 10:42:59.15	337.80	11.94	-49.8	-69.4	3.8	7.42e-01	0	58	104	0	61	37309
2026-01-05 10:43:00.00	337.76	11.86	-49.8	-69.4	3.8	7.45e-01	0	58	104	0	61	37293
2026-01-05 10:43:01.13	337.71	11.75	-49.5	-69.4	3.8	7.46e-01	0	58	104	0	61	37340
2026-01-05 10:43:01.98	337.67	11.66	-49.8	-69.5	3.8	7.48e-01	0	58	104	0	61	37407
2026-01-05 10:43:03.12	337.62	11.55	-49.8	-69.5	3.8	7.46e-01	0	58	104	0	61	37407
2026-01-05 10:43:03.97	337.58	11.47	-49.8	-69.5	3.8	7.44e-01	0	58	104	0	61	37404
2026-01-05 10:43:05.10	337.53	11.36	-49.8	-69.5	3.8	7.43e-01	0	58	104	0	61	37417
2026-01-05 10:43:05.95	337.49	11.28	-49.8	-69.5	3.8	7.43e-01	0	58	104	0	61	37512
2026-01-05 10:43:07.08	337.44	11.17	-49.8	-69.5	3.8	7.43e-01	0	58	104	0	61	37480
2026-01-05 10:43:07.94	337.41	11.09	-49.8	-69.5	3.8	7.44e-01	0	58	104	0	61	37503
2026-01-05 10:43:09.07	337.36	10.98	-49.8	-69.5	3.8	7.46e-01	0	58	104	0	61	37423
2026-01-05 10:43:09.91	337.32	10.90	-49.8	-69.5	3.8	7.43e-01	0	58	104	0	61	37515
2026-01-05 10:43:11.05	337.28	10.79	-49.8	-69.5	3.8	7.44e-01	0	58	104	0	61	37439
2026-01-05 10:43:11.90	337.24	10.71	-49.8	-69.5	3.8	7.44e-01	0	58	104	0	61	37565
2026-01-05 10:43:13.02	337.20	10.61	-49.8	-69.5	3.8	7.46e-01	0	58	104	0	61	37383
2026-01-05 10:43:13.87	337.16	10.53	-49.8	-69.5	3.8	7.44e-01	0	58	104	0	61	37540
2026-01-05 10:43:15.01	337.11	10.42	-49.8	-69.5	3.8	7.46e-01	0	58	104	0	61	37515
2026-01-05 10:43:15.86	337.08	10.34	-49.8	-69.5	3.8	7.46e-01	0	58	104	0	61	37535
2026-01-05 10:43:17.00	337.03	10.24	-49.8	-69.5	3.8	7.45e-01	0	58	104	0	61	37598
2026-01-05 10:43:17.84	337.00	10.16	-49.8	-69.5	3.8	7.45e-01	0	58	104	0	61	37571
2026-01-05 10:43:18.98	336.96	10.06	-49.8	-69.5	3.8	7.46e-01	0	58	104	0	61	37484
2026-01-05 10:43:19.83	336.92	9.98	-49.8	-69.5	3.8	7.48e-01	0	58	104	0	61	37577
2026-01-05 10:43:20.96	336.88	9.88	-49.8	-69.5	3.8	7.44e-01	0	58	104	0	61	37595
2026-01-05 10:43:21.80	336.85	9.80	-49.8	-69.5	3.8	7.45e-01	0	58	104	0	61	37624
2026-01-05 10:43:22.94	336.80	9.70	-49.8	-69.5	3.8	7.42e-01	0	58	104	0	61	37647
2026-01-05 10:43:23.78	336.77	9.62	-49.8	-69.5	3.8	7.47e-01	0	58	104	0	61	37582
2026-01-05 10:43:24.91	336.73	9.52	-49.8	-69.5	3.8	7.45e-01	0	58	104	0	61	37552
2026-01-05 10:43:25.76	336.70	9.45	-49.8	-69.5	3.8	7.45e-01	0	58	104	0	61	37594
2026-01-05 10:43:26.90	336.65	9.34	-49.8	-69.5	3.8	7.44e-01	0	58	104	0	61	37619
2026-01-05 10:43:27.75	336.62	9.27	-49.8	-69.5	3.8	7.46e-01	0	58	104	0	61	37569
2026-01-05 10:43:28.87	336.58	9.17	-49.8	-69.5	3.8	7.46e-01	0	58	104	0	61	37597
2026-01-05 10:43:29.73	336.55	9.09	-49.8	-69.5	3.8	7.49e-01	0	58	104	0	61	37654
2026-01-05 10:43:30.86	336.51	9.00	-49.8	-69.5	3.8	7.44e-01	0	58	104	0	61	37638
2026-01-05 10:43:31.70	336.48	8.92	-49.8	-69.5	3.8	7.45e-01	0	58	104	0	61	37564
2026-01-05 10:43:32.84	336.44	8.82	-49.2	-69.5	3.8	7.45e-01	0	58	104	0	61	37647
2026-01-05 10:43:33.68	336.41	8.75	-49.8	-69.5	3.8	7.47e-01	0	58	104	0	61	37614
2026-01-05 10:43:34.81	336.37	8.65	-49.8	-69.5	3.8	7.44e-01	0	58	104	0	61	37536
2026-01-05 10:43:35.66	336.34	8.58	-49.8	-69.5	3.8	7.46e-01	0	58	104	0	61	37574
2026-01-05 10:43:36.79	336.30	8.48	-49.8	-69.5	3.8	7.45e-01	0	58	104	0	61	37579
2026-01-05 10:43:37.64	336.27	8.41	-49.8	-69.5	3.8	7.43e-01	0	58	104	0	61	37624
2026-01-05 10:43:38.77	336.23	8.32	-49.8	-69.5	3.8	7.44e-01	0	58	104	0	61	37605
2026-01-05 10:43:39.62	336.20	8.24	-49.8	-69.5	3.8	7.45e-01	0	58	104	0	61	37518
2026-01-05 10:43:40.76	336.17	8.15	-49.8	-69.5	3.8	7.47e-01	0	58	104	0	61	37440
2026-01-05 10:43:41.61	336.14	8.08	-49.8	-69.5	3.8	7.48e-01	0	58	104	0	61	37558
2026-01-05 10:43:42.75	336.10	7.98	-49.8	-69.5	3.8	7.47e-01	0	58	104	0	61	37500
2026-01-05 10:43:43.60	336.07	7.91	-49.8	-69.5	3.8	7.49e-01	0	58	104	0	61	37517
2026-01-05 10:43:44.74	336.03	7.82	-49.8	-69.5	3.8	7.43e-01	0	58	104	0	61	37383
2026-01-05 10:43:45.59	336.01	7.74	-49.8	-69.5	3.8	7.47e-01	0	58	104	0	61	37469
2026-01-05 10:43:46.72	335.97	7.65	-49.8	-69.5	3.8	7.46e-01	0	58	104	0	61	37431
2026-01-05 10:43:47.56	335.94	7.58	-49.8	-69.5	3.8	7.44e-01	0	58	104	0	61	37477
2026-01-05 10:43:48.69	335.91	7.49	-49.8	-69.5	3.8	7.44e-01	0	58	104	0	61	37385
2026-01-05 10:43:49.54	335.88	7.42	-49.7	-69.5	3.8	7.47e-01	0	58	104	0	61	37377
2026-01-05 10:43:50.67	335.84	7.33	-49.7	-69.4	3.8	7.44e-01	0	58	104	0	61	37374
2026-01-05 10:43:51.52	335.82	7.26	-49.7	-69.4	3.8	7.46e-01	0	58	104	0	61	37365
2026-01-05 10:43:52.64	335.78	7.17	-49.7	-69.5	3.8	7.46e-01	0	58	104	0	61	37386
2026-01-05 10:43:53.49	335.76	7.10	-49.7	-69.4	3.8	7.48e-01	0	58	104	0	61	37342
2026-01-05 10:43:54.63	335.72	7.01	-49.7	-69.4	3.8	7.44e-01	0	58	104	0	61	37372
2026-01-05 10:43:55.48	335.70	6.94	-49.7	-69.5	3.8	7.43e-01	0	58	104	0	61	37386
2026-01-05 10:43:56.61	335.66	6.85	-49.7	-69.5	3.8	7.41e-01	0	58	104	0	61	37375
2026-01-05 10:43:57.46	335.64	6.78	-49.7	-69.4	3.8	7.45e-01	0	58	104	0	61	37323
2026-01-05 10:43:58.58	335.60	6.69	-49.7	-69.4	3.8	7.45e-01	0	58	104	0	61	37252
2026-01-05 10:43:59.44	335.58	6.63	-49.7	-69.4	3.8	7.47e-01	0	58	104	0	61	37228
2026-01-05 10:44:00.56	335.54	6.54	-49.7	-69.4	3.8	7.49e-01	0	58	104	0	61	37204
2026-01-05 10:44:01.41	335.52	6.47	-49.7	-69.4	3.8	7.42e-01	0	58	104	0	61	37163
2026-01-05 10:44:02.54	335.49	6.38	-49.7	-69.4	3.8	7.45e-01	0	58	104	0	61	37176
2026-01-05 10:44:03.39	335.46	6.32	-49.7	-69.4	3.8	7.48e-01	0	58	104	0	61	37155
2026-01-05 10:44:04.52	335.43	6.23	-49.7	-69.4	3.8	7.44e-01	0	58	104	0	61	37218
2026-01-05 10:44:05.37	335.41	6.16	-49.7	-69.4	3.8	7.45e-01	0	58	104	0	61	37204
2026-01-05 10:44:06.50	335.37	6.08	-49.7	-69.4	3.8	7.46e-01	0	58	104	0	61	37156
2026-01-05 10:44:07.35	335.35	6.01	-49.7	-69.4	3.8	7.44e-01	0	58	104	0	61	37205
2026-01-05 10:44:08.48	335.32	5.92	-49.7	-69.4	3.8	7.44e-01	0	58	104	0	61	37219
2026-01-05 10:44:09.33	335.30	5.86	-49.7	-69.4	3.8	7.47e-01	0	58	104	0	61	37123
2026-01-05 10:44:10.46	335.26	5.77	-49.7	-69.4	3.8	7.39e-01	0	58	104	0	61	37187
2026-01-05 10:44:11.30	335.24	5.71	-49.7	-69.4	3.8	7.47e-01	0	58	104	0	61	37208
2026-01-05 10:44:12.44	335.21	5.62	-49.7	-69.4	3.8	7.45e-01	0	58	104	0	61	37152
2026-01-05 10:44:13.29	335.19	5.56	-49.7	-69.4	3.8	7.43e-01	0	58	104	0	61	37274
2026-01-05 10:44:14.42	335.16	5.47	-49.7	-69.4	3.8	7.42e-01	0	58	104	0	61	37106
2026-01-05 10:44:15.27	335.13	5.41	-49.7	-69.4	3.8	7.48e-01	0	58	104	0	61	37108
2026-01-05 10:44:16.41	335.10	5.32	-49.7	-69.4	3.8	7.43e-01	0	58	104	0	61	37131
2026-01-05 10:44:17.26	335.08	5.26	-49.7	-69.4	3.8	7.44e-01	0	58	104	0	61	37170
2026-01-05 10:44:18.39	335.05	5.18	-49.7	-69.4	3.8	7.46e-01	0	58	104	0	61	37051
2026-01-05 10:44:19.24	335.03	5.11	-49.7	-69.4	3.8	7.44e-01	0	58	104	0	61	37078
2026-01-05 10:44:20.36	335.00	5.03	-49.7	-69.4	3.8	7.46e-01	0	58	104	0	61	37090
2026-01-05 10:44:21.21	334.98	4.97	-49.7	-69.4	3.8	7.47e-01	0	58	104	0	61	37020
2026-01-05 10:44:22.34	334.95	4.88	-49.7	-69.4	3.8	7.49e-01	0	58	104	0	61	37117
2026-01-05 10:44:23.19	334.93	4.82	-49.7	-69.4	3.8	7.44e-01	0	58	104	0	61	37105
2026-01-05 10:44:24.33	334.90	4.74	-49.7	-69.4	3.8	7.46e-01	0	58	104	0	61	37056
2026-01-05 10:44:25.18	334.88	4.68	-49.7	-69.4	3.8	7.47e-01	0	58	104	0	61	37011
2026-01-05 10:44:26.31	334.85	4.59	-49.7	-69.4	3.8	7.44e-01	0	58	104	0	61	37107
2026-01-05 10:44:27.16	334.83	4.53	-49.7	-69.4	3.8	7.43e-01	0	58	104	0	61	37068
2026-01-05 10:44:28.28	334.80	4.45	-49.7	-69.4	3.8	7.45e-01	0	58	104	0	61	37085
2026-01-05 10:44:29.13	334.78	4.39	-49.7	-69.4	3.8	7.48e-01	0	58	104	0	61	37092
2026-01-05 10:44:30.26	334.75	4.31	-49.7	-69.4	3.8	7.41e-01	0	58	104	0	61	37105
2026-01-05 10:44:31.11	334.73	4.25	-49.7	-69.4	3.8	7.47e-01	0	58	104	0	61	37109
2026-01-05 10:44:32.24	334.71	4.17	-49.7	-69.4	3.8	7.47e-01	0	58	104	0	61	37100
2026-01-05 10:44:33.09	334.69	4.11	-49.7	-69.4	3.8	7.41e-01	0	58	104	0	61	37051
2026-01-05 10:44:34.23	334.66	4.03	-49.7	-69.4	3.8	7.42e-01	0	58	104	0	61	37096
2026-01-05 10:44:35.07	334.64	3.97	-49.7	-69.4	3.8	7.44e-01	0	58	104	0	61	37082
2026-01-05 10:44:36.20	334.61	3.89	-49.7	-69.4	3.8	7.49e-01	0	58	104	0	61	37021
2026-01-05 10:44:37.04	334.59	3.83	-49.7	-69.4	3.8	7.45e-01	0	58	104	0	61	37064
2026-01-05 10:44:38.18	334.57	3.75	-49.7	-69.4	3.8	7.47e-01	0	58	104	0	61	37097
2026-01-05 10:44:39.02	334.55	3.69	-49.7	-69.4	3.8	7.43e-01	0	58	104	0	61	37148
2026-01-05 10:44:40.15	334.52	3.61	-49.7	-69.4	3.8	7.44e-01	0	58	104	0	61	37102
2026-01-05 10:44:41.00	334.50	3.55	-49.7	-69.4	3.8	7.44e-01	0	58	104	0	61	37087
2026-01-05 10:44:42.13	334.48	3.47	-49.7	-69.5	3.8	7.43e-01	0	58	104	0	61	37690
2026-01-05 10:44:42.98	334.46	3.41	-49.7	-69.4	3.8	7.46e-01	0	58	104	0	61	37146
2026-01-05 10:44:44.11	334.43	3.33	-49.7	-69.4	3.8	7.47e-01	0	58	104	0	61	37104
2026-01-05 10:44:44.96	334.42	3.28	-49.7	-69.4	3.8	7.47e-01	0	58	104	0	61	37157
2026-01-05 10:44:46.09	334.39	3.20	-49.7	-69.4	3.8	7.47e-01	0	58	104	0	61	37088
2026-01-05 10:44:46.94	334.37	3.14	-49.7	-69.4	3.8	7.46e-01	0	58	104	0	61	37124
2026-01-05 10:44:48.07	334.35	3.06	-49.7	-69.4	3.8	7.45e-01	0	58	104	0	61	37144
2026-01-05 10:44:48.92	334.33	3.00	-49.7	-69.4	3.8	7.50e-01	0	58	104	0	61	37117
2026-01-05 10:44:50.05	334.31	2.93	-49.7	-69.4	3.8	7.48e-01	0	58	104	0	61	37118

#Closed at: 2026-01-05 10:44:50
#Recorded file [0 MB]: D:/Data/31026_260105_133751.dat