passes_logs/2026/01/05/R3.0SM8_Murmansk_STILSPACE/R3.0SM8_Murmansk_STILSPACE__20260105_130136_NOAA_20_JPSS-1_rec.log

#Pass ID: 20260105_130136_NOAA 20 (JPSS-1)
#Satellite: NOAA 20 (JPSS-1)
#Configuration: NOAA 20
#almurnet v.1.7.20240730
#Start time: 2026-01-05 13:01:38

#Version: 2.2.20231116
#Station: R3.0SM8_Murmansk_STILSPACE
#Location: 33.092731 lon 68.902999 lat
#TLE: 1 43013U 17073A   26004.89819562  .00000113  00000+0  74278-4 0  9995
#TLE: 2 43013  98.7626 305.9448 0001841  53.9015 306.2332 14.19533229421309

#Time	Az	El	Level	Level2	SNR	BER	BlckErr	Temp	State	Recorded	gain1	gain2
2026-01-05 13:01:38.28	245.91	3.09	-48.5	-62.2	3.8	1.49e+00	0	48	0	0	58	18847
2026-01-05 13:01:39.26	246.01	3.14	-48.5	-62.2	3.8	1.49e+00	0	48	104	0	59	17790
2026-01-05 13:01:40.24	246.12	3.18	-48.5	-62.2	3.8	1.49e+00	0	48	104	0	59	17811
2026-01-05 13:01:41.22	246.22	3.22	-48.5	-62.2	3.8	1.49e+00	0	48	104	0	59	17767
2026-01-05 13:01:42.21	246.33	3.27	-48.4	-62.2	3.8	1.49e+00	0	48	104	0	59	17796
2026-01-05 13:01:43.20	246.43	3.31	-48.5	-62.2	3.8	1.49e+00	0	48	104	0	59	17788
2026-01-05 13:01:44.18	246.54	3.35	-48.4	-62.2	3.8	1.49e+00	0	49	104	0	59	17793
2026-01-05 13:01:45.17	246.65	3.40	-48.4	-62.2	3.8	1.49e+00	0	49	104	0	59	17817
2026-01-05 13:01:46.16	246.75	3.44	-48.4	-62.2	3.8	1.49e+00	0	49	104	0	59	17799
2026-01-05 13:01:47.15	246.86	3.49	-48.5	-62.2	3.8	1.49e+00	0	49	104	0	59	17767
2026-01-05 13:01:48.13	246.97	3.53	-48.5	-62.2	3.8	1.49e+00	0	49	104	0	59	17809
2026-01-05 13:01:49.11	247.08	3.57	-48.5	-62.2	3.8	1.49e+00	0	49	104	0	59	17759
2026-01-05 13:01:50.10	247.19	3.62	-48.5	-62.2	3.8	1.49e+00	0	49	104	0	59	17777
2026-01-05 13:01:51.09	247.30	3.66	-48.5	-62.2	3.8	1.49e+00	0	49	104	0	59	17802
2026-01-05 13:01:52.08	247.41	3.70	-48.5	-62.2	3.8	1.49e+00	0	49	104	0	59	17784
2026-01-05 13:01:53.06	247.51	3.75	-48.5	-62.2	3.8	1.49e+00	0	49	104	0	59	17774
2026-01-05 13:01:54.05	247.62	3.79	-48.5	-62.2	3.8	1.49e+00	0	49	104	0	59	17784
2026-01-05 13:01:55.04	247.73	3.83	-48.5	-62.2	3.8	1.49e+00	0	49	104	0	59	17793
2026-01-05 13:01:56.02	247.84	3.88	-48.4	-62.2	3.8	1.49e+00	0	49	104	0	59	17800
2026-01-05 13:01:57.01	247.96	3.92	-48.5	-62.2	3.8	1.49e+00	0	50	104	0	59	17839
2026-01-05 13:01:57.99	248.07	3.96	-48.5	-62.2	3.8	1.49e+00	0	50	104	0	59	17754
2026-01-05 13:01:58.98	248.18	4.01	-48.5	-62.2	3.8	1.49e+00	0	50	104	0	59	17791
2026-01-05 13:01:59.97	248.29	4.05	-48.4	-62.2	3.8	1.49e+00	0	50	104	0	59	17826
2026-01-05 13:02:00.95	248.40	4.09	-48.4	-62.2	3.8	1.49e+00	0	50	104	0	59	17806
2026-01-05 13:02:01.94	248.51	4.14	-48.4	-62.2	3.8	1.49e+00	0	50	104	0	59	17831
2026-01-05 13:02:02.93	248.63	4.18	-48.4	-62.2	3.8	1.49e+00	0	50	104	0	59	17840
2026-01-05 13:02:03.92	248.74	4.22	-48.5	-62.2	3.8	1.49e+00	0	50	104	0	59	17822
2026-01-05 13:02:04.90	248.85	4.27	-48.5	-62.2	3.8	1.49e+00	0	50	104	0	59	17818
2026-01-05 13:02:05.88	248.97	4.31	-48.4	-62.2	3.8	1.49e+00	0	50	104	0	59	17786
2026-01-05 13:02:06.87	249.08	4.35	-48.5	-62.2	3.8	1.49e+00	0	50	104	0	59	17802
2026-01-05 13:02:07.86	249.19	4.40	-48.5	-62.2	3.8	1.49e+00	0	50	104	0	59	17797
2026-01-05 13:02:08.84	249.31	4.44	-48.5	-62.2	3.8	1.49e+00	0	51	104	0	59	17810
2026-01-05 13:02:09.82	249.42	4.48	-48.5	-62.2	3.8	1.49e+00	0	50	104	0	59	17846
2026-01-05 13:02:10.81	249.54	4.53	-48.5	-62.2	3.8	1.49e+00	0	50	104	0	59	17808
2026-01-05 13:02:11.80	249.65	4.57	-48.4	-62.2	3.8	1.49e+00	0	51	104	0	59	17846
2026-01-05 13:02:12.79	249.77	4.61	-48.4	-62.2	3.8	1.49e+00	0	50	104	0	59	17825
2026-01-05 13:02:13.77	249.89	4.65	-48.5	-62.2	3.8	1.49e+00	0	50	104	0	59	17797
2026-01-05 13:02:14.76	250.00	4.70	-48.5	-62.2	3.8	1.49e+00	0	51	104	0	59	17767
2026-01-05 13:02:15.74	250.12	4.74	-48.4	-62.2	3.8	1.49e+00	0	51	104	0	59	17859
2026-01-05 13:02:16.73	250.24	4.78	-48.4	-62.2	3.8	1.49e+00	0	51	104	0	59	17793
2026-01-05 13:02:17.71	250.35	4.83	-48.5	-62.2	3.8	1.49e+00	0	51	104	0	59	17784
2026-01-05 13:02:18.70	250.47	4.87	-48.5	-62.2	3.8	1.49e+00	0	51	104	0	59	17788
2026-01-05 13:02:19.68	250.59	4.91	-48.5	-62.2	3.8	1.49e+00	0	51	104	0	59	17809
2026-01-05 13:02:20.67	250.71	4.95	-48.5	-62.2	3.8	1.49e+00	0	51	104	0	59	17810
2026-01-05 13:02:21.66	250.83	5.00	-48.5	-62.2	3.8	1.49e+00	0	51	104	0	59	17763
2026-01-05 13:02:22.64	250.94	5.04	-48.5	-62.2	3.8	1.49e+00	0	51	104	0	59	17798
2026-01-05 13:02:23.63	251.06	5.08	-48.5	-62.2	3.8	1.49e+00	0	51	104	0	59	17830
2026-01-05 13:02:24.61	251.18	5.13	-48.4	-62.2	3.8	1.49e+00	0	51	104	0	59	17805
2026-01-05 13:02:25.60	251.30	5.17	-48.5	-62.2	3.8	1.49e+00	0	52	104	0	59	17863
2026-01-05 13:02:26.59	251.42	5.21	-48.5	-62.2	3.8	1.49e+00	0	51	104	0	59	17805
2026-01-05 13:02:27.58	251.55	5.25	-48.5	-62.2	3.8	1.49e+00	0	51	104	0	59	17812
2026-01-05 13:02:28.56	251.67	5.30	-48.5	-62.2	3.8	1.49e+00	0	52	104	0	59	17811
2026-01-05 13:02:29.55	251.79	5.34	-48.5	-62.2	3.8	1.49e+00	0	52	104	0	59	17816
2026-01-05 13:02:30.53	251.91	5.38	-48.5	-62.2	3.8	1.49e+00	0	52	104	0	59	17860
2026-01-05 13:02:31.52	252.03	5.42	-48.4	-62.2	3.8	1.49e+00	0	52	104	0	59	17878
2026-01-05 13:02:32.51	252.15	5.47	-48.5	-62.2	3.8	1.49e+00	0	52	104	0	59	17848
2026-01-05 13:02:33.49	252.28	5.51	-48.5	-62.2	3.8	1.49e+00	0	52	104	0	59	17829
2026-01-05 13:02:34.48	252.40	5.55	-48.5	-62.2	3.8	1.49e+00	0	52	104	0	59	17801
2026-01-05 13:02:35.46	252.52	5.59	-48.5	-62.2	3.8	1.49e+00	0	52	104	0	59	17780
2026-01-05 13:02:36.45	252.65	5.63	-48.5	-62.2	3.8	1.49e+00	0	52	104	0	59	17804
2026-01-05 13:02:37.44	252.77	5.68	-48.5	-62.2	3.8	1.49e+00	0	52	104	0	59	17815
2026-01-05 13:02:38.43	252.90	5.72	-48.5	-62.2	3.8	1.49e+00	0	52	104	0	59	17781
2026-01-05 13:02:39.41	253.02	5.76	-48.5	-62.2	3.8	1.49e+00	0	52	104	0	59	17791
2026-01-05 13:02:40.40	253.15	5.80	-48.5	-62.2	3.8	1.49e+00	0	52	104	0	59	17821
2026-01-05 13:02:41.39	253.27	5.85	-48.5	-62.2	3.8	1.49e+00	0	52	104	0	59	17847
2026-01-05 13:02:42.38	253.40	5.89	-48.5	-62.2	3.8	1.49e+00	0	52	104	0	59	17782
2026-01-05 13:02:43.36	253.52	5.93	-48.5	-62.2	3.8	1.49e+00	0	52	104	0	59	17821
2026-01-05 13:02:44.35	253.65	5.97	-48.5	-62.2	3.8	1.49e+00	0	52	104	0	59	17807
2026-01-05 13:02:45.33	253.78	6.01	-48.5	-62.2	3.8	1.49e+00	0	52	104	0	59	17867
2026-01-05 13:02:46.32	253.91	6.05	-48.5	-62.2	3.8	1.49e+00	0	53	104	0	59	17844
2026-01-05 13:02:47.31	254.03	6.10	-48.5	-62.2	3.8	1.49e+00	0	53	104	0	59	17851
2026-01-05 13:02:48.29	254.16	6.14	-48.4	-62.2	3.8	1.49e+00	0	53	104	0	59	17865
2026-01-05 13:02:49.28	254.29	6.18	-48.5	-62.2	3.8	1.49e+00	0	53	104	0	59	17815
2026-01-05 13:02:50.27	254.42	6.22	-48.5	-62.2	3.8	1.49e+00	0	53	104	0	59	17796
2026-01-05 13:02:51.25	254.55	6.26	-48.5	-62.2	3.8	1.49e+00	0	53	104	0	59	17765
2026-01-05 13:02:52.24	254.68	6.30	-48.5	-62.2	3.8	1.49e+00	0	53	104	0	59	17867
2026-01-05 13:02:53.22	254.81	6.35	-48.5	-62.2	3.8	1.49e+00	0	53	104	0	59	17794
2026-01-05 13:02:54.21	254.94	6.39	-48.5	-62.2	3.8	1.49e+00	0	53	104	0	59	17806
2026-01-05 13:02:55.20	255.07	6.43	-48.5	-62.2	3.8	1.49e+00	0	53	104	0	59	17797
2026-01-05 13:02:56.18	255.20	6.47	-48.5	-62.2	3.8	1.49e+00	0	53	104	0	59	17833
2026-01-05 13:02:57.17	255.33	6.51	-48.4	-62.2	3.8	1.49e+00	0	53	104	0	59	17831
2026-01-05 13:02:58.16	255.46	6.55	-48.5	-62.2	3.8	1.49e+00	0	53	104	0	59	17779
2026-01-05 13:02:59.14	255.59	6.59	-48.5	-62.2	3.8	1.49e+00	0	53	104	0	59	17817
2026-01-05 13:03:00.13	255.73	6.63	-48.5	-62.2	3.8	1.49e+00	0	53	104	0	59	17846
2026-01-05 13:03:01.11	255.86	6.67	-48.5	-62.2	3.8	1.49e+00	0	53	104	0	59	17855
2026-01-05 13:03:02.10	255.99	6.72	-48.5	-62.2	3.8	1.49e+00	0	53	104	0	59	17842
2026-01-05 13:03:03.09	256.12	6.76	-48.5	-62.2	3.8	1.49e+00	0	53	104	0	59	17820
2026-01-05 13:03:04.08	256.26	6.80	-48.5	-62.2	3.8	1.49e+00	0	53	104	0	59	17844
2026-01-05 13:03:05.06	256.39	6.84	-48.5	-62.2	3.8	1.49e+00	0	54	104	0	59	17834
2026-01-05 13:03:06.05	256.53	6.88	-48.5	-62.2	3.8	1.49e+00	0	53	104	0	59	17842
2026-01-05 13:03:07.03	256.66	6.92	-48.5	-62.2	3.8	1.49e+00	0	54	104	0	59	17834
2026-01-05 13:03:08.02	256.80	6.96	-48.5	-62.2	3.8	1.49e+00	0	54	104	0	59	17847
2026-01-05 13:03:09.01	256.93	7.00	-48.5	-62.2	3.8	1.49e+00	0	54	104	0	59	17821
2026-01-05 13:03:09.99	257.07	7.04	-48.5	-62.2	3.8	1.49e+00	0	54	104	0	59	17801
2026-01-05 13:03:10.98	257.20	7.08	-48.5	-62.2	3.8	1.49e+00	0	54	104	0	59	17854
2026-01-05 13:03:11.96	257.34	7.12	-48.5	-62.2	3.8	1.49e+00	0	54	104	0	59	17845
2026-01-05 13:03:12.95	257.48	7.16	-48.5	-62.2	3.8	1.49e+00	0	54	104	0	59	17804
2026-01-05 13:03:13.94	257.61	7.20	-48.5	-62.2	3.8	1.49e+00	0	54	104	0	59	17843
2026-01-05 13:03:14.92	257.75	7.24	-48.5	-62.2	3.8	1.49e+00	0	54	104	0	59	17837
2026-01-05 13:03:15.91	257.89	7.28	-48.5	-62.2	3.8	1.49e+00	0	54	104	0	59	17817
2026-01-05 13:03:16.90	258.03	7.32	-48.5	-62.2	3.8	1.49e+00	0	54	104	0	59	17821
2026-01-05 13:03:17.88	258.17	7.36	-48.5	-62.2	3.8	1.49e+00	0	54	104	0	59	17845
2026-01-05 13:03:18.87	258.31	7.40	-48.5	-62.2	3.8	1.49e+00	0	54	104	0	59	17832
2026-01-05 13:03:19.85	258.45	7.44	-48.5	-62.2	3.8	1.49e+00	0	54	104	0	59	17860
2026-01-05 13:03:20.84	258.59	7.48	-48.5	-62.2	3.8	1.49e+00	0	54	104	0	59	17832
2026-01-05 13:03:21.82	258.72	7.52	-48.5	-62.2	3.8	1.49e+00	0	54	104	0	59	17802
2026-01-05 13:03:22.80	258.86	7.56	-48.5	-62.2	3.8	1.49e+00	0	54	104	0	59	17859
2026-01-05 13:03:23.79	259.01	7.60	-48.5	-62.2	3.8	1.49e+00	0	55	104	0	59	17854
2026-01-05 13:03:24.78	259.15	7.64	-48.5	-62.2	3.8	1.49e+00	0	54	104	0	59	17859
2026-01-05 13:03:25.77	259.29	7.67	-48.4	-62.2	3.8	1.49e+00	0	55	104	0	59	17873
2026-01-05 13:03:26.75	259.43	7.71	-48.5	-62.2	3.8	1.49e+00	0	54	104	0	59	17849
2026-01-05 13:03:27.74	259.57	7.75	-48.5	-62.2	3.8	1.49e+00	0	55	104	0	59	17843
2026-01-05 13:03:28.72	259.72	7.79	-48.5	-62.2	3.8	1.49e+00	0	55	104	0	59	17812
2026-01-05 13:03:29.71	259.86	7.83	-48.5	-62.2	3.8	1.49e+00	0	55	104	0	59	17852
2026-01-05 13:03:30.70	260.00	7.87	-48.5	-62.2	3.8	1.49e+00	0	55	104	0	59	17880
2026-01-05 13:03:31.69	260.15	7.91	-48.5	-62.2	3.8	1.49e+00	0	55	104	0	59	17859
2026-01-05 13:03:32.67	260.29	7.95	-48.5	-62.2	3.8	1.49e+00	0	55	104	0	59	17847
2026-01-05 13:03:33.65	260.43	7.98	-48.5	-62.2	3.8	1.49e+00	0	55	104	0	59	17848
2026-01-05 13:03:34.64	260.58	8.02	-48.5	-62.2	3.8	1.49e+00	0	55	104	0	59	17860
2026-01-05 13:03:35.63	260.73	8.06	-48.5	-62.2	3.8	1.49e+00	0	55	104	0	59	17848
2026-01-05 13:03:36.61	260.87	8.10	-48.5	-62.2	3.8	1.49e+00	0	55	104	0	59	17834
2026-01-05 13:03:37.60	261.02	8.14	-48.5	-62.2	3.8	1.49e+00	0	55	104	0	59	17817
2026-01-05 13:03:38.58	261.16	8.17	-48.5	-62.2	3.8	1.49e+00	0	55	104	0	59	17864
2026-01-05 13:03:39.57	261.31	8.21	-48.5	-62.2	3.8	1.49e+00	0	55	104	0	59	17876
2026-01-05 13:03:40.56	261.46	8.25	-48.5	-62.2	3.8	1.49e+00	0	55	104	0	59	17830
2026-01-05 13:03:41.54	261.60	8.29	-48.5	-62.2	3.8	1.49e+00	0	55	104	0	59	17874
2026-01-05 13:03:42.52	261.75	8.32	-48.5	-62.2	3.8	1.49e+00	0	55	104	0	59	17808
2026-01-05 13:03:43.51	261.90	8.36	-48.5	-62.2	3.8	1.49e+00	0	55	104	0	59	17832
2026-01-05 13:03:44.50	262.05	8.40	-48.5	-62.2	3.8	1.49e+00	0	55	104	0	59	17839
2026-01-05 13:03:45.49	262.20	8.43	-48.5	-62.2	3.8	1.49e+00	0	55	104	0	59	17835
2026-01-05 13:03:46.47	262.35	8.47	-48.5	-62.2	3.8	1.49e+00	0	55	104	0	59	17871
2026-01-05 13:03:47.46	262.50	8.51	-48.5	-62.2	3.8	1.49e+00	0	55	104	0	59	17861
2026-01-05 13:03:48.45	262.65	8.55	-48.5	-62.2	3.8	1.49e+00	0	55	104	0	59	17875
2026-01-05 13:03:49.43	262.80	8.58	-48.5	-62.2	3.8	1.49e+00	0	56	104	0	59	17823
2026-01-05 13:03:50.42	262.95	8.62	-48.5	-62.2	3.8	1.49e+00	0	55	104	0	59	17843
2026-01-05 13:03:51.40	263.10	8.65	-48.5	-62.2	3.8	1.49e+00	0	56	104	0	59	17872
2026-01-05 13:03:52.39	263.25	8.69	-48.5	-62.2	3.8	1.49e+00	0	56	104	0	59	17822
2026-01-05 13:03:53.38	263.40	8.73	-48.5	-62.2	3.8	1.49e+00	0	56	104	0	59	17841
2026-01-05 13:03:54.36	263.55	8.76	-48.5	-62.2	3.8	1.49e+00	0	56	104	0	59	17810
2026-01-05 13:03:55.35	263.71	8.80	-48.5	-62.2	3.8	1.49e+00	0	56	104	0	59	17863
2026-01-05 13:03:56.33	263.86	8.83	-48.5	-62.2	3.8	1.49e+00	0	56	104	0	59	17810
2026-01-05 13:03:57.31	264.01	8.87	-48.5	-62.2	3.8	1.49e+00	0	56	104	0	59	17869
2026-01-05 13:03:58.30	264.17	8.91	-48.5	-62.2	3.8	1.49e+00	0	56	104	0	59	17850
2026-01-05 13:03:59.29	264.32	8.94	-48.5	-62.2	3.8	1.49e+00	0	56	104	0	59	17822
2026-01-05 13:04:00.28	264.48	8.98	-48.5	-62.3	3.8	1.49e+00	0	56	104	0	59	17898
2026-01-05 13:04:01.26	264.63	9.01	-48.5	-62.2	3.8	1.49e+00	0	56	104	0	59	17821
2026-01-05 13:04:02.25	264.79	9.05	-48.5	-62.2	3.8	1.49e+00	0	56	104	0	59	17830
2026-01-05 13:04:03.23	264.94	9.08	-48.5	-62.2	3.8	1.49e+00	0	56	104	0	59	17838
2026-01-05 13:04:04.22	265.10	9.12	-48.5	-62.2	3.8	1.49e+00	0	56	104	0	59	17847
2026-01-05 13:04:05.21	265.25	9.15	-48.5	-62.2	3.8	1.49e+00	0	56	104	0	59	17869
2026-01-05 13:04:06.19	265.41	9.18	-48.5	-62.3	3.8	1.49e+00	0	56	104	0	59	17911
2026-01-05 13:04:07.18	265.57	9.22	-48.5	-62.2	3.8	1.49e+00	0	56	104	0	59	17866
2026-01-05 13:04:08.17	265.72	9.25	-48.5	-62.2	3.8	1.49e+00	0	56	104	0	59	17847
2026-01-05 13:04:09.16	265.88	9.29	-48.5	-62.2	3.8	1.49e+00	0	56	104	0	59	17839
2026-01-05 13:04:10.14	266.04	9.32	-48.5	-62.3	3.8	1.49e+00	0	56	104	0	59	17895
2026-01-05 13:04:11.13	266.20	9.36	-48.5	-62.2	3.8	1.49e+00	0	56	104	0	59	17854
2026-01-05 13:04:12.12	266.36	9.39	-48.5	-62.2	3.8	1.49e+00	0	56	104	0	59	17810
2026-01-05 13:04:13.11	266.52	9.42	-48.5	-62.2	3.8	1.49e+00	0	56	104	0	59	17831
2026-01-05 13:04:14.09	266.67	9.46	-48.5	-62.2	3.8	1.49e+00	0	56	104	0	59	17866
2026-01-05 13:04:15.08	266.83	9.49	-48.5	-62.2	3.8	1.49e+00	0	56	104	0	59	17884
2026-01-05 13:04:16.06	266.99	9.52	-48.5	-62.2	3.8	1.49e+00	0	56	104	0	59	17859
2026-01-05 13:04:17.05	267.15	9.55	-48.5	-62.3	3.8	1.49e+00	0	56	104	0	59	17890
2026-01-05 13:04:18.03	267.31	9.59	-48.5	-62.3	3.8	1.49e+00	0	56	104	0	59	17903
2026-01-05 13:04:19.02	267.48	9.62	-48.5	-62.2	3.8	1.49e+00	0	56	104	0	59	17790
2026-01-05 13:04:20.01	267.64	9.65	-48.5	-62.2	3.8	1.49e+00	0	56	104	0	59	17865
2026-01-05 13:04:21.00	267.80	9.69	-48.5	-62.2	3.8	1.49e+00	0	56	104	0	59	17840
2026-01-05 13:04:21.99	267.96	9.72	-48.5	-62.3	3.8	1.49e+00	0	56	104	0	59	17906
2026-01-05 13:04:22.97	268.12	9.75	-48.5	-62.2	3.8	1.49e+00	0	57	104	0	59	17864
2026-01-05 13:04:23.96	268.29	9.78	-48.5	-62.3	3.8	1.49e+00	0	57	104	0	59	17895
2026-01-05 13:04:24.94	268.45	9.81	-48.5	-62.2	3.8	1.49e+00	0	57	104	0	59	17876
2026-01-05 13:04:25.93	268.61	9.84	-48.5	-62.2	3.8	1.49e+00	0	56	104	0	59	17865
2026-01-05 13:04:26.92	268.78	9.88	-48.5	-62.2	3.8	1.49e+00	0	57	104	0	59	17855
2026-01-05 13:04:27.90	268.94	9.91	-48.5	-62.2	3.8	1.49e+00	0	57	104	0	59	17873
2026-01-05 13:04:28.89	269.11	9.94	-48.5	-62.3	3.8	1.49e+00	0	57	104	0	59	17895
2026-01-05 13:04:29.87	269.27	9.97	-48.5	-62.2	3.8	1.49e+00	0	57	104	0	59	17841
2026-01-05 13:04:30.86	269.44	10.00	-48.5	-62.2	3.8	1.49e+00	0	57	104	0	59	17851
2026-01-05 13:04:31.85	269.60	10.03	-48.5	-62.3	3.8	1.49e+00	0	57	104	0	59	17912
2026-01-05 13:04:32.83	269.77	10.06	-48.5	-62.2	3.8	1.49e+00	0	57	104	0	59	17839
2026-01-05 13:04:33.82	269.93	10.09	-48.5	-62.2	3.8	1.49e+00	0	57	104	0	59	17849
2026-01-05 13:04:34.81	270.10	10.12	-48.5	-62.2	3.8	1.49e+00	0	57	104	0	59	17881
2026-01-05 13:04:35.79	270.27	10.15	-48.5	-62.2	3.8	1.49e+00	0	57	104	0	59	17869
2026-01-05 13:04:36.77	270.43	10.18	-48.5	-62.2	3.8	1.49e+00	0	57	104	0	59	17873
2026-01-05 13:04:37.75	270.60	10.21	-48.5	-62.3	3.8	1.49e+00	0	57	104	0	59	17891
2026-01-05 13:04:38.75	270.77	10.24	-48.5	-62.2	3.8	1.49e+00	0	57	104	0	59	17876
2026-01-05 13:04:39.73	270.94	10.27	-48.5	-62.2	3.8	1.49e+00	0	57	104	0	59	17887
2026-01-05 13:04:40.72	271.11	10.30	-48.5	-62.3	3.8	1.49e+00	0	57	104	0	59	17907
2026-01-05 13:04:41.71	271.27	10.32	-48.5	-62.3	3.8	1.49e+00	0	57	104	0	59	17932
2026-01-05 13:04:42.69	271.44	10.35	-48.5	-62.2	3.8	1.49e+00	0	57	104	0	59	17888
2026-01-05 13:04:43.67	271.61	10.38	-48.5	-62.2	3.8	1.49e+00	0	57	104	0	59	17885
2026-01-05 13:04:44.66	271.78	10.41	-48.5	-62.2	3.8	1.49e+00	0	57	104	0	59	17858
2026-01-05 13:04:45.64	271.95	10.44	-48.5	-62.3	3.8	1.49e+00	0	57	104	0	59	17923
2026-01-05 13:04:46.63	272.12	10.46	-48.5	-62.3	3.8	1.49e+00	0	57	104	0	59	17896
2026-01-05 13:04:47.62	272.29	10.49	-48.5	-62.2	3.8	1.49e+00	0	57	104	0	59	17846
2026-01-05 13:04:48.60	272.46	10.52	-48.5	-62.2	3.8	1.49e+00	0	57	104	0	59	17877
2026-01-05 13:04:49.59	272.63	10.55	-48.5	-62.3	3.8	1.49e+00	0	57	104	0	59	17910
2026-01-05 13:04:50.58	272.81	10.57	-48.5	-62.2	3.8	1.49e+00	0	57	104	0	59	17868
2026-01-05 13:04:51.56	272.98	10.60	-48.5	-62.2	3.8	1.49e+00	0	57	104	0	59	17875
2026-01-05 13:04:52.55	273.15	10.63	-48.5	-62.2	3.8	1.49e+00	0	57	104	0	59	17860
2026-01-05 13:04:53.53	273.32	10.65	-48.5	-62.2	3.8	1.49e+00	0	57	104	0	59	17878
2026-01-05 13:04:54.51	273.49	10.68	-48.5	-62.3	3.8	1.49e+00	0	57	104	0	59	17899
2026-01-05 13:04:55.50	273.67	10.70	-48.5	-62.2	3.8	1.49e+00	0	57	104	0	59	17867
2026-01-05 13:04:56.49	273.84	10.73	-48.5	-62.3	3.8	1.49e+00	0	57	104	0	59	17905
2026-01-05 13:04:57.47	274.01	10.76	-48.5	-62.3	3.8	1.49e+00	0	57	104	0	59	17897
2026-01-05 13:04:58.46	274.19	10.78	-48.5	-62.2	3.8	1.49e+00	0	57	104	0	59	17857
2026-01-05 13:04:59.45	274.36	10.81	-48.5	-62.3	3.8	1.49e+00	0	57	104	0	59	17920
2026-01-05 13:05:00.44	274.54	10.83	-48.5	-62.2	3.8	1.49e+00	0	58	104	0	59	17861
2026-01-05 13:05:01.43	274.71	10.86	-48.5	-62.2	3.8	1.49e+00	0	57	104	0	59	17867
2026-01-05 13:05:02.42	274.89	10.88	-48.5	-62.3	3.8	1.49e+00	0	57	104	0	59	17909
2026-01-05 13:05:03.40	275.06	10.91	-48.5	-62.3	3.8	1.49e+00	0	57	104	0	59	17897
2026-01-05 13:05:04.39	275.24	10.93	-48.5	-62.3	3.8	1.49e+00	0	57	104	0	59	17890
2026-01-05 13:05:05.37	275.41	10.95	-48.5	-62.3	3.8	1.49e+00	0	57	104	0	59	17932
2026-01-05 13:05:06.36	275.59	10.98	-48.5	-62.2	3.8	1.49e+00	0	57	104	0	59	17869
2026-01-05 13:05:07.35	275.77	11.00	-48.5	-62.2	3.8	1.49e+00	0	58	104	0	59	17863
2026-01-05 13:05:08.34	275.94	11.02	-48.5	-62.3	3.8	1.49e+00	0	58	104	0	59	17917
2026-01-05 13:05:09.33	276.12	11.05	-48.5	-62.2	3.8	1.49e+00	0	58	104	0	59	17865
2026-01-05 13:05:10.31	276.30	11.07	-48.5	-62.3	3.8	1.49e+00	0	58	104	0	59	17962
2026-01-05 13:05:11.30	276.48	11.09	-48.5	-62.3	3.8	1.49e+00	0	57	104	0	59	17923
2026-01-05 13:05:12.28	276.65	11.11	-48.6	-62.3	3.8	1.49e+00	0	58	104	0	59	17959
2026-01-05 13:05:13.26	276.83	11.14	-48.5	-62.3	3.8	1.49e+00	0	58	104	0	59	17914
2026-01-05 13:05:14.25	277.01	11.16	-48.5	-62.2	3.8	1.49e+00	0	58	104	0	59	17885
2026-01-05 13:05:15.24	277.19	11.18	-48.5	-62.3	3.8	1.49e+00	0	58	104	0	59	17890
2026-01-05 13:05:16.23	277.37	11.20	-48.5	-62.3	3.8	1.49e+00	0	58	104	0	59	17920
2026-01-05 13:05:17.21	277.54	11.22	-48.5	-62.3	3.8	1.49e+00	0	58	104	0	59	17895
2026-01-05 13:05:18.20	277.72	11.24	-48.5	-62.2	3.8	1.49e+00	0	58	104	0	59	17860
2026-01-05 13:05:19.18	277.90	11.26	-48.5	-62.2	3.8	1.49e+00	0	58	104	0	59	17888
2026-01-05 13:05:20.17	278.08	11.28	-48.5	-62.3	3.8	1.49e+00	0	58	104	0	59	17893
2026-01-05 13:05:21.15	278.26	11.31	-48.5	-62.3	3.8	1.49e+00	0	58	104	0	59	17908
2026-01-05 13:05:22.14	278.44	11.33	-48.5	-62.3	3.8	1.49e+00	0	58	104	0	59	17892
2026-01-05 13:05:23.13	278.62	11.35	-48.5	-62.3	3.8	1.49e+00	0	58	104	0	59	17935
2026-01-05 13:05:24.11	278.80	11.36	-48.5	-62.3	3.8	1.49e+00	0	58	104	0	59	17900
2026-01-05 13:05:25.09	278.98	11.38	-48.5	-62.3	3.8	1.49e+00	0	58	104	0	59	17933
2026-01-05 13:05:26.08	279.17	11.40	-48.6	-62.3	3.8	1.49e+00	0	58	104	0	59	17924
2026-01-05 13:05:27.07	279.35	11.42	-48.5	-62.2	3.8	1.49e+00	0	58	104	0	59	17870
2026-01-05 13:05:28.05	279.53	11.44	-48.5	-62.2	3.8	1.49e+00	0	58	104	0	59	17869
2026-01-05 13:05:29.04	279.71	11.46	-48.5	-62.3	3.8	1.49e+00	0	58	104	0	59	17942
2026-01-05 13:05:30.02	279.89	11.48	-48.5	-62.2	3.8	1.49e+00	0	58	104	0	59	17851
2026-01-05 13:05:31.00	280.07	11.49	-48.5	-62.3	3.8	1.49e+00	0	58	104	0	59	17911
2026-01-05 13:05:31.98	280.25	11.51	-48.5	-62.3	3.8	1.49e+00	0	58	104	0	59	17904
2026-01-05 13:05:32.97	280.44	11.53	-48.5	-62.3	3.8	1.49e+00	0	58	104	0	59	17932
2026-01-05 13:05:33.96	280.62	11.55	-48.5	-62.3	3.8	1.49e+00	0	58	104	0	59	17955
2026-01-05 13:05:34.94	280.80	11.56	-48.5	-62.3	3.8	1.49e+00	0	58	104	0	59	17932
2026-01-05 13:05:35.92	280.98	11.58	-48.5	-62.3	3.8	1.49e+00	0	58	104	0	59	17937
2026-01-05 13:05:36.90	281.17	11.60	-48.5	-62.3	3.8	1.49e+00	0	58	104	0	59	17913
2026-01-05 13:05:37.89	281.35	11.61	-48.5	-62.3	3.8	1.49e+00	0	58	104	0	59	17915
2026-01-05 13:05:38.88	281.54	11.63	-48.5	-62.3	3.8	1.49e+00	0	58	104	0	59	17908
2026-01-05 13:05:39.86	281.72	11.64	-48.5	-62.3	3.8	1.49e+00	0	58	104	0	59	17921
2026-01-05 13:05:40.85	281.90	11.66	-48.5	-62.2	3.8	1.49e+00	0	58	104	0	59	17872
2026-01-05 13:05:41.83	282.09	11.67	-48.5	-62.2	3.8	1.49e+00	0	58	104	0	59	17877
2026-01-05 13:05:42.82	282.27	11.69	-48.5	-62.3	3.8	1.49e+00	0	58	104	0	59	17918
2026-01-05 13:05:43.81	282.46	11.70	-48.5	-62.3	3.8	1.49e+00	0	58	104	0	59	17927
2026-01-05 13:05:44.79	282.64	11.72	-48.5	-62.3	3.8	1.49e+00	0	58	104	0	59	17917
2026-01-05 13:05:45.78	282.83	11.73	-48.5	-62.3	3.8	1.49e+00	0	58	104	0	59	17898
2026-01-05 13:05:46.77	283.01	11.75	-48.5	-62.3	3.8	1.49e+00	0	59	104	0	59	17891
2026-01-05 13:05:47.75	283.20	11.76	-48.5	-62.2	3.8	1.49e+00	0	58	104	0	59	17878
2026-01-05 13:05:48.74	283.38	11.77	-48.5	-62.3	3.8	1.49e+00	0	58	104	0	59	17908
2026-01-05 13:05:49.73	283.57	11.79	-48.5	-62.3	3.8	1.49e+00	0	59	104	0	59	17933
2026-01-05 13:05:50.71	283.75	11.80	-48.5	-62.3	3.8	1.49e+00	0	59	104	0	59	17902
2026-01-05 13:05:51.70	283.94	11.81	-48.5	-62.3	3.8	1.49e+00	0	59	104	0	59	17934
2026-01-05 13:05:52.68	284.13	11.82	-48.5	-62.3	3.8	1.49e+00	0	59	104	0	59	17957
2026-01-05 13:05:53.67	284.31	11.84	-48.5	-62.3	3.8	1.49e+00	0	59	104	0	59	17957
2026-01-05 13:05:54.66	284.50	11.85	-48.5	-62.3	3.8	1.49e+00	0	58	104	0	59	17919
2026-01-05 13:05:55.64	284.69	11.86	-48.5	-62.3	3.8	1.49e+00	0	59	104	0	59	17903
2026-01-05 13:05:56.63	284.87	11.87	-48.5	-62.3	3.8	1.49e+00	0	59	104	0	59	17964
2026-01-05 13:05:57.62	285.06	11.88	-48.5	-62.3	3.8	1.49e+00	0	59	104	0	59	17962
2026-01-05 13:05:58.61	285.25	11.89	-48.5	-62.3	3.8	1.49e+00	0	59	104	0	59	17932
2026-01-05 13:05:59.59	285.43	11.90	-48.6	-62.3	3.8	1.49e+00	0	59	104	0	59	17920
2026-01-05 13:06:00.58	285.62	11.91	-48.6	-62.3	3.8	1.49e+00	0	59	104	0	59	17969
2026-01-05 13:06:01.56	285.81	11.92	-48.5	-62.3	3.8	1.49e+00	0	59	104	0	59	17972
2026-01-05 13:06:02.55	286.00	11.93	-48.5	-62.3	3.8	1.49e+00	0	59	104	0	59	17919
2026-01-05 13:06:03.53	286.18	11.94	-48.5	-62.2	3.8	1.49e+00	0	59	104	0	59	17882
2026-01-05 13:06:04.52	286.37	11.95	-48.5	-62.3	3.8	1.49e+00	0	59	104	0	59	17942
2026-01-05 13:06:05.51	286.56	11.96	-48.5	-62.3	3.8	1.49e+00	0	59	104	0	59	17948
2026-01-05 13:06:06.49	286.75	11.97	-48.5	-62.3	3.8	1.49e+00	0	59	104	0	59	17936
2026-01-05 13:06:07.48	286.94	11.98	-48.5	-62.3	3.8	1.49e+00	0	59	104	0	59	17924
2026-01-05 13:06:08.47	287.12	11.98	-48.5	-62.3	3.8	1.49e+00	0	59	104	0	59	17930
2026-01-05 13:06:09.45	287.31	11.99	-48.5	-62.3	3.8	1.49e+00	0	59	104	0	59	17920
2026-01-05 13:06:10.44	287.50	12.00	-48.5	-62.3	3.8	1.49e+00	0	59	104	0	59	17942
2026-01-05 13:06:11.42	287.69	12.01	-48.5	-62.3	3.8	1.49e+00	0	59	104	0	59	17894
2026-01-05 13:06:12.40	287.88	12.01	-48.6	-62.3	3.8	1.49e+00	0	59	104	0	59	17963
2026-01-05 13:06:13.39	288.06	12.02	-48.5	-62.3	3.8	1.49e+00	0	59	104	0	59	17890
2026-01-05 13:06:14.38	288.25	12.03	-48.5	-62.3	3.8	1.49e+00	0	59	104	0	59	17914
2026-01-05 13:06:15.36	288.44	12.03	-48.5	-62.3	3.8	1.49e+00	0	59	104	0	59	17962
2026-01-05 13:06:16.35	288.63	12.04	-48.5	-62.3	3.8	1.49e+00	0	59	104	0	59	17966
2026-01-05 13:06:17.34	288.82	12.04	-48.5	-62.3	3.8	1.49e+00	0	59	104	0	59	17936
2026-01-05 13:06:18.33	289.01	12.05	-48.5	-62.3	3.8	1.49e+00	0	59	104	0	59	17938
2026-01-05 13:06:19.31	289.20	12.05	-48.6	-62.3	3.8	1.49e+00	0	59	104	0	59	17915
2026-01-05 13:06:20.30	289.39	12.06	-48.6	-62.3	3.8	1.49e+00	0	59	104	0	59	17950
2026-01-05 13:06:21.29	289.58	12.06	-48.6	-62.3	3.8	1.49e+00	0	59	104	0	59	17954
2026-01-05 13:06:22.27	289.77	12.07	-48.5	-62.3	3.8	1.49e+00	0	59	104	0	59	17895
2026-01-05 13:06:23.26	289.96	12.07	-48.5	-62.3	3.8	1.49e+00	0	59	104	0	59	17935
2026-01-05 13:06:24.25	290.15	12.07	-48.5	-62.3	3.8	1.49e+00	0	59	104	0	59	17949
2026-01-05 13:06:25.24	290.34	12.08	-48.6	-62.3	3.8	1.49e+00	0	59	104	0	59	17937
2026-01-05 13:06:26.22	290.52	12.08	-48.5	-62.3	3.8	1.49e+00	0	59	104	0	59	17963
2026-01-05 13:06:27.21	290.71	12.08	-48.5	-62.3	3.8	1.49e+00	0	59	104	0	59	17903
2026-01-05 13:06:28.20	290.90	12.09	-48.5	-62.3	3.8	1.49e+00	0	59	104	0	59	17958
2026-01-05 13:06:29.18	291.09	12.09	-48.6	-62.2	3.8	1.49e+00	0	59	104	0	59	17884
2026-01-05 13:06:30.17	291.28	12.09	-48.5	-62.3	3.8	1.49e+00	0	59	104	0	59	17931
2026-01-05 13:06:31.16	291.47	12.09	-48.5	-62.3	3.8	1.49e+00	0	59	104	0	59	17913
2026-01-05 13:06:32.15	291.66	12.09	-48.5	-62.3	3.8	1.49e+00	0	59	104	0	59	17964
2026-01-05 13:06:33.13	291.85	12.09	-48.5	-62.3	3.8	1.49e+00	0	59	104	0	59	17932
2026-01-05 13:06:34.12	292.04	12.09	-48.5	-62.3	3.8	1.49e+00	0	59	104	0	59	17939
2026-01-05 13:06:35.11	292.23	12.09	-48.5	-62.3	3.8	1.49e+00	0	59	104	0	59	17951
2026-01-05 13:06:36.09	292.42	12.09	-48.5	-62.3	3.8	1.49e+00	0	59	104	0	59	17934
2026-01-05 13:06:37.09	292.61	12.09	-48.6	-62.3	3.8	1.49e+00	0	59	104	0	59	17948
2026-01-05 13:06:38.08	292.80	12.09	-48.6	-62.3	3.8	1.49e+00	0	59	104	0	59	17913
2026-01-05 13:06:39.06	292.99	12.09	-48.5	-62.3	3.8	1.49e+00	0	59	104	0	59	17923
2026-01-05 13:06:40.05	293.18	12.09	-48.6	-62.2	3.8	1.49e+00	0	59	104	0	59	17863
2026-01-05 13:06:41.04	293.37	12.09	-48.6	-62.3	3.8	1.49e+00	0	59	104	0	59	17935
2026-01-05 13:06:42.03	293.56	12.09	-48.5	-62.3	3.8	1.49e+00	0	59	104	0	59	17947
2026-01-05 13:06:43.01	293.75	12.09	-48.5	-62.2	3.8	1.49e+00	0	59	104	0	59	17871
2026-01-05 13:06:44.00	293.94	12.09	-48.5	-62.3	3.8	1.49e+00	0	59	104	0	59	17957
2026-01-05 13:06:44.99	294.13	12.08	-48.6	-62.3	3.8	1.49e+00	0	60	104	0	59	17964
2026-01-05 13:06:45.98	294.32	12.08	-48.6	-62.3	3.8	1.49e+00	0	60	104	0	59	17938
2026-01-05 13:06:46.96	294.51	12.08	-48.5	-62.3	3.8	1.49e+00	0	59	104	0	59	17956
2026-01-05 13:06:47.95	294.70	12.07	-48.5	-62.3	3.8	1.49e+00	0	59	104	0	59	17889
2026-01-05 13:06:48.94	294.89	12.07	-48.5	-62.3	3.8	1.49e+00	0	59	104	0	59	17944
2026-01-05 13:06:49.93	295.08	12.07	-48.6	-62.3	3.8	1.49e+00	0	60	104	0	59	17917
2026-01-05 13:06:50.92	295.27	12.06	-48.6	-62.3	3.8	1.49e+00	0	60	104	0	59	17925
2026-01-05 13:06:51.91	295.46	12.06	-48.5	-62.3	3.8	1.49e+00	0	60	104	0	59	17944
2026-01-05 13:06:52.89	295.64	12.05	-48.6	-62.3	3.8	1.49e+00	0	60	104	0	59	17943
2026-01-05 13:06:53.88	295.83	12.05	-48.6	-62.3	3.8	1.49e+00	0	60	104	0	59	17944
2026-01-05 13:06:54.86	296.02	12.04	-48.5	-62.3	3.8	1.49e+00	0	60	104	0	59	17890
2026-01-05 13:06:55.85	296.21	12.04	-48.5	-62.3	3.8	1.49e+00	0	60	104	0	59	17967
2026-01-05 13:06:56.84	296.40	12.03	-48.5	-62.3	3.8	1.49e+00	0	59	104	0	59	17919
2026-01-05 13:06:57.82	296.59	12.03	-48.5	-62.3	3.8	1.49e+00	0	60	104	0	59	17916
2026-01-05 13:06:58.80	296.77	12.02	-48.5	-62.3	3.8	1.49e+00	0	60	104	0	59	17956
2026-01-05 13:06:59.79	296.96	12.01	-48.5	-62.3	3.8	1.49e+00	0	60	104	0	59	17936
2026-01-05 13:07:00.77	297.15	12.01	-48.5	-62.3	3.8	1.49e+00	0	60	104	0	59	17952
2026-01-05 13:07:01.76	297.34	12.00	-48.5	-62.3	3.8	1.49e+00	0	60	104	0	59	17933
2026-01-05 13:07:02.75	297.53	11.99	-48.6	-62.3	3.8	1.49e+00	0	60	104	0	59	17896
2026-01-05 13:07:03.73	297.72	11.98	-48.5	-62.3	3.8	1.49e+00	0	60	104	0	59	17954
2026-01-05 13:07:04.72	297.90	11.98	-48.5	-62.3	3.8	1.49e+00	0	60	104	0	59	17910
2026-01-05 13:07:05.70	298.09	11.97	-48.5	-62.3	3.8	1.49e+00	0	60	104	0	59	17933
2026-01-05 13:07:06.69	298.28	11.96	-48.5	-62.3	3.8	1.49e+00	0	60	104	0	59	17955
2026-01-05 13:07:07.68	298.47	11.95	-48.5	-62.3	3.8	1.49e+00	0	60	104	0	59	17901
2026-01-05 13:07:08.67	298.66	11.94	-48.6	-62.3	3.8	1.49e+00	0	60	104	0	59	17929
2026-01-05 13:07:09.65	298.84	11.93	-48.6	-62.3	3.8	1.49e+00	0	60	104	0	59	17935
2026-01-05 13:07:10.63	299.03	11.92	-48.5	-62.3	3.8	1.49e+00	0	60	104	0	59	17933
2026-01-05 13:07:11.62	299.22	11.91	-48.5	-62.3	3.8	1.49e+00	0	60	104	0	59	17946
2026-01-05 13:07:12.61	299.40	11.90	-48.5	-62.3	3.8	1.49e+00	0	60	104	0	59	17918
2026-01-05 13:07:13.60	299.59	11.89	-48.5	-62.3	3.8	1.49e+00	0	60	104	0	59	17981
2026-01-05 13:07:14.58	299.78	11.88	-48.5	-62.3	3.8	1.49e+00	0	60	104	0	59	17933
2026-01-05 13:07:15.56	299.96	11.87	-48.5	-62.3	3.8	1.49e+00	0	60	104	0	59	17986
2026-01-05 13:07:16.55	300.15	11.86	-48.5	-62.3	3.8	1.49e+00	0	60	104	0	59	17952
2026-01-05 13:07:17.53	300.34	11.85	-48.5	-62.3	3.8	1.49e+00	0	60	104	0	59	17971
2026-01-05 13:07:18.52	300.52	11.84	-48.5	-62.3	3.8	1.49e+00	0	60	104	0	59	17961
2026-01-05 13:07:19.51	300.71	11.83	-48.5	-62.3	3.8	1.49e+00	0	60	104	0	59	17970
2026-01-05 13:07:20.49	300.89	11.81	-48.5	-62.3	3.8	1.49e+00	0	60	104	0	59	17943
2026-01-05 13:07:21.48	301.08	11.80	-48.5	-62.3	3.8	1.49e+00	0	60	104	0	59	17933
2026-01-05 13:07:22.47	301.27	11.79	-48.5	-62.3	3.8	1.49e+00	0	60	104	0	59	17916
2026-01-05 13:07:23.45	301.45	11.78	-48.5	-62.3	3.8	1.49e+00	0	60	104	0	59	17890
2026-01-05 13:07:24.44	301.64	11.76	-48.5	-62.3	3.8	1.49e+00	0	60	104	0	59	17922
2026-01-05 13:07:25.43	301.82	11.75	-48.5	-62.3	3.8	1.49e+00	0	60	104	0	59	17928
2026-01-05 13:07:26.41	302.01	11.73	-48.5	-62.3	3.8	1.49e+00	0	60	104	0	59	17924
2026-01-05 13:07:27.39	302.19	11.72	-48.5	-62.2	3.8	1.49e+00	0	60	104	0	59	17881
2026-01-05 13:07:28.38	302.38	11.71	-48.5	-62.3	3.8	1.49e+00	0	60	104	0	59	17911
2026-01-05 13:07:29.37	302.56	11.69	-48.5	-62.3	3.8	1.49e+00	0	60	104	0	59	17966
2026-01-05 13:07:30.35	302.74	11.68	-48.5	-62.3	3.8	1.49e+00	0	60	104	0	59	17983
2026-01-05 13:07:31.34	302.93	11.66	-48.6	-62.3	3.8	1.49e+00	0	60	104	0	59	17925
2026-01-05 13:07:32.32	303.11	11.65	-48.6	-62.3	3.8	1.49e+00	0	60	104	0	59	17923
2026-01-05 13:07:33.31	303.30	11.63	-48.6	-62.3	3.8	1.49e+00	0	60	104	0	59	17903
2026-01-05 13:07:34.30	303.48	11.62	-48.6	-62.3	3.8	1.49e+00	0	60	104	0	59	17931
2026-01-05 13:07:35.29	303.66	11.60	-48.5	-62.3	3.8	1.49e+00	0	60	104	0	59	17902
2026-01-05 13:07:36.27	303.85	11.58	-48.5	-62.3	3.8	1.49e+00	0	60	104	0	59	17962
2026-01-05 13:07:37.25	304.03	11.57	-48.5	-62.2	3.8	1.49e+00	0	60	104	0	59	17875
2026-01-05 13:07:38.24	304.21	11.55	-48.6	-62.3	3.8	1.49e+00	0	60	104	0	59	17899
2026-01-05 13:07:39.23	304.39	11.53	-48.5	-62.3	3.8	1.49e+00	0	60	104	0	59	17946
2026-01-05 13:07:40.21	304.58	11.52	-48.6	-62.3	3.8	1.49e+00	0	60	104	0	59	17894
2026-01-05 13:07:41.20	304.76	11.50	-48.6	-62.3	3.8	1.49e+00	0	60	104	0	59	17938
2026-01-05 13:07:42.18	304.94	11.48	-48.5	-62.3	3.8	1.49e+00	0	60	104	0	59	17951
2026-01-05 13:07:43.17	305.12	11.46	-48.5	-62.2	3.8	1.49e+00	0	60	104	0	59	17879
2026-01-05 13:07:44.15	305.30	11.44	-48.5	-62.3	3.8	1.49e+00	0	60	104	0	59	17966
2026-01-05 13:07:45.14	305.48	11.43	-48.5	-62.3	3.8	1.49e+00	0	60	104	0	59	17977
2026-01-05 13:07:46.12	305.66	11.41	-48.5	-62.3	3.8	1.49e+00	0	60	104	0	59	17970
2026-01-05 13:07:47.11	305.84	11.39	-48.6	-62.3	3.8	1.49e+00	0	60	104	0	59	17967
2026-01-05 13:07:48.10	306.03	11.37	-48.6	-62.3	3.8	1.49e+00	0	60	104	0	59	17943
2026-01-05 13:07:49.09	306.21	11.35	-48.6	-62.3	3.8	1.49e+00	0	60	104	0	59	17970
2026-01-05 13:07:50.07	306.39	11.33	-48.6	-62.3	3.8	1.49e+00	0	60	104	0	59	17924
2026-01-05 13:07:51.06	306.57	11.31	-48.6	-62.3	3.8	1.49e+00	0	60	104	0	59	17997
2026-01-05 13:07:52.05	306.75	11.29	-48.5	-62.3	3.8	1.49e+00	0	60	104	0	59	17931
2026-01-05 13:07:53.04	306.93	11.27	-48.5	-62.3	3.8	1.49e+00	0	60	104	0	59	17921
2026-01-05 13:07:54.03	307.11	11.25	-48.5	-62.2	3.8	1.49e+00	0	60	104	0	59	17882
2026-01-05 13:07:55.02	307.29	11.23	-48.5	-62.3	3.8	1.49e+00	0	60	104	0	59	17922
2026-01-05 13:07:56.00	307.46	11.21	-48.6	-62.3	3.8	1.49e+00	0	60	104	0	59	17943
2026-01-05 13:07:56.99	307.64	11.18	-48.5	-62.3	3.8	1.49e+00	0	60	104	0	59	17926
2026-01-05 13:07:57.97	307.82	11.16	-48.5	-62.3	3.8	1.49e+00	0	60	104	0	59	17980
2026-01-05 13:07:58.96	308.00	11.14	-48.5	-62.3	3.8	1.49e+00	0	60	104	0	59	17981
2026-01-05 13:07:59.94	308.17	11.12	-48.5	-62.3	3.8	1.49e+00	0	60	104	0	59	17972
2026-01-05 13:08:00.92	308.35	11.10	-48.6	-62.3	3.8	1.49e+00	0	60	104	0	59	17955
2026-01-05 13:08:01.91	308.53	11.07	-48.6	-62.3	3.8	1.49e+00	0	60	104	0	59	17957
2026-01-05 13:08:02.89	308.70	11.05	-48.6	-62.3	3.8	1.49e+00	0	60	104	0	59	17946
2026-01-05 13:08:03.88	308.88	11.03	-48.6	-62.3	3.8	1.49e+00	0	60	104	0	59	17957
2026-01-05 13:08:04.87	309.06	11.01	-48.6	-62.3	3.8	1.49e+00	0	60	104	0	59	17934
2026-01-05 13:08:05.85	309.23	10.98	-48.6	-62.3	3.8	1.49e+00	0	60	104	0	59	17957
2026-01-05 13:08:06.84	309.41	10.96	-48.5	-62.3	3.8	1.49e+00	0	60	104	0	59	17968
2026-01-05 13:08:07.82	309.58	10.94	-48.5	-62.3	3.8	1.49e+00	0	60	104	0	59	17949
2026-01-05 13:08:08.81	309.76	10.91	-48.5	-62.3	3.8	1.49e+00	0	60	104	0	59	17932
2026-01-05 13:08:09.80	309.93	10.89	-48.5	-62.3	3.8	1.49e+00	0	60	104	0	59	17940
2026-01-05 13:08:10.79	310.11	10.86	-48.5	-62.3	3.8	1.49e+00	0	60	104	0	59	17954
2026-01-05 13:08:11.77	310.28	10.84	-48.5	-62.3	3.8	1.49e+00	0	60	104	0	59	17957
2026-01-05 13:08:12.76	310.46	10.81	-48.5	-62.3	3.8	1.49e+00	0	60	104	0	59	17990
2026-01-05 13:08:13.75	310.63	10.79	-48.5	-62.3	3.8	1.49e+00	0	60	104	0	59	17955
2026-01-05 13:08:14.74	310.81	10.76	-48.5	-62.3	3.8	1.49e+00	0	60	104	0	59	17971
2026-01-05 13:08:15.72	310.98	10.74	-48.5	-62.2	3.8	1.49e+00	0	60	104	0	59	17880
2026-01-05 13:08:16.71	311.15	10.71	-48.5	-62.3	3.8	1.49e+00	0	60	104	0	59	17962
2026-01-05 13:08:17.69	311.32	10.69	-48.5	-62.3	3.8	1.49e+00	0	60	104	0	59	17985
2026-01-05 13:08:18.67	311.49	10.66	-48.5	-62.3	3.8	1.49e+00	0	60	104	0	59	17953
2026-01-05 13:08:19.66	311.67	10.63	-48.5	-62.3	3.8	1.49e+00	0	60	104	0	59	17890
2026-01-05 13:08:20.65	311.84	10.61	-48.5	-62.3	3.8	1.49e+00	0	60	104	0	59	17987
2026-01-05 13:08:21.63	312.01	10.58	-48.5	-62.3	3.8	1.49e+00	0	60	104	0	59	17957
2026-01-05 13:08:22.62	312.18	10.55	-48.6	-62.3	3.8	1.49e+00	0	60	104	0	59	17932
2026-01-05 13:08:23.60	312.35	10.53	-48.6	-62.3	3.8	1.49e+00	0	60	104	0	59	17987
2026-01-05 13:08:24.58	312.52	10.50	-48.5	-62.3	3.8	1.49e+00	0	60	104	0	59	17955
2026-01-05 13:08:25.57	312.69	10.47	-48.5	-62.3	3.8	1.49e+00	0	61	104	0	59	17921
2026-01-05 13:08:26.56	312.86	10.45	-48.5	-62.3	3.8	1.49e+00	0	60	104	0	59	17905
2026-01-05 13:08:27.54	313.03	10.42	-48.6	-62.3	3.8	1.49e+00	0	60	104	0	59	17956
2026-01-05 13:08:28.53	313.20	10.39	-48.5	-62.3	3.8	1.49e+00	0	60	104	0	59	17889
2026-01-05 13:08:29.52	313.37	10.36	-48.6	-62.3	3.8	1.49e+00	0	60	104	0	59	17994
2026-01-05 13:08:30.50	313.54	10.33	-48.6	-62.3	3.8	1.49e+00	0	60	104	0	59	17959
2026-01-05 13:08:31.49	313.71	10.31	-48.6	-62.3	3.8	1.49e+00	0	61	104	0	59	17957
2026-01-05 13:08:32.47	313.87	10.28	-48.5	-62.3	3.8	1.49e+00	0	61	104	0	59	17955
2026-01-05 13:08:33.45	314.04	10.25	-48.5	-62.3	3.8	1.49e+00	0	60	104	0	59	17923
2026-01-05 13:08:34.44	314.21	10.22	-48.6	-62.3	3.8	1.49e+00	0	60	104	0	59	17912
2026-01-05 13:08:35.43	314.37	10.19	-48.5	-62.3	3.8	1.49e+00	0	60	104	0	59	17935
2026-01-05 13:08:36.41	314.54	10.16	-48.5	-62.3	3.8	1.49e+00	0	61	104	0	59	17974
2026-01-05 13:08:37.40	314.71	10.13	-48.6	-62.3	3.8	1.49e+00	0	61	104	0	59	17938
2026-01-05 13:08:38.38	314.87	10.10	-48.6	-62.3	3.8	1.49e+00	0	60	104	0	59	17897
2026-01-05 13:08:39.37	315.04	10.07	-48.5	-62.3	3.8	1.49e+00	0	61	104	0	59	17940
2026-01-05 13:08:40.35	315.20	10.04	-48.6	-62.3	3.8	1.49e+00	0	61	104	0	59	17951
2026-01-05 13:08:41.34	315.37	10.01	-48.5	-62.3	3.8	1.49e+00	0	61	104	0	59	17916
2026-01-05 13:08:42.33	315.53	9.98	-48.5	-62.2	3.8	1.49e+00	0	61	104	0	59	17885
2026-01-05 13:08:43.31	315.70	9.95	-48.5	-62.3	3.8	1.49e+00	0	60	104	0	59	17932
2026-01-05 13:08:44.30	315.86	9.92	-48.5	-62.3	3.8	1.49e+00	0	61	104	0	59	17947
2026-01-05 13:08:45.29	316.02	9.89	-48.5	-62.3	3.8	1.49e+00	0	61	104	0	59	17972
2026-01-05 13:08:46.27	316.19	9.86	-48.5	-62.3	3.8	1.49e+00	0	61	104	0	59	17944
2026-01-05 13:08:47.26	316.35	9.83	-48.5	-62.3	3.8	1.49e+00	0	61	104	0	59	17960
2026-01-05 13:08:48.24	316.51	9.79	-48.5	-62.3	3.8	1.49e+00	0	61	104	0	59	17962
2026-01-05 13:08:49.23	316.68	9.76	-48.5	-62.3	3.8	1.49e+00	0	61	104	0	59	17933
2026-01-05 13:08:50.22	316.84	9.73	-48.6	-62.2	3.8	1.49e+00	0	60	104	0	59	17876
2026-01-05 13:08:51.20	317.00	9.70	-48.6	-62.3	3.8	1.49e+00	0	61	104	0	59	17973
2026-01-05 13:08:52.18	317.16	9.67	-48.6	-62.3	3.8	1.49e+00	0	60	104	0	59	17894
2026-01-05 13:08:53.16	317.32	9.64	-48.5	-62.3	3.8	1.49e+00	0	61	104	0	59	17950
2026-01-05 13:08:54.15	317.48	9.60	-48.6	-62.3	3.8	1.49e+00	0	61	104	0	59	17966
2026-01-05 13:08:55.14	317.64	9.57	-48.5	-62.3	3.8	1.49e+00	0	61	104	0	59	17958
2026-01-05 13:08:56.12	317.80	9.54	-48.5	-62.3	3.8	1.49e+00	0	61	104	0	59	17999
2026-01-05 13:08:57.11	317.96	9.51	-48.5	-62.3	3.8	1.49e+00	0	61	104	0	59	17926
2026-01-05 13:08:58.10	318.12	9.47	-48.5	-62.3	3.8	1.49e+00	0	61	104	0	59	17971
2026-01-05 13:08:59.09	318.28	9.44	-48.5	-62.3	3.8	1.49e+00	0	61	104	0	59	17967
2026-01-05 13:09:00.07	318.44	9.41	-48.5	-62.3	3.8	1.49e+00	0	61	104	0	59	17961
2026-01-05 13:09:01.05	318.59	9.37	-48.6	-62.3	3.8	1.49e+00	0	61	104	0	59	17931
2026-01-05 13:09:02.04	318.75	9.34	-48.6	-62.3	3.8	1.49e+00	0	61	104	0	59	17972
2026-01-05 13:09:03.03	318.91	9.31	-48.6	-62.3	3.8	1.49e+00	0	60	104	0	59	17943
2026-01-05 13:09:04.02	319.07	9.27	-48.6	-62.3	3.8	1.49e+00	0	61	104	0	59	17941
2026-01-05 13:09:05.00	319.22	9.24	-48.6	-62.3	3.8	1.49e+00	0	61	104	0	59	17945
2026-01-05 13:09:05.99	319.38	9.20	-48.5	-62.3	3.8	1.49e+00	0	60	104	0	59	17955
2026-01-05 13:09:06.98	319.54	9.17	-48.5	-62.3	3.8	1.49e+00	0	61	104	0	59	17985
2026-01-05 13:09:07.97	319.69	9.14	-48.5	-62.3	3.8	1.49e+00	0	61	104	0	59	17913
2026-01-05 13:09:08.95	319.85	9.10	-48.5	-62.3	3.8	1.49e+00	0	61	104	0	59	17939
2026-01-05 13:09:09.94	320.00	9.07	-48.5	-62.3	3.8	1.49e+00	0	61	104	0	59	17959
2026-01-05 13:09:10.93	320.16	9.03	-48.5	-62.3	3.8	1.49e+00	0	61	104	0	59	17938
2026-01-05 13:09:11.91	320.31	9.00	-48.5	-62.3	3.8	1.49e+00	0	61	104	0	59	17967
2026-01-05 13:09:12.90	320.47	8.96	-48.5	-62.3	3.8	1.49e+00	0	61	104	0	59	17945
2026-01-05 13:09:13.89	320.62	8.93	-48.6	-62.3	3.8	1.49e+00	0	61	104	0	59	17903
2026-01-05 13:09:14.88	320.77	8.89	-48.5	-62.3	3.8	1.49e+00	0	60	104	0	59	17953
2026-01-05 13:09:15.86	320.92	8.86	-48.5	-62.3	3.8	1.49e+00	0	61	104	0	59	17937
2026-01-05 13:09:16.84	321.08	8.82	-48.5	-62.3	3.8	1.49e+00	0	61	104	0	59	17915
2026-01-05 13:09:17.83	321.23	8.78	-48.5	-62.3	3.8	1.49e+00	0	61	104	0	59	17923
2026-01-05 13:09:18.81	321.38	8.75	-48.6	-62.3	3.8	1.49e+00	0	61	104	0	59	17978
2026-01-05 13:09:19.80	321.53	8.71	-48.5	-62.3	3.8	1.49e+00	0	61	104	0	59	17994
2026-01-05 13:09:20.79	321.68	8.68	-48.5	-62.3	3.8	1.49e+00	0	61	104	0	59	17948
2026-01-05 13:09:21.78	321.83	8.64	-48.5	-62.3	3.8	1.49e+00	0	61	104	0	59	17957
2026-01-05 13:09:22.76	321.98	8.61	-48.5	-62.3	3.8	1.49e+00	0	61	104	0	59	17969
2026-01-05 13:09:23.75	322.13	8.57	-48.6	-62.3	3.8	1.49e+00	0	61	104	0	59	17923
2026-01-05 13:09:24.73	322.28	8.53	-48.5	-62.3	3.8	1.49e+00	0	61	104	0	59	17977
2026-01-05 13:09:25.72	322.43	8.50	-48.5	-62.3	3.8	1.49e+00	0	61	104	0	59	17946
2026-01-05 13:09:26.71	322.58	8.46	-48.5	-62.3	3.8	1.49e+00	0	61	104	0	59	17961
2026-01-05 13:09:27.69	322.73	8.42	-48.5	-62.3	3.8	1.49e+00	0	61	104	0	59	17980
2026-01-05 13:09:28.67	322.88	8.39	-48.5	-62.3	3.8	1.49e+00	0	61	104	0	59	17930
2026-01-05 13:09:29.66	323.02	8.35	-48.5	-62.3	3.8	1.49e+00	0	61	104	0	59	17960
2026-01-05 13:09:30.64	323.17	8.31	-48.5	-62.3	3.8	1.49e+00	0	61	104	0	59	17982
2026-01-05 13:09:31.62	323.32	8.27	-48.5	-62.3	3.8	1.49e+00	0	61	104	0	59	17974
2026-01-05 13:09:32.61	323.46	8.24	-48.5	-62.3	3.8	1.49e+00	0	61	104	0	59	17997
2026-01-05 13:09:33.60	323.61	8.20	-48.5	-62.3	3.8	1.49e+00	0	61	104	0	59	17969
2026-01-05 13:09:34.58	323.76	8.16	-48.5	-62.3	3.8	1.49e+00	0	61	104	0	59	17979
2026-01-05 13:09:35.57	323.90	8.12	-48.5	-62.3	3.8	1.49e+00	0	61	104	0	59	17969
2026-01-05 13:09:36.55	324.05	8.09	-48.5	-62.3	3.8	1.49e+00	0	61	104	0	59	17969
2026-01-05 13:09:37.53	324.19	8.05	-48.6	-62.3	3.8	1.49e+00	0	61	104	0	59	17974
2026-01-05 13:09:38.52	324.34	8.01	-48.5	-62.3	3.8	1.49e+00	0	61	104	0	59	17998
2026-01-05 13:09:39.51	324.48	7.97	-48.6	-62.3	3.8	1.49e+00	0	61	104	0	59	17983
2026-01-05 13:09:40.49	324.62	7.94	-48.5	-62.3	3.8	1.49e+00	0	61	104	0	59	17917
2026-01-05 13:09:41.48	324.77	7.90	-48.5	-62.3	3.8	1.49e+00	0	61	104	0	59	18015
2026-01-05 13:09:42.46	324.91	7.86	-48.5	-62.3	3.8	1.49e+00	0	61	104	0	59	17959
2026-01-05 13:09:43.45	325.05	7.82	-48.5	-62.3	3.8	1.49e+00	0	61	104	0	59	17953
2026-01-05 13:09:44.43	325.19	7.78	-48.5	-62.3	3.8	1.49e+00	0	61	104	0	59	17996
2026-01-05 13:09:45.42	325.34	7.74	-48.5	-62.3	3.8	1.49e+00	0	61	104	0	59	17983
2026-01-05 13:09:46.40	325.48	7.71	-48.5	-62.3	3.8	1.49e+00	0	61	104	0	59	17964
2026-01-05 13:09:47.39	325.62	7.67	-48.5	-62.3	3.8	1.49e+00	0	61	104	0	59	17966
2026-01-05 13:09:48.37	325.76	7.63	-48.5	-62.3	3.8	1.49e+00	0	61	104	0	59	17974
2026-01-05 13:09:49.35	325.90	7.59	-48.5	-62.3	3.8	1.49e+00	0	61	104	0	59	17914
2026-01-05 13:09:50.34	326.04	7.55	-48.5	-62.3	3.8	1.49e+00	0	61	104	0	59	17999
2026-01-05 13:09:51.33	326.18	7.51	-48.5	-62.3	3.8	1.49e+00	0	61	104	0	59	18018
2026-01-05 13:09:52.31	326.32	7.47	-48.6	-62.3	3.8	1.49e+00	0	61	104	0	59	17954
2026-01-05 13:09:53.30	326.46	7.43	-48.5	-62.3	3.8	1.49e+00	0	61	104	0	59	17969
2026-01-05 13:09:54.29	326.60	7.39	-48.5	-62.3	3.8	1.49e+00	0	61	104	0	59	18006
2026-01-05 13:09:55.28	326.74	7.35	-48.5	-62.3	3.8	1.49e+00	0	61	104	0	59	17963
2026-01-05 13:09:56.26	326.87	7.32	-48.5	-62.3	3.8	1.49e+00	0	61	104	0	59	17923
2026-01-05 13:09:57.25	327.01	7.28	-48.6	-62.3	3.8	1.49e+00	0	61	104	0	59	17963
2026-01-05 13:09:58.23	327.15	7.24	-48.5	-62.3	3.8	1.49e+00	0	61	104	0	59	17963
2026-01-05 13:09:59.22	327.28	7.20	-48.5	-62.3	3.8	1.49e+00	0	61	104	0	59	17940
2026-01-05 13:10:00.23	327.42	7.16	-48.5	-62.3	3.8	1.49e+00	0	61	104	0	59	18005
2026-01-05 13:10:01.22	327.56	7.12	-48.5	-62.3	3.8	1.49e+00	0	61	104	0	59	17990
2026-01-05 13:10:02.20	327.70	7.08	-48.6	-62.3	3.8	1.49e+00	0	61	104	0	59	17940
2026-01-05 13:10:03.19	327.83	7.04	-48.5	-62.3	3.8	1.49e+00	0	61	104	0	59	17956
2026-01-05 13:10:04.17	327.97	7.00	-48.5	-62.3	3.8	1.49e+00	0	61	104	0	59	17948
2026-01-05 13:10:05.16	328.10	6.96	-48.5	-62.3	3.8	1.49e+00	0	61	104	0	59	17930
2026-01-05 13:10:06.15	328.24	6.92	-48.5	-62.3	3.8	1.49e+00	0	61	104	0	59	17911
2026-01-05 13:10:07.13	328.37	6.88	-48.6	-62.3	3.8	1.49e+00	0	61	104	0	59	17973
2026-01-05 13:10:08.12	328.50	6.83	-48.5	-62.3	3.8	1.49e+00	0	61	104	0	59	17964
2026-01-05 13:10:09.11	328.64	6.79	-48.5	-62.3	3.8	1.49e+00	0	61	104	0	59	17980
2026-01-05 13:10:10.10	328.77	6.75	-48.6	-62.3	3.8	1.49e+00	0	61	104	0	59	17945
2026-01-05 13:10:11.08	328.90	6.71	-48.6	-62.3	3.8	1.49e+00	0	61	104	0	59	17953
2026-01-05 13:10:12.07	329.04	6.67	-48.5	-62.3	3.8	1.49e+00	0	61	104	0	59	17967
2026-01-05 13:10:13.06	329.17	6.63	-48.6	-62.3	3.8	1.49e+00	0	61	104	0	59	17977
2026-01-05 13:10:14.05	329.30	6.59	-48.5	-62.3	3.8	1.49e+00	0	61	104	0	59	17999
2026-01-05 13:10:15.04	329.43	6.55	-48.5	-62.3	3.8	1.49e+00	0	61	104	0	59	18023
2026-01-05 13:10:16.03	329.56	6.51	-48.5	-62.3	3.8	1.49e+00	0	61	104	0	59	17978
2026-01-05 13:10:17.02	329.69	6.47	-48.5	-62.3	3.8	1.49e+00	0	61	104	0	59	17934
2026-01-05 13:10:18.01	329.82	6.43	-48.6	-62.3	3.8	1.49e+00	0	61	104	0	59	17947
2026-01-05 13:10:18.99	329.95	6.39	-48.6	-62.3	3.8	1.49e+00	0	61	104	0	59	17941
2026-01-05 13:10:19.98	330.08	6.35	-48.6	-62.3	3.8	1.49e+00	0	61	104	0	59	17977
2026-01-05 13:10:20.97	330.21	6.30	-48.6	-62.3	3.8	1.49e+00	0	61	104	0	59	17949
2026-01-05 13:10:21.96	330.34	6.26	-48.6	-62.3	3.8	1.49e+00	0	61	104	0	59	17965
2026-01-05 13:10:22.95	330.47	6.22	-48.6	-62.3	3.8	1.49e+00	0	61	104	0	59	18007
2026-01-05 13:10:23.93	330.60	6.18	-48.5	-62.3	3.8	1.49e+00	0	61	104	0	59	17962
2026-01-05 13:10:24.92	330.73	6.14	-48.5	-62.3	3.8	1.49e+00	0	61	104	0	59	17990
2026-01-05 13:10:25.91	330.85	6.10	-48.5	-62.3	3.8	1.49e+00	0	61	104	0	59	17967
2026-01-05 13:10:26.90	330.98	6.06	-48.5	-62.3	3.8	1.49e+00	0	61	104	0	59	17977
2026-01-05 13:10:27.89	331.11	6.01	-48.6	-62.3	3.8	1.49e+00	0	61	104	0	59	18013
2026-01-05 13:10:28.89	331.24	5.97	-48.6	-62.3	3.8	1.49e+00	0	61	104	0	59	17983
2026-01-05 13:10:30.18	331.40	5.92	-48.5	-62.3	3.8	1.49e+00	0	61	104	0	59	17977
2026-01-05 13:10:30.92	331.50	5.89	-48.5	-62.3	3.8	1.49e+00	0	61	104	0	59	18011
2026-01-05 13:10:32.18	331.66	5.83	-48.5	-62.3	3.8	1.49e+00	0	61	104	0	59	17939
2026-01-05 13:10:33.01	331.76	5.80	-48.5	-62.3	3.8	1.49e+00	0	61	104	0	59	17971
2026-01-05 13:10:34.14	331.90	5.75	-48.6	-62.3	3.8	1.49e+00	0	61	104	0	59	17992
2026-01-05 13:10:34.98	332.01	5.71	-48.6	-62.3	3.8	1.49e+00	0	61	104	0	59	17915
2026-01-05 13:10:36.11	332.15	5.67	-48.5	-62.3	3.8	1.49e+00	0	61	104	0	59	17970
2026-01-05 13:10:36.96	332.26	5.63	-48.6	-62.3	3.8	1.49e+00	0	61	104	0	59	17957
2026-01-05 13:10:38.09	332.40	5.58	-48.5	-62.3	3.8	1.49e+00	0	61	104	0	59	17955
2026-01-05 13:10:38.94	332.50	5.55	-48.6	-62.3	3.8	1.49e+00	0	61	104	0	59	17968
2026-01-05 13:10:40.06	332.64	5.50	-48.5	-62.3	3.8	1.49e+00	0	61	104	0	59	17981
2026-01-05 13:10:40.91	332.75	5.46	-48.5	-62.3	3.8	1.49e+00	0	61	104	0	59	17898
2026-01-05 13:10:42.04	332.89	5.41	-48.6	-62.3	3.8	1.49e+00	0	61	104	0	59	18029
2026-01-05 13:10:42.88	332.99	5.38	-48.5	-62.3	3.8	1.49e+00	0	61	104	0	59	18017
2026-01-05 13:10:44.01	333.13	5.33	-48.5	-62.3	3.8	1.49e+00	0	61	104	0	59	17966
2026-01-05 13:10:44.86	333.23	5.29	-48.5	-62.3	3.8	1.49e+00	0	61	104	0	59	17992
2026-01-05 13:10:45.99	333.37	5.25	-48.5	-62.3	3.8	1.49e+00	0	61	104	0	59	17932
2026-01-05 13:10:46.83	333.47	5.21	-48.5	-62.3	3.8	1.49e+00	0	61	104	0	59	17949
2026-01-05 13:10:47.96	333.61	5.16	-48.5	-62.3	3.8	1.49e+00	0	61	104	0	59	17966
2026-01-05 13:10:48.80	333.71	5.13	-48.5	-62.3	3.8	1.49e+00	0	61	104	0	59	17929
2026-01-05 13:10:49.93	333.85	5.08	-48.5	-62.3	3.8	1.49e+00	0	61	104	0	59	17941
2026-01-05 13:10:50.78	333.95	5.04	-48.5	-62.3	3.8	1.49e+00	0	61	104	0	59	17970
2026-01-05 13:10:51.90	334.09	4.99	-48.5	-62.3	3.8	1.49e+00	0	61	104	0	59	17969
2026-01-05 13:10:52.74	334.19	4.96	-48.5	-62.3	3.8	1.49e+00	0	61	104	0	59	17939
2026-01-05 13:10:53.87	334.32	4.91	-48.5	-62.3	3.8	1.49e+00	0	61	104	0	59	17949
2026-01-05 13:10:54.72	334.42	4.87	-48.5	-62.3	3.8	1.49e+00	0	61	104	0	59	18000
2026-01-05 13:10:55.85	334.56	4.82	-48.6	-62.3	3.8	1.49e+00	0	61	104	0	59	17975
2026-01-05 13:10:56.69	334.66	4.79	-48.5	-62.3	3.8	1.49e+00	0	61	104	0	59	17965
2026-01-05 13:10:57.82	334.79	4.74	-48.5	-62.3	3.8	1.49e+00	0	61	104	0	59	17995
2026-01-05 13:10:58.66	334.89	4.70	-48.5	-62.3	3.8	1.49e+00	0	61	104	0	59	18008
2026-01-05 13:10:59.79	335.02	4.65	-48.5	-62.3	3.8	1.49e+00	0	61	104	0	59	17970
2026-01-05 13:11:00.64	335.12	4.62	-48.5	-62.3	3.8	1.49e+00	0	61	104	0	59	17942
2026-01-05 13:11:01.76	335.25	4.57	-48.6	-62.3	3.8	1.49e+00	0	61	104	0	59	17965
2026-01-05 13:11:02.60	335.35	4.53	-48.5	-62.3	3.8	1.49e+00	0	61	104	0	59	17989
2026-01-05 13:11:03.73	335.48	4.48	-48.5	-62.3	3.8	1.49e+00	0	61	104	0	59	17981
2026-01-05 13:11:04.57	335.58	4.44	-48.5	-62.3	3.8	1.49e+00	0	61	104	0	59	18017
2026-01-05 13:11:05.70	335.71	4.40	-48.5	-62.3	3.8	1.49e+00	0	61	104	0	59	17986
2026-01-05 13:11:06.55	335.81	4.36	-48.5	-62.3	3.8	1.49e+00	0	61	104	0	59	17971
2026-01-05 13:11:07.68	335.94	4.31	-48.5	-62.3	3.8	1.49e+00	0	61	104	0	59	17971
2026-01-05 13:11:08.52	336.03	4.27	-48.5	-62.3	3.8	1.49e+00	0	61	104	0	59	17963
2026-01-05 13:11:09.65	336.16	4.22	-48.5	-62.3	3.8	1.49e+00	0	61	104	0	59	17939
2026-01-05 13:11:10.49	336.26	4.19	-48.5	-62.3	3.8	1.49e+00	0	61	104	0	59	17988
2026-01-05 13:11:11.62	336.39	4.14	-48.5	-62.3	3.8	1.49e+00	0	61	104	0	59	17995
2026-01-05 13:11:12.46	336.48	4.10	-48.5	-62.3	3.8	1.49e+00	0	61	104	0	59	18000
2026-01-05 13:11:13.58	336.61	4.05	-48.5	-62.3	3.8	1.49e+00	0	61	104	0	59	18003
2026-01-05 13:11:14.43	336.70	4.02	-48.5	-62.3	3.8	1.49e+00	0	61	104	0	59	17994
2026-01-05 13:11:15.55	336.83	3.97	-48.5	-62.3	3.8	1.49e+00	0	61	104	0	59	17999
2026-01-05 13:11:16.39	336.92	3.93	-48.6	-62.3	3.8	1.49e+00	0	61	104	0	59	17960
2026-01-05 13:11:17.51	337.05	3.88	-48.5	-62.3	3.8	1.49e+00	0	61	104	0	59	17956
2026-01-05 13:11:18.36	337.14	3.85	-48.6	-62.3	3.8	1.49e+00	0	61	104	0	59	17976
2026-01-05 13:11:19.49	337.27	3.80	-48.6	-62.3	3.8	1.49e+00	0	61	104	0	59	17989
2026-01-05 13:11:20.33	337.36	3.76	-48.5	-62.3	3.8	1.49e+00	0	61	104	0	59	17975
2026-01-05 13:11:21.45	337.48	3.71	-48.6	-62.3	3.8	1.49e+00	0	61	104	0	59	17987
2026-01-05 13:11:22.30	337.58	3.67	-48.6	-62.3	3.8	1.49e+00	0	61	104	0	59	18001
2026-01-05 13:11:23.43	337.70	3.62	-48.5	-62.3	3.8	1.49e+00	0	61	104	0	59	17970
2026-01-05 13:11:24.27	337.79	3.59	-48.6	-62.3	3.8	1.49e+00	0	61	104	0	59	17973
2026-01-05 13:11:25.40	337.92	3.54	-48.6	-62.3	3.8	1.49e+00	0	61	104	0	59	18004
2026-01-05 13:11:26.25	338.01	3.50	-48.6	-62.3	3.8	1.49e+00	0	61	104	0	59	17947
2026-01-05 13:11:27.37	338.13	3.45	-48.5	-62.3	3.8	1.49e+00	0	61	104	0	59	17981
2026-01-05 13:11:28.22	338.22	3.41	-48.5	-62.3	3.8	1.49e+00	0	61	104	0	59	17993
2026-01-05 13:11:29.34	338.34	3.37	-48.5	-62.3	3.8	1.49e+00	0	61	104	0	59	18012
2026-01-05 13:11:30.19	338.44	3.33	-48.6	-62.3	3.8	1.49e+00	0	61	104	0	59	17977
2026-01-05 13:11:31.31	338.56	3.28	-48.6	-62.3	3.8	1.49e+00	0	61	104	0	59	17988
2026-01-05 13:11:32.16	338.65	3.24	-48.6	-62.3	3.8	1.49e+00	0	61	104	0	59	17946
2026-01-05 13:11:33.29	338.77	3.19	-48.6	-62.3	3.8	1.49e+00	0	61	104	0	59	18036
2026-01-05 13:11:34.14	338.86	3.16	-48.6	-62.3	3.8	1.49e+00	0	61	104	0	59	18028
2026-01-05 13:11:35.27	338.98	3.11	-48.6	-62.3	3.8	1.49e+00	0	61	104	0	59	17962
2026-01-05 13:11:36.11	339.07	3.07	-48.6	-62.3	3.8	1.49e+00	0	61	104	0	59	17958
2026-01-05 13:11:37.23	339.19	3.02	-48.6	-62.3	3.8	1.49e+00	0	61	104	0	59	18024
2026-01-05 13:11:38.07	339.27	2.98	-48.6	-62.3	3.8	1.49e+00	0	61	104	0	59	17954
2026-01-05 13:11:39.20	339.39	2.93	-48.6	-62.3	3.8	1.49e+00	0	61	104	0	59	17964

#Closed at: 2026-01-05 13:11:39
#Recorded file [0 MB]: D:/Data/31026_260105_160137.dat