passes_logs/2026/01/05/R3.0SM8_Murmansk_STILSPACE/R3.0SM8_Murmansk_STILSPACE__20260105_002921_NOAA_21_JPSS-2_rec.log

#Pass ID: 20260105_002921_NOAA 21 (JPSS-2)
#Satellite: NOAA 21 (JPSS-2)
#Configuration: NOAA-21
#almurnet v.1.7.20240730
#Start time: 2026-01-05 00:31:35

#Version: 2.2.20231116
#Station: R3.0SM8_Murmansk_STILSPACE
#Location: 33.092731 lon 68.902999 lat
#TLE: 1 54234U 22150A   26004.22845673  .00000174  00000+0  10347-3 0  9996
#TLE: 2 54234  98.7489 305.2591 0001115 345.0884  15.0259 14.19531906163281

#Time	Az	El	Level	Level2	SNR	BER	BlckErr	Temp	State	Recorded	gain1	gain2
2026-01-05 00:31:35.97	25.43	13.80	-52.6	-63.4	3.8	8.45e-01	0	57	0	0	67	12942
2026-01-05 00:31:36.96	25.45	13.90	-52.8	-64.3	3.8	1.49e+00	0	57	104	0	68	13531
2026-01-05 00:31:37.95	25.46	14.00	-52.8	-64.4	3.8	1.49e+00	0	57	104	0	68	13582
2026-01-05 00:31:38.95	25.47	14.10	-52.7	-64.3	3.8	1.49e+00	0	57	104	0	68	13547
2026-01-05 00:31:39.93	25.49	14.20	-52.7	-64.3	3.8	1.49e+00	0	57	104	0	68	13505
2026-01-05 00:31:40.93	25.50	14.30	-52.8	-64.3	3.8	1.49e+00	0	57	104	0	68	13501
2026-01-05 00:31:41.91	25.52	14.40	-52.9	-64.3	3.8	1.49e+00	0	57	104	0	68	13515
2026-01-05 00:31:42.90	25.53	14.51	-52.7	-64.3	3.8	1.49e+00	0	57	104	0	68	13515
2026-01-05 00:31:43.90	25.55	14.61	-52.8	-64.3	3.8	1.49e+00	0	57	104	0	68	13551
2026-01-05 00:31:44.89	25.56	14.71	-52.8	-64.3	3.8	1.49e+00	0	57	104	0	68	13542
2026-01-05 00:31:45.88	25.58	14.82	-52.8	-64.3	3.8	1.49e+00	0	57	104	0	68	13534
2026-01-05 00:31:46.86	25.59	14.92	-52.8	-64.3	3.8	1.49e+00	0	57	104	0	68	13529
2026-01-05 00:31:47.84	25.61	15.03	-52.8	-64.3	3.8	1.49e+00	0	57	104	0	68	13483
2026-01-05 00:31:48.83	25.62	15.13	-52.8	-64.3	3.8	1.49e+00	0	57	104	0	68	13425
2026-01-05 00:31:49.82	25.64	15.24	-52.8	-64.3	3.8	1.49e+00	0	57	104	0	68	13456
2026-01-05 00:31:50.81	25.65	15.34	-52.8	-64.3	3.8	1.49e+00	0	57	104	0	68	13440
2026-01-05 00:31:51.80	25.67	15.45	-52.8	-64.2	3.8	1.49e+00	0	57	104	0	68	13323
2026-01-05 00:31:52.79	25.69	15.56	-52.8	-64.2	3.8	1.49e+00	0	57	104	0	68	13379
2026-01-05 00:31:53.78	25.70	15.66	-52.8	-64.2	3.8	1.49e+00	0	57	104	0	68	13350
2026-01-05 00:31:54.77	25.72	15.77	-52.6	-64.2	3.8	1.49e+00	0	57	104	0	68	13344
2026-01-05 00:31:55.76	25.73	15.88	-52.7	-64.1	3.8	1.49e+00	0	57	104	0	68	13249
2026-01-05 00:31:56.75	25.75	15.99	-52.2	-63.7	3.8	1.49e+00	0	57	104	0	67	13312
2026-01-05 00:31:57.75	25.76	16.10	-52.6	-64.0	3.8	1.49e+00	0	57	104	0	67	13803
2026-01-05 00:31:58.74	25.78	16.21	-52.6	-63.9	3.8	1.49e+00	0	57	104	0	67	13718
2026-01-05 00:31:59.73	25.80	16.32	-52.5	-64.0	3.8	1.49e+00	0	57	104	0	67	13794
2026-01-05 00:32:00.72	25.81	16.43	-52.5	-64.0	3.8	1.49e+00	0	57	104	0	67	13748
2026-01-05 00:32:01.71	25.83	16.54	-52.4	-63.1	3.8	1.49e+00	0	57	104	0	67	12503
2026-01-05 00:32:02.70	25.85	16.65	-52.3	-63.0	3.8	1.49e+00	0	57	104	0	67	12332
2026-01-05 00:32:03.68	25.86	16.76	-52.2	-61.9	3.8	1.49e+00	0	57	104	0	67	10887
2026-01-05 00:32:04.67	25.88	16.88	-51.9	-60.7	3.9	1.47e+00	0	57	104	0	67	9424
2026-01-05 00:32:05.66	25.90	16.99	-51.8	-59.0	4.7	1.12e+00	2	58	104	0	66	8223
2026-01-05 00:32:06.64	25.91	17.10	-51.6	-58.2	5.1	7.04e-01	0	57	0	0	66	7469
2026-01-05 00:32:07.64	25.93	17.22	-51.5	-57.6	5.4	5.17e-01	0	57	0	3145728	66	7014
2026-01-05 00:32:08.63	25.95	17.33	-51.3	-57.0	5.8	4.24e-01	0	57	0	6291456	65	6934
2026-01-05 00:32:09.61	25.96	17.45	-51.2	-56.4	6.3	3.06e-01	0	57	0	9437184	65	6462
2026-01-05 00:32:10.60	25.98	17.56	-50.6	-55.2	7.4	1.42e-01	0	57	0	12582912	64	5940
2026-01-05 00:32:11.59	26.00	17.68	-50.2	-53.8	8.9	3.42e-02	0	57	0	15728640	63	5354
2026-01-05 00:32:12.58	26.02	17.80	-49.4	-52.3	10.4	1.02e-02	0	57	0	18874368	62	4777
2026-01-05 00:32:13.57	26.03	17.92	-48.7	-51.0	11.7	1.11e-03	0	57	0	22020096	60	4651
2026-01-05 00:32:14.56	26.05	18.03	-48.1	-50.1	12.7	1.20e-04	0	57	0	24117248	59	4441
2026-01-05 00:32:15.56	26.07	18.16	-47.6	-49.3	13.5	1.75e-05	0	57	0	27262976	58	4269
2026-01-05 00:32:16.55	26.09	18.27	-47.2	-48.7	14.1	3.00e-06	0	57	0	30408704	57	4225
2026-01-05 00:32:17.54	26.10	18.39	-46.8	-48.3	14.6	2.20e-06	0	57	0	33554432	56	4249
2026-01-05 00:32:18.53	26.12	18.52	-46.5	-47.8	15.1	0.00e+00	0	57	0	36700160	56	4024
2026-01-05 00:32:19.52	26.14	18.64	-45.7	-46.9	15.8	0.00e+00	0	57	0	39845888	54	4089
2026-01-05 00:32:20.52	26.16	18.76	-45.4	-46.5	16.2	0.00e+00	0	57	0	42991616	54	3898
2026-01-05 00:32:21.50	26.18	18.88	-44.9	-46.0	16.7	0.00e+00	0	57	0	46137344	53	3885
2026-01-05 00:32:22.49	26.20	19.00	-44.7	-45.7	17.1	0.00e+00	0	57	0	49283072	52	3960
2026-01-05 00:32:23.48	26.21	19.13	-44.5	-45.4	17.2	0.00e+00	0	57	0	52428800	52	3860
2026-01-05 00:32:24.47	26.23	19.25	-44.5	-45.5	17.2	0.00e+00	0	57	0	55574528	52	3873
2026-01-05 00:32:25.47	26.25	19.38	-44.7	-45.7	17.0	0.00e+00	0	57	0	58720256	52	3975
2026-01-05 00:32:26.47	26.27	19.51	-44.9	-45.9	16.8	0.00e+00	0	57	0	61865984	52	4088
2026-01-05 00:32:27.46	26.29	19.63	-45.3	-46.4	16.3	0.00e+00	0	57	0	65011712	52	4316
2026-01-05 00:32:28.45	26.31	19.76	-45.8	-47.0	15.8	0.00e+00	0	57	0	68157440	53	4354
2026-01-05 00:32:29.43	26.33	19.88	-46.2	-47.5	15.2	0.00e+00	0	57	0	71303168	54	4388
2026-01-05 00:32:30.43	26.35	20.01	-46.6	-48.0	14.8	0.00e+00	0	58	0	74448896	55	4357
2026-01-05 00:32:31.42	26.37	20.14	-46.4	-47.7	15.0	0.00e+00	0	57	0	77594624	55	4230
2026-01-05 00:32:32.41	26.39	20.27	-46.1	-47.5	15.3	0.00e+00	0	57	0	80740352	55	4099
2026-01-05 00:32:33.40	26.41	20.40	-46.2	-47.5	15.2	7.00e-07	0	57	0	83886080	55	4136
2026-01-05 00:32:34.38	26.43	20.53	-45.8	-47.0	15.7	0.00e+00	0	57	0	87031808	54	4131
2026-01-05 00:32:35.36	26.45	20.66	-45.4	-46.5	16.3	0.00e+00	0	57	0	89128960	53	4113
2026-01-05 00:32:36.35	26.47	20.79	-45.1	-46.1	16.6	0.00e+00	0	57	0	92274688	53	3933
2026-01-05 00:32:37.34	26.49	20.93	-44.7	-45.6	17.1	0.00e+00	0	57	0	95420416	52	3946
2026-01-05 00:32:38.33	26.51	21.06	-44.4	-45.4	17.4	0.00e+00	0	57	0	98566144	51	4067
2026-01-05 00:32:39.31	26.53	21.19	-44.2	-45.1	17.7	0.00e+00	0	57	0	101711872	51	3945
2026-01-05 00:32:40.31	26.55	21.33	-44.0	-44.8	17.9	0.00e+00	0	57	0	104857600	51	3821
2026-01-05 00:32:41.30	26.57	21.47	-44.0	-44.8	18.0	0.00e+00	0	57	0	108003328	51	3809
2026-01-05 00:32:42.29	26.59	21.60	-43.8	-44.7	18.1	0.00e+00	0	57	0	111149056	50	3964
2026-01-05 00:32:43.28	26.61	21.74	-43.8	-44.6	18.2	0.00e+00	0	57	0	114294784	50	3942
2026-01-05 00:32:44.26	26.63	21.88	-43.9	-44.7	18.1	0.00e+00	0	57	0	117440512	50	4001
2026-01-05 00:32:45.26	26.66	22.02	-44.0	-44.9	18.0	0.00e+00	0	57	0	120586240	50	4069
2026-01-05 00:32:46.24	26.68	22.16	-43.8	-44.6	18.2	0.00e+00	0	57	0	123731968	50	3939
2026-01-05 00:32:47.24	26.70	22.30	-43.7	-44.5	18.3	0.00e+00	0	57	0	126877696	50	3889
2026-01-05 00:32:48.22	26.72	22.44	-43.5	-44.3	18.4	0.00e+00	0	57	0	130023424	50	3814
2026-01-05 00:32:49.21	26.74	22.58	-43.7	-44.5	18.3	0.00e+00	0	57	0	133169152	50	3911
2026-01-05 00:32:50.20	26.77	22.72	-43.6	-44.3	18.4	0.00e+00	0	57	0	136314880	50	3814
2026-01-05 00:32:51.18	26.79	22.86	-43.5	-44.3	18.5	0.00e+00	0	57	0	139460608	50	3809
2026-01-05 00:32:52.17	26.81	23.01	-43.7	-44.5	18.3	0.00e+00	0	57	0	142606336	50	3887
2026-01-05 00:32:53.17	26.83	23.15	-43.5	-44.3	18.5	0.00e+00	0	57	0	144703488	50	3792
2026-01-05 00:32:54.16	26.86	23.30	-43.4	-44.2	18.6	0.00e+00	0	57	0	147849216	50	3758
2026-01-05 00:32:55.14	26.88	23.44	-43.5	-44.3	18.5	0.00e+00	0	57	0	150994944	50	3786
2026-01-05 00:32:56.12	26.90	23.59	-43.7	-44.5	18.3	0.00e+00	0	57	0	154140672	50	3877
2026-01-05 00:32:57.12	26.93	23.74	-43.7	-44.5	18.3	0.00e+00	0	57	0	157286400	50	3908
2026-01-05 00:32:58.11	26.95	23.89	-43.7	-44.5	18.4	0.00e+00	0	57	0	160432128	50	3875
2026-01-05 00:32:59.09	26.97	24.04	-43.6	-44.4	18.4	0.00e+00	0	57	0	163577856	50	3854
2026-01-05 00:33:00.08	27.00	24.19	-43.7	-44.5	18.3	0.00e+00	0	57	0	166723584	50	3878
2026-01-05 00:33:01.07	27.02	24.34	-44.0	-44.8	18.0	0.00e+00	0	57	0	169869312	50	4025
2026-01-05 00:33:02.07	27.05	24.50	-43.8	-44.7	18.2	0.00e+00	0	57	0	173015040	50	3962
2026-01-05 00:33:03.06	27.07	24.65	-44.1	-45.0	17.9	0.00e+00	0	57	0	176160768	50	4104
2026-01-05 00:33:04.05	27.10	24.80	-43.9	-44.8	18.1	0.00e+00	0	57	0	179306496	50	4016
2026-01-05 00:33:05.03	27.12	24.96	-43.8	-44.6	18.3	0.00e+00	0	57	0	182452224	50	3921
2026-01-05 00:33:06.03	27.15	25.11	-43.8	-44.6	18.2	0.00e+00	0	57	0	185597952	50	3944
2026-01-05 00:33:07.02	27.17	25.27	-43.9	-44.8	18.0	0.00e+00	0	57	0	188743680	50	4014
2026-01-05 00:33:08.01	27.20	25.43	-44.2	-45.1	17.8	0.00e+00	0	57	0	191889408	50	4148
2026-01-05 00:33:09.00	27.22	25.59	-44.1	-45.0	17.9	0.00e+00	0	57	0	195035136	50	4114
2026-01-05 00:33:09.99	27.25	25.75	-44.2	-45.0	17.8	0.00e+00	0	57	0	198180864	50	4139
2026-01-05 00:33:10.97	27.28	25.91	-44.2	-45.1	17.7	0.00e+00	0	57	0	201326592	50	4191
2026-01-05 00:33:11.97	27.30	26.07	-44.5	-45.4	17.5	0.00e+00	0	57	0	204472320	50	4323
2026-01-05 00:33:12.95	27.33	26.23	-44.4	-45.4	17.5	0.00e+00	0	57	0	207618048	50	4293
2026-01-05 00:33:13.94	27.36	26.40	-44.4	-45.3	17.5	0.00e+00	0	57	0	209715200	50	4289
2026-01-05 00:33:14.94	27.38	26.56	-44.5	-45.4	17.5	0.00e+00	0	57	0	212860928	50	4295
2026-01-05 00:33:15.93	27.41	26.73	-44.4	-45.3	17.6	0.00e+00	0	57	0	216006656	50	4250
2026-01-05 00:33:16.92	27.44	26.90	-44.6	-45.6	17.3	0.00e+00	0	57	0	219152384	51	4158
2026-01-05 00:33:17.92	27.47	27.07	-44.6	-45.5	17.4	0.00e+00	0	57	0	222298112	51	4108
2026-01-05 00:33:18.90	27.50	27.23	-44.6	-45.6	17.3	0.00e+00	0	57	0	225443840	51	4146
2026-01-05 00:33:19.89	27.53	27.40	-44.9	-45.9	17.0	0.00e+00	0	57	0	228589568	51	4300
2026-01-05 00:33:20.88	27.55	27.58	-44.7	-45.6	17.2	0.00e+00	0	57	0	231735296	51	4189
2026-01-05 00:33:21.86	27.58	27.75	-44.6	-45.6	17.3	0.00e+00	0	57	0	234881024	51	4148
2026-01-05 00:33:22.85	27.61	27.92	-44.7	-45.6	17.2	0.00e+00	0	57	0	238026752	51	4188
2026-01-05 00:33:23.84	27.64	28.09	-44.7	-45.7	17.2	0.00e+00	0	57	0	241172480	51	4201
2026-01-05 00:33:24.83	27.67	28.27	-44.9	-45.9	17.0	0.00e+00	0	57	0	244318208	51	4321
2026-01-05 00:33:25.82	27.70	28.45	-44.9	-45.9	17.1	0.00e+00	0	57	0	247463936	51	4296
2026-01-05 00:33:26.80	27.73	28.62	-44.9	-45.9	17.0	0.00e+00	0	58	0	250609664	51	4293
2026-01-05 00:33:27.78	27.76	28.80	-44.9	-45.9	17.0	0.00e+00	0	57	0	253755392	51	4333
2026-01-05 00:33:28.77	27.79	28.98	-45.0	-46.0	16.9	0.00e+00	0	57	0	256901120	51	4365
2026-01-05 00:33:29.74	27.82	29.16	-45.2	-46.2	16.6	0.00e+00	0	57	0	260046848	52	4222
2026-01-05 00:33:30.74	27.86	29.34	-45.1	-46.2	16.7	0.00e+00	0	57	0	263192576	52	4194
2026-01-05 00:33:31.72	27.89	29.52	-44.8	-45.7	17.1	0.00e+00	0	57	0	266338304	52	4004
2026-01-05 00:33:32.70	27.92	29.71	-44.7	-45.7	17.1	0.00e+00	0	57	0	268435456	52	3964
2026-01-05 00:33:33.69	27.95	29.89	-44.7	-45.6	17.2	0.00e+00	0	57	0	271581184	52	3949
2026-01-05 00:33:34.68	27.99	30.08	-44.8	-45.7	17.1	0.00e+00	0	57	0	274726912	52	3991
2026-01-05 00:33:35.66	28.02	30.26	-44.9	-46.0	16.9	0.00e+00	0	57	0	277872640	52	4099
2026-01-05 00:33:36.65	28.05	30.45	-45.0	-46.0	16.9	0.00e+00	0	57	0	281018368	52	4106
2026-01-05 00:33:37.64	28.09	30.64	-44.7	-45.6	17.2	0.00e+00	0	57	0	284164096	52	3950
2026-01-05 00:33:38.62	28.12	30.83	-44.7	-45.6	17.2	0.00e+00	0	57	0	287309824	52	3957
2026-01-05 00:33:39.60	28.16	31.03	-44.5	-45.4	17.4	0.00e+00	0	57	0	290455552	52	3847
2026-01-05 00:33:40.58	28.19	31.22	-44.4	-45.4	17.5	0.00e+00	0	57	0	293601280	52	3833
2026-01-05 00:33:41.57	28.23	31.41	-44.4	-45.3	17.6	0.00e+00	0	57	0	296747008	51	4039
2026-01-05 00:33:42.57	28.26	31.61	-44.6	-45.5	17.4	0.00e+00	0	57	0	299892736	51	4119
2026-01-05 00:33:43.56	28.30	31.81	-44.5	-45.4	17.5	0.00e+00	0	57	0	303038464	51	4086
2026-01-05 00:33:44.54	28.33	32.01	-44.3	-45.2	17.7	0.00e+00	0	57	0	306184192	51	3960
2026-01-05 00:33:45.53	28.37	32.21	-44.0	-44.8	18.1	0.00e+00	0	57	0	309329920	51	3795
2026-01-05 00:33:46.52	28.41	32.41	-44.0	-44.8	18.1	0.00e+00	0	57	0	312475648	51	3800
2026-01-05 00:33:47.51	28.45	32.62	-43.8	-44.6	18.3	0.00e+00	0	57	0	314572800	50	3939
2026-01-05 00:33:48.51	28.48	32.82	-44.1	-45.0	18.0	0.00e+00	0	57	0	317718528	50	4107
2026-01-05 00:33:49.49	28.52	33.03	-44.2	-45.1	17.8	0.00e+00	0	57	0	320864256	50	4166
2026-01-05 00:33:50.49	28.56	33.24	-44.4	-45.2	17.7	0.00e+00	0	57	0	324009984	50	4239
2026-01-05 00:33:51.48	28.60	33.45	-44.5	-45.4	17.5	0.00e+00	0	57	0	327155712	50	4325
2026-01-05 00:33:52.46	28.64	33.66	-44.6	-45.6	17.4	0.00e+00	0	57	0	330301440	51	4146
2026-01-05 00:33:53.46	28.68	33.87	-44.9	-45.8	17.1	0.00e+00	0	57	0	333447168	51	4285
2026-01-05 00:33:54.45	28.72	34.09	-45.1	-46.0	16.9	0.00e+00	0	57	0	336592896	51	4382
2026-01-05 00:33:55.44	28.77	34.30	-45.0	-46.0	16.8	0.00e+00	0	57	0	339738624	52	4118
2026-01-05 00:33:56.42	28.81	34.52	-45.3	-46.3	16.5	0.00e+00	0	57	0	342884352	52	4271
2026-01-05 00:33:57.41	28.85	34.73	-45.5	-46.6	16.2	0.00e+00	0	57	0	346030080	53	4180
2026-01-05 00:33:58.40	28.89	34.95	-45.6	-46.8	16.1	0.00e+00	0	57	0	349175808	53	4266
2026-01-05 00:33:59.39	28.94	35.18	-45.8	-47.0	15.9	0.00e+00	0	57	0	352321536	53	4348
2026-01-05 00:34:00.38	28.98	35.40	-46.0	-47.2	15.7	0.00e+00	0	57	0	355467264	53	4460
2026-01-05 00:34:01.37	29.03	35.62	-46.1	-47.4	15.5	0.00e+00	0	57	0	358612992	54	4321
2026-01-05 00:34:02.36	29.07	35.85	-46.2	-47.5	15.4	0.00e+00	0	57	0	361758720	54	4370
2026-01-05 00:34:03.36	29.12	36.08	-46.0	-47.2	15.7	0.00e+00	0	57	0	364904448	54	4216
2026-01-05 00:34:04.34	29.16	36.31	-46.2	-47.6	15.3	0.00e+00	0	57	0	368050176	54	4398
2026-01-05 00:34:05.33	29.21	36.54	-46.6	-47.9	15.0	0.00e+00	0	57	0	371195904	55	4330
2026-01-05 00:34:06.33	29.26	36.77	-46.3	-47.5	15.4	0.00e+00	0	57	0	374341632	55	4135
2026-01-05 00:34:07.32	29.31	37.01	-46.0	-47.2	15.7	0.00e+00	0	57	0	376438784	55	3979
2026-01-05 00:34:08.31	29.35	37.24	-46.0	-47.2	15.7	0.00e+00	0	57	0	379584512	55	3975
2026-01-05 00:34:09.30	29.40	37.48	-46.0	-47.2	15.8	0.00e+00	0	57	0	382730240	55	3972
2026-01-05 00:34:10.29	29.45	37.72	-46.1	-47.3	15.6	0.00e+00	0	57	0	385875968	55	4047
2026-01-05 00:34:11.28	29.51	37.96	-46.1	-47.4	15.5	0.00e+00	0	57	0	389021696	55	4062
2026-01-05 00:34:12.27	29.56	38.20	-46.0	-47.2	15.8	0.00e+00	0	57	0	392167424	55	3980
2026-01-05 00:34:13.26	29.61	38.45	-46.0	-47.2	15.7	0.00e+00	0	57	0	395313152	55	3985
2026-01-05 00:34:14.24	29.66	38.69	-46.1	-47.3	15.6	0.00e+00	0	57	0	398458880	55	4038
2026-01-05 00:34:15.23	29.72	38.94	-46.2	-47.4	15.5	0.00e+00	0	57	0	401604608	55	4078
2026-01-05 00:34:16.22	29.77	39.19	-46.0	-47.2	15.7	0.00e+00	0	57	0	404750336	55	3979
2026-01-05 00:34:17.22	29.83	39.44	-46.0	-47.3	15.7	0.00e+00	0	57	0	407896064	54	4262
2026-01-05 00:34:18.20	29.88	39.69	-46.2	-47.5	15.4	0.00e+00	0	57	0	411041792	54	4372
2026-01-05 00:34:19.19	29.94	39.95	-45.9	-47.1	15.7	0.00e+00	0	57	0	414187520	54	4184
2026-01-05 00:34:20.17	30.00	40.20	-45.9	-47.1	15.8	0.00e+00	0	57	0	417333248	54	4184
2026-01-05 00:34:21.15	30.05	40.46	-46.1	-47.3	15.6	0.00e+00	0	57	0	420478976	54	4279
2026-01-05 00:34:22.14	30.11	40.72	-46.3	-47.6	15.4	0.00e+00	0	57	0	423624704	54	4416
2026-01-05 00:34:23.12	30.17	40.98	-46.7	-48.1	14.8	7.00e-07	0	57	0	426770432	55	4435
2026-01-05 00:34:24.11	30.23	41.24	-46.8	-48.3	14.7	0.00e+00	0	57	0	429916160	55	4499
2026-01-05 00:34:25.10	30.30	41.51	-47.3	-48.9	14.2	7.00e-07	0	57	0	433061888	56	4573
2026-01-05 00:34:26.09	30.36	41.78	-47.4	-49.0	14.1	2.20e-06	0	57	0	436207616	56	4647
2026-01-05 00:34:27.08	30.42	42.05	-47.7	-49.4	13.6	6.10e-06	0	57	0	438304768	57	4594
2026-01-05 00:34:28.07	30.49	42.32	-47.5	-49.2	13.8	1.06e-05	0	57	0	441450496	57	4479
2026-01-05 00:34:29.07	30.56	42.60	-47.4	-49.0	14.1	7.00e-07	0	57	0	444596224	57	4352
2026-01-05 00:34:30.05	30.62	42.87	-47.4	-49.0	14.1	3.00e-06	0	57	0	447741952	57	4362
2026-01-05 00:34:31.04	30.69	43.15	-47.5	-49.1	14.0	3.80e-06	0	57	0	450887680	57	4403
2026-01-05 00:34:32.03	30.76	43.43	-47.6	-49.2	13.8	3.00e-06	0	57	0	454033408	57	4480
2026-01-05 00:34:33.02	30.83	43.71	-47.4	-49.0	14.0	5.30e-06	0	57	0	457179136	57	4370
2026-01-05 00:34:34.02	30.90	44.00	-47.4	-49.1	13.9	7.00e-07	0	57	0	460324864	57	4407
2026-01-05 00:34:35.01	30.98	44.29	-47.6	-49.3	13.8	4.50e-06	0	57	0	463470592	57	4499
2026-01-05 00:34:36.00	31.05	44.57	-47.5	-49.2	13.8	3.00e-06	0	57	0	466616320	57	4475
2026-01-05 00:34:36.98	31.13	44.86	-47.6	-49.3	13.8	3.00e-06	0	57	0	469762048	57	4527
2026-01-05 00:34:37.96	31.20	45.15	-47.6	-49.4	13.7	6.80e-06	0	57	0	472907776	57	4565
2026-01-05 00:34:38.96	31.28	45.45	-47.6	-49.4	13.7	5.30e-06	0	57	0	476053504	57	4559
2026-01-05 00:34:39.94	31.36	45.74	-47.5	-49.3	13.9	4.50e-06	0	57	0	479199232	57	4496
2026-01-05 00:34:40.93	31.44	46.04	-47.4	-49.1	14.0	2.20e-06	0	57	0	482344960	57	4415
2026-01-05 00:34:41.93	31.53	46.35	-47.4	-49.1	14.0	4.50e-06	0	57	0	485490688	57	4420
2026-01-05 00:34:42.91	31.61	46.65	-47.4	-49.0	14.1	2.20e-06	0	57	0	488636416	57	4347
2026-01-05 00:34:43.90	31.69	46.95	-47.4	-49.0	14.1	6.80e-06	0	57	0	491782144	57	4364
2026-01-05 00:34:44.89	31.78	47.26	-47.5	-49.1	14.0	7.00e-07	0	57	0	494927872	57	4432
2026-01-05 00:34:45.88	31.87	47.57	-47.6	-49.3	13.8	3.80e-06	0	57	0	498073600	57	4518
2026-01-05 00:34:46.87	31.96	47.88	-47.2	-48.7	14.4	2.20e-06	0	57	0	501219328	57	4219
2026-01-05 00:34:47.86	32.05	48.20	-46.8	-48.2	14.9	0.00e+00	0	57	0	503316480	56	4231
2026-01-05 00:34:48.85	32.15	48.51	-45.8	-47.5	15.4	0.00e+00	0	57	0	506462208	55	4117
2026-01-05 00:34:49.84	32.24	48.83	-46.1	-47.4	15.6	0.00e+00	0	57	0	509607936	55	4062
2026-01-05 00:34:50.84	32.34	49.15	-46.1	-47.4	15.6	0.00e+00	0	57	0	512753664	55	4068
2026-01-05 00:34:51.83	32.44	49.48	-46.3	-47.6	15.4	0.00e+00	0	58	0	515899392	55	4169
2026-01-05 00:34:52.82	32.55	49.80	-46.0	-47.2	15.7	0.00e+00	0	57	0	519045120	55	3992
2026-01-05 00:34:53.82	32.65	50.13	-45.7	-46.9	16.1	0.00e+00	0	57	0	522190848	54	4071
2026-01-05 00:34:54.81	32.76	50.46	-45.7	-46.8	16.2	0.00e+00	0	57	0	525336576	54	4018
2026-01-05 00:34:55.81	32.87	50.80	-45.7	-46.8	16.2	0.00e+00	0	57	0	528482304	54	4042
2026-01-05 00:34:56.80	32.98	51.13	-45.6	-46.7	16.2	0.00e+00	0	57	0	531628032	54	3994
2026-01-05 00:34:57.79	33.09	51.47	-45.7	-46.8	16.2	0.00e+00	0	57	0	534773760	54	4015
2026-01-05 00:34:58.78	33.21	51.81	-45.8	-46.9	16.1	0.00e+00	0	57	0	537919488	54	4078
2026-01-05 00:34:59.77	33.33	52.15	-45.9	-47.1	15.9	0.00e+00	0	57	0	541065216	54	4153
2026-01-05 00:35:00.76	33.45	52.50	-45.9	-47.1	15.9	0.00e+00	0	57	0	544210944	54	4183
2026-01-05 00:35:01.74	33.57	52.84	-46.0	-47.1	15.9	0.00e+00	0	57	0	547356672	54	4175
2026-01-05 00:35:02.74	33.70	53.19	-46.2	-47.4	15.6	0.00e+00	0	57	0	550502400	54	4319
2026-01-05 00:35:03.72	33.83	53.54	-45.9	-47.1	15.9	0.00e+00	0	57	0	553648128	54	4188
2026-01-05 00:35:04.71	33.96	53.89	-45.6	-46.7	16.3	0.00e+00	0	57	0	556793856	54	3981
2026-01-05 00:35:05.70	34.10	54.25	-45.2	-46.3	16.6	0.00e+00	0	57	0	559939584	53	4017
2026-01-05 00:35:06.69	34.24	54.60	-44.8	-45.8	17.1	0.00e+00	0	57	0	563085312	52	4031
2026-01-05 00:35:07.68	34.38	54.96	-44.6	-45.6	17.4	0.00e+00	0	57	0	565182464	52	3915
2026-01-05 00:35:08.66	34.53	55.32	-44.6	-45.6	17.4	0.00e+00	0	57	0	568328192	52	3915
2026-01-05 00:35:09.65	34.68	55.69	-44.5	-45.4	17.6	0.00e+00	0	57	0	571473920	52	3834
2026-01-05 00:35:10.64	34.83	56.05	-44.6	-45.5	17.5	0.00e+00	0	57	0	574619648	52	3892
2026-01-05 00:35:11.63	34.99	56.42	-44.9	-45.8	17.1	0.00e+00	0	57	0	577765376	52	4051
2026-01-05 00:35:12.62	35.15	56.79	-45.1	-46.1	16.8	0.00e+00	0	57	0	580911104	52	4192
2026-01-05 00:35:13.60	35.32	57.16	-45.1	-46.2	16.8	0.00e+00	0	58	0	584056832	52	4208
2026-01-05 00:35:14.59	35.49	57.54	-44.8	-45.8	17.2	0.00e+00	0	57	0	587202560	52	4020
2026-01-05 00:35:15.57	35.66	57.91	-44.6	-45.6	17.4	0.00e+00	0	57	0	590348288	52	3931
2026-01-05 00:35:16.56	35.84	58.29	-44.6	-45.5	17.4	0.00e+00	0	57	0	593494016	52	3888
2026-01-05 00:35:17.54	36.03	58.67	-44.5	-45.3	17.6	0.00e+00	0	58	0	596639744	52	3821
2026-01-05 00:35:18.53	36.22	59.06	-44.2	-45.1	17.9	0.00e+00	0	57	0	599785472	51	3918
2026-01-05 00:35:19.52	36.42	59.44	-44.0	-44.8	18.1	0.00e+00	0	57	0	602931200	51	3801
2026-01-05 00:35:20.51	36.62	59.83	-43.8	-44.6	18.4	0.00e+00	0	58	0	606076928	50	3946
2026-01-05 00:35:21.51	36.83	60.23	-43.9	-44.6	18.4	0.00e+00	0	57	0	609222656	50	3956
2026-01-05 00:35:22.50	37.05	60.62	-43.9	-44.7	18.4	0.00e+00	0	57	0	612368384	50	3972
2026-01-05 00:35:23.49	37.27	61.02	-43.6	-44.4	18.7	0.00e+00	0	57	0	615514112	50	3829
2026-01-05 00:35:24.48	37.50	61.41	-43.5	-44.2	18.7	0.00e+00	0	57	0	618659840	50	3780
2026-01-05 00:35:25.48	37.74	61.82	-43.5	-44.2	18.8	0.00e+00	0	57	0	621805568	50	3761
2026-01-05 00:35:26.46	37.98	62.21	-43.3	-44.1	18.9	0.00e+00	0	57	0	623902720	49	3915
2026-01-05 00:35:27.45	38.23	62.62	-43.2	-43.9	19.1	0.00e+00	0	57	0	627048448	49	3837
2026-01-05 00:35:28.43	38.49	63.02	-43.1	-43.8	19.1	0.00e+00	0	58	0	630194176	49	3821
2026-01-05 00:35:29.42	38.76	63.43	-43.2	-43.9	19.0	0.00e+00	0	57	0	633339904	49	3849
2026-01-05 00:35:30.40	39.03	63.83	-43.3	-44.0	19.0	0.00e+00	0	57	0	636485632	49	3881
2026-01-05 00:35:31.39	39.32	64.24	-43.4	-44.1	18.8	0.00e+00	0	57	0	639631360	49	3956
2026-01-05 00:35:32.38	39.62	64.65	-43.4	-44.1	18.9	0.00e+00	0	57	0	642777088	49	3929
2026-01-05 00:35:33.38	39.93	65.07	-43.1	-43.7	19.2	0.00e+00	0	57	0	645922816	49	3778
2026-01-05 00:35:34.37	40.25	65.49	-43.5	-44.3	18.7	0.00e+00	0	57	0	649068544	49	4027
2026-01-05 00:35:35.35	40.58	65.90	-43.9	-44.7	18.3	0.00e+00	0	57	0	652214272	49	4240
2026-01-05 00:35:36.34	40.93	66.32	-44.0	-44.8	18.2	0.00e+00	0	57	0	655360000	49	4253
2026-01-05 00:35:37.33	41.29	66.74	-44.2	-45.1	17.9	0.00e+00	0	57	0	658505728	50	4165
2026-01-05 00:35:38.32	41.66	67.16	-44.0	-44.8	18.2	0.00e+00	0	57	0	661651456	50	4015
2026-01-05 00:35:39.30	42.05	67.58	-43.6	-44.3	18.6	0.00e+00	0	57	0	664797184	50	3818
2026-01-05 00:35:40.30	42.46	68.01	-43.4	-44.2	18.6	0.00e+00	0	57	0	667942912	50	3752
2026-01-05 00:35:41.28	42.88	68.43	-43.5	-44.2	18.6	0.00e+00	0	57	0	671088640	50	3777
2026-01-05 00:35:42.27	43.32	68.85	-43.3	-44.0	18.8	0.00e+00	0	57	0	673185792	49	3904
2026-01-05 00:35:43.26	43.78	69.28	-43.0	-43.8	19.0	0.00e+00	0	57	0	676331520	49	3781
2026-01-05 00:35:44.25	44.26	69.70	-42.8	-43.4	19.4	0.00e+00	0	57	0	679477248	48	3867
2026-01-05 00:35:45.23	44.76	70.13	-42.5	-43.1	19.7	0.00e+00	0	57	0	682622976	48	3731
2026-01-05 00:35:46.21	45.28	70.55	-42.6	-43.2	19.7	0.00e+00	0	57	0	685768704	48	3765
2026-01-05 00:35:47.21	45.83	70.98	-42.8	-43.4	19.5	0.00e+00	0	57	0	688914432	48	3861
2026-01-05 00:35:48.20	46.41	71.41	-43.3	-44.0	18.9	0.00e+00	0	57	0	692060160	48	4123
2026-01-05 00:35:49.19	47.02	71.84	-43.5	-44.2	18.7	0.00e+00	0	57	0	695205888	49	4003
2026-01-05 00:35:50.19	47.66	72.27	-43.3	-44.0	18.9	0.00e+00	0	57	0	698351616	49	3896
2026-01-05 00:35:51.17	48.33	72.70	-43.1	-43.8	19.1	0.00e+00	0	58	0	701497344	49	3792
2026-01-05 00:35:52.17	49.04	73.13	-43.0	-43.6	19.2	0.00e+00	0	57	0	704643072	49	3732
2026-01-05 00:35:53.16	49.79	73.55	-42.8	-43.5	19.4	0.00e+00	0	57	0	707788800	48	3888
2026-01-05 00:35:54.15	50.57	73.98	-42.8	-43.5	19.4	0.00e+00	0	57	0	710934528	48	3894
2026-01-05 00:35:55.14	51.40	74.40	-42.6	-43.3	19.6	0.00e+00	0	57	0	714080256	48	3784
2026-01-05 00:35:56.13	52.28	74.82	-43.0	-43.6	19.1	0.00e+00	0	57	0	717225984	48	3955
2026-01-05 00:35:57.12	53.21	75.24	-42.6	-43.2	19.2	0.00e+00	0	58	0	720371712	48	3776
2026-01-05 00:35:58.11	54.20	75.66	-42.5	-43.1	19.4	0.00e+00	0	57	0	723517440	48	3736
2026-01-05 00:35:59.10	55.25	76.07	-42.8	-43.5	19.3	0.00e+00	0	58	0	726663168	48	3905
2026-01-05 00:36:00.09	56.36	76.48	-43.1	-43.8	19.1	0.00e+00	0	57	0	729808896	48	4029
2026-01-05 00:36:01.09	57.56	76.89	-43.3	-44.1	18.9	0.00e+00	0	57	0	732954624	48	4160
2026-01-05 00:36:02.08	58.82	77.29	-43.2	-44.0	18.9	0.00e+00	0	57	0	736100352	48	4118
2026-01-05 00:36:03.06	60.15	77.68	-43.3	-44.0	18.9	0.00e+00	0	58	0	738197504	48	4130
2026-01-05 00:36:04.05	61.59	78.07	-43.3	-44.0	18.8	0.00e+00	0	57	0	741343232	48	4141
2026-01-05 00:36:05.04	63.12	78.45	-43.3	-44.0	18.8	0.00e+00	0	57	0	744488960	48	4138
2026-01-05 00:36:06.03	64.76	78.83	-43.5	-44.2	18.7	0.00e+00	0	58	0	747634688	48	4222
2026-01-05 00:36:07.02	66.51	79.20	-42.8	-43.4	19.4	0.00e+00	0	57	0	750780416	48	3856
2026-01-05 00:36:08.00	68.37	79.55	-42.1	-42.7	20.0	0.00e+00	0	57	0	753926144	47	3770
2026-01-05 00:36:08.98	70.36	79.89	-42.3	-42.9	19.7	0.00e+00	0	57	0	757071872	47	3838
2026-01-05 00:36:09.96	72.49	80.22	-43.0	-43.7	19.1	0.00e+00	0	57	0	760217600	47	4209
2026-01-05 00:36:10.95	74.79	80.54	-44.0	-44.8	18.2	0.00e+00	0	57	0	763363328	49	4260
2026-01-05 00:36:11.95	77.28	80.85	-44.0	-44.8	18.2	0.00e+00	0	57	0	766509056	49	4280
2026-01-05 00:36:12.94	79.90	81.13	-43.6	-44.4	18.6	0.00e+00	0	57	0	769654784	49	4076
2026-01-05 00:36:13.93	82.70	81.40	-43.4	-44.2	18.7	0.00e+00	0	57	0	772800512	49	3973
2026-01-05 00:36:14.91	85.64	81.64	-43.3	-44.1	18.8	0.00e+00	0	57	0	775946240	49	3925
2026-01-05 00:36:15.90	88.78	81.87	-42.8	-43.4	19.4	0.00e+00	0	58	0	779091968	48	3848
2026-01-05 00:36:16.89	92.10	82.06	-42.7	-43.3	19.5	0.00e+00	0	58	0	782237696	48	3814
2026-01-05 00:36:17.88	95.57	82.24	-42.8	-43.5	19.4	0.00e+00	0	57	0	785383424	48	3884
2026-01-05 00:36:18.86	99.14	82.38	-42.8	-43.4	19.5	0.00e+00	0	57	0	788529152	48	3849
2026-01-05 00:36:19.85	102.88	82.49	-42.8	-43.4	19.4	0.00e+00	0	57	0	791674880	48	3843
2026-01-05 00:36:20.84	106.71	82.56	-43.2	-43.9	19.0	0.00e+00	0	57	0	793772032	48	4055
2026-01-05 00:36:21.83	110.61	82.61	-43.9	-44.7	18.3	0.00e+00	0	57	0	796917760	49	4210
2026-01-05 00:36:22.82	114.53	82.62	-43.9	-44.7	18.3	0.00e+00	0	57	0	800063488	49	4212
2026-01-05 00:36:23.82	118.49	82.59	-44.5	-45.3	17.7	0.00e+00	0	57	0	803209216	50	4276
2026-01-05 00:36:24.81	122.36	82.54	-45.0	-46.0	17.0	0.00e+00	0	57	0	806354944	51	4373
2026-01-05 00:36:25.80	126.16	82.45	-44.6	-45.6	17.4	0.00e+00	0	57	0	809500672	52	3929
2026-01-05 00:36:26.79	129.85	82.32	-43.8	-44.7	18.4	0.00e+00	0	57	0	812646400	50	3960
2026-01-05 00:36:27.78	133.41	82.17	-43.6	-44.4	18.6	0.00e+00	0	57	0	815792128	50	3833
2026-01-05 00:36:28.76	136.79	81.99	-43.2	-43.9	19.0	0.00e+00	0	57	0	818937856	49	3839
2026-01-05 00:36:29.74	140.00	81.78	-42.7	-43.3	19.5	0.00e+00	0	57	0	822083584	48	3818
2026-01-05 00:36:30.72	143.05	81.55	-42.7	-43.3	19.5	0.00e+00	0	57	0	825229312	48	3819
2026-01-05 00:36:31.72	145.98	81.30	-43.3	-44.0	19.0	0.00e+00	0	57	0	828375040	48	4116
2026-01-05 00:36:32.71	148.71	81.02	-43.3	-44.0	18.9	0.00e+00	0	58	0	831520768	48	4137
2026-01-05 00:36:33.70	151.27	80.73	-43.1	-43.8	19.2	0.00e+00	0	57	0	834666496	48	4020
2026-01-05 00:36:34.68	153.65	80.42	-43.5	-44.2	18.7	0.00e+00	0	57	0	837812224	48	4217
2026-01-05 00:36:35.68	155.91	80.09	-43.8	-44.6	18.3	0.00e+00	0	57	0	840957952	49	4186
2026-01-05 00:36:36.66	157.98	79.76	-43.9	-44.7	18.3	0.00e+00	0	57	0	844103680	49	4214
2026-01-05 00:36:37.65	159.94	79.41	-43.9	-44.7	18.3	0.00e+00	0	57	0	847249408	49	4227
2026-01-05 00:36:38.65	161.79	79.04	-44.0	-44.8	18.1	0.00e+00	0	57	0	850395136	49	4276
2026-01-05 00:36:39.64	163.49	78.67	-43.8	-44.6	18.2	0.00e+00	0	57	0	853540864	49	4177
2026-01-05 00:36:40.63	165.09	78.29	-43.2	-43.9	19.1	0.00e+00	0	58	0	856686592	49	3835
2026-01-05 00:36:41.62	166.58	77.91	-42.8	-43.5	19.4	0.00e+00	0	57	0	858783744	48	3882
2026-01-05 00:36:42.62	167.99	77.51	-43.7	-44.5	18.5	0.00e+00	0	57	0	861929472	49	4111
2026-01-05 00:36:43.61	169.30	77.11	-44.0	-44.9	18.1	0.00e+00	0	57	0	865075200	49	4292
2026-01-05 00:36:44.60	170.53	76.71	-43.3	-44.0	18.9	0.00e+00	0	58	0	868220928	49	3892
2026-01-05 00:36:45.59	171.68	76.30	-43.0	-43.6	19.3	0.00e+00	0	57	0	871366656	48	3956
2026-01-05 00:36:46.58	172.77	75.89	-43.0	-43.6	19.3	0.00e+00	0	57	0	874512384	48	3955
2026-01-05 00:36:47.57	173.79	75.47	-42.7	-43.4	19.5	0.00e+00	0	58	0	877658112	48	3845
2026-01-05 00:36:48.56	174.75	75.06	-42.5	-43.1	19.7	0.00e+00	0	58	0	880803840	48	3703
2026-01-05 00:36:49.54	175.65	74.64	-43.1	-43.7	19.2	0.00e+00	0	58	0	883949568	48	4003
2026-01-05 00:36:50.52	176.50	74.22	-43.7	-44.5	18.4	0.00e+00	0	57	0	887095296	49	4138
2026-01-05 00:36:51.52	177.32	73.79	-43.2	-44.0	18.9	0.00e+00	0	57	0	890241024	49	3870
2026-01-05 00:36:52.51	178.09	73.37	-42.8	-43.5	19.4	0.00e+00	0	58	0	893386752	48	3878
2026-01-05 00:36:53.49	178.81	72.95	-43.0	-43.7	19.2	0.00e+00	0	57	0	896532480	48	3988
2026-01-05 00:36:54.48	179.50	72.52	-43.1	-43.8	19.0	0.00e+00	0	57	0	899678208	48	4049
2026-01-05 00:36:55.47	180.16	72.09	-43.2	-43.9	19.0	0.00e+00	0	58	0	902823936	48	4058
2026-01-05 00:36:56.46	180.79	71.66	-43.4	-44.2	18.7	0.00e+00	0	57	0	905969664	48	4208
2026-01-05 00:36:57.46	181.39	71.23	-43.6	-44.4	18.5	0.00e+00	0	57	0	909115392	49	4088
2026-01-05 00:36:58.44	181.95	70.80	-43.1	-43.9	18.8	0.00e+00	0	57	0	912261120	49	3839
2026-01-05 00:36:59.44	182.50	70.37	-42.4	-43.0	19.6	0.00e+00	0	57	0	915406848	48	3694
2026-01-05 00:37:00.43	183.01	69.94	-42.0	-42.7	20.0	0.00e+00	0	57	0	918552576	47	3739
2026-01-05 00:37:01.42	183.51	69.51	-42.5	-43.2	19.5	0.00e+00	0	57	0	920649728	47	3983
2026-01-05 00:37:02.41	183.98	69.09	-43.6	-44.4	18.5	0.00e+00	0	57	0	923795456	49	4093
2026-01-05 00:37:03.40	184.43	68.66	-44.4	-45.3	17.8	0.00e+00	0	57	0	926941184	50	4270
2026-01-05 00:37:04.39	184.86	68.23	-44.2	-45.0	18.0	0.00e+00	0	57	0	930086912	50	4137
2026-01-05 00:37:05.38	185.28	67.81	-43.9	-44.7	18.3	0.00e+00	0	57	0	933232640	50	3987
2026-01-05 00:37:06.38	185.68	67.38	-43.2	-43.9	19.0	0.00e+00	0	57	0	936378368	49	3856
2026-01-05 00:37:07.36	186.06	66.96	-43.3	-44.0	18.9	0.00e+00	0	58	0	939524096	49	3888
2026-01-05 00:37:08.35	186.43	66.54	-43.6	-44.4	18.4	0.00e+00	0	58	0	942669824	49	4056
2026-01-05 00:37:09.34	186.78	66.12	-43.6	-44.3	18.1	0.00e+00	0	57	0	945815552	49	4034
2026-01-05 00:37:10.34	187.13	65.70	-44.3	-45.2	17.4	0.00e+00	0	57	0	948961280	50	4203
2026-01-05 00:37:11.33	187.45	65.28	-44.8	-45.8	17.1	0.00e+00	0	58	0	952107008	51	4249
2026-01-05 00:37:12.32	187.77	64.87	-44.5	-45.4	17.5	0.00e+00	0	57	0	955252736	51	4067
2026-01-05 00:37:13.31	188.07	64.45	-43.8	-44.5	18.4	0.00e+00	0	57	0	958398464	50	3911
2026-01-05 00:37:14.30	188.37	64.04	-43.5	-44.2	18.7	0.00e+00	0	57	0	961544192	50	3773
2026-01-05 00:37:15.29	188.65	63.63	-43.8	-44.5	18.4	0.00e+00	0	58	0	964689920	50	3902
2026-01-05 00:37:16.28	188.93	63.22	-43.7	-44.5	18.5	0.00e+00	0	58	0	967835648	50	3874
2026-01-05 00:37:17.27	189.19	62.81	-44.3	-45.2	17.6	0.00e+00	0	57	0	970981376	50	4228
2026-01-05 00:37:18.26	189.45	62.41	-45.4	-46.5	16.2	0.00e+00	0	57	0	974127104	52	4377
2026-01-05 00:37:19.25	189.70	62.00	-46.1	-47.4	15.4	0.00e+00	0	57	0	977272832	54	4305
2026-01-05 00:37:20.24	189.94	61.60	-46.2	-47.5	15.5	0.00e+00	0	58	0	980418560	54	4351
2026-01-05 00:37:21.24	190.17	61.20	-44.7	-45.7	17.0	0.00e+00	0	57	0	983564288	52	3970
2026-01-05 00:37:22.23	190.40	60.80	-44.3	-45.1	17.6	0.00e+00	0	57	0	985661440	51	3950
2026-01-05 00:37:23.22	190.62	60.41	-44.3	-45.2	17.8	0.00e+00	0	58	0	988807168	51	3974
2026-01-05 00:37:24.22	190.83	60.01	-44.4	-45.3	17.7	0.00e+00	0	57	0	991952896	51	4036
2026-01-05 00:37:25.21	191.04	59.62	-44.3	-45.2	17.8	0.00e+00	0	57	0	995098624	51	3972
2026-01-05 00:37:26.20	191.24	59.23	-44.0	-44.9	18.1	0.00e+00	0	57	0	998244352	51	3827
2026-01-05 00:37:27.18	191.43	58.85	-43.9	-44.7	18.3	0.00e+00	0	57	0	1001390080	50	3966
2026-01-05 00:37:28.16	191.62	58.47	-44.0	-44.8	18.1	0.00e+00	0	57	0	1004535808	50	4047
2026-01-05 00:37:29.15	191.80	58.08	-44.3	-45.2	17.7	0.00e+00	0	57	0	1007681536	50	4217
2026-01-05 00:37:30.14	191.98	57.70	-44.2	-45.1	17.5	0.00e+00	0	57	0	1010827264	50	4161
2026-01-05 00:37:31.13	192.15	57.33	-44.0	-44.8	17.9	0.00e+00	0	58	0	1013972992	50	4017
2026-01-05 00:37:32.12	192.32	56.95	-43.7	-44.5	18.4	0.00e+00	0	57	0	1017118720	50	3890
2026-01-05 00:37:33.11	192.48	56.58	-44.0	-44.8	18.1	0.00e+00	0	57	0	1020264448	50	4050
2026-01-05 00:37:34.09	192.64	56.21	-43.8	-44.6	18.1	0.00e+00	0	57	0	1023410176	50	3950
2026-01-05 00:37:35.08	192.80	55.84	-44.1	-45.0	17.8	0.00e+00	0	57	0	1026555904	50	4116
2026-01-05 00:37:36.07	192.95	55.48	-45.0	-45.9	17.0	0.00e+00	0	57	0	1029701632	51	4336
2026-01-05 00:37:37.06	193.10	55.11	-45.1	-46.1	16.7	0.00e+00	0	58	0	1032847360	52	4186
2026-01-05 00:37:38.05	193.25	54.75	-45.8	-46.9	16.0	0.00e+00	0	57	0	1035993088	53	4315
2026-01-05 00:37:39.04	193.39	54.39	-45.7	-46.8	16.2	0.00e+00	0	57	0	1039138816	53	4260
2026-01-05 00:37:40.02	193.52	54.04	-45.9	-47.1	15.9	0.00e+00	0	57	0	1042284544	53	4417
2026-01-05 00:37:41.00	193.66	53.68	-45.7	-46.9	16.1	0.00e+00	0	57	0	1044381696	53	4316
2026-01-05 00:37:41.99	193.79	53.33	-45.9	-47.1	15.9	0.00e+00	0	58	0	1047527424	53	4413
2026-01-05 00:37:42.98	193.92	52.98	-45.2	-46.3	16.6	0.00e+00	0	57	0	1050673152	53	4011
2026-01-05 00:37:43.97	194.04	52.63	-45.1	-46.1	16.8	0.00e+00	0	57	0	1053818880	53	3952
2026-01-05 00:37:44.96	194.17	52.29	-45.5	-46.5	16.4	0.00e+00	0	57	0	1056964608	53	4128
2026-01-05 00:37:45.94	194.28	51.95	-46.0	-47.2	15.7	0.00e+00	0	57	0	1060110336	53	4486
2026-01-05 00:37:46.93	194.40	51.61	-46.8	-48.2	14.8	0.00e+00	0	57	0	1063256064	55	4459
2026-01-05 00:37:47.92	194.52	51.27	-47.8	-49.6	13.5	3.00e-06	0	58	0	1066401792	57	4654
2026-01-05 00:37:48.92	194.63	50.93	-47.6	-49.3	13.8	6.10e-06	0	57	0	1069547520	57	4500
2026-01-05 00:37:49.91	194.74	50.59	-46.8	-48.2	14.8	0.00e+00	0	57	0	1072693248	56	4234
2026-01-05 00:37:50.90	194.85	50.26	-46.1	-47.3	15.6	0.00e+00	0	57	0	1075838976	55	4030
2026-01-05 00:37:51.89	194.95	49.93	-45.9	-47.0	15.9	0.00e+00	0	57	0	1078984704	54	4136
2026-01-05 00:37:52.88	195.06	49.60	-46.4	-47.6	15.3	0.00e+00	0	57	0	1082130432	54	4433
2026-01-05 00:37:53.87	195.16	49.28	-46.5	-47.9	15.0	0.00e+00	0	58	0	1085276160	54	4578
2026-01-05 00:37:54.86	195.26	48.95	-46.7	-48.0	14.9	0.00e+00	0	57	0	1088421888	55	4390
2026-01-05 00:37:55.85	195.35	48.63	-46.4	-47.8	15.2	0.00e+00	0	58	0	1091567616	55	4245
2026-01-05 00:37:56.84	195.45	48.32	-46.2	-47.4	15.6	0.00e+00	0	58	0	1094713344	55	4066
2026-01-05 00:37:57.82	195.54	48.00	-45.7	-46.8	16.1	0.00e+00	0	57	0	1097859072	54	4039
2026-01-05 00:37:58.81	195.63	47.69	-45.5	-46.6	16.3	0.00e+00	0	57	0	1099956224	54	3922
2026-01-05 00:37:59.81	195.72	47.37	-46.0	-47.2	15.7	0.00e+00	0	57	0	1103101952	54	4209
2026-01-05 00:38:00.79	195.81	47.07	-46.5	-47.8	15.1	0.00e+00	0	57	0	1106247680	54	4543
2026-01-05 00:38:01.78	195.90	46.76	-47.5	-49.1	14.0	2.20e-06	0	57	0	1109393408	56	4663
2026-01-05 00:38:02.77	195.98	46.45	-48.0	-49.8	13.3	5.30e-06	0	57	0	1112539136	57	4788
2026-01-05 00:38:03.76	196.07	46.15	-48.2	-50.2	12.9	3.58e-05	0	57	0	1115684864	58	4722
2026-01-05 00:38:04.75	196.15	45.85	-48.0	-49.8	13.2	3.35e-05	0	57	0	1118830592	58	4540
2026-01-05 00:38:05.73	196.23	45.55	-47.4	-48.9	14.1	3.80e-06	0	57	0	1121976320	57	4317
2026-01-05 00:38:06.72	196.31	45.26	-46.9	-48.2	14.8	7.00e-07	0	58	0	1125122048	56	4234
2026-01-05 00:38:07.71	196.38	44.96	-46.8	-48.2	14.8	0.00e+00	0	58	0	1128267776	56	4221
2026-01-05 00:38:08.70	196.46	44.67	-47.3	-48.8	14.2	7.00e-07	0	58	0	1131413504	56	4532
2026-01-05 00:38:09.69	196.54	44.38	-48.1	-49.9	13.1	2.21e-05	0	57	0	1134559232	58	4596
2026-01-05 00:38:10.67	196.61	44.10	-48.3	-50.3	12.6	1.04e-04	0	57	0	1137704960	58	4790
2026-01-05 00:38:11.66	196.68	43.81	-48.7	-50.8	12.0	1.77e-04	0	58	0	1140850688	59	4808
2026-01-05 00:38:12.65	196.75	43.52	-48.6	-50.8	12.0	3.84e-04	0	57	0	1143996416	59	4794
2026-01-05 00:38:13.63	196.82	43.25	-48.3	-50.3	12.5	1.37e-04	0	57	0	1147142144	59	4521
2026-01-05 00:38:14.62	196.89	42.97	-47.9	-49.6	13.3	3.66e-05	0	57	0	1149239296	58	4441
2026-01-05 00:38:15.61	196.96	42.69	-47.2	-48.8	14.2	4.50e-06	0	57	0	1152385024	57	4257
2026-01-05 00:38:16.59	197.02	42.41	-46.6	-47.9	15.0	7.00e-07	0	57	0	1155530752	56	4091
2026-01-05 00:38:17.58	197.09	42.14	-46.3	-47.5	15.3	0.00e+00	0	57	0	1158676480	55	4130
2026-01-05 00:38:18.58	197.15	41.87	-46.5	-47.8	15.1	0.00e+00	0	57	0	1161822208	55	4261
2026-01-05 00:38:19.56	197.22	41.60	-46.7	-48.1	14.8	0.00e+00	0	58	0	1164967936	55	4393
2026-01-05 00:38:20.55	197.28	41.33	-46.8	-48.2	14.6	0.00e+00	0	57	0	1168113664	55	4471
2026-01-05 00:38:21.54	197.34	41.06	-46.9	-48.3	14.4	0.00e+00	0	57	0	1171259392	55	4543
2026-01-05 00:38:22.53	197.40	40.80	-47.2	-48.8	14.2	0.00e+00	0	57	0	1174405120	56	4515
2026-01-05 00:38:23.52	197.46	40.54	-47.3	-48.9	14.1	1.50e-06	0	57	0	1177550848	56	4550
2026-01-05 00:38:24.51	197.52	40.28	-47.1	-48.7	14.3	7.00e-07	0	57	0	1180696576	56	4450
2026-01-05 00:38:25.49	197.58	40.02	-46.7	-48.1	14.9	7.00e-07	0	57	0	1183842304	56	4172
2026-01-05 00:38:26.48	197.64	39.76	-46.5	-47.8	15.3	0.00e+00	0	57	0	1186988032	56	4008
2026-01-05 00:38:27.46	197.69	39.51	-46.3	-47.6	15.3	0.00e+00	0	57	0	1190133760	55	4175
2026-01-05 00:38:28.44	197.75	39.26	-46.4	-47.7	15.2	0.00e+00	0	57	0	1193279488	55	4241
2026-01-05 00:38:29.41	197.80	39.01	-46.5	-47.8	15.1	7.00e-07	0	57	0	1196425216	55	4263
2026-01-05 00:38:30.40	197.85	38.76	-46.6	-47.9	15.1	0.00e+00	0	58	0	1199570944	55	4317
2026-01-05 00:38:31.39	197.91	38.52	-46.4	-47.8	15.2	0.00e+00	0	57	0	1202716672	55	4246
2026-01-05 00:38:32.38	197.96	38.27	-46.1	-47.3	15.7	0.00e+00	0	57	0	1205862400	55	4019
2026-01-05 00:38:33.37	198.01	38.03	-45.7	-46.8	16.1	0.00e+00	0	57	0	1209008128	54	4035
2026-01-05 00:38:34.36	198.06	37.78	-45.7	-46.8	16.1	0.00e+00	0	57	0	1211105280	54	4051
2026-01-05 00:38:35.34	198.11	37.54	-45.7	-46.8	16.0	0.00e+00	0	57	0	1214251008	54	4036
2026-01-05 00:38:36.33	198.16	37.31	-45.3	-46.4	16.5	0.00e+00	0	57	0	1217396736	53	4061
2026-01-05 00:38:37.32	198.21	37.07	-45.1	-46.1	16.8	0.00e+00	0	57	0	1220542464	53	3927
2026-01-05 00:38:38.31	198.26	36.83	-45.1	-46.1	16.8	0.00e+00	0	57	0	1223688192	53	3935
2026-01-05 00:38:39.29	198.31	36.60	-45.0	-46.0	16.8	0.00e+00	0	57	0	1226833920	53	3912
2026-01-05 00:38:40.28	198.35	36.37	-44.9	-45.8	17.0	0.00e+00	0	57	0	1229979648	52	4034
2026-01-05 00:38:41.26	198.40	36.14	-45.0	-46.0	16.9	0.00e+00	0	57	0	1233125376	52	4125
2026-01-05 00:38:42.24	198.45	35.91	-45.4	-46.5	16.4	0.00e+00	0	57	0	1236271104	52	4358
2026-01-05 00:38:43.23	198.49	35.68	-45.6	-46.7	16.2	0.00e+00	0	57	0	1239416832	53	4225
2026-01-05 00:38:44.22	198.54	35.46	-45.5	-46.6	16.3	0.00e+00	0	57	0	1242562560	53	4147
2026-01-05 00:38:45.21	198.58	35.23	-45.4	-46.5	16.4	0.00e+00	0	57	0	1245708288	53	4118
2026-01-05 00:38:46.21	198.62	35.01	-45.6	-46.7	16.3	0.00e+00	0	57	0	1248854016	53	4194
2026-01-05 00:38:47.19	198.67	34.79	-45.9	-47.1	15.9	0.00e+00	0	57	0	1251999744	53	4393
2026-01-05 00:38:48.18	198.71	34.57	-45.8	-46.9	16.0	0.00e+00	0	57	0	1255145472	53	4318
2026-01-05 00:38:49.17	198.75	34.35	-46.0	-47.2	15.7	0.00e+00	0	57	0	1258291200	53	4456
2026-01-05 00:38:50.15	198.79	34.14	-45.8	-47.0	15.9	0.00e+00	0	57	0	1260388352	53	4376
2026-01-05 00:38:51.13	198.83	33.92	-45.6	-46.8	16.1	0.00e+00	0	57	0	1263534080	53	4251
2026-01-05 00:38:52.12	198.87	33.71	-45.6	-46.7	16.2	0.00e+00	0	57	0	1266679808	53	4211
2026-01-05 00:38:53.10	198.91	33.50	-45.5	-46.6	16.3	0.00e+00	0	58	0	1269825536	53	4178
2026-01-05 00:38:54.10	198.95	33.29	-45.5	-46.6	16.2	0.00e+00	0	57	0	1272971264	53	4175
2026-01-05 00:38:55.09	198.99	33.08	-45.5	-46.7	16.2	0.00e+00	0	58	0	1276116992	53	4198
2026-01-05 00:38:56.08	199.03	32.87	-45.6	-46.7	16.2	0.00e+00	0	57	0	1279262720	53	4196
2026-01-05 00:38:57.06	199.07	32.66	-45.8	-46.9	16.0	0.00e+00	0	57	0	1282408448	53	4329
2026-01-05 00:38:58.05	199.11	32.46	-45.4	-46.5	16.4	0.00e+00	0	57	0	1285554176	53	4128
2026-01-05 00:38:59.05	199.15	32.25	-45.2	-46.2	16.7	0.00e+00	0	57	0	1288699904	53	3995
2026-01-05 00:39:00.03	199.18	32.05	-44.9	-45.9	16.9	0.00e+00	0	57	0	1291845632	53	3866
2026-01-05 00:39:01.02	199.22	31.85	-44.8	-45.8	17.1	0.00e+00	0	57	0	1294991360	52	4017
2026-01-05 00:39:02.02	199.26	31.65	-44.8	-45.7	17.2	0.00e+00	0	57	0	1298137088	52	3979
2026-01-05 00:39:03.00	199.29	31.45	-44.6	-45.6	17.2	0.00e+00	0	57	0	1301282816	52	3923
2026-01-05 00:39:03.99	199.33	31.26	-45.1	-46.2	16.7	0.00e+00	0	57	0	1304428544	52	4195
2026-01-05 00:39:04.98	199.36	31.06	-44.9	-45.9	16.9	0.00e+00	0	57	0	1307574272	52	4086
2026-01-05 00:39:05.97	199.40	30.87	-44.8	-45.8	17.1	0.00e+00	0	57	0	1310720000	52	4019
2026-01-05 00:39:06.96	199.43	30.67	-44.8	-45.8	17.0	0.00e+00	0	57	0	1313865728	52	4048
2026-01-05 00:39:07.96	199.46	30.48	-45.0	-46.1	16.8	0.00e+00	0	57	0	1315962880	52	4148
2026-01-05 00:39:08.95	199.50	30.29	-45.0	-46.1	16.8	0.00e+00	0	57	0	1319108608	52	4155
2026-01-05 00:39:09.94	199.53	30.10	-45.0	-46.0	16.9	0.00e+00	0	57	0	1322254336	52	4117
2026-01-05 00:39:10.93	199.56	29.91	-45.0	-46.1	16.8	0.00e+00	0	57	0	1325400064	52	4154
2026-01-05 00:39:11.91	199.60	29.72	-45.1	-46.2	16.7	0.00e+00	0	57	0	1328545792	52	4210
2026-01-05 00:39:12.89	199.63	29.54	-45.0	-46.0	16.8	0.00e+00	0	57	0	1331691520	52	4137
2026-01-05 00:39:13.89	199.66	29.35	-44.9	-45.9	17.0	0.00e+00	0	57	0	1334837248	52	4053
2026-01-05 00:39:14.88	199.69	29.17	-44.8	-45.8	17.0	0.00e+00	0	57	0	1337982976	52	4029
2026-01-05 00:39:15.86	199.72	28.99	-44.8	-45.8	17.0	0.00e+00	0	57	0	1341128704	52	4041
2026-01-05 00:39:16.86	199.75	28.81	-44.9	-45.9	16.9	0.00e+00	0	57	0	1344274432	52	4067
2026-01-05 00:39:17.84	199.78	28.63	-44.9	-45.9	16.9	0.00e+00	0	57	0	1347420160	52	4060
2026-01-05 00:39:18.83	199.81	28.45	-45.1	-46.1	16.7	0.00e+00	0	57	0	1350565888	52	4187
2026-01-05 00:39:19.81	199.84	28.27	-45.0	-46.0	16.8	0.00e+00	0	57	0	1353711616	52	4121
2026-01-05 00:39:20.81	199.87	28.10	-45.0	-46.1	16.7	0.00e+00	0	57	0	1356857344	52	4163
2026-01-05 00:39:21.79	199.90	27.92	-45.1	-46.2	16.6	0.00e+00	0	57	0	1360003072	52	4204
2026-01-05 00:39:22.79	199.93	27.75	-44.9	-45.9	16.9	0.00e+00	0	57	0	1363148800	52	4057
2026-01-05 00:39:23.78	199.96	27.57	-44.7	-45.6	17.1	0.00e+00	0	57	0	1366294528	52	3955
2026-01-05 00:39:24.77	199.99	27.40	-44.5	-45.4	17.4	0.00e+00	0	57	0	1369440256	52	3862
2026-01-05 00:39:25.76	200.02	27.23	-44.6	-45.6	17.2	0.00e+00	0	57	0	1372585984	52	3923
2026-01-05 00:39:26.76	200.05	27.06	-44.4	-45.3	17.4	0.00e+00	0	57	0	1375731712	52	3818
2026-01-05 00:39:27.75	200.08	26.89	-44.2	-45.1	17.7	0.00e+00	0	58	0	1378877440	51	3946
2026-01-05 00:39:28.73	200.10	26.72	-44.0	-44.9	18.0	0.00e+00	0	57	0	1380974592	51	3833
2026-01-05 00:39:29.72	200.13	26.55	-44.0	-44.9	18.0	0.00e+00	0	57	0	1384120320	51	3831
2026-01-05 00:39:30.71	200.16	26.39	-44.1	-44.9	17.9	0.00e+00	0	57	0	1387266048	51	3858
2026-01-05 00:39:31.69	200.18	26.23	-43.9	-44.7	18.1	0.00e+00	0	57	0	1390411776	50	3985
2026-01-05 00:39:32.68	200.21	26.06	-43.7	-44.5	18.4	0.00e+00	0	57	0	1393557504	50	3876
2026-01-05 00:39:33.67	200.24	25.90	-43.6	-44.4	18.4	0.00e+00	0	57	0	1396703232	50	3851
2026-01-05 00:39:34.66	200.26	25.74	-43.6	-44.4	18.5	0.00e+00	0	57	0	1399848960	50	3827
2026-01-05 00:39:35.65	200.29	25.58	-43.6	-44.4	18.5	0.00e+00	0	57	0	1402994688	50	3831
2026-01-05 00:39:36.65	200.32	25.41	-43.6	-44.4	18.4	0.00e+00	0	57	0	1406140416	50	3854
2026-01-05 00:39:37.64	200.34	25.26	-43.7	-44.5	18.3	0.00e+00	0	57	0	1409286144	50	3878
2026-01-05 00:39:38.63	200.37	25.10	-43.8	-44.6	18.2	0.00e+00	0	57	0	1412431872	50	3958
2026-01-05 00:39:39.62	200.39	24.94	-43.9	-44.7	18.1	0.00e+00	0	58	0	1415577600	50	3977
2026-01-05 00:39:40.61	200.42	24.78	-44.0	-44.8	18.1	0.00e+00	0	57	0	1418723328	50	4028
2026-01-05 00:39:41.60	200.44	24.63	-44.0	-44.9	18.0	0.00e+00	0	57	0	1421869056	50	4054
2026-01-05 00:39:42.59	200.47	24.47	-44.1	-44.9	17.9	0.00e+00	0	57	0	1425014784	50	4082
2026-01-05 00:39:43.58	200.49	24.32	-44.1	-45.0	17.9	0.00e+00	0	57	0	1428160512	50	4110
2026-01-05 00:39:44.57	200.51	24.17	-44.2	-45.1	17.7	0.00e+00	0	57	0	1431306240	50	4169
2026-01-05 00:39:45.57	200.54	24.01	-44.4	-45.3	17.6	0.00e+00	0	57	0	1434451968	50	4248
2026-01-05 00:39:46.56	200.56	23.86	-44.3	-45.2	17.6	0.00e+00	0	57	0	1437597696	50	4224
2026-01-05 00:39:47.55	200.58	23.71	-44.1	-44.9	17.9	0.00e+00	0	57	0	1440743424	50	4089
2026-01-05 00:39:48.54	200.61	23.56	-44.0	-44.9	18.0	0.00e+00	0	57	0	1442840576	50	4063
2026-01-05 00:39:49.53	200.63	23.42	-44.1	-44.9	17.9	0.00e+00	0	57	0	1445986304	50	4083
2026-01-05 00:39:50.52	200.65	23.27	-44.2	-45.1	17.8	0.00e+00	0	57	0	1449132032	50	4151
2026-01-05 00:39:51.51	200.68	23.12	-44.3	-45.2	17.7	0.00e+00	0	57	0	1452277760	50	4210
2026-01-05 00:39:52.50	200.70	22.98	-44.1	-45.0	17.9	0.00e+00	0	57	0	1455423488	50	4102
2026-01-05 00:39:53.48	200.72	22.83	-44.0	-44.8	18.0	0.00e+00	0	57	0	1458569216	50	4051
2026-01-05 00:39:54.47	200.74	22.69	-44.1	-44.9	17.9	0.00e+00	0	57	0	1461714944	50	4096
2026-01-05 00:39:55.47	200.77	22.54	-44.2	-45.1	17.7	0.00e+00	0	57	0	1464860672	50	4160
2026-01-05 00:39:56.46	200.79	22.40	-44.3	-45.2	17.6	0.00e+00	0	57	0	1468006400	50	4226
2026-01-05 00:39:57.44	200.81	22.26	-44.4	-45.3	17.6	0.00e+00	0	57	0	1471152128	50	4255
2026-01-05 00:39:58.44	200.83	22.12	-44.4	-45.4	17.5	0.00e+00	0	57	0	1474297856	50	4295
2026-01-05 00:39:59.43	200.85	21.98	-44.3	-45.2	17.6	0.00e+00	0	57	0	1477443584	50	4217
2026-01-05 00:40:00.42	200.87	21.84	-44.3	-45.1	17.7	0.00e+00	0	57	0	1480589312	50	4193
2026-01-05 00:40:01.40	200.89	21.70	-44.3	-45.2	17.6	0.00e+00	0	58	0	1483735040	50	4220
2026-01-05 00:40:02.40	200.92	21.56	-44.3	-45.2	17.6	0.00e+00	0	57	0	1486880768	50	4208
2026-01-05 00:40:03.39	200.94	21.42	-44.4	-45.3	17.5	0.00e+00	0	57	0	1490026496	50	4277
2026-01-05 00:40:04.38	200.96	21.29	-44.5	-45.4	17.4	0.00e+00	0	58	0	1493172224	50	4322
2026-01-05 00:40:05.36	200.98	21.15	-44.4	-45.3	17.5	0.00e+00	0	57	0	1496317952	50	4266
2026-01-05 00:40:06.35	201.00	21.02	-44.4	-45.3	17.5	0.00e+00	0	57	0	1499463680	50	4247
2026-01-05 00:40:07.34	201.02	20.88	-44.5	-45.4	17.4	0.00e+00	0	57	0	1502609408	50	4312
2026-01-05 00:40:08.32	201.04	20.75	-44.5	-45.5	17.3	0.00e+00	0	57	0	1504706560	51	4100
2026-01-05 00:40:09.32	201.06	20.62	-44.4	-45.3	17.4	0.00e+00	0	57	0	1507852288	51	4050
2026-01-05 00:40:10.31	201.08	20.49	-44.5	-45.5	17.3	0.00e+00	0	57	0	1510998016	51	4110
2026-01-05 00:40:11.30	201.10	20.35	-44.8	-45.8	17.0	0.00e+00	0	57	0	1514143744	51	4246
2026-01-05 00:40:12.29	201.12	20.22	-44.5	-45.4	17.3	0.00e+00	0	57	0	1517289472	51	4090
2026-01-05 00:40:13.28	201.14	20.09	-44.4	-45.3	17.5	0.00e+00	0	58	0	1520435200	51	4010
2026-01-05 00:40:14.27	201.16	19.96	-44.3	-45.2	17.5	0.00e+00	0	57	0	1523580928	51	3997
2026-01-05 00:40:15.26	201.17	19.83	-44.4	-45.3	17.4	0.00e+00	0	57	0	1526726656	51	4036
2026-01-05 00:40:16.25	201.19	19.71	-44.5	-45.5	17.3	0.00e+00	0	57	0	1529872384	51	4105
2026-01-05 00:40:17.23	201.21	19.58	-44.4	-45.3	17.5	0.00e+00	0	57	0	1533018112	51	4014
2026-01-05 00:40:18.22	201.23	19.45	-44.3	-45.1	17.6	0.00e+00	0	58	0	1536163840	51	3956
2026-01-05 00:40:19.21	201.25	19.33	-44.4	-45.3	17.5	0.00e+00	0	57	0	1539309568	51	4017
2026-01-05 00:40:20.21	201.27	19.20	-44.5	-45.4	17.3	0.00e+00	0	57	0	1542455296	51	4069
2026-01-05 00:40:21.20	201.29	19.08	-44.4	-45.3	17.5	0.00e+00	0	57	0	1545601024	51	4018
2026-01-05 00:40:22.19	201.30	18.95	-44.3	-45.2	17.6	0.00e+00	0	57	0	1548746752	51	3969
2026-01-05 00:40:23.19	201.32	18.83	-44.4	-45.3	17.4	0.00e+00	0	57	0	1551892480	51	4035
2026-01-05 00:40:24.18	201.34	18.70	-44.6	-45.5	17.2	0.00e+00	0	57	0	1555038208	51	4131
2026-01-05 00:40:25.17	201.36	18.58	-44.5	-45.5	17.3	0.00e+00	0	58	0	1558183936	51	4105
2026-01-05 00:40:26.15	201.38	18.46	-44.6	-45.6	17.2	0.00e+00	0	57	0	1561329664	51	4165
2026-01-05 00:40:27.14	201.39	18.34	-44.6	-45.5	17.2	0.00e+00	0	57	0	1564475392	51	4139
2026-01-05 00:40:28.11	201.41	18.22	-44.8	-45.7	17.0	0.00e+00	0	57	0	1566572544	51	4239
2026-01-05 00:40:29.10	201.43	18.10	-44.7	-45.7	17.1	0.00e+00	0	57	0	1569718272	51	4196
2026-01-05 00:40:30.09	201.45	17.98	-44.9	-45.9	16.8	0.00e+00	0	57	0	1572864000	51	4326
2026-01-05 00:40:31.08	201.46	17.86	-44.8	-45.8	17.0	0.00e+00	0	57	0	1576009728	51	4253
2026-01-05 00:40:32.07	201.48	17.74	-44.8	-45.8	17.0	0.00e+00	0	58	0	1579155456	51	4248
2026-01-05 00:40:33.06	201.50	17.63	-45.0	-46.0	16.8	0.00e+00	0	57	0	1582301184	51	4358
2026-01-05 00:40:34.04	201.51	17.51	-45.0	-46.1	16.6	0.00e+00	0	58	0	1585446912	52	4173
2026-01-05 00:40:35.03	201.53	17.39	-45.0	-46.0	16.7	0.00e+00	0	57	0	1588592640	52	4122
2026-01-05 00:40:36.02	201.55	17.28	-45.1	-46.2	16.5	0.00e+00	0	58	0	1591738368	52	4212
2026-01-05 00:40:37.02	201.56	17.16	-45.3	-46.5	16.2	0.00e+00	0	57	0	1594884096	52	4342
2026-01-05 00:40:38.00	201.58	17.05	-45.2	-46.2	16.4	0.00e+00	0	57	0	1598029824	52	4237
2026-01-05 00:40:38.99	201.60	16.93	-45.0	-46.1	16.6	0.00e+00	0	57	0	1601175552	52	4159
2026-01-05 00:40:39.98	201.61	16.82	-45.0	-46.1	16.6	0.00e+00	0	58	0	1604321280	52	4147
2026-01-05 00:40:40.97	201.63	16.70	-45.1	-46.1	16.5	0.00e+00	0	57	0	1607467008	52	4180
2026-01-05 00:40:41.96	201.64	16.59	-45.3	-46.4	16.3	0.00e+00	0	58	0	1610612736	52	4310
2026-01-05 00:40:42.95	201.66	16.48	-45.2	-46.3	16.4	0.00e+00	0	58	0	1613758464	52	4248
2026-01-05 00:40:43.94	201.68	16.37	-45.3	-46.5	16.2	0.00e+00	0	57	0	1616904192	52	4364
2026-01-05 00:40:44.92	201.69	16.26	-45.2	-46.3	16.4	0.00e+00	0	57	0	1620049920	52	4267
2026-01-05 00:40:45.91	201.71	16.15	-45.1	-46.2	16.5	0.00e+00	0	57	0	1622147072	52	4200
2026-01-05 00:40:46.90	201.72	16.04	-45.1	-46.2	16.5	0.00e+00	0	57	0	1625292800	52	4202
2026-01-05 00:40:47.89	201.74	15.93	-45.2	-46.3	16.3	0.00e+00	0	57	0	1628438528	52	4291
2026-01-05 00:40:48.88	201.75	15.82	-45.2	-46.3	16.3	0.00e+00	0	57	0	1631584256	52	4288
2026-01-05 00:40:49.87	201.77	15.71	-45.2	-46.3	16.4	0.00e+00	0	57	0	1634729984	52	4252
2026-01-05 00:40:50.86	201.79	15.60	-45.1	-46.2	16.5	0.00e+00	0	57	0	1637875712	52	4207
2026-01-05 00:40:51.85	201.80	15.49	-45.1	-46.2	16.4	0.00e+00	0	58	0	1641021440	52	4208
2026-01-05 00:40:52.84	201.82	15.38	-45.3	-46.4	16.2	0.00e+00	0	57	0	1644167168	52	4318
2026-01-05 00:40:53.84	201.83	15.28	-45.3	-46.4	16.2	0.00e+00	0	57	0	1647312896	52	4325
2026-01-05 00:40:54.83	201.85	15.17	-45.5	-46.6	16.0	0.00e+00	0	58	0	1650458624	52	4429
2026-01-05 00:40:55.81	201.86	15.06	-45.4	-46.6	16.1	0.00e+00	0	57	0	1653604352	52	4392
2026-01-05 00:40:56.80	201.88	14.96	-45.5	-46.7	15.9	0.00e+00	0	58	0	1656750080	52	4482
2026-01-05 00:40:57.79	201.89	14.85	-45.3	-46.4	16.2	0.00e+00	0	57	0	1659895808	53	4079
2026-01-05 00:40:58.78	201.90	14.75	-45.0	-46.0	16.6	0.00e+00	0	57	0	1663041536	53	3891
2026-01-05 00:40:59.77	201.92	14.64	-44.8	-45.8	16.8	0.00e+00	0	57	0	1666187264	52	4046
2026-01-05 00:41:00.75	201.93	14.54	-44.9	-45.9	16.7	0.00e+00	0	57	0	1669332992	52	4064
2026-01-05 00:41:01.74	201.95	14.44	-45.0	-46.0	16.6	0.00e+00	0	57	0	1672478720	52	4133
2026-01-05 00:41:02.73	201.96	14.34	-45.0	-46.1	16.5	0.00e+00	0	57	0	1675624448	52	4158
2026-01-05 00:41:03.72	201.98	14.23	-45.3	-46.4	16.3	0.00e+00	0	57	0	1678770176	52	4292
2026-01-05 00:41:04.72	201.99	14.13	-45.2	-46.3	16.3	0.00e+00	0	57	0	1680867328	52	4248
2026-01-05 00:41:05.71	202.01	14.03	-45.0	-46.0	16.6	0.00e+00	0	58	0	1684013056	52	4138
2026-01-05 00:41:06.70	202.02	13.93	-45.0	-46.0	16.6	0.00e+00	0	57	0	1687158784	52	4119
2026-01-05 00:41:07.69	202.03	13.83	-45.0	-46.1	16.5	0.00e+00	0	57	0	1690304512	52	4158
2026-01-05 00:41:08.68	202.05	13.73	-45.1	-46.2	16.3	0.00e+00	0	57	0	1693450240	52	4228
2026-01-05 00:41:09.67	202.06	13.63	-45.1	-46.2	16.4	0.00e+00	0	57	0	1696595968	52	4203
2026-01-05 00:41:10.66	202.07	13.53	-45.0	-46.0	16.6	0.00e+00	0	57	0	1699741696	52	4120
2026-01-05 00:41:11.65	202.09	13.43	-44.9	-46.0	16.6	0.00e+00	0	57	0	1702887424	52	4119
2026-01-05 00:41:12.64	202.10	13.33	-45.0	-46.1	16.5	0.00e+00	0	57	0	1706033152	52	4166
2026-01-05 00:41:13.63	202.12	13.23	-45.2	-46.3	16.3	0.00e+00	0	57	0	1709178880	52	4276
2026-01-05 00:41:14.62	202.13	13.13	-45.2	-46.2	16.3	0.00e+00	0	57	0	1712324608	52	4239
2026-01-05 00:41:15.61	202.14	13.03	-45.1	-46.3	16.3	0.00e+00	0	57	0	1715470336	52	4243
2026-01-05 00:41:16.60	202.16	12.94	-45.2	-46.4	16.2	0.00e+00	0	58	0	1718616064	52	4304
2026-01-05 00:41:17.59	202.17	12.84	-45.3	-46.4	16.1	0.00e+00	0	58	0	1721761792	52	4332
2026-01-05 00:41:18.58	202.18	12.74	-45.2	-46.3	16.2	0.00e+00	0	57	0	1724907520	52	4267
2026-01-05 00:41:19.57	202.20	12.65	-45.1	-46.2	16.3	0.00e+00	0	57	0	1728053248	52	4213
2026-01-05 00:41:20.56	202.21	12.55	-45.1	-46.2	16.4	0.00e+00	0	57	0	1731198976	52	4199
2026-01-05 00:41:21.56	202.22	12.46	-45.2	-46.3	16.3	0.00e+00	0	57	0	1734344704	52	4245
2026-01-05 00:41:22.55	202.24	12.36	-45.2	-46.3	16.2	0.00e+00	0	57	0	1737490432	52	4263
2026-01-05 00:41:23.54	202.25	12.27	-45.4	-46.6	16.0	0.00e+00	0	57	0	1740636160	52	4397
2026-01-05 00:41:24.53	202.26	12.17	-45.4	-46.6	15.9	0.00e+00	0	57	0	1743781888	52	4416
2026-01-05 00:41:25.52	202.27	12.08	-45.4	-46.5	16.0	0.00e+00	0	58	0	1745879040	52	4376
2026-01-05 00:41:26.51	202.29	11.98	-45.4	-46.6	16.0	0.00e+00	0	58	0	1749024768	52	4408
2026-01-05 00:41:27.49	202.30	11.89	-45.2	-46.3	16.2	0.00e+00	0	57	0	1752170496	52	4288
2026-01-05 00:41:28.49	202.31	11.80	-45.0	-46.1	16.4	0.00e+00	0	57	0	1755316224	52	4177
2026-01-05 00:41:29.47	202.32	11.71	-45.0	-46.0	16.5	0.00e+00	0	57	0	1758461952	52	4128
2026-01-05 00:41:30.46	202.34	11.62	-44.9	-45.9	16.5	0.00e+00	0	58	0	1761607680	52	4098
2026-01-05 00:41:31.45	202.35	11.52	-44.9	-45.9	16.5	0.00e+00	0	57	0	1764753408	52	4088
2026-01-05 00:41:32.44	202.36	11.43	-45.0	-46.0	16.5	0.00e+00	0	57	0	1767899136	52	4132
2026-01-05 00:41:33.42	202.37	11.34	-45.1	-46.2	16.3	0.00e+00	0	57	0	1771044864	52	4235
2026-01-05 00:41:34.41	202.39	11.25	-45.2	-46.4	16.1	0.00e+00	0	57	0	1774190592	52	4301
2026-01-05 00:41:35.39	202.40	11.16	-45.1	-46.2	16.3	0.00e+00	0	57	0	1777336320	52	4222
2026-01-05 00:41:36.39	202.41	11.07	-45.0	-46.1	16.4	0.00e+00	0	57	0	1780482048	52	4182
2026-01-05 00:41:37.38	202.42	10.98	-45.1	-46.2	16.3	0.00e+00	0	57	0	1783627776	52	4196
2026-01-05 00:41:38.37	202.43	10.89	-45.1	-46.3	16.2	0.00e+00	0	57	0	1786773504	52	4246
2026-01-05 00:41:39.37	202.45	10.80	-45.1	-46.2	16.2	0.00e+00	0	57	0	1789919232	52	4226
2026-01-05 00:41:40.36	202.46	10.71	-45.3	-46.4	16.0	0.00e+00	0	57	0	1793064960	52	4317
2026-01-05 00:41:41.35	202.47	10.62	-45.1	-46.2	16.2	0.00e+00	0	57	0	1796210688	52	4242
2026-01-05 00:41:42.34	202.48	10.54	-45.1	-46.2	16.2	0.00e+00	0	58	0	1799356416	52	4224
2026-01-05 00:41:43.34	202.49	10.45	-45.3	-46.4	16.0	0.00e+00	0	57	0	1802502144	52	4321
2026-01-05 00:41:44.33	202.51	10.36	-45.3	-46.5	16.0	0.00e+00	0	57	0	1805647872	52	4356
2026-01-05 00:41:45.32	202.52	10.27	-45.3	-46.5	16.0	0.00e+00	0	58	0	1808793600	52	4345
2026-01-05 00:41:46.31	202.53	10.19	-45.4	-46.6	15.8	0.00e+00	0	57	0	1810890752	52	4421
2026-01-05 00:41:47.30	202.54	10.10	-45.6	-46.9	15.5	0.00e+00	0	57	0	1814036480	53	4301
2026-01-05 00:41:48.29	202.55	10.01	-45.5	-46.7	15.7	0.00e+00	0	57	0	1817182208	53	4218
2026-01-05 00:41:49.27	202.56	9.93	-45.5	-46.7	15.7	0.00e+00	0	57	0	1820327936	53	4228
2026-01-05 00:41:50.25	202.58	9.84	-45.5	-46.7	15.7	0.00e+00	0	57	0	1823473664	53	4219
2026-01-05 00:41:51.24	202.59	9.76	-45.7	-47.0	15.4	0.00e+00	0	58	0	1826619392	53	4345
2026-01-05 00:41:52.24	202.60	9.67	-45.6	-46.9	15.5	0.00e+00	0	57	0	1829765120	53	4316
2026-01-05 00:41:53.23	202.61	9.59	-45.8	-47.2	15.2	0.00e+00	0	57	0	1832910848	53	4447
2026-01-05 00:41:54.23	202.62	9.50	-46.2	-47.6	14.8	7.00e-07	0	57	0	1836056576	54	4403
2026-01-05 00:41:55.22	202.63	9.42	-45.9	-47.2	15.1	0.00e+00	0	57	0	1839202304	54	4231
2026-01-05 00:41:56.21	202.64	9.33	-45.8	-47.0	15.3	0.00e+00	0	57	0	1842348032	54	4135
2026-01-05 00:41:57.19	202.65	9.25	-45.7	-46.9	15.5	0.00e+00	0	58	0	1845493760	54	4094
2026-01-05 00:41:58.17	202.67	9.17	-45.8	-47.2	15.2	0.00e+00	0	57	0	1848639488	54	4198
2026-01-05 00:41:59.17	202.68	9.08	-45.9	-47.3	15.1	0.00e+00	0	57	0	1851785216	54	4250
2026-01-05 00:42:00.16	202.69	9.00	-45.9	-47.3	15.1	0.00e+00	0	57	0	1854930944	54	4244
2026-01-05 00:42:01.15	202.70	8.92	-45.9	-47.2	15.2	0.00e+00	0	57	0	1858076672	54	4209
2026-01-05 00:42:02.14	202.71	8.84	-46.0	-47.3	15.0	0.00e+00	0	57	0	1861222400	54	4289
2026-01-05 00:42:03.13	202.72	8.75	-46.1	-47.5	14.8	0.00e+00	0	57	0	1864368128	54	4374
2026-01-05 00:42:04.12	202.73	8.67	-46.0	-47.4	15.0	0.00e+00	0	57	0	1866465280	54	4304
2026-01-05 00:42:05.11	202.74	8.59	-46.2	-47.7	14.7	7.00e-07	0	57	0	1869611008	54	4457
2026-01-05 00:42:06.09	202.75	8.51	-46.1	-47.5	14.9	0.00e+00	0	57	0	1872756736	54	4344
2026-01-05 00:42:07.08	202.76	8.43	-46.3	-47.8	14.5	1.50e-06	0	57	0	1875902464	54	4534
2026-01-05 00:42:08.07	202.77	8.35	-46.1	-47.6	14.7	0.00e+00	0	57	0	1879048192	54	4413
2026-01-05 00:42:09.06	202.79	8.27	-46.1	-47.4	14.9	0.00e+00	0	57	0	1882193920	54	4326
2026-01-05 00:42:10.05	202.80	8.19	-46.0	-47.4	14.9	0.00e+00	0	57	0	1885339648	54	4320
2026-01-05 00:42:11.05	202.81	8.11	-46.1	-47.6	14.7	7.00e-07	0	57	0	1888485376	54	4394
2026-01-05 00:42:12.04	202.82	8.03	-46.1	-47.6	14.7	0.00e+00	0	57	0	1891631104	54	4396
2026-01-05 00:42:13.03	202.83	7.95	-46.2	-47.6	14.7	7.00e-07	0	57	0	1894776832	54	4434
2026-01-05 00:42:14.02	202.84	7.87	-46.3	-47.8	14.5	0.00e+00	0	57	0	1897922560	54	4522
2026-01-05 00:42:15.01	202.85	7.79	-46.3	-47.7	14.5	7.00e-07	0	57	0	1901068288	54	4482
2026-01-05 00:42:15.99	202.86	7.71	-46.3	-47.7	14.5	0.00e+00	0	58	0	1904214016	54	4493
2026-01-05 00:42:16.98	202.87	7.63	-46.3	-47.8	14.4	7.00e-07	0	57	0	1907359744	54	4542
2026-01-05 00:42:17.97	202.88	7.56	-46.5	-48.0	14.2	7.00e-07	0	57	0	1910505472	54	4638
2026-01-05 00:42:18.96	202.89	7.48	-46.4	-48.0	14.3	0.00e+00	0	57	0	1913651200	54	4607
2026-01-05 00:42:19.94	202.90	7.40	-46.6	-48.2	14.1	7.00e-07	0	58	0	1916796928	54	4711
2026-01-05 00:42:20.93	202.91	7.32	-46.5	-48.0	14.2	3.80e-06	0	57	0	1919942656	54	4637
2026-01-05 00:42:21.92	202.92	7.25	-46.6	-48.2	14.0	1.50e-06	0	57	0	1923088384	55	4488
2026-01-05 00:42:22.90	202.93	7.17	-46.5	-48.2	14.0	2.20e-06	0	57	0	1925185536	55	4447
2026-01-05 00:42:23.89	202.94	7.09	-46.5	-48.1	14.1	7.00e-07	0	57	0	1928331264	55	4436
2026-01-05 00:42:24.89	202.95	7.02	-46.6	-48.2	14.0	3.80e-06	0	57	0	1931476992	55	4467
2026-01-05 00:42:25.87	202.96	6.94	-46.6	-48.2	14.0	5.30e-06	0	57	0	1934622720	55	4479
2026-01-05 00:42:26.86	202.97	6.86	-46.7	-48.3	13.9	4.50e-06	0	58	0	1937768448	55	4517
2026-01-05 00:42:27.84	202.98	6.79	-46.8	-48.5	13.7	3.80e-06	0	57	0	1940914176	55	4624
2026-01-05 00:42:28.84	202.99	6.71	-46.7	-48.4	13.8	7.60e-06	0	57	0	1944059904	55	4579
2026-01-05 00:42:29.82	203.00	6.64	-46.9	-48.6	13.5	9.10e-06	0	57	0	1947205632	55	4696
2026-01-05 00:42:30.81	203.01	6.56	-46.9	-48.6	13.5	1.14e-05	0	57	0	1950351360	55	4696
2026-01-05 00:42:31.80	203.02	6.49	-47.0	-48.7	13.4	1.52e-05	0	57	0	1953497088	55	4749
2026-01-05 00:42:32.79	203.03	6.41	-47.0	-48.8	13.4	1.52e-05	0	57	0	1956642816	55	4772
2026-01-05 00:42:33.78	203.04	6.34	-47.0	-48.9	13.2	9.10e-06	0	57	0	1959788544	55	4830
2026-01-05 00:42:34.76	203.05	6.27	-47.0	-48.8	13.3	1.90e-05	0	57	0	1962934272	55	4779
2026-01-05 00:42:35.75	203.06	6.19	-46.9	-48.7	13.4	1.06e-05	0	57	0	1966080000	55	4744
2026-01-05 00:42:36.74	203.07	6.12	-46.9	-48.7	13.4	1.75e-05	0	57	0	1969225728	55	4740
2026-01-05 00:42:37.73	203.08	6.04	-47.0	-48.8	13.3	1.67e-05	0	57	0	1972371456	55	4798
2026-01-05 00:42:38.72	203.09	5.97	-47.0	-48.8	13.2	2.36e-05	0	57	0	1975517184	55	4811
2026-01-05 00:42:39.70	203.10	5.90	-47.1	-49.0	13.2	2.21e-05	0	57	0	1978662912	56	4618
2026-01-05 00:42:40.69	203.11	5.82	-47.2	-49.1	13.0	3.81e-05	0	57	0	1981808640	56	4682
2026-01-05 00:42:41.69	203.12	5.75	-47.2	-49.1	13.0	3.66e-05	0	57	0	1984954368	56	4689
2026-01-05 00:42:42.67	203.13	5.68	-47.3	-49.2	13.0	5.03e-05	0	57	0	1987051520	56	4718
2026-01-05 00:42:43.66	203.14	5.61	-47.4	-49.4	12.7	5.11e-05	0	57	0	1990197248	56	4831
2026-01-05 00:42:44.64	203.14	5.53	-47.4	-49.4	12.7	7.40e-05	0	57	0	1993342976	56	4822
2026-01-05 00:42:45.63	203.15	5.46	-47.3	-49.2	12.9	5.18e-05	0	57	0	1996488704	56	4716
2026-01-05 00:42:46.62	203.16	5.39	-47.3	-49.2	12.9	5.11e-05	0	57	0	1999634432	56	4747
2026-01-05 00:42:47.61	203.17	5.32	-47.4	-49.5	12.6	1.11e-04	0	57	0	2002780160	56	4886
2026-01-05 00:42:48.60	203.18	5.25	-47.5	-49.6	12.5	1.34e-04	0	57	0	2005925888	56	4949
2026-01-05 00:42:49.59	203.19	5.18	-47.5	-49.5	12.5	1.32e-04	0	57	0	2009071616	56	4907
2026-01-05 00:42:50.58	203.20	5.10	-47.5	-49.5	12.5	1.23e-04	0	57	0	2012217344	56	4919
2026-01-05 00:42:51.57	203.21	5.03	-47.5	-49.5	12.5	1.26e-04	0	57	0	2015363072	56	4903
2026-01-05 00:42:52.56	203.22	4.96	-51.7	-63.2	3.8	1.49e+00	0	58	104	2017460224	65	14130
2026-01-05 00:42:53.55	203.23	4.89	-52.0	-63.4	3.8	1.49e+00	0	58	104	2017460224	65	14503
2026-01-05 00:42:54.54	203.24	4.82	-52.2	-63.6	3.8	1.49e+00	0	57	104	2017460224	66	14019
