passes_logs/2026/01/05/R3.0SM8_Murmansk_STILSPACE/R3.0SM8_Murmansk_STILSPACE__20260105_043923_NOAA_20_JPSS-1_rec.log

#Pass ID: 20260105_043923_NOAA 20 (JPSS-1)
#Satellite: NOAA 20 (JPSS-1)
#Configuration: NOAA 20
#almurnet v.1.7.20240730
#Start time: 2026-01-05 04:39:22

#Version: 2.2.20231116
#Station: R3.0SM8_Murmansk_STILSPACE
#Location: 33.092731 lon 68.902999 lat
#TLE: 1 43013U 17073A   26004.47528369  .00000132  00000+0  83671-4 0  9999
#TLE: 2 43013  98.7626 305.5264 0001854  54.5883 305.5466 14.19533142421242

#Time	Az	El	Level	Level2	SNR	BER	BlckErr	Temp	State	Recorded	gain1	gain2
2026-01-05 04:39:22.92	53.92	2.98	-52.4	-66.2	3.8	1.49e+00	0	47	0	0	67	17767
2026-01-05 04:39:23.90	53.85	3.04	-52.2	-66.1	3.8	1.49e+00	0	47	104	0	67	17585
2026-01-05 04:39:24.90	53.78	3.09	-52.1	-66.0	3.8	1.49e+00	0	47	104	0	67	17464
2026-01-05 04:39:25.89	53.72	3.15	-52.2	-66.0	3.8	1.49e+00	0	47	104	0	67	17381
2026-01-05 04:39:26.88	53.65	3.21	-52.0	-65.9	3.8	1.49e+00	0	47	104	0	67	17184
2026-01-05 04:39:27.87	53.58	3.27	-51.9	-65.8	3.8	1.49e+00	0	47	104	0	66	17994
2026-01-05 04:39:28.85	53.51	3.33	-51.8	-65.7	3.8	1.49e+00	0	47	104	0	66	17787
2026-01-05 04:39:29.83	53.45	3.38	-51.5	-65.4	3.8	1.49e+00	0	47	104	0	66	17275
2026-01-05 04:39:30.81	53.38	3.44	-51.4	-65.2	3.8	1.49e+00	0	47	104	0	65	17792
2026-01-05 04:39:31.80	53.31	3.50	-51.4	-65.2	3.8	1.49e+00	0	47	104	0	65	17751
2026-01-05 04:39:32.79	53.24	3.56	-51.4	-65.2	3.8	1.49e+00	0	47	104	0	65	17761
2026-01-05 04:39:33.78	53.17	3.62	-51.4	-65.2	3.8	1.49e+00	0	48	104	0	65	17705
2026-01-05 04:39:34.77	53.10	3.67	-51.4	-65.1	3.8	1.49e+00	0	48	104	0	65	17560
2026-01-05 04:39:35.76	53.03	3.73	-51.3	-65.1	3.8	1.49e+00	0	48	104	0	65	17588
2026-01-05 04:39:36.75	52.96	3.79	-51.4	-65.1	3.8	1.49e+00	0	48	104	0	65	17637
2026-01-05 04:39:37.74	52.89	3.85	-51.4	-65.2	3.8	1.49e+00	0	48	104	0	65	17749
2026-01-05 04:39:38.73	52.82	3.91	-51.4	-65.2	3.8	1.49e+00	0	48	104	0	65	17754
2026-01-05 04:39:39.72	52.75	3.97	-51.3	-65.2	3.8	1.49e+00	0	48	104	0	65	17794
2026-01-05 04:39:40.71	52.67	4.03	-51.3	-65.2	3.8	1.49e+00	0	48	104	0	65	17791
2026-01-05 04:39:41.70	52.60	4.09	-51.3	-65.2	3.8	1.49e+00	0	48	104	0	65	17805
2026-01-05 04:39:42.69	52.53	4.15	-51.3	-65.2	3.8	1.49e+00	0	48	104	0	65	17747
2026-01-05 04:39:43.68	52.46	4.20	-51.4	-65.1	3.8	1.49e+00	0	48	104	0	65	17536
2026-01-05 04:39:44.67	52.38	4.26	-51.4	-64.9	3.8	1.49e+00	0	48	104	0	65	17261
2026-01-05 04:39:45.66	52.31	4.32	-51.3	-64.6	3.8	1.49e+00	0	48	104	0	65	16658
2026-01-05 04:39:46.64	52.24	4.38	-51.3	-64.2	3.8	1.49e+00	0	48	104	0	65	15802
2026-01-05 04:39:47.63	52.16	4.44	-51.3	-63.5	3.8	1.49e+00	0	48	104	0	65	14666
2026-01-05 04:39:48.62	52.09	4.50	-51.2	-62.7	3.8	1.48e+00	0	49	104	0	65	13367
2026-01-05 04:39:49.61	52.01	4.56	-51.2	-61.7	4.2	1.47e+00	0	49	104	0	65	11837
2026-01-05 04:39:50.60	51.94	4.62	-51.1	-60.6	4.5	1.26e+00	0	49	0	0	65	10473
2026-01-05 04:39:51.59	51.86	4.68	-50.9	-59.6	5.0	8.40e-01	0	49	0	2097152	64	9834
2026-01-05 04:39:52.58	51.79	4.74	-50.7	-58.6	5.6	5.61e-01	0	49	0	4194304	64	8848
2026-01-05 04:39:53.57	51.71	4.80	-50.6	-57.8	6.2	3.23e-01	0	49	0	6291456	64	7996
2026-01-05 04:39:54.56	51.64	4.86	-50.5	-57.1	6.9	2.00e-01	0	49	0	8388608	63	7876
2026-01-05 04:39:55.55	51.56	4.92	-50.4	-56.6	7.4	1.53e-01	0	49	0	9437184	63	7388
2026-01-05 04:39:56.54	51.48	4.98	-50.3	-56.3	7.8	9.40e-02	0	49	0	11534336	63	7131
2026-01-05 04:39:57.53	51.41	5.04	-50.2	-56.0	7.9	6.72e-02	0	49	0	13631488	63	6918
2026-01-05 04:39:58.53	51.33	5.10	-50.4	-56.3	7.8	7.33e-02	0	49	0	15728640	63	7125
2026-01-05 04:39:59.52	51.25	5.17	-50.3	-56.1	7.9	7.95e-02	0	49	0	16777216	63	7037
2026-01-05 04:40:00.51	51.17	5.23	-50.2	-55.9	8.2	6.18e-02	0	49	0	18874368	63	6821
2026-01-05 04:40:01.51	51.09	5.29	-50.2	-55.8	8.3	5.30e-02	0	49	0	20971520	63	6749
2026-01-05 04:40:02.50	51.01	5.35	-50.3	-56.0	8.0	6.31e-02	0	49	0	23068672	63	6941
2026-01-05 04:40:03.49	50.94	5.41	-50.3	-56.1	7.9	7.89e-02	0	50	0	25165824	63	7018
2026-01-05 04:40:04.48	50.86	5.47	-50.2	-55.7	8.3	4.80e-02	0	50	0	26214400	63	6699
2026-01-05 04:40:05.48	50.78	5.53	-50.0	-55.1	9.0	3.14e-02	0	50	0	28311552	63	6246
2026-01-05 04:40:06.47	50.69	5.59	-49.9	-54.6	9.5	2.05e-02	0	50	0	30408704	62	6265
2026-01-05 04:40:07.47	50.61	5.66	-49.7	-54.3	9.8	1.04e-02	0	50	0	32505856	62	6014
2026-01-05 04:40:08.46	50.53	5.72	-49.6	-53.9	10.2	7.77e-03	0	49	0	33554432	62	5755
2026-01-05 04:40:09.44	50.45	5.78	-49.4	-53.6	10.6	4.27e-03	0	50	0	35651584	62	5555
2026-01-05 04:40:10.43	50.37	5.84	-49.3	-53.3	10.8	3.12e-03	0	50	0	37748736	61	5697
2026-01-05 04:40:11.42	50.29	5.90	-49.3	-53.2	11.0	1.98e-03	0	50	0	39845888	61	5602
2026-01-05 04:40:12.41	50.21	5.96	-49.2	-53.0	11.2	1.65e-03	0	50	0	40894464	61	5483
2026-01-05 04:40:13.40	50.12	6.03	-49.2	-53.0	11.2	1.30e-03	0	50	0	42991616	61	5469
2026-01-05 04:40:14.39	50.04	6.09	-49.2	-53.0	11.2	1.67e-03	0	50	0	45088768	61	5476
2026-01-05 04:40:15.38	49.96	6.15	-49.2	-53.0	11.2	1.26e-03	0	50	0	47185920	61	5508
2026-01-05 04:40:16.37	49.87	6.21	-49.2	-53.0	11.2	1.84e-03	0	50	0	49283072	61	5492
2026-01-05 04:40:17.36	49.79	6.27	-49.0	-52.6	11.5	1.30e-03	0	50	0	50331648	61	5276
2026-01-05 04:40:18.36	49.70	6.34	-49.0	-52.4	11.8	7.28e-04	0	50	0	52428800	61	5159
2026-01-05 04:40:19.35	49.62	6.40	-48.9	-52.5	11.8	5.32e-04	0	50	0	54525952	61	5166
2026-01-05 04:40:20.34	49.53	6.46	-48.9	-52.4	11.8	4.36e-04	0	50	0	56623104	60	5438
2026-01-05 04:40:21.32	49.45	6.52	-49.0	-52.6	11.6	6.60e-04	0	51	0	57671680	60	5548
2026-01-05 04:40:22.31	49.36	6.59	-48.9	-52.4	11.8	5.90e-04	0	50	0	59768832	60	5413
2026-01-05 04:40:23.28	49.28	6.65	-49.0	-52.4	11.9	4.28e-04	0	50	0	61865984	60	5440
2026-01-05 04:40:24.28	49.19	6.71	-49.0	-52.5	11.8	4.63e-04	0	50	0	63963136	60	5501
2026-01-05 04:40:25.27	49.10	6.78	-49.0	-52.6	11.8	6.00e-04	0	51	0	66060288	60	5535
2026-01-05 04:40:26.26	49.01	6.84	-49.0	-52.5	11.9	4.54e-04	0	50	0	67108864	60	5475
2026-01-05 04:40:27.25	48.93	6.90	-48.9	-52.3	12.0	2.82e-04	0	51	0	69206016	60	5379
2026-01-05 04:40:28.24	48.84	6.96	-48.9	-52.2	12.1	3.44e-04	0	50	0	71303168	60	5332
2026-01-05 04:40:29.23	48.75	7.03	-48.9	-52.2	12.1	2.86e-04	0	51	0	73400320	60	5335
2026-01-05 04:40:30.22	48.66	7.09	-49.0	-52.5	11.9	3.75e-04	0	51	0	74448896	60	5498
2026-01-05 04:40:31.20	48.57	7.15	-48.9	-52.2	12.1	3.02e-04	0	51	0	76546048	60	5333
2026-01-05 04:40:32.19	48.48	7.22	-49.0	-52.4	11.9	3.23e-04	0	51	0	78643200	60	5452
2026-01-05 04:40:33.17	48.39	7.28	-48.9	-52.3	12.0	3.39e-04	0	51	0	80740352	60	5400
2026-01-05 04:40:34.16	48.30	7.34	-49.0	-52.3	12.1	3.35e-04	0	51	0	81788928	60	5370
2026-01-05 04:40:35.15	48.21	7.41	-49.0	-52.4	12.0	3.55e-04	0	51	0	83886080	60	5450
2026-01-05 04:40:36.13	48.12	7.47	-49.0	-52.4	12.0	3.34e-04	0	51	0	85983232	60	5440
2026-01-05 04:40:37.12	48.03	7.54	-49.1	-52.6	11.9	3.26e-04	0	51	0	88080384	60	5538
2026-01-05 04:40:38.11	47.93	7.60	-49.1	-52.7	11.8	3.96e-04	0	51	0	89128960	60	5593
2026-01-05 04:40:39.10	47.84	7.66	-49.2	-52.9	11.5	7.45e-04	0	51	0	91226112	60	5749
2026-01-05 04:40:40.09	47.75	7.73	-49.2	-52.7	11.8	7.06e-04	0	51	0	93323264	60	5617
2026-01-05 04:40:41.08	47.65	7.79	-49.0	-52.4	12.0	4.50e-04	0	51	0	95420416	60	5440
2026-01-05 04:40:42.08	47.56	7.86	-49.0	-52.3	12.1	3.03e-04	0	51	0	97517568	60	5393
2026-01-05 04:40:43.06	47.46	7.92	-49.1	-52.5	11.9	2.80e-04	0	51	0	98566144	60	5493
2026-01-05 04:40:44.05	47.37	7.99	-49.1	-52.6	11.8	4.34e-04	0	51	0	100663296	60	5559
2026-01-05 04:40:45.03	47.27	8.05	-49.2	-52.6	11.8	4.59e-04	0	51	0	102760448	60	5587
2026-01-05 04:40:46.01	47.18	8.12	-49.1	-52.5	12.0	3.75e-04	0	51	0	104857600	60	5495
2026-01-05 04:40:47.01	47.08	8.18	-49.0	-52.2	12.2	2.32e-04	0	51	0	105906176	60	5324
2026-01-05 04:40:48.00	46.99	8.25	-48.9	-52.2	12.3	2.00e-04	0	52	0	108003328	60	5300
2026-01-05 04:40:48.99	46.89	8.31	-49.0	-52.2	12.3	1.78e-04	0	51	0	110100480	60	5311
2026-01-05 04:40:49.99	46.79	8.38	-49.1	-52.4	12.1	2.23e-04	0	51	0	112197632	60	5446
2026-01-05 04:40:50.98	46.69	8.44	-48.9	-52.1	12.4	1.88e-04	0	52	0	113246208	60	5242
2026-01-05 04:40:51.97	46.59	8.51	-48.8	-51.9	12.7	1.15e-04	0	51	0	115343360	60	5102
2026-01-05 04:40:52.95	46.49	8.57	-48.7	-51.8	12.7	6.86e-05	0	52	0	117440512	60	5081
2026-01-05 04:40:53.94	46.39	8.64	-48.7	-51.9	12.6	6.94e-05	0	52	0	119537664	60	5108
2026-01-05 04:40:54.93	46.29	8.70	-48.6	-51.6	12.9	6.40e-05	0	52	0	121634816	60	4969
2026-01-05 04:40:55.93	46.19	8.77	-48.6	-51.6	12.9	4.04e-05	0	52	0	122683392	60	4977
2026-01-05 04:40:56.92	46.09	8.84	-48.8	-51.8	12.8	5.87e-05	0	52	0	124780544	60	5064
2026-01-05 04:40:57.92	45.99	8.90	-48.6	-51.5	13.0	3.58e-05	0	52	0	126877696	60	4920
2026-01-05 04:40:58.91	45.89	8.97	-48.6	-51.5	13.1	3.35e-05	0	52	0	128974848	60	4897
2026-01-05 04:40:59.90	45.78	9.03	-48.6	-51.6	13.0	4.19e-05	0	52	0	130023424	60	4931
2026-01-05 04:41:00.89	45.68	9.10	-48.7	-51.7	12.9	6.02e-05	0	52	0	132120576	60	5006
2026-01-05 04:41:01.88	45.58	9.17	-48.7	-51.6	13.0	3.66e-05	0	52	0	134217728	60	4946
2026-01-05 04:41:02.87	45.47	9.23	-48.6	-51.5	13.0	2.82e-05	0	52	0	136314880	60	4917
2026-01-05 04:41:03.86	45.37	9.30	-48.7	-51.7	12.9	4.42e-05	0	52	0	137363456	60	4993
2026-01-05 04:41:04.85	45.26	9.37	-48.7	-51.7	12.9	4.65e-05	0	52	0	139460608	60	5004
2026-01-05 04:41:05.83	45.16	9.43	-48.7	-51.7	12.9	3.66e-05	0	52	0	141557760	60	4985
2026-01-05 04:41:06.83	45.05	9.50	-48.9	-51.9	12.7	4.80e-05	0	52	0	143654912	60	5116
2026-01-05 04:41:07.81	44.95	9.57	-48.8	-51.9	12.7	6.79e-05	0	52	0	145752064	60	5106
2026-01-05 04:41:08.80	44.84	9.63	-48.8	-51.7	12.9	5.34e-05	0	52	0	146800640	60	5013
2026-01-05 04:41:09.79	44.73	9.70	-48.8	-51.7	12.9	3.66e-05	0	52	0	148897792	60	5024
2026-01-05 04:41:10.77	44.63	9.77	-48.9	-52.0	12.6	4.80e-05	0	52	0	150994944	60	5179
2026-01-05 04:41:11.76	44.52	9.83	-48.9	-51.9	12.7	8.92e-05	0	52	0	153092096	60	5132
2026-01-05 04:41:12.75	44.41	9.90	-48.8	-51.9	12.8	6.94e-05	0	52	0	154140672	60	5101
2026-01-05 04:41:13.74	44.30	9.97	-48.9	-51.9	12.8	5.87e-05	0	52	0	156237824	60	5109
2026-01-05 04:41:14.74	44.19	10.03	-48.8	-51.9	12.8	6.17e-05	0	52	0	158334976	60	5112
2026-01-05 04:41:15.73	44.08	10.10	-49.0	-52.1	12.6	8.31e-05	0	52	0	160432128	60	5236
2026-01-05 04:41:16.72	43.97	10.17	-48.9	-52.0	12.7	1.03e-04	0	52	0	162529280	60	5174
2026-01-05 04:41:17.71	43.86	10.24	-48.9	-52.0	12.7	7.09e-05	0	53	0	163577856	60	5205
2026-01-05 04:41:18.70	43.74	10.30	-49.0	-52.1	12.5	9.46e-05	0	52	0	165675008	60	5250
2026-01-05 04:41:19.69	43.63	10.37	-48.8	-51.8	12.9	6.71e-05	0	52	0	167772160	60	5083
2026-01-05 04:41:20.67	43.52	10.44	-48.8	-51.7	12.9	5.49e-05	0	52	0	169869312	60	5037
2026-01-05 04:41:21.66	43.41	10.51	-48.8	-51.8	12.9	5.87e-05	0	52	0	170917888	60	5053
2026-01-05 04:41:22.65	43.29	10.58	-48.8	-51.8	12.9	4.27e-05	0	53	0	173015040	60	5068
2026-01-05 04:41:23.64	43.18	10.64	-48.9	-51.9	12.8	4.95e-05	0	53	0	175112192	60	5147
2026-01-05 04:41:24.63	43.06	10.71	-48.8	-51.8	12.9	6.56e-05	0	53	0	177209344	60	5071
2026-01-05 04:41:25.62	42.95	10.78	-48.8	-51.7	13.0	4.57e-05	0	53	0	178257920	60	5006
2026-01-05 04:41:26.61	42.83	10.85	-48.7	-51.6	13.0	3.73e-05	0	53	0	180355072	60	4964
2026-01-05 04:41:27.60	42.71	10.92	-48.8	-51.7	13.0	3.96e-05	0	53	0	182452224	60	5032
2026-01-05 04:41:28.59	42.60	10.98	-48.9	-52.0	12.7	5.34e-05	0	53	0	184549376	60	5190
2026-01-05 04:41:29.57	42.48	11.05	-48.9	-52.0	12.7	9.23e-05	0	53	0	186646528	60	5205
2026-01-05 04:41:30.56	42.36	11.12	-48.9	-52.0	12.7	8.85e-05	0	53	0	187695104	60	5184
2026-01-05 04:41:31.55	42.24	11.19	-49.0	-52.1	12.7	8.08e-05	0	53	0	189792256	60	5231
2026-01-05 04:41:32.54	42.12	11.26	-49.1	-52.3	12.5	9.91e-05	0	53	0	191889408	60	5355
2026-01-05 04:41:33.53	42.00	11.33	-49.1	-52.3	12.4	1.64e-04	0	53	0	193986560	60	5390
2026-01-05 04:41:34.51	41.88	11.39	-49.1	-52.2	12.5	9.99e-05	0	53	0	195035136	60	5318
2026-01-05 04:41:35.49	41.76	11.46	-49.2	-52.4	12.3	1.44e-04	0	53	0	197132288	60	5446
2026-01-05 04:41:36.49	41.64	11.53	-49.2	-52.5	12.2	3.00e-04	0	53	0	199229440	60	5482
2026-01-05 04:41:37.48	41.51	11.60	-49.0	-52.0	12.7	8.16e-05	0	53	0	201326592	60	5205
2026-01-05 04:41:38.46	41.39	11.67	-48.8	-51.6	13.1	3.12e-05	0	53	0	202375168	60	4983
2026-01-05 04:41:39.45	41.27	11.74	-48.6	-51.4	13.3	2.82e-05	0	53	0	204472320	60	4857
2026-01-05 04:41:40.44	41.14	11.81	-48.5	-51.3	13.5	1.14e-05	0	53	0	206569472	60	4780
2026-01-05 04:41:41.44	41.02	11.88	-48.5	-51.1	13.6	7.60e-06	0	53	0	208666624	60	4696
2026-01-05 04:41:42.43	40.89	11.95	-48.5	-51.2	13.6	4.50e-06	0	53	0	210763776	60	4729
2026-01-05 04:41:43.42	40.77	12.02	-48.6	-51.3	13.5	1.06e-05	0	53	0	211812352	60	4767
2026-01-05 04:41:44.42	40.64	12.09	-48.5	-51.2	13.6	9.10e-06	0	53	0	213909504	60	4743
2026-01-05 04:41:45.41	40.51	12.16	-48.7	-51.5	13.3	9.90e-06	0	53	0	216006656	60	4879
2026-01-05 04:41:46.40	40.38	12.23	-48.8	-51.7	13.1	3.05e-05	0	53	0	218103808	60	4984
2026-01-05 04:41:47.38	40.25	12.29	-48.7	-51.6	13.2	1.22e-05	0	53	0	219152384	60	4938
2026-01-05 04:41:48.38	40.12	12.36	-48.8	-51.7	13.0	3.50e-05	0	53	0	221249536	60	5036
2026-01-05 04:41:49.37	39.99	12.43	-48.8	-51.7	13.1	2.36e-05	0	53	0	223346688	60	5001
2026-01-05 04:41:50.35	39.86	12.50	-48.8	-51.8	13.0	2.44e-05	0	53	0	225443840	60	5047
2026-01-05 04:41:51.34	39.73	12.57	-48.9	-51.9	12.9	4.11e-05	0	53	0	226492416	60	5138
2026-01-05 04:41:52.32	39.60	12.64	-49.0	-52.0	12.8	6.10e-05	0	53	0	228589568	60	5174
2026-01-05 04:41:53.32	39.47	12.71	-48.8	-51.8	13.1	3.20e-05	0	53	0	230686720	60	5043
2026-01-05 04:41:54.31	39.33	12.78	-48.8	-51.7	13.2	2.51e-05	0	53	0	232783872	60	4984
2026-01-05 04:41:55.29	39.20	12.85	-48.7	-51.5	13.3	3.20e-05	0	53	0	233832448	60	4913
2026-01-05 04:41:56.29	39.07	12.92	-48.8	-51.6	13.2	3.50e-05	0	53	0	235929600	60	4974
2026-01-05 04:41:57.28	38.93	12.99	-48.9	-51.8	13.0	3.50e-05	0	53	0	238026752	60	5042
2026-01-05 04:41:58.27	38.80	13.06	-48.6	-51.3	13.5	1.44e-05	0	53	0	240123904	60	4808
2026-01-05 04:41:59.26	38.66	13.13	-48.4	-50.8	13.9	7.60e-06	0	53	0	242221056	59	4801
2026-01-05 04:42:00.25	38.52	13.20	-48.2	-50.6	14.3	4.50e-06	0	54	0	243269632	59	4653
2026-01-05 04:42:01.24	38.38	13.27	-48.1	-50.4	14.4	0.00e+00	0	53	0	245366784	59	4546
2026-01-05 04:42:02.23	38.25	13.34	-48.0	-50.2	14.6	0.00e+00	0	53	0	247463936	59	4469
2026-01-05 04:42:03.21	38.11	13.41	-48.0	-50.2	14.7	0.00e+00	0	54	0	249561088	58	4725
2026-01-05 04:42:04.19	37.97	13.48	-47.9	-50.1	14.8	0.00e+00	0	54	0	250609664	58	4676
2026-01-05 04:42:05.18	37.83	13.55	-48.0	-50.2	14.6	0.00e+00	0	54	0	252706816	58	4744
2026-01-05 04:42:06.17	37.69	13.62	-48.1	-50.3	14.5	0.00e+00	0	54	0	254803968	58	4813
2026-01-05 04:42:07.15	37.55	13.69	-48.2	-50.6	14.2	7.00e-07	0	54	0	256901120	58	4950
2026-01-05 04:42:08.14	37.40	13.76	-47.9	-50.2	14.6	2.20e-06	0	54	0	257949696	58	4757
2026-01-05 04:42:09.13	37.26	13.83	-47.8	-50.0	14.9	0.00e+00	0	54	0	260046848	58	4634
2026-01-05 04:42:10.13	37.12	13.90	-47.8	-50.0	14.9	0.00e+00	0	54	0	262144000	58	4622
2026-01-05 04:42:11.11	36.97	13.97	-47.9	-50.2	14.7	0.00e+00	0	54	0	264241152	58	4712
2026-01-05 04:42:12.10	36.83	14.04	-48.0	-50.2	14.6	7.00e-07	0	54	0	266338304	58	4749
2026-01-05 04:42:13.10	36.68	14.12	-48.0	-50.2	14.8	0.00e+00	0	54	0	267386880	58	4713
2026-01-05 04:42:14.08	36.53	14.19	-47.9	-50.1	14.7	0.00e+00	0	54	0	269484032	58	4699
2026-01-05 04:42:15.08	36.39	14.26	-47.9	-50.1	14.8	0.00e+00	0	54	0	271581184	58	4690
2026-01-05 04:42:16.07	36.24	14.33	-48.0	-50.3	14.6	0.00e+00	0	54	0	273678336	58	4803
2026-01-05 04:42:17.06	36.09	14.40	-48.1	-50.4	14.5	0.00e+00	0	54	0	274726912	58	4824
2026-01-05 04:42:18.05	35.94	14.47	-48.1	-50.3	14.6	0.00e+00	0	54	0	276824064	58	4795
2026-01-05 04:42:19.04	35.79	14.54	-48.1	-50.5	14.4	7.00e-07	0	54	0	278921216	58	4894
2026-01-05 04:42:20.04	35.64	14.61	-48.1	-50.5	14.4	0.00e+00	0	54	0	281018368	58	4883
2026-01-05 04:42:21.03	35.48	14.68	-48.1	-50.5	14.4	0.00e+00	0	54	0	283115520	58	4924
2026-01-05 04:42:22.03	35.33	14.75	-48.3	-50.7	14.2	7.00e-07	0	54	0	284164096	58	5000
2026-01-05 04:42:23.02	35.18	14.82	-48.2	-50.5	14.4	0.00e+00	0	54	0	286261248	58	4897
2026-01-05 04:42:24.02	35.02	14.89	-48.2	-50.5	14.4	0.00e+00	0	54	0	288358400	58	4888
2026-01-05 04:42:25.00	34.87	14.96	-48.2	-50.6	14.3	1.50e-06	0	54	0	290455552	58	4959
2026-01-05 04:42:25.99	34.71	15.03	-48.3	-50.8	14.2	7.00e-07	0	54	0	291504128	58	5042
2026-01-05 04:42:26.98	34.56	15.11	-48.2	-50.6	14.3	2.20e-06	0	54	0	293601280	58	4969
2026-01-05 04:42:27.96	34.40	15.17	-48.4	-50.8	14.2	7.00e-07	0	54	0	295698432	58	5047
2026-01-05 04:42:28.95	34.24	15.25	-48.4	-50.9	14.0	0.00e+00	0	54	0	297795584	58	5127
2026-01-05 04:42:29.94	34.08	15.32	-48.4	-50.9	14.0	0.00e+00	0	54	0	298844160	58	5134
2026-01-05 04:42:30.93	33.92	15.39	-48.5	-51.1	13.8	1.50e-06	0	54	0	300941312	58	5248
2026-01-05 04:42:31.92	33.76	15.46	-48.5	-51.1	13.9	2.20e-06	0	54	0	303038464	58	5228
2026-01-05 04:42:32.91	33.60	15.53	-48.6	-51.2	13.7	4.50e-06	0	54	0	305135616	59	5023
2026-01-05 04:42:33.90	33.44	15.60	-48.6	-51.2	13.7	6.80e-06	0	54	0	307232768	59	5011
2026-01-05 04:42:34.88	33.28	15.67	-48.7	-51.3	13.6	1.06e-05	0	54	0	308281344	59	5074
2026-01-05 04:42:35.87	33.12	15.74	-48.6	-51.3	13.6	6.10e-06	0	54	0	310378496	59	5072
2026-01-05 04:42:36.86	32.95	15.81	-48.8	-51.5	13.4	6.80e-06	0	54	0	312475648	59	5206
2026-01-05 04:42:37.85	32.79	15.88	-48.8	-51.5	13.5	1.67e-05	0	54	0	314572800	59	5174
2026-01-05 04:42:38.84	32.62	15.95	-48.9	-51.6	13.3	1.37e-05	0	54	0	315621376	59	5237
2026-01-05 04:42:39.83	32.46	16.02	-49.0	-51.8	13.0	1.75e-05	0	54	0	317718528	59	5396
2026-01-05 04:42:40.82	32.29	16.09	-48.9	-51.7	13.3	2.89e-05	0	54	0	319815680	59	5284
2026-01-05 04:42:41.80	32.12	16.16	-48.9	-51.7	13.2	1.67e-05	0	54	0	321912832	59	5333
2026-01-05 04:42:42.80	31.95	16.23	-49.1	-52.1	12.9	4.42e-05	0	54	0	322961408	60	5254
2026-01-05 04:42:43.79	31.78	16.30	-48.9	-51.9	13.0	6.56e-05	0	54	0	325058560	60	5114
2026-01-05 04:42:44.78	31.61	16.37	-48.9	-51.7	13.2	1.83e-05	0	54	0	327155712	60	5030
2026-01-05 04:42:45.77	31.44	16.44	-48.8	-51.6	13.3	2.59e-05	0	54	0	329252864	60	4979
2026-01-05 04:42:46.77	31.27	16.51	-48.8	-51.7	13.3	1.75e-05	0	55	0	331350016	60	5000
2026-01-05 04:42:47.75	31.10	16.58	-48.8	-51.6	13.3	2.36e-05	0	54	0	332398592	60	4944
2026-01-05 04:42:48.75	30.92	16.65	-48.9	-51.7	13.2	1.98e-05	0	54	0	334495744	60	5012
2026-01-05 04:42:49.74	30.75	16.72	-48.9	-51.7	13.2	2.82e-05	0	54	0	336592896	60	5041
2026-01-05 04:42:50.72	30.57	16.79	-49.0	-51.9	13.0	2.67e-05	0	54	0	338690048	60	5151
2026-01-05 04:42:51.71	30.40	16.86	-48.9	-51.7	13.2	4.42e-05	0	54	0	339738624	60	5041
2026-01-05 04:42:52.70	30.22	16.92	-48.7	-51.4	13.5	1.37e-05	0	54	0	341835776	60	4822
2026-01-05 04:42:53.69	30.04	16.99	-48.5	-51.0	13.9	6.80e-06	0	54	0	343932928	60	4624
2026-01-05 04:42:54.69	29.86	17.06	-48.4	-51.0	14.0	3.00e-06	0	54	0	346030080	59	4874
2026-01-05 04:42:55.68	29.68	17.13	-48.4	-50.9	14.1	2.20e-06	0	55	0	347078656	59	4829
2026-01-05 04:42:56.66	29.51	17.20	-48.5	-51.0	14.0	1.50e-06	0	55	0	349175808	59	4888
2026-01-05 04:42:57.66	29.32	17.27	-48.5	-51.0	14.0	3.00e-06	0	55	0	351272960	59	4900
2026-01-05 04:42:58.64	29.14	17.34	-48.5	-51.1	13.9	2.20e-06	0	55	0	353370112	59	4942
2026-01-05 04:42:59.63	28.96	17.41	-48.7	-51.4	13.6	9.90e-06	0	55	0	355467264	59	5103
2026-01-05 04:43:00.62	28.78	17.48	-48.6	-51.1	13.8	1.22e-05	0	55	0	356515840	59	4968
2026-01-05 04:43:01.62	28.59	17.54	-48.4	-50.8	14.2	7.00e-07	0	55	0	358612992	59	4771
2026-01-05 04:43:02.61	28.41	17.61	-48.3	-50.7	14.3	0.00e+00	0	55	0	360710144	59	4719
2026-01-05 04:43:03.60	28.22	17.68	-48.4	-50.8	14.2	7.00e-07	0	55	0	362807296	59	4789
2026-01-05 04:43:04.59	28.03	17.75	-48.4	-50.9	14.1	3.00e-06	0	55	0	363855872	59	4846
2026-01-05 04:43:05.58	27.84	17.82	-48.5	-50.9	14.1	2.20e-06	0	55	0	365953024	59	4833
2026-01-05 04:43:06.58	27.65	17.89	-48.4	-50.8	14.2	2.20e-06	0	55	0	368050176	59	4775
2026-01-05 04:43:07.57	27.46	17.95	-48.1	-50.4	14.6	7.00e-07	0	55	0	370147328	59	4588
2026-01-05 04:43:08.56	27.27	18.02	-48.0	-50.2	14.8	0.00e+00	0	55	0	371195904	59	4451
2026-01-05 04:43:09.56	27.08	18.09	-48.0	-50.2	14.8	7.00e-07	0	55	0	373293056	59	4442
2026-01-05 04:43:10.54	26.89	18.16	-47.9	-50.1	14.9	0.00e+00	0	55	0	375390208	59	4417
2026-01-05 04:43:11.54	26.70	18.22	-47.9	-50.0	15.0	0.00e+00	0	55	0	377487360	58	4624
2026-01-05 04:43:12.52	26.50	18.29	-47.9	-50.0	15.0	0.00e+00	0	55	0	379584512	58	4625
2026-01-05 04:43:13.51	26.31	18.36	-48.0	-50.2	14.8	0.00e+00	0	55	0	380633088	58	4750
2026-01-05 04:43:14.49	26.12	18.42	-48.0	-50.1	14.9	0.00e+00	0	55	0	382730240	58	4684
2026-01-05 04:43:15.48	25.92	18.49	-47.6	-49.6	15.5	0.00e+00	0	55	0	384827392	58	4393
2026-01-05 04:43:16.47	25.72	18.55	-47.3	-49.2	15.8	0.00e+00	0	55	0	386924544	57	4446
2026-01-05 04:43:17.46	25.52	18.62	-47.1	-48.9	16.1	0.00e+00	0	55	0	387973120	57	4330
2026-01-05 04:43:18.45	25.32	18.69	-47.1	-48.8	16.2	0.00e+00	0	55	0	390070272	57	4283
2026-01-05 04:43:19.44	25.12	18.75	-47.0	-48.7	16.3	0.00e+00	0	55	0	392167424	57	4237
2026-01-05 04:43:20.43	24.92	18.82	-47.0	-48.8	16.2	0.00e+00	0	55	0	394264576	57	4261
2026-01-05 04:43:21.42	24.72	18.88	-47.1	-48.8	16.2	0.00e+00	0	55	0	396361728	57	4273
2026-01-05 04:43:22.41	24.52	18.95	-47.0	-48.8	16.2	0.00e+00	0	55	0	397410304	57	4276
2026-01-05 04:43:23.40	24.32	19.01	-46.8	-48.5	16.5	0.00e+00	0	55	0	399507456	56	4390
2026-01-05 04:43:24.39	24.11	19.08	-46.8	-48.4	16.6	0.00e+00	0	55	0	401604608	56	4338
2026-01-05 04:43:25.38	23.91	19.14	-46.9	-48.5	16.5	0.00e+00	0	55	0	403701760	56	4391
2026-01-05 04:43:26.37	23.70	19.21	-46.9	-48.7	16.3	0.00e+00	0	55	0	404750336	56	4445
2026-01-05 04:43:27.36	23.49	19.27	-46.9	-48.5	16.5	0.00e+00	0	55	0	406847488	56	4390
2026-01-05 04:43:28.35	23.29	19.33	-46.8	-48.4	16.6	0.00e+00	0	55	0	408944640	56	4326
2026-01-05 04:43:29.33	23.08	19.40	-46.7	-48.3	16.7	0.00e+00	0	55	0	411041792	56	4288
2026-01-05 04:43:30.30	22.87	19.46	-46.8	-48.5	16.6	0.00e+00	0	55	0	412090368	56	4358
2026-01-05 04:43:31.29	22.66	19.52	-46.9	-48.6	16.4	0.00e+00	0	55	0	414187520	56	4428
2026-01-05 04:43:32.27	22.45	19.58	-46.9	-48.6	16.5	0.00e+00	0	55	0	416284672	56	4405
2026-01-05 04:43:33.27	22.24	19.65	-47.0	-48.7	16.3	0.00e+00	0	55	0	418381824	56	4479
2026-01-05 04:43:34.26	22.03	19.71	-46.9	-48.6	16.4	0.00e+00	0	55	0	419430400	56	4407
2026-01-05 04:43:35.26	21.81	19.77	-46.9	-48.6	16.4	0.00e+00	0	55	0	421527552	56	4437
2026-01-05 04:43:36.24	21.60	19.83	-46.8	-48.5	16.5	0.00e+00	0	55	0	423624704	56	4377
2026-01-05 04:43:37.23	21.38	19.89	-46.9	-48.5	16.5	0.00e+00	0	55	0	425721856	56	4387
2026-01-05 04:43:38.21	21.17	19.95	-47.0	-48.7	16.3	0.00e+00	0	55	0	427819008	56	4476
2026-01-05 04:43:39.20	20.95	20.02	-47.1	-48.9	16.1	0.00e+00	0	55	0	428867584	56	4580
2026-01-05 04:43:40.19	20.73	20.08	-46.8	-48.5	16.5	0.00e+00	0	55	0	430964736	56	4359
2026-01-05 04:43:41.18	20.51	20.14	-46.6	-48.2	16.8	0.00e+00	0	55	0	433061888	56	4240
2026-01-05 04:43:42.16	20.30	20.20	-46.6	-48.2	16.9	0.00e+00	0	55	0	435159040	56	4207
2026-01-05 04:43:43.15	20.08	20.26	-46.5	-48.1	16.9	0.00e+00	0	55	0	436207616	56	4169
2026-01-05 04:43:44.14	19.85	20.32	-46.6	-48.2	16.9	0.00e+00	0	55	0	438304768	56	4197
2026-01-05 04:43:45.13	19.63	20.37	-46.6	-48.1	16.9	0.00e+00	0	55	0	440401920	56	4193
2026-01-05 04:43:46.12	19.41	20.43	-46.8	-48.4	16.6	0.00e+00	0	55	0	442499072	56	4321
2026-01-05 04:43:47.11	19.18	20.49	-46.6	-48.1	16.9	0.00e+00	0	55	0	443547648	56	4179
2026-01-05 04:43:48.09	18.96	20.55	-46.5	-48.0	17.0	0.00e+00	0	55	0	445644800	56	4138
2026-01-05 04:43:49.08	18.73	20.61	-46.4	-47.9	17.1	0.00e+00	0	55	0	447741952	56	4096
2026-01-05 04:43:50.07	18.51	20.66	-46.4	-47.9	17.0	0.00e+00	0	55	0	449839104	55	4313
2026-01-05 04:43:51.06	18.28	20.72	-46.5	-48.1	16.8	0.00e+00	0	55	0	450887680	55	4407
2026-01-05 04:43:52.05	18.05	20.78	-46.5	-48.0	16.9	0.00e+00	0	55	0	452984832	55	4386
2026-01-05 04:43:53.04	17.82	20.83	-46.5	-48.1	16.8	0.00e+00	0	55	0	455081984	55	4415
2026-01-05 04:43:54.03	17.59	20.89	-46.6	-48.2	16.7	0.00e+00	0	55	0	457179136	55	4478
2026-01-05 04:43:55.02	17.36	20.95	-46.5	-48.0	16.8	0.00e+00	0	55	0	459276288	55	4390
2026-01-05 04:43:56.00	17.13	21.00	-46.5	-48.1	16.8	0.00e+00	0	55	0	460324864	55	4437
2026-01-05 04:43:56.99	16.90	21.06	-46.5	-48.1	16.9	0.00e+00	0	55	0	462422016	55	4393
2026-01-05 04:43:57.97	16.67	21.11	-46.6	-48.2	16.7	0.00e+00	0	55	0	464519168	55	4457
2026-01-05 04:43:58.96	16.43	21.16	-46.7	-48.4	16.6	0.00e+00	0	55	0	466616320	55	4559
2026-01-05 04:43:59.95	16.20	21.22	-46.6	-48.2	16.7	0.00e+00	0	55	0	467664896	55	4478
2026-01-05 04:44:00.94	15.96	21.27	-46.6	-48.1	16.8	0.00e+00	0	55	0	469762048	55	4434
2026-01-05 04:44:01.94	15.72	21.32	-46.6	-48.2	16.8	0.00e+00	0	55	0	471859200	55	4446
2026-01-05 04:44:02.93	15.48	21.38	-46.4	-47.9	17.0	0.00e+00	0	55	0	473956352	55	4328
2026-01-05 04:44:03.92	15.24	21.43	-46.4	-47.9	17.1	0.00e+00	0	55	0	476053504	55	4299
2026-01-05 04:44:04.91	15.01	21.48	-46.4	-47.9	17.0	0.00e+00	0	55	0	477102080	55	4326
2026-01-05 04:44:05.89	14.77	21.53	-46.5	-48.1	16.9	0.00e+00	0	55	0	479199232	55	4397
2026-01-05 04:44:06.89	14.52	21.58	-46.7	-48.3	16.6	0.00e+00	0	55	0	481296384	55	4539
2026-01-05 04:44:07.88	14.28	21.63	-46.5	-48.0	16.9	0.00e+00	0	55	0	483393536	55	4374
2026-01-05 04:44:08.86	14.04	21.68	-46.2	-47.7	17.3	0.00e+00	0	55	0	484442112	55	4206
2026-01-05 04:44:09.85	13.80	21.73	-46.0	-47.4	17.5	0.00e+00	0	55	0	486539264	55	4094
2026-01-05 04:44:10.85	13.55	21.78	-46.0	-47.4	17.5	0.00e+00	0	55	0	488636416	55	4096
2026-01-05 04:44:11.84	13.31	21.83	-46.1	-47.6	17.4	0.00e+00	0	55	0	490733568	55	4156
2026-01-05 04:44:12.82	13.06	21.88	-46.1	-47.5	17.4	0.00e+00	0	55	0	491782144	55	4138
2026-01-05 04:44:13.81	12.82	21.92	-46.2	-47.7	17.3	0.00e+00	0	55	0	493879296	55	4194
2026-01-05 04:44:14.80	12.57	21.97	-46.2	-47.7	17.2	0.00e+00	0	56	0	495976448	55	4232
2026-01-05 04:44:15.79	12.32	22.02	-46.1	-47.5	17.4	0.00e+00	0	55	0	498073600	55	4126
2026-01-05 04:44:16.79	12.07	22.07	-45.8	-47.2	17.7	0.00e+00	0	55	0	500170752	54	4206
2026-01-05 04:44:17.77	11.82	22.11	-45.7	-47.0	17.9	0.00e+00	0	55	0	501219328	54	4132
2026-01-05 04:44:18.76	11.57	22.16	-45.8	-47.2	17.8	0.00e+00	0	55	0	503316480	54	4197
2026-01-05 04:44:19.76	11.32	22.20	-45.7	-47.1	17.8	0.00e+00	0	55	0	505413632	54	4162
2026-01-05 04:44:20.74	11.07	22.24	-45.8	-47.2	17.7	0.00e+00	0	56	0	507510784	54	4225
2026-01-05 04:44:21.72	10.82	22.29	-45.7	-47.1	17.8	0.00e+00	0	55	0	508559360	54	4169
2026-01-05 04:44:22.72	10.57	22.33	-45.8	-47.2	17.7	0.00e+00	0	55	0	510656512	54	4211
2026-01-05 04:44:23.71	10.31	22.37	-45.8	-47.1	17.7	0.00e+00	0	55	0	512753664	54	4178
2026-01-05 04:44:24.71	10.05	22.42	-45.6	-47.0	17.8	0.00e+00	0	55	0	514850816	54	4104
2026-01-05 04:44:25.70	9.80	22.46	-45.6	-46.9	17.8	0.00e+00	0	55	0	515899392	54	4082
2026-01-05 04:44:26.69	9.54	22.50	-45.6	-46.9	17.7	0.00e+00	0	56	0	517996544	54	4090
2026-01-05 04:44:27.68	9.29	22.54	-45.7	-47.2	17.4	0.00e+00	0	56	0	520093696	54	4201
2026-01-05 04:44:28.67	9.03	22.58	-45.8	-47.3	17.2	0.00e+00	0	56	0	522190848	54	4273
2026-01-05 04:44:29.65	8.77	22.62	-46.0	-47.6	16.8	0.00e+00	0	56	0	523239424	54	4435
2026-01-05 04:44:30.63	8.52	22.66	-46.2	-47.9	16.4	0.00e+00	0	56	0	525336576	54	4567
2026-01-05 04:44:31.62	8.26	22.69	-46.6	-48.5	15.8	0.00e+00	0	55	0	527433728	54	4874
2026-01-05 04:44:32.61	8.00	22.73	-47.4	-49.7	14.5	0.00e+00	0	56	0	529530880	56	4996
2026-01-05 04:44:33.60	7.74	22.77	-47.9	-50.7	13.3	1.37e-05	0	56	0	531628032	57	5306
2026-01-05 04:44:34.60	7.48	22.80	-48.6	-52.2	11.5	1.63e-04	0	56	0	532676608	59	5611
2026-01-05 04:44:35.59	7.21	22.84	-49.1	-53.6	9.9	4.66e-03	0	56	0	534773760	59	6582
2026-01-05 04:44:36.58	6.95	22.88	-49.4	-54.7	8.5	1.54e-02	0	56	0	536870912	60	7120
2026-01-05 04:44:37.56	6.69	22.91	-49.5	-55.2	8.0	7.46e-02	0	56	0	538968064	60	7511
2026-01-05 04:44:38.55	6.43	22.94	-49.4	-55.1	8.1	6.16e-02	0	56	0	540016640	60	7400
2026-01-05 04:44:39.55	6.16	22.98	-49.5	-55.5	7.6	7.77e-02	0	56	0	542113792	60	7797
2026-01-05 04:44:40.54	5.90	23.01	-49.7	-56.0	7.3	1.23e-01	0	56	0	544210944	61	7757
2026-01-05 04:44:41.53	5.63	23.04	-49.7	-55.6	7.7	1.01e-01	0	56	0	546308096	61	7408
2026-01-05 04:44:42.52	5.37	23.07	-49.5	-54.9	8.5	6.18e-02	0	56	0	548405248	61	6845
2026-01-05 04:44:43.51	5.10	23.10	-49.2	-54.0	9.4	3.05e-02	0	56	0	549453824	61	6145
2026-01-05 04:44:44.49	4.84	23.13	-49.1	-53.7	9.8	9.65e-03	0	56	0	551550976	61	5931
2026-01-05 04:44:45.48	4.57	23.16	-49.2	-53.9	9.6	1.25e-02	0	56	0	553648128	61	6070
2026-01-05 04:44:46.47	4.30	23.19	-49.4	-54.3	9.3	1.24e-02	0	56	0	555745280	61	6362
2026-01-05 04:44:47.45	4.03	23.22	-49.6	-55.0	8.5	2.66e-02	0	56	0	556793856	61	6898
2026-01-05 04:44:48.44	3.77	23.25	-49.7	-55.3	8.2	5.08e-02	0	56	0	558891008	61	7188
2026-01-05 04:44:49.43	3.50	23.28	-49.8	-55.2	8.4	6.28e-02	0	55	0	560988160	61	7046
2026-01-05 04:44:50.42	3.23	23.30	-49.4	-53.8	10.1	1.98e-02	0	56	0	563085312	61	5998
2026-01-05 04:44:51.41	2.96	23.33	-48.8	-52.1	12.1	2.51e-03	0	56	0	564133888	60	5247
2026-01-05 04:44:52.40	2.69	23.35	-48.3	-50.9	13.6	3.35e-05	0	56	0	566231040	59	4868
2026-01-05 04:44:53.39	2.42	23.38	-48.1	-50.3	14.5	7.00e-07	0	56	0	568328192	59	4544
2026-01-05 04:44:54.38	2.14	23.40	-48.1	-50.4	14.6	7.00e-07	0	56	0	570425344	59	4557
2026-01-05 04:44:55.38	1.87	23.42	-48.0	-50.1	14.9	0.00e+00	0	56	0	572522496	59	4421
2026-01-05 04:44:56.36	1.60	23.45	-47.7	-49.7	15.3	0.00e+00	0	56	0	573571072	58	4482
2026-01-05 04:44:57.36	1.32	23.47	-47.8	-49.9	15.2	0.00e+00	0	56	0	575668224	58	4554
2026-01-05 04:44:58.35	1.05	23.49	-47.8	-49.8	15.2	0.00e+00	0	56	0	577765376	58	4524
2026-01-05 04:44:59.34	0.78	23.51	-47.9	-50.0	15.1	0.00e+00	0	56	0	579862528	58	4620
2026-01-05 04:45:00.32	0.51	23.53	-47.9	-50.1	14.9	0.00e+00	0	56	0	580911104	58	4681
2026-01-05 04:45:01.31	0.23	23.55	-48.2	-50.5	14.5	0.00e+00	0	56	0	583008256	58	4919
2026-01-05 04:45:02.30	359.96	23.57	-48.3	-50.6	14.4	0.00e+00	0	56	0	585105408	58	4982
2026-01-05 04:45:03.28	359.69	23.58	-48.1	-50.3	14.7	7.00e-07	0	56	0	587202560	58	4801
2026-01-05 04:45:04.27	359.41	23.60	-48.0	-50.2	14.9	0.00e+00	0	56	0	588251136	58	4709
2026-01-05 04:45:05.26	359.14	23.62	-47.9	-50.1	15.1	0.00e+00	0	56	0	590348288	58	4659
2026-01-05 04:45:06.25	358.86	23.63	-47.9	-50.1	15.0	0.00e+00	0	56	0	592445440	58	4660
2026-01-05 04:45:07.24	358.59	23.65	-47.9	-50.1	15.0	0.00e+00	0	56	0	594542592	58	4659
2026-01-05 04:45:08.23	358.31	23.66	-47.9	-50.0	15.1	0.00e+00	0	56	0	596639744	58	4608
2026-01-05 04:45:09.21	358.04	23.67	-48.0	-50.2	14.9	0.00e+00	0	56	0	597688320	58	4707
2026-01-05 04:45:10.21	357.76	23.68	-48.1	-50.3	14.8	0.00e+00	0	56	0	599785472	58	4761
2026-01-05 04:45:11.20	357.48	23.70	-47.8	-49.8	15.2	0.00e+00	0	56	0	601882624	58	4527
2026-01-05 04:45:12.19	357.20	23.71	-47.6	-49.6	15.5	0.00e+00	0	56	0	603979776	58	4402
2026-01-05 04:45:13.18	356.93	23.72	-47.6	-49.6	15.4	0.00e+00	0	56	0	605028352	58	4435
2026-01-05 04:45:14.17	356.65	23.73	-47.8	-49.8	15.3	0.00e+00	0	56	0	607125504	58	4512
2026-01-05 04:45:15.16	356.37	23.74	-47.9	-49.9	15.1	0.00e+00	0	56	0	609222656	58	4596
2026-01-05 04:45:16.14	356.10	23.74	-47.9	-50.1	15.0	0.00e+00	0	56	0	611319808	58	4664
2026-01-05 04:45:17.13	355.82	23.75	-47.9	-50.0	15.1	7.00e-07	0	56	0	612368384	58	4602
2026-01-05 04:45:18.11	355.54	23.76	-48.0	-50.1	14.9	0.00e+00	0	56	0	614465536	58	4697
2026-01-05 04:45:19.10	355.27	23.77	-48.0	-50.2	14.9	0.00e+00	0	56	0	616562688	58	4737
2026-01-05 04:45:20.09	354.99	23.77	-47.8	-49.8	15.2	0.00e+00	0	56	0	618659840	58	4544
2026-01-05 04:45:21.07	354.71	23.77	-47.8	-49.9	15.2	0.00e+00	0	56	0	619708416	58	4560
2026-01-05 04:45:22.07	354.43	23.78	-47.9	-50.0	15.1	0.00e+00	0	56	0	621805568	58	4626
2026-01-05 04:45:23.06	354.15	23.78	-48.1	-50.3	14.8	0.00e+00	0	56	0	623902720	58	4800
2026-01-05 04:45:24.04	353.88	23.78	-47.9	-50.1	15.0	0.00e+00	0	56	0	625999872	58	4666
2026-01-05 04:45:25.03	353.60	23.79	-47.9	-50.0	15.1	0.00e+00	0	56	0	628097024	58	4607
2026-01-05 04:45:26.03	353.32	23.79	-48.1	-50.4	14.7	0.00e+00	0	56	0	629145600	58	4822
2026-01-05 04:45:27.02	353.04	23.79	-48.3	-50.6	14.5	1.50e-06	0	56	0	631242752	58	4954
2026-01-05 04:45:28.00	352.76	23.79	-47.9	-50.1	15.0	7.00e-07	0	56	0	633339904	58	4675
2026-01-05 04:45:28.99	352.48	23.79	-47.7	-49.7	15.4	0.00e+00	0	56	0	635437056	58	4444
2026-01-05 04:45:29.97	352.21	23.78	-47.4	-49.3	15.8	0.00e+00	0	56	0	636485632	57	4528
2026-01-05 04:45:30.96	351.93	23.78	-47.4	-49.3	15.8	0.00e+00	0	56	0	638582784	57	4508
2026-01-05 04:45:31.94	351.66	23.78	-47.3	-49.1	15.9	0.00e+00	0	56	0	640679936	57	4425
2026-01-05 04:45:32.94	351.37	23.77	-47.4	-49.2	15.8	0.00e+00	0	56	0	642777088	57	4484
2026-01-05 04:45:33.92	351.10	23.77	-47.4	-49.2	15.9	0.00e+00	0	56	0	643825664	57	4474
2026-01-05 04:45:34.92	350.82	23.76	-47.5	-49.4	15.6	0.00e+00	0	56	0	645922816	57	4578
2026-01-05 04:45:35.91	350.54	23.76	-47.3	-49.1	16.0	0.00e+00	0	56	0	648019968	57	4410
2026-01-05 04:45:36.89	350.26	23.75	-46.9	-48.7	16.3	0.00e+00	0	56	0	650117120	57	4224
2026-01-05 04:45:37.88	349.99	23.74	-46.8	-48.4	16.6	0.00e+00	0	56	0	652214272	56	4318
2026-01-05 04:45:38.86	349.71	23.73	-46.7	-48.3	16.7	0.00e+00	0	56	0	653262848	56	4280
2026-01-05 04:45:39.85	349.43	23.72	-46.7	-48.3	16.7	0.00e+00	0	56	0	655360000	56	4281
2026-01-05 04:45:40.85	349.15	23.71	-46.6	-48.2	16.9	0.00e+00	0	56	0	657457152	56	4203
2026-01-05 04:45:41.84	348.88	23.70	-46.6	-48.2	16.9	0.00e+00	0	56	0	659554304	56	4194
2026-01-05 04:45:42.83	348.60	23.69	-46.6	-48.2	16.9	0.00e+00	0	56	0	660602880	56	4194
2026-01-05 04:45:43.82	348.32	23.68	-46.7	-48.4	16.7	0.00e+00	0	56	0	662700032	56	4294
2026-01-05 04:45:44.81	348.05	23.67	-46.9	-48.5	16.5	0.00e+00	0	56	0	664797184	56	4382
2026-01-05 04:45:45.80	347.77	23.65	-46.6	-48.2	16.8	0.00e+00	0	56	0	666894336	56	4208
2026-01-05 04:45:46.78	347.50	23.64	-46.1	-47.6	17.3	0.00e+00	0	56	0	667942912	55	4158
2026-01-05 04:45:47.78	347.22	23.62	-45.9	-47.3	17.6	0.00e+00	0	56	0	670040064	54	4249
2026-01-05 04:45:48.77	346.94	23.61	-45.9	-47.2	17.7	0.00e+00	0	56	0	672137216	54	4238
2026-01-05 04:45:49.75	346.67	23.59	-45.9	-47.4	17.5	0.00e+00	0	56	0	674234368	54	4302
2026-01-05 04:45:50.74	346.40	23.57	-46.0	-47.4	17.3	0.00e+00	0	56	0	676331520	54	4340
2026-01-05 04:45:51.72	346.13	23.56	-45.9	-47.3	17.6	0.00e+00	0	56	0	677380096	54	4262
2026-01-05 04:45:52.71	345.85	23.54	-45.7	-47.1	17.9	0.00e+00	0	56	0	679477248	54	4148
2026-01-05 04:45:53.69	345.58	23.52	-45.7	-47.1	17.8	0.00e+00	0	56	0	681574400	54	4160
2026-01-05 04:45:54.69	345.30	23.50	-45.9	-47.3	17.6	0.00e+00	0	56	0	683671552	54	4248
2026-01-05 04:45:55.68	345.03	23.48	-45.8	-47.2	17.7	0.00e+00	0	56	0	684720128	54	4225
2026-01-05 04:45:56.66	344.76	23.46	-45.9	-47.3	17.6	0.00e+00	0	56	0	686817280	54	4280
2026-01-05 04:45:57.64	344.49	23.43	-45.8	-47.1	17.8	0.00e+00	0	56	0	688914432	54	4182
2026-01-05 04:45:58.64	344.22	23.41	-45.6	-46.8	18.1	0.00e+00	0	56	0	691011584	54	4049
2026-01-05 04:45:59.63	343.94	23.39	-45.4	-46.6	18.3	0.00e+00	0	56	0	692060160	54	3953
2026-01-05 04:46:00.61	343.68	23.36	-45.3	-46.6	18.3	0.00e+00	0	56	0	694157312	53	4164
2026-01-05 04:46:01.61	343.40	23.34	-45.4	-46.6	18.2	0.00e+00	0	56	0	696254464	53	4188
2026-01-05 04:46:02.60	343.13	23.31	-45.4	-46.7	18.2	0.00e+00	0	56	0	698351616	53	4207
2026-01-05 04:46:03.58	342.87	23.29	-45.6	-46.9	18.0	0.00e+00	0	56	0	699400192	53	4302
2026-01-05 04:46:04.57	342.60	23.26	-45.6	-46.9	17.9	0.00e+00	0	56	0	701497344	53	4333
2026-01-05 04:46:05.57	342.32	23.23	-45.7	-47.1	17.8	0.00e+00	0	56	0	703594496	53	4405
2026-01-05 04:46:06.55	342.06	23.21	-45.9	-47.3	17.6	0.00e+00	0	56	0	705691648	53	4496
2026-01-05 04:46:07.54	341.79	23.18	-46.0	-47.4	17.5	0.00e+00	0	56	0	707788800	53	4581
2026-01-05 04:46:08.52	341.53	23.15	-45.9	-47.3	17.6	0.00e+00	0	56	0	708837376	53	4538
2026-01-05 04:46:09.51	341.26	23.12	-45.9	-47.4	17.5	0.00e+00	0	56	0	710934528	53	4559
2026-01-05 04:46:10.49	340.99	23.09	-45.8	-47.3	17.6	0.00e+00	0	56	0	713031680	53	4495
2026-01-05 04:46:11.48	340.73	23.06	-45.8	-47.2	17.7	0.00e+00	0	56	0	715128832	53	4457
2026-01-05 04:46:12.47	340.46	23.03	-45.8	-47.3	17.7	0.00e+00	0	56	0	716177408	53	4494
2026-01-05 04:46:13.46	340.20	22.99	-46.0	-47.5	17.5	0.00e+00	0	56	0	718274560	53	4606
2026-01-05 04:46:14.45	339.93	22.96	-46.2	-47.7	17.2	0.00e+00	0	56	0	720371712	54	4471
2026-01-05 04:46:15.45	339.67	22.93	-46.2	-47.6	17.3	0.00e+00	0	56	0	722468864	54	4437
2026-01-05 04:46:16.44	339.40	22.89	-46.3	-47.7	17.2	0.00e+00	0	56	0	723517440	54	4488
2026-01-05 04:46:17.42	339.14	22.86	-46.3	-47.8	17.1	0.00e+00	0	56	0	725614592	54	4537
2026-01-05 04:46:18.41	338.88	22.82	-46.4	-48.0	17.0	0.00e+00	0	56	0	727711744	54	4617
2026-01-05 04:46:19.39	338.62	22.79	-46.7	-48.3	16.6	0.00e+00	0	56	0	729808896	55	4543
2026-01-05 04:46:20.39	338.36	22.75	-46.8	-48.5	16.4	0.00e+00	0	56	0	731906048	55	4634
2026-01-05 04:46:21.38	338.10	22.71	-47.0	-48.9	16.0	0.00e+00	0	56	0	732954624	55	4820
2026-01-05 04:46:22.36	337.84	22.67	-47.2	-49.1	15.9	0.00e+00	0	56	0	735051776	56	4666
2026-01-05 04:46:23.35	337.58	22.64	-47.0	-48.8	16.2	0.00e+00	0	56	0	737148928	56	4516
2026-01-05 04:46:24.34	337.33	22.60	-47.1	-48.9	16.1	0.00e+00	0	56	0	739246080	56	4571
2026-01-05 04:46:25.34	337.07	22.56	-47.2	-49.0	15.9	0.00e+00	0	56	0	740294656	56	4649
2026-01-05 04:46:26.33	336.81	22.52	-47.0	-48.8	16.1	0.00e+00	0	56	0	742391808	56	4536
2026-01-05 04:46:27.32	336.55	22.48	-47.1	-48.9	16.0	0.00e+00	0	56	0	744488960	56	4571
2026-01-05 04:46:28.31	336.30	22.44	-47.3	-49.1	15.7	0.00e+00	0	56	0	746586112	56	4698
2026-01-05 04:46:29.30	336.04	22.39	-47.4	-49.5	15.4	0.00e+00	0	56	0	747634688	56	4894
2026-01-05 04:46:30.28	335.79	22.35	-47.6	-49.8	14.9	0.00e+00	0	56	0	749731840	57	4771
2026-01-05 04:46:31.27	335.54	22.31	-48.1	-50.6	14.1	0.00e+00	0	56	0	751828992	58	4938
2026-01-05 04:46:32.25	335.29	22.27	-48.4	-51.1	13.5	6.10e-06	0	56	0	753926144	58	5263
2026-01-05 04:46:33.25	335.03	22.22	-48.8	-51.9	12.7	3.43e-05	0	56	0	754974720	59	5415
2026-01-05 04:46:34.24	334.78	22.18	-48.9	-52.2	12.2	1.61e-04	0	56	0	757071872	59	5602
2026-01-05 04:46:35.22	334.53	22.13	-49.0	-52.3	12.1	3.11e-04	0	56	0	759169024	59	5681
2026-01-05 04:46:36.21	334.28	22.09	-48.7	-51.8	12.6	1.81e-04	0	56	0	761266176	59	5375
2026-01-05 04:46:37.20	334.03	22.04	-48.6	-51.3	13.4	2.36e-05	0	56	0	763363328	59	5071
2026-01-05 04:46:38.19	333.79	22.00	-48.4	-50.8	14.1	2.20e-06	0	56	0	764411904	59	4799
2026-01-05 04:46:39.18	333.54	21.95	-48.3	-50.5	14.5	2.20e-06	0	56	0	766509056	59	4649
2026-01-05 04:46:40.17	333.29	21.90	-48.3	-50.6	14.5	1.50e-06	0	56	0	768606208	59	4658
2026-01-05 04:46:41.16	333.05	21.85	-48.0	-50.3	14.8	0.00e+00	0	56	0	770703360	59	4496
2026-01-05 04:46:42.15	332.80	21.81	-48.3	-50.6	14.5	7.00e-07	0	56	0	771751936	59	4664
2026-01-05 04:46:43.14	332.56	21.76	-48.5	-50.9	14.2	1.50e-06	0	56	0	773849088	59	4821
2026-01-05 04:46:44.13	332.31	21.71	-48.2	-50.4	14.7	7.00e-07	0	56	0	775946240	59	4585
2026-01-05 04:46:45.13	332.07	21.66	-47.9	-50.1	15.0	7.00e-07	0	56	0	778043392	59	4398
2026-01-05 04:46:46.11	331.83	21.61	-47.9	-49.9	15.2	0.00e+00	0	56	0	779091968	58	4588
2026-01-05 04:46:47.10	331.58	21.56	-47.9	-50.0	15.1	0.00e+00	0	56	0	781189120	58	4601
2026-01-05 04:46:48.09	331.34	21.51	-48.0	-50.0	15.1	0.00e+00	0	56	0	783286272	58	4646
2026-01-05 04:46:49.08	331.10	21.45	-47.6	-49.6	15.5	0.00e+00	0	56	0	785383424	58	4425
2026-01-05 04:46:50.07	330.87	21.40	-47.4	-49.4	15.7	0.00e+00	0	57	0	787480576	58	4306
2026-01-05 04:46:51.06	330.63	21.35	-47.5	-49.3	15.8	0.00e+00	0	56	0	788529152	57	4529
2026-01-05 04:46:52.05	330.39	21.30	-47.4	-49.3	15.8	0.00e+00	0	56	0	790626304	57	4507
2026-01-05 04:46:53.04	330.15	21.24	-47.6	-49.6	15.6	0.00e+00	0	56	0	792723456	57	4658
2026-01-05 04:46:54.03	329.92	21.19	-47.7	-49.6	15.4	0.00e+00	0	56	0	794820608	57	4693
2026-01-05 04:46:55.02	329.68	21.14	-47.9	-50.0	15.1	0.00e+00	0	56	0	795869184	57	4916
2026-01-05 04:46:56.01	329.45	21.08	-48.0	-50.2	14.9	0.00e+00	0	56	0	797966336	57	4996
2026-01-05 04:46:57.00	329.22	21.03	-48.0	-50.1	15.0	0.00e+00	0	56	0	800063488	57	4937
2026-01-05 04:46:57.99	328.98	20.97	-48.0	-50.1	15.0	0.00e+00	0	56	0	802160640	57	4943
2026-01-05 04:46:58.98	328.75	20.92	-48.0	-50.2	14.9	0.00e+00	0	56	0	804257792	57	4990
2026-01-05 04:46:59.97	328.52	20.86	-48.1	-50.3	14.8	0.00e+00	0	56	0	805306368	58	4779
2026-01-05 04:47:00.97	328.29	20.80	-47.9	-50.0	15.1	0.00e+00	0	57	0	807403520	58	4638
2026-01-05 04:47:01.95	328.06	20.75	-48.1	-50.3	14.9	0.00e+00	0	56	0	809500672	58	4764
2026-01-05 04:47:02.94	327.83	20.69	-47.9	-50.0	15.1	1.50e-06	0	56	0	811597824	58	4617
2026-01-05 04:47:03.92	327.61	20.64	-47.7	-49.8	15.3	0.00e+00	0	56	0	812646400	58	4499
2026-01-05 04:47:04.91	327.38	20.58	-47.6	-49.6	15.5	0.00e+00	0	56	0	814743552	58	4427
2026-01-05 04:47:05.90	327.16	20.52	-47.7	-49.6	15.5	0.00e+00	0	56	0	816840704	58	4424
2026-01-05 04:47:06.89	326.93	20.46	-47.6	-49.5	15.6	0.00e+00	0	56	0	818937856	58	4389
2026-01-05 04:47:07.89	326.70	20.40	-47.5	-49.3	15.8	0.00e+00	0	56	0	819986432	58	4272
2026-01-05 04:47:08.87	326.48	20.34	-47.2	-49.1	16.0	0.00e+00	0	56	0	822083584	57	4407
2026-01-05 04:47:09.86	326.26	20.28	-47.2	-49.0	16.1	0.00e+00	0	56	0	824180736	57	4365
2026-01-05 04:47:10.84	326.04	20.23	-47.1	-48.9	16.2	0.00e+00	0	56	0	826277888	57	4296
2026-01-05 04:47:11.83	325.82	20.17	-47.2	-48.9	16.2	0.00e+00	0	56	0	828375040	57	4307
2026-01-05 04:47:12.82	325.60	20.11	-47.3	-49.1	16.0	0.00e+00	0	56	0	829423616	57	4425
2026-01-05 04:47:13.81	325.38	20.05	-47.3	-49.2	15.9	0.00e+00	0	56	0	831520768	57	4444
2026-01-05 04:47:14.81	325.16	19.98	-47.4	-49.2	15.8	0.00e+00	0	56	0	833617920	57	4484
2026-01-05 04:47:15.79	324.95	19.92	-47.5	-49.4	15.7	0.00e+00	0	56	0	835715072	57	4560
2026-01-05 04:47:16.77	324.74	19.86	-47.4	-49.2	15.9	0.00e+00	0	56	0	836763648	57	4478
2026-01-05 04:47:17.76	324.52	19.80	-47.2	-49.1	16.0	0.00e+00	0	56	0	838860800	57	4403
2026-01-05 04:47:18.75	324.31	19.74	-47.3	-49.2	15.9	0.00e+00	0	56	0	840957952	57	4467
2026-01-05 04:47:19.75	324.09	19.68	-47.3	-49.2	15.9	0.00e+00	0	56	0	843055104	57	4453
2026-01-05 04:47:20.74	323.88	19.61	-47.5	-49.4	15.7	0.00e+00	0	56	0	844103680	57	4583
2026-01-05 04:47:21.73	323.67	19.55	-47.4	-49.3	15.7	0.00e+00	0	56	0	846200832	57	4541
2026-01-05 04:47:22.70	323.46	19.49	-47.3	-49.1	15.9	0.00e+00	0	56	0	848297984	57	4436
2026-01-05 04:47:23.68	323.25	19.43	-47.3	-49.2	15.9	0.00e+00	0	56	0	850395136	57	4452
2026-01-05 04:47:24.67	323.04	19.36	-47.5	-49.4	15.7	0.00e+00	0	56	0	851443712	57	4572
2026-01-05 04:47:25.65	322.84	19.30	-47.5	-49.4	15.7	0.00e+00	0	56	0	853540864	57	4552
2026-01-05 04:47:26.64	322.63	19.24	-47.4	-49.3	15.8	0.00e+00	0	56	0	855638016	57	4525
2026-01-05 04:47:27.63	322.42	19.17	-47.5	-49.4	15.7	0.00e+00	0	56	0	857735168	57	4570
2026-01-05 04:47:28.62	322.22	19.11	-47.4	-49.3	15.8	0.00e+00	0	56	0	859832320	57	4494
2026-01-05 04:47:29.61	322.01	19.04	-47.3	-49.1	15.9	0.00e+00	0	56	0	860880896	57	4440
2026-01-05 04:47:30.59	321.81	18.98	-47.3	-49.2	15.9	0.00e+00	0	56	0	862978048	57	4455
2026-01-05 04:47:31.58	321.61	18.91	-47.4	-49.2	15.9	0.00e+00	0	56	0	865075200	57	4478
2026-01-05 04:47:32.57	321.40	18.85	-47.3	-49.1	16.0	0.00e+00	0	56	0	867172352	57	4405
2026-01-05 04:47:33.56	321.20	18.78	-47.3	-49.1	15.9	0.00e+00	0	56	0	868220928	57	4421
2026-01-05 04:47:34.54	321.01	18.72	-47.4	-49.2	15.8	0.00e+00	0	56	0	870318080	57	4487
2026-01-05 04:47:35.53	320.81	18.65	-47.4	-49.2	15.8	0.00e+00	0	56	0	872415232	57	4479
2026-01-05 04:47:36.52	320.61	18.59	-47.5	-49.5	15.6	0.00e+00	0	56	0	874512384	57	4610
2026-01-05 04:47:37.51	320.41	18.52	-47.6	-49.5	15.5	0.00e+00	0	56	0	875560960	57	4633
2026-01-05 04:47:38.50	320.21	18.46	-47.5	-49.4	15.6	0.00e+00	0	56	0	877658112	57	4581
2026-01-05 04:47:39.50	320.01	18.39	-47.5	-49.5	15.6	0.00e+00	0	56	0	879755264	57	4613
2026-01-05 04:47:40.49	319.82	18.32	-47.7	-49.7	15.3	0.00e+00	0	56	0	881852416	57	4738
2026-01-05 04:47:41.48	319.62	18.25	-47.7	-49.8	15.3	7.00e-07	0	56	0	883949568	57	4766
2026-01-05 04:47:42.48	319.43	18.19	-47.7	-49.8	15.3	0.00e+00	0	57	0	884998144	57	4767
2026-01-05 04:47:43.47	319.24	18.12	-47.9	-50.0	15.1	0.00e+00	0	56	0	887095296	57	4874
2026-01-05 04:47:44.46	319.05	18.05	-47.9	-50.0	15.0	0.00e+00	0	56	0	889192448	57	4888
2026-01-05 04:47:45.45	318.85	17.99	-47.7	-49.7	15.3	0.00e+00	0	57	0	891289600	57	4759
2026-01-05 04:47:46.43	318.67	17.92	-47.7	-49.7	15.3	0.00e+00	0	56	0	892338176	57	4729
2026-01-05 04:47:47.42	318.48	17.85	-47.7	-49.7	15.3	0.00e+00	0	56	0	894435328	57	4719
2026-01-05 04:47:48.42	318.29	17.78	-47.7	-49.7	15.3	0.00e+00	0	56	0	896532480	57	4728
2026-01-05 04:47:49.40	318.10	17.71	-47.7	-49.8	15.2	0.00e+00	0	57	0	898629632	57	4791
2026-01-05 04:47:50.38	317.92	17.65	-47.8	-49.9	15.2	0.00e+00	0	56	0	899678208	57	4823
2026-01-05 04:47:51.37	317.73	17.58	-47.7	-49.7	15.3	0.00e+00	0	56	0	901775360	57	4737
2026-01-05 04:47:52.35	317.55	17.51	-47.5	-49.4	15.6	0.00e+00	0	56	0	903872512	57	4589
2026-01-05 04:47:53.34	317.36	17.44	-47.4	-49.2	15.8	0.00e+00	0	56	0	905969664	57	4488
2026-01-05 04:47:54.34	317.18	17.37	-47.3	-49.2	15.8	0.00e+00	0	56	0	908066816	57	4451
2026-01-05 04:47:55.32	317.00	17.31	-47.3	-49.2	15.8	0.00e+00	0	56	0	909115392	57	4473
2026-01-05 04:47:56.31	316.82	17.24	-47.5	-49.4	15.6	0.00e+00	0	56	0	911212544	57	4559
2026-01-05 04:47:57.31	316.63	17.17	-47.6	-49.7	15.3	0.00e+00	0	57	0	913309696	57	4713
2026-01-05 04:47:58.29	316.46	17.10	-47.7	-49.7	15.3	0.00e+00	0	56	0	915406848	57	4733
2026-01-05 04:47:59.28	316.28	17.03	-47.5	-49.5	15.5	0.00e+00	0	56	0	916455424	57	4628
2026-01-05 04:48:00.27	316.10	16.96	-47.5	-49.4	15.6	0.00e+00	0	56	0	918552576	57	4593
2026-01-05 04:48:01.26	315.92	16.89	-47.4	-49.4	15.7	0.00e+00	0	56	0	920649728	57	4556
2026-01-05 04:48:02.25	315.75	16.82	-47.6	-49.5	15.5	0.00e+00	0	56	0	922746880	57	4631
2026-01-05 04:48:03.24	315.57	16.75	-47.5	-49.4	15.6	0.00e+00	0	56	0	923795456	57	4570
2026-01-05 04:48:04.23	315.39	16.68	-47.3	-49.1	15.9	0.00e+00	0	56	0	925892608	57	4424
2026-01-05 04:48:05.22	315.22	16.61	-47.1	-49.0	16.1	0.00e+00	0	56	0	927989760	57	4342
2026-01-05 04:48:06.21	315.05	16.54	-47.2	-49.0	16.0	0.00e+00	0	56	0	930086912	57	4345
2026-01-05 04:48:07.20	314.88	16.47	-47.2	-49.0	16.0	0.00e+00	0	56	0	931135488	57	4365
2026-01-05 04:48:08.19	314.70	16.40	-47.3	-49.2	15.8	0.00e+00	0	56	0	933232640	57	4480
2026-01-05 04:48:09.18	314.53	16.33	-47.4	-49.4	15.6	0.00e+00	0	56	0	935329792	57	4589
2026-01-05 04:48:10.17	314.36	16.26	-47.5	-49.3	15.7	0.00e+00	0	56	0	937426944	57	4545
2026-01-05 04:48:11.16	314.19	16.19	-47.5	-49.5	15.5	0.00e+00	0	56	0	939524096	57	4627
2026-01-05 04:48:12.15	314.03	16.12	-47.4	-49.2	15.8	0.00e+00	0	56	0	940572672	57	4490
2026-01-05 04:48:13.14	313.86	16.05	-47.1	-48.9	16.1	0.00e+00	0	57	0	942669824	57	4317
2026-01-05 04:48:14.13	313.69	15.98	-46.9	-48.7	16.3	0.00e+00	0	56	0	944766976	57	4209
2026-01-05 04:48:15.12	313.52	15.91	-46.9	-48.6	16.4	0.00e+00	0	56	0	946864128	57	4186
2026-01-05 04:48:16.11	313.36	15.84	-46.9	-48.6	16.4	0.00e+00	0	56	0	947912704	56	4392
2026-01-05 04:48:17.10	313.20	15.77	-46.7	-48.3	16.7	0.00e+00	0	57	0	950009856	56	4268
2026-01-05 04:48:18.09	313.03	15.70	-46.5	-48.1	16.8	0.00e+00	0	56	0	952107008	56	4190
2026-01-05 04:48:19.08	312.87	15.63	-46.6	-48.1	16.9	0.00e+00	0	56	0	954204160	56	4185
2026-01-05 04:48:20.08	312.71	15.56	-46.6	-48.2	16.8	0.00e+00	0	56	0	956301312	56	4215
2026-01-05 04:48:21.06	312.55	15.49	-46.5	-48.1	16.9	0.00e+00	0	56	0	957349888	56	4150
2026-01-05 04:48:22.05	312.38	15.42	-46.5	-48.1	16.9	0.00e+00	0	56	0	959447040	56	4165
2026-01-05 04:48:23.03	312.23	15.35	-46.6	-48.2	16.8	0.00e+00	0	56	0	961544192	56	4233
2026-01-05 04:48:24.02	312.07	15.28	-46.6	-48.3	16.7	0.00e+00	0	57	0	963641344	56	4245
2026-01-05 04:48:25.01	311.91	15.21	-46.7	-48.3	16.7	0.00e+00	0	56	0	964689920	56	4253
2026-01-05 04:48:26.00	311.75	15.14	-46.8	-48.5	16.5	0.00e+00	0	56	0	966787072	56	4358
2026-01-05 04:48:26.99	311.60	15.07	-46.7	-48.4	16.7	0.00e+00	0	56	0	968884224	56	4294
2026-01-05 04:48:27.98	311.44	15.00	-46.7	-48.3	16.6	0.00e+00	0	56	0	970981376	56	4279
2026-01-05 04:48:28.97	311.28	14.93	-46.6	-48.2	16.7	0.00e+00	0	56	0	972029952	56	4236
2026-01-05 04:48:29.96	311.13	14.86	-46.8	-48.4	16.5	0.00e+00	0	57	0	974127104	56	4322
2026-01-05 04:48:30.94	310.98	14.79	-46.6	-48.2	16.8	0.00e+00	0	56	0	976224256	56	4221
2026-01-05 04:48:31.93	310.82	14.72	-46.5	-48.1	16.8	0.00e+00	0	57	0	978321408	56	4173
2026-01-05 04:48:32.92	310.67	14.65	-46.6	-48.2	16.8	0.00e+00	0	56	0	980418560	56	4210
2026-01-05 04:48:33.90	310.52	14.58	-46.5	-48.1	16.8	0.00e+00	0	56	0	981467136	56	4181
2026-01-05 04:48:34.89	310.37	14.51	-46.7	-48.4	16.6	0.00e+00	0	57	0	983564288	56	4308
2026-01-05 04:48:35.88	310.22	14.44	-46.6	-48.3	16.7	0.00e+00	0	56	0	985661440	56	4248
2026-01-05 04:48:36.87	310.07	14.37	-46.7	-48.3	16.6	0.00e+00	0	56	0	987758592	56	4283
2026-01-05 04:48:37.86	309.92	14.30	-46.8	-48.5	16.4	0.00e+00	0	56	0	988807168	56	4376
2026-01-05 04:48:38.85	309.77	14.23	-46.8	-48.5	16.5	0.00e+00	0	56	0	990904320	56	4350
2026-01-05 04:48:39.83	309.63	14.16	-46.7	-48.3	16.6	0.00e+00	0	56	0	993001472	56	4290
2026-01-05 04:48:40.82	309.48	14.09	-46.6	-48.3	16.6	0.00e+00	0	56	0	995098624	56	4266
2026-01-05 04:48:41.81	309.34	14.01	-46.8	-48.5	16.5	0.00e+00	0	56	0	996147200	56	4354
2026-01-05 04:48:42.80	309.19	13.94	-46.9	-48.7	16.3	0.00e+00	0	57	0	998244352	56	4457
2026-01-05 04:48:43.80	309.05	13.87	-46.9	-48.7	16.3	0.00e+00	0	56	0	1000341504	56	4453
2026-01-05 04:48:44.78	308.90	13.80	-47.0	-48.8	16.2	0.00e+00	0	57	0	1002438656	56	4495
2026-01-05 04:48:45.77	308.76	13.73	-47.1	-49.0	16.0	0.00e+00	0	57	0	1004535808	56	4605
2026-01-05 04:48:46.76	308.62	13.66	-47.1	-48.9	16.0	0.00e+00	0	56	0	1005584384	56	4577
2026-01-05 04:48:47.75	308.48	13.59	-47.2	-49.1	15.8	0.00e+00	0	57	0	1007681536	56	4690
2026-01-05 04:48:48.73	308.34	13.52	-47.4	-49.4	15.6	0.00e+00	0	57	0	1009778688	56	4823
2026-01-05 04:48:49.73	308.20	13.45	-47.4	-49.4	15.5	0.00e+00	0	57	0	1011875840	56	4847
2026-01-05 04:48:50.72	308.06	13.38	-47.5	-49.5	15.4	0.00e+00	0	57	0	1012924416	56	4903
2026-01-05 04:48:51.71	307.92	13.31	-47.5	-49.5	15.4	0.00e+00	0	56	0	1015021568	57	4639
2026-01-05 04:48:52.70	307.78	13.24	-47.5	-49.6	15.4	7.00e-07	0	56	0	1017118720	57	4661
2026-01-05 04:48:53.69	307.64	13.17	-47.6	-49.6	15.3	0.00e+00	0	56	0	1019215872	57	4701
2026-01-05 04:48:54.67	307.51	13.10	-47.5	-49.6	15.3	7.00e-07	0	56	0	1020264448	57	4669
2026-01-05 04:48:55.66	307.37	13.03	-47.4	-49.4	15.5	0.00e+00	0	56	0	1022361600	57	4577
2026-01-05 04:48:56.65	307.23	12.96	-47.4	-49.3	15.6	0.00e+00	0	57	0	1024458752	57	4516
2026-01-05 04:48:57.64	307.10	12.89	-47.4	-49.4	15.5	0.00e+00	0	56	0	1026555904	57	4579
2026-01-05 04:48:58.63	306.96	12.82	-47.4	-49.4	15.5	0.00e+00	0	56	0	1027604480	57	4557
2026-01-05 04:48:59.62	306.83	12.75	-47.3	-49.2	15.7	0.00e+00	0	56	0	1029701632	57	4490
2026-01-05 04:49:00.61	306.70	12.68	-47.3	-49.3	15.6	0.00e+00	0	56	0	1031798784	57	4504
2026-01-05 04:49:01.60	306.57	12.61	-47.5	-49.6	15.3	0.00e+00	0	56	0	1033895936	57	4681
2026-01-05 04:49:02.59	306.43	12.54	-47.6	-49.6	15.3	0.00e+00	0	57	0	1035993088	57	4688
2026-01-05 04:49:03.58	306.30	12.47	-47.4	-49.4	15.5	0.00e+00	0	57	0	1037041664	57	4585
2026-01-05 04:49:04.57	306.17	12.40	-47.4	-49.5	15.4	0.00e+00	0	57	0	1039138816	57	4605
2026-01-05 04:49:05.56	306.04	12.33	-47.5	-49.5	15.4	0.00e+00	0	56	0	1041235968	57	4620
2026-01-05 04:49:06.54	305.91	12.26	-47.6	-49.6	15.3	0.00e+00	0	56	0	1043333120	57	4686
2026-01-05 04:49:07.53	305.79	12.19	-47.7	-49.9	15.0	0.00e+00	0	56	0	1044381696	57	4824
2026-01-05 04:49:08.52	305.66	12.12	-47.8	-50.0	14.9	0.00e+00	0	57	0	1046478848	57	4892
2026-01-05 04:49:09.51	305.53	12.06	-47.8	-49.9	14.9	0.00e+00	0	57	0	1048576000	57	4841
2026-01-05 04:49:10.50	305.40	11.99	-47.8	-50.0	14.9	0.00e+00	0	57	0	1050673152	57	4883
2026-01-05 04:49:11.49	305.28	11.92	-47.8	-50.0	14.8	0.00e+00	0	57	0	1051721728	57	4920
2026-01-05 04:49:12.48	305.15	11.85	-47.9	-50.1	14.7	7.00e-07	0	57	0	1053818880	57	4971
2026-01-05 04:49:13.47	305.03	11.78	-48.1	-50.4	14.5	0.00e+00	0	57	0	1055916032	57	5110
2026-01-05 04:49:14.46	304.90	11.71	-48.1	-50.3	14.5	1.50e-06	0	56	0	1058013184	57	5087
2026-01-05 04:49:15.45	304.78	11.64	-48.0	-50.3	14.6	7.00e-07	0	57	0	1060110336	57	5058
2026-01-05 04:49:16.43	304.66	11.57	-48.1	-50.4	14.5	0.00e+00	0	57	0	1061158912	58	4823
2026-01-05 04:49:17.41	304.54	11.50	-48.1	-50.3	14.5	0.00e+00	0	57	0	1063256064	58	4814
2026-01-05 04:49:18.41	304.41	11.43	-48.0	-50.3	14.5	7.00e-07	0	57	0	1065353216	58	4792
2026-01-05 04:49:19.39	304.29	11.37	-48.1	-50.4	14.4	7.00e-07	0	57	0	1067450368	58	4862
2026-01-05 04:49:20.38	304.17	11.30	-48.2	-50.6	14.3	4.50e-06	0	57	0	1068498944	58	4933
2026-01-05 04:49:21.37	304.05	11.23	-48.1	-50.4	14.4	0.00e+00	0	57	0	1070596096	58	4863
2026-01-05 04:49:22.35	303.93	11.16	-48.3	-50.7	14.1	7.00e-07	0	56	0	1072693248	58	5008
2026-01-05 04:49:23.34	303.81	11.09	-48.1	-50.5	14.3	0.00e+00	0	57	0	1074790400	58	4885
2026-01-05 04:49:24.33	303.70	11.02	-48.0	-50.2	14.6	0.00e+00	0	57	0	1075838976	58	4741
2026-01-05 04:49:25.32	303.58	10.96	-47.9	-50.1	14.7	0.00e+00	0	57	0	1077936128	58	4668
2026-01-05 04:49:26.31	303.46	10.89	-47.9	-50.1	14.7	7.00e-07	0	57	0	1080033280	58	4698
2026-01-05 04:49:27.30	303.34	10.82	-48.0	-50.3	14.4	7.00e-07	0	57	0	1082130432	58	4811
2026-01-05 04:49:28.29	303.23	10.75	-48.1	-50.5	14.3	2.20e-06	0	57	0	1084227584	58	4874
2026-01-05 04:49:29.28	303.11	10.68	-48.1	-50.5	14.2	1.50e-06	0	57	0	1085276160	58	4899
2026-01-05 04:49:30.28	303.00	10.61	-48.1	-50.6	14.1	0.00e+00	0	57	0	1087373312	58	4953
2026-01-05 04:49:31.27	302.88	10.55	-48.2	-50.6	14.1	1.50e-06	0	56	0	1089470464	58	4954
2026-01-05 04:49:32.26	302.77	10.48	-48.3	-50.8	13.8	1.50e-06	0	57	0	1091567616	58	5098
2026-01-05 04:49:33.25	302.65	10.41	-48.3	-50.8	13.8	4.50e-06	0	57	0	1092616192	58	5086
2026-01-05 04:49:34.24	302.54	10.34	-48.3	-50.9	13.7	9.10e-06	0	57	0	1094713344	58	5148
2026-01-05 04:49:35.22	302.43	10.28	-48.3	-50.9	13.7	8.30e-06	0	57	0	1096810496	58	5126
2026-01-05 04:49:36.22	302.32	10.21	-48.4	-51.2	13.4	1.37e-05	0	57	0	1098907648	58	5291
2026-01-05 04:49:37.20	302.21	10.14	-48.6	-51.4	13.1	3.81e-05	0	57	0	1099956224	59	5133
2026-01-05 04:49:38.19	302.10	10.07	-48.4	-51.2	13.2	2.74e-05	0	57	0	1102053376	59	5016
2026-01-05 04:49:39.18	301.98	10.01	-48.3	-51.1	13.3	1.75e-05	0	57	0	1104150528	59	4950
2026-01-05 04:49:40.18	301.87	9.94	-48.3	-51.1	13.2	1.44e-05	0	57	0	1106247680	59	4943
2026-01-05 04:49:41.17	301.76	9.87	-48.4	-51.2	13.0	3.12e-05	0	57	0	1108344832	59	5021
2026-01-05 04:49:42.16	301.66	9.80	-48.5	-51.6	12.7	4.88e-05	0	57	0	1109393408	59	5233
2026-01-05 04:49:43.15	301.55	9.74	-48.6	-51.6	12.6	8.46e-05	0	57	0	1111490560	59	5256
2026-01-05 04:49:44.14	301.44	9.67	-48.7	-51.9	12.2	1.29e-04	0	57	0	1113587712	59	5417
2026-01-05 04:49:45.13	301.33	9.60	-48.7	-51.9	12.2	2.32e-04	0	56	0	1115684864	59	5452
2026-01-05 04:49:46.12	301.23	9.54	-48.8	-52.2	11.8	3.52e-04	0	57	0	1116733440	59	5639
2026-01-05 04:49:47.11	301.12	9.47	-48.8	-52.3	11.8	4.77e-04	0	57	0	1118830592	59	5661
2026-01-05 04:49:48.10	301.01	9.40	-49.0	-52.7	11.2	6.68e-04	0	57	0	1120927744	59	5989
2026-01-05 04:49:49.09	300.91	9.34	-48.9	-52.6	11.2	1.20e-03	0	56	0	1123024896	59	5906
2026-01-05 04:49:50.09	300.80	9.27	-49.0	-53.0	10.8	2.04e-03	0	57	0	1124073472	60	5826
2026-01-05 04:49:51.08	300.70	9.20	-49.0	-53.1	10.6	2.70e-03	0	57	0	1126170624	60	5900
2026-01-05 04:49:52.07	300.59	9.14	-49.2	-53.5	10.2	5.33e-03	0	57	0	1128267776	60	6153
2026-01-05 04:49:53.06	300.49	9.07	-49.1	-53.4	10.2	5.56e-03	0	57	0	1130364928	60	6098
2026-01-05 04:49:54.05	300.39	9.00	-49.2	-53.8	9.7	8.51e-03	0	57	0	1132462080	60	6384
2026-01-05 04:49:55.03	300.29	8.94	-49.3	-54.2	9.3	1.29e-02	0	57	0	1133510656	60	6704
2026-01-05 04:49:56.01	300.19	8.87	-49.3	-54.2	9.2	2.03e-02	0	57	0	1135607808	60	6677
2026-01-05 04:49:57.00	300.09	8.81	-49.4	-54.6	8.8	2.75e-02	0	57	0	1137704960	60	6996
2026-01-05 04:49:57.98	299.99	8.74	-49.2	-54.5	8.8	3.26e-02	0	57	0	1139802112	60	6909
2026-01-05 04:49:58.97	299.89	8.68	-49.5	-55.1	8.2	3.89e-02	0	57	0	1140850688	60	7392
2026-01-05 04:49:59.97	299.78	8.61	-49.4	-55.1	8.1	6.20e-02	0	57	0	1142947840	60	7385
2026-01-05 04:50:00.95	299.69	8.54	-49.4	-55.2	7.9	7.20e-02	0	57	0	1145044992	60	7462
2026-01-05 04:50:01.94	299.59	8.48	-49.4	-55.5	7.5	8.80e-02	0	57	0	1147142144	60	7801
2026-01-05 04:50:02.93	299.49	8.41	-49.4	-55.6	7.3	1.15e-01	0	57	0	1148190720	60	7893
2026-01-05 04:50:03.92	299.39	8.35	-49.5	-56.0	6.9	1.51e-01	0	57	0	1150287872	60	8259
2026-01-05 04:50:04.90	299.29	8.28	-49.4	-56.1	6.8	1.77e-01	0	57	0	1152385024	60	8309
2026-01-05 04:50:05.89	299.20	8.22	-49.5	-56.6	6.4	2.11e-01	0	57	0	1154482176	60	8800
2026-01-05 04:50:06.89	299.10	8.15	-49.6	-57.2	5.9	2.91e-01	0	57	0	1156579328	61	8925
2026-01-05 04:50:07.88	299.00	8.09	-49.5	-57.2	5.8	3.98e-01	0	57	0	1157627904	61	8955
2026-01-05 04:50:08.87	298.91	8.02	-49.6	-57.7	5.4	4.43e-01	0	57	0	1159725056	61	9456
2026-01-05 04:50:09.87	298.81	7.96	-49.6	-57.8	5.4	5.17e-01	0	57	0	1161822208	61	9497
2026-01-05 04:50:10.85	298.72	7.89	-49.6	-58.3	5.0	6.24e-01	0	57	0	1163919360	61	10150
2026-01-05 04:50:11.84	298.62	7.83	-49.5	-58.3	5.0	7.14e-01	0	57	0	1164967936	61	10080
2026-01-05 04:50:12.84	298.53	7.76	-49.6	-58.8	4.8	7.57e-01	0	57	0	1167065088	61	10682
2026-01-05 04:50:13.83	298.43	7.70	-49.5	-58.7	4.7	9.05e-01	0	57	0	1169162240	61	10614
2026-01-05 04:50:14.83	298.34	7.64	-49.5	-59.2	4.5	9.65e-01	0	57	0	1171259392	61	11165
2026-01-05 04:50:15.82	298.24	7.57	-49.5	-59.1	4.5	1.04e+00	2	57	0	1173356544	61	11030
2026-01-05 04:50:16.81	298.15	7.51	-49.4	-58.8	4.6	9.62e-01	0	56	0	1174405120	61	10692
2026-01-05 04:50:17.80	298.06	7.44	-49.3	-58.5	4.7	8.96e-01	0	57	0	1176502272	61	10310
2026-01-05 04:50:18.78	297.97	7.38	-49.2	-58.2	4.9	7.95e-01	0	57	0	1178599424	61	9953
2026-01-05 04:50:19.78	297.88	7.32	-49.1	-58.0	4.9	7.55e-01	0	57	0	1180696576	61	9808
2026-01-05 04:50:20.76	297.79	7.25	-49.1	-57.9	5.0	7.29e-01	0	57	0	1181745152	61	9617
2026-01-05 04:50:21.75	297.70	7.19	-49.1	-57.8	5.0	6.99e-01	0	57	0	1183842304	61	9563
2026-01-05 04:50:22.73	297.61	7.13	-49.1	-58.0	4.9	7.34e-01	0	57	0	1185939456	61	9732
2026-01-05 04:50:23.72	297.52	7.06	-49.1	-58.4	4.7	8.26e-01	0	57	0	1188036608	61	10239
2026-01-05 04:50:24.71	297.43	7.00	-49.0	-58.4	4.6	9.34e-01	0	57	0	1189085184	61	10288
2026-01-05 04:50:25.70	297.34	6.94	-49.2	-58.7	4.5	9.74e-01	2	57	0	1191182336	61	10624
2026-01-05 04:50:26.69	297.25	6.87	-49.1	-58.7	4.5	1.04e+00	0	57	0	1193279488	61	10627
2026-01-05 04:50:27.68	297.16	6.81	-49.1	-58.9	4.5	1.01e+00	33	57	0	1195376640	61	10855
2026-01-05 04:50:28.67	297.08	6.75	-49.1	-58.9	4.4	1.22e+00	33	57	0	1196425216	61	10843
2026-01-05 04:50:29.65	296.99	6.68	-49.1	-59.0	4.4	1.17e+00	62	57	0	1198522368	61	10937
2026-01-05 04:50:30.64	296.90	6.62	-49.1	-59.5	4.2	1.32e+00	17	57	0	1199570944	61	11608
2026-01-05 04:50:31.63	296.82	6.56	-49.2	-59.6	4.2	1.40e+00	0	57	0	1199570944	61	11734
2026-01-05 04:50:32.62	296.73	6.50	-49.1	-59.7	4.2	1.35e+00	0	57	0	1199570944	61	11877
2026-01-05 04:50:33.62	296.64	6.43	-49.2	-59.7	4.2	1.40e+00	0	57	0	1199570944	61	11864
2026-01-05 04:50:34.61	296.56	6.37	-49.1	-59.1	4.4	1.34e+00	90	57	0	1200619520	61	11138
2026-01-05 04:50:35.61	296.47	6.31	-49.1	-58.6	4.5	1.10e+00	0	57	0	1201668096	61	10477
2026-01-05 04:50:36.60	296.39	6.24	-49.0	-58.3	4.7	9.61e-01	0	57	0	1203765248	61	10171
2026-01-05 04:50:37.58	296.31	6.18	-49.0	-58.0	4.8	8.38e-01	0	57	0	1205862400	61	9794
2026-01-05 04:50:38.57	296.22	6.12	-48.9	-57.7	5.0	7.34e-01	0	57	0	1207959552	60	9946
2026-01-05 04:50:39.56	296.14	6.06	-48.9	-57.6	5.0	6.91e-01	0	57	0	1209008128	60	9862
2026-01-05 04:50:40.55	296.06	6.00	-48.9	-57.5	5.1	6.75e-01	0	57	0	1211105280	60	9824
2026-01-05 04:50:41.54	295.97	5.93	-48.9	-57.7	5.0	7.02e-01	0	57	0	1213202432	60	9958
2026-01-05 04:50:42.53	295.89	5.87	-48.8	-57.6	5.0	7.01e-01	0	57	0	1215299584	60	9852
2026-01-05 04:50:43.52	295.81	5.81	-48.9	-57.8	4.9	7.31e-01	0	57	0	1217396736	60	10099
2026-01-05 04:50:44.51	295.73	5.75	-48.9	-57.8	4.9	7.98e-01	0	57	0	1218445312	60	10134
2026-01-05 04:50:45.50	295.65	5.69	-48.9	-57.6	5.0	7.29e-01	0	57	0	1220542464	60	9885
2026-01-05 04:50:46.49	295.57	5.63	-48.9	-57.5	5.1	6.93e-01	0	57	0	1222639616	60	9737
