passes_logs/2026/01/05/R3.0SM8_Murmansk_STILSPACE/R3.0SM8_Murmansk_STILSPACE__20260105_011944_NOAA_20_JPSS-1_rec.log

#Pass ID: 20260105_011944_NOAA 20 (JPSS-1)
#Satellite: NOAA 20 (JPSS-1)
#Configuration: NOAA 20
#almurnet v.1.7.20240730
#Start time: 2026-01-05 01:19:44

#Version: 2.2.20231116
#Station: R3.0SM8_Murmansk_STILSPACE
#Location: 33.092731 lon 68.902999 lat
#TLE: 1 43013U 17073A   26004.47528369  .00000132  00000+0  83671-4 0  9999
#TLE: 2 43013  98.7626 305.5264 0001854  54.5883 305.5466 14.19533142421242

#Time	Az	El	Level	Level2	SNR	BER	BlckErr	Temp	State	Recorded	gain1	gain2
2026-01-05 01:19:44.48	27.03	2.97	-52.4	-66.2	3.8	1.49e+00	0	47	0	0	67	17801
2026-01-05 01:19:45.47	27.02	3.04	-52.3	-66.1	3.8	1.49e+00	0	47	104	0	67	17617
2026-01-05 01:19:46.46	27.01	3.10	-52.3	-66.1	3.8	1.49e+00	0	47	104	0	67	17547
2026-01-05 01:19:47.46	26.99	3.17	-52.2	-66.0	3.8	1.49e+00	0	47	104	0	67	17430
2026-01-05 01:19:48.45	26.98	3.23	-52.2	-66.0	3.8	1.49e+00	0	47	104	0	67	17309
2026-01-05 01:19:49.44	26.96	3.30	-52.0	-65.9	3.8	1.49e+00	0	47	104	0	67	17121
2026-01-05 01:19:50.43	26.95	3.37	-51.9	-65.8	3.8	1.49e+00	0	47	104	0	66	17900
2026-01-05 01:19:51.41	26.94	3.43	-51.7	-65.5	3.8	1.49e+00	0	47	104	0	66	17466
2026-01-05 01:19:52.40	26.92	3.50	-51.5	-64.9	3.8	1.49e+00	0	47	104	0	66	16135
2026-01-05 01:19:53.40	26.91	3.56	-51.4	-64.5	3.8	1.49e+00	0	47	104	0	65	16352
2026-01-05 01:19:54.39	26.89	3.63	-51.4	-64.3	3.8	1.49e+00	0	48	104	0	65	15952
2026-01-05 01:19:55.38	26.88	3.70	-51.4	-64.0	3.8	1.49e+00	0	48	104	0	65	15418
2026-01-05 01:19:56.37	26.86	3.76	-51.4	-63.8	3.8	1.49e+00	0	47	104	0	65	15090
2026-01-05 01:19:57.36	26.85	3.83	-51.2	-63.6	3.8	1.49e+00	0	48	104	0	65	14785
2026-01-05 01:19:58.35	26.83	3.90	-51.3	-63.2	3.8	1.49e+00	0	48	104	0	65	14195
2026-01-05 01:19:59.34	26.82	3.97	-51.3	-63.0	3.8	1.49e+00	0	48	104	0	65	13845
2026-01-05 01:20:00.33	26.80	4.03	-51.3	-62.6	4.0	1.48e+00	0	48	104	0	65	13204
2026-01-05 01:20:01.33	26.79	4.10	-51.3	-62.3	3.9	1.45e+00	0	48	104	0	65	12771
2026-01-05 01:20:02.32	26.77	4.17	-51.2	-61.8	4.2	1.43e+00	0	48	0	0	65	11977
2026-01-05 01:20:03.32	26.76	4.24	-51.2	-61.2	4.3	1.34e+00	37	48	0	0	65	11257
2026-01-05 01:20:04.31	26.74	4.31	-51.1	-60.9	4.5	1.15e+00	32	48	0	1048576	65	10849
2026-01-05 01:20:05.30	26.73	4.38	-51.0	-60.2	4.8	9.50e-01	0	48	0	3145728	65	9998
2026-01-05 01:20:06.29	26.71	4.44	-51.0	-59.4	5.2	7.74e-01	0	48	0	4194304	64	9686
2026-01-05 01:20:07.28	26.70	4.51	-50.8	-58.8	5.6	5.05e-01	0	48	0	6291456	64	8969
2026-01-05 01:20:08.27	26.68	4.58	-50.7	-58.0	6.1	3.74e-01	0	48	0	8388608	64	8228
2026-01-05 01:20:09.25	26.67	4.65	-50.6	-57.6	6.5	2.58e-01	0	48	0	10485760	64	7822
2026-01-05 01:20:10.25	26.65	4.72	-50.4	-56.8	7.2	1.46e-01	0	48	0	12582912	64	7162
2026-01-05 01:20:11.25	26.63	4.79	-50.3	-56.4	7.6	1.00e-01	0	49	0	13631488	63	7264
2026-01-05 01:20:12.23	26.62	4.86	-50.2	-55.6	8.4	5.49e-02	0	49	0	15728640	63	6641
2026-01-05 01:20:13.23	26.60	4.93	-50.1	-55.3	8.8	3.81e-02	0	49	0	17825792	63	6389
2026-01-05 01:20:14.22	26.59	5.00	-49.4	-54.5	9.3	2.09e-02	0	49	0	19922944	62	6178
2026-01-05 01:20:15.22	26.57	5.07	-49.9	-54.6	9.6	1.46e-02	0	49	0	20971520	62	6204
2026-01-05 01:20:16.21	26.55	5.14	-49.9	-54.7	9.4	1.37e-02	0	49	0	23068672	62	6332
2026-01-05 01:20:17.19	26.54	5.21	-50.0	-55.0	9.2	1.88e-02	0	49	0	25165824	62	6496
2026-01-05 01:20:18.18	26.52	5.28	-49.9	-54.5	9.7	1.36e-02	0	49	0	27262976	62	6147
2026-01-05 01:20:19.17	26.50	5.35	-49.6	-54.0	10.2	7.96e-03	0	49	0	28311552	62	5816
2026-01-05 01:20:20.16	26.49	5.42	-49.5	-53.7	10.5	4.92e-03	0	49	0	30408704	62	5596
2026-01-05 01:20:21.15	26.47	5.49	-49.3	-53.2	11.0	3.06e-03	0	49	0	32505856	61	5648
2026-01-05 01:20:22.14	26.45	5.57	-49.2	-53.2	11.0	1.95e-03	0	49	0	34603008	61	5621
2026-01-05 01:20:23.13	26.44	5.64	-49.2	-53.0	11.2	1.56e-03	0	49	0	36700160	61	5508
2026-01-05 01:20:24.12	26.42	5.71	-49.1	-52.8	11.4	1.23e-03	0	49	0	37748736	61	5390
2026-01-05 01:20:25.10	26.40	5.78	-49.1	-52.9	11.4	1.08e-03	0	49	0	39845888	61	5403
2026-01-05 01:20:26.09	26.38	5.85	-49.1	-53.0	11.3	1.19e-03	0	49	0	41943040	61	5468
2026-01-05 01:20:27.08	26.37	5.92	-48.9	-52.4	11.8	7.45e-04	0	49	0	44040192	60	5443
2026-01-05 01:20:28.07	26.35	6.00	-48.8	-52.1	12.1	3.33e-04	0	49	0	45088768	60	5271
2026-01-05 01:20:29.04	26.33	6.07	-48.6	-51.8	12.5	1.05e-04	0	49	0	47185920	60	5054
2026-01-05 01:20:30.03	26.31	6.14	-48.6	-51.6	12.7	8.39e-05	0	49	0	49283072	60	4977
2026-01-05 01:20:31.03	26.30	6.22	-48.5	-51.5	12.8	5.41e-05	0	50	0	51380224	60	4897
2026-01-05 01:20:32.02	26.28	6.29	-48.4	-51.5	12.9	6.56e-05	0	50	0	52428800	60	4899
2026-01-05 01:20:33.01	26.26	6.36	-48.5	-51.6	12.8	5.72e-05	0	50	0	54525952	60	4968
2026-01-05 01:20:34.00	26.24	6.44	-48.6	-51.8	12.5	9.30e-05	0	50	0	56623104	60	5086
2026-01-05 01:20:35.00	26.22	6.51	-48.6	-51.6	12.8	8.01e-05	0	50	0	58720256	60	4931
2026-01-05 01:20:35.99	26.20	6.59	-48.5	-51.4	13.0	4.42e-05	0	50	0	60817408	59	5114
2026-01-05 01:20:36.98	26.18	6.66	-48.6	-51.5	12.9	3.43e-05	0	50	0	61865984	59	5186
2026-01-05 01:20:37.97	26.17	6.73	-48.6	-51.6	12.8	4.73e-05	0	50	0	63963136	59	5240
2026-01-05 01:20:38.96	26.15	6.81	-48.8	-51.9	12.5	8.92e-05	0	50	0	66060288	59	5427
2026-01-05 01:20:39.95	26.13	6.88	-48.7	-51.8	12.6	9.68e-05	0	50	0	68157440	59	5378
2026-01-05 01:20:40.94	26.11	6.96	-48.9	-52.0	12.5	1.10e-04	0	50	0	69206016	59	5470
2026-01-05 01:20:41.93	26.09	7.04	-48.9	-52.0	12.4	1.07e-04	0	50	0	71303168	59	5497
2026-01-05 01:20:42.92	26.07	7.11	-49.0	-52.2	12.2	1.59e-04	0	50	0	73400320	59	5645
2026-01-05 01:20:43.91	26.05	7.19	-48.8	-52.0	12.5	1.21e-04	0	50	0	75497472	59	5492
2026-01-05 01:20:44.90	26.03	7.26	-48.8	-51.8	12.7	8.39e-05	0	50	0	77594624	59	5360
2026-01-05 01:20:45.89	26.01	7.34	-48.7	-51.7	12.8	8.69e-05	0	50	0	78643200	59	5300
2026-01-05 01:20:46.89	25.99	7.42	-48.7	-51.7	12.8	6.17e-05	0	50	0	80740352	59	5304
2026-01-05 01:20:47.87	25.97	7.49	-48.8	-52.0	12.5	8.46e-05	0	50	0	82837504	59	5514
2026-01-05 01:20:48.86	25.95	7.57	-48.7	-51.7	12.8	8.77e-05	0	50	0	84934656	59	5334
2026-01-05 01:20:49.86	25.93	7.65	-48.6	-51.4	13.1	4.73e-05	0	50	0	85983232	59	5132
2026-01-05 01:20:50.84	25.91	7.73	-48.3	-51.0	13.5	2.36e-05	0	50	0	88080384	59	4923
2026-01-05 01:20:51.83	25.89	7.80	-48.3	-50.9	13.6	5.30e-06	0	51	0	90177536	59	4846
2026-01-05 01:20:52.82	25.87	7.88	-48.3	-50.9	13.6	6.80e-06	0	51	0	92274688	59	4856
2026-01-05 01:20:53.80	25.85	7.96	-48.3	-51.0	13.6	7.60e-06	0	51	0	93323264	59	4899
2026-01-05 01:20:54.80	25.83	8.04	-48.5	-51.2	13.4	6.80e-06	0	51	0	95420416	59	4993
2026-01-05 01:20:55.79	25.81	8.12	-48.4	-51.0	13.5	2.13e-05	0	51	0	97517568	59	4922
2026-01-05 01:20:56.77	25.79	8.19	-48.2	-50.8	13.8	5.30e-06	0	51	0	99614720	59	4773
2026-01-05 01:20:57.76	25.76	8.27	-48.2	-50.7	13.9	6.10e-06	0	51	0	101711872	59	4725
2026-01-05 01:20:58.75	25.74	8.35	-48.2	-50.8	13.8	3.80e-06	0	51	0	102760448	59	4785
2026-01-05 01:20:59.74	25.72	8.43	-48.3	-50.9	13.7	3.00e-06	0	51	0	104857600	59	4854
2026-01-05 01:21:00.73	25.70	8.51	-48.1	-50.7	13.9	6.10e-06	0	51	0	106954752	59	4732
2026-01-05 01:21:01.72	25.68	8.59	-48.0	-50.5	14.1	1.50e-06	0	51	0	109051904	59	4626
2026-01-05 01:21:02.72	25.66	8.67	-48.0	-50.4	14.2	1.50e-06	0	51	0	110100480	59	4582
2026-01-05 01:21:03.71	25.63	8.75	-47.9	-50.4	14.3	3.00e-06	0	51	0	112197632	59	4550
2026-01-05 01:21:04.70	25.61	8.84	-48.0	-50.4	14.2	0.00e+00	0	51	0	114294784	59	4568
2026-01-05 01:21:05.69	25.59	8.92	-48.2	-50.6	14.0	0.00e+00	0	51	0	116391936	59	4704
2026-01-05 01:21:06.67	25.57	9.00	-48.1	-50.6	14.1	3.80e-06	0	51	0	117440512	59	4666
2026-01-05 01:21:07.66	25.54	9.08	-48.1	-50.6	14.1	7.00e-07	0	51	0	119537664	59	4662
2026-01-05 01:21:08.65	25.52	9.16	-48.1	-50.5	14.1	7.00e-07	0	51	0	121634816	59	4651
2026-01-05 01:21:09.64	25.50	9.24	-48.1	-50.6	14.1	7.00e-07	0	52	0	123731968	59	4666
2026-01-05 01:21:10.63	25.47	9.33	-48.1	-50.5	14.1	0.00e+00	0	51	0	125829120	59	4648
2026-01-05 01:21:11.62	25.45	9.41	-48.2	-50.7	14.0	7.00e-07	0	51	0	126877696	59	4741
2026-01-05 01:21:12.60	25.43	9.49	-48.2	-50.7	14.0	7.60e-06	0	52	0	128974848	59	4706
2026-01-05 01:21:13.59	25.40	9.57	-48.1	-50.5	14.2	0.00e+00	0	52	0	131072000	59	4631
2026-01-05 01:21:14.57	25.38	9.66	-47.9	-50.3	14.4	0.00e+00	0	52	0	133169152	59	4518
2026-01-05 01:21:15.56	25.36	9.74	-48.0	-50.3	14.4	0.00e+00	0	52	0	134217728	59	4539
2026-01-05 01:21:16.55	25.33	9.83	-48.0	-50.4	14.3	0.00e+00	0	52	0	136314880	59	4569
2026-01-05 01:21:17.54	25.31	9.91	-48.1	-50.5	14.2	4.50e-06	0	52	0	138412032	59	4650
2026-01-05 01:21:18.53	25.28	9.99	-48.2	-50.7	14.0	3.00e-06	0	52	0	140509184	59	4726
2026-01-05 01:21:19.53	25.26	10.08	-48.2	-50.7	14.0	1.50e-06	0	52	0	141557760	59	4713
2026-01-05 01:21:20.52	25.23	10.17	-48.0	-50.3	14.4	7.00e-07	0	52	0	143654912	59	4536
2026-01-05 01:21:21.50	25.21	10.25	-47.9	-50.2	14.6	0.00e+00	0	52	0	145752064	58	4714
2026-01-05 01:21:22.48	25.18	10.34	-47.8	-50.0	14.7	0.00e+00	0	52	0	147849216	58	4624
2026-01-05 01:21:23.47	25.16	10.42	-47.8	-50.0	14.8	7.00e-07	0	52	0	148897792	58	4610
2026-01-05 01:21:24.46	25.13	10.51	-47.9	-50.1	14.6	7.00e-07	0	52	0	150994944	58	4704
2026-01-05 01:21:25.45	25.11	10.59	-47.9	-50.2	14.6	7.00e-07	0	52	0	153092096	58	4735
2026-01-05 01:21:26.44	25.08	10.68	-47.6	-49.8	15.0	0.00e+00	0	52	0	155189248	58	4498
2026-01-05 01:21:27.43	25.06	10.77	-47.5	-49.6	15.2	0.00e+00	0	52	0	157286400	58	4393
2026-01-05 01:21:28.41	25.03	10.86	-47.3	-49.3	15.4	0.00e+00	0	52	0	158334976	57	4524
2026-01-05 01:21:29.40	25.00	10.94	-47.3	-49.3	15.4	0.00e+00	0	52	0	160432128	57	4526
2026-01-05 01:21:30.38	24.98	11.03	-47.3	-49.3	15.5	0.00e+00	0	52	0	162529280	57	4517
2026-01-05 01:21:31.37	24.95	11.12	-47.2	-49.2	15.6	0.00e+00	0	52	0	164626432	57	4477
2026-01-05 01:21:32.36	24.92	11.21	-47.4	-49.4	15.4	0.00e+00	0	52	0	165675008	57	4562
2026-01-05 01:21:33.35	24.90	11.30	-47.5	-49.6	15.2	0.00e+00	0	52	0	167772160	57	4658
2026-01-05 01:21:34.34	24.87	11.39	-47.4	-49.4	15.4	0.00e+00	0	52	0	169869312	57	4579
2026-01-05 01:21:35.33	24.84	11.48	-47.6	-49.6	15.2	0.00e+00	0	52	0	171966464	57	4686
2026-01-05 01:21:36.32	24.81	11.57	-47.7	-49.8	14.9	0.00e+00	0	52	0	173015040	57	4791
2026-01-05 01:21:37.32	24.78	11.66	-47.5	-49.6	15.2	0.00e+00	0	52	0	175112192	57	4666
2026-01-05 01:21:38.30	24.76	11.75	-47.5	-49.6	15.2	0.00e+00	0	52	0	177209344	57	4670
2026-01-05 01:21:39.28	24.73	11.84	-47.7	-49.7	15.1	0.00e+00	0	52	0	179306496	57	4749
2026-01-05 01:21:40.28	24.70	11.93	-47.7	-49.9	14.9	7.00e-07	0	53	0	181403648	57	4836
2026-01-05 01:21:41.27	24.67	12.02	-47.6	-49.8	15.1	0.00e+00	0	52	0	182452224	57	4762
2026-01-05 01:21:42.25	24.64	12.11	-47.8	-49.9	14.9	0.00e+00	0	53	0	184549376	57	4860
2026-01-05 01:21:43.24	24.61	12.21	-47.9	-50.2	14.6	0.00e+00	0	53	0	186646528	57	5003
2026-01-05 01:21:44.23	24.58	12.30	-48.0	-50.4	14.5	0.00e+00	0	52	0	188743680	57	5106
2026-01-05 01:21:45.22	24.55	12.39	-47.9	-50.1	14.7	7.00e-07	0	53	0	189792256	57	4966
2026-01-05 01:21:46.21	24.52	12.49	-48.0	-50.4	14.5	0.00e+00	0	52	0	191889408	57	5105
2026-01-05 01:21:47.20	24.49	12.58	-48.2	-50.6	14.3	3.00e-06	0	52	0	193986560	58	4937
2026-01-05 01:21:48.19	24.46	12.67	-48.0	-50.3	14.6	7.00e-07	0	53	0	196083712	58	4775
2026-01-05 01:21:49.18	24.43	12.77	-47.8	-50.0	14.9	0.00e+00	0	53	0	198180864	58	4611
2026-01-05 01:21:50.17	24.40	12.86	-47.7	-49.8	15.1	7.00e-07	0	53	0	199229440	58	4514
2026-01-05 01:21:51.16	24.37	12.96	-47.6	-49.7	15.1	7.00e-07	0	53	0	201326592	58	4473
2026-01-05 01:21:52.15	24.34	13.06	-47.7	-49.8	15.1	7.00e-07	0	53	0	203423744	58	4513
2026-01-05 01:21:53.14	24.31	13.15	-47.8	-50.1	14.8	0.00e+00	0	53	0	205520896	58	4664
2026-01-05 01:21:54.12	24.28	13.25	-47.6	-49.7	15.2	0.00e+00	0	53	0	206569472	58	4449
2026-01-05 01:21:55.11	24.25	13.34	-47.4	-49.3	15.6	0.00e+00	0	53	0	208666624	57	4524
2026-01-05 01:21:56.10	24.21	13.44	-47.1	-49.0	15.9	0.00e+00	0	53	0	210763776	57	4342
2026-01-05 01:21:57.08	24.18	13.54	-47.0	-48.8	16.1	0.00e+00	0	53	0	212860928	57	4278
2026-01-05 01:21:58.06	24.15	13.63	-47.0	-48.8	16.1	0.00e+00	0	53	0	213909504	57	4247
2026-01-05 01:21:59.05	24.12	13.73	-47.0	-48.8	16.1	0.00e+00	0	53	0	216006656	57	4272
2026-01-05 01:22:00.04	24.08	13.83	-47.1	-49.0	15.9	0.00e+00	0	53	0	218103808	57	4349
2026-01-05 01:22:01.03	24.05	13.93	-47.0	-48.8	16.1	0.00e+00	0	53	0	220200960	57	4248
2026-01-05 01:22:02.01	24.02	14.03	-46.8	-48.6	16.3	0.00e+00	0	53	0	221249536	56	4398
2026-01-05 01:22:03.00	23.98	14.13	-46.7	-48.4	16.5	0.00e+00	0	53	0	223346688	56	4333
2026-01-05 01:22:03.99	23.95	14.23	-46.7	-48.5	16.4	0.00e+00	0	53	0	225443840	56	4341
2026-01-05 01:22:04.98	23.92	14.33	-46.7	-48.4	16.5	0.00e+00	0	53	0	227540992	56	4309
2026-01-05 01:22:05.96	23.88	14.43	-46.9	-48.6	16.3	0.00e+00	0	53	0	228589568	56	4409
2026-01-05 01:22:06.95	23.85	14.53	-47.0	-48.8	16.1	0.00e+00	0	53	0	230686720	56	4531
2026-01-05 01:22:07.94	23.81	14.63	-46.8	-48.5	16.4	0.00e+00	0	53	0	232783872	56	4382
2026-01-05 01:22:08.92	23.78	14.73	-46.7	-48.3	16.6	0.00e+00	0	53	0	234881024	56	4291
2026-01-05 01:22:09.91	23.74	14.84	-46.6	-48.2	16.7	0.00e+00	0	54	0	236978176	56	4220
2026-01-05 01:22:10.91	23.71	14.94	-46.7	-48.3	16.6	0.00e+00	0	53	0	238026752	56	4267
2026-01-05 01:22:11.90	23.67	15.05	-46.6	-48.2	16.7	0.00e+00	0	53	0	240123904	56	4231
2026-01-05 01:22:12.89	23.63	15.15	-46.6	-48.2	16.7	0.00e+00	0	53	0	242221056	56	4203
2026-01-05 01:22:13.88	23.60	15.25	-46.6	-48.3	16.6	0.00e+00	0	53	0	244318208	56	4266
2026-01-05 01:22:14.87	23.56	15.36	-46.8	-48.5	16.5	0.00e+00	0	53	0	245366784	56	4342
2026-01-05 01:22:15.86	23.52	15.46	-46.7	-48.4	16.5	0.00e+00	0	53	0	247463936	56	4311
2026-01-05 01:22:16.85	23.48	15.57	-46.8	-48.5	16.4	0.00e+00	0	53	0	249561088	56	4362
2026-01-05 01:22:17.83	23.45	15.67	-47.0	-48.8	16.2	0.00e+00	0	53	0	251658240	56	4512
2026-01-05 01:22:18.82	23.41	15.78	-47.0	-48.8	16.1	0.00e+00	0	54	0	252706816	56	4538
2026-01-05 01:22:19.81	23.37	15.89	-47.0	-48.9	16.1	0.00e+00	0	53	0	254803968	56	4552
2026-01-05 01:22:20.80	23.33	16.00	-47.0	-48.8	16.2	0.00e+00	0	54	0	256901120	56	4520
2026-01-05 01:22:21.80	23.29	16.11	-47.2	-49.0	16.0	0.00e+00	0	54	0	258998272	56	4614
2026-01-05 01:22:22.78	23.25	16.21	-47.0	-48.8	16.1	0.00e+00	0	53	0	261095424	56	4543
2026-01-05 01:22:23.78	23.21	16.32	-47.0	-48.7	16.2	0.00e+00	0	54	0	262144000	56	4492
2026-01-05 01:22:24.77	23.17	16.43	-47.0	-48.8	16.2	0.00e+00	0	54	0	264241152	56	4498
2026-01-05 01:22:25.75	23.13	16.54	-47.1	-48.8	16.2	0.00e+00	0	54	0	266338304	56	4535
2026-01-05 01:22:26.75	23.09	16.65	-47.3	-49.1	15.9	0.00e+00	0	54	0	268435456	56	4687
2026-01-05 01:22:27.73	23.05	16.76	-47.2	-49.0	16.0	0.00e+00	0	54	0	269484032	56	4623
2026-01-05 01:22:28.71	23.01	16.87	-46.9	-48.5	16.4	0.00e+00	0	54	0	271581184	56	4387
2026-01-05 01:22:29.70	22.97	16.98	-46.7	-48.3	16.7	0.00e+00	0	54	0	273678336	56	4266
2026-01-05 01:22:30.68	22.93	17.10	-46.5	-48.0	17.0	0.00e+00	0	54	0	275775488	56	4125
2026-01-05 01:22:31.67	22.88	17.21	-46.4	-47.9	17.0	0.00e+00	0	54	0	276824064	56	4092
2026-01-05 01:22:32.66	22.84	17.32	-46.3	-47.8	17.0	0.00e+00	0	54	0	278921216	55	4291
2026-01-05 01:22:33.65	22.80	17.44	-46.4	-47.9	16.9	0.00e+00	0	54	0	281018368	55	4338
2026-01-05 01:22:34.64	22.76	17.55	-46.4	-47.9	17.0	0.00e+00	0	54	0	283115520	55	4324
2026-01-05 01:22:35.62	22.71	17.66	-46.4	-48.0	16.9	0.00e+00	0	54	0	284164096	55	4358
2026-01-05 01:22:36.61	22.67	17.78	-46.4	-47.9	16.9	0.00e+00	0	54	0	286261248	55	4321
2026-01-05 01:22:37.60	22.62	17.90	-46.2	-47.7	17.2	0.00e+00	0	54	0	288358400	55	4204
2026-01-05 01:22:38.59	22.58	18.01	-46.1	-47.6	17.3	0.00e+00	0	54	0	290455552	55	4147
2026-01-05 01:22:39.57	22.53	18.13	-46.1	-47.5	17.4	0.00e+00	0	54	0	292552704	55	4126
2026-01-05 01:22:40.56	22.49	18.25	-46.2	-47.7	17.2	0.00e+00	0	54	0	293601280	55	4220
2026-01-05 01:22:41.55	22.44	18.36	-46.1	-47.6	17.3	0.00e+00	0	54	0	295698432	55	4174
2026-01-05 01:22:42.54	22.40	18.48	-46.1	-47.6	17.3	0.00e+00	0	54	0	297795584	55	4158
2026-01-05 01:22:43.54	22.35	18.60	-46.1	-47.6	17.3	0.00e+00	0	54	0	299892736	55	4155
2026-01-05 01:22:44.54	22.30	18.72	-46.2	-47.7	17.2	0.00e+00	0	54	0	300941312	55	4240
2026-01-05 01:22:45.52	22.25	18.84	-46.2	-47.7	17.2	0.00e+00	0	54	0	303038464	55	4212
2026-01-05 01:22:46.52	22.20	18.96	-46.2	-47.7	17.2	0.00e+00	0	54	0	305135616	55	4228
2026-01-05 01:22:47.51	22.16	19.09	-46.4	-47.9	17.0	0.00e+00	0	54	0	307232768	55	4334
2026-01-05 01:22:48.49	22.11	19.21	-46.5	-48.1	16.9	0.00e+00	0	54	0	309329920	55	4393
2026-01-05 01:22:49.49	22.06	19.33	-46.2	-47.6	17.3	0.00e+00	0	54	0	310378496	55	4192
2026-01-05 01:22:50.48	22.01	19.45	-46.0	-47.5	17.4	0.00e+00	0	54	0	312475648	55	4116
2026-01-05 01:22:51.48	21.96	19.58	-46.1	-47.5	17.4	0.00e+00	0	54	0	314572800	55	4141
2026-01-05 01:22:52.47	21.91	19.70	-46.2	-47.6	17.3	0.00e+00	0	54	0	316669952	55	4172
2026-01-05 01:22:53.46	21.86	19.83	-46.2	-47.7	17.2	0.00e+00	0	54	0	317718528	55	4225
2026-01-05 01:22:54.44	21.81	19.95	-46.4	-47.9	17.0	0.00e+00	0	54	0	319815680	55	4311
2026-01-05 01:22:55.42	21.75	20.08	-46.4	-47.9	17.0	0.00e+00	0	54	0	321912832	55	4328
2026-01-05 01:22:56.41	21.70	20.20	-46.2	-47.7	17.3	0.00e+00	0	54	0	324009984	55	4213
2026-01-05 01:22:57.40	21.65	20.33	-46.1	-47.6	17.3	0.00e+00	0	54	0	325058560	55	4169
2026-01-05 01:22:58.39	21.60	20.46	-46.3	-47.8	17.2	0.00e+00	0	54	0	327155712	55	4243
2026-01-05 01:22:59.38	21.54	20.59	-46.5	-48.0	16.9	0.00e+00	0	54	0	329252864	55	4378
2026-01-05 01:23:00.37	21.49	20.72	-46.5	-48.1	16.9	0.00e+00	0	54	0	331350016	55	4397
2026-01-05 01:23:01.36	21.43	20.85	-46.3	-47.8	17.1	0.00e+00	0	55	0	333447168	55	4274
2026-01-05 01:23:02.35	21.38	20.98	-46.2	-47.6	17.3	0.00e+00	0	54	0	334495744	55	4192
2026-01-05 01:23:03.34	21.32	21.11	-46.2	-47.6	17.3	0.00e+00	0	54	0	336592896	55	4187
2026-01-05 01:23:04.32	21.27	21.24	-46.2	-47.7	17.3	0.00e+00	0	54	0	338690048	55	4196
2026-01-05 01:23:05.31	21.21	21.37	-46.2	-47.7	17.2	0.00e+00	0	54	0	340787200	55	4229
2026-01-05 01:23:06.30	21.15	21.51	-46.4	-47.9	17.1	0.00e+00	0	54	0	341835776	55	4317
2026-01-05 01:23:07.29	21.09	21.64	-46.2	-47.7	17.3	0.00e+00	0	54	0	343932928	55	4207
2026-01-05 01:23:08.28	21.03	21.77	-45.9	-47.3	17.7	0.00e+00	0	54	0	346030080	55	4039
2026-01-05 01:23:09.27	20.98	21.91	-45.8	-47.2	17.8	0.00e+00	0	55	0	348127232	54	4214
2026-01-05 01:23:10.27	20.92	22.05	-45.9	-47.2	17.7	0.00e+00	0	55	0	349175808	54	4227
2026-01-05 01:23:11.25	20.86	22.18	-45.8	-47.2	17.7	0.00e+00	0	54	0	351272960	54	4238
2026-01-05 01:23:12.25	20.80	22.32	-45.9	-47.4	17.6	0.00e+00	0	55	0	353370112	54	4298
2026-01-05 01:23:13.23	20.73	22.46	-46.0	-47.5	17.5	0.00e+00	0	55	0	355467264	54	4341
2026-01-05 01:23:14.22	20.67	22.60	-46.0	-47.4	17.6	0.00e+00	0	54	0	357564416	54	4308
2026-01-05 01:23:15.20	20.61	22.73	-46.2	-47.6	17.3	0.00e+00	0	55	0	358612992	54	4441
2026-01-05 01:23:16.20	20.55	22.88	-46.4	-47.9	17.1	0.00e+00	0	55	0	360710144	54	4557
2026-01-05 01:23:17.19	20.48	23.02	-46.1	-47.5	17.5	0.00e+00	0	55	0	362807296	54	4381
2026-01-05 01:23:18.18	20.42	23.16	-46.0	-47.4	17.6	0.00e+00	0	55	0	364904448	54	4324
2026-01-05 01:23:19.17	20.35	23.30	-46.2	-47.6	17.3	0.00e+00	0	55	0	365953024	54	4437
2026-01-05 01:23:20.16	20.29	23.44	-46.3	-47.8	17.2	0.00e+00	0	55	0	368050176	54	4497
2026-01-05 01:23:21.15	20.22	23.59	-46.3	-47.8	17.2	0.00e+00	0	55	0	370147328	54	4503
2026-01-05 01:23:22.13	20.16	23.73	-46.4	-47.9	17.2	0.00e+00	0	55	0	372244480	54	4553
2026-01-05 01:23:23.11	20.09	23.88	-46.6	-48.2	16.8	0.00e+00	0	55	0	373293056	55	4476
2026-01-05 01:23:24.10	20.02	24.02	-46.4	-47.9	17.1	0.00e+00	0	55	0	375390208	55	4321
2026-01-05 01:23:25.10	19.95	24.17	-46.4	-48.0	17.0	0.00e+00	0	55	0	377487360	55	4355
2026-01-05 01:23:26.08	19.88	24.32	-46.5	-48.1	16.9	0.00e+00	0	55	0	379584512	55	4421
2026-01-05 01:23:27.06	19.82	24.46	-46.4	-48.0	17.0	0.00e+00	0	55	0	380633088	55	4367
2026-01-05 01:23:28.05	19.74	24.61	-46.5	-48.0	17.0	0.00e+00	0	55	0	382730240	55	4363
2026-01-05 01:23:29.04	19.67	24.76	-46.6	-48.1	16.9	0.00e+00	0	55	0	384827392	55	4434
2026-01-05 01:23:30.02	19.60	24.91	-46.7	-48.4	16.6	0.00e+00	0	55	0	386924544	55	4555
2026-01-05 01:23:31.02	19.53	25.07	-46.7	-48.4	16.7	0.00e+00	0	55	0	389021696	55	4548
2026-01-05 01:23:32.01	19.45	25.22	-46.9	-48.5	16.5	0.00e+00	0	55	0	390070272	55	4651
2026-01-05 01:23:33.00	19.38	25.37	-47.2	-49.0	16.2	0.00e+00	0	55	0	392167424	56	4620
2026-01-05 01:23:34.00	19.30	25.53	-47.2	-48.9	16.2	0.00e+00	0	55	0	394264576	56	4578
2026-01-05 01:23:34.99	19.23	25.68	-47.4	-49.2	16.0	0.00e+00	0	55	0	396361728	56	4731
2026-01-05 01:23:35.97	19.15	25.84	-47.3	-49.1	16.0	0.00e+00	0	55	0	397410304	56	4675
2026-01-05 01:23:36.96	19.07	25.99	-47.3	-49.1	16.1	0.00e+00	0	55	0	399507456	56	4653
2026-01-05 01:23:37.95	19.00	26.15	-47.4	-49.3	15.9	0.00e+00	0	55	0	401604608	56	4760
2026-01-05 01:23:38.94	18.92	26.31	-47.4	-49.3	15.8	0.00e+00	0	55	0	403701760	56	4781
2026-01-05 01:23:39.93	18.84	26.47	-47.6	-49.5	15.6	0.00e+00	0	55	0	405798912	56	4891
2026-01-05 01:23:40.92	18.76	26.63	-47.5	-49.4	15.7	0.00e+00	0	55	0	406847488	56	4868
2026-01-05 01:23:41.90	18.67	26.79	-47.7	-49.7	15.4	7.00e-07	0	55	0	408944640	57	4748
2026-01-05 01:23:42.89	18.59	26.95	-47.7	-49.7	15.3	0.00e+00	0	55	0	411041792	57	4753
2026-01-05 01:23:43.88	18.51	27.11	-48.0	-50.1	14.9	0.00e+00	0	55	0	413138944	57	4972
2026-01-05 01:23:44.87	18.42	27.28	-48.0	-50.2	14.9	0.00e+00	0	55	0	414187520	57	5005
2026-01-05 01:23:45.86	18.34	27.44	-48.0	-50.2	14.8	0.00e+00	0	55	0	416284672	57	5028
2026-01-05 01:23:46.85	18.25	27.61	-48.2	-50.4	14.6	0.00e+00	0	55	0	418381824	58	4861
2026-01-05 01:23:47.84	18.17	27.78	-48.2	-50.5	14.5	0.00e+00	0	55	0	420478976	58	4906
2026-01-05 01:23:48.83	18.08	27.94	-48.3	-50.7	14.2	2.20e-06	0	55	0	421527552	58	5024
2026-01-05 01:23:49.82	17.99	28.11	-48.5	-51.0	13.9	1.50e-06	0	55	0	423624704	58	5202
2026-01-05 01:23:50.82	17.90	28.28	-48.7	-51.4	13.4	3.80e-06	0	55	0	425721856	59	5117
2026-01-05 01:23:51.81	17.81	28.45	-48.9	-51.9	12.8	2.82e-05	0	55	0	427819008	59	5407
2026-01-05 01:23:52.80	17.71	28.62	-49.0	-52.1	12.5	8.77e-05	0	55	0	429916160	59	5529
2026-01-05 01:23:53.79	17.62	28.80	-49.1	-52.4	12.0	1.33e-04	0	55	0	430964736	60	5453
2026-01-05 01:23:54.78	17.53	28.97	-49.1	-52.6	11.8	3.83e-04	0	55	0	433061888	60	5566
2026-01-05 01:23:55.76	17.43	29.14	-49.2	-52.9	11.4	6.86e-04	0	55	0	435159040	60	5739
2026-01-05 01:23:56.76	17.34	29.32	-49.3	-53.1	11.1	1.55e-03	0	55	0	437256192	60	5879
2026-01-05 01:23:57.74	17.24	29.49	-49.3	-53.4	10.7	2.07e-03	0	55	0	438304768	60	6103
2026-01-05 01:23:58.73	17.14	29.67	-49.4	-53.9	10.2	3.74e-03	0	55	0	440401920	60	6429
2026-01-05 01:23:59.71	17.04	29.85	-49.6	-54.2	9.8	9.03e-03	0	55	0	442499072	61	6306
2026-01-05 01:24:00.68	16.94	30.02	-49.7	-54.4	9.6	1.19e-02	0	55	0	444596224	61	6437
2026-01-05 01:24:01.67	16.84	30.20	-49.7	-54.5	9.5	1.49e-02	0	55	0	445644800	61	6527
2026-01-05 01:24:02.66	16.74	30.39	-49.7	-54.5	9.5	1.32e-02	0	55	0	447741952	61	6551
2026-01-05 01:24:03.64	16.63	30.57	-49.8	-54.6	9.5	1.42e-02	0	55	0	449839104	61	6627
2026-01-05 01:24:04.63	16.53	30.75	-49.9	-54.6	9.7	1.30e-02	0	55	0	451936256	61	6601
2026-01-05 01:24:05.62	16.42	30.93	-49.9	-54.2	10.2	1.17e-02	0	55	0	452984832	61	6281
2026-01-05 01:24:06.62	16.31	31.12	-49.7	-53.8	10.6	5.02e-03	0	55	0	455081984	61	6039
2026-01-05 01:24:07.61	16.20	31.31	-49.6	-53.4	11.2	2.01e-03	0	55	0	457179136	61	5747
2026-01-05 01:24:08.60	16.09	31.50	-49.4	-53.0	11.7	8.98e-04	0	56	0	459276288	61	5495
2026-01-05 01:24:09.59	15.98	31.68	-49.5	-52.9	11.8	6.38e-04	0	55	0	461373440	61	5442
2026-01-05 01:24:10.58	15.87	31.87	-49.4	-52.7	12.1	3.01e-04	0	56	0	462422016	61	5308
2026-01-05 01:24:11.56	15.75	32.06	-49.3	-52.5	12.4	1.28e-04	0	55	0	464519168	61	5211
2026-01-05 01:24:12.54	15.64	32.25	-49.6	-52.9	12.0	3.04e-04	0	55	0	466616320	61	5458
2026-01-05 01:24:13.53	15.52	32.45	-49.6	-53.0	12.0	2.82e-04	0	55	0	468713472	61	5486
2026-01-05 01:24:14.52	15.40	32.64	-49.6	-53.1	11.9	5.16e-04	0	55	0	469762048	61	5570
2026-01-05 01:24:15.51	15.28	32.84	-49.7	-53.2	11.9	4.23e-04	0	56	0	471859200	61	5607
2026-01-05 01:24:16.50	15.16	33.03	-49.9	-53.5	11.6	4.68e-04	0	55	0	473956352	61	5804
2026-01-05 01:24:17.49	15.04	33.23	-49.9	-53.6	11.5	8.01e-04	0	55	0	476053504	61	5866
2026-01-05 01:24:18.48	14.91	33.43	-50.0	-53.6	11.5	8.80e-04	0	55	0	477102080	61	5893
2026-01-05 01:24:19.47	14.78	33.63	-49.9	-53.4	11.7	7.28e-04	0	55	0	479199232	61	5775
2026-01-05 01:24:20.46	14.66	33.83	-49.9	-53.4	11.8	6.13e-04	0	55	0	481296384	61	5726
2026-01-05 01:24:21.45	14.53	34.03	-49.8	-53.4	11.7	4.86e-04	0	55	0	483393536	61	5771
2026-01-05 01:24:22.43	14.40	34.23	-49.9	-53.5	11.6	6.58e-04	0	56	0	485490688	61	5810
2026-01-05 01:24:23.42	14.26	34.44	-49.9	-53.3	11.8	4.82e-04	0	56	0	486539264	61	5716
2026-01-05 01:24:24.42	14.13	34.65	-50.0	-53.6	11.5	7.19e-04	0	56	0	488636416	61	5861
2026-01-05 01:24:25.40	13.99	34.85	-49.8	-53.1	11.9	4.84e-04	0	56	0	490733568	61	5587
2026-01-05 01:24:26.39	13.85	35.06	-49.6	-52.9	12.3	2.55e-04	0	56	0	492830720	61	5433
2026-01-05 01:24:27.37	13.71	35.27	-49.8	-53.2	11.9	2.50e-04	0	56	0	493879296	61	5624
2026-01-05 01:24:28.36	13.57	35.48	-49.8	-53.2	11.9	3.71e-04	0	56	0	495976448	61	5630
2026-01-05 01:24:29.34	13.43	35.69	-49.7	-53.2	12.0	3.13e-04	0	56	0	498073600	61	5619
2026-01-05 01:24:30.33	13.28	35.90	-49.8	-53.2	11.9	4.81e-04	0	56	0	500170752	61	5645
2026-01-05 01:24:31.32	13.13	36.11	-49.9	-53.5	11.7	4.23e-04	0	56	0	501219328	61	5802
2026-01-05 01:24:32.31	12.98	36.33	-49.9	-53.5	11.6	7.12e-04	0	56	0	503316480	61	5827
2026-01-05 01:24:33.30	12.83	36.54	-49.8	-53.3	11.8	4.16e-04	0	56	0	505413632	61	5704
2026-01-05 01:24:34.28	12.68	36.76	-50.0	-53.5	11.7	5.54e-04	0	56	0	507510784	61	5849
2026-01-05 01:24:35.27	12.52	36.98	-50.0	-53.7	11.4	8.62e-04	0	56	0	508559360	61	5946
2026-01-05 01:24:36.26	12.36	37.20	-50.0	-53.6	11.6	6.02e-04	0	56	0	510656512	61	5877
2026-01-05 01:24:37.24	12.21	37.42	-49.9	-53.3	11.9	5.03e-04	0	56	0	512753664	61	5694
2026-01-05 01:24:38.24	12.04	37.64	-49.8	-53.2	12.0	5.42e-04	0	56	0	514850816	61	5643
2026-01-05 01:24:39.22	11.88	37.86	-49.7	-53.1	12.1	3.65e-04	0	56	0	515899392	61	5537
2026-01-05 01:24:40.21	11.71	38.09	-49.7	-53.0	12.2	3.09e-04	0	56	0	517996544	61	5500
2026-01-05 01:24:41.20	11.54	38.31	-49.6	-53.0	12.2	2.20e-04	0	56	0	520093696	61	5501
2026-01-05 01:24:42.19	11.37	38.54	-49.7	-53.1	12.1	2.60e-04	0	56	0	522190848	61	5543
2026-01-05 01:24:43.18	11.19	38.77	-49.6	-52.7	12.4	1.91e-04	0	56	0	524288000	61	5330
2026-01-05 01:24:44.18	11.01	39.00	-49.4	-52.6	12.6	1.69e-04	0	56	0	525336576	61	5244
2026-01-05 01:24:45.16	10.84	39.23	-49.5	-52.7	12.5	1.07e-04	0	56	0	527433728	61	5330
2026-01-05 01:24:46.15	10.65	39.46	-49.4	-52.6	12.6	9.00e-05	0	56	0	529530880	61	5236
2026-01-05 01:24:47.14	10.47	39.70	-49.2	-52.1	13.1	4.04e-05	0	56	0	531628032	61	4976
2026-01-05 01:24:48.12	10.28	39.93	-49.3	-52.2	13.0	3.43e-05	0	56	0	532676608	61	5007
2026-01-05 01:24:49.10	10.09	40.16	-49.3	-52.2	13.0	4.50e-05	0	56	0	534773760	61	5038
2026-01-05 01:24:50.10	9.90	40.40	-49.1	-51.9	13.3	1.67e-05	0	56	0	536870912	61	4834
2026-01-05 01:24:51.08	9.70	40.64	-49.2	-52.1	13.2	1.37e-05	0	56	0	538968064	61	4948
2026-01-05 01:24:52.08	9.50	40.88	-48.8	-51.5	13.7	1.50e-06	0	56	0	541065216	60	4897
2026-01-05 01:24:53.06	9.30	41.12	-48.6	-51.1	14.2	3.00e-06	0	56	0	542113792	60	4660
2026-01-05 01:24:54.05	9.09	41.36	-48.5	-50.9	14.4	7.00e-07	0	56	0	544210944	60	4546
2026-01-05 01:24:55.03	8.89	41.60	-48.6	-51.0	14.3	7.00e-07	0	56	0	546308096	60	4612
2026-01-05 01:24:56.02	8.68	41.85	-48.5	-50.9	14.4	0.00e+00	0	56	0	548405248	60	4547
2026-01-05 01:24:57.01	8.46	42.09	-48.3	-50.5	14.8	7.00e-07	0	56	0	549453824	59	4612
2026-01-05 01:24:58.00	8.24	42.34	-48.1	-50.3	15.0	0.00e+00	0	56	0	551550976	59	4508
2026-01-05 01:24:58.99	8.02	42.58	-48.1	-50.2	15.1	0.00e+00	0	56	0	553648128	59	4447
2026-01-05 01:24:59.98	7.79	42.83	-48.4	-50.7	14.6	0.00e+00	0	56	0	555745280	59	4745
2026-01-05 01:25:00.97	7.57	43.08	-48.3	-50.4	14.9	0.00e+00	0	56	0	556793856	59	4595
2026-01-05 01:25:01.96	7.33	43.33	-47.9	-50.0	15.3	0.00e+00	0	56	0	558891008	59	4356
2026-01-05 01:25:02.95	7.10	43.59	-47.8	-49.7	15.5	0.00e+00	0	56	0	560988160	58	4491
2026-01-05 01:25:03.93	6.86	43.84	-47.8	-49.8	15.5	0.00e+00	0	56	0	563085312	58	4525
2026-01-05 01:25:04.93	6.61	44.09	-47.8	-49.8	15.5	0.00e+00	0	56	0	565182464	58	4524
2026-01-05 01:25:05.92	6.36	44.35	-48.0	-50.0	15.3	0.00e+00	0	56	0	566231040	58	4638
2026-01-05 01:25:06.91	6.11	44.61	-48.1	-50.2	15.2	0.00e+00	0	56	0	568328192	58	4709
2026-01-05 01:25:07.89	5.86	44.86	-48.0	-50.1	15.2	7.00e-07	0	56	0	570425344	58	4668
2026-01-05 01:25:08.89	5.59	45.12	-48.0	-50.1	15.2	0.00e+00	0	56	0	572522496	58	4699
2026-01-05 01:25:09.87	5.33	45.38	-48.3	-50.5	14.8	0.00e+00	0	56	0	573571072	58	4902
2026-01-05 01:25:10.86	5.06	45.64	-48.1	-50.1	15.1	0.00e+00	0	56	0	575668224	58	4695
2026-01-05 01:25:11.85	4.79	45.90	-47.9	-50.0	15.3	0.00e+00	0	56	0	577765376	58	4603
2026-01-05 01:25:12.85	4.51	46.17	-47.9	-49.8	15.5	0.00e+00	0	56	0	579862528	58	4518
2026-01-05 01:25:13.84	4.22	46.43	-47.8	-49.8	15.5	0.00e+00	0	56	0	580911104	58	4508
2026-01-05 01:25:14.83	3.93	46.70	-47.9	-49.9	15.5	0.00e+00	0	56	0	583008256	58	4551
2026-01-05 01:25:15.83	3.64	46.96	-47.7	-49.6	15.7	7.00e-07	0	56	0	585105408	58	4406
2026-01-05 01:25:16.82	3.34	47.23	-47.7	-49.6	15.7	0.00e+00	0	56	0	587202560	58	4418
2026-01-05 01:25:17.82	3.03	47.50	-47.7	-49.6	15.7	0.00e+00	0	56	0	589299712	58	4438
2026-01-05 01:25:18.81	2.72	47.77	-47.5	-49.3	15.9	0.00e+00	0	56	0	590348288	58	4284
2026-01-05 01:25:19.80	2.41	48.03	-47.5	-49.3	16.0	0.00e+00	0	56	0	592445440	58	4275
2026-01-05 01:25:20.79	2.09	48.30	-47.6	-49.5	15.8	0.00e+00	0	56	0	594542592	58	4346
2026-01-05 01:25:21.78	1.76	48.57	-47.7	-49.6	15.7	0.00e+00	0	56	0	596639744	58	4420
2026-01-05 01:25:22.77	1.43	48.84	-47.8	-49.8	15.6	0.00e+00	0	56	0	597688320	58	4513
2026-01-05 01:25:23.76	1.09	49.11	-47.7	-49.6	15.7	0.00e+00	0	56	0	599785472	58	4405
2026-01-05 01:25:24.76	0.75	49.39	-47.6	-49.4	15.9	0.00e+00	0	56	0	601882624	58	4330
2026-01-05 01:25:25.74	0.40	49.66	-47.7	-49.6	15.7	0.00e+00	0	56	0	603979776	58	4400
2026-01-05 01:25:26.74	0.04	49.93	-48.0	-50.1	15.2	0.00e+00	0	56	0	606076928	58	4674
2026-01-05 01:25:27.72	359.68	50.20	-47.9	-49.9	15.4	0.00e+00	0	56	0	607125504	58	4552
2026-01-05 01:25:28.70	359.31	50.47	-47.6	-49.4	15.9	0.00e+00	0	56	0	609222656	58	4334
2026-01-05 01:25:29.69	358.94	50.75	-47.1	-48.9	16.4	0.00e+00	0	56	0	611319808	57	4308
2026-01-05 01:25:30.67	358.56	51.02	-46.9	-48.6	16.8	0.00e+00	0	56	0	612368384	56	4396
2026-01-05 01:25:31.66	358.17	51.29	-46.8	-48.3	16.9	0.00e+00	0	56	0	614465536	56	4288
2026-01-05 01:25:32.65	357.77	51.57	-46.9	-48.5	16.7	0.00e+00	0	56	0	616562688	56	4372
2026-01-05 01:25:33.63	357.37	51.84	-47.1	-48.8	16.5	0.00e+00	0	56	0	618659840	56	4496
2026-01-05 01:25:34.61	356.96	52.11	-47.0	-48.7	16.6	0.00e+00	0	56	0	620756992	56	4478
2026-01-05 01:25:35.60	356.54	52.39	-47.0	-48.7	16.6	0.00e+00	0	56	0	621805568	56	4445
2026-01-05 01:25:36.59	356.11	52.66	-47.0	-48.6	16.7	0.00e+00	0	56	0	623902720	56	4419
2026-01-05 01:25:37.57	355.68	52.93	-46.9	-48.5	16.8	0.00e+00	0	56	0	625999872	56	4386
2026-01-05 01:25:38.56	355.24	53.21	-46.6	-48.2	17.1	0.00e+00	0	56	0	628097024	56	4197
2026-01-05 01:25:39.55	354.78	53.48	-46.6	-48.0	17.2	0.00e+00	0	56	0	629145600	56	4133
2026-01-05 01:25:40.54	354.32	53.75	-46.6	-48.1	17.2	0.00e+00	0	56	0	631242752	56	4185
2026-01-05 01:25:41.53	353.85	54.03	-46.8	-48.3	17.0	0.00e+00	0	56	0	633339904	56	4276
2026-01-05 01:25:42.52	353.37	54.30	-46.8	-48.4	16.9	0.00e+00	0	56	0	635437056	56	4303
2026-01-05 01:25:43.50	352.89	54.57	-46.8	-48.4	16.9	0.00e+00	0	56	0	636485632	56	4317
2026-01-05 01:25:44.50	352.38	54.84	-47.0	-48.7	16.7	0.00e+00	0	56	0	638582784	56	4455
2026-01-05 01:25:45.49	351.88	55.11	-47.5	-49.3	16.0	0.00e+00	0	56	0	640679936	56	4808
2026-01-05 01:25:46.48	351.36	55.38	-47.8	-49.9	15.4	0.00e+00	0	56	0	642777088	57	4824
2026-01-05 01:25:47.46	350.84	55.64	-47.9	-49.9	15.4	0.00e+00	0	56	0	644874240	57	4857
2026-01-05 01:25:48.46	350.29	55.91	-48.2	-50.3	15.1	0.00e+00	0	56	0	645922816	58	4769
2026-01-05 01:25:49.44	349.75	56.18	-48.5	-50.7	14.6	0.00e+00	0	56	0	648019968	58	5037
2026-01-05 01:25:50.43	349.19	56.44	-48.7	-51.1	14.3	1.50e-06	0	56	0	650117120	59	4960
2026-01-05 01:25:51.42	348.62	56.70	-48.6	-50.9	14.4	2.20e-06	0	56	0	652214272	59	4858
2026-01-05 01:25:52.41	348.04	56.97	-48.4	-50.6	14.7	0.00e+00	0	56	0	653262848	59	4705
2026-01-05 01:25:53.40	347.45	57.23	-48.4	-50.7	14.6	0.00e+00	0	56	0	655360000	59	4722
2026-01-05 01:25:54.39	346.84	57.48	-48.5	-50.7	14.6	0.00e+00	0	56	0	657457152	59	4740
2026-01-05 01:25:55.37	346.24	57.74	-48.4	-50.5	14.9	0.00e+00	0	56	0	659554304	59	4637
2026-01-05 01:25:56.36	345.61	57.99	-48.3	-50.4	14.9	7.00e-07	0	56	0	660602880	59	4587
2026-01-05 01:25:57.34	344.98	58.24	-48.1	-50.2	15.2	0.00e+00	0	56	0	662700032	59	4469
2026-01-05 01:25:58.33	344.33	58.49	-48.2	-50.3	15.1	0.00e+00	0	56	0	664797184	59	4506
2026-01-05 01:25:59.32	343.66	58.74	-48.4	-50.6	14.7	0.00e+00	0	56	0	666894336	59	4684
2026-01-05 01:26:00.32	342.98	58.98	-48.5	-50.8	14.6	1.50e-06	0	56	0	668991488	59	4798
2026-01-05 01:26:01.30	342.30	59.22	-48.3	-50.5	14.8	7.00e-07	0	56	0	670040064	59	4625
2026-01-05 01:26:02.29	341.60	59.46	-47.9	-50.0	15.4	0.00e+00	0	56	0	672137216	59	4357
2026-01-05 01:26:03.28	340.88	59.70	-47.4	-49.1	16.2	0.00e+00	0	56	0	674234368	58	4190
2026-01-05 01:26:04.26	340.16	59.93	-47.0	-48.7	16.6	0.00e+00	0	56	0	676331520	57	4199
2026-01-05 01:26:05.26	339.42	60.16	-47.0	-48.6	16.7	0.00e+00	0	56	0	677380096	57	4177
2026-01-05 01:26:06.25	338.66	60.38	-47.2	-48.9	16.4	0.00e+00	0	56	0	679477248	57	4333
2026-01-05 01:26:07.24	337.90	60.60	-47.3	-49.0	16.4	0.00e+00	0	56	0	681574400	57	4357
2026-01-05 01:26:08.23	337.12	60.82	-47.5	-49.3	16.1	0.00e+00	0	56	0	683671552	57	4519
2026-01-05 01:26:09.22	336.32	61.03	-47.2	-48.9	16.4	0.00e+00	0	56	0	684720128	57	4337
2026-01-05 01:26:10.21	335.51	61.24	-47.0	-48.6	16.7	0.00e+00	0	56	0	686817280	57	4192
2026-01-05 01:26:11.19	334.70	61.45	-46.7	-48.2	17.2	0.00e+00	0	56	0	688914432	56	4231
2026-01-05 01:26:12.18	333.87	61.65	-46.6	-48.1	17.3	0.00e+00	0	56	0	691011584	56	4149
2026-01-05 01:26:13.17	333.02	61.84	-46.0	-47.4	17.8	0.00e+00	0	57	0	692060160	55	4056
2026-01-05 01:26:14.15	332.17	62.03	-45.8	-47.1	18.1	0.00e+00	0	56	0	694157312	54	4189
2026-01-05 01:26:15.14	331.29	62.22	-45.7	-47.0	18.1	0.00e+00	0	56	0	696254464	54	4143
2026-01-05 01:26:16.14	330.39	62.40	-45.7	-47.0	18.2	0.00e+00	0	56	0	698351616	54	4106
2026-01-05 01:26:17.12	329.50	62.57	-45.9	-47.2	18.0	0.00e+00	0	56	0	700448768	54	4234
2026-01-05 01:26:18.11	328.59	62.74	-46.1	-47.5	17.8	0.00e+00	0	56	0	701497344	54	4344
2026-01-05 01:26:19.10	327.66	62.90	-46.0	-47.3	17.9	0.00e+00	0	56	0	703594496	54	4272
2026-01-05 01:26:20.09	326.72	63.06	-45.7	-46.9	18.3	0.00e+00	0	56	0	705691648	54	4096
2026-01-05 01:26:21.08	325.77	63.21	-45.6	-46.8	18.4	0.00e+00	0	56	0	707788800	54	4021
2026-01-05 01:26:22.07	324.81	63.36	-45.5	-46.8	18.4	0.00e+00	0	56	0	708837376	54	4006
2026-01-05 01:26:23.06	323.83	63.49	-45.7	-47.0	18.2	0.00e+00	0	56	0	710934528	54	4135
2026-01-05 01:26:24.05	322.84	63.63	-46.1	-47.5	17.8	0.00e+00	0	56	0	713031680	54	4350
2026-01-05 01:26:25.05	321.84	63.75	-46.2	-47.6	17.7	0.00e+00	0	56	0	715128832	54	4408
2026-01-05 01:26:26.04	320.83	63.87	-46.3	-47.7	17.6	0.00e+00	0	56	0	717225984	54	4466
2026-01-05 01:26:27.04	319.80	63.98	-46.1	-47.5	17.8	0.00e+00	0	56	0	718274560	54	4345
2026-01-05 01:26:28.02	318.78	64.08	-46.0	-47.3	18.0	0.00e+00	0	56	0	720371712	54	4278
2026-01-05 01:26:29.01	317.75	64.18	-46.0	-47.3	18.0	0.00e+00	0	56	0	722468864	54	4263
2026-01-05 01:26:30.00	316.70	64.27	-46.1	-47.4	17.9	0.00e+00	0	56	0	724566016	54	4304
2026-01-05 01:26:30.98	315.66	64.35	-46.1	-47.4	17.9	0.00e+00	0	56	0	725614592	54	4322
2026-01-05 01:26:31.96	314.61	64.42	-46.0	-47.4	17.9	0.00e+00	0	56	0	727711744	54	4295
2026-01-05 01:26:32.95	313.54	64.48	-46.1	-47.4	17.8	0.00e+00	0	56	0	729808896	54	4332
2026-01-05 01:26:33.94	312.47	64.54	-46.1	-47.4	17.8	0.00e+00	0	56	0	731906048	54	4323
2026-01-05 01:26:34.93	311.39	64.59	-46.2	-47.6	17.7	0.00e+00	0	56	0	732954624	54	4406
2026-01-05 01:26:35.92	310.31	64.63	-46.3	-47.7	17.5	0.00e+00	0	56	0	735051776	54	4477
2026-01-05 01:26:36.91	309.23	64.66	-46.3	-47.7	17.6	0.00e+00	0	56	0	737148928	54	4457
2026-01-05 01:26:37.89	308.15	64.69	-46.7	-48.2	17.1	0.00e+00	0	56	0	739246080	55	4458
2026-01-05 01:26:38.89	307.05	64.71	-46.8	-48.4	16.9	0.00e+00	0	56	0	741343232	55	4572
2026-01-05 01:26:39.88	305.96	64.71	-46.7	-48.2	17.1	0.00e+00	0	56	0	742391808	55	4454
2026-01-05 01:26:40.87	304.87	64.71	-46.1	-47.4	17.8	0.00e+00	0	56	0	744488960	55	4083
2026-01-05 01:26:41.86	303.78	64.71	-46.0	-47.3	17.9	0.00e+00	0	56	0	746586112	55	4036
2026-01-05 01:26:42.84	302.70	64.69	-46.4	-47.8	17.5	0.00e+00	0	56	0	748683264	55	4286
2026-01-05 01:26:43.84	301.60	64.66	-46.5	-47.9	17.3	0.00e+00	0	56	0	749731840	55	4335
2026-01-05 01:26:44.82	300.53	64.63	-46.3	-47.7	17.5	0.00e+00	0	56	0	751828992	55	4224
2026-01-05 01:26:45.81	299.45	64.59	-45.8	-47.1	18.1	0.00e+00	0	56	0	753926144	54	4181
2026-01-05 01:26:46.80	298.37	64.54	-45.8	-47.0	18.2	0.00e+00	0	56	0	756023296	54	4125
2026-01-05 01:26:47.79	297.30	64.48	-46.1	-47.5	17.8	0.00e+00	0	56	0	757071872	54	4343
2026-01-05 01:26:48.79	296.22	64.42	-46.1	-47.5	17.8	0.00e+00	0	56	0	759169024	54	4350
2026-01-05 01:26:49.78	295.16	64.35	-46.1	-47.4	17.8	0.00e+00	0	56	0	761266176	54	4323
2026-01-05 01:26:50.76	294.12	64.27	-45.9	-47.2	18.0	0.00e+00	0	56	0	763363328	54	4224
2026-01-05 01:26:51.75	293.07	64.18	-46.1	-47.4	17.9	0.00e+00	0	56	0	765460480	54	4316
2026-01-05 01:26:52.74	292.03	64.08	-46.2	-47.6	17.6	0.00e+00	0	56	0	766509056	54	4433
2026-01-05 01:26:53.73	291.01	63.98	-46.5	-48.0	17.1	0.00e+00	0	56	0	768606208	54	4638
2026-01-05 01:26:54.72	289.99	63.87	-46.4	-47.8	17.5	0.00e+00	0	56	0	770703360	55	4252
2026-01-05 01:26:55.70	288.99	63.75	-46.0	-47.3	17.9	0.00e+00	0	57	0	772800512	55	4026
2026-01-05 01:26:56.68	288.00	63.63	-45.8	-47.1	18.2	0.00e+00	0	56	0	773849088	54	4161
2026-01-05 01:26:57.67	287.01	63.50	-45.7	-47.0	18.3	0.00e+00	0	56	0	775946240	54	4121
2026-01-05 01:26:58.66	286.04	63.36	-45.5	-46.7	18.5	0.00e+00	0	56	0	778043392	54	3978
2026-01-05 01:26:59.64	285.08	63.22	-45.6	-46.8	18.5	0.00e+00	0	56	0	780140544	54	4035
2026-01-05 01:27:00.63	284.13	63.06	-45.3	-46.5	18.7	0.00e+00	0	56	0	781189120	53	4101
2026-01-05 01:27:01.62	283.19	62.91	-45.0	-46.1	19.0	0.00e+00	0	56	0	783286272	53	3949
2026-01-05 01:27:02.61	282.26	62.74	-45.0	-46.1	19.1	0.00e+00	0	56	0	785383424	53	3956
2026-01-05 01:27:03.59	281.36	62.58	-45.1	-46.3	18.9	0.00e+00	0	56	0	787480576	53	4018
2026-01-05 01:27:04.58	280.45	62.40	-45.3	-46.4	18.7	0.00e+00	0	57	0	788529152	53	4096
2026-01-05 01:27:05.57	279.56	62.22	-45.6	-46.8	18.4	0.00e+00	0	56	0	790626304	53	4288
2026-01-05 01:27:06.55	278.70	62.04	-45.7	-47.0	18.1	0.00e+00	0	56	0	792723456	53	4372
2026-01-05 01:27:07.55	277.83	61.85	-46.0	-47.3	17.9	0.00e+00	0	56	0	794820608	53	4544
2026-01-05 01:27:08.55	276.97	61.65	-46.2	-47.6	17.6	0.00e+00	0	57	0	796917760	54	4411
2026-01-05 01:27:09.54	276.13	61.45	-46.2	-47.5	17.7	0.00e+00	0	56	0	797966336	54	4378
2026-01-05 01:27:10.53	275.31	61.24	-46.5	-48.0	17.3	0.00e+00	0	56	0	800063488	54	4615
2026-01-05 01:27:11.51	274.51	61.03	-46.9	-48.5	16.7	0.00e+00	0	56	0	802160640	55	4631
2026-01-05 01:27:12.51	273.71	60.82	-47.5	-49.2	16.1	0.00e+00	0	57	0	804257792	56	4738
2026-01-05 01:27:13.49	272.93	60.60	-47.7	-49.5	15.9	0.00e+00	0	56	0	805306368	57	4640
2026-01-05 01:27:14.48	272.17	60.38	-47.8	-49.8	15.6	0.00e+00	0	57	0	807403520	57	4761
2026-01-05 01:27:15.47	271.41	60.16	-48.1	-50.1	15.3	0.00e+00	0	57	0	809500672	58	4686
2026-01-05 01:27:16.47	270.66	59.92	-48.3	-50.4	15.0	0.00e+00	0	57	0	811597824	58	4817
2026-01-05 01:27:17.46	269.94	59.69	-49.0	-51.5	13.8	0.00e+00	0	56	0	812646400	59	5213
2026-01-05 01:27:18.45	269.22	59.46	-49.5	-52.5	12.9	3.28e-05	0	56	0	814743552	60	5490
2026-01-05 01:27:19.44	268.52	59.22	-49.9	-53.3	12.0	2.83e-04	0	56	0	816840704	61	5710
2026-01-05 01:27:20.43	267.83	58.98	-49.8	-53.3	12.0	4.20e-04	0	57	0	818937856	61	5701
2026-01-05 01:27:21.42	267.15	58.73	-49.6	-52.6	12.7	1.65e-04	0	57	0	821035008	61	5260
2026-01-05 01:27:22.41	266.49	58.48	-49.5	-52.6	12.7	6.71e-05	0	57	0	822083584	61	5251
2026-01-05 01:27:23.40	265.84	58.23	-49.4	-52.4	12.9	5.49e-05	0	57	0	824180736	61	5117
2026-01-05 01:27:24.39	265.20	57.98	-49.4	-52.4	12.8	4.34e-05	0	56	0	826277888	61	5131
2026-01-05 01:27:25.38	264.57	57.73	-49.6	-52.8	12.5	1.31e-04	0	56	0	828375040	61	5398
2026-01-05 01:27:26.37	263.96	57.47	-49.7	-52.9	12.4	1.91e-04	0	56	0	829423616	61	5441
2026-01-05 01:27:27.36	263.35	57.21	-49.2	-51.9	13.3	5.11e-05	0	56	0	831520768	61	4860
2026-01-05 01:27:28.35	262.76	56.95	-48.6	-50.9	14.4	1.50e-06	0	56	0	833617920	60	4595
2026-01-05 01:27:29.34	262.18	56.69	-48.3	-50.4	14.9	0.00e+00	0	57	0	835715072	59	4564
2026-01-05 01:27:30.33	261.61	56.43	-48.1	-50.1	15.2	0.00e+00	0	56	0	837812224	59	4422
2026-01-05 01:27:31.32	261.05	56.16	-48.0	-50.0	15.4	0.00e+00	0	56	0	838860800	59	4360
2026-01-05 01:27:32.30	260.51	55.90	-47.9	-49.8	15.6	0.00e+00	0	56	0	840957952	58	4502
2026-01-05 01:27:33.30	259.96	55.63	-47.8	-49.8	15.6	0.00e+00	0	56	0	843055104	58	4498
2026-01-05 01:27:34.28	259.44	55.36	-47.9	-49.8	15.6	0.00e+00	0	57	0	845152256	58	4509
2026-01-05 01:27:35.27	258.92	55.09	-47.9	-50.0	15.5	0.00e+00	0	56	0	846200832	58	4608
2026-01-05 01:27:36.27	258.41	54.82	-47.9	-49.9	15.4	0.00e+00	0	56	0	848297984	58	4576
2026-01-05 01:27:37.26	257.91	54.55	-47.5	-49.3	16.1	0.00e+00	0	56	0	850395136	58	4261
2026-01-05 01:27:38.25	257.42	54.28	-47.4	-49.2	16.1	0.00e+00	0	56	0	852492288	57	4445
2026-01-05 01:27:39.24	256.94	54.00	-47.7	-49.6	15.8	0.00e+00	0	56	0	853540864	57	4655
2026-01-05 01:27:40.22	256.47	53.73	-47.9	-49.9	15.5	0.00e+00	0	57	0	855638016	57	4818
2026-01-05 01:27:41.21	256.01	53.46	-48.3	-50.6	14.8	1.50e-06	0	56	0	857735168	58	4945
2026-01-05 01:27:42.20	255.56	53.18	-48.7	-51.1	14.3	0.00e+00	0	56	0	859832320	59	4977
2026-01-05 01:27:43.18	255.12	52.91	-49.1	-51.9	13.4	7.60e-06	0	57	0	861929472	60	5116
2026-01-05 01:27:44.18	254.68	52.64	-48.9	-51.6	13.8	6.80e-06	0	57	0	862978048	60	4930
2026-01-05 01:27:45.16	254.25	52.36	-48.7	-51.2	14.2	3.00e-06	0	56	0	865075200	60	4722
2026-01-05 01:27:46.15	253.83	52.09	-48.5	-50.9	14.5	0.00e+00	0	57	0	867172352	60	4572
2026-01-05 01:27:47.13	253.42	51.82	-48.5	-50.9	14.4	0.00e+00	0	56	0	869269504	60	4562
2026-01-05 01:27:48.13	253.02	51.54	-48.8	-51.2	14.1	1.50e-06	0	56	0	870318080	60	4749
2026-01-05 01:27:49.12	252.62	51.26	-48.8	-51.3	14.0	7.00e-07	0	57	0	872415232	60	4776
2026-01-05 01:27:50.11	252.23	50.99	-49.4	-52.4	12.9	1.60e-05	0	57	0	874512384	60	5412
2026-01-05 01:27:51.10	251.84	50.71	-49.3	-52.2	13.1	3.28e-05	0	57	0	876609536	60	5287
2026-01-05 01:27:52.09	251.47	50.44	-49.5	-52.5	12.8	5.26e-05	0	57	0	877658112	60	5507
2026-01-05 01:27:53.08	251.10	50.17	-49.3	-52.1	13.2	4.65e-05	0	56	0	879755264	60	5245
2026-01-05 01:27:54.08	250.73	49.89	-49.4	-52.2	13.1	3.05e-05	0	57	0	881852416	60	5332
2026-01-05 01:27:55.06	250.38	49.62	-49.5	-52.4	12.9	4.27e-05	0	57	0	883949568	60	5457
2026-01-05 01:27:56.05	250.03	49.35	-49.1	-51.8	13.5	1.60e-05	0	57	0	884998144	60	5048
2026-01-05 01:27:57.03	249.69	49.08	-49.2	-52.0	13.3	1.90e-05	0	57	0	887095296	60	5185
2026-01-05 01:27:58.03	249.35	48.80	-49.0	-51.7	13.6	1.60e-05	0	57	0	889192448	60	4997
2026-01-05 01:27:59.02	249.02	48.53	-48.9	-51.4	14.0	1.50e-06	0	57	0	891289600	60	4844
2026-01-05 01:28:00.00	248.69	48.26	-48.8	-51.4	13.8	1.50e-06	0	57	0	893386752	60	4858
2026-01-05 01:28:00.99	248.37	47.99	-48.9	-51.5	13.8	4.50e-06	0	57	0	894435328	60	4905
2026-01-05 01:28:01.97	248.06	47.73	-48.6	-51.0	14.4	7.00e-07	0	57	0	896532480	60	4608
2026-01-05 01:28:02.97	247.75	47.46	-48.3	-50.5	14.8	7.00e-07	0	56	0	898629632	59	4636
2026-01-05 01:28:03.95	247.45	47.19	-48.2	-50.3	15.1	0.00e+00	0	57	0	900726784	59	4517
2026-01-05 01:28:04.94	247.15	46.93	-48.0	-50.0	15.4	0.00e+00	0	57	0	901775360	59	4348
2026-01-05 01:28:05.93	246.86	46.66	-47.8	-49.8	15.6	0.00e+00	0	56	0	903872512	58	4495
2026-01-05 01:28:06.91	246.57	46.40	-47.8	-49.7	15.6	0.00e+00	0	56	0	905969664	58	4490
2026-01-05 01:28:07.90	246.29	46.13	-48.1	-50.1	15.3	0.00e+00	0	57	0	908066816	58	4671
2026-01-05 01:28:08.89	246.01	45.87	-48.3	-50.4	14.9	0.00e+00	0	57	0	909115392	58	4840
2026-01-05 01:28:09.88	245.73	45.61	-48.1	-50.2	15.2	0.00e+00	0	57	0	911212544	58	4717
2026-01-05 01:28:10.88	245.46	45.34	-48.0	-50.1	15.2	0.00e+00	0	57	0	913309696	58	4671
2026-01-05 01:28:11.86	245.20	45.09	-48.1	-50.1	15.3	0.00e+00	0	57	0	915406848	58	4666
2026-01-05 01:28:12.86	244.93	44.83	-47.9	-50.0	15.4	0.00e+00	0	56	0	917504000	58	4607
2026-01-05 01:28:13.85	244.68	44.57	-48.0	-50.1	15.2	0.00e+00	0	56	0	918552576	58	4675
2026-01-05 01:28:14.85	244.42	44.31	-48.2	-50.3	15.0	7.00e-07	0	56	0	920649728	58	4814
2026-01-05 01:28:15.83	244.17	44.05	-48.4	-50.7	14.6	0.00e+00	0	57	0	922746880	58	5015
2026-01-05 01:28:16.82	243.93	43.80	-48.7	-51.2	14.2	1.50e-06	0	56	0	924844032	59	5021
2026-01-05 01:28:17.81	243.69	43.55	-49.1	-51.8	13.5	6.10e-06	0	56	0	925892608	60	5055
2026-01-05 01:28:18.80	243.45	43.29	-49.1	-51.7	13.5	1.52e-05	0	57	0	927989760	60	5030
2026-01-05 01:28:19.79	243.22	43.04	-49.2	-52.0	13.2	1.37e-05	0	56	0	930086912	60	5187
2026-01-05 01:28:20.77	242.99	42.79	-49.1	-51.7	13.5	1.22e-05	0	57	0	932184064	60	5036
2026-01-05 01:28:21.76	242.77	42.54	-49.1	-51.9	13.4	8.30e-06	0	57	0	933232640	60	5110
2026-01-05 01:28:22.76	242.54	42.29	-49.1	-51.8	13.5	1.14e-05	0	57	0	935329792	60	5066
2026-01-05 01:28:23.75	242.32	42.05	-49.1	-51.8	13.5	1.06e-05	0	57	0	937426944	60	5046
2026-01-05 01:28:24.74	242.11	41.80	-49.2	-51.9	13.4	1.14e-05	0	56	0	939524096	60	5155
2026-01-05 01:28:25.73	241.89	41.55	-49.4	-52.4	12.8	3.50e-05	0	57	0	941621248	60	5441
2026-01-05 01:28:26.72	241.69	41.31	-49.7	-52.8	12.4	9.15e-05	0	57	0	942669824	61	5369
2026-01-05 01:28:27.70	241.48	41.07	-49.9	-53.2	12.0	1.84e-04	0	57	0	944766976	61	5647
2026-01-05 01:28:28.68	241.28	40.83	-50.0	-53.6	11.6	5.25e-04	0	57	0	946864128	61	5910
2026-01-05 01:28:29.66	241.08	40.59	-50.2	-54.0	11.2	1.15e-03	0	57	0	948961280	62	5847
2026-01-05 01:28:30.65	240.89	40.36	-50.3	-54.2	11.0	2.40e-03	0	57	0	950009856	62	5966
2026-01-05 01:28:31.64	240.69	40.12	-50.4	-54.5	10.7	1.65e-03	0	57	0	952107008	62	6170
2026-01-05 01:28:32.63	240.50	39.88	-50.6	-54.8	10.4	3.47e-03	0	56	0	954204160	62	6368
2026-01-05 01:28:33.62	240.31	39.65	-50.6	-54.8	10.4	4.27e-03	0	57	0	956301312	63	6049
2026-01-05 01:28:34.61	240.13	39.41	-50.7	-55.0	10.1	6.47e-03	0	57	0	957349888	63	6174
2026-01-05 01:28:35.60	239.94	39.18	-50.5	-54.6	10.6	4.40e-03	0	57	0	959447040	63	5894
2026-01-05 01:28:36.58	239.77	38.95	-50.5	-54.7	10.5	4.72e-03	0	57	0	961544192	63	5964
2026-01-05 01:28:37.57	239.59	38.72	-50.3	-54.3	10.8	3.21e-03	0	57	0	963641344	63	5677
2026-01-05 01:28:38.56	239.41	38.49	-50.4	-54.3	10.9	1.56e-03	0	57	0	964689920	63	5693
2026-01-05 01:28:39.55	239.24	38.26	-50.2	-53.9	11.2	1.45e-03	0	57	0	966787072	63	5427
2026-01-05 01:28:40.54	239.07	38.04	-50.1	-53.7	11.5	1.15e-03	0	57	0	968884224	63	5328
2026-01-05 01:28:41.52	238.90	37.81	-49.8	-53.1	12.1	4.45e-04	0	57	0	970981376	62	5276
2026-01-05 01:28:42.52	238.74	37.59	-49.6	-52.7	12.6	1.57e-04	0	57	0	973078528	62	5003
2026-01-05 01:28:43.51	238.57	37.36	-49.4	-52.5	12.8	9.07e-05	0	57	0	974127104	62	4874
2026-01-05 01:28:44.50	238.41	37.14	-49.4	-52.4	12.9	3.81e-05	0	57	0	976224256	61	5136
2026-01-05 01:28:45.49	238.25	36.92	-49.4	-52.3	12.9	5.87e-05	0	57	0	978321408	61	5042
2026-01-05 01:28:46.48	238.10	36.70	-49.1	-51.8	13.5	2.28e-05	0	57	0	980418560	61	4786
2026-01-05 01:28:47.47	237.94	36.49	-49.0	-51.7	13.6	1.14e-05	0	57	0	981467136	61	4725
2026-01-05 01:28:48.46	237.79	36.27	-48.9	-51.5	13.8	4.50e-06	0	57	0	983564288	60	4887
2026-01-05 01:28:49.44	237.64	36.05	-48.7	-51.2	14.0	2.20e-06	0	57	0	985661440	60	4747
2026-01-05 01:28:50.43	237.49	35.84	-48.6	-51.1	14.2	1.50e-06	0	57	0	987758592	60	4655
2026-01-05 01:28:51.43	237.35	35.63	-48.6	-51.0	14.3	7.00e-07	0	57	0	989855744	60	4626
2026-01-05 01:28:52.42	237.20	35.41	-48.6	-51.0	14.3	7.00e-07	0	57	0	990904320	60	4619
2026-01-05 01:28:53.41	237.06	35.20	-48.7	-51.2	14.0	1.50e-06	0	57	0	993001472	60	4749
2026-01-05 01:28:54.39	236.92	34.99	-49.0	-51.6	13.7	4.50e-06	0	57	0	995098624	60	4966
2026-01-05 01:28:55.38	236.78	34.79	-49.2	-52.0	13.3	1.22e-05	0	57	0	997195776	60	5174
2026-01-05 01:28:56.37	236.64	34.58	-49.2	-52.2	13.1	3.20e-05	0	57	0	998244352	60	5287
2026-01-05 01:28:57.36	236.51	34.37	-49.4	-52.3	12.9	1.98e-05	0	57	0	1000341504	60	5366
2026-01-05 01:28:58.35	236.38	34.17	-49.4	-52.3	12.9	6.02e-05	0	57	0	1002438656	60	5382
2026-01-05 01:28:59.35	236.24	33.96	-49.1	-51.9	13.3	1.06e-05	0	57	0	1004535808	60	5135
2026-01-05 01:29:00.33	236.11	33.76	-48.9	-51.6	13.7	4.50e-06	0	57	0	1005584384	60	4940
2026-01-05 01:29:01.31	235.99	33.56	-48.8	-51.3	13.9	3.00e-06	0	57	0	1007681536	60	4810
2026-01-05 01:29:02.30	235.86	33.36	-48.7	-51.2	14.0	1.50e-06	0	57	0	1009778688	60	4724
2026-01-05 01:29:03.29	235.73	33.16	-48.7	-51.2	14.0	7.60e-06	0	57	0	1011875840	60	4759
2026-01-05 01:29:04.28	235.61	32.96	-48.8	-51.4	13.9	2.20e-06	0	57	0	1012924416	60	4838
2026-01-05 01:29:05.27	235.49	32.77	-48.8	-51.5	13.8	8.30e-06	0	57	0	1015021568	60	4900
2026-01-05 01:29:06.26	235.37	32.57	-49.1	-51.9	13.4	7.60e-06	0	57	0	1017118720	60	5128
2026-01-05 01:29:07.25	235.25	32.38	-49.4	-52.3	12.9	3.81e-05	0	57	0	1019215872	60	5376
2026-01-05 01:29:08.23	235.13	32.19	-49.5	-52.6	12.6	6.48e-05	0	57	0	1021313024	60	5586
2026-01-05 01:29:09.22	235.01	31.99	-49.4	-52.6	12.6	1.04e-04	0	57	0	1022361600	60	5567
2026-01-05 01:29:10.20	234.90	31.80	-49.5	-52.5	12.7	7.24e-05	0	57	0	1024458752	60	5502
2026-01-05 01:29:11.20	234.79	31.61	-49.3	-52.5	12.8	8.23e-05	0	57	0	1026555904	60	5479
2026-01-05 01:29:12.19	234.67	31.42	-49.5	-52.7	12.6	7.32e-05	0	57	0	1028653056	60	5608
2026-01-05 01:29:13.18	234.56	31.23	-49.6	-52.7	12.5	1.02e-04	0	57	0	1029701632	61	5328
2026-01-05 01:29:14.16	234.45	31.05	-49.5	-52.8	12.4	1.33e-04	0	57	0	1031798784	61	5368
2026-01-05 01:29:15.15	234.35	30.86	-49.4	-52.4	12.8	9.46e-05	0	57	0	1033895936	61	5148
2026-01-05 01:29:16.14	234.24	30.68	-49.1	-51.9	13.2	2.59e-05	0	57	0	1035993088	61	4862
2026-01-05 01:29:17.12	234.13	30.50	-49.0	-51.8	13.5	1.37e-05	0	57	0	1037041664	61	4762
2026-01-05 01:29:18.11	234.03	30.31	-48.9	-51.5	13.7	9.10e-06	0	57	0	1039138816	60	4917
2026-01-05 01:29:19.10	233.93	30.13	-49.0	-51.7	13.6	6.10e-06	0	57	0	1041235968	60	4996
2026-01-05 01:29:20.09	233.82	29.95	-49.0	-51.7	13.5	6.80e-06	0	57	0	1043333120	60	5030
2026-01-05 01:29:21.08	233.72	29.77	-49.1	-51.9	13.3	1.06e-05	0	57	0	1045430272	60	5130
2026-01-05 01:29:22.07	233.62	29.59	-49.2	-52.1	13.2	2.89e-05	0	57	0	1046478848	60	5230
2026-01-05 01:29:23.05	233.52	29.42	-49.3	-52.4	12.8	4.95e-05	0	57	0	1048576000	60	5453
2026-01-05 01:29:24.05	233.43	29.24	-49.4	-52.5	12.7	6.02e-05	0	57	0	1050673152	60	5479
2026-01-05 01:29:25.04	233.33	29.06	-49.6	-52.8	12.4	9.61e-05	0	57	0	1052770304	60	5659
2026-01-05 01:29:26.03	233.23	28.89	-49.5	-52.7	12.5	8.62e-05	0	57	0	1053818880	61	5291
2026-01-05 01:29:27.02	233.14	28.71	-49.6	-52.8	12.4	1.34e-04	0	57	0	1055916032	61	5383
2026-01-05 01:29:28.01	233.05	28.54	-49.7	-53.0	12.2	1.62e-04	0	57	0	1058013184	61	5491
2026-01-05 01:29:28.99	232.95	28.37	-49.5	-52.8	12.4	1.76e-04	0	57	0	1060110336	61	5353
2026-01-05 01:29:29.97	232.86	28.20	-49.4	-52.5	12.7	9.00e-05	0	57	0	1061158912	61	5191
2026-01-05 01:29:30.97	232.77	28.03	-49.4	-52.4	12.8	5.26e-05	0	57	0	1063256064	61	5123
2026-01-05 01:29:31.95	232.68	27.86	-49.3	-52.2	13.1	3.66e-05	0	57	0	1065353216	61	4984
2026-01-05 01:29:32.94	232.60	27.70	-49.0	-51.8	13.4	2.74e-05	0	57	0	1067450368	61	4763
2026-01-05 01:29:33.93	232.51	27.53	-48.8	-51.4	13.8	6.10e-06	0	57	0	1069547520	60	4844
2026-01-05 01:29:34.92	232.42	27.36	-48.8	-51.3	13.9	1.50e-06	0	57	0	1070596096	60	4795
2026-01-05 01:29:35.91	232.34	27.20	-48.8	-51.4	13.8	4.50e-06	0	57	0	1072693248	60	4823
2026-01-05 01:29:36.90	232.25	27.03	-48.7	-51.2	14.0	3.00e-06	0	57	0	1074790400	60	4744
2026-01-05 01:29:37.89	232.17	26.87	-48.6	-51.2	14.0	3.00e-06	0	57	0	1076887552	60	4714
2026-01-05 01:29:38.88	232.09	26.71	-48.7	-51.3	13.8	6.10e-06	0	57	0	1077936128	60	4809
2026-01-05 01:29:39.87	232.00	26.55	-48.8	-51.4	13.8	3.00e-06	0	57	0	1080033280	60	4848
2026-01-05 01:29:40.85	231.92	26.39	-48.8	-51.4	13.8	4.50e-06	0	57	0	1082130432	60	4847
2026-01-05 01:29:41.84	231.84	26.23	-48.8	-51.4	13.8	3.80e-06	0	57	0	1084227584	60	4861
2026-01-05 01:29:42.83	231.76	26.07	-48.9	-51.5	13.7	1.50e-06	0	57	0	1085276160	60	4909
2026-01-05 01:29:43.82	231.68	25.91	-48.9	-51.6	13.6	7.60e-06	0	57	0	1087373312	60	4952
2026-01-05 01:29:44.81	231.61	25.75	-49.0	-51.8	13.4	1.06e-05	0	57	0	1089470464	60	5054
2026-01-05 01:29:45.80	231.53	25.60	-49.0	-51.6	13.5	1.29e-05	0	57	0	1091567616	60	4979
2026-01-05 01:29:46.79	231.45	25.44	-48.9	-51.7	13.6	5.30e-06	0	57	0	1093664768	60	4985
2026-01-05 01:29:47.78	231.38	25.29	-48.9	-51.6	13.6	7.60e-06	0	57	0	1094713344	60	4959
2026-01-05 01:29:48.77	231.30	25.13	-48.9	-51.5	13.7	4.50e-06	0	57	0	1096810496	60	4894
2026-01-05 01:29:49.76	231.23	24.98	-48.9	-51.5	13.7	7.60e-06	0	57	0	1098907648	60	4898
2026-01-05 01:29:50.75	231.16	24.83	-49.1	-51.9	13.3	8.30e-06	0	57	0	1101004800	60	5126
2026-01-05 01:29:51.74	231.08	24.68	-49.0	-51.8	13.4	3.28e-05	0	57	0	1102053376	60	5049
2026-01-05 01:29:52.73	231.01	24.53	-48.9	-51.5	13.6	9.10e-06	0	57	0	1104150528	60	4904
2026-01-05 01:29:53.72	230.94	24.38	-48.9	-51.5	13.6	4.50e-06	0	57	0	1106247680	60	4901
2026-01-05 01:29:54.71	230.87	24.23	-48.9	-51.6	13.6	7.60e-06	0	57	0	1108344832	60	4964
2026-01-05 01:29:55.69	230.80	24.08	-49.0	-51.8	13.4	1.52e-05	0	57	0	1109393408	60	5063
2026-01-05 01:29:56.67	230.73	23.94	-49.0	-51.7	13.5	1.14e-05	0	57	0	1111490560	60	4997
2026-01-05 01:29:57.67	230.66	23.79	-49.1	-51.9	13.3	7.60e-06	0	57	0	1113587712	60	5105
2026-01-05 01:29:58.66	230.60	23.64	-48.9	-51.6	13.5	1.98e-05	0	57	0	1115684864	60	4954
2026-01-05 01:29:59.64	230.53	23.50	-48.6	-51.2	14.0	3.80e-06	0	57	0	1117782016	60	4714
2026-01-05 01:30:00.63	230.46	23.36	-48.6	-51.0	14.2	2.20e-06	0	57	0	1118830592	60	4643
2026-01-05 01:30:01.61	230.40	23.21	-48.5	-50.8	14.4	7.00e-07	0	57	0	1120927744	60	4540
2026-01-05 01:30:02.60	230.33	23.07	-48.5	-50.8	14.3	2.20e-06	0	57	0	1123024896	59	4794
2026-01-05 01:30:03.59	230.27	22.93	-48.4	-50.8	14.4	1.50e-06	0	57	0	1125122048	59	4763
2026-01-05 01:30:04.57	230.20	22.79	-48.3	-50.6	14.6	7.00e-07	0	57	0	1126170624	59	4664
2026-01-05 01:30:05.56	230.14	22.65	-48.2	-50.5	14.7	0.00e+00	0	57	0	1128267776	59	4605
2026-01-05 01:30:06.56	230.08	22.51	-48.0	-50.1	15.1	1.50e-06	0	57	0	1130364928	59	4399
2026-01-05 01:30:07.55	230.02	22.37	-47.9	-49.9	15.2	0.00e+00	0	57	0	1132462080	58	4593
2026-01-05 01:30:08.54	229.95	22.23	-47.8	-49.8	15.4	0.00e+00	0	57	0	1133510656	58	4503
2026-01-05 01:30:09.53	229.89	22.09	-47.8	-49.8	15.4	0.00e+00	0	57	0	1135607808	58	4502
2026-01-05 01:30:10.52	229.83	21.96	-47.7	-49.7	15.4	0.00e+00	0	57	0	1137704960	58	4479
2026-01-05 01:30:11.51	229.77	21.82	-47.7	-49.6	15.5	0.00e+00	0	57	0	1139802112	58	4441
2026-01-05 01:30:12.50	229.71	21.69	-47.8	-49.8	15.3	0.00e+00	0	57	0	1140850688	58	4513
2026-01-05 01:30:13.49	229.65	21.55	-47.7	-49.7	15.4	0.00e+00	0	57	0	1142947840	58	4467
2026-01-05 01:30:14.48	229.60	21.42	-47.7	-49.7	15.4	0.00e+00	0	57	0	1145044992	58	4462
2026-01-05 01:30:15.46	229.54	21.28	-47.9	-49.9	15.3	0.00e+00	0	57	0	1147142144	58	4569
2026-01-05 01:30:16.45	229.48	21.15	-47.9	-50.0	15.1	0.00e+00	0	57	0	1149239296	58	4638
2026-01-05 01:30:17.44	229.43	21.02	-47.9	-50.0	15.1	0.00e+00	0	57	0	1150287872	58	4610
2026-01-05 01:30:18.43	229.37	20.89	-47.9	-50.1	15.1	0.00e+00	0	57	0	1152385024	58	4654
2026-01-05 01:30:19.42	229.31	20.76	-48.0	-50.2	14.9	0.00e+00	0	57	0	1154482176	58	4721
2026-01-05 01:30:20.41	229.26	20.63	-48.0	-50.1	15.0	0.00e+00	0	57	0	1156579328	58	4686
2026-01-05 01:30:21.40	229.20	20.50	-47.9	-49.9	15.1	0.00e+00	0	57	0	1157627904	58	4592
2026-01-05 01:30:22.39	229.15	20.37	-47.9	-50.0	15.1	0.00e+00	0	57	0	1159725056	58	4621
2026-01-05 01:30:23.38	229.10	20.24	-47.9	-50.0	15.1	0.00e+00	0	57	0	1161822208	58	4624
2026-01-05 01:30:24.37	229.04	20.11	-48.0	-50.1	15.0	1.50e-06	0	57	0	1163919360	58	4690
2026-01-05 01:30:25.35	228.99	19.99	-48.0	-50.2	14.9	7.00e-07	0	57	0	1164967936	58	4707
2026-01-05 01:30:26.33	228.94	19.86	-47.9	-50.0	15.1	0.00e+00	0	57	0	1167065088	58	4627
2026-01-05 01:30:27.32	228.89	19.74	-48.0	-50.1	15.0	7.00e-07	0	57	0	1169162240	58	4685
2026-01-05 01:30:28.30	228.84	19.61	-48.0	-50.2	14.9	0.00e+00	0	57	0	1171259392	58	4736
2026-01-05 01:30:29.28	228.79	19.49	-47.9	-50.2	14.9	0.00e+00	0	57	0	1173356544	58	4726
2026-01-05 01:30:30.27	228.73	19.36	-48.2	-50.4	14.6	0.00e+00	0	57	0	1174405120	58	4866
2026-01-05 01:30:31.26	228.68	19.24	-48.3	-50.7	14.3	7.00e-07	0	57	0	1176502272	58	5038
2026-01-05 01:30:32.25	228.63	19.12	-48.2	-50.5	14.6	7.00e-07	0	57	0	1178599424	58	4872
2026-01-05 01:30:33.24	228.59	19.00	-48.1	-50.2	14.8	0.00e+00	0	57	0	1180696576	58	4752
2026-01-05 01:30:34.22	228.54	18.88	-48.1	-50.3	14.7	0.00e+00	0	57	0	1181745152	58	4802
2026-01-05 01:30:35.21	228.49	18.75	-48.2	-50.4	14.6	0.00e+00	0	57	0	1183842304	58	4854
2026-01-05 01:30:36.20	228.44	18.63	-48.1	-50.4	14.6	7.00e-07	0	57	0	1185939456	58	4831
2026-01-05 01:30:37.19	228.39	18.51	-48.2	-50.5	14.5	1.50e-06	0	57	0	1188036608	58	4902
2026-01-05 01:30:38.17	228.35	18.40	-48.1	-50.4	14.6	0.00e+00	0	57	0	1189085184	58	4847
2026-01-05 01:30:39.16	228.30	18.28	-48.2	-50.6	14.4	7.00e-07	0	57	0	1191182336	58	4966
2026-01-05 01:30:40.15	228.25	18.16	-48.4	-50.8	14.1	3.80e-06	0	57	0	1193279488	58	5069
2026-01-05 01:30:41.14	228.21	18.04	-48.2	-50.6	14.4	0.00e+00	0	57	0	1195376640	58	4948
2026-01-05 01:30:42.12	228.16	17.93	-48.1	-50.4	14.6	1.50e-06	0	57	0	1196425216	58	4837
2026-01-05 01:30:43.12	228.12	17.81	-48.1	-50.5	14.5	7.00e-07	0	57	0	1198522368	58	4885
2026-01-05 01:30:44.11	228.07	17.69	-48.2	-50.6	14.4	7.00e-07	0	57	0	1200619520	58	4935
2026-01-05 01:30:45.11	228.03	17.57	-48.4	-50.9	14.1	1.50e-06	0	57	0	1202716672	58	5114
2026-01-05 01:30:46.10	227.98	17.46	-48.2	-50.5	14.4	3.00e-06	0	57	0	1204813824	58	4893
2026-01-05 01:30:47.09	227.94	17.34	-48.0	-50.2	14.8	0.00e+00	0	57	0	1205862400	58	4725
2026-01-05 01:30:48.08	227.89	17.23	-47.9	-50.1	14.9	0.00e+00	0	57	0	1207959552	58	4679
2026-01-05 01:30:49.08	227.85	17.12	-47.9	-50.1	14.8	0.00e+00	0	57	0	1210056704	58	4691
2026-01-05 01:30:50.06	227.81	17.00	-47.9	-50.0	14.9	0.00e+00	0	57	0	1212153856	58	4641
2026-01-05 01:30:51.05	227.77	16.89	-48.1	-50.4	14.5	0.00e+00	0	57	0	1213202432	58	4829
2026-01-05 01:30:52.04	227.72	16.78	-47.9	-50.1	14.8	0.00e+00	0	57	0	1215299584	58	4680
2026-01-05 01:30:53.03	227.68	16.67	-48.1	-50.4	14.5	0.00e+00	0	57	0	1217396736	58	4831
2026-01-05 01:30:54.03	227.64	16.56	-48.4	-50.8	14.0	2.20e-06	0	57	0	1219493888	58	5100
2026-01-05 01:30:55.00	227.60	16.45	-48.3	-50.6	14.2	3.00e-06	0	57	0	1220542464	58	4983
2026-01-05 01:30:55.99	227.56	16.34	-48.4	-50.9	13.9	7.00e-07	0	57	0	1222639616	58	5133
2026-01-05 01:30:56.98	227.52	16.23	-48.6	-51.2	13.6	4.50e-06	0	57	0	1224736768	59	5024
2026-01-05 01:30:57.96	227.48	16.12	-48.6	-51.3	13.5	6.80e-06	0	57	0	1226833920	59	5068
2026-01-05 01:30:58.95	227.44	16.01	-48.7	-51.4	13.4	1.14e-05	0	57	0	1228931072	59	5137
2026-01-05 01:30:59.94	227.40	15.90	-48.7	-51.4	13.4	1.83e-05	0	57	0	1229979648	59	5135
2026-01-05 01:31:00.92	227.36	15.80	-48.8	-51.6	13.1	2.36e-05	0	57	0	1232076800	59	5266
2026-01-05 01:31:01.91	227.32	15.69	-48.8	-51.6	13.1	2.36e-05	0	57	0	1234173952	59	5268
2026-01-05 01:31:02.91	227.28	15.58	-48.9	-51.8	12.9	3.20e-05	0	57	0	1236271104	59	5382
2026-01-05 01:31:03.89	227.24	15.48	-48.8	-51.6	13.1	2.44e-05	0	57	0	1237319680	59	5267
2026-01-05 01:31:04.88	227.21	15.37	-48.7	-51.5	13.3	1.06e-05	0	57	0	1239416832	59	5160
2026-01-05 01:31:05.87	227.17	15.26	-48.7	-51.6	13.1	1.98e-05	0	57	0	1241513984	59	5270
