passes_logs/2026/01/05/R3.0SM8_Murmansk_STILSPACE/R3.0SM8_Murmansk_STILSPACE__20260105_041852_SUOMI_NPP_rec.log

#Pass ID: 20260105_041852_SUOMI NPP
#Satellite: SUOMI NPP
#Configuration: NPP
#almurnet v.1.7.20240730
#Start time: 2026-01-05 04:18:53

#Version: 2.2.20231116
#Station: R3.0SM8_Murmansk_STILSPACE
#Location: 33.092731 lon 68.902999 lat
#TLE: 1 37849U 11061A   26003.96724563  .00000164  00000+0  98899-4 0  9990
#TLE: 2 37849  98.7800 306.1116 0002573  82.3190 277.8279 14.19522066735141

#Time	Az	El	Level	Level2	SNR	BER	BlckErr	Temp	State	Recorded	gain1	gain2
2026-01-05 04:18:53.00	48.81	3.00	-52.6	-66.4	3.8	1.49e+00	0	57	0	0	67	18263
2026-01-05 04:18:53.99	48.75	3.06	-52.6	-66.5	3.8	1.49e+00	0	57	104	0	68	17427
2026-01-05 04:18:54.97	48.68	3.12	-52.7	-66.5	3.8	1.49e+00	0	57	104	0	68	17424
2026-01-05 04:18:55.97	48.62	3.18	-52.7	-66.5	3.8	1.49e+00	0	57	104	0	68	17470
2026-01-05 04:18:56.96	48.55	3.24	-52.7	-66.6	3.8	1.49e+00	0	57	104	0	68	17495
2026-01-05 04:18:57.96	48.49	3.30	-52.6	-66.5	3.8	1.49e+00	0	57	104	0	68	17456
2026-01-05 04:18:58.95	48.42	3.35	-52.7	-66.5	3.8	1.49e+00	0	57	104	0	68	17430
2026-01-05 04:18:59.94	48.35	3.41	-52.7	-66.5	3.8	1.49e+00	0	57	104	0	68	17475
2026-01-05 04:19:00.93	48.29	3.47	-52.7	-66.5	3.8	1.49e+00	0	57	104	0	68	17425
2026-01-05 04:19:01.92	48.22	3.53	-52.6	-66.5	3.8	1.49e+00	0	57	104	0	68	17432
2026-01-05 04:19:02.90	48.15	3.59	-52.7	-66.5	3.8	1.49e+00	0	57	104	0	68	17444
2026-01-05 04:19:03.89	48.09	3.65	-52.7	-66.5	3.8	1.49e+00	0	57	104	0	68	17424
2026-01-05 04:19:04.89	48.02	3.71	-52.5	-66.5	3.8	1.49e+00	0	57	104	0	68	17476
2026-01-05 04:19:05.88	47.95	3.77	-52.7	-66.5	3.8	1.49e+00	0	57	104	0	68	17437
2026-01-05 04:19:06.87	47.88	3.83	-52.7	-66.5	3.8	1.49e+00	0	57	104	0	68	17448
2026-01-05 04:19:07.86	47.81	3.89	-52.6	-66.5	3.8	1.49e+00	0	57	104	0	68	17424
2026-01-05 04:19:08.85	47.75	3.95	-52.6	-66.5	3.8	1.49e+00	0	57	104	0	68	17404
2026-01-05 04:19:09.85	47.68	4.01	-52.6	-66.5	3.8	1.49e+00	0	57	104	0	68	17380
2026-01-05 04:19:10.84	47.61	4.07	-52.5	-66.5	3.8	1.49e+00	0	57	104	0	68	17455
2026-01-05 04:19:11.83	47.54	4.13	-52.7	-66.6	3.8	1.49e+00	0	57	104	0	68	17488
2026-01-05 04:19:12.82	47.47	4.19	-52.7	-66.6	3.8	1.49e+00	0	57	104	0	68	17512
2026-01-05 04:19:13.80	47.40	4.24	-52.7	-66.6	3.8	1.49e+00	0	57	104	0	68	17501
2026-01-05 04:19:14.79	47.33	4.31	-52.7	-66.5	3.8	1.49e+00	0	57	104	0	68	17442
2026-01-05 04:19:15.78	47.26	4.37	-52.7	-66.5	3.8	1.49e+00	0	57	104	0	68	17477
2026-01-05 04:19:16.77	47.18	4.43	-52.7	-66.5	3.8	1.49e+00	0	57	104	0	68	17409
2026-01-05 04:19:17.76	47.11	4.49	-52.7	-66.5	3.8	1.49e+00	0	57	104	0	68	17415
2026-01-05 04:19:18.75	47.04	4.55	-52.7	-66.5	3.8	1.49e+00	0	57	104	0	68	17401
2026-01-05 04:19:19.74	46.97	4.61	-52.7	-66.5	3.8	1.49e+00	0	57	104	0	68	17426
2026-01-05 04:19:20.72	46.90	4.67	-52.7	-66.5	3.8	1.49e+00	0	57	104	0	68	17366
2026-01-05 04:19:21.71	46.82	4.73	-52.7	-66.5	3.8	1.49e+00	0	57	104	0	68	17384
2026-01-05 04:19:22.70	46.75	4.79	-52.5	-66.5	3.8	1.49e+00	0	57	104	0	68	17308
2026-01-05 04:19:23.69	46.68	4.85	-52.6	-66.5	3.8	1.49e+00	0	57	104	0	68	17309
2026-01-05 04:19:24.67	46.60	4.91	-52.6	-66.4	3.8	1.49e+00	0	57	104	0	68	17246
2026-01-05 04:19:25.67	46.53	4.97	-52.6	-66.5	3.8	1.49e+00	0	57	104	0	68	17309
2026-01-05 04:19:26.66	46.46	5.03	-52.6	-66.5	3.8	1.49e+00	0	57	104	0	68	17283
2026-01-05 04:19:27.65	46.38	5.09	-52.6	-66.4	3.8	1.49e+00	0	57	104	0	68	17136
2026-01-05 04:19:28.63	46.31	5.16	-52.6	-66.4	3.8	1.49e+00	0	57	104	0	68	17160
2026-01-05 04:19:29.60	46.23	5.22	-52.5	-66.3	3.8	1.49e+00	0	57	104	0	68	17069
2026-01-05 04:19:30.60	46.16	5.28	-52.4	-66.2	3.8	1.49e+00	0	57	104	0	67	17794
2026-01-05 04:19:31.58	46.08	5.34	-52.4	-66.2	3.8	1.49e+00	0	57	104	0	67	17755
2026-01-05 04:19:32.57	46.00	5.40	-52.3	-66.2	3.8	1.49e+00	0	57	104	0	67	17715
2026-01-05 04:19:33.55	45.93	5.46	-52.3	-66.1	3.8	1.49e+00	0	57	104	0	67	17562
2026-01-05 04:19:34.54	45.85	5.52	-52.2	-66.0	3.8	1.49e+00	0	57	104	0	67	17481
2026-01-05 04:19:35.52	45.78	5.59	-52.2	-66.0	3.8	1.49e+00	0	57	104	0	67	17320
2026-01-05 04:19:36.52	45.70	5.65	-52.0	-65.8	3.8	1.49e+00	0	57	104	0	67	17064
2026-01-05 04:19:37.51	45.62	5.71	-51.8	-65.1	3.8	1.49e+00	0	57	104	0	66	16533
2026-01-05 04:19:38.49	45.54	5.77	-50.8	-57.8	6.4	8.35e-01	0	57	104	0	64	8010
2026-01-05 04:19:39.48	45.46	5.83	-50.6	-57.1	7.0	1.93e-01	0	57	0	1048576	64	7447
2026-01-05 04:19:40.47	45.38	5.90	-50.5	-56.5	7.8	1.13e-01	0	57	0	3145728	63	7330
2026-01-05 04:19:41.46	45.30	5.96	-50.5	-56.4	7.9	7.40e-02	0	57	0	5242880	63	7219
2026-01-05 04:19:42.45	45.22	6.02	-50.3	-55.7	8.5	5.10e-02	0	57	0	7340032	63	6691
2026-01-05 04:19:43.45	45.14	6.09	-50.2	-55.5	8.7	3.43e-02	0	57	0	8388608	63	6556
2026-01-05 04:19:44.43	45.06	6.15	-50.3	-55.7	8.6	3.77e-02	0	57	0	10485760	63	6680
2026-01-05 04:19:45.42	44.98	6.21	-50.3	-55.5	8.7	3.73e-02	0	57	0	12582912	63	6556
2026-01-05 04:19:46.42	44.90	6.28	-50.2	-55.5	8.8	3.29e-02	0	57	0	14680064	63	6545
2026-01-05 04:19:47.40	44.82	6.34	-50.3	-55.6	8.7	3.86e-02	0	57	0	15728640	63	6607
2026-01-05 04:19:48.39	44.74	6.40	-50.3	-55.7	8.6	3.22e-02	0	57	0	17825792	63	6682
2026-01-05 04:19:49.39	44.65	6.47	-50.4	-55.7	8.6	3.42e-02	0	57	0	19922944	63	6719
2026-01-05 04:19:50.37	44.57	6.53	-50.2	-55.3	8.9	3.86e-02	0	57	0	22020096	63	6414
2026-01-05 04:19:51.37	44.49	6.59	-50.0	-54.8	9.5	1.86e-02	0	57	0	24117248	63	6046
2026-01-05 04:19:52.35	44.41	6.66	-49.8	-54.2	10.1	1.07e-02	0	57	0	25165824	62	5978
2026-01-05 04:19:53.34	44.32	6.72	-49.6	-53.9	10.4	5.20e-03	0	57	0	27262976	62	5766
2026-01-05 04:19:54.33	44.24	6.78	-49.3	-53.1	11.3	2.20e-03	0	57	0	29360128	61	5540
2026-01-05 04:19:55.32	44.15	6.85	-49.1	-52.7	11.7	9.25e-04	0	57	0	31457280	61	5326
2026-01-05 04:19:56.32	44.07	6.91	-48.9	-52.5	11.9	4.00e-04	0	57	0	32505856	61	5161
2026-01-05 04:19:57.30	43.98	6.98	-48.8	-52.0	12.4	1.49e-04	0	57	0	34603008	60	5209
2026-01-05 04:19:58.30	43.90	7.04	-48.7	-51.9	12.5	1.31e-04	0	57	0	36700160	60	5132
2026-01-05 04:19:59.28	43.81	7.10	-48.8	-52.1	12.3	1.30e-04	0	57	0	38797312	60	5244
2026-01-05 04:20:00.27	43.72	7.17	-48.8	-52.2	12.2	1.68e-04	0	57	0	39845888	60	5286
2026-01-05 04:20:01.26	43.64	7.23	-48.7	-51.9	12.5	1.50e-04	0	57	0	41943040	60	5151
2026-01-05 04:20:02.25	43.55	7.30	-48.7	-51.9	12.6	8.46e-05	0	57	0	44040192	60	5103
2026-01-05 04:20:03.25	43.46	7.36	-48.8	-51.9	12.5	2.10e-04	0	57	0	46137344	60	5158
2026-01-05 04:20:04.23	43.37	7.43	-48.7	-51.8	12.6	9.23e-05	0	57	0	48234496	60	5066
2026-01-05 04:20:05.21	43.29	7.49	-48.8	-52.0	12.4	1.50e-04	0	57	0	49283072	60	5211
2026-01-05 04:20:06.19	43.20	7.56	-48.8	-52.0	12.4	1.27e-04	0	57	0	51380224	60	5189
2026-01-05 04:20:07.18	43.11	7.62	-48.9	-52.2	12.3	1.27e-04	0	57	0	53477376	60	5305
2026-01-05 04:20:08.17	43.02	7.69	-49.0	-52.4	12.0	3.57e-04	0	57	0	55574528	60	5422
2026-01-05 04:20:09.17	42.93	7.75	-48.8	-52.1	12.4	1.43e-04	0	57	0	56623104	60	5265
2026-01-05 04:20:10.16	42.84	7.82	-48.8	-52.1	12.2	1.78e-04	0	57	0	58720256	60	5259
2026-01-05 04:20:11.15	42.74	7.88	-49.0	-52.5	12.0	2.24e-04	0	57	0	60817408	60	5513
2026-01-05 04:20:12.14	42.65	7.95	-48.9	-52.4	12.1	2.49e-04	0	57	0	62914560	60	5422
2026-01-05 04:20:13.13	42.56	8.02	-49.0	-52.4	12.1	3.32e-04	0	57	0	63963136	60	5457
2026-01-05 04:20:14.12	42.47	8.08	-49.0	-52.5	12.0	3.86e-04	0	57	0	66060288	60	5519
2026-01-05 04:20:15.12	42.37	8.15	-48.9	-52.4	12.1	2.90e-04	0	57	0	68157440	60	5450
2026-01-05 04:20:16.10	42.28	8.21	-49.1	-52.7	11.8	3.39e-04	0	57	0	70254592	60	5650
2026-01-05 04:20:17.10	42.19	8.28	-49.0	-52.5	12.0	4.74e-04	0	57	0	72351744	60	5521
2026-01-05 04:20:18.09	42.09	8.35	-49.0	-52.6	11.9	3.24e-04	0	57	0	73400320	60	5561
2026-01-05 04:20:19.08	42.00	8.41	-49.0	-52.4	12.1	3.22e-04	0	57	0	75497472	60	5442
2026-01-05 04:20:20.07	41.90	8.48	-49.0	-52.3	12.2	2.20e-04	0	57	0	77594624	60	5402
2026-01-05 04:20:21.06	41.81	8.55	-48.9	-52.3	12.3	2.56e-04	0	57	0	79691776	60	5343
2026-01-05 04:20:22.05	41.71	8.61	-49.0	-52.5	12.0	2.66e-04	0	57	0	80740352	60	5521
2026-01-05 04:20:23.05	41.61	8.68	-49.1	-52.6	12.0	2.77e-04	0	57	0	82837504	60	5545
2026-01-05 04:20:24.03	41.52	8.75	-49.3	-52.9	11.6	4.88e-04	0	57	0	84934656	60	5767
2026-01-05 04:20:25.02	41.42	8.81	-49.0	-52.4	12.2	4.13e-04	0	57	0	87031808	60	5418
2026-01-05 04:20:26.02	41.32	8.88	-48.7	-51.9	12.6	1.37e-04	0	57	0	89128960	60	5149
2026-01-05 04:20:27.01	41.22	8.95	-48.7	-51.8	12.8	7.62e-05	0	57	0	90177536	60	5080
2026-01-05 04:20:27.99	41.13	9.02	-48.7	-51.8	12.8	6.33e-05	0	57	0	92274688	60	5092
2026-01-05 04:20:28.97	41.03	9.08	-48.7	-51.8	12.7	5.56e-05	0	57	0	94371840	60	5091
2026-01-05 04:20:29.96	40.93	9.15	-48.7	-51.8	12.8	5.72e-05	0	57	0	96468992	60	5068
2026-01-05 04:20:30.96	40.83	9.22	-48.5	-51.5	13.1	3.43e-05	0	57	0	97517568	60	4899
2026-01-05 04:20:31.94	40.73	9.29	-48.5	-51.6	13.0	2.89e-05	0	57	0	99614720	60	4944
2026-01-05 04:20:32.94	40.62	9.35	-48.4	-51.3	13.3	2.05e-05	0	57	0	101711872	59	5095
2026-01-05 04:20:33.92	40.52	9.42	-48.6	-51.5	13.1	1.29e-05	0	57	0	103809024	59	5193
2026-01-05 04:20:34.92	40.42	9.49	-48.6	-51.5	13.1	3.28e-05	0	57	0	104857600	59	5181
2026-01-05 04:20:35.90	40.32	9.56	-48.6	-51.6	13.1	3.35e-05	0	57	0	106954752	59	5240
2026-01-05 04:20:36.89	40.22	9.63	-49.0	-52.2	12.5	6.71e-05	0	57	0	109051904	59	5599
2026-01-05 04:20:37.88	40.11	9.69	-48.7	-51.7	12.9	7.17e-05	0	57	0	111149056	59	5331
2026-01-05 04:20:38.86	40.01	9.76	-48.5	-51.3	13.3	1.83e-05	0	57	0	112197632	59	5088
2026-01-05 04:20:39.85	39.90	9.83	-48.4	-51.2	13.4	1.75e-05	0	57	0	114294784	59	5030
2026-01-05 04:20:40.85	39.80	9.90	-48.4	-51.1	13.5	1.29e-05	0	57	0	116391936	59	4968
2026-01-05 04:20:41.83	39.69	9.97	-48.4	-51.2	13.4	6.10e-06	0	57	0	118489088	59	5028
2026-01-05 04:20:42.83	39.59	10.04	-48.4	-51.2	13.5	1.22e-05	0	57	0	120586240	59	4995
2026-01-05 04:20:43.81	39.48	10.10	-48.4	-51.1	13.6	9.90e-06	0	57	0	121634816	59	4936
2026-01-05 04:20:44.80	39.37	10.17	-48.4	-51.1	13.5	6.10e-06	0	57	0	123731968	59	4954
2026-01-05 04:20:45.80	39.26	10.24	-48.5	-51.3	13.4	1.52e-05	0	57	0	125829120	59	5080
2026-01-05 04:20:46.79	39.16	10.31	-48.5	-51.2	13.5	1.22e-05	0	57	0	127926272	59	5036
2026-01-05 04:20:47.77	39.05	10.38	-48.6	-51.5	13.2	1.44e-05	0	57	0	128974848	59	5164
2026-01-05 04:20:48.76	38.94	10.45	-48.5	-51.2	13.5	1.90e-05	0	57	0	131072000	59	5005
2026-01-05 04:20:49.76	38.83	10.52	-48.3	-50.9	13.8	6.80e-06	0	57	0	133169152	59	4853
2026-01-05 04:20:50.75	38.72	10.59	-48.4	-51.0	13.6	3.80e-06	0	57	0	135266304	59	4920
2026-01-05 04:20:51.74	38.61	10.66	-48.3	-51.0	13.8	5.30e-06	0	57	0	136314880	59	4874
2026-01-05 04:20:52.73	38.50	10.73	-48.4	-51.0	13.7	7.60e-06	0	57	0	138412032	59	4893
2026-01-05 04:20:53.71	38.38	10.80	-48.3	-51.0	13.7	6.10e-06	0	57	0	140509184	59	4888
2026-01-05 04:20:54.70	38.27	10.87	-48.5	-51.2	13.5	8.30e-06	0	57	0	142606336	59	5033
2026-01-05 04:20:55.69	38.16	10.94	-48.6	-51.5	13.2	1.37e-05	0	57	0	144703488	59	5177
2026-01-05 04:20:56.68	38.05	11.01	-48.7	-51.5	13.2	1.67e-05	0	57	0	145752064	59	5194
2026-01-05 04:20:57.68	37.93	11.08	-48.6	-51.5	13.3	1.98e-05	0	57	0	147849216	59	5165
2026-01-05 04:20:58.67	37.82	11.15	-48.7	-51.6	13.2	1.98e-05	0	57	0	149946368	59	5230
2026-01-05 04:20:59.66	37.70	11.22	-48.6	-51.4	13.3	2.67e-05	0	57	0	152043520	59	5116
2026-01-05 04:21:00.65	37.58	11.29	-48.6	-51.4	13.4	2.13e-05	0	57	0	153092096	59	5112
2026-01-05 04:21:01.64	37.47	11.36	-48.5	-51.3	13.4	1.83e-05	0	57	0	155189248	59	5064
2026-01-05 04:21:02.63	37.35	11.43	-48.5	-51.3	13.5	1.67e-05	0	57	0	157286400	59	5052
2026-01-05 04:21:03.62	37.23	11.50	-48.7	-51.6	13.1	1.44e-05	0	57	0	159383552	59	5237
2026-01-05 04:21:04.62	37.11	11.57	-48.8	-51.8	13.0	4.57e-05	0	57	0	161480704	59	5381
2026-01-05 04:21:05.61	36.99	11.64	-48.8	-51.8	12.9	6.17e-05	0	57	0	162529280	59	5380
2026-01-05 04:21:06.61	36.87	11.71	-48.9	-52.0	12.8	5.64e-05	0	57	0	164626432	59	5465
2026-01-05 04:21:07.60	36.75	11.78	-49.0	-52.1	12.7	8.31e-05	0	57	0	166723584	59	5538
2026-01-05 04:21:08.59	36.63	11.86	-48.9	-51.9	12.8	7.40e-05	0	57	0	168820736	59	5455
2026-01-05 04:21:09.59	36.51	11.93	-48.8	-51.8	13.0	4.88e-05	0	57	0	169869312	59	5345
2026-01-05 04:21:10.58	36.39	12.00	-48.7	-51.5	13.3	1.60e-05	0	57	0	171966464	59	5181
2026-01-05 04:21:11.57	36.27	12.07	-48.6	-51.3	13.4	1.37e-05	0	57	0	174063616	59	5090
2026-01-05 04:21:12.56	36.14	12.14	-48.4	-51.1	13.6	6.80e-06	0	57	0	176160768	59	4953
2026-01-05 04:21:13.55	36.02	12.21	-48.4	-51.2	13.6	3.00e-06	0	57	0	178257920	59	4990
2026-01-05 04:21:14.55	35.89	12.28	-48.4	-51.0	13.7	6.80e-06	0	57	0	179306496	59	4918
2026-01-05 04:21:15.54	35.77	12.36	-48.3	-50.9	13.9	3.00e-06	0	57	0	181403648	59	4836
2026-01-05 04:21:16.54	35.64	12.43	-48.2	-50.7	14.1	3.00e-06	0	57	0	183500800	59	4711
2026-01-05 04:21:17.52	35.52	12.50	-48.0	-50.5	14.4	0.00e+00	0	57	0	185597952	59	4601
2026-01-05 04:21:18.51	35.39	12.57	-47.9	-50.3	14.5	7.00e-07	0	57	0	186646528	59	4500
2026-01-05 04:21:19.51	35.26	12.64	-47.9	-50.3	14.4	7.00e-07	0	57	0	188743680	58	4798
2026-01-05 04:21:20.50	35.13	12.72	-48.0	-50.3	14.5	7.00e-07	0	57	0	190840832	58	4782
2026-01-05 04:21:21.49	35.00	12.79	-47.9	-50.2	14.5	0.00e+00	0	57	0	192937984	58	4752
2026-01-05 04:21:22.48	34.88	12.86	-47.8	-50.1	14.7	0.00e+00	0	57	0	193986560	58	4663
2026-01-05 04:21:23.47	34.75	12.93	-47.8	-50.1	14.7	0.00e+00	0	57	0	196083712	58	4653
2026-01-05 04:21:24.44	34.62	13.00	-47.7	-50.0	14.8	7.00e-07	0	57	0	198180864	58	4603
2026-01-05 04:21:25.43	34.49	13.07	-47.8	-50.0	14.8	0.00e+00	0	57	0	200278016	58	4601
2026-01-05 04:21:26.43	34.35	13.15	-47.9	-50.2	14.6	0.00e+00	0	57	0	202375168	58	4721
2026-01-05 04:21:27.41	34.22	13.22	-47.9	-50.1	14.7	0.00e+00	0	57	0	203423744	58	4694
2026-01-05 04:21:28.40	34.09	13.29	-47.8	-50.1	14.7	0.00e+00	0	57	0	205520896	58	4685
2026-01-05 04:21:29.38	33.96	13.36	-47.8	-50.2	14.6	0.00e+00	0	57	0	207618048	58	4734
2026-01-05 04:21:30.37	33.82	13.44	-47.8	-50.2	14.6	0.00e+00	0	57	0	209715200	58	4737
2026-01-05 04:21:31.35	33.69	13.51	-47.9	-50.3	14.6	7.00e-07	0	57	0	210763776	58	4773
2026-01-05 04:21:32.35	33.55	13.58	-48.0	-50.4	14.5	7.00e-07	0	57	0	212860928	58	4828
2026-01-05 04:21:33.34	33.41	13.65	-47.7	-49.9	14.9	7.00e-07	0	57	0	214958080	58	4584
2026-01-05 04:21:34.33	33.28	13.73	-47.9	-50.2	14.6	0.00e+00	0	57	0	217055232	58	4737
2026-01-05 04:21:35.32	33.14	13.80	-48.0	-50.3	14.6	0.00e+00	0	57	0	218103808	58	4775
2026-01-05 04:21:36.31	33.00	13.87	-47.8	-50.0	14.8	0.00e+00	0	57	0	220200960	58	4639
2026-01-05 04:21:37.30	32.86	13.95	-47.9	-50.1	14.7	0.00e+00	0	57	0	222298112	58	4683
2026-01-05 04:21:38.28	32.72	14.02	-47.9	-50.2	14.6	0.00e+00	0	57	0	224395264	58	4726
2026-01-05 04:21:39.26	32.58	14.09	-47.8	-50.0	14.9	0.00e+00	0	57	0	225443840	58	4613
2026-01-05 04:21:40.26	32.44	14.16	-47.7	-49.8	15.0	0.00e+00	0	57	0	227540992	58	4515
2026-01-05 04:21:41.24	32.30	14.24	-47.5	-49.6	15.2	0.00e+00	0	57	0	229638144	58	4413
2026-01-05 04:21:42.23	32.15	14.31	-47.7	-49.8	15.0	0.00e+00	0	57	0	231735296	58	4543
2026-01-05 04:21:43.22	32.01	14.38	-47.8	-50.0	14.8	0.00e+00	0	57	0	233832448	58	4634
2026-01-05 04:21:44.22	31.86	14.46	-47.7	-49.9	15.0	0.00e+00	0	57	0	234881024	58	4572
2026-01-05 04:21:45.21	31.72	14.53	-47.8	-50.0	14.8	0.00e+00	0	57	0	236978176	58	4642
2026-01-05 04:21:46.20	31.57	14.60	-47.6	-49.7	15.2	0.00e+00	0	57	0	239075328	58	4466
2026-01-05 04:21:47.20	31.42	14.68	-47.8	-50.0	14.8	0.00e+00	0	57	0	241172480	58	4625
2026-01-05 04:21:48.20	31.28	14.75	-47.9	-50.2	14.7	0.00e+00	0	57	0	242221056	58	4723
2026-01-05 04:21:49.18	31.13	14.82	-47.7	-50.0	14.9	0.00e+00	0	57	0	244318208	58	4612
2026-01-05 04:21:50.18	30.98	14.90	-48.0	-50.4	14.5	0.00e+00	0	57	0	246415360	58	4821
2026-01-05 04:21:51.17	30.83	14.97	-47.9	-50.2	14.6	7.00e-07	0	57	0	248512512	58	4755
2026-01-05 04:21:52.15	30.68	15.04	-48.1	-50.5	14.4	1.50e-06	0	57	0	250609664	58	4896
2026-01-05 04:21:53.15	30.53	15.12	-48.3	-51.0	13.9	6.10e-06	0	57	0	251658240	58	5170
2026-01-05 04:21:54.14	30.38	15.19	-48.4	-51.1	13.8	3.80e-06	0	57	0	253755392	58	5230
2026-01-05 04:21:55.13	30.22	15.26	-48.5	-51.2	13.6	9.90e-06	0	57	0	255852544	58	5315
2026-01-05 04:21:56.12	30.07	15.34	-48.6	-51.4	13.5	7.60e-06	0	57	0	257949696	59	5116
2026-01-05 04:21:57.11	29.92	15.41	-48.5	-51.3	13.6	1.22e-05	0	57	0	258998272	59	5056
2026-01-05 04:21:58.10	29.76	15.48	-48.5	-51.2	13.6	3.80e-06	0	57	0	261095424	59	5031
2026-01-05 04:21:59.09	29.60	15.56	-48.8	-51.6	13.3	6.80e-06	0	57	0	263192576	59	5267
2026-01-05 04:22:00.08	29.45	15.63	-48.5	-51.2	13.6	6.80e-06	0	57	0	265289728	59	5040
2026-01-05 04:22:01.07	29.29	15.70	-48.4	-51.0	13.8	5.30e-06	0	57	0	266338304	59	4922
2026-01-05 04:22:02.06	29.13	15.78	-48.4	-51.0	13.9	5.30e-06	0	57	0	268435456	59	4905
2026-01-05 04:22:03.04	28.98	15.85	-48.5	-51.2	13.7	3.00e-06	0	57	0	270532608	59	5009
2026-01-05 04:22:04.04	28.81	15.93	-48.3	-50.9	14.0	2.20e-06	0	57	0	272629760	59	4845
2026-01-05 04:22:05.02	28.66	16.00	-48.3	-50.8	14.0	3.00e-06	0	57	0	274726912	59	4805
2026-01-05 04:22:06.01	28.49	16.07	-48.1	-50.6	14.3	2.20e-06	0	57	0	275775488	59	4675
2026-01-05 04:22:07.00	28.33	16.14	-48.1	-50.5	14.4	0.00e+00	0	57	0	277872640	59	4600
2026-01-05 04:22:08.00	28.17	16.22	-48.2	-50.6	14.2	7.00e-07	0	57	0	279969792	59	4692
2026-01-05 04:22:08.99	28.00	16.29	-48.1	-50.5	14.4	0.00e+00	0	57	0	282066944	59	4632
2026-01-05 04:22:09.98	27.84	16.37	-48.0	-50.5	14.4	7.00e-07	0	57	0	283115520	59	4616
2026-01-05 04:22:10.97	27.67	16.44	-48.3	-50.8	14.1	1.50e-06	0	57	0	285212672	59	4785
2026-01-05 04:22:11.96	27.51	16.51	-48.4	-51.1	13.8	2.20e-06	0	57	0	287309824	59	4930
2026-01-05 04:22:12.95	27.34	16.59	-48.3	-50.8	14.1	5.30e-06	0	57	0	289406976	59	4773
2026-01-05 04:22:13.93	27.17	16.66	-48.1	-50.6	14.3	2.20e-06	0	57	0	290455552	59	4686
2026-01-05 04:22:14.92	27.01	16.73	-48.2	-50.6	14.2	7.00e-07	0	57	0	292552704	59	4693
2026-01-05 04:22:15.91	26.84	16.80	-48.0	-50.4	14.4	7.00e-07	0	57	0	294649856	59	4580
2026-01-05 04:22:16.91	26.66	16.88	-48.1	-50.6	14.3	1.50e-06	0	57	0	296747008	59	4657
2026-01-05 04:22:17.90	26.49	16.95	-48.1	-50.5	14.3	7.00e-07	0	57	0	298844160	59	4638
2026-01-05 04:22:18.90	26.32	17.03	-48.2	-50.7	14.2	1.50e-06	0	57	0	299892736	59	4725
2026-01-05 04:22:19.89	26.15	17.10	-48.1	-50.4	14.5	0.00e+00	0	57	0	301989888	59	4583
2026-01-05 04:22:20.89	25.97	17.17	-47.9	-50.2	14.7	0.00e+00	0	57	0	304087040	58	4716
2026-01-05 04:22:21.88	25.80	17.25	-47.8	-50.1	14.8	7.00e-07	0	57	0	306184192	58	4678
2026-01-05 04:22:22.88	25.62	17.32	-47.9	-50.2	14.7	0.00e+00	0	57	0	307232768	58	4740
2026-01-05 04:22:23.87	25.44	17.39	-47.9	-50.3	14.6	7.00e-07	0	57	0	309329920	58	4773
2026-01-05 04:22:24.86	25.26	17.46	-48.0	-50.5	14.4	0.00e+00	0	57	0	311427072	58	4872
2026-01-05 04:22:25.85	25.09	17.54	-48.2	-50.7	14.2	7.00e-07	0	57	0	313524224	58	4992
2026-01-05 04:22:26.83	24.91	17.61	-48.1	-50.6	14.3	1.50e-06	0	57	0	315621376	58	4963
2026-01-05 04:22:27.82	24.73	17.68	-48.3	-50.8	14.1	7.00e-07	0	57	0	316669952	58	5064
2026-01-05 04:22:28.81	24.55	17.75	-48.0	-50.4	14.4	1.50e-06	0	57	0	318767104	58	4861
2026-01-05 04:22:29.80	24.37	17.83	-47.9	-50.3	14.6	7.00e-07	0	57	0	320864256	58	4803
2026-01-05 04:22:30.79	24.18	17.90	-48.0	-50.5	14.5	7.00e-07	0	57	0	322961408	58	4872
2026-01-05 04:22:31.78	24.00	17.97	-48.1	-50.7	14.2	0.00e+00	0	58	0	324009984	58	4986
2026-01-05 04:22:32.77	23.82	18.04	-48.1	-50.6	14.3	7.00e-07	0	57	0	326107136	58	4980
2026-01-05 04:22:33.76	23.63	18.11	-48.3	-50.9	14.0	1.50e-06	0	57	0	328204288	58	5129
2026-01-05 04:22:34.75	23.45	18.19	-48.4	-51.0	13.9	3.80e-06	0	58	0	330301440	58	5173
2026-01-05 04:22:35.73	23.26	18.26	-48.1	-50.5	14.4	1.50e-06	0	58	0	331350016	58	4888
2026-01-05 04:22:36.72	23.07	18.33	-48.1	-50.5	14.4	0.00e+00	0	57	0	333447168	58	4896
2026-01-05 04:22:37.71	22.88	18.40	-48.2	-50.7	14.2	0.00e+00	0	57	0	335544320	58	5002
2026-01-05 04:22:38.70	22.69	18.47	-48.1	-50.6	14.3	1.50e-06	0	57	0	337641472	58	4950
2026-01-05 04:22:39.69	22.50	18.54	-48.3	-50.8	14.1	0.00e+00	0	57	0	338690048	58	5077
2026-01-05 04:22:40.68	22.31	18.61	-48.2	-50.7	14.2	2.20e-06	0	57	0	340787200	58	5041
2026-01-05 04:22:41.67	22.12	18.69	-48.0	-50.4	14.5	0.00e+00	0	57	0	342884352	58	4847
2026-01-05 04:22:42.66	21.93	18.76	-48.1	-50.5	14.5	0.00e+00	0	57	0	344981504	58	4872
2026-01-05 04:22:43.65	21.73	18.83	-47.8	-50.0	14.9	0.00e+00	0	57	0	347078656	58	4647
2026-01-05 04:22:44.64	21.54	18.90	-47.6	-49.7	15.2	0.00e+00	0	57	0	348127232	58	4478
2026-01-05 04:22:45.63	21.34	18.97	-47.7	-49.8	15.1	0.00e+00	0	57	0	350224384	58	4541
2026-01-05 04:22:46.62	21.14	19.04	-47.8	-50.0	14.9	0.00e+00	0	57	0	352321536	58	4628
2026-01-05 04:22:47.61	20.95	19.11	-48.1	-50.5	14.4	0.00e+00	0	57	0	354418688	58	4918
2026-01-05 04:22:48.61	20.75	19.18	-48.1	-50.5	14.5	1.50e-06	0	57	0	355467264	58	4877
2026-01-05 04:22:49.60	20.55	19.25	-48.1	-50.5	14.4	0.00e+00	0	57	0	357564416	58	4903
2026-01-05 04:22:50.59	20.34	19.32	-48.0	-50.4	14.6	7.00e-07	0	57	0	359661568	58	4836
2026-01-05 04:22:51.58	20.14	19.39	-48.0	-50.5	14.5	0.00e+00	0	57	0	361758720	58	4872
2026-01-05 04:22:52.57	19.94	19.46	-47.9	-50.3	14.6	7.00e-07	0	57	0	363855872	58	4778
2026-01-05 04:22:53.57	19.74	19.53	-47.8	-50.1	14.8	7.00e-07	0	57	0	364904448	58	4684
2026-01-05 04:22:54.56	19.53	19.60	-47.9	-50.3	14.7	0.00e+00	0	57	0	367001600	58	4778
2026-01-05 04:22:55.56	19.32	19.67	-47.9	-50.2	14.8	7.00e-07	0	57	0	369098752	58	4739
2026-01-05 04:22:56.54	19.12	19.73	-47.7	-49.9	15.1	7.00e-07	0	57	0	371195904	58	4553
2026-01-05 04:22:57.53	18.91	19.80	-47.3	-49.4	15.5	0.00e+00	0	57	0	372244480	57	4546
2026-01-05 04:22:58.52	18.70	19.87	-46.8	-48.5	16.3	0.00e+00	0	57	0	374341632	56	4376
2026-01-05 04:22:59.51	18.49	19.94	-46.7	-48.4	16.5	0.00e+00	0	57	0	376438784	56	4301
2026-01-05 04:23:00.50	18.28	20.01	-46.6	-48.4	16.5	0.00e+00	0	57	0	378535936	56	4295
2026-01-05 04:23:01.49	18.07	20.07	-46.8	-48.5	16.3	0.00e+00	0	57	0	379584512	56	4385
2026-01-05 04:23:02.48	17.86	20.14	-46.9	-48.7	16.1	0.00e+00	0	57	0	381681664	56	4490
2026-01-05 04:23:03.47	17.65	20.21	-46.8	-48.6	16.2	0.00e+00	0	57	0	383778816	56	4431
2026-01-05 04:23:04.45	17.44	20.27	-46.8	-48.5	16.3	0.00e+00	0	57	0	385875968	56	4391
2026-01-05 04:23:05.44	17.22	20.34	-46.6	-48.4	16.5	0.00e+00	0	57	0	387973120	56	4313
2026-01-05 04:23:06.44	17.00	20.41	-46.7	-48.5	16.5	0.00e+00	0	58	0	389021696	56	4341
2026-01-05 04:23:07.43	16.79	20.47	-46.6	-48.4	16.5	0.00e+00	0	57	0	391118848	56	4307
2026-01-05 04:23:08.41	16.57	20.54	-46.8	-48.5	16.4	0.00e+00	0	57	0	393216000	56	4385
2026-01-05 04:23:09.41	16.35	20.60	-47.0	-48.8	16.1	0.00e+00	0	57	0	395313152	56	4544
2026-01-05 04:23:10.40	16.13	20.67	-46.9	-48.8	16.1	0.00e+00	0	57	0	396361728	56	4501
2026-01-05 04:23:11.39	15.91	20.73	-46.9	-48.8	16.1	0.00e+00	0	57	0	398458880	56	4503
2026-01-05 04:23:12.38	15.69	20.80	-46.9	-48.8	16.1	0.00e+00	0	57	0	400556032	56	4496
2026-01-05 04:23:13.37	15.47	20.86	-47.0	-48.8	16.0	0.00e+00	0	57	0	402653184	56	4543
2026-01-05 04:23:14.36	15.25	20.93	-46.8	-48.7	16.3	0.00e+00	0	57	0	404750336	56	4461
2026-01-05 04:23:15.35	15.02	20.99	-46.8	-48.7	16.2	0.00e+00	0	57	0	405798912	56	4458
2026-01-05 04:23:16.35	14.79	21.05	-46.9	-48.8	16.1	0.00e+00	0	57	0	407896064	56	4495
2026-01-05 04:23:17.34	14.57	21.12	-47.0	-48.9	16.0	0.00e+00	0	57	0	409993216	56	4585
2026-01-05 04:23:18.33	14.34	21.18	-46.7	-48.5	16.3	0.00e+00	0	57	0	412090368	56	4379
2026-01-05 04:23:19.32	14.11	21.24	-46.5	-48.3	16.6	0.00e+00	0	57	0	413138944	56	4251
2026-01-05 04:23:20.31	13.88	21.30	-46.6	-48.4	16.5	0.00e+00	0	58	0	415236096	56	4309
2026-01-05 04:23:21.30	13.66	21.37	-46.5	-48.3	16.6	0.00e+00	0	57	0	417333248	56	4252
2026-01-05 04:23:22.29	13.42	21.43	-46.3	-48.0	16.9	0.00e+00	0	57	0	419430400	55	4341
2026-01-05 04:23:23.28	13.19	21.49	-46.2	-47.8	17.0	0.00e+00	0	57	0	420478976	55	4271
2026-01-05 04:23:24.26	12.96	21.55	-46.4	-48.1	16.7	0.00e+00	0	57	0	422576128	55	4409
2026-01-05 04:23:25.24	12.73	21.61	-46.5	-48.2	16.6	0.00e+00	0	57	0	424673280	55	4479
2026-01-05 04:23:26.24	12.49	21.67	-46.1	-47.6	17.1	0.00e+00	0	57	0	426770432	55	4180
2026-01-05 04:23:27.23	12.26	21.73	-45.8	-47.2	17.5	0.00e+00	0	57	0	428867584	54	4233
2026-01-05 04:23:28.22	12.02	21.79	-45.6	-47.0	17.7	0.00e+00	0	57	0	429916160	54	4141
2026-01-05 04:23:29.21	11.79	21.85	-45.8	-47.2	17.5	0.00e+00	0	57	0	432013312	54	4241
2026-01-05 04:23:30.19	11.55	21.90	-46.0	-47.4	17.3	0.00e+00	0	57	0	434110464	54	4338
2026-01-05 04:23:31.18	11.31	21.96	-46.1	-47.7	17.1	0.00e+00	0	57	0	436207616	54	4456
2026-01-05 04:23:32.17	11.07	22.02	-46.2	-47.8	17.0	0.00e+00	0	57	0	437256192	54	4502
2026-01-05 04:23:33.14	10.84	22.08	-46.0	-47.6	17.1	0.00e+00	0	57	0	439353344	54	4406
2026-01-05 04:23:34.14	10.59	22.13	-45.9	-47.3	17.4	0.00e+00	0	57	0	441450496	54	4290
2026-01-05 04:23:35.13	10.35	22.19	-45.9	-47.4	17.3	0.00e+00	0	57	0	443547648	54	4333
2026-01-05 04:23:36.12	10.11	22.25	-46.2	-47.8	16.9	0.00e+00	0	57	0	444596224	54	4522
2026-01-05 04:23:37.12	9.86	22.30	-46.1	-47.6	17.0	0.00e+00	0	57	0	446693376	54	4434
2026-01-05 04:23:38.11	9.61	22.36	-46.0	-47.6	16.9	0.00e+00	0	57	0	448790528	54	4419
2026-01-05 04:23:39.10	9.37	22.41	-45.9	-47.5	17.1	0.00e+00	0	57	0	450887680	54	4359
2026-01-05 04:23:40.10	9.12	22.47	-45.9	-47.4	17.1	0.00e+00	0	57	0	451936256	54	4330
2026-01-05 04:23:41.08	8.87	22.52	-45.9	-47.5	17.0	0.00e+00	0	57	0	454033408	54	4359
2026-01-05 04:23:42.07	8.63	22.57	-45.8	-47.4	16.9	0.00e+00	0	57	0	456130560	54	4313
2026-01-05 04:23:43.06	8.38	22.63	-46.1	-47.8	16.4	0.00e+00	0	57	0	458227712	54	4526
2026-01-05 04:23:44.05	8.13	22.68	-46.6	-48.5	15.7	0.00e+00	0	57	0	460324864	54	4900
2026-01-05 04:23:45.04	7.87	22.73	-47.5	-50.0	14.1	7.00e-07	0	57	0	461373440	56	5196
2026-01-05 04:23:46.02	7.63	22.78	-48.1	-51.0	13.0	7.60e-06	0	57	0	463470592	57	5513
2026-01-05 04:23:47.02	7.37	22.83	-48.6	-52.2	11.5	1.75e-04	0	57	0	465567744	59	5644
2026-01-05 04:23:48.00	7.12	22.88	-49.0	-53.2	10.3	3.34e-03	0	57	0	467664896	59	6328
2026-01-05 04:23:48.99	6.86	22.93	-49.1	-54.1	9.2	1.48e-02	0	57	0	468713472	60	6610
2026-01-05 04:23:49.98	6.61	22.98	-49.0	-54.1	9.1	2.42e-02	0	57	0	470810624	60	6608
2026-01-05 04:23:50.97	6.35	23.03	-49.2	-54.6	8.5	2.62e-02	0	57	0	472907776	60	6964
2026-01-05 04:23:51.95	6.10	23.08	-49.3	-54.8	8.4	4.60e-02	0	57	0	475004928	60	7189
2026-01-05 04:23:52.94	5.84	23.13	-49.1	-53.9	9.3	3.31e-02	0	57	0	476053504	60	6490
2026-01-05 04:23:53.93	5.58	23.17	-48.5	-52.6	10.7	9.70e-03	0	57	0	478150656	60	5544
2026-01-05 04:23:54.92	5.32	23.22	-48.4	-52.0	11.4	1.44e-03	0	57	0	480247808	59	5485
2026-01-05 04:23:55.91	5.06	23.27	-48.3	-51.7	11.7	6.31e-04	0	57	0	482344960	59	5338
2026-01-05 04:23:56.90	4.80	23.31	-48.6	-52.5	10.9	8.78e-04	0	57	0	484442112	59	5823
2026-01-05 04:23:57.89	4.54	23.36	-49.1	-53.5	10.0	4.14e-03	0	57	0	485490688	60	6190
2026-01-05 04:23:58.87	4.28	23.40	-49.4	-54.5	9.1	1.98e-02	0	57	0	487587840	60	6907
2026-01-05 04:23:59.87	4.01	23.44	-49.5	-54.5	9.0	3.00e-02	0	57	0	489684992	60	6941
2026-01-05 04:24:00.85	3.75	23.49	-49.6	-54.9	8.7	3.03e-02	0	57	0	491782144	61	6810
2026-01-05 04:24:01.84	3.49	23.53	-49.6	-54.5	9.3	3.16e-02	0	57	0	492830720	61	6502
2026-01-05 04:24:02.83	3.22	23.57	-49.1	-53.0	11.0	3.77e-03	0	57	0	494927872	61	5506
2026-01-05 04:24:03.82	2.96	23.61	-48.4	-51.5	12.8	2.34e-04	0	57	0	497025024	60	4885
2026-01-05 04:24:04.81	2.69	23.65	-47.9	-50.3	14.3	3.80e-06	0	57	0	499122176	58	4793
2026-01-05 04:24:05.80	2.42	23.70	-47.5	-49.5	15.3	3.00e-06	0	57	0	500170752	58	4358
2026-01-05 04:24:06.79	2.16	23.73	-47.3	-49.2	15.7	0.00e+00	0	57	0	502267904	57	4472
2026-01-05 04:24:07.77	1.89	23.77	-47.6	-49.6	15.3	0.00e+00	0	57	0	504365056	57	4688
2026-01-05 04:24:08.77	1.62	23.81	-47.4	-49.3	15.7	0.00e+00	0	57	0	506462208	57	4518
2026-01-05 04:24:09.76	1.35	23.85	-47.4	-49.3	15.7	0.00e+00	0	57	0	508559360	57	4521
2026-01-05 04:24:10.75	1.08	23.89	-47.5	-49.5	15.5	0.00e+00	0	57	0	509607936	57	4600
2026-01-05 04:24:11.74	0.80	23.92	-47.4	-49.4	15.6	0.00e+00	0	57	0	511705088	57	4559
2026-01-05 04:24:12.73	0.53	23.96	-47.5	-49.4	15.5	0.00e+00	0	57	0	513802240	57	4593
2026-01-05 04:24:13.72	0.26	23.99	-47.8	-49.9	15.0	0.00e+00	0	57	0	515899392	57	4833
2026-01-05 04:24:14.71	359.99	24.03	-48.0	-50.2	14.8	0.00e+00	0	57	0	516947968	57	5012
2026-01-05 04:24:15.70	359.71	24.06	-48.3	-50.8	14.2	0.00e+00	0	57	0	519045120	58	5054
2026-01-05 04:24:16.69	359.44	24.10	-48.6	-51.2	13.8	9.90e-06	0	57	0	521142272	59	4998
2026-01-05 04:24:17.68	359.16	24.13	-48.8	-51.5	13.5	9.10e-06	0	57	0	523239424	59	5210
2026-01-05 04:24:18.66	358.89	24.16	-48.6	-51.2	13.7	1.22e-05	0	57	0	525336576	59	5026
2026-01-05 04:24:19.65	358.61	24.19	-48.1	-50.4	14.5	3.00e-06	0	57	0	526385152	59	4596
2026-01-05 04:24:20.64	358.34	24.22	-47.6	-49.7	15.3	0.00e+00	0	57	0	528482304	58	4476
2026-01-05 04:24:21.63	358.06	24.25	-47.3	-49.2	15.8	0.00e+00	0	57	0	530579456	57	4443
2026-01-05 04:24:22.63	357.78	24.28	-47.3	-49.2	15.8	0.00e+00	0	57	0	532676608	57	4472
2026-01-05 04:24:23.61	357.50	24.31	-47.5	-49.6	15.4	0.00e+00	0	57	0	533725184	57	4661
2026-01-05 04:24:24.60	357.23	24.34	-47.7	-49.9	15.1	0.00e+00	0	57	0	535822336	57	4841
2026-01-05 04:24:25.59	356.95	24.36	-47.8	-49.9	15.1	0.00e+00	0	57	0	537919488	57	4860
2026-01-05 04:24:26.58	356.67	24.39	-47.6	-49.8	15.2	0.00e+00	0	57	0	540016640	57	4761
2026-01-05 04:24:27.56	356.39	24.41	-47.3	-49.3	15.7	0.00e+00	0	57	0	541065216	57	4516
2026-01-05 04:24:28.55	356.11	24.44	-47.1	-49.0	16.0	0.00e+00	0	57	0	543162368	57	4343
2026-01-05 04:24:29.54	355.83	24.46	-47.2	-49.1	15.8	0.00e+00	0	57	0	545259520	57	4433
2026-01-05 04:24:30.52	355.55	24.49	-47.3	-49.3	15.7	0.00e+00	0	57	0	547356672	57	4515
2026-01-05 04:24:31.51	355.27	24.51	-47.5	-49.5	15.4	0.00e+00	0	57	0	548405248	57	4647
2026-01-05 04:24:32.50	354.98	24.53	-47.9	-50.1	14.8	0.00e+00	0	57	0	550502400	57	4980
2026-01-05 04:24:33.49	354.70	24.55	-48.1	-50.5	14.5	0.00e+00	0	57	0	552599552	58	4893
2026-01-05 04:24:34.48	354.42	24.57	-48.0	-50.3	14.7	0.00e+00	0	57	0	554696704	58	4767
2026-01-05 04:24:35.47	354.13	24.59	-48.0	-50.3	14.7	2.20e-06	0	57	0	556793856	58	4796
2026-01-05 04:24:36.46	353.85	24.61	-47.9	-50.3	14.7	0.00e+00	0	57	0	557842432	58	4766
2026-01-05 04:24:37.45	353.57	24.63	-48.0	-50.2	14.7	0.00e+00	0	57	0	559939584	58	4755
2026-01-05 04:24:38.44	353.28	24.65	-48.0	-50.4	14.6	0.00e+00	0	57	0	562036736	58	4857
2026-01-05 04:24:39.42	353.00	24.66	-48.2	-50.7	14.3	0.00e+00	0	57	0	564133888	58	4997
2026-01-05 04:24:40.42	352.71	24.68	-48.4	-51.0	14.0	3.80e-06	0	57	0	565182464	58	5162
2026-01-05 04:24:41.41	352.43	24.69	-48.5	-51.1	13.8	3.80e-06	0	57	0	567279616	58	5265
2026-01-05 04:24:42.40	352.14	24.71	-48.5	-51.1	13.9	4.50e-06	0	57	0	569376768	58	5278
2026-01-05 04:24:43.39	351.86	24.72	-48.4	-51.0	14.1	2.20e-06	0	57	0	571473920	58	5166
2026-01-05 04:24:44.39	351.57	24.74	-48.5	-51.0	14.0	3.80e-06	0	57	0	572522496	58	5191
2026-01-05 04:24:45.38	351.28	24.75	-48.8	-51.5	13.5	5.30e-06	0	57	0	574619648	59	5189
2026-01-05 04:24:46.37	350.99	24.76	-49.0	-52.0	13.0	2.21e-05	0	57	0	576716800	59	5479
2026-01-05 04:24:47.37	350.70	24.77	-49.3	-52.6	12.4	1.11e-04	0	57	0	578813952	60	5567
2026-01-05 04:24:48.35	350.42	24.78	-49.5	-53.0	12.0	1.73e-04	0	57	0	580911104	60	5803
2026-01-05 04:24:49.34	350.13	24.79	-49.4	-52.8	12.1	3.04e-04	0	57	0	581959680	60	5716
2026-01-05 04:24:50.32	349.85	24.80	-49.2	-52.4	12.6	2.10e-04	0	57	0	584056832	60	5424
2026-01-05 04:24:51.30	349.56	24.80	-49.1	-52.2	12.7	7.17e-05	0	57	0	586153984	60	5336
2026-01-05 04:24:52.29	349.28	24.81	-49.1	-52.1	12.8	4.27e-05	0	57	0	588251136	60	5259
2026-01-05 04:24:53.29	348.98	24.82	-49.0	-52.0	12.9	4.04e-05	0	57	0	589299712	60	5203
2026-01-05 04:24:54.28	348.70	24.82	-49.0	-52.1	12.9	5.72e-05	0	57	0	591396864	60	5219
2026-01-05 04:24:55.27	348.41	24.82	-48.6	-51.4	13.6	1.44e-05	0	58	0	593494016	60	4817
2026-01-05 04:24:56.27	348.12	24.83	-48.2	-50.7	14.3	4.50e-06	0	57	0	595591168	59	4708
2026-01-05 04:24:57.26	347.83	24.83	-47.7	-49.8	15.1	0.00e+00	0	57	0	597688320	58	4541
2026-01-05 04:24:58.24	347.55	24.83	-47.3	-49.3	15.6	0.00e+00	0	57	0	598736896	57	4504
2026-01-05 04:24:59.23	347.26	24.83	-47.2	-49.1	15.8	0.00e+00	0	57	0	600834048	57	4404
2026-01-05 04:25:00.22	346.97	24.83	-47.1	-49.0	16.0	0.00e+00	0	57	0	602931200	57	4364
2026-01-05 04:25:01.21	346.68	24.83	-47.6	-49.7	15.3	0.00e+00	0	57	0	605028352	57	4750
2026-01-05 04:25:02.20	346.39	24.83	-47.8	-50.1	14.9	7.00e-07	0	57	0	606076928	57	4946
2026-01-05 04:25:03.20	346.10	24.83	-47.9	-50.3	14.7	0.00e+00	0	57	0	608174080	57	5045
2026-01-05 04:25:04.18	345.82	24.83	-48.0	-50.4	14.5	0.00e+00	0	57	0	610271232	57	5121
2026-01-05 04:25:05.17	345.53	24.82	-48.0	-50.4	14.5	7.00e-07	0	57	0	612368384	57	5143
2026-01-05 04:25:06.16	345.24	24.82	-48.0	-50.4	14.5	0.00e+00	0	57	0	613416960	58	4849
2026-01-05 04:25:07.15	344.95	24.81	-48.0	-50.3	14.6	0.00e+00	0	57	0	615514112	58	4791
2026-01-05 04:25:08.14	344.67	24.81	-48.0	-50.3	14.7	0.00e+00	0	57	0	617611264	58	4769
2026-01-05 04:25:09.13	344.38	24.80	-47.7	-49.8	15.2	7.00e-07	0	57	0	619708416	58	4536
2026-01-05 04:25:10.12	344.09	24.79	-47.8	-50.0	15.0	7.00e-07	0	57	0	621805568	58	4604
2026-01-05 04:25:11.11	343.80	24.78	-47.9	-50.1	14.9	0.00e+00	0	57	0	622854144	58	4670
2026-01-05 04:25:12.09	343.52	24.77	-48.1	-50.4	14.6	7.00e-07	0	57	0	624951296	58	4836
2026-01-05 04:25:13.08	343.23	24.76	-47.9	-50.2	14.8	0.00e+00	0	57	0	627048448	58	4713
2026-01-05 04:25:14.08	342.94	24.75	-47.7	-49.9	15.1	0.00e+00	0	57	0	629145600	58	4574
2026-01-05 04:25:15.07	342.66	24.74	-47.9	-50.1	14.9	0.00e+00	0	57	0	630194176	58	4679
2026-01-05 04:25:16.07	342.37	24.73	-48.2	-50.5	14.6	0.00e+00	0	57	0	632291328	58	4891
2026-01-05 04:25:17.06	342.08	24.72	-47.7	-49.9	15.1	0.00e+00	0	57	0	634388480	58	4548
2026-01-05 04:25:18.05	341.79	24.70	-47.6	-49.7	15.3	0.00e+00	0	57	0	636485632	58	4465
2026-01-05 04:25:19.04	341.51	24.69	-47.5	-49.5	15.5	0.00e+00	0	57	0	637534208	58	4361
2026-01-05 04:25:20.02	341.23	24.67	-47.5	-49.6	15.3	0.00e+00	0	57	0	639631360	57	4687
2026-01-05 04:25:21.01	340.94	24.66	-47.4	-49.4	15.6	0.00e+00	0	57	0	641728512	57	4553
2026-01-05 04:25:21.99	340.66	24.64	-47.2	-49.1	15.9	0.00e+00	0	57	0	643825664	57	4415
2026-01-05 04:25:22.98	340.38	24.62	-47.3	-49.3	15.7	0.00e+00	0	57	0	644874240	57	4510
2026-01-05 04:25:23.97	340.09	24.60	-47.6	-49.6	15.3	0.00e+00	0	57	0	646971392	57	4704
2026-01-05 04:25:24.96	339.81	24.58	-47.4	-49.4	15.6	0.00e+00	0	57	0	649068544	57	4547
2026-01-05 04:25:25.95	339.52	24.56	-47.1	-48.8	16.1	0.00e+00	0	57	0	651165696	57	4286
2026-01-05 04:25:26.94	339.24	24.54	-46.7	-48.4	16.6	0.00e+00	0	57	0	653262848	56	4308
2026-01-05 04:25:27.92	338.96	24.52	-46.0	-47.5	17.3	0.00e+00	0	57	0	654311424	55	4130
2026-01-05 04:25:28.89	338.68	24.50	-45.7	-47.1	17.7	0.00e+00	0	57	0	656408576	54	4174
2026-01-05 04:25:29.87	338.41	24.48	-45.4	-46.7	18.1	0.00e+00	0	57	0	658505728	54	3969
2026-01-05 04:25:30.85	338.13	24.45	-45.3	-46.6	18.2	0.00e+00	0	57	0	660602880	53	4189
2026-01-05 04:25:31.84	337.85	24.43	-45.5	-46.8	17.7	0.00e+00	0	57	0	661651456	53	4247
2026-01-05 04:25:32.83	337.57	24.40	-45.6	-47.0	17.8	0.00e+00	0	57	0	663748608	53	4372
2026-01-05 04:25:33.82	337.29	24.38	-45.6	-46.9	17.9	0.00e+00	0	57	0	665845760	53	4322
2026-01-05 04:25:34.81	337.01	24.35	-45.8	-47.2	17.6	0.00e+00	0	57	0	667942912	53	4489
2026-01-05 04:25:35.80	336.73	24.32	-45.9	-47.3	17.5	0.00e+00	0	57	0	668991488	53	4533
2026-01-05 04:25:36.80	336.44	24.30	-46.0	-47.5	17.4	0.00e+00	0	57	0	671088640	53	4601
2026-01-05 04:25:37.78	336.17	24.27	-46.1	-47.6	17.2	0.00e+00	0	57	0	673185792	54	4423
2026-01-05 04:25:38.77	335.89	24.24	-46.3	-47.8	17.1	0.00e+00	0	57	0	675282944	54	4524
2026-01-05 04:25:39.76	335.61	24.21	-46.3	-47.8	16.9	0.00e+00	0	57	0	677380096	54	4513
2026-01-05 04:25:40.75	335.34	24.18	-46.4	-48.0	16.8	0.00e+00	0	57	0	678428672	54	4651
2026-01-05 04:25:41.74	335.06	24.15	-46.4	-48.0	16.9	0.00e+00	0	57	0	680525824	54	4607
2026-01-05 04:25:42.73	334.79	24.11	-46.5	-48.2	16.7	0.00e+00	0	57	0	682622976	54	4712
2026-01-05 04:25:43.72	334.51	24.08	-46.4	-48.0	16.8	0.00e+00	0	57	0	684720128	54	4632
2026-01-05 04:25:44.71	334.24	24.05	-46.4	-47.9	16.9	0.00e+00	0	57	0	685768704	54	4589
2026-01-05 04:25:45.71	333.96	24.01	-46.5	-48.1	16.8	0.00e+00	0	57	0	687865856	54	4677
2026-01-05 04:25:46.69	333.69	23.98	-46.8	-48.5	16.4	0.00e+00	0	57	0	689963008	55	4616
2026-01-05 04:25:47.69	333.42	23.94	-47.2	-49.1	16.0	0.00e+00	0	57	0	692060160	56	4675
2026-01-05 04:25:48.68	333.14	23.91	-47.4	-49.3	15.7	0.00e+00	0	57	0	693108736	56	4791
2026-01-05 04:25:49.67	332.87	23.87	-47.5	-49.4	15.7	0.00e+00	0	57	0	695205888	57	4567
2026-01-05 04:25:50.66	332.60	23.83	-47.4	-49.4	15.6	0.00e+00	0	57	0	697303040	57	4580
2026-01-05 04:25:51.65	332.33	23.80	-47.3	-49.1	15.9	0.00e+00	0	57	0	699400192	57	4427
2026-01-05 04:25:52.64	332.06	23.76	-47.1	-48.9	16.1	0.00e+00	0	57	0	701497344	57	4322
2026-01-05 04:25:53.63	331.79	23.72	-47.1	-48.9	16.2	0.00e+00	0	57	0	702545920	57	4309
2026-01-05 04:25:54.62	331.53	23.68	-47.0	-48.8	16.2	0.00e+00	0	57	0	704643072	57	4269
2026-01-05 04:25:55.62	331.26	23.64	-47.3	-49.1	15.9	0.00e+00	0	57	0	706740224	57	4433
2026-01-05 04:25:56.61	330.99	23.60	-47.3	-49.1	15.8	0.00e+00	0	57	0	708837376	57	4422
2026-01-05 04:25:57.60	330.72	23.55	-47.5	-49.4	15.5	0.00e+00	0	57	0	709885952	57	4598
2026-01-05 04:25:58.59	330.46	23.51	-47.5	-49.5	15.5	0.00e+00	0	57	0	711983104	57	4606
2026-01-05 04:25:59.58	330.19	23.47	-47.8	-49.9	15.3	0.00e+00	0	57	0	714080256	57	4861
2026-01-05 04:26:00.56	329.93	23.42	-47.7	-49.8	15.2	0.00e+00	0	57	0	716177408	57	4789
2026-01-05 04:26:01.55	329.67	23.38	-47.7	-49.8	15.3	0.00e+00	0	57	0	717225984	57	4764
2026-01-05 04:26:02.54	329.41	23.34	-47.5	-49.5	15.5	0.00e+00	0	57	0	719323136	57	4617
2026-01-05 04:26:03.53	329.15	23.29	-47.7	-49.9	15.1	0.00e+00	0	57	0	721420288	57	4860
2026-01-05 04:26:04.51	328.89	23.25	-47.9	-50.2	14.9	7.00e-07	0	57	0	723517440	57	4984
2026-01-05 04:26:05.50	328.63	23.20	-48.1	-50.4	14.5	7.00e-07	0	57	0	724566016	58	4865
2026-01-05 04:26:06.49	328.37	23.15	-48.1	-50.4	14.6	0.00e+00	0	57	0	726663168	58	4862
2026-01-05 04:26:07.48	328.11	23.10	-48.0	-50.3	14.7	1.50e-06	0	57	0	728760320	58	4794
2026-01-05 04:26:08.47	327.85	23.06	-47.7	-49.9	15.1	0.00e+00	0	57	0	730857472	58	4558
2026-01-05 04:26:09.45	327.60	23.01	-47.5	-49.5	15.5	0.00e+00	0	57	0	732954624	58	4371
2026-01-05 04:26:10.45	327.34	22.96	-47.4	-49.4	15.6	0.00e+00	0	57	0	734003200	57	4573
2026-01-05 04:26:11.44	327.09	22.91	-47.5	-49.6	15.4	0.00e+00	0	57	0	736100352	57	4654
2026-01-05 04:26:12.43	326.83	22.86	-47.7	-49.8	15.3	0.00e+00	0	57	0	738197504	57	4765
2026-01-05 04:26:13.42	326.58	22.81	-47.7	-49.8	15.2	0.00e+00	0	57	0	740294656	57	4806
2026-01-05 04:26:14.41	326.33	22.76	-48.1	-50.4	14.6	0.00e+00	0	57	0	741343232	58	4853
2026-01-05 04:26:15.40	326.07	22.71	-48.1	-50.5	14.6	0.00e+00	0	57	0	743440384	58	4888
2026-01-05 04:26:16.39	325.82	22.65	-48.4	-50.8	14.2	0.00e+00	0	57	0	745537536	58	5098
2026-01-05 04:26:17.38	325.57	22.60	-48.4	-50.8	14.1	3.80e-06	0	57	0	747634688	58	5087
2026-01-05 04:26:18.38	325.32	22.55	-47.9	-50.1	14.9	0.00e+00	0	57	0	749731840	58	4682
2026-01-05 04:26:19.37	325.07	22.49	-47.6	-49.7	15.3	0.00e+00	0	57	0	750780416	58	4470
2026-01-05 04:26:20.36	324.83	22.44	-47.6	-49.7	15.3	0.00e+00	0	57	0	752877568	58	4467
2026-01-05 04:26:21.36	324.58	22.39	-47.7	-49.8	15.2	0.00e+00	0	57	0	754974720	58	4531
2026-01-05 04:26:22.35	324.33	22.33	-47.6	-49.7	15.3	0.00e+00	0	57	0	757071872	58	4470
2026-01-05 04:26:23.34	324.09	22.28	-47.6	-49.7	15.3	0.00e+00	0	57	0	758120448	58	4454
2026-01-05 04:26:24.33	323.84	22.22	-47.7	-49.8	15.3	0.00e+00	0	57	0	760217600	58	4521
2026-01-05 04:26:25.32	323.60	22.16	-47.8	-50.0	15.1	0.00e+00	0	57	0	762314752	58	4613
2026-01-05 04:26:26.31	323.36	22.11	-47.9	-50.2	14.8	0.00e+00	0	57	0	764411904	58	4741
2026-01-05 04:26:27.30	323.12	22.05	-48.2	-50.7	14.3	1.50e-06	0	57	0	766509056	58	5027
2026-01-05 04:26:28.29	322.88	21.99	-48.4	-51.0	14.0	3.80e-06	0	57	0	767557632	58	5192
2026-01-05 04:26:29.28	322.64	21.93	-48.1	-50.6	14.4	1.50e-06	0	57	0	769654784	58	4937
2026-01-05 04:26:30.26	322.40	21.88	-47.9	-50.2	14.8	0.00e+00	0	57	0	771751936	58	4726
2026-01-05 04:26:31.24	322.16	21.82	-47.6	-49.8	15.2	0.00e+00	0	57	0	773849088	58	4499
2026-01-05 04:26:32.24	321.93	21.76	-47.6	-49.7	15.3	0.00e+00	0	57	0	774897664	58	4491
2026-01-05 04:26:33.23	321.69	21.70	-47.5	-49.6	15.4	0.00e+00	0	57	0	776994816	58	4399
2026-01-05 04:26:34.21	321.46	21.64	-47.6	-49.7	15.3	0.00e+00	0	57	0	779091968	57	4723
2026-01-05 04:26:35.20	321.22	21.58	-47.7	-49.9	15.1	0.00e+00	0	57	0	781189120	57	4840
2026-01-05 04:26:36.19	320.99	21.52	-48.0	-50.3	14.6	0.00e+00	0	57	0	782237696	57	5094
2026-01-05 04:26:37.18	320.76	21.46	-48.3	-51.0	14.1	2.20e-06	0	57	0	784334848	58	5180
2026-01-05 04:26:38.17	320.53	21.40	-48.7	-51.6	13.4	3.80e-06	0	57	0	786432000	59	5228
2026-01-05 04:26:39.15	320.30	21.34	-48.8	-51.8	13.2	9.10e-06	0	57	0	788529152	59	5371
2026-01-05 04:26:40.15	320.07	21.27	-48.5	-51.4	13.5	7.60e-06	0	57	0	789577728	59	5156
2026-01-05 04:26:41.13	319.84	21.21	-48.2	-50.8	14.1	3.00e-06	0	57	0	791674880	59	4814
2026-01-05 04:26:42.12	319.61	21.15	-48.1	-50.5	14.3	0.00e+00	0	57	0	793772032	59	4646
2026-01-05 04:26:43.11	319.39	21.09	-48.1	-50.5	14.5	0.00e+00	0	57	0	795869184	59	4631
2026-01-05 04:26:44.11	319.16	21.02	-48.1	-50.6	14.4	7.00e-07	0	57	0	797966336	59	4665
2026-01-05 04:26:45.10	318.93	20.96	-47.9	-50.1	14.9	0.00e+00	0	58	0	799014912	58	4679
2026-01-05 04:26:46.08	318.71	20.90	-47.9	-50.2	14.8	0.00e+00	0	58	0	801112064	58	4749
2026-01-05 04:26:47.08	318.49	20.83	-47.8	-50.1	14.9	0.00e+00	0	57	0	803209216	58	4665
2026-01-05 04:26:48.06	318.27	20.77	-47.8	-50.0	15.0	0.00e+00	0	57	0	805306368	58	4617
2026-01-05 04:26:49.05	318.05	20.70	-48.0	-50.4	14.6	0.00e+00	0	57	0	806354944	58	4825
2026-01-05 04:26:50.04	317.83	20.64	-48.0	-50.3	14.7	0.00e+00	0	57	0	808452096	58	4801
2026-01-05 04:26:51.04	317.60	20.57	-47.8	-50.1	14.9	0.00e+00	0	57	0	810549248	58	4657
2026-01-05 04:26:52.03	317.39	20.51	-47.4	-49.4	15.5	0.00e+00	0	57	0	812646400	57	4575
2026-01-05 04:26:53.02	317.17	20.44	-47.0	-48.9	16.0	0.00e+00	0	57	0	814743552	56	4564
2026-01-05 04:26:54.01	316.95	20.37	-46.5	-48.1	16.7	0.00e+00	0	57	0	815792128	56	4182
2026-01-05 04:26:55.00	316.74	20.31	-46.1	-47.6	17.2	0.00e+00	0	57	0	817889280	55	4159
2026-01-05 04:26:55.99	316.52	20.24	-46.0	-47.5	17.3	0.00e+00	0	57	0	819986432	54	4342
2026-01-05 04:26:56.98	316.31	20.17	-45.8	-47.3	17.5	0.00e+00	0	57	0	822083584	54	4244
2026-01-05 04:26:57.97	316.10	20.11	-45.9	-47.4	17.4	0.00e+00	0	57	0	823132160	54	4318
2026-01-05 04:26:58.96	315.89	20.04	-45.9	-47.4	17.4	0.00e+00	0	57	0	825229312	54	4305
2026-01-05 04:26:59.95	315.67	19.97	-46.1	-47.7	17.1	0.00e+00	0	57	0	827326464	54	4442
2026-01-05 04:27:00.94	315.46	19.90	-46.1	-47.7	17.0	0.00e+00	0	57	0	829423616	54	4451
2026-01-05 04:27:01.93	315.26	19.84	-46.6	-48.4	16.4	0.00e+00	0	57	0	830472192	55	4585
2026-01-05 04:27:02.92	315.05	19.77	-46.9	-48.7	16.0	0.00e+00	0	57	0	832569344	55	4750
2026-01-05 04:27:03.91	314.84	19.70	-47.1	-49.0	15.8	0.00e+00	0	57	0	834666496	55	4910
2026-01-05 04:27:04.90	314.64	19.63	-47.2	-49.2	15.6	0.00e+00	0	57	0	836763648	56	4754
2026-01-05 04:27:05.89	314.43	19.56	-47.5	-49.6	15.4	0.00e+00	0	57	0	837812224	56	4935
2026-01-05 04:27:06.88	314.23	19.49	-47.8	-50.0	14.9	0.00e+00	0	57	0	839909376	57	4923
2026-01-05 04:27:07.87	314.02	19.42	-47.6	-49.9	15.1	0.00e+00	0	57	0	842006528	57	4816
2026-01-05 04:27:08.86	313.82	19.35	-47.6	-49.8	15.1	0.00e+00	0	57	0	844103680	57	4786
2026-01-05 04:27:09.84	313.62	19.28	-47.5	-49.7	15.2	0.00e+00	0	57	0	846200832	57	4733
2026-01-05 04:27:10.83	313.42	19.22	-47.6	-49.8	15.1	0.00e+00	0	57	0	847249408	57	4778
2026-01-05 04:27:11.82	313.22	19.15	-47.4	-49.4	15.5	0.00e+00	0	58	0	849346560	57	4586
2026-01-05 04:27:12.82	313.02	19.07	-47.5	-49.6	15.4	0.00e+00	0	57	0	851443712	57	4670
2026-01-05 04:27:13.80	312.82	19.00	-47.3	-49.3	15.6	0.00e+00	0	57	0	853540864	57	4544
2026-01-05 04:27:14.80	312.63	18.93	-47.0	-48.9	16.0	0.00e+00	0	57	0	854589440	57	4303
2026-01-05 04:27:15.79	312.43	18.86	-46.8	-48.7	16.2	0.00e+00	0	57	0	856686592	56	4455
2026-01-05 04:27:16.78	312.24	18.79	-46.7	-48.4	16.4	0.00e+00	0	57	0	858783744	56	4332
2026-01-05 04:27:17.76	312.04	18.72	-46.6	-48.3	16.5	0.00e+00	0	57	0	860880896	56	4290
2026-01-05 04:27:18.75	311.85	18.65	-46.6	-48.3	16.6	0.00e+00	0	57	0	861929472	56	4253
2026-01-05 04:27:19.74	311.66	18.58	-46.6	-48.3	16.5	0.00e+00	0	57	0	864026624	56	4279
2026-01-05 04:27:20.73	311.47	18.51	-46.8	-48.6	16.3	0.00e+00	0	57	0	866123776	56	4405
2026-01-05 04:27:21.72	311.28	18.44	-47.1	-49.0	15.9	0.00e+00	0	57	0	868220928	56	4638
2026-01-05 04:27:22.72	311.09	18.37	-47.3	-49.4	15.5	0.00e+00	0	57	0	870318080	56	4836
2026-01-05 04:27:23.71	310.90	18.29	-47.3	-49.3	15.5	0.00e+00	0	57	0	871366656	56	4799
2026-01-05 04:27:24.70	310.71	18.22	-47.2	-49.2	15.7	0.00e+00	0	57	0	873463808	56	4738
2026-01-05 04:27:25.69	310.52	18.15	-47.1	-49.0	15.8	0.00e+00	0	57	0	875560960	56	4648
2026-01-05 04:27:26.68	310.34	18.08	-46.9	-48.8	16.1	0.00e+00	0	57	0	877658112	56	4513
2026-01-05 04:27:27.68	310.15	18.01	-46.9	-48.7	16.2	0.00e+00	0	57	0	878706688	56	4446
2026-01-05 04:27:28.67	309.97	17.93	-47.1	-49.0	15.8	0.00e+00	0	57	0	880803840	56	4644
2026-01-05 04:27:29.65	309.78	17.86	-47.3	-49.3	15.6	0.00e+00	0	57	0	882900992	56	4792
2026-01-05 04:27:30.63	309.60	17.79	-47.4	-49.5	15.4	0.00e+00	0	57	0	884998144	56	4882
2026-01-05 04:27:31.62	309.42	17.72	-47.4	-49.6	15.4	0.00e+00	0	57	0	887095296	56	4931
2026-01-05 04:27:32.60	309.24	17.65	-47.4	-49.4	15.5	0.00e+00	0	57	0	888143872	56	4839
2026-01-05 04:27:33.60	309.06	17.57	-47.3	-49.4	15.5	0.00e+00	0	57	0	890241024	56	4848
2026-01-05 04:27:34.59	308.88	17.50	-47.1	-49.1	15.8	0.00e+00	0	57	0	892338176	56	4681
2026-01-05 04:27:35.58	308.71	17.43	-47.1	-49.0	15.9	0.00e+00	0	57	0	894435328	56	4643
2026-01-05 04:27:36.57	308.53	17.35	-47.1	-49.0	15.8	0.00e+00	0	57	0	895483904	56	4645
2026-01-05 04:27:37.56	308.35	17.28	-47.0	-48.8	16.1	0.00e+00	0	57	0	897581056	56	4537
2026-01-05 04:27:38.55	308.18	17.21	-47.1	-49.0	15.9	0.00e+00	0	57	0	899678208	56	4640
2026-01-05 04:27:39.53	308.00	17.14	-47.0	-48.9	16.0	0.00e+00	0	57	0	901775360	56	4577
2026-01-05 04:27:40.52	307.83	17.06	-47.0	-48.8	16.1	0.00e+00	0	57	0	902823936	56	4542
2026-01-05 04:27:41.51	307.66	16.99	-46.9	-48.7	16.1	0.00e+00	0	57	0	904921088	56	4486
2026-01-05 04:27:42.50	307.49	16.92	-47.1	-48.9	15.9	0.00e+00	0	57	0	907018240	56	4595
2026-01-05 04:27:43.50	307.31	16.84	-47.2	-49.1	15.7	0.00e+00	0	57	0	909115392	56	4685
2026-01-05 04:27:44.49	307.14	16.77	-47.3	-49.2	15.6	7.00e-07	0	57	0	911212544	56	4739
2026-01-05 04:27:45.48	306.97	16.70	-47.4	-49.4	15.5	0.00e+00	0	57	0	912261120	56	4850
2026-01-05 04:27:46.47	306.81	16.62	-47.4	-49.4	15.5	0.00e+00	0	57	0	914358272	56	4846
2026-01-05 04:27:47.46	306.64	16.55	-47.2	-49.1	15.8	0.00e+00	0	57	0	916455424	56	4664
2026-01-05 04:27:48.44	306.47	16.48	-46.9	-48.7	16.3	0.00e+00	0	57	0	918552576	56	4446
2026-01-05 04:27:49.44	306.31	16.40	-46.6	-48.3	16.6	0.00e+00	0	57	0	919601152	56	4248
2026-01-05 04:27:50.43	306.14	16.33	-46.3	-47.8	16.9	0.00e+00	0	57	0	921698304	55	4287
2026-01-05 04:27:51.41	305.98	16.26	-46.3	-47.9	16.9	0.00e+00	0	57	0	923795456	55	4299
2026-01-05 04:27:52.40	305.81	16.18	-46.4	-48.0	16.8	0.00e+00	0	57	0	925892608	55	4367
2026-01-05 04:27:53.40	305.65	16.11	-46.3	-47.9	16.9	0.00e+00	0	57	0	926941184	55	4292
2026-01-05 04:27:54.39	305.49	16.04	-46.2	-47.7	17.1	0.00e+00	0	57	0	929038336	55	4221
2026-01-05 04:27:55.38	305.33	15.96	-46.3	-47.8	16.9	0.00e+00	0	57	0	931135488	55	4280
2026-01-05 04:27:56.38	305.16	15.89	-46.4	-48.1	16.7	0.00e+00	0	57	0	933232640	55	4408
2026-01-05 04:27:57.36	305.01	15.82	-46.4	-48.0	16.7	0.00e+00	0	57	0	935329792	55	4380
2026-01-05 04:27:58.35	304.85	15.74	-46.5	-48.2	16.6	0.00e+00	0	57	0	936378368	55	4448
2026-01-05 04:27:59.34	304.69	15.67	-46.5	-48.2	16.6	0.00e+00	0	57	0	938475520	55	4465
2026-01-05 04:28:00.33	304.53	15.59	-46.6	-48.4	16.4	0.00e+00	0	57	0	940572672	55	4548
2026-01-05 04:28:01.32	304.38	15.52	-46.5	-48.2	16.6	0.00e+00	0	57	0	942669824	55	4465
2026-01-05 04:28:02.31	304.22	15.45	-46.6	-48.3	16.4	0.00e+00	0	57	0	943718400	55	4529
2026-01-05 04:28:03.30	304.07	15.37	-46.5	-48.2	16.6	0.00e+00	0	57	0	945815552	55	4468
2026-01-05 04:28:04.29	303.91	15.30	-46.2	-47.7	17.0	0.00e+00	0	57	0	947912704	55	4242
2026-01-05 04:28:05.28	303.76	15.23	-46.2	-47.7	17.0	0.00e+00	0	57	0	950009856	55	4208
2026-01-05 04:28:06.27	303.61	15.15	-46.1	-47.6	17.2	0.00e+00	0	57	0	951058432	55	4147
2026-01-05 04:28:07.26	303.45	15.08	-46.1	-47.7	17.1	0.00e+00	0	57	0	953155584	55	4198
2026-01-05 04:28:08.24	303.30	15.01	-46.1	-47.6	17.1	0.00e+00	0	57	0	955252736	55	4165
2026-01-05 04:28:09.23	303.15	14.93	-46.4	-47.9	16.8	0.00e+00	0	57	0	957349888	55	4340
2026-01-05 04:28:10.22	303.00	14.86	-46.4	-48.0	16.7	0.00e+00	0	57	0	959447040	55	4388
2026-01-05 04:28:11.22	302.85	14.79	-46.9	-48.7	16.1	0.00e+00	0	57	0	960495616	55	4722
2026-01-05 04:28:12.21	302.71	14.71	-47.2	-49.1	15.7	0.00e+00	0	57	0	962592768	56	4704
2026-01-05 04:28:13.20	302.56	14.64	-47.4	-49.3	15.5	0.00e+00	0	57	0	964689920	56	4809
2026-01-05 04:28:14.19	302.41	14.57	-47.5	-49.6	15.2	0.00e+00	0	57	0	966787072	56	4970
2026-01-05 04:28:15.18	302.27	14.49	-47.6	-49.7	15.1	0.00e+00	0	57	0	967835648	57	4750
2026-01-05 04:28:16.17	302.12	14.42	-47.4	-49.5	15.3	0.00e+00	0	57	0	969932800	57	4615
2026-01-05 04:28:17.15	301.98	14.35	-47.2	-49.1	15.7	0.00e+00	0	57	0	972029952	57	4408
2026-01-05 04:28:18.15	301.83	14.27	-46.9	-48.8	16.0	0.00e+00	0	57	0	974127104	57	4255
2026-01-05 04:28:19.14	301.69	14.20	-47.0	-48.9	16.0	0.00e+00	0	57	0	975175680	57	4311
2026-01-05 04:28:20.13	301.55	14.13	-46.8	-48.7	16.1	0.00e+00	0	57	0	977272832	56	4455
2026-01-05 04:28:21.12	301.41	14.05	-46.8	-48.6	16.2	0.00e+00	0	57	0	979369984	56	4404
2026-01-05 04:28:22.10	301.27	13.98	-46.6	-48.3	16.5	0.00e+00	0	57	0	981467136	56	4257
2026-01-05 04:28:23.09	301.13	13.91	-46.6	-48.3	16.4	0.00e+00	0	57	0	983564288	56	4291
2026-01-05 04:28:24.08	300.99	13.84	-46.3	-47.9	16.8	0.00e+00	0	57	0	984612864	55	4312
2026-01-05 04:28:25.07	300.85	13.76	-46.3	-47.9	16.7	0.00e+00	0	57	0	986710016	55	4339
2026-01-05 04:28:26.06	300.71	13.69	-46.4	-48.1	16.6	0.00e+00	0	57	0	988807168	55	4399
2026-01-05 04:28:27.05	300.57	13.62	-46.5	-48.2	16.5	0.00e+00	0	57	0	990904320	55	4451
2026-01-05 04:28:28.04	300.44	13.55	-46.6	-48.3	16.3	0.00e+00	0	57	0	991952896	55	4530
2026-01-05 04:28:29.02	300.30	13.47	-46.7	-48.5	16.1	0.00e+00	0	57	0	994050048	55	4640
2026-01-05 04:28:30.01	300.17	13.40	-47.1	-49.0	15.6	0.00e+00	0	57	0	996147200	55	4913
2026-01-05 04:28:31.00	300.03	13.33	-47.4	-49.4	15.3	0.00e+00	0	57	0	998244352	56	4848
2026-01-05 04:28:31.99	299.90	13.26	-47.7	-49.9	14.9	0.00e+00	0	57	0	999292928	57	4822
2026-01-05 04:28:32.98	299.77	13.18	-47.8	-50.2	14.6	7.00e-07	0	57	0	1001390080	57	4984
2026-01-05 04:28:33.96	299.64	13.11	-47.8	-50.1	14.6	0.00e+00	0	57	0	1003487232	57	4965
2026-01-05 04:28:34.95	299.50	13.04	-48.0	-50.5	14.2	7.00e-07	0	57	0	1005584384	58	4889
2026-01-05 04:28:35.94	299.37	12.97	-47.7	-49.9	14.8	0.00e+00	0	57	0	1007681536	58	4579
2026-01-05 04:28:36.93	299.24	12.89	-47.5	-49.6	15.0	0.00e+00	0	57	0	1008730112	58	4434
2026-01-05 04:28:37.92	299.11	12.82	-47.2	-49.2	15.5	0.00e+00	0	57	0	1010827264	57	4471
2026-01-05 04:28:38.92	298.98	12.75	-47.0	-49.0	15.6	0.00e+00	0	57	0	1012924416	57	4363
2026-01-05 04:28:39.91	298.85	12.68	-47.0	-48.9	15.7	0.00e+00	0	57	0	1015021568	56	4550
2026-01-05 04:28:40.90	298.72	12.61	-46.9	-48.8	15.8	0.00e+00	0	57	0	1016070144	56	4506
2026-01-05 04:28:41.89	298.60	12.53	-46.8	-48.7	15.8	0.00e+00	0	57	0	1018167296	56	4468
2026-01-05 04:28:42.88	298.47	12.46	-46.7	-48.5	16.0	0.00e+00	0	57	0	1020264448	56	4355
2026-01-05 04:28:43.87	298.34	12.39	-46.9	-48.8	15.6	0.00e+00	0	57	0	1022361600	56	4543
2026-01-05 04:28:44.86	298.22	12.32	-46.9	-48.8	15.7	0.00e+00	0	57	0	1024458752	56	4545
2026-01-05 04:28:45.84	298.09	12.25	-47.1	-49.1	15.4	0.00e+00	0	57	0	1025507328	56	4662
2026-01-05 04:28:46.83	297.97	12.18	-47.1	-49.2	15.3	0.00e+00	0	57	0	1027604480	56	4709
2026-01-05 04:28:47.83	297.85	12.10	-47.1	-49.2	15.2	0.00e+00	0	57	0	1029701632	56	4721
2026-01-05 04:28:48.81	297.72	12.03	-47.2	-49.2	15.1	0.00e+00	0	57	0	1031798784	56	4740
2026-01-05 04:28:49.80	297.60	11.96	-47.1	-49.2	15.1	0.00e+00	0	57	0	1032847360	56	4741
2026-01-05 04:28:50.78	297.48	11.89	-47.5	-49.7	14.7	0.00e+00	0	57	0	1034944512	56	5016
2026-01-05 04:28:51.78	297.36	11.82	-47.4	-49.5	14.8	0.00e+00	0	57	0	1037041664	56	4924
2026-01-05 04:28:52.77	297.24	11.75	-47.3	-49.6	14.7	7.00e-07	0	57	0	1039138816	56	4957
2026-01-05 04:28:53.75	297.12	11.68	-47.6	-50.0	14.3	0.00e+00	0	57	0	1040187392	57	4892
2026-01-05 04:28:54.74	297.00	11.61	-47.8	-50.3	14.0	1.50e-06	0	57	0	1042284544	57	5066
2026-01-05 04:28:55.74	296.88	11.54	-48.1	-50.8	13.5	3.00e-06	0	57	0	1044381696	57	5373
2026-01-05 04:28:56.73	296.76	11.47	-48.2	-51.0	13.3	4.50e-06	0	57	0	1046478848	58	5197
2026-01-05 04:28:57.71	296.65	11.40	-48.2	-51.0	13.2	1.14e-05	0	57	0	1047527424	58	5212
2026-01-05 04:28:58.70	296.53	11.33	-48.2	-51.1	13.2	2.89e-05	0	57	0	1049624576	58	5230
2026-01-05 04:28:59.70	296.41	11.25	-48.5	-51.6	12.7	4.34e-05	0	57	0	1051721728	58	5530
2026-01-05 04:29:00.68	296.30	11.19	-48.6	-51.7	12.6	8.39e-05	0	57	0	1053818880	59	5289
2026-01-05 04:29:01.67	296.18	11.11	-48.6	-51.7	12.7	7.09e-05	0	57	0	1055916032	59	5287
2026-01-05 04:29:02.66	296.07	11.04	-48.6	-51.8	12.5	1.06e-04	0	57	0	1056964608	59	5365
2026-01-05 04:29:03.66	295.95	10.97	-48.6	-51.6	12.6	1.20e-04	0	57	0	1059061760	59	5271
2026-01-05 04:29:04.64	295.84	10.90	-48.6	-51.8	12.5	1.01e-04	0	57	0	1061158912	59	5362
2026-01-05 04:29:05.63	295.72	10.83	-48.7	-51.9	12.3	1.58e-04	0	57	0	1063256064	59	5438
2026-01-05 04:29:06.62	295.61	10.76	-48.7	-52.1	12.1	2.00e-04	0	57	0	1064304640	59	5551
2026-01-05 04:29:07.61	295.50	10.70	-48.8	-52.1	12.0	3.43e-04	0	57	0	1066401792	59	5582
2026-01-05 04:29:08.60	295.39	10.63	-48.9	-52.4	11.8	3.45e-04	0	57	0	1068498944	59	5764
2026-01-05 04:29:09.59	295.28	10.56	-49.0	-52.8	11.3	1.06e-03	0	57	0	1070596096	60	5695
2026-01-05 04:29:10.58	295.17	10.49	-48.9	-52.6	11.5	6.10e-04	0	57	0	1071644672	60	5533
2026-01-05 04:29:11.57	295.06	10.42	-49.0	-52.8	11.3	7.45e-04	0	57	0	1073741824	60	5672
2026-01-05 04:29:12.57	294.95	10.35	-48.8	-52.5	11.5	8.54e-04	0	57	0	1075838976	60	5515
2026-01-05 04:29:13.55	294.84	10.28	-48.9	-52.5	11.6	6.61e-04	0	57	0	1077936128	60	5491
2026-01-05 04:29:14.54	294.73	10.21	-48.9	-52.6	11.5	8.09e-04	0	57	0	1080033280	60	5571
2026-01-05 04:29:15.53	294.62	10.14	-48.9	-52.5	11.5	7.14e-04	0	57	0	1081081856	60	5512
2026-01-05 04:29:16.52	294.52	10.07	-48.8	-52.4	11.6	8.41e-04	0	57	0	1083179008	60	5426
2026-01-05 04:29:17.51	294.41	10.00	-48.5	-51.8	12.3	2.89e-04	0	57	0	1085276160	60	5060
2026-01-05 04:29:18.50	294.30	9.93	-48.3	-51.5	12.6	1.27e-04	0	57	0	1087373312	59	5172
2026-01-05 04:29:19.48	294.20	9.87	-48.3	-51.4	12.7	7.40e-05	0	57	0	1088421888	59	5126
2026-01-05 04:29:20.48	294.09	9.80	-48.4	-51.4	12.6	6.33e-05	0	57	0	1090519040	59	5140
2026-01-05 04:29:21.47	293.99	9.73	-48.3	-51.4	12.6	9.00e-05	0	57	0	1092616192	59	5128
2026-01-05 04:29:22.45	293.88	9.66	-48.4	-51.5	12.6	1.17e-04	0	57	0	1094713344	59	5193
2026-01-05 04:29:23.43	293.78	9.59	-48.5	-51.7	12.3	1.04e-04	0	57	0	1095761920	59	5317
2026-01-05 04:29:24.42	293.68	9.52	-48.6	-52.0	12.0	2.97e-04	0	57	0	1097859072	59	5484
2026-01-05 04:29:25.41	293.58	9.46	-48.7	-52.2	11.7	4.16e-04	0	57	0	1099956224	59	5654
2026-01-05 04:29:26.40	293.47	9.39	-48.8	-52.4	11.5	7.04e-04	0	57	0	1102053376	59	5754
2026-01-05 04:29:27.39	293.37	9.32	-48.9	-52.8	11.2	1.07e-03	0	57	0	1104150528	59	5993
2026-01-05 04:29:28.38	293.27	9.25	-49.0	-52.9	10.8	2.39e-03	0	57	0	1105199104	59	6123
2026-01-05 04:29:29.37	293.17	9.19	-49.0	-52.9	10.9	2.11e-03	0	57	0	1107296256	59	6092
2026-01-05 04:29:30.35	293.07	9.12	-49.0	-53.0	10.7	2.43e-03	0	57	0	1109393408	59	6186
2026-01-05 04:29:31.34	292.97	9.05	-48.9	-52.9	10.8	3.15e-03	0	57	0	1111490560	60	5788
2026-01-05 04:29:32.33	292.87	8.98	-49.0	-53.1	10.7	3.14e-03	0	57	0	1112539136	60	5856
2026-01-05 04:29:33.33	292.77	8.92	-49.0	-53.1	10.5	3.21e-03	0	57	0	1114636288	60	5922
2026-01-05 04:29:34.32	292.67	8.85	-49.0	-53.2	10.5	3.13e-03	0	57	0	1116733440	60	5925
2026-01-05 04:29:35.30	292.58	8.78	-49.0	-53.2	10.5	3.76e-03	0	57	0	1118830592	60	5932
2026-01-05 04:29:36.30	292.48	8.71	-49.0	-53.2	10.4	4.72e-03	0	57	0	1119879168	60	5943
2026-01-05 04:29:37.28	292.38	8.65	-48.9	-53.1	10.6	4.31e-03	0	57	0	1121976320	60	5895
2026-01-05 04:29:38.27	292.29	8.58	-48.9	-53.1	10.6	3.75e-03	0	57	0	1124073472	60	5875
2026-01-05 04:29:39.27	292.19	8.51	-49.0	-53.2	10.4	4.78e-03	0	57	0	1126170624	60	5989
2026-01-05 04:29:40.25	292.09	8.45	-49.0	-53.3	10.3	4.71e-03	0	57	0	1127219200	60	6048
2026-01-05 04:29:41.24	292.00	8.38	-49.1	-53.6	10.0	7.01e-03	0	57	0	1129316352	60	6209
2026-01-05 04:29:42.23	291.90	8.32	-49.1	-53.5	10.1	7.60e-03	0	57	0	1131413504	60	6180
2026-01-05 04:29:43.22	291.81	8.25	-49.2	-54.1	9.4	1.40e-02	0	57	0	1133510656	60	6604
2026-01-05 04:29:44.20	291.72	8.18	-49.2	-54.1	9.4	1.14e-02	0	57	0	1135607808	60	6613
2026-01-05 04:29:45.20	291.62	8.12	-49.2	-54.3	9.1	1.84e-02	0	57	0	1136656384	60	6788
2026-01-05 04:29:46.19	291.53	8.05	-49.2	-54.4	9.1	2.40e-02	0	57	0	1138753536	60	6805
2026-01-05 04:29:47.18	291.44	7.98	-49.4	-54.8	8.6	3.41e-02	0	57	0	1140850688	60	7165
2026-01-05 04:29:48.18	291.34	7.92	-49.5	-55.0	8.4	4.31e-02	0	57	0	1142947840	60	7337
2026-01-05 04:29:49.17	291.25	7.85	-49.5	-55.2	8.2	5.45e-02	0	57	0	1143996416	60	7488
2026-01-05 04:29:50.15	291.16	7.79	-49.6	-55.4	7.9	7.11e-02	0	57	0	1146093568	61	7249
2026-01-05 04:29:51.14	291.07	7.72	-49.6	-55.6	7.7	8.61e-02	0	57	0	1148190720	61	7406
2026-01-05 04:29:52.13	290.98	7.66	-49.7	-55.8	7.4	9.36e-02	0	57	0	1150287872	61	7610
2026-01-05 04:29:53.11	290.89	7.59	-49.6	-55.8	7.4	1.05e-01	0	57	0	1152385024	61	7550
2026-01-05 04:29:54.11	290.80	7.53	-49.8	-56.4	6.8	1.60e-01	0	57	0	1153433600	61	8129
2026-01-05 04:29:55.09	290.71	7.46	-49.7	-56.2	7.0	1.61e-01	0	58	0	1155530752	61	7935
2026-01-05 04:29:56.08	290.63	7.40	-49.8	-56.7	6.6	1.85e-01	0	57	0	1157627904	61	8412
2026-01-05 04:29:57.06	290.54	7.33	-49.6	-56.3	6.9	2.04e-01	0	57	0	1159725056	61	7994
2026-01-05 04:29:58.05	290.45	7.27	-49.7	-57.0	6.3	2.39e-01	0	57	0	1160773632	61	8666
2026-01-05 04:29:59.03	290.36	7.20	-49.6	-56.7	6.5	2.49e-01	0	57	0	1162870784	61	8380
2026-01-05 04:30:00.02	290.28	7.14	-49.7	-56.7	6.4	2.33e-01	0	57	0	1164967936	61	8375
2026-01-05 04:30:01.01	290.19	7.07	-49.6	-56.8	6.3	2.35e-01	0	57	0	1167065088	61	8485
2026-01-05 04:30:01.99	290.10	7.01	-49.7	-56.9	6.2	2.74e-01	0	57	0	1168113664	61	8633
2026-01-05 04:30:02.99	290.02	6.95	-49.6	-56.9	6.1	2.88e-01	0	57	0	1170210816	61	8644
2026-01-05 04:30:03.98	289.93	6.88	-49.6	-57.0	6.1	3.14e-01	0	57	0	1172307968	61	8742
2026-01-05 04:30:04.96	289.85	6.82	-49.6	-57.2	5.9	3.35e-01	0	57	0	1174405120	61	8943
2026-01-05 04:30:05.95	289.76	6.75	-49.8	-57.8	5.6	4.48e-01	0	57	0	1176502272	61	9516
2026-01-05 04:30:06.94	289.68	6.69	-49.7	-57.6	5.7	4.58e-01	0	57	0	1177550848	61	9305
2026-01-05 04:30:07.92	289.60	6.63	-49.6	-57.0	6.0	3.99e-01	0	57	0	1179648000	61	8754
2026-01-05 04:30:08.92	289.51	6.56	-49.5	-56.9	6.1	3.30e-01	0	57	0	1181745152	61	8619
2026-01-05 04:30:09.91	289.43	6.50	-49.4	-56.6	6.2	2.96e-01	0	57	0	1183842304	61	8301
2026-01-05 04:30:10.89	289.35	6.44	-49.4	-56.7	6.1	2.84e-01	0	57	0	1184890880	61	8411
2026-01-05 04:30:11.88	289.26	6.37	-49.4	-56.9	6.0	3.12e-01	0	57	0	1186988032	61	8562
2026-01-05 04:30:12.88	289.18	6.31	-49.3	-56.9	5.9	3.76e-01	0	57	0	1189085184	61	8606
2026-01-05 04:30:13.87	289.10	6.25	-49.4	-57.4	5.6	4.41e-01	0	57	0	1191182336	61	9113
2026-01-05 04:30:14.86	289.02	6.18	-49.3	-57.4	5.5	4.64e-01	0	57	0	1192230912	61	9104
2026-01-05 04:30:15.85	288.94	6.12	-49.5	-57.9	5.2	5.24e-01	0	57	0	1194328064	61	9702
2026-01-05 04:30:16.83	288.86	6.06	-49.4	-58.0	5.1	6.28e-01	0	57	0	1196425216	61	9818
2026-01-05 04:30:17.82	288.78	5.99	-49.3	-58.2	5.0	6.64e-01	0	57	0	1198522368	61	9968
