passes_logs/2026/01/25/R2M6_AANII_01/R2M6_AANII_01__20260125_132840_AQUA_rec.log

#Pass ID: 20260125_132840_AQUA
#Satellite: AQUA
#Configuration: AQUA
#almurnet v.1.7.20240730
#Start time: 2026-01-25 13:28:39

#Version: 2.2.20231116
#Station: R2M6_AANII_01
#Location: 30.233357 lon 59.946436 lat
#TLE: 1 27424U 02022A   26025.22169280  .00001965  00000+0  40301-3 0  9991
#TLE: 2 27424  98.4099 351.8218 0001902  66.1120 348.8694 14.61858181262382

#Time	Az	El	Level	Level2	SNR	BER	BlckErr	Temp	State	Recorded	gain1	gain2
2026-01-25 13:28:39.66	209.44	6.97	-30.5	-35.3	5.2	7.08e-01	0	41	0	0	22	6318
2026-01-25 13:28:40.65	209.54	7.04	-31.6	-38.9	5.0	7.08e-01	0	41	104	0	24	8297
2026-01-25 13:28:41.66	209.65	7.11	-31.9	-39.4	11.9	6.12e-01	0	41	0	0	24	8578
2026-01-25 13:28:42.66	209.75	7.17	-31.8	-38.8	12.4	6.13e-01	0	41	102	524288	24	8096
2026-01-25 13:28:43.67	209.85	7.24	-31.9	-39.4	12.0	6.12e-01	0	41	102	524288	24	8480
2026-01-25 13:28:44.67	209.96	7.31	-31.8	-38.8	12.4	6.12e-01	0	41	102	524288	24	8048
2026-01-25 13:28:45.67	210.06	7.38	-31.6	-37.7	13.4	6.09e-01	0	41	102	524288	24	7289
2026-01-25 13:28:46.67	210.17	7.45	-31.4	-36.9	14.0	6.07e-01	0	41	102	524288	24	6811
2026-01-25 13:28:47.68	210.28	7.52	-31.1	-35.8	14.9	6.07e-01	0	41	102	524288	24	6193
2026-01-25 13:28:48.68	210.38	7.59	-30.9	-35.1	15.5	6.06e-01	0	41	102	524288	24	5807
2026-01-25 13:28:49.68	210.49	7.66	-30.7	-34.7	16.1	6.06e-01	0	41	102	524288	23	5700
2026-01-25 13:28:50.68	210.60	7.73	-30.4	-33.9	16.6	6.04e-01	0	41	102	524288	23	5385
2026-01-25 13:28:51.69	210.71	7.80	-30.2	-33.8	17.1	6.05e-01	0	41	102	524288	22	5416
2026-01-25 13:28:52.69	210.82	7.87	-30.1	-33.3	17.4	6.07e-01	0	42	102	524288	22	5220
2026-01-25 13:28:53.69	210.93	7.94	-30.2	-33.6	17.3	6.05e-01	0	42	102	524288	22	5341
2026-01-25 13:28:54.70	211.04	8.01	-30.2	-33.5	17.3	6.09e-01	0	41	102	524288	22	5307
2026-01-25 13:28:55.71	211.15	8.08	-30.1	-33.3	17.5	6.06e-01	0	42	102	524288	22	5217
2026-01-25 13:28:56.72	211.26	8.15	-29.9	-32.7	17.8	6.05e-01	0	42	102	524288	22	4996
2026-01-25 13:28:57.72	211.37	8.22	-29.9	-33.2	17.9	6.07e-01	0	41	102	524288	21	5258
2026-01-25 13:28:58.72	211.48	8.30	-29.9	-33.1	18.0	6.06e-01	0	42	102	524288	21	5235
2026-01-25 13:28:59.73	211.60	8.37	-29.9	-33.2	17.9	6.03e-01	0	41	102	524288	21	5294
2026-01-25 13:29:00.73	211.71	8.44	-29.9	-33.1	17.9	6.05e-01	0	42	102	524288	21	5249
2026-01-25 13:29:01.73	211.82	8.51	-29.8	-33.0	18.0	6.04e-01	0	42	102	524288	21	5182
2026-01-25 13:29:02.74	211.94	8.58	-29.9	-33.2	17.9	6.05e-01	0	42	102	524288	21	5284
2026-01-25 13:29:03.74	212.06	8.65	-29.9	-33.2	17.9	6.06e-01	0	42	102	524288	21	5261
2026-01-25 13:29:04.74	212.17	8.72	-29.9	-33.3	17.8	6.05e-01	0	42	102	524288	21	5301
2026-01-25 13:29:05.74	212.29	8.80	-30.1	-33.8	17.6	6.06e-01	0	42	102	524288	21	5515
2026-01-25 13:29:06.75	212.41	8.87	-30.0	-33.6	17.6	6.06e-01	0	42	102	524288	21	5441
2026-01-25 13:29:07.76	212.52	8.94	-29.9	-33.2	17.9	6.03e-01	0	42	102	524288	21	5278
2026-01-25 13:29:08.76	212.64	9.01	-29.8	-32.9	18.1	6.06e-01	0	42	102	524288	21	5154
2026-01-25 13:29:09.77	212.76	9.09	-29.8	-32.9	18.1	6.06e-01	0	42	102	524288	21	5146
2026-01-25 13:29:10.77	212.88	9.16	-29.7	-32.7	18.3	6.06e-01	0	42	102	524288	21	5070
2026-01-25 13:29:11.77	213.00	9.23	-29.8	-32.8	18.3	6.04e-01	0	42	102	524288	21	5101
2026-01-25 13:29:12.77	213.12	9.30	-29.7	-32.5	18.4	6.06e-01	0	42	102	524288	21	5002
2026-01-25 13:29:13.77	213.24	9.38	-29.7	-32.7	18.4	6.06e-01	0	42	102	524288	21	5052
2026-01-25 13:29:14.78	213.37	9.45	-29.7	-32.6	18.4	6.06e-01	0	42	102	524288	21	5008
2026-01-25 13:29:15.78	213.49	9.52	-29.7	-32.6	18.4	6.05e-01	0	42	102	524288	21	5028
2026-01-25 13:29:16.78	213.61	9.60	-29.8	-32.8	18.3	6.06e-01	0	42	102	524288	21	5116
2026-01-25 13:29:17.78	213.73	9.67	-29.8	-33.0	18.2	6.04e-01	0	42	102	524288	21	5163
2026-01-25 13:29:18.79	213.86	9.75	-29.8	-32.8	18.3	6.06e-01	0	42	102	524288	21	5088
2026-01-25 13:29:19.79	213.99	9.82	-29.7	-32.6	18.4	6.08e-01	0	42	102	524288	21	5029
2026-01-25 13:29:20.79	214.11	9.89	-29.7	-32.5	18.5	6.06e-01	0	42	102	524288	21	5004
2026-01-25 13:29:21.80	214.24	9.97	-29.8	-32.8	18.3	6.04e-01	0	42	102	524288	21	5100
2026-01-25 13:29:22.80	214.37	10.04	-29.7	-32.6	18.4	6.06e-01	0	42	102	524288	21	5033
2026-01-25 13:29:23.80	214.49	10.12	-29.6	-32.3	18.6	6.05e-01	0	42	102	524288	21	4922
2026-01-25 13:29:24.81	214.62	10.19	-29.6	-32.4	18.6	6.06e-01	0	42	102	524288	21	4926
2026-01-25 13:29:25.81	214.75	10.27	-29.7	-32.6	18.5	6.06e-01	0	42	102	524288	21	5013
2026-01-25 13:29:26.82	214.88	10.34	-29.8	-32.8	18.3	6.06e-01	0	42	102	524288	21	5083
2026-01-25 13:29:27.82	215.01	10.42	-29.7	-32.6	18.5	6.07e-01	0	42	102	524288	21	5003
2026-01-25 13:29:28.82	215.15	10.49	-29.6	-32.1	18.8	6.06e-01	0	42	102	524288	21	4850
2026-01-25 13:29:29.83	215.28	10.57	-29.6	-32.3	18.7	6.04e-01	0	42	102	524288	21	4899
2026-01-25 13:29:30.84	215.41	10.64	-29.5	-32.0	18.9	6.04e-01	0	42	102	524288	21	4807
2026-01-25 13:29:31.84	215.55	10.72	-29.6	-32.2	18.7	6.06e-01	0	42	102	524288	21	4893
2026-01-25 13:29:32.84	215.68	10.79	-29.6	-32.3	18.6	6.06e-01	0	42	102	524288	21	4923
2026-01-25 13:29:33.85	215.82	10.87	-29.7	-32.5	18.6	6.04e-01	0	42	102	524288	21	4989
2026-01-25 13:29:34.85	215.95	10.94	-29.6	-32.2	18.7	6.05e-01	0	42	102	524288	21	4880
2026-01-25 13:29:35.85	216.09	11.02	-29.5	-32.0	18.9	6.02e-01	0	42	102	524288	21	4793
2026-01-25 13:29:36.86	216.23	11.10	-29.5	-31.9	18.9	6.05e-01	0	43	102	524288	21	4775
2026-01-25 13:29:37.86	216.36	11.17	-29.6	-32.4	18.7	6.04e-01	0	42	102	524288	21	4924
2026-01-25 13:29:38.87	216.50	11.25	-29.5	-32.0	18.9	6.05e-01	0	43	102	524288	21	4782
2026-01-25 13:29:39.88	216.64	11.33	-29.4	-32.2	19.1	6.03e-01	0	42	102	524288	20	4955
2026-01-25 13:29:40.88	216.78	11.40	-29.5	-32.4	19.0	6.06e-01	0	42	102	524288	20	5039
2026-01-25 13:29:41.88	216.92	11.48	-29.5	-32.4	19.0	6.06e-01	0	42	102	524288	20	5051
2026-01-25 13:29:42.89	217.07	11.56	-29.6	-32.8	18.7	6.06e-01	0	42	102	524288	20	5213
2026-01-25 13:29:43.90	217.21	11.63	-29.5	-32.4	19.0	6.07e-01	0	43	102	524288	20	5035
2026-01-25 13:29:44.90	217.35	11.71	-29.4	-32.3	19.1	6.04e-01	0	43	102	524288	20	5007
2026-01-25 13:29:45.91	217.50	11.79	-29.4	-32.3	19.1	6.05e-01	0	42	102	524288	20	5005
2026-01-25 13:29:46.91	217.64	11.87	-29.5	-32.3	19.1	6.06e-01	0	43	102	524288	20	5015
2026-01-25 13:29:47.92	217.79	11.94	-29.4	-32.3	19.1	6.03e-01	0	43	102	524288	20	4993
2026-01-25 13:29:48.92	217.94	12.02	-29.6	-32.6	18.9	6.06e-01	0	43	102	524288	20	5113
2026-01-25 13:29:49.93	218.09	12.10	-29.5	-32.3	19.1	6.05e-01	0	43	102	524288	20	5012
2026-01-25 13:29:50.93	218.23	12.18	-29.5	-32.3	19.1	6.07e-01	0	43	102	524288	20	5017
2026-01-25 13:29:51.93	218.38	12.25	-29.5	-32.3	19.1	6.07e-01	0	43	102	524288	20	5017
2026-01-25 13:29:52.94	218.53	12.33	-29.4	-32.2	19.1	6.05e-01	0	43	102	524288	20	4979
2026-01-25 13:29:53.95	218.69	12.41	-29.5	-32.4	19.1	6.04e-01	0	43	102	524288	20	5038
2026-01-25 13:29:54.95	218.84	12.49	-29.4	-32.2	19.2	6.06e-01	0	43	102	524288	20	4972
2026-01-25 13:29:55.96	218.99	12.57	-29.4	-32.1	19.2	6.05e-01	0	43	102	524288	20	4938
2026-01-25 13:29:56.97	219.14	12.65	-29.5	-32.3	19.1	6.07e-01	0	43	102	524288	20	5006
2026-01-25 13:29:57.97	219.30	12.72	-29.4	-32.0	19.3	6.06e-01	0	43	102	524288	20	4900
2026-01-25 13:29:58.97	219.45	12.80	-29.4	-32.1	19.3	6.05e-01	0	43	102	524288	20	4919
2026-01-25 13:29:59.98	219.61	12.88	-29.4	-32.2	19.2	6.05e-01	0	43	102	524288	20	4964
2026-01-25 13:30:00.99	219.77	12.96	-29.5	-32.4	19.1	6.06e-01	0	43	102	524288	20	5014
2026-01-25 13:30:01.98	219.92	13.04	-29.4	-32.2	19.2	6.07e-01	0	43	102	524288	20	4952
2026-01-25 13:30:02.98	220.08	13.12	-29.4	-32.2	19.2	6.05e-01	0	43	102	524288	20	4963
2026-01-25 13:30:03.99	220.24	13.20	-29.5	-32.4	19.1	6.05e-01	0	43	102	524288	20	5028
2026-01-25 13:30:04.99	220.40	13.28	-29.4	-32.1	19.3	6.06e-01	0	43	102	524288	20	4933
2026-01-25 13:30:06.00	220.56	13.36	-29.4	-32.1	19.3	6.05e-01	0	43	102	524288	20	4917
2026-01-25 13:30:07.00	220.73	13.44	-29.3	-32.0	19.4	6.06e-01	0	43	102	524288	20	4870
2026-01-25 13:30:08.01	220.89	13.52	-29.5	-32.3	19.2	6.05e-01	0	43	102	524288	20	5011
2026-01-25 13:30:09.01	221.05	13.60	-29.4	-32.3	19.2	6.07e-01	0	43	102	524288	20	4976
2026-01-25 13:30:10.01	221.22	13.67	-29.3	-31.8	19.5	6.07e-01	0	43	102	524288	20	4831
2026-01-25 13:30:11.02	221.39	13.76	-29.3	-31.9	19.5	6.04e-01	0	43	102	524288	20	4829
2026-01-25 13:30:12.02	221.55	13.83	-29.4	-32.1	19.3	6.07e-01	0	43	102	524288	20	4919
2026-01-25 13:30:13.02	221.72	13.91	-29.3	-31.8	19.5	6.05e-01	0	43	102	524288	20	4806
2026-01-25 13:30:14.03	221.89	13.99	-29.2	-31.7	19.5	6.05e-01	0	43	102	524288	20	4791
2026-01-25 13:30:15.03	222.06	14.07	-29.2	-31.7	19.5	6.06e-01	0	43	102	524288	20	4794
2026-01-25 13:30:16.04	222.23	14.16	-29.4	-32.2	19.3	6.04e-01	0	43	102	524288	20	4945
2026-01-25 13:30:17.04	222.40	14.24	-29.5	-32.4	19.1	6.05e-01	0	43	102	524288	20	5032
2026-01-25 13:30:18.05	222.57	14.32	-29.4	-32.1	19.3	6.06e-01	0	43	102	524288	20	4923
2026-01-25 13:30:19.05	222.75	14.40	-29.4	-32.1	19.3	6.06e-01	0	43	102	524288	20	4927
2026-01-25 13:30:20.06	222.92	14.48	-29.5	-32.3	19.2	6.05e-01	0	43	102	524288	20	4987
2026-01-25 13:30:21.06	223.10	14.56	-29.6	-32.6	19.0	6.06e-01	0	43	102	524288	20	5083
2026-01-25 13:30:22.06	223.27	14.64	-29.5	-32.4	19.2	6.04e-01	0	43	102	524288	20	5004
2026-01-25 13:30:23.07	223.45	14.72	-29.7	-33.0	18.8	6.05e-01	0	43	102	524288	20	5246
2026-01-25 13:30:24.07	223.63	14.80	-29.4	-32.2	19.3	6.07e-01	0	43	102	524288	20	4928
2026-01-25 13:30:25.08	223.81	14.88	-29.3	-31.8	19.6	6.06e-01	0	43	102	524288	20	4796
2026-01-25 13:30:26.08	223.99	14.96	-29.1	-31.4	19.8	6.06e-01	0	43	102	524288	20	4672
2026-01-25 13:30:27.08	224.17	15.04	-29.1	-31.3	19.8	6.05e-01	0	43	102	524288	20	4653
2026-01-25 13:30:28.08	224.35	15.12	-29.2	-31.5	19.7	6.05e-01	0	43	102	524288	20	4713
2026-01-25 13:30:29.09	224.54	15.20	-29.1	-31.3	19.9	6.04e-01	0	43	102	524288	20	4638
2026-01-25 13:30:30.08	224.72	15.28	-29.0	-31.2	20.0	6.05e-01	0	43	102	524288	20	4596
2026-01-25 13:30:31.09	224.91	15.36	-29.1	-31.2	19.9	6.05e-01	0	43	102	524288	20	4610
2026-01-25 13:30:32.09	225.09	15.44	-29.0	-31.1	20.0	6.05e-01	0	43	102	524288	20	4572
2026-01-25 13:30:33.09	225.28	15.53	-29.0	-31.2	20.0	6.05e-01	0	43	102	524288	20	4591
2026-01-25 13:30:34.09	225.47	15.61	-29.1	-31.4	19.8	6.07e-01	0	43	102	524288	20	4672
2026-01-25 13:30:35.10	225.66	15.69	-29.0	-31.1	20.0	6.06e-01	0	43	102	524288	20	4581
2026-01-25 13:30:36.11	225.85	15.77	-29.2	-31.5	19.8	6.07e-01	0	43	102	524288	20	4684
2026-01-25 13:30:37.11	226.04	15.85	-29.2	-31.6	19.7	6.06e-01	0	43	102	524288	20	4739
2026-01-25 13:30:38.12	226.24	15.93	-29.2	-31.5	19.8	6.05e-01	0	43	102	524288	20	4698
2026-01-25 13:30:39.12	226.43	16.01	-29.3	-31.8	19.7	6.06e-01	0	43	102	524288	20	4800
2026-01-25 13:30:40.13	226.63	16.09	-29.4	-32.0	19.5	6.04e-01	0	43	102	524288	20	4858
2026-01-25 13:30:41.14	226.82	16.17	-29.2	-31.5	19.8	6.05e-01	0	43	102	524288	20	4710
2026-01-25 13:30:42.13	227.02	16.25	-29.1	-31.4	19.9	6.05e-01	0	43	102	524288	20	4650
2026-01-25 13:30:43.14	227.22	16.34	-29.2	-31.4	19.8	6.06e-01	0	43	102	524288	20	4682
2026-01-25 13:30:44.14	227.42	16.42	-29.1	-31.3	19.9	6.06e-01	0	43	102	524288	20	4630
2026-01-25 13:30:45.14	227.62	16.50	-29.2	-31.6	19.7	6.03e-01	0	43	102	524288	20	4719
2026-01-25 13:30:46.14	227.82	16.58	-29.1	-31.3	19.9	6.05e-01	0	43	102	524288	20	4624
2026-01-25 13:30:47.15	228.02	16.66	-29.1	-31.3	19.9	6.04e-01	0	43	102	524288	20	4628
2026-01-25 13:30:48.15	228.23	16.74	-29.1	-31.3	20.0	6.06e-01	0	43	102	524288	20	4614
2026-01-25 13:30:49.15	228.43	16.82	-29.1	-31.2	20.0	6.05e-01	0	43	102	524288	20	4587
2026-01-25 13:30:50.16	228.64	16.90	-29.2	-31.4	19.9	6.08e-01	0	43	102	524288	20	4669
2026-01-25 13:30:51.17	228.85	16.98	-29.2	-31.6	19.8	6.09e-01	0	43	102	524288	20	4727
2026-01-25 13:30:52.16	229.05	17.06	-29.2	-31.6	19.8	6.07e-01	0	43	102	524288	20	4721
2026-01-25 13:30:53.17	229.26	17.14	-29.3	-31.7	19.7	6.04e-01	0	43	102	524288	20	4755
2026-01-25 13:30:54.17	229.47	17.22	-29.3	-31.8	19.6	6.06e-01	0	43	102	524288	20	4812
2026-01-25 13:30:55.18	229.69	17.31	-29.1	-31.4	19.9	6.06e-01	0	43	102	524288	20	4664
2026-01-25 13:30:56.18	229.90	17.39	-29.1	-31.2	20.0	6.08e-01	0	43	102	524288	20	4605
2026-01-25 13:30:57.17	230.11	17.46	-29.0	-31.1	20.1	6.06e-01	0	43	102	524288	20	4573
2026-01-25 13:30:58.17	230.33	17.54	-29.1	-31.3	20.0	6.05e-01	0	43	102	524288	20	4621
2026-01-25 13:30:59.18	230.55	17.63	-29.2	-31.6	19.8	6.04e-01	0	43	102	524288	20	4719
2026-01-25 13:31:00.19	230.77	17.71	-29.1	-31.2	20.1	6.05e-01	0	43	102	524288	20	4586
2026-01-25 13:31:01.19	230.98	17.79	-29.1	-31.2	20.1	6.07e-01	0	43	102	524288	20	4593
2026-01-25 13:31:02.18	231.20	17.86	-29.1	-31.2	20.0	6.05e-01	0	43	102	524288	20	4606
2026-01-25 13:31:03.19	231.42	17.95	-29.1	-31.3	20.0	6.07e-01	0	43	102	524288	20	4635
2026-01-25 13:31:04.18	231.64	18.02	-29.1	-31.1	20.2	6.03e-01	0	43	102	524288	20	4564
2026-01-25 13:31:05.18	231.87	18.10	-29.0	-31.0	20.2	6.05e-01	0	43	102	524288	20	4526
2026-01-25 13:31:06.19	232.09	18.18	-29.0	-31.1	20.2	6.08e-01	0	43	102	524288	20	4548
2026-01-25 13:31:07.20	232.32	18.26	-29.1	-31.3	20.1	6.06e-01	0	43	102	524288	20	4607
2026-01-25 13:31:08.21	232.55	18.34	-29.1	-31.3	20.1	6.07e-01	0	43	102	524288	20	4612
2026-01-25 13:31:09.21	232.78	18.42	-29.1	-31.2	20.2	6.07e-01	0	43	102	524288	20	4574
2026-01-25 13:31:10.22	233.01	18.50	-29.2	-31.5	20.0	6.03e-01	0	43	102	524288	20	4673
2026-01-25 13:31:11.22	233.24	18.58	-29.3	-31.8	19.8	6.07e-01	0	43	102	524288	20	4773
2026-01-25 13:31:12.22	233.47	18.66	-29.2	-31.5	20.0	6.05e-01	0	43	102	524288	20	4681
2026-01-25 13:31:13.23	233.71	18.74	-29.1	-31.3	20.1	6.06e-01	0	43	102	524288	20	4616
2026-01-25 13:31:14.23	233.94	18.81	-29.1	-31.2	20.2	6.08e-01	0	43	102	524288	20	4571
2026-01-25 13:31:15.24	234.18	18.89	-29.1	-31.2	20.2	6.06e-01	0	43	102	524288	20	4590
2026-01-25 13:31:16.24	234.42	18.97	-29.1	-31.2	20.2	6.05e-01	0	43	102	524288	20	4570
2026-01-25 13:31:17.25	234.66	19.05	-29.2	-31.3	20.1	6.06e-01	0	43	102	524288	20	4620
2026-01-25 13:31:18.25	234.90	19.13	-29.2	-31.4	20.1	6.04e-01	0	43	102	524288	20	4655
2026-01-25 13:31:19.25	235.14	19.20	-29.3	-31.7	19.9	6.07e-01	0	43	102	524288	20	4736
2026-01-25 13:31:20.26	235.38	19.28	-29.2	-31.5	20.1	6.07e-01	0	43	102	524288	20	4662
2026-01-25 13:31:21.26	235.63	19.36	-29.2	-31.4	20.2	6.03e-01	0	43	102	524288	20	4628
2026-01-25 13:31:22.26	235.87	19.43	-29.1	-31.3	20.2	6.06e-01	0	43	102	524288	20	4597
2026-01-25 13:31:23.26	236.12	19.51	-29.1	-31.2	20.2	6.05e-01	0	43	102	524288	20	4576
2026-01-25 13:31:24.27	236.37	19.58	-29.1	-31.2	20.2	6.04e-01	0	43	102	524288	20	4587
2026-01-25 13:31:25.27	236.62	19.66	-29.1	-31.2	20.2	6.05e-01	0	43	102	524288	20	4570
2026-01-25 13:31:26.27	236.86	19.74	-29.2	-31.4	20.1	6.06e-01	0	43	102	524288	20	4654
2026-01-25 13:31:27.28	237.12	19.81	-29.2	-31.4	20.1	6.06e-01	0	43	102	524288	20	4630
2026-01-25 13:31:28.29	237.37	19.89	-29.2	-31.5	20.0	6.05e-01	0	43	102	524288	20	4675
2026-01-25 13:31:29.30	237.63	19.96	-29.1	-31.2	20.2	6.08e-01	0	43	102	524288	20	4581
2026-01-25 13:31:30.30	237.88	20.04	-29.1	-31.2	20.2	6.06e-01	0	43	102	524288	20	4583
2026-01-25 13:31:31.31	238.14	20.11	-29.2	-31.4	20.1	6.07e-01	0	43	102	524288	20	4644
2026-01-25 13:31:32.32	238.40	20.18	-29.2	-31.5	20.1	6.06e-01	0	43	102	524288	20	4661
2026-01-25 13:31:33.31	238.66	20.26	-29.2	-31.4	20.1	6.06e-01	0	43	102	524288	20	4645
2026-01-25 13:31:34.32	238.92	20.33	-29.1	-31.2	20.2	6.06e-01	0	43	102	524288	20	4566
2026-01-25 13:31:35.32	239.18	20.40	-29.2	-31.4	20.1	6.08e-01	0	43	102	524288	20	4648
2026-01-25 13:31:36.32	239.44	20.48	-29.3	-31.6	20.0	6.07e-01	0	43	102	524288	20	4711
2026-01-25 13:31:37.33	239.71	20.55	-29.2	-31.5	20.1	6.04e-01	0	43	102	524288	20	4649
2026-01-25 13:31:38.34	239.98	20.62	-29.2	-31.4	20.1	6.03e-01	0	44	102	524288	20	4642
2026-01-25 13:31:39.34	240.24	20.69	-29.3	-31.7	20.0	6.08e-01	0	43	102	524288	20	4714
2026-01-25 13:31:40.35	240.51	20.76	-29.3	-31.7	20.0	6.08e-01	0	43	102	524288	20	4721
2026-01-25 13:31:41.36	240.78	20.83	-29.2	-31.4	20.2	6.06e-01	0	43	102	524288	20	4638
2026-01-25 13:31:42.37	241.05	20.90	-29.3	-31.6	20.0	6.06e-01	0	43	102	524288	20	4698
2026-01-25 13:31:43.37	241.33	20.97	-29.4	-32.0	19.8	6.06e-01	0	43	102	524288	20	4832
2026-01-25 13:31:44.38	241.60	21.04	-29.4	-31.8	19.9	6.06e-01	0	43	102	524288	20	4764
2026-01-25 13:31:45.39	241.88	21.11	-29.5	-32.0	19.8	6.05e-01	0	43	102	524288	20	4844
2026-01-25 13:31:46.39	242.15	21.18	-29.5	-32.2	19.7	6.05e-01	0	43	102	524288	20	4890
2026-01-25 13:31:47.39	242.43	21.25	-29.5	-32.1	19.8	6.08e-01	0	43	102	524288	20	4866
2026-01-25 13:31:48.39	242.71	21.32	-29.4	-32.0	19.8	6.08e-01	0	43	102	524288	20	4828
2026-01-25 13:31:49.39	242.98	21.38	-29.5	-32.1	19.7	6.08e-01	0	43	102	524288	20	4879
2026-01-25 13:31:50.40	243.27	21.45	-29.5	-32.2	19.8	6.05e-01	0	43	102	524288	20	4879
2026-01-25 13:31:51.41	243.55	21.52	-29.6	-32.3	19.7	6.05e-01	0	43	102	524288	20	4924
2026-01-25 13:31:52.41	243.83	21.58	-29.7	-32.6	19.5	6.06e-01	0	43	102	524288	20	5033
2026-01-25 13:31:53.40	244.11	21.65	-29.5	-32.1	19.8	6.06e-01	0	43	102	524288	20	4854
2026-01-25 13:31:54.41	244.40	21.71	-29.3	-31.7	20.0	6.05e-01	0	43	102	524288	20	4721
2026-01-25 13:31:55.41	244.69	21.78	-29.2	-31.4	20.2	6.06e-01	0	43	102	524288	20	4620
2026-01-25 13:31:56.42	244.98	21.84	-29.3	-31.6	20.1	6.06e-01	0	43	102	524288	20	4688
2026-01-25 13:31:57.43	245.27	21.90	-29.3	-31.6	20.0	6.06e-01	0	44	102	524288	20	4705
2026-01-25 13:31:58.44	245.56	21.97	-29.4	-31.8	19.9	6.06e-01	0	44	102	524288	20	4761
2026-01-25 13:31:59.44	245.85	22.03	-29.3	-31.7	20.0	6.05e-01	0	43	102	524288	20	4734
2026-01-25 13:32:00.45	246.15	22.09	-29.4	-32.0	19.9	6.07e-01	0	43	102	524288	20	4811
2026-01-25 13:32:01.45	246.44	22.15	-29.4	-31.9	19.9	6.07e-01	0	43	102	524288	20	4791
2026-01-25 13:32:02.46	246.74	22.21	-29.3	-31.7	20.0	6.06e-01	0	43	102	524288	20	4712
2026-01-25 13:32:03.45	247.03	22.27	-29.5	-32.0	19.9	6.07e-01	0	43	102	524288	20	4832
2026-01-25 13:32:04.46	247.33	22.33	-29.5	-32.0	19.8	6.07e-01	0	43	102	524288	20	4829
2026-01-25 13:32:05.46	247.63	22.39	-29.4	-31.8	20.0	6.07e-01	0	43	102	524288	20	4744
2026-01-25 13:32:06.47	247.93	22.45	-29.5	-32.1	19.8	6.06e-01	0	43	102	524288	20	4854
2026-01-25 13:32:07.47	248.23	22.50	-29.5	-32.1	19.8	6.06e-01	0	43	102	524288	20	4867
2026-01-25 13:32:08.47	248.53	22.56	-29.5	-32.0	19.8	6.05e-01	0	43	102	524288	20	4830
2026-01-25 13:32:09.48	248.83	22.62	-29.4	-31.8	20.0	6.06e-01	0	43	102	524288	20	4737
2026-01-25 13:32:10.49	249.14	22.67	-29.4	-31.9	19.9	6.07e-01	0	43	102	524288	20	4804
2026-01-25 13:32:11.49	249.45	22.73	-29.5	-32.1	19.8	6.05e-01	0	43	102	524288	20	4840
2026-01-25 13:32:12.50	249.75	22.78	-29.6	-32.3	19.7	6.06e-01	0	43	102	524288	20	4936
2026-01-25 13:32:13.50	250.06	22.83	-29.6	-32.3	19.7	6.04e-01	0	43	102	524288	20	4931
2026-01-25 13:32:14.51	250.37	22.89	-29.5	-32.2	19.8	6.05e-01	0	43	102	524288	20	4891
2026-01-25 13:32:15.52	250.68	22.94	-29.8	-32.8	19.5	6.04e-01	0	43	102	524288	20	5090
2026-01-25 13:32:16.53	251.00	22.99	-30.0	-33.3	19.1	6.06e-01	0	43	102	524288	20	5288
2026-01-25 13:32:17.54	251.31	23.04	-29.7	-32.7	19.4	6.08e-01	0	44	102	524288	20	5076
2026-01-25 13:32:18.55	251.63	23.09	-29.8	-32.8	19.4	6.05e-01	0	44	102	524288	20	5098
2026-01-25 13:32:19.55	251.94	23.14	-29.9	-33.1	19.2	6.06e-01	0	44	102	524288	20	5229
2026-01-25 13:32:20.56	252.26	23.19	-29.8	-32.9	19.3	6.05e-01	0	44	102	524288	20	5156
2026-01-25 13:32:21.56	252.57	23.23	-29.9	-33.0	19.2	6.07e-01	0	43	102	524288	20	5189
2026-01-25 13:32:22.56	252.89	23.28	-29.9	-33.1	19.2	6.05e-01	0	43	102	524288	20	5209
2026-01-25 13:32:23.56	253.20	23.33	-29.8	-33.0	19.3	6.06e-01	0	43	102	524288	20	5164
2026-01-25 13:32:24.57	253.52	23.37	-30.1	-33.3	18.8	6.06e-01	0	43	102	524288	21	5158
2026-01-25 13:32:25.57	253.84	23.42	-30.2	-33.5	18.6	6.06e-01	0	43	102	524288	21	5260
2026-01-25 13:32:26.58	254.17	23.46	-30.0	-32.9	19.0	6.05e-01	0	43	102	524288	21	5037
2026-01-25 13:32:27.58	254.49	23.50	-29.8	-32.3	19.4	6.06e-01	0	43	102	524288	21	4802
2026-01-25 13:32:28.59	254.81	23.54	-29.6	-31.9	19.6	6.06e-01	0	43	102	524288	21	4685
2026-01-25 13:32:29.58	255.13	23.58	-29.7	-32.1	19.6	6.04e-01	0	43	102	524288	21	4738
2026-01-25 13:32:30.59	255.46	23.62	-29.7	-32.0	19.6	6.06e-01	0	43	102	524288	21	4702
2026-01-25 13:32:31.60	255.78	23.66	-29.5	-31.6	19.8	6.05e-01	0	43	102	524288	21	4573
2026-01-25 13:32:32.60	256.11	23.70	-29.5	-31.5	19.9	6.05e-01	0	43	102	524288	21	4554
2026-01-25 13:32:33.60	256.43	23.74	-29.5	-31.6	19.8	6.07e-01	0	43	102	524288	21	4593
2026-01-25 13:32:34.60	256.76	23.78	-29.5	-31.6	19.8	6.08e-01	0	43	102	524288	21	4589
2026-01-25 13:32:35.61	257.09	23.81	-29.6	-31.8	19.8	6.08e-01	0	43	102	524288	21	4633
2026-01-25 13:32:36.61	257.42	23.85	-29.6	-31.9	19.7	6.04e-01	0	43	102	524288	21	4677
2026-01-25 13:32:37.61	257.75	23.88	-29.8	-32.2	19.5	6.06e-01	0	43	102	524288	21	4783
2026-01-25 13:32:38.62	258.08	23.91	-29.7	-32.2	19.6	6.07e-01	0	43	102	524288	21	4772
2026-01-25 13:32:39.63	258.41	23.95	-29.7	-32.1	19.6	6.06e-01	0	43	102	524288	21	4735
2026-01-25 13:32:40.63	258.74	23.98	-29.9	-32.5	19.3	6.07e-01	0	43	102	524288	21	4890
2026-01-25 13:32:41.64	259.08	24.01	-29.9	-32.6	19.3	6.06e-01	0	43	102	524288	21	4918
2026-01-25 13:32:42.64	259.41	24.04	-29.8	-32.3	19.4	6.06e-01	0	43	102	524288	21	4825
2026-01-25 13:32:43.64	259.74	24.07	-29.7	-32.2	19.4	6.06e-01	0	43	102	524288	21	4768
2026-01-25 13:32:44.64	260.07	24.09	-29.7	-32.2	19.4	6.06e-01	0	43	102	524288	21	4784
2026-01-25 13:32:45.65	260.41	24.12	-29.9	-32.6	19.2	6.06e-01	0	43	102	524288	21	4918
2026-01-25 13:32:46.66	260.75	24.15	-29.8	-32.3	19.3	6.05e-01	0	43	102	524288	21	4810
2026-01-25 13:32:47.67	261.09	24.17	-29.7	-32.1	19.5	6.05e-01	0	43	102	524288	21	4734
2026-01-25 13:32:48.67	261.42	24.19	-29.6	-31.7	19.7	6.08e-01	0	43	102	524288	21	4618
2026-01-25 13:32:49.68	261.76	24.22	-29.6	-31.7	19.7	6.05e-01	0	43	102	524288	21	4620
2026-01-25 13:32:50.67	262.09	24.24	-29.6	-31.7	19.7	6.05e-01	0	43	102	524288	21	4618
2026-01-25 13:32:51.67	262.43	24.26	-29.5	-31.6	19.8	6.06e-01	0	43	102	524288	21	4567
2026-01-25 13:32:52.67	262.77	24.28	-29.6	-31.7	19.7	6.06e-01	0	43	102	524288	21	4624
2026-01-25 13:32:53.68	263.11	24.30	-29.7	-32.0	19.6	6.07e-01	0	43	102	524288	21	4702
2026-01-25 13:32:54.68	263.45	24.32	-29.7	-32.2	19.5	6.05e-01	0	44	102	524288	21	4764
2026-01-25 13:32:55.68	263.78	24.33	-29.6	-31.8	19.8	6.05e-01	0	43	102	524288	21	4641
2026-01-25 13:32:56.68	264.12	24.35	-29.6	-31.7	19.8	6.06e-01	0	43	102	524288	21	4618
2026-01-25 13:32:57.68	264.46	24.36	-29.5	-31.7	19.9	6.08e-01	0	43	102	524288	21	4595
2026-01-25 13:32:58.68	264.80	24.38	-29.6	-31.7	19.9	6.06e-01	0	43	102	524288	21	4605
2026-01-25 13:32:59.68	265.14	24.39	-29.8	-32.3	19.5	6.04e-01	0	43	102	524288	21	4814
2026-01-25 13:33:00.68	265.48	24.40	-29.8	-32.3	19.4	6.06e-01	0	43	102	524288	21	4815
2026-01-25 13:33:01.69	265.83	24.41	-29.7	-32.0	19.7	6.05e-01	0	43	102	524288	21	4692
2026-01-25 13:33:02.70	266.17	24.42	-29.6	-31.7	19.8	6.04e-01	0	43	102	524288	21	4603
2026-01-25 13:33:03.70	266.51	24.43	-29.6	-31.7	19.8	6.07e-01	0	43	102	524288	21	4597
2026-01-25 13:33:04.71	266.85	24.44	-29.5	-31.6	19.9	6.06e-01	0	43	102	524288	21	4556
2026-01-25 13:33:05.71	267.19	24.45	-29.7	-32.0	19.7	6.06e-01	0	43	102	524288	21	4692
2026-01-25 13:33:06.72	267.54	24.45	-29.7	-32.2	19.5	6.07e-01	0	43	102	524288	21	4762
2026-01-25 13:33:07.73	267.88	24.46	-29.6	-31.9	19.7	6.06e-01	0	43	102	524288	21	4677
2026-01-25 13:33:08.73	268.22	24.46	-29.6	-31.9	19.8	6.05e-01	0	43	102	524288	21	4652
2026-01-25 13:33:09.74	268.57	24.46	-30.0	-32.8	19.2	6.03e-01	0	43	102	524288	21	4978
2026-01-25 13:33:10.75	268.91	24.47	-29.9	-32.5	19.3	6.05e-01	0	43	102	524288	21	4853
2026-01-25 13:33:11.75	269.26	24.47	-29.8	-32.2	19.5	6.07e-01	0	44	102	524288	21	4755
2026-01-25 13:33:12.76	269.60	24.47	-29.9	-32.7	19.1	6.06e-01	0	43	102	524288	21	4933
2026-01-25 13:33:13.76	269.94	24.46	-29.9	-32.5	19.3	6.05e-01	0	43	102	524288	21	4858
2026-01-25 13:33:14.76	270.28	24.46	-29.7	-32.1	19.4	6.08e-01	0	43	102	524288	21	4727
2026-01-25 13:33:15.77	270.63	24.46	-29.8	-32.2	19.3	6.08e-01	0	43	102	524288	21	4775
2026-01-25 13:33:16.78	270.97	24.45	-29.8	-32.3	19.2	6.05e-01	0	43	102	524288	21	4812
2026-01-25 13:33:17.78	271.31	24.45	-30.0	-32.8	18.9	6.04e-01	0	43	102	524288	21	4972
2026-01-25 13:33:18.78	271.65	24.44	-29.9	-32.5	19.1	6.04e-01	0	43	102	524288	21	4867
2026-01-25 13:33:19.78	271.99	24.43	-29.6	-31.8	19.5	6.06e-01	0	43	102	524288	21	4648
2026-01-25 13:33:20.79	272.34	24.43	-29.5	-31.6	19.8	6.06e-01	0	43	102	524288	21	4583
2026-01-25 13:33:21.80	272.68	24.42	-29.5	-31.6	19.8	6.06e-01	0	43	102	524288	21	4581
2026-01-25 13:33:22.81	273.02	24.40	-29.5	-31.7	19.9	6.06e-01	0	43	102	524288	21	4590
2026-01-25 13:33:23.81	273.36	24.39	-29.6	-31.9	19.7	6.07e-01	0	43	102	524288	21	4653
2026-01-25 13:33:24.82	273.71	24.38	-29.6	-31.8	19.8	6.05e-01	0	43	102	524288	21	4624
2026-01-25 13:33:25.82	274.05	24.37	-29.8	-32.4	19.5	6.06e-01	0	43	102	524288	21	4829
2026-01-25 13:33:26.83	274.39	24.35	-29.7	-32.0	19.7	6.07e-01	0	43	102	524288	21	4701
2026-01-25 13:33:27.84	274.73	24.34	-29.5	-31.5	20.0	6.06e-01	0	43	102	524288	21	4548
2026-01-25 13:33:28.84	275.07	24.32	-29.7	-32.0	19.7	6.04e-01	0	43	102	524288	21	4701
2026-01-25 13:33:29.84	275.41	24.30	-29.6	-31.9	19.7	6.07e-01	0	44	102	524288	21	4670
2026-01-25 13:33:30.84	275.74	24.28	-29.6	-31.9	19.7	6.08e-01	0	44	102	524288	21	4672
2026-01-25 13:33:31.84	276.08	24.26	-30.0	-32.8	19.2	6.06e-01	0	43	102	524288	21	4964
2026-01-25 13:33:32.84	276.42	24.24	-29.8	-32.4	19.4	6.04e-01	0	43	102	524288	21	4821
2026-01-25 13:33:33.85	276.76	24.22	-29.6	-31.8	19.7	6.06e-01	0	43	102	524288	21	4642
2026-01-25 13:33:34.85	277.09	24.20	-29.5	-31.6	19.9	6.07e-01	0	43	102	524288	21	4569
2026-01-25 13:33:35.85	277.43	24.18	-29.6	-31.8	19.8	6.05e-01	0	43	102	524288	21	4622
2026-01-25 13:33:36.86	277.76	24.15	-29.5	-31.5	19.9	6.05e-01	0	43	102	524288	21	4535
2026-01-25 13:33:37.87	278.10	24.13	-29.5	-31.6	19.8	6.07e-01	0	43	102	524288	21	4581
2026-01-25 13:33:38.87	278.43	24.10	-29.6	-31.9	19.7	6.08e-01	0	43	102	524288	21	4668
2026-01-25 13:33:39.88	278.77	24.07	-29.5	-31.6	19.8	6.06e-01	0	43	102	524288	21	4579
2026-01-25 13:33:40.88	279.10	24.04	-29.6	-31.9	19.7	6.06e-01	0	43	102	524288	21	4663
2026-01-25 13:33:41.88	279.43	24.01	-29.6	-31.8	19.7	6.06e-01	0	43	102	524288	21	4643
2026-01-25 13:33:42.88	279.76	23.98	-29.6	-31.7	19.8	6.06e-01	0	43	102	524288	21	4613
2026-01-25 13:33:43.88	280.09	23.95	-29.6	-31.8	19.8	6.05e-01	0	43	102	524288	21	4636
2026-01-25 13:33:44.88	280.42	23.92	-29.7	-32.0	19.6	6.05e-01	0	43	102	524288	21	4698
2026-01-25 13:33:45.89	280.76	23.89	-29.6	-31.9	19.7	6.08e-01	0	43	102	524288	21	4669
2026-01-25 13:33:46.90	281.09	23.86	-29.6	-31.8	19.8	6.06e-01	0	43	102	524288	21	4639
2026-01-25 13:33:47.90	281.41	23.82	-29.5	-31.6	19.9	6.04e-01	0	43	102	524288	21	4577
2026-01-25 13:33:48.90	281.74	23.79	-29.5	-31.7	19.9	6.06e-01	0	44	102	524288	21	4589
2026-01-25 13:33:49.90	282.07	23.75	-29.6	-31.7	19.8	6.04e-01	0	43	102	524288	21	4616
2026-01-25 13:33:50.90	282.39	23.71	-29.6	-31.7	19.8	6.07e-01	0	43	102	524288	21	4613
2026-01-25 13:33:51.90	282.72	23.67	-29.8	-32.3	19.5	6.04e-01	0	43	102	524288	21	4807
2026-01-25 13:33:52.91	283.04	23.64	-29.8	-32.3	19.5	6.05e-01	0	43	102	524288	21	4799
2026-01-25 13:33:53.91	283.36	23.60	-29.9	-32.5	19.4	6.04e-01	0	44	102	524288	21	4870
2026-01-25 13:33:54.92	283.69	23.55	-29.7	-32.1	19.6	6.07e-01	0	43	102	524288	21	4743
2026-01-25 13:33:55.92	284.01	23.51	-29.6	-31.8	19.8	6.07e-01	0	43	102	524288	21	4653
2026-01-25 13:33:56.93	284.33	23.47	-29.5	-31.6	19.9	6.07e-01	0	44	102	524288	21	4562
2026-01-25 13:33:57.93	284.65	23.43	-29.6	-31.8	19.8	6.08e-01	0	44	102	524288	21	4646
2026-01-25 13:33:58.94	284.97	23.38	-29.5	-31.6	19.9	6.08e-01	0	43	102	524288	21	4569
2026-01-25 13:33:59.94	285.29	23.34	-29.7	-32.0	19.7	6.05e-01	0	43	102	524288	21	4691
2026-01-25 13:34:00.95	285.61	23.29	-29.6	-31.9	19.7	6.07e-01	0	43	102	524288	21	4670
2026-01-25 13:34:01.95	285.92	23.25	-29.7	-32.1	19.6	6.06e-01	0	44	102	524288	21	4726
2026-01-25 13:34:02.95	286.24	23.20	-29.5	-31.6	19.8	6.05e-01	0	43	102	524288	21	4575
2026-01-25 13:34:03.95	286.55	23.15	-29.5	-31.4	20.0	6.06e-01	0	44	102	524288	21	4516
2026-01-25 13:34:04.96	286.87	23.10	-29.6	-31.8	19.8	6.07e-01	0	44	102	524288	21	4626
2026-01-25 13:34:05.96	287.18	23.06	-29.5	-31.6	19.8	6.05e-01	0	43	102	524288	21	4587
2026-01-25 13:34:06.97	287.49	23.01	-29.5	-31.5	19.9	6.07e-01	0	44	102	524288	21	4541
2026-01-25 13:34:07.97	287.80	22.95	-29.7	-32.0	19.6	6.04e-01	0	44	102	524288	21	4695
2026-01-25 13:34:08.97	288.11	22.90	-29.7	-32.1	19.5	6.03e-01	0	43	102	524288	21	4735
2026-01-25 13:34:09.98	288.42	22.85	-29.8	-32.3	19.4	6.06e-01	0	44	102	524288	21	4815
2026-01-25 13:34:10.99	288.73	22.80	-29.5	-31.6	19.8	6.05e-01	0	43	102	524288	21	4587
2026-01-25 13:34:12.00	289.03	22.74	-29.4	-31.4	20.0	6.05e-01	0	43	102	524288	21	4511
2026-01-25 13:34:13.00	289.34	22.69	-29.5	-31.5	19.9	6.07e-01	0	43	102	524288	21	4555
2026-01-25 13:34:14.01	289.64	22.63	-29.5	-31.5	19.9	6.05e-01	0	43	102	524288	21	4533
2026-01-25 13:34:15.01	289.94	22.58	-29.5	-31.6	19.8	6.03e-01	0	43	102	524288	21	4574
2026-01-25 13:34:16.01	290.25	22.52	-29.6	-31.8	19.7	6.05e-01	0	43	102	524288	21	4645
2026-01-25 13:34:17.02	290.55	22.47	-29.7	-32.0	19.6	6.04e-01	0	44	102	524288	21	4707
2026-01-25 13:34:18.02	290.85	22.41	-29.6	-31.8	19.7	6.05e-01	0	44	102	524288	21	4651
2026-01-25 13:34:19.03	291.15	22.35	-29.5	-31.6	19.9	6.04e-01	0	44	102	524288	21	4572
2026-01-25 13:34:20.03	291.44	22.29	-29.5	-31.6	19.9	6.03e-01	0	44	102	524288	21	4580
2026-01-25 13:34:21.04	291.74	22.23	-29.8	-32.3	19.4	6.05e-01	0	44	102	524288	21	4804
2026-01-25 13:34:22.04	292.03	22.17	-29.7	-32.2	19.5	6.06e-01	0	44	102	524288	21	4768
2026-01-25 13:34:23.04	292.32	22.11	-29.8	-32.3	19.4	6.05e-01	0	43	102	524288	21	4801
2026-01-25 13:34:24.05	292.62	22.05	-29.7	-32.0	19.6	6.04e-01	0	44	102	524288	21	4722
2026-01-25 13:34:25.05	292.91	21.99	-29.9	-32.6	19.3	6.07e-01	0	44	102	524288	21	4898
2026-01-25 13:34:26.06	293.20	21.93	-29.9	-32.7	19.2	6.06e-01	0	43	102	524288	21	4955
2026-01-25 13:34:27.07	293.49	21.87	-29.8	-32.4	19.4	6.08e-01	0	43	102	524288	21	4860
2026-01-25 13:34:28.08	293.78	21.80	-29.9	-32.6	19.2	6.05e-01	0	43	102	524288	21	4927
2026-01-25 13:34:29.08	294.06	21.74	-30.1	-33.2	18.9	6.06e-01	0	43	102	524288	21	5146
2026-01-25 13:34:30.08	294.35	21.67	-30.3	-33.7	18.6	6.07e-01	0	44	102	524288	21	5308
2026-01-25 13:34:31.09	294.63	21.61	-30.2	-33.4	18.8	6.06e-01	0	43	102	524288	21	5193
2026-01-25 13:34:32.09	294.92	21.54	-30.1	-33.1	18.9	6.03e-01	0	44	102	524288	21	5086
2026-01-25 13:34:33.09	295.20	21.48	-30.0	-32.9	19.0	6.05e-01	0	44	102	524288	21	5013
2026-01-25 13:34:34.09	295.47	21.41	-30.0	-32.9	19.0	6.04e-01	0	43	102	524288	21	5038
2026-01-25 13:34:35.09	295.75	21.35	-30.1	-33.3	18.8	6.06e-01	0	44	102	524288	21	5169
2026-01-25 13:34:36.09	296.03	21.28	-29.8	-32.3	19.3	6.04e-01	0	43	102	524288	21	4834
2026-01-25 13:34:37.09	296.30	21.21	-29.5	-31.7	19.7	6.04e-01	0	44	102	524288	21	4614
2026-01-25 13:34:38.09	296.58	21.15	-29.4	-31.4	19.9	6.03e-01	0	43	102	524288	21	4530
2026-01-25 13:34:39.10	296.85	21.08	-29.4	-31.4	19.9	6.06e-01	0	44	102	524288	21	4528
2026-01-25 13:34:40.10	297.12	21.01	-29.5	-31.7	19.8	6.08e-01	0	44	102	524288	21	4606
2026-01-25 13:34:41.10	297.40	20.94	-29.5	-31.5	19.9	6.07e-01	0	44	102	524288	21	4548
2026-01-25 13:34:42.11	297.67	20.87	-29.6	-31.9	19.6	6.06e-01	0	43	102	524288	21	4696
2026-01-25 13:34:43.11	297.93	20.80	-29.5	-31.5	19.9	6.08e-01	0	44	102	524288	21	4542
2026-01-25 13:34:44.11	298.20	20.73	-29.5	-31.5	19.9	6.08e-01	0	44	102	524288	21	4562
2026-01-25 13:34:45.12	298.47	20.66	-29.5	-31.6	19.8	6.07e-01	0	43	102	524288	21	4583
2026-01-25 13:34:46.12	298.73	20.59	-29.5	-31.6	19.8	6.06e-01	0	44	102	524288	21	4593
2026-01-25 13:34:47.12	299.00	20.52	-29.5	-31.5	19.8	6.06e-01	0	44	102	524288	21	4564
2026-01-25 13:34:48.13	299.26	20.44	-29.5	-31.5	19.8	6.05e-01	0	44	102	524288	21	4560
2026-01-25 13:34:49.14	299.52	20.37	-29.5	-31.6	19.8	6.05e-01	0	44	102	524288	21	4590
2026-01-25 13:34:50.14	299.78	20.30	-29.3	-31.7	20.1	6.06e-01	0	44	102	524288	20	4712
2026-01-25 13:34:51.15	300.04	20.23	-29.4	-32.0	19.9	6.04e-01	0	44	102	524288	20	4802
2026-01-25 13:34:52.15	300.30	20.15	-29.5	-32.1	19.8	6.04e-01	0	44	102	524288	20	4863
2026-01-25 13:34:53.16	300.55	20.08	-29.6	-32.3	19.7	6.08e-01	0	44	102	524288	20	4928
2026-01-25 13:34:54.16	300.81	20.01	-29.6	-32.4	19.6	6.04e-01	0	44	102	524288	20	4956
2026-01-25 13:34:55.16	301.06	19.93	-29.5	-32.2	19.7	6.06e-01	0	44	102	524288	20	4874
2026-01-25 13:34:56.17	301.31	19.86	-29.6	-32.2	19.7	6.05e-01	0	43	102	524288	20	4903
2026-01-25 13:34:57.17	301.56	19.78	-29.8	-32.7	19.4	6.06e-01	0	44	102	524288	20	5084
2026-01-25 13:34:58.18	301.82	19.71	-29.9	-33.3	19.0	6.03e-01	0	44	102	524288	20	5283
2026-01-25 13:34:59.18	302.06	19.63	-29.9	-33.1	19.1	6.05e-01	0	44	102	524288	20	5208
2026-01-25 13:35:00.19	302.31	19.56	-29.7	-32.7	19.4	6.06e-01	0	44	102	524288	20	5054
2026-01-25 13:35:01.20	302.56	19.48	-29.7	-32.7	19.4	6.07e-01	0	44	102	524288	20	5077
2026-01-25 13:35:02.20	302.80	19.40	-29.8	-32.8	19.3	6.04e-01	0	44	102	524288	20	5094
2026-01-25 13:35:03.20	303.05	19.33	-29.8	-32.9	19.2	6.05e-01	0	44	102	524288	20	5155
2026-01-25 13:35:04.21	303.29	19.25	-30.1	-33.2	18.7	6.06e-01	0	44	102	524288	21	5137
2026-01-25 13:35:05.21	303.53	19.18	-29.8	-32.5	19.2	6.05e-01	0	44	102	524288	21	4880
2026-01-25 13:35:06.22	303.77	19.10	-29.7	-32.1	19.4	6.06e-01	0	44	102	524288	21	4764
2026-01-25 13:35:07.23	304.01	19.02	-29.6	-31.8	19.6	6.05e-01	0	44	102	524288	21	4635
2026-01-25 13:35:08.24	304.25	18.94	-29.5	-31.6	19.8	6.03e-01	0	44	102	524288	21	4583
2026-01-25 13:35:09.24	304.48	18.87	-29.6	-31.7	19.7	6.08e-01	0	44	102	524288	21	4628
2026-01-25 13:35:10.23	304.71	18.79	-29.5	-31.7	19.7	6.05e-01	0	44	102	524288	21	4622
2026-01-25 13:35:11.24	304.95	18.71	-29.4	-31.3	19.9	6.08e-01	0	44	102	524288	21	4492
2026-01-25 13:35:12.24	305.18	18.63	-29.3	-31.7	20.0	6.05e-01	0	44	102	524288	20	4718
2026-01-25 13:35:13.24	305.41	18.56	-29.4	-31.8	19.9	6.06e-01	0	44	102	524288	20	4770
2026-01-25 13:35:14.24	305.64	18.48	-29.5	-32.1	19.7	6.08e-01	0	44	102	524288	20	4858
2026-01-25 13:35:15.24	305.87	18.40	-29.3	-31.7	19.9	6.06e-01	0	44	102	524288	20	4730
2026-01-25 13:35:16.24	306.09	18.32	-29.3	-31.6	20.0	6.05e-01	0	43	102	524288	20	4688
2026-01-25 13:35:17.25	306.32	18.24	-29.3	-31.6	20.0	6.06e-01	0	44	102	524288	20	4692
2026-01-25 13:35:18.25	306.54	18.16	-29.3	-31.6	20.0	6.03e-01	0	44	102	524288	20	4698
2026-01-25 13:35:19.25	306.77	18.09	-29.4	-31.8	19.9	6.05e-01	0	44	102	524288	20	4770
2026-01-25 13:35:20.26	306.99	18.01	-29.3	-31.6	20.0	6.04e-01	0	44	102	524288	20	4704
2026-01-25 13:35:21.26	307.21	17.93	-29.3	-31.7	20.0	6.06e-01	0	44	102	524288	20	4731
2026-01-25 13:35:22.27	307.43	17.85	-29.4	-31.9	19.8	6.06e-01	0	44	102	524288	20	4794
2026-01-25 13:35:23.26	307.65	17.77	-29.3	-31.6	20.0	6.06e-01	0	44	102	524288	20	4699
2026-01-25 13:35:24.27	307.87	17.69	-29.3	-31.5	20.0	6.06e-01	0	44	102	524288	20	4677
2026-01-25 13:35:25.28	308.08	17.61	-29.3	-31.6	20.0	6.05e-01	0	43	102	524288	20	4696
2026-01-25 13:35:26.28	308.30	17.53	-29.3	-31.7	19.9	6.05e-01	0	44	102	524288	20	4741
2026-01-25 13:35:27.28	308.51	17.45	-29.4	-31.8	19.9	6.04e-01	0	44	102	524288	20	4760
2026-01-25 13:35:28.28	308.72	17.37	-29.3	-31.6	20.0	6.07e-01	0	44	102	524288	20	4704
2026-01-25 13:35:29.29	308.94	17.29	-29.3	-31.7	19.9	6.06e-01	0	44	102	524288	20	4726
2026-01-25 13:35:30.29	309.15	17.21	-29.2	-31.5	20.1	6.05e-01	0	44	102	524288	20	4653
2026-01-25 13:35:31.29	309.36	17.13	-29.3	-31.7	19.9	6.06e-01	0	44	102	524288	20	4726
2026-01-25 13:35:32.30	309.57	17.05	-29.4	-32.0	19.8	6.07e-01	0	44	102	524288	20	4830
2026-01-25 13:35:33.30	309.77	16.97	-29.5	-32.1	19.7	6.03e-01	0	44	102	524288	20	4872
2026-01-25 13:35:34.30	309.98	16.89	-29.5	-32.2	19.6	6.04e-01	0	44	102	524288	20	4904
2026-01-25 13:35:35.31	310.18	16.81	-29.5	-32.2	19.6	6.05e-01	0	44	102	524288	20	4901
2026-01-25 13:35:36.31	310.39	16.73	-29.5	-32.1	19.6	6.02e-01	0	43	102	524288	20	4867
2026-01-25 13:35:37.32	310.59	16.65	-29.5	-32.2	19.6	6.06e-01	0	44	102	524288	20	4902
2026-01-25 13:35:38.32	310.79	16.57	-29.5	-32.2	19.5	6.07e-01	0	44	102	524288	20	4913
2026-01-25 13:35:39.32	310.99	16.49	-29.6	-32.4	19.4	6.07e-01	0	43	102	524288	20	4973
2026-01-25 13:35:40.32	311.19	16.41	-29.4	-31.8	19.7	6.05e-01	0	44	102	524288	20	4782
2026-01-25 13:35:41.33	311.39	16.33	-29.3	-31.6	19.8	6.05e-01	0	44	102	524288	20	4704
2026-01-25 13:35:42.33	311.58	16.25	-29.3	-31.6	19.8	6.07e-01	0	43	102	524288	20	4690
2026-01-25 13:35:43.34	311.78	16.17	-29.2	-31.5	19.7	6.05e-01	0	44	102	524288	20	4682
2026-01-25 13:35:44.34	311.97	16.09	-29.2	-31.5	19.7	6.04e-01	0	44	102	524288	20	4678
2026-01-25 13:35:45.34	312.17	16.01	-29.3	-31.6	19.7	6.05e-01	0	44	102	524288	20	4705
2026-01-25 13:35:46.34	312.36	15.93	-29.3	-31.8	19.5	6.04e-01	0	44	102	524288	20	4769
2026-01-25 13:35:47.35	312.55	15.85	-29.3	-31.6	19.6	6.06e-01	0	44	102	524288	20	4714
2026-01-25 13:35:48.36	312.74	15.77	-29.3	-31.7	19.6	6.06e-01	0	44	102	524288	20	4735
2026-01-25 13:35:49.35	312.93	15.69	-29.4	-31.8	19.5	6.06e-01	0	44	102	524288	20	4781
2026-01-25 13:35:50.36	313.12	15.61	-29.3	-31.7	19.5	6.07e-01	0	44	102	524288	20	4736
2026-01-25 13:35:51.37	313.31	15.53	-29.3	-31.7	19.5	6.05e-01	0	44	102	524288	20	4746
2026-01-25 13:35:52.37	313.49	15.45	-29.4	-31.9	19.4	6.04e-01	0	44	102	524288	20	4804
2026-01-25 13:35:53.38	313.68	15.37	-29.3	-31.7	19.5	6.05e-01	0	44	102	524288	20	4745
2026-01-25 13:35:54.39	313.87	15.29	-29.3	-31.7	19.5	6.06e-01	0	44	102	524288	20	4754
2026-01-25 13:35:55.40	314.05	15.21	-29.4	-31.9	19.4	6.06e-01	0	44	102	524288	20	4824
2026-01-25 13:35:56.41	314.23	15.12	-29.5	-32.1	19.3	6.07e-01	0	44	102	524288	20	4879
2026-01-25 13:35:57.41	314.41	15.04	-29.4	-32.0	19.4	6.06e-01	0	44	102	524288	20	4835
2026-01-25 13:35:58.41	314.59	14.97	-29.5	-32.3	19.2	6.08e-01	0	44	102	524288	20	4930
2026-01-25 13:35:59.42	314.77	14.88	-29.6	-32.4	19.1	6.07e-01	0	44	102	524288	20	4994
2026-01-25 13:36:00.42	314.95	14.81	-29.4	-32.0	19.3	6.05e-01	0	44	102	524288	20	4830
2026-01-25 13:36:01.43	315.13	14.72	-29.4	-31.8	19.4	6.04e-01	0	44	102	524288	20	4790
2026-01-25 13:36:02.43	315.30	14.65	-29.4	-31.9	19.4	6.04e-01	0	44	102	524288	20	4799
2026-01-25 13:36:03.43	315.48	14.57	-29.4	-31.9	19.4	6.07e-01	0	44	102	524288	20	4830
2026-01-25 13:36:04.43	315.65	14.49	-29.4	-32.0	19.3	6.06e-01	0	44	102	524288	20	4859
2026-01-25 13:36:05.44	315.83	14.41	-29.5	-32.1	19.2	6.05e-01	0	44	102	524288	20	4901
2026-01-25 13:36:06.44	316.00	14.33	-29.4	-31.9	19.4	6.06e-01	0	43	102	524288	20	4824
2026-01-25 13:36:07.45	316.17	14.25	-29.3	-31.8	19.6	6.07e-01	0	44	102	524288	20	4768
2026-01-25 13:36:08.46	316.34	14.17	-29.4	-31.9	19.5	6.04e-01	0	44	102	524288	20	4803
2026-01-25 13:36:09.46	316.51	14.09	-29.4	-31.9	19.5	6.06e-01	0	44	102	524288	20	4819
2026-01-25 13:36:10.47	316.68	14.01	-29.4	-31.9	19.5	6.05e-01	0	44	102	524288	20	4813
2026-01-25 13:36:11.47	316.85	13.93	-29.4	-32.0	19.5	6.06e-01	0	44	102	524288	20	4839
2026-01-25 13:36:12.48	317.02	13.85	-29.5	-32.2	19.3	6.06e-01	0	44	102	524288	20	4911
2026-01-25 13:36:13.48	317.18	13.77	-29.5	-32.2	19.3	6.05e-01	0	44	102	524288	20	4930
2026-01-25 13:36:14.48	317.34	13.69	-29.5	-32.2	19.3	6.04e-01	0	44	102	524288	20	4923
2026-01-25 13:36:15.48	317.51	13.61	-29.6	-32.4	19.2	6.07e-01	0	44	102	524288	20	4972
2026-01-25 13:36:16.48	317.67	13.53	-29.6	-32.4	19.2	6.06e-01	0	44	102	524288	20	4999
2026-01-25 13:36:17.49	317.83	13.46	-29.5	-32.1	19.4	6.06e-01	0	44	102	524288	20	4892
2026-01-25 13:36:18.50	318.00	13.38	-29.5	-32.2	19.4	6.04e-01	0	43	102	524288	20	4925
2026-01-25 13:36:19.50	318.15	13.30	-29.6	-32.4	19.2	6.06e-01	0	44	102	524288	20	4986
2026-01-25 13:36:20.50	318.31	13.22	-29.6	-32.4	19.3	6.08e-01	0	43	102	524288	20	4979
2026-01-25 13:36:21.51	318.47	13.14	-29.5	-32.2	19.4	6.05e-01	0	44	102	524288	20	4926
2026-01-25 13:36:22.51	318.63	13.06	-29.5	-32.2	19.3	6.06e-01	0	44	102	524288	20	4925
2026-01-25 13:36:23.52	318.79	12.98	-29.6	-32.5	19.1	6.06e-01	0	44	102	524288	20	5038
2026-01-25 13:36:24.52	318.94	12.91	-29.6	-32.5	19.2	6.07e-01	0	44	102	524288	20	5017
2026-01-25 13:36:25.53	319.10	12.83	-29.6	-32.6	19.1	6.07e-01	0	44	102	524288	20	5073
2026-01-25 13:36:26.54	319.25	12.75	-29.7	-32.7	19.0	6.04e-01	0	44	102	524288	20	5089
2026-01-25 13:36:27.54	319.41	12.67	-29.5	-32.3	19.3	6.05e-01	0	44	102	524288	20	4945
2026-01-25 13:36:28.55	319.56	12.59	-29.5	-32.3	19.3	6.04e-01	0	44	102	524288	20	4959
2026-01-25 13:36:29.55	319.71	12.52	-29.5	-32.4	19.2	6.04e-01	0	43	102	524288	20	4986
2026-01-25 13:36:30.55	319.86	12.44	-29.5	-32.3	19.2	6.06e-01	0	44	102	524288	20	4963
2026-01-25 13:36:31.56	320.01	12.36	-29.5	-32.4	19.1	6.06e-01	0	44	102	524288	20	4987
2026-01-25 13:36:32.56	320.16	12.28	-29.6	-32.4	19.0	6.04e-01	0	44	102	524288	20	5010
2026-01-25 13:36:33.57	320.31	12.21	-29.7	-32.8	18.8	6.06e-01	0	44	102	524288	20	5147
2026-01-25 13:36:34.57	320.46	12.13	-29.7	-32.8	18.7	6.07e-01	0	44	102	524288	20	5147
2026-01-25 13:36:35.57	320.60	12.05	-29.6	-32.7	18.8	6.05e-01	0	44	102	524288	20	5094
2026-01-25 13:36:36.58	320.75	11.98	-29.7	-32.7	18.7	6.06e-01	0	44	102	524288	20	5110
2026-01-25 13:36:37.58	320.89	11.90	-29.7	-32.9	18.6	6.04e-01	0	44	102	524288	20	5190
2026-01-25 13:36:38.59	321.04	11.82	-29.8	-33.0	18.6	6.04e-01	0	43	102	524288	20	5206
2026-01-25 13:36:39.60	321.18	11.75	-29.8	-33.0	18.5	6.04e-01	0	44	102	524288	20	5229
2026-01-25 13:36:40.60	321.33	11.67	-29.9	-33.2	18.3	6.05e-01	0	44	102	524288	20	5310
2026-01-25 13:36:41.61	321.47	11.59	-29.9	-33.4	18.2	6.06e-01	0	44	102	524288	20	5394
2026-01-25 13:36:42.61	321.61	11.52	-29.8	-33.2	18.4	6.06e-01	0	44	102	524288	20	5289
2026-01-25 13:36:43.62	321.75	11.44	-29.9	-33.3	18.4	6.05e-01	0	44	102	524288	20	5322
2026-01-25 13:36:44.62	321.89	11.37	-29.8	-33.2	18.4	6.01e-01	0	44	102	524288	20	5311
2026-01-25 13:36:45.63	322.03	11.29	-29.9	-33.4	18.3	6.01e-01	0	43	102	524288	20	5383
2026-01-25 13:36:46.64	322.17	11.21	-29.9	-33.3	18.2	6.00e-01	0	44	102	524288	20	5351
2026-01-25 13:36:47.64	322.31	11.14	-29.8	-33.0	18.4	6.02e-01	0	44	102	524288	20	5240
2026-01-25 13:36:48.64	322.44	11.06	-29.7	-32.8	18.5	6.00e-01	0	44	102	524288	20	5154
2026-01-25 13:36:49.64	322.58	10.99	-29.7	-32.9	18.4	6.00e-01	0	44	102	524288	20	5188
2026-01-25 13:36:50.64	322.71	10.91	-29.8	-33.0	18.3	6.01e-01	0	44	102	524288	20	5244
2026-01-25 13:36:51.65	322.85	10.84	-29.7	-32.9	18.4	6.00e-01	0	44	102	524288	20	5184
2026-01-25 13:36:52.66	322.98	10.76	-29.9	-33.3	18.2	5.99e-01	0	44	102	524288	20	5325
2026-01-25 13:36:53.66	323.12	10.69	-29.8	-33.1	18.2	5.98e-01	0	44	102	524288	20	5271
2026-01-25 13:36:54.67	323.25	10.61	-29.8	-33.2	18.2	6.00e-01	0	43	102	524288	20	5291
2026-01-25 13:36:55.67	323.38	10.54	-29.8	-33.0	18.3	6.01e-01	0	44	102	524288	20	5238
2026-01-25 13:36:56.68	323.51	10.46	-29.8	-33.1	18.2	6.01e-01	0	44	102	524288	20	5250
2026-01-25 13:36:57.69	323.64	10.39	-29.7	-32.9	18.3	6.01e-01	0	44	102	524288	20	5208
2026-01-25 13:36:58.69	323.77	10.32	-29.8	-33.1	18.3	6.01e-01	0	44	102	524288	20	5284
2026-01-25 13:36:59.70	323.90	10.24	-29.7	-32.9	18.3	6.03e-01	0	44	102	524288	20	5192
2026-01-25 13:37:00.71	324.03	10.17	-29.7	-32.9	18.3	5.99e-01	0	44	102	524288	20	5190
2026-01-25 13:37:01.72	324.16	10.09	-29.7	-32.9	18.3	6.00e-01	0	44	102	524288	20	5201
2026-01-25 13:37:02.72	324.29	10.02	-29.7	-33.0	18.3	6.02e-01	0	44	102	524288	20	5223
2026-01-25 13:37:03.73	324.41	9.95	-29.8	-33.2	18.2	6.02e-01	0	44	102	524288	20	5315
2026-01-25 13:37:04.74	324.54	9.87	-29.9	-33.3	18.1	6.00e-01	0	44	102	524288	20	5365
2026-01-25 13:37:05.74	324.66	9.80	-29.8	-33.2	18.2	6.00e-01	0	44	102	524288	20	5302
2026-01-25 13:37:06.74	324.79	9.73	-29.9	-33.4	18.1	5.99e-01	0	44	102	524288	20	5400
2026-01-25 13:37:07.74	324.91	9.65	-29.9	-33.3	18.1	6.00e-01	0	44	102	524288	20	5355
2026-01-25 13:37:08.75	325.03	9.58	-29.8	-33.3	18.0	6.03e-01	0	44	102	524288	20	5343
2026-01-25 13:37:09.75	325.16	9.51	-29.9	-33.5	18.2	6.00e-01	0	44	102	524288	20	5439
2026-01-25 13:37:10.75	325.28	9.44	-30.0	-33.7	18.1	6.03e-01	0	43	102	524288	20	5502
2026-01-25 13:37:11.75	325.40	9.36	-30.0	-33.9	18.0	6.01e-01	0	44	102	524288	20	5584
2026-01-25 13:37:12.76	325.52	9.29	-30.3	-34.0	17.3	5.99e-01	0	44	102	524288	21	5510
2026-01-25 13:37:13.76	325.64	9.22	-30.2	-33.8	17.6	5.99e-01	0	44	102	524288	21	5462
2026-01-25 13:37:14.77	325.76	9.15	-30.1	-33.5	17.8	6.02e-01	0	44	102	524288	21	5335
2026-01-25 13:37:15.77	325.88	9.07	-30.0	-33.3	17.9	6.00e-01	0	44	102	524288	21	5258
2026-01-25 13:37:16.77	325.99	9.00	-30.1	-33.4	17.7	5.99e-01	0	43	102	524288	21	5289
2026-01-25 13:37:17.78	326.11	8.93	-30.1	-33.5	17.6	6.00e-01	0	44	102	524288	21	5319
2026-01-25 13:37:18.78	326.23	8.86	-30.0	-33.4	17.7	5.96e-01	0	44	102	524288	21	5286
2026-01-25 13:37:19.79	326.35	8.79	-30.1	-33.6	17.7	6.02e-01	0	44	102	524288	21	5357
2026-01-25 13:37:20.79	326.46	8.72	-30.1	-33.5	17.7	6.00e-01	0	44	102	524288	21	5327
2026-01-25 13:37:21.79	326.58	8.65	-30.1	-33.6	17.5	5.98e-01	0	44	102	524288	21	5385
2026-01-25 13:37:22.79	326.69	8.58	-30.3	-34.1	17.1	6.01e-01	0	44	102	524288	21	5591
2026-01-25 13:37:23.79	326.80	8.51	-30.3	-34.1	17.1	6.01e-01	0	44	102	524288	21	5585
2026-01-25 13:37:24.80	326.92	8.43	-30.2	-33.8	17.4	5.99e-01	0	44	102	524288	21	5450
2026-01-25 13:37:25.80	327.03	8.36	-30.3	-34.2	17.2	6.00e-01	0	44	102	524288	21	5640
2026-01-25 13:37:26.81	327.14	8.29	-30.2	-33.9	17.4	6.00e-01	0	44	102	524288	21	5492
2026-01-25 13:37:27.81	327.25	8.22	-30.2	-33.9	17.2	6.00e-01	0	44	102	524288	21	5501
2026-01-25 13:37:28.82	327.37	8.15	-30.1	-33.7	17.4	6.02e-01	0	44	102	524288	21	5420
2026-01-25 13:37:29.82	327.48	8.08	-30.3	-34.0	17.2	6.00e-01	0	44	102	524288	21	5563
2026-01-25 13:37:30.83	327.59	8.01	-30.2	-33.9	17.2	6.01e-01	0	44	102	524288	21	5505
2026-01-25 13:37:31.84	327.70	7.94	-30.5	-34.7	16.5	5.99e-01	0	44	102	524288	21	5851
2026-01-25 13:37:32.84	327.81	7.87	-30.2	-33.9	17.1	6.00e-01	0	44	102	524288	21	5512
2026-01-25 13:37:33.85	327.91	7.80	-30.3	-34.1	17.0	5.98e-01	0	44	102	524288	21	5597
2026-01-25 13:37:34.85	328.02	7.73	-30.3	-34.2	16.9	6.00e-01	0	44	102	524288	21	5633
2026-01-25 13:37:35.86	328.13	7.66	-30.2	-33.9	17.2	6.01e-01	0	44	102	524288	21	5516
2026-01-25 13:37:36.87	328.24	7.59	-30.2	-33.8	17.2	5.99e-01	0	44	102	524288	21	5474
2026-01-25 13:37:37.87	328.34	7.53	-30.2	-33.9	17.1	6.03e-01	0	44	102	524288	21	5518
2026-01-25 13:37:38.87	328.45	7.46	-30.3	-34.1	17.0	6.00e-01	0	44	102	524288	21	5607
2026-01-25 13:37:39.88	328.55	7.39	-30.3	-34.2	17.0	6.00e-01	0	44	102	524288	21	5643
2026-01-25 13:37:40.88	328.66	7.32	-30.4	-34.6	16.8	6.00e-01	0	44	102	524288	21	5813
2026-01-25 13:37:41.89	328.76	7.25	-30.3	-34.3	16.8	5.97e-01	0	44	102	524288	21	5711
2026-01-25 13:37:42.88	328.87	7.18	-30.2	-34.0	16.9	6.01e-01	0	44	102	524288	21	5555
2026-01-25 13:37:43.88	328.97	7.12	-30.3	-34.4	16.8	5.98e-01	0	44	102	524288	21	5734
2026-01-25 13:37:44.89	329.07	7.05	-33.3	-49.3	4.0	7.41e-01	0	43	104	524288	27	22582
2026-01-25 13:37:45.90	329.17	6.98	-33.8	-53.2	3.8	7.46e-01	0	44	104	524288	28	33303
2026-01-25 13:37:46.90	329.28	6.91	-34.0	-53.6	3.8	7.47e-01	0	44	104	524288	28	34304

#Closed at: 2026-01-25 13:37:47
#Recorded file [0 MB]: D:/data/31010_260125_162841.dat