passes_logs/2026/01/25/R2M6_AANII_01/R2M6_AANII_01__20260125_022510_FENGYUN_3D_rec.log

#Pass ID: 20260125_022510_FENGYUN 3D
#Satellite: FENGYUN 3D
#Configuration: FENGYUN 3D
#almurnet v.1.7.20240730
#Start time: 2026-01-25 02:25:12

#Version: 2.2.20231116
#Station: R2M6_AANII_01
#Location: 30.233357 lon 59.946436 lat
#TLE: 1 43010U 17072A   26024.51794477  .00000040  00000+0  40682-4 0  9990
#TLE: 2 43010  98.9961 356.4820 0002494  91.2631 268.8830 14.19699550424601

#Time	Az	El	Level	Level2	SNR	BER	BlckErr	Temp	State	Recorded	gain1	gain2
2026-01-25 02:25:12.42	18.78	7.15	-34.1	-45.2	3.8	8.46e-01	0	44	0	0	28	12998
2026-01-25 02:25:13.42	18.79	7.23	-34.2	-45.4	3.8	8.47e-01	0	44	104	0	28	13152
2026-01-25 02:25:14.42	18.79	7.30	-34.1	-45.4	3.8	8.46e-01	0	44	104	0	28	13112
2026-01-25 02:25:15.43	18.80	7.38	-34.1	-45.2	3.8	8.46e-01	0	44	104	0	28	13050
2026-01-25 02:25:16.43	18.80	7.46	-34.0	-45.0	3.8	8.45e-01	0	44	104	0	28	12881
2026-01-25 02:25:17.43	18.81	7.54	-33.9	-44.9	3.8	8.46e-01	0	44	104	0	28	12770
2026-01-25 02:25:18.44	18.81	7.62	-33.9	-45.3	3.8	8.46e-01	0	44	104	0	27	13478
2026-01-25 02:25:19.43	18.82	7.70	-33.8	-45.1	3.8	8.47e-01	0	44	104	0	27	13290
2026-01-25 02:25:20.44	18.83	7.78	-33.6	-44.8	3.8	8.45e-01	0	44	104	0	27	13104
2026-01-25 02:25:21.44	18.83	7.85	-33.6	-44.7	3.8	8.45e-01	0	44	104	0	27	12993
2026-01-25 02:25:22.45	18.84	7.93	-33.5	-44.7	3.8	8.48e-01	0	44	104	0	27	12946
2026-01-25 02:25:23.45	18.84	8.01	-33.5	-44.5	3.8	8.47e-01	0	44	104	0	27	12818
2026-01-25 02:25:24.46	18.85	8.10	-33.4	-44.9	3.8	8.47e-01	0	44	104	0	26	13552
2026-01-25 02:25:25.47	18.85	8.18	-33.3	-44.7	3.8	8.45e-01	0	44	104	0	26	13322
2026-01-25 02:25:26.47	18.86	8.26	-33.2	-44.5	3.8	8.47e-01	0	44	104	0	26	13210
2026-01-25 02:25:27.48	18.87	8.34	-33.1	-44.3	3.8	8.47e-01	0	44	104	0	26	13056
2026-01-25 02:25:28.49	18.87	8.42	-32.9	-44.3	3.8	8.46e-01	0	44	104	0	25	13352
2026-01-25 02:25:29.49	18.88	8.50	-32.7	-43.1	3.8	8.47e-01	0	44	104	0	25	12038
2026-01-25 02:25:30.49	18.88	8.58	-32.1	-39.6	4.0	8.40e-01	0	44	104	0	24	8617
2026-01-25 02:25:31.49	18.89	8.67	-32.0	-39.1	4.6	8.22e-01	0	44	104	0	24	8155
2026-01-25 02:25:32.49	18.89	8.75	-31.9	-38.6	4.7	8.04e-01	0	44	0	0	24	7801
2026-01-25 02:25:33.49	18.90	8.83	-31.8	-38.6	4.9	7.92e-01	0	44	0	0	23	7902
2026-01-25 02:25:34.49	18.91	8.91	-31.7	-38.2	5.1	7.65e-01	0	44	0	0	23	7554
2026-01-25 02:25:35.49	18.91	9.00	-31.5	-37.3	5.6	7.08e-01	0	44	0	0	23	7008
2026-01-25 02:25:36.49	18.92	9.08	-31.4	-37.1	6.0	4.53e-01	0	44	102	1048576	22	6962
2026-01-25 02:25:37.49	18.92	9.16	-31.1	-36.0	6.6	2.74e-01	0	44	102	1048576	22	6329
2026-01-25 02:25:38.49	18.93	9.25	-30.8	-34.9	7.3	1.63e-01	0	44	102	1048576	22	5791
2026-01-25 02:25:39.49	18.94	9.33	-30.4	-34.3	8.0	8.62e-02	0	44	102	1048576	21	5620
2026-01-25 02:25:40.50	18.94	9.42	-30.1	-33.7	8.8	4.84e-02	0	44	102	1048576	20	5447
2026-01-25 02:25:41.50	18.95	9.50	-29.7	-32.5	9.6	2.29e-02	0	44	102	1048576	20	5005
2026-01-25 02:25:42.51	18.95	9.59	-29.4	-32.2	10.3	1.09e-02	0	44	102	1048576	19	4963
2026-01-25 02:25:43.51	18.96	9.67	-29.0	-31.8	10.8	5.96e-03	0	44	102	1048576	18	4934
2026-01-25 02:25:44.51	18.96	9.76	-28.8	-31.1	11.3	1.93e-03	0	44	102	1048576	18	4699
2026-01-25 02:25:45.51	18.97	9.84	-28.6	-31.1	11.6	2.87e-03	0	44	102	1048576	17	4816
2026-01-25 02:25:46.51	18.98	9.93	-28.4	-31.2	11.8	7.17e-04	0	44	102	1048576	16	4952
2026-01-25 02:25:47.52	18.98	10.02	-28.3	-30.9	12.0	5.72e-04	0	45	102	1048576	16	4847
2026-01-25 02:25:48.52	18.99	10.10	-28.4	-31.1	11.9	5.78e-04	0	44	102	1048576	16	4920
2026-01-25 02:25:49.52	18.99	10.19	-28.5	-31.3	11.8	2.32e-03	0	44	102	1048576	16	4999
2026-01-25 02:25:50.53	19.00	10.28	-28.5	-30.8	11.8	9.49e-04	0	44	102	1048576	17	4716
2026-01-25 02:25:51.53	19.01	10.37	-28.5	-30.9	11.7	6.75e-04	0	45	102	1048576	17	4749
2026-01-25 02:25:52.54	19.01	10.46	-28.6	-31.1	11.6	2.49e-03	0	44	102	1048576	17	4806
2026-01-25 02:25:53.54	19.02	10.54	-28.6	-31.0	11.7	8.63e-04	0	44	102	1048576	17	4774
2026-01-25 02:25:54.54	19.02	10.63	-28.4	-30.7	11.9	2.39e-03	0	44	102	1048576	17	4668
2026-01-25 02:25:55.54	19.03	10.72	-28.0	-30.2	12.5	2.78e-04	0	44	102	1048576	16	4623
2026-01-25 02:25:56.55	19.04	10.81	-27.6	-29.2	13.1	8.23e-05	0	44	102	1048576	16	4314
2026-01-25 02:25:57.55	19.04	10.90	-27.0	-28.4	13.7	1.25e-05	0	44	102	1048576	15	4201
2026-01-25 02:25:58.55	19.05	10.99	-26.7	-28.1	14.2	4.50e-06	0	44	102	1048576	14	4220
2026-01-25 02:25:59.56	19.05	11.08	-26.3	-27.2	14.7	8.00e-06	0	44	102	1048576	14	4003
2026-01-25 02:26:00.56	19.06	11.17	-26.0	-27.6	15.0	2.20e-06	0	44	102	1048576	12	4305
2026-01-25 02:26:01.56	19.07	11.26	-25.9	-27.4	15.1	0.00e+00	0	44	102	1048576	12	4255
2026-01-25 02:26:02.57	19.07	11.36	-26.1	-27.7	15.0	1.10e-06	0	44	102	1048576	12	4342
2026-01-25 02:26:03.57	19.08	11.45	-26.1	-27.7	15.0	0.00e+00	0	44	102	1048576	12	4328
2026-01-25 02:26:04.57	19.08	11.54	-26.0	-27.5	15.1	0.00e+00	0	44	102	1048576	12	4293
2026-01-25 02:26:05.57	19.09	11.63	-26.1	-27.7	15.0	0.00e+00	0	44	102	1048576	12	4333
2026-01-25 02:26:06.58	19.10	11.73	-26.0	-27.6	15.1	0.00e+00	0	44	102	1048576	12	4302
2026-01-25 02:26:07.58	19.10	11.82	-26.0	-27.6	15.1	0.00e+00	0	44	102	1048576	12	4309
2026-01-25 02:26:08.57	19.11	11.91	-26.0	-27.5	15.1	0.00e+00	0	44	102	1048576	12	4274
2026-01-25 02:26:09.58	19.11	12.01	-26.1	-27.7	15.0	0.00e+00	0	44	102	1048576	12	4347
2026-01-25 02:26:10.58	19.12	12.10	-26.2	-28.0	14.9	1.10e-06	0	44	102	1048576	12	4408
2026-01-25 02:26:11.59	19.13	12.20	-26.0	-27.5	15.2	0.00e+00	0	44	102	1048576	12	4274
2026-01-25 02:26:12.59	19.13	12.29	-25.7	-26.9	15.5	0.00e+00	0	44	102	1048576	12	4117
2026-01-25 02:26:13.60	19.14	12.39	-25.6	-27.2	15.7	0.00e+00	0	44	102	1048576	11	4312
2026-01-25 02:26:14.61	19.15	12.48	-25.7	-27.3	15.6	0.00e+00	0	44	102	1048576	11	4326
2026-01-25 02:26:15.61	19.15	12.58	-25.7	-27.3	15.6	0.00e+00	0	44	102	1048576	11	4326
2026-01-25 02:26:16.62	19.16	12.68	-25.7	-27.2	15.7	0.00e+00	0	44	102	1048576	11	4306
2026-01-25 02:26:17.63	19.16	12.77	-25.7	-27.4	15.6	0.00e+00	0	44	102	1048576	11	4347
2026-01-25 02:26:18.63	19.17	12.87	-25.7	-27.2	15.7	0.00e+00	0	44	102	1048576	11	4318
2026-01-25 02:26:19.63	19.18	12.97	-25.6	-27.2	15.7	0.00e+00	0	44	102	1048576	11	4304
2026-01-25 02:26:20.64	19.18	13.07	-25.6	-27.1	15.7	0.00e+00	0	44	102	1048576	11	4292
2026-01-25 02:26:21.65	19.19	13.17	-25.7	-27.3	15.7	0.00e+00	0	44	102	1048576	11	4328
2026-01-25 02:26:22.66	19.20	13.27	-25.6	-27.1	15.8	0.00e+00	0	44	102	1048576	11	4283
2026-01-25 02:26:23.66	19.20	13.37	-25.5	-26.9	15.8	0.00e+00	0	44	102	1048576	11	4238
2026-01-25 02:26:24.66	19.21	13.47	-25.5	-26.8	15.9	0.00e+00	0	44	102	1048576	11	4199
2026-01-25 02:26:25.67	19.22	13.57	-25.5	-26.9	15.9	0.00e+00	0	44	102	1048576	11	4225
2026-01-25 02:26:26.68	19.22	13.67	-25.5	-26.8	15.9	0.00e+00	0	44	102	1048576	11	4205
2026-01-25 02:26:27.69	19.23	13.77	-25.5	-26.8	15.9	0.00e+00	0	44	102	1048576	11	4209
2026-01-25 02:26:28.69	19.23	13.87	-25.7	-27.2	15.7	0.00e+00	0	44	102	1048576	11	4313
2026-01-25 02:26:29.69	19.24	13.97	-25.6	-27.0	15.9	0.00e+00	0	44	102	1048576	11	4249
2026-01-25 02:26:30.70	19.25	14.08	-25.3	-26.5	16.1	0.00e+00	0	44	102	1048576	11	4127
2026-01-25 02:26:31.69	19.25	14.18	-25.3	-26.5	16.1	0.00e+00	0	44	102	1048576	11	4118
2026-01-25 02:26:32.70	19.26	14.28	-25.3	-26.4	16.2	0.00e+00	0	44	102	1048576	11	4081
2026-01-25 02:26:33.71	19.27	14.39	-25.3	-26.9	16.2	0.00e+00	0	44	102	1048576	10	4327
2026-01-25 02:26:34.71	19.27	14.49	-25.3	-27.0	16.2	0.00e+00	0	44	102	1048576	10	4364
2026-01-25 02:26:35.72	19.28	14.60	-25.2	-26.7	16.3	0.00e+00	0	44	102	1048576	10	4287
2026-01-25 02:26:36.73	19.29	14.70	-25.1	-26.6	16.4	0.00e+00	0	44	102	1048576	10	4251
2026-01-25 02:26:37.73	19.29	14.81	-25.1	-26.5	16.4	0.00e+00	0	44	102	1048576	10	4240
2026-01-25 02:26:38.74	19.30	14.91	-25.1	-26.5	16.4	0.00e+00	0	44	102	1048576	10	4233
2026-01-25 02:26:39.75	19.31	15.02	-25.1	-26.5	16.4	0.00e+00	0	44	102	1048576	10	4222
2026-01-25 02:26:40.75	19.31	15.13	-25.2	-26.6	16.4	0.00e+00	0	44	102	1048576	10	4256
2026-01-25 02:26:41.75	19.32	15.23	-25.0	-26.3	16.5	0.00e+00	0	44	102	1048576	10	4173
2026-01-25 02:26:42.75	19.33	15.34	-24.5	-25.5	16.6	0.00e+00	0	44	102	1048576	10	4067
2026-01-25 02:26:43.76	19.33	15.45	-24.9	-26.1	16.6	0.00e+00	0	44	102	1048576	10	4114
2026-01-25 02:26:44.76	19.34	15.56	-25.0	-26.4	13.7	0.00e+00	0	44	102	1048576	10	4197
2026-01-25 02:26:45.76	19.35	15.67	-24.9	-26.1	16.3	0.00e+00	0	44	102	1048576	10	4118
2026-01-25 02:26:46.77	19.35	15.78	-24.9	-26.0	16.7	0.00e+00	0	44	102	1048576	10	4105
2026-01-25 02:26:47.76	19.36	15.89	-24.8	-25.9	16.8	0.00e+00	0	44	102	1048576	10	4075
2026-01-25 02:26:48.77	19.37	16.00	-24.9	-26.0	16.7	0.00e+00	0	44	102	1048576	10	4106
2026-01-25 02:26:49.77	19.37	16.11	-24.8	-25.9	16.8	0.00e+00	0	44	102	1048576	10	4073
2026-01-25 02:26:50.78	19.38	16.22	-24.7	-26.2	16.9	0.00e+00	0	44	102	1048576	9	4253
2026-01-25 02:26:51.78	19.39	16.34	-24.7	-26.1	16.9	9.31e-04	0	44	102	1048576	9	4230
2026-01-25 02:26:52.78	19.39	16.45	-24.6	-25.9	17.0	0.00e+00	0	44	102	1048576	9	4193
2026-01-25 02:26:53.79	19.40	16.56	-24.7	-26.1	16.9	8.41e-04	0	44	102	1048576	9	4224
2026-01-25 02:26:54.80	19.41	16.68	-24.5	-25.8	17.1	0.00e+00	0	44	102	1048576	9	4157
2026-01-25 02:26:55.80	19.41	16.79	-24.5	-25.8	17.1	0.00e+00	0	44	102	1048576	9	4148
2026-01-25 02:26:56.81	19.42	16.91	-24.5	-25.7	17.1	8.02e-04	0	44	102	1048576	9	4128
2026-01-25 02:26:57.82	19.43	17.02	-24.5	-25.8	17.1	0.00e+00	0	44	102	1048576	9	4152
2026-01-25 02:26:58.82	19.43	17.14	-24.7	-26.2	16.9	0.00e+00	0	44	102	1048576	9	4271
2026-01-25 02:26:59.82	19.44	17.26	-24.7	-26.2	17.0	0.00e+00	0	44	102	1048576	9	4250
2026-01-25 02:27:00.82	19.45	17.37	-24.7	-26.1	17.0	8.08e-04	0	44	102	1048576	9	4231
2026-01-25 02:27:01.82	19.46	17.49	-24.6	-26.0	17.0	0.00e+00	0	44	102	1048576	9	4199
2026-01-25 02:27:02.82	19.46	17.61	-24.8	-26.3	16.9	7.86e-04	0	44	102	1048576	9	4286
2026-01-25 02:27:03.82	19.47	17.73	-24.8	-26.2	16.9	7.57e-04	0	44	102	1048576	9	4268
2026-01-25 02:27:04.83	19.48	17.85	-24.7	-26.2	16.9	0.00e+00	0	44	102	1048576	9	4246
2026-01-25 02:27:05.84	19.48	17.97	-25.0	-26.7	16.6	7.64e-04	0	44	102	1048576	9	4406
2026-01-25 02:27:06.84	19.49	18.09	-24.8	-25.7	16.9	0.00e+00	0	44	102	1048576	10	4034
2026-01-25 02:27:07.85	19.50	18.21	-24.5	-25.1	17.2	0.00e+00	0	44	102	1048576	10	3885
2026-01-25 02:27:08.85	19.51	18.33	-24.3	-25.2	17.5	8.23e-04	0	44	102	1048576	9	3994
2026-01-25 02:27:09.86	19.51	18.46	-24.3	-25.6	17.5	8.07e-04	0	44	102	1048576	8	4228
2026-01-25 02:27:10.87	19.52	18.58	-24.1	-25.3	17.7	0.00e+00	0	44	102	1048576	8	4140
2026-01-25 02:27:11.88	19.53	18.70	-24.2	-25.6	17.6	7.56e-04	0	44	102	1048576	8	4204
2026-01-25 02:27:12.88	19.53	18.83	-24.1	-25.4	17.7	7.41e-04	0	44	102	1048576	8	4158
2026-01-25 02:27:13.88	19.54	18.95	-23.9	-24.9	17.9	0.00e+00	0	44	102	1048576	8	4045
2026-01-25 02:27:14.88	19.55	19.08	-23.7	-24.5	18.1	6.90e-04	0	44	102	1048576	8	3943
2026-01-25 02:27:15.89	19.56	19.21	-23.6	-24.7	18.2	0.00e+00	0	44	102	1048576	7	4098
2026-01-25 02:27:16.89	19.56	19.33	-23.5	-24.6	18.3	0.00e+00	0	44	102	1048576	7	4077
2026-01-25 02:27:17.90	19.57	19.46	-23.5	-24.6	18.3	7.53e-04	0	44	102	1048576	7	4061
2026-01-25 02:27:18.90	19.58	19.59	-23.5	-24.5	18.3	7.37e-04	0	44	102	1048576	7	4056
2026-01-25 02:27:19.90	19.59	19.72	-23.6	-24.7	18.2	0.00e+00	0	44	102	1048576	7	4096
2026-01-25 02:27:20.90	19.59	19.85	-23.5	-24.4	18.4	0.00e+00	0	44	102	1048576	7	4027
2026-01-25 02:27:21.91	19.60	19.98	-23.4	-24.4	18.4	6.60e-04	0	44	102	1048576	7	4021
2026-01-25 02:27:22.91	19.61	20.11	-23.5	-24.5	18.4	0.00e+00	0	44	102	1048576	7	4054
2026-01-25 02:27:23.91	19.62	20.24	-23.4	-24.3	18.5	6.30e-04	0	44	102	1048576	7	4004
2026-01-25 02:27:24.92	19.62	20.37	-23.4	-24.3	18.5	7.45e-04	0	44	102	1048576	7	3996
2026-01-25 02:27:25.92	19.63	20.51	-23.5	-24.6	18.3	0.00e+00	0	44	102	1048576	7	4064
2026-01-25 02:27:26.92	19.64	20.64	-23.5	-24.5	18.4	7.67e-04	0	44	102	1048576	7	4052
2026-01-25 02:27:27.92	19.65	20.77	-23.6	-24.6	18.3	0.00e+00	0	44	102	1048576	7	4083
2026-01-25 02:27:28.93	19.65	20.91	-23.7	-25.0	18.2	0.00e+00	0	44	102	1048576	7	4161
2026-01-25 02:27:29.93	19.66	21.05	-23.6	-24.7	18.3	0.00e+00	0	44	102	1048576	7	4109
2026-01-25 02:27:30.93	19.67	21.18	-23.6	-24.8	18.3	0.00e+00	0	44	102	1048576	7	4106
2026-01-25 02:27:31.93	19.68	21.32	-23.6	-24.7	18.3	0.00e+00	0	44	102	1048576	7	4104
2026-01-25 02:27:32.94	19.69	21.46	-23.7	-25.0	18.2	0.00e+00	0	44	102	1048576	7	4173
2026-01-25 02:27:33.93	19.69	21.60	-23.6	-24.8	18.3	0.00e+00	0	44	102	1048576	7	4122
2026-01-25 02:27:34.94	19.70	21.74	-23.6	-24.8	18.3	0.00e+00	0	44	102	1048576	7	4132
2026-01-25 02:27:35.95	19.71	21.88	-23.7	-24.9	18.2	7.45e-04	0	44	102	1048576	7	4149
2026-01-25 02:27:36.96	19.72	22.02	-23.8	-25.3	18.0	0.00e+00	0	44	102	1048576	7	4235
2026-01-25 02:27:37.96	19.73	22.16	-23.7	-24.9	18.2	0.00e+00	0	44	102	1048576	7	4160
2026-01-25 02:27:38.96	19.73	22.31	-23.5	-24.6	18.4	0.00e+00	0	44	102	1048576	7	4072
2026-01-25 02:27:39.97	19.74	22.45	-23.3	-24.1	18.6	0.00e+00	0	44	102	1048576	7	3960
2026-01-25 02:27:40.98	19.75	22.60	-23.4	-24.3	18.6	0.00e+00	0	44	102	1048576	7	3992
2026-01-25 02:27:41.98	19.76	22.74	-23.3	-24.2	18.6	0.00e+00	0	44	102	1048576	7	3970
2026-01-25 02:27:42.99	19.77	22.89	-23.4	-24.3	18.6	0.00e+00	0	44	102	1048576	7	4000
2026-01-25 02:27:43.98	19.77	23.03	-23.6	-24.8	18.3	0.00e+00	0	44	102	1048576	7	4121
2026-01-25 02:27:44.98	19.78	23.18	-23.4	-24.4	18.5	0.00e+00	0	44	102	1048576	7	4018
2026-01-25 02:27:45.98	19.79	23.33	-23.3	-24.1	18.7	0.00e+00	0	44	102	1048576	7	3949
2026-01-25 02:27:46.98	19.80	23.48	-23.3	-24.1	18.7	0.00e+00	0	44	102	1048576	7	3945
2026-01-25 02:27:47.99	19.81	23.63	-23.4	-24.4	18.5	0.00e+00	0	44	102	1048576	7	4027
2026-01-25 02:27:48.98	19.82	23.78	-23.3	-24.1	18.7	0.00e+00	0	44	102	1048576	7	3955
2026-01-25 02:27:49.99	19.82	23.93	-23.3	-24.1	18.7	0.00e+00	0	44	102	1048576	7	3955
2026-01-25 02:27:51.00	19.83	24.09	-23.4	-24.3	18.6	0.00e+00	0	44	102	1048576	7	3997
2026-01-25 02:27:52.00	19.84	24.24	-23.3	-24.1	18.7	0.00e+00	0	44	102	1048576	7	3945
2026-01-25 02:27:53.00	19.85	24.40	-23.1	-23.7	18.9	0.00e+00	0	44	102	1048576	7	3868
2026-01-25 02:27:54.00	19.86	24.55	-23.0	-24.0	19.0	0.00e+00	0	44	102	1048576	6	4030
2026-01-25 02:27:55.01	19.87	24.71	-22.9	-23.8	19.1	0.00e+00	0	44	102	1048576	6	3977
2026-01-25 02:27:56.01	19.88	24.87	-22.8	-23.6	19.2	0.00e+00	0	44	102	1048576	6	3929
2026-01-25 02:27:57.01	19.89	25.02	-22.8	-23.7	19.2	0.00e+00	0	44	102	1048576	6	3954
2026-01-25 02:27:58.01	19.89	25.18	-22.7	-23.3	19.4	0.00e+00	0	44	102	1048576	6	3868
2026-01-25 02:27:59.02	19.90	25.35	-22.7	-23.3	19.4	0.00e+00	0	44	102	1048576	6	3880
2026-01-25 02:28:00.02	19.91	25.51	-22.8	-23.6	19.3	0.00e+00	0	44	102	1048576	6	3929
2026-01-25 02:28:01.02	19.92	25.67	-22.7	-23.3	19.4	0.00e+00	0	44	102	1048576	6	3858
2026-01-25 02:28:02.03	19.93	25.83	-22.7	-23.3	19.4	0.00e+00	0	44	102	1048576	6	3872
2026-01-25 02:28:03.03	19.94	26.00	-22.8	-23.6	19.3	0.00e+00	0	44	102	1048576	6	3929
2026-01-25 02:28:04.03	19.95	26.16	-22.7	-23.4	19.3	0.00e+00	0	44	102	1048576	6	3905
2026-01-25 02:28:05.03	19.96	26.33	-22.7	-23.3	19.4	0.00e+00	0	44	102	1048576	6	3874
2026-01-25 02:28:06.03	19.97	26.50	-22.6	-23.7	19.5	0.00e+00	0	44	102	1048576	5	4070
2026-01-25 02:28:07.04	19.98	26.67	-22.6	-23.7	19.5	0.00e+00	0	44	102	1048576	5	4070
2026-01-25 02:28:08.04	19.99	26.84	-22.5	-23.5	19.5	0.00e+00	0	44	102	1048576	5	4032
2026-01-25 02:28:09.04	20.00	27.01	-22.6	-23.6	19.5	0.00e+00	0	44	102	1048576	5	4058
2026-01-25 02:28:10.04	20.01	27.18	-22.5	-23.4	19.6	0.00e+00	0	44	102	1048576	5	4006
2026-01-25 02:28:11.04	20.01	27.35	-22.5	-23.5	19.6	0.00e+00	0	44	102	1048576	5	4029
2026-01-25 02:28:12.05	20.02	27.53	-22.5	-23.5	19.6	0.00e+00	0	44	102	1048576	5	4013
2026-01-25 02:28:13.06	20.03	27.70	-22.6	-23.7	19.5	0.00e+00	0	44	102	1048576	5	4069
2026-01-25 02:28:14.06	20.04	27.88	-22.6	-23.5	19.5	0.00e+00	0	44	102	1048576	5	4033
2026-01-25 02:28:15.06	20.05	28.06	-22.5	-23.5	19.6	0.00e+00	0	44	102	1048576	5	4021
2026-01-25 02:28:16.07	20.06	28.24	-22.7	-23.9	19.4	0.00e+00	0	44	102	1048576	5	4114
2026-01-25 02:28:17.07	20.07	28.42	-22.7	-23.8	19.4	0.00e+00	0	44	102	1048576	5	4104
2026-01-25 02:28:18.06	20.08	28.60	-22.8	-24.1	19.3	0.00e+00	0	44	102	1048576	5	4169
2026-01-25 02:28:19.07	20.09	28.78	-22.8	-24.0	19.3	0.00e+00	0	44	102	1048576	5	4155
2026-01-25 02:28:20.08	20.10	28.97	-22.7	-23.9	19.4	0.00e+00	0	44	102	1048576	5	4132
2026-01-25 02:28:21.08	20.11	29.15	-22.8	-24.1	19.3	0.00e+00	0	44	102	1048576	5	4173
2026-01-25 02:28:22.09	20.12	29.34	-22.8	-24.1	19.3	0.00e+00	0	44	102	1048576	5	4167
2026-01-25 02:28:23.09	20.13	29.52	-22.8	-24.0	14.8	0.00e+00	0	44	102	1048576	5	4147
2026-01-25 02:28:24.10	20.15	29.71	-22.9	-24.2	17.4	0.00e+00	0	44	102	1048576	5	4191
2026-01-25 02:28:25.11	20.16	29.91	-22.8	-24.0	19.4	0.00e+00	0	44	102	1048576	5	4140
2026-01-25 02:28:26.11	20.17	30.10	-22.8	-24.0	19.4	8.33e-04	0	44	102	1048576	5	4138
2026-01-25 02:28:27.12	20.18	30.29	-22.9	-24.3	19.2	0.00e+00	0	44	102	1048576	5	4218
2026-01-25 02:28:28.13	20.19	30.48	-22.8	-24.1	19.3	0.00e+00	0	44	102	1048576	5	4170
2026-01-25 02:28:29.13	20.20	30.68	-23.0	-24.4	19.2	0.00e+00	0	44	102	1048576	5	4241
2026-01-25 02:28:30.13	20.21	30.88	-22.9	-24.2	19.3	0.00e+00	0	44	102	1048576	5	4202
2026-01-25 02:28:31.14	20.22	31.07	-23.0	-24.4	19.2	0.00e+00	0	44	102	1048576	5	4251
2026-01-25 02:28:32.15	20.23	31.27	-22.8	-24.0	19.4	0.00e+00	0	44	102	1048576	5	4145
2026-01-25 02:28:33.15	20.24	31.47	-22.6	-23.6	19.6	8.16e-04	0	44	102	1048576	5	4047
2026-01-25 02:28:34.16	20.25	31.68	-22.6	-23.7	19.6	0.00e+00	0	44	102	1048576	5	4064
2026-01-25 02:28:35.16	20.27	31.88	-22.7	-23.9	19.4	7.24e-04	0	44	102	1048576	5	4125
2026-01-25 02:28:36.16	20.28	32.08	-22.6	-23.5	19.6	0.00e+00	0	44	102	1048576	5	4034
2026-01-25 02:28:37.16	20.29	32.29	-22.5	-23.3	19.8	0.00e+00	0	44	102	1048576	5	3983
2026-01-25 02:28:38.17	20.30	32.50	-22.5	-23.4	19.7	8.15e-04	0	44	102	1048576	5	3998
2026-01-25 02:28:39.17	20.31	32.71	-22.4	-23.2	19.8	0.00e+00	0	44	102	1048576	5	3955
2026-01-25 02:28:40.17	20.32	32.92	-22.5	-23.4	19.7	0.00e+00	0	44	102	1048576	5	3989
2026-01-25 02:28:41.17	20.34	33.13	-22.5	-23.5	19.7	0.00e+00	0	44	102	1048576	5	4030
2026-01-25 02:28:42.18	20.35	33.34	-22.7	-23.8	19.5	7.69e-04	0	44	102	1048576	5	4108
2026-01-25 02:28:43.18	20.36	33.56	-22.7	-24.0	19.4	0.00e+00	0	44	102	1048576	5	4138
2026-01-25 02:28:44.17	20.37	33.77	-23.0	-24.4	19.2	7.32e-04	0	44	102	1048576	5	4238
2026-01-25 02:28:45.18	20.39	33.99	-22.7	-24.0	19.5	7.85e-04	0	44	102	1048576	5	4136
2026-01-25 02:28:46.18	20.40	34.21	-22.6	-23.7	19.6	0.00e+00	0	44	102	1048576	5	4064
2026-01-25 02:28:47.19	20.41	34.43	-22.5	-23.5	19.7	8.26e-04	0	44	102	1048576	5	4019
2026-01-25 02:28:48.19	20.42	34.65	-22.6	-23.6	19.6	8.09e-04	0	44	102	1048576	5	4056
2026-01-25 02:28:49.19	20.44	34.88	-22.7	-23.9	19.5	0.00e+00	0	44	102	1048576	5	4135
2026-01-25 02:28:50.20	20.45	35.11	-22.8	-24.0	19.5	8.03e-04	0	44	102	1048576	5	4143
2026-01-25 02:28:51.20	20.46	35.33	-22.7	-23.8	19.5	7.79e-04	0	44	102	1048576	5	4099
2026-01-25 02:28:52.21	20.48	35.56	-22.8	-24.0	19.5	0.00e+00	0	44	102	1048576	5	4138
2026-01-25 02:28:53.21	20.49	35.79	-22.7	-23.9	19.5	7.26e-04	0	44	102	1048576	5	4128
2026-01-25 02:28:54.22	20.50	36.03	-22.8	-24.0	19.5	7.87e-04	0	44	102	1048576	5	4141
2026-01-25 02:28:55.22	20.52	36.26	-22.6	-23.6	19.7	0.00e+00	0	44	102	1048576	5	4047
2026-01-25 02:28:56.22	20.53	36.50	-22.7	-23.7	19.6	7.40e-04	0	44	102	1048576	5	4077
2026-01-25 02:28:57.23	20.54	36.74	-22.7	-23.9	19.5	7.04e-04	0	44	102	1048576	5	4116
2026-01-25 02:28:58.23	20.56	36.98	-22.4	-23.2	19.9	0.00e+00	0	44	102	1048576	5	3957
2026-01-25 02:28:59.24	20.57	37.22	-22.2	-22.8	20.1	7.00e-04	0	44	102	1048576	5	3846
2026-01-25 02:29:00.24	20.59	37.46	-22.1	-22.6	20.2	0.00e+00	0	44	102	1048576	5	3821
2026-01-25 02:29:01.24	20.60	37.71	-22.4	-23.2	19.9	0.00e+00	0	44	102	1048576	5	3945
2026-01-25 02:29:02.25	20.62	37.95	-22.6	-23.6	19.7	0.00e+00	0	44	102	1048576	5	4049
2026-01-25 02:29:03.25	20.63	38.20	-22.6	-23.6	19.7	6.66e-04	0	44	102	1048576	5	4051
2026-01-25 02:29:04.25	20.65	38.45	-22.7	-23.8	19.6	0.00e+00	0	44	102	1048576	5	4099
2026-01-25 02:29:05.25	20.66	38.70	-22.5	-23.3	19.8	0.00e+00	0	44	102	1048576	5	3981
2026-01-25 02:29:06.25	20.68	38.96	-22.5	-23.4	19.8	6.25e-04	0	44	102	1048576	5	3996
2026-01-25 02:29:07.26	20.69	39.21	-22.4	-23.3	19.9	0.00e+00	0	44	102	1048576	5	3969
2026-01-25 02:29:08.26	20.71	39.47	-22.3	-23.5	20.0	6.05e-04	0	44	102	1048576	4	4129
2026-01-25 02:29:09.27	20.72	39.73	-22.5	-23.4	19.8	0.00e+00	0	44	102	1048576	5	4009
2026-01-25 02:29:10.27	20.74	39.99	-22.4	-23.1	19.9	0.00e+00	0	44	102	1048576	5	3934
2026-01-25 02:29:11.27	20.76	40.26	-22.3	-22.9	20.1	0.00e+00	0	44	102	1048576	5	3890
2026-01-25 02:29:12.27	20.77	40.52	-22.3	-23.0	20.0	0.00e+00	0	44	102	1048576	5	3906
2026-01-25 02:29:13.27	20.79	40.79	-22.4	-23.3	19.9	0.00e+00	0	44	102	1048576	5	3961
2026-01-25 02:29:14.27	20.81	41.06	-22.4	-23.2	19.9	0.00e+00	0	44	102	1048576	5	3948
2026-01-25 02:29:15.28	20.82	41.33	-22.4	-23.2	20.0	3.05e-04	0	44	102	1048576	5	3938
2026-01-25 02:29:16.28	20.84	41.60	-22.5	-23.5	19.8	0.00e+00	0	44	102	1048576	5	4023
2026-01-25 02:29:17.29	20.86	41.88	-22.7	-23.9	19.6	0.00e+00	0	44	102	1048576	5	4112
2026-01-25 02:29:18.29	20.88	42.16	-22.5	-23.5	19.8	0.00e+00	0	44	102	1048576	5	4021
2026-01-25 02:29:19.29	20.90	42.44	-22.5	-23.5	19.8	0.00e+00	0	44	102	1048576	5	4018
2026-01-25 02:29:20.29	20.91	42.72	-22.7	-23.8	19.7	0.00e+00	0	44	102	1048576	5	4089
2026-01-25 02:29:21.30	20.93	43.01	-22.7	-23.8	19.7	0.00e+00	0	44	102	1048576	5	4083
2026-01-25 02:29:22.30	20.95	43.29	-22.6	-23.7	19.7	0.00e+00	0	44	102	1048576	5	4060
2026-01-25 02:29:23.30	20.97	43.58	-22.7	-23.8	19.7	0.00e+00	0	44	102	1048576	5	4087
2026-01-25 02:29:24.31	20.99	43.87	-22.8	-24.1	19.5	0.00e+00	0	44	102	1048576	5	4175
2026-01-25 02:29:25.32	21.01	44.17	-22.8	-24.0	19.6	0.00e+00	0	44	102	1048576	5	4143
2026-01-25 02:29:26.32	21.03	44.46	-23.1	-24.1	19.3	0.00e+00	0	44	102	1048576	6	4058
2026-01-25 02:29:27.32	21.05	44.76	-23.5	-24.6	18.8	0.00e+00	0	44	102	1048576	7	4062
2026-01-25 02:29:28.32	21.07	45.06	-23.8	-25.2	18.5	0.00e+00	0	44	102	1048576	7	4222
2026-01-25 02:29:29.33	21.09	45.36	-24.0	-25.5	18.3	0.00e+00	0	44	102	1048576	7	4309
2026-01-25 02:29:30.33	21.11	45.67	-24.0	-25.0	18.4	0.00e+00	0	44	102	1048576	8	4055
2026-01-25 02:29:31.34	21.14	45.98	-23.9	-24.8	18.5	0.00e+00	0	44	102	1048576	8	4011
2026-01-25 02:29:32.35	21.16	46.29	-23.9	-24.9	18.4	0.00e+00	0	44	102	1048576	8	4030
2026-01-25 02:29:33.35	21.18	46.60	-24.0	-25.0	18.4	0.00e+00	0	44	102	1048576	8	4039
2026-01-25 02:29:34.36	21.20	46.92	-23.8	-24.7	18.6	0.00e+00	0	44	102	1048576	8	3968
2026-01-25 02:29:35.37	21.23	47.23	-24.1	-25.2	18.3	0.00e+00	0	44	102	1048576	8	4106
2026-01-25 02:29:36.37	21.25	47.55	-24.1	-25.2	18.3	0.00e+00	0	44	102	1048576	8	4110
2026-01-25 02:29:37.37	21.27	47.87	-24.3	-25.7	18.0	0.00e+00	0	44	102	1048576	8	4238
2026-01-25 02:29:38.38	21.30	48.20	-23.9	-24.9	18.5	0.00e+00	0	44	102	1048576	8	4028
2026-01-25 02:29:39.38	21.32	48.52	-23.5	-24.0	18.9	0.00e+00	0	44	102	1048576	8	3811
2026-01-25 02:29:40.39	21.35	48.85	-23.4	-23.7	19.1	0.00e+00	0	44	102	1048576	8	3738
2026-01-25 02:29:41.39	21.38	49.18	-23.3	-23.5	19.2	0.00e+00	0	44	102	1048576	8	3695
2026-01-25 02:29:42.40	21.40	49.52	-23.3	-24.0	19.1	0.00e+00	0	44	102	1048576	7	3919
2026-01-25 02:29:43.40	21.43	49.86	-23.5	-24.5	18.9	0.00e+00	0	44	102	1048576	7	4050
2026-01-25 02:29:44.40	21.46	50.19	-23.6	-24.8	18.8	0.00e+00	0	44	102	1048576	7	4102
2026-01-25 02:29:45.41	21.48	50.54	-23.1	-23.6	19.4	0.00e+00	0	44	102	1048576	7	3812
2026-01-25 02:29:46.42	21.51	50.88	-22.7	-23.3	19.8	0.00e+00	0	44	102	1048576	6	3857
2026-01-25 02:29:47.42	21.54	51.23	-22.8	-23.4	19.7	0.00e+00	0	44	102	1048576	6	3893
2026-01-25 02:29:48.43	21.57	51.58	-22.9	-23.8	19.5	0.00e+00	0	44	102	1048576	6	3975
2026-01-25 02:29:49.44	21.60	51.93	-23.1	-24.1	19.4	0.00e+00	0	44	102	1048576	6	4057
2026-01-25 02:29:50.44	21.63	52.28	-23.5	-24.9	19.0	0.00e+00	0	44	102	1048576	6	4256
2026-01-25 02:29:51.44	21.66	52.64	-23.9	-25.3	18.5	0.00e+00	0	44	102	1048576	7	4258
2026-01-25 02:29:52.44	21.70	53.00	-23.9	-25.3	18.5	0.00e+00	0	44	102	1048576	7	4255
2026-01-25 02:29:53.44	21.73	53.36	-23.8	-25.0	18.7	0.00e+00	0	44	102	1048576	7	4175
2026-01-25 02:29:54.45	21.76	53.73	-23.6	-24.8	18.8	0.00e+00	0	44	102	1048576	7	4105
2026-01-25 02:29:55.45	21.80	54.09	-23.7	-25.0	18.7	0.00e+00	0	44	102	1048576	7	4158
2026-01-25 02:29:56.46	21.83	54.46	-24.2	-25.4	18.2	0.00e+00	0	44	102	1048576	8	4144
2026-01-25 02:29:57.46	21.87	54.84	-24.4	-25.9	18.0	0.00e+00	0	44	102	1048576	8	4281
2026-01-25 02:29:58.47	21.91	55.21	-24.7	-26.0	17.7	0.00e+00	0	44	102	1048576	9	4191
2026-01-25 02:29:59.46	21.94	55.59	-24.7	-26.0	17.7	0.00e+00	0	44	102	1048576	9	4195
2026-01-25 02:30:00.46	21.98	55.96	-24.5	-25.7	17.9	0.00e+00	0	44	102	1048576	9	4103
2026-01-25 02:30:01.46	22.02	56.35	-24.7	-26.0	17.7	0.00e+00	0	44	102	1048576	9	4187
2026-01-25 02:30:02.46	22.06	56.73	-24.7	-26.1	17.7	0.00e+00	0	44	102	1048576	9	4207
2026-01-25 02:30:03.45	22.10	57.11	-24.7	-26.1	17.7	0.00e+00	0	44	102	1048576	9	4211
2026-01-25 02:30:04.46	22.14	57.51	-24.5	-25.7	17.9	0.00e+00	0	44	102	1048576	9	4105
2026-01-25 02:30:05.46	22.19	57.90	-23.9	-24.4	18.6	2.28e-05	0	44	102	1048576	9	3792
2026-01-25 02:30:06.47	22.23	58.30	-23.7	-24.4	18.8	0.00e+00	0	44	102	1048576	8	3911
2026-01-25 02:30:07.47	22.28	58.70	-23.6	-24.2	19.0	0.00e+00	0	44	102	1048576	8	3850
2026-01-25 02:30:08.48	22.33	59.10	-23.3	-23.6	19.2	0.00e+00	0	44	102	1048576	8	3725
2026-01-25 02:30:09.48	22.38	59.50	-23.4	-23.8	19.2	0.00e+00	0	44	102	1048576	8	3759
2026-01-25 02:30:10.49	22.43	59.91	-23.4	-23.8	19.1	3.40e-06	0	44	102	1048576	8	3752
2026-01-25 02:30:11.49	22.48	60.32	-22.9	-23.2	19.6	0.00e+00	0	44	102	1048576	7	3737
2026-01-25 02:30:12.50	22.53	60.74	-22.9	-23.3	19.7	0.00e+00	0	44	102	1048576	7	3744
2026-01-25 02:30:13.50	22.59	61.15	-22.8	-23.0	19.8	0.00e+00	0	44	102	1048576	7	3690
2026-01-25 02:30:14.50	22.65	61.57	-22.6	-23.1	20.0	0.00e+00	0	44	102	1048576	6	3803
2026-01-25 02:30:15.51	22.70	61.99	-22.8	-23.5	19.8	0.00e+00	0	44	102	1048576	6	3902
2026-01-25 02:30:16.51	22.76	62.41	-22.9	-23.7	19.7	0.00e+00	0	44	102	1048576	6	3952
2026-01-25 02:30:17.52	22.83	62.84	-23.3	-24.5	19.3	0.00e+00	0	44	102	1048576	6	4153
2026-01-25 02:30:18.52	22.89	63.27	-23.5	-24.4	19.1	0.00e+00	0	44	102	1048576	7	4019
2026-01-25 02:30:19.53	22.96	63.70	-22.8	-23.1	19.7	3.54e-05	0	44	102	1048576	7	3709
2026-01-25 02:30:20.53	23.03	64.13	-22.4	-22.7	20.2	0.00e+00	0	44	102	1048576	6	3722
2026-01-25 02:30:21.53	23.10	64.57	-22.2	-22.7	20.4	0.00e+00	0	44	102	1048576	5	3828
2026-01-25 02:30:22.53	23.18	65.00	-22.3	-23.1	20.2	1.96e-04	0	44	102	1048576	5	3914
2026-01-25 02:30:23.53	23.25	65.44	-22.0	-22.5	20.5	1.84e-04	0	44	102	1048576	5	3774
2026-01-25 02:30:24.53	23.33	65.88	-21.8	-22.0	20.8	0.00e+00	0	44	102	1048576	5	3666
2026-01-25 02:30:25.54	23.42	66.33	-22.2	-22.8	20.4	2.94e-04	0	44	102	1048576	5	3845
2026-01-25 02:30:26.54	23.50	66.78	-22.5	-23.3	20.2	2.94e-04	0	44	102	1048576	5	3978
2026-01-25 02:30:27.55	23.60	67.23	-22.3	-23.1	20.3	0.00e+00	0	44	102	1048576	5	3919
2026-01-25 02:30:28.55	23.69	67.68	-22.2	-22.7	20.5	2.75e-04	0	44	102	1048576	5	3826
2026-01-25 02:30:29.56	23.79	68.14	-21.9	-22.2	20.7	2.51e-04	0	44	102	1048576	5	3713
2026-01-25 02:30:30.56	23.89	68.60	-21.8	-22.0	20.8	0.00e+00	0	44	102	1048576	5	3670
2026-01-25 02:30:31.56	24.00	69.06	-21.9	-22.2	20.7	1.70e-04	0	44	102	1048576	5	3723
2026-01-25 02:30:32.56	24.11	69.52	-22.0	-22.4	20.6	0.00e+00	0	44	102	1048576	5	3762
2026-01-25 02:30:33.57	24.23	69.99	-21.7	-22.2	21.0	0.00e+00	0	44	102	1048576	4	3814
2026-01-25 02:30:34.57	24.36	70.45	-21.6	-22.1	21.0	0.00e+00	0	44	102	1048576	4	3789
2026-01-25 02:30:35.57	24.49	70.92	-21.8	-22.5	20.8	3.40e-06	0	44	102	1048576	4	3901
2026-01-25 02:30:36.58	24.62	71.39	-21.7	-22.3	20.9	0.00e+00	0	44	102	1048576	4	3852
2026-01-25 02:30:37.58	24.77	71.86	-22.0	-22.8	20.6	0.00e+00	0	44	102	1048576	4	3974
2026-01-25 02:30:38.59	24.92	72.34	-21.9	-22.6	20.7	1.10e-06	0	44	102	1048576	4	3920
2026-01-25 02:30:39.60	25.08	72.82	-21.5	-21.7	21.2	0.00e+00	0	44	102	1048576	4	3718
2026-01-25 02:30:40.61	25.26	73.30	-21.8	-22.4	20.8	5.60e-05	0	44	102	1048576	4	3884
2026-01-25 02:30:41.61	25.44	73.78	-21.7	-22.3	20.9	0.00e+00	0	44	102	1048576	4	3858
2026-01-25 02:30:42.61	25.63	74.26	-21.6	-22.1	21.0	0.00e+00	0	44	102	1048576	4	3790
2026-01-25 02:30:43.61	25.83	74.75	-21.4	-21.7	21.2	4.50e-06	0	44	102	1048576	4	3706
2026-01-25 02:30:44.62	26.06	75.24	-21.8	-22.4	20.9	0.00e+00	0	44	102	1048576	4	3866
2026-01-25 02:30:45.62	26.29	75.72	-21.8	-22.5	20.8	0.00e+00	0	44	102	1048576	4	3889
2026-01-25 02:30:46.63	26.54	76.21	-21.2	-21.7	21.5	0.00e+00	0	44	102	1048576	3	3806
2026-01-25 02:30:47.63	26.81	76.70	-20.8	-20.9	21.9	0.00e+00	0	44	102	1048576	3	3647
2026-01-25 02:30:48.64	27.11	77.20	-21.3	-21.8	21.5	0.00e+00	0	44	102	1048576	3	3847
2026-01-25 02:30:49.65	27.42	77.69	-21.0	-21.3	21.7	0.00e+00	0	44	102	1048576	3	3729
2026-01-25 02:30:50.65	27.76	78.19	-20.4	-20.5	22.3	0.00e+00	0	44	102	1048576	2	3656
2026-01-25 02:30:51.66	28.14	78.68	-20.7	-21.1	22.0	0.00e+00	0	44	102	1048576	2	3795
2026-01-25 02:30:52.66	28.55	79.18	-20.7	-21.3	21.9	5.70e-06	0	44	102	1048576	2	3826
2026-01-25 02:30:53.66	28.99	79.67	-20.6	-20.9	22.1	0.00e+00	0	44	102	1048576	2	3748
2026-01-25 02:30:54.66	29.48	80.17	-20.4	-20.6	22.3	0.00e+00	0	44	102	1048576	2	3678
2026-01-25 02:30:55.66	30.02	80.67	-20.4	-20.6	22.3	0.00e+00	0	44	102	1048576	2	3678
2026-01-25 02:30:56.66	30.63	81.16	-20.4	-20.6	22.3	0.00e+00	0	44	102	1048576	2	3676
2026-01-25 02:30:57.66	31.31	81.66	-20.1	-20.5	22.6	0.00e+00	0	44	102	1048576	1	3758
2026-01-25 02:30:58.67	32.08	82.16	-20.1	-20.5	22.6	0.00e+00	0	44	102	1048576	1	3763
2026-01-25 02:30:59.67	32.95	82.66	-20.1	-20.5	22.6	0.00e+00	0	44	102	1048576	1	3762
2026-01-25 02:31:00.68	33.96	83.16	-20.1	-20.5	22.6	0.00e+00	0	44	102	1048576	1	3757
2026-01-25 02:31:01.68	35.11	83.65	-20.1	-20.4	22.6	0.00e+00	0	44	102	1048576	1	3740
2026-01-25 02:31:02.69	36.47	84.15	-20.0	-20.2	22.8	0.00e+00	0	44	102	1048576	1	3683
2026-01-25 02:31:03.69	38.07	84.64	-20.5	-21.4	22.2	0.00e+00	0	44	102	1048576	1	3958
2026-01-25 02:31:04.70	40.01	85.12	-21.4	-22.6	21.4	0.00e+00	0	44	102	1048576	2	4142
2026-01-25 02:31:05.70	42.35	85.60	-21.9	-23.1	20.9	0.00e+00	0	44	102	1048576	3	4145
2026-01-25 02:31:06.71	45.29	86.08	-22.3	-23.4	20.5	0.00e+00	0	44	102	1048576	4	4105
2026-01-25 02:31:07.71	48.99	86.53	-22.3	-23.4	20.5	0.00e+00	0	44	102	1048576	4	4118
2026-01-25 02:31:08.72	53.83	86.98	-22.3	-23.5	20.5	0.00e+00	0	44	102	1048576	4	4123
2026-01-25 02:31:09.72	60.21	87.39	-22.4	-23.8	20.4	0.00e+00	0	44	102	1048576	4	4193
2026-01-25 02:31:10.72	68.80	87.75	-22.6	-23.7	20.2	0.00e+00	0	44	102	1048576	5	4053
2026-01-25 02:31:11.73	80.49	88.05	-23.1	-24.2	19.8	0.00e+00	0	44	102	1048576	6	4072
2026-01-25 02:31:12.73	95.38	88.25	-23.1	-24.1	19.9	0.00e+00	0	44	102	1048576	6	4032
2026-01-25 02:31:13.73	112.49	88.30	-23.1	-24.1	19.9	0.00e+00	0	44	102	1048576	6	4047
2026-01-25 02:31:14.74	129.27	88.20	-23.5	-24.5	19.6	0.00e+00	0	44	102	1048576	7	4016
2026-01-25 02:31:15.75	143.21	87.96	-23.6	-24.7	19.4	0.00e+00	0	44	102	1048576	7	4086
2026-01-25 02:31:16.75	153.71	87.64	-23.8	-25.1	19.3	0.00e+00	0	44	102	1048576	7	4170
2026-01-25 02:31:17.76	161.54	87.25	-23.9	-25.2	19.2	0.00e+00	0	44	102	1048576	7	4202
2026-01-25 02:31:18.76	167.31	86.83	-23.8	-25.1	19.2	0.00e+00	0	44	102	1048576	7	4181
2026-01-25 02:31:19.76	171.70	86.38	-23.5	-24.5	19.5	0.00e+00	0	44	102	1048576	7	4038
2026-01-25 02:31:20.76	175.10	85.92	-23.3	-24.0	19.7	0.00e+00	0	44	102	1048576	7	3913
2026-01-25 02:31:21.77	177.83	85.44	-23.5	-24.6	19.4	0.00e+00	0	44	102	1048576	7	4053
2026-01-25 02:31:22.77	180.02	84.96	-23.3	-24.0	19.7	0.00e+00	0	44	102	1048576	7	3913
2026-01-25 02:31:23.77	181.83	84.48	-23.2	-23.8	19.8	0.00e+00	0	44	102	1048576	7	3864
2026-01-25 02:31:24.77	183.34	83.99	-23.1	-23.7	19.9	0.00e+00	0	44	102	1048576	7	3844
2026-01-25 02:31:25.78	184.63	83.49	-22.8	-23.0	20.2	0.00e+00	0	44	102	1048576	7	3682
2026-01-25 02:31:26.78	185.73	83.00	-23.0	-23.4	20.0	0.00e+00	0	44	102	1048576	7	3777
2026-01-25 02:31:27.79	186.69	82.49	-23.0	-23.4	20.0	0.00e+00	0	44	102	1048576	7	3761
2026-01-25 02:31:28.79	187.53	82.00	-22.6	-23.1	20.4	0.00e+00	0	44	102	1048576	6	3804
2026-01-25 02:31:29.79	188.26	81.50	-22.9	-23.8	20.0	0.00e+00	0	44	102	1048576	6	3980
2026-01-25 02:31:30.79	188.92	81.00	-23.0	-24.0	19.9	0.00e+00	0	44	102	1048576	6	4029
2026-01-25 02:31:31.80	189.51	80.50	-22.9	-23.6	20.1	0.00e+00	0	44	102	1048576	6	3915
2026-01-25 02:31:32.81	190.04	80.00	-23.6	-24.7	19.3	0.00e+00	0	44	102	1048576	7	4080
2026-01-25 02:31:33.80	190.51	79.51	-23.2	-23.8	18.7	0.00e+00	0	44	102	1048576	7	3868
2026-01-25 02:31:34.81	190.94	79.01	-22.4	-22.7	20.4	0.00e+00	0	44	102	1048576	6	3724
2026-01-25 02:31:35.81	191.34	78.51	-21.8	-21.9	21.1	0.00e+00	0	44	102	1048576	5	3649
2026-01-25 02:31:36.82	191.70	78.01	-21.3	-21.4	21.6	0.00e+00	0	44	102	1048576	4	3641
2026-01-25 02:31:37.83	192.04	77.52	-21.1	-21.6	21.8	0.00e+00	0	44	102	1048576	3	3787
2026-01-25 02:31:38.83	192.34	77.03	-21.2	-21.8	21.7	0.00e+00	0	44	102	1048576	3	3835
2026-01-25 02:31:39.83	192.63	76.53	-21.7	-22.7	21.3	0.00e+00	0	44	102	1048576	3	4038
2026-01-25 02:31:40.84	192.89	76.04	-21.7	-22.7	21.1	0.00e+00	0	44	102	1048576	3	4063
2026-01-25 02:31:41.84	193.14	75.55	-21.4	-22.2	21.5	0.00e+00	0	44	102	1048576	3	3917
2026-01-25 02:31:42.84	193.36	75.07	-21.8	-22.9	21.1	0.00e+00	0	44	102	1048576	3	4080
2026-01-25 02:31:43.85	193.58	74.58	-22.0	-22.9	20.8	0.00e+00	0	44	102	1048576	4	3991
2026-01-25 02:31:44.85	193.78	74.10	-22.0	-22.9	20.8	0.00e+00	0	44	102	1048576	4	3987
2026-01-25 02:31:45.86	193.97	73.61	-22.3	-23.5	20.5	0.00e+00	0	44	102	1048576	4	4132
2026-01-25 02:31:46.86	194.15	73.13	-22.3	-23.4	20.6	1.46e-04	0	44	102	1048576	4	4098
2026-01-25 02:31:47.86	194.32	72.65	-22.0	-22.8	20.9	0.00e+00	0	44	102	1048576	4	3960
2026-01-25 02:31:48.87	194.48	72.17	-22.0	-22.8	20.8	1.30e-04	0	44	102	1048576	4	3964
2026-01-25 02:31:49.87	194.63	71.70	-22.2	-23.3	20.6	1.22e-04	0	44	102	1048576	4	4089
2026-01-25 02:31:50.88	194.77	71.22	-22.3	-23.4	20.5	0.00e+00	0	44	102	1048576	4	4086
2026-01-25 02:31:51.88	194.90	70.75	-22.6	-23.6	20.2	5.60e-05	0	44	102	1048576	5	4050
2026-01-25 02:31:52.89	195.03	70.28	-22.3	-23.1	20.4	0.00e+00	0	44	102	1048576	5	3914
2026-01-25 02:31:53.89	195.15	69.82	-21.9	-22.2	20.9	0.00e+00	0	44	102	1048576	5	3718
2026-01-25 02:31:54.90	195.27	69.35	-21.9	-22.2	20.9	0.00e+00	0	44	102	1048576	5	3716
2026-01-25 02:31:55.90	195.38	68.89	-21.9	-22.1	20.9	0.00e+00	0	44	102	1048576	5	3685
2026-01-25 02:31:56.91	195.49	68.42	-22.1	-22.6	20.6	0.00e+00	0	44	102	1048576	5	3801
2026-01-25 02:31:57.92	195.59	67.96	-22.4	-23.2	20.3	1.14e-04	0	44	102	1048576	5	3954
2026-01-25 02:31:58.92	195.69	67.51	-22.1	-22.5	20.7	1.59e-04	0	44	102	1048576	5	3781
2026-01-25 02:31:59.93	195.78	67.05	-21.7	-22.2	21.1	0.00e+00	0	44	102	1048576	4	3810
2026-01-25 02:32:00.93	195.87	66.60	-22.2	-23.2	20.6	1.76e-04	0	44	102	1048576	4	4055
2026-01-25 02:32:01.93	195.96	66.16	-22.5	-23.4	20.3	0.00e+00	0	44	102	1048576	5	3981
2026-01-25 02:32:02.93	196.04	65.71	-22.4	-23.2	20.4	0.00e+00	0	44	102	1048576	5	3931
2026-01-25 02:32:03.94	196.12	65.27	-22.5	-23.4	20.2	1.45e-04	0	44	102	1048576	5	3974
2026-01-25 02:32:04.94	196.19	64.83	-22.6	-23.6	20.2	1.59e-04	0	44	102	1048576	5	4036
2026-01-25 02:32:05.95	196.27	64.38	-22.8	-24.0	20.0	0.00e+00	0	44	102	1048576	5	4146
2026-01-25 02:32:06.95	196.34	63.95	-22.3	-23.0	20.5	3.40e-06	0	44	102	1048576	5	3882
2026-01-25 02:32:07.95	196.41	63.52	-22.0	-22.4	20.7	1.94e-04	0	44	102	1048576	5	3750
2026-01-25 02:32:08.95	196.47	63.09	-22.1	-22.6	20.7	0.00e+00	0	44	102	1048576	5	3806
2026-01-25 02:32:09.95	196.54	62.66	-22.3	-22.9	20.5	2.05e-04	0	44	102	1048576	5	3870
2026-01-25 02:32:10.96	196.60	62.23	-22.2	-22.8	20.5	0.00e+00	0	44	102	1048576	5	3860
2026-01-25 02:32:11.96	196.66	61.81	-22.2	-22.8	20.6	0.00e+00	0	44	102	1048576	5	3847
2026-01-25 02:32:12.96	196.72	61.39	-22.2	-22.8	20.5	2.47e-04	0	44	102	1048576	5	3848
2026-01-25 02:32:13.96	196.77	60.98	-22.4	-23.2	20.3	0.00e+00	0	44	102	1048576	5	3948
2026-01-25 02:32:14.96	196.83	60.56	-22.5	-23.3	20.3	0.00e+00	0	44	102	1048576	5	3973
2026-01-25 02:32:15.96	196.88	60.15	-22.7	-23.7	20.1	0.00e+00	0	44	102	1048576	5	4072
2026-01-25 02:32:16.96	196.93	59.74	-22.7	-23.8	20.0	2.08e-04	0	44	102	1048576	5	4090
2026-01-25 02:32:17.96	196.98	59.34	-22.8	-24.1	19.9	0.00e+00	0	44	102	1048576	5	4163
2026-01-25 02:32:18.97	197.03	58.93	-22.9	-24.2	19.8	0.00e+00	0	44	102	1048576	5	4189
2026-01-25 02:32:19.97	197.08	58.53	-22.8	-23.9	19.9	0.00e+00	0	44	102	1048576	5	4119
2026-01-25 02:32:20.98	197.12	58.13	-22.9	-24.3	19.8	0.00e+00	0	44	102	1048576	5	4216
2026-01-25 02:32:21.98	197.17	57.73	-23.3	-24.5	19.5	2.89e-04	0	44	102	1048576	6	4144
2026-01-25 02:32:22.98	197.21	57.34	-23.7	-25.0	18.9	0.00e+00	0	44	102	1048576	7	4148
2026-01-25 02:32:23.98	197.25	56.95	-23.8	-25.1	18.8	0.00e+00	0	44	102	1048576	7	4177
2026-01-25 02:32:24.98	197.29	56.56	-23.5	-24.5	19.1	0.00e+00	0	44	102	1048576	7	4037
2026-01-25 02:32:25.98	197.33	56.18	-23.6	-24.6	19.1	0.00e+00	0	44	102	1048576	7	4058
2026-01-25 02:32:26.99	197.37	55.79	-23.7	-24.8	19.0	0.00e+00	0	44	102	1048576	7	4118
2026-01-25 02:32:27.99	197.41	55.41	-23.8	-25.0	18.9	0.00e+00	0	44	102	1048576	7	4164
2026-01-25 02:32:28.99	197.45	55.03	-23.6	-24.6	19.1	0.00e+00	0	44	102	1048576	7	4061
2026-01-25 02:32:30.00	197.49	54.66	-23.6	-24.6	19.1	0.00e+00	0	44	102	1048576	7	4049
2026-01-25 02:32:31.01	197.52	54.28	-23.8	-25.1	18.8	0.00e+00	0	44	102	1048576	7	4173
2026-01-25 02:32:32.01	197.56	53.91	-23.8	-25.1	18.8	0.00e+00	0	44	102	1048576	7	4183
2026-01-25 02:32:33.01	197.59	53.55	-23.8	-25.2	18.8	0.00e+00	0	44	102	1048576	7	4205
2026-01-25 02:32:34.01	197.62	53.18	-23.5	-24.5	19.1	0.00e+00	0	44	102	1048576	7	4027
2026-01-25 02:32:35.01	197.65	52.82	-23.3	-24.1	19.3	0.00e+00	0	44	102	1048576	7	3941
2026-01-25 02:32:36.01	197.69	52.46	-23.4	-24.2	19.2	0.00e+00	0	44	102	1048576	7	3967
2026-01-25 02:32:37.01	197.72	52.11	-23.4	-24.3	19.2	0.00e+00	0	44	102	1048576	7	3989
2026-01-25 02:32:38.02	197.75	51.75	-23.5	-24.5	19.1	0.00e+00	0	44	102	1048576	7	4041
2026-01-25 02:32:39.03	197.78	51.40	-23.5	-24.5	19.1	0.00e+00	0	44	102	1048576	7	4053
2026-01-25 02:32:40.03	197.81	51.05	-23.7	-24.9	18.9	0.00e+00	0	44	102	1048576	7	4132
2026-01-25 02:32:41.04	197.84	50.70	-23.2	-23.9	19.4	0.00e+00	0	44	102	1048576	7	3900
2026-01-25 02:32:42.04	197.86	50.36	-22.9	-23.1	19.8	0.00e+00	0	44	102	1048576	7	3712
2026-01-25 02:32:43.04	197.89	50.02	-22.7	-23.2	19.9	0.00e+00	0	44	102	1048576	6	3844
2026-01-25 02:32:44.04	197.92	49.68	-22.4	-22.7	20.2	0.00e+00	0	44	102	1048576	6	3728
2026-01-25 02:32:45.05	197.94	49.34	-22.6	-23.1	20.0	0.00e+00	0	44	102	1048576	6	3810
2026-01-25 02:32:46.05	197.97	49.01	-22.5	-22.9	20.1	0.00e+00	0	44	102	1048576	6	3779
2026-01-25 02:32:47.06	198.00	48.68	-22.8	-23.6	19.8	0.00e+00	0	44	102	1048576	6	3934
2026-01-25 02:32:48.06	198.02	48.35	-22.8	-23.6	19.8	0.00e+00	0	44	102	1048576	6	3923
2026-01-25 02:32:49.05	198.04	48.03	-22.9	-23.8	19.6	0.00e+00	0	44	102	1048576	6	3973
2026-01-25 02:32:50.05	198.07	47.70	-22.7	-23.3	19.9	0.00e+00	0	44	102	1048576	6	3857
2026-01-25 02:32:51.06	198.09	47.38	-22.4	-22.7	20.2	0.00e+00	0	44	102	1048576	6	3727
2026-01-25 02:32:52.07	198.12	47.06	-22.4	-22.6	20.2	0.00e+00	0	44	102	1048576	6	3696
2026-01-25 02:32:53.07	198.14	46.74	-22.5	-22.9	20.1	0.00e+00	0	44	102	1048576	6	3776
2026-01-25 02:32:54.08	198.16	46.43	-22.5	-22.8	20.1	0.00e+00	0	44	102	1048576	6	3752
2026-01-25 02:32:55.08	198.18	46.11	-22.6	-23.0	20.0	0.00e+00	0	44	102	1048576	6	3806
2026-01-25 02:32:56.09	198.20	45.80	-22.5	-22.9	20.1	0.00e+00	0	44	102	1048576	6	3769
2026-01-25 02:32:57.09	198.23	45.50	-22.6	-23.1	20.0	0.00e+00	0	44	102	1048576	6	3821
2026-01-25 02:32:58.10	198.25	45.19	-22.8	-23.5	19.7	0.00e+00	0	44	102	1048576	6	3915
2026-01-25 02:32:59.10	198.27	44.89	-22.5	-22.9	20.1	0.00e+00	0	44	102	1048576	6	3761
2026-01-25 02:33:00.11	198.29	44.59	-22.3	-22.4	20.3	0.00e+00	0	44	102	1048576	6	3658
2026-01-25 02:33:01.11	198.31	44.29	-22.2	-22.8	20.3	0.00e+00	0	44	102	1048576	5	3845
2026-01-25 02:33:02.11	198.33	43.99	-22.2	-22.8	20.3	0.00e+00	0	44	102	1048576	5	3840
2026-01-25 02:33:03.12	198.35	43.70	-22.3	-23.0	20.2	0.00e+00	0	44	102	1048576	5	3891
2026-01-25 02:33:04.12	198.37	43.41	-22.4	-23.3	20.1	0.00e+00	0	44	102	1048576	5	3972
2026-01-25 02:33:05.12	198.39	43.12	-22.6	-23.6	19.9	0.00e+00	0	44	102	1048576	5	4052
2026-01-25 02:33:06.13	198.40	42.83	-22.7	-23.8	19.8	0.00e+00	0	44	102	1048576	5	4107
2026-01-25 02:33:07.13	198.42	42.55	-22.8	-24.0	19.7	0.00e+00	0	44	102	1048576	5	4137
2026-01-25 02:33:08.14	198.44	42.26	-22.7	-23.8	19.8	0.00e+00	0	44	102	1048576	5	4082
2026-01-25 02:33:09.14	198.46	41.98	-22.7	-23.8	17.5	0.00e+00	0	44	102	1048576	5	4097
2026-01-25 02:33:10.14	198.48	41.70	-22.8	-24.0	16.9	0.00e+00	0	44	102	1048576	5	4133
2026-01-25 02:33:11.15	198.49	41.43	-22.5	-23.4	20.0	0.00e+00	0	44	102	1048576	5	3986
2026-01-25 02:33:12.15	198.51	41.15	-22.4	-23.1	20.1	4.50e-06	0	44	102	1048576	5	3916
2026-01-25 02:33:13.15	198.53	40.88	-22.3	-23.1	20.1	0.00e+00	0	44	102	1048576	5	3921
2026-01-25 02:33:14.16	198.54	40.61	-22.3	-22.9	20.2	0.00e+00	0	44	102	1048576	5	3885
2026-01-25 02:33:15.17	198.56	40.34	-22.3	-23.0	20.2	2.20e-06	0	44	102	1048576	5	3908
2026-01-25 02:33:16.17	198.58	40.07	-22.5	-23.4	20.0	1.76e-04	0	44	102	1048576	5	3989
2026-01-25 02:33:17.17	198.59	39.81	-22.4	-23.2	20.1	0.00e+00	0	44	102	1048576	5	3956
2026-01-25 02:33:18.18	198.61	39.55	-22.4	-23.3	20.0	2.20e-06	0	44	102	1048576	5	3976
2026-01-25 02:33:19.18	198.62	39.29	-22.5	-23.5	19.9	2.87e-04	0	44	102	1048576	5	4009
2026-01-25 02:33:20.18	198.64	39.03	-22.3	-22.9	20.2	0.00e+00	0	44	102	1048576	5	3873
2026-01-25 02:33:21.19	198.65	38.77	-22.0	-22.3	20.5	2.86e-04	0	44	102	1048576	5	3747
2026-01-25 02:33:22.19	198.67	38.52	-21.8	-22.5	20.6	0.00e+00	0	44	102	1048576	4	3893
2026-01-25 02:33:23.19	198.68	38.27	-21.8	-22.5	20.6	0.00e+00	0	44	102	1048576	4	3888
2026-01-25 02:33:24.20	198.70	38.02	-21.9	-22.6	20.6	5.78e-04	0	44	102	1048576	4	3913
2026-01-25 02:33:25.20	198.71	37.77	-22.2	-23.3	20.3	0.00e+00	0	44	102	1048576	4	4067
2026-01-25 02:33:26.21	198.73	37.52	-22.0	-22.9	20.5	0.00e+00	0	44	102	1048576	4	3973
2026-01-25 02:33:27.22	198.74	37.27	-22.0	-22.8	20.5	3.40e-06	0	44	102	1048576	4	3961
2026-01-25 02:33:28.22	198.76	37.03	-22.1	-23.0	20.4	6.79e-04	0	44	102	1048576	4	4020
2026-01-25 02:33:29.23	198.77	36.79	-22.3	-23.5	20.1	0.00e+00	0	44	102	1048576	4	4135
2026-01-25 02:33:30.23	198.78	36.55	-22.4	-23.7	20.0	6.95e-04	0	44	102	1048576	4	4178
2026-01-25 02:33:31.24	198.80	36.31	-22.4	-23.8	20.0	8.17e-04	0	44	102	1048576	4	4217
2026-01-25 02:33:32.25	198.81	36.07	-22.5	-23.9	19.9	0.00e+00	0	44	102	1048576	4	4232
2026-01-25 02:33:33.25	198.82	35.84	-22.4	-23.8	20.0	8.31e-04	0	44	102	1048576	4	4221
2026-01-25 02:33:34.26	198.84	35.60	-22.3	-23.6	20.1	0.00e+00	0	44	102	1048576	4	4164
2026-01-25 02:33:35.26	198.85	35.37	-22.2	-23.4	20.2	0.00e+00	0	44	102	1048576	4	4104
2026-01-25 02:33:36.26	198.86	35.14	-22.2	-23.4	20.2	7.49e-04	0	44	102	1048576	4	4098
2026-01-25 02:33:37.27	198.88	34.91	-22.1	-23.1	20.3	7.08e-04	0	44	102	1048576	4	4026
2026-01-25 02:33:38.27	198.89	34.69	-22.1	-23.1	20.3	0.00e+00	0	44	102	1048576	4	4036
2026-01-25 02:33:39.27	198.90	34.46	-22.3	-23.4	20.2	6.60e-04	0	44	102	1048576	4	4100
2026-01-25 02:33:40.27	198.91	34.24	-22.1	-23.1	20.3	6.80e-04	0	44	102	1048576	4	4034
2026-01-25 02:33:41.27	198.93	34.02	-22.1	-23.1	20.3	0.00e+00	0	44	102	1048576	4	4040
2026-01-25 02:33:42.28	198.94	33.80	-22.2	-23.3	20.2	6.42e-04	0	44	102	1048576	4	4091
2026-01-25 02:33:43.28	198.95	33.58	-22.3	-23.5	20.1	0.00e+00	0	44	102	1048576	4	4145
2026-01-25 02:33:44.28	198.96	33.37	-22.4	-23.8	19.9	0.00e+00	0	44	102	1048576	4	4209
2026-01-25 02:33:45.28	198.97	33.15	-22.7	-23.8	19.7	3.20e-04	0	44	102	1048576	5	4101
2026-01-25 02:33:46.28	198.98	32.94	-22.9	-24.3	19.4	0.00e+00	0	44	102	1048576	5	4230
2026-01-25 02:33:47.29	199.00	32.73	-22.8	-24.2	19.5	0.00e+00	0	44	102	1048576	5	4187
2026-01-25 02:33:48.30	199.01	32.51	-22.8	-24.2	19.5	0.00e+00	0	44	102	1048576	5	4193
2026-01-25 02:33:49.30	199.02	32.30	-22.9	-24.2	19.5	2.31e-04	0	44	102	1048576	5	4200
2026-01-25 02:33:50.31	199.03	32.10	-23.0	-24.5	19.3	0.00e+00	0	44	102	1048576	5	4264
2026-01-25 02:33:51.31	199.04	31.89	-23.2	-24.4	19.1	0.00e+00	0	44	102	1048576	6	4137
2026-01-25 02:33:52.31	199.05	31.69	-23.4	-24.8	18.9	2.75e-04	0	44	102	1048576	6	4224
2026-01-25 02:33:53.31	199.06	31.48	-23.0	-24.0	19.3	0.00e+00	0	44	102	1048576	6	4040
2026-01-25 02:33:54.31	199.07	31.28	-22.8	-23.6	19.5	3.90e-04	0	44	102	1048576	6	3935
2026-01-25 02:33:55.30	199.08	31.08	-22.8	-23.5	19.6	0.00e+00	0	44	102	1048576	6	3904
2026-01-25 02:33:56.32	199.10	30.88	-22.8	-23.5	19.6	0.00e+00	0	44	102	1048576	6	3901
2026-01-25 02:33:57.32	199.11	30.68	-22.7	-23.3	19.7	0.00e+00	0	44	102	1048576	6	3852
2026-01-25 02:33:58.32	199.12	30.49	-22.7	-23.3	19.7	0.00e+00	0	44	102	1048576	6	3872
2026-01-25 02:33:59.32	199.13	30.29	-22.6	-23.1	19.8	0.00e+00	0	44	102	1048576	6	3822
2026-01-25 02:34:00.33	199.14	30.10	-22.5	-23.4	19.8	0.00e+00	0	44	102	1048576	5	4001
2026-01-25 02:34:01.33	199.15	29.91	-22.6	-23.5	19.8	0.00e+00	0	44	102	1048576	5	4027
2026-01-25 02:34:02.34	199.16	29.71	-22.7	-23.8	19.7	0.00e+00	0	44	102	1048576	5	4083
2026-01-25 02:34:03.34	199.17	29.52	-22.6	-23.6	19.7	0.00e+00	0	44	102	1048576	5	4053
2026-01-25 02:34:04.35	199.18	29.33	-22.7	-23.8	19.6	0.00e+00	0	44	102	1048576	5	4090
2026-01-25 02:34:05.35	199.19	29.15	-22.8	-23.9	19.6	0.00e+00	0	44	102	1048576	5	4126
2026-01-25 02:34:06.35	199.20	28.96	-22.6	-23.7	19.7	0.00e+00	0	44	102	1048576	5	4064
2026-01-25 02:34:07.35	199.21	28.78	-22.6	-23.7	19.7	0.00e+00	0	44	102	1048576	5	4078
2026-01-25 02:34:08.35	199.22	28.59	-22.7	-23.9	19.6	0.00e+00	0	44	102	1048576	5	4118
2026-01-25 02:34:09.35	199.23	28.41	-22.7	-23.9	19.6	0.00e+00	0	44	102	1048576	5	4128
2026-01-25 02:34:10.36	199.24	28.23	-22.6	-23.6	19.7	0.00e+00	0	44	102	1048576	5	4044
2026-01-25 02:34:11.36	199.25	28.05	-22.4	-23.3	19.9	0.00e+00	0	44	102	1048576	5	3971
2026-01-25 02:34:12.36	199.25	27.87	-22.4	-23.2	20.0	0.00e+00	0	44	102	1048576	5	3939
2026-01-25 02:34:13.37	199.26	27.69	-22.4	-23.2	19.9	0.00e+00	0	44	102	1048576	5	3952
2026-01-25 02:34:14.37	199.27	27.51	-22.4	-23.1	19.9	0.00e+00	0	44	102	1048576	5	3928
2026-01-25 02:34:15.37	199.28	27.34	-22.3	-23.1	19.9	0.00e+00	0	44	102	1048576	5	3930
2026-01-25 02:34:16.38	199.29	27.16	-22.5	-23.3	19.9	0.00e+00	0	44	102	1048576	5	3977
2026-01-25 02:34:17.39	199.30	26.99	-22.5	-23.5	19.7	0.00e+00	0	44	102	1048576	5	4019
2026-01-25 02:34:18.39	199.31	26.82	-22.5	-23.3	19.8	0.00e+00	0	44	102	1048576	5	3977
2026-01-25 02:34:19.40	199.32	26.64	-22.5	-23.4	19.8	0.00e+00	0	44	102	1048576	5	4007
2026-01-25 02:34:20.40	199.33	26.48	-22.6	-23.6	19.7	0.00e+00	0	44	102	1048576	5	4046
2026-01-25 02:34:21.41	199.34	26.30	-22.6	-23.6	19.6	0.00e+00	0	44	102	1048576	5	4056
2026-01-25 02:34:22.41	199.35	26.14	-22.7	-23.8	19.6	0.00e+00	0	44	102	1048576	5	4105
2026-01-25 02:34:23.41	199.35	25.97	-22.7	-23.8	19.6	0.00e+00	0	44	102	1048576	5	4095
2026-01-25 02:34:24.42	199.36	25.80	-22.8	-24.1	19.4	0.00e+00	0	44	102	1048576	5	4167
2026-01-25 02:34:25.42	199.37	25.64	-22.8	-24.0	19.5	0.00e+00	0	44	102	1048576	5	4155
2026-01-25 02:34:26.42	199.38	25.48	-22.9	-24.3	19.3	1.37e-05	0	44	102	1048576	5	4236
2026-01-25 02:34:27.42	199.39	25.31	-22.9	-24.3	19.3	0.00e+00	0	44	102	1048576	5	4213
2026-01-25 02:34:28.42	199.40	25.15	-23.1	-24.1	19.2	0.00e+00	0	44	102	1048576	6	4060
2026-01-25 02:34:29.43	199.40	24.99	-23.1	-24.2	19.1	9.10e-06	0	44	102	1048576	6	4084
2026-01-25 02:34:30.43	199.41	24.83	-23.2	-24.3	19.1	0.00e+00	0	44	102	1048576	6	4116
2026-01-25 02:34:31.43	199.42	24.67	-23.1	-24.3	19.1	0.00e+00	0	44	102	1048576	6	4103
2026-01-25 02:34:32.43	199.43	24.51	-23.2	-24.4	19.0	1.14e-05	0	44	102	1048576	6	4143
2026-01-25 02:34:33.43	199.44	24.36	-23.3	-24.6	18.9	0.00e+00	0	44	102	1048576	6	4176
2026-01-25 02:34:34.44	199.45	24.20	-23.2	-24.4	19.0	0.00e+00	0	44	102	1048576	6	4143
2026-01-25 02:34:35.44	199.45	24.05	-23.3	-24.5	18.9	0.00e+00	0	44	102	1048576	6	4164
2026-01-25 02:34:36.45	199.46	23.89	-23.4	-24.8	18.8	0.00e+00	0	44	102	1048576	6	4228
2026-01-25 02:34:37.45	199.47	23.74	-23.3	-24.7	18.9	0.00e+00	0	44	102	1048576	6	4197
2026-01-25 02:34:38.46	199.48	23.58	-23.5	-24.9	18.7	3.40e-06	0	44	102	1048576	6	4259
2026-01-25 02:34:39.46	199.49	23.43	-23.4	-24.7	18.8	0.00e+00	0	44	102	1048576	6	4217
2026-01-25 02:34:40.46	199.49	23.28	-23.5	-24.5	18.6	0.00e+00	0	44	102	1048576	7	4054
2026-01-25 02:34:41.46	199.50	23.13	-23.3	-24.1	18.9	5.70e-06	0	44	102	1048576	7	3955
2026-01-25 02:34:42.47	199.51	22.98	-23.1	-23.8	19.0	0.00e+00	0	44	102	1048576	7	3871
2026-01-25 02:34:43.47	199.52	22.84	-23.1	-24.2	18.9	0.00e+00	0	44	102	1048576	6	4087
2026-01-25 02:34:44.47	199.52	22.69	-23.2	-24.4	15.6	0.00e+00	0	44	102	1048576	6	4133
2026-01-25 02:34:45.47	199.53	22.54	-23.3	-24.5	18.3	0.00e+00	0	44	102	1048576	6	4155
2026-01-25 02:34:46.47	199.54	22.40	-23.3	-24.6	18.9	0.00e+00	0	44	102	1048576	6	4169
2026-01-25 02:34:47.47	199.55	22.25	-23.3	-24.6	18.9	0.00e+00	0	44	102	1048576	6	4175
2026-01-25 02:34:48.48	199.55	22.11	-23.3	-24.7	18.8	0.00e+00	0	44	102	1048576	6	4197
2026-01-25 02:34:49.49	199.56	21.96	-23.4	-24.8	18.7	0.00e+00	0	44	102	1048576	6	4231
2026-01-25 02:34:50.48	199.57	21.82	-23.5	-25.0	18.7	0.00e+00	0	44	102	1048576	6	4275
2026-01-25 02:34:51.49	199.58	21.68	-23.7	-24.9	18.5	2.20e-06	0	44	102	1048576	7	4140
2026-01-25 02:34:52.50	199.58	21.54	-23.8	-25.2	18.3	0.00e+00	0	44	102	1048576	7	4203
2026-01-25 02:34:53.50	199.59	21.40	-23.8	-25.1	18.3	7.82e-04	0	44	102	1048576	7	4204
2026-01-25 02:34:54.51	199.60	21.26	-23.8	-25.2	18.3	0.00e+00	0	44	102	1048576	7	4211
2026-01-25 02:34:55.51	199.61	21.12	-23.8	-25.2	18.3	0.00e+00	0	44	102	1048576	7	4218
2026-01-25 02:34:56.51	199.61	20.99	-24.0	-25.5	18.1	0.00e+00	0	44	102	1048576	7	4306
2026-01-25 02:34:57.52	199.62	20.85	-24.3	-25.7	17.8	0.00e+00	0	44	102	1048576	8	4241
2026-01-25 02:34:58.52	199.63	20.71	-24.4	-25.9	17.7	0.00e+00	0	44	102	1048576	8	4272
2026-01-25 02:34:59.52	199.64	20.58	-24.3	-25.7	17.8	0.00e+00	0	44	102	1048576	8	4233
2026-01-25 02:35:00.52	199.64	20.44	-24.2	-25.5	17.9	4.83e-04	0	44	102	1048576	8	4174
2026-01-25 02:35:01.53	199.65	20.31	-24.3	-25.8	17.7	0.00e+00	0	44	102	1048576	8	4250
2026-01-25 02:35:02.53	199.66	20.17	-24.3	-25.8	17.7	4.11e-04	0	44	102	1048576	8	4246
2026-01-25 02:35:03.53	199.66	20.04	-24.4	-25.8	17.7	3.96e-04	0	44	102	1048576	8	4268
2026-01-25 02:35:04.54	199.67	19.91	-24.5	-25.7	17.5	0.00e+00	0	44	102	1048576	9	4127
2026-01-25 02:35:05.54	199.68	19.78	-24.3	-25.2	17.7	3.44e-04	0	44	102	1048576	9	4004
2026-01-25 02:35:06.53	199.68	19.65	-24.1	-24.9	17.9	0.00e+00	0	44	102	1048576	9	3911
2026-01-25 02:35:07.54	199.69	19.52	-23.9	-24.5	18.1	0.00e+00	0	44	102	1048576	9	3820
2026-01-25 02:35:08.54	199.70	19.39	-23.8	-24.7	18.3	2.72e-04	0	44	102	1048576	8	3989
2026-01-25 02:35:09.54	199.70	19.26	-23.8	-24.7	18.3	2.20e-04	0	44	102	1048576	8	3992
2026-01-25 02:35:10.55	199.71	19.13	-24.0	-25.0	18.1	0.00e+00	0	44	102	1048576	8	4068
2026-01-25 02:35:11.55	199.72	19.01	-24.0	-25.1	18.1	1.85e-04	0	44	102	1048576	8	4069
2026-01-25 02:35:12.55	199.72	18.88	-24.0	-25.0	18.1	1.65e-04	0	44	102	1048576	8	4054
2026-01-25 02:35:13.55	199.73	18.76	-24.0	-25.0	18.1	0.00e+00	0	44	102	1048576	8	4066
2026-01-25 02:35:14.55	199.74	18.63	-24.0	-25.1	18.0	1.22e-04	0	44	102	1048576	8	4092
2026-01-25 02:35:15.56	199.74	18.51	-24.1	-25.2	18.0	9.38e-05	0	44	102	1048576	8	4109
2026-01-25 02:35:16.57	199.75	18.38	-24.1	-25.4	17.9	0.00e+00	0	44	102	1048576	8	4156
2026-01-25 02:35:17.57	199.76	18.26	-24.2	-25.5	17.8	3.66e-05	0	44	102	1048576	8	4190
2026-01-25 02:35:18.57	199.76	18.14	-24.2	-25.6	17.8	3.20e-05	0	44	102	1048576	8	4203
2026-01-25 02:35:19.57	199.77	18.01	-24.3	-25.7	17.7	0.00e+00	0	44	102	1048576	8	4227
2026-01-25 02:35:20.57	199.78	17.89	-24.3	-25.7	17.7	0.00e+00	0	44	102	1048576	8	4237
2026-01-25 02:35:21.58	199.78	17.77	-24.3	-25.8	17.7	1.11e-04	0	44	102	1048576	8	4263
2026-01-25 02:35:22.59	199.79	17.65	-24.4	-25.9	17.5	0.00e+00	0	44	102	1048576	8	4293
2026-01-25 02:35:23.59	199.80	17.53	-24.4	-25.9	17.6	1.14e-04	0	44	102	1048576	8	4299
2026-01-25 02:35:24.60	199.80	17.41	-24.4	-26.0	17.5	1.38e-04	0	44	102	1048576	8	4310
2026-01-25 02:35:25.61	199.81	17.29	-24.4	-25.5	17.5	0.00e+00	0	44	102	1048576	9	4073
2026-01-25 02:35:26.62	199.82	17.17	-24.4	-25.5	17.5	1.80e-04	0	44	102	1048576	9	4064
2026-01-25 02:35:27.63	199.82	17.05	-24.4	-25.5	17.5	0.00e+00	0	44	102	1048576	9	4076
2026-01-25 02:35:28.63	199.83	16.94	-24.5	-25.6	17.5	0.00e+00	0	44	102	1048576	9	4097
2026-01-25 02:35:29.63	199.83	16.82	-24.5	-25.7	17.4	0.00e+00	0	44	102	1048576	9	4132
2026-01-25 02:35:30.64	199.84	16.71	-24.5	-25.8	17.4	1.51e-04	0	44	102	1048576	9	4141
2026-01-25 02:35:31.65	199.85	16.59	-24.6	-25.8	17.4	6.80e-06	0	44	102	1048576	9	4159
2026-01-25 02:35:32.65	199.85	16.47	-24.6	-25.9	17.3	0.00e+00	0	44	102	1048576	9	4185
2026-01-25 02:35:33.65	199.86	16.36	-24.6	-25.9	17.3	3.51e-04	0	44	102	1048576	9	4168
2026-01-25 02:35:34.65	199.86	16.25	-24.7	-26.1	17.2	1.71e-05	0	44	102	1048576	9	4241
2026-01-25 02:35:35.65	199.87	16.14	-24.8	-26.2	17.1	4.30e-04	0	44	102	1048576	9	4259
2026-01-25 02:35:36.65	199.88	16.02	-24.8	-26.4	17.0	0.00e+00	0	44	102	1048576	9	4309
2026-01-25 02:35:37.65	199.88	15.91	-24.9	-26.4	17.0	1.14e-05	0	44	102	1048576	9	4314
2026-01-25 02:35:38.66	199.89	15.80	-24.9	-26.5	16.9	0.00e+00	0	44	102	1048576	9	4335
2026-01-25 02:35:39.65	199.89	15.69	-24.9	-26.5	16.9	0.00e+00	0	44	102	1048576	9	4325
2026-01-25 02:35:40.66	199.90	15.58	-25.0	-26.6	16.8	0.00e+00	0	44	102	1048576	9	4369
2026-01-25 02:35:41.66	199.91	15.47	-25.0	-26.2	16.8	0.00e+00	0	44	102	1048576	10	4150
2026-01-25 02:35:42.67	199.91	15.36	-25.1	-26.4	16.7	0.00e+00	0	44	102	1048576	10	4190
2026-01-25 02:35:43.68	199.92	15.25	-25.2	-26.6	16.6	6.80e-06	0	44	102	1048576	10	4239
2026-01-25 02:35:44.68	199.92	15.14	-25.2	-26.7	16.6	0.00e+00	0	44	102	1048576	10	4261
2026-01-25 02:35:45.67	199.93	15.03	-25.2	-26.7	16.6	0.00e+00	0	44	102	1048576	10	4275
2026-01-25 02:35:46.68	199.94	14.93	-25.2	-26.7	16.5	1.25e-05	0	44	102	1048576	10	4279
2026-01-25 02:35:47.68	199.94	14.82	-25.4	-27.1	16.3	0.00e+00	0	44	102	1048576	10	4380
2026-01-25 02:35:48.68	199.95	14.71	-25.6	-27.0	16.1	0.00e+00	0	44	102	1048576	11	4240
2026-01-25 02:35:49.69	199.95	14.61	-25.8	-27.4	15.9	0.00e+00	0	44	102	1048576	11	4346
2026-01-25 02:35:50.69	199.96	14.50	-25.8	-27.4	15.9	0.00e+00	0	44	102	1048576	11	4345
2026-01-25 02:35:51.70	199.97	14.39	-25.7	-27.3	16.0	0.00e+00	0	44	102	1048576	11	4310
2026-01-25 02:35:52.69	199.97	14.29	-25.8	-27.4	15.9	0.00e+00	0	44	102	1048576	11	4354
2026-01-25 02:35:53.70	199.98	14.19	-25.8	-27.4	15.9	0.00e+00	0	44	102	1048576	11	4351
2026-01-25 02:35:54.71	199.98	14.08	-25.8	-27.5	15.8	0.00e+00	0	44	102	1048576	11	4377
2026-01-25 02:35:55.70	199.99	13.98	-25.8	-27.5	15.8	9.10e-06	0	44	102	1048576	11	4386
2026-01-25 02:35:56.71	199.99	13.88	-25.9	-27.7	15.7	0.00e+00	0	44	102	1048576	11	4445
2026-01-25 02:35:57.71	200.00	13.77	-25.9	-27.3	15.6	0.00e+00	0	44	102	1048576	12	4218
2026-01-25 02:35:58.72	200.01	13.67	-25.8	-26.9	15.8	9.10e-06	0	44	102	1048576	12	4110
2026-01-25 02:35:59.73	200.01	13.57	-25.5	-26.9	16.1	0.00e+00	0	44	102	1048576	11	4218
2026-01-25 02:36:00.73	200.02	13.47	-25.6	-27.0	16.1	0.00e+00	0	44	102	1048576	11	4233
2026-01-25 02:36:01.73	200.02	13.37	-25.6	-27.0	16.1	0.00e+00	0	44	102	1048576	11	4240
2026-01-25 02:36:02.74	200.03	13.27	-25.5	-26.9	16.1	0.00e+00	0	44	102	1048576	11	4220
2026-01-25 02:36:03.74	200.03	13.17	-25.7	-27.3	15.9	0.00e+00	0	44	102	1048576	11	4318
2026-01-25 02:36:04.74	200.04	13.07	-25.7	-27.3	15.9	0.00e+00	0	44	102	1048576	11	4320
2026-01-25 02:36:05.75	200.04	12.97	-25.8	-27.5	15.7	0.00e+00	0	44	102	1048576	11	4389
2026-01-25 02:36:06.75	200.05	12.87	-25.7	-27.4	15.8	0.00e+00	0	44	102	1048576	11	4340
2026-01-25 02:36:07.75	200.06	12.77	-25.6	-27.0	16.0	0.00e+00	0	44	102	1048576	11	4251
2026-01-25 02:36:08.75	200.06	12.67	-25.6	-27.1	15.9	0.00e+00	0	44	102	1048576	11	4275
2026-01-25 02:36:09.76	200.07	12.57	-25.7	-27.2	15.9	0.00e+00	0	44	102	1048576	11	4304
2026-01-25 02:36:10.76	200.07	12.48	-25.8	-27.6	15.7	0.00e+00	0	44	102	1048576	11	4401
2026-01-25 02:36:11.77	200.08	12.38	-25.8	-27.4	15.8	0.00e+00	0	44	102	1048576	11	4360
2026-01-25 02:36:12.77	200.08	12.28	-25.6	-27.0	16.0	0.00e+00	0	44	102	1048576	11	4238
2026-01-25 02:36:13.77	200.09	12.19	-25.4	-26.7	16.2	0.00e+00	0	44	102	1048576	11	4155
2026-01-25 02:36:14.78	200.09	12.09	-25.3	-26.5	16.3	0.00e+00	0	44	102	1048576	11	4112
2026-01-25 02:36:15.78	200.10	12.00	-25.3	-27.0	16.3	0.00e+00	0	44	102	1048576	10	4356
2026-01-25 02:36:16.78	200.10	11.90	-25.3	-26.9	16.3	0.00e+00	0	44	102	1048576	10	4343
2026-01-25 02:36:17.78	200.11	11.81	-25.4	-27.2	16.1	0.00e+00	0	44	102	1048576	10	4413
2026-01-25 02:36:18.79	200.11	11.71	-25.4	-27.2	16.2	0.00e+00	0	44	102	1048576	10	4399
2026-01-25 02:36:19.79	200.12	11.62	-25.5	-27.3	16.1	0.00e+00	0	44	102	1048576	10	4442
2026-01-25 02:36:20.79	200.12	11.53	-25.7	-27.2	15.8	0.00e+00	0	44	102	1048576	11	4312
2026-01-25 02:36:21.79	200.13	11.43	-26.0	-27.9	15.5	0.00e+00	0	44	102	1048576	11	4505
2026-01-25 02:36:22.80	200.14	11.34	-25.8	-27.0	15.6	0.00e+00	0	44	102	1048576	12	4142
2026-01-25 02:36:23.80	200.14	11.25	-26.0	-27.6	15.3	0.00e+00	0	44	102	1048576	12	4290
2026-01-25 02:36:24.80	200.15	11.16	-26.1	-27.7	15.2	1.10e-06	0	44	102	1048576	12	4321
2026-01-25 02:36:25.80	200.15	11.07	-26.2	-27.8	15.1	0.00e+00	0	44	102	1048576	12	4366
2026-01-25 02:36:26.81	200.16	10.97	-25.6	-27.2	14.3	0.00e+00	0	44	102	1048576	12	4330
2026-01-25 02:36:27.82	200.16	10.88	-26.2	-27.9	15.1	0.00e+00	0	44	102	1048576	12	4371
2026-01-25 02:36:28.81	200.17	10.79	-26.3	-28.3	13.6	0.00e+00	0	44	102	1048576	12	4492
2026-01-25 02:36:29.82	200.17	10.70	-26.3	-28.2	14.8	0.00e+00	0	44	102	1048576	12	4477
2026-01-25 02:36:30.82	200.18	10.61	-26.6	-28.4	14.5	0.00e+00	0	44	102	1048576	13	4419
2026-01-25 02:36:31.83	200.18	10.52	-26.5	-28.1	14.7	0.00e+00	0	44	102	1048576	13	4330
2026-01-25 02:36:32.83	200.19	10.43	-26.2	-27.9	15.1	1.12e-03	0	44	102	1048576	12	4379
2026-01-25 02:36:33.83	200.19	10.34	-25.9	-27.3	15.4	0.00e+00	0	44	102	1048576	12	4230
2026-01-25 02:36:34.83	200.20	10.25	-26.0	-27.4	15.3	1.09e-03	0	44	102	1048576	12	4246
2026-01-25 02:36:35.84	200.20	10.17	-26.0	-27.5	15.3	0.00e+00	0	44	102	1048576	12	4273
2026-01-25 02:36:36.83	200.21	10.08	-26.1	-27.7	15.1	0.00e+00	0	44	102	1048576	12	4348
2026-01-25 02:36:37.84	200.21	9.99	-26.0	-27.6	15.2	1.03e-03	0	44	102	1048576	12	4301
2026-01-25 02:36:38.85	200.22	9.90	-26.0	-27.6	15.2	0.00e+00	0	44	102	1048576	12	4290
2026-01-25 02:36:39.85	200.22	9.82	-26.0	-27.5	15.2	1.14e-05	0	44	102	1048576	12	4274
2026-01-25 02:36:40.85	200.23	9.73	-26.2	-27.8	15.0	0.00e+00	0	44	102	1048576	12	4373
2026-01-25 02:36:41.85	200.23	9.64	-26.2	-27.9	15.0	1.07e-03	0	44	102	1048576	12	4389
2026-01-25 02:36:42.85	200.24	9.56	-26.0	-27.6	15.1	0.00e+00	0	44	102	1048576	12	4311
2026-01-25 02:36:43.85	200.24	9.47	-26.1	-27.7	15.1	0.00e+00	0	44	102	1048576	12	4326
2026-01-25 02:36:44.85	200.25	9.39	-26.1	-27.8	15.0	1.10e-03	0	44	102	1048576	12	4352
2026-01-25 02:36:45.85	200.25	9.30	-26.2	-28.1	14.9	0.00e+00	0	44	102	1048576	12	4434
2026-01-25 02:36:46.86	200.26	9.21	-26.2	-27.9	14.9	1.08e-03	0	44	102	1048576	12	4396
2026-01-25 02:36:47.87	200.26	9.13	-26.2	-27.9	14.9	4.50e-06	0	44	102	1048576	12	4385
2026-01-25 02:36:48.87	200.27	9.05	-26.1	-27.8	15.0	3.40e-06	0	44	102	1048576	12	4376
2026-01-25 02:36:49.88	200.27	8.96	-26.1	-27.8	14.9	1.07e-03	0	44	102	1048576	12	4380
2026-01-25 02:36:50.89	200.28	8.88	-26.2	-27.9	14.9	1.04e-03	0	44	102	1048576	12	4399
