passes_logs/2026/01/25/R2M6_AANII_01/R2M6_AANII_01__20260125_021413_AQUA_rec.log

#Pass ID: 20260125_021413_AQUA
#Satellite: AQUA
#Configuration: AQUA
#almurnet v.1.7.20240730
#Start time: 2026-01-25 02:14:12

#Version: 2.2.20231116
#Station: R2M6_AANII_01
#Location: 30.233357 lon 59.946436 lat
#TLE: 1 27424U 02022A   26024.53919639  .00001970  00000+0  40397-3 0  9996
#TLE: 2 27424  98.4098 351.1277 0001915  66.8561 358.4840 14.61855303262281

#Time	Az	El	Level	Level2	SNR	BER	BlckErr	Temp	State	Recorded	gain1	gain2
2026-01-25 02:14:12.93	16.05	6.97	-31.7	-46.4	3.8	7.46e-01	0	41	0	0	24	19632
2026-01-25 02:14:13.93	16.04	7.05	-32.3	-48.3	3.8	7.43e-01	0	41	104	0	25	22741
2026-01-25 02:14:14.93	16.03	7.13	-32.3	-48.5	3.8	7.46e-01	0	41	104	0	25	23147
2026-01-25 02:14:15.93	16.02	7.22	-32.1	-47.6	3.8	7.45e-01	0	41	104	0	25	21382
2026-01-25 02:14:16.94	16.01	7.30	-31.9	-47.2	3.8	7.43e-01	0	41	104	0	24	20798
2026-01-25 02:14:17.94	16.00	7.38	-31.7	-46.3	3.8	7.48e-01	0	41	104	0	24	19375
2026-01-25 02:14:18.95	15.99	7.46	-31.5	-45.4	3.8	7.46e-01	0	41	104	0	24	18004
2026-01-25 02:14:19.95	15.98	7.55	-31.2	-45.1	3.8	7.44e-01	0	41	104	0	23	17792
2026-01-25 02:14:20.95	15.97	7.63	-31.1	-44.7	3.8	7.43e-01	0	41	104	0	23	17269
2026-01-25 02:14:21.96	15.96	7.72	-30.9	-44.3	3.8	7.42e-01	0	41	104	0	23	16707
2026-01-25 02:14:22.96	15.95	7.80	-30.8	-44.4	3.8	7.48e-01	0	41	104	0	22	17209
2026-01-25 02:14:23.96	15.94	7.88	-30.7	-44.0	3.8	7.39e-01	0	41	104	0	22	16648
2026-01-25 02:14:24.97	15.93	7.97	-30.7	-43.9	3.8	7.46e-01	0	42	104	0	22	16583
2026-01-25 02:14:25.97	15.91	8.05	-30.6	-43.8	3.8	7.44e-01	0	42	104	0	22	16393
2026-01-25 02:14:26.98	15.90	8.14	-30.4	-43.7	3.8	7.44e-01	0	42	104	0	21	16654
2026-01-25 02:14:27.98	15.89	8.22	-30.5	-44.0	3.8	7.45e-01	0	42	104	0	21	17044
2026-01-25 02:14:28.98	15.88	8.31	-30.7	-44.2	3.8	7.44e-01	0	42	104	0	22	16891
2026-01-25 02:14:29.99	15.87	8.40	-31.1	-45.1	3.8	7.44e-01	0	42	104	0	22	18117
2026-01-25 02:14:30.99	15.86	8.48	-31.3	-45.4	3.8	7.47e-01	0	42	104	0	23	18227
2026-01-25 02:14:31.99	15.84	8.57	-31.6	-46.0	3.8	7.45e-01	0	42	104	0	24	18811
2026-01-25 02:14:33.00	15.83	8.66	-31.7	-46.1	3.8	7.44e-01	0	42	104	0	24	18881
2026-01-25 02:14:34.00	15.82	8.75	-31.7	-46.0	3.8	7.44e-01	0	42	104	0	24	18784
2026-01-25 02:14:35.01	15.81	8.83	-31.7	-46.2	3.8	7.41e-01	0	42	104	0	24	19024
2026-01-25 02:14:36.01	15.80	8.92	-31.8	-46.5	3.8	7.43e-01	0	42	104	0	24	19510
2026-01-25 02:14:37.02	15.78	9.01	-31.9	-46.7	3.8	7.44e-01	0	42	104	0	24	19890
2026-01-25 02:14:38.02	15.77	9.10	-32.0	-47.1	3.8	7.43e-01	0	42	104	0	24	20453
2026-01-25 02:14:39.02	15.76	9.19	-32.1	-47.5	3.8	7.45e-01	0	42	104	0	24	21108
2026-01-25 02:14:40.03	15.75	9.28	-32.3	-47.7	3.8	7.46e-01	0	42	104	0	25	21268
2026-01-25 02:14:41.03	15.73	9.37	-32.5	-48.7	3.8	7.45e-01	0	42	104	0	25	23144
2026-01-25 02:14:42.03	15.72	9.46	-32.7	-48.8	3.8	7.43e-01	0	42	104	0	26	23028
2026-01-25 02:14:43.04	15.71	9.55	-32.8	-49.4	3.8	7.43e-01	0	42	104	0	26	24480
2026-01-25 02:14:44.04	15.69	9.64	-32.9	-49.9	3.8	7.43e-01	0	42	104	0	26	25607
2026-01-25 02:14:45.04	15.68	9.73	-33.0	-50.5	3.8	7.43e-01	0	42	104	0	26	27003
2026-01-25 02:14:46.05	15.67	9.83	-33.0	-50.5	3.8	7.47e-01	0	42	104	0	26	26940
2026-01-25 02:14:47.04	15.65	9.92	-33.0	-50.5	3.8	7.46e-01	0	42	104	0	26	26875
2026-01-25 02:14:48.05	15.64	10.01	-33.0	-50.5	3.8	7.43e-01	0	42	104	0	26	26836
2026-01-25 02:14:49.05	15.63	10.10	-33.0	-50.3	3.8	7.45e-01	0	42	104	0	26	26499
2026-01-25 02:14:50.06	15.61	10.20	-33.0	-50.3	3.8	7.45e-01	0	42	104	0	26	26379
2026-01-25 02:14:51.06	15.60	10.29	-33.0	-50.3	3.8	7.43e-01	0	42	104	0	26	26379
2026-01-25 02:14:52.07	15.58	10.39	-33.1	-50.3	3.9	7.45e-01	0	42	104	0	27	25957
2026-01-25 02:14:53.07	15.57	10.48	-33.0	-50.3	3.8	7.45e-01	0	42	104	0	26	26286
2026-01-25 02:14:54.07	15.55	10.58	-33.0	-50.0	3.8	7.47e-01	0	42	104	0	26	25473
2026-01-25 02:14:55.08	15.54	10.67	-32.9	-49.7	3.8	7.43e-01	0	42	104	0	26	24789
2026-01-25 02:14:56.08	15.53	10.77	-32.9	-49.4	3.8	7.43e-01	0	42	104	0	26	24095
2026-01-25 02:14:57.09	15.51	10.86	-32.8	-49.2	3.8	7.45e-01	0	42	104	0	26	23649
2026-01-25 02:14:58.10	15.50	10.96	-32.8	-49.0	3.8	7.48e-01	0	42	104	0	26	23223
2026-01-25 02:14:59.10	15.48	11.06	-32.7	-48.7	3.8	7.43e-01	0	42	104	0	26	22680
2026-01-25 02:15:00.10	15.47	11.16	-32.6	-48.3	3.8	7.42e-01	0	42	104	0	26	21865
2026-01-25 02:15:01.10	15.45	11.25	-32.6	-48.1	3.8	7.47e-01	0	42	104	0	26	21405
2026-01-25 02:15:02.11	15.43	11.35	-32.4	-48.1	3.8	7.44e-01	0	42	104	0	25	21826
2026-01-25 02:15:03.12	15.42	11.45	-32.4	-47.8	3.8	7.45e-01	0	43	104	0	25	21270
2026-01-25 02:15:04.13	15.40	11.55	-32.3	-47.4	3.8	7.42e-01	0	42	104	0	25	20481
2026-01-25 02:15:05.13	15.39	11.65	-32.0	-46.3	3.8	7.45e-01	0	43	104	0	25	18676
2026-01-25 02:15:06.13	15.37	11.75	-31.7	-45.7	3.8	7.46e-01	0	43	104	0	24	18107
2026-01-25 02:15:07.14	15.35	11.85	-31.3	-44.7	3.8	7.43e-01	0	43	104	0	24	16670
2026-01-25 02:15:08.15	15.34	11.96	-31.0	-44.1	3.8	7.43e-01	0	43	104	0	23	16291
2026-01-25 02:15:09.15	15.32	12.06	-30.7	-43.8	3.8	7.47e-01	0	43	104	0	22	16242
2026-01-25 02:15:10.16	15.30	12.16	-30.5	-43.2	3.8	7.46e-01	0	43	104	0	22	15518
2026-01-25 02:15:11.17	15.29	12.26	-30.3	-43.2	3.8	7.47e-01	0	43	104	0	21	15926
2026-01-25 02:15:12.18	15.27	12.37	-30.1	-42.8	3.8	7.46e-01	0	42	104	0	21	15468
2026-01-25 02:15:13.18	15.25	12.47	-30.0	-42.5	3.8	7.45e-01	0	42	104	0	21	15134
2026-01-25 02:15:14.19	15.24	12.58	-29.9	-42.8	3.8	7.47e-01	0	42	104	0	20	15813
2026-01-25 02:15:15.19	15.22	12.68	-30.0	-42.9	3.8	7.48e-01	0	43	104	0	20	15920
2026-01-25 02:15:16.20	15.20	12.79	-30.0	-42.9	3.8	7.45e-01	0	43	104	0	20	15892
2026-01-25 02:15:17.21	15.18	12.89	-29.8	-42.4	3.8	7.45e-01	0	43	104	0	20	15403
2026-01-25 02:15:18.21	15.16	13.00	-30.0	-42.9	3.8	7.47e-01	0	43	104	0	20	15930
2026-01-25 02:15:19.21	15.15	13.10	-30.2	-42.9	3.8	7.45e-01	0	43	104	0	21	15596
2026-01-25 02:15:20.21	15.13	13.21	-30.5	-43.7	3.8	7.46e-01	0	43	104	0	21	16508
2026-01-25 02:15:21.22	15.11	13.32	-30.9	-44.2	3.8	7.48e-01	0	43	104	0	22	16637
2026-01-25 02:15:22.23	15.09	13.43	-31.2	-44.6	3.8	7.47e-01	0	43	104	0	23	16898
2026-01-25 02:15:23.24	15.07	13.54	-31.3	-44.9	3.8	7.46e-01	0	43	104	0	23	17280
2026-01-25 02:15:24.25	15.05	13.65	-31.4	-45.2	3.8	7.45e-01	0	43	104	0	23	17724
2026-01-25 02:15:25.25	15.03	13.76	-31.5	-45.7	3.8	7.48e-01	0	43	104	0	23	18343
2026-01-25 02:15:26.26	15.01	13.87	-31.7	-45.8	3.8	7.44e-01	0	43	104	0	24	18305
2026-01-25 02:15:27.26	14.99	13.98	-31.9	-46.4	3.8	7.42e-01	0	43	104	0	24	19086
2026-01-25 02:15:28.27	14.97	14.09	-32.1	-47.0	3.8	7.45e-01	0	43	104	0	24	20043
2026-01-25 02:15:29.27	14.95	14.20	-32.1	-47.0	3.8	7.44e-01	0	43	104	0	25	20011
2026-01-25 02:15:30.28	14.93	14.32	-32.5	-48.0	3.8	7.44e-01	0	43	104	0	25	21484
2026-01-25 02:15:31.28	14.91	14.43	-32.7	-48.2	3.8	7.47e-01	0	43	104	0	26	21499
2026-01-25 02:15:32.29	14.89	14.54	-32.8	-48.8	3.8	7.47e-01	0	43	104	0	26	22625
2026-01-25 02:15:33.29	14.87	14.66	-32.9	-49.2	3.8	7.45e-01	0	43	104	0	26	23641
2026-01-25 02:15:34.29	14.85	14.77	-33.0	-49.8	3.8	7.46e-01	0	43	104	0	26	24799
2026-01-25 02:15:35.29	14.83	14.89	-33.1	-50.1	3.8	7.43e-01	0	43	104	0	26	25579
2026-01-25 02:15:36.29	14.81	15.00	-33.1	-50.1	3.8	7.44e-01	0	43	104	0	26	25367
2026-01-25 02:15:37.30	14.79	15.12	-33.1	-50.0	3.7	7.46e-01	0	43	104	0	26	25199
2026-01-25 02:15:38.30	14.77	15.24	-33.1	-49.6	3.7	7.41e-01	0	43	104	0	27	23959
2026-01-25 02:15:39.30	14.74	15.36	-33.1	-49.5	3.8	7.44e-01	0	43	104	0	27	23707
2026-01-25 02:15:40.31	14.72	15.48	-33.1	-49.5	3.8	7.42e-01	0	43	104	0	27	23763
2026-01-25 02:15:41.31	14.70	15.59	-33.1	-49.6	3.8	7.44e-01	0	43	104	0	27	24100
2026-01-25 02:15:42.32	14.68	15.72	-33.2	-49.9	3.8	7.47e-01	0	43	104	0	27	24564
2026-01-25 02:15:43.33	14.65	15.84	-33.1	-49.5	3.8	7.48e-01	0	43	104	0	27	23734
2026-01-25 02:15:44.33	14.63	15.96	-33.0	-49.6	3.8	7.46e-01	0	43	104	0	26	24225
2026-01-25 02:15:45.34	14.61	16.08	-32.9	-49.0	3.8	7.45e-01	0	43	104	0	26	23054
2026-01-25 02:15:46.34	14.58	16.20	-32.8	-48.5	3.8	7.46e-01	0	43	104	0	26	21981
2026-01-25 02:15:47.35	14.56	16.33	-32.6	-47.9	3.8	7.45e-01	0	43	104	0	26	20846
2026-01-25 02:15:48.35	14.53	16.45	-32.6	-47.6	3.8	7.45e-01	0	43	104	0	26	20269
2026-01-25 02:15:49.36	14.51	16.58	-32.4	-47.7	3.8	7.45e-01	0	43	104	0	25	20737
2026-01-25 02:15:50.35	14.48	16.70	-32.3	-47.2	3.8	7.42e-01	0	43	104	0	25	19852
2026-01-25 02:15:51.35	14.46	16.83	-32.2	-46.7	3.8	7.46e-01	0	43	104	0	25	19213
2026-01-25 02:15:52.36	14.43	16.95	-32.1	-46.7	3.8	7.46e-01	0	43	104	0	24	19526
2026-01-25 02:15:53.36	14.41	17.08	-31.9	-46.3	3.8	7.44e-01	0	43	104	0	24	18902
2026-01-25 02:15:54.36	14.38	17.21	-31.8	-45.8	3.8	7.44e-01	0	43	104	0	24	18185
2026-01-25 02:15:55.36	14.36	17.34	-31.4	-45.0	3.8	7.45e-01	0	43	104	0	23	17323
2026-01-25 02:15:56.36	14.33	17.47	-30.9	-44.3	3.8	7.45e-01	0	43	104	0	22	16752
2026-01-25 02:15:57.37	14.30	17.60	-30.5	-43.1	3.8	7.44e-01	0	43	104	0	22	15415
2026-01-25 02:15:58.38	14.28	17.73	-30.2	-42.7	3.8	7.42e-01	0	43	104	0	21	15316
2026-01-25 02:15:59.38	14.25	17.86	-29.9	-42.5	3.8	7.44e-01	0	43	104	0	20	15406
2026-01-25 02:16:00.39	14.22	17.99	-29.8	-42.2	3.8	7.46e-01	0	43	104	0	20	15111
2026-01-25 02:16:01.40	14.20	18.13	-29.7	-41.9	3.9	7.41e-01	0	43	104	0	20	14724
2026-01-25 02:16:02.41	14.17	18.26	-29.5	-32.8	5.2	7.03e-01	0	43	104	0	20	5283
2026-01-25 02:16:03.40	14.14	18.40	-29.5	-32.1	19.6	6.03e-01	0	43	0	0	20	4861
2026-01-25 02:16:04.41	14.11	18.54	-29.6	-32.3	19.6	6.04e-01	0	43	102	524288	20	4945
2026-01-25 02:16:05.41	14.08	18.67	-29.6	-32.4	19.6	6.02e-01	0	43	102	524288	20	4966
2026-01-25 02:16:06.42	14.05	18.81	-29.7	-32.6	19.5	6.02e-01	0	43	102	524288	20	5037
2026-01-25 02:16:07.42	14.02	18.95	-29.8	-32.8	19.3	6.03e-01	0	43	102	524288	20	5103
2026-01-25 02:16:08.43	13.99	19.09	-29.6	-32.3	19.7	6.03e-01	0	43	102	524288	20	4927
2026-01-25 02:16:09.43	13.96	19.23	-29.5	-32.1	19.8	6.02e-01	0	43	102	524288	20	4860
2026-01-25 02:16:10.43	13.93	19.37	-29.6	-32.7	19.8	6.03e-01	0	43	102	524288	19	5171
2026-01-25 02:16:11.44	13.90	19.51	-29.6	-32.7	19.8	6.05e-01	0	43	102	524288	19	5169
2026-01-25 02:16:12.44	13.87	19.65	-29.6	-32.8	19.8	6.00e-01	0	43	102	524288	19	5192
2026-01-25 02:16:13.45	13.84	19.80	-29.6	-32.4	19.7	6.03e-01	0	43	102	524288	20	4959
2026-01-25 02:16:14.45	13.81	19.94	-29.6	-32.4	19.7	6.01e-01	0	43	102	524288	20	4957
2026-01-25 02:16:15.46	13.77	20.09	-29.5	-32.2	19.8	6.03e-01	0	43	102	524288	20	4873
2026-01-25 02:16:16.46	13.74	20.24	-29.6	-32.7	19.8	6.04e-01	0	43	102	524288	19	5169
2026-01-25 02:16:17.47	13.71	20.38	-29.6	-32.7	19.9	6.03e-01	0	43	102	524288	19	5158
2026-01-25 02:16:18.48	13.67	20.53	-29.5	-32.2	19.8	5.99e-01	0	43	102	524288	20	4870
2026-01-25 02:16:19.48	13.64	20.68	-29.7	-32.5	19.7	6.01e-01	0	43	102	524288	20	4996
2026-01-25 02:16:20.49	13.61	20.83	-29.6	-32.5	19.6	6.01e-01	0	43	102	524288	20	4980
2026-01-25 02:16:21.48	13.57	20.98	-29.7	-32.6	19.6	6.04e-01	0	43	102	524288	20	5012
2026-01-25 02:16:22.48	13.54	21.14	-29.7	-32.7	19.5	6.01e-01	0	43	102	524288	20	5043
2026-01-25 02:16:23.49	13.50	21.29	-29.7	-32.7	19.5	6.03e-01	0	43	102	524288	20	5063
2026-01-25 02:16:24.49	13.47	21.44	-29.9	-33.0	19.4	6.03e-01	0	43	102	524288	20	5173
2026-01-25 02:16:25.50	13.43	21.60	-29.9	-33.1	19.3	6.03e-01	0	43	102	524288	20	5193
2026-01-25 02:16:26.51	13.39	21.76	-29.8	-32.8	19.5	6.04e-01	0	43	102	524288	20	5077
2026-01-25 02:16:27.51	13.36	21.91	-29.8	-32.7	19.5	6.02e-01	0	43	102	524288	20	5055
2026-01-25 02:16:28.51	13.32	22.07	-29.8	-32.7	19.5	6.03e-01	0	43	102	524288	20	5070
2026-01-25 02:16:29.52	13.28	22.23	-29.7	-32.6	19.6	6.03e-01	0	43	102	524288	20	5020
2026-01-25 02:16:30.52	13.24	22.39	-29.8	-32.7	19.5	6.02e-01	0	43	102	524288	20	5070
2026-01-25 02:16:31.53	13.20	22.56	-29.7	-32.6	19.5	6.03e-01	0	43	102	524288	20	5036
2026-01-25 02:16:32.54	13.16	22.72	-29.8	-32.8	19.5	6.02e-01	0	43	102	524288	20	5075
2026-01-25 02:16:33.54	13.12	22.88	-29.8	-32.8	19.5	6.04e-01	0	43	102	524288	20	5091
2026-01-25 02:16:34.54	13.08	23.05	-29.6	-32.4	19.7	6.03e-01	0	43	102	524288	20	4941
2026-01-25 02:16:35.54	13.04	23.21	-29.5	-32.1	19.9	6.03e-01	0	43	102	524288	20	4843
2026-01-25 02:16:36.54	13.00	23.38	-29.6	-32.2	19.9	6.03e-01	0	43	102	524288	20	4880
2026-01-25 02:16:37.55	12.96	23.55	-29.6	-32.3	19.9	6.01e-01	0	44	102	524288	20	4919
2026-01-25 02:16:38.55	12.92	23.72	-29.6	-32.4	19.8	6.01e-01	0	43	102	524288	20	4929
2026-01-25 02:16:39.55	12.87	23.89	-29.7	-32.4	19.8	6.04e-01	0	44	102	524288	20	4954
2026-01-25 02:16:40.55	12.83	24.06	-29.6	-32.4	19.8	6.01e-01	0	43	102	524288	20	4929
2026-01-25 02:16:41.56	12.79	24.24	-29.6	-32.3	19.9	6.02e-01	0	43	102	524288	20	4896
2026-01-25 02:16:42.55	12.74	24.41	-29.6	-32.2	20.0	6.02e-01	0	43	102	524288	20	4871
2026-01-25 02:16:43.56	12.70	24.59	-29.6	-32.4	19.8	6.01e-01	0	43	102	524288	20	4927
2026-01-25 02:16:44.56	12.65	24.76	-29.6	-32.3	19.9	6.05e-01	0	43	102	524288	20	4920
2026-01-25 02:16:45.56	12.61	24.94	-29.6	-32.2	20.0	6.01e-01	0	44	102	524288	20	4861
2026-01-25 02:16:46.56	12.56	25.12	-29.7	-32.4	19.9	6.02e-01	0	43	102	524288	20	4950
2026-01-25 02:16:47.57	12.51	25.30	-29.6	-32.3	19.8	6.02e-01	0	44	102	524288	20	4922
2026-01-25 02:16:48.58	12.46	25.49	-29.5	-32.1	20.0	6.03e-01	0	43	102	524288	20	4834
2026-01-25 02:16:49.59	12.41	25.67	-29.6	-32.7	20.0	6.01e-01	0	43	102	524288	19	5140
2026-01-25 02:16:50.59	12.36	25.86	-29.5	-32.1	20.0	6.03e-01	0	44	102	524288	20	4834
2026-01-25 02:16:51.60	12.31	26.04	-29.5	-31.9	20.1	6.04e-01	0	43	102	524288	20	4772
2026-01-25 02:16:52.60	12.26	26.23	-29.5	-32.6	20.1	6.03e-01	0	43	102	524288	19	5110
2026-01-25 02:16:53.61	12.21	26.42	-29.6	-32.4	19.9	6.01e-01	0	43	102	524288	20	4924
2026-01-25 02:16:54.61	12.16	26.61	-29.8	-32.8	19.6	6.03e-01	0	43	102	524288	20	5077
2026-01-25 02:16:55.62	12.11	26.80	-29.8	-32.9	19.5	6.02e-01	0	43	102	524288	20	5107
2026-01-25 02:16:56.62	12.05	27.00	-29.6	-32.4	19.8	6.02e-01	0	44	102	524288	20	4928
2026-01-25 02:16:57.63	12.00	27.19	-29.5	-32.0	20.1	6.04e-01	0	44	102	524288	20	4785
2026-01-25 02:16:58.64	11.94	27.39	-29.5	-32.5	20.2	6.01e-01	0	44	102	524288	19	5066
2026-01-25 02:16:59.64	11.89	27.59	-29.5	-32.4	20.3	6.02e-01	0	43	102	524288	19	5028
2026-01-25 02:17:00.65	11.83	27.79	-29.5	-32.5	19.4	6.05e-01	0	44	102	524288	19	5104
2026-01-25 02:17:01.66	11.77	27.99	-29.4	-32.2	19.7	6.04e-01	0	43	102	524288	19	4964
2026-01-25 02:17:02.67	11.72	28.20	-29.2	-31.7	20.6	6.05e-01	0	44	102	524288	19	4813
2026-01-25 02:17:03.67	11.66	28.40	-29.2	-31.7	19.3	6.04e-01	0	43	102	524288	19	4810
2026-01-25 02:17:04.67	11.60	28.61	-29.4	-32.2	19.0	6.01e-01	0	44	102	524288	19	4982
2026-01-25 02:17:05.68	11.54	28.82	-29.5	-32.5	20.2	6.03e-01	0	43	102	524288	19	5059
2026-01-25 02:17:06.69	11.47	29.03	-29.6	-32.6	20.2	6.01e-01	0	43	102	524288	19	5109
2026-01-25 02:17:07.69	11.41	29.24	-29.6	-32.2	20.0	6.02e-01	0	44	102	524288	20	4868
2026-01-25 02:17:08.69	11.35	29.45	-29.8	-32.7	19.7	6.02e-01	0	43	102	524288	20	5050
2026-01-25 02:17:09.69	11.29	29.66	-29.7	-32.5	19.9	6.01e-01	0	43	102	524288	20	4948
2026-01-25 02:17:10.69	11.22	29.88	-29.5	-32.4	20.3	6.00e-01	0	44	102	524288	19	5023
2026-01-25 02:17:11.69	11.15	30.09	-29.4	-32.2	20.4	6.03e-01	0	43	102	524288	19	4964
2026-01-25 02:17:12.70	11.09	30.31	-29.6	-32.6	20.2	6.03e-01	0	43	102	524288	19	5110
2026-01-25 02:17:13.71	11.02	30.54	-29.4	-31.8	20.3	6.01e-01	0	44	102	524288	20	4730
2026-01-25 02:17:14.71	10.95	30.76	-29.3	-31.5	20.5	6.05e-01	0	43	102	524288	20	4629
2026-01-25 02:17:15.71	10.88	30.98	-29.4	-32.3	20.4	6.02e-01	0	44	102	524288	19	4996
2026-01-25 02:17:16.72	10.81	31.21	-29.5	-32.3	20.3	6.02e-01	0	43	102	524288	19	5013
2026-01-25 02:17:17.73	10.74	31.44	-29.4	-32.3	20.4	6.02e-01	0	43	102	524288	19	4989
2026-01-25 02:17:18.73	10.66	31.67	-29.5	-32.5	20.2	6.02e-01	0	44	102	524288	19	5054
2026-01-25 02:17:19.74	10.59	31.90	-29.3	-31.6	20.5	6.02e-01	0	43	102	524288	20	4648
2026-01-25 02:17:20.74	10.51	32.14	-29.2	-31.1	20.7	6.01e-01	0	43	102	524288	20	4498
2026-01-25 02:17:21.75	10.43	32.38	-29.1	-31.5	20.8	6.03e-01	0	44	102	524288	19	4743
2026-01-25 02:17:22.74	10.36	32.61	-29.2	-31.8	20.7	6.03e-01	0	44	102	524288	19	4812
2026-01-25 02:17:23.74	10.28	32.85	-29.3	-32.0	20.6	6.05e-01	0	44	102	524288	19	4877
2026-01-25 02:17:24.74	10.20	33.09	-29.3	-32.0	20.6	6.04e-01	0	43	102	524288	19	4905
2026-01-25 02:17:25.75	10.12	33.34	-29.5	-32.3	20.4	6.04e-01	0	43	102	524288	19	5002
2026-01-25 02:17:26.75	10.03	33.58	-29.4	-32.3	20.5	6.02e-01	0	43	102	524288	19	4982
2026-01-25 02:17:27.76	9.95	33.83	-29.6	-32.6	20.2	6.03e-01	0	44	102	524288	19	5103
2026-01-25 02:17:28.76	9.86	34.08	-29.6	-32.2	20.1	6.03e-01	0	44	102	524288	20	4847
2026-01-25 02:17:29.77	9.77	34.33	-29.7	-32.5	19.9	6.03e-01	0	44	102	524288	20	4971
2026-01-25 02:17:30.77	9.68	34.59	-29.8	-32.7	19.8	6.02e-01	0	44	102	524288	20	5018
2026-01-25 02:17:31.78	9.59	34.85	-29.8	-32.7	19.8	6.03e-01	0	44	102	524288	20	5026
2026-01-25 02:17:32.79	9.50	35.11	-29.9	-32.9	19.7	6.02e-01	0	43	102	524288	20	5082
2026-01-25 02:17:33.79	9.41	35.37	-29.8	-32.8	19.7	6.02e-01	0	44	102	524288	20	5053
2026-01-25 02:17:34.79	9.31	35.63	-29.8	-32.8	19.8	6.02e-01	0	43	102	524288	20	5061
2026-01-25 02:17:35.80	9.21	35.90	-30.0	-33.1	19.6	6.02e-01	0	44	102	524288	20	5177
2026-01-25 02:17:36.81	9.12	36.17	-30.1	-33.4	19.4	6.03e-01	0	44	102	524288	20	5269
2026-01-25 02:17:37.81	9.02	36.43	-30.3	-33.4	19.1	6.03e-01	0	44	102	524288	21	5177
2026-01-25 02:17:38.81	8.91	36.71	-30.5	-33.9	18.8	5.99e-01	0	43	102	524288	21	5363
2026-01-25 02:17:39.82	8.81	36.98	-30.4	-33.8	18.9	6.02e-01	0	44	102	524288	21	5316
2026-01-25 02:17:40.83	8.70	37.26	-30.3	-33.5	19.1	6.00e-01	0	44	102	524288	21	5207
2026-01-25 02:17:41.83	8.60	37.54	-30.5	-33.9	18.9	6.02e-01	0	43	102	524288	21	5343
2026-01-25 02:17:42.83	8.49	37.82	-30.5	-34.1	18.7	6.01e-01	0	44	102	524288	21	5425
2026-01-25 02:17:43.83	8.37	38.10	-30.6	-33.8	18.6	6.03e-01	0	43	102	524288	22	5181
2026-01-25 02:17:44.83	8.26	38.39	-30.7	-34.0	18.5	6.02e-01	0	44	102	524288	22	5257
2026-01-25 02:17:45.84	8.14	38.68	-30.6	-33.9	18.5	6.02e-01	0	44	102	524288	22	5222
2026-01-25 02:17:46.83	8.03	38.97	-30.8	-34.2	18.3	6.04e-01	0	44	102	524288	22	5358
2026-01-25 02:17:47.84	7.91	39.26	-30.7	-34.1	18.4	6.00e-01	0	44	102	524288	22	5320
2026-01-25 02:17:48.84	7.78	39.56	-30.7	-33.9	18.5	6.01e-01	0	44	102	524288	22	5226
2026-01-25 02:17:49.85	7.66	39.86	-30.8	-34.2	18.4	6.02e-01	0	44	102	524288	22	5338
2026-01-25 02:17:50.85	7.53	40.16	-30.9	-34.5	18.1	6.01e-01	0	44	102	524288	22	5481
2026-01-25 02:17:51.85	7.40	40.46	-30.8	-34.2	18.3	6.03e-01	0	44	102	524288	22	5363
2026-01-25 02:17:52.85	7.27	40.77	-30.5	-33.4	18.8	6.02e-01	0	44	102	524288	22	5058
2026-01-25 02:17:53.85	7.13	41.08	-30.5	-33.4	18.9	6.04e-01	0	44	102	524288	22	5053
2026-01-25 02:17:54.86	7.00	41.39	-30.7	-34.0	18.5	6.04e-01	0	43	102	524288	22	5252
2026-01-25 02:17:55.87	6.85	41.71	-30.6	-33.6	18.7	6.01e-01	0	44	102	524288	22	5136
2026-01-25 02:17:56.88	6.71	42.03	-30.4	-33.3	18.9	6.05e-01	0	43	102	524288	22	5015
2026-01-25 02:17:57.88	6.56	42.35	-30.3	-32.9	19.2	6.01e-01	0	44	102	524288	22	4857
2026-01-25 02:17:58.88	6.41	42.67	-30.2	-33.3	19.2	6.03e-01	0	43	102	524288	21	5110
2026-01-25 02:17:59.89	6.26	42.99	-30.1	-32.9	19.4	6.00e-01	0	43	102	524288	21	4990
2026-01-25 02:18:00.88	6.10	43.32	-30.0	-33.3	19.5	6.02e-01	0	44	102	524288	20	5239
2026-01-25 02:18:01.89	5.94	43.65	-29.8	-32.8	19.8	6.01e-01	0	44	102	524288	20	5056
2026-01-25 02:18:02.89	5.78	43.98	-29.8	-32.8	19.8	6.01e-01	0	44	102	524288	20	5044
2026-01-25 02:18:03.89	5.62	44.32	-29.8	-32.7	19.8	6.03e-01	0	44	102	524288	20	5028
2026-01-25 02:18:04.90	5.44	44.66	-29.9	-32.9	19.7	6.01e-01	0	44	102	524288	20	5084
2026-01-25 02:18:05.90	5.27	45.00	-29.8	-32.6	19.9	6.03e-01	0	44	102	524288	20	4982
2026-01-25 02:18:06.90	5.09	45.35	-29.6	-32.3	20.1	6.02e-01	0	44	102	524288	20	4868
2026-01-25 02:18:07.90	4.91	45.69	-30.1	-33.4	19.5	6.04e-01	0	44	102	524288	20	5263
2026-01-25 02:18:08.90	4.72	46.04	-30.1	-32.9	19.4	6.02e-01	0	44	102	524288	21	4984
2026-01-25 02:18:09.91	4.53	46.40	-29.8	-32.6	20.0	6.02e-01	0	44	102	524288	20	4965
2026-01-25 02:18:10.91	4.34	46.75	-29.9	-32.8	19.9	6.02e-01	0	44	102	524288	20	5043
2026-01-25 02:18:11.92	4.14	47.11	-30.0	-33.1	19.6	6.01e-01	0	43	102	524288	20	5155
2026-01-25 02:18:12.93	3.93	47.48	-30.0	-33.1	19.6	6.01e-01	0	44	102	524288	20	5161
2026-01-25 02:18:13.93	3.72	47.84	-30.2	-33.2	19.3	6.02e-01	0	44	102	524288	21	5078
2026-01-25 02:18:14.93	3.51	48.21	-30.4	-33.6	19.0	6.02e-01	0	43	102	524288	21	5243
2026-01-25 02:18:15.94	3.28	48.58	-30.7	-33.9	18.6	6.02e-01	0	43	102	524288	22	5240
2026-01-25 02:18:16.95	3.06	48.96	-30.5	-33.6	18.7	6.02e-01	0	43	102	524288	22	5118
2026-01-25 02:18:17.95	2.83	49.33	-30.3	-33.0	19.1	6.04e-01	0	44	102	524288	22	4899
2026-01-25 02:18:18.96	2.59	49.71	-30.3	-33.4	19.2	6.04e-01	0	44	102	524288	21	5169
2026-01-25 02:18:19.97	2.34	50.10	-30.5	-34.0	18.8	6.01e-01	0	44	102	524288	21	5381
2026-01-25 02:18:20.97	2.09	50.48	-30.3	-33.4	19.1	6.02e-01	0	44	102	524288	21	5153
2026-01-25 02:18:21.97	1.84	50.87	-30.4	-33.7	19.0	6.03e-01	0	44	102	524288	21	5273
2026-01-25 02:18:22.98	1.57	51.26	-31.0	-34.8	18.1	6.03e-01	0	44	102	524288	22	5568
2026-01-25 02:18:23.98	1.30	51.65	-30.5	-33.6	18.8	6.03e-01	0	44	102	524288	22	5096
2026-01-25 02:18:24.99	1.02	52.05	-30.0	-32.6	19.7	6.03e-01	0	44	102	524288	21	4858
2026-01-25 02:18:25.99	0.73	52.44	-29.4	-31.7	20.5	6.03e-01	0	44	102	524288	20	4684
2026-01-25 02:18:26.99	0.44	52.84	-29.3	-31.3	20.8	6.01e-01	0	44	102	524288	20	4566
2026-01-25 02:18:28.00	0.14	53.25	-29.1	-31.4	20.9	6.03e-01	0	44	102	524288	19	4688
2026-01-25 02:18:29.01	359.82	53.66	-29.1	-31.5	20.9	6.04e-01	0	44	102	524288	19	4722
2026-01-25 02:18:30.01	359.50	54.07	-29.3	-31.8	20.9	6.04e-01	0	44	102	524288	19	4823
2026-01-25 02:18:31.02	359.17	54.48	-29.1	-31.5	21.0	6.02e-01	0	44	102	524288	19	4714
2026-01-25 02:18:32.02	358.83	54.89	-29.2	-31.6	20.9	6.00e-01	0	44	102	524288	19	4761
2026-01-25 02:18:33.03	358.48	55.31	-28.2	-30.9	20.7	6.04e-01	0	44	102	524288	19	4907
2026-01-25 02:18:34.03	358.12	55.73	-29.3	-32.0	20.5	6.04e-01	0	44	102	524288	19	4872
2026-01-25 02:18:35.03	357.75	56.15	-29.4	-32.2	20.5	6.04e-01	0	44	102	524288	19	4969
2026-01-25 02:18:36.03	357.37	56.57	-29.6	-32.2	19.0	6.03e-01	0	44	102	524288	20	4855
2026-01-25 02:18:37.02	356.98	56.99	-30.0	-33.2	18.6	6.06e-01	0	44	102	524288	20	5184
2026-01-25 02:18:38.03	356.57	57.42	-29.7	-32.4	20.1	6.01e-01	0	44	102	524288	20	4902
2026-01-25 02:18:39.03	356.15	57.84	-30.0	-33.2	19.6	6.03e-01	0	44	102	524288	20	5182
2026-01-25 02:18:40.03	355.71	58.27	-30.1	-33.0	18.7	6.01e-01	0	44	102	524288	21	5000
2026-01-25 02:18:41.02	355.27	58.70	-30.3	-33.5	19.1	6.03e-01	0	44	102	524288	21	5205
2026-01-25 02:18:42.03	354.80	59.13	-30.3	-33.4	18.9	6.04e-01	0	44	102	524288	21	5142
2026-01-25 02:18:43.02	354.33	59.56	-30.0	-33.0	19.7	6.03e-01	0	44	102	524288	20	5109
2026-01-25 02:18:44.02	353.83	60.00	-30.6	-33.8	18.6	6.04e-01	0	44	102	524288	22	5198
2026-01-25 02:18:45.03	353.32	60.44	-30.2	-33.3	19.2	6.03e-01	0	44	102	524288	21	5093
2026-01-25 02:18:46.04	352.78	60.88	-30.1	-32.8	19.5	6.02e-01	0	44	102	524288	21	4929
2026-01-25 02:18:47.04	352.23	61.32	-30.3	-33.3	19.3	6.03e-01	0	44	102	524288	21	5102
2026-01-25 02:18:48.04	351.66	61.75	-30.9	-34.4	18.2	6.02e-01	0	44	102	524288	22	5425
2026-01-25 02:18:49.04	351.07	62.19	-30.2	-33.2	19.3	6.02e-01	0	44	102	524288	21	5084
2026-01-25 02:18:50.05	350.45	62.64	-30.4	-33.8	19.0	6.01e-01	0	44	102	524288	21	5287
2026-01-25 02:18:51.05	349.82	63.07	-30.9	-34.6	18.2	6.04e-01	0	44	102	524288	22	5481
2026-01-25 02:18:52.06	349.15	63.52	-30.9	-34.6	18.2	6.03e-01	0	44	102	524288	22	5502
2026-01-25 02:18:53.06	348.46	63.96	-30.9	-34.6	18.2	6.03e-01	0	44	102	524288	22	5490
2026-01-25 02:18:54.07	347.74	64.40	-31.3	-35.3	17.4	6.03e-01	0	44	102	524288	23	5671
2026-01-25 02:18:55.07	347.00	64.83	-31.7	-35.8	16.8	6.01e-01	0	44	102	524288	24	5788
2026-01-25 02:18:56.07	346.23	65.27	-31.6	-35.5	17.1	6.01e-01	0	44	102	524288	24	5625
2026-01-25 02:18:57.07	345.43	65.70	-31.9	-36.3	16.5	6.02e-01	0	44	102	524288	24	5996
2026-01-25 02:18:58.08	344.59	66.14	-32.5	-37.9	15.0	6.04e-01	0	44	102	524288	25	6742
2026-01-25 02:18:59.07	343.73	66.56	-31.9	-35.8	16.5	6.02e-01	0	44	102	524288	25	5690
2026-01-25 02:19:00.07	342.83	66.99	-31.8	-36.2	16.7	6.03e-01	0	44	102	524288	24	5946
2026-01-25 02:19:01.08	341.88	67.42	-32.0	-36.7	16.3	6.01e-01	0	44	102	524288	24	6223
2026-01-25 02:19:02.09	340.89	67.84	-31.9	-36.6	16.4	6.02e-01	0	44	102	524288	24	6140
2026-01-25 02:19:03.10	339.86	68.26	-32.0	-36.7	16.3	6.04e-01	0	44	102	524288	24	6211
2026-01-25 02:19:04.10	338.79	68.67	-32.3	-37.3	15.5	6.03e-01	0	44	102	524288	25	6413
2026-01-25 02:19:05.10	337.68	69.07	-32.0	-36.5	16.0	6.02e-01	0	44	102	524288	25	5996
2026-01-25 02:19:06.11	336.51	69.48	-32.0	-36.5	15.9	6.02e-01	0	44	102	524288	25	6048
2026-01-25 02:19:07.11	335.31	69.87	-32.1	-37.0	15.5	6.02e-01	0	44	102	524288	25	6282
2026-01-25 02:19:08.12	334.03	70.26	-32.1	-36.7	15.7	6.02e-01	0	44	102	524288	25	6148
2026-01-25 02:19:09.11	332.74	70.64	-31.9	-36.0	16.3	6.00e-01	0	44	102	524288	25	5785
2026-01-25 02:19:10.12	331.35	71.01	-32.0	-36.5	15.9	6.05e-01	0	44	102	524288	25	6008
2026-01-25 02:19:11.13	329.91	71.37	-31.9	-35.9	16.4	6.03e-01	0	44	102	524288	25	5698
2026-01-25 02:19:12.13	328.43	71.72	-32.0	-36.9	16.2	6.03e-01	0	44	102	524288	24	6266
2026-01-25 02:19:13.14	326.87	72.06	-31.8	-35.6	16.7	6.02e-01	0	44	102	524288	25	5557
2026-01-25 02:19:14.14	325.26	72.39	-31.6	-34.9	17.2	6.02e-01	0	44	102	524288	25	5269
2026-01-25 02:19:15.14	323.59	72.71	-31.7	-35.1	16.9	6.02e-01	0	44	102	524288	25	5362
2026-01-25 02:19:16.15	321.83	73.01	-31.7	-35.2	16.9	6.02e-01	0	44	102	524288	25	5398
2026-01-25 02:19:17.15	320.03	73.30	-31.6	-34.9	17.0	6.02e-01	0	44	102	524288	25	5271
2026-01-25 02:19:18.15	318.17	73.57	-31.9	-35.7	16.6	6.04e-01	0	44	102	524288	25	5616
2026-01-25 02:19:19.15	316.24	73.82	-31.8	-35.6	16.7	6.02e-01	0	44	102	524288	25	5555
2026-01-25 02:19:20.16	314.23	74.06	-31.7	-35.1	17.1	6.01e-01	0	44	102	524288	25	5334
2026-01-25 02:19:21.16	312.17	74.27	-32.2	-36.9	15.9	6.05e-01	0	44	102	524288	25	6153
2026-01-25 02:19:22.17	310.04	74.47	-31.9	-35.6	16.7	6.01e-01	0	44	102	524288	25	5555
2026-01-25 02:19:23.17	307.88	74.65	-32.1	-36.5	16.1	6.01e-01	0	44	102	524288	25	5986
2026-01-25 02:19:24.17	305.67	74.81	-31.9	-35.8	16.6	6.01e-01	0	44	102	524288	25	5629
2026-01-25 02:19:25.18	303.39	74.94	-31.7	-35.2	16.8	6.04e-01	0	44	102	524288	25	5420
2026-01-25 02:19:26.18	301.09	75.05	-31.6	-35.1	16.7	6.03e-01	0	44	102	524288	25	5359
2026-01-25 02:19:27.19	298.74	75.14	-31.5	-35.7	16.9	6.00e-01	0	44	102	524288	23	5854
2026-01-25 02:19:28.19	296.38	75.20	-31.6	-35.6	16.5	6.03e-01	0	44	102	524288	24	5704
2026-01-25 02:19:29.20	293.99	75.24	-31.3	-34.7	17.0	6.02e-01	0	44	102	524288	24	5328
2026-01-25 02:19:30.20	291.61	75.25	-31.4	-35.6	16.7	6.02e-01	0	44	102	524288	23	5802
2026-01-25 02:19:31.21	289.21	75.24	-31.5	-35.8	16.6	6.04e-01	0	44	102	524288	23	5899
2026-01-25 02:19:32.22	286.81	75.21	-31.7	-36.0	16.4	6.00e-01	0	44	102	524288	24	5869
2026-01-25 02:19:33.23	284.43	75.15	-31.6	-35.8	16.4	6.06e-01	0	44	102	524288	24	5775
2026-01-25 02:19:34.23	282.10	75.06	-31.9	-36.6	15.9	6.03e-01	0	44	102	524288	24	6176
2026-01-25 02:19:35.24	279.78	74.95	-31.4	-34.9	17.2	6.02e-01	0	44	102	524288	24	5390
2026-01-25 02:19:36.25	277.49	74.82	-31.6	-35.6	16.9	6.01e-01	0	44	102	524288	24	5730
2026-01-25 02:19:37.25	275.27	74.67	-31.6	-35.6	16.8	6.02e-01	0	44	102	524288	24	5691
2026-01-25 02:19:38.25	273.10	74.49	-31.6	-35.4	16.9	6.03e-01	0	44	102	524288	24	5625
2026-01-25 02:19:39.26	270.96	74.30	-31.8	-36.2	16.0	6.02e-01	0	44	102	524288	24	6014
2026-01-25 02:19:40.27	268.88	74.08	-31.5	-35.6	15.9	6.03e-01	0	44	102	524288	24	5755
2026-01-25 02:19:41.28	266.87	73.84	-31.2	-35.2	15.1	6.03e-01	0	44	102	524288	24	5698
2026-01-25 02:19:42.28	264.93	73.59	-31.2	-35.7	14.6	6.03e-01	0	44	102	524288	23	6062
2026-01-25 02:19:43.28	263.06	73.32	-31.4	-36.6	13.9	6.03e-01	0	44	102	524288	23	6491
2026-01-25 02:19:44.28	261.25	73.04	-31.1	-35.3	14.8	6.04e-01	0	44	102	524288	23	5860
2026-01-25 02:19:45.29	259.49	72.73	-30.9	-35.3	15.0	6.02e-01	0	44	102	524288	22	5965
2026-01-25 02:19:46.29	257.81	72.42	-31.2	-35.8	14.3	6.02e-01	0	44	102	524288	23	6088
2026-01-25 02:19:47.30	256.17	72.09	-31.0	-35.4	14.2	6.00e-01	0	44	102	524288	23	5972
2026-01-25 02:19:48.30	254.62	71.75	-31.3	-37.1	11.8	6.08e-01	0	44	102	524288	23	7090
2026-01-25 02:19:49.30	253.13	71.40	-30.8	-35.6	12.4	6.07e-01	0	44	102	524288	23	6248
2026-01-25 02:19:50.31	251.68	71.04	-30.6	-36.1	10.8	6.16e-01	0	44	102	524288	23	6787
2026-01-25 02:19:51.31	250.31	70.67	-29.9	-35.7	9.6	6.22e-01	0	44	102	524288	22	6978
2026-01-25 02:19:52.31	248.99	70.29	-29.3	-36.3	8.5	6.37e-01	0	44	102	524288	20	7990
2026-01-25 02:19:53.31	247.72	69.91	-29.0	-35.7	7.9	6.45e-01	0	44	102	524288	20	7753
2026-01-25 02:19:54.31	246.51	69.51	-28.8	-36.0	7.2	6.56e-01	0	44	102	524288	19	8237
2026-01-25 02:19:55.31	245.34	69.12	-28.8	-36.9	6.4	6.76e-01	0	44	102	524288	18	9151
2026-01-25 02:19:56.32	244.22	68.71	-28.6	-36.9	6.1	6.82e-01	0	44	102	524288	18	9357
2026-01-25 02:19:57.32	243.15	68.30	-28.5	-37.7	5.7	6.88e-01	0	44	102	524288	17	10379
2026-01-25 02:19:58.33	242.11	67.88	-28.6	-37.5	5.9	6.82e-01	0	44	102	524288	18	10002
2026-01-25 02:19:59.34	241.11	67.45	-28.9	-38.8	5.5	7.00e-01	0	44	102	524288	18	11215
2026-01-25 02:20:00.34	240.17	67.03	-29.4	-38.6	6.1	6.79e-01	0	44	102	524288	19	10380
2026-01-25 02:20:01.34	239.26	66.60	-29.6	-37.7	7.8	6.45e-01	0	44	102	524288	19	9174
2026-01-25 02:20:02.35	238.38	66.17	-29.6	-36.9	8.7	6.36e-01	0	44	102	524288	20	8324
2026-01-25 02:20:03.35	237.54	65.74	-29.7	-37.2	8.5	6.38e-01	0	44	102	524288	20	8501
2026-01-25 02:20:04.36	236.73	65.30	-29.5	-35.8	9.7	6.23e-01	0	44	102	524288	20	7440
2026-01-25 02:20:05.35	235.96	64.87	-29.1	-34.3	10.5	6.17e-01	0	44	102	524288	20	6570
2026-01-25 02:20:06.35	235.22	64.43	-29.3	-35.2	10.1	6.18e-01	0	44	102	524288	19	7074
2026-01-25 02:20:07.36	234.50	63.99	-29.7	-35.1	10.8	6.14e-01	0	44	102	524288	20	6734
2026-01-25 02:20:08.37	233.80	63.54	-29.9	-34.2	14.1	6.05e-01	0	44	102	524288	20	5932
2026-01-25 02:20:09.38	233.13	63.10	-30.2	-34.1	15.2	6.03e-01	0	44	102	524288	21	5684
2026-01-25 02:20:10.38	232.49	62.66	-30.0	-33.7	15.5	6.02e-01	0	44	102	524288	21	5547
2026-01-25 02:20:11.39	231.87	62.21	-30.3	-34.5	14.9	6.03e-01	0	44	102	524288	21	5819
2026-01-25 02:20:12.39	231.28	61.77	-30.0	-33.9	16.6	6.02e-01	0	44	102	524288	20	5619
2026-01-25 02:20:13.39	230.71	61.33	-29.6	-32.6	17.8	6.02e-01	0	44	102	524288	20	5083
2026-01-25 02:20:14.40	230.15	60.89	-30.2	-33.8	16.5	6.02e-01	0	44	102	524288	21	5467
2026-01-25 02:20:15.40	229.61	60.45	-30.3	-34.1	16.2	6.04e-01	0	44	102	524288	21	5579
2026-01-25 02:20:16.40	229.10	60.02	-30.3	-33.9	16.9	6.01e-01	0	44	102	524288	21	5488
2026-01-25 02:20:17.41	228.60	59.58	-30.0	-33.1	17.3	6.01e-01	0	44	102	524288	21	5176
2026-01-25 02:20:18.41	228.12	59.14	-29.7	-33.1	17.3	6.05e-01	0	44	102	524288	20	5279
2026-01-25 02:20:19.41	227.65	58.71	-29.9	-33.4	17.1	6.03e-01	0	44	102	524288	20	5431
2026-01-25 02:20:20.42	227.20	58.27	-29.8	-33.4	16.9	6.03e-01	0	44	102	524288	20	5430
2026-01-25 02:20:21.42	226.76	57.84	-29.6	-32.8	17.2	6.03e-01	0	44	102	524288	20	5207
2026-01-25 02:20:22.42	226.34	57.41	-29.6	-32.7	17.4	6.01e-01	0	44	102	524288	20	5149
2026-01-25 02:20:23.42	225.93	56.99	-29.7	-33.1	17.2	6.00e-01	0	44	102	524288	20	5319
2026-01-25 02:20:24.43	225.53	56.56	-29.1	-31.5	18.4	6.03e-01	0	44	102	524288	20	4719
2026-01-25 02:20:25.43	225.15	56.14	-28.9	-31.4	19.0	6.02e-01	0	44	102	524288	19	4778
2026-01-25 02:20:26.44	224.77	55.71	-28.8	-31.0	19.1	6.01e-01	0	44	102	524288	19	4656
2026-01-25 02:20:27.44	224.41	55.29	-28.9	-31.2	19.1	6.04e-01	0	44	102	524288	19	4721
2026-01-25 02:20:28.44	224.06	54.88	-28.4	-30.0	20.0	6.04e-01	0	44	102	524288	19	4327
2026-01-25 02:20:29.45	223.72	54.46	-28.4	-30.4	20.5	6.02e-01	0	44	102	524288	18	4551
2026-01-25 02:20:30.45	223.39	54.05	-28.8	-31.3	20.2	6.03e-01	0	44	102	524288	18	4841
2026-01-25 02:20:31.46	223.07	53.64	-28.6	-30.9	20.5	6.03e-01	0	44	102	524288	18	4690
2026-01-25 02:20:32.46	222.76	53.23	-28.7	-31.1	20.6	6.02e-01	0	44	102	524288	18	4760
2026-01-25 02:20:33.46	222.45	52.83	-28.4	-30.3	20.9	6.01e-01	0	44	102	524288	18	4520
2026-01-25 02:20:34.46	222.16	52.43	-28.3	-30.2	20.9	6.02e-01	0	44	102	524288	18	4469
2026-01-25 02:20:35.46	221.87	52.03	-28.3	-30.2	20.9	6.01e-01	0	44	102	524288	18	4474
2026-01-25 02:20:36.46	221.60	51.63	-28.5	-30.5	20.8	6.02e-01	0	44	102	524288	18	4576
2026-01-25 02:20:37.47	221.32	51.24	-28.7	-31.2	20.5	6.02e-01	0	44	102	524288	18	4797
2026-01-25 02:20:38.47	221.06	50.85	-28.8	-31.5	20.5	6.03e-01	0	44	102	524288	18	4877
2026-01-25 02:20:39.47	220.80	50.46	-28.8	-31.2	20.7	6.03e-01	0	44	102	524288	18	4796
2026-01-25 02:20:40.48	220.55	50.07	-28.8	-31.4	20.6	6.00e-01	0	44	102	524288	18	4848
2026-01-25 02:20:41.48	220.30	49.69	-29.1	-32.1	20.3	6.02e-01	0	44	102	524288	18	5070
2026-01-25 02:20:42.48	220.07	49.31	-29.0	-31.8	20.4	6.02e-01	0	44	102	524288	18	4973
2026-01-25 02:20:43.48	219.83	48.93	-29.1	-31.7	20.1	6.02e-01	0	44	102	524288	19	4832
2026-01-25 02:20:44.48	219.61	48.56	-29.3	-32.2	19.8	6.04e-01	0	44	102	524288	19	5007
2026-01-25 02:20:45.49	219.39	48.18	-29.3	-32.1	20.0	6.04e-01	0	44	102	524288	19	4966
2026-01-25 02:20:46.49	219.17	47.82	-29.2	-31.9	20.1	6.01e-01	0	44	102	524288	19	4890
2026-01-25 02:20:47.49	218.96	47.45	-29.5	-32.5	19.8	6.00e-01	0	44	102	524288	19	5088
2026-01-25 02:20:48.50	218.75	47.09	-29.5	-32.1	19.5	6.02e-01	0	44	102	524288	20	4868
2026-01-25 02:20:49.51	218.55	46.72	-29.2	-31.2	20.1	6.00e-01	0	44	102	524288	20	4576
2026-01-25 02:20:50.51	218.36	46.37	-29.1	-31.5	20.2	6.04e-01	0	44	102	524288	19	4755
2026-01-25 02:20:51.52	218.16	46.01	-29.2	-31.8	20.1	6.05e-01	0	44	102	524288	19	4852
2026-01-25 02:20:52.52	217.98	45.66	-29.3	-32.1	19.9	6.03e-01	0	44	102	524288	19	4977
2026-01-25 02:20:53.52	217.79	45.31	-29.4	-32.4	19.7	6.03e-01	0	44	102	524288	19	5095
2026-01-25 02:20:54.53	217.61	44.96	-29.3	-32.1	20.1	6.03e-01	0	44	102	524288	19	4954
2026-01-25 02:20:55.53	217.44	44.62	-29.3	-32.1	20.2	6.01e-01	0	44	102	524288	19	4957
2026-01-25 02:20:56.53	217.27	44.28	-29.4	-32.3	20.0	6.02e-01	0	44	102	524288	19	5029
2026-01-25 02:20:57.53	217.10	43.94	-29.2	-31.7	20.4	6.04e-01	0	44	102	524288	19	4836
2026-01-25 02:20:58.54	216.94	43.61	-29.0	-31.3	20.6	6.03e-01	0	44	102	524288	19	4705
2026-01-25 02:20:59.55	216.77	43.27	-29.2	-31.7	20.5	6.01e-01	0	44	102	524288	19	4822
2026-01-25 02:21:00.55	216.62	42.94	-29.5	-32.5	19.9	6.01e-01	0	44	102	524288	19	5115
2026-01-25 02:21:01.56	216.46	42.62	-29.5	-32.7	19.9	6.02e-01	0	44	102	524288	19	5154
2026-01-25 02:21:02.56	216.31	42.29	-29.6	-32.7	19.9	6.00e-01	0	44	102	524288	19	5180
2026-01-25 02:21:03.57	216.16	41.97	-29.6	-32.4	19.7	6.01e-01	0	44	102	524288	20	4946
2026-01-25 02:21:04.56	216.02	41.65	-29.7	-32.6	19.6	6.03e-01	0	44	102	524288	20	5017
2026-01-25 02:21:05.57	215.88	41.34	-29.7	-32.6	19.6	6.02e-01	0	44	102	524288	20	5040
2026-01-25 02:21:06.57	215.74	41.02	-29.6	-32.4	19.7	6.03e-01	0	43	102	524288	20	4968
2026-01-25 02:21:07.58	215.61	40.71	-29.8	-32.9	19.4	6.02e-01	0	44	102	524288	20	5143
2026-01-25 02:21:08.58	215.47	40.41	-29.9	-33.0	19.3	6.01e-01	0	44	102	524288	20	5183
2026-01-25 02:21:09.59	215.34	40.10	-29.9	-33.0	19.3	6.03e-01	0	44	102	524288	20	5175
2026-01-25 02:21:10.59	215.21	39.80	-29.8	-32.9	19.4	6.03e-01	0	44	102	524288	20	5115
2026-01-25 02:21:11.59	215.09	39.50	-30.0	-33.4	19.1	6.01e-01	0	44	102	524288	20	5312
2026-01-25 02:21:12.60	214.96	39.20	-30.2	-33.4	18.8	6.01e-01	0	44	102	524288	21	5217
2026-01-25 02:21:13.60	214.84	38.90	-30.2	-33.5	18.8	6.06e-01	0	44	102	524288	21	5239
2026-01-25 02:21:14.61	214.72	38.61	-30.2	-33.3	18.8	6.02e-01	0	44	102	524288	21	5186
2026-01-25 02:21:15.61	214.61	38.32	-30.1	-33.0	19.1	6.03e-01	0	44	102	524288	21	5057
2026-01-25 02:21:16.62	214.49	38.03	-30.1	-33.1	19.0	6.03e-01	0	44	102	524288	21	5106
2026-01-25 02:21:17.62	214.38	37.75	-30.2	-33.3	18.8	6.02e-01	0	44	102	524288	21	5182
2026-01-25 02:21:18.63	214.27	37.46	-30.2	-33.4	18.8	6.01e-01	0	44	102	524288	21	5204
2026-01-25 02:21:19.63	214.16	37.18	-30.2	-33.4	18.8	6.02e-01	0	44	102	524288	21	5200
2026-01-25 02:21:20.64	214.05	36.90	-30.2	-33.4	18.7	6.00e-01	0	44	102	524288	21	5225
2026-01-25 02:21:21.64	213.95	36.63	-30.1	-33.2	18.9	6.04e-01	0	44	102	524288	21	5145
2026-01-25 02:21:22.65	213.85	36.35	-30.2	-33.3	18.9	6.03e-01	0	44	102	524288	21	5185
2026-01-25 02:21:23.66	213.75	36.08	-30.0	-33.0	19.0	6.03e-01	0	44	102	524288	21	5073
2026-01-25 02:21:24.67	213.65	35.81	-29.7	-32.6	19.6	6.01e-01	0	44	102	524288	20	5040
2026-01-25 02:21:25.67	213.55	35.54	-29.5	-32.0	19.9	6.02e-01	0	44	102	524288	20	4820
2026-01-25 02:21:26.67	213.45	35.28	-29.5	-32.5	20.0	6.01e-01	0	44	102	524288	19	5109
2026-01-25 02:21:27.68	213.36	35.02	-29.5	-32.5	20.0	6.03e-01	0	44	102	524288	19	5098
2026-01-25 02:21:28.68	213.27	34.76	-29.5	-32.5	20.0	6.03e-01	0	44	102	524288	19	5107
2026-01-25 02:21:29.68	213.18	34.50	-29.5	-32.2	19.8	6.01e-01	0	44	102	524288	20	4893
2026-01-25 02:21:30.68	213.09	34.25	-29.7	-32.6	19.6	6.01e-01	0	44	102	524288	20	5022
2026-01-25 02:21:31.69	213.00	33.99	-29.6	-32.4	19.7	6.03e-01	0	44	102	524288	20	4959
2026-01-25 02:21:32.70	212.91	33.74	-29.2	-31.5	20.2	6.01e-01	0	44	102	524288	20	4655
2026-01-25 02:21:33.70	212.83	33.49	-29.0	-31.5	20.5	6.03e-01	0	44	102	524288	19	4751
2026-01-25 02:21:34.70	212.74	33.25	-28.9	-31.2	20.6	6.01e-01	0	44	102	524288	19	4666
2026-01-25 02:21:35.71	212.66	33.00	-28.9	-31.7	20.5	6.01e-01	0	44	102	524288	18	4939
2026-01-25 02:21:36.72	212.58	32.76	-28.8	-31.3	20.8	6.03e-01	0	44	102	524288	18	4820
2026-01-25 02:21:37.72	212.50	32.52	-28.7	-31.1	21.0	6.02e-01	0	44	102	524288	18	4739
2026-01-25 02:21:38.72	212.42	32.28	-28.8	-31.3	20.9	6.01e-01	0	44	102	524288	18	4807
2026-01-25 02:21:39.73	212.34	32.04	-28.7	-31.1	20.9	6.00e-01	0	44	102	524288	18	4766
2026-01-25 02:21:40.73	212.27	31.80	-28.6	-30.9	21.1	6.05e-01	0	44	102	524288	18	4699
2026-01-25 02:21:41.73	212.19	31.57	-28.7	-31.2	20.9	6.01e-01	0	44	102	524288	18	4793
2026-01-25 02:21:42.73	212.12	31.34	-28.9	-31.7	20.6	6.04e-01	0	44	102	524288	18	4968
2026-01-25 02:21:43.73	212.05	31.11	-28.9	-31.6	20.7	6.01e-01	0	44	102	524288	18	4908
2026-01-25 02:21:44.73	211.97	30.89	-27.4	-30.1	20.7	6.01e-01	0	44	102	524288	18	4911
2026-01-25 02:21:45.74	211.90	30.66	-28.9	-31.6	20.7	6.04e-01	0	44	102	524288	18	4903
2026-01-25 02:21:46.74	211.83	30.44	-28.7	-31.3	19.2	6.02e-01	0	44	102	524288	18	4849
2026-01-25 02:21:47.75	211.77	30.21	-28.7	-31.1	19.9	6.08e-01	0	44	102	524288	18	4755
2026-01-25 02:21:48.75	211.70	29.99	-28.7	-31.2	20.9	6.01e-01	0	44	102	524288	18	4796
2026-01-25 02:21:49.76	211.63	29.77	-28.7	-31.3	17.9	6.02e-01	0	44	102	524288	18	4825
2026-01-25 02:21:50.77	211.56	29.56	-28.7	-31.2	18.0	6.11e-01	0	44	102	524288	18	4797
2026-01-25 02:21:51.78	211.50	29.34	-28.7	-31.1	20.9	6.03e-01	0	44	102	524288	18	4749
2026-01-25 02:21:52.78	211.44	29.13	-28.7	-31.1	20.9	6.02e-01	0	44	102	524288	18	4759
2026-01-25 02:21:53.79	211.37	28.91	-28.6	-31.1	20.9	6.02e-01	0	44	102	524288	18	4749
2026-01-25 02:21:54.79	211.31	28.71	-28.8	-31.4	20.8	6.03e-01	0	44	102	524288	18	4865
2026-01-25 02:21:55.79	211.25	28.50	-28.8	-31.5	20.7	6.03e-01	0	44	102	524288	18	4910
2026-01-25 02:21:56.80	211.19	28.29	-28.9	-31.8	20.5	6.03e-01	0	44	102	524288	18	4982
2026-01-25 02:21:57.80	211.13	28.09	-29.0	-31.8	20.5	6.01e-01	0	44	102	524288	18	5010
2026-01-25 02:21:58.81	211.07	27.88	-28.9	-31.7	20.5	6.01e-01	0	44	102	524288	18	4971
2026-01-25 02:21:59.81	211.01	27.68	-28.9	-31.7	20.6	6.01e-01	0	44	102	524288	18	4969
2026-01-25 02:22:00.81	210.96	27.48	-29.0	-31.9	20.4	6.03e-01	0	44	102	524288	18	5034
2026-01-25 02:22:01.82	210.90	27.28	-28.9	-31.8	20.5	6.01e-01	0	44	102	524288	18	4986
2026-01-25 02:22:02.82	210.85	27.08	-28.8	-31.5	20.6	6.02e-01	0	44	102	524288	18	4902
2026-01-25 02:22:03.82	210.79	26.89	-28.9	-31.6	20.6	6.00e-01	0	44	102	524288	18	4937
2026-01-25 02:22:04.82	210.74	26.69	-28.9	-31.7	20.5	6.01e-01	0	44	102	524288	18	4967
2026-01-25 02:22:05.83	210.68	26.50	-28.9	-31.7	20.6	6.02e-01	0	44	102	524288	18	4946
2026-01-25 02:22:06.84	210.63	26.31	-28.9	-31.7	20.5	6.02e-01	0	44	102	524288	18	4960
2026-01-25 02:22:07.85	210.58	26.12	-29.0	-31.8	20.5	6.05e-01	0	44	102	524288	18	5007
2026-01-25 02:22:08.85	210.53	25.93	-29.1	-31.7	20.2	6.03e-01	0	44	102	524288	19	4846
2026-01-25 02:22:09.85	210.48	25.74	-29.3	-32.2	20.0	6.03e-01	0	44	102	524288	19	5010
2026-01-25 02:22:10.86	210.43	25.55	-29.2	-31.9	20.1	6.04e-01	0	44	102	524288	19	4897
2026-01-25 02:22:11.86	210.38	25.37	-29.2	-32.0	20.1	6.03e-01	0	44	102	524288	19	4937
2026-01-25 02:22:12.87	210.33	25.19	-29.3	-32.0	20.0	6.05e-01	0	44	102	524288	19	4957
2026-01-25 02:22:13.87	210.28	25.01	-29.4	-32.3	19.8	6.05e-01	0	44	102	524288	19	5049
2026-01-25 02:22:14.87	210.23	24.83	-29.4	-32.4	19.8	6.03e-01	0	44	102	524288	19	5080
2026-01-25 02:22:15.87	210.19	24.65	-29.5	-32.7	19.6	6.02e-01	0	44	102	524288	19	5185
2026-01-25 02:22:16.88	210.14	24.47	-29.5	-32.6	19.6	6.03e-01	0	44	102	524288	19	5181
2026-01-25 02:22:17.88	210.10	24.29	-29.5	-32.7	19.5	6.02e-01	0	44	102	524288	19	5218
2026-01-25 02:22:18.88	210.05	24.12	-29.5	-32.7	19.6	6.03e-01	0	44	102	524288	19	5207
2026-01-25 02:22:19.88	210.01	23.94	-29.6	-32.5	19.3	6.02e-01	0	44	102	524288	20	5019
2026-01-25 02:22:20.88	209.96	23.77	-29.8	-33.1	19.0	6.03e-01	0	44	102	524288	20	5252
2026-01-25 02:22:21.89	209.92	23.60	-29.6	-32.6	19.3	6.04e-01	0	44	102	524288	20	5051
2026-01-25 02:22:22.90	209.88	23.43	-29.4	-32.5	19.7	6.03e-01	0	44	102	524288	19	5119
2026-01-25 02:22:23.90	209.83	23.26	-29.5	-32.8	19.5	6.02e-01	0	44	102	524288	19	5246
2026-01-25 02:22:24.90	209.79	23.09	-29.3	-32.3	19.8	6.02e-01	0	44	102	524288	19	5047
2026-01-25 02:22:25.90	209.75	22.93	-29.3	-32.3	19.8	6.02e-01	0	44	102	524288	19	5079
2026-01-25 02:22:26.91	209.71	22.76	-29.4	-32.4	19.8	6.01e-01	0	44	102	524288	19	5088
2026-01-25 02:22:27.91	209.67	22.59	-29.4	-32.5	19.7	6.01e-01	0	43	102	524288	19	5141
2026-01-25 02:22:28.91	209.63	22.43	-29.4	-32.5	19.7	6.02e-01	0	44	102	524288	19	5134
2026-01-25 02:22:29.91	209.59	22.27	-29.5	-32.7	19.5	6.02e-01	0	44	102	524288	19	5222
2026-01-25 02:22:30.92	209.55	22.11	-29.5	-32.8	19.5	6.03e-01	0	44	102	524288	19	5252
2026-01-25 02:22:31.92	209.51	21.95	-29.7	-32.7	19.1	6.05e-01	0	44	102	524288	20	5134
2026-01-25 02:22:32.92	209.47	21.79	-30.0	-33.6	18.7	6.00e-01	0	44	102	524288	20	5460
2026-01-25 02:22:33.92	209.44	21.63	-29.8	-33.1	18.9	6.03e-01	0	44	102	524288	20	5289
2026-01-25 02:22:34.93	209.40	21.47	-29.6	-32.6	19.2	6.02e-01	0	44	102	524288	20	5073
2026-01-25 02:22:35.93	209.36	21.32	-29.5	-32.8	19.5	6.00e-01	0	44	102	524288	19	5254
2026-01-25 02:22:36.93	209.33	21.16	-29.6	-32.9	19.4	6.02e-01	0	44	102	524288	19	5307
2026-01-25 02:22:37.93	209.29	21.01	-29.5	-32.4	19.3	6.00e-01	0	44	102	524288	20	5019
2026-01-25 02:22:38.94	209.26	20.86	-29.7	-32.8	19.1	6.03e-01	0	44	102	524288	20	5159
2026-01-25 02:22:39.94	209.22	20.71	-29.6	-32.6	19.2	6.01e-01	0	44	102	524288	20	5071
2026-01-25 02:22:40.95	209.19	20.55	-29.5	-32.4	19.3	6.04e-01	0	44	102	524288	20	5013
2026-01-25 02:22:41.95	209.15	20.40	-29.5	-32.4	19.3	6.05e-01	0	44	102	524288	20	5026
2026-01-25 02:22:42.96	209.12	20.25	-29.5	-32.3	19.3	6.02e-01	0	44	102	524288	20	4990
2026-01-25 02:22:43.96	209.08	20.11	-29.6	-32.5	19.2	6.04e-01	0	44	102	524288	20	5064
2026-01-25 02:22:44.97	209.05	19.96	-29.6	-32.5	19.3	6.04e-01	0	44	102	524288	20	5038
2026-01-25 02:22:45.97	209.02	19.81	-29.7	-32.8	19.1	6.04e-01	0	44	102	524288	20	5162
2026-01-25 02:22:46.97	208.98	19.67	-29.5	-32.3	19.3	6.03e-01	0	44	102	524288	20	4984
2026-01-25 02:22:47.98	208.95	19.52	-29.4	-32.5	19.6	6.00e-01	0	44	102	524288	19	5134
2026-01-25 02:22:48.98	208.92	19.38	-29.5	-32.7	19.4	6.03e-01	0	44	102	524288	19	5227
2026-01-25 02:22:49.99	208.89	19.24	-29.4	-32.4	19.6	6.04e-01	0	44	102	524288	19	5118
2026-01-25 02:22:50.99	208.86	19.10	-29.3	-32.2	19.7	6.02e-01	0	44	102	524288	19	5048
2026-01-25 02:22:51.99	208.83	18.96	-29.3	-32.3	19.6	6.02e-01	0	44	102	524288	19	5089
2026-01-25 02:22:52.99	208.80	18.82	-29.3	-32.2	19.7	6.03e-01	0	44	102	524288	19	5039
2026-01-25 02:22:53.99	208.77	18.68	-29.2	-32.1	19.8	6.00e-01	0	44	102	524288	19	5020
2026-01-25 02:22:54.99	208.74	18.54	-29.3	-32.3	19.7	6.03e-01	0	44	102	524288	19	5075
2026-01-25 02:22:55.99	208.71	18.40	-29.4	-32.4	19.6	6.03e-01	0	44	102	524288	19	5119
2026-01-25 02:22:57.00	208.68	18.27	-29.3	-32.3	19.7	6.03e-01	0	44	102	524288	19	5070
2026-01-25 02:22:58.01	208.65	18.13	-29.3	-32.2	19.7	6.03e-01	0	44	102	524288	19	5031
2026-01-25 02:22:59.01	208.62	18.00	-29.2	-32.1	19.7	6.03e-01	0	44	102	524288	19	5019
2026-01-25 02:23:00.02	208.59	17.86	-29.2	-32.2	19.7	6.02e-01	0	44	102	524288	19	5033
2026-01-25 02:23:01.02	208.56	17.73	-29.4	-32.5	19.5	6.02e-01	0	44	102	524288	19	5171
2026-01-25 02:23:02.02	208.54	17.60	-29.3	-32.2	19.7	6.03e-01	0	44	102	524288	19	5047
2026-01-25 02:23:03.02	208.51	17.46	-29.2	-32.0	19.8	6.02e-01	0	44	102	524288	19	4997
2026-01-25 02:23:04.03	208.48	17.33	-29.2	-32.1	19.7	6.04e-01	0	44	102	524288	19	5023
2026-01-25 02:23:05.03	208.45	17.20	-29.2	-32.0	19.8	6.03e-01	0	44	102	524288	19	4971
2026-01-25 02:23:06.04	208.43	17.07	-29.3	-32.2	19.6	6.04e-01	0	44	102	524288	19	5065
2026-01-25 02:23:07.04	208.40	16.94	-29.4	-32.5	19.5	6.04e-01	0	44	102	524288	19	5183
2026-01-25 02:23:08.04	208.38	16.82	-29.2	-32.2	19.7	6.01e-01	0	44	102	524288	19	5049
2026-01-25 02:23:09.04	208.35	16.69	-29.2	-32.0	19.8	6.03e-01	0	44	102	524288	19	4996
2026-01-25 02:23:10.05	208.32	16.56	-29.1	-31.8	19.8	6.01e-01	0	44	102	524288	19	4936
2026-01-25 02:23:11.05	208.30	16.44	-29.1	-31.9	19.8	6.03e-01	0	44	102	524288	19	4960
2026-01-25 02:23:12.05	208.27	16.31	-29.1	-31.9	19.8	5.98e-01	0	44	102	524288	19	4946
2026-01-25 02:23:13.05	208.25	16.19	-29.2	-32.1	19.7	6.01e-01	0	44	102	524288	19	5021
2026-01-25 02:23:14.05	208.22	16.07	-29.1	-31.9	19.8	6.00e-01	0	44	102	524288	19	4964
2026-01-25 02:23:15.05	208.20	15.94	-29.2	-32.1	19.6	6.03e-01	0	44	102	524288	19	5036
2026-01-25 02:23:16.05	208.18	15.82	-29.4	-32.5	19.4	6.02e-01	0	44	102	524288	19	5166
2026-01-25 02:23:17.06	208.15	15.70	-29.2	-32.2	19.6	6.03e-01	0	44	102	524288	19	5058
2026-01-25 02:23:18.06	208.13	15.58	-29.2	-32.0	19.7	6.00e-01	0	44	102	524288	19	5008
2026-01-25 02:23:19.07	208.10	15.46	-29.2	-32.1	19.6	6.02e-01	0	44	102	524288	19	5023
2026-01-25 02:23:20.07	208.08	15.34	-29.1	-31.9	19.7	6.02e-01	0	44	102	524288	19	4969
2026-01-25 02:23:21.07	208.06	15.22	-29.2	-32.0	19.7	6.03e-01	0	44	102	524288	19	4999
2026-01-25 02:23:22.07	208.04	15.10	-29.1	-31.9	19.7	6.01e-01	0	44	102	524288	19	4965
2026-01-25 02:23:23.07	208.01	14.98	-29.2	-32.0	19.6	6.02e-01	0	44	102	524288	19	5008
2026-01-25 02:23:24.08	207.99	14.87	-29.1	-32.0	19.7	6.01e-01	0	44	102	524288	19	4989
2026-01-25 02:23:25.08	207.97	14.75	-29.2	-32.0	19.6	6.02e-01	0	44	102	524288	19	5009
2026-01-25 02:23:26.08	207.95	14.63	-29.3	-32.4	18.5	6.03e-01	0	44	102	524288	19	5131
2026-01-25 02:23:27.08	207.93	14.52	-29.3	-32.5	19.4	6.03e-01	0	44	102	524288	19	5164
2026-01-25 02:23:28.09	207.90	14.40	-29.3	-32.4	19.2	6.03e-01	0	44	102	524288	19	5136
2026-01-25 02:23:29.09	207.88	14.29	-29.3	-32.4	19.4	6.04e-01	0	44	102	524288	19	5146
2026-01-25 02:23:30.09	207.86	14.18	-29.4	-32.8	19.1	6.03e-01	0	44	102	524288	19	5287
2026-01-25 02:23:31.10	207.84	14.06	-29.3	-32.5	19.3	6.01e-01	0	44	102	524288	19	5166
2026-01-25 02:23:32.10	207.82	13.95	-29.3	-32.3	19.4	6.02e-01	0	44	102	524288	19	5100
2026-01-25 02:23:33.10	207.80	13.84	-29.3	-32.3	19.4	6.03e-01	0	44	102	524288	19	5124
2026-01-25 02:23:34.11	207.78	13.73	-29.3	-32.3	19.4	6.00e-01	0	44	102	524288	19	5114
2026-01-25 02:23:35.11	207.76	13.62	-29.4	-32.7	19.1	6.03e-01	0	44	102	524288	19	5272
2026-01-25 02:23:36.11	207.74	13.51	-29.3	-32.5	19.2	6.00e-01	0	44	102	524288	19	5202
2026-01-25 02:23:37.11	207.72	13.40	-29.3	-32.3	19.3	6.01e-01	0	44	102	524288	19	5125
2026-01-25 02:23:38.11	207.70	13.29	-29.2	-32.1	19.4	6.01e-01	0	44	102	524288	19	5059
2026-01-25 02:23:39.12	207.68	13.18	-29.2	-32.2	19.4	6.04e-01	0	44	102	524288	19	5064
2026-01-25 02:23:40.13	207.66	13.07	-29.2	-32.2	19.5	6.03e-01	0	44	102	524288	19	5065
2026-01-25 02:23:41.13	207.64	12.96	-29.3	-32.3	19.3	6.01e-01	0	44	102	524288	19	5137
2026-01-25 02:23:42.14	207.62	12.86	-29.3	-32.6	19.2	6.03e-01	0	44	102	524288	19	5216
2026-01-25 02:23:43.15	207.60	12.75	-29.3	-32.4	19.2	6.02e-01	0	44	102	524288	19	5168
2026-01-25 02:23:44.15	207.58	12.64	-29.4	-32.7	19.1	6.03e-01	0	44	102	524288	19	5273
2026-01-25 02:23:45.16	207.57	12.54	-29.5	-33.0	18.9	6.02e-01	0	44	102	524288	19	5400
2026-01-25 02:23:46.16	207.55	12.43	-29.4	-32.7	19.0	6.00e-01	0	44	102	524288	19	5272
2026-01-25 02:23:47.17	207.53	12.33	-29.3	-32.5	19.1	6.02e-01	0	44	102	524288	19	5211
2026-01-25 02:23:48.18	207.51	12.22	-29.3	-32.5	19.1	6.01e-01	0	44	102	524288	19	5210
2026-01-25 02:23:49.18	207.49	12.12	-29.3	-32.6	19.1	6.05e-01	0	44	102	524288	19	5231
2026-01-25 02:23:50.19	207.48	12.02	-29.4	-32.9	18.9	6.05e-01	0	44	102	524288	19	5339
2026-01-25 02:23:51.20	207.46	11.91	-29.4	-32.6	19.0	6.02e-01	0	44	102	524288	19	5252
2026-01-25 02:23:52.20	207.44	11.81	-29.4	-32.7	19.0	6.02e-01	0	44	102	524288	19	5263
2026-01-25 02:23:53.20	207.42	11.71	-29.3	-32.5	19.1	6.02e-01	0	44	102	524288	19	5215
2026-01-25 02:23:54.21	207.41	11.61	-29.5	-33.0	18.8	6.03e-01	0	44	102	524288	19	5382
2026-01-25 02:23:55.21	207.39	11.51	-29.4	-32.8	18.9	6.02e-01	0	44	102	524288	19	5301
2026-01-25 02:23:56.22	207.37	11.41	-29.4	-32.9	18.8	6.03e-01	0	44	102	524288	19	5346
2026-01-25 02:23:57.22	207.36	11.31	-29.4	-32.8	18.9	6.02e-01	0	44	102	524288	19	5302
2026-01-25 02:23:58.22	207.34	11.21	-29.4	-32.8	18.9	6.03e-01	0	44	102	524288	19	5304
2026-01-25 02:23:59.23	207.32	11.11	-29.4	-32.7	18.9	6.02e-01	0	44	102	524288	19	5280
2026-01-25 02:24:00.23	207.31	11.01	-29.5	-33.1	18.7	6.02e-01	0	44	102	524288	19	5432
2026-01-25 02:24:01.23	207.29	10.91	-29.6	-32.9	18.4	6.02e-01	0	44	102	524288	20	5263
2026-01-25 02:24:02.24	207.28	10.82	-29.7	-33.1	18.2	6.02e-01	0	44	102	524288	20	5338
2026-01-25 02:24:03.24	207.26	10.72	-29.8	-33.5	18.0	6.03e-01	0	44	102	524288	20	5489
2026-01-25 02:24:04.24	207.25	10.62	-29.7	-33.3	18.1	6.02e-01	0	44	102	524288	20	5408
2026-01-25 02:24:05.25	207.23	10.53	-29.7	-33.1	18.2	6.03e-01	0	44	102	524288	20	5347
2026-01-25 02:24:06.26	207.21	10.43	-29.6	-33.0	18.3	6.02e-01	0	44	102	524288	20	5288
2026-01-25 02:24:07.25	207.20	10.34	-29.7	-33.1	18.2	6.02e-01	0	44	102	524288	20	5364
2026-01-25 02:24:08.26	207.18	10.24	-29.7	-33.2	18.2	6.03e-01	0	44	102	524288	20	5365
2026-01-25 02:24:09.26	207.17	10.15	-29.5	-32.6	18.5	6.03e-01	0	44	102	524288	20	5147
2026-01-25 02:24:10.27	207.15	10.05	-29.5	-33.1	18.6	6.03e-01	0	44	102	524288	19	5436
2026-01-25 02:24:11.27	207.14	9.96	-29.6	-33.2	18.5	6.04e-01	0	44	102	524288	19	5494
2026-01-25 02:24:12.27	207.12	9.86	-29.6	-33.3	18.5	6.02e-01	0	44	102	524288	19	5509
2026-01-25 02:24:13.27	207.11	9.77	-29.6	-32.8	18.4	6.02e-01	0	44	102	524288	20	5215
2026-01-25 02:24:14.28	207.10	9.68	-29.7	-33.2	18.1	6.05e-01	0	44	102	524288	20	5375
2026-01-25 02:24:15.28	207.08	9.59	-29.8	-33.4	18.0	6.03e-01	0	44	102	524288	20	5471
2026-01-25 02:24:16.28	207.07	9.49	-29.8	-33.6	17.8	6.02e-01	0	44	102	524288	20	5552
2026-01-25 02:24:17.29	207.05	9.40	-29.8	-33.6	17.8	6.02e-01	0	44	102	524288	20	5535
2026-01-25 02:24:18.30	207.04	9.31	-29.8	-33.5	17.9	6.03e-01	0	44	102	524288	20	5533
2026-01-25 02:24:19.30	207.03	9.22	-29.8	-33.5	17.9	6.04e-01	0	44	102	524288	20	5517
2026-01-25 02:24:20.31	207.01	9.13	-29.9	-33.9	17.6	6.03e-01	0	44	102	524288	20	5701
2026-01-25 02:24:21.31	207.00	9.04	-30.0	-33.7	17.4	6.05e-01	0	44	102	524288	21	5503
2026-01-25 02:24:22.32	206.98	8.95	-30.0	-34.1	17.5	6.02e-01	0	44	102	524288	20	5789
2026-01-25 02:24:23.33	206.97	8.86	-30.3	-34.4	17.0	6.04e-01	0	44	102	524288	21	5797
2026-01-25 02:24:24.33	206.96	8.77	-30.4	-34.7	16.7	6.04e-01	0	44	102	524288	21	5950
2026-01-25 02:24:25.34	206.94	8.68	-30.1	-34.0	17.2	6.05e-01	0	44	102	524288	21	5624
2026-01-25 02:24:26.35	206.93	8.59	-29.9	-33.9	17.6	6.04e-01	0	44	102	524288	20	5692
2026-01-25 02:24:27.34	206.92	8.51	-29.7	-33.4	17.9	6.02e-01	0	44	102	524288	20	5482
2026-01-25 02:24:28.34	206.91	8.42	-29.7	-33.2	18.1	6.00e-01	0	44	102	524288	20	5405
2026-01-25 02:24:29.35	206.89	8.33	-29.7	-33.2	18.0	6.03e-01	0	44	102	524288	20	5410
2026-01-25 02:24:30.35	206.88	8.24	-29.7	-33.3	18.0	6.02e-01	0	44	102	524288	20	5448
2026-01-25 02:24:31.36	206.87	8.16	-29.8	-33.6	17.8	6.02e-01	0	44	102	524288	20	5563
2026-01-25 02:24:32.36	206.86	8.07	-29.7	-33.4	17.9	6.05e-01	0	44	102	524288	20	5482
2026-01-25 02:24:33.36	206.84	7.99	-29.7	-33.4	17.9	6.02e-01	0	44	102	524288	20	5485
2026-01-25 02:24:34.37	206.83	7.90	-29.7	-33.3	17.9	6.00e-01	0	44	102	524288	20	5458
2026-01-25 02:24:35.38	206.82	7.81	-29.8	-33.6	17.7	6.02e-01	0	44	102	524288	20	5572
2026-01-25 02:24:36.39	206.81	7.73	-29.8	-33.6	17.6	6.03e-01	0	44	102	524288	20	5602
2026-01-25 02:24:37.39	206.80	7.64	-29.8	-33.8	17.6	6.03e-01	0	44	102	524288	20	5652
2026-01-25 02:24:38.40	206.78	7.56	-29.8	-33.8	17.5	6.01e-01	0	44	102	524288	20	5674
2026-01-25 02:24:39.40	206.77	7.48	-29.8	-33.5	17.7	6.04e-01	0	44	102	524288	20	5571
2026-01-25 02:24:40.41	206.76	7.39	-29.8	-33.6	17.6	6.02e-01	0	44	102	524288	20	5599
2026-01-25 02:24:41.42	206.75	7.31	-29.8	-33.7	17.6	6.02e-01	0	44	102	524288	20	5637
2026-01-25 02:24:42.41	206.74	7.23	-29.8	-33.7	17.5	6.03e-01	0	44	102	524288	20	5658
2026-01-25 02:24:43.42	206.73	7.14	-29.9	-34.0	17.4	6.03e-01	0	44	102	524288	20	5775
2026-01-25 02:24:44.42	206.71	7.06	-32.3	-41.4	12.2	6.09e-01	0	44	102	524288	25	10294
2026-01-25 02:24:45.42	206.70	6.98	-33.3	-52.6	3.8	7.43e-01	0	44	104	524288	27	33513
2026-01-25 02:24:46.43	206.69	6.90	-33.6	-52.7	3.8	7.45e-01	0	44	104	524288	28	32496

#Closed at: 2026-01-25 02:24:47
#Recorded file [0 MB]: D:/data/31010_260125_051603.dat