passes_logs/2026/01/25/R2M6_AANII_01/R2M6_AANII_01__20260125_232848_SUOMI_NPP_rec.log

#Pass ID: 20260125_232848_SUOMI NPP
#Satellite: SUOMI NPP
#Configuration: NPP
#almurnet v.1.7.20240730
#Start time: 2026-01-25 23:28:48

#Version: 2.2.20231116
#Station: R2M6_AANII_01
#Location: 30.233357 lon 59.946436 lat
#TLE: 1 37849U 11061A   26025.53586395  .00000179  00000+0  10601-3 0  9996
#TLE: 2 37849  98.7821 327.4943 0002169  45.6246 314.5108 14.19529815738202

#Time	Az	El	Level	Level2	SNR	BER	BlckErr	Temp	State	Recorded	gain1	gain2
2026-01-25 23:28:48.03	24.01	6.98	-31.3	-36.6	4.9	1.31e+00	0	41	0	0	22	6605
2026-01-25 23:28:49.03	24.07	7.05	-31.5	-37.2	4.7	1.33e+00	0	41	104	0	22	6978
2026-01-25 23:28:50.04	24.12	7.12	-31.6	-37.2	6.5	2.00e-01	0	41	0	0	23	6892
2026-01-25 23:28:51.04	24.18	7.19	-31.5	-36.5	7.0	1.68e-01	0	42	102	1048576	23	6447
2026-01-25 23:28:52.03	24.24	7.26	-31.6	-37.0	6.7	1.82e-01	0	42	102	1048576	23	6734
2026-01-25 23:28:53.05	24.30	7.34	-31.5	-36.9	6.7	1.91e-01	0	42	102	1048576	23	6645
2026-01-25 23:28:54.04	24.35	7.41	-31.5	-36.6	6.9	1.98e-01	0	42	102	1048576	23	6500
2026-01-25 23:28:55.04	24.41	7.48	-31.8	-38.0	6.0	2.35e-01	0	41	102	1048576	23	7424
2026-01-25 23:28:56.05	24.47	7.56	-31.6	-37.1	6.6	2.75e-01	0	42	102	1048576	23	6767
2026-01-25 23:28:57.05	24.53	7.63	-31.4	-35.9	7.5	1.65e-01	0	42	102	1048576	23	6089
2026-01-25 23:28:58.06	24.59	7.71	-31.4	-36.5	7.5	9.13e-02	0	42	102	1048576	22	6462
2026-01-25 23:28:59.06	24.65	7.78	-31.4	-36.6	7.4	1.05e-01	0	42	102	1048576	22	6555
2026-01-25 23:29:00.06	24.71	7.85	-31.3	-36.0	7.8	9.03e-02	0	42	102	1048576	22	6208
2026-01-25 23:29:01.06	24.77	7.93	-31.1	-35.2	8.5	6.46e-02	0	42	102	1048576	22	5768
2026-01-25 23:29:02.07	24.83	8.00	-31.0	-34.9	8.6	3.69e-02	0	42	102	1048576	22	5645
2026-01-25 23:29:03.08	24.89	8.08	-30.8	-34.7	9.2	2.97e-02	0	42	102	1048576	21	5638
2026-01-25 23:29:04.08	24.95	8.15	-30.8	-34.6	9.3	1.82e-02	0	42	102	1048576	21	5570
2026-01-25 23:29:05.09	25.01	8.23	-30.8	-34.4	9.4	1.87e-02	0	42	102	1048576	21	5488
2026-01-25 23:29:06.09	25.07	8.30	-30.8	-34.5	9.3	1.51e-02	0	42	102	1048576	21	5534
2026-01-25 23:29:07.10	25.13	8.38	-30.6	-33.8	9.9	1.25e-02	0	42	102	1048576	21	5208
2026-01-25 23:29:08.11	25.20	8.46	-30.4	-33.0	10.5	4.41e-03	0	42	102	1048576	21	4876
2026-01-25 23:29:09.11	25.26	8.53	-30.3	-33.3	10.7	2.97e-03	0	42	102	1048576	20	5079
2026-01-25 23:29:10.11	25.32	8.61	-30.3	-33.1	10.8	2.05e-03	0	42	102	1048576	20	5011
2026-01-25 23:29:11.10	25.38	8.68	-30.5	-33.9	10.3	3.28e-03	0	42	102	1048576	20	5337
2026-01-25 23:29:12.11	25.45	8.76	-30.3	-33.2	10.6	3.60e-03	0	42	102	1048576	20	5047
2026-01-25 23:29:13.11	25.51	8.84	-30.0	-32.3	11.2	1.47e-03	0	42	102	1048576	20	4702
2026-01-25 23:29:14.12	25.57	8.92	-30.1	-32.5	11.4	7.92e-04	0	42	102	1048576	20	4741
2026-01-25 23:29:15.11	25.64	8.99	-30.1	-32.6	11.2	1.05e-03	0	42	102	1048576	20	4800
2026-01-25 23:29:16.12	25.70	9.07	-30.2	-32.7	11.2	1.14e-03	0	42	102	1048576	20	4848
2026-01-25 23:29:17.12	25.77	9.15	-30.1	-32.6	11.3	1.29e-03	0	42	102	1048576	20	4781
2026-01-25 23:29:18.12	25.83	9.22	-30.3	-33.3	10.8	2.71e-03	0	43	102	1048576	20	5046
2026-01-25 23:29:19.13	25.90	9.30	-30.2	-33.0	11.1	2.06e-03	0	42	102	1048576	20	4923
2026-01-25 23:29:20.13	25.96	9.38	-30.4	-33.3	10.8	1.79e-03	0	42	102	1048576	20	5075
2026-01-25 23:29:21.14	26.03	9.46	-30.6	-33.5	10.2	3.40e-03	0	42	102	1048576	21	5073
2026-01-25 23:29:22.14	26.10	9.54	-30.5	-33.3	10.5	4.24e-03	0	42	102	1048576	21	4974
2026-01-25 23:29:23.14	26.16	9.62	-30.6	-33.5	10.4	3.88e-03	0	42	102	1048576	21	5026
2026-01-25 23:29:24.14	26.23	9.70	-30.5	-33.3	10.5	3.78e-03	0	42	102	1048576	21	4947
2026-01-25 23:29:25.14	26.30	9.78	-30.4	-32.9	10.8	2.81e-03	0	42	102	1048576	21	4804
2026-01-25 23:29:26.15	26.36	9.86	-30.6	-33.7	10.2	4.19e-03	0	42	102	1048576	21	5144
2026-01-25 23:29:27.16	26.43	9.94	-30.5	-33.4	10.5	4.76e-03	0	42	102	1048576	21	4994
2026-01-25 23:29:28.16	26.50	10.02	-30.4	-33.5	10.1	4.84e-03	0	42	102	1048576	21	5185
2026-01-25 23:29:29.16	26.57	10.10	-30.5	-33.8	10.3	4.07e-03	0	43	102	1048576	20	5245
2026-01-25 23:29:30.16	26.64	10.18	-30.2	-32.3	11.2	2.23e-03	0	43	102	1048576	21	4592
2026-01-25 23:29:31.16	26.71	10.26	-29.9	-31.9	11.7	6.79e-04	0	43	102	1048576	20	4511
2026-01-25 23:29:32.17	26.78	10.34	-29.8	-32.1	12.0	3.31e-04	0	43	102	1048576	19	4669
2026-01-25 23:29:33.17	26.85	10.42	-30.1	-32.5	11.5	5.45e-04	0	42	102	1048576	20	4754
2026-01-25 23:29:34.17	26.92	10.50	-30.0	-32.3	11.7	1.11e-03	0	42	102	1048576	20	4650
2026-01-25 23:29:35.17	26.99	10.58	-30.1	-32.5	11.5	2.48e-03	0	43	102	1048576	20	4740
2026-01-25 23:29:36.18	27.06	10.67	-30.1	-32.5	11.5	6.17e-04	0	43	102	1048576	20	4735
2026-01-25 23:29:37.18	27.13	10.75	-30.1	-32.5	11.6	9.49e-04	0	43	102	1048576	20	4744
2026-01-25 23:29:38.19	27.21	10.83	-30.2	-32.6	11.4	8.54e-04	0	43	102	1048576	20	4762
2026-01-25 23:29:39.20	27.28	10.91	-30.2	-32.8	11.3	1.08e-03	0	43	102	1048576	20	4846
2026-01-25 23:29:40.21	27.35	11.00	-30.1	-32.5	11.5	9.11e-04	0	43	102	1048576	20	4736
2026-01-25 23:29:41.22	27.43	11.08	-30.3	-33.0	11.2	1.20e-03	0	43	102	1048576	20	4928
2026-01-25 23:29:42.22	27.50	11.16	-30.0	-32.2	11.7	7.87e-04	0	43	102	1048576	20	4626
2026-01-25 23:29:43.23	27.57	11.25	-30.1	-32.3	11.7	5.90e-04	0	43	102	1048576	20	4671
2026-01-25 23:29:44.23	27.65	11.33	-30.0	-32.0	11.9	5.20e-04	0	43	102	1048576	20	4552
2026-01-25 23:29:45.23	27.72	11.42	-30.1	-32.3	11.8	4.04e-04	0	43	102	1048576	20	4636
2026-01-25 23:29:46.23	27.80	11.50	-30.2	-32.7	11.5	1.74e-03	0	43	102	1048576	20	4783
2026-01-25 23:29:47.24	27.87	11.59	-30.0	-32.2	11.8	5.90e-04	0	43	102	1048576	20	4617
2026-01-25 23:29:48.24	27.95	11.67	-29.9	-31.7	12.2	2.86e-04	0	43	102	1048576	20	4439
2026-01-25 23:29:49.24	28.03	11.76	-29.9	-32.2	12.3	1.41e-03	0	43	102	1048576	19	4675
2026-01-25 23:29:50.24	28.10	11.84	-29.8	-32.0	12.4	1.20e-03	0	43	102	1048576	19	4612
2026-01-25 23:29:51.25	28.18	11.93	-29.9	-32.1	12.3	1.64e-04	0	43	102	1048576	19	4652
2026-01-25 23:29:52.25	28.26	12.01	-29.8	-31.4	12.3	1.22e-03	0	43	102	1048576	20	4351
2026-01-25 23:29:53.26	28.34	12.10	-29.9	-32.1	12.3	1.21e-03	0	43	102	1048576	19	4658
2026-01-25 23:29:54.27	28.42	12.19	-29.8	-31.9	12.4	1.52e-04	0	43	102	1048576	19	4601
2026-01-25 23:29:55.27	28.49	12.27	-29.9	-32.1	12.3	1.09e-03	0	43	102	1048576	19	4647
2026-01-25 23:29:56.27	28.57	12.36	-29.7	-31.5	12.7	1.08e-03	0	43	102	1048576	19	4442
2026-01-25 23:29:57.28	28.65	12.45	-29.7	-31.7	12.6	1.17e-04	0	43	102	1048576	19	4514
2026-01-25 23:29:58.30	28.74	12.54	-29.7	-31.7	12.6	1.41e-03	0	43	102	1048576	19	4508
2026-01-25 23:29:59.30	28.82	12.62	-29.7	-31.6	12.7	1.36e-03	0	43	102	1048576	19	4474
2026-01-25 23:30:00.30	28.90	12.71	-29.5	-31.1	13.0	3.05e-04	0	43	102	1048576	19	4305
2026-01-25 23:30:01.31	28.98	12.80	-29.5	-31.1	13.0	1.77e-03	0	43	102	1048576	19	4327
2026-01-25 23:30:02.32	29.06	12.89	-29.6	-31.3	12.9	1.34e-03	0	43	102	1048576	19	4374
2026-01-25 23:30:03.32	29.14	12.98	-29.5	-31.1	13.1	4.84e-04	0	43	102	1048576	19	4306
2026-01-25 23:30:04.33	29.23	13.07	-29.4	-30.9	13.2	1.73e-03	0	43	102	1048576	19	4263
2026-01-25 23:30:05.33	29.31	13.16	-29.6	-31.3	12.9	2.44e-05	0	43	102	1048576	19	4380
2026-01-25 23:30:06.33	29.40	13.25	-29.5	-31.1	13.1	2.97e-05	0	43	102	1048576	19	4326
2026-01-25 23:30:07.33	29.48	13.34	-29.5	-31.0	13.2	2.08e-03	0	43	102	1048576	19	4282
2026-01-25 23:30:08.33	29.56	13.43	-29.6	-31.4	12.8	3.96e-05	0	43	102	1048576	19	4408
2026-01-25 23:30:09.33	29.65	13.52	-29.5	-31.1	13.1	3.05e-05	0	43	102	1048576	19	4321
2026-01-25 23:30:10.33	29.74	13.61	-29.5	-31.1	13.0	1.12e-03	0	43	102	1048576	19	4318
2026-01-25 23:30:11.34	29.82	13.70	-29.6	-31.3	13.0	1.20e-03	0	43	102	1048576	19	4366
2026-01-25 23:30:12.35	29.91	13.79	-29.5	-31.0	13.2	3.05e-05	0	43	102	1048576	19	4272
2026-01-25 23:30:13.36	30.00	13.88	-29.5	-30.9	13.2	1.20e-03	0	43	102	1048576	19	4248
2026-01-25 23:30:14.37	30.09	13.98	-29.4	-30.8	13.3	1.02e-03	0	43	102	1048576	19	4208
2026-01-25 23:30:15.37	30.18	14.07	-29.5	-31.1	13.1	4.11e-05	0	43	102	1048576	19	4308
2026-01-25 23:30:16.37	30.26	14.16	-29.6	-31.2	13.1	4.42e-05	0	43	102	1048576	19	4341
2026-01-25 23:30:17.38	30.36	14.26	-29.5	-31.1	13.1	1.16e-03	0	43	102	1048576	19	4317
2026-01-25 23:30:18.38	30.45	14.35	-29.5	-31.1	13.1	3.12e-04	0	43	102	1048576	19	4300
2026-01-25 23:30:19.39	30.54	14.44	-29.5	-31.0	13.2	2.74e-05	0	43	102	1048576	19	4280
2026-01-25 23:30:20.38	30.63	14.53	-29.6	-31.4	12.9	3.43e-05	0	43	102	1048576	19	4397
2026-01-25 23:30:21.38	30.72	14.63	-29.5	-31.1	13.2	4.27e-05	0	43	102	1048576	19	4311
2026-01-25 23:30:22.38	30.81	14.72	-29.6	-31.2	13.1	1.98e-05	0	43	102	1048576	19	4357
2026-01-25 23:30:23.38	30.90	14.82	-29.6	-31.2	13.1	3.05e-05	0	43	102	1048576	19	4331
2026-01-25 23:30:24.38	31.00	14.91	-29.5	-31.1	13.2	3.73e-05	0	43	102	1048576	19	4296
2026-01-25 23:30:25.39	31.09	15.01	-29.5	-31.1	13.1	2.67e-05	0	43	102	1048576	19	4297
2026-01-25 23:30:26.38	31.18	15.10	-29.5	-31.1	13.2	1.67e-05	0	43	102	1048576	19	4294
2026-01-25 23:30:27.39	31.28	15.20	-29.4	-30.8	13.4	1.52e-05	0	43	102	1048576	19	4213
2026-01-25 23:30:28.40	31.38	15.30	-29.5	-31.0	13.2	1.09e-03	0	43	102	1048576	19	4275
2026-01-25 23:30:29.41	31.47	15.39	-29.5	-31.0	13.3	2.05e-05	0	43	102	1048576	19	4272
2026-01-25 23:30:30.41	31.57	15.49	-29.6	-31.2	13.1	1.67e-05	0	43	102	1048576	19	4346
2026-01-25 23:30:31.42	31.67	15.59	-29.5	-31.1	13.2	2.13e-05	0	43	102	1048576	19	4289
2026-01-25 23:30:32.43	31.77	15.69	-29.4	-30.8	13.4	1.60e-05	0	43	102	1048576	19	4199
2026-01-25 23:30:33.44	31.87	15.78	-29.5	-31.3	13.4	1.29e-05	0	43	102	1048576	18	4468
2026-01-25 23:30:34.44	31.97	15.88	-29.4	-31.1	13.6	1.22e-05	0	43	102	1048576	18	4388
2026-01-25 23:30:35.44	32.07	15.98	-29.4	-31.2	13.5	1.83e-05	0	43	102	1048576	18	4437
2026-01-25 23:30:36.44	32.17	16.08	-29.5	-31.0	13.0	3.05e-05	0	43	102	1048576	19	4267
2026-01-25 23:30:37.44	32.27	16.18	-29.6	-31.2	13.2	2.59e-05	0	43	102	1048576	19	4330
2026-01-25 23:30:38.44	32.37	16.28	-29.5	-31.0	13.2	2.97e-05	0	43	102	1048576	19	4258
2026-01-25 23:30:39.45	32.47	16.38	-29.7	-31.6	12.8	4.11e-05	0	43	102	1048576	19	4446
2026-01-25 23:30:40.44	32.57	16.48	-29.8	-31.9	12.7	5.49e-05	0	43	102	1048576	19	4566
2026-01-25 23:30:41.44	32.68	16.58	-29.7	-31.5	13.0	4.04e-05	0	43	102	1048576	19	4436
2026-01-25 23:30:42.45	32.78	16.68	-30.0	-31.8	12.4	4.52e-04	0	43	102	1048576	20	4437
2026-01-25 23:30:43.45	32.89	16.78	-29.9	-31.6	12.5	8.77e-05	0	44	102	1048576	20	4383
2026-01-25 23:30:44.45	32.99	16.88	-29.8	-31.8	12.8	8.69e-05	0	43	102	1048576	19	4532
2026-01-25 23:30:45.45	33.10	16.98	-29.9	-31.7	12.5	5.18e-05	0	43	102	1048576	20	4392
2026-01-25 23:30:46.46	33.21	17.08	-30.1	-32.2	12.1	1.88e-04	0	44	102	1048576	20	4583
2026-01-25 23:30:47.47	33.32	17.19	-30.0	-31.8	12.5	3.05e-04	0	43	102	1048576	20	4426
2026-01-25 23:30:48.47	33.43	17.29	-29.8	-31.4	12.7	1.22e-04	0	43	102	1048576	20	4304
2026-01-25 23:30:49.47	33.54	17.39	-29.9	-32.1	12.6	7.85e-05	0	43	102	1048576	19	4635
2026-01-25 23:30:50.48	33.65	17.50	-30.0	-31.9	12.4	1.80e-04	0	43	102	1048576	20	4475
2026-01-25 23:30:51.48	33.76	17.60	-30.1	-32.2	11.9	1.09e-04	0	43	102	1048576	20	4570
2026-01-25 23:30:52.48	33.87	17.70	-30.2	-32.3	12.0	6.45e-04	0	43	102	1048576	20	4626
2026-01-25 23:30:53.48	33.98	17.81	-30.1	-32.1	12.3	5.39e-04	0	43	102	1048576	20	4527
2026-01-25 23:30:54.49	34.09	17.91	-30.0	-31.9	12.4	1.66e-04	0	43	102	1048576	20	4466
2026-01-25 23:30:55.49	34.21	18.02	-30.0	-31.7	12.4	1.76e-04	0	43	102	1048576	20	4404
2026-01-25 23:30:56.49	34.32	18.12	-30.1	-32.2	12.2	1.35e-03	0	43	102	1048576	20	4583
2026-01-25 23:30:57.49	34.44	18.23	-30.2	-32.5	12.0	1.63e-03	0	44	102	1048576	20	4690
2026-01-25 23:30:58.50	34.55	18.34	-30.1	-32.1	12.3	2.95e-04	0	44	102	1048576	20	4528
2026-01-25 23:30:59.51	34.67	18.44	-29.9	-31.6	12.6	1.62e-03	0	43	102	1048576	20	4357
2026-01-25 23:31:00.51	34.79	18.55	-29.9	-32.0	12.7	1.49e-03	0	43	102	1048576	19	4564
2026-01-25 23:31:01.52	34.91	18.66	-29.9	-32.0	12.7	6.48e-05	0	44	102	1048576	19	4568
2026-01-25 23:31:02.53	35.03	18.77	-29.7	-31.5	13.1	1.39e-03	0	44	102	1048576	19	4409
2026-01-25 23:31:03.53	35.15	18.87	-29.7	-31.5	13.1	1.52e-03	0	43	102	1048576	19	4416
2026-01-25 23:31:04.54	35.27	18.98	-29.8	-31.8	12.9	4.80e-05	0	43	102	1048576	19	4502
2026-01-25 23:31:05.55	35.39	19.09	-29.8	-31.7	13.0	5.03e-05	0	44	102	1048576	19	4474
2026-01-25 23:31:06.56	35.52	19.20	-29.8	-31.7	13.0	5.20e-04	0	43	102	1048576	19	4484
2026-01-25 23:31:07.56	35.64	19.31	-29.8	-31.7	13.0	2.75e-04	0	44	102	1048576	19	4467
2026-01-25 23:31:08.57	35.77	19.42	-29.9	-32.0	12.8	1.71e-04	0	44	102	1048576	19	4571
2026-01-25 23:31:09.57	35.89	19.53	-29.8	-31.6	13.1	3.06e-04	0	43	102	1048576	19	4431
2026-01-25 23:31:10.58	36.02	19.64	-29.8	-31.8	12.9	3.00e-04	0	44	102	1048576	19	4518
2026-01-25 23:31:11.58	36.14	19.75	-29.9	-32.0	12.7	6.79e-05	0	44	102	1048576	19	4570
2026-01-25 23:31:12.58	36.27	19.86	-29.7	-31.5	13.1	3.20e-05	0	44	102	1048576	19	4401
2026-01-25 23:31:13.58	36.40	19.97	-29.7	-31.5	13.1	3.51e-04	0	43	102	1048576	19	4415
2026-01-25 23:31:14.58	36.53	20.09	-29.7	-31.4	13.2	1.65e-04	0	43	102	1048576	19	4372
2026-01-25 23:31:15.58	36.66	20.20	-29.9	-31.9	12.9	3.50e-04	0	43	102	1048576	19	4547
2026-01-25 23:31:16.58	36.79	20.31	-29.9	-31.6	12.7	3.41e-04	0	43	102	1048576	20	4357
2026-01-25 23:31:17.59	36.93	20.42	-30.0	-31.8	12.6	4.94e-04	0	44	102	1048576	20	4415
2026-01-25 23:31:18.60	37.06	20.54	-30.0	-31.7	12.7	6.71e-04	0	44	102	1048576	20	4378
2026-01-25 23:31:19.59	37.19	20.65	-30.0	-31.8	12.6	3.21e-04	0	44	102	1048576	20	4415
2026-01-25 23:31:20.60	37.33	20.77	-30.1	-31.9	12.5	4.57e-04	0	44	102	1048576	20	4466
2026-01-25 23:31:21.60	37.46	20.88	-30.0	-31.8	12.5	5.66e-04	0	44	102	1048576	20	4422
2026-01-25 23:31:22.61	37.60	21.00	-29.9	-31.5	12.8	2.68e-04	0	44	102	1048576	20	4335
2026-01-25 23:31:23.61	37.74	21.11	-30.0	-31.7	12.6	1.96e-04	0	44	102	1048576	20	4384
2026-01-25 23:31:24.61	37.88	21.23	-29.9	-31.3	12.8	2.37e-04	0	44	102	1048576	20	4276
2026-01-25 23:31:25.62	38.02	21.34	-30.0	-31.7	12.6	1.52e-04	0	44	102	1048576	20	4385
2026-01-25 23:31:26.62	38.16	21.46	-29.9	-31.6	12.7	7.70e-05	0	44	102	1048576	20	4355
2026-01-25 23:31:27.63	38.31	21.58	-29.6	-30.6	13.4	4.73e-05	0	44	102	1048576	20	4029
2026-01-25 23:31:28.63	38.45	21.69	-29.5	-30.2	13.6	4.50e-05	0	44	102	1048576	20	3943
2026-01-25 23:31:29.63	38.59	21.81	-29.4	-30.0	13.8	9.10e-06	0	44	102	1048576	20	3877
2026-01-25 23:31:30.64	38.74	21.93	-29.4	-30.2	13.6	3.43e-05	0	44	102	1048576	20	3924
2026-01-25 23:31:31.64	38.89	22.05	-29.5	-30.3	13.6	6.10e-06	0	44	102	1048576	20	3951
2026-01-25 23:31:32.64	39.03	22.16	-29.3	-29.9	13.8	8.30e-06	0	44	102	1048576	20	3852
2026-01-25 23:31:33.64	39.18	22.28	-29.2	-30.0	14.1	3.80e-06	0	44	102	1048576	19	3962
2026-01-25 23:31:34.64	39.33	22.40	-29.1	-29.8	14.3	6.10e-05	0	44	102	1048576	19	3901
2026-01-25 23:31:35.64	39.48	22.52	-29.3	-30.3	13.9	4.50e-05	0	43	102	1048576	19	4039
2026-01-25 23:31:36.65	39.64	22.64	-29.3	-30.2	14.0	2.20e-06	0	44	102	1048576	19	4018
2026-01-25 23:31:37.65	39.79	22.76	-29.2	-30.0	14.2	4.50e-06	0	43	102	1048576	19	3942
2026-01-25 23:31:38.65	39.94	22.88	-29.3	-30.2	14.1	1.14e-04	0	44	102	1048576	19	3999
2026-01-25 23:31:39.65	40.10	23.00	-29.5	-30.8	13.7	1.36e-04	0	44	102	1048576	19	4197
2026-01-25 23:31:40.66	40.26	23.12	-29.6	-31.1	13.5	1.37e-05	0	44	102	1048576	19	4274
2026-01-25 23:31:41.66	40.41	23.25	-29.7	-31.5	13.2	8.30e-06	0	44	102	1048576	19	4402
2026-01-25 23:31:42.67	40.57	23.37	-29.8	-31.7	13.1	6.71e-05	0	44	102	1048576	19	4483
2026-01-25 23:31:43.67	40.73	23.49	-29.8	-31.7	13.1	2.05e-05	0	44	102	1048576	19	4472
2026-01-25 23:31:44.67	40.89	23.61	-29.9	-31.9	13.0	4.11e-05	0	44	102	1048576	19	4520
2026-01-25 23:31:45.68	41.06	23.74	-29.8	-31.7	13.1	5.79e-05	0	44	102	1048576	19	4450
2026-01-25 23:31:46.68	41.22	23.86	-29.8	-31.5	13.2	4.19e-05	0	44	102	1048576	19	4409
2026-01-25 23:31:47.68	41.39	23.98	-29.6	-30.9	13.6	8.30e-06	0	44	102	1048576	19	4223
2026-01-25 23:31:48.68	41.55	24.11	-29.4	-30.6	13.8	7.60e-06	0	44	102	1048576	19	4122
2026-01-25 23:31:49.68	41.72	24.23	-29.3	-30.4	14.0	1.50e-06	0	44	102	1048576	19	4043
2026-01-25 23:31:50.69	41.89	24.36	-29.3	-30.3	14.0	2.20e-06	0	44	102	1048576	19	4033
2026-01-25 23:31:51.70	42.06	24.48	-29.3	-30.3	14.1	3.00e-06	0	44	102	1048576	19	4018
2026-01-25 23:31:52.70	42.24	24.61	-29.5	-30.9	13.7	3.80e-06	0	44	102	1048576	19	4210
2026-01-25 23:31:53.71	42.41	24.74	-29.6	-30.9	13.6	6.80e-06	0	44	102	1048576	19	4213
2026-01-25 23:31:54.72	42.59	24.86	-29.4	-30.6	13.8	3.80e-06	0	44	102	1048576	19	4120
2026-01-25 23:31:55.72	42.76	24.99	-29.7	-31.2	13.5	8.30e-06	0	44	102	1048576	19	4299
2026-01-25 23:31:56.72	42.94	25.12	-29.8	-31.5	13.3	2.36e-05	0	43	102	1048576	19	4388
2026-01-25 23:31:57.72	43.12	25.24	-29.8	-31.5	13.3	1.83e-05	0	44	102	1048576	19	4398
2026-01-25 23:31:58.72	43.30	25.37	-29.8	-31.6	13.2	2.51e-05	0	44	102	1048576	19	4420
2026-01-25 23:31:59.72	43.48	25.50	-29.9	-31.8	13.2	2.13e-05	0	44	102	1048576	19	4479
2026-01-25 23:32:00.72	43.66	25.63	-29.8	-31.6	13.2	2.13e-05	0	44	102	1048576	19	4442
2026-01-25 23:32:01.72	43.84	25.76	-29.7	-31.2	13.5	1.14e-05	0	43	102	1048576	19	4287
2026-01-25 23:32:02.72	44.03	25.88	-29.7	-31.2	13.4	1.22e-05	0	44	102	1048576	19	4302
2026-01-25 23:32:03.73	44.22	26.01	-30.0	-32.0	13.0	2.28e-05	0	44	102	1048576	19	4553
2026-01-25 23:32:04.73	44.41	26.14	-29.9	-31.4	13.0	4.95e-05	0	44	102	1048576	20	4265
2026-01-25 23:32:05.73	44.60	26.27	-30.1	-32.0	12.6	5.11e-05	0	44	102	1048576	20	4457
2026-01-25 23:32:06.74	44.79	26.40	-30.3	-32.5	12.2	1.70e-04	0	44	102	1048576	20	4647
2026-01-25 23:32:07.74	44.98	26.53	-30.2	-32.4	12.3	2.86e-04	0	44	102	1048576	20	4643
2026-01-25 23:32:08.75	45.18	26.67	-30.5	-32.6	11.8	5.16e-04	0	44	102	1048576	21	4585
2026-01-25 23:32:09.76	45.38	26.80	-30.4	-32.4	12.0	4.65e-04	0	44	102	1048576	21	4503
2026-01-25 23:32:10.76	45.58	26.93	-30.5	-33.1	11.7	4.04e-04	0	44	102	1048576	20	4840
2026-01-25 23:32:11.77	45.78	27.06	-30.6	-33.0	11.3	5.71e-04	0	44	102	1048576	21	4723
2026-01-25 23:32:12.77	45.98	27.19	-30.4	-32.3	12.1	6.42e-04	0	44	102	1048576	21	4468
2026-01-25 23:32:13.78	46.18	27.33	-30.2	-32.2	12.4	1.03e-03	0	44	102	1048576	20	4540
2026-01-25 23:32:14.78	46.39	27.46	-30.0	-31.5	12.9	6.56e-05	0	44	102	1048576	20	4308
2026-01-25 23:32:15.78	46.59	27.59	-29.8	-31.0	13.3	2.67e-05	0	44	102	1048576	20	4133
2026-01-25 23:32:16.79	46.80	27.73	-29.7	-30.6	13.5	6.10e-06	0	44	102	1048576	20	4035
2026-01-25 23:32:17.79	47.01	27.86	-29.9	-31.3	13.1	2.05e-05	0	44	102	1048576	20	4241
2026-01-25 23:32:18.79	47.22	27.99	-29.7	-30.7	13.5	1.29e-05	0	44	102	1048576	20	4045
2026-01-25 23:32:19.80	47.44	28.13	-29.9	-31.2	13.2	1.52e-05	0	44	102	1048576	20	4218
2026-01-25 23:32:20.80	47.65	28.26	-30.0	-31.6	13.0	1.77e-04	0	44	102	1048576	20	4323
2026-01-25 23:32:21.80	47.87	28.39	-30.4	-32.7	12.2	6.56e-05	0	44	102	1048576	20	4697
2026-01-25 23:32:22.80	48.09	28.53	-30.2	-32.3	12.5	1.50e-04	0	44	102	1048576	20	4556
2026-01-25 23:32:23.80	48.31	28.66	-30.2	-32.2	12.5	5.26e-04	0	44	102	1048576	20	4521
2026-01-25 23:32:24.81	48.53	28.80	-30.1	-32.0	12.7	1.05e-04	0	44	102	1048576	20	4456
2026-01-25 23:32:25.82	48.76	28.93	-29.9	-31.9	13.1	3.20e-05	0	44	102	1048576	19	4516
2026-01-25 23:32:26.82	48.98	29.07	-30.0	-31.7	12.9	3.43e-05	0	44	102	1048576	20	4347
2026-01-25 23:32:27.83	49.21	29.20	-30.0	-31.5	13.0	3.43e-05	0	44	102	1048576	20	4305
2026-01-25 23:32:28.84	49.44	29.34	-29.9	-31.2	13.1	2.82e-05	0	44	102	1048576	20	4200
2026-01-25 23:32:29.84	49.67	29.48	-30.0	-31.7	12.9	2.36e-05	0	44	102	1048576	20	4372
2026-01-25 23:32:30.84	49.91	29.61	-30.1	-32.0	12.7	8.85e-05	0	44	102	1048576	20	4448
2026-01-25 23:32:31.85	50.15	29.75	-30.3	-32.4	12.5	6.09e-04	0	44	102	1048576	20	4597
2026-01-25 23:32:32.86	50.38	29.89	-30.3	-32.4	12.4	1.38e-04	0	44	102	1048576	20	4604
2026-01-25 23:32:33.86	50.62	30.02	-30.3	-32.5	12.4	1.31e-04	0	44	102	1048576	20	4629
2026-01-25 23:32:34.86	50.86	30.16	-30.2	-32.2	12.6	1.45e-04	0	44	102	1048576	20	4509
2026-01-25 23:32:35.86	51.11	30.29	-30.3	-32.5	12.4	1.27e-04	0	44	102	1048576	20	4618
2026-01-25 23:32:36.87	51.35	30.43	-30.2	-32.1	12.8	1.27e-04	0	44	102	1048576	20	4476
2026-01-25 23:32:37.87	51.60	30.57	-30.1	-31.7	12.9	6.56e-05	0	44	102	1048576	20	4360
2026-01-25 23:32:38.88	51.85	30.71	-29.9	-31.3	13.2	2.28e-05	0	44	102	1048576	20	4236
2026-01-25 23:32:39.88	52.10	30.84	-29.9	-31.2	13.3	1.90e-05	0	44	102	1048576	20	4196
2026-01-25 23:32:40.88	52.36	30.98	-30.0	-31.7	12.9	5.34e-05	0	44	102	1048576	20	4354
2026-01-25 23:32:41.88	52.61	31.11	-30.1	-31.8	12.9	6.48e-05	0	44	102	1048576	20	4378
2026-01-25 23:32:42.89	52.87	31.25	-30.1	-31.9	12.8	5.95e-05	0	44	102	1048576	20	4399
2026-01-25 23:32:43.89	53.13	31.39	-30.3	-32.5	12.4	9.99e-05	0	44	102	1048576	20	4624
2026-01-25 23:32:44.90	53.40	31.53	-30.6	-32.7	12.1	2.75e-04	0	44	102	1048576	21	4595
2026-01-25 23:32:45.90	53.66	31.66	-30.9	-33.9	11.1	8.06e-04	0	44	102	1048576	21	5044
2026-01-25 23:32:46.91	53.93	31.80	-31.5	-34.6	9.9	6.44e-03	0	44	102	1048576	23	5149
2026-01-25 23:32:47.91	54.20	31.94	-31.8	-36.1	8.7	2.65e-02	0	44	102	1048576	23	5843
2026-01-25 23:32:48.91	54.47	32.07	-32.1	-36.6	7.9	7.16e-02	0	44	102	1048576	24	6039
2026-01-25 23:32:49.91	54.74	32.21	-32.0	-36.2	8.1	6.27e-02	0	44	102	1048576	24	5841
2026-01-25 23:32:50.91	55.02	32.35	-31.8	-35.3	8.8	2.85e-02	0	44	102	1048576	24	5405
2026-01-25 23:32:51.91	55.29	32.48	-31.4	-34.0	10.0	1.09e-02	0	44	102	1048576	24	4818
2026-01-25 23:32:52.92	55.58	32.62	-31.1	-33.3	10.9	5.61e-03	0	44	102	1048576	23	4650
2026-01-25 23:32:53.92	55.86	32.76	-31.3	-33.9	10.4	3.90e-03	0	44	102	1048576	23	4876
2026-01-25 23:32:54.92	56.14	32.89	-31.6	-34.9	9.7	8.17e-03	0	44	102	1048576	23	5305
2026-01-25 23:32:55.93	56.43	33.03	-31.7	-35.4	9.4	1.38e-02	0	44	102	1048576	23	5495
2026-01-25 23:32:56.93	56.72	33.17	-31.7	-35.5	9.2	1.43e-02	0	44	102	1048576	23	5582
2026-01-25 23:32:57.94	57.02	33.30	-31.9	-36.0	8.8	3.40e-02	0	44	102	1048576	23	5787
2026-01-25 23:32:58.95	57.31	33.44	-32.0	-36.1	8.3	3.34e-02	0	44	102	1048576	24	5768
2026-01-25 23:32:59.95	57.61	33.57	-32.0	-36.1	8.5	4.25e-02	0	44	102	1048576	24	5743
2026-01-25 23:33:00.96	57.91	33.71	-31.9	-35.5	8.8	3.78e-02	0	44	102	1048576	24	5485
2026-01-25 23:33:01.96	58.21	33.84	-31.8	-35.4	8.9	2.36e-02	0	44	102	1048576	24	5445
2026-01-25 23:33:02.97	58.52	33.98	-31.6	-35.1	9.5	1.95e-02	0	44	102	1048576	23	5382
2026-01-25 23:33:03.97	58.82	34.11	-31.5	-34.7	9.8	1.23e-02	0	44	102	1048576	23	5201
2026-01-25 23:33:04.96	59.13	34.25	-31.5	-34.4	10.1	7.10e-03	0	44	102	1048576	23	5071
2026-01-25 23:33:05.96	59.44	34.38	-31.6	-35.1	9.6	1.04e-02	0	44	102	1048576	23	5380
2026-01-25 23:33:06.97	59.76	34.51	-31.7	-35.2	9.5	1.75e-02	0	44	102	1048576	23	5427
2026-01-25 23:33:07.97	60.07	34.65	-31.7	-35.5	9.3	1.28e-02	0	44	102	1048576	23	5569
2026-01-25 23:33:08.97	60.39	34.78	-31.9	-35.7	8.8	2.68e-02	0	44	102	1048576	24	5561
2026-01-25 23:33:09.97	60.72	34.91	-32.0	-36.0	8.4	4.28e-02	0	44	102	1048576	24	5703
2026-01-25 23:33:10.98	61.04	35.04	-31.9	-35.4	8.9	3.49e-02	0	44	102	1048576	24	5442
2026-01-25 23:33:11.99	61.37	35.17	-31.7	-35.0	9.3	1.91e-02	0	44	102	1048576	24	5226
2026-01-25 23:33:13.00	61.70	35.30	-31.9	-35.4	9.0	2.13e-02	0	44	102	1048576	24	5428
2026-01-25 23:33:14.00	62.04	35.43	-31.6	-34.5	9.6	2.07e-02	0	44	102	1048576	24	4998
2026-01-25 23:33:15.00	62.37	35.56	-31.7	-34.8	9.8	1.07e-02	0	44	102	1048576	24	5132
2026-01-25 23:33:16.00	62.71	35.69	-31.7	-34.8	9.5	9.61e-03	0	44	102	1048576	24	5126
2026-01-25 23:33:17.01	63.05	35.82	-31.8	-35.1	9.3	1.41e-02	0	44	102	1048576	24	5251
2026-01-25 23:33:18.01	63.39	35.95	-31.7	-34.7	9.4	1.68e-02	0	44	102	1048576	24	5107
2026-01-25 23:33:19.02	63.74	36.08	-31.7	-34.9	9.3	1.41e-02	0	44	102	1048576	24	5201
2026-01-25 23:33:20.02	64.09	36.20	-31.6	-34.3	9.8	1.46e-02	0	44	102	1048576	24	4941
2026-01-25 23:33:21.02	64.44	36.33	-31.4	-33.9	10.2	1.06e-02	0	44	102	1048576	24	4753
2026-01-25 23:33:22.02	64.79	36.45	-31.2	-33.7	10.7	3.24e-03	0	44	102	1048576	23	4758
2026-01-25 23:33:23.03	65.15	36.58	-31.0	-32.8	11.3	1.66e-03	0	44	102	1048576	23	4440
2026-01-25 23:33:24.03	65.51	36.70	-31.1	-33.7	11.0	1.34e-03	0	44	102	1048576	22	4865
2026-01-25 23:33:25.04	65.87	36.83	-31.2	-34.1	10.8	2.30e-03	0	44	102	1048576	22	5019
2026-01-25 23:33:26.04	66.24	36.95	-31.2	-34.1	10.7	2.78e-03	0	44	102	1048576	22	5018
2026-01-25 23:33:27.05	66.61	37.07	-31.4	-34.8	10.3	4.90e-03	0	44	102	1048576	22	5304
2026-01-25 23:33:28.05	66.98	37.19	-31.5	-34.5	10.2	8.41e-03	0	44	102	1048576	23	5072
2026-01-25 23:33:29.06	67.35	37.31	-31.4	-34.2	10.3	8.37e-03	0	44	102	1048576	23	4961
2026-01-25 23:33:30.06	67.73	37.43	-31.3	-33.9	10.5	4.11e-03	0	44	102	1048576	23	4838
2026-01-25 23:33:31.06	68.10	37.55	-31.2	-33.5	10.8	3.82e-03	0	44	102	1048576	23	4704
2026-01-25 23:33:32.07	68.49	37.66	-31.4	-34.3	10.2	3.55e-03	0	44	102	1048576	23	5001
2026-01-25 23:33:33.08	68.87	37.78	-31.6	-35.0	9.8	7.86e-03	0	44	102	1048576	23	5297
2026-01-25 23:33:34.09	69.26	37.90	-31.5	-34.5	10.2	8.97e-03	0	44	102	1048576	23	5077
2026-01-25 23:33:35.09	69.65	38.01	-31.7	-35.3	9.6	1.19e-02	0	44	102	1048576	23	5440
2026-01-25 23:33:36.10	70.05	38.12	-31.6	-34.9	9.9	1.51e-02	0	44	102	1048576	23	5239
2026-01-25 23:33:37.11	70.44	38.23	-31.7	-35.0	9.7	1.47e-02	0	44	102	1048576	23	5298
2026-01-25 23:33:38.11	70.84	38.34	-31.7	-35.3	9.5	1.35e-02	0	44	102	1048576	23	5432
2026-01-25 23:33:39.11	71.24	38.45	-31.5	-34.4	10.2	8.31e-03	0	44	102	1048576	23	5041
2026-01-25 23:33:40.12	71.64	38.56	-31.3	-33.8	10.6	4.79e-03	0	44	102	1048576	23	4815
2026-01-25 23:33:41.12	72.05	38.67	-31.2	-33.4	10.9	3.52e-03	0	44	102	1048576	23	4660
2026-01-25 23:33:42.13	72.46	38.77	-31.5	-34.4	10.2	3.18e-03	0	44	102	1048576	23	5040
2026-01-25 23:33:43.13	72.87	38.88	-31.6	-34.9	9.8	6.56e-03	0	44	102	1048576	23	5245
2026-01-25 23:33:44.13	73.28	38.98	-32.0	-35.8	8.8	2.33e-02	0	44	102	1048576	24	5581
2026-01-25 23:33:45.13	73.69	39.08	-31.8	-35.0	9.4	1.92e-02	0	44	102	1048576	24	5197
2026-01-25 23:33:46.13	74.11	39.18	-31.4	-33.6	10.4	6.85e-03	0	44	102	1048576	24	4646
2026-01-25 23:33:47.14	74.54	39.28	-31.0	-32.9	11.4	2.76e-03	0	44	102	1048576	23	4457
2026-01-25 23:33:48.15	74.96	39.38	-30.8	-32.6	11.9	3.97e-04	0	44	102	1048576	22	4461
2026-01-25 23:33:49.16	75.39	39.48	-30.4	-31.6	12.6	1.71e-04	0	44	102	1048576	22	4127
2026-01-25 23:33:50.16	75.82	39.57	-30.2	-31.5	12.9	6.40e-05	0	44	102	1048576	21	4181
2026-01-25 23:33:51.16	76.25	39.66	-30.1	-31.3	13.0	2.97e-05	0	44	102	1048576	21	4128
2026-01-25 23:33:52.16	76.68	39.75	-30.4	-32.1	12.6	1.20e-04	0	44	102	1048576	21	4368
2026-01-25 23:33:53.17	77.12	39.84	-30.9	-33.6	11.5	4.20e-04	0	44	102	1048576	21	4901
2026-01-25 23:33:54.17	77.55	39.93	-31.7	-35.0	9.9	3.12e-03	0	44	102	1048576	23	5292
2026-01-25 23:33:55.17	77.99	40.02	-31.6	-34.9	9.9	8.39e-03	0	44	102	1048576	23	5258
2026-01-25 23:33:56.18	78.44	40.10	-31.1	-33.1	11.1	2.86e-03	0	44	102	1048576	23	4532
2026-01-25 23:33:57.18	78.88	40.19	-31.0	-32.8	11.4	9.13e-04	0	44	102	1048576	23	4440
2026-01-25 23:33:58.19	79.33	40.27	-31.3	-33.7	10.8	1.94e-03	0	44	102	1048576	23	4742
2026-01-25 23:33:59.19	79.78	40.35	-31.1	-33.5	11.3	2.73e-03	0	44	102	1048576	22	4746
2026-01-25 23:34:00.18	80.23	40.43	-30.7	-32.5	12.1	1.02e-03	0	44	102	1048576	22	4404
2026-01-25 23:34:01.19	80.68	40.50	-30.7	-32.3	12.2	2.94e-04	0	44	102	1048576	22	4349
2026-01-25 23:34:02.19	81.14	40.58	-31.1	-33.7	11.2	8.19e-04	0	44	102	1048576	22	4844
2026-01-25 23:34:03.20	81.60	40.65	-31.9	-35.9	9.2	6.00e-03	0	44	102	1048576	23	5720
2026-01-25 23:34:04.20	82.06	40.72	-32.3	-37.0	7.9	4.38e-02	0	44	102	1048576	24	6189
2026-01-25 23:34:05.19	82.51	40.79	-32.2	-36.8	8.0	7.16e-02	0	44	102	1048576	24	6065
2026-01-25 23:34:06.20	82.98	40.85	-32.0	-36.0	8.6	4.08e-02	0	44	102	1048576	24	5670
2026-01-25 23:34:07.21	83.45	40.92	-31.8	-35.1	9.3	2.72e-02	0	44	102	1048576	24	5263
2026-01-25 23:34:08.21	83.91	40.98	-31.9	-35.3	9.2	1.90e-02	0	44	102	1048576	24	5318
2026-01-25 23:34:09.22	84.39	41.04	-31.7	-34.5	9.8	1.72e-02	0	44	102	1048576	24	4977
2026-01-25 23:34:10.22	84.86	41.10	-31.7	-34.5	10.0	9.43e-03	0	44	102	1048576	24	4985
2026-01-25 23:34:11.23	85.33	41.16	-31.8	-34.9	9.6	8.32e-03	0	44	102	1048576	24	5135
2026-01-25 23:34:12.23	85.81	41.21	-31.9	-35.5	9.0	2.02e-02	0	44	102	1048576	24	5442
2026-01-25 23:34:13.24	86.28	41.27	-32.3	-36.8	8.0	3.75e-02	0	44	102	1048576	24	6088
2026-01-25 23:34:14.24	86.76	41.32	-32.6	-38.0	6.8	1.30e-01	0	44	102	1048576	25	6704
2026-01-25 23:34:15.25	87.24	41.37	-32.6	-38.0	6.8	1.94e-01	0	44	102	1048576	25	6720
2026-01-25 23:34:16.25	87.72	41.41	-32.4	-37.0	7.5	1.73e-01	0	44	102	1048576	25	6096
2026-01-25 23:34:17.25	88.20	41.46	-32.4	-37.2	7.4	1.10e-01	0	44	102	1048576	25	6201
2026-01-25 23:34:18.26	88.69	41.50	-32.5	-37.5	7.2	1.36e-01	0	44	102	1048576	25	6425
2026-01-25 23:34:19.26	89.17	41.54	-32.6	-37.8	6.9	1.59e-01	0	44	102	1048576	25	6567
2026-01-25 23:34:20.26	89.65	41.58	-32.6	-38.0	6.8	1.91e-01	0	44	102	1048576	25	6717
2026-01-25 23:34:21.26	90.14	41.61	-32.4	-36.8	7.6	1.47e-01	0	44	102	1048576	25	6026
2026-01-25 23:34:22.26	90.63	41.64	-32.5	-37.6	7.2	8.94e-02	0	44	102	1048576	25	6434
2026-01-25 23:34:23.27	91.12	41.68	-32.9	-39.6	5.7	2.33e-01	0	44	102	1048576	25	7824
2026-01-25 23:34:24.27	91.60	41.70	-33.0	-40.2	5.1	6.15e-01	0	44	102	1048576	26	8218
2026-01-25 23:34:25.28	92.10	41.73	-32.9	-39.3	5.5	5.84e-01	0	44	102	1048576	26	7540
2026-01-25 23:34:26.29	92.59	41.75	-32.6	-37.4	6.8	2.92e-01	0	44	102	1048576	26	6246
2026-01-25 23:34:27.28	93.08	41.78	-32.4	-36.3	7.8	9.11e-02	0	44	102	1048576	26	5655
2026-01-25 23:34:28.29	93.57	41.80	-32.3	-36.3	8.0	6.90e-02	0	44	102	1048576	25	5746
2026-01-25 23:34:29.29	94.06	41.81	-32.1	-35.7	8.6	4.43e-02	0	44	102	1048576	25	5417
2026-01-25 23:34:30.30	94.56	41.83	-32.2	-35.9	8.4	3.82e-02	0	44	102	1048576	25	5550
2026-01-25 23:34:31.30	95.05	41.84	-32.2	-36.1	8.3	4.38e-02	0	44	102	1048576	25	5661
2026-01-25 23:34:32.31	95.55	41.85	-32.1	-35.6	8.6	5.14e-02	0	44	102	1048576	25	5421
2026-01-25 23:34:33.31	96.04	41.86	-31.9	-34.9	9.2	2.41e-02	0	44	102	1048576	25	5078
2026-01-25 23:34:34.31	96.54	41.86	-31.8	-34.9	9.5	1.22e-02	0	44	102	1048576	24	5180
2026-01-25 23:34:35.32	97.03	41.87	-32.0	-35.9	8.8	3.06e-02	0	44	102	1048576	24	5620
2026-01-25 23:34:36.33	97.53	41.87	-32.3	-37.1	7.8	4.08e-02	0	44	102	1048576	24	6262
2026-01-25 23:34:37.33	98.03	41.87	-32.3	-37.3	7.6	1.13e-01	0	44	102	1048576	24	6367
2026-01-25 23:34:38.34	98.52	41.86	-32.1	-36.3	8.5	5.97e-02	0	44	102	1048576	24	5829
2026-01-25 23:34:39.34	99.02	41.85	-32.0	-35.8	8.8	4.13e-02	0	44	102	1048576	24	5606
2026-01-25 23:34:40.35	99.52	41.85	-32.0	-35.8	9.0	2.58e-02	0	44	102	1048576	24	5554
2026-01-25 23:34:41.35	100.01	41.84	-32.0	-35.9	8.8	3.31e-02	0	44	102	1048576	24	5639
2026-01-25 23:34:42.35	100.50	41.82	-31.9	-35.5	9.1	3.71e-02	0	44	102	1048576	24	5432
2026-01-25 23:34:43.35	100.99	41.81	-31.1	-33.1	11.3	5.59e-03	0	44	102	1048576	23	4521
2026-01-25 23:34:44.35	101.48	41.79	-30.5	-31.8	12.6	3.71e-04	0	44	102	1048576	22	4179
2026-01-25 23:34:45.35	101.97	41.77	-30.6	-32.8	12.2	1.40e-04	0	44	102	1048576	21	4598
2026-01-25 23:34:46.36	102.47	41.75	-31.7	-35.4	9.7	3.35e-03	0	44	102	1048576	23	5457
2026-01-25 23:34:47.36	102.96	41.72	-32.4	-37.6	7.3	4.95e-02	0	44	102	1048576	24	6559
2026-01-25 23:34:48.36	103.45	41.69	-32.1	-36.2	8.4	8.11e-02	0	44	102	1048576	24	5760
2026-01-25 23:34:49.37	103.94	41.66	-31.4	-33.6	10.4	8.94e-03	0	44	102	1048576	24	4632
2026-01-25 23:34:50.37	104.43	41.63	-31.1	-33.0	11.4	1.41e-03	0	44	102	1048576	23	4503
2026-01-25 23:34:51.37	104.91	41.60	-31.5	-34.3	10.5	1.53e-03	0	44	102	1048576	23	4975
2026-01-25 23:34:52.38	105.40	41.56	-31.6	-34.8	9.8	6.68e-03	0	44	102	1048576	23	5206
2026-01-25 23:34:53.38	105.89	41.52	-31.1	-32.9	11.3	2.58e-03	0	44	102	1048576	23	4468
2026-01-25 23:34:54.39	106.37	41.48	-30.7	-32.4	12.2	4.68e-04	0	44	102	1048576	22	4355
2026-01-25 23:34:55.39	106.85	41.44	-31.1	-33.5	11.5	6.77e-04	0	44	102	1048576	22	4745
2026-01-25 23:34:56.40	107.34	41.39	-31.5	-34.4	10.3	2.46e-03	0	44	102	1048576	23	5041
2026-01-25 23:34:57.41	107.82	41.35	-31.7	-35.2	9.7	9.87e-03	0	44	102	1048576	23	5374
2026-01-25 23:34:58.41	108.30	41.30	-31.4	-34.2	10.6	1.03e-02	0	44	102	1048576	23	4923
2026-01-25 23:34:59.42	108.78	41.25	-31.0	-32.6	11.6	7.06e-04	0	44	102	1048576	23	4365
2026-01-25 23:35:00.43	109.26	41.19	-31.1	-33.1	11.3	1.41e-03	0	44	102	1048576	23	4527
2026-01-25 23:35:01.43	109.73	41.14	-31.6	-34.8	10.1	4.21e-03	0	44	102	1048576	23	5175
2026-01-25 23:35:02.43	110.20	41.08	-32.0	-36.1	9.0	1.74e-02	0	44	102	1048576	23	5770
2026-01-25 23:35:03.43	110.67	41.02	-32.0	-35.7	8.9	2.56e-02	0	44	102	1048576	24	5534
2026-01-25 23:35:04.44	111.15	40.96	-31.8	-34.9	9.7	1.53e-02	0	44	102	1048576	24	5136
2026-01-25 23:35:05.44	111.61	40.89	-31.5	-33.7	10.4	4.73e-03	0	44	102	1048576	24	4679
2026-01-25 23:35:06.44	112.08	40.83	-31.4	-33.8	10.8	3.99e-03	0	44	102	1048576	23	4798
2026-01-25 23:35:07.45	112.54	40.76	-31.2	-33.4	11.1	3.77e-03	0	44	102	1048576	23	4625
2026-01-25 23:35:08.45	113.00	40.69	-30.6	-31.9	12.4	5.53e-04	0	44	102	1048576	22	4226
2026-01-25 23:35:09.45	113.46	40.62	-30.4	-31.5	12.6	6.79e-05	0	44	102	1048576	22	4089
2026-01-25 23:35:10.46	113.92	40.55	-30.3	-31.6	12.9	4.11e-05	0	44	102	1048576	21	4224
2026-01-25 23:35:11.46	114.38	40.47	-30.6	-32.6	12.4	1.10e-04	0	44	102	1048576	21	4525
2026-01-25 23:35:12.47	114.83	40.39	-30.5	-32.3	12.5	1.36e-04	0	44	102	1048576	21	4422
2026-01-25 23:35:13.47	115.28	40.31	-30.5	-32.2	12.6	8.54e-05	0	44	102	1048576	21	4397
2026-01-25 23:35:14.48	115.74	40.23	-30.8	-33.3	11.9	2.78e-04	0	44	102	1048576	21	4770
2026-01-25 23:35:15.48	116.18	40.15	-30.9	-33.0	11.7	5.59e-04	0	44	102	1048576	22	4579
2026-01-25 23:35:16.49	116.63	40.07	-30.6	-32.0	12.4	2.18e-04	0	44	102	1048576	22	4235
2026-01-25 23:35:17.49	117.07	39.98	-30.3	-31.8	12.9	7.40e-05	0	44	102	1048576	21	4254
2026-01-25 23:35:18.50	117.51	39.89	-30.2	-31.6	13.0	4.88e-05	0	44	102	1048576	21	4187
2026-01-25 23:35:19.50	117.95	39.80	-30.1	-31.2	13.3	1.98e-05	0	44	102	1048576	21	4084
2026-01-25 23:35:20.51	118.39	39.71	-29.7	-30.5	14.0	1.22e-05	0	44	102	1048576	20	3972
2026-01-25 23:35:21.51	118.82	39.62	-29.2	-29.8	14.7	7.00e-07	0	44	102	1048576	19	3865
2026-01-25 23:35:22.51	119.25	39.53	-28.0	-27.9	16.4	0.00e+00	0	44	102	1048576	17	3565
2026-01-25 23:35:23.51	119.68	39.43	-27.6	-27.5	17.0	0.00e+00	0	44	102	1048576	16	3548
2026-01-25 23:35:24.50	120.10	39.34	-27.5	-27.3	17.1	0.00e+00	0	44	102	1048576	16	3495
2026-01-25 23:35:25.51	120.52	39.24	-27.8	-28.0	16.7	7.00e-07	0	44	102	1048576	16	3659
2026-01-25 23:35:26.52	120.95	39.14	-28.3	-29.0	16.1	0.00e+00	0	44	102	1048576	16	3930
2026-01-25 23:35:27.52	121.36	39.04	-28.4	-29.3	15.9	0.00e+00	0	44	102	1048576	16	3990
2026-01-25 23:35:28.52	121.78	38.93	-28.4	-28.9	15.8	0.00e+00	0	44	102	1048576	17	3809
2026-01-25 23:35:29.52	122.19	38.83	-28.3	-28.6	16.0	0.00e+00	0	44	102	1048576	17	3717
2026-01-25 23:35:30.53	122.60	38.73	-28.6	-29.4	15.6	6.10e-06	0	44	102	1048576	17	3946
2026-01-25 23:35:31.53	123.01	38.62	-29.0	-29.9	15.0	0.00e+00	0	44	102	1048576	18	3981
2026-01-25 23:35:32.54	123.42	38.51	-28.5	-28.5	15.8	0.00e+00	0	44	102	1048576	18	3614
2026-01-25 23:35:33.54	123.82	38.40	-27.8	-27.5	16.6	0.00e+00	0	44	102	1048576	17	3455
2026-01-25 23:35:34.55	124.22	38.29	-27.4	-26.9	17.2	0.00e+00	0	44	102	1048576	16	3422
2026-01-25 23:35:35.55	124.62	38.18	-27.5	-27.7	16.9	0.00e+00	0	44	102	1048576	15	3694
2026-01-25 23:35:36.56	125.02	38.07	-27.7	-28.1	16.7	0.00e+00	0	44	102	1048576	15	3805
2026-01-25 23:35:37.56	125.41	37.95	-27.4	-27.6	17.0	0.00e+00	0	44	102	1048576	15	3667
2026-01-25 23:35:38.57	125.80	37.84	-27.4	-27.7	16.9	0.00e+00	0	44	102	1048576	15	3693
2026-01-25 23:35:39.58	126.19	37.72	-27.5	-27.8	16.9	0.00e+00	0	44	102	1048576	15	3730
2026-01-25 23:35:40.58	126.57	37.61	-27.9	-28.8	16.3	0.00e+00	0	44	102	1048576	15	3967
2026-01-25 23:35:41.59	126.95	37.49	-28.7	-29.6	15.5	0.00e+00	0	44	102	1048576	17	3998
2026-01-25 23:35:42.60	127.33	37.37	-29.1	-30.0	15.0	0.00e+00	0	44	102	1048576	18	3993
2026-01-25 23:35:43.60	127.71	37.25	-28.5	-28.6	15.7	0.00e+00	0	44	102	1048576	18	3645
2026-01-25 23:35:44.61	128.08	37.13	-27.8	-27.8	16.7	0.00e+00	0	44	102	1048576	16	3622
2026-01-25 23:35:45.62	128.46	37.01	-27.5	-27.3	17.1	0.00e+00	0	44	102	1048576	16	3515
2026-01-25 23:35:46.62	128.82	36.88	-27.8	-27.9	16.7	0.00e+00	0	44	102	1048576	16	3648
2026-01-25 23:35:47.63	129.19	36.76	-28.2	-28.8	16.1	0.00e+00	0	44	102	1048576	16	3881
2026-01-25 23:35:48.63	129.55	36.64	-28.2	-29.0	16.1	0.00e+00	0	44	102	1048576	16	3911
2026-01-25 23:35:49.64	129.91	36.51	-28.4	-29.3	15.9	0.00e+00	0	44	102	1048576	16	4020
2026-01-25 23:35:50.65	130.27	36.39	-28.1	-28.2	16.2	0.00e+00	0	44	102	1048576	17	3634
2026-01-25 23:35:51.65	130.62	36.26	-28.3	-28.7	15.9	7.00e-07	0	44	102	1048576	17	3761
2026-01-25 23:35:52.65	130.97	36.13	-28.8	-30.0	15.2	0.00e+00	0	44	102	1048576	17	4096
2026-01-25 23:35:53.65	131.32	36.01	-28.8	-30.0	15.2	0.00e+00	0	44	102	1048576	17	4121
2026-01-25 23:35:54.65	131.67	35.88	-29.1	-30.2	14.7	0.00e+00	0	44	102	1048576	18	4086
2026-01-25 23:35:55.65	132.01	35.75	-28.9	-29.6	15.1	7.00e-07	0	44	102	1048576	18	3904
2026-01-25 23:35:56.66	132.35	35.62	-28.5	-28.7	15.7	0.00e+00	0	44	102	1048576	18	3667
2026-01-25 23:35:57.66	132.69	35.49	-28.3	-28.6	16.0	0.00e+00	0	44	102	1048576	17	3752
2026-01-25 23:35:58.66	133.02	35.36	-28.6	-29.3	15.6	0.00e+00	0	44	102	1048576	17	3916
2026-01-25 23:35:59.67	133.36	35.23	-28.9	-29.6	15.1	0.00e+00	0	44	102	1048576	18	3919
2026-01-25 23:36:00.67	133.69	35.10	-28.7	-29.1	15.4	0.00e+00	0	44	102	1048576	18	3758
2026-01-25 23:36:01.68	134.02	34.96	-28.7	-29.1	15.4	0.00e+00	0	44	102	1048576	18	3774
2026-01-25 23:36:02.68	134.34	34.83	-28.7	-29.0	15.6	0.00e+00	0	44	102	1048576	18	3733
2026-01-25 23:36:03.69	134.66	34.70	-29.2	-30.2	14.8	0.00e+00	0	44	102	1048576	18	4070
2026-01-25 23:36:04.70	134.98	34.56	-29.7	-31.2	13.9	2.67e-05	0	44	102	1048576	19	4276
2026-01-25 23:36:05.70	135.30	34.43	-30.7	-32.8	12.0	1.44e-05	0	44	102	1048576	21	4635
2026-01-25 23:36:06.71	135.62	34.30	-30.5	-32.4	12.2	2.48e-04	0	44	102	1048576	21	4498
2026-01-25 23:36:07.71	135.93	34.16	-29.9	-30.8	13.4	4.57e-05	0	44	102	1048576	21	3993
2026-01-25 23:36:08.72	136.24	34.03	-29.5	-30.1	14.2	9.10e-06	0	44	102	1048576	20	3861
2026-01-25 23:36:09.73	136.55	33.89	-29.5	-30.1	14.1	5.30e-06	0	44	102	1048576	20	3864
2026-01-25 23:36:10.73	136.85	33.76	-30.3	-32.2	12.8	1.75e-05	0	44	102	1048576	20	4514
2026-01-25 23:36:11.74	137.16	33.62	-31.3	-34.6	10.5	5.45e-04	0	44	102	1048576	22	5225
2026-01-25 23:36:12.74	137.45	33.48	-31.8	-35.7	9.3	1.38e-02	0	44	102	1048576	23	5627
2026-01-25 23:36:13.75	137.75	33.35	-31.8	-35.5	9.3	1.85e-02	0	44	102	1048576	23	5541
2026-01-25 23:36:14.76	138.05	33.21	-31.6	-34.8	9.9	1.07e-02	0	44	102	1048576	23	5236
2026-01-25 23:36:15.76	138.34	33.07	-31.5	-34.4	10.2	8.09e-03	0	44	102	1048576	23	5053
2026-01-25 23:36:16.77	138.63	32.94	-31.6	-34.9	9.8	7.19e-03	0	44	102	1048576	23	5274
2026-01-25 23:36:17.78	138.92	32.80	-31.6	-35.1	9.6	1.41e-02	0	44	102	1048576	23	5381
2026-01-25 23:36:18.78	139.21	32.66	-32.1	-36.7	8.0	2.05e-02	0	44	102	1048576	24	6071
2026-01-25 23:36:19.78	139.49	32.52	-32.6	-38.4	6.5	1.79e-01	0	44	102	1048576	25	7031
2026-01-25 23:36:20.79	139.77	32.39	-32.6	-38.6	6.2	3.70e-01	0	44	102	1048576	25	7176
2026-01-25 23:36:21.79	140.05	32.25	-32.2	-36.4	7.8	1.94e-01	0	44	102	1048576	25	5826
2026-01-25 23:36:22.80	140.32	32.11	-31.8	-35.1	9.3	2.23e-02	0	44	102	1048576	24	5259
2026-01-25 23:36:23.81	140.60	31.97	-31.7	-34.9	9.4	1.22e-02	0	44	102	1048576	24	5188
2026-01-25 23:36:24.82	140.87	31.83	-32.1	-36.2	8.5	2.72e-02	0	44	102	1048576	24	5794
2026-01-25 23:36:25.82	141.14	31.70	-32.2	-37.0	7.9	6.81e-02	0	44	102	1048576	24	6215
2026-01-25 23:36:26.83	141.41	31.56	-32.8	-39.7	5.6	2.73e-01	0	44	102	1048576	25	7921
2026-01-25 23:36:27.83	141.67	31.42	-32.9	-40.3	5.2	6.66e-01	0	44	102	1048576	25	8470
2026-01-25 23:36:28.84	141.94	31.28	-32.8	-39.9	5.4	5.40e-01	0	44	102	1048576	25	8136
2026-01-25 23:36:29.84	142.20	31.14	-32.8	-39.4	5.7	4.18e-01	0	44	102	1048576	25	7726
2026-01-25 23:36:30.84	142.45	31.01	-32.8	-39.8	5.5	4.20e-01	0	44	102	1048576	25	8021
2026-01-25 23:36:31.84	142.71	30.87	-32.6	-38.3	6.5	3.73e-01	0	44	102	1048576	25	6913
2026-01-25 23:36:32.84	142.96	30.73	-32.3	-36.9	7.4	1.32e-01	0	44	102	1048576	25	6087
2026-01-25 23:36:33.85	143.21	30.59	-32.2	-36.9	7.8	8.49e-02	0	44	102	1048576	24	6153
2026-01-25 23:36:34.85	143.46	30.46	-32.7	-39.1	6.0	1.54e-01	0	44	102	1048576	25	7453
2026-01-25 23:36:35.86	143.71	30.32	-33.0	-40.9	4.9	5.16e-01	0	44	102	1048576	25	8946
2026-01-25 23:36:36.87	143.96	30.18	-32.9	-39.4	5.5	6.13e-01	0	44	102	1048576	26	7647
2026-01-25 23:36:37.88	144.20	30.04	-32.5	-37.6	6.9	2.66e-01	0	44	102	1048576	25	6522
2026-01-25 23:36:38.89	144.45	29.90	-31.8	-35.3	9.0	7.57e-02	0	44	102	1048576	24	5361
2026-01-25 23:36:39.90	144.69	29.76	-31.4	-34.0	10.4	7.34e-03	0	44	102	1048576	23	4894
2026-01-25 23:36:40.90	144.92	29.63	-31.3	-33.9	10.5	4.57e-03	0	44	102	1048576	23	4865
2026-01-25 23:36:41.91	145.16	29.49	-31.7	-35.2	9.6	4.87e-03	0	44	102	1048576	23	5385
2026-01-25 23:36:42.91	145.39	29.35	-32.2	-36.7	8.0	4.60e-02	0	44	102	1048576	24	6085
2026-01-25 23:36:43.91	145.62	29.22	-32.3	-37.2	7.6	9.64e-02	0	44	102	1048576	24	6329
2026-01-25 23:36:44.91	145.85	29.08	-32.5	-38.3	6.7	1.45e-01	0	44	102	1048576	24	7042
2026-01-25 23:36:45.91	146.08	28.95	-32.5	-38.3	6.7	1.94e-01	0	44	102	1048576	24	7002
2026-01-25 23:36:46.92	146.30	28.81	-31.7	-35.0	9.2	5.32e-02	0	44	102	1048576	24	5249
2026-01-25 23:36:47.92	146.53	28.67	-30.9	-33.1	11.4	3.47e-03	0	44	102	1048576	22	4637
2026-01-25 23:36:48.93	146.75	28.54	-30.2	-31.9	12.9	1.75e-04	0	44	102	1048576	20	4415
2026-01-25 23:36:49.92	146.97	28.40	-29.9	-31.2	13.3	2.05e-05	0	44	102	1048576	20	4196
2026-01-25 23:36:50.93	147.19	28.27	-29.9	-31.3	13.3	2.21e-05	0	44	102	1048576	20	4231
2026-01-25 23:36:51.93	147.40	28.13	-30.8	-33.4	11.5	1.19e-04	0	44	102	1048576	21	4855
2026-01-25 23:36:52.94	147.62	28.00	-31.2	-34.2	10.6	2.29e-03	0	44	102	1048576	22	5078
2026-01-25 23:36:53.94	147.83	27.86	-31.5	-34.8	9.8	9.70e-03	0	44	102	1048576	23	5234
2026-01-25 23:36:54.95	148.05	27.73	-31.2	-34.2	10.6	7.69e-03	0	44	102	1048576	22	5083
2026-01-25 23:36:55.96	148.26	27.59	-30.8	-33.0	11.4	2.19e-03	0	44	102	1048576	22	4622
2026-01-25 23:36:56.97	148.47	27.46	-30.4	-32.2	12.3	2.62e-03	0	44	102	1048576	21	4436
2026-01-25 23:36:57.97	148.67	27.33	-30.3	-32.4	12.5	2.29e-03	0	44	102	1048576	20	4591
2026-01-25 23:36:58.97	148.87	27.19	-30.0	-31.5	13.0	9.07e-05	0	44	102	1048576	20	4297
2026-01-25 23:36:59.98	149.08	27.06	-30.7	-33.1	11.7	2.40e-03	0	44	102	1048576	21	4737
2026-01-25 23:37:00.98	149.28	26.93	-30.6	-32.7	11.9	2.89e-03	0	44	102	1048576	21	4610
2026-01-25 23:37:01.98	149.48	26.80	-31.0	-33.9	11.1	6.37e-04	0	44	102	1048576	21	5050
2026-01-25 23:37:02.98	149.68	26.66	-30.9	-33.6	11.3	1.39e-03	0	44	102	1048576	21	4928
2026-01-25 23:37:03.98	149.87	26.53	-31.3	-34.4	10.4	5.00e-03	0	44	102	1048576	22	5166
2026-01-25 23:37:04.99	150.07	26.40	-30.8	-33.0	11.3	1.77e-03	0	44	102	1048576	22	4637
2026-01-25 23:37:06.00	150.26	26.27	-30.4	-32.2	12.2	4.65e-04	0	44	102	1048576	21	4426
2026-01-25 23:37:06.99	150.45	26.14	-29.9	-31.3	13.2	2.10e-03	0	44	102	1048576	20	4231
2026-01-25 23:37:07.99	150.64	26.01	-29.6	-30.5	13.7	1.06e-05	0	44	102	1048576	20	3993
2026-01-25 23:37:09.00	150.83	25.88	-29.4	-30.9	14.1	2.06e-03	0	44	102	1048576	18	4304
2026-01-25 23:37:10.00	151.02	25.75	-29.4	-30.9	14.2	2.33e-03	0	44	102	1048576	18	4276
2026-01-25 23:37:11.01	151.20	25.62	-29.5	-30.7	14.0	7.00e-07	0	44	102	1048576	19	4126
2026-01-25 23:37:12.02	151.39	25.49	-29.6	-30.9	13.8	2.30e-03	0	44	102	1048576	19	4180
2026-01-25 23:37:13.02	151.57	25.36	-29.4	-30.6	14.0	3.00e-06	0	44	102	1048576	19	4093
2026-01-25 23:37:14.02	151.75	25.23	-29.4	-30.3	14.2	2.20e-06	0	44	102	1048576	19	4020
2026-01-25 23:37:15.01	151.93	25.10	-29.4	-31.0	14.1	2.10e-03	0	44	102	1048576	18	4310
2026-01-25 23:37:16.02	152.11	24.98	-29.3	-30.8	14.2	1.98e-03	0	44	102	1048576	18	4248
2026-01-25 23:37:17.02	152.28	24.85	-29.6	-31.1	13.6	4.50e-06	0	44	102	1048576	19	4248
2026-01-25 23:37:18.03	152.46	24.72	-29.9	-31.9	13.1	2.01e-03	0	44	102	1048576	19	4514
2026-01-25 23:37:19.03	152.64	24.59	-29.5	-30.7	13.8	2.18e-03	0	44	102	1048576	19	4154
2026-01-25 23:37:20.02	152.81	24.47	-29.5	-30.8	13.8	4.50e-06	0	44	102	1048576	19	4165
2026-01-25 23:37:21.03	152.98	24.34	-29.8	-31.6	13.3	2.32e-03	0	44	102	1048576	19	4427
2026-01-25 23:37:22.03	153.15	24.22	-29.5	-30.8	13.8	2.22e-03	0	44	102	1048576	19	4184
2026-01-25 23:37:23.03	153.32	24.09	-29.7	-31.2	13.6	3.00e-06	0	44	102	1048576	19	4291
2026-01-25 23:37:24.04	153.48	23.96	-29.4	-30.5	13.9	1.81e-03	0	44	102	1048576	19	4096
2026-01-25 23:37:25.05	153.65	23.84	-29.4	-30.6	13.9	1.95e-03	0	44	102	1048576	19	4117
2026-01-25 23:37:26.05	153.82	23.71	-29.5	-30.8	13.8	5.30e-06	0	44	102	1048576	19	4179
2026-01-25 23:37:27.05	153.98	23.59	-29.5	-30.8	13.8	4.50e-06	0	44	102	1048576	19	4177
2026-01-25 23:37:28.05	154.14	23.47	-29.8	-31.7	13.2	2.27e-03	0	44	102	1048576	19	4464
2026-01-25 23:37:29.05	154.30	23.34	-30.0	-31.8	12.7	1.15e-04	0	44	102	1048576	20	4415
2026-01-25 23:37:30.05	154.46	23.22	-30.0	-31.7	12.8	2.38e-03	0	44	102	1048576	20	4384
2026-01-25 23:37:31.06	154.62	23.10	-30.6	-33.0	11.6	3.65e-04	0	44	102	1048576	21	4728
2026-01-25 23:37:32.06	154.78	22.98	-30.5	-32.5	11.9	4.92e-04	0	44	102	1048576	21	4544
2026-01-25 23:37:33.07	154.94	22.85	-30.3	-32.4	12.3	2.50e-03	0	44	102	1048576	20	4615
2026-01-25 23:37:34.07	155.09	22.73	-30.4	-32.3	12.0	2.87e-04	0	44	102	1048576	21	4489
2026-01-25 23:37:35.07	155.24	22.61	-30.3	-31.9	12.3	1.95e-04	0	44	102	1048576	21	4346
2026-01-25 23:37:36.07	155.40	22.49	-30.5	-33.0	11.9	2.40e-03	0	44	102	1048576	20	4830
2026-01-25 23:37:37.08	155.55	22.37	-30.0	-31.7	12.7	1.38e-04	0	44	102	1048576	20	4384
2026-01-25 23:37:38.08	155.70	22.25	-30.1	-31.9	12.7	5.87e-05	0	44	102	1048576	20	4435
2026-01-25 23:37:39.09	155.85	22.13	-30.3	-32.6	12.2	2.53e-03	0	44	102	1048576	20	4682
2026-01-25 23:37:40.10	156.00	22.01	-30.1	-32.1	12.5	2.45e-03	0	44	102	1048576	20	4505
2026-01-25 23:37:41.10	156.15	21.89	-30.2	-32.3	12.4	1.32e-04	0	44	102	1048576	20	4575
2026-01-25 23:37:42.11	156.29	21.77	-30.3	-32.7	12.1	2.59e-04	0	44	102	1048576	20	4714
2026-01-25 23:37:43.11	156.44	21.65	-30.5	-32.8	11.7	2.44e-03	0	44	102	1048576	21	4677
2026-01-25 23:37:44.12	156.58	21.53	-30.9	-33.8	11.0	1.31e-03	0	44	102	1048576	21	5057
2026-01-25 23:37:45.12	156.72	21.42	-30.7	-33.4	11.3	1.19e-03	0	44	102	1048576	21	4887
2026-01-25 23:37:46.12	156.87	21.30	-30.7	-33.4	11.2	1.65e-03	0	44	102	1048576	21	4912
2026-01-25 23:37:47.13	157.01	21.18	-30.4	-32.5	11.8	1.13e-03	0	44	102	1048576	21	4582
2026-01-25 23:37:48.13	157.15	21.07	-30.1	-32.2	12.4	1.85e-04	0	44	102	1048576	20	4559
2026-01-25 23:37:49.12	157.28	20.95	-29.7	-30.9	13.2	3.96e-05	0	44	102	1048576	20	4137
2026-01-25 23:37:50.12	157.42	20.84	-29.3	-30.4	13.9	1.37e-05	0	44	102	1048576	19	4070
2026-01-25 23:37:51.13	157.56	20.72	-29.1	-30.4	14.2	3.43e-05	0	44	102	1048576	18	4181
2026-01-25 23:37:52.13	157.69	20.61	-28.9	-29.9	14.5	7.00e-07	0	44	102	1048576	18	4022
2026-01-25 23:37:53.14	157.83	20.49	-29.0	-30.0	14.5	0.00e+00	0	44	102	1048576	18	4048
2026-01-25 23:37:54.14	157.96	20.38	-28.9	-29.8	14.6	9.90e-06	0	44	102	1048576	18	3990
2026-01-25 23:37:55.14	158.10	20.26	-28.8	-30.1	14.7	1.50e-06	0	44	102	1048576	17	4174
2026-01-25 23:37:56.15	158.23	20.15	-29.1	-30.4	14.3	0.00e+00	0	44	102	1048576	18	4164
2026-01-25 23:37:57.16	158.36	20.03	-29.0	-30.1	14.4	3.55e-04	0	44	102	1048576	18	4079
2026-01-25 23:37:58.16	158.49	19.92	-29.3	-30.9	13.9	3.80e-06	0	44	102	1048576	18	4308
2026-01-25 23:37:59.17	158.62	19.81	-29.6	-31.1	13.5	6.80e-06	0	44	102	1048576	19	4276
2026-01-25 23:38:00.17	158.75	19.70	-29.7	-31.3	13.3	1.98e-05	0	44	102	1048576	19	4332
2026-01-25 23:38:01.17	158.88	19.59	-29.9	-32.0	12.9	2.74e-05	0	44	102	1048576	19	4580
2026-01-25 23:38:02.17	159.00	19.47	-29.9	-31.9	12.9	3.73e-05	0	44	102	1048576	19	4545
2026-01-25 23:38:03.18	159.13	19.36	-29.8	-31.5	13.2	2.59e-05	0	44	102	1048576	19	4412
2026-01-25 23:38:04.18	159.25	19.25	-30.0	-32.1	12.9	4.73e-05	0	44	102	1048576	19	4607
2026-01-25 23:38:05.19	159.38	19.14	-29.6	-30.7	13.3	2.82e-05	0	44	102	1048576	20	4085
2026-01-25 23:38:06.19	159.50	19.03	-29.7	-31.2	13.4	9.00e-05	0	44	102	1048576	19	4311
2026-01-25 23:38:07.20	159.62	18.92	-29.6	-31.0	13.5	1.07e-04	0	44	102	1048576	19	4233
2026-01-25 23:38:08.20	159.74	18.81	-27.9	-29.2	13.8	3.80e-06	0	44	102	1048576	18	4173
2026-01-25 23:38:09.21	159.86	18.70	-29.5	-31.2	13.1	6.40e-05	0	44	102	1048576	18	4396
2026-01-25 23:38:10.21	159.98	18.60	-29.2	-30.5	14.0	8.08e-05	0	44	102	1048576	18	4200
2026-01-25 23:38:11.21	160.10	18.49	-29.2	-30.6	12.9	7.00e-07	0	44	102	1048576	18	4224
2026-01-25 23:38:12.21	160.22	18.38	-29.5	-31.3	12.9	9.91e-05	0	44	102	1048576	18	4424
2026-01-25 23:38:13.22	160.34	18.27	-29.5	-30.8	13.7	7.40e-05	0	44	102	1048576	19	4185
2026-01-25 23:38:14.22	160.45	18.17	-29.7	-31.4	13.2	2.37e-03	0	44	102	1048576	19	4367
2026-01-25 23:38:15.23	160.57	18.06	-29.9	-31.9	12.9	8.69e-05	0	44	102	1048576	19	4540
2026-01-25 23:38:16.24	160.69	17.95	-29.6	-31.2	13.3	1.40e-04	0	44	102	1048576	19	4316
2026-01-25 23:38:17.24	160.80	17.85	-29.9	-32.0	12.8	2.39e-03	0	44	102	1048576	19	4597
2026-01-25 23:38:18.25	160.91	17.74	-29.8	-31.3	12.9	2.66e-04	0	44	102	1048576	20	4289
2026-01-25 23:38:19.25	161.03	17.63	-29.8	-31.7	13.0	2.25e-04	0	44	102	1048576	19	4479
2026-01-25 23:38:20.27	161.14	17.53	-29.9	-31.7	12.6	7.01e-05	0	44	102	1048576	20	4401
2026-01-25 23:38:21.27	161.25	17.42	-29.8	-31.7	13.0	2.51e-03	0	44	102	1048576	19	4484
2026-01-25 23:38:22.28	161.36	17.32	-30.0	-32.2	12.7	2.27e-04	0	44	102	1048576	19	4644
2026-01-25 23:38:23.28	161.47	17.22	-30.0	-31.8	12.6	9.68e-05	0	44	102	1048576	20	4410
2026-01-25 23:38:24.28	161.58	17.11	-30.0	-31.9	12.5	2.51e-03	0	44	102	1048576	20	4470
2026-01-25 23:38:25.29	161.69	17.01	-30.5	-33.2	11.6	4.97e-04	0	44	102	1048576	20	4936
2026-01-25 23:38:26.29	161.79	16.91	-30.3	-32.7	11.9	5.23e-04	0	44	102	1048576	20	4731
2026-01-25 23:38:27.30	161.90	16.80	-30.3	-32.7	11.9	2.58e-03	0	44	102	1048576	20	4751
2026-01-25 23:38:28.30	162.01	16.70	-30.5	-32.9	11.4	1.08e-03	0	44	102	1048576	21	4735
2026-01-25 23:38:29.30	162.11	16.60	-30.4	-33.3	11.4	9.78e-04	0	44	102	1048576	20	5013
2026-01-25 23:38:30.30	162.22	16.50	-30.6	-33.6	10.8	1.31e-03	0	44	102	1048576	21	5067
2026-01-25 23:38:31.30	162.32	16.40	-30.8	-34.3	10.2	4.90e-03	0	44	102	1048576	21	5381
2026-01-25 23:38:32.30	162.42	16.30	-30.6	-33.9	10.5	7.60e-03	0	44	102	1048576	21	5220
2026-01-25 23:38:33.30	162.52	16.20	-30.8	-34.6	9.9	8.45e-03	0	44	102	1048576	21	5588
2026-01-25 23:38:34.31	162.63	16.10	-30.8	-34.7	9.8	9.87e-03	0	44	102	1048576	21	5622
2026-01-25 23:38:35.32	162.73	16.00	-30.8	-34.9	9.6	1.24e-02	0	44	102	1048576	21	5760
2026-01-25 23:38:36.32	162.83	15.90	-30.9	-34.8	9.3	2.18e-02	0	44	102	1048576	22	5622
2026-01-25 23:38:37.32	162.93	15.80	-30.7	-33.9	9.9	1.46e-02	0	44	102	1048576	22	5229
2026-01-25 23:38:38.32	163.03	15.70	-30.8	-34.8	9.7	1.27e-02	0	44	102	1048576	21	5720
2026-01-25 23:38:39.33	163.13	15.60	-30.8	-34.8	9.6	1.56e-02	0	44	102	1048576	21	5693
2026-01-25 23:38:40.33	163.23	15.50	-30.6	-33.8	10.4	8.69e-03	0	44	102	1048576	21	5232
2026-01-25 23:38:41.34	163.32	15.40	-30.6	-33.9	10.4	7.73e-03	0	44	102	1048576	21	5233
2026-01-25 23:38:42.34	163.42	15.31	-30.5	-33.2	11.0	5.25e-03	0	44	102	1048576	21	4903
2026-01-25 23:38:43.35	163.52	15.21	-30.4	-32.7	11.4	1.43e-03	0	44	102	1048576	21	4702
2026-01-25 23:38:44.35	163.61	15.11	-30.2	-32.7	11.7	3.26e-03	0	44	102	1048576	20	4783
2026-01-25 23:38:45.35	163.71	15.02	-30.0	-31.9	12.3	2.61e-03	0	44	102	1048576	20	4494
2026-01-25 23:38:46.35	163.80	14.92	-30.0	-31.9	12.3	3.00e-04	0	44	102	1048576	20	4487
2026-01-25 23:38:47.35	163.90	14.82	-29.8	-31.9	12.8	2.40e-03	0	44	102	1048576	19	4565
2026-01-25 23:38:48.36	163.99	14.73	-29.7	-31.4	13.1	2.57e-03	0	44	102	1048576	19	4391
2026-01-25 23:38:49.36	164.08	14.63	-29.6	-31.2	13.2	1.41e-04	0	44	102	1048576	19	4350
2026-01-25 23:38:50.37	164.17	14.54	-29.5	-31.0	13.4	2.49e-03	0	44	102	1048576	19	4258
2026-01-25 23:38:51.37	164.27	14.44	-29.6	-31.3	13.1	2.43e-03	0	44	102	1048576	19	4373
2026-01-25 23:38:52.38	164.36	14.35	-29.5	-31.1	13.2	1.69e-04	0	44	102	1048576	19	4310
2026-01-25 23:38:53.38	164.45	14.25	-29.4	-30.7	13.5	2.40e-03	0	44	102	1048576	19	4195
2026-01-25 23:38:54.38	164.54	14.16	-29.5	-31.1	13.3	2.28e-05	0	44	102	1048576	19	4303
2026-01-25 23:38:55.39	164.63	14.07	-29.5	-31.1	13.2	1.81e-04	0	44	102	1048576	19	4311
2026-01-25 23:38:56.40	164.72	13.97	-29.4	-31.3	13.4	2.24e-03	0	44	102	1048576	18	4469
2026-01-25 23:38:57.40	164.81	13.88	-29.4	-30.9	13.3	2.47e-03	0	44	102	1048576	19	4265
2026-01-25 23:38:58.40	164.89	13.79	-29.4	-30.9	13.3	2.13e-05	0	44	102	1048576	19	4260
2026-01-25 23:38:59.40	164.98	13.69	-29.6	-31.3	12.8	2.41e-03	0	44	102	1048576	19	4378
2026-01-25 23:39:00.40	165.07	13.60	-29.5	-31.2	12.8	2.42e-03	0	44	102	1048576	19	4368
2026-01-25 23:39:01.40	165.15	13.51	-29.5	-31.1	13.1	2.82e-05	0	44	102	1048576	19	4343
2026-01-25 23:39:02.40	165.24	13.42	-29.7	-31.7	12.7	2.50e-03	0	44	102	1048576	19	4542
2026-01-25 23:39:03.41	165.32	13.33	-29.8	-32.0	12.5	2.36e-03	0	44	102	1048576	19	4641
2026-01-25 23:39:04.42	165.41	13.24	-29.8	-31.8	12.7	3.67e-04	0	44	102	1048576	19	4568
2026-01-25 23:39:05.42	165.49	13.15	-29.9	-32.2	12.4	9.15e-05	0	44	102	1048576	19	4688
2026-01-25 23:39:06.43	165.58	13.06	-29.9	-32.2	12.4	2.51e-03	0	44	102	1048576	19	4711
2026-01-25 23:39:07.44	165.66	12.96	-30.0	-32.0	12.1	3.17e-04	0	44	102	1048576	20	4564
2026-01-25 23:39:08.44	165.74	12.88	-29.9	-32.0	12.2	4.42e-04	0	44	102	1048576	20	4543
2026-01-25 23:39:09.45	165.83	12.78	-29.9	-31.8	12.3	2.08e-04	0	44	102	1048576	20	4485
2026-01-25 23:39:10.45	165.91	12.70	-30.0	-32.1	12.1	4.57e-04	0	44	102	1048576	20	4585
2026-01-25 23:39:11.45	165.99	12.61	-29.9	-32.4	12.2	5.00e-04	0	44	102	1048576	19	4813
2026-01-25 23:39:12.46	166.07	12.52	-29.8	-32.2	12.4	4.61e-04	0	44	102	1048576	19	4724
2026-01-25 23:39:13.46	166.15	12.43	-29.9	-32.4	12.2	4.31e-04	0	44	102	1048576	19	4804
2026-01-25 23:39:14.47	166.23	12.34	-29.9	-32.5	12.1	2.58e-03	0	44	102	1048576	19	4853
2026-01-25 23:39:15.47	166.31	12.25	-30.1	-32.6	11.7	8.44e-04	0	44	102	1048576	20	4776
2026-01-25 23:39:16.48	166.39	12.17	-30.1	-32.7	11.5	8.59e-04	0	44	102	1048576	20	4826
2026-01-25 23:39:17.48	166.47	12.08	-29.9	-31.9	12.1	3.15e-03	0	44	102	1048576	20	4525
2026-01-25 23:39:18.48	166.55	11.99	-30.0	-32.2	11.9	7.61e-04	0	44	102	1048576	20	4626
2026-01-25 23:39:19.48	166.62	11.90	-30.2	-32.6	11.7	3.91e-04	0	44	102	1048576	20	4769
2026-01-25 23:39:20.49	166.70	11.82	-30.1	-32.4	11.8	5.32e-04	0	44	102	1048576	20	4705
2026-01-25 23:39:21.49	166.78	11.73	-30.1	-32.3	11.8	8.42e-04	0	44	102	1048576	20	4665
2026-01-25 23:39:22.50	166.86	11.65	-30.1	-32.4	11.8	4.36e-04	0	44	102	1048576	20	4699
2026-01-25 23:39:23.50	166.93	11.56	-30.3	-32.9	11.5	9.75e-04	0	44	102	1048576	20	4883
2026-01-25 23:39:24.50	167.01	11.47	-30.3	-32.9	11.5	1.81e-03	0	44	102	1048576	20	4856
2026-01-25 23:39:25.51	167.08	11.39	-30.3	-33.1	11.3	9.60e-04	0	44	102	1048576	20	4941
2026-01-25 23:39:26.51	167.16	11.30	-30.5	-33.5	11.0	1.92e-03	0	44	102	1048576	20	5083
2026-01-25 23:39:27.51	167.23	11.22	-30.5	-33.2	10.9	2.77e-03	0	44	102	1048576	21	4902
2026-01-25 23:39:28.52	167.31	11.13	-30.4	-32.9	11.1	1.75e-03	0	44	102	1048576	21	4788
2026-01-25 23:39:29.53	167.38	11.05	-30.5	-33.3	10.8	2.55e-03	0	44	102	1048576	21	4919
2026-01-25 23:39:30.53	167.45	10.97	-30.6	-33.4	10.7	3.14e-03	0	44	102	1048576	21	4984
2026-01-25 23:39:31.53	167.53	10.88	-30.7	-33.7	10.4	3.67e-03	0	44	102	1048576	21	5116
2026-01-25 23:39:32.54	167.60	10.80	-30.6	-33.6	10.6	4.89e-03	0	44	102	1048576	21	5045
2026-01-25 23:39:33.53	167.67	10.72	-30.7	-33.7	10.4	4.25e-03	0	44	102	1048576	21	5117
2026-01-25 23:39:34.53	167.74	10.63	-30.8	-34.0	10.2	5.12e-03	0	44	102	1048576	21	5244
2026-01-25 23:39:35.54	167.81	10.55	-30.9	-34.6	9.8	8.16e-03	0	44	102	1048576	21	5481
2026-01-25 23:39:36.55	167.88	10.47	-30.9	-34.6	9.7	1.16e-02	0	44	102	1048576	21	5503
2026-01-25 23:39:37.56	167.95	10.38	-30.9	-34.5	9.8	1.08e-02	0	44	102	1048576	21	5472
2026-01-25 23:39:38.56	168.02	10.30	-30.2	-34.0	9.7	1.39e-02	0	44	102	1048576	21	5561
2026-01-25 23:39:39.57	168.09	10.22	-30.9	-34.7	9.6	1.18e-02	0	44	102	1048576	21	5568
2026-01-25 23:39:40.58	168.16	10.14	-31.1	-34.7	8.9	1.42e-02	0	44	102	1048576	22	5481
2026-01-25 23:39:41.58	168.23	10.06	-31.1	-34.8	9.2	2.35e-02	0	44	102	1048576	22	5499
2026-01-25 23:39:42.58	168.30	9.98	-31.1	-34.7	9.3	2.01e-02	0	44	102	1048576	22	5460
2026-01-25 23:39:43.59	168.37	9.89	-31.0	-34.6	9.4	1.54e-02	0	44	102	1048576	22	5395
2026-01-25 23:39:44.59	168.44	9.81	-30.9	-34.7	9.6	1.25e-02	0	44	102	1048576	21	5572
2026-01-25 23:39:45.59	168.50	9.73	-30.9	-34.6	9.7	1.23e-02	0	44	102	1048576	21	5528
2026-01-25 23:39:46.59	168.57	9.65	-30.9	-34.5	9.8	9.83e-03	0	44	102	1048576	21	5452
2026-01-25 23:39:47.59	168.64	9.57	-30.9	-34.5	9.8	1.73e-02	0	44	102	1048576	21	5475
2026-01-25 23:39:48.59	168.70	9.49	-30.7	-34.0	10.2	6.45e-03	0	44	102	1048576	21	5250
2026-01-25 23:39:49.59	168.77	9.42	-30.6	-33.6	10.4	5.05e-03	0	44	102	1048576	21	5098
2026-01-25 23:39:50.59	168.84	9.34	-30.4	-33.5	10.8	3.72e-03	0	44	102	1048576	20	5164
2026-01-25 23:39:51.58	168.90	9.26	-30.3	-33.3	10.9	1.97e-03	0	44	102	1048576	20	5087
2026-01-25 23:39:52.57	168.97	9.18	-30.2	-33.2	11.0	4.27e-03	0	44	102	1048576	20	5048
2026-01-25 23:39:53.57	169.03	9.10	-30.2	-33.1	11.1	2.10e-03	0	44	102	1048576	20	5002
2026-01-25 23:39:54.58	169.09	9.02	-30.2	-33.0	11.1	2.26e-03	0	44	102	1048576	20	5004
2026-01-25 23:39:55.59	169.16	8.94	-30.4	-33.7	10.5	5.46e-03	0	44	102	1048576	20	5295
2026-01-25 23:39:56.59	169.22	8.87	-30.3	-33.6	10.6	6.79e-03	0	44	102	1048576	20	5253
2026-01-25 23:39:57.60	169.29	8.79	-30.2	-33.1	10.9	2.86e-03	0	44	102	1048576	20	5042
2026-01-25 23:39:58.59	169.35	8.71	-30.1	-32.8	11.2	1.82e-03	0	44	102	1048576	20	4904
2026-01-25 23:39:59.60	169.41	8.63	-30.1	-32.7	11.2	3.55e-03	0	44	102	1048576	20	4893
2026-01-25 23:40:00.60	169.47	8.56	-30.0	-32.5	11.4	8.64e-04	0	44	102	1048576	20	4789
2026-01-25 23:40:01.60	169.54	8.48	-30.0	-32.4	11.5	9.88e-04	0	44	102	1048576	20	4760
2026-01-25 23:40:02.60	169.60	8.40	-30.1	-32.9	11.1	3.89e-03	0	44	102	1048576	20	4969
2026-01-25 23:40:03.61	169.66	8.33	-30.2	-33.0	11.0	2.27e-03	0	44	102	1048576	20	5000
2026-01-25 23:40:04.61	169.72	8.25	-30.1	-32.7	11.3	1.59e-03	0	44	102	1048576	20	4858
2026-01-25 23:40:05.61	169.78	8.17	-30.1	-32.7	11.2	1.88e-03	0	44	102	1048576	20	4867
2026-01-25 23:40:06.61	169.84	8.10	-30.0	-32.5	11.3	1.49e-03	0	44	102	1048576	20	4795
2026-01-25 23:40:07.61	169.90	8.02	-30.2	-32.9	11.1	3.44e-03	0	44	102	1048576	20	4936
2026-01-25 23:40:08.61	169.96	7.95	-30.2	-33.1	10.9	1.83e-03	0	44	102	1048576	20	5042
2026-01-25 23:40:09.62	170.02	7.87	-30.2	-33.2	10.9	2.71e-03	0	44	102	1048576	20	5040
2026-01-25 23:40:10.62	170.08	7.80	-30.2	-33.0	11.0	4.06e-03	0	44	102	1048576	20	4992
2026-01-25 23:40:11.63	170.14	7.72	-30.2	-33.0	11.0	2.08e-03	0	44	102	1048576	20	4961
2026-01-25 23:40:12.63	170.20	7.65	-30.2	-33.2	10.9	2.17e-03	0	44	102	1048576	20	5043
2026-01-25 23:40:13.63	170.26	7.57	-30.2	-33.0	11.0	4.46e-03	0	44	102	1048576	20	4974
2026-01-25 23:40:14.63	170.32	7.50	-30.2	-33.1	11.0	4.13e-03	0	44	102	1048576	20	5003
2026-01-25 23:40:15.63	170.38	7.43	-30.3	-33.5	10.6	2.72e-03	0	44	102	1048576	20	5168
2026-01-25 23:40:16.64	170.43	7.35	-30.1	-32.7	11.2	3.65e-03	0	44	102	1048576	20	4854
2026-01-25 23:40:17.64	170.49	7.28	-30.2	-33.2	10.8	4.50e-03	0	44	102	1048576	20	5046
2026-01-25 23:40:18.64	170.55	7.20	-30.3	-33.5	10.6	3.51e-03	0	44	102	1048576	20	5203
2026-01-25 23:40:19.64	170.61	7.13	-30.3	-33.3	10.7	5.12e-03	0	44	102	1048576	20	5116
2026-01-25 23:40:20.64	170.66	7.06	-32.4	-44.9	3.8	3.07e-01	0	44	104	1048576	24	15121
