passes_logs/2026/01/25/R2M6_AANII_01/R2M6_AANII_01__20260125_054839_FENGYUN_3E_rec.log

#Pass ID: 20260125_054839_FENGYUN 3E
#Satellite: FENGYUN 3E
#Configuration: FENGYUN 3E
#almurnet v.1.7.20240730
#Start time: 2026-01-25 05:48:40

#Version: 2.2.20231116
#Station: R2M6_AANII_01
#Location: 30.233357 lon 59.946436 lat
#TLE: 1 49008U 21062A   26024.51886291 -.00000133  00000+0 -41802-4 0  9993
#TLE: 2 49008  98.7494  29.5356 0002407 118.1139 242.0281 14.19886269236195

#Time	Az	El	Level	Level2	SNR	BER	BlckErr	Temp	State	Recorded	gain1	gain2
2026-01-25 05:48:40.15	12.82	7.03	-30.0	-33.2	5.0	7.94e-01	0	41	0	0	19	5248
2026-01-25 05:48:41.15	12.76	7.11	-30.2	-33.7	4.9	8.00e-01	0	41	104	0	20	5337
2026-01-25 05:48:42.15	12.70	7.18	-30.0	-32.8	7.8	8.37e-02	0	41	0	0	20	4976
2026-01-25 05:48:43.16	12.64	7.25	-30.2	-33.5	7.3	1.35e-01	0	42	102	1048576	20	5240
2026-01-25 05:48:44.16	12.59	7.32	-29.9	-32.4	8.1	7.62e-02	0	42	102	1048576	20	4823
2026-01-25 05:48:45.16	12.53	7.40	-29.9	-32.8	8.3	5.43e-02	0	42	102	1048576	19	5060
2026-01-25 05:48:46.16	12.47	7.47	-30.1	-32.9	7.8	7.08e-02	0	42	102	1048576	20	4989
2026-01-25 05:48:47.16	12.41	7.54	-30.3	-33.7	7.3	1.37e-01	0	42	102	1048576	20	5304
2026-01-25 05:48:48.17	12.35	7.62	-29.9	-32.4	8.2	6.71e-02	0	42	102	1048576	20	4787
2026-01-25 05:48:49.17	12.29	7.69	-29.5	-31.1	9.0	2.93e-02	0	42	102	1048576	20	4374
2026-01-25 05:48:50.17	12.23	7.76	-29.0	-30.8	10.0	8.78e-03	0	42	102	1048576	18	4433
2026-01-25 05:48:51.18	12.16	7.84	-28.3	-29.6	11.1	2.38e-03	0	42	102	1048576	17	4190
2026-01-25 05:48:52.18	12.10	7.91	-27.2	-28.5	10.8	5.48e-04	0	42	102	1048576	16	4174
2026-01-25 05:48:53.18	12.04	7.99	-27.5	-29.1	10.4	2.82e-04	0	42	102	1048576	14	4368
2026-01-25 05:48:54.19	11.98	8.06	-27.1	-28.3	12.7	6.98e-05	0	42	102	1048576	14	4126
2026-01-25 05:48:55.20	11.92	8.14	-26.9	-28.2	13.0	3.43e-05	0	42	102	1048576	13	4209
2026-01-25 05:48:56.20	11.85	8.21	-26.7	-27.8	13.3	2.51e-05	0	42	102	1048576	13	4092
2026-01-25 05:48:57.21	11.79	8.29	-26.9	-28.3	13.0	2.51e-05	0	42	102	1048576	13	4220
2026-01-25 05:48:58.21	11.73	8.36	-26.7	-27.8	13.3	1.37e-05	0	42	102	1048576	13	4086
2026-01-25 05:48:59.21	11.66	8.44	-26.5	-27.9	13.5	2.05e-03	0	42	102	1048576	12	4212
2026-01-25 05:49:00.21	11.60	8.51	-26.5	-27.8	13.6	6.80e-06	0	42	102	1048576	12	4203
2026-01-25 05:49:01.22	11.53	8.59	-26.5	-28.0	13.5	2.14e-03	0	42	102	1048576	12	4247
2026-01-25 05:49:02.21	11.47	8.66	-26.5	-27.8	13.6	2.08e-03	0	42	102	1048576	12	4209
2026-01-25 05:49:03.22	11.40	8.74	-26.3	-27.5	13.8	3.40e-06	0	42	102	1048576	12	4130
2026-01-25 05:49:04.22	11.34	8.82	-26.5	-27.9	13.6	2.14e-03	0	42	102	1048576	12	4234
2026-01-25 05:49:05.22	11.27	8.89	-26.3	-27.4	13.9	3.40e-06	0	42	102	1048576	12	4091
2026-01-25 05:49:06.23	11.20	8.97	-26.3	-27.4	13.9	1.66e-04	0	42	102	1048576	12	4091
2026-01-25 05:49:07.22	11.14	9.05	-26.2	-27.2	14.0	1.95e-03	0	42	102	1048576	12	4041
2026-01-25 05:49:08.23	11.07	9.12	-26.2	-27.1	14.0	1.10e-06	0	42	102	1048576	12	4027
2026-01-25 05:49:09.23	11.00	9.20	-26.2	-27.2	14.0	1.88e-04	0	43	102	1048576	12	4048
2026-01-25 05:49:10.23	10.94	9.28	-26.2	-27.3	13.9	2.05e-03	0	42	102	1048576	12	4073
2026-01-25 05:49:11.24	10.87	9.36	-26.2	-27.1	14.1	1.90e-03	0	42	102	1048576	12	4020
2026-01-25 05:49:12.24	10.80	9.43	-26.1	-27.1	14.1	1.89e-04	0	42	102	1048576	12	4003
2026-01-25 05:49:13.25	10.73	9.51	-26.3	-27.4	13.9	5.70e-06	0	42	102	1048576	12	4091
2026-01-25 05:49:14.25	10.66	9.59	-26.2	-27.2	14.0	1.70e-03	0	42	102	1048576	12	4031
2026-01-25 05:49:15.26	10.59	9.67	-26.0	-26.8	14.3	9.15e-05	0	43	102	1048576	12	3929
2026-01-25 05:49:16.27	10.52	9.75	-26.0	-26.7	14.3	1.68e-03	0	42	102	1048576	12	3905
2026-01-25 05:49:17.27	10.45	9.83	-26.0	-27.3	14.4	1.88e-03	0	43	102	1048576	11	4152
2026-01-25 05:49:18.28	10.38	9.91	-26.1	-26.9	14.3	0.00e+00	0	43	102	1048576	12	3953
2026-01-25 05:49:19.29	10.31	9.99	-26.3	-27.5	13.9	1.80e-03	0	43	102	1048576	12	4104
2026-01-25 05:49:20.29	10.23	10.07	-26.4	-27.1	13.8	1.72e-03	0	43	102	1048576	13	3911
2026-01-25 05:49:21.29	10.16	10.15	-26.2	-26.6	14.1	7.89e-05	0	43	102	1048576	13	3787
2026-01-25 05:49:22.29	10.09	10.23	-26.0	-26.8	14.3	1.61e-03	0	42	102	1048576	12	3944
2026-01-25 05:49:23.29	10.02	10.31	-26.0	-27.3	14.4	1.10e-06	0	43	102	1048576	11	4173
2026-01-25 05:49:24.29	9.94	10.39	-26.0	-26.8	14.3	4.46e-05	0	43	102	1048576	12	3951
2026-01-25 05:49:25.30	9.87	10.47	-26.1	-27.0	14.2	1.38e-03	0	43	102	1048576	12	3987
2026-01-25 05:49:26.29	9.79	10.55	-26.2	-27.2	14.1	1.10e-06	0	43	102	1048576	12	4030
2026-01-25 05:49:27.30	9.72	10.63	-26.1	-26.9	14.3	2.20e-06	0	43	102	1048576	12	3958
2026-01-25 05:49:28.31	9.64	10.71	-26.1	-27.4	14.3	1.10e-06	0	43	102	1048576	11	4191
2026-01-25 05:49:29.31	9.57	10.79	-26.0	-27.2	14.5	1.54e-03	0	43	102	1048576	11	4145
2026-01-25 05:49:30.31	9.49	10.88	-26.2	-27.1	14.2	0.00e+00	0	43	102	1048576	12	4019
2026-01-25 05:49:31.32	9.41	10.96	-26.3	-27.4	14.0	2.20e-06	0	43	102	1048576	12	4086
2026-01-25 05:49:32.32	9.34	11.04	-26.3	-27.5	13.9	2.20e-06	0	43	102	1048576	12	4113
2026-01-25 05:49:33.33	9.26	11.12	-26.0	-26.7	14.4	1.10e-06	0	43	102	1048576	12	3911
2026-01-25 05:49:34.33	9.18	11.21	-26.0	-27.1	14.5	1.10e-06	0	43	102	1048576	11	4119
2026-01-25 05:49:35.34	9.10	11.29	-26.0	-27.3	14.5	0.00e+00	0	43	102	1048576	11	4159
2026-01-25 05:49:36.34	9.02	11.37	-26.0	-27.2	14.5	0.00e+00	0	43	102	1048576	11	4139
2026-01-25 05:49:37.34	8.94	11.46	-25.9	-26.9	14.7	0.00e+00	0	43	102	1048576	11	4070
2026-01-25 05:49:38.33	8.87	11.54	-25.9	-27.0	14.7	2.20e-06	0	43	102	1048576	11	4076
2026-01-25 05:49:39.33	8.79	11.62	-25.8	-26.7	14.8	0.00e+00	0	43	102	1048576	11	4007
2026-01-25 05:49:40.33	8.71	11.71	-25.7	-26.5	14.9	0.00e+00	0	43	102	1048576	11	3959
2026-01-25 05:49:41.34	8.62	11.79	-25.6	-26.4	15.0	0.00e+00	0	43	102	1048576	11	3934
2026-01-25 05:49:42.34	8.54	11.88	-25.8	-26.7	14.8	1.10e-06	0	43	102	1048576	11	4005
2026-01-25 05:49:43.35	8.46	11.96	-25.6	-26.4	15.0	0.00e+00	0	43	102	1048576	11	3926
2026-01-25 05:49:44.36	8.38	12.05	-25.6	-26.3	15.0	0.00e+00	0	43	102	1048576	11	3909
2026-01-25 05:49:45.36	8.29	12.13	-25.6	-26.3	15.1	0.00e+00	0	43	102	1048576	11	3903
2026-01-25 05:49:46.36	8.21	12.22	-25.4	-26.5	15.2	0.00e+00	0	43	102	1048576	10	4055
2026-01-25 05:49:47.36	8.12	12.30	-25.4	-26.4	15.2	0.00e+00	0	43	102	1048576	10	4045
2026-01-25 05:49:48.36	8.04	12.39	-25.4	-26.4	15.3	0.00e+00	0	43	102	1048576	10	4046
2026-01-25 05:49:49.37	7.95	12.47	-25.4	-26.3	15.4	0.00e+00	0	43	102	1048576	10	4008
2026-01-25 05:49:50.37	7.87	12.56	-25.4	-26.4	15.3	0.00e+00	0	43	102	1048576	10	4023
2026-01-25 05:49:51.38	7.78	12.65	-25.6	-26.3	15.0	1.10e-06	0	43	102	1048576	11	3910
2026-01-25 05:49:52.38	7.69	12.74	-25.4	-26.3	15.4	0.00e+00	0	43	102	1048576	10	3997
2026-01-25 05:49:53.39	7.61	12.82	-25.4	-26.5	15.2	0.00e+00	0	43	102	1048576	10	4055
2026-01-25 05:49:54.39	7.52	12.91	-25.5	-26.6	15.2	0.00e+00	0	43	102	1048576	10	4083
2026-01-25 05:49:55.40	7.43	13.00	-25.5	-26.5	15.2	0.00e+00	0	43	102	1048576	10	4063
2026-01-25 05:49:56.40	7.34	13.09	-25.7	-26.6	14.9	0.00e+00	0	43	102	1048576	11	3982
2026-01-25 05:49:57.40	7.25	13.17	-25.5	-26.1	15.2	0.00e+00	0	43	102	1048576	11	3852
2026-01-25 05:49:58.41	7.16	13.26	-25.5	-26.2	15.2	0.00e+00	0	43	102	1048576	11	3873
2026-01-25 05:49:59.41	7.07	13.35	-25.5	-26.0	15.3	0.00e+00	0	43	102	1048576	11	3841
2026-01-25 05:50:00.42	6.98	13.44	-25.5	-26.2	15.2	0.00e+00	0	43	102	1048576	11	3875
2026-01-25 05:50:01.43	6.88	13.53	-25.4	-25.9	15.3	0.00e+00	0	43	102	1048576	11	3818
2026-01-25 05:50:02.43	6.79	13.62	-25.4	-26.5	15.3	0.00e+00	0	43	102	1048576	10	4052
2026-01-25 05:50:03.44	6.70	13.71	-25.4	-26.4	15.4	0.00e+00	0	43	102	1048576	10	4029
2026-01-25 05:50:04.44	6.60	13.80	-25.4	-26.5	15.3	0.00e+00	0	43	102	1048576	10	4051
2026-01-25 05:50:05.44	6.51	13.89	-25.5	-26.6	15.2	0.00e+00	0	43	102	1048576	10	4082
2026-01-25 05:50:06.44	6.42	13.98	-25.4	-26.4	15.4	0.00e+00	0	43	102	1048576	10	4023
2026-01-25 05:50:07.45	6.32	14.07	-25.4	-26.5	15.3	0.00e+00	0	43	102	1048576	10	4051
2026-01-25 05:50:08.45	6.22	14.16	-25.5	-26.6	15.3	0.00e+00	0	43	102	1048576	10	4090
2026-01-25 05:50:09.46	6.13	14.25	-25.4	-26.4	15.4	0.00e+00	0	43	102	1048576	10	4021
2026-01-25 05:50:10.47	6.03	14.35	-25.4	-26.3	15.4	0.00e+00	0	43	102	1048576	10	4020
2026-01-25 05:50:11.47	5.93	14.44	-25.5	-26.6	15.3	0.00e+00	0	43	102	1048576	10	4071
2026-01-25 05:50:12.47	5.83	14.53	-25.7	-26.4	15.1	0.00e+00	0	43	102	1048576	11	3931
2026-01-25 05:50:13.47	5.73	14.62	-25.8	-26.8	14.9	0.00e+00	0	43	102	1048576	11	4014
2026-01-25 05:50:14.48	5.63	14.71	-25.4	-25.9	15.4	0.00e+00	0	43	102	1048576	11	3811
2026-01-25 05:50:15.49	5.53	14.81	-25.3	-25.5	15.6	0.00e+00	0	43	102	1048576	11	3718
2026-01-25 05:50:16.49	5.43	14.90	-25.2	-25.9	15.7	0.00e+00	0	43	102	1048576	10	3911
2026-01-25 05:50:17.50	5.33	15.00	-25.4	-26.3	15.5	0.00e+00	0	43	102	1048576	10	3996
2026-01-25 05:50:18.50	5.23	15.09	-25.1	-25.7	15.8	0.00e+00	0	43	102	1048576	10	3851
2026-01-25 05:50:19.51	5.12	15.18	-25.0	-25.5	15.9	0.00e+00	0	43	102	1048576	10	3808
2026-01-25 05:50:20.51	5.02	15.28	-25.0	-25.5	15.9	0.00e+00	0	43	102	1048576	10	3806
2026-01-25 05:50:21.52	4.91	15.37	-25.0	-25.6	15.9	0.00e+00	0	43	102	1048576	10	3827
2026-01-25 05:50:22.52	4.81	15.47	-25.1	-25.7	15.8	0.00e+00	0	43	102	1048576	10	3852
2026-01-25 05:50:23.52	4.70	15.56	-25.1	-25.6	15.9	0.00e+00	0	43	102	1048576	10	3832
2026-01-25 05:50:24.53	4.59	15.66	-25.3	-26.1	15.6	0.00e+00	0	43	102	1048576	10	3949
2026-01-25 05:50:25.53	4.49	15.75	-25.2	-26.0	15.7	0.00e+00	0	43	102	1048576	10	3923
2026-01-25 05:50:26.54	4.38	15.85	-25.2	-25.8	15.8	0.00e+00	0	43	102	1048576	10	3880
2026-01-25 05:50:27.54	4.27	15.94	-25.0	-25.5	16.0	0.00e+00	0	43	102	1048576	10	3802
2026-01-25 05:50:28.55	4.16	16.04	-24.9	-25.2	16.1	0.00e+00	0	43	102	1048576	10	3745
2026-01-25 05:50:29.55	4.05	16.14	-24.9	-25.8	16.1	0.00e+00	0	43	102	1048576	9	3986
2026-01-25 05:50:30.55	3.94	16.23	-25.2	-25.9	15.7	0.00e+00	0	43	102	1048576	10	3898
2026-01-25 05:50:31.54	3.83	16.33	-24.5	-25.2	13.4	0.00e+00	0	44	102	1048576	10	3896
2026-01-25 05:50:32.54	3.72	16.43	-25.3	-26.2	15.4	0.00e+00	0	43	102	1048576	10	3985
2026-01-25 05:50:33.54	3.60	16.52	-25.4	-26.2	15.2	0.00e+00	0	44	102	1048576	10	3990
2026-01-25 05:50:34.55	3.49	16.62	-25.2	-25.8	15.8	5.01e-04	0	43	102	1048576	10	3889
2026-01-25 05:50:35.56	3.37	16.72	-25.2	-25.9	15.7	0.00e+00	0	43	102	1048576	10	3900
2026-01-25 05:50:36.57	3.26	16.82	-25.2	-26.0	15.7	1.54e-03	0	44	102	1048576	10	3928
2026-01-25 05:50:37.57	3.14	16.92	-25.2	-25.8	15.8	0.00e+00	0	43	102	1048576	10	3887
2026-01-25 05:50:38.57	3.02	17.02	-25.4	-26.2	15.6	0.00e+00	0	43	102	1048576	10	3986
2026-01-25 05:50:39.57	2.91	17.12	-25.2	-26.0	15.7	1.74e-03	0	43	102	1048576	10	3930
2026-01-25 05:50:40.58	2.79	17.22	-24.7	-25.4	16.3	0.00e+00	0	43	102	1048576	9	3897
2026-01-25 05:50:41.58	2.67	17.32	-24.4	-24.8	16.6	8.00e-06	0	44	102	1048576	9	3739
2026-01-25 05:50:42.58	2.55	17.42	-24.2	-24.7	17.0	0.00e+00	0	44	102	1048576	8	3829
2026-01-25 05:50:43.59	2.43	17.52	-24.5	-25.4	16.6	0.00e+00	0	43	102	1048576	8	4007
2026-01-25 05:50:44.59	2.30	17.62	-24.1	-24.0	17.0	0.00e+00	0	43	102	1048576	9	3570
2026-01-25 05:50:45.59	2.18	17.72	-24.1	-24.5	17.1	0.00e+00	0	44	102	1048576	8	3767
2026-01-25 05:50:46.59	2.06	17.82	-24.1	-24.5	17.1	1.49e-03	0	44	102	1048576	8	3771
2026-01-25 05:50:47.59	1.93	17.92	-24.0	-24.4	17.1	0.00e+00	0	44	102	1048576	8	3759
2026-01-25 05:50:48.60	1.81	18.02	-24.2	-24.7	16.9	1.49e-03	0	43	102	1048576	8	3838
2026-01-25 05:50:49.60	1.68	18.13	-24.3	-24.9	16.8	1.44e-03	0	43	102	1048576	8	3877
2026-01-25 05:50:50.61	1.55	18.23	-24.3	-25.0	16.8	0.00e+00	0	44	102	1048576	8	3897
2026-01-25 05:50:51.61	1.43	18.33	-24.2	-24.7	16.9	1.39e-03	0	44	102	1048576	8	3840
2026-01-25 05:50:52.62	1.30	18.43	-24.1	-24.6	17.0	1.29e-03	0	43	102	1048576	8	3812
2026-01-25 05:50:53.63	1.16	18.54	-24.0	-24.3	17.2	0.00e+00	0	44	102	1048576	8	3731
2026-01-25 05:50:54.63	1.03	18.64	-23.9	-24.1	17.3	1.23e-03	0	44	102	1048576	8	3683
2026-01-25 05:50:55.64	0.90	18.75	-24.1	-24.7	17.0	0.00e+00	0	43	102	1048576	8	3818
2026-01-25 05:50:56.64	0.77	18.85	-24.2	-24.7	17.0	0.00e+00	0	43	102	1048576	8	3828
2026-01-25 05:50:57.65	0.63	18.96	-24.0	-24.4	17.2	1.41e-03	0	43	102	1048576	8	3747
2026-01-25 05:50:58.66	0.50	19.06	-24.1	-24.5	17.1	1.35e-03	0	43	102	1048576	8	3778
2026-01-25 05:50:59.66	0.36	19.17	-24.1	-24.5	17.2	0.00e+00	0	44	102	1048576	8	3769
2026-01-25 05:51:00.66	0.23	19.27	-24.3	-24.9	16.9	0.00e+00	0	44	102	1048576	8	3867
2026-01-25 05:51:01.66	0.09	19.38	-24.1	-24.5	17.1	1.29e-03	0	44	102	1048576	8	3783
2026-01-25 05:51:02.66	359.95	19.48	-23.9	-24.1	17.4	0.00e+00	0	44	102	1048576	8	3679
2026-01-25 05:51:03.67	359.81	19.59	-23.8	-24.4	17.4	0.00e+00	0	43	102	1048576	7	3853
2026-01-25 05:51:04.68	359.67	19.69	-23.8	-24.4	17.4	1.35e-03	0	44	102	1048576	7	3867
2026-01-25 05:51:05.67	359.53	19.80	-23.7	-24.1	17.6	0.00e+00	0	43	102	1048576	7	3796
2026-01-25 05:51:06.68	359.39	19.91	-23.7	-24.1	17.5	1.39e-03	0	44	102	1048576	7	3800
2026-01-25 05:51:07.69	359.24	20.01	-23.8	-24.5	17.4	0.00e+00	0	44	102	1048576	7	3880
2026-01-25 05:51:08.70	359.10	20.12	-23.7	-24.2	17.5	0.00e+00	0	44	102	1048576	7	3820
2026-01-25 05:51:09.70	358.95	20.23	-23.8	-24.4	17.5	1.29e-03	0	43	102	1048576	7	3848
2026-01-25 05:51:10.71	358.81	20.34	-23.6	-23.9	17.7	0.00e+00	0	43	102	1048576	7	3741
2026-01-25 05:51:11.72	358.66	20.45	-23.5	-23.7	17.8	0.00e+00	0	44	102	1048576	7	3702
2026-01-25 05:51:12.73	358.51	20.56	-23.7	-24.2	17.5	0.00e+00	0	44	102	1048576	7	3813
2026-01-25 05:51:13.73	358.36	20.66	-23.6	-23.9	17.6	0.00e+00	0	44	102	1048576	7	3752
2026-01-25 05:51:14.73	358.21	20.77	-23.5	-23.8	17.7	0.00e+00	0	43	102	1048576	7	3713
2026-01-25 05:51:15.73	358.06	20.88	-23.6	-24.1	17.6	0.00e+00	0	44	102	1048576	7	3784
2026-01-25 05:51:16.74	357.90	20.99	-23.6	-23.9	17.6	0.00e+00	0	44	102	1048576	7	3756
2026-01-25 05:51:17.73	357.75	21.10	-23.8	-24.4	17.4	0.00e+00	0	44	102	1048576	7	3862
2026-01-25 05:51:18.74	357.59	21.21	-23.9	-24.5	17.4	0.00e+00	0	44	102	1048576	7	3900
2026-01-25 05:51:19.74	357.44	21.32	-23.9	-24.6	17.3	0.00e+00	0	43	102	1048576	7	3918
2026-01-25 05:51:20.75	357.28	21.43	-24.0	-24.3	17.3	0.00e+00	0	44	102	1048576	8	3729
2026-01-25 05:51:21.75	357.12	21.54	-24.1	-24.6	17.1	0.00e+00	0	44	102	1048576	8	3810
2026-01-25 05:51:22.75	356.96	21.65	-24.1	-24.6	17.1	0.00e+00	0	44	102	1048576	8	3803
2026-01-25 05:51:23.76	356.80	21.77	-24.0	-24.3	17.3	0.00e+00	0	43	102	1048576	8	3739
2026-01-25 05:51:24.77	356.63	21.88	-23.9	-24.2	17.3	0.00e+00	0	44	102	1048576	8	3707
2026-01-25 05:51:25.77	356.47	21.99	-24.1	-24.5	17.2	0.00e+00	0	44	102	1048576	8	3779
2026-01-25 05:51:26.78	356.31	22.10	-24.0	-24.3	17.3	0.00e+00	0	44	102	1048576	8	3739
2026-01-25 05:51:27.78	356.14	22.21	-24.1	-24.5	17.2	0.00e+00	0	44	102	1048576	8	3781
2026-01-25 05:51:28.79	355.97	22.33	-23.9	-24.0	17.4	0.00e+00	0	44	102	1048576	8	3676
2026-01-25 05:51:29.79	355.80	22.44	-23.8	-24.0	17.4	0.00e+00	0	44	102	1048576	8	3670
2026-01-25 05:51:30.80	355.63	22.55	-23.7	-24.2	17.5	0.00e+00	0	44	102	1048576	7	3817
2026-01-25 05:51:31.80	355.46	22.67	-23.6	-24.0	17.6	0.00e+00	0	44	102	1048576	7	3782
2026-01-25 05:51:32.81	355.29	22.78	-23.8	-24.4	17.4	0.00e+00	0	44	102	1048576	7	3866
2026-01-25 05:51:33.81	355.12	22.89	-23.7	-24.2	17.5	0.00e+00	0	44	102	1048576	7	3819
2026-01-25 05:51:34.82	354.94	23.01	-23.4	-23.6	17.8	0.00e+00	0	44	102	1048576	7	3686
2026-01-25 05:51:35.82	354.76	23.12	-23.2	-23.1	18.1	0.00e+00	0	44	102	1048576	7	3574
2026-01-25 05:51:36.83	354.59	23.24	-23.5	-23.8	17.8	0.00e+00	0	44	102	1048576	7	3720
2026-01-25 05:51:37.83	354.41	23.35	-23.4	-23.6	17.8	0.00e+00	0	44	102	1048576	7	3688
2026-01-25 05:51:38.83	354.23	23.46	-23.5	-23.9	17.7	0.00e+00	0	44	102	1048576	7	3745
2026-01-25 05:51:39.84	354.05	23.58	-23.4	-23.5	17.9	0.00e+00	0	44	102	1048576	7	3663
2026-01-25 05:51:40.84	353.86	23.69	-23.4	-24.0	17.9	0.00e+00	0	44	102	1048576	6	3877
2026-01-25 05:51:41.85	353.68	23.81	-23.4	-23.5	17.9	0.00e+00	0	44	102	1048576	7	3657
2026-01-25 05:51:42.86	353.49	23.93	-23.4	-23.6	17.9	0.00e+00	0	44	102	1048576	7	3681
2026-01-25 05:51:43.86	353.30	24.04	-23.4	-24.0	17.9	0.00e+00	0	44	102	1048576	6	3871
2026-01-25 05:51:44.87	353.11	24.16	-23.4	-24.0	17.9	0.00e+00	0	44	102	1048576	6	3877
2026-01-25 05:51:45.87	352.93	24.27	-23.4	-24.1	17.9	0.00e+00	0	44	102	1048576	6	3896
2026-01-25 05:51:46.87	352.73	24.39	-23.2	-23.7	18.0	0.00e+00	0	44	102	1048576	6	3814
2026-01-25 05:51:47.87	352.54	24.50	-23.4	-24.1	17.9	0.00e+00	0	44	102	1048576	6	3896
2026-01-25 05:51:48.88	352.35	24.62	-23.2	-23.7	18.1	0.00e+00	0	44	102	1048576	6	3811
2026-01-25 05:51:49.88	352.15	24.74	-23.0	-23.2	18.4	0.00e+00	0	44	102	1048576	6	3696
2026-01-25 05:51:50.88	351.96	24.85	-22.9	-23.1	18.4	0.00e+00	0	44	102	1048576	6	3669
2026-01-25 05:51:51.89	351.76	24.97	-22.8	-22.7	18.6	0.00e+00	0	44	102	1048576	6	3586
2026-01-25 05:51:52.89	351.56	25.09	-22.7	-22.7	18.6	0.00e+00	0	44	102	1048576	6	3577
2026-01-25 05:51:53.89	351.36	25.21	-22.7	-22.7	18.6	0.00e+00	0	44	102	1048576	6	3576
2026-01-25 05:51:54.90	351.15	25.32	-22.8	-22.8	18.5	0.00e+00	0	44	102	1048576	6	3607
2026-01-25 05:51:55.90	350.95	25.44	-22.7	-22.6	18.6	0.00e+00	0	44	102	1048576	6	3567
2026-01-25 05:51:56.91	350.74	25.56	-22.6	-22.5	18.7	0.00e+00	0	44	102	1048576	6	3530
2026-01-25 05:51:57.92	350.53	25.68	-22.6	-23.0	18.7	0.00e+00	0	44	102	1048576	5	3735
2026-01-25 05:51:58.93	350.32	25.80	-22.7	-23.2	18.6	0.00e+00	0	44	102	1048576	5	3783
2026-01-25 05:51:59.94	350.11	25.91	-22.8	-23.4	18.5	0.00e+00	0	44	102	1048576	5	3830
2026-01-25 05:52:00.94	349.89	26.03	-22.8	-23.3	18.5	0.00e+00	0	44	102	1048576	5	3821
2026-01-25 05:52:01.94	349.68	26.15	-23.1	-23.5	18.2	0.00e+00	0	44	102	1048576	6	3769
2026-01-25 05:52:02.94	349.47	26.27	-23.0	-23.2	18.3	0.00e+00	0	44	102	1048576	6	3688
2026-01-25 05:52:03.95	349.25	26.39	-22.6	-23.0	17.2	0.00e+00	0	44	102	1048576	6	3737
2026-01-25 05:52:04.95	349.03	26.50	-23.0	-23.3	18.0	0.00e+00	0	44	102	1048576	6	3714
2026-01-25 05:52:05.96	348.81	26.62	-23.0	-23.2	18.4	7.97e-04	0	44	102	1048576	6	3695
2026-01-25 05:52:06.95	348.59	26.74	-23.1	-23.5	18.2	0.00e+00	0	44	102	1048576	6	3763
2026-01-25 05:52:07.96	348.36	26.86	-23.1	-23.3	18.3	0.00e+00	0	44	102	1048576	6	3722
2026-01-25 05:52:08.96	348.14	26.98	-23.0	-23.3	18.3	2.17e-04	0	44	102	1048576	6	3710
2026-01-25 05:52:09.97	347.91	27.09	-23.1	-23.5	18.3	0.00e+00	0	44	102	1048576	6	3744
2026-01-25 05:52:10.97	347.68	27.21	-23.1	-23.5	18.3	0.00e+00	0	44	102	1048576	6	3751
2026-01-25 05:52:11.98	347.45	27.33	-23.2	-23.7	18.1	0.00e+00	0	44	102	1048576	6	3805
2026-01-25 05:52:12.98	347.21	27.45	-23.3	-23.9	18.1	0.00e+00	0	44	102	1048576	6	3842
2026-01-25 05:52:13.99	346.98	27.57	-23.4	-24.1	17.9	0.00e+00	0	44	102	1048576	6	3908
2026-01-25 05:52:15.00	346.74	27.69	-23.3	-23.9	18.1	0.00e+00	0	44	102	1048576	6	3850
2026-01-25 05:52:16.00	346.50	27.81	-23.4	-24.0	18.0	0.00e+00	0	44	102	1048576	6	3876
2026-01-25 05:52:17.01	346.26	27.92	-23.2	-23.7	18.2	0.00e+00	0	44	102	1048576	6	3794
2026-01-25 05:52:18.02	346.02	28.04	-23.3	-23.9	18.1	0.00e+00	0	44	102	1048576	6	3837
2026-01-25 05:52:19.02	345.77	28.16	-23.3	-23.8	18.1	5.03e-05	0	44	102	1048576	6	3828
2026-01-25 05:52:20.03	345.53	28.28	-23.3	-23.9	18.1	0.00e+00	0	44	102	1048576	6	3841
2026-01-25 05:52:21.03	345.28	28.40	-23.3	-23.9	18.0	3.32e-04	0	44	102	1048576	6	3855
2026-01-25 05:52:22.04	345.03	28.52	-23.6	-23.9	17.8	4.13e-04	0	44	102	1048576	7	3749
2026-01-25 05:52:23.04	344.78	28.63	-23.2	-23.1	18.2	0.00e+00	0	44	102	1048576	7	3570
2026-01-25 05:52:24.04	344.53	28.75	-23.0	-23.1	18.4	7.29e-04	0	44	102	1048576	6	3673
2026-01-25 05:52:25.04	344.27	28.87	-23.1	-23.4	18.3	7.77e-04	0	44	102	1048576	6	3742
2026-01-25 05:52:26.04	344.02	28.98	-23.2	-23.6	18.2	0.00e+00	0	44	102	1048576	6	3777
2026-01-25 05:52:27.05	343.76	29.10	-23.0	-23.3	18.4	7.46e-04	0	44	102	1048576	6	3710
2026-01-25 05:52:28.05	343.50	29.22	-23.0	-23.3	18.4	7.31e-04	0	44	102	1048576	6	3698
2026-01-25 05:52:29.05	343.24	29.33	-23.2	-23.7	18.2	0.00e+00	0	44	102	1048576	6	3799
2026-01-25 05:52:30.06	342.97	29.45	-22.9	-23.1	18.5	0.00e+00	0	44	102	1048576	6	3658
2026-01-25 05:52:31.07	342.70	29.57	-22.8	-22.9	18.6	6.50e-04	0	44	102	1048576	6	3619
2026-01-25 05:52:32.08	342.43	29.69	-22.9	-23.1	18.5	0.00e+00	0	44	102	1048576	6	3666
2026-01-25 05:52:33.08	342.17	29.80	-22.8	-22.9	18.6	0.00e+00	0	44	102	1048576	6	3616
2026-01-25 05:52:34.08	341.89	29.92	-22.6	-23.0	18.8	7.82e-04	0	44	102	1048576	5	3740
2026-01-25 05:52:35.08	341.62	30.03	-22.7	-23.2	18.7	0.00e+00	0	44	102	1048576	5	3791
2026-01-25 05:52:36.08	341.35	30.15	-22.9	-23.6	18.5	8.23e-04	0	44	102	1048576	5	3874
2026-01-25 05:52:37.08	341.07	30.26	-22.6	-22.8	18.9	0.00e+00	0	44	102	1048576	5	3704
2026-01-25 05:52:38.08	340.79	30.38	-22.2	-22.1	19.2	0.00e+00	0	44	102	1048576	5	3558
2026-01-25 05:52:39.08	340.51	30.49	-22.3	-22.3	19.2	5.23e-04	0	44	102	1048576	5	3578
2026-01-25 05:52:40.09	340.22	30.60	-22.5	-23.1	19.0	0.00e+00	0	44	102	1048576	4	3869
2026-01-25 05:52:41.09	339.94	30.72	-22.4	-23.0	19.1	0.00e+00	0	44	102	1048576	4	3846
2026-01-25 05:52:42.09	339.65	30.83	-22.5	-23.1	19.0	0.00e+00	0	44	102	1048576	4	3880
2026-01-25 05:52:43.10	339.36	30.94	-22.4	-22.9	19.1	0.00e+00	0	44	102	1048576	4	3837
2026-01-25 05:52:44.10	339.07	31.05	-22.4	-23.0	19.0	0.00e+00	0	44	102	1048576	4	3858
2026-01-25 05:52:45.10	338.77	31.17	-22.7	-23.0	18.8	0.00e+00	0	44	102	1048576	5	3747
2026-01-25 05:52:46.11	338.48	31.28	-22.5	-22.6	19.0	0.00e+00	0	44	102	1048576	5	3661
2026-01-25 05:52:47.11	338.18	31.39	-22.5	-22.6	19.0	0.00e+00	0	44	102	1048576	5	3664
2026-01-25 05:52:48.12	337.88	31.50	-22.7	-23.1	18.8	0.00e+00	0	44	102	1048576	5	3770
2026-01-25 05:52:49.13	337.57	31.61	-22.8	-23.4	18.7	0.00e+00	0	44	102	1048576	5	3831
2026-01-25 05:52:50.13	337.27	31.72	-23.1	-23.4	18.4	0.00e+00	0	44	102	1048576	6	3724
2026-01-25 05:52:51.13	336.96	31.83	-23.1	-23.4	18.4	0.00e+00	0	44	102	1048576	6	3732
2026-01-25 05:52:52.14	336.65	31.94	-23.1	-23.5	18.4	0.00e+00	0	44	102	1048576	6	3752
2026-01-25 05:52:53.14	336.34	32.05	-23.1	-23.5	18.4	0.00e+00	0	44	102	1048576	6	3761
2026-01-25 05:52:54.15	336.03	32.15	-23.0	-23.1	18.5	0.00e+00	0	44	102	1048576	6	3672
2026-01-25 05:52:55.15	335.71	32.26	-22.9	-23.1	18.6	0.00e+00	0	44	102	1048576	6	3660
2026-01-25 05:52:56.16	335.39	32.37	-23.0	-23.2	18.6	0.00e+00	0	44	102	1048576	6	3686
2026-01-25 05:52:57.16	335.07	32.47	-23.0	-23.3	18.5	0.00e+00	0	44	102	1048576	6	3706
2026-01-25 05:52:58.16	334.75	32.58	-22.8	-22.8	18.7	0.00e+00	0	44	102	1048576	6	3601
2026-01-25 05:52:59.16	334.43	32.68	-22.8	-22.7	18.8	0.00e+00	0	44	102	1048576	6	3580
2026-01-25 05:53:00.16	334.11	32.78	-22.7	-23.1	18.8	0.00e+00	0	44	102	1048576	5	3758
2026-01-25 05:53:01.16	333.78	32.89	-22.5	-22.7	19.0	0.00e+00	0	44	102	1048576	5	3687
2026-01-25 05:53:02.16	333.45	32.99	-22.5	-22.7	19.0	0.00e+00	0	44	102	1048576	5	3671
2026-01-25 05:53:03.17	333.12	33.09	-22.5	-22.7	19.0	0.00e+00	0	44	102	1048576	5	3676
2026-01-25 05:53:04.17	332.78	33.19	-22.3	-22.2	19.3	0.00e+00	0	44	102	1048576	5	3562
2026-01-25 05:53:05.18	332.45	33.29	-22.1	-21.8	19.5	0.00e+00	0	44	102	1048576	5	3489
2026-01-25 05:53:06.18	332.11	33.39	-22.0	-22.2	19.5	0.00e+00	0	44	102	1048576	4	3665
2026-01-25 05:53:07.19	331.77	33.49	-22.1	-22.3	19.5	0.00e+00	0	44	102	1048576	4	3696
2026-01-25 05:53:08.19	331.43	33.59	-22.1	-22.3	19.5	0.00e+00	0	44	102	1048576	4	3682
2026-01-25 05:53:09.20	331.08	33.68	-22.2	-22.5	19.4	0.00e+00	0	44	102	1048576	4	3730
2026-01-25 05:53:10.21	330.73	33.78	-22.3	-22.7	19.3	0.00e+00	0	44	102	1048576	4	3770
2026-01-25 05:53:11.22	330.38	33.88	-22.4	-22.9	19.1	0.00e+00	0	44	102	1048576	4	3834
2026-01-25 05:53:12.22	330.03	33.97	-22.5	-23.1	19.1	0.00e+00	0	44	102	1048576	4	3874
2026-01-25 05:53:13.22	329.68	34.06	-22.4	-23.0	19.1	0.00e+00	0	44	102	1048576	4	3848
2026-01-25 05:53:14.23	329.32	34.15	-22.4	-22.9	19.2	0.00e+00	0	44	102	1048576	4	3836
2026-01-25 05:53:15.23	328.97	34.24	-22.4	-22.4	19.2	0.00e+00	0	44	102	1048576	5	3602
2026-01-25 05:53:16.23	328.61	34.33	-22.6	-23.0	18.9	0.00e+00	0	44	102	1048576	5	3739
2026-01-25 05:53:17.24	328.25	34.42	-22.9	-23.4	18.7	0.00e+00	0	44	102	1048576	5	3834
2026-01-25 05:53:18.25	327.88	34.51	-22.7	-23.0	18.9	0.00e+00	0	44	102	1048576	5	3752
2026-01-25 05:53:19.25	327.52	34.60	-22.8	-23.3	18.8	0.00e+00	0	44	102	1048576	5	3805
2026-01-25 05:53:20.25	327.15	34.68	-22.8	-23.2	18.8	0.00e+00	0	44	102	1048576	5	3793
2026-01-25 05:53:21.26	326.78	34.77	-22.8	-23.2	18.8	0.00e+00	0	44	102	1048576	5	3793
2026-01-25 05:53:22.26	326.41	34.85	-22.7	-23.0	18.9	0.00e+00	0	44	102	1048576	5	3743
2026-01-25 05:53:23.27	326.04	34.93	-22.8	-23.2	18.8	0.00e+00	0	44	102	1048576	5	3789
2026-01-25 05:53:24.28	325.66	35.02	-22.8	-23.3	18.7	0.00e+00	0	44	102	1048576	5	3816
2026-01-25 05:53:25.28	325.29	35.10	-23.0	-23.1	18.6	0.00e+00	0	44	102	1048576	6	3664
2026-01-25 05:53:26.29	324.90	35.18	-22.7	-22.6	18.8	0.00e+00	0	44	102	1048576	6	3548
2026-01-25 05:53:27.30	324.52	35.25	-22.5	-22.6	19.1	0.00e+00	0	44	102	1048576	5	3646
2026-01-25 05:53:28.30	324.14	35.33	-22.7	-23.0	18.9	0.00e+00	0	44	102	1048576	5	3744
2026-01-25 05:53:29.31	323.76	35.40	-22.6	-22.9	18.9	0.00e+00	0	44	102	1048576	5	3730
2026-01-25 05:53:30.31	323.37	35.48	-22.9	-23.5	18.7	0.00e+00	0	44	102	1048576	5	3850
2026-01-25 05:53:31.32	322.98	35.55	-22.9	-23.5	18.7	0.00e+00	0	44	102	1048576	5	3862
2026-01-25 05:53:32.33	322.59	35.62	-22.9	-23.5	18.7	0.00e+00	0	44	102	1048576	5	3859
2026-01-25 05:53:33.33	322.20	35.69	-22.9	-23.6	18.6	0.00e+00	0	44	102	1048576	5	3881
2026-01-25 05:53:34.33	321.81	35.76	-22.9	-23.4	18.7	0.00e+00	0	44	102	1048576	5	3846
2026-01-25 05:53:35.34	321.42	35.83	-22.5	-23.2	17.9	0.00e+00	0	44	102	1048576	5	3918
2026-01-25 05:53:36.35	321.02	35.89	-22.9	-23.5	14.1	0.00e+00	0	44	102	1048576	5	3861
2026-01-25 05:53:37.35	320.62	35.96	-22.9	-23.4	18.7	0.00e+00	0	44	102	1048576	5	3839
2026-01-25 05:53:38.35	320.22	36.02	-22.5	-22.8	19.0	1.05e-03	0	44	102	1048576	5	3693
2026-01-25 05:53:39.36	319.82	36.08	-22.4	-22.4	19.2	0.00e+00	0	44	102	1048576	5	3611
2026-01-25 05:53:40.37	319.42	36.14	-22.5	-22.6	19.1	0.00e+00	0	44	102	1048576	5	3658
2026-01-25 05:53:41.38	319.01	36.20	-22.6	-22.9	18.9	8.98e-04	0	44	102	1048576	5	3721
2026-01-25 05:53:42.38	318.61	36.26	-22.6	-22.9	18.9	0.00e+00	0	44	102	1048576	5	3722
2026-01-25 05:53:43.39	318.20	36.31	-22.7	-23.1	18.8	0.00e+00	0	44	102	1048576	5	3774
2026-01-25 05:53:44.39	317.79	36.36	-22.8	-23.3	18.8	0.00e+00	0	44	102	1048576	5	3816
2026-01-25 05:53:45.39	317.39	36.42	-22.5	-22.8	19.0	0.00e+00	0	44	102	1048576	5	3703
2026-01-25 05:53:46.40	316.97	36.47	-22.4	-22.4	19.2	0.00e+00	0	44	102	1048576	5	3637
2026-01-25 05:53:47.40	316.56	36.51	-22.4	-22.6	19.0	0.00e+00	0	44	102	1048576	5	3675
2026-01-25 05:53:48.40	316.15	36.56	-22.3	-22.3	19.2	2.23e-04	0	44	102	1048576	5	3614
2026-01-25 05:53:49.41	315.74	36.61	-22.3	-22.3	19.2	2.20e-06	0	44	102	1048576	5	3615
2026-01-25 05:53:50.42	315.32	36.65	-22.3	-22.4	19.1	1.83e-04	0	44	102	1048576	5	3638
2026-01-25 05:53:51.42	314.91	36.69	-22.4	-22.7	18.9	1.81e-04	0	44	102	1048576	5	3726
2026-01-25 05:53:52.43	314.49	36.73	-22.5	-22.9	18.8	0.00e+00	0	44	102	1048576	5	3774
2026-01-25 05:53:53.44	314.06	36.77	-22.5	-23.0	18.7	4.46e-05	0	44	102	1048576	5	3791
2026-01-25 05:53:54.44	313.65	36.81	-22.4	-22.8	18.7	1.94e-05	0	44	102	1048576	5	3774
2026-01-25 05:53:55.45	313.22	36.85	-22.4	-22.9	18.7	0.00e+00	0	44	102	1048576	5	3799
2026-01-25 05:53:56.45	312.81	36.88	-22.4	-23.0	18.6	8.47e-04	0	44	102	1048576	5	3826
2026-01-25 05:53:57.45	312.39	36.91	-22.3	-22.7	18.7	0.00e+00	0	44	102	1048576	5	3757
2026-01-25 05:53:58.45	311.96	36.94	-22.2	-22.5	18.8	1.48e-05	0	44	102	1048576	5	3719
2026-01-25 05:53:59.46	311.54	36.97	-22.2	-23.0	18.9	0.00e+00	0	44	102	1048576	4	3922
2026-01-25 05:54:00.46	311.12	37.00	-22.1	-22.6	19.0	1.06e-03	0	44	102	1048576	4	3833
2026-01-25 05:54:01.47	310.69	37.02	-22.0	-22.6	19.0	0.00e+00	0	44	102	1048576	4	3829
2026-01-25 05:54:02.47	310.26	37.04	-22.1	-22.6	19.1	0.00e+00	0	44	102	1048576	4	3819
2026-01-25 05:54:03.47	309.84	37.07	-22.2	-22.8	19.0	8.28e-04	0	44	102	1048576	4	3855
2026-01-25 05:54:04.47	309.41	37.09	-22.2	-22.8	19.0	0.00e+00	0	44	102	1048576	4	3858
2026-01-25 05:54:05.47	308.99	37.10	-22.3	-22.9	19.1	5.68e-04	0	44	102	1048576	4	3851
2026-01-25 05:54:06.47	308.56	37.12	-22.4	-23.0	19.0	1.26e-03	0	44	102	1048576	4	3890
2026-01-25 05:54:07.47	308.14	37.13	-22.2	-22.7	19.2	0.00e+00	0	44	102	1048576	4	3808
2026-01-25 05:54:08.48	307.71	37.15	-22.3	-23.0	19.0	1.19e-03	0	44	102	1048576	4	3898
2026-01-25 05:54:09.48	307.28	37.16	-22.4	-23.1	19.0	0.00e+00	0	44	102	1048576	4	3908
2026-01-25 05:54:10.49	306.85	37.16	-22.3	-22.8	19.1	0.00e+00	0	44	102	1048576	4	3827
2026-01-25 05:54:11.49	306.42	37.17	-22.3	-22.9	19.1	1.02e-03	0	44	102	1048576	4	3844
2026-01-25 05:54:12.50	305.99	37.18	-22.3	-22.9	19.2	0.00e+00	0	44	102	1048576	4	3840
2026-01-25 05:54:13.49	305.56	37.18	-22.4	-23.1	19.0	0.00e+00	0	44	102	1048576	4	3906
2026-01-25 05:54:14.50	305.13	37.18	-22.5	-23.2	19.0	0.00e+00	0	44	102	1048576	4	3921
2026-01-25 05:54:15.50	304.70	37.18	-22.6	-23.4	18.9	0.00e+00	0	44	102	1048576	4	3967
2026-01-25 05:54:16.50	304.28	37.18	-22.7	-23.1	18.8	0.00e+00	0	44	102	1048576	5	3783
2026-01-25 05:54:17.51	303.84	37.17	-22.5	-22.8	19.0	0.00e+00	0	44	102	1048576	5	3714
2026-01-25 05:54:18.51	303.42	37.17	-22.4	-22.5	19.1	0.00e+00	0	44	102	1048576	5	3655
2026-01-25 05:54:19.51	302.99	37.16	-22.3	-22.3	19.3	0.00e+00	0	44	102	1048576	5	3600
2026-01-25 05:54:20.50	302.57	37.15	-22.1	-21.9	19.4	0.00e+00	0	44	102	1048576	5	3533
2026-01-25 05:54:21.51	302.14	37.14	-22.1	-22.4	19.4	0.00e+00	0	44	102	1048576	4	3741
2026-01-25 05:54:22.51	301.71	37.13	-22.1	-22.5	19.3	0.00e+00	0	44	102	1048576	4	3748
2026-01-25 05:54:23.51	301.28	37.11	-22.2	-22.7	19.2	0.00e+00	0	44	102	1048576	4	3795
2026-01-25 05:54:24.51	300.86	37.09	-22.4	-23.0	19.0	0.00e+00	0	44	102	1048576	4	3876
2026-01-25 05:54:25.51	300.43	37.08	-22.4	-23.0	19.0	0.00e+00	0	44	102	1048576	4	3871
2026-01-25 05:54:26.52	300.00	37.05	-22.2	-22.7	19.2	0.00e+00	0	44	102	1048576	4	3798
2026-01-25 05:54:27.53	299.57	37.03	-22.3	-22.8	19.2	0.00e+00	0	44	102	1048576	4	3817
2026-01-25 05:54:28.53	299.15	37.01	-22.3	-22.8	19.2	0.00e+00	0	44	102	1048576	4	3817
2026-01-25 05:54:29.54	298.72	36.98	-22.2	-22.5	19.3	0.00e+00	0	44	102	1048576	4	3755
2026-01-25 05:54:30.54	298.30	36.95	-22.3	-22.8	19.2	0.00e+00	0	44	102	1048576	4	3810
2026-01-25 05:54:31.53	297.88	36.93	-22.4	-23.0	19.1	0.00e+00	0	44	102	1048576	4	3849
2026-01-25 05:54:32.54	297.46	36.89	-22.3	-22.8	19.2	0.00e+00	0	44	102	1048576	4	3817
2026-01-25 05:54:33.55	297.03	36.86	-22.3	-22.7	19.2	0.00e+00	0	44	102	1048576	4	3794
2026-01-25 05:54:34.56	296.61	36.83	-22.2	-22.6	19.3	0.00e+00	0	44	102	1048576	4	3766
2026-01-25 05:54:35.56	296.19	36.79	-22.1	-22.3	19.4	0.00e+00	0	44	102	1048576	4	3692
2026-01-25 05:54:36.56	295.77	36.75	-22.2	-22.6	19.3	0.00e+00	0	44	102	1048576	4	3752
2026-01-25 05:54:37.56	295.36	36.71	-22.3	-22.8	19.2	0.00e+00	0	44	102	1048576	4	3795
2026-01-25 05:54:38.57	294.94	36.67	-22.4	-22.9	19.2	0.00e+00	0	44	102	1048576	4	3822
2026-01-25 05:54:39.57	294.52	36.63	-22.5	-23.1	19.0	0.00e+00	0	44	102	1048576	4	3878
2026-01-25 05:54:40.58	294.11	36.58	-22.6	-23.4	18.9	0.00e+00	0	44	102	1048576	4	3940
2026-01-25 05:54:41.58	293.69	36.54	-22.8	-23.3	18.7	0.00e+00	0	44	102	1048576	5	3802
2026-01-25 05:54:42.59	293.28	36.49	-22.7	-23.1	18.8	0.00e+00	0	44	102	1048576	5	3771
2026-01-25 05:54:43.60	292.86	36.44	-22.5	-22.7	19.0	0.00e+00	0	44	102	1048576	5	3675
2026-01-25 05:54:44.61	292.45	36.39	-22.4	-22.5	19.1	0.00e+00	0	44	102	1048576	5	3629
2026-01-25 05:54:45.61	292.04	36.33	-22.4	-22.5	19.1	0.00e+00	0	44	102	1048576	5	3626
2026-01-25 05:54:46.62	291.63	36.28	-22.4	-22.4	19.2	0.00e+00	0	44	102	1048576	5	3616
2026-01-25 05:54:47.63	291.23	36.22	-22.3	-22.3	19.2	0.00e+00	0	44	102	1048576	5	3585
2026-01-25 05:54:48.63	290.82	36.17	-22.3	-22.2	19.2	0.00e+00	0	44	102	1048576	5	3564
2026-01-25 05:54:49.64	290.42	36.11	-22.4	-22.9	19.1	0.00e+00	0	44	102	1048576	4	3832
2026-01-25 05:54:50.65	290.01	36.05	-22.3	-22.9	19.1	0.00e+00	0	44	102	1048576	4	3820
2026-01-25 05:54:51.65	289.62	35.98	-22.2	-22.6	19.2	0.00e+00	0	44	102	1048576	4	3759
2026-01-25 05:54:52.66	289.21	35.92	-22.1	-22.4	19.4	0.00e+00	0	44	102	1048576	4	3715
2026-01-25 05:54:53.67	288.82	35.85	-21.9	-22.0	19.6	0.00e+00	0	44	102	1048576	4	3627
2026-01-25 05:54:54.67	288.42	35.79	-22.0	-22.1	19.5	0.00e+00	0	44	102	1048576	4	3644
2026-01-25 05:54:55.67	288.03	35.72	-21.9	-21.9	19.6	0.00e+00	0	44	102	1048576	4	3609
2026-01-25 05:54:56.67	287.64	35.65	-21.9	-21.9	19.6	0.00e+00	0	44	102	1048576	4	3596
2026-01-25 05:54:57.68	287.25	35.58	-21.9	-22.0	19.6	0.00e+00	0	44	102	1048576	4	3626
2026-01-25 05:54:58.68	286.86	35.51	-22.0	-22.1	19.5	0.00e+00	0	44	102	1048576	4	3645
2026-01-25 05:54:59.68	286.47	35.44	-22.0	-22.0	19.5	0.00e+00	0	44	102	1048576	4	3634
2026-01-25 05:55:00.69	286.09	35.36	-22.0	-22.2	19.5	0.00e+00	0	44	102	1048576	4	3680
2026-01-25 05:55:01.69	285.70	35.29	-22.1	-22.4	19.4	0.00e+00	0	44	102	1048576	4	3706
2026-01-25 05:55:02.69	285.32	35.21	-22.0	-22.2	19.5	0.00e+00	0	44	102	1048576	4	3671
2026-01-25 05:55:03.70	284.94	35.13	-22.0	-22.2	19.5	0.00e+00	0	44	102	1048576	4	3666
2026-01-25 05:55:04.70	284.56	35.05	-22.0	-22.1	19.5	0.00e+00	0	44	102	1048576	4	3653
2026-01-25 05:55:05.71	284.19	34.97	-22.1	-22.5	15.1	0.00e+00	0	44	102	1048576	4	3731
2026-01-25 05:55:06.71	283.81	34.89	-22.1	-22.4	19.4	0.00e+00	0	44	102	1048576	4	3724
2026-01-25 05:55:07.71	283.44	34.81	-22.1	-22.4	19.3	0.00e+00	0	44	102	1048576	4	3709
2026-01-25 05:55:08.72	283.07	34.72	-22.2	-22.5	19.3	0.00e+00	0	44	102	1048576	4	3729
2026-01-25 05:55:09.73	282.70	34.63	-22.2	-22.5	19.3	0.00e+00	0	44	102	1048576	4	3726
2026-01-25 05:55:10.72	282.34	34.55	-22.3	-22.7	19.2	6.42e-04	0	44	102	1048576	4	3790
2026-01-25 05:55:11.73	281.97	34.46	-22.3	-22.7	19.2	0.00e+00	0	44	102	1048576	4	3792
2026-01-25 05:55:12.74	281.60	34.37	-22.3	-22.8	19.2	0.00e+00	0	44	102	1048576	4	3808
2026-01-25 05:55:13.74	281.25	34.28	-22.3	-22.7	19.2	9.19e-04	0	44	102	1048576	4	3782
2026-01-25 05:55:14.74	280.89	34.19	-22.4	-22.9	19.1	0.00e+00	0	44	102	1048576	4	3835
2026-01-25 05:55:15.75	280.53	34.10	-22.2	-22.6	19.2	0.00e+00	0	44	102	1048576	4	3746
2026-01-25 05:55:16.75	280.18	34.01	-22.1	-22.4	19.4	0.00e+00	0	44	102	1048576	4	3706
2026-01-25 05:55:17.76	279.82	33.91	-22.2	-22.5	19.3	9.27e-04	0	44	102	1048576	4	3731
2026-01-25 05:55:18.77	279.47	33.82	-22.2	-22.6	19.2	0.00e+00	0	44	102	1048576	4	3772
2026-01-25 05:55:19.77	279.12	33.72	-22.4	-22.9	19.1	0.00e+00	0	44	102	1048576	4	3833
2026-01-25 05:55:20.77	278.78	33.63	-22.4	-23.0	19.1	3.32e-04	0	44	102	1048576	4	3842
2026-01-25 05:55:21.77	278.43	33.53	-22.5	-23.2	19.0	0.00e+00	0	44	102	1048576	4	3887
2026-01-25 05:55:22.78	278.09	33.43	-22.4	-23.1	19.0	2.31e-04	0	44	102	1048576	4	3865
2026-01-25 05:55:23.78	277.75	33.33	-22.4	-23.0	19.0	4.69e-05	0	44	102	1048576	4	3857
2026-01-25 05:55:24.79	277.41	33.23	-22.3	-22.7	19.2	0.00e+00	0	44	102	1048576	4	3779
2026-01-25 05:55:25.79	277.07	33.13	-22.3	-22.7	19.2	0.00e+00	0	44	102	1048576	4	3777
2026-01-25 05:55:26.79	276.74	33.03	-22.3	-22.8	19.1	0.00e+00	0	44	102	1048576	4	3805
2026-01-25 05:55:27.79	276.41	32.93	-22.3	-22.8	19.1	0.00e+00	0	44	102	1048576	4	3809
2026-01-25 05:55:28.79	276.08	32.83	-22.3	-22.7	19.2	2.67e-04	0	44	102	1048576	4	3791
2026-01-25 05:55:29.80	275.75	32.72	-22.6	-23.3	18.9	5.42e-04	0	44	102	1048576	4	3920
2026-01-25 05:55:30.80	275.43	32.62	-22.6	-22.8	18.8	0.00e+00	0	44	102	1048576	5	3708
2026-01-25 05:55:31.80	275.11	32.51	-22.6	-22.9	18.9	6.68e-04	0	44	102	1048576	5	3716
2026-01-25 05:55:32.80	274.79	32.41	-22.7	-23.1	18.7	7.61e-04	0	44	102	1048576	5	3759
2026-01-25 05:55:33.81	274.46	32.30	-22.4	-22.5	19.0	0.00e+00	0	44	102	1048576	5	3643
2026-01-25 05:55:34.81	274.15	32.19	-22.3	-22.3	19.1	0.00e+00	0	44	102	1048576	5	3590
2026-01-25 05:55:35.81	273.83	32.09	-22.3	-22.3	19.1	8.80e-04	0	44	102	1048576	5	3586
2026-01-25 05:55:36.81	273.52	31.98	-22.3	-22.2	19.2	0.00e+00	0	44	102	1048576	5	3563
2026-01-25 05:55:37.81	273.21	31.87	-22.2	-22.1	19.2	0.00e+00	0	44	102	1048576	5	3552
2026-01-25 05:55:38.82	272.90	31.76	-22.4	-22.4	19.0	7.52e-04	0	44	102	1048576	5	3622
2026-01-25 05:55:39.82	272.60	31.65	-22.4	-22.4	19.0	0.00e+00	0	44	102	1048576	5	3623
2026-01-25 05:55:40.83	272.29	31.54	-22.3	-22.3	19.0	6.01e-04	0	44	102	1048576	5	3600
2026-01-25 05:55:41.84	271.98	31.43	-22.3	-22.3	19.1	0.00e+00	0	44	102	1048576	5	3594
2026-01-25 05:55:42.84	271.68	31.32	-22.5	-22.6	18.9	0.00e+00	0	44	102	1048576	5	3664
2026-01-25 05:55:43.84	271.39	31.21	-22.3	-22.3	19.1	2.66e-04	0	44	102	1048576	5	3591
2026-01-25 05:55:44.85	271.09	31.09	-22.2	-22.6	19.2	0.00e+00	0	44	102	1048576	4	3764
2026-01-25 05:55:45.85	270.80	30.98	-22.3	-22.8	19.1	0.00e+00	0	44	102	1048576	4	3799
2026-01-25 05:55:46.85	270.50	30.87	-22.7	-23.0	18.6	0.00e+00	0	44	102	1048576	5	3757
2026-01-25 05:55:47.86	270.21	30.76	-22.4	-22.4	19.0	0.00e+00	0	44	102	1048576	5	3622
2026-01-25 05:55:48.87	269.92	30.64	-22.3	-22.2	19.1	0.00e+00	0	44	102	1048576	5	3583
2026-01-25 05:55:49.87	269.64	30.53	-22.4	-22.4	19.0	0.00e+00	0	44	102	1048576	5	3623
2026-01-25 05:55:50.88	269.35	30.41	-22.3	-22.3	19.1	0.00e+00	0	44	102	1048576	5	3592
2026-01-25 05:55:51.88	269.07	30.30	-22.4	-22.5	19.0	0.00e+00	0	44	102	1048576	5	3641
2026-01-25 05:55:52.89	268.79	30.18	-22.4	-22.4	19.0	0.00e+00	0	44	102	1048576	5	3621
2026-01-25 05:55:53.89	268.51	30.07	-22.6	-22.8	18.8	0.00e+00	0	44	102	1048576	5	3704
2026-01-25 05:55:54.90	268.23	29.95	-22.4	-22.5	19.0	0.00e+00	0	44	102	1048576	5	3626
2026-01-25 05:55:55.91	267.96	29.83	-22.3	-22.3	19.1	0.00e+00	0	44	102	1048576	5	3583
2026-01-25 05:55:56.91	267.69	29.72	-22.4	-22.9	18.9	0.00e+00	0	44	102	1048576	4	3837
2026-01-25 05:55:57.91	267.42	29.60	-22.3	-22.7	19.1	0.00e+00	0	44	102	1048576	4	3792
2026-01-25 05:55:58.92	267.15	29.48	-22.3	-22.8	19.1	3.40e-06	0	44	102	1048576	4	3804
2026-01-25 05:55:59.93	266.88	29.37	-22.5	-23.2	18.9	0.00e+00	0	44	102	1048576	4	3892
2026-01-25 05:56:00.93	266.62	29.25	-22.6	-23.0	18.7	0.00e+00	0	44	102	1048576	5	3751
2026-01-25 05:56:01.93	266.36	29.13	-22.9	-23.5	18.5	0.00e+00	0	44	102	1048576	5	3858
2026-01-25 05:56:02.93	266.10	29.02	-22.8	-23.3	18.5	0.00e+00	0	44	102	1048576	5	3829
2026-01-25 05:56:03.93	265.84	28.90	-22.7	-23.0	18.7	0.00e+00	0	44	102	1048576	5	3757
2026-01-25 05:56:04.94	265.58	28.78	-22.7	-23.1	18.6	4.50e-06	0	44	102	1048576	5	3780
2026-01-25 05:56:05.94	265.33	28.66	-22.7	-23.1	18.6	0.00e+00	0	44	102	1048576	5	3775
2026-01-25 05:56:06.95	265.07	28.54	-22.9	-23.6	18.4	0.00e+00	0	44	102	1048576	5	3884
2026-01-25 05:56:07.96	264.82	28.42	-22.7	-23.1	18.6	0.00e+00	0	44	102	1048576	5	3774
2026-01-25 05:56:08.96	264.57	28.31	-22.6	-22.8	18.8	0.00e+00	0	44	102	1048576	5	3699
2026-01-25 05:56:09.96	264.32	28.19	-22.6	-22.9	18.8	0.00e+00	0	44	102	1048576	5	3714
2026-01-25 05:56:10.96	264.08	28.07	-22.6	-23.0	18.7	0.00e+00	0	44	102	1048576	5	3735
2026-01-25 05:56:11.96	263.84	27.95	-22.7	-23.1	18.7	0.00e+00	0	44	102	1048576	5	3759
2026-01-25 05:56:12.97	263.59	27.83	-22.8	-23.4	18.5	0.00e+00	0	44	102	1048576	5	3836
2026-01-25 05:56:13.97	263.35	27.71	-22.7	-23.1	18.6	0.00e+00	0	44	102	1048576	5	3759
2026-01-25 05:56:14.97	263.12	27.60	-22.6	-23.0	18.7	0.00e+00	0	44	102	1048576	5	3738
2026-01-25 05:56:15.97	262.88	27.48	-22.7	-23.1	18.6	0.00e+00	0	44	102	1048576	5	3767
2026-01-25 05:56:16.98	262.65	27.36	-22.6	-23.0	18.7	0.00e+00	0	44	102	1048576	5	3741
2026-01-25 05:56:17.98	262.41	27.24	-22.6	-22.9	18.7	0.00e+00	0	44	102	1048576	5	3722
2026-01-25 05:56:18.99	262.18	27.12	-22.7	-23.2	18.6	0.00e+00	0	44	102	1048576	5	3791
2026-01-25 05:56:19.99	261.95	27.00	-22.7	-23.1	18.6	0.00e+00	0	44	102	1048576	5	3764
2026-01-25 05:56:21.00	261.72	26.88	-22.7	-23.1	18.6	0.00e+00	0	44	102	1048576	5	3769
2026-01-25 05:56:21.99	261.50	26.77	-22.9	-23.5	18.4	0.00e+00	0	44	102	1048576	5	3859
2026-01-25 05:56:22.99	261.28	26.65	-22.8	-23.2	18.5	0.00e+00	0	44	102	1048576	5	3800
2026-01-25 05:56:24.00	261.05	26.53	-22.8	-23.2	18.6	0.00e+00	0	44	102	1048576	5	3801
2026-01-25 05:56:25.01	260.83	26.41	-22.8	-23.3	18.5	0.00e+00	0	44	102	1048576	5	3812
2026-01-25 05:56:26.01	260.61	26.29	-23.0	-23.7	18.3	0.00e+00	0	44	102	1048576	5	3912
2026-01-25 05:56:27.01	260.39	26.17	-22.9	-23.5	18.4	0.00e+00	0	44	102	1048576	5	3854
2026-01-25 05:56:28.02	260.18	26.05	-22.9	-23.5	18.4	0.00e+00	0	44	102	1048576	5	3854
2026-01-25 05:56:29.02	259.96	25.93	-22.9	-23.5	18.4	0.00e+00	0	44	102	1048576	5	3860
2026-01-25 05:56:30.03	259.75	25.82	-22.9	-23.6	18.4	0.00e+00	0	44	102	1048576	5	3882
2026-01-25 05:56:31.03	259.54	25.70	-23.0	-23.8	18.2	0.00e+00	0	44	102	1048576	5	3940
2026-01-25 05:56:32.04	259.33	25.58	-22.7	-23.0	18.6	0.00e+00	0	44	102	1048576	5	3758
2026-01-25 05:56:33.04	259.12	25.46	-22.4	-22.5	18.8	0.00e+00	0	44	102	1048576	5	3644
2026-01-25 05:56:34.05	258.91	25.34	-22.4	-22.5	18.9	0.00e+00	0	44	102	1048576	5	3631
2026-01-25 05:56:35.06	258.71	25.22	-22.5	-22.6	18.8	0.00e+00	0	44	102	1048576	5	3668
2026-01-25 05:56:36.06	258.50	25.11	-22.5	-22.6	18.8	0.00e+00	0	44	102	1048576	5	3659
2026-01-25 05:56:37.06	258.30	24.99	-22.6	-22.9	18.6	0.00e+00	0	44	102	1048576	5	3730
2026-01-25 05:56:38.07	258.10	24.87	-22.2	-22.6	18.4	0.00e+00	0	44	102	1048576	5	3754
2026-01-25 05:56:39.07	257.90	24.75	-22.8	-23.3	18.5	0.00e+00	0	44	102	1048576	5	3807
2026-01-25 05:56:40.08	257.70	24.64	-22.8	-23.3	18.4	0.00e+00	0	44	102	1048576	5	3811
2026-01-25 05:56:41.09	257.51	24.52	-22.9	-23.5	18.3	6.40e-05	0	44	102	1048576	5	3872
2026-01-25 05:56:42.09	257.31	24.40	-22.8	-23.3	18.4	0.00e+00	0	44	102	1048576	5	3813
2026-01-25 05:56:43.09	257.12	24.29	-22.9	-23.4	18.4	0.00e+00	0	44	102	1048576	5	3851
2026-01-25 05:56:44.09	256.93	24.17	-23.0	-23.8	18.2	0.00e+00	0	44	102	1048576	5	3924
2026-01-25 05:56:45.09	256.74	24.05	-22.8	-23.4	18.4	0.00e+00	0	44	102	1048576	5	3836
2026-01-25 05:56:46.09	256.55	23.94	-22.8	-23.4	18.4	1.10e-03	0	44	102	1048576	5	3839
2026-01-25 05:56:47.10	256.36	23.82	-22.9	-23.6	18.3	0.00e+00	0	44	102	1048576	5	3884
2026-01-25 05:56:48.10	256.18	23.71	-22.9	-23.6	18.2	0.00e+00	0	44	102	1048576	5	3888
2026-01-25 05:56:49.11	255.99	23.59	-23.0	-23.8	18.2	0.00e+00	0	44	102	1048576	5	3930
2026-01-25 05:56:50.11	255.81	23.47	-23.2	-23.6	18.0	0.00e+00	0	44	102	1048576	6	3789
2026-01-25 05:56:51.11	255.63	23.36	-23.0	-23.2	18.2	0.00e+00	0	44	102	1048576	6	3688
2026-01-25 05:56:52.11	255.45	23.24	-22.9	-23.0	18.3	0.00e+00	0	44	102	1048576	6	3640
2026-01-25 05:56:53.12	255.27	23.13	-22.9	-23.0	18.3	0.00e+00	0	44	102	1048576	6	3641
2026-01-25 05:56:54.12	255.09	23.02	-22.8	-22.7	18.4	0.00e+00	0	44	102	1048576	6	3584
2026-01-25 05:56:55.13	254.92	22.90	-22.8	-22.9	18.4	0.00e+00	0	44	102	1048576	6	3619
2026-01-25 05:56:56.13	254.74	22.79	-22.7	-23.1	18.5	8.07e-04	0	44	102	1048576	5	3770
2026-01-25 05:56:57.14	254.57	22.67	-22.8	-23.2	18.4	0.00e+00	0	44	102	1048576	5	3799
2026-01-25 05:56:58.14	254.39	22.56	-22.8	-23.3	18.3	8.52e-04	0	44	102	1048576	5	3826
2026-01-25 05:56:59.14	254.22	22.45	-22.9	-23.6	18.2	8.65e-04	0	44	102	1048576	5	3889
2026-01-25 05:57:00.14	254.05	22.33	-23.0	-23.8	18.1	0.00e+00	0	44	102	1048576	5	3929
2026-01-25 05:57:01.14	253.89	22.22	-23.1	-23.4	18.1	1.04e-03	0	44	102	1048576	6	3741
2026-01-25 05:57:02.15	253.72	22.11	-23.1	-23.4	18.0	1.11e-03	0	44	102	1048576	6	3748
2026-01-25 05:57:03.15	253.55	21.99	-23.2	-23.6	18.0	0.00e+00	0	44	102	1048576	6	3778
2026-01-25 05:57:04.16	253.39	21.88	-23.0	-23.3	18.1	1.21e-03	0	44	102	1048576	6	3726
2026-01-25 05:57:05.16	253.22	21.77	-23.1	-23.4	18.0	1.26e-03	0	44	102	1048576	6	3747
2026-01-25 05:57:06.16	253.06	21.66	-23.1	-23.6	18.0	7.66e-05	0	44	102	1048576	6	3772
2026-01-25 05:57:07.16	252.90	21.55	-22.9	-23.1	18.2	0.00e+00	0	44	102	1048576	6	3662
2026-01-25 05:57:08.17	252.74	21.43	-22.9	-23.1	18.2	1.42e-03	0	44	102	1048576	6	3676
2026-01-25 05:57:09.17	252.58	21.32	-23.1	-23.4	18.1	1.25e-04	0	44	102	1048576	6	3734
2026-01-25 05:57:10.17	252.42	21.21	-23.0	-23.3	18.1	0.00e+00	0	44	102	1048576	6	3722
2026-01-25 05:57:11.17	252.26	21.10	-23.2	-23.6	17.9	1.78e-03	0	44	102	1048576	6	3794
2026-01-25 05:57:12.17	252.11	20.99	-23.3	-23.8	17.8	0.00e+00	0	44	102	1048576	6	3834
2026-01-25 05:57:13.18	251.95	20.88	-23.5	-24.3	17.6	1.99e-03	0	44	102	1048576	6	3940
2026-01-25 05:57:14.19	251.80	20.77	-23.5	-24.3	17.5	2.00e-03	0	44	102	1048576	6	3958
2026-01-25 05:57:15.19	251.65	20.66	-23.6	-24.0	17.4	0.00e+00	0	44	102	1048576	7	3775
2026-01-25 05:57:16.20	251.50	20.55	-23.5	-23.8	17.5	2.04e-03	0	44	102	1048576	7	3731
2026-01-25 05:57:17.20	251.35	20.44	-23.6	-23.9	17.4	0.00e+00	0	44	102	1048576	7	3759
2026-01-25 05:57:18.21	251.20	20.33	-23.6	-24.1	17.4	0.00e+00	0	44	102	1048576	7	3794
2026-01-25 05:57:19.22	251.05	20.23	-23.4	-23.6	17.6	0.00e+00	0	44	102	1048576	7	3691
2026-01-25 05:57:20.22	250.90	20.12	-23.4	-23.6	17.6	0.00e+00	0	44	102	1048576	7	3676
2026-01-25 05:57:21.23	250.75	20.01	-23.4	-24.0	17.6	2.95e-04	0	44	102	1048576	6	3885
2026-01-25 05:57:22.23	250.61	19.90	-23.3	-24.0	17.7	0.00e+00	0	44	102	1048576	6	3869
2026-01-25 05:57:23.23	250.47	19.79	-23.4	-24.1	17.6	0.00e+00	0	44	102	1048576	6	3903
2026-01-25 05:57:24.24	250.32	19.69	-23.4	-24.1	17.6	0.00e+00	0	44	102	1048576	6	3896
2026-01-25 05:57:25.24	250.18	19.58	-23.5	-24.3	17.5	0.00e+00	0	44	102	1048576	6	3943
2026-01-25 05:57:26.25	250.04	19.47	-23.5	-24.3	17.5	0.00e+00	0	44	102	1048576	6	3949
2026-01-25 05:57:27.26	249.90	19.37	-23.6	-24.1	17.4	0.00e+00	0	44	102	1048576	7	3786
2026-01-25 05:57:28.26	249.76	19.26	-23.6	-24.0	17.4	0.00e+00	0	44	102	1048576	7	3780
2026-01-25 05:57:29.27	249.62	19.15	-23.7	-24.2	17.3	0.00e+00	0	44	102	1048576	7	3804
2026-01-25 05:57:30.27	249.48	19.05	-23.7	-24.3	17.2	0.00e+00	0	44	102	1048576	7	3850
2026-01-25 05:57:31.28	249.35	18.94	-23.9	-24.6	17.0	0.00e+00	0	44	102	1048576	7	3923
2026-01-25 05:57:32.29	249.21	18.84	-24.0	-24.8	17.0	0.00e+00	0	44	102	1048576	7	3954
2026-01-25 05:57:33.29	249.08	18.73	-24.1	-25.0	16.9	0.00e+00	0	44	102	1048576	7	4006
2026-01-25 05:57:34.30	248.94	18.63	-24.3	-24.9	16.7	0.00e+00	0	44	102	1048576	8	3882
2026-01-25 05:57:35.31	248.81	18.52	-24.4	-25.2	16.5	0.00e+00	0	44	102	1048576	8	3949
2026-01-25 05:57:36.31	248.68	18.42	-24.2	-24.7	16.7	0.00e+00	0	44	102	1048576	8	3840
2026-01-25 05:57:37.31	248.55	18.32	-24.4	-25.2	16.5	0.00e+00	0	44	102	1048576	8	3964
2026-01-25 05:57:38.32	248.42	18.21	-24.4	-25.2	16.5	0.00e+00	0	44	102	1048576	8	3961
2026-01-25 05:57:39.32	248.29	18.11	-24.1	-24.7	16.7	0.00e+00	0	44	102	1048576	8	3824
2026-01-25 05:57:40.33	248.16	18.01	-23.9	-24.2	17.0	0.00e+00	0	44	102	1048576	8	3707
2026-01-25 05:57:41.33	248.04	17.90	-23.9	-24.1	17.1	0.00e+00	0	44	102	1048576	8	3688
2026-01-25 05:57:42.33	247.91	17.80	-23.9	-24.1	17.0	0.00e+00	0	44	102	1048576	8	3700
2026-01-25 05:57:43.34	247.78	17.70	-23.9	-24.2	17.0	0.00e+00	0	44	102	1048576	8	3724
2026-01-25 05:57:44.34	247.66	17.60	-24.1	-24.6	16.8	0.00e+00	0	44	102	1048576	8	3803
2026-01-25 05:57:45.34	247.54	17.50	-24.1	-24.5	16.8	0.00e+00	0	44	102	1048576	8	3781
2026-01-25 05:57:46.34	247.42	17.40	-24.1	-24.5	16.8	0.00e+00	0	44	102	1048576	8	3787
2026-01-25 05:57:47.35	247.29	17.30	-24.2	-24.7	16.7	0.00e+00	0	44	102	1048576	8	3840
2026-01-25 05:57:48.36	247.17	17.19	-24.3	-24.9	16.6	0.00e+00	0	44	102	1048576	8	3885
2026-01-25 05:57:49.36	247.05	17.09	-24.4	-25.2	16.5	0.00e+00	0	44	102	1048576	8	3942
2026-01-25 05:57:50.37	246.93	16.99	-24.4	-25.2	16.5	0.00e+00	0	44	102	1048576	8	3955
2026-01-25 05:57:51.37	246.81	16.89	-24.4	-25.2	16.4	0.00e+00	0	44	102	1048576	8	3954
2026-01-25 05:57:52.38	246.70	16.79	-24.4	-25.3	16.4	0.00e+00	0	44	102	1048576	8	3969
2026-01-25 05:57:53.38	246.58	16.70	-24.4	-25.3	16.4	0.00e+00	0	44	102	1048576	8	3984
2026-01-25 05:57:54.38	246.46	16.60	-24.4	-25.3	16.3	0.00e+00	0	44	102	1048576	8	3984
2026-01-25 05:57:55.39	246.35	16.50	-24.3	-25.0	16.5	0.00e+00	0	44	102	1048576	8	3912
2026-01-25 05:57:56.39	246.23	16.40	-24.2	-24.8	16.6	0.00e+00	0	44	102	1048576	8	3869
2026-01-25 05:57:57.39	246.12	16.30	-24.3	-25.0	16.5	0.00e+00	0	44	102	1048576	8	3906
2026-01-25 05:57:58.39	246.01	16.21	-24.2	-24.9	16.6	0.00e+00	0	44	102	1048576	8	3880
2026-01-25 05:57:59.39	245.90	16.11	-24.3	-25.0	16.5	0.00e+00	0	44	102	1048576	8	3895
2026-01-25 05:58:00.40	245.78	16.01	-24.3	-25.0	16.4	0.00e+00	0	44	102	1048576	8	3914
2026-01-25 05:58:01.40	245.67	15.91	-24.3	-25.1	16.4	0.00e+00	0	44	102	1048576	8	3933
2026-01-25 05:58:02.40	245.56	15.82	-24.3	-25.0	16.4	0.00e+00	0	44	102	1048576	8	3906
2026-01-25 05:58:03.41	245.45	15.72	-24.3	-25.0	16.5	0.00e+00	0	44	102	1048576	8	3916
2026-01-25 05:58:04.41	245.34	15.63	-24.3	-25.1	16.4	0.00e+00	0	44	102	1048576	8	3933
2026-01-25 05:58:05.41	245.24	15.53	-24.3	-25.0	16.4	0.00e+00	0	44	102	1048576	8	3916
2026-01-25 05:58:06.42	245.13	15.43	-24.3	-24.9	16.5	0.00e+00	0	44	102	1048576	8	3891
2026-01-25 05:58:07.42	245.02	15.34	-24.2	-24.9	16.5	0.00e+00	0	44	102	1048576	8	3871
2026-01-25 05:58:08.42	244.92	15.24	-24.2	-24.9	16.5	0.00e+00	0	44	102	1048576	8	3877
2026-01-25 05:58:09.42	244.81	15.15	-24.3	-25.0	16.4	0.00e+00	0	44	102	1048576	8	3900
2026-01-25 05:58:10.42	244.71	15.06	-24.2	-24.9	16.5	0.00e+00	0	44	102	1048576	8	3877
2026-01-25 05:58:11.43	244.60	14.96	-24.3	-25.0	16.4	0.00e+00	0	44	102	1048576	8	3902
2026-01-25 05:58:12.43	244.50	14.87	-24.3	-25.0	16.4	0.00e+00	0	44	102	1048576	8	3901
2026-01-25 05:58:13.43	244.40	14.77	-24.4	-25.2	16.3	0.00e+00	0	44	102	1048576	8	3943
2026-01-25 05:58:14.44	244.30	14.68	-24.4	-25.2	16.3	0.00e+00	0	44	102	1048576	8	3954
2026-01-25 05:58:15.45	244.19	14.59	-24.1	-25.0	15.6	0.00e+00	0	44	102	1048576	8	4017
2026-01-25 05:58:16.45	244.09	14.49	-24.0	-25.1	11.7	0.00e+00	0	44	102	1048576	8	4056
2026-01-25 05:58:17.45	243.99	14.40	-24.7	-25.5	15.9	0.00e+00	0	44	102	1048576	9	3911
2026-01-25 05:58:18.45	243.90	14.31	-24.8	-25.6	15.8	2.19e-03	0	44	102	1048576	9	3944
2026-01-25 05:58:19.46	243.80	14.22	-24.8	-25.7	15.8	0.00e+00	0	44	102	1048576	9	3969
2026-01-25 05:58:20.47	243.70	14.13	-24.9	-25.8	15.7	2.96e-04	0	44	102	1048576	9	4002
2026-01-25 05:58:21.48	243.60	14.03	-25.0	-26.0	15.6	0.00e+00	0	44	102	1048576	9	4039
2026-01-25 05:58:22.49	243.50	13.94	-25.1	-25.8	15.4	0.00e+00	0	44	102	1048576	10	3897
2026-01-25 05:58:23.49	243.41	13.85	-25.4	-26.3	15.1	2.70e-04	0	44	102	1048576	10	4019
2026-01-25 05:58:24.50	243.31	13.76	-25.4	-26.3	15.1	0.00e+00	0	44	102	1048576	10	4028
2026-01-25 05:58:25.50	243.22	13.67	-25.3	-26.1	15.2	2.14e-03	0	44	102	1048576	10	3970
2026-01-25 05:58:26.50	243.12	13.58	-25.2	-26.0	15.3	3.75e-04	0	44	102	1048576	10	3952
2026-01-25 05:58:27.50	243.03	13.49	-25.2	-26.0	15.3	0.00e+00	0	44	102	1048576	10	3949
2026-01-25 05:58:28.51	242.93	13.40	-25.3	-26.2	15.2	2.12e-03	0	44	102	1048576	10	4001
2026-01-25 05:58:29.51	242.84	13.31	-25.4	-26.3	15.1	0.00e+00	0	44	102	1048576	10	4027
2026-01-25 05:58:30.50	242.75	13.22	-25.4	-26.4	15.1	1.99e-03	0	44	102	1048576	10	4032
2026-01-25 05:58:31.51	242.66	13.13	-25.4	-26.0	15.0	2.21e-03	0	44	102	1048576	11	3848
2026-01-25 05:58:32.52	242.57	13.04	-25.2	-26.1	15.2	9.35e-04	0	44	102	1048576	10	3954
2026-01-25 05:58:33.52	242.48	12.96	-25.3	-26.1	15.2	2.09e-03	0	44	102	1048576	10	3961
2026-01-25 05:58:34.53	242.39	12.87	-25.3	-26.1	15.2	1.99e-03	0	44	102	1048576	10	3976
2026-01-25 05:58:35.53	242.30	12.78	-25.1	-25.8	15.4	9.18e-04	0	44	102	1048576	10	3887
2026-01-25 05:58:36.54	242.21	12.69	-25.0	-26.2	15.4	1.93e-03	0	44	102	1048576	9	4094
2026-01-25 05:58:37.54	242.12	12.60	-25.0	-26.1	15.4	1.81e-03	0	44	102	1048576	9	4079
2026-01-25 05:58:38.54	242.03	12.52	-25.1	-26.2	15.4	7.85e-04	0	44	102	1048576	9	4101
2026-01-25 05:58:39.55	241.95	12.43	-25.2	-26.1	15.2	0.00e+00	0	44	102	1048576	10	3965
2026-01-25 05:58:40.56	241.86	12.34	-25.2	-25.9	15.3	1.86e-03	0	44	102	1048576	10	3919
2026-01-25 05:58:41.57	241.77	12.26	-25.0	-26.1	15.4	5.12e-04	0	44	102	1048576	9	4067
2026-01-25 05:58:42.57	241.69	12.17	-24.9	-25.9	15.5	0.00e+00	0	44	102	1048576	9	4031
2026-01-25 05:58:43.58	241.60	12.08	-25.1	-26.3	15.3	1.44e-03	0	44	102	1048576	9	4116
2026-01-25 05:58:44.58	241.52	12.00	-25.3	-26.3	15.0	0.00e+00	0	44	102	1048576	10	4011
2026-01-25 05:58:45.58	241.43	11.91	-25.3	-26.1	15.1	1.12e-03	0	44	102	1048576	10	3973
2026-01-25 05:58:46.58	241.35	11.83	-25.2	-26.0	15.2	0.00e+00	0	44	102	1048576	10	3949
2026-01-25 05:58:47.58	241.27	11.74	-25.2	-26.0	15.2	0.00e+00	0	44	102	1048576	10	3944
2026-01-25 05:58:48.58	241.19	11.66	-25.1	-25.7	15.4	7.44e-04	0	44	102	1048576	10	3876
2026-01-25 05:58:49.59	241.10	11.57	-25.0	-26.1	15.4	0.00e+00	0	44	102	1048576	9	4060
2026-01-25 05:58:50.60	241.02	11.49	-25.1	-25.7	15.3	0.00e+00	0	44	102	1048576	10	3881
2026-01-25 05:58:51.60	240.94	11.40	-25.2	-26.0	15.2	0.00e+00	0	44	102	1048576	10	3940
2026-01-25 05:58:52.61	240.86	11.32	-25.4	-26.5	14.9	0.00e+00	0	44	102	1048576	10	4058
2026-01-25 05:58:53.62	240.78	11.24	-25.5	-26.6	14.8	0.00e+00	0	44	102	1048576	10	4096
2026-01-25 05:58:54.62	240.70	11.15	-25.3	-26.1	15.1	0.00e+00	0	44	102	1048576	10	3975
2026-01-25 05:58:55.63	240.62	11.07	-25.3	-26.1	15.1	0.00e+00	0	44	102	1048576	10	3970
2026-01-25 05:58:56.63	240.54	10.99	-25.4	-26.4	14.9	0.00e+00	0	44	102	1048576	10	4036
2026-01-25 05:58:57.64	240.46	10.90	-25.4	-26.5	14.9	0.00e+00	0	44	102	1048576	10	4061
2026-01-25 05:58:58.64	240.39	10.82	-25.5	-26.7	14.7	0.00e+00	0	44	102	1048576	10	4127
2026-01-25 05:58:59.64	240.31	10.74	-25.6	-26.4	14.6	1.10e-06	0	44	102	1048576	11	3942
2026-01-25 05:59:00.65	240.23	10.66	-25.8	-26.8	14.4	1.10e-06	0	44	102	1048576	11	4052
2026-01-25 05:59:01.65	240.15	10.57	-25.9	-27.0	14.2	1.10e-06	0	44	102	1048576	11	4103
2026-01-25 05:59:02.66	240.08	10.49	-26.0	-27.4	14.1	0.00e+00	0	44	102	1048576	11	4197
2026-01-25 05:59:03.66	240.00	10.41	-26.1	-27.5	14.0	2.20e-06	0	44	102	1048576	11	4226
2026-01-25 05:59:04.66	239.93	10.33	-26.1	-27.5	14.0	0.00e+00	0	44	102	1048576	11	4227
2026-01-25 05:59:05.67	239.85	10.25	-26.1	-27.1	13.9	1.10e-06	0	44	102	1048576	12	4018
2026-01-25 05:59:06.67	239.78	10.17	-26.1	-27.1	13.8	4.50e-06	0	44	102	1048576	12	4037
2026-01-25 05:59:07.67	239.71	10.09	-26.1	-27.1	13.8	2.20e-06	0	44	102	1048576	12	4036
2026-01-25 05:59:08.67	239.63	10.01	-26.2	-27.2	13.8	2.20e-06	0	44	102	1048576	12	4052
2026-01-25 05:59:09.67	239.56	9.93	-26.1	-27.1	13.8	5.70e-06	0	44	102	1048576	12	4036
2026-01-25 05:59:10.68	239.49	9.85	-26.2	-27.3	13.7	6.80e-06	0	44	102	1048576	12	4079
2026-01-25 05:59:11.68	239.41	9.77	-26.1	-27.1	13.8	5.70e-06	0	44	102	1048576	12	4035
2026-01-25 05:59:12.69	239.34	9.69	-26.1	-27.1	13.8	6.80e-06	0	44	102	1048576	12	4021
2026-01-25 05:59:13.69	239.27	9.61	-26.1	-26.9	13.9	2.20e-06	0	44	102	1048576	12	3977
2026-01-25 05:59:14.70	239.20	9.53	-26.2	-27.3	13.6	2.20e-06	0	44	102	1048576	12	4076
2026-01-25 05:59:15.70	239.13	9.45	-26.1	-27.0	13.8	4.50e-06	0	44	102	1048576	12	3999
2026-01-25 05:59:16.71	239.06	9.37	-26.0	-26.8	13.9	1.10e-06	0	44	102	1048576	12	3956
2026-01-25 05:59:17.71	238.99	9.29	-26.0	-26.8	13.9	1.10e-06	0	44	102	1048576	12	3945
2026-01-25 05:59:18.72	238.92	9.22	-26.0	-27.3	14.0	2.20e-06	0	44	102	1048576	11	4186
2026-01-25 05:59:19.73	238.85	9.14	-26.1	-27.4	13.9	0.00e+00	0	44	102	1048576	11	4209
2026-01-25 05:59:20.73	238.78	9.06	-26.0	-27.3	14.0	1.10e-06	0	44	102	1048576	11	4169
2026-01-25 05:59:21.74	238.71	8.98	-26.0	-27.3	14.0	1.10e-06	0	44	102	1048576	11	4178
2026-01-25 05:59:22.74	238.65	8.90	-26.1	-26.9	13.8	5.70e-06	0	44	102	1048576	12	3988
2026-01-25 05:59:23.74	238.58	8.83	-26.2	-27.3	13.6	5.70e-06	0	44	102	1048576	12	4081
2026-01-25 05:59:24.75	238.51	8.75	-26.2	-27.2	13.6	3.40e-06	0	44	102	1048576	12	4050
2026-01-25 05:59:25.75	238.44	8.67	-26.1	-27.1	13.7	3.40e-06	0	44	102	1048576	12	4037
2026-01-25 05:59:26.76	238.38	8.60	-26.0	-26.9	13.8	2.20e-06	0	44	102	1048576	12	3981
2026-01-25 05:59:27.76	238.31	8.52	-26.0	-26.9	13.8	3.40e-06	0	44	102	1048576	12	3976
2026-01-25 05:59:28.77	238.24	8.44	-26.1	-27.0	13.7	1.10e-06	0	44	102	1048576	12	3998
2026-01-25 05:59:29.77	238.18	8.37	-26.1	-27.0	13.7	4.50e-06	0	44	102	1048576	12	4003
2026-01-25 05:59:30.77	238.11	8.29	-26.0	-26.9	13.8	2.20e-06	0	44	102	1048576	12	3985
2026-01-25 05:59:31.77	238.05	8.22	-26.0	-27.3	13.9	3.40e-06	0	44	102	1048576	11	4173
2026-01-25 05:59:32.78	237.99	8.14	-26.1	-27.5	13.8	2.20e-06	0	44	102	1048576	11	4229
2026-01-25 05:59:33.78	237.92	8.07	-26.0	-26.8	13.8	4.50e-06	0	44	102	1048576	12	3953
2026-01-25 05:59:34.78	237.86	7.99	-25.9	-27.1	14.0	2.20e-06	0	44	102	1048576	11	4136
2026-01-25 05:59:35.79	237.80	7.92	-25.9	-27.2	13.9	3.40e-06	0	44	102	1048576	11	4146
2026-01-25 05:59:36.79	237.73	7.84	-25.9	-27.2	13.9	1.10e-06	0	44	102	1048576	11	4154
2026-01-25 05:59:37.79	237.67	7.77	-26.0	-27.3	13.8	2.20e-06	0	44	102	1048576	11	4195
2026-01-25 05:59:38.80	237.61	7.69	-26.0	-27.3	13.8	1.10e-06	0	44	102	1048576	11	4182
2026-01-25 05:59:39.80	237.55	7.62	-26.0	-27.4	13.8	4.50e-06	0	44	102	1048576	11	4217
2026-01-25 05:59:40.81	237.48	7.54	-26.0	-27.4	13.8	3.40e-06	0	44	102	1048576	11	4212
2026-01-25 05:59:41.81	237.42	7.47	-26.2	-27.4	13.4	3.40e-06	0	44	102	1048576	12	4119
2026-01-25 05:59:42.81	237.36	7.40	-26.4	-27.7	13.2	1.83e-05	0	44	102	1048576	12	4210
2026-01-25 05:59:43.82	237.30	7.32	-26.4	-27.8	13.1	2.05e-05	0	44	102	1048576	12	4226
2026-01-25 05:59:44.83	237.24	7.25	-25.5	-27.0	11.5	2.40e-05	0	44	102	1048576	12	4256
2026-01-25 05:59:45.84	237.18	7.18	-26.4	-27.7	10.4	6.86e-05	0	44	102	1048576	13	4183
2026-01-25 05:59:46.84	237.12	7.10	-26.5	-28.1	12.8	5.60e-05	0	44	102	1048576	12	4310
2026-01-25 05:59:47.84	237.06	7.03	-32.4	-41.5	3.8	8.35e-01	0	44	104	1048576	24	10266
2026-01-25 05:59:48.85	237.00	6.96	-33.0	-42.8	3.8	8.47e-01	0	44	104	1048576	25	11198
2026-01-25 05:59:49.86	236.94	6.89	-33.3	-42.9	3.8	8.45e-01	0	44	104	1048576	26	10935

#Closed at: 2026-01-25 05:59:50
#Recorded file [1 MB]: D:/data/31010_260125_084842.dat