passes_logs/2026/01/25/R2M6_AANII_01/R2M6_AANII_01__20260125_030841_SUOMI_NPP_rec.log

#Pass ID: 20260125_030841_SUOMI NPP
#Satellite: SUOMI NPP
#Configuration: NPP
#almurnet v.1.7.20240730
#Start time: 2026-01-25 03:08:41

#Version: 2.2.20231116
#Station: R2M6_AANII_01
#Location: 30.233357 lon 59.946436 lat
#TLE: 1 37849U 11061A   26024.54906732  .00000185  00000+0  10878-3 0  9990
#TLE: 2 37849  98.7821 326.5159 0002200  47.3746 312.7615 14.19529340738061

#Time	Az	El	Level	Level2	SNR	BER	BlckErr	Temp	State	Recorded	gain1	gain2
2026-01-25 03:08:41.28	8.10	7.01	-32.6	-42.2	3.8	1.49e+00	0	41	0	0	25	10876
2026-01-25 03:08:42.28	7.98	7.06	-32.2	-39.5	4.3	1.38e+00	0	41	104	0	24	8276
2026-01-25 03:08:43.29	7.86	7.11	-32.2	-39.2	5.3	5.89e-01	0	41	0	0	24	8056
2026-01-25 03:08:44.30	7.74	7.17	-32.2	-39.3	5.3	5.65e-01	0	41	0	1048576	24	8133
2026-01-25 03:08:45.30	7.62	7.22	-32.2	-39.1	5.3	5.40e-01	0	41	0	3145728	24	7985
2026-01-25 03:08:46.31	7.49	7.27	-32.2	-38.9	5.5	4.94e-01	0	41	0	5242880	24	7791
2026-01-25 03:08:47.32	7.37	7.32	-32.2	-39.2	5.4	5.09e-01	0	41	0	7340032	24	7991
2026-01-25 03:08:48.32	7.25	7.37	-32.3	-39.4	5.3	5.22e-01	0	42	0	9437184	24	8155
2026-01-25 03:08:49.32	7.12	7.43	-32.3	-39.7	5.1	6.50e-01	0	42	0	10485760	24	8397
2026-01-25 03:08:50.33	7.00	7.48	-32.2	-38.7	5.6	5.30e-01	0	42	0	12582912	24	7656
2026-01-25 03:08:51.33	6.88	7.53	-32.0	-37.6	6.4	3.01e-01	0	42	0	14680064	24	6887
2026-01-25 03:08:52.33	6.75	7.58	-31.8	-37.1	7.1	1.81e-01	0	42	0	16777216	23	6588
2026-01-25 03:08:53.34	6.63	7.63	-31.6	-36.1	7.9	1.01e-01	0	42	0	18874368	23	6015
2026-01-25 03:08:54.33	6.50	7.68	-31.4	-35.3	8.6	4.55e-02	0	42	0	19922944	23	5606
2026-01-25 03:08:55.33	6.38	7.73	-31.2	-35.0	9.2	2.85e-02	0	42	0	22020096	22	5548
2026-01-25 03:08:56.35	6.25	7.79	-31.1	-34.6	9.5	1.88e-02	0	42	0	24117248	22	5382
2026-01-25 03:08:57.35	6.12	7.84	-31.0	-34.0	9.9	1.22e-02	0	42	102	25165824	22	5126
2026-01-25 03:08:58.35	5.99	7.89	-30.9	-34.3	10.0	1.00e-02	0	42	102	25165824	21	5345
2026-01-25 03:08:59.35	5.87	7.94	-30.9	-34.5	10.0	1.02e-02	0	42	102	25165824	21	5412
2026-01-25 03:09:00.36	5.74	7.99	-31.1	-34.5	9.6	8.81e-03	0	42	102	25165824	22	5336
2026-01-25 03:09:01.36	5.61	8.04	-31.2	-34.7	9.5	1.85e-02	0	42	102	25165824	22	5434
2026-01-25 03:09:02.37	5.48	8.09	-31.0	-34.1	10.0	1.16e-02	0	42	102	25165824	22	5140
2026-01-25 03:09:03.38	5.35	8.15	-30.9	-33.9	10.1	7.51e-03	0	42	102	25165824	22	5070
2026-01-25 03:09:04.38	5.22	8.20	-30.8	-34.1	10.3	5.51e-03	0	42	102	25165824	21	5242
2026-01-25 03:09:05.38	5.09	8.25	-30.9	-34.2	10.2	7.74e-03	0	42	102	25165824	21	5302
2026-01-25 03:09:06.37	4.96	8.30	-30.9	-34.3	10.1	5.87e-03	0	42	102	25165824	21	5347
2026-01-25 03:09:07.37	4.83	8.35	-31.1	-34.6	9.6	1.07e-02	0	42	102	25165824	22	5372
2026-01-25 03:09:08.37	4.70	8.40	-31.2	-34.9	9.4	1.78e-02	0	42	102	25165824	22	5485
2026-01-25 03:09:09.37	4.56	8.45	-31.1	-34.6	9.5	1.44e-02	0	42	102	25165824	22	5377
2026-01-25 03:09:10.36	4.43	8.50	-31.0	-34.2	9.9	1.19e-02	0	42	102	25165824	22	5183
2026-01-25 03:09:11.36	4.30	8.55	-31.0	-34.5	10.0	7.12e-03	0	42	102	25165824	21	5406
2026-01-25 03:09:12.37	4.16	8.60	-30.9	-33.8	10.1	6.90e-03	0	42	102	25165824	22	5032
2026-01-25 03:09:13.37	4.03	8.65	-30.8	-34.1	10.3	8.01e-03	0	42	102	25165824	21	5217
2026-01-25 03:09:14.37	3.90	8.70	-30.8	-33.9	10.5	6.33e-03	0	42	102	25165824	21	5152
2026-01-25 03:09:15.38	3.76	8.76	-30.8	-34.1	10.4	5.23e-03	0	42	102	25165824	21	5238
2026-01-25 03:09:16.38	3.62	8.81	-30.8	-34.0	10.4	7.64e-03	0	42	102	25165824	21	5175
2026-01-25 03:09:17.39	3.49	8.86	-30.9	-34.2	10.3	8.88e-03	0	42	102	25165824	21	5272
2026-01-25 03:09:18.38	3.35	8.91	-30.9	-34.2	10.3	6.06e-03	0	42	102	25165824	21	5274
2026-01-25 03:09:19.39	3.21	8.96	-30.9	-34.2	10.3	5.68e-03	0	42	102	25165824	21	5287
2026-01-25 03:09:20.39	3.08	9.01	-30.9	-33.7	10.4	9.60e-03	0	42	102	25165824	22	4958
2026-01-25 03:09:21.39	2.94	9.06	-31.0	-34.0	10.1	5.47e-03	0	42	102	25165824	22	5103
2026-01-25 03:09:22.40	2.80	9.11	-30.9	-34.2	10.3	5.98e-03	0	42	102	25165824	21	5280
2026-01-25 03:09:23.40	2.66	9.16	-30.7	-33.6	10.7	5.76e-03	0	42	102	25165824	21	5038
2026-01-25 03:09:24.40	2.52	9.21	-30.6	-33.4	10.8	2.74e-03	0	43	102	25165824	21	4958
2026-01-25 03:09:25.40	2.38	9.26	-30.6	-33.3	10.9	2.65e-03	0	42	102	25165824	21	4917
2026-01-25 03:09:26.41	2.24	9.31	-30.7	-33.6	10.8	2.39e-03	0	42	102	25165824	21	5007
2026-01-25 03:09:27.41	2.10	9.36	-30.8	-34.0	10.5	3.39e-03	0	43	102	25165824	21	5202
2026-01-25 03:09:28.41	1.96	9.41	-31.0	-34.5	10.1	5.52e-03	0	43	102	25165824	21	5392
2026-01-25 03:09:29.42	1.81	9.46	-31.1	-34.5	9.8	8.61e-03	0	42	102	25165824	22	5318
2026-01-25 03:09:30.43	1.67	9.51	-31.3	-35.0	9.5	1.33e-02	0	43	102	25165824	22	5523
2026-01-25 03:09:31.42	1.53	9.56	-31.2	-34.7	9.6	1.68e-02	0	43	102	25165824	22	5403
2026-01-25 03:09:32.42	1.38	9.61	-31.3	-35.1	9.4	1.48e-02	0	43	102	25165824	22	5568
2026-01-25 03:09:33.43	1.24	9.66	-31.3	-35.1	9.3	1.68e-02	0	43	102	25165824	22	5596
2026-01-25 03:09:34.44	1.09	9.71	-31.3	-35.0	9.4	1.87e-02	0	43	102	25165824	22	5514
2026-01-25 03:09:35.43	0.95	9.76	-31.3	-35.0	9.4	1.58e-02	0	43	102	25165824	22	5534
2026-01-25 03:09:36.44	0.80	9.81	-31.3	-35.0	9.3	2.18e-02	0	42	102	25165824	22	5539
2026-01-25 03:09:37.45	0.66	9.86	-31.3	-35.1	9.4	1.70e-02	0	43	102	25165824	22	5558
2026-01-25 03:09:38.46	0.51	9.91	-31.3	-35.1	9.4	1.57e-02	0	43	102	25165824	22	5597
2026-01-25 03:09:39.46	0.36	9.95	-31.3	-35.2	9.3	1.74e-02	0	43	102	25165824	22	5614
2026-01-25 03:09:40.47	0.21	10.00	-31.4	-35.3	9.2	2.23e-02	0	43	102	25165824	22	5653
2026-01-25 03:09:41.47	0.06	10.05	-31.1	-34.2	9.9	1.44e-02	0	43	102	25165824	22	5187
2026-01-25 03:09:42.47	359.92	10.10	-30.9	-33.8	10.3	5.76e-03	0	43	102	25165824	22	4996
2026-01-25 03:09:43.47	359.77	10.15	-30.8	-33.7	10.7	3.54e-03	0	43	102	25165824	21	5061
2026-01-25 03:09:44.48	359.62	10.20	-30.6	-33.4	11.0	2.29e-03	0	43	102	25165824	21	4933
2026-01-25 03:09:45.48	359.47	10.25	-30.7	-33.6	10.8	2.55e-03	0	43	102	25165824	21	5012
2026-01-25 03:09:46.48	359.32	10.30	-30.6	-33.3	11.0	2.91e-03	0	43	102	25165824	21	4920
2026-01-25 03:09:47.48	359.16	10.34	-30.7	-33.5	10.9	1.84e-03	0	43	102	25165824	21	4980
2026-01-25 03:09:48.49	359.01	10.39	-30.7	-33.6	10.8	2.66e-03	0	43	102	25165824	21	5012
2026-01-25 03:09:49.49	358.86	10.44	-30.5	-33.0	11.2	1.44e-03	0	43	102	25165824	21	4791
2026-01-25 03:09:50.50	358.71	10.49	-30.5	-32.9	11.3	1.03e-03	0	43	102	25165824	21	4742
2026-01-25 03:09:51.50	358.55	10.54	-30.4	-32.5	11.6	1.04e-03	0	43	102	25165824	21	4608
2026-01-25 03:09:52.50	358.40	10.58	-30.3	-32.9	11.7	6.61e-04	0	43	102	25165824	20	4842
2026-01-25 03:09:53.50	358.25	10.63	-30.4	-33.0	11.6	7.12e-04	0	43	102	25165824	20	4863
2026-01-25 03:09:54.50	358.09	10.68	-29.3	-31.9	11.4	7.04e-04	0	43	102	25165824	20	4842
2026-01-25 03:09:55.51	357.93	10.73	-30.2	-32.6	11.4	4.29e-04	0	43	102	25165824	20	4713
2026-01-25 03:09:56.51	357.78	10.77	-30.3	-32.8	11.6	4.96e-04	0	43	102	25165824	20	4819
2026-01-25 03:09:57.51	357.62	10.82	-30.4	-33.0	11.2	6.09e-04	0	43	102	25165824	20	4877
2026-01-25 03:09:58.51	357.47	10.87	-30.2	-32.5	11.6	5.27e-04	0	43	102	25165824	20	4705
2026-01-25 03:09:59.51	357.31	10.91	-30.2	-32.5	12.0	3.55e-04	0	43	102	25165824	20	4675
2026-01-25 03:10:00.52	357.15	10.96	-30.3	-32.6	11.9	3.59e-04	0	43	102	25165824	20	4739
2026-01-25 03:10:01.52	356.99	11.01	-30.1	-32.2	12.2	3.87e-04	0	43	102	25165824	20	4596
2026-01-25 03:10:02.52	356.83	11.06	-30.0	-32.0	12.3	2.48e-04	0	43	102	25165824	20	4500
2026-01-25 03:10:03.53	356.67	11.10	-30.0	-32.2	12.6	1.31e-04	0	43	102	25165824	19	4678
2026-01-25 03:10:04.54	356.51	11.15	-30.1	-32.0	12.3	1.19e-04	0	43	102	25165824	20	4524
2026-01-25 03:10:05.54	356.35	11.19	-30.2	-32.5	12.0	3.74e-04	0	43	102	25165824	20	4701
2026-01-25 03:10:06.55	356.19	11.24	-30.3	-32.7	11.9	3.33e-04	0	43	102	25165824	20	4743
2026-01-25 03:10:07.56	356.03	11.29	-30.3	-32.9	11.7	4.85e-04	0	43	102	25165824	20	4817
2026-01-25 03:10:08.31	355.90	11.32	-30.4	-33.1	11.6	5.39e-04	0	43	102	25165824	20	4901
2026-01-25 03:10:09.60	355.70	11.38	-30.4	-33.1	11.6	2.30e-03	0	43	102	25165824	20	4895
2026-01-25 03:10:10.32	355.58	11.41	-30.4	-33.1	11.6	6.06e-04	0	43	102	25165824	20	4911
2026-01-25 03:10:11.62	355.37	11.47	-30.3	-32.6	11.9	5.05e-04	0	43	102	25165824	20	4727
2026-01-25 03:10:12.33	355.25	11.50	-30.2	-32.5	12.0	1.71e-03	0	43	102	25165824	20	4686
2026-01-25 03:10:13.62	355.04	11.56	-30.5	-33.3	11.5	6.29e-04	0	43	102	25165824	20	4995
2026-01-25 03:10:14.34	354.92	11.59	-30.5	-32.7	11.5	9.23e-04	0	43	102	25165824	21	4668
2026-01-25 03:10:15.64	354.70	11.65	-30.3	-32.7	11.9	1.77e-03	0	43	102	25165824	20	4769
2026-01-25 03:10:16.35	354.59	11.68	-30.3	-32.8	11.9	1.52e-03	0	43	102	25165824	20	4772
2026-01-25 03:10:17.65	354.37	11.74	-30.3	-32.7	11.9	5.38e-04	0	43	102	25165824	20	4757
2026-01-25 03:10:18.37	354.25	11.77	-30.2	-32.5	12.0	4.10e-04	0	43	102	25165824	20	4696
2026-01-25 03:10:19.66	354.03	11.83	-30.0	-32.0	12.4	1.17e-03	0	43	102	25165824	20	4506
2026-01-25 03:10:20.38	353.91	11.86	-30.0	-31.9	12.4	2.04e-04	0	43	102	25165824	20	4465
2026-01-25 03:10:21.67	353.70	11.92	-30.0	-32.0	12.4	8.70e-04	0	43	102	25165824	20	4506
2026-01-25 03:10:22.39	353.57	11.95	-30.1	-32.1	12.3	9.13e-04	0	43	102	25165824	20	4540
2026-01-25 03:10:23.68	353.36	12.01	-30.2	-32.5	12.1	2.33e-04	0	43	102	25165824	20	4675
2026-01-25 03:10:24.39	353.24	12.04	-30.2	-32.5	12.0	7.24e-04	0	43	102	25165824	20	4700
2026-01-25 03:10:25.68	353.02	12.09	-30.3	-32.9	11.7	8.30e-04	0	43	102	25165824	20	4839
2026-01-25 03:10:26.39	352.89	12.12	-30.3	-32.8	11.8	6.16e-04	0	43	102	25165824	20	4785
2026-01-25 03:10:27.68	352.67	12.18	-30.1	-32.1	12.3	2.33e-04	0	43	102	25165824	20	4557
2026-01-25 03:10:28.40	352.55	12.21	-30.0	-31.8	12.5	1.78e-04	0	43	102	25165824	20	4459
2026-01-25 03:10:29.69	352.33	12.26	-29.9	-31.5	12.8	9.99e-05	0	43	102	25165824	20	4340
2026-01-25 03:10:30.41	352.20	12.29	-30.0	-32.3	12.6	4.84e-04	0	43	102	25165824	19	4696
2026-01-25 03:10:31.70	351.98	12.35	-29.8	-31.4	12.8	7.62e-05	0	43	102	25165824	20	4309
2026-01-25 03:10:32.42	351.85	12.38	-29.7	-31.1	13.0	5.11e-05	0	43	102	25165824	20	4221
2026-01-25 03:10:33.72	351.63	12.43	-29.8	-31.8	12.9	3.50e-05	0	43	102	25165824	19	4520
2026-01-25 03:10:34.44	351.50	12.46	-29.6	-31.2	13.4	3.98e-04	0	43	102	25165824	19	4320
2026-01-25 03:10:35.73	351.27	12.52	-29.5	-30.9	13.5	5.30e-06	0	43	102	25165824	19	4237
2026-01-25 03:10:36.45	351.15	12.54	-29.4	-30.7	13.7	3.71e-04	0	43	102	25165824	19	4165
2026-01-25 03:10:37.74	350.92	12.60	-29.4	-30.6	13.8	1.50e-06	0	43	102	25165824	19	4137
2026-01-25 03:10:38.46	350.79	12.63	-29.4	-30.6	13.8	2.20e-06	0	43	102	25165824	19	4131
2026-01-25 03:10:39.76	350.56	12.68	-29.4	-31.1	13.8	7.64e-04	0	43	102	25165824	18	4391
2026-01-25 03:10:40.48	350.43	12.71	-29.6	-31.1	13.5	9.57e-04	0	43	102	25165824	19	4286
2026-01-25 03:10:41.77	350.20	12.76	-29.7	-31.5	13.2	2.28e-05	0	43	102	25165824	19	4425
2026-01-25 03:10:42.50	350.07	12.79	-29.9	-32.1	12.8	3.66e-05	0	43	102	25165824	19	4615
2026-01-25 03:10:43.79	349.84	12.84	-30.0	-31.7	12.7	8.31e-05	0	43	102	25165824	20	4395
2026-01-25 03:10:44.52	349.71	12.87	-29.9	-31.5	12.8	7.85e-05	0	43	102	25165824	20	4324
2026-01-25 03:10:45.81	349.48	12.92	-29.9	-31.5	12.8	6.71e-05	0	43	102	25165824	20	4320
2026-01-25 03:10:46.54	349.34	12.95	-29.9	-31.7	12.7	6.94e-05	0	44	102	25165824	20	4386
2026-01-25 03:10:47.84	349.11	13.00	-30.1	-32.1	12.3	1.14e-04	0	43	102	25165824	20	4517
2026-01-25 03:10:48.56	348.98	13.03	-30.1	-32.2	12.3	1.51e-04	0	43	102	25165824	20	4557
2026-01-25 03:10:49.85	348.74	13.07	-30.1	-32.2	12.3	1.40e-04	0	43	102	25165824	20	4566
2026-01-25 03:10:50.56	348.61	13.10	-30.2	-32.4	12.2	1.52e-04	0	43	102	25165824	20	4634
2026-01-25 03:10:51.85	348.38	13.15	-30.2	-32.4	12.0	1.75e-04	0	43	102	25165824	20	4628
2026-01-25 03:10:52.57	348.24	13.18	-30.2	-32.4	12.2	2.14e-04	0	43	102	25165824	20	4649
2026-01-25 03:10:53.85	348.01	13.23	-30.2	-32.3	12.0	1.88e-04	0	43	102	25165824	20	4605
2026-01-25 03:10:54.57	347.87	13.25	-30.2	-32.5	12.1	1.12e-03	0	44	102	25165824	20	4672
2026-01-25 03:10:55.86	347.64	13.30	-30.2	-32.3	12.3	2.11e-04	0	43	102	25165824	20	4597
2026-01-25 03:10:56.57	347.50	13.33	-30.2	-32.3	12.3	1.79e-04	0	43	102	25165824	20	4583
2026-01-25 03:10:57.87	347.26	13.37	-30.3	-32.7	12.0	2.29e-04	0	43	102	25165824	20	4742
2026-01-25 03:10:58.59	347.13	13.40	-30.3	-32.5	12.1	2.46e-04	0	43	102	25165824	20	4687
2026-01-25 03:10:59.88	346.89	13.44	-30.2	-32.5	12.1	2.62e-04	0	43	102	25165824	20	4667
2026-01-25 03:11:00.60	346.75	13.47	-30.1	-32.0	12.4	1.91e-04	0	43	102	25165824	20	4516
2026-01-25 03:11:01.89	346.51	13.52	-29.8	-31.4	12.9	3.81e-05	0	43	102	25165824	20	4292
2026-01-25 03:11:02.60	346.37	13.54	-29.7	-31.1	13.1	2.97e-05	0	43	102	25165824	20	4200
2026-01-25 03:11:03.90	346.13	13.59	-29.7	-31.3	13.3	1.30e-03	0	43	102	25165824	19	4359
2026-01-25 03:11:04.62	345.99	13.61	-29.7	-31.5	13.2	1.90e-05	0	43	102	25165824	19	4398
2026-01-25 03:11:05.92	345.75	13.66	-29.8	-31.6	13.2	1.83e-05	0	44	102	25165824	19	4436
2026-01-25 03:11:06.63	345.61	13.68	-29.8	-31.8	13.0	3.20e-05	0	43	102	25165824	19	4507
2026-01-25 03:11:07.92	345.36	13.72	-29.9	-32.0	12.9	3.43e-05	0	43	102	25165824	19	4589
2026-01-25 03:11:08.64	345.23	13.75	-29.9	-32.0	12.9	5.11e-05	0	44	102	25165824	19	4585
2026-01-25 03:11:09.93	344.98	13.79	-29.8	-31.7	13.1	5.11e-05	0	44	102	25165824	19	4457
2026-01-25 03:11:10.65	344.84	13.81	-29.7	-31.4	13.3	2.82e-05	0	44	102	25165824	19	4386
2026-01-25 03:11:11.94	344.59	13.86	-29.5	-31.0	13.6	9.90e-06	0	43	102	25165824	19	4245
2026-01-25 03:11:12.66	344.45	13.88	-29.5	-30.8	13.7	6.80e-06	0	44	102	25165824	19	4174
2026-01-25 03:11:13.94	344.21	13.92	-29.7	-31.4	13.4	1.44e-05	0	43	102	25165824	19	4368
2026-01-25 03:11:14.67	344.06	13.94	-29.7	-31.3	13.4	1.22e-05	0	43	102	25165824	19	4343
2026-01-25 03:11:15.96	343.81	13.98	-29.9	-32.0	12.9	3.81e-05	0	44	102	25165824	19	4584
2026-01-25 03:11:16.67	343.68	14.01	-30.0	-31.7	12.7	5.34e-05	0	43	102	25165824	20	4396
2026-01-25 03:11:17.98	343.42	14.05	-30.1	-32.2	12.4	1.79e-03	0	44	102	25165824	20	4557
2026-01-25 03:11:18.70	343.28	14.07	-30.3	-32.6	12.1	2.03e-03	0	44	102	25165824	20	4708
2026-01-25 03:11:19.99	343.03	14.11	-30.0	-31.8	12.6	1.07e-04	0	44	102	25165824	20	4414
2026-01-25 03:11:20.71	342.89	14.13	-30.0	-31.7	12.7	9.23e-05	0	43	102	25165824	20	4402
2026-01-25 03:11:22.00	342.63	14.17	-29.8	-31.8	13.0	2.18e-03	0	44	102	25165824	19	4515
2026-01-25 03:11:22.72	342.49	14.19	-29.8	-31.6	13.2	2.67e-05	0	43	102	25165824	19	4458
2026-01-25 03:11:24.01	342.23	14.23	-29.6	-31.2	13.5	2.34e-03	0	44	102	25165824	19	4311
2026-01-25 03:11:24.74	342.09	14.25	-29.6	-31.0	13.6	1.06e-05	0	44	102	25165824	19	4262
2026-01-25 03:11:26.03	341.83	14.29	-29.6	-31.0	13.6	4.50e-06	0	43	102	25165824	19	4238
2026-01-25 03:11:26.75	341.69	14.31	-29.5	-30.9	13.6	6.80e-06	0	44	102	25165824	19	4226
2026-01-25 03:11:28.04	341.43	14.34	-29.6	-31.1	13.5	2.02e-03	0	44	102	25165824	19	4253
2026-01-25 03:11:28.76	341.29	14.36	-29.3	-30.3	14.1	3.80e-06	0	43	102	25165824	19	4032
2026-01-25 03:11:30.06	341.03	14.40	-29.0	-30.1	14.5	1.50e-06	0	44	102	25165824	18	4056
2026-01-25 03:11:30.77	340.89	14.42	-29.1	-30.3	14.4	0.00e+00	0	43	102	25165824	18	4128
2026-01-25 03:11:32.08	340.63	14.45	-29.2	-30.5	14.3	7.00e-07	0	43	102	25165824	18	4184
2026-01-25 03:11:32.79	340.48	14.47	-29.3	-30.6	14.1	2.32e-03	0	44	102	25165824	18	4226
2026-01-25 03:11:34.08	340.22	14.50	-29.5	-30.7	13.8	2.16e-03	0	43	102	25165824	19	4156
2026-01-25 03:11:34.80	340.08	14.52	-29.5	-30.8	13.7	6.10e-06	0	44	102	25165824	19	4194
2026-01-25 03:11:36.09	339.82	14.55	-29.5	-30.8	13.8	2.21e-03	0	43	102	25165824	19	4165
2026-01-25 03:11:36.81	339.67	14.57	-29.5	-30.7	13.8	2.00e-03	0	44	102	25165824	19	4157
2026-01-25 03:11:38.10	339.41	14.60	-29.1	-29.8	14.4	0.00e+00	0	44	102	25165824	19	3891
2026-01-25 03:11:38.82	339.26	14.62	-29.1	-30.1	14.5	2.01e-03	0	43	102	25165824	18	4071
2026-01-25 03:11:40.12	339.00	14.65	-29.1	-30.3	14.4	7.00e-07	0	44	102	25165824	18	4120
2026-01-25 03:11:40.83	338.85	14.67	-29.2	-30.4	14.3	7.00e-07	0	44	102	25165824	18	4152
2026-01-25 03:11:42.12	338.59	14.70	-29.5	-31.2	13.8	2.21e-03	0	44	102	25165824	18	4407
2026-01-25 03:11:42.84	338.44	14.72	-29.7	-31.3	13.4	2.19e-03	0	44	102	25165824	19	4329
2026-01-25 03:11:44.13	338.18	14.74	-29.9	-31.8	13.1	2.97e-05	0	44	102	25165824	19	4493
2026-01-25 03:11:44.85	338.03	14.76	-29.9	-31.6	12.9	3.28e-05	0	44	102	25165824	20	4333
2026-01-25 03:11:46.14	337.77	14.79	-30.0	-32.1	12.9	2.06e-03	0	44	102	25165824	19	4605
2026-01-25 03:11:46.86	337.62	14.80	-29.9	-31.5	12.9	4.34e-05	0	44	102	25165824	20	4311
2026-01-25 03:11:48.15	337.35	14.83	-29.9	-31.4	13.0	4.65e-05	0	44	102	25165824	20	4284
2026-01-25 03:11:48.87	337.21	14.85	-29.9	-31.8	13.1	2.20e-03	0	44	102	25165824	19	4486
2026-01-25 03:11:50.17	336.94	14.87	-29.8	-31.3	13.1	3.89e-05	0	44	102	25165824	20	4252
2026-01-25 03:11:50.88	336.79	14.89	-29.9	-31.3	13.0	2.28e-03	0	44	102	25165824	20	4269
2026-01-25 03:11:52.18	336.52	14.91	-30.0	-32.1	12.9	3.66e-05	0	44	102	25165824	19	4612
2026-01-25 03:11:52.90	336.37	14.93	-30.1	-32.1	12.5	4.95e-05	0	44	102	25165824	20	4507
2026-01-25 03:11:54.18	336.11	14.95	-30.1	-32.1	12.5	1.35e-04	0	44	102	25165824	20	4518
2026-01-25 03:11:54.91	335.95	14.97	-30.1	-32.1	12.5	2.19e-03	0	44	102	25165824	20	4528
2026-01-25 03:11:56.20	335.69	14.99	-30.2	-32.2	12.5	9.76e-05	0	44	102	25165824	20	4532
2026-01-25 03:11:56.92	335.53	15.00	-30.1	-32.0	12.5	2.31e-03	0	44	102	25165824	20	4482
2026-01-25 03:11:58.21	335.27	15.02	-29.8	-31.1	13.2	4.73e-05	0	44	102	25165824	20	4187
2026-01-25 03:11:58.93	335.12	15.04	-29.8	-31.1	13.2	2.82e-05	0	44	102	25165824	20	4189
2026-01-25 03:12:00.23	334.84	15.06	-29.8	-31.6	13.2	2.21e-05	0	44	102	25165824	19	4430
2026-01-25 03:12:00.94	334.69	15.07	-29.8	-31.6	13.2	2.27e-03	0	44	102	25165824	19	4421
2026-01-25 03:12:02.24	334.42	15.09	-29.6	-31.2	13.5	8.30e-06	0	44	102	25165824	19	4313
2026-01-25 03:12:02.96	334.27	15.10	-29.5	-30.9	13.7	1.14e-05	0	44	102	25165824	19	4201
2026-01-25 03:12:04.25	334.00	15.12	-29.4	-30.5	13.9	4.50e-06	0	44	102	25165824	19	4112
2026-01-25 03:12:04.97	333.85	15.13	-29.4	-30.6	13.9	3.80e-06	0	44	102	25165824	19	4119
2026-01-25 03:12:06.26	333.58	15.15	-29.4	-31.1	13.8	2.20e-06	0	44	102	25165824	18	4379
2026-01-25 03:12:06.98	333.42	15.16	-29.3	-30.9	14.0	2.22e-03	0	44	102	25165824	18	4313
2026-01-25 03:12:08.27	333.15	15.18	-29.3	-30.7	14.1	7.00e-07	0	44	102	25165824	18	4265
2026-01-25 03:12:08.99	333.00	15.19	-29.3	-30.7	14.0	2.20e-06	0	44	102	25165824	18	4268
2026-01-25 03:12:10.28	332.73	15.21	-29.5	-31.2	13.7	4.50e-06	0	44	102	25165824	18	4420
2026-01-25 03:12:11.00	332.58	15.21	-29.6	-31.1	13.6	9.10e-06	0	44	102	25165824	19	4268
2026-01-25 03:12:12.29	332.30	15.23	-29.7	-31.5	13.3	1.60e-05	0	44	102	25165824	19	4397
2026-01-25 03:12:13.01	332.15	15.24	-29.8	-31.8	13.1	1.67e-05	0	44	102	25165824	19	4505
2026-01-25 03:12:14.30	331.88	15.25	-29.8	-31.6	13.2	1.83e-05	0	44	102	25165824	19	4458
2026-01-25 03:12:15.01	331.73	15.26	-29.8	-31.7	13.1	2.10e-03	0	44	102	25165824	19	4481
2026-01-25 03:12:16.30	331.45	15.28	-29.7	-31.3	13.4	2.36e-05	0	44	102	25165824	19	4338
2026-01-25 03:12:17.02	331.30	15.28	-29.6	-31.2	13.5	1.90e-05	0	44	102	25165824	19	4307
2026-01-25 03:12:18.30	331.03	15.30	-29.8	-31.5	13.2	1.44e-05	0	44	102	25165824	19	4423
2026-01-25 03:12:19.02	330.87	15.30	-29.7	-31.5	13.2	2.51e-05	0	44	102	25165824	19	4415
2026-01-25 03:12:20.31	330.60	15.31	-29.7	-31.3	13.3	2.30e-03	0	44	102	25165824	19	4356
2026-01-25 03:12:21.02	330.45	15.32	-29.8	-31.6	13.2	2.28e-05	0	43	102	25165824	19	4455
2026-01-25 03:12:22.31	330.17	15.33	-29.9	-31.6	12.8	6.17e-05	0	44	102	25165824	20	4372
2026-01-25 03:12:23.03	330.02	15.34	-30.1	-32.1	12.4	8.23e-05	0	44	102	25165824	20	4522
2026-01-25 03:12:24.32	329.74	15.35	-30.2	-32.5	12.2	2.64e-03	0	44	102	25165824	20	4674
2026-01-25 03:12:25.04	329.59	15.35	-30.2	-32.4	12.2	2.08e-04	0	44	102	25165824	20	4629
2026-01-25 03:12:26.32	329.31	15.36	-30.3	-32.6	12.1	2.64e-04	0	44	102	25165824	20	4712
2026-01-25 03:12:27.04	329.16	15.36	-30.4	-32.9	11.9	3.64e-04	0	44	102	25165824	20	4801
2026-01-25 03:12:28.33	328.89	15.37	-30.1	-32.2	12.3	1.87e-04	0	44	102	25165824	20	4578
2026-01-25 03:12:29.04	328.73	15.38	-30.2	-32.4	12.2	1.68e-04	0	44	102	25165824	20	4635
2026-01-25 03:12:30.33	328.46	15.38	-30.1	-32.1	12.4	2.29e-03	0	44	102	25165824	20	4524
2026-01-25 03:12:31.05	328.30	15.39	-30.0	-31.7	12.7	1.04e-04	0	44	102	25165824	20	4382
2026-01-25 03:12:32.34	328.03	15.39	-29.9	-31.8	13.0	7.40e-05	0	44	102	25165824	19	4519
2026-01-25 03:12:33.07	327.87	15.39	-29.9	-32.0	12.9	5.11e-05	0	44	102	25165824	19	4586
2026-01-25 03:12:34.36	327.59	15.40	-30.1	-32.1	12.5	1.04e-04	0	44	102	25165824	20	4524
2026-01-25 03:12:35.09	327.44	15.40	-30.2	-32.7	12.0	1.31e-04	0	44	102	25165824	19	4823
2026-01-25 03:12:36.38	327.16	15.40	-30.2	-32.2	12.3	1.98e-04	0	44	102	25165824	20	4566
2026-01-25 03:12:37.10	327.01	15.41	-30.0	-31.7	12.7	1.01e-04	0	44	102	25165824	20	4395
2026-01-25 03:12:38.39	326.73	15.41	-29.9	-31.9	12.9	2.29e-03	0	44	102	25165824	19	4546
2026-01-25 03:12:39.10	326.58	15.41	-29.9	-31.8	13.0	3.81e-05	0	44	102	25165824	19	4512
2026-01-25 03:12:40.40	326.30	15.41	-29.9	-32.1	12.9	3.35e-05	0	44	102	25165824	19	4592
2026-01-25 03:12:41.12	326.14	15.41	-30.0	-32.1	12.8	6.17e-05	0	44	102	25165824	19	4608
2026-01-25 03:12:42.42	325.86	15.41	-30.0	-32.1	12.9	2.42e-03	0	44	102	25165824	19	4605
2026-01-25 03:12:43.13	325.71	15.41	-30.1	-32.2	12.4	9.61e-05	0	44	102	25165824	20	4546
2026-01-25 03:12:44.42	325.44	15.41	-30.2	-32.3	12.3	2.56e-03	0	44	102	25165824	20	4606
2026-01-25 03:12:45.14	325.28	15.41	-30.1	-31.9	12.6	1.53e-04	0	44	102	25165824	20	4461
2026-01-25 03:12:46.43	325.00	15.41	-29.9	-31.4	12.9	1.34e-04	0	44	102	25165824	20	4292
2026-01-25 03:12:47.15	324.85	15.41	-29.8	-31.7	13.1	4.11e-05	0	44	102	25165824	19	4464
2026-01-25 03:12:48.43	324.58	15.40	-29.7	-31.4	13.3	1.90e-03	0	44	102	25165824	19	4390
2026-01-25 03:12:49.17	324.42	15.40	-29.8	-31.6	13.2	2.44e-05	0	44	102	25165824	19	4431
2026-01-25 03:12:50.46	324.14	15.40	-29.6	-31.2	13.4	2.09e-03	0	44	102	25165824	19	4314
2026-01-25 03:12:51.18	323.99	15.39	-29.7	-31.3	13.4	9.10e-06	0	44	102	25165824	19	4332
2026-01-25 03:12:52.47	323.71	15.39	-29.5	-31.0	13.6	1.67e-05	0	44	102	25165824	19	4233
2026-01-25 03:12:53.18	323.56	15.39	-29.6	-31.0	13.5	2.49e-03	0	44	102	25165824	19	4251
2026-01-25 03:12:54.48	323.28	15.38	-29.5	-31.0	13.6	2.37e-03	0	44	102	25165824	19	4248
2026-01-25 03:12:55.21	323.12	15.38	-29.6	-31.3	13.5	3.80e-06	0	44	102	25165824	19	4337
2026-01-25 03:12:56.50	322.85	15.37	-29.6	-31.2	13.4	2.48e-03	0	44	102	25165824	19	4318
2026-01-25 03:12:57.21	322.69	15.37	-29.6	-31.2	13.4	2.30e-03	0	44	102	25165824	19	4329
2026-01-25 03:12:58.51	322.42	15.36	-29.7	-31.5	13.2	2.51e-05	0	44	102	25165824	19	4418
2026-01-25 03:12:59.22	322.26	15.35	-29.7	-31.4	13.3	2.12e-03	0	44	102	25165824	19	4399
2026-01-25 03:13:00.51	321.99	15.34	-29.8	-31.8	13.1	2.36e-05	0	44	102	25165824	19	4515
2026-01-25 03:13:01.23	321.84	15.34	-29.8	-31.8	13.0	5.03e-05	0	44	102	25165824	19	4517
2026-01-25 03:13:02.52	321.56	15.33	-30.1	-32.0	12.5	1.95e-03	0	44	102	25165824	20	4492
2026-01-25 03:13:03.23	321.41	15.32	-30.2	-32.3	12.3	2.13e-03	0	44	102	25165824	20	4613
2026-01-25 03:13:04.52	321.13	15.31	-30.2	-32.4	12.2	2.04e-04	0	44	102	25165824	20	4636
2026-01-25 03:13:05.24	320.98	15.30	-30.2	-32.5	12.2	2.11e-04	0	44	102	25165824	20	4665
2026-01-25 03:13:06.53	320.71	15.29	-30.3	-32.8	11.9	2.57e-03	0	44	102	25165824	20	4783
2026-01-25 03:13:07.25	320.55	15.29	-30.2	-32.4	12.1	4.19e-04	0	44	102	25165824	20	4653
2026-01-25 03:13:08.53	320.28	15.27	-30.0	-32.0	12.4	1.29e-04	0	44	102	25165824	20	4514
2026-01-25 03:13:09.25	320.13	15.26	-30.0	-31.9	12.5	2.62e-03	0	44	102	25165824	20	4475
2026-01-25 03:13:10.54	319.85	15.25	-29.8	-31.3	12.9	5.18e-05	0	44	102	25165824	20	4264
2026-01-25 03:13:11.26	319.70	15.24	-29.7	-31.6	13.2	2.39e-03	0	44	102	25165824	19	4450
2026-01-25 03:13:12.55	319.43	15.23	-29.7	-31.4	13.3	2.27e-03	0	44	102	25165824	19	4371
2026-01-25 03:13:13.27	319.27	15.22	-29.7	-31.3	13.3	1.36e-04	0	44	102	25165824	19	4371
2026-01-25 03:13:14.57	319.00	15.20	-29.7	-31.5	13.2	2.36e-05	0	44	102	25165824	19	4401
2026-01-25 03:13:15.29	318.85	15.19	-29.7	-31.5	13.2	1.50e-03	0	44	102	25165824	19	4417
2026-01-25 03:13:16.58	318.57	15.17	-29.8	-31.7	13.0	3.43e-05	0	44	102	25165824	19	4489
2026-01-25 03:13:17.30	318.42	15.16	-30.0	-32.1	12.8	1.70e-03	0	44	102	25165824	19	4627
2026-01-25 03:13:18.59	318.15	15.15	-30.0	-31.7	12.6	8.92e-05	0	44	102	25165824	20	4411
2026-01-25 03:13:19.30	318.00	15.14	-30.0	-31.8	12.6	8.23e-05	0	44	102	25165824	20	4435
2026-01-25 03:13:20.59	317.73	15.12	-30.2	-32.2	12.4	1.35e-04	0	44	102	25165824	20	4575
2026-01-25 03:13:21.31	317.58	15.11	-30.1	-32.2	12.3	1.47e-03	0	44	102	25165824	20	4550
2026-01-25 03:13:22.60	317.31	15.09	-30.2	-32.2	12.3	1.49e-04	0	44	102	25165824	20	4580
2026-01-25 03:13:23.32	317.15	15.07	-30.0	-31.9	12.6	1.25e-03	0	44	102	25165824	20	4452
2026-01-25 03:13:24.61	316.88	15.05	-29.7	-30.9	13.2	2.36e-05	0	44	102	25165824	20	4145
2026-01-25 03:13:25.33	316.73	15.04	-29.5	-30.4	13.5	3.81e-05	0	44	102	25165824	20	4007
2026-01-25 03:13:26.63	316.46	15.02	-29.4	-30.6	13.8	6.10e-06	0	44	102	25165824	19	4144
2026-01-25 03:13:27.34	316.31	15.01	-29.4	-31.0	13.9	1.64e-03	0	44	102	25165824	18	4348
2026-01-25 03:13:28.63	316.04	14.98	-29.4	-31.1	13.8	7.00e-07	0	44	102	25165824	18	4366
2026-01-25 03:13:29.34	315.90	14.97	-29.4	-31.2	13.8	5.30e-06	0	44	102	25165824	18	4392
2026-01-25 03:13:30.64	315.63	14.95	-29.6	-31.2	13.4	5.30e-06	0	44	102	25165824	19	4307
2026-01-25 03:13:31.36	315.48	14.93	-29.6	-31.1	13.5	1.52e-04	0	44	102	25165824	19	4269
2026-01-25 03:13:32.65	315.21	14.91	-29.7	-31.4	13.3	1.06e-05	0	44	102	25165824	19	4363
2026-01-25 03:13:33.36	315.06	14.89	-29.7	-31.3	13.3	9.10e-06	0	44	102	25165824	19	4351
2026-01-25 03:13:34.65	314.79	14.87	-29.6	-31.2	13.4	1.14e-05	0	44	102	25165824	19	4317
2026-01-25 03:13:35.37	314.64	14.85	-29.7	-31.3	13.3	5.81e-04	0	44	102	25165824	19	4355
2026-01-25 03:13:36.65	314.38	14.83	-29.9	-31.8	13.0	2.05e-05	0	44	102	25165824	19	4525
2026-01-25 03:13:37.37	314.23	14.81	-29.9	-31.9	13.0	5.03e-05	0	44	102	25165824	19	4549
2026-01-25 03:13:38.66	313.97	14.78	-29.8	-31.6	12.4	3.20e-05	0	44	102	25165824	19	4444
2026-01-25 03:13:39.38	313.82	14.77	-29.7	-31.4	13.3	1.98e-05	0	44	102	25165824	19	4380
2026-01-25 03:13:40.67	313.55	14.74	-29.8	-31.8	12.8	2.13e-05	0	44	102	25165824	19	4492
2026-01-25 03:13:41.39	313.41	14.72	-29.9	-32.0	12.9	5.41e-05	0	44	102	25165824	19	4583
2026-01-25 03:13:42.69	313.14	14.69	-29.9	-31.6	12.7	2.67e-05	0	44	102	25165824	20	4363
2026-01-25 03:13:43.41	312.99	14.68	-30.0	-31.8	12.6	8.62e-05	0	44	102	25165824	20	4442
2026-01-25 03:13:44.69	312.73	14.64	-30.3	-32.6	12.0	1.99e-04	0	44	102	25165824	20	4712
2026-01-25 03:13:45.40	312.59	14.63	-30.2	-32.3	12.2	2.07e-03	0	44	102	25165824	20	4606
2026-01-25 03:13:46.69	312.32	14.60	-29.9	-31.5	12.7	1.57e-04	0	44	102	25165824	20	4345
2026-01-25 03:13:47.41	312.18	14.58	-29.9	-31.5	12.7	6.40e-05	0	44	102	25165824	20	4322
2026-01-25 03:13:48.70	311.92	14.55	-29.8	-31.8	13.0	3.73e-05	0	44	102	25165824	19	4520
2026-01-25 03:13:49.41	311.77	14.53	-29.6	-31.3	13.4	1.14e-05	0	44	102	25165824	19	4334
2026-01-25 03:13:50.71	311.51	14.50	-29.5	-30.8	13.7	1.14e-05	0	44	102	25165824	19	4183
2026-01-25 03:13:51.43	311.37	14.48	-29.5	-30.8	13.7	3.80e-06	0	44	102	25165824	19	4178
2026-01-25 03:13:52.71	311.11	14.44	-29.4	-31.1	13.8	4.50e-06	0	44	102	25165824	18	4360
2026-01-25 03:13:53.42	310.96	14.42	-29.6	-31.0	13.5	6.10e-06	0	44	102	25165824	19	4248
2026-01-25 03:13:54.71	310.71	14.39	-29.7	-31.5	13.2	7.40e-05	0	44	102	25165824	19	4391
2026-01-25 03:13:55.43	310.56	14.37	-29.5	-30.8	13.6	1.98e-05	0	44	102	25165824	19	4194
2026-01-25 03:13:56.72	310.30	14.33	-29.1	-30.3	14.2	1.50e-06	0	44	102	25165824	18	4144
2026-01-25 03:13:57.44	310.16	14.31	-29.1	-30.2	14.3	3.80e-06	0	44	102	25165824	18	4115
2026-01-25 03:13:58.73	309.90	14.28	-28.9	-30.3	14.4	1.06e-03	0	44	102	25165824	17	4238
2026-01-25 03:13:59.45	309.76	14.26	-29.1	-30.4	14.3	1.50e-06	0	44	102	25165824	18	4157
2026-01-25 03:14:00.75	309.50	14.22	-29.3	-31.0	13.8	1.50e-06	0	44	102	25165824	18	4337
2026-01-25 03:14:01.46	309.36	14.20	-29.4	-31.2	13.7	1.50e-06	0	44	102	25165824	18	4405
2026-01-25 03:14:02.75	309.11	14.16	-29.5	-30.9	13.5	1.59e-03	0	44	102	25165824	19	4235
2026-01-25 03:14:03.47	308.97	14.14	-29.6	-31.3	13.3	1.75e-05	0	44	102	25165824	19	4340
2026-01-25 03:14:04.75	308.71	14.10	-29.6	-31.2	13.4	1.47e-03	0	44	102	25165824	19	4314
2026-01-25 03:14:05.47	308.57	14.08	-28.6	-30.7	13.0	1.67e-05	0	44	102	25165824	18	4598
2026-01-25 03:14:06.77	308.32	14.04	-29.6	-31.3	13.3	9.90e-06	0	44	102	25165824	19	4348
2026-01-25 03:14:07.49	308.18	14.02	-29.7	-31.6	13.1	2.13e-05	0	44	102	25165824	19	4461
2026-01-25 03:14:08.78	307.93	13.98	-29.7	-31.5	13.1	1.37e-03	0	44	102	25165824	19	4411
2026-01-25 03:14:09.50	307.79	13.95	-29.6	-31.3	13.2	1.98e-05	0	44	102	25165824	19	4379
2026-01-25 03:14:10.78	307.54	13.91	-29.7	-31.5	13.0	3.81e-05	0	44	102	25165824	19	4442
2026-01-25 03:14:11.51	307.40	13.89	-29.8	-31.7	12.9	4.19e-05	0	44	102	25165824	19	4483
2026-01-25 03:14:12.80	307.15	13.85	-29.8	-31.8	12.8	4.11e-05	0	44	102	25165824	19	4516
2026-01-25 03:14:13.51	307.01	13.82	-29.8	-31.7	13.0	1.89e-03	0	44	102	25165824	19	4482
2026-01-25 03:14:14.80	306.76	13.78	-29.8	-31.8	12.9	1.81e-03	0	44	102	25165824	19	4520
2026-01-25 03:14:15.52	306.62	13.76	-29.8	-31.7	12.9	5.03e-05	0	44	102	25165824	19	4497
2026-01-25 03:14:16.80	306.38	13.72	-30.0	-31.8	12.5	1.75e-03	0	44	102	25165824	20	4457
2026-01-25 03:14:17.52	306.24	13.69	-29.9	-31.9	12.8	1.44e-03	0	44	102	25165824	19	4569
2026-01-25 03:14:18.81	305.99	13.65	-29.7	-31.4	13.1	3.05e-05	0	44	102	25165824	19	4391
2026-01-25 03:14:19.53	305.86	13.62	-29.5	-31.0	13.4	1.83e-03	0	44	102	25165824	19	4276
2026-01-25 03:14:20.83	305.61	13.58	-29.7	-31.5	13.1	2.16e-03	0	44	102	25165824	19	4424
2026-01-25 03:14:21.54	305.47	13.55	-29.7	-31.5	13.0	2.82e-05	0	44	102	25165824	19	4436
2026-01-25 03:14:22.84	305.23	13.51	-29.7	-31.6	12.9	2.40e-03	0	44	102	25165824	19	4467
2026-01-25 03:14:23.56	305.09	13.48	-29.7	-31.4	13.0	2.28e-03	0	44	102	25165824	19	4417
2026-01-25 03:14:24.84	304.85	13.44	-29.8	-31.7	12.9	4.27e-05	0	44	102	25165824	19	4499
2026-01-25 03:14:25.55	304.72	13.41	-29.7	-31.6	13.0	3.96e-05	0	44	102	25165824	19	4463
2026-01-25 03:14:26.85	304.48	13.36	-29.6	-31.4	13.1	1.98e-03	0	44	102	25165824	19	4391
2026-01-25 03:14:27.56	304.34	13.34	-29.7	-31.4	13.1	3.66e-05	0	44	102	25165824	19	4401
2026-01-25 03:14:28.85	304.10	13.29	-29.6	-31.3	13.2	3.35e-05	0	44	102	25165824	19	4366
2026-01-25 03:14:29.57	303.97	13.26	-29.6	-31.3	13.2	3.96e-05	0	44	102	25165824	19	4351
2026-01-25 03:14:30.86	303.73	13.22	-29.6	-31.2	13.2	2.05e-05	0	44	102	25165824	19	4341
2026-01-25 03:14:31.59	303.60	13.19	-29.6	-31.3	13.1	1.09e-03	0	44	102	25165824	19	4374
2026-01-25 03:14:32.88	303.36	13.14	-29.9	-32.1	12.6	1.09e-03	0	44	102	25165824	19	4631
2026-01-25 03:14:33.60	303.23	13.11	-29.8	-31.6	12.9	4.27e-05	0	44	102	25165824	19	4467
2026-01-25 03:14:34.90	302.99	13.06	-29.7	-31.5	13.0	2.36e-05	0	44	102	25165824	19	4430
2026-01-25 03:14:35.62	302.86	13.04	-29.6	-31.3	13.1	7.66e-04	0	44	102	25165824	19	4368
2026-01-25 03:14:36.91	302.62	12.99	-29.8	-31.8	12.7	5.64e-05	0	44	102	25165824	19	4531
2026-01-25 03:14:37.63	302.49	12.96	-29.9	-32.2	12.5	1.09e-03	0	44	102	25165824	19	4651
2026-01-25 03:14:38.92	302.26	12.91	-29.8	-31.7	12.8	5.18e-05	0	44	102	25165824	19	4491
2026-01-25 03:14:39.64	302.12	12.88	-29.7	-31.7	12.9	4.57e-05	0	44	102	25165824	19	4499
2026-01-25 03:14:40.94	301.89	12.83	-29.8	-32.0	12.6	6.48e-05	0	44	102	25165824	19	4605
2026-01-25 03:14:41.65	301.76	12.80	-29.9	-32.1	12.6	1.67e-03	0	44	102	25165824	19	4654
2026-01-25 03:14:42.93	301.53	12.75	-30.1	-32.2	12.1	2.49e-04	0	44	102	25165824	20	4592
2026-01-25 03:14:43.65	301.40	12.72	-30.1	-32.3	11.9	1.91e-03	0	44	102	25165824	20	4651
2026-01-25 03:14:44.94	301.17	12.67	-30.2	-32.5	11.8	4.27e-04	0	44	102	25165824	20	4711
2026-01-25 03:14:45.65	301.05	12.64	-30.2	-32.5	11.9	4.45e-04	0	44	102	25165824	20	4692
2026-01-25 03:14:46.94	300.82	12.59	-30.0	-32.1	12.1	3.40e-04	0	44	102	25165824	20	4557
2026-01-25 03:14:47.67	300.69	12.56	-30.0	-31.9	12.3	8.34e-04	0	44	102	25165824	20	4490
2026-01-25 03:14:48.96	300.46	12.50	-30.2	-32.4	11.9	3.73e-04	0	44	102	25165824	20	4672
2026-01-25 03:14:49.68	300.33	12.48	-30.0	-31.8	12.2	9.15e-04	0	44	102	25165824	20	4472
2026-01-25 03:14:50.97	300.11	12.42	-30.1	-32.2	12.1	1.85e-04	0	44	102	25165824	20	4610
2026-01-25 03:14:51.68	299.98	12.39	-30.3	-32.8	11.7	3.76e-04	0	44	102	25165824	20	4802
2026-01-25 03:14:52.97	299.76	12.34	-30.2	-32.7	11.6	4.61e-04	0	44	102	25165824	20	4779
2026-01-25 03:14:53.69	299.63	12.31	-30.4	-33.2	11.4	7.24e-04	0	44	102	25165824	20	4945
2026-01-25 03:14:54.98	299.41	12.25	-30.2	-32.5	11.8	5.03e-04	0	44	102	25165824	20	4698
2026-01-25 03:14:55.70	299.29	12.22	-30.2	-32.6	11.8	5.48e-04	0	44	102	25165824	20	4738
2026-01-25 03:14:57.00	299.06	12.17	-30.3	-33.0	11.5	6.19e-04	0	44	102	25165824	20	4880
2026-01-25 03:14:57.71	298.94	12.14	-30.4	-33.1	11.4	9.45e-04	0	44	102	25165824	20	4949
2026-01-25 03:14:59.01	298.72	12.08	-30.1	-32.5	11.8	6.06e-04	0	44	102	25165824	20	4702
2026-01-25 03:14:59.72	298.59	12.05	-30.1	-32.3	12.0	4.51e-04	0	44	102	25165824	20	4651
2026-01-25 03:15:01.01	298.37	11.99	-29.9	-31.9	12.3	3.06e-04	0	44	102	25165824	20	4494
2026-01-25 03:15:01.73	298.25	11.96	-29.9	-31.9	12.2	1.96e-04	0	44	102	25165824	20	4489
2026-01-25 03:15:03.02	298.03	11.91	-30.2	-32.8	11.6	4.97e-04	0	44	102	25165824	20	4825
2026-01-25 03:15:03.73	297.91	11.88	-30.3	-32.6	11.8	5.36e-04	0	44	102	25165824	20	4716
2026-01-25 03:15:05.03	297.69	11.82	-30.5	-32.8	11.3	1.10e-03	0	44	102	25165824	21	4690
2026-01-25 03:15:05.76	297.57	11.79	-30.3	-32.2	11.7	1.62e-03	0	44	102	25165824	21	4484
2026-01-25 03:15:07.05	297.36	11.73	-30.1	-32.2	12.1	3.52e-04	0	44	102	25165824	20	4565
2026-01-25 03:15:07.77	297.24	11.70	-30.0	-31.8	12.4	1.76e-04	0	44	102	25165824	20	4444
2026-01-25 03:15:09.05	297.02	11.64	-29.9	-31.9	12.6	8.16e-05	0	44	102	25165824	19	4544
2026-01-25 03:15:09.77	296.90	11.61	-29.7	-31.3	13.1	8.69e-05	0	44	102	25165824	19	4360
2026-01-25 03:15:11.06	296.69	11.55	-29.5	-30.8	13.5	1.06e-05	0	44	102	25165824	19	4199
2026-01-25 03:15:11.78	296.57	11.52	-29.6	-31.3	13.1	1.83e-05	0	44	102	25165824	19	4353
2026-01-25 03:15:13.07	296.36	11.46	-29.5	-31.0	13.3	1.90e-05	0	44	102	25165824	19	4260
2026-01-25 03:15:13.79	296.24	11.43	-29.7	-31.4	13.0	2.67e-05	0	44	102	25165824	19	4394
2026-01-25 03:15:15.08	296.03	11.37	-29.9	-32.0	12.6	1.04e-04	0	44	102	25165824	19	4592
2026-01-25 03:15:15.80	295.91	11.34	-30.0	-31.8	12.4	1.25e-04	0	44	102	25165824	20	4435
2026-01-25 03:15:17.08	295.71	11.28	-30.3	-32.7	11.7	3.90e-04	0	44	102	25165824	20	4768
2026-01-25 03:15:17.80	295.59	11.24	-30.3	-32.8	11.6	5.65e-04	0	44	102	25165824	20	4810
2026-01-25 03:15:19.09	295.38	11.18	-30.6	-33.2	11.1	1.70e-03	0	44	102	25165824	21	4846
2026-01-25 03:15:19.81	295.27	11.15	-30.4	-32.7	11.3	1.79e-03	0	44	102	25165824	21	4670
2026-01-25 03:15:21.10	295.06	11.09	-30.5	-33.0	11.1	1.69e-03	0	44	102	25165824	21	4795
2026-01-25 03:15:21.81	294.95	11.06	-30.5	-33.0	11.1	1.67e-03	0	44	102	25165824	21	4800
2026-01-25 03:15:23.12	294.74	11.00	-30.5	-33.0	11.0	1.89e-03	0	44	102	25165824	21	4798
2026-01-25 03:15:23.84	294.62	10.96	-30.5	-32.9	11.2	1.32e-03	0	44	102	25165824	21	4743
2026-01-25 03:15:25.13	294.42	10.90	-30.6	-33.3	10.9	2.14e-03	0	44	102	25165824	21	4929
2026-01-25 03:15:25.85	294.31	10.87	-30.6	-33.2	10.8	2.57e-03	0	44	102	25165824	21	4886
2026-01-25 03:15:27.14	294.10	10.81	-30.4	-32.6	11.3	1.31e-03	0	44	102	25165824	21	4634
2026-01-25 03:15:27.85	293.99	10.78	-30.0	-32.9	11.1	1.33e-03	0	44	102	25165824	20	5043
2026-01-25 03:15:29.14	293.79	10.71	-30.7	-33.6	10.5	4.73e-03	0	44	102	25165824	21	5047
2026-01-25 03:15:29.86	293.68	10.68	-30.8	-34.0	10.3	3.80e-03	0	44	102	25165824	21	5220
2026-01-25 03:15:31.14	293.48	10.62	-31.2	-34.9	9.2	1.20e-02	0	44	102	25165824	22	5532
2026-01-25 03:15:31.86	293.37	10.59	-31.3	-35.5	8.7	2.52e-02	0	44	102	25165824	22	5814
2026-01-25 03:15:33.15	293.17	10.52	-31.5	-35.7	8.1	6.34e-02	0	44	102	25165824	23	5813
2026-01-25 03:15:33.87	293.06	10.49	-31.6	-36.3	7.8	7.56e-02	0	44	102	25165824	23	6150
2026-01-25 03:15:35.16	292.86	10.43	-31.7	-36.6	7.5	1.15e-01	0	44	102	25165824	23	6337
2026-01-25 03:15:35.88	292.75	10.39	-31.5	-35.8	8.1	8.86e-02	0	44	102	25165824	23	5882
2026-01-25 03:15:37.17	292.56	10.33	-31.4	-35.4	8.5	4.65e-02	0	44	102	25165824	23	5669
2026-01-25 03:15:37.89	292.45	10.30	-31.4	-35.2	8.6	4.11e-02	0	44	102	25165824	23	5588
2026-01-25 03:15:39.19	292.25	10.23	-31.3	-34.8	8.9	3.95e-02	0	44	102	25165824	23	5398
2026-01-25 03:15:39.91	292.14	10.20	-31.3	-35.0	8.8	2.88e-02	0	44	102	25165824	23	5464
2026-01-25 03:15:41.20	291.95	10.14	-31.4	-35.8	8.5	3.27e-02	0	44	102	25165824	22	6000
2026-01-25 03:15:41.92	291.84	10.10	-31.2	-35.1	9.0	3.47e-02	0	44	102	25165824	22	5617
2026-01-25 03:15:43.21	291.65	10.04	-31.1	-34.6	9.4	1.83e-02	0	44	102	25165824	22	5397
2026-01-25 03:15:43.93	291.54	10.00	-31.1	-34.6	9.4	1.83e-02	0	44	102	25165824	22	5395
2026-01-25 03:15:45.21	291.35	9.94	-31.0	-34.4	9.6	1.33e-02	0	44	102	25165824	22	5302
2026-01-25 03:15:45.93	291.25	9.90	-31.0	-34.3	9.6	1.26e-02	0	44	102	25165824	22	5264
2026-01-25 03:15:47.22	291.06	9.84	-31.0	-34.4	9.5	1.33e-02	0	44	102	25165824	22	5328
2026-01-25 03:15:47.94	290.95	9.81	-31.0	-34.4	9.5	1.64e-02	0	44	102	25165824	22	5316
2026-01-25 03:15:49.23	290.76	9.74	-30.8	-33.7	10.0	9.67e-03	0	44	102	25165824	22	5001
2026-01-25 03:15:49.95	290.66	9.71	-30.8	-34.0	10.2	7.04e-03	0	44	102	25165824	21	5219
2026-01-25 03:15:51.24	290.47	9.64	-30.8	-34.0	10.1	6.34e-03	0	44	102	25165824	21	5225
2026-01-25 03:15:51.96	290.37	9.61	-30.7	-33.9	10.2	7.82e-03	0	44	102	25165824	21	5174
2026-01-25 03:15:53.25	290.18	9.54	-30.8	-34.1	10.0	1.05e-02	0	44	102	25165824	21	5276
2026-01-25 03:15:53.97	290.08	9.51	-30.8	-34.3	9.9	8.24e-03	0	44	102	25165824	21	5353
2026-01-25 03:15:55.28	289.89	9.44	-30.9	-34.6	9.6	1.04e-02	0	44	102	25165824	21	5507
2026-01-25 03:15:55.99	289.79	9.41	-30.9	-34.5	9.6	1.32e-02	0	44	102	25165824	21	5472
2026-01-25 03:15:57.29	289.61	9.34	-30.7	-33.9	10.1	7.63e-03	0	44	102	25165824	21	5209
2026-01-25 03:15:58.01	289.51	9.31	-30.5	-33.3	10.5	5.41e-03	0	44	102	25165824	21	4968
2026-01-25 03:15:59.29	289.32	9.24	-30.3	-32.7	11.0	2.13e-03	0	44	102	25165824	21	4713
2026-01-25 03:16:00.01	289.22	9.21	-30.3	-32.5	11.1	1.80e-03	0	44	102	25165824	21	4649
2026-01-25 03:16:01.31	289.04	9.14	-30.2	-32.8	11.3	1.86e-03	0	44	102	25165824	20	4831
2026-01-25 03:16:02.02	288.94	9.11	-30.2	-32.7	11.3	1.57e-03	0	44	102	25165824	20	4807
2026-01-25 03:16:03.31	288.76	9.04	-30.2	-32.7	11.3	1.46e-03	0	44	102	25165824	20	4836
2026-01-25 03:16:04.03	288.66	9.00	-30.1	-32.6	11.3	2.11e-03	0	44	102	25165824	20	4805
2026-01-25 03:16:05.32	288.49	8.94	-30.2	-33.0	11.0	1.86e-03	0	44	102	25165824	20	4974
2026-01-25 03:16:06.04	288.39	8.90	-30.3	-33.2	10.8	2.61e-03	0	44	102	25165824	20	5051
2026-01-25 03:16:07.33	288.21	8.84	-30.2	-32.8	11.1	1.73e-03	0	44	102	25165824	20	4862
2026-01-25 03:16:08.04	288.11	8.80	-30.0	-32.4	11.5	3.01e-03	0	44	102	25165824	20	4705
2026-01-25 03:16:09.32	287.94	8.74	-30.1	-32.5	11.4	8.62e-04	0	44	102	25165824	20	4752
2026-01-25 03:16:10.04	287.84	8.70	-30.1	-32.6	11.3	2.73e-03	0	44	102	25165824	20	4780
2026-01-25 03:16:11.33	287.67	8.64	-30.2	-32.8	11.1	2.84e-03	0	44	102	25165824	20	4877
2026-01-25 03:16:12.05	287.57	8.60	-30.2	-32.8	11.1	1.50e-03	0	44	102	25165824	20	4878
2026-01-25 03:16:13.34	287.40	8.53	-30.2	-33.0	10.9	1.98e-03	0	44	102	25165824	20	4964
2026-01-25 03:16:14.06	287.30	8.50	-30.3	-33.2	10.8	1.99e-03	0	44	102	25165824	20	5034
2026-01-25 03:16:15.35	287.13	8.43	-30.3	-33.2	10.8	2.63e-03	0	44	102	25165824	20	5037
2026-01-25 03:16:16.07	287.03	8.39	-30.4	-33.5	10.5	3.14e-03	0	44	102	25165824	20	5167
2026-01-25 03:16:17.35	286.86	8.33	-30.4	-33.5	10.6	3.64e-03	0	44	102	25165824	20	5151
2026-01-25 03:16:18.07	286.77	8.29	-30.4	-33.6	10.4	4.32e-03	0	44	102	25165824	20	5214
2026-01-25 03:16:19.37	286.60	8.23	-30.6	-33.9	9.8	8.81e-03	0	44	102	25165824	21	5241
2026-01-25 03:16:20.08	286.51	8.19	-30.6	-33.9	9.8	1.05e-02	0	44	102	25165824	21	5256
2026-01-25 03:16:21.37	286.34	8.12	-30.4	-33.0	10.5	5.72e-03	0	44	102	25165824	21	4864
2026-01-25 03:16:22.09	286.24	8.09	-30.3	-32.7	10.7	4.12e-03	0	44	102	25165824	21	4772
2026-01-25 03:16:23.38	286.08	8.02	-30.2	-32.5	10.9	2.56e-03	0	44	102	25165824	21	4664
2026-01-25 03:16:24.09	285.99	7.99	-30.2	-32.3	11.0	1.89e-03	0	44	102	25165824	21	4621
2026-01-25 03:16:25.38	285.82	7.92	-30.2	-32.9	11.0	1.87e-03	0	44	102	25165824	20	4913
2026-01-25 03:16:26.10	285.73	7.88	-30.1	-32.8	11.0	2.62e-03	0	44	102	25165824	20	4901
2026-01-25 03:16:27.39	285.56	7.82	-30.1	-32.7	11.0	1.81e-03	0	44	102	25165824	20	4868
2026-01-25 03:16:28.11	285.47	7.78	-30.0	-32.5	11.2	1.47e-03	0	44	102	25165824	20	4780
2026-01-25 03:16:29.40	285.31	7.71	-29.9	-32.0	11.5	8.24e-04	0	44	102	25165824	20	4612
2026-01-25 03:16:30.12	285.22	7.68	-29.9	-32.0	11.5	7.48e-04	0	44	102	25165824	20	4607
2026-01-25 03:16:31.41	285.05	7.61	-29.8	-32.2	11.1	8.12e-04	0	44	102	25165824	19	4770
2026-01-25 03:16:32.13	284.96	7.57	-29.7	-31.8	12.1	3.02e-04	0	44	102	25165824	19	4611
2026-01-25 03:16:33.41	284.80	7.51	-29.7	-32.0	11.6	3.40e-04	0	44	102	25165824	19	4672
2026-01-25 03:16:34.15	284.71	7.47	-29.6	-31.7	12.1	3.23e-04	0	44	102	25165824	19	4586
2026-01-25 03:16:35.43	284.55	7.40	-29.5	-31.2	12.5	1.79e-04	0	44	102	25165824	19	4417
2026-01-25 03:16:36.15	284.47	7.36	-29.5	-31.4	12.3	1.41e-04	0	44	102	25165824	19	4479
2026-01-25 03:16:37.44	284.31	7.30	-29.6	-31.7	12.1	2.15e-04	0	44	102	25165824	19	4577
2026-01-25 03:16:38.17	284.22	7.26	-29.7	-31.8	12.0	3.03e-04	0	44	102	25165824	19	4625
2026-01-25 03:16:39.46	284.06	7.19	-29.7	-32.0	11.9	2.92e-03	0	44	102	25165824	19	4672
2026-01-25 03:16:40.17	283.97	7.16	-29.7	-32.1	11.8	4.80e-04	0	44	102	25165824	19	4738
2026-01-25 03:16:41.46	283.82	7.09	-30.0	-32.4	11.2	7.39e-04	0	44	102	25165824	20	4754
2026-01-25 03:16:42.18	283.73	7.05	-32.3	-42.7	4.3	3.06e-03	0	44	102	25165824	24	11908
2026-01-25 03:16:43.47	283.57	6.99	-33.2	-45.6	3.8	1.49e+00	0	44	104	25165824	26	14989
2026-01-25 03:16:44.19	283.49	6.95	-33.5	-46.2	3.8	1.49e+00	0	44	104	25165824	26	15577

#Closed at: 2026-01-25 03:16:45
#Recorded file [25 MB]: D:/data/31010_260125_060843.dat