passes_logs/2026/01/25/R2M6_AANII_01/R2M6_AANII_01__20260125_154146_FENGYUN_3E_rec.log

#Pass ID: 20260125_154146_FENGYUN 3E
#Satellite: FENGYUN 3E
#Configuration: FENGYUN 3E
#almurnet v.1.7.20240730
#Start time: 2026-01-25 15:41:48

#Version: 2.2.20231116
#Station: R2M6_AANII_01
#Location: 30.233357 lon 59.946436 lat
#TLE: 1 49008U 21062A   26025.22354119 -.00000045  00000+0 -39974-6 0  9992
#TLE: 2 49008  98.7496  30.2323 0002444 117.8821 242.2603 14.19886325236299

#Time	Az	El	Level	Level2	SNR	BER	BlckErr	Temp	State	Recorded	gain1	gain2
2026-01-25 15:41:48.81	195.24	7.14	-28.4	-30.5	5.5	7.61e-01	0	42	0	0	16	4566
2026-01-25 15:41:49.80	195.30	7.21	-29.2	-31.4	5.3	7.70e-01	0	42	104	0	18	4665
2026-01-25 15:41:50.81	195.37	7.28	-28.8	-30.3	10.3	7.09e-03	0	42	0	0	18	4293
2026-01-25 15:41:51.82	195.44	7.35	-28.4	-29.4	10.9	2.93e-03	0	42	0	7340032	18	4033
2026-01-25 15:41:52.83	195.51	7.43	-27.9	-29.0	11.8	8.08e-04	0	42	0	14680064	16	4105
2026-01-25 15:41:53.83	195.57	7.50	-27.5	-28.2	12.3	2.53e-04	0	42	0	22020096	16	3898
2026-01-25 15:41:54.83	195.64	7.57	-27.0	-27.6	12.8	8.69e-05	0	42	0	28311552	15	3843
2026-01-25 15:41:55.84	195.71	7.64	-26.8	-27.5	13.1	4.92e-05	0	42	0	35651584	14	3922
2026-01-25 15:41:56.84	195.78	7.72	-26.6	-27.2	13.4	2.40e-05	0	42	0	42991616	14	3838
2026-01-25 15:41:57.85	195.85	7.79	-26.4	-26.7	13.7	9.10e-06	0	42	102	44040192	14	3706
2026-01-25 15:41:58.85	195.92	7.86	-26.4	-26.8	13.7	1.83e-05	0	42	102	44040192	14	3729
2026-01-25 15:41:59.86	195.99	7.94	-26.5	-27.4	13.6	9.10e-06	0	42	102	44040192	13	3978
2026-01-25 15:42:00.86	196.06	8.01	-26.3	-26.8	13.9	1.10e-06	0	42	102	44040192	13	3838
2026-01-25 15:42:01.86	196.13	8.08	-26.1	-26.4	14.2	1.60e-05	0	42	102	44040192	13	3743
2026-01-25 15:42:02.87	196.20	8.16	-26.1	-26.5	14.2	3.40e-06	0	42	102	44040192	13	3754
2026-01-25 15:42:03.87	196.28	8.23	-26.0	-26.4	14.2	1.10e-06	0	42	102	44040192	13	3732
2026-01-25 15:42:04.87	196.35	8.30	-26.1	-26.5	14.1	5.70e-06	0	42	102	44040192	13	3768
2026-01-25 15:42:05.87	196.42	8.38	-26.1	-26.5	14.1	1.10e-06	0	42	102	44040192	13	3762
2026-01-25 15:42:06.88	196.49	8.45	-26.3	-27.0	13.8	8.00e-06	0	42	102	44040192	13	3892
2026-01-25 15:42:07.88	196.57	8.53	-26.4	-27.2	13.7	9.10e-06	0	42	102	44040192	13	3925
2026-01-25 15:42:08.89	196.64	8.60	-26.3	-26.9	13.9	9.10e-06	0	42	102	44040192	13	3848
2026-01-25 15:42:09.89	196.71	8.68	-26.3	-27.0	13.8	3.40e-06	0	42	102	44040192	13	3885
2026-01-25 15:42:10.90	196.79	8.75	-26.4	-27.1	13.8	1.37e-05	0	42	102	44040192	13	3898
2026-01-25 15:42:11.91	196.86	8.83	-26.3	-26.8	13.9	4.50e-06	0	42	102	44040192	13	3844
2026-01-25 15:42:12.92	196.94	8.91	-26.2	-26.7	14.0	4.50e-06	0	42	102	44040192	13	3814
2026-01-25 15:42:13.92	197.01	8.98	-26.2	-26.7	14.0	8.00e-06	0	42	102	44040192	13	3809
2026-01-25 15:42:14.93	197.09	9.06	-26.4	-27.1	13.8	2.20e-06	0	43	102	44040192	13	3917
2026-01-25 15:42:15.94	197.17	9.14	-26.2	-26.7	14.1	3.40e-06	0	43	102	44040192	13	3808
2026-01-25 15:42:16.94	197.24	9.21	-26.1	-26.5	14.2	1.10e-06	0	43	102	44040192	13	3754
2026-01-25 15:42:17.94	197.32	9.29	-25.9	-26.5	14.5	0.00e+00	0	43	102	44040192	12	3862
2026-01-25 15:42:18.94	197.40	9.36	-26.0	-26.6	14.4	1.10e-06	0	42	102	44040192	12	3891
2026-01-25 15:42:19.95	197.47	9.44	-25.9	-26.5	14.5	1.10e-06	0	42	102	44040192	12	3852
2026-01-25 15:42:20.95	197.55	9.52	-25.9	-26.5	14.5	0.00e+00	0	43	102	44040192	12	3867
2026-01-25 15:42:21.95	197.63	9.60	-25.9	-26.4	14.5	1.10e-06	0	43	102	44040192	12	3843
2026-01-25 15:42:22.96	197.71	9.67	-25.8	-26.3	14.6	0.00e+00	0	43	102	44040192	12	3820
2026-01-25 15:42:23.96	197.79	9.75	-25.8	-26.3	14.6	0.00e+00	0	43	102	44040192	12	3802
2026-01-25 15:42:24.97	197.87	9.83	-25.8	-26.2	14.7	0.00e+00	0	43	102	44040192	12	3782
2026-01-25 15:42:25.97	197.95	9.91	-25.8	-26.2	14.7	0.00e+00	0	43	102	44040192	12	3793
2026-01-25 15:42:26.98	198.03	9.99	-25.6	-25.8	14.9	0.00e+00	0	43	102	44040192	12	3688
2026-01-25 15:42:27.98	198.11	10.06	-25.7	-26.1	14.8	0.00e+00	0	43	102	44040192	12	3759
2026-01-25 15:42:28.98	198.19	10.14	-25.8	-26.3	14.7	0.00e+00	0	43	102	44040192	12	3799
2026-01-25 15:42:29.99	198.27	10.22	-25.6	-25.9	14.8	2.20e-06	0	43	102	44040192	12	3720
2026-01-25 15:42:30.99	198.35	10.30	-25.6	-25.8	14.9	0.00e+00	0	43	102	44040192	12	3694
2026-01-25 15:42:32.00	198.44	10.38	-25.4	-25.8	15.3	1.10e-06	0	43	102	44040192	11	3773
2026-01-25 15:42:33.00	198.52	10.46	-25.6	-26.4	14.9	0.00e+00	0	43	102	44040192	11	3930
2026-01-25 15:42:34.01	198.60	10.54	-25.5	-26.2	15.1	0.00e+00	0	43	102	44040192	11	3879
2026-01-25 15:42:35.01	198.69	10.62	-25.6	-26.3	15.1	0.00e+00	0	43	102	44040192	11	3896
2026-01-25 15:42:36.01	198.77	10.70	-25.6	-26.4	15.0	0.00e+00	0	43	102	44040192	11	3926
2026-01-25 15:42:37.02	198.86	10.78	-25.4	-26.0	15.3	0.00e+00	0	43	102	44040192	11	3824
2026-01-25 15:42:38.03	198.94	10.86	-25.6	-26.2	15.1	0.00e+00	0	43	102	44040192	11	3880
2026-01-25 15:42:39.03	199.03	10.94	-25.6	-26.3	15.1	0.00e+00	0	43	102	44040192	11	3897
2026-01-25 15:42:40.04	199.11	11.03	-25.4	-25.9	15.3	0.00e+00	0	43	102	44040192	11	3799
2026-01-25 15:42:41.04	199.20	11.11	-25.5	-26.0	15.2	0.00e+00	0	43	102	44040192	11	3839
2026-01-25 15:42:42.04	199.29	11.19	-25.4	-25.9	15.3	0.00e+00	0	43	102	44040192	11	3797
2026-01-25 15:42:43.05	199.37	11.27	-25.4	-25.8	15.4	0.00e+00	0	43	102	44040192	11	3797
2026-01-25 15:42:44.05	199.46	11.35	-25.4	-26.0	15.3	0.00e+00	0	43	102	44040192	11	3819
2026-01-25 15:42:45.06	199.55	11.43	-25.5	-26.1	15.2	0.00e+00	0	43	102	44040192	11	3858
2026-01-25 15:42:46.07	199.64	11.52	-25.5	-26.0	15.3	0.00e+00	0	43	102	44040192	11	3824
2026-01-25 15:42:47.07	199.73	11.60	-25.5	-26.1	15.2	0.00e+00	0	43	102	44040192	11	3845
2026-01-25 15:42:48.08	199.82	11.68	-25.5	-26.2	15.2	0.00e+00	0	43	102	44040192	11	3882
2026-01-25 15:42:49.08	199.91	11.77	-25.6	-26.2	15.1	0.00e+00	0	43	102	44040192	11	3889
2026-01-25 15:42:50.08	200.00	11.85	-25.8	-26.6	14.9	0.00e+00	0	43	102	44040192	11	3985
2026-01-25 15:42:51.08	200.09	11.93	-25.6	-26.3	15.1	0.00e+00	0	43	102	44040192	11	3902
2026-01-25 15:42:52.09	200.18	12.02	-25.6	-26.3	15.1	0.00e+00	0	43	102	44040192	11	3914
2026-01-25 15:42:53.09	200.27	12.10	-25.2	-25.4	15.6	0.00e+00	0	43	102	44040192	11	3698
2026-01-25 15:42:54.09	200.37	12.18	-25.6	-26.4	15.1	0.00e+00	0	43	102	44040192	11	3929
2026-01-25 15:42:55.09	200.46	12.27	-25.6	-26.3	15.1	0.00e+00	0	43	102	44040192	11	3902
2026-01-25 15:42:56.10	200.55	12.35	-25.6	-26.4	15.1	0.00e+00	0	43	102	44040192	11	3914
2026-01-25 15:42:57.11	200.65	12.44	-25.5	-26.2	15.2	0.00e+00	0	43	102	44040192	11	3881
2026-01-25 15:42:58.11	200.74	12.52	-25.6	-26.3	15.1	0.00e+00	0	43	102	44040192	11	3890
2026-01-25 15:42:59.12	200.84	12.61	-25.7	-26.5	15.0	0.00e+00	0	43	102	44040192	11	3958
2026-01-25 15:43:00.12	200.94	12.69	-25.5	-26.1	15.3	0.00e+00	0	43	102	44040192	11	3844
2026-01-25 15:43:01.12	201.03	12.78	-25.6	-26.3	15.1	0.00e+00	0	43	102	44040192	11	3911
2026-01-25 15:43:02.13	201.13	12.87	-25.7	-26.6	15.0	0.00e+00	0	43	102	44040192	11	3979
2026-01-25 15:43:03.13	201.23	12.95	-25.6	-26.3	15.1	0.00e+00	0	43	102	44040192	11	3915
2026-01-25 15:43:04.14	201.32	13.04	-25.4	-25.9	15.4	1.14e-05	0	44	102	44040192	11	3810
2026-01-25 15:43:05.14	201.42	13.13	-25.3	-25.7	15.5	0.00e+00	0	43	102	44040192	11	3768
2026-01-25 15:43:06.14	201.52	13.21	-25.4	-26.0	15.4	0.00e+00	0	44	102	44040192	11	3819
2026-01-25 15:43:07.15	201.62	13.30	-25.4	-25.8	15.5	4.50e-06	0	44	102	44040192	11	3773
2026-01-25 15:43:08.15	201.72	13.39	-25.3	-25.6	15.5	0.00e+00	0	43	102	44040192	11	3742
2026-01-25 15:43:09.16	201.82	13.47	-25.2	-25.5	15.6	0.00e+00	0	44	102	44040192	11	3718
2026-01-25 15:43:10.16	201.92	13.56	-25.3	-25.7	15.5	2.20e-06	0	43	102	44040192	11	3769
2026-01-25 15:43:11.17	202.03	13.65	-25.3	-25.6	15.6	0.00e+00	0	43	102	44040192	11	3735
2026-01-25 15:43:12.17	202.13	13.74	-25.2	-25.5	15.7	0.00e+00	0	43	102	44040192	11	3701
2026-01-25 15:43:13.17	202.23	13.83	-25.3	-25.7	15.6	0.00e+00	0	43	102	44040192	11	3749
2026-01-25 15:43:14.17	202.34	13.92	-25.4	-25.8	15.5	0.00e+00	0	44	102	44040192	11	3768
2026-01-25 15:43:15.18	202.44	14.01	-25.1	-25.2	15.8	0.00e+00	0	44	102	44040192	11	3645
2026-01-25 15:43:16.19	202.55	14.10	-25.0	-25.0	15.9	1.14e-05	0	44	102	44040192	11	3598
2026-01-25 15:43:17.19	202.65	14.18	-25.2	-25.3	15.8	0.00e+00	0	43	102	44040192	11	3666
2026-01-25 15:43:18.19	202.76	14.27	-24.9	-24.7	16.1	0.00e+00	0	44	102	44040192	11	3524
2026-01-25 15:43:19.19	202.86	14.36	-24.9	-25.3	16.1	9.10e-06	0	43	102	44040192	10	3765
2026-01-25 15:43:20.19	202.97	14.45	-24.9	-25.3	16.1	0.00e+00	0	44	102	44040192	10	3759
2026-01-25 15:43:21.20	203.08	14.54	-24.8	-25.1	16.2	0.00e+00	0	44	102	44040192	10	3722
2026-01-25 15:43:22.20	203.19	14.64	-24.8	-25.1	16.2	8.00e-06	0	44	102	44040192	10	3723
2026-01-25 15:43:23.21	203.30	14.73	-24.9	-25.2	16.1	0.00e+00	0	44	102	44040192	10	3729
2026-01-25 15:43:24.21	203.41	14.82	-24.9	-25.2	16.2	0.00e+00	0	43	102	44040192	10	3737
2026-01-25 15:43:25.21	203.52	14.91	-24.9	-25.2	16.1	0.00e+00	0	44	102	44040192	10	3741
2026-01-25 15:43:26.21	203.63	15.00	-24.9	-25.2	16.1	0.00e+00	0	44	102	44040192	10	3747
2026-01-25 15:43:27.21	203.74	15.09	-24.9	-25.3	16.1	0.00e+00	0	44	102	44040192	10	3768
2026-01-25 15:43:28.22	203.86	15.18	-24.9	-25.3	16.1	0.00e+00	0	44	102	44040192	10	3760
2026-01-25 15:43:29.22	203.97	15.28	-24.9	-25.3	16.1	0.00e+00	0	44	102	44040192	10	3764
2026-01-25 15:43:30.22	204.08	15.37	-25.0	-25.5	16.0	0.00e+00	0	44	102	44040192	10	3814
2026-01-25 15:43:31.23	204.20	15.46	-24.9	-25.3	16.1	0.00e+00	0	44	102	44040192	10	3753
2026-01-25 15:43:32.24	204.31	15.56	-24.7	-24.9	16.3	0.00e+00	0	44	102	44040192	10	3669
2026-01-25 15:43:33.24	204.43	15.65	-24.7	-24.8	16.4	0.00e+00	0	44	102	44040192	10	3638
2026-01-25 15:43:34.25	204.55	15.74	-24.6	-24.7	16.5	0.00e+00	0	44	102	44040192	10	3627
2026-01-25 15:43:35.25	204.66	15.84	-24.6	-24.6	16.6	0.00e+00	0	44	102	44040192	10	3593
2026-01-25 15:43:36.25	204.78	15.93	-24.5	-24.5	16.6	0.00e+00	0	44	102	44040192	10	3574
2026-01-25 15:43:37.25	204.90	16.03	-24.6	-24.5	16.6	0.00e+00	0	44	102	44040192	10	3588
2026-01-25 15:43:38.26	205.02	16.12	-24.7	-24.9	16.4	0.00e+00	0	44	102	44040192	10	3668
2026-01-25 15:43:39.25	205.14	16.22	-24.5	-24.4	16.6	0.00e+00	0	44	102	44040192	10	3560
2026-01-25 15:43:40.26	205.26	16.31	-24.3	-24.5	16.8	0.00e+00	0	44	102	44040192	9	3688
2026-01-25 15:43:41.26	205.38	16.41	-24.4	-24.8	16.7	0.00e+00	0	44	102	44040192	9	3743
2026-01-25 15:43:42.27	205.51	16.50	-24.4	-24.7	16.7	0.00e+00	0	44	102	44040192	9	3733
2026-01-25 15:43:43.28	205.63	16.60	-24.4	-24.8	16.7	0.00e+00	0	44	102	44040192	9	3740
2026-01-25 15:43:44.28	205.75	16.70	-24.4	-24.6	16.8	0.00e+00	0	44	102	44040192	9	3710
2026-01-25 15:43:45.29	205.88	16.79	-24.4	-24.6	16.8	0.00e+00	0	44	102	44040192	9	3700
2026-01-25 15:43:46.29	206.01	16.89	-24.4	-24.6	16.8	0.00e+00	0	44	102	44040192	9	3701
2026-01-25 15:43:47.30	206.13	16.99	-24.3	-24.5	16.8	0.00e+00	0	44	102	44040192	9	3686
2026-01-25 15:43:48.30	206.26	17.08	-24.3	-24.6	16.8	0.00e+00	0	44	102	44040192	9	3700
2026-01-25 15:43:49.31	206.39	17.18	-24.5	-24.8	16.7	0.00e+00	0	44	102	44040192	9	3755
2026-01-25 15:43:50.31	206.52	17.28	-24.2	-24.2	17.0	0.00e+00	0	44	102	44040192	9	3612
2026-01-25 15:43:51.32	206.65	17.38	-24.3	-24.4	16.9	0.00e+00	0	44	102	44040192	9	3655
2026-01-25 15:43:52.33	206.78	17.48	-24.3	-24.4	16.9	0.00e+00	0	44	102	44040192	9	3650
2026-01-25 15:43:53.34	206.91	17.58	-24.2	-24.3	17.0	0.00e+00	0	44	102	44040192	9	3624
2026-01-25 15:43:54.34	207.04	17.67	-24.3	-24.4	16.9	0.00e+00	0	44	102	44040192	9	3665
2026-01-25 15:43:55.35	207.18	17.77	-24.3	-24.5	16.9	0.00e+00	0	44	102	44040192	9	3686
2026-01-25 15:43:56.35	207.31	17.87	-24.2	-24.3	17.0	0.00e+00	0	44	102	44040192	9	3636
2026-01-25 15:43:57.35	207.45	17.97	-24.2	-24.3	17.1	0.00e+00	0	44	102	44040192	9	3627
2026-01-25 15:43:58.36	207.58	18.07	-24.3	-24.6	16.9	0.00e+00	0	44	102	44040192	9	3695
2026-01-25 15:43:59.36	207.72	18.17	-24.4	-24.6	16.9	0.00e+00	0	44	102	44040192	9	3708
2026-01-25 15:44:00.36	207.86	18.27	-24.2	-24.3	17.0	0.00e+00	0	44	102	44040192	9	3634
2026-01-25 15:44:01.36	207.99	18.37	-24.1	-24.2	17.1	0.00e+00	0	44	102	44040192	9	3605
2026-01-25 15:44:02.37	208.13	18.47	-24.2	-24.2	17.1	0.00e+00	0	44	102	44040192	9	3617
2026-01-25 15:44:03.38	208.27	18.58	-24.2	-24.4	17.0	0.00e+00	0	44	102	44040192	9	3645
2026-01-25 15:44:04.38	208.41	18.68	-24.1	-24.1	17.2	0.00e+00	0	44	102	44040192	9	3581
2026-01-25 15:44:05.39	208.56	18.78	-24.1	-24.0	17.2	0.00e+00	0	44	102	44040192	9	3566
2026-01-25 15:44:06.39	208.70	18.88	-24.2	-24.2	17.1	0.00e+00	0	44	102	44040192	9	3613
2026-01-25 15:44:07.38	208.84	18.98	-23.9	-24.1	17.4	0.00e+00	0	44	102	44040192	8	3692
2026-01-25 15:44:08.39	208.99	19.09	-23.9	-24.0	17.4	0.00e+00	0	44	102	44040192	8	3671
2026-01-25 15:44:09.39	209.13	19.19	-23.9	-24.1	17.4	0.00e+00	0	44	102	44040192	8	3690
2026-01-25 15:44:10.40	209.28	19.29	-23.9	-24.1	17.4	0.00e+00	0	44	102	44040192	8	3699
2026-01-25 15:44:11.41	209.43	19.39	-23.9	-24.0	17.5	0.00e+00	0	44	102	44040192	8	3673
2026-01-25 15:44:12.41	209.58	19.50	-23.9	-24.0	17.5	0.00e+00	0	44	102	44040192	8	3674
2026-01-25 15:44:13.41	209.73	19.60	-23.9	-24.2	17.4	0.00e+00	0	44	102	44040192	8	3699
2026-01-25 15:44:14.42	209.88	19.71	-23.9	-24.1	17.4	0.00e+00	0	44	102	44040192	8	3698
2026-01-25 15:44:15.42	210.03	19.81	-24.0	-24.3	17.4	0.00e+00	0	44	102	44040192	8	3724
2026-01-25 15:44:16.42	210.18	19.91	-24.0	-24.2	17.4	0.00e+00	0	44	102	44040192	8	3716
2026-01-25 15:44:17.42	210.33	20.02	-24.1	-24.5	17.2	0.00e+00	0	44	102	44040192	8	3777
2026-01-25 15:44:18.42	210.49	20.12	-24.0	-24.3	17.4	0.00e+00	0	44	102	44040192	8	3723
2026-01-25 15:44:19.42	210.64	20.23	-24.0	-24.4	17.3	0.00e+00	0	44	102	44040192	8	3746
2026-01-25 15:44:20.42	210.80	20.33	-24.0	-24.4	17.3	0.00e+00	0	44	102	44040192	8	3747
2026-01-25 15:44:21.42	210.95	20.44	-23.9	-24.2	17.4	0.00e+00	0	44	102	44040192	8	3705
2026-01-25 15:44:22.43	211.11	20.54	-23.8	-24.0	17.5	0.00e+00	0	44	102	44040192	8	3660
2026-01-25 15:44:23.43	211.27	20.65	-23.9	-24.1	17.5	0.00e+00	0	44	102	44040192	8	3685
2026-01-25 15:44:24.44	211.44	20.76	-23.9	-24.1	17.5	0.00e+00	0	44	102	44040192	8	3677
2026-01-25 15:44:25.45	211.60	20.86	-23.8	-23.9	17.6	0.00e+00	0	44	102	44040192	8	3640
2026-01-25 15:44:26.45	211.76	20.97	-23.7	-23.7	17.7	0.00e+00	0	44	102	44040192	8	3608
2026-01-25 15:44:27.45	211.92	21.08	-23.8	-23.9	17.6	0.00e+00	0	44	102	44040192	8	3643
2026-01-25 15:44:28.46	212.09	21.18	-23.7	-23.7	17.7	0.00e+00	0	44	102	44040192	8	3604
2026-01-25 15:44:29.46	212.26	21.29	-23.6	-23.5	17.8	0.00e+00	0	44	102	44040192	8	3554
2026-01-25 15:44:30.46	212.42	21.40	-23.6	-23.4	17.8	0.00e+00	0	44	102	44040192	8	3541
2026-01-25 15:44:31.47	212.59	21.51	-23.6	-23.4	17.9	0.00e+00	0	44	102	44040192	8	3540
2026-01-25 15:44:32.46	212.76	21.61	-23.5	-23.3	17.9	0.00e+00	0	44	102	44040192	8	3507
2026-01-25 15:44:33.47	212.93	21.72	-23.5	-23.3	17.9	0.00e+00	0	44	102	44040192	8	3513
2026-01-25 15:44:34.47	213.10	21.83	-23.5	-23.3	18.0	0.00e+00	0	44	102	44040192	8	3501
2026-01-25 15:44:35.47	213.28	21.94	-23.5	-23.4	17.9	0.00e+00	0	44	102	44040192	8	3522
2026-01-25 15:44:36.48	213.45	22.05	-23.5	-23.2	18.0	0.00e+00	0	44	102	44040192	8	3490
2026-01-25 15:44:37.48	213.63	22.16	-23.5	-23.3	17.9	0.00e+00	0	44	102	44040192	8	3514
2026-01-25 15:44:38.48	213.80	22.26	-23.7	-23.6	17.8	0.00e+00	0	44	102	44040192	8	3585
2026-01-25 15:44:39.49	213.98	22.37	-23.7	-23.7	17.7	0.00e+00	0	44	102	44040192	8	3602
2026-01-25 15:44:40.49	214.16	22.48	-23.7	-23.7	17.7	0.00e+00	0	44	102	44040192	8	3605
2026-01-25 15:44:41.50	214.34	22.59	-23.7	-23.7	17.8	0.00e+00	0	44	102	44040192	8	3594
2026-01-25 15:44:42.51	214.53	22.70	-23.8	-23.9	17.7	0.00e+00	0	44	102	44040192	8	3636
2026-01-25 15:44:43.51	214.71	22.81	-23.7	-23.8	17.7	0.00e+00	0	44	102	44040192	8	3610
2026-01-25 15:44:44.52	214.89	22.93	-23.8	-23.9	17.7	0.00e+00	0	44	102	44040192	8	3644
2026-01-25 15:44:45.52	215.08	23.04	-23.8	-23.9	17.6	0.00e+00	0	44	102	44040192	8	3646
2026-01-25 15:44:46.52	215.27	23.15	-23.6	-23.5	17.9	0.00e+00	0	44	102	44040192	8	3553
2026-01-25 15:44:47.52	215.45	23.26	-23.4	-23.1	18.1	0.00e+00	0	44	102	44040192	8	3466
2026-01-25 15:44:48.53	215.64	23.37	-23.4	-23.6	18.1	0.00e+00	0	44	102	44040192	7	3677
2026-01-25 15:44:49.53	215.83	23.48	-23.3	-23.4	18.2	0.00e+00	0	44	102	44040192	7	3619
2026-01-25 15:44:50.53	216.02	23.59	-23.3	-23.4	18.2	0.00e+00	0	44	102	44040192	7	3627
2026-01-25 15:44:51.54	216.22	23.70	-23.4	-23.6	18.1	0.00e+00	0	44	102	44040192	7	3673
2026-01-25 15:44:52.54	216.41	23.81	-23.3	-23.4	18.1	0.00e+00	0	44	102	44040192	7	3634
2026-01-25 15:44:53.55	216.61	23.93	-23.2	-23.1	18.3	0.00e+00	0	44	102	44040192	7	3563
2026-01-25 15:44:54.55	216.81	24.04	-23.0	-22.7	18.5	0.00e+00	0	44	102	44040192	7	3485
2026-01-25 15:44:55.56	217.01	24.15	-23.0	-22.7	18.5	0.00e+00	0	44	102	44040192	7	3480
2026-01-25 15:44:56.56	217.21	24.26	-23.0	-22.7	18.5	0.00e+00	0	44	102	44040192	7	3478
2026-01-25 15:44:57.57	217.41	24.37	-22.8	-22.9	18.7	0.00e+00	0	44	102	44040192	6	3611
2026-01-25 15:44:58.57	217.61	24.49	-22.9	-22.9	18.6	0.00e+00	0	44	102	44040192	6	3631
2026-01-25 15:44:59.58	217.82	24.60	-22.8	-22.9	18.7	0.00e+00	0	44	102	44040192	6	3610
2026-01-25 15:45:00.58	218.02	24.71	-22.9	-23.1	18.6	0.00e+00	0	44	102	44040192	6	3660
2026-01-25 15:45:01.59	218.23	24.83	-22.9	-23.0	18.6	0.00e+00	0	44	102	44040192	6	3647
2026-01-25 15:45:02.59	218.44	24.94	-22.8	-22.8	18.7	0.00e+00	0	44	102	44040192	6	3605
2026-01-25 15:45:03.59	218.65	25.05	-22.9	-23.1	18.6	0.00e+00	0	44	102	44040192	6	3658
2026-01-25 15:45:04.60	218.86	25.16	-22.9	-22.9	18.6	0.00e+00	0	44	102	44040192	6	3626
2026-01-25 15:45:05.59	219.07	25.28	-23.0	-23.1	18.5	0.00e+00	0	44	102	44040192	6	3676
2026-01-25 15:45:06.60	219.29	25.39	-23.0	-23.2	18.5	0.00e+00	0	44	102	44040192	6	3689
2026-01-25 15:45:07.59	219.50	25.50	-23.1	-23.4	18.4	0.00e+00	0	44	102	44040192	6	3738
2026-01-25 15:45:08.60	219.72	25.61	-23.1	-23.5	18.4	0.00e+00	0	44	102	44040192	6	3753
2026-01-25 15:45:09.60	219.94	25.73	-23.3	-23.8	18.2	0.00e+00	0	44	102	44040192	6	3818
2026-01-25 15:45:10.61	220.16	25.84	-23.2	-23.7	18.3	0.00e+00	0	44	102	44040192	6	3805
2026-01-25 15:45:11.62	220.39	25.96	-23.3	-23.9	18.2	0.00e+00	0	44	102	44040192	6	3841
2026-01-25 15:45:12.63	220.61	26.07	-23.3	-23.9	18.2	0.00e+00	0	44	102	44040192	6	3846
2026-01-25 15:45:13.63	220.84	26.18	-23.3	-23.8	18.2	0.00e+00	0	44	102	44040192	6	3833
2026-01-25 15:45:14.63	221.06	26.30	-23.3	-23.8	18.2	0.00e+00	0	44	102	44040192	6	3816
2026-01-25 15:45:15.64	221.29	26.41	-23.4	-24.1	18.1	0.00e+00	0	44	102	44040192	6	3888
2026-01-25 15:45:16.64	221.52	26.52	-23.3	-23.8	18.2	0.00e+00	0	44	102	44040192	6	3833
2026-01-25 15:45:17.64	221.75	26.64	-23.0	-23.2	18.6	0.00e+00	0	44	102	44040192	6	3693
2026-01-25 15:45:18.64	221.99	26.75	-22.9	-23.0	18.7	0.00e+00	0	44	102	44040192	6	3637
2026-01-25 15:45:19.64	222.22	26.86	-22.8	-22.9	18.7	0.00e+00	0	44	102	44040192	6	3619
2026-01-25 15:45:20.65	222.46	26.98	-22.9	-22.9	18.7	0.00e+00	0	44	102	44040192	6	3629
2026-01-25 15:45:21.65	222.70	27.09	-22.8	-22.9	18.7	0.00e+00	0	44	102	44040192	6	3624
2026-01-25 15:45:22.66	222.94	27.20	-22.9	-23.0	18.7	0.00e+00	0	44	102	44040192	6	3652
2026-01-25 15:45:23.66	223.18	27.32	-22.9	-23.0	18.7	0.00e+00	0	44	102	44040192	6	3649
2026-01-25 15:45:24.66	223.42	27.43	-22.9	-23.1	18.6	0.00e+00	0	44	102	44040192	6	3665
2026-01-25 15:45:25.66	223.67	27.54	-22.9	-23.1	18.6	0.00e+00	0	44	102	44040192	6	3678
2026-01-25 15:45:26.65	223.91	27.65	-22.8	-22.9	18.7	0.00e+00	0	44	102	44040192	6	3625
2026-01-25 15:45:27.66	224.16	27.77	-22.9	-23.0	18.7	0.00e+00	0	44	102	44040192	6	3648
2026-01-25 15:45:28.67	224.41	27.88	-22.9	-23.0	18.7	0.00e+00	0	44	102	44040192	6	3634
2026-01-25 15:45:29.67	224.66	27.99	-22.9	-22.9	18.8	0.00e+00	0	44	102	44040192	6	3618
2026-01-25 15:45:30.68	224.92	28.10	-22.9	-22.9	18.7	0.00e+00	0	44	102	44040192	6	3629
2026-01-25 15:45:31.68	225.17	28.22	-22.8	-22.9	18.8	0.00e+00	0	44	102	44040192	6	3616
2026-01-25 15:45:32.68	225.43	28.33	-23.0	-23.2	18.6	0.00e+00	0	44	102	44040192	6	3688
2026-01-25 15:45:33.68	225.69	28.44	-22.9	-23.0	18.7	0.00e+00	0	44	102	44040192	6	3637
2026-01-25 15:45:34.68	225.95	28.55	-22.9	-22.9	18.8	0.00e+00	0	44	102	44040192	6	3627
2026-01-25 15:45:35.69	226.21	28.66	-22.8	-22.7	18.9	0.00e+00	0	44	102	44040192	6	3585
2026-01-25 15:45:36.70	226.48	28.78	-22.7	-22.7	18.9	0.00e+00	0	44	102	44040192	6	3573
2026-01-25 15:45:37.70	226.74	28.89	-22.8	-22.8	18.8	0.00e+00	0	44	102	44040192	6	3590
2026-01-25 15:45:38.70	227.01	29.00	-22.9	-23.0	18.7	0.00e+00	0	44	102	44040192	6	3645
2026-01-25 15:45:39.71	227.28	29.11	-22.9	-22.9	18.8	0.00e+00	0	44	102	44040192	6	3617
2026-01-25 15:45:40.71	227.55	29.22	-22.7	-22.7	18.9	0.00e+00	0	44	102	44040192	6	3568
2026-01-25 15:45:41.71	227.82	29.33	-23.0	-23.2	18.7	0.00e+00	0	44	102	44040192	6	3675
2026-01-25 15:45:42.72	228.10	29.44	-22.9	-23.0	18.7	0.00e+00	0	44	102	44040192	6	3653
2026-01-25 15:45:43.72	228.38	29.55	-23.0	-23.1	18.7	0.00e+00	0	44	102	44040192	6	3671
2026-01-25 15:45:44.72	228.66	29.66	-22.9	-23.1	18.7	0.00e+00	0	44	102	44040192	6	3664
2026-01-25 15:45:45.73	228.94	29.77	-23.0	-23.1	18.7	0.00e+00	0	44	102	44040192	6	3670
2026-01-25 15:45:46.74	229.22	29.88	-22.9	-23.0	18.7	0.00e+00	0	44	102	44040192	6	3650
2026-01-25 15:45:47.75	229.51	29.99	-22.9	-23.0	18.7	0.00e+00	0	44	102	44040192	6	3638
2026-01-25 15:45:48.76	229.80	30.09	-22.8	-22.9	18.8	0.00e+00	0	44	102	44040192	6	3611
2026-01-25 15:45:49.76	230.09	30.20	-22.8	-22.9	18.8	0.00e+00	0	44	102	44040192	6	3616
2026-01-25 15:45:50.76	230.37	30.31	-22.9	-23.1	18.7	1.10e-06	0	44	102	44040192	6	3660
2026-01-25 15:45:51.76	230.67	30.41	-22.9	-23.0	18.7	0.00e+00	0	44	102	44040192	6	3647
2026-01-25 15:45:52.77	230.96	30.52	-22.9	-22.9	18.8	0.00e+00	0	44	102	44040192	6	3622
2026-01-25 15:45:53.77	231.26	30.63	-22.9	-23.0	18.7	1.10e-06	0	44	102	44040192	6	3647
2026-01-25 15:45:54.77	231.55	30.73	-22.7	-22.6	18.9	0.00e+00	0	44	102	44040192	6	3553
2026-01-25 15:45:55.77	231.85	30.84	-22.7	-22.6	19.0	0.00e+00	0	44	102	44040192	6	3548
2026-01-25 15:45:56.77	232.15	30.94	-22.6	-22.4	19.0	2.20e-06	0	44	102	44040192	6	3523
2026-01-25 15:45:57.78	232.46	31.05	-22.6	-22.4	19.1	0.00e+00	0	44	102	44040192	6	3514
2026-01-25 15:45:58.79	232.77	31.15	-22.8	-22.8	18.9	0.00e+00	0	44	102	44040192	6	3588
2026-01-25 15:45:59.79	233.07	31.25	-22.7	-22.6	19.0	3.40e-06	0	44	102	44040192	6	3560
2026-01-25 15:46:00.80	233.38	31.36	-22.7	-22.6	19.0	0.00e+00	0	44	102	44040192	6	3560
2026-01-25 15:46:01.80	233.69	31.46	-22.8	-22.9	18.8	0.00e+00	0	44	102	44040192	6	3615
2026-01-25 15:46:02.80	234.01	31.56	-22.8	-22.8	18.9	0.00e+00	0	44	102	44040192	6	3595
2026-01-25 15:46:03.81	234.32	31.66	-22.7	-22.6	19.0	0.00e+00	0	44	102	44040192	6	3555
2026-01-25 15:46:04.81	234.64	31.76	-22.7	-22.6	18.9	0.00e+00	0	44	102	44040192	6	3559
2026-01-25 15:46:05.81	234.96	31.86	-22.7	-22.6	19.0	0.00e+00	0	44	102	44040192	6	3550
2026-01-25 15:46:06.82	235.28	31.96	-22.8	-22.7	18.9	0.00e+00	0	44	102	44040192	6	3577
2026-01-25 15:46:07.82	235.60	32.06	-22.8	-22.8	18.9	0.00e+00	0	44	102	44040192	6	3585
2026-01-25 15:46:08.83	235.93	32.16	-22.9	-22.9	18.8	0.00e+00	0	44	102	44040192	6	3627
2026-01-25 15:46:09.84	236.26	32.26	-22.9	-22.9	18.9	0.00e+00	0	44	102	44040192	6	3618
2026-01-25 15:46:10.85	236.59	32.35	-22.9	-22.9	18.8	0.00e+00	0	44	102	44040192	6	3621
2026-01-25 15:46:11.85	236.92	32.45	-23.2	-23.5	18.5	0.00e+00	0	44	102	44040192	6	3755
2026-01-25 15:46:12.86	237.25	32.54	-22.9	-23.0	18.8	0.00e+00	0	44	102	44040192	6	3635
2026-01-25 15:46:13.85	237.58	32.64	-22.7	-22.6	19.0	0.00e+00	0	44	102	44040192	6	3558
2026-01-25 15:46:14.86	237.92	32.73	-22.6	-22.4	19.1	0.00e+00	0	44	102	44040192	6	3510
2026-01-25 15:46:15.87	238.26	32.82	-22.7	-22.6	19.0	0.00e+00	0	44	102	44040192	6	3559
2026-01-25 15:46:16.87	238.60	32.92	-22.6	-22.4	19.1	0.00e+00	0	44	102	44040192	6	3499
2026-01-25 15:46:17.88	238.94	33.01	-22.7	-22.5	19.0	0.00e+00	0	44	102	44040192	6	3541
2026-01-25 15:46:18.88	239.29	33.10	-22.6	-22.4	19.1	0.00e+00	0	44	102	44040192	6	3516
2026-01-25 15:46:19.88	239.63	33.19	-22.7	-22.5	19.1	0.00e+00	0	44	102	44040192	6	3528
2026-01-25 15:46:20.89	239.98	33.27	-22.8	-22.7	19.0	0.00e+00	0	44	102	44040192	6	3584
2026-01-25 15:46:21.89	240.33	33.36	-22.8	-22.7	19.0	0.00e+00	0	44	102	44040192	6	3569
2026-01-25 15:46:22.90	240.68	33.45	-22.8	-22.7	19.0	0.00e+00	0	44	102	44040192	6	3570
2026-01-25 15:46:23.90	241.03	33.53	-22.6	-22.4	19.2	0.00e+00	0	44	102	44040192	6	3502
2026-01-25 15:46:24.90	241.39	33.62	-22.6	-22.4	19.1	0.00e+00	0	44	102	44040192	6	3503
2026-01-25 15:46:25.91	241.75	33.70	-22.6	-22.4	19.1	0.00e+00	0	44	102	44040192	6	3515
2026-01-25 15:46:26.91	242.10	33.78	-22.6	-22.4	19.1	0.00e+00	0	44	102	44040192	6	3513
2026-01-25 15:46:27.91	242.46	33.87	-22.7	-22.5	19.0	0.00e+00	0	44	102	44040192	6	3534
2026-01-25 15:46:28.91	242.82	33.95	-22.6	-22.4	19.1	0.00e+00	0	44	102	44040192	6	3517
2026-01-25 15:46:29.91	243.19	34.03	-22.6	-22.4	19.1	0.00e+00	0	44	102	44040192	6	3514
2026-01-25 15:46:30.91	243.55	34.10	-22.8	-22.8	18.9	0.00e+00	0	44	102	44040192	6	3604
2026-01-25 15:46:31.91	243.92	34.18	-22.9	-22.9	18.9	0.00e+00	0	44	102	44040192	6	3621
2026-01-25 15:46:32.91	244.28	34.26	-23.1	-23.3	18.6	0.00e+00	0	44	102	44040192	6	3709
2026-01-25 15:46:33.92	244.66	34.33	-22.9	-23.0	18.8	0.00e+00	0	44	102	44040192	6	3642
2026-01-25 15:46:34.92	245.03	34.41	-22.9	-23.0	18.8	0.00e+00	0	44	102	44040192	6	3645
2026-01-25 15:46:35.92	245.40	34.48	-22.9	-22.9	18.9	0.00e+00	0	44	102	44040192	6	3617
2026-01-25 15:46:36.92	245.77	34.55	-22.9	-23.0	18.9	0.00e+00	0	44	102	44040192	6	3631
2026-01-25 15:46:37.92	246.15	34.62	-22.8	-22.9	18.9	0.00e+00	0	44	102	44040192	6	3610
2026-01-25 15:46:38.93	246.53	34.69	-23.0	-23.3	18.7	0.00e+00	0	44	102	44040192	6	3709
2026-01-25 15:46:39.93	246.91	34.76	-22.9	-23.0	18.8	0.00e+00	0	44	102	44040192	6	3641
2026-01-25 15:46:40.94	247.29	34.83	-22.8	-22.8	18.9	0.00e+00	0	44	102	44040192	6	3600
2026-01-25 15:46:41.95	247.68	34.89	-22.8	-22.9	18.9	0.00e+00	0	44	102	44040192	6	3607
2026-01-25 15:46:42.95	248.06	34.96	-22.9	-23.0	18.8	0.00e+00	0	44	102	44040192	6	3646
2026-01-25 15:46:43.95	248.45	35.02	-22.9	-22.9	18.8	0.00e+00	0	44	102	44040192	6	3621
2026-01-25 15:46:44.95	248.84	35.08	-22.8	-22.8	18.9	0.00e+00	0	44	102	44040192	6	3599
2026-01-25 15:46:45.95	249.22	35.14	-22.9	-22.9	18.9	0.00e+00	0	44	102	44040192	6	3627
2026-01-25 15:46:46.95	249.61	35.20	-22.8	-22.8	18.9	0.00e+00	0	44	102	44040192	6	3602
2026-01-25 15:46:47.95	250.00	35.26	-23.1	-23.3	18.7	0.00e+00	0	44	102	44040192	6	3713
2026-01-25 15:46:48.95	250.40	35.31	-22.7	-22.6	19.0	0.00e+00	0	44	102	44040192	6	3552
2026-01-25 15:46:49.96	250.79	35.37	-22.6	-22.3	19.2	0.00e+00	0	44	102	44040192	6	3480
2026-01-25 15:46:50.96	251.19	35.42	-22.8	-22.7	19.0	0.00e+00	0	44	102	44040192	6	3568
2026-01-25 15:46:51.96	251.58	35.47	-22.7	-22.6	19.1	0.00e+00	0	44	102	44040192	6	3543
2026-01-25 15:46:52.97	251.98	35.53	-23.0	-23.2	18.8	0.00e+00	0	44	102	44040192	6	3683
2026-01-25 15:46:53.98	252.39	35.57	-22.8	-22.8	19.0	0.00e+00	0	44	102	44040192	6	3601
2026-01-25 15:46:54.98	252.79	35.62	-22.6	-22.3	19.2	0.00e+00	0	44	102	44040192	6	3494
2026-01-25 15:46:55.98	253.19	35.67	-22.5	-22.1	19.3	0.00e+00	0	44	102	44040192	6	3438
2026-01-25 15:46:56.99	253.59	35.71	-22.5	-22.1	19.3	0.00e+00	0	44	102	44040192	6	3434
2026-01-25 15:46:57.99	253.99	35.76	-22.6	-22.2	19.2	0.00e+00	0	44	102	44040192	6	3474
2026-01-25 15:46:59.00	254.40	35.80	-22.6	-22.3	19.2	0.00e+00	0	44	102	44040192	6	3492
2026-01-25 15:47:00.00	254.81	35.84	-22.5	-22.7	19.3	0.00e+00	0	44	102	44040192	5	3668
2026-01-25 15:47:01.01	255.22	35.88	-22.6	-22.8	19.2	0.00e+00	0	44	102	44040192	5	3684
2026-01-25 15:47:02.01	255.62	35.92	-22.6	-22.9	19.1	2.20e-06	0	44	102	44040192	5	3708
2026-01-25 15:47:03.01	256.03	35.95	-22.8	-23.2	19.0	0.00e+00	0	44	102	44040192	5	3793
2026-01-25 15:47:04.00	256.43	35.98	-22.7	-23.1	19.1	0.00e+00	0	44	102	44040192	5	3764
2026-01-25 15:47:05.01	256.85	36.02	-23.1	-23.4	18.6	1.10e-06	0	44	102	44040192	6	3737
2026-01-25 15:47:06.01	257.26	36.05	-22.8	-22.8	18.9	0.00e+00	0	44	102	44040192	6	3597
2026-01-25 15:47:07.01	257.67	36.08	-22.6	-22.3	19.2	0.00e+00	0	44	102	44040192	6	3486
2026-01-25 15:47:08.01	258.08	36.10	-22.5	-22.1	19.3	0.00e+00	0	44	102	44040192	6	3441
2026-01-25 15:47:09.02	258.50	36.13	-22.6	-22.4	19.1	0.00e+00	0	44	102	44040192	6	3510
2026-01-25 15:47:10.02	258.91	36.16	-22.7	-22.5	19.1	0.00e+00	0	44	102	44040192	6	3523
2026-01-25 15:47:11.03	259.33	36.18	-22.8	-22.7	19.0	2.20e-06	0	44	102	44040192	6	3578
2026-01-25 15:47:12.04	259.74	36.20	-22.8	-22.8	18.9	0.00e+00	0	44	102	44040192	6	3593
2026-01-25 15:47:13.04	260.16	36.22	-22.7	-22.6	19.1	0.00e+00	0	44	102	44040192	6	3545
2026-01-25 15:47:14.05	260.58	36.24	-22.6	-22.4	19.2	0.00e+00	0	44	102	44040192	6	3514
2026-01-25 15:47:15.05	260.99	36.25	-22.8	-22.7	19.0	0.00e+00	0	44	102	44040192	6	3580
2026-01-25 15:47:16.05	261.41	36.27	-22.5	-22.2	19.3	0.00e+00	0	44	102	44040192	6	3466
2026-01-25 15:47:17.06	261.83	36.28	-22.4	-21.9	19.4	0.00e+00	0	44	102	44040192	6	3397
2026-01-25 15:47:18.06	262.24	36.29	-22.4	-22.4	19.4	0.00e+00	0	44	102	44040192	5	3615
2026-01-25 15:47:19.07	262.66	36.30	-22.3	-22.2	19.5	0.00e+00	0	44	102	44040192	5	3564
2026-01-25 15:47:20.07	263.08	36.31	-22.5	-22.7	19.2	1.10e-06	0	44	102	44040192	5	3685
2026-01-25 15:47:21.08	263.50	36.32	-22.6	-22.8	19.2	0.00e+00	0	44	102	44040192	5	3702
2026-01-25 15:47:22.08	263.92	36.32	-22.7	-23.0	19.1	0.00e+00	0	44	102	44040192	5	3745
2026-01-25 15:47:23.09	264.34	36.32	-22.5	-22.7	19.3	1.10e-06	0	44	102	44040192	5	3672
2026-01-25 15:47:24.09	264.76	36.32	-22.6	-22.9	19.2	0.00e+00	0	44	102	44040192	5	3711
2026-01-25 15:47:25.09	265.17	36.32	-22.7	-23.1	19.1	0.00e+00	0	44	102	44040192	5	3751
2026-01-25 15:47:26.10	265.60	36.32	-22.9	-23.5	18.9	0.00e+00	0	44	102	44040192	5	3849
2026-01-25 15:47:27.10	266.01	36.32	-22.7	-23.2	19.0	0.00e+00	0	44	102	44040192	5	3774
2026-01-25 15:47:28.11	266.43	36.31	-22.7	-23.1	19.0	0.00e+00	0	44	102	44040192	5	3770
2026-01-25 15:47:29.11	266.85	36.30	-22.7	-23.1	19.0	0.00e+00	0	44	102	44040192	5	3774
2026-01-25 15:47:30.11	267.27	36.30	-22.8	-23.3	19.0	0.00e+00	0	44	102	44040192	5	3805
2026-01-25 15:47:31.12	267.69	36.28	-22.6	-22.9	19.1	0.00e+00	0	44	102	44040192	5	3722
2026-01-25 15:47:32.13	268.11	36.27	-22.6	-22.9	19.1	0.00e+00	0	44	102	44040192	5	3729
2026-01-25 15:47:33.13	268.52	36.26	-22.5	-22.7	19.2	0.00e+00	0	44	102	44040192	5	3676
2026-01-25 15:47:34.14	268.94	36.24	-22.6	-22.8	19.2	0.00e+00	0	44	102	44040192	5	3689
2026-01-25 15:47:35.14	269.36	36.23	-22.7	-23.1	19.0	0.00e+00	0	44	102	44040192	5	3767
2026-01-25 15:47:36.14	269.77	36.21	-22.6	-22.9	19.2	0.00e+00	0	44	102	44040192	5	3710
2026-01-25 15:47:37.14	270.18	36.19	-22.6	-22.8	19.2	0.00e+00	0	44	102	44040192	5	3690
2026-01-25 15:47:38.15	270.60	36.16	-22.7	-23.0	19.1	0.00e+00	0	44	102	44040192	5	3736
2026-01-25 15:47:39.15	271.01	36.14	-22.9	-23.4	18.9	0.00e+00	0	44	102	44040192	5	3825
2026-01-25 15:47:40.15	271.43	36.11	-22.7	-23.1	19.0	0.00e+00	0	44	102	44040192	5	3764
2026-01-25 15:47:41.16	271.84	36.09	-22.6	-22.9	19.1	0.00e+00	0	44	102	44040192	5	3720
2026-01-25 15:47:42.16	272.25	36.06	-22.7	-23.0	19.1	0.00e+00	0	44	102	44040192	5	3744
2026-01-25 15:47:43.16	272.66	36.03	-22.8	-23.3	19.0	0.00e+00	0	44	102	44040192	5	3802
2026-01-25 15:47:44.16	273.07	36.00	-22.6	-22.9	19.2	0.00e+00	0	44	102	44040192	5	3714
2026-01-25 15:47:45.17	273.48	35.96	-22.7	-23.1	19.1	0.00e+00	0	44	102	44040192	5	3750
2026-01-25 15:47:46.18	273.89	35.93	-22.6	-22.8	19.2	0.00e+00	0	44	102	44040192	5	3695
2026-01-25 15:47:47.19	274.30	35.89	-22.6	-23.0	19.1	0.00e+00	0	44	102	44040192	5	3728
2026-01-25 15:47:48.19	274.71	35.85	-22.8	-23.2	19.1	0.00e+00	0	44	102	44040192	5	3773
2026-01-25 15:47:49.20	275.12	35.81	-22.7	-23.0	19.1	0.00e+00	0	44	102	44040192	5	3742
2026-01-25 15:47:50.20	275.52	35.77	-22.7	-23.2	19.0	0.00e+00	0	44	102	44040192	5	3772
2026-01-25 15:47:51.19	275.92	35.73	-22.9	-23.4	18.9	0.00e+00	0	44	102	44040192	5	3835
2026-01-25 15:47:52.20	276.33	35.69	-22.6	-22.9	19.1	0.00e+00	0	44	102	44040192	5	3729
2026-01-25 15:47:53.21	276.73	35.64	-22.5	-22.7	19.3	0.00e+00	0	44	102	44040192	5	3667
2026-01-25 15:47:54.21	277.13	35.59	-22.6	-22.8	19.3	0.00e+00	0	44	102	44040192	5	3686
2026-01-25 15:47:55.21	277.53	35.54	-22.6	-22.8	19.2	0.00e+00	0	44	102	44040192	5	3702
2026-01-25 15:47:56.22	277.93	35.49	-22.4	-22.5	19.4	0.00e+00	0	44	102	44040192	5	3628
2026-01-25 15:47:57.23	278.33	35.44	-22.5	-22.6	19.4	0.00e+00	0	44	102	44040192	5	3645
2026-01-25 15:47:58.23	278.72	35.39	-22.6	-22.9	19.2	0.00e+00	0	44	102	44040192	5	3704
2026-01-25 15:47:59.24	279.12	35.33	-22.8	-23.2	19.0	0.00e+00	0	44	102	44040192	5	3776
2026-01-25 15:48:00.25	279.52	35.28	-22.7	-23.1	19.1	0.00e+00	0	44	102	44040192	5	3756
2026-01-25 15:48:01.25	279.91	35.22	-22.8	-23.4	18.9	0.00e+00	0	44	102	44040192	5	3820
2026-01-25 15:48:02.25	280.30	35.16	-22.7	-23.1	19.1	0.00e+00	0	44	102	44040192	5	3767
2026-01-25 15:48:03.25	280.68	35.10	-22.8	-23.3	19.0	0.00e+00	0	44	102	44040192	5	3803
2026-01-25 15:48:04.25	281.07	35.04	-22.9	-23.4	18.9	0.00e+00	0	44	102	44040192	5	3824
2026-01-25 15:48:05.26	281.46	34.98	-22.8	-23.3	19.0	0.00e+00	0	44	102	44040192	5	3809
2026-01-25 15:48:06.26	281.84	34.92	-23.0	-23.7	18.8	0.00e+00	0	44	102	44040192	5	3895
2026-01-25 15:48:07.26	282.22	34.85	-22.8	-23.3	19.0	0.00e+00	0	44	102	44040192	5	3814
2026-01-25 15:48:08.26	282.60	34.79	-22.8	-23.2	19.0	0.00e+00	0	44	102	44040192	5	3779
2026-01-25 15:48:09.26	282.98	34.72	-22.8	-23.3	19.0	0.00e+00	0	44	102	44040192	5	3816
2026-01-25 15:48:10.26	283.36	34.65	-22.9	-23.5	18.9	0.00e+00	0	44	102	44040192	5	3860
2026-01-25 15:48:11.27	283.74	34.58	-22.9	-23.5	18.9	0.00e+00	0	44	102	44040192	5	3867
2026-01-25 15:48:12.27	284.11	34.51	-23.1	-23.4	18.7	0.00e+00	0	44	102	44040192	6	3724
2026-01-25 15:48:13.27	284.48	34.44	-23.1	-23.5	18.6	0.00e+00	0	44	102	44040192	6	3745
2026-01-25 15:48:14.28	284.86	34.36	-23.1	-23.3	18.7	0.00e+00	0	44	102	44040192	6	3702
2026-01-25 15:48:15.27	285.22	34.29	-23.1	-23.4	18.7	0.00e+00	0	44	102	44040192	6	3728
2026-01-25 15:48:16.28	285.60	34.21	-23.0	-23.2	18.7	0.00e+00	0	44	102	44040192	6	3681
2026-01-25 15:48:17.29	285.97	34.14	-23.0	-23.1	18.8	0.00e+00	0	44	102	44040192	6	3665
2026-01-25 15:48:18.29	286.33	34.06	-22.8	-22.8	19.0	0.00e+00	0	44	102	44040192	6	3594
2026-01-25 15:48:19.29	286.69	33.98	-22.9	-23.0	18.9	0.00e+00	0	44	102	44040192	6	3642
2026-01-25 15:48:20.30	287.06	33.90	-23.1	-23.3	18.7	0.00e+00	0	44	102	44040192	6	3711
2026-01-25 15:48:21.30	287.41	33.82	-22.9	-23.0	18.9	0.00e+00	0	44	102	44040192	6	3634
2026-01-25 15:48:22.31	287.77	33.74	-22.9	-23.0	18.9	0.00e+00	0	44	102	44040192	6	3644
2026-01-25 15:48:23.31	288.13	33.65	-22.9	-23.0	18.9	0.00e+00	0	44	102	44040192	6	3632
2026-01-25 15:48:24.31	288.48	33.57	-22.9	-22.9	18.9	0.00e+00	0	44	102	44040192	6	3609
2026-01-25 15:48:25.31	288.83	33.49	-22.8	-22.9	19.0	0.00e+00	0	44	102	44040192	6	3604
2026-01-25 15:48:26.32	289.19	33.40	-22.7	-22.5	19.1	0.00e+00	0	44	102	44040192	6	3519
2026-01-25 15:48:27.32	289.54	33.31	-22.7	-22.6	19.1	0.00e+00	0	44	102	44040192	6	3546
2026-01-25 15:48:28.32	289.88	33.23	-22.8	-22.8	19.0	0.00e+00	0	44	102	44040192	6	3587
2026-01-25 15:48:29.32	290.23	33.14	-22.8	-22.9	18.9	0.00e+00	0	44	102	44040192	6	3606
2026-01-25 15:48:30.33	290.57	33.05	-23.0	-23.2	18.8	0.00e+00	0	44	102	44040192	6	3689
2026-01-25 15:48:31.33	290.91	32.96	-23.0	-23.2	18.8	0.00e+00	0	44	102	44040192	6	3675
2026-01-25 15:48:32.34	291.25	32.87	-23.0	-23.3	18.7	0.00e+00	0	44	102	44040192	6	3693
2026-01-25 15:48:33.35	291.59	32.77	-23.0	-23.1	18.8	0.00e+00	0	44	102	44040192	6	3665
2026-01-25 15:48:34.35	291.93	32.68	-22.9	-23.1	18.7	0.00e+00	0	44	102	44040192	6	3646
2026-01-25 15:48:35.35	292.26	32.59	-23.0	-23.1	18.8	0.00e+00	0	44	102	44040192	6	3661
2026-01-25 15:48:36.35	292.59	32.49	-22.9	-23.1	18.8	0.00e+00	0	44	102	44040192	6	3652
2026-01-25 15:48:37.35	292.92	32.40	-22.8	-22.8	19.0	0.00e+00	0	44	102	44040192	6	3584
2026-01-25 15:48:38.36	293.25	32.30	-22.7	-22.5	19.1	0.00e+00	0	44	102	44040192	6	3532
2026-01-25 15:48:39.37	293.58	32.21	-22.7	-22.5	19.1	0.00e+00	0	44	102	44040192	6	3536
2026-01-25 15:48:40.37	293.91	32.11	-22.8	-22.8	19.0	0.00e+00	0	44	102	44040192	6	3591
2026-01-25 15:48:41.37	294.23	32.01	-22.9	-23.0	18.9	0.00e+00	0	44	102	44040192	6	3638
2026-01-25 15:48:42.38	294.55	31.91	-22.9	-23.0	18.8	0.00e+00	0	44	102	44040192	6	3635
2026-01-25 15:48:43.38	294.87	31.81	-23.1	-23.3	18.7	0.00e+00	0	44	102	44040192	6	3707
2026-01-25 15:48:44.39	295.19	31.71	-23.2	-23.6	18.6	0.00e+00	0	44	102	44040192	6	3765
2026-01-25 15:48:45.39	295.50	31.61	-23.1	-23.4	18.6	0.00e+00	0	44	102	44040192	6	3733
2026-01-25 15:48:46.40	295.82	31.51	-23.1	-23.5	18.6	0.00e+00	0	44	102	44040192	6	3745
2026-01-25 15:48:47.40	296.13	31.41	-23.1	-23.4	18.7	0.00e+00	0	44	102	44040192	6	3725
2026-01-25 15:48:48.41	296.44	31.31	-23.1	-23.5	18.6	0.00e+00	0	44	102	44040192	6	3748
2026-01-25 15:48:49.42	296.75	31.21	-23.1	-23.3	18.7	0.00e+00	0	44	102	44040192	6	3707
2026-01-25 15:48:50.42	297.05	31.10	-23.1	-23.3	18.7	0.00e+00	0	44	102	44040192	6	3704
2026-01-25 15:48:51.43	297.36	31.00	-22.9	-23.1	18.8	0.00e+00	0	44	102	44040192	6	3647
2026-01-25 15:48:52.43	297.66	30.90	-23.0	-23.2	18.8	0.00e+00	0	44	102	44040192	6	3671
2026-01-25 15:48:53.44	297.96	30.79	-23.0	-23.1	18.8	0.00e+00	0	44	102	44040192	6	3665
2026-01-25 15:48:54.44	298.25	30.69	-23.1	-23.3	18.7	0.00e+00	0	44	102	44040192	6	3702
2026-01-25 15:48:55.45	298.55	30.58	-23.0	-23.3	18.7	0.00e+00	0	44	102	44040192	6	3705
2026-01-25 15:48:56.45	298.84	30.47	-23.0	-23.2	18.7	0.00e+00	0	44	102	44040192	6	3692
2026-01-25 15:48:57.46	299.14	30.37	-23.1	-23.4	18.7	0.00e+00	0	44	102	44040192	6	3717
2026-01-25 15:48:58.46	299.43	30.26	-23.1	-23.4	18.6	0.00e+00	0	44	102	44040192	6	3725
2026-01-25 15:48:59.46	299.71	30.15	-23.1	-23.5	18.6	0.00e+00	0	44	102	44040192	6	3748
2026-01-25 15:49:00.47	300.00	30.05	-23.1	-23.3	18.6	0.00e+00	0	44	102	44040192	6	3711
2026-01-25 15:49:01.47	300.29	29.94	-23.0	-23.3	18.7	0.00e+00	0	44	102	44040192	6	3696
2026-01-25 15:49:02.47	300.57	29.83	-23.1	-23.4	18.6	0.00e+00	0	44	102	44040192	6	3723
2026-01-25 15:49:03.47	300.85	29.72	-23.2	-23.5	18.6	0.00e+00	0	44	102	44040192	6	3756
2026-01-25 15:49:04.48	301.13	29.61	-23.2	-23.7	18.5	0.00e+00	0	44	102	44040192	6	3790
2026-01-25 15:49:05.49	301.41	29.50	-23.3	-23.7	18.4	0.00e+00	0	44	102	44040192	6	3797
2026-01-25 15:49:06.49	301.68	29.40	-23.2	-23.7	18.5	0.00e+00	0	44	102	44040192	6	3790
2026-01-25 15:49:07.49	301.95	29.29	-23.2	-23.6	18.5	0.00e+00	0	44	102	44040192	6	3764
2026-01-25 15:49:08.49	302.22	29.18	-23.2	-23.5	18.6	0.00e+00	0	44	102	44040192	6	3755
2026-01-25 15:49:09.50	302.50	29.07	-23.1	-23.4	18.7	0.00e+00	0	44	102	44040192	6	3716
2026-01-25 15:49:10.51	302.76	28.96	-23.0	-23.2	18.7	0.00e+00	0	44	102	44040192	6	3677
2026-01-25 15:49:11.51	303.03	28.85	-23.0	-23.3	18.7	0.00e+00	0	44	102	44040192	6	3696
2026-01-25 15:49:12.52	303.30	28.73	-23.0	-23.3	18.7	0.00e+00	0	44	102	44040192	6	3698
2026-01-25 15:49:13.52	303.56	28.62	-22.9	-23.0	18.8	0.00e+00	0	44	102	44040192	6	3628
2026-01-25 15:49:14.52	303.82	28.51	-23.0	-23.2	18.7	0.00e+00	0	44	102	44040192	6	3676
2026-01-25 15:49:15.53	304.08	28.40	-23.0	-23.3	18.7	0.00e+00	0	44	102	44040192	6	3704
2026-01-25 15:49:16.53	304.33	28.29	-23.1	-23.4	18.6	0.00e+00	0	44	102	44040192	6	3718
2026-01-25 15:49:17.54	304.59	28.18	-23.2	-23.6	18.5	0.00e+00	0	44	102	44040192	6	3771
2026-01-25 15:49:18.55	304.85	28.07	-23.2	-23.7	18.4	0.00e+00	0	44	102	44040192	6	3802
2026-01-25 15:49:19.54	305.09	27.95	-23.3	-23.9	18.4	0.00e+00	0	44	102	44040192	6	3832
2026-01-25 15:49:20.55	305.35	27.84	-23.3	-23.8	18.4	0.00e+00	0	44	102	44040192	6	3829
2026-01-25 15:49:21.56	305.60	27.73	-23.3	-23.8	18.3	0.00e+00	0	44	102	44040192	6	3830
2026-01-25 15:49:22.57	305.85	27.62	-23.3	-23.7	18.4	0.00e+00	0	44	102	44040192	6	3792
2026-01-25 15:49:23.57	306.09	27.50	-23.2	-23.5	18.5	0.00e+00	0	44	102	44040192	6	3753
2026-01-25 15:49:24.58	306.33	27.39	-23.3	-23.8	18.3	0.00e+00	0	44	102	44040192	6	3803
2026-01-25 15:49:25.58	306.58	27.28	-23.2	-23.6	18.5	0.00e+00	0	44	102	44040192	6	3762
2026-01-25 15:49:26.58	306.81	27.17	-23.0	-23.2	18.6	0.00e+00	0	44	102	44040192	6	3672
2026-01-25 15:49:27.58	307.05	27.06	-23.1	-23.3	18.6	0.00e+00	0	44	102	44040192	6	3712
2026-01-25 15:49:28.59	307.29	26.94	-23.0	-23.2	18.7	0.00e+00	0	44	102	44040192	6	3679
2026-01-25 15:49:29.60	307.53	26.83	-23.1	-23.4	18.6	0.00e+00	0	44	102	44040192	6	3721
2026-01-25 15:49:30.60	307.76	26.72	-23.2	-23.6	18.5	0.00e+00	0	44	102	44040192	6	3769
2026-01-25 15:49:31.60	307.99	26.60	-23.2	-23.7	18.4	0.00e+00	0	44	102	44040192	6	3794
2026-01-25 15:49:32.61	308.22	26.49	-23.3	-23.8	18.4	0.00e+00	0	44	102	44040192	6	3816
2026-01-25 15:49:33.61	308.45	26.38	-23.3	-23.9	18.3	0.00e+00	0	44	102	44040192	6	3848
2026-01-25 15:49:34.62	308.68	26.27	-23.4	-24.1	18.2	0.00e+00	0	44	102	44040192	6	3877
2026-01-25 15:49:35.62	308.90	26.15	-23.4	-24.0	18.3	0.00e+00	0	44	102	44040192	6	3857
2026-01-25 15:49:36.63	309.13	26.04	-23.4	-23.9	18.3	0.00e+00	0	44	102	44040192	6	3852
2026-01-25 15:49:37.63	309.35	25.93	-23.4	-24.0	18.2	0.00e+00	0	44	102	44040192	6	3870
2026-01-25 15:49:38.63	309.57	25.82	-23.4	-23.9	18.3	0.00e+00	0	44	102	44040192	6	3849
2026-01-25 15:49:39.64	309.79	25.70	-23.3	-23.8	18.4	0.00e+00	0	44	102	44040192	6	3817
2026-01-25 15:49:40.64	310.01	25.59	-23.4	-24.0	18.3	0.00e+00	0	44	102	44040192	6	3859
2026-01-25 15:49:41.65	310.23	25.48	-23.3	-23.8	18.4	0.00e+00	0	44	102	44040192	6	3817
2026-01-25 15:49:42.65	310.44	25.36	-23.2	-23.6	18.4	0.00e+00	0	44	102	44040192	6	3761
2026-01-25 15:49:43.66	310.65	25.25	-23.3	-23.7	18.4	0.00e+00	0	44	102	44040192	6	3795
2026-01-25 15:49:44.67	310.87	25.14	-23.2	-23.7	18.4	0.00e+00	0	44	102	44040192	6	3791
2026-01-25 15:49:45.67	311.08	25.03	-23.2	-23.6	18.4	0.00e+00	0	44	102	44040192	6	3780
2026-01-25 15:49:46.68	311.29	24.91	-23.3	-23.7	18.4	0.00e+00	0	44	102	44040192	6	3799
2026-01-25 15:49:47.68	311.49	24.80	-23.3	-23.8	18.4	0.00e+00	0	44	102	44040192	6	3815
2026-01-25 15:49:48.68	311.70	24.69	-23.4	-24.0	18.2	0.00e+00	0	44	102	44040192	6	3856
2026-01-25 15:49:49.69	311.90	24.58	-23.6	-24.0	18.0	0.00e+00	0	44	102	44040192	7	3770
2026-01-25 15:49:50.69	312.11	24.47	-23.7	-24.1	18.0	0.00e+00	0	44	102	44040192	7	3774
2026-01-25 15:49:51.70	312.31	24.36	-23.6	-23.9	18.1	0.00e+00	0	44	102	44040192	7	3729
2026-01-25 15:49:52.71	312.51	24.24	-23.6	-24.0	18.0	0.00e+00	0	44	102	44040192	7	3756
2026-01-25 15:49:53.72	312.71	24.13	-23.6	-23.9	18.0	0.00e+00	0	44	102	44040192	7	3738
2026-01-25 15:49:54.72	312.91	24.02	-23.6	-24.0	18.0	0.00e+00	0	44	102	44040192	7	3761
2026-01-25 15:49:55.73	313.11	23.91	-23.6	-23.9	18.0	0.00e+00	0	44	102	44040192	7	3741
2026-01-25 15:49:56.73	313.30	23.80	-23.6	-24.0	18.0	0.00e+00	0	44	102	44040192	7	3746
2026-01-25 15:49:57.74	313.49	23.69	-23.5	-23.8	18.1	0.00e+00	0	44	102	44040192	7	3711
2026-01-25 15:49:58.74	313.69	23.58	-23.4	-23.6	18.1	0.00e+00	0	44	102	44040192	7	3677
2026-01-25 15:49:59.75	313.88	23.47	-23.5	-23.7	18.1	0.00e+00	0	44	102	44040192	7	3700
2026-01-25 15:50:00.76	314.07	23.35	-23.5	-23.7	18.1	0.00e+00	0	44	102	44040192	7	3696
2026-01-25 15:50:01.76	314.26	23.24	-23.5	-23.8	18.1	0.00e+00	0	44	102	44040192	7	3714
2026-01-25 15:50:02.76	314.44	23.13	-23.6	-23.9	18.0	0.00e+00	0	44	102	44040192	7	3735
2026-01-25 15:50:03.76	314.63	23.03	-23.7	-24.1	17.9	0.00e+00	0	44	102	44040192	7	3781
2026-01-25 15:50:04.76	314.81	22.92	-23.7	-24.1	17.9	0.00e+00	0	44	102	44040192	7	3783
2026-01-25 15:50:05.76	314.99	22.81	-23.8	-24.3	17.8	0.00e+00	0	44	102	44040192	7	3828
2026-01-25 15:50:06.76	315.18	22.70	-23.8	-24.3	17.8	0.00e+00	0	44	102	44040192	7	3822
2026-01-25 15:50:07.76	315.36	22.59	-23.8	-24.4	17.8	0.00e+00	0	44	102	44040192	7	3854
2026-01-25 15:50:08.77	315.54	22.48	-23.8	-24.4	17.8	0.00e+00	0	44	102	44040192	7	3854
2026-01-25 15:50:09.77	315.71	22.37	-23.8	-24.4	17.7	0.00e+00	0	44	102	44040192	7	3841
2026-01-25 15:50:10.78	315.89	22.26	-23.7	-24.3	17.8	0.00e+00	0	44	102	44040192	7	3821
2026-01-25 15:50:11.79	316.07	22.15	-23.8	-24.3	17.8	0.00e+00	0	44	102	44040192	7	3823
2026-01-25 15:50:12.79	316.24	22.05	-23.7	-24.1	17.9	0.00e+00	0	44	102	44040192	7	3793
2026-01-25 15:50:13.80	316.42	21.94	-23.7	-24.1	17.9	0.00e+00	0	44	102	44040192	7	3790
2026-01-25 15:50:14.80	316.59	21.83	-23.7	-24.1	17.9	0.00e+00	0	44	102	44040192	7	3781
2026-01-25 15:50:15.81	316.76	21.72	-23.7	-24.2	17.8	0.00e+00	0	44	102	44040192	7	3797
2026-01-25 15:50:16.81	316.93	21.61	-23.7	-24.1	17.8	0.00e+00	0	44	102	44040192	7	3795
2026-01-25 15:50:17.81	317.10	21.51	-23.7	-24.2	17.8	0.00e+00	0	44	102	44040192	7	3806
2026-01-25 15:50:18.82	317.27	21.40	-23.8	-24.4	17.7	0.00e+00	0	44	102	44040192	7	3849
2026-01-25 15:50:19.83	317.43	21.29	-23.9	-24.5	17.6	0.00e+00	0	44	102	44040192	7	3885
2026-01-25 15:50:20.83	317.60	21.19	-23.9	-24.7	17.6	0.00e+00	0	44	102	44040192	7	3923
2026-01-25 15:50:21.84	317.76	21.08	-24.1	-25.0	17.4	0.00e+00	0	44	102	44040192	7	3991
2026-01-25 15:50:22.84	317.93	20.97	-24.2	-24.8	17.3	0.00e+00	0	44	102	44040192	8	3839
2026-01-25 15:50:23.85	318.09	20.87	-24.3	-25.0	17.2	0.00e+00	0	44	102	44040192	8	3882
2026-01-25 15:50:24.85	318.25	20.76	-24.4	-25.1	17.1	0.00e+00	0	44	102	44040192	8	3917
2026-01-25 15:50:25.86	318.41	20.66	-24.4	-25.1	17.1	0.00e+00	0	44	102	44040192	8	3926
2026-01-25 15:50:26.87	318.57	20.55	-24.4	-25.2	17.1	0.00e+00	0	44	102	44040192	8	3933
2026-01-25 15:50:27.87	318.73	20.45	-24.4	-25.1	17.0	0.00e+00	0	44	102	44040192	8	3929
2026-01-25 15:50:28.87	318.89	20.34	-24.3	-25.0	17.1	0.00e+00	0	44	102	44040192	8	3884
2026-01-25 15:50:29.88	319.04	20.24	-24.4	-25.1	17.1	0.00e+00	0	44	102	44040192	8	3921
2026-01-25 15:50:30.89	319.20	20.13	-24.3	-24.9	17.2	0.00e+00	0	44	102	44040192	8	3871
2026-01-25 15:50:31.90	319.35	20.03	-24.2	-24.8	17.3	0.00e+00	0	44	102	44040192	8	3835
2026-01-25 15:50:32.90	319.50	19.92	-24.2	-24.7	17.3	0.00e+00	0	44	102	44040192	8	3807
2026-01-25 15:50:33.91	319.66	19.82	-24.3	-24.9	17.1	0.00e+00	0	44	102	44040192	8	3868
2026-01-25 15:50:34.91	319.81	19.72	-24.5	-25.4	16.9	0.00e+00	0	44	102	44040192	8	3998
2026-01-25 15:50:35.91	319.96	19.61	-24.6	-25.1	16.8	0.00e+00	0	44	102	44040192	9	3808
2026-01-25 15:50:36.91	320.10	19.51	-24.8	-25.5	16.5	0.00e+00	0	44	102	44040192	9	3913
2026-01-25 15:50:37.92	320.25	19.41	-24.7	-25.2	16.6	0.00e+00	0	44	102	44040192	9	3834
2026-01-25 15:50:38.92	320.40	19.31	-24.6	-25.0	16.8	0.00e+00	0	44	102	44040192	9	3785
2026-01-25 15:50:39.93	320.55	19.20	-24.6	-25.2	16.7	0.00e+00	0	44	102	44040192	9	3820
2026-01-25 15:50:40.93	320.69	19.10	-24.6	-25.1	16.8	0.00e+00	0	44	102	44040192	9	3800
2026-01-25 15:50:41.94	320.84	19.00	-24.8	-25.4	16.6	0.00e+00	0	44	102	44040192	9	3883
2026-01-25 15:50:42.94	320.98	18.90	-24.6	-25.0	16.8	0.00e+00	0	44	102	44040192	9	3770
2026-01-25 15:50:43.95	321.12	18.80	-24.4	-24.6	17.0	0.00e+00	0	44	102	44040192	9	3690
2026-01-25 15:50:44.96	321.26	18.70	-24.4	-24.6	17.0	0.00e+00	0	44	102	44040192	9	3684
2026-01-25 15:50:45.96	321.40	18.60	-24.4	-24.6	17.0	0.00e+00	0	44	102	44040192	9	3702
2026-01-25 15:50:46.97	321.54	18.50	-24.4	-24.6	17.0	0.00e+00	0	44	102	44040192	9	3696
2026-01-25 15:50:47.97	321.68	18.40	-24.5	-24.9	16.9	0.00e+00	0	44	102	44040192	9	3751
2026-01-25 15:50:48.98	321.82	18.30	-24.5	-24.8	16.9	0.00e+00	0	44	102	44040192	9	3734
2026-01-25 15:50:49.98	321.96	18.20	-24.5	-24.9	16.8	0.00e+00	0	44	102	44040192	9	3769
2026-01-25 15:50:50.99	322.09	18.10	-24.6	-25.0	16.8	0.00e+00	0	44	102	44040192	9	3791
2026-01-25 15:50:52.00	322.23	18.00	-24.6	-25.1	16.7	0.00e+00	0	44	102	44040192	9	3808
2026-01-25 15:50:53.00	322.36	17.90	-24.7	-25.2	16.7	0.00e+00	0	44	102	44040192	9	3833
2026-01-25 15:50:54.00	322.50	17.80	-24.7	-25.2	16.7	0.00e+00	0	44	102	44040192	9	3841
2026-01-25 15:50:55.01	322.63	17.70	-24.6	-25.1	16.7	0.00e+00	0	44	102	44040192	9	3815
2026-01-25 15:50:56.01	322.76	17.60	-24.6	-25.1	16.7	0.00e+00	0	44	102	44040192	9	3807
2026-01-25 15:50:57.01	322.89	17.51	-24.7	-25.4	16.6	0.00e+00	0	44	102	44040192	9	3868
2026-01-25 15:50:58.01	323.02	17.41	-24.6	-25.1	16.7	0.00e+00	0	44	102	44040192	9	3799
2026-01-25 15:50:59.01	323.15	17.31	-24.5	-24.9	16.8	0.00e+00	0	44	102	44040192	9	3761
2026-01-25 15:51:00.01	323.28	17.22	-24.6	-25.0	16.8	0.00e+00	0	44	102	44040192	9	3779
2026-01-25 15:51:01.02	323.41	17.12	-24.5	-24.8	16.8	0.00e+00	0	44	102	44040192	9	3737
2026-01-25 15:51:02.03	323.53	17.02	-24.6	-25.1	16.7	0.00e+00	0	44	102	44040192	9	3803
2026-01-25 15:51:03.03	323.66	16.92	-24.5	-24.8	16.9	0.00e+00	0	44	102	44040192	9	3737
2026-01-25 15:51:04.03	323.79	16.83	-24.4	-24.7	16.9	0.00e+00	0	44	102	44040192	9	3709
2026-01-25 15:51:05.03	323.91	16.73	-24.5	-24.8	16.8	0.00e+00	0	44	102	44040192	9	3748
2026-01-25 15:51:06.04	324.03	16.64	-24.5	-24.8	16.8	0.00e+00	0	44	102	44040192	9	3738
2026-01-25 15:51:07.04	324.16	16.54	-24.6	-25.0	16.7	0.00e+00	0	44	102	44040192	9	3788
2026-01-25 15:51:08.03	324.28	16.45	-24.6	-25.0	16.7	0.00e+00	0	44	102	44040192	9	3782
2026-01-25 15:51:09.04	324.40	16.35	-24.7	-25.2	16.6	0.00e+00	0	44	102	44040192	9	3839
2026-01-25 15:51:10.05	324.52	16.26	-24.6	-25.2	16.6	0.00e+00	0	44	102	44040192	9	3832
2026-01-25 15:51:11.05	324.64	16.16	-24.8	-25.5	16.5	0.00e+00	0	44	102	44040192	9	3902
2026-01-25 15:51:12.05	324.76	16.07	-24.8	-25.5	16.5	0.00e+00	0	44	102	44040192	9	3899
2026-01-25 15:51:13.05	324.88	15.98	-24.9	-25.8	16.3	0.00e+00	0	44	102	44040192	9	3967
2026-01-25 15:51:14.06	325.00	15.88	-24.9	-25.7	16.3	0.00e+00	0	44	102	44040192	9	3960
2026-01-25 15:51:15.06	325.11	15.79	-25.0	-25.9	16.2	0.00e+00	0	44	102	44040192	9	4005
2026-01-25 15:51:16.05	325.23	15.70	-25.0	-26.0	16.2	0.00e+00	0	44	102	44040192	9	4025
2026-01-25 15:51:17.06	325.35	15.61	-25.1	-26.1	16.1	0.00e+00	0	44	102	44040192	9	4059
2026-01-25 15:51:18.07	325.46	15.51	-25.1	-26.1	16.1	0.00e+00	0	44	102	44040192	9	4050
2026-01-25 15:51:19.07	325.58	15.42	-25.2	-25.8	16.0	0.00e+00	0	44	102	44040192	10	3866
2026-01-25 15:51:20.08	325.69	15.33	-25.3	-26.1	15.9	0.00e+00	0	44	102	44040192	10	3940
2026-01-25 15:51:21.09	325.80	15.24	-25.2	-25.8	16.0	0.00e+00	0	44	102	44040192	10	3873
2026-01-25 15:51:22.09	325.92	15.14	-25.2	-25.9	15.9	0.00e+00	0	44	102	44040192	10	3901
2026-01-25 15:51:23.10	326.03	15.05	-25.2	-25.8	16.0	0.00e+00	0	44	102	44040192	10	3883
2026-01-25 15:51:24.10	326.14	14.96	-25.3	-26.0	15.8	0.00e+00	0	44	102	44040192	10	3930
2026-01-25 15:51:25.11	326.25	14.87	-25.2	-25.9	16.0	0.00e+00	0	44	102	44040192	10	3890
2026-01-25 15:51:26.11	326.36	14.78	-25.2	-25.9	16.0	0.00e+00	0	44	102	44040192	10	3887
2026-01-25 15:51:27.12	326.47	14.69	-25.2	-25.9	15.9	0.00e+00	0	44	102	44040192	10	3894
2026-01-25 15:51:28.13	326.58	14.60	-25.2	-25.8	16.0	0.00e+00	0	44	102	44040192	10	3871
2026-01-25 15:51:29.13	326.69	14.51	-25.2	-25.9	15.9	0.00e+00	0	44	102	44040192	10	3909
2026-01-25 15:51:30.13	326.79	14.42	-25.3	-26.0	15.8	0.00e+00	0	44	102	44040192	10	3934
2026-01-25 15:51:31.14	326.90	14.33	-25.3	-26.2	15.8	0.00e+00	0	44	102	44040192	10	3963
2026-01-25 15:51:32.14	327.01	14.24	-25.3	-26.1	15.8	0.00e+00	0	44	102	44040192	10	3946
2026-01-25 15:51:33.15	327.11	14.15	-25.4	-26.4	15.6	0.00e+00	0	44	102	44040192	10	4011
2026-01-25 15:51:34.15	327.22	14.06	-25.4	-26.3	15.7	0.00e+00	0	44	102	44040192	10	4005
2026-01-25 15:51:35.16	327.32	13.98	-25.5	-26.5	15.5	0.00e+00	0	44	102	44040192	10	4054
2026-01-25 15:51:36.17	327.43	13.89	-25.4	-26.4	15.6	0.00e+00	0	45	102	44040192	10	4023
2026-01-25 15:51:37.17	327.53	13.80	-25.5	-26.5	15.6	0.00e+00	0	44	102	44040192	10	4044
2026-01-25 15:51:38.18	327.63	13.71	-25.5	-26.5	15.5	0.00e+00	0	45	102	44040192	10	4052
2026-01-25 15:51:39.18	327.74	13.62	-25.6	-26.7	15.5	0.00e+00	0	44	102	44040192	10	4086
2026-01-25 15:51:40.18	327.84	13.54	-25.5	-26.6	15.5	0.00e+00	0	44	102	44040192	10	4071
2026-01-25 15:51:41.18	327.94	13.45	-25.6	-26.2	15.4	0.00e+00	0	44	102	44040192	11	3867
2026-01-25 15:51:42.19	328.04	13.36	-25.5	-26.1	15.5	0.00e+00	0	44	102	44040192	11	3835
2026-01-25 15:51:43.19	328.14	13.28	-25.5	-26.1	15.4	0.00e+00	0	44	102	44040192	11	3853
2026-01-25 15:51:44.19	328.24	13.19	-25.6	-26.2	15.4	0.00e+00	0	44	102	44040192	11	3864
2026-01-25 15:51:45.20	328.34	13.10	-25.6	-26.2	15.4	0.00e+00	0	44	102	44040192	11	3877
2026-01-25 15:51:46.20	328.43	13.02	-25.6	-26.2	15.4	0.00e+00	0	44	102	44040192	11	3883
2026-01-25 15:51:47.20	328.53	12.93	-25.7	-26.5	15.2	0.00e+00	0	44	102	44040192	11	3945
2026-01-25 15:51:48.20	328.63	12.85	-25.9	-26.8	15.1	0.00e+00	0	45	102	44040192	11	4025
2026-01-25 15:51:49.20	328.72	12.76	-25.7	-26.5	15.2	0.00e+00	0	44	102	44040192	11	3933
2026-01-25 15:51:50.21	328.82	12.68	-25.6	-26.3	15.4	0.00e+00	0	44	102	44040192	11	3892
2026-01-25 15:51:51.22	328.92	12.59	-25.7	-26.4	15.3	0.00e+00	0	44	102	44040192	11	3930
2026-01-25 15:51:52.22	329.01	12.51	-25.6	-26.4	15.3	0.00e+00	0	44	102	44040192	11	3909
2026-01-25 15:51:53.22	329.10	12.43	-25.7	-26.4	15.3	0.00e+00	0	44	102	44040192	11	3921
2026-01-25 15:51:54.24	329.20	12.34	-25.7	-26.4	15.3	0.00e+00	0	44	102	44040192	11	3913
2026-01-25 15:51:55.24	329.29	12.26	-25.7	-26.4	15.3	0.00e+00	0	44	102	44040192	11	3921
2026-01-25 15:51:56.24	329.39	12.17	-25.7	-26.5	15.2	0.00e+00	0	45	102	44040192	11	3943
2026-01-25 15:51:57.25	329.48	12.09	-25.8	-26.6	15.1	0.00e+00	0	44	102	44040192	11	3973
2026-01-25 15:51:58.26	329.57	12.01	-25.7	-26.6	15.2	0.00e+00	0	44	102	44040192	11	3958
2026-01-25 15:51:59.26	329.66	11.92	-25.7	-26.6	15.2	0.00e+00	0	45	102	44040192	11	3967
2026-01-25 15:52:00.27	329.75	11.84	-25.8	-26.7	15.1	1.10e-06	0	44	102	44040192	11	3994
2026-01-25 15:52:01.27	329.84	11.76	-25.8	-26.7	15.1	0.00e+00	0	44	102	44040192	11	3999
2026-01-25 15:52:02.27	329.93	11.68	-25.9	-26.9	15.0	0.00e+00	0	44	102	44040192	11	4045
2026-01-25 15:52:03.27	330.02	11.60	-26.0	-27.1	14.8	0.00e+00	0	44	102	44040192	11	4093
2026-01-25 15:52:04.28	330.11	11.51	-26.0	-27.1	14.9	0.00e+00	0	44	102	44040192	11	4086
2026-01-25 15:52:05.28	330.20	11.43	-26.0	-27.1	14.8	0.00e+00	0	45	102	44040192	11	4099
2026-01-25 15:52:06.28	330.29	11.35	-26.1	-27.3	14.7	0.00e+00	0	44	102	44040192	11	4146
2026-01-25 15:52:07.28	330.38	11.27	-26.2	-27.0	14.5	1.10e-06	0	44	102	44040192	12	3980
2026-01-25 15:52:08.29	330.46	11.19	-26.3	-27.2	14.4	0.00e+00	0	44	102	44040192	12	4023
2026-01-25 15:52:09.30	330.55	11.11	-26.1	-27.0	14.5	3.40e-06	0	44	102	44040192	12	3966
2026-01-25 15:52:10.31	330.64	11.03	-26.1	-27.0	14.5	0.00e+00	0	44	102	44040192	12	3974
2026-01-25 15:52:11.31	330.72	10.95	-26.1	-27.0	14.5	1.10e-06	0	44	102	44040192	12	3977
2026-01-25 15:52:12.31	330.81	10.87	-26.2	-27.1	14.4	1.10e-06	0	44	102	44040192	12	3986
2026-01-25 15:52:13.31	330.89	10.79	-26.3	-27.2	14.3	1.10e-06	0	44	102	44040192	12	4037
2026-01-25 15:52:14.32	330.98	10.71	-26.2	-27.1	14.4	0.00e+00	0	44	102	44040192	12	3991
2026-01-25 15:52:15.32	331.06	10.63	-26.2	-27.2	14.3	1.10e-06	0	44	102	44040192	12	4019
2026-01-25 15:52:16.33	331.15	10.55	-26.3	-27.4	14.2	0.00e+00	0	44	102	44040192	12	4083
2026-01-25 15:52:17.33	331.23	10.47	-26.3	-27.3	14.3	1.10e-06	0	44	102	44040192	12	4063
2026-01-25 15:52:18.33	331.31	10.39	-26.3	-27.4	14.2	3.40e-06	0	44	102	44040192	12	4089
2026-01-25 15:52:19.33	331.39	10.31	-26.3	-27.5	14.2	0.00e+00	0	44	102	44040192	12	4092
2026-01-25 15:52:20.34	331.48	10.23	-26.3	-27.3	14.2	0.00e+00	0	44	102	44040192	12	4068
2026-01-25 15:52:21.34	331.56	10.16	-26.3	-27.3	14.3	1.10e-06	0	44	102	44040192	12	4057
2026-01-25 15:52:22.34	331.64	10.08	-26.3	-27.4	14.2	1.10e-06	0	44	102	44040192	12	4092
2026-01-25 15:52:23.35	331.72	10.00	-26.4	-27.6	14.1	2.20e-06	0	44	102	44040192	12	4119
2026-01-25 15:52:24.35	331.80	9.92	-26.2	-27.2	14.3	4.50e-06	0	44	102	44040192	12	4023
2026-01-25 15:52:25.36	331.88	9.84	-26.3	-27.3	14.2	1.10e-06	0	44	102	44040192	12	4047
2026-01-25 15:52:26.36	331.96	9.77	-26.2	-27.2	14.3	2.20e-06	0	44	102	44040192	12	4033
2026-01-25 15:52:27.36	332.04	9.69	-26.3	-27.3	14.2	0.00e+00	0	44	102	44040192	12	4058
2026-01-25 15:52:28.36	332.12	9.61	-26.3	-27.4	14.2	1.10e-06	0	44	102	44040192	12	4072
2026-01-25 15:52:29.36	332.19	9.54	-26.3	-27.3	14.2	0.00e+00	0	44	102	44040192	12	4050
2026-01-25 15:52:30.37	332.27	9.46	-26.2	-27.3	14.2	1.10e-06	0	44	102	44040192	12	4049
2026-01-25 15:52:31.37	332.35	9.39	-26.3	-27.4	14.1	0.00e+00	0	44	102	44040192	12	4089
2026-01-25 15:52:32.38	332.43	9.31	-26.3	-27.3	14.2	5.70e-06	0	44	102	44040192	12	4042
2026-01-25 15:52:33.38	332.50	9.23	-26.2	-27.2	14.2	2.20e-06	0	44	102	44040192	12	4021
2026-01-25 15:52:34.38	332.58	9.16	-26.3	-27.4	14.1	2.20e-06	0	44	102	44040192	12	4069
2026-01-25 15:52:35.39	332.66	9.08	-26.4	-27.5	14.0	2.20e-06	0	44	102	44040192	12	4110
2026-01-25 15:52:36.39	332.73	9.01	-26.3	-27.4	14.1	0.00e+00	0	45	102	44040192	12	4076
2026-01-25 15:52:37.39	332.81	8.93	-26.3	-27.5	14.1	1.10e-06	0	44	102	44040192	12	4096
2026-01-25 15:52:38.39	332.88	8.86	-26.4	-27.6	14.0	2.20e-06	0	44	102	44040192	12	4122
2026-01-25 15:52:39.40	332.96	8.78	-26.5	-27.7	13.9	2.20e-06	0	44	102	44040192	12	4162
2026-01-25 15:52:40.41	333.03	8.71	-26.5	-27.8	13.8	6.80e-06	0	44	102	44040192	12	4201
2026-01-25 15:52:41.42	333.11	8.63	-26.7	-27.8	13.5	6.80e-06	0	44	102	44040192	13	4077
2026-01-25 15:52:42.42	333.18	8.56	-26.8	-28.0	13.4	2.17e-05	0	44	102	44040192	13	4129
2026-01-25 15:52:43.43	333.25	8.48	-26.7	-27.9	13.5	1.83e-05	0	44	102	44040192	13	4109
2026-01-25 15:52:44.44	333.33	8.41	-26.9	-28.2	13.3	2.05e-05	0	44	102	44040192	13	4196
2026-01-25 15:52:45.44	333.40	8.34	-26.7	-27.7	13.6	8.00e-06	0	44	102	44040192	13	4055
2026-01-25 15:52:46.45	333.47	8.26	-26.5	-27.4	13.7	4.50e-06	0	44	102	44040192	13	3990
2026-01-25 15:52:47.46	333.54	8.19	-26.6	-27.6	13.6	6.80e-06	0	44	102	44040192	13	4022
2026-01-25 15:52:48.46	333.61	8.12	-26.6	-27.6	13.6	1.60e-05	0	44	102	44040192	13	4035
2026-01-25 15:52:49.47	333.69	8.04	-26.6	-27.7	13.6	1.14e-05	0	44	102	44040192	13	4056
2026-01-25 15:52:50.47	333.76	7.97	-26.7	-27.7	13.6	1.25e-05	0	44	102	44040192	13	4057
2026-01-25 15:52:51.48	333.83	7.90	-26.7	-27.7	13.5	5.70e-06	0	45	102	44040192	13	4065
2026-01-25 15:52:52.49	333.90	7.82	-26.8	-28.0	13.4	1.60e-05	0	44	102	44040192	13	4139
2026-01-25 15:52:53.49	333.97	7.75	-26.8	-28.1	13.3	1.37e-05	0	44	102	44040192	13	4170
2026-01-25 15:52:54.50	334.04	7.68	-26.6	-27.7	13.5	1.02e-05	0	44	102	44040192	13	4061
2026-01-25 15:52:55.50	334.11	7.61	-26.7	-27.7	13.5	1.37e-05	0	44	102	44040192	13	4067
2026-01-25 15:52:56.51	334.18	7.54	-26.7	-27.7	13.5	5.70e-06	0	44	102	44040192	13	4067
2026-01-25 15:52:57.52	334.24	7.46	-26.7	-27.7	13.5	6.80e-06	0	44	102	44040192	13	4073
2026-01-25 15:52:58.52	334.31	7.39	-26.8	-28.1	13.3	1.25e-05	0	44	102	44040192	13	4177
2026-01-25 15:52:59.53	334.38	7.32	-26.9	-28.3	13.1	2.28e-05	0	44	102	44040192	13	4236
2026-01-25 15:53:00.53	334.45	7.25	-26.7	-27.9	13.4	2.63e-05	0	44	102	44040192	13	4112
2026-01-25 15:53:01.54	334.52	7.18	-26.7	-27.8	13.4	1.37e-05	0	44	102	44040192	13	4089
2026-01-25 15:53:02.54	334.58	7.11	-26.8	-28.0	13.3	2.17e-05	0	44	102	44040192	13	4145
2026-01-25 15:53:03.55	334.65	7.04	-32.8	-41.3	3.8	4.15e-03	0	44	104	44040192	25	9637
2026-01-25 15:53:04.55	334.72	6.97	-33.3	-43.0	3.8	8.46e-01	0	45	104	44040192	26	11003

#Closed at: 2026-01-25 15:53:05
#Recorded file [44 MB]: D:/data/31010_260125_184150.dat