passes_logs/2026/01/25/R2M6_AANII_01/R2M6_AANII_01__20260125_023850_NOAA_21_JPSS-2_rec.log

#Pass ID: 20260125_023850_NOAA 21 (JPSS-2)
#Satellite: NOAA 21 (JPSS-2)
#Configuration: NOAA 21
#almurnet v.1.7.20240730
#Start time: 2026-01-25 02:38:51

#Version: 2.2.20231116
#Station: R2M6_AANII_01
#Location: 30.233357 lon 59.946436 lat
#TLE: 1 54234U 22150A   26024.45772595  .00000201  00000+0  11607-3 0  9996
#TLE: 2 54234  98.7508 325.2435 0000728 220.7365 139.3757 14.19538765166156

#Time	Az	El	Level	Level2	SNR	BER	BlckErr	Temp	State	Recorded	gain1	gain2
2026-01-25 02:38:51.14	9.17	7.02	-31.8	-38.5	4.1	1.45e+00	0	43	0	0	24	7845
2026-01-25 02:38:52.13	9.07	7.08	-31.3	-37.6	4.4	1.42e+00	0	43	104	0	22	7422
2026-01-25 02:38:53.14	8.96	7.13	-31.3	-36.8	6.9	1.72e-01	0	43	0	0	22	6733
2026-01-25 02:38:54.13	8.86	7.19	-31.3	-36.7	7.0	1.59e-01	0	43	102	1048576	22	6710
2026-01-25 02:38:55.13	8.75	7.25	-31.3	-36.8	6.9	1.72e-01	0	43	102	1048576	22	6758
2026-01-25 02:38:56.13	8.64	7.31	-31.4	-36.8	6.9	1.67e-01	0	43	102	1048576	22	6729
2026-01-25 02:38:57.14	8.54	7.37	-31.3	-36.8	7.0	1.58e-01	0	43	102	1048576	22	6711
2026-01-25 02:38:58.14	8.43	7.43	-31.4	-36.8	6.9	1.60e-01	0	43	102	1048576	22	6763
2026-01-25 02:38:59.15	8.32	7.49	-31.5	-37.1	6.4	2.41e-01	0	43	102	1048576	23	6828
2026-01-25 02:39:00.16	8.21	7.55	-31.3	-36.1	7.1	1.62e-01	0	43	102	1048576	23	6229
2026-01-25 02:39:01.16	8.10	7.60	-31.0	-35.4	8.0	8.11e-02	0	43	102	1048576	22	5989
2026-01-25 02:39:02.15	7.99	7.66	-30.7	-34.8	8.8	3.29e-02	0	43	102	1048576	21	5781
2026-01-25 02:39:03.16	7.88	7.72	-30.6	-34.6	8.8	3.24e-02	0	43	102	1048576	21	5720
2026-01-25 02:39:04.17	7.77	7.78	-30.3	-34.2	9.6	2.13e-02	0	43	102	1048576	20	5607
2026-01-25 02:39:05.17	7.66	7.84	-29.9	-32.9	10.4	5.34e-03	0	43	102	1048576	20	5102
2026-01-25 02:39:06.18	7.54	7.90	-29.5	-31.9	11.1	1.88e-03	0	43	102	1048576	20	4748
2026-01-25 02:39:07.18	7.43	7.96	-29.3	-32.4	11.6	7.03e-04	0	43	102	1048576	18	5101
2026-01-25 02:39:08.17	7.32	8.02	-29.7	-32.8	11.0	5.08e-03	0	43	102	1048576	19	5144
2026-01-25 02:39:09.17	7.21	8.07	-29.6	-32.6	11.1	1.52e-03	0	43	102	1048576	19	5064
2026-01-25 02:39:10.17	7.09	8.13	-29.6	-32.7	11.1	1.55e-03	0	43	102	1048576	19	5101
2026-01-25 02:39:11.17	6.98	8.19	-29.7	-32.8	11.0	2.12e-03	0	43	102	1048576	19	5151
2026-01-25 02:39:12.18	6.86	8.25	-29.5	-32.3	11.3	1.17e-03	0	43	102	1048576	19	4974
2026-01-25 02:39:13.18	6.75	8.31	-29.5	-32.1	11.5	4.71e-03	0	43	102	1048576	19	4908
2026-01-25 02:39:14.19	6.63	8.37	-29.4	-32.5	11.6	8.05e-04	0	43	102	1048576	18	5153
2026-01-25 02:39:15.19	6.52	8.43	-29.5	-32.7	11.5	7.46e-04	0	43	102	1048576	18	5216
2026-01-25 02:39:16.20	6.40	8.49	-29.7	-32.9	11.0	2.21e-03	0	43	102	1048576	19	5171
2026-01-25 02:39:17.20	6.28	8.55	-29.5	-32.1	11.5	9.99e-04	0	43	102	1048576	19	4907
2026-01-25 02:39:18.21	6.16	8.61	-29.1	-31.2	12.1	3.55e-04	0	43	102	1048576	19	4592
2026-01-25 02:39:19.21	6.05	8.67	-28.9	-31.2	12.5	1.38e-04	0	43	102	1048576	18	4681
2026-01-25 02:39:20.22	5.93	8.73	-28.7	-31.1	12.8	8.77e-05	0	43	102	1048576	17	4770
2026-01-25 02:39:21.23	5.81	8.79	-28.6	-30.8	13.0	4.34e-05	0	43	102	1048576	17	4678
2026-01-25 02:39:22.24	5.69	8.85	-28.5	-30.7	13.1	2.89e-05	0	43	102	1048576	17	4640
2026-01-25 02:39:23.24	5.57	8.91	-28.5	-30.8	13.0	4.65e-05	0	43	102	1048576	17	4656
2026-01-25 02:39:24.24	5.45	8.96	-28.5	-30.6	13.1	2.67e-05	0	43	102	1048576	17	4601
2026-01-25 02:39:25.25	5.32	9.02	-28.5	-31.1	13.1	3.50e-05	0	43	102	1048576	16	4876
2026-01-25 02:39:26.25	5.20	9.08	-28.3	-30.8	13.3	1.67e-05	0	43	102	1048576	16	4778
2026-01-25 02:39:27.26	5.08	9.14	-28.4	-30.8	13.3	2.05e-05	0	44	102	1048576	16	4767
2026-01-25 02:39:28.26	4.96	9.20	-28.3	-30.7	13.4	1.06e-05	0	43	102	1048576	16	4729
2026-01-25 02:39:29.26	4.83	9.26	-28.2	-30.4	13.6	1.29e-05	0	44	102	1048576	16	4656
2026-01-25 02:39:30.26	4.71	9.32	-28.2	-30.5	13.5	8.30e-06	0	44	102	1048576	16	4683
2026-01-25 02:39:31.26	4.59	9.38	-28.3	-30.8	13.4	1.67e-05	0	44	102	1048576	16	4764
2026-01-25 02:39:32.27	4.46	9.44	-28.3	-30.6	13.5	9.10e-06	0	44	102	1048576	16	4716
2026-01-25 02:39:33.27	4.34	9.50	-28.4	-30.8	13.3	1.22e-05	0	43	102	1048576	16	4784
2026-01-25 02:39:34.27	4.21	9.56	-28.3	-30.7	13.4	1.14e-05	0	43	102	1048576	16	4744
2026-01-25 02:39:35.28	4.08	9.62	-28.3	-30.7	13.4	8.30e-06	0	43	102	1048576	16	4729
2026-01-25 02:39:36.28	3.96	9.68	-28.3	-30.7	13.4	9.90e-06	0	43	102	1048576	16	4743
2026-01-25 02:39:37.29	3.83	9.74	-28.4	-30.8	13.3	1.83e-05	0	44	102	1048576	16	4788
2026-01-25 02:39:38.29	3.70	9.80	-28.3	-30.7	13.4	1.22e-05	0	44	102	1048576	16	4730
2026-01-25 02:39:39.29	3.57	9.86	-28.3	-30.6	13.5	1.22e-05	0	43	102	1048576	16	4693
2026-01-25 02:39:40.29	3.44	9.92	-28.2	-30.5	13.6	1.14e-05	0	44	102	1048576	16	4681
2026-01-25 02:39:41.29	3.31	9.98	-28.3	-30.6	13.5	1.22e-05	0	44	102	1048576	16	4708
2026-01-25 02:39:42.29	3.18	10.04	-28.0	-30.0	13.9	3.00e-06	0	44	102	1048576	16	4512
2026-01-25 02:39:43.29	3.05	10.09	-27.7	-29.8	14.1	3.80e-06	0	44	102	1048576	15	4567
2026-01-25 02:39:44.29	2.92	10.15	-27.7	-29.8	14.1	3.00e-06	0	44	102	1048576	15	4565
2026-01-25 02:39:45.30	2.79	10.21	-27.7	-29.7	14.2	0.00e+00	0	43	102	1048576	15	4546
2026-01-25 02:39:46.30	2.66	10.27	-27.7	-29.8	14.1	1.50e-06	0	44	102	1048576	15	4564
2026-01-25 02:39:47.31	2.52	10.33	-27.8	-30.0	14.0	1.50e-06	0	44	102	1048576	15	4625
2026-01-25 02:39:48.32	2.39	10.39	-27.9	-30.2	13.9	4.50e-06	0	44	102	1048576	15	4692
2026-01-25 02:39:49.32	2.26	10.45	-27.7	-29.8	14.1	2.20e-06	0	44	102	1048576	15	4572
2026-01-25 02:39:50.33	2.12	10.51	-27.6	-29.6	14.2	7.00e-07	0	43	102	1048576	15	4526
2026-01-25 02:39:51.33	1.99	10.57	-27.6	-29.5	14.3	7.00e-07	0	44	102	1048576	15	4504
2026-01-25 02:39:52.34	1.85	10.63	-27.6	-29.5	14.3	7.00e-07	0	44	102	1048576	15	4478
2026-01-25 02:39:53.35	1.71	10.69	-27.5	-29.3	14.4	0.00e+00	0	44	102	1048576	15	4432
2026-01-25 02:39:54.35	1.58	10.75	-27.5	-29.2	14.5	0.00e+00	0	44	102	1048576	15	4402
2026-01-25 02:39:55.36	1.44	10.81	-27.4	-29.5	14.6	7.00e-07	0	44	102	1048576	14	4609
2026-01-25 02:39:56.37	1.30	10.87	-27.3	-29.3	14.7	7.00e-07	0	44	102	1048576	14	4531
2026-01-25 02:39:57.38	1.16	10.93	-27.4	-29.5	14.7	7.00e-07	0	44	102	1048576	14	4585
2026-01-25 02:39:58.38	1.02	10.99	-27.4	-29.5	14.6	0.00e+00	0	44	102	1048576	14	4594
2026-01-25 02:39:59.39	0.88	11.05	-27.4	-29.5	14.6	0.00e+00	0	44	102	1048576	14	4610
2026-01-25 02:40:00.39	0.74	11.11	-27.4	-29.6	14.5	7.00e-07	0	44	102	1048576	14	4636
2026-01-25 02:40:01.39	0.60	11.17	-27.5	-29.3	14.5	3.36e-03	0	44	102	1048576	15	4439
2026-01-25 02:40:02.39	0.46	11.23	-27.7	-29.7	14.2	1.50e-06	0	43	102	1048576	15	4545
2026-01-25 02:40:03.39	0.32	11.29	-27.7	-29.8	14.2	1.50e-06	0	44	102	1048576	15	4579
2026-01-25 02:40:04.39	0.17	11.34	-27.6	-29.5	14.4	3.80e-06	0	44	102	1048576	15	4479
2026-01-25 02:40:05.40	0.03	11.40	-27.6	-29.5	14.4	6.10e-06	0	44	102	1048576	15	4486
2026-01-25 02:40:06.40	359.89	11.46	-27.5	-29.4	14.4	3.96e-03	0	44	102	1048576	15	4457
2026-01-25 02:40:07.40	359.74	11.52	-27.5	-29.2	14.5	1.50e-06	0	44	102	1048576	15	4402
2026-01-25 02:40:08.64	359.56	11.60	-27.4	-29.1	14.6	7.00e-07	0	44	102	1048576	15	4379
2026-01-25 02:40:09.40	359.45	11.64	-27.5	-29.2	14.5	0.00e+00	0	44	102	1048576	15	4395
2026-01-25 02:40:10.70	359.26	11.72	-27.5	-29.2	14.5	3.39e-03	0	44	102	1048576	15	4403
2026-01-25 02:40:11.41	359.16	11.76	-27.4	-29.0	14.6	0.00e+00	0	44	102	1048576	15	4344
2026-01-25 02:40:12.71	358.97	11.83	-27.5	-29.2	14.6	3.38e-03	0	44	102	1048576	15	4396
2026-01-25 02:40:13.43	358.86	11.88	-27.5	-29.2	14.6	0.00e+00	0	44	102	1048576	15	4408
2026-01-25 02:40:14.72	358.67	11.95	-27.5	-29.7	14.6	0.00e+00	0	44	102	1048576	14	4652
2026-01-25 02:40:15.44	358.56	11.99	-27.4	-29.7	14.6	7.00e-07	0	44	102	1048576	14	4646
2026-01-25 02:40:16.73	358.37	12.07	-27.5	-29.7	14.6	3.60e-03	0	44	102	1048576	14	4654
2026-01-25 02:40:17.45	358.26	12.11	-27.4	-29.6	14.6	0.00e+00	0	44	102	1048576	14	4627
2026-01-25 02:40:18.74	358.07	12.19	-27.4	-29.6	14.7	3.67e-03	0	43	102	1048576	14	4615
2026-01-25 02:40:19.46	357.96	12.23	-27.5	-29.4	14.5	0.00e+00	0	44	102	1048576	15	4439
2026-01-25 02:40:20.75	357.76	12.30	-27.5	-29.2	14.6	6.10e-05	0	44	102	1048576	15	4399
2026-01-25 02:40:21.46	357.65	12.35	-27.5	-29.3	14.6	0.00e+00	0	44	102	1048576	15	4415
2026-01-25 02:40:22.75	357.46	12.42	-27.4	-29.5	14.6	3.67e-03	0	44	102	1048576	14	4609
2026-01-25 02:40:23.47	357.35	12.46	-27.4	-29.6	14.6	0.00e+00	0	44	102	1048576	14	4642
2026-01-25 02:40:24.76	357.15	12.54	-27.6	-29.6	14.4	1.50e-06	0	44	102	1048576	15	4502
2026-01-25 02:40:25.48	357.03	12.58	-27.7	-29.7	14.3	3.62e-03	0	44	102	1048576	15	4528
2026-01-25 02:40:26.78	356.83	12.65	-27.6	-29.4	14.5	1.21e-04	0	44	102	1048576	15	4464
2026-01-25 02:40:27.50	356.72	12.70	-27.7	-29.7	14.4	0.00e+00	0	44	102	1048576	15	4534
2026-01-25 02:40:28.79	356.52	12.77	-27.8	-29.9	14.2	3.29e-03	0	44	102	1048576	15	4594
2026-01-25 02:40:29.51	356.40	12.81	-27.8	-30.0	14.2	2.13e-05	0	44	102	1048576	15	4620
2026-01-25 02:40:30.79	356.20	12.89	-27.6	-29.6	14.4	7.00e-07	0	44	102	1048576	15	4500
2026-01-25 02:40:31.52	356.09	12.93	-27.6	-29.5	14.5	1.50e-06	0	44	102	1048576	15	4466
2026-01-25 02:40:32.81	355.88	13.00	-27.6	-29.6	14.4	0.00e+00	0	44	102	1048576	15	4501
2026-01-25 02:40:33.53	355.76	13.04	-27.6	-29.6	14.4	7.00e-07	0	44	102	1048576	15	4510
2026-01-25 02:40:34.82	355.56	13.12	-27.6	-29.4	14.5	2.20e-06	0	44	102	1048576	15	4450
2026-01-25 02:40:35.54	355.44	13.16	-27.7	-29.6	14.4	5.30e-06	0	44	102	1048576	15	4516
2026-01-25 02:40:36.83	355.23	13.23	-27.6	-29.4	14.5	1.50e-06	0	44	102	1048576	15	4454
2026-01-25 02:40:37.56	355.11	13.27	-27.5	-29.3	14.6	7.00e-07	0	44	102	1048576	15	4415
2026-01-25 02:40:38.84	354.90	13.35	-27.5	-29.4	14.6	0.00e+00	0	44	102	1048576	15	4449
2026-01-25 02:40:39.57	354.78	13.39	-27.5	-29.3	14.6	2.07e-03	0	44	102	1048576	15	4437
2026-01-25 02:40:40.86	354.57	13.46	-27.3	-29.2	15.0	7.00e-07	0	44	102	1048576	14	4492
2026-01-25 02:40:41.58	354.45	13.50	-27.3	-29.3	14.9	2.44e-05	0	44	102	1048576	14	4514
2026-01-25 02:40:42.87	354.24	13.57	-27.4	-29.6	14.7	7.00e-07	0	44	102	1048576	14	4607
2026-01-25 02:40:43.59	354.12	13.61	-27.4	-29.5	14.8	4.49e-04	0	44	102	1048576	14	4588
2026-01-25 02:40:44.88	353.90	13.69	-27.2	-29.1	15.0	0.00e+00	0	44	102	1048576	14	4485
2026-01-25 02:40:45.60	353.78	13.73	-27.2	-29.2	14.9	1.66e-03	0	44	102	1048576	14	4496
2026-01-25 02:40:46.89	353.56	13.80	-27.3	-29.3	14.9	0.00e+00	0	44	102	1048576	14	4519
2026-01-25 02:40:47.61	353.44	13.84	-27.3	-29.2	14.9	9.23e-05	0	44	102	1048576	14	4495
2026-01-25 02:40:48.90	353.22	13.91	-27.2	-29.1	14.9	0.00e+00	0	44	102	1048576	14	4481
2026-01-25 02:40:49.62	353.10	13.95	-27.3	-29.3	14.9	1.11e-03	0	44	102	1048576	14	4523
2026-01-25 02:40:50.92	352.88	14.02	-27.3	-29.3	14.9	0.00e+00	0	44	102	1048576	14	4525
2026-01-25 02:40:51.64	352.75	14.06	-27.3	-29.4	14.9	8.86e-04	0	44	102	1048576	14	4550
2026-01-25 02:40:52.93	352.53	14.14	-27.3	-29.3	14.9	0.00e+00	0	44	102	1048576	14	4530
2026-01-25 02:40:53.65	352.41	14.18	-27.3	-29.2	14.9	0.00e+00	0	44	102	1048576	14	4501
2026-01-25 02:40:54.94	352.18	14.25	-27.3	-29.4	14.9	0.00e+00	0	44	102	1048576	14	4550
2026-01-25 02:40:55.66	352.06	14.29	-27.4	-29.5	14.8	0.00e+00	0	44	102	1048576	14	4585
2026-01-25 02:40:56.95	351.83	14.36	-27.5	-29.2	14.7	0.00e+00	0	44	102	1048576	15	4382
2026-01-25 02:40:57.67	351.70	14.40	-27.4	-29.0	14.8	3.57e-04	0	44	102	1048576	15	4327
2026-01-25 02:40:58.97	351.48	14.47	-27.6	-29.4	14.5	0.00e+00	0	44	102	1048576	15	4458
2026-01-25 02:40:59.68	351.35	14.50	-27.6	-29.5	14.5	7.00e-07	0	44	102	1048576	15	4476
2026-01-25 02:41:00.98	351.12	14.57	-27.4	-29.1	14.7	7.00e-07	0	44	102	1048576	15	4361
2026-01-25 02:41:01.69	350.99	14.61	-27.4	-29.1	14.7	0.00e+00	0	44	102	1048576	15	4378
2026-01-25 02:41:02.99	350.76	14.68	-27.4	-29.0	14.8	7.00e-07	0	44	102	1048576	15	4335
2026-01-25 02:41:03.70	350.63	14.72	-27.4	-29.6	14.8	7.00e-07	0	44	102	1048576	14	4621
2026-01-25 02:41:05.00	350.40	14.79	-27.5	-29.2	14.7	1.50e-06	0	44	102	1048576	15	4396
2026-01-25 02:41:05.71	350.27	14.83	-27.4	-29.0	14.8	0.00e+00	0	44	102	1048576	15	4342
2026-01-25 02:41:07.01	350.03	14.90	-27.4	-29.7	14.7	0.00e+00	0	44	102	1048576	14	4661
2026-01-25 02:41:07.72	349.90	14.93	-27.4	-29.7	14.7	7.00e-07	0	44	102	1048576	14	4650
2026-01-25 02:41:09.03	349.66	15.00	-27.5	-29.7	14.7	0.00e+00	0	44	102	1048576	14	4667
2026-01-25 02:41:09.75	349.53	15.04	-27.5	-29.2	14.7	0.00e+00	0	44	102	1048576	15	4405
2026-01-25 02:41:11.03	349.29	15.11	-27.5	-29.2	14.7	0.00e+00	0	44	102	1048576	15	4398
2026-01-25 02:41:11.76	349.16	15.15	-27.6	-29.6	14.5	0.00e+00	0	44	102	1048576	15	4497
2026-01-25 02:41:13.04	348.92	15.21	-27.6	-29.5	14.6	7.00e-07	0	44	102	1048576	15	4471
2026-01-25 02:41:13.76	348.79	15.25	-27.5	-29.2	14.7	0.00e+00	0	44	102	1048576	15	4392
2026-01-25 02:41:15.05	348.55	15.32	-27.4	-29.1	14.8	7.00e-07	0	44	102	1048576	15	4380
2026-01-25 02:41:15.77	348.41	15.35	-27.4	-29.1	14.8	7.00e-07	0	44	102	1048576	15	4363
2026-01-25 02:41:17.07	348.17	15.42	-27.5	-29.7	14.7	0.00e+00	0	44	102	1048576	14	4668
2026-01-25 02:41:17.79	348.03	15.46	-27.5	-29.3	14.7	0.00e+00	0	44	102	1048576	15	4420
2026-01-25 02:41:19.08	347.79	15.52	-27.7	-29.6	14.3	7.00e-07	0	44	102	1048576	15	4511
2026-01-25 02:41:19.81	347.65	15.56	-27.6	-29.4	14.6	0.00e+00	0	44	102	1048576	15	4450
2026-01-25 02:41:21.10	347.40	15.62	-27.5	-29.2	14.7	4.97e-04	0	44	102	1048576	15	4389
2026-01-25 02:41:21.82	347.26	15.66	-27.6	-29.4	14.7	7.00e-07	0	44	102	1048576	15	4433
2026-01-25 02:41:23.12	347.01	15.72	-27.5	-29.2	14.7	7.00e-07	0	44	102	1048576	15	4399
2026-01-25 02:41:23.83	346.87	15.76	-27.5	-29.3	14.7	0.00e+00	0	44	102	1048576	15	4426
2026-01-25 02:41:25.12	346.63	15.82	-27.8	-29.8	14.4	0.00e+00	0	44	102	1048576	15	4576
2026-01-25 02:41:25.83	346.49	15.86	-27.6	-29.6	14.5	2.20e-06	0	44	102	1048576	15	4505
2026-01-25 02:41:27.13	346.23	15.92	-27.5	-29.3	14.7	9.83e-04	0	44	102	1048576	15	4415
2026-01-25 02:41:27.85	346.09	15.96	-27.5	-29.2	14.7	0.00e+00	0	44	102	1048576	15	4394
2026-01-25 02:41:29.14	345.84	16.02	-27.5	-29.7	14.7	1.50e-06	0	44	102	1048576	14	4652
2026-01-25 02:41:29.86	345.70	16.05	-27.4	-29.6	14.8	0.00e+00	0	44	102	1048576	14	4630
2026-01-25 02:41:31.17	345.44	16.12	-27.4	-29.4	14.9	2.87e-03	0	44	102	1048576	14	4572
2026-01-25 02:41:31.88	345.30	16.15	-27.4	-29.5	14.9	0.00e+00	0	44	102	1048576	14	4572
2026-01-25 02:41:33.18	345.04	16.21	-27.3	-29.3	15.0	3.14e-03	0	44	102	1048576	14	4527
2026-01-25 02:41:33.90	344.90	16.25	-27.2	-29.1	15.1	0.00e+00	0	44	102	1048576	14	4483
2026-01-25 02:41:35.19	344.64	16.31	-27.2	-29.1	15.1	0.00e+00	0	44	102	1048576	14	4465
2026-01-25 02:41:35.91	344.49	16.34	-27.3	-29.3	15.0	0.00e+00	0	44	102	1048576	14	4519
2026-01-25 02:41:37.20	344.23	16.40	-27.1	-28.9	15.2	3.31e-03	0	44	102	1048576	14	4400
2026-01-25 02:41:37.92	344.09	16.43	-27.1	-28.8	15.3	0.00e+00	0	44	102	1048576	14	4379
2026-01-25 02:41:39.21	343.83	16.49	-27.2	-29.1	15.1	3.43e-03	0	44	102	1048576	14	4468
2026-01-25 02:41:39.93	343.68	16.52	-26.5	-28.4	14.2	1.23e-03	0	44	102	1048576	14	4480
2026-01-25 02:41:41.22	343.42	16.58	-27.4	-29.4	15.0	0.00e+00	0	44	102	1048576	14	4552
2026-01-25 02:41:41.94	343.27	16.62	-27.4	-29.5	14.2	0.00e+00	0	44	102	1048576	14	4581
2026-01-25 02:41:43.23	343.01	16.67	-27.4	-29.6	14.8	3.85e-03	0	44	102	1048576	14	4602
2026-01-25 02:41:43.94	342.86	16.70	-27.5	-29.7	14.8	0.00e+00	0	44	102	1048576	14	4638
2026-01-25 02:41:45.23	342.59	16.76	-27.5	-29.7	14.8	7.00e-07	0	44	102	1048576	14	4631
2026-01-25 02:41:45.96	342.44	16.79	-27.5	-29.3	14.7	0.00e+00	0	44	102	1048576	15	4403
2026-01-25 02:41:47.26	342.17	16.85	-27.7	-29.7	14.5	1.50e-06	0	44	102	1048576	15	4540
2026-01-25 02:41:47.98	342.02	16.88	-27.5	-29.3	14.7	0.00e+00	0	44	102	1048576	15	4405
2026-01-25 02:41:49.27	341.75	16.94	-27.7	-29.7	14.5	3.57e-03	0	44	102	1048576	15	4531
2026-01-25 02:41:49.99	341.60	16.97	-27.6	-29.4	14.7	7.00e-07	0	44	102	1048576	15	4433
2026-01-25 02:41:51.28	341.33	17.02	-27.3	-29.3	15.0	0.00e+00	0	44	102	1048576	14	4524
2026-01-25 02:41:52.00	341.18	17.05	-27.3	-29.3	15.0	7.00e-07	0	44	102	1048576	14	4526
2026-01-25 02:41:53.29	340.91	17.10	-27.5	-29.3	14.7	0.00e+00	0	44	102	1048576	15	4420
2026-01-25 02:41:54.01	340.75	17.13	-27.3	-29.3	15.0	0.00e+00	0	44	102	1048576	14	4535
2026-01-25 02:41:55.30	340.48	17.19	-27.0	-28.6	15.4	0.00e+00	0	44	102	1048576	14	4327
2026-01-25 02:41:56.02	340.33	17.22	-26.9	-28.4	15.5	0.00e+00	0	44	102	1048576	14	4268
2026-01-25 02:41:57.31	340.05	17.27	-26.9	-28.9	15.5	0.00e+00	0	44	102	1048576	13	4510
2026-01-25 02:41:58.02	339.90	17.30	-26.9	-28.8	15.6	0.00e+00	0	44	102	1048576	13	4481
2026-01-25 02:41:59.31	339.62	17.35	-26.9	-28.7	15.6	0.00e+00	0	44	102	1048576	13	4474
2026-01-25 02:42:00.03	339.47	17.37	-26.9	-29.0	15.4	3.58e-03	0	44	102	1048576	13	4535
2026-01-25 02:42:01.32	339.19	17.42	-27.2	-29.1	15.1	0.00e+00	0	44	102	1048576	14	4472
2026-01-25 02:42:02.04	339.03	17.45	-27.1	-28.8	15.3	0.00e+00	0	44	102	1048576	14	4376
2026-01-25 02:42:03.34	338.75	17.50	-26.8	-28.7	15.6	0.00e+00	0	44	102	1048576	13	4467
2026-01-25 02:42:04.05	338.60	17.53	-26.8	-28.7	15.7	3.92e-03	0	44	102	1048576	13	4458
2026-01-25 02:42:05.34	338.32	17.58	-26.9	-28.8	15.6	0.00e+00	0	44	102	1048576	13	4500
2026-01-25 02:42:06.06	338.16	17.60	-26.9	-28.8	15.6	3.82e-03	0	44	102	1048576	13	4482
2026-01-25 02:42:07.35	337.88	17.65	-27.1	-28.7	15.4	0.00e+00	0	44	102	1048576	14	4351
2026-01-25 02:42:08.06	337.72	17.68	-26.9	-28.4	15.5	0.00e+00	0	44	102	1048576	14	4269
2026-01-25 02:42:09.35	337.43	17.72	-26.8	-28.6	15.7	0.00e+00	0	44	102	1048576	13	4424
2026-01-25 02:42:10.07	337.28	17.75	-26.8	-28.7	15.6	3.90e-03	0	44	102	1048576	13	4449
2026-01-25 02:42:11.36	336.99	17.79	-26.8	-28.7	15.6	0.00e+00	0	44	102	1048576	13	4458
2026-01-25 02:42:12.08	336.83	17.82	-26.9	-28.8	15.5	3.87e-03	0	44	102	1048576	13	4481
2026-01-25 02:42:13.37	336.54	17.86	-27.1	-28.8	15.3	0.00e+00	0	44	102	1048576	14	4382
2026-01-25 02:42:14.09	336.38	17.89	-27.2	-28.9	15.3	0.00e+00	0	44	102	1048576	14	4415
2026-01-25 02:42:15.38	336.10	17.93	-27.1	-28.7	15.3	0.00e+00	0	44	102	1048576	14	4358
2026-01-25 02:42:16.09	335.94	17.95	-27.1	-28.8	15.3	3.33e-03	0	44	102	1048576	14	4376
2026-01-25 02:42:17.38	335.65	17.99	-27.1	-28.8	15.3	0.00e+00	0	44	102	1048576	14	4389
2026-01-25 02:42:18.10	335.48	18.02	-27.2	-29.0	15.2	2.50e-04	0	44	102	1048576	14	4435
2026-01-25 02:42:19.39	335.19	18.06	-27.1	-28.8	15.3	0.00e+00	0	44	102	1048576	14	4372
2026-01-25 02:42:20.11	335.03	18.08	-26.8	-28.2	15.7	0.00e+00	0	44	102	1048576	14	4210
2026-01-25 02:42:21.41	334.74	18.12	-26.6	-28.2	15.9	0.00e+00	0	44	102	1048576	13	4308
2026-01-25 02:42:22.13	334.57	18.14	-26.7	-28.4	15.8	3.71e-03	0	44	102	1048576	13	4368
2026-01-25 02:42:23.42	334.28	18.18	-26.6	-28.1	15.9	0.00e+00	0	44	102	1048576	13	4305
2026-01-25 02:42:24.13	334.12	18.20	-26.6	-28.1	15.9	0.00e+00	0	44	102	1048576	13	4294
2026-01-25 02:42:25.42	333.83	18.24	-26.6	-28.3	15.8	0.00e+00	0	44	102	1048576	13	4338
2026-01-25 02:42:26.14	333.66	18.26	-26.6	-28.2	15.9	0.00e+00	0	44	102	1048576	13	4320
2026-01-25 02:42:27.43	333.37	18.30	-26.7	-28.3	15.9	0.00e+00	0	44	102	1048576	13	4353
2026-01-25 02:42:28.14	333.20	18.32	-26.8	-28.6	15.6	0.00e+00	0	44	102	1048576	13	4449
2026-01-25 02:42:29.43	332.91	18.35	-26.6	-28.2	15.9	0.00e+00	0	44	102	1048576	13	4315
2026-01-25 02:42:30.15	332.74	18.37	-26.5	-28.0	16.0	0.00e+00	0	44	102	1048576	13	4276
2026-01-25 02:42:31.44	332.44	18.41	-26.6	-28.1	16.0	0.00e+00	0	44	102	1048576	13	4281
2026-01-25 02:42:32.16	332.28	18.42	-26.7	-28.3	15.9	0.00e+00	0	44	102	1048576	13	4344
2026-01-25 02:42:33.44	331.98	18.46	-26.5	-28.0	16.0	0.00e+00	0	44	102	1048576	13	4267
2026-01-25 02:42:34.16	331.81	18.47	-26.5	-28.0	16.0	0.00e+00	0	44	102	1048576	13	4266
2026-01-25 02:42:35.45	331.51	18.51	-26.7	-28.4	15.8	0.00e+00	0	44	102	1048576	13	4368
2026-01-25 02:42:36.17	331.35	18.52	-26.6	-28.1	15.9	0.00e+00	0	44	102	1048576	13	4307
2026-01-25 02:42:37.46	331.04	18.55	-26.6	-28.2	15.9	0.00e+00	0	44	102	1048576	13	4315
2026-01-25 02:42:38.18	330.88	18.57	-26.7	-28.4	15.8	0.00e+00	0	44	102	1048576	13	4368
2026-01-25 02:42:39.47	330.57	18.60	-26.7	-28.5	15.7	0.00e+00	0	44	102	1048576	13	4403
2026-01-25 02:42:40.19	330.41	18.62	-26.8	-28.6	15.7	0.00e+00	0	44	102	1048576	13	4446
2026-01-25 02:42:41.48	330.10	18.64	-27.0	-28.5	15.5	0.00e+00	0	44	102	1048576	14	4291
2026-01-25 02:42:42.19	329.94	18.66	-26.9	-28.3	15.6	0.00e+00	0	44	102	1048576	14	4238
2026-01-25 02:42:43.49	329.63	18.69	-26.8	-28.6	15.7	0.00e+00	0	44	102	1048576	13	4444
2026-01-25 02:42:44.20	329.46	18.70	-26.8	-28.6	15.7	0.00e+00	0	44	102	1048576	13	4441
2026-01-25 02:42:45.50	329.16	18.73	-26.1	-28.0	15.7	0.00e+00	0	44	102	1048576	13	4474
2026-01-25 02:42:46.22	328.99	18.74	-26.8	-28.7	15.7	0.00e+00	0	44	102	1048576	13	4452
2026-01-25 02:42:47.50	328.68	18.77	-26.8	-28.6	13.0	0.00e+00	0	44	102	1048576	13	4445
2026-01-25 02:42:48.22	328.51	18.78	-26.8	-28.7	15.6	0.00e+00	0	44	102	1048576	13	4462
2026-01-25 02:42:49.52	328.21	18.80	-26.9	-28.8	15.6	0.00e+00	0	44	102	1048576	13	4490
2026-01-25 02:42:50.24	328.04	18.81	-26.8	-28.7	15.6	0.00e+00	0	44	102	1048576	13	4462
2026-01-25 02:42:51.52	327.73	18.84	-26.9	-28.8	15.6	0.00e+00	0	44	102	1048576	13	4495
2026-01-25 02:42:52.23	327.56	18.85	-27.0	-28.6	15.4	0.00e+00	0	44	102	1048576	14	4332
2026-01-25 02:42:53.53	327.25	18.87	-26.9	-28.9	15.6	0.00e+00	0	44	102	1048576	13	4515
2026-01-25 02:42:54.25	327.08	18.88	-27.0	-29.0	15.5	0.00e+00	0	44	102	1048576	13	4547
2026-01-25 02:42:55.54	326.77	18.90	-27.0	-28.6	15.4	0.00e+00	0	44	102	1048576	14	4329
2026-01-25 02:42:56.26	326.60	18.91	-27.2	-29.0	15.3	0.00e+00	0	44	102	1048576	14	4417
2026-01-25 02:42:57.56	326.29	18.93	-27.2	-29.0	15.2	3.61e-03	0	44	102	1048576	14	4432
2026-01-25 02:42:58.27	326.12	18.94	-27.2	-29.1	15.2	0.00e+00	0	44	102	1048576	14	4461
2026-01-25 02:42:59.57	325.81	18.95	-27.1	-28.8	15.4	7.00e-07	0	44	102	1048576	14	4366
2026-01-25 02:43:00.28	325.64	18.96	-27.0	-28.6	15.4	0.00e+00	0	44	102	1048576	14	4312
2026-01-25 02:43:01.59	325.32	18.98	-26.9	-28.8	15.6	0.00e+00	0	44	102	1048576	13	4494
2026-01-25 02:43:02.30	325.15	18.98	-26.8	-28.7	15.7	0.00e+00	0	44	102	1048576	13	4454
2026-01-25 02:43:03.59	324.84	19.00	-26.8	-28.6	15.7	3.84e-03	0	44	102	1048576	13	4444
2026-01-25 02:43:04.31	324.67	19.01	-26.8	-28.6	15.7	0.00e+00	0	44	102	1048576	13	4445
2026-01-25 02:43:05.60	324.36	19.02	-26.9	-28.9	15.5	3.07e-03	0	44	102	1048576	13	4506
2026-01-25 02:43:06.32	324.19	19.03	-27.1	-28.9	15.3	0.00e+00	0	44	102	1048576	14	4396
2026-01-25 02:43:07.61	323.88	19.04	-27.2	-29.1	15.2	0.00e+00	0	44	102	1048576	14	4469
2026-01-25 02:43:08.33	323.70	19.04	-26.5	-28.5	15.1	0.00e+00	0	44	102	1048576	14	4536
2026-01-25 02:43:09.61	323.39	19.05	-27.3	-29.3	15.0	3.45e-03	0	44	102	1048576	14	4506
2026-01-25 02:43:10.33	323.22	19.06	-27.3	-29.4	15.0	0.00e+00	0	44	102	1048576	14	4540
2026-01-25 02:43:11.62	322.91	19.07	-27.2	-29.0	15.2	3.50e-03	0	44	102	1048576	14	4427
2026-01-25 02:43:12.35	322.73	19.07	-27.1	-28.9	15.1	0.00e+00	0	44	102	1048576	14	4391
2026-01-25 02:43:13.63	322.42	19.08	-27.3	-29.2	15.1	0.00e+00	0	44	102	1048576	14	4507
2026-01-25 02:43:14.35	322.25	19.08	-27.4	-29.6	14.9	3.96e-03	0	44	102	1048576	14	4597
2026-01-25 02:43:15.65	321.94	19.09	-27.1	-28.9	15.3	0.00e+00	0	44	102	1048576	14	4393
2026-01-25 02:43:16.37	321.76	19.09	-27.1	-28.7	15.4	0.00e+00	0	44	102	1048576	14	4352
2026-01-25 02:43:17.66	321.45	19.09	-26.9	-28.9	15.5	1.82e-03	0	44	102	1048576	13	4522
2026-01-25 02:43:18.37	321.28	19.09	-27.0	-29.0	15.4	0.00e+00	0	44	102	1048576	13	4544
2026-01-25 02:43:19.66	320.97	19.10	-27.0	-28.6	15.4	0.00e+00	0	44	102	1048576	14	4314
2026-01-25 02:43:20.38	320.79	19.10	-27.2	-29.0	15.2	2.53e-03	0	44	102	1048576	14	4429
2026-01-25 02:43:21.67	320.48	19.10	-27.4	-29.4	15.0	3.56e-03	0	44	102	1048576	14	4549
2026-01-25 02:43:22.38	320.31	19.10	-27.2	-29.1	15.2	0.00e+00	0	44	102	1048576	14	4452
2026-01-25 02:43:23.67	319.99	19.10	-27.0	-28.6	15.4	3.88e-03	0	44	102	1048576	14	4334
2026-01-25 02:43:24.39	319.82	19.10	-27.0	-29.0	15.5	3.87e-03	0	44	102	1048576	13	4555
2026-01-25 02:43:25.68	319.51	19.10	-26.9	-28.4	15.5	0.00e+00	0	44	102	1048576	14	4274
2026-01-25 02:43:26.40	319.33	19.10	-26.9	-28.3	15.6	3.63e-03	0	44	102	1048576	14	4240
2026-01-25 02:43:27.69	319.02	19.10	-26.9	-28.9	15.6	0.00e+00	0	44	102	1048576	13	4511
2026-01-25 02:43:28.40	318.85	19.09	-26.9	-28.8	15.6	0.00e+00	0	44	102	1048576	13	4485
2026-01-25 02:43:29.69	318.54	19.09	-26.5	-28.0	16.0	0.00e+00	0	44	102	1048576	13	4258
2026-01-25 02:43:30.41	318.36	19.09	-26.5	-27.9	16.1	1.72e-04	0	44	102	1048576	13	4227
2026-01-25 02:43:31.71	318.05	19.08	-26.6	-28.1	16.0	0.00e+00	0	44	102	1048576	13	4300
2026-01-25 02:43:32.42	317.88	19.08	-26.7	-28.3	15.8	0.00e+00	0	44	102	1048576	13	4360
2026-01-25 02:43:33.71	317.57	19.07	-26.6	-28.3	15.9	1.47e-03	0	44	102	1048576	13	4342
2026-01-25 02:43:34.43	317.39	19.07	-26.7	-28.4	15.8	2.20e-06	0	44	102	1048576	13	4383
2026-01-25 02:43:35.72	317.08	19.06	-26.9	-28.8	15.6	0.00e+00	0	44	102	1048576	13	4484
2026-01-25 02:43:36.43	316.91	19.05	-26.9	-28.8	15.6	2.77e-03	0	44	102	1048576	13	4488
2026-01-25 02:43:37.72	316.60	19.04	-27.2	-29.0	15.2	0.00e+00	0	44	102	1048576	14	4421
2026-01-25 02:43:38.43	316.43	19.04	-27.3	-29.2	15.1	7.00e-07	0	44	102	1048576	14	4495
2026-01-25 02:43:39.73	316.11	19.03	-27.1	-28.8	15.4	0.00e+00	0	44	102	1048576	14	4368
2026-01-25 02:43:40.44	315.94	19.02	-27.1	-28.8	15.3	1.26e-04	0	44	102	1048576	14	4368
2026-01-25 02:43:41.73	315.63	19.01	-27.1	-28.8	15.3	0.00e+00	0	44	102	1048576	14	4393
2026-01-25 02:43:42.44	315.46	19.00	-27.2	-29.0	15.2	3.38e-03	0	44	102	1048576	14	4425
2026-01-25 02:43:43.75	315.14	18.99	-27.1	-28.7	15.4	0.00e+00	0	44	102	1048576	14	4350
2026-01-25 02:43:44.46	314.97	18.98	-27.1	-28.7	15.4	3.72e-03	0	44	102	1048576	14	4348
2026-01-25 02:43:45.75	314.66	18.97	-27.3	-29.2	15.0	0.00e+00	0	44	102	1048576	14	4512
2026-01-25 02:43:46.47	314.49	18.96	-27.5	-29.6	14.9	1.98e-04	0	44	102	1048576	14	4623
2026-01-25 02:43:47.77	314.18	18.94	-27.2	-29.1	15.1	0.00e+00	0	44	102	1048576	14	4459
2026-01-25 02:43:48.48	314.01	18.93	-27.2	-29.0	15.2	0.00e+00	0	44	102	1048576	14	4422
2026-01-25 02:43:49.77	313.70	18.91	-27.1	-28.9	15.2	0.00e+00	0	44	102	1048576	14	4402
2026-01-25 02:43:50.49	313.53	18.90	-27.2	-29.0	15.2	0.00e+00	0	44	102	1048576	14	4429
2026-01-25 02:43:51.78	313.22	18.89	-27.1	-28.9	15.2	0.00e+00	0	44	102	1048576	14	4400
2026-01-25 02:43:52.49	313.05	18.87	-27.1	-28.9	15.3	2.67e-05	0	44	102	1048576	14	4402
2026-01-25 02:43:53.79	312.74	18.85	-26.8	-28.6	15.6	0.00e+00	0	44	102	1048576	13	4448
2026-01-25 02:43:54.51	312.57	18.84	-26.8	-28.6	15.6	0.00e+00	0	44	102	1048576	13	4430
2026-01-25 02:43:55.80	312.26	18.82	-26.8	-28.7	15.6	0.00e+00	0	44	102	1048576	13	4468
2026-01-25 02:43:56.51	312.09	18.81	-26.8	-28.6	15.7	3.32e-03	0	44	102	1048576	13	4436
2026-01-25 02:43:57.81	311.79	18.79	-27.0	-29.0	15.4	0.00e+00	0	44	102	1048576	13	4545
2026-01-25 02:43:58.52	311.62	18.77	-27.0	-28.7	15.4	0.00e+00	0	44	102	1048576	14	4341
2026-01-25 02:43:59.81	311.31	18.75	-27.1	-28.8	15.3	0.00e+00	0	44	102	1048576	14	4385
2026-01-25 02:44:00.53	311.14	18.73	-27.2	-29.0	15.2	0.00e+00	0	44	102	1048576	14	4445
2026-01-25 02:44:01.83	310.83	18.71	-27.2	-29.1	15.1	0.00e+00	0	44	102	1048576	14	4451
2026-01-25 02:44:02.56	310.66	18.69	-27.3	-29.3	15.0	0.00e+00	0	44	102	1048576	14	4515
2026-01-25 02:44:03.86	310.36	18.67	-27.3	-29.3	15.0	0.00e+00	0	44	102	1048576	14	4517
2026-01-25 02:44:04.57	310.19	18.65	-27.4	-29.5	14.8	0.00e+00	0	44	102	1048576	14	4592
2026-01-25 02:44:05.86	309.89	18.62	-27.5	-29.2	14.7	0.00e+00	0	44	102	1048576	15	4376
2026-01-25 02:44:06.58	309.72	18.61	-27.4	-29.6	14.8	0.00e+00	0	44	102	1048576	14	4602
2026-01-25 02:44:07.88	309.41	18.58	-27.8	-29.9	14.3	7.00e-07	0	44	102	1048576	15	4603
2026-01-25 02:44:08.59	309.25	18.56	-27.8	-29.9	14.3	2.20e-06	0	44	102	1048576	15	4598
2026-01-25 02:44:09.89	308.94	18.53	-27.3	-28.8	15.0	0.00e+00	0	44	102	1048576	15	4256
2026-01-25 02:44:10.60	308.78	18.52	-27.1	-28.4	15.2	0.00e+00	0	44	102	1048576	15	4146
2026-01-25 02:44:11.90	308.47	18.48	-27.1	-28.8	15.2	0.00e+00	0	44	102	1048576	14	4388
2026-01-25 02:44:12.62	308.31	18.47	-27.2	-29.0	15.1	0.00e+00	0	44	102	1048576	14	4444
2026-01-25 02:44:13.91	308.01	18.43	-27.2	-28.9	15.2	0.00e+00	0	44	102	1048576	14	4421
2026-01-25 02:44:14.63	307.84	18.41	-27.2	-28.9	15.2	0.00e+00	0	44	102	1048576	14	4414
2026-01-25 02:44:15.92	307.54	18.38	-27.0	-28.6	15.4	0.00e+00	0	44	102	1048576	14	4319
2026-01-25 02:44:16.64	307.38	18.36	-27.0	-28.5	15.4	0.00e+00	0	44	102	1048576	14	4300
2026-01-25 02:44:17.92	307.08	18.33	-26.9	-28.7	13.6	0.00e+00	0	44	102	1048576	13	4474
2026-01-25 02:44:18.64	306.91	18.31	-26.9	-28.8	15.5	7.00e-07	0	44	102	1048576	13	4484
2026-01-25 02:44:19.93	306.62	18.27	-27.0	-28.5	15.4	0.00e+00	0	44	102	1048576	14	4309
2026-01-25 02:44:20.65	306.45	18.25	-26.8	-28.1	15.6	0.00e+00	0	44	102	1048576	14	4196
2026-01-25 02:44:21.94	306.16	18.21	-26.6	-28.1	15.9	0.00e+00	0	44	102	1048576	13	4295
2026-01-25 02:44:22.66	305.99	18.19	-26.5	-28.0	15.9	0.00e+00	0	44	102	1048576	13	4265
2026-01-25 02:44:23.95	305.70	18.15	-26.5	-28.0	15.9	0.00e+00	0	44	102	1048576	13	4284
2026-01-25 02:44:24.67	305.54	18.13	-26.6	-28.2	15.8	0.00e+00	0	44	102	1048576	13	4328
2026-01-25 02:44:25.97	305.24	18.09	-26.6	-28.1	15.9	2.02e-03	0	44	102	1048576	13	4298
2026-01-25 02:44:26.69	305.08	18.07	-26.7	-28.3	15.7	0.00e+00	0	44	102	1048576	13	4359
2026-01-25 02:44:27.98	304.79	18.03	-26.6	-28.2	15.8	0.00e+00	0	44	102	1048576	13	4332
2026-01-25 02:44:28.69	304.63	18.00	-26.6	-28.2	15.8	0.00e+00	0	44	102	1048576	13	4329
2026-01-25 02:44:29.99	304.33	17.96	-26.6	-28.3	15.8	3.31e-03	0	44	102	1048576	13	4351
2026-01-25 02:44:30.71	304.17	17.94	-26.7	-28.4	15.7	0.00e+00	0	44	102	1048576	13	4389
2026-01-25 02:44:32.00	303.88	17.89	-26.8	-28.7	15.5	3.27e-03	0	44	102	1048576	13	4465
2026-01-25 02:44:32.72	303.72	17.87	-26.8	-28.7	15.5	0.00e+00	0	44	102	1048576	13	4476
2026-01-25 02:44:34.01	303.43	17.83	-26.8	-28.7	15.5	0.00e+00	0	44	102	1048576	13	4465
2026-01-25 02:44:34.73	303.27	17.80	-26.8	-28.7	15.5	0.00e+00	0	44	102	1048576	13	4469
2026-01-25 02:44:36.02	302.99	17.76	-26.8	-28.7	15.5	2.62e-03	0	44	102	1048576	13	4472
2026-01-25 02:44:36.74	302.83	17.73	-26.9	-28.9	15.4	0.00e+00	0	44	102	1048576	13	4519
2026-01-25 02:44:38.02	302.55	17.69	-26.9	-28.8	15.5	4.83e-04	0	44	102	1048576	13	4494
2026-01-25 02:44:38.74	302.39	17.66	-26.8	-28.7	15.2	0.00e+00	0	44	102	1048576	13	4470
2026-01-25 02:44:40.03	302.10	17.61	-26.9	-28.8	15.5	0.00e+00	0	44	102	1048576	13	4498
2026-01-25 02:44:40.75	301.95	17.59	-27.0	-29.0	15.3	0.00e+00	0	44	102	1048576	13	4561
2026-01-25 02:44:42.04	301.66	17.54	-27.3	-29.2	15.0	4.50e-06	0	44	102	1048576	14	4493
2026-01-25 02:44:42.75	301.51	17.51	-27.3	-29.2	15.0	0.00e+00	0	44	102	1048576	14	4499
2026-01-25 02:44:44.05	301.23	17.46	-27.4	-29.5	14.8	7.60e-06	0	44	102	1048576	14	4576
2026-01-25 02:44:44.78	301.07	17.43	-27.3	-29.3	14.9	7.00e-07	0	44	102	1048576	14	4519
2026-01-25 02:44:46.07	300.79	17.38	-27.0	-28.6	15.3	0.00e+00	0	44	102	1048576	14	4326
2026-01-25 02:44:46.78	300.63	17.36	-26.9	-28.3	15.4	0.00e+00	0	44	102	1048576	14	4256
2026-01-25 02:44:48.07	300.36	17.31	-26.8	-28.1	15.6	2.20e-06	0	44	102	1048576	14	4191
2026-01-25 02:44:48.80	300.20	17.28	-26.8	-28.0	15.6	0.00e+00	0	44	102	1048576	14	4173
2026-01-25 02:44:50.10	299.92	17.22	-26.8	-28.1	15.6	5.30e-06	0	44	102	1048576	14	4179
2026-01-25 02:44:50.82	299.77	17.20	-26.8	-28.2	15.5	5.11e-04	0	44	102	1048576	14	4225
2026-01-25 02:44:52.11	299.49	17.14	-26.9	-28.3	15.5	0.00e+00	0	44	102	1048576	14	4230
2026-01-25 02:44:52.83	299.34	17.11	-26.8	-28.7	15.5	0.00e+00	0	44	102	1048576	13	4461
2026-01-25 02:44:54.12	299.06	17.06	-26.9	-28.9	15.4	0.00e+00	0	44	102	1048576	13	4529
2026-01-25 02:44:54.85	298.91	17.03	-26.9	-28.9	15.3	0.00e+00	0	44	102	1048576	13	4534
2026-01-25 02:44:56.14	298.64	16.97	-27.1	-28.8	15.2	5.30e-06	0	44	102	1048576	14	4370
2026-01-25 02:44:56.86	298.49	16.94	-27.1	-28.8	15.2	1.26e-03	0	44	102	1048576	14	4377
2026-01-25 02:44:58.15	298.22	16.89	-27.1	-28.9	15.1	0.00e+00	0	44	102	1048576	14	4419
2026-01-25 02:44:58.87	298.07	16.86	-27.0	-28.7	15.2	2.01e-03	0	44	102	1048576	14	4349
2026-01-25 02:45:00.16	297.80	16.80	-26.8	-28.6	15.5	0.00e+00	0	44	102	1048576	13	4436
2026-01-25 02:45:00.87	297.65	16.77	-26.7	-28.4	15.6	1.34e-04	0	44	102	1048576	13	4391
2026-01-25 02:45:02.16	297.38	16.71	-26.8	-28.5	15.5	0.00e+00	0	44	102	1048576	13	4415
2026-01-25 02:45:02.87	297.24	16.68	-26.6	-28.3	15.7	0.00e+00	0	44	102	1048576	13	4349
2026-01-25 02:45:04.17	296.97	16.62	-26.6	-28.2	15.7	0.00e+00	0	44	102	1048576	13	4332
2026-01-25 02:45:04.89	296.82	16.59	-26.8	-28.5	15.5	3.15e-03	0	44	102	1048576	13	4423
2026-01-25 02:45:06.18	296.56	16.53	-26.7	-28.5	15.6	0.00e+00	0	44	102	1048576	13	4400
2026-01-25 02:45:06.90	296.41	16.50	-26.7	-28.4	15.6	1.65e-04	0	44	102	1048576	13	4388
2026-01-25 02:45:08.19	296.15	16.44	-26.7	-28.5	15.6	0.00e+00	0	44	102	1048576	13	4408
2026-01-25 02:45:08.91	296.00	16.41	-26.8	-28.6	15.5	0.00e+00	0	44	102	1048576	13	4456
2026-01-25 02:45:10.21	295.74	16.35	-26.9	-29.0	15.2	0.00e+00	0	44	102	1048576	13	4563
2026-01-25 02:45:10.92	295.59	16.32	-26.8	-28.8	15.4	2.34e-03	0	44	102	1048576	13	4494
2026-01-25 02:45:12.21	295.33	16.26	-26.8	-28.5	15.5	0.00e+00	0	44	102	1048576	13	4427
2026-01-25 02:45:12.93	295.19	16.22	-26.7	-28.5	15.6	0.00e+00	0	44	102	1048576	13	4404
2026-01-25 02:45:14.22	294.93	16.16	-26.8	-28.7	15.4	0.00e+00	0	44	102	1048576	13	4467
2026-01-25 02:45:14.93	294.79	16.13	-26.7	-28.5	15.6	0.00e+00	0	44	102	1048576	13	4403
2026-01-25 02:45:16.21	294.54	16.06	-26.7	-28.4	15.6	0.00e+00	0	44	102	1048576	13	4376
2026-01-25 02:45:16.92	294.40	16.03	-26.7	-28.5	15.5	6.01e-04	0	44	102	1048576	13	4407
2026-01-25 02:45:18.21	294.14	15.97	-26.9	-28.8	15.3	0.00e+00	0	44	102	1048576	13	4513
2026-01-25 02:45:18.93	294.00	15.93	-26.9	-28.9	15.3	0.00e+00	0	44	102	1048576	13	4539
2026-01-25 02:45:20.22	293.75	15.87	-27.0	-29.1	15.2	7.00e-07	0	44	102	1048576	13	4585
2026-01-25 02:45:20.94	293.61	15.83	-27.1	-28.8	15.1	0.00e+00	0	44	102	1048576	14	4386
2026-01-25 02:45:22.23	293.36	15.77	-27.3	-29.3	14.8	1.50e-06	0	44	102	1048576	14	4522
2026-01-25 02:45:22.95	293.22	15.73	-27.2	-29.0	14.9	7.00e-07	0	44	102	1048576	14	4460
2026-01-25 02:45:24.24	292.97	15.67	-27.2	-29.0	14.9	0.00e+00	0	44	102	1048576	14	4456
2026-01-25 02:45:24.96	292.83	15.63	-27.1	-28.8	15.1	0.00e+00	0	44	102	1048576	14	4390
2026-01-25 02:45:26.25	292.58	15.57	-27.0	-28.7	15.1	0.00e+00	0	44	102	1048576	14	4352
2026-01-25 02:45:26.97	292.44	15.53	-27.1	-28.7	15.1	0.00e+00	0	44	102	1048576	14	4374
2026-01-25 02:45:28.27	292.20	15.47	-27.2	-29.1	14.9	0.00e+00	0	44	102	1048576	14	4473
2026-01-25 02:45:28.99	292.06	15.43	-27.2	-29.1	14.9	0.00e+00	0	44	102	1048576	14	4481
2026-01-25 02:45:30.28	291.81	15.36	-27.1	-28.9	15.0	0.00e+00	0	44	102	1048576	14	4419
2026-01-25 02:45:31.00	291.68	15.33	-27.2	-29.1	14.9	0.00e+00	0	44	102	1048576	14	4481
2026-01-25 02:45:32.29	291.44	15.26	-27.1	-28.9	15.0	0.00e+00	0	44	102	1048576	14	4430
2026-01-25 02:45:33.00	291.30	15.22	-27.1	-28.9	15.0	0.00e+00	0	44	102	1048576	14	4414
2026-01-25 02:45:34.29	291.06	15.16	-27.2	-29.1	14.8	0.00e+00	0	44	102	1048576	14	4467
2026-01-25 02:45:35.01	290.93	15.12	-27.1	-28.9	15.0	0.00e+00	0	44	102	1048576	14	4429
2026-01-25 02:45:36.31	290.69	15.05	-27.0	-28.7	15.1	0.00e+00	0	44	102	1048576	14	4371
2026-01-25 02:45:37.04	290.55	15.01	-27.1	-28.8	15.0	0.00e+00	0	44	102	1048576	14	4379
2026-01-25 02:45:38.33	290.31	14.94	-27.0	-29.1	15.0	7.00e-07	0	44	102	1048576	13	4577
2026-01-25 02:45:39.04	290.18	14.91	-27.0	-28.7	15.1	0.00e+00	0	44	102	1048576	14	4366
2026-01-25 02:45:40.34	289.95	14.84	-27.0	-28.6	15.1	3.71e-03	0	44	102	1048576	14	4346
2026-01-25 02:45:41.06	289.82	14.80	-27.0	-28.6	15.1	7.00e-07	0	44	102	1048576	14	4341
2026-01-25 02:45:42.35	289.58	14.73	-26.9	-28.5	15.2	0.00e+00	0	44	102	1048576	14	4298
2026-01-25 02:45:43.07	289.45	14.69	-26.9	-28.4	15.2	0.00e+00	0	44	102	1048576	14	4279
2026-01-25 02:45:44.37	289.22	14.62	-27.0	-28.7	15.0	0.00e+00	0	44	102	1048576	14	4366
2026-01-25 02:45:45.09	289.09	14.58	-27.0	-28.6	15.1	0.00e+00	0	44	102	1048576	14	4327
2026-01-25 02:45:46.38	288.86	14.51	-27.0	-29.1	15.1	3.81e-03	0	44	102	1048576	13	4594
2026-01-25 02:45:47.10	288.73	14.47	-27.1	-28.9	14.9	0.00e+00	0	44	102	1048576	14	4420
2026-01-25 02:45:48.39	288.50	14.40	-27.0	-28.7	15.0	0.00e+00	0	44	102	1048576	14	4381
2026-01-25 02:45:49.11	288.37	14.36	-27.1	-28.9	14.9	0.00e+00	0	44	102	1048576	14	4417
2026-01-25 02:45:50.39	288.15	14.29	-27.0	-28.8	15.0	3.05e-03	0	44	102	1048576	14	4385
2026-01-25 02:45:51.13	288.02	14.25	-27.1	-28.8	15.0	0.00e+00	0	44	102	1048576	14	4406
2026-01-25 02:45:52.41	287.79	14.18	-27.1	-28.8	14.9	1.30e-03	0	44	102	1048576	14	4392
2026-01-25 02:45:53.14	287.67	14.14	-27.2	-29.1	14.8	0.00e+00	0	44	102	1048576	14	4484
2026-01-25 02:45:54.43	287.44	14.07	-27.2	-29.1	14.8	0.00e+00	0	44	102	1048576	14	4473
2026-01-25 02:45:55.15	287.32	14.03	-27.3	-29.4	14.6	7.00e-07	0	44	102	1048576	14	4565
2026-01-25 02:45:56.45	287.10	13.96	-27.3	-29.3	14.6	3.77e-03	0	44	102	1048576	14	4544
2026-01-25 02:45:57.16	286.97	13.92	-27.4	-29.5	14.5	0.00e+00	0	44	102	1048576	14	4618
2026-01-25 02:45:58.46	286.75	13.85	-27.4	-29.6	14.4	3.91e-03	0	44	102	1048576	14	4646
2026-01-25 02:45:59.18	286.63	13.81	-27.4	-29.6	14.4	0.00e+00	0	44	102	1048576	14	4648
2026-01-25 02:46:00.47	286.41	13.73	-27.4	-29.7	14.4	6.40e-05	0	44	102	1048576	14	4671
2026-01-25 02:46:01.19	286.29	13.69	-27.6	-29.5	14.2	2.20e-06	0	44	102	1048576	15	4509
2026-01-25 02:46:02.47	286.07	13.62	-27.6	-29.5	14.2	4.09e-03	0	44	102	1048576	15	4510
2026-01-25 02:46:03.19	285.95	13.58	-27.4	-29.1	14.4	7.00e-07	0	44	102	1048576	15	4388
2026-01-25 02:46:04.48	285.74	13.51	-27.3	-29.4	14.6	0.00e+00	0	44	102	1048576	14	4563
2026-01-25 02:46:05.20	285.62	13.47	-27.3	-29.3	14.6	0.00e+00	0	44	102	1048576	14	4548
2026-01-25 02:46:06.49	285.40	13.39	-27.2	-29.1	14.7	2.21e-05	0	44	102	1048576	14	4479
2026-01-25 02:46:07.20	285.29	13.35	-27.2	-29.1	14.7	7.00e-07	0	44	102	1048576	14	4499
2026-01-25 02:46:08.50	285.07	13.28	-27.3	-29.3	14.6	0.00e+00	0	44	102	1048576	14	4550
2026-01-25 02:46:09.22	284.95	13.24	-27.2	-29.2	14.7	2.63e-04	0	44	102	1048576	14	4518
2026-01-25 02:46:10.51	284.74	13.16	-27.2	-29.1	14.7	0.00e+00	0	44	102	1048576	14	4487
2026-01-25 02:46:11.23	284.63	13.12	-27.2	-29.2	14.6	0.00e+00	0	44	102	1048576	14	4535
2026-01-25 02:46:12.52	284.42	13.05	-27.2	-29.2	14.6	6.71e-05	0	44	102	1048576	14	4524
2026-01-25 02:46:13.24	284.30	13.01	-27.3	-29.5	14.5	3.92e-03	0	44	102	1048576	14	4598
2026-01-25 02:46:14.54	284.09	12.93	-27.6	-29.6	14.1	2.20e-06	0	44	102	1048576	15	4537
2026-01-25 02:46:15.26	283.98	12.89	-27.5	-29.4	14.2	2.74e-05	0	44	102	1048576	15	4466
2026-01-25 02:46:16.55	283.77	12.82	-27.6	-29.5	14.1	0.00e+00	0	44	102	1048576	15	4491
2026-01-25 02:46:17.27	283.66	12.78	-27.6	-29.7	14.0	1.50e-06	0	44	102	1048576	15	4562
2026-01-25 02:46:18.56	283.45	12.70	-27.6	-29.6	14.1	4.50e-06	0	44	102	1048576	15	4521
2026-01-25 02:46:19.27	283.34	12.66	-27.6	-29.6	14.1	3.81e-03	0	44	102	1048576	15	4527
2026-01-25 02:46:20.57	283.14	12.58	-27.8	-30.0	13.8	2.20e-06	0	44	102	1048576	15	4652
2026-01-25 02:46:21.29	283.03	12.54	-28.2	-30.4	13.5	3.30e-04	0	44	102	1048576	16	4655
2026-01-25 02:46:22.58	282.83	12.47	-27.8	-30.0	13.8	3.80e-06	0	44	102	1048576	15	4663
2026-01-25 02:46:23.30	282.71	12.42	-27.7	-29.9	13.8	4.23e-03	0	44	102	1048576	15	4630
2026-01-25 02:46:24.59	282.52	12.35	-27.8	-30.1	13.8	7.60e-06	0	44	102	1048576	15	4703
2026-01-25 02:46:25.31	282.41	12.31	-27.8	-30.1	13.7	4.11e-03	0	44	102	1048576	15	4688
2026-01-25 02:46:26.60	282.21	12.23	-27.8	-30.2	13.7	3.00e-06	0	44	102	1048576	15	4706
2026-01-25 02:46:27.31	282.10	12.19	-27.9	-30.3	13.6	4.50e-06	0	44	102	1048576	15	4744
2026-01-25 02:46:28.61	281.90	12.11	-27.7	-29.8	13.9	3.80e-06	0	44	102	1048576	15	4593
2026-01-25 02:46:29.33	281.79	12.07	-27.6	-29.7	14.0	3.97e-03	0	44	102	1048576	15	4563
2026-01-25 02:46:30.61	281.60	12.00	-27.6	-29.7	14.0	7.00e-07	0	44	102	1048576	15	4548
2026-01-25 02:46:31.35	281.49	11.95	-27.7	-29.8	13.9	4.01e-03	0	44	102	1048576	15	4580
2026-01-25 02:46:32.64	281.30	11.88	-27.5	-29.5	14.1	0.00e+00	0	44	102	1048576	15	4487
2026-01-25 02:46:33.35	281.19	11.84	-27.5	-29.5	14.1	0.00e+00	0	44	102	1048576	15	4492
2026-01-25 02:46:34.64	281.00	11.76	-27.5	-29.4	14.1	5.30e-06	0	44	102	1048576	15	4471
2026-01-25 02:46:35.36	280.89	11.72	-27.5	-29.3	14.2	3.69e-03	0	44	102	1048576	15	4453
2026-01-25 02:46:36.65	280.70	11.64	-27.5	-29.4	14.2	7.00e-07	0	44	102	1048576	15	4456
2026-01-25 02:46:37.37	280.60	11.60	-27.4	-29.6	14.3	7.00e-07	0	44	102	1048576	14	4659
2026-01-25 02:46:38.66	280.41	11.52	-27.5	-29.8	14.2	0.00e+00	0	44	102	1048576	14	4693
2026-01-25 02:46:39.38	280.31	11.48	-27.4	-29.7	14.2	7.00e-07	0	44	102	1048576	14	4682
2026-01-25 02:46:40.68	280.12	11.40	-27.3	-29.4	14.4	7.00e-07	0	44	102	1048576	14	4579
2026-01-25 02:46:41.40	280.02	11.36	-27.3	-29.4	14.4	4.17e-03	0	44	102	1048576	14	4593
2026-01-25 02:46:42.70	279.83	11.28	-27.4	-29.6	14.3	2.20e-06	0	44	102	1048576	14	4647
2026-01-25 02:46:43.41	279.73	11.24	-27.4	-29.7	14.2	2.20e-06	0	44	102	1048576	14	4680
2026-01-25 02:46:44.71	279.54	11.16	-27.7	-29.9	13.8	7.00e-07	0	44	102	1048576	15	4617
2026-01-25 02:46:45.43	279.44	11.12	-27.8	-30.1	13.7	5.30e-06	0	44	102	1048576	15	4701
2026-01-25 02:46:46.72	279.26	11.05	-27.9	-30.3	13.5	3.80e-06	0	44	102	1048576	15	4760
2026-01-25 02:46:47.44	279.16	11.00	-28.0	-30.5	13.4	1.22e-05	0	44	102	1048576	15	4826
2026-01-25 02:46:48.74	278.98	10.93	-27.8	-30.2	13.6	9.10e-06	0	44	102	1048576	15	4715
2026-01-25 02:46:49.46	278.88	10.88	-27.9	-30.3	13.6	1.14e-05	0	44	102	1048576	15	4765
2026-01-25 02:46:50.75	278.70	10.81	-27.8	-30.2	13.6	9.90e-06	0	44	102	1048576	15	4717
2026-01-25 02:46:51.47	278.60	10.76	-27.9	-30.3	13.5	1.37e-05	0	44	102	1048576	15	4745
2026-01-25 02:46:52.76	278.42	10.69	-27.9	-30.4	13.5	5.30e-06	0	44	102	1048576	15	4782
2026-01-25 02:46:53.47	278.32	10.64	-27.9	-30.3	13.6	1.22e-05	0	44	102	1048576	15	4742
2026-01-25 02:46:54.76	278.15	10.57	-27.9	-30.4	13.5	1.06e-05	0	44	102	1048576	15	4796
2026-01-25 02:46:55.48	278.05	10.52	-27.9	-30.5	13.4	1.75e-05	0	44	102	1048576	15	4816
2026-01-25 02:46:56.77	277.87	10.45	-28.0	-30.6	13.3	1.75e-05	0	44	102	1048576	15	4861
2026-01-25 02:46:57.49	277.78	10.41	-28.2	-30.6	13.3	1.22e-05	0	44	102	1048576	16	4717
2026-01-25 02:46:58.77	277.61	10.33	-28.2	-30.6	13.2	2.05e-05	0	44	102	1048576	16	4733
2026-01-25 02:46:59.50	277.51	10.29	-28.1	-30.3	13.4	1.52e-05	0	44	102	1048576	16	4636
2026-01-25 02:47:00.79	277.34	10.21	-27.8	-30.1	13.6	1.37e-05	0	44	102	1048576	15	4684
2026-01-25 02:47:01.51	277.24	10.17	-27.7	-29.9	13.7	6.80e-06	0	44	102	1048576	15	4621
2026-01-25 02:47:02.82	277.07	10.09	-27.7	-29.9	13.8	7.60e-06	0	44	102	1048576	15	4622
2026-01-25 02:47:03.53	276.98	10.05	-27.7	-29.9	13.7	1.29e-05	0	44	102	1048576	15	4644
2026-01-25 02:47:04.82	276.81	9.97	-27.7	-29.9	13.7	4.54e-03	0	44	102	1048576	15	4624
2026-01-25 02:47:05.55	276.71	9.93	-27.7	-29.9	13.7	6.10e-06	0	44	102	1048576	15	4627
2026-01-25 02:47:06.84	276.54	9.85	-27.7	-30.0	13.7	4.32e-03	0	44	102	1048576	15	4653
2026-01-25 02:47:07.55	276.45	9.81	-27.7	-29.9	13.7	3.80e-06	0	44	102	1048576	15	4630
2026-01-25 02:47:08.85	276.28	9.73	-27.6	-29.7	13.8	6.10e-06	0	44	102	1048576	15	4565
2026-01-25 02:47:09.57	276.19	9.69	-27.7	-29.8	13.8	7.60e-06	0	44	102	1048576	15	4594
2026-01-25 02:47:10.86	276.03	9.61	-27.7	-29.8	13.7	3.37e-03	0	44	102	1048576	15	4612
2026-01-25 02:47:11.58	275.94	9.57	-27.7	-29.8	13.7	5.30e-06	0	44	102	1048576	15	4604
2026-01-25 02:47:12.87	275.77	9.49	-27.6	-29.7	13.8	7.60e-06	0	44	102	1048576	15	4567
2026-01-25 02:47:13.59	275.68	9.45	-27.5	-29.5	13.9	4.50e-06	0	44	102	1048576	15	4509
2026-01-25 02:47:14.88	275.52	9.37	-27.6	-29.6	13.8	3.00e-06	0	44	102	1048576	15	4544
2026-01-25 02:47:15.60	275.43	9.33	-27.6	-29.8	13.8	7.60e-06	0	44	102	1048576	15	4599
2026-01-25 02:47:16.89	275.27	9.25	-27.7	-30.0	13.6	2.46e-03	0	44	102	1048576	15	4659
2026-01-25 02:47:17.61	275.18	9.21	-27.8	-30.2	13.5	6.10e-06	0	44	102	1048576	15	4718
2026-01-25 02:47:18.90	275.02	9.13	-28.0	-30.5	13.3	9.70e-04	0	44	102	1048576	15	4843
2026-01-25 02:47:19.61	274.93	9.09	-27.9	-30.5	13.3	1.83e-05	0	44	102	1048576	15	4838
2026-01-25 02:47:20.90	274.78	9.01	-28.2	-30.7	13.0	3.12e-05	0	44	102	1048576	16	4758
2026-01-25 02:47:21.62	274.69	8.97	-28.2	-30.5	13.1	2.44e-05	0	44	102	1048576	16	4705
2026-01-25 02:47:22.91	274.53	8.89	-28.4	-31.0	12.8	1.39e-03	0	44	102	1048576	16	4874
2026-01-25 02:47:23.63	274.45	8.85	-28.4	-31.0	12.8	7.17e-05	0	44	102	1048576	16	4867
2026-01-25 02:47:24.92	274.29	8.77	-28.2	-30.7	13.0	1.15e-03	0	44	102	1048576	16	4763
2026-01-25 02:47:25.65	274.20	8.73	-28.2	-30.5	13.1	3.89e-05	0	44	102	1048576	16	4725
2026-01-25 02:47:26.94	274.05	8.65	-28.2	-30.5	13.1	1.83e-05	0	44	102	1048576	16	4708
2026-01-25 02:47:27.66	273.96	8.61	-28.0	-30.6	13.2	2.44e-05	0	44	102	1048576	15	4870
2026-01-25 02:47:28.95	273.81	8.53	-28.2	-30.5	13.1	2.82e-05	0	44	102	1048576	16	4712
2026-01-25 02:47:29.66	273.73	8.49	-28.2	-30.6	13.0	9.00e-05	0	44	102	1048576	16	4752
2026-01-25 02:47:30.96	273.57	8.41	-28.3	-30.8	12.9	3.57e-03	0	44	102	1048576	16	4803
2026-01-25 02:47:31.68	273.49	8.37	-28.2	-30.7	13.0	3.05e-05	0	44	102	1048576	16	4761
2026-01-25 02:47:32.97	273.34	8.30	-28.5	-31.0	12.5	1.76e-04	0	44	102	1048576	17	4767
2026-01-25 02:47:33.69	273.26	8.25	-28.6	-31.0	12.4	4.59e-03	0	44	102	1048576	17	4778
2026-01-25 02:47:34.98	273.11	8.18	-28.5	-30.8	12.6	1.11e-04	0	44	102	1048576	17	4696
2026-01-25 02:47:35.70	273.02	8.13	-28.5	-31.0	12.4	2.28e-04	0	44	102	1048576	17	4764
2026-01-25 02:47:37.00	272.88	8.06	-28.6	-31.1	12.3	1.51e-04	0	44	102	1048576	17	4819
2026-01-25 02:47:37.72	272.79	8.01	-28.7	-31.3	12.2	4.84e-03	0	44	102	1048576	17	4888
2026-01-25 02:47:39.01	272.65	7.94	-28.8	-31.6	12.1	2.41e-04	0	44	102	1048576	17	4969
2026-01-25 02:47:39.73	272.57	7.90	-28.6	-31.2	12.3	5.37e-03	0	44	102	1048576	17	4852
2026-01-25 02:47:41.02	272.42	7.82	-28.5	-30.9	12.4	1.55e-04	0	44	102	1048576	17	4751
2026-01-25 02:47:41.74	272.34	7.78	-28.5	-30.8	12.5	9.51e-04	0	44	102	1048576	17	4719
2026-01-25 02:47:43.03	272.19	7.70	-28.4	-31.3	12.5	1.10e-04	0	44	102	1048576	16	4977
2026-01-25 02:47:43.76	272.11	7.66	-28.4	-31.2	12.6	5.46e-03	0	44	102	1048576	16	4943
2026-01-25 02:47:45.04	271.97	7.58	-28.3	-31.0	12.6	5.56e-05	0	44	102	1048576	16	4884
2026-01-25 02:47:45.76	271.89	7.54	-28.3	-31.0	12.7	5.97e-03	0	44	102	1048576	16	4884
2026-01-25 02:47:47.04	271.75	7.47	-28.3	-31.0	12.6	9.38e-05	0	44	102	1048576	16	4891
2026-01-25 02:47:47.76	271.67	7.42	-28.2	-30.7	12.8	7.62e-05	0	44	102	1048576	16	4805
2026-01-25 02:47:49.04	271.53	7.35	-28.2	-30.6	12.9	5.64e-05	0	44	102	1048576	16	4750
2026-01-25 02:47:49.76	271.46	7.31	-28.1	-30.5	12.9	5.40e-03	0	44	102	1048576	16	4726
2026-01-25 02:47:51.05	271.32	7.23	-28.2	-30.6	12.9	4.11e-05	0	44	102	1048576	16	4753
2026-01-25 02:47:51.77	271.24	7.19	-27.9	-30.6	12.9	5.22e-03	0	44	102	1048576	15	4884
2026-01-25 02:47:53.06	271.10	7.11	-28.1	-30.5	12.9	3.89e-05	0	44	102	1048576	16	4738
2026-01-25 02:47:53.80	271.02	7.07	-32.6	-43.9	3.8	7.83e-01	0	44	104	1048576	25	13246
2026-01-25 02:47:55.09	270.88	6.99	-33.2	-45.2	3.8	1.49e+00	0	44	104	1048576	26	14362

#Closed at: 2026-01-25 02:47:55
#Recorded file [1 MB]: D:/data/31010_260125_053853.dat