passes_logs/2026/01/25/R2M6_AANII_01/R2M6_AANII_01__20260125_035207_AQUA_rec.log

#Pass ID: 20260125_035207_AQUA
#Satellite: AQUA
#Configuration: AQUA
#almurnet v.1.7.20240730
#Start time: 2026-01-25 03:52:09

#Version: 2.2.20231116
#Station: R2M6_AANII_01
#Location: 30.233357 lon 59.946436 lat
#TLE: 1 27424U 02022A   26024.53919639  .00001970  00000+0  40397-3 0  9996
#TLE: 2 27424  98.4098 351.1277 0001915  66.8561 358.4840 14.61855303262281

#Time	Az	El	Level	Level2	SNR	BER	BlckErr	Temp	State	Recorded	gain1	gain2
2026-01-25 03:52:09.10	5.24	7.11	-32.6	-49.6	3.8	7.45e-01	0	41	0	0	26	25451
2026-01-25 03:52:10.10	5.13	7.18	-32.4	-48.9	3.8	7.44e-01	0	41	104	0	25	23966
2026-01-25 03:52:11.10	5.02	7.24	-32.5	-49.1	3.8	7.44e-01	0	41	104	0	25	24481
2026-01-25 03:52:12.10	4.91	7.31	-32.5	-49.4	3.8	7.43e-01	0	41	104	0	25	25176
2026-01-25 03:52:13.10	4.79	7.37	-32.7	-49.4	3.8	7.46e-01	0	41	104	0	26	24785
2026-01-25 03:52:14.11	4.68	7.44	-32.7	-49.7	3.8	7.46e-01	0	41	104	0	26	25359
2026-01-25 03:52:15.10	4.57	7.50	-32.6	-49.1	3.8	7.45e-01	0	41	104	0	26	23969
2026-01-25 03:52:16.11	4.45	7.57	-32.5	-48.9	3.8	7.46e-01	0	41	104	0	25	23816
2026-01-25 03:52:17.12	4.33	7.64	-32.3	-48.1	3.8	7.46e-01	0	41	104	0	25	22240
2026-01-25 03:52:18.12	4.22	7.70	-32.2	-47.5	3.8	7.42e-01	0	41	104	0	25	20993
2026-01-25 03:52:19.12	4.10	7.77	-32.0	-47.2	3.8	7.44e-01	0	41	104	0	24	20789
2026-01-25 03:52:20.13	3.98	7.83	-31.8	-46.6	3.8	7.47e-01	0	41	104	0	24	19773
2026-01-25 03:52:21.13	3.86	7.90	-32.1	-47.6	3.8	7.43e-01	0	41	104	0	24	21433
2026-01-25 03:52:22.14	3.74	7.97	-31.8	-46.6	3.8	7.45e-01	0	41	104	0	24	19778
2026-01-25 03:52:23.14	3.63	8.03	-31.6	-46.0	3.8	7.42e-01	0	41	104	0	24	18733
2026-01-25 03:52:24.14	3.51	8.10	-31.4	-45.2	3.8	7.45e-01	0	42	104	0	24	17594
2026-01-25 03:52:25.15	3.38	8.17	-31.2	-45.1	3.8	7.41e-01	0	41	104	0	23	17748
2026-01-25 03:52:26.16	3.26	8.23	-31.1	-44.8	3.8	7.47e-01	0	42	104	0	23	17328
2026-01-25 03:52:27.16	3.14	8.30	-31.4	-45.5	3.8	7.46e-01	0	41	104	0	23	18340
2026-01-25 03:52:28.16	3.02	8.37	-31.6	-46.3	3.9	7.42e-01	0	42	104	0	23	19590
2026-01-25 03:52:29.17	2.89	8.43	-31.9	-46.8	3.8	7.46e-01	0	42	104	0	24	20094
2026-01-25 03:52:30.17	2.77	8.50	-32.1	-47.3	3.9	7.43e-01	0	42	104	0	25	20633
2026-01-25 03:52:31.17	2.65	8.57	-32.3	-48.2	3.8	7.46e-01	0	42	104	0	25	22282
2026-01-25 03:52:32.17	2.52	8.63	-32.5	-48.7	3.8	7.46e-01	0	42	104	0	25	23345
2026-01-25 03:52:33.16	2.40	8.70	-32.4	-48.6	3.8	7.44e-01	0	42	104	0	25	23191
2026-01-25 03:52:34.17	2.27	8.77	-32.4	-48.6	3.8	7.45e-01	0	42	104	0	25	23111
2026-01-25 03:52:35.17	2.14	8.83	-32.4	-48.6	3.8	7.44e-01	0	42	104	0	25	23099
2026-01-25 03:52:36.18	2.01	8.90	-32.5	-48.7	3.8	7.43e-01	0	42	104	0	25	23416
2026-01-25 03:52:37.18	1.89	8.97	-32.5	-48.9	3.8	7.46e-01	0	42	104	0	25	23862
2026-01-25 03:52:38.19	1.76	9.04	-32.6	-49.1	3.8	7.44e-01	0	42	104	0	25	24312
2026-01-25 03:52:39.19	1.63	9.11	-32.6	-49.0	3.8	7.46e-01	0	42	104	0	26	23661
2026-01-25 03:52:40.19	1.50	9.17	-32.8	-49.8	3.8	7.46e-01	0	42	104	0	26	25376
2026-01-25 03:52:41.20	1.37	9.24	-32.9	-50.3	3.8	7.45e-01	0	42	104	0	26	26584
2026-01-25 03:52:42.20	1.23	9.31	-33.0	-50.7	3.8	7.45e-01	0	42	104	0	26	27736
2026-01-25 03:52:43.20	1.10	9.38	-33.0	-51.1	3.8	7.48e-01	0	42	104	0	26	28753
2026-01-25 03:52:44.21	0.97	9.44	-33.1	-51.4	3.8	7.45e-01	0	42	104	0	26	29657
2026-01-25 03:52:45.22	0.83	9.51	-33.1	-51.1	3.8	7.47e-01	0	42	104	0	27	28539
2026-01-25 03:52:46.22	0.70	9.58	-33.1	-50.9	3.8	7.46e-01	0	42	104	0	27	27870
2026-01-25 03:52:47.22	0.56	9.65	-33.0	-51.1	3.8	7.47e-01	0	42	104	0	26	28711
2026-01-25 03:52:48.23	0.43	9.72	-33.0	-50.8	3.8	7.45e-01	0	42	104	0	26	27938
2026-01-25 03:52:49.23	0.29	9.79	-33.0	-50.5	3.8	7.46e-01	0	42	104	0	26	27236
2026-01-25 03:52:50.23	0.15	9.85	-32.9	-50.3	3.8	7.45e-01	0	42	104	0	26	26564
2026-01-25 03:52:51.24	0.01	9.92	-32.9	-50.0	3.8	7.44e-01	0	42	104	0	26	25864
2026-01-25 03:52:52.24	359.88	9.99	-32.9	-49.8	3.8	7.46e-01	0	42	104	0	26	25318
2026-01-25 03:52:53.25	359.74	10.06	-32.8	-49.6	3.8	7.45e-01	0	42	104	0	26	24817
2026-01-25 03:52:54.25	359.60	10.13	-32.8	-49.3	3.8	7.44e-01	0	42	104	0	26	24098
2026-01-25 03:52:55.26	359.45	10.20	-32.7	-48.8	3.8	7.46e-01	0	42	104	0	26	23044
2026-01-25 03:52:56.26	359.31	10.27	-32.5	-48.2	3.8	7.43e-01	0	42	104	0	26	21873
2026-01-25 03:52:57.27	359.17	10.33	-32.5	-47.7	3.8	7.44e-01	0	42	104	0	26	20899
2026-01-25 03:52:58.27	359.03	10.40	-32.5	-48.5	3.8	7.44e-01	0	42	104	0	25	22638
2026-01-25 03:52:59.27	358.88	10.47	-32.5	-48.7	3.8	7.44e-01	0	42	104	0	25	23237
2026-01-25 03:53:00.28	358.74	10.54	-32.7	-48.6	3.8	7.45e-01	0	42	104	0	26	22574
2026-01-25 03:53:01.29	358.59	10.61	-32.8	-49.0	3.8	7.50e-01	0	42	104	0	26	23440
2026-01-25 03:53:02.29	358.45	10.68	-32.9	-49.6	3.8	7.44e-01	0	42	104	0	26	24756
2026-01-25 03:53:03.29	358.30	10.75	-32.9	-50.0	3.8	7.43e-01	0	42	104	0	26	25559
2026-01-25 03:53:04.30	358.15	10.82	-32.8	-49.4	3.8	7.42e-01	0	42	104	0	26	24287
2026-01-25 03:53:05.31	358.00	10.89	-32.7	-48.7	3.8	7.45e-01	0	42	104	0	26	22828
2026-01-25 03:53:06.31	357.85	10.96	-32.5	-47.9	3.8	7.44e-01	0	42	104	0	26	21271
2026-01-25 03:53:07.32	357.70	11.03	-32.3	-47.6	3.8	7.44e-01	0	42	104	0	25	20976
2026-01-25 03:53:08.32	357.55	11.09	-32.1	-46.8	3.8	7.47e-01	0	42	104	0	25	19606
2026-01-25 03:53:09.33	357.40	11.16	-31.9	-46.1	3.8	7.44e-01	0	42	104	0	25	18484
2026-01-25 03:53:10.33	357.25	11.23	-31.7	-45.9	3.8	7.44e-01	0	42	104	0	24	18502
2026-01-25 03:53:11.33	357.09	11.30	-31.4	-45.1	3.8	7.45e-01	0	42	104	0	24	17282
2026-01-25 03:53:12.34	356.94	11.37	-31.2	-44.2	3.8	7.43e-01	0	42	104	0	24	16195
2026-01-25 03:53:13.34	356.78	11.44	-30.9	-44.0	3.8	7.48e-01	0	42	104	0	23	16178
2026-01-25 03:53:14.35	356.63	11.51	-30.7	-43.8	3.8	7.41e-01	0	42	104	0	22	16333
2026-01-25 03:53:15.35	356.47	11.58	-30.5	-43.4	3.8	7.46e-01	0	43	104	0	22	15798
2026-01-25 03:53:16.35	356.31	11.65	-30.5	-43.8	3.8	7.41e-01	0	43	104	0	21	16661
2026-01-25 03:53:17.35	356.16	11.72	-30.8	-44.2	3.8	7.45e-01	0	43	104	0	22	16819
2026-01-25 03:53:18.35	356.00	11.79	-31.2	-44.6	3.8	7.46e-01	0	42	104	0	23	17021
2026-01-25 03:53:19.35	355.84	11.86	-31.5	-45.7	3.8	7.45e-01	0	42	104	0	23	18483
2026-01-25 03:53:20.36	355.68	11.93	-31.9	-46.5	3.8	7.42e-01	0	42	104	0	24	19450
2026-01-25 03:53:21.36	355.52	12.00	-32.2	-47.1	3.8	7.44e-01	0	42	104	0	25	20043
2026-01-25 03:53:22.36	355.35	12.07	-32.4	-47.8	3.8	7.45e-01	0	43	104	0	25	21263
2026-01-25 03:53:23.36	355.19	12.13	-32.4	-47.8	3.8	7.47e-01	0	42	104	0	25	21402
2026-01-25 03:53:24.37	355.03	12.20	-32.4	-47.8	3.8	7.44e-01	0	42	104	0	25	21338
2026-01-25 03:53:25.37	354.86	12.27	-32.4	-48.0	3.8	7.45e-01	0	43	104	0	25	21636
2026-01-25 03:53:26.37	354.70	12.34	-32.5	-48.2	3.8	7.44e-01	0	42	104	0	25	22099
2026-01-25 03:53:27.38	354.53	12.41	-32.5	-48.3	3.8	7.46e-01	0	43	104	0	25	22314
2026-01-25 03:53:28.38	354.36	12.48	-32.4	-47.9	3.8	7.45e-01	0	43	104	0	25	21468
2026-01-25 03:53:29.38	354.19	12.55	-32.4	-48.1	3.8	7.45e-01	0	43	104	0	25	21749
2026-01-25 03:53:30.39	354.02	12.62	-32.7	-48.5	3.8	7.46e-01	0	43	104	0	26	22298
2026-01-25 03:53:31.39	353.85	12.69	-32.8	-49.3	3.8	7.46e-01	0	43	104	0	26	23947
2026-01-25 03:53:32.39	353.68	12.76	-33.0	-49.9	3.8	7.44e-01	0	43	104	0	26	25346
2026-01-25 03:53:33.40	353.51	12.83	-33.1	-50.5	3.8	7.47e-01	0	43	104	0	26	26670
2026-01-25 03:53:34.39	353.34	12.90	-33.2	-50.5	3.8	7.48e-01	0	43	104	0	27	26354
2026-01-25 03:53:35.39	353.17	12.97	-33.2	-50.6	3.8	7.45e-01	0	43	104	0	27	26581
2026-01-25 03:53:36.38	353.00	13.04	-33.2	-50.4	3.8	7.49e-01	0	43	104	0	27	26047
2026-01-25 03:53:37.39	352.82	13.10	-33.1	-50.1	3.8	7.45e-01	0	43	104	0	27	25421
2026-01-25 03:53:38.40	352.64	13.17	-33.1	-49.9	3.8	7.46e-01	0	43	104	0	27	24836
2026-01-25 03:53:39.41	352.46	13.24	-33.1	-50.1	3.8	7.44e-01	0	43	104	0	26	25739
2026-01-25 03:53:40.41	352.29	13.31	-33.0	-50.1	3.8	7.47e-01	0	43	104	0	26	25530
2026-01-25 03:53:41.41	352.11	13.38	-33.0	-49.9	3.8	7.45e-01	0	43	104	0	26	25052
2026-01-25 03:53:42.42	351.93	13.45	-33.0	-49.7	3.8	7.44e-01	0	43	104	0	26	24749
2026-01-25 03:53:43.43	351.74	13.52	-32.9	-49.6	3.8	7.46e-01	0	43	104	0	26	24422
2026-01-25 03:53:44.43	351.56	13.59	-32.9	-49.3	3.8	7.45e-01	0	43	104	0	26	23795
2026-01-25 03:53:45.43	351.38	13.66	-32.8	-48.8	3.8	7.44e-01	0	43	104	0	26	22633
2026-01-25 03:53:46.44	351.20	13.73	-32.6	-48.1	3.8	7.45e-01	0	43	104	0	26	21374
2026-01-25 03:53:47.45	351.01	13.80	-32.6	-47.8	3.8	7.43e-01	0	43	104	0	26	20877
2026-01-25 03:53:48.45	350.83	13.87	-32.7	-48.4	3.8	7.45e-01	0	43	104	0	26	21877
2026-01-25 03:53:49.45	350.64	13.93	-32.9	-49.1	3.8	7.44e-01	0	43	104	0	26	23241
2026-01-25 03:53:50.46	350.45	14.00	-33.0	-49.7	3.8	7.46e-01	0	43	104	0	26	24632
2026-01-25 03:53:51.46	350.26	14.07	-33.0	-49.8	3.8	7.45e-01	0	43	104	0	26	24943
2026-01-25 03:53:52.46	350.07	14.14	-32.9	-49.1	3.8	7.44e-01	0	43	104	0	26	23286
2026-01-25 03:53:53.47	349.88	14.21	-32.6	-40.5	4.9	7.11e-01	0	43	104	0	26	8949
2026-01-25 03:53:54.47	349.69	14.28	-32.5	-39.5	12.4	6.05e-01	0	43	104	0	25	8095
2026-01-25 03:53:55.47	349.50	14.34	-32.2	-38.3	13.5	6.03e-01	0	43	102	524288	25	7227
2026-01-25 03:53:56.47	349.31	14.41	-31.9	-37.2	14.3	6.03e-01	0	43	102	524288	25	6596
2026-01-25 03:53:57.48	349.11	14.48	-31.7	-36.7	15.2	6.02e-01	0	43	102	524288	24	6392
2026-01-25 03:53:58.48	348.92	14.55	-31.4	-36.2	15.9	6.02e-01	0	43	102	524288	23	6241
2026-01-25 03:53:59.49	348.72	14.62	-31.2	-35.4	16.5	6.01e-01	0	43	102	524288	23	5871
2026-01-25 03:54:00.49	348.53	14.68	-31.0	-35.3	16.9	6.01e-01	0	43	102	524288	22	5940
2026-01-25 03:54:01.49	348.33	14.75	-30.9	-35.2	16.9	6.01e-01	0	43	102	524288	22	5873
2026-01-25 03:54:02.49	348.13	14.82	-31.2	-35.5	16.4	6.00e-01	0	43	102	524288	23	5915
2026-01-25 03:54:03.50	347.93	14.89	-31.2	-35.7	16.3	6.01e-01	0	43	102	524288	23	5997
2026-01-25 03:54:04.51	347.73	14.95	-30.9	-35.0	17.0	6.00e-01	0	43	102	524288	22	5810
2026-01-25 03:54:05.51	347.53	15.02	-30.6	-34.2	17.6	6.00e-01	0	43	102	524288	22	5459
2026-01-25 03:54:06.52	347.32	15.09	-30.3	-33.5	18.0	6.00e-01	0	43	102	524288	22	5175
2026-01-25 03:54:07.53	347.12	15.15	-30.1	-33.5	18.4	6.00e-01	0	43	102	524288	21	5282
2026-01-25 03:54:08.53	346.91	15.22	-30.1	-33.4	18.4	6.02e-01	0	43	102	524288	21	5246
2026-01-25 03:54:09.54	346.71	15.29	-30.1	-33.3	18.5	6.01e-01	0	43	102	524288	21	5201
2026-01-25 03:54:10.55	346.50	15.35	-29.9	-33.2	18.9	6.00e-01	0	43	102	524288	20	5286
2026-01-25 03:54:11.55	346.29	15.42	-29.9	-33.3	18.8	6.00e-01	0	43	102	524288	20	5330
2026-01-25 03:54:12.55	346.08	15.49	-30.0	-33.4	18.8	6.02e-01	0	43	102	524288	20	5360
2026-01-25 03:54:13.56	345.87	15.55	-30.0	-33.5	18.7	6.01e-01	0	43	102	524288	20	5395
2026-01-25 03:54:14.57	345.66	15.62	-30.0	-33.0	18.6	5.99e-01	0	43	102	524288	21	5098
2026-01-25 03:54:15.58	345.44	15.68	-30.0	-33.6	18.7	5.99e-01	0	43	102	524288	20	5426
2026-01-25 03:54:16.58	345.23	15.75	-30.0	-32.9	18.7	6.02e-01	0	43	102	524288	21	5067
2026-01-25 03:54:17.59	345.02	15.81	-29.8	-32.6	18.9	6.03e-01	0	43	102	524288	21	4932
2026-01-25 03:54:18.60	344.80	15.88	-29.6	-32.5	19.3	6.00e-01	0	43	102	524288	20	5036
2026-01-25 03:54:19.60	344.59	15.94	-29.6	-32.6	19.2	6.01e-01	0	43	102	524288	20	5049
2026-01-25 03:54:20.61	344.37	16.01	-29.7	-32.7	19.2	6.02e-01	0	43	102	524288	20	5088
2026-01-25 03:54:21.60	344.15	16.07	-29.6	-32.5	19.3	6.01e-01	0	43	102	524288	20	5007
2026-01-25 03:54:22.61	343.93	16.14	-29.6	-32.4	19.4	6.00e-01	0	43	102	524288	20	4980
2026-01-25 03:54:23.61	343.71	16.20	-29.6	-32.6	19.3	6.02e-01	0	43	102	524288	20	5047
2026-01-25 03:54:24.62	343.49	16.26	-29.6	-32.5	19.3	6.02e-01	0	43	102	524288	20	5024
2026-01-25 03:54:25.62	343.27	16.33	-29.6	-32.3	19.4	5.99e-01	0	43	102	524288	20	4960
2026-01-25 03:54:26.62	343.05	16.39	-29.6	-32.5	19.3	6.00e-01	0	43	102	524288	20	5002
2026-01-25 03:54:27.63	342.82	16.45	-29.6	-32.4	19.3	6.01e-01	0	43	102	524288	20	4994
2026-01-25 03:54:28.63	342.60	16.52	-29.7	-32.6	19.3	6.00e-01	0	43	102	524288	20	5048
2026-01-25 03:54:29.64	342.37	16.58	-29.7	-32.7	19.3	6.00e-01	0	43	102	524288	20	5073
2026-01-25 03:54:30.64	342.14	16.64	-29.6	-32.6	19.3	6.01e-01	0	43	102	524288	20	5035
2026-01-25 03:54:31.65	341.91	16.70	-29.6	-32.4	19.4	5.99e-01	0	43	102	524288	20	4969
2026-01-25 03:54:32.64	341.69	16.76	-29.6	-32.5	19.4	5.99e-01	0	43	102	524288	20	5006
2026-01-25 03:54:33.65	341.46	16.82	-29.7	-32.7	19.3	6.01e-01	0	43	102	524288	20	5082
2026-01-25 03:54:34.66	341.22	16.89	-29.7	-32.6	19.3	6.03e-01	0	43	102	524288	20	5060
2026-01-25 03:54:35.66	340.99	16.95	-29.7	-32.7	19.3	6.02e-01	0	43	102	524288	20	5096
2026-01-25 03:54:36.66	340.76	17.01	-29.7	-32.6	19.3	6.00e-01	0	43	102	524288	20	5053
2026-01-25 03:54:37.67	340.53	17.07	-29.6	-32.4	19.4	5.99e-01	0	43	102	524288	20	4982
2026-01-25 03:54:38.68	340.29	17.13	-29.6	-32.4	19.4	5.98e-01	0	43	102	524288	20	4968
2026-01-25 03:54:39.68	340.05	17.19	-29.6	-32.3	19.5	6.03e-01	0	43	102	524288	20	4942
2026-01-25 03:54:40.69	339.82	17.25	-29.5	-32.3	19.5	6.00e-01	0	43	102	524288	20	4937
2026-01-25 03:54:41.69	339.58	17.30	-29.7	-32.6	19.3	6.01e-01	0	43	102	524288	20	5065
2026-01-25 03:54:42.70	339.34	17.36	-29.9	-33.1	19.0	6.00e-01	0	43	102	524288	20	5247
2026-01-25 03:54:43.71	339.10	17.42	-29.9	-33.2	19.0	5.99e-01	0	43	102	524288	20	5274
2026-01-25 03:54:44.71	338.86	17.48	-29.9	-33.3	18.9	6.00e-01	0	43	102	524288	20	5314
2026-01-25 03:54:45.72	338.61	17.54	-29.8	-33.0	19.1	6.02e-01	0	43	102	524288	20	5207
2026-01-25 03:54:46.72	338.37	17.59	-29.7	-32.7	19.3	6.01e-01	0	43	102	524288	20	5074
2026-01-25 03:54:47.72	338.13	17.65	-28.1	-31.4	19.3	6.06e-01	0	43	102	524288	19	5284
2026-01-25 03:54:48.73	337.88	17.71	-30.3	-33.7	17.5	6.01e-01	0	43	102	524288	20	5342
2026-01-25 03:54:49.73	337.63	17.76	-29.8	-33.1	19.1	6.03e-01	0	43	102	524288	20	5216
2026-01-25 03:54:50.74	337.39	17.82	-29.8	-32.9	17.0	6.07e-01	0	43	102	524288	20	5154
2026-01-25 03:54:51.74	337.14	17.87	-29.7	-32.7	17.9	6.01e-01	0	43	102	524288	20	5099
2026-01-25 03:54:52.74	336.89	17.93	-29.7	-32.7	19.3	6.02e-01	0	43	102	524288	20	5076
2026-01-25 03:54:53.75	336.64	17.98	-29.7	-32.7	18.2	6.04e-01	0	43	102	524288	20	5084
2026-01-25 03:54:54.75	336.39	18.04	-29.6	-32.5	17.0	6.00e-01	0	43	102	524288	20	5015
2026-01-25 03:54:55.75	336.14	18.09	-29.6	-32.3	19.5	6.00e-01	0	43	102	524288	20	4956
2026-01-25 03:54:56.74	335.89	18.14	-29.7	-32.7	17.1	6.00e-01	0	43	102	524288	20	5077
2026-01-25 03:54:57.74	335.64	18.20	-29.7	-32.7	19.2	5.99e-01	0	43	102	524288	20	5083
2026-01-25 03:54:58.74	335.38	18.25	-29.8	-32.9	19.1	6.00e-01	0	43	102	524288	20	5171
2026-01-25 03:54:59.74	335.13	18.30	-29.7	-32.8	19.0	6.01e-01	0	43	102	524288	20	5124
2026-01-25 03:55:00.76	334.87	18.35	-29.6	-32.5	19.3	6.02e-01	0	43	102	524288	20	5025
2026-01-25 03:55:01.76	334.61	18.40	-29.6	-32.4	19.4	6.03e-01	0	43	102	524288	20	4985
2026-01-25 03:55:02.75	334.36	18.45	-29.6	-32.4	19.4	6.01e-01	0	43	102	524288	20	4989
2026-01-25 03:55:03.75	334.10	18.50	-29.6	-32.5	19.4	5.99e-01	0	43	102	524288	20	5006
2026-01-25 03:55:04.76	333.83	18.55	-29.7	-32.6	19.3	6.02e-01	0	43	102	524288	20	5046
2026-01-25 03:55:05.76	333.57	18.60	-29.8	-33.1	19.0	5.99e-01	0	43	102	524288	20	5215
2026-01-25 03:55:06.76	333.31	18.65	-29.7	-32.8	19.2	6.01e-01	0	43	102	524288	20	5105
2026-01-25 03:55:07.76	333.05	18.70	-29.6	-32.5	19.4	6.01e-01	0	43	102	524288	20	5017
2026-01-25 03:55:08.76	332.79	18.75	-29.7	-32.7	19.2	6.00e-01	0	43	102	524288	20	5075
2026-01-25 03:55:09.77	332.52	18.79	-29.6	-32.5	19.3	6.03e-01	0	43	102	524288	20	5024
2026-01-25 03:55:10.77	332.26	18.84	-29.7	-32.7	19.2	6.03e-01	0	43	102	524288	20	5098
2026-01-25 03:55:11.77	331.99	18.89	-29.7	-32.7	19.2	6.03e-01	0	43	102	524288	20	5082
2026-01-25 03:55:12.77	331.73	18.93	-29.7	-32.6	19.2	6.02e-01	0	43	102	524288	20	5060
2026-01-25 03:55:13.78	331.46	18.98	-29.8	-33.0	19.1	6.01e-01	0	43	102	524288	20	5189
2026-01-25 03:55:14.78	331.19	19.02	-29.7	-32.8	19.2	6.01e-01	0	43	102	524288	20	5114
2026-01-25 03:55:15.79	330.92	19.06	-29.7	-32.6	19.3	6.02e-01	0	43	102	524288	20	5060
2026-01-25 03:55:16.79	330.65	19.11	-29.7	-32.7	19.2	5.99e-01	0	43	102	524288	20	5091
2026-01-25 03:55:17.80	330.37	19.15	-29.7	-32.7	19.2	6.01e-01	0	43	102	524288	20	5075
2026-01-25 03:55:18.80	330.10	19.19	-29.7	-32.8	19.1	6.00e-01	0	43	102	524288	20	5099
2026-01-25 03:55:19.81	329.83	19.24	-29.9	-33.1	19.0	5.99e-01	0	43	102	524288	20	5235
2026-01-25 03:55:20.81	329.55	19.28	-29.8	-33.0	19.0	6.00e-01	0	43	102	524288	20	5190
2026-01-25 03:55:21.81	329.28	19.32	-30.0	-33.4	18.8	6.03e-01	0	43	102	524288	20	5328
2026-01-25 03:55:22.82	329.00	19.36	-29.8	-33.0	19.1	6.01e-01	0	43	102	524288	20	5176
2026-01-25 03:55:23.82	328.73	19.40	-29.7	-32.8	19.2	6.00e-01	0	43	102	524288	20	5097
2026-01-25 03:55:24.82	328.45	19.44	-29.7	-32.7	19.2	6.01e-01	0	43	102	524288	20	5085
2026-01-25 03:55:25.82	328.17	19.47	-29.7	-32.8	19.2	6.01e-01	0	43	102	524288	20	5103
2026-01-25 03:55:26.83	327.89	19.51	-29.8	-32.9	19.1	6.01e-01	0	43	102	524288	20	5148
2026-01-25 03:55:27.83	327.62	19.55	-29.7	-32.8	19.2	6.05e-01	0	43	102	524288	20	5102
2026-01-25 03:55:28.83	327.34	19.58	-29.7	-32.8	19.2	6.02e-01	0	43	102	524288	20	5104
2026-01-25 03:55:29.84	327.05	19.62	-29.6	-32.5	19.4	6.01e-01	0	43	102	524288	20	4996
2026-01-25 03:55:30.85	326.77	19.66	-29.8	-32.9	19.1	5.98e-01	0	44	102	524288	20	5159
2026-01-25 03:55:31.84	326.49	19.69	-29.8	-32.8	19.2	6.01e-01	0	43	102	524288	20	5115
2026-01-25 03:55:32.85	326.21	19.72	-29.8	-32.9	19.2	6.00e-01	0	43	102	524288	20	5150
2026-01-25 03:55:33.85	325.93	19.76	-29.7	-32.7	19.3	5.98e-01	0	43	102	524288	20	5075
2026-01-25 03:55:34.87	325.64	19.79	-29.7	-32.8	19.2	5.98e-01	0	43	102	524288	20	5106
2026-01-25 03:55:35.87	325.35	19.82	-29.7	-32.7	19.3	6.02e-01	0	43	102	524288	20	5065
2026-01-25 03:55:36.88	325.07	19.85	-29.8	-32.8	19.2	6.02e-01	0	43	102	524288	20	5128
2026-01-25 03:55:37.88	324.78	19.88	-29.7	-32.8	19.2	6.02e-01	0	43	102	524288	20	5105
2026-01-25 03:55:38.88	324.50	19.91	-29.8	-32.9	19.2	6.02e-01	0	43	102	524288	20	5166
2026-01-25 03:55:39.89	324.21	19.94	-29.7	-32.7	19.3	6.00e-01	0	43	102	524288	20	5100
2026-01-25 03:55:40.89	323.92	19.97	-29.7	-32.6	19.3	6.01e-01	0	43	102	524288	20	5033
2026-01-25 03:55:41.90	323.63	20.00	-29.8	-33.0	19.2	6.03e-01	0	43	102	524288	20	5179
2026-01-25 03:55:42.90	323.34	20.03	-29.8	-32.9	19.2	6.01e-01	0	43	102	524288	20	5164
2026-01-25 03:55:43.91	323.05	20.05	-29.9	-33.1	19.0	6.01e-01	0	43	102	524288	20	5234
2026-01-25 03:55:44.92	322.76	20.08	-29.8	-32.8	19.2	6.00e-01	0	43	102	524288	20	5124
2026-01-25 03:55:45.93	322.47	20.10	-29.8	-33.0	19.1	6.03e-01	0	43	102	524288	20	5191
2026-01-25 03:55:46.94	322.17	20.13	-29.8	-33.0	19.2	6.03e-01	0	43	102	524288	20	5181
2026-01-25 03:55:47.93	321.89	20.15	-30.0	-33.4	18.9	6.01e-01	0	43	102	524288	20	5348
2026-01-25 03:55:48.94	321.59	20.17	-29.9	-33.1	19.0	6.00e-01	0	43	102	524288	20	5244
2026-01-25 03:55:49.94	321.30	20.20	-29.9	-33.1	19.0	6.00e-01	0	43	102	524288	20	5242
2026-01-25 03:55:50.94	321.01	20.22	-30.0	-33.5	18.9	6.01e-01	0	43	102	524288	20	5368
2026-01-25 03:55:51.95	320.72	20.24	-29.9	-33.3	18.9	6.02e-01	0	43	102	524288	20	5311
2026-01-25 03:55:52.94	320.43	20.26	-29.9	-33.3	18.9	6.00e-01	0	43	102	524288	20	5290
2026-01-25 03:55:53.94	320.13	20.28	-29.9	-33.3	19.0	6.03e-01	0	43	102	524288	20	5298
2026-01-25 03:55:54.94	319.84	20.29	-30.0	-33.6	18.8	5.99e-01	0	43	102	524288	20	5406
2026-01-25 03:55:55.94	319.55	20.31	-29.9	-33.3	19.0	5.99e-01	0	43	102	524288	20	5287
2026-01-25 03:55:56.94	319.25	20.33	-29.9	-33.2	19.0	5.99e-01	0	43	102	524288	20	5263
2026-01-25 03:55:57.95	318.95	20.34	-30.0	-33.5	18.8	6.02e-01	0	43	102	524288	20	5376
2026-01-25 03:55:58.96	318.66	20.36	-29.9	-33.2	19.0	6.01e-01	0	43	102	524288	20	5279
2026-01-25 03:55:59.96	318.36	20.37	-29.9	-33.3	18.9	6.02e-01	0	43	102	524288	20	5309
2026-01-25 03:56:00.96	318.07	20.39	-30.2	-33.6	18.4	6.01e-01	0	43	102	524288	21	5311
2026-01-25 03:56:01.96	317.77	20.40	-30.1	-33.2	18.6	5.99e-01	0	43	102	524288	21	5148
2026-01-25 03:56:02.97	317.47	20.41	-29.9	-33.2	19.0	6.01e-01	0	43	102	524288	20	5253
2026-01-25 03:56:03.97	317.18	20.43	-30.0	-33.5	18.8	6.01e-01	0	43	102	524288	20	5397
2026-01-25 03:56:04.97	316.88	20.44	-29.9	-33.2	19.0	6.00e-01	0	43	102	524288	20	5250
2026-01-25 03:56:05.97	316.58	20.45	-29.9	-33.1	19.0	6.01e-01	0	43	102	524288	20	5226
2026-01-25 03:56:06.98	316.28	20.46	-29.9	-33.2	19.0	5.99e-01	0	43	102	524288	20	5253
2026-01-25 03:56:07.98	315.99	20.46	-30.0	-33.3	18.9	6.00e-01	0	43	102	524288	20	5320
2026-01-25 03:56:08.98	315.69	20.47	-29.9	-33.3	18.9	6.00e-01	0	43	102	524288	20	5308
2026-01-25 03:56:09.99	315.39	20.48	-30.2	-33.5	18.5	6.02e-01	0	43	102	524288	21	5275
2026-01-25 03:56:11.00	315.09	20.48	-30.0	-33.0	18.8	6.00e-01	0	43	102	524288	21	5094
2026-01-25 03:56:12.01	314.79	20.49	-29.9	-33.3	18.9	6.02e-01	0	43	102	524288	20	5295
2026-01-25 03:56:13.01	314.49	20.49	-30.0	-33.4	18.9	5.98e-01	0	43	102	524288	20	5327
2026-01-25 03:56:14.01	314.19	20.50	-30.2	-33.4	18.6	5.99e-01	0	43	102	524288	21	5244
2026-01-25 03:56:15.01	313.89	20.50	-30.4	-34.1	18.1	6.02e-01	0	43	102	524288	21	5487
2026-01-25 03:56:16.01	313.60	20.50	-30.3	-33.9	18.2	6.01e-01	0	43	102	524288	21	5422
2026-01-25 03:56:17.02	313.29	20.50	-30.4	-34.1	18.1	5.99e-01	0	43	102	524288	21	5492
2026-01-25 03:56:18.02	313.00	20.51	-30.8	-34.7	17.3	6.01e-01	0	43	102	524288	22	5660
2026-01-25 03:56:19.02	312.70	20.51	-30.5	-33.9	17.9	6.02e-01	0	44	102	524288	22	5298
2026-01-25 03:56:20.03	312.40	20.50	-30.5	-33.9	17.9	5.98e-01	0	43	102	524288	22	5322
2026-01-25 03:56:21.03	312.10	20.50	-30.5	-34.4	17.8	5.99e-01	0	43	102	524288	21	5613
2026-01-25 03:56:22.03	311.80	20.50	-30.7	-34.3	17.6	6.00e-01	0	43	102	524288	22	5472
2026-01-25 03:56:23.03	311.50	20.50	-30.8	-34.6	17.4	6.00e-01	0	43	102	524288	22	5580
2026-01-25 03:56:24.04	311.20	20.49	-30.8	-34.6	17.3	6.03e-01	0	43	102	524288	22	5618
2026-01-25 03:56:25.04	310.91	20.49	-30.8	-34.5	17.4	6.00e-01	0	43	102	524288	22	5566
2026-01-25 03:56:26.04	310.61	20.48	-30.5	-34.0	17.7	6.04e-01	0	43	102	524288	22	5335
2026-01-25 03:56:27.05	310.31	20.48	-31.0	-35.4	16.8	6.00e-01	0	43	102	524288	22	5943
2026-01-25 03:56:28.06	310.01	20.47	-30.6	-34.0	17.8	6.00e-01	0	43	102	524288	22	5333
2026-01-25 03:56:29.06	309.71	20.46	-30.4	-34.0	17.4	6.00e-01	0	43	102	524288	21	5442
2026-01-25 03:56:30.07	309.41	20.45	-30.8	-34.6	16.0	6.02e-01	0	43	102	524288	22	5587
2026-01-25 03:56:31.08	309.11	20.44	-30.3	-33.4	18.2	6.01e-01	0	43	102	524288	22	5098
2026-01-25 03:56:32.08	308.81	20.43	-30.8	-34.7	16.1	5.98e-01	0	43	102	524288	22	5632
2026-01-25 03:56:33.08	308.52	20.42	-30.7	-34.4	17.5	6.00e-01	0	43	102	524288	22	5529
2026-01-25 03:56:34.08	308.22	20.41	-30.0	-32.4	18.9	6.01e-01	0	43	102	524288	22	4731
2026-01-25 03:56:35.09	307.92	20.40	-29.9	-32.6	18.8	6.02e-01	0	43	102	524288	21	4941
2026-01-25 03:56:36.10	307.62	20.38	-30.4	-34.1	18.2	6.00e-01	0	43	102	524288	21	5493
2026-01-25 03:56:37.10	307.33	20.37	-29.9	-32.7	19.0	5.99e-01	0	43	102	524288	21	4954
2026-01-25 03:56:38.10	307.03	20.35	-29.8	-33.0	19.1	5.99e-01	0	43	102	524288	20	5170
2026-01-25 03:56:39.10	306.74	20.34	-30.1	-33.7	18.7	5.98e-01	0	44	102	524288	20	5441
2026-01-25 03:56:40.10	306.44	20.32	-30.1	-33.3	18.6	6.01e-01	0	43	102	524288	21	5172
2026-01-25 03:56:41.11	306.15	20.30	-30.0	-33.5	18.8	6.01e-01	0	43	102	524288	20	5370
2026-01-25 03:56:42.11	305.85	20.29	-29.8	-32.8	19.2	6.00e-01	0	43	102	524288	20	5115
2026-01-25 03:56:43.11	305.56	20.27	-30.0	-33.4	18.8	6.00e-01	0	43	102	524288	20	5361
2026-01-25 03:56:44.11	305.26	20.25	-30.2	-33.5	18.5	6.01e-01	0	43	102	524288	21	5266
2026-01-25 03:56:45.12	304.97	20.23	-29.8	-33.0	19.1	6.02e-01	0	43	102	524288	20	5170
2026-01-25 03:56:46.13	304.67	20.21	-30.1	-33.3	18.5	6.01e-01	0	43	102	524288	21	5202
2026-01-25 03:56:47.13	304.38	20.18	-29.8	-33.0	19.1	6.01e-01	0	43	102	524288	20	5183
2026-01-25 03:56:48.14	304.09	20.16	-30.3	-33.7	18.3	6.03e-01	0	43	102	524288	21	5358
2026-01-25 03:56:49.14	303.80	20.14	-29.8	-32.5	19.1	6.00e-01	0	43	102	524288	21	4900
2026-01-25 03:56:50.14	303.51	20.11	-29.7	-32.7	19.2	5.99e-01	0	43	102	524288	20	5095
2026-01-25 03:56:51.15	303.21	20.09	-30.2	-33.6	18.5	6.04e-01	0	44	102	524288	21	5310
2026-01-25 03:56:52.15	302.92	20.06	-30.0	-32.9	18.9	6.01e-01	0	43	102	524288	21	5033
2026-01-25 03:56:53.16	302.63	20.04	-30.5	-34.3	18.0	6.01e-01	0	43	102	524288	21	5609
2026-01-25 03:56:54.16	302.34	20.01	-29.9	-32.8	18.9	6.01e-01	0	43	102	524288	21	5008
2026-01-25 03:56:55.16	302.06	19.98	-30.3	-33.9	18.2	6.00e-01	0	43	102	524288	21	5436
2026-01-25 03:56:56.16	301.77	19.96	-29.8	-33.0	19.1	5.98e-01	0	43	102	524288	20	5167
2026-01-25 03:56:57.17	301.48	19.93	-30.6	-34.2	17.6	6.02e-01	0	43	102	524288	22	5466
2026-01-25 03:56:58.17	301.19	19.90	-29.6	-32.5	19.4	6.04e-01	0	44	102	524288	20	5000
2026-01-25 03:56:59.17	300.91	19.87	-30.2	-32.9	18.2	6.00e-01	0	43	102	524288	22	4944
2026-01-25 03:57:00.18	300.62	19.84	-30.2	-33.6	18.5	6.03e-01	0	43	102	524288	21	5310
2026-01-25 03:57:01.19	300.33	19.81	-29.7	-32.7	19.2	6.00e-01	0	43	102	524288	20	5086
2026-01-25 03:57:02.20	300.04	19.77	-30.0	-33.4	18.8	6.01e-01	0	43	102	524288	20	5335
2026-01-25 03:57:03.20	299.76	19.74	-30.3	-33.4	18.1	5.99e-01	0	44	102	524288	22	5115
2026-01-25 03:57:04.21	299.48	19.71	-30.3	-33.8	18.3	5.98e-01	0	44	102	524288	21	5397
2026-01-25 03:57:05.21	299.19	19.67	-29.6	-31.8	19.3	6.00e-01	0	43	102	524288	21	4658
2026-01-25 03:57:06.22	298.91	19.64	-30.5	-34.4	18.0	6.00e-01	0	43	102	524288	21	5652
2026-01-25 03:57:07.23	298.63	19.60	-29.8	-32.4	19.0	6.01e-01	0	43	102	524288	21	4874
2026-01-25 03:57:08.23	298.35	19.57	-30.4	-34.1	18.0	6.01e-01	0	43	102	524288	21	5527
2026-01-25 03:57:09.24	298.06	19.53	-30.0	-33.1	18.6	5.99e-01	0	43	102	524288	21	5128
2026-01-25 03:57:10.24	297.79	19.49	-30.2	-33.4	18.4	6.02e-01	0	44	102	524288	21	5256
2026-01-25 03:57:11.24	297.51	19.45	-30.1	-32.9	18.2	6.02e-01	0	43	102	524288	22	4948
2026-01-25 03:57:12.24	297.23	19.42	-30.2	-33.5	18.3	6.01e-01	0	43	102	524288	21	5299
2026-01-25 03:57:13.25	296.95	19.38	-29.5	-31.7	19.3	6.00e-01	0	43	102	524288	21	4639
2026-01-25 03:57:14.26	296.67	19.34	-30.4	-34.2	17.9	6.02e-01	0	44	102	524288	21	5578
2026-01-25 03:57:15.26	296.40	19.30	-29.6	-31.8	19.3	6.00e-01	0	43	102	524288	21	4676
2026-01-25 03:57:16.26	296.13	19.25	-30.3	-33.8	18.2	6.01e-01	0	43	102	524288	21	5378
2026-01-25 03:57:17.26	295.85	19.21	-30.4	-33.7	17.9	6.01e-01	0	43	102	524288	22	5239
2026-01-25 03:57:18.26	295.58	19.17	-30.1	-33.7	18.6	6.01e-01	0	43	102	524288	20	5451
2026-01-25 03:57:19.27	295.31	19.13	-30.1	-33.3	18.4	5.99e-01	0	43	102	524288	21	5211
2026-01-25 03:57:20.27	295.03	19.09	-30.0	-33.6	18.7	6.01e-01	0	44	102	524288	20	5422
2026-01-25 03:57:21.28	294.76	19.04	-30.3	-33.8	18.1	5.99e-01	0	43	102	524288	21	5385
2026-01-25 03:57:22.27	294.50	19.00	-30.1	-33.3	18.5	6.00e-01	0	44	102	524288	21	5219
2026-01-25 03:57:23.28	294.22	18.95	-30.1	-33.2	18.6	6.01e-01	0	44	102	524288	21	5167
2026-01-25 03:57:24.28	293.96	18.91	-30.2	-33.5	18.2	6.01e-01	0	44	102	524288	21	5288
2026-01-25 03:57:25.29	293.69	18.86	-30.1	-33.3	18.5	6.00e-01	0	44	102	524288	21	5188
2026-01-25 03:57:26.30	293.42	18.81	-30.1	-33.4	18.3	6.02e-01	0	43	102	524288	21	5258
2026-01-25 03:57:27.30	293.15	18.77	-30.0	-33.6	18.6	6.01e-01	0	44	102	524288	20	5416
2026-01-25 03:57:28.30	292.89	18.72	-30.5	-34.0	17.6	6.04e-01	0	43	102	524288	22	5373
2026-01-25 03:57:29.31	292.62	18.67	-29.8	-32.5	18.9	6.01e-01	0	44	102	524288	21	4912
2026-01-25 03:57:30.31	292.36	18.62	-30.0	-33.5	18.6	6.02e-01	0	44	102	524288	20	5400
2026-01-25 03:57:31.31	292.10	18.57	-29.9	-33.2	18.7	6.02e-01	0	44	102	524288	20	5285
2026-01-25 03:57:32.32	291.84	18.52	-29.9	-33.2	18.8	6.01e-01	0	43	102	524288	20	5284
2026-01-25 03:57:33.32	291.58	18.47	-29.6	-32.5	19.1	6.01e-01	0	43	102	524288	20	5025
2026-01-25 03:57:34.32	291.32	18.42	-29.7	-32.8	19.1	6.01e-01	0	43	102	524288	20	5119
2026-01-25 03:57:35.32	291.06	18.37	-29.9	-33.2	18.7	6.00e-01	0	43	102	524288	20	5298
2026-01-25 03:57:36.33	290.80	18.32	-29.7	-32.9	19.0	6.00e-01	0	43	102	524288	20	5156
2026-01-25 03:57:37.33	290.55	18.27	-29.8	-33.1	18.9	6.01e-01	0	44	102	524288	20	5243
2026-01-25 03:57:38.33	290.29	18.22	-30.0	-33.6	18.6	6.02e-01	0	43	102	524288	20	5452
2026-01-25 03:57:39.34	290.03	18.17	-29.5	-32.3	19.4	6.01e-01	0	44	102	524288	20	4957
2026-01-25 03:57:40.35	289.78	18.11	-30.1	-33.8	18.4	6.02e-01	0	44	102	524288	20	5552
2026-01-25 03:57:41.35	289.53	18.06	-29.5	-32.3	19.4	5.99e-01	0	43	102	524288	20	4940
2026-01-25 03:57:42.36	289.27	18.00	-30.4	-34.2	17.8	5.99e-01	0	43	102	524288	21	5581
2026-01-25 03:57:43.35	289.02	17.95	-30.0	-33.2	18.3	6.00e-01	0	43	102	524288	21	5171
2026-01-25 03:57:44.35	288.78	17.90	-29.9	-33.3	18.7	6.01e-01	0	43	102	524288	20	5342
2026-01-25 03:57:45.36	288.52	17.84	-29.9	-33.4	18.6	5.99e-01	0	43	102	524288	20	5388
2026-01-25 03:57:46.36	288.28	17.78	-30.2	-33.6	18.2	5.99e-01	0	43	102	524288	21	5331
2026-01-25 03:57:47.37	288.03	17.73	-30.4	-33.7	17.7	6.01e-01	0	43	102	524288	22	5266
2026-01-25 03:57:48.37	287.78	17.67	-29.8	-32.5	18.9	6.00e-01	0	43	102	524288	21	4912
2026-01-25 03:57:49.37	287.54	17.62	-30.4	-34.3	17.8	6.01e-01	0	43	102	524288	21	5616
2026-01-25 03:57:50.37	287.29	17.56	-29.9	-32.7	18.8	6.01e-01	0	43	102	524288	21	4981
2026-01-25 03:57:51.38	287.05	17.50	-30.1	-33.9	18.4	6.01e-01	0	44	102	524288	20	5566
2026-01-25 03:57:52.39	286.81	17.44	-30.3	-33.9	18.0	6.02e-01	0	43	102	524288	21	5444
2026-01-25 03:57:53.39	286.57	17.38	-29.8	-32.4	18.9	6.01e-01	0	43	102	524288	21	4898
2026-01-25 03:57:54.40	286.32	17.33	-30.4	-34.3	17.7	6.00e-01	0	44	102	524288	21	5660
2026-01-25 03:57:55.40	286.08	17.27	-30.0	-33.0	18.5	6.02e-01	0	43	102	524288	21	5091
2026-01-25 03:57:56.40	285.85	17.21	-30.6	-34.8	17.5	6.02e-01	0	43	102	524288	21	5858
2026-01-25 03:57:57.40	285.61	17.15	-30.8	-34.3	16.9	6.00e-01	0	43	102	524288	23	5416
2026-01-25 03:57:58.41	285.37	17.09	-29.9	-32.8	16.9	6.05e-01	0	43	102	524288	21	5041
2026-01-25 03:57:59.41	285.14	17.03	-30.2	-33.7	17.2	6.01e-01	0	43	102	524288	21	5392
2026-01-25 03:58:00.41	284.90	16.97	-29.8	-32.7	18.7	6.00e-01	0	43	102	524288	21	5002
2026-01-25 03:58:01.41	284.67	16.91	-30.2	-33.7	18.0	6.02e-01	0	43	102	524288	21	5368
2026-01-25 03:58:02.41	284.44	16.85	-30.4	-34.2	16.1	6.03e-01	0	43	102	524288	21	5611
2026-01-25 03:58:03.42	284.21	16.79	-29.9	-32.8	18.7	6.01e-01	0	44	102	524288	21	5037
2026-01-25 03:58:04.42	283.98	16.72	-30.3	-34.0	17.6	5.99e-01	0	43	102	524288	21	5519
2026-01-25 03:58:05.42	283.75	16.66	-30.3	-33.9	17.8	6.01e-01	0	43	102	524288	21	5469
2026-01-25 03:58:06.42	283.52	16.60	-30.0	-33.0	18.5	5.99e-01	0	44	102	524288	21	5107
2026-01-25 03:58:07.42	283.29	16.54	-30.3	-34.0	17.8	6.01e-01	0	43	102	524288	21	5536
2026-01-25 03:58:08.43	283.07	16.48	-30.0	-33.2	18.3	6.00e-01	0	44	102	524288	21	5185
2026-01-25 03:58:09.44	282.84	16.41	-29.7	-32.4	18.8	6.03e-01	0	43	102	524288	21	4896
2026-01-25 03:58:10.45	282.61	16.35	-30.1	-34.0	18.2	6.01e-01	0	44	102	524288	20	5620
2026-01-25 03:58:11.45	282.39	16.29	-29.8	-33.2	18.5	6.00e-01	0	43	102	524288	20	5319
2026-01-25 03:58:12.45	282.17	16.22	-29.3	-32.3	19.6	6.01e-01	0	44	102	524288	19	5068
2026-01-25 03:58:13.46	281.95	16.16	-29.7	-32.9	18.8	6.00e-01	0	43	102	524288	20	5203
2026-01-25 03:58:14.46	281.73	16.09	-29.7	-32.8	18.8	6.00e-01	0	44	102	524288	20	5166
2026-01-25 03:58:15.46	281.51	16.03	-29.5	-32.4	19.1	6.02e-01	0	44	102	524288	20	5001
2026-01-25 03:58:16.46	281.29	15.97	-29.7	-32.9	18.7	6.01e-01	0	44	102	524288	20	5184
2026-01-25 03:58:17.46	281.07	15.90	-29.6	-32.6	18.8	6.01e-01	0	43	102	524288	20	5078
2026-01-25 03:58:18.45	280.86	15.84	-29.5	-32.3	18.9	6.01e-01	0	43	102	524288	20	4999
2026-01-25 03:58:19.45	280.65	15.77	-29.6	-33.0	18.9	6.02e-01	0	43	102	524288	19	5346
2026-01-25 03:58:20.45	280.43	15.71	-29.6	-32.6	18.8	5.99e-01	0	44	102	524288	20	5090
2026-01-25 03:58:21.45	280.22	15.64	-29.4	-32.1	19.1	6.01e-01	0	44	102	524288	20	4908
2026-01-25 03:58:22.46	280.01	15.58	-29.4	-32.6	19.1	6.00e-01	0	43	102	524288	19	5197
2026-01-25 03:58:23.46	279.80	15.51	-29.4	-32.5	19.2	6.00e-01	0	44	102	524288	19	5143
2026-01-25 03:58:24.47	279.58	15.44	-29.4	-32.6	19.0	6.00e-01	0	44	102	524288	19	5186
2026-01-25 03:58:25.47	279.38	15.38	-29.4	-32.6	18.9	5.99e-01	0	43	102	524288	19	5184
2026-01-25 03:58:26.48	279.17	15.31	-29.6	-33.0	18.7	5.99e-01	0	43	102	524288	19	5338
2026-01-25 03:58:27.48	278.96	15.24	-29.5	-32.9	18.7	6.01e-01	0	43	102	524288	19	5297
2026-01-25 03:58:28.48	278.75	15.18	-29.3	-32.3	19.2	6.01e-01	0	44	102	524288	19	5066
2026-01-25 03:58:29.49	278.55	15.11	-29.3	-32.2	19.3	6.03e-01	0	43	102	524288	19	5047
2026-01-25 03:58:30.49	278.34	15.04	-29.5	-32.9	18.8	6.00e-01	0	44	102	524288	19	5297
2026-01-25 03:58:31.50	278.14	14.98	-29.5	-32.9	18.8	6.00e-01	0	43	102	524288	19	5307
2026-01-25 03:58:32.50	277.94	14.91	-29.5	-32.7	19.0	5.99e-01	0	43	102	524288	19	5242
2026-01-25 03:58:33.50	277.74	14.84	-29.4	-32.7	19.1	6.00e-01	0	44	102	524288	19	5210
2026-01-25 03:58:34.50	277.54	14.77	-29.6	-32.6	18.8	6.01e-01	0	43	102	524288	20	5106
2026-01-25 03:58:35.50	277.34	14.71	-29.8	-33.2	18.5	6.01e-01	0	43	102	524288	20	5316
2026-01-25 03:58:36.51	277.14	14.64	-29.5	-32.3	19.0	6.01e-01	0	43	102	524288	20	4998
2026-01-25 03:58:37.51	276.94	14.57	-29.3	-32.3	19.4	5.99e-01	0	44	102	524288	19	5074
2026-01-25 03:58:38.51	276.75	14.50	-29.3	-32.3	19.4	5.99e-01	0	43	102	524288	19	5100
2026-01-25 03:58:39.52	276.55	14.43	-29.4	-32.5	19.4	5.99e-01	0	43	102	524288	19	5144
2026-01-25 03:58:40.53	276.35	14.37	-29.2	-32.2	19.5	6.02e-01	0	43	102	524288	19	5039
2026-01-25 03:58:41.53	276.16	14.30	-29.3	-32.2	19.5	6.02e-01	0	44	102	524288	19	5073
2026-01-25 03:58:42.53	275.97	14.23	-29.3	-32.2	19.4	6.02e-01	0	43	102	524288	19	5063
2026-01-25 03:58:43.53	275.78	14.16	-29.3	-32.3	19.4	6.01e-01	0	43	102	524288	19	5079
2026-01-25 03:58:44.53	275.59	14.09	-29.3	-32.3	19.4	6.00e-01	0	44	102	524288	19	5095
2026-01-25 03:58:45.53	275.40	14.02	-29.3	-32.3	19.4	6.02e-01	0	43	102	524288	19	5079
2026-01-25 03:58:46.54	275.21	13.96	-29.2	-32.1	19.6	6.01e-01	0	43	102	524288	19	5034
2026-01-25 03:58:47.55	275.02	13.89	-29.3	-32.3	19.4	6.02e-01	0	44	102	524288	19	5099
2026-01-25 03:58:48.55	274.83	13.82	-29.3	-32.5	19.3	6.01e-01	0	43	102	524288	19	5156
2026-01-25 03:58:49.56	274.65	13.75	-29.2	-32.2	19.5	6.01e-01	0	43	102	524288	19	5052
2026-01-25 03:58:50.56	274.46	13.68	-29.2	-32.2	19.5	6.01e-01	0	43	102	524288	19	5052
2026-01-25 03:58:51.56	274.28	13.61	-29.3	-32.4	19.4	6.00e-01	0	44	102	524288	19	5127
2026-01-25 03:58:52.56	274.09	13.54	-29.4	-32.7	19.2	6.01e-01	0	43	102	524288	19	5248
2026-01-25 03:58:53.56	273.91	13.47	-29.5	-32.8	19.1	6.01e-01	0	43	102	524288	19	5290
2026-01-25 03:58:54.56	273.73	13.40	-29.5	-32.8	19.1	6.01e-01	0	43	102	524288	19	5269
2026-01-25 03:58:55.56	273.55	13.33	-29.6	-33.0	19.0	5.98e-01	0	44	102	524288	19	5363
2026-01-25 03:58:56.57	273.37	13.26	-29.5	-32.3	19.0	5.99e-01	0	43	102	524288	20	4984
2026-01-25 03:58:57.58	273.19	13.19	-29.4	-32.5	19.2	5.99e-01	0	44	102	524288	19	5186
2026-01-25 03:58:58.58	273.01	13.12	-29.4	-32.7	19.1	6.02e-01	0	43	102	524288	19	5261
2026-01-25 03:58:59.58	272.84	13.06	-29.6	-32.7	18.8	5.99e-01	0	43	102	524288	20	5143
2026-01-25 03:59:00.58	272.66	12.99	-29.6	-32.6	18.8	5.99e-01	0	43	102	524288	20	5118
2026-01-25 03:59:01.58	272.49	12.92	-29.6	-32.6	18.8	6.02e-01	0	44	102	524288	20	5114
2026-01-25 03:59:02.59	272.31	12.85	-29.5	-32.4	18.9	6.02e-01	0	43	102	524288	20	5035
2026-01-25 03:59:03.59	272.14	12.78	-29.4	-32.2	19.0	6.01e-01	0	44	102	524288	20	4980
2026-01-25 03:59:04.59	271.97	12.71	-29.6	-33.1	18.9	6.00e-01	0	44	102	524288	19	5397
2026-01-25 03:59:05.59	271.80	12.64	-29.6	-32.7	18.7	5.98e-01	0	43	102	524288	20	5145
2026-01-25 03:59:06.60	271.63	12.57	-29.7	-33.1	18.4	5.99e-01	0	44	102	524288	20	5319
2026-01-25 03:59:07.61	271.46	12.50	-29.6	-32.8	18.6	6.01e-01	0	44	102	524288	20	5179
2026-01-25 03:59:08.61	271.29	12.43	-29.4	-32.1	19.1	6.00e-01	0	43	102	524288	20	4931
2026-01-25 03:59:09.61	271.12	12.36	-29.3	-32.3	19.3	6.01e-01	0	43	102	524288	19	5091
2026-01-25 03:59:10.62	270.95	12.29	-29.3	-32.5	19.3	6.02e-01	0	43	102	524288	19	5165
2026-01-25 03:59:11.62	270.79	12.22	-29.4	-32.6	19.2	6.01e-01	0	44	102	524288	19	5225
2026-01-25 03:59:12.62	270.62	12.15	-29.5	-32.8	19.0	6.03e-01	0	44	102	524288	19	5303
2026-01-25 03:59:13.63	270.46	12.08	-29.5	-32.9	18.9	5.97e-01	0	44	102	524288	19	5334
2026-01-25 03:59:14.64	270.29	12.01	-29.5	-33.0	18.9	6.02e-01	0	44	102	524288	19	5382
2026-01-25 03:59:15.65	270.13	11.94	-29.5	-32.9	18.9	6.00e-01	0	43	102	524288	19	5352
2026-01-25 03:59:16.65	269.96	11.87	-29.4	-32.7	19.0	6.03e-01	0	43	102	524288	19	5254
2026-01-25 03:59:17.65	269.80	11.80	-29.4	-32.6	19.1	6.01e-01	0	44	102	524288	19	5220
2026-01-25 03:59:18.65	269.64	11.73	-29.4	-32.6	19.1	6.00e-01	0	44	102	524288	19	5215
2026-01-25 03:59:19.65	269.49	11.66	-29.4	-32.7	19.0	5.99e-01	0	43	102	524288	19	5263
2026-01-25 03:59:20.66	269.33	11.59	-29.5	-32.9	18.9	6.00e-01	0	44	102	524288	19	5333
2026-01-25 03:59:21.66	269.17	11.52	-29.5	-32.9	18.9	6.03e-01	0	44	102	524288	19	5324
2026-01-25 03:59:22.66	269.01	11.45	-29.5	-33.1	18.8	6.01e-01	0	44	102	524288	19	5406
2026-01-25 03:59:23.66	268.86	11.38	-29.5	-32.4	18.8	6.01e-01	0	44	102	524288	20	5054
2026-01-25 03:59:24.67	268.70	11.31	-29.4	-32.8	18.9	5.98e-01	0	44	102	524288	19	5303
2026-01-25 03:59:25.67	268.55	11.24	-29.4	-32.8	18.9	6.02e-01	0	44	102	524288	19	5300
2026-01-25 03:59:26.67	268.39	11.18	-29.5	-33.1	18.8	5.98e-01	0	43	102	524288	19	5405
2026-01-25 03:59:27.68	268.24	11.11	-29.5	-33.0	18.8	6.03e-01	0	44	102	524288	19	5373
2026-01-25 03:59:28.68	268.09	11.04	-29.5	-32.9	18.9	6.01e-01	0	44	102	524288	19	5343
2026-01-25 03:59:29.68	267.94	10.97	-29.5	-33.0	18.8	6.01e-01	0	44	102	524288	19	5384
2026-01-25 03:59:30.69	267.78	10.90	-29.5	-33.1	18.7	6.02e-01	0	44	102	524288	19	5426
2026-01-25 03:59:31.69	267.63	10.83	-29.6	-33.2	18.6	6.00e-01	0	44	102	524288	19	5454
2026-01-25 03:59:32.70	267.48	10.76	-29.5	-32.5	18.6	6.00e-01	0	44	102	524288	20	5086
2026-01-25 03:59:33.71	267.33	10.69	-28.3	-31.9	18.6	6.02e-01	0	44	102	524288	19	5437
2026-01-25 03:59:34.71	267.19	10.62	-28.1	-31.9	18.6	5.99e-01	0	44	102	524288	18	5602
2026-01-25 03:59:35.71	267.04	10.55	-29.5	-33.4	17.7	6.00e-01	0	43	102	524288	18	5679
2026-01-25 03:59:36.72	266.89	10.48	-29.6	-33.4	17.9	6.14e-01	0	44	102	524288	19	5571
2026-01-25 03:59:37.72	266.75	10.41	-29.6	-33.0	15.0	6.08e-01	0	43	102	524288	20	5332
2026-01-25 03:59:38.72	266.60	10.34	-29.6	-33.0	17.6	6.06e-01	0	44	102	524288	20	5283
2026-01-25 03:59:39.72	266.46	10.27	-29.7	-33.1	15.2	6.07e-01	0	43	102	524288	20	5351
2026-01-25 03:59:40.73	266.32	10.20	-29.7	-33.1	16.8	6.00e-01	0	44	102	524288	20	5335
2026-01-25 03:59:41.73	266.18	10.14	-29.6	-33.0	17.9	6.02e-01	0	44	102	524288	20	5316
2026-01-25 03:59:42.73	266.03	10.07	-29.6	-33.0	18.2	6.01e-01	0	44	102	524288	20	5287
2026-01-25 03:59:43.73	265.89	10.00	-29.7	-33.1	17.3	6.00e-01	0	44	102	524288	20	5341
2026-01-25 03:59:44.73	265.75	9.93	-29.6	-33.0	18.3	6.02e-01	0	44	102	524288	20	5310
2026-01-25 03:59:45.74	265.61	9.86	-29.6	-32.8	18.4	6.00e-01	0	44	102	524288	20	5213
2026-01-25 03:59:46.74	265.48	9.79	-29.6	-32.9	18.3	6.01e-01	0	44	102	524288	20	5261
2026-01-25 03:59:47.74	265.34	9.72	-29.6	-33.0	18.3	6.01e-01	0	44	102	524288	20	5295
2026-01-25 03:59:48.75	265.20	9.66	-29.6	-33.0	18.3	6.02e-01	0	44	102	524288	20	5304
2026-01-25 03:59:49.76	265.06	9.59	-29.7	-33.3	18.0	6.03e-01	0	43	102	524288	20	5443
2026-01-25 03:59:50.76	264.93	9.52	-29.7	-33.2	18.1	6.00e-01	0	44	102	524288	20	5398
2026-01-25 03:59:51.77	264.79	9.45	-29.7	-33.2	18.1	6.03e-01	0	44	102	524288	20	5410
2026-01-25 03:59:52.77	264.66	9.38	-29.8	-33.6	17.8	6.00e-01	0	44	102	524288	20	5539
2026-01-25 03:59:53.78	264.52	9.31	-29.8	-33.4	17.9	5.99e-01	0	44	102	524288	20	5474
2026-01-25 03:59:54.78	264.39	9.25	-29.7	-33.1	18.1	6.00e-01	0	44	102	524288	20	5368
2026-01-25 03:59:55.79	264.26	9.18	-29.7	-33.2	18.0	6.01e-01	0	44	102	524288	20	5414
2026-01-25 03:59:56.80	264.12	9.11	-29.7	-33.3	17.9	6.01e-01	0	44	102	524288	20	5456
2026-01-25 03:59:57.80	263.99	9.04	-29.6	-33.1	18.1	6.00e-01	0	44	102	524288	20	5356
2026-01-25 03:59:58.81	263.86	8.97	-29.6	-32.9	18.2	6.01e-01	0	44	102	524288	20	5270
2026-01-25 03:59:59.81	263.73	8.90	-29.6	-32.9	18.2	6.01e-01	0	44	102	524288	20	5297
2026-01-25 04:00:00.82	263.60	8.84	-29.6	-32.9	18.2	6.03e-01	0	44	102	524288	20	5283
2026-01-25 04:00:01.82	263.47	8.77	-29.5	-32.9	18.2	6.00e-01	0	44	102	524288	20	5270
2026-01-25 04:00:02.82	263.35	8.70	-29.7	-33.2	17.9	6.01e-01	0	44	102	524288	20	5418
2026-01-25 04:00:03.83	263.22	8.63	-29.7	-33.3	17.8	6.01e-01	0	44	102	524288	20	5438
2026-01-25 04:00:04.83	263.09	8.57	-29.8	-33.5	17.8	6.01e-01	0	44	102	524288	20	5515
2026-01-25 04:00:05.83	262.97	8.50	-29.8	-33.5	17.7	6.04e-01	0	44	102	524288	20	5521
2026-01-25 04:00:06.84	262.84	8.43	-29.8	-33.5	17.8	6.01e-01	0	44	102	524288	20	5553
2026-01-25 04:00:07.84	262.72	8.37	-29.9	-33.9	17.4	6.01e-01	0	43	102	524288	20	5696
2026-01-25 04:00:08.84	262.59	8.30	-29.8	-33.7	17.5	6.03e-01	0	44	102	524288	20	5619
2026-01-25 04:00:09.85	262.47	8.23	-29.8	-33.5	17.7	6.02e-01	0	44	102	524288	20	5530
2026-01-25 04:00:10.86	262.35	8.16	-29.7	-33.5	17.7	6.03e-01	0	44	102	524288	20	5528
2026-01-25 04:00:11.86	262.22	8.10	-29.7	-33.3	17.8	5.99e-01	0	44	102	524288	20	5469
2026-01-25 04:00:12.87	262.10	8.03	-29.9	-33.8	17.6	6.02e-01	0	44	102	524288	20	5663
2026-01-25 04:00:13.88	261.98	7.96	-29.7	-33.4	17.7	6.00e-01	0	44	102	524288	20	5511
2026-01-25 04:00:14.89	261.86	7.90	-29.7	-33.4	17.9	6.03e-01	0	43	102	524288	20	5484
2026-01-25 04:00:15.89	261.74	7.83	-29.7	-33.2	17.9	6.01e-01	0	43	102	524288	20	5434
2026-01-25 04:00:16.90	261.62	7.76	-29.7	-33.4	17.8	6.00e-01	0	43	102	524288	20	5493
2026-01-25 04:00:17.90	261.50	7.70	-29.7	-33.5	17.7	6.03e-01	0	44	102	524288	20	5552
2026-01-25 04:00:18.89	261.39	7.63	-29.8	-33.8	17.5	6.01e-01	0	44	102	524288	20	5660
2026-01-25 04:00:19.90	261.27	7.56	-29.8	-33.6	17.6	6.00e-01	0	44	102	524288	20	5612
2026-01-25 04:00:20.90	261.15	7.50	-29.8	-33.7	17.6	6.00e-01	0	43	102	524288	20	5620
2026-01-25 04:00:21.91	261.03	7.43	-29.8	-33.8	17.5	6.01e-01	0	44	102	524288	20	5696
2026-01-25 04:00:22.92	260.92	7.37	-29.9	-34.1	17.2	6.00e-01	0	44	102	524288	20	5835
2026-01-25 04:00:23.92	260.80	7.30	-29.8	-33.7	17.5	6.04e-01	0	44	102	524288	20	5647
2026-01-25 04:00:24.93	260.69	7.23	-29.8	-33.7	17.5	6.00e-01	0	44	102	524288	20	5642
2026-01-25 04:00:25.92	260.58	7.17	-29.9	-34.0	17.3	6.01e-01	0	44	102	524288	20	5757
2026-01-25 04:00:26.93	260.46	7.10	-29.9	-33.9	17.4	6.02e-01	0	44	102	524288	20	5727
2026-01-25 04:00:27.94	260.35	7.04	-33.0	-50.2	4.0	7.44e-01	0	44	104	524288	26	25849
2026-01-25 04:00:28.94	260.24	6.97	-33.6	-53.1	3.8	7.48e-01	0	44	104	524288	27	34235
2026-01-25 04:00:29.94	260.13	6.91	-33.8	-53.2	3.8	7.46e-01	0	44	104	524288	28	33398
2026-01-25 04:00:30.93	260.02	6.84	-34.1	-53.7	3.8	7.47e-01	0	43	104	524288	28	34514

#Closed at: 2026-01-25 04:00:31
#Recorded file [0 MB]: D:/data/31010_260125_065355.dat