passes_logs/2026/01/25/R2M6_AANII_01/R2M6_AANII_01__20260125_234918_NOAA_20_JPSS-1_rec.log

#Pass ID: 20260125_234918_NOAA 20 (JPSS-1)
#Satellite: NOAA 20 (JPSS-1)
#Configuration: NOAA 20
#almurnet v.1.7.20240730
#Start time: 2026-01-25 23:49:18

#Version: 2.2.20231116
#Station: R2M6_AANII_01
#Location: 30.233357 lon 59.946436 lat
#TLE: 1 43013U 17073A   26025.47986292  .00000161  00000+0  97249-4 0  9993
#TLE: 2 43013  98.7646 326.3091 0001052  24.2709 335.8516 14.19540188424225

#Time	Az	El	Level	Level2	SNR	BER	BlckErr	Temp	State	Recorded	gain1	gain2
2026-01-25 23:49:18.82	21.14	7.04	-31.1	-37.2	5.1	1.26e+00	0	42	0	0	22	7197
2026-01-25 23:49:19.81	21.17	7.11	-31.3	-38.0	5.0	1.29e+00	0	41	104	0	22	7769
2026-01-25 23:49:20.82	21.20	7.19	-31.3	-37.9	7.7	1.02e-01	0	42	0	0	22	7658
2026-01-25 23:49:21.82	21.24	7.27	-31.5	-38.6	7.2	9.95e-02	0	42	102	1048576	22	8165
2026-01-25 23:49:22.82	21.27	7.34	-31.4	-38.0	7.6	1.07e-01	0	42	102	1048576	22	7725
2026-01-25 23:49:23.83	21.30	7.42	-31.2	-37.4	8.1	6.60e-02	0	42	102	1048576	22	7302
2026-01-25 23:49:24.84	21.34	7.50	-31.3	-37.6	7.9	7.57e-02	0	42	102	1048576	22	7429
2026-01-25 23:49:25.84	21.37	7.57	-31.1	-36.8	8.6	4.81e-02	0	42	102	1048576	22	6943
2026-01-25 23:49:26.85	21.41	7.65	-31.2	-37.1	8.4	5.22e-02	0	42	102	1048576	22	7094
2026-01-25 23:49:27.86	21.44	7.73	-31.3	-37.7	8.0	4.74e-02	0	42	102	1048576	22	7484
2026-01-25 23:49:28.86	21.47	7.81	-31.1	-36.8	8.7	3.99e-02	0	42	102	1048576	22	6900
2026-01-25 23:49:29.86	21.51	7.88	-30.9	-36.1	9.2	2.72e-02	0	42	102	1048576	22	6516
2026-01-25 23:49:30.86	21.54	7.96	-30.8	-36.1	9.5	2.11e-02	0	42	102	1048576	21	6649
2026-01-25 23:49:31.87	21.58	8.04	-30.8	-36.0	9.6	1.18e-02	0	42	102	1048576	21	6564
2026-01-25 23:49:32.87	21.61	8.12	-30.9	-36.6	9.1	1.95e-02	0	42	102	1048576	21	6944
2026-01-25 23:49:33.88	21.65	8.20	-30.9	-36.6	9.2	2.67e-02	0	42	102	1048576	21	6919
2026-01-25 23:49:34.87	21.68	8.28	-30.8	-36.1	9.5	2.37e-02	0	42	102	1048576	21	6638
2026-01-25 23:49:35.86	21.72	8.35	-30.8	-36.1	9.6	1.25e-02	0	42	102	1048576	21	6595
2026-01-25 23:49:36.87	21.76	8.43	-30.8	-36.0	9.7	1.81e-02	0	42	102	1048576	21	6565
2026-01-25 23:49:37.87	21.79	8.51	-30.9	-36.5	9.3	1.77e-02	0	42	102	1048576	21	6821
2026-01-25 23:49:38.88	21.83	8.59	-30.8	-35.9	9.7	1.52e-02	0	42	102	1048576	21	6487
2026-01-25 23:49:39.88	21.86	8.67	-30.8	-35.8	9.8	1.15e-02	0	42	102	1048576	21	6469
2026-01-25 23:49:40.88	21.90	8.75	-30.8	-35.9	9.8	1.36e-02	0	42	102	1048576	21	6503
2026-01-25 23:49:41.88	21.94	8.84	-30.9	-36.3	9.5	1.19e-02	0	42	102	1048576	21	6724
2026-01-25 23:49:42.89	21.98	8.92	-30.9	-36.4	9.5	1.84e-02	0	42	102	1048576	21	6752
2026-01-25 23:49:43.89	22.01	9.00	-31.0	-36.6	9.3	2.18e-02	0	42	102	1048576	21	6860
2026-01-25 23:49:44.89	22.05	9.08	-30.9	-36.5	9.4	1.79e-02	0	42	102	1048576	21	6802
2026-01-25 23:49:45.89	22.09	9.16	-31.0	-36.0	9.4	1.86e-02	0	42	102	1048576	22	6442
2026-01-25 23:49:46.89	22.12	9.24	-31.0	-36.3	9.2	1.97e-02	0	42	102	1048576	22	6575
2026-01-25 23:49:47.90	22.16	9.33	-31.1	-36.4	9.1	2.57e-02	0	42	102	1048576	22	6652
2026-01-25 23:49:48.90	22.20	9.41	-31.1	-36.5	9.0	2.25e-02	0	42	102	1048576	22	6690
2026-01-25 23:49:49.91	22.24	9.49	-31.2	-36.8	8.8	2.90e-02	0	42	102	1048576	22	6897
2026-01-25 23:49:50.92	22.28	9.57	-31.1	-36.5	9.1	2.90e-02	0	42	102	1048576	22	6686
2026-01-25 23:49:51.92	22.32	9.66	-31.3	-37.2	8.5	3.73e-02	0	43	102	1048576	22	7112
2026-01-25 23:49:52.93	22.35	9.74	-31.0	-36.3	9.2	2.54e-02	0	43	102	1048576	22	6564
2026-01-25 23:49:53.94	22.39	9.83	-30.9	-35.7	9.7	1.68e-02	0	43	102	1048576	22	6270
2026-01-25 23:49:54.94	22.43	9.91	-30.7	-35.7	10.1	1.18e-02	0	42	102	1048576	21	6346
2026-01-25 23:49:55.94	22.47	9.99	-30.5	-34.9	10.6	4.31e-03	0	42	102	1048576	21	5953
2026-01-25 23:49:56.95	22.51	10.08	-30.5	-35.2	10.8	2.32e-03	0	42	102	1048576	20	6200
2026-01-25 23:49:57.95	22.55	10.16	-30.5	-34.8	10.7	3.25e-03	0	42	102	1048576	21	5927
2026-01-25 23:49:58.96	22.59	10.25	-30.3	-34.7	11.2	1.56e-03	0	43	102	1048576	20	5934
2026-01-25 23:49:59.96	22.63	10.34	-30.4	-35.0	11.0	1.48e-03	0	43	102	1048576	20	6128
2026-01-25 23:50:00.96	22.67	10.42	-30.3	-34.8	11.1	1.95e-03	0	42	102	1048576	20	5989
2026-01-25 23:50:01.97	22.71	10.51	-30.3	-34.7	11.2	1.28e-03	0	43	102	1048576	20	5951
2026-01-25 23:50:02.97	22.75	10.59	-30.6	-35.0	10.7	2.03e-03	0	43	102	1048576	21	5976
2026-01-25 23:50:03.98	22.80	10.68	-30.8	-35.9	9.9	5.67e-03	0	43	102	1048576	21	6465
2026-01-25 23:50:04.98	22.84	10.77	-30.7	-35.5	10.2	8.55e-03	0	42	102	1048576	21	6246
2026-01-25 23:50:05.98	22.88	10.86	-30.8	-35.8	10.0	6.66e-03	0	43	102	1048576	21	6401
2026-01-25 23:50:06.98	22.92	10.94	-30.8	-35.9	10.0	7.17e-03	0	43	102	1048576	21	6472
2026-01-25 23:50:07.98	22.96	11.03	-30.8	-35.6	10.2	7.31e-03	0	43	102	1048576	21	6284
2026-01-25 23:50:08.98	23.00	11.12	-30.8	-35.9	10.0	7.35e-03	0	43	102	1048576	21	6447
2026-01-25 23:50:09.99	23.05	11.21	-30.8	-35.7	10.2	6.16e-03	0	43	102	1048576	21	6325
2026-01-25 23:50:10.99	23.09	11.30	-31.1	-36.3	9.4	1.16e-02	0	43	102	1048576	22	6546
2026-01-25 23:50:12.00	23.13	11.39	-30.9	-35.4	10.0	1.29e-02	0	43	102	1048576	22	6065
2026-01-25 23:50:13.00	23.18	11.48	-30.6	-35.0	10.7	4.09e-03	0	43	102	1048576	21	5977
2026-01-25 23:50:14.01	23.22	11.57	-30.4	-34.3	11.3	1.86e-03	0	43	102	1048576	21	5634
2026-01-25 23:50:15.02	23.26	11.66	-30.2	-33.6	11.8	8.83e-04	0	43	102	1048576	21	5344
2026-01-25 23:50:16.02	23.31	11.75	-30.0	-34.0	12.1	2.49e-04	0	43	102	1048576	19	5704
2026-01-25 23:50:17.02	23.35	11.84	-30.0	-33.9	12.3	1.56e-04	0	43	102	1048576	19	5669
2026-01-25 23:50:18.03	23.39	11.93	-29.9	-33.8	12.4	1.33e-04	0	43	102	1048576	19	5641
2026-01-25 23:50:19.04	23.44	12.02	-30.0	-33.6	12.1	1.30e-03	0	43	102	1048576	20	5447
2026-01-25 23:50:20.04	23.48	12.11	-30.2	-34.3	11.7	4.57e-04	0	43	102	1048576	20	5740
2026-01-25 23:50:21.04	23.53	12.20	-30.0	-33.6	12.1	4.51e-04	0	43	102	1048576	20	5455
2026-01-25 23:50:22.04	23.57	12.30	-29.9	-33.8	12.4	1.98e-04	0	43	102	1048576	19	5615
2026-01-25 23:50:23.05	23.62	12.39	-29.8	-33.3	12.8	1.01e-04	0	43	102	1048576	19	5428
2026-01-25 23:50:24.05	23.67	12.48	-29.9	-33.8	12.5	9.00e-05	0	43	102	1048576	19	5604
2026-01-25 23:50:25.06	23.71	12.58	-29.8	-33.4	12.7	1.18e-04	0	43	102	1048576	19	5460
2026-01-25 23:50:26.06	23.76	12.67	-29.8	-33.5	12.7	7.40e-05	0	43	102	1048576	19	5477
2026-01-25 23:50:27.07	23.81	12.77	-29.8	-33.4	12.7	7.47e-05	0	43	102	1048576	19	5460
2026-01-25 23:50:28.08	23.85	12.86	-29.9	-33.8	12.5	8.23e-05	0	43	102	1048576	19	5597
2026-01-25 23:50:29.08	23.90	12.96	-30.0	-33.7	12.1	1.98e-04	0	43	102	1048576	20	5473
2026-01-25 23:50:30.09	23.95	13.05	-30.2	-34.2	11.8	1.66e-03	0	43	102	1048576	20	5672
2026-01-25 23:50:31.08	24.00	13.15	-30.2	-34.2	11.8	4.61e-04	0	43	102	1048576	20	5673
2026-01-25 23:50:32.09	24.04	13.24	-30.3	-34.3	11.7	5.19e-04	0	43	102	1048576	20	5727
2026-01-25 23:50:33.10	24.09	13.34	-30.2	-34.1	11.9	2.37e-03	0	43	102	1048576	20	5628
2026-01-25 23:50:34.10	24.14	13.44	-30.2	-34.0	11.9	3.46e-04	0	43	102	1048576	20	5606
2026-01-25 23:50:35.11	24.19	13.53	-30.1	-33.9	12.0	3.11e-04	0	43	102	1048576	20	5543
2026-01-25 23:50:36.10	24.24	13.63	-30.1	-33.8	12.1	2.29e-03	0	43	102	1048576	20	5523
2026-01-25 23:50:37.10	24.29	13.73	-30.1	-33.8	12.0	1.92e-03	0	43	102	1048576	20	5533
2026-01-25 23:50:38.11	24.34	13.83	-30.3	-34.5	11.6	5.16e-04	0	43	102	1048576	20	5795
2026-01-25 23:50:39.12	24.39	13.93	-30.1	-33.7	12.2	4.41e-04	0	43	102	1048576	20	5467
2026-01-25 23:50:40.12	24.44	14.02	-29.9	-33.5	12.7	2.21e-03	0	43	102	1048576	19	5493
2026-01-25 23:50:41.12	24.49	14.12	-29.7	-32.9	13.1	2.51e-05	0	43	102	1048576	19	5256
2026-01-25 23:50:42.13	24.54	14.22	-29.5	-32.6	13.3	1.52e-05	0	43	102	1048576	19	5130
2026-01-25 23:50:43.13	24.59	14.32	-29.5	-33.0	13.5	1.98e-03	0	43	102	1048576	18	5369
2026-01-25 23:50:44.14	24.64	14.42	-29.5	-32.4	13.5	1.06e-05	0	43	102	1048576	19	5051
2026-01-25 23:50:45.14	24.70	14.52	-29.4	-32.8	13.6	4.50e-06	0	43	102	1048576	18	5289
2026-01-25 23:50:46.14	24.75	14.63	-29.4	-32.7	13.6	1.52e-03	0	43	102	1048576	18	5271
2026-01-25 23:50:47.15	24.80	14.73	-29.3	-32.6	13.7	1.06e-05	0	43	102	1048576	18	5220
2026-01-25 23:50:48.15	24.85	14.83	-29.3	-32.5	13.7	7.78e-04	0	43	102	1048576	18	5211
2026-01-25 23:50:49.15	24.91	14.93	-29.4	-32.6	13.7	3.80e-06	0	43	102	1048576	18	5230
2026-01-25 23:50:50.16	24.96	15.04	-29.3	-32.5	13.8	3.80e-06	0	43	102	1048576	18	5203
2026-01-25 23:50:51.16	25.01	15.14	-29.4	-32.6	13.7	7.03e-04	0	43	102	1048576	18	5242
2026-01-25 23:50:52.17	25.07	15.24	-29.3	-32.4	13.8	1.70e-04	0	43	102	1048576	18	5161
2026-01-25 23:50:53.18	25.12	15.35	-29.3	-32.4	13.8	3.00e-06	0	43	102	1048576	18	5155
2026-01-25 23:50:54.18	25.18	15.45	-29.2	-32.3	14.0	3.26e-04	0	43	102	1048576	18	5091
2026-01-25 23:50:55.18	25.23	15.56	-29.3	-32.4	13.9	3.78e-04	0	43	102	1048576	18	5153
2026-01-25 23:50:56.19	25.29	15.66	-29.3	-32.4	13.9	3.80e-06	0	43	102	1048576	18	5130
2026-01-25 23:50:57.19	25.35	15.77	-29.2	-32.2	14.0	3.83e-04	0	43	102	1048576	18	5082
2026-01-25 23:50:58.19	25.40	15.88	-29.2	-32.3	14.0	3.64e-04	0	43	102	1048576	18	5094
2026-01-25 23:50:59.19	25.46	15.98	-29.3	-32.4	13.9	4.50e-06	0	43	102	1048576	18	5126
2026-01-25 23:51:00.19	25.52	16.09	-29.2	-32.2	14.0	4.18e-04	0	44	102	1048576	18	5081
2026-01-25 23:51:01.19	25.57	16.20	-29.4	-32.5	13.8	4.04e-04	0	43	102	1048576	18	5195
2026-01-25 23:51:02.19	25.63	16.30	-29.3	-32.4	13.9	3.00e-06	0	43	102	1048576	18	5129
2026-01-25 23:51:03.20	25.69	16.41	-29.2	-32.0	14.1	5.13e-04	0	43	102	1048576	18	5020
2026-01-25 23:51:04.20	25.75	16.52	-29.2	-32.2	14.0	1.09e-03	0	43	102	1048576	18	5086
2026-01-25 23:51:05.21	25.81	16.63	-29.2	-32.1	14.1	7.00e-07	0	43	102	1048576	18	5024
2026-01-25 23:51:06.21	25.87	16.74	-29.3	-32.3	14.0	1.10e-03	0	43	102	1048576	18	5105
2026-01-25 23:51:07.21	25.93	16.85	-29.2	-32.1	14.2	1.40e-03	0	43	102	1048576	18	5033
2026-01-25 23:51:08.21	25.99	16.96	-29.2	-32.1	14.1	7.00e-07	0	43	102	1048576	18	5042
2026-01-25 23:51:09.21	26.05	17.07	-29.2	-32.1	14.1	2.01e-03	0	43	102	1048576	18	5016
2026-01-25 23:51:10.21	26.11	17.19	-29.3	-32.3	14.0	7.83e-04	0	43	102	1048576	18	5097
2026-01-25 23:51:11.21	26.17	17.30	-29.3	-32.4	14.0	3.80e-06	0	43	102	1048576	18	5128
2026-01-25 23:51:12.21	26.23	17.41	-29.2	-32.0	14.2	2.14e-03	0	43	102	1048576	18	4987
2026-01-25 23:51:13.22	26.29	17.53	-29.2	-32.1	14.2	2.24e-03	0	43	102	1048576	18	5016
2026-01-25 23:51:14.22	26.36	17.64	-29.2	-32.1	14.2	1.50e-06	0	43	102	1048576	18	5023
2026-01-25 23:51:15.22	26.42	17.75	-29.3	-32.3	14.1	2.23e-03	0	43	102	1048576	18	5085
2026-01-25 23:51:16.23	26.48	17.87	-29.2	-32.0	14.2	2.23e-03	0	44	102	1048576	18	4986
2026-01-25 23:51:17.23	26.55	17.98	-29.1	-31.8	14.4	1.50e-06	0	43	102	1048576	18	4910
2026-01-25 23:51:18.24	26.61	18.10	-29.0	-31.7	14.5	2.12e-03	0	43	102	1048576	18	4885
2026-01-25 23:51:19.24	26.68	18.22	-29.0	-31.6	14.5	2.09e-03	0	43	102	1048576	18	4862
2026-01-25 23:51:20.24	26.74	18.33	-28.9	-31.3	14.7	0.00e+00	0	43	102	1048576	18	4767
2026-01-25 23:51:21.25	26.81	18.45	-28.9	-31.9	14.6	7.77e-04	0	43	102	1048576	17	5066
2026-01-25 23:51:22.25	26.88	18.57	-28.9	-31.9	14.6	1.58e-03	0	44	102	1048576	17	5061
2026-01-25 23:51:23.26	26.94	18.69	-28.9	-31.8	14.7	0.00e+00	0	44	102	1048576	17	5035
2026-01-25 23:51:24.25	27.01	18.81	-29.0	-32.1	14.5	0.00e+00	0	43	102	1048576	17	5130
2026-01-25 23:51:25.25	27.08	18.93	-28.8	-31.6	14.8	4.90e-04	0	43	102	1048576	17	4953
2026-01-25 23:51:26.26	27.15	19.05	-28.9	-31.8	14.7	7.00e-07	0	43	102	1048576	17	5014
2026-01-25 23:51:27.26	27.22	19.17	-29.0	-31.6	14.5	1.50e-06	0	44	102	1048576	18	4834
2026-01-25 23:51:28.27	27.29	19.29	-28.8	-31.6	14.8	0.00e+00	0	43	102	1048576	17	4958
2026-01-25 23:51:29.27	27.36	19.41	-28.7	-31.4	15.0	0.00e+00	0	43	102	1048576	17	4884
2026-01-25 23:51:30.28	27.43	19.53	-28.7	-31.2	15.1	7.00e-07	0	44	102	1048576	17	4834
2026-01-25 23:51:31.28	27.50	19.66	-28.7	-31.2	15.1	0.00e+00	0	43	102	1048576	17	4828
2026-01-25 23:51:32.28	27.57	19.78	-28.6	-31.0	15.2	0.00e+00	0	43	102	1048576	17	4741
2026-01-25 23:51:33.29	27.64	19.91	-28.5	-30.8	15.3	3.10e-04	0	44	102	1048576	17	4697
2026-01-25 23:51:34.29	27.72	20.03	-28.5	-30.8	15.3	0.00e+00	0	44	102	1048576	17	4692
2026-01-25 23:51:35.30	27.79	20.16	-28.5	-30.9	15.3	0.00e+00	0	44	102	1048576	17	4721
2026-01-25 23:51:36.31	27.86	20.28	-28.6	-31.0	15.3	3.07e-04	0	43	102	1048576	17	4762
2026-01-25 23:51:37.32	27.94	20.41	-28.6	-31.1	15.2	0.00e+00	0	44	102	1048576	17	4793
2026-01-25 23:51:38.33	28.01	20.54	-28.5	-30.8	15.4	0.00e+00	0	44	102	1048576	17	4686
2026-01-25 23:51:39.34	28.09	20.67	-28.4	-30.6	15.5	0.00e+00	0	44	102	1048576	17	4634
2026-01-25 23:51:40.34	28.17	20.80	-28.5	-30.8	15.4	0.00e+00	0	44	102	1048576	17	4687
2026-01-25 23:51:41.35	28.24	20.93	-28.6	-31.1	15.2	0.00e+00	0	44	102	1048576	17	4788
2026-01-25 23:51:42.35	28.32	21.05	-28.7	-31.2	15.1	0.00e+00	0	44	102	1048576	17	4827
2026-01-25 23:51:43.35	28.40	21.18	-28.6	-31.0	15.3	0.00e+00	0	44	102	1048576	17	4745
2026-01-25 23:51:44.36	28.48	21.32	-28.6	-30.9	15.3	0.00e+00	0	43	102	1048576	17	4729
2026-01-25 23:51:45.36	28.56	21.45	-28.6	-31.1	15.2	0.00e+00	0	44	102	1048576	17	4779
2026-01-25 23:51:46.37	28.64	21.58	-28.5	-30.9	15.3	0.00e+00	0	44	102	1048576	17	4702
2026-01-25 23:51:47.37	28.72	21.71	-28.5	-30.9	15.3	0.00e+00	0	44	102	1048576	17	4715
2026-01-25 23:51:48.37	28.80	21.85	-28.5	-30.8	15.4	0.00e+00	0	43	102	1048576	17	4681
2026-01-25 23:51:49.38	28.88	21.98	-28.5	-30.8	15.4	7.00e-07	0	44	102	1048576	17	4696
2026-01-25 23:51:50.39	28.97	22.12	-28.6	-31.0	15.0	0.00e+00	0	44	102	1048576	17	4758
2026-01-25 23:51:51.40	29.05	22.25	-28.5	-31.2	15.0	0.00e+00	0	44	102	1048576	16	4914
2026-01-25 23:51:52.40	29.13	22.39	-28.4	-30.9	15.6	0.00e+00	0	44	102	1048576	16	4838
2026-01-25 23:51:53.40	29.22	22.53	-28.1	-30.8	14.7	0.00e+00	0	44	102	1048576	16	4884
2026-01-25 23:51:54.41	29.30	22.66	-28.3	-30.7	15.2	0.00e+00	0	44	102	1048576	16	4756
2026-01-25 23:51:55.41	29.39	22.80	-28.3	-30.7	15.8	0.00e+00	0	44	102	1048576	16	4765
2026-01-25 23:51:56.42	29.48	22.94	-28.2	-30.5	15.9	0.00e+00	0	44	102	1048576	16	4697
2026-01-25 23:51:57.42	29.57	23.08	-28.2	-30.5	15.9	0.00e+00	0	44	102	1048576	16	4682
2026-01-25 23:51:58.43	29.65	23.22	-28.1	-30.3	16.0	0.00e+00	0	44	102	1048576	16	4636
2026-01-25 23:51:59.44	29.74	23.36	-28.2	-30.5	16.0	0.00e+00	0	44	102	1048576	16	4689
2026-01-25 23:52:00.44	29.83	23.50	-28.2	-30.4	15.9	1.53e-03	0	44	102	1048576	16	4676
2026-01-25 23:52:01.44	29.92	23.65	-28.0	-30.1	16.2	0.00e+00	0	44	102	1048576	16	4569
2026-01-25 23:52:02.44	30.02	23.79	-27.8	-30.0	16.3	0.00e+00	0	44	102	1048576	15	4663
2026-01-25 23:52:03.44	30.11	23.93	-27.8	-30.1	16.3	0.00e+00	0	44	102	1048576	15	4678
2026-01-25 23:52:04.45	30.20	24.08	-27.8	-30.1	16.3	0.00e+00	0	44	102	1048576	15	4684
2026-01-25 23:52:05.45	30.30	24.22	-27.8	-30.2	16.3	0.00e+00	0	44	102	1048576	15	4718
2026-01-25 23:52:06.46	30.39	24.37	-27.8	-30.1	16.3	0.00e+00	0	44	102	1048576	15	4680
2026-01-25 23:52:07.45	30.49	24.51	-28.0	-30.5	16.1	0.00e+00	0	44	102	1048576	15	4827
2026-01-25 23:52:08.45	30.58	24.66	-28.2	-30.5	16.0	0.00e+00	0	44	102	1048576	16	4679
2026-01-25 23:52:09.46	30.68	24.81	-28.1	-30.3	16.1	0.00e+00	0	44	102	1048576	16	4618
2026-01-25 23:52:10.46	30.78	24.96	-28.2	-30.4	16.1	0.00e+00	0	44	102	1048576	16	4659
2026-01-25 23:52:11.47	30.88	25.11	-28.3	-30.8	15.8	2.59e-04	0	44	102	1048576	16	4784
2026-01-25 23:52:12.47	30.98	25.26	-28.3	-30.8	15.8	0.00e+00	0	44	102	1048576	16	4799
2026-01-25 23:52:13.47	31.08	25.41	-28.4	-30.9	15.7	0.00e+00	0	44	102	1048576	16	4835
2026-01-25 23:52:14.48	31.18	25.56	-28.5	-30.7	15.5	2.39e-04	0	44	102	1048576	17	4650
2026-01-25 23:52:15.49	31.28	25.72	-28.4	-30.5	15.7	3.02e-04	0	44	102	1048576	17	4588
2026-01-25 23:52:16.49	31.39	25.87	-28.5	-30.7	15.6	0.00e+00	0	44	102	1048576	17	4629
2026-01-25 23:52:17.49	31.49	26.03	-28.5	-30.7	15.6	4.40e-04	0	44	102	1048576	17	4629
2026-01-25 23:52:18.49	31.60	26.18	-28.5	-30.8	15.5	5.31e-04	0	44	102	1048576	17	4681
2026-01-25 23:52:19.50	31.70	26.34	-28.6	-31.1	15.4	0.00e+00	0	44	102	1048576	17	4756
2026-01-25 23:52:20.50	31.81	26.49	-28.7	-31.2	15.3	3.20e-04	0	44	102	1048576	17	4793
2026-01-25 23:52:21.51	31.92	26.65	-28.7	-31.3	15.2	2.30e-04	0	44	102	1048576	17	4822
2026-01-25 23:52:22.51	32.03	26.81	-28.8	-31.4	15.2	0.00e+00	0	44	102	1048576	17	4875
2026-01-25 23:52:23.51	32.14	26.97	-28.8	-31.4	15.1	0.00e+00	0	44	102	1048576	17	4877
2026-01-25 23:52:24.52	32.25	27.13	-28.7	-31.3	15.2	2.30e-04	0	44	102	1048576	17	4834
2026-01-25 23:52:25.53	32.37	27.29	-28.8	-31.4	15.2	0.00e+00	0	44	102	1048576	17	4879
2026-01-25 23:52:26.53	32.48	27.45	-28.9	-31.7	15.0	3.06e-04	0	44	102	1048576	17	4960
2026-01-25 23:52:27.54	32.60	27.62	-28.9	-31.7	15.0	3.01e-04	0	44	102	1048576	17	4972
2026-01-25 23:52:28.54	32.71	27.78	-29.2	-32.0	14.6	0.00e+00	0	44	102	1048576	18	4949
2026-01-25 23:52:29.54	32.83	27.95	-29.3	-32.1	14.5	2.84e-04	0	44	102	1048576	18	5006
2026-01-25 23:52:30.55	32.95	28.11	-29.4	-32.4	14.3	2.84e-04	0	44	102	1048576	18	5102
2026-01-25 23:52:31.55	33.07	28.28	-29.5	-32.2	14.1	1.50e-06	0	44	102	1048576	19	4930
2026-01-25 23:52:32.55	33.19	28.44	-29.6	-32.4	14.0	2.62e-04	0	44	102	1048576	19	4989
2026-01-25 23:52:33.56	33.32	28.61	-29.7	-32.7	13.8	3.08e-04	0	44	102	1048576	19	5085
2026-01-25 23:52:34.56	33.44	28.78	-29.7	-32.8	13.7	4.50e-06	0	44	102	1048576	19	5125
2026-01-25 23:52:35.57	33.56	28.95	-29.9	-33.2	13.5	2.65e-04	0	44	102	1048576	19	5276
2026-01-25 23:52:36.57	33.69	29.12	-29.9	-32.9	13.3	2.35e-04	0	44	102	1048576	20	5073
2026-01-25 23:52:37.57	33.82	29.29	-30.0	-33.1	13.2	2.51e-05	0	44	102	1048576	20	5138
2026-01-25 23:52:38.57	33.95	29.47	-30.1	-33.4	13.0	2.54e-04	0	44	102	1048576	20	5278
2026-01-25 23:52:39.57	34.08	29.64	-30.2	-33.7	12.8	3.12e-04	0	44	102	1048576	20	5367
2026-01-25 23:52:40.57	34.21	29.81	-30.3	-33.9	12.6	6.79e-05	0	44	102	1048576	20	5470
2026-01-25 23:52:41.57	34.34	29.99	-30.3	-34.0	12.6	1.04e-04	0	44	102	1048576	20	5506
2026-01-25 23:52:42.58	34.47	30.16	-30.4	-34.3	12.4	2.76e-04	0	44	102	1048576	20	5610
2026-01-25 23:52:43.58	34.61	30.34	-30.5	-34.5	12.3	1.55e-04	0	44	102	1048576	20	5706
2026-01-25 23:52:44.58	34.75	30.52	-30.6	-34.3	12.0	2.82e-04	0	44	102	1048576	21	5531
2026-01-25 23:52:45.59	34.89	30.70	-30.6	-34.5	11.9	6.42e-04	0	44	102	1048576	21	5582
2026-01-25 23:52:46.59	35.03	30.88	-30.8	-34.8	11.7	3.97e-04	0	44	102	1048576	21	5732
2026-01-25 23:52:47.60	35.17	31.06	-30.8	-35.0	11.5	8.34e-04	0	44	102	1048576	21	5815
2026-01-25 23:52:48.60	35.31	31.24	-30.9	-35.3	11.3	9.69e-04	0	44	102	1048576	21	5959
2026-01-25 23:52:49.60	35.46	31.42	-31.0	-35.1	11.2	1.21e-03	0	44	102	1048576	22	5776
2026-01-25 23:52:50.61	35.60	31.61	-31.1	-35.2	11.1	1.89e-03	0	44	102	1048576	22	5805
2026-01-25 23:52:51.61	35.75	31.79	-31.0	-35.1	11.2	1.48e-03	0	44	102	1048576	22	5756
2026-01-25 23:52:52.62	35.90	31.98	-31.1	-35.3	11.0	1.70e-03	0	44	102	1048576	22	5862
2026-01-25 23:52:53.62	36.05	32.16	-31.1	-35.3	11.0	2.24e-03	0	44	102	1048576	22	5854
2026-01-25 23:52:54.63	36.21	32.35	-31.1	-35.4	11.0	1.96e-03	0	44	102	1048576	22	5916
2026-01-25 23:52:55.64	36.36	32.54	-31.1	-35.3	11.1	2.13e-03	0	44	102	1048576	22	5832
2026-01-25 23:52:56.64	36.52	32.73	-30.9	-34.8	11.4	1.73e-03	0	44	102	1048576	22	5625
2026-01-25 23:52:57.65	36.68	32.92	-30.8	-34.9	11.7	6.76e-04	0	44	102	1048576	21	5787
2026-01-25 23:52:58.65	36.84	33.11	-30.7	-34.5	12.0	5.07e-04	0	44	102	1048576	21	5608
2026-01-25 23:52:59.66	37.00	33.31	-30.7	-34.4	12.0	3.24e-04	0	44	102	1048576	21	5554
2026-01-25 23:53:00.67	37.17	33.50	-30.6	-34.3	12.1	2.30e-04	0	44	102	1048576	21	5509
2026-01-25 23:53:01.68	37.33	33.70	-30.7	-34.4	12.0	3.12e-04	0	44	102	1048576	21	5562
2026-01-25 23:53:02.68	37.50	33.89	-30.6	-34.4	12.0	4.49e-04	0	44	102	1048576	21	5532
2026-01-25 23:53:03.69	37.67	34.09	-30.6	-34.2	12.1	4.46e-04	0	44	102	1048576	21	5478
2026-01-25 23:53:04.69	37.84	34.29	-30.7	-34.6	11.9	2.79e-04	0	44	102	1048576	21	5624
2026-01-25 23:53:05.70	38.02	34.49	-30.7	-34.6	11.9	4.23e-04	0	44	102	1048576	21	5647
2026-01-25 23:53:06.71	38.20	34.69	-30.7	-34.7	11.9	3.17e-04	0	44	102	1048576	21	5657
2026-01-25 23:53:07.71	38.37	34.89	-30.8	-34.8	11.8	4.16e-04	0	44	102	1048576	21	5728
2026-01-25 23:53:08.71	38.55	35.09	-30.8	-34.8	11.8	5.80e-04	0	44	102	1048576	21	5722
2026-01-25 23:53:09.72	38.74	35.29	-30.5	-33.9	12.4	3.21e-04	0	44	102	1048576	21	5346
2026-01-25 23:53:10.72	38.92	35.49	-30.4	-33.6	12.6	1.27e-04	0	44	102	1048576	21	5222
2026-01-25 23:53:11.72	39.11	35.70	-30.3	-33.5	12.7	8.62e-05	0	44	102	1048576	21	5171
2026-01-25 23:53:12.72	39.30	35.90	-30.2	-33.1	13.0	5.18e-05	0	44	102	1048576	21	5026
2026-01-25 23:53:13.72	39.49	36.11	-30.0	-32.6	13.2	3.50e-05	0	44	102	1048576	21	4865
2026-01-25 23:53:14.72	39.68	36.31	-30.0	-32.6	13.3	1.29e-05	0	44	102	1048576	21	4841
2026-01-25 23:53:15.73	39.88	36.52	-30.1	-32.7	13.2	2.21e-05	0	44	102	1048576	21	4876
2026-01-25 23:53:16.73	40.08	36.73	-30.2	-33.2	13.0	2.74e-05	0	44	102	1048576	21	5055
2026-01-25 23:53:17.73	40.28	36.94	-30.1	-32.9	13.1	3.81e-05	0	44	102	1048576	21	4955
2026-01-25 23:53:18.74	40.48	37.15	-30.0	-32.5	13.4	1.90e-05	0	44	102	1048576	21	4793
2026-01-25 23:53:19.74	40.69	37.37	-29.9	-32.1	13.7	9.10e-06	0	44	102	1048576	21	4675
2026-01-25 23:53:20.75	40.90	37.58	-29.8	-32.5	13.7	9.10e-06	0	44	102	1048576	20	4909
2026-01-25 23:53:21.76	41.11	37.80	-30.0	-33.0	13.4	9.10e-06	0	44	102	1048576	20	5072
2026-01-25 23:53:22.76	41.33	38.01	-30.1	-33.3	13.1	1.98e-05	0	44	102	1048576	20	5214
2026-01-25 23:53:23.77	41.55	38.23	-30.2	-33.6	13.0	2.97e-05	0	44	102	1048576	20	5333
2026-01-25 23:53:24.76	41.76	38.44	-30.3	-33.8	12.9	6.17e-05	0	44	102	1048576	20	5400
2026-01-25 23:53:25.77	41.99	38.66	-30.2	-33.7	13.0	7.09e-05	0	44	102	1048576	20	5338
2026-01-25 23:53:26.78	42.22	38.88	-30.0	-33.1	13.3	2.51e-05	0	44	102	1048576	20	5135
2026-01-25 23:53:27.78	42.44	39.10	-29.9	-32.7	13.6	1.14e-05	0	44	102	1048576	20	4964
2026-01-25 23:53:28.78	42.68	39.32	-29.9	-33.1	13.8	8.30e-06	0	44	102	1048576	19	5216
2026-01-25 23:53:29.78	42.91	39.54	-29.5	-32.3	14.3	3.80e-06	0	44	102	1048576	19	4916
2026-01-25 23:53:30.79	43.15	39.76	-29.5	-32.1	14.4	1.50e-06	0	44	102	1048576	19	4862
2026-01-25 23:53:31.79	43.39	39.99	-29.7	-32.6	14.1	2.20e-06	0	44	102	1048576	19	5037
2026-01-25 23:53:32.80	43.64	40.21	-29.6	-32.3	14.3	1.50e-06	0	44	102	1048576	19	4931
2026-01-25 23:53:33.81	43.89	40.44	-29.4	-31.7	14.6	7.00e-07	0	44	102	1048576	19	4740
2026-01-25 23:53:34.81	44.14	40.66	-29.3	-31.7	14.7	1.52e-05	0	44	102	1048576	19	4715
2026-01-25 23:53:35.81	44.40	40.89	-29.5	-32.1	14.4	1.50e-06	0	44	102	1048576	19	4859
2026-01-25 23:53:36.81	44.65	41.12	-29.6	-32.4	14.2	1.50e-06	0	44	102	1048576	19	4975
2026-01-25 23:53:37.82	44.92	41.35	-29.6	-32.3	14.3	3.00e-06	0	44	102	1048576	19	4947
2026-01-25 23:53:38.82	45.18	41.57	-29.4	-31.9	14.6	7.00e-07	0	44	102	1048576	19	4782
2026-01-25 23:53:39.83	45.46	41.81	-29.4	-31.8	14.6	0.00e+00	0	44	102	1048576	19	4753
2026-01-25 23:53:40.83	45.73	42.04	-29.5	-32.0	14.5	0.00e+00	0	44	102	1048576	19	4838
2026-01-25 23:53:41.84	46.01	42.27	-29.5	-32.2	14.4	7.00e-07	0	44	102	1048576	19	4901
2026-01-25 23:53:42.83	46.29	42.50	-29.5	-32.2	14.4	0.00e+00	0	44	102	1048576	19	4898
2026-01-25 23:53:43.84	46.57	42.73	-29.7	-32.7	14.1	0.00e+00	0	44	102	1048576	19	5081
2026-01-25 23:53:44.84	46.86	42.96	-29.6	-32.5	14.2	3.80e-06	0	44	102	1048576	19	4987
2026-01-25 23:53:45.84	47.16	43.20	-29.6	-32.4	14.3	1.50e-06	0	44	102	1048576	19	4971
2026-01-25 23:53:46.84	47.45	43.43	-29.5	-32.2	14.4	7.00e-07	0	44	102	1048576	19	4874
2026-01-25 23:53:47.85	47.76	43.67	-29.6	-32.5	14.2	7.00e-07	0	44	102	1048576	19	4985
2026-01-25 23:53:48.86	48.07	43.91	-29.7	-32.5	14.2	3.00e-06	0	44	102	1048576	19	4998
2026-01-25 23:53:49.86	48.38	44.14	-29.8	-32.9	14.0	2.20e-06	0	44	102	1048576	19	5146
2026-01-25 23:53:50.87	48.70	44.38	-30.0	-33.3	13.8	6.10e-06	0	44	102	1048576	19	5275
2026-01-25 23:53:51.87	49.02	44.62	-30.0	-33.1	13.5	7.60e-06	0	44	102	1048576	20	5097
2026-01-25 23:53:52.88	49.35	44.86	-30.4	-34.1	12.8	1.42e-04	0	44	102	1048576	20	5502
2026-01-25 23:53:53.88	49.67	45.09	-30.5	-33.7	12.7	7.32e-05	0	44	102	1048576	21	5254
2026-01-25 23:53:54.88	50.01	45.33	-30.5	-33.7	12.7	9.61e-05	0	44	102	1048576	21	5240
2026-01-25 23:53:55.88	50.35	45.57	-30.5	-34.0	12.5	2.12e-04	0	44	102	1048576	21	5349
2026-01-25 23:53:56.88	50.69	45.81	-30.8	-34.6	12.1	3.13e-04	0	44	102	1048576	21	5605
2026-01-25 23:53:57.89	51.05	46.05	-30.6	-34.2	12.4	2.17e-04	0	44	102	1048576	21	5454
2026-01-25 23:53:58.89	51.40	46.29	-30.7	-34.4	12.2	1.95e-04	0	44	102	1048576	21	5526
2026-01-25 23:53:59.89	51.76	46.53	-30.9	-35.2	11.7	3.44e-04	0	44	102	1048576	21	5863
2026-01-25 23:54:00.89	52.13	46.77	-31.2	-35.5	11.2	8.14e-04	0	44	102	1048576	22	5878
2026-01-25 23:54:01.90	52.50	47.01	-31.5	-35.9	10.4	3.57e-03	0	44	102	1048576	23	5998
2026-01-25 23:54:02.90	52.88	47.25	-31.7	-36.6	9.9	9.22e-03	0	44	102	1048576	23	6318
2026-01-25 23:54:03.91	53.27	47.49	-31.9	-37.4	9.4	1.13e-02	0	44	102	1048576	23	6778
2026-01-25 23:54:04.91	53.66	47.73	-31.9	-36.9	9.4	2.04e-02	0	44	102	1048576	24	6409
2026-01-25 23:54:05.91	54.05	47.97	-31.8	-36.6	9.7	1.37e-02	0	44	102	1048576	24	6220
2026-01-25 23:54:06.92	54.46	48.21	-31.9	-36.7	9.5	1.26e-02	0	44	102	1048576	24	6290
2026-01-25 23:54:07.91	54.86	48.45	-32.0	-37.2	9.2	1.68e-02	0	44	102	1048576	24	6546
2026-01-25 23:54:08.91	55.27	48.69	-32.1	-37.6	8.9	2.90e-02	0	44	102	1048576	24	6817
2026-01-25 23:54:09.92	55.70	48.93	-32.3	-38.7	8.1	5.19e-02	0	44	102	1048576	24	7464
2026-01-25 23:54:10.93	56.13	49.17	-32.2	-38.0	8.6	6.44e-02	0	44	102	1048576	24	7027
2026-01-25 23:54:11.93	56.56	49.41	-32.0	-37.1	9.2	2.48e-02	0	44	102	1048576	24	6483
2026-01-25 23:54:12.94	57.01	49.65	-31.8	-36.4	9.8	1.22e-02	0	44	102	1048576	24	6125
2026-01-25 23:54:13.94	57.45	49.88	-31.6	-35.8	10.2	6.75e-03	0	44	102	1048576	24	5845
2026-01-25 23:54:14.94	57.91	50.12	-31.7	-36.8	9.9	6.17e-03	0	44	102	1048576	23	6430
2026-01-25 23:54:15.94	58.37	50.36	-31.5	-35.9	10.5	4.88e-03	0	44	102	1048576	23	5977
2026-01-25 23:54:16.95	58.84	50.59	-31.5	-35.7	10.8	3.50e-03	0	44	102	1048576	23	5892
2026-01-25 23:54:17.95	59.32	50.83	-31.5	-35.9	10.6	3.13e-03	0	44	102	1048576	23	5995
2026-01-25 23:54:18.96	59.80	51.06	-31.3	-35.3	11.0	2.33e-03	0	44	102	1048576	23	5707
2026-01-25 23:54:19.96	60.29	51.30	-31.4	-35.4	11.0	1.89e-03	0	44	102	1048576	23	5731
2026-01-25 23:54:20.97	60.80	51.53	-31.4	-35.6	10.8	2.06e-03	0	44	102	1048576	23	5812
2026-01-25 23:54:21.98	61.31	51.76	-31.5	-35.9	10.6	3.03e-03	0	44	102	1048576	23	5956
2026-01-25 23:54:22.99	61.83	51.99	-31.3	-35.1	11.2	1.77e-03	0	44	102	1048576	23	5590
2026-01-25 23:54:23.99	62.35	52.22	-30.9	-34.0	12.0	6.49e-04	0	44	102	1048576	23	5127
2026-01-25 23:54:25.00	62.88	52.45	-30.7	-33.9	12.4	2.28e-04	0	44	102	1048576	22	5200
2026-01-25 23:54:26.00	63.42	52.67	-30.7	-34.0	12.3	1.59e-04	0	44	102	1048576	22	5212
2026-01-25 23:54:27.01	63.97	52.90	-30.7	-33.8	12.4	1.58e-04	0	44	102	1048576	22	5153
2026-01-25 23:54:28.01	64.53	53.12	-30.5	-33.2	12.8	6.94e-05	0	44	102	1048576	22	4938
2026-01-25 23:54:29.01	65.09	53.34	-30.2	-33.1	13.3	3.35e-05	0	44	102	1048576	21	4989
2026-01-25 23:54:30.01	65.66	53.56	-30.3	-33.4	13.1	2.97e-05	0	44	102	1048576	21	5099
2026-01-25 23:54:31.01	66.24	53.78	-30.3	-33.3	13.1	1.98e-05	0	44	102	1048576	21	5066
2026-01-25 23:54:32.02	66.84	53.99	-30.9	-35.0	12.0	1.99e-04	0	44	102	1048576	21	5762
2026-01-25 23:54:33.03	67.44	54.21	-30.6	-33.9	12.7	1.60e-04	0	44	102	1048576	21	5308
2026-01-25 23:54:34.03	68.05	54.41	-30.1	-32.7	13.6	2.82e-05	0	44	102	1048576	21	4830
2026-01-25 23:54:35.03	68.66	54.62	-29.5	-31.6	14.5	2.16e-04	0	44	102	1048576	20	4579
2026-01-25 23:54:36.04	69.29	54.83	-29.2	-31.2	15.2	0.00e+00	0	44	102	1048576	19	4548
2026-01-25 23:54:37.05	69.93	55.03	-29.1	-30.9	15.4	0.00e+00	0	44	102	1048576	19	4462
2026-01-25 23:54:38.05	70.57	55.23	-29.3	-31.5	15.0	0.00e+00	0	44	102	1048576	19	4628
2026-01-25 23:54:39.06	71.23	55.43	-29.7	-32.5	14.4	7.00e-07	0	44	102	1048576	19	4978
2026-01-25 23:54:40.06	71.89	55.63	-29.9	-33.1	14.1	4.50e-06	0	44	102	1048576	19	5194
2026-01-25 23:54:41.07	72.57	55.82	-29.6	-32.1	14.7	7.00e-07	0	44	102	1048576	19	4839
2026-01-25 23:54:42.07	73.24	56.01	-29.3	-31.5	15.0	0.00e+00	0	44	102	1048576	19	4637
2026-01-25 23:54:43.08	73.94	56.19	-29.4	-31.8	14.8	0.00e+00	0	44	102	1048576	19	4744
2026-01-25 23:54:44.08	74.63	56.37	-29.6	-32.3	14.6	0.00e+00	0	44	102	1048576	19	4885
2026-01-25 23:54:45.09	75.35	56.55	-29.8	-32.9	14.2	7.00e-07	0	44	102	1048576	19	5113
2026-01-25 23:54:46.09	76.06	56.73	-30.0	-32.8	13.9	3.00e-06	0	44	102	1048576	20	4968
2026-01-25 23:54:47.09	76.79	56.90	-29.9	-32.5	14.0	3.80e-06	0	44	102	1048576	20	4878
2026-01-25 23:54:48.09	77.52	57.06	-29.9	-33.0	14.1	6.10e-06	0	44	102	1048576	19	5159
2026-01-25 23:54:49.09	78.26	57.22	-29.8	-32.8	14.2	0.00e+00	0	44	102	1048576	19	5072
2026-01-25 23:54:50.09	79.01	57.38	-29.9	-33.0	14.1	0.00e+00	0	44	102	1048576	19	5156
2026-01-25 23:54:51.10	79.78	57.54	-30.1	-33.2	13.5	6.10e-06	0	44	102	1048576	20	5130
2026-01-25 23:54:52.10	80.54	57.69	-30.0	-32.9	13.7	3.80e-06	0	44	102	1048576	20	5024
2026-01-25 23:54:53.11	81.33	57.83	-30.1	-33.1	13.6	6.10e-06	0	44	102	1048576	20	5105
2026-01-25 23:54:54.11	82.11	57.97	-30.1	-33.1	13.6	6.10e-06	0	44	102	1048576	20	5108
2026-01-25 23:54:55.12	82.91	58.11	-29.9	-32.5	14.1	5.30e-06	0	44	102	1048576	20	4877
2026-01-25 23:54:56.12	83.71	58.24	-29.7	-32.1	14.4	0.00e+00	0	44	102	1048576	20	4720
2026-01-25 23:54:57.12	84.52	58.37	-29.8	-32.3	14.2	0.00e+00	0	44	102	1048576	20	4816
2026-01-25 23:54:58.13	85.34	58.49	-29.8	-32.2	14.2	7.00e-07	0	44	102	1048576	20	4778
2026-01-25 23:54:59.14	86.17	58.61	-29.9	-32.9	14.2	1.50e-06	0	44	102	1048576	19	5131
2026-01-25 23:55:00.14	87.00	58.72	-30.1	-33.0	13.7	1.50e-06	0	44	102	1048576	20	5061
2026-01-25 23:55:01.15	87.84	58.82	-30.5	-33.8	12.9	2.44e-05	0	44	102	1048576	21	5243
2026-01-25 23:55:02.15	88.69	58.92	-30.5	-33.7	13.0	9.20e-04	0	44	102	1048576	21	5184
2026-01-25 23:55:03.16	89.55	59.02	-30.2	-32.9	13.5	1.67e-05	0	44	102	1048576	21	4913
2026-01-25 23:55:04.16	90.40	59.10	-30.4	-34.0	13.2	1.22e-05	0	44	102	1048576	20	5431
2026-01-25 23:55:05.16	91.26	59.19	-31.2	-35.2	11.7	8.46e-05	0	44	102	1048576	22	5698
2026-01-25 23:55:06.17	92.14	59.27	-31.7	-36.4	10.4	3.33e-03	0	44	102	1048576	23	6181
2026-01-25 23:55:07.17	93.01	59.34	-31.6	-36.2	10.5	6.85e-03	0	44	102	1048576	23	6071
2026-01-25 23:55:08.17	93.88	59.40	-31.4	-35.6	11.0	3.12e-03	0	44	102	1048576	23	5793
2026-01-25 23:55:09.18	94.77	59.46	-31.1	-34.6	11.8	5.11e-04	0	44	102	1048576	23	5349
2026-01-25 23:55:10.18	95.65	59.51	-31.3	-35.6	11.4	8.25e-04	0	44	102	1048576	22	5916
2026-01-25 23:55:11.19	96.55	59.56	-31.3	-35.5	11.4	1.42e-03	0	44	102	1048576	22	5866
2026-01-25 23:55:12.20	97.45	59.60	-30.8	-34.0	12.5	2.88e-04	0	44	102	1048576	22	5192
2026-01-25 23:55:13.20	98.34	59.64	-30.0	-32.4	13.9	1.33e-04	0	44	102	1048576	21	4709
2026-01-25 23:55:14.21	99.24	59.67	-29.6	-31.8	14.6	7.00e-07	0	44	102	1048576	20	4622
2026-01-25 23:55:15.21	100.14	59.69	-30.0	-32.7	14.0	2.20e-06	0	44	102	1048576	20	4933
2026-01-25 23:55:16.22	101.05	59.70	-30.0	-32.9	13.9	3.88e-04	0	44	102	1048576	20	5003
2026-01-25 23:55:17.22	101.95	59.71	-29.9	-32.6	14.0	5.94e-04	0	44	102	1048576	20	4904
2026-01-25 23:55:18.22	102.85	59.72	-29.5	-31.6	14.6	7.00e-07	0	44	102	1048576	20	4554
2026-01-25 23:55:19.22	103.74	59.71	-29.2	-31.7	15.3	3.49e-04	0	44	102	1048576	18	4798
2026-01-25 23:55:20.23	104.65	59.70	-29.1	-31.6	15.5	5.26e-04	0	44	102	1048576	18	4754
2026-01-25 23:55:21.23	105.55	59.69	-29.4	-32.1	15.1	0.00e+00	0	44	102	1048576	18	4931
2026-01-25 23:55:22.23	106.45	59.67	-29.4	-31.8	15.0	5.11e-05	0	44	102	1048576	19	4719
2026-01-25 23:55:23.23	107.34	59.64	-29.4	-31.6	15.1	9.68e-05	0	44	102	1048576	19	4675
2026-01-25 23:55:24.24	108.24	59.60	-29.7	-32.3	14.7	0.00e+00	0	44	102	1048576	19	4902
2026-01-25 23:55:25.25	109.14	59.56	-30.2	-33.3	13.7	2.20e-06	0	44	102	1048576	20	5145
2026-01-25 23:55:26.25	110.03	59.51	-30.2	-33.4	13.5	8.08e-05	0	44	102	1048576	20	5206
2026-01-25 23:55:27.25	110.91	59.46	-30.4	-34.0	13.2	1.06e-05	0	44	102	1048576	20	5426
2026-01-25 23:55:28.25	111.79	59.40	-31.0	-34.7	12.1	9.84e-05	0	44	102	1048576	22	5490
2026-01-25 23:55:29.26	112.68	59.33	-31.1	-34.9	11.9	5.08e-04	0	44	102	1048576	22	5583
2026-01-25 23:55:30.26	113.55	59.26	-30.9	-34.4	12.2	2.08e-04	0	44	102	1048576	22	5358
2026-01-25 23:55:31.26	114.41	59.19	-30.9	-34.4	12.3	2.21e-04	0	44	102	1048576	22	5353
2026-01-25 23:55:32.27	115.28	59.10	-31.1	-34.9	11.9	3.35e-04	0	44	102	1048576	22	5574
2026-01-25 23:55:33.27	116.14	59.01	-31.0	-34.6	12.2	1.94e-04	0	44	102	1048576	22	5437
2026-01-25 23:55:34.27	116.99	58.92	-31.6	-36.2	10.7	1.16e-03	0	44	102	1048576	23	6073
2026-01-25 23:55:35.27	117.83	58.82	-32.1	-37.4	9.4	8.63e-03	0	44	102	1048576	24	6611
2026-01-25 23:55:36.28	118.68	58.71	-31.9	-36.8	9.8	1.37e-02	0	44	102	1048576	24	6281
2026-01-25 23:55:37.28	119.51	58.60	-31.9	-36.4	10.0	6.14e-03	0	44	102	1048576	24	6092
2026-01-25 23:55:38.29	120.34	58.49	-32.2	-37.8	9.0	1.43e-02	0	44	102	1048576	24	6849
2026-01-25 23:55:39.29	121.16	58.36	-32.1	-37.3	9.3	2.03e-02	0	44	102	1048576	24	6572
2026-01-25 23:55:40.29	121.96	58.24	-31.5	-35.2	10.9	5.09e-03	0	44	102	1048576	24	5509
2026-01-25 23:55:41.30	122.77	58.11	-31.7	-35.8	10.5	1.86e-03	0	44	102	1048576	24	5776
2026-01-25 23:55:42.31	123.57	57.97	-31.8	-36.4	10.0	4.74e-03	0	44	102	1048576	24	6076
2026-01-25 23:55:43.32	124.37	57.83	-31.4	-34.9	11.1	3.30e-03	0	44	102	1048576	24	5409
2026-01-25 23:55:44.33	125.15	57.68	-30.6	-33.5	12.8	3.16e-04	0	44	102	1048576	22	5029
2026-01-25 23:55:45.32	125.91	57.53	-30.5	-33.1	13.2	2.97e-05	0	44	102	1048576	22	4846
2026-01-25 23:55:46.33	126.68	57.38	-30.5	-33.6	13.0	3.35e-05	0	44	102	1048576	21	5176
2026-01-25 23:55:47.34	127.44	57.22	-30.6	-33.9	13.0	9.89e-04	0	44	102	1048576	21	5277
2026-01-25 23:55:48.34	128.18	57.05	-30.7	-34.1	12.8	5.95e-05	0	44	102	1048576	21	5366
2026-01-25 23:55:49.35	128.92	56.89	-30.4	-33.3	13.2	2.59e-05	0	44	102	1048576	21	5060
2026-01-25 23:55:50.35	129.64	56.71	-30.0	-32.7	14.0	8.54e-05	0	44	102	1048576	20	4933
2026-01-25 23:55:51.36	130.37	56.54	-30.1	-33.1	13.7	7.00e-07	0	44	102	1048576	20	5089
2026-01-25 23:55:52.37	131.08	56.36	-29.8	-32.4	14.1	1.83e-03	0	44	102	1048576	20	4847
2026-01-25 23:55:53.37	131.78	56.18	-29.3	-31.4	15.2	7.00e-07	0	44	102	1048576	19	4596
2026-01-25 23:55:54.37	132.46	55.99	-28.6	-30.2	16.1	0.00e+00	0	44	102	1048576	18	4342
2026-01-25 23:55:55.37	133.14	55.80	-28.3	-30.0	16.6	1.36e-03	0	44	102	1048576	17	4400
2026-01-25 23:55:56.38	133.82	55.61	-28.5	-30.6	16.2	0.00e+00	0	44	102	1048576	17	4585
2026-01-25 23:55:57.39	134.49	55.42	-28.9	-31.4	15.7	0.00e+00	0	44	102	1048576	17	4832
2026-01-25 23:55:58.39	135.14	55.22	-28.6	-30.7	16.2	1.34e-03	0	44	102	1048576	17	4584
2026-01-25 23:55:59.39	135.78	55.02	-27.8	-29.4	17.2	0.00e+00	0	44	102	1048576	16	4309
2026-01-25 23:56:00.39	136.42	54.81	-27.6	-29.0	17.4	0.00e+00	0	44	102	1048576	16	4212
2026-01-25 23:56:01.39	137.04	54.61	-28.5	-31.0	16.3	0.00e+00	0	44	102	1048576	16	4798
2026-01-25 23:56:02.39	137.66	54.40	-29.1	-31.5	15.4	1.01e-03	0	44	102	1048576	18	4749
2026-01-25 23:56:03.40	138.27	54.19	-28.8	-30.7	15.8	0.00e+00	0	44	102	1048576	18	4502
2026-01-25 23:56:04.41	138.87	53.97	-28.2	-29.9	16.6	0.00e+00	0	44	102	1048576	17	4367
2026-01-25 23:56:05.41	139.46	53.76	-28.2	-30.3	16.6	1.31e-03	0	44	102	1048576	16	4601
2026-01-25 23:56:06.41	140.04	53.54	-28.2	-30.3	16.7	0.00e+00	0	44	102	1048576	16	4582
2026-01-25 23:56:07.41	140.62	53.32	-28.0	-29.9	16.8	0.00e+00	0	44	102	1048576	16	4486
2026-01-25 23:56:08.41	141.18	53.10	-27.8	-29.9	16.9	0.00e+00	0	44	102	1048576	15	4609
2026-01-25 23:56:09.42	141.74	52.88	-27.3	-28.9	17.5	0.00e+00	0	44	102	1048576	15	4302
2026-01-25 23:56:10.43	142.29	52.65	-26.9	-28.3	18.2	0.00e+00	0	44	102	1048576	14	4250
2026-01-25 23:56:11.43	142.83	52.43	-27.1	-28.7	17.9	0.00e+00	0	44	102	1048576	14	4367
2026-01-25 23:56:12.44	143.37	52.20	-27.7	-29.8	17.0	0.00e+00	0	44	102	1048576	15	4564
2026-01-25 23:56:13.44	143.89	51.97	-28.4	-30.8	16.4	0.00e+00	0	44	102	1048576	16	4753
2026-01-25 23:56:14.44	144.40	51.74	-28.6	-30.8	16.0	0.00e+00	0	44	102	1048576	17	4628
2026-01-25 23:56:15.44	144.91	51.51	-28.6	-30.8	16.0	0.00e+00	0	44	102	1048576	17	4648
2026-01-25 23:56:16.45	145.41	51.27	-28.4	-30.4	16.3	0.00e+00	0	44	102	1048576	17	4505
2026-01-25 23:56:17.46	145.91	51.04	-28.5	-30.9	16.3	0.00e+00	0	44	102	1048576	16	4793
2026-01-25 23:56:18.47	146.40	50.80	-29.1	-31.5	15.3	0.00e+00	0	44	102	1048576	18	4737
2026-01-25 23:56:19.47	146.87	50.57	-29.8	-32.9	14.2	7.00e-07	0	44	102	1048576	19	5133
2026-01-25 23:56:20.48	147.35	50.33	-30.0	-32.9	13.7	4.50e-06	0	44	102	1048576	20	5028
2026-01-25 23:56:21.49	147.81	50.09	-29.8	-32.3	14.1	3.00e-06	0	44	102	1048576	20	4808
2026-01-25 23:56:22.49	148.27	49.85	-30.2	-33.3	13.5	7.00e-07	0	44	102	1048576	20	5171
2026-01-25 23:56:23.50	148.72	49.61	-31.5	-35.6	11.8	2.36e-04	0	44	102	1048576	22	5796
2026-01-25 23:56:24.50	149.16	49.37	-31.4	-36.2	10.8	2.11e-03	0	44	102	1048576	22	6217
2026-01-25 23:56:25.51	149.60	49.13	-30.9	-34.8	11.7	1.22e-03	0	44	102	1048576	22	5626
2026-01-25 23:56:26.51	150.03	48.89	-30.8	-34.1	12.3	1.72e-04	0	44	102	1048576	22	5285
2026-01-25 23:56:27.51	150.45	48.65	-31.3	-35.6	11.1	4.52e-04	0	44	102	1048576	22	5948
2026-01-25 23:56:28.52	150.86	48.41	-31.7	-36.8	9.9	4.73e-03	0	44	102	1048576	23	6412
2026-01-25 23:56:29.52	151.27	48.17	-32.1	-37.8	8.8	2.25e-02	0	44	102	1048576	24	6893
2026-01-25 23:56:30.52	151.67	47.93	-32.4	-39.1	7.7	6.85e-02	0	44	102	1048576	24	7746
2026-01-25 23:56:31.52	152.07	47.69	-32.6	-39.4	7.1	9.33e-02	0	44	102	1048576	25	7899
2026-01-25 23:56:32.53	152.46	47.44	-32.4	-38.5	7.8	1.38e-01	0	44	102	1048576	25	7277
2026-01-25 23:56:33.53	152.85	47.20	-31.9	-36.4	9.5	2.62e-02	0	44	102	1048576	25	6018
2026-01-25 23:56:34.54	153.23	46.96	-31.6	-35.8	10.3	9.23e-03	0	44	102	1048576	24	5827
2026-01-25 23:56:35.54	153.60	46.72	-31.9	-36.6	9.7	5.82e-03	0	44	102	1048576	24	6238
2026-01-25 23:56:36.54	153.96	46.48	-32.4	-39.1	7.8	6.12e-02	0	44	102	1048576	24	7778
2026-01-25 23:56:37.54	154.33	46.24	-32.7	-40.0	6.7	1.86e-01	0	44	102	1048576	25	8370
2026-01-25 23:56:38.55	154.68	46.00	-32.1	-37.2	8.8	1.25e-01	0	44	102	1048576	25	6448
2026-01-25 23:56:39.55	155.03	45.76	-31.3	-35.0	11.2	9.54e-03	0	44	102	1048576	23	5574
2026-01-25 23:56:40.56	155.38	45.52	-31.1	-34.6	11.6	7.00e-04	0	44	102	1048576	23	5372
2026-01-25 23:56:41.56	155.72	45.28	-31.6	-36.2	10.4	1.66e-03	0	44	102	1048576	23	6133
2026-01-25 23:56:42.57	156.06	45.03	-31.8	-37.1	9.7	9.39e-03	0	44	102	1048576	23	6613
2026-01-25 23:56:43.56	156.39	44.80	-31.4	-35.6	10.7	4.53e-03	0	44	102	1048576	23	5826
2026-01-25 23:56:44.56	156.71	44.56	-31.2	-34.9	11.3	1.25e-03	0	44	102	1048576	23	5510
2026-01-25 23:56:45.56	157.03	44.32	-31.4	-35.4	10.9	1.40e-03	0	44	102	1048576	23	5747
2026-01-25 23:56:46.57	157.35	44.08	-31.5	-35.8	10.6	3.76e-03	0	44	102	1048576	23	5954
2026-01-25 23:56:47.57	157.66	43.85	-31.0	-34.5	11.6	1.50e-03	0	44	102	1048576	23	5359
2026-01-25 23:56:48.57	157.97	43.61	-30.3	-32.9	13.0	2.33e-04	0	44	102	1048576	22	4814
2026-01-25 23:56:49.58	158.27	43.37	-29.8	-32.0	13.9	1.98e-05	0	44	102	1048576	21	4619
2026-01-25 23:56:50.57	158.57	43.14	-29.8	-32.4	14.0	2.20e-06	0	44	102	1048576	20	4847
2026-01-25 23:56:51.58	158.86	42.90	-29.9	-32.6	13.8	1.58e-04	0	44	102	1048576	20	4915
2026-01-25 23:56:52.58	159.15	42.67	-29.7	-32.5	14.3	3.80e-06	0	44	102	1048576	19	4984
2026-01-25 23:56:53.58	159.44	42.44	-29.4	-31.8	14.7	0.00e+00	0	44	102	1048576	19	4746
2026-01-25 23:56:54.57	159.72	42.21	-29.6	-32.2	14.5	4.23e-04	0	44	102	1048576	19	4895
2026-01-25 23:56:55.58	160.00	41.97	-30.0	-32.9	13.7	2.78e-04	0	44	102	1048576	20	5026
2026-01-25 23:56:56.58	160.27	41.74	-30.3	-33.8	13.0	1.37e-05	0	44	102	1048576	20	5413
2026-01-25 23:56:57.58	160.54	41.51	-29.9	-32.7	13.7	9.04e-04	0	44	102	1048576	20	4974
2026-01-25 23:56:58.59	160.81	41.28	-29.2	-31.2	15.1	7.90e-04	0	44	102	1048576	19	4568
2026-01-25 23:56:59.60	161.07	41.05	-28.7	-30.5	15.8	0.00e+00	0	44	102	1048576	18	4447
2026-01-25 23:57:00.59	161.33	40.83	-29.0	-31.8	15.3	8.10e-04	0	44	102	1048576	17	4975
2026-01-25 23:57:01.60	161.59	40.60	-29.6	-32.4	14.3	1.03e-03	0	44	102	1048576	19	4981
2026-01-25 23:57:02.60	161.84	40.37	-30.4	-34.1	12.8	4.50e-06	0	44	102	1048576	20	5535
2026-01-25 23:57:03.61	162.09	40.14	-30.9	-35.1	11.8	4.38e-04	0	44	102	1048576	21	5871
2026-01-25 23:57:04.61	162.33	39.92	-30.5	-33.9	12.6	1.21e-03	0	44	102	1048576	21	5319
2026-01-25 23:57:05.62	162.58	39.69	-29.9	-32.3	13.6	1.90e-05	0	44	102	1048576	21	4724
2026-01-25 23:57:06.62	162.81	39.47	-29.6	-31.9	14.3	7.32e-05	0	44	102	1048576	20	4680
2026-01-25 23:57:07.63	163.05	39.25	-29.9	-33.1	13.9	6.53e-04	0	44	102	1048576	19	5201
2026-01-25 23:57:08.63	163.28	39.03	-29.8	-32.5	13.8	8.30e-06	0	44	102	1048576	20	4904
2026-01-25 23:57:09.64	163.51	38.80	-29.9	-32.8	13.6	4.99e-04	0	44	102	1048576	20	5010
2026-01-25 23:57:10.65	163.74	38.58	-30.6	-34.3	12.4	5.57e-04	0	44	102	1048576	21	5492
2026-01-25 23:57:11.65	163.96	38.36	-31.2	-35.7	11.0	9.08e-04	0	44	102	1048576	22	5995
2026-01-25 23:57:12.66	164.19	38.14	-31.2	-35.7	11.0	4.05e-03	0	44	102	1048576	22	6014
2026-01-25 23:57:13.66	164.40	37.93	-30.9	-34.5	11.8	2.40e-03	0	44	102	1048576	22	5463
2026-01-25 23:57:14.66	164.62	37.71	-30.2	-33.1	13.1	8.69e-05	0	44	102	1048576	21	5000
2026-01-25 23:57:15.66	164.83	37.50	-29.5	-31.5	14.4	7.19e-04	0	44	102	1048576	20	4566
2026-01-25 23:57:16.66	165.04	37.29	-29.2	-31.8	15.0	5.34e-04	0	44	102	1048576	18	4854
2026-01-25 23:57:17.67	165.24	37.07	-29.0	-31.4	15.2	0.00e+00	0	44	102	1048576	18	4738
2026-01-25 23:57:18.67	165.45	36.86	-29.5	-32.5	14.6	5.40e-04	0	44	102	1048576	18	5118
2026-01-25 23:57:19.68	165.65	36.65	-29.9	-33.2	13.9	6.13e-04	0	44	102	1048576	19	5251
2026-01-25 23:57:20.68	165.85	36.44	-30.2	-33.6	13.1	1.37e-05	0	44	102	1048576	20	5315
2026-01-25 23:57:21.69	166.05	36.23	-30.6	-34.2	12.3	7.07e-04	0	44	102	1048576	21	5471
2026-01-25 23:57:22.69	166.24	36.02	-30.8	-35.0	11.8	7.24e-04	0	44	102	1048576	21	5822
2026-01-25 23:57:23.70	166.43	35.81	-30.7	-34.5	12.1	3.66e-04	0	44	102	1048576	21	5596
2026-01-25 23:57:24.71	166.62	35.60	-30.3	-33.3	12.9	8.69e-05	0	44	102	1048576	21	5086
2026-01-25 23:57:25.71	166.81	35.40	-30.2	-33.5	13.1	4.07e-04	0	44	102	1048576	20	5297
2026-01-25 23:57:26.72	167.00	35.19	-30.0	-33.0	13.4	2.51e-05	0	44	102	1048576	20	5112
2026-01-25 23:57:27.72	167.18	34.99	-29.8	-32.4	13.8	6.80e-06	0	44	102	1048576	20	4890
2026-01-25 23:57:28.73	167.36	34.79	-30.0	-33.5	13.5	6.10e-06	0	44	102	1048576	19	5413
2026-01-25 23:57:29.73	167.54	34.59	-30.1	-33.3	13.2	2.05e-05	0	44	102	1048576	20	5219
2026-01-25 23:57:30.73	167.71	34.39	-30.6	-34.5	12.1	1.10e-04	0	44	102	1048576	21	5603
2026-01-25 23:57:31.73	167.88	34.19	-30.8	-35.1	11.6	7.22e-04	0	44	102	1048576	21	5883
2026-01-25 23:57:32.74	168.06	33.99	-31.0	-35.5	11.3	5.90e-04	0	44	102	1048576	21	6053
2026-01-25 23:57:33.74	168.23	33.79	-30.9	-34.8	11.5	1.06e-03	0	44	102	1048576	22	5627
2026-01-25 23:57:34.73	168.39	33.60	-30.7	-34.7	11.9	5.29e-04	0	44	102	1048576	21	5668
2026-01-25 23:57:35.74	168.56	33.40	-30.9	-35.3	11.5	5.60e-04	0	44	102	1048576	21	5955
2026-01-25 23:57:36.75	168.72	33.21	-30.8	-34.9	11.8	2.20e-03	0	44	102	1048576	21	5759
2026-01-25 23:57:37.75	168.89	33.01	-30.7	-34.6	12.0	2.82e-04	0	44	102	1048576	21	5627
2026-01-25 23:57:38.76	169.05	32.82	-30.8	-35.0	11.7	4.20e-04	0	44	102	1048576	21	5799
2026-01-25 23:57:39.77	169.21	32.63	-30.6	-34.4	12.1	1.07e-03	0	44	102	1048576	21	5554
2026-01-25 23:57:40.78	169.36	32.44	-30.6	-34.4	12.1	2.20e-04	0	44	102	1048576	21	5542
2026-01-25 23:57:41.78	169.52	32.25	-30.4	-33.8	12.5	3.52e-04	0	44	102	1048576	21	5290
2026-01-25 23:57:42.78	169.67	32.06	-30.5	-34.0	12.4	1.17e-04	0	44	102	1048576	21	5382
2026-01-25 23:57:43.79	169.82	31.87	-30.6	-34.2	12.2	1.81e-04	0	44	102	1048576	21	5460
2026-01-25 23:57:44.80	169.97	31.68	-30.8	-34.7	11.9	3.48e-04	0	44	102	1048576	21	5695
2026-01-25 23:57:45.80	170.12	31.50	-30.7	-34.6	12.0	5.05e-04	0	44	102	1048576	21	5615
2026-01-25 23:57:46.80	170.27	31.32	-30.6	-34.2	12.3	2.70e-04	0	44	102	1048576	21	5464
2026-01-25 23:57:47.80	170.41	31.13	-30.6	-34.1	12.3	2.03e-04	0	44	102	1048576	21	5435
2026-01-25 23:57:48.80	170.55	30.95	-30.6	-34.3	12.1	2.59e-04	0	44	102	1048576	21	5522
2026-01-25 23:57:49.81	170.70	30.77	-30.7	-34.5	12.0	2.69e-04	0	44	102	1048576	21	5572
2026-01-25 23:57:50.82	170.84	30.59	-30.7	-34.5	12.0	3.23e-04	0	44	102	1048576	21	5594
2026-01-25 23:57:51.82	170.97	30.41	-30.7	-34.5	12.1	2.76e-04	0	44	102	1048576	21	5573
2026-01-25 23:57:52.82	171.11	30.23	-30.7	-34.7	11.9	4.34e-04	0	44	102	1048576	21	5682
2026-01-25 23:57:53.82	171.25	30.05	-30.7	-34.5	12.0	5.45e-04	0	44	102	1048576	21	5609
2026-01-25 23:57:54.82	171.38	29.87	-30.6	-34.2	12.2	3.19e-04	0	44	102	1048576	21	5483
2026-01-25 23:57:55.82	171.51	29.70	-30.7	-34.5	12.0	3.16e-04	0	44	102	1048576	21	5613
2026-01-25 23:57:56.83	171.64	29.52	-30.5	-33.9	12.4	2.31e-04	0	44	102	1048576	21	5344
2026-01-25 23:57:57.83	171.77	29.35	-30.5	-33.9	12.4	2.66e-04	0	44	102	1048576	21	5353
2026-01-25 23:57:58.84	171.90	29.17	-30.4	-34.3	12.5	1.06e-04	0	44	102	1048576	20	5612
2026-01-25 23:57:59.84	172.03	29.00	-30.3	-34.0	12.7	2.50e-04	0	44	102	1048576	20	5498
2026-01-25 23:58:00.84	172.16	28.83	-29.8	-33.4	12.5	2.19e-04	0	44	102	1048576	20	5467
2026-01-25 23:58:01.84	172.28	28.66	-30.3	-34.0	12.6	6.56e-05	0	44	102	1048576	20	5494
2026-01-25 23:58:02.84	172.40	28.49	-30.2	-33.7	12.3	1.39e-04	0	44	102	1048576	20	5389
2026-01-25 23:58:03.84	172.52	28.33	-30.1	-33.5	12.6	1.76e-04	0	44	102	1048576	20	5281
2026-01-25 23:58:04.83	172.64	28.16	-30.2	-33.6	12.9	3.73e-05	0	44	102	1048576	20	5334
2026-01-25 23:58:05.84	172.76	27.99	-30.2	-33.7	12.9	1.60e-04	0	44	102	1048576	20	5358
2026-01-25 23:58:06.84	172.88	27.83	-30.3	-33.9	12.7	1.78e-04	0	44	102	1048576	20	5480
2026-01-25 23:58:07.84	173.00	27.66	-30.3	-33.9	12.7	2.47e-04	0	44	102	1048576	20	5474
2026-01-25 23:58:08.84	173.12	27.50	-30.3	-33.9	12.7	1.69e-04	0	44	102	1048576	20	5443
2026-01-25 23:58:09.84	173.23	27.33	-30.3	-34.1	12.6	2.02e-04	0	44	102	1048576	20	5549
2026-01-25 23:58:10.84	173.34	27.17	-30.3	-33.9	12.6	1.22e-04	0	44	102	1048576	20	5485
2026-01-25 23:58:11.85	173.46	27.01	-30.2	-33.7	12.8	2.46e-04	0	44	102	1048576	20	5375
2026-01-25 23:58:12.85	173.57	26.85	-30.2	-33.6	12.9	2.30e-04	0	44	102	1048576	20	5361
2026-01-25 23:58:13.86	173.68	26.69	-30.1	-33.5	13.0	4.88e-05	0	44	102	1048576	20	5283
2026-01-25 23:58:14.86	173.79	26.53	-30.0	-33.0	13.3	1.69e-04	0	44	102	1048576	20	5114
2026-01-25 23:58:15.87	173.90	26.37	-30.0	-33.0	13.3	1.91e-04	0	44	102	1048576	20	5113
2026-01-25 23:58:16.87	174.01	26.21	-30.1	-33.4	13.0	1.75e-05	0	44	102	1048576	20	5259
2026-01-25 23:58:17.88	174.11	26.05	-29.8	-33.0	13.7	4.77e-04	0	44	102	1048576	19	5195
2026-01-25 23:58:18.88	174.22	25.90	-29.4	-31.9	14.4	5.46e-04	0	44	102	1048576	19	4802
2026-01-25 23:58:19.89	174.32	25.74	-29.1	-31.3	14.8	7.00e-07	0	44	102	1048576	19	4600
2026-01-25 23:58:20.89	174.43	25.59	-29.0	-31.3	15.0	1.69e-04	0	44	102	1048576	18	4729
2026-01-25 23:58:21.90	174.53	25.43	-29.1	-31.6	14.9	6.27e-04	0	44	102	1048576	18	4816
2026-01-25 23:58:22.90	174.63	25.28	-29.2	-32.0	14.6	0.00e+00	0	44	102	1048576	18	4947
2026-01-25 23:58:23.90	174.73	25.13	-29.2	-32.0	14.6	1.85e-04	0	44	102	1048576	18	4950
2026-01-25 23:58:24.90	174.83	24.98	-29.3	-32.3	14.4	4.40e-04	0	44	102	1048576	18	5061
2026-01-25 23:58:25.90	174.93	24.83	-29.4	-32.5	14.2	1.52e-05	0	44	102	1048576	18	5155
2026-01-25 23:58:26.91	175.03	24.68	-29.5	-32.3	14.1	2.21e-04	0	44	102	1048576	19	4957
2026-01-25 23:58:27.91	175.12	24.53	-29.7	-32.7	13.8	2.12e-04	0	44	102	1048576	19	5121
2026-01-25 23:58:28.91	175.22	24.38	-29.6	-32.6	13.9	1.67e-05	0	44	102	1048576	19	5062
2026-01-25 23:58:29.92	175.32	24.23	-29.8	-32.9	13.7	1.46e-04	0	44	102	1048576	19	5189
2026-01-25 23:58:30.92	175.41	24.09	-29.6	-32.4	14.0	3.00e-04	0	44	102	1048576	19	5007
2026-01-25 23:58:31.92	175.50	23.94	-29.4	-31.9	14.3	4.19e-05	0	44	102	1048576	19	4836
2026-01-25 23:58:32.93	175.60	23.80	-29.3	-31.7	14.4	9.84e-05	0	44	102	1048576	19	4742
2026-01-25 23:58:33.93	175.69	23.65	-29.1	-31.8	14.7	2.78e-04	0	44	102	1048576	18	4888
2026-01-25 23:58:34.94	175.78	23.51	-28.9	-31.3	15.0	1.50e-06	0	44	102	1048576	18	4707
2026-01-25 23:58:35.94	175.87	23.37	-28.7	-30.6	15.4	7.70e-05	0	44	102	1048576	18	4499
2026-01-25 23:58:36.95	175.96	23.22	-28.5	-30.7	15.6	6.10e-05	0	44	102	1048576	17	4627
2026-01-25 23:58:37.95	176.05	23.08	-28.6	-30.9	15.5	0.00e+00	0	44	102	1048576	17	4683
2026-01-25 23:58:38.95	176.14	22.94	-28.5	-30.6	15.7	5.49e-05	0	44	102	1048576	17	4592
2026-01-25 23:58:39.96	176.22	22.80	-28.5	-30.7	15.6	6.94e-05	0	44	102	1048576	17	4620
2026-01-25 23:58:40.96	176.31	22.66	-28.3	-30.3	15.9	6.79e-05	0	44	102	1048576	17	4515
2026-01-25 23:58:41.97	176.40	22.52	-28.2	-30.6	16.0	1.05e-04	0	44	102	1048576	16	4699
2026-01-25 23:58:42.98	176.48	22.38	-28.3	-30.7	15.9	1.69e-04	0	44	102	1048576	16	4758
2026-01-25 23:58:43.97	176.57	22.25	-28.2	-30.6	16.0	6.63e-05	0	44	102	1048576	16	4704
2026-01-25 23:58:44.97	176.65	22.11	-28.6	-30.9	15.5	2.04e-04	0	44	102	1048576	17	4721
2026-01-25 23:58:45.98	176.73	21.97	-28.5	-30.7	15.6	1.33e-04	0	44	102	1048576	17	4631
2026-01-25 23:58:46.98	176.81	21.84	-28.4	-30.5	15.8	1.34e-04	0	44	102	1048576	17	4571
2026-01-25 23:58:47.99	176.90	21.70	-28.4	-31.0	15.7	9.99e-05	0	44	102	1048576	16	4867
2026-01-25 23:58:49.00	176.98	21.57	-28.5	-30.8	15.5	1.18e-04	0	44	102	1048576	17	4682
2026-01-25 23:58:50.00	177.06	21.44	-28.9	-31.6	15.1	1.17e-04	0	44	102	1048576	17	4949
2026-01-25 23:58:51.00	177.14	21.30	-28.7	-31.2	15.3	9.61e-05	0	44	102	1048576	17	4808
2026-01-25 23:58:52.00	177.22	21.17	-28.8	-31.5	15.1	2.05e-05	0	44	102	1048576	17	4917
2026-01-25 23:58:53.01	177.29	21.04	-28.9	-31.7	15.0	9.23e-05	0	44	102	1048576	17	4976
2026-01-25 23:58:54.01	177.37	20.91	-28.9	-31.8	14.9	6.56e-05	0	44	102	1048576	17	5030
2026-01-25 23:58:55.01	177.45	20.78	-29.1	-31.7	14.7	4.88e-05	0	44	102	1048576	18	4865
2026-01-25 23:58:56.02	177.53	20.65	-29.3	-32.4	14.2	6.79e-05	0	44	102	1048576	18	5116
2026-01-25 23:58:57.02	177.60	20.52	-29.1	-31.8	14.6	7.32e-05	0	44	102	1048576	18	4906
2026-01-25 23:58:58.03	177.68	20.39	-29.0	-31.6	14.6	5.56e-05	0	44	102	1048576	18	4852
2026-01-25 23:58:59.03	177.75	20.26	-29.0	-31.5	14.8	0.00e+00	0	44	102	1048576	18	4787
2026-01-25 23:59:00.03	177.82	20.14	-29.1	-31.8	14.6	7.24e-05	0	44	102	1048576	18	4905
2026-01-25 23:59:01.02	177.90	20.01	-28.9	-31.3	14.9	2.54e-04	0	44	102	1048576	18	4726
2026-01-25 23:59:02.02	177.97	19.89	-28.8	-31.0	14.8	0.00e+00	0	44	102	1048576	18	4623
2026-01-25 23:59:03.03	178.04	19.76	-28.8	-31.5	15.1	3.29e-04	0	44	102	1048576	17	4911
2026-01-25 23:59:04.03	178.11	19.64	-28.8	-31.5	15.1	3.52e-04	0	44	102	1048576	17	4905
2026-01-25 23:59:05.04	178.19	19.51	-28.9	-31.7	14.9	0.00e+00	0	44	102	1048576	17	5001
2026-01-25 23:59:06.04	178.26	19.39	-28.6	-31.1	15.3	5.30e-06	0	44	102	1048576	17	4779
2026-01-25 23:59:07.05	178.33	19.26	-28.4	-30.7	15.5	7.21e-04	0	44	102	1048576	17	4642
2026-01-25 23:59:08.06	178.40	19.14	-28.3	-30.8	15.8	0.00e+00	0	44	102	1048576	16	4802
2026-01-25 23:59:09.07	178.47	19.02	-28.2	-30.7	15.8	4.06e-04	0	44	102	1048576	16	4756
2026-01-25 23:59:10.07	178.53	18.90	-28.3	-30.9	15.7	0.00e+00	0	44	102	1048576	16	4826
2026-01-25 23:59:11.07	178.60	18.78	-28.4	-31.1	15.6	0.00e+00	0	44	102	1048576	16	4898
2026-01-25 23:59:12.07	178.67	18.66	-28.4	-31.1	15.6	5.59e-04	0	44	102	1048576	16	4894
2026-01-25 23:59:13.08	178.74	18.54	-28.5	-31.2	15.5	0.00e+00	0	44	102	1048576	16	4948
2026-01-25 23:59:14.07	178.80	18.42	-28.5	-30.8	15.4	0.00e+00	0	44	102	1048576	17	4710
2026-01-25 23:59:15.08	178.87	18.30	-28.6	-31.2	15.2	1.70e-03	0	44	102	1048576	17	4816
2026-01-25 23:59:16.08	178.93	18.18	-28.8	-31.5	15.0	7.00e-07	0	44	102	1048576	17	4917
2026-01-25 23:59:17.08	179.00	18.06	-28.7	-31.3	15.1	0.00e+00	0	44	102	1048576	17	4848
2026-01-25 23:59:18.09	179.06	17.95	-28.8	-31.7	14.9	1.72e-03	0	44	102	1048576	17	4982
2026-01-25 23:59:19.09	179.13	17.83	-28.8	-31.7	14.9	0.00e+00	0	44	102	1048576	17	4982
2026-01-25 23:59:20.09	179.19	17.72	-29.0	-32.0	14.6	4.44e-04	0	44	102	1048576	17	5122
2026-01-25 23:59:21.10	179.26	17.60	-28.8	-31.7	14.9	7.60e-06	0	44	102	1048576	17	4986
2026-01-25 23:59:22.10	179.32	17.48	-28.9	-31.8	14.8	1.84e-03	0	44	102	1048576	17	5026
2026-01-25 23:59:23.10	179.38	17.37	-28.9	-31.9	14.7	3.17e-04	0	44	102	1048576	17	5094
2026-01-25 23:59:24.11	179.44	17.26	-29.1	-31.8	14.5	3.20e-04	0	44	102	1048576	18	4925
2026-01-25 23:59:25.11	179.50	17.14	-29.2	-32.2	14.2	1.81e-03	0	44	102	1048576	18	5078
2026-01-25 23:59:26.11	179.56	17.03	-29.1	-32.0	14.4	3.16e-04	0	44	102	1048576	18	4994
2026-01-25 23:59:27.12	179.63	16.92	-29.2	-32.2	14.2	3.20e-04	0	44	102	1048576	18	5053
2026-01-25 23:59:28.12	179.69	16.81	-29.0	-31.7	14.5	1.50e-06	0	44	102	1048576	18	4882
2026-01-25 23:59:29.12	179.75	16.69	-29.0	-31.5	14.6	2.88e-04	0	44	102	1048576	18	4838
2026-01-25 23:59:30.13	179.80	16.58	-29.0	-32.0	14.6	3.37e-04	0	44	102	1048576	17	5100
2026-01-25 23:59:31.13	179.86	16.47	-29.0	-31.7	14.5	0.00e+00	0	44	102	1048576	18	4890
2026-01-25 23:59:32.13	179.92	16.36	-29.2	-32.0	14.3	1.50e-06	0	44	102	1048576	18	4994
2026-01-25 23:59:33.13	179.98	16.25	-29.4	-32.6	13.9	3.03e-04	0	44	102	1048576	18	5205
2026-01-25 23:59:34.13	180.04	16.14	-29.2	-32.1	14.2	1.50e-06	0	44	102	1048576	18	5047
2026-01-25 23:59:35.14	180.09	16.04	-29.1	-31.9	14.4	3.21e-04	0	44	102	1048576	18	4945
2026-01-25 23:59:36.15	180.15	15.93	-29.1	-31.8	14.4	4.09e-04	0	44	102	1048576	18	4939
2026-01-25 23:59:37.15	180.21	15.82	-29.1	-31.9	14.4	0.00e+00	0	44	102	1048576	18	4948
2026-01-25 23:59:38.16	180.27	15.71	-29.1	-31.9	14.3	4.11e-04	0	44	102	1048576	18	4972
2026-01-25 23:59:39.16	180.32	15.60	-29.3	-32.5	14.0	4.50e-06	0	44	102	1048576	18	5184
2026-01-25 23:59:40.16	180.38	15.50	-29.2	-32.1	14.2	0.00e+00	0	44	102	1048576	18	5035
2026-01-25 23:59:41.16	180.43	15.39	-29.2	-32.2	14.1	3.61e-04	0	44	102	1048576	18	5084
2026-01-25 23:59:42.17	180.49	15.29	-29.3	-32.4	14.0	3.91e-04	0	44	102	1048576	18	5137
2026-01-25 23:59:43.17	180.54	15.18	-29.2	-32.2	14.1	2.20e-06	0	44	102	1048576	18	5078
2026-01-25 23:59:44.18	180.59	15.08	-29.4	-32.7	13.9	3.88e-04	0	44	102	1048576	18	5240
2026-01-25 23:59:45.18	180.65	14.97	-29.4	-32.7	13.8	3.52e-04	0	44	102	1048576	18	5253
2026-01-25 23:59:46.18	180.70	14.87	-29.5	-32.8	13.7	6.80e-06	0	44	102	1048576	18	5296
2026-01-25 23:59:47.18	180.75	14.77	-29.5	-32.5	13.6	3.23e-04	0	44	102	1048576	19	5070
2026-01-25 23:59:48.18	180.81	14.66	-29.6	-32.6	13.5	3.77e-04	0	44	102	1048576	19	5126
2026-01-25 23:59:49.18	180.86	14.56	-29.7	-32.9	13.3	1.37e-05	0	44	102	1048576	19	5241
2026-01-25 23:59:50.18	180.91	14.46	-29.6	-32.7	13.4	1.52e-05	0	44	102	1048576	19	5162
2026-01-25 23:59:51.18	180.96	14.36	-29.8	-33.3	13.0	3.24e-04	0	44	102	1048576	19	5387
2026-01-25 23:59:52.19	181.01	14.26	-30.0	-33.7	12.8	5.03e-05	0	44	102	1048576	19	5550
2026-01-25 23:59:53.19	181.06	14.16	-29.9	-33.7	12.8	9.15e-05	0	44	102	1048576	19	5534
2026-01-25 23:59:54.20	181.11	14.05	-30.0	-33.7	12.8	4.07e-04	0	44	102	1048576	19	5545
2026-01-25 23:59:55.21	181.17	13.95	-30.0	-33.4	12.6	7.62e-05	0	44	102	1048576	20	5325
2026-01-25 23:59:56.22	181.22	13.85	-30.1	-33.6	12.4	2.24e-04	0	44	102	1048576	20	5415
2026-01-25 23:59:57.22	181.26	13.75	-30.0	-33.3	12.6	7.93e-05	0	44	102	1048576	20	5287
2026-01-25 23:59:58.23	181.31	13.65	-29.9	-33.2	12.7	9.38e-05	0	44	102	1048576	20	5245
2026-01-25 23:59:59.23	181.36	13.56	-29.9	-33.2	12.7	1.92e-04	0	44	102	1048576	20	5242
2026-01-26 00:00:00.24	181.41	13.46	-30.0	-33.3	12.6	2.22e-04	0	44	102	1048576	20	5292
2026-01-26 00:00:01.24	181.46	13.36	-29.9	-33.1	12.7	8.39e-05	0	44	102	1048576	20	5209
2026-01-26 00:00:02.24	181.51	13.26	-30.0	-33.7	12.7	4.97e-04	0	44	102	1048576	19	5553
2026-01-26 00:00:03.24	181.56	13.17	-30.0	-33.8	12.7	3.11e-04	0	44	102	1048576	19	5590
2026-01-26 00:00:04.25	181.60	13.07	-29.9	-33.2	12.7	7.47e-05	0	44	102	1048576	20	5232
2026-01-26 00:00:05.24	181.65	12.97	-30.0	-33.5	12.4	6.29e-04	0	44	102	1048576	20	5394
2026-01-26 00:00:06.25	181.70	12.88	-30.2	-33.9	12.2	2.80e-04	0	44	102	1048576	20	5554
2026-01-26 00:00:07.25	181.74	12.78	-30.1	-33.7	12.3	2.23e-04	0	44	102	1048576	20	5485
2026-01-26 00:00:08.25	181.79	12.69	-30.2	-33.9	12.1	2.24e-04	0	44	102	1048576	20	5549
2026-01-26 00:00:09.26	181.84	12.59	-30.2	-34.0	12.1	8.38e-04	0	44	102	1048576	20	5589
2026-01-26 00:00:10.27	181.88	12.50	-30.1	-33.9	12.1	2.76e-04	0	44	102	1048576	20	5556
2026-01-26 00:00:11.27	181.93	12.40	-30.3	-34.3	11.8	5.35e-04	0	44	102	1048576	20	5741
2026-01-26 00:00:12.28	181.97	12.31	-30.2	-34.1	12.0	4.49e-04	0	44	102	1048576	20	5613
2026-01-26 00:00:13.28	182.02	12.21	-30.3	-34.3	11.8	5.49e-04	0	44	102	1048576	20	5725
2026-01-26 00:00:14.29	182.06	12.12	-30.2	-33.9	12.1	4.85e-04	0	44	102	1048576	20	5566
2026-01-26 00:00:15.29	182.11	12.03	-30.0	-33.6	12.3	2.84e-04	0	44	102	1048576	20	5413
2026-01-26 00:00:16.30	182.15	11.94	-29.9	-33.3	12.5	1.27e-04	0	44	102	1048576	20	5319
2026-01-26 00:00:17.31	182.20	11.84	-30.0	-33.8	12.6	1.46e-04	0	44	102	1048576	19	5603
2026-01-26 00:00:18.31	182.24	11.75	-29.9	-33.3	12.5	1.91e-04	0	44	102	1048576	20	5296
2026-01-26 00:00:19.31	182.28	11.66	-30.1	-33.7	12.2	1.28e-04	0	44	102	1048576	20	5475
2026-01-26 00:00:20.31	182.33	11.57	-30.2	-34.1	11.9	5.19e-04	0	44	102	1048576	20	5648
2026-01-26 00:00:21.32	182.37	11.48	-30.0	-33.5	12.4	3.24e-04	0	44	102	1048576	20	5368
2026-01-26 00:00:22.31	182.41	11.39	-29.9	-33.1	12.6	1.09e-04	0	44	102	1048576	20	5228
2026-01-26 00:00:23.32	182.46	11.30	-29.9	-33.6	12.7	1.93e-04	0	44	102	1048576	19	5501
2026-01-26 00:00:24.32	182.50	11.21	-29.9	-33.6	12.7	1.17e-04	0	44	102	1048576	19	5525
2026-01-26 00:00:25.33	182.54	11.12	-30.0	-33.5	12.4	1.23e-04	0	44	102	1048576	20	5359
2026-01-26 00:00:26.33	182.58	11.03	-30.0	-33.6	12.0	1.95e-04	0	44	102	1048576	20	5413
2026-01-26 00:00:27.34	182.62	10.94	-29.9	-33.3	12.5	2.38e-04	0	44	102	1048576	20	5303
2026-01-26 00:00:28.35	182.67	10.85	-30.0	-33.5	12.2	1.34e-04	0	44	102	1048576	20	5378
2026-01-26 00:00:29.36	182.71	10.76	-30.1	-33.8	12.1	3.75e-04	0	44	102	1048576	20	5507
2026-01-26 00:00:30.35	182.75	10.67	-29.9	-33.3	12.4	3.46e-04	0	44	102	1048576	20	5306
2026-01-26 00:00:31.36	182.79	10.59	-29.8	-33.4	12.8	9.99e-05	0	44	102	1048576	19	5456
2026-01-26 00:00:32.36	182.83	10.50	-29.8	-33.4	12.8	2.05e-04	0	44	102	1048576	19	5425
2026-01-26 00:00:33.37	182.87	10.41	-29.9	-33.7	12.5	8.23e-05	0	44	102	1048576	19	5581
2026-01-26 00:00:34.37	182.91	10.32	-30.0	-33.8	12.5	1.31e-04	0	44	102	1048576	19	5610
2026-01-26 00:00:35.37	182.95	10.24	-29.8	-33.3	12.8	2.23e-04	0	44	102	1048576	19	5409
2026-01-26 00:00:36.37	182.99	10.15	-29.7	-33.0	13.0	2.23e-04	0	44	102	1048576	19	5290
2026-01-26 00:00:37.38	183.03	10.07	-29.6	-32.8	13.1	3.70e-04	0	44	102	1048576	19	5224
2026-01-26 00:00:38.38	183.07	9.98	-29.5	-32.7	13.2	2.81e-04	0	44	102	1048576	19	5170
2026-01-26 00:00:39.38	183.11	9.90	-29.6	-32.9	13.1	2.98e-04	0	44	102	1048576	19	5252
2026-01-26 00:00:40.39	183.14	9.81	-29.6	-32.8	13.1	4.38e-04	0	44	102	1048576	19	5204
2026-01-26 00:00:41.39	183.18	9.73	-29.5	-32.6	13.2	3.19e-04	0	44	102	1048576	19	5136
2026-01-26 00:00:42.38	183.22	9.64	-29.5	-33.0	13.3	2.94e-04	0	44	102	1048576	18	5391
2026-01-26 00:00:43.39	183.26	9.56	-29.5	-32.5	13.3	4.07e-04	0	44	102	1048576	19	5114
2026-01-26 00:00:44.40	183.30	9.47	-29.5	-32.6	13.2	3.97e-04	0	44	102	1048576	19	5129
2026-01-26 00:00:45.40	183.34	9.39	-29.5	-32.7	13.2	4.49e-04	0	44	102	1048576	19	5179
2026-01-26 00:00:46.41	183.37	9.31	-29.7	-33.0	12.9	3.35e-05	0	44	102	1048576	19	5312
2026-01-26 00:00:47.42	183.41	9.22	-29.6	-32.8	13.1	3.80e-04	0	44	102	1048576	19	5217
2026-01-26 00:00:48.42	183.45	9.14	-29.6	-32.9	13.0	3.20e-05	0	44	102	1048576	19	5268
2026-01-26 00:00:49.43	183.48	9.06	-29.5	-32.6	13.2	2.89e-05	0	44	102	1048576	19	5146
