passes_logs/2026/01/25/R2M6_AANII_01/R2M6_AANII_01__20260125_040542_FENGYUN_3D_rec.log

#Pass ID: 20260125_040542_FENGYUN 3D
#Satellite: FENGYUN 3D
#Configuration: FENGYUN 3D
#almurnet v.1.7.20240730
#Start time: 2026-01-25 04:05:42

#Version: 2.2.20231116
#Station: R2M6_AANII_01
#Location: 30.233357 lon 59.946436 lat
#TLE: 1 43010U 17072A   26024.51794477  .00000040  00000+0  40682-4 0  9990
#TLE: 2 43010  98.9961 356.4820 0002494  91.2631 268.8830 14.19699550424601

#Time	Az	El	Level	Level2	SNR	BER	BlckErr	Temp	State	Recorded	gain1	gain2
2026-01-25 04:05:42.07	11.88	6.99	-31.0	-35.8	4.8	8.10e-01	0	41	0	0	22	6207
2026-01-25 04:05:43.07	11.81	7.06	-30.6	-34.7	5.0	7.98e-01	0	41	104	0	21	5808
2026-01-25 04:05:44.07	11.73	7.12	-30.6	-34.7	7.9	6.73e-02	0	41	0	0	21	5773
2026-01-25 04:05:45.08	11.65	7.19	-30.5	-34.3	8.2	5.30e-02	0	41	102	1048576	21	5566
2026-01-25 04:05:46.09	11.57	7.26	-30.5	-34.3	8.2	4.94e-02	0	42	102	1048576	21	5589
2026-01-25 04:05:47.09	11.49	7.33	-30.6	-34.6	8.0	5.57e-02	0	42	102	1048576	21	5697
2026-01-25 04:05:48.10	11.41	7.40	-30.6	-34.5	8.1	5.17e-02	0	41	102	1048576	21	5646
2026-01-25 04:05:49.11	11.33	7.47	-30.6	-34.6	8.0	5.83e-02	0	42	102	1048576	21	5712
2026-01-25 04:05:50.10	11.24	7.53	-30.2	-33.3	8.9	3.17e-02	0	42	102	1048576	21	5154
2026-01-25 04:05:51.11	11.16	7.60	-29.6	-32.3	10.0	7.23e-03	0	42	102	1048576	20	4889
2026-01-25 04:05:52.12	11.08	7.67	-29.2	-31.7	10.8	2.52e-03	0	42	102	1048576	19	4754
2026-01-25 04:05:53.12	11.00	7.74	-28.7	-30.9	11.6	9.09e-04	0	42	102	1048576	18	4604
2026-01-25 04:05:54.13	10.91	7.81	-28.1	-30.0	12.5	1.14e-04	0	42	102	1048576	17	4456
2026-01-25 04:05:55.14	10.83	7.88	-27.0	-29.1	12.0	3.08e-05	0	42	102	1048576	15	4557
2026-01-25 04:05:56.14	10.75	7.95	-27.3	-29.6	12.0	9.10e-06	0	42	102	1048576	14	4641
2026-01-25 04:05:57.15	10.66	8.02	-27.2	-29.1	13.8	5.70e-06	0	42	102	1048576	14	4504
2026-01-25 04:05:58.15	10.58	8.09	-27.3	-29.5	13.5	6.80e-06	0	42	102	1048576	14	4625
2026-01-25 04:05:59.16	10.49	8.16	-27.3	-29.5	13.6	3.40e-06	0	42	102	1048576	14	4627
2026-01-25 04:06:00.15	10.41	8.23	-27.4	-29.6	13.6	4.50e-06	0	42	102	1048576	14	4640
2026-01-25 04:06:01.16	10.32	8.30	-27.3	-29.4	13.7	2.20e-06	0	42	102	1048576	14	4589
2026-01-25 04:06:02.16	10.24	8.37	-27.3	-29.5	13.6	1.54e-03	0	42	102	1048576	14	4624
2026-01-25 04:06:03.16	10.15	8.44	-27.2	-29.2	13.8	1.10e-06	0	42	102	1048576	14	4521
2026-01-25 04:06:04.17	10.06	8.51	-27.3	-29.4	13.7	3.40e-06	0	42	102	1048576	14	4581
2026-01-25 04:06:05.17	9.98	8.58	-27.2	-29.2	13.8	4.50e-06	0	42	102	1048576	14	4541
2026-01-25 04:06:06.18	9.89	8.65	-27.4	-29.6	13.6	6.80e-06	0	42	102	1048576	14	4661
2026-01-25 04:06:07.19	9.80	8.72	-27.1	-29.0	14.0	1.42e-03	0	42	102	1048576	14	4475
2026-01-25 04:06:08.18	9.71	8.79	-26.9	-29.1	14.2	2.20e-06	0	42	102	1048576	13	4606
2026-01-25 04:06:09.19	9.62	8.86	-26.9	-28.9	14.3	1.25e-05	0	42	102	1048576	13	4557
2026-01-25 04:06:10.19	9.53	8.93	-26.9	-29.0	14.2	0.00e+00	0	42	102	1048576	13	4582
2026-01-25 04:06:11.20	9.44	9.00	-26.9	-28.9	14.3	1.39e-03	0	42	102	1048576	13	4551
2026-01-25 04:06:12.20	9.35	9.07	-26.8	-28.9	14.3	5.70e-06	0	42	102	1048576	13	4541
2026-01-25 04:06:13.20	9.26	9.15	-26.8	-28.9	14.3	0.00e+00	0	42	102	1048576	13	4538
2026-01-25 04:06:14.21	9.17	9.22	-26.8	-28.7	14.4	1.37e-03	0	42	102	1048576	13	4490
2026-01-25 04:06:15.22	9.07	9.29	-26.6	-28.4	14.6	1.10e-06	0	43	102	1048576	13	4406
2026-01-25 04:06:16.22	8.98	9.36	-26.6	-28.3	14.7	1.32e-03	0	42	102	1048576	13	4384
2026-01-25 04:06:17.22	8.89	9.43	-26.7	-28.5	14.5	5.84e-04	0	42	102	1048576	13	4447
2026-01-25 04:06:18.23	8.80	9.51	-26.5	-28.0	14.9	5.83e-05	0	42	102	1048576	13	4306
2026-01-25 04:06:19.23	8.70	9.58	-26.5	-28.1	14.8	1.32e-03	0	43	102	1048576	13	4313
2026-01-25 04:06:20.24	8.61	9.65	-26.5	-28.1	14.8	1.41e-03	0	42	102	1048576	13	4307
2026-01-25 04:06:21.24	8.51	9.72	-26.6	-28.3	14.7	6.06e-05	0	42	102	1048576	13	4371
2026-01-25 04:06:22.25	8.42	9.80	-26.5	-28.5	14.9	1.45e-03	0	42	102	1048576	12	4539
2026-01-25 04:06:23.25	8.32	9.87	-26.4	-28.4	14.9	1.41e-03	0	42	102	1048576	12	4518
2026-01-25 04:06:24.26	8.22	9.94	-26.4	-28.4	15.0	7.66e-05	0	42	102	1048576	12	4517
2026-01-25 04:06:25.26	8.13	10.02	-26.5	-28.1	14.9	1.47e-03	0	43	102	1048576	13	4318
2026-01-25 04:06:26.27	8.03	10.09	-26.3	-27.6	15.1	1.38e-03	0	43	102	1048576	13	4190
2026-01-25 04:06:27.27	7.93	10.16	-26.3	-28.1	15.2	8.58e-05	0	42	102	1048576	12	4416
2026-01-25 04:06:28.28	7.83	10.24	-26.3	-28.1	15.1	1.22e-03	0	43	102	1048576	12	4442
2026-01-25 04:06:29.29	7.73	10.31	-26.3	-28.0	15.2	0.00e+00	0	43	102	1048576	12	4404
2026-01-25 04:06:30.30	7.63	10.38	-26.4	-28.2	15.1	6.63e-05	0	43	102	1048576	12	4472
2026-01-25 04:06:31.30	7.53	10.46	-26.4	-28.3	15.0	0.00e+00	0	43	102	1048576	12	4490
2026-01-25 04:06:32.30	7.43	10.53	-26.3	-28.0	15.2	1.32e-03	0	43	102	1048576	12	4409
2026-01-25 04:06:33.31	7.33	10.61	-26.3	-28.1	15.2	5.70e-06	0	43	102	1048576	12	4429
2026-01-25 04:06:34.31	7.23	10.68	-26.4	-28.3	15.1	0.00e+00	0	43	102	1048576	12	4472
2026-01-25 04:06:35.32	7.13	10.76	-26.2	-28.0	15.3	1.25e-03	0	43	102	1048576	12	4391
2026-01-25 04:06:36.32	7.02	10.83	-26.2	-27.8	15.4	0.00e+00	0	43	102	1048576	12	4339
2026-01-25 04:06:37.33	6.92	10.91	-26.3	-28.1	15.2	1.20e-03	0	43	102	1048576	12	4420
2026-01-25 04:06:38.34	6.82	10.98	-26.2	-28.0	15.3	0.00e+00	0	43	102	1048576	12	4396
2026-01-25 04:06:39.34	6.71	11.06	-26.1	-27.7	15.5	0.00e+00	0	43	102	1048576	12	4314
2026-01-25 04:06:40.35	6.61	11.13	-26.1	-27.7	15.4	0.00e+00	0	43	102	1048576	12	4321
2026-01-25 04:06:41.36	6.50	11.21	-26.1	-27.7	15.4	0.00e+00	0	43	102	1048576	12	4319
2026-01-25 04:06:42.36	6.39	11.28	-26.2	-27.8	15.4	0.00e+00	0	43	102	1048576	12	4340
2026-01-25 04:06:43.37	6.29	11.36	-26.1	-27.5	15.5	0.00e+00	0	43	102	1048576	12	4277
2026-01-25 04:06:44.38	6.18	11.43	-26.1	-27.6	15.6	0.00e+00	0	43	102	1048576	12	4277
2026-01-25 04:06:45.38	6.07	11.51	-26.0	-27.5	15.6	0.00e+00	0	43	102	1048576	12	4259
2026-01-25 04:06:46.38	5.96	11.58	-25.9	-27.2	15.8	0.00e+00	0	43	102	1048576	12	4175
2026-01-25 04:06:47.39	5.85	11.66	-26.0	-27.8	15.7	0.00e+00	0	43	102	1048576	11	4465
2026-01-25 04:06:48.39	5.74	11.74	-25.9	-27.3	15.7	0.00e+00	0	43	102	1048576	12	4197
2026-01-25 04:06:49.40	5.63	11.81	-25.9	-27.3	15.7	0.00e+00	0	43	102	1048576	12	4203
2026-01-25 04:06:50.40	5.52	11.89	-26.0	-27.9	15.7	0.00e+00	0	43	102	1048576	11	4475
2026-01-25 04:06:51.41	5.41	11.97	-26.1	-27.6	15.6	0.00e+00	0	43	102	1048576	12	4286
2026-01-25 04:06:52.41	5.30	12.04	-26.1	-27.6	15.6	0.00e+00	0	43	102	1048576	12	4283
2026-01-25 04:06:53.42	5.19	12.12	-26.0	-27.4	15.7	0.00e+00	0	43	102	1048576	12	4221
2026-01-25 04:06:54.43	5.07	12.20	-26.1	-27.6	15.6	0.00e+00	0	43	102	1048576	12	4281
2026-01-25 04:06:55.43	4.96	12.28	-26.0	-27.5	15.6	0.00e+00	0	43	102	1048576	12	4263
2026-01-25 04:06:56.44	4.84	12.35	-26.1	-27.5	15.6	0.00e+00	0	43	102	1048576	12	4268
2026-01-25 04:06:57.44	4.73	12.43	-26.1	-27.7	15.6	0.00e+00	0	43	102	1048576	12	4303
2026-01-25 04:06:58.45	4.61	12.51	-26.1	-27.6	15.6	0.00e+00	0	43	102	1048576	12	4285
2026-01-25 04:06:59.46	4.50	12.59	-26.0	-27.4	15.7	0.00e+00	0	43	102	1048576	12	4220
2026-01-25 04:07:00.46	4.38	12.66	-25.9	-27.1	15.9	0.00e+00	0	43	102	1048576	12	4157
2026-01-25 04:07:01.47	4.26	12.74	-26.0	-27.8	15.8	0.00e+00	0	43	102	1048576	11	4453
2026-01-25 04:07:02.48	4.14	12.82	-25.9	-27.7	15.9	0.00e+00	0	43	102	1048576	11	4428
2026-01-25 04:07:03.49	4.02	12.90	-26.0	-27.8	15.8	0.00e+00	0	43	102	1048576	11	4451
2026-01-25 04:07:04.49	3.90	12.98	-26.0	-27.5	15.7	0.00e+00	0	43	102	1048576	12	4254
2026-01-25 04:07:05.50	3.78	13.06	-26.0	-27.5	15.7	0.00e+00	0	43	102	1048576	12	4266
2026-01-25 04:07:06.50	3.66	13.13	-26.0	-27.3	15.8	0.00e+00	0	43	102	1048576	12	4207
2026-01-25 04:07:07.51	3.54	13.21	-26.0	-27.5	15.7	0.00e+00	0	43	102	1048576	12	4249
2026-01-25 04:07:08.51	3.42	13.29	-26.1	-27.6	15.7	0.00e+00	0	43	102	1048576	12	4284
2026-01-25 04:07:09.52	3.30	13.37	-25.9	-27.2	15.9	0.00e+00	0	43	102	1048576	12	4170
2026-01-25 04:07:10.52	3.17	13.45	-25.9	-27.8	15.9	0.00e+00	0	43	102	1048576	11	4439
2026-01-25 04:07:11.53	3.05	13.53	-25.9	-27.7	15.9	0.00e+00	0	43	102	1048576	11	4409
2026-01-25 04:07:12.54	2.92	13.61	-25.8	-27.5	16.0	0.00e+00	0	43	102	1048576	11	4356
2026-01-25 04:07:13.54	2.80	13.69	-25.7	-27.3	16.2	0.00e+00	0	43	102	1048576	11	4300
2026-01-25 04:07:14.55	2.67	13.77	-25.6	-27.0	16.3	0.00e+00	0	43	102	1048576	11	4236
2026-01-25 04:07:15.55	2.54	13.85	-25.7	-27.2	16.2	0.00e+00	0	43	102	1048576	11	4275
2026-01-25 04:07:16.56	2.42	13.93	-25.6	-27.1	16.3	0.00e+00	0	43	102	1048576	11	4249
2026-01-25 04:07:17.56	2.29	14.01	-25.6	-26.9	16.4	0.00e+00	0	43	102	1048576	11	4213
2026-01-25 04:07:18.57	2.16	14.09	-25.6	-26.9	16.4	0.00e+00	0	43	102	1048576	11	4207
2026-01-25 04:07:19.57	2.03	14.17	-25.6	-26.9	16.3	0.00e+00	0	43	102	1048576	11	4215
2026-01-25 04:07:20.58	1.90	14.25	-25.5	-26.9	16.4	0.00e+00	0	43	102	1048576	11	4202
2026-01-25 04:07:21.58	1.77	14.33	-25.5	-26.8	16.5	0.00e+00	0	43	102	1048576	11	4174
2026-01-25 04:07:22.59	1.63	14.41	-25.5	-26.8	16.5	0.00e+00	0	43	102	1048576	11	4170
2026-01-25 04:07:23.60	1.50	14.49	-25.5	-26.7	16.5	0.00e+00	0	43	102	1048576	11	4157
2026-01-25 04:07:24.60	1.37	14.57	-25.5	-26.7	16.5	1.34e-03	0	43	102	1048576	11	4161
2026-01-25 04:07:25.60	1.23	14.65	-25.4	-26.6	16.5	0.00e+00	0	43	102	1048576	11	4137
2026-01-25 04:07:26.60	1.10	14.73	-25.5	-26.7	16.5	0.00e+00	0	43	102	1048576	11	4156
2026-01-25 04:07:27.60	0.96	14.81	-25.6	-26.9	16.4	0.00e+00	0	43	102	1048576	11	4207
2026-01-25 04:07:28.60	0.83	14.89	-25.5	-26.8	16.5	0.00e+00	0	43	102	1048576	11	4167
2026-01-25 04:07:29.60	0.69	14.98	-25.3	-26.4	16.7	0.00e+00	0	43	102	1048576	11	4065
2026-01-25 04:07:30.61	0.55	15.06	-25.2	-26.1	16.9	0.00e+00	0	43	102	1048576	11	4003
2026-01-25 04:07:31.61	0.41	15.14	-25.2	-26.6	16.9	1.31e-03	0	43	102	1048576	10	4236
2026-01-25 04:07:32.61	0.28	15.22	-25.1	-26.5	16.9	0.00e+00	0	43	102	1048576	10	4205
2026-01-25 04:07:33.61	0.14	15.30	-25.1	-26.5	16.9	0.00e+00	0	43	102	1048576	10	4211
2026-01-25 04:07:34.62	359.99	15.38	-25.1	-26.5	16.9	1.25e-03	0	43	102	1048576	10	4212
2026-01-25 04:07:35.62	359.85	15.46	-25.1	-26.5	17.0	0.00e+00	0	43	102	1048576	10	4205
2026-01-25 04:07:36.63	359.71	15.55	-25.1	-26.4	17.0	1.31e-03	0	43	102	1048576	10	4192
2026-01-25 04:07:37.64	359.56	15.63	-25.1	-26.5	16.9	0.00e+00	0	43	102	1048576	10	4210
2026-01-25 04:07:38.65	359.42	15.71	-25.1	-26.4	17.0	3.08e-05	0	43	102	1048576	10	4194
2026-01-25 04:07:39.65	359.27	15.79	-25.1	-26.4	17.0	7.48e-04	0	43	102	1048576	10	4188
2026-01-25 04:07:40.66	359.13	15.88	-25.1	-26.5	17.0	1.30e-03	0	43	102	1048576	10	4201
2026-01-25 04:07:41.66	358.98	15.96	-25.1	-26.4	17.0	1.71e-05	0	43	102	1048576	10	4187
2026-01-25 04:07:42.66	358.83	16.04	-24.9	-26.0	17.2	1.24e-03	0	43	102	1048576	10	4093
2026-01-25 04:07:43.66	358.69	16.12	-24.9	-26.1	17.2	1.13e-03	0	43	102	1048576	10	4103
2026-01-25 04:07:44.67	358.54	16.21	-25.0	-26.1	17.2	0.00e+00	0	43	102	1048576	10	4108
2026-01-25 04:07:45.68	358.39	16.29	-25.0	-26.2	17.1	1.15e-03	0	43	102	1048576	10	4135
2026-01-25 04:07:46.68	358.23	16.37	-25.0	-26.2	17.1	1.17e-03	0	43	102	1048576	10	4137
2026-01-25 04:07:47.69	358.08	16.46	-25.0	-26.2	17.1	4.23e-05	0	43	102	1048576	10	4133
2026-01-25 04:07:48.69	357.93	16.54	-25.1	-26.3	17.1	1.08e-03	0	43	102	1048576	10	4158
2026-01-25 04:07:49.70	357.78	16.62	-25.0	-26.2	17.2	1.25e-03	0	43	102	1048576	10	4128
2026-01-25 04:07:50.71	357.62	16.70	-24.9	-26.0	17.3	6.06e-05	0	43	102	1048576	10	4073
2026-01-25 04:07:51.71	357.47	16.79	-24.8	-25.9	17.3	0.00e+00	0	44	102	1048576	10	4044
2026-01-25 04:07:52.72	357.31	16.87	-25.0	-26.6	17.2	1.15e-03	0	43	102	1048576	9	4355
2026-01-25 04:07:53.72	357.15	16.95	-24.9	-26.0	17.3	0.00e+00	0	43	102	1048576	10	4074
2026-01-25 04:07:54.72	356.99	17.04	-24.9	-26.0	17.3	1.11e-03	0	43	102	1048576	10	4070
2026-01-25 04:07:55.72	356.84	17.12	-24.9	-25.9	17.3	0.00e+00	0	44	102	1048576	10	4065
2026-01-25 04:07:56.73	356.68	17.20	-24.9	-26.0	17.3	0.00e+00	0	43	102	1048576	10	4090
2026-01-25 04:07:57.73	356.52	17.29	-24.9	-26.0	17.3	9.55e-04	0	43	102	1048576	10	4077
2026-01-25 04:07:58.74	356.35	17.37	-24.9	-26.1	17.3	0.00e+00	0	44	102	1048576	10	4089
2026-01-25 04:07:59.74	356.19	17.45	-24.9	-26.0	17.3	2.40e-05	0	44	102	1048576	10	4091
2026-01-25 04:08:00.74	356.03	17.54	-24.9	-25.9	17.3	0.00e+00	0	43	102	1048576	10	4059
2026-01-25 04:08:01.74	355.86	17.62	-24.8	-25.7	17.4	8.42e-04	0	43	102	1048576	10	4013
2026-01-25 04:08:02.75	355.70	17.71	-24.8	-25.7	17.4	0.00e+00	0	44	102	1048576	10	4014
2026-01-25 04:08:03.75	355.53	17.79	-24.7	-26.0	17.6	0.00e+00	0	44	102	1048576	9	4181
2026-01-25 04:08:04.76	355.36	17.87	-24.7	-25.9	17.6	7.63e-04	0	43	102	1048576	9	4174
2026-01-25 04:08:05.76	355.20	17.96	-24.5	-25.6	17.8	0.00e+00	0	44	102	1048576	9	4095
2026-01-25 04:08:06.77	355.03	18.04	-24.5	-25.5	17.8	7.62e-04	0	44	102	1048576	9	4070
2026-01-25 04:08:07.77	354.86	18.12	-24.6	-25.8	17.7	0.00e+00	0	44	102	1048576	9	4149
2026-01-25 04:08:08.77	354.69	18.21	-24.5	-25.7	17.7	0.00e+00	0	44	102	1048576	9	4110
2026-01-25 04:08:09.78	354.51	18.29	-24.4	-25.5	17.9	0.00e+00	0	43	102	1048576	9	4055
2026-01-25 04:08:10.78	354.34	18.38	-24.5	-25.6	17.8	0.00e+00	0	43	102	1048576	9	4081
2026-01-25 04:08:11.79	354.17	18.46	-24.5	-25.6	17.7	0.00e+00	0	43	102	1048576	9	4101
2026-01-25 04:08:12.80	353.99	18.54	-24.6	-25.8	17.7	0.00e+00	0	43	102	1048576	9	4142
2026-01-25 04:08:13.80	353.82	18.63	-24.6	-25.8	17.7	0.00e+00	0	43	102	1048576	9	4149
2026-01-25 04:08:14.81	353.64	18.71	-24.6	-25.7	17.7	0.00e+00	0	44	102	1048576	9	4127
2026-01-25 04:08:15.81	353.46	18.80	-24.5	-25.7	17.8	0.00e+00	0	43	102	1048576	9	4101
2026-01-25 04:08:16.81	353.28	18.88	-24.4	-25.4	17.9	0.00e+00	0	44	102	1048576	9	4044
2026-01-25 04:08:17.81	353.10	18.96	-24.4	-25.4	17.9	0.00e+00	0	43	102	1048576	9	4039
2026-01-25 04:08:18.81	352.92	19.05	-24.3	-25.1	18.0	0.00e+00	0	44	102	1048576	9	3971
2026-01-25 04:08:19.82	352.74	19.13	-24.3	-25.7	18.0	0.00e+00	0	44	102	1048576	8	4216
2026-01-25 04:08:20.83	352.56	19.22	-24.2	-25.4	18.2	0.00e+00	0	43	102	1048576	8	4144
2026-01-25 04:08:21.83	352.37	19.30	-24.1	-25.2	18.3	0.00e+00	0	43	102	1048576	8	4086
2026-01-25 04:08:22.82	352.19	19.38	-24.2	-25.5	18.1	0.00e+00	0	44	102	1048576	8	4182
2026-01-25 04:08:23.83	352.00	19.47	-24.2	-25.5	18.1	0.00e+00	0	43	102	1048576	8	4174
2026-01-25 04:08:24.83	351.82	19.55	-24.3	-25.8	18.0	0.00e+00	0	43	102	1048576	8	4244
2026-01-25 04:08:25.83	351.63	19.63	-24.5	-26.0	17.8	0.00e+00	0	44	102	1048576	8	4316
2026-01-25 04:08:26.82	351.44	19.72	-24.5	-25.5	17.8	0.00e+00	0	44	102	1048576	9	4071
2026-01-25 04:08:27.83	351.25	19.80	-24.4	-25.5	17.9	0.00e+00	0	44	102	1048576	9	4053
2026-01-25 04:08:28.83	351.06	19.88	-24.4	-25.9	17.9	0.00e+00	0	44	102	1048576	8	4285
2026-01-25 04:08:29.84	350.87	19.97	-24.4	-25.8	18.0	0.00e+00	0	44	102	1048576	8	4255
2026-01-25 04:08:30.84	350.68	20.05	-24.4	-25.9	17.9	0.00e+00	0	44	102	1048576	8	4270
2026-01-25 04:08:31.85	350.48	20.13	-24.3	-25.7	18.0	0.00e+00	0	44	102	1048576	8	4219
2026-01-25 04:08:32.86	350.28	20.22	-24.4	-25.8	18.0	0.00e+00	0	44	102	1048576	8	4256
2026-01-25 04:08:33.86	350.09	20.30	-24.6	-25.9	17.7	0.00e+00	0	44	102	1048576	9	4169
2026-01-25 04:08:34.86	349.89	20.38	-24.5	-25.6	17.8	0.00e+00	0	44	102	1048576	9	4090
2026-01-25 04:08:35.86	349.69	20.47	-24.4	-25.4	17.9	0.00e+00	0	43	102	1048576	9	4037
2026-01-25 04:08:36.86	349.49	20.55	-24.4	-25.3	18.0	0.00e+00	0	44	102	1048576	9	4014
2026-01-25 04:08:37.87	349.29	20.63	-24.4	-25.5	17.9	0.00e+00	0	43	102	1048576	9	4057
2026-01-25 04:08:38.87	349.09	20.72	-24.3	-25.1	18.1	0.00e+00	0	44	102	1048576	9	3968
2026-01-25 04:08:39.88	348.89	20.80	-24.2	-25.4	18.2	0.00e+00	0	44	102	1048576	8	4160
2026-01-25 04:08:40.88	348.68	20.88	-24.2	-25.4	18.2	0.00e+00	0	44	102	1048576	8	4150
2026-01-25 04:08:41.89	348.48	20.96	-24.1	-25.3	18.2	0.00e+00	0	44	102	1048576	8	4128
2026-01-25 04:08:42.89	348.27	21.05	-24.2	-25.4	18.2	0.00e+00	0	44	102	1048576	8	4148
2026-01-25 04:08:43.90	348.06	21.13	-24.0	-25.1	18.3	0.00e+00	0	44	102	1048576	8	4086
2026-01-25 04:08:44.91	347.85	21.21	-24.0	-25.0	18.4	0.00e+00	0	44	102	1048576	8	4052
2026-01-25 04:08:45.91	347.64	21.29	-24.0	-25.0	18.4	0.00e+00	0	44	102	1048576	8	4041
2026-01-25 04:08:46.92	347.43	21.37	-23.8	-24.5	18.6	0.00e+00	0	44	102	1048576	8	3939
2026-01-25 04:08:47.92	347.22	21.46	-23.7	-24.5	18.7	0.00e+00	0	44	102	1048576	8	3922
2026-01-25 04:08:48.93	347.00	21.54	-23.8	-24.7	18.6	0.00e+00	0	43	102	1048576	8	3966
2026-01-25 04:08:49.93	346.79	21.62	-23.7	-24.5	18.7	0.00e+00	0	44	102	1048576	8	3921
2026-01-25 04:08:50.94	346.57	21.70	-23.8	-24.5	18.6	0.00e+00	0	43	102	1048576	8	3934
2026-01-25 04:08:51.94	346.36	21.78	-23.6	-24.3	17.8	0.00e+00	0	44	102	1048576	8	3903
2026-01-25 04:08:52.94	346.14	21.86	-23.8	-24.6	18.6	0.00e+00	0	44	102	1048576	8	3948
2026-01-25 04:08:53.94	345.92	21.94	-23.7	-24.4	17.6	0.00e+00	0	44	102	1048576	8	3893
2026-01-25 04:08:54.95	345.70	22.02	-23.6	-24.7	18.8	0.00e+00	0	44	102	1048576	7	4077
2026-01-25 04:08:55.96	345.48	22.10	-23.6	-24.8	18.8	0.00e+00	0	44	102	1048576	7	4103
2026-01-25 04:08:56.95	345.26	22.18	-23.6	-24.7	18.8	0.00e+00	0	43	102	1048576	7	4081
2026-01-25 04:08:57.96	345.03	22.26	-23.6	-24.8	18.8	0.00e+00	0	43	102	1048576	7	4105
2026-01-25 04:08:58.96	344.81	22.34	-23.8	-25.1	18.6	0.00e+00	0	44	102	1048576	7	4189
2026-01-25 04:08:59.97	344.58	22.42	-23.7	-24.9	18.7	0.00e+00	0	43	102	1048576	7	4135
2026-01-25 04:09:00.97	344.36	22.50	-23.7	-25.0	18.7	9.90e-04	0	44	102	1048576	7	4160
2026-01-25 04:09:01.98	344.13	22.58	-23.8	-25.1	18.6	0.00e+00	0	44	102	1048576	7	4175
2026-01-25 04:09:02.98	343.90	22.66	-23.8	-25.2	18.6	0.00e+00	0	44	102	1048576	7	4217
2026-01-25 04:09:03.98	343.67	22.74	-23.9	-25.3	18.5	1.11e-03	0	44	102	1048576	7	4238
2026-01-25 04:09:04.99	343.43	22.81	-24.0	-25.5	18.4	0.00e+00	0	44	102	1048576	7	4277
2026-01-25 04:09:05.99	343.20	22.89	-23.8	-25.2	18.6	1.14e-03	0	44	102	1048576	7	4203
2026-01-25 04:09:06.99	342.97	22.97	-23.7	-25.0	18.7	0.00e+00	0	44	102	1048576	7	4167
2026-01-25 04:09:08.00	342.73	23.05	-23.8	-25.1	18.7	0.00e+00	0	44	102	1048576	7	4181
2026-01-25 04:09:09.00	342.50	23.12	-23.6	-24.6	18.9	1.11e-03	0	43	102	1048576	7	4070
2026-01-25 04:09:10.00	342.26	23.20	-23.5	-24.6	18.9	0.00e+00	0	44	102	1048576	7	4055
2026-01-25 04:09:11.01	342.02	23.28	-23.6	-24.6	18.9	0.00e+00	0	44	102	1048576	7	4071
2026-01-25 04:09:12.02	341.78	23.35	-23.5	-24.4	19.0	0.00e+00	0	44	102	1048576	7	4023
2026-01-25 04:09:13.02	341.54	23.43	-23.5	-24.5	18.9	1.24e-03	0	44	102	1048576	7	4041
2026-01-25 04:09:14.03	341.29	23.50	-23.5	-24.6	18.9	0.00e+00	0	44	102	1048576	7	4047
2026-01-25 04:09:15.04	341.05	23.58	-23.7	-24.9	18.7	1.23e-03	0	44	102	1048576	7	4146
2026-01-25 04:09:16.04	340.80	23.65	-23.8	-25.1	18.6	1.19e-03	0	44	102	1048576	7	4194
2026-01-25 04:09:17.05	340.56	23.73	-23.6	-24.7	18.8	0.00e+00	0	44	102	1048576	7	4095
2026-01-25 04:09:18.05	340.31	23.80	-23.5	-24.6	18.9	1.20e-03	0	44	102	1048576	7	4054
2026-01-25 04:09:19.06	340.06	23.88	-23.6	-24.8	18.8	1.31e-03	0	44	102	1048576	7	4106
2026-01-25 04:09:20.07	339.81	23.95	-23.6	-24.6	18.9	0.00e+00	0	44	102	1048576	7	4071
2026-01-25 04:09:21.08	339.56	24.02	-23.7	-25.0	18.7	0.00e+00	0	44	102	1048576	7	4150
2026-01-25 04:09:22.08	339.30	24.09	-23.9	-25.3	18.5	1.30e-03	0	44	102	1048576	7	4227
2026-01-25 04:09:23.08	339.05	24.17	-23.6	-24.7	18.9	0.00e+00	0	44	102	1048576	7	4083
2026-01-25 04:09:24.08	338.80	24.24	-23.5	-24.5	19.0	1.22e-03	0	44	102	1048576	7	4030
2026-01-25 04:09:25.08	338.54	24.31	-23.5	-24.4	19.0	1.14e-03	0	44	102	1048576	7	4009
2026-01-25 04:09:26.09	338.29	24.38	-23.4	-24.3	19.0	0.00e+00	0	44	102	1048576	7	3992
2026-01-25 04:09:27.10	338.03	24.45	-23.5	-24.4	19.0	1.04e-03	0	44	102	1048576	7	4018
2026-01-25 04:09:28.10	337.77	24.52	-23.4	-24.4	19.0	0.00e+00	0	44	102	1048576	7	4005
2026-01-25 04:09:29.10	337.51	24.59	-23.6	-24.6	18.9	0.00e+00	0	44	102	1048576	7	4068
2026-01-25 04:09:30.10	337.25	24.66	-23.3	-24.1	19.1	1.18e-03	0	44	102	1048576	7	3944
2026-01-25 04:09:31.11	336.98	24.73	-23.2	-23.8	19.3	0.00e+00	0	44	102	1048576	7	3875
2026-01-25 04:09:32.12	336.72	24.79	-23.3	-24.0	19.2	0.00e+00	0	44	102	1048576	7	3923
2026-01-25 04:09:33.12	336.46	24.86	-23.3	-24.0	19.2	0.00e+00	0	44	102	1048576	7	3926
2026-01-25 04:09:34.13	336.19	24.93	-23.4	-24.3	19.1	1.05e-03	0	44	102	1048576	7	3985
2026-01-25 04:09:35.14	335.92	25.00	-23.3	-24.1	19.1	0.00e+00	0	44	102	1048576	7	3947
2026-01-25 04:09:36.14	335.65	25.06	-23.4	-24.3	19.1	0.00e+00	0	44	102	1048576	7	3982
2026-01-25 04:09:37.15	335.38	25.13	-23.3	-24.0	19.2	0.00e+00	0	44	102	1048576	7	3912
2026-01-25 04:09:38.15	335.11	25.19	-23.2	-23.8	19.3	0.00e+00	0	44	102	1048576	7	3873
2026-01-25 04:09:39.15	334.84	25.26	-23.2	-24.3	19.3	0.00e+00	0	43	102	1048576	6	4100
2026-01-25 04:09:40.16	334.57	25.32	-23.0	-23.9	19.5	0.00e+00	0	44	102	1048576	6	3999
2026-01-25 04:09:41.16	334.29	25.38	-22.9	-23.7	19.6	0.00e+00	0	44	102	1048576	6	3964
2026-01-25 04:09:42.16	334.02	25.45	-22.9	-23.8	19.5	0.00e+00	0	44	102	1048576	6	3988
2026-01-25 04:09:43.17	333.74	25.51	-22.9	-23.7	19.6	0.00e+00	0	44	102	1048576	6	3949
2026-01-25 04:09:44.17	333.47	25.57	-23.0	-23.9	19.5	0.00e+00	0	44	102	1048576	6	4004
2026-01-25 04:09:45.17	333.19	25.63	-23.2	-24.3	19.3	0.00e+00	0	44	102	1048576	6	4107
2026-01-25 04:09:46.18	332.91	25.69	-23.1	-24.2	19.3	0.00e+00	0	44	102	1048576	6	4081
2026-01-25 04:09:47.18	332.63	25.75	-23.4	-24.7	19.1	0.00e+00	0	44	102	1048576	6	4210
2026-01-25 04:09:48.18	332.35	25.81	-23.3	-24.5	19.2	0.00e+00	0	44	102	1048576	6	4144
2026-01-25 04:09:49.19	332.06	25.87	-23.2	-24.3	19.3	0.00e+00	0	44	102	1048576	6	4096
2026-01-25 04:09:50.19	331.78	25.92	-23.2	-24.4	19.3	0.00e+00	0	44	102	1048576	6	4120
2026-01-25 04:09:51.19	331.50	25.98	-23.3	-24.6	19.1	0.00e+00	0	44	102	1048576	6	4173
2026-01-25 04:09:52.20	331.21	26.04	-23.2	-24.3	19.3	0.00e+00	0	44	102	1048576	6	4091
2026-01-25 04:09:53.20	330.92	26.09	-23.2	-24.3	19.3	0.00e+00	0	44	102	1048576	6	4105
2026-01-25 04:09:54.21	330.64	26.15	-23.2	-24.4	19.2	0.00e+00	0	44	102	1048576	6	4124
2026-01-25 04:09:55.20	330.35	26.20	-23.1	-24.1	19.4	0.00e+00	0	44	102	1048576	6	4049
2026-01-25 04:09:56.21	330.06	26.26	-23.1	-24.1	19.4	0.00e+00	0	44	102	1048576	6	4046
2026-01-25 04:09:57.21	329.77	26.31	-23.2	-24.3	19.3	0.00e+00	0	43	102	1048576	6	4104
2026-01-25 04:09:58.22	329.48	26.36	-23.1	-24.3	19.3	0.00e+00	0	43	102	1048576	6	4092
2026-01-25 04:09:59.22	329.18	26.41	-23.1	-24.1	19.4	0.00e+00	0	44	102	1048576	6	4038
2026-01-25 04:10:00.22	328.89	26.46	-22.9	-23.8	19.6	0.00e+00	0	44	102	1048576	6	3982
2026-01-25 04:10:01.23	328.60	26.51	-23.0	-23.9	19.5	0.00e+00	0	44	102	1048576	6	4000
2026-01-25 04:10:02.24	328.30	26.56	-23.1	-24.2	19.4	0.00e+00	0	44	102	1048576	6	4068
2026-01-25 04:10:03.25	328.00	26.61	-22.9	-23.7	19.6	0.00e+00	0	44	102	1048576	6	3961
2026-01-25 04:10:04.25	327.70	26.66	-22.9	-23.7	19.6	0.00e+00	0	44	102	1048576	6	3958
2026-01-25 04:10:05.26	327.40	26.71	-22.9	-23.8	19.5	0.00e+00	0	44	102	1048576	6	3972
2026-01-25 04:10:06.26	327.11	26.75	-23.0	-24.0	19.5	0.00e+00	0	44	102	1048576	6	4015
2026-01-25 04:10:07.27	326.80	26.80	-23.1	-24.2	19.3	0.00e+00	0	44	102	1048576	6	4087
2026-01-25 04:10:08.27	326.50	26.84	-23.0	-23.9	19.5	0.00e+00	0	44	102	1048576	6	3997
2026-01-25 04:10:09.27	326.20	26.89	-22.9	-23.7	19.6	0.00e+00	0	44	102	1048576	6	3960
2026-01-25 04:10:10.28	325.90	26.93	-22.9	-23.7	19.6	0.00e+00	0	44	102	1048576	6	3961
2026-01-25 04:10:11.29	325.59	26.97	-22.9	-24.3	19.6	0.00e+00	0	44	102	1048576	5	4202
2026-01-25 04:10:12.29	325.29	27.02	-23.1	-24.2	19.4	0.00e+00	0	44	102	1048576	6	4066
2026-01-25 04:10:13.28	324.99	27.06	-23.2	-24.4	19.2	0.00e+00	0	44	102	1048576	6	4137
2026-01-25 04:10:14.29	324.68	27.10	-23.0	-24.0	19.4	0.00e+00	0	44	102	1048576	6	4035
2026-01-25 04:10:15.28	324.38	27.13	-23.0	-23.8	19.5	0.00e+00	0	44	102	1048576	6	3991
2026-01-25 04:10:16.29	324.07	27.17	-23.0	-23.9	19.5	0.00e+00	0	44	102	1048576	6	4005
2026-01-25 04:10:17.29	323.76	27.21	-22.8	-23.6	19.6	0.00e+00	0	44	102	1048576	6	3930
2026-01-25 04:10:18.29	323.46	27.25	-22.8	-23.5	19.7	0.00e+00	0	44	102	1048576	6	3910
2026-01-25 04:10:19.29	323.15	27.28	-22.8	-23.6	19.7	0.00e+00	0	44	102	1048576	6	3919
2026-01-25 04:10:20.30	322.84	27.32	-22.7	-23.8	19.8	0.00e+00	0	44	102	1048576	5	4093
2026-01-25 04:10:21.31	322.52	27.35	-22.4	-23.3	18.4	0.00e+00	0	44	102	1048576	5	4004
2026-01-25 04:10:22.31	322.21	27.38	-22.7	-23.8	17.2	0.00e+00	0	44	102	1048576	5	4100
2026-01-25 04:10:23.32	321.90	27.41	-22.7	-23.8	19.8	0.00e+00	0	44	102	1048576	5	4087
2026-01-25 04:10:24.32	321.59	27.45	-22.7	-23.9	19.8	1.22e-03	0	44	102	1048576	5	4104
2026-01-25 04:10:25.33	321.27	27.48	-22.6	-23.7	19.8	0.00e+00	0	44	102	1048576	5	4063
2026-01-25 04:10:26.33	320.96	27.51	-22.7	-23.8	19.8	1.45e-03	0	44	102	1048576	5	4085
2026-01-25 04:10:27.33	320.65	27.53	-22.8	-24.1	19.6	0.00e+00	0	44	102	1048576	5	4170
2026-01-25 04:10:28.34	320.33	27.56	-22.9	-23.8	19.6	0.00e+00	0	44	102	1048576	6	3989
2026-01-25 04:10:29.33	320.02	27.59	-22.9	-23.7	19.6	0.00e+00	0	44	102	1048576	6	3958
2026-01-25 04:10:30.34	319.70	27.61	-22.9	-23.6	19.6	0.00e+00	0	43	102	1048576	6	3936
2026-01-25 04:10:31.34	319.38	27.64	-22.9	-24.2	19.6	1.70e-04	0	44	102	1048576	5	4196
2026-01-25 04:10:32.35	319.07	27.66	-23.0	-23.9	19.5	0.00e+00	0	44	102	1048576	6	3997
2026-01-25 04:10:33.35	318.75	27.68	-22.8	-23.6	19.7	1.56e-03	0	44	102	1048576	6	3934
2026-01-25 04:10:34.35	318.43	27.70	-22.9	-23.6	19.6	0.00e+00	0	44	102	1048576	6	3939
2026-01-25 04:10:35.36	318.11	27.73	-22.9	-23.8	19.6	0.00e+00	0	44	102	1048576	6	3987
2026-01-25 04:10:36.36	317.79	27.74	-22.8	-23.6	19.7	1.34e-03	0	44	102	1048576	6	3937
2026-01-25 04:10:37.36	317.48	27.76	-22.7	-23.2	19.8	0.00e+00	0	44	102	1048576	6	3842
2026-01-25 04:10:38.36	317.16	27.78	-22.5	-23.3	20.0	1.29e-03	0	44	102	1048576	5	3977
2026-01-25 04:10:39.37	316.84	27.80	-22.4	-23.1	20.1	0.00e+00	0	44	102	1048576	5	3928
2026-01-25 04:10:40.37	316.52	27.81	-22.4	-23.1	20.2	0.00e+00	0	44	102	1048576	5	3923
2026-01-25 04:10:41.38	316.19	27.83	-22.4	-23.2	20.1	1.24e-03	0	44	102	1048576	5	3943
2026-01-25 04:10:42.39	315.87	27.84	-22.4	-23.1	20.1	1.20e-03	0	44	102	1048576	5	3928
2026-01-25 04:10:43.39	315.55	27.86	-22.4	-23.2	20.1	0.00e+00	0	44	102	1048576	5	3948
2026-01-25 04:10:44.40	315.23	27.87	-22.4	-23.2	20.1	1.30e-03	0	44	102	1048576	5	3939
2026-01-25 04:10:45.40	314.91	27.88	-22.2	-22.8	20.3	1.18e-03	0	44	102	1048576	5	3851
2026-01-25 04:10:46.41	314.58	27.89	-22.3	-22.9	20.2	0.00e+00	0	44	102	1048576	5	3884
2026-01-25 04:10:47.40	314.27	27.90	-22.4	-23.2	20.1	8.77e-04	0	43	102	1048576	5	3944
2026-01-25 04:10:48.40	313.94	27.90	-22.5	-23.5	20.0	7.41e-04	0	44	102	1048576	5	4008
2026-01-25 04:10:49.40	313.62	27.91	-22.6	-23.6	19.9	0.00e+00	0	44	102	1048576	5	4041
2026-01-25 04:10:50.41	313.30	27.92	-22.5	-23.4	20.0	3.96e-04	0	44	102	1048576	5	3994
2026-01-25 04:10:51.41	312.98	27.92	-22.5	-23.4	20.0	3.56e-04	0	44	102	1048576	5	3994
2026-01-25 04:10:52.42	312.65	27.93	-22.5	-23.4	20.0	1.02e-05	0	44	102	1048576	5	3988
2026-01-25 04:10:53.43	312.33	27.93	-22.4	-23.1	20.1	0.00e+00	0	44	102	1048576	5	3925
2026-01-25 04:10:54.43	312.01	27.93	-22.4	-23.3	20.1	2.06e-04	0	44	102	1048576	5	3954
2026-01-25 04:10:55.44	311.68	27.93	-22.5	-23.4	20.0	2.97e-05	0	44	102	1048576	5	3986
2026-01-25 04:10:56.45	311.36	27.93	-22.5	-23.5	20.0	6.74e-04	0	44	102	1048576	5	4005
2026-01-25 04:10:57.46	311.03	27.93	-22.6	-23.6	19.9	9.61e-04	0	43	102	1048576	5	4048
2026-01-25 04:10:58.46	310.71	27.93	-22.7	-23.9	19.8	0.00e+00	0	44	102	1048576	5	4105
2026-01-25 04:10:59.47	310.39	27.92	-22.8	-24.0	19.7	9.72e-04	0	43	102	1048576	5	4136
2026-01-25 04:11:00.46	310.07	27.92	-22.8	-24.1	19.7	0.00e+00	0	44	102	1048576	5	4163
2026-01-25 04:11:01.47	309.74	27.91	-22.8	-24.0	19.7	7.89e-05	0	44	102	1048576	5	4145
2026-01-25 04:11:02.47	309.42	27.91	-22.8	-24.1	19.6	0.00e+00	0	44	102	1048576	5	4162
2026-01-25 04:11:03.47	309.10	27.90	-22.8	-24.0	19.7	0.00e+00	0	44	102	1048576	5	4144
2026-01-25 04:11:04.48	308.78	27.89	-22.6	-23.7	19.9	0.00e+00	0	44	102	1048576	5	4055
2026-01-25 04:11:05.48	308.45	27.88	-22.5	-23.4	20.0	0.00e+00	0	44	102	1048576	5	4001
2026-01-25 04:11:06.49	308.13	27.87	-22.5	-23.4	20.0	1.23e-03	0	44	102	1048576	5	3986
2026-01-25 04:11:07.49	307.81	27.86	-22.4	-23.3	20.1	0.00e+00	0	44	102	1048576	5	3965
2026-01-25 04:11:08.49	307.49	27.85	-22.4	-23.2	20.1	1.13e-03	0	44	102	1048576	5	3954
2026-01-25 04:11:09.49	307.17	27.84	-22.6	-23.6	19.9	0.00e+00	0	44	102	1048576	5	4046
2026-01-25 04:11:10.49	306.85	27.82	-22.6	-23.7	19.8	0.00e+00	0	44	102	1048576	5	4064
2026-01-25 04:11:11.50	306.53	27.81	-22.5	-23.4	20.0	0.00e+00	0	44	102	1048576	5	3990
2026-01-25 04:11:12.51	306.20	27.79	-22.4	-23.2	20.1	0.00e+00	0	44	102	1048576	5	3936
2026-01-25 04:11:13.51	305.89	27.77	-22.4	-23.2	20.1	0.00e+00	0	44	102	1048576	5	3938
2026-01-25 04:11:14.52	305.56	27.75	-22.3	-23.1	20.2	0.00e+00	0	44	102	1048576	5	3913
2026-01-25 04:11:15.52	305.25	27.74	-22.5	-23.3	20.0	0.00e+00	0	44	102	1048576	5	3978
2026-01-25 04:11:16.52	304.93	27.72	-22.6	-23.6	19.9	0.00e+00	0	44	102	1048576	5	4035
2026-01-25 04:11:17.52	304.61	27.69	-22.6	-23.7	19.8	0.00e+00	0	44	102	1048576	5	4063
2026-01-25 04:11:18.53	304.29	27.67	-22.6	-23.7	19.8	0.00e+00	0	44	102	1048576	5	4059
2026-01-25 04:11:19.53	303.97	27.65	-22.5	-23.3	20.0	0.00e+00	0	44	102	1048576	5	3979
2026-01-25 04:11:20.54	303.66	27.62	-22.4	-23.2	20.0	0.00e+00	0	43	102	1048576	5	3954
2026-01-25 04:11:21.54	303.34	27.60	-22.5	-23.3	20.0	0.00e+00	0	44	102	1048576	5	3971
2026-01-25 04:11:22.54	303.03	27.57	-22.5	-23.5	19.9	0.00e+00	0	44	102	1048576	5	4014
2026-01-25 04:11:23.54	302.71	27.55	-22.6	-23.5	19.9	0.00e+00	0	44	102	1048576	5	4030
2026-01-25 04:11:24.55	302.39	27.52	-22.5	-23.5	19.9	0.00e+00	0	44	102	1048576	5	4004
2026-01-25 04:11:25.55	302.08	27.49	-22.5	-23.4	20.0	0.00e+00	0	44	102	1048576	5	4006
2026-01-25 04:11:26.56	301.76	27.46	-22.5	-23.4	20.0	0.00e+00	0	44	102	1048576	5	3995
2026-01-25 04:11:27.57	301.45	27.43	-22.6	-23.6	19.8	0.00e+00	0	44	102	1048576	5	4047
2026-01-25 04:11:28.58	301.13	27.40	-22.6	-23.6	19.8	0.00e+00	0	44	102	1048576	5	4042
2026-01-25 04:11:29.58	300.82	27.37	-22.6	-23.5	19.9	0.00e+00	0	44	102	1048576	5	4027
2026-01-25 04:11:30.58	300.51	27.33	-22.6	-23.6	19.9	0.00e+00	0	44	102	1048576	5	4047
2026-01-25 04:11:31.59	300.20	27.30	-22.6	-23.7	19.8	0.00e+00	0	43	102	1048576	5	4057
2026-01-25 04:11:32.60	299.89	27.26	-22.6	-23.7	19.8	0.00e+00	0	44	102	1048576	5	4067
2026-01-25 04:11:33.60	299.58	27.23	-22.6	-23.6	19.8	0.00e+00	0	44	102	1048576	5	4043
2026-01-25 04:11:34.61	299.27	27.19	-22.6	-23.6	19.9	0.00e+00	0	44	102	1048576	5	4028
2026-01-25 04:11:35.61	298.96	27.15	-22.7	-23.7	19.8	0.00e+00	0	44	102	1048576	5	4071
2026-01-25 04:11:36.61	298.66	27.11	-22.7	-23.7	19.8	0.00e+00	0	44	102	1048576	5	4066
2026-01-25 04:11:37.61	298.35	27.08	-22.6	-23.5	19.9	0.00e+00	0	44	102	1048576	5	4023
2026-01-25 04:11:38.61	298.05	27.04	-22.6	-23.6	19.8	0.00e+00	0	44	102	1048576	5	4054
2026-01-25 04:11:39.61	297.74	26.99	-22.6	-23.6	19.8	0.00e+00	0	44	102	1048576	5	4050
2026-01-25 04:11:40.62	297.44	26.95	-22.6	-23.5	19.9	0.00e+00	0	44	102	1048576	5	4022
2026-01-25 04:11:41.62	297.13	26.91	-22.5	-23.5	19.9	0.00e+00	0	44	102	1048576	5	4015
2026-01-25 04:11:42.63	296.83	26.87	-22.7	-23.7	19.8	0.00e+00	0	44	102	1048576	5	4072
2026-01-25 04:11:43.63	296.53	26.82	-22.7	-23.8	19.7	0.00e+00	0	44	102	1048576	5	4101
2026-01-25 04:11:44.64	296.23	26.78	-22.9	-24.2	19.5	0.00e+00	0	44	102	1048576	5	4187
2026-01-25 04:11:45.64	295.93	26.73	-22.8	-23.9	19.7	1.10e-06	0	44	102	1048576	5	4120
2026-01-25 04:11:46.65	295.63	26.68	-22.5	-23.5	19.9	0.00e+00	0	44	102	1048576	5	4009
2026-01-25 04:11:47.65	295.33	26.64	-22.4	-23.3	20.0	0.00e+00	0	44	102	1048576	5	3960
2026-01-25 04:11:48.65	295.03	26.59	-22.4	-23.3	20.0	0.00e+00	0	44	102	1048576	5	3967
2026-01-25 04:11:49.65	294.74	26.54	-22.4	-23.2	20.0	0.00e+00	0	44	102	1048576	5	3941
2026-01-25 04:11:50.66	294.44	26.49	-22.3	-23.1	20.1	0.00e+00	0	44	102	1048576	5	3912
2026-01-25 04:11:51.66	294.15	26.44	-22.4	-23.2	20.0	0.00e+00	0	44	102	1048576	5	3940
2026-01-25 04:11:52.66	293.85	26.39	-22.4	-23.1	20.0	0.00e+00	0	44	102	1048576	5	3926
2026-01-25 04:11:53.67	293.56	26.33	-22.4	-23.1	20.0	0.00e+00	0	44	102	1048576	5	3926
2026-01-25 04:11:54.67	293.27	26.28	-22.5	-23.3	19.9	0.00e+00	0	44	102	1048576	5	3980
2026-01-25 04:11:55.67	292.98	26.23	-22.5	-23.5	19.8	0.00e+00	0	44	102	1048576	5	4019
2026-01-25 04:11:56.68	292.69	26.17	-22.6	-23.5	19.8	0.00e+00	0	44	102	1048576	5	4026
2026-01-25 04:11:57.68	292.40	26.12	-22.7	-23.7	19.7	0.00e+00	0	44	102	1048576	5	4077
2026-01-25 04:11:58.68	292.11	26.06	-22.6	-23.7	19.8	7.46e-04	0	44	102	1048576	5	4069
2026-01-25 04:11:59.68	291.83	26.01	-22.5	-23.4	19.9	0.00e+00	0	44	102	1048576	5	4001
2026-01-25 04:12:00.69	291.54	25.95	-22.5	-23.5	19.9	0.00e+00	0	44	102	1048576	5	4012
2026-01-25 04:12:01.70	291.25	25.89	-22.5	-23.4	19.9	0.00e+00	0	44	102	1048576	5	3996
2026-01-25 04:12:02.70	290.97	25.84	-22.5	-23.4	19.9	0.00e+00	0	44	102	1048576	5	3983
2026-01-25 04:12:03.71	290.68	25.78	-22.5	-23.5	19.9	0.00e+00	0	44	102	1048576	5	4010
2026-01-25 04:12:04.71	290.40	25.72	-22.4	-23.3	19.9	0.00e+00	0	43	102	1048576	5	3966
2026-01-25 04:12:05.71	290.12	25.66	-22.4	-23.3	19.9	8.87e-04	0	44	102	1048576	5	3957
2026-01-25 04:12:06.72	289.84	25.60	-22.6	-23.6	19.8	0.00e+00	0	44	102	1048576	5	4031
2026-01-25 04:12:07.72	289.57	25.54	-22.5	-23.4	19.8	8.60e-04	0	44	102	1048576	5	3982
2026-01-25 04:12:08.73	289.29	25.47	-22.4	-23.2	19.9	4.57e-05	0	44	102	1048576	5	3959
2026-01-25 04:12:09.73	289.01	25.41	-22.5	-23.3	19.9	0.00e+00	0	44	102	1048576	5	3974
2026-01-25 04:12:10.74	288.74	25.35	-22.5	-23.4	19.8	1.16e-03	0	44	102	1048576	5	4006
2026-01-25 04:12:11.74	288.46	25.28	-22.7	-23.8	19.7	0.00e+00	0	43	102	1048576	5	4086
2026-01-25 04:12:12.75	288.19	25.22	-22.6	-23.7	19.7	0.00e+00	0	44	102	1048576	5	4066
2026-01-25 04:12:13.76	287.91	25.15	-22.5	-23.5	19.8	0.00e+00	0	44	102	1048576	5	4019
2026-01-25 04:12:14.76	287.64	25.09	-22.5	-23.5	19.8	1.25e-03	0	44	102	1048576	5	4015
2026-01-25 04:12:15.76	287.38	25.02	-22.6	-23.7	19.7	0.00e+00	0	44	102	1048576	5	4061
2026-01-25 04:12:16.76	287.11	24.96	-22.5	-23.5	19.8	1.08e-03	0	44	102	1048576	5	4020
2026-01-25 04:12:17.76	286.84	24.89	-22.6	-23.7	19.7	1.07e-03	0	44	102	1048576	5	4057
2026-01-25 04:12:18.77	286.57	24.82	-22.6	-23.7	19.7	0.00e+00	0	44	102	1048576	5	4067
2026-01-25 04:12:19.77	286.31	24.76	-22.8	-23.9	19.6	8.23e-04	0	44	102	1048576	5	4124
2026-01-25 04:12:20.78	286.04	24.69	-22.7	-23.8	19.6	0.00e+00	0	44	102	1048576	5	4082
2026-01-25 04:12:21.78	285.78	24.62	-22.7	-23.8	19.6	0.00e+00	0	44	102	1048576	5	4087
2026-01-25 04:12:22.78	285.52	24.55	-22.7	-23.8	19.6	7.83e-04	0	44	102	1048576	5	4087
2026-01-25 04:12:23.79	285.26	24.48	-22.8	-24.0	19.5	8.54e-04	0	44	102	1048576	5	4145
2026-01-25 04:12:24.79	285.00	24.41	-23.1	-24.1	19.3	0.00e+00	0	44	102	1048576	6	4047
2026-01-25 04:12:25.79	284.75	24.34	-23.1	-24.1	19.2	0.00e+00	0	44	102	1048576	6	4049
2026-01-25 04:12:26.79	284.49	24.27	-23.2	-24.3	19.2	7.21e-04	0	44	102	1048576	6	4102
2026-01-25 04:12:27.79	284.23	24.20	-23.0	-23.9	19.4	0.00e+00	0	44	102	1048576	6	4006
2026-01-25 04:12:28.79	283.98	24.12	-22.8	-23.5	19.6	2.62e-04	0	44	102	1048576	6	3901
2026-01-25 04:12:29.80	283.73	24.05	-22.7	-23.4	19.6	1.93e-04	0	44	102	1048576	6	3881
2026-01-25 04:12:30.81	283.47	23.98	-22.9	-23.9	19.4	0.00e+00	0	44	102	1048576	6	3994
2026-01-25 04:12:31.81	283.22	23.91	-22.9	-23.8	19.4	2.59e-04	0	44	102	1048576	6	3977
2026-01-25 04:12:32.82	282.97	23.83	-23.0	-24.0	19.3	0.00e+00	0	44	102	1048576	6	4024
2026-01-25 04:12:33.82	282.72	23.76	-22.8	-23.5	19.6	0.00e+00	0	44	102	1048576	6	3898
2026-01-25 04:12:34.83	282.47	23.68	-22.7	-23.2	19.7	0.00e+00	0	44	102	1048576	6	3840
2026-01-25 04:12:35.83	282.23	23.61	-22.7	-23.3	19.6	0.00e+00	0	44	102	1048576	6	3851
2026-01-25 04:12:36.84	281.98	23.53	-22.6	-23.2	19.7	0.00e+00	0	43	102	1048576	6	3837
2026-01-25 04:12:37.84	281.74	23.46	-22.7	-23.3	19.6	0.00e+00	0	44	102	1048576	6	3864
2026-01-25 04:12:38.85	281.49	23.38	-22.7	-23.3	19.6	0.00e+00	0	44	102	1048576	6	3855
2026-01-25 04:12:39.86	281.25	23.31	-22.7	-23.3	19.6	0.00e+00	0	44	102	1048576	6	3871
2026-01-25 04:12:40.86	281.01	23.23	-22.8	-23.6	19.4	0.00e+00	0	44	102	1048576	6	3947
2026-01-25 04:12:41.87	280.77	23.15	-22.8	-23.4	19.5	0.00e+00	0	44	102	1048576	6	3892
2026-01-25 04:12:42.87	280.53	23.08	-22.7	-23.3	19.6	0.00e+00	0	44	102	1048576	6	3864
2026-01-25 04:12:43.87	280.30	23.00	-22.8	-23.5	19.5	0.00e+00	0	44	102	1048576	6	3909
2026-01-25 04:12:44.87	280.06	22.92	-22.7	-23.4	19.5	0.00e+00	0	44	102	1048576	6	3894
2026-01-25 04:12:45.87	279.83	22.84	-22.9	-23.7	19.4	0.00e+00	0	44	102	1048576	6	3958
2026-01-25 04:12:46.87	279.60	22.77	-22.8	-23.5	19.5	0.00e+00	0	44	102	1048576	6	3910
2026-01-25 04:12:47.87	279.37	22.69	-22.8	-23.6	19.4	0.00e+00	0	44	102	1048576	6	3934
2026-01-25 04:12:48.87	279.14	22.61	-23.0	-23.9	19.3	0.00e+00	0	44	102	1048576	6	4011
2026-01-25 04:12:49.88	278.90	22.53	-22.9	-23.8	19.3	0.00e+00	0	44	102	1048576	6	3980
2026-01-25 04:12:50.88	278.68	22.45	-22.9	-23.7	19.3	0.00e+00	0	44	102	1048576	6	3962
2026-01-25 04:12:51.89	278.45	22.37	-22.7	-23.4	19.5	0.00e+00	0	44	102	1048576	6	3874
2026-01-25 04:12:52.89	278.22	22.29	-22.8	-23.5	19.5	0.00e+00	0	44	102	1048576	6	3904
2026-01-25 04:12:53.88	278.00	22.21	-22.8	-23.4	19.5	0.00e+00	0	44	102	1048576	6	3895
2026-01-25 04:12:54.88	277.78	22.13	-22.9	-23.7	19.4	0.00e+00	0	44	102	1048576	6	3958
2026-01-25 04:12:55.88	277.56	22.05	-23.0	-23.9	19.2	0.00e+00	0	44	102	1048576	6	4015
2026-01-25 04:12:56.88	277.33	21.97	-23.0	-24.1	19.1	0.00e+00	0	44	102	1048576	6	4054
2026-01-25 04:12:57.89	277.11	21.89	-23.0	-24.0	19.2	0.00e+00	0	44	102	1048576	6	4040
2026-01-25 04:12:58.90	276.89	21.81	-23.0	-23.9	19.2	0.00e+00	0	44	102	1048576	6	4000
2026-01-25 04:12:59.90	276.67	21.73	-23.1	-24.2	19.1	0.00e+00	0	44	102	1048576	6	4079
2026-01-25 04:13:00.90	276.46	21.65	-23.1	-24.3	19.1	0.00e+00	0	44	102	1048576	6	4095
2026-01-25 04:13:01.90	276.24	21.57	-23.4	-24.8	18.8	0.00e+00	0	44	102	1048576	6	4231
2026-01-25 04:13:02.91	276.03	21.49	-23.3	-24.7	18.9	1.10e-06	0	44	102	1048576	6	4195
2026-01-25 04:13:03.91	275.81	21.40	-23.2	-24.4	19.0	0.00e+00	0	44	102	1048576	6	4132
2026-01-25 04:13:04.91	275.60	21.32	-23.3	-24.6	18.9	0.00e+00	0	44	102	1048576	6	4164
2026-01-25 04:13:05.91	275.39	21.24	-23.2	-24.4	19.0	0.00e+00	0	44	102	1048576	6	4126
2026-01-25 04:13:06.92	275.18	21.16	-23.4	-24.8	18.8	0.00e+00	0	44	102	1048576	6	4226
2026-01-25 04:13:07.93	274.97	21.07	-23.4	-24.8	18.8	0.00e+00	0	44	102	1048576	6	4232
2026-01-25 04:13:08.93	274.76	20.99	-23.6	-24.8	18.5	0.00e+00	0	44	102	1048576	7	4122
2026-01-25 04:13:09.94	274.55	20.91	-24.0	-25.5	18.1	0.00e+00	0	44	102	1048576	7	4307
2026-01-25 04:13:10.94	274.35	20.83	-23.8	-24.6	18.4	0.00e+00	0	44	102	1048576	8	3969
2026-01-25 04:13:11.95	274.14	20.74	-23.5	-24.6	18.6	0.00e+00	0	44	102	1048576	7	4070
2026-01-25 04:13:12.95	273.94	20.66	-23.6	-24.7	18.5	0.00e+00	0	44	102	1048576	7	4081
2026-01-25 04:13:13.95	273.74	20.58	-23.6	-24.7	18.5	0.00e+00	0	44	102	1048576	7	4101
2026-01-25 04:13:14.95	273.54	20.50	-23.8	-25.1	18.3	0.00e+00	0	44	102	1048576	7	4184
2026-01-25 04:13:15.96	273.34	20.41	-23.7	-24.9	18.4	0.00e+00	0	44	102	1048576	7	4144
2026-01-25 04:13:16.96	273.14	20.33	-23.8	-25.2	18.3	0.00e+00	0	44	102	1048576	7	4207
2026-01-25 04:13:17.97	272.94	20.24	-23.7	-24.9	18.5	0.00e+00	0	44	102	1048576	7	4132
2026-01-25 04:13:18.96	272.74	20.16	-23.7	-24.9	18.4	0.00e+00	0	44	102	1048576	7	4141
2026-01-25 04:13:19.96	272.55	20.08	-23.7	-25.0	18.4	0.00e+00	0	44	102	1048576	7	4165
2026-01-25 04:13:20.96	272.36	20.00	-23.6	-24.7	18.5	0.00e+00	0	44	102	1048576	7	4088
2026-01-25 04:13:21.97	272.16	19.91	-23.5	-24.6	18.6	0.00e+00	0	44	102	1048576	7	4066
2026-01-25 04:13:22.97	271.97	19.83	-23.6	-24.7	18.5	0.00e+00	0	44	102	1048576	7	4101
2026-01-25 04:13:23.98	271.78	19.74	-23.5	-24.6	18.6	0.00e+00	0	44	102	1048576	7	4061
2026-01-25 04:13:24.97	271.59	19.66	-23.5	-24.5	18.6	0.00e+00	0	44	102	1048576	7	4043
2026-01-25 04:13:25.98	271.40	19.58	-23.6	-24.7	18.5	0.00e+00	0	44	102	1048576	7	4080
2026-01-25 04:13:26.98	271.21	19.49	-23.5	-24.4	18.6	0.00e+00	0	44	102	1048576	7	4018
2026-01-25 04:13:27.98	271.02	19.41	-23.6	-24.8	18.4	0.00e+00	0	44	102	1048576	7	4114
2026-01-25 04:13:28.99	270.84	19.32	-23.6	-24.7	18.5	0.00e+00	0	44	102	1048576	7	4083
2026-01-25 04:13:29.99	270.65	19.24	-23.7	-25.0	18.3	0.00e+00	0	44	102	1048576	7	4158
2026-01-25 04:13:31.00	270.47	19.16	-23.7	-24.9	15.4	0.00e+00	0	44	102	1048576	7	4147
2026-01-25 04:13:32.01	270.28	19.07	-23.9	-25.3	14.9	0.00e+00	0	44	102	1048576	7	4254
2026-01-25 04:13:33.01	270.10	18.99	-23.8	-25.2	18.2	0.00e+00	0	44	102	1048576	7	4222
2026-01-25 04:13:34.02	269.92	18.90	-24.0	-25.2	18.0	0.00e+00	0	44	102	1048576	8	4104
2026-01-25 04:13:35.02	269.74	18.82	-23.9	-24.8	18.2	0.00e+00	0	44	102	1048576	8	4014
2026-01-25 04:13:36.02	269.56	18.73	-23.8	-24.7	18.2	0.00e+00	0	44	102	1048576	8	3997
2026-01-25 04:13:37.03	269.38	18.65	-23.9	-24.8	18.2	0.00e+00	0	44	102	1048576	8	4023
2026-01-25 04:13:38.03	269.20	18.57	-24.0	-25.1	18.0	1.27e-03	0	44	102	1048576	8	4072
2026-01-25 04:13:39.04	269.03	18.48	-23.7	-24.4	18.4	0.00e+00	0	44	102	1048576	8	3905
2026-01-25 04:13:40.05	268.85	18.40	-23.6	-24.8	18.4	1.23e-03	0	44	102	1048576	7	4116
2026-01-25 04:13:41.06	268.67	18.31	-23.8	-25.1	18.3	0.00e+00	0	44	102	1048576	7	4192
2026-01-25 04:13:42.06	268.50	18.23	-23.6	-24.8	18.4	0.00e+00	0	44	102	1048576	7	4114
2026-01-25 04:13:43.07	268.33	18.14	-23.7	-24.9	18.3	1.24e-03	0	44	102	1048576	7	4135
2026-01-25 04:13:44.08	268.15	18.06	-23.8	-25.2	18.2	1.25e-03	0	44	102	1048576	7	4210
2026-01-25 04:13:45.08	267.99	17.97	-23.8	-25.2	18.1	0.00e+00	0	44	102	1048576	7	4234
2026-01-25 04:13:46.09	267.81	17.89	-23.9	-25.5	18.0	0.00e+00	0	44	102	1048576	7	4319
2026-01-25 04:13:47.10	267.65	17.80	-24.2	-25.6	17.7	1.11e-03	0	44	102	1048576	8	4212
2026-01-25 04:13:48.10	267.48	17.72	-24.6	-25.9	17.3	1.90e-04	0	44	102	1048576	9	4177
2026-01-25 04:13:49.10	267.31	17.64	-24.3	-25.3	17.6	1.52e-03	0	44	102	1048576	9	4035
2026-01-25 04:13:50.10	267.15	17.55	-24.2	-25.6	17.7	1.45e-03	0	44	102	1048576	8	4207
2026-01-25 04:13:51.11	266.98	17.47	-24.1	-25.4	17.8	2.63e-04	0	44	102	1048576	8	4168
2026-01-25 04:13:52.12	266.82	17.38	-24.3	-25.8	17.6	1.60e-03	0	44	102	1048576	8	4263
2026-01-25 04:13:53.12	266.65	17.30	-24.2	-25.6	17.7	1.47e-03	0	44	102	1048576	8	4210
2026-01-25 04:13:54.13	266.49	17.22	-24.2	-25.5	17.7	2.76e-04	0	44	102	1048576	8	4193
2026-01-25 04:13:55.13	266.33	17.13	-24.2	-25.6	17.7	1.44e-03	0	44	102	1048576	8	4203
2026-01-25 04:13:56.14	266.17	17.05	-24.4	-25.9	17.5	1.79e-03	0	44	102	1048576	8	4295
2026-01-25 04:13:57.14	266.01	16.97	-24.3	-25.8	17.6	1.30e-04	0	44	102	1048576	8	4254
2026-01-25 04:13:58.15	265.85	16.88	-24.5	-26.1	17.4	1.54e-03	0	44	102	1048576	8	4350
2026-01-25 04:13:59.16	265.69	16.80	-24.3	-25.8	17.5	1.52e-03	0	44	102	1048576	8	4267
2026-01-25 04:14:00.16	265.54	16.71	-24.4	-25.9	17.5	0.00e+00	0	44	102	1048576	8	4301
2026-01-25 04:14:01.17	265.38	16.63	-24.5	-26.1	17.4	1.42e-03	0	44	102	1048576	8	4330
2026-01-25 04:14:02.18	265.22	16.55	-24.5	-25.7	17.3	0.00e+00	0	44	102	1048576	9	4131
2026-01-25 04:14:03.18	265.07	16.46	-24.6	-25.8	17.3	0.00e+00	0	44	102	1048576	9	4146
2026-01-25 04:14:04.18	264.92	16.38	-24.5	-25.7	17.3	0.00e+00	0	44	102	1048576	9	4134
2026-01-25 04:14:05.19	264.77	16.30	-24.6	-25.9	17.3	9.10e-06	0	44	102	1048576	9	4171
2026-01-25 04:14:06.19	264.61	16.21	-24.4	-25.5	17.4	0.00e+00	0	44	102	1048576	9	4077
2026-01-25 04:14:07.19	264.46	16.13	-24.4	-25.4	17.5	0.00e+00	0	44	102	1048576	9	4059
2026-01-25 04:14:08.20	264.31	16.05	-24.4	-25.5	17.4	1.27e-03	0	44	102	1048576	9	4083
2026-01-25 04:14:09.20	264.17	15.97	-24.4	-25.5	17.5	0.00e+00	0	44	102	1048576	9	4067
2026-01-25 04:14:10.20	264.02	15.88	-24.5	-25.6	17.4	1.17e-03	0	44	102	1048576	9	4097
2026-01-25 04:14:11.21	263.87	15.80	-24.4	-25.5	17.4	0.00e+00	0	44	102	1048576	9	4082
2026-01-25 04:14:12.22	263.72	15.72	-24.5	-25.6	17.3	0.00e+00	0	44	102	1048576	9	4112
2026-01-25 04:14:13.22	263.58	15.64	-24.6	-25.8	17.2	0.00e+00	0	44	102	1048576	9	4152
2026-01-25 04:14:14.23	263.43	15.55	-24.6	-25.8	17.3	0.00e+00	0	44	102	1048576	9	4144
2026-01-25 04:14:15.22	263.29	15.47	-24.6	-26.0	17.2	0.00e+00	0	44	102	1048576	9	4195
2026-01-25 04:14:16.23	263.15	15.39	-24.8	-26.4	16.9	0.00e+00	0	44	102	1048576	9	4302
2026-01-25 04:14:17.24	263.00	15.31	-24.7	-26.1	17.1	0.00e+00	0	44	102	1048576	9	4224
2026-01-25 04:14:18.24	262.86	15.22	-24.8	-26.2	17.0	0.00e+00	0	44	102	1048576	9	4261
2026-01-25 04:14:19.25	262.72	15.14	-24.8	-26.3	17.0	0.00e+00	0	44	102	1048576	9	4277
2026-01-25 04:14:20.26	262.58	15.06	-24.9	-26.6	16.8	0.00e+00	0	44	102	1048576	9	4355
2026-01-25 04:14:21.27	262.44	14.98	-25.0	-26.3	16.7	0.00e+00	0	44	102	1048576	10	4182
2026-01-25 04:14:22.27	262.30	14.90	-24.9	-26.0	16.8	0.00e+00	0	44	102	1048576	10	4100
2026-01-25 04:14:23.27	262.16	14.82	-24.9	-26.1	16.8	0.00e+00	0	44	102	1048576	10	4104
2026-01-25 04:14:24.27	262.03	14.73	-25.0	-26.2	16.8	0.00e+00	0	44	102	1048576	10	4130
2026-01-25 04:14:25.28	261.89	14.65	-24.9	-26.1	16.8	0.00e+00	0	44	102	1048576	10	4122
2026-01-25 04:14:26.29	261.75	14.57	-24.8	-25.9	16.9	0.00e+00	0	44	102	1048576	10	4067
2026-01-25 04:14:27.30	261.62	14.49	-24.9	-25.9	16.9	0.00e+00	0	44	102	1048576	10	4076
2026-01-25 04:14:28.30	261.49	14.41	-24.9	-26.0	16.8	0.00e+00	0	44	102	1048576	10	4086
2026-01-25 04:14:29.30	261.35	14.33	-24.8	-25.9	16.9	0.00e+00	0	44	102	1048576	10	4063
2026-01-25 04:14:30.30	261.22	14.25	-24.9	-26.0	16.8	0.00e+00	0	44	102	1048576	10	4096
2026-01-25 04:14:31.31	261.09	14.17	-24.9	-26.0	16.8	0.00e+00	0	44	102	1048576	10	4102
2026-01-25 04:14:32.32	260.96	14.09	-24.9	-26.0	16.8	0.00e+00	0	44	102	1048576	10	4092
2026-01-25 04:14:33.33	260.83	14.01	-24.9	-26.0	16.8	0.00e+00	0	44	102	1048576	10	4081
2026-01-25 04:14:34.33	260.70	13.93	-24.8	-26.4	16.8	0.00e+00	0	44	102	1048576	9	4323
2026-01-25 04:14:35.34	260.57	13.85	-24.9	-26.6	16.7	0.00e+00	0	44	102	1048576	9	4367
2026-01-25 04:14:36.34	260.44	13.77	-25.1	-26.5	16.6	0.00e+00	0	44	102	1048576	10	4215
2026-01-25 04:14:37.35	260.31	13.68	-25.2	-26.7	16.4	0.00e+00	0	44	102	1048576	10	4291
2026-01-25 04:14:38.35	260.18	13.61	-25.2	-26.8	16.4	0.00e+00	0	44	102	1048576	10	4304
2026-01-25 04:14:39.35	260.06	13.53	-25.3	-26.9	16.3	0.00e+00	0	44	102	1048576	10	4345
2026-01-25 04:14:40.36	259.93	13.45	-25.3	-27.0	16.2	0.00e+00	0	44	102	1048576	10	4355
2026-01-25 04:14:41.36	259.81	13.37	-25.4	-27.1	16.2	0.00e+00	0	44	102	1048576	10	4401
2026-01-25 04:14:42.36	259.69	13.29	-25.3	-27.0	16.2	0.00e+00	0	44	102	1048576	10	4348
2026-01-25 04:14:43.37	259.56	13.21	-25.3	-26.9	16.2	0.00e+00	0	44	102	1048576	10	4344
2026-01-25 04:14:44.37	259.44	13.13	-25.3	-26.9	16.2	0.00e+00	0	44	102	1048576	10	4332
2026-01-25 04:14:45.37	259.32	13.05	-25.2	-26.7	16.3	0.00e+00	0	44	102	1048576	10	4281
2026-01-25 04:14:46.38	259.20	12.97	-25.2	-26.8	16.3	0.00e+00	0	44	102	1048576	10	4295
2026-01-25 04:14:47.39	259.07	12.89	-25.2	-26.7	16.3	0.00e+00	0	44	102	1048576	10	4289
2026-01-25 04:14:48.39	258.95	12.81	-25.2	-26.8	16.3	0.00e+00	0	44	102	1048576	10	4306
2026-01-25 04:14:49.40	258.83	12.74	-25.2	-26.7	16.4	5.70e-06	0	44	102	1048576	10	4271
2026-01-25 04:14:50.40	258.72	12.66	-25.2	-26.8	16.3	0.00e+00	0	44	102	1048576	10	4303
2026-01-25 04:14:51.41	258.60	12.58	-25.2	-26.8	16.3	0.00e+00	0	44	102	1048576	10	4297
2026-01-25 04:14:52.41	258.48	12.50	-25.2	-26.8	16.3	0.00e+00	0	44	102	1048576	10	4300
2026-01-25 04:14:53.41	258.36	12.42	-25.3	-26.9	16.2	0.00e+00	0	44	102	1048576	10	4322
2026-01-25 04:14:54.42	258.25	12.35	-25.2	-26.8	12.8	0.00e+00	0	44	102	1048576	10	4299
2026-01-25 04:14:55.42	258.13	12.27	-25.2	-26.8	15.8	0.00e+00	0	44	102	1048576	10	4297
2026-01-25 04:14:56.42	258.02	12.19	-25.2	-26.8	16.3	0.00e+00	0	44	102	1048576	10	4301
2026-01-25 04:14:57.43	257.90	12.11	-25.3	-26.9	16.2	0.00e+00	0	44	102	1048576	10	4337
2026-01-25 04:14:58.43	257.79	12.04	-25.3	-27.0	16.1	2.20e-06	0	44	102	1048576	10	4367
2026-01-25 04:14:59.43	257.68	11.96	-25.3	-27.0	16.1	0.00e+00	0	44	102	1048576	10	4354
2026-01-25 04:15:00.44	257.56	11.88	-25.3	-27.0	16.1	4.99e-04	0	44	102	1048576	10	4367
2026-01-25 04:15:01.45	257.45	11.81	-25.4	-27.3	16.0	8.00e-06	0	44	102	1048576	10	4434
2026-01-25 04:15:02.45	257.34	11.73	-25.5	-27.0	15.9	0.00e+00	0	44	102	1048576	11	4238
2026-01-25 04:15:03.46	257.23	11.65	-25.7	-27.2	15.7	0.00e+00	0	44	102	1048576	11	4304
2026-01-25 04:15:04.46	257.12	11.58	-25.7	-27.3	15.7	8.00e-06	0	44	102	1048576	11	4325
2026-01-25 04:15:05.47	257.01	11.50	-25.7	-27.4	15.6	4.50e-06	0	44	102	1048576	11	4350
2026-01-25 04:15:06.47	256.90	11.42	-25.7	-27.3	15.7	0.00e+00	0	44	102	1048576	11	4327
2026-01-25 04:15:07.47	256.79	11.35	-25.7	-27.2	15.7	1.62e-03	0	44	102	1048576	11	4313
2026-01-25 04:15:08.48	256.68	11.27	-25.8	-27.5	15.5	0.00e+00	0	44	102	1048576	11	4393
2026-01-25 04:15:09.48	256.58	11.20	-25.7	-27.4	15.6	1.13e-03	0	44	102	1048576	11	4352
2026-01-25 04:15:10.49	256.47	11.12	-25.7	-27.3	15.7	6.80e-06	0	44	102	1048576	11	4319
2026-01-25 04:15:11.50	256.36	11.04	-25.7	-27.4	15.6	2.41e-04	0	44	102	1048576	11	4352
2026-01-25 04:15:12.50	256.26	10.97	-25.8	-27.5	15.5	1.65e-03	0	44	102	1048576	11	4379
2026-01-25 04:15:13.51	256.15	10.89	-25.7	-27.4	15.6	5.70e-06	0	44	102	1048576	11	4354
2026-01-25 04:15:14.51	256.05	10.82	-25.8	-27.4	15.5	4.78e-04	0	44	102	1048576	11	4370
2026-01-25 04:15:15.51	255.94	10.74	-25.9	-27.7	15.4	0.00e+00	0	44	102	1048576	11	4431
2026-01-25 04:15:16.51	255.84	10.67	-25.9	-27.8	15.3	2.59e-03	0	44	102	1048576	11	4483
2026-01-25 04:15:17.52	255.74	10.59	-25.9	-27.8	15.3	8.58e-04	0	44	102	1048576	11	4487
2026-01-25 04:15:18.52	255.64	10.52	-26.1	-27.8	14.9	2.74e-03	0	44	102	1048576	12	4358
2026-01-25 04:15:19.52	255.54	10.45	-26.1	-27.7	14.9	2.73e-03	0	44	102	1048576	12	4351
2026-01-25 04:15:20.52	255.43	10.37	-25.9	-27.4	15.2	7.93e-04	0	44	102	1048576	12	4246
2026-01-25 04:15:21.53	255.33	10.30	-25.8	-27.6	15.4	2.61e-03	0	44	102	1048576	11	4412
2026-01-25 04:15:22.53	255.23	10.22	-25.8	-27.6	15.4	0.00e+00	0	44	102	1048576	11	4412
2026-01-25 04:15:23.54	255.13	10.15	-26.0	-27.9	15.2	6.12e-04	0	44	102	1048576	11	4511
2026-01-25 04:15:24.54	255.03	10.08	-25.9	-27.9	15.2	1.87e-03	0	44	102	1048576	11	4496
2026-01-25 04:15:25.55	254.93	10.00	-25.9	-27.8	15.2	1.92e-03	0	44	102	1048576	11	4481
2026-01-25 04:15:26.55	254.84	9.93	-25.9	-27.8	15.2	1.32e-04	0	44	102	1048576	11	4485
2026-01-25 04:15:27.55	254.74	9.86	-26.0	-28.0	15.1	1.25e-03	0	44	102	1048576	11	4523
2026-01-25 04:15:28.55	254.64	9.78	-26.2	-27.9	14.8	8.38e-04	0	44	102	1048576	12	4391
2026-01-25 04:15:29.56	254.55	9.71	-26.2	-27.9	14.8	1.10e-06	0	44	102	1048576	12	4404
2026-01-25 04:15:30.55	254.45	9.64	-26.2	-28.0	14.7	8.97e-04	0	44	102	1048576	12	4432
2026-01-25 04:15:31.56	254.35	9.57	-26.2	-28.0	14.7	1.37e-03	0	44	102	1048576	12	4422
2026-01-25 04:15:32.57	254.26	9.49	-26.1	-27.8	14.9	1.06e-04	0	44	102	1048576	12	4368
2026-01-25 04:15:33.57	254.16	9.42	-26.0	-27.6	15.0	1.51e-03	0	44	102	1048576	12	4317
2026-01-25 04:15:34.58	254.07	9.35	-26.1	-27.7	14.9	0.00e+00	0	44	102	1048576	12	4335
2026-01-25 04:15:35.58	253.98	9.28	-26.1	-27.7	14.9	1.69e-04	0	44	102	1048576	12	4358
2026-01-25 04:15:36.58	253.88	9.20	-26.2	-28.0	14.7	0.00e+00	0	44	102	1048576	12	4423
2026-01-25 04:15:37.59	253.79	9.13	-26.1	-27.8	14.8	1.93e-03	0	44	102	1048576	12	4386
2026-01-25 04:15:38.60	253.70	9.06	-26.0	-27.6	14.9	0.00e+00	0	44	102	1048576	12	4323
2026-01-25 04:15:39.60	253.61	8.99	-26.0	-27.6	14.9	0.00e+00	0	44	102	1048576	12	4324
2026-01-25 04:15:40.61	253.51	8.92	-26.1	-27.9	14.8	1.76e-03	0	44	102	1048576	12	4400
2026-01-25 04:15:41.61	253.42	8.84	-26.1	-27.8	14.8	0.00e+00	0	44	102	1048576	12	4378
2026-01-25 04:15:42.62	253.33	8.77	-26.1	-27.7	14.9	0.00e+00	0	44	102	1048576	12	4337
2026-01-25 04:15:43.62	253.24	8.70	-26.2	-27.9	14.7	0.00e+00	0	44	102	1048576	12	4405
2026-01-25 04:15:44.63	253.15	8.63	-26.1	-27.9	14.7	0.00e+00	0	44	102	1048576	12	4391
2026-01-25 04:15:45.63	253.06	8.56	-26.1	-27.7	14.8	0.00e+00	0	44	102	1048576	12	4349
2026-01-25 04:15:46.63	252.98	8.49	-26.1	-27.8	14.8	0.00e+00	0	44	102	1048576	12	4365
2026-01-25 04:15:47.63	252.89	8.42	-26.2	-28.0	14.6	0.00e+00	0	44	102	1048576	12	4432
2026-01-25 04:15:48.63	252.80	8.35	-26.4	-28.4	14.4	2.20e-06	0	44	102	1048576	12	4555
2026-01-25 04:15:49.62	252.71	8.28	-26.4	-28.0	14.3	2.20e-06	0	44	102	1048576	13	4314
2026-01-25 04:15:50.63	252.63	8.21	-26.3	-28.2	14.5	0.00e+00	0	44	102	1048576	12	4502
2026-01-25 04:15:51.62	252.54	8.14	-26.3	-28.3	14.4	1.10e-06	0	44	102	1048576	12	4531
2026-01-25 04:15:52.63	252.45	8.07	-26.3	-28.3	14.4	0.00e+00	0	44	102	1048576	12	4506
2026-01-25 04:15:53.63	252.37	8.00	-26.3	-28.4	14.4	1.10e-06	0	44	102	1048576	12	4542
2026-01-25 04:15:54.63	252.28	7.93	-26.3	-28.3	14.4	1.10e-06	0	44	102	1048576	12	4532
2026-01-25 04:15:55.64	252.20	7.86	-26.5	-28.6	14.2	1.10e-06	0	44	102	1048576	12	4622
2026-01-25 04:15:56.64	252.12	7.79	-26.5	-28.2	14.2	1.10e-06	0	44	102	1048576	13	4372
2026-01-25 04:15:57.65	252.03	7.72	-26.3	-28.2	14.4	0.00e+00	0	44	102	1048576	12	4498
2026-01-25 04:15:58.66	251.95	7.65	-26.3	-28.4	14.3	0.00e+00	0	44	102	1048576	12	4543
2026-01-25 04:15:59.66	251.86	7.58	-26.3	-28.2	14.4	1.10e-06	0	44	102	1048576	12	4495
2026-01-25 04:16:00.66	251.78	7.52	-26.2	-28.1	14.5	0.00e+00	0	44	102	1048576	12	4463
2026-01-25 04:16:01.67	251.70	7.45	-26.2	-28.1	14.4	1.10e-06	0	44	102	1048576	12	4469
2026-01-25 04:16:02.67	251.62	7.38	-26.3	-28.2	14.4	0.00e+00	0	44	102	1048576	12	4504
2026-01-25 04:16:03.68	251.53	7.31	-26.3	-28.3	14.3	2.20e-06	0	44	102	1048576	12	4510
2026-01-25 04:16:04.69	251.45	7.24	-26.3	-28.3	14.3	0.00e+00	0	44	102	1048576	12	4514
2026-01-25 04:16:05.69	251.37	7.17	-26.5	-28.6	14.1	0.00e+00	0	44	102	1048576	12	4629
2026-01-25 04:16:06.69	251.29	7.10	-26.4	-28.1	14.1	1.10e-06	0	44	102	1048576	13	4353
2026-01-25 04:16:07.69	251.21	7.04	-32.5	-43.1	3.8	8.38e-01	0	44	104	1048576	25	12188
2026-01-25 04:16:08.70	251.13	6.97	-33.0	-44.1	3.8	8.46e-01	0	44	104	1048576	26	12959
2026-01-25 04:16:09.70	251.05	6.90	-33.4	-44.7	3.8	8.47e-01	0	44	104	1048576	26	13360

#Closed at: 2026-01-25 04:16:10
#Recorded file [1 MB]: D:/data/31010_260125_070543.dat