passes_logs/2026/01/25/R2M6_AANII_01/R2M6_AANII_01__20260125_112106_SUOMI_NPP_rec.log

#Pass ID: 20260125_112106_SUOMI NPP
#Satellite: SUOMI NPP
#Configuration: NPP
#almurnet v.1.7.20240730
#Start time: 2026-01-25 11:21:07

#Version: 2.2.20231116
#Station: R2M6_AANII_01
#Location: 30.233357 lon 59.946436 lat
#TLE: 1 37849U 11061A   26024.54906732  .00000185  00000+0  10878-3 0  9990
#TLE: 2 37849  98.7821 326.5159 0002200  47.3746 312.7615 14.19529340738061

#Time	Az	El	Level	Level2	SNR	BER	BlckErr	Temp	State	Recorded	gain1	gain2
2026-01-25 11:21:07.60	190.53	7.05	-31.3	-35.1	5.1	1.25e+00	0	41	0	0	23	5585
2026-01-25 11:21:08.59	190.58	7.13	-31.7	-36.5	4.8	1.34e+00	0	41	104	0	24	6267
2026-01-25 11:21:09.60	190.64	7.20	-31.7	-36.4	7.1	1.09e-01	0	41	0	0	24	6200
2026-01-25 11:21:10.61	190.70	7.27	-31.7	-36.4	7.2	1.64e-01	0	41	102	1048576	24	6159
2026-01-25 11:21:11.61	190.76	7.35	-31.6	-35.8	7.7	1.10e-01	0	41	102	1048576	24	5795
2026-01-25 11:21:12.62	190.82	7.42	-31.4	-34.8	8.5	5.67e-02	0	41	102	1048576	24	5329
2026-01-25 11:21:13.62	190.88	7.49	-31.2	-34.4	9.3	3.46e-02	0	41	102	1048576	23	5186
2026-01-25 11:21:14.63	190.94	7.57	-31.1	-33.8	9.8	1.33e-02	0	41	102	1048576	23	4922
2026-01-25 11:21:15.63	191.00	7.64	-30.9	-33.3	10.1	6.93e-03	0	41	102	1048576	23	4740
2026-01-25 11:21:16.64	191.07	7.72	-30.8	-32.8	10.6	4.93e-03	0	42	102	1048576	23	4527
2026-01-25 11:21:17.64	191.13	7.79	-30.8	-33.2	10.7	2.87e-03	0	41	102	1048576	22	4747
2026-01-25 11:21:18.65	191.19	7.87	-30.8	-33.3	10.6	4.24e-03	0	41	102	1048576	22	4799
2026-01-25 11:21:19.64	191.25	7.94	-30.7	-33.0	10.8	3.14e-03	0	42	102	1048576	22	4695
2026-01-25 11:21:20.65	191.31	8.02	-30.8	-33.3	10.6	3.16e-03	0	41	102	1048576	22	4801
2026-01-25 11:21:21.65	191.38	8.09	-30.9	-33.6	10.4	3.95e-03	0	42	102	1048576	22	4922
2026-01-25 11:21:22.64	191.44	8.17	-30.8	-33.4	10.5	4.31e-03	0	42	102	1048576	22	4838
2026-01-25 11:21:23.64	191.50	8.24	-30.7	-32.9	10.9	3.65e-03	0	42	102	1048576	22	4659
2026-01-25 11:21:24.65	191.57	8.32	-30.7	-33.0	10.9	2.18e-03	0	42	102	1048576	22	4682
2026-01-25 11:21:25.65	191.63	8.39	-30.8	-33.2	10.7	3.31e-03	0	41	102	1048576	22	4772
2026-01-25 11:21:26.65	191.69	8.47	-30.7	-33.0	10.9	2.32e-03	0	42	102	1048576	22	4677
2026-01-25 11:21:27.66	191.76	8.55	-30.9	-33.8	10.3	3.76e-03	0	42	102	1048576	22	4973
2026-01-25 11:21:28.67	191.82	8.62	-30.9	-33.5	10.5	5.16e-03	0	42	102	1048576	22	4862
2026-01-25 11:21:29.67	191.89	8.70	-30.8	-33.2	10.7	3.02e-03	0	42	102	1048576	22	4769
2026-01-25 11:21:30.67	191.95	8.78	-30.7	-33.0	10.9	1.77e-03	0	42	102	1048576	22	4665
2026-01-25 11:21:31.68	192.02	8.86	-30.7	-32.9	11.0	1.73e-03	0	42	102	1048576	22	4648
2026-01-25 11:21:32.69	192.09	8.93	-30.6	-32.7	11.1	1.96e-03	0	42	102	1048576	22	4569
2026-01-25 11:21:33.69	192.15	9.01	-30.7	-32.9	11.0	1.76e-03	0	42	102	1048576	22	4628
2026-01-25 11:21:34.70	192.22	9.09	-30.7	-32.8	11.1	1.63e-03	0	42	102	1048576	22	4617
2026-01-25 11:21:35.70	192.29	9.17	-30.8	-33.4	10.7	2.24e-03	0	42	102	1048576	22	4816
2026-01-25 11:21:36.71	192.36	9.25	-30.8	-33.3	10.7	3.61e-03	0	42	102	1048576	22	4773
2026-01-25 11:21:37.71	192.42	9.33	-30.7	-32.8	11.0	2.28e-03	0	42	102	1048576	22	4606
2026-01-25 11:21:38.72	192.49	9.41	-30.6	-32.7	11.1	1.95e-03	0	42	102	1048576	22	4589
2026-01-25 11:21:39.72	192.56	9.48	-30.6	-32.7	11.1	1.42e-03	0	42	102	1048576	22	4584
2026-01-25 11:21:40.72	192.63	9.56	-30.6	-32.7	11.1	1.79e-03	0	42	102	1048576	22	4581
2026-01-25 11:21:41.73	192.70	9.64	-30.7	-32.9	10.9	1.72e-03	0	42	102	1048576	22	4631
2026-01-25 11:21:42.73	192.77	9.72	-30.8	-33.2	10.7	2.33e-03	0	42	102	1048576	22	4765
2026-01-25 11:21:43.73	192.84	9.80	-30.7	-33.0	10.8	3.38e-03	0	42	102	1048576	22	4697
2026-01-25 11:21:44.74	192.91	9.88	-30.5	-32.3	11.3	1.38e-03	0	42	102	1048576	22	4438
2026-01-25 11:21:45.74	192.98	9.96	-30.3	-31.9	11.5	1.14e-03	0	42	102	1048576	22	4296
2026-01-25 11:21:46.75	193.05	10.05	-30.2	-32.1	11.7	7.20e-04	0	42	102	1048576	21	4447
2026-01-25 11:21:47.75	193.12	10.13	-30.2	-32.1	11.7	5.21e-04	0	42	102	1048576	21	4465
2026-01-25 11:21:48.76	193.20	10.21	-30.2	-31.9	11.8	5.68e-04	0	42	102	1048576	21	4382
2026-01-25 11:21:49.76	193.27	10.29	-30.3	-32.2	11.8	3.39e-04	0	42	102	1048576	21	4480
2026-01-25 11:21:50.76	193.34	10.37	-30.2	-31.9	12.0	3.51e-04	0	42	102	1048576	21	4384
2026-01-25 11:21:51.77	193.41	10.45	-30.1	-31.5	12.3	1.88e-04	0	42	102	1048576	21	4254
2026-01-25 11:21:52.78	193.49	10.53	-30.1	-31.6	12.3	1.32e-04	0	43	102	1048576	21	4262
2026-01-25 11:21:53.79	193.56	10.62	-30.1	-31.6	12.3	1.69e-04	0	42	102	1048576	21	4262
2026-01-25 11:21:54.79	193.64	10.70	-30.1	-31.5	12.4	1.34e-04	0	42	102	1048576	21	4228
2026-01-25 11:21:55.80	193.71	10.78	-30.1	-31.6	12.4	1.90e-04	0	42	102	1048576	21	4250
2026-01-25 11:21:56.80	193.79	10.87	-30.3	-32.0	12.1	2.12e-04	0	42	102	1048576	21	4399
2026-01-25 11:21:57.80	193.86	10.95	-30.2	-31.7	12.3	2.37e-04	0	42	102	1048576	21	4289
2026-01-25 11:21:58.80	193.94	11.03	-30.0	-31.3	12.7	1.11e-04	0	42	102	1048576	21	4143
2026-01-25 11:21:59.80	194.01	11.12	-30.0	-31.1	12.7	5.72e-05	0	42	102	1048576	21	4102
2026-01-25 11:22:00.81	194.09	11.20	-29.8	-30.8	12.9	5.87e-05	0	42	102	1048576	21	4009
2026-01-25 11:22:01.81	194.17	11.28	-29.8	-30.8	12.7	7.32e-05	0	42	102	1048576	21	4035
2026-01-25 11:22:02.81	194.24	11.37	-29.8	-31.4	12.6	6.79e-05	0	43	102	1048576	20	4314
2026-01-25 11:22:03.81	194.32	11.45	-29.7	-31.2	12.6	9.30e-05	0	43	102	1048576	20	4274
2026-01-25 11:22:04.82	194.40	11.54	-29.8	-31.6	12.4	8.01e-05	0	42	102	1048576	20	4386
2026-01-25 11:22:05.82	194.48	11.62	-29.7	-31.2	12.5	1.17e-04	0	43	102	1048576	20	4278
2026-01-25 11:22:06.82	194.56	11.71	-29.5	-30.8	12.6	1.25e-04	0	42	102	1048576	20	4178
2026-01-25 11:22:07.83	194.64	11.79	-29.5	-30.9	12.3	1.79e-04	0	43	102	1048576	20	4229
2026-01-25 11:22:08.83	194.72	11.88	-29.4	-30.7	12.5	1.46e-04	0	43	102	1048576	20	4155
2026-01-25 11:22:09.83	194.80	11.97	-29.4	-30.6	12.6	1.11e-04	0	43	102	1048576	20	4152
2026-01-25 11:22:10.84	194.88	12.05	-29.4	-30.8	12.5	1.20e-04	0	43	102	1048576	20	4188
2026-01-25 11:22:11.84	194.96	12.14	-29.4	-30.6	12.7	7.55e-05	0	43	102	1048576	20	4138
2026-01-25 11:22:12.85	195.04	12.23	-29.5	-30.6	12.9	4.11e-05	0	43	102	1048576	20	4104
2026-01-25 11:22:13.85	195.13	12.31	-29.4	-30.4	13.1	2.97e-05	0	43	102	1048576	20	4038
2026-01-25 11:22:14.86	195.21	12.40	-29.5	-30.6	13.0	2.89e-05	0	43	102	1048576	20	4095
2026-01-25 11:22:15.87	195.29	12.49	-29.5	-30.4	13.4	2.13e-05	0	42	102	1048576	20	4002
2026-01-25 11:22:16.87	195.38	12.58	-29.5	-30.4	13.6	4.50e-06	0	43	102	1048576	20	3979
2026-01-25 11:22:17.88	195.46	12.67	-29.7	-30.7	13.4	6.80e-06	0	43	102	1048576	20	4071
2026-01-25 11:22:18.88	195.55	12.76	-29.5	-30.3	13.7	1.90e-05	0	42	102	1048576	20	3939
2026-01-25 11:22:19.89	195.63	12.85	-29.4	-30.1	13.9	4.50e-06	0	43	102	1048576	20	3888
2026-01-25 11:22:20.90	195.72	12.94	-29.5	-30.2	13.8	3.80e-06	0	43	102	1048576	20	3920
2026-01-25 11:22:21.90	195.81	13.02	-29.4	-30.0	13.9	1.50e-06	0	43	102	1048576	20	3858
2026-01-25 11:22:22.91	195.89	13.11	-29.3	-29.8	14.0	1.50e-06	0	43	102	1048576	20	3818
2026-01-25 11:22:23.91	195.98	13.20	-29.4	-30.6	13.9	1.50e-06	0	43	102	1048576	19	4103
2026-01-25 11:22:24.92	196.07	13.30	-29.4	-30.5	14.0	7.00e-07	0	43	102	1048576	19	4080
2026-01-25 11:22:25.92	196.16	13.39	-29.4	-30.5	13.9	7.60e-06	0	43	102	1048576	19	4094
2026-01-25 11:22:26.93	196.25	13.48	-29.5	-30.7	13.9	2.20e-06	0	43	102	1048576	19	4130
2026-01-25 11:22:27.93	196.34	13.57	-29.6	-30.9	13.7	6.10e-06	0	43	102	1048576	19	4212
2026-01-25 11:22:28.93	196.43	13.66	-29.4	-30.6	13.9	2.20e-06	0	43	102	1048576	19	4102
2026-01-25 11:22:29.93	196.52	13.75	-29.4	-30.5	13.9	3.00e-06	0	43	102	1048576	19	4081
2026-01-25 11:22:30.94	196.61	13.84	-29.7	-31.2	13.4	8.30e-06	0	43	102	1048576	19	4307
2026-01-25 11:22:31.94	196.70	13.93	-29.6	-31.0	13.5	7.60e-06	0	43	102	1048576	19	4234
2026-01-25 11:22:32.95	196.79	14.03	-29.5	-30.7	13.7	1.06e-05	0	43	102	1048576	19	4146
2026-01-25 11:22:33.96	196.88	14.12	-29.6	-31.0	13.4	1.14e-05	0	43	102	1048576	19	4251
2026-01-25 11:22:34.96	196.98	14.21	-29.5	-31.0	13.4	1.06e-05	0	43	102	1048576	19	4244
2026-01-25 11:22:35.97	197.07	14.31	-29.4	-30.7	13.5	1.29e-05	0	43	102	1048576	19	4165
2026-01-25 11:22:36.98	197.17	14.40	-29.4	-30.8	13.3	9.90e-06	0	43	102	1048576	19	4205
2026-01-25 11:22:37.98	197.26	14.50	-29.4	-30.8	13.3	2.13e-05	0	43	102	1048576	19	4194
2026-01-25 11:22:38.99	197.36	14.59	-29.5	-31.0	13.1	3.12e-05	0	43	102	1048576	19	4268
2026-01-25 11:22:39.99	197.45	14.68	-29.4	-30.7	13.3	2.28e-05	0	43	102	1048576	19	4182
2026-01-25 11:22:41.00	197.55	14.78	-29.5	-30.9	13.3	2.67e-05	0	43	102	1048576	19	4234
2026-01-25 11:22:42.00	197.65	14.87	-29.6	-31.2	13.3	2.67e-05	0	43	102	1048576	19	4309
2026-01-25 11:22:43.01	197.75	14.97	-29.6	-31.1	13.4	1.22e-05	0	43	102	1048576	19	4272
2026-01-25 11:22:44.01	197.84	15.07	-29.7	-31.3	13.3	2.36e-05	0	43	102	1048576	19	4352
2026-01-25 11:22:45.01	197.94	15.16	-29.7	-31.3	13.4	2.28e-05	0	43	102	1048576	19	4342
2026-01-25 11:22:46.00	198.04	15.26	-29.9	-31.8	13.1	1.67e-05	0	43	102	1048576	19	4475
2026-01-25 11:22:47.01	198.14	15.35	-29.9	-31.7	13.2	2.13e-05	0	43	102	1048576	19	4455
2026-01-25 11:22:48.01	198.24	15.45	-29.9	-31.4	13.0	3.20e-05	0	43	102	1048576	20	4276
2026-01-25 11:22:49.02	198.35	15.55	-29.9	-31.3	13.2	3.20e-05	0	43	102	1048576	20	4220
2026-01-25 11:22:50.02	198.45	15.65	-29.9	-31.3	13.1	2.21e-05	0	43	102	1048576	20	4233
2026-01-25 11:22:51.04	198.55	15.75	-29.9	-31.3	13.2	1.67e-05	0	43	102	1048576	20	4242
2026-01-25 11:22:52.04	198.66	15.84	-30.1	-31.8	12.9	3.05e-05	0	43	102	1048576	20	4403
2026-01-25 11:22:53.05	198.76	15.94	-30.0	-31.6	13.1	3.66e-05	0	43	102	1048576	20	4315
2026-01-25 11:22:54.06	198.87	16.04	-29.9	-31.3	13.3	2.89e-05	0	43	102	1048576	20	4200
2026-01-25 11:22:55.07	198.97	16.14	-29.9	-31.3	13.4	1.14e-05	0	43	102	1048576	20	4202
2026-01-25 11:22:56.07	199.08	16.24	-29.9	-31.1	13.5	1.60e-05	0	43	102	1048576	20	4145
2026-01-25 11:22:57.08	199.19	16.34	-29.8	-31.0	13.5	1.98e-05	0	43	102	1048576	20	4115
2026-01-25 11:22:58.08	199.29	16.44	-29.8	-31.0	13.6	1.60e-05	0	43	102	1048576	20	4110
2026-01-25 11:22:59.08	199.40	16.54	-30.2	-31.9	13.0	1.83e-05	0	43	102	1048576	20	4404
2026-01-25 11:23:00.08	199.51	16.64	-29.9	-31.1	13.6	3.20e-05	0	43	102	1048576	20	4137
2026-01-25 11:23:01.08	199.62	16.74	-29.9	-31.1	13.5	1.06e-05	0	43	102	1048576	20	4139
2026-01-25 11:23:02.07	199.73	16.84	-29.8	-31.0	13.6	1.52e-05	0	43	102	1048576	20	4112
2026-01-25 11:23:03.07	199.84	16.94	-30.0	-31.5	13.3	1.98e-05	0	43	102	1048576	20	4267
2026-01-25 11:23:04.08	199.95	17.05	-30.0	-31.5	13.2	2.28e-05	0	43	102	1048576	20	4275
2026-01-25 11:23:05.09	200.06	17.15	-30.1	-31.8	13.0	1.90e-05	0	43	102	1048576	20	4377
2026-01-25 11:23:06.09	200.18	17.25	-30.1	-31.7	13.1	3.20e-05	0	43	102	1048576	20	4342
2026-01-25 11:23:07.10	200.29	17.35	-30.2	-32.0	12.9	3.58e-05	0	43	102	1048576	20	4435
2026-01-25 11:23:08.10	200.41	17.46	-30.3	-32.3	12.7	5.41e-05	0	43	102	1048576	20	4541
2026-01-25 11:23:09.11	200.52	17.56	-30.1	-31.9	13.0	4.11e-05	0	43	102	1048576	20	4400
2026-01-25 11:23:10.11	200.64	17.67	-30.1	-31.7	13.1	1.75e-05	0	43	102	1048576	20	4350
2026-01-25 11:23:11.11	200.76	17.77	-30.0	-31.6	13.2	3.58e-05	0	43	102	1048576	20	4298
2026-01-25 11:23:12.12	200.87	17.88	-30.0	-31.6	13.2	2.59e-05	0	43	102	1048576	20	4315
2026-01-25 11:23:13.12	200.99	17.98	-30.0	-31.5	13.3	1.67e-05	0	43	102	1048576	20	4273
2026-01-25 11:23:14.13	201.11	18.09	-29.9	-31.3	13.4	8.30e-06	0	43	102	1048576	20	4217
2026-01-25 11:23:15.13	201.23	18.19	-29.9	-31.1	13.5	1.37e-05	0	43	102	1048576	20	4156
2026-01-25 11:23:16.14	201.35	18.30	-29.8	-30.9	13.7	1.29e-05	0	43	102	1048576	20	4092
2026-01-25 11:23:17.14	201.48	18.40	-29.9	-31.3	13.4	1.22e-05	0	43	102	1048576	20	4220
2026-01-25 11:23:18.13	201.60	18.51	-30.0	-31.6	13.2	1.22e-05	0	43	102	1048576	20	4291
2026-01-25 11:23:19.13	201.72	18.62	-29.8	-31.0	13.7	6.80e-06	0	43	102	1048576	20	4109
2026-01-25 11:23:20.14	201.85	18.72	-29.9	-31.3	13.4	6.80e-06	0	43	102	1048576	20	4202
2026-01-25 11:23:21.14	201.97	18.83	-29.9	-31.2	13.5	1.14e-05	0	43	102	1048576	20	4177
2026-01-25 11:23:22.15	202.10	18.94	-29.8	-30.9	13.6	3.80e-06	0	43	102	1048576	20	4092
2026-01-25 11:23:23.15	202.22	19.05	-29.9	-31.2	13.5	9.10e-06	0	43	102	1048576	20	4180
2026-01-25 11:23:24.15	202.35	19.16	-29.9	-31.2	13.6	1.37e-05	0	43	102	1048576	20	4161
2026-01-25 11:23:25.16	202.48	19.27	-30.0	-31.4	13.5	6.80e-06	0	43	102	1048576	20	4220
2026-01-25 11:23:26.17	202.61	19.38	-30.0	-31.3	13.5	1.67e-05	0	43	102	1048576	20	4189
2026-01-25 11:23:27.17	202.74	19.48	-30.0	-31.4	13.5	1.22e-05	0	43	102	1048576	20	4224
2026-01-25 11:23:28.18	202.87	19.60	-30.0	-31.5	13.4	1.22e-05	0	43	102	1048576	20	4264
2026-01-25 11:23:29.18	203.01	19.71	-30.0	-31.4	13.4	1.44e-05	0	43	102	1048576	20	4240
2026-01-25 11:23:30.19	203.14	19.82	-30.1	-31.8	13.2	1.90e-05	0	43	102	1048576	20	4357
2026-01-25 11:23:31.19	203.27	19.93	-30.0	-31.3	13.5	2.67e-05	0	43	102	1048576	20	4196
2026-01-25 11:23:32.20	203.41	20.04	-30.1	-31.6	13.3	1.06e-05	0	43	102	1048576	20	4278
2026-01-25 11:23:33.21	203.55	20.15	-30.1	-31.5	13.4	1.67e-05	0	43	102	1048576	20	4260
2026-01-25 11:23:34.21	203.68	20.26	-30.0	-31.3	13.6	7.60e-06	0	43	102	1048576	20	4192
2026-01-25 11:23:35.21	203.82	20.38	-30.1	-31.5	13.4	1.06e-05	0	43	102	1048576	20	4275
2026-01-25 11:23:36.22	203.96	20.49	-30.0	-31.4	13.6	6.80e-06	0	43	102	1048576	20	4211
2026-01-25 11:23:37.23	204.10	20.60	-30.1	-31.6	13.4	2.20e-06	0	43	102	1048576	20	4271
2026-01-25 11:23:38.23	204.24	20.72	-30.2	-31.9	13.2	6.80e-06	0	43	102	1048576	20	4377
2026-01-25 11:23:39.24	204.39	20.83	-30.2	-31.9	13.2	2.05e-05	0	43	102	1048576	20	4383
2026-01-25 11:23:40.24	204.53	20.94	-30.2	-31.9	13.3	1.06e-05	0	43	102	1048576	20	4376
2026-01-25 11:23:41.25	204.68	21.06	-30.3	-32.2	13.1	1.98e-05	0	43	102	1048576	20	4466
2026-01-25 11:23:42.25	204.82	21.17	-30.3	-32.2	13.0	3.96e-05	0	43	102	1048576	20	4466
2026-01-25 11:23:43.26	204.97	21.29	-30.2	-31.9	13.2	2.59e-05	0	43	102	1048576	20	4370
2026-01-25 11:23:44.26	205.11	21.41	-30.3	-32.1	13.1	2.28e-05	0	43	102	1048576	20	4428
2026-01-25 11:23:45.27	205.26	21.52	-30.4	-32.4	12.9	4.11e-05	0	43	102	1048576	20	4543
2026-01-25 11:23:46.27	205.41	21.64	-30.2	-31.9	13.2	3.73e-05	0	43	102	1048576	20	4363
2026-01-25 11:23:47.28	205.56	21.75	-30.2	-31.8	13.3	2.82e-05	0	43	102	1048576	20	4356
2026-01-25 11:23:48.28	205.72	21.87	-30.3	-32.2	13.1	2.28e-05	0	43	102	1048576	20	4459
2026-01-25 11:23:49.29	205.87	21.99	-30.5	-32.7	12.8	5.95e-05	0	43	102	1048576	20	4627
2026-01-25 11:23:50.28	206.02	22.11	-30.6	-32.5	12.5	7.55e-05	0	43	102	1048576	21	4488
2026-01-25 11:23:51.29	206.18	22.22	-30.7	-32.9	12.2	1.06e-04	0	43	102	1048576	21	4615
2026-01-25 11:23:52.29	206.33	22.34	-30.5	-32.3	12.7	6.86e-05	0	43	102	1048576	21	4412
2026-01-25 11:23:53.28	206.49	22.46	-30.4	-32.0	12.9	7.01e-05	0	43	102	1048576	21	4323
2026-01-25 11:23:54.28	206.65	22.58	-30.5	-32.2	12.7	5.03e-05	0	43	102	1048576	21	4392
2026-01-25 11:23:55.29	206.81	22.70	-30.5	-32.3	12.7	5.95e-05	0	44	102	1048576	21	4396
2026-01-25 11:23:56.30	206.97	22.82	-30.4	-31.9	13.0	5.79e-05	0	43	102	1048576	21	4272
2026-01-25 11:23:57.31	207.13	22.94	-30.5	-32.1	12.8	7.93e-05	0	43	102	1048576	21	4355
2026-01-25 11:23:58.31	207.30	23.06	-30.3	-31.7	13.1	6.40e-05	0	43	102	1048576	21	4210
2026-01-25 11:23:59.32	207.46	23.18	-30.1	-31.1	13.5	2.44e-05	0	43	102	1048576	21	4026
2026-01-25 11:24:00.33	207.63	23.30	-30.1	-31.0	13.5	1.44e-05	0	43	102	1048576	21	3999
2026-01-25 11:24:01.33	207.79	23.42	-30.1	-31.1	13.5	8.30e-06	0	43	102	1048576	21	4033
2026-01-25 11:24:02.33	207.96	23.54	-29.9	-30.6	13.8	5.30e-06	0	43	102	1048576	21	3901
2026-01-25 11:24:03.34	208.13	23.67	-29.6	-30.3	14.3	7.00e-07	0	43	102	1048576	20	3881
2026-01-25 11:24:04.35	208.31	23.79	-29.5	-29.9	14.6	7.00e-07	0	43	102	1048576	20	3795
2026-01-25 11:24:05.35	208.48	23.91	-29.4	-29.8	14.6	6.80e-06	0	43	102	1048576	20	3761
2026-01-25 11:24:06.35	208.65	24.03	-29.3	-30.0	14.9	0.00e+00	0	43	102	1048576	19	3889
2026-01-25 11:24:07.35	208.82	24.16	-29.2	-29.7	15.1	7.00e-07	0	43	102	1048576	19	3806
2026-01-25 11:24:08.36	209.00	24.28	-29.2	-29.8	15.0	2.20e-06	0	43	102	1048576	19	3839
2026-01-25 11:24:09.36	209.18	24.40	-29.3	-30.0	14.9	0.00e+00	0	43	102	1048576	19	3899
2026-01-25 11:24:10.36	209.36	24.53	-29.4	-30.2	14.8	0.00e+00	0	43	102	1048576	19	3952
2026-01-25 11:24:11.36	209.54	24.65	-29.5	-30.4	14.7	6.10e-06	0	43	102	1048576	19	4006
2026-01-25 11:24:12.36	209.72	24.78	-29.8	-31.2	14.2	1.50e-06	0	43	102	1048576	19	4242
2026-01-25 11:24:13.37	209.90	24.90	-29.8	-31.2	14.2	7.00e-07	0	43	102	1048576	19	4230
2026-01-25 11:24:14.36	210.08	25.02	-29.9	-31.4	14.0	6.10e-06	0	43	102	1048576	19	4300
2026-01-25 11:24:15.37	210.27	25.15	-30.0	-31.3	13.8	1.50e-06	0	43	102	1048576	20	4185
2026-01-25 11:24:16.37	210.46	25.28	-30.1	-31.5	13.6	1.37e-05	0	43	102	1048576	20	4244
2026-01-25 11:24:17.38	210.65	25.40	-29.9	-31.1	13.9	4.50e-06	0	44	102	1048576	20	4103
2026-01-25 11:24:18.38	210.84	25.53	-29.8	-30.9	14.0	1.50e-06	0	44	102	1048576	20	4043
2026-01-25 11:24:19.39	211.03	25.66	-29.8	-30.8	14.1	7.00e-07	0	43	102	1048576	20	4032
2026-01-25 11:24:20.40	211.23	25.78	-29.7	-30.4	14.3	1.50e-06	0	43	102	1048576	20	3905
2026-01-25 11:24:21.41	211.42	25.91	-29.4	-29.8	14.7	0.00e+00	0	43	102	1048576	20	3748
2026-01-25 11:24:22.41	211.62	26.04	-29.8	-30.8	14.1	1.50e-06	0	44	102	1048576	20	4028
2026-01-25 11:24:23.42	211.82	26.17	-29.9	-31.1	14.0	7.00e-07	0	43	102	1048576	20	4101
2026-01-25 11:24:24.42	212.02	26.30	-30.0	-31.3	13.8	3.00e-06	0	43	102	1048576	20	4189
2026-01-25 11:24:25.43	212.22	26.42	-30.3	-32.2	13.3	8.30e-06	0	43	102	1048576	20	4449
2026-01-25 11:24:26.42	212.42	26.55	-30.3	-32.2	13.2	1.67e-05	0	43	102	1048576	20	4454
2026-01-25 11:24:27.43	212.62	26.68	-30.6	-32.5	12.7	4.88e-05	0	44	102	1048576	21	4470
2026-01-25 11:24:28.43	212.83	26.81	-30.6	-32.4	12.7	1.13e-04	0	44	102	1048576	21	4441
2026-01-25 11:24:29.44	213.04	26.94	-30.5	-32.2	12.9	7.47e-05	0	44	102	1048576	21	4368
2026-01-25 11:24:30.44	213.25	27.07	-30.3	-31.7	13.3	4.65e-05	0	43	102	1048576	21	4199
2026-01-25 11:24:31.45	213.46	27.20	-30.4	-31.8	13.2	2.74e-05	0	43	102	1048576	21	4228
2026-01-25 11:24:32.46	213.67	27.33	-30.2	-31.4	13.5	3.05e-05	0	44	102	1048576	21	4099
2026-01-25 11:24:33.46	213.89	27.46	-30.4	-31.7	13.2	2.05e-05	0	43	102	1048576	21	4214
2026-01-25 11:24:34.46	214.10	27.59	-30.4	-31.8	13.3	2.44e-05	0	43	102	1048576	21	4220
2026-01-25 11:24:35.46	214.32	27.72	-30.5	-32.2	12.9	3.12e-05	0	43	102	1048576	21	4364
2026-01-25 11:24:36.47	214.54	27.85	-30.7	-32.7	12.7	7.47e-05	0	44	102	1048576	21	4519
2026-01-25 11:24:37.47	214.76	27.98	-30.8	-32.8	12.5	8.16e-05	0	44	102	1048576	21	4578
2026-01-25 11:24:38.47	214.98	28.11	-31.0	-33.4	12.1	1.56e-04	0	44	102	1048576	21	4767
2026-01-25 11:24:39.48	215.21	28.24	-31.1	-33.5	11.8	3.39e-04	0	43	102	1048576	22	4701
2026-01-25 11:24:40.49	215.44	28.37	-31.4	-34.2	11.2	7.84e-04	0	43	102	1048576	22	4974
2026-01-25 11:24:41.49	215.67	28.50	-31.2	-33.7	11.6	7.98e-04	0	43	102	1048576	22	4777
2026-01-25 11:24:42.50	215.90	28.64	-31.0	-33.1	12.0	4.14e-04	0	44	102	1048576	22	4554
2026-01-25 11:24:43.50	216.13	28.77	-30.9	-32.6	12.4	2.10e-04	0	43	102	1048576	22	4390
2026-01-25 11:24:44.50	216.36	28.90	-30.8	-32.5	12.3	1.17e-04	0	44	102	1048576	22	4376
2026-01-25 11:24:45.49	216.59	29.03	-30.8	-32.4	12.5	1.43e-04	0	44	102	1048576	22	4340
2026-01-25 11:24:46.49	216.83	29.16	-31.1	-33.3	11.9	2.50e-04	0	44	102	1048576	22	4648
2026-01-25 11:24:47.49	217.07	29.29	-31.3	-33.8	11.4	5.90e-04	0	44	102	1048576	22	4825
2026-01-25 11:24:48.50	217.31	29.42	-31.2	-33.8	11.5	5.05e-04	0	44	102	1048576	22	4818
2026-01-25 11:24:49.50	217.56	29.56	-31.3	-33.9	11.5	8.02e-04	0	44	102	1048576	22	4853
2026-01-25 11:24:50.51	217.80	29.69	-31.3	-34.0	11.4	8.39e-04	0	43	102	1048576	22	4893
2026-01-25 11:24:51.51	218.05	29.82	-31.3	-33.9	11.5	1.14e-03	0	43	102	1048576	22	4858
2026-01-25 11:24:52.52	218.30	29.95	-31.2	-33.7	11.7	6.37e-04	0	44	102	1048576	22	4773
2026-01-25 11:24:53.53	218.55	30.09	-31.2	-33.7	11.6	9.90e-04	0	44	102	1048576	22	4780
2026-01-25 11:24:54.53	218.81	30.22	-31.0	-32.9	12.2	2.30e-04	0	44	102	1048576	22	4470
2026-01-25 11:24:55.54	219.06	30.35	-30.5	-31.6	13.0	1.33e-04	0	44	102	1048576	22	4077
2026-01-25 11:24:56.54	219.32	30.48	-30.5	-31.5	13.2	4.11e-05	0	43	102	1048576	22	4051
2026-01-25 11:24:57.55	219.58	30.62	-30.5	-31.7	13.1	5.03e-05	0	44	102	1048576	22	4100
2026-01-25 11:24:58.55	219.84	30.75	-30.8	-32.4	12.5	9.38e-05	0	43	102	1048576	22	4346
2026-01-25 11:24:59.55	220.11	30.88	-30.9	-32.8	12.3	1.69e-04	0	44	102	1048576	22	4446
2026-01-25 11:25:00.55	220.37	31.01	-31.0	-33.0	12.2	1.88e-04	0	43	102	1048576	22	4520
2026-01-25 11:25:01.55	220.64	31.14	-31.0	-33.0	12.2	2.36e-04	0	44	102	1048576	22	4525
2026-01-25 11:25:02.55	220.91	31.28	-30.9	-32.8	12.3	2.59e-04	0	44	102	1048576	22	4444
2026-01-25 11:25:03.56	221.18	31.41	-30.7	-32.1	12.7	9.76e-05	0	43	102	1048576	22	4230
2026-01-25 11:25:04.57	221.46	31.54	-30.6	-31.8	13.0	5.64e-05	0	44	102	1048576	22	4136
2026-01-25 11:25:05.57	221.73	31.67	-30.7	-32.1	12.8	2.51e-05	0	44	102	1048576	22	4229
2026-01-25 11:25:06.58	222.02	31.80	-30.7	-32.0	12.8	4.57e-05	0	43	102	1048576	22	4204
2026-01-25 11:25:07.58	222.30	31.93	-30.8	-32.4	12.5	9.38e-05	0	44	102	1048576	22	4337
2026-01-25 11:25:08.59	222.58	32.07	-30.9	-32.8	12.3	1.30e-04	0	43	102	1048576	22	4451
2026-01-25 11:25:09.59	222.87	32.20	-31.2	-33.4	11.8	5.03e-04	0	44	102	1048576	22	4680
2026-01-25 11:25:10.60	223.16	32.33	-31.6	-34.3	10.9	9.14e-04	0	44	102	1048576	23	4920
2026-01-25 11:25:11.61	223.45	32.46	-32.0	-35.3	9.8	4.40e-03	0	43	102	1048576	24	5264
2026-01-25 11:25:12.61	223.74	32.59	-32.3	-36.5	8.9	1.91e-02	0	43	102	1048576	24	5810
2026-01-25 11:25:13.61	224.03	32.72	-32.5	-36.5	8.5	4.64e-02	0	44	102	1048576	25	5705
2026-01-25 11:25:14.61	224.33	32.85	-32.5	-36.7	8.3	6.48e-02	0	44	102	1048576	25	5829
2026-01-25 11:25:15.61	224.63	32.98	-32.3	-35.7	9.1	5.38e-02	0	44	102	1048576	25	5317
2026-01-25 11:25:16.62	224.93	33.11	-31.7	-34.2	10.5	6.86e-03	0	43	102	1048576	24	4805
2026-01-25 11:25:17.63	225.24	33.24	-31.7	-34.0	10.7	2.54e-03	0	44	102	1048576	24	4720
2026-01-25 11:25:18.64	225.55	33.37	-31.8	-34.4	10.5	2.72e-03	0	44	102	1048576	24	4851
2026-01-25 11:25:19.64	225.86	33.49	-31.9	-34.9	10.1	5.65e-03	0	44	102	1048576	24	5062
2026-01-25 11:25:20.64	226.17	33.62	-31.8	-34.5	10.5	6.23e-03	0	44	102	1048576	24	4908
2026-01-25 11:25:21.65	226.48	33.75	-32.0	-35.2	9.8	7.68e-03	0	44	102	1048576	24	5182
2026-01-25 11:25:22.65	226.80	33.88	-32.1	-35.5	9.5	1.53e-02	0	44	102	1048576	24	5343
2026-01-25 11:25:23.66	227.12	34.00	-31.9	-34.7	10.3	1.08e-02	0	44	102	1048576	24	4995
2026-01-25 11:25:24.66	227.44	34.13	-31.7	-34.3	10.6	4.10e-03	0	44	102	1048576	24	4819
2026-01-25 11:25:25.66	227.76	34.25	-31.9	-34.8	10.2	4.20e-03	0	44	102	1048576	24	5026
2026-01-25 11:25:26.67	228.09	34.38	-31.8	-34.6	10.4	5.49e-03	0	43	102	1048576	24	4934
2026-01-25 11:25:27.68	228.42	34.51	-31.8	-34.6	10.3	5.86e-03	0	44	102	1048576	24	4964
2026-01-25 11:25:28.68	228.75	34.63	-31.8	-34.3	10.6	4.11e-03	0	43	102	1048576	24	4852
2026-01-25 11:25:29.68	229.08	34.75	-31.9	-34.8	10.2	5.10e-03	0	44	102	1048576	24	5033
2026-01-25 11:25:30.69	229.42	34.88	-32.2	-35.9	9.4	1.08e-02	0	44	102	1048576	24	5496
2026-01-25 11:25:31.69	229.76	35.00	-32.2	-35.8	9.5	2.30e-02	0	43	102	1048576	24	5473
2026-01-25 11:25:32.70	230.10	35.12	-32.4	-36.6	8.9	2.39e-02	0	44	102	1048576	24	5859
2026-01-25 11:25:33.71	230.45	35.24	-32.5	-36.5	8.5	3.41e-02	0	43	102	1048576	25	5704
2026-01-25 11:25:34.72	230.79	35.36	-32.4	-36.2	8.9	2.64e-02	0	44	102	1048576	25	5553
2026-01-25 11:25:35.72	231.14	35.48	-32.5	-36.4	8.6	2.64e-02	0	43	102	1048576	25	5669
2026-01-25 11:25:36.73	231.50	35.60	-32.4	-36.3	8.6	2.98e-02	0	43	102	1048576	25	5596
2026-01-25 11:25:37.74	231.85	35.72	-32.1	-35.1	9.5	1.84e-02	0	44	102	1048576	25	5064
2026-01-25 11:25:38.74	232.21	35.84	-32.1	-35.1	9.7	1.85e-02	0	43	102	1048576	25	5048
2026-01-25 11:25:39.75	232.57	35.95	-32.2	-35.4	9.5	1.21e-02	0	43	102	1048576	25	5195
2026-01-25 11:25:40.75	232.93	36.07	-32.3	-35.8	9.3	1.71e-02	0	44	102	1048576	25	5351
2026-01-25 11:25:41.75	233.29	36.18	-32.1	-35.0	9.8	1.42e-02	0	44	102	1048576	25	5028
2026-01-25 11:25:42.76	233.66	36.30	-32.0	-34.7	10.1	6.82e-03	0	44	102	1048576	25	4882
2026-01-25 11:25:43.76	234.03	36.41	-31.7	-34.1	10.8	3.90e-03	0	44	102	1048576	24	4733
2026-01-25 11:25:44.76	234.40	36.52	-31.7	-34.1	10.8	2.97e-03	0	44	102	1048576	24	4727
2026-01-25 11:25:45.76	234.77	36.63	-31.6	-33.8	11.2	2.02e-03	0	43	102	1048576	24	4603
2026-01-25 11:25:46.77	235.15	36.75	-31.9	-34.7	10.4	2.93e-03	0	43	102	1048576	24	4940
2026-01-25 11:25:47.77	235.52	36.85	-31.8	-34.4	10.7	3.09e-03	0	43	102	1048576	24	4814
2026-01-25 11:25:48.77	235.90	36.96	-32.1	-35.4	9.7	5.81e-03	0	44	102	1048576	24	5249
2026-01-25 11:25:49.77	236.29	37.07	-32.3	-36.2	9.3	1.14e-02	0	43	102	1048576	24	5596
2026-01-25 11:25:50.78	236.68	37.18	-32.0	-35.0	10.3	7.87e-03	0	44	102	1048576	24	5058
2026-01-25 11:25:51.78	237.06	37.28	-31.9	-34.8	10.3	6.98e-03	0	44	102	1048576	24	4980
2026-01-25 11:25:52.79	237.46	37.38	-31.9	-34.8	10.3	5.48e-03	0	44	102	1048576	24	4981
2026-01-25 11:25:53.79	237.85	37.49	-31.7	-33.9	11.0	2.99e-03	0	43	102	1048576	24	4634
2026-01-25 11:25:54.79	238.24	37.59	-31.6	-33.6	11.2	2.32e-03	0	44	102	1048576	24	4532
2026-01-25 11:25:55.79	238.64	37.69	-31.7	-34.1	11.0	1.30e-03	0	44	102	1048576	24	4709
2026-01-25 11:25:56.80	239.04	37.79	-31.7	-33.9	10.8	2.83e-03	0	43	102	1048576	24	4654
2026-01-25 11:25:57.80	239.45	37.89	-32.0	-34.8	10.4	3.58e-03	0	44	102	1048576	24	4973
2026-01-25 11:25:58.81	239.85	37.98	-31.8	-34.1	10.8	3.04e-03	0	43	102	1048576	24	4715
2026-01-25 11:25:59.81	240.26	38.08	-31.7	-33.8	11.1	1.92e-03	0	43	102	1048576	24	4621
2026-01-25 11:26:00.81	240.67	38.17	-31.6	-33.6	11.2	1.67e-03	0	44	102	1048576	24	4518
2026-01-25 11:26:01.82	241.08	38.26	-31.5	-33.5	11.2	1.45e-03	0	43	102	1048576	24	4490
2026-01-25 11:26:02.82	241.50	38.35	-31.7	-33.8	11.1	1.21e-03	0	44	102	1048576	24	4608
2026-01-25 11:26:03.83	241.92	38.44	-31.6	-33.5	11.3	1.65e-03	0	44	102	1048576	24	4503
2026-01-25 11:26:04.83	242.33	38.53	-31.7	-34.0	11.1	1.63e-03	0	44	102	1048576	24	4660
2026-01-25 11:26:05.84	242.76	38.62	-31.9	-34.7	10.4	2.39e-03	0	44	102	1048576	24	4950
2026-01-25 11:26:06.85	243.19	38.71	-31.8	-34.3	10.7	4.27e-03	0	44	102	1048576	24	4776
2026-01-25 11:26:07.85	243.61	38.79	-31.7	-33.8	11.0	2.27e-03	0	44	102	1048576	24	4619
2026-01-25 11:26:08.85	244.04	38.87	-31.4	-32.8	11.7	1.12e-03	0	44	102	1048576	24	4269
2026-01-25 11:26:09.86	244.47	38.95	-31.1	-32.6	12.2	3.07e-04	0	44	102	1048576	23	4270
2026-01-25 11:26:10.87	244.90	39.03	-31.0	-32.3	12.5	1.54e-04	0	44	102	1048576	23	4162
2026-01-25 11:26:11.87	245.34	39.11	-31.2	-32.9	12.1	2.14e-04	0	44	102	1048576	23	4367
2026-01-25 11:26:12.88	245.78	39.18	-31.3	-33.3	11.8	3.96e-04	0	44	102	1048576	23	4495
2026-01-25 11:26:13.88	246.21	39.26	-31.6	-34.1	11.2	7.60e-04	0	44	102	1048576	23	4792
2026-01-25 11:26:14.88	246.65	39.33	-32.2	-35.8	9.6	4.09e-03	0	43	102	1048576	24	5416
2026-01-25 11:26:15.89	247.10	39.40	-32.6	-36.9	8.5	2.32e-02	0	44	102	1048576	25	5852
2026-01-25 11:26:16.90	247.54	39.47	-32.3	-35.6	9.4	2.67e-02	0	43	102	1048576	25	5235
2026-01-25 11:26:17.91	247.99	39.54	-32.0	-34.3	10.3	8.60e-03	0	43	102	1048576	25	4714
2026-01-25 11:26:18.92	248.44	39.60	-32.0	-34.3	10.3	4.41e-03	0	44	102	1048576	25	4703
2026-01-25 11:26:19.92	248.89	39.67	-31.8	-33.9	10.7	4.05e-03	0	44	102	1048576	25	4554
2026-01-25 11:26:20.92	249.34	39.73	-31.9	-34.5	10.6	2.62e-03	0	43	102	1048576	24	4872
2026-01-25 11:26:21.92	249.79	39.79	-31.7	-34.0	10.9	1.40e-03	0	44	102	1048576	24	4691
2026-01-25 11:26:22.93	250.25	39.84	-31.7	-33.8	11.1	1.34e-03	0	44	102	1048576	24	4613
2026-01-25 11:26:23.93	250.70	39.90	-32.1	-35.4	9.9	4.19e-03	0	44	102	1048576	24	5245
2026-01-25 11:26:24.93	251.16	39.95	-32.6	-36.7	8.4	2.47e-02	0	43	102	1048576	25	5796
2026-01-25 11:26:25.93	251.62	40.01	-32.5	-36.3	8.8	5.04e-02	0	44	102	1048576	25	5549
2026-01-25 11:26:26.94	252.08	40.06	-32.0	-34.5	10.2	9.60e-03	0	44	102	1048576	25	4793
2026-01-25 11:26:27.94	252.54	40.10	-31.9	-34.1	10.4	5.04e-03	0	44	102	1048576	25	4652
2026-01-25 11:26:28.94	253.00	40.15	-32.0	-34.4	10.3	4.65e-03	0	44	102	1048576	25	4743
2026-01-25 11:26:29.94	253.46	40.19	-31.9	-34.0	10.6	4.17e-03	0	44	102	1048576	25	4596
2026-01-25 11:26:30.95	253.93	40.24	-31.4	-33.0	11.7	8.28e-04	0	44	102	1048576	24	4329
2026-01-25 11:26:31.95	254.40	40.28	-31.3	-33.3	11.8	3.64e-04	0	44	102	1048576	23	4503
2026-01-25 11:26:32.96	254.87	40.31	-31.4	-33.5	11.8	4.15e-04	0	44	102	1048576	23	4569
2026-01-25 11:26:33.97	255.34	40.35	-31.9	-35.2	10.4	2.35e-03	0	44	102	1048576	23	5233
2026-01-25 11:26:34.97	255.81	40.38	-32.6	-36.5	8.8	1.55e-02	0	44	102	1048576	25	5639
2026-01-25 11:26:35.97	256.28	40.42	-32.5	-36.3	8.9	3.74e-02	0	44	102	1048576	25	5555
2026-01-25 11:26:36.98	256.75	40.45	-32.6	-36.4	8.7	3.31e-02	0	44	102	1048576	25	5617
2026-01-25 11:26:37.98	257.22	40.47	-32.1	-34.6	10.2	9.88e-03	0	44	102	1048576	25	4798
2026-01-25 11:26:38.98	257.69	40.50	-31.7	-34.0	11.0	2.83e-03	0	44	102	1048576	24	4660
2026-01-25 11:26:39.98	258.17	40.52	-31.7	-33.9	11.1	1.58e-03	0	44	102	1048576	24	4649
2026-01-25 11:26:40.98	258.64	40.54	-31.9	-34.5	10.6	2.75e-03	0	44	102	1048576	24	4862
2026-01-25 11:26:41.99	259.12	40.56	-32.0	-34.7	10.4	4.44e-03	0	44	102	1048576	24	4945
2026-01-25 11:26:42.99	259.59	40.58	-32.3	-35.8	9.7	9.91e-03	0	44	102	1048576	24	5397
2026-01-25 11:26:43.99	260.07	40.59	-32.6	-36.6	8.7	2.76e-02	0	43	102	1048576	25	5704
2026-01-25 11:26:44.99	260.54	40.61	-33.2	-38.9	6.6	1.31e-01	0	44	102	1048576	26	6918
2026-01-25 11:26:46.00	261.02	40.62	-33.2	-38.7	6.6	2.65e-01	0	44	102	1048576	26	6784
2026-01-25 11:26:47.00	261.49	40.62	-33.0	-37.8	7.3	1.12e-01	0	44	102	1048576	26	6218
2026-01-25 11:26:48.00	261.97	40.63	-32.8	-36.8	8.2	7.34e-02	0	44	102	1048576	26	5700
2026-01-25 11:26:49.01	262.45	40.63	-32.8	-37.0	8.1	6.46e-02	0	43	102	1048576	26	5808
2026-01-25 11:26:50.01	262.93	40.64	-32.3	-34.9	9.6	3.94e-02	0	44	102	1048576	26	4867
2026-01-25 11:26:51.02	263.41	40.63	-32.2	-35.0	9.9	1.16e-02	0	44	102	1048576	25	4979
2026-01-25 11:26:52.03	263.89	40.63	-32.6	-36.5	8.8	1.70e-02	0	44	102	1048576	25	5636
2026-01-25 11:26:53.02	264.36	40.63	-33.1	-38.3	7.0	6.32e-02	0	44	102	1048576	26	6539
2026-01-25 11:26:54.03	264.84	40.62	-33.5	-39.9	5.5	4.48e-01	0	44	102	1048576	27	7563
2026-01-25 11:26:55.04	265.32	40.61	-33.3	-38.9	6.2	3.67e-01	0	44	102	1048576	27	6837
2026-01-25 11:26:56.04	265.79	40.60	-32.8	-36.3	8.1	1.28e-01	0	43	102	1048576	27	5404
2026-01-25 11:26:57.04	266.27	40.58	-32.6	-35.9	8.9	4.85e-02	0	44	102	1048576	26	5270
2026-01-25 11:26:58.04	266.74	40.57	-32.4	-35.4	9.2	2.29e-02	0	44	102	1048576	26	5047
2026-01-25 11:26:59.05	267.22	40.55	-32.4	-35.2	9.4	2.06e-02	0	44	102	1048576	26	4959
2026-01-25 11:27:00.05	267.69	40.53	-32.2	-35.1	9.8	1.65e-02	0	44	102	1048576	25	5017
2026-01-25 11:27:01.05	268.16	40.51	-31.7	-34.0	11.0	3.09e-03	0	44	102	1048576	24	4678
2026-01-25 11:27:02.06	268.64	40.48	-31.4	-32.9	11.9	1.47e-03	0	44	102	1048576	24	4283
2026-01-25 11:27:03.07	269.11	40.46	-31.0	-32.2	12.6	4.10e-04	0	44	102	1048576	23	4133
2026-01-25 11:27:04.08	269.59	40.43	-30.5	-31.4	13.5	3.12e-05	0	44	102	1048576	22	3974
2026-01-25 11:27:05.08	270.06	40.40	-30.2	-31.1	13.9	3.00e-06	0	44	102	1048576	21	3995
2026-01-25 11:27:06.09	270.53	40.36	-30.6	-32.1	13.3	1.37e-05	0	43	102	1048576	21	4289
2026-01-25 11:27:07.10	271.00	40.33	-31.4	-34.0	11.7	4.07e-04	0	44	102	1048576	22	4847
2026-01-25 11:27:08.10	271.47	40.29	-31.6	-34.2	11.1	1.94e-03	0	44	102	1048576	23	4839
2026-01-25 11:27:09.10	271.93	40.25	-31.0	-32.3	12.5	8.06e-04	0	44	102	1048576	23	4180
2026-01-25 11:27:10.10	272.40	40.21	-30.8	-32.2	13.0	5.79e-05	0	44	102	1048576	22	4223
2026-01-25 11:27:11.11	272.86	40.17	-31.1	-33.2	12.2	9.99e-05	0	44	102	1048576	22	4540
2026-01-25 11:27:12.11	273.33	40.12	-31.4	-33.8	11.8	4.39e-04	0	44	102	1048576	22	4788
2026-01-25 11:27:13.12	273.79	40.08	-31.5	-33.7	11.6	9.78e-04	0	44	102	1048576	23	4632
2026-01-25 11:27:14.13	274.25	40.03	-31.0	-32.2	12.5	1.38e-04	0	44	102	1048576	23	4152
2026-01-25 11:27:15.13	274.71	39.98	-31.0	-32.2	12.6	8.92e-05	0	44	102	1048576	23	4124
2026-01-25 11:27:16.13	275.17	39.92	-31.6	-34.0	11.3	2.82e-04	0	44	102	1048576	23	4760
2026-01-25 11:27:17.14	275.62	39.87	-31.7	-34.5	11.0	1.75e-03	0	44	102	1048576	23	4934
2026-01-25 11:27:18.14	276.08	39.81	-31.7	-34.2	11.2	1.17e-03	0	44	102	1048576	23	4848
2026-01-25 11:27:19.14	276.53	39.75	-31.2	-32.9	12.1	5.86e-04	0	44	102	1048576	23	4360
2026-01-25 11:27:20.14	276.98	39.69	-31.0	-32.1	12.7	1.04e-04	0	44	102	1048576	23	4122
2026-01-25 11:27:21.14	277.43	39.63	-31.2	-32.9	12.2	1.40e-04	0	44	102	1048576	23	4348
2026-01-25 11:27:22.15	277.88	39.56	-31.5	-33.8	11.5	4.62e-04	0	44	102	1048576	23	4677
2026-01-25 11:27:23.15	278.32	39.50	-32.0	-34.8	10.4	1.33e-03	0	44	102	1048576	24	4966
2026-01-25 11:27:24.16	278.77	39.43	-31.7	-33.9	11.1	3.37e-03	0	44	102	1048576	24	4630
2026-01-25 11:27:25.16	279.21	39.36	-31.0	-32.2	12.6	3.62e-04	0	44	102	1048576	23	4142
2026-01-25 11:27:26.17	279.65	39.29	-30.6	-31.5	13.3	2.74e-05	0	44	102	1048576	22	4025
2026-01-25 11:27:27.16	280.08	39.22	-30.6	-31.7	13.2	1.29e-05	0	44	102	1048576	22	4081
2026-01-25 11:27:28.17	280.52	39.14	-30.9	-32.5	12.8	6.56e-05	0	44	102	1048576	22	4304
2026-01-25 11:27:29.17	280.96	39.07	-30.4	-31.2	13.6	1.75e-05	0	44	102	1048576	22	3916
2026-01-25 11:27:30.17	281.39	38.99	-30.3	-31.4	13.7	6.80e-06	0	44	102	1048576	21	4075
2026-01-25 11:27:31.17	281.81	38.91	-30.4	-31.6	13.6	7.60e-06	0	44	102	1048576	21	4123
2026-01-25 11:27:32.17	282.24	38.83	-30.1	-30.9	14.1	3.00e-06	0	44	102	1048576	21	3922
2026-01-25 11:27:33.17	282.67	38.75	-29.8	-30.1	14.6	7.00e-07	0	44	102	1048576	21	3707
2026-01-25 11:27:34.18	283.09	38.66	-29.7	-30.3	14.8	0.00e+00	0	44	102	1048576	20	3864
2026-01-25 11:27:35.18	283.51	38.58	-29.9	-30.7	14.5	7.00e-07	0	44	102	1048576	20	3965
2026-01-25 11:27:36.18	283.93	38.49	-30.1	-31.3	14.1	7.00e-07	0	44	102	1048576	20	4151
2026-01-25 11:27:37.19	284.35	38.40	-30.3	-31.9	13.7	1.50e-06	0	44	102	1048576	20	4324
2026-01-25 11:27:38.19	284.76	38.31	-30.6	-32.1	13.2	1.14e-05	0	44	102	1048576	21	4284
2026-01-25 11:27:39.19	285.17	38.22	-30.8	-32.7	12.9	4.73e-05	0	44	102	1048576	21	4492
2026-01-25 11:27:40.20	285.59	38.13	-30.5	-32.0	13.3	2.05e-05	0	44	102	1048576	21	4251
2026-01-25 11:27:41.20	285.99	38.03	-30.1	-30.8	14.1	4.50e-06	0	44	102	1048576	21	3893
2026-01-25 11:27:42.20	286.40	37.94	-29.8	-30.6	14.5	7.00e-07	0	44	102	1048576	20	3950
2026-01-25 11:27:43.20	286.80	37.84	-29.7	-30.4	14.7	0.00e+00	0	43	102	1048576	20	3882
2026-01-25 11:27:44.21	287.20	37.74	-29.3	-29.7	15.4	0.00e+00	0	43	102	1048576	19	3794
2026-01-25 11:27:45.21	287.60	37.64	-29.3	-29.8	15.4	0.00e+00	0	44	102	1048576	19	3813
2026-01-25 11:27:46.21	287.99	37.54	-29.4	-29.9	15.3	0.00e+00	0	43	102	1048576	19	3843
2026-01-25 11:27:47.21	288.39	37.44	-29.9	-31.3	14.6	7.00e-07	0	44	102	1048576	19	4216
2026-01-25 11:27:48.22	288.78	37.34	-30.2	-31.6	14.0	4.50e-06	0	44	102	1048576	20	4239
2026-01-25 11:27:49.22	289.17	37.23	-29.9	-30.8	14.4	7.00e-07	0	44	102	1048576	20	4007
2026-01-25 11:27:50.22	289.55	37.13	-29.6	-30.0	14.9	2.20e-06	0	44	102	1048576	20	3783
2026-01-25 11:27:51.23	289.94	37.02	-29.5	-29.7	15.1	0.00e+00	0	44	102	1048576	20	3708
2026-01-25 11:27:52.23	290.32	36.92	-29.5	-29.8	15.0	7.00e-07	0	44	102	1048576	20	3717
2026-01-25 11:27:53.23	290.70	36.81	-29.3	-29.3	15.3	0.00e+00	0	44	102	1048576	20	3613
2026-01-25 11:27:54.24	291.08	36.70	-28.9	-28.8	15.9	0.00e+00	0	44	102	1048576	19	3562
2026-01-25 11:27:55.24	291.45	36.59	-28.7	-28.8	16.3	0.00e+00	0	44	102	1048576	18	3635
2026-01-25 11:27:56.24	291.82	36.48	-28.9	-29.3	16.0	0.00e+00	0	44	102	1048576	18	3780
2026-01-25 11:27:57.24	292.19	36.37	-28.9	-29.3	16.0	0.00e+00	0	44	102	1048576	18	3777
2026-01-25 11:27:58.24	292.55	36.25	-29.7	-30.8	14.9	0.00e+00	0	44	102	1048576	19	4071
2026-01-25 11:27:59.24	292.91	36.14	-30.1	-31.4	14.0	7.00e-07	0	44	102	1048576	20	4173
2026-01-25 11:28:00.25	293.28	36.02	-30.2	-31.5	14.0	1.50e-06	0	44	102	1048576	20	4199
2026-01-25 11:28:01.24	293.63	35.91	-30.2	-31.5	14.1	7.00e-07	0	44	102	1048576	20	4183
2026-01-25 11:28:02.25	293.99	35.79	-30.2	-31.6	13.9	1.50e-06	0	44	102	1048576	20	4220
2026-01-25 11:28:03.25	294.34	35.68	-30.7	-32.5	13.1	1.14e-05	0	44	102	1048576	21	4407
2026-01-25 11:28:04.25	294.69	35.56	-31.5	-33.7	11.5	2.79e-04	0	44	102	1048576	23	4651
2026-01-25 11:28:05.25	295.04	35.44	-31.7	-34.2	11.2	9.25e-04	0	44	102	1048576	23	4834
2026-01-25 11:28:06.25	295.38	35.32	-31.7	-34.5	11.0	2.44e-03	0	44	102	1048576	23	4927
2026-01-25 11:28:07.26	295.73	35.20	-30.8	-31.6	13.0	3.30e-04	0	44	102	1048576	23	3949
2026-01-25 11:28:08.26	296.07	35.08	-30.0	-30.6	14.3	3.00e-06	0	44	102	1048576	21	3841
2026-01-25 11:28:09.27	296.41	34.96	-30.1	-30.7	14.1	7.00e-07	0	44	102	1048576	21	3883
2026-01-25 11:28:10.28	296.75	34.84	-30.6	-32.2	13.3	1.50e-06	0	44	102	1048576	21	4309
2026-01-25 11:28:11.28	297.08	34.72	-31.6	-34.0	11.4	1.80e-04	0	44	102	1048576	23	4760
2026-01-25 11:28:12.28	297.41	34.59	-31.7	-34.5	11.1	1.59e-03	0	44	102	1048576	23	4943
2026-01-25 11:28:13.29	297.74	34.47	-31.5	-33.6	11.6	6.60e-04	0	44	102	1048576	23	4598
2026-01-25 11:28:14.28	298.07	34.35	-31.5	-33.6	11.7	4.45e-04	0	44	102	1048576	23	4613
2026-01-25 11:28:15.29	298.39	34.22	-31.8	-34.8	10.8	1.93e-03	0	44	102	1048576	23	5057
2026-01-25 11:28:16.30	298.72	34.09	-32.2	-35.4	9.9	4.68e-03	0	44	102	1048576	24	5234
2026-01-25 11:28:17.30	299.03	33.97	-32.7	-36.7	8.5	2.40e-02	0	44	102	1048576	25	5763
2026-01-25 11:28:18.30	299.35	33.84	-32.7	-37.1	8.2	6.30e-02	0	44	102	1048576	25	5938
2026-01-25 11:28:19.30	299.66	33.72	-32.5	-36.4	8.9	3.32e-02	0	44	102	1048576	25	5591
2026-01-25 11:28:20.30	299.97	33.59	-31.9	-33.9	10.6	8.47e-03	0	44	102	1048576	25	4567
2026-01-25 11:28:21.30	300.28	33.46	-31.5	-33.2	11.4	1.29e-03	0	44	102	1048576	24	4397
2026-01-25 11:28:22.30	300.59	33.34	-31.4	-32.8	11.8	5.56e-04	0	44	102	1048576	24	4257
2026-01-25 11:28:23.31	300.89	33.21	-31.4	-33.4	11.7	3.26e-04	0	44	102	1048576	23	4530
2026-01-25 11:28:24.31	301.19	33.08	-32.0	-34.8	10.4	1.46e-03	0	44	102	1048576	24	4987
2026-01-25 11:28:25.32	301.50	32.95	-32.3	-35.8	9.6	8.72e-03	0	44	102	1048576	24	5417
2026-01-25 11:28:26.33	301.80	32.82	-32.5	-36.0	9.1	1.83e-02	0	44	102	1048576	25	5430
2026-01-25 11:28:27.33	302.09	32.69	-32.2	-35.2	9.7	1.23e-02	0	44	102	1048576	25	5047
2026-01-25 11:28:28.34	302.39	32.56	-32.4	-35.9	9.2	8.40e-03	0	44	102	1048576	25	5389
2026-01-25 11:28:29.35	302.68	32.43	-32.7	-37.1	8.4	3.16e-02	0	44	102	1048576	25	5967
2026-01-25 11:28:30.35	302.97	32.30	-32.9	-37.9	7.6	4.41e-02	0	44	102	1048576	25	6415
2026-01-25 11:28:31.36	303.25	32.17	-33.0	-37.8	7.3	9.79e-02	0	44	102	1048576	26	6268
2026-01-25 11:28:32.36	303.54	32.04	-32.8	-36.8	8.1	9.54e-02	0	44	102	1048576	26	5703
2026-01-25 11:28:33.36	303.82	31.91	-32.4	-35.4	9.1	3.90e-02	0	44	102	1048576	26	5087
2026-01-25 11:28:34.37	304.10	31.78	-32.1	-34.6	10.2	7.56e-03	0	44	102	1048576	25	4800
2026-01-25 11:28:35.36	304.37	31.65	-32.1	-34.6	10.2	4.41e-03	0	44	102	1048576	25	4834
2026-01-25 11:28:36.36	304.65	31.52	-32.1	-34.6	10.1	7.36e-03	0	44	102	1048576	25	4828
2026-01-25 11:28:37.36	304.92	31.39	-32.2	-35.2	9.7	5.09e-03	0	44	102	1048576	25	5048
2026-01-25 11:28:38.36	305.19	31.26	-32.4	-36.0	9.1	2.01e-02	0	44	102	1048576	25	5400
2026-01-25 11:28:39.37	305.46	31.13	-32.5	-36.1	9.1	2.34e-02	0	44	102	1048576	25	5450
2026-01-25 11:28:40.37	305.72	31.00	-32.6	-36.5	8.7	2.59e-02	0	44	102	1048576	25	5678
2026-01-25 11:28:41.38	305.99	30.87	-32.4	-35.7	9.3	2.46e-02	0	44	102	1048576	25	5262
2026-01-25 11:28:42.38	306.25	30.74	-32.2	-35.2	9.6	1.15e-02	0	44	102	1048576	25	5076
2026-01-25 11:28:43.39	306.51	30.60	-32.3	-35.3	9.5	1.42e-02	0	44	102	1048576	25	5114
2026-01-25 11:28:44.39	306.77	30.47	-32.1	-34.8	10.0	8.60e-03	0	44	102	1048576	25	4912
2026-01-25 11:28:45.39	307.02	30.34	-32.0	-34.3	10.3	7.31e-03	0	44	102	1048576	25	4694
2026-01-25 11:28:46.40	307.28	30.21	-31.9	-34.2	10.5	5.16e-03	0	44	102	1048576	25	4652
2026-01-25 11:28:47.41	307.53	30.08	-31.5	-33.3	11.4	3.09e-03	0	44	102	1048576	24	4425
2026-01-25 11:28:48.41	307.78	29.95	-30.7	-31.9	13.0	2.92e-04	0	44	102	1048576	22	4135
2026-01-25 11:28:49.41	308.03	29.82	-29.9	-30.3	14.3	4.50e-06	0	44	102	1048576	21	3773
2026-01-25 11:28:50.41	308.27	29.68	-29.5	-29.7	15.0	7.00e-07	0	44	102	1048576	20	3711
2026-01-25 11:28:51.41	308.52	29.55	-29.6	-30.0	14.9	0.00e+00	0	44	102	1048576	20	3773
2026-01-25 11:28:52.42	308.76	29.42	-30.0	-31.1	14.2	7.00e-07	0	44	102	1048576	20	4086
2026-01-25 11:28:53.42	309.00	29.29	-30.4	-32.1	13.5	6.80e-06	0	44	102	1048576	20	4402
2026-01-25 11:28:54.42	309.24	29.16	-30.7	-32.6	12.9	6.63e-05	0	44	102	1048576	21	4445
2026-01-25 11:28:55.42	309.47	29.03	-30.3	-31.4	13.6	3.12e-05	0	44	102	1048576	21	4098
2026-01-25 11:28:56.42	309.71	28.90	-29.9	-30.4	14.2	3.80e-06	0	44	102	1048576	21	3816
2026-01-25 11:28:57.43	309.94	28.77	-29.4	-29.6	15.1	0.00e+00	0	44	102	1048576	20	3678
2026-01-25 11:28:58.44	310.17	28.64	-29.2	-29.5	15.5	0.00e+00	0	44	102	1048576	19	3735
2026-01-25 11:28:59.44	310.40	28.51	-29.3	-29.8	15.3	0.00e+00	0	44	102	1048576	19	3815
2026-01-25 11:29:00.45	310.63	28.38	-29.7	-30.8	14.7	0.00e+00	0	44	102	1048576	19	4074
2026-01-25 11:29:01.45	310.85	28.25	-30.2	-31.5	13.9	7.00e-07	0	44	102	1048576	20	4216
2026-01-25 11:29:02.45	311.08	28.12	-30.5	-32.0	13.3	2.13e-05	0	44	102	1048576	21	4256
2026-01-25 11:29:03.45	311.30	27.99	-30.4	-31.7	13.4	3.96e-05	0	44	102	1048576	21	4174
2026-01-25 11:29:04.46	311.52	27.86	-29.9	-30.3	14.3	5.30e-06	0	44	102	1048576	21	3793
2026-01-25 11:29:05.47	311.74	27.73	-29.3	-29.3	15.2	7.00e-07	0	44	102	1048576	20	3613
2026-01-25 11:29:06.47	311.96	27.60	-29.0	-29.1	15.7	0.00e+00	0	44	102	1048576	19	3634
2026-01-25 11:29:07.47	312.17	27.47	-28.7	-28.9	16.1	0.00e+00	0	44	102	1048576	18	3687
2026-01-25 11:29:08.47	312.38	27.34	-28.7	-28.8	16.2	0.00e+00	0	44	102	1048576	18	3643
2026-01-25 11:29:09.47	312.59	27.21	-28.8	-29.0	16.1	0.00e+00	0	44	102	1048576	18	3708
2026-01-25 11:29:10.48	312.80	27.08	-28.7	-28.8	16.1	0.00e+00	0	44	102	1048576	18	3656
2026-01-25 11:29:11.48	313.01	26.95	-28.9	-29.4	15.8	0.00e+00	0	44	102	1048576	18	3808
2026-01-25 11:29:12.49	313.22	26.83	-29.2	-30.0	15.5	0.00e+00	0	44	102	1048576	18	3959
2026-01-25 11:29:13.49	313.42	26.70	-29.1	-29.9	15.5	7.00e-07	0	44	102	1048576	18	3946
2026-01-25 11:29:14.49	313.62	26.57	-29.0	-29.5	15.7	0.00e+00	0	44	102	1048576	18	3837
2026-01-25 11:29:15.50	313.83	26.44	-28.7	-28.8	16.1	0.00e+00	0	43	102	1048576	18	3665
2026-01-25 11:29:16.50	314.03	26.32	-28.7	-28.8	16.2	0.00e+00	0	44	102	1048576	18	3653
2026-01-25 11:29:17.50	314.22	26.19	-28.6	-28.6	16.2	0.00e+00	0	44	102	1048576	18	3608
2026-01-25 11:29:18.51	314.42	26.06	-28.6	-28.7	16.2	0.00e+00	0	44	102	1048576	18	3642
2026-01-25 11:29:19.52	314.62	25.93	-29.0	-29.6	15.7	0.00e+00	0	44	102	1048576	18	3857
2026-01-25 11:29:20.52	314.81	25.81	-29.3	-30.4	15.2	0.00e+00	0	43	102	1048576	18	4061
2026-01-25 11:29:21.52	315.00	25.68	-29.7	-30.8	14.7	0.00e+00	0	44	102	1048576	19	4098
2026-01-25 11:29:22.52	315.20	25.56	-29.7	-30.9	14.6	0.00e+00	0	44	102	1048576	19	4114
2026-01-25 11:29:23.53	315.39	25.43	-29.4	-30.2	15.0	7.00e-07	0	44	102	1048576	19	3930
2026-01-25 11:29:24.53	315.57	25.31	-29.1	-29.3	15.6	0.00e+00	0	43	102	1048576	19	3684
2026-01-25 11:29:25.54	315.76	25.18	-28.8	-29.1	15.9	0.00e+00	0	44	102	1048576	18	3743
2026-01-25 11:29:26.55	315.95	25.06	-28.6	-28.5	16.3	0.00e+00	0	44	102	1048576	18	3592
2026-01-25 11:29:27.55	316.13	24.93	-28.3	-28.4	16.6	0.00e+00	0	43	102	1048576	17	3650
2026-01-25 11:29:28.55	316.31	24.81	-28.4	-28.6	16.5	0.00e+00	0	44	102	1048576	17	3699
2026-01-25 11:29:29.56	316.49	24.69	-28.4	-28.7	16.4	0.00e+00	0	44	102	1048576	17	3731
2026-01-25 11:29:30.57	316.67	24.56	-28.6	-29.1	16.2	0.00e+00	0	44	102	1048576	17	3831
2026-01-25 11:29:31.57	316.85	24.44	-28.7	-29.5	16.0	0.00e+00	0	44	102	1048576	17	3925
2026-01-25 11:29:32.58	317.03	24.31	-28.9	-29.9	15.7	0.00e+00	0	44	102	1048576	17	4036
2026-01-25 11:29:33.58	317.20	24.19	-29.0	-29.7	15.6	0.00e+00	0	44	102	1048576	18	3901
2026-01-25 11:29:34.59	317.38	24.07	-29.0	-29.6	15.6	0.00e+00	0	44	102	1048576	18	3866
2026-01-25 11:29:35.60	317.55	23.95	-29.0	-29.6	15.6	0.00e+00	0	44	102	1048576	18	3855
2026-01-25 11:29:36.61	317.73	23.83	-28.8	-29.2	15.8	0.00e+00	0	43	102	1048576	18	3748
2026-01-25 11:29:37.61	317.90	23.70	-28.9	-29.3	15.8	0.00e+00	0	44	102	1048576	18	3790
2026-01-25 11:29:38.62	318.07	23.58	-28.7	-29.0	15.9	0.00e+00	0	44	102	1048576	18	3712
2026-01-25 11:29:39.62	318.23	23.46	-28.7	-28.8	16.1	0.00e+00	0	44	102	1048576	18	3650
2026-01-25 11:29:40.62	318.40	23.34	-28.8	-29.1	15.9	0.00e+00	0	44	102	1048576	18	3734
2026-01-25 11:29:41.63	318.57	23.22	-28.9	-29.3	15.8	0.00e+00	0	44	102	1048576	18	3783
2026-01-25 11:29:42.63	318.73	23.10	-29.0	-29.6	15.6	0.00e+00	0	44	102	1048576	18	3855
2026-01-25 11:29:43.64	318.89	22.98	-29.3	-30.3	15.2	0.00e+00	0	43	102	1048576	18	4055
2026-01-25 11:29:44.64	319.05	22.86	-29.2	-30.2	15.2	0.00e+00	0	44	102	1048576	18	4036
2026-01-25 11:29:45.64	319.21	22.75	-29.4	-30.5	15.0	0.00e+00	0	44	102	1048576	18	4126
2026-01-25 11:29:46.64	319.37	22.63	-29.3	-30.4	15.1	0.00e+00	0	44	102	1048576	18	4095
2026-01-25 11:29:47.64	319.53	22.51	-29.4	-30.6	15.0	0.00e+00	0	44	102	1048576	18	4134
2026-01-25 11:29:48.65	319.69	22.39	-29.4	-30.2	14.9	0.00e+00	0	44	102	1048576	19	3939
2026-01-25 11:29:49.66	319.84	22.27	-29.4	-30.0	15.0	0.00e+00	0	44	102	1048576	19	3896
2026-01-25 11:29:50.66	320.00	22.16	-29.3	-30.0	15.0	0.00e+00	0	44	102	1048576	19	3886
2026-01-25 11:29:51.67	320.15	22.04	-29.2	-29.6	15.2	0.00e+00	0	44	102	1048576	19	3786
2026-01-25 11:29:52.67	320.30	21.92	-29.3	-29.8	15.1	0.00e+00	0	44	102	1048576	19	3836
2026-01-25 11:29:53.68	320.46	21.81	-29.4	-30.1	15.0	0.00e+00	0	44	102	1048576	19	3920
2026-01-25 11:29:54.68	320.61	21.69	-29.3	-29.9	15.1	0.00e+00	0	44	102	1048576	19	3859
2026-01-25 11:29:55.69	320.76	21.58	-29.3	-29.8	15.1	0.00e+00	0	44	102	1048576	19	3826
2026-01-25 11:29:56.69	320.90	21.46	-29.3	-30.0	15.0	0.00e+00	0	44	102	1048576	19	3872
2026-01-25 11:29:57.70	321.05	21.35	-29.4	-30.2	14.9	7.00e-07	0	43	102	1048576	19	3925
2026-01-25 11:29:58.70	321.20	21.23	-29.4	-30.2	14.9	0.00e+00	0	44	102	1048576	19	3946
2026-01-25 11:29:59.70	321.34	21.12	-29.5	-30.4	14.8	0.00e+00	0	43	102	1048576	19	3994
2026-01-25 11:30:00.71	321.49	21.01	-29.5	-30.5	14.7	0.00e+00	0	43	102	1048576	19	4024
2026-01-25 11:30:01.71	321.63	20.89	-29.6	-30.6	14.7	0.00e+00	0	44	102	1048576	19	4052
2026-01-25 11:30:02.72	321.77	20.78	-29.7	-30.9	14.4	0.00e+00	0	43	102	1048576	19	4136
2026-01-25 11:30:03.72	321.91	20.67	-29.7	-30.9	14.4	0.00e+00	0	44	102	1048576	19	4144
2026-01-25 11:30:04.73	322.05	20.55	-29.8	-31.0	14.4	0.00e+00	0	44	102	1048576	19	4171
2026-01-25 11:30:05.73	322.19	20.44	-29.8	-31.1	14.3	7.00e-07	0	44	102	1048576	19	4195
2026-01-25 11:30:06.74	322.33	20.33	-29.8	-31.1	14.3	7.00e-07	0	44	102	1048576	19	4185
2026-01-25 11:30:07.74	322.46	20.22	-29.7	-30.9	14.5	7.00e-07	0	44	102	1048576	19	4119
2026-01-25 11:30:08.75	322.60	20.11	-29.6	-30.7	14.6	7.00e-07	0	44	102	1048576	19	4071
2026-01-25 11:30:09.75	322.74	20.00	-29.5	-30.3	14.8	0.00e+00	0	44	102	1048576	19	3960
2026-01-25 11:30:10.75	322.87	19.89	-29.7	-30.9	14.5	0.00e+00	0	44	102	1048576	19	4132
2026-01-25 11:30:11.75	323.00	19.78	-29.8	-31.2	14.2	3.80e-06	0	44	102	1048576	19	4231
2026-01-25 11:30:12.75	323.13	19.67	-30.1	-31.4	13.8	1.50e-06	0	44	102	1048576	20	4189
2026-01-25 11:30:13.76	323.27	19.56	-30.5	-32.6	13.0	1.22e-05	0	44	102	1048576	20	4571
2026-01-25 11:30:14.76	323.39	19.45	-30.7	-32.7	12.6	9.15e-05	0	44	102	1048576	21	4506
2026-01-25 11:30:15.76	323.52	19.34	-31.1	-33.4	11.8	2.01e-04	0	44	102	1048576	22	4685
2026-01-25 11:30:16.77	323.65	19.23	-31.5	-34.2	10.8	1.70e-03	0	44	102	1048576	23	4881
2026-01-25 11:30:17.77	323.78	19.13	-31.5	-34.1	10.9	1.66e-03	0	44	102	1048576	23	4833
2026-01-25 11:30:18.78	323.91	19.02	-31.5	-34.2	10.8	1.75e-03	0	44	102	1048576	23	4888
2026-01-25 11:30:19.78	324.03	18.91	-31.3	-33.6	11.1	1.89e-03	0	44	102	1048576	23	4650
2026-01-25 11:30:20.79	324.16	18.80	-31.1	-32.8	11.9	5.80e-04	0	44	102	1048576	23	4384
2026-01-25 11:30:21.80	324.28	18.70	-31.1	-32.7	11.8	5.58e-04	0	44	102	1048576	23	4362
2026-01-25 11:30:22.81	324.41	18.59	-30.6	-31.8	12.8	4.00e-04	0	44	102	1048576	22	4136
2026-01-25 11:30:23.81	324.53	18.48	-30.4	-31.2	13.2	2.59e-05	0	44	102	1048576	22	3965
2026-01-25 11:30:24.81	324.65	18.38	-30.2	-31.2	13.5	2.44e-05	0	44	102	1048576	21	4059
2026-01-25 11:30:25.82	324.77	18.27	-29.8	-30.1	14.1	1.50e-06	0	44	102	1048576	21	3751
2026-01-25 11:30:26.83	324.90	18.17	-30.0	-31.3	13.8	1.50e-06	0	44	102	1048576	20	4172
2026-01-25 11:30:27.83	325.01	18.06	-29.8	-30.8	14.0	3.00e-06	0	44	102	1048576	20	4031
2026-01-25 11:30:28.84	325.13	17.96	-29.8	-30.6	14.1	3.00e-06	0	44	102	1048576	20	3972
2026-01-25 11:30:29.84	325.25	17.86	-30.2	-31.7	13.5	1.06e-05	0	44	102	1048576	20	4286
2026-01-25 11:30:30.85	325.37	17.75	-30.0	-31.2	13.8	8.30e-06	0	44	102	1048576	20	4145
2026-01-25 11:30:31.86	325.49	17.65	-30.2	-31.8	13.4	1.29e-05	0	44	102	1048576	20	4314
2026-01-25 11:30:32.85	325.60	17.55	-30.3	-32.1	13.2	1.98e-05	0	44	102	1048576	20	4431
2026-01-25 11:30:33.86	325.71	17.44	-30.3	-32.2	13.2	1.90e-05	0	44	102	1048576	20	4466
2026-01-25 11:30:34.86	325.83	17.34	-30.5	-32.2	12.8	3.89e-05	0	44	102	1048576	21	4376
2026-01-25 11:30:35.86	325.94	17.24	-30.3	-31.6	13.1	3.73e-05	0	44	102	1048576	21	4183
2026-01-25 11:30:36.87	326.05	17.14	-30.3	-31.7	13.2	2.36e-05	0	44	102	1048576	21	4211
2026-01-25 11:30:37.88	326.17	17.04	-30.6	-32.5	12.6	5.03e-05	0	44	102	1048576	21	4468
2026-01-25 11:30:38.88	326.28	16.94	-30.3	-31.7	13.1	4.65e-05	0	44	102	1048576	21	4207
2026-01-25 11:30:39.89	326.39	16.83	-30.3	-31.6	13.1	2.21e-05	0	44	102	1048576	21	4179
2026-01-25 11:30:40.89	326.50	16.73	-30.3	-31.5	13.2	3.58e-05	0	44	102	1048576	21	4151
2026-01-25 11:30:41.89	326.61	16.64	-30.1	-31.0	13.5	1.60e-05	0	44	102	1048576	21	4010
2026-01-25 11:30:42.89	326.71	16.54	-30.4	-31.8	13.0	1.44e-05	0	44	102	1048576	21	4244
2026-01-25 11:30:43.90	326.82	16.44	-30.2	-31.4	13.3	2.28e-05	0	44	102	1048576	21	4111
2026-01-25 11:30:44.91	326.93	16.34	-30.2	-31.4	13.2	1.29e-05	0	44	102	1048576	21	4122
2026-01-25 11:30:45.91	327.04	16.24	-30.3	-31.7	13.1	2.82e-05	0	44	102	1048576	21	4212
2026-01-25 11:30:46.91	327.14	16.14	-30.4	-32.0	12.9	3.81e-05	0	44	102	1048576	21	4303
2026-01-25 11:30:47.92	327.25	16.04	-30.3	-31.5	13.2	4.80e-05	0	44	102	1048576	21	4158
2026-01-25 11:30:48.92	327.35	15.94	-30.2	-31.4	13.3	4.04e-05	0	43	102	1048576	21	4106
2026-01-25 11:30:49.92	327.45	15.85	-30.1	-31.1	13.4	1.44e-05	0	44	102	1048576	21	4045
2026-01-25 11:30:50.93	327.56	15.75	-30.3	-31.6	13.1	1.83e-05	0	44	102	1048576	21	4179
2026-01-25 11:30:51.93	327.66	15.65	-30.2	-31.3	13.2	2.28e-05	0	44	102	1048576	21	4108
2026-01-25 11:30:52.93	327.76	15.56	-30.2	-31.4	13.2	2.05e-05	0	44	102	1048576	21	4120
2026-01-25 11:30:53.94	327.86	15.46	-30.3	-31.7	12.9	3.89e-05	0	44	102	1048576	21	4209
2026-01-25 11:30:54.95	327.96	15.36	-30.1	-31.2	13.3	1.98e-05	0	44	102	1048576	21	4073
2026-01-25 11:30:55.95	328.06	15.27	-30.1	-31.1	13.4	1.75e-05	0	44	102	1048576	21	4044
2026-01-25 11:30:56.95	328.16	15.17	-30.1	-31.2	13.3	2.36e-05	0	44	102	1048576	21	4073
2026-01-25 11:30:57.95	328.26	15.08	-30.1	-31.0	13.5	9.10e-06	0	44	102	1048576	21	4001
2026-01-25 11:30:58.96	328.36	14.98	-30.2	-31.3	13.2	9.10e-06	0	44	102	1048576	21	4091
2026-01-25 11:30:59.96	328.46	14.89	-30.0	-31.0	13.5	8.30e-06	0	44	102	1048576	21	4004
2026-01-25 11:31:00.97	328.55	14.79	-30.0	-30.7	13.6	9.90e-06	0	44	102	1048576	21	3939
2026-01-25 11:31:01.97	328.65	14.70	-30.1	-31.0	13.4	1.44e-05	0	44	102	1048576	21	4020
2026-01-25 11:31:02.97	328.75	14.61	-30.0	-30.9	13.5	1.14e-05	0	44	102	1048576	21	3984
2026-01-25 11:31:03.98	328.84	14.51	-30.0	-30.9	13.4	7.60e-06	0	44	102	1048576	21	3998
2026-01-25 11:31:04.98	328.94	14.42	-30.1	-31.2	13.3	1.98e-05	0	44	102	1048576	21	4072
2026-01-25 11:31:05.98	329.03	14.33	-30.2	-31.3	13.1	3.05e-05	0	43	102	1048576	21	4111
2026-01-25 11:31:06.99	329.12	14.24	-30.3	-31.7	13.0	4.50e-05	0	44	102	1048576	21	4234
2026-01-25 11:31:07.98	329.22	14.14	-30.4	-32.0	12.8	5.49e-05	0	44	102	1048576	21	4312
2026-01-25 11:31:08.98	329.31	14.05	-30.5	-32.2	12.6	7.70e-05	0	44	102	1048576	21	4374
2026-01-25 11:31:09.99	329.40	13.96	-30.6	-32.6	12.3	1.47e-04	0	44	102	1048576	21	4532
2026-01-25 11:31:10.99	329.49	13.87	-30.8	-33.0	12.0	3.75e-04	0	44	102	1048576	21	4669
2026-01-25 11:31:12.00	329.58	13.78	-30.8	-33.1	12.0	3.96e-04	0	44	102	1048576	21	4711
2026-01-25 11:31:13.01	329.67	13.69	-31.0	-33.4	11.5	7.19e-04	0	44	102	1048576	22	4706
2026-01-25 11:31:14.01	329.76	13.60	-31.1	-33.5	11.4	9.38e-04	0	44	102	1048576	22	4744
2026-01-25 11:31:15.02	329.85	13.51	-31.2	-33.8	11.1	1.08e-03	0	44	102	1048576	22	4883
2026-01-25 11:31:16.02	329.94	13.42	-31.2	-33.8	11.1	1.32e-03	0	44	102	1048576	22	4863
2026-01-25 11:31:17.03	330.03	13.33	-31.1	-33.5	11.3	1.36e-03	0	44	102	1048576	22	4753
2026-01-25 11:31:18.03	330.12	13.24	-31.1	-33.6	11.2	1.49e-03	0	44	102	1048576	22	4796
2026-01-25 11:31:19.04	330.20	13.15	-31.1	-33.7	11.2	1.36e-03	0	44	102	1048576	22	4844
2026-01-25 11:31:20.04	330.29	13.06	-31.1	-33.7	11.2	1.32e-03	0	44	102	1048576	22	4821
2026-01-25 11:31:21.04	330.38	12.97	-31.3	-34.1	10.8	2.04e-03	0	44	102	1048576	22	4989
2026-01-25 11:31:22.05	330.46	12.88	-31.1	-33.6	11.2	1.73e-03	0	44	102	1048576	22	4797
2026-01-25 11:31:23.05	330.55	12.80	-31.0	-33.1	11.6	7.90e-04	0	44	102	1048576	22	4622
2026-01-25 11:31:24.06	330.63	12.71	-30.8	-32.6	11.9	4.27e-04	0	44	102	1048576	22	4448
2026-01-25 11:31:25.06	330.72	12.62	-30.7	-32.3	12.1	3.00e-04	0	44	102	1048576	22	4334
2026-01-25 11:31:26.06	330.80	12.53	-30.7	-32.4	12.1	2.30e-04	0	44	102	1048576	22	4380
2026-01-25 11:31:27.07	330.88	12.45	-30.5	-31.9	12.4	1.86e-04	0	44	102	1048576	22	4195
2026-01-25 11:31:28.08	330.97	12.36	-30.6	-32.0	12.3	1.51e-04	0	44	102	1048576	22	4247
2026-01-25 11:31:29.08	331.05	12.27	-30.7	-32.3	12.1	2.22e-04	0	44	102	1048576	22	4351
2026-01-25 11:31:30.09	331.13	12.19	-30.5	-31.8	12.5	1.90e-04	0	44	102	1048576	22	4164
2026-01-25 11:31:31.10	331.21	12.10	-30.3	-31.3	12.8	6.79e-05	0	44	102	1048576	22	4029
2026-01-25 11:31:32.10	331.29	12.01	-30.2	-31.5	12.9	5.03e-05	0	44	102	1048576	21	4183
2026-01-25 11:31:33.10	331.38	11.93	-30.1	-31.3	13.1	4.95e-05	0	44	102	1048576	21	4115
2026-01-25 11:31:34.10	331.45	11.84	-30.2	-31.5	12.9	3.66e-05	0	44	102	1048576	21	4183
2026-01-25 11:31:35.10	331.53	11.76	-30.3	-31.6	12.8	5.26e-05	0	44	102	1048576	21	4217
2026-01-25 11:31:36.10	331.61	11.68	-30.2	-31.4	13.0	4.11e-05	0	44	102	1048576	21	4163
2026-01-25 11:31:37.11	331.69	11.59	-30.2	-31.5	12.9	3.96e-05	0	44	102	1048576	21	4169
2026-01-25 11:31:38.11	331.77	11.51	-30.1	-31.3	13.0	3.66e-05	0	44	102	1048576	21	4133
2026-01-25 11:31:39.11	331.85	11.42	-30.2	-31.5	12.9	2.21e-05	0	44	102	1048576	21	4187
2026-01-25 11:31:40.12	331.93	11.34	-30.2	-31.6	12.8	3.58e-05	0	44	102	1048576	21	4212
2026-01-25 11:31:41.12	332.00	11.26	-30.1	-31.1	13.1	3.73e-05	0	44	102	1048576	21	4064
2026-01-25 11:31:42.12	332.08	11.17	-30.3	-31.7	12.8	5.72e-05	0	44	102	1048576	21	4240
2026-01-25 11:31:43.13	332.16	11.09	-30.2	-31.6	12.8	6.48e-05	0	44	102	1048576	21	4205
2026-01-25 11:31:44.14	332.23	11.01	-30.1	-31.3	13.0	2.89e-05	0	44	102	1048576	21	4121
2026-01-25 11:31:45.14	332.31	10.92	-30.2	-31.6	12.8	5.18e-05	0	44	102	1048576	21	4200
2026-01-25 11:31:46.15	332.38	10.84	-30.2	-31.5	12.9	5.26e-05	0	44	102	1048576	21	4186
2026-01-25 11:31:47.15	332.46	10.76	-30.3	-31.6	12.7	5.87e-05	0	44	102	1048576	21	4226
2026-01-25 11:31:48.15	332.53	10.68	-30.3	-31.7	12.7	7.85e-05	0	44	102	1048576	21	4242
2026-01-25 11:31:49.15	332.61	10.60	-30.2	-31.6	12.8	8.39e-05	0	44	102	1048576	21	4207
2026-01-25 11:31:50.16	332.68	10.51	-30.3	-31.7	12.7	9.07e-05	0	44	102	1048576	21	4245
2026-01-25 11:31:51.17	332.75	10.43	-30.3	-31.9	12.5	1.04e-04	0	44	102	1048576	21	4328
2026-01-25 11:31:52.17	332.83	10.35	-30.4	-32.1	12.5	9.99e-05	0	44	102	1048576	21	4379
2026-01-25 11:31:53.17	332.90	10.27	-30.5	-32.4	12.2	1.68e-04	0	44	102	1048576	21	4488
2026-01-25 11:31:54.18	332.97	10.19	-30.5	-32.5	12.1	2.20e-04	0	44	102	1048576	21	4515
2026-01-25 11:31:55.18	333.04	10.11	-30.5	-32.4	12.2	2.23e-04	0	44	102	1048576	21	4487
2026-01-25 11:31:56.19	333.12	10.03	-30.6	-32.7	11.9	2.70e-04	0	44	102	1048576	21	4600
2026-01-25 11:31:57.19	333.19	9.95	-30.6	-32.6	12.0	3.65e-04	0	44	102	1048576	21	4557
2026-01-25 11:31:58.20	333.26	9.87	-30.8	-33.2	11.6	5.10e-04	0	44	102	1048576	21	4774
2026-01-25 11:31:59.20	333.33	9.79	-30.8	-33.3	11.6	6.06e-04	0	44	102	1048576	21	4804
2026-01-25 11:32:00.21	333.40	9.71	-30.9	-33.5	11.4	7.16e-04	0	44	102	1048576	21	4891
2026-01-25 11:32:01.21	333.47	9.63	-30.9	-33.6	11.3	8.91e-04	0	44	102	1048576	21	4935
2026-01-25 11:32:02.21	333.54	9.56	-30.9	-33.6	11.3	1.45e-03	0	44	102	1048576	21	4937
2026-01-25 11:32:03.22	333.60	9.48	-31.0	-33.5	11.1	1.19e-03	0	44	102	1048576	22	4799
2026-01-25 11:32:04.22	333.67	9.40	-31.1	-33.7	10.9	1.72e-03	0	44	102	1048576	22	4859
2026-01-25 11:32:05.22	333.74	9.32	-31.1	-33.7	10.9	2.56e-03	0	44	102	1048576	22	4859
2026-01-25 11:32:06.23	333.81	9.24	-31.1	-33.8	10.8	2.58e-03	0	44	102	1048576	22	4927
2026-01-25 11:32:07.23	333.88	9.17	-31.1	-33.7	10.9	2.40e-03	0	44	102	1048576	22	4875
2026-01-25 11:32:08.24	333.94	9.09	-31.1	-33.7	10.8	2.06e-03	0	44	102	1048576	22	4895
2026-01-25 11:32:09.24	334.01	9.01	-31.2	-34.0	10.6	3.09e-03	0	44	102	1048576	22	5011
2026-01-25 11:32:10.25	334.08	8.93	-31.1	-33.8	10.8	3.13e-03	0	44	102	1048576	22	4924
2026-01-25 11:32:11.25	334.14	8.86	-31.1	-34.0	10.6	3.92e-03	0	44	102	1048576	22	4990
2026-01-25 11:32:12.25	334.21	8.78	-31.1	-33.8	10.7	3.67e-03	0	44	102	1048576	22	4914
2026-01-25 11:32:13.26	334.28	8.71	-31.1	-33.9	10.6	3.90e-03	0	44	102	1048576	22	4966
2026-01-25 11:32:14.27	334.34	8.63	-31.2	-34.2	10.4	4.03e-03	0	44	102	1048576	22	5072
2026-01-25 11:32:15.27	334.41	8.55	-31.2	-34.4	10.3	5.63e-03	0	44	102	1048576	22	5162
2026-01-25 11:32:16.27	334.47	8.48	-31.1	-34.0	10.6	3.76e-03	0	44	102	1048576	22	5002
2026-01-25 11:32:17.28	334.53	8.40	-31.1	-33.8	10.7	3.24e-03	0	44	102	1048576	22	4928
2026-01-25 11:32:18.28	334.60	8.33	-31.1	-33.8	10.7	2.89e-03	0	44	102	1048576	22	4919
2026-01-25 11:32:19.28	334.66	8.25	-31.0	-33.7	10.7	2.50e-03	0	44	102	1048576	22	4887
2026-01-25 11:32:20.28	334.73	8.18	-31.0	-33.7	10.7	2.75e-03	0	44	102	1048576	22	4879
2026-01-25 11:32:21.28	334.79	8.10	-30.9	-33.3	11.0	2.05e-03	0	44	102	1048576	22	4754
2026-01-25 11:32:22.29	334.85	8.03	-30.9	-33.4	11.0	1.99e-03	0	44	102	1048576	22	4775
2026-01-25 11:32:23.29	334.91	7.95	-31.0	-33.6	10.8	2.00e-03	0	44	102	1048576	22	4835
2026-01-25 11:32:24.30	334.98	7.88	-31.1	-33.8	10.6	2.23e-03	0	44	102	1048576	22	4939
2026-01-25 11:32:25.30	335.04	7.81	-31.0	-33.8	10.6	4.56e-03	0	44	102	1048576	22	4931
2026-01-25 11:32:26.30	335.10	7.73	-31.0	-33.7	10.7	3.70e-03	0	44	102	1048576	22	4907
2026-01-25 11:32:27.31	335.16	7.66	-31.1	-34.0	10.4	3.68e-03	0	44	102	1048576	22	5036
2026-01-25 11:32:28.31	335.22	7.58	-31.1	-34.1	10.3	4.50e-03	0	43	102	1048576	22	5073
2026-01-25 11:32:29.32	335.28	7.51	-31.1	-34.1	10.3	5.18e-03	0	43	102	1048576	22	5096
2026-01-25 11:32:30.32	335.34	7.44	-31.3	-34.6	9.9	8.65e-03	0	44	102	1048576	22	5295
2026-01-25 11:32:31.32	335.40	7.37	-31.2	-34.3	10.1	6.61e-03	0	44	102	1048576	22	5173
2026-01-25 11:32:32.33	335.46	7.29	-31.2	-34.3	10.2	5.09e-03	0	44	102	1048576	22	5160
2026-01-25 11:32:33.33	335.52	7.22	-31.2	-34.4	10.1	5.63e-03	0	44	102	1048576	22	5196
2026-01-25 11:32:34.34	335.58	7.15	-31.1	-34.2	10.2	7.59e-03	0	44	102	1048576	22	5123
2026-01-25 11:32:35.34	335.64	7.08	-31.7	-35.8	9.2	5.79e-03	0	44	102	1048576	23	5737
