passes_logs/2026/01/25/R2M6_AANII_01/R2M6_AANII_01__20260125_101422_AQUA_rec.log

#Pass ID: 20260125_101422_AQUA
#Satellite: AQUA
#Configuration: AQUA
#almurnet v.1.7.20240730
#Start time: 2026-01-25 10:14:22

#Version: 2.2.20231116
#Station: R2M6_AANII_01
#Location: 30.233357 lon 59.946436 lat
#TLE: 1 27424U 02022A   26024.53919639  .00001970  00000+0  40397-3 0  9996
#TLE: 2 27424  98.4098 351.1277 0001915  66.8561 358.4840 14.61855303262281

#Time	Az	El	Level	Level2	SNR	BER	BlckErr	Temp	State	Recorded	gain1	gain2
2026-01-25 10:14:22.36	98.75	7.00	-32.0	-51.1	3.8	7.45e-01	0	43	0	0	25	32294
2026-01-25 10:14:23.36	98.63	7.07	-32.0	-50.6	3.8	7.45e-01	0	43	104	0	26	30336
2026-01-25 10:14:24.36	98.52	7.13	-32.0	-50.4	3.8	7.45e-01	0	43	104	0	26	30038
2026-01-25 10:14:25.37	98.40	7.20	-32.0	-50.4	3.8	7.48e-01	0	43	104	0	26	30196
2026-01-25 10:14:26.37	98.29	7.26	-31.9	-50.4	3.8	7.42e-01	0	43	104	0	26	30148
2026-01-25 10:14:27.37	98.17	7.33	-31.8	-50.8	3.8	7.42e-01	0	43	104	0	25	31915
2026-01-25 10:14:28.37	98.06	7.39	-31.8	-50.8	3.8	7.44e-01	0	43	104	0	25	31939
2026-01-25 10:14:29.37	97.94	7.46	-31.7	-50.7	3.8	7.44e-01	0	43	104	0	25	31825
2026-01-25 10:14:30.37	97.82	7.52	-31.7	-50.5	3.8	7.45e-01	0	43	104	0	25	31471
2026-01-25 10:14:31.38	97.70	7.59	-31.6	-50.4	3.8	7.46e-01	0	43	104	0	25	31326
2026-01-25 10:14:32.39	97.58	7.66	-31.6	-50.3	3.8	7.45e-01	0	43	104	0	25	31036
2026-01-25 10:14:33.39	97.46	7.72	-31.6	-50.3	3.8	7.45e-01	0	43	104	0	25	31074
2026-01-25 10:14:34.40	97.34	7.79	-31.6	-50.2	3.8	7.50e-01	0	43	104	0	25	30649
2026-01-25 10:14:35.41	97.22	7.86	-31.7	-50.1	3.8	7.45e-01	0	43	104	0	25	30008
2026-01-25 10:14:36.40	97.10	7.92	-31.6	-50.1	3.8	7.47e-01	0	43	104	0	25	30364
2026-01-25 10:14:37.41	96.98	7.99	-31.6	-50.2	3.8	7.46e-01	0	43	104	0	25	30472
2026-01-25 10:14:38.42	96.85	8.05	-31.6	-50.2	3.8	7.42e-01	0	43	104	0	25	30634
2026-01-25 10:14:39.42	96.73	8.12	-31.6	-50.3	3.8	7.49e-01	0	43	104	0	25	30862
2026-01-25 10:14:40.43	96.61	8.19	-31.6	-50.3	3.8	7.44e-01	0	43	104	0	25	30854
2026-01-25 10:14:41.43	96.48	8.25	-31.6	-50.3	3.8	7.43e-01	0	43	104	0	25	31055
2026-01-25 10:14:42.43	96.36	8.32	-31.6	-50.2	3.8	7.46e-01	0	43	104	0	25	30514
2026-01-25 10:14:43.42	96.23	8.38	-31.5	-50.2	3.8	7.43e-01	0	43	104	0	25	31017
2026-01-25 10:14:44.43	96.11	8.45	-31.5	-50.1	3.8	7.47e-01	0	43	104	0	25	30725
2026-01-25 10:14:45.42	95.98	8.52	-31.5	-50.0	3.8	7.45e-01	0	43	104	0	25	30533
2026-01-25 10:14:46.43	95.85	8.58	-31.4	-50.1	3.8	7.44e-01	0	43	104	0	25	30706
2026-01-25 10:14:47.44	95.72	8.65	-31.5	-50.0	3.8	7.43e-01	0	43	104	0	25	30350
2026-01-25 10:14:48.44	95.59	8.72	-31.5	-50.2	3.8	7.44e-01	0	43	104	0	25	30961
2026-01-25 10:14:49.44	95.46	8.78	-31.5	-50.3	3.8	7.49e-01	0	43	104	0	25	31132
2026-01-25 10:14:50.45	95.33	8.85	-31.5	-50.2	3.8	7.46e-01	0	44	104	0	25	30722
2026-01-25 10:14:51.45	95.20	8.92	-31.6	-50.4	3.8	7.49e-01	0	43	104	0	25	31275
2026-01-25 10:14:52.45	95.07	8.99	-31.6	-50.4	3.8	7.43e-01	0	43	104	0	25	31236
2026-01-25 10:14:53.46	94.94	9.05	-31.6	-50.5	3.8	7.47e-01	0	43	104	0	25	31573
2026-01-25 10:14:54.46	94.80	9.12	-31.7	-50.5	3.8	7.45e-01	0	43	104	0	25	31527
2026-01-25 10:14:55.46	94.67	9.19	-31.7	-50.6	3.8	7.48e-01	0	43	104	0	25	31447
2026-01-25 10:14:56.47	94.54	9.26	-31.8	-50.2	3.8	7.46e-01	0	43	104	0	25	29851
2026-01-25 10:14:57.47	94.40	9.32	-31.8	-49.4	3.8	7.47e-01	0	43	104	0	25	27187
2026-01-25 10:14:58.47	94.27	9.39	-31.8	-49.3	3.8	7.46e-01	0	43	104	0	25	26766
2026-01-25 10:14:59.48	94.13	9.46	-32.0	-49.9	3.8	7.43e-01	0	43	104	0	25	28340
2026-01-25 10:15:00.49	93.99	9.53	-32.1	-49.5	3.9	7.45e-01	0	43	104	0	25	26605
2026-01-25 10:15:01.49	93.85	9.59	-32.2	-47.5	4.0	7.38e-01	0	43	104	0	25	21142
2026-01-25 10:15:02.49	93.71	9.66	-32.2	-45.7	5.3	7.04e-01	0	43	104	0	25	17005
2026-01-25 10:15:03.50	93.57	9.73	-32.2	-45.0	5.8	6.89e-01	0	43	102	524288	25	15745
2026-01-25 10:15:04.50	93.43	9.80	-32.2	-44.5	6.3	6.75e-01	0	43	102	524288	25	14772
2026-01-25 10:15:05.50	93.29	9.86	-32.3	-44.7	6.3	6.78e-01	0	43	102	524288	25	14894
2026-01-25 10:15:06.51	93.15	9.93	-32.4	-44.0	7.1	6.64e-01	0	43	102	524288	25	13653
2026-01-25 10:15:07.52	93.01	10.00	-32.7	-44.5	6.8	6.68e-01	0	43	102	524288	26	13994
2026-01-25 10:15:08.52	92.87	10.07	-32.9	-46.3	5.6	6.95e-01	0	43	102	524288	26	16739
2026-01-25 10:15:09.53	92.72	10.14	-32.9	-43.9	7.6	6.52e-01	0	43	102	524288	26	12786
2026-01-25 10:15:10.54	92.58	10.21	-33.0	-44.0	7.7	6.52e-01	0	43	102	524288	26	12820
2026-01-25 10:15:11.54	92.43	10.27	-33.0	-43.9	7.9	6.47e-01	0	43	102	524288	26	12608
2026-01-25 10:15:12.55	92.28	10.34	-33.1	-43.8	8.1	6.43e-01	0	43	102	524288	26	12378
2026-01-25 10:15:13.55	92.14	10.41	-33.0	-43.1	8.8	6.37e-01	0	43	102	524288	26	11463
2026-01-25 10:15:14.55	91.99	10.48	-33.0	-42.4	9.4	6.31e-01	0	43	102	524288	26	10656
2026-01-25 10:15:15.55	91.84	10.55	-32.9	-41.8	10.1	6.24e-01	0	43	102	524288	26	9971
2026-01-25 10:15:16.56	91.69	10.61	-32.8	-41.2	10.7	6.18e-01	0	43	102	524288	26	9398
2026-01-25 10:15:17.56	91.54	10.68	-32.8	-40.8	11.1	6.15e-01	0	43	102	524288	26	9033
2026-01-25 10:15:18.56	91.39	10.75	-32.8	-40.3	11.6	6.14e-01	0	43	102	524288	26	8582
2026-01-25 10:15:19.57	91.24	10.82	-32.8	-40.1	11.9	6.12e-01	0	43	102	524288	26	8394
2026-01-25 10:15:20.57	91.09	10.89	-32.7	-39.8	12.2	6.14e-01	0	43	102	524288	26	8175
2026-01-25 10:15:21.58	90.94	10.96	-32.7	-39.9	12.1	6.13e-01	0	44	102	524288	26	8176
2026-01-25 10:15:22.58	90.78	11.03	-32.6	-39.2	12.7	6.11e-01	0	43	102	524288	26	7678
2026-01-25 10:15:23.59	90.63	11.09	-32.3	-37.9	13.7	6.08e-01	0	43	102	524288	26	6864
2026-01-25 10:15:24.60	90.47	11.16	-32.0	-36.6	14.7	6.09e-01	0	43	102	524288	26	6112
2026-01-25 10:15:25.60	90.32	11.23	-31.6	-35.9	15.6	6.08e-01	0	43	102	524288	25	5866
2026-01-25 10:15:26.61	90.16	11.30	-31.3	-35.1	16.5	6.07e-01	0	43	102	524288	24	5615
2026-01-25 10:15:27.61	90.00	11.37	-31.0	-34.2	17.2	6.08e-01	0	43	102	524288	24	5235
2026-01-25 10:15:28.62	89.84	11.44	-30.7	-33.9	17.8	6.05e-01	0	44	102	524288	23	5183
2026-01-25 10:15:29.62	89.68	11.51	-30.5	-33.3	18.1	6.07e-01	0	44	102	524288	23	4976
2026-01-25 10:15:30.62	89.53	11.58	-30.4	-33.0	18.3	6.04e-01	0	43	102	524288	23	4856
2026-01-25 10:15:31.62	89.36	11.64	-30.4	-33.4	18.4	6.05e-01	0	44	102	524288	22	5096
2026-01-25 10:15:32.62	89.20	11.71	-30.4	-33.4	18.4	6.07e-01	0	43	102	524288	22	5111
2026-01-25 10:15:33.63	89.04	11.78	-30.3	-33.3	18.5	6.05e-01	0	43	102	524288	22	5046
2026-01-25 10:15:34.64	88.88	11.85	-30.3	-33.1	18.7	6.05e-01	0	44	102	524288	22	4993
2026-01-25 10:15:35.63	88.71	11.92	-30.3	-33.2	18.7	6.05e-01	0	43	102	524288	22	5007
2026-01-25 10:15:36.63	88.55	11.99	-30.3	-33.2	18.6	6.06e-01	0	44	102	524288	22	5009
2026-01-25 10:15:37.63	88.38	12.05	-30.4	-33.3	18.6	6.07e-01	0	44	102	524288	22	5044
2026-01-25 10:15:38.63	88.22	12.12	-30.4	-33.3	18.7	6.05e-01	0	43	102	524288	22	5034
2026-01-25 10:15:39.64	88.05	12.19	-30.4	-33.3	18.6	6.08e-01	0	43	102	524288	22	5056
2026-01-25 10:15:40.65	87.88	12.26	-30.3	-33.3	18.7	6.05e-01	0	43	102	524288	22	5033
2026-01-25 10:15:41.65	87.71	12.33	-30.2	-33.0	18.9	6.06e-01	0	43	102	524288	22	4935
2026-01-25 10:15:42.65	87.54	12.40	-30.2	-33.0	18.9	6.08e-01	0	43	102	524288	22	4924
2026-01-25 10:15:43.66	87.37	12.47	-30.3	-33.2	18.7	6.06e-01	0	43	102	524288	22	5028
2026-01-25 10:15:44.66	87.20	12.54	-30.3	-33.2	18.7	6.04e-01	0	43	102	524288	22	5032
2026-01-25 10:15:45.66	87.03	12.60	-30.3	-33.3	18.7	6.07e-01	0	43	102	524288	22	5030
2026-01-25 10:15:46.66	86.85	12.67	-30.4	-33.5	18.6	6.06e-01	0	43	102	524288	22	5114
2026-01-25 10:15:47.67	86.68	12.74	-30.4	-33.4	18.7	6.06e-01	0	43	102	524288	22	5083
2026-01-25 10:15:48.67	86.50	12.81	-30.3	-33.2	18.8	6.06e-01	0	43	102	524288	22	4991
2026-01-25 10:15:49.67	86.33	12.88	-30.3	-33.1	18.9	6.07e-01	0	43	102	524288	22	4968
2026-01-25 10:15:50.68	86.15	12.95	-30.3	-33.2	18.9	6.06e-01	0	43	102	524288	22	4985
2026-01-25 10:15:51.68	85.97	13.01	-30.3	-33.0	18.9	6.07e-01	0	43	102	524288	22	4940
2026-01-25 10:15:52.69	85.79	13.08	-30.2	-32.9	19.0	6.07e-01	0	43	102	524288	22	4894
2026-01-25 10:15:53.70	85.61	13.15	-30.2	-32.9	19.0	6.07e-01	0	43	102	524288	22	4894
2026-01-25 10:15:54.70	85.43	13.22	-30.3	-33.1	18.9	6.06e-01	0	43	102	524288	22	4972
2026-01-25 10:15:55.70	85.25	13.29	-30.3	-33.0	18.9	6.08e-01	0	43	102	524288	22	4948
2026-01-25 10:15:56.70	85.07	13.35	-30.2	-33.0	19.0	6.07e-01	0	44	102	524288	22	4926
2026-01-25 10:15:57.71	84.88	13.42	-30.2	-32.9	19.0	6.07e-01	0	43	102	524288	22	4896
2026-01-25 10:15:58.71	84.70	13.49	-30.3	-33.1	18.9	6.04e-01	0	44	102	524288	22	4968
2026-01-25 10:15:59.71	84.52	13.56	-30.4	-33.4	18.7	6.05e-01	0	44	102	524288	22	5083
2026-01-25 10:16:00.71	84.33	13.63	-30.4	-33.4	18.7	6.08e-01	0	44	102	524288	22	5069
2026-01-25 10:16:01.72	84.14	13.69	-30.4	-33.2	18.8	6.06e-01	0	44	102	524288	22	5012
2026-01-25 10:16:02.72	83.96	13.76	-30.4	-33.3	18.8	6.07e-01	0	44	102	524288	22	5026
2026-01-25 10:16:03.73	83.77	13.83	-30.5	-33.5	18.7	6.06e-01	0	43	102	524288	22	5123
2026-01-25 10:16:04.74	83.57	13.90	-30.4	-33.4	18.8	6.06e-01	0	43	102	524288	22	5073
2026-01-25 10:16:05.74	83.38	13.96	-30.5	-33.6	18.6	6.09e-01	0	44	102	524288	22	5139
2026-01-25 10:16:06.74	83.19	14.03	-30.4	-33.3	18.8	6.04e-01	0	44	102	524288	22	5051
2026-01-25 10:16:07.74	83.00	14.10	-30.3	-33.0	19.0	6.06e-01	0	43	102	524288	22	4918
2026-01-25 10:16:08.75	82.81	14.17	-30.3	-32.9	19.0	6.06e-01	0	43	102	524288	22	4911
2026-01-25 10:16:09.75	82.61	14.23	-30.3	-33.0	19.1	6.06e-01	0	44	102	524288	22	4917
2026-01-25 10:16:10.75	82.42	14.30	-30.3	-33.1	19.0	6.04e-01	0	43	102	524288	22	4976
2026-01-25 10:16:11.76	82.22	14.37	-30.3	-33.2	18.9	6.05e-01	0	44	102	524288	22	4985
2026-01-25 10:16:12.76	82.02	14.43	-30.4	-33.3	18.9	6.07e-01	0	43	102	524288	22	5039
2026-01-25 10:16:13.77	81.82	14.50	-30.3	-33.2	18.9	6.09e-01	0	44	102	524288	22	4982
2026-01-25 10:16:14.78	81.62	14.57	-30.4	-33.2	18.9	6.07e-01	0	44	102	524288	22	5006
2026-01-25 10:16:15.78	81.42	14.63	-30.4	-33.4	18.8	6.05e-01	0	43	102	524288	22	5085
2026-01-25 10:16:16.79	81.22	14.70	-30.4	-33.3	18.8	6.06e-01	0	43	102	524288	22	5030
2026-01-25 10:16:17.79	81.02	14.76	-30.5	-33.7	18.6	6.04e-01	0	43	102	524288	22	5167
2026-01-25 10:16:18.80	80.82	14.83	-30.4	-33.4	18.8	6.09e-01	0	43	102	524288	22	5065
2026-01-25 10:16:19.81	80.61	14.90	-30.3	-33.1	19.0	6.07e-01	0	43	102	524288	22	4954
2026-01-25 10:16:20.81	80.41	14.96	-30.3	-33.0	19.0	6.03e-01	0	43	102	524288	22	4915
2026-01-25 10:16:21.82	80.20	15.03	-30.3	-32.9	19.1	6.06e-01	0	43	102	524288	22	4896
2026-01-25 10:16:22.82	79.99	15.09	-30.3	-33.2	19.0	6.04e-01	0	43	102	524288	22	4978
2026-01-25 10:16:23.82	79.78	15.16	-30.3	-33.1	19.0	6.07e-01	0	44	102	524288	22	4954
2026-01-25 10:16:24.83	79.57	15.22	-30.3	-32.9	19.1	6.07e-01	0	44	102	524288	22	4894
2026-01-25 10:16:25.83	79.37	15.29	-30.2	-32.8	19.2	6.06e-01	0	44	102	524288	22	4853
2026-01-25 10:16:26.83	79.16	15.35	-30.3	-33.0	19.1	6.06e-01	0	44	102	524288	22	4933
2026-01-25 10:16:27.84	78.94	15.42	-30.2	-32.8	19.2	6.06e-01	0	43	102	524288	22	4859
2026-01-25 10:16:28.85	78.73	15.48	-30.2	-32.9	19.2	6.05e-01	0	43	102	524288	22	4873
2026-01-25 10:16:29.85	78.51	15.54	-30.2	-32.9	19.2	6.05e-01	0	44	102	524288	22	4869
2026-01-25 10:16:30.86	78.30	15.61	-30.3	-33.0	19.1	6.07e-01	0	44	102	524288	22	4927
2026-01-25 10:16:31.86	78.08	15.67	-30.5	-33.4	18.9	6.06e-01	0	43	102	524288	22	5065
2026-01-25 10:16:32.87	77.87	15.73	-30.4	-33.2	19.0	6.04e-01	0	43	102	524288	22	4987
2026-01-25 10:16:33.88	77.65	15.80	-30.3	-33.0	19.1	6.05e-01	0	43	102	524288	22	4911
2026-01-25 10:16:34.89	77.43	15.86	-30.3	-33.1	19.1	6.03e-01	0	43	102	524288	22	4931
2026-01-25 10:16:35.89	77.21	15.92	-30.3	-33.1	19.1	6.08e-01	0	43	102	524288	22	4934
2026-01-25 10:16:36.90	76.98	15.99	-30.3	-33.1	19.1	6.05e-01	0	43	102	524288	22	4936
2026-01-25 10:16:37.91	76.76	16.05	-30.4	-33.2	19.0	6.07e-01	0	43	102	524288	22	4981
2026-01-25 10:16:38.91	76.54	16.11	-30.3	-32.9	19.2	6.06e-01	0	44	102	524288	22	4860
2026-01-25 10:16:39.92	76.31	16.17	-30.2	-32.7	19.3	6.06e-01	0	43	102	524288	22	4802
2026-01-25 10:16:40.92	76.09	16.23	-30.3	-32.9	19.2	6.06e-01	0	44	102	524288	22	4862
2026-01-25 10:16:41.92	75.87	16.29	-30.4	-33.2	19.0	6.06e-01	0	44	102	524288	22	4991
2026-01-25 10:16:42.92	75.64	16.36	-30.5	-33.4	18.9	6.06e-01	0	43	102	524288	22	5044
2026-01-25 10:16:43.92	75.41	16.42	-30.5	-33.4	18.9	6.07e-01	0	44	102	524288	22	5041
2026-01-25 10:16:44.92	75.19	16.48	-30.5	-33.5	18.8	6.05e-01	0	44	102	524288	22	5085
2026-01-25 10:16:45.92	74.96	16.54	-30.6	-33.9	18.6	6.09e-01	0	44	102	524288	22	5218
2026-01-25 10:16:46.93	74.72	16.60	-30.5	-33.5	18.8	6.06e-01	0	44	102	524288	22	5089
2026-01-25 10:16:47.94	74.49	16.66	-30.4	-33.1	19.0	6.07e-01	0	44	102	524288	22	4947
2026-01-25 10:16:48.95	74.26	16.72	-30.3	-33.0	19.1	6.05e-01	0	43	102	524288	22	4918
2026-01-25 10:16:49.96	74.02	16.77	-30.5	-33.4	18.9	6.07e-01	0	44	102	524288	22	5048
2026-01-25 10:16:50.96	73.79	16.83	-30.5	-33.4	18.9	6.06e-01	0	43	102	524288	22	5066
2026-01-25 10:16:51.97	73.55	16.89	-30.4	-33.3	19.0	6.07e-01	0	43	102	524288	22	4998
2026-01-25 10:16:52.98	73.31	16.95	-30.4	-33.2	19.0	6.08e-01	0	43	102	524288	22	4984
2026-01-25 10:16:53.98	73.08	17.01	-30.4	-33.1	19.1	6.04e-01	0	43	102	524288	22	4938
2026-01-25 10:16:54.99	72.84	17.06	-30.4	-33.1	19.1	6.09e-01	0	43	102	524288	22	4951
2026-01-25 10:16:55.99	72.60	17.12	-30.5	-33.5	18.9	6.06e-01	0	43	102	524288	22	5081
2026-01-25 10:16:57.00	72.36	17.18	-30.4	-33.2	19.0	6.07e-01	0	44	102	524288	22	4971
2026-01-25 10:16:57.99	72.12	17.23	-30.4	-33.3	19.0	6.06e-01	0	43	102	524288	22	5005
2026-01-25 10:16:58.99	71.88	17.29	-30.6	-33.6	18.8	6.04e-01	0	44	102	524288	22	5115
2026-01-25 10:16:59.99	71.63	17.34	-30.5	-33.4	18.9	6.07e-01	0	43	102	524288	22	5058
2026-01-25 10:17:00.99	71.39	17.40	-30.5	-33.5	18.8	6.07e-01	0	43	102	524288	22	5070
2026-01-25 10:17:01.99	71.15	17.45	-30.7	-33.9	18.6	6.06e-01	0	43	102	524288	22	5227
2026-01-25 10:17:02.99	70.90	17.51	-30.5	-33.5	18.9	6.06e-01	0	44	102	524288	22	5069
2026-01-25 10:17:04.00	70.65	17.56	-30.4	-33.3	18.9	6.04e-01	0	44	102	524288	22	4998
2026-01-25 10:17:05.00	70.41	17.62	-30.4	-33.2	19.0	6.06e-01	0	43	102	524288	22	4989
2026-01-25 10:17:06.01	70.16	17.67	-30.4	-33.2	19.0	6.07e-01	0	43	102	524288	22	4980
2026-01-25 10:17:07.01	69.91	17.72	-30.5	-33.5	18.9	6.06e-01	0	44	102	524288	22	5072
2026-01-25 10:17:08.02	69.66	17.78	-30.5	-33.3	19.0	6.06e-01	0	43	102	524288	22	5015
2026-01-25 10:17:09.03	69.40	17.83	-30.5	-33.4	19.0	6.07e-01	0	43	102	524288	22	5033
2026-01-25 10:17:10.03	69.15	17.88	-30.5	-33.4	19.0	6.06e-01	0	44	102	524288	22	5049
2026-01-25 10:17:11.04	68.90	17.93	-30.7	-33.9	18.7	6.07e-01	0	44	102	524288	22	5213
2026-01-25 10:17:12.05	68.64	17.98	-30.5	-33.5	18.9	6.04e-01	0	43	102	524288	22	5067
2026-01-25 10:17:13.06	68.38	18.03	-30.4	-33.3	19.1	6.04e-01	0	44	102	524288	22	4986
2026-01-25 10:17:14.06	68.13	18.08	-30.4	-33.2	19.1	6.07e-01	0	44	102	524288	22	4970
2026-01-25 10:17:15.06	67.87	18.13	-30.4	-33.3	19.1	6.06e-01	0	44	102	524288	22	4987
2026-01-25 10:17:16.06	67.61	18.18	-30.5	-33.5	18.9	6.07e-01	0	44	102	524288	22	5089
2026-01-25 10:17:17.05	67.36	18.23	-30.4	-33.3	19.1	6.07e-01	0	43	102	524288	22	5019
2026-01-25 10:17:18.06	67.10	18.28	-30.6	-33.6	18.9	6.07e-01	0	44	102	524288	22	5125
2026-01-25 10:17:19.06	66.84	18.32	-30.7	-34.0	18.7	6.07e-01	0	44	102	524288	22	5243
2026-01-25 10:17:20.07	66.57	18.37	-30.5	-33.5	18.9	6.05e-01	0	43	102	524288	22	5075
2026-01-25 10:17:21.08	66.31	18.42	-30.5	-33.4	19.0	6.05e-01	0	44	102	524288	22	5024
2026-01-25 10:17:22.08	66.05	18.46	-30.5	-33.3	19.0	6.09e-01	0	44	102	524288	22	4993
2026-01-25 10:17:23.09	65.78	18.51	-30.5	-33.3	19.0	6.05e-01	0	44	102	524288	22	4990
2026-01-25 10:17:24.09	65.52	18.55	-30.5	-33.3	19.0	6.06e-01	0	44	102	524288	22	5008
2026-01-25 10:17:25.09	65.25	18.60	-30.5	-33.5	18.9	6.05e-01	0	44	102	524288	22	5084
2026-01-25 10:17:26.10	64.99	18.64	-30.4	-33.2	19.1	6.05e-01	0	44	102	524288	22	4973
2026-01-25 10:17:27.10	64.72	18.68	-30.4	-33.2	19.1	6.03e-01	0	44	102	524288	22	4969
2026-01-25 10:17:28.11	64.45	18.73	-30.4	-33.3	19.1	6.04e-01	0	43	102	524288	22	4974
2026-01-25 10:17:29.11	64.18	18.77	-30.6	-33.5	18.9	6.08e-01	0	44	102	524288	22	5077
2026-01-25 10:17:30.11	63.91	18.81	-30.4	-33.2	19.2	6.06e-01	0	43	102	524288	22	4946
2026-01-25 10:17:31.12	63.64	18.85	-30.5	-33.3	19.1	6.08e-01	0	44	102	524288	22	4998
2026-01-25 10:17:32.12	63.37	18.89	-30.6	-33.7	18.9	6.08e-01	0	44	102	524288	22	5142
2026-01-25 10:17:33.12	63.10	18.93	-30.5	-33.5	19.0	6.06e-01	0	44	102	524288	22	5051
2026-01-25 10:17:34.12	62.83	18.97	-30.6	-33.7	18.9	6.07e-01	0	43	102	524288	22	5126
2026-01-25 10:17:35.12	62.56	19.01	-30.8	-34.1	18.6	6.06e-01	0	43	102	524288	22	5279
2026-01-25 10:17:36.12	62.28	19.05	-30.6	-33.7	18.9	6.07e-01	0	43	102	524288	22	5124
2026-01-25 10:17:37.12	62.01	19.09	-30.6	-33.7	18.9	6.06e-01	0	43	102	524288	22	5150
2026-01-25 10:17:38.13	61.73	19.12	-30.6	-33.8	18.8	6.05e-01	0	43	102	524288	22	5168
2026-01-25 10:17:39.14	61.45	19.16	-30.7	-33.9	18.7	6.05e-01	0	43	102	524288	22	5206
2026-01-25 10:17:40.14	61.18	19.20	-30.6	-33.7	18.8	6.06e-01	0	43	102	524288	22	5153
2026-01-25 10:17:41.14	60.90	19.23	-30.6	-33.7	18.9	6.08e-01	0	44	102	524288	22	5113
2026-01-25 10:17:42.15	60.62	19.27	-30.7	-34.0	18.7	6.07e-01	0	44	102	524288	22	5234
2026-01-25 10:17:43.15	60.34	19.30	-30.7	-33.9	18.7	6.09e-01	0	44	102	524288	22	5207
2026-01-25 10:17:44.15	60.06	19.33	-31.0	-34.6	18.3	6.05e-01	0	44	102	524288	22	5482
2026-01-25 10:17:45.14	59.79	19.37	-30.8	-34.1	18.6	6.08e-01	0	44	102	524288	22	5276
2026-01-25 10:17:46.15	59.51	19.40	-30.5	-33.4	19.0	6.08e-01	0	44	102	524288	22	5020
2026-01-25 10:17:47.15	59.22	19.43	-30.4	-33.2	19.2	6.08e-01	0	43	102	524288	22	4932
2026-01-25 10:17:48.16	58.94	19.46	-30.5	-33.3	19.0	6.06e-01	0	43	102	524288	22	5001
2026-01-25 10:17:49.16	58.66	19.49	-30.6	-33.6	18.9	6.07e-01	0	43	102	524288	22	5094
2026-01-25 10:17:50.16	58.38	19.52	-30.7	-33.8	18.8	6.06e-01	0	43	102	524288	22	5164
2026-01-25 10:17:51.16	58.09	19.55	-30.5	-33.5	19.0	6.06e-01	0	44	102	524288	22	5044
2026-01-25 10:17:52.16	57.81	19.58	-30.5	-33.4	18.9	6.05e-01	0	43	102	524288	22	5040
2026-01-25 10:17:53.17	57.52	19.61	-30.6	-33.6	18.9	6.04e-01	0	44	102	524288	22	5089
2026-01-25 10:17:54.17	57.24	19.63	-30.5	-33.4	19.0	6.07e-01	0	43	102	524288	22	5011
2026-01-25 10:17:55.18	56.95	19.66	-30.5	-33.4	19.0	6.06e-01	0	43	102	524288	22	5028
2026-01-25 10:17:56.18	56.67	19.69	-30.6	-33.7	18.8	6.05e-01	0	44	102	524288	22	5118
2026-01-25 10:17:57.19	56.38	19.71	-30.5	-33.3	19.1	6.04e-01	0	44	102	524288	22	4979
2026-01-25 10:17:58.19	56.09	19.73	-30.6	-33.6	18.9	6.05e-01	0	44	102	524288	22	5110
2026-01-25 10:17:59.20	55.80	19.76	-30.6	-33.7	18.9	6.07e-01	0	44	102	524288	22	5147
2026-01-25 10:18:00.21	55.51	19.78	-30.6	-33.7	18.9	6.06e-01	0	44	102	524288	22	5123
2026-01-25 10:18:01.21	55.22	19.80	-30.6	-33.7	18.9	6.07e-01	0	44	102	524288	22	5136
2026-01-25 10:18:02.22	54.93	19.82	-30.8	-34.1	18.6	6.06e-01	0	43	102	524288	22	5300
2026-01-25 10:18:03.22	54.64	19.84	-30.7	-33.9	18.7	6.06e-01	0	44	102	524288	22	5219
2026-01-25 10:18:04.23	54.35	19.86	-30.7	-34.0	18.7	6.05e-01	0	44	102	524288	22	5254
2026-01-25 10:18:05.23	54.06	19.88	-30.8	-34.1	18.6	6.08e-01	0	44	102	524288	22	5292
2026-01-25 10:18:06.23	53.77	19.90	-30.9	-34.5	18.3	6.02e-01	0	44	102	524288	22	5444
2026-01-25 10:18:07.23	53.48	19.92	-30.7	-34.0	18.6	6.06e-01	0	43	102	524288	22	5260
2026-01-25 10:18:08.24	53.19	19.94	-30.6	-33.8	18.8	6.05e-01	0	44	102	524288	22	5164
2026-01-25 10:18:09.24	52.90	19.95	-30.7	-34.1	18.6	6.08e-01	0	44	102	524288	22	5281
2026-01-25 10:18:10.24	52.61	19.97	-30.7	-34.0	18.6	6.07e-01	0	44	102	524288	22	5271
2026-01-25 10:18:11.25	52.31	19.98	-30.9	-34.4	18.4	6.06e-01	0	44	102	524288	22	5416
2026-01-25 10:18:12.26	52.02	20.00	-30.7	-34.0	18.7	6.06e-01	0	44	102	524288	22	5251
2026-01-25 10:18:13.27	51.72	20.01	-30.6	-33.6	18.9	6.05e-01	0	44	102	524288	22	5083
2026-01-25 10:18:14.27	51.43	20.02	-30.5	-33.4	19.0	6.06e-01	0	44	102	524288	22	5015
2026-01-25 10:18:15.27	51.14	20.04	-30.4	-33.2	19.1	6.05e-01	0	44	102	524288	22	4955
2026-01-25 10:18:16.27	50.84	20.05	-30.5	-33.4	19.0	6.08e-01	0	44	102	524288	22	5030
2026-01-25 10:18:17.28	50.55	20.06	-30.6	-33.6	19.0	6.05e-01	0	44	102	524288	22	5080
2026-01-25 10:18:18.28	50.26	20.07	-30.5	-33.3	19.1	6.07e-01	0	44	102	524288	22	5006
2026-01-25 10:18:19.28	49.96	20.08	-30.5	-33.5	19.0	6.05e-01	0	44	102	524288	22	5062
2026-01-25 10:18:20.29	49.67	20.08	-30.5	-33.5	19.0	6.06e-01	0	44	102	524288	22	5048
2026-01-25 10:18:21.29	49.37	20.09	-30.5	-33.3	19.1	6.06e-01	0	44	102	524288	22	4977
2026-01-25 10:18:22.30	49.08	20.10	-30.5	-33.3	19.1	6.05e-01	0	44	102	524288	22	4982
2026-01-25 10:18:23.30	48.78	20.10	-30.4	-33.2	19.2	6.05e-01	0	44	102	524288	22	4949
2026-01-25 10:18:24.30	48.49	20.11	-30.5	-33.5	19.0	6.07e-01	0	44	102	524288	22	5048
2026-01-25 10:18:25.31	48.19	20.11	-30.6	-33.5	19.0	6.06e-01	0	43	102	524288	22	5068
2026-01-25 10:18:26.31	47.90	20.12	-30.5	-33.4	19.1	6.03e-01	0	44	102	524288	22	5024
2026-01-25 10:18:27.32	47.60	20.12	-30.5	-33.3	19.2	6.07e-01	0	43	102	524288	22	4981
2026-01-25 10:18:28.32	47.30	20.12	-30.5	-33.4	19.1	6.08e-01	0	44	102	524288	22	5016
2026-01-25 10:18:29.32	47.01	20.12	-30.5	-33.3	19.1	6.07e-01	0	44	102	524288	22	4984
2026-01-25 10:18:30.33	46.71	20.12	-30.5	-33.3	19.1	6.06e-01	0	44	102	524288	22	4989
2026-01-25 10:18:31.34	46.42	20.12	-30.5	-33.5	19.0	6.07e-01	0	43	102	524288	22	5041
2026-01-25 10:18:32.34	46.12	20.12	-30.4	-33.2	19.2	6.06e-01	0	43	102	524288	22	4930
2026-01-25 10:18:33.34	45.83	20.12	-30.6	-33.5	19.0	6.06e-01	0	44	102	524288	22	5073
2026-01-25 10:18:34.34	45.53	20.12	-30.5	-33.4	19.1	6.06e-01	0	43	102	524288	22	5021
2026-01-25 10:18:35.35	45.24	20.11	-30.4	-33.2	19.2	6.06e-01	0	43	102	524288	22	4950
2026-01-25 10:18:36.36	44.94	20.11	-30.5	-33.4	19.1	6.04e-01	0	44	102	524288	22	5022
2026-01-25 10:18:37.37	44.64	20.10	-30.7	-33.9	18.8	6.08e-01	0	44	102	524288	22	5203
2026-01-25 10:18:38.37	44.35	20.10	-30.7	-33.9	18.8	6.05e-01	0	43	102	524288	22	5195
2026-01-25 10:18:39.37	44.05	20.09	-30.7	-33.9	18.8	6.06e-01	0	43	102	524288	22	5219
2026-01-25 10:18:40.38	43.76	20.08	-30.7	-33.8	18.8	6.06e-01	0	44	102	524288	22	5190
2026-01-25 10:18:41.38	43.46	20.08	-30.7	-33.8	18.8	6.07e-01	0	44	102	524288	22	5189
2026-01-25 10:18:42.38	43.17	20.07	-30.7	-33.9	18.8	6.07e-01	0	43	102	524288	22	5199
2026-01-25 10:18:43.39	42.88	20.06	-30.7	-34.0	18.7	6.05e-01	0	43	102	524288	22	5256
2026-01-25 10:18:44.39	42.58	20.05	-30.6	-33.6	18.9	6.05e-01	0	43	102	524288	22	5117
2026-01-25 10:18:45.40	42.29	20.04	-30.7	-33.9	18.8	6.05e-01	0	44	102	524288	22	5209
2026-01-25 10:18:46.39	42.00	20.03	-30.7	-33.9	18.7	6.07e-01	0	44	102	524288	22	5227
2026-01-25 10:18:47.40	41.70	20.01	-30.6	-33.7	18.9	6.07e-01	0	44	102	524288	22	5123
2026-01-25 10:18:48.41	41.41	20.00	-30.6	-33.6	18.9	6.05e-01	0	44	102	524288	22	5103
2026-01-25 10:18:49.42	41.11	19.99	-30.7	-33.9	18.8	6.07e-01	0	44	102	524288	22	5197
2026-01-25 10:18:50.42	40.82	19.97	-30.7	-34.0	18.7	6.06e-01	0	43	102	524288	22	5246
2026-01-25 10:18:51.42	40.53	19.96	-30.7	-34.1	18.6	6.06e-01	0	44	102	524288	22	5281
2026-01-25 10:18:52.42	40.24	19.94	-30.5	-33.5	18.9	6.07e-01	0	44	102	524288	22	5084
2026-01-25 10:18:53.43	39.95	19.92	-30.4	-33.2	19.1	6.05e-01	0	44	102	524288	22	4968
2026-01-25 10:18:54.42	39.66	19.90	-30.4	-33.2	19.1	6.07e-01	0	43	102	524288	22	4966
2026-01-25 10:18:55.43	39.37	19.89	-30.4	-33.2	19.1	6.07e-01	0	44	102	524288	22	4953
2026-01-25 10:18:56.44	39.08	19.87	-30.3	-33.0	19.3	6.07e-01	0	44	102	524288	22	4895
2026-01-25 10:18:57.43	38.79	19.85	-30.3	-33.0	19.3	6.07e-01	0	44	102	524288	22	4888
2026-01-25 10:18:58.44	38.50	19.83	-30.4	-33.2	19.1	6.07e-01	0	44	102	524288	22	4965
2026-01-25 10:18:59.44	38.21	19.81	-30.4	-33.3	19.0	6.07e-01	0	43	102	524288	22	5020
2026-01-25 10:19:00.44	37.92	19.78	-30.4	-33.1	19.2	6.06e-01	0	44	102	524288	22	4935
2026-01-25 10:19:01.45	37.63	19.76	-30.3	-32.9	19.4	6.07e-01	0	44	102	524288	22	4845
2026-01-25 10:19:02.45	37.35	19.74	-30.3	-33.0	19.3	6.07e-01	0	44	102	524288	22	4896
2026-01-25 10:19:03.46	37.06	19.71	-30.3	-33.0	19.3	6.06e-01	0	44	102	524288	22	4887
2026-01-25 10:19:04.46	36.77	19.69	-30.4	-33.2	19.1	6.06e-01	0	44	102	524288	22	4974
2026-01-25 10:19:05.46	36.49	19.66	-30.5	-33.4	19.0	6.06e-01	0	44	102	524288	22	5025
2026-01-25 10:19:06.46	36.20	19.64	-30.5	-33.3	19.0	6.06e-01	0	44	102	524288	22	5009
2026-01-25 10:19:07.46	35.92	19.61	-30.4	-33.1	19.2	6.08e-01	0	44	102	524288	22	4923
2026-01-25 10:19:08.46	35.63	19.58	-30.6	-33.7	18.9	6.05e-01	0	44	102	524288	22	5140
2026-01-25 10:19:09.46	35.35	19.56	-30.7	-34.0	18.7	6.07e-01	0	44	102	524288	22	5252
2026-01-25 10:19:10.47	35.07	19.53	-30.6	-33.7	18.8	6.04e-01	0	44	102	524288	22	5161
2026-01-25 10:19:11.47	34.78	19.50	-30.6	-33.8	18.8	6.07e-01	0	44	102	524288	22	5169
2026-01-25 10:19:12.48	34.50	19.47	-30.7	-33.9	18.7	6.07e-01	0	44	102	524288	22	5211
2026-01-25 10:19:13.49	34.22	19.44	-30.6	-33.8	18.8	6.07e-01	0	43	102	524288	22	5192
2026-01-25 10:19:14.49	33.94	19.40	-30.5	-33.4	19.0	6.06e-01	0	44	102	524288	22	5044
2026-01-25 10:19:15.48	33.66	19.37	-30.5	-33.3	19.1	6.09e-01	0	43	102	524288	22	5009
2026-01-25 10:19:16.49	33.38	19.34	-30.5	-33.4	19.0	6.06e-01	0	44	102	524288	22	5023
2026-01-25 10:19:17.50	33.10	19.31	-30.4	-33.2	19.1	6.07e-01	0	44	102	524288	22	4960
2026-01-25 10:19:18.50	32.82	19.27	-30.5	-33.3	19.1	6.08e-01	0	44	102	524288	22	5011
2026-01-25 10:19:19.50	32.54	19.24	-30.5	-33.5	18.9	6.07e-01	0	43	102	524288	22	5071
2026-01-25 10:19:20.51	32.27	19.20	-30.3	-32.8	19.3	6.06e-01	0	44	102	524288	22	4839
2026-01-25 10:19:21.52	31.99	19.17	-30.2	-32.5	19.6	6.07e-01	0	44	102	524288	22	4729
2026-01-25 10:19:22.52	31.71	19.13	-30.2	-32.7	19.5	6.07e-01	0	44	102	524288	22	4776
2026-01-25 10:19:23.52	31.44	19.09	-30.2	-32.8	19.4	6.08e-01	0	44	102	524288	22	4810
2026-01-25 10:19:24.52	31.16	19.06	-30.3	-32.8	19.4	6.06e-01	0	43	102	524288	22	4835
2026-01-25 10:19:25.52	30.89	19.02	-30.3	-32.8	19.3	6.06e-01	0	44	102	524288	22	4839
2026-01-25 10:19:26.53	30.62	18.98	-30.3	-32.8	19.3	6.04e-01	0	44	102	524288	22	4837
2026-01-25 10:19:27.53	30.35	18.94	-30.2	-32.7	19.4	6.07e-01	0	44	102	524288	22	4793
2026-01-25 10:19:28.54	30.07	18.90	-30.4	-33.1	19.2	6.07e-01	0	44	102	524288	22	4920
2026-01-25 10:19:29.54	29.80	18.86	-30.4	-33.1	19.2	6.08e-01	0	44	102	524288	22	4922
2026-01-25 10:19:30.55	29.53	18.82	-30.2	-32.7	19.4	6.07e-01	0	44	102	524288	22	4793
2026-01-25 10:19:31.55	29.26	18.78	-30.4	-33.2	19.2	6.06e-01	0	44	102	524288	22	4945
2026-01-25 10:19:32.56	28.99	18.73	-30.5	-33.3	19.0	6.07e-01	0	44	102	524288	22	5012
2026-01-25 10:19:33.55	28.73	18.69	-30.4	-33.2	19.1	6.06e-01	0	44	102	524288	22	4972
2026-01-25 10:19:34.56	28.46	18.65	-30.6	-33.6	18.8	6.08e-01	0	44	102	524288	22	5112
2026-01-25 10:19:35.56	28.20	18.61	-30.5	-33.5	18.9	6.03e-01	0	44	102	524288	22	5056
2026-01-25 10:19:36.57	27.93	18.56	-30.4	-33.3	19.0	6.05e-01	0	44	102	524288	22	4985
2026-01-25 10:19:37.57	27.67	18.52	-30.5	-33.3	19.0	6.03e-01	0	44	102	524288	22	5009
2026-01-25 10:19:38.58	27.40	18.47	-30.5	-33.4	18.9	6.03e-01	0	43	102	524288	22	5040
2026-01-25 10:19:39.58	27.14	18.43	-30.5	-33.4	19.0	6.02e-01	0	44	102	524288	22	5024
2026-01-25 10:19:40.59	26.88	18.38	-30.6	-33.6	18.9	6.04e-01	0	44	102	524288	22	5094
2026-01-25 10:19:41.59	26.62	18.33	-30.5	-33.5	18.9	6.03e-01	0	43	102	524288	22	5087
2026-01-25 10:19:42.59	26.36	18.29	-30.6	-33.7	18.8	6.03e-01	0	44	102	524288	22	5149
2026-01-25 10:19:43.59	26.10	18.24	-30.5	-33.5	18.9	6.02e-01	0	44	102	524288	22	5073
2026-01-25 10:19:44.60	25.84	18.19	-30.3	-32.9	19.2	6.03e-01	0	44	102	524288	22	4869
2026-01-25 10:19:45.59	25.59	18.14	-30.3	-32.8	19.4	6.03e-01	0	44	102	524288	22	4808
2026-01-25 10:19:46.59	25.33	18.09	-30.3	-33.0	19.1	6.04e-01	0	44	102	524288	22	4896
2026-01-25 10:19:47.60	25.08	18.04	-30.3	-32.9	19.2	6.02e-01	0	44	102	524288	22	4873
2026-01-25 10:19:48.60	24.82	17.99	-30.1	-32.4	19.6	6.02e-01	0	44	102	524288	22	4686
2026-01-25 10:19:49.61	24.57	17.94	-30.2	-32.6	19.5	6.04e-01	0	43	102	524288	22	4740
2026-01-25 10:19:50.62	24.31	17.89	-30.2	-32.6	19.5	6.04e-01	0	44	102	524288	22	4771
2026-01-25 10:19:51.63	24.06	17.84	-30.2	-32.6	19.5	6.02e-01	0	44	102	524288	22	4748
2026-01-25 10:19:52.63	23.81	17.79	-30.2	-32.8	19.4	6.03e-01	0	44	102	524288	22	4806
2026-01-25 10:19:53.64	23.56	17.73	-30.2	-32.7	19.4	6.03e-01	0	44	102	524288	22	4787
2026-01-25 10:19:54.64	23.31	17.68	-30.2	-32.6	19.4	6.04e-01	0	44	102	524288	22	4771
2026-01-25 10:19:55.65	23.06	17.63	-30.2	-32.6	19.4	6.01e-01	0	44	102	524288	22	4757
2026-01-25 10:19:56.65	22.81	17.58	-30.1	-32.4	19.5	6.04e-01	0	44	102	524288	22	4701
2026-01-25 10:19:57.66	22.57	17.52	-30.1	-32.3	19.6	6.05e-01	0	44	102	524288	22	4654
2026-01-25 10:19:58.66	22.32	17.47	-30.1	-32.4	19.5	6.03e-01	0	44	102	524288	22	4701
2026-01-25 10:19:59.67	22.08	17.41	-30.1	-32.5	19.5	6.03e-01	0	44	102	524288	22	4723
2026-01-25 10:20:00.67	21.83	17.36	-30.2	-32.6	19.4	6.04e-01	0	44	102	524288	22	4759
2026-01-25 10:20:01.68	21.59	17.30	-30.1	-32.5	19.5	6.02e-01	0	44	102	524288	22	4720
2026-01-25 10:20:02.67	21.35	17.25	-30.2	-32.5	19.5	6.02e-01	0	44	102	524288	22	4734
2026-01-25 10:20:03.68	21.11	17.19	-30.3	-33.0	19.2	6.02e-01	0	44	102	524288	22	4892
2026-01-25 10:20:04.68	20.87	17.14	-30.3	-33.0	19.2	6.03e-01	0	43	102	524288	22	4902
2026-01-25 10:20:05.68	20.63	17.08	-30.2	-32.6	19.3	6.04e-01	0	44	102	524288	22	4763
2026-01-25 10:20:06.68	20.40	17.02	-30.2	-32.5	19.3	6.03e-01	0	44	102	524288	22	4737
2026-01-25 10:20:07.69	20.16	16.96	-30.2	-32.6	19.3	6.04e-01	0	44	102	524288	22	4757
2026-01-25 10:20:08.70	19.92	16.91	-30.3	-32.8	19.2	6.05e-01	0	44	102	524288	22	4842
2026-01-25 10:20:09.70	19.69	16.85	-30.1	-32.5	19.4	6.03e-01	0	44	102	524288	22	4725
2026-01-25 10:20:10.70	19.45	16.79	-30.0	-32.2	19.6	6.02e-01	0	44	102	524288	22	4625
2026-01-25 10:20:11.70	19.22	16.73	-30.0	-32.0	19.7	6.03e-01	0	43	102	524288	22	4577
2026-01-25 10:20:12.71	18.99	16.67	-30.0	-32.1	19.7	6.03e-01	0	44	102	524288	22	4581
2026-01-25 10:20:13.72	18.76	16.61	-30.0	-32.3	19.5	6.05e-01	0	44	102	524288	22	4647
2026-01-25 10:20:14.72	18.53	16.55	-30.1	-32.5	19.4	6.02e-01	0	43	102	524288	22	4745
2026-01-25 10:20:15.73	18.30	16.49	-30.2	-32.7	19.3	6.05e-01	0	44	102	524288	22	4798
2026-01-25 10:20:16.74	18.07	16.43	-30.1	-32.5	19.4	6.03e-01	0	44	102	524288	22	4735
2026-01-25 10:20:17.74	17.84	16.37	-30.1	-32.4	19.5	6.04e-01	0	44	102	524288	22	4683
2026-01-25 10:20:18.75	17.61	16.31	-30.1	-32.4	19.4	6.04e-01	0	44	102	524288	22	4711
2026-01-25 10:20:19.75	17.39	16.25	-30.1	-32.4	19.5	6.03e-01	0	44	102	524288	22	4708
2026-01-25 10:20:20.75	17.17	16.19	-30.2	-32.7	19.3	6.02e-01	0	44	102	524288	22	4811
2026-01-25 10:20:21.76	16.94	16.13	-30.2	-32.6	19.4	6.05e-01	0	44	102	524288	22	4765
2026-01-25 10:20:22.76	16.72	16.07	-30.1	-32.5	19.4	6.04e-01	0	44	102	524288	22	4723
2026-01-25 10:20:23.77	16.50	16.01	-30.1	-32.5	19.4	6.04e-01	0	44	102	524288	22	4753
2026-01-25 10:20:24.77	16.28	15.94	-30.3	-32.9	19.2	6.04e-01	0	44	102	524288	22	4881
2026-01-25 10:20:25.77	16.06	15.88	-30.3	-32.9	19.1	6.05e-01	0	44	102	524288	22	4887
2026-01-25 10:20:26.78	15.84	15.82	-30.3	-32.9	19.2	6.01e-01	0	44	102	524288	22	4875
2026-01-25 10:20:27.78	15.63	15.76	-30.4	-33.2	18.9	6.03e-01	0	43	102	524288	22	4979
2026-01-25 10:20:28.79	15.41	15.69	-30.3	-32.9	19.1	6.02e-01	0	43	102	524288	22	4855
2026-01-25 10:20:29.79	15.20	15.63	-30.1	-32.5	19.3	6.03e-01	0	44	102	524288	22	4749
2026-01-25 10:20:30.79	14.98	15.57	-30.2	-32.6	19.2	6.03e-01	0	44	102	524288	22	4764
2026-01-25 10:20:31.80	14.77	15.50	-30.2	-32.6	19.2	6.02e-01	0	44	102	524288	22	4783
2026-01-25 10:20:32.80	14.56	15.44	-30.3	-32.9	19.1	6.04e-01	0	44	102	524288	22	4861
2026-01-25 10:20:33.80	14.35	15.37	-30.2	-32.7	19.2	6.05e-01	0	44	102	524288	22	4805
2026-01-25 10:20:34.80	14.14	15.31	-30.2	-32.6	19.3	6.04e-01	0	44	102	524288	22	4778
2026-01-25 10:20:35.80	13.93	15.25	-30.1	-32.4	19.4	6.02e-01	0	43	102	524288	22	4690
2026-01-25 10:20:36.80	13.72	15.18	-30.1	-32.4	19.4	6.05e-01	0	44	102	524288	22	4704
2026-01-25 10:20:37.81	13.51	15.12	-30.0	-32.2	19.5	6.04e-01	0	44	102	524288	22	4636
2026-01-25 10:20:38.81	13.31	15.05	-30.0	-32.2	19.5	6.05e-01	0	43	102	524288	22	4655
2026-01-25 10:20:39.82	13.10	14.99	-30.1	-32.5	19.3	6.03e-01	0	44	102	524288	22	4756
2026-01-25 10:20:40.82	12.90	14.92	-30.1	-32.6	19.3	6.01e-01	0	44	102	524288	22	4758
2026-01-25 10:20:41.83	12.69	14.86	-30.2	-32.7	19.2	6.02e-01	0	44	102	524288	22	4828
2026-01-25 10:20:42.83	12.49	14.79	-30.1	-32.4	19.4	6.04e-01	0	44	102	524288	22	4713
2026-01-25 10:20:43.84	12.29	14.73	-30.0	-32.3	19.4	6.03e-01	0	44	102	524288	22	4681
2026-01-25 10:20:44.84	12.09	14.66	-30.1	-32.5	19.3	6.04e-01	0	44	102	524288	22	4725
2026-01-25 10:20:45.85	11.89	14.59	-30.1	-32.4	19.4	6.01e-01	0	44	102	524288	22	4708
2026-01-25 10:20:46.85	11.69	14.53	-30.1	-32.4	19.3	6.03e-01	0	44	102	524288	22	4719
2026-01-25 10:20:47.85	11.49	14.46	-30.2	-32.7	19.2	6.03e-01	0	44	102	524288	22	4792
2026-01-25 10:20:48.85	11.30	14.40	-30.1	-32.5	19.3	6.04e-01	0	44	102	524288	22	4729
2026-01-25 10:20:49.86	11.10	14.33	-30.1	-32.6	19.2	6.05e-01	0	44	102	524288	22	4771
2026-01-25 10:20:50.86	10.91	14.26	-30.1	-32.5	19.2	6.02e-01	0	43	102	524288	22	4745
2026-01-25 10:20:51.86	10.71	14.20	-30.2	-32.8	19.0	6.04e-01	0	44	102	524288	22	4840
2026-01-25 10:20:52.86	10.52	14.13	-30.0	-32.2	19.4	6.04e-01	0	44	102	524288	22	4646
2026-01-25 10:20:53.87	10.33	14.06	-30.1	-32.6	19.2	6.01e-01	0	44	102	524288	22	4768
2026-01-25 10:20:54.88	10.14	14.00	-30.0	-32.4	19.3	6.03e-01	0	44	102	524288	22	4704
2026-01-25 10:20:55.88	9.95	13.93	-30.1	-32.5	19.2	6.03e-01	0	44	102	524288	22	4752
2026-01-25 10:20:56.89	9.76	13.86	-30.1	-32.7	19.1	6.03e-01	0	44	102	524288	22	4802
2026-01-25 10:20:57.89	9.57	13.79	-30.2	-32.7	19.0	6.04e-01	0	43	102	524288	22	4832
2026-01-25 10:20:58.90	9.38	13.73	-30.0	-32.3	19.3	6.04e-01	0	44	102	524288	22	4685
2026-01-25 10:20:59.91	9.20	13.66	-30.0	-32.2	19.4	6.05e-01	0	44	102	524288	22	4650
2026-01-25 10:21:00.89	9.01	13.59	-30.1	-32.5	19.3	6.03e-01	0	44	102	524288	22	4737
2026-01-25 10:21:01.90	8.83	13.52	-30.2	-32.7	19.1	6.04e-01	0	44	102	524288	22	4809
2026-01-25 10:21:02.90	8.65	13.46	-30.1	-32.6	19.1	6.04e-01	0	43	102	524288	22	4795
2026-01-25 10:21:03.90	8.46	13.39	-30.2	-32.7	19.0	6.03e-01	0	44	102	524288	22	4834
2026-01-25 10:21:04.91	8.28	13.32	-30.0	-32.4	19.3	6.03e-01	0	44	102	524288	22	4701
2026-01-25 10:21:05.91	8.10	13.25	-30.0	-32.2	19.4	6.02e-01	0	43	102	524288	22	4637
2026-01-25 10:21:06.91	7.92	13.19	-30.1	-32.6	19.1	6.03e-01	0	44	102	524288	22	4787
2026-01-25 10:21:07.91	7.74	13.12	-30.1	-32.6	19.1	6.04e-01	0	43	102	524288	22	4777
2026-01-25 10:21:08.91	7.57	13.05	-30.2	-32.9	19.0	6.01e-01	0	44	102	524288	22	4877
2026-01-25 10:21:09.92	7.39	12.98	-30.2	-32.9	18.9	6.04e-01	0	43	102	524288	22	4872
2026-01-25 10:21:10.92	7.21	12.91	-30.2	-32.8	18.9	6.02e-01	0	43	102	524288	22	4862
2026-01-25 10:21:11.93	7.04	12.85	-30.3	-33.1	18.8	6.02e-01	0	43	102	524288	22	4950
2026-01-25 10:21:12.93	6.86	12.78	-30.3	-32.9	18.8	6.04e-01	0	44	102	524288	22	4906
2026-01-25 10:21:13.94	6.69	12.71	-30.3	-33.0	18.8	6.03e-01	0	44	102	524288	22	4942
2026-01-25 10:21:14.94	6.52	12.64	-30.4	-33.5	18.6	6.04e-01	0	44	102	524288	22	5097
2026-01-25 10:21:15.94	6.34	12.57	-30.3	-33.2	18.7	6.03e-01	0	44	102	524288	22	5005
2026-01-25 10:21:16.95	6.17	12.51	-30.3	-33.1	18.8	6.05e-01	0	43	102	524288	22	4953
2026-01-25 10:21:17.95	6.00	12.44	-30.3	-33.2	18.7	6.05e-01	0	43	102	524288	22	5008
2026-01-25 10:21:18.95	5.83	12.37	-30.3	-33.0	18.8	6.03e-01	0	44	102	524288	22	4928
2026-01-25 10:21:19.95	5.67	12.30	-30.5	-33.6	18.5	6.05e-01	0	44	102	524288	22	5138
2026-01-25 10:21:20.95	5.50	12.23	-30.3	-33.0	18.8	6.03e-01	0	44	102	524288	22	4933
2026-01-25 10:21:21.96	5.33	12.16	-30.2	-32.8	19.0	6.04e-01	0	44	102	524288	22	4863
2026-01-25 10:21:22.96	5.17	12.10	-30.1	-32.6	19.1	6.05e-01	0	44	102	524288	22	4788
2026-01-25 10:21:23.96	5.00	12.03	-30.3	-33.1	18.7	6.02e-01	0	44	102	524288	22	4978
2026-01-25 10:21:24.96	4.84	11.96	-30.3	-33.0	18.9	6.02e-01	0	44	102	524288	22	4938
2026-01-25 10:21:25.96	4.68	11.89	-30.4	-33.3	18.7	6.04e-01	0	43	102	524288	22	5029
2026-01-25 10:21:26.96	4.51	11.82	-30.3	-33.1	18.8	6.04e-01	0	44	102	524288	22	4968
2026-01-25 10:21:27.97	4.35	11.76	-30.3	-33.0	18.8	6.04e-01	0	44	102	524288	22	4949
2026-01-25 10:21:28.98	4.19	11.69	-30.2	-32.9	18.9	6.03e-01	0	44	102	524288	22	4906
2026-01-25 10:21:29.98	4.03	11.62	-30.3	-33.0	18.8	6.04e-01	0	44	102	524288	22	4935
2026-01-25 10:21:30.98	3.87	11.55	-30.4	-33.4	18.6	6.02e-01	0	43	102	524288	22	5067
2026-01-25 10:21:31.99	3.71	11.48	-30.5	-33.7	18.4	6.03e-01	0	44	102	524288	22	5195
2026-01-25 10:21:32.99	3.56	11.41	-30.5	-33.7	18.4	6.06e-01	0	44	102	524288	22	5200
2026-01-25 10:21:33.99	3.40	11.34	-30.6	-33.8	18.3	6.00e-01	0	44	102	524288	22	5237
2026-01-25 10:21:34.99	3.24	11.28	-30.5	-33.7	18.4	6.04e-01	0	44	102	524288	22	5194
2026-01-25 10:21:36.00	3.09	11.21	-30.5	-33.7	18.4	6.01e-01	0	43	102	524288	22	5201
2026-01-25 10:21:37.00	2.93	11.14	-30.6	-34.0	18.2	6.03e-01	0	44	102	524288	22	5313
2026-01-25 10:21:38.01	2.78	11.07	-30.5	-33.8	18.3	6.03e-01	0	44	102	524288	22	5243
2026-01-25 10:21:39.01	2.63	11.00	-30.7	-34.3	17.9	6.04e-01	0	43	102	524288	22	5448
2026-01-25 10:21:40.02	2.47	10.93	-30.6	-33.9	18.2	6.02e-01	0	44	102	524288	22	5280
2026-01-25 10:21:41.03	2.32	10.87	-30.5	-33.6	18.4	6.03e-01	0	44	102	524288	22	5157
2026-01-25 10:21:42.03	2.17	10.80	-30.4	-33.3	18.5	6.01e-01	0	44	102	524288	22	5060
2026-01-25 10:21:43.03	2.02	10.73	-30.4	-33.4	18.5	6.03e-01	0	44	102	524288	22	5083
2026-01-25 10:21:44.03	1.88	10.66	-30.3	-33.1	18.6	6.03e-01	0	44	102	524288	22	4987
2026-01-25 10:21:45.04	1.73	10.59	-30.3	-33.3	18.5	6.04e-01	0	44	102	524288	22	5039
2026-01-25 10:21:46.04	1.58	10.53	-30.4	-33.3	18.5	6.02e-01	0	44	102	524288	22	5061
2026-01-25 10:21:47.05	1.43	10.46	-30.4	-33.4	18.4	6.01e-01	0	44	102	524288	22	5107
2026-01-25 10:21:48.05	1.29	10.39	-30.6	-34.1	18.0	6.02e-01	0	44	102	524288	22	5345
2026-01-25 10:21:49.06	1.14	10.32	-30.5	-33.6	18.3	6.04e-01	0	44	102	524288	22	5168
2026-01-25 10:21:50.06	1.00	10.25	-30.4	-33.5	18.3	6.03e-01	0	44	102	524288	22	5150
2026-01-25 10:21:51.06	0.85	10.19	-30.4	-33.4	18.3	6.05e-01	0	44	102	524288	22	5091
2026-01-25 10:21:52.07	0.71	10.12	-30.4	-33.4	18.5	6.04e-01	0	44	102	524288	22	5104
2026-01-25 10:21:53.07	0.57	10.05	-30.5	-33.7	18.3	6.03e-01	0	44	102	524288	22	5217
2026-01-25 10:21:54.07	0.43	9.98	-30.4	-33.4	18.5	6.03e-01	0	44	102	524288	22	5099
2026-01-25 10:21:55.08	0.29	9.92	-30.5	-33.7	18.3	6.02e-01	0	44	102	524288	22	5199
2026-01-25 10:21:56.08	0.15	9.85	-30.4	-33.5	18.4	6.03e-01	0	44	102	524288	22	5148
2026-01-25 10:21:57.08	0.01	9.78	-30.6	-34.0	18.1	6.03e-01	0	44	102	524288	22	5348
2026-01-25 10:21:58.09	359.87	9.71	-30.5	-33.8	18.2	6.01e-01	0	44	102	524288	22	5266
2026-01-25 10:21:59.10	359.73	9.64	-30.6	-33.9	18.1	6.05e-01	0	44	102	524288	22	5311
2026-01-25 10:22:00.10	359.59	9.58	-30.8	-34.5	17.7	6.01e-01	0	44	102	524288	22	5561
2026-01-25 10:22:01.10	359.46	9.51	-30.5	-33.9	18.1	6.02e-01	0	43	102	524288	22	5283
2026-01-25 10:22:02.11	359.32	9.44	-30.5	-33.7	18.2	6.03e-01	0	44	102	524288	22	5238
2026-01-25 10:22:03.11	359.19	9.38	-30.4	-33.5	18.3	6.05e-01	0	44	102	524288	22	5123
2026-01-25 10:22:04.12	359.05	9.31	-30.5	-33.8	18.2	6.03e-01	0	44	102	524288	22	5244
2026-01-25 10:22:05.12	358.92	9.24	-30.5	-33.7	18.2	6.04e-01	0	44	102	524288	22	5232
2026-01-25 10:22:06.12	358.78	9.17	-30.6	-33.9	18.1	6.02e-01	0	44	102	524288	22	5305
2026-01-25 10:22:07.12	358.65	9.11	-30.7	-34.4	17.7	6.03e-01	0	44	102	524288	22	5520
2026-01-25 10:22:08.12	358.52	9.04	-30.6	-34.2	17.8	6.02e-01	0	44	102	524288	22	5417
2026-01-25 10:22:09.12	358.39	8.97	-30.8	-34.6	17.6	6.01e-01	0	44	102	524288	22	5591
2026-01-25 10:22:10.13	358.26	8.91	-30.7	-34.4	17.7	6.03e-01	0	44	102	524288	22	5508
2026-01-25 10:22:11.14	358.13	8.84	-31.0	-44.3	3.8	7.41e-01	0	44	104	524288	22	16755
2026-01-25 10:22:12.14	358.00	8.77	-31.0	-44.5	3.9	7.44e-01	0	44	104	524288	22	16996
2026-01-25 10:22:13.15	357.87	8.71	-31.1	-44.2	3.8	7.46e-01	0	44	104	524288	23	16216
2026-01-25 10:22:14.15	357.74	8.64	-31.3	-44.6	3.8	7.44e-01	0	44	104	524288	23	16639
2026-01-25 10:22:15.15	357.62	8.57	-31.5	-45.2	3.9	7.42e-01	0	44	104	524288	23	17456
2026-01-25 10:22:16.16	357.49	8.51	-31.7	-45.5	3.8	7.46e-01	0	44	104	524288	24	17635
2026-01-25 10:22:17.16	357.37	8.44	-32.0	-46.5	3.9	7.43e-01	0	44	104	524288	24	19146
2026-01-25 10:22:18.16	357.24	8.37	-32.2	-46.7	3.8	7.47e-01	0	44	104	524288	25	19174
2026-01-25 10:22:19.17	357.12	8.31	-32.3	-47.3	3.8	7.45e-01	0	44	104	524288	25	20081
2026-01-25 10:22:20.18	356.99	8.24	-32.5	-48.0	3.8	7.44e-01	0	44	104	524288	25	21343
2026-01-25 10:22:21.18	356.87	8.18	-32.7	-48.2	3.8	7.45e-01	0	44	104	524288	26	21342
2026-01-25 10:22:22.19	356.74	8.11	-32.8	-48.8	3.8	7.45e-01	0	44	104	524288	26	22521
2026-01-25 10:22:23.19	356.62	8.04	-33.0	-49.4	3.8	7.42e-01	0	44	104	524288	26	23728
2026-01-25 10:22:24.19	356.50	7.98	-33.0	-49.7	3.8	7.43e-01	0	44	104	524288	26	24369
2026-01-25 10:22:25.20	356.38	7.91	-33.1	-49.6	3.8	7.43e-01	0	44	104	524288	27	23937
2026-01-25 10:22:26.21	356.26	7.85	-33.2	-49.9	3.8	7.46e-01	0	43	104	524288	27	24603
2026-01-25 10:22:27.21	356.14	7.78	-33.2	-50.2	3.8	7.45e-01	0	44	104	524288	27	25303
2026-01-25 10:22:28.21	356.02	7.72	-33.3	-50.5	3.8	7.45e-01	0	44	104	524288	27	26316
2026-01-25 10:22:29.22	355.90	7.65	-33.3	-50.7	3.8	7.45e-01	0	44	104	524288	27	26820
2026-01-25 10:22:30.22	355.79	7.58	-33.3	-51.0	3.8	7.45e-01	0	44	104	524288	27	27443
2026-01-25 10:22:31.22	355.67	7.52	-33.3	-51.0	3.8	7.44e-01	0	44	104	524288	27	27559
2026-01-25 10:22:32.23	355.55	7.45	-33.3	-51.1	3.8	7.46e-01	0	44	104	524288	27	27873
2026-01-25 10:22:33.23	355.44	7.39	-33.3	-51.1	3.8	7.47e-01	0	44	104	524288	27	27988
2026-01-25 10:22:34.23	355.32	7.32	-33.3	-51.2	3.8	7.45e-01	0	44	104	524288	27	28148
2026-01-25 10:22:35.24	355.21	7.26	-33.3	-51.0	3.8	7.45e-01	0	44	104	524288	27	27779
2026-01-25 10:22:36.25	355.09	7.19	-33.3	-51.1	3.8	7.47e-01	0	44	104	524288	27	27940
2026-01-25 10:22:37.25	354.98	7.13	-33.2	-50.7	3.8	7.45e-01	0	44	104	524288	27	26970
2026-01-25 10:22:38.26	354.86	7.06	-33.2	-50.4	3.8	7.44e-01	0	44	104	524288	27	26155
2026-01-25 10:22:39.27	354.75	7.00	-33.8	-51.1	3.9	7.39e-01	0	44	104	524288	28	26295
2026-01-25 10:22:40.27	354.64	6.93	-34.2	-53.3	3.8	7.46e-01	0	44	104	524288	29	32687
2026-01-25 10:22:41.27	354.53	6.87	-34.4	-53.7	3.8	7.44e-01	0	44	104	524288	29	33231

#Closed at: 2026-01-25 10:22:41
#Recorded file [0 MB]: D:/data/31010_260125_131502.dat