passes_logs/2026/01/25/R2M6_AANII_01/R2M6_AANII_01__20260125_014837_NOAA_20_JPSS-1_rec.log

#Pass ID: 20260125_014837_NOAA 20 (JPSS-1)
#Satellite: NOAA 20 (JPSS-1)
#Configuration: NOAA 20
#almurnet v.1.7.20240730
#Start time: 2026-01-25 01:48:38

#Version: 2.2.20231116
#Station: R2M6_AANII_01
#Location: 30.233357 lon 59.946436 lat
#TLE: 1 43013U 17073A   26024.42258823  .00000183  00000+0  10747-3 0  9990
#TLE: 2 43013  98.7646 325.2629 0001105  25.8644 334.2587 14.19539754424075

#Time	Az	El	Level	Level2	SNR	BER	BlckErr	Temp	State	Recorded	gain1	gain2
2026-01-25 01:48:38.36	11.88	7.04	-32.3	-41.4	4.3	1.41e+00	0	41	0	0	24	10237
2026-01-25 01:48:39.36	11.81	7.11	-32.3	-40.9	4.4	1.40e+00	0	41	104	0	24	9736
2026-01-25 01:48:40.37	11.74	7.18	-32.3	-40.8	5.7	4.42e-01	0	41	0	0	24	9625
2026-01-25 01:48:41.36	11.67	7.25	-32.3	-40.8	5.6	4.69e-01	0	42	102	1048576	24	9581
2026-01-25 01:48:42.37	11.59	7.32	-32.3	-40.8	5.6	4.40e-01	0	42	102	1048576	24	9523
2026-01-25 01:48:43.37	11.52	7.39	-32.3	-40.9	5.5	4.54e-01	0	42	102	1048576	24	9671
2026-01-25 01:48:44.37	11.45	7.46	-32.4	-41.5	5.2	5.09e-01	0	42	102	1048576	24	10275
2026-01-25 01:48:45.38	11.38	7.53	-32.5	-41.7	5.1	6.86e-01	0	42	102	1048576	24	10412
2026-01-25 01:48:46.39	11.30	7.60	-32.3	-40.7	5.7	5.10e-01	0	42	102	1048576	24	9459
2026-01-25 01:48:47.39	11.23	7.67	-32.2	-39.9	6.2	3.71e-01	0	42	102	1048576	24	8756
2026-01-25 01:48:48.39	11.15	7.74	-32.0	-38.8	7.0	2.09e-01	0	42	102	1048576	24	7840
2026-01-25 01:48:49.40	11.08	7.81	-31.9	-38.5	7.7	1.15e-01	0	42	102	1048576	23	7686
2026-01-25 01:48:50.40	11.01	7.89	-31.7	-37.6	8.3	7.29e-02	0	42	102	1048576	23	7089
2026-01-25 01:48:51.41	10.93	7.96	-31.5	-37.1	9.1	2.88e-02	0	42	102	1048576	22	6928
2026-01-25 01:48:52.41	10.85	8.03	-31.3	-36.5	9.6	1.92e-02	0	42	102	1048576	22	6544
2026-01-25 01:48:53.41	10.78	8.10	-31.1	-35.9	10.1	8.32e-03	0	42	102	1048576	22	6219
2026-01-25 01:48:54.41	10.70	8.17	-31.0	-35.8	10.5	8.30e-03	0	42	102	1048576	21	6309
2026-01-25 01:48:55.42	10.63	8.24	-30.9	-35.7	10.6	6.51e-03	0	42	102	1048576	21	6228
2026-01-25 01:48:56.43	10.55	8.32	-31.0	-35.5	10.4	3.75e-03	0	42	102	1048576	22	6032
2026-01-25 01:48:57.44	10.47	8.39	-31.2	-36.0	10.0	8.50e-03	0	42	102	1048576	22	6301
2026-01-25 01:48:58.44	10.39	8.46	-31.2	-36.0	10.0	8.58e-03	0	42	102	1048576	22	6289
2026-01-25 01:48:59.45	10.31	8.53	-31.1	-35.7	10.3	5.87e-03	0	42	102	1048576	22	6096
2026-01-25 01:49:00.45	10.23	8.61	-31.0	-35.4	10.6	6.62e-03	0	42	102	1048576	22	5956
2026-01-25 01:49:01.46	10.15	8.68	-31.1	-35.5	10.5	4.81e-03	0	42	102	1048576	22	6011
2026-01-25 01:49:02.47	10.07	8.75	-31.0	-35.4	10.7	3.47e-03	0	42	102	1048576	22	5934
2026-01-25 01:49:03.47	9.99	8.83	-31.1	-35.5	10.5	5.14e-03	0	42	102	1048576	22	6010
2026-01-25 01:49:04.48	9.91	8.90	-31.1	-35.5	10.5	7.36e-03	0	42	102	1048576	22	6025
2026-01-25 01:49:05.48	9.83	8.97	-30.9	-35.0	10.9	2.27e-03	0	42	102	1048576	22	5768
2026-01-25 01:49:06.49	9.75	9.05	-30.9	-35.3	11.0	4.75e-03	0	42	102	1048576	21	6032
2026-01-25 01:49:07.49	9.67	9.12	-30.8	-35.1	11.1	3.73e-03	0	42	102	1048576	21	5936
2026-01-25 01:49:08.49	9.59	9.19	-30.9	-35.4	11.0	1.87e-03	0	42	102	1048576	21	6060
2026-01-25 01:49:09.50	9.50	9.27	-30.9	-35.6	10.8	2.89e-03	0	42	102	1048576	21	6180
2026-01-25 01:49:10.50	9.42	9.34	-31.0	-35.7	10.8	5.64e-03	0	42	102	1048576	21	6186
2026-01-25 01:49:11.50	9.34	9.42	-30.8	-35.3	11.1	1.74e-03	0	42	102	1048576	21	5993
2026-01-25 01:49:12.51	9.25	9.49	-30.9	-35.3	11.1	1.92e-03	0	42	102	1048576	21	6004
2026-01-25 01:49:13.51	9.17	9.57	-30.8	-35.3	11.1	4.42e-03	0	42	102	1048576	21	5994
2026-01-25 01:49:14.52	9.08	9.64	-30.8	-35.0	11.3	1.24e-03	0	42	102	1048576	21	5873
2026-01-25 01:49:15.52	9.00	9.72	-30.8	-35.1	11.2	1.82e-03	0	43	102	1048576	21	5931
2026-01-25 01:49:16.52	8.91	9.79	-30.8	-35.1	11.2	1.91e-03	0	43	102	1048576	21	5929
2026-01-25 01:49:17.53	8.83	9.87	-30.7	-34.7	11.5	1.04e-03	0	42	102	1048576	21	5736
2026-01-25 01:49:18.53	8.74	9.94	-30.7	-34.7	11.6	1.15e-03	0	43	102	1048576	21	5702
2026-01-25 01:49:19.54	8.65	10.02	-30.6	-34.5	11.7	1.09e-03	0	43	102	1048576	21	5650
2026-01-25 01:49:20.55	8.56	10.10	-30.6	-34.6	11.6	5.55e-04	0	43	102	1048576	21	5676
2026-01-25 01:49:21.55	8.48	10.17	-30.8	-35.0	11.4	9.40e-04	0	43	102	1048576	21	5851
2026-01-25 01:49:22.56	8.39	10.25	-30.7	-34.8	11.5	1.41e-03	0	43	102	1048576	21	5752
2026-01-25 01:49:23.56	8.30	10.33	-30.6	-34.3	11.9	6.39e-04	0	43	102	1048576	21	5540
2026-01-25 01:49:24.57	8.21	10.40	-30.6	-34.4	11.8	4.66e-04	0	43	102	1048576	21	5603
2026-01-25 01:49:25.57	8.12	10.48	-30.6	-34.3	11.9	8.26e-04	0	43	102	1048576	21	5533
2026-01-25 01:49:26.57	8.03	10.56	-30.5	-34.2	11.9	3.66e-04	0	43	102	1048576	21	5483
2026-01-25 01:49:27.57	7.94	10.63	-30.5	-34.3	11.9	7.61e-04	0	43	102	1048576	21	5524
2026-01-25 01:49:28.58	7.85	10.71	-30.5	-34.3	11.9	4.16e-04	0	43	102	1048576	21	5538
2026-01-25 01:49:29.58	7.75	10.79	-30.7	-34.8	11.5	5.66e-04	0	43	102	1048576	21	5771
2026-01-25 01:49:30.59	7.66	10.87	-30.6	-34.6	11.6	1.19e-03	0	43	102	1048576	21	5664
2026-01-25 01:49:31.59	7.57	10.94	-30.5	-34.0	12.0	3.48e-04	0	43	102	1048576	21	5437
2026-01-25 01:49:32.59	7.47	11.02	-30.4	-33.8	12.2	2.30e-04	0	43	102	1048576	21	5343
2026-01-25 01:49:33.59	7.38	11.10	-30.4	-34.3	12.3	3.83e-04	0	43	102	1048576	20	5651
2026-01-25 01:49:34.59	7.29	11.18	-30.4	-34.3	12.2	4.23e-04	0	43	102	1048576	20	5652
2026-01-25 01:49:35.60	7.19	11.26	-30.4	-34.3	12.3	1.81e-04	0	43	102	1048576	20	5641
2026-01-25 01:49:36.61	7.09	11.33	-30.4	-34.4	12.2	3.38e-04	0	43	102	1048576	20	5679
2026-01-25 01:49:37.62	7.00	11.41	-30.4	-34.4	12.2	3.69e-04	0	43	102	1048576	20	5709
2026-01-25 01:49:38.62	6.90	11.49	-30.4	-34.4	12.2	2.56e-04	0	43	102	1048576	20	5699
2026-01-25 01:49:39.62	6.80	11.57	-29.5	-33.3	12.3	1.69e-04	0	43	102	1048576	20	5579
2026-01-25 01:49:40.62	6.71	11.65	-30.3	-34.0	12.5	3.02e-04	0	43	102	1048576	20	5521
2026-01-25 01:49:41.63	6.61	11.73	-30.3	-34.1	12.0	1.88e-03	0	43	102	1048576	20	5564
2026-01-25 01:49:42.63	6.51	11.81	-30.3	-34.1	11.7	1.11e-04	0	43	102	1048576	20	5540
2026-01-25 01:49:43.63	6.41	11.89	-30.4	-34.3	12.3	1.79e-04	0	43	102	1048576	20	5623
2026-01-25 01:49:44.64	6.31	11.97	-30.4	-34.3	12.0	1.88e-04	0	43	102	1048576	20	5626
2026-01-25 01:49:45.64	6.21	12.05	-30.4	-34.3	12.2	1.74e-04	0	43	102	1048576	20	5643
2026-01-25 01:49:46.64	6.11	12.13	-30.4	-34.2	12.3	2.13e-04	0	43	102	1048576	20	5613
2026-01-25 01:49:47.65	6.01	12.21	-30.4	-34.3	12.3	1.72e-04	0	43	102	1048576	20	5635
2026-01-25 01:49:48.65	5.90	12.29	-30.4	-34.3	12.3	2.27e-03	0	43	102	1048576	20	5636
2026-01-25 01:49:49.66	5.80	12.37	-30.5	-34.0	12.2	1.85e-04	0	43	102	1048576	21	5410
2026-01-25 01:49:50.66	5.70	12.45	-30.7	-34.5	11.9	3.24e-04	0	43	102	1048576	21	5634
2026-01-25 01:49:51.67	5.59	12.54	-30.6	-34.3	12.0	2.86e-03	0	43	102	1048576	21	5529
2026-01-25 01:49:52.67	5.49	12.62	-30.4	-33.8	12.4	2.17e-04	0	43	102	1048576	21	5311
2026-01-25 01:49:53.67	5.38	12.70	-30.4	-34.2	12.5	1.42e-04	0	43	102	1048576	20	5569
2026-01-25 01:49:54.68	5.28	12.78	-30.4	-34.2	12.5	1.14e-04	0	43	102	1048576	20	5570
2026-01-25 01:49:55.68	5.17	12.86	-30.4	-34.2	12.4	1.56e-04	0	43	102	1048576	20	5575
2026-01-25 01:49:56.68	5.06	12.94	-30.4	-34.2	12.4	1.01e-04	0	43	102	1048576	20	5583
2026-01-25 01:49:57.68	4.96	13.03	-30.4	-34.2	12.4	1.49e-04	0	43	102	1048576	20	5571
2026-01-25 01:49:58.69	4.85	13.11	-30.5	-34.4	12.3	1.59e-04	0	43	102	1048576	20	5675
2026-01-25 01:49:59.69	4.74	13.19	-30.4	-34.4	12.3	2.32e-03	0	43	102	1048576	20	5659
2026-01-25 01:50:00.69	4.63	13.27	-30.4	-34.3	12.4	1.61e-04	0	43	102	1048576	20	5639
2026-01-25 01:50:01.69	4.52	13.36	-30.6	-34.3	12.0	1.94e-04	0	43	102	1048576	21	5541
2026-01-25 01:50:02.69	4.41	13.44	-30.7	-34.6	11.8	2.88e-03	0	43	102	1048576	21	5662
2026-01-25 01:50:03.69	4.30	13.52	-30.7	-34.5	11.9	5.82e-04	0	43	102	1048576	21	5610
2026-01-25 01:50:04.70	4.18	13.61	-30.6	-34.2	12.2	2.98e-04	0	43	102	1048576	21	5462
2026-01-25 01:50:05.70	4.07	13.69	-30.5	-34.1	12.2	2.53e-03	0	43	102	1048576	21	5411
2026-01-25 01:50:06.70	3.96	13.77	-30.5	-34.3	12.4	2.34e-03	0	43	102	1048576	20	5629
2026-01-25 01:50:07.70	3.84	13.86	-30.5	-33.9	12.4	1.79e-04	0	43	102	1048576	21	5345
2026-01-25 01:50:08.71	3.73	13.94	-30.5	-34.1	12.3	1.41e-04	0	43	102	1048576	21	5433
2026-01-25 01:50:09.71	3.61	14.03	-30.5	-34.0	12.3	2.70e-03	0	43	102	1048576	21	5361
2026-01-25 01:50:10.71	3.50	14.11	-30.4	-33.6	12.6	1.12e-04	0	43	102	1048576	21	5241
2026-01-25 01:50:11.72	3.38	14.20	-30.3	-33.8	12.8	6.56e-05	0	43	102	1048576	20	5393
2026-01-25 01:50:12.72	3.26	14.28	-30.3	-33.9	12.7	2.33e-03	0	43	102	1048576	20	5459
2026-01-25 01:50:13.72	3.14	14.37	-30.3	-33.8	12.8	1.01e-04	0	44	102	1048576	20	5414
2026-01-25 01:50:14.72	3.03	14.45	-30.3	-33.8	12.8	3.81e-05	0	43	102	1048576	20	5418
2026-01-25 01:50:15.73	2.91	14.54	-30.3	-33.9	12.8	2.39e-03	0	43	102	1048576	20	5441
2026-01-25 01:50:16.74	2.78	14.62	-30.3	-33.9	12.8	6.10e-05	0	43	102	1048576	20	5452
2026-01-25 01:50:17.73	2.66	14.71	-30.4	-34.0	12.7	2.16e-03	0	43	102	1048576	20	5490
2026-01-25 01:50:18.73	2.54	14.79	-30.4	-34.1	12.6	8.16e-05	0	43	102	1048576	20	5536
2026-01-25 01:50:19.73	2.42	14.88	-30.4	-34.1	12.6	9.00e-05	0	43	102	1048576	20	5521
2026-01-25 01:50:20.74	2.30	14.97	-30.5	-34.3	12.5	2.44e-03	0	43	102	1048576	20	5611
2026-01-25 01:50:21.74	2.17	15.05	-30.4	-34.1	12.6	2.38e-03	0	43	102	1048576	20	5530
2026-01-25 01:50:22.74	2.05	15.14	-30.4	-34.2	12.7	7.32e-05	0	43	102	1048576	20	5555
2026-01-25 01:50:23.74	1.92	15.22	-30.4	-34.2	12.6	2.36e-03	0	43	102	1048576	20	5570
2026-01-25 01:50:24.74	1.80	15.31	-30.5	-34.4	12.5	2.17e-03	0	43	102	1048576	20	5641
2026-01-25 01:50:25.75	1.67	15.40	-30.6	-34.3	12.3	1.28e-04	0	43	102	1048576	21	5477
2026-01-25 01:50:26.76	1.54	15.49	-30.5	-33.9	12.5	2.52e-03	0	43	102	1048576	21	5340
2026-01-25 01:50:27.76	1.41	15.57	-30.6	-34.2	12.3	2.45e-03	0	43	102	1048576	21	5452
2026-01-25 01:50:28.76	1.28	15.66	-30.6	-34.1	12.4	1.80e-04	0	43	102	1048576	21	5392
2026-01-25 01:50:29.77	1.15	15.75	-30.4	-33.6	12.7	2.65e-03	0	43	102	1048576	21	5209
2026-01-25 01:50:30.77	1.02	15.84	-30.4	-34.1	12.7	2.33e-03	0	44	102	1048576	20	5528
2026-01-25 01:50:31.77	0.89	15.92	-30.4	-34.1	12.7	8.23e-05	0	43	102	1048576	20	5530
2026-01-25 01:50:32.78	0.76	16.01	-30.4	-34.2	12.7	4.80e-04	0	43	102	1048576	20	5541
2026-01-25 01:50:33.78	0.63	16.10	-30.6	-34.1	12.4	2.55e-03	0	43	102	1048576	21	5400
2026-01-25 01:50:34.79	0.49	16.19	-30.8	-34.8	12.0	2.19e-04	0	43	102	1048576	21	5686
2026-01-25 01:50:35.79	0.36	16.28	-30.7	-34.5	12.1	2.55e-03	0	43	102	1048576	21	5587
2026-01-25 01:50:36.80	0.22	16.37	-30.7	-34.3	12.3	2.83e-03	0	43	102	1048576	21	5481
2026-01-25 01:50:37.80	0.08	16.46	-30.5	-33.9	12.5	1.55e-04	0	43	102	1048576	21	5321
2026-01-25 01:50:38.80	359.95	16.55	-30.5	-33.9	12.6	2.49e-03	0	43	102	1048576	21	5326
2026-01-25 01:50:39.80	359.81	16.64	-30.5	-33.9	12.6	3.68e-04	0	43	102	1048576	21	5313
2026-01-25 01:50:40.80	359.67	16.73	-30.6	-34.2	12.4	1.27e-04	0	43	102	1048576	21	5418
2026-01-25 01:50:41.81	359.53	16.82	-30.6	-34.0	12.5	2.43e-03	0	43	102	1048576	21	5374
2026-01-25 01:50:42.81	359.39	16.90	-30.6	-34.0	12.5	2.14e-03	0	44	102	1048576	21	5364
2026-01-25 01:50:43.82	359.25	17.00	-30.5	-33.9	12.6	8.77e-05	0	44	102	1048576	21	5325
2026-01-25 01:50:44.83	359.10	17.09	-30.6	-34.0	12.6	2.51e-03	0	43	102	1048576	21	5345
2026-01-25 01:50:45.84	358.96	17.18	-30.6	-34.2	12.4	2.52e-03	0	44	102	1048576	21	5440
2026-01-25 01:50:46.84	358.81	17.27	-30.7	-34.4	12.4	1.83e-04	0	43	102	1048576	21	5487
2026-01-25 01:50:47.84	358.67	17.36	-30.7	-34.3	12.4	3.30e-03	0	43	102	1048576	21	5459
2026-01-25 01:50:48.84	358.52	17.45	-30.7	-34.4	12.3	2.74e-03	0	44	102	1048576	21	5517
2026-01-25 01:50:49.85	358.38	17.54	-30.7	-34.2	12.4	1.39e-04	0	43	102	1048576	21	5433
2026-01-25 01:50:50.86	358.23	17.63	-30.6	-34.1	12.5	7.92e-04	0	44	102	1048576	21	5381
2026-01-25 01:50:51.86	358.08	17.72	-30.7	-34.4	12.3	2.79e-03	0	44	102	1048576	21	5523
2026-01-25 01:50:52.86	357.93	17.81	-30.6	-34.1	12.6	1.75e-04	0	44	102	1048576	21	5375
2026-01-25 01:50:53.86	357.78	17.90	-30.7	-34.3	12.4	9.32e-04	0	44	102	1048576	21	5454
2026-01-25 01:50:54.87	357.63	18.00	-30.5	-33.9	12.7	1.24e-03	0	44	102	1048576	21	5300
2026-01-25 01:50:55.88	357.47	18.09	-30.4	-33.4	13.0	1.19e-04	0	43	102	1048576	21	5098
2026-01-25 01:50:56.88	357.32	18.18	-30.3	-33.7	13.1	1.21e-03	0	44	102	1048576	20	5331
2026-01-25 01:50:57.88	357.17	18.27	-30.3	-33.8	13.1	9.57e-04	0	44	102	1048576	20	5353
2026-01-25 01:50:58.88	357.01	18.36	-30.2	-33.4	13.3	9.84e-05	0	44	102	1048576	20	5227
2026-01-25 01:50:59.89	356.85	18.46	-30.2	-33.4	13.3	8.16e-04	0	44	102	1048576	20	5218
2026-01-25 01:51:00.89	356.70	18.55	-30.2	-33.4	13.3	1.04e-03	0	44	102	1048576	20	5229
2026-01-25 01:51:01.90	356.54	18.64	-30.3	-33.7	13.2	1.52e-05	0	44	102	1048576	20	5313
2026-01-25 01:51:02.90	356.38	18.73	-30.2	-33.4	13.4	1.60e-05	0	44	102	1048576	20	5215
2026-01-25 01:51:03.91	356.22	18.83	-30.1	-33.1	13.5	1.15e-03	0	44	102	1048576	20	5118
2026-01-25 01:51:04.91	356.06	18.92	-30.1	-33.3	13.4	1.06e-05	0	44	102	1048576	20	5175
2026-01-25 01:51:05.92	355.89	19.01	-30.1	-33.1	13.5	9.85e-04	0	44	102	1048576	20	5109
2026-01-25 01:51:06.91	355.73	19.10	-30.1	-33.1	13.5	3.80e-06	0	44	102	1048576	20	5098
2026-01-25 01:51:07.92	355.57	19.20	-30.0	-33.0	13.6	8.30e-06	0	44	102	1048576	20	5059
2026-01-25 01:51:08.92	355.40	19.29	-30.1	-33.2	13.5	1.28e-03	0	44	102	1048576	20	5153
2026-01-25 01:51:09.92	355.24	19.38	-30.0	-33.0	13.7	6.80e-06	0	44	102	1048576	20	5048
2026-01-25 01:51:10.93	355.07	19.48	-30.0	-32.8	13.7	6.10e-06	0	44	102	1048576	20	5008
2026-01-25 01:51:11.93	354.90	19.57	-30.0	-32.8	13.7	1.09e-03	0	44	102	1048576	20	5003
2026-01-25 01:51:12.93	354.73	19.66	-30.0	-32.8	13.7	6.10e-06	0	44	102	1048576	20	5001
2026-01-25 01:51:13.93	354.56	19.76	-30.1	-33.1	13.6	6.10e-06	0	44	102	1048576	20	5111
2026-01-25 01:51:14.93	354.39	19.85	-30.0	-32.7	13.8	1.26e-03	0	44	102	1048576	20	4960
2026-01-25 01:51:15.94	354.22	19.94	-29.9	-32.6	13.9	1.13e-03	0	44	102	1048576	20	4911
2026-01-25 01:51:16.95	354.04	20.04	-30.0	-32.7	13.9	3.80e-06	0	44	102	1048576	20	4963
2026-01-25 01:51:17.95	353.87	20.13	-29.9	-32.6	13.9	5.30e-06	0	44	102	1048576	20	4907
2026-01-25 01:51:18.95	353.69	20.23	-30.0	-32.7	13.8	1.15e-03	0	44	102	1048576	20	4958
2026-01-25 01:51:19.95	353.51	20.32	-29.9	-32.7	13.9	4.50e-06	0	44	102	1048576	20	4931
2026-01-25 01:51:20.96	353.33	20.41	-30.0	-32.8	13.8	3.80e-06	0	44	102	1048576	20	4986
2026-01-25 01:51:21.96	353.16	20.51	-30.0	-32.7	13.9	7.85e-04	0	44	102	1048576	20	4958
2026-01-25 01:51:22.96	352.98	20.60	-30.0	-32.8	13.9	6.02e-04	0	44	102	1048576	20	4964
2026-01-25 01:51:23.96	352.80	20.70	-30.1	-33.0	13.7	3.80e-06	0	44	102	1048576	20	5056
2026-01-25 01:51:24.97	352.61	20.79	-30.1	-33.1	13.6	9.10e-06	0	44	102	1048576	20	5101
2026-01-25 01:51:25.97	352.43	20.89	-30.2	-33.4	13.5	7.60e-06	0	44	102	1048576	20	5192
2026-01-25 01:51:26.96	352.25	20.98	-30.3	-33.6	13.3	7.77e-04	0	44	102	1048576	20	5285
2026-01-25 01:51:27.98	352.06	21.07	-30.4	-34.1	13.0	2.44e-05	0	44	102	1048576	20	5456
2026-01-25 01:51:28.98	351.87	21.17	-30.4	-33.9	13.2	4.50e-05	0	44	102	1048576	20	5388
2026-01-25 01:51:29.99	351.68	21.26	-30.3	-33.6	13.3	3.88e-04	0	44	102	1048576	20	5271
2026-01-25 01:51:30.99	351.49	21.36	-30.3	-33.7	13.3	8.30e-06	0	44	102	1048576	20	5320
2026-01-25 01:51:32.00	351.30	21.45	-30.3	-33.7	13.2	2.21e-05	0	44	102	1048576	20	5332
2026-01-25 01:51:33.01	351.11	21.55	-30.3	-33.6	13.3	3.81e-04	0	44	102	1048576	20	5293
2026-01-25 01:51:34.01	350.91	21.64	-30.3	-33.8	13.2	2.05e-05	0	44	102	1048576	20	5350
2026-01-25 01:51:35.02	350.72	21.74	-30.4	-33.9	13.2	2.67e-05	0	44	102	1048576	20	5376
2026-01-25 01:51:36.02	350.52	21.83	-30.4	-33.9	13.2	2.13e-05	0	44	102	1048576	20	5393
2026-01-25 01:51:37.02	350.33	21.93	-30.5	-33.6	13.0	3.43e-05	0	44	102	1048576	21	5180
2026-01-25 01:51:38.03	350.13	22.02	-30.4	-33.9	13.1	1.33e-03	0	44	102	1048576	20	5386
2026-01-25 01:51:39.03	349.93	22.12	-30.5	-33.8	12.9	2.21e-05	0	44	102	1048576	21	5228
2026-01-25 01:51:40.03	349.73	22.21	-30.5	-33.7	12.9	4.42e-05	0	44	102	1048576	21	5211
2026-01-25 01:51:41.03	349.53	22.30	-30.7	-34.2	12.6	1.14e-03	0	44	102	1048576	21	5402
2026-01-25 01:51:42.03	349.32	22.40	-30.5	-33.6	13.0	5.41e-05	0	44	102	1048576	21	5174
2026-01-25 01:51:43.02	349.12	22.49	-30.3	-33.2	13.3	3.12e-05	0	44	102	1048576	21	5019
2026-01-25 01:51:44.02	348.92	22.58	-30.3	-33.5	13.4	5.83e-04	0	44	102	1048576	20	5249
2026-01-25 01:51:45.03	348.71	22.68	-30.3	-33.5	13.4	5.58e-04	0	44	102	1048576	20	5223
2026-01-25 01:51:46.04	348.50	22.77	-30.1	-33.2	13.6	1.06e-05	0	44	102	1048576	20	5114
2026-01-25 01:51:47.04	348.29	22.87	-30.1	-33.2	13.7	4.06e-04	0	44	102	1048576	20	5105
2026-01-25 01:51:48.04	348.08	22.96	-30.1	-33.1	13.7	2.73e-04	0	44	102	1048576	20	5081
2026-01-25 01:51:49.05	347.87	23.06	-30.2	-33.2	13.7	5.30e-06	0	44	102	1048576	20	5112
2026-01-25 01:51:50.06	347.65	23.15	-30.0	-32.9	13.8	1.50e-06	0	44	102	1048576	20	5017
2026-01-25 01:51:51.07	347.44	23.25	-30.1	-33.0	13.7	3.66e-05	0	44	102	1048576	20	5049
2026-01-25 01:51:52.07	347.22	23.34	-30.1	-33.0	13.8	4.50e-06	0	44	102	1048576	20	5029
2026-01-25 01:51:53.08	347.00	23.43	-30.1	-33.1	13.7	9.10e-06	0	44	102	1048576	20	5078
2026-01-25 01:51:54.08	346.79	23.53	-30.2	-33.3	13.5	9.10e-06	0	44	102	1048576	20	5147
2026-01-25 01:51:55.08	346.57	23.62	-30.0	-32.7	14.0	2.20e-06	0	44	102	1048576	20	4922
2026-01-25 01:51:56.09	346.34	23.71	-29.8	-32.3	14.3	6.79e-05	0	44	102	1048576	20	4786
2026-01-25 01:51:57.09	346.12	23.81	-29.7	-32.1	14.3	2.49e-04	0	44	102	1048576	20	4724
2026-01-25 01:51:58.09	345.90	23.90	-29.7	-32.1	14.4	7.00e-07	0	44	102	1048576	20	4714
2026-01-25 01:51:59.09	345.68	23.99	-29.8	-32.6	14.4	5.48e-04	0	44	102	1048576	19	5010
2026-01-25 01:52:00.09	345.45	24.08	-29.7	-32.5	14.4	8.00e-04	0	44	102	1048576	19	4960
2026-01-25 01:52:01.10	345.22	24.18	-29.7	-32.4	14.6	0.00e+00	0	44	102	1048576	19	4913
2026-01-25 01:52:02.10	344.99	24.27	-29.7	-32.4	14.6	1.22e-03	0	44	102	1048576	19	4934
2026-01-25 01:52:03.10	344.76	24.36	-29.8	-32.8	14.3	1.37e-03	0	44	102	1048576	19	5082
2026-01-25 01:52:04.11	344.53	24.45	-29.7	-32.4	14.5	0.00e+00	0	44	102	1048576	19	4931
2026-01-25 01:52:05.11	344.30	24.54	-29.7	-32.4	14.5	1.38e-03	0	44	102	1048576	19	4923
2026-01-25 01:52:06.12	344.06	24.64	-29.8	-32.7	14.4	1.42e-03	0	44	102	1048576	19	5030
2026-01-25 01:52:07.12	343.82	24.73	-29.8	-32.7	14.4	0.00e+00	0	44	102	1048576	19	5028
2026-01-25 01:52:08.13	343.58	24.82	-29.8	-32.8	14.3	2.09e-03	0	44	102	1048576	19	5053
2026-01-25 01:52:09.14	343.34	24.91	-29.9	-32.9	14.3	1.72e-03	0	44	102	1048576	19	5097
2026-01-25 01:52:10.14	343.10	25.00	-29.9	-32.9	14.3	0.00e+00	0	44	102	1048576	19	5104
2026-01-25 01:52:11.14	342.86	25.09	-29.8	-32.7	14.4	4.64e-04	0	44	102	1048576	19	5035
2026-01-25 01:52:12.15	342.62	25.18	-29.9	-32.5	14.1	2.37e-03	0	44	102	1048576	20	4863
2026-01-25 01:52:13.15	342.38	25.27	-29.7	-31.9	14.5	1.50e-06	0	44	102	1048576	20	4659
2026-01-25 01:52:14.15	342.13	25.36	-29.7	-32.6	14.5	2.88e-04	0	44	102	1048576	19	4977
2026-01-25 01:52:15.15	341.88	25.45	-29.6	-32.3	14.6	2.45e-03	0	44	102	1048576	19	4901
2026-01-25 01:52:16.15	341.64	25.54	-29.7	-32.5	14.5	0.00e+00	0	44	102	1048576	19	4965
2026-01-25 01:52:17.16	341.38	25.63	-29.7	-32.5	14.5	2.26e-03	0	44	102	1048576	19	4963
2026-01-25 01:52:18.17	341.13	25.72	-29.8	-32.8	14.4	9.83e-04	0	44	102	1048576	19	5061
2026-01-25 01:52:19.17	340.88	25.80	-29.8	-32.6	14.4	1.50e-06	0	44	102	1048576	19	5004
2026-01-25 01:52:20.17	340.62	25.89	-29.7	-32.5	14.6	1.95e-03	0	44	102	1048576	19	4949
2026-01-25 01:52:21.18	340.37	25.98	-29.8	-32.6	14.4	1.15e-03	0	44	102	1048576	19	4988
2026-01-25 01:52:22.18	340.11	26.07	-29.9	-32.9	14.3	0.00e+00	0	44	102	1048576	19	5092
2026-01-25 01:52:23.19	339.85	26.15	-29.8	-32.8	14.4	3.22e-03	0	44	102	1048576	19	5075
2026-01-25 01:52:24.19	339.59	26.24	-30.0	-32.7	14.0	1.67e-03	0	44	102	1048576	20	4941
2026-01-25 01:52:25.20	339.33	26.33	-30.0	-32.8	14.0	1.50e-06	0	44	102	1048576	20	4969
2026-01-25 01:52:26.20	339.06	26.41	-30.2	-33.4	13.6	3.92e-03	0	44	102	1048576	20	5195
2026-01-25 01:52:27.20	338.80	26.50	-30.2	-33.4	13.6	1.92e-03	0	44	102	1048576	20	5181
2026-01-25 01:52:28.19	338.54	26.58	-30.3	-33.6	13.5	9.90e-06	0	44	102	1048576	20	5249
2026-01-25 01:52:29.20	338.27	26.67	-30.2	-33.4	13.5	1.99e-03	0	44	102	1048576	20	5205
2026-01-25 01:52:30.21	338.00	26.75	-30.2	-33.4	13.6	3.62e-03	0	44	102	1048576	20	5173
2026-01-25 01:52:31.20	337.73	26.83	-30.2	-33.4	13.6	6.10e-06	0	44	102	1048576	20	5182
2026-01-25 01:52:32.21	337.46	26.92	-30.2	-33.3	13.7	2.02e-03	0	44	102	1048576	20	5132
2026-01-25 01:52:33.21	337.19	27.00	-30.1	-33.2	13.8	3.40e-03	0	44	102	1048576	20	5096
2026-01-25 01:52:34.22	336.91	27.08	-30.2	-33.3	13.6	5.30e-06	0	44	102	1048576	20	5136
2026-01-25 01:52:35.22	336.63	27.16	-30.3	-33.6	13.5	2.01e-03	0	44	102	1048576	20	5259
2026-01-25 01:52:36.22	336.36	27.24	-30.4	-33.8	13.4	1.99e-03	0	44	102	1048576	20	5357
2026-01-25 01:52:37.22	336.08	27.32	-30.5	-33.5	13.1	2.44e-05	0	44	102	1048576	21	5124
2026-01-25 01:52:38.23	335.80	27.41	-30.5	-33.7	13.2	2.04e-03	0	44	102	1048576	21	5175
2026-01-25 01:52:39.24	335.51	27.49	-30.5	-33.6	13.2	2.07e-03	0	44	102	1048576	21	5134
2026-01-25 01:52:40.25	335.23	27.56	-30.4	-33.4	13.3	1.60e-05	0	44	102	1048576	21	5068
2026-01-25 01:52:41.25	334.95	27.64	-30.6	-33.8	13.0	1.98e-05	0	44	102	1048576	21	5206
2026-01-25 01:52:42.25	334.66	27.72	-30.7	-34.1	12.8	1.99e-03	0	44	102	1048576	21	5345
2026-01-25 01:52:43.25	334.37	27.80	-30.6	-33.9	12.9	4.73e-05	0	44	102	1048576	21	5279
2026-01-25 01:52:44.26	334.08	27.87	-30.5	-33.7	13.1	1.90e-03	0	44	102	1048576	21	5185
2026-01-25 01:52:45.26	333.79	27.95	-30.5	-33.7	13.1	3.20e-05	0	44	102	1048576	21	5186
2026-01-25 01:52:46.27	333.50	28.03	-30.6	-33.9	12.9	2.89e-05	0	44	102	1048576	21	5262
2026-01-25 01:52:47.27	333.21	28.10	-30.7	-34.0	12.9	1.34e-03	0	44	102	1048576	21	5316
2026-01-25 01:52:48.27	332.92	28.18	-30.7	-34.2	12.7	5.49e-05	0	44	102	1048576	21	5390
2026-01-25 01:52:49.28	332.62	28.25	-30.7	-34.3	12.6	8.62e-05	0	44	102	1048576	21	5439
2026-01-25 01:52:50.28	332.32	28.32	-30.7	-34.2	12.7	4.84e-04	0	44	102	1048576	21	5382
2026-01-25 01:52:51.28	332.02	28.39	-30.7	-34.2	12.7	7.85e-05	0	44	102	1048576	21	5375
2026-01-25 01:52:52.28	331.73	28.47	-30.7	-34.2	12.8	7.24e-05	0	44	102	1048576	21	5369
2026-01-25 01:52:53.29	331.42	28.54	-30.7	-34.3	12.7	7.09e-05	0	44	102	1048576	21	5417
2026-01-25 01:52:54.29	331.12	28.61	-30.6	-33.9	12.9	6.63e-05	0	44	102	1048576	21	5268
2026-01-25 01:52:55.30	330.81	28.68	-30.6	-33.9	13.0	4.42e-05	0	44	102	1048576	21	5271
2026-01-25 01:52:56.30	330.51	28.75	-30.6	-33.9	13.1	3.28e-05	0	44	102	1048576	21	5248
2026-01-25 01:52:57.31	330.20	28.81	-30.7	-34.3	12.8	4.88e-05	0	44	102	1048576	21	5410
2026-01-25 01:52:58.31	329.90	28.88	-30.2	-33.9	12.5	1.06e-04	0	44	102	1048576	21	5542
2026-01-25 01:52:59.32	329.58	28.95	-30.9	-34.8	12.4	1.36e-04	0	44	102	1048576	21	5620
2026-01-25 01:53:00.32	329.27	29.01	-30.8	-34.5	12.6	6.46e-04	0	44	102	1048576	21	5511
2026-01-25 01:53:01.32	328.96	29.08	-30.8	-34.5	12.5	9.11e-04	0	44	102	1048576	21	5523
2026-01-25 01:53:02.33	328.65	29.14	-30.9	-34.6	12.4	1.40e-04	0	44	102	1048576	21	5559
2026-01-25 01:53:03.33	328.34	29.21	-30.8	-34.5	12.5	9.91e-05	0	44	102	1048576	21	5499
2026-01-25 01:53:04.34	328.02	29.27	-30.8	-34.5	12.5	8.77e-05	0	44	102	1048576	21	5517
2026-01-25 01:53:05.35	327.70	29.33	-30.9	-34.8	12.4	1.55e-04	0	44	102	1048576	21	5639
2026-01-25 01:53:06.35	327.38	29.39	-30.9	-34.9	12.3	1.64e-04	0	44	102	1048576	21	5667
2026-01-25 01:53:07.35	327.06	29.45	-31.1	-34.8	12.1	2.24e-04	0	44	102	1048576	22	5535
2026-01-25 01:53:08.36	326.74	29.51	-31.1	-34.9	12.0	2.88e-03	0	44	102	1048576	22	5562
2026-01-25 01:53:09.36	326.42	29.57	-31.0	-34.4	12.3	2.31e-04	0	44	102	1048576	22	5359
2026-01-25 01:53:10.36	326.10	29.62	-30.9	-34.7	12.4	1.69e-04	0	44	102	1048576	21	5579
2026-01-25 01:53:11.37	325.77	29.68	-30.8	-34.5	12.6	2.42e-03	0	44	102	1048576	21	5507
2026-01-25 01:53:12.37	325.45	29.74	-30.9	-34.8	12.4	2.49e-04	0	44	102	1048576	21	5628
2026-01-25 01:53:13.37	325.13	29.79	-30.8	-34.6	12.5	1.73e-04	0	44	102	1048576	21	5541
2026-01-25 01:53:14.37	324.80	29.84	-30.7	-34.3	12.7	8.31e-05	0	44	102	1048576	21	5410
2026-01-25 01:53:15.38	324.47	29.90	-30.8	-34.4	12.7	1.88e-04	0	44	102	1048576	21	5441
2026-01-25 01:53:16.38	324.14	29.95	-30.8	-34.6	12.5	8.08e-05	0	44	102	1048576	21	5539
2026-01-25 01:53:17.38	323.81	30.00	-30.9	-34.7	12.4	1.32e-04	0	44	102	1048576	21	5582
2026-01-25 01:53:18.39	323.48	30.05	-30.9	-34.7	12.4	1.08e-04	0	44	102	1048576	21	5571
2026-01-25 01:53:19.39	323.15	30.10	-30.8	-34.6	12.6	2.55e-03	0	44	102	1048576	21	5526
2026-01-25 01:53:20.40	322.81	30.15	-30.9	-34.7	12.5	1.17e-04	0	44	102	1048576	21	5575
2026-01-25 01:53:21.40	322.48	30.19	-31.0	-34.5	12.2	2.13e-04	0	44	102	1048576	22	5405
2026-01-25 01:53:22.40	322.14	30.24	-31.1	-34.8	12.1	2.77e-03	0	44	102	1048576	22	5526
2026-01-25 01:53:23.40	321.81	30.28	-31.1	-34.8	12.1	2.68e-03	0	44	102	1048576	22	5511
2026-01-25 01:53:24.41	321.47	30.33	-31.2	-35.0	11.9	4.27e-04	0	44	102	1048576	22	5625
2026-01-25 01:53:25.41	321.13	30.37	-31.0	-34.4	12.3	2.43e-03	0	44	102	1048576	22	5359
2026-01-25 01:53:26.41	320.79	30.41	-31.0	-34.5	12.3	2.59e-03	0	44	102	1048576	22	5394
2026-01-25 01:53:27.42	320.45	30.45	-31.1	-34.8	12.0	2.30e-04	0	44	102	1048576	22	5510
2026-01-25 01:53:28.43	320.11	30.49	-31.2	-35.0	11.9	2.99e-03	0	44	102	1048576	22	5619
2026-01-25 01:53:29.44	319.76	30.53	-31.2	-35.2	11.8	2.61e-03	0	44	102	1048576	22	5671
2026-01-25 01:53:30.44	319.42	30.56	-31.3	-35.3	11.8	6.16e-04	0	44	102	1048576	22	5735
2026-01-25 01:53:31.45	319.08	30.60	-31.3	-35.4	11.7	2.96e-03	0	44	102	1048576	22	5766
2026-01-25 01:53:32.45	318.73	30.64	-31.2	-35.0	11.9	2.26e-03	0	44	102	1048576	22	5609
2026-01-25 01:53:33.45	318.39	30.67	-31.0	-34.5	12.3	2.97e-04	0	44	102	1048576	22	5371
2026-01-25 01:53:34.46	318.04	30.70	-30.9	-34.6	12.5	7.57e-04	0	44	102	1048576	21	5554
2026-01-25 01:53:35.46	317.70	30.73	-30.8	-34.4	12.6	8.67e-04	0	44	102	1048576	21	5439
2026-01-25 01:53:36.47	317.35	30.76	-30.8	-34.6	12.5	1.17e-04	0	44	102	1048576	21	5529
2026-01-25 01:53:37.48	317.00	30.79	-31.0	-34.6	12.2	1.90e-04	0	44	102	1048576	22	5436
2026-01-25 01:53:38.47	316.65	30.82	-31.2	-35.1	11.9	1.25e-03	0	44	102	1048576	22	5641
2026-01-25 01:53:39.48	316.30	30.85	-31.2	-35.2	11.8	8.84e-04	0	44	102	1048576	22	5675
2026-01-25 01:53:40.49	315.95	30.87	-31.0	-34.5	12.2	9.39e-04	0	44	102	1048576	22	5405
2026-01-25 01:53:41.49	315.60	30.90	-30.8	-34.5	12.6	5.94e-04	0	44	102	1048576	21	5493
2026-01-25 01:53:42.49	315.25	30.92	-30.8	-34.3	12.7	1.71e-04	0	44	102	1048576	21	5411
2026-01-25 01:53:43.49	314.90	30.94	-30.7	-34.3	12.7	1.16e-03	0	44	102	1048576	21	5407
2026-01-25 01:53:44.49	314.55	30.96	-30.7	-34.1	12.8	6.65e-04	0	44	102	1048576	21	5332
2026-01-25 01:53:45.50	314.20	30.98	-30.8	-34.3	12.7	9.38e-05	0	44	102	1048576	21	5427
2026-01-25 01:53:46.50	313.85	31.00	-30.9	-34.7	12.5	2.20e-03	0	44	102	1048576	21	5577
2026-01-25 01:53:47.51	313.49	31.02	-30.8	-34.6	12.5	1.64e-03	0	44	102	1048576	21	5531
2026-01-25 01:53:48.51	313.14	31.03	-31.1	-34.7	12.1	2.13e-04	0	44	102	1048576	22	5470
2026-01-25 01:53:49.52	312.79	31.05	-31.2	-35.1	11.9	2.91e-03	0	44	102	1048576	22	5635
2026-01-25 01:53:50.52	312.43	31.06	-31.2	-35.1	11.9	2.39e-03	0	44	102	1048576	22	5621
2026-01-25 01:53:51.53	312.08	31.08	-31.4	-35.6	11.6	6.06e-04	0	44	102	1048576	22	5857
2026-01-25 01:53:52.53	311.72	31.09	-31.5	-35.6	11.1	2.33e-03	0	44	102	1048576	23	5770
2026-01-25 01:53:53.53	311.37	31.10	-31.7	-36.3	10.7	4.84e-03	0	44	102	1048576	23	6093
2026-01-25 01:53:54.53	311.02	31.10	-31.8	-36.6	10.5	4.02e-03	0	44	102	1048576	23	6238
2026-01-25 01:53:55.53	310.66	31.11	-31.8	-36.5	10.5	4.91e-03	0	44	102	1048576	23	6191
2026-01-25 01:53:56.53	310.31	31.12	-31.9	-36.9	10.2	8.18e-03	0	44	102	1048576	23	6399
2026-01-25 01:53:57.53	309.96	31.12	-31.9	-36.5	10.0	8.02e-03	0	44	102	1048576	24	6108
2026-01-25 01:53:58.54	309.60	31.13	-31.8	-36.6	10.4	5.54e-03	0	44	102	1048576	23	6254
2026-01-25 01:53:59.55	309.24	31.13	-31.7	-36.3	10.6	4.16e-03	0	44	102	1048576	23	6101
2026-01-25 01:54:00.55	308.89	31.13	-31.7	-36.3	10.6	3.21e-03	0	44	102	1048576	23	6125
2026-01-25 01:54:01.55	308.53	31.13	-31.6	-35.8	10.9	4.73e-03	0	44	102	1048576	23	5882
2026-01-25 01:54:02.56	308.17	31.13	-31.6	-35.7	11.0	2.71e-03	0	44	102	1048576	23	5819
2026-01-25 01:54:03.57	307.82	31.13	-31.7	-36.3	10.6	3.36e-03	0	44	102	1048576	23	6075
2026-01-25 01:54:04.57	307.46	31.12	-31.7	-36.3	10.6	5.60e-03	0	44	102	1048576	23	6113
2026-01-25 01:54:05.58	307.11	31.12	-31.7	-36.3	10.6	4.98e-03	0	44	102	1048576	23	6109
2026-01-25 01:54:06.59	306.75	31.11	-31.5	-35.7	11.1	1.75e-03	0	44	102	1048576	23	5812
2026-01-25 01:54:07.59	306.39	31.10	-31.4	-35.7	11.4	4.80e-03	0	44	102	1048576	22	5919
2026-01-25 01:54:08.59	306.04	31.10	-31.3	-35.5	11.5	1.57e-03	0	44	102	1048576	22	5838
2026-01-25 01:54:09.59	305.69	31.09	-31.3	-35.3	11.7	7.82e-04	0	44	102	1048576	22	5709
2026-01-25 01:54:10.60	305.33	31.07	-31.0	-34.5	12.2	1.23e-03	0	44	102	1048576	22	5384
2026-01-25 01:54:11.61	304.97	31.06	-30.8	-34.5	12.6	3.37e-03	0	44	102	1048576	21	5488
2026-01-25 01:54:12.61	304.62	31.05	-30.8	-34.5	12.6	9.91e-05	0	44	102	1048576	21	5483
2026-01-25 01:54:13.61	304.27	31.03	-30.8	-34.4	12.6	1.55e-03	0	44	102	1048576	21	5464
2026-01-25 01:54:14.61	303.92	31.02	-30.8	-34.3	12.7	1.49e-03	0	44	102	1048576	21	5424
2026-01-25 01:54:15.62	303.56	31.00	-30.8	-34.5	12.6	8.54e-05	0	44	102	1048576	21	5490
2026-01-25 01:54:16.62	303.21	30.98	-30.9	-34.7	12.4	1.54e-03	0	44	102	1048576	21	5597
2026-01-25 01:54:17.62	302.86	30.96	-31.1	-34.7	12.1	1.54e-03	0	44	102	1048576	22	5480
2026-01-25 01:54:18.62	302.51	30.94	-31.1	-34.8	11.9	3.84e-04	0	44	102	1048576	22	5516
2026-01-25 01:54:19.63	302.16	30.92	-31.0	-34.6	12.1	8.20e-04	0	44	102	1048576	22	5427
2026-01-25 01:54:20.64	301.80	30.89	-30.7	-34.2	12.7	3.14e-04	0	44	102	1048576	21	5388
2026-01-25 01:54:21.64	301.45	30.87	-30.7	-34.1	12.8	6.56e-05	0	44	102	1048576	21	5341
2026-01-25 01:54:22.65	301.10	30.84	-30.8	-34.4	12.6	7.78e-05	0	44	102	1048576	21	5461
2026-01-25 01:54:23.65	300.75	30.82	-30.8	-34.5	12.6	8.85e-05	0	44	102	1048576	21	5503
2026-01-25 01:54:24.65	300.41	30.79	-30.9	-34.8	12.3	1.11e-04	0	44	102	1048576	21	5624
2026-01-25 01:54:25.66	300.06	30.76	-31.0	-34.6	12.2	2.25e-04	0	44	102	1048576	22	5427
2026-01-25 01:54:26.66	299.71	30.73	-31.1	-34.7	12.0	2.38e-04	0	44	102	1048576	22	5497
2026-01-25 01:54:27.66	299.37	30.70	-31.3	-35.5	11.5	4.07e-04	0	44	102	1048576	22	5857
2026-01-25 01:54:28.67	299.02	30.67	-31.3	-35.3	11.6	7.29e-04	0	44	102	1048576	22	5765
2026-01-25 01:54:29.67	298.67	30.63	-31.2	-35.1	11.8	4.07e-04	0	44	102	1048576	22	5650
2026-01-25 01:54:30.68	298.33	30.60	-31.1	-35.0	11.5	4.39e-04	0	44	102	1048576	22	5632
2026-01-25 01:54:31.69	297.98	30.56	-31.2	-35.0	11.4	3.45e-04	0	44	102	1048576	22	5616
2026-01-25 01:54:32.69	297.64	30.52	-31.0	-34.7	12.0	3.80e-04	0	44	102	1048576	22	5486
2026-01-25 01:54:33.70	297.30	30.49	-30.8	-34.6	12.4	1.63e-04	0	44	102	1048576	21	5533
2026-01-25 01:54:34.71	296.95	30.45	-30.8	-34.4	12.5	4.80e-04	0	44	102	1048576	21	5485
2026-01-25 01:54:35.72	296.61	30.40	-30.7	-34.3	12.6	1.04e-04	0	44	102	1048576	21	5441
2026-01-25 01:54:36.72	296.27	30.36	-30.7	-34.2	12.7	7.55e-05	0	44	102	1048576	21	5383
2026-01-25 01:54:37.72	295.93	30.32	-30.9	-34.7	12.3	9.76e-05	0	44	102	1048576	21	5599
2026-01-25 01:54:38.73	295.59	30.28	-30.9	-34.7	12.4	1.79e-04	0	44	102	1048576	21	5580
2026-01-25 01:54:39.74	295.25	30.23	-31.0	-34.9	12.2	1.83e-04	0	44	102	1048576	21	5702
2026-01-25 01:54:40.74	294.92	30.19	-30.9	-34.7	12.4	2.02e-04	0	44	102	1048576	21	5581
2026-01-25 01:54:41.75	294.58	30.14	-30.8	-34.5	12.5	1.02e-03	0	44	102	1048576	21	5519
2026-01-25 01:54:42.75	294.25	30.09	-30.9	-34.7	12.3	1.11e-03	0	44	102	1048576	21	5604
2026-01-25 01:54:43.76	293.91	30.04	-30.8	-34.6	12.4	1.63e-04	0	44	102	1048576	21	5560
2026-01-25 01:54:44.76	293.58	29.99	-30.6	-34.0	12.8	9.38e-05	0	44	102	1048576	21	5322
2026-01-25 01:54:45.76	293.25	29.94	-30.5	-33.7	13.0	1.55e-03	0	44	102	1048576	21	5214
2026-01-25 01:54:46.76	292.93	29.89	-30.5	-33.6	13.1	1.40e-03	0	44	102	1048576	21	5162
2026-01-25 01:54:47.77	292.59	29.84	-30.6	-33.9	12.9	4.19e-05	0	44	102	1048576	21	5267
2026-01-25 01:54:48.77	292.27	29.78	-30.5	-33.7	13.0	1.36e-03	0	44	102	1048576	21	5188
2026-01-25 01:54:49.77	291.94	29.73	-30.6	-33.9	12.9	1.82e-03	0	44	102	1048576	21	5264
2026-01-25 01:54:50.77	291.62	29.67	-30.6	-34.0	12.8	5.64e-05	0	44	102	1048576	21	5294
2026-01-25 01:54:51.78	291.29	29.62	-30.8	-34.5	12.5	6.94e-05	0	44	102	1048576	21	5511
2026-01-25 01:54:52.79	290.97	29.56	-30.8	-34.6	12.3	2.36e-03	0	44	102	1048576	21	5581
2026-01-25 01:54:53.80	290.64	29.50	-31.0	-35.0	12.1	2.05e-04	0	44	102	1048576	21	5732
2026-01-25 01:54:54.81	290.32	29.44	-31.0	-35.1	12.0	2.90e-04	0	44	102	1048576	21	5781
2026-01-25 01:54:55.81	290.00	29.38	-31.0	-34.7	12.0	2.85e-03	0	44	102	1048576	22	5488
2026-01-25 01:54:56.82	289.68	29.32	-31.0	-34.6	12.0	3.34e-04	0	44	102	1048576	22	5479
2026-01-25 01:54:57.82	289.36	29.26	-30.9	-34.8	12.2	2.63e-03	0	44	102	1048576	21	5656
2026-01-25 01:54:58.83	289.05	29.19	-30.8	-34.5	12.4	2.58e-03	0	44	102	1048576	21	5532
2026-01-25 01:54:59.84	288.73	29.13	-30.7	-34.3	12.6	1.35e-04	0	44	102	1048576	21	5429
2026-01-25 01:55:00.85	288.41	29.07	-30.8	-34.6	12.3	2.10e-03	0	44	102	1048576	21	5582
2026-01-25 01:55:01.85	288.10	29.00	-30.9	-34.8	12.2	1.98e-04	0	44	102	1048576	21	5640
2026-01-25 01:55:02.86	287.79	28.93	-31.0	-35.0	12.0	2.04e-04	0	44	102	1048576	21	5738
2026-01-25 01:55:03.86	287.48	28.87	-31.1	-34.8	11.9	2.54e-03	0	44	102	1048576	22	5557
2026-01-25 01:55:04.86	287.17	28.80	-31.1	-34.9	11.8	2.80e-03	0	44	102	1048576	22	5598
2026-01-25 01:55:05.86	286.87	28.73	-31.2	-35.1	11.7	5.82e-04	0	44	102	1048576	22	5674
2026-01-25 01:55:06.87	286.56	28.66	-31.2	-35.1	11.6	2.79e-03	0	44	102	1048576	22	5697
2026-01-25 01:55:07.87	286.26	28.59	-31.2	-35.3	11.5	2.45e-03	0	44	102	1048576	22	5758
2026-01-25 01:55:08.87	285.95	28.52	-31.2	-35.2	11.6	7.69e-04	0	44	102	1048576	22	5711
2026-01-25 01:55:09.88	285.65	28.45	-31.2	-35.2	11.6	2.64e-03	0	44	102	1048576	22	5711
2026-01-25 01:55:10.88	285.35	28.38	-31.2	-35.4	11.4	2.62e-03	0	44	102	1048576	22	5808
2026-01-25 01:55:11.88	285.05	28.31	-31.1	-35.0	11.7	9.06e-04	0	44	102	1048576	22	5630
2026-01-25 01:55:12.88	284.76	28.24	-31.0	-35.1	12.0	3.46e-03	0	44	102	1048576	21	5765
2026-01-25 01:55:13.89	284.46	28.16	-31.0	-34.7	11.8	1.97e-03	0	44	102	1048576	22	5506
2026-01-25 01:55:14.90	284.16	28.09	-30.9	-34.4	12.1	3.77e-04	0	44	102	1048576	22	5365
2026-01-25 01:55:15.90	283.87	28.01	-30.9	-35.0	12.0	6.06e-04	0	44	102	1048576	21	5752
2026-01-25 01:55:16.90	283.58	27.94	-30.9	-34.8	12.1	9.15e-04	0	44	102	1048576	21	5666
2026-01-25 01:55:17.89	283.29	27.86	-30.8	-34.6	12.3	1.84e-04	0	44	102	1048576	21	5557
2026-01-25 01:55:18.90	283.00	27.78	-30.7	-34.2	12.5	3.35e-04	0	44	102	1048576	21	5401
2026-01-25 01:55:19.90	282.71	27.70	-30.7	-34.2	12.5	2.72e-04	0	44	102	1048576	21	5425
2026-01-25 01:55:20.91	282.42	27.63	-30.6	-34.1	12.6	1.21e-04	0	44	102	1048576	21	5361
2026-01-25 01:55:21.91	282.14	27.55	-30.6	-33.9	12.7	8.54e-05	0	44	102	1048576	21	5302
2026-01-25 01:55:22.92	281.85	27.47	-30.6	-33.9	12.8	2.00e-04	0	44	102	1048576	21	5298
2026-01-25 01:55:23.93	281.57	27.39	-30.5	-33.8	12.8	7.09e-05	0	44	102	1048576	21	5240
2026-01-25 01:55:24.93	281.29	27.31	-30.5	-33.7	12.9	7.01e-05	0	44	102	1048576	21	5205
2026-01-25 01:55:25.94	281.01	27.23	-30.6	-33.9	12.7	4.42e-05	0	44	102	1048576	21	5275
2026-01-25 01:55:26.95	280.73	27.14	-30.7	-34.2	12.5	8.62e-05	0	44	102	1048576	21	5404
2026-01-25 01:55:27.96	280.45	27.06	-30.7	-34.3	12.5	9.29e-04	0	44	102	1048576	21	5442
2026-01-25 01:55:28.96	280.17	26.98	-30.6	-34.0	12.6	1.71e-03	0	44	102	1048576	21	5335
2026-01-25 01:55:29.97	279.90	26.90	-30.5	-33.9	12.7	7.93e-05	0	44	102	1048576	21	5300
2026-01-25 01:55:30.97	279.63	26.81	-30.7	-34.4	12.3	6.39e-04	0	44	102	1048576	21	5507
2026-01-25 01:55:31.98	279.35	26.73	-30.7	-34.3	12.4	3.35e-03	0	44	102	1048576	21	5439
2026-01-25 01:55:32.99	279.08	26.64	-30.8	-34.6	12.3	1.75e-04	0	44	102	1048576	21	5573
2026-01-25 01:55:33.99	278.82	26.56	-30.5	-33.9	12.7	9.55e-04	0	44	102	1048576	21	5293
2026-01-25 01:55:34.99	278.55	26.47	-30.4	-33.6	12.9	3.43e-03	0	44	102	1048576	21	5186
2026-01-25 01:55:36.00	278.28	26.39	-30.4	-33.5	13.0	4.04e-05	0	44	102	1048576	21	5126
2026-01-25 01:55:36.99	278.02	26.30	-30.4	-34.1	12.9	4.84e-04	0	44	102	1048576	20	5477
2026-01-25 01:55:38.00	277.76	26.22	-30.4	-33.9	13.0	3.07e-04	0	44	102	1048576	20	5419
2026-01-25 01:55:39.00	277.50	26.13	-30.4	-33.9	13.0	4.04e-05	0	44	102	1048576	20	5424
2026-01-25 01:55:40.01	277.24	26.04	-30.3	-33.6	13.2	2.82e-05	0	44	102	1048576	20	5304
2026-01-25 01:55:41.01	276.98	25.95	-30.3	-33.8	13.1	1.98e-05	0	44	102	1048576	20	5365
2026-01-25 01:55:42.02	276.72	25.87	-30.4	-34.1	12.9	3.96e-05	0	44	102	1048576	20	5502
2026-01-25 01:55:43.03	276.47	25.78	-30.2	-33.6	13.2	2.21e-05	0	44	102	1048576	20	5279
2026-01-25 01:55:44.03	276.21	25.69	-30.2	-33.5	13.2	1.01e-04	0	44	102	1048576	20	5257
2026-01-25 01:55:45.03	275.96	25.60	-30.2	-33.6	13.3	1.44e-05	0	44	102	1048576	20	5276
2026-01-25 01:55:46.03	275.71	25.51	-30.3	-33.7	13.2	2.28e-05	0	44	102	1048576	20	5318
2026-01-25 01:55:47.03	275.46	25.42	-30.4	-33.9	13.0	4.03e-04	0	44	102	1048576	20	5426
2026-01-25 01:55:48.04	275.21	25.33	-30.1	-33.1	13.5	2.44e-05	0	44	102	1048576	20	5112
2026-01-25 01:55:49.03	274.97	25.24	-29.9	-32.7	13.7	9.54e-04	0	44	102	1048576	20	4976
2026-01-25 01:55:50.03	274.73	25.15	-30.0	-33.2	13.8	3.00e-06	0	44	102	1048576	19	5243
2026-01-25 01:55:51.03	274.48	25.06	-29.8	-33.0	14.0	2.20e-06	0	44	102	1048576	19	5154
2026-01-25 01:55:52.03	274.24	24.97	-29.9	-33.0	14.0	3.80e-04	0	44	102	1048576	19	5170
2026-01-25 01:55:53.03	274.00	24.88	-29.9	-33.2	13.8	3.80e-06	0	44	102	1048576	19	5233
2026-01-25 01:55:54.03	273.76	24.79	-29.8	-32.8	14.1	0.00e+00	0	44	102	1048576	19	5077
2026-01-25 01:55:55.03	273.52	24.70	-29.7	-32.7	14.2	1.55e-04	0	44	102	1048576	19	5047
2026-01-25 01:55:56.03	273.29	24.61	-29.7	-32.7	14.2	1.43e-04	0	44	102	1048576	19	5041
2026-01-25 01:55:57.04	273.05	24.52	-29.7	-32.5	14.3	1.50e-06	0	44	102	1048576	19	4992
2026-01-25 01:55:58.04	272.82	24.42	-29.7	-32.6	14.3	2.23e-04	0	44	102	1048576	19	5011
2026-01-25 01:55:59.05	272.58	24.33	-29.7	-32.5	14.2	2.52e-04	0	44	102	1048576	19	4992
2026-01-25 01:56:00.05	272.35	24.24	-29.8	-32.9	14.1	3.00e-06	0	44	102	1048576	19	5119
2026-01-25 01:56:01.05	272.12	24.15	-29.5	-31.9	14.6	0.00e+00	0	44	102	1048576	19	4789
2026-01-25 01:56:02.06	271.89	24.05	-29.2	-31.8	15.0	1.61e-04	0	44	102	1048576	18	4841
2026-01-25 01:56:03.06	271.67	23.96	-29.0	-31.2	15.3	0.00e+00	0	44	102	1048576	18	4659
2026-01-25 01:56:04.07	271.44	23.87	-29.0	-31.3	15.2	0.00e+00	0	44	102	1048576	18	4703
2026-01-25 01:56:05.08	271.21	23.77	-29.0	-31.3	15.2	0.00e+00	0	44	102	1048576	18	4683
2026-01-25 01:56:06.08	270.99	23.68	-29.1	-31.6	15.1	0.00e+00	0	44	102	1048576	18	4777
2026-01-25 01:56:07.08	270.77	23.59	-29.0	-31.2	15.4	0.00e+00	0	44	102	1048576	18	4661
2026-01-25 01:56:08.09	270.55	23.49	-28.8	-31.4	15.5	7.00e-07	0	44	102	1048576	17	4852
2026-01-25 01:56:09.08	270.33	23.40	-28.9	-31.6	15.4	0.00e+00	0	44	102	1048576	17	4897
2026-01-25 01:56:10.09	270.11	23.31	-28.8	-31.2	15.6	1.14e-03	0	44	102	1048576	17	4784
2026-01-25 01:56:11.10	269.89	23.21	-28.5	-30.6	15.9	0.00e+00	0	44	102	1048576	17	4601
2026-01-25 01:56:12.10	269.68	23.12	-28.5	-30.7	15.9	0.00e+00	0	44	102	1048576	17	4608
2026-01-25 01:56:13.10	269.47	23.02	-28.5	-30.6	16.0	1.17e-03	0	44	102	1048576	17	4575
2026-01-25 01:56:14.11	269.25	22.93	-28.3	-30.6	16.2	0.00e+00	0	44	102	1048576	16	4698
2026-01-25 01:56:15.12	269.04	22.83	-28.3	-30.7	16.2	0.00e+00	0	44	102	1048576	16	4729
2026-01-25 01:56:16.12	268.83	22.74	-28.2	-30.3	16.4	0.00e+00	0	44	102	1048576	16	4595
2026-01-25 01:56:17.13	268.62	22.64	-28.2	-30.3	16.4	0.00e+00	0	44	102	1048576	16	4611
2026-01-25 01:56:18.13	268.41	22.55	-28.2	-30.3	16.4	0.00e+00	0	44	102	1048576	16	4603
2026-01-25 01:56:19.13	268.21	22.45	-28.1	-30.1	16.5	0.00e+00	0	44	102	1048576	16	4532
2026-01-25 01:56:20.13	268.00	22.36	-28.1	-30.1	16.5	0.00e+00	0	44	102	1048576	16	4544
2026-01-25 01:56:21.14	267.80	22.27	-27.9	-30.1	16.6	2.09e-03	0	44	102	1048576	15	4682
2026-01-25 01:56:22.14	267.60	22.17	-27.7	-29.8	16.8	0.00e+00	0	44	102	1048576	15	4562
2026-01-25 01:56:23.14	267.40	22.08	-27.8	-30.0	16.7	1.37e-05	0	44	102	1048576	15	4631
2026-01-25 01:56:24.14	267.20	21.98	-27.8	-30.0	16.6	2.06e-03	0	44	102	1048576	15	4645
2026-01-25 01:56:25.14	267.00	21.89	-27.8	-30.0	16.6	0.00e+00	0	44	102	1048576	15	4652
2026-01-25 01:56:26.14	266.80	21.79	-27.9	-30.3	16.5	0.00e+00	0	44	102	1048576	15	4730
2026-01-25 01:56:27.14	266.61	21.70	-27.9	-30.2	16.5	2.41e-03	0	44	102	1048576	15	4698
2026-01-25 01:56:28.15	266.41	21.60	-27.9	-30.3	16.5	2.28e-03	0	44	102	1048576	15	4727
2026-01-25 01:56:29.15	266.22	21.51	-28.3	-30.6	16.2	0.00e+00	0	44	102	1048576	16	4689
2026-01-25 01:56:30.15	266.02	21.41	-28.1	-30.3	16.4	2.28e-03	0	44	102	1048576	16	4598
2026-01-25 01:56:31.15	265.83	21.32	-27.5	-29.8	16.1	2.16e-03	0	44	102	1048576	16	4670
2026-01-25 01:56:32.16	265.64	21.22	-28.1	-30.2	16.3	9.90e-06	0	44	102	1048576	16	4594
2026-01-25 01:56:33.17	265.45	21.13	-28.1	-30.2	16.4	4.08e-03	0	44	102	1048576	16	4574
2026-01-25 01:56:34.18	265.26	21.03	-28.3	-30.5	16.2	2.46e-03	0	44	102	1048576	16	4683
2026-01-25 01:56:35.18	265.08	20.94	-28.5	-31.0	15.9	0.00e+00	0	44	102	1048576	16	4845
2026-01-25 01:56:36.18	264.89	20.84	-28.4	-30.8	16.0	0.00e+00	0	44	102	1048576	16	4775
2026-01-25 01:56:37.19	264.70	20.75	-28.4	-31.0	15.9	4.18e-03	0	44	102	1048576	16	4819
2026-01-25 01:56:38.20	264.52	20.65	-28.5	-30.7	15.8	0.00e+00	0	44	102	1048576	17	4621
2026-01-25 01:56:39.19	264.34	20.56	-28.6	-30.8	15.7	1.79e-03	0	44	102	1048576	17	4667
2026-01-25 01:56:40.20	264.16	20.46	-28.5	-30.7	15.8	2.81e-03	0	44	102	1048576	17	4636
2026-01-25 01:56:41.21	263.98	20.37	-28.5	-30.6	15.8	0.00e+00	0	44	102	1048576	17	4609
2026-01-25 01:56:42.21	263.80	20.28	-28.5	-30.8	15.8	2.20e-06	0	44	102	1048576	17	4642
2026-01-25 01:56:43.20	263.62	20.18	-28.5	-30.7	15.8	4.34e-05	0	44	102	1048576	17	4629
2026-01-25 01:56:44.20	263.45	20.09	-28.6	-30.9	15.6	0.00e+00	0	44	102	1048576	17	4681
2026-01-25 01:56:45.21	263.27	19.99	-28.7	-31.1	15.5	1.58e-03	0	44	102	1048576	17	4769
2026-01-25 01:56:46.21	263.10	19.90	-28.6	-30.8	15.7	1.58e-03	0	44	102	1048576	17	4673
2026-01-25 01:56:47.21	262.92	19.81	-28.6	-31.0	15.6	0.00e+00	0	44	102	1048576	17	4721
2026-01-25 01:56:48.22	262.75	19.71	-28.7	-31.2	15.5	1.33e-03	0	44	102	1048576	17	4784
2026-01-25 01:56:49.22	262.58	19.62	-28.7	-31.2	15.4	1.17e-03	0	44	102	1048576	17	4802
2026-01-25 01:56:50.23	262.41	19.52	-28.9	-31.6	15.2	0.00e+00	0	44	102	1048576	17	4924
2026-01-25 01:56:51.23	262.24	19.43	-28.9	-31.7	15.1	2.07e-03	0	44	102	1048576	17	4964
2026-01-25 01:56:52.23	262.07	19.34	-29.1	-31.6	14.9	5.00e-04	0	44	102	1048576	18	4825
2026-01-25 01:56:53.24	261.90	19.24	-29.3	-32.1	14.6	2.20e-06	0	44	102	1048576	18	4999
2026-01-25 01:56:54.24	261.74	19.15	-29.1	-31.8	14.8	1.24e-03	0	44	102	1048576	18	4877
2026-01-25 01:56:55.25	261.57	19.05	-29.1	-31.6	14.9	1.16e-03	0	44	102	1048576	18	4803
2026-01-25 01:56:56.25	261.41	18.96	-29.0	-31.5	15.0	7.00e-07	0	44	102	1048576	18	4771
2026-01-25 01:56:57.26	261.24	18.87	-29.1	-31.7	14.8	4.82e-04	0	44	102	1048576	18	4835
2026-01-25 01:56:58.26	261.08	18.77	-29.2	-31.8	14.7	6.99e-04	0	44	102	1048576	18	4900
2026-01-25 01:56:59.27	260.92	18.68	-29.2	-32.0	14.6	0.00e+00	0	44	102	1048576	18	4967
2026-01-25 01:57:00.27	260.76	18.59	-29.3	-32.1	14.6	1.70e-04	0	44	102	1048576	18	4990
2026-01-25 01:57:01.28	260.60	18.50	-29.3	-32.1	14.5	8.69e-05	0	44	102	1048576	18	5000
2026-01-25 01:57:02.29	260.44	18.40	-29.3	-32.2	14.5	7.00e-07	0	44	102	1048576	18	5025
2026-01-25 01:57:03.29	260.28	18.31	-29.2	-31.9	14.7	2.27e-03	0	44	102	1048576	18	4931
2026-01-25 01:57:04.29	260.13	18.22	-29.2	-32.0	14.6	7.00e-07	0	44	102	1048576	18	4958
2026-01-25 01:57:05.30	259.97	18.13	-29.2	-32.0	14.6	0.00e+00	0	44	102	1048576	18	4957
2026-01-25 01:57:06.30	259.82	18.03	-29.2	-31.8	14.7	2.19e-03	0	44	102	1048576	18	4897
2026-01-25 01:57:07.31	259.66	17.94	-29.2	-31.9	14.6	5.34e-05	0	44	102	1048576	18	4936
2026-01-25 01:57:08.32	259.51	17.85	-29.2	-31.9	14.7	0.00e+00	0	44	102	1048576	18	4912
2026-01-25 01:57:09.33	259.36	17.76	-29.2	-32.0	14.6	1.78e-03	0	44	102	1048576	18	4967
2026-01-25 01:57:10.33	259.21	17.66	-29.3	-32.2	14.4	7.00e-07	0	44	102	1048576	18	5041
2026-01-25 01:57:11.34	259.06	17.57	-29.4	-32.4	14.3	7.00e-07	0	44	102	1048576	18	5118
2026-01-25 01:57:12.33	258.91	17.48	-29.4	-32.6	14.2	1.81e-04	0	44	102	1048576	18	5176
2026-01-25 01:57:13.33	258.76	17.39	-29.6	-32.6	13.9	2.62e-04	0	44	102	1048576	19	5055
2026-01-25 01:57:14.34	258.62	17.30	-29.7	-32.8	13.7	7.60e-06	0	44	102	1048576	19	5124
2026-01-25 01:57:15.35	258.47	17.21	-29.5	-32.2	14.1	4.94e-04	0	44	102	1048576	19	4932
2026-01-25 01:57:16.36	258.32	17.12	-29.4	-32.5	14.2	1.08e-03	0	44	102	1048576	18	5152
2026-01-25 01:57:17.36	258.18	17.03	-29.4	-32.4	14.3	0.00e+00	0	44	102	1048576	18	5111
2026-01-25 01:57:18.37	258.04	16.94	-29.5	-32.7	14.1	1.46e-03	0	44	102	1048576	18	5214
2026-01-25 01:57:19.37	257.89	16.85	-29.6	-32.5	13.9	9.44e-04	0	44	102	1048576	19	5030
2026-01-25 01:57:20.38	257.75	16.76	-29.7	-32.7	13.7	7.60e-06	0	44	102	1048576	19	5111
2026-01-25 01:57:21.38	257.61	16.67	-29.6	-32.4	13.9	6.80e-06	0	44	102	1048576	19	4993
2026-01-25 01:57:22.39	257.47	16.58	-29.5	-32.3	14.0	2.87e-04	0	44	102	1048576	19	4949
2026-01-25 01:57:23.39	257.33	16.49	-29.5	-32.3	14.0	7.00e-07	0	44	102	1048576	19	4950
2026-01-25 01:57:24.40	257.19	16.40	-29.5	-32.2	14.1	2.20e-06	0	44	102	1048576	19	4928
2026-01-25 01:57:25.40	257.06	16.31	-29.5	-32.3	14.0	1.98e-03	0	44	102	1048576	19	4946
2026-01-25 01:57:26.41	256.92	16.22	-29.5	-32.3	14.0	3.80e-06	0	44	102	1048576	19	4954
2026-01-25 01:57:27.42	256.78	16.13	-29.6	-32.5	13.9	1.50e-06	0	44	102	1048576	19	5033
2026-01-25 01:57:28.42	256.65	16.04	-29.6	-32.5	13.8	9.10e-06	0	44	102	1048576	19	5029
2026-01-25 01:57:29.42	256.51	15.95	-29.6	-32.6	13.8	1.37e-05	0	44	102	1048576	19	5080
2026-01-25 01:57:30.43	256.38	15.86	-29.6	-32.7	13.7	3.80e-06	0	44	102	1048576	19	5102
2026-01-25 01:57:31.43	256.25	15.77	-29.7	-32.7	13.7	6.10e-06	0	44	102	1048576	19	5094
2026-01-25 01:57:32.43	256.12	15.69	-29.8	-33.1	13.5	9.90e-06	0	44	102	1048576	19	5258
2026-01-25 01:57:33.44	255.99	15.60	-29.8	-33.2	13.4	2.28e-03	0	44	102	1048576	19	5307
2026-01-25 01:57:34.44	255.86	15.51	-29.5	-32.7	13.5	7.60e-06	0	44	102	1048576	19	5224
2026-01-25 01:57:35.44	255.73	15.42	-29.7	-32.7	12.8	9.10e-06	0	44	102	1048576	19	5129
2026-01-25 01:57:36.45	255.60	15.33	-29.8	-33.1	12.4	2.18e-03	0	44	102	1048576	19	5260
2026-01-25 01:57:37.45	255.47	15.25	-29.8	-33.0	13.4	1.14e-05	0	44	102	1048576	19	5222
2026-01-25 01:57:38.46	255.34	15.16	-29.8	-33.2	12.4	1.52e-05	0	44	102	1048576	19	5291
2026-01-25 01:57:39.46	255.22	15.07	-29.9	-33.4	12.9	1.83e-05	0	44	102	1048576	19	5359
2026-01-25 01:57:40.47	255.09	14.98	-29.9	-33.4	13.2	3.58e-04	0	44	102	1048576	19	5386
2026-01-25 01:57:41.48	254.96	14.90	-29.9	-33.4	13.2	2.97e-05	0	44	102	1048576	19	5369
2026-01-25 01:57:42.49	254.84	14.81	-29.9	-33.4	13.2	1.52e-05	0	44	102	1048576	19	5398
2026-01-25 01:57:43.49	254.72	14.72	-29.9	-33.5	13.1	3.05e-05	0	44	102	1048576	19	5415
2026-01-25 01:57:44.49	254.59	14.64	-29.9	-33.3	13.2	2.84e-03	0	44	102	1048576	19	5351
2026-01-25 01:57:45.49	254.47	14.55	-30.0	-33.1	12.9	2.51e-05	0	44	102	1048576	20	5169
2026-01-25 01:57:46.50	254.35	14.47	-30.1	-33.5	12.7	4.73e-05	0	44	102	1048576	20	5332
2026-01-25 01:57:47.50	254.23	14.38	-30.2	-33.7	12.5	2.92e-03	0	44	102	1048576	20	5428
2026-01-25 01:57:48.51	254.11	14.29	-30.1	-33.5	12.6	9.46e-05	0	44	102	1048576	20	5344
2026-01-25 01:57:49.51	253.99	14.21	-30.1	-33.5	12.7	8.16e-05	0	44	102	1048576	20	5331
2026-01-25 01:57:50.52	253.87	14.12	-30.1	-33.5	12.6	2.71e-03	0	44	102	1048576	20	5356
2026-01-25 01:57:51.52	253.76	14.04	-30.1	-33.7	12.5	2.49e-03	0	44	102	1048576	20	5424
2026-01-25 01:57:52.51	253.64	13.95	-30.2	-33.8	12.4	1.24e-04	0	44	102	1048576	20	5474
2026-01-25 01:57:53.51	253.52	13.87	-30.2	-33.8	12.4	1.33e-04	0	44	102	1048576	20	5446
2026-01-25 01:57:54.52	253.41	13.79	-30.2	-33.9	12.3	3.10e-03	0	44	102	1048576	20	5499
2026-01-25 01:57:55.52	253.29	13.70	-30.2	-33.8	12.4	4.86e-04	0	44	102	1048576	20	5459
2026-01-25 01:57:56.53	253.18	13.62	-30.0	-33.5	12.6	1.22e-04	0	44	102	1048576	20	5349
2026-01-25 01:57:57.53	253.07	13.53	-30.0	-33.4	12.7	2.82e-03	0	44	102	1048576	20	5284
2026-01-25 01:57:58.54	252.95	13.45	-30.1	-33.5	12.6	5.33e-04	0	44	102	1048576	20	5329
2026-01-25 01:57:59.55	252.84	13.36	-30.1	-33.6	12.5	8.85e-05	0	44	102	1048576	20	5377
2026-01-25 01:58:00.55	252.73	13.28	-30.2	-33.8	12.4	1.40e-04	0	44	102	1048576	20	5471
2026-01-25 01:58:01.57	252.61	13.20	-30.2	-33.9	12.2	6.76e-04	0	44	102	1048576	20	5493
2026-01-25 01:58:02.57	252.50	13.11	-30.1	-33.6	12.5	2.88e-03	0	44	102	1048576	20	5379
2026-01-25 01:58:03.57	252.40	13.03	-30.0	-33.4	12.6	1.07e-04	0	44	102	1048576	20	5287
2026-01-25 01:58:04.58	252.29	12.95	-30.0	-33.5	12.6	4.67e-04	0	44	102	1048576	20	5339
2026-01-25 01:58:05.58	252.18	12.87	-30.1	-33.5	12.5	3.10e-03	0	44	102	1048576	20	5353
2026-01-25 01:58:06.59	252.07	12.78	-30.1	-33.6	12.5	2.86e-03	0	44	102	1048576	20	5385
2026-01-25 01:58:07.58	251.96	12.70	-30.1	-33.6	12.5	2.78e-04	0	44	102	1048576	20	5374
2026-01-25 01:58:08.58	251.86	12.62	-30.1	-33.6	12.4	2.72e-03	0	44	102	1048576	20	5389
2026-01-25 01:58:09.58	251.75	12.54	-30.1	-33.7	12.3	2.26e-03	0	44	102	1048576	20	5456
2026-01-25 01:58:10.58	251.65	12.46	-30.2	-33.8	12.3	1.76e-04	0	44	102	1048576	20	5487
2026-01-25 01:58:11.57	251.54	12.38	-30.1	-33.7	12.3	2.83e-03	0	44	102	1048576	20	5455
2026-01-25 01:58:12.58	251.44	12.30	-30.2	-34.0	12.1	1.39e-03	0	44	102	1048576	20	5576
2026-01-25 01:58:13.58	251.33	12.21	-30.2	-33.9	12.2	2.66e-04	0	44	102	1048576	20	5536
2026-01-25 01:58:14.58	251.23	12.13	-30.1	-33.8	12.3	2.14e-03	0	44	102	1048576	20	5475
2026-01-25 01:58:15.59	251.13	12.05	-30.1	-33.8	12.2	2.52e-03	0	44	102	1048576	20	5501
2026-01-25 01:58:16.59	251.03	11.97	-30.1	-33.8	12.3	2.07e-04	0	44	102	1048576	20	5472
2026-01-25 01:58:17.59	250.93	11.89	-30.2	-33.8	12.2	2.06e-03	0	44	102	1048576	20	5497
2026-01-25 01:58:18.60	250.82	11.81	-30.2	-34.1	12.0	3.56e-03	0	44	102	1048576	20	5628
2026-01-25 01:58:19.60	250.72	11.73	-30.2	-34.1	12.0	3.89e-04	0	44	102	1048576	20	5592
2026-01-25 01:58:20.60	250.63	11.65	-30.2	-33.8	12.2	2.55e-03	0	44	102	1048576	20	5504
2026-01-25 01:58:21.61	250.53	11.57	-30.1	-33.8	12.2	4.32e-03	0	44	102	1048576	20	5471
2026-01-25 01:58:22.61	250.43	11.49	-30.2	-33.8	12.2	4.12e-04	0	44	102	1048576	20	5500
2026-01-25 01:58:23.62	250.33	11.41	-30.2	-34.0	12.1	3.19e-03	0	44	102	1048576	20	5578
2026-01-25 01:58:24.63	250.23	11.33	-30.2	-34.1	12.0	1.63e-03	0	44	102	1048576	20	5600
2026-01-25 01:58:25.64	250.13	11.25	-30.2	-34.0	12.0	5.46e-04	0	44	102	1048576	20	5598
2026-01-25 01:58:26.65	250.04	11.17	-30.3	-34.4	11.8	4.74e-03	0	44	102	1048576	20	5733
2026-01-25 01:58:27.66	249.94	11.09	-30.4	-34.5	11.7	3.39e-03	0	44	102	1048576	20	5820
2026-01-25 01:58:28.66	249.84	11.02	-30.3	-34.4	11.8	4.77e-04	0	44	102	1048576	20	5732
2026-01-25 01:58:29.66	249.75	10.94	-30.3	-34.4	11.7	4.50e-03	0	44	102	1048576	20	5761
2026-01-25 01:58:30.66	249.66	10.86	-30.3	-34.4	11.7	3.42e-03	0	44	102	1048576	20	5750
2026-01-25 01:58:31.67	249.56	10.78	-30.3	-34.4	11.7	4.85e-04	0	44	102	1048576	20	5741
2026-01-25 01:58:32.68	249.47	10.70	-30.4	-34.7	11.4	4.81e-03	0	44	102	1048576	20	5918
2026-01-25 01:58:33.68	249.37	10.63	-30.4	-34.7	11.5	5.26e-03	0	44	102	1048576	20	5895
2026-01-25 01:58:34.68	249.28	10.55	-30.4	-34.6	11.6	7.29e-04	0	44	102	1048576	20	5839
2026-01-25 01:58:35.69	249.19	10.47	-30.4	-34.6	11.6	1.96e-03	0	44	102	1048576	20	5843
2026-01-25 01:58:36.68	249.10	10.40	-30.4	-34.7	11.5	4.33e-03	0	44	102	1048576	20	5910
2026-01-25 01:58:37.68	249.01	10.32	-30.4	-34.8	11.4	9.14e-04	0	44	102	1048576	20	5978
2026-01-25 01:58:38.69	248.92	10.24	-30.6	-34.7	11.1	2.70e-03	0	44	102	1048576	21	5804
2026-01-25 01:58:39.69	248.83	10.16	-30.7	-35.2	10.7	6.41e-03	0	44	102	1048576	21	6044
2026-01-25 01:58:40.69	248.74	10.09	-30.7	-35.1	10.8	3.65e-03	0	44	102	1048576	21	5974
2026-01-25 01:58:41.69	248.65	10.01	-30.6	-34.8	11.0	3.53e-03	0	44	102	1048576	21	5835
2026-01-25 01:58:42.69	248.56	9.94	-30.5	-34.6	11.1	2.99e-03	0	44	102	1048576	21	5746
2026-01-25 01:58:43.70	248.47	9.86	-30.5	-34.4	11.2	1.72e-03	0	44	102	1048576	21	5686
2026-01-25 01:58:44.70	248.39	9.78	-30.5	-35.0	11.2	5.55e-03	0	44	102	1048576	20	6058
2026-01-25 01:58:45.70	248.30	9.71	-30.5	-34.6	11.1	2.88e-03	0	44	102	1048576	21	5740
2026-01-25 01:58:46.71	248.21	9.63	-30.5	-34.6	11.1	1.43e-03	0	44	102	1048576	21	5746
2026-01-25 01:58:47.71	248.13	9.56	-30.4	-34.3	11.3	5.65e-03	0	44	102	1048576	21	5648
2026-01-25 01:58:48.71	248.04	9.48	-30.4	-34.9	11.2	1.57e-03	0	44	102	1048576	20	5998
2026-01-25 01:58:49.72	247.96	9.41	-30.3	-34.6	11.4	9.68e-04	0	44	102	1048576	20	5857
2026-01-25 01:58:50.72	247.87	9.33	-30.4	-34.7	11.4	5.14e-03	0	44	102	1048576	20	5916
2026-01-25 01:58:51.72	247.79	9.26	-30.3	-34.6	11.4	1.10e-03	0	44	102	1048576	20	5854
2026-01-25 01:58:52.73	247.70	9.18	-30.4	-34.8	11.3	9.04e-04	0	44	102	1048576	20	5969
2026-01-25 01:58:53.73	247.62	9.11	-30.3	-34.6	11.4	2.46e-03	0	44	102	1048576	20	5869
2026-01-25 01:58:54.73	247.54	9.04	-30.3	-34.5	11.5	4.42e-03	0	44	102	1048576	20	5823
2026-01-25 01:58:55.73	247.46	8.96	-30.3	-34.5	11.4	8.73e-04	0	44	102	1048576	20	5850
2026-01-25 01:58:56.73	247.37	8.89	-30.3	-34.7	11.3	2.01e-03	0	44	102	1048576	20	5919
2026-01-25 01:58:57.74	247.29	8.81	-30.3	-34.6	11.3	2.22e-03	0	44	102	1048576	20	5886
2026-01-25 01:58:58.74	247.21	8.74	-30.3	-34.5	11.4	9.53e-04	0	44	102	1048576	20	5846
2026-01-25 01:58:59.75	247.13	8.67	-30.4	-34.7	11.2	2.25e-03	0	44	102	1048576	20	5951
2026-01-25 01:59:00.75	247.05	8.59	-30.4	-34.8	11.2	2.74e-03	0	44	102	1048576	20	5978
2026-01-25 01:59:01.76	246.97	8.52	-30.4	-34.8	11.1	1.41e-03	0	44	102	1048576	20	6010
2026-01-25 01:59:02.77	246.89	8.45	-30.5	-35.2	10.8	2.01e-03	0	44	102	1048576	20	6206
2026-01-25 01:59:03.77	246.81	8.38	-30.5	-34.6	10.8	4.00e-03	0	44	102	1048576	21	5817
2026-01-25 01:59:04.78	246.73	8.30	-30.4	-34.6	10.9	2.11e-03	0	44	102	1048576	21	5786
2026-01-25 01:59:05.79	246.65	8.23	-30.5	-35.1	10.8	2.04e-03	0	44	102	1048576	20	6169
2026-01-25 01:59:06.79	246.57	8.16	-30.5	-35.2	10.8	2.37e-03	0	44	102	1048576	20	6207
2026-01-25 01:59:07.79	246.50	8.09	-30.6	-35.1	10.5	2.97e-03	0	44	102	1048576	21	6042
2026-01-25 01:59:08.80	246.42	8.01	-30.6	-35.3	10.4	4.45e-03	0	44	102	1048576	21	6133
2026-01-25 01:59:09.81	246.34	7.94	-30.6	-35.3	10.3	5.24e-03	0	44	102	1048576	21	6160
2026-01-25 01:59:10.81	246.27	7.87	-30.6	-35.1	10.5	4.45e-03	0	44	102	1048576	21	6047
2026-01-25 01:59:11.82	246.19	7.80	-30.6	-35.3	10.1	4.71e-03	0	44	102	1048576	21	6158
2026-01-25 01:59:12.82	246.11	7.73	-30.7	-35.5	10.1	5.97e-03	0	44	102	1048576	21	6254
2026-01-25 01:59:13.83	246.04	7.66	-30.6	-35.3	10.2	6.22e-03	0	44	102	1048576	21	6156
2026-01-25 01:59:14.82	245.96	7.58	-30.6	-35.3	10.3	6.37e-03	0	44	102	1048576	21	6163
2026-01-25 01:59:15.83	245.89	7.51	-30.6	-35.3	10.2	5.41e-03	0	44	102	1048576	21	6182
2026-01-25 01:59:16.83	245.82	7.44	-30.7	-35.7	9.9	6.73e-03	0	44	102	1048576	21	6374
2026-01-25 01:59:17.84	245.74	7.37	-30.8	-36.1	9.5	1.07e-02	0	44	102	1048576	21	6632
2026-01-25 01:59:18.85	245.67	7.30	-30.8	-35.9	9.7	1.20e-02	0	44	102	1048576	21	6525
2026-01-25 01:59:19.85	245.59	7.23	-30.7	-35.7	9.9	9.75e-03	0	44	102	1048576	21	6401
2026-01-25 01:59:20.85	245.52	7.16	-30.7	-35.7	9.9	8.19e-03	0	44	102	1048576	21	6377
2026-01-25 01:59:21.86	245.45	7.09	-30.7	-35.8	9.8	9.62e-03	0	44	102	1048576	21	6462
2026-01-25 01:59:22.87	245.38	7.02	-32.8	-46.8	3.8	1.33e+00	0	44	104	1048576	25	18036
2026-01-25 01:59:23.88	245.30	6.95	-33.2	-47.6	3.8	1.49e+00	0	44	104	1048576	26	18728
2026-01-25 01:59:24.88	245.23	6.88	-33.5	-47.6	3.8	1.49e+00	0	44	104	1048576	27	18236

#Closed at: 2026-01-25 01:59:24
#Recorded file [1 MB]: D:/data/31010_260125_044840.dat