passes_logs/2026/01/25/R2M6_AANII_01/R2M6_AANII_01__20260125_000805_NOAA_20_JPSS-1_rec.log

#Pass ID: 20260125_000805_NOAA 20 (JPSS-1)
#Satellite: NOAA 20 (JPSS-1)
#Configuration: NOAA 20
#almurnet v.1.7.20240730
#Start time: 2026-01-25 00:08:06

#Version: 2.2.20231116
#Station: R2M6_AANII_01
#Location: 30.233357 lon 59.946436 lat
#TLE: 1 43013U 17073A   26024.42258823  .00000183  00000+0  10747-3 0  9990
#TLE: 2 43013  98.7646 325.2629 0001105  25.8644 334.2587 14.19539754424075

#Time	Az	El	Level	Level2	SNR	BER	BlckErr	Temp	State	Recorded	gain1	gain2
2026-01-25 00:08:06.92	19.29	7.09	-31.1	-36.8	5.2	1.26e+00	0	41	0	0	22	6969
2026-01-25 00:08:07.93	19.30	7.17	-31.1	-37.0	5.2	1.26e+00	0	41	104	0	22	7050
2026-01-25 00:08:08.93	19.32	7.25	-30.3	-36.1	8.5	4.05e-02	0	41	0	0	22	7030
2026-01-25 00:08:09.93	19.34	7.33	-31.2	-37.2	8.3	4.60e-02	0	41	102	1048576	22	7167
2026-01-25 00:08:10.93	19.35	7.40	-31.2	-37.2	8.1	4.56e-02	0	41	102	1048576	22	7202
2026-01-25 00:08:11.94	19.37	7.48	-31.2	-37.0	8.1	4.50e-02	0	41	102	1048576	22	7045
2026-01-25 00:08:12.95	19.38	7.56	-31.2	-37.0	8.5	4.35e-02	0	42	102	1048576	22	7010
2026-01-25 00:08:13.95	19.40	7.64	-31.0	-36.4	8.8	3.68e-02	0	41	102	1048576	22	6693
2026-01-25 00:08:14.96	19.42	7.72	-30.8	-36.0	9.5	1.79e-02	0	41	102	1048576	21	6581
2026-01-25 00:08:15.96	19.43	7.80	-30.6	-35.3	10.2	9.78e-03	0	42	102	1048576	21	6164
2026-01-25 00:08:16.97	19.45	7.88	-30.4	-35.2	10.6	4.24e-03	0	41	102	1048576	20	6235
2026-01-25 00:08:17.97	19.46	7.96	-30.2	-34.6	11.1	2.40e-03	0	42	102	1048576	20	5924
2026-01-25 00:08:18.98	19.48	8.04	-30.2	-34.4	11.3	1.30e-03	0	41	102	1048576	20	5829
2026-01-25 00:08:19.98	19.50	8.12	-30.0	-33.9	11.7	3.20e-03	0	42	102	1048576	20	5605
2026-01-25 00:08:21.00	19.51	8.20	-30.0	-33.6	11.8	5.17e-04	0	42	102	1048576	20	5508
2026-01-25 00:08:22.00	19.53	8.28	-30.0	-33.7	11.8	4.67e-04	0	42	102	1048576	20	5539
2026-01-25 00:08:23.01	19.55	8.36	-30.1	-33.9	11.6	1.26e-03	0	42	102	1048576	20	5633
2026-01-25 00:08:24.01	19.56	8.44	-30.2	-34.3	11.3	3.69e-03	0	42	102	1048576	20	5809
2026-01-25 00:08:25.01	19.58	8.52	-30.4	-35.2	10.7	2.15e-03	0	42	102	1048576	20	6241
2026-01-25 00:08:26.01	19.60	8.60	-30.2	-34.4	11.3	3.05e-03	0	42	102	1048576	20	5823
2026-01-25 00:08:27.01	19.61	8.68	-30.0	-33.9	11.7	3.31e-03	0	42	102	1048576	20	5613
2026-01-25 00:08:28.02	19.63	8.77	-30.0	-33.6	11.9	5.32e-04	0	42	102	1048576	20	5481
2026-01-25 00:08:29.02	19.65	8.85	-29.9	-33.8	12.2	2.70e-04	0	42	102	1048576	19	5636
2026-01-25 00:08:30.03	19.66	8.93	-29.9	-34.0	12.1	2.50e-03	0	42	102	1048576	19	5726
2026-01-25 00:08:31.04	19.68	9.01	-29.9	-33.7	12.2	4.58e-04	0	42	102	1048576	19	5624
2026-01-25 00:08:32.04	19.70	9.10	-29.8	-33.6	12.4	1.70e-04	0	42	102	1048576	19	5549
2026-01-25 00:08:33.04	19.72	9.18	-29.8	-33.7	12.3	5.29e-04	0	42	102	1048576	19	5592
2026-01-25 00:08:34.05	19.73	9.27	-29.7	-33.4	12.5	3.42e-04	0	42	102	1048576	19	5473
2026-01-25 00:08:35.05	19.75	9.35	-29.7	-33.4	12.5	2.49e-03	0	42	102	1048576	19	5483
2026-01-25 00:08:36.05	19.77	9.43	-29.7	-33.3	12.6	1.30e-04	0	42	102	1048576	19	5419
2026-01-25 00:08:37.06	19.79	9.52	-29.7	-33.2	12.7	3.23e-04	0	42	102	1048576	19	5390
2026-01-25 00:08:38.06	19.80	9.60	-29.8	-33.6	12.4	2.42e-03	0	42	102	1048576	19	5563
2026-01-25 00:08:39.06	19.82	9.69	-30.0	-34.1	12.1	1.97e-04	0	42	102	1048576	19	5765
2026-01-25 00:08:40.07	19.84	9.77	-29.8	-33.6	12.4	3.67e-04	0	42	102	1048576	19	5543
2026-01-25 00:08:41.06	19.86	9.86	-29.7	-33.1	12.7	2.22e-03	0	42	102	1048576	19	5356
2026-01-25 00:08:42.07	19.88	9.94	-29.6	-32.9	13.0	2.41e-03	0	42	102	1048576	19	5258
2026-01-25 00:08:43.07	19.89	10.03	-29.6	-32.9	13.0	4.11e-05	0	42	102	1048576	19	5249
2026-01-25 00:08:44.07	19.91	10.12	-29.6	-33.0	12.9	2.44e-03	0	42	102	1048576	19	5302
2026-01-25 00:08:45.07	19.93	10.20	-29.6	-32.8	13.0	2.30e-03	0	42	102	1048576	19	5221
2026-01-25 00:08:46.07	19.95	10.29	-29.5	-32.7	13.1	1.98e-04	0	42	102	1048576	19	5170
2026-01-25 00:08:47.08	19.97	10.38	-29.3	-32.5	13.0	2.26e-03	0	42	102	1048576	19	5212
2026-01-25 00:08:48.08	19.99	10.47	-29.5	-32.7	13.1	2.13e-03	0	42	102	1048576	19	5174
2026-01-25 00:08:49.09	20.00	10.55	-29.5	-32.6	12.8	1.86e-04	0	42	102	1048576	19	5139
2026-01-25 00:08:50.09	20.02	10.64	-29.6	-32.8	12.7	2.52e-03	0	42	102	1048576	19	5233
2026-01-25 00:08:51.10	20.04	10.73	-29.7	-33.1	12.9	2.39e-03	0	42	102	1048576	19	5341
2026-01-25 00:08:52.10	20.06	10.82	-29.7	-33.3	12.7	2.15e-04	0	42	102	1048576	19	5411
2026-01-25 00:08:53.11	20.08	10.91	-29.7	-33.1	12.9	2.40e-03	0	42	102	1048576	19	5328
2026-01-25 00:08:54.11	20.10	11.00	-29.6	-32.9	13.0	2.27e-03	0	42	102	1048576	19	5263
2026-01-25 00:08:55.11	20.12	11.09	-29.7	-33.1	12.9	1.91e-04	0	43	102	1048576	19	5326
2026-01-25 00:08:56.11	20.14	11.18	-29.8	-33.5	12.6	2.31e-03	0	42	102	1048576	19	5493
2026-01-25 00:08:57.11	20.16	11.27	-29.7	-33.1	12.9	4.50e-05	0	43	102	1048576	19	5331
2026-01-25 00:08:58.11	20.17	11.36	-29.8	-33.3	12.7	1.78e-04	0	43	102	1048576	19	5402
2026-01-25 00:08:59.12	20.19	11.45	-29.7	-33.2	12.8	2.17e-03	0	43	102	1048576	19	5368
2026-01-25 00:09:00.11	20.21	11.54	-29.8	-33.4	12.7	2.42e-03	0	43	102	1048576	19	5444
2026-01-25 00:09:01.11	20.23	11.64	-29.7	-33.2	12.9	6.19e-04	0	43	102	1048576	19	5358
2026-01-25 00:09:02.11	20.25	11.73	-29.6	-32.7	13.1	2.39e-03	0	43	102	1048576	19	5181
2026-01-25 00:09:03.12	20.27	11.82	-29.5	-32.4	13.4	2.25e-03	0	43	102	1048576	19	5077
2026-01-25 00:09:04.12	20.29	11.91	-29.5	-32.5	13.3	4.43e-04	0	43	102	1048576	19	5113
2026-01-25 00:09:05.12	20.31	12.01	-29.5	-33.0	13.3	2.27e-03	0	43	102	1048576	18	5396
2026-01-25 00:09:06.13	20.33	12.10	-29.6	-32.8	13.1	2.04e-03	0	43	102	1048576	19	5219
2026-01-25 00:09:07.13	20.35	12.20	-29.8	-33.3	12.8	5.32e-04	0	43	102	1048576	19	5392
2026-01-25 00:09:08.14	20.37	12.29	-29.5	-32.6	13.3	4.23e-04	0	43	102	1048576	19	5115
2026-01-25 00:09:09.14	20.39	12.39	-29.3	-32.0	13.7	2.35e-03	0	43	102	1048576	19	4918
2026-01-25 00:09:10.14	20.41	12.48	-29.2	-31.8	13.8	6.10e-06	0	43	102	1048576	19	4851
2026-01-25 00:09:11.15	20.44	12.58	-29.3	-32.4	13.8	4.71e-04	0	43	102	1048576	18	5149
2026-01-25 00:09:12.15	20.46	12.67	-29.2	-32.2	13.9	2.22e-03	0	43	102	1048576	18	5080
2026-01-25 00:09:13.16	20.48	12.77	-29.3	-32.4	13.8	2.05e-05	0	43	102	1048576	18	5145
2026-01-25 00:09:14.16	20.50	12.87	-29.3	-32.4	13.8	4.10e-04	0	43	102	1048576	18	5169
2026-01-25 00:09:15.16	20.52	12.96	-29.3	-32.4	13.8	7.00e-07	0	43	102	1048576	18	5169
2026-01-25 00:09:16.17	20.54	13.06	-29.3	-32.6	13.7	1.60e-05	0	43	102	1048576	18	5225
2026-01-25 00:09:17.17	20.56	13.16	-29.4	-32.8	13.5	2.03e-03	0	43	102	1048576	18	5324
2026-01-25 00:09:18.17	20.58	13.26	-29.4	-32.7	13.6	7.60e-06	0	43	102	1048576	18	5250
2026-01-25 00:09:19.18	20.60	13.36	-29.3	-32.5	13.7	4.71e-04	0	43	102	1048576	18	5210
2026-01-25 00:09:20.18	20.63	13.46	-29.6	-32.6	13.3	2.31e-03	0	43	102	1048576	19	5128
2026-01-25 00:09:21.19	20.65	13.56	-29.4	-32.8	13.5	6.80e-06	0	43	102	1048576	18	5319
2026-01-25 00:09:22.19	20.67	13.66	-29.5	-32.6	13.4	4.71e-04	0	43	102	1048576	19	5111
2026-01-25 00:09:23.19	20.69	13.76	-29.6	-32.9	13.2	2.79e-03	0	43	102	1048576	19	5231
2026-01-25 00:09:24.20	20.71	13.86	-29.6	-32.8	13.3	2.21e-05	0	43	102	1048576	19	5178
2026-01-25 00:09:25.20	20.74	13.96	-29.5	-32.4	13.5	6.63e-04	0	43	102	1048576	19	5042
2026-01-25 00:09:26.20	20.76	14.06	-29.4	-32.6	13.7	6.68e-04	0	43	102	1048576	18	5220
2026-01-25 00:09:27.19	20.78	14.16	-29.4	-32.8	13.6	2.31e-03	0	43	102	1048576	18	5310
2026-01-25 00:09:28.20	20.80	14.26	-29.5	-32.5	13.5	6.30e-04	0	43	102	1048576	19	5069
2026-01-25 00:09:29.20	20.83	14.37	-29.6	-32.8	13.3	7.70e-04	0	43	102	1048576	19	5175
2026-01-25 00:09:30.20	20.85	14.47	-29.6	-32.6	13.4	1.98e-05	0	43	102	1048576	19	5121
2026-01-25 00:09:31.20	20.87	14.57	-29.4	-32.7	13.6	8.48e-04	0	43	102	1048576	18	5273
2026-01-25 00:09:32.21	20.90	14.68	-29.5	-32.4	13.6	7.08e-04	0	43	102	1048576	19	5022
2026-01-25 00:09:33.21	20.92	14.78	-29.5	-32.3	13.6	6.10e-06	0	43	102	1048576	19	5011
2026-01-25 00:09:34.22	20.94	14.89	-29.4	-32.7	13.7	6.92e-04	0	43	102	1048576	18	5245
2026-01-25 00:09:35.22	20.97	14.99	-29.5	-32.5	13.6	8.15e-04	0	43	102	1048576	19	5080
2026-01-25 00:09:36.23	20.99	15.10	-29.7	-32.9	13.3	1.22e-05	0	43	102	1048576	19	5234
2026-01-25 00:09:37.23	21.01	15.21	-29.8	-33.3	13.0	9.27e-04	0	43	102	1048576	19	5363
2026-01-25 00:09:38.23	21.04	15.31	-29.7	-33.0	13.3	6.75e-04	0	43	102	1048576	19	5257
2026-01-25 00:09:39.23	21.06	15.42	-29.7	-32.9	13.3	1.52e-05	0	43	102	1048576	19	5221
2026-01-25 00:09:40.24	21.09	15.53	-29.6	-32.6	13.5	7.36e-04	0	43	102	1048576	19	5099
2026-01-25 00:09:41.24	21.11	15.64	-29.6	-32.6	13.5	1.44e-05	0	43	102	1048576	19	5111
2026-01-25 00:09:42.25	21.14	15.75	-29.5	-32.4	13.6	1.44e-05	0	43	102	1048576	19	5046
2026-01-25 00:09:43.25	21.16	15.85	-29.6	-32.8	13.4	9.24e-04	0	43	102	1048576	19	5168
2026-01-25 00:09:44.26	21.18	15.96	-29.6	-32.8	13.4	6.83e-04	0	43	102	1048576	19	5171
2026-01-25 00:09:45.26	21.21	16.07	-29.5	-32.3	13.7	6.80e-06	0	43	102	1048576	19	4993
2026-01-25 00:09:46.27	21.24	16.19	-29.6	-32.6	13.5	6.48e-04	0	43	102	1048576	19	5089
2026-01-25 00:09:47.27	21.26	16.30	-29.6	-32.7	12.5	7.12e-04	0	43	102	1048576	19	5154
2026-01-25 00:09:48.28	21.29	16.41	-29.7	-33.0	13.2	1.90e-05	0	43	102	1048576	19	5247
2026-01-25 00:09:49.28	21.31	16.52	-29.7	-32.8	12.7	6.64e-04	0	43	102	1048576	19	5170
2026-01-25 00:09:50.28	21.34	16.63	-29.6	-32.7	12.8	5.28e-04	0	43	102	1048576	19	5142
2026-01-25 00:09:51.28	21.36	16.75	-29.7	-32.8	13.4	1.98e-05	0	43	102	1048576	19	5170
2026-01-25 00:09:52.28	21.39	16.86	-29.7	-33.0	13.2	1.29e-05	0	43	102	1048576	19	5252
2026-01-25 00:09:53.29	21.42	16.98	-29.7	-33.0	13.3	4.69e-04	0	43	102	1048576	19	5238
2026-01-25 00:09:54.29	21.44	17.09	-29.7	-33.0	13.3	1.98e-05	0	43	102	1048576	19	5226
2026-01-25 00:09:55.29	21.47	17.21	-29.9	-33.4	13.1	1.98e-05	0	43	102	1048576	19	5388
2026-01-25 00:09:56.30	21.50	17.32	-29.9	-33.5	13.0	2.89e-05	0	43	102	1048576	19	5440
2026-01-25 00:09:57.31	21.52	17.44	-29.9	-33.5	13.0	3.58e-05	0	43	102	1048576	19	5452
2026-01-25 00:09:58.32	21.55	17.56	-29.9	-33.6	13.0	2.14e-03	0	43	102	1048576	19	5462
2026-01-25 00:09:59.32	21.58	17.68	-30.0	-33.3	12.8	6.94e-05	0	43	102	1048576	20	5260
2026-01-25 00:10:00.32	21.60	17.79	-30.0	-33.4	12.7	8.85e-05	0	43	102	1048576	20	5297
2026-01-25 00:10:01.31	21.63	17.91	-30.1	-33.7	12.5	6.32e-04	0	43	102	1048576	20	5419
2026-01-25 00:10:02.32	21.66	18.03	-30.1	-33.6	12.5	1.08e-04	0	43	102	1048576	20	5402
2026-01-25 00:10:03.31	21.69	18.15	-30.2	-33.9	12.3	1.69e-04	0	43	102	1048576	20	5502
2026-01-25 00:10:04.31	21.72	18.27	-30.2	-34.0	12.3	6.43e-04	0	43	102	1048576	20	5530
2026-01-25 00:10:05.31	21.74	18.39	-30.4	-34.4	12.0	2.50e-03	0	43	102	1048576	20	5728
2026-01-25 00:10:06.32	21.77	18.51	-30.4	-34.4	12.0	2.51e-04	0	43	102	1048576	20	5713
2026-01-25 00:10:07.32	21.80	18.64	-30.5	-34.2	11.8	4.20e-04	0	43	102	1048576	21	5504
2026-01-25 00:10:08.32	21.83	18.76	-30.3	-34.3	12.1	2.40e-03	0	43	102	1048576	20	5676
2026-01-25 00:10:09.33	21.86	18.88	-30.3	-34.2	12.1	2.57e-04	0	43	102	1048576	20	5651
2026-01-25 00:10:10.34	21.89	19.01	-30.4	-34.4	12.0	3.21e-04	0	43	102	1048576	20	5718
2026-01-25 00:10:11.35	21.92	19.13	-30.3	-34.1	12.2	6.28e-04	0	43	102	1048576	20	5577
2026-01-25 00:10:12.36	21.95	19.26	-30.2	-34.0	12.3	1.87e-04	0	43	102	1048576	20	5550
2026-01-25 00:10:13.36	21.98	19.39	-30.2	-33.9	12.4	1.62e-04	0	43	102	1048576	20	5493
2026-01-25 00:10:14.37	22.01	19.51	-30.2	-33.7	12.5	9.07e-05	0	43	102	1048576	20	5436
2026-01-25 00:10:15.37	22.04	19.64	-30.2	-33.8	12.5	1.56e-04	0	43	102	1048576	20	5447
2026-01-25 00:10:16.37	22.07	19.77	-30.2	-33.9	12.4	2.11e-03	0	43	102	1048576	20	5519
2026-01-25 00:10:17.37	22.10	19.90	-30.2	-33.9	12.4	2.10e-04	0	43	102	1048576	20	5503
2026-01-25 00:10:18.38	22.13	20.03	-30.2	-33.9	12.4	1.46e-04	0	43	102	1048576	20	5496
2026-01-25 00:10:19.38	22.16	20.16	-30.3	-34.1	12.3	1.95e-03	0	43	102	1048576	20	5567
2026-01-25 00:10:20.39	22.20	20.29	-30.4	-34.3	12.1	2.14e-03	0	43	102	1048576	20	5682
2026-01-25 00:10:21.39	22.23	20.42	-30.3	-34.0	12.4	1.95e-04	0	43	102	1048576	20	5515
2026-01-25 00:10:22.40	22.26	20.55	-30.3	-34.1	12.3	1.95e-03	0	43	102	1048576	20	5567
2026-01-25 00:10:23.40	22.29	20.69	-30.4	-34.3	12.1	2.12e-03	0	43	102	1048576	20	5674
2026-01-25 00:10:24.41	22.33	20.82	-30.5	-34.7	11.9	2.72e-04	0	43	102	1048576	20	5823
2026-01-25 00:10:25.41	22.36	20.95	-30.5	-34.1	11.9	2.22e-03	0	43	102	1048576	21	5481
2026-01-25 00:10:26.41	22.39	21.09	-30.4	-34.3	12.2	2.06e-03	0	43	102	1048576	20	5653
2026-01-25 00:10:27.42	22.42	21.23	-30.3	-34.0	12.4	1.22e-04	0	43	102	1048576	20	5549
2026-01-25 00:10:28.42	22.46	21.36	-30.3	-34.0	12.4	1.73e-03	0	43	102	1048576	20	5536
2026-01-25 00:10:29.42	22.49	21.50	-30.2	-33.9	12.5	1.88e-03	0	43	102	1048576	20	5486
2026-01-25 00:10:30.43	22.53	21.64	-30.2	-33.8	12.5	1.17e-04	0	43	102	1048576	20	5449
2026-01-25 00:10:31.43	22.56	21.77	-30.2	-33.7	12.6	1.88e-03	0	43	102	1048576	20	5399
2026-01-25 00:10:32.43	22.60	21.91	-30.3	-34.0	12.4	1.88e-03	0	43	102	1048576	20	5537
2026-01-25 00:10:33.44	22.63	22.05	-30.3	-33.9	12.5	1.62e-04	0	43	102	1048576	20	5485
2026-01-25 00:10:34.45	22.67	22.20	-30.3	-33.9	12.5	1.96e-03	0	43	102	1048576	20	5506
2026-01-25 00:10:35.45	22.70	22.34	-30.3	-34.1	12.4	1.95e-03	0	43	102	1048576	20	5582
2026-01-25 00:10:36.46	22.74	22.48	-30.4	-34.4	12.2	2.08e-04	0	43	102	1048576	20	5680
2026-01-25 00:10:37.46	22.77	22.62	-30.3	-34.2	12.3	2.04e-03	0	44	102	1048576	20	5597
2026-01-25 00:10:38.47	22.81	22.77	-30.4	-34.2	12.3	1.56e-04	0	43	102	1048576	20	5603
2026-01-25 00:10:39.47	22.85	22.91	-30.4	-34.2	12.3	1.88e-04	0	43	102	1048576	20	5611
2026-01-25 00:10:40.48	22.88	23.06	-30.5	-34.2	12.0	2.25e-03	0	43	102	1048576	21	5488
2026-01-25 00:10:41.48	22.92	23.21	-30.3	-34.0	12.5	2.37e-03	0	43	102	1048576	20	5499
2026-01-25 00:10:42.49	22.96	23.36	-30.1	-33.5	12.7	3.24e-04	0	43	102	1048576	20	5324
2026-01-25 00:10:43.49	23.00	23.50	-30.0	-33.2	13.0	2.21e-03	0	43	102	1048576	20	5192
2026-01-25 00:10:44.49	23.03	23.65	-30.1	-33.4	12.9	2.08e-03	0	43	102	1048576	20	5295
2026-01-25 00:10:45.50	23.07	23.80	-30.1	-33.4	12.9	3.55e-04	0	43	102	1048576	20	5285
2026-01-25 00:10:46.50	23.11	23.95	-30.1	-33.3	12.9	2.39e-03	0	44	102	1048576	20	5241
2026-01-25 00:10:47.50	23.15	24.10	-30.0	-33.3	13.0	2.31e-03	0	43	102	1048576	20	5233
2026-01-25 00:10:48.51	23.19	24.26	-29.9	-32.8	13.3	3.16e-04	0	43	102	1048576	20	5028
2026-01-25 00:10:49.51	23.23	24.41	-29.7	-32.9	13.7	2.49e-04	0	43	102	1048576	19	5160
2026-01-25 00:10:50.52	23.27	24.57	-29.7	-32.7	13.7	2.21e-03	0	44	102	1048576	19	5090
2026-01-25 00:10:51.52	23.31	24.72	-29.6	-32.6	13.8	6.10e-06	0	43	102	1048576	19	5073
2026-01-25 00:10:52.53	23.35	24.88	-29.7	-32.7	13.8	2.11e-04	0	43	102	1048576	19	5092
2026-01-25 00:10:53.53	23.39	25.03	-29.7	-32.7	13.8	2.01e-03	0	43	102	1048576	19	5094
2026-01-25 00:10:54.53	23.44	25.19	-29.7	-32.9	13.7	4.50e-06	0	43	102	1048576	19	5178
2026-01-25 00:10:55.54	23.48	25.35	-29.8	-33.1	13.5	1.92e-04	0	44	102	1048576	19	5236
2026-01-25 00:10:56.54	23.52	25.51	-29.8	-33.1	13.5	9.10e-06	0	44	102	1048576	19	5253
2026-01-25 00:10:57.55	23.56	25.67	-29.9	-33.4	13.3	2.10e-04	0	43	102	1048576	19	5383
2026-01-25 00:10:58.56	23.61	25.84	-30.0	-33.1	13.1	2.30e-04	0	43	102	1048576	20	5152
2026-01-25 00:10:59.56	23.65	26.00	-30.1	-33.4	12.9	3.66e-05	0	44	102	1048576	20	5268
2026-01-25 00:11:00.57	23.70	26.16	-30.2	-33.8	12.7	3.11e-04	0	44	102	1048576	20	5430
2026-01-25 00:11:01.57	23.74	26.33	-30.1	-33.5	12.8	2.34e-03	0	43	102	1048576	20	5323
2026-01-25 00:11:02.57	23.79	26.49	-30.2	-33.7	12.7	6.56e-05	0	43	102	1048576	20	5377
2026-01-25 00:11:03.58	23.83	26.66	-30.3	-34.0	12.5	2.56e-04	0	43	102	1048576	20	5518
2026-01-25 00:11:04.58	23.88	26.83	-30.4	-34.2	12.4	2.34e-03	0	44	102	1048576	20	5616
2026-01-25 00:11:05.59	23.92	27.00	-30.4	-34.3	12.3	1.65e-04	0	44	102	1048576	20	5623
2026-01-25 00:11:06.59	23.97	27.17	-30.5	-34.5	12.2	2.32e-04	0	43	102	1048576	20	5723
2026-01-25 00:11:07.60	24.02	27.34	-30.7	-34.6	11.7	3.24e-04	0	43	102	1048576	21	5680
2026-01-25 00:11:08.60	24.06	27.51	-30.7	-34.7	11.7	5.92e-04	0	44	102	1048576	21	5729
2026-01-25 00:11:09.60	24.11	27.68	-30.6	-34.5	11.9	4.22e-04	0	43	102	1048576	21	5622
2026-01-25 00:11:10.60	24.16	27.86	-30.7	-34.7	11.7	5.39e-04	0	43	102	1048576	21	5723
2026-01-25 00:11:11.61	24.21	28.03	-30.9	-35.2	11.4	7.64e-04	0	43	102	1048576	21	5921
2026-01-25 00:11:12.61	24.26	28.21	-31.0	-35.6	11.1	1.29e-03	0	44	102	1048576	21	6109
2026-01-25 00:11:13.61	24.31	28.39	-31.0	-35.0	11.2	1.56e-03	0	44	102	1048576	22	5705
2026-01-25 00:11:14.62	24.36	28.57	-31.0	-35.1	11.1	1.30e-03	0	44	102	1048576	22	5793
2026-01-25 00:11:15.62	24.41	28.75	-31.1	-35.5	10.8	2.06e-03	0	43	102	1048576	22	5954
2026-01-25 00:11:16.63	24.46	28.93	-31.1	-35.5	10.8	2.41e-03	0	43	102	1048576	22	5962
2026-01-25 00:11:17.63	24.52	29.11	-31.2	-35.7	10.7	1.88e-03	0	43	102	1048576	22	6044
2026-01-25 00:11:18.63	24.57	29.29	-31.1	-35.5	10.8	2.72e-03	0	44	102	1048576	22	5964
2026-01-25 00:11:19.63	24.62	29.48	-30.9	-34.9	11.3	1.40e-03	0	44	102	1048576	22	5661
2026-01-25 00:11:20.63	24.68	29.66	-30.8	-34.9	11.6	8.29e-04	0	43	102	1048576	21	5760
2026-01-25 00:11:21.64	24.73	29.85	-30.6	-34.4	12.0	4.97e-04	0	43	102	1048576	21	5573
2026-01-25 00:11:22.64	24.78	30.04	-30.6	-34.4	12.0	3.06e-04	0	44	102	1048576	21	5562
2026-01-25 00:11:23.65	24.84	30.23	-30.6	-34.3	12.1	3.11e-04	0	43	102	1048576	21	5508
2026-01-25 00:11:24.66	24.90	30.42	-30.7	-34.6	11.9	3.37e-04	0	43	102	1048576	21	5622
2026-01-25 00:11:25.66	24.95	30.61	-30.7	-34.7	11.8	4.23e-04	0	43	102	1048576	21	5679
2026-01-25 00:11:26.65	25.01	30.80	-30.8	-34.8	11.8	4.19e-04	0	44	102	1048576	21	5725
2026-01-25 00:11:27.65	25.07	30.99	-30.9	-35.1	11.5	6.60e-04	0	44	102	1048576	21	5884
2026-01-25 00:11:28.65	25.13	31.19	-30.1	-34.3	11.4	9.80e-04	0	43	102	1048576	21	5872
2026-01-25 00:11:29.65	25.19	31.38	-30.9	-35.2	11.4	8.91e-04	0	44	102	1048576	21	5935
2026-01-25 00:11:30.66	25.25	31.58	-30.9	-35.2	11.0	9.79e-04	0	44	102	1048576	21	5933
2026-01-25 00:11:31.67	25.31	31.78	-30.9	-35.2	11.4	9.22e-04	0	44	102	1048576	21	5919
2026-01-25 00:11:32.67	25.37	31.98	-31.0	-35.0	11.3	1.22e-03	0	44	102	1048576	22	5692
2026-01-25 00:11:33.68	25.43	32.19	-30.9	-35.3	11.4	1.10e-03	0	44	102	1048576	21	5958
2026-01-25 00:11:34.68	25.49	32.39	-30.9	-35.1	11.5	6.94e-04	0	44	102	1048576	21	5862
2026-01-25 00:11:35.69	25.56	32.60	-30.9	-35.1	11.6	7.33e-04	0	44	102	1048576	21	5854
2026-01-25 00:11:36.70	25.62	32.80	-30.9	-35.1	11.6	6.32e-04	0	44	102	1048576	21	5849
2026-01-25 00:11:37.70	25.69	33.01	-30.8	-34.9	11.7	6.32e-04	0	44	102	1048576	21	5777
2026-01-25 00:11:38.70	25.75	33.22	-30.8	-34.9	11.7	4.85e-04	0	44	102	1048576	21	5761
2026-01-25 00:11:39.71	25.82	33.43	-30.6	-34.3	12.1	9.04e-04	0	44	102	1048576	21	5511
2026-01-25 00:11:40.72	25.89	33.64	-30.5	-34.1	12.3	2.28e-04	0	44	102	1048576	21	5404
2026-01-25 00:11:41.72	25.96	33.86	-30.5	-33.9	12.5	1.48e-04	0	43	102	1048576	21	5316
2026-01-25 00:11:42.73	26.03	34.07	-30.4	-33.7	12.5	3.14e-04	0	44	102	1048576	21	5273
2026-01-25 00:11:43.73	26.10	34.29	-30.3	-33.5	12.7	8.92e-05	0	44	102	1048576	21	5174
2026-01-25 00:11:44.74	26.17	34.51	-30.4	-33.6	12.6	5.56e-05	0	43	102	1048576	21	5216
2026-01-25 00:11:45.74	26.24	34.73	-30.2	-33.2	12.9	9.76e-05	0	44	102	1048576	21	5057
2026-01-25 00:11:46.75	26.32	34.95	-30.0	-32.6	13.3	3.12e-05	0	43	102	1048576	21	4856
2026-01-25 00:11:47.75	26.39	35.17	-29.9	-32.3	13.5	1.90e-05	0	44	102	1048576	21	4737
2026-01-25 00:11:48.75	26.46	35.39	-29.9	-32.4	13.5	1.52e-05	0	44	102	1048576	21	4763
2026-01-25 00:11:49.75	26.54	35.62	-30.0	-32.6	13.3	1.29e-05	0	44	102	1048576	21	4850
2026-01-25 00:11:50.76	26.62	35.85	-30.0	-32.5	13.4	1.22e-05	0	44	102	1048576	21	4810
2026-01-25 00:11:51.76	26.69	36.07	-30.1	-32.7	13.2	1.14e-05	0	44	102	1048576	21	4887
2026-01-25 00:11:52.76	26.77	36.30	-30.1	-32.9	13.2	2.67e-05	0	43	102	1048576	21	4935
2026-01-25 00:11:53.76	26.85	36.53	-30.1	-32.7	13.3	1.75e-05	0	44	102	1048576	21	4870
2026-01-25 00:11:54.77	26.93	36.77	-30.2	-32.9	13.2	2.13e-05	0	43	102	1048576	21	4958
2026-01-25 00:11:55.77	27.02	37.00	-30.1	-32.8	13.3	1.37e-05	0	43	102	1048576	21	4887
2026-01-25 00:11:56.78	27.10	37.24	-30.1	-32.8	13.2	2.36e-05	0	44	102	1048576	21	4918
2026-01-25 00:11:57.79	27.18	37.48	-30.2	-32.9	13.1	2.21e-05	0	44	102	1048576	21	4956
2026-01-25 00:11:58.80	27.27	37.72	-30.3	-33.3	12.9	3.05e-05	0	44	102	1048576	21	5089
2026-01-25 00:11:59.80	27.36	37.96	-30.4	-33.5	12.8	5.03e-05	0	44	102	1048576	21	5176
2026-01-25 00:12:00.80	27.45	38.20	-30.3	-33.4	12.9	4.80e-05	0	44	102	1048576	21	5124
2026-01-25 00:12:01.80	27.53	38.45	-30.4	-33.5	12.8	5.95e-05	0	43	102	1048576	21	5166
2026-01-25 00:12:02.81	27.63	38.70	-30.4	-33.5	12.8	6.71e-05	0	44	102	1048576	21	5153
2026-01-25 00:12:03.81	27.72	38.94	-30.5	-33.8	12.6	7.47e-05	0	44	102	1048576	21	5295
2026-01-25 00:12:04.82	27.81	39.19	-30.5	-34.0	12.5	1.17e-04	0	44	102	1048576	21	5348
2026-01-25 00:12:05.83	27.91	39.45	-30.5	-34.0	12.5	1.39e-04	0	44	102	1048576	21	5365
2026-01-25 00:12:06.83	28.00	39.70	-30.6	-34.2	12.3	1.62e-04	0	44	102	1048576	21	5448
2026-01-25 00:12:07.84	28.10	39.96	-30.8	-34.6	12.0	1.90e-04	0	44	102	1048576	21	5620
2026-01-25 00:12:08.84	28.20	40.21	-30.9	-35.0	11.8	2.81e-04	0	44	102	1048576	21	5775
2026-01-25 00:12:09.85	28.30	40.47	-30.8	-34.9	11.8	4.97e-04	0	44	102	1048576	21	5759
2026-01-25 00:12:10.86	28.40	40.74	-31.1	-35.2	11.3	9.09e-04	0	44	102	1048576	22	5750
2026-01-25 00:12:11.87	28.51	41.00	-31.1	-35.1	11.4	1.42e-03	0	44	102	1048576	22	5709
2026-01-25 00:12:12.87	28.61	41.26	-30.9	-34.5	11.8	6.42e-04	0	44	102	1048576	22	5450
2026-01-25 00:12:13.88	28.72	41.53	-30.7	-33.9	12.3	5.61e-04	0	44	102	1048576	22	5191
2026-01-25 00:12:14.88	28.83	41.80	-30.6	-33.7	12.4	1.61e-04	0	44	102	1048576	22	5137
2026-01-25 00:12:15.89	28.94	42.07	-30.6	-34.2	12.4	1.31e-04	0	44	102	1048576	21	5423
2026-01-25 00:12:16.89	29.05	42.34	-30.5	-33.7	12.7	4.31e-04	0	43	102	1048576	21	5242
2026-01-25 00:12:17.90	29.17	42.62	-30.6	-34.2	12.4	1.19e-04	0	44	102	1048576	21	5431
2026-01-25 00:12:18.89	29.28	42.89	-30.7	-34.3	12.3	4.45e-04	0	44	102	1048576	21	5485
2026-01-25 00:12:19.89	29.40	43.17	-30.8	-34.8	12.0	2.87e-04	0	44	102	1048576	21	5696
2026-01-25 00:12:20.89	29.52	43.45	-30.8	-34.6	12.1	3.26e-04	0	44	102	1048576	21	5619
2026-01-25 00:12:21.89	29.64	43.73	-30.7	-34.5	12.2	5.12e-04	0	44	102	1048576	21	5545
2026-01-25 00:12:22.90	29.77	44.01	-30.9	-34.9	11.9	4.02e-04	0	44	102	1048576	21	5720
2026-01-25 00:12:23.90	29.89	44.30	-30.8	-34.8	12.0	3.63e-04	0	44	102	1048576	21	5686
2026-01-25 00:12:24.90	30.02	44.58	-30.7	-34.4	12.3	4.79e-04	0	44	102	1048576	21	5507
2026-01-25 00:12:25.91	30.15	44.87	-30.6	-34.2	12.4	4.29e-04	0	44	102	1048576	21	5440
2026-01-25 00:12:26.91	30.29	45.16	-30.8	-34.6	12.2	1.90e-04	0	44	102	1048576	21	5587
2026-01-25 00:12:27.91	30.42	45.46	-30.7	-34.5	12.2	4.88e-04	0	44	102	1048576	21	5540
2026-01-25 00:12:28.92	30.56	45.75	-30.9	-35.0	11.9	5.41e-04	0	44	102	1048576	21	5755
2026-01-25 00:12:29.92	30.70	46.05	-30.7	-34.3	12.4	1.52e-04	0	44	102	1048576	21	5454
2026-01-25 00:12:30.93	30.85	46.35	-30.5	-33.9	12.7	1.04e-04	0	44	102	1048576	21	5317
2026-01-25 00:12:31.94	30.99	46.65	-30.6	-34.2	12.5	5.79e-04	0	44	102	1048576	21	5407
2026-01-25 00:12:32.93	31.14	46.95	-30.7	-34.4	12.4	1.45e-04	0	44	102	1048576	21	5493
2026-01-25 00:12:33.93	31.29	47.26	-30.9	-34.9	12.0	2.17e-04	0	44	102	1048576	21	5706
2026-01-25 00:12:34.92	31.44	47.56	-30.9	-35.1	11.8	1.60e-03	0	44	102	1048576	21	5806
2026-01-25 00:12:35.92	31.60	47.87	-31.1	-35.0	11.6	4.69e-04	0	44	102	1048576	22	5670
2026-01-25 00:12:36.92	31.76	48.18	-31.2	-35.4	11.3	1.09e-03	0	44	102	1048576	22	5847
2026-01-25 00:12:37.92	31.92	48.49	-31.0	-34.7	11.8	8.72e-04	0	44	102	1048576	22	5538
2026-01-25 00:12:38.92	32.09	48.80	-30.6	-33.6	12.6	2.14e-04	0	44	102	1048576	22	5075
2026-01-25 00:12:39.92	32.26	49.12	-30.3	-33.3	13.2	1.44e-04	0	44	102	1048576	21	5058
2026-01-25 00:12:40.93	32.44	49.44	-30.1	-33.2	13.5	1.60e-05	0	44	102	1048576	20	5150
2026-01-25 00:12:41.93	32.61	49.76	-29.8	-32.4	14.0	1.52e-04	0	44	102	1048576	20	4845
2026-01-25 00:12:42.93	32.79	50.08	-29.9	-33.2	13.9	1.30e-03	0	44	102	1048576	19	5222
2026-01-25 00:12:43.93	32.98	50.41	-29.5	-32.0	14.7	0.00e+00	0	44	102	1048576	19	4795
2026-01-25 00:12:44.93	33.17	50.73	-29.0	-30.8	15.4	1.16e-04	0	44	102	1048576	19	4429
2026-01-25 00:12:45.94	33.36	51.07	-28.8	-30.7	15.8	6.48e-04	0	44	102	1048576	18	4511
2026-01-25 00:12:46.94	33.56	51.40	-28.6	-30.8	16.0	0.00e+00	0	44	102	1048576	17	4622
2026-01-25 00:12:47.94	33.76	51.73	-28.3	-30.2	16.4	0.00e+00	0	44	102	1048576	17	4442
2026-01-25 00:12:48.95	33.97	52.07	-28.1	-30.2	16.7	0.00e+00	0	44	102	1048576	16	4554
2026-01-25 00:12:49.95	34.18	52.40	-28.1	-30.1	16.7	1.10e-03	0	44	102	1048576	16	4522
2026-01-25 00:12:50.95	34.39	52.74	-28.0	-29.8	16.9	7.00e-07	0	44	102	1048576	16	4438
2026-01-25 00:12:51.95	34.61	53.08	-27.8	-29.5	17.0	2.59e-05	0	43	102	1048576	16	4351
2026-01-25 00:12:52.96	34.84	53.43	-27.5	-29.3	17.3	0.00e+00	0	43	102	1048576	15	4424
2026-01-25 00:12:53.96	35.07	53.77	-27.6	-29.6	17.1	6.17e-05	0	44	102	1048576	15	4492
2026-01-25 00:12:54.97	35.31	54.12	-27.5	-29.3	17.2	6.17e-05	0	43	102	1048576	15	4425
2026-01-25 00:12:55.97	35.55	54.47	-27.5	-29.2	17.3	0.00e+00	0	44	102	1048576	15	4374
2026-01-25 00:12:56.97	35.79	54.82	-27.6	-29.5	17.2	0.00e+00	0	43	102	1048576	15	4462
2026-01-25 00:12:57.98	36.05	55.17	-27.5	-29.2	17.3	0.00e+00	0	43	102	1048576	15	4383
2026-01-25 00:12:58.98	36.31	55.52	-27.6	-29.4	17.2	0.00e+00	0	43	102	1048576	15	4456
2026-01-25 00:12:59.99	36.58	55.88	-28.0	-30.3	16.7	0.00e+00	0	44	102	1048576	15	4730
2026-01-25 00:13:00.99	36.85	56.24	-28.4	-30.9	16.3	0.00e+00	0	44	102	1048576	16	4779
2026-01-25 00:13:02.00	37.13	56.60	-28.8	-31.3	15.8	0.00e+00	0	43	102	1048576	17	4807
2026-01-25 00:13:03.00	37.42	56.96	-29.0	-31.4	15.5	0.00e+00	0	44	102	1048576	18	4709
2026-01-25 00:13:04.01	37.72	57.33	-29.0	-31.4	15.5	0.00e+00	0	44	102	1048576	18	4711
2026-01-25 00:13:05.01	38.02	57.69	-28.7	-30.5	16.0	0.00e+00	0	44	102	1048576	18	4442
2026-01-25 00:13:06.02	38.34	58.06	-28.2	-30.4	16.6	0.00e+00	0	44	102	1048576	16	4629
2026-01-25 00:13:07.02	38.66	58.42	-28.2	-30.3	16.7	0.00e+00	0	44	102	1048576	16	4590
2026-01-25 00:13:08.02	38.99	58.79	-27.9	-29.5	17.1	0.00e+00	0	44	102	1048576	16	4360
2026-01-25 00:13:09.03	39.33	59.17	-27.7	-29.7	17.2	0.00e+00	0	44	102	1048576	15	4515
2026-01-25 00:13:10.03	39.67	59.54	-27.7	-29.6	17.2	7.53e-04	0	44	102	1048576	15	4489
2026-01-25 00:13:11.04	40.03	59.91	-27.6	-29.5	17.2	0.00e+00	0	43	102	1048576	15	4470
2026-01-25 00:13:12.04	40.40	60.28	-27.3	-28.9	17.5	0.00e+00	0	44	102	1048576	15	4294
2026-01-25 00:13:13.04	40.78	60.66	-27.3	-29.2	17.8	0.00e+00	0	44	102	1048576	14	4482
2026-01-25 00:13:14.05	41.18	61.04	-27.1	-28.8	17.9	0.00e+00	0	44	102	1048576	14	4390
2026-01-25 00:13:15.06	41.58	61.42	-26.7	-28.5	18.3	0.00e+00	0	44	102	1048576	13	4407
2026-01-25 00:13:16.07	42.00	61.80	-26.7	-28.3	18.5	0.00e+00	0	44	102	1048576	13	4365
2026-01-25 00:13:17.08	42.43	62.18	-26.7	-28.3	18.4	0.00e+00	0	44	102	1048576	13	4360
2026-01-25 00:13:18.08	42.87	62.56	-26.8	-28.7	18.3	0.00e+00	0	44	102	1048576	13	4457
2026-01-25 00:13:19.08	43.33	62.94	-26.7	-28.3	18.5	0.00e+00	0	44	102	1048576	13	4352
2026-01-25 00:13:20.08	43.79	63.32	-26.9	-29.0	18.2	0.00e+00	0	44	102	1048576	13	4539
2026-01-25 00:13:21.09	44.28	63.70	-27.2	-29.1	17.8	1.71e-03	0	44	102	1048576	14	4461
2026-01-25 00:13:22.09	44.78	64.08	-27.7	-29.6	17.3	0.00e+00	0	43	102	1048576	15	4481
2026-01-25 00:13:23.09	45.30	64.46	-27.8	-30.0	17.1	7.00e-07	0	43	102	1048576	15	4623
2026-01-25 00:13:24.09	45.83	64.85	-28.3	-30.5	16.7	1.99e-03	0	44	102	1048576	16	4645
2026-01-25 00:13:25.09	46.39	65.23	-28.4	-30.3	16.5	1.93e-03	0	44	102	1048576	17	4478
2026-01-25 00:13:26.09	46.96	65.61	-28.9	-31.5	15.8	0.00e+00	0	44	102	1048576	17	4830
2026-01-25 00:13:27.09	47.55	65.99	-29.1	-31.5	15.6	1.89e-03	0	44	102	1048576	18	4724
2026-01-25 00:13:28.10	48.17	66.37	-29.6	-32.2	14.9	2.25e-03	0	44	102	1048576	19	4853
2026-01-25 00:13:29.09	48.80	66.75	-30.0	-32.8	14.1	0.00e+00	0	44	102	1048576	20	4956
2026-01-25 00:13:30.09	49.45	67.12	-30.3	-33.6	13.5	2.20e-06	0	44	102	1048576	20	5249
2026-01-25 00:13:31.09	50.13	67.50	-30.5	-33.8	13.1	1.88e-03	0	44	102	1048576	21	5210
2026-01-25 00:13:32.10	50.85	67.88	-30.7	-34.1	12.9	3.58e-05	0	43	102	1048576	21	5335
2026-01-25 00:13:33.10	51.58	68.25	-30.6	-33.8	13.1	3.96e-05	0	44	102	1048576	21	5226
2026-01-25 00:13:34.11	52.35	68.63	-30.5	-33.6	13.2	1.32e-03	0	44	102	1048576	21	5159
2026-01-25 00:13:35.11	53.14	69.00	-30.6	-33.9	13.0	3.50e-05	0	44	102	1048576	21	5235
2026-01-25 00:13:36.11	53.96	69.37	-30.5	-33.5	13.3	5.65e-04	0	44	102	1048576	21	5104
2026-01-25 00:13:37.11	54.81	69.73	-30.3	-33.5	13.6	2.21e-05	0	44	102	1048576	20	5216
2026-01-25 00:13:38.12	55.71	70.10	-30.3	-33.6	13.6	9.10e-06	0	44	102	1048576	20	5248
2026-01-25 00:13:39.12	56.63	70.46	-30.5	-33.5	13.3	3.81e-04	0	44	102	1048576	21	5092
2026-01-25 00:13:40.12	57.58	70.82	-30.5	-33.7	13.2	2.36e-05	0	44	102	1048576	21	5169
2026-01-25 00:13:41.13	58.59	71.17	-30.5	-33.6	13.3	3.73e-05	0	44	102	1048576	21	5150
2026-01-25 00:13:42.12	59.61	71.51	-30.7	-34.3	12.8	1.76e-03	0	44	102	1048576	21	5400
2026-01-25 00:13:43.11	60.68	71.85	-31.2	-35.1	12.0	1.89e-03	0	44	102	1048576	22	5622
2026-01-25 00:13:44.12	61.81	72.20	-31.4	-35.6	11.7	6.42e-04	0	44	102	1048576	22	5864
2026-01-25 00:13:45.12	62.98	72.53	-31.4	-35.3	11.4	2.99e-03	0	44	102	1048576	23	5636
2026-01-25 00:13:46.13	64.20	72.86	-31.2	-35.3	11.8	2.87e-03	0	44	102	1048576	22	5738
2026-01-25 00:13:47.14	65.48	73.18	-30.8	-33.9	12.8	1.88e-04	0	44	102	1048576	22	5158
2026-01-25 00:13:48.14	66.79	73.49	-30.6	-33.9	13.1	1.95e-03	0	44	102	1048576	21	5269
2026-01-25 00:13:49.14	68.16	73.79	-30.6	-33.9	13.2	2.04e-03	0	44	102	1048576	21	5240
2026-01-25 00:13:50.15	69.59	74.09	-30.6	-33.7	13.3	1.75e-05	0	44	102	1048576	21	5179
2026-01-25 00:13:51.15	71.06	74.38	-30.6	-33.9	13.1	1.85e-03	0	44	102	1048576	21	5248
2026-01-25 00:13:52.16	72.61	74.66	-30.4	-33.8	13.5	1.46e-03	0	43	102	1048576	20	5334
2026-01-25 00:13:53.17	74.21	74.93	-30.3	-33.5	13.7	1.44e-05	0	44	102	1048576	20	5211
2026-01-25 00:13:54.17	75.86	75.18	-30.5	-33.6	13.3	3.35e-05	0	44	102	1048576	21	5131
2026-01-25 00:13:55.17	77.57	75.43	-30.8	-34.3	13.0	4.78e-04	0	44	102	1048576	21	5402
2026-01-25 00:13:56.18	79.35	75.66	-31.3	-35.4	11.9	2.17e-04	0	43	102	1048576	22	5749
2026-01-25 00:13:57.18	81.18	75.88	-31.2	-35.2	12.0	2.25e-03	0	44	102	1048576	22	5652
2026-01-25 00:13:58.18	83.06	76.09	-31.1	-34.9	12.3	2.84e-04	0	44	102	1048576	22	5526
2026-01-25 00:13:59.19	85.01	76.28	-31.0	-34.4	12.6	1.17e-04	0	44	102	1048576	22	5319
2026-01-25 00:14:00.19	87.00	76.45	-31.2	-35.0	12.3	5.89e-04	0	44	102	1048576	22	5546
2026-01-25 00:14:01.20	89.07	76.61	-31.6	-35.6	11.4	8.09e-04	0	44	102	1048576	23	5761
2026-01-25 00:14:02.21	91.18	76.75	-31.8	-36.5	10.7	2.88e-03	0	44	102	1048576	23	6199
2026-01-25 00:14:03.21	93.31	76.88	-31.4	-35.0	11.8	1.48e-03	0	44	102	1048576	23	5491
2026-01-25 00:14:04.22	95.51	76.98	-31.2	-34.4	12.2	2.01e-04	0	44	102	1048576	23	5224
2026-01-25 00:14:05.22	97.72	77.07	-31.5	-35.5	11.5	6.99e-04	0	44	102	1048576	23	5704
2026-01-25 00:14:06.23	99.97	77.14	-31.8	-36.6	10.7	1.54e-03	0	44	102	1048576	23	6262
2026-01-25 00:14:07.23	102.23	77.19	-31.8	-36.7	10.4	4.71e-03	0	44	102	1048576	23	6386
2026-01-25 00:14:08.23	104.50	77.22	-31.4	-35.6	11.1	1.88e-03	0	44	102	1048576	23	5825
2026-01-25 00:14:09.24	106.80	77.23	-31.2	-35.2	11.9	4.94e-04	0	44	102	1048576	22	5710
2026-01-25 00:14:10.24	109.08	77.22	-31.4	-35.7	11.6	8.29e-04	0	44	102	1048576	22	5924
2026-01-25 00:14:11.25	111.37	77.19	-31.6	-35.8	11.3	1.56e-03	0	44	102	1048576	23	5808
2026-01-25 00:14:12.25	113.63	77.15	-31.5	-35.2	11.7	9.64e-04	0	44	102	1048576	23	5560
2026-01-25 00:14:13.26	115.89	77.08	-31.5	-35.4	11.6	6.84e-04	0	44	102	1048576	23	5661
2026-01-25 00:14:14.27	118.12	76.99	-31.5	-35.2	11.7	8.44e-04	0	44	102	1048576	23	5527
2026-01-25 00:14:15.27	120.30	76.89	-31.3	-34.7	12.1	4.47e-04	0	44	102	1048576	23	5341
2026-01-25 00:14:16.27	122.44	76.76	-31.3	-34.8	12.1	1.91e-04	0	44	102	1048576	23	5362
2026-01-25 00:14:17.27	124.53	76.62	-31.6	-35.8	11.2	7.54e-04	0	44	102	1048576	23	5881
2026-01-25 00:14:18.27	126.58	76.47	-31.6	-36.4	10.7	2.51e-03	0	44	102	1048576	23	6235
2026-01-25 00:14:19.27	128.57	76.29	-31.6	-36.7	10.2	5.45e-03	0	44	102	1048576	23	6488
2026-01-25 00:14:20.27	130.52	76.10	-31.4	-36.3	10.4	2.90e-03	0	44	102	1048576	23	6332
2026-01-25 00:14:21.28	132.42	75.90	-31.9	-38.0	9.3	1.17e-02	0	44	102	1048576	23	7291
2026-01-25 00:14:22.28	134.25	75.68	-32.4	-39.1	8.2	3.96e-02	0	44	102	1048576	24	7736
2026-01-25 00:14:23.29	136.04	75.45	-32.4	-38.3	9.0	3.80e-02	0	44	102	1048576	24	7105
2026-01-25 00:14:24.30	137.77	75.20	-32.4	-38.5	8.8	2.24e-02	0	44	102	1048576	24	7253
2026-01-25 00:14:25.30	139.43	74.95	-32.1	-38.6	8.3	4.44e-02	0	44	102	1048576	24	7601
2026-01-25 00:14:26.30	141.02	74.68	-31.8	-38.0	8.6	3.81e-02	0	44	102	1048576	24	7366
2026-01-25 00:14:27.31	142.57	74.40	-31.4	-36.9	9.3	2.61e-02	0	44	102	1048576	24	6734
2026-01-25 00:14:28.31	144.05	74.12	-31.1	-35.9	10.6	7.64e-03	0	44	102	1048576	23	6222
2026-01-25 00:14:29.31	145.48	73.82	-30.7	-34.7	12.0	6.73e-04	0	44	102	1048576	22	5684
2026-01-25 00:14:30.31	146.85	73.52	-31.0	-35.1	12.0	2.91e-04	0	44	102	1048576	22	5751
2026-01-25 00:14:31.31	148.17	73.20	-31.3	-35.3	12.0	7.51e-04	0	44	102	1048576	22	5703
2026-01-25 00:14:32.32	149.45	72.88	-30.7	-33.4	13.3	8.16e-05	0	44	102	1048576	22	4937
2026-01-25 00:14:33.33	150.68	72.55	-30.2	-32.6	14.1	3.00e-06	0	44	102	1048576	21	4763
2026-01-25 00:14:34.32	151.84	72.23	-30.0	-32.8	14.3	1.50e-06	0	44	102	1048576	20	4976
2026-01-25 00:14:35.33	152.98	71.88	-29.8	-32.6	14.3	2.20e-06	0	44	102	1048576	20	4970
2026-01-25 00:14:36.34	154.07	71.54	-29.6	-32.8	14.3	7.00e-07	0	44	102	1048576	19	5206
2026-01-25 00:14:37.34	155.11	71.19	-29.4	-32.6	14.4	1.50e-06	0	44	102	1048576	19	5199
2026-01-25 00:14:38.35	156.12	70.83	-29.3	-32.0	14.9	7.00e-07	0	44	102	1048576	19	4918
2026-01-25 00:14:39.35	157.08	70.48	-29.7	-32.7	14.5	7.00e-07	0	44	102	1048576	19	5113
2026-01-25 00:14:40.36	158.01	70.12	-30.3	-33.7	13.7	7.00e-07	0	44	102	1048576	20	5299
2026-01-25 00:14:41.36	158.90	69.75	-30.2	-32.8	14.0	1.87e-04	0	44	102	1048576	21	4818
2026-01-25 00:14:42.37	159.76	69.38	-29.9	-32.4	14.6	7.00e-07	0	44	102	1048576	20	4793
2026-01-25 00:14:43.37	160.58	69.01	-30.7	-34.0	13.2	4.50e-06	0	44	102	1048576	21	5288
2026-01-25 00:14:44.37	161.38	68.64	-31.3	-35.4	12.0	2.56e-04	0	44	102	1048576	22	5754
2026-01-25 00:14:45.38	162.15	68.27	-31.5	-35.5	11.5	5.50e-04	0	44	102	1048576	23	5716
2026-01-25 00:14:46.38	162.88	67.89	-32.0	-37.1	10.3	1.58e-03	0	44	102	1048576	23	6473
2026-01-25 00:14:47.39	163.60	67.51	-32.0	-36.7	10.2	7.90e-03	0	44	102	1048576	24	6180
2026-01-25 00:14:48.39	164.28	67.13	-31.4	-35.2	11.6	1.70e-03	0	44	102	1048576	23	5564
2026-01-25 00:14:49.40	164.95	66.75	-31.3	-34.9	12.0	3.17e-04	0	44	102	1048576	23	5405
2026-01-25 00:14:50.39	165.58	66.37	-31.0	-34.3	12.6	3.12e-04	0	44	102	1048576	22	5286
2026-01-25 00:14:51.40	166.20	65.99	-30.3	-32.8	14.0	1.52e-05	0	44	102	1048576	21	4829
2026-01-25 00:14:52.40	166.79	65.61	-30.1	-32.3	14.3	7.00e-07	0	44	102	1048576	21	4676
2026-01-25 00:14:53.41	167.37	65.22	-30.3	-32.9	13.9	2.20e-06	0	44	102	1048576	21	4862
2026-01-25 00:14:54.41	167.92	64.84	-29.7	-32.0	14.7	3.80e-06	0	44	102	1048576	20	4668
2026-01-25 00:14:55.42	168.46	64.46	-29.1	-30.9	15.8	0.00e+00	0	44	102	1048576	19	4415
2026-01-25 00:14:56.42	168.98	64.07	-28.7	-30.4	16.4	0.00e+00	0	44	102	1048576	18	4380
2026-01-25 00:14:57.43	169.49	63.69	-28.2	-29.6	17.1	0.00e+00	0	44	102	1048576	17	4254
2026-01-25 00:14:58.44	169.98	63.30	-27.7	-29.1	17.7	0.00e+00	0	44	102	1048576	16	4225
2026-01-25 00:14:59.45	170.45	62.92	-27.9	-29.4	17.5	0.00e+00	0	44	102	1048576	16	4312
2026-01-25 00:15:00.45	170.90	62.54	-28.4	-30.6	16.8	0.00e+00	0	44	102	1048576	16	4647
2026-01-25 00:15:01.45	171.35	62.16	-29.3	-31.8	15.5	0.00e+00	0	44	102	1048576	18	4831
2026-01-25 00:15:02.45	171.77	61.78	-29.7	-32.3	14.9	0.00e+00	0	44	102	1048576	19	4875
2026-01-25 00:15:03.46	172.19	61.40	-29.2	-31.0	15.6	0.00e+00	0	44	102	1048576	19	4443
2026-01-25 00:15:04.47	172.60	61.02	-28.9	-30.3	16.1	0.00e+00	0	44	102	1048576	19	4242
2026-01-25 00:15:05.47	172.99	60.64	-29.1	-30.7	15.8	0.00e+00	0	44	102	1048576	19	4370
2026-01-25 00:15:06.48	173.37	60.26	-30.0	-33.0	14.5	0.00e+00	0	44	102	1048576	19	5134
2026-01-25 00:15:07.48	173.74	59.89	-31.1	-34.8	12.3	2.05e-05	0	44	102	1048576	22	5505
2026-01-25 00:15:08.49	174.10	59.51	-31.3	-35.4	11.8	7.00e-04	0	44	102	1048576	22	5743
2026-01-25 00:15:09.49	174.45	59.14	-30.5	-33.1	13.5	4.95e-05	0	44	102	1048576	22	4820
2026-01-25 00:15:10.50	174.79	58.76	-30.4	-32.6	13.7	8.30e-06	0	44	102	1048576	22	4665
2026-01-25 00:15:11.51	175.12	58.39	-30.8	-33.8	12.9	9.90e-06	0	44	102	1048576	22	5101
2026-01-25 00:15:12.52	175.44	58.02	-31.3	-35.2	12.0	2.78e-04	0	44	102	1048576	22	5682
2026-01-25 00:15:13.52	175.76	57.65	-31.3	-35.4	11.7	5.61e-04	0	44	102	1048576	22	5774
2026-01-25 00:15:14.53	176.06	57.29	-30.8	-34.0	12.7	4.22e-04	0	44	102	1048576	22	5158
2026-01-25 00:15:15.54	176.36	56.92	-29.9	-31.9	14.3	4.50e-06	0	44	102	1048576	21	4538
2026-01-25 00:15:16.54	176.65	56.56	-29.1	-30.9	15.7	0.00e+00	0	44	102	1048576	19	4412
2026-01-25 00:15:17.55	176.93	56.20	-28.6	-30.1	16.5	0.00e+00	0	44	102	1048576	18	4296
2026-01-25 00:15:18.55	177.20	55.84	-28.9	-30.8	16.1	2.66e-04	0	44	102	1048576	18	4497
2026-01-25 00:15:19.56	177.47	55.48	-29.4	-32.1	15.2	0.00e+00	0	44	102	1048576	18	4934
2026-01-25 00:15:20.57	177.73	55.12	-29.4	-31.6	15.2	7.48e-04	0	44	102	1048576	19	4655
2026-01-25 00:15:21.56	177.98	54.77	-28.7	-30.5	16.1	1.01e-03	0	44	102	1048576	18	4425
2026-01-25 00:15:22.56	178.23	54.42	-28.3	-29.5	16.7	0.00e+00	0	44	102	1048576	18	4124
2026-01-25 00:15:23.57	178.48	54.07	-28.6	-30.6	16.4	1.16e-03	0	44	102	1048576	17	4542
2026-01-25 00:15:24.58	178.71	53.72	-29.0	-31.1	15.7	1.16e-03	0	44	102	1048576	18	4614
2026-01-25 00:15:25.58	178.94	53.37	-29.5	-32.3	15.1	0.00e+00	0	44	102	1048576	18	4996
2026-01-25 00:15:26.58	179.17	53.03	-29.9	-32.9	14.5	6.78e-04	0	44	102	1048576	19	5083
2026-01-25 00:15:27.58	179.39	52.69	-30.2	-33.4	13.7	4.61e-04	0	44	102	1048576	20	5180
2026-01-25 00:15:28.59	179.61	52.35	-30.8	-34.3	12.8	2.89e-05	0	44	102	1048576	21	5438
2026-01-25 00:15:29.60	179.82	52.01	-31.2	-35.2	11.8	4.87e-04	0	44	102	1048576	22	5697
2026-01-25 00:15:30.60	180.02	51.67	-31.5	-35.6	11.2	1.12e-03	0	44	102	1048576	23	5757
2026-01-25 00:15:31.60	180.22	51.34	-31.8	-36.4	10.5	1.97e-03	0	44	102	1048576	23	6159
2026-01-25 00:15:32.61	180.42	51.00	-31.9	-36.9	10.1	6.08e-03	0	44	102	1048576	23	6435
2026-01-25 00:15:33.61	180.61	50.67	-32.5	-38.4	8.2	1.50e-02	0	44	102	1048576	25	7120
2026-01-25 00:15:34.62	180.80	50.34	-32.8	-39.9	7.1	9.10e-02	0	44	102	1048576	25	8142
2026-01-25 00:15:35.63	180.99	50.01	-32.8	-39.7	7.2	1.40e-01	0	44	102	1048576	25	7974
2026-01-25 00:15:36.63	181.17	49.69	-32.7	-39.1	7.6	1.10e-01	0	44	102	1048576	25	7563
2026-01-25 00:15:37.63	181.35	49.37	-32.9	-40.2	6.9	1.19e-01	0	44	102	1048576	25	8385
2026-01-25 00:15:38.64	181.52	49.05	-32.9	-39.9	6.8	2.13e-01	0	44	102	1048576	26	8012
2026-01-25 00:15:39.64	181.69	48.73	-32.6	-38.1	8.1	1.06e-01	0	44	102	1048576	26	6797
2026-01-25 00:15:40.64	181.86	48.41	-32.4	-37.2	8.9	4.64e-02	0	44	102	1048576	26	6265
2026-01-25 00:15:41.64	182.02	48.10	-32.0	-36.3	9.9	1.94e-02	0	44	102	1048576	25	5923
2026-01-25 00:15:42.65	182.18	47.79	-32.0	-36.9	9.7	9.16e-03	0	44	102	1048576	24	6329
2026-01-25 00:15:43.65	182.34	47.48	-32.0	-36.8	9.8	1.18e-02	0	44	102	1048576	24	6278
2026-01-25 00:15:44.65	182.49	47.17	-32.1	-37.2	9.6	1.23e-02	0	44	102	1048576	24	6483
2026-01-25 00:15:45.65	182.64	46.87	-32.2	-37.7	9.1	2.10e-02	0	44	102	1048576	24	6764
2026-01-25 00:15:46.66	182.79	46.56	-32.3	-38.1	8.9	2.58e-02	0	44	102	1048576	24	7008
2026-01-25 00:15:47.66	182.94	46.26	-31.8	-36.3	10.2	2.34e-02	0	44	102	1048576	24	6006
2026-01-25 00:15:48.67	183.08	45.96	-31.2	-34.8	11.6	1.26e-03	0	44	102	1048576	23	5399
2026-01-25 00:15:49.67	183.22	45.66	-30.4	-32.9	13.3	9.99e-05	0	44	102	1048576	22	4771
2026-01-25 00:15:50.68	183.36	45.36	-29.8	-31.8	14.3	4.50e-06	0	44	102	1048576	21	4524
2026-01-25 00:15:51.68	183.50	45.07	-29.6	-31.7	14.6	3.10e-04	0	44	102	1048576	20	4595
2026-01-25 00:15:52.69	183.63	44.77	-29.5	-31.5	14.8	0.00e+00	0	44	102	1048576	20	4534
2026-01-25 00:15:53.69	183.76	44.48	-29.8	-32.6	14.5	3.80e-06	0	44	102	1048576	19	5004
2026-01-25 00:15:54.70	183.89	44.19	-30.0	-33.2	14.2	0.00e+00	0	44	102	1048576	19	5194
2026-01-25 00:15:55.70	184.02	43.91	-30.5	-34.0	13.2	1.37e-05	0	44	102	1048576	20	5420
2026-01-25 00:15:56.70	184.14	43.63	-30.6	-33.8	13.0	6.40e-05	0	44	102	1048576	21	5245
2026-01-25 00:15:57.71	184.26	43.34	-30.8	-34.4	12.6	3.73e-05	0	44	102	1048576	21	5496
2026-01-25 00:15:58.71	184.38	43.06	-30.6	-34.0	12.8	1.05e-04	0	44	102	1048576	21	5306
2026-01-25 00:15:59.71	184.50	42.79	-30.0	-32.4	13.9	1.83e-05	0	44	102	1048576	21	4718
2026-01-25 00:16:00.72	184.62	42.51	-29.3	-31.1	15.0	1.50e-06	0	44	102	1048576	20	4397
2026-01-25 00:16:01.72	184.73	42.23	-28.9	-30.5	15.8	0.00e+00	0	44	102	1048576	19	4304
2026-01-25 00:16:02.72	184.84	41.96	-28.7	-30.3	16.1	0.00e+00	0	44	102	1048576	18	4355
2026-01-25 00:16:03.73	184.95	41.69	-28.6	-30.1	16.2	0.00e+00	0	44	102	1048576	18	4309
2026-01-25 00:16:04.74	185.06	41.42	-28.8	-30.8	15.9	0.00e+00	0	44	102	1048576	18	4497
2026-01-25 00:16:05.74	185.17	41.15	-29.2	-31.8	15.3	0.00e+00	0	44	102	1048576	18	4816
2026-01-25 00:16:06.75	185.27	40.88	-29.6	-32.3	14.6	7.00e-07	0	44	102	1048576	19	4904
2026-01-25 00:16:07.75	185.38	40.62	-30.0	-33.2	14.1	0.00e+00	0	44	102	1048576	19	5220
2026-01-25 00:16:08.75	185.48	40.36	-30.2	-33.3	13.6	7.60e-06	0	44	102	1048576	20	5157
2026-01-25 00:16:09.76	185.58	40.10	-30.1	-33.1	13.7	8.30e-06	0	44	102	1048576	20	5088
2026-01-25 00:16:10.77	185.68	39.84	-30.1	-33.0	13.7	2.74e-05	0	44	102	1048576	20	5052
2026-01-25 00:16:11.77	185.77	39.59	-30.2	-33.5	13.5	1.98e-05	0	44	102	1048576	20	5215
2026-01-25 00:16:12.77	185.87	39.33	-30.2	-33.2	13.7	9.10e-06	0	44	102	1048576	20	5115
2026-01-25 00:16:13.78	185.97	39.08	-30.4	-33.8	13.3	1.60e-05	0	44	102	1048576	20	5351
2026-01-25 00:16:14.77	186.06	38.83	-30.5	-33.6	13.1	1.12e-04	0	44	102	1048576	21	5159
2026-01-25 00:16:15.77	186.15	38.58	-30.5	-33.6	13.1	3.96e-05	0	44	102	1048576	21	5165
2026-01-25 00:16:16.77	186.24	38.34	-30.5	-34.2	13.0	1.98e-05	0	44	102	1048576	20	5494
2026-01-25 00:16:17.77	186.33	38.09	-30.6	-34.1	12.7	4.42e-05	0	44	102	1048576	21	5347
2026-01-25 00:16:18.78	186.42	37.85	-30.7	-34.3	12.5	8.69e-05	0	44	102	1048576	21	5467
2026-01-25 00:16:19.79	186.50	37.60	-31.1	-34.9	11.8	2.69e-04	0	44	102	1048576	22	5583
2026-01-25 00:16:20.79	186.59	37.36	-31.3	-35.7	11.2	1.06e-03	0	44	102	1048576	22	5969
2026-01-25 00:16:21.79	186.67	37.12	-31.5	-35.8	10.8	1.86e-03	0	44	102	1048576	23	5923
2026-01-25 00:16:22.80	186.75	36.89	-31.5	-35.9	10.7	3.67e-03	0	44	102	1048576	23	5942
2026-01-25 00:16:23.81	186.84	36.65	-31.2	-35.4	11.4	1.56e-03	0	44	102	1048576	22	5808
2026-01-25 00:16:24.81	186.92	36.42	-30.9	-34.4	12.1	5.30e-04	0	44	102	1048576	22	5381
2026-01-25 00:16:25.81	187.00	36.18	-30.5	-33.8	12.8	4.71e-04	0	44	102	1048576	21	5239
2026-01-25 00:16:26.82	187.08	35.95	-30.3	-33.3	13.2	2.97e-05	0	44	102	1048576	21	5052
2026-01-25 00:16:27.83	187.15	35.72	-30.4	-33.6	13.0	2.21e-05	0	44	102	1048576	21	5163
2026-01-25 00:16:28.83	187.23	35.49	-30.2	-32.9	13.4	1.58e-04	0	44	102	1048576	21	4932
2026-01-25 00:16:29.82	187.30	35.27	-30.3	-33.8	13.2	9.99e-05	0	44	102	1048576	20	5347
2026-01-25 00:16:30.83	187.38	35.04	-30.3	-33.6	13.3	2.21e-05	0	44	102	1048576	20	5298
2026-01-25 00:16:31.83	187.45	34.82	-30.4	-34.0	13.0	2.21e-05	0	44	102	1048576	20	5466
2026-01-25 00:16:32.83	187.52	34.60	-30.6	-34.1	12.6	1.80e-04	0	44	102	1048576	21	5374
2026-01-25 00:16:33.84	187.60	34.38	-30.9	-35.0	12.0	1.46e-04	0	44	102	1048576	21	5758
2026-01-25 00:16:34.84	187.67	34.16	-31.1	-35.2	11.5	5.71e-04	0	44	102	1048576	22	5757
2026-01-25 00:16:35.84	187.74	33.95	-31.5	-36.1	10.5	3.21e-03	0	44	102	1048576	23	6068
2026-01-25 00:16:36.85	187.81	33.73	-31.8	-37.1	9.7	9.04e-03	0	44	102	1048576	23	6636
2026-01-25 00:16:37.85	187.87	33.52	-32.0	-37.5	9.1	1.75e-02	0	44	102	1048576	24	6740
2026-01-25 00:16:38.86	187.94	33.30	-32.1	-37.7	8.8	3.33e-02	0	44	102	1048576	24	6873
2026-01-25 00:16:39.86	188.01	33.09	-32.2	-38.0	8.6	3.54e-02	0	44	102	1048576	24	7046
2026-01-25 00:16:40.86	188.07	32.88	-32.0	-37.3	9.2	2.95e-02	0	44	102	1048576	24	6621
2026-01-25 00:16:41.87	188.14	32.67	-31.7	-36.5	10.1	1.31e-02	0	44	102	1048576	23	6298
2026-01-25 00:16:42.87	188.20	32.47	-31.5	-35.8	10.7	3.47e-03	0	44	102	1048576	23	5908
2026-01-25 00:16:43.87	188.27	32.26	-31.3	-35.6	11.2	2.35e-03	0	44	102	1048576	22	5921
2026-01-25 00:16:44.87	188.33	32.06	-31.2	-35.5	11.3	1.96e-03	0	44	102	1048576	22	5869
2026-01-25 00:16:45.88	188.39	31.86	-31.3	-35.7	11.1	1.71e-03	0	44	102	1048576	22	5995
2026-01-25 00:16:46.88	188.45	31.66	-31.3	-35.7	11.2	2.32e-03	0	44	102	1048576	22	5963
2026-01-25 00:16:47.88	188.51	31.46	-31.4	-35.9	11.0	2.64e-03	0	44	102	1048576	22	6062
2026-01-25 00:16:48.89	188.57	31.26	-31.3	-35.8	11.1	2.24e-03	0	44	102	1048576	22	6009
2026-01-25 00:16:49.89	188.63	31.06	-31.2	-35.5	11.3	2.78e-03	0	44	102	1048576	22	5863
2026-01-25 00:16:50.89	188.69	30.86	-31.1	-35.1	11.5	2.47e-03	0	44	102	1048576	22	5721
2026-01-25 00:16:51.89	188.75	30.67	-31.1	-35.2	11.5	8.28e-04	0	44	102	1048576	22	5749
2026-01-25 00:16:52.90	188.80	30.47	-31.1	-35.0	11.6	2.53e-03	0	44	102	1048576	22	5666
2026-01-25 00:16:53.90	188.86	30.28	-31.2	-35.4	11.3	2.69e-03	0	44	102	1048576	22	5847
2026-01-25 00:16:54.90	188.92	30.09	-31.0	-34.9	11.7	8.48e-04	0	44	102	1048576	22	5615
2026-01-25 00:16:55.91	188.97	29.90	-30.9	-35.0	12.0	2.50e-03	0	44	102	1048576	21	5758
2026-01-25 00:16:56.91	189.03	29.71	-31.0	-35.2	11.7	2.48e-03	0	44	102	1048576	21	5877
2026-01-25 00:16:57.92	189.08	29.52	-30.8	-34.8	12.1	3.83e-04	0	44	102	1048576	21	5682
2026-01-25 00:16:58.92	189.13	29.34	-30.7	-34.4	12.4	2.47e-03	0	44	102	1048576	21	5505
2026-01-25 00:16:59.92	189.19	29.15	-30.6	-34.3	12.4	2.27e-03	0	44	102	1048576	21	5454
2026-01-25 00:17:00.93	189.24	28.97	-30.6	-34.2	12.5	1.59e-04	0	44	102	1048576	21	5452
2026-01-25 00:17:01.94	189.29	28.79	-30.5	-33.8	12.8	2.21e-03	0	44	102	1048576	21	5259
2026-01-25 00:17:02.94	189.34	28.61	-30.3	-33.9	13.0	3.58e-05	0	44	102	1048576	20	5402
2026-01-25 00:17:03.95	189.39	28.42	-30.2	-33.5	13.3	1.91e-04	0	44	102	1048576	20	5258
2026-01-25 00:17:04.95	189.44	28.25	-30.1	-33.3	13.4	2.35e-03	0	44	102	1048576	20	5172
2026-01-25 00:17:05.96	189.49	28.07	-30.1	-33.1	13.5	2.31e-03	0	44	102	1048576	20	5110
2026-01-25 00:17:06.96	189.54	27.89	-30.2	-33.4	13.4	1.50e-04	0	44	102	1048576	20	5202
2026-01-25 00:17:07.96	189.59	27.71	-29.9	-32.7	13.8	2.41e-03	0	44	102	1048576	20	4953
2026-01-25 00:17:08.97	189.64	27.54	-29.8	-32.9	14.1	2.05e-03	0	44	102	1048576	19	5136
2026-01-25 00:17:09.97	189.69	27.37	-29.7	-32.7	14.2	1.55e-04	0	44	102	1048576	19	5050
2026-01-25 00:17:10.98	189.73	27.19	-29.8	-32.7	14.2	2.21e-03	0	44	102	1048576	19	5062
2026-01-25 00:17:11.99	189.78	27.02	-29.7	-32.5	14.3	2.28e-03	0	44	102	1048576	19	4995
2026-01-25 00:17:12.99	189.83	26.85	-29.7	-32.5	14.3	1.55e-04	0	44	102	1048576	19	4987
2026-01-25 00:17:13.99	189.87	26.68	-29.8	-32.7	14.1	1.43e-04	0	44	102	1048576	19	5074
2026-01-25 00:17:15.00	189.92	26.51	-29.6	-32.4	14.3	2.25e-03	0	44	102	1048576	19	4970
2026-01-25 00:17:16.00	189.96	26.34	-29.6	-32.3	14.4	1.94e-04	0	44	102	1048576	19	4911
2026-01-25 00:17:17.00	190.01	26.18	-29.6	-32.3	14.4	1.59e-04	0	44	102	1048576	19	4931
2026-01-25 00:17:18.01	190.05	26.01	-29.6	-32.4	14.3	0.00e+00	0	44	102	1048576	19	4962
2026-01-25 00:17:19.01	190.09	25.85	-29.7	-32.6	14.2	3.92e-04	0	44	102	1048576	19	5025
2026-01-25 00:17:20.02	190.14	25.68	-29.7	-32.6	14.2	1.53e-04	0	44	102	1048576	19	5035
2026-01-25 00:17:21.01	190.18	25.52	-29.7	-32.6	14.2	7.00e-07	0	44	102	1048576	19	5025
2026-01-25 00:17:22.02	190.22	25.36	-29.7	-32.6	14.2	3.80e-04	0	44	102	1048576	19	5035
2026-01-25 00:17:23.02	190.26	25.20	-29.7	-32.6	14.2	1.77e-04	0	44	102	1048576	19	5019
2026-01-25 00:17:24.03	190.31	25.04	-29.7	-32.6	14.2	7.00e-07	0	44	102	1048576	19	5042
2026-01-25 00:17:25.03	190.35	24.88	-29.9	-33.1	13.8	1.75e-04	0	44	102	1048576	19	5208
2026-01-25 00:17:26.04	190.39	24.72	-29.6	-32.3	14.3	2.37e-03	0	44	102	1048576	19	4930
2026-01-25 00:17:27.04	190.43	24.57	-29.5	-32.0	14.5	0.00e+00	0	44	102	1048576	19	4832
2026-01-25 00:17:28.05	190.47	24.41	-29.4	-31.8	14.6	1.46e-04	0	44	102	1048576	19	4761
2026-01-25 00:17:29.06	190.51	24.26	-29.3	-32.1	14.8	1.46e-04	0	44	102	1048576	18	4954
2026-01-25 00:17:30.07	190.55	24.10	-29.2	-31.8	15.0	0.00e+00	0	44	102	1048576	18	4881
2026-01-25 00:17:31.08	190.59	23.95	-29.1	-31.6	15.1	1.59e-04	0	44	102	1048576	18	4801
2026-01-25 00:17:32.08	190.63	23.80	-29.1	-31.7	15.0	1.31e-04	0	44	102	1048576	18	4831
2026-01-25 00:17:33.09	190.66	23.64	-29.0	-31.5	15.1	0.00e+00	0	44	102	1048576	18	4764
2026-01-25 00:17:34.09	190.70	23.49	-29.0	-31.3	15.2	1.29e-04	0	44	102	1048576	18	4693
2026-01-25 00:17:35.09	190.74	23.34	-28.9	-31.7	15.3	1.43e-04	0	44	102	1048576	17	4948
2026-01-25 00:17:36.09	190.78	23.20	-28.9	-31.5	15.4	0.00e+00	0	44	102	1048576	17	4892
2026-01-25 00:17:37.10	190.81	23.05	-28.8	-31.5	15.4	0.00e+00	0	44	102	1048576	17	4876
2026-01-25 00:17:38.10	190.85	22.90	-28.9	-31.6	15.3	1.30e-04	0	44	102	1048576	17	4922
2026-01-25 00:17:39.10	190.89	22.76	-29.1	-31.7	15.0	0.00e+00	0	44	102	1048576	18	4839
2026-01-25 00:17:40.11	190.92	22.61	-29.4	-32.4	14.6	7.00e-07	0	44	102	1048576	18	5066
2026-01-25 00:17:41.12	190.96	22.46	-29.1	-31.6	15.1	0.00e+00	0	44	102	1048576	18	4784
2026-01-25 00:17:42.11	190.99	22.32	-28.9	-31.2	15.3	0.00e+00	0	44	102	1048576	18	4676
2026-01-25 00:17:43.12	191.03	22.18	-28.8	-31.4	15.1	0.00e+00	0	44	102	1048576	17	4861
2026-01-25 00:17:44.12	191.06	22.04	-28.8	-31.5	14.7	7.00e-07	0	44	102	1048576	17	4878
2026-01-25 00:17:45.13	191.10	21.89	-28.9	-31.7	15.0	0.00e+00	0	44	102	1048576	17	4960
2026-01-25 00:17:46.12	191.13	21.76	-29.0	-31.8	14.8	1.30e-04	0	44	102	1048576	17	5002
2026-01-25 00:17:47.12	191.17	21.62	-29.1	-31.7	14.8	0.00e+00	0	44	102	1048576	18	4851
2026-01-25 00:17:48.13	191.20	21.48	-29.3	-32.1	14.7	0.00e+00	0	44	102	1048576	18	4983
2026-01-25 00:17:49.13	191.23	21.34	-29.2	-31.9	14.8	1.32e-04	0	44	102	1048576	18	4924
2026-01-25 00:17:50.13	191.27	21.20	-29.4	-32.5	14.4	2.87e-04	0	44	102	1048576	18	5135
2026-01-25 00:17:51.13	191.30	21.06	-29.3	-32.3	14.6	1.50e-06	0	44	102	1048576	18	5048
2026-01-25 00:17:52.14	191.33	20.93	-29.4	-32.4	14.5	7.00e-07	0	44	102	1048576	18	5095
2026-01-25 00:17:53.14	191.37	20.79	-29.6	-32.6	14.1	9.84e-05	0	44	102	1048576	19	5041
2026-01-25 00:17:54.14	191.40	20.66	-29.4	-32.0	14.4	1.50e-06	0	44	102	1048576	19	4856
2026-01-25 00:17:55.14	191.43	20.52	-29.4	-31.9	14.4	7.00e-07	0	44	102	1048576	19	4820
2026-01-25 00:17:56.15	191.46	20.39	-29.4	-32.0	14.4	9.99e-05	0	44	102	1048576	19	4833
2026-01-25 00:17:57.15	191.49	20.26	-29.3	-31.8	14.5	1.43e-04	0	44	102	1048576	19	4780
2026-01-25 00:17:58.15	191.52	20.13	-29.3	-31.8	14.5	7.00e-07	0	44	102	1048576	19	4760
2026-01-25 00:17:59.16	191.56	20.00	-29.4	-31.9	14.5	6.10e-06	0	44	102	1048576	19	4809
2026-01-25 00:18:00.16	191.59	19.87	-29.5	-32.3	14.2	1.50e-06	0	44	102	1048576	19	4931
2026-01-25 00:18:01.15	191.62	19.74	-29.5	-32.2	14.3	7.60e-06	0	44	102	1048576	19	4913
2026-01-25 00:18:02.16	191.65	19.61	-29.7	-32.7	14.0	2.20e-06	0	44	102	1048576	19	5084
2026-01-25 00:18:03.16	191.68	19.48	-29.5	-32.3	14.2	3.00e-06	0	44	102	1048576	19	4966
2026-01-25 00:18:04.17	191.71	19.35	-29.6	-32.6	14.0	6.48e-05	0	44	102	1048576	19	5046
2026-01-25 00:18:05.17	191.74	19.22	-29.6	-32.5	14.1	1.50e-06	0	44	102	1048576	19	5015
2026-01-25 00:18:06.18	191.77	19.10	-29.7	-32.7	13.9	3.80e-06	0	44	102	1048576	19	5077
2026-01-25 00:18:07.17	191.80	18.97	-29.9	-33.2	13.6	5.79e-05	0	44	102	1048576	19	5263
2026-01-25 00:18:08.17	191.82	18.85	-29.8	-32.9	13.8	5.56e-05	0	44	102	1048576	19	5152
2026-01-25 00:18:09.18	191.85	18.72	-29.9	-33.2	13.6	4.50e-06	0	44	102	1048576	19	5270
2026-01-25 00:18:10.18	191.88	18.60	-29.8	-33.1	13.6	7.60e-06	0	44	102	1048576	19	5247
2026-01-25 00:18:11.18	191.91	18.47	-30.0	-33.1	13.3	7.85e-05	0	44	102	1048576	20	5144
2026-01-25 00:18:12.18	191.94	18.35	-30.2	-33.7	12.9	3.66e-05	0	44	102	1048576	20	5399
2026-01-25 00:18:13.19	191.97	18.23	-30.1	-33.3	13.1	5.11e-05	0	44	102	1048576	20	5227
2026-01-25 00:18:14.20	191.99	18.11	-29.9	-32.8	13.5	1.27e-04	0	44	102	1048576	20	5016
2026-01-25 00:18:15.21	192.02	17.99	-29.8	-32.6	13.6	4.73e-05	0	44	102	1048576	20	4945
2026-01-25 00:18:16.21	192.05	17.87	-29.7	-32.2	13.8	3.00e-06	0	44	102	1048576	20	4813
2026-01-25 00:18:17.22	192.08	17.74	-29.7	-32.8	13.8	6.64e-04	0	44	102	1048576	19	5136
2026-01-25 00:18:18.22	192.10	17.63	-29.8	-33.0	13.6	1.14e-04	0	44	102	1048576	19	5212
2026-01-25 00:18:19.23	192.13	17.51	-29.8	-32.9	13.7	9.22e-04	0	44	102	1048576	19	5169
2026-01-25 00:18:20.23	192.16	17.39	-29.7	-32.7	13.8	6.10e-06	0	44	102	1048576	19	5107
2026-01-25 00:18:21.23	192.18	17.27	-29.7	-32.7	13.8	5.64e-05	0	44	102	1048576	19	5112
2026-01-25 00:18:22.24	192.21	17.15	-29.7	-32.7	13.9	1.11e-03	0	44	102	1048576	19	5082
2026-01-25 00:18:23.24	192.24	17.04	-29.8	-32.9	13.7	3.80e-06	0	44	102	1048576	19	5168
2026-01-25 00:18:24.24	192.26	16.92	-29.6	-32.6	13.9	1.10e-04	0	44	102	1048576	19	5070
2026-01-25 00:18:25.24	192.29	16.81	-29.7	-32.7	13.8	9.86e-04	0	44	102	1048576	19	5104
2026-01-25 00:18:26.24	192.31	16.69	-29.7	-32.9	13.7	1.02e-03	0	44	102	1048576	19	5179
2026-01-25 00:18:27.25	192.34	16.58	-29.7	-32.8	13.7	2.03e-04	0	44	102	1048576	19	5147
2026-01-25 00:18:28.25	192.36	16.46	-29.7	-32.8	13.7	1.08e-03	0	44	102	1048576	19	5151
2026-01-25 00:18:29.26	192.39	16.35	-29.8	-33.2	13.5	1.22e-03	0	44	102	1048576	19	5274
2026-01-25 00:18:30.26	192.41	16.24	-29.9	-33.3	13.4	2.67e-05	0	44	102	1048576	19	5322
2026-01-25 00:18:31.26	192.44	16.13	-29.8	-33.2	13.5	1.39e-03	0	44	102	1048576	19	5296
2026-01-25 00:18:32.26	192.46	16.01	-29.9	-33.2	13.4	1.23e-03	0	44	102	1048576	19	5313
2026-01-25 00:18:33.27	192.49	15.90	-29.8	-33.0	13.6	3.81e-05	0	44	102	1048576	19	5211
2026-01-25 00:18:34.28	192.51	15.79	-29.7	-32.8	13.7	1.52e-03	0	44	102	1048576	19	5149
2026-01-25 00:18:35.28	192.54	15.68	-29.7	-32.9	13.6	1.45e-03	0	44	102	1048576	19	5198
2026-01-25 00:18:36.29	192.56	15.57	-29.7	-32.9	13.6	8.23e-05	0	44	102	1048576	19	5185
2026-01-25 00:18:37.29	192.58	15.46	-29.6	-32.7	13.7	7.62e-05	0	44	102	1048576	19	5102
2026-01-25 00:18:38.30	192.61	15.35	-29.7	-32.7	13.7	1.39e-03	0	44	102	1048576	19	5125
2026-01-25 00:18:39.30	192.63	15.25	-29.8	-33.0	13.5	6.63e-05	0	44	102	1048576	19	5232
2026-01-25 00:18:40.31	192.65	15.14	-29.8	-33.1	13.4	1.34e-03	0	44	102	1048576	19	5285
2026-01-25 00:18:41.32	192.68	15.03	-29.7	-32.9	13.6	1.06e-05	0	44	102	1048576	19	5192
2026-01-25 00:18:42.32	192.70	14.92	-29.7	-32.8	13.7	1.30e-04	0	44	102	1048576	19	5146
2026-01-25 00:18:43.32	192.72	14.82	-29.6	-32.7	13.7	1.06e-03	0	44	102	1048576	19	5103
2026-01-25 00:18:44.32	192.75	14.71	-29.7	-32.7	13.7	6.10e-06	0	44	102	1048576	19	5132
2026-01-25 00:18:45.33	192.77	14.60	-29.6	-32.7	13.7	1.50e-04	0	44	102	1048576	19	5126
2026-01-25 00:18:46.33	192.79	14.50	-29.5	-32.5	13.8	8.67e-04	0	44	102	1048576	19	5031
2026-01-25 00:18:47.33	192.81	14.40	-29.6	-32.6	13.7	3.00e-06	0	44	102	1048576	19	5094
2026-01-25 00:18:48.33	192.84	14.29	-29.6	-32.6	13.7	9.30e-05	0	44	102	1048576	19	5080
2026-01-25 00:18:49.34	192.86	14.19	-29.7	-32.8	13.6	8.51e-04	0	44	102	1048576	19	5155
2026-01-25 00:18:50.35	192.88	14.08	-29.7	-32.7	13.6	6.68e-04	0	44	102	1048576	19	5138
2026-01-25 00:18:51.36	192.90	13.98	-29.7	-32.9	13.5	5.03e-05	0	44	102	1048576	19	5216
2026-01-25 00:18:52.37	192.92	13.88	-29.8	-33.1	13.4	7.55e-05	0	44	102	1048576	19	5255
2026-01-25 00:18:53.37	192.95	13.78	-29.8	-33.1	13.4	5.76e-04	0	44	102	1048576	19	5268
2026-01-25 00:18:54.38	192.97	13.67	-29.8	-33.2	13.3	1.40e-04	0	44	102	1048576	19	5314
2026-01-25 00:18:55.38	192.99	13.57	-29.9	-33.4	13.2	1.32e-04	0	44	102	1048576	19	5385
2026-01-25 00:18:56.39	193.01	13.47	-29.8	-33.2	13.3	6.80e-04	0	44	102	1048576	19	5327
2026-01-25 00:18:57.40	193.03	13.37	-29.8	-33.2	13.3	1.14e-04	0	44	102	1048576	19	5303
2026-01-25 00:18:58.40	193.05	13.27	-29.8	-33.2	13.3	1.34e-04	0	44	102	1048576	19	5322
2026-01-25 00:18:59.40	193.07	13.17	-29.8	-33.3	13.2	1.60e-05	0	44	102	1048576	19	5357
2026-01-25 00:19:00.40	193.09	13.07	-29.9	-33.4	13.1	2.17e-04	0	44	102	1048576	19	5404
2026-01-25 00:19:01.40	193.11	12.98	-29.8	-33.1	13.3	9.91e-05	0	44	102	1048576	19	5284
2026-01-25 00:19:02.41	193.13	12.88	-29.7	-33.0	13.4	1.98e-05	0	44	102	1048576	19	5253
2026-01-25 00:19:03.41	193.16	12.78	-29.8	-33.1	13.3	7.55e-05	0	44	102	1048576	19	5276
2026-01-25 00:19:04.42	193.18	12.68	-29.8	-33.2	13.2	2.21e-05	0	44	102	1048576	19	5329
2026-01-25 00:19:05.43	193.20	12.58	-29.9	-33.3	13.2	2.59e-05	0	44	102	1048576	19	5376
2026-01-25 00:19:06.42	193.22	12.49	-29.8	-33.3	13.1	1.15e-04	0	44	102	1048576	19	5357
2026-01-25 00:19:07.42	193.24	12.39	-29.9	-33.4	13.1	2.59e-05	0	44	102	1048576	19	5401
2026-01-25 00:19:08.43	193.26	12.30	-29.8	-33.2	13.2	2.44e-05	0	44	102	1048576	19	5344
2026-01-25 00:19:09.44	193.28	12.20	-29.8	-33.3	13.1	1.11e-04	0	44	102	1048576	19	5380
2026-01-25 00:19:10.44	193.29	12.10	-29.9	-33.4	13.0	1.36e-04	0	44	102	1048576	19	5419
2026-01-25 00:19:11.45	193.31	12.01	-29.9	-33.5	13.0	3.58e-05	0	44	102	1048576	19	5455
2026-01-25 00:19:12.45	193.33	11.91	-29.9	-33.6	12.9	1.51e-04	0	44	102	1048576	19	5497
2026-01-25 00:19:13.45	193.35	11.82	-29.9	-33.6	12.9	1.12e-04	0	44	102	1048576	19	5509
2026-01-25 00:19:14.45	193.37	11.73	-29.9	-33.6	12.9	4.42e-05	0	44	102	1048576	19	5514
2026-01-25 00:19:15.46	193.39	11.63	-29.9	-33.2	12.8	5.95e-05	0	44	102	1048576	20	5230
2026-01-25 00:19:16.47	193.41	11.54	-29.9	-33.6	12.9	1.69e-04	0	44	102	1048576	19	5510
2026-01-25 00:19:17.46	193.43	11.45	-29.9	-33.7	12.8	5.49e-05	0	44	102	1048576	19	5525
2026-01-25 00:19:18.46	193.45	11.36	-29.9	-33.2	12.7	7.47e-05	0	44	102	1048576	20	5246
2026-01-25 00:19:19.47	193.47	11.26	-29.9	-33.2	12.8	1.41e-04	0	44	102	1048576	20	5221
2026-01-25 00:19:20.47	193.49	11.17	-30.0	-33.3	12.7	8.01e-05	0	44	102	1048576	20	5263
2026-01-25 00:19:21.47	193.50	11.08	-29.7	-32.9	12.7	8.23e-05	0	44	102	1048576	20	5251
2026-01-25 00:19:22.47	193.52	10.99	-30.0	-33.3	12.4	7.24e-05	0	44	102	1048576	20	5265
2026-01-25 00:19:23.48	193.54	10.90	-30.0	-33.5	12.5	1.20e-04	0	44	102	1048576	20	5353
2026-01-25 00:19:24.49	193.56	10.81	-30.0	-33.5	11.9	2.09e-04	0	44	102	1048576	20	5346
2026-01-25 00:19:25.50	193.58	10.72	-30.1	-33.7	12.1	1.36e-04	0	44	102	1048576	20	5446
2026-01-25 00:19:26.50	193.60	10.63	-30.2	-33.9	12.2	2.28e-04	0	44	102	1048576	20	5528
2026-01-25 00:19:27.51	193.61	10.54	-30.1	-33.6	12.3	2.55e-04	0	44	102	1048576	20	5407
2026-01-25 00:19:28.51	193.63	10.45	-30.1	-33.6	12.4	1.33e-04	0	44	102	1048576	20	5405
2026-01-25 00:19:29.51	193.65	10.36	-30.1	-33.6	12.4	1.47e-04	0	44	102	1048576	20	5410
2026-01-25 00:19:30.52	193.67	10.27	-30.1	-33.7	12.3	2.50e-04	0	44	102	1048576	20	5431
2026-01-25 00:19:31.51	193.68	10.19	-30.1	-33.8	12.2	1.73e-03	0	44	102	1048576	20	5497
2026-01-25 00:19:32.52	193.70	10.10	-30.1	-33.8	12.2	2.18e-04	0	44	102	1048576	20	5490
2026-01-25 00:19:33.52	193.72	10.01	-30.2	-34.0	12.1	2.40e-04	0	44	102	1048576	20	5562
2026-01-25 00:19:34.53	193.74	9.92	-30.2	-34.1	12.0	1.84e-03	0	44	102	1048576	20	5633
2026-01-25 00:19:35.53	193.75	9.84	-30.3	-34.3	11.9	3.41e-04	0	44	102	1048576	20	5729
2026-01-25 00:19:36.53	193.77	9.75	-30.4	-34.6	11.6	6.51e-04	0	44	102	1048576	20	5866
2026-01-25 00:19:37.53	193.79	9.67	-30.3	-34.4	11.8	5.32e-04	0	44	102	1048576	20	5756
