passes_logs/2026/01/25/R2M6_AANII_01/R2M6_AANII_01__20260125_012758_SUOMI_NPP_rec.log

#Pass ID: 20260125_012758_SUOMI NPP
#Satellite: SUOMI NPP
#Configuration: NPP
#almurnet v.1.7.20240730
#Start time: 2026-01-25 01:27:58

#Version: 2.2.20231116
#Station: R2M6_AANII_01
#Location: 30.233357 lon 59.946436 lat
#TLE: 1 37849U 11061A   26024.54906732  .00000185  00000+0  10878-3 0  9990
#TLE: 2 37849  98.7821 326.5159 0002200  47.3746 312.7615 14.19529340738061

#Time	Az	El	Level	Level2	SNR	BER	BlckErr	Temp	State	Recorded	gain1	gain2
2026-01-25 01:27:58.41	13.51	7.00	-32.1	-38.3	4.6	1.38e+00	0	41	0	0	24	7330
2026-01-25 01:27:59.40	13.46	7.07	-32.2	-39.0	4.4	1.41e+00	0	41	104	0	24	7849
2026-01-25 01:28:00.41	13.41	7.14	-32.2	-38.5	5.8	4.34e-01	0	41	0	0	24	7461
2026-01-25 01:28:01.41	13.36	7.22	-32.2	-38.4	5.9	3.36e-01	0	41	102	1048576	24	7416
2026-01-25 01:28:02.42	13.30	7.29	-32.2	-38.7	5.7	3.96e-01	0	41	102	1048576	24	7555
2026-01-25 01:28:03.42	13.25	7.36	-32.1	-38.0	6.1	3.20e-01	0	42	102	1048576	24	7072
2026-01-25 01:28:04.42	13.20	7.44	-32.1	-37.8	6.5	2.37e-01	0	42	102	1048576	24	6904
2026-01-25 01:28:05.43	13.15	7.51	-32.1	-37.7	6.5	2.35e-01	0	41	102	1048576	24	6865
2026-01-25 01:28:06.43	13.10	7.59	-32.1	-37.5	6.7	2.42e-01	0	41	102	1048576	24	6737
2026-01-25 01:28:07.44	13.04	7.66	-31.9	-36.6	7.3	1.64e-01	0	42	102	1048576	24	6205
2026-01-25 01:28:08.44	12.99	7.74	-31.7	-36.0	8.2	7.21e-02	0	41	102	1048576	23	5951
2026-01-25 01:28:09.45	12.94	7.81	-31.4	-35.4	9.1	3.36e-02	0	42	102	1048576	22	5719
2026-01-25 01:28:10.45	12.88	7.89	-31.1	-34.5	9.8	1.75e-02	0	42	102	1048576	22	5279
2026-01-25 01:28:11.46	12.83	7.96	-30.8	-34.0	10.5	7.29e-03	0	42	102	1048576	21	5169
2026-01-25 01:28:12.46	12.77	8.04	-30.8	-34.0	10.5	3.17e-03	0	42	102	1048576	21	5182
2026-01-25 01:28:13.47	12.72	8.12	-30.9	-34.1	10.4	5.41e-03	0	42	102	1048576	21	5232
2026-01-25 01:28:14.48	12.66	8.19	-30.9	-34.3	10.4	6.83e-03	0	42	102	1048576	21	5281
2026-01-25 01:28:15.49	12.61	8.27	-31.0	-34.4	10.3	7.08e-03	0	42	102	1048576	21	5355
2026-01-25 01:28:16.50	12.55	8.35	-31.0	-34.3	10.2	4.44e-03	0	42	102	1048576	21	5315
2026-01-25 01:28:17.50	12.50	8.42	-30.9	-34.1	10.5	4.59e-03	0	42	102	1048576	21	5201
2026-01-25 01:28:18.50	12.44	8.50	-30.9	-34.2	10.4	8.37e-03	0	42	102	1048576	21	5228
2026-01-25 01:28:19.51	12.38	8.58	-31.0	-34.0	10.2	4.91e-03	0	42	102	1048576	22	5060
2026-01-25 01:28:20.52	12.33	8.66	-31.1	-34.3	10.0	8.12e-03	0	42	102	1048576	22	5185
2026-01-25 01:28:21.52	12.27	8.73	-30.8	-33.8	10.7	6.85e-03	0	42	102	1048576	21	5089
2026-01-25 01:28:22.52	12.21	8.81	-30.6	-33.1	11.2	1.93e-03	0	42	102	1048576	21	4812
2026-01-25 01:28:23.53	12.15	8.89	-30.5	-32.7	11.6	9.35e-04	0	42	102	1048576	21	4642
2026-01-25 01:28:24.53	12.10	8.97	-30.3	-32.7	11.9	4.21e-03	0	42	102	1048576	20	4756
2026-01-25 01:28:25.53	12.04	9.05	-30.3	-32.6	12.0	1.36e-03	0	42	102	1048576	20	4713
2026-01-25 01:28:26.53	11.98	9.13	-30.3	-32.6	12.0	2.99e-03	0	42	102	1048576	20	4693
2026-01-25 01:28:27.53	11.92	9.20	-30.4	-32.9	11.8	4.23e-04	0	42	102	1048576	20	4796
2026-01-25 01:28:28.54	11.86	9.28	-30.4	-32.8	11.9	1.33e-03	0	42	102	1048576	20	4783
2026-01-25 01:28:29.54	11.80	9.36	-30.4	-32.9	11.8	2.71e-03	0	42	102	1048576	20	4820
2026-01-25 01:28:30.55	11.74	9.44	-30.3	-32.7	12.0	3.59e-04	0	42	102	1048576	20	4745
2026-01-25 01:28:31.56	11.68	9.52	-30.4	-32.9	11.8	1.25e-03	0	42	102	1048576	20	4801
2026-01-25 01:28:32.56	11.62	9.60	-30.4	-32.8	11.9	2.62e-03	0	42	102	1048576	20	4771
2026-01-25 01:28:33.57	11.56	9.68	-30.3	-32.7	12.0	2.86e-03	0	42	102	1048576	20	4721
2026-01-25 01:28:34.57	11.50	9.76	-30.2	-32.2	12.3	9.35e-04	0	42	102	1048576	20	4560
2026-01-25 01:28:35.57	11.43	9.85	-30.2	-32.2	12.3	2.63e-03	0	42	102	1048576	20	4570
2026-01-25 01:28:36.57	11.37	9.93	-30.2	-32.2	12.3	3.23e-03	0	42	102	1048576	20	4569
2026-01-25 01:28:37.57	11.31	10.01	-30.2	-32.3	12.3	2.76e-04	0	42	102	1048576	20	4579
2026-01-25 01:28:38.57	11.25	10.09	-30.1	-31.9	12.5	2.53e-03	0	42	102	1048576	20	4462
2026-01-25 01:28:39.57	11.18	10.17	-30.2	-32.3	12.2	2.91e-03	0	42	102	1048576	20	4587
2026-01-25 01:28:40.57	11.12	10.25	-30.2	-32.4	12.2	3.06e-04	0	42	102	1048576	20	4638
2026-01-25 01:28:41.58	11.05	10.33	-30.2	-32.3	12.3	2.41e-03	0	43	102	1048576	20	4578
2026-01-25 01:28:42.58	10.99	10.42	-30.2	-32.3	12.3	3.17e-03	0	42	102	1048576	20	4593
2026-01-25 01:28:43.58	10.93	10.50	-30.2	-32.4	12.3	8.34e-04	0	43	102	1048576	20	4603
2026-01-25 01:28:44.58	10.86	10.58	-30.2	-32.3	12.2	2.71e-03	0	43	102	1048576	20	4590
2026-01-25 01:28:45.59	10.79	10.66	-30.4	-32.8	12.0	3.03e-03	0	43	102	1048576	20	4761
2026-01-25 01:28:46.59	10.73	10.75	-30.4	-32.8	12.0	1.11e-03	0	43	102	1048576	20	4754
2026-01-25 01:28:47.60	10.66	10.83	-30.2	-32.2	12.3	2.59e-03	0	42	102	1048576	20	4557
2026-01-25 01:28:48.61	10.59	10.92	-30.1	-32.2	12.4	8.76e-04	0	43	102	1048576	20	4535
2026-01-25 01:28:49.61	10.53	11.00	-30.3	-32.5	12.2	9.73e-04	0	42	102	1048576	20	4650
2026-01-25 01:28:50.62	10.46	11.08	-30.3	-32.5	12.2	2.38e-03	0	43	102	1048576	20	4653
2026-01-25 01:28:51.62	10.39	11.17	-30.2	-32.3	12.4	7.36e-04	0	43	102	1048576	20	4565
2026-01-25 01:28:52.63	10.32	11.25	-30.3	-32.6	12.2	1.00e-03	0	42	102	1048576	20	4672
2026-01-25 01:28:53.63	10.25	11.34	-30.3	-32.6	12.1	2.78e-03	0	43	102	1048576	20	4697
2026-01-25 01:28:54.64	10.18	11.43	-30.1	-31.9	12.6	3.40e-03	0	43	102	1048576	20	4462
2026-01-25 01:28:55.64	10.11	11.51	-30.1	-31.9	12.7	9.71e-04	0	43	102	1048576	20	4454
2026-01-25 01:28:56.64	10.04	11.60	-30.2	-32.2	12.4	2.43e-03	0	43	102	1048576	20	4544
2026-01-25 01:28:57.64	9.97	11.68	-30.1	-32.1	12.5	3.23e-03	0	43	102	1048576	20	4504
2026-01-25 01:28:58.63	9.90	11.77	-30.1	-32.1	12.5	1.14e-04	0	43	102	1048576	20	4517
2026-01-25 01:28:59.64	9.83	11.85	-30.2	-32.4	12.3	2.07e-03	0	43	102	1048576	20	4610
2026-01-25 01:29:00.63	9.76	11.94	-30.1	-32.0	12.6	3.49e-03	0	43	102	1048576	20	4478
2026-01-25 01:29:01.64	9.69	12.03	-30.1	-32.0	12.6	7.29e-04	0	43	102	1048576	20	4474
2026-01-25 01:29:02.64	9.61	12.12	-30.2	-32.3	12.4	1.41e-04	0	43	102	1048576	20	4589
2026-01-25 01:29:03.65	9.54	12.20	-30.3	-32.7	12.2	3.05e-03	0	43	102	1048576	20	4721
2026-01-25 01:29:04.66	9.46	12.29	-30.2	-32.4	12.4	7.22e-04	0	43	102	1048576	20	4604
2026-01-25 01:29:05.66	9.39	12.38	-30.4	-32.7	12.1	2.14e-04	0	43	102	1048576	20	4732
2026-01-25 01:29:06.67	9.31	12.47	-30.3	-32.5	12.3	7.45e-04	0	43	102	1048576	20	4657
2026-01-25 01:29:07.68	9.24	12.56	-30.2	-32.3	12.4	6.67e-04	0	43	102	1048576	20	4578
2026-01-25 01:29:08.68	9.16	12.65	-30.4	-32.8	12.2	1.88e-04	0	43	102	1048576	20	4752
2026-01-25 01:29:09.69	9.09	12.74	-30.3	-32.1	12.2	2.39e-04	0	43	102	1048576	21	4424
2026-01-25 01:29:10.70	9.01	12.83	-30.2	-32.3	12.5	8.65e-04	0	43	102	1048576	20	4561
2026-01-25 01:29:11.71	8.93	12.92	-30.3	-32.4	12.4	2.40e-03	0	43	102	1048576	20	4617
2026-01-25 01:29:12.71	8.85	13.01	-30.2	-32.2	12.5	1.18e-04	0	43	102	1048576	20	4528
2026-01-25 01:29:13.71	8.78	13.10	-30.2	-32.2	12.5	5.22e-04	0	43	102	1048576	20	4546
2026-01-25 01:29:14.72	8.70	13.19	-30.2	-32.3	12.5	2.38e-03	0	43	102	1048576	20	4559
2026-01-25 01:29:15.72	8.62	13.28	-30.1	-32.0	12.7	1.11e-04	0	43	102	1048576	20	4470
2026-01-25 01:29:16.73	8.54	13.37	-30.1	-31.8	12.7	9.61e-05	0	43	102	1048576	20	4409
2026-01-25 01:29:17.74	8.46	13.46	-30.0	-31.7	12.9	7.47e-05	0	43	102	1048576	20	4360
2026-01-25 01:29:18.74	8.38	13.56	-30.2	-32.1	12.6	8.39e-05	0	43	102	1048576	20	4504
2026-01-25 01:29:19.74	8.29	13.65	-30.1	-32.0	12.7	5.56e-05	0	43	102	1048576	20	4478
2026-01-25 01:29:20.75	8.21	13.74	-29.9	-31.4	13.1	3.05e-05	0	43	102	1048576	20	4253
2026-01-25 01:29:21.75	8.13	13.83	-30.0	-32.0	13.1	2.75e-03	0	43	102	1048576	19	4541
2026-01-25 01:29:22.76	8.05	13.93	-30.0	-31.5	13.1	4.80e-05	0	43	102	1048576	20	4289
2026-01-25 01:29:23.76	7.96	14.02	-30.0	-31.6	13.0	2.67e-05	0	43	102	1048576	20	4332
2026-01-25 01:29:24.76	7.88	14.11	-30.0	-31.7	13.0	4.11e-04	0	43	102	1048576	20	4356
2026-01-25 01:29:25.76	7.79	14.21	-30.1	-31.8	12.9	4.57e-05	0	43	102	1048576	20	4380
2026-01-25 01:29:26.76	7.71	14.30	-30.1	-31.8	12.9	5.79e-05	0	43	102	1048576	20	4386
2026-01-25 01:29:27.77	7.62	14.40	-30.3	-32.5	12.4	4.34e-05	0	43	102	1048576	20	4648
2026-01-25 01:29:28.77	7.54	14.49	-30.1	-31.8	12.9	7.32e-05	0	43	102	1048576	20	4398
2026-01-25 01:29:29.77	7.45	14.58	-30.1	-31.8	13.0	4.19e-05	0	43	102	1048576	20	4385
2026-01-25 01:29:30.78	7.36	14.68	-30.1	-31.9	12.9	7.62e-05	0	43	102	1048576	20	4422
2026-01-25 01:29:31.78	7.27	14.78	-30.1	-31.7	12.9	6.56e-05	0	43	102	1048576	20	4369
2026-01-25 01:29:32.78	7.19	14.87	-30.1	-31.7	13.0	3.28e-05	0	43	102	1048576	20	4361
2026-01-25 01:29:33.79	7.10	14.97	-30.1	-31.8	12.9	5.03e-05	0	43	102	1048576	20	4395
2026-01-25 01:29:34.80	7.01	15.07	-30.1	-31.8	12.9	4.19e-05	0	43	102	1048576	20	4399
2026-01-25 01:29:35.81	6.91	15.16	-30.2	-32.2	12.7	4.95e-05	0	43	102	1048576	20	4511
2026-01-25 01:29:36.81	6.82	15.26	-30.0	-31.5	13.2	2.05e-05	0	43	102	1048576	20	4282
2026-01-25 01:29:37.82	6.73	15.36	-30.2	-32.1	12.7	4.88e-05	0	43	102	1048576	20	4504
2026-01-25 01:29:38.83	6.64	15.46	-30.0	-31.5	13.0	2.05e-03	0	43	102	1048576	20	4308
2026-01-25 01:29:39.83	6.55	15.56	-29.9	-31.4	13.2	2.89e-05	0	43	102	1048576	20	4255
2026-01-25 01:29:40.83	6.45	15.65	-30.0	-31.7	13.0	3.28e-05	0	43	102	1048576	20	4372
2026-01-25 01:29:41.83	6.36	15.75	-29.9	-31.8	13.3	6.10e-05	0	43	102	1048576	19	4480
2026-01-25 01:29:42.84	6.26	15.85	-29.9	-31.4	13.0	1.98e-05	0	43	102	1048576	20	4268
2026-01-25 01:29:43.84	6.17	15.95	-30.2	-32.3	12.6	3.28e-05	0	43	102	1048576	20	4554
2026-01-25 01:29:44.84	6.07	16.05	-30.0	-31.7	12.9	4.65e-05	0	43	102	1048576	20	4368
2026-01-25 01:29:45.84	5.97	16.15	-30.0	-31.6	13.1	3.35e-05	0	43	102	1048576	20	4311
2026-01-25 01:29:46.85	5.88	16.25	-30.1	-32.0	12.9	7.40e-05	0	43	102	1048576	20	4444
2026-01-25 01:29:47.85	5.78	16.35	-30.1	-32.0	12.8	4.73e-05	0	43	102	1048576	20	4460
2026-01-25 01:29:48.86	5.68	16.45	-30.2	-32.1	12.8	4.95e-05	0	43	102	1048576	20	4485
2026-01-25 01:29:49.86	5.58	16.55	-30.1	-31.8	13.0	2.35e-03	0	43	102	1048576	20	4376
2026-01-25 01:29:50.86	5.48	16.66	-30.3	-32.5	12.5	8.46e-05	0	43	102	1048576	20	4624
2026-01-25 01:29:51.86	5.38	16.76	-30.3	-32.5	12.5	1.01e-04	0	43	102	1048576	20	4634
2026-01-25 01:29:52.87	5.28	16.86	-30.3	-32.5	12.5	2.15e-03	0	43	102	1048576	20	4626
2026-01-25 01:29:53.88	5.17	16.96	-30.6	-32.6	12.2	1.65e-04	0	43	102	1048576	21	4574
2026-01-25 01:29:54.89	5.07	17.07	-30.7	-33.2	11.7	6.39e-04	0	43	102	1048576	21	4762
2026-01-25 01:29:55.90	4.96	17.17	-30.6	-32.8	12.1	2.82e-03	0	43	102	1048576	21	4609
2026-01-25 01:29:56.90	4.86	17.28	-30.7	-33.1	11.7	2.82e-03	0	43	102	1048576	21	4730
2026-01-25 01:29:57.91	4.75	17.38	-30.5	-32.5	12.3	3.26e-04	0	43	102	1048576	21	4507
2026-01-25 01:29:58.91	4.65	17.49	-30.4	-32.2	12.5	1.95e-04	0	44	102	1048576	21	4424
2026-01-25 01:29:59.92	4.54	17.59	-30.4	-32.2	12.5	2.41e-03	0	43	102	1048576	21	4402
2026-01-25 01:30:00.92	4.43	17.70	-30.4	-32.1	12.6	9.23e-05	0	43	102	1048576	21	4381
2026-01-25 01:30:01.92	4.32	17.80	-30.5	-32.5	12.3	1.14e-04	0	43	102	1048576	21	4498
2026-01-25 01:30:02.93	4.21	17.91	-30.4	-32.0	12.6	2.55e-03	0	43	102	1048576	21	4348
2026-01-25 01:30:03.93	4.10	18.01	-30.3	-31.7	12.9	1.42e-04	0	43	102	1048576	21	4236
2026-01-25 01:30:04.94	3.99	18.12	-30.3	-32.3	12.8	3.96e-05	0	43	102	1048576	20	4515
2026-01-25 01:30:05.94	3.88	18.23	-30.2	-32.0	13.0	2.48e-03	0	43	102	1048576	20	4419
2026-01-25 01:30:06.94	3.77	18.33	-30.3	-32.4	12.8	1.73e-04	0	43	102	1048576	20	4557
2026-01-25 01:30:07.93	3.66	18.44	-30.2	-32.1	12.9	2.33e-03	0	43	102	1048576	20	4456
2026-01-25 01:30:08.94	3.54	18.55	-30.5	-32.7	12.6	5.11e-05	0	43	102	1048576	20	4680
2026-01-25 01:30:09.95	3.43	18.66	-30.5	-32.4	12.4	1.32e-04	0	43	102	1048576	21	4481
2026-01-25 01:30:10.95	3.31	18.77	-30.7	-32.8	12.2	2.30e-03	0	43	102	1048576	21	4612
2026-01-25 01:30:11.96	3.19	18.88	-30.6	-32.6	12.3	2.58e-03	0	43	102	1048576	21	4529
2026-01-25 01:30:12.96	3.08	18.98	-30.5	-32.3	12.5	1.29e-04	0	43	102	1048576	21	4432
2026-01-25 01:30:13.97	2.96	19.10	-30.4	-32.5	12.7	2.27e-03	0	43	102	1048576	20	4591
2026-01-25 01:30:14.98	2.84	19.21	-30.7	-32.9	12.1	2.40e-03	0	43	102	1048576	21	4626
2026-01-25 01:30:15.98	2.72	19.32	-30.5	-32.3	12.5	2.08e-04	0	43	102	1048576	21	4419
2026-01-25 01:30:16.99	2.60	19.43	-30.8	-33.2	11.9	2.42e-03	0	43	102	1048576	21	4739
2026-01-25 01:30:18.00	2.47	19.54	-30.5	-32.3	12.5	2.30e-03	0	43	102	1048576	21	4435
2026-01-25 01:30:19.00	2.35	19.65	-30.4	-31.9	12.8	1.34e-04	0	43	102	1048576	21	4301
2026-01-25 01:30:20.00	2.23	19.76	-30.3	-32.1	13.0	2.10e-03	0	43	102	1048576	20	4462
2026-01-25 01:30:21.00	2.10	19.87	-30.4	-32.5	12.8	2.36e-03	0	43	102	1048576	20	4584
2026-01-25 01:30:22.00	1.98	19.99	-30.2	-31.8	13.2	6.10e-05	0	43	102	1048576	20	4354
2026-01-25 01:30:23.01	1.85	20.10	-30.0	-31.5	13.4	1.67e-05	0	43	102	1048576	20	4262
2026-01-25 01:30:24.01	1.72	20.21	-30.2	-31.9	13.3	2.38e-03	0	43	102	1048576	20	4375
2026-01-25 01:30:25.01	1.59	20.33	-30.3	-32.2	13.0	1.59e-04	0	43	102	1048576	20	4476
2026-01-25 01:30:26.02	1.46	20.44	-30.1	-31.6	13.4	1.75e-05	0	44	102	1048576	20	4305
2026-01-25 01:30:27.02	1.33	20.56	-30.0	-31.5	13.4	2.11e-03	0	43	102	1048576	20	4258
2026-01-25 01:30:28.03	1.20	20.67	-29.9	-31.2	13.6	1.60e-05	0	43	102	1048576	20	4180
2026-01-25 01:30:29.03	1.07	20.79	-30.0	-31.2	13.6	2.05e-03	0	44	102	1048576	20	4177
2026-01-25 01:30:30.03	0.93	20.90	-30.0	-31.3	13.6	5.30e-06	0	44	102	1048576	20	4187
2026-01-25 01:30:31.04	0.80	21.02	-30.0	-31.4	13.4	1.17e-04	0	43	102	1048576	20	4237
2026-01-25 01:30:32.04	0.66	21.13	-30.2	-31.9	13.3	2.31e-03	0	43	102	1048576	20	4373
2026-01-25 01:30:33.04	0.53	21.25	-30.3	-32.3	13.0	3.50e-05	0	44	102	1048576	20	4513
2026-01-25 01:30:34.05	0.39	21.37	-30.6	-32.6	12.4	1.30e-04	0	44	102	1048576	21	4534
2026-01-25 01:30:35.05	0.25	21.48	-30.5	-32.4	12.6	2.34e-03	0	44	102	1048576	21	4446
2026-01-25 01:30:36.06	0.11	21.60	-30.7	-32.8	12.3	2.21e-03	0	43	102	1048576	21	4589
2026-01-25 01:30:37.06	359.97	21.72	-30.7	-32.9	12.2	2.70e-04	0	44	102	1048576	21	4637
2026-01-25 01:30:38.06	359.83	21.84	-30.7	-32.9	12.2	2.33e-03	0	43	102	1048576	21	4630
2026-01-25 01:30:39.06	359.68	21.96	-30.9	-33.4	11.9	2.67e-03	0	44	102	1048576	21	4794
2026-01-25 01:30:40.06	359.54	22.08	-30.8	-33.1	12.1	2.13e-04	0	43	102	1048576	21	4708
2026-01-25 01:30:41.06	359.39	22.19	-30.8	-33.1	12.0	2.59e-04	0	44	102	1048576	21	4717
2026-01-25 01:30:42.07	359.25	22.31	-30.8	-33.0	12.1	2.58e-03	0	44	102	1048576	21	4672
2026-01-25 01:30:43.07	359.10	22.43	-30.6	-32.6	12.4	2.12e-04	0	44	102	1048576	21	4532
2026-01-25 01:30:44.07	358.95	22.55	-30.4	-31.9	12.8	8.39e-05	0	44	102	1048576	21	4313
2026-01-25 01:30:45.08	358.80	22.68	-30.0	-31.5	13.4	2.32e-04	0	44	102	1048576	20	4251
2026-01-25 01:30:46.08	358.65	22.80	-30.2	-32.0	13.1	2.22e-04	0	44	102	1048576	20	4403
2026-01-25 01:30:47.08	358.49	22.92	-30.4	-32.5	12.8	4.57e-05	0	44	102	1048576	20	4591
2026-01-25 01:30:48.08	358.34	23.04	-30.7	-32.9	12.2	4.65e-05	0	44	102	1048576	21	4612
2026-01-25 01:30:49.09	358.19	23.16	-31.0	-33.2	11.7	6.37e-04	0	43	102	1048576	22	4652
2026-01-25 01:30:50.10	358.03	23.29	-30.9	-32.9	11.9	4.13e-04	0	44	102	1048576	22	4539
2026-01-25 01:30:51.10	357.87	23.41	-31.2	-33.9	11.2	6.18e-04	0	44	102	1048576	22	4889
2026-01-25 01:30:52.11	357.71	23.53	-31.1	-33.7	11.3	1.15e-03	0	44	102	1048576	22	4832
2026-01-25 01:30:53.11	357.55	23.66	-31.0	-33.2	11.7	1.03e-03	0	44	102	1048576	22	4623
2026-01-25 01:30:54.11	357.39	23.78	-31.1	-33.7	11.4	1.42e-03	0	43	102	1048576	22	4830
2026-01-25 01:30:55.11	357.23	23.90	-31.2	-34.0	11.1	1.43e-03	0	44	102	1048576	22	4946
2026-01-25 01:30:56.11	357.06	24.03	-31.3	-34.2	11.1	1.36e-03	0	44	102	1048576	22	5020
2026-01-25 01:30:57.11	356.90	24.15	-31.4	-34.6	10.7	2.65e-03	0	44	102	1048576	22	5189
2026-01-25 01:30:58.11	356.73	24.28	-31.1	-33.4	11.5	1.15e-03	0	44	102	1048576	22	4724
2026-01-25 01:30:59.11	356.56	24.40	-30.8	-33.2	12.0	2.63e-04	0	44	102	1048576	21	4729
2026-01-25 01:31:00.11	356.40	24.53	-30.5	-32.2	12.7	1.09e-04	0	44	102	1048576	21	4408
2026-01-25 01:31:01.11	356.22	24.66	-30.0	-30.9	13.6	3.73e-05	0	43	102	1048576	21	3983
2026-01-25 01:31:02.12	356.05	24.78	-30.1	-31.7	13.4	3.20e-05	0	44	102	1048576	20	4319
2026-01-25 01:31:03.12	355.88	24.91	-30.3	-32.2	13.1	2.67e-05	0	44	102	1048576	20	4478
2026-01-25 01:31:04.12	355.70	25.04	-30.4	-32.4	12.9	2.21e-05	0	44	102	1048576	20	4560
2026-01-25 01:31:05.13	355.53	25.17	-30.5	-32.2	12.7	7.09e-05	0	44	102	1048576	21	4399
2026-01-25 01:31:06.13	355.35	25.29	-30.5	-32.2	12.7	7.40e-05	0	44	102	1048576	21	4405
2026-01-25 01:31:07.13	355.17	25.42	-30.6	-32.6	12.5	1.16e-04	0	44	102	1048576	21	4526
2026-01-25 01:31:08.13	354.99	25.55	-30.7	-33.0	12.2	1.11e-04	0	44	102	1048576	21	4653
2026-01-25 01:31:09.14	354.80	25.68	-30.3	-31.9	12.8	1.25e-04	0	44	102	1048576	21	4364
2026-01-25 01:31:10.14	354.62	25.81	-30.6	-32.9	12.4	1.13e-04	0	44	102	1048576	20	4738
2026-01-25 01:31:11.13	354.44	25.94	-30.5	-32.3	12.1	1.14e-04	0	44	102	1048576	21	4438
2026-01-25 01:31:12.14	354.25	26.07	-30.6	-32.7	12.3	5.87e-05	0	44	102	1048576	21	4549
2026-01-25 01:31:13.14	354.06	26.20	-30.5	-32.7	12.3	1.04e-04	0	44	102	1048576	20	4656
2026-01-25 01:31:14.14	353.87	26.33	-30.1	-31.7	13.2	3.28e-05	0	43	102	1048576	20	4327
2026-01-25 01:31:15.15	353.68	26.46	-30.2	-31.9	13.2	2.89e-05	0	44	102	1048576	20	4407
2026-01-25 01:31:16.15	353.48	26.59	-30.2	-32.0	13.1	2.28e-05	0	44	102	1048576	20	4436
2026-01-25 01:31:17.16	353.29	26.72	-30.3	-32.4	13.0	6.10e-04	0	44	102	1048576	20	4540
2026-01-25 01:31:18.17	353.09	26.85	-30.4	-32.0	12.8	8.08e-05	0	44	102	1048576	21	4345
2026-01-25 01:31:19.18	352.89	26.98	-30.3	-31.8	12.9	5.56e-05	0	44	102	1048576	21	4261
2026-01-25 01:31:20.18	352.69	27.12	-30.6	-32.5	12.5	6.36e-04	0	44	102	1048576	21	4486
2026-01-25 01:31:21.19	352.49	27.25	-30.6	-32.7	12.3	1.56e-04	0	44	102	1048576	21	4574
2026-01-25 01:31:22.19	352.28	27.38	-30.9	-33.6	11.8	3.20e-04	0	44	102	1048576	21	4872
2026-01-25 01:31:23.20	352.08	27.51	-30.7	-32.8	12.4	2.84e-04	0	44	102	1048576	21	4588
2026-01-25 01:31:24.20	351.87	27.65	-30.6	-32.5	12.5	1.35e-04	0	44	102	1048576	21	4503
2026-01-25 01:31:25.21	351.66	27.78	-30.5	-32.6	12.8	9.91e-05	0	44	102	1048576	20	4634
2026-01-25 01:31:26.22	351.45	27.92	-30.5	-32.3	12.7	8.69e-05	0	44	102	1048576	21	4418
2026-01-25 01:31:27.22	351.24	28.05	-30.8	-33.1	12.2	2.66e-04	0	44	102	1048576	21	4694
2026-01-25 01:31:28.22	351.02	28.18	-30.8	-33.1	12.2	7.10e-04	0	44	102	1048576	21	4708
2026-01-25 01:31:29.23	350.80	28.32	-31.0	-33.7	11.8	3.28e-04	0	44	102	1048576	21	4902
2026-01-25 01:31:30.24	350.59	28.45	-31.1	-33.5	11.4	1.11e-03	0	44	102	1048576	22	4755
2026-01-25 01:31:31.24	350.37	28.59	-31.2	-33.7	11.4	2.01e-03	0	44	102	1048576	22	4838
2026-01-25 01:31:32.25	350.14	28.72	-31.4	-34.3	11.0	1.69e-03	0	44	102	1048576	22	5075
2026-01-25 01:31:33.26	349.92	28.86	-31.5	-34.4	10.5	2.78e-03	0	44	102	1048576	23	5017
2026-01-25 01:31:34.26	349.69	28.99	-31.6	-34.6	10.4	6.91e-03	0	44	102	1048576	23	5073
2026-01-25 01:31:35.26	349.47	29.13	-31.6	-34.6	10.4	7.53e-03	0	44	102	1048576	23	5090
2026-01-25 01:31:36.27	349.24	29.26	-31.7	-34.9	10.3	5.21e-03	0	44	102	1048576	23	5214
2026-01-25 01:31:37.27	349.00	29.40	-31.7	-35.0	10.1	5.44e-03	0	43	102	1048576	23	5271
2026-01-25 01:31:38.28	348.77	29.53	-31.5	-34.3	10.7	6.55e-03	0	44	102	1048576	23	4984
2026-01-25 01:31:39.28	348.53	29.67	-31.6	-34.6	10.4	5.06e-03	0	44	102	1048576	23	5084
2026-01-25 01:31:40.28	348.30	29.80	-31.5	-34.2	10.7	3.12e-03	0	44	102	1048576	23	4933
2026-01-25 01:31:41.28	348.06	29.94	-31.5	-34.4	10.6	4.37e-03	0	44	102	1048576	23	4996
2026-01-25 01:31:42.29	347.82	30.07	-31.5	-34.4	10.6	6.19e-03	0	44	102	1048576	23	5001
2026-01-25 01:31:43.30	347.57	30.21	-31.5	-34.4	10.5	3.09e-03	0	44	102	1048576	23	5001
2026-01-25 01:31:44.30	347.33	30.35	-31.9	-35.7	9.6	9.69e-03	0	44	102	1048576	23	5605
2026-01-25 01:31:45.30	347.08	30.48	-32.0	-35.7	9.2	1.53e-02	0	44	102	1048576	24	5530
2026-01-25 01:31:46.30	346.83	30.62	-32.1	-36.1	8.9	2.39e-02	0	44	102	1048576	24	5712
2026-01-25 01:31:47.31	346.58	30.75	-32.1	-35.9	9.1	2.77e-02	0	44	102	1048576	24	5575
2026-01-25 01:31:48.31	346.32	30.89	-31.9	-35.5	9.8	1.25e-02	0	44	102	1048576	23	5480
2026-01-25 01:31:49.31	346.07	31.03	-31.6	-34.6	10.4	5.33e-03	0	44	102	1048576	23	5068
2026-01-25 01:31:50.32	345.81	31.16	-31.4	-33.9	11.0	2.71e-03	0	44	102	1048576	23	4781
2026-01-25 01:31:51.33	345.55	31.30	-31.4	-34.3	11.1	3.29e-03	0	44	102	1048576	22	5043
2026-01-25 01:31:52.32	345.29	31.43	-31.1	-33.5	11.6	1.44e-03	0	44	102	1048576	22	4738
2026-01-25 01:31:53.32	345.02	31.57	-31.3	-34.0	11.3	2.45e-03	0	44	102	1048576	22	4901
2026-01-25 01:31:54.32	344.76	31.70	-31.7	-34.7	10.5	2.17e-03	0	44	102	1048576	23	5110
2026-01-25 01:31:55.33	344.48	31.84	-31.8	-35.2	10.1	3.03e-03	0	44	102	1048576	23	5309
2026-01-25 01:31:56.33	344.21	31.97	-31.8	-35.3	10.0	8.29e-03	0	44	102	1048576	23	5366
2026-01-25 01:31:57.34	343.94	32.11	-31.6	-34.4	10.6	7.87e-03	0	44	102	1048576	23	4983
2026-01-25 01:31:58.34	343.66	32.25	-31.5	-34.3	10.7	4.63e-03	0	44	102	1048576	23	4943
2026-01-25 01:31:59.35	343.38	32.38	-31.3	-33.9	11.4	2.19e-03	0	44	102	1048576	22	4886
2026-01-25 01:32:00.35	343.10	32.52	-30.9	-32.7	12.2	1.03e-03	0	44	102	1048576	22	4444
2026-01-25 01:32:01.34	342.82	32.65	-31.0	-33.1	11.9	4.02e-04	0	44	102	1048576	22	4595
2026-01-25 01:32:02.34	342.53	32.78	-31.0	-33.2	11.8	1.29e-03	0	44	102	1048576	22	4614
2026-01-25 01:32:03.35	342.24	32.92	-31.0	-33.0	12.0	6.17e-04	0	44	102	1048576	22	4553
2026-01-25 01:32:04.35	341.95	33.05	-31.0	-33.3	11.8	5.19e-04	0	44	102	1048576	22	4660
2026-01-25 01:32:05.36	341.66	33.19	-31.4	-34.6	10.9	1.75e-03	0	44	102	1048576	22	5166
2026-01-25 01:32:06.36	341.36	33.32	-31.5	-34.7	10.7	2.26e-03	0	44	102	1048576	22	5236
2026-01-25 01:32:07.37	341.06	33.45	-31.6	-34.5	10.6	4.62e-03	0	44	102	1048576	23	5041
2026-01-25 01:32:08.37	340.76	33.59	-31.5	-34.0	10.8	2.91e-03	0	44	102	1048576	23	4855
2026-01-25 01:32:09.38	340.46	33.72	-31.3	-33.4	11.3	1.71e-03	0	44	102	1048576	23	4598
2026-01-25 01:32:10.39	340.15	33.85	-31.0	-33.1	12.0	1.46e-03	0	44	102	1048576	22	4573
2026-01-25 01:32:11.39	339.84	33.98	-31.0	-33.0	12.0	4.78e-04	0	44	102	1048576	22	4561
2026-01-25 01:32:12.40	339.53	34.12	-31.1	-33.4	11.8	5.14e-04	0	44	102	1048576	22	4674
2026-01-25 01:32:13.40	339.22	34.25	-31.0	-33.2	11.8	1.30e-03	0	44	102	1048576	22	4629
2026-01-25 01:32:14.41	338.90	34.38	-30.9	-33.4	12.1	2.65e-04	0	44	102	1048576	21	4781
2026-01-25 01:32:15.41	338.58	34.51	-31.1	-33.5	11.7	5.01e-04	0	44	102	1048576	22	4729
2026-01-25 01:32:16.42	338.26	34.64	-31.1	-33.5	11.8	1.65e-03	0	44	102	1048576	22	4712
2026-01-25 01:32:17.42	337.94	34.77	-31.2	-33.7	11.6	7.45e-04	0	44	102	1048576	22	4784
2026-01-25 01:32:18.42	337.61	34.90	-31.0	-33.2	11.8	4.78e-04	0	44	102	1048576	22	4638
2026-01-25 01:32:19.43	337.28	35.02	-30.9	-33.3	12.1	2.91e-04	0	44	102	1048576	21	4752
2026-01-25 01:32:20.44	336.95	35.15	-31.0	-33.1	11.9	1.61e-03	0	44	102	1048576	22	4615
2026-01-25 01:32:21.45	336.61	35.28	-31.0	-33.7	11.7	2.94e-04	0	44	102	1048576	21	4914
2026-01-25 01:32:22.45	336.28	35.41	-31.2	-33.8	11.3	8.14e-04	0	44	102	1048576	22	4857
2026-01-25 01:32:23.45	335.94	35.53	-31.4	-34.7	10.8	2.00e-03	0	44	102	1048576	22	5235
2026-01-25 01:32:24.45	335.60	35.66	-31.6	-35.0	10.0	6.34e-03	0	44	102	1048576	23	5299
2026-01-25 01:32:25.46	335.25	35.78	-31.9	-36.1	9.2	1.51e-02	0	44	102	1048576	23	5809
2026-01-25 01:32:26.46	334.90	35.91	-32.2	-37.0	8.1	2.96e-02	0	44	102	1048576	24	6201
2026-01-25 01:32:27.47	334.55	36.03	-32.0	-35.9	9.0	2.72e-02	0	44	102	1048576	24	5625
2026-01-25 01:32:28.47	334.20	36.15	-31.8	-35.7	9.5	1.55e-02	0	44	102	1048576	23	5641
2026-01-25 01:32:29.47	333.85	36.27	-31.7	-35.2	10.0	1.44e-02	0	44	102	1048576	23	5358
2026-01-25 01:32:30.48	333.49	36.39	-31.8	-35.6	9.7	8.14e-03	0	44	102	1048576	23	5524
2026-01-25 01:32:31.48	333.13	36.51	-31.9	-35.7	9.5	1.39e-02	0	44	102	1048576	23	5577
2026-01-25 01:32:32.48	332.76	36.63	-31.9	-36.0	9.4	1.26e-02	0	44	102	1048576	23	5714
2026-01-25 01:32:33.49	332.40	36.75	-31.9	-35.8	9.5	1.42e-02	0	44	102	1048576	23	5632
2026-01-25 01:32:34.50	332.02	36.87	-31.5	-34.5	10.6	6.11e-03	0	44	102	1048576	23	5044
2026-01-25 01:32:35.51	331.65	36.98	-30.9	-34.3	10.0	5.23e-03	0	44	102	1048576	23	5334
2026-01-25 01:32:36.51	331.28	37.10	-31.5	-34.4	10.6	5.03e-03	0	44	102	1048576	23	4996
2026-01-25 01:32:37.51	330.90	37.21	-31.4	-34.5	10.6	1.73e-03	0	44	102	1048576	22	5155
2026-01-25 01:32:38.52	330.52	37.33	-31.5	-34.4	10.7	3.84e-03	0	44	102	1048576	23	5022
2026-01-25 01:32:39.51	330.14	37.44	-32.0	-35.9	9.6	7.48e-03	0	44	102	1048576	23	5663
2026-01-25 01:32:40.52	329.76	37.55	-31.6	-34.3	10.3	1.23e-02	0	44	102	1048576	24	4876
2026-01-25 01:32:41.53	329.37	37.66	-31.5	-34.5	10.6	2.99e-03	0	44	102	1048576	23	5056
2026-01-25 01:32:42.54	328.97	37.77	-31.1	-33.2	11.4	1.11e-03	0	44	102	1048576	23	4557
2026-01-25 01:32:43.54	328.58	37.88	-30.7	-33.0	12.2	2.43e-04	0	44	102	1048576	21	4666
2026-01-25 01:32:44.55	328.18	37.98	-30.6	-32.7	12.4	1.19e-03	0	44	102	1048576	21	4556
2026-01-25 01:32:45.55	327.79	38.09	-30.8	-33.1	12.0	1.66e-04	0	44	102	1048576	21	4722
2026-01-25 01:32:46.56	327.38	38.19	-30.8	-33.4	11.9	2.01e-04	0	44	102	1048576	21	4834
2026-01-25 01:32:47.57	326.98	38.29	-30.6	-32.6	12.4	1.80e-03	0	44	102	1048576	21	4564
2026-01-25 01:32:48.58	326.57	38.40	-31.0	-33.5	11.6	3.44e-04	0	44	102	1048576	22	4763
2026-01-25 01:32:49.58	326.16	38.50	-31.0	-33.7	11.7	4.84e-04	0	44	102	1048576	21	4949
2026-01-25 01:32:50.59	325.75	38.59	-30.7	-33.1	12.1	4.68e-04	0	44	102	1048576	21	4715
2026-01-25 01:32:51.59	325.34	38.69	-30.6	-32.6	12.4	1.86e-03	0	44	102	1048576	21	4557
2026-01-25 01:32:52.60	324.92	38.79	-30.6	-32.8	12.3	1.57e-04	0	44	102	1048576	21	4612
2026-01-25 01:32:53.60	324.50	38.88	-30.4	-32.1	12.9	1.40e-04	0	44	102	1048576	21	4360
2026-01-25 01:32:54.60	324.09	38.97	-30.2	-32.0	13.2	2.20e-03	0	44	102	1048576	20	4439
2026-01-25 01:32:55.61	323.66	39.07	-30.4	-32.5	12.9	3.35e-03	0	44	102	1048576	20	4611
2026-01-25 01:32:56.62	323.23	39.16	-30.0	-31.6	13.4	2.89e-05	0	44	102	1048576	20	4302
2026-01-25 01:32:57.63	322.80	39.24	-29.8	-31.6	13.8	1.24e-03	0	44	102	1048576	19	4389
2026-01-25 01:32:58.63	322.37	39.33	-29.8	-31.4	13.9	2.30e-03	0	44	102	1048576	19	4327
2026-01-25 01:32:59.64	321.94	39.42	-29.9	-31.8	13.6	8.57e-04	0	44	102	1048576	19	4470
2026-01-25 01:33:00.65	321.50	39.50	-30.2	-32.1	13.1	1.52e-05	0	44	102	1048576	20	4494
2026-01-25 01:33:01.65	321.07	39.58	-30.3	-32.4	12.9	1.24e-03	0	44	102	1048576	20	4593
2026-01-25 01:33:02.65	320.63	39.66	-29.8	-31.1	13.7	4.38e-04	0	44	102	1048576	20	4166
2026-01-25 01:33:03.66	320.18	39.74	-29.2	-30.0	14.7	2.20e-06	0	44	102	1048576	19	3940
2026-01-25 01:33:04.66	319.74	39.81	-29.0	-29.9	15.1	7.73e-04	0	44	102	1048576	18	3994
2026-01-25 01:33:05.67	319.29	39.89	-28.9	-29.6	15.3	3.16e-04	0	44	102	1048576	18	3911
2026-01-25 01:33:06.67	318.85	39.96	-29.1	-30.0	15.1	9.30e-05	0	44	102	1048576	18	4021
2026-01-25 01:33:07.68	318.40	40.03	-29.5	-30.7	14.3	4.65e-04	0	44	102	1048576	19	4132
2026-01-25 01:33:08.68	317.95	40.10	-29.6	-31.0	14.2	4.91e-04	0	44	102	1048576	19	4214
2026-01-25 01:33:09.69	317.49	40.17	-29.2	-29.7	15.0	9.90e-06	0	44	102	1048576	19	3850
2026-01-25 01:33:10.70	317.03	40.23	-29.0	-29.7	15.3	4.08e-04	0	44	102	1048576	18	3935
2026-01-25 01:33:11.70	316.58	40.29	-29.3	-30.5	14.8	2.75e-04	0	44	102	1048576	18	4156
2026-01-25 01:33:12.71	316.12	40.36	-29.6	-30.7	14.4	1.98e-04	0	44	102	1048576	19	4121
2026-01-25 01:33:13.71	315.66	40.41	-30.0	-31.4	13.6	2.51e-04	0	44	102	1048576	20	4240
2026-01-25 01:33:14.72	315.19	40.47	-30.4	-32.6	12.7	7.32e-05	0	44	102	1048576	20	4647
2026-01-25 01:33:15.72	314.73	40.53	-30.2	-31.9	13.2	3.20e-05	0	44	102	1048576	20	4411
2026-01-25 01:33:16.73	314.26	40.58	-30.0	-31.5	13.5	7.37e-04	0	44	102	1048576	20	4271
2026-01-25 01:33:17.73	313.80	40.63	-29.9	-31.2	13.9	3.00e-06	0	44	102	1048576	20	4165
2026-01-25 01:33:18.73	313.33	40.68	-30.1	-31.7	13.5	1.51e-03	0	44	102	1048576	20	4309
2026-01-25 01:33:19.73	312.86	40.73	-30.1	-31.7	13.4	2.18e-03	0	44	102	1048576	20	4307
2026-01-25 01:33:20.74	312.39	40.77	-30.1	-31.6	13.5	7.74e-04	0	44	102	1048576	20	4297
2026-01-25 01:33:21.74	311.92	40.81	-30.2	-32.0	13.3	1.48e-03	0	44	102	1048576	20	4411
2026-01-25 01:33:22.74	311.45	40.85	-30.2	-31.8	13.4	1.95e-03	0	44	102	1048576	20	4363
2026-01-25 01:33:23.74	310.97	40.89	-29.8	-30.9	14.0	1.00e-03	0	44	102	1048576	20	4082
2026-01-25 01:33:24.75	310.49	40.93	-29.8	-31.4	14.0	6.80e-06	0	44	102	1048576	19	4305
2026-01-25 01:33:25.76	310.01	40.96	-30.0	-31.7	13.9	1.60e-03	0	44	102	1048576	19	4398
2026-01-25 01:33:26.76	309.54	40.99	-29.7	-31.1	14.2	1.25e-03	0	44	102	1048576	19	4224
2026-01-25 01:33:27.76	309.06	41.02	-29.5	-30.6	14.5	2.01e-03	0	44	102	1048576	19	4072
2026-01-25 01:33:28.76	308.58	41.05	-29.5	-30.6	14.5	3.26e-04	0	44	102	1048576	19	4087
2026-01-25 01:33:29.77	308.10	41.07	-29.1	-30.0	15.2	9.06e-04	0	44	102	1048576	18	3997
2026-01-25 01:33:30.77	307.62	41.09	-29.0	-29.7	15.5	1.91e-03	0	44	102	1048576	18	3911
2026-01-25 01:33:31.77	307.14	41.11	-29.4	-30.9	14.7	0.00e+00	0	44	102	1048576	18	4254
2026-01-25 01:33:32.77	306.66	41.13	-29.7	-31.1	14.3	1.50e-06	0	44	102	1048576	19	4212
2026-01-25 01:33:33.78	306.17	41.15	-30.1	-31.7	13.5	1.09e-03	0	44	102	1048576	20	4325
2026-01-25 01:33:34.78	305.69	41.16	-29.7	-30.7	14.1	5.30e-06	0	44	102	1048576	20	4013
2026-01-25 01:33:35.78	305.21	41.17	-29.9	-31.4	14.1	0.00e+00	0	44	102	1048576	19	4317
2026-01-25 01:33:36.79	304.72	41.18	-29.9	-31.5	14.0	1.27e-03	0	44	102	1048576	19	4328
2026-01-25 01:33:37.79	304.24	41.19	-29.9	-31.5	14.0	1.16e-03	0	44	102	1048576	19	4353
2026-01-25 01:33:38.79	303.76	41.19	-29.8	-30.8	14.0	2.20e-06	0	44	102	1048576	20	4064
2026-01-25 01:33:39.79	303.28	41.19	-29.8	-31.0	13.9	2.99e-04	0	44	102	1048576	20	4098
2026-01-25 01:33:40.79	302.79	41.19	-30.3	-32.3	13.1	2.59e-04	0	44	102	1048576	20	4527
2026-01-25 01:33:41.80	302.31	41.19	-30.6	-32.5	12.5	5.18e-05	0	44	102	1048576	21	4515
2026-01-25 01:33:42.80	301.83	41.18	-30.0	-31.5	13.5	1.83e-05	0	44	102	1048576	20	4252
2026-01-25 01:33:43.80	301.34	41.18	-29.8	-30.9	13.9	7.45e-04	0	44	102	1048576	20	4077
2026-01-25 01:33:44.81	300.86	41.17	-30.1	-31.7	13.5	8.30e-06	0	44	102	1048576	20	4327
2026-01-25 01:33:45.81	300.37	41.15	-30.5	-32.7	12.7	3.96e-05	0	44	102	1048576	20	4680
2026-01-25 01:33:46.82	299.89	41.14	-30.6	-32.7	12.5	1.02e-04	0	44	102	1048576	21	4565
2026-01-25 01:33:47.83	299.40	41.12	-30.3	-31.7	13.1	3.28e-05	0	44	102	1048576	21	4233
2026-01-25 01:33:48.83	298.92	41.10	-30.3	-31.9	12.8	4.11e-05	0	44	102	1048576	21	4303
2026-01-25 01:33:49.83	298.44	41.08	-30.7	-33.1	12.1	1.59e-04	0	44	102	1048576	21	4725
2026-01-25 01:33:50.84	297.96	41.06	-31.2	-33.9	11.3	6.10e-04	0	44	102	1048576	22	4933
2026-01-25 01:33:51.83	297.49	41.03	-31.4	-34.6	10.7	2.64e-03	0	43	102	1048576	22	5207
2026-01-25 01:33:52.83	297.01	41.00	-31.8	-35.5	9.6	7.70e-03	0	44	102	1048576	23	5547
2026-01-25 01:33:53.84	296.53	40.97	-31.6	-34.9	10.1	1.26e-02	0	44	102	1048576	23	5278
2026-01-25 01:33:54.84	296.05	40.94	-30.9	-32.7	11.5	2.56e-03	0	44	102	1048576	23	4406
2026-01-25 01:33:55.85	295.57	40.91	-30.5	-31.9	12.5	3.01e-04	0	44	102	1048576	22	4232
2026-01-25 01:33:56.85	295.10	40.87	-31.0	-33.2	11.6	2.05e-04	0	44	102	1048576	22	4660
2026-01-25 01:33:57.86	294.62	40.83	-31.6	-34.9	10.2	2.49e-03	0	44	102	1048576	23	5261
2026-01-25 01:33:58.86	294.15	40.79	-31.8	-35.7	9.4	1.52e-02	0	44	102	1048576	23	5633
2026-01-25 01:33:59.85	293.68	40.74	-31.7	-35.3	9.7	1.47e-02	0	44	102	1048576	23	5447
2026-01-25 01:34:00.86	293.21	40.70	-31.9	-35.5	9.2	2.16e-02	0	44	102	1048576	24	5438
2026-01-25 01:34:01.86	292.74	40.65	-31.4	-34.4	10.4	1.02e-02	0	44	102	1048576	23	5050
2026-01-25 01:34:02.87	292.27	40.60	-31.1	-33.3	11.2	2.82e-03	0	44	102	1048576	23	4634
2026-01-25 01:34:03.88	291.80	40.55	-31.5	-34.6	10.2	2.58e-03	0	44	102	1048576	23	5167
2026-01-25 01:34:04.88	291.34	40.49	-32.1	-36.3	8.4	2.15e-02	0	44	102	1048576	24	5868
2026-01-25 01:34:05.89	290.87	40.44	-32.1	-36.4	8.6	3.81e-02	0	44	102	1048576	24	5927
2026-01-25 01:34:06.89	290.41	40.38	-32.2	-36.7	8.3	4.43e-02	0	44	102	1048576	24	6051
2026-01-25 01:34:07.90	289.95	40.32	-31.9	-36.0	9.2	5.76e-02	0	44	102	1048576	23	5778
2026-01-25 01:34:08.90	289.49	40.26	-31.9	-35.7	9.0	2.66e-02	0	44	102	1048576	24	5578
2026-01-25 01:34:09.90	289.04	40.19	-31.5	-34.9	10.0	1.75e-02	0	44	102	1048576	23	5272
2026-01-25 01:34:10.91	288.58	40.13	-31.4	-34.4	10.2	8.47e-03	0	44	102	1048576	23	5062
2026-01-25 01:34:11.90	288.13	40.06	-31.3	-34.1	10.5	3.48e-03	0	44	102	1048576	23	4966
2026-01-25 01:34:12.91	287.68	39.99	-31.9	-36.1	9.2	5.32e-03	0	44	102	1048576	23	5865
2026-01-25 01:34:13.91	287.23	39.92	-31.8	-35.8	9.2	1.98e-02	0	44	102	1048576	23	5695
2026-01-25 01:34:14.92	286.78	39.84	-32.0	-36.4	8.3	5.58e-02	0	44	102	1048576	24	5971
2026-01-25 01:34:15.92	286.34	39.77	-31.7	-35.3	9.1	4.72e-02	0	44	102	1048576	24	5439
2026-01-25 01:34:16.93	285.90	39.69	-31.5	-34.5	9.7	1.76e-02	0	44	102	1048576	24	5081
2026-01-25 01:34:17.93	285.46	39.61	-31.0	-33.2	11.1	3.57e-03	0	44	102	1048576	23	4640
2026-01-25 01:34:18.92	285.02	39.53	-31.1	-33.4	11.0	2.74e-03	0	44	102	1048576	23	4707
2026-01-25 01:34:19.93	284.59	39.45	-30.8	-32.7	11.5	1.17e-03	0	44	102	1048576	23	4470
2026-01-25 01:34:20.94	284.15	39.36	-30.3	-31.9	12.7	4.52e-04	0	44	102	1048576	21	4363
2026-01-25 01:34:21.95	283.71	39.28	-30.0	-31.3	13.1	3.15e-04	0	44	102	1048576	21	4164
2026-01-25 01:34:22.95	283.29	39.19	-30.2	-32.2	12.8	3.35e-04	0	44	102	1048576	20	4541
2026-01-25 01:34:23.96	282.86	39.10	-30.1	-31.9	13.0	4.04e-05	0	44	102	1048576	20	4438
2026-01-25 01:34:24.96	282.43	39.01	-30.1	-31.9	13.0	3.12e-05	0	44	102	1048576	20	4444
2026-01-25 01:34:25.96	282.01	38.92	-29.7	-31.3	13.8	6.64e-04	0	44	102	1048576	19	4312
2026-01-25 01:34:26.97	281.59	38.82	-29.5	-31.1	14.2	4.50e-06	0	44	102	1048576	18	4365
2026-01-25 01:34:27.97	281.17	38.73	-28.7	-29.8	15.4	0.00e+00	0	44	102	1048576	17	4088
2026-01-25 01:34:28.97	280.76	38.63	-28.9	-29.3	15.8	4.18e-04	0	44	102	1048576	18	3782
2026-01-25 01:34:29.97	280.35	38.54	-28.7	-29.5	15.8	4.92e-04	0	44	102	1048576	17	3922
2026-01-25 01:34:30.98	279.94	38.44	-28.6	-29.1	16.0	2.71e-04	0	44	102	1048576	17	3837
2026-01-25 01:34:31.98	279.53	38.34	-28.8	-29.8	15.7	2.53e-04	0	44	102	1048576	17	4007
2026-01-25 01:34:32.98	279.13	38.23	-28.9	-30.0	15.6	9.23e-05	0	44	102	1048576	17	4066
2026-01-25 01:34:33.98	278.73	38.13	-29.0	-29.8	15.4	2.90e-04	0	44	102	1048576	18	3912
2026-01-25 01:34:34.99	278.32	38.03	-29.1	-29.8	15.4	0.00e+00	0	44	102	1048576	18	3919
2026-01-25 01:34:35.99	277.93	37.92	-28.9	-30.0	15.5	6.70e-04	0	44	102	1048576	17	4080
2026-01-25 01:34:37.00	277.53	37.81	-28.8	-29.2	15.7	1.29e-03	0	44	102	1048576	18	3757
2026-01-25 01:34:38.00	277.14	37.70	-28.5	-28.5	16.1	3.81e-05	0	44	102	1048576	18	3587
2026-01-25 01:34:39.01	276.75	37.59	-28.5	-29.0	16.2	1.13e-03	0	44	102	1048576	17	3804
2026-01-25 01:34:40.02	276.36	37.48	-29.0	-29.7	15.4	5.19e-04	0	44	102	1048576	18	3892
2026-01-25 01:34:41.02	275.98	37.37	-29.9	-31.4	14.2	0.00e+00	0	44	102	1048576	19	4295
2026-01-25 01:34:42.02	275.60	37.26	-30.4	-32.3	13.1	4.18e-04	0	44	102	1048576	20	4488
2026-01-25 01:34:43.02	275.22	37.14	-30.3	-32.2	13.2	9.55e-04	0	44	102	1048576	20	4450
2026-01-25 01:34:44.02	274.84	37.03	-30.2	-31.8	13.4	1.29e-05	0	44	102	1048576	20	4317
2026-01-25 01:34:45.03	274.47	36.91	-30.2	-31.8	13.5	1.60e-05	0	44	102	1048576	20	4328
2026-01-25 01:34:46.03	274.10	36.80	-30.0	-31.3	13.8	1.38e-03	0	44	102	1048576	20	4158
2026-01-25 01:34:47.04	273.73	36.68	-30.0	-31.3	13.7	1.33e-04	0	44	102	1048576	20	4162
2026-01-25 01:34:48.03	273.37	36.56	-30.4	-32.2	13.3	1.65e-04	0	44	102	1048576	20	4463
2026-01-25 01:34:49.04	273.00	36.44	-30.2	-31.8	13.4	3.35e-05	0	44	102	1048576	20	4340
2026-01-25 01:34:50.04	272.64	36.32	-30.7	-32.5	12.6	1.99e-04	0	44	102	1048576	21	4474
2026-01-25 01:34:51.04	272.29	36.20	-30.4	-31.9	13.0	6.54e-04	0	44	102	1048576	21	4275
2026-01-25 01:34:52.05	271.93	36.08	-30.4	-31.9	13.0	1.35e-03	0	44	102	1048576	21	4283
2026-01-25 01:34:53.05	271.58	35.95	-30.3	-31.6	13.2	4.27e-05	0	44	102	1048576	21	4173
2026-01-25 01:34:54.06	271.23	35.83	-30.3	-31.6	13.2	1.22e-03	0	44	102	1048576	21	4176
2026-01-25 01:34:55.07	270.88	35.70	-30.3	-32.1	13.2	1.29e-03	0	44	102	1048576	20	4418
2026-01-25 01:34:56.07	270.53	35.58	-29.6	-30.3	14.3	7.00e-07	0	44	102	1048576	20	3895
2026-01-25 01:34:57.08	270.19	35.45	-29.2	-29.8	15.0	4.65e-04	0	44	102	1048576	19	3821
2026-01-25 01:34:58.09	269.85	35.33	-29.4	-30.6	14.9	1.16e-03	0	44	102	1048576	18	4156
2026-01-25 01:34:59.09	269.51	35.20	-30.0	-31.3	13.8	2.20e-06	0	44	102	1048576	20	4190
2026-01-25 01:35:00.10	269.18	35.07	-30.6	-32.3	12.7	9.26e-04	0	44	102	1048576	21	4415
2026-01-25 01:35:01.10	268.85	34.94	-30.6	-32.4	12.6	2.22e-03	0	44	102	1048576	21	4446
2026-01-25 01:35:02.11	268.52	34.81	-30.4	-31.7	13.1	1.12e-03	0	44	102	1048576	21	4223
2026-01-25 01:35:03.12	268.19	34.68	-30.1	-31.5	13.5	1.22e-05	0	44	102	1048576	20	4249
2026-01-25 01:35:04.12	267.87	34.55	-30.3	-32.1	13.1	1.35e-03	0	44	102	1048576	20	4446
2026-01-25 01:35:05.12	267.55	34.42	-30.5	-32.1	12.9	1.36e-03	0	44	102	1048576	21	4323
2026-01-25 01:35:06.12	267.23	34.29	-30.6	-32.4	12.7	6.48e-05	0	44	102	1048576	21	4432
2026-01-25 01:35:07.13	266.91	34.16	-30.4	-32.3	13.1	1.79e-03	0	44	102	1048576	20	4487
2026-01-25 01:35:08.13	266.60	34.03	-30.5	-32.1	12.8	1.74e-03	0	44	102	1048576	21	4344
2026-01-25 01:35:09.14	266.29	33.90	-30.6	-32.3	12.7	4.11e-05	0	44	102	1048576	21	4411
2026-01-25 01:35:10.14	265.98	33.77	-30.9	-33.3	12.0	2.51e-04	0	44	102	1048576	21	4739
2026-01-25 01:35:11.14	265.68	33.63	-30.6	-32.4	12.6	1.58e-04	0	44	102	1048576	21	4449
2026-01-25 01:35:12.13	265.38	33.50	-30.7	-32.8	12.4	2.34e-03	0	44	102	1048576	21	4567
2026-01-25 01:35:13.14	265.08	33.37	-31.1	-33.4	11.7	3.33e-04	0	44	102	1048576	22	4690
2026-01-25 01:35:14.15	264.78	33.23	-31.3	-34.0	11.3	6.63e-04	0	44	102	1048576	22	4932
2026-01-25 01:35:15.15	264.48	33.10	-31.1	-33.5	11.6	2.63e-03	0	44	102	1048576	22	4714
2026-01-25 01:35:16.15	264.19	32.96	-31.1	-33.5	11.6	1.04e-03	0	44	102	1048576	22	4714
2026-01-25 01:35:17.16	263.90	32.83	-30.9	-32.9	11.9	3.04e-04	0	44	102	1048576	22	4506
2026-01-25 01:35:18.16	263.61	32.69	-31.1	-33.5	11.6	2.01e-03	0	44	102	1048576	22	4719
2026-01-25 01:35:19.17	263.32	32.56	-31.5	-34.6	10.8	1.99e-03	0	44	102	1048576	22	5141
2026-01-25 01:35:20.17	263.04	32.42	-31.6	-34.5	10.4	4.36e-03	0	44	102	1048576	23	5038
2026-01-25 01:35:21.17	262.76	32.29	-31.2	-33.6	11.4	1.66e-03	0	44	102	1048576	22	4776
2026-01-25 01:35:22.17	262.48	32.15	-30.8	-32.5	12.1	2.15e-03	0	44	102	1048576	22	4387
2026-01-25 01:35:23.18	262.21	32.02	-30.6	-32.6	12.5	1.16e-04	0	44	102	1048576	21	4513
2026-01-25 01:35:24.18	261.93	31.88	-30.7	-32.8	12.3	1.11e-04	0	44	102	1048576	21	4588
2026-01-25 01:35:25.19	261.66	31.74	-30.9	-32.9	11.9	1.12e-03	0	44	102	1048576	22	4527
2026-01-25 01:35:26.20	261.39	31.61	-30.5	-32.2	12.7	1.31e-04	0	44	102	1048576	21	4367
2026-01-25 01:35:27.20	261.12	31.47	-30.4	-31.9	13.0	5.49e-05	0	44	102	1048576	21	4266
2026-01-25 01:35:28.21	260.86	31.33	-30.2	-31.8	13.3	2.28e-05	0	44	102	1048576	20	4339
2026-01-25 01:35:29.21	260.59	31.20	-30.3	-32.1	13.2	2.13e-05	0	44	102	1048576	20	4436
2026-01-25 01:35:30.22	260.33	31.06	-30.3	-32.3	12.9	2.82e-05	0	44	102	1048576	20	4497
2026-01-25 01:35:31.23	260.07	30.92	-30.6	-32.6	12.4	1.43e-04	0	44	102	1048576	21	4503
2026-01-25 01:35:32.23	259.82	30.79	-30.9	-33.3	12.0	1.39e-04	0	44	102	1048576	21	4751
2026-01-25 01:35:33.24	259.56	30.65	-31.3	-34.0	11.1	9.31e-04	0	44	102	1048576	22	4905
2026-01-25 01:35:34.24	259.31	30.52	-31.6	-34.5	10.4	2.38e-03	0	44	102	1048576	23	5041
2026-01-25 01:35:35.24	259.06	30.38	-32.0	-35.6	9.3	1.04e-02	0	44	102	1048576	24	5422
2026-01-25 01:35:36.24	258.81	30.24	-32.1	-36.0	8.9	2.59e-02	0	44	102	1048576	24	5656
2026-01-25 01:35:37.24	258.57	30.11	-31.8	-35.4	9.7	1.89e-02	0	44	102	1048576	23	5459
2026-01-25 01:35:38.25	258.33	29.97	-31.4	-33.9	10.7	6.05e-03	0	44	102	1048576	23	4822
2026-01-25 01:35:39.25	258.08	29.83	-31.4	-34.5	10.7	2.37e-03	0	44	102	1048576	22	5129
2026-01-25 01:35:40.25	257.85	29.70	-31.3	-34.2	10.9	2.37e-03	0	44	102	1048576	22	5013
2026-01-25 01:35:41.26	257.61	29.56	-31.3	-34.0	11.1	1.87e-03	0	44	102	1048576	22	4928
2026-01-25 01:35:42.27	257.37	29.43	-31.0	-33.3	11.4	1.39e-03	0	44	102	1048576	22	4662
2026-01-25 01:35:43.27	257.14	29.29	-30.9	-33.0	11.8	5.69e-04	0	44	102	1048576	22	4561
2026-01-25 01:35:44.27	256.91	29.15	-30.8	-33.0	11.9	5.04e-04	0	44	102	1048576	21	4656
2026-01-25 01:35:45.28	256.68	29.02	-30.6	-32.6	12.1	1.94e-04	0	44	102	1048576	21	4528
2026-01-25 01:35:46.28	256.45	28.88	-30.4	-32.0	12.8	1.51e-04	0	44	102	1048576	21	4329
2026-01-25 01:35:47.29	256.22	28.75	-30.7	-32.9	12.1	1.98e-04	0	44	102	1048576	21	4626
2026-01-25 01:35:48.30	256.00	28.61	-30.7	-32.7	12.3	2.38e-04	0	44	102	1048576	21	4575
2026-01-25 01:35:49.30	255.78	28.48	-30.6	-32.6	12.4	2.42e-04	0	44	102	1048576	21	4524
2026-01-25 01:35:50.30	255.56	28.34	-30.6	-32.5	12.4	2.09e-04	0	44	102	1048576	21	4480
2026-01-25 01:35:51.31	255.34	28.21	-30.0	-31.5	13.4	3.89e-05	0	44	102	1048576	20	4249
2026-01-25 01:35:52.31	255.12	28.07	-29.8	-30.7	13.9	1.14e-05	0	44	102	1048576	20	4023
2026-01-25 01:35:53.31	254.91	27.94	-29.9	-31.4	13.8	5.49e-04	0	44	102	1048576	19	4317
2026-01-25 01:35:54.31	254.70	27.81	-30.2	-31.8	13.2	9.10e-06	0	44	102	1048576	20	4356
2026-01-25 01:35:55.32	254.49	27.67	-30.2	-31.9	13.1	2.51e-05	0	44	102	1048576	20	4395
2026-01-25 01:35:56.32	254.28	27.54	-30.4	-32.1	12.6	4.09e-04	0	44	102	1048576	21	4351
2026-01-25 01:35:57.33	254.07	27.40	-30.1	-31.8	13.2	2.10e-04	0	44	102	1048576	20	4337
2026-01-25 01:35:58.33	253.87	27.27	-30.4	-32.4	12.9	2.39e-04	0	44	102	1048576	20	4528
2026-01-25 01:35:59.34	253.66	27.14	-30.3	-32.3	12.9	6.02e-05	0	44	102	1048576	20	4523
2026-01-25 01:36:00.35	253.46	27.00	-30.2	-31.9	13.1	1.18e-03	0	44	102	1048576	20	4372
2026-01-25 01:36:01.36	253.26	26.87	-30.0	-31.3	13.5	2.96e-04	0	44	102	1048576	20	4190
2026-01-25 01:36:02.36	253.06	26.74	-29.9	-31.2	13.6	1.75e-05	0	44	102	1048576	20	4171
2026-01-25 01:36:03.36	252.86	26.61	-29.8	-31.3	13.9	2.16e-03	0	44	102	1048576	19	4278
2026-01-25 01:36:04.37	252.67	26.48	-29.6	-30.7	14.2	2.02e-04	0	44	102	1048576	19	4114
2026-01-25 01:36:05.38	252.47	26.34	-29.7	-31.0	14.1	4.50e-06	0	44	102	1048576	19	4201
2026-01-25 01:36:06.38	252.28	26.21	-29.6	-30.7	14.2	1.81e-03	0	44	102	1048576	19	4107
2026-01-25 01:36:07.38	252.09	26.08	-29.6	-30.7	14.2	1.69e-04	0	44	102	1048576	19	4113
2026-01-25 01:36:08.38	251.90	25.95	-29.6	-30.8	14.2	2.20e-06	0	44	102	1048576	19	4117
2026-01-25 01:36:09.37	251.72	25.82	-29.6	-30.9	14.1	1.14e-04	0	44	102	1048576	19	4169
2026-01-25 01:36:10.38	251.53	25.69	-29.8	-31.2	14.0	1.09e-04	0	44	102	1048576	19	4249
2026-01-25 01:36:11.39	251.35	25.56	-29.9	-31.5	13.7	3.35e-05	0	44	102	1048576	19	4352
2026-01-25 01:36:12.39	251.16	25.43	-29.9	-31.1	13.6	1.15e-04	0	44	102	1048576	20	4129
2026-01-25 01:36:13.39	250.98	25.31	-30.2	-31.9	12.9	2.36e-05	0	44	102	1048576	20	4406
2026-01-25 01:36:14.39	250.80	25.18	-30.3	-32.2	12.8	1.78e-04	0	44	102	1048576	20	4480
2026-01-25 01:36:15.39	250.63	25.05	-30.4	-32.4	12.7	6.58e-04	0	44	102	1048576	20	4571
2026-01-25 01:36:16.39	250.45	24.92	-30.4	-32.2	12.5	4.39e-04	0	44	102	1048576	21	4389
2026-01-25 01:36:17.40	250.27	24.79	-30.5	-32.8	12.4	1.87e-03	0	44	102	1048576	20	4684
2026-01-25 01:36:18.40	250.10	24.67	-30.8	-33.2	11.8	2.98e-03	0	44	102	1048576	21	4751
2026-01-25 01:36:19.41	249.93	24.54	-30.8	-33.1	11.9	6.48e-04	0	44	102	1048576	21	4730
2026-01-25 01:36:20.41	249.76	24.41	-30.8	-33.1	11.8	3.06e-03	0	44	102	1048576	21	4708
2026-01-25 01:36:21.42	249.58	24.29	-30.6	-32.6	12.2	3.46e-03	0	44	102	1048576	21	4549
2026-01-25 01:36:22.42	249.42	24.16	-30.7	-32.9	12.0	1.09e-03	0	44	102	1048576	21	4636
2026-01-25 01:36:23.42	249.25	24.03	-30.7	-32.9	12.1	3.34e-03	0	44	102	1048576	21	4651
2026-01-25 01:36:24.42	249.09	23.91	-30.8	-33.2	11.8	3.21e-03	0	44	102	1048576	21	4743
2026-01-25 01:36:25.43	248.92	23.78	-30.6	-32.8	12.1	1.20e-03	0	44	102	1048576	21	4597
2026-01-25 01:36:26.43	248.76	23.66	-30.4	-32.2	12.4	3.29e-03	0	44	102	1048576	21	4408
2026-01-25 01:36:27.43	248.60	23.54	-30.1	-31.8	13.0	3.36e-03	0	44	102	1048576	20	4377
2026-01-25 01:36:28.43	248.44	23.41	-30.1	-31.7	13.1	5.78e-04	0	44	102	1048576	20	4326
2026-01-25 01:36:29.43	248.28	23.29	-30.1	-31.8	13.0	2.94e-03	0	44	102	1048576	20	4378
2026-01-25 01:36:30.43	248.12	23.17	-29.9	-31.2	13.4	2.76e-03	0	44	102	1048576	20	4184
2026-01-25 01:36:31.43	247.96	23.04	-29.8	-31.3	13.7	6.79e-05	0	44	102	1048576	19	4295
2026-01-25 01:36:32.43	247.81	22.92	-29.9	-31.6	13.6	2.39e-03	0	44	102	1048576	19	4375
2026-01-25 01:36:33.43	247.66	22.80	-30.0	-31.5	13.2	2.21e-05	0	44	102	1048576	20	4274
2026-01-25 01:36:34.43	247.50	22.68	-30.1	-31.6	13.1	2.21e-05	0	44	102	1048576	20	4306
2026-01-25 01:36:35.43	247.35	22.56	-30.2	-32.1	12.8	2.14e-03	0	44	102	1048576	20	4462
2026-01-25 01:36:36.43	247.20	22.44	-30.3	-32.2	12.7	3.49e-03	0	44	102	1048576	20	4516
2026-01-25 01:36:37.44	247.05	22.31	-30.2	-32.2	12.8	7.62e-05	0	44	102	1048576	20	4489
2026-01-25 01:36:38.45	246.90	22.19	-30.0	-31.6	13.1	2.17e-04	0	44	102	1048576	20	4303
2026-01-25 01:36:39.45	246.76	22.07	-29.8	-31.1	13.4	2.15e-03	0	44	102	1048576	20	4151
2026-01-25 01:36:40.46	246.61	21.95	-29.8	-31.3	13.7	1.52e-05	0	44	102	1048576	19	4315
2026-01-25 01:36:41.46	246.47	21.83	-29.7	-31.1	13.9	5.27e-04	0	44	102	1048576	19	4231
2026-01-25 01:36:42.47	246.32	21.71	-29.7	-31.2	13.8	1.14e-03	0	44	102	1048576	19	4277
2026-01-25 01:36:43.47	246.18	21.60	-29.6	-30.9	13.9	2.20e-06	0	44	102	1048576	19	4199
2026-01-25 01:36:44.48	246.04	21.48	-29.9	-31.7	13.4	1.22e-05	0	44	102	1048576	19	4441
2026-01-25 01:36:45.48	245.90	21.36	-30.2	-32.2	12.7	8.28e-04	0	44	102	1048576	20	4516
2026-01-25 01:36:46.48	245.76	21.24	-30.5	-32.4	12.2	1.20e-04	0	44	102	1048576	21	4482
2026-01-25 01:36:47.49	245.62	21.13	-30.8	-33.5	11.5	7.60e-04	0	44	102	1048576	21	4881
2026-01-25 01:36:48.49	245.48	21.01	-31.1	-33.8	10.9	1.02e-03	0	44	102	1048576	22	4897
2026-01-25 01:36:49.49	245.35	20.89	-31.2	-34.3	10.6	2.68e-03	0	44	102	1048576	22	5091
2026-01-25 01:36:50.50	245.21	20.78	-31.2	-34.3	10.5	3.39e-03	0	44	102	1048576	22	5104
2026-01-25 01:36:51.51	245.08	20.66	-31.2	-34.3	10.5	3.87e-03	0	44	102	1048576	22	5099
2026-01-25 01:36:52.51	244.94	20.54	-31.1	-33.9	10.7	3.77e-03	0	44	102	1048576	22	4963
2026-01-25 01:36:53.51	244.81	20.43	-31.1	-33.9	10.7	2.25e-03	0	44	102	1048576	22	4939
2026-01-25 01:36:54.51	244.68	20.32	-31.0	-33.5	11.0	1.47e-03	0	44	102	1048576	22	4791
2026-01-25 01:36:55.51	244.55	20.20	-30.8	-33.4	11.4	1.30e-03	0	44	102	1048576	21	4865
2026-01-25 01:36:56.52	244.42	20.09	-30.7	-33.1	11.6	1.87e-03	0	44	102	1048576	21	4739
2026-01-25 01:36:57.53	244.29	19.97	-30.4	-32.2	12.3	2.73e-04	0	44	102	1048576	21	4418
2026-01-25 01:36:58.53	244.17	19.86	-30.4	-32.6	12.3	1.69e-04	0	44	102	1048576	20	4655
2026-01-25 01:36:59.54	244.04	19.75	-30.2	-32.0	12.7	1.17e-04	0	44	102	1048576	20	4443
2026-01-25 01:37:00.54	243.92	19.63	-30.1	-31.8	12.9	5.87e-05	0	44	102	1048576	20	4380
2026-01-25 01:37:01.55	243.79	19.52	-30.0	-31.6	13.0	5.11e-05	0	44	102	1048576	20	4318
2026-01-25 01:37:02.56	243.67	19.41	-29.4	-31.2	12.6	5.41e-05	0	44	102	1048576	20	4426
2026-01-25 01:37:03.56	243.55	19.30	-30.2	-32.1	12.1	1.12e-03	0	44	102	1048576	20	4495
2026-01-25 01:37:04.56	243.42	19.19	-30.2	-32.2	12.6	9.68e-05	0	44	102	1048576	20	4531
2026-01-25 01:37:05.57	243.30	19.08	-30.4	-32.7	12.2	2.01e-04	0	44	102	1048576	20	4689
2026-01-25 01:37:06.57	243.18	18.97	-30.4	-32.8	12.1	2.63e-04	0	44	102	1048576	20	4745
2026-01-25 01:37:07.57	243.07	18.86	-30.3	-32.6	12.3	1.72e-04	0	44	102	1048576	20	4648
2026-01-25 01:37:08.57	242.95	18.75	-30.2	-32.1	12.6	9.84e-05	0	44	102	1048576	20	4483
2026-01-25 01:37:09.58	242.83	18.64	-30.1	-31.8	12.8	6.71e-05	0	44	102	1048576	20	4398
2026-01-25 01:37:10.58	242.71	18.53	-30.1	-31.7	12.9	4.65e-05	0	44	102	1048576	20	4359
2026-01-25 01:37:11.58	242.60	18.42	-29.9	-31.8	13.2	4.73e-05	0	44	102	1048576	19	4465
2026-01-25 01:37:12.59	242.48	18.31	-29.6	-31.1	13.6	1.37e-05	0	44	102	1048576	19	4245
2026-01-25 01:37:13.59	242.37	18.21	-29.6	-30.9	13.8	3.80e-06	0	44	102	1048576	19	4191
2026-01-25 01:37:14.59	242.26	18.10	-29.6	-31.0	13.7	1.42e-03	0	44	102	1048576	19	4217
2026-01-25 01:37:15.59	242.15	17.99	-29.7	-31.2	13.6	2.20e-06	0	44	102	1048576	19	4283
2026-01-25 01:37:16.60	242.03	17.88	-29.8	-31.5	13.4	1.52e-05	0	44	102	1048576	19	4389
2026-01-25 01:37:17.60	241.92	17.78	-30.0	-31.5	12.9	1.55e-03	0	44	102	1048576	20	4315
2026-01-25 01:37:18.61	241.81	17.67	-30.2	-32.3	12.4	1.88e-03	0	44	102	1048576	20	4568
2026-01-25 01:37:19.61	241.71	17.57	-30.4	-32.7	12.1	2.29e-04	0	44	102	1048576	20	4689
2026-01-25 01:37:20.62	241.60	17.46	-30.5	-32.7	11.3	3.88e-03	0	44	102	1048576	21	4611
2026-01-25 01:37:21.62	241.49	17.36	-30.5	-32.5	11.9	2.14e-03	0	44	102	1048576	21	4553
2026-01-25 01:37:22.61	241.38	17.25	-30.4	-32.2	12.1	3.42e-04	0	44	102	1048576	21	4458
2026-01-25 01:37:23.62	241.28	17.15	-30.3	-32.6	12.1	2.17e-04	0	44	102	1048576	20	4689
2026-01-25 01:37:24.63	241.17	17.04	-30.3	-32.5	12.2	1.77e-03	0	44	102	1048576	20	4644
2026-01-25 01:37:25.63	241.07	16.94	-30.3	-32.4	12.3	1.86e-04	0	44	102	1048576	20	4603
2026-01-25 01:37:26.63	240.96	16.84	-30.3	-32.4	12.2	1.82e-04	0	44	102	1048576	20	4594
2026-01-25 01:37:27.63	240.86	16.73	-30.2	-32.4	12.3	1.91e-03	0	44	102	1048576	20	4594
2026-01-25 01:37:28.64	240.76	16.63	-30.3	-32.5	12.2	2.08e-04	0	44	102	1048576	20	4630
2026-01-25 01:37:29.64	240.66	16.53	-30.3	-32.6	12.1	1.16e-03	0	44	102	1048576	20	4671
2026-01-25 01:37:30.64	240.56	16.43	-30.2	-32.2	12.4	2.11e-04	0	44	102	1048576	20	4532
2026-01-25 01:37:31.65	240.46	16.32	-30.2	-32.2	12.3	2.75e-03	0	44	102	1048576	20	4552
2026-01-25 01:37:32.65	240.36	16.22	-30.2	-32.3	12.4	9.40e-04	0	44	102	1048576	20	4572
2026-01-25 01:37:33.65	240.26	16.12	-30.1	-32.0	12.5	1.72e-04	0	44	102	1048576	20	4484
2026-01-25 01:37:34.66	240.16	16.02	-30.1	-32.1	12.4	3.57e-03	0	44	102	1048576	20	4513
2026-01-25 01:37:35.66	240.06	15.92	-30.2	-32.4	12.2	8.88e-04	0	44	102	1048576	20	4609
2026-01-25 01:37:36.67	239.97	15.82	-30.1	-32.0	12.4	1.05e-03	0	44	102	1048576	20	4486
2026-01-25 01:37:37.66	239.87	15.72	-30.0	-31.8	12.6	1.15e-04	0	44	102	1048576	20	4414
2026-01-25 01:37:38.67	239.78	15.62	-30.0	-31.8	12.6	3.69e-03	0	44	102	1048576	20	4401
2026-01-25 01:37:39.67	239.68	15.52	-30.1	-31.9	12.6	7.13e-04	0	44	102	1048576	20	4448
2026-01-25 01:37:40.67	239.59	15.43	-30.1	-32.0	12.5	1.68e-04	0	44	102	1048576	20	4467
2026-01-25 01:37:41.68	239.49	15.33	-30.3	-32.6	12.0	2.65e-03	0	44	102	1048576	20	4678
2026-01-25 01:37:42.68	239.40	15.23	-30.3	-32.6	12.0	8.15e-04	0	44	102	1048576	20	4707
2026-01-25 01:37:43.68	239.31	15.13	-30.4	-32.9	11.9	3.33e-04	0	44	102	1048576	20	4792
2026-01-25 01:37:44.69	239.22	15.03	-30.5	-32.8	11.5	1.15e-03	0	44	102	1048576	21	4675
2026-01-25 01:37:45.69	239.13	14.94	-30.5	-32.8	11.5	1.09e-03	0	44	102	1048576	21	4675
2026-01-25 01:37:46.70	239.04	14.84	-30.6	-33.1	11.3	1.13e-03	0	44	102	1048576	21	4799
2026-01-25 01:37:47.70	238.95	14.74	-30.5	-32.8	11.5	1.25e-03	0	44	102	1048576	21	4691
2026-01-25 01:37:48.71	238.86	14.65	-30.6	-33.0	11.3	1.37e-03	0	44	102	1048576	21	4755
2026-01-25 01:37:49.72	238.77	14.55	-30.5	-32.6	11.7	1.14e-03	0	44	102	1048576	21	4594
2026-01-25 01:37:50.71	238.68	14.46	-30.3	-32.7	11.9	9.06e-04	0	44	102	1048576	20	4744
2026-01-25 01:37:51.73	238.59	14.36	-30.2	-32.2	12.3	2.88e-04	0	44	102	1048576	20	4551
2026-01-25 01:37:52.73	238.50	14.26	-30.0	-31.9	12.5	1.33e-03	0	44	102	1048576	20	4446
2026-01-25 01:37:53.73	238.42	14.17	-30.0	-31.7	12.6	4.11e-04	0	44	102	1048576	20	4386
2026-01-25 01:37:54.73	238.33	14.08	-29.9	-31.9	12.8	7.17e-05	0	44	102	1048576	19	4550
2026-01-25 01:37:55.73	238.25	13.98	-29.8	-31.8	12.9	2.07e-03	0	44	102	1048576	19	4488
2026-01-25 01:37:56.74	238.16	13.89	-29.9	-31.8	12.8	2.79e-03	0	44	102	1048576	19	4515
2026-01-25 01:37:57.74	238.08	13.79	-29.9	-31.6	12.6	4.08e-04	0	44	102	1048576	20	4372
2026-01-25 01:37:58.74	238.00	13.70	-30.1	-32.2	12.2	2.68e-03	0	44	102	1048576	20	4550
2026-01-25 01:37:59.75	237.91	13.61	-30.1	-32.3	12.1	2.87e-03	0	44	102	1048576	20	4589
2026-01-25 01:38:00.75	237.83	13.52	-30.2	-32.3	12.1	4.75e-04	0	44	102	1048576	20	4611
2026-01-25 01:38:01.75	237.75	13.42	-30.3	-32.6	11.8	3.02e-03	0	44	102	1048576	20	4724
2026-01-25 01:38:02.76	237.67	13.33	-30.2	-32.4	11.9	2.99e-03	0	44	102	1048576	20	4649
2026-01-25 01:38:03.76	237.59	13.24	-30.2	-32.4	11.9	4.61e-04	0	44	102	1048576	20	4651
2026-01-25 01:38:04.77	237.51	13.15	-30.3	-32.6	11.8	2.85e-03	0	44	102	1048576	20	4717
2026-01-25 01:38:05.77	237.43	13.06	-30.1	-32.1	12.1	3.14e-03	0	44	102	1048576	20	4544
2026-01-25 01:38:06.76	237.35	12.97	-30.0	-31.9	12.3	2.27e-04	0	44	102	1048576	20	4480
2026-01-25 01:38:07.77	237.27	12.88	-29.9	-31.7	12.4	2.76e-03	0	44	102	1048576	20	4395
2026-01-25 01:38:08.77	237.19	12.79	-29.9	-32.1	12.6	2.65e-03	0	44	102	1048576	19	4611
2026-01-25 01:38:09.78	237.11	12.70	-30.0	-32.2	12.5	1.05e-04	0	44	102	1048576	19	4649
2026-01-25 01:38:10.78	237.03	12.61	-30.0	-31.7	12.4	2.51e-03	0	44	102	1048576	20	4425
2026-01-25 01:38:11.79	236.96	12.52	-29.9	-31.7	12.4	1.55e-04	0	44	102	1048576	20	4395
2026-01-25 01:38:12.79	236.88	12.43	-30.0	-32.0	12.2	1.48e-04	0	44	102	1048576	20	4504
2026-01-25 01:38:13.80	236.80	12.34	-30.0	-31.7	12.4	2.53e-03	0	44	102	1048576	20	4423
2026-01-25 01:38:14.80	236.73	12.25	-29.9	-31.8	12.4	2.68e-03	0	44	102	1048576	20	4433
2026-01-25 01:38:15.81	236.65	12.16	-29.9	-31.7	12.4	1.17e-04	0	44	102	1048576	20	4424
2026-01-25 01:38:16.82	236.58	12.07	-30.1	-32.2	12.0	2.66e-03	0	44	102	1048576	20	4602
2026-01-25 01:38:17.82	236.51	11.99	-30.2	-32.6	11.8	2.78e-03	0	44	102	1048576	20	4710
2026-01-25 01:38:18.83	236.43	11.90	-30.1	-32.2	11.9	3.79e-04	0	44	102	1048576	20	4601
2026-01-25 01:38:19.84	236.36	11.81	-30.1	-32.3	12.0	2.67e-03	0	44	102	1048576	20	4611
2026-01-25 01:38:20.84	236.28	11.72	-30.2	-32.5	11.8	2.61e-03	0	44	102	1048576	20	4694
2026-01-25 01:38:21.85	236.21	11.64	-30.2	-32.6	11.7	4.65e-04	0	44	102	1048576	20	4744
2026-01-25 01:38:22.85	236.14	11.55	-30.3	-32.8	11.6	5.81e-04	0	44	102	1048576	20	4806
2026-01-25 01:38:23.85	236.07	11.46	-30.2	-32.6	11.7	2.66e-03	0	44	102	1048576	20	4749
2026-01-25 01:38:24.85	236.00	11.38	-30.3	-32.9	11.5	7.09e-04	0	44	102	1048576	20	4835
2026-01-25 01:38:25.86	235.93	11.29	-30.3	-33.0	11.4	8.86e-04	0	44	102	1048576	20	4876
2026-01-25 01:38:26.87	235.86	11.21	-30.4	-33.1	11.3	2.51e-03	0	44	102	1048576	20	4939
2026-01-25 01:38:27.87	235.79	11.12	-30.6	-33.3	10.8	1.47e-03	0	44	102	1048576	21	4934
2026-01-25 01:38:28.87	235.72	11.04	-29.9	-32.6	10.8	2.18e-03	0	44	102	1048576	21	4899
2026-01-25 01:38:29.87	235.65	10.95	-30.3	-32.9	11.4	1.37e-03	0	44	102	1048576	20	4870
2026-01-25 01:38:30.87	235.58	10.87	-30.3	-32.9	11.4	8.51e-04	0	44	102	1048576	20	4858
2026-01-25 01:38:31.88	235.51	10.78	-30.4	-33.2	11.1	1.04e-03	0	44	102	1048576	20	4951
2026-01-25 01:38:32.88	235.45	10.70	-30.4	-33.2	11.2	1.64e-03	0	44	102	1048576	20	4972
2026-01-25 01:38:33.89	235.38	10.61	-30.5	-33.1	10.9	1.85e-03	0	44	102	1048576	21	4828
2026-01-25 01:38:34.89	235.31	10.53	-30.6	-33.3	10.7	3.92e-03	0	44	102	1048576	21	4938
2026-01-25 01:38:35.89	235.25	10.45	-30.7	-33.6	10.5	3.46e-03	0	44	102	1048576	21	5054
2026-01-25 01:38:36.89	235.18	10.37	-30.7	-33.6	10.6	3.54e-03	0	44	102	1048576	21	5069
2026-01-25 01:38:37.90	235.11	10.28	-30.7	-33.9	10.3	6.23e-03	0	44	102	1048576	21	5155
2026-01-25 01:38:38.90	235.05	10.20	-30.8	-34.1	10.1	7.30e-03	0	44	102	1048576	21	5268
2026-01-25 01:38:39.90	234.98	10.12	-30.9	-34.4	9.9	6.86e-03	0	44	102	1048576	21	5380
2026-01-25 01:38:40.90	234.92	10.04	-30.9	-34.5	9.8	8.88e-03	0	44	102	1048576	21	5443
2026-01-25 01:38:41.90	234.86	9.96	-31.1	-34.5	9.4	1.42e-02	0	44	102	1048576	22	5356
2026-01-25 01:38:42.91	234.79	9.87	-31.1	-34.8	9.2	1.90e-02	0	44	102	1048576	22	5509
2026-01-25 01:38:43.90	234.73	9.79	-31.1	-34.8	9.2	2.29e-02	0	44	102	1048576	22	5484
2026-01-25 01:38:44.90	234.67	9.71	-31.0	-34.4	9.4	1.84e-02	0	44	102	1048576	22	5297
2026-01-25 01:38:45.91	234.60	9.63	-31.0	-34.5	9.4	1.50e-02	0	44	102	1048576	22	5340
2026-01-25 01:38:46.91	234.54	9.55	-30.9	-34.6	9.7	1.43e-02	0	44	102	1048576	21	5499
2026-01-25 01:38:47.91	234.48	9.47	-30.9	-34.5	9.8	1.30e-02	0	44	102	1048576	21	5438
2026-01-25 01:38:48.92	234.42	9.39	-30.9	-34.6	9.7	1.19e-02	0	44	102	1048576	21	5489
2026-01-25 01:38:49.92	234.36	9.31	-31.0	-34.8	9.5	1.37e-02	0	44	102	1048576	21	5608
2026-01-25 01:38:50.93	234.29	9.23	-30.7	-33.8	10.2	9.42e-03	0	44	102	1048576	21	5169
2026-01-25 01:38:51.93	234.23	9.15	-30.7	-33.8	10.2	6.11e-03	0	44	102	1048576	21	5160
2026-01-25 01:38:52.94	234.17	9.07	-30.5	-33.3	10.6	4.53e-03	0	44	102	1048576	21	4930
2026-01-25 01:38:53.95	234.11	8.99	-30.4	-32.9	10.9	2.43e-03	0	44	102	1048576	21	4801
2026-01-25 01:38:54.95	234.05	8.91	-30.4	-32.9	10.9	2.19e-03	0	44	102	1048576	21	4781
2026-01-25 01:38:55.95	234.00	8.83	-30.5	-33.2	10.7	3.08e-03	0	44	102	1048576	21	4891
2026-01-25 01:38:56.95	233.94	8.76	-30.3	-33.0	11.2	2.63e-03	0	44	102	1048576	20	4914
2026-01-25 01:38:57.95	233.88	8.68	-30.3	-33.2	11.0	1.45e-03	0	44	102	1048576	20	4994
2026-01-25 01:38:58.95	233.82	8.60	-30.3	-33.0	11.1	2.14e-03	0	44	102	1048576	20	4932
2026-01-25 01:38:59.95	233.76	8.52	-30.2	-32.7	11.3	1.65e-03	0	44	102	1048576	20	4796
2026-01-25 01:39:00.95	233.71	8.45	-30.2	-32.6	11.4	9.17e-04	0	44	102	1048576	20	4773
2026-01-25 01:39:01.96	233.65	8.37	-30.2	-32.7	11.3	1.11e-03	0	44	102	1048576	20	4805
2026-01-25 01:39:02.97	233.59	8.29	-30.2	-32.6	11.4	1.68e-03	0	44	102	1048576	20	4751
2026-01-25 01:39:03.97	233.53	8.21	-30.1	-32.5	11.4	7.64e-04	0	44	102	1048576	20	4748
2026-01-25 01:39:04.98	233.48	8.14	-30.1	-32.4	11.5	9.10e-04	0	44	102	1048576	20	4683
2026-01-25 01:39:05.97	233.42	8.06	-30.1	-32.6	11.4	1.57e-03	0	44	102	1048576	20	4775
2026-01-25 01:39:06.97	233.37	7.98	-30.3	-33.0	11.0	1.24e-03	0	44	102	1048576	20	4922
2026-01-25 01:39:07.97	233.31	7.91	-30.2	-32.7	11.2	2.04e-03	0	44	102	1048576	20	4802
2026-01-25 01:39:08.98	233.26	7.83	-30.2	-32.8	11.2	2.08e-03	0	44	102	1048576	20	4867
2026-01-25 01:39:09.99	233.20	7.76	-30.4	-33.6	10.6	2.82e-03	0	44	102	1048576	20	5190
2026-01-25 01:39:10.99	233.15	7.68	-30.4	-33.5	10.7	3.26e-03	0	44	102	1048576	20	5144
2026-01-25 01:39:11.99	233.09	7.61	-30.5	-33.7	10.5	4.48e-03	0	44	102	1048576	20	5240
2026-01-25 01:39:13.00	233.04	7.53	-30.5	-33.2	10.4	7.12e-03	0	44	102	1048576	21	4954
2026-01-25 01:39:13.99	232.99	7.46	-30.5	-33.8	10.4	4.83e-03	0	44	102	1048576	20	5294
2026-01-25 01:39:15.00	232.93	7.38	-30.6	-33.6	10.1	5.76e-03	0	44	102	1048576	21	5125
2026-01-25 01:39:16.00	232.88	7.31	-30.7	-34.3	9.6	1.31e-02	0	44	102	1048576	21	5399
2026-01-25 01:39:17.01	232.83	7.23	-30.7	-34.0	9.8	1.24e-02	0	44	102	1048576	21	5282
2026-01-25 01:39:18.01	232.77	7.16	-30.7	-34.3	9.6	1.22e-02	0	44	102	1048576	21	5396
2026-01-25 01:39:19.01	232.72	7.08	-30.7	-34.1	9.8	1.01e-02	0	44	102	1048576	21	5301
2026-01-25 01:39:20.02	232.67	7.01	-32.8	-45.3	3.8	1.49e+00	0	44	104	1048576	25	15036
2026-01-25 01:39:21.03	232.62	6.94	-33.3	-45.8	3.8	1.49e+00	0	44	104	1048576	26	15195

#Closed at: 2026-01-25 01:39:21
#Recorded file [1 MB]: D:/data/31010_260125_042800.dat