passes_logs/2026/01/25/R2M6_AANII_01/R2M6_AANII_01__20260125_135940_FENGYUN_3D_rec.log

#Pass ID: 20260125_135940_FENGYUN 3D
#Satellite: FENGYUN 3D
#Configuration: FENGYUN 3D
#almurnet v.1.7.20240730
#Start time: 2026-01-25 13:59:41

#Version: 2.2.20231116
#Station: R2M6_AANII_01
#Location: 30.233357 lon 59.946436 lat
#TLE: 1 43010U 17072A   26025.22271248  .00000124  00000+0  80472-4 0  9999
#TLE: 2 43010  98.9962 357.1981 0002521  90.5723 269.5741 14.19700000424706

#Time	Az	El	Level	Level2	SNR	BER	BlckErr	Temp	State	Recorded	gain1	gain2
2026-01-25 13:59:41.80	212.98	7.06	-28.2	-30.7	5.7	7.60e-01	0	41	0	0	16	4799
2026-01-25 13:59:42.80	213.08	7.12	-29.2	-31.7	5.5	7.74e-01	0	41	104	0	19	4814
2026-01-25 13:59:43.81	213.18	7.19	-29.4	-32.3	10.1	6.73e-03	0	41	0	0	19	5026
2026-01-25 13:59:44.81	213.27	7.25	-29.2	-31.7	10.5	6.74e-03	0	41	102	1048576	19	4815
2026-01-25 13:59:45.81	213.37	7.31	-28.8	-30.7	11.2	2.67e-03	0	41	102	1048576	19	4460
2026-01-25 13:59:46.82	213.47	7.38	-28.5	-30.2	11.9	8.00e-04	0	41	102	1048576	18	4416
2026-01-25 13:59:47.82	213.57	7.44	-28.1	-29.9	12.4	3.18e-04	0	41	102	1048576	17	4417
2026-01-25 13:59:48.83	213.67	7.50	-27.9	-29.4	12.7	1.34e-04	0	41	102	1048576	17	4280
2026-01-25 13:59:49.83	213.76	7.57	-27.6	-29.3	13.1	7.66e-05	0	42	102	1048576	16	4333
2026-01-25 13:59:50.83	213.86	7.63	-27.5	-29.0	13.3	2.74e-05	0	42	102	1048576	16	4262
2026-01-25 13:59:51.84	213.96	7.70	-27.4	-28.6	13.6	1.60e-05	0	42	102	1048576	16	4146
2026-01-25 13:59:52.84	214.06	7.76	-27.3	-28.4	13.7	9.10e-06	0	41	102	1048576	16	4105
2026-01-25 13:59:53.84	214.16	7.82	-27.4	-28.7	13.5	1.48e-05	0	42	102	1048576	16	4166
2026-01-25 13:59:54.84	214.26	7.89	-27.3	-28.4	13.7	1.83e-05	0	42	102	1048576	16	4102
2026-01-25 13:59:55.85	214.37	7.95	-27.5	-29.0	13.4	1.48e-05	0	42	102	1048576	16	4250
2026-01-25 13:59:56.85	214.47	8.02	-27.3	-28.4	13.7	2.28e-05	0	42	102	1048576	16	4087
2026-01-25 13:59:57.85	214.57	8.08	-26.7	-28.2	14.2	1.10e-06	0	42	102	1048576	14	4251
2026-01-25 13:59:58.86	214.67	8.15	-26.5	-27.7	14.6	2.20e-06	0	42	102	1048576	14	4108
2026-01-25 13:59:59.87	214.78	8.21	-26.3	-27.2	14.8	3.40e-06	0	42	102	1048576	14	3993
2026-01-25 14:00:00.87	214.88	8.28	-26.3	-27.2	14.8	0.00e+00	0	42	102	1048576	14	3995
2026-01-25 14:00:01.87	214.99	8.34	-26.4	-27.4	14.7	1.10e-06	0	42	102	1048576	14	4022
2026-01-25 14:00:02.88	215.09	8.41	-26.5	-27.5	14.7	0.00e+00	0	42	102	1048576	14	4072
2026-01-25 14:00:03.89	215.20	8.47	-26.4	-27.4	14.8	0.00e+00	0	42	102	1048576	14	4023
2026-01-25 14:00:04.89	215.30	8.54	-26.3	-27.1	14.9	0.00e+00	0	42	102	1048576	14	3972
2026-01-25 14:00:05.89	215.41	8.60	-26.2	-27.5	14.9	1.10e-06	0	42	102	1048576	13	4169
2026-01-25 14:00:06.90	215.51	8.67	-26.2	-27.5	15.0	0.00e+00	0	42	102	1048576	13	4166
2026-01-25 14:00:07.91	215.62	8.73	-26.2	-27.4	15.0	0.00e+00	0	42	102	1048576	13	4157
2026-01-25 14:00:08.91	215.73	8.80	-26.3	-27.7	14.9	0.00e+00	0	42	102	1048576	13	4216
2026-01-25 14:00:09.91	215.84	8.87	-26.3	-27.6	14.9	0.00e+00	0	42	102	1048576	13	4206
2026-01-25 14:00:10.91	215.94	8.93	-26.2	-27.5	15.0	0.00e+00	0	42	102	1048576	13	4179
2026-01-25 14:00:11.92	216.05	9.00	-26.4	-27.8	14.9	0.00e+00	0	42	102	1048576	13	4247
2026-01-25 14:00:12.92	216.16	9.06	-26.3	-27.7	14.9	0.00e+00	0	42	102	1048576	13	4234
2026-01-25 14:00:13.92	216.27	9.13	-26.3	-27.7	14.9	0.00e+00	0	42	102	1048576	13	4211
2026-01-25 14:00:14.93	216.38	9.19	-26.3	-27.6	14.9	1.10e-06	0	42	102	1048576	13	4199
2026-01-25 14:00:15.93	216.49	9.26	-26.5	-28.0	14.7	0.00e+00	0	42	102	1048576	13	4306
2026-01-25 14:00:16.93	216.60	9.33	-26.4	-27.9	14.8	0.00e+00	0	42	102	1048576	13	4268
2026-01-25 14:00:17.93	216.72	9.39	-26.4	-27.8	14.9	1.10e-06	0	42	102	1048576	13	4250
2026-01-25 14:00:18.94	216.83	9.46	-26.3	-27.7	14.9	0.00e+00	0	42	102	1048576	13	4229
2026-01-25 14:00:19.94	216.94	9.53	-26.3	-27.6	15.0	0.00e+00	0	42	102	1048576	13	4198
2026-01-25 14:00:20.95	217.06	9.59	-26.3	-27.6	15.0	0.00e+00	0	43	102	1048576	13	4204
2026-01-25 14:00:21.95	217.17	9.66	-26.2	-27.4	15.1	0.00e+00	0	42	102	1048576	13	4140
2026-01-25 14:00:22.95	217.28	9.73	-26.2	-27.5	15.1	0.00e+00	0	43	102	1048576	13	4154
2026-01-25 14:00:23.96	217.40	9.79	-26.4	-27.8	14.9	1.10e-06	0	42	102	1048576	13	4260
2026-01-25 14:00:24.96	217.51	9.86	-26.1	-27.3	15.2	0.00e+00	0	42	102	1048576	13	4098
2026-01-25 14:00:25.97	217.63	9.93	-25.9	-26.8	15.4	0.00e+00	0	43	102	1048576	13	3991
2026-01-25 14:00:26.96	217.74	9.99	-25.8	-26.6	15.6	0.00e+00	0	43	102	1048576	13	3939
2026-01-25 14:00:27.96	217.86	10.06	-25.9	-26.8	15.5	0.00e+00	0	42	102	1048576	13	3981
2026-01-25 14:00:28.97	217.98	10.13	-25.9	-26.8	15.5	0.00e+00	0	43	102	1048576	13	3972
2026-01-25 14:00:29.97	218.10	10.20	-25.9	-26.8	15.5	0.00e+00	0	42	102	1048576	13	3977
2026-01-25 14:00:30.97	218.21	10.26	-26.0	-27.0	15.4	0.00e+00	0	43	102	1048576	13	4030
2026-01-25 14:00:31.98	218.33	10.33	-26.0	-27.0	15.4	0.00e+00	0	42	102	1048576	13	4026
2026-01-25 14:00:32.98	218.45	10.40	-26.1	-27.2	15.3	0.00e+00	0	43	102	1048576	13	4091
2026-01-25 14:00:33.99	218.57	10.47	-26.0	-26.9	15.5	0.00e+00	0	43	102	1048576	13	4000
2026-01-25 14:00:34.99	218.69	10.53	-25.9	-26.8	15.5	0.00e+00	0	43	102	1048576	13	3973
2026-01-25 14:00:35.99	218.81	10.60	-25.9	-26.8	15.5	0.00e+00	0	43	102	1048576	13	3986
2026-01-25 14:00:36.99	218.93	10.67	-25.8	-26.6	15.7	0.00e+00	0	43	102	1048576	13	3928
2026-01-25 14:00:38.00	219.06	10.74	-25.8	-26.5	15.7	0.00e+00	0	43	102	1048576	13	3908
2026-01-25 14:00:39.00	219.18	10.81	-25.9	-26.8	15.6	0.00e+00	0	43	102	1048576	13	3977
2026-01-25 14:00:40.01	219.30	10.87	-25.7	-26.7	15.9	0.00e+00	0	43	102	1048576	12	4059
2026-01-25 14:00:41.01	219.43	10.94	-25.8	-27.1	15.7	0.00e+00	0	43	102	1048576	12	4154
2026-01-25 14:00:42.01	219.55	11.01	-25.6	-26.5	16.0	0.00e+00	0	43	102	1048576	12	4015
2026-01-25 14:00:43.01	219.67	11.08	-25.5	-26.4	16.0	0.00e+00	0	43	102	1048576	12	3985
2026-01-25 14:00:44.01	219.80	11.15	-25.6	-26.6	15.9	0.00e+00	0	43	102	1048576	12	4032
2026-01-25 14:00:45.01	219.92	11.21	-25.7	-26.7	15.9	0.00e+00	0	43	102	1048576	12	4054
2026-01-25 14:00:46.01	220.05	11.28	-25.8	-26.9	15.8	0.00e+00	0	43	102	1048576	12	4121
2026-01-25 14:00:47.01	220.18	11.35	-25.7	-26.8	15.9	0.00e+00	0	43	102	1048576	12	4077
2026-01-25 14:00:48.02	220.31	11.42	-25.7	-26.7	15.9	0.00e+00	0	43	102	1048576	12	4056
2026-01-25 14:00:49.02	220.43	11.49	-25.8	-26.9	15.8	0.00e+00	0	43	102	1048576	12	4113
2026-01-25 14:00:50.02	220.56	11.56	-25.9	-27.1	15.7	0.00e+00	0	43	102	1048576	12	4168
2026-01-25 14:00:51.03	220.69	11.63	-25.7	-26.7	15.9	0.00e+00	0	43	102	1048576	12	4057
2026-01-25 14:00:52.03	220.82	11.69	-25.7	-26.8	15.9	0.00e+00	0	43	102	1048576	12	4078
2026-01-25 14:00:53.04	220.95	11.76	-25.9	-27.3	15.6	0.00e+00	0	43	102	1048576	12	4224
2026-01-25 14:00:54.04	221.08	11.83	-25.7	-26.8	15.9	0.00e+00	0	43	102	1048576	12	4072
2026-01-25 14:00:55.05	221.22	11.90	-25.6	-26.5	16.1	0.00e+00	0	43	102	1048576	12	4001
2026-01-25 14:00:56.05	221.35	11.97	-25.6	-26.6	16.0	0.00e+00	0	43	102	1048576	12	4018
2026-01-25 14:00:57.06	221.48	12.04	-25.6	-26.6	16.0	0.00e+00	0	43	102	1048576	12	4038
2026-01-25 14:00:58.06	221.62	12.11	-25.8	-27.0	15.8	0.00e+00	0	43	102	1048576	12	4140
2026-01-25 14:00:59.07	221.75	12.18	-25.7	-26.9	15.9	0.00e+00	0	43	102	1048576	12	4094
2026-01-25 14:01:00.07	221.89	12.25	-25.7	-26.7	16.0	0.00e+00	0	43	102	1048576	12	4059
2026-01-25 14:01:01.07	222.02	12.32	-25.7	-26.7	16.0	0.00e+00	0	43	102	1048576	12	4049
2026-01-25 14:01:02.08	222.16	12.39	-25.7	-26.8	15.9	0.00e+00	0	43	102	1048576	12	4080
2026-01-25 14:01:03.08	222.29	12.46	-25.6	-26.4	16.1	0.00e+00	0	43	102	1048576	12	3986
2026-01-25 14:01:04.08	222.43	12.53	-25.5	-26.4	16.2	0.00e+00	0	43	102	1048576	12	3977
2026-01-25 14:01:05.09	222.57	12.60	-25.6	-26.5	16.1	0.00e+00	0	43	102	1048576	12	4004
2026-01-25 14:01:06.09	222.71	12.67	-25.7	-26.8	16.0	0.00e+00	0	43	102	1048576	12	4086
2026-01-25 14:01:07.09	222.85	12.74	-25.7	-26.8	16.0	0.00e+00	0	43	102	1048576	12	4068
2026-01-25 14:01:08.10	222.99	12.81	-25.7	-26.8	15.9	0.00e+00	0	43	102	1048576	12	4087
2026-01-25 14:01:09.11	223.13	12.88	-25.8	-27.0	15.8	0.00e+00	0	43	102	1048576	12	4140
2026-01-25 14:01:10.11	223.27	12.95	-25.7	-26.9	15.9	0.00e+00	0	43	102	1048576	12	4093
2026-01-25 14:01:11.12	223.41	13.02	-25.7	-26.7	16.0	0.00e+00	0	43	102	1048576	12	4065
2026-01-25 14:01:12.12	223.55	13.09	-25.7	-26.7	16.0	0.00e+00	0	43	102	1048576	12	4060
2026-01-25 14:01:13.13	223.70	13.16	-25.8	-27.0	15.8	0.00e+00	0	43	102	1048576	12	4141
2026-01-25 14:01:14.13	223.84	13.23	-25.6	-26.5	16.1	0.00e+00	0	43	102	1048576	12	4004
2026-01-25 14:01:15.12	223.98	13.30	-25.4	-26.1	16.4	0.00e+00	0	43	102	1048576	12	3898
2026-01-25 14:01:16.12	224.13	13.37	-25.3	-26.5	16.5	0.00e+00	0	43	102	1048576	11	4096
2026-01-25 14:01:17.13	224.27	13.44	-25.4	-26.5	16.5	0.00e+00	0	43	102	1048576	11	4104
2026-01-25 14:01:18.13	224.42	13.51	-25.4	-26.6	16.5	1.10e-06	0	43	102	1048576	11	4121
2026-01-25 14:01:19.14	224.57	13.58	-25.4	-26.7	16.4	0.00e+00	0	43	102	1048576	11	4152
2026-01-25 14:01:20.15	224.72	13.65	-25.3	-26.5	16.5	0.00e+00	0	43	102	1048576	11	4098
2026-01-25 14:01:21.15	224.86	13.72	-25.4	-26.6	16.5	0.00e+00	0	43	102	1048576	11	4122
2026-01-25 14:01:22.15	225.01	13.79	-25.3	-26.4	16.6	0.00e+00	0	43	102	1048576	11	4068
2026-01-25 14:01:23.16	225.16	13.86	-25.4	-26.6	16.5	0.00e+00	0	43	102	1048576	11	4133
2026-01-25 14:01:24.16	225.31	13.93	-25.5	-26.9	16.3	0.00e+00	0	43	102	1048576	11	4203
2026-01-25 14:01:25.17	225.47	14.00	-25.5	-26.9	16.3	0.00e+00	0	43	102	1048576	11	4213
2026-01-25 14:01:26.17	225.62	14.07	-25.6	-27.0	16.3	0.00e+00	0	43	102	1048576	11	4227
2026-01-25 14:01:27.17	225.77	14.14	-25.3	-26.4	16.6	0.00e+00	0	43	102	1048576	11	4088
2026-01-25 14:01:28.18	225.92	14.21	-25.2	-26.1	16.7	0.00e+00	0	43	102	1048576	11	4013
2026-01-25 14:01:29.18	226.08	14.28	-25.2	-26.1	16.8	0.00e+00	0	43	102	1048576	11	3991
2026-01-25 14:01:30.19	226.23	14.35	-25.3	-26.3	16.7	0.00e+00	0	43	102	1048576	11	4050
2026-01-25 14:01:31.19	226.39	14.42	-25.2	-26.2	16.7	0.00e+00	0	43	102	1048576	11	4040
2026-01-25 14:01:32.19	226.54	14.49	-25.5	-26.8	16.4	0.00e+00	0	43	102	1048576	11	4167
2026-01-25 14:01:33.19	226.70	14.56	-25.1	-26.0	16.8	0.00e+00	0	43	102	1048576	11	3978
2026-01-25 14:01:34.20	226.86	14.63	-24.9	-25.6	17.1	0.00e+00	0	43	102	1048576	11	3870
2026-01-25 14:01:35.20	227.02	14.70	-24.9	-25.5	17.1	0.00e+00	0	43	102	1048576	11	3847
2026-01-25 14:01:36.20	227.18	14.77	-24.9	-25.5	17.1	0.00e+00	0	43	102	1048576	11	3863
2026-01-25 14:01:37.20	227.33	14.84	-25.0	-25.6	17.1	0.00e+00	0	43	102	1048576	11	3884
2026-01-25 14:01:38.20	227.49	14.92	-25.0	-25.8	17.0	0.00e+00	0	43	102	1048576	11	3921
2026-01-25 14:01:39.20	227.66	14.99	-24.9	-25.5	17.1	0.00e+00	0	43	102	1048576	11	3849
2026-01-25 14:01:40.21	227.82	15.06	-24.9	-25.4	17.2	0.00e+00	0	43	102	1048576	11	3839
2026-01-25 14:01:41.22	227.98	15.13	-24.9	-25.6	17.1	0.00e+00	0	43	102	1048576	11	3872
2026-01-25 14:01:42.21	228.14	15.20	-25.0	-25.8	17.0	0.00e+00	0	43	102	1048576	11	3923
2026-01-25 14:01:43.22	228.31	15.27	-25.0	-25.7	17.0	0.00e+00	0	43	102	1048576	11	3902
2026-01-25 14:01:44.23	228.47	15.34	-25.1	-26.0	16.9	0.00e+00	0	43	102	1048576	11	3968
2026-01-25 14:01:45.23	228.64	15.41	-25.0	-25.7	17.0	0.00e+00	0	43	102	1048576	11	3903
2026-01-25 14:01:46.23	228.81	15.48	-25.0	-25.7	17.1	0.00e+00	0	43	102	1048576	11	3904
2026-01-25 14:01:47.23	228.97	15.55	-25.0	-25.8	17.0	0.00e+00	0	43	102	1048576	11	3930
2026-01-25 14:01:48.24	229.14	15.62	-24.9	-25.5	17.2	0.00e+00	0	43	102	1048576	11	3862
2026-01-25 14:01:49.24	229.31	15.69	-24.9	-25.5	17.2	0.00e+00	0	43	102	1048576	11	3854
2026-01-25 14:01:50.25	229.48	15.76	-24.9	-25.6	17.1	0.00e+00	0	43	102	1048576	11	3868
2026-01-25 14:01:51.25	229.65	15.83	-24.7	-25.6	17.4	0.00e+00	0	43	102	1048576	10	3983
2026-01-25 14:01:52.26	229.82	15.90	-24.7	-25.6	17.4	0.00e+00	0	43	102	1048576	10	3979
2026-01-25 14:01:53.26	229.99	15.97	-24.8	-25.7	17.3	0.00e+00	0	43	102	1048576	10	4005
2026-01-25 14:01:54.25	230.16	16.04	-24.8	-25.8	17.3	0.00e+00	0	43	102	1048576	10	4045
2026-01-25 14:01:55.26	230.34	16.11	-24.8	-25.7	17.3	0.00e+00	0	44	102	1048576	10	4007
2026-01-25 14:01:56.27	230.51	16.18	-24.9	-25.9	17.2	0.00e+00	0	43	102	1048576	10	4062
2026-01-25 14:01:57.27	230.69	16.25	-24.9	-26.1	17.2	0.00e+00	0	43	102	1048576	10	4103
2026-01-25 14:01:58.28	230.87	16.32	-24.8	-25.7	17.4	0.00e+00	0	43	102	1048576	10	4016
2026-01-25 14:01:59.28	231.04	16.39	-24.7	-25.5	17.5	0.00e+00	0	44	102	1048576	10	3957
2026-01-25 14:02:00.29	231.22	16.46	-24.7	-25.6	17.5	0.00e+00	0	43	102	1048576	10	3977
2026-01-25 14:02:01.30	231.40	16.53	-24.8	-25.7	17.4	0.00e+00	0	43	102	1048576	10	4008
2026-01-25 14:02:02.30	231.58	16.60	-24.6	-25.3	17.6	0.00e+00	0	43	102	1048576	10	3902
2026-01-25 14:02:03.30	231.76	16.67	-24.5	-25.2	17.7	0.00e+00	0	43	102	1048576	10	3880
2026-01-25 14:02:04.31	231.94	16.74	-24.6	-25.3	17.6	0.00e+00	0	43	102	1048576	10	3921
2026-01-25 14:02:05.31	232.12	16.81	-24.8	-25.7	17.4	0.00e+00	0	43	102	1048576	10	4013
2026-01-25 14:02:06.32	232.30	16.88	-24.9	-25.9	17.3	0.00e+00	0	43	102	1048576	10	4066
2026-01-25 14:02:07.32	232.49	16.95	-24.7	-25.5	17.5	0.00e+00	0	43	102	1048576	10	3961
2026-01-25 14:02:08.32	232.67	17.02	-24.6	-25.3	17.6	3.40e-06	0	43	102	1048576	10	3912
2026-01-25 14:02:09.32	232.85	17.09	-24.6	-25.4	17.6	0.00e+00	0	43	102	1048576	10	3934
2026-01-25 14:02:10.32	233.04	17.16	-24.7	-25.6	17.5	0.00e+00	0	43	102	1048576	10	3973
2026-01-25 14:02:11.33	233.23	17.23	-24.8	-25.7	17.4	0.00e+00	0	44	102	1048576	10	4003
2026-01-25 14:02:12.33	233.41	17.30	-24.9	-25.9	17.3	0.00e+00	0	43	102	1048576	10	4066
2026-01-25 14:02:13.34	233.60	17.36	-24.6	-25.4	17.6	0.00e+00	0	43	102	1048576	10	3936
2026-01-25 14:02:14.35	233.79	17.43	-24.5	-25.2	17.7	0.00e+00	0	44	102	1048576	10	3877
2026-01-25 14:02:15.35	233.98	17.50	-24.5	-25.0	17.8	0.00e+00	0	43	102	1048576	10	3844
2026-01-25 14:02:16.35	234.17	17.57	-24.5	-25.1	17.7	0.00e+00	0	44	102	1048576	10	3865
2026-01-25 14:02:17.35	234.36	17.64	-24.5	-25.1	17.7	0.00e+00	0	43	102	1048576	10	3866
2026-01-25 14:02:18.36	234.56	17.71	-24.4	-24.8	17.9	0.00e+00	0	44	102	1048576	10	3793
2026-01-25 14:02:19.37	234.75	17.78	-24.4	-24.9	17.9	0.00e+00	0	44	102	1048576	10	3814
2026-01-25 14:02:20.38	234.95	17.84	-24.4	-24.9	17.9	0.00e+00	0	44	102	1048576	10	3825
2026-01-25 14:02:21.37	235.14	17.91	-24.4	-24.9	17.9	0.00e+00	0	43	102	1048576	10	3821
2026-01-25 14:02:22.38	235.34	17.98	-24.4	-24.9	17.9	0.00e+00	0	43	102	1048576	10	3812
2026-01-25 14:02:23.38	235.53	18.05	-24.3	-24.8	18.0	3.40e-06	0	44	102	1048576	10	3788
2026-01-25 14:02:24.39	235.73	18.12	-24.3	-24.7	18.0	0.00e+00	0	43	102	1048576	10	3774
2026-01-25 14:02:25.39	235.93	18.18	-24.4	-25.0	17.8	0.00e+00	0	43	102	1048576	10	3829
2026-01-25 14:02:26.38	236.12	18.25	-24.4	-24.9	17.9	0.00e+00	0	43	102	1048576	10	3822
2026-01-25 14:02:27.38	236.32	18.32	-24.2	-25.0	18.1	0.00e+00	0	43	102	1048576	9	3938
2026-01-25 14:02:28.38	236.52	18.38	-24.2	-24.9	18.1	0.00e+00	0	44	102	1048576	9	3913
2026-01-25 14:02:29.39	236.73	18.45	-24.3	-25.1	18.0	0.00e+00	0	44	102	1048576	9	3966
2026-01-25 14:02:30.40	236.93	18.52	-24.3	-25.1	18.0	0.00e+00	0	44	102	1048576	9	3975
2026-01-25 14:02:31.41	237.14	18.58	-24.3	-25.1	18.0	0.00e+00	0	43	102	1048576	9	3961
2026-01-25 14:02:32.42	237.34	18.65	-24.3	-25.2	18.0	0.00e+00	0	43	102	1048576	9	3993
2026-01-25 14:02:33.42	237.55	18.72	-24.4	-25.4	17.9	0.00e+00	0	44	102	1048576	9	4042
2026-01-25 14:02:34.43	237.75	18.78	-24.2	-25.0	18.1	0.00e+00	0	43	102	1048576	9	3948
2026-01-25 14:02:35.43	237.96	18.85	-24.1	-24.8	18.2	0.00e+00	0	43	102	1048576	9	3889
2026-01-25 14:02:36.43	238.17	18.91	-24.1	-24.8	18.2	0.00e+00	0	44	102	1048576	9	3890
2026-01-25 14:02:37.44	238.38	18.98	-24.2	-24.9	18.2	0.00e+00	0	43	102	1048576	9	3907
2026-01-25 14:02:38.44	238.58	19.04	-24.2	-24.9	18.2	0.00e+00	0	44	102	1048576	9	3920
2026-01-25 14:02:39.44	238.79	19.11	-24.1	-24.8	18.2	0.00e+00	0	43	102	1048576	9	3898
2026-01-25 14:02:40.44	239.01	19.17	-24.1	-24.7	18.3	0.00e+00	0	44	102	1048576	9	3862
2026-01-25 14:02:41.44	239.22	19.24	-24.2	-25.0	18.1	0.00e+00	0	44	102	1048576	9	3950
2026-01-25 14:02:42.45	239.43	19.30	-24.3	-25.3	18.0	0.00e+00	0	43	102	1048576	9	4008
2026-01-25 14:02:43.45	239.64	19.37	-24.3	-25.3	18.0	0.00e+00	0	44	102	1048576	9	4009
2026-01-25 14:02:44.45	239.86	19.43	-24.5	-25.6	17.8	0.00e+00	0	44	102	1048576	9	4087
2026-01-25 14:02:45.45	240.07	19.49	-24.4	-25.4	17.9	0.00e+00	0	43	102	1048576	9	4033
2026-01-25 14:02:46.46	240.29	19.56	-24.3	-25.3	17.9	0.00e+00	0	44	102	1048576	9	4008
2026-01-25 14:02:47.47	240.51	19.62	-24.4	-25.4	17.9	0.00e+00	0	44	102	1048576	9	4050
2026-01-25 14:02:48.48	240.73	19.68	-24.5	-25.5	17.9	0.00e+00	0	44	102	1048576	9	4068
2026-01-25 14:02:49.49	240.95	19.75	-24.4	-25.4	17.9	0.00e+00	0	44	102	1048576	9	4036
2026-01-25 14:02:50.49	241.17	19.81	-24.4	-25.4	17.9	0.00e+00	0	44	102	1048576	9	4041
2026-01-25 14:02:51.49	241.39	19.87	-24.4	-25.4	17.9	0.00e+00	0	43	102	1048576	9	4044
2026-01-25 14:02:52.50	241.61	19.93	-24.5	-25.7	17.8	0.00e+00	0	43	102	1048576	9	4107
2026-01-25 14:02:53.51	241.84	19.99	-24.5	-25.6	17.8	0.00e+00	0	43	102	1048576	9	4080
2026-01-25 14:02:54.51	242.06	20.06	-24.1	-24.8	18.2	0.00e+00	0	44	102	1048576	9	3882
2026-01-25 14:02:55.52	242.29	20.12	-23.8	-24.2	18.5	0.00e+00	0	43	102	1048576	9	3753
2026-01-25 14:02:56.53	242.51	20.18	-23.7	-24.5	18.7	0.00e+00	0	44	102	1048576	8	3920
2026-01-25 14:02:57.53	242.74	20.24	-23.7	-24.4	18.7	0.00e+00	0	44	102	1048576	8	3900
2026-01-25 14:02:58.54	242.97	20.30	-23.7	-24.5	18.6	0.00e+00	0	44	102	1048576	8	3927
2026-01-25 14:02:59.55	243.19	20.36	-23.9	-24.8	18.5	0.00e+00	0	44	102	1048576	8	4001
2026-01-25 14:03:00.55	243.42	20.42	-24.0	-25.1	18.3	0.00e+00	0	44	102	1048576	8	4086
2026-01-25 14:03:01.55	243.65	20.48	-24.1	-25.3	18.3	0.00e+00	0	43	102	1048576	8	4115
2026-01-25 14:03:02.56	243.88	20.54	-24.1	-25.2	18.3	0.00e+00	0	44	102	1048576	8	4093
2026-01-25 14:03:03.56	244.11	20.59	-23.9	-24.9	18.5	0.00e+00	0	44	102	1048576	8	4014
2026-01-25 14:03:04.56	244.35	20.65	-23.9	-24.9	18.5	0.00e+00	0	44	102	1048576	8	4018
2026-01-25 14:03:05.56	244.58	20.71	-23.8	-24.6	18.6	0.00e+00	0	44	102	1048576	8	3959
2026-01-25 14:03:06.56	244.81	20.77	-23.7	-24.4	18.7	0.00e+00	0	44	102	1048576	8	3898
2026-01-25 14:03:07.56	245.04	20.82	-23.9	-24.8	18.5	0.00e+00	0	43	102	1048576	8	4005
2026-01-25 14:03:08.57	245.28	20.88	-24.0	-25.0	18.4	0.00e+00	0	44	102	1048576	8	4037
2026-01-25 14:03:09.57	245.52	20.94	-23.9	-24.8	18.5	0.00e+00	0	44	102	1048576	8	3989
2026-01-25 14:03:10.57	245.75	20.99	-23.9	-24.9	18.5	0.00e+00	0	44	102	1048576	8	4025
2026-01-25 14:03:11.57	245.99	21.05	-23.9	-24.9	18.5	0.00e+00	0	44	102	1048576	8	4024
2026-01-25 14:03:12.58	246.23	21.10	-24.0	-25.1	18.4	0.00e+00	0	44	102	1048576	8	4067
2026-01-25 14:03:13.59	246.47	21.16	-24.0	-25.0	18.4	0.00e+00	0	44	102	1048576	8	4048
2026-01-25 14:03:14.59	246.71	21.21	-23.8	-24.6	18.7	0.00e+00	0	44	102	1048576	8	3948
2026-01-25 14:03:15.59	246.95	21.27	-23.7	-24.5	18.7	0.00e+00	0	44	102	1048576	8	3915
2026-01-25 14:03:16.59	247.19	21.32	-23.7	-24.4	18.7	0.00e+00	0	44	102	1048576	8	3912
2026-01-25 14:03:17.60	247.44	21.38	-23.7	-24.4	18.7	0.00e+00	0	44	102	1048576	8	3908
2026-01-25 14:03:18.60	247.68	21.43	-23.6	-24.2	18.9	0.00e+00	0	44	102	1048576	8	3851
2026-01-25 14:03:19.61	247.93	21.48	-23.5	-24.0	19.0	0.00e+00	0	44	102	1048576	8	3804
2026-01-25 14:03:20.61	248.17	21.53	-23.6	-24.1	18.9	0.00e+00	0	44	102	1048576	8	3842
2026-01-25 14:03:21.62	248.42	21.59	-23.6	-24.2	18.9	0.00e+00	0	44	102	1048576	8	3858
2026-01-25 14:03:22.63	248.67	21.64	-23.7	-24.4	18.8	0.00e+00	0	44	102	1048576	8	3914
2026-01-25 14:03:23.64	248.92	21.69	-23.8	-24.5	18.7	0.00e+00	0	44	102	1048576	8	3930
2026-01-25 14:03:24.64	249.17	21.74	-23.6	-24.3	18.8	0.00e+00	0	44	102	1048576	8	3871
2026-01-25 14:03:25.65	249.42	21.79	-23.6	-24.2	18.9	0.00e+00	0	44	102	1048576	8	3859
2026-01-25 14:03:26.65	249.67	21.84	-23.4	-23.9	19.0	0.00e+00	0	44	102	1048576	8	3781
2026-01-25 14:03:27.65	249.92	21.89	-23.4	-23.7	19.1	0.00e+00	0	44	102	1048576	8	3740
2026-01-25 14:03:28.66	250.17	21.94	-23.5	-24.0	19.0	0.00e+00	0	44	102	1048576	8	3815
2026-01-25 14:03:29.66	250.42	21.99	-23.7	-24.5	18.7	0.00e+00	0	44	102	1048576	8	3926
2026-01-25 14:03:30.66	250.67	22.03	-23.7	-24.4	18.8	0.00e+00	0	44	102	1048576	8	3902
2026-01-25 14:03:31.67	250.93	22.08	-23.5	-24.0	19.0	0.00e+00	0	44	102	1048576	8	3817
2026-01-25 14:03:32.67	251.18	22.13	-23.5	-24.1	19.0	0.00e+00	0	43	102	1048576	8	3823
2026-01-25 14:03:33.67	251.44	22.17	-23.6	-24.3	18.9	0.00e+00	0	44	102	1048576	8	3872
2026-01-25 14:03:34.67	251.69	22.22	-23.7	-24.5	18.7	2.20e-06	0	44	102	1048576	8	3929
2026-01-25 14:03:35.68	251.95	22.26	-23.7	-24.3	18.8	0.00e+00	0	44	102	1048576	8	3894
2026-01-25 14:03:36.69	252.21	22.31	-23.6	-24.2	18.9	0.00e+00	0	44	102	1048576	8	3845
2026-01-25 14:03:37.69	252.47	22.35	-23.5	-24.0	19.0	0.00e+00	0	44	102	1048576	8	3810
2026-01-25 14:03:38.70	252.73	22.40	-23.6	-24.2	18.9	0.00e+00	0	44	102	1048576	8	3859
2026-01-25 14:03:39.71	252.99	22.44	-23.5	-24.0	19.0	0.00e+00	0	43	102	1048576	8	3812
2026-01-25 14:03:40.71	253.25	22.48	-23.5	-23.9	19.1	0.00e+00	0	44	102	1048576	8	3780
2026-01-25 14:03:41.71	253.51	22.53	-23.5	-24.1	19.0	0.00e+00	0	44	102	1048576	8	3827
2026-01-25 14:03:42.71	253.77	22.57	-23.5	-24.0	19.0	0.00e+00	0	44	102	1048576	8	3814
2026-01-25 14:03:43.71	254.04	22.61	-23.7	-24.3	18.9	0.00e+00	0	44	102	1048576	8	3893
2026-01-25 14:03:44.71	254.30	22.65	-23.6	-24.2	18.9	0.00e+00	0	44	102	1048576	8	3858
2026-01-25 14:03:45.72	254.56	22.69	-23.4	-23.8	19.1	0.00e+00	0	44	102	1048576	8	3772
2026-01-25 14:03:46.72	254.83	22.73	-23.4	-23.8	19.1	0.00e+00	0	44	102	1048576	8	3761
2026-01-25 14:03:47.72	255.09	22.77	-23.4	-23.8	19.1	0.00e+00	0	44	102	1048576	8	3765
2026-01-25 14:03:48.72	255.36	22.80	-23.6	-24.1	19.0	0.00e+00	0	44	102	1048576	8	3839
2026-01-25 14:03:49.73	255.62	22.84	-23.5	-23.9	19.1	0.00e+00	0	44	102	1048576	8	3789
2026-01-25 14:03:50.73	255.89	22.88	-23.4	-23.8	19.2	0.00e+00	0	44	102	1048576	8	3754
2026-01-25 14:03:51.73	256.16	22.92	-23.5	-24.0	19.0	0.00e+00	0	44	102	1048576	8	3812
2026-01-25 14:03:52.74	256.43	22.95	-23.4	-23.8	19.1	0.00e+00	0	44	102	1048576	8	3766
2026-01-25 14:03:53.74	256.70	22.99	-23.3	-23.6	19.2	0.00e+00	0	44	102	1048576	8	3729
2026-01-25 14:03:54.74	256.96	23.02	-23.3	-23.6	19.2	0.00e+00	0	44	102	1048576	8	3717
2026-01-25 14:03:55.74	257.23	23.06	-23.3	-23.6	19.2	0.00e+00	0	44	102	1048576	8	3710
2026-01-25 14:03:56.75	257.51	23.09	-23.2	-23.9	19.3	0.00e+00	0	44	102	1048576	7	3890
2026-01-25 14:03:57.75	257.78	23.12	-23.3	-24.0	19.2	0.00e+00	0	44	102	1048576	7	3928
2026-01-25 14:03:58.76	258.05	23.16	-23.3	-24.0	19.3	0.00e+00	0	44	102	1048576	7	3912
2026-01-25 14:03:59.76	258.32	23.19	-23.2	-23.8	19.4	0.00e+00	0	44	102	1048576	7	3862
2026-01-25 14:04:00.76	258.59	23.22	-23.2	-23.8	19.4	0.00e+00	0	44	102	1048576	7	3872
2026-01-25 14:04:01.76	258.87	23.25	-23.2	-23.8	19.4	0.00e+00	0	44	102	1048576	7	3870
2026-01-25 14:04:02.77	259.14	23.28	-23.2	-23.9	19.3	0.00e+00	0	44	102	1048576	7	3891
2026-01-25 14:04:03.77	259.42	23.31	-23.3	-24.1	19.2	0.00e+00	0	44	102	1048576	7	3933
2026-01-25 14:04:04.78	259.69	23.34	-23.4	-24.2	19.2	0.00e+00	0	44	102	1048576	7	3955
2026-01-25 14:04:05.78	259.97	23.36	-23.3	-24.1	19.2	0.00e+00	0	44	102	1048576	7	3940
2026-01-25 14:04:06.79	260.24	23.39	-23.4	-24.2	19.1	0.00e+00	0	44	102	1048576	7	3971
2026-01-25 14:04:07.79	260.52	23.42	-23.3	-24.0	19.3	0.00e+00	0	44	102	1048576	7	3908
2026-01-25 14:04:08.80	260.80	23.44	-23.1	-23.7	19.4	0.00e+00	0	44	102	1048576	7	3834
2026-01-25 14:04:09.81	261.08	23.47	-23.1	-23.7	19.4	0.00e+00	0	44	102	1048576	7	3840
2026-01-25 14:04:10.82	261.36	23.50	-23.2	-23.8	19.4	0.00e+00	0	44	102	1048576	7	3873
2026-01-25 14:04:11.82	261.63	23.52	-23.5	-24.4	19.1	0.00e+00	0	44	102	1048576	7	4012
2026-01-25 14:04:12.82	261.91	23.54	-23.4	-24.2	19.2	0.00e+00	0	44	102	1048576	7	3947
2026-01-25 14:04:13.83	262.19	23.57	-23.2	-23.9	19.4	0.00e+00	0	44	102	1048576	7	3884
2026-01-25 14:04:14.84	262.47	23.59	-23.1	-23.6	19.5	0.00e+00	0	44	102	1048576	7	3814
2026-01-25 14:04:15.84	262.75	23.61	-23.0	-23.4	19.6	0.00e+00	0	44	102	1048576	7	3764
2026-01-25 14:04:16.85	263.03	23.63	-23.0	-23.5	19.5	0.00e+00	0	44	102	1048576	7	3801
2026-01-25 14:04:17.85	263.31	23.65	-22.9	-23.3	19.7	0.00e+00	0	44	102	1048576	7	3750
2026-01-25 14:04:18.86	263.60	23.67	-23.0	-23.5	19.6	0.00e+00	0	44	102	1048576	7	3787
2026-01-25 14:04:19.86	263.88	23.69	-23.1	-23.7	19.5	0.00e+00	0	44	102	1048576	7	3845
2026-01-25 14:04:20.87	264.16	23.70	-23.2	-23.8	19.4	0.00e+00	0	44	102	1048576	7	3867
2026-01-25 14:04:21.87	264.44	23.72	-23.1	-23.6	19.5	0.00e+00	0	44	102	1048576	7	3822
2026-01-25 14:04:22.88	264.72	23.74	-23.0	-23.5	19.6	0.00e+00	0	44	102	1048576	7	3792
2026-01-25 14:04:23.88	265.00	23.75	-23.2	-23.9	19.4	0.00e+00	0	44	102	1048576	7	3877
2026-01-25 14:04:24.89	265.29	23.77	-23.0	-23.5	19.5	1.10e-06	0	44	102	1048576	7	3797
2026-01-25 14:04:25.89	265.57	23.78	-23.2	-23.8	19.4	0.00e+00	0	44	102	1048576	7	3860
2026-01-25 14:04:26.90	265.86	23.80	-23.4	-24.3	19.1	0.00e+00	0	44	102	1048576	7	3994
2026-01-25 14:04:27.91	266.14	23.81	-23.5	-24.4	19.1	0.00e+00	0	44	102	1048576	7	4021
2026-01-25 14:04:28.91	266.42	23.82	-23.5	-24.5	19.0	0.00e+00	0	44	102	1048576	7	4026
2026-01-25 14:04:29.92	266.71	23.83	-23.4	-24.2	19.2	0.00e+00	0	44	102	1048576	7	3961
2026-01-25 14:04:30.92	266.99	23.84	-23.3	-24.0	19.3	2.20e-06	0	44	102	1048576	7	3913
2026-01-25 14:04:31.93	267.28	23.86	-23.4	-24.2	19.2	0.00e+00	0	44	102	1048576	7	3953
2026-01-25 14:04:32.93	267.56	23.86	-23.3	-24.0	19.3	0.00e+00	0	44	102	1048576	7	3924
2026-01-25 14:04:33.94	267.85	23.87	-23.2	-23.8	19.4	0.00e+00	0	44	102	1048576	7	3870
2026-01-25 14:04:34.94	268.13	23.88	-23.1	-23.7	19.4	0.00e+00	0	44	102	1048576	7	3845
2026-01-25 14:04:35.94	268.41	23.89	-23.2	-23.9	19.3	0.00e+00	0	44	102	1048576	7	3893
2026-01-25 14:04:36.94	268.70	23.89	-23.2	-23.9	19.3	0.00e+00	0	44	102	1048576	7	3893
2026-01-25 14:04:37.94	268.98	23.90	-23.2	-23.8	19.4	0.00e+00	0	44	102	1048576	7	3868
2026-01-25 14:04:38.94	269.27	23.91	-23.3	-24.0	19.3	0.00e+00	0	44	102	1048576	7	3907
2026-01-25 14:04:39.94	269.55	23.91	-23.0	-23.4	19.6	0.00e+00	0	44	102	1048576	7	3785
2026-01-25 14:04:40.95	269.84	23.91	-22.9	-23.2	19.7	0.00e+00	0	44	102	1048576	7	3717
2026-01-25 14:04:41.96	270.12	23.92	-23.0	-23.4	19.6	0.00e+00	0	44	102	1048576	7	3781
2026-01-25 14:04:42.96	270.41	23.92	-23.0	-23.5	19.5	0.00e+00	0	44	102	1048576	7	3787
2026-01-25 14:04:43.97	270.69	23.92	-23.0	-23.5	19.5	0.00e+00	0	44	102	1048576	7	3800
2026-01-25 14:04:44.97	270.98	23.92	-23.0	-23.5	19.5	0.00e+00	0	44	102	1048576	7	3791
2026-01-25 14:04:45.97	271.26	23.92	-23.1	-23.6	19.5	0.00e+00	0	44	102	1048576	7	3821
2026-01-25 14:04:46.98	271.55	23.92	-23.1	-23.6	19.5	0.00e+00	0	44	102	1048576	7	3825
2026-01-25 14:04:47.98	271.83	23.92	-23.2	-23.9	19.3	0.00e+00	0	44	102	1048576	7	3899
2026-01-25 14:04:48.98	272.12	23.92	-23.1	-23.7	19.4	0.00e+00	0	44	102	1048576	7	3849
2026-01-25 14:04:49.99	272.40	23.91	-23.3	-24.0	19.3	0.00e+00	0	44	102	1048576	7	3909
2026-01-25 14:04:51.00	272.69	23.91	-23.1	-23.6	19.5	0.00e+00	0	44	102	1048576	7	3808
2026-01-25 14:04:52.00	272.98	23.90	-23.0	-23.4	19.6	0.00e+00	0	44	102	1048576	7	3779
2026-01-25 14:04:53.00	273.26	23.90	-23.0	-23.5	19.6	0.00e+00	0	44	102	1048576	7	3802
2026-01-25 14:04:54.01	273.55	23.89	-23.0	-23.4	19.6	0.00e+00	0	44	102	1048576	7	3778
2026-01-25 14:04:55.01	273.83	23.89	-23.2	-23.8	19.4	0.00e+00	0	44	102	1048576	7	3861
2026-01-25 14:04:56.01	274.11	23.88	-23.1	-23.6	19.5	0.00e+00	0	44	102	1048576	7	3835
2026-01-25 14:04:57.02	274.40	23.87	-23.1	-23.6	19.5	0.00e+00	0	44	102	1048576	7	3814
2026-01-25 14:04:58.01	274.68	23.86	-23.1	-23.7	19.4	0.00e+00	0	44	102	1048576	7	3835
2026-01-25 14:04:59.02	274.96	23.85	-23.3	-24.0	19.3	0.00e+00	0	44	102	1048576	7	3905
2026-01-25 14:05:00.02	275.25	23.84	-23.0	-23.5	19.5	0.00e+00	0	44	102	1048576	7	3803
2026-01-25 14:05:01.03	275.53	23.83	-23.1	-23.6	19.5	0.00e+00	0	44	102	1048576	7	3814
2026-01-25 14:05:02.03	275.82	23.82	-23.3	-24.0	19.3	0.00e+00	0	44	102	1048576	7	3922
2026-01-25 14:05:03.04	276.10	23.81	-23.1	-23.6	19.4	0.00e+00	0	44	102	1048576	7	3828
2026-01-25 14:05:04.05	276.38	23.79	-23.1	-23.7	19.4	0.00e+00	0	44	102	1048576	7	3832
2026-01-25 14:05:05.06	276.67	23.78	-23.3	-24.0	19.3	0.00e+00	0	44	102	1048576	7	3910
2026-01-25 14:05:06.05	276.95	23.77	-23.2	-23.8	19.4	0.00e+00	0	44	102	1048576	7	3875
2026-01-25 14:05:07.06	277.23	23.75	-23.3	-24.1	19.2	0.00e+00	0	44	102	1048576	7	3945
2026-01-25 14:05:08.07	277.52	23.73	-23.1	-23.7	19.4	0.00e+00	0	44	102	1048576	7	3846
2026-01-25 14:05:09.07	277.80	23.72	-23.1	-23.6	19.5	0.00e+00	0	44	102	1048576	7	3825
2026-01-25 14:05:10.08	278.08	23.70	-23.2	-23.8	19.4	0.00e+00	0	44	102	1048576	7	3872
2026-01-25 14:05:11.08	278.36	23.68	-23.2	-23.9	19.3	0.00e+00	0	44	102	1048576	7	3893
2026-01-25 14:05:12.09	278.64	23.66	-23.3	-24.0	19.3	0.00e+00	0	44	102	1048576	7	3912
2026-01-25 14:05:13.09	278.92	23.64	-23.1	-23.6	19.5	0.00e+00	0	44	102	1048576	7	3813
2026-01-25 14:05:14.10	279.20	23.62	-23.1	-23.6	19.5	0.00e+00	0	44	102	1048576	7	3816
2026-01-25 14:05:15.11	279.48	23.60	-23.2	-23.9	19.4	0.00e+00	0	44	102	1048576	7	3879
2026-01-25 14:05:16.11	279.76	23.58	-23.1	-23.6	19.5	0.00e+00	0	44	102	1048576	7	3818
2026-01-25 14:05:17.11	280.04	23.56	-23.1	-23.5	19.5	0.00e+00	0	44	102	1048576	7	3805
2026-01-25 14:05:18.11	280.32	23.54	-23.1	-23.7	19.4	0.00e+00	0	44	102	1048576	7	3844
2026-01-25 14:05:19.12	280.60	23.51	-23.1	-23.5	19.5	0.00e+00	0	44	102	1048576	7	3807
2026-01-25 14:05:20.13	280.88	23.49	-23.1	-23.6	19.5	0.00e+00	0	44	102	1048576	7	3819
2026-01-25 14:05:21.13	281.15	23.46	-23.1	-23.6	19.5	0.00e+00	0	44	102	1048576	7	3814
2026-01-25 14:05:22.14	281.43	23.44	-23.1	-23.6	19.5	0.00e+00	0	44	102	1048576	7	3829
2026-01-25 14:05:23.14	281.71	23.41	-23.1	-23.6	19.5	0.00e+00	0	44	102	1048576	7	3826
2026-01-25 14:05:24.15	281.98	23.39	-23.2	-23.9	19.4	0.00e+00	0	44	102	1048576	7	3891
2026-01-25 14:05:25.15	282.26	23.36	-23.3	-24.0	19.3	0.00e+00	0	44	102	1048576	7	3920
2026-01-25 14:05:26.15	282.53	23.33	-23.4	-24.2	19.2	0.00e+00	0	44	102	1048576	7	3965
2026-01-25 14:05:27.16	282.81	23.30	-23.2	-23.9	19.3	0.00e+00	0	44	102	1048576	7	3890
2026-01-25 14:05:28.16	283.08	23.27	-23.2	-23.9	19.3	0.00e+00	0	44	102	1048576	7	3893
2026-01-25 14:05:29.16	283.35	23.24	-23.3	-24.1	19.3	0.00e+00	0	44	102	1048576	7	3934
2026-01-25 14:05:30.16	283.63	23.21	-23.2	-23.9	19.3	0.00e+00	0	44	102	1048576	7	3885
2026-01-25 14:05:31.17	283.90	23.18	-23.3	-24.0	19.3	0.00e+00	0	44	102	1048576	7	3905
2026-01-25 14:05:32.17	284.17	23.15	-23.4	-24.2	19.2	0.00e+00	0	44	102	1048576	7	3949
2026-01-25 14:05:33.18	284.44	23.12	-23.2	-23.9	19.3	0.00e+00	0	44	102	1048576	7	3900
2026-01-25 14:05:34.18	284.71	23.08	-23.3	-24.1	19.3	0.00e+00	0	44	102	1048576	7	3925
2026-01-25 14:05:35.19	284.98	23.05	-23.3	-24.1	19.2	0.00e+00	0	44	102	1048576	7	3935
2026-01-25 14:05:36.19	285.25	23.02	-23.4	-24.2	19.2	0.00e+00	0	44	102	1048576	7	3957
2026-01-25 14:05:37.20	285.52	22.98	-23.4	-24.2	19.2	0.00e+00	0	44	102	1048576	7	3951
2026-01-25 14:05:38.20	285.79	22.95	-23.5	-24.4	19.0	0.00e+00	0	44	102	1048576	7	4017
2026-01-25 14:05:39.21	286.06	22.91	-23.5	-24.4	19.1	0.00e+00	0	44	102	1048576	7	4012
2026-01-25 14:05:40.20	286.32	22.87	-23.6	-24.6	19.0	0.00e+00	0	44	102	1048576	7	4060
2026-01-25 14:05:41.21	286.59	22.84	-23.7	-24.9	18.8	0.00e+00	0	44	102	1048576	7	4125
2026-01-25 14:05:42.21	286.86	22.80	-23.5	-24.6	19.0	0.00e+00	0	44	102	1048576	7	4057
2026-01-25 14:05:43.21	287.12	22.76	-23.6	-24.6	18.9	0.00e+00	0	44	102	1048576	7	4067
2026-01-25 14:05:44.21	287.38	22.72	-23.6	-24.7	18.9	0.00e+00	0	44	102	1048576	7	4075
2026-01-25 14:05:45.21	287.65	22.68	-23.4	-24.3	19.1	0.00e+00	0	44	102	1048576	7	3991
2026-01-25 14:05:46.22	287.91	22.64	-23.4	-24.3	19.1	0.00e+00	0	44	102	1048576	7	3976
2026-01-25 14:05:47.22	288.17	22.60	-23.5	-24.4	19.1	0.00e+00	0	44	102	1048576	7	4015
2026-01-25 14:05:48.22	288.43	22.56	-23.4	-24.3	19.1	0.00e+00	0	44	102	1048576	7	3986
2026-01-25 14:05:49.23	288.70	22.52	-23.6	-24.6	19.0	0.00e+00	0	44	102	1048576	7	4055
2026-01-25 14:05:50.23	288.96	22.48	-23.5	-24.4	19.1	0.00e+00	0	44	102	1048576	7	4010
2026-01-25 14:05:51.23	289.22	22.43	-23.5	-24.4	19.1	0.00e+00	0	44	102	1048576	7	4004
2026-01-25 14:05:52.24	289.48	22.39	-23.5	-24.5	19.0	0.00e+00	0	44	102	1048576	7	4042
2026-01-25 14:05:53.23	289.73	22.35	-23.5	-24.5	19.0	0.00e+00	0	44	102	1048576	7	4043
2026-01-25 14:05:54.24	289.99	22.30	-23.6	-24.7	18.9	0.00e+00	0	44	102	1048576	7	4083
2026-01-25 14:05:55.24	290.25	22.26	-23.7	-25.0	18.8	0.00e+00	0	44	102	1048576	7	4159
2026-01-25 14:05:56.25	290.50	22.21	-23.7	-24.9	18.8	0.00e+00	0	44	102	1048576	7	4132
2026-01-25 14:05:57.26	290.76	22.17	-23.8	-25.1	18.7	0.00e+00	0	44	102	1048576	7	4180
2026-01-25 14:05:58.27	291.02	22.12	-23.8	-25.2	18.7	0.00e+00	0	44	102	1048576	7	4203
2026-01-25 14:05:59.27	291.27	22.08	-23.8	-25.1	18.7	0.00e+00	0	44	102	1048576	7	4196
2026-01-25 14:06:00.27	291.52	22.03	-23.8	-25.2	18.7	0.00e+00	0	44	102	1048576	7	4198
2026-01-25 14:06:01.27	291.77	21.98	-23.8	-25.1	18.7	0.00e+00	0	44	102	1048576	7	4179
2026-01-25 14:06:02.28	292.03	21.93	-23.6	-24.7	18.9	0.00e+00	0	44	102	1048576	7	4071
2026-01-25 14:06:03.29	292.28	21.88	-23.6	-24.6	19.0	0.00e+00	0	44	102	1048576	7	4055
2026-01-25 14:06:04.29	292.53	21.83	-23.6	-24.7	18.9	0.00e+00	0	44	102	1048576	7	4077
2026-01-25 14:06:05.30	292.78	21.79	-23.6	-24.7	18.9	0.00e+00	0	44	102	1048576	7	4092
2026-01-25 14:06:06.30	293.03	21.74	-23.8	-25.0	18.7	0.00e+00	0	44	102	1048576	7	4162
2026-01-25 14:06:07.31	293.28	21.68	-23.8	-25.1	18.7	0.00e+00	0	44	102	1048576	7	4173
2026-01-25 14:06:08.31	293.52	21.63	-23.8	-25.1	18.7	0.00e+00	0	44	102	1048576	7	4188
2026-01-25 14:06:09.32	293.77	21.58	-23.8	-25.2	18.6	0.00e+00	0	44	102	1048576	7	4209
2026-01-25 14:06:10.33	294.02	21.53	-23.8	-25.2	18.6	0.00e+00	0	44	102	1048576	7	4204
2026-01-25 14:06:11.33	294.26	21.48	-23.9	-25.2	18.6	0.00e+00	0	44	102	1048576	7	4214
2026-01-25 14:06:12.34	294.51	21.43	-23.9	-25.3	18.6	0.00e+00	0	44	102	1048576	7	4244
2026-01-25 14:06:13.34	294.75	21.37	-23.8	-25.2	18.6	0.00e+00	0	44	102	1048576	7	4202
2026-01-25 14:06:14.34	294.99	21.32	-23.9	-25.3	18.6	0.00e+00	0	44	102	1048576	7	4223
2026-01-25 14:06:15.35	295.23	21.27	-23.9	-25.3	18.6	0.00e+00	0	44	102	1048576	7	4226
2026-01-25 14:06:16.35	295.47	21.21	-23.9	-25.4	18.5	0.00e+00	0	44	102	1048576	7	4261
2026-01-25 14:06:17.36	295.71	21.16	-24.0	-25.0	18.5	0.00e+00	0	44	102	1048576	8	4044
2026-01-25 14:06:18.36	295.95	21.10	-23.9	-24.8	18.6	0.00e+00	0	44	102	1048576	8	4008
2026-01-25 14:06:19.37	296.19	21.05	-23.9	-24.8	18.6	0.00e+00	0	44	102	1048576	8	4000
2026-01-25 14:06:20.37	296.43	20.99	-24.0	-25.1	18.5	0.00e+00	0	44	102	1048576	8	4066
2026-01-25 14:06:21.37	296.66	20.94	-24.1	-25.3	18.4	0.00e+00	0	44	102	1048576	8	4111
2026-01-25 14:06:22.38	296.90	20.88	-24.1	-25.3	18.3	0.00e+00	0	44	102	1048576	8	4136
2026-01-25 14:06:23.38	297.13	20.82	-24.3	-25.6	18.2	0.00e+00	0	44	102	1048576	8	4202
2026-01-25 14:06:24.39	297.37	20.77	-24.1	-25.3	18.3	0.00e+00	0	44	102	1048576	8	4121
2026-01-25 14:06:25.39	297.60	20.71	-24.1	-25.2	18.4	0.00e+00	0	44	102	1048576	8	4099
2026-01-25 14:06:26.40	297.83	20.65	-24.1	-25.1	18.4	0.00e+00	0	44	102	1048576	8	4078
2026-01-25 14:06:27.40	298.06	20.59	-24.0	-25.1	18.5	0.00e+00	0	44	102	1048576	8	4068
2026-01-25 14:06:28.40	298.29	20.54	-24.1	-25.2	18.4	0.00e+00	0	44	102	1048576	8	4090
2026-01-25 14:06:29.40	298.52	20.48	-24.0	-25.1	18.4	0.00e+00	0	44	102	1048576	8	4065
2026-01-25 14:06:30.41	298.75	20.42	-24.1	-25.2	18.3	0.00e+00	0	44	102	1048576	8	4105
2026-01-25 14:06:31.41	298.98	20.36	-24.1	-25.3	18.3	0.00e+00	0	44	102	1048576	8	4130
2026-01-25 14:06:32.42	299.21	20.30	-24.2	-25.4	18.3	0.00e+00	0	44	102	1048576	8	4142
2026-01-25 14:06:33.42	299.43	20.24	-24.2	-25.5	18.2	0.00e+00	0	44	102	1048576	8	4166
2026-01-25 14:06:34.42	299.66	20.18	-24.2	-25.5	18.2	0.00e+00	0	44	102	1048576	8	4175
2026-01-25 14:06:35.42	299.88	20.12	-24.2	-25.4	18.3	0.00e+00	0	44	102	1048576	8	4139
2026-01-25 14:06:36.43	300.10	20.06	-24.1	-25.2	18.4	0.00e+00	0	44	102	1048576	8	4085
2026-01-25 14:06:37.43	300.33	20.00	-24.2	-25.4	18.3	0.00e+00	0	44	102	1048576	8	4131
2026-01-25 14:06:38.44	300.55	19.94	-24.2	-25.5	18.2	1.10e-06	0	44	102	1048576	8	4174
2026-01-25 14:06:39.44	300.77	19.88	-24.1	-25.3	18.3	0.00e+00	0	44	102	1048576	8	4127
2026-01-25 14:06:40.45	300.99	19.81	-24.2	-25.5	18.2	0.00e+00	0	44	102	1048576	8	4184
2026-01-25 14:06:41.45	301.21	19.75	-24.4	-25.9	18.0	0.00e+00	0	44	102	1048576	8	4268
2026-01-25 14:06:42.45	301.43	19.69	-24.4	-26.0	17.9	0.00e+00	0	44	102	1048576	8	4302
2026-01-25 14:06:43.46	301.64	19.63	-24.6	-25.9	17.8	0.00e+00	0	44	102	1048576	9	4167
2026-01-25 14:06:44.46	301.86	19.56	-24.7	-26.0	17.7	2.20e-06	0	44	102	1048576	9	4196
2026-01-25 14:06:45.47	302.08	19.50	-24.6	-25.7	17.8	0.00e+00	0	44	102	1048576	9	4120
2026-01-25 14:06:46.48	302.29	19.44	-24.5	-25.6	17.9	0.00e+00	0	44	102	1048576	9	4088
2026-01-25 14:06:47.49	302.51	19.37	-24.5	-25.7	17.8	1.10e-06	0	44	102	1048576	9	4107
2026-01-25 14:06:48.49	302.72	19.31	-24.5	-25.7	17.8	0.00e+00	0	44	102	1048576	9	4097
2026-01-25 14:06:49.49	302.93	19.25	-24.6	-25.7	17.8	0.00e+00	0	44	102	1048576	9	4117
2026-01-25 14:06:50.49	303.14	19.18	-24.7	-25.9	17.7	3.40e-06	0	44	102	1048576	9	4164
2026-01-25 14:06:51.49	303.35	19.12	-24.5	-25.6	17.9	0.00e+00	0	44	102	1048576	9	4074
2026-01-25 14:06:52.50	303.56	19.05	-24.4	-25.4	18.0	0.00e+00	0	44	102	1048576	9	4031
2026-01-25 14:06:53.50	303.77	18.99	-24.4	-25.4	18.0	0.00e+00	0	44	102	1048576	9	4037
2026-01-25 14:06:54.51	303.98	18.92	-24.4	-25.3	18.0	0.00e+00	0	44	102	1048576	9	4015
2026-01-25 14:06:55.52	304.19	18.86	-24.4	-25.4	18.0	0.00e+00	0	44	102	1048576	9	4045
2026-01-25 14:06:56.52	304.39	18.79	-24.4	-25.5	17.9	0.00e+00	0	44	102	1048576	9	4055
2026-01-25 14:06:57.52	304.60	18.73	-24.5	-25.5	17.9	0.00e+00	0	44	102	1048576	9	4064
2026-01-25 14:06:58.52	304.80	18.66	-24.5	-25.5	17.9	0.00e+00	0	44	102	1048576	9	4062
2026-01-25 14:06:59.53	305.00	18.60	-24.5	-25.6	17.8	0.00e+00	0	44	102	1048576	9	4086
2026-01-25 14:07:00.53	305.21	18.53	-24.6	-25.9	17.7	0.00e+00	0	44	102	1048576	9	4159
2026-01-25 14:07:01.53	305.41	18.47	-24.7	-26.0	17.7	0.00e+00	0	44	102	1048576	9	4191
2026-01-25 14:07:02.54	305.61	18.40	-24.7	-26.0	17.6	0.00e+00	0	44	102	1048576	9	4193
2026-01-25 14:07:03.54	305.81	18.33	-24.7	-26.0	17.7	0.00e+00	0	44	102	1048576	9	4187
2026-01-25 14:07:04.55	306.01	18.27	-24.7	-26.0	17.6	0.00e+00	0	44	102	1048576	9	4186
2026-01-25 14:07:05.55	306.21	18.20	-24.8	-26.2	17.6	0.00e+00	0	44	102	1048576	9	4227
2026-01-25 14:07:06.55	306.40	18.13	-24.8	-26.3	17.5	0.00e+00	0	44	102	1048576	9	4253
2026-01-25 14:07:07.55	306.60	18.07	-24.9	-26.4	17.4	0.00e+00	0	44	102	1048576	9	4283
2026-01-25 14:07:08.55	306.79	18.00	-25.0	-26.2	17.3	0.00e+00	0	44	102	1048576	10	4136
2026-01-25 14:07:09.55	306.99	17.93	-25.2	-26.5	17.1	0.00e+00	0	44	102	1048576	10	4204
2026-01-25 14:07:10.56	307.18	17.86	-25.2	-26.6	17.1	0.00e+00	0	44	102	1048576	10	4234
2026-01-25 14:07:11.56	307.38	17.80	-25.1	-26.4	17.1	0.00e+00	0	44	102	1048576	10	4179
2026-01-25 14:07:12.57	307.57	17.73	-25.1	-26.4	17.2	0.00e+00	0	44	102	1048576	10	4172
2026-01-25 14:07:13.58	307.76	17.66	-25.2	-26.6	17.0	0.00e+00	0	44	102	1048576	10	4239
2026-01-25 14:07:14.58	307.95	17.59	-25.2	-26.6	17.1	0.00e+00	0	44	102	1048576	10	4220
2026-01-25 14:07:15.59	308.14	17.52	-25.2	-26.6	17.0	0.00e+00	0	44	102	1048576	10	4232
2026-01-25 14:07:16.59	308.33	17.46	-25.2	-26.6	17.0	0.00e+00	0	44	102	1048576	10	4230
2026-01-25 14:07:17.59	308.52	17.39	-25.3	-26.8	16.9	0.00e+00	0	44	102	1048576	10	4287
2026-01-25 14:07:18.59	308.71	17.32	-25.2	-26.7	17.0	0.00e+00	0	44	102	1048576	10	4253
2026-01-25 14:07:19.60	308.89	17.25	-25.2	-26.6	17.1	0.00e+00	0	44	102	1048576	10	4230
2026-01-25 14:07:20.59	309.08	17.18	-25.1	-26.5	17.1	0.00e+00	0	44	102	1048576	10	4194
2026-01-25 14:07:21.60	309.26	17.12	-25.2	-26.6	17.0	0.00e+00	0	44	102	1048576	10	4237
2026-01-25 14:07:22.59	309.44	17.05	-25.2	-26.5	17.1	0.00e+00	0	44	102	1048576	10	4214
2026-01-25 14:07:23.60	309.63	16.98	-24.9	-26.0	17.4	0.00e+00	0	44	102	1048576	10	4067
2026-01-25 14:07:24.61	309.81	16.91	-24.8	-25.8	17.5	0.00e+00	0	44	102	1048576	10	4025
2026-01-25 14:07:25.61	309.99	16.84	-24.9	-25.9	17.4	0.00e+00	0	44	102	1048576	10	4041
2026-01-25 14:07:26.62	310.17	16.77	-24.9	-25.9	17.4	0.00e+00	0	44	102	1048576	10	4059
2026-01-25 14:07:27.62	310.35	16.70	-25.0	-26.1	17.3	0.00e+00	0	44	102	1048576	10	4102
2026-01-25 14:07:28.63	310.53	16.63	-25.0	-26.1	17.3	0.00e+00	0	44	102	1048576	10	4112
2026-01-25 14:07:29.64	310.71	16.56	-25.0	-26.3	17.2	0.00e+00	0	44	102	1048576	10	4146
2026-01-25 14:07:30.65	310.89	16.49	-25.2	-26.6	17.0	0.00e+00	0	44	102	1048576	10	4243
2026-01-25 14:07:31.64	311.07	16.43	-25.2	-26.7	17.0	0.00e+00	0	44	102	1048576	10	4251
2026-01-25 14:07:32.64	311.24	16.36	-25.1	-26.4	17.1	0.00e+00	0	44	102	1048576	10	4185
2026-01-25 14:07:33.65	311.42	16.29	-25.1	-26.4	17.1	0.00e+00	0	44	102	1048576	10	4186
2026-01-25 14:07:34.66	311.59	16.22	-25.1	-26.3	17.2	0.00e+00	0	44	102	1048576	10	4157
2026-01-25 14:07:35.66	311.77	16.15	-25.2	-26.6	17.0	0.00e+00	0	44	102	1048576	10	4236
2026-01-25 14:07:36.66	311.94	16.08	-25.2	-26.5	17.0	0.00e+00	0	44	102	1048576	10	4213
2026-01-25 14:07:37.66	312.11	16.01	-25.1	-26.3	17.2	0.00e+00	0	44	102	1048576	10	4158
2026-01-25 14:07:38.67	312.28	15.94	-25.1	-26.4	17.1	0.00e+00	0	44	102	1048576	10	4192
2026-01-25 14:07:39.67	312.45	15.87	-25.3	-26.7	16.9	0.00e+00	0	44	102	1048576	10	4269
2026-01-25 14:07:40.68	312.62	15.80	-25.4	-27.0	16.8	0.00e+00	0	44	102	1048576	10	4347
2026-01-25 14:07:41.68	312.79	15.73	-25.6	-27.0	16.6	0.00e+00	0	44	102	1048576	11	4217
2026-01-25 14:07:42.68	312.96	15.66	-25.8	-27.5	16.3	0.00e+00	0	44	102	1048576	11	4354
2026-01-25 14:07:43.68	313.13	15.59	-25.8	-27.4	16.3	0.00e+00	0	44	102	1048576	11	4350
2026-01-25 14:07:44.68	313.29	15.52	-25.6	-27.0	16.5	0.00e+00	0	44	102	1048576	11	4220
2026-01-25 14:07:45.68	313.46	15.45	-25.5	-26.7	16.7	0.00e+00	0	44	102	1048576	11	4146
2026-01-25 14:07:46.69	313.62	15.38	-25.5	-26.8	16.6	0.00e+00	0	44	102	1048576	11	4168
2026-01-25 14:07:47.69	313.79	15.31	-25.6	-27.0	16.5	0.00e+00	0	44	102	1048576	11	4226
2026-01-25 14:07:48.69	313.95	15.24	-25.8	-27.3	16.3	0.00e+00	0	44	102	1048576	11	4303
2026-01-25 14:07:49.69	314.11	15.17	-25.7	-27.1	16.4	0.00e+00	0	44	102	1048576	11	4260
2026-01-25 14:07:50.70	314.28	15.10	-25.7	-27.1	16.4	0.00e+00	0	44	102	1048576	11	4255
2026-01-25 14:07:51.70	314.44	15.03	-25.7	-27.2	16.3	0.00e+00	0	44	102	1048576	11	4275
2026-01-25 14:07:52.71	314.60	14.96	-25.7	-27.3	16.3	0.00e+00	0	44	102	1048576	11	4299
2026-01-25 14:07:53.71	314.76	14.89	-25.9	-27.6	16.1	0.00e+00	0	44	102	1048576	11	4389
2026-01-25 14:07:54.71	314.92	14.82	-25.9	-27.2	16.0	0.00e+00	0	44	102	1048576	12	4177
2026-01-25 14:07:55.71	315.08	14.75	-26.1	-27.6	15.7	0.00e+00	0	44	102	1048576	12	4286
2026-01-25 14:07:56.72	315.23	14.68	-25.9	-27.2	15.9	0.00e+00	0	44	102	1048576	12	4177
2026-01-25 14:07:57.71	315.39	14.61	-25.7	-26.7	16.2	0.00e+00	0	44	102	1048576	12	4054
2026-01-25 14:07:58.72	315.55	14.54	-25.6	-26.5	16.3	0.00e+00	0	44	102	1048576	12	4002
2026-01-25 14:07:59.73	315.70	14.47	-25.5	-26.2	16.5	0.00e+00	0	44	102	1048576	12	3931
2026-01-25 14:08:00.73	315.86	14.40	-25.5	-26.4	16.4	0.00e+00	0	44	102	1048576	12	3960
2026-01-25 14:08:01.74	316.01	14.33	-25.5	-26.2	16.5	0.00e+00	0	44	102	1048576	12	3930
2026-01-25 14:08:02.75	316.17	14.26	-25.4	-26.1	16.5	0.00e+00	0	44	102	1048576	12	3897
2026-01-25 14:08:03.76	316.32	14.19	-25.3	-25.8	16.7	0.00e+00	0	44	102	1048576	12	3836
2026-01-25 14:08:04.76	316.47	14.12	-25.4	-26.0	16.6	0.00e+00	0	44	102	1048576	12	3877
2026-01-25 14:08:05.77	316.62	14.05	-25.3	-25.9	16.6	0.00e+00	0	44	102	1048576	12	3847
2026-01-25 14:08:06.77	316.77	13.98	-25.4	-26.1	16.5	0.00e+00	0	44	102	1048576	12	3901
2026-01-25 14:08:07.77	316.92	13.91	-25.4	-26.0	16.6	0.00e+00	0	44	102	1048576	12	3860
2026-01-25 14:08:08.78	317.07	13.84	-25.4	-26.2	16.5	0.00e+00	0	44	102	1048576	12	3908
2026-01-25 14:08:09.78	317.22	13.77	-25.5	-26.2	16.5	0.00e+00	0	44	102	1048576	12	3925
2026-01-25 14:08:10.79	317.37	13.70	-25.6	-26.4	16.4	0.00e+00	0	44	102	1048576	12	3980
2026-01-25 14:08:11.79	317.52	13.63	-25.5	-26.4	16.3	0.00e+00	0	44	102	1048576	12	3973
2026-01-25 14:08:12.80	317.67	13.56	-25.6	-26.6	16.3	0.00e+00	0	44	102	1048576	12	4007
2026-01-25 14:08:13.80	317.81	13.49	-25.7	-26.6	16.3	0.00e+00	0	44	102	1048576	12	4025
2026-01-25 14:08:14.81	317.96	13.42	-25.7	-26.7	16.2	0.00e+00	0	44	102	1048576	12	4050
2026-01-25 14:08:15.81	318.10	13.35	-25.7	-26.6	16.2	0.00e+00	0	44	102	1048576	12	4032
2026-01-25 14:08:16.81	318.25	13.29	-25.6	-26.6	16.2	0.00e+00	0	44	102	1048576	12	4029
2026-01-25 14:08:17.81	318.39	13.22	-25.6	-26.5	16.3	0.00e+00	0	44	102	1048576	12	3995
2026-01-25 14:08:18.82	318.53	13.15	-25.6	-26.5	16.3	0.00e+00	0	44	102	1048576	12	3986
2026-01-25 14:08:19.82	318.67	13.08	-25.6	-26.6	16.2	0.00e+00	0	44	102	1048576	12	4011
2026-01-25 14:08:20.83	318.82	13.01	-25.6	-26.4	16.3	0.00e+00	0	44	102	1048576	12	3968
2026-01-25 14:08:21.84	318.96	12.94	-25.6	-26.6	16.3	0.00e+00	0	44	102	1048576	12	4009
2026-01-25 14:08:22.85	319.10	12.87	-25.6	-26.5	16.3	0.00e+00	0	44	102	1048576	12	3984
2026-01-25 14:08:23.84	319.24	12.80	-25.6	-26.5	16.2	0.00e+00	0	44	102	1048576	12	4001
2026-01-25 14:08:24.85	319.38	12.73	-25.8	-26.9	16.0	0.00e+00	0	44	102	1048576	12	4099
2026-01-25 14:08:25.85	319.51	12.66	-25.8	-27.0	16.0	0.00e+00	0	44	102	1048576	12	4113
2026-01-25 14:08:26.86	319.65	12.59	-25.8	-27.0	16.0	0.00e+00	0	44	102	1048576	12	4130
2026-01-25 14:08:27.86	319.79	12.52	-25.9	-27.2	15.8	0.00e+00	0	44	102	1048576	12	4188
2026-01-25 14:08:28.86	319.92	12.45	-26.0	-27.4	15.7	0.00e+00	0	44	102	1048576	12	4230
2026-01-25 14:08:29.87	320.06	12.39	-26.0	-27.4	15.7	0.00e+00	0	44	102	1048576	12	4245
2026-01-25 14:08:30.87	320.20	12.32	-26.0	-27.5	15.6	0.00e+00	0	44	102	1048576	12	4267
2026-01-25 14:08:31.87	320.33	12.25	-26.1	-27.6	15.6	0.00e+00	0	44	102	1048576	12	4296
2026-01-25 14:08:32.87	320.46	12.18	-26.3	-28.0	15.4	0.00e+00	0	44	102	1048576	12	4389
2026-01-25 14:08:33.88	320.60	12.11	-26.2	-27.8	15.5	0.00e+00	0	44	102	1048576	12	4342
2026-01-25 14:08:34.89	320.73	12.04	-26.3	-28.2	15.3	0.00e+00	0	44	102	1048576	12	4440
2026-01-25 14:08:35.89	320.86	11.97	-26.2	-27.9	15.4	0.00e+00	0	44	102	1048576	12	4376
2026-01-25 14:08:36.90	321.00	11.90	-26.2	-27.7	15.5	0.00e+00	0	44	102	1048576	12	4322
2026-01-25 14:08:37.90	321.13	11.84	-26.1	-27.7	15.5	0.00e+00	0	44	102	1048576	12	4306
2026-01-25 14:08:38.90	321.26	11.77	-26.0	-27.5	15.6	0.00e+00	0	44	102	1048576	12	4263
2026-01-25 14:08:39.90	321.39	11.70	-26.1	-27.7	15.5	0.00e+00	0	44	102	1048576	12	4312
2026-01-25 14:08:40.91	321.52	11.63	-26.1	-27.7	15.5	0.00e+00	0	44	102	1048576	12	4327
2026-01-25 14:08:41.91	321.64	11.56	-26.2	-27.9	15.4	0.00e+00	0	44	102	1048576	12	4363
2026-01-25 14:08:42.92	321.77	11.50	-26.2	-27.9	15.4	0.00e+00	0	44	102	1048576	12	4383
2026-01-25 14:08:43.93	321.90	11.43	-26.3	-28.1	15.3	0.00e+00	0	44	102	1048576	12	4423
2026-01-25 14:08:44.93	322.03	11.36	-26.2	-28.0	15.3	0.00e+00	0	44	102	1048576	12	4392
2026-01-25 14:08:45.94	322.15	11.29	-26.3	-28.1	15.3	0.00e+00	0	44	102	1048576	12	4431
2026-01-25 14:08:46.94	322.28	11.22	-26.3	-28.2	15.2	0.00e+00	0	44	102	1048576	12	4447
2026-01-25 14:08:47.95	322.41	11.15	-26.3	-28.1	15.2	0.00e+00	0	44	102	1048576	12	4442
2026-01-25 14:08:48.96	322.53	11.09	-26.3	-28.1	15.2	1.10e-06	0	44	102	1048576	12	4433
2026-01-25 14:08:49.97	322.66	11.02	-26.2	-27.9	15.3	2.20e-06	0	44	102	1048576	12	4377
2026-01-25 14:08:50.97	322.78	10.95	-26.3	-28.0	15.3	0.00e+00	0	44	102	1048576	12	4405
2026-01-25 14:08:51.98	322.90	10.88	-26.2	-28.0	15.3	0.00e+00	0	44	102	1048576	12	4381
2026-01-25 14:08:52.99	323.03	10.82	-26.2	-27.8	15.4	0.00e+00	0	44	102	1048576	12	4332
2026-01-25 14:08:54.00	323.15	10.75	-26.2	-27.8	15.4	0.00e+00	0	44	102	1048576	12	4344
2026-01-25 14:08:55.01	323.27	10.68	-26.1	-27.6	15.5	0.00e+00	0	44	102	1048576	12	4282
2026-01-25 14:08:56.01	323.39	10.61	-26.1	-27.6	15.5	0.00e+00	0	44	102	1048576	12	4287
2026-01-25 14:08:57.02	323.51	10.55	-26.1	-27.6	15.5	0.00e+00	0	44	102	1048576	12	4281
2026-01-25 14:08:58.03	323.63	10.48	-26.2	-27.7	15.4	0.00e+00	0	44	102	1048576	12	4315
2026-01-25 14:08:59.03	323.75	10.41	-26.1	-27.7	15.4	0.00e+00	0	44	102	1048576	12	4311
2026-01-25 14:09:00.04	323.87	10.34	-26.3	-28.0	15.3	0.00e+00	0	44	102	1048576	12	4383
2026-01-25 14:09:01.04	323.99	10.28	-26.3	-28.0	15.3	1.10e-06	0	44	102	1048576	12	4397
2026-01-25 14:09:02.04	324.11	10.21	-26.3	-28.1	15.2	0.00e+00	0	44	102	1048576	12	4411
2026-01-25 14:09:03.04	324.22	10.14	-26.3	-28.1	15.2	0.00e+00	0	44	102	1048576	12	4425
2026-01-25 14:09:04.04	324.34	10.08	-26.4	-28.3	15.1	0.00e+00	0	44	102	1048576	12	4477
2026-01-25 14:09:05.04	324.46	10.01	-26.5	-28.1	14.9	1.10e-06	0	44	102	1048576	13	4321
2026-01-25 14:09:06.05	324.57	9.95	-26.5	-28.1	14.9	0.00e+00	0	44	102	1048576	13	4302
2026-01-25 14:09:07.05	324.69	9.88	-26.5	-28.1	14.9	0.00e+00	0	44	102	1048576	13	4319
2026-01-25 14:09:08.05	324.80	9.81	-26.5	-28.2	14.9	0.00e+00	0	44	102	1048576	13	4331
2026-01-25 14:09:09.06	324.92	9.75	-26.5	-28.0	15.0	0.00e+00	0	44	102	1048576	13	4271
2026-01-25 14:09:10.07	325.03	9.68	-26.5	-28.1	14.9	0.00e+00	0	44	102	1048576	13	4313
2026-01-25 14:09:11.08	325.14	9.61	-26.5	-28.0	15.0	0.00e+00	0	44	102	1048576	13	4290
2026-01-25 14:09:12.08	325.26	9.55	-26.6	-28.2	14.8	1.10e-06	0	44	102	1048576	13	4346
2026-01-25 14:09:13.09	325.37	9.48	-26.4	-27.8	15.1	0.00e+00	0	44	102	1048576	13	4236
2026-01-25 14:09:14.10	325.48	9.42	-26.4	-27.9	15.0	0.00e+00	0	44	102	1048576	13	4271
2026-01-25 14:09:15.10	325.59	9.35	-26.5	-27.9	14.9	0.00e+00	0	44	102	1048576	13	4273
2026-01-25 14:09:16.10	325.70	9.28	-26.5	-28.0	14.9	0.00e+00	0	44	102	1048576	13	4285
2026-01-25 14:09:17.11	325.81	9.22	-26.4	-27.8	15.0	0.00e+00	0	44	102	1048576	13	4247
2026-01-25 14:09:18.11	325.92	9.15	-26.6	-28.2	14.8	0.00e+00	0	44	102	1048576	13	4356
2026-01-25 14:09:19.12	326.03	9.09	-26.4	-27.9	15.0	0.00e+00	0	44	102	1048576	13	4249
2026-01-25 14:09:20.12	326.14	9.02	-26.4	-27.8	15.0	0.00e+00	0	44	102	1048576	13	4242
2026-01-25 14:09:21.13	326.25	8.96	-26.5	-28.1	14.9	0.00e+00	0	44	102	1048576	13	4307
2026-01-25 14:09:22.13	326.36	8.89	-26.4	-27.9	15.0	0.00e+00	0	44	102	1048576	13	4260
2026-01-25 14:09:23.13	326.47	8.83	-26.6	-28.2	14.8	3.40e-06	0	44	102	1048576	13	4338
2026-01-25 14:09:24.14	326.57	8.76	-26.5	-28.0	14.9	0.00e+00	0	44	102	1048576	13	4288
2026-01-25 14:09:25.15	326.68	8.70	-26.5	-28.1	14.8	1.10e-06	0	44	102	1048576	13	4309
2026-01-25 14:09:26.15	326.79	8.63	-26.6	-28.3	14.7	0.00e+00	0	44	102	1048576	13	4367
2026-01-25 14:09:27.15	326.89	8.57	-26.6	-28.2	14.8	0.00e+00	0	44	102	1048576	13	4343
2026-01-25 14:09:28.15	327.00	8.50	-26.7	-28.4	14.6	0.00e+00	0	44	102	1048576	13	4408
2026-01-25 14:09:29.16	327.10	8.44	-26.7	-28.6	14.5	0.00e+00	0	44	102	1048576	13	4464
2026-01-25 14:09:30.16	327.21	8.37	-26.7	-28.5	14.6	0.00e+00	0	44	102	1048576	13	4448
2026-01-25 14:09:31.16	327.31	8.31	-26.8	-28.7	14.4	2.20e-06	0	44	102	1048576	13	4494
2026-01-25 14:09:32.17	327.41	8.25	-26.8	-28.9	14.3	5.70e-06	0	44	102	1048576	13	4538
2026-01-25 14:09:33.18	327.52	8.18	-26.9	-29.0	14.3	4.50e-06	0	44	102	1048576	13	4579
2026-01-25 14:09:34.19	327.62	8.12	-26.9	-29.0	14.2	2.20e-06	0	44	102	1048576	13	4570
2026-01-25 14:09:35.19	327.72	8.05	-27.0	-28.8	14.1	2.20e-06	0	44	102	1048576	14	4407
2026-01-25 14:09:36.19	327.82	7.99	-27.0	-28.7	14.1	3.40e-06	0	44	102	1048576	14	4394
2026-01-25 14:09:37.20	327.93	7.93	-27.0	-28.8	14.1	3.40e-06	0	44	102	1048576	14	4419
2026-01-25 14:09:38.20	328.03	7.86	-27.1	-28.8	14.0	1.02e-05	0	44	102	1048576	14	4421
2026-01-25 14:09:39.21	328.13	7.80	-27.1	-28.9	14.0	5.70e-06	0	44	102	1048576	14	4439
2026-01-25 14:09:40.22	328.23	7.73	-27.2	-29.3	13.8	6.80e-06	0	44	102	1048576	14	4550
2026-01-25 14:09:41.23	328.33	7.67	-27.1	-29.1	13.9	5.70e-06	0	44	102	1048576	14	4497
2026-01-25 14:09:42.24	328.43	7.61	-27.2	-29.3	13.8	8.00e-06	0	44	102	1048576	14	4547
2026-01-25 14:09:43.24	328.53	7.54	-27.3	-29.5	13.6	1.25e-05	0	44	102	1048576	14	4631
2026-01-25 14:09:44.23	328.62	7.48	-27.4	-29.7	13.5	1.83e-05	0	44	102	1048576	14	4676
2026-01-25 14:09:45.24	328.72	7.42	-27.4	-29.6	13.5	1.94e-05	0	44	102	1048576	14	4655
2026-01-25 14:09:46.25	328.82	7.35	-27.3	-29.4	13.6	1.71e-05	0	44	102	1048576	14	4610
2026-01-25 14:09:47.25	328.92	7.29	-27.2	-29.2	13.7	4.50e-06	0	44	102	1048576	14	4548
2026-01-25 14:09:48.25	329.01	7.23	-27.3	-29.5	13.6	2.28e-05	0	44	102	1048576	14	4628
2026-01-25 14:09:49.26	329.11	7.17	-27.2	-29.1	13.8	1.25e-05	0	44	102	1048576	14	4511
2026-01-25 14:09:50.26	329.21	7.10	-28.4	-31.1	12.4	1.94e-05	0	44	102	1048576	16	4899
2026-01-25 14:09:51.27	329.30	7.04	-33.3	-44.7	3.8	8.45e-01	0	44	104	1048576	26	13277

#Closed at: 2026-01-25 14:09:52
#Recorded file [1 MB]: D:/data/31010_260125_165943.dat