passes_logs/2026/01/25/R2M6_AANII_01/R2M6_AANII_01__20260125_082227_NOAA_20_JPSS-1_rec.log

#Pass ID: 20260125_082227_NOAA 20 (JPSS-1)
#Satellite: NOAA 20 (JPSS-1)
#Configuration: NOAA 20
#almurnet v.1.7.20240730
#Start time: 2026-01-25 08:22:26

#Version: 2.2.20231116
#Station: R2M6_AANII_01
#Location: 30.233357 lon 59.946436 lat
#TLE: 1 43013U 17073A   26024.42258823  .00000183  00000+0  10747-3 0  9990
#TLE: 2 43013  98.7646 325.2629 0001105  25.8644 334.2587 14.19539754424075

#Time	Az	El	Level	Level2	SNR	BER	BlckErr	Temp	State	Recorded	gain1	gain2
2026-01-25 08:22:26.66	99.86	6.97	-31.3	-45.2	3.8	1.49e+00	0	41	0	0	23	17747
2026-01-25 08:22:27.66	99.76	7.03	-31.3	-44.6	3.8	1.49e+00	0	41	104	0	24	16689
2026-01-25 08:22:28.67	99.67	7.10	-31.3	-44.6	3.8	1.49e+00	0	41	104	0	24	16649
2026-01-25 08:22:29.68	99.58	7.16	-31.3	-45.0	3.8	1.49e+00	0	41	104	0	23	17606
2026-01-25 08:22:30.68	99.48	7.23	-31.2	-44.9	3.8	1.49e+00	0	41	104	0	23	17421
2026-01-25 08:22:31.69	99.39	7.29	-31.1	-44.7	3.8	1.49e+00	0	41	104	0	23	17213
2026-01-25 08:22:32.69	99.29	7.35	-31.0	-44.6	3.8	1.49e+00	0	41	104	0	23	17080
2026-01-25 08:22:33.69	99.20	7.42	-30.9	-44.4	3.8	1.49e+00	0	41	104	0	23	16965
2026-01-25 08:22:34.70	99.10	7.48	-30.8	-44.1	3.8	1.49e+00	0	41	104	0	23	16510
2026-01-25 08:22:35.69	99.01	7.55	-30.8	-44.1	3.8	1.49e+00	0	41	104	0	22	16760
2026-01-25 08:22:36.70	98.91	7.61	-30.7	-43.4	3.8	1.49e+00	0	41	104	0	22	15519
2026-01-25 08:22:37.70	98.81	7.68	-30.6	-42.5	3.8	1.49e+00	0	41	104	0	22	14025
2026-01-25 08:22:38.71	98.71	7.74	-30.6	-42.0	4.0	1.49e+00	0	41	104	0	22	13235
2026-01-25 08:22:39.71	98.62	7.81	-30.7	-41.8	3.9	1.48e+00	0	41	104	0	22	12899
2026-01-25 08:22:40.71	98.52	7.87	-30.7	-42.1	4.0	1.45e+00	0	41	104	0	22	13387
2026-01-25 08:22:41.71	98.42	7.93	-30.7	-42.9	3.8	1.49e+00	0	41	104	0	22	14685
2026-01-25 08:22:42.72	98.32	8.00	-30.8	-43.2	3.8	1.49e+00	0	41	104	0	22	15095
2026-01-25 08:22:43.73	98.22	8.07	-30.8	-43.6	3.8	1.49e+00	0	41	104	0	22	15727
2026-01-25 08:22:44.73	98.12	8.13	-30.8	-43.8	3.8	1.49e+00	0	41	104	0	22	16167
2026-01-25 08:22:45.74	98.02	8.20	-30.8	-44.0	3.8	1.49e+00	0	41	104	0	22	16467
2026-01-25 08:22:46.74	97.92	8.26	-30.9	-44.2	3.8	1.49e+00	0	42	104	0	22	16773
2026-01-25 08:22:47.75	97.81	8.33	-30.8	-44.6	3.8	1.49e+00	0	42	104	0	22	17448
2026-01-25 08:22:48.75	97.71	8.39	-30.8	-44.6	3.8	1.49e+00	0	42	104	0	22	17489
2026-01-25 08:22:49.76	97.61	8.46	-30.8	-44.6	3.8	1.49e+00	0	42	104	0	22	17593
2026-01-25 08:22:50.76	97.51	8.52	-30.8	-44.6	3.8	1.49e+00	0	41	104	0	22	17659
2026-01-25 08:22:51.76	97.40	8.59	-30.8	-44.4	3.8	1.49e+00	0	42	104	0	22	17388
2026-01-25 08:22:52.76	97.30	8.66	-30.7	-44.5	3.8	1.49e+00	0	42	104	0	22	17491
2026-01-25 08:22:53.76	97.20	8.72	-30.7	-44.5	3.8	1.49e+00	0	42	104	0	22	17518
2026-01-25 08:22:54.77	97.09	8.79	-30.7	-44.5	3.8	1.49e+00	0	42	104	0	22	17516
2026-01-25 08:22:55.77	96.98	8.85	-30.7	-44.4	3.8	1.49e+00	0	42	104	0	22	17450
2026-01-25 08:22:56.77	96.88	8.92	-30.7	-44.5	3.8	1.49e+00	0	42	104	0	22	17543
2026-01-25 08:22:57.78	96.77	8.99	-30.7	-44.5	3.8	1.49e+00	0	42	104	0	22	17576
2026-01-25 08:22:58.78	96.67	9.05	-30.7	-44.5	3.8	1.49e+00	0	42	104	0	22	17599
2026-01-25 08:22:59.79	96.56	9.12	-30.7	-44.4	3.8	1.49e+00	0	42	104	0	22	17499
2026-01-25 08:23:00.78	96.45	9.19	-30.6	-44.2	3.8	1.49e+00	0	42	104	0	22	17237
2026-01-25 08:23:01.78	96.34	9.25	-30.6	-44.2	3.8	1.49e+00	0	42	104	0	22	17177
2026-01-25 08:23:02.78	96.23	9.32	-30.6	-44.1	3.8	1.49e+00	0	42	104	0	22	17044
2026-01-25 08:23:03.79	96.12	9.39	-30.5	-44.1	3.8	1.49e+00	0	42	104	0	22	17125
2026-01-25 08:23:04.79	96.01	9.45	-30.6	-44.0	3.8	1.49e+00	0	42	104	0	22	17008
2026-01-25 08:23:05.80	95.90	9.52	-30.6	-44.0	3.8	1.49e+00	0	42	104	0	22	16763
2026-01-25 08:23:06.81	95.79	9.59	-30.6	-44.0	3.8	1.49e+00	0	42	104	0	22	16872
2026-01-25 08:23:07.81	95.68	9.65	-30.7	-43.9	3.8	1.49e+00	0	42	104	0	22	16628
2026-01-25 08:23:08.81	95.57	9.72	-30.8	-44.0	3.8	1.49e+00	0	42	104	0	22	16582
2026-01-25 08:23:09.81	95.46	9.79	-30.9	-43.8	3.8	1.49e+00	0	42	104	0	22	15998
2026-01-25 08:23:10.81	95.34	9.85	-31.0	-43.3	3.8	1.49e+00	0	42	104	0	22	14967
2026-01-25 08:23:11.82	95.23	9.92	-31.1	-42.8	4.0	1.49e+00	0	42	104	0	22	13811
2026-01-25 08:23:12.83	95.11	9.99	-31.2	-41.5	4.0	1.44e+00	0	42	104	0	22	11840
2026-01-25 08:23:13.83	95.00	10.06	-31.1	-39.5	5.5	7.91e-01	0	42	104	0	22	9465
2026-01-25 08:23:14.84	94.88	10.13	-31.0	-38.0	6.8	2.69e-01	0	42	0	0	22	8024
2026-01-25 08:23:15.84	94.77	10.19	-31.0	-37.0	7.9	1.13e-01	0	42	102	1048576	22	7253
2026-01-25 08:23:16.85	94.65	10.26	-31.0	-36.7	8.4	4.95e-02	0	42	102	1048576	22	6961
2026-01-25 08:23:17.86	94.53	10.33	-31.1	-37.1	8.4	4.27e-02	0	42	102	1048576	22	7112
2026-01-25 08:23:18.86	94.42	10.40	-31.5	-38.6	7.3	7.20e-02	0	43	102	1048576	22	8145
2026-01-25 08:23:19.86	94.30	10.47	-31.7	-39.0	6.6	1.78e-01	0	42	102	1048576	23	8394
2026-01-25 08:23:20.86	94.18	10.53	-31.6	-38.4	7.2	1.69e-01	0	42	102	1048576	23	7844
2026-01-25 08:23:21.86	94.06	10.60	-31.4	-37.3	8.1	8.27e-02	0	42	102	1048576	23	7084
2026-01-25 08:23:22.87	93.94	10.67	-31.5	-37.5	8.1	6.08e-02	0	42	102	1048576	23	7190
2026-01-25 08:23:23.87	93.82	10.74	-31.6	-37.9	7.8	8.14e-02	0	42	102	1048576	23	7458
2026-01-25 08:23:24.88	93.70	10.81	-31.7	-38.5	7.4	1.08e-01	0	42	102	1048576	23	7833
2026-01-25 08:23:25.87	93.58	10.87	-31.5	-37.4	8.3	8.79e-02	0	42	102	1048576	23	7042
2026-01-25 08:23:26.88	93.46	10.94	-31.2	-36.0	9.4	1.92e-02	0	43	102	1048576	23	6281
2026-01-25 08:23:27.88	93.33	11.01	-31.1	-35.6	9.8	1.30e-02	0	42	102	1048576	23	6044
2026-01-25 08:23:28.88	93.21	11.08	-30.9	-34.8	10.4	7.00e-03	0	43	102	1048576	23	5636
2026-01-25 08:23:29.89	93.09	11.15	-30.9	-34.6	10.6	3.45e-03	0	42	102	1048576	23	5557
2026-01-25 08:23:30.90	92.96	11.22	-30.9	-34.6	10.6	3.51e-03	0	42	102	1048576	23	5549
2026-01-25 08:23:31.91	92.84	11.29	-30.9	-34.7	10.6	3.59e-03	0	42	102	1048576	23	5570
2026-01-25 08:23:32.91	92.71	11.36	-30.7	-34.7	10.9	3.03e-03	0	43	102	1048576	22	5687
2026-01-25 08:23:33.91	92.58	11.42	-30.6	-34.3	11.2	1.61e-03	0	43	102	1048576	22	5519
2026-01-25 08:23:34.92	92.46	11.49	-30.6	-34.3	11.2	1.20e-03	0	43	102	1048576	22	5484
2026-01-25 08:23:35.92	92.33	11.56	-30.6	-34.3	11.3	1.17e-03	0	43	102	1048576	22	5483
2026-01-25 08:23:36.92	92.20	11.63	-30.6	-34.3	11.3	1.07e-03	0	43	102	1048576	22	5491
2026-01-25 08:23:37.93	92.07	11.70	-30.6	-34.1	11.4	1.09e-03	0	43	102	1048576	22	5417
2026-01-25 08:23:38.93	91.94	11.77	-30.6	-34.3	11.3	1.08e-03	0	43	102	1048576	22	5481
2026-01-25 08:23:39.93	91.81	11.84	-30.5	-33.9	11.6	9.92e-04	0	43	102	1048576	22	5296
2026-01-25 08:23:40.94	91.68	11.91	-30.4	-33.4	12.0	4.19e-04	0	43	102	1048576	22	5095
2026-01-25 08:23:41.94	91.55	11.98	-30.3	-33.2	12.1	2.85e-04	0	43	102	1048576	22	5036
2026-01-25 08:23:42.94	91.42	12.05	-30.4	-33.4	12.0	2.69e-04	0	43	102	1048576	22	5108
2026-01-25 08:23:43.94	91.29	12.11	-30.3	-33.2	12.2	2.56e-04	0	43	102	1048576	22	5026
2026-01-25 08:23:44.94	91.16	12.18	-30.4	-33.3	12.2	2.44e-04	0	43	102	1048576	22	5062
2026-01-25 08:23:45.95	91.02	12.25	-30.3	-33.1	12.3	2.31e-04	0	42	102	1048576	22	4987
2026-01-25 08:23:46.95	90.89	12.32	-30.3	-33.1	12.3	1.75e-04	0	43	102	1048576	22	4990
2026-01-25 08:23:47.95	90.75	12.39	-30.3	-33.2	12.3	1.98e-04	0	43	102	1048576	22	5002
2026-01-25 08:23:48.96	90.62	12.46	-30.3	-33.2	12.2	2.20e-04	0	43	102	1048576	22	5026
2026-01-25 08:23:49.96	90.48	12.53	-30.4	-33.3	12.2	1.81e-04	0	43	102	1048576	22	5042
2026-01-25 08:23:50.97	90.34	12.60	-30.3	-33.2	12.3	2.21e-04	0	43	102	1048576	22	5015
2026-01-25 08:23:51.96	90.21	12.67	-30.4	-33.5	12.1	2.48e-04	0	43	102	1048576	22	5129
2026-01-25 08:23:52.97	90.07	12.74	-30.4	-33.3	12.2	2.48e-04	0	43	102	1048576	22	5036
2026-01-25 08:23:53.97	89.93	12.81	-30.3	-33.2	12.3	1.60e-04	0	43	102	1048576	22	4998
2026-01-25 08:23:54.98	89.79	12.88	-30.4	-33.4	12.2	1.75e-04	0	43	102	1048576	22	5101
2026-01-25 08:23:55.98	89.65	12.95	-30.5	-33.7	12.0	2.63e-04	0	43	102	1048576	22	5215
2026-01-25 08:23:56.98	89.51	13.02	-30.5	-33.5	12.1	3.50e-04	0	43	102	1048576	22	5124
2026-01-25 08:23:57.99	89.37	13.09	-30.5	-33.6	12.1	2.53e-04	0	43	102	1048576	22	5159
2026-01-25 08:23:58.99	89.23	13.16	-30.5	-33.5	12.2	2.95e-04	0	43	102	1048576	22	5108
2026-01-25 08:24:00.00	89.08	13.23	-30.4	-33.4	12.2	2.08e-04	0	43	102	1048576	22	5077
2026-01-25 08:24:01.00	88.94	13.30	-30.5	-33.5	12.2	2.13e-04	0	43	102	1048576	22	5104
2026-01-25 08:24:02.00	88.79	13.37	-30.6	-33.9	12.0	2.75e-04	0	43	102	1048576	22	5244
2026-01-25 08:24:03.00	88.65	13.44	-30.5	-33.7	12.1	3.19e-04	0	43	102	1048576	22	5185
2026-01-25 08:24:04.01	88.50	13.51	-30.6	-34.0	11.9	2.61e-04	0	43	102	1048576	22	5289
2026-01-25 08:24:05.02	88.36	13.58	-30.5	-33.5	12.2	2.62e-04	0	43	102	1048576	22	5100
2026-01-25 08:24:06.02	88.21	13.65	-30.5	-33.4	12.3	1.98e-04	0	43	102	1048576	22	5073
2026-01-25 08:24:07.03	88.06	13.72	-30.5	-33.6	12.2	1.98e-04	0	43	102	1048576	22	5135
2026-01-25 08:24:08.04	87.91	13.79	-30.6	-33.9	12.0	2.82e-04	0	43	102	1048576	22	5250
2026-01-25 08:24:09.03	87.76	13.86	-30.5	-33.7	12.2	2.82e-04	0	43	102	1048576	22	5164
2026-01-25 08:24:10.04	87.61	13.93	-30.5	-33.6	12.2	2.37e-04	0	43	102	1048576	22	5152
2026-01-25 08:24:11.05	87.46	14.00	-30.5	-33.7	12.1	2.41e-04	0	43	102	1048576	22	5181
2026-01-25 08:24:12.05	87.31	14.07	-30.6	-33.9	12.0	2.92e-04	0	43	102	1048576	22	5252
2026-01-25 08:24:13.05	87.16	14.14	-30.7	-34.0	11.9	3.67e-04	0	43	102	1048576	22	5306
2026-01-25 08:24:14.05	87.01	14.21	-30.7	-34.2	11.8	4.22e-04	0	43	102	1048576	22	5391
2026-01-25 08:24:15.06	86.85	14.28	-30.8	-34.4	11.7	5.52e-04	0	43	102	1048576	22	5447
2026-01-25 08:24:16.06	86.70	14.35	-30.8	-34.5	11.5	6.98e-04	0	43	102	1048576	22	5512
2026-01-25 08:24:17.06	86.54	14.42	-30.8	-34.3	11.8	6.36e-04	0	43	102	1048576	22	5405
2026-01-25 08:24:18.06	86.39	14.49	-30.7	-34.3	11.8	4.40e-04	0	43	102	1048576	22	5389
2026-01-25 08:24:19.07	86.23	14.56	-30.9	-34.7	11.5	4.97e-04	0	43	102	1048576	22	5580
2026-01-25 08:24:20.08	86.07	14.63	-30.8	-34.4	11.7	6.26e-04	0	43	102	1048576	22	5436
2026-01-25 08:24:21.08	85.91	14.70	-30.8	-34.4	11.7	5.23e-04	0	43	102	1048576	22	5461
2026-01-25 08:24:22.09	85.75	14.77	-30.9	-34.6	11.6	6.26e-04	0	43	102	1048576	22	5514
2026-01-25 08:24:23.09	85.60	14.84	-30.9	-34.8	11.5	7.65e-04	0	43	102	1048576	22	5617
2026-01-25 08:24:24.10	85.43	14.91	-30.8	-34.5	11.7	7.57e-04	0	43	102	1048576	22	5505
2026-01-25 08:24:25.10	85.27	14.98	-30.8	-34.5	11.7	5.39e-04	0	43	102	1048576	22	5495
2026-01-25 08:24:26.10	85.11	15.05	-30.9	-34.7	11.6	6.00e-04	0	43	102	1048576	22	5556
2026-01-25 08:24:27.10	84.95	15.12	-31.1	-35.2	11.2	8.38e-04	0	43	102	1048576	22	5783
2026-01-25 08:24:28.10	84.79	15.19	-31.0	-35.1	11.3	9.75e-04	0	43	102	1048576	22	5740
2026-01-25 08:24:29.11	84.62	15.26	-31.3	-35.9	10.7	2.22e-03	0	43	102	1048576	22	6119
2026-01-25 08:24:30.11	84.46	15.33	-31.1	-35.4	11.1	2.21e-03	0	43	102	1048576	22	5895
2026-01-25 08:24:31.12	84.29	15.40	-31.1	-35.3	11.2	1.54e-03	0	43	102	1048576	22	5823
2026-01-25 08:24:32.13	84.12	15.47	-31.1	-35.3	11.2	1.29e-03	0	43	102	1048576	22	5834
2026-01-25 08:24:33.13	83.96	15.54	-31.1	-35.4	11.1	1.39e-03	0	43	102	1048576	22	5894
2026-01-25 08:24:34.14	83.79	15.61	-31.2	-35.8	10.8	1.85e-03	0	43	102	1048576	22	6070
2026-01-25 08:24:35.13	83.62	15.68	-31.3	-36.1	10.6	3.26e-03	0	43	102	1048576	22	6241
2026-01-25 08:24:36.13	83.45	15.75	-31.3	-36.0	10.7	3.02e-03	0	43	102	1048576	22	6196
2026-01-25 08:24:37.14	83.28	15.82	-31.3	-36.2	10.5	3.61e-03	0	43	102	1048576	22	6264
2026-01-25 08:24:38.14	83.11	15.89	-31.2	-35.8	10.9	2.61e-03	0	43	102	1048576	22	6053
2026-01-25 08:24:39.15	82.94	15.96	-31.1	-35.4	11.1	1.86e-03	0	43	102	1048576	22	5909
2026-01-25 08:24:40.15	82.76	16.03	-31.1	-35.3	11.2	1.52e-03	0	43	102	1048576	22	5821
2026-01-25 08:24:41.15	82.59	16.09	-31.1	-35.3	11.2	1.29e-03	0	43	102	1048576	22	5860
2026-01-25 08:24:42.16	82.42	16.16	-31.1	-35.4	11.1	1.39e-03	0	43	102	1048576	22	5889
2026-01-25 08:24:43.17	82.24	16.23	-31.2	-35.7	10.9	1.91e-03	0	43	102	1048576	22	6025
2026-01-25 08:24:44.17	82.06	16.30	-31.0	-35.0	11.4	1.59e-03	0	43	102	1048576	22	5697
2026-01-25 08:24:45.17	81.89	16.37	-30.9	-34.7	11.7	6.60e-04	0	43	102	1048576	22	5541
2026-01-25 08:24:46.17	81.71	16.44	-30.9	-34.7	11.6	5.45e-04	0	43	102	1048576	22	5581
2026-01-25 08:24:47.17	81.53	16.51	-30.9	-34.7	11.7	5.88e-04	0	43	102	1048576	22	5545
2026-01-25 08:24:48.17	81.35	16.58	-31.0	-35.1	11.5	7.85e-04	0	43	102	1048576	22	5721
2026-01-25 08:24:49.17	81.17	16.64	-31.2	-35.5	11.1	1.41e-03	0	43	102	1048576	22	5907
2026-01-25 08:24:50.18	80.99	16.71	-31.1	-35.2	11.3	1.51e-03	0	43	102	1048576	22	5784
2026-01-25 08:24:51.18	80.81	16.78	-31.0	-35.0	11.5	9.89e-04	0	43	102	1048576	22	5696
2026-01-25 08:24:52.18	80.63	16.85	-31.0	-34.8	11.6	5.92e-04	0	43	102	1048576	22	5591
2026-01-25 08:24:53.19	80.44	16.92	-31.0	-34.8	11.6	6.51e-04	0	43	102	1048576	22	5587
2026-01-25 08:24:54.20	80.26	16.99	-31.0	-34.8	11.6	7.05e-04	0	43	102	1048576	22	5606
2026-01-25 08:24:55.20	80.07	17.05	-31.0	-34.9	11.6	8.27e-04	0	43	102	1048576	22	5635
2026-01-25 08:24:56.21	79.89	17.12	-30.8	-34.4	11.9	4.76e-04	0	43	102	1048576	22	5439
2026-01-25 08:24:57.22	79.70	17.19	-30.7	-34.1	12.1	2.49e-04	0	43	102	1048576	22	5309
2026-01-25 08:24:58.22	79.51	17.26	-30.7	-34.1	12.2	2.27e-04	0	43	102	1048576	22	5276
2026-01-25 08:24:59.23	79.32	17.32	-30.7	-33.9	12.3	2.19e-04	0	43	102	1048576	22	5221
2026-01-25 08:25:00.24	79.13	17.39	-30.7	-34.0	12.2	1.83e-04	0	43	102	1048576	22	5255
2026-01-25 08:25:01.24	78.94	17.46	-30.7	-34.0	12.2	2.21e-04	0	43	102	1048576	22	5262
2026-01-25 08:25:02.24	78.75	17.53	-30.5	-33.4	12.6	1.10e-04	0	43	102	1048576	22	5036
2026-01-25 08:25:03.25	78.56	17.59	-30.7	-33.9	12.3	1.46e-04	0	43	102	1048576	22	5216
2026-01-25 08:25:04.25	78.36	17.66	-30.5	-33.3	12.7	8.69e-05	0	43	102	1048576	22	4976
2026-01-25 08:25:05.26	78.17	17.73	-30.3	-32.8	13.1	3.20e-05	0	43	102	1048576	22	4777
2026-01-25 08:25:06.26	77.97	17.79	-30.0	-32.5	13.6	1.37e-05	0	43	102	1048576	21	4771
2026-01-25 08:25:07.27	77.78	17.86	-29.9	-32.1	13.8	6.10e-06	0	43	102	1048576	21	4665
2026-01-25 08:25:08.28	77.58	17.92	-29.9	-32.3	13.7	7.60e-06	0	43	102	1048576	21	4719
2026-01-25 08:25:09.28	77.38	17.99	-30.0	-32.5	13.6	5.30e-06	0	43	102	1048576	21	4794
2026-01-25 08:25:10.29	77.18	18.06	-30.1	-32.7	13.4	9.90e-06	0	43	102	1048576	21	4849
2026-01-25 08:25:11.30	76.98	18.12	-29.9	-32.1	13.9	9.90e-06	0	43	102	1048576	21	4641
2026-01-25 08:25:12.30	76.78	18.19	-29.7	-32.1	14.1	3.80e-06	0	43	102	1048576	20	4757
2026-01-25 08:25:13.30	76.58	18.25	-29.7	-32.1	14.1	3.00e-06	0	43	102	1048576	20	4771
2026-01-25 08:25:14.31	76.38	18.32	-29.8	-32.3	14.0	6.80e-06	0	43	102	1048576	20	4842
2026-01-25 08:25:15.32	76.18	18.38	-29.7	-32.1	14.2	7.00e-07	0	43	102	1048576	20	4765
2026-01-25 08:25:16.32	75.98	18.45	-29.5	-31.6	14.5	1.50e-06	0	43	102	1048576	20	4597
2026-01-25 08:25:17.32	75.77	18.51	-29.4	-31.5	14.6	3.00e-06	0	43	102	1048576	20	4544
2026-01-25 08:25:18.32	75.57	18.57	-29.6	-31.8	14.4	0.00e+00	0	43	102	1048576	20	4641
2026-01-25 08:25:19.32	75.36	18.64	-29.7	-32.2	14.2	3.00e-06	0	43	102	1048576	20	4781
2026-01-25 08:25:20.33	75.15	18.70	-29.6	-31.9	14.3	6.80e-06	0	43	102	1048576	20	4685
2026-01-25 08:25:21.34	74.95	18.76	-29.8	-32.2	14.2	7.00e-07	0	43	102	1048576	20	4791
2026-01-25 08:25:22.34	74.74	18.83	-29.7	-32.2	14.1	2.20e-06	0	43	102	1048576	20	4779
2026-01-25 08:25:23.35	74.53	18.89	-29.5	-31.6	14.5	3.80e-06	0	43	102	1048576	20	4573
2026-01-25 08:25:24.35	74.32	18.95	-29.4	-31.3	14.7	1.50e-06	0	43	102	1048576	20	4494
2026-01-25 08:25:25.36	74.11	19.02	-29.4	-31.3	14.7	7.00e-07	0	43	102	1048576	20	4485
2026-01-25 08:25:26.36	73.89	19.08	-29.4	-31.4	14.7	7.00e-07	0	43	102	1048576	20	4501
2026-01-25 08:25:27.37	73.68	19.14	-29.4	-31.2	14.8	7.00e-07	0	43	102	1048576	20	4461
2026-01-25 08:25:28.38	73.46	19.20	-29.3	-31.1	14.8	7.00e-07	0	43	102	1048576	20	4430
2026-01-25 08:25:29.38	73.25	19.26	-29.4	-31.3	14.7	0.00e+00	0	43	102	1048576	20	4479
2026-01-25 08:25:30.39	73.03	19.32	-29.4	-31.3	14.8	0.00e+00	0	43	102	1048576	20	4470
2026-01-25 08:25:31.39	72.82	19.39	-29.4	-31.7	14.9	1.50e-06	0	43	102	1048576	19	4697
2026-01-25 08:25:32.40	72.60	19.45	-29.4	-31.7	14.9	0.00e+00	0	43	102	1048576	19	4712
2026-01-25 08:25:33.40	72.38	19.51	-29.4	-31.9	14.8	2.20e-06	0	43	102	1048576	19	4771
2026-01-25 08:25:34.41	72.16	19.57	-29.5	-32.1	14.6	7.00e-07	0	43	102	1048576	19	4831
2026-01-25 08:25:35.41	71.94	19.63	-29.5	-32.1	14.6	0.00e+00	0	44	102	1048576	19	4843
2026-01-25 08:25:36.42	71.72	19.69	-29.5	-32.1	14.6	7.00e-07	0	43	102	1048576	19	4837
2026-01-25 08:25:37.43	71.50	19.74	-29.5	-32.0	14.6	0.00e+00	0	43	102	1048576	19	4823
2026-01-25 08:25:38.44	71.27	19.80	-29.6	-32.3	14.5	7.00e-07	0	43	102	1048576	19	4927
2026-01-25 08:25:39.44	71.05	19.86	-29.7	-32.5	14.4	7.00e-07	0	43	102	1048576	19	4968
2026-01-25 08:25:40.45	70.83	19.92	-29.7	-32.5	14.4	1.50e-06	0	43	102	1048576	19	4975
2026-01-25 08:25:41.45	70.60	19.98	-29.7	-32.6	14.3	0.00e+00	0	43	102	1048576	19	5006
2026-01-25 08:25:42.45	70.38	20.04	-29.8	-32.8	14.2	1.50e-06	0	43	102	1048576	19	5108
2026-01-25 08:25:43.46	70.15	20.09	-29.9	-32.7	13.8	3.80e-06	0	43	102	1048576	20	4975
2026-01-25 08:25:44.46	69.92	20.15	-29.8	-32.5	14.0	6.10e-06	0	43	102	1048576	20	4872
2026-01-25 08:25:45.47	69.69	20.21	-29.6	-31.9	14.4	0.00e+00	0	43	102	1048576	20	4669
2026-01-25 08:25:46.47	69.46	20.26	-29.6	-31.8	14.4	1.50e-06	0	43	102	1048576	20	4645
2026-01-25 08:25:47.48	69.23	20.32	-29.6	-31.9	14.4	7.00e-07	0	43	102	1048576	20	4669
2026-01-25 08:25:48.49	69.00	20.37	-29.6	-31.9	14.4	7.00e-07	0	43	102	1048576	20	4662
2026-01-25 08:25:49.49	68.77	20.43	-29.7	-32.1	14.3	1.50e-06	0	43	102	1048576	20	4746
2026-01-25 08:25:50.49	68.54	20.48	-29.5	-31.6	14.6	7.00e-07	0	43	102	1048576	20	4571
2026-01-25 08:25:51.50	68.30	20.54	-29.7	-32.1	14.3	7.00e-07	0	43	102	1048576	20	4729
2026-01-25 08:25:52.51	68.07	20.59	-29.7	-32.0	14.3	3.00e-06	0	43	102	1048576	20	4699
2026-01-25 08:25:53.51	67.83	20.64	-29.3	-31.1	14.9	0.00e+00	0	43	102	1048576	20	4422
2026-01-25 08:25:54.51	67.60	20.70	-29.1	-31.1	15.2	0.00e+00	0	43	102	1048576	19	4532
2026-01-25 08:25:55.51	67.36	20.75	-29.0	-30.7	15.5	0.00e+00	0	43	102	1048576	19	4387
2026-01-25 08:25:56.50	67.13	20.80	-28.9	-30.5	15.6	0.00e+00	0	44	102	1048576	19	4333
2026-01-25 08:25:57.50	66.89	20.85	-28.9	-30.6	15.6	0.00e+00	0	44	102	1048576	19	4346
2026-01-25 08:25:58.50	66.65	20.90	-29.0	-30.6	15.5	0.00e+00	0	43	102	1048576	19	4373
2026-01-25 08:25:59.50	66.41	20.95	-29.0	-30.7	15.5	0.00e+00	0	43	102	1048576	19	4375
2026-01-25 08:26:00.50	66.17	21.00	-29.0	-30.7	15.5	0.00e+00	0	43	102	1048576	19	4392
2026-01-25 08:26:01.51	65.93	21.05	-29.0	-30.7	15.5	7.00e-07	0	43	102	1048576	19	4383
2026-01-25 08:26:02.52	65.69	21.10	-29.0	-30.8	15.5	0.00e+00	0	43	102	1048576	19	4419
2026-01-25 08:26:03.52	65.44	21.15	-29.0	-30.7	15.5	0.00e+00	0	43	102	1048576	19	4375
2026-01-25 08:26:04.52	65.20	21.20	-28.9	-30.6	15.6	0.00e+00	0	43	102	1048576	19	4349
2026-01-25 08:26:05.53	64.96	21.25	-28.8	-30.4	15.7	0.00e+00	0	43	102	1048576	19	4292
2026-01-25 08:26:06.54	64.71	21.30	-28.8	-30.3	15.8	0.00e+00	0	43	102	1048576	19	4263
2026-01-25 08:26:07.54	64.46	21.35	-28.8	-30.7	15.8	0.00e+00	0	43	102	1048576	18	4502
2026-01-25 08:26:08.54	64.22	21.39	-28.8	-30.9	15.7	0.00e+00	0	43	102	1048576	18	4543
2026-01-25 08:26:09.55	63.97	21.44	-28.8	-30.8	15.8	0.00e+00	0	43	102	1048576	18	4512
2026-01-25 08:26:10.56	63.72	21.48	-28.8	-30.7	15.8	0.00e+00	0	43	102	1048576	18	4490
2026-01-25 08:26:11.56	63.47	21.53	-28.8	-30.9	15.8	0.00e+00	0	43	102	1048576	18	4538
2026-01-25 08:26:12.57	63.22	21.58	-28.9	-30.9	15.7	0.00e+00	0	43	102	1048576	18	4541
2026-01-25 08:26:13.57	62.97	21.62	-28.8	-30.7	15.8	0.00e+00	0	43	102	1048576	18	4498
2026-01-25 08:26:14.57	62.72	21.66	-28.9	-30.9	15.7	0.00e+00	0	43	102	1048576	18	4551
2026-01-25 08:26:15.57	62.47	21.71	-28.8	-30.9	15.7	0.00e+00	0	43	102	1048576	18	4540
2026-01-25 08:26:16.58	62.21	21.75	-28.9	-31.0	15.7	0.00e+00	0	43	102	1048576	18	4576
2026-01-25 08:26:17.59	61.96	21.79	-29.0	-31.1	15.6	0.00e+00	0	43	102	1048576	18	4627
2026-01-25 08:26:18.59	61.71	21.83	-29.0	-31.2	15.5	0.00e+00	0	43	102	1048576	18	4659
2026-01-25 08:26:19.60	61.45	21.87	-29.0	-31.2	15.5	0.00e+00	0	43	102	1048576	18	4657
2026-01-25 08:26:20.60	61.20	21.92	-28.9	-31.0	15.7	0.00e+00	0	43	102	1048576	18	4579
2026-01-25 08:26:21.60	60.94	21.96	-28.9	-31.0	15.7	0.00e+00	0	43	102	1048576	18	4577
2026-01-25 08:26:22.61	60.68	22.00	-28.9	-31.1	15.6	0.00e+00	0	43	102	1048576	18	4606
2026-01-25 08:26:23.62	60.42	22.03	-28.9	-31.0	15.7	0.00e+00	0	43	102	1048576	18	4585
2026-01-25 08:26:24.62	60.17	22.07	-28.9	-31.1	15.6	0.00e+00	0	43	102	1048576	18	4597
2026-01-25 08:26:25.63	59.91	22.11	-29.0	-31.3	15.5	0.00e+00	0	43	102	1048576	18	4677
2026-01-25 08:26:26.63	59.65	22.15	-29.2	-31.7	15.3	0.00e+00	0	43	102	1048576	18	4793
2026-01-25 08:26:27.64	59.39	22.19	-29.4	-32.1	15.0	0.00e+00	0	43	102	1048576	18	4958
2026-01-25 08:26:28.64	59.13	22.22	-29.5	-32.0	14.8	1.50e-06	0	43	102	1048576	19	4806
2026-01-25 08:26:29.64	58.87	22.26	-29.6	-32.4	14.6	0.00e+00	0	43	102	1048576	19	4915
2026-01-25 08:26:30.65	58.60	22.29	-29.7	-32.5	14.5	0.00e+00	0	43	102	1048576	19	4979
2026-01-25 08:26:31.65	58.34	22.33	-29.8	-32.8	14.3	0.00e+00	0	43	102	1048576	19	5064
2026-01-25 08:26:32.65	58.08	22.36	-29.9	-33.0	14.1	7.00e-07	0	43	102	1048576	19	5152
2026-01-25 08:26:33.66	57.82	22.39	-29.8	-32.7	14.3	0.00e+00	0	43	102	1048576	19	5052
2026-01-25 08:26:34.66	57.55	22.43	-29.7	-32.6	14.4	0.00e+00	0	43	102	1048576	19	5001
2026-01-25 08:26:35.66	57.29	22.46	-29.8	-32.7	14.4	1.50e-06	0	43	102	1048576	19	5036
2026-01-25 08:26:36.67	57.02	22.49	-29.9	-33.1	14.1	1.50e-06	0	43	102	1048576	19	5183
2026-01-25 08:26:37.67	56.76	22.52	-30.0	-32.9	13.8	7.00e-07	0	43	102	1048576	20	5016
2026-01-25 08:26:38.68	56.49	22.55	-30.1	-33.1	13.7	6.10e-06	0	43	102	1048576	20	5096
2026-01-25 08:26:39.69	56.22	22.58	-30.1	-33.1	13.7	3.00e-06	0	43	102	1048576	20	5095
2026-01-25 08:26:40.69	55.96	22.61	-30.0	-32.8	13.9	8.30e-06	0	43	102	1048576	20	4982
2026-01-25 08:26:41.70	55.69	22.64	-30.0	-32.7	14.0	1.50e-06	0	43	102	1048576	20	4942
2026-01-25 08:26:42.70	55.42	22.66	-30.0	-32.9	13.8	4.50e-06	0	43	102	1048576	20	5025
2026-01-25 08:26:43.70	55.15	22.69	-30.1	-33.0	13.7	9.10e-06	0	44	102	1048576	20	5055
2026-01-25 08:26:44.71	54.88	22.72	-30.1	-33.1	13.7	7.60e-06	0	43	102	1048576	20	5098
2026-01-25 08:26:45.71	54.61	22.74	-30.2	-33.2	13.6	8.30e-06	0	43	102	1048576	20	5135
2026-01-25 08:26:46.72	54.34	22.77	-30.3	-33.7	13.3	1.14e-05	0	43	102	1048576	20	5326
2026-01-25 08:26:47.72	54.07	22.79	-30.4	-33.9	13.2	1.44e-05	0	43	102	1048576	20	5403
2026-01-25 08:26:48.72	53.80	22.82	-30.5	-34.1	13.1	3.05e-05	0	43	102	1048576	20	5477
2026-01-25 08:26:49.73	53.53	22.84	-30.5	-33.7	13.0	4.50e-05	0	43	102	1048576	21	5202
2026-01-25 08:26:50.73	53.26	22.86	-30.6	-34.0	12.8	4.57e-05	0	44	102	1048576	21	5323
2026-01-25 08:26:51.73	52.99	22.88	-30.7	-34.2	12.7	7.32e-05	0	43	102	1048576	21	5407
2026-01-25 08:26:52.74	52.71	22.90	-30.8	-34.4	12.6	8.39e-05	0	43	102	1048576	21	5477
2026-01-25 08:26:53.75	52.44	22.92	-30.8	-34.4	12.6	1.06e-04	0	43	102	1048576	21	5477
2026-01-25 08:26:54.76	52.16	22.94	-30.7	-34.3	12.6	9.99e-05	0	43	102	1048576	21	5448
2026-01-25 08:26:55.76	51.89	22.96	-30.7	-34.3	12.5	1.05e-04	0	43	102	1048576	21	5458
2026-01-25 08:26:56.76	51.62	22.98	-30.9	-35.0	12.2	1.59e-04	0	43	102	1048576	21	5728
2026-01-25 08:26:57.77	51.34	23.00	-30.9	-34.8	12.3	2.49e-04	0	43	102	1048576	21	5647
2026-01-25 08:26:58.77	51.07	23.02	-30.8	-34.6	12.4	1.45e-04	0	44	102	1048576	21	5564
2026-01-25 08:26:59.77	50.80	23.03	-30.7	-34.3	12.6	1.35e-04	0	43	102	1048576	21	5424
2026-01-25 08:27:00.76	50.53	23.05	-30.7	-34.2	12.7	8.46e-05	0	43	102	1048576	21	5410
2026-01-25 08:27:01.77	50.25	23.06	-30.7	-34.3	12.6	8.54e-05	0	43	102	1048576	21	5423
2026-01-25 08:27:02.78	49.97	23.08	-30.8	-34.5	12.5	1.16e-04	0	44	102	1048576	21	5516
2026-01-25 08:27:03.78	49.70	23.09	-30.7	-34.2	12.7	9.76e-05	0	43	102	1048576	21	5391
2026-01-25 08:27:04.79	49.42	23.10	-30.5	-33.6	13.0	4.88e-05	0	43	102	1048576	21	5172
2026-01-25 08:27:05.79	49.15	23.11	-30.4	-33.2	13.3	1.60e-05	0	43	102	1048576	21	5017
2026-01-25 08:27:06.80	48.87	23.13	-30.2	-32.9	13.6	1.29e-05	0	43	102	1048576	21	4893
2026-01-25 08:27:07.81	48.59	23.14	-30.3	-33.0	13.5	7.60e-06	0	44	102	1048576	21	4937
2026-01-25 08:27:08.81	48.31	23.15	-30.3	-33.0	13.5	9.10e-06	0	43	102	1048576	21	4939
2026-01-25 08:27:09.82	48.04	23.15	-30.3	-32.9	13.6	6.10e-06	0	44	102	1048576	21	4895
2026-01-25 08:27:10.82	47.76	23.16	-30.2	-32.7	13.7	9.90e-06	0	43	102	1048576	21	4832
2026-01-25 08:27:11.83	47.48	23.17	-30.2	-32.7	13.7	8.30e-06	0	43	102	1048576	21	4823
2026-01-25 08:27:12.83	47.20	23.18	-30.3	-33.1	13.5	7.60e-06	0	43	102	1048576	21	4978
2026-01-25 08:27:13.84	46.93	23.18	-30.3	-33.0	13.5	1.14e-05	0	43	102	1048576	21	4944
2026-01-25 08:27:14.85	46.65	23.19	-30.5	-33.6	13.2	1.06e-05	0	43	102	1048576	21	5136
2026-01-25 08:27:15.85	46.37	23.19	-30.4	-33.5	13.2	3.43e-05	0	43	102	1048576	21	5111
2026-01-25 08:27:16.86	46.09	23.20	-30.4	-33.4	13.3	1.90e-05	0	43	102	1048576	21	5060
2026-01-25 08:27:17.86	45.81	23.20	-30.4	-33.5	13.2	1.83e-05	0	44	102	1048576	21	5109
2026-01-25 08:27:18.87	45.54	23.20	-30.5	-33.6	13.1	2.44e-05	0	44	102	1048576	21	5155
2026-01-25 08:27:19.87	45.26	23.21	-30.7	-34.2	12.7	5.41e-05	0	43	102	1048576	21	5406
2026-01-25 08:27:20.88	44.98	23.21	-30.5	-33.7	13.0	7.62e-05	0	43	102	1048576	21	5188
2026-01-25 08:27:21.88	44.70	23.21	-30.3	-33.1	13.4	1.83e-05	0	44	102	1048576	21	4976
2026-01-25 08:27:22.89	44.42	23.21	-30.1	-32.5	13.9	6.10e-06	0	43	102	1048576	21	4744
2026-01-25 08:27:23.89	44.15	23.21	-29.9	-31.9	14.2	7.00e-07	0	43	102	1048576	21	4571
2026-01-25 08:27:24.89	43.87	23.20	-29.8	-31.8	14.3	2.20e-06	0	43	102	1048576	21	4527
2026-01-25 08:27:25.89	43.59	23.20	-29.8	-32.3	14.3	7.00e-07	0	43	102	1048576	20	4793
2026-01-25 08:27:26.90	43.31	23.20	-29.8	-32.1	14.4	0.00e+00	0	44	102	1048576	20	4738
2026-01-25 08:27:27.91	43.04	23.19	-29.7	-31.9	14.5	1.50e-06	0	43	102	1048576	20	4649
2026-01-25 08:27:28.91	42.76	23.19	-29.6	-31.6	14.7	0.00e+00	0	44	102	1048576	20	4574
2026-01-25 08:27:29.91	42.48	23.18	-29.5	-31.4	14.8	0.00e+00	0	43	102	1048576	20	4504
2026-01-25 08:27:30.91	42.21	23.18	-29.6	-31.7	14.7	0.00e+00	0	43	102	1048576	20	4577
2026-01-25 08:27:31.92	41.93	23.17	-29.4	-31.2	15.0	0.00e+00	0	43	102	1048576	20	4448
2026-01-25 08:27:32.93	41.65	23.16	-29.3	-31.0	15.1	0.00e+00	0	43	102	1048576	20	4376
2026-01-25 08:27:33.93	41.37	23.16	-29.3	-31.5	15.2	0.00e+00	0	44	102	1048576	19	4616
2026-01-25 08:27:34.93	41.10	23.15	-29.1	-31.0	15.5	0.00e+00	0	44	102	1048576	19	4465
2026-01-25 08:27:35.93	40.82	23.14	-28.9	-30.5	15.8	0.00e+00	0	44	102	1048576	19	4304
2026-01-25 08:27:36.93	40.55	23.13	-28.9	-30.3	15.8	0.00e+00	0	44	102	1048576	19	4275
2026-01-25 08:27:37.94	40.27	23.12	-29.0	-30.6	15.7	0.00e+00	0	44	102	1048576	19	4367
2026-01-25 08:27:38.94	39.99	23.10	-28.9	-30.4	15.8	0.00e+00	0	43	102	1048576	19	4292
2026-01-25 08:27:39.95	39.72	23.09	-28.8	-30.2	15.9	0.00e+00	0	43	102	1048576	19	4239
2026-01-25 08:27:40.95	39.44	23.08	-28.8	-30.2	16.0	0.00e+00	0	44	102	1048576	19	4219
2026-01-25 08:27:41.96	39.17	23.06	-28.7	-30.4	16.1	0.00e+00	0	43	102	1048576	18	4396
2026-01-25 08:27:42.96	38.89	23.05	-28.6	-30.2	16.2	0.00e+00	0	44	102	1048576	18	4343
2026-01-25 08:27:43.96	38.62	23.03	-28.6	-30.2	16.2	0.00e+00	0	44	102	1048576	18	4343
2026-01-25 08:27:44.96	38.35	23.02	-28.6	-30.2	16.2	0.00e+00	0	44	102	1048576	18	4341
2026-01-25 08:27:45.97	38.07	23.00	-28.6	-30.3	16.2	0.00e+00	0	43	102	1048576	18	4358
2026-01-25 08:27:46.97	37.80	22.98	-28.6	-30.2	16.2	0.00e+00	0	43	102	1048576	18	4325
2026-01-25 08:27:47.97	37.52	22.97	-28.5	-30.0	16.3	0.00e+00	0	43	102	1048576	18	4290
2026-01-25 08:27:48.98	37.25	22.95	-28.6	-30.2	16.3	0.00e+00	0	44	102	1048576	18	4324
2026-01-25 08:27:49.98	36.98	22.93	-28.6	-30.2	16.2	0.00e+00	0	43	102	1048576	18	4346
2026-01-25 08:27:50.99	36.70	22.91	-28.5	-30.0	16.4	0.00e+00	0	44	102	1048576	18	4267
2026-01-25 08:27:51.99	36.43	22.89	-28.4	-29.7	16.5	0.00e+00	0	43	102	1048576	18	4198
2026-01-25 08:27:52.99	36.16	22.86	-28.5	-30.0	16.4	0.00e+00	0	43	102	1048576	18	4264
2026-01-25 08:27:54.00	35.89	22.84	-28.5	-30.0	16.3	0.00e+00	0	43	102	1048576	18	4277
2026-01-25 08:27:55.00	35.62	22.82	-28.6	-30.1	16.3	0.00e+00	0	43	102	1048576	18	4319
2026-01-25 08:27:56.01	35.35	22.80	-28.7	-30.5	16.1	0.00e+00	0	43	102	1048576	18	4415
2026-01-25 08:27:57.02	35.08	22.77	-28.7	-30.5	16.0	0.00e+00	0	44	102	1048576	18	4440
2026-01-25 08:27:58.02	34.81	22.75	-28.7	-30.5	16.1	0.00e+00	0	43	102	1048576	18	4414
2026-01-25 08:27:59.03	34.54	22.72	-28.7	-30.5	16.1	0.00e+00	0	43	102	1048576	18	4425
2026-01-25 08:28:00.03	34.27	22.69	-28.6	-30.2	16.2	0.00e+00	0	43	102	1048576	18	4323
2026-01-25 08:28:01.03	34.00	22.67	-28.7	-30.4	16.1	0.00e+00	0	43	102	1048576	18	4394
2026-01-25 08:28:02.03	33.73	22.64	-28.7	-30.5	16.1	0.00e+00	0	43	102	1048576	18	4419
2026-01-25 08:28:03.03	33.47	22.61	-28.9	-31.0	15.7	0.00e+00	0	44	102	1048576	18	4588
2026-01-25 08:28:04.04	33.20	22.58	-29.0	-31.1	15.7	0.00e+00	0	44	102	1048576	18	4625
2026-01-25 08:28:05.04	32.94	22.55	-29.1	-31.4	15.5	0.00e+00	0	44	102	1048576	18	4692
2026-01-25 08:28:06.04	32.67	22.52	-29.1	-31.4	15.5	0.00e+00	0	43	102	1048576	18	4703
2026-01-25 08:28:07.05	32.40	22.49	-29.2	-31.7	15.3	0.00e+00	0	43	102	1048576	18	4795
2026-01-25 08:28:08.05	32.14	22.46	-29.3	-32.0	15.1	0.00e+00	0	43	102	1048576	18	4917
2026-01-25 08:28:09.06	31.87	22.43	-29.2	-31.7	15.3	0.00e+00	0	43	102	1048576	18	4814
2026-01-25 08:28:10.06	31.61	22.40	-29.3	-32.0	15.1	0.00e+00	0	43	102	1048576	18	4909
2026-01-25 08:28:11.06	31.35	22.37	-29.4	-32.2	15.0	0.00e+00	0	43	102	1048576	18	4985
2026-01-25 08:28:12.06	31.09	22.33	-29.5	-32.4	14.9	0.00e+00	0	44	102	1048576	18	5032
2026-01-25 08:28:13.06	30.83	22.30	-29.6	-32.1	14.7	0.00e+00	0	44	102	1048576	19	4839
2026-01-25 08:28:14.07	30.56	22.26	-29.7	-32.5	14.5	0.00e+00	0	44	102	1048576	19	4959
2026-01-25 08:28:15.08	30.30	22.23	-29.5	-32.1	14.8	1.50e-06	0	43	102	1048576	19	4812
2026-01-25 08:28:16.08	30.04	22.19	-29.5	-31.9	14.9	0.00e+00	0	44	102	1048576	19	4767
2026-01-25 08:28:17.09	29.78	22.15	-29.5	-32.0	14.8	0.00e+00	0	43	102	1048576	19	4805
2026-01-25 08:28:18.09	29.52	22.12	-29.5	-32.1	14.8	0.00e+00	0	44	102	1048576	19	4807
2026-01-25 08:28:19.10	29.26	22.08	-29.7	-32.4	14.6	0.00e+00	0	43	102	1048576	19	4932
2026-01-25 08:28:20.10	29.01	22.04	-29.8	-32.6	14.4	1.50e-06	0	44	102	1048576	19	4991
2026-01-25 08:28:21.11	28.75	22.00	-29.9	-33.0	14.2	7.00e-07	0	44	102	1048576	19	5150
2026-01-25 08:28:22.11	28.49	21.96	-30.0	-33.2	14.1	3.00e-06	0	44	102	1048576	19	5205
2026-01-25 08:28:23.11	28.24	21.92	-29.9	-32.6	14.0	2.20e-06	0	44	102	1048576	20	4914
2026-01-25 08:28:24.12	27.98	21.88	-29.9	-32.5	14.1	3.00e-06	0	43	102	1048576	20	4864
2026-01-25 08:28:25.12	27.73	21.84	-29.9	-32.5	14.1	2.20e-06	0	43	102	1048576	20	4861
2026-01-25 08:28:26.12	27.48	21.80	-29.9	-32.4	14.2	0.00e+00	0	43	102	1048576	20	4842
2026-01-25 08:28:27.12	27.23	21.76	-29.8	-32.2	14.3	4.50e-06	0	44	102	1048576	20	4774
2026-01-25 08:28:28.12	26.97	21.72	-29.8	-32.3	14.2	0.00e+00	0	43	102	1048576	20	4810
2026-01-25 08:28:29.12	26.72	21.67	-29.9	-32.7	14.0	7.00e-07	0	44	102	1048576	20	4924
2026-01-25 08:28:30.13	26.47	21.63	-29.9	-32.6	14.0	3.80e-06	0	43	102	1048576	20	4911
2026-01-25 08:28:31.13	26.22	21.58	-30.1	-33.1	13.7	6.10e-06	0	43	102	1048576	20	5097
2026-01-25 08:28:32.14	25.97	21.54	-30.1	-33.1	13.7	4.50e-06	0	43	102	1048576	20	5081
2026-01-25 08:28:33.15	25.72	21.49	-30.3	-33.6	13.4	6.80e-06	0	44	102	1048576	20	5261
2026-01-25 08:28:34.16	25.47	21.45	-30.3	-33.6	13.4	9.10e-06	0	43	102	1048576	20	5258
2026-01-25 08:28:35.16	25.23	21.40	-30.2	-33.4	13.5	9.10e-06	0	44	102	1048576	20	5201
2026-01-25 08:28:36.16	24.98	21.36	-30.3	-33.6	13.4	1.29e-05	0	43	102	1048576	20	5275
2026-01-25 08:28:37.17	24.73	21.31	-30.4	-33.8	13.2	2.44e-05	0	43	102	1048576	20	5367
2026-01-25 08:28:38.17	24.49	21.26	-30.2	-33.4	13.4	1.14e-05	0	44	102	1048576	20	5208
2026-01-25 08:28:39.17	24.25	21.21	-30.1	-33.1	13.7	3.80e-06	0	43	102	1048576	20	5081
2026-01-25 08:28:40.18	24.00	21.16	-30.0	-32.9	13.8	5.30e-06	0	43	102	1048576	20	5004
2026-01-25 08:28:41.17	23.76	21.12	-30.0	-32.8	13.9	4.50e-06	0	43	102	1048576	20	4964
2026-01-25 08:28:42.18	23.52	21.07	-30.1	-33.0	13.8	6.80e-06	0	43	102	1048576	20	5038
2026-01-25 08:28:43.19	23.28	21.02	-30.4	-33.8	13.2	2.59e-05	0	43	102	1048576	20	5359
2026-01-25 08:28:44.19	23.04	20.97	-30.4	-33.9	13.1	2.74e-05	0	43	102	1048576	20	5406
2026-01-25 08:28:45.20	22.80	20.92	-30.6	-34.0	12.7	5.49e-05	0	44	102	1048576	21	5331
2026-01-25 08:28:46.20	22.56	20.86	-30.4	-33.4	13.1	4.34e-05	0	44	102	1048576	21	5091
2026-01-25 08:28:47.21	22.32	20.81	-30.2	-32.9	13.5	1.75e-05	0	43	102	1048576	21	4913
2026-01-25 08:28:48.22	22.08	20.76	-30.0	-32.4	13.7	7.60e-06	0	44	102	1048576	21	4744
2026-01-25 08:28:49.22	21.85	20.71	-30.0	-32.4	13.8	4.50e-06	0	44	102	1048576	21	4742
2026-01-25 08:28:50.23	21.61	20.65	-30.1	-32.6	13.7	6.80e-06	0	43	102	1048576	21	4797
2026-01-25 08:28:51.24	21.38	20.60	-30.0	-32.4	13.8	7.60e-06	0	44	102	1048576	21	4731
2026-01-25 08:28:52.25	21.14	20.55	-30.1	-32.5	13.8	6.80e-06	0	43	102	1048576	21	4755
2026-01-25 08:28:53.25	20.91	20.49	-30.1	-32.6	13.6	1.06e-05	0	43	102	1048576	21	4809
2026-01-25 08:28:54.26	20.67	20.44	-30.0	-32.4	13.8	3.80e-06	0	43	102	1048576	21	4734
2026-01-25 08:28:55.26	20.44	20.38	-30.0	-32.4	13.8	5.30e-06	0	43	102	1048576	21	4716
2026-01-25 08:28:56.27	20.21	20.33	-30.0	-32.2	13.9	3.80e-06	0	44	102	1048576	21	4658
2026-01-25 08:28:57.27	19.98	20.27	-30.0	-32.4	13.8	5.30e-06	0	44	102	1048576	21	4739
2026-01-25 08:28:58.27	19.76	20.22	-30.0	-32.3	13.8	2.20e-06	0	43	102	1048576	21	4707
2026-01-25 08:28:59.28	19.53	20.16	-30.0	-32.4	13.8	1.50e-06	0	44	102	1048576	21	4722
2026-01-25 08:29:00.27	19.30	20.11	-30.0	-32.4	13.7	3.00e-06	0	43	102	1048576	21	4746
2026-01-25 08:29:01.28	19.08	20.05	-29.9	-32.1	14.0	5.30e-06	0	43	102	1048576	21	4624
2026-01-25 08:29:02.28	18.85	19.99	-29.9	-32.2	13.9	1.50e-06	0	43	102	1048576	21	4650
2026-01-25 08:29:03.28	18.63	19.93	-30.0	-32.3	13.8	3.80e-06	0	43	102	1048576	21	4705
2026-01-25 08:29:04.28	18.41	19.88	-30.0	-32.4	13.7	5.30e-06	0	43	102	1048576	21	4750
2026-01-25 08:29:05.29	18.18	19.82	-30.0	-32.3	13.8	4.50e-06	0	43	102	1048576	21	4707
2026-01-25 08:29:06.29	17.96	19.76	-29.9	-32.1	13.9	3.00e-06	0	44	102	1048576	21	4626
2026-01-25 08:29:07.30	17.74	19.70	-29.8	-32.0	14.0	3.00e-06	0	43	102	1048576	21	4588
2026-01-25 08:29:08.29	17.52	19.64	-30.0	-32.4	13.7	7.60e-06	0	43	102	1048576	21	4734
2026-01-25 08:29:09.30	17.30	19.58	-30.1	-32.6	13.6	6.80e-06	0	43	102	1048576	21	4807
2026-01-25 08:29:10.30	17.08	19.52	-30.0	-32.5	13.7	6.10e-06	0	43	102	1048576	21	4778
2026-01-25 08:29:11.31	16.87	19.46	-30.2	-33.0	13.4	1.44e-05	0	44	102	1048576	21	4936
2026-01-25 08:29:12.31	16.65	19.40	-30.1	-32.7	13.5	1.29e-05	0	43	102	1048576	21	4835
2026-01-25 08:29:13.31	16.43	19.34	-30.0	-32.4	13.7	9.10e-06	0	43	102	1048576	21	4731
2026-01-25 08:29:14.31	16.22	19.28	-30.0	-32.3	13.8	3.00e-06	0	44	102	1048576	21	4701
2026-01-25 08:29:15.32	16.01	19.22	-29.9	-32.2	13.8	3.80e-06	0	44	102	1048576	21	4675
2026-01-25 08:29:16.33	15.79	19.16	-29.9	-32.0	14.0	4.50e-06	0	44	102	1048576	21	4592
2026-01-25 08:29:17.33	15.58	19.10	-29.8	-31.8	14.0	5.30e-06	0	43	102	1048576	21	4545
2026-01-25 08:29:18.34	15.37	19.04	-29.7	-32.2	14.2	0.00e+00	0	44	102	1048576	20	4764
2026-01-25 08:29:19.34	15.16	18.97	-29.7	-32.2	14.2	7.00e-07	0	43	102	1048576	20	4764
2026-01-25 08:29:20.35	14.95	18.91	-29.8	-32.3	14.1	2.20e-06	0	43	102	1048576	20	4827
2026-01-25 08:29:21.35	14.74	18.85	-29.8	-32.3	14.1	2.20e-06	0	43	102	1048576	20	4829
2026-01-25 08:29:22.36	14.53	18.79	-29.8	-32.4	14.0	3.00e-06	0	44	102	1048576	20	4858
2026-01-25 08:29:23.36	14.32	18.72	-29.9	-32.7	13.8	6.80e-06	0	43	102	1048576	20	4941
2026-01-25 08:29:24.37	14.12	18.66	-29.9	-32.7	13.8	4.50e-06	0	44	102	1048576	20	4958
2026-01-25 08:29:25.38	13.91	18.60	-29.9	-32.7	13.8	5.30e-06	0	43	102	1048576	20	4954
2026-01-25 08:29:26.38	13.71	18.53	-30.0	-32.8	13.8	5.30e-06	0	44	102	1048576	20	4986
2026-01-25 08:29:27.38	13.50	18.47	-30.0	-32.9	13.7	4.50e-06	0	43	102	1048576	20	5010
2026-01-25 08:29:28.38	13.30	18.40	-29.9	-32.6	13.9	3.80e-06	0	43	102	1048576	20	4933
2026-01-25 08:29:29.39	13.10	18.34	-29.9	-32.7	13.8	5.30e-06	0	43	102	1048576	20	4965
2026-01-25 08:29:30.39	12.90	18.28	-29.9	-32.8	13.7	4.50e-06	0	43	102	1048576	20	4978
2026-01-25 08:29:31.38	12.70	18.21	-30.0	-32.9	13.7	1.14e-05	0	43	102	1048576	20	5016
2026-01-25 08:29:32.39	12.50	18.15	-30.0	-32.8	13.7	6.80e-06	0	44	102	1048576	20	5009
2026-01-25 08:29:33.39	12.30	18.08	-29.9	-32.7	13.8	3.80e-06	0	43	102	1048576	20	4946
2026-01-25 08:29:34.40	12.10	18.02	-29.9	-32.5	13.9	3.00e-06	0	44	102	1048576	20	4899
2026-01-25 08:29:35.40	11.91	17.95	-29.9	-32.6	13.9	3.80e-06	0	43	102	1048576	20	4906
2026-01-25 08:29:36.40	11.71	17.88	-29.9	-32.7	13.8	3.00e-06	0	44	102	1048576	20	4954
2026-01-25 08:29:37.41	11.52	17.82	-30.0	-33.0	13.6	6.10e-06	0	43	102	1048576	20	5056
2026-01-25 08:29:38.42	11.32	17.75	-30.0	-32.9	13.6	7.60e-06	0	43	102	1048576	20	5016
2026-01-25 08:29:39.42	11.13	17.69	-29.9	-32.7	13.8	5.30e-06	0	44	102	1048576	20	4964
2026-01-25 08:29:40.43	10.94	17.62	-30.0	-33.0	13.6	5.30e-06	0	44	102	1048576	20	5064
2026-01-25 08:29:41.44	10.74	17.55	-30.1	-33.2	13.4	1.75e-05	0	43	102	1048576	20	5155
2026-01-25 08:29:42.43	10.56	17.49	-30.0	-33.0	13.6	7.60e-06	0	43	102	1048576	20	5067
2026-01-25 08:29:43.44	10.36	17.42	-30.0	-32.9	13.6	6.10e-06	0	44	102	1048576	20	5045
2026-01-25 08:29:44.44	10.18	17.35	-30.1	-33.1	13.5	1.37e-05	0	44	102	1048576	20	5100
2026-01-25 08:29:45.44	9.99	17.29	-30.1	-33.1	13.5	9.90e-06	0	44	102	1048576	20	5126
2026-01-25 08:29:46.44	9.80	17.22	-30.1	-33.2	13.4	2.28e-05	0	43	102	1048576	20	5143
2026-01-25 08:29:47.45	9.62	17.15	-29.8	-32.5	13.9	5.30e-06	0	43	102	1048576	20	4897
2026-01-25 08:29:48.45	9.43	17.08	-29.7	-32.1	14.1	7.00e-07	0	44	102	1048576	20	4745
2026-01-25 08:29:49.46	9.24	17.02	-29.6	-31.8	14.3	2.20e-06	0	44	102	1048576	20	4639
2026-01-25 08:29:50.46	9.06	16.95	-29.5	-31.5	14.5	0.00e+00	0	44	102	1048576	20	4554
2026-01-25 08:29:51.46	8.88	16.88	-29.4	-31.4	14.6	0.00e+00	0	44	102	1048576	20	4520
2026-01-25 08:29:52.47	8.70	16.81	-29.4	-31.3	14.6	1.50e-06	0	43	102	1048576	20	4485
2026-01-25 08:29:53.48	8.51	16.75	-29.4	-31.3	14.6	0.00e+00	0	44	102	1048576	20	4505
2026-01-25 08:29:54.48	8.33	16.68	-29.5	-31.6	14.4	0.00e+00	0	43	102	1048576	20	4586
2026-01-25 08:29:55.49	8.15	16.61	-29.5	-31.7	14.3	7.00e-07	0	44	102	1048576	20	4636
2026-01-25 08:29:56.50	7.97	16.54	-29.4	-31.3	14.5	7.00e-07	0	44	102	1048576	20	4508
2026-01-25 08:29:57.50	7.80	16.47	-29.4	-31.3	14.5	1.50e-06	0	44	102	1048576	20	4507
2026-01-25 08:29:58.50	7.62	16.40	-29.4	-31.5	14.5	1.50e-06	0	43	102	1048576	20	4546
2026-01-25 08:29:59.51	7.44	16.33	-29.5	-31.6	14.4	0.00e+00	0	43	102	1048576	20	4588
2026-01-25 08:30:00.51	7.27	16.27	-29.4	-31.5	14.5	7.00e-07	0	43	102	1048576	20	4549
2026-01-25 08:30:01.52	7.09	16.20	-29.4	-31.3	14.6	0.00e+00	0	43	102	1048576	20	4500
2026-01-25 08:30:02.52	6.92	16.13	-29.4	-31.3	14.6	0.00e+00	0	44	102	1048576	20	4486
2026-01-25 08:30:03.52	6.75	16.06	-29.3	-31.2	14.7	0.00e+00	0	43	102	1048576	20	4448
2026-01-25 08:30:04.52	6.58	15.99	-29.3	-31.6	14.8	0.00e+00	0	44	102	1048576	19	4678
2026-01-25 08:30:05.52	6.40	15.92	-29.3	-31.5	14.8	7.00e-07	0	43	102	1048576	19	4658
2026-01-25 08:30:06.52	6.23	15.85	-29.2	-31.4	14.9	0.00e+00	0	44	102	1048576	19	4623
2026-01-25 08:30:07.52	6.07	15.78	-29.3	-31.7	14.7	0.00e+00	0	43	102	1048576	19	4704
2026-01-25 08:30:08.52	5.90	15.72	-29.4	-31.8	14.6	0.00e+00	0	44	102	1048576	19	4744
2026-01-25 08:30:09.52	5.73	15.65	-29.2	-31.4	14.9	0.00e+00	0	43	102	1048576	19	4619
2026-01-25 08:30:10.53	5.56	15.58	-29.2	-31.4	14.9	7.00e-07	0	44	102	1048576	19	4622
2026-01-25 08:30:11.54	5.39	15.51	-29.3	-31.5	14.8	0.00e+00	0	44	102	1048576	19	4659
2026-01-25 08:30:12.54	5.23	15.44	-29.3	-31.7	14.7	0.00e+00	0	44	102	1048576	19	4709
2026-01-25 08:30:13.55	5.06	15.37	-29.3	-31.5	14.7	0.00e+00	0	44	102	1048576	19	4671
2026-01-25 08:30:14.55	4.90	15.30	-29.3	-31.7	14.7	0.00e+00	0	44	102	1048576	19	4723
2026-01-25 08:30:15.56	4.73	15.23	-29.3	-31.7	14.7	0.00e+00	0	43	102	1048576	19	4718
2026-01-25 08:30:16.56	4.57	15.16	-29.3	-31.6	14.7	0.00e+00	0	44	102	1048576	19	4693
2026-01-25 08:30:17.55	4.41	15.09	-29.4	-31.7	14.6	7.00e-07	0	44	102	1048576	19	4731
2026-01-25 08:30:18.55	4.25	15.02	-29.4	-31.7	14.6	0.00e+00	0	44	102	1048576	19	4740
2026-01-25 08:30:19.55	4.09	14.95	-29.4	-31.7	14.6	7.00e-07	0	44	102	1048576	19	4743
2026-01-25 08:30:20.56	3.93	14.88	-29.4	-31.8	14.6	7.00e-07	0	43	102	1048576	19	4765
2026-01-25 08:30:21.56	3.77	14.81	-29.4	-31.8	14.6	0.00e+00	0	44	102	1048576	19	4755
2026-01-25 08:30:22.56	3.62	14.74	-29.4	-31.8	14.6	0.00e+00	0	44	102	1048576	19	4746
2026-01-25 08:30:23.57	3.46	14.67	-29.4	-31.9	14.5	0.00e+00	0	44	102	1048576	19	4782
2026-01-25 08:30:24.57	3.30	14.60	-29.4	-31.9	14.5	0.00e+00	0	44	102	1048576	19	4800
2026-01-25 08:30:25.57	3.15	14.53	-29.4	-31.9	14.5	0.00e+00	0	44	102	1048576	19	4784
2026-01-25 08:30:26.58	2.99	14.46	-29.4	-31.9	14.5	8.30e-06	0	43	102	1048576	19	4792
2026-01-25 08:30:27.58	2.84	14.39	-29.5	-32.0	14.4	0.00e+00	0	43	102	1048576	19	4845
2026-01-25 08:30:28.59	2.68	14.32	-29.5	-32.2	14.3	0.00e+00	0	43	102	1048576	19	4910
2026-01-25 08:30:29.59	2.53	14.25	-29.5	-32.2	14.3	1.50e-06	0	44	102	1048576	19	4900
2026-01-25 08:30:30.60	2.38	14.18	-29.7	-32.6	14.0	1.50e-06	0	44	102	1048576	19	5033
2026-01-25 08:30:31.60	2.22	14.11	-29.7	-32.7	14.0	4.50e-06	0	44	102	1048576	19	5086
2026-01-25 08:30:32.60	2.07	14.05	-29.6	-32.5	14.0	3.00e-06	0	43	102	1048576	19	5013
2026-01-25 08:30:33.61	1.92	13.97	-29.6	-32.5	14.1	7.00e-07	0	43	102	1048576	19	4999
2026-01-25 08:30:34.61	1.77	13.91	-29.7	-32.7	14.0	0.00e+00	0	43	102	1048576	19	5068
2026-01-25 08:30:35.61	1.63	13.84	-29.8	-32.9	13.8	4.50e-06	0	43	102	1048576	19	5154
2026-01-25 08:30:36.62	1.48	13.77	-29.8	-33.0	13.7	4.50e-06	0	43	102	1048576	19	5192
2026-01-25 08:30:37.62	1.33	13.70	-29.9	-33.3	13.5	9.90e-06	0	44	102	1048576	19	5322
2026-01-25 08:30:38.63	1.18	13.63	-29.9	-33.3	13.5	8.30e-06	0	43	102	1048576	19	5304
2026-01-25 08:30:39.63	1.04	13.56	-29.9	-33.2	13.6	7.60e-06	0	44	102	1048576	19	5287
2026-01-25 08:30:40.63	0.89	13.49	-29.9	-33.1	13.6	1.14e-05	0	43	102	1048576	19	5253
2026-01-25 08:30:41.63	0.75	13.42	-29.9	-33.2	13.6	2.20e-06	0	43	102	1048576	19	5279
2026-01-25 08:30:42.63	0.61	13.35	-29.8	-33.0	13.7	6.10e-06	0	44	102	1048576	19	5215
2026-01-25 08:30:43.65	0.46	13.28	-29.7	-32.7	13.9	3.00e-06	0	44	102	1048576	19	5071
2026-01-25 08:30:44.64	0.32	13.21	-29.7	-32.8	13.8	1.50e-06	0	44	102	1048576	19	5120
2026-01-25 08:30:45.65	0.18	13.14	-29.7	-32.7	13.9	2.20e-06	0	44	102	1048576	19	5087
2026-01-25 08:30:46.66	0.04	13.07	-29.7	-32.8	13.9	3.80e-06	0	44	102	1048576	19	5115
2026-01-25 08:30:47.66	359.90	13.00	-29.8	-33.0	13.7	7.60e-06	0	44	102	1048576	19	5194
2026-01-25 08:30:48.66	359.76	12.93	-29.9	-33.1	13.6	6.80e-06	0	43	102	1048576	19	5257
2026-01-25 08:30:49.67	359.62	12.86	-29.9	-33.2	13.5	7.60e-06	0	44	102	1048576	19	5294
2026-01-25 08:30:50.67	359.48	12.79	-29.9	-33.3	13.5	9.90e-06	0	43	102	1048576	19	5308
2026-01-25 08:30:51.67	359.34	12.72	-29.9	-32.9	13.4	1.98e-05	0	43	102	1048576	20	5075
2026-01-25 08:30:52.67	359.21	12.65	-30.0	-33.1	13.2	1.98e-05	0	43	102	1048576	20	5160
2026-01-25 08:30:53.68	359.07	12.58	-30.0	-33.2	13.1	3.35e-05	0	43	102	1048576	20	5188
2026-01-25 08:30:54.68	358.94	12.51	-30.1	-33.3	13.0	3.28e-05	0	44	102	1048576	20	5226
2026-01-25 08:30:55.69	358.80	12.44	-30.0	-33.2	13.1	3.28e-05	0	43	102	1048576	20	5178
2026-01-25 08:30:56.70	358.67	12.37	-30.0	-33.1	13.2	2.59e-05	0	43	102	1048576	20	5140
2026-01-25 08:30:57.70	358.53	12.30	-30.0	-33.1	13.2	1.44e-05	0	43	102	1048576	20	5143
2026-01-25 08:30:58.69	358.40	12.24	-30.1	-33.4	13.0	3.73e-05	0	44	102	1048576	20	5257
2026-01-25 08:30:59.70	358.27	12.17	-30.0	-33.2	13.0	3.89e-05	0	43	102	1048576	20	5203
2026-01-25 08:31:00.71	358.14	12.10	-30.0	-33.1	13.2	2.97e-05	0	43	102	1048576	20	5155
2026-01-25 08:31:01.71	358.01	12.03	-30.0	-33.1	13.1	3.05e-05	0	43	102	1048576	20	5159
2026-01-25 08:31:02.72	357.87	11.96	-30.0	-33.2	13.1	3.73e-05	0	44	102	1048576	20	5204
2026-01-25 08:31:03.73	357.74	11.89	-30.1	-33.4	13.0	3.58e-05	0	43	102	1048576	20	5244
2026-01-25 08:31:04.73	357.62	11.82	-30.1	-33.3	13.0	5.41e-05	0	43	102	1048576	20	5242
2026-01-25 08:31:05.74	357.49	11.75	-30.0	-33.2	13.0	4.04e-05	0	43	102	1048576	20	5192
2026-01-25 08:31:06.74	357.36	11.68	-30.1	-33.3	13.0	3.20e-05	0	44	102	1048576	20	5205
2026-01-25 08:31:07.74	357.23	11.61	-30.1	-33.4	12.9	3.58e-05	0	44	102	1048576	20	5251
2026-01-25 08:31:08.75	357.10	11.54	-30.1	-33.4	12.9	5.72e-05	0	43	102	1048576	20	5264
2026-01-25 08:31:09.76	356.98	11.48	-30.0	-33.3	13.0	3.66e-05	0	43	102	1048576	20	5216
2026-01-25 08:31:10.75	356.85	11.41	-30.1	-33.4	12.9	4.04e-05	0	44	102	1048576	20	5271
2026-01-25 08:31:11.75	356.73	11.34	-30.1	-33.5	12.8	6.17e-05	0	44	102	1048576	20	5298
2026-01-25 08:31:12.76	356.60	11.27	-30.2	-33.7	12.7	6.25e-05	0	44	102	1048576	20	5387
2026-01-25 08:31:13.76	356.48	11.20	-30.3	-33.9	12.5	8.08e-05	0	44	102	1048576	20	5477
2026-01-25 08:31:14.77	356.36	11.13	-30.3	-34.0	12.5	1.23e-04	0	44	102	1048576	20	5529
2026-01-25 08:31:15.77	356.23	11.07	-30.3	-34.1	12.4	1.31e-04	0	43	102	1048576	20	5577
2026-01-25 08:31:16.77	356.11	11.00	-30.3	-34.2	12.4	1.58e-04	0	44	102	1048576	20	5591
2026-01-25 08:31:17.77	355.99	10.93	-30.3	-34.2	12.4	1.52e-04	0	43	102	1048576	20	5583
2026-01-25 08:31:18.78	355.87	10.86	-30.4	-34.2	12.3	2.14e-04	0	44	102	1048576	20	5619
2026-01-25 08:31:19.78	355.75	10.79	-30.4	-34.3	12.2	2.34e-04	0	44	102	1048576	20	5637
2026-01-25 08:31:20.79	355.63	10.72	-30.3	-34.2	12.3	1.99e-04	0	44	102	1048576	20	5599
2026-01-25 08:31:21.79	355.51	10.66	-30.3	-34.1	12.4	1.85e-04	0	43	102	1048576	20	5561
2026-01-25 08:31:22.79	355.39	10.59	-30.3	-34.1	12.3	1.74e-04	0	43	102	1048576	20	5571
2026-01-25 08:31:23.80	355.28	10.52	-30.3	-34.0	12.4	1.69e-04	0	44	102	1048576	20	5528
2026-01-25 08:31:24.79	355.16	10.45	-30.3	-34.0	12.4	1.38e-04	0	43	102	1048576	20	5497
2026-01-25 08:31:25.80	355.04	10.39	-30.3	-34.0	12.4	1.40e-04	0	44	102	1048576	20	5510
2026-01-25 08:31:26.80	354.93	10.32	-30.3	-34.0	12.4	1.34e-04	0	44	102	1048576	20	5529
2026-01-25 08:31:27.80	354.81	10.25	-30.4	-34.2	12.3	1.69e-04	0	44	102	1048576	20	5605
2026-01-25 08:31:28.80	354.70	10.18	-30.4	-34.3	12.3	1.98e-04	0	44	102	1048576	20	5631
2026-01-25 08:31:29.80	354.58	10.12	-30.4	-34.4	12.1	2.04e-04	0	43	102	1048576	20	5697
2026-01-25 08:31:30.81	354.47	10.05	-30.4	-34.4	12.1	2.84e-04	0	43	102	1048576	20	5677
2026-01-25 08:31:31.81	354.35	9.98	-30.5	-34.1	12.0	2.85e-04	0	43	102	1048576	21	5481
2026-01-25 08:31:32.81	354.24	9.92	-30.7	-34.7	11.6	5.58e-04	0	44	102	1048576	21	5711
2026-01-25 08:31:33.82	354.13	9.85	-30.6	-34.5	11.6	7.12e-04	0	44	102	1048576	21	5634
2026-01-25 08:31:34.82	354.02	9.78	-30.8	-35.0	11.4	7.40e-04	0	43	102	1048576	21	5856
2026-01-25 08:31:35.82	353.91	9.71	-30.7	-34.9	11.4	1.08e-03	0	44	102	1048576	21	5807
2026-01-25 08:31:36.82	353.80	9.65	-30.8	-35.0	11.3	1.05e-03	0	43	102	1048576	21	5889
2026-01-25 08:31:37.83	353.69	9.58	-30.9	-35.5	10.8	1.67e-03	0	44	102	1048576	21	6117
2026-01-25 08:31:38.83	353.58	9.51	-30.9	-35.6	10.9	2.25e-03	0	44	102	1048576	21	6137
2026-01-25 08:31:39.84	353.47	9.45	-30.9	-35.6	10.8	2.40e-03	0	44	102	1048576	21	6186
2026-01-25 08:31:40.85	353.36	9.38	-31.0	-35.4	10.6	2.82e-03	0	43	102	1048576	22	5933
2026-01-25 08:31:41.85	353.25	9.31	-31.2	-35.9	10.2	4.37e-03	0	44	102	1048576	22	6216
2026-01-25 08:31:42.85	353.14	9.25	-31.1	-35.7	10.4	5.58e-03	0	44	102	1048576	22	6118
2026-01-25 08:31:43.86	353.03	9.18	-31.0	-35.3	10.6	4.26e-03	0	44	102	1048576	22	5894
2026-01-25 08:31:44.86	352.93	9.11	-31.0	-35.3	10.7	3.37e-03	0	44	102	1048576	22	5893
2026-01-25 08:31:45.86	352.82	9.05	-31.1	-35.5	10.5	3.58e-03	0	44	102	1048576	22	6007
2026-01-25 08:31:46.87	352.71	8.98	-31.0	-35.2	10.7	3.47e-03	0	43	102	1048576	22	5886
2026-01-25 08:31:47.87	352.61	8.92	-30.9	-35.0	10.8	2.83e-03	0	44	102	1048576	22	5778
2026-01-25 08:31:48.87	352.51	8.85	-30.9	-34.9	11.0	2.26e-03	0	44	102	1048576	22	5721
2026-01-25 08:31:49.88	352.40	8.78	-31.0	-35.2	10.6	2.72e-03	0	43	102	1048576	22	5885
2026-01-25 08:31:50.88	352.30	8.72	-30.9	-35.2	10.8	2.90e-03	0	43	102	1048576	22	5857
2026-01-25 08:31:51.89	352.19	8.65	-30.9	-35.1	10.8	2.65e-03	0	44	102	1048576	22	5805
2026-01-25 08:31:52.89	352.09	8.59	-30.9	-35.0	10.8	2.61e-03	0	44	102	1048576	22	5785
2026-01-25 08:31:53.90	351.99	8.52	-31.0	-35.3	10.6	2.99e-03	0	44	102	1048576	22	5933
2026-01-25 08:31:54.90	351.89	8.46	-30.9	-35.0	10.8	3.21e-03	0	43	102	1048576	22	5794
2026-01-25 08:31:55.91	351.78	8.39	-30.9	-34.9	10.9	2.18e-03	0	44	102	1048576	22	5743
2026-01-25 08:31:56.91	351.68	8.33	-30.8	-34.7	11.0	1.91e-03	0	44	102	1048576	22	5658
2026-01-25 08:31:57.92	351.58	8.26	-30.8	-34.6	11.1	1.85e-03	0	44	102	1048576	22	5615
2026-01-25 08:31:58.92	351.48	8.19	-30.8	-34.7	11.0	1.88e-03	0	44	102	1048576	22	5663
2026-01-25 08:31:59.93	351.38	8.13	-30.8	-34.9	10.8	2.23e-03	0	44	102	1048576	22	5724
2026-01-25 08:32:00.92	351.29	8.07	-31.0	-35.4	10.4	3.00e-03	0	44	102	1048576	22	5987
2026-01-25 08:32:01.92	351.19	8.00	-30.8	-34.9	10.8	3.72e-03	0	44	102	1048576	22	5738
2026-01-25 08:32:02.93	351.09	7.94	-30.8	-34.7	11.0	2.10e-03	0	44	102	1048576	22	5663
2026-01-25 08:32:03.93	350.99	7.87	-30.7	-34.6	11.0	1.91e-03	0	44	102	1048576	22	5627
2026-01-25 08:32:04.94	350.89	7.81	-30.8	-34.8	10.9	1.89e-03	0	44	102	1048576	22	5684
2026-01-25 08:32:05.94	350.80	7.74	-30.8	-34.8	10.9	2.40e-03	0	44	102	1048576	22	5711
2026-01-25 08:32:06.94	350.70	7.68	-30.8	-34.9	10.8	2.25e-03	0	43	102	1048576	22	5766
2026-01-25 08:32:07.95	350.60	7.61	-30.9	-35.0	10.7	2.47e-03	0	44	102	1048576	22	5788
2026-01-25 08:32:08.95	350.51	7.55	-30.8	-34.9	10.8	2.70e-03	0	44	102	1048576	22	5780
2026-01-25 08:32:09.96	350.41	7.48	-30.8	-35.0	10.6	3.03e-03	0	44	102	1048576	22	5802
2026-01-25 08:32:10.96	350.32	7.42	-30.9	-35.3	10.4	4.13e-03	0	44	102	1048576	22	5977
2026-01-25 08:32:11.96	350.23	7.36	-30.9	-35.1	10.5	4.03e-03	0	44	102	1048576	22	5852
2026-01-25 08:32:12.96	350.13	7.29	-30.9	-35.1	10.6	3.73e-03	0	44	102	1048576	22	5856
2026-01-25 08:32:13.97	350.04	7.23	-30.9	-35.1	10.5	4.07e-03	0	44	102	1048576	22	5857
2026-01-25 08:32:14.97	349.95	7.16	-30.9	-35.2	10.5	3.76e-03	0	44	102	1048576	22	5909
2026-01-25 08:32:15.97	349.85	7.10	-30.9	-35.4	10.3	4.42e-03	0	44	102	1048576	22	5996
2026-01-25 08:32:16.98	349.76	7.04	-33.0	-45.1	3.8	1.28e+00	0	44	104	1048576	26	14516
2026-01-25 08:32:17.97	349.67	6.97	-33.4	-47.7	3.8	1.49e+00	0	44	104	1048576	26	18667
2026-01-25 08:32:18.98	349.58	6.91	-33.7	-47.9	3.8	1.49e+00	0	44	104	1048576	27	18547

#Closed at: 2026-01-25 08:32:19
#Recorded file [1 MB]: D:/data/31010_260125_112314.dat