passes_logs/2026/01/25/R2M6_AANII_01/R2M6_AANII_01__20260125_121751_FENGYUN_3D_rec.log

#Pass ID: 20260125_121751_FENGYUN 3D
#Satellite: FENGYUN 3D
#Configuration: FENGYUN 3D
#almurnet v.1.7.20240730
#Start time: 2026-01-25 12:17:51

#Version: 2.2.20231116
#Station: R2M6_AANII_01
#Location: 30.233357 lon 59.946436 lat
#TLE: 1 43010U 17072A   26024.51794477  .00000040  00000+0  40682-4 0  9990
#TLE: 2 43010  98.9961 356.4820 0002494  91.2631 268.8830 14.19699550424601

#Time	Az	El	Level	Level2	SNR	BER	BlckErr	Temp	State	Recorded	gain1	gain2
2026-01-25 12:17:51.47	157.37	6.96	-29.0	-32.4	5.4	7.87e-01	0	42	0	0	18	5316
2026-01-25 12:17:52.48	157.37	7.04	-29.8	-34.4	5.1	8.00e-01	0	42	104	0	19	6080
2026-01-25 12:17:53.48	157.37	7.12	-29.7	-33.7	9.0	3.45e-02	0	42	0	0	19	5735
2026-01-25 12:17:54.49	157.37	7.20	-29.6	-33.4	9.2	2.33e-02	0	42	102	1048576	19	5591
2026-01-25 12:17:55.50	157.37	7.28	-29.6	-33.4	9.2	3.06e-02	0	42	102	1048576	19	5562
2026-01-25 12:17:56.50	157.37	7.35	-29.2	-32.3	10.0	1.20e-02	0	42	102	1048576	19	5115
2026-01-25 12:17:57.50	157.37	7.43	-29.0	-31.5	10.6	6.47e-03	0	42	102	1048576	19	4824
2026-01-25 12:17:58.51	157.37	7.51	-28.7	-31.2	11.2	2.28e-03	0	42	102	1048576	18	4783
2026-01-25 12:17:59.52	157.37	7.59	-28.5	-30.7	11.5	1.34e-03	0	42	102	1048576	18	4614
2026-01-25 12:18:00.51	157.37	7.67	-28.3	-30.1	12.0	5.35e-04	0	42	102	1048576	18	4419
2026-01-25 12:18:01.52	157.37	7.75	-28.2	-30.5	12.0	4.75e-04	0	42	102	1048576	17	4647
2026-01-25 12:18:02.52	157.37	7.83	-28.3	-30.6	12.0	6.21e-04	0	42	102	1048576	17	4698
2026-01-25 12:18:03.52	157.38	7.91	-28.2	-30.3	12.1	4.24e-04	0	42	102	1048576	17	4589
2026-01-25 12:18:04.53	157.38	7.99	-27.8	-29.3	12.7	1.43e-04	0	42	102	1048576	17	4303
2026-01-25 12:18:05.53	157.38	8.08	-27.5	-29.2	13.2	3.89e-05	0	42	102	1048576	16	4352
2026-01-25 12:18:06.53	157.38	8.16	-27.3	-28.6	13.5	1.83e-05	0	42	102	1048576	16	4197
2026-01-25 12:18:07.54	157.38	8.24	-26.9	-28.3	13.8	1.14e-05	0	42	102	1048576	15	4214
2026-01-25 12:18:08.55	157.38	8.32	-26.8	-28.0	14.0	5.70e-06	0	42	102	1048576	15	4139
2026-01-25 12:18:09.54	157.38	8.40	-26.7	-28.4	14.1	3.40e-06	0	42	102	1048576	14	4349
2026-01-25 12:18:10.55	157.38	8.48	-26.8	-28.4	14.1	2.20e-06	0	42	102	1048576	14	4346
2026-01-25 12:18:11.55	157.38	8.57	-26.8	-28.5	14.0	3.40e-06	0	42	102	1048576	14	4372
2026-01-25 12:18:12.56	157.38	8.65	-26.7	-28.4	14.1	5.70e-06	0	42	102	1048576	14	4339
2026-01-25 12:18:13.57	157.38	8.73	-26.8	-28.5	14.0	1.10e-06	0	42	102	1048576	14	4361
2026-01-25 12:18:14.56	157.38	8.82	-26.8	-28.5	14.0	3.40e-06	0	42	102	1048576	14	4388
2026-01-25 12:18:15.56	157.38	8.90	-26.7	-28.1	14.3	0.00e+00	0	42	102	1048576	14	4266
2026-01-25 12:18:16.56	157.38	8.98	-26.6	-28.0	14.4	1.10e-06	0	42	102	1048576	14	4219
2026-01-25 12:18:17.57	157.38	9.07	-26.7	-28.1	14.3	1.10e-06	0	42	102	1048576	14	4246
2026-01-25 12:18:18.58	157.38	9.15	-26.8	-28.4	14.2	3.40e-06	0	42	102	1048576	14	4307
2026-01-25 12:18:19.58	157.38	9.24	-26.7	-28.1	14.4	1.10e-06	0	43	102	1048576	14	4232
2026-01-25 12:18:20.58	157.38	9.32	-26.8	-28.4	14.2	2.20e-06	0	42	102	1048576	14	4303
2026-01-25 12:18:21.58	157.38	9.41	-26.8	-28.3	14.3	1.10e-06	0	43	102	1048576	14	4281
2026-01-25 12:18:22.59	157.38	9.50	-26.6	-27.8	14.6	1.10e-06	0	42	102	1048576	14	4149
2026-01-25 12:18:23.59	157.38	9.58	-26.5	-27.6	14.7	0.00e+00	0	42	102	1048576	14	4101
2026-01-25 12:18:24.60	157.38	9.67	-26.5	-27.6	14.7	0.00e+00	0	43	102	1048576	14	4103
2026-01-25 12:18:25.60	157.38	9.75	-26.4	-27.5	14.8	1.10e-06	0	43	102	1048576	14	4062
2026-01-25 12:18:26.61	157.38	9.84	-26.4	-27.4	14.8	0.00e+00	0	43	102	1048576	14	4029
2026-01-25 12:18:27.62	157.38	9.93	-26.3	-27.3	14.9	0.00e+00	0	43	102	1048576	14	4015
2026-01-25 12:18:28.62	157.38	10.02	-26.5	-27.6	14.7	2.20e-06	0	43	102	1048576	14	4087
2026-01-25 12:18:29.63	157.38	10.11	-26.4	-27.4	14.8	0.00e+00	0	43	102	1048576	14	4046
2026-01-25 12:18:30.63	157.38	10.19	-26.3	-27.2	14.9	0.00e+00	0	43	102	1048576	14	3997
2026-01-25 12:18:31.63	157.38	10.28	-26.3	-27.7	14.9	1.10e-06	0	43	102	1048576	13	4238
2026-01-25 12:18:32.63	157.38	10.37	-26.2	-27.6	15.0	0.00e+00	0	43	102	1048576	13	4208
2026-01-25 12:18:33.63	157.38	10.46	-26.3	-27.6	15.0	0.00e+00	0	43	102	1048576	13	4215
2026-01-25 12:18:34.63	157.38	10.55	-26.3	-27.7	15.0	0.00e+00	0	43	102	1048576	13	4224
2026-01-25 12:18:35.63	157.38	10.64	-26.3	-27.6	15.0	0.00e+00	0	43	102	1048576	13	4211
2026-01-25 12:18:36.64	157.38	10.73	-26.2	-27.4	15.1	0.00e+00	0	43	102	1048576	13	4162
2026-01-25 12:18:37.64	157.38	10.82	-26.2	-27.4	15.1	0.00e+00	0	43	102	1048576	13	4156
2026-01-25 12:18:38.65	157.38	10.91	-26.2	-27.4	15.1	0.00e+00	0	43	102	1048576	13	4159
2026-01-25 12:18:39.65	157.38	11.00	-26.1	-27.3	15.2	0.00e+00	0	43	102	1048576	13	4127
2026-01-25 12:18:40.65	157.38	11.09	-26.3	-27.6	15.0	0.00e+00	0	43	102	1048576	13	4203
2026-01-25 12:18:41.66	157.38	11.18	-26.2	-27.5	15.1	0.00e+00	0	43	102	1048576	13	4177
2026-01-25 12:18:42.66	157.38	11.28	-26.1	-27.3	15.2	0.00e+00	0	43	102	1048576	13	4113
2026-01-25 12:18:43.66	157.38	11.37	-26.1	-27.3	15.2	0.00e+00	0	43	102	1048576	13	4119
2026-01-25 12:18:44.67	157.38	11.46	-26.2	-27.4	15.2	0.00e+00	0	43	102	1048576	13	4148
2026-01-25 12:18:45.67	157.38	11.56	-26.1	-27.3	15.2	0.00e+00	0	43	102	1048576	13	4111
2026-01-25 12:18:46.68	157.38	11.65	-26.1	-27.2	15.3	0.00e+00	0	43	102	1048576	13	4103
2026-01-25 12:18:47.68	157.38	11.74	-26.2	-27.6	15.1	1.10e-06	0	43	102	1048576	13	4196
2026-01-25 12:18:48.69	157.38	11.84	-26.2	-27.6	15.1	0.00e+00	0	43	102	1048576	13	4193
2026-01-25 12:18:49.69	157.38	11.93	-26.2	-27.4	15.2	0.00e+00	0	43	102	1048576	13	4155
2026-01-25 12:18:50.69	157.38	12.03	-26.1	-27.2	15.3	0.00e+00	0	43	102	1048576	13	4103
2026-01-25 12:18:51.69	157.38	12.12	-26.1	-27.2	15.3	0.00e+00	0	43	102	1048576	13	4101
2026-01-25 12:18:52.69	157.38	12.22	-26.1	-27.2	15.3	0.00e+00	0	43	102	1048576	13	4101
2026-01-25 12:18:53.70	157.38	12.32	-26.2	-27.4	15.2	0.00e+00	0	43	102	1048576	13	4154
2026-01-25 12:18:54.69	157.38	12.41	-26.1	-27.2	15.3	0.00e+00	0	43	102	1048576	13	4109
2026-01-25 12:18:55.70	157.38	12.51	-26.0	-27.0	15.4	0.00e+00	0	43	102	1048576	13	4059
2026-01-25 12:18:56.71	157.38	12.61	-26.1	-27.2	15.3	0.00e+00	0	43	102	1048576	13	4112
2026-01-25 12:18:57.72	157.38	12.70	-26.0	-27.0	15.4	0.00e+00	0	43	102	1048576	13	4065
2026-01-25 12:18:58.72	157.38	12.80	-26.0	-27.1	15.4	0.00e+00	0	43	102	1048576	13	4076
2026-01-25 12:18:59.72	157.38	12.90	-26.0	-27.1	15.4	0.00e+00	0	43	102	1048576	13	4077
2026-01-25 12:19:00.73	157.38	13.00	-26.0	-27.1	15.4	0.00e+00	0	43	102	1048576	13	4076
2026-01-25 12:19:01.73	157.38	13.10	-26.1	-27.3	15.3	0.00e+00	0	43	102	1048576	13	4127
2026-01-25 12:19:02.73	157.38	13.20	-26.1	-27.3	15.3	0.00e+00	0	43	102	1048576	13	4136
2026-01-25 12:19:03.73	157.38	13.30	-26.1	-27.2	15.4	0.00e+00	0	43	102	1048576	13	4108
2026-01-25 12:19:04.74	157.37	13.40	-26.1	-27.2	15.3	0.00e+00	0	43	102	1048576	13	4115
2026-01-25 12:19:05.74	157.37	13.50	-26.1	-27.2	15.4	0.00e+00	0	43	102	1048576	13	4109
2026-01-25 12:19:06.75	157.37	13.60	-26.2	-27.5	15.2	0.00e+00	0	43	102	1048576	13	4191
2026-01-25 12:19:07.75	157.37	13.70	-26.2	-27.5	15.2	1.10e-06	0	43	102	1048576	13	4177
2026-01-25 12:19:08.75	157.37	13.81	-26.0	-27.0	15.5	0.00e+00	0	43	102	1048576	13	4055
2026-01-25 12:19:09.75	157.37	13.91	-25.9	-26.8	15.7	0.00e+00	0	43	102	1048576	13	3981
2026-01-25 12:19:10.75	157.37	14.01	-26.0	-26.9	15.6	0.00e+00	0	43	102	1048576	13	4023
2026-01-25 12:19:11.75	157.37	14.11	-25.9	-26.8	15.7	0.00e+00	0	43	102	1048576	13	3995
2026-01-25 12:19:12.76	157.37	14.22	-26.0	-27.0	15.6	2.20e-06	0	44	102	1048576	13	4035
2026-01-25 12:19:13.77	157.37	14.32	-25.8	-26.7	15.8	0.00e+00	0	44	102	1048576	13	3950
2026-01-25 12:19:14.78	157.37	14.43	-25.7	-26.8	15.9	0.00e+00	0	43	102	1048576	12	4098
2026-01-25 12:19:15.78	157.37	14.54	-25.8	-27.0	15.9	0.00e+00	0	43	102	1048576	12	4137
2026-01-25 12:19:16.79	157.37	14.64	-25.6	-26.6	16.0	0.00e+00	0	43	102	1048576	12	4050
2026-01-25 12:19:17.79	157.36	14.75	-25.4	-26.2	16.3	0.00e+00	0	43	102	1048576	12	3931
2026-01-25 12:19:18.80	157.36	14.86	-25.3	-25.9	16.4	2.20e-06	0	43	102	1048576	12	3863
2026-01-25 12:19:19.81	157.36	14.96	-25.3	-26.5	16.5	0.00e+00	0	43	102	1048576	11	4120
2026-01-25 12:19:20.81	157.36	15.07	-25.3	-26.4	16.5	0.00e+00	0	43	102	1048576	11	4086
2026-01-25 12:19:21.81	157.36	15.18	-25.3	-26.3	16.6	0.00e+00	0	44	102	1048576	11	4071
2026-01-25 12:19:22.81	157.36	15.29	-25.3	-26.4	16.6	0.00e+00	0	43	102	1048576	11	4077
2026-01-25 12:19:23.81	157.36	15.40	-25.2	-26.1	16.7	0.00e+00	0	44	102	1048576	11	4016
2026-01-25 12:19:24.81	157.36	15.51	-25.1	-26.0	16.8	5.70e-06	0	43	102	1048576	11	3994
2026-01-25 12:19:25.81	157.36	15.61	-25.2	-26.1	16.7	0.00e+00	0	43	102	1048576	11	4018
2026-01-25 12:19:26.82	157.35	15.73	-25.0	-25.9	16.9	0.00e+00	0	43	102	1048576	11	3963
2026-01-25 12:19:27.83	157.35	15.84	-25.0	-25.7	16.9	0.00e+00	0	43	102	1048576	11	3928
2026-01-25 12:19:28.83	157.35	15.95	-25.0	-25.9	16.9	0.00e+00	0	43	102	1048576	11	3959
2026-01-25 12:19:29.83	157.35	16.06	-24.9	-25.6	17.0	0.00e+00	0	44	102	1048576	11	3904
2026-01-25 12:19:30.84	157.35	16.18	-24.9	-25.5	17.0	0.00e+00	0	43	102	1048576	11	3877
2026-01-25 12:19:31.84	157.35	16.29	-24.9	-25.6	17.0	0.00e+00	0	43	102	1048576	11	3893
2026-01-25 12:19:32.85	157.35	16.40	-24.8	-25.4	17.1	0.00e+00	0	43	102	1048576	11	3849
2026-01-25 12:19:33.85	157.34	16.52	-24.8	-25.4	17.1	0.00e+00	0	43	102	1048576	11	3854
2026-01-25 12:19:34.86	157.34	16.63	-24.9	-25.5	17.1	0.00e+00	0	44	102	1048576	11	3864
2026-01-25 12:19:35.87	157.34	16.75	-24.8	-25.3	17.2	0.00e+00	0	44	102	1048576	11	3817
2026-01-25 12:19:36.87	157.34	16.86	-24.8	-25.7	17.2	2.20e-06	0	43	102	1048576	10	4030
2026-01-25 12:19:37.88	157.34	16.98	-24.8	-25.7	17.3	0.00e+00	0	44	102	1048576	10	4029
2026-01-25 12:19:38.88	157.34	17.10	-24.9	-26.0	17.1	0.00e+00	0	44	102	1048576	10	4095
2026-01-25 12:19:39.88	157.34	17.22	-24.9	-26.0	17.1	0.00e+00	0	43	102	1048576	10	4096
2026-01-25 12:19:40.88	157.33	17.33	-24.8	-25.9	17.2	0.00e+00	0	44	102	1048576	10	4059
2026-01-25 12:19:41.88	157.33	17.45	-24.8	-25.8	17.2	0.00e+00	0	44	102	1048576	10	4050
2026-01-25 12:19:42.89	157.33	17.57	-24.8	-25.8	17.2	0.00e+00	0	43	102	1048576	10	4039
2026-01-25 12:19:43.89	157.33	17.69	-24.8	-25.9	17.1	0.00e+00	0	44	102	1048576	10	4084
2026-01-25 12:19:44.89	157.33	17.81	-24.8	-25.8	17.2	0.00e+00	0	43	102	1048576	10	4059
2026-01-25 12:19:45.90	157.32	17.93	-24.8	-25.9	17.2	0.00e+00	0	43	102	1048576	10	4062
2026-01-25 12:19:46.91	157.32	18.06	-25.0	-26.3	17.0	0.00e+00	0	44	102	1048576	10	4170
2026-01-25 12:19:47.91	157.32	18.18	-24.8	-25.8	17.2	0.00e+00	0	44	102	1048576	10	4055
2026-01-25 12:19:48.91	157.32	18.30	-24.7	-25.6	17.3	0.00e+00	0	44	102	1048576	10	4007
2026-01-25 12:19:49.91	157.32	18.42	-24.7	-25.6	17.4	0.00e+00	0	43	102	1048576	10	3987
2026-01-25 12:19:50.92	157.31	18.55	-24.6	-25.4	17.4	0.00e+00	0	44	102	1048576	10	3954
2026-01-25 12:19:51.92	157.31	18.67	-24.7	-25.6	17.4	0.00e+00	0	44	102	1048576	10	3998
2026-01-25 12:19:52.92	157.31	18.80	-24.6	-25.5	17.5	0.00e+00	0	43	102	1048576	10	3964
2026-01-25 12:19:53.93	157.31	18.93	-24.7	-25.7	17.3	0.00e+00	0	43	102	1048576	10	4015
2026-01-25 12:19:54.93	157.31	19.05	-24.6	-25.4	17.4	0.00e+00	0	44	102	1048576	10	3958
2026-01-25 12:19:55.94	157.30	19.18	-24.5	-25.1	17.6	0.00e+00	0	44	102	1048576	10	3883
2026-01-25 12:19:56.94	157.30	19.31	-24.4	-25.0	17.7	0.00e+00	0	44	102	1048576	10	3847
2026-01-25 12:19:57.94	157.30	19.44	-24.4	-24.9	17.8	0.00e+00	0	44	102	1048576	10	3824
2026-01-25 12:19:58.95	157.30	19.57	-24.4	-25.0	17.7	0.00e+00	0	44	102	1048576	10	3844
2026-01-25 12:19:59.95	157.29	19.70	-24.4	-24.9	17.8	0.00e+00	0	44	102	1048576	10	3828
2026-01-25 12:20:00.94	157.29	19.82	-24.4	-24.9	17.8	0.00e+00	0	44	102	1048576	10	3823
2026-01-25 12:20:01.95	157.29	19.96	-24.3	-24.7	17.8	0.00e+00	0	44	102	1048576	10	3789
2026-01-25 12:20:02.96	157.29	20.09	-24.3	-24.9	17.8	0.00e+00	0	44	102	1048576	10	3821
2026-01-25 12:20:03.96	157.28	20.22	-24.5	-25.3	17.6	0.00e+00	0	44	102	1048576	10	3917
2026-01-25 12:20:04.97	157.28	20.36	-24.3	-24.8	17.8	0.00e+00	0	44	102	1048576	10	3810
2026-01-25 12:20:05.97	157.28	20.49	-24.2	-25.1	17.9	0.00e+00	0	44	102	1048576	9	3976
2026-01-25 12:20:06.98	157.27	20.63	-24.2	-25.1	17.9	0.00e+00	0	44	102	1048576	9	3981
2026-01-25 12:20:07.99	157.27	20.76	-24.2	-25.0	18.0	0.00e+00	0	44	102	1048576	9	3959
2026-01-25 12:20:08.99	157.27	20.90	-24.1	-24.9	18.0	0.00e+00	0	44	102	1048576	9	3944
2026-01-25 12:20:10.00	157.27	21.04	-24.2	-25.1	18.0	0.00e+00	0	44	102	1048576	9	3971
2026-01-25 12:20:11.01	157.26	21.18	-24.1	-24.9	18.0	0.00e+00	0	44	102	1048576	9	3936
2026-01-25 12:20:12.01	157.26	21.32	-24.0	-24.7	18.2	0.00e+00	0	44	102	1048576	9	3895
2026-01-25 12:20:13.01	157.26	21.45	-24.0	-24.7	18.2	0.00e+00	0	44	102	1048576	9	3895
2026-01-25 12:20:14.01	157.25	21.59	-24.0	-24.6	18.2	0.00e+00	0	44	102	1048576	9	3874
2026-01-25 12:20:15.02	157.25	21.74	-24.2	-25.0	18.0	0.00e+00	0	44	102	1048576	9	3963
2026-01-25 12:20:16.02	157.25	21.88	-23.9	-24.5	18.3	0.00e+00	0	44	102	1048576	9	3846
2026-01-25 12:20:17.03	157.24	22.02	-23.8	-24.3	18.4	0.00e+00	0	44	102	1048576	9	3797
2026-01-25 12:20:18.03	157.24	22.16	-23.9	-24.4	18.3	0.00e+00	0	44	102	1048576	9	3828
2026-01-25 12:20:19.03	157.24	22.31	-23.8	-24.3	18.4	0.00e+00	0	44	102	1048576	9	3792
2026-01-25 12:20:20.04	157.23	22.45	-23.9	-24.4	18.4	0.00e+00	0	44	102	1048576	9	3806
2026-01-25 12:20:21.04	157.23	22.60	-24.0	-24.7	18.2	0.00e+00	0	44	102	1048576	9	3890
2026-01-25 12:20:22.04	157.23	22.75	-24.0	-24.7	18.2	0.00e+00	0	44	102	1048576	9	3886
2026-01-25 12:20:23.05	157.22	22.89	-23.9	-24.5	18.3	0.00e+00	0	44	102	1048576	9	3842
2026-01-25 12:20:24.05	157.22	23.04	-23.9	-24.4	18.4	0.00e+00	0	44	102	1048576	9	3804
2026-01-25 12:20:25.05	157.21	23.19	-23.9	-24.5	18.4	0.00e+00	0	44	102	1048576	9	3826
2026-01-25 12:20:26.06	157.21	23.34	-24.0	-24.7	18.3	0.00e+00	0	44	102	1048576	9	3877
2026-01-25 12:20:27.06	157.21	23.49	-23.9	-24.4	18.4	0.00e+00	0	44	102	1048576	9	3821
2026-01-25 12:20:28.06	157.20	23.65	-24.1	-24.9	18.2	0.00e+00	0	44	102	1048576	9	3931
2026-01-25 12:20:29.06	157.20	23.80	-23.8	-24.6	18.6	0.00e+00	0	44	102	1048576	8	3964
2026-01-25 12:20:30.06	157.19	23.95	-23.5	-24.1	18.8	0.00e+00	0	44	102	1048576	8	3848
2026-01-25 12:20:31.07	157.19	24.11	-23.7	-24.5	18.7	0.00e+00	0	44	102	1048576	8	3930
2026-01-25 12:20:32.07	157.18	24.26	-23.5	-24.0	18.9	0.00e+00	0	44	102	1048576	8	3823
2026-01-25 12:20:33.07	157.18	24.42	-23.4	-23.8	19.0	0.00e+00	0	44	102	1048576	8	3773
2026-01-25 12:20:34.08	157.18	24.58	-23.4	-23.9	19.0	0.00e+00	0	44	102	1048576	8	3793
2026-01-25 12:20:35.08	157.17	24.73	-23.4	-23.9	19.0	0.00e+00	0	44	102	1048576	8	3793
2026-01-25 12:20:36.08	157.17	24.89	-23.4	-23.7	19.1	0.00e+00	0	44	102	1048576	8	3764
2026-01-25 12:20:37.09	157.16	25.05	-23.4	-23.9	19.0	0.00e+00	0	44	102	1048576	8	3795
2026-01-25 12:20:38.10	157.16	25.22	-23.6	-24.3	18.8	0.00e+00	0	44	102	1048576	8	3884
2026-01-25 12:20:39.10	157.15	25.38	-23.5	-24.0	18.9	0.00e+00	0	44	102	1048576	8	3818
2026-01-25 12:20:40.11	157.15	25.54	-23.4	-23.9	19.0	0.00e+00	0	44	102	1048576	8	3798
2026-01-25 12:20:41.11	157.14	25.71	-23.4	-23.8	19.0	0.00e+00	0	44	102	1048576	8	3778
2026-01-25 12:20:42.12	157.14	25.87	-23.4	-23.8	19.0	0.00e+00	0	44	102	1048576	8	3789
2026-01-25 12:20:43.12	157.13	26.04	-23.3	-23.7	19.1	0.00e+00	0	44	102	1048576	8	3746
2026-01-25 12:20:44.12	157.12	26.21	-23.4	-23.7	19.1	0.00e+00	0	44	102	1048576	8	3763
2026-01-25 12:20:45.12	157.12	26.37	-23.4	-23.9	19.0	0.00e+00	0	44	102	1048576	8	3795
2026-01-25 12:20:46.13	157.11	26.55	-23.2	-23.9	19.2	0.00e+00	0	44	102	1048576	7	3904
2026-01-25 12:20:47.14	157.11	26.72	-23.2	-23.8	19.3	0.00e+00	0	44	102	1048576	7	3882
2026-01-25 12:20:48.14	157.10	26.89	-23.2	-23.9	19.2	0.00e+00	0	44	102	1048576	7	3914
2026-01-25 12:20:49.13	157.10	27.06	-23.4	-24.3	19.1	0.00e+00	0	44	102	1048576	7	4001
2026-01-25 12:20:50.14	157.09	27.23	-23.4	-24.4	19.0	0.00e+00	0	44	102	1048576	7	4020
2026-01-25 12:20:51.14	157.08	27.41	-23.4	-24.3	19.0	0.00e+00	0	44	102	1048576	7	3994
2026-01-25 12:20:52.15	157.08	27.59	-23.4	-24.4	19.0	0.00e+00	0	44	102	1048576	7	4020
2026-01-25 12:20:53.16	157.07	27.76	-23.5	-24.6	18.9	0.00e+00	0	44	102	1048576	7	4073
2026-01-25 12:20:54.16	157.07	27.94	-23.5	-24.5	19.0	0.00e+00	0	44	102	1048576	7	4043
2026-01-25 12:20:55.16	157.06	28.12	-23.5	-24.5	18.9	0.00e+00	0	44	102	1048576	7	4057
2026-01-25 12:20:56.17	157.05	28.30	-23.5	-24.6	18.9	0.00e+00	0	44	102	1048576	7	4076
2026-01-25 12:20:57.18	157.05	28.49	-23.8	-25.2	18.6	0.00e+00	0	44	102	1048576	7	4219
2026-01-25 12:20:58.18	157.04	28.67	-23.5	-24.6	18.9	0.00e+00	0	44	102	1048576	7	4074
2026-01-25 12:20:59.19	157.03	28.86	-23.4	-24.3	19.0	0.00e+00	0	44	102	1048576	7	4008
2026-01-25 12:21:00.19	157.02	29.04	-23.4	-24.4	19.0	0.00e+00	0	44	102	1048576	7	4017
2026-01-25 12:21:01.19	157.02	29.23	-23.4	-24.4	19.0	0.00e+00	0	44	102	1048576	7	4040
2026-01-25 12:21:02.20	157.01	29.42	-23.3	-24.2	19.1	0.00e+00	0	44	102	1048576	7	3990
2026-01-25 12:21:03.20	157.00	29.60	-23.3	-24.2	19.1	0.00e+00	0	44	102	1048576	7	3995
2026-01-25 12:21:04.20	156.99	29.79	-23.4	-24.4	19.0	0.00e+00	0	44	102	1048576	7	4041
2026-01-25 12:21:05.20	156.99	29.99	-23.5	-24.6	18.9	0.00e+00	0	44	102	1048576	7	4084
2026-01-25 12:21:06.20	156.98	30.18	-23.3	-24.1	19.2	0.00e+00	0	44	102	1048576	7	3960
2026-01-25 12:21:07.20	156.97	30.37	-23.1	-23.7	19.4	0.00e+00	0	44	102	1048576	7	3867
2026-01-25 12:21:08.20	156.96	30.57	-23.0	-23.4	19.5	0.00e+00	0	44	102	1048576	7	3804
2026-01-25 12:21:09.21	156.96	30.77	-23.0	-23.5	19.5	0.00e+00	0	44	102	1048576	7	3824
2026-01-25 12:21:10.22	156.95	30.97	-23.1	-23.7	19.4	0.00e+00	0	44	102	1048576	7	3873
2026-01-25 12:21:11.22	156.94	31.17	-23.0	-23.6	19.5	0.00e+00	0	44	102	1048576	7	3839
2026-01-25 12:21:12.22	156.93	31.37	-23.1	-23.8	19.4	0.00e+00	0	44	102	1048576	7	3878
2026-01-25 12:21:13.23	156.92	31.57	-23.1	-23.8	19.4	0.00e+00	0	44	102	1048576	7	3880
2026-01-25 12:21:14.23	156.91	31.77	-23.1	-23.8	19.3	0.00e+00	0	44	102	1048576	7	3889
2026-01-25 12:21:15.24	156.90	31.98	-23.2	-23.9	19.3	0.00e+00	0	44	102	1048576	7	3907
2026-01-25 12:21:16.24	156.89	32.19	-23.3	-24.1	19.2	0.00e+00	0	44	102	1048576	7	3945
2026-01-25 12:21:17.24	156.88	32.39	-23.4	-24.3	19.1	0.00e+00	0	44	102	1048576	7	4012
2026-01-25 12:21:18.25	156.87	32.61	-23.4	-24.4	19.1	0.00e+00	0	44	102	1048576	7	4017
2026-01-25 12:21:19.25	156.86	32.82	-23.3	-24.1	19.2	0.00e+00	0	44	102	1048576	7	3960
2026-01-25 12:21:20.26	156.85	33.03	-23.2	-24.0	19.3	0.00e+00	0	44	102	1048576	7	3924
2026-01-25 12:21:21.26	156.84	33.24	-23.3	-24.0	19.3	0.00e+00	0	44	102	1048576	7	3935
2026-01-25 12:21:22.27	156.83	33.46	-23.3	-24.2	19.2	0.00e+00	0	44	102	1048576	7	3967
2026-01-25 12:21:23.27	156.82	33.68	-23.5	-24.4	19.1	0.00e+00	0	44	102	1048576	7	4036
2026-01-25 12:21:24.27	156.81	33.90	-23.3	-24.1	19.3	0.00e+00	0	44	102	1048576	7	3944
2026-01-25 12:21:25.28	156.80	34.12	-23.2	-23.9	19.4	0.00e+00	0	44	102	1048576	7	3910
2026-01-25 12:21:26.28	156.79	34.34	-23.1	-23.8	19.4	1.10e-06	0	44	102	1048576	7	3872
2026-01-25 12:21:27.28	156.78	34.56	-23.2	-23.9	19.4	0.00e+00	0	44	102	1048576	7	3898
2026-01-25 12:21:28.28	156.77	34.79	-22.9	-23.4	19.6	0.00e+00	0	44	102	1048576	7	3782
2026-01-25 12:21:29.29	156.76	35.02	-22.8	-23.5	19.8	0.00e+00	0	44	102	1048576	6	3914
2026-01-25 12:21:30.29	156.74	35.24	-22.8	-23.6	19.8	0.00e+00	0	44	102	1048576	6	3948
2026-01-25 12:21:31.30	156.73	35.48	-22.9	-23.8	19.7	0.00e+00	0	44	102	1048576	6	3992
2026-01-25 12:21:32.30	156.72	35.71	-23.1	-24.3	19.5	0.00e+00	0	44	102	1048576	6	4104
2026-01-25 12:21:33.30	156.71	35.94	-23.0	-23.9	19.6	0.00e+00	0	44	102	1048576	6	4019
2026-01-25 12:21:34.30	156.69	36.17	-22.8	-23.5	19.8	0.00e+00	0	44	102	1048576	6	3926
2026-01-25 12:21:35.29	156.68	36.41	-22.6	-23.1	20.0	0.00e+00	0	44	102	1048576	6	3833
2026-01-25 12:21:36.29	156.67	36.65	-22.6	-23.1	20.0	0.00e+00	0	44	102	1048576	6	3818
2026-01-25 12:21:37.30	156.66	36.89	-22.6	-23.2	20.0	0.00e+00	0	44	102	1048576	6	3852
2026-01-25 12:21:38.29	156.64	37.13	-22.6	-23.2	20.0	0.00e+00	0	44	102	1048576	6	3839
2026-01-25 12:21:39.29	156.63	37.37	-22.6	-23.2	20.0	0.00e+00	0	44	102	1048576	6	3843
2026-01-25 12:21:40.30	156.61	37.62	-22.7	-23.4	19.9	0.00e+00	0	44	102	1048576	6	3891
2026-01-25 12:21:41.30	156.60	37.86	-22.8	-23.7	19.7	0.00e+00	0	44	102	1048576	6	3958
2026-01-25 12:21:42.30	156.58	38.11	-22.6	-23.2	20.0	0.00e+00	0	44	102	1048576	6	3853
2026-01-25 12:21:43.31	156.57	38.37	-22.6	-23.2	20.0	0.00e+00	0	44	102	1048576	6	3849
2026-01-25 12:21:44.31	156.55	38.62	-22.7	-23.3	19.9	0.00e+00	0	44	102	1048576	6	3880
2026-01-25 12:21:45.31	156.54	38.87	-22.8	-23.5	19.8	0.00e+00	0	44	102	1048576	6	3922
2026-01-25 12:21:46.31	156.52	39.13	-22.8	-23.6	19.8	0.00e+00	0	44	102	1048576	6	3953
2026-01-25 12:21:47.32	156.51	39.39	-22.8	-23.6	19.8	0.00e+00	0	44	102	1048576	6	3947
2026-01-25 12:21:48.33	156.49	39.65	-22.9	-23.7	19.7	0.00e+00	0	44	102	1048576	6	3968
2026-01-25 12:21:49.33	156.47	39.91	-22.9	-23.9	19.7	0.00e+00	0	44	102	1048576	6	4005
2026-01-25 12:21:50.33	156.46	40.18	-23.0	-24.0	19.6	0.00e+00	0	44	102	1048576	6	4037
2026-01-25 12:21:51.32	156.44	40.44	-23.2	-24.4	19.4	0.00e+00	0	44	102	1048576	6	4127
2026-01-25 12:21:52.33	156.42	40.71	-23.3	-24.6	19.3	0.00e+00	0	44	102	1048576	6	4177
2026-01-25 12:21:53.33	156.40	40.98	-23.3	-24.7	19.3	0.00e+00	0	44	102	1048576	6	4205
2026-01-25 12:21:54.34	156.38	41.26	-23.2	-24.4	19.4	0.00e+00	0	44	102	1048576	6	4133
2026-01-25 12:21:55.34	156.36	41.53	-23.2	-24.3	19.5	0.00e+00	0	44	102	1048576	6	4116
2026-01-25 12:21:56.35	156.34	41.81	-23.1	-24.2	19.6	0.00e+00	0	44	102	1048576	6	4084
2026-01-25 12:21:57.35	156.33	42.09	-23.0	-24.0	19.7	0.00e+00	0	44	102	1048576	6	4038
2026-01-25 12:21:58.35	156.31	42.37	-23.2	-24.5	19.4	0.00e+00	0	44	102	1048576	6	4146
2026-01-25 12:21:59.35	156.28	42.65	-23.3	-24.6	19.4	0.00e+00	0	44	102	1048576	6	4179
2026-01-25 12:22:00.34	156.26	42.93	-23.6	-24.7	19.1	0.00e+00	0	44	102	1048576	7	4084
2026-01-25 12:22:01.35	156.24	43.22	-23.6	-24.7	19.0	0.00e+00	0	44	102	1048576	7	4105
2026-01-25 12:22:02.35	156.22	43.51	-23.5	-24.6	19.1	0.00e+00	0	44	102	1048576	7	4077
2026-01-25 12:22:03.36	156.20	43.81	-23.4	-24.3	19.2	0.00e+00	0	44	102	1048576	7	4007
2026-01-25 12:22:04.37	156.17	44.10	-23.4	-24.2	19.3	0.00e+00	0	44	102	1048576	7	3971
2026-01-25 12:22:05.37	156.15	44.40	-23.4	-24.3	19.3	0.00e+00	0	44	102	1048576	7	4000
2026-01-25 12:22:06.38	156.13	44.70	-23.3	-24.2	19.4	0.00e+00	0	44	102	1048576	7	3968
2026-01-25 12:22:07.38	156.10	45.00	-23.5	-24.6	19.1	0.00e+00	0	44	102	1048576	7	4069
2026-01-25 12:22:08.38	156.08	45.30	-23.7	-24.9	19.0	0.00e+00	0	44	102	1048576	7	4155
2026-01-25 12:22:09.39	156.05	45.61	-23.6	-24.7	19.1	0.00e+00	0	44	102	1048576	7	4085
2026-01-25 12:22:10.39	156.03	45.92	-23.6	-24.6	19.1	0.00e+00	0	44	102	1048576	7	4084
2026-01-25 12:22:11.40	156.00	46.23	-23.5	-24.6	19.2	0.00e+00	0	44	102	1048576	7	4062
2026-01-25 12:22:12.40	155.97	46.54	-23.3	-24.1	19.4	0.00e+00	0	44	102	1048576	7	3935
2026-01-25 12:22:13.40	155.95	46.85	-23.0	-23.5	19.7	0.00e+00	0	44	102	1048576	7	3795
2026-01-25 12:22:14.41	155.92	47.17	-22.9	-23.2	19.9	0.00e+00	0	44	102	1048576	7	3737
2026-01-25 12:22:15.41	155.89	47.49	-22.9	-23.2	19.9	0.00e+00	0	44	102	1048576	7	3748
2026-01-25 12:22:16.42	155.86	47.82	-23.1	-23.6	19.7	0.00e+00	0	44	102	1048576	7	3824
2026-01-25 12:22:17.42	155.83	48.14	-23.3	-24.1	19.5	0.00e+00	0	44	102	1048576	7	3944
2026-01-25 12:22:18.43	155.80	48.47	-23.7	-24.9	19.1	0.00e+00	0	44	102	1048576	7	4136
2026-01-25 12:22:19.43	155.76	48.80	-23.6	-24.8	19.1	0.00e+00	0	44	102	1048576	7	4109
2026-01-25 12:22:20.43	155.73	49.13	-23.5	-24.5	19.3	0.00e+00	0	44	102	1048576	7	4036
2026-01-25 12:22:21.43	155.70	49.46	-23.6	-24.8	19.1	0.00e+00	0	44	102	1048576	7	4100
2026-01-25 12:22:22.44	155.66	49.80	-23.8	-25.1	19.0	0.00e+00	0	44	102	1048576	7	4181
2026-01-25 12:22:23.44	155.63	50.14	-23.7	-25.0	19.0	0.00e+00	0	44	102	1048576	7	4147
2026-01-25 12:22:24.44	155.59	50.48	-23.8	-25.1	18.9	0.00e+00	0	44	102	1048576	7	4193
2026-01-25 12:22:25.45	155.56	50.83	-23.8	-25.1	19.0	0.00e+00	0	44	102	1048576	7	4176
2026-01-25 12:22:26.45	155.52	51.18	-23.6	-24.8	19.1	0.00e+00	0	44	102	1048576	7	4111
2026-01-25 12:22:27.45	155.48	51.52	-23.6	-24.8	19.1	0.00e+00	0	44	102	1048576	7	4102
2026-01-25 12:22:28.45	155.44	51.87	-23.9	-25.3	18.9	0.00e+00	0	44	102	1048576	7	4229
2026-01-25 12:22:29.46	155.40	52.23	-24.0	-25.1	18.7	0.00e+00	0	44	102	1048576	8	4081
2026-01-25 12:22:30.47	155.36	52.59	-24.2	-25.4	18.6	0.00e+00	0	44	102	1048576	8	4159
2026-01-25 12:22:31.47	155.31	52.95	-24.4	-25.9	18.3	0.00e+00	0	44	102	1048576	8	4279
2026-01-25 12:22:32.47	155.27	53.31	-24.3	-25.8	18.4	0.00e+00	0	44	102	1048576	8	4265
2026-01-25 12:22:33.47	155.22	53.68	-24.3	-25.8	18.4	0.00e+00	0	44	102	1048576	8	4258
2026-01-25 12:22:34.49	155.18	54.05	-24.5	-26.1	18.2	0.00e+00	0	44	102	1048576	8	4340
2026-01-25 12:22:35.49	155.13	54.42	-24.6	-25.8	18.1	0.00e+00	0	44	102	1048576	9	4140
2026-01-25 12:22:36.49	155.08	54.79	-24.5	-25.7	18.2	0.00e+00	0	44	102	1048576	9	4124
2026-01-25 12:22:37.50	155.03	55.17	-24.5	-25.7	18.1	0.00e+00	0	44	102	1048576	9	4127
2026-01-25 12:22:38.50	154.98	55.55	-24.4	-25.5	18.3	0.00e+00	0	44	102	1048576	9	4068
2026-01-25 12:22:39.51	154.92	55.93	-24.2	-25.0	18.5	0.00e+00	0	44	102	1048576	9	3954
2026-01-25 12:22:40.51	154.87	56.31	-24.1	-24.9	18.7	0.00e+00	0	44	102	1048576	9	3907
2026-01-25 12:22:41.51	154.81	56.70	-24.2	-24.9	18.6	0.00e+00	0	44	102	1048576	9	3916
2026-01-25 12:22:42.52	154.75	57.09	-24.2	-25.0	18.6	0.00e+00	0	44	102	1048576	9	3931
2026-01-25 12:22:43.52	154.69	57.48	-24.1	-24.8	18.7	1.10e-06	0	44	102	1048576	9	3893
2026-01-25 12:22:44.52	154.63	57.87	-24.0	-24.5	18.8	0.00e+00	0	44	102	1048576	9	3826
2026-01-25 12:22:45.52	154.57	58.27	-24.0	-24.6	18.8	0.00e+00	0	44	102	1048576	9	3842
2026-01-25 12:22:46.53	154.50	58.67	-23.9	-24.4	18.9	0.00e+00	0	44	102	1048576	9	3801
2026-01-25 12:22:47.52	154.43	59.07	-23.6	-24.2	19.2	0.00e+00	0	44	102	1048576	8	3853
2026-01-25 12:22:48.53	154.36	59.48	-23.1	-23.6	19.7	0.00e+00	0	44	102	1048576	7	3836
2026-01-25 12:22:49.53	154.29	59.88	-22.9	-23.3	19.9	0.00e+00	0	44	102	1048576	7	3761
2026-01-25 12:22:50.54	154.21	60.30	-23.2	-23.8	19.6	0.00e+00	0	44	102	1048576	7	3889
2026-01-25 12:22:51.54	154.13	60.71	-23.5	-24.5	19.3	0.00e+00	0	44	102	1048576	7	4047
2026-01-25 12:22:52.55	154.05	61.12	-23.3	-24.2	19.4	0.00e+00	0	44	102	1048576	7	3978
2026-01-25 12:22:53.55	153.97	61.54	-23.0	-23.5	19.8	0.00e+00	0	44	102	1048576	7	3795
2026-01-25 12:22:54.56	153.88	61.96	-23.2	-23.9	19.6	0.00e+00	0	44	102	1048576	7	3899
2026-01-25 12:22:55.56	153.79	62.39	-23.5	-24.5	19.3	0.00e+00	0	44	102	1048576	7	4048
2026-01-25 12:22:56.57	153.70	62.81	-23.4	-24.3	19.4	0.00e+00	0	44	102	1048576	7	3986
2026-01-25 12:22:57.57	153.60	63.24	-23.2	-23.9	19.6	0.00e+00	0	44	102	1048576	7	3901
2026-01-25 12:22:58.58	153.50	63.67	-22.7	-23.5	20.0	0.00e+00	0	44	102	1048576	6	3904
2026-01-25 12:22:59.58	153.40	64.11	-22.5	-23.0	20.3	0.00e+00	0	44	102	1048576	6	3792
2026-01-25 12:23:00.57	153.29	64.54	-22.7	-23.5	20.0	0.00e+00	0	44	102	1048576	6	3910
2026-01-25 12:23:01.58	153.18	64.98	-22.5	-22.9	20.3	0.00e+00	0	44	102	1048576	6	3779
2026-01-25 12:23:02.59	153.06	65.42	-22.0	-22.4	20.8	0.00e+00	0	44	102	1048576	5	3773
2026-01-25 12:23:03.58	152.94	65.86	-22.2	-22.9	20.6	0.00e+00	0	44	102	1048576	5	3876
2026-01-25 12:23:04.59	152.81	66.31	-22.5	-23.3	20.3	0.00e+00	0	44	102	1048576	5	3985
2026-01-25 12:23:05.60	152.68	66.76	-22.2	-22.7	20.6	0.00e+00	0	44	102	1048576	5	3841
2026-01-25 12:23:06.60	152.54	67.21	-22.4	-23.2	20.4	0.00e+00	0	44	102	1048576	5	3939
2026-01-25 12:23:07.61	152.39	67.66	-22.6	-23.5	20.2	0.00e+00	0	44	102	1048576	5	4033
2026-01-25 12:23:08.61	152.24	68.11	-22.2	-22.8	20.5	0.00e+00	0	44	102	1048576	5	3868
2026-01-25 12:23:09.62	152.08	68.57	-22.1	-22.6	20.7	0.00e+00	0	44	102	1048576	5	3809
2026-01-25 12:23:10.62	151.91	69.03	-22.2	-22.8	20.6	0.00e+00	0	44	102	1048576	5	3866
2026-01-25 12:23:11.63	151.74	69.49	-22.4	-23.2	20.3	0.00e+00	0	44	102	1048576	5	3968
2026-01-25 12:23:12.63	151.55	69.96	-21.9	-22.3	20.8	0.00e+00	0	44	102	1048576	5	3743
2026-01-25 12:23:13.63	151.36	70.42	-21.7	-22.2	21.1	0.00e+00	0	44	102	1048576	4	3825
2026-01-25 12:23:14.63	151.16	70.88	-21.8	-22.4	21.0	0.00e+00	0	44	102	1048576	4	3887
2026-01-25 12:23:15.63	150.94	71.35	-22.2	-23.3	20.6	0.00e+00	0	44	102	1048576	4	4092
2026-01-25 12:23:16.64	150.72	71.83	-22.1	-23.1	20.7	0.00e+00	0	44	102	1048576	4	4047
2026-01-25 12:23:17.64	150.48	72.30	-21.7	-22.3	21.1	0.00e+00	0	44	102	1048576	4	3850
2026-01-25 12:23:18.64	150.22	72.77	-21.4	-21.7	21.4	0.00e+00	0	44	102	1048576	4	3711
2026-01-25 12:23:19.64	149.96	73.24	-21.6	-22.0	21.2	0.00e+00	0	44	102	1048576	4	3788
2026-01-25 12:23:20.64	149.67	73.72	-21.6	-22.1	21.1	0.00e+00	0	44	102	1048576	4	3817
2026-01-25 12:23:21.65	149.36	74.20	-21.5	-21.9	21.2	0.00e+00	0	44	102	1048576	4	3773
2026-01-25 12:23:22.65	149.04	74.68	-21.8	-22.5	21.0	0.00e+00	0	44	102	1048576	4	3886
2026-01-25 12:23:23.65	148.70	75.16	-22.1	-23.2	20.6	0.00e+00	0	44	102	1048576	4	4066
2026-01-25 12:23:24.66	148.32	75.65	-22.1	-23.2	20.6	0.00e+00	0	44	102	1048576	4	4068
2026-01-25 12:23:25.67	147.92	76.13	-21.5	-21.9	21.2	0.00e+00	0	44	102	1048576	4	3767
2026-01-25 12:23:26.67	147.50	76.62	-21.4	-21.8	21.2	0.00e+00	0	44	102	1048576	4	3744
2026-01-25 12:23:27.68	147.03	77.11	-21.5	-22.0	21.1	0.00e+00	0	44	102	1048576	4	3795
2026-01-25 12:23:28.68	146.53	77.59	-21.2	-21.8	21.5	0.00e+00	0	44	102	1048576	3	3854
2026-01-25 12:23:29.68	145.99	78.08	-21.2	-21.7	21.6	0.00e+00	0	44	102	1048576	3	3834
2026-01-25 12:23:30.69	145.40	78.57	-21.4	-22.1	21.4	0.00e+00	0	44	102	1048576	3	3924
2026-01-25 12:23:31.69	144.76	79.05	-21.0	-21.3	21.8	0.00e+00	0	44	102	1048576	3	3739
2026-01-25 12:23:32.70	144.05	79.54	-20.6	-21.0	22.1	0.00e+00	0	44	102	1048576	2	3768
2026-01-25 12:23:33.70	143.28	80.03	-20.7	-21.2	22.1	0.00e+00	0	44	102	1048576	2	3819
2026-01-25 12:23:34.71	142.42	80.51	-20.9	-21.6	21.9	0.00e+00	0	44	102	1048576	2	3903
2026-01-25 12:23:35.72	141.46	81.00	-20.4	-20.5	22.4	0.00e+00	0	44	102	1048576	2	3673
2026-01-25 12:23:36.72	140.40	81.48	-20.1	-20.5	22.8	0.00e+00	0	44	102	1048576	1	3763
2026-01-25 12:23:37.72	139.22	81.96	-20.3	-20.9	22.7	0.00e+00	0	44	102	1048576	1	3839
2026-01-25 12:23:38.72	137.88	82.44	-20.2	-20.7	22.8	0.00e+00	0	44	102	1048576	1	3803
2026-01-25 12:23:39.73	136.34	82.91	-20.0	-20.2	23.0	0.00e+00	0	44	102	1048576	1	3690
2026-01-25 12:23:40.74	134.59	83.39	-20.2	-20.7	22.8	0.00e+00	0	44	102	1048576	1	3801
2026-01-25 12:23:41.75	132.56	83.85	-20.7	-21.7	22.4	0.00e+00	0	44	102	1048576	1	4020
2026-01-25 12:23:42.75	130.22	84.30	-21.3	-22.3	21.9	0.00e+00	0	44	102	1048576	2	4066
2026-01-25 12:23:43.76	127.46	84.75	-21.7	-22.7	21.5	0.00e+00	0	44	102	1048576	3	4043
2026-01-25 12:23:44.76	124.22	85.18	-22.0	-23.2	21.2	0.00e+00	0	44	102	1048576	3	4169
2026-01-25 12:23:45.76	120.36	85.59	-22.0	-22.8	21.2	0.00e+00	0	44	102	1048576	4	3952
2026-01-25 12:23:46.77	115.68	85.98	-21.9	-22.6	21.3	0.00e+00	0	44	102	1048576	4	3914
2026-01-25 12:23:47.78	110.04	86.34	-22.3	-23.4	20.9	0.00e+00	0	44	102	1048576	4	4089
2026-01-25 12:23:48.78	103.33	86.65	-22.3	-23.5	20.9	0.00e+00	0	44	102	1048576	4	4128
2026-01-25 12:23:49.78	95.36	86.91	-22.6	-23.5	20.7	0.00e+00	0	44	102	1048576	5	4003
2026-01-25 12:23:50.78	86.16	87.10	-22.9	-24.2	20.4	0.00e+00	0	44	102	1048576	5	4173
2026-01-25 12:23:51.78	75.98	87.20	-23.4	-24.6	20.0	0.00e+00	0	44	102	1048576	6	4167
2026-01-25 12:23:52.79	65.27	87.21	-23.5	-24.3	19.9	0.00e+00	0	44	102	1048576	7	3978
2026-01-25 12:23:53.79	54.93	87.13	-23.5	-24.3	19.9	0.00e+00	0	44	102	1048576	7	3983
2026-01-25 12:23:54.80	45.38	86.96	-23.8	-24.9	19.6	0.00e+00	0	44	102	1048576	7	4129
2026-01-25 12:23:55.81	37.05	86.71	-23.8	-25.1	19.5	0.00e+00	0	44	102	1048576	7	4175
2026-01-25 12:23:56.81	30.08	86.41	-24.0	-25.1	19.3	0.00e+00	0	44	102	1048576	8	4043
2026-01-25 12:23:57.82	24.21	86.06	-24.3	-25.6	19.0	0.00e+00	0	44	102	1048576	8	4194
2026-01-25 12:23:58.83	19.35	85.68	-24.0	-24.9	19.3	0.00e+00	0	44	102	1048576	8	3995
2026-01-25 12:23:59.83	15.34	85.27	-23.8	-24.5	19.5	0.00e+00	0	44	102	1048576	8	3913
2026-01-25 12:24:00.83	11.98	84.84	-23.9	-24.7	19.4	0.00e+00	0	44	102	1048576	8	3963
2026-01-25 12:24:01.84	9.12	84.40	-24.0	-25.0	19.2	0.00e+00	0	44	102	1048576	8	4038
2026-01-25 12:24:02.84	6.70	83.95	-24.0	-24.9	19.3	0.00e+00	0	44	102	1048576	8	4003
2026-01-25 12:24:03.84	4.63	83.49	-23.5	-24.0	19.8	0.00e+00	0	44	102	1048576	8	3784
2026-01-25 12:24:04.85	2.82	83.02	-23.5	-23.8	19.8	0.00e+00	0	44	102	1048576	8	3755
2026-01-25 12:24:05.85	1.25	82.55	-23.6	-24.2	19.7	0.00e+00	0	44	102	1048576	8	3843
2026-01-25 12:24:06.86	359.86	82.07	-23.9	-24.8	19.3	0.00e+00	0	44	102	1048576	8	3974
2026-01-25 12:24:07.87	358.63	81.59	-23.4	-23.6	19.9	0.00e+00	0	44	102	1048576	8	3711
2026-01-25 12:24:08.86	357.56	81.11	-23.0	-23.4	20.2	0.00e+00	0	44	102	1048576	7	3767
2026-01-25 12:24:09.86	356.59	80.63	-22.4	-22.6	20.8	0.00e+00	0	44	102	1048576	6	3702
2026-01-25 12:24:10.86	355.71	80.15	-21.9	-22.1	21.4	0.00e+00	0	44	102	1048576	5	3677
2026-01-25 12:24:11.87	354.91	79.66	-21.6	-22.0	21.6	0.00e+00	0	44	102	1048576	4	3766
2026-01-25 12:24:12.87	354.20	79.17	-21.6	-22.1	21.5	0.00e+00	0	44	102	1048576	4	3797
2026-01-25 12:24:13.87	353.54	78.69	-21.7	-22.1	21.6	0.00e+00	0	44	102	1048576	4	3795
2026-01-25 12:24:14.87	352.94	78.20	-22.0	-22.8	21.2	0.00e+00	0	44	102	1048576	4	3962
2026-01-25 12:24:15.88	352.39	77.72	-21.6	-22.1	21.5	0.00e+00	0	44	102	1048576	4	3785
2026-01-25 12:24:16.89	351.87	77.23	-21.2	-21.6	22.1	0.00e+00	0	44	102	1048576	3	3786
2026-01-25 12:24:17.90	351.40	76.74	-21.1	-21.4	22.1	0.00e+00	0	44	102	1048576	3	3748
2026-01-25 12:24:18.89	350.97	76.26	-21.6	-22.6	21.6	0.00e+00	0	44	102	1048576	3	4006
2026-01-25 12:24:19.90	350.56	75.77	-21.7	-22.7	21.5	0.00e+00	0	44	102	1048576	3	4044
2026-01-25 12:24:20.90	350.19	75.29	-21.7	-22.8	21.5	0.00e+00	0	44	102	1048576	3	4052
2026-01-25 12:24:21.91	349.83	74.81	-22.3	-23.4	20.9	0.00e+00	0	44	102	1048576	4	4084
2026-01-25 12:24:22.91	349.51	74.33	-22.1	-23.1	21.0	0.00e+00	0	44	102	1048576	4	4022
2026-01-25 12:24:23.92	349.19	73.85	-22.0	-22.8	21.2	0.00e+00	0	44	102	1048576	4	3951
2026-01-25 12:24:24.93	348.90	73.37	-21.8	-22.5	21.3	0.00e+00	0	44	102	1048576	4	3874
2026-01-25 12:24:25.93	348.63	72.89	-21.5	-21.8	21.6	0.00e+00	0	44	102	1048576	4	3730
2026-01-25 12:24:26.93	348.38	72.42	-21.6	-22.1	21.5	0.00e+00	0	44	102	1048576	4	3784
2026-01-25 12:24:27.94	348.13	71.95	-21.9	-22.6	21.2	0.00e+00	0	44	102	1048576	4	3918
2026-01-25 12:24:28.94	347.90	71.48	-22.0	-22.9	21.1	0.00e+00	0	44	102	1048576	4	3991
2026-01-25 12:24:29.95	347.68	71.01	-22.0	-22.9	21.1	0.00e+00	0	44	102	1048576	4	3974
2026-01-25 12:24:30.95	347.48	70.54	-21.9	-22.5	21.2	0.00e+00	0	44	102	1048576	4	3890
2026-01-25 12:24:31.95	347.28	70.08	-22.4	-23.7	20.7	0.00e+00	0	44	102	1048576	4	4162
2026-01-25 12:24:32.96	347.10	69.61	-22.6	-23.7	20.4	0.00e+00	0	44	102	1048576	5	4060
2026-01-25 12:24:33.96	346.92	69.15	-22.3	-22.8	20.9	0.00e+00	0	44	102	1048576	5	3853
2026-01-25 12:24:34.97	346.75	68.69	-22.2	-22.7	20.9	0.00e+00	0	44	102	1048576	5	3823
2026-01-25 12:24:35.98	346.59	68.23	-22.7	-23.8	20.4	0.00e+00	0	44	102	1048576	5	4083
2026-01-25 12:24:36.98	346.44	67.78	-22.5	-23.4	20.6	0.00e+00	0	44	102	1048576	5	3979
2026-01-25 12:24:37.99	346.29	67.33	-22.1	-22.6	21.0	0.00e+00	0	44	102	1048576	5	3801
2026-01-25 12:24:38.99	346.15	66.88	-22.1	-22.5	21.0	0.00e+00	0	44	102	1048576	5	3781
2026-01-25 12:24:39.99	346.02	66.43	-22.4	-23.2	20.7	0.00e+00	0	44	102	1048576	5	3927
2026-01-25 12:24:41.00	345.89	65.99	-22.1	-22.6	21.0	0.00e+00	0	44	102	1048576	5	3806
2026-01-25 12:24:42.00	345.76	65.54	-22.3	-22.9	20.8	0.00e+00	0	44	102	1048576	5	3874
2026-01-25 12:24:43.00	345.65	65.11	-22.8	-23.9	20.3	0.00e+00	0	44	102	1048576	5	4116
2026-01-25 12:24:44.00	345.53	64.67	-22.7	-23.7	20.5	0.00e+00	0	44	102	1048576	5	4057
2026-01-25 12:24:45.01	345.42	64.23	-22.5	-23.4	20.6	0.00e+00	0	44	102	1048576	5	3986
2026-01-25 12:24:46.02	345.32	63.80	-22.8	-24.0	20.3	0.00e+00	0	44	102	1048576	5	4126
2026-01-25 12:24:47.02	345.22	63.37	-22.8	-24.0	20.3	0.00e+00	0	44	102	1048576	5	4128
2026-01-25 12:24:48.03	345.12	62.94	-23.1	-24.1	20.0	0.00e+00	0	44	102	1048576	6	4056
2026-01-25 12:24:49.03	345.02	62.51	-23.1	-24.0	20.0	0.00e+00	0	44	102	1048576	6	4028
2026-01-25 12:24:50.04	344.93	62.09	-23.1	-24.2	20.0	0.00e+00	0	44	102	1048576	6	4068
2026-01-25 12:24:51.05	344.85	61.66	-23.0	-23.9	20.1	0.00e+00	0	44	102	1048576	6	4001
2026-01-25 12:24:52.05	344.76	61.25	-22.9	-23.6	20.3	0.00e+00	0	44	102	1048576	6	3915
2026-01-25 12:24:53.05	344.68	60.84	-23.1	-24.0	20.0	0.00e+00	0	44	102	1048576	6	4018
2026-01-25 12:24:54.05	344.60	60.42	-23.1	-24.1	20.0	0.00e+00	0	44	102	1048576	6	4036
2026-01-25 12:24:55.05	344.53	60.02	-23.0	-23.9	20.1	0.00e+00	0	44	102	1048576	6	3990
2026-01-25 12:24:56.06	344.45	59.61	-22.9	-23.7	20.2	0.00e+00	0	44	102	1048576	6	3932
2026-01-25 12:24:57.05	344.38	59.21	-23.1	-24.1	20.0	0.00e+00	0	44	102	1048576	6	4029
2026-01-25 12:24:58.06	344.31	58.80	-23.2	-24.3	19.9	0.00e+00	0	44	102	1048576	6	4096
2026-01-25 12:24:59.06	344.25	58.40	-23.4	-24.8	19.6	0.00e+00	0	44	102	1048576	6	4220
2026-01-25 12:25:00.06	344.18	58.01	-23.6	-24.7	19.4	0.00e+00	0	44	102	1048576	7	4088
2026-01-25 12:25:01.06	344.12	57.62	-23.7	-24.9	19.3	0.00e+00	0	44	102	1048576	7	4117
2026-01-25 12:25:02.06	344.06	57.23	-23.8	-25.2	19.2	0.00e+00	0	44	102	1048576	7	4189
2026-01-25 12:25:03.06	344.00	56.84	-24.0	-25.0	19.1	0.00e+00	0	44	102	1048576	8	4039
2026-01-25 12:25:04.07	343.94	56.45	-24.1	-25.2	19.0	0.00e+00	0	44	102	1048576	8	4083
2026-01-25 12:25:05.07	343.89	56.07	-24.2	-25.5	18.8	0.00e+00	0	44	102	1048576	8	4158
2026-01-25 12:25:06.08	343.83	55.69	-24.1	-25.2	18.9	0.00e+00	0	44	102	1048576	8	4099
2026-01-25 12:25:07.08	343.78	55.31	-24.0	-25.1	19.0	0.00e+00	0	44	102	1048576	8	4060
2026-01-25 12:25:08.08	343.73	54.94	-24.1	-25.1	19.0	0.00e+00	0	44	102	1048576	8	4065
2026-01-25 12:25:09.09	343.68	54.56	-23.9	-24.8	19.1	0.00e+00	0	44	102	1048576	8	3985
2026-01-25 12:25:10.10	343.63	54.19	-23.8	-24.5	19.3	0.00e+00	0	44	102	1048576	8	3910
2026-01-25 12:25:11.10	343.59	53.82	-23.9	-24.8	19.1	0.00e+00	0	44	102	1048576	8	3983
2026-01-25 12:25:12.11	343.54	53.45	-23.9	-24.7	19.2	0.00e+00	0	44	102	1048576	8	3968
2026-01-25 12:25:13.12	343.50	53.09	-23.9	-24.7	19.2	0.00e+00	0	44	102	1048576	8	3961
2026-01-25 12:25:14.12	343.45	52.73	-24.0	-25.0	19.0	0.00e+00	0	44	102	1048576	8	4033
2026-01-25 12:25:15.12	343.41	52.38	-23.6	-24.1	19.5	0.00e+00	0	44	102	1048576	8	3813
2026-01-25 12:25:16.13	343.37	52.02	-23.2	-23.8	19.8	0.00e+00	0	44	102	1048576	7	3869
2026-01-25 12:25:17.13	343.33	51.67	-23.3	-24.0	19.8	0.00e+00	0	44	102	1048576	7	3896
2026-01-25 12:25:18.14	343.29	51.32	-23.3	-24.1	19.7	0.00e+00	0	44	102	1048576	7	3918
2026-01-25 12:25:19.14	343.25	50.97	-23.3	-23.9	19.8	0.00e+00	0	44	102	1048576	7	3893
2026-01-25 12:25:20.15	343.22	50.62	-23.1	-23.7	19.9	0.00e+00	0	44	102	1048576	7	3829
2026-01-25 12:25:21.15	343.18	50.28	-23.2	-23.7	19.9	0.00e+00	0	44	102	1048576	7	3834
2026-01-25 12:25:22.16	343.15	49.94	-23.5	-24.5	19.5	0.00e+00	0	44	102	1048576	7	4010
2026-01-25 12:25:23.16	343.11	49.61	-23.4	-24.2	19.6	0.00e+00	0	44	102	1048576	7	3965
2026-01-25 12:25:24.17	343.08	49.27	-23.3	-24.1	19.6	0.00e+00	0	44	102	1048576	7	3948
2026-01-25 12:25:25.17	343.05	48.94	-23.2	-23.9	19.8	0.00e+00	0	44	102	1048576	7	3883
2026-01-25 12:25:26.18	343.01	48.61	-23.1	-23.5	20.0	0.00e+00	0	44	102	1048576	7	3803
2026-01-25 12:25:27.18	342.98	48.28	-23.0	-23.4	20.1	0.00e+00	0	44	102	1048576	7	3757
2026-01-25 12:25:28.19	342.95	47.96	-23.1	-23.5	19.9	0.00e+00	0	44	102	1048576	7	3794
2026-01-25 12:25:29.19	342.92	47.64	-22.9	-23.1	20.2	0.00e+00	0	44	102	1048576	7	3687
2026-01-25 12:25:30.20	342.89	47.31	-23.0	-23.3	20.1	0.00e+00	0	44	102	1048576	7	3748
2026-01-25 12:25:31.20	342.87	47.00	-22.9	-23.3	20.1	0.00e+00	0	44	102	1048576	7	3738
2026-01-25 12:25:32.20	342.84	46.68	-23.1	-23.7	19.9	0.00e+00	0	44	102	1048576	7	3836
2026-01-25 12:25:33.21	342.81	46.37	-23.2	-23.8	19.8	0.00e+00	0	44	102	1048576	7	3875
2026-01-25 12:25:34.21	342.78	46.06	-23.3	-24.0	19.7	0.00e+00	0	44	102	1048576	7	3916
2026-01-25 12:25:35.21	342.76	45.76	-23.4	-24.2	19.6	0.00e+00	0	44	102	1048576	7	3966
2026-01-25 12:25:36.22	342.73	45.45	-23.6	-24.7	19.3	0.00e+00	0	44	102	1048576	7	4088
2026-01-25 12:25:37.22	342.71	45.15	-23.3	-24.1	19.6	0.00e+00	0	44	102	1048576	7	3929
2026-01-25 12:25:38.23	342.68	44.84	-23.0	-23.4	20.0	0.00e+00	0	44	102	1048576	7	3775
2026-01-25 12:25:39.24	342.66	44.54	-22.8	-23.1	20.2	0.00e+00	0	44	102	1048576	7	3699
2026-01-25 12:25:40.24	342.64	44.25	-22.9	-23.1	20.1	0.00e+00	0	44	102	1048576	7	3695
2026-01-25 12:25:41.25	342.62	43.95	-22.8	-23.0	20.2	0.00e+00	0	44	102	1048576	7	3680
2026-01-25 12:25:42.25	342.59	43.66	-22.9	-23.3	20.0	0.00e+00	0	44	102	1048576	7	3746
2026-01-25 12:25:43.26	342.57	43.37	-23.1	-23.6	19.9	0.00e+00	0	44	102	1048576	7	3814
2026-01-25 12:25:44.26	342.55	43.08	-23.2	-23.8	19.8	0.00e+00	0	44	102	1048576	7	3861
2026-01-25 12:25:45.26	342.53	42.80	-23.2	-23.8	19.8	0.00e+00	0	44	102	1048576	7	3861
2026-01-25 12:25:46.26	342.51	42.52	-23.2	-23.7	19.8	0.00e+00	0	44	102	1048576	7	3849
2026-01-25 12:25:47.26	342.49	42.24	-23.2	-23.9	19.7	0.00e+00	0	44	102	1048576	7	3888
2026-01-25 12:25:48.26	342.47	41.96	-23.3	-24.1	19.6	0.00e+00	0	44	102	1048576	7	3922
2026-01-25 12:25:49.26	342.45	41.68	-23.0	-23.5	19.9	0.00e+00	0	44	102	1048576	7	3778
2026-01-25 12:25:50.26	342.43	41.41	-23.1	-23.7	19.8	0.00e+00	0	44	102	1048576	7	3830
2026-01-25 12:25:51.26	342.41	41.14	-23.0	-23.4	19.9	0.00e+00	0	44	102	1048576	7	3759
2026-01-25 12:25:52.26	342.40	40.87	-22.9	-23.3	20.0	0.00e+00	0	44	102	1048576	7	3738
2026-01-25 12:25:53.27	342.38	40.60	-22.9	-23.3	20.0	0.00e+00	0	44	102	1048576	7	3740
2026-01-25 12:25:54.28	342.36	40.33	-22.8	-23.0	20.1	0.00e+00	0	44	102	1048576	7	3678
2026-01-25 12:25:55.28	342.34	40.07	-22.7	-23.4	20.2	0.00e+00	0	44	102	1048576	6	3874
2026-01-25 12:25:56.29	342.33	39.80	-22.5	-23.0	20.4	0.00e+00	0	44	102	1048576	6	3781
2026-01-25 12:25:57.29	342.31	39.54	-22.3	-22.5	20.6	0.00e+00	0	44	102	1048576	6	3669
2026-01-25 12:25:58.30	342.29	39.28	-22.2	-22.6	20.8	0.00e+00	0	44	102	1048576	5	3811
2026-01-25 12:25:59.29	342.28	39.03	-22.1	-22.5	20.8	0.00e+00	0	44	102	1048576	5	3782
2026-01-25 12:26:00.30	342.26	38.77	-22.2	-22.8	20.7	0.00e+00	0	44	102	1048576	5	3836
2026-01-25 12:26:01.29	342.25	38.52	-22.3	-23.0	20.6	0.00e+00	0	44	102	1048576	5	3885
2026-01-25 12:26:02.30	342.23	38.27	-22.1	-22.6	20.8	0.00e+00	0	44	102	1048576	5	3802
2026-01-25 12:26:03.30	342.22	38.02	-22.2	-22.8	20.7	0.00e+00	0	44	102	1048576	5	3848
2026-01-25 12:26:04.31	342.21	37.77	-22.4	-23.1	20.5	0.00e+00	0	44	102	1048576	5	3911
2026-01-25 12:26:05.31	342.19	37.53	-22.6	-23.6	20.3	0.00e+00	0	44	102	1048576	5	4028
2026-01-25 12:26:06.32	342.18	37.28	-22.8	-23.9	20.2	0.00e+00	0	44	102	1048576	5	4112
2026-01-25 12:26:07.32	342.16	37.04	-22.9	-24.2	20.0	0.00e+00	0	44	102	1048576	5	4201
2026-01-25 12:26:08.33	342.15	36.80	-23.1	-24.1	19.8	0.00e+00	0	44	102	1048576	6	4041
2026-01-25 12:26:09.34	342.14	36.56	-23.0	-24.0	19.8	0.00e+00	0	44	102	1048576	6	4040
2026-01-25 12:26:10.35	342.13	36.32	-22.9	-23.8	20.0	0.00e+00	0	44	102	1048576	6	3977
2026-01-25 12:26:11.36	342.11	36.09	-22.9	-23.8	19.9	0.00e+00	0	44	102	1048576	6	3974
2026-01-25 12:26:12.36	342.10	35.85	-22.9	-23.7	20.0	0.00e+00	0	44	102	1048576	6	3958
2026-01-25 12:26:13.37	342.09	35.62	-22.7	-23.4	20.2	0.00e+00	0	44	102	1048576	6	3870
2026-01-25 12:26:14.37	342.08	35.39	-22.8	-23.4	20.1	0.00e+00	0	44	102	1048576	6	3883
2026-01-25 12:26:15.37	342.07	35.16	-22.8	-23.4	20.2	0.00e+00	0	44	102	1048576	6	3874
2026-01-25 12:26:16.37	342.05	34.94	-22.7	-23.2	20.2	0.00e+00	0	44	102	1048576	6	3837
2026-01-25 12:26:17.38	342.04	34.71	-22.7	-23.3	20.2	0.00e+00	0	44	102	1048576	6	3847
2026-01-25 12:26:18.39	342.03	34.49	-22.7	-23.2	20.2	0.00e+00	0	44	102	1048576	6	3841
2026-01-25 12:26:19.39	342.02	34.27	-22.8	-23.4	20.1	0.00e+00	0	44	102	1048576	6	3885
2026-01-25 12:26:20.39	342.01	34.05	-22.9	-23.8	19.9	0.00e+00	0	44	102	1048576	6	3966
2026-01-25 12:26:21.39	342.00	33.83	-23.0	-23.9	19.9	0.00e+00	0	44	102	1048576	6	3998
2026-01-25 12:26:22.39	341.99	33.61	-23.2	-24.4	19.6	0.00e+00	0	44	102	1048576	6	4121
2026-01-25 12:26:23.39	341.98	33.40	-23.4	-24.8	19.4	0.00e+00	0	44	102	1048576	6	4218
2026-01-25 12:26:24.40	341.97	33.18	-23.4	-24.8	19.4	0.00e+00	0	44	102	1048576	6	4221
2026-01-25 12:26:25.41	341.96	32.97	-23.7	-24.9	19.1	0.00e+00	0	44	102	1048576	7	4141
2026-01-25 12:26:26.42	341.95	32.76	-23.8	-25.1	19.0	0.00e+00	0	44	102	1048576	7	4198
2026-01-25 12:26:27.42	341.94	32.55	-23.6	-24.6	19.3	0.00e+00	0	44	102	1048576	7	4063
2026-01-25 12:26:28.43	341.93	32.34	-23.4	-24.4	19.4	0.00e+00	0	44	102	1048576	7	4003
2026-01-25 12:26:29.43	341.92	32.13	-23.4	-24.3	19.4	0.00e+00	0	44	102	1048576	7	3994
2026-01-25 12:26:30.44	341.92	31.93	-23.4	-24.2	19.4	0.00e+00	0	44	102	1048576	7	3952
2026-01-25 12:26:31.44	341.91	31.72	-23.3	-24.1	19.5	0.00e+00	0	44	102	1048576	7	3928
2026-01-25 12:26:32.45	341.90	31.52	-23.3	-24.0	19.6	0.00e+00	0	44	102	1048576	7	3911
2026-01-25 12:26:33.44	341.89	31.32	-23.0	-23.4	19.8	0.00e+00	0	44	102	1048576	7	3779
2026-01-25 12:26:34.45	341.88	31.12	-22.9	-23.1	20.0	0.00e+00	0	44	102	1048576	7	3713
2026-01-25 12:26:35.45	341.87	30.92	-22.8	-22.9	20.1	0.00e+00	0	44	102	1048576	7	3663
2026-01-25 12:26:36.44	341.87	30.73	-22.7	-23.3	20.1	0.00e+00	0	44	102	1048576	6	3851
2026-01-25 12:26:37.45	341.86	30.53	-22.7	-23.3	20.1	0.00e+00	0	44	102	1048576	6	3847
2026-01-25 12:26:38.45	341.85	30.34	-22.8	-23.5	20.1	0.00e+00	0	44	102	1048576	6	3893
2026-01-25 12:26:39.45	341.84	30.15	-22.8	-23.6	20.0	0.00e+00	0	44	102	1048576	6	3911
2026-01-25 12:26:40.46	341.84	29.95	-22.8	-23.5	20.0	0.00e+00	0	44	102	1048576	6	3899
2026-01-25 12:26:41.46	341.83	29.76	-22.9	-23.7	19.9	0.00e+00	0	44	102	1048576	6	3941
2026-01-25 12:26:42.46	341.82	29.58	-22.9	-23.8	19.9	0.00e+00	0	44	102	1048576	6	3965
2026-01-25 12:26:43.47	341.82	29.39	-23.1	-24.0	19.7	0.00e+00	0	44	102	1048576	6	4032
2026-01-25 12:26:44.47	341.81	29.20	-23.2	-24.3	19.6	0.00e+00	0	44	102	1048576	6	4105
2026-01-25 12:26:45.47	341.80	29.02	-23.2	-24.4	19.6	0.00e+00	0	44	102	1048576	6	4115
2026-01-25 12:26:46.48	341.80	28.83	-23.3	-24.5	19.5	0.00e+00	0	44	102	1048576	6	4136
2026-01-25 12:26:47.48	341.79	28.65	-23.2	-24.3	19.6	0.00e+00	0	44	102	1048576	6	4106
2026-01-25 12:26:48.47	341.78	28.47	-23.2	-24.3	19.6	0.00e+00	0	44	102	1048576	6	4095
2026-01-25 12:26:49.48	341.78	28.29	-23.1	-24.2	19.6	0.00e+00	0	44	102	1048576	6	4077
2026-01-25 12:26:50.49	341.77	28.11	-23.3	-24.5	19.6	0.00e+00	0	44	102	1048576	6	4144
2026-01-25 12:26:51.49	341.77	27.93	-23.2	-24.4	19.6	0.00e+00	0	44	102	1048576	6	4124
2026-01-25 12:26:52.49	341.76	27.75	-23.0	-23.9	19.8	0.00e+00	0	44	102	1048576	6	3985
2026-01-25 12:26:53.48	341.75	27.58	-22.8	-23.6	20.0	0.00e+00	0	44	102	1048576	6	3916
2026-01-25 12:26:54.49	341.75	27.40	-22.8	-23.6	20.0	0.00e+00	0	44	102	1048576	6	3915
2026-01-25 12:26:55.50	341.74	27.23	-22.9	-23.6	19.9	0.00e+00	0	44	102	1048576	6	3930
2026-01-25 12:26:56.49	341.74	27.06	-22.8	-23.6	20.0	0.00e+00	0	44	102	1048576	6	3915
2026-01-25 12:26:57.50	341.73	26.88	-22.9	-23.7	19.9	0.00e+00	0	44	102	1048576	6	3947
2026-01-25 12:26:58.50	341.73	26.71	-23.0	-23.9	19.8	0.00e+00	0	44	102	1048576	6	3999
2026-01-25 12:26:59.51	341.72	26.54	-23.0	-24.0	19.8	0.00e+00	0	44	102	1048576	6	4015
2026-01-25 12:27:00.51	341.72	26.38	-23.1	-24.2	19.6	0.00e+00	0	44	102	1048576	6	4064
2026-01-25 12:27:01.51	341.71	26.21	-23.2	-24.3	19.6	0.00e+00	0	44	102	1048576	6	4094
2026-01-25 12:27:02.52	341.71	26.04	-23.3	-24.4	19.5	0.00e+00	0	44	102	1048576	6	4131
2026-01-25 12:27:03.53	341.70	25.88	-23.3	-24.5	19.5	0.00e+00	0	44	102	1048576	6	4158
2026-01-25 12:27:04.54	341.70	25.71	-23.3	-24.6	19.4	0.00e+00	0	44	102	1048576	6	4181
2026-01-25 12:27:05.54	341.69	25.55	-23.4	-24.7	19.4	0.00e+00	0	44	102	1048576	6	4212
2026-01-25 12:27:06.55	341.69	25.39	-23.5	-24.5	19.2	0.00e+00	0	44	102	1048576	7	4047
2026-01-25 12:27:07.55	341.68	25.22	-23.8	-25.1	18.9	0.00e+00	0	44	102	1048576	7	4182
2026-01-25 12:27:08.56	341.68	25.06	-23.8	-25.1	18.9	0.00e+00	0	44	102	1048576	7	4187
2026-01-25 12:27:09.56	341.68	24.91	-23.7	-24.9	19.0	0.00e+00	0	44	102	1048576	7	4131
2026-01-25 12:27:10.57	341.67	24.75	-23.7	-24.8	19.0	0.00e+00	0	44	102	1048576	7	4110
2026-01-25 12:27:11.57	341.67	24.59	-23.7	-24.9	19.0	0.00e+00	0	44	102	1048576	7	4131
2026-01-25 12:27:12.57	341.66	24.43	-23.8	-25.0	18.9	0.00e+00	0	44	102	1048576	7	4160
2026-01-25 12:27:13.58	341.66	24.28	-23.8	-25.0	18.9	0.00e+00	0	44	102	1048576	7	4170
2026-01-25 12:27:14.59	341.66	24.12	-23.8	-25.1	18.9	0.00e+00	0	44	102	1048576	7	4176
2026-01-25 12:27:15.59	341.65	23.97	-23.6	-24.8	19.0	0.00e+00	0	44	102	1048576	7	4098
2026-01-25 12:27:16.61	341.65	23.81	-23.5	-24.6	19.1	0.00e+00	0	44	102	1048576	7	4050
2026-01-25 12:27:17.61	341.64	23.66	-23.6	-24.8	19.0	0.00e+00	0	44	102	1048576	7	4095
2026-01-25 12:27:18.62	341.64	23.51	-23.6	-24.8	19.0	0.00e+00	0	44	102	1048576	7	4104
2026-01-25 12:27:19.62	341.64	23.36	-23.7	-24.8	19.0	0.00e+00	0	44	102	1048576	7	4112
2026-01-25 12:27:20.63	341.63	23.21	-23.8	-25.2	18.8	0.00e+00	0	44	102	1048576	7	4204
2026-01-25 12:27:21.63	341.63	23.06	-24.0	-25.5	18.6	0.00e+00	0	44	102	1048576	7	4284
2026-01-25 12:27:22.64	341.63	22.91	-24.2	-25.5	18.4	0.00e+00	0	44	102	1048576	8	4165
2026-01-25 12:27:23.64	341.62	22.77	-24.3	-25.6	18.3	0.00e+00	0	44	102	1048576	8	4197
2026-01-25 12:27:24.65	341.62	22.62	-24.3	-25.7	18.3	0.00e+00	0	44	102	1048576	8	4225
2026-01-25 12:27:25.66	341.62	22.48	-24.4	-25.9	18.2	0.00e+00	0	44	102	1048576	8	4264
2026-01-25 12:27:26.66	341.62	22.33	-24.4	-25.9	18.1	0.00e+00	0	44	102	1048576	8	4286
2026-01-25 12:27:27.67	341.61	22.19	-24.5	-25.6	18.0	0.00e+00	0	44	102	1048576	9	4085
2026-01-25 12:27:28.67	341.61	22.05	-24.7	-25.9	17.9	0.00e+00	0	44	102	1048576	9	4170
2026-01-25 12:27:29.67	341.61	21.90	-24.6	-25.8	18.0	0.00e+00	0	44	102	1048576	9	4129
2026-01-25 12:27:30.67	341.60	21.76	-24.4	-25.4	18.2	0.00e+00	0	44	102	1048576	9	4041
2026-01-25 12:27:31.67	341.60	21.62	-24.3	-25.2	18.3	0.00e+00	0	44	102	1048576	9	3989
2026-01-25 12:27:32.68	341.60	21.48	-24.3	-25.2	18.2	0.00e+00	0	44	102	1048576	9	3993
2026-01-25 12:27:33.68	341.60	21.35	-24.5	-25.5	18.1	0.00e+00	0	44	102	1048576	9	4067
2026-01-25 12:27:34.68	341.59	21.21	-24.6	-25.8	17.9	0.00e+00	0	44	102	1048576	9	4147
2026-01-25 12:27:35.69	341.59	21.07	-24.6	-25.8	17.9	0.00e+00	0	44	102	1048576	9	4145
2026-01-25 12:27:36.70	341.59	20.93	-24.5	-25.6	18.0	0.00e+00	0	44	102	1048576	9	4082
2026-01-25 12:27:37.71	341.59	20.80	-24.4	-25.4	18.1	0.00e+00	0	44	102	1048576	9	4043
2026-01-25 12:27:38.70	341.58	20.66	-24.4	-25.3	18.2	0.00e+00	0	44	102	1048576	9	4005
2026-01-25 12:27:39.70	341.58	20.53	-24.4	-25.3	18.1	0.00e+00	0	44	102	1048576	9	4023
2026-01-25 12:27:40.71	341.58	20.40	-24.4	-25.3	18.1	1.10e-06	0	44	102	1048576	9	4018
2026-01-25 12:27:41.71	341.58	20.26	-24.6	-25.7	17.9	0.00e+00	0	44	102	1048576	9	4119
2026-01-25 12:27:42.71	341.58	20.13	-24.5	-25.6	18.0	0.00e+00	0	44	102	1048576	9	4074
2026-01-25 12:27:43.71	341.57	20.00	-24.3	-25.1	18.2	0.00e+00	0	44	102	1048576	9	3957
2026-01-25 12:27:44.72	341.57	19.87	-24.2	-24.9	18.4	0.00e+00	0	44	102	1048576	9	3917
2026-01-25 12:27:45.72	341.57	19.74	-24.3	-25.1	18.3	0.00e+00	0	44	102	1048576	9	3956
2026-01-25 12:27:46.73	341.57	19.61	-24.2	-25.0	18.3	0.00e+00	0	44	102	1048576	9	3939
2026-01-25 12:27:47.73	341.57	19.48	-24.2	-25.0	18.3	0.00e+00	0	44	102	1048576	9	3944
2026-01-25 12:27:48.73	341.57	19.36	-24.3	-25.1	18.2	0.00e+00	0	44	102	1048576	9	3972
2026-01-25 12:27:49.74	341.56	19.23	-24.3	-25.2	18.2	0.00e+00	0	44	102	1048576	9	3979
2026-01-25 12:27:50.74	341.56	19.10	-24.3	-25.2	18.2	0.00e+00	0	44	102	1048576	9	3989
2026-01-25 12:27:51.74	341.56	18.98	-24.5	-25.6	17.9	0.00e+00	0	44	102	1048576	9	4090
2026-01-25 12:27:52.75	341.56	18.85	-24.5	-25.6	17.9	0.00e+00	0	44	102	1048576	9	4089
2026-01-25 12:27:53.75	341.56	18.73	-24.5	-25.5	18.0	0.00e+00	0	44	102	1048576	9	4049
2026-01-25 12:27:54.76	341.56	18.60	-24.4	-25.4	18.0	0.00e+00	0	44	102	1048576	9	4034
2026-01-25 12:27:55.77	341.55	18.48	-24.5	-25.5	18.0	0.00e+00	0	44	102	1048576	9	4049
2026-01-25 12:27:56.77	341.55	18.35	-24.5	-25.5	18.0	0.00e+00	0	44	102	1048576	9	4071
2026-01-25 12:27:57.78	341.55	18.23	-24.5	-25.7	17.9	0.00e+00	0	44	102	1048576	9	4099
2026-01-25 12:27:58.79	341.55	18.11	-24.5	-25.7	17.9	0.00e+00	0	44	102	1048576	9	4099
2026-01-25 12:27:59.79	341.55	17.99	-24.6	-25.8	17.8	0.00e+00	0	44	102	1048576	9	4139
2026-01-25 12:28:00.79	341.55	17.87	-24.8	-26.2	17.6	0.00e+00	0	44	102	1048576	9	4243
2026-01-25 12:28:01.80	341.55	17.75	-24.7	-26.1	17.6	0.00e+00	0	44	102	1048576	9	4210
2026-01-25 12:28:02.80	341.55	17.63	-24.7	-25.9	17.7	0.00e+00	0	44	102	1048576	9	4168
2026-01-25 12:28:03.80	341.54	17.51	-24.7	-26.1	17.6	0.00e+00	0	44	102	1048576	9	4211
2026-01-25 12:28:04.80	341.54	17.39	-24.7	-26.1	17.7	0.00e+00	0	44	102	1048576	9	4208
2026-01-25 12:28:05.79	341.54	17.28	-24.8	-26.2	17.6	0.00e+00	0	44	102	1048576	9	4226
2026-01-25 12:28:06.80	341.54	17.16	-24.8	-26.2	17.6	0.00e+00	0	44	102	1048576	9	4240
2026-01-25 12:28:07.80	341.54	17.04	-24.8	-26.3	17.5	0.00e+00	0	44	102	1048576	9	4259
2026-01-25 12:28:08.80	341.54	16.93	-24.6	-26.1	17.3	1.10e-06	0	44	102	1048576	9	4309
2026-01-25 12:28:09.81	341.54	16.81	-24.7	-26.5	17.0	1.00e-03	0	44	102	1048576	9	4408
2026-01-25 12:28:10.82	341.54	16.70	-24.7	-26.5	16.9	2.53e-03	0	44	102	1048576	9	4427
2026-01-25 12:28:11.82	341.54	16.58	-24.7	-26.5	17.0	2.39e-03	0	44	102	1048576	9	4436
2026-01-25 12:28:12.83	341.54	16.47	-25.3	-26.9	16.9	3.84e-04	0	44	102	1048576	10	4302
2026-01-25 12:28:13.83	341.54	16.36	-25.2	-26.6	17.0	0.00e+00	0	44	102	1048576	10	4238
2026-01-25 12:28:14.83	341.54	16.24	-25.1	-26.5	17.1	0.00e+00	0	44	102	1048576	10	4196
2026-01-25 12:28:15.83	341.54	16.13	-25.2	-26.6	17.1	0.00e+00	0	44	102	1048576	10	4215
2026-01-25 12:28:16.84	341.53	16.02	-25.2	-26.5	17.1	0.00e+00	0	44	102	1048576	10	4215
2026-01-25 12:28:17.84	341.53	15.91	-25.1	-26.4	17.1	0.00e+00	0	44	102	1048576	10	4185
2026-01-25 12:28:18.85	341.53	15.80	-25.1	-26.3	17.2	0.00e+00	0	44	102	1048576	10	4160
2026-01-25 12:28:19.86	341.53	15.69	-25.1	-26.3	17.2	0.00e+00	0	44	102	1048576	10	4144
2026-01-25 12:28:20.85	341.53	15.58	-25.1	-26.3	17.2	0.00e+00	0	44	102	1048576	10	4162
2026-01-25 12:28:21.86	341.53	15.47	-25.1	-26.4	17.1	0.00e+00	0	44	102	1048576	10	4186
2026-01-25 12:28:22.87	341.53	15.36	-25.2	-26.5	17.1	0.00e+00	0	44	102	1048576	10	4196
2026-01-25 12:28:23.87	341.53	15.25	-25.2	-26.5	17.1	0.00e+00	0	44	102	1048576	10	4207
2026-01-25 12:28:24.88	341.53	15.14	-25.3	-26.7	16.9	0.00e+00	0	44	102	1048576	10	4264
2026-01-25 12:28:25.88	341.53	15.04	-25.2	-26.7	17.0	0.00e+00	0	44	102	1048576	10	4251
2026-01-25 12:28:26.89	341.53	14.93	-25.3	-26.9	16.9	0.00e+00	0	44	102	1048576	10	4296
2026-01-25 12:28:27.89	341.53	14.82	-25.5	-26.8	16.6	0.00e+00	0	44	102	1048576	11	4159
2026-01-25 12:28:28.90	341.53	14.72	-25.8	-27.4	16.3	0.00e+00	0	44	102	1048576	11	4337
2026-01-25 12:28:29.90	341.53	14.61	-25.6	-27.0	16.5	0.00e+00	0	44	102	1048576	11	4229
2026-01-25 12:28:30.90	341.53	14.51	-25.7	-27.2	16.4	0.00e+00	0	44	102	1048576	11	4278
2026-01-25 12:28:31.91	341.53	14.40	-25.7	-27.1	16.4	0.00e+00	0	44	102	1048576	11	4245
2026-01-25 12:28:32.92	341.53	14.30	-25.6	-27.0	16.4	1.10e-06	0	44	102	1048576	11	4233
2026-01-25 12:28:33.92	341.53	14.19	-25.7	-27.2	16.4	0.00e+00	0	44	102	1048576	11	4262
2026-01-25 12:28:34.92	341.53	14.09	-25.8	-27.3	16.3	1.10e-06	0	44	102	1048576	11	4317
2026-01-25 12:28:35.93	341.53	13.99	-25.7	-27.3	16.3	1.10e-06	0	44	102	1048576	11	4301
2026-01-25 12:28:36.93	341.53	13.89	-26.0	-27.3	16.0	0.00e+00	0	44	102	1048576	12	4196
2026-01-25 12:28:37.93	341.53	13.79	-25.7	-26.8	16.2	0.00e+00	0	44	102	1048576	12	4066
2026-01-25 12:28:38.94	341.53	13.68	-25.6	-26.4	16.4	3.40e-06	0	44	102	1048576	12	3967
2026-01-25 12:28:39.95	341.53	13.58	-25.5	-26.3	16.5	0.00e+00	0	44	102	1048576	12	3929
2026-01-25 12:28:40.95	341.53	13.48	-25.6	-26.4	16.4	0.00e+00	0	44	102	1048576	12	3965
2026-01-25 12:28:41.95	341.53	13.38	-25.5	-26.3	16.5	1.10e-06	0	44	102	1048576	12	3947
2026-01-25 12:28:42.96	341.53	13.28	-25.5	-26.3	16.5	0.00e+00	0	44	102	1048576	12	3943
2026-01-25 12:28:43.97	341.53	13.18	-25.6	-26.4	16.4	0.00e+00	0	44	102	1048576	12	3965
2026-01-25 12:28:44.97	341.53	13.08	-25.6	-26.4	16.4	0.00e+00	0	44	102	1048576	12	3976
2026-01-25 12:28:45.97	341.53	12.99	-25.6	-26.5	16.3	0.00e+00	0	44	102	1048576	12	4002
2026-01-25 12:28:46.97	341.53	12.89	-25.7	-26.8	16.2	0.00e+00	0	44	102	1048576	12	4069
2026-01-25 12:28:47.97	341.53	12.79	-25.7	-26.7	16.2	1.10e-06	0	44	102	1048576	12	4056
2026-01-25 12:28:48.97	341.53	12.69	-25.8	-26.9	16.1	0.00e+00	0	44	102	1048576	12	4099
2026-01-25 12:28:49.97	341.53	12.60	-25.9	-27.1	16.0	0.00e+00	0	44	102	1048576	12	4132
2026-01-25 12:28:50.97	341.53	12.50	-25.9	-27.1	16.0	0.00e+00	0	44	102	1048576	12	4150
2026-01-25 12:28:51.98	341.53	12.40	-26.0	-27.4	15.9	0.00e+00	0	44	102	1048576	12	4221
2026-01-25 12:28:52.97	341.53	12.31	-25.9	-27.2	15.9	0.00e+00	0	44	102	1048576	12	4184
2026-01-25 12:28:53.97	341.54	12.22	-26.0	-27.4	15.8	0.00e+00	0	44	102	1048576	12	4237
2026-01-25 12:28:54.98	341.54	12.12	-26.0	-27.4	15.8	0.00e+00	0	44	102	1048576	12	4224
2026-01-25 12:28:55.98	341.54	12.03	-26.2	-27.8	15.6	0.00e+00	0	44	102	1048576	12	4334
2026-01-25 12:28:56.99	341.54	11.93	-26.1	-27.7	15.6	0.00e+00	0	44	102	1048576	12	4305
2026-01-25 12:28:58.00	341.54	11.84	-26.2	-27.9	15.5	0.00e+00	0	44	102	1048576	12	4364
2026-01-25 12:28:59.00	341.54	11.74	-26.2	-27.8	15.6	0.00e+00	0	44	102	1048576	12	4334
2026-01-25 12:29:00.01	341.54	11.65	-26.0	-27.5	15.8	0.00e+00	0	44	102	1048576	12	4247
2026-01-25 12:29:01.01	341.54	11.56	-25.9	-27.3	15.8	0.00e+00	0	44	102	1048576	12	4191
2026-01-25 12:29:02.01	341.54	11.46	-25.9	-27.3	15.8	0.00e+00	0	44	102	1048576	12	4192
2026-01-25 12:29:03.02	341.54	11.37	-26.0	-27.3	15.8	0.00e+00	0	44	102	1048576	12	4204
2026-01-25 12:29:04.02	341.54	11.28	-26.1	-27.6	15.7	0.00e+00	0	44	102	1048576	12	4280
2026-01-25 12:29:05.02	341.54	11.19	-26.0	-27.4	15.7	0.00e+00	0	44	102	1048576	12	4234
2026-01-25 12:29:06.02	341.54	11.10	-26.1	-27.7	15.6	0.00e+00	0	44	102	1048576	12	4308
2026-01-25 12:29:07.03	341.54	11.01	-26.1	-27.6	15.7	0.00e+00	0	44	102	1048576	12	4278
2026-01-25 12:29:08.03	341.55	10.92	-26.1	-27.7	15.6	0.00e+00	0	44	102	1048576	12	4299
2026-01-25 12:29:09.03	341.55	10.83	-26.1	-27.6	15.6	0.00e+00	0	44	102	1048576	12	4294
2026-01-25 12:29:10.04	341.55	10.74	-26.2	-27.8	15.5	0.00e+00	0	44	102	1048576	12	4340
2026-01-25 12:29:11.04	341.55	10.65	-26.2	-27.8	15.5	0.00e+00	0	44	102	1048576	12	4336
2026-01-25 12:29:12.05	341.55	10.56	-26.2	-27.9	15.4	0.00e+00	0	44	102	1048576	12	4373
2026-01-25 12:29:13.06	341.55	10.47	-26.2	-27.9	15.5	0.00e+00	0	44	102	1048576	12	4365
2026-01-25 12:29:14.06	341.55	10.38	-26.3	-28.1	15.3	0.00e+00	0	44	102	1048576	12	4421
2026-01-25 12:29:15.06	341.55	10.29	-26.3	-28.0	15.4	0.00e+00	0	44	102	1048576	12	4393
2026-01-25 12:29:16.07	341.55	10.21	-26.2	-27.9	15.4	0.00e+00	0	44	102	1048576	12	4378
2026-01-25 12:29:17.08	341.55	10.12	-26.3	-28.0	15.4	0.00e+00	0	44	102	1048576	12	4398
2026-01-25 12:29:18.08	341.55	10.03	-26.3	-28.1	15.3	0.00e+00	0	44	102	1048576	12	4424
2026-01-25 12:29:19.09	341.56	9.94	-26.3	-28.2	15.2	0.00e+00	0	44	102	1048576	12	4450
2026-01-25 12:29:20.09	341.56	9.86	-26.3	-28.1	15.3	0.00e+00	0	44	102	1048576	12	4436
2026-01-25 12:29:21.09	341.56	9.77	-26.4	-28.2	15.2	0.00e+00	0	44	102	1048576	12	4464
2026-01-25 12:29:22.09	341.56	9.68	-26.4	-28.2	15.2	0.00e+00	0	44	102	1048576	12	4465
2026-01-25 12:29:23.10	341.56	9.60	-26.5	-28.4	15.1	1.10e-06	0	44	102	1048576	12	4525
2026-01-25 12:29:24.10	341.56	9.51	-26.4	-28.3	15.1	0.00e+00	0	44	102	1048576	12	4492
