passes_logs/2026/01/25/R2M6_AANII_01/R2M6_AANII_01__20260125_103904_FENGYUN_3D_rec.log

#Pass ID: 20260125_103904_FENGYUN 3D
#Satellite: FENGYUN 3D
#Configuration: FENGYUN 3D
#almurnet v.1.7.20240730
#Start time: 2026-01-25 10:39:05

#Version: 2.2.20231116
#Station: R2M6_AANII_01
#Location: 30.233357 lon 59.946436 lat
#TLE: 1 43010U 17072A   26024.51794477  .00000040  00000+0  40682-4 0  9990
#TLE: 2 43010  98.9961 356.4820 0002494  91.2631 268.8830 14.19699550424601

#Time	Az	El	Level	Level2	SNR	BER	BlckErr	Temp	State	Recorded	gain1	gain2
2026-01-25 10:39:05.83	106.54	7.08	-30.8	-34.4	5.1	7.95e-01	0	41	0	0	22	5477
2026-01-25 10:39:06.83	106.46	7.14	-30.4	-33.2	5.3	7.87e-01	0	41	104	0	22	4972
2026-01-25 10:39:07.84	106.37	7.21	-30.3	-33.0	9.3	2.38e-02	0	41	0	0	22	4895
2026-01-25 10:39:08.84	106.29	7.28	-30.3	-33.0	9.3	2.28e-02	0	41	102	1048576	22	4907
2026-01-25 10:39:09.85	106.20	7.35	-30.3	-32.9	9.4	2.41e-02	0	42	102	1048576	22	4847
2026-01-25 10:39:10.84	106.12	7.41	-30.3	-33.4	9.4	2.03e-02	0	41	102	1048576	21	5162
2026-01-25 10:39:11.84	106.03	7.48	-30.6	-34.2	8.8	2.67e-02	0	42	102	1048576	21	5479
2026-01-25 10:39:12.84	105.95	7.55	-30.3	-33.5	9.3	2.82e-02	0	42	102	1048576	21	5198
2026-01-25 10:39:13.85	105.86	7.62	-29.8	-32.1	10.2	1.08e-02	0	42	102	1048576	21	4690
2026-01-25 10:39:14.85	105.78	7.69	-29.3	-31.7	11.3	2.29e-03	0	42	102	1048576	19	4740
2026-01-25 10:39:15.85	105.69	7.75	-28.9	-30.6	11.9	7.54e-04	0	42	102	1048576	19	4400
2026-01-25 10:39:16.86	105.60	7.82	-28.5	-30.1	12.6	2.78e-04	0	42	102	1048576	18	4352
2026-01-25 10:39:17.86	105.51	7.89	-28.2	-29.9	13.1	5.83e-05	0	42	102	1048576	17	4388
2026-01-25 10:39:18.87	105.42	7.96	-27.9	-29.3	13.4	2.86e-05	0	42	102	1048576	17	4214
2026-01-25 10:39:19.87	105.34	8.03	-27.8	-28.9	13.6	1.02e-05	0	42	102	1048576	17	4116
2026-01-25 10:39:20.88	105.25	8.10	-27.7	-29.2	13.8	6.80e-06	0	42	102	1048576	16	4296
2026-01-25 10:39:21.88	105.16	8.17	-27.7	-29.2	13.8	1.02e-05	0	42	102	1048576	16	4294
2026-01-25 10:39:22.88	105.07	8.23	-27.6	-29.1	13.9	8.00e-06	0	42	102	1048576	16	4256
2026-01-25 10:39:23.88	104.98	8.30	-27.6	-29.0	13.9	6.80e-06	0	42	102	1048576	16	4222
2026-01-25 10:39:24.89	104.89	8.37	-27.6	-29.1	13.9	9.10e-06	0	42	102	1048576	16	4265
2026-01-25 10:39:25.89	104.79	8.44	-27.6	-29.0	13.9	5.70e-06	0	42	102	1048576	16	4226
2026-01-25 10:39:26.89	104.70	8.51	-27.6	-29.0	14.0	5.70e-06	0	42	102	1048576	16	4223
2026-01-25 10:39:27.90	104.61	8.58	-27.4	-28.7	14.2	5.70e-06	0	42	102	1048576	16	4142
2026-01-25 10:39:28.91	104.52	8.65	-27.5	-28.7	14.1	1.10e-06	0	42	102	1048576	16	4152
2026-01-25 10:39:29.91	104.42	8.72	-27.3	-28.4	14.3	1.10e-06	0	42	102	1048576	16	4067
2026-01-25 10:39:30.92	104.33	8.79	-27.5	-28.8	14.1	5.70e-06	0	42	102	1048576	16	4186
2026-01-25 10:39:31.91	104.24	8.86	-27.4	-28.5	14.3	4.50e-06	0	42	102	1048576	16	4101
2026-01-25 10:39:32.92	104.14	8.93	-27.1	-28.5	14.4	1.10e-06	0	42	102	1048576	15	4199
2026-01-25 10:39:33.93	104.05	9.00	-27.1	-28.4	14.5	4.50e-06	0	42	102	1048576	15	4181
2026-01-25 10:39:34.93	103.95	9.07	-27.0	-28.2	14.6	0.00e+00	0	42	102	1048576	15	4122
2026-01-25 10:39:35.94	103.85	9.14	-27.1	-28.4	14.4	0.00e+00	0	42	102	1048576	15	4177
2026-01-25 10:39:36.94	103.76	9.22	-27.1	-28.3	14.5	2.20e-06	0	42	102	1048576	15	4153
2026-01-25 10:39:37.94	103.66	9.29	-27.1	-28.3	14.5	2.20e-06	0	42	102	1048576	15	4157
2026-01-25 10:39:38.95	103.56	9.36	-27.2	-28.6	14.4	4.50e-06	0	42	102	1048576	15	4220
2026-01-25 10:39:39.95	103.47	9.43	-27.0	-28.2	14.6	0.00e+00	0	42	102	1048576	15	4119
2026-01-25 10:39:40.96	103.37	9.50	-26.9	-28.0	14.7	0.00e+00	0	42	102	1048576	15	4068
2026-01-25 10:39:41.97	103.27	9.57	-26.9	-28.0	14.7	0.00e+00	0	42	102	1048576	15	4066
2026-01-25 10:39:42.97	103.17	9.64	-27.1	-28.3	14.5	0.00e+00	0	42	102	1048576	15	4151
2026-01-25 10:39:43.98	103.07	9.72	-27.0	-28.2	14.7	1.10e-06	0	42	102	1048576	15	4124
2026-01-25 10:39:44.98	102.97	9.79	-27.0	-28.1	14.7	1.10e-06	0	42	102	1048576	15	4094
2026-01-25 10:39:45.99	102.87	9.86	-27.1	-28.4	14.5	2.20e-06	0	42	102	1048576	15	4177
2026-01-25 10:39:46.99	102.76	9.93	-27.0	-28.2	14.6	1.10e-06	0	42	102	1048576	15	4127
2026-01-25 10:39:48.00	102.66	10.00	-27.1	-28.5	14.5	0.00e+00	0	42	102	1048576	15	4194
2026-01-25 10:39:49.00	102.56	10.08	-27.0	-28.2	14.6	0.00e+00	0	43	102	1048576	15	4119
2026-01-25 10:39:50.01	102.46	10.15	-27.0	-28.1	14.7	0.00e+00	0	42	102	1048576	15	4109
2026-01-25 10:39:51.02	102.35	10.22	-27.0	-28.2	14.7	1.10e-06	0	42	102	1048576	15	4116
2026-01-25 10:39:52.03	102.25	10.29	-27.0	-28.2	14.6	2.20e-06	0	43	102	1048576	15	4128
2026-01-25 10:39:53.04	102.14	10.37	-27.0	-28.1	14.7	1.10e-06	0	42	102	1048576	15	4094
2026-01-25 10:39:54.04	102.04	10.44	-27.1	-28.3	14.6	2.20e-06	0	42	102	1048576	15	4164
2026-01-25 10:39:55.05	101.93	10.51	-27.0	-28.2	14.7	1.10e-06	0	42	102	1048576	15	4135
2026-01-25 10:39:56.06	101.82	10.59	-27.0	-28.1	14.7	0.00e+00	0	42	102	1048576	15	4107
2026-01-25 10:39:57.06	101.72	10.66	-27.0	-28.1	14.7	0.00e+00	0	43	102	1048576	15	4106
2026-01-25 10:39:58.07	101.61	10.73	-27.2	-28.5	14.5	2.20e-06	0	43	102	1048576	15	4204
2026-01-25 10:39:59.07	101.50	10.81	-27.0	-28.1	14.8	0.00e+00	0	43	102	1048576	15	4098
2026-01-25 10:40:00.07	101.39	10.88	-27.1	-28.4	14.6	0.00e+00	0	43	102	1048576	15	4170
2026-01-25 10:40:01.07	101.29	10.95	-27.3	-28.8	14.4	2.20e-06	0	43	102	1048576	15	4287
2026-01-25 10:40:02.07	101.18	11.03	-27.0	-28.2	14.7	1.10e-06	0	43	102	1048576	15	4131
2026-01-25 10:40:03.08	101.07	11.10	-26.9	-28.0	14.8	1.10e-06	0	43	102	1048576	15	4062
2026-01-25 10:40:04.09	100.95	11.18	-26.9	-27.9	14.9	0.00e+00	0	43	102	1048576	15	4042
2026-01-25 10:40:05.09	100.84	11.25	-26.9	-28.0	14.9	0.00e+00	0	43	102	1048576	15	4065
2026-01-25 10:40:06.09	100.73	11.32	-26.9	-27.9	14.9	0.00e+00	0	43	102	1048576	15	4043
2026-01-25 10:40:07.10	100.62	11.40	-26.9	-27.9	14.9	0.00e+00	0	42	102	1048576	15	4049
2026-01-25 10:40:08.10	100.51	11.47	-26.9	-27.9	14.9	0.00e+00	0	43	102	1048576	15	4036
2026-01-25 10:40:09.10	100.39	11.55	-26.9	-27.9	14.9	0.00e+00	0	43	102	1048576	15	4033
2026-01-25 10:40:10.11	100.28	11.62	-27.0	-28.2	14.7	0.00e+00	0	43	102	1048576	15	4125
2026-01-25 10:40:11.11	100.16	11.70	-26.8	-28.1	15.0	0.00e+00	0	43	102	1048576	14	4207
2026-01-25 10:40:12.11	100.05	11.77	-26.8	-28.2	15.0	0.00e+00	0	43	102	1048576	14	4240
2026-01-25 10:40:13.12	99.93	11.85	-26.7	-28.0	15.1	0.00e+00	0	43	102	1048576	14	4168
2026-01-25 10:40:14.12	99.82	11.92	-26.6	-27.8	15.2	1.10e-06	0	43	102	1048576	14	4123
2026-01-25 10:40:15.13	99.70	12.00	-26.7	-28.0	15.1	0.00e+00	0	43	102	1048576	14	4182
2026-01-25 10:40:16.13	99.58	12.07	-26.5	-27.6	15.4	0.00e+00	0	43	102	1048576	14	4068
2026-01-25 10:40:17.13	99.46	12.15	-26.5	-27.5	15.4	0.00e+00	0	43	102	1048576	14	4044
2026-01-25 10:40:18.14	99.34	12.23	-26.5	-27.6	15.3	0.00e+00	0	43	102	1048576	14	4072
2026-01-25 10:40:19.14	99.22	12.30	-26.4	-27.3	15.5	0.00e+00	0	43	102	1048576	14	3996
2026-01-25 10:40:20.14	99.10	12.38	-26.4	-27.3	15.5	0.00e+00	0	43	102	1048576	14	3980
2026-01-25 10:40:21.15	98.98	12.45	-26.4	-27.3	15.6	0.00e+00	0	43	102	1048576	14	3997
2026-01-25 10:40:22.15	98.86	12.53	-26.4	-27.2	15.6	0.00e+00	0	43	102	1048576	14	3979
2026-01-25 10:40:23.16	98.74	12.61	-26.4	-27.3	15.6	0.00e+00	0	43	102	1048576	14	3986
2026-01-25 10:40:24.15	98.62	12.68	-26.5	-27.5	15.5	0.00e+00	0	43	102	1048576	14	4031
2026-01-25 10:40:25.16	98.49	12.76	-26.3	-27.1	15.7	0.00e+00	0	43	102	1048576	14	3938
2026-01-25 10:40:26.17	98.37	12.84	-26.2	-27.5	15.8	0.00e+00	0	43	102	1048576	13	4135
2026-01-25 10:40:27.17	98.24	12.91	-26.3	-27.6	15.7	0.00e+00	0	43	102	1048576	13	4170
2026-01-25 10:40:28.16	98.12	12.99	-26.4	-27.9	15.6	0.00e+00	0	43	102	1048576	13	4239
2026-01-25 10:40:29.16	97.99	13.06	-26.3	-27.6	15.7	0.00e+00	0	43	102	1048576	13	4169
2026-01-25 10:40:30.17	97.87	13.14	-26.3	-27.6	15.7	0.00e+00	0	43	102	1048576	13	4179
2026-01-25 10:40:31.17	97.74	13.22	-26.3	-27.6	15.7	0.00e+00	0	43	102	1048576	13	4176
2026-01-25 10:40:32.17	97.61	13.30	-26.5	-28.0	15.5	0.00e+00	0	43	102	1048576	13	4269
2026-01-25 10:40:33.17	97.48	13.37	-26.3	-27.6	15.8	0.00e+00	0	43	102	1048576	13	4161
2026-01-25 10:40:34.17	97.35	13.45	-26.4	-27.8	15.6	0.00e+00	0	43	102	1048576	13	4228
2026-01-25 10:40:35.17	97.22	13.53	-26.2	-27.3	15.9	0.00e+00	0	43	102	1048576	13	4091
2026-01-25 10:40:36.18	97.09	13.60	-26.1	-27.1	16.0	0.00e+00	0	43	102	1048576	13	4039
2026-01-25 10:40:37.18	96.96	13.68	-26.0	-27.0	16.1	0.00e+00	0	43	102	1048576	13	4020
2026-01-25 10:40:38.18	96.83	13.76	-26.1	-27.0	16.1	0.00e+00	0	43	102	1048576	13	4020
2026-01-25 10:40:39.18	96.70	13.84	-26.1	-27.1	16.1	0.00e+00	0	43	102	1048576	13	4032
2026-01-25 10:40:40.18	96.56	13.91	-26.0	-26.9	16.2	0.00e+00	0	43	102	1048576	13	3998
2026-01-25 10:40:41.18	96.43	13.99	-26.0	-26.9	16.2	0.00e+00	0	43	102	1048576	13	3981
2026-01-25 10:40:42.19	96.29	14.07	-26.1	-27.0	16.2	0.00e+00	0	43	102	1048576	13	4018
2026-01-25 10:40:43.20	96.16	14.15	-26.0	-26.9	16.2	0.00e+00	0	43	102	1048576	13	3982
2026-01-25 10:40:44.21	96.02	14.23	-26.0	-26.9	16.2	0.00e+00	0	43	102	1048576	13	3982
2026-01-25 10:40:45.20	95.88	14.31	-26.1	-27.0	16.1	0.00e+00	0	43	102	1048576	13	4017
2026-01-25 10:40:46.20	95.75	14.38	-25.9	-26.7	16.3	0.00e+00	0	43	102	1048576	13	3950
2026-01-25 10:40:47.20	95.61	14.46	-25.9	-26.6	16.4	0.00e+00	0	43	102	1048576	13	3928
2026-01-25 10:40:48.20	95.47	14.54	-25.9	-26.7	16.3	0.00e+00	0	43	102	1048576	13	3949
2026-01-25 10:40:49.21	95.33	14.62	-26.0	-26.9	16.3	0.00e+00	0	43	102	1048576	13	3997
2026-01-25 10:40:50.21	95.19	14.70	-26.1	-27.2	16.1	0.00e+00	0	43	102	1048576	13	4061
2026-01-25 10:40:51.21	95.05	14.78	-26.0	-26.8	16.3	0.00e+00	0	43	102	1048576	13	3959
2026-01-25 10:40:52.21	94.90	14.86	-25.9	-26.6	16.4	0.00e+00	0	43	102	1048576	13	3921
2026-01-25 10:40:53.22	94.76	14.94	-25.9	-26.7	16.4	0.00e+00	0	43	102	1048576	13	3938
2026-01-25 10:40:54.22	94.62	15.01	-26.0	-26.8	16.4	0.00e+00	0	43	102	1048576	13	3959
2026-01-25 10:40:55.22	94.47	15.09	-26.0	-26.9	16.3	0.00e+00	0	43	102	1048576	13	3990
2026-01-25 10:40:56.23	94.32	15.17	-25.9	-26.6	16.5	0.00e+00	0	43	102	1048576	13	3911
2026-01-25 10:40:57.23	94.18	15.25	-25.9	-26.6	16.5	0.00e+00	0	43	102	1048576	13	3902
2026-01-25 10:40:58.23	94.03	15.33	-25.9	-26.6	16.5	0.00e+00	0	43	102	1048576	13	3907
2026-01-25 10:40:59.23	93.88	15.41	-25.8	-26.8	16.6	0.00e+00	0	43	102	1048576	12	4074
2026-01-25 10:41:00.23	93.74	15.49	-25.8	-26.9	16.6	0.00e+00	0	43	102	1048576	12	4097
2026-01-25 10:41:01.24	93.58	15.57	-25.8	-27.0	16.5	0.00e+00	0	43	102	1048576	12	4119
2026-01-25 10:41:02.24	93.43	15.65	-25.7	-26.6	16.7	0.00e+00	0	43	102	1048576	12	4016
2026-01-25 10:41:03.24	93.28	15.73	-25.6	-26.6	16.8	0.00e+00	0	43	102	1048576	12	4006
2026-01-25 10:41:04.25	93.13	15.81	-25.7	-26.6	16.7	0.00e+00	0	43	102	1048576	12	4015
2026-01-25 10:41:05.26	92.98	15.89	-25.6	-26.6	16.8	0.00e+00	0	43	102	1048576	12	4013
2026-01-25 10:41:06.26	92.82	15.97	-25.7	-26.6	16.8	0.00e+00	0	43	102	1048576	12	4016
2026-01-25 10:41:07.26	92.67	16.05	-25.5	-26.4	16.9	0.00e+00	0	43	102	1048576	12	3961
2026-01-25 10:41:08.26	92.51	16.13	-25.5	-26.4	16.9	0.00e+00	0	44	102	1048576	12	3964
2026-01-25 10:41:09.26	92.36	16.21	-25.7	-26.6	16.7	0.00e+00	0	43	102	1048576	12	4032
2026-01-25 10:41:10.27	92.20	16.29	-25.6	-26.5	16.9	0.00e+00	0	43	102	1048576	12	3983
2026-01-25 10:41:11.27	92.04	16.37	-25.6	-26.5	16.8	0.00e+00	0	43	102	1048576	12	3993
2026-01-25 10:41:12.28	91.88	16.45	-25.6	-26.5	16.8	0.00e+00	0	43	102	1048576	12	3995
2026-01-25 10:41:13.29	91.72	16.53	-25.7	-26.6	16.8	0.00e+00	0	43	102	1048576	12	4027
2026-01-25 10:41:14.30	91.56	16.61	-25.8	-26.8	16.7	0.00e+00	0	43	102	1048576	12	4073
2026-01-25 10:41:15.30	91.40	16.69	-25.5	-26.4	16.9	0.00e+00	0	43	102	1048576	12	3964
2026-01-25 10:41:16.31	91.24	16.77	-25.5	-26.2	17.0	0.00e+00	0	43	102	1048576	12	3917
2026-01-25 10:41:17.31	91.07	16.85	-25.4	-26.2	17.0	0.00e+00	0	43	102	1048576	12	3908
2026-01-25 10:41:18.31	90.91	16.93	-25.4	-26.1	17.1	0.00e+00	0	43	102	1048576	12	3903
2026-01-25 10:41:19.31	90.75	17.01	-25.5	-26.2	17.0	0.00e+00	0	43	102	1048576	12	3920
2026-01-25 10:41:20.31	90.58	17.09	-25.5	-26.2	17.0	0.00e+00	0	43	102	1048576	12	3924
2026-01-25 10:41:21.32	90.41	17.17	-25.6	-26.5	16.9	0.00e+00	0	43	102	1048576	12	3991
2026-01-25 10:41:22.32	90.24	17.25	-25.5	-26.4	17.0	0.00e+00	0	43	102	1048576	12	3963
2026-01-25 10:41:23.32	90.08	17.33	-25.5	-26.3	17.0	0.00e+00	0	43	102	1048576	12	3938
2026-01-25 10:41:24.33	89.91	17.41	-25.5	-26.3	17.0	0.00e+00	0	43	102	1048576	12	3935
2026-01-25 10:41:25.34	89.73	17.50	-25.4	-26.0	17.2	0.00e+00	0	43	102	1048576	12	3869
2026-01-25 10:41:26.34	89.56	17.58	-25.4	-26.1	17.1	0.00e+00	0	43	102	1048576	12	3895
2026-01-25 10:41:27.33	89.39	17.66	-25.4	-26.1	17.1	0.00e+00	0	43	102	1048576	12	3887
2026-01-25 10:41:28.34	89.22	17.74	-25.3	-26.4	17.3	0.00e+00	0	43	102	1048576	11	4066
2026-01-25 10:41:29.34	89.05	17.82	-25.3	-26.2	17.4	0.00e+00	0	43	102	1048576	11	4023
2026-01-25 10:41:30.35	88.87	17.90	-25.3	-26.3	17.3	0.00e+00	0	43	102	1048576	11	4044
2026-01-25 10:41:31.35	88.69	17.98	-25.4	-26.5	17.2	0.00e+00	0	43	102	1048576	11	4093
2026-01-25 10:41:32.36	88.52	18.06	-25.3	-26.2	17.4	0.00e+00	0	43	102	1048576	11	4025
2026-01-25 10:41:33.37	88.34	18.14	-25.2	-26.2	17.4	0.00e+00	0	43	102	1048576	11	4021
2026-01-25 10:41:34.36	88.16	18.22	-25.2	-26.1	17.4	0.00e+00	0	44	102	1048576	11	4005
2026-01-25 10:41:35.37	87.98	18.30	-25.3	-26.4	17.3	0.00e+00	0	43	102	1048576	11	4066
2026-01-25 10:41:36.38	87.80	18.38	-25.4	-26.5	17.3	0.00e+00	0	43	102	1048576	11	4084
2026-01-25 10:41:37.38	87.62	18.46	-25.2	-26.0	17.5	0.00e+00	0	43	102	1048576	11	3964
2026-01-25 10:41:38.38	87.43	18.54	-25.0	-25.8	17.6	0.00e+00	0	43	102	1048576	11	3916
2026-01-25 10:41:39.38	87.25	18.62	-25.1	-25.8	17.6	0.00e+00	0	43	102	1048576	11	3921
2026-01-25 10:41:40.39	87.07	18.70	-25.1	-25.9	17.6	0.00e+00	0	44	102	1048576	11	3944
2026-01-25 10:41:41.38	86.88	18.78	-25.1	-26.0	17.6	0.00e+00	0	43	102	1048576	11	3961
2026-01-25 10:41:42.39	86.69	18.86	-25.2	-26.2	17.4	0.00e+00	0	43	102	1048576	11	4024
2026-01-25 10:41:43.39	86.51	18.94	-25.2	-26.1	17.5	0.00e+00	0	44	102	1048576	11	3986
2026-01-25 10:41:44.39	86.32	19.02	-25.1	-26.0	17.5	0.00e+00	0	44	102	1048576	11	3961
2026-01-25 10:41:45.40	86.13	19.10	-25.1	-26.0	17.5	0.00e+00	0	43	102	1048576	11	3961
2026-01-25 10:41:46.40	85.94	19.18	-25.2	-26.0	17.5	0.00e+00	0	43	102	1048576	11	3972
2026-01-25 10:41:47.41	85.75	19.26	-25.0	-25.7	17.7	0.00e+00	0	43	102	1048576	11	3905
2026-01-25 10:41:48.41	85.55	19.34	-25.0	-25.7	17.7	0.00e+00	0	43	102	1048576	11	3894
2026-01-25 10:41:49.41	85.36	19.42	-25.0	-25.8	17.7	0.00e+00	0	43	102	1048576	11	3916
2026-01-25 10:41:50.42	85.16	19.50	-25.2	-26.0	17.5	0.00e+00	0	44	102	1048576	11	3973
2026-01-25 10:41:51.43	84.97	19.58	-25.2	-26.0	17.5	0.00e+00	0	43	102	1048576	11	3982
2026-01-25 10:41:52.43	84.77	19.66	-25.0	-25.7	17.7	0.00e+00	0	43	102	1048576	11	3909
2026-01-25 10:41:53.44	84.57	19.74	-25.0	-25.7	17.7	0.00e+00	0	44	102	1048576	11	3909
2026-01-25 10:41:54.45	84.37	19.82	-25.1	-26.0	17.6	0.00e+00	0	43	102	1048576	11	3967
2026-01-25 10:41:55.46	84.17	19.89	-25.1	-25.9	17.6	0.00e+00	0	44	102	1048576	11	3940
2026-01-25 10:41:56.46	83.97	19.97	-25.1	-25.8	17.7	0.00e+00	0	44	102	1048576	11	3920
2026-01-25 10:41:57.46	83.77	20.05	-25.1	-25.9	17.6	0.00e+00	0	44	102	1048576	11	3937
2026-01-25 10:41:58.47	83.56	20.13	-24.9	-25.4	17.9	0.00e+00	0	44	102	1048576	11	3832
2026-01-25 10:41:59.47	83.36	20.21	-24.7	-25.6	18.0	0.00e+00	0	44	102	1048576	10	3972
2026-01-25 10:42:00.48	83.15	20.29	-24.6	-25.4	18.1	1.10e-06	0	43	102	1048576	10	3936
2026-01-25 10:42:01.48	82.95	20.37	-24.7	-25.5	18.1	0.00e+00	0	43	102	1048576	10	3962
2026-01-25 10:42:02.48	82.74	20.44	-24.7	-25.4	18.1	0.00e+00	0	43	102	1048576	10	3936
2026-01-25 10:42:03.49	82.53	20.52	-24.5	-25.1	18.3	0.00e+00	0	43	102	1048576	10	3851
2026-01-25 10:42:04.49	82.32	20.60	-24.4	-24.9	18.4	0.00e+00	0	44	102	1048576	10	3803
2026-01-25 10:42:05.50	82.11	20.68	-24.4	-25.0	18.4	0.00e+00	0	43	102	1048576	10	3830
2026-01-25 10:42:06.50	81.90	20.75	-24.5	-25.0	18.4	0.00e+00	0	43	102	1048576	10	3843
2026-01-25 10:42:07.50	81.69	20.83	-24.4	-24.9	18.4	0.00e+00	0	44	102	1048576	10	3821
2026-01-25 10:42:08.51	81.47	20.91	-24.5	-25.2	18.3	0.00e+00	0	44	102	1048576	10	3873
2026-01-25 10:42:09.51	81.26	20.98	-24.7	-25.5	18.1	1.10e-06	0	44	102	1048576	10	3956
2026-01-25 10:42:10.52	81.04	21.06	-24.7	-25.5	18.1	0.00e+00	0	44	102	1048576	10	3944
2026-01-25 10:42:11.52	80.83	21.14	-24.5	-25.2	18.2	0.00e+00	0	44	102	1048576	10	3878
2026-01-25 10:42:12.51	80.61	21.21	-24.5	-25.2	18.2	0.00e+00	0	44	102	1048576	10	3881
2026-01-25 10:42:13.51	80.39	21.29	-24.6	-25.2	18.2	0.00e+00	0	43	102	1048576	10	3894
2026-01-25 10:42:14.52	80.17	21.36	-24.6	-25.4	18.2	0.00e+00	0	43	102	1048576	10	3926
2026-01-25 10:42:15.52	79.95	21.44	-24.6	-25.4	18.2	0.00e+00	0	43	102	1048576	10	3925
2026-01-25 10:42:16.53	79.73	21.51	-24.7	-25.6	18.1	0.00e+00	0	44	102	1048576	10	3973
2026-01-25 10:42:17.54	79.50	21.59	-24.7	-25.6	18.1	0.00e+00	0	44	102	1048576	10	3978
2026-01-25 10:42:18.54	79.28	21.66	-24.5	-25.2	18.3	0.00e+00	0	44	102	1048576	10	3881
2026-01-25 10:42:19.54	79.06	21.74	-24.4	-25.0	18.4	0.00e+00	0	44	102	1048576	10	3843
2026-01-25 10:42:20.54	78.83	21.81	-24.5	-25.1	18.3	0.00e+00	0	44	102	1048576	10	3858
2026-01-25 10:42:21.55	78.60	21.89	-24.4	-25.0	18.4	0.00e+00	0	44	102	1048576	10	3829
2026-01-25 10:42:22.55	78.37	21.96	-24.3	-24.8	18.5	0.00e+00	0	44	102	1048576	10	3787
2026-01-25 10:42:23.56	78.14	22.03	-24.4	-24.8	18.5	0.00e+00	0	43	102	1048576	10	3797
2026-01-25 10:42:24.57	77.91	22.11	-24.3	-24.7	18.5	0.00e+00	0	44	102	1048576	10	3760
2026-01-25 10:42:25.57	77.68	22.18	-24.2	-25.1	18.6	0.00e+00	0	44	102	1048576	9	3967
2026-01-25 10:42:26.58	77.44	22.25	-24.3	-25.1	18.6	0.00e+00	0	43	102	1048576	9	3970
2026-01-25 10:42:27.58	77.21	22.33	-24.3	-25.3	18.5	0.00e+00	0	44	102	1048576	9	4009
2026-01-25 10:42:28.59	76.97	22.40	-24.5	-25.6	18.3	0.00e+00	0	44	102	1048576	9	4086
2026-01-25 10:42:29.59	76.74	22.47	-24.4	-25.5	18.3	0.00e+00	0	44	102	1048576	9	4070
2026-01-25 10:42:30.59	76.50	22.54	-24.3	-25.1	18.5	0.00e+00	0	44	102	1048576	9	3979
2026-01-25 10:42:31.59	76.26	22.61	-24.2	-25.0	18.6	0.00e+00	0	44	102	1048576	9	3935
2026-01-25 10:42:32.60	76.02	22.68	-24.3	-25.2	18.5	0.00e+00	0	44	102	1048576	9	3990
2026-01-25 10:42:33.61	75.78	22.75	-24.2	-25.1	18.6	0.00e+00	0	44	102	1048576	9	3956
2026-01-25 10:42:34.61	75.54	22.82	-24.2	-25.0	18.7	0.00e+00	0	44	102	1048576	9	3936
2026-01-25 10:42:35.62	75.29	22.89	-24.2	-25.0	18.7	0.00e+00	0	43	102	1048576	9	3936
2026-01-25 10:42:36.62	75.05	22.96	-24.1	-24.9	18.7	0.00e+00	0	44	102	1048576	9	3909
2026-01-25 10:42:37.62	74.80	23.03	-24.2	-24.9	18.7	0.00e+00	0	44	102	1048576	9	3918
2026-01-25 10:42:38.62	74.56	23.10	-24.3	-25.1	18.6	0.00e+00	0	44	102	1048576	9	3970
2026-01-25 10:42:39.62	74.31	23.17	-24.2	-25.0	18.6	0.00e+00	0	44	102	1048576	9	3953
2026-01-25 10:42:40.63	74.06	23.23	-24.2	-24.9	18.7	0.00e+00	0	44	102	1048576	9	3927
2026-01-25 10:42:41.63	73.81	23.30	-24.2	-25.0	18.7	0.00e+00	0	44	102	1048576	9	3932
2026-01-25 10:42:42.63	73.56	23.37	-24.4	-25.3	18.5	1.10e-06	0	44	102	1048576	9	4010
2026-01-25 10:42:43.64	73.31	23.43	-24.3	-25.1	18.6	0.00e+00	0	44	102	1048576	9	3962
2026-01-25 10:42:44.65	73.06	23.50	-24.1	-24.7	18.8	0.00e+00	0	44	102	1048576	9	3866
2026-01-25 10:42:45.64	72.80	23.56	-24.0	-24.5	18.9	0.00e+00	0	44	102	1048576	9	3818
2026-01-25 10:42:46.65	72.55	23.63	-23.9	-24.4	19.0	0.00e+00	0	44	102	1048576	9	3803
2026-01-25 10:42:47.65	72.29	23.69	-23.8	-24.2	19.1	0.00e+00	0	44	102	1048576	9	3746
2026-01-25 10:42:48.65	72.04	23.76	-23.8	-24.7	19.1	0.00e+00	0	43	102	1048576	8	3969
2026-01-25 10:42:49.66	71.78	23.82	-23.9	-24.8	19.0	0.00e+00	0	44	102	1048576	8	4014
2026-01-25 10:42:50.66	71.52	23.89	-24.1	-25.2	18.8	1.10e-06	0	43	102	1048576	8	4099
2026-01-25 10:42:51.66	71.26	23.95	-24.1	-25.2	18.8	0.00e+00	0	44	102	1048576	8	4112
2026-01-25 10:42:52.67	71.00	24.01	-24.0	-25.1	18.9	0.00e+00	0	44	102	1048576	8	4086
2026-01-25 10:42:53.68	70.73	24.07	-24.2	-25.4	18.8	0.00e+00	0	44	102	1048576	8	4140
2026-01-25 10:42:54.68	70.47	24.13	-24.4	-25.8	18.5	0.00e+00	0	43	102	1048576	8	4255
2026-01-25 10:42:55.69	70.20	24.19	-24.4	-25.9	18.5	0.00e+00	0	44	102	1048576	8	4268
2026-01-25 10:42:56.70	69.94	24.25	-24.4	-25.8	18.5	0.00e+00	0	44	102	1048576	8	4260
2026-01-25 10:42:57.70	69.67	24.31	-24.4	-25.8	18.5	0.00e+00	0	44	102	1048576	8	4261
2026-01-25 10:42:58.70	69.41	24.37	-24.5	-25.5	18.6	0.00e+00	0	44	102	1048576	9	4047
2026-01-25 10:42:59.71	69.14	24.43	-24.7	-25.9	18.4	1.10e-06	0	43	102	1048576	9	4153
2026-01-25 10:43:00.71	68.87	24.49	-24.6	-25.6	18.6	0.00e+00	0	44	102	1048576	9	4072
2026-01-25 10:43:01.72	68.59	24.55	-24.7	-25.9	18.4	0.00e+00	0	44	102	1048576	9	4143
2026-01-25 10:43:02.72	68.32	24.60	-24.6	-25.8	18.5	1.10e-06	0	44	102	1048576	9	4128
2026-01-25 10:43:03.72	68.05	24.66	-24.4	-25.3	18.8	0.00e+00	0	44	102	1048576	9	3988
2026-01-25 10:43:04.72	67.78	24.72	-24.2	-24.9	18.9	0.00e+00	0	44	102	1048576	9	3899
2026-01-25 10:43:05.73	67.50	24.77	-24.1	-24.7	19.0	0.00e+00	0	44	102	1048576	9	3862
2026-01-25 10:43:06.74	67.23	24.83	-24.1	-24.7	19.1	0.00e+00	0	44	102	1048576	9	3854
2026-01-25 10:43:07.74	66.95	24.88	-24.2	-25.0	18.9	0.00e+00	0	43	102	1048576	9	3910
2026-01-25 10:43:08.75	66.67	24.93	-24.6	-25.6	18.6	0.00e+00	0	44	102	1048576	9	4074
2026-01-25 10:43:09.76	66.39	24.99	-24.4	-25.4	18.7	0.00e+00	0	44	102	1048576	9	4025
2026-01-25 10:43:10.77	66.11	25.04	-24.1	-24.8	19.1	0.00e+00	0	44	102	1048576	9	3869
2026-01-25 10:43:11.77	65.83	25.09	-23.9	-24.2	19.3	0.00e+00	0	44	102	1048576	9	3746
2026-01-25 10:43:12.78	65.55	25.14	-23.8	-24.1	19.4	0.00e+00	0	44	102	1048576	9	3722
2026-01-25 10:43:13.79	65.27	25.19	-24.0	-24.4	19.2	1.10e-06	0	44	102	1048576	9	3782
2026-01-25 10:43:14.79	64.99	25.24	-23.8	-24.2	19.4	0.00e+00	0	44	102	1048576	9	3728
2026-01-25 10:43:15.79	64.70	25.29	-24.0	-24.6	19.2	0.00e+00	0	44	102	1048576	9	3821
2026-01-25 10:43:16.79	64.42	25.34	-24.0	-24.4	19.2	0.00e+00	0	44	102	1048576	9	3781
2026-01-25 10:43:17.80	64.13	25.38	-23.9	-24.3	19.3	0.00e+00	0	43	102	1048576	9	3771
2026-01-25 10:43:18.80	63.85	25.43	-23.9	-24.4	19.3	0.00e+00	0	44	102	1048576	9	3777
2026-01-25 10:43:19.80	63.56	25.48	-24.1	-24.6	19.1	0.00e+00	0	44	102	1048576	9	3833
2026-01-25 10:43:20.80	63.27	25.52	-24.0	-24.5	19.2	0.00e+00	0	44	102	1048576	9	3817
2026-01-25 10:43:21.81	62.98	25.56	-24.0	-24.4	19.2	0.00e+00	0	43	102	1048576	9	3779
2026-01-25 10:43:22.81	62.70	25.61	-24.0	-24.4	19.2	0.00e+00	0	43	102	1048576	9	3777
2026-01-25 10:43:23.82	62.40	25.65	-24.1	-24.6	19.1	0.00e+00	0	43	102	1048576	9	3840
2026-01-25 10:43:24.83	62.11	25.69	-23.9	-24.3	19.3	0.00e+00	0	44	102	1048576	9	3750
2026-01-25 10:43:25.83	61.82	25.74	-23.7	-24.4	19.5	0.00e+00	0	44	102	1048576	8	3890
2026-01-25 10:43:26.84	61.53	25.78	-23.8	-24.6	19.4	0.00e+00	0	44	102	1048576	8	3925
2026-01-25 10:43:27.84	61.23	25.82	-23.9	-24.7	19.3	0.00e+00	0	44	102	1048576	8	3949
2026-01-25 10:43:28.85	60.94	25.86	-23.8	-24.6	19.4	0.00e+00	0	44	102	1048576	8	3934
2026-01-25 10:43:29.86	60.64	25.89	-23.9	-24.7	19.3	0.00e+00	0	44	102	1048576	8	3968
2026-01-25 10:43:30.86	60.35	25.93	-23.9	-24.8	19.3	0.00e+00	0	44	102	1048576	8	3986
2026-01-25 10:43:31.87	60.05	25.97	-24.0	-25.0	19.2	0.00e+00	0	43	102	1048576	8	4027
2026-01-25 10:43:32.87	59.75	26.00	-23.9	-24.8	19.3	0.00e+00	0	44	102	1048576	8	3988
2026-01-25 10:43:33.88	59.45	26.04	-23.9	-24.8	19.3	0.00e+00	0	44	102	1048576	8	3974
2026-01-25 10:43:34.89	59.15	26.07	-23.9	-24.7	19.4	0.00e+00	0	44	102	1048576	8	3955
2026-01-25 10:43:35.90	58.85	26.11	-24.1	-25.1	19.1	0.00e+00	0	44	102	1048576	8	4061
2026-01-25 10:43:36.90	58.55	26.14	-23.9	-24.8	19.3	0.00e+00	0	44	102	1048576	8	3988
2026-01-25 10:43:37.91	58.25	26.17	-23.8	-24.6	19.4	0.00e+00	0	44	102	1048576	8	3932
2026-01-25 10:43:38.91	57.95	26.20	-23.9	-24.7	19.4	0.00e+00	0	44	102	1048576	8	3948
2026-01-25 10:43:39.92	57.65	26.24	-23.8	-24.6	19.4	0.00e+00	0	44	102	1048576	8	3939
2026-01-25 10:43:40.93	57.35	26.26	-23.9	-24.7	19.4	0.00e+00	0	44	102	1048576	8	3953
2026-01-25 10:43:41.93	57.04	26.29	-23.9	-24.8	19.3	0.00e+00	0	44	102	1048576	8	3984
2026-01-25 10:43:42.94	56.74	26.32	-24.1	-25.2	19.1	0.00e+00	0	44	102	1048576	8	4094
2026-01-25 10:43:43.94	56.44	26.35	-24.1	-25.1	19.1	0.00e+00	0	44	102	1048576	8	4061
2026-01-25 10:43:44.95	56.13	26.37	-24.0	-25.0	19.2	0.00e+00	0	44	102	1048576	8	4020
2026-01-25 10:43:45.95	55.83	26.40	-24.0	-25.0	19.2	0.00e+00	0	44	102	1048576	8	4027
2026-01-25 10:43:46.96	55.52	26.42	-24.0	-25.0	19.2	0.00e+00	0	44	102	1048576	8	4040
2026-01-25 10:43:47.96	55.22	26.45	-24.3	-25.5	19.0	0.00e+00	0	44	102	1048576	8	4153
2026-01-25 10:43:48.97	54.91	26.47	-24.1	-25.1	19.2	0.00e+00	0	44	102	1048576	8	4059
2026-01-25 10:43:49.97	54.60	26.49	-23.9	-24.8	19.3	0.00e+00	0	44	102	1048576	8	3990
2026-01-25 10:43:50.98	54.30	26.51	-23.9	-24.7	19.3	0.00e+00	0	44	102	1048576	8	3963
2026-01-25 10:43:51.98	53.99	26.53	-23.9	-24.9	19.3	0.00e+00	0	44	102	1048576	8	3999
2026-01-25 10:43:52.98	53.68	26.55	-23.7	-24.3	19.6	0.00e+00	0	44	102	1048576	8	3871
2026-01-25 10:43:53.98	53.38	26.57	-23.7	-24.4	19.6	0.00e+00	0	44	102	1048576	8	3883
2026-01-25 10:43:54.97	53.07	26.59	-23.9	-24.8	19.4	0.00e+00	0	44	102	1048576	8	3975
2026-01-25 10:43:55.97	52.77	26.60	-23.7	-24.4	19.6	0.00e+00	0	44	102	1048576	8	3881
2026-01-25 10:43:56.98	52.46	26.62	-23.5	-23.9	19.8	0.00e+00	0	44	102	1048576	8	3777
2026-01-25 10:43:57.98	52.15	26.63	-23.4	-23.7	19.9	0.00e+00	0	44	102	1048576	8	3721
2026-01-25 10:43:58.98	51.84	26.65	-23.4	-23.7	19.9	0.00e+00	0	44	102	1048576	8	3729
2026-01-25 10:43:59.98	51.53	26.66	-22.8	-23.3	20.0	0.00e+00	0	44	102	1048576	7	3839
2026-01-25 10:44:00.99	51.22	26.67	-23.2	-23.8	20.1	0.00e+00	0	44	102	1048576	7	3844
2026-01-25 10:44:01.99	50.91	26.68	-23.3	-23.9	20.0	0.00e+00	0	44	102	1048576	7	3884
2026-01-25 10:44:03.00	50.60	26.69	-23.3	-24.0	19.9	0.00e+00	0	44	102	1048576	7	3892
2026-01-25 10:44:04.01	50.29	26.70	-23.5	-24.4	19.7	0.00e+00	0	44	102	1048576	7	4005
2026-01-25 10:44:05.01	49.98	26.71	-23.7	-24.9	19.5	0.00e+00	0	44	102	1048576	7	4113
2026-01-25 10:44:06.01	49.67	26.72	-23.9	-25.3	19.3	0.00e+00	0	44	102	1048576	7	4233
2026-01-25 10:44:07.01	49.36	26.72	-24.2	-25.3	19.1	0.00e+00	0	44	102	1048576	8	4099
2026-01-25 10:44:08.01	49.05	26.73	-24.0	-25.0	19.2	0.00e+00	0	44	102	1048576	8	4039
2026-01-25 10:44:09.02	48.74	26.73	-24.0	-24.9	19.3	0.00e+00	0	44	102	1048576	8	4012
2026-01-25 10:44:10.02	48.43	26.74	-24.0	-24.9	19.2	0.00e+00	0	44	102	1048576	8	4014
2026-01-25 10:44:11.02	48.12	26.74	-24.1	-25.2	19.1	0.00e+00	0	44	102	1048576	8	4088
2026-01-25 10:44:12.02	47.81	26.74	-23.8	-24.6	19.4	0.00e+00	0	44	102	1048576	8	3926
2026-01-25 10:44:13.02	47.50	26.74	-23.9	-24.7	19.4	0.00e+00	0	44	102	1048576	8	3970
2026-01-25 10:44:14.03	47.18	26.74	-23.6	-24.2	19.6	0.00e+00	0	44	102	1048576	8	3833
2026-01-25 10:44:15.03	46.87	26.74	-23.5	-24.0	19.7	0.00e+00	0	44	102	1048576	8	3786
2026-01-25 10:44:16.04	46.56	26.74	-23.6	-24.1	19.6	0.00e+00	0	44	102	1048576	8	3829
2026-01-25 10:44:17.04	46.25	26.73	-23.8	-24.6	19.4	0.00e+00	0	44	102	1048576	8	3942
2026-01-25 10:44:18.04	45.94	26.73	-23.7	-24.4	19.5	0.00e+00	0	44	102	1048576	8	3887
2026-01-25 10:44:19.05	45.63	26.72	-24.2	-25.3	19.0	0.00e+00	0	44	102	1048576	8	4111
2026-01-25 10:44:20.05	45.32	26.72	-24.0	-25.0	19.2	0.00e+00	0	44	102	1048576	8	4024
2026-01-25 10:44:21.06	45.01	26.71	-23.7	-24.6	18.5	5.23e-03	0	44	102	1048576	8	3957
2026-01-25 10:44:22.07	44.69	26.70	-23.7	-24.4	18.6	7.08e-03	0	44	102	1048576	8	3917
2026-01-25 10:44:23.07	44.38	26.70	-23.8	-24.6	18.8	3.61e-03	0	44	102	1048576	8	3947
2026-01-25 10:44:24.07	44.07	26.69	-23.8	-24.6	19.1	1.94e-05	0	44	102	1048576	8	3948
2026-01-25 10:44:25.08	43.76	26.68	-23.9	-24.8	19.1	0.00e+00	0	44	102	1048576	8	3998
2026-01-25 10:44:26.08	43.45	26.66	-24.0	-25.0	19.0	0.00e+00	0	44	102	1048576	8	4047
2026-01-25 10:44:27.08	43.15	26.65	-23.7	-24.4	19.4	0.00e+00	0	44	102	1048576	8	3879
2026-01-25 10:44:28.08	42.84	26.64	-23.5	-24.0	19.7	0.00e+00	0	44	102	1048576	8	3787
2026-01-25 10:44:29.09	42.53	26.62	-23.5	-24.0	19.7	0.00e+00	0	44	102	1048576	8	3791
2026-01-25 10:44:30.09	42.22	26.61	-23.6	-24.0	19.6	0.00e+00	0	44	102	1048576	8	3801
2026-01-25 10:44:31.10	41.91	26.59	-23.7	-24.3	19.5	0.00e+00	0	44	102	1048576	8	3870
2026-01-25 10:44:32.10	41.60	26.58	-23.6	-24.2	19.6	0.00e+00	0	44	102	1048576	8	3834
2026-01-25 10:44:33.11	41.29	26.56	-23.6	-24.1	19.6	0.00e+00	0	44	102	1048576	8	3824
2026-01-25 10:44:34.12	40.98	26.54	-23.7	-24.4	19.5	0.00e+00	0	44	102	1048576	8	3880
2026-01-25 10:44:35.13	40.68	26.52	-23.5	-24.0	19.7	0.00e+00	0	44	102	1048576	8	3788
2026-01-25 10:44:36.13	40.37	26.50	-23.5	-23.9	19.7	0.00e+00	0	44	102	1048576	8	3784
2026-01-25 10:44:37.13	40.06	26.48	-23.6	-24.2	19.6	0.00e+00	0	44	102	1048576	8	3832
2026-01-25 10:44:38.14	39.76	26.46	-23.7	-24.4	19.5	0.00e+00	0	44	102	1048576	8	3878
2026-01-25 10:44:39.14	39.45	26.43	-23.8	-24.5	19.4	0.00e+00	0	43	102	1048576	8	3904
2026-01-25 10:44:40.15	39.15	26.41	-23.9	-24.7	19.3	0.00e+00	0	44	102	1048576	8	3972
2026-01-25 10:44:41.16	38.84	26.38	-23.9	-24.7	19.3	0.00e+00	0	44	102	1048576	8	3953
2026-01-25 10:44:42.16	38.54	26.36	-23.9	-24.7	19.3	0.00e+00	0	44	102	1048576	8	3953
2026-01-25 10:44:43.17	38.23	26.33	-23.9	-24.8	19.3	1.10e-06	0	44	102	1048576	8	3976
2026-01-25 10:44:44.17	37.93	26.30	-24.1	-25.1	19.1	0.00e+00	0	44	102	1048576	8	4048
2026-01-25 10:44:45.18	37.63	26.28	-24.0	-24.9	19.2	0.00e+00	0	44	102	1048576	8	4013
2026-01-25 10:44:46.18	37.33	26.25	-24.0	-24.9	19.2	0.00e+00	0	44	102	1048576	8	4009
2026-01-25 10:44:47.18	37.03	26.22	-24.0	-25.0	19.1	0.00e+00	0	44	102	1048576	8	4025
2026-01-25 10:44:48.19	36.72	26.19	-23.8	-24.6	19.3	0.00e+00	0	43	102	1048576	8	3941
2026-01-25 10:44:49.20	36.42	26.15	-23.8	-24.6	19.4	0.00e+00	0	44	102	1048576	8	3931
2026-01-25 10:44:50.21	36.12	26.12	-23.9	-24.8	19.2	0.00e+00	0	44	102	1048576	8	3991
2026-01-25 10:44:51.21	35.82	26.09	-24.0	-25.1	19.1	0.00e+00	0	43	102	1048576	8	4050
2026-01-25 10:44:52.21	35.53	26.06	-24.3	-25.7	18.7	0.00e+00	0	44	102	1048576	8	4211
2026-01-25 10:44:53.22	35.23	26.02	-23.9	-24.7	19.2	0.00e+00	0	44	102	1048576	8	3973
2026-01-25 10:44:54.23	34.93	25.98	-23.6	-24.1	19.6	0.00e+00	0	44	102	1048576	8	3811
2026-01-25 10:44:55.23	34.63	25.95	-23.5	-23.8	19.7	0.00e+00	0	44	102	1048576	8	3760
2026-01-25 10:44:56.24	34.34	25.91	-23.5	-23.9	19.7	0.00e+00	0	44	102	1048576	8	3764
2026-01-25 10:44:57.24	34.04	25.87	-23.5	-23.9	19.7	0.00e+00	0	44	102	1048576	8	3783
2026-01-25 10:44:58.24	33.75	25.83	-23.5	-23.9	19.7	0.00e+00	0	44	102	1048576	8	3773
2026-01-25 10:44:59.25	33.46	25.79	-23.5	-23.9	19.6	0.00e+00	0	44	102	1048576	8	3785
2026-01-25 10:45:00.25	33.16	25.75	-23.4	-23.8	19.7	0.00e+00	0	44	102	1048576	8	3746
2026-01-25 10:45:01.26	32.87	25.71	-23.5	-23.9	19.7	0.00e+00	0	44	102	1048576	8	3781
2026-01-25 10:45:02.26	32.58	25.67	-23.6	-24.2	19.6	0.00e+00	0	44	102	1048576	8	3838
2026-01-25 10:45:03.26	32.29	25.63	-23.6	-24.2	19.5	0.00e+00	0	44	102	1048576	8	3846
2026-01-25 10:45:04.27	32.00	25.58	-23.6	-24.2	19.5	0.00e+00	0	44	102	1048576	8	3837
2026-01-25 10:45:05.27	31.71	25.54	-23.7	-24.2	19.5	0.00e+00	0	44	102	1048576	8	3855
2026-01-25 10:45:06.28	31.42	25.50	-23.7	-24.4	19.4	0.00e+00	0	44	102	1048576	8	3882
2026-01-25 10:45:07.28	31.14	25.45	-23.5	-24.0	19.6	0.00e+00	0	44	102	1048576	8	3803
2026-01-25 10:45:08.29	30.85	25.40	-23.4	-23.8	19.7	0.00e+00	0	43	102	1048576	8	3748
2026-01-25 10:45:09.29	30.57	25.36	-23.4	-23.7	19.7	0.00e+00	0	44	102	1048576	8	3738
2026-01-25 10:45:10.30	30.28	25.31	-23.4	-23.7	19.8	0.00e+00	0	44	102	1048576	8	3726
2026-01-25 10:45:11.30	30.00	25.26	-23.4	-23.8	19.7	0.00e+00	0	44	102	1048576	8	3755
2026-01-25 10:45:12.31	29.71	25.21	-23.4	-23.7	19.8	0.00e+00	0	44	102	1048576	8	3726
2026-01-25 10:45:13.31	29.43	25.16	-23.4	-23.7	19.7	0.00e+00	0	44	102	1048576	8	3739
2026-01-25 10:45:14.32	29.15	25.11	-23.4	-23.8	19.7	0.00e+00	0	44	102	1048576	8	3746
2026-01-25 10:45:15.32	28.87	25.06	-23.3	-23.5	19.9	0.00e+00	0	44	102	1048576	8	3676
2026-01-25 10:45:16.32	28.59	25.01	-23.3	-23.9	19.9	0.00e+00	0	44	102	1048576	7	3884
2026-01-25 10:45:17.32	28.32	24.96	-23.4	-24.1	19.8	0.00e+00	0	44	102	1048576	7	3932
2026-01-25 10:45:18.33	28.04	24.91	-23.5	-24.3	19.7	0.00e+00	0	44	102	1048576	7	3984
2026-01-25 10:45:19.33	27.76	24.85	-23.5	-24.3	19.7	0.00e+00	0	44	102	1048576	7	3984
2026-01-25 10:45:20.33	27.49	24.80	-23.5	-24.5	19.6	0.00e+00	0	44	102	1048576	7	4013
2026-01-25 10:45:21.34	27.21	24.74	-23.5	-24.5	19.6	0.00e+00	0	44	102	1048576	7	4015
2026-01-25 10:45:22.35	26.94	24.69	-23.5	-24.5	19.6	0.00e+00	0	44	102	1048576	7	4020
2026-01-25 10:45:23.35	26.67	24.63	-23.6	-24.6	19.5	0.00e+00	0	44	102	1048576	7	4033
2026-01-25 10:45:24.36	26.39	24.57	-23.6	-24.6	19.5	0.00e+00	0	44	102	1048576	7	4053
2026-01-25 10:45:25.37	26.12	24.52	-23.5	-24.4	19.6	0.00e+00	0	44	102	1048576	7	3990
2026-01-25 10:45:26.37	25.85	24.46	-23.5	-24.4	19.6	0.00e+00	0	44	102	1048576	7	4004
2026-01-25 10:45:27.37	25.59	24.40	-23.6	-24.6	19.5	0.00e+00	0	44	102	1048576	7	4044
2026-01-25 10:45:28.38	25.32	24.34	-23.6	-24.6	19.5	0.00e+00	0	44	102	1048576	7	4038
2026-01-25 10:45:29.39	25.05	24.28	-23.6	-24.5	19.6	0.00e+00	0	44	102	1048576	7	4029
2026-01-25 10:45:30.39	24.79	24.22	-23.6	-24.7	19.5	0.00e+00	0	44	102	1048576	7	4060
2026-01-25 10:45:31.40	24.52	24.16	-23.7	-24.9	19.4	0.00e+00	0	44	102	1048576	7	4108
2026-01-25 10:45:32.40	24.26	24.10	-23.7	-24.7	19.5	0.00e+00	0	44	102	1048576	7	4082
2026-01-25 10:45:33.41	23.99	24.04	-23.8	-24.9	19.3	0.00e+00	0	44	102	1048576	7	4133
2026-01-25 10:45:34.41	23.73	23.98	-23.8	-25.0	19.3	0.00e+00	0	44	102	1048576	7	4155
2026-01-25 10:45:35.42	23.47	23.92	-23.8	-25.1	19.3	0.00e+00	0	44	102	1048576	7	4163
2026-01-25 10:45:36.41	23.22	23.86	-23.7	-24.9	19.4	0.00e+00	0	44	102	1048576	7	4114
2026-01-25 10:45:37.42	22.96	23.79	-23.5	-24.5	19.6	0.00e+00	0	44	102	1048576	7	4011
2026-01-25 10:45:38.42	22.70	23.73	-23.6	-24.6	19.5	0.00e+00	0	44	102	1048576	7	4034
2026-01-25 10:45:39.42	22.45	23.66	-23.7	-24.8	19.4	0.00e+00	0	44	102	1048576	7	4085
2026-01-25 10:45:40.43	22.19	23.60	-23.7	-24.8	19.4	0.00e+00	0	44	102	1048576	7	4093
2026-01-25 10:45:41.44	21.94	23.53	-23.6	-24.7	19.5	0.00e+00	0	44	102	1048576	7	4073
2026-01-25 10:45:42.44	21.68	23.47	-23.5	-24.5	19.5	0.00e+00	0	44	102	1048576	7	4022
2026-01-25 10:45:43.46	21.43	23.40	-23.5	-24.4	19.6	0.00e+00	0	44	102	1048576	7	4009
2026-01-25 10:45:44.46	21.18	23.33	-23.4	-24.3	19.6	0.00e+00	0	44	102	1048576	7	3972
2026-01-25 10:45:45.45	20.93	23.27	-23.5	-24.5	19.5	0.00e+00	0	44	102	1048576	7	4029
2026-01-25 10:45:46.45	20.69	23.20	-23.6	-24.6	19.5	0.00e+00	0	44	102	1048576	7	4047
2026-01-25 10:45:47.46	20.44	23.13	-23.5	-24.4	19.6	0.00e+00	0	44	102	1048576	7	3988
2026-01-25 10:45:48.45	20.19	23.07	-23.5	-24.4	19.6	0.00e+00	0	44	102	1048576	7	3990
2026-01-25 10:45:49.46	19.95	23.00	-23.6	-24.6	19.5	0.00e+00	0	44	102	1048576	7	4045
2026-01-25 10:45:50.46	19.71	22.93	-23.6	-24.7	19.4	0.00e+00	0	44	102	1048576	7	4061
2026-01-25 10:45:51.47	19.46	22.86	-23.7	-24.8	19.4	0.00e+00	0	44	102	1048576	7	4103
2026-01-25 10:45:52.47	19.22	22.79	-23.7	-24.9	19.3	0.00e+00	0	44	102	1048576	7	4135
2026-01-25 10:45:53.47	18.98	22.72	-23.7	-24.8	19.3	0.00e+00	0	43	102	1048576	7	4105
2026-01-25 10:45:54.47	18.74	22.65	-23.8	-25.0	19.3	0.00e+00	0	44	102	1048576	7	4142
2026-01-25 10:45:55.48	18.50	22.58	-23.8	-25.0	19.2	0.00e+00	0	44	102	1048576	7	4158
2026-01-25 10:45:56.48	18.27	22.51	-23.8	-25.0	19.3	0.00e+00	0	44	102	1048576	7	4151
2026-01-25 10:45:57.48	18.03	22.44	-23.8	-25.1	19.2	0.00e+00	0	44	102	1048576	7	4173
2026-01-25 10:45:58.49	17.79	22.37	-23.7	-24.9	19.3	0.00e+00	0	44	102	1048576	7	4118
2026-01-25 10:45:59.50	17.56	22.29	-23.7	-24.8	19.4	0.00e+00	0	43	102	1048576	7	4095
2026-01-25 10:46:00.50	17.33	22.22	-23.7	-24.9	19.3	0.00e+00	0	44	102	1048576	7	4105
2026-01-25 10:46:01.51	17.09	22.15	-23.7	-24.9	19.3	0.00e+00	0	44	102	1048576	7	4118
2026-01-25 10:46:02.51	16.86	22.08	-23.9	-25.2	19.1	0.00e+00	0	44	102	1048576	7	4203
2026-01-25 10:46:03.51	16.63	22.00	-24.1	-25.1	19.0	0.00e+00	0	44	102	1048576	8	4062
2026-01-25 10:46:04.51	16.41	21.93	-24.3	-25.5	18.8	0.00e+00	0	44	102	1048576	8	4173
2026-01-25 10:46:05.52	16.18	21.86	-24.2	-25.4	18.8	0.00e+00	0	44	102	1048576	8	4136
2026-01-25 10:46:06.53	15.95	21.78	-24.0	-25.0	19.0	0.00e+00	0	44	102	1048576	8	4031
2026-01-25 10:46:07.53	15.72	21.71	-24.0	-25.0	19.0	0.00e+00	0	44	102	1048576	8	4027
2026-01-25 10:46:08.54	15.50	21.63	-24.1	-25.2	18.9	0.00e+00	0	44	102	1048576	8	4084
2026-01-25 10:46:09.54	15.28	21.56	-24.2	-25.4	18.8	0.00e+00	0	44	102	1048576	8	4144
2026-01-25 10:46:10.55	15.05	21.48	-24.2	-25.4	18.8	0.00e+00	0	44	102	1048576	8	4141
2026-01-25 10:46:11.56	14.83	21.41	-24.2	-25.4	18.8	0.00e+00	0	44	102	1048576	8	4123
2026-01-25 10:46:12.57	14.61	21.33	-24.2	-25.4	18.8	0.00e+00	0	44	102	1048576	8	4120
2026-01-25 10:46:13.58	14.39	21.26	-24.2	-25.4	18.8	0.00e+00	0	44	102	1048576	8	4130
2026-01-25 10:46:14.58	14.17	21.18	-24.3	-25.7	18.6	0.00e+00	0	44	102	1048576	8	4201
2026-01-25 10:46:15.58	13.96	21.11	-24.4	-25.9	18.5	0.00e+00	0	44	102	1048576	8	4265
2026-01-25 10:46:16.58	13.74	21.03	-24.5	-25.6	18.4	0.00e+00	0	44	102	1048576	9	4077
2026-01-25 10:46:17.59	13.53	20.95	-24.6	-25.8	18.3	0.00e+00	0	44	102	1048576	9	4124
2026-01-25 10:46:18.59	13.31	20.88	-24.5	-25.6	18.4	0.00e+00	0	44	102	1048576	9	4069
2026-01-25 10:46:19.60	13.10	20.80	-24.4	-25.3	18.6	0.00e+00	0	44	102	1048576	9	3988
2026-01-25 10:46:20.60	12.89	20.72	-24.4	-25.2	18.6	0.00e+00	0	44	102	1048576	9	3980
2026-01-25 10:46:21.61	12.68	20.65	-24.4	-25.4	18.5	0.00e+00	0	44	102	1048576	9	4012
2026-01-25 10:46:22.61	12.47	20.57	-24.5	-25.5	18.4	0.00e+00	0	44	102	1048576	9	4058
2026-01-25 10:46:23.62	12.26	20.49	-24.5	-25.4	18.5	0.00e+00	0	44	102	1048576	9	4032
2026-01-25 10:46:24.62	12.06	20.41	-24.4	-25.4	18.5	0.00e+00	0	44	102	1048576	9	4009
2026-01-25 10:46:25.62	11.85	20.34	-24.4	-25.3	18.5	0.00e+00	0	44	102	1048576	9	4002
2026-01-25 10:46:26.63	11.64	20.26	-24.5	-25.5	18.4	0.00e+00	0	44	102	1048576	9	4053
2026-01-25 10:46:27.63	11.44	20.18	-24.5	-25.5	18.5	0.00e+00	0	44	102	1048576	9	4045
2026-01-25 10:46:28.64	11.24	20.10	-24.5	-25.5	18.5	0.00e+00	0	44	102	1048576	9	4039
2026-01-25 10:46:29.65	11.03	20.02	-24.5	-25.6	18.4	0.00e+00	0	44	102	1048576	9	4084
2026-01-25 10:46:30.65	10.83	19.94	-24.5	-25.4	18.4	0.00e+00	0	44	102	1048576	9	4033
2026-01-25 10:46:31.66	10.63	19.86	-24.3	-25.1	18.7	0.00e+00	0	44	102	1048576	9	3940
2026-01-25 10:46:32.66	10.44	19.79	-24.3	-25.0	18.7	0.00e+00	0	44	102	1048576	9	3920
2026-01-25 10:46:33.67	10.24	19.71	-24.3	-25.1	18.7	0.00e+00	0	44	102	1048576	9	3948
2026-01-25 10:46:34.68	10.04	19.63	-24.4	-25.3	18.5	0.00e+00	0	44	102	1048576	9	4005
2026-01-25 10:46:35.68	9.85	19.55	-24.6	-25.7	18.3	0.00e+00	0	44	102	1048576	9	4107
2026-01-25 10:46:36.69	9.65	19.47	-24.6	-25.8	18.3	0.00e+00	0	44	102	1048576	9	4132
2026-01-25 10:46:37.69	9.46	19.39	-24.7	-26.0	18.2	0.00e+00	0	44	102	1048576	9	4161
2026-01-25 10:46:38.70	9.26	19.31	-24.7	-26.0	18.2	0.00e+00	0	44	102	1048576	9	4169
2026-01-25 10:46:39.71	9.07	19.23	-24.8	-26.1	18.1	0.00e+00	0	44	102	1048576	9	4199
2026-01-25 10:46:40.71	8.88	19.15	-24.8	-26.1	18.1	0.00e+00	0	44	102	1048576	9	4198
2026-01-25 10:46:41.71	8.69	19.07	-24.9	-26.3	18.0	0.00e+00	0	44	102	1048576	9	4254
2026-01-25 10:46:42.72	8.50	18.99	-24.8	-26.1	18.1	0.00e+00	0	44	102	1048576	9	4211
2026-01-25 10:46:43.72	8.32	18.91	-24.6	-25.8	18.3	0.00e+00	0	44	102	1048576	9	4113
2026-01-25 10:46:44.72	8.13	18.83	-24.5	-25.5	18.4	0.00e+00	0	44	102	1048576	9	4051
2026-01-25 10:46:45.72	7.95	18.75	-24.5	-25.6	18.4	0.00e+00	0	44	102	1048576	9	4059
2026-01-25 10:46:46.73	7.76	18.67	-24.4	-25.4	18.5	0.00e+00	0	44	102	1048576	9	4012
2026-01-25 10:46:47.74	7.58	18.59	-24.5	-25.5	18.4	0.00e+00	0	44	102	1048576	9	4039
2026-01-25 10:46:48.74	7.40	18.51	-24.5	-25.6	18.3	0.00e+00	0	44	102	1048576	9	4069
2026-01-25 10:46:49.75	7.21	18.43	-24.6	-25.8	18.3	0.00e+00	0	44	102	1048576	9	4116
2026-01-25 10:46:50.75	7.03	18.35	-24.7	-26.0	18.1	0.00e+00	0	44	102	1048576	9	4172
2026-01-25 10:46:51.76	6.85	18.27	-24.8	-26.1	18.0	0.00e+00	0	44	102	1048576	9	4209
2026-01-25 10:46:52.76	6.67	18.19	-24.9	-26.4	17.9	0.00e+00	0	44	102	1048576	9	4268
2026-01-25 10:46:53.76	6.50	18.11	-24.9	-26.3	18.0	0.00e+00	0	44	102	1048576	9	4261
2026-01-25 10:46:54.77	6.32	18.03	-25.0	-26.1	17.8	0.00e+00	0	44	102	1048576	10	4096
2026-01-25 10:46:55.77	6.15	17.95	-25.2	-26.5	17.6	0.00e+00	0	44	102	1048576	10	4198
2026-01-25 10:46:56.77	5.97	17.87	-25.1	-26.4	17.7	0.00e+00	0	44	102	1048576	10	4160
2026-01-25 10:46:57.77	5.80	17.79	-25.0	-26.1	17.8	0.00e+00	0	44	102	1048576	10	4085
2026-01-25 10:46:58.78	5.62	17.71	-25.0	-26.0	17.9	0.00e+00	0	44	102	1048576	10	4070
2026-01-25 10:46:59.78	5.45	17.63	-25.0	-26.1	17.8	0.00e+00	0	44	102	1048576	10	4075
2026-01-25 10:47:00.79	5.28	17.55	-25.1	-26.3	17.7	0.00e+00	0	44	102	1048576	10	4134
2026-01-25 10:47:01.79	5.11	17.47	-25.1	-26.4	17.7	0.00e+00	0	44	102	1048576	10	4149
2026-01-25 10:47:02.79	4.94	17.39	-25.2	-26.5	17.6	0.00e+00	0	44	102	1048576	10	4198
2026-01-25 10:47:03.79	4.78	17.31	-25.2	-26.6	17.5	0.00e+00	0	44	102	1048576	10	4210
2026-01-25 10:47:04.79	4.61	17.23	-25.3	-26.8	17.4	0.00e+00	0	44	102	1048576	10	4262
2026-01-25 10:47:05.79	4.44	17.15	-25.3	-26.7	17.5	0.00e+00	0	44	102	1048576	10	4250
2026-01-25 10:47:06.80	4.28	17.07	-25.4	-26.9	17.4	0.00e+00	0	44	102	1048576	10	4292
2026-01-25 10:47:07.81	4.11	16.99	-25.3	-26.8	17.4	0.00e+00	0	44	102	1048576	10	4265
2026-01-25 10:47:08.82	3.95	16.91	-25.3	-26.6	17.5	0.00e+00	0	44	102	1048576	10	4227
2026-01-25 10:47:09.83	3.78	16.83	-25.3	-26.7	17.5	0.00e+00	0	44	102	1048576	10	4234
2026-01-25 10:47:10.83	3.62	16.75	-25.2	-26.6	17.5	0.00e+00	0	44	102	1048576	10	4212
2026-01-25 10:47:11.83	3.46	16.67	-25.2	-26.6	17.5	0.00e+00	0	44	102	1048576	10	4208
2026-01-25 10:47:12.84	3.30	16.59	-25.3	-26.8	17.4	0.00e+00	0	44	102	1048576	10	4266
2026-01-25 10:47:13.84	3.14	16.51	-25.4	-27.0	17.3	0.00e+00	0	44	102	1048576	10	4329
2026-01-25 10:47:14.85	2.98	16.43	-25.4	-26.9	17.3	0.00e+00	0	44	102	1048576	10	4299
2026-01-25 10:47:15.84	2.83	16.35	-25.4	-27.0	17.3	0.00e+00	0	44	102	1048576	10	4323
2026-01-25 10:47:16.85	2.67	16.27	-25.4	-27.0	17.3	0.00e+00	0	44	102	1048576	10	4312
2026-01-25 10:47:17.85	2.51	16.19	-25.4	-27.0	17.3	0.00e+00	0	44	102	1048576	10	4328
2026-01-25 10:47:18.85	2.36	16.11	-25.4	-27.0	17.3	0.00e+00	0	44	102	1048576	10	4330
2026-01-25 10:47:19.86	2.20	16.03	-25.7	-27.0	17.0	0.00e+00	0	44	102	1048576	11	4212
2026-01-25 10:47:20.87	2.05	15.95	-26.0	-27.7	16.6	0.00e+00	0	44	102	1048576	11	4404
2026-01-25 10:47:21.87	1.90	15.87	-25.8	-26.9	16.7	0.00e+00	0	44	102	1048576	12	4068
2026-01-25 10:47:22.88	1.75	15.79	-25.6	-26.5	17.0	0.00e+00	0	44	102	1048576	12	3964
2026-01-25 10:47:23.89	1.59	15.71	-25.5	-26.2	17.1	0.00e+00	0	44	102	1048576	12	3892
2026-01-25 10:47:24.89	1.44	15.63	-25.5	-26.2	17.1	0.00e+00	0	44	102	1048576	12	3889
2026-01-25 10:47:25.89	1.30	15.55	-25.5	-26.1	17.1	0.00e+00	0	44	102	1048576	12	3883
2026-01-25 10:47:26.89	1.15	15.48	-25.5	-26.1	17.1	0.00e+00	0	44	102	1048576	12	3883
2026-01-25 10:47:27.90	1.00	15.40	-25.5	-26.2	17.1	0.00e+00	0	44	102	1048576	12	3892
2026-01-25 10:47:28.90	0.85	15.32	-25.6	-26.3	17.0	0.00e+00	0	44	102	1048576	12	3924
2026-01-25 10:47:29.91	0.71	15.24	-25.7	-26.7	16.8	0.00e+00	0	44	102	1048576	12	4023
2026-01-25 10:47:30.92	0.56	15.16	-25.7	-26.6	16.8	0.00e+00	0	44	102	1048576	12	4007
2026-01-25 10:47:31.93	0.41	15.08	-25.6	-26.4	17.0	0.00e+00	0	44	102	1048576	12	3954
2026-01-25 10:47:32.94	0.27	15.00	-25.7	-26.6	16.9	0.00e+00	0	44	102	1048576	12	3988
2026-01-25 10:47:33.94	0.13	14.92	-25.6	-26.4	16.9	0.00e+00	0	44	102	1048576	12	3957
2026-01-25 10:47:34.95	359.98	14.84	-25.7	-26.7	16.8	1.10e-06	0	44	102	1048576	12	4027
2026-01-25 10:47:35.95	359.84	14.76	-25.6	-26.5	16.9	0.00e+00	0	44	102	1048576	12	3974
2026-01-25 10:47:36.96	359.70	14.68	-25.7	-26.6	16.8	0.00e+00	0	44	102	1048576	12	4001
2026-01-25 10:47:37.96	359.56	14.60	-25.8	-26.9	16.7	0.00e+00	0	44	102	1048576	12	4072
2026-01-25 10:47:38.97	359.42	14.53	-25.9	-27.0	16.6	0.00e+00	0	44	102	1048576	12	4109
2026-01-25 10:47:39.96	359.29	14.45	-26.0	-27.3	16.4	0.00e+00	0	44	102	1048576	12	4179
2026-01-25 10:47:40.97	359.15	14.37	-26.1	-27.6	16.3	0.00e+00	0	44	102	1048576	12	4245
2026-01-25 10:47:41.97	359.01	14.29	-26.1	-27.5	16.3	0.00e+00	0	44	102	1048576	12	4222
2026-01-25 10:47:42.98	358.88	14.21	-26.1	-27.5	16.3	0.00e+00	0	44	102	1048576	12	4237
2026-01-25 10:47:43.98	358.74	14.14	-26.2	-27.7	16.2	0.00e+00	0	44	102	1048576	12	4292
2026-01-25 10:47:44.99	358.60	14.06	-26.0	-27.4	16.4	0.00e+00	0	44	102	1048576	12	4192
2026-01-25 10:47:45.99	358.47	13.98	-25.9	-27.1	16.5	0.00e+00	0	44	102	1048576	12	4136
2026-01-25 10:47:46.99	358.34	13.90	-26.0	-27.3	16.5	0.00e+00	0	44	102	1048576	12	4173
2026-01-25 10:47:47.99	358.21	13.82	-25.9	-27.1	16.5	0.00e+00	0	44	102	1048576	12	4128
2026-01-25 10:47:49.00	358.07	13.75	-26.0	-27.4	16.4	0.00e+00	0	44	102	1048576	12	4204
2026-01-25 10:47:50.00	357.94	13.67	-26.0	-27.2	16.4	0.00e+00	0	44	102	1048576	12	4153
2026-01-25 10:47:51.00	357.81	13.59	-26.0	-27.2	16.4	0.00e+00	0	44	102	1048576	12	4160
2026-01-25 10:47:52.00	357.68	13.52	-26.0	-27.3	16.4	0.00e+00	0	44	102	1048576	12	4180
2026-01-25 10:47:53.01	357.55	13.44	-26.2	-27.6	16.2	0.00e+00	0	44	102	1048576	12	4269
2026-01-25 10:47:54.01	357.43	13.36	-26.0	-27.2	16.4	0.00e+00	0	44	102	1048576	12	4166
2026-01-25 10:47:55.02	357.30	13.28	-25.9	-27.0	16.5	0.00e+00	0	44	102	1048576	12	4113
2026-01-25 10:47:56.03	357.17	13.21	-25.9	-27.0	16.5	0.00e+00	0	44	102	1048576	12	4110
2026-01-25 10:47:57.03	357.05	13.13	-25.8	-26.9	16.6	0.00e+00	0	44	102	1048576	12	4075
2026-01-25 10:47:58.03	356.92	13.05	-25.9	-27.1	16.5	0.00e+00	0	44	102	1048576	12	4124
2026-01-25 10:47:59.03	356.80	12.98	-26.0	-27.2	16.4	0.00e+00	0	44	102	1048576	12	4150
2026-01-25 10:48:00.04	356.67	12.90	-26.0	-27.3	16.3	0.00e+00	0	44	102	1048576	12	4183
2026-01-25 10:48:01.04	356.55	12.82	-26.2	-27.8	16.1	0.00e+00	0	44	102	1048576	12	4306
2026-01-25 10:48:02.04	356.43	12.75	-26.2	-27.8	16.1	0.00e+00	0	44	102	1048576	12	4303
2026-01-25 10:48:03.04	356.30	12.67	-26.4	-28.1	15.9	0.00e+00	0	44	102	1048576	12	4401
2026-01-25 10:48:04.05	356.18	12.60	-26.4	-28.1	15.9	0.00e+00	0	44	102	1048576	12	4400
2026-01-25 10:48:05.05	356.06	12.52	-26.4	-28.2	15.8	0.00e+00	0	44	102	1048576	12	4426
2026-01-25 10:48:06.05	355.94	12.44	-26.4	-28.1	15.8	0.00e+00	0	44	102	1048576	12	4411
2026-01-25 10:48:07.05	355.82	12.37	-26.5	-28.3	15.7	0.00e+00	0	44	102	1048576	12	4460
2026-01-25 10:48:08.05	355.70	12.29	-26.4	-28.3	15.8	0.00e+00	0	44	102	1048576	12	4451
2026-01-25 10:48:09.06	355.58	12.22	-26.5	-28.3	15.8	0.00e+00	0	44	102	1048576	12	4455
2026-01-25 10:48:10.06	355.47	12.14	-26.7	-28.3	15.5	0.00e+00	0	44	102	1048576	13	4343
2026-01-25 10:48:11.06	355.35	12.07	-27.0	-28.6	15.1	1.10e-06	0	44	102	1048576	14	4302
2026-01-25 10:48:12.07	355.23	11.99	-26.7	-27.9	15.4	0.00e+00	0	44	102	1048576	14	4123
2026-01-25 10:48:13.08	355.12	11.92	-26.5	-27.5	15.7	0.00e+00	0	44	102	1048576	14	4013
2026-01-25 10:48:14.09	355.00	11.84	-26.5	-27.3	15.8	0.00e+00	0	44	102	1048576	14	3971
2026-01-25 10:48:15.09	354.89	11.77	-26.5	-27.4	15.7	0.00e+00	0	44	102	1048576	14	3987
2026-01-25 10:48:16.10	354.77	11.69	-26.6	-27.6	15.6	0.00e+00	0	44	102	1048576	14	4054
2026-01-25 10:48:17.10	354.66	11.62	-26.5	-27.4	15.7	0.00e+00	0	44	102	1048576	14	3991
2026-01-25 10:48:18.11	354.54	11.54	-26.6	-27.6	15.6	0.00e+00	0	44	102	1048576	14	4041
2026-01-25 10:48:19.11	354.43	11.47	-26.7	-27.9	15.4	0.00e+00	0	44	102	1048576	14	4123
2026-01-25 10:48:20.11	354.32	11.39	-26.5	-27.5	15.7	0.00e+00	0	44	102	1048576	14	4012
2026-01-25 10:48:21.12	354.21	11.32	-26.4	-27.2	15.8	1.10e-06	0	44	102	1048576	14	3952
2026-01-25 10:48:22.12	354.10	11.25	-26.4	-27.2	15.8	0.00e+00	0	44	102	1048576	14	3953
2026-01-25 10:48:23.12	353.99	11.17	-26.5	-27.4	15.7	0.00e+00	0	44	102	1048576	14	3982
2026-01-25 10:48:24.12	353.88	11.10	-26.6	-27.6	15.6	0.00e+00	0	44	102	1048576	14	4039
2026-01-25 10:48:25.13	353.77	11.02	-26.7	-27.8	15.4	0.00e+00	0	44	102	1048576	14	4097
2026-01-25 10:48:26.14	353.66	10.95	-26.7	-27.9	15.4	0.00e+00	0	44	102	1048576	14	4116
2026-01-25 10:48:27.15	353.55	10.88	-26.8	-28.1	15.3	0.00e+00	0	44	102	1048576	14	4169
2026-01-25 10:48:28.15	353.45	10.80	-26.8	-28.1	15.3	0.00e+00	0	44	102	1048576	14	4174
2026-01-25 10:48:29.15	353.34	10.73	-26.9	-28.3	15.1	0.00e+00	0	44	102	1048576	14	4226
2026-01-25 10:48:30.16	353.23	10.66	-26.9	-28.3	15.1	0.00e+00	0	44	102	1048576	14	4234
2026-01-25 10:48:31.16	353.13	10.58	-27.0	-28.6	15.0	1.10e-06	0	44	102	1048576	14	4311
2026-01-25 10:48:32.17	353.02	10.51	-26.9	-28.3	15.1	0.00e+00	0	44	102	1048576	14	4222
2026-01-25 10:48:33.18	352.92	10.44	-26.8	-28.2	15.2	1.10e-06	0	44	102	1048576	14	4196
2026-01-25 10:48:34.17	352.81	10.37	-26.8	-28.1	15.2	0.00e+00	0	44	102	1048576	14	4178
2026-01-25 10:48:35.17	352.71	10.29	-26.9	-28.3	15.1	0.00e+00	0	44	102	1048576	14	4238
2026-01-25 10:48:36.18	352.61	10.22	-26.9	-28.4	15.0	0.00e+00	0	44	102	1048576	14	4261
2026-01-25 10:48:37.18	352.51	10.15	-27.0	-28.5	15.0	0.00e+00	0	44	102	1048576	14	4284
2026-01-25 10:48:38.19	352.40	10.08	-27.1	-28.7	14.8	0.00e+00	0	44	102	1048576	14	4342
2026-01-25 10:48:39.20	352.30	10.00	-26.9	-28.4	15.0	1.10e-06	0	44	102	1048576	14	4272
2026-01-25 10:48:40.20	352.20	9.93	-26.9	-28.4	15.0	0.00e+00	0	44	102	1048576	14	4263
2026-01-25 10:48:41.20	352.10	9.86	-27.0	-28.5	14.9	0.00e+00	0	44	102	1048576	14	4299
2026-01-25 10:48:42.20	352.00	9.79	-26.9	-28.4	15.0	0.00e+00	0	44	102	1048576	14	4273
2026-01-25 10:48:43.21	351.90	9.72	-27.1	-28.9	14.7	0.00e+00	0	44	102	1048576	14	4399
2026-01-25 10:48:44.21	351.80	9.65	-27.0	-28.5	14.9	0.00e+00	0	44	102	1048576	14	4292
2026-01-25 10:48:45.21	351.71	9.58	-27.0	-28.5	14.9	0.00e+00	0	44	102	1048576	14	4283
2026-01-25 10:48:46.22	351.61	9.50	-27.0	-28.5	14.9	0.00e+00	0	44	102	1048576	14	4291
2026-01-25 10:48:47.22	351.51	9.43	-27.0	-28.6	14.9	0.00e+00	0	44	102	1048576	14	4323
2026-01-25 10:48:48.23	351.41	9.36	-27.0	-28.6	14.8	0.00e+00	0	44	102	1048576	14	4306
2026-01-25 10:48:49.23	351.32	9.29	-27.0	-28.6	14.8	0.00e+00	0	44	102	1048576	14	4332
2026-01-25 10:48:50.23	351.22	9.22	-27.0	-28.7	14.8	2.20e-06	0	44	102	1048576	14	4337
2026-01-25 10:48:51.24	351.13	9.15	-27.0	-28.7	14.8	0.00e+00	0	44	102	1048576	14	4347
2026-01-25 10:48:52.24	351.03	9.08	-27.1	-28.7	14.8	0.00e+00	0	44	102	1048576	14	4347
2026-01-25 10:48:53.24	350.94	9.01	-27.0	-28.5	14.8	0.00e+00	0	44	102	1048576	14	4302
2026-01-25 10:48:54.24	350.84	8.94	-27.0	-28.5	14.8	1.10e-06	0	44	102	1048576	14	4306
2026-01-25 10:48:55.25	350.75	8.87	-27.0	-28.6	14.8	0.00e+00	0	44	102	1048576	14	4327
2026-01-25 10:48:56.24	350.66	8.80	-27.1	-28.8	14.7	3.40e-06	0	44	102	1048576	14	4377
2026-01-25 10:48:57.25	350.57	8.73	-27.0	-28.6	14.8	0.00e+00	0	44	102	1048576	14	4308
2026-01-25 10:48:58.25	350.47	8.66	-27.2	-29.0	14.6	1.10e-06	0	44	102	1048576	14	4423
2026-01-25 10:48:59.25	350.38	8.59	-27.3	-29.2	14.4	1.10e-06	0	44	102	1048576	14	4506
2026-01-25 10:49:00.26	350.29	8.52	-27.2	-29.0	14.5	2.20e-06	0	44	102	1048576	14	4433
2026-01-25 10:49:01.26	350.20	8.45	-27.0	-28.7	14.7	0.00e+00	0	44	102	1048576	14	4348
2026-01-25 10:49:02.26	350.11	8.38	-27.1	-28.8	14.6	0.00e+00	0	44	102	1048576	14	4369
2026-01-25 10:49:03.27	350.02	8.32	-27.1	-28.9	14.5	0.00e+00	0	44	102	1048576	14	4415
2026-01-25 10:49:04.28	349.93	8.25	-27.2	-29.0	14.5	2.20e-06	0	44	102	1048576	14	4432
2026-01-25 10:49:05.28	349.84	8.18	-27.1	-28.9	14.5	2.20e-06	0	44	102	1048576	14	4410
2026-01-25 10:49:06.28	349.75	8.11	-27.2	-29.0	14.4	1.10e-06	0	44	102	1048576	14	4447
2026-01-25 10:49:07.29	349.66	8.04	-27.2	-29.2	14.4	4.50e-06	0	44	102	1048576	14	4484
2026-01-25 10:49:08.29	349.58	7.97	-27.2	-29.0	14.5	0.00e+00	0	44	102	1048576	14	4432
2026-01-25 10:49:09.30	349.49	7.90	-27.2	-28.9	14.5	2.20e-06	0	44	102	1048576	14	4423
2026-01-25 10:49:10.30	349.40	7.84	-27.2	-29.1	14.3	2.20e-06	0	44	102	1048576	14	4485
2026-01-25 10:49:11.30	349.32	7.77	-27.3	-29.2	14.3	3.40e-06	0	44	102	1048576	14	4507
2026-01-25 10:49:12.30	349.23	7.70	-27.2	-29.0	14.4	1.10e-06	0	44	102	1048576	14	4449
2026-01-25 10:49:13.31	349.15	7.63	-27.1	-28.9	14.5	0.00e+00	0	44	102	1048576	14	4413
2026-01-25 10:49:14.31	349.06	7.56	-27.2	-29.1	14.4	2.20e-06	0	44	102	1048576	14	4457
2026-01-25 10:49:15.32	348.98	7.50	-27.1	-28.8	14.5	2.20e-06	0	44	102	1048576	14	4397
2026-01-25 10:49:16.32	348.89	7.43	-27.3	-29.3	14.2	3.40e-06	0	44	102	1048576	14	4520
2026-01-25 10:49:17.33	348.81	7.36	-27.3	-29.3	14.2	2.20e-06	0	44	102	1048576	14	4532
2026-01-25 10:49:18.34	348.72	7.29	-27.4	-29.5	14.1	4.50e-06	0	44	102	1048576	14	4597
2026-01-25 10:49:19.34	348.64	7.23	-27.6	-29.4	13.8	2.20e-06	0	44	102	1048576	15	4449
2026-01-25 10:49:20.34	348.56	7.16	-27.4	-29.0	14.0	8.00e-06	0	44	102	1048576	15	4343
2026-01-25 10:49:21.35	348.48	7.09	-30.4	-33.9	9.9	1.37e-05	0	44	102	1048576	20	5419
2026-01-25 10:49:22.35	348.39	7.03	-33.5	-44.0	3.8	8.42e-01	0	44	104	1048576	27	12005
2026-01-25 10:49:23.36	348.31	6.96	-33.9	-45.3	3.8	8.46e-01	0	44	104	1048576	27	13299
2026-01-25 10:49:24.36	348.23	6.89	-34.1	-45.2	3.8	8.46e-01	0	44	104	1048576	28	12982

#Closed at: 2026-01-25 10:49:25
#Recorded file [1 MB]: D:/data/31010_260125_133907.dat