passes_logs/2026/01/25/R2M6_AANII_01/R2M6_AANII_01__20260125_004516_FENGYUN_3D_rec.log

#Pass ID: 20260125_004516_FENGYUN 3D
#Satellite: FENGYUN 3D
#Configuration: FENGYUN 3D
#almurnet v.1.7.20240730
#Start time: 2026-01-25 00:46:14

#Version: 2.2.20231116
#Station: R2M6_AANII_01
#Location: 30.233357 lon 59.946436 lat
#TLE: 1 43010U 17072A   26024.51794477  .00000040  00000+0  40682-4 0  9990
#TLE: 2 43010  98.9961 356.4820 0002494  91.2631 268.8830 14.19699550424601

#Time	Az	El	Level	Level2	SNR	BER	BlckErr	Temp	State	Recorded	gain1	gain2
2026-01-25 00:46:14.12	37.83	10.60	-34.4	-53.9	3.8	7.47e-01	0	43	0	0	29	33928
2026-01-25 00:46:15.12	37.96	10.67	-34.2	-45.5	3.8	8.47e-01	0	44	104	0	28	13148
2026-01-25 00:46:16.12	38.08	10.73	-34.2	-45.6	3.8	8.46e-01	0	44	104	0	28	13312
2026-01-25 00:46:17.12	38.21	10.80	-34.3	-45.7	3.8	8.46e-01	0	43	104	0	28	13398
2026-01-25 00:46:18.13	38.34	10.86	-34.3	-45.7	3.8	8.45e-01	0	44	104	0	28	13384
2026-01-25 00:46:19.13	38.47	10.93	-34.3	-45.7	3.8	8.45e-01	0	44	104	0	28	13332
2026-01-25 00:46:20.14	38.60	10.99	-34.3	-45.7	3.8	8.46e-01	0	44	104	0	28	13369
2026-01-25 00:46:21.14	38.72	11.06	-34.3	-45.7	3.8	8.46e-01	0	44	104	0	28	13328
2026-01-25 00:46:22.14	38.85	11.12	-34.3	-45.6	3.8	8.46e-01	0	44	104	0	28	13290
2026-01-25 00:46:23.14	38.98	11.19	-34.3	-45.6	3.8	8.45e-01	0	44	104	0	28	13305
2026-01-25 00:46:24.15	39.11	11.25	-34.3	-45.6	3.8	8.46e-01	0	44	104	0	28	13260
2026-01-25 00:46:25.15	39.25	11.32	-34.3	-45.6	3.8	8.47e-01	0	44	104	0	28	13256
2026-01-25 00:46:26.15	39.38	11.38	-34.2	-45.6	3.8	8.46e-01	0	44	104	0	28	13240
2026-01-25 00:46:27.16	39.51	11.45	-34.2	-45.5	3.8	8.46e-01	0	44	104	0	28	13212
2026-01-25 00:46:28.17	39.64	11.51	-34.2	-45.5	3.8	8.45e-01	0	44	104	0	28	13192
2026-01-25 00:46:29.17	39.78	11.58	-34.2	-45.5	3.8	8.47e-01	0	44	104	0	28	13213
2026-01-25 00:46:30.18	39.91	11.65	-34.4	-45.8	3.8	8.45e-01	0	44	104	0	28	13362
2026-01-25 00:46:31.19	40.05	11.71	-34.5	-45.6	3.8	8.46e-01	0	44	104	0	29	12849
2026-01-25 00:46:32.19	40.18	11.78	-34.5	-45.6	3.8	8.47e-01	0	44	104	0	29	12873
2026-01-25 00:46:33.20	40.32	11.84	-34.5	-45.5	3.8	8.46e-01	0	44	104	0	29	12855
2026-01-25 00:46:34.20	40.46	11.91	-34.4	-45.5	3.8	8.45e-01	0	44	104	0	29	12842
2026-01-25 00:46:35.21	40.59	11.97	-34.4	-45.9	3.8	8.45e-01	0	44	104	0	28	13536
2026-01-25 00:46:36.21	40.73	12.04	-34.4	-45.8	3.8	8.46e-01	0	44	104	0	28	13491
2026-01-25 00:46:37.21	40.87	12.11	-34.4	-45.8	3.8	8.46e-01	0	44	104	0	28	13463
2026-01-25 00:46:38.22	41.01	12.17	-34.4	-45.8	3.8	8.46e-01	0	44	104	0	28	13375
2026-01-25 00:46:39.23	41.15	12.24	-34.3	-45.7	3.8	8.46e-01	0	44	104	0	28	13341
2026-01-25 00:46:40.23	41.29	12.30	-34.3	-45.6	3.8	8.46e-01	0	44	104	0	28	13297
2026-01-25 00:46:41.23	41.43	12.37	-34.2	-45.5	3.8	8.45e-01	0	44	104	0	28	13250
2026-01-25 00:46:42.23	41.57	12.44	-34.2	-45.4	3.8	8.46e-01	0	44	104	0	28	13110
2026-01-25 00:46:43.23	41.71	12.50	-34.1	-45.2	3.8	8.48e-01	0	44	104	0	28	12918
2026-01-25 00:46:44.24	41.86	12.57	-33.7	-44.5	3.8	8.46e-01	0	44	104	0	28	12503
2026-01-25 00:46:45.24	42.00	12.63	-33.9	-44.8	3.8	8.46e-01	0	44	104	0	28	12637
2026-01-25 00:46:46.24	42.14	12.70	-33.4	-42.2	3.8	8.46e-01	0	44	104	0	28	9945
2026-01-25 00:46:47.24	42.29	12.77	-33.4	-43.7	3.7	8.46e-01	0	44	104	0	27	11696
2026-01-25 00:46:48.24	42.43	12.83	-33.4	-43.6	3.8	8.45e-01	0	44	104	0	27	11575
2026-01-25 00:46:49.24	42.58	12.90	-33.4	-43.4	3.8	8.47e-01	0	44	104	0	27	11357
2026-01-25 00:46:50.25	42.72	12.96	-33.3	-43.0	3.8	8.47e-01	0	44	104	0	27	10948
2026-01-25 00:46:51.25	42.87	13.03	-33.3	-42.7	3.8	8.45e-01	0	44	104	0	27	10608
2026-01-25 00:46:52.26	43.02	13.10	-33.3	-42.6	3.8	8.46e-01	0	44	104	0	27	10460
2026-01-25 00:46:53.27	43.17	13.16	-33.3	-42.7	3.8	8.45e-01	0	44	104	0	27	10638
2026-01-25 00:46:54.28	43.32	13.23	-33.4	-43.5	3.8	8.46e-01	0	44	104	0	27	11505
2026-01-25 00:46:55.28	43.47	13.30	-33.5	-44.5	3.8	8.46e-01	0	44	104	0	27	12741
2026-01-25 00:46:56.29	43.62	13.36	-33.5	-44.3	3.8	8.46e-01	0	44	104	0	27	12592
2026-01-25 00:46:57.29	43.77	13.43	-33.2	-41.6	3.8	8.46e-01	0	44	104	0	27	9563
2026-01-25 00:46:58.29	43.92	13.49	-32.4	-37.9	4.3	8.37e-01	0	44	104	0	26	6785
2026-01-25 00:46:59.29	44.07	13.56	-31.3	-34.6	8.0	2.02e-01	0	44	104	0	24	5254
2026-01-25 00:47:00.30	44.23	13.63	-30.2	-32.8	10.2	1.04e-02	0	44	102	1048576	21	4851
2026-01-25 00:47:01.29	44.38	13.69	-29.1	-30.9	12.1	5.79e-04	0	44	102	1048576	19	4438
2026-01-25 00:47:02.30	44.53	13.76	-28.3	-29.5	13.3	2.30e-04	0	44	102	1048576	18	4135
2026-01-25 00:47:03.30	44.69	13.82	-27.8	-29.3	14.1	1.10e-06	0	44	102	1048576	16	4288
2026-01-25 00:47:04.31	44.84	13.89	-27.6	-28.9	14.3	2.00e-04	0	44	102	1048576	16	4183
2026-01-25 00:47:05.32	45.00	13.96	-27.9	-29.5	13.9	1.10e-06	0	44	102	1048576	16	4348
2026-01-25 00:47:06.32	45.16	14.02	-28.3	-30.6	13.2	4.50e-06	0	44	102	1048576	16	4684
2026-01-25 00:47:07.32	45.31	14.09	-29.1	-31.6	12.1	2.32e-04	0	44	102	1048576	18	4758
2026-01-25 00:47:08.33	45.47	14.16	-29.9	-33.0	10.9	1.96e-03	0	44	102	1048576	19	5160
2026-01-25 00:47:09.34	45.63	14.22	-29.8	-32.8	11.0	2.33e-03	0	44	102	1048576	19	5078
2026-01-25 00:47:10.34	45.79	14.29	-29.6	-32.2	11.4	8.67e-04	0	44	102	1048576	19	4856
2026-01-25 00:47:11.34	45.95	14.35	-29.7	-32.5	11.2	1.67e-03	0	44	102	1048576	19	4954
2026-01-25 00:47:12.35	46.11	14.42	-29.3	-31.4	11.9	3.41e-04	0	44	102	1048576	19	4593
2026-01-25 00:47:13.36	46.28	14.49	-28.9	-30.4	12.5	5.26e-04	0	44	102	1048576	19	4289
2026-01-25 00:47:14.36	46.44	14.55	-28.6	-30.1	13.1	4.40e-04	0	44	102	1048576	18	4319
2026-01-25 00:47:15.37	46.60	14.62	-28.2	-29.8	13.5	4.50e-06	0	44	102	1048576	17	4331
2026-01-25 00:47:16.37	46.77	14.68	-27.9	-29.1	13.9	3.35e-04	0	44	102	1048576	17	4130
2026-01-25 00:47:17.37	46.93	14.75	-27.7	-29.1	14.2	1.93e-04	0	44	102	1048576	16	4240
2026-01-25 00:47:18.38	47.10	14.82	-27.6	-28.8	14.4	0.00e+00	0	44	102	1048576	16	4164
2026-01-25 00:47:19.38	47.26	14.88	-27.8	-29.3	14.1	1.10e-06	0	44	102	1048576	16	4296
2026-01-25 00:47:20.38	47.43	14.95	-28.0	-29.9	13.7	2.35e-04	0	44	102	1048576	16	4462
2026-01-25 00:47:21.38	47.60	15.01	-27.4	-28.3	14.7	0.00e+00	0	44	102	1048576	16	4021
2026-01-25 00:47:22.39	47.76	15.08	-26.7	-27.9	15.3	2.96e-04	0	44	102	1048576	14	4119
2026-01-25 00:47:23.39	47.93	15.14	-26.2	-27.3	15.9	4.19e-04	0	44	102	1048576	13	4078
2026-01-25 00:47:24.40	48.10	15.21	-25.9	-26.6	16.3	0.00e+00	0	44	102	1048576	13	3909
2026-01-25 00:47:25.40	48.27	15.28	-25.7	-26.7	16.5	4.40e-04	0	44	102	1048576	12	4026
2026-01-25 00:47:26.41	48.45	15.34	-25.6	-27.0	16.7	0.00e+00	0	44	102	1048576	11	4219
2026-01-25 00:47:27.42	48.62	15.41	-25.6	-27.0	16.7	0.00e+00	0	44	102	1048576	11	4213
2026-01-25 00:47:28.42	48.79	15.47	-25.5	-26.8	16.8	0.00e+00	0	44	102	1048576	11	4161
2026-01-25 00:47:29.42	48.96	15.54	-25.5	-26.8	16.8	2.31e-04	0	44	102	1048576	11	4165
2026-01-25 00:47:30.43	49.14	15.60	-25.5	-26.7	16.9	0.00e+00	0	44	102	1048576	11	4129
2026-01-25 00:47:31.44	49.31	15.67	-25.5	-26.8	16.8	0.00e+00	0	44	102	1048576	11	4165
2026-01-25 00:47:32.45	49.49	15.73	-25.6	-26.9	16.8	0.00e+00	0	44	102	1048576	11	4181
2026-01-25 00:47:33.45	49.67	15.80	-25.6	-26.9	16.7	0.00e+00	0	44	102	1048576	11	4202
2026-01-25 00:47:34.46	49.84	15.86	-25.6	-26.9	16.7	3.88e-04	0	44	102	1048576	11	4202
2026-01-25 00:47:35.46	50.02	15.93	-25.3	-26.2	17.1	0.00e+00	0	44	102	1048576	11	4020
2026-01-25 00:47:36.46	50.20	15.99	-25.0	-25.7	17.4	0.00e+00	0	44	102	1048576	11	3880
2026-01-25 00:47:37.46	50.38	16.06	-24.9	-25.4	17.6	0.00e+00	0	44	102	1048576	11	3821
2026-01-25 00:47:38.47	50.56	16.12	-24.9	-25.5	17.5	0.00e+00	0	44	102	1048576	11	3839
2026-01-25 00:47:39.48	50.74	16.19	-25.0	-25.6	17.5	0.00e+00	0	44	102	1048576	11	3858
2026-01-25 00:47:40.48	50.92	16.25	-25.0	-25.6	17.5	0.00e+00	0	44	102	1048576	11	3866
2026-01-25 00:47:41.48	51.10	16.32	-24.9	-26.0	17.5	0.00e+00	0	44	102	1048576	10	4073
2026-01-25 00:47:42.49	51.29	16.38	-25.0	-26.1	17.5	0.00e+00	0	44	102	1048576	10	4086
2026-01-25 00:47:43.49	51.47	16.44	-24.9	-26.0	17.5	0.00e+00	0	44	102	1048576	10	4081
2026-01-25 00:47:44.50	51.66	16.51	-25.0	-26.2	17.5	0.00e+00	0	44	102	1048576	10	4112
2026-01-25 00:47:45.50	51.84	16.57	-25.0	-26.2	17.4	0.00e+00	0	44	102	1048576	10	4119
2026-01-25 00:47:46.50	52.03	16.64	-24.9	-26.0	17.6	0.00e+00	0	44	102	1048576	10	4074
2026-01-25 00:47:47.51	52.22	16.70	-24.9	-25.9	17.6	0.00e+00	0	44	102	1048576	10	4042
2026-01-25 00:47:48.51	52.40	16.76	-24.9	-26.0	17.5	0.00e+00	0	44	102	1048576	10	4063
2026-01-25 00:47:49.51	52.59	16.83	-24.9	-25.9	17.6	0.00e+00	0	44	102	1048576	10	4056
2026-01-25 00:47:50.51	52.78	16.89	-24.9	-26.0	17.5	0.00e+00	0	44	102	1048576	10	4068
2026-01-25 00:47:51.51	52.97	16.95	-24.9	-26.0	17.6	0.00e+00	0	44	102	1048576	10	4060
2026-01-25 00:47:52.52	53.16	17.02	-24.8	-25.6	17.7	0.00e+00	0	44	102	1048576	10	3977
2026-01-25 00:47:53.52	53.35	17.08	-24.8	-25.6	17.7	0.00e+00	0	44	102	1048576	10	3980
2026-01-25 00:47:54.53	53.54	17.14	-24.7	-25.4	17.8	0.00e+00	0	44	102	1048576	10	3923
2026-01-25 00:47:55.53	53.74	17.20	-24.6	-25.2	17.9	0.00e+00	0	44	102	1048576	10	3867
2026-01-25 00:47:56.53	53.93	17.27	-24.6	-25.3	17.9	0.00e+00	0	44	102	1048576	10	3902
2026-01-25 00:47:57.54	54.13	17.33	-24.6	-25.3	17.9	0.00e+00	0	44	102	1048576	10	3886
2026-01-25 00:47:58.54	54.32	17.39	-24.6	-25.7	17.9	0.00e+00	0	44	102	1048576	9	4117
2026-01-25 00:47:59.55	54.52	17.45	-24.6	-25.8	17.9	0.00e+00	0	44	102	1048576	9	4124
2026-01-25 00:48:00.55	54.71	17.51	-24.6	-25.8	17.9	0.00e+00	0	44	102	1048576	9	4132
2026-01-25 00:48:01.55	54.91	17.58	-24.7	-25.9	17.8	0.00e+00	0	44	102	1048576	9	4159
2026-01-25 00:48:02.56	55.11	17.64	-24.7	-26.0	17.8	0.00e+00	0	44	102	1048576	9	4177
2026-01-25 00:48:03.56	55.31	17.70	-24.6	-25.8	17.9	0.00e+00	0	44	102	1048576	9	4139
2026-01-25 00:48:04.57	55.51	17.76	-24.6	-25.8	17.9	0.00e+00	0	44	102	1048576	9	4142
2026-01-25 00:48:05.57	55.71	17.82	-24.7	-25.9	17.8	0.00e+00	0	44	102	1048576	9	4171
2026-01-25 00:48:06.58	55.92	17.88	-24.6	-25.8	17.9	0.00e+00	0	44	102	1048576	9	4117
2026-01-25 00:48:07.59	56.12	17.94	-24.5	-25.6	18.0	0.00e+00	0	44	102	1048576	9	4091
2026-01-25 00:48:08.59	56.32	18.00	-24.6	-25.9	17.8	0.00e+00	0	44	102	1048576	9	4150
2026-01-25 00:48:09.59	56.53	18.06	-24.6	-25.8	17.9	0.00e+00	0	44	102	1048576	9	4130
2026-01-25 00:48:10.59	56.73	18.12	-24.5	-25.6	18.0	0.00e+00	0	44	102	1048576	9	4090
2026-01-25 00:48:11.59	56.93	18.18	-24.5	-25.6	18.0	0.00e+00	0	44	102	1048576	9	4086
2026-01-25 00:48:12.60	57.14	18.24	-24.6	-25.7	17.9	0.00e+00	0	44	102	1048576	9	4116
2026-01-25 00:48:13.60	57.35	18.30	-24.6	-25.8	17.9	0.00e+00	0	44	102	1048576	9	4143
2026-01-25 00:48:14.61	57.56	18.36	-24.6	-25.9	17.8	0.00e+00	0	44	102	1048576	9	4156
2026-01-25 00:48:15.61	57.77	18.42	-24.6	-25.7	17.9	0.00e+00	0	44	102	1048576	9	4107
2026-01-25 00:48:16.62	57.98	18.48	-24.5	-25.7	18.0	0.00e+00	0	44	102	1048576	9	4102
2026-01-25 00:48:17.62	58.19	18.54	-24.6	-25.7	17.9	0.00e+00	0	44	102	1048576	9	4117
2026-01-25 00:48:18.62	58.40	18.59	-24.7	-26.1	17.7	0.00e+00	0	44	102	1048576	9	4211
2026-01-25 00:48:19.62	58.61	18.65	-24.7	-25.9	17.8	2.00e-04	0	44	102	1048576	9	4165
2026-01-25 00:48:20.63	58.82	18.71	-24.6	-25.8	17.9	0.00e+00	0	44	102	1048576	9	4123
2026-01-25 00:48:21.63	59.04	18.77	-24.7	-26.0	17.8	0.00e+00	0	44	102	1048576	9	4178
2026-01-25 00:48:22.63	59.25	18.82	-24.6	-25.8	17.8	0.00e+00	0	44	102	1048576	9	4140
2026-01-25 00:48:23.64	59.47	18.88	-24.5	-25.5	18.0	0.00e+00	0	44	102	1048576	9	4061
2026-01-25 00:48:24.64	59.68	18.94	-24.5	-25.6	18.0	0.00e+00	0	44	102	1048576	9	4071
2026-01-25 00:48:25.65	59.90	18.99	-24.5	-25.6	18.0	0.00e+00	0	44	102	1048576	9	4070
2026-01-25 00:48:26.65	60.12	19.05	-24.6	-25.8	17.9	0.00e+00	0	44	102	1048576	9	4142
2026-01-25 00:48:27.65	60.34	19.11	-24.5	-25.7	17.9	0.00e+00	0	44	102	1048576	9	4106
2026-01-25 00:48:28.65	60.55	19.16	-24.3	-25.2	18.2	0.00e+00	0	44	102	1048576	9	3979
2026-01-25 00:48:29.66	60.78	19.22	-24.2	-24.9	18.3	0.00e+00	0	44	102	1048576	9	3913
2026-01-25 00:48:30.66	61.00	19.27	-24.2	-24.9	18.4	0.00e+00	0	44	102	1048576	9	3916
2026-01-25 00:48:31.66	61.22	19.33	-24.3	-25.2	18.2	6.40e-05	0	44	102	1048576	9	3974
2026-01-25 00:48:32.67	61.44	19.38	-24.2	-24.9	18.3	0.00e+00	0	44	102	1048576	9	3921
2026-01-25 00:48:33.68	61.66	19.44	-24.1	-24.8	18.4	1.54e-04	0	44	102	1048576	9	3889
2026-01-25 00:48:34.68	61.89	19.49	-24.2	-25.0	18.3	0.00e+00	0	44	102	1048576	9	3932
2026-01-25 00:48:35.69	62.11	19.54	-24.2	-25.0	18.3	0.00e+00	0	44	102	1048576	9	3928
2026-01-25 00:48:36.70	62.34	19.60	-24.3	-25.2	18.2	2.95e-04	0	44	102	1048576	9	3986
2026-01-25 00:48:37.70	62.57	19.65	-24.4	-25.3	18.2	2.75e-04	0	44	102	1048576	9	3997
2026-01-25 00:48:38.71	62.79	19.70	-24.4	-25.4	18.1	0.00e+00	0	44	102	1048576	9	4025
2026-01-25 00:48:39.72	63.02	19.75	-24.6	-25.8	17.9	0.00e+00	0	44	102	1048576	9	4135
2026-01-25 00:48:40.72	63.25	19.81	-24.5	-25.7	18.0	3.36e-04	0	44	102	1048576	9	4103
2026-01-25 00:48:41.72	63.48	19.86	-24.4	-25.3	18.2	0.00e+00	0	44	102	1048576	9	4018
2026-01-25 00:48:42.72	63.71	19.91	-24.3	-25.1	18.3	4.55e-04	0	44	102	1048576	9	3958
2026-01-25 00:48:43.71	63.94	19.96	-24.3	-25.6	18.3	4.84e-04	0	44	102	1048576	8	4192
2026-01-25 00:48:44.72	64.17	20.01	-24.1	-25.3	18.4	0.00e+00	0	44	102	1048576	8	4106
2026-01-25 00:48:45.72	64.40	20.06	-24.1	-25.2	18.5	6.18e-04	0	44	102	1048576	8	4080
2026-01-25 00:48:46.72	64.63	20.11	-24.2	-25.4	18.4	0.00e+00	0	44	102	1048576	8	4141
2026-01-25 00:48:47.73	64.87	20.16	-24.3	-25.6	18.3	0.00e+00	0	44	102	1048576	8	4190
2026-01-25 00:48:48.73	65.10	20.21	-24.3	-25.8	18.2	8.31e-04	0	44	102	1048576	8	4243
2026-01-25 00:48:49.74	65.34	20.26	-24.2	-25.5	18.3	8.00e-04	0	44	102	1048576	8	4177
2026-01-25 00:48:50.75	65.58	20.30	-24.1	-25.3	18.5	0.00e+00	0	44	102	1048576	8	4110
2026-01-25 00:48:51.76	65.82	20.35	-24.1	-25.2	18.5	5.43e-04	0	44	102	1048576	8	4084
2026-01-25 00:48:52.76	66.05	20.40	-24.1	-25.3	18.4	3.51e-04	0	44	102	1048576	8	4121
2026-01-25 00:48:53.76	66.29	20.45	-24.1	-25.3	18.5	0.00e+00	0	44	102	1048576	8	4106
2026-01-25 00:48:54.77	66.53	20.49	-24.1	-25.3	18.4	3.07e-04	0	44	102	1048576	8	4122
2026-01-25 00:48:55.78	66.77	20.54	-24.4	-25.8	18.2	0.00e+00	0	44	102	1048576	8	4250
2026-01-25 00:48:56.78	67.01	20.59	-24.2	-25.5	18.3	0.00e+00	0	44	102	1048576	8	4169
2026-01-25 00:48:57.79	67.25	20.63	-24.1	-25.2	18.5	0.00e+00	0	44	102	1048576	8	4084
2026-01-25 00:48:58.79	67.49	20.68	-24.1	-25.2	18.5	1.21e-04	0	44	102	1048576	8	4092
2026-01-25 00:48:59.80	67.74	20.72	-24.1	-25.2	18.5	0.00e+00	0	44	102	1048576	8	4090
2026-01-25 00:49:00.80	67.98	20.76	-24.0	-25.0	18.6	0.00e+00	0	44	102	1048576	8	4039
2026-01-25 00:49:01.81	68.22	20.81	-23.9	-24.9	18.6	1.18e-04	0	44	102	1048576	8	4016
2026-01-25 00:49:02.81	68.47	20.85	-24.0	-24.9	18.6	0.00e+00	0	44	102	1048576	8	4029
2026-01-25 00:49:03.81	68.71	20.89	-24.1	-25.3	18.4	1.40e-04	0	44	102	1048576	8	4111
2026-01-25 00:49:04.81	68.96	20.94	-23.9	-24.9	18.7	0.00e+00	0	44	102	1048576	8	4007
2026-01-25 00:49:05.82	69.21	20.98	-23.7	-24.4	18.9	8.00e-06	0	44	102	1048576	8	3901
2026-01-25 00:49:06.82	69.45	21.02	-23.6	-24.2	19.0	9.15e-05	0	44	102	1048576	8	3854
2026-01-25 00:49:07.82	69.70	21.06	-23.7	-24.3	19.0	0.00e+00	0	44	102	1048576	8	3878
2026-01-25 00:49:08.83	69.95	21.10	-23.6	-24.1	19.0	0.00e+00	0	44	102	1048576	8	3836
2026-01-25 00:49:09.84	70.20	21.14	-23.7	-24.4	18.9	0.00e+00	0	44	102	1048576	8	3902
2026-01-25 00:49:10.84	70.45	21.18	-23.7	-24.3	19.0	0.00e+00	0	44	102	1048576	8	3882
2026-01-25 00:49:11.84	70.70	21.22	-23.7	-24.4	18.9	0.00e+00	0	44	102	1048576	8	3903
2026-01-25 00:49:12.84	70.95	21.26	-23.7	-24.5	18.9	0.00e+00	0	44	102	1048576	8	3915
2026-01-25 00:49:13.85	71.20	21.30	-23.7	-24.4	18.9	0.00e+00	0	44	102	1048576	8	3904
2026-01-25 00:49:14.85	71.45	21.33	-23.8	-24.6	18.8	0.00e+00	0	44	102	1048576	8	3954
2026-01-25 00:49:15.85	71.70	21.37	-23.8	-24.6	18.9	0.00e+00	0	44	102	1048576	8	3935
2026-01-25 00:49:16.86	71.96	21.41	-23.8	-24.7	18.8	0.00e+00	0	44	102	1048576	8	3971
2026-01-25 00:49:17.86	72.21	21.44	-23.9	-24.8	18.7	0.00e+00	0	44	102	1048576	8	3992
2026-01-25 00:49:18.86	72.47	21.48	-23.8	-24.6	18.6	0.00e+00	0	44	102	1048576	8	3969
2026-01-25 00:49:19.87	72.72	21.52	-23.8	-24.7	18.6	0.00e+00	0	44	102	1048576	8	3999
2026-01-25 00:49:20.87	72.98	21.55	-23.8	-24.6	18.7	0.00e+00	0	44	102	1048576	8	3957
2026-01-25 00:49:21.88	73.23	21.58	-23.8	-24.7	18.6	0.00e+00	0	44	102	1048576	8	3996
2026-01-25 00:49:22.89	73.49	21.62	-23.8	-24.7	18.5	0.00e+00	0	44	102	1048576	8	4003
2026-01-25 00:49:23.89	73.75	21.65	-23.9	-24.9	18.5	0.00e+00	0	44	102	1048576	8	4051
2026-01-25 00:49:24.89	74.01	21.68	-23.8	-24.7	18.6	0.00e+00	0	44	102	1048576	8	3989
2026-01-25 00:49:25.90	74.27	21.71	-23.7	-24.5	18.7	0.00e+00	0	44	102	1048576	8	3934
2026-01-25 00:49:26.90	74.52	21.75	-23.8	-24.6	18.7	1.10e-06	0	44	102	1048576	8	3961
2026-01-25 00:49:27.91	74.79	21.78	-23.6	-24.2	18.8	0.00e+00	0	44	102	1048576	8	3880
2026-01-25 00:49:28.91	75.05	21.81	-23.6	-24.3	18.8	0.00e+00	0	44	102	1048576	8	3890
2026-01-25 00:49:29.91	75.30	21.84	-23.7	-24.5	18.7	0.00e+00	0	44	102	1048576	8	3951
2026-01-25 00:49:30.91	75.56	21.87	-23.8	-24.6	18.7	0.00e+00	0	44	102	1048576	8	3975
2026-01-25 00:49:31.91	75.83	21.89	-23.7	-24.4	18.8	0.00e+00	0	44	102	1048576	8	3914
2026-01-25 00:49:32.91	76.09	21.92	-23.6	-24.3	18.8	0.00e+00	0	44	102	1048576	8	3880
2026-01-25 00:49:33.92	76.35	21.95	-23.6	-24.3	18.8	0.00e+00	0	44	102	1048576	8	3885
2026-01-25 00:49:34.93	76.61	21.98	-23.9	-24.9	18.5	0.00e+00	0	44	102	1048576	8	4035
2026-01-25 00:49:35.93	76.88	22.00	-23.7	-24.5	18.7	0.00e+00	0	44	102	1048576	8	3932
2026-01-25 00:49:36.93	77.14	22.03	-23.9	-25.0	18.5	0.00e+00	0	44	102	1048576	8	4058
2026-01-25 00:49:37.93	77.40	22.05	-23.8	-24.7	18.6	0.00e+00	0	44	102	1048576	8	3996
2026-01-25 00:49:38.93	77.67	22.08	-23.7	-24.6	18.6	0.00e+00	0	44	102	1048576	8	3956
2026-01-25 00:49:39.94	77.93	22.10	-23.7	-24.5	18.7	0.00e+00	0	44	102	1048576	8	3944
2026-01-25 00:49:40.94	78.20	22.12	-23.8	-24.8	18.6	0.00e+00	0	44	102	1048576	8	3999
2026-01-25 00:49:41.95	78.47	22.15	-23.6	-24.2	18.9	0.00e+00	0	44	102	1048576	8	3864
2026-01-25 00:49:42.95	78.73	22.17	-23.4	-23.9	19.0	0.00e+00	0	44	102	1048576	8	3804
2026-01-25 00:49:43.95	79.00	22.19	-23.5	-24.1	18.9	0.00e+00	0	44	102	1048576	8	3854
2026-01-25 00:49:44.96	79.26	22.21	-23.6	-24.2	18.8	0.00e+00	0	44	102	1048576	8	3879
2026-01-25 00:49:45.97	79.53	22.23	-23.9	-24.9	18.5	0.00e+00	0	44	102	1048576	8	4029
2026-01-25 00:49:46.97	79.80	22.25	-23.7	-24.5	18.7	0.00e+00	0	44	102	1048576	8	3936
2026-01-25 00:49:47.98	80.07	22.27	-23.5	-24.0	18.9	0.00e+00	0	44	102	1048576	8	3833
2026-01-25 00:49:48.98	80.34	22.29	-23.4	-23.8	19.0	0.00e+00	0	44	102	1048576	8	3787
2026-01-25 00:49:49.99	80.61	22.31	-23.4	-24.3	19.0	0.00e+00	0	44	102	1048576	7	4005
2026-01-25 00:49:51.00	80.88	22.33	-23.3	-24.1	19.1	0.00e+00	0	44	102	1048576	7	3956
2026-01-25 00:49:52.00	81.15	22.34	-23.4	-24.2	19.0	0.00e+00	0	44	102	1048576	7	3972
2026-01-25 00:49:53.00	81.41	22.36	-23.4	-24.3	19.0	0.00e+00	0	44	102	1048576	7	4004
2026-01-25 00:49:54.00	81.68	22.37	-23.5	-24.6	17.5	0.00e+00	0	44	102	1048576	7	4077
2026-01-25 00:49:55.01	81.95	22.39	-23.5	-24.5	18.8	0.00e+00	0	44	102	1048576	7	4061
2026-01-25 00:49:56.01	82.22	22.40	-23.4	-24.4	18.9	0.00e+00	0	44	102	1048576	7	4043
2026-01-25 00:49:57.01	82.49	22.41	-23.6	-24.9	18.7	0.00e+00	0	44	102	1048576	7	4145
2026-01-25 00:49:58.02	82.77	22.43	-23.4	-24.3	19.0	0.00e+00	0	44	102	1048576	7	4013
2026-01-25 00:49:59.03	83.04	22.44	-23.4	-24.3	19.0	0.00e+00	0	44	102	1048576	7	4001
2026-01-25 00:50:00.04	83.31	22.45	-23.6	-24.7	18.8	0.00e+00	0	44	102	1048576	7	4098
2026-01-25 00:50:01.04	83.58	22.46	-23.4	-24.4	18.9	5.26e-05	0	44	102	1048576	7	4025
2026-01-25 00:50:02.04	83.85	22.47	-23.4	-24.4	19.0	0.00e+00	0	44	102	1048576	7	4017
2026-01-25 00:50:03.04	84.12	22.48	-23.5	-24.6	18.9	3.89e-05	0	44	102	1048576	7	4063
2026-01-25 00:50:04.04	84.39	22.49	-23.4	-24.3	19.0	0.00e+00	0	44	102	1048576	7	3998
2026-01-25 00:50:05.05	84.67	22.50	-23.3	-24.2	19.0	0.00e+00	0	44	102	1048576	7	3977
2026-01-25 00:50:06.06	84.94	22.51	-23.4	-24.3	19.0	3.40e-06	0	44	102	1048576	7	3999
2026-01-25 00:50:07.06	85.21	22.51	-23.6	-24.7	18.8	0.00e+00	0	44	102	1048576	7	4107
2026-01-25 00:50:08.07	85.49	22.52	-23.3	-24.2	19.0	0.00e+00	0	44	102	1048576	7	3981
2026-01-25 00:50:09.07	85.76	22.53	-23.3	-24.1	19.1	0.00e+00	0	44	102	1048576	7	3942
2026-01-25 00:50:10.07	86.03	22.53	-23.3	-24.1	19.1	2.28e-05	0	44	102	1048576	7	3961
2026-01-25 00:50:11.08	86.30	22.53	-23.3	-24.0	19.1	0.00e+00	0	44	102	1048576	7	3937
2026-01-25 00:50:12.08	86.58	22.54	-23.3	-24.2	19.0	6.63e-05	0	44	102	1048576	7	3977
2026-01-25 00:50:13.09	86.85	22.54	-23.3	-24.2	19.0	7.89e-05	0	44	102	1048576	7	3972
2026-01-25 00:50:14.10	87.13	22.54	-23.3	-24.2	19.1	0.00e+00	0	44	102	1048576	7	3971
2026-01-25 00:50:15.10	87.40	22.55	-23.5	-24.5	18.9	8.92e-05	0	44	102	1048576	7	4047
2026-01-25 00:50:16.11	87.67	22.55	-23.6	-24.9	18.7	1.44e-04	0	44	102	1048576	7	4142
2026-01-25 00:50:17.11	87.94	22.55	-23.5	-24.5	18.9	0.00e+00	0	44	102	1048576	7	4059
2026-01-25 00:50:18.12	88.22	22.55	-23.6	-24.7	18.8	2.07e-04	0	44	102	1048576	7	4109
2026-01-25 00:50:19.13	88.49	22.55	-23.7	-25.0	18.6	1.59e-04	0	44	102	1048576	7	4182
2026-01-25 00:50:20.13	88.77	22.54	-23.5	-24.6	18.9	0.00e+00	0	44	102	1048576	7	4068
2026-01-25 00:50:21.13	89.04	22.54	-23.4	-24.4	18.9	1.29e-04	0	44	102	1048576	7	4040
2026-01-25 00:50:22.13	89.31	22.54	-23.5	-24.7	18.8	1.75e-04	0	44	102	1048576	7	4090
2026-01-25 00:50:23.13	89.58	22.53	-23.6	-24.7	18.8	0.00e+00	0	44	102	1048576	7	4102
2026-01-25 00:50:24.13	89.85	22.53	-23.7	-25.0	18.6	1.70e-04	0	44	102	1048576	7	4167
2026-01-25 00:50:25.13	90.12	22.53	-23.4	-24.4	18.9	1.54e-04	0	44	102	1048576	7	4038
2026-01-25 00:50:26.14	90.40	22.52	-23.3	-24.1	19.1	0.00e+00	0	44	102	1048576	7	3959
2026-01-25 00:50:27.13	90.67	22.51	-23.2	-24.0	19.1	1.82e-04	0	44	102	1048576	7	3919
2026-01-25 00:50:28.14	90.94	22.51	-23.3	-24.2	19.0	0.00e+00	0	44	102	1048576	7	3965
2026-01-25 00:50:29.14	91.21	22.50	-23.2	-24.0	19.1	0.00e+00	0	44	102	1048576	7	3941
2026-01-25 00:50:30.15	91.49	22.49	-23.3	-24.2	19.0	0.00e+00	0	44	102	1048576	7	3981
2026-01-25 00:50:31.15	91.76	22.48	-23.3	-24.1	19.1	1.61e-04	0	44	102	1048576	7	3960
2026-01-25 00:50:32.16	92.03	22.47	-23.4	-24.3	19.0	0.00e+00	0	44	102	1048576	7	4004
2026-01-25 00:50:33.16	92.30	22.46	-23.3	-24.2	19.0	0.00e+00	0	44	102	1048576	7	3971
2026-01-25 00:50:34.17	92.58	22.45	-23.4	-24.4	18.9	4.92e-05	0	44	102	1048576	7	4021
2026-01-25 00:50:35.17	92.85	22.44	-23.6	-24.7	18.7	0.00e+00	0	44	102	1048576	7	4098
2026-01-25 00:50:36.17	93.12	22.43	-23.4	-24.3	18.9	0.00e+00	0	44	102	1048576	7	4008
2026-01-25 00:50:37.18	93.39	22.42	-23.4	-24.3	19.0	0.00e+00	0	44	102	1048576	7	3995
2026-01-25 00:50:38.18	93.66	22.40	-23.4	-24.4	18.9	0.00e+00	0	44	102	1048576	7	4018
2026-01-25 00:50:39.18	93.93	22.39	-23.4	-24.3	18.9	0.00e+00	0	44	102	1048576	7	4014
2026-01-25 00:50:40.18	94.20	22.37	-23.4	-24.3	18.9	0.00e+00	0	44	102	1048576	7	4009
2026-01-25 00:50:41.19	94.47	22.36	-23.4	-24.3	19.0	0.00e+00	0	44	102	1048576	7	3991
2026-01-25 00:50:42.19	94.74	22.34	-23.4	-24.4	18.9	0.00e+00	0	44	102	1048576	7	4020
2026-01-25 00:50:43.18	95.00	22.33	-23.6	-24.7	18.7	0.00e+00	0	44	102	1048576	7	4101
2026-01-25 00:50:44.19	95.28	22.31	-23.4	-24.4	18.9	0.00e+00	0	44	102	1048576	7	4036
2026-01-25 00:50:45.20	95.55	22.29	-23.4	-24.4	18.9	0.00e+00	0	44	102	1048576	7	4030
2026-01-25 00:50:46.21	95.82	22.27	-23.5	-24.5	18.8	0.00e+00	0	44	102	1048576	7	4059
2026-01-25 00:50:47.21	96.08	22.25	-23.5	-24.5	18.8	0.00e+00	0	44	102	1048576	7	4040
2026-01-25 00:50:48.22	96.35	22.23	-23.5	-24.6	18.8	0.00e+00	0	44	102	1048576	7	4087
2026-01-25 00:50:49.22	96.62	22.21	-23.5	-24.6	18.8	0.00e+00	0	44	102	1048576	7	4079
2026-01-25 00:50:50.23	96.89	22.19	-23.7	-24.9	18.6	0.00e+00	0	44	102	1048576	7	4149
2026-01-25 00:50:51.23	97.16	22.17	-23.5	-24.6	18.8	0.00e+00	0	44	102	1048576	7	4087
2026-01-25 00:50:52.23	97.42	22.15	-23.5	-24.5	18.8	0.00e+00	0	44	102	1048576	7	4061
2026-01-25 00:50:53.24	97.69	22.13	-23.5	-24.6	18.8	0.00e+00	0	44	102	1048576	7	4087
2026-01-25 00:50:54.24	97.95	22.10	-23.5	-24.5	18.8	0.00e+00	0	44	102	1048576	7	4050
2026-01-25 00:50:55.25	98.22	22.08	-23.5	-24.5	18.8	0.00e+00	0	44	102	1048576	7	4060
2026-01-25 00:50:56.25	98.49	22.05	-23.6	-24.7	18.7	0.00e+00	0	44	102	1048576	7	4103
2026-01-25 00:50:57.25	98.75	22.03	-23.6	-24.8	18.7	0.00e+00	0	44	102	1048576	7	4120
2026-01-25 00:50:58.26	99.01	22.00	-23.6	-24.7	18.7	0.00e+00	0	44	102	1048576	7	4109
2026-01-25 00:50:59.26	99.28	21.98	-23.6	-24.9	18.7	0.00e+00	0	44	102	1048576	7	4144
2026-01-25 00:51:00.27	99.54	21.95	-23.7	-24.9	18.6	0.00e+00	0	44	102	1048576	7	4157
2026-01-25 00:51:01.27	99.80	21.92	-23.8	-25.1	18.5	0.00e+00	0	44	102	1048576	7	4207
2026-01-25 00:51:02.27	100.07	21.90	-23.7	-25.1	18.5	0.00e+00	0	44	102	1048576	7	4201
2026-01-25 00:51:03.27	100.33	21.87	-23.7	-25.1	18.5	0.00e+00	0	44	102	1048576	7	4213
2026-01-25 00:51:04.27	100.59	21.84	-23.7	-25.0	18.5	0.00e+00	0	44	102	1048576	7	4180
2026-01-25 00:51:05.28	100.85	21.81	-23.7	-25.1	18.5	0.00e+00	0	44	102	1048576	7	4195
2026-01-25 00:51:06.27	101.11	21.78	-23.5	-24.5	18.8	0.00e+00	0	44	102	1048576	7	4054
2026-01-25 00:51:07.28	101.37	21.75	-23.4	-24.4	18.9	0.00e+00	0	44	102	1048576	7	4021
2026-01-25 00:51:08.29	101.63	21.72	-23.4	-24.4	18.8	0.00e+00	0	44	102	1048576	7	4037
2026-01-25 00:51:09.29	101.89	21.68	-23.5	-24.6	18.7	0.00e+00	0	44	102	1048576	7	4072
2026-01-25 00:51:10.28	102.14	21.65	-23.5	-24.5	18.8	0.00e+00	0	44	102	1048576	7	4069
2026-01-25 00:51:11.28	102.40	21.62	-23.6	-24.7	18.7	0.00e+00	0	44	102	1048576	7	4112
2026-01-25 00:51:12.28	102.66	21.59	-23.5	-24.7	18.7	0.00e+00	0	44	102	1048576	7	4093
2026-01-25 00:51:13.29	102.92	21.55	-23.6	-24.8	18.7	2.20e-06	0	44	102	1048576	7	4121
2026-01-25 00:51:14.29	103.17	21.52	-23.6	-24.8	18.6	0.00e+00	0	44	102	1048576	7	4140
2026-01-25 00:51:15.30	103.43	21.48	-23.8	-25.1	18.5	0.00e+00	0	44	102	1048576	7	4209
2026-01-25 00:51:16.30	103.68	21.45	-23.8	-25.2	18.4	0.00e+00	0	44	102	1048576	7	4244
2026-01-25 00:51:17.31	103.94	21.41	-23.9	-25.5	18.3	0.00e+00	0	44	102	1048576	7	4314
2026-01-25 00:51:18.32	104.20	21.37	-23.9	-25.5	18.3	0.00e+00	0	44	102	1048576	7	4323
2026-01-25 00:51:19.32	104.45	21.34	-23.9	-25.5	18.3	0.00e+00	0	44	102	1048576	7	4304
2026-01-25 00:51:20.33	104.70	21.30	-23.8	-25.1	18.4	0.00e+00	0	44	102	1048576	7	4216
2026-01-25 00:51:21.34	104.96	21.26	-23.7	-25.1	18.5	0.00e+00	0	44	102	1048576	7	4188
2026-01-25 00:51:22.34	105.21	21.22	-23.9	-25.3	18.4	0.00e+00	0	44	102	1048576	7	4261
2026-01-25 00:51:23.35	105.46	21.18	-24.0	-25.6	18.2	0.00e+00	0	44	102	1048576	7	4332
2026-01-25 00:51:24.35	105.71	21.14	-24.2	-25.5	18.1	0.00e+00	0	44	102	1048576	8	4179
2026-01-25 00:51:25.36	105.96	21.10	-24.3	-25.8	17.9	0.00e+00	0	44	102	1048576	8	4270
2026-01-25 00:51:26.36	106.21	21.06	-24.3	-25.7	17.7	0.00e+00	0	44	102	1048576	8	4256
2026-01-25 00:51:27.36	106.46	21.02	-24.4	-26.0	17.8	0.00e+00	0	44	102	1048576	8	4336
2026-01-25 00:51:28.36	106.70	20.98	-24.3	-25.7	17.9	0.00e+00	0	44	102	1048576	8	4250
2026-01-25 00:51:29.37	106.95	20.94	-24.3	-25.7	17.9	0.00e+00	0	44	102	1048576	8	4241
2026-01-25 00:51:30.36	107.20	20.89	-24.3	-25.7	17.9	0.00e+00	0	44	102	1048576	8	4257
2026-01-25 00:51:31.37	107.44	20.85	-24.3	-25.8	17.9	0.00e+00	0	44	102	1048576	8	4272
2026-01-25 00:51:32.37	107.69	20.81	-24.4	-25.5	17.8	0.00e+00	0	44	102	1048576	9	4068
2026-01-25 00:51:33.38	107.93	20.76	-24.1	-24.9	18.1	6.75e-05	0	44	102	1048576	9	3934
2026-01-25 00:51:34.38	108.18	20.72	-24.0	-24.6	18.2	0.00e+00	0	44	102	1048576	9	3862
2026-01-25 00:51:35.39	108.42	20.67	-23.9	-24.5	18.3	8.23e-05	0	44	102	1048576	9	3832
2026-01-25 00:51:36.40	108.67	20.63	-24.0	-24.5	18.3	0.00e+00	0	44	102	1048576	9	3849
2026-01-25 00:51:37.41	108.91	20.58	-23.9	-24.5	18.3	0.00e+00	0	44	102	1048576	9	3838
2026-01-25 00:51:38.42	109.15	20.54	-23.9	-24.3	18.3	4.57e-05	0	44	102	1048576	9	3802
2026-01-25 00:51:39.42	109.39	20.49	-24.0	-24.6	18.2	0.00e+00	0	44	102	1048576	9	3876
2026-01-25 00:51:40.42	109.63	20.44	-24.1	-24.9	18.1	0.00e+00	0	44	102	1048576	9	3929
2026-01-25 00:51:41.42	109.87	20.40	-24.2	-24.9	18.0	0.00e+00	0	44	102	1048576	9	3947
2026-01-25 00:51:42.43	110.11	20.35	-24.3	-25.3	17.9	2.39e-04	0	44	102	1048576	9	4023
2026-01-25 00:51:43.42	110.34	20.30	-24.1	-24.9	18.0	0.00e+00	0	44	102	1048576	9	3948
2026-01-25 00:51:44.43	110.58	20.25	-24.1	-24.8	18.1	2.31e-04	0	44	102	1048576	9	3922
2026-01-25 00:51:45.43	110.82	20.20	-24.1	-24.9	18.1	1.98e-04	0	44	102	1048576	9	3942
2026-01-25 00:51:46.44	111.05	20.15	-24.1	-25.0	18.0	0.00e+00	0	44	102	1048576	9	3953
2026-01-25 00:51:47.43	111.28	20.10	-24.1	-24.8	18.1	1.60e-04	0	44	102	1048576	9	3906
2026-01-25 00:51:48.44	111.52	20.05	-24.1	-24.8	18.0	8.00e-06	0	44	102	1048576	9	3924
2026-01-25 00:51:49.45	111.75	20.00	-24.1	-25.0	18.0	0.00e+00	0	44	102	1048576	9	3958
2026-01-25 00:51:50.45	111.99	19.95	-24.2	-25.1	17.9	1.73e-04	0	44	102	1048576	9	3988
2026-01-25 00:51:51.46	112.22	19.90	-24.2	-25.2	17.9	1.66e-04	0	44	102	1048576	9	4008
2026-01-25 00:51:52.47	112.45	19.85	-24.2	-25.0	17.9	0.00e+00	0	44	102	1048576	9	3968
2026-01-25 00:51:53.47	112.68	19.80	-24.2	-25.0	17.9	5.26e-05	0	44	102	1048576	9	3978
2026-01-25 00:51:54.48	112.91	19.75	-24.1	-24.9	18.0	4.50e-06	0	44	102	1048576	9	3953
2026-01-25 00:51:55.48	113.14	19.69	-24.0	-24.7	18.1	0.00e+00	0	44	102	1048576	9	3881
2026-01-25 00:51:56.48	113.37	19.64	-24.0	-24.7	18.1	4.50e-06	0	44	102	1048576	9	3887
2026-01-25 00:51:57.49	113.60	19.59	-24.0	-24.7	18.1	0.00e+00	0	44	102	1048576	9	3894
2026-01-25 00:51:58.49	113.82	19.53	-24.1	-25.0	17.9	0.00e+00	0	44	102	1048576	9	3957
2026-01-25 00:51:59.49	114.05	19.48	-24.2	-25.2	17.8	1.02e-05	0	44	102	1048576	9	4006
2026-01-25 00:52:00.50	114.27	19.43	-24.4	-25.4	17.7	0.00e+00	0	44	102	1048576	9	4082
2026-01-25 00:52:01.51	114.50	19.37	-24.4	-25.6	17.6	0.00e+00	0	44	102	1048576	9	4119
2026-01-25 00:52:02.52	114.72	19.32	-24.4	-25.6	17.6	0.00e+00	0	44	102	1048576	9	4110
2026-01-25 00:52:03.52	114.94	19.26	-24.5	-25.7	17.5	4.00e-05	0	44	102	1048576	9	4144
2026-01-25 00:52:04.52	115.16	19.21	-24.4	-25.6	17.6	0.00e+00	0	44	102	1048576	9	4117
2026-01-25 00:52:05.52	115.38	19.15	-24.4	-25.5	17.6	0.00e+00	0	44	102	1048576	9	4086
2026-01-25 00:52:06.53	115.61	19.09	-24.4	-25.5	17.6	0.00e+00	0	44	102	1048576	9	4075
2026-01-25 00:52:07.54	115.83	19.04	-24.4	-25.5	17.6	0.00e+00	0	44	102	1048576	9	4089
2026-01-25 00:52:08.54	116.04	18.98	-24.4	-25.5	17.6	2.17e-05	0	44	102	1048576	9	4089
2026-01-25 00:52:09.55	116.26	18.92	-24.4	-25.5	17.6	0.00e+00	0	44	102	1048576	9	4098
2026-01-25 00:52:10.55	116.48	18.87	-24.4	-25.5	17.6	0.00e+00	0	44	102	1048576	9	4094
2026-01-25 00:52:11.56	116.70	18.81	-24.4	-25.6	17.6	0.00e+00	0	44	102	1048576	9	4108
2026-01-25 00:52:12.57	116.91	18.75	-24.4	-25.5	17.6	0.00e+00	0	44	102	1048576	9	4090
2026-01-25 00:52:13.57	117.13	18.69	-24.3	-25.3	17.7	0.00e+00	0	44	102	1048576	9	4037
2026-01-25 00:52:14.58	117.34	18.64	-24.4	-25.4	17.7	0.00e+00	0	44	102	1048576	9	4077
2026-01-25 00:52:15.58	117.56	18.58	-24.3	-25.3	17.7	0.00e+00	0	44	102	1048576	9	4051
2026-01-25 00:52:16.59	117.77	18.52	-24.3	-25.3	17.7	0.00e+00	0	44	102	1048576	9	4052
2026-01-25 00:52:17.59	117.98	18.46	-24.3	-25.4	17.7	0.00e+00	0	44	102	1048576	9	4058
2026-01-25 00:52:18.60	118.19	18.40	-24.4	-25.6	17.6	0.00e+00	0	44	102	1048576	9	4109
2026-01-25 00:52:19.60	118.40	18.34	-24.5	-25.7	17.5	0.00e+00	0	44	102	1048576	9	4149
2026-01-25 00:52:20.60	118.61	18.28	-24.6	-25.9	17.4	0.00e+00	0	44	102	1048576	9	4198
2026-01-25 00:52:21.60	118.82	18.22	-24.6	-25.9	17.4	0.00e+00	0	44	102	1048576	9	4209
2026-01-25 00:52:22.61	119.03	18.16	-24.6	-25.9	17.4	0.00e+00	0	44	102	1048576	9	4188
2026-01-25 00:52:23.61	119.23	18.10	-24.6	-26.0	17.3	0.00e+00	0	44	102	1048576	9	4225
2026-01-25 00:52:24.62	119.44	18.04	-24.7	-26.1	17.3	1.10e-06	0	44	102	1048576	9	4245
2026-01-25 00:52:25.62	119.64	17.98	-24.8	-26.4	17.1	0.00e+00	0	44	102	1048576	9	4305
2026-01-25 00:52:26.63	119.85	17.92	-24.8	-26.5	17.1	0.00e+00	0	44	102	1048576	9	4345
2026-01-25 00:52:27.63	120.05	17.86	-24.9	-26.6	17.0	1.10e-06	0	44	102	1048576	9	4368
2026-01-25 00:52:28.62	120.25	17.80	-24.9	-26.6	17.0	0.00e+00	0	44	102	1048576	9	4381
2026-01-25 00:52:29.63	120.45	17.74	-24.9	-26.6	17.0	0.00e+00	0	44	102	1048576	9	4367
2026-01-25 00:52:30.64	120.66	17.68	-24.9	-26.6	17.0	3.40e-06	0	44	102	1048576	9	4379
2026-01-25 00:52:31.64	120.86	17.61	-24.8	-26.4	17.1	0.00e+00	0	44	102	1048576	9	4320
2026-01-25 00:52:32.64	121.05	17.55	-24.7	-26.2	17.2	0.00e+00	0	44	102	1048576	9	4263
2026-01-25 00:52:33.65	121.25	17.49	-24.8	-26.3	17.2	0.00e+00	0	44	102	1048576	9	4295
2026-01-25 00:52:34.65	121.45	17.43	-24.9	-26.6	17.0	0.00e+00	0	44	102	1048576	9	4390
2026-01-25 00:52:35.65	121.65	17.37	-25.0	-26.8	16.9	0.00e+00	0	44	102	1048576	9	4432
2026-01-25 00:52:36.65	121.84	17.30	-25.1	-26.5	16.8	0.00e+00	0	44	102	1048576	10	4228
2026-01-25 00:52:37.65	122.04	17.24	-25.0	-26.3	16.9	0.00e+00	0	44	102	1048576	10	4177
2026-01-25 00:52:38.66	122.23	17.18	-24.9	-26.0	17.0	0.00e+00	0	44	102	1048576	10	4112
2026-01-25 00:52:39.67	122.43	17.11	-24.9	-26.0	17.1	0.00e+00	0	44	102	1048576	10	4098
2026-01-25 00:52:40.67	122.62	17.05	-25.1	-26.4	16.8	0.00e+00	0	44	102	1048576	10	4210
2026-01-25 00:52:41.68	122.82	16.99	-25.1	-26.4	16.8	0.00e+00	0	44	102	1048576	10	4211
2026-01-25 00:52:42.69	123.01	16.92	-25.0	-26.4	16.8	0.00e+00	0	44	102	1048576	10	4212
2026-01-25 00:52:43.69	123.20	16.86	-25.2	-26.6	16.7	0.00e+00	0	44	102	1048576	10	4275
2026-01-25 00:52:44.69	123.39	16.80	-25.2	-26.7	16.7	0.00e+00	0	44	102	1048576	10	4280
2026-01-25 00:52:45.70	123.58	16.73	-25.2	-26.7	16.7	0.00e+00	0	44	102	1048576	10	4286
2026-01-25 00:52:46.70	123.77	16.67	-25.2	-26.7	16.6	0.00e+00	0	44	102	1048576	10	4299
2026-01-25 00:52:47.71	123.95	16.60	-25.4	-27.3	16.4	0.00e+00	0	44	102	1048576	10	4450
2026-01-25 00:52:48.71	124.14	16.54	-25.3	-26.5	16.5	0.00e+00	0	44	102	1048576	11	4141
2026-01-25 00:52:49.71	124.33	16.48	-25.0	-25.9	16.8	0.00e+00	0	44	102	1048576	11	3965
2026-01-25 00:52:50.72	124.51	16.41	-24.8	-25.4	17.0	0.00e+00	0	44	102	1048576	11	3859
2026-01-25 00:52:51.72	124.70	16.35	-24.8	-25.3	17.1	0.00e+00	0	44	102	1048576	11	3821
2026-01-25 00:52:52.73	124.88	16.28	-24.9	-25.5	16.6	0.00e+00	0	44	102	1048576	11	3869
2026-01-25 00:52:53.73	125.06	16.22	-24.9	-25.5	16.8	0.00e+00	0	44	102	1048576	11	3867
2026-01-25 00:52:54.73	125.25	16.15	-24.9	-25.7	16.9	0.00e+00	0	44	102	1048576	11	3913
2026-01-25 00:52:55.73	125.43	16.09	-25.0	-25.9	16.8	0.00e+00	0	44	102	1048576	11	3966
2026-01-25 00:52:56.73	125.61	16.02	-25.2	-26.2	16.6	0.00e+00	0	44	102	1048576	11	4055
2026-01-25 00:52:57.74	125.79	15.96	-25.3	-26.4	16.5	0.00e+00	0	44	102	1048576	11	4119
2026-01-25 00:52:58.75	125.97	15.89	-25.3	-26.6	16.4	0.00e+00	0	44	102	1048576	11	4168
2026-01-25 00:52:59.75	126.15	15.83	-25.3	-26.6	16.4	0.00e+00	0	44	102	1048576	11	4160
2026-01-25 00:53:00.76	126.32	15.76	-25.3	-26.5	16.4	7.32e-05	0	44	102	1048576	11	4150
2026-01-25 00:53:01.77	126.50	15.69	-25.3	-26.5	16.4	0.00e+00	0	44	102	1048576	11	4148
2026-01-25 00:53:02.77	126.68	15.63	-25.4	-26.8	16.2	0.00e+00	0	44	102	1048576	11	4204
2026-01-25 00:53:03.77	126.85	15.56	-25.3	-26.4	16.4	0.00e+00	0	44	102	1048576	11	4112
2026-01-25 00:53:04.78	127.03	15.50	-25.1	-26.1	16.7	1.10e-04	0	44	102	1048576	11	4012
2026-01-25 00:53:05.79	127.20	15.43	-25.1	-26.0	16.7	3.77e-05	0	44	102	1048576	11	4003
2026-01-25 00:53:06.79	127.38	15.37	-25.2	-26.3	16.5	0.00e+00	0	44	102	1048576	11	4080
2026-01-25 00:53:07.79	127.55	15.30	-25.2	-26.2	16.6	7.32e-05	0	44	102	1048576	11	4056
2026-01-25 00:53:08.80	127.72	15.23	-25.2	-26.3	16.5	0.00e+00	0	44	102	1048576	11	4075
2026-01-25 00:53:09.80	127.89	15.17	-25.3	-26.5	16.4	4.69e-05	0	44	102	1048576	11	4139
2026-01-25 00:53:10.80	128.06	15.10	-25.2	-26.4	16.4	0.00e+00	0	44	102	1048576	11	4119
2026-01-25 00:53:11.80	128.23	15.04	-25.2	-26.3	16.5	1.46e-04	0	44	102	1048576	11	4106
2026-01-25 00:53:12.81	128.40	14.97	-25.2	-26.4	16.4	2.20e-06	0	44	102	1048576	11	4115
2026-01-25 00:53:13.81	128.57	14.90	-25.2	-26.3	16.4	0.00e+00	0	44	102	1048576	11	4106
2026-01-25 00:53:14.82	128.74	14.84	-25.3	-26.5	16.4	1.45e-04	0	44	102	1048576	11	4133
2026-01-25 00:53:15.82	128.90	14.77	-25.3	-26.5	16.4	0.00e+00	0	44	102	1048576	11	4134
2026-01-25 00:53:16.83	129.07	14.70	-25.3	-26.5	16.4	2.97e-05	0	44	102	1048576	11	4129
2026-01-25 00:53:17.83	129.23	14.64	-25.4	-26.7	16.2	1.60e-05	0	44	102	1048576	11	4179
2026-01-25 00:53:18.84	129.40	14.57	-25.3	-26.4	16.4	0.00e+00	0	44	102	1048576	11	4092
2026-01-25 00:53:19.84	129.56	14.50	-25.2	-26.2	16.5	2.20e-06	0	44	102	1048576	11	4060
2026-01-25 00:53:20.85	129.73	14.44	-25.3	-26.5	16.4	0.00e+00	0	44	102	1048576	11	4124
2026-01-25 00:53:21.85	129.89	14.37	-25.3	-26.4	16.4	3.40e-06	0	44	102	1048576	11	4103
2026-01-25 00:53:22.85	130.05	14.30	-25.3	-26.5	16.3	0.00e+00	0	44	102	1048576	11	4130
2026-01-25 00:53:23.86	130.21	14.24	-25.4	-26.6	16.2	6.06e-05	0	44	102	1048576	11	4167
2026-01-25 00:53:24.86	130.37	14.17	-25.5	-26.9	16.1	0.00e+00	0	44	102	1048576	11	4232
2026-01-25 00:53:25.86	130.53	14.10	-25.5	-26.9	16.1	1.86e-04	0	44	102	1048576	11	4248
2026-01-25 00:53:26.87	130.69	14.04	-25.5	-27.0	16.0	2.09e-04	0	44	102	1048576	11	4284
2026-01-25 00:53:27.88	130.85	13.97	-25.5	-27.0	16.0	0.00e+00	0	44	102	1048576	11	4270
2026-01-25 00:53:28.88	131.00	13.90	-25.5	-27.0	16.0	2.22e-04	0	44	102	1048576	11	4258
2026-01-25 00:53:29.87	131.16	13.84	-25.6	-27.1	15.9	1.10e-06	0	44	102	1048576	11	4286
2026-01-25 00:53:30.87	131.31	13.77	-25.4	-26.8	16.1	0.00e+00	0	44	102	1048576	11	4194
2026-01-25 00:53:31.87	131.47	13.70	-25.3	-26.5	16.2	0.00e+00	0	44	102	1048576	11	4143
2026-01-25 00:53:32.87	131.62	13.64	-25.4	-26.8	16.1	1.27e-04	0	44	102	1048576	11	4220
2026-01-25 00:53:33.88	131.78	13.57	-25.4	-26.7	16.1	9.26e-05	0	44	102	1048576	11	4191
2026-01-25 00:53:34.88	131.93	13.50	-25.4	-26.8	16.1	0.00e+00	0	44	102	1048576	11	4217
2026-01-25 00:53:35.89	132.09	13.44	-25.5	-27.0	15.9	2.31e-04	0	44	102	1048576	11	4285
2026-01-25 00:53:36.89	132.24	13.37	-25.5	-27.0	15.9	0.00e+00	0	44	102	1048576	11	4293
2026-01-25 00:53:37.90	132.39	13.30	-25.6	-27.3	15.7	3.71e-04	0	44	102	1048576	11	4375
2026-01-25 00:53:38.90	132.54	13.24	-25.6	-27.3	15.8	0.00e+00	0	44	102	1048576	11	4361
2026-01-25 00:53:39.90	132.69	13.17	-25.8	-27.6	15.6	0.00e+00	0	44	102	1048576	11	4454
2026-01-25 00:53:40.90	132.84	13.10	-25.9	-27.9	15.4	3.01e-04	0	44	102	1048576	11	4527
2026-01-25 00:53:41.90	132.99	13.04	-25.9	-27.9	15.4	1.10e-06	0	44	102	1048576	11	4518
2026-01-25 00:53:42.90	133.13	12.97	-25.9	-27.4	15.4	0.00e+00	0	44	102	1048576	12	4268
2026-01-25 00:53:43.89	133.28	12.90	-25.9	-27.4	15.4	0.00e+00	0	44	102	1048576	12	4258
2026-01-25 00:53:44.90	133.43	12.84	-26.0	-27.5	15.4	4.50e-06	0	44	102	1048576	12	4277
2026-01-25 00:53:45.90	133.57	12.77	-25.9	-27.4	15.4	0.00e+00	0	44	102	1048576	12	4266
2026-01-25 00:53:46.91	133.72	12.70	-26.0	-27.6	15.3	0.00e+00	0	44	102	1048576	12	4318
2026-01-25 00:53:47.92	133.86	12.64	-25.9	-27.5	15.3	0.00e+00	0	44	102	1048576	12	4297
2026-01-25 00:53:48.92	134.01	12.57	-26.1	-27.8	15.1	0.00e+00	0	44	102	1048576	12	4389
2026-01-25 00:53:49.93	134.15	12.50	-25.9	-27.4	15.3	0.00e+00	0	44	102	1048576	12	4294
2026-01-25 00:53:50.94	134.30	12.44	-25.8	-27.3	15.4	0.00e+00	0	44	102	1048576	12	4253
2026-01-25 00:53:51.94	134.44	12.37	-25.8	-27.3	15.4	0.00e+00	0	44	102	1048576	12	4240
2026-01-25 00:53:52.94	134.58	12.30	-25.9	-27.4	15.3	0.00e+00	0	44	102	1048576	12	4280
2026-01-25 00:53:53.94	134.72	12.24	-26.0	-27.6	15.2	0.00e+00	0	44	102	1048576	12	4321
2026-01-25 00:53:54.94	134.86	12.17	-26.0	-27.7	15.2	0.00e+00	0	44	102	1048576	12	4352
2026-01-25 00:53:55.94	135.00	12.10	-26.0	-27.6	15.2	0.00e+00	0	44	102	1048576	12	4345
2026-01-25 00:53:56.95	135.14	12.04	-26.0	-27.7	15.1	0.00e+00	0	44	102	1048576	12	4364
2026-01-25 00:53:57.95	135.28	11.97	-26.2	-28.0	14.9	0.00e+00	0	44	102	1048576	12	4453
2026-01-25 00:53:58.96	135.42	11.90	-26.0	-27.7	15.1	0.00e+00	0	44	102	1048576	12	4363
2026-01-25 00:53:59.96	135.55	11.84	-25.9	-27.5	15.2	0.00e+00	0	44	102	1048576	12	4310
2026-01-25 00:54:00.96	135.69	11.77	-26.0	-27.6	15.1	0.00e+00	0	44	102	1048576	12	4354
2026-01-25 00:54:01.96	135.83	11.71	-25.9	-27.4	15.2	0.00e+00	0	44	102	1048576	12	4275
2026-01-25 00:54:02.97	135.96	11.64	-25.9	-27.4	15.2	0.00e+00	0	44	102	1048576	12	4278
2026-01-25 00:54:03.97	136.10	11.57	-25.8	-27.2	15.3	0.00e+00	0	44	102	1048576	12	4236
2026-01-25 00:54:04.97	136.23	11.51	-25.8	-27.2	15.3	0.00e+00	0	44	102	1048576	12	4240
2026-01-25 00:54:05.98	136.37	11.44	-25.9	-27.5	15.1	3.31e-04	0	44	102	1048576	12	4322
2026-01-25 00:54:06.98	136.50	11.37	-25.8	-27.3	15.2	0.00e+00	0	44	102	1048576	12	4263
2026-01-25 00:54:07.99	136.63	11.31	-25.8	-27.2	15.3	0.00e+00	0	44	102	1048576	12	4248
2026-01-25 00:54:08.99	136.76	11.24	-25.8	-27.3	15.2	0.00e+00	0	44	102	1048576	12	4265
2026-01-25 00:54:09.99	136.90	11.18	-25.9	-27.6	15.0	0.00e+00	0	44	102	1048576	12	4346
2026-01-25 00:54:10.99	137.03	11.11	-26.0	-27.6	15.0	0.00e+00	0	44	102	1048576	12	4348
2026-01-25 00:54:11.99	137.16	11.04	-26.0	-27.8	14.9	0.00e+00	0	44	102	1048576	12	4393
2026-01-25 00:54:13.00	137.29	10.98	-26.0	-27.7	15.0	0.00e+00	0	44	102	1048576	12	4369
2026-01-25 00:54:14.00	137.42	10.91	-26.2	-28.0	14.8	0.00e+00	0	44	102	1048576	12	4467
2026-01-25 00:54:15.01	137.55	10.85	-26.1	-27.9	14.9	0.00e+00	0	44	102	1048576	12	4416
2026-01-25 00:54:16.01	137.67	10.78	-26.2	-28.0	14.8	0.00e+00	0	44	102	1048576	12	4456
2026-01-25 00:54:17.02	137.80	10.72	-26.1	-27.9	14.9	0.00e+00	0	44	102	1048576	12	4422
2026-01-25 00:54:18.02	137.93	10.65	-26.2	-28.1	14.8	0.00e+00	0	44	102	1048576	12	4480
2026-01-25 00:54:19.02	138.05	10.58	-26.0	-27.7	15.0	0.00e+00	0	44	102	1048576	12	4366
2026-01-25 00:54:20.02	138.18	10.52	-26.1	-27.9	14.8	0.00e+00	0	44	102	1048576	12	4438
2026-01-25 00:54:21.03	138.31	10.45	-26.1	-27.9	14.8	0.00e+00	0	44	102	1048576	12	4432
2026-01-25 00:54:22.04	138.43	10.39	-26.0	-27.8	14.9	0.00e+00	0	44	102	1048576	12	4404
2026-01-25 00:54:23.04	138.56	10.32	-26.2	-28.0	14.8	0.00e+00	0	44	102	1048576	12	4466
2026-01-25 00:54:24.05	138.68	10.26	-26.0	-27.7	14.9	0.00e+00	0	44	102	1048576	12	4371
2026-01-25 00:54:25.05	138.80	10.19	-26.1	-27.9	14.8	0.00e+00	0	44	102	1048576	12	4409
2026-01-25 00:54:26.06	138.93	10.13	-26.1	-27.8	14.8	0.00e+00	0	44	102	1048576	12	4400
2026-01-25 00:54:27.06	139.05	10.06	-26.0	-27.7	14.9	1.35e-04	0	44	102	1048576	12	4371
2026-01-25 00:54:28.07	139.17	10.00	-26.0	-27.7	15.0	0.00e+00	0	44	102	1048576	12	4360
2026-01-25 00:54:29.07	139.29	9.93	-26.2	-28.0	14.7	0.00e+00	0	44	102	1048576	12	4463
2026-01-25 00:54:30.08	139.41	9.87	-26.1	-27.8	14.8	0.00e+00	0	44	102	1048576	12	4397
2026-01-25 00:54:31.08	139.53	9.80	-26.1	-27.9	14.5	0.00e+00	0	44	102	1048576	12	4420
2026-01-25 00:54:32.08	139.65	9.74	-26.2	-28.2	14.6	0.00e+00	0	44	102	1048576	12	4519
2026-01-25 00:54:33.09	139.77	9.67	-26.2	-28.0	14.7	0.00e+00	0	44	102	1048576	12	4467
2026-01-25 00:54:34.09	139.89	9.61	-26.3	-28.4	14.5	0.00e+00	0	44	102	1048576	12	4582
2026-01-25 00:54:35.09	140.01	9.54	-26.3	-28.3	14.5	3.49e-04	0	44	102	1048576	12	4566
2026-01-25 00:54:36.10	140.13	9.48	-26.3	-28.5	14.4	0.00e+00	0	44	102	1048576	12	4607
2026-01-25 00:54:37.09	140.24	9.41	-26.4	-28.7	14.0	1.10e-06	0	44	102	1048576	12	4680
2026-01-25 00:54:38.10	140.36	9.35	-26.5	-28.8	14.2	1.10e-06	0	44	102	1048576	12	4712
2026-01-25 00:54:39.10	140.48	9.28	-26.6	-28.5	14.0	1.10e-06	0	44	102	1048576	13	4506
2026-01-25 00:54:40.11	140.59	9.22	-26.8	-29.0	13.7	3.71e-04	0	44	102	1048576	13	4645
2026-01-25 00:54:41.11	140.71	9.16	-26.6	-28.6	13.9	5.70e-06	0	44	102	1048576	13	4534
2026-01-25 00:54:42.12	140.82	9.09	-26.7	-28.7	13.9	2.20e-06	0	44	102	1048576	13	4532
2026-01-25 00:54:43.13	140.94	9.03	-26.8	-29.0	13.7	3.40e-06	0	44	102	1048576	13	4628
2026-01-25 00:54:44.13	141.05	8.96	-26.7	-28.8	13.8	3.98e-04	0	44	102	1048576	13	4598
2026-01-25 00:54:45.14	141.16	8.90	-27.0	-29.0	13.4	5.70e-06	0	44	102	1048576	14	4519
2026-01-25 00:54:46.14	141.28	8.84	-26.8	-28.5	13.6	5.70e-06	0	44	102	1048576	14	4391
2026-01-25 00:54:47.14	141.39	8.77	-26.7	-28.4	13.6	4.62e-04	0	44	102	1048576	14	4366
2026-01-25 00:54:48.15	141.50	8.71	-26.8	-28.6	13.5	6.80e-06	0	44	102	1048576	14	4417
2026-01-25 00:54:49.16	141.61	8.64	-26.8	-28.5	13.5	3.62e-04	0	44	102	1048576	14	4408
2026-01-25 00:54:50.16	141.72	8.58	-26.8	-28.5	13.5	5.70e-06	0	44	102	1048576	14	4403
2026-01-25 00:54:51.16	141.83	8.52	-26.9	-28.8	13.3	1.37e-05	0	44	102	1048576	14	4508
2026-01-25 00:54:52.15	141.94	8.45	-26.9	-28.8	13.3	2.43e-04	0	44	102	1048576	14	4490
2026-01-25 00:54:53.16	142.05	8.39	-26.9	-29.0	13.2	2.87e-04	0	44	102	1048576	14	4566
2026-01-25 00:54:54.16	142.16	8.33	-26.8	-28.7	13.4	1.25e-05	0	44	102	1048576	14	4463
2026-01-25 00:54:55.16	142.27	8.26	-26.9	-28.9	13.2	1.02e-05	0	44	102	1048576	14	4528
2026-01-25 00:54:56.16	142.38	8.20	-26.9	-28.9	13.2	3.16e-04	0	44	102	1048576	14	4539
2026-01-25 00:54:57.16	142.48	8.14	-26.9	-28.9	13.1	2.40e-05	0	44	102	1048576	14	4559
2026-01-25 00:54:58.17	142.59	8.07	-26.8	-28.8	13.2	2.88e-04	0	44	102	1048576	14	4510
2026-01-25 00:54:59.18	142.70	8.01	-26.9	-29.0	13.1	3.00e-04	0	44	102	1048576	14	4576
2026-01-25 00:55:00.18	142.81	7.95	-27.0	-29.1	13.0	1.60e-05	0	44	102	1048576	14	4616
2026-01-25 00:55:01.18	142.91	7.89	-26.9	-28.9	13.1	3.08e-04	0	44	102	1048576	14	4556
2026-01-25 00:55:02.19	143.02	7.82	-27.0	-29.1	13.0	3.82e-04	0	44	102	1048576	14	4614
2026-01-25 00:55:03.20	143.12	7.76	-27.2	-29.6	12.7	4.34e-05	0	44	102	1048576	14	4757
2026-01-25 00:55:04.20	143.23	7.70	-27.2	-29.5	12.7	5.81e-04	0	44	102	1048576	14	4724
2026-01-25 00:55:05.21	143.33	7.63	-27.2	-29.6	12.7	7.79e-04	0	44	102	1048576	14	4751
2026-01-25 00:55:06.21	143.43	7.57	-27.1	-29.4	12.8	3.43e-05	0	44	102	1048576	14	4677
2026-01-25 00:55:07.21	143.54	7.51	-27.2	-29.5	12.8	1.06e-03	0	44	102	1048576	14	4688
2026-01-25 00:55:08.22	143.64	7.45	-27.2	-29.5	12.8	9.96e-04	0	44	102	1048576	14	4697
2026-01-25 00:55:09.22	143.74	7.39	-27.1	-29.3	12.9	3.43e-05	0	44	102	1048576	14	4633
2026-01-25 00:55:10.23	143.85	7.32	-27.2	-29.6	12.8	1.00e-03	0	44	102	1048576	14	4713
2026-01-25 00:55:11.24	143.95	7.26	-27.2	-29.5	12.8	4.00e-05	0	44	102	1048576	14	4685
2026-01-25 00:55:12.25	144.05	7.20	-27.2	-29.5	12.8	3.08e-05	0	44	102	1048576	14	4703
2026-01-25 00:55:13.25	144.15	7.14	-27.3	-29.8	12.6	6.75e-05	0	44	102	1048576	14	4798
2026-01-25 00:55:14.25	144.25	7.07	-29.5	-33.4	9.6	8.23e-05	0	44	102	1048576	18	5640
2026-01-25 00:55:15.26	144.35	7.01	-32.7	-44.2	3.8	8.45e-01	0	44	104	1048576	25	13423

#Closed at: 2026-01-25 00:55:15
#Recorded file [1 MB]: D:/data/31010_260125_034659.dat