passes_logs/2026/01/25/R2M6_AANII_01/R2M6_AANII_01__20260125_091112_NOAA_21_JPSS-2_rec.log

#Pass ID: 20260125_091112_NOAA 21 (JPSS-2)
#Satellite: NOAA 21 (JPSS-2)
#Configuration: NOAA 21
#almurnet v.1.7.20240730
#Start time: 2026-01-25 09:11:13

#Version: 2.2.20231116
#Station: R2M6_AANII_01
#Location: 30.233357 lon 59.946436 lat
#TLE: 1 54234U 22150A   26024.45772595  .00000201  00000+0  11607-3 0  9996
#TLE: 2 54234  98.7508 325.2435 0000728 220.7365 139.3757 14.19538765166156

#Time	Az	El	Level	Level2	SNR	BER	BlckErr	Temp	State	Recorded	gain1	gain2
2026-01-25 09:11:13.39	125.19	7.03	-31.0	-36.0	4.4	1.42e+00	0	41	0	0	23	6439
2026-01-25 09:11:14.39	125.14	7.10	-30.8	-35.5	4.5	1.41e+00	0	41	104	0	23	6148
2026-01-25 09:11:15.39	125.08	7.18	-30.8	-34.7	7.9	6.86e-02	0	41	0	0	23	5646
2026-01-25 09:11:16.40	125.02	7.25	-30.8	-34.7	8.0	7.31e-02	0	41	102	1048576	23	5622
2026-01-25 09:11:17.41	124.97	7.32	-30.8	-34.6	8.0	6.75e-02	0	41	102	1048576	23	5591
2026-01-25 09:11:18.41	124.91	7.40	-30.8	-35.0	8.1	5.95e-02	0	41	102	1048576	22	5872
2026-01-25 09:11:19.42	124.85	7.47	-30.9	-35.3	7.9	5.93e-02	0	41	102	1048576	22	6017
2026-01-25 09:11:20.42	124.80	7.55	-31.0	-35.7	7.6	1.15e-01	0	41	102	1048576	22	6193
2026-01-25 09:11:21.43	124.74	7.62	-30.6	-34.4	8.5	5.22e-02	0	41	102	1048576	22	5579
2026-01-25 09:11:22.43	124.68	7.70	-30.2	-33.6	9.5	1.66e-02	0	41	102	1048576	21	5312
2026-01-25 09:11:23.43	124.62	7.77	-29.9	-32.8	10.1	7.40e-03	0	42	102	1048576	21	4993
2026-01-25 09:11:24.44	124.56	7.85	-29.7	-32.5	10.6	3.84e-03	0	42	102	1048576	20	4984
2026-01-25 09:11:25.44	124.51	7.92	-29.3	-31.8	11.5	1.47e-03	0	41	102	1048576	19	4828
2026-01-25 09:11:26.44	124.45	8.00	-28.9	-30.8	12.2	2.84e-04	0	41	102	1048576	19	4478
2026-01-25 09:11:27.44	124.39	8.07	-28.7	-30.8	12.6	1.52e-04	0	42	102	1048576	18	4568
2026-01-25 09:11:28.45	124.33	8.15	-28.6	-30.4	12.8	7.24e-05	0	42	102	1048576	18	4462
2026-01-25 09:11:29.45	124.27	8.22	-28.5	-30.3	12.9	6.86e-05	0	41	102	1048576	18	4431
2026-01-25 09:11:30.45	124.21	8.30	-28.5	-30.1	13.0	3.50e-05	0	42	102	1048576	18	4364
2026-01-25 09:11:31.46	124.15	8.38	-28.6	-30.4	12.8	3.12e-05	0	42	102	1048576	18	4451
2026-01-25 09:11:32.46	124.08	8.45	-28.5	-30.1	13.0	5.56e-05	0	42	102	1048576	18	4364
2026-01-25 09:11:33.46	124.02	8.53	-28.5	-30.1	13.0	4.57e-05	0	42	102	1048576	18	4363
2026-01-25 09:11:34.46	123.96	8.61	-28.2	-30.1	13.3	2.44e-05	0	42	102	1048576	17	4460
2026-01-25 09:11:35.47	123.90	8.68	-28.3	-30.3	13.2	1.52e-05	0	42	102	1048576	17	4507
2026-01-25 09:11:36.47	123.84	8.76	-28.2	-30.0	13.4	9.10e-06	0	42	102	1048576	17	4439
2026-01-25 09:11:37.48	123.77	8.84	-28.3	-30.1	13.3	1.52e-05	0	42	102	1048576	17	4450
2026-01-25 09:11:38.48	123.71	8.92	-28.3	-30.2	13.3	2.28e-05	0	42	102	1048576	17	4497
2026-01-25 09:11:39.49	123.65	9.00	-28.3	-30.2	13.3	1.37e-05	0	42	102	1048576	17	4485
2026-01-25 09:11:40.50	123.58	9.08	-28.2	-30.1	13.4	9.90e-06	0	42	102	1048576	17	4444
2026-01-25 09:11:41.51	123.52	9.15	-28.2	-30.1	13.3	1.52e-05	0	42	102	1048576	17	4447
2026-01-25 09:11:42.51	123.45	9.23	-28.2	-30.0	13.4	2.67e-05	0	42	102	1048576	17	4414
2026-01-25 09:11:43.51	123.39	9.31	-28.1	-29.8	13.5	1.29e-05	0	42	102	1048576	17	4354
2026-01-25 09:11:44.51	123.32	9.39	-28.2	-29.9	13.5	8.30e-06	0	42	102	1048576	17	4395
2026-01-25 09:11:45.52	123.26	9.47	-28.2	-29.9	13.5	1.44e-05	0	42	102	1048576	17	4393
2026-01-25 09:11:46.52	123.19	9.55	-28.2	-30.1	13.4	1.29e-05	0	42	102	1048576	17	4445
2026-01-25 09:11:47.52	123.13	9.63	-28.3	-30.1	13.3	1.22e-05	0	42	102	1048576	17	4462
2026-01-25 09:11:48.53	123.06	9.71	-28.2	-30.0	13.5	1.44e-05	0	42	102	1048576	17	4417
2026-01-25 09:11:49.54	122.99	9.79	-28.2	-29.9	13.5	1.14e-05	0	42	102	1048576	17	4396
2026-01-25 09:11:50.55	122.92	9.87	-28.1	-29.8	13.6	1.14e-05	0	42	102	1048576	17	4379
2026-01-25 09:11:51.55	122.85	9.95	-28.1	-29.8	13.6	1.60e-05	0	42	102	1048576	17	4363
2026-01-25 09:11:52.56	122.79	10.03	-28.1	-29.7	13.6	1.06e-05	0	42	102	1048576	17	4345
2026-01-25 09:11:53.56	122.72	10.11	-28.1	-29.7	13.7	8.30e-06	0	42	102	1048576	17	4333
2026-01-25 09:11:54.56	122.65	10.20	-28.0	-29.5	13.8	1.37e-05	0	42	102	1048576	17	4287
2026-01-25 09:11:55.56	122.58	10.28	-27.9	-29.2	14.0	3.80e-06	0	42	102	1048576	17	4190
2026-01-25 09:11:56.56	122.51	10.36	-27.8	-29.1	14.1	7.00e-07	0	42	102	1048576	17	4154
2026-01-25 09:11:57.57	122.44	10.44	-27.8	-29.1	14.1	7.60e-06	0	42	102	1048576	17	4164
2026-01-25 09:11:58.58	122.37	10.52	-27.8	-29.0	14.1	3.00e-06	0	42	102	1048576	17	4146
2026-01-25 09:11:59.59	122.29	10.61	-27.8	-29.5	14.1	1.50e-06	0	42	102	1048576	16	4384
2026-01-25 09:12:00.59	122.22	10.69	-27.8	-29.4	14.2	1.06e-05	0	42	102	1048576	16	4344
2026-01-25 09:12:01.59	122.15	10.77	-27.7	-29.2	14.3	0.00e+00	0	42	102	1048576	16	4292
2026-01-25 09:12:02.59	122.08	10.85	-27.6	-29.1	14.4	2.20e-06	0	42	102	1048576	16	4266
2026-01-25 09:12:03.60	122.01	10.94	-27.8	-29.4	14.2	9.90e-06	0	42	102	1048576	16	4332
2026-01-25 09:12:04.60	121.93	11.02	-27.7	-29.3	14.3	1.50e-06	0	42	102	1048576	16	4308
2026-01-25 09:12:05.61	121.86	11.11	-27.7	-29.1	14.4	7.00e-07	0	42	102	1048576	16	4266
2026-01-25 09:12:06.62	121.78	11.19	-27.7	-29.2	14.3	9.10e-06	0	42	102	1048576	16	4285
2026-01-25 09:12:07.62	121.71	11.28	-27.6	-29.0	14.4	7.00e-07	0	42	102	1048576	16	4225
2026-01-25 09:12:08.63	121.63	11.36	-27.6	-29.0	14.5	0.00e+00	0	42	102	1048576	16	4232
2026-01-25 09:12:09.63	121.56	11.45	-27.6	-29.1	14.4	0.00e+00	0	42	102	1048576	16	4253
2026-01-25 09:12:10.64	121.48	11.53	-27.6	-29.0	14.5	2.20e-06	0	42	102	1048576	16	4233
2026-01-25 09:12:11.65	121.40	11.62	-27.6	-29.0	14.5	0.00e+00	0	42	102	1048576	16	4223
2026-01-25 09:12:12.65	121.33	11.70	-27.6	-29.0	14.5	0.00e+00	0	42	102	1048576	16	4222
2026-01-25 09:12:13.66	121.25	11.79	-27.7	-29.2	14.4	7.00e-07	0	42	102	1048576	16	4292
2026-01-25 09:12:14.66	121.17	11.88	-27.7	-29.2	14.4	1.50e-06	0	42	102	1048576	16	4279
2026-01-25 09:12:15.67	121.09	11.96	-27.7	-29.1	14.4	1.50e-06	0	43	102	1048576	16	4271
2026-01-25 09:12:16.67	121.02	12.05	-27.7	-29.2	14.4	0.00e+00	0	43	102	1048576	16	4296
2026-01-25 09:12:17.68	120.94	12.14	-27.8	-29.5	14.2	7.00e-07	0	42	102	1048576	16	4372
2026-01-25 09:12:18.68	120.86	12.22	-27.7	-29.3	14.3	7.00e-07	0	42	102	1048576	16	4323
2026-01-25 09:12:19.68	120.78	12.31	-27.7	-29.3	14.3	0.00e+00	0	42	102	1048576	16	4326
2026-01-25 09:12:20.68	120.70	12.40	-27.7	-29.3	14.3	0.00e+00	0	42	102	1048576	16	4315
2026-01-25 09:12:21.68	120.61	12.48	-27.6	-29.0	14.6	0.00e+00	0	43	102	1048576	16	4230
2026-01-25 09:12:22.69	120.53	12.57	-27.5	-28.9	14.6	0.00e+00	0	42	102	1048576	16	4189
2026-01-25 09:12:23.70	120.45	12.66	-27.5	-28.8	14.7	0.00e+00	0	43	102	1048576	16	4165
2026-01-25 09:12:24.70	120.37	12.75	-27.5	-28.7	14.7	0.00e+00	0	43	102	1048576	16	4150
2026-01-25 09:12:25.71	120.28	12.84	-27.4	-28.5	14.8	7.00e-07	0	43	102	1048576	16	4102
2026-01-25 09:12:26.72	120.20	12.93	-27.3	-28.4	14.9	0.00e+00	0	43	102	1048576	16	4077
2026-01-25 09:12:27.72	120.11	13.02	-27.4	-28.5	14.8	0.00e+00	0	43	102	1048576	16	4101
2026-01-25 09:12:28.72	120.03	13.11	-27.3	-28.4	14.9	7.00e-07	0	43	102	1048576	16	4070
2026-01-25 09:12:29.72	119.94	13.20	-27.3	-28.3	14.9	0.00e+00	0	43	102	1048576	16	4048
2026-01-25 09:12:30.72	119.86	13.29	-27.3	-28.3	15.0	0.00e+00	0	43	102	1048576	16	4035
2026-01-25 09:12:31.73	119.77	13.38	-27.3	-28.3	15.0	0.00e+00	0	43	102	1048576	16	4050
2026-01-25 09:12:32.73	119.68	13.47	-27.3	-28.3	15.0	7.00e-07	0	43	102	1048576	16	4034
2026-01-25 09:12:33.74	119.60	13.56	-27.2	-28.5	15.0	0.00e+00	0	43	102	1048576	15	4203
2026-01-25 09:12:34.74	119.51	13.65	-27.2	-28.6	14.9	0.00e+00	0	43	102	1048576	15	4229
2026-01-25 09:12:35.73	119.42	13.74	-27.2	-28.6	14.9	0.00e+00	0	43	102	1048576	15	4229
2026-01-25 09:12:36.73	119.33	13.84	-27.3	-28.9	14.8	0.00e+00	0	43	102	1048576	15	4304
2026-01-25 09:12:37.74	119.24	13.93	-27.3	-28.9	14.8	0.00e+00	0	43	102	1048576	15	4308
2026-01-25 09:12:38.75	119.15	14.02	-27.4	-29.1	14.7	0.00e+00	0	43	102	1048576	15	4367
2026-01-25 09:12:39.76	119.06	14.12	-27.6	-29.4	14.5	0.00e+00	0	43	102	1048576	15	4454
2026-01-25 09:12:40.76	118.97	14.21	-27.5	-29.2	14.6	7.00e-07	0	43	102	1048576	15	4398
2026-01-25 09:12:41.76	118.88	14.30	-27.4	-29.0	14.7	0.00e+00	0	43	102	1048576	15	4349
2026-01-25 09:12:42.76	118.78	14.39	-27.3	-28.9	14.8	7.00e-07	0	43	102	1048576	15	4308
2026-01-25 09:12:43.76	118.69	14.49	-27.4	-29.0	14.8	0.00e+00	0	43	102	1048576	15	4345
2026-01-25 09:12:44.77	118.60	14.58	-27.3	-28.9	14.8	0.00e+00	0	43	102	1048576	15	4302
2026-01-25 09:12:45.77	118.50	14.68	-27.4	-29.1	14.7	0.00e+00	0	43	102	1048576	15	4372
2026-01-25 09:12:46.78	118.41	14.77	-27.3	-28.8	14.9	7.00e-07	0	43	102	1048576	15	4271
2026-01-25 09:12:47.78	118.31	14.87	-27.1	-28.4	15.1	0.00e+00	0	43	102	1048576	15	4176
2026-01-25 09:12:48.78	118.21	14.96	-27.2	-28.5	15.1	0.00e+00	0	43	102	1048576	15	4193
2026-01-25 09:12:49.79	118.12	15.06	-27.3	-28.8	15.0	0.00e+00	0	43	102	1048576	15	4262
2026-01-25 09:12:50.79	118.02	15.15	-27.2	-28.6	15.1	0.00e+00	0	43	102	1048576	15	4209
2026-01-25 09:12:51.79	117.92	15.25	-27.2	-28.5	15.1	0.00e+00	0	43	102	1048576	15	4195
2026-01-25 09:12:52.80	117.82	15.35	-27.2	-28.5	15.2	0.00e+00	0	43	102	1048576	15	4186
2026-01-25 09:12:53.80	117.72	15.44	-27.2	-28.6	15.1	4.50e-06	0	43	102	1048576	15	4219
2026-01-25 09:12:54.80	117.62	15.54	-27.3	-28.7	15.0	0.00e+00	0	43	102	1048576	15	4247
2026-01-25 09:12:55.80	117.52	15.64	-27.3	-28.8	15.0	7.00e-07	0	43	102	1048576	15	4274
2026-01-25 09:12:56.80	117.42	15.73	-27.3	-28.7	15.0	0.00e+00	0	43	102	1048576	15	4263
2026-01-25 09:12:57.81	117.32	15.83	-27.3	-28.8	14.9	0.00e+00	0	43	102	1048576	15	4288
2026-01-25 09:12:58.81	117.21	15.93	-27.4	-29.1	14.8	0.00e+00	0	43	102	1048576	15	4369
2026-01-25 09:12:59.82	117.11	16.03	-27.4	-29.1	14.8	0.00e+00	0	43	102	1048576	15	4357
2026-01-25 09:13:00.82	117.00	16.13	-27.5	-29.2	14.7	7.00e-07	0	43	102	1048576	15	4393
2026-01-25 09:13:01.83	116.90	16.23	-27.4	-29.0	14.9	0.00e+00	0	43	102	1048576	15	4324
2026-01-25 09:13:02.83	116.79	16.33	-27.3	-28.8	15.0	5.30e-06	0	43	102	1048576	15	4271
2026-01-25 09:13:03.84	116.69	16.43	-27.4	-29.0	14.9	0.00e+00	0	43	102	1048576	15	4332
2026-01-25 09:13:04.84	116.58	16.53	-27.3	-28.9	14.9	7.00e-07	0	43	102	1048576	15	4305
2026-01-25 09:13:05.85	116.47	16.63	-27.4	-29.1	14.9	8.30e-06	0	43	102	1048576	15	4361
2026-01-25 09:13:06.85	116.36	16.73	-27.3	-28.8	15.0	0.00e+00	0	43	102	1048576	15	4286
2026-01-25 09:13:07.85	116.25	16.83	-27.4	-29.1	14.8	0.00e+00	0	43	102	1048576	15	4374
2026-01-25 09:13:08.86	116.14	16.93	-27.4	-29.1	14.9	5.30e-06	0	43	102	1048576	15	4354
2026-01-25 09:13:09.86	116.03	17.03	-27.4	-28.9	15.0	0.00e+00	0	43	102	1048576	15	4313
2026-01-25 09:13:10.87	115.92	17.14	-27.4	-29.1	14.9	1.50e-06	0	43	102	1048576	15	4355
2026-01-25 09:13:11.87	115.81	17.24	-27.4	-28.9	15.0	6.10e-06	0	43	102	1048576	15	4304
2026-01-25 09:13:12.87	115.69	17.34	-27.3	-28.8	15.0	0.00e+00	0	43	102	1048576	15	4280
2026-01-25 09:13:13.88	115.58	17.44	-27.4	-29.0	15.0	0.00e+00	0	43	102	1048576	15	4324
2026-01-25 09:13:14.88	115.46	17.55	-27.4	-28.9	15.1	4.50e-06	0	43	102	1048576	15	4293
2026-01-25 09:13:15.89	115.35	17.65	-27.5	-29.1	14.9	0.00e+00	0	43	102	1048576	15	4361
2026-01-25 09:13:16.90	115.23	17.76	-27.5	-29.1	14.9	0.00e+00	0	43	102	1048576	15	4363
2026-01-25 09:13:17.91	115.11	17.86	-27.6	-29.4	14.7	7.60e-06	0	43	102	1048576	15	4430
2026-01-25 09:13:18.91	114.99	17.96	-27.7	-29.6	14.6	7.00e-07	0	43	102	1048576	15	4511
2026-01-25 09:13:19.92	114.87	18.07	-27.7	-29.6	14.7	7.00e-07	0	43	102	1048576	15	4505
2026-01-25 09:13:20.92	114.75	18.18	-27.7	-29.7	14.6	7.00e-07	0	43	102	1048576	15	4532
2026-01-25 09:13:21.93	114.63	18.28	-27.6	-29.5	14.7	0.00e+00	0	43	102	1048576	15	4478
2026-01-25 09:13:22.93	114.51	18.39	-27.6	-29.5	14.7	0.00e+00	0	43	102	1048576	15	4478
2026-01-25 09:13:23.93	114.39	18.49	-27.6	-29.4	14.8	0.00e+00	0	43	102	1048576	15	4455
2026-01-25 09:13:24.93	114.27	18.60	-27.6	-29.6	14.7	0.00e+00	0	43	102	1048576	15	4493
2026-01-25 09:13:25.93	114.14	18.70	-27.8	-30.0	14.4	7.00e-07	0	43	102	1048576	15	4646
2026-01-25 09:13:26.94	114.02	18.81	-27.6	-29.4	14.8	0.00e+00	0	43	102	1048576	15	4448
2026-01-25 09:13:27.95	113.89	18.92	-27.4	-28.9	15.1	7.00e-07	0	43	102	1048576	15	4316
2026-01-25 09:13:28.95	113.76	19.03	-27.3	-28.7	15.2	0.00e+00	0	43	102	1048576	15	4256
2026-01-25 09:13:29.96	113.63	19.14	-27.3	-28.7	15.2	0.00e+00	0	43	102	1048576	15	4244
2026-01-25 09:13:30.96	113.50	19.24	-27.2	-28.6	15.3	0.00e+00	0	43	102	1048576	15	4211
2026-01-25 09:13:31.97	113.37	19.35	-27.2	-28.4	15.3	0.00e+00	0	43	102	1048576	15	4177
2026-01-25 09:13:32.97	113.24	19.46	-27.1	-28.4	15.4	0.00e+00	0	43	102	1048576	15	4159
2026-01-25 09:13:33.97	113.11	19.57	-27.2	-28.5	15.3	0.00e+00	0	43	102	1048576	15	4196
2026-01-25 09:13:34.97	112.98	19.68	-27.1	-28.4	15.4	0.00e+00	0	43	102	1048576	15	4162
2026-01-25 09:13:35.98	112.85	19.79	-27.2	-28.6	15.3	0.00e+00	0	43	102	1048576	15	4208
2026-01-25 09:13:36.98	112.71	19.90	-27.2	-28.5	15.4	0.00e+00	0	43	102	1048576	15	4184
2026-01-25 09:13:37.99	112.57	20.01	-27.3	-28.7	15.2	0.00e+00	0	43	102	1048576	15	4234
2026-01-25 09:13:38.99	112.44	20.12	-27.1	-28.4	15.5	0.00e+00	0	43	102	1048576	15	4152
2026-01-25 09:13:39.99	112.30	20.23	-27.1	-28.3	15.5	0.00e+00	0	43	102	1048576	15	4138
2026-01-25 09:13:40.99	112.16	20.34	-27.1	-28.3	15.5	0.00e+00	0	43	102	1048576	15	4133
2026-01-25 09:13:42.00	112.02	20.46	-27.0	-28.1	15.6	0.00e+00	0	43	102	1048576	15	4068
2026-01-25 09:13:43.00	111.88	20.57	-27.0	-28.0	15.6	0.00e+00	0	43	102	1048576	15	4054
2026-01-25 09:13:44.00	111.74	20.68	-27.0	-28.1	15.6	0.00e+00	0	43	102	1048576	15	4072
2026-01-25 09:13:45.00	111.60	20.79	-26.9	-27.7	15.8	0.00e+00	0	43	102	1048576	15	3984
2026-01-25 09:13:46.01	111.45	20.91	-27.0	-28.1	15.6	0.00e+00	0	43	102	1048576	15	4087
2026-01-25 09:13:47.02	111.31	21.02	-26.8	-27.6	15.9	0.00e+00	0	43	102	1048576	15	3948
2026-01-25 09:13:48.02	111.16	21.13	-26.8	-28.0	15.9	0.00e+00	0	43	102	1048576	14	4169
2026-01-25 09:13:49.03	111.01	21.25	-26.8	-28.1	15.9	0.00e+00	0	43	102	1048576	14	4171
2026-01-25 09:13:50.04	110.87	21.36	-26.7	-28.0	16.0	0.00e+00	0	43	102	1048576	14	4145
2026-01-25 09:13:51.04	110.72	21.48	-26.8	-28.2	15.8	0.00e+00	0	43	102	1048576	14	4202
2026-01-25 09:13:52.04	110.57	21.59	-26.9	-28.3	15.8	0.00e+00	0	43	102	1048576	14	4246
2026-01-25 09:13:53.05	110.41	21.71	-26.7	-28.0	16.0	0.00e+00	0	43	102	1048576	14	4157
2026-01-25 09:13:54.06	110.26	21.83	-26.8	-28.1	15.9	0.00e+00	0	43	102	1048576	14	4180
2026-01-25 09:13:55.06	110.11	21.94	-26.8	-28.1	15.9	0.00e+00	0	43	102	1048576	14	4192
2026-01-25 09:13:56.07	109.95	22.06	-26.7	-27.9	16.0	0.00e+00	0	43	102	1048576	14	4132
2026-01-25 09:13:57.07	109.79	22.17	-26.6	-27.8	16.1	0.00e+00	0	43	102	1048576	14	4089
2026-01-25 09:13:58.07	109.64	22.29	-26.7	-27.8	16.1	0.00e+00	0	43	102	1048576	14	4101
2026-01-25 09:13:59.07	109.48	22.41	-26.5	-27.5	16.3	0.00e+00	0	43	102	1048576	14	4013
2026-01-25 09:14:00.07	109.32	22.52	-26.7	-27.8	16.1	0.00e+00	0	43	102	1048576	14	4089
2026-01-25 09:14:01.08	109.16	22.64	-26.4	-27.1	16.5	0.00e+00	0	43	102	1048576	14	3925
2026-01-25 09:14:02.09	108.99	22.76	-26.3	-26.9	16.6	0.00e+00	0	43	102	1048576	14	3871
2026-01-25 09:14:03.09	108.83	22.88	-26.2	-27.2	16.7	0.00e+00	0	43	102	1048576	13	4055
2026-01-25 09:14:04.10	108.67	23.00	-26.3	-27.4	16.6	0.00e+00	0	43	102	1048576	13	4109
2026-01-25 09:14:05.10	108.50	23.12	-26.3	-27.4	16.6	0.00e+00	0	43	102	1048576	13	4101
2026-01-25 09:14:06.11	108.33	23.24	-26.4	-27.7	16.5	0.00e+00	0	43	102	1048576	13	4178
2026-01-25 09:14:07.12	108.16	23.36	-26.4	-27.7	16.5	0.00e+00	0	43	102	1048576	13	4171
2026-01-25 09:14:08.13	107.99	23.48	-26.5	-27.8	16.4	0.00e+00	0	43	102	1048576	13	4214
2026-01-25 09:14:09.13	107.82	23.60	-26.3	-27.5	16.6	0.00e+00	0	43	102	1048576	13	4133
2026-01-25 09:14:10.13	107.65	23.72	-26.3	-27.5	16.6	0.00e+00	0	43	102	1048576	13	4132
2026-01-25 09:14:11.14	107.47	23.84	-26.4	-27.7	16.4	0.00e+00	0	43	102	1048576	13	4186
2026-01-25 09:14:12.14	107.30	23.96	-26.4	-27.8	16.5	0.00e+00	0	43	102	1048576	13	4204
2026-01-25 09:14:13.14	107.12	24.08	-26.6	-28.1	16.3	0.00e+00	0	43	102	1048576	13	4282
2026-01-25 09:14:14.14	106.94	24.20	-26.4	-27.7	16.5	0.00e+00	0	43	102	1048576	13	4170
2026-01-25 09:14:15.14	106.77	24.32	-26.4	-27.6	16.5	0.00e+00	0	43	102	1048576	13	4152
2026-01-25 09:14:16.15	106.58	24.44	-26.4	-27.7	16.5	0.00e+00	0	43	102	1048576	13	4181
2026-01-25 09:14:17.15	106.40	24.56	-26.4	-27.8	16.5	0.00e+00	0	43	102	1048576	13	4196
2026-01-25 09:14:18.16	106.22	24.69	-26.4	-27.7	16.5	0.00e+00	0	43	102	1048576	13	4166
2026-01-25 09:14:19.16	106.03	24.81	-26.4	-27.7	16.5	0.00e+00	0	43	102	1048576	13	4166
2026-01-25 09:14:20.18	105.84	24.93	-26.5	-27.9	16.4	7.00e-07	0	43	102	1048576	13	4231
2026-01-25 09:14:21.18	105.65	25.06	-26.4	-27.6	16.6	0.00e+00	0	43	102	1048576	13	4162
2026-01-25 09:14:22.19	105.46	25.18	-26.5	-28.0	16.4	0.00e+00	0	43	102	1048576	13	4265
2026-01-25 09:14:23.19	105.27	25.30	-26.6	-28.0	16.4	0.00e+00	0	43	102	1048576	13	4262
2026-01-25 09:14:24.20	105.08	25.43	-26.7	-28.2	16.3	0.00e+00	0	43	102	1048576	13	4325
2026-01-25 09:14:25.21	104.88	25.55	-26.8	-28.5	16.1	0.00e+00	0	43	102	1048576	13	4398
2026-01-25 09:14:26.21	104.69	25.68	-26.7	-28.3	16.2	0.00e+00	0	43	102	1048576	13	4328
2026-01-25 09:14:27.21	104.49	25.80	-26.7	-28.3	16.2	0.00e+00	0	43	102	1048576	13	4351
2026-01-25 09:14:28.22	104.29	25.93	-26.6	-28.0	16.4	0.00e+00	0	43	102	1048576	13	4260
2026-01-25 09:14:29.22	104.09	26.05	-26.6	-28.1	16.4	5.30e-06	0	43	102	1048576	13	4281
2026-01-25 09:14:30.22	103.89	26.17	-26.6	-28.2	16.3	0.00e+00	0	43	102	1048576	13	4315
2026-01-25 09:14:31.23	103.68	26.30	-26.7	-28.3	16.2	0.00e+00	0	43	102	1048576	13	4348
2026-01-25 09:14:32.24	103.48	26.43	-26.8	-28.6	16.1	0.00e+00	0	43	102	1048576	13	4410
2026-01-25 09:14:33.24	103.27	26.55	-26.8	-28.7	16.0	0.00e+00	0	43	102	1048576	13	4438
2026-01-25 09:14:34.25	103.06	26.68	-27.0	-28.9	15.9	0.00e+00	0	43	102	1048576	13	4514
2026-01-25 09:14:35.25	102.85	26.80	-27.0	-29.0	15.9	0.00e+00	0	43	102	1048576	13	4535
2026-01-25 09:14:36.25	102.64	26.93	-27.0	-28.9	15.9	0.00e+00	0	43	102	1048576	13	4517
2026-01-25 09:14:37.26	102.42	27.06	-26.9	-28.9	15.9	0.00e+00	0	43	102	1048576	13	4518
2026-01-25 09:14:38.26	102.21	27.18	-26.9	-28.8	16.0	0.00e+00	0	43	102	1048576	13	4477
2026-01-25 09:14:39.27	101.99	27.31	-26.9	-28.7	16.0	0.00e+00	0	43	102	1048576	13	4450
2026-01-25 09:14:40.27	101.77	27.43	-26.9	-28.7	16.1	0.00e+00	0	43	102	1048576	13	4453
2026-01-25 09:14:41.27	101.55	27.56	-26.9	-28.9	16.0	0.00e+00	0	43	102	1048576	13	4492
2026-01-25 09:14:42.28	101.33	27.69	-27.2	-29.0	15.6	0.00e+00	0	43	102	1048576	14	4425
2026-01-25 09:14:43.28	101.11	27.81	-27.2	-28.9	15.7	0.00e+00	0	43	102	1048576	14	4380
2026-01-25 09:14:44.28	100.88	27.94	-27.3	-29.3	15.5	0.00e+00	0	43	102	1048576	14	4504
2026-01-25 09:14:45.28	100.65	28.07	-27.5	-29.2	15.3	0.00e+00	0	43	102	1048576	15	4371
2026-01-25 09:14:46.28	100.43	28.19	-27.6	-29.5	15.1	0.00e+00	0	43	102	1048576	15	4454
2026-01-25 09:14:47.28	100.19	28.32	-27.7	-29.5	15.1	0.00e+00	0	43	102	1048576	15	4448
2026-01-25 09:14:48.28	99.96	28.45	-27.4	-28.8	15.5	0.00e+00	0	43	102	1048576	15	4250
2026-01-25 09:14:49.29	99.73	28.57	-27.2	-28.4	15.7	0.00e+00	0	43	102	1048576	15	4142
2026-01-25 09:14:50.28	99.49	28.70	-27.2	-28.5	15.7	0.00e+00	0	43	102	1048576	15	4162
2026-01-25 09:14:51.29	99.25	28.83	-27.0	-28.0	16.0	0.00e+00	0	43	102	1048576	15	4041
2026-01-25 09:14:52.29	99.01	28.95	-27.0	-28.1	16.0	0.00e+00	0	43	102	1048576	15	4049
2026-01-25 09:14:53.30	98.77	29.08	-27.0	-28.1	16.0	0.00e+00	0	43	102	1048576	15	4049
2026-01-25 09:14:54.30	98.52	29.21	-27.1	-28.1	15.9	0.00e+00	0	44	102	1048576	15	4064
2026-01-25 09:14:55.31	98.27	29.34	-27.1	-28.2	15.9	0.00e+00	0	43	102	1048576	15	4087
2026-01-25 09:14:56.32	98.02	29.47	-27.1	-28.1	15.9	0.00e+00	0	43	102	1048576	15	4069
2026-01-25 09:14:57.32	97.77	29.59	-27.1	-28.2	15.9	0.00e+00	0	43	102	1048576	15	4093
2026-01-25 09:14:58.33	97.52	29.72	-27.2	-28.4	15.8	0.00e+00	0	43	102	1048576	15	4133
2026-01-25 09:14:59.33	97.27	29.85	-27.4	-28.8	15.6	0.00e+00	0	43	102	1048576	15	4249
2026-01-25 09:15:00.33	97.01	29.97	-27.4	-29.0	15.5	0.00e+00	0	43	102	1048576	15	4293
2026-01-25 09:15:01.34	96.75	30.10	-27.5	-29.2	15.3	0.00e+00	0	43	102	1048576	15	4360
2026-01-25 09:15:02.34	96.49	30.23	-27.5	-29.2	15.3	0.00e+00	0	43	102	1048576	15	4373
2026-01-25 09:15:03.34	96.23	30.35	-27.7	-29.6	15.1	0.00e+00	0	43	102	1048576	15	4469
2026-01-25 09:15:04.35	95.96	30.48	-27.7	-29.6	15.1	0.00e+00	0	43	102	1048576	15	4485
2026-01-25 09:15:05.35	95.69	30.61	-27.7	-29.6	15.2	0.00e+00	0	43	102	1048576	15	4463
2026-01-25 09:15:06.35	95.43	30.73	-27.6	-29.4	15.2	0.00e+00	0	43	102	1048576	15	4428
2026-01-25 09:15:07.35	95.16	30.86	-27.8	-29.7	15.1	7.00e-07	0	43	102	1048576	15	4501
2026-01-25 09:15:08.36	94.88	30.98	-27.7	-29.6	15.2	0.00e+00	0	43	102	1048576	15	4479
2026-01-25 09:15:09.37	94.60	31.11	-27.7	-29.6	15.1	0.00e+00	0	43	102	1048576	15	4475
2026-01-25 09:15:10.37	94.33	31.23	-27.8	-29.7	15.1	0.00e+00	0	44	102	1048576	15	4496
2026-01-25 09:15:11.38	94.05	31.36	-27.7	-29.5	15.2	0.00e+00	0	43	102	1048576	15	4453
2026-01-25 09:15:12.37	93.77	31.48	-27.4	-28.8	15.6	0.00e+00	0	43	102	1048576	15	4240
2026-01-25 09:15:13.38	93.48	31.61	-27.2	-28.5	15.8	0.00e+00	0	43	102	1048576	15	4173
2026-01-25 09:15:14.39	93.19	31.73	-27.2	-28.4	15.8	0.00e+00	0	43	102	1048576	15	4132
2026-01-25 09:15:15.38	92.91	31.86	-27.2	-28.4	15.9	0.00e+00	0	43	102	1048576	15	4143
2026-01-25 09:15:16.39	92.62	31.98	-27.3	-28.7	15.7	0.00e+00	0	43	102	1048576	15	4203
2026-01-25 09:15:17.40	92.32	32.10	-27.3	-28.6	15.8	0.00e+00	0	43	102	1048576	15	4189
2026-01-25 09:15:18.40	92.03	32.23	-27.4	-28.9	15.6	0.00e+00	0	43	102	1048576	15	4263
2026-01-25 09:15:19.39	91.73	32.35	-27.5	-29.1	15.5	0.00e+00	0	43	102	1048576	15	4322
2026-01-25 09:15:20.39	91.43	32.47	-27.3	-28.6	15.8	0.00e+00	0	43	102	1048576	15	4175
2026-01-25 09:15:21.40	91.13	32.59	-27.3	-28.6	15.8	0.00e+00	0	43	102	1048576	15	4191
2026-01-25 09:15:22.39	90.83	32.71	-27.4	-28.7	15.7	0.00e+00	0	43	102	1048576	15	4219
2026-01-25 09:15:23.40	90.52	32.83	-27.5	-29.0	15.6	0.00e+00	0	43	102	1048576	15	4295
2026-01-25 09:15:24.40	90.21	32.95	-27.5	-29.1	15.5	0.00e+00	0	43	102	1048576	15	4326
2026-01-25 09:15:25.40	89.90	33.07	-27.6	-29.3	15.4	0.00e+00	0	43	102	1048576	15	4367
2026-01-25 09:15:26.41	89.59	33.19	-27.6	-29.3	15.4	0.00e+00	0	43	102	1048576	15	4369
2026-01-25 09:15:27.41	89.27	33.31	-27.8	-29.7	15.2	0.00e+00	0	43	102	1048576	15	4488
2026-01-25 09:15:28.42	88.95	33.43	-28.0	-29.6	15.1	7.00e-07	0	43	102	1048576	16	4346
2026-01-25 09:15:29.42	88.63	33.55	-27.7	-28.9	15.5	0.00e+00	0	43	102	1048576	16	4155
2026-01-25 09:15:30.42	88.31	33.67	-27.8	-29.2	15.4	0.00e+00	0	43	102	1048576	16	4212
2026-01-25 09:15:31.43	87.98	33.78	-27.9	-29.4	15.2	0.00e+00	0	43	102	1048576	16	4286
2026-01-25 09:15:32.43	87.66	33.90	-27.9	-29.3	15.3	0.00e+00	0	43	102	1048576	16	4258
2026-01-25 09:15:33.43	87.33	34.02	-28.0	-29.5	15.2	0.00e+00	0	44	102	1048576	16	4321
2026-01-25 09:15:34.43	87.00	34.13	-27.8	-29.2	15.3	0.00e+00	0	43	102	1048576	16	4237
2026-01-25 09:15:35.44	86.66	34.24	-27.8	-29.1	15.4	0.00e+00	0	43	102	1048576	16	4202
2026-01-25 09:15:36.44	86.32	34.36	-27.8	-29.3	15.3	0.00e+00	0	43	102	1048576	16	4241
2026-01-25 09:15:37.44	85.99	34.47	-28.0	-29.6	15.2	0.00e+00	0	43	102	1048576	16	4332
2026-01-25 09:15:38.45	85.64	34.58	-28.1	-29.8	15.1	0.00e+00	0	43	102	1048576	16	4403
2026-01-25 09:15:39.46	85.30	34.69	-27.9	-29.5	15.2	0.00e+00	0	43	102	1048576	16	4304
2026-01-25 09:15:40.46	84.95	34.80	-28.0	-29.7	15.2	0.00e+00	0	43	102	1048576	16	4358
2026-01-25 09:15:41.47	84.60	34.91	-28.0	-29.6	15.2	0.00e+00	0	43	102	1048576	16	4336
2026-01-25 09:15:42.48	84.25	35.02	-28.1	-29.9	15.0	0.00e+00	0	43	102	1048576	16	4413
2026-01-25 09:15:43.48	83.89	35.13	-28.1	-29.9	15.0	0.00e+00	0	43	102	1048576	16	4415
2026-01-25 09:15:44.49	83.54	35.24	-28.2	-30.1	14.9	0.00e+00	0	43	102	1048576	16	4469
2026-01-25 09:15:45.49	83.18	35.35	-28.2	-30.2	14.8	0.00e+00	0	43	102	1048576	16	4496
2026-01-25 09:15:46.50	82.82	35.45	-28.3	-30.3	14.8	0.00e+00	0	43	102	1048576	16	4551
2026-01-25 09:15:47.51	82.45	35.56	-28.3	-30.3	14.8	0.00e+00	0	43	102	1048576	16	4539
2026-01-25 09:15:48.51	82.09	35.66	-28.1	-29.9	15.0	0.00e+00	0	43	102	1048576	16	4432
2026-01-25 09:15:49.51	81.72	35.76	-27.9	-29.4	15.3	0.00e+00	0	43	102	1048576	16	4280
2026-01-25 09:15:50.51	81.35	35.86	-28.1	-29.8	15.1	0.00e+00	0	43	102	1048576	16	4398
2026-01-25 09:15:51.51	80.98	35.96	-28.1	-30.0	15.0	0.00e+00	0	43	102	1048576	16	4443
2026-01-25 09:15:52.52	80.61	36.06	-28.2	-30.2	14.9	0.00e+00	0	43	102	1048576	16	4497
2026-01-25 09:15:53.52	80.23	36.16	-28.4	-30.6	14.6	0.00e+00	0	43	102	1048576	16	4643
2026-01-25 09:15:54.53	79.85	36.26	-28.5	-30.4	14.5	7.00e-07	0	43	102	1048576	17	4455
2026-01-25 09:15:55.53	79.47	36.35	-28.5	-30.2	14.6	0.00e+00	0	43	102	1048576	17	4393
2026-01-25 09:15:56.54	79.08	36.45	-28.4	-30.1	14.6	7.00e-07	0	43	102	1048576	17	4359
2026-01-25 09:15:57.54	78.70	36.54	-28.5	-30.3	14.5	7.00e-07	0	43	102	1048576	17	4414
2026-01-25 09:15:58.54	78.31	36.63	-28.6	-30.5	14.3	3.00e-06	0	43	102	1048576	17	4493
2026-01-25 09:15:59.55	77.92	36.72	-28.8	-31.1	14.0	1.50e-06	0	43	102	1048576	17	4688
2026-01-25 09:16:00.55	77.53	36.81	-28.9	-31.3	13.9	1.50e-06	0	43	102	1048576	17	4748
2026-01-25 09:16:01.56	77.13	36.90	-28.9	-31.1	14.0	1.50e-06	0	43	102	1048576	17	4685
2026-01-25 09:16:02.57	76.73	36.99	-28.9	-31.3	14.0	5.30e-06	0	43	102	1048576	17	4734
2026-01-25 09:16:03.58	76.33	37.07	-29.1	-31.1	13.8	4.50e-06	0	43	102	1048576	18	4571
2026-01-25 09:16:04.58	75.93	37.16	-29.4	-31.9	13.3	6.10e-06	0	43	102	1048576	18	4822
2026-01-25 09:16:05.58	75.53	37.24	-29.4	-31.5	13.3	2.82e-05	0	43	102	1048576	19	4581
2026-01-25 09:16:06.59	75.13	37.32	-29.2	-31.0	13.6	1.37e-05	0	43	102	1048576	19	4417
2026-01-25 09:16:07.60	74.72	37.40	-29.0	-30.5	13.9	3.80e-06	0	43	102	1048576	19	4268
2026-01-25 09:16:08.59	74.31	37.48	-28.8	-29.9	14.1	1.50e-06	0	44	102	1048576	19	4112
2026-01-25 09:16:09.60	73.90	37.56	-28.7	-30.2	14.3	0.00e+00	0	43	102	1048576	18	4287
2026-01-25 09:16:10.60	73.49	37.63	-28.6	-30.1	14.4	0.00e+00	0	44	102	1048576	18	4256
2026-01-25 09:16:11.60	73.08	37.71	-28.6	-30.0	14.4	0.00e+00	0	44	102	1048576	18	4230
2026-01-25 09:16:12.61	72.66	37.78	-28.7	-30.3	14.3	0.00e+00	0	43	102	1048576	18	4296
2026-01-25 09:16:13.61	72.24	37.85	-28.8	-30.5	14.2	3.00e-06	0	43	102	1048576	18	4362
2026-01-25 09:16:14.62	71.82	37.92	-28.9	-30.6	14.1	2.20e-06	0	44	102	1048576	18	4412
2026-01-25 09:16:15.62	71.40	37.99	-28.8	-30.5	14.2	3.00e-06	0	43	102	1048576	18	4364
2026-01-25 09:16:16.62	70.98	38.05	-28.9	-30.7	14.1	7.00e-07	0	44	102	1048576	18	4430
2026-01-25 09:16:17.63	70.55	38.12	-28.9	-30.7	14.1	7.00e-07	0	43	102	1048576	18	4426
2026-01-25 09:16:18.64	70.12	38.18	-29.0	-30.9	14.0	7.00e-07	0	44	102	1048576	18	4482
2026-01-25 09:16:19.63	69.70	38.24	-28.9	-30.6	14.1	1.50e-06	0	44	102	1048576	18	4397
2026-01-25 09:16:20.64	69.26	38.30	-28.8	-30.3	14.3	1.50e-06	0	43	102	1048576	18	4326
2026-01-25 09:16:21.65	68.83	38.36	-28.7	-30.3	14.3	0.00e+00	0	43	102	1048576	18	4300
2026-01-25 09:16:22.65	68.40	38.41	-28.7	-30.2	14.4	7.00e-07	0	44	102	1048576	18	4270
2026-01-25 09:16:23.66	67.96	38.47	-28.7	-30.3	14.3	3.00e-06	0	44	102	1048576	18	4303
2026-01-25 09:16:24.67	67.52	38.52	-28.7	-30.3	14.3	9.90e-06	0	43	102	1048576	18	4313
2026-01-25 09:16:25.68	67.08	38.57	-28.7	-30.3	14.3	0.00e+00	0	44	102	1048576	18	4310
2026-01-25 09:16:26.69	66.64	38.62	-28.9	-30.7	14.2	3.00e-06	0	43	102	1048576	18	4423
2026-01-25 09:16:27.69	66.20	38.66	-28.7	-30.1	14.4	2.20e-06	0	44	102	1048576	18	4258
2026-01-25 09:16:28.70	65.76	38.71	-28.4	-29.6	14.8	0.00e+00	0	44	102	1048576	18	4102
2026-01-25 09:16:29.70	65.32	38.75	-28.5	-29.8	14.7	7.00e-07	0	44	102	1048576	18	4157
2026-01-25 09:16:30.70	64.88	38.79	-28.8	-30.3	14.3	1.52e-05	0	43	102	1048576	18	4324
2026-01-25 09:16:31.71	64.43	38.83	-28.9	-30.8	14.1	7.00e-07	0	44	102	1048576	18	4459
2026-01-25 09:16:32.72	63.98	38.87	-29.3	-31.6	13.6	6.10e-06	0	44	102	1048576	18	4701
2026-01-25 09:16:33.72	63.54	38.90	-29.5	-31.7	13.2	2.51e-05	0	43	102	1048576	19	4630
2026-01-25 09:16:34.72	63.09	38.93	-29.6	-31.9	13.2	3.73e-05	0	43	102	1048576	19	4676
2026-01-25 09:16:35.73	62.64	38.97	-29.6	-31.8	13.1	2.97e-05	0	43	102	1048576	19	4671
2026-01-25 09:16:36.73	62.19	38.99	-29.5	-31.6	13.3	2.97e-05	0	43	102	1048576	19	4610
2026-01-25 09:16:37.74	61.74	39.02	-29.2	-30.9	13.7	1.06e-05	0	44	102	1048576	19	4375
2026-01-25 09:16:38.74	61.29	39.05	-29.2	-30.8	13.8	3.00e-06	0	43	102	1048576	19	4355
2026-01-25 09:16:39.75	60.84	39.07	-29.5	-31.7	13.2	2.67e-05	0	43	102	1048576	19	4630
2026-01-25 09:16:40.76	60.38	39.09	-29.6	-32.0	13.1	3.20e-05	0	43	102	1048576	19	4720
2026-01-25 09:16:41.76	59.93	39.11	-29.6	-31.8	13.2	2.28e-05	0	43	102	1048576	19	4649
2026-01-25 09:16:42.77	59.47	39.13	-29.5	-31.6	13.3	1.44e-05	0	44	102	1048576	19	4594
2026-01-25 09:16:43.78	59.02	39.14	-29.4	-31.4	13.4	8.30e-06	0	43	102	1048576	19	4514
2026-01-25 09:16:44.77	58.57	39.16	-29.5	-31.6	13.2	1.90e-05	0	43	102	1048576	19	4603
2026-01-25 09:16:45.77	58.12	39.17	-29.6	-31.9	13.1	3.28e-05	0	43	102	1048576	19	4682
2026-01-25 09:16:46.77	57.67	39.18	-29.7	-32.1	12.9	4.57e-05	0	43	102	1048576	19	4763
2026-01-25 09:16:47.78	57.21	39.18	-29.8	-32.4	12.8	4.11e-05	0	43	102	1048576	19	4858
2026-01-25 09:16:48.79	56.75	39.19	-29.7	-32.2	12.9	6.71e-05	0	43	102	1048576	19	4778
2026-01-25 09:16:49.79	56.30	39.19	-29.4	-31.5	13.4	2.21e-05	0	44	102	1048576	19	4549
2026-01-25 09:16:50.80	55.84	39.19	-29.3	-31.1	13.6	1.06e-05	0	43	102	1048576	19	4453
2026-01-25 09:16:51.81	55.38	39.19	-29.2	-31.0	13.6	1.06e-05	0	43	102	1048576	19	4407
2026-01-25 09:16:52.81	54.93	39.19	-29.1	-30.8	13.8	7.60e-06	0	43	102	1048576	19	4342
2026-01-25 09:16:53.82	54.47	39.18	-29.0	-30.4	14.0	1.50e-06	0	43	102	1048576	19	4225
2026-01-25 09:16:54.82	54.02	39.17	-29.2	-30.9	13.8	0.00e+00	0	43	102	1048576	19	4365
2026-01-25 09:16:55.83	53.56	39.16	-29.0	-30.5	13.9	6.10e-06	0	44	102	1048576	19	4265
2026-01-25 09:16:56.83	53.11	39.15	-29.3	-31.2	13.5	6.80e-06	0	44	102	1048576	19	4476
2026-01-25 09:16:57.83	52.66	39.14	-29.3	-31.1	13.6	8.30e-06	0	44	102	1048576	19	4449
2026-01-25 09:16:58.84	52.20	39.12	-29.2	-30.9	13.7	5.30e-06	0	43	102	1048576	19	4378
2026-01-25 09:16:59.84	51.75	39.10	-29.2	-30.9	13.7	9.10e-06	0	43	102	1048576	19	4387
2026-01-25 09:17:00.84	51.30	39.08	-29.3	-31.0	13.6	9.90e-06	0	43	102	1048576	19	4414
2026-01-25 09:17:01.85	50.85	39.06	-29.3	-31.2	13.5	8.30e-06	0	43	102	1048576	19	4470
2026-01-25 09:17:02.84	50.40	39.04	-29.5	-31.6	13.3	1.29e-05	0	44	102	1048576	19	4585
2026-01-25 09:17:03.85	49.95	39.01	-29.2	-30.9	13.7	9.90e-06	0	43	102	1048576	19	4368
2026-01-25 09:17:04.85	49.50	38.98	-28.9	-30.3	14.0	3.00e-06	0	43	102	1048576	19	4204
2026-01-25 09:17:05.86	49.05	38.95	-28.7	-30.3	14.3	1.50e-06	0	43	102	1048576	18	4304
2026-01-25 09:17:06.87	48.60	38.92	-28.8	-30.4	14.3	0.00e+00	0	44	102	1048576	18	4329
2026-01-25 09:17:07.87	48.15	38.89	-28.9	-30.6	14.2	3.00e-06	0	43	102	1048576	18	4402
2026-01-25 09:17:08.88	47.71	38.85	-28.8	-30.5	14.2	2.20e-06	0	43	102	1048576	18	4363
2026-01-25 09:17:09.89	47.26	38.82	-28.9	-30.7	14.1	2.20e-06	0	43	102	1048576	18	4411
2026-01-25 09:17:10.90	46.81	38.78	-29.0	-30.9	14.0	3.80e-06	0	43	102	1048576	18	4478
2026-01-25 09:17:11.90	46.37	38.73	-29.1	-31.1	13.8	4.50e-06	0	43	102	1048576	18	4558
2026-01-25 09:17:12.90	45.93	38.69	-29.2	-31.4	13.6	9.90e-06	0	43	102	1048576	18	4656
2026-01-25 09:17:13.90	45.49	38.65	-29.3	-31.7	13.5	1.22e-05	0	44	102	1048576	18	4733
2026-01-25 09:17:14.91	45.05	38.60	-29.1	-31.3	13.8	3.80e-06	0	43	102	1048576	18	4596
2026-01-25 09:17:15.92	44.61	38.55	-29.1	-31.1	13.9	1.50e-06	0	43	102	1048576	18	4553
2026-01-25 09:17:16.92	44.18	38.50	-29.2	-31.5	13.6	1.06e-05	0	44	102	1048576	18	4674
2026-01-25 09:17:17.93	43.74	38.45	-28.9	-30.7	14.2	6.10e-06	0	43	102	1048576	18	4414
2026-01-25 09:17:18.93	43.31	38.39	-28.5	-29.8	14.6	0.00e+00	0	43	102	1048576	18	4175
2026-01-25 09:17:19.93	42.88	38.34	-28.6	-30.0	14.5	1.50e-06	0	44	102	1048576	18	4238
2026-01-25 09:17:20.94	42.44	38.28	-28.9	-30.8	14.1	1.50e-06	0	43	102	1048576	18	4447
2026-01-25 09:17:21.94	42.02	38.22	-29.2	-31.4	13.6	3.80e-06	0	43	102	1048576	18	4660
2026-01-25 09:17:22.95	41.59	38.16	-29.3	-31.8	13.4	6.80e-06	0	43	102	1048576	18	4756
2026-01-25 09:17:23.95	41.16	38.09	-29.4	-31.8	13.4	2.13e-05	0	43	102	1048576	18	4786
2026-01-25 09:17:24.96	40.73	38.03	-29.1	-31.2	13.8	9.90e-06	0	43	102	1048576	18	4565
2026-01-25 09:17:25.96	40.31	37.96	-29.1	-31.1	13.9	5.30e-06	0	43	102	1048576	18	4533
2026-01-25 09:17:26.97	39.89	37.89	-29.1	-31.3	13.7	7.60e-06	0	44	102	1048576	18	4598
2026-01-25 09:17:27.97	39.47	37.82	-28.8	-30.4	14.2	2.20e-06	0	44	102	1048576	18	4329
2026-01-25 09:17:28.98	39.05	37.75	-29.0	-30.8	14.0	2.20e-06	0	43	102	1048576	18	4456
2026-01-25 09:17:29.99	38.64	37.68	-29.1	-31.2	13.8	3.00e-06	0	43	102	1048576	18	4570
2026-01-25 09:17:30.99	38.23	37.61	-29.7	-32.1	13.0	2.36e-05	0	43	102	1048576	19	4744
2026-01-25 09:17:31.99	37.82	37.53	-29.6	-32.0	13.0	3.35e-05	0	44	102	1048576	19	4731
2026-01-25 09:17:32.99	37.41	37.45	-29.8	-32.5	12.7	7.85e-05	0	44	102	1048576	19	4889
2026-01-25 09:17:33.99	37.00	37.37	-29.4	-31.4	13.3	3.28e-05	0	43	102	1048576	19	4533
2026-01-25 09:17:34.99	36.60	37.29	-28.8	-30.1	14.1	0.00e+00	0	44	102	1048576	19	4146
2026-01-25 09:17:35.99	36.20	37.21	-28.5	-29.7	14.7	0.00e+00	0	43	102	1048576	18	4136
2026-01-25 09:17:37.00	35.79	37.13	-28.5	-29.8	14.6	7.00e-07	0	44	102	1048576	18	4152
2026-01-25 09:17:38.01	35.39	37.05	-28.8	-30.3	14.3	7.00e-07	0	43	102	1048576	18	4313
2026-01-25 09:17:39.01	35.00	36.96	-29.2	-31.4	13.7	9.90e-06	0	43	102	1048576	18	4646
2026-01-25 09:17:40.02	34.60	36.87	-29.1	-31.2	13.8	6.10e-06	0	43	102	1048576	18	4582
2026-01-25 09:17:41.03	34.20	36.78	-29.1	-31.2	13.8	4.50e-06	0	43	102	1048576	18	4591
2026-01-25 09:17:42.03	33.81	36.69	-29.4	-31.8	13.4	9.90e-06	0	44	102	1048576	18	4782
2026-01-25 09:17:43.04	33.42	36.60	-29.1	-31.1	13.8	3.80e-06	0	44	102	1048576	18	4562
2026-01-25 09:17:44.04	33.04	36.51	-28.9	-30.8	14.0	3.80e-06	0	43	102	1048576	18	4458
2026-01-25 09:17:45.05	32.65	36.42	-28.8	-30.5	14.1	1.50e-06	0	43	102	1048576	18	4371
2026-01-25 09:17:46.05	32.27	36.32	-28.8	-30.4	14.2	2.20e-06	0	44	102	1048576	18	4344
2026-01-25 09:17:47.05	31.89	36.23	-29.0	-30.9	13.9	2.20e-06	0	44	102	1048576	18	4494
2026-01-25 09:17:48.06	31.52	36.13	-28.9	-30.8	14.0	2.20e-06	0	44	102	1048576	18	4451
2026-01-25 09:17:49.05	31.15	36.03	-28.6	-30.0	14.5	2.20e-06	0	43	102	1048576	18	4227
2026-01-25 09:17:50.05	30.77	35.93	-28.3	-29.7	14.9	7.00e-07	0	44	102	1048576	17	4251
2026-01-25 09:17:51.06	30.40	35.83	-28.3	-29.7	14.9	0.00e+00	0	43	102	1048576	17	4251
2026-01-25 09:17:52.07	30.03	35.73	-28.3	-29.8	14.8	0.00e+00	0	43	102	1048576	17	4282
2026-01-25 09:17:53.07	29.67	35.63	-28.8	-30.9	14.2	7.00e-07	0	44	102	1048576	17	4601
2026-01-25 09:17:54.07	29.30	35.53	-29.0	-31.4	13.9	8.30e-06	0	43	102	1048576	17	4768
2026-01-25 09:17:55.08	28.94	35.42	-29.1	-31.3	13.7	4.50e-06	0	43	102	1048576	18	4610
2026-01-25 09:17:56.09	28.58	35.32	-28.9	-30.6	14.1	7.00e-07	0	44	102	1048576	18	4402
2026-01-25 09:17:57.10	28.22	35.21	-28.5	-29.8	14.5	7.00e-07	0	44	102	1048576	18	4171
2026-01-25 09:17:58.10	27.87	35.10	-28.5	-29.8	14.5	7.00e-07	0	44	102	1048576	18	4185
2026-01-25 09:17:59.11	27.51	34.99	-28.7	-30.3	14.2	2.20e-06	0	43	102	1048576	18	4316
2026-01-25 09:18:00.12	27.16	34.88	-28.5	-29.8	14.6	1.50e-06	0	44	102	1048576	18	4171
2026-01-25 09:18:01.13	26.81	34.77	-28.8	-30.4	14.2	7.00e-07	0	44	102	1048576	18	4355
2026-01-25 09:18:02.13	26.47	34.66	-29.3	-31.7	13.5	1.14e-05	0	44	102	1048576	18	4735
2026-01-25 09:18:03.13	26.13	34.55	-29.5	-31.8	13.1	2.74e-05	0	43	102	1048576	19	4658
2026-01-25 09:18:04.14	25.79	34.44	-29.3	-31.3	13.3	1.90e-05	0	43	102	1048576	19	4525
2026-01-25 09:18:05.15	25.45	34.33	-29.2	-30.8	13.7	9.90e-06	0	43	102	1048576	19	4370
2026-01-25 09:18:06.15	25.11	34.21	-29.0	-30.4	13.9	3.00e-06	0	43	102	1048576	19	4238
2026-01-25 09:18:07.15	24.78	34.10	-29.1	-30.8	13.7	6.80e-06	0	44	102	1048576	19	4342
2026-01-25 09:18:08.15	24.45	33.99	-29.6	-31.9	13.0	2.51e-05	0	43	102	1048576	19	4692
2026-01-25 09:18:09.16	24.12	33.87	-30.0	-32.5	12.3	2.08e-04	0	43	102	1048576	20	4802
2026-01-25 09:18:10.16	23.80	33.75	-30.1	-32.7	12.1	2.26e-04	0	44	102	1048576	20	4864
2026-01-25 09:18:11.17	23.47	33.64	-30.2	-32.9	12.0	2.89e-04	0	44	102	1048576	20	4929
2026-01-25 09:18:12.18	23.15	33.52	-30.2	-33.1	11.9	4.97e-04	0	43	102	1048576	20	4995
2026-01-25 09:18:13.18	22.83	33.40	-29.7	-31.7	12.7	1.03e-04	0	43	102	1048576	20	4542
2026-01-25 09:18:14.18	22.52	33.28	-29.2	-30.9	13.6	1.37e-05	0	44	102	1048576	19	4380
2026-01-25 09:18:15.18	22.20	33.17	-28.7	-30.3	14.2	2.20e-06	0	44	102	1048576	18	4317
2026-01-25 09:18:16.18	21.89	33.05	-28.6	-30.1	14.4	7.00e-07	0	44	102	1048576	18	4261
2026-01-25 09:18:17.19	21.58	32.93	-28.8	-30.4	14.2	7.00e-07	0	44	102	1048576	18	4331
2026-01-25 09:18:18.19	21.28	32.81	-28.8	-30.5	14.1	1.50e-06	0	44	102	1048576	18	4390
2026-01-25 09:18:19.19	20.97	32.69	-29.4	-31.9	13.3	2.13e-05	0	44	102	1048576	18	4806
2026-01-25 09:18:20.20	20.67	32.56	-29.0	-31.1	13.8	9.90e-06	0	43	102	1048576	18	4547
2026-01-25 09:18:21.21	20.37	32.44	-28.6	-30.0	14.4	0.00e+00	0	43	102	1048576	18	4240
2026-01-25 09:18:22.21	20.07	32.32	-28.0	-29.2	15.1	0.00e+00	0	44	102	1048576	17	4114
2026-01-25 09:18:23.22	19.77	32.20	-27.5	-28.6	15.7	0.00e+00	0	44	102	1048576	16	4060
2026-01-25 09:18:24.23	19.48	32.07	-27.3	-28.0	16.0	0.00e+00	0	44	102	1048576	16	3916
2026-01-25 09:18:25.23	19.19	31.95	-27.1	-28.1	16.1	0.00e+00	0	43	102	1048576	15	4049
2026-01-25 09:18:26.24	18.89	31.83	-27.2	-28.3	16.0	0.00e+00	0	44	102	1048576	15	4097
2026-01-25 09:18:27.24	18.61	31.70	-27.3	-28.6	15.8	0.00e+00	0	44	102	1048576	15	4172
2026-01-25 09:18:28.25	18.32	31.58	-27.6	-29.2	15.5	0.00e+00	0	43	102	1048576	15	4353
2026-01-25 09:18:29.26	18.04	31.45	-27.8	-29.8	15.2	0.00e+00	0	44	102	1048576	15	4516
2026-01-25 09:18:30.26	17.76	31.33	-27.8	-29.8	15.1	0.00e+00	0	43	102	1048576	15	4520
2026-01-25 09:18:31.25	17.49	31.21	-27.7	-29.5	15.2	0.00e+00	0	43	102	1048576	15	4429
2026-01-25 09:18:32.26	17.21	31.08	-27.6	-29.3	15.4	0.00e+00	0	43	102	1048576	15	4358
2026-01-25 09:18:33.26	16.93	30.96	-27.6	-29.3	15.4	0.00e+00	0	43	102	1048576	15	4360
2026-01-25 09:18:34.27	16.66	30.83	-27.4	-28.8	15.7	0.00e+00	0	44	102	1048576	15	4231
2026-01-25 09:18:35.28	16.39	30.70	-27.4	-28.8	15.7	0.00e+00	0	43	102	1048576	15	4230
2026-01-25 09:18:36.28	16.12	30.58	-27.6	-29.2	15.5	0.00e+00	0	44	102	1048576	15	4343
2026-01-25 09:18:37.28	15.86	30.45	-27.6	-29.2	15.5	0.00e+00	0	43	102	1048576	15	4345
2026-01-25 09:18:38.28	15.60	30.33	-27.5	-29.1	15.5	0.00e+00	0	43	102	1048576	15	4304
2026-01-25 09:18:39.29	15.33	30.20	-27.4	-28.8	15.7	0.00e+00	0	43	102	1048576	15	4230
2026-01-25 09:18:40.29	15.08	30.08	-27.4	-28.9	15.6	0.00e+00	0	44	102	1048576	15	4260
2026-01-25 09:18:41.30	14.82	29.95	-27.4	-28.8	15.7	0.00e+00	0	44	102	1048576	15	4240
2026-01-25 09:18:42.31	14.56	29.82	-27.2	-28.3	15.9	0.00e+00	0	44	102	1048576	15	4101
2026-01-25 09:18:43.31	14.31	29.70	-27.3	-28.6	15.8	0.00e+00	0	44	102	1048576	15	4183
2026-01-25 09:18:44.31	14.06	29.57	-27.5	-28.9	15.6	0.00e+00	0	44	102	1048576	15	4273
2026-01-25 09:18:45.32	13.81	29.44	-27.6	-29.3	15.4	0.00e+00	0	44	102	1048576	15	4382
2026-01-25 09:18:46.33	13.56	29.31	-27.8	-29.7	15.2	0.00e+00	0	44	102	1048576	15	4491
2026-01-25 09:18:47.33	13.32	29.19	-27.9	-29.9	15.0	0.00e+00	0	44	102	1048576	15	4545
2026-01-25 09:18:48.34	13.07	29.06	-28.0	-30.1	14.9	7.00e-07	0	44	102	1048576	15	4605
2026-01-25 09:18:49.34	12.83	28.93	-28.1	-29.9	14.9	7.00e-07	0	44	102	1048576	16	4428
2026-01-25 09:18:50.34	12.59	28.81	-27.7	-28.9	15.5	0.00e+00	0	43	102	1048576	16	4135
2026-01-25 09:18:51.34	12.36	28.68	-27.3	-28.1	15.8	0.00e+00	0	44	102	1048576	16	3951
2026-01-25 09:18:52.35	12.12	28.55	-27.0	-27.9	16.1	0.00e+00	0	44	102	1048576	15	3984
2026-01-25 09:18:53.35	11.89	28.43	-27.0	-27.8	16.2	0.00e+00	0	44	102	1048576	15	3980
2026-01-25 09:18:54.35	11.66	28.30	-27.0	-27.9	16.1	0.00e+00	0	44	102	1048576	15	3992
2026-01-25 09:18:55.36	11.42	28.18	-27.0	-27.9	16.1	0.00e+00	0	43	102	1048576	15	3992
2026-01-25 09:18:56.36	11.20	28.05	-27.1	-28.3	15.9	0.00e+00	0	44	102	1048576	15	4090
2026-01-25 09:18:57.37	10.97	27.92	-27.3	-28.6	15.7	7.00e-07	0	44	102	1048576	15	4174
2026-01-25 09:18:58.37	10.75	27.80	-27.4	-28.8	15.6	0.00e+00	0	43	102	1048576	15	4228
2026-01-25 09:18:59.38	10.52	27.67	-27.3	-28.5	15.7	0.00e+00	0	43	102	1048576	15	4168
2026-01-25 09:19:00.38	10.30	27.54	-27.1	-28.2	15.9	0.00e+00	0	44	102	1048576	15	4080
2026-01-25 09:19:01.39	10.08	27.42	-27.1	-28.2	15.9	0.00e+00	0	44	102	1048576	15	4070
2026-01-25 09:19:02.39	9.87	27.29	-27.3	-28.5	15.8	0.00e+00	0	43	102	1048576	15	4154
2026-01-25 09:19:03.40	9.65	27.17	-27.2	-28.4	15.7	0.00e+00	0	44	102	1048576	15	4133
2026-01-25 09:19:04.40	9.44	27.04	-27.1	-28.1	15.9	0.00e+00	0	43	102	1048576	15	4052
2026-01-25 09:19:05.41	9.22	26.91	-27.2	-28.4	15.7	0.00e+00	0	44	102	1048576	15	4140
2026-01-25 09:19:06.42	9.01	26.79	-27.3	-28.7	15.6	0.00e+00	0	44	102	1048576	15	4213
2026-01-25 09:19:07.42	8.80	26.66	-27.6	-29.3	15.3	0.00e+00	0	44	102	1048576	15	4385
2026-01-25 09:19:08.43	8.59	26.54	-27.8	-29.8	15.0	0.00e+00	0	44	102	1048576	15	4511
2026-01-25 09:19:09.44	8.39	26.41	-27.7	-29.5	15.1	0.00e+00	0	44	102	1048576	15	4456
2026-01-25 09:19:10.44	8.18	26.29	-27.3	-28.7	15.5	0.00e+00	0	43	102	1048576	15	4230
2026-01-25 09:19:11.44	7.98	26.16	-27.2	-28.4	15.7	0.00e+00	0	43	102	1048576	15	4125
2026-01-25 09:19:12.44	7.78	26.04	-27.0	-28.0	15.9	0.00e+00	0	44	102	1048576	15	4042
2026-01-25 09:19:13.45	7.58	25.91	-26.9	-27.8	16.0	0.00e+00	0	44	102	1048576	15	3991
2026-01-25 09:19:14.45	7.39	25.79	-26.8	-27.5	16.1	0.00e+00	0	44	102	1048576	15	3918
2026-01-25 09:19:15.45	7.19	25.67	-26.9	-27.7	16.0	0.00e+00	0	44	102	1048576	15	3961
2026-01-25 09:19:16.45	7.00	25.55	-27.0	-28.0	15.9	0.00e+00	0	44	102	1048576	15	4036
2026-01-25 09:19:17.46	6.80	25.42	-26.9	-27.7	16.1	0.00e+00	0	43	102	1048576	15	3955
2026-01-25 09:19:18.46	6.61	25.30	-27.0	-28.0	15.9	0.00e+00	0	43	102	1048576	15	4022
2026-01-25 09:19:19.46	6.42	25.18	-27.1	-28.2	15.7	0.00e+00	0	44	102	1048576	15	4100
2026-01-25 09:19:20.47	6.23	25.05	-27.3	-28.6	15.5	0.00e+00	0	44	102	1048576	15	4195
2026-01-25 09:19:21.47	6.05	24.93	-27.4	-28.9	15.3	0.00e+00	0	44	102	1048576	15	4281
2026-01-25 09:19:22.48	5.86	24.81	-27.4	-29.0	15.3	0.00e+00	0	44	102	1048576	15	4303
2026-01-25 09:19:23.48	5.68	24.69	-27.3	-28.8	15.5	0.00e+00	0	44	102	1048576	15	4239
2026-01-25 09:19:24.48	5.50	24.56	-27.2	-28.4	15.6	0.00e+00	0	43	102	1048576	15	4148
2026-01-25 09:19:25.48	5.32	24.44	-27.2	-28.4	15.7	0.00e+00	0	44	102	1048576	15	4130
2026-01-25 09:19:26.49	5.14	24.32	-27.2	-28.4	15.6	0.00e+00	0	43	102	1048576	15	4145
2026-01-25 09:19:27.49	4.96	24.20	-27.1	-28.3	15.7	0.00e+00	0	43	102	1048576	15	4114
2026-01-25 09:19:28.49	4.78	24.08	-26.8	-27.5	16.1	0.00e+00	0	44	102	1048576	15	3918
2026-01-25 09:19:29.49	4.61	23.96	-26.6	-27.5	16.3	0.00e+00	0	44	102	1048576	14	4023
2026-01-25 09:19:30.50	4.43	23.84	-26.5	-27.4	16.4	0.00e+00	0	44	102	1048576	14	3988
2026-01-25 09:19:31.50	4.26	23.72	-26.6	-27.6	16.3	0.00e+00	0	43	102	1048576	14	4043
2026-01-25 09:19:32.51	4.09	23.60	-26.6	-27.6	16.3	0.00e+00	0	44	102	1048576	14	4047
2026-01-25 09:19:33.51	3.92	23.48	-26.7	-27.8	16.3	0.00e+00	0	44	102	1048576	14	4078
2026-01-25 09:19:34.52	3.75	23.36	-26.8	-28.1	16.0	0.00e+00	0	44	102	1048576	14	4160
2026-01-25 09:19:35.51	3.58	23.24	-26.9	-28.3	15.9	0.00e+00	0	43	102	1048576	14	4237
2026-01-25 09:19:36.52	3.42	23.13	-27.0	-28.6	15.8	0.00e+00	0	44	102	1048576	14	4306
2026-01-25 09:19:37.53	3.25	23.01	-27.0	-28.5	15.8	0.00e+00	0	44	102	1048576	14	4294
2026-01-25 09:19:38.52	3.09	22.89	-27.0	-28.5	15.8	0.00e+00	0	44	102	1048576	14	4273
2026-01-25 09:19:39.52	2.93	22.77	-27.0	-28.4	15.8	0.00e+00	0	43	102	1048576	14	4259
2026-01-25 09:19:40.53	2.76	22.65	-26.9	-28.2	15.9	0.00e+00	0	44	102	1048576	14	4205
2026-01-25 09:19:41.53	2.61	22.54	-26.7	-27.9	16.1	0.00e+00	0	43	102	1048576	14	4124
2026-01-25 09:19:42.54	2.45	22.42	-26.7	-27.9	16.1	0.00e+00	0	43	102	1048576	14	4122
2026-01-25 09:19:43.54	2.29	22.30	-26.7	-27.9	16.1	0.00e+00	0	44	102	1048576	14	4115
2026-01-25 09:19:44.54	2.13	22.19	-26.7	-27.9	16.1	0.00e+00	0	44	102	1048576	14	4112
2026-01-25 09:19:45.54	1.98	22.07	-26.8	-28.0	16.0	0.00e+00	0	43	102	1048576	14	4150
2026-01-25 09:19:46.54	1.83	21.96	-26.8	-28.0	16.0	0.00e+00	0	44	102	1048576	14	4149
2026-01-25 09:19:47.54	1.67	21.84	-27.0	-28.4	15.9	0.00e+00	0	43	102	1048576	14	4247
2026-01-25 09:19:48.54	1.52	21.73	-27.0	-28.4	15.8	0.00e+00	0	44	102	1048576	14	4263
2026-01-25 09:19:49.54	1.37	21.61	-27.0	-28.5	15.8	0.00e+00	0	44	102	1048576	14	4286
2026-01-25 09:19:50.55	1.22	21.50	-27.0	-28.5	15.8	0.00e+00	0	44	102	1048576	14	4292
2026-01-25 09:19:51.55	1.07	21.39	-27.1	-28.8	15.6	0.00e+00	0	44	102	1048576	14	4368
2026-01-25 09:19:52.55	0.93	21.27	-27.1	-28.6	15.7	0.00e+00	0	43	102	1048576	14	4319
2026-01-25 09:19:53.56	0.78	21.16	-27.0	-28.5	15.8	0.00e+00	0	44	102	1048576	14	4281
2026-01-25 09:19:54.56	0.64	21.05	-27.1	-28.7	15.6	0.00e+00	0	44	102	1048576	14	4333
2026-01-25 09:19:55.57	0.49	20.93	-27.0	-28.5	15.7	0.00e+00	0	44	102	1048576	14	4290
2026-01-25 09:19:56.57	0.35	20.82	-26.9	-28.2	15.9	0.00e+00	0	43	102	1048576	14	4199
2026-01-25 09:19:57.57	0.21	20.71	-26.8	-28.1	15.9	0.00e+00	0	43	102	1048576	14	4180
2026-01-25 09:19:58.56	0.07	20.60	-26.9	-28.2	15.9	0.00e+00	0	43	102	1048576	14	4212
2026-01-25 09:19:59.57	359.93	20.49	-27.1	-28.7	15.6	0.00e+00	0	44	102	1048576	14	4329
2026-01-25 09:20:00.56	359.79	20.38	-27.1	-28.6	15.6	0.00e+00	0	43	102	1048576	14	4319
2026-01-25 09:20:01.57	359.65	20.26	-26.9	-28.3	15.9	0.00e+00	0	44	102	1048576	14	4213
2026-01-25 09:20:02.58	359.52	20.15	-26.8	-28.1	15.9	0.00e+00	0	44	102	1048576	14	4181
2026-01-25 09:20:03.58	359.38	20.04	-26.9	-28.2	15.9	0.00e+00	0	44	102	1048576	14	4192
2026-01-25 09:20:04.58	359.25	19.93	-26.8	-28.1	15.9	0.00e+00	0	43	102	1048576	14	4183
2026-01-25 09:20:05.58	359.11	19.82	-26.7	-27.9	16.0	0.00e+00	0	44	102	1048576	14	4125
2026-01-25 09:20:06.59	358.98	19.71	-26.8	-28.0	16.0	0.00e+00	0	44	102	1048576	14	4140
2026-01-25 09:20:07.59	358.85	19.60	-26.8	-28.0	16.0	0.00e+00	0	43	102	1048576	14	4150
2026-01-25 09:20:08.60	358.72	19.50	-26.8	-28.1	15.9	0.00e+00	0	44	102	1048576	14	4181
2026-01-25 09:20:09.60	358.59	19.39	-26.8	-28.0	16.0	0.00e+00	0	44	102	1048576	14	4135
2026-01-25 09:20:10.61	358.46	19.28	-26.6	-27.7	16.1	0.00e+00	0	43	102	1048576	14	4075
2026-01-25 09:20:11.61	358.33	19.17	-26.6	-27.6	16.2	0.00e+00	0	44	102	1048576	14	4038
2026-01-25 09:20:12.61	358.21	19.06	-26.7	-27.8	16.1	0.00e+00	0	43	102	1048576	14	4093
2026-01-25 09:20:13.61	358.08	18.96	-26.7	-27.8	16.1	0.00e+00	0	44	102	1048576	14	4097
2026-01-25 09:20:14.62	357.96	18.85	-26.8	-28.1	15.9	0.00e+00	0	44	102	1048576	14	4181
2026-01-25 09:20:15.62	357.83	18.74	-26.8	-28.1	15.9	0.00e+00	0	43	102	1048576	14	4187
2026-01-25 09:20:16.62	357.71	18.64	-26.9	-28.4	15.7	0.00e+00	0	43	102	1048576	14	4248
2026-01-25 09:20:17.63	357.59	18.53	-26.9	-28.3	15.7	0.00e+00	0	44	102	1048576	14	4234
2026-01-25 09:20:18.63	357.46	18.43	-26.9	-28.4	15.8	0.00e+00	0	44	102	1048576	14	4245
2026-01-25 09:20:19.63	357.34	18.32	-27.0	-28.6	15.6	0.00e+00	0	43	102	1048576	14	4307
2026-01-25 09:20:20.64	357.22	18.22	-27.1	-28.8	15.5	0.00e+00	0	43	102	1048576	14	4359
2026-01-25 09:20:21.64	357.11	18.11	-27.1	-28.8	15.5	0.00e+00	0	44	102	1048576	14	4374
2026-01-25 09:20:22.65	356.99	18.01	-27.2	-28.9	15.4	0.00e+00	0	43	102	1048576	14	4408
2026-01-25 09:20:23.65	356.87	17.90	-27.2	-29.0	15.3	0.00e+00	0	43	102	1048576	14	4434
2026-01-25 09:20:24.65	356.75	17.80	-27.3	-29.2	15.3	0.00e+00	0	43	102	1048576	14	4491
2026-01-25 09:20:25.65	356.64	17.70	-27.3	-29.2	15.2	0.00e+00	0	44	102	1048576	14	4486
2026-01-25 09:20:26.65	356.52	17.59	-27.3	-29.2	15.2	0.00e+00	0	44	102	1048576	14	4479
2026-01-25 09:20:27.66	356.41	17.49	-27.3	-29.2	15.2	0.00e+00	0	44	102	1048576	14	4498
2026-01-25 09:20:28.67	356.30	17.39	-27.3	-29.3	15.2	0.00e+00	0	43	102	1048576	14	4515
2026-01-25 09:20:29.67	356.18	17.29	-27.4	-29.4	15.1	0.00e+00	0	44	102	1048576	14	4545
2026-01-25 09:20:30.67	356.07	17.18	-27.3	-29.2	15.2	7.00e-07	0	44	102	1048576	14	4473
2026-01-25 09:20:31.67	355.96	17.08	-27.0	-28.6	15.5	0.00e+00	0	44	102	1048576	14	4324
2026-01-25 09:20:32.68	355.85	16.98	-27.0	-28.5	15.6	0.00e+00	0	43	102	1048576	14	4278
2026-01-25 09:20:33.68	355.74	16.88	-26.9	-28.3	15.7	0.00e+00	0	43	102	1048576	14	4230
2026-01-25 09:20:34.68	355.63	16.78	-26.8	-28.0	15.9	7.00e-07	0	44	102	1048576	14	4158
2026-01-25 09:20:35.69	355.52	16.68	-26.9	-28.3	15.7	0.00e+00	0	43	102	1048576	14	4216
2026-01-25 09:20:36.69	355.42	16.58	-26.8	-28.1	15.8	7.00e-07	0	44	102	1048576	14	4189
2026-01-25 09:20:37.69	355.31	16.48	-26.8	-28.0	15.9	0.00e+00	0	44	102	1048576	14	4140
2026-01-25 09:20:38.70	355.21	16.38	-26.8	-28.1	15.8	0.00e+00	0	44	102	1048576	14	4166
2026-01-25 09:20:39.71	355.10	16.28	-26.8	-28.1	15.8	0.00e+00	0	44	102	1048576	14	4183
2026-01-25 09:20:40.71	355.00	16.18	-26.9	-28.3	15.7	0.00e+00	0	44	102	1048576	14	4219
2026-01-25 09:20:41.72	354.89	16.08	-27.0	-28.5	15.6	0.00e+00	0	44	102	1048576	14	4285
2026-01-25 09:20:42.72	354.79	15.98	-27.1	-28.7	15.5	0.00e+00	0	43	102	1048576	14	4354
2026-01-25 09:20:43.73	354.69	15.89	-27.2	-29.0	15.3	0.00e+00	0	44	102	1048576	14	4430
2026-01-25 09:20:44.72	354.59	15.79	-27.3	-29.3	15.2	0.00e+00	0	44	102	1048576	14	4503
2026-01-25 09:20:45.73	354.49	15.69	-27.3	-29.3	15.1	0.00e+00	0	44	102	1048576	14	4510
2026-01-25 09:20:46.73	354.39	15.60	-27.4	-29.5	15.0	0.00e+00	0	43	102	1048576	14	4573
2026-01-25 09:20:47.74	354.29	15.50	-27.4	-29.4	15.1	0.00e+00	0	44	102	1048576	14	4544
2026-01-25 09:20:48.74	354.19	15.40	-27.5	-29.6	14.9	0.00e+00	0	43	102	1048576	14	4600
2026-01-25 09:20:49.75	354.09	15.31	-27.4	-29.0	15.0	7.00e-07	0	44	102	1048576	15	4329
2026-01-25 09:20:50.75	353.99	15.21	-27.4	-29.0	14.9	7.00e-07	0	44	102	1048576	15	4338
2026-01-25 09:20:51.76	353.89	15.11	-27.4	-29.0	15.0	0.00e+00	0	44	102	1048576	15	4309
2026-01-25 09:20:52.76	353.80	15.02	-27.4	-28.9	15.0	0.00e+00	0	44	102	1048576	15	4290
2026-01-25 09:20:53.77	353.70	14.92	-27.4	-29.1	15.0	7.00e-07	0	44	102	1048576	15	4342
2026-01-25 09:20:54.77	353.61	14.83	-27.3	-28.8	15.0	7.00e-07	0	43	102	1048576	15	4279
2026-01-25 09:20:55.78	353.51	14.73	-27.2	-28.5	15.2	0.00e+00	0	44	102	1048576	15	4176
2026-01-25 09:20:56.78	353.42	14.64	-27.4	-29.0	15.0	0.00e+00	0	44	102	1048576	15	4335
2026-01-25 09:20:57.78	353.33	14.55	-27.3	-28.8	15.1	0.00e+00	0	44	102	1048576	15	4260
2026-01-25 09:20:58.78	353.23	14.45	-27.2	-28.5	15.2	0.00e+00	0	43	102	1048576	15	4186
2026-01-25 09:20:59.79	353.14	14.36	-27.2	-28.6	15.2	0.00e+00	0	44	102	1048576	15	4201
2026-01-25 09:21:00.79	353.05	14.27	-27.2	-28.4	15.2	0.00e+00	0	44	102	1048576	15	4168
2026-01-25 09:21:01.80	352.96	14.17	-27.2	-28.4	15.2	0.00e+00	0	43	102	1048576	15	4168
2026-01-25 09:21:02.80	352.87	14.08	-27.3	-28.7	15.0	0.00e+00	0	43	102	1048576	15	4243
2026-01-25 09:21:03.81	352.78	13.99	-27.3	-28.7	15.0	7.00e-07	0	44	102	1048576	15	4246
2026-01-25 09:21:04.81	352.69	13.90	-27.4	-28.9	14.9	0.00e+00	0	44	102	1048576	15	4300
2026-01-25 09:21:05.82	352.60	13.81	-27.4	-29.0	14.9	0.00e+00	0	44	102	1048576	15	4334
2026-01-25 09:21:06.82	352.52	13.71	-27.6	-29.4	14.7	7.00e-07	0	43	102	1048576	15	4436
2026-01-25 09:21:07.83	352.43	13.62	-27.6	-29.4	14.6	0.00e+00	0	43	102	1048576	15	4442
2026-01-25 09:21:08.84	352.34	13.53	-27.5	-29.2	14.7	0.00e+00	0	44	102	1048576	15	4393
2026-01-25 09:21:09.84	352.26	13.44	-27.5	-29.3	14.7	0.00e+00	0	44	102	1048576	15	4404
2026-01-25 09:21:10.85	352.17	13.35	-27.6	-29.6	14.5	0.00e+00	0	44	102	1048576	15	4490
2026-01-25 09:21:11.84	352.09	13.26	-27.6	-29.6	14.5	7.00e-07	0	43	102	1048576	15	4489
2026-01-25 09:21:12.85	352.00	13.17	-27.6	-29.6	14.5	0.00e+00	0	43	102	1048576	15	4491
2026-01-25 09:21:13.85	351.92	13.08	-27.5	-29.4	14.6	0.00e+00	0	44	102	1048576	15	4432
2026-01-25 09:21:14.86	351.83	12.99	-27.8	-29.9	14.3	7.00e-07	0	44	102	1048576	15	4594
2026-01-25 09:21:15.86	351.75	12.90	-27.6	-29.5	14.5	3.00e-06	0	43	102	1048576	15	4486
2026-01-25 09:21:16.86	351.67	12.82	-27.5	-29.1	14.7	1.50e-06	0	43	102	1048576	15	4368
2026-01-25 09:21:17.86	351.59	12.73	-27.4	-29.0	14.8	7.00e-07	0	44	102	1048576	15	4331
2026-01-25 09:21:18.86	351.51	12.64	-27.5	-29.2	14.7	0.00e+00	0	44	102	1048576	15	4379
2026-01-25 09:21:19.87	351.42	12.55	-27.5	-29.2	14.7	0.00e+00	0	44	102	1048576	15	4379
2026-01-25 09:21:20.88	351.34	12.46	-27.5	-29.3	14.7	1.50e-06	0	44	102	1048576	15	4412
2026-01-25 09:21:21.88	351.26	12.38	-27.5	-29.3	14.6	0.00e+00	0	44	102	1048576	15	4424
2026-01-25 09:21:22.88	351.18	12.29	-27.6	-29.5	14.5	7.00e-07	0	44	102	1048576	15	4474
2026-01-25 09:21:23.89	351.11	12.20	-27.6	-29.4	14.5	0.00e+00	0	44	102	1048576	15	4447
2026-01-25 09:21:24.90	351.03	12.12	-27.7	-29.7	14.4	0.00e+00	0	44	102	1048576	15	4531
2026-01-25 09:21:25.90	350.95	12.03	-27.7	-29.7	14.3	7.00e-07	0	44	102	1048576	15	4534
2026-01-25 09:21:26.91	350.87	11.94	-27.7	-29.8	14.3	0.00e+00	0	44	102	1048576	15	4563
2026-01-25 09:21:27.91	350.79	11.86	-27.8	-30.0	14.1	2.20e-06	0	44	102	1048576	15	4636
2026-01-25 09:21:28.92	350.72	11.77	-27.7	-29.8	14.3	0.00e+00	0	44	102	1048576	15	4584
2026-01-25 09:21:29.92	350.64	11.69	-27.7	-29.8	14.3	0.00e+00	0	44	102	1048576	15	4572
2026-01-25 09:21:30.93	350.57	11.60	-27.8	-30.0	14.2	7.00e-07	0	44	102	1048576	15	4629
2026-01-25 09:21:31.92	350.49	11.52	-27.8	-30.0	14.1	3.80e-06	0	44	102	1048576	15	4623
2026-01-25 09:21:32.93	350.42	11.43	-27.8	-30.1	14.1	2.20e-06	0	44	102	1048576	15	4651
2026-01-25 09:21:33.94	350.34	11.35	-28.0	-30.4	13.9	4.50e-06	0	44	102	1048576	15	4748
2026-01-25 09:21:34.94	350.27	11.26	-27.9	-30.2	14.0	4.50e-06	0	44	102	1048576	15	4705
2026-01-25 09:21:35.94	350.20	11.18	-27.8	-30.1	14.1	3.80e-06	0	44	102	1048576	15	4655
2026-01-25 09:21:36.95	350.12	11.09	-27.9	-30.2	14.0	2.20e-06	0	44	102	1048576	15	4703
2026-01-25 09:21:37.96	350.05	11.01	-28.1	-30.1	13.9	5.30e-06	0	44	102	1048576	16	4545
2026-01-25 09:21:38.96	349.98	10.93	-28.1	-30.1	13.9	3.80e-06	0	44	102	1048576	16	4559
2026-01-25 09:21:39.97	349.91	10.84	-28.3	-30.6	13.6	8.30e-06	0	44	102	1048576	16	4703
2026-01-25 09:21:40.98	349.83	10.76	-28.2	-30.3	13.7	5.30e-06	0	44	102	1048576	16	4613
2026-01-25 09:21:41.97	349.76	10.68	-28.2	-30.4	13.7	7.00e-07	0	44	102	1048576	16	4645
2026-01-25 09:21:42.98	349.69	10.60	-28.2	-30.5	13.7	6.10e-06	0	44	102	1048576	16	4657
2026-01-25 09:21:43.98	349.62	10.52	-28.3	-30.5	13.7	4.50e-06	0	44	102	1048576	16	4671
2026-01-25 09:21:44.97	349.56	10.43	-28.4	-30.8	13.5	9.90e-06	0	43	102	1048576	16	4763
2026-01-25 09:21:45.98	349.49	10.35	-28.3	-30.7	13.5	8.30e-06	0	44	102	1048576	16	4726
2026-01-25 09:21:46.99	349.42	10.27	-28.4	-31.0	13.4	1.90e-05	0	43	102	1048576	16	4831
2026-01-25 09:21:47.99	349.35	10.19	-28.4	-30.9	13.4	1.22e-05	0	44	102	1048576	16	4790
2026-01-25 09:21:48.99	349.28	10.11	-28.5	-30.7	13.2	1.44e-05	0	44	102	1048576	17	4619
2026-01-25 09:21:50.00	349.21	10.03	-28.7	-31.0	13.0	3.05e-05	0	44	102	1048576	17	4737
2026-01-25 09:21:51.00	349.15	9.95	-28.9	-31.6	12.6	8.39e-05	0	44	102	1048576	17	4941
2026-01-25 09:21:52.01	349.08	9.87	-28.8	-31.3	12.8	6.94e-05	0	44	102	1048576	17	4839
2026-01-25 09:21:53.01	349.01	9.79	-28.6	-30.9	13.1	3.20e-05	0	44	102	1048576	17	4675
2026-01-25 09:21:54.02	348.95	9.71	-28.6	-30.8	13.1	2.21e-05	0	43	102	1048576	17	4673
2026-01-25 09:21:55.03	348.88	9.63	-28.5	-30.7	13.1	3.35e-05	0	44	102	1048576	17	4631
2026-01-25 09:21:56.03	348.82	9.55	-28.6	-30.8	13.1	3.20e-05	0	43	102	1048576	17	4668
2026-01-25 09:21:57.04	348.75	9.47	-28.6	-31.0	13.0	3.50e-05	0	44	102	1048576	17	4726
2026-01-25 09:21:58.04	348.69	9.39	-28.5	-30.8	13.1	3.50e-05	0	44	102	1048576	17	4653
2026-01-25 09:21:59.05	348.62	9.31	-28.6	-30.9	13.0	3.81e-05	0	44	102	1048576	17	4706
2026-01-25 09:22:00.05	348.56	9.23	-28.6	-31.0	13.0	3.96e-05	0	44	102	1048576	17	4721
2026-01-25 09:22:01.05	348.50	9.15	-28.6	-31.0	12.9	3.81e-05	0	44	102	1048576	17	4725
2026-01-25 09:22:02.05	348.43	9.08	-28.7	-31.1	12.9	5.11e-05	0	44	102	1048576	17	4756
2026-01-25 09:22:03.05	348.37	9.00	-28.7	-31.2	12.7	5.87e-05	0	44	102	1048576	17	4789
2026-01-25 09:22:04.05	348.31	8.92	-28.7	-31.1	12.8	4.80e-05	0	44	102	1048576	17	4766
2026-01-25 09:22:05.06	348.25	8.84	-28.7	-31.2	12.8	5.03e-05	0	44	102	1048576	17	4786
2026-01-25 09:22:06.06	348.19	8.77	-28.7	-31.2	12.8	6.86e-05	0	44	102	1048576	17	4795
2026-01-25 09:22:07.07	348.12	8.69	-28.7	-31.2	12.7	8.69e-05	0	44	102	1048576	17	4802
2026-01-25 09:22:08.07	348.06	8.61	-28.8	-31.3	12.7	7.55e-05	0	44	102	1048576	17	4836
2026-01-25 09:22:09.08	348.00	8.54	-28.8	-31.4	12.6	1.09e-04	0	44	102	1048576	17	4875
2026-01-25 09:22:10.09	347.94	8.46	-28.9	-31.8	12.3	1.56e-04	0	44	102	1048576	17	4990
2026-01-25 09:22:11.09	347.88	8.38	-28.9	-31.6	12.4	1.69e-04	0	44	102	1048576	17	4945
2026-01-25 09:22:12.09	347.82	8.31	-29.0	-31.5	12.2	1.97e-04	0	44	102	1048576	18	4789
2026-01-25 09:22:13.08	347.77	8.23	-29.0	-31.3	12.3	1.72e-04	0	44	102	1048576	18	4732
2026-01-25 09:22:14.09	347.71	8.16	-28.9	-31.2	12.4	1.25e-04	0	44	102	1048576	18	4680
2026-01-25 09:22:15.10	347.65	8.08	-28.9	-31.1	12.4	1.38e-04	0	44	102	1048576	18	4666
2026-01-25 09:22:16.10	347.59	8.01	-29.0	-31.4	12.2	1.78e-04	0	44	102	1048576	18	4766
2026-01-25 09:22:17.10	347.53	7.93	-29.0	-31.4	12.2	1.72e-04	0	44	102	1048576	18	4763
2026-01-25 09:22:18.10	347.47	7.86	-29.1	-31.6	12.1	2.94e-04	0	44	102	1048576	18	4843
2026-01-25 09:22:19.10	347.42	7.78	-29.0	-31.5	12.2	2.33e-04	0	44	102	1048576	18	4794
2026-01-25 09:22:20.11	347.36	7.71	-29.0	-31.5	12.2	2.33e-04	0	44	102	1048576	18	4803
2026-01-25 09:22:21.11	347.30	7.63	-29.1	-31.7	12.0	3.40e-04	0	44	102	1048576	18	4875
2026-01-25 09:22:22.12	347.25	7.56	-29.1	-31.8	11.9	3.31e-04	0	44	102	1048576	18	4917
2026-01-25 09:22:23.13	347.19	7.48	-29.1	-31.7	12.0	3.31e-04	0	44	102	1048576	18	4851
2026-01-25 09:22:24.13	347.13	7.41	-29.1	-31.6	12.0	2.72e-04	0	43	102	1048576	18	4839
2026-01-25 09:22:25.14	347.08	7.34	-29.2	-31.9	11.9	4.23e-04	0	44	102	1048576	18	4943
2026-01-25 09:22:26.14	347.02	7.26	-29.1	-31.9	11.9	4.22e-04	0	44	102	1048576	18	4931
2026-01-25 09:22:27.15	346.97	7.19	-29.1	-31.9	11.9	4.02e-04	0	44	102	1048576	18	4928
2026-01-25 09:22:28.15	346.91	7.12	-29.5	-32.7	11.4	4.72e-04	0	44	102	1048576	18	5249
2026-01-25 09:22:29.15	346.86	7.04	-33.1	-44.4	3.8	1.49e+00	0	44	104	1048576	26	13323

#Closed at: 2026-01-25 09:22:30
#Recorded file [1 MB]: D:/data/31010_260125_121115.dat