passes_logs/2026/01/25/R2M6_AANII_01/R2M6_AANII_01__20260125_003702_AQUA_rec.log

#Pass ID: 20260125_003702_AQUA
#Satellite: AQUA
#Configuration: AQUA
#almurnet v.1.7.20240730
#Start time: 2026-01-25 00:37:03

#Version: 2.2.20231116
#Station: R2M6_AANII_01
#Location: 30.233357 lon 59.946436 lat
#TLE: 1 27424U 02022A   26024.53919639  .00001970  00000+0  40397-3 0  9996
#TLE: 2 27424  98.4098 351.1277 0001915  66.8561 358.4840 14.61855303262281

#Time	Az	El	Level	Level2	SNR	BER	BlckErr	Temp	State	Recorded	gain1	gain2
2026-01-25 00:37:03.08	31.25	7.02	-31.5	-46.8	3.8	7.44e-01	0	41	0	0	23	20937
2026-01-25 00:37:04.07	31.35	7.09	-32.2	-48.7	3.8	7.44e-01	0	41	104	0	25	24100
2026-01-25 00:37:05.06	31.45	7.16	-32.0	-48.1	3.8	7.50e-01	0	41	104	0	25	22847
2026-01-25 00:37:06.07	31.56	7.22	-31.9	-48.0	3.8	7.41e-01	0	41	104	0	24	22872
2026-01-25 00:37:07.07	31.66	7.29	-31.8	-47.6	3.8	7.44e-01	0	41	104	0	24	22041
2026-01-25 00:37:08.08	31.77	7.36	-31.7	-47.0	3.8	7.46e-01	0	41	104	0	24	20881
2026-01-25 00:37:09.09	31.88	7.43	-31.6	-46.5	3.8	7.45e-01	0	42	104	0	24	19984
2026-01-25 00:37:10.09	31.99	7.50	-31.8	-47.3	3.9	7.42e-01	0	41	104	0	24	21400
2026-01-25 00:37:11.09	32.09	7.56	-32.0	-48.2	3.8	7.44e-01	0	41	104	0	24	23238
2026-01-25 00:37:12.09	32.20	7.63	-32.2	-48.6	3.8	7.44e-01	0	41	104	0	25	23627
2026-01-25 00:37:13.10	32.31	7.70	-32.4	-49.2	3.8	7.47e-01	0	42	104	0	25	24911
2026-01-25 00:37:14.10	32.42	7.77	-32.5	-49.8	3.8	7.46e-01	0	42	104	0	25	26348
2026-01-25 00:37:15.10	32.53	7.84	-32.6	-50.0	3.8	7.48e-01	0	42	104	0	26	26500
2026-01-25 00:37:16.10	32.64	7.91	-32.6	-50.0	3.8	7.44e-01	0	42	104	0	26	26636
2026-01-25 00:37:17.10	32.75	7.98	-32.6	-49.9	3.8	7.47e-01	0	42	104	0	26	26325
2026-01-25 00:37:18.11	32.86	8.05	-32.6	-50.0	3.8	7.43e-01	0	42	104	0	26	26694
2026-01-25 00:37:19.11	32.98	8.11	-32.7	-50.2	3.8	7.46e-01	0	42	104	0	26	27069
2026-01-25 00:37:20.11	33.09	8.18	-32.7	-50.2	3.8	7.44e-01	0	42	104	0	26	27232
2026-01-25 00:37:21.11	33.20	8.25	-32.6	-50.2	3.8	7.45e-01	0	42	104	0	26	27404
2026-01-25 00:37:22.11	33.31	8.32	-32.7	-50.4	3.8	7.47e-01	0	42	104	0	26	27733
2026-01-25 00:37:23.12	33.43	8.39	-32.6	-50.0	3.8	7.46e-01	0	42	104	0	26	26710
2026-01-25 00:37:24.12	33.54	8.46	-32.5	-50.1	3.8	7.43e-01	0	42	104	0	25	27246
2026-01-25 00:37:25.12	33.66	8.53	-32.5	-49.8	3.8	7.44e-01	0	42	104	0	25	26342
2026-01-25 00:37:26.13	33.78	8.60	-32.4	-49.4	3.8	7.46e-01	0	42	104	0	25	25496
2026-01-25 00:37:27.13	33.89	8.67	-32.3	-48.9	3.8	7.44e-01	0	42	104	0	25	24333
2026-01-25 00:37:28.14	34.01	8.74	-32.3	-48.7	3.8	7.45e-01	0	42	104	0	25	23804
2026-01-25 00:37:29.14	34.13	8.81	-32.4	-49.2	3.8	7.44e-01	0	42	104	0	25	24942
2026-01-25 00:37:30.15	34.25	8.89	-32.5	-49.6	3.8	7.46e-01	0	42	104	0	25	25948
2026-01-25 00:37:31.15	34.37	8.96	-32.6	-50.1	3.8	7.46e-01	0	42	104	0	25	26968
2026-01-25 00:37:32.15	34.49	9.03	-32.7	-49.9	3.8	7.47e-01	0	42	104	0	26	26117
2026-01-25 00:37:33.16	34.61	9.10	-32.7	-49.9	3.8	7.39e-01	0	42	104	0	26	26180
2026-01-25 00:37:34.16	34.73	9.17	-32.7	-50.0	3.8	7.51e-01	0	42	104	0	26	26474
2026-01-25 00:37:35.16	34.85	9.24	-32.7	-50.1	3.8	7.45e-01	0	42	104	0	26	26607
2026-01-25 00:37:36.17	34.97	9.31	-32.8	-50.4	3.8	7.45e-01	0	42	104	0	26	27331
2026-01-25 00:37:37.17	35.10	9.38	-32.9	-50.6	3.8	7.47e-01	0	42	104	0	26	27855
2026-01-25 00:37:38.18	35.22	9.45	-32.0	-49.8	3.8	7.44e-01	0	42	104	0	26	28030
2026-01-25 00:37:39.18	35.34	9.53	-33.0	-51.1	3.8	7.46e-01	0	42	104	0	26	29050
2026-01-25 00:37:40.18	35.47	9.60	-33.0	-51.0	3.8	7.47e-01	0	42	104	0	26	28741
2026-01-25 00:37:41.19	35.59	9.67	-32.8	-50.5	3.8	7.47e-01	0	42	104	0	26	27442
2026-01-25 00:37:42.20	35.72	9.74	-32.7	-49.5	3.8	7.45e-01	0	42	104	0	26	24949
2026-01-25 00:37:43.20	35.85	9.82	-32.4	-49.0	3.8	7.48e-01	0	42	104	0	25	24092
2026-01-25 00:37:44.20	35.97	9.89	-32.2	-47.9	3.8	7.47e-01	0	42	104	0	25	21945
2026-01-25 00:37:45.21	36.10	9.96	-31.9	-38.7	5.0	7.11e-01	0	42	104	0	25	7906
2026-01-25 00:37:46.22	36.23	10.03	-31.7	-38.3	5.0	7.10e-01	0	42	104	0	24	7735
2026-01-25 00:37:47.23	36.36	10.11	-31.3	-36.7	15.0	6.02e-01	0	42	0	0	23	6664
2026-01-25 00:37:48.24	36.49	10.18	-30.9	-35.2	16.1	6.03e-01	0	42	102	1048576	23	5901
2026-01-25 00:37:49.24	36.62	10.25	-30.7	-34.9	16.6	6.02e-01	0	42	102	1048576	22	5855
2026-01-25 00:37:50.24	36.75	10.33	-30.5	-34.2	17.2	6.04e-01	0	43	102	1048576	22	5540
2026-01-25 00:37:51.25	36.89	10.40	-30.3	-33.5	17.7	6.03e-01	0	43	102	1048576	22	5251
2026-01-25 00:37:52.25	37.02	10.47	-30.0	-33.4	18.0	6.06e-01	0	42	102	1048576	21	5299
2026-01-25 00:37:53.26	37.15	10.55	-29.9	-33.1	18.3	6.02e-01	0	42	102	1048576	21	5168
2026-01-25 00:37:54.26	37.29	10.62	-30.1	-33.5	18.1	6.02e-01	0	42	102	1048576	21	5339
2026-01-25 00:37:55.27	37.42	10.69	-30.1	-33.4	17.9	6.01e-01	0	43	102	1048576	21	5317
2026-01-25 00:37:56.28	37.56	10.77	-30.0	-33.4	18.1	6.01e-01	0	43	102	1048576	21	5299
2026-01-25 00:37:57.29	37.70	10.84	-30.1	-33.5	18.0	6.04e-01	0	43	102	1048576	21	5350
2026-01-25 00:37:58.29	37.83	10.92	-30.2	-33.8	17.8	6.03e-01	0	43	102	1048576	21	5473
2026-01-25 00:37:59.30	37.97	10.99	-30.3	-34.1	17.7	6.04e-01	0	42	102	1048576	21	5576
2026-01-25 00:38:00.30	38.11	11.06	-30.1	-33.6	18.0	6.05e-01	0	43	102	1048576	21	5389
2026-01-25 00:38:01.30	38.25	11.14	-30.2	-33.9	17.8	6.05e-01	0	43	102	1048576	21	5496
2026-01-25 00:38:02.31	38.39	11.21	-30.1	-33.5	18.1	6.01e-01	0	43	102	1048576	21	5340
2026-01-25 00:38:03.31	38.53	11.29	-29.9	-33.1	18.4	6.01e-01	0	43	102	1048576	21	5184
2026-01-25 00:38:04.32	38.67	11.36	-29.8	-32.7	18.5	6.04e-01	0	43	102	1048576	21	5028
2026-01-25 00:38:05.32	38.81	11.44	-29.8	-32.6	18.7	6.02e-01	0	43	102	1048576	21	4999
2026-01-25 00:38:06.31	38.96	11.51	-29.7	-32.5	18.7	6.02e-01	0	43	102	1048576	21	4973
2026-01-25 00:38:07.31	39.10	11.59	-29.6	-32.3	18.8	6.04e-01	0	43	102	1048576	21	4877
2026-01-25 00:38:08.31	39.24	11.66	-29.6	-32.2	18.9	6.02e-01	0	43	102	1048576	21	4872
2026-01-25 00:38:09.31	39.39	11.74	-29.6	-32.3	18.9	6.06e-01	0	43	102	1048576	21	4873
2026-01-25 00:38:10.32	39.53	11.81	-29.7	-32.4	18.8	6.05e-01	0	43	102	1048576	21	4947
2026-01-25 00:38:11.32	39.68	11.89	-29.6	-32.3	18.9	6.02e-01	0	43	102	1048576	21	4878
2026-01-25 00:38:12.32	39.83	11.96	-29.6	-32.1	18.9	6.02e-01	0	43	102	1048576	21	4836
2026-01-25 00:38:13.32	39.98	12.04	-29.6	-32.2	18.9	6.04e-01	0	43	102	1048576	21	4870
2026-01-25 00:38:14.32	40.12	12.11	-29.6	-32.6	18.9	6.02e-01	0	43	102	1048576	20	5123
2026-01-25 00:38:15.33	40.28	12.19	-29.5	-32.5	19.0	6.03e-01	0	43	102	1048576	20	5078
2026-01-25 00:38:16.33	40.43	12.27	-29.6	-32.8	18.8	6.04e-01	0	43	102	1048576	20	5178
2026-01-25 00:38:17.33	40.58	12.34	-29.7	-32.9	18.7	6.01e-01	0	43	102	1048576	20	5227
2026-01-25 00:38:18.33	40.73	12.42	-29.6	-32.8	18.8	6.03e-01	0	43	102	1048576	20	5201
2026-01-25 00:38:19.33	40.88	12.49	-29.7	-33.1	18.7	6.02e-01	0	43	102	1048576	20	5321
2026-01-25 00:38:20.34	41.04	12.57	-29.8	-33.2	18.6	6.03e-01	0	43	102	1048576	20	5358
2026-01-25 00:38:21.35	41.19	12.65	-29.7	-32.9	18.8	6.03e-01	0	43	102	1048576	20	5226
2026-01-25 00:38:22.35	41.35	12.72	-29.7	-32.9	18.8	6.04e-01	0	43	102	1048576	20	5218
2026-01-25 00:38:23.35	41.50	12.80	-29.7	-33.0	18.8	6.04e-01	0	43	102	1048576	20	5256
2026-01-25 00:38:24.35	41.66	12.88	-29.6	-32.8	18.9	6.03e-01	0	43	102	1048576	20	5167
2026-01-25 00:38:25.35	41.82	12.95	-29.6	-32.8	18.9	6.05e-01	0	43	102	1048576	20	5168
2026-01-25 00:38:26.36	41.98	13.03	-29.6	-32.8	18.9	6.04e-01	0	43	102	1048576	20	5193
2026-01-25 00:38:27.36	42.14	13.11	-29.2	-32.2	19.1	6.03e-01	0	43	102	1048576	20	5061
2026-01-25 00:38:28.36	42.30	13.18	-29.1	-31.8	19.3	6.04e-01	0	43	102	1048576	20	4926
2026-01-25 00:38:29.36	42.46	13.26	-29.1	-31.8	19.4	6.04e-01	0	43	102	1048576	20	4895
2026-01-25 00:38:30.37	42.62	13.34	-28.9	-32.1	19.4	6.03e-01	0	43	102	1048576	19	5230
2026-01-25 00:38:31.37	42.79	13.41	-28.7	-31.9	19.4	6.03e-01	0	43	102	1048576	19	5237
2026-01-25 00:38:32.37	42.95	13.49	-29.0	-32.3	19.3	6.03e-01	0	43	102	1048576	19	5264
2026-01-25 00:38:33.38	43.12	13.57	-29.0	-32.8	19.4	6.03e-01	0	43	102	1048576	18	5560
2026-01-25 00:38:34.38	43.28	13.65	-29.1	-32.5	19.3	6.00e-01	0	43	102	1048576	19	5298
2026-01-25 00:38:35.38	43.45	13.72	-29.5	-33.1	19.0	6.01e-01	0	43	102	1048576	19	5481
2026-01-25 00:38:36.39	43.62	13.80	-29.6	-32.8	18.9	6.05e-01	0	43	102	1048576	20	5180
2026-01-25 00:38:37.39	43.79	13.88	-29.5	-32.3	19.2	6.02e-01	0	43	102	1048576	20	4991
2026-01-25 00:38:38.39	43.96	13.96	-29.6	-33.0	19.2	6.04e-01	0	43	102	1048576	19	5354
2026-01-25 00:38:39.39	44.13	14.03	-29.6	-32.8	19.0	6.04e-01	0	43	102	1048576	20	5172
2026-01-25 00:38:40.40	44.30	14.11	-29.6	-32.8	18.9	6.03e-01	0	43	102	1048576	20	5176
2026-01-25 00:38:41.40	44.47	14.19	-29.4	-32.3	19.2	6.02e-01	0	43	102	1048576	20	5026
2026-01-25 00:38:42.40	44.65	14.27	-29.5	-32.8	19.3	6.01e-01	0	43	102	1048576	19	5303
2026-01-25 00:38:43.41	44.82	14.35	-29.6	-33.0	19.2	6.05e-01	0	43	102	1048576	19	5346
2026-01-25 00:38:44.41	45.00	14.42	-29.6	-33.0	19.3	6.03e-01	0	43	102	1048576	19	5347
2026-01-25 00:38:45.42	45.17	14.50	-29.6	-32.5	19.2	6.04e-01	0	43	102	1048576	20	5058
2026-01-25 00:38:46.43	45.35	14.58	-29.6	-32.6	19.1	6.04e-01	0	43	102	1048576	20	5080
2026-01-25 00:38:47.43	45.53	14.66	-30.0	-33.4	19.1	6.02e-01	0	43	102	1048576	20	5343
2026-01-25 00:38:48.44	45.71	14.74	-30.0	-32.9	18.9	6.02e-01	0	43	102	1048576	21	5041
2026-01-25 00:38:49.45	45.89	14.82	-29.7	-32.3	19.3	6.01e-01	0	43	102	1048576	21	4822
2026-01-25 00:38:50.44	46.07	14.89	-29.6	-31.9	19.5	6.02e-01	0	43	102	1048576	21	4692
2026-01-25 00:38:51.45	46.26	14.97	-29.5	-31.6	19.7	6.03e-01	0	43	102	1048576	21	4610
2026-01-25 00:38:52.45	46.44	15.05	-29.5	-31.7	19.7	6.05e-01	0	43	102	1048576	21	4638
2026-01-25 00:38:53.46	46.62	15.13	-29.3	-32.0	19.6	6.04e-01	0	43	102	1048576	20	4906
2026-01-25 00:38:54.46	46.81	15.21	-29.6	-32.4	19.5	6.03e-01	0	43	102	1048576	20	4978
2026-01-25 00:38:55.46	46.99	15.28	-29.6	-32.4	19.4	6.04e-01	0	43	102	1048576	20	4985
2026-01-25 00:38:56.47	47.18	15.36	-29.5	-32.7	19.4	6.03e-01	0	43	102	1048576	19	5176
2026-01-25 00:38:57.48	47.37	15.44	-29.5	-32.6	19.8	6.03e-01	0	43	102	1048576	19	5164
2026-01-25 00:38:58.48	47.56	15.52	-29.5	-32.7	19.8	6.04e-01	0	43	102	1048576	19	5181
2026-01-25 00:38:59.49	47.75	15.60	-29.5	-32.7	19.8	6.04e-01	0	43	102	1048576	19	5178
2026-01-25 00:39:00.49	47.95	15.68	-29.5	-32.0	19.8	6.06e-01	0	43	102	1048576	20	4850
2026-01-25 00:39:01.50	48.14	15.76	-29.4	-31.8	19.9	6.02e-01	0	43	102	1048576	20	4759
2026-01-25 00:39:02.50	48.33	15.83	-29.4	-31.9	19.9	6.03e-01	0	43	102	1048576	20	4800
2026-01-25 00:39:03.50	48.53	15.91	-29.5	-32.0	19.8	6.03e-01	0	43	102	1048576	20	4831
2026-01-25 00:39:04.51	48.72	15.99	-29.4	-32.0	19.9	6.02e-01	0	43	102	1048576	20	4809
2026-01-25 00:39:05.52	48.92	16.07	-29.5	-32.0	19.8	6.05e-01	0	43	102	1048576	20	4830
2026-01-25 00:39:06.52	49.12	16.15	-29.5	-32.1	19.8	6.04e-01	0	43	102	1048576	20	4867
2026-01-25 00:39:07.53	49.32	16.23	-29.5	-32.1	19.8	6.04e-01	0	43	102	1048576	20	4859
2026-01-25 00:39:08.54	49.52	16.30	-29.4	-31.8	20.0	6.05e-01	0	43	102	1048576	20	4753
2026-01-25 00:39:09.54	49.72	16.38	-29.4	-31.8	19.9	6.03e-01	0	43	102	1048576	20	4761
2026-01-25 00:39:10.55	49.93	16.46	-29.5	-32.5	19.9	6.02e-01	0	43	102	1048576	19	5101
2026-01-25 00:39:11.55	50.13	16.54	-29.4	-32.4	19.8	6.02e-01	0	43	102	1048576	19	5078
2026-01-25 00:39:12.56	50.33	16.62	-29.4	-32.4	19.9	6.01e-01	0	43	102	1048576	19	5068
2026-01-25 00:39:13.56	50.54	16.69	-29.6	-32.8	19.7	6.02e-01	0	43	102	1048576	19	5226
2026-01-25 00:39:14.57	50.75	16.77	-29.8	-33.0	19.2	6.04e-01	0	43	102	1048576	20	5169
2026-01-25 00:39:15.56	50.95	16.85	-29.9	-33.1	19.1	6.01e-01	0	43	102	1048576	20	5218
2026-01-25 00:39:16.56	51.16	16.93	-29.6	-32.5	19.5	6.01e-01	0	43	102	1048576	20	5001
2026-01-25 00:39:17.57	51.37	17.01	-29.5	-32.5	19.9	6.05e-01	0	43	102	1048576	19	5112
2026-01-25 00:39:18.58	51.58	17.08	-29.5	-32.5	20.0	6.02e-01	0	43	102	1048576	19	5091
2026-01-25 00:39:19.58	51.80	17.16	-29.5	-32.6	19.9	6.03e-01	0	43	102	1048576	19	5126
2026-01-25 00:39:20.58	52.01	17.24	-29.5	-32.6	19.8	6.04e-01	0	43	102	1048576	19	5159
2026-01-25 00:39:21.58	52.22	17.31	-29.5	-32.7	19.7	6.04e-01	0	43	102	1048576	19	5191
2026-01-25 00:39:22.58	52.44	17.39	-29.5	-32.6	19.8	6.05e-01	0	43	102	1048576	19	5142
2026-01-25 00:39:23.59	52.66	17.47	-29.5	-32.2	19.7	6.04e-01	0	43	102	1048576	20	4905
2026-01-25 00:39:24.59	52.87	17.55	-29.7	-32.8	19.4	6.03e-01	0	43	102	1048576	20	5094
2026-01-25 00:39:25.60	53.10	17.62	-29.8	-32.8	19.3	6.04e-01	0	43	102	1048576	20	5112
2026-01-25 00:39:26.60	53.31	17.70	-29.8	-32.9	19.3	6.01e-01	0	43	102	1048576	20	5133
2026-01-25 00:39:27.60	53.54	17.78	-29.7	-32.7	19.4	6.02e-01	0	43	102	1048576	20	5086
2026-01-25 00:39:28.61	53.76	17.85	-29.5	-32.2	19.7	6.02e-01	0	43	102	1048576	20	4882
2026-01-25 00:39:29.61	53.98	17.93	-29.5	-32.6	19.9	6.05e-01	0	43	102	1048576	19	5122
2026-01-25 00:39:30.62	54.21	18.01	-29.6	-32.7	19.9	6.01e-01	0	43	102	1048576	19	5172
2026-01-25 00:39:31.63	54.44	18.08	-29.5	-32.6	19.9	6.06e-01	0	43	102	1048576	19	5144
2026-01-25 00:39:32.64	54.67	18.16	-29.4	-32.4	20.0	6.04e-01	0	43	102	1048576	19	5066
2026-01-25 00:39:33.64	54.89	18.23	-29.4	-32.2	20.1	6.02e-01	0	43	102	1048576	19	5008
2026-01-25 00:39:34.65	55.13	18.31	-29.4	-32.3	20.1	6.05e-01	0	43	102	1048576	19	5027
2026-01-25 00:39:35.66	55.36	18.39	-29.4	-32.4	20.0	6.02e-01	0	43	102	1048576	19	5075
2026-01-25 00:39:36.66	55.59	18.46	-29.4	-32.3	20.0	6.04e-01	0	43	102	1048576	19	5048
2026-01-25 00:39:37.67	55.83	18.54	-29.3	-32.2	20.1	6.05e-01	0	43	102	1048576	19	4982
2026-01-25 00:39:38.68	56.06	18.61	-29.4	-32.3	20.1	6.02e-01	0	43	102	1048576	19	5020
2026-01-25 00:39:39.68	56.30	18.69	-29.4	-32.3	20.1	6.03e-01	0	43	102	1048576	19	5031
2026-01-25 00:39:40.68	56.53	18.76	-29.4	-32.3	20.1	6.05e-01	0	43	102	1048576	19	5018
2026-01-25 00:39:41.69	56.77	18.84	-29.5	-32.5	20.0	6.06e-01	0	43	102	1048576	19	5089
2026-01-25 00:39:42.70	57.01	18.91	-29.5	-32.5	19.9	6.02e-01	0	43	102	1048576	19	5109
2026-01-25 00:39:43.70	57.25	18.98	-29.5	-32.7	19.8	6.04e-01	0	43	102	1048576	19	5181
2026-01-25 00:39:44.70	57.49	19.06	-29.5	-32.0	19.9	6.04e-01	0	43	102	1048576	20	4831
2026-01-25 00:39:45.70	57.74	19.13	-29.4	-31.8	20.0	6.03e-01	0	43	102	1048576	20	4770
2026-01-25 00:39:46.71	57.98	19.20	-29.4	-32.4	20.0	6.03e-01	0	44	102	1048576	19	5064
2026-01-25 00:39:47.71	58.23	19.28	-29.4	-32.3	20.1	6.03e-01	0	43	102	1048576	19	5015
2026-01-25 00:39:48.71	58.47	19.35	-29.4	-32.3	20.1	6.02e-01	0	43	102	1048576	19	5017
2026-01-25 00:39:49.72	58.72	19.42	-29.5	-32.5	20.0	6.05e-01	0	43	102	1048576	19	5102
2026-01-25 00:39:50.72	58.97	19.49	-29.6	-32.7	19.8	6.03e-01	0	43	102	1048576	19	5179
2026-01-25 00:39:51.72	59.22	19.56	-29.6	-32.7	19.9	6.01e-01	0	43	102	1048576	19	5180
2026-01-25 00:39:52.72	59.47	19.63	-29.5	-32.2	19.8	6.01e-01	0	43	102	1048576	20	4886
2026-01-25 00:39:53.73	59.73	19.71	-29.9	-33.1	19.3	6.04e-01	0	43	102	1048576	20	5208
2026-01-25 00:39:54.73	59.98	19.78	-29.7	-32.7	19.5	6.03e-01	0	43	102	1048576	20	5072
2026-01-25 00:39:55.74	60.24	19.85	-29.6	-32.4	19.6	6.03e-01	0	43	102	1048576	20	4971
2026-01-25 00:39:56.75	60.50	19.92	-29.7	-32.7	19.5	6.04e-01	0	43	102	1048576	20	5073
2026-01-25 00:39:57.75	60.75	19.99	-29.8	-32.7	19.4	6.01e-01	0	44	102	1048576	20	5079
2026-01-25 00:39:58.75	61.01	20.06	-29.9	-33.0	19.3	6.03e-01	0	43	102	1048576	20	5178
2026-01-25 00:39:59.75	61.27	20.13	-29.8	-32.8	19.3	6.01e-01	0	43	102	1048576	20	5117
2026-01-25 00:40:00.76	61.53	20.20	-29.7	-32.6	19.5	6.05e-01	0	43	102	1048576	20	5028
2026-01-25 00:40:01.76	61.79	20.26	-29.7	-32.6	19.6	6.04e-01	0	43	102	1048576	20	5028
2026-01-25 00:40:02.75	62.05	20.33	-29.6	-32.4	19.6	6.00e-01	0	43	102	1048576	20	4971
2026-01-25 00:40:03.76	62.32	20.40	-29.5	-32.1	19.8	6.03e-01	0	44	102	1048576	20	4857
2026-01-25 00:40:04.76	62.59	20.47	-29.4	-31.9	19.9	6.05e-01	0	44	102	1048576	20	4800
2026-01-25 00:40:05.76	62.85	20.53	-29.5	-32.6	20.0	6.03e-01	0	43	102	1048576	19	5120
2026-01-25 00:40:06.77	63.12	20.60	-29.5	-32.4	20.0	6.03e-01	0	43	102	1048576	19	5072
2026-01-25 00:40:07.77	63.39	20.67	-29.6	-32.7	19.8	6.04e-01	0	43	102	1048576	19	5169
2026-01-25 00:40:08.77	63.66	20.73	-29.5	-32.6	19.9	6.02e-01	0	43	102	1048576	19	5155
2026-01-25 00:40:09.77	63.93	20.80	-29.4	-32.4	20.0	6.04e-01	0	43	102	1048576	19	5054
2026-01-25 00:40:10.78	64.21	20.86	-29.5	-32.6	19.9	6.03e-01	0	43	102	1048576	19	5118
2026-01-25 00:40:11.78	64.48	20.93	-29.5	-32.6	19.8	6.04e-01	0	43	102	1048576	19	5153
2026-01-25 00:40:12.79	64.76	20.99	-29.5	-32.2	19.7	6.05e-01	0	43	102	1048576	20	4908
2026-01-25 00:40:13.80	65.04	21.05	-29.6	-32.3	19.6	6.02e-01	0	43	102	1048576	20	4910
2026-01-25 00:40:14.80	65.32	21.12	-29.5	-32.1	19.7	6.02e-01	0	43	102	1048576	20	4861
2026-01-25 00:40:15.81	65.60	21.18	-29.5	-32.2	19.7	6.04e-01	0	43	102	1048576	20	4887
2026-01-25 00:40:16.81	65.88	21.24	-29.5	-32.1	19.6	6.04e-01	0	44	102	1048576	20	4876
2026-01-25 00:40:17.81	66.16	21.30	-29.4	-31.9	19.8	6.04e-01	0	44	102	1048576	20	4779
2026-01-25 00:40:18.82	66.44	21.36	-29.4	-32.4	19.4	6.05e-01	0	43	102	1048576	19	5069
2026-01-25 00:40:19.82	66.73	21.42	-29.5	-32.7	19.4	6.04e-01	0	43	102	1048576	19	5196
2026-01-25 00:40:20.82	67.01	21.48	-29.5	-32.7	19.7	6.03e-01	0	43	102	1048576	19	5166
2026-01-25 00:40:21.83	67.30	21.54	-29.6	-32.4	19.3	6.05e-01	0	43	102	1048576	20	4972
2026-01-25 00:40:22.83	67.59	21.60	-29.7	-32.6	18.8	6.05e-01	0	43	102	1048576	20	5037
2026-01-25 00:40:23.83	67.87	21.66	-29.5	-32.2	19.7	6.04e-01	0	43	102	1048576	20	4879
2026-01-25 00:40:24.83	68.16	21.72	-29.5	-32.2	19.4	6.03e-01	0	43	102	1048576	20	4904
2026-01-25 00:40:25.84	68.46	21.78	-29.8	-32.8	19.3	6.02e-01	0	44	102	1048576	20	5118
2026-01-25 00:40:26.84	68.75	21.83	-29.7	-32.6	19.6	6.05e-01	0	43	102	1048576	20	5011
2026-01-25 00:40:27.85	69.04	21.89	-29.5	-32.0	19.9	6.03e-01	0	44	102	1048576	20	4825
2026-01-25 00:40:28.86	69.34	21.94	-29.6	-32.3	19.7	6.02e-01	0	44	102	1048576	20	4939
2026-01-25 00:40:29.86	69.63	22.00	-29.6	-32.4	19.6	6.03e-01	0	44	102	1048576	20	4966
2026-01-25 00:40:30.87	69.93	22.05	-29.6	-32.2	19.8	6.06e-01	0	44	102	1048576	20	4906
2026-01-25 00:40:31.87	70.23	22.11	-29.8	-33.0	19.3	6.02e-01	0	44	102	1048576	20	5165
2026-01-25 00:40:32.87	70.52	22.16	-29.8	-32.8	19.5	6.02e-01	0	43	102	1048576	20	5098
2026-01-25 00:40:33.87	70.82	22.21	-29.5	-32.2	19.8	6.06e-01	0	43	102	1048576	20	4898
2026-01-25 00:40:34.87	71.12	22.26	-29.5	-32.7	19.9	6.03e-01	0	44	102	1048576	19	5152
2026-01-25 00:40:35.88	71.43	22.31	-29.7	-32.5	19.7	6.05e-01	0	43	102	1048576	20	4987
2026-01-25 00:40:36.89	71.73	22.36	-29.7	-32.7	19.5	6.04e-01	0	44	102	1048576	20	5065
2026-01-25 00:40:37.89	72.03	22.41	-29.5	-32.2	19.8	6.02e-01	0	44	102	1048576	20	4878
2026-01-25 00:40:38.90	72.34	22.46	-29.7	-32.5	19.6	6.05e-01	0	44	102	1048576	20	4979
2026-01-25 00:40:39.91	72.65	22.51	-29.6	-32.4	19.7	6.00e-01	0	44	102	1048576	20	4954
2026-01-25 00:40:40.92	72.96	22.56	-29.6	-32.5	19.7	6.04e-01	0	44	102	1048576	20	4981
2026-01-25 00:40:41.92	73.26	22.61	-29.8	-32.8	19.5	6.03e-01	0	43	102	1048576	20	5111
2026-01-25 00:40:42.93	73.57	22.65	-29.7	-32.6	19.6	6.04e-01	0	43	102	1048576	20	5040
2026-01-25 00:40:43.93	73.88	22.70	-29.8	-32.9	19.4	6.03e-01	0	44	102	1048576	20	5148
2026-01-25 00:40:44.93	74.19	22.74	-30.0	-33.3	19.2	6.05e-01	0	43	102	1048576	20	5274
2026-01-25 00:40:45.94	74.50	22.79	-29.9	-33.2	19.2	6.03e-01	0	43	102	1048576	20	5233
2026-01-25 00:40:46.94	74.82	22.83	-29.9	-33.2	19.2	6.03e-01	0	44	102	1048576	20	5254
2026-01-25 00:40:47.95	75.13	22.87	-30.2	-33.3	18.9	6.04e-01	0	44	102	1048576	21	5154
2026-01-25 00:40:48.96	75.45	22.91	-30.1	-33.2	19.0	6.03e-01	0	43	102	1048576	21	5131
2026-01-25 00:40:49.96	75.76	22.96	-30.1	-33.1	19.0	6.04e-01	0	43	102	1048576	21	5109
2026-01-25 00:40:50.97	76.08	23.00	-30.3	-33.8	18.7	6.04e-01	0	44	102	1048576	21	5339
2026-01-25 00:40:51.97	76.39	23.03	-30.1	-33.2	19.0	6.03e-01	0	44	102	1048576	21	5112
2026-01-25 00:40:52.97	76.71	23.07	-30.0	-33.3	19.2	6.03e-01	0	43	102	1048576	20	5278
2026-01-25 00:40:53.97	77.03	23.11	-30.2	-33.3	18.9	6.04e-01	0	44	102	1048576	21	5166
2026-01-25 00:40:54.98	77.35	23.15	-30.4	-33.8	18.5	6.03e-01	0	43	102	1048576	21	5368
2026-01-25 00:40:55.98	77.67	23.18	-30.2	-33.4	18.8	6.04e-01	0	44	102	1048576	21	5213
2026-01-25 00:40:56.98	77.99	23.22	-30.3	-33.8	18.6	6.02e-01	0	44	102	1048576	21	5347
2026-01-25 00:40:57.99	78.31	23.25	-30.0	-33.0	19.1	6.03e-01	0	44	102	1048576	21	5038
2026-01-25 00:40:58.99	78.63	23.29	-30.0	-32.9	19.2	6.03e-01	0	44	102	1048576	21	5010
2026-01-25 00:41:00.00	78.96	23.32	-30.1	-33.2	19.0	6.03e-01	0	44	102	1048576	21	5141
2026-01-25 00:41:01.01	79.28	23.35	-30.1	-33.6	19.0	6.05e-01	0	44	102	1048576	20	5386
2026-01-25 00:41:02.02	79.61	23.38	-30.2	-33.3	18.9	6.05e-01	0	44	102	1048576	21	5177
2026-01-25 00:41:03.02	79.93	23.41	-30.3	-33.7	18.6	6.04e-01	0	44	102	1048576	21	5304
2026-01-25 00:41:04.03	80.26	23.44	-30.1	-33.0	19.1	6.03e-01	0	43	102	1048576	21	5053
2026-01-25 00:41:05.03	80.58	23.47	-30.0	-32.8	19.2	6.03e-01	0	44	102	1048576	21	4974
2026-01-25 00:41:06.04	80.91	23.50	-29.9	-32.5	19.4	6.02e-01	0	44	102	1048576	21	4882
2026-01-25 00:41:07.04	81.24	23.52	-29.8	-32.9	19.5	6.02e-01	0	43	102	1048576	20	5113
2026-01-25 00:41:08.05	81.57	23.55	-29.9	-33.1	19.3	6.02e-01	0	44	102	1048576	20	5212
2026-01-25 00:41:09.06	81.90	23.58	-29.8	-32.9	19.4	6.02e-01	0	44	102	1048576	20	5137
2026-01-25 00:41:10.06	82.23	23.60	-29.8	-32.8	19.5	6.06e-01	0	44	102	1048576	20	5102
2026-01-25 00:41:11.06	82.56	23.62	-29.6	-32.4	19.7	6.05e-01	0	44	102	1048576	20	4969
2026-01-25 00:41:12.06	82.88	23.64	-29.7	-32.5	19.7	6.07e-01	0	44	102	1048576	20	4981
2026-01-25 00:41:13.07	83.22	23.66	-29.7	-32.7	19.6	6.03e-01	0	44	102	1048576	20	5049
2026-01-25 00:41:14.06	83.54	23.68	-29.9	-33.0	19.4	6.02e-01	0	44	102	1048576	20	5171
2026-01-25 00:41:15.07	83.88	23.70	-29.6	-32.4	19.8	6.04e-01	0	44	102	1048576	20	4938
2026-01-25 00:41:16.07	84.21	23.72	-29.5	-32.0	20.0	6.03e-01	0	44	102	1048576	20	4822
2026-01-25 00:41:17.07	84.54	23.74	-29.6	-32.4	19.7	6.04e-01	0	43	102	1048576	20	4968
2026-01-25 00:41:18.08	84.87	23.76	-29.7	-32.6	19.6	6.04e-01	0	44	102	1048576	20	5040
2026-01-25 00:41:19.08	85.21	23.77	-29.7	-32.7	19.6	6.05e-01	0	43	102	1048576	20	5051
2026-01-25 00:41:20.08	85.54	23.79	-29.6	-32.3	19.9	6.05e-01	0	44	102	1048576	20	4909
2026-01-25 00:41:21.09	85.87	23.80	-29.7	-32.7	19.6	6.04e-01	0	44	102	1048576	20	5042
2026-01-25 00:41:22.10	86.21	23.81	-29.7	-32.5	19.7	6.04e-01	0	43	102	1048576	20	4987
2026-01-25 00:41:23.09	86.54	23.82	-29.7	-32.6	19.7	6.05e-01	0	44	102	1048576	20	5018
2026-01-25 00:41:24.09	86.87	23.83	-30.1	-33.5	19.1	6.03e-01	0	44	102	1048576	20	5373
2026-01-25 00:41:25.09	87.21	23.84	-30.1	-33.2	19.0	6.03e-01	0	43	102	1048576	21	5122
2026-01-25 00:41:26.10	87.54	23.85	-30.0	-32.8	19.1	6.04e-01	0	44	102	1048576	21	4996
2026-01-25 00:41:27.10	87.88	23.86	-29.9	-32.6	19.3	6.04e-01	0	43	102	1048576	21	4921
2026-01-25 00:41:28.10	88.21	23.87	-30.0	-33.0	19.1	6.03e-01	0	44	102	1048576	21	5047
2026-01-25 00:41:29.11	88.55	23.87	-30.0	-33.5	19.1	6.03e-01	0	44	102	1048576	20	5351
2026-01-25 00:41:30.11	88.88	23.88	-30.2	-33.3	18.9	6.03e-01	0	44	102	1048576	21	5175
2026-01-25 00:41:31.12	89.22	23.88	-30.2	-33.5	18.7	6.04e-01	0	44	102	1048576	21	5264
2026-01-25 00:41:32.12	89.55	23.88	-30.0	-33.0	19.1	6.02e-01	0	44	102	1048576	21	5068
2026-01-25 00:41:33.13	89.89	23.89	-30.3	-33.7	18.6	6.05e-01	0	44	102	1048576	21	5340
2026-01-25 00:41:34.14	90.23	23.89	-30.1	-33.0	19.0	6.03e-01	0	44	102	1048576	21	5077
2026-01-25 00:41:35.14	90.56	23.89	-29.8	-33.0	19.4	6.01e-01	0	44	102	1048576	20	5156
2026-01-25 00:41:36.14	90.90	23.89	-29.7	-32.7	19.6	6.05e-01	0	44	102	1048576	20	5076
2026-01-25 00:41:37.15	91.24	23.88	-29.7	-32.5	19.7	6.01e-01	0	44	102	1048576	20	4985
2026-01-25 00:41:38.16	91.57	23.88	-29.8	-32.9	19.5	6.06e-01	0	44	102	1048576	20	5143
2026-01-25 00:41:39.16	91.91	23.88	-29.7	-32.6	19.7	6.04e-01	0	44	102	1048576	20	5034
2026-01-25 00:41:40.17	92.25	23.87	-29.8	-32.9	19.5	6.03e-01	0	44	102	1048576	20	5143
2026-01-25 00:41:41.17	92.58	23.87	-30.1	-33.2	18.9	6.05e-01	0	44	102	1048576	21	5152
2026-01-25 00:41:42.18	92.92	23.86	-29.8	-32.4	19.5	6.03e-01	0	43	102	1048576	21	4843
2026-01-25 00:41:43.18	93.25	23.85	-29.6	-31.9	19.8	6.01e-01	0	44	102	1048576	21	4677
2026-01-25 00:41:44.19	93.59	23.84	-29.6	-31.9	19.8	6.04e-01	0	44	102	1048576	21	4665
2026-01-25 00:41:45.19	93.92	23.83	-29.6	-31.9	19.8	6.01e-01	0	44	102	1048576	21	4657
2026-01-25 00:41:46.20	94.26	23.82	-29.6	-31.8	19.9	6.02e-01	0	44	102	1048576	21	4629
2026-01-25 00:41:47.20	94.59	23.81	-29.7	-32.0	19.7	6.03e-01	0	44	102	1048576	21	4705
2026-01-25 00:41:48.21	94.93	23.80	-29.6	-31.9	19.8	6.02e-01	0	43	102	1048576	21	4682
2026-01-25 00:41:49.21	95.26	23.78	-29.6	-31.8	19.8	6.07e-01	0	44	102	1048576	21	4657
2026-01-25 00:41:50.22	95.60	23.77	-29.8	-32.3	19.5	6.02e-01	0	43	102	1048576	21	4800
2026-01-25 00:41:51.22	95.93	23.75	-29.7	-32.0	19.7	6.03e-01	0	44	102	1048576	21	4720
2026-01-25 00:41:52.22	96.26	23.74	-29.6	-31.9	19.8	6.04e-01	0	44	102	1048576	21	4660
2026-01-25 00:41:53.23	96.59	23.72	-29.7	-32.0	19.7	6.03e-01	0	44	102	1048576	21	4719
2026-01-25 00:41:54.24	96.93	23.70	-29.7	-32.1	19.7	6.04e-01	0	44	102	1048576	21	4725
2026-01-25 00:41:55.24	97.26	23.68	-29.7	-32.0	19.7	6.02e-01	0	44	102	1048576	21	4707
2026-01-25 00:41:56.24	97.59	23.66	-29.6	-31.8	19.7	6.01e-01	0	44	102	1048576	21	4649
2026-01-25 00:41:57.25	97.92	23.64	-29.6	-31.8	19.8	6.02e-01	0	44	102	1048576	21	4632
2026-01-25 00:41:58.26	98.25	23.62	-29.7	-32.1	19.6	6.03e-01	0	44	102	1048576	21	4750
2026-01-25 00:41:59.26	98.58	23.59	-29.6	-31.9	19.7	6.03e-01	0	44	102	1048576	21	4686
2026-01-25 00:42:00.27	98.91	23.57	-29.6	-31.8	19.8	6.04e-01	0	44	102	1048576	21	4647
2026-01-25 00:42:01.27	99.24	23.54	-29.6	-31.9	19.7	6.02e-01	0	44	102	1048576	21	4688
2026-01-25 00:42:02.27	99.57	23.52	-29.6	-31.7	19.9	6.03e-01	0	44	102	1048576	21	4608
2026-01-25 00:42:03.27	99.90	23.49	-29.6	-31.7	19.8	6.03e-01	0	44	102	1048576	21	4620
2026-01-25 00:42:04.28	100.23	23.46	-29.7	-32.1	19.6	6.05e-01	0	44	102	1048576	21	4752
2026-01-25 00:42:05.29	100.55	23.43	-29.7	-32.2	19.5	6.00e-01	0	43	102	1048576	21	4774
2026-01-25 00:42:06.30	100.88	23.40	-29.7	-32.2	19.5	6.05e-01	0	44	102	1048576	21	4796
2026-01-25 00:42:07.30	101.21	23.37	-29.6	-31.9	19.7	6.01e-01	0	44	102	1048576	21	4688
2026-01-25 00:42:08.30	101.53	23.34	-29.6	-31.8	19.8	6.03e-01	0	44	102	1048576	21	4631
2026-01-25 00:42:09.31	101.86	23.31	-29.6	-31.8	19.8	6.04e-01	0	44	102	1048576	21	4639
2026-01-25 00:42:10.31	102.18	23.28	-29.5	-32.2	19.8	6.04e-01	0	43	102	1048576	20	4890
2026-01-25 00:42:11.32	102.50	23.24	-29.6	-32.2	19.8	6.02e-01	0	44	102	1048576	20	4895
2026-01-25 00:42:12.32	102.82	23.21	-29.6	-32.5	19.7	6.04e-01	0	44	102	1048576	20	4979
2026-01-25 00:42:13.33	103.15	23.17	-29.7	-32.5	19.6	6.03e-01	0	44	102	1048576	20	4999
2026-01-25 00:42:14.34	103.47	23.14	-29.6	-32.3	19.8	6.05e-01	0	44	102	1048576	20	4928
2026-01-25 00:42:15.34	103.79	23.10	-29.6	-32.3	19.8	6.03e-01	0	44	102	1048576	20	4908
2026-01-25 00:42:16.34	104.10	23.06	-29.6	-32.4	19.7	6.03e-01	0	43	102	1048576	20	4958
2026-01-25 00:42:17.34	104.42	23.02	-29.6	-32.4	19.7	6.02e-01	0	44	102	1048576	20	4966
2026-01-25 00:42:18.34	104.74	22.98	-29.6	-32.2	19.8	6.05e-01	0	44	102	1048576	20	4906
2026-01-25 00:42:19.35	105.06	22.94	-29.6	-32.7	19.9	6.00e-01	0	44	102	1048576	19	5177
2026-01-25 00:42:20.35	105.37	22.90	-29.6	-32.4	19.7	6.04e-01	0	44	102	1048576	20	4977
2026-01-25 00:42:21.36	105.69	22.86	-29.7	-32.6	19.5	6.02e-01	0	44	102	1048576	20	5028
2026-01-25 00:42:22.35	106.00	22.82	-29.6	-32.4	19.7	6.05e-01	0	44	102	1048576	20	4965
2026-01-25 00:42:23.35	106.31	22.77	-29.5	-32.0	19.9	6.02e-01	0	44	102	1048576	20	4822
2026-01-25 00:42:24.35	106.62	22.73	-29.4	-32.0	19.9	6.03e-01	0	44	102	1048576	20	4809
2026-01-25 00:42:25.35	106.93	22.68	-29.5	-32.1	19.9	6.05e-01	0	44	102	1048576	20	4874
2026-01-25 00:42:26.36	107.24	22.64	-29.5	-32.2	19.8	6.04e-01	0	44	102	1048576	20	4881
2026-01-25 00:42:27.36	107.55	22.59	-29.5	-32.2	19.8	6.04e-01	0	44	102	1048576	20	4911
2026-01-25 00:42:28.36	107.86	22.55	-29.6	-32.3	19.8	6.01e-01	0	44	102	1048576	20	4930
2026-01-25 00:42:29.37	108.17	22.50	-29.6	-32.5	19.6	6.03e-01	0	44	102	1048576	20	4992
2026-01-25 00:42:30.37	108.47	22.45	-29.5	-32.2	19.7	6.05e-01	0	43	102	1048576	20	4902
2026-01-25 00:42:31.37	108.78	22.40	-29.5	-32.1	19.8	6.01e-01	0	44	102	1048576	20	4870
2026-01-25 00:42:32.37	109.08	22.35	-29.5	-32.1	19.8	6.04e-01	0	44	102	1048576	20	4874
2026-01-25 00:42:33.37	109.38	22.30	-29.5	-32.7	19.8	6.03e-01	0	44	102	1048576	19	5208
2026-01-25 00:42:34.38	109.69	22.25	-29.6	-32.8	19.8	6.04e-01	0	44	102	1048576	19	5230
2026-01-25 00:42:35.38	109.99	22.20	-29.5	-32.7	19.8	6.04e-01	0	43	102	1048576	19	5183
2026-01-25 00:42:36.38	110.29	22.14	-29.4	-32.5	19.9	6.03e-01	0	43	102	1048576	19	5130
2026-01-25 00:42:37.39	110.59	22.09	-29.5	-32.7	19.7	6.02e-01	0	44	102	1048576	19	5229
2026-01-25 00:42:38.39	110.88	22.04	-29.5	-32.8	19.6	6.02e-01	0	44	102	1048576	19	5259
2026-01-25 00:42:39.39	111.18	21.98	-29.5	-32.7	19.7	6.04e-01	0	44	102	1048576	19	5226
2026-01-25 00:42:40.40	111.48	21.93	-29.4	-32.5	19.9	6.03e-01	0	44	102	1048576	19	5129
2026-01-25 00:42:41.40	111.77	21.87	-29.4	-32.5	19.9	6.05e-01	0	44	102	1048576	19	5142
2026-01-25 00:42:42.40	112.06	21.81	-29.5	-32.7	19.8	6.02e-01	0	44	102	1048576	19	5230
2026-01-25 00:42:43.39	112.35	21.76	-29.5	-32.8	19.7	6.06e-01	0	44	102	1048576	19	5267
2026-01-25 00:42:44.40	112.65	21.70	-29.5	-32.8	19.7	6.06e-01	0	44	102	1048576	19	5258
2026-01-25 00:42:45.40	112.94	21.64	-29.6	-32.9	19.6	6.03e-01	0	44	102	1048576	19	5285
2026-01-25 00:42:46.40	113.22	21.58	-29.7	-32.7	19.3	6.02e-01	0	44	102	1048576	20	5111
2026-01-25 00:42:47.40	113.51	21.52	-29.6	-32.7	19.3	6.01e-01	0	44	102	1048576	20	5117
2026-01-25 00:42:48.40	113.80	21.46	-29.4	-32.1	19.7	6.04e-01	0	44	102	1048576	20	4896
2026-01-25 00:42:49.41	114.09	21.40	-29.4	-31.9	19.8	6.04e-01	0	44	102	1048576	20	4851
2026-01-25 00:42:50.41	114.37	21.34	-29.4	-32.0	19.7	6.02e-01	0	44	102	1048576	20	4878
2026-01-25 00:42:51.42	114.66	21.28	-29.5	-32.2	19.6	6.03e-01	0	43	102	1048576	20	4923
2026-01-25 00:42:52.42	114.94	21.22	-29.6	-32.9	19.6	6.07e-01	0	44	102	1048576	19	5292
2026-01-25 00:42:53.43	115.22	21.16	-29.6	-32.7	19.3	6.01e-01	0	44	102	1048576	20	5116
2026-01-25 00:42:54.43	115.50	21.09	-29.7	-32.8	19.1	6.02e-01	0	44	102	1048576	20	5178
2026-01-25 00:42:55.43	115.78	21.03	-29.6	-32.5	19.3	6.04e-01	0	44	102	1048576	20	5065
2026-01-25 00:42:56.44	116.06	20.97	-29.6	-32.5	19.3	6.03e-01	0	44	102	1048576	20	5047
2026-01-25 00:42:57.43	116.33	20.90	-29.5	-32.4	19.4	6.04e-01	0	44	102	1048576	20	5029
2026-01-25 00:42:58.44	116.61	20.84	-29.5	-32.3	19.5	6.04e-01	0	44	102	1048576	20	4973
2026-01-25 00:42:59.44	116.88	20.77	-29.5	-32.3	19.5	6.04e-01	0	44	102	1048576	20	4992
2026-01-25 00:43:00.45	117.16	20.71	-29.5	-32.5	19.3	6.01e-01	0	44	102	1048576	20	5054
2026-01-25 00:43:01.45	117.43	20.64	-29.6	-32.6	19.3	6.06e-01	0	44	102	1048576	20	5093
2026-01-25 00:43:02.45	117.70	20.57	-29.5	-32.5	19.4	6.03e-01	0	44	102	1048576	20	5067
2026-01-25 00:43:03.46	117.97	20.51	-29.7	-32.8	19.2	6.04e-01	0	44	102	1048576	20	5174
2026-01-25 00:43:04.46	118.24	20.44	-29.7	-32.9	19.1	6.03e-01	0	44	102	1048576	20	5221
2026-01-25 00:43:05.45	118.50	20.37	-29.6	-32.6	19.3	6.05e-01	0	44	102	1048576	20	5099
2026-01-25 00:43:06.45	118.76	20.30	-29.5	-32.5	19.4	6.04e-01	0	44	102	1048576	20	5034
2026-01-25 00:43:07.46	119.03	20.23	-29.5	-32.4	19.4	6.04e-01	0	44	102	1048576	20	5006
2026-01-25 00:43:08.46	119.29	20.17	-29.7	-32.7	19.3	6.02e-01	0	44	102	1048576	20	5084
2026-01-25 00:43:09.46	119.55	20.10	-29.8	-32.9	19.2	6.03e-01	0	44	102	1048576	20	5173
2026-01-25 00:43:10.47	119.82	20.03	-29.6	-32.4	19.5	6.06e-01	0	44	102	1048576	20	5012
2026-01-25 00:43:11.47	120.08	19.96	-29.4	-32.0	19.7	6.04e-01	0	44	102	1048576	20	4870
2026-01-25 00:43:12.47	120.33	19.89	-29.2	-31.7	19.9	6.03e-01	0	44	102	1048576	20	4765
2026-01-25 00:43:13.47	120.59	19.82	-29.3	-31.7	19.9	6.05e-01	0	44	102	1048576	20	4766
2026-01-25 00:43:14.47	120.85	19.75	-29.3	-31.7	19.9	6.02e-01	0	44	102	1048576	20	4771
2026-01-25 00:43:15.47	121.10	19.67	-29.3	-31.7	19.9	6.03e-01	0	44	102	1048576	20	4758
2026-01-25 00:43:16.48	121.36	19.60	-29.3	-31.9	19.7	6.03e-01	0	44	102	1048576	20	4830
2026-01-25 00:43:17.49	121.61	19.53	-29.3	-31.8	19.8	6.04e-01	0	44	102	1048576	20	4808
2026-01-25 00:43:18.49	121.86	19.46	-29.2	-31.5	19.9	6.04e-01	0	44	102	1048576	20	4721
2026-01-25 00:43:19.48	122.11	19.39	-29.2	-31.7	19.9	6.05e-01	0	43	102	1048576	20	4766
2026-01-25 00:43:20.49	122.36	19.31	-29.3	-31.7	19.8	6.02e-01	0	43	102	1048576	20	4775
2026-01-25 00:43:21.50	122.61	19.24	-29.3	-31.7	19.9	6.03e-01	0	44	102	1048576	20	4750
2026-01-25 00:43:22.50	122.85	19.17	-29.3	-31.7	19.8	6.04e-01	0	44	102	1048576	20	4784
2026-01-25 00:43:23.51	123.10	19.09	-29.3	-31.9	19.7	6.02e-01	0	44	102	1048576	20	4825
2026-01-25 00:43:24.52	123.34	19.02	-29.2	-31.6	19.8	6.04e-01	0	44	102	1048576	20	4765
2026-01-25 00:43:25.52	123.59	18.94	-29.1	-31.3	20.0	6.03e-01	0	44	102	1048576	20	4663
2026-01-25 00:43:26.53	123.83	18.87	-29.1	-31.3	20.1	6.04e-01	0	44	102	1048576	20	4657
2026-01-25 00:43:27.53	124.07	18.79	-29.2	-31.5	19.9	6.04e-01	0	44	102	1048576	20	4706
2026-01-25 00:43:28.53	124.31	18.72	-29.3	-31.7	19.8	6.01e-01	0	44	102	1048576	20	4768
2026-01-25 00:43:29.53	124.54	18.64	-29.1	-31.5	19.8	6.02e-01	0	44	102	1048576	20	4765
2026-01-25 00:43:30.54	124.78	18.57	-29.2	-31.5	19.9	6.02e-01	0	44	102	1048576	20	4714
2026-01-25 00:43:31.54	125.02	18.49	-29.1	-31.4	19.9	6.02e-01	0	44	102	1048576	20	4701
2026-01-25 00:43:32.54	125.25	18.42	-29.1	-31.5	19.9	6.05e-01	0	44	102	1048576	20	4714
2026-01-25 00:43:33.54	125.48	18.34	-29.1	-31.4	19.9	6.03e-01	0	44	102	1048576	20	4691
2026-01-25 00:43:34.55	125.72	18.27	-29.2	-31.6	19.8	6.04e-01	0	44	102	1048576	20	4764
2026-01-25 00:43:35.55	125.95	18.19	-29.2	-31.7	19.7	6.03e-01	0	44	102	1048576	20	4788
2026-01-25 00:43:36.56	126.18	18.11	-29.2	-31.6	19.8	6.04e-01	0	43	102	1048576	20	4754
2026-01-25 00:43:37.56	126.40	18.04	-29.2	-31.7	19.7	6.02e-01	0	44	102	1048576	20	4795
2026-01-25 00:43:38.56	126.63	17.96	-29.2	-31.7	19.8	6.02e-01	0	44	102	1048576	20	4763
2026-01-25 00:43:39.57	126.86	17.88	-29.1	-31.3	20.0	6.01e-01	0	44	102	1048576	20	4636
2026-01-25 00:43:40.58	127.08	17.81	-29.2	-31.4	19.9	6.03e-01	0	44	102	1048576	20	4672
2026-01-25 00:43:41.58	127.31	17.73	-29.1	-31.5	19.9	6.02e-01	0	44	102	1048576	20	4696
2026-01-25 00:43:42.59	127.53	17.65	-29.1	-31.5	19.8	6.05e-01	0	44	102	1048576	20	4726
2026-01-25 00:43:43.59	127.75	17.57	-29.2	-31.7	19.7	6.03e-01	0	44	102	1048576	20	4810
2026-01-25 00:43:44.59	127.97	17.50	-29.2	-32.3	19.7	6.03e-01	0	44	102	1048576	19	5134
2026-01-25 00:43:45.60	128.19	17.42	-29.3	-32.4	19.7	6.03e-01	0	44	102	1048576	19	5150
2026-01-25 00:43:46.60	128.41	17.34	-29.3	-32.3	19.7	6.03e-01	0	44	102	1048576	19	5102
2026-01-25 00:43:47.60	128.62	17.26	-29.3	-32.2	19.8	6.04e-01	0	44	102	1048576	19	5032
2026-01-25 00:43:48.60	128.84	17.19	-29.3	-32.1	19.9	6.04e-01	0	44	102	1048576	19	5000
2026-01-25 00:43:49.61	129.05	17.11	-29.3	-32.1	19.8	6.05e-01	0	44	102	1048576	19	4997
2026-01-25 00:43:50.61	129.27	17.03	-29.2	-32.1	19.9	6.02e-01	0	44	102	1048576	19	4995
2026-01-25 00:43:51.61	129.48	16.95	-29.3	-32.3	19.8	6.05e-01	0	44	102	1048576	19	5069
2026-01-25 00:43:52.61	129.69	16.87	-29.3	-32.2	19.8	6.02e-01	0	44	102	1048576	19	5043
2026-01-25 00:43:53.62	129.90	16.80	-29.3	-32.2	19.8	6.04e-01	0	44	102	1048576	19	5028
2026-01-25 00:43:54.63	130.11	16.72	-29.3	-32.3	19.7	6.07e-01	0	44	102	1048576	19	5077
2026-01-25 00:43:55.63	130.31	16.64	-29.4	-32.5	19.5	6.01e-01	0	44	102	1048576	19	5167
2026-01-25 00:43:56.64	130.52	16.56	-29.3	-32.4	19.6	6.04e-01	0	44	102	1048576	19	5137
2026-01-25 00:43:57.64	130.73	16.48	-29.3	-32.3	19.7	6.04e-01	0	44	102	1048576	19	5089
2026-01-25 00:43:58.64	130.93	16.40	-29.3	-32.4	19.6	6.02e-01	0	44	102	1048576	19	5141
2026-01-25 00:43:59.64	131.13	16.32	-29.2	-32.3	19.7	6.00e-01	0	44	102	1048576	19	5098
2026-01-25 00:44:00.64	131.33	16.25	-29.2	-32.2	19.7	6.02e-01	0	44	102	1048576	19	5060
2026-01-25 00:44:01.65	131.54	16.17	-29.3	-32.4	19.6	6.04e-01	0	44	102	1048576	19	5123
2026-01-25 00:44:02.65	131.73	16.09	-29.4	-32.5	19.6	6.02e-01	0	44	102	1048576	19	5138
2026-01-25 00:44:03.66	131.93	16.01	-29.4	-32.6	19.5	6.04e-01	0	44	102	1048576	19	5199
2026-01-25 00:44:04.66	132.13	15.93	-29.4	-32.6	19.5	6.04e-01	0	44	102	1048576	19	5209
2026-01-25 00:44:05.67	132.33	15.85	-29.3	-32.3	19.6	6.04e-01	0	44	102	1048576	19	5104
2026-01-25 00:44:06.68	132.53	15.77	-29.2	-32.2	19.6	6.04e-01	0	44	102	1048576	19	5067
2026-01-25 00:44:07.68	132.72	15.69	-29.2	-32.1	19.7	6.02e-01	0	44	102	1048576	19	5015
2026-01-25 00:44:08.68	132.91	15.61	-29.2	-32.1	19.7	6.04e-01	0	44	102	1048576	19	5037
2026-01-25 00:44:09.68	133.10	15.53	-29.3	-32.2	19.6	6.04e-01	0	44	102	1048576	19	5058
2026-01-25 00:44:10.68	133.29	15.46	-29.3	-32.4	19.6	6.04e-01	0	44	102	1048576	19	5113
2026-01-25 00:44:11.68	133.48	15.38	-29.3	-32.4	19.6	6.02e-01	0	44	102	1048576	19	5124
2026-01-25 00:44:12.68	133.67	15.30	-29.2	-32.3	19.5	6.03e-01	0	44	102	1048576	19	5121
2026-01-25 00:44:13.68	133.86	15.22	-29.2	-32.5	19.3	6.04e-01	0	44	102	1048576	19	5242
2026-01-25 00:44:14.69	134.05	15.14	-29.1	-32.3	19.4	6.01e-01	0	44	102	1048576	19	5192
2026-01-25 00:44:15.69	134.23	15.06	-29.0	-32.1	19.5	6.03e-01	0	44	102	1048576	19	5138
2026-01-25 00:44:16.70	134.42	14.98	-29.0	-32.2	19.4	6.05e-01	0	44	102	1048576	19	5171
2026-01-25 00:44:17.69	134.60	14.90	-29.1	-32.3	19.3	6.03e-01	0	44	102	1048576	19	5214
2026-01-25 00:44:18.69	134.78	14.83	-29.2	-32.4	19.3	6.03e-01	0	44	102	1048576	19	5236
2026-01-25 00:44:19.68	134.96	14.75	-29.3	-32.5	19.3	6.03e-01	0	44	102	1048576	19	5233
2026-01-25 00:44:20.68	135.14	14.67	-29.3	-32.5	19.3	6.03e-01	0	44	102	1048576	19	5218
2026-01-25 00:44:21.68	135.32	14.59	-29.4	-32.7	19.2	6.01e-01	0	44	102	1048576	19	5260
2026-01-25 00:44:22.69	135.50	14.51	-29.4	-32.7	19.3	6.06e-01	0	44	102	1048576	19	5241
2026-01-25 00:44:23.69	135.68	14.43	-29.3	-32.4	19.4	6.02e-01	0	44	102	1048576	19	5144
2026-01-25 00:44:24.70	135.86	14.35	-29.3	-32.4	19.4	6.02e-01	0	44	102	1048576	19	5159
2026-01-25 00:44:25.70	136.03	14.28	-29.2	-32.3	19.4	6.03e-01	0	44	102	1048576	19	5119
2026-01-25 00:44:26.70	136.21	14.20	-29.3	-32.4	19.3	6.01e-01	0	44	102	1048576	19	5190
2026-01-25 00:44:27.71	136.38	14.12	-29.2	-32.4	19.3	6.04e-01	0	44	102	1048576	19	5163
2026-01-25 00:44:28.71	136.56	14.04	-29.3	-32.5	19.3	6.01e-01	0	44	102	1048576	19	5201
2026-01-25 00:44:29.72	136.73	13.96	-29.3	-32.5	19.3	6.03e-01	0	44	102	1048576	19	5200
2026-01-25 00:44:30.73	136.90	13.88	-29.4	-32.6	19.3	6.01e-01	0	44	102	1048576	19	5221
2026-01-25 00:44:31.73	137.07	13.80	-29.5	-33.0	19.0	6.03e-01	0	44	102	1048576	19	5377
2026-01-25 00:44:32.73	137.24	13.73	-29.6	-33.3	18.8	6.03e-01	0	44	102	1048576	19	5494
2026-01-25 00:44:33.74	137.41	13.65	-29.5	-32.6	18.8	6.03e-01	0	44	102	1048576	20	5133
2026-01-25 00:44:34.74	137.58	13.57	-29.5	-32.6	18.8	6.03e-01	0	44	102	1048576	20	5156
2026-01-25 00:44:35.75	137.74	13.49	-29.6	-32.8	18.6	6.02e-01	0	44	102	1048576	20	5257
2026-01-25 00:44:36.75	137.91	13.41	-29.5	-32.7	18.7	6.03e-01	0	44	102	1048576	20	5222
2026-01-25 00:44:37.76	138.08	13.34	-29.5	-32.8	18.6	6.04e-01	0	44	102	1048576	20	5235
2026-01-25 00:44:38.77	138.24	13.26	-29.7	-33.3	18.3	6.03e-01	0	44	102	1048576	20	5428
2026-01-25 00:44:39.77	138.40	13.18	-29.6	-32.9	18.5	6.05e-01	0	44	102	1048576	20	5289
2026-01-25 00:44:40.78	138.57	13.10	-29.4	-32.5	18.8	6.03e-01	0	44	102	1048576	20	5132
2026-01-25 00:44:41.78	138.73	13.02	-29.4	-32.3	18.9	6.03e-01	0	44	102	1048576	20	5060
2026-01-25 00:44:42.79	138.89	12.95	-29.4	-32.4	18.8	6.04e-01	0	44	102	1048576	20	5091
2026-01-25 00:44:43.79	139.05	12.87	-29.4	-32.4	18.8	6.04e-01	0	44	102	1048576	20	5099
2026-01-25 00:44:44.79	139.20	12.79	-29.5	-32.8	18.5	6.03e-01	0	44	102	1048576	20	5264
2026-01-25 00:44:45.80	139.36	12.71	-29.5	-32.7	18.6	6.02e-01	0	44	102	1048576	20	5223
2026-01-25 00:44:46.80	139.52	12.64	-29.4	-32.4	18.8	6.03e-01	0	44	102	1048576	20	5106
2026-01-25 00:44:47.81	139.68	12.56	-29.4	-32.3	18.8	6.04e-01	0	44	102	1048576	20	5053
2026-01-25 00:44:48.81	139.83	12.48	-29.5	-33.1	18.7	6.03e-01	0	44	102	1048576	19	5445
2026-01-25 00:44:49.82	139.99	12.40	-29.4	-32.9	18.8	6.02e-01	0	44	102	1048576	19	5396
2026-01-25 00:44:50.81	140.14	12.33	-29.4	-32.9	18.8	6.02e-01	0	44	102	1048576	19	5403
2026-01-25 00:44:51.82	140.29	12.25	-29.5	-33.1	18.7	6.04e-01	0	44	102	1048576	19	5473
2026-01-25 00:44:52.82	140.44	12.18	-29.6	-33.4	18.5	6.03e-01	0	44	102	1048576	19	5581
2026-01-25 00:44:53.82	140.59	12.10	-29.5	-33.2	18.6	6.02e-01	0	44	102	1048576	19	5528
2026-01-25 00:44:54.83	140.75	12.02	-29.5	-33.2	18.6	6.02e-01	0	44	102	1048576	19	5511
2026-01-25 00:44:55.83	140.89	11.95	-29.6	-33.3	18.5	6.03e-01	0	44	102	1048576	19	5569
2026-01-25 00:44:56.84	141.04	11.87	-29.5	-32.8	18.4	6.04e-01	0	44	102	1048576	20	5244
2026-01-25 00:44:57.84	141.19	11.79	-29.6	-33.1	18.2	6.03e-01	0	44	102	1048576	20	5375
2026-01-25 00:44:58.84	141.34	11.72	-29.6	-33.0	18.3	6.02e-01	0	44	102	1048576	20	5309
2026-01-25 00:44:59.85	141.48	11.64	-29.6	-33.0	18.2	6.04e-01	0	44	102	1048576	20	5344
2026-01-25 00:45:00.86	141.63	11.56	-29.8	-33.5	17.9	6.03e-01	0	44	102	1048576	20	5520
2026-01-25 00:45:01.86	141.77	11.49	-29.7	-33.3	18.0	6.04e-01	0	44	102	1048576	20	5460
2026-01-25 00:45:02.86	141.92	11.41	-29.5	-32.8	18.2	6.05e-01	0	44	102	1048576	20	5299
2026-01-25 00:45:03.86	142.06	11.34	-29.5	-33.3	18.3	6.05e-01	0	44	102	1048576	19	5617
2026-01-25 00:45:04.87	142.20	11.26	-29.5	-33.5	18.2	6.03e-01	0	43	102	1048576	19	5693
2026-01-25 00:45:05.87	142.35	11.19	-29.6	-33.4	17.9	6.03e-01	0	44	102	1048576	20	5531
2026-01-25 00:45:06.87	142.49	11.11	-29.9	-34.2	17.3	6.03e-01	0	43	102	1048576	20	5881
2026-01-25 00:45:07.88	142.63	11.04	-28.9	-33.4	17.5	6.05e-01	0	44	102	1048576	19	6033
2026-01-25 00:45:08.88	142.77	10.96	-29.7	-33.9	17.6	6.03e-01	0	44	102	1048576	19	5840
2026-01-25 00:45:09.89	142.90	10.89	-29.6	-33.2	18.0	6.05e-01	0	44	102	1048576	20	5454
2026-01-25 00:45:10.89	143.04	10.81	-29.6	-33.2	17.3	6.03e-01	0	44	102	1048576	20	5467
2026-01-25 00:45:11.90	143.18	10.74	-29.6	-33.2	17.3	6.04e-01	0	44	102	1048576	20	5460
2026-01-25 00:45:12.90	143.32	10.66	-29.7	-33.5	17.8	6.03e-01	0	44	102	1048576	20	5587
2026-01-25 00:45:13.91	143.45	10.59	-29.6	-33.3	17.4	6.02e-01	0	44	102	1048576	20	5491
2026-01-25 00:45:14.92	143.59	10.51	-29.5	-33.0	18.0	6.02e-01	0	44	102	1048576	20	5390
2026-01-25 00:45:15.92	143.72	10.44	-29.5	-33.0	18.1	6.02e-01	0	44	102	1048576	20	5368
2026-01-25 00:45:16.92	143.85	10.37	-29.5	-32.9	18.1	6.05e-01	0	44	102	1048576	20	5357
2026-01-25 00:45:17.92	143.99	10.29	-29.6	-33.6	18.0	6.04e-01	0	44	102	1048576	19	5760
2026-01-25 00:45:18.92	144.12	10.22	-29.5	-33.5	18.1	6.04e-01	0	44	102	1048576	19	5727
2026-01-25 00:45:19.93	144.25	10.14	-29.6	-33.8	17.9	6.03e-01	0	44	102	1048576	19	5850
2026-01-25 00:45:20.94	144.38	10.07	-29.5	-33.5	18.0	6.02e-01	0	44	102	1048576	19	5731
2026-01-25 00:45:21.94	144.51	10.00	-29.4	-33.4	18.2	6.05e-01	0	44	102	1048576	19	5655
2026-01-25 00:45:22.95	144.64	9.92	-29.6	-33.7	18.0	6.03e-01	0	44	102	1048576	19	5791
2026-01-25 00:45:23.96	144.77	9.85	-29.6	-33.7	18.0	6.03e-01	0	44	102	1048576	19	5779
2026-01-25 00:45:24.96	144.90	9.78	-29.5	-33.1	18.0	6.04e-01	0	44	102	1048576	20	5404
2026-01-25 00:45:25.97	145.03	9.70	-29.5	-33.0	18.1	6.02e-01	0	44	102	1048576	20	5356
2026-01-25 00:45:26.97	145.15	9.63	-29.6	-33.2	17.9	6.01e-01	0	44	102	1048576	20	5459
2026-01-25 00:45:27.97	145.28	9.56	-29.7	-33.4	17.8	6.00e-01	0	44	102	1048576	20	5515
2026-01-25 00:45:28.98	145.41	9.49	-29.6	-33.3	17.8	6.03e-01	0	43	102	1048576	20	5516
2026-01-25 00:45:29.98	145.53	9.41	-29.6	-33.4	17.7	6.04e-01	0	44	102	1048576	20	5529
2026-01-25 00:45:30.99	145.65	9.34	-29.6	-33.3	17.8	6.01e-01	0	44	102	1048576	20	5515
2026-01-25 00:45:31.99	145.78	9.27	-29.5	-33.4	17.6	6.04e-01	0	44	102	1048576	20	5641
2026-01-25 00:45:32.99	145.90	9.20	-29.5	-33.8	17.8	6.04e-01	0	44	102	1048576	19	5866
2026-01-25 00:45:34.00	146.02	9.12	-29.5	-33.9	17.6	6.06e-01	0	44	102	1048576	19	5972
2026-01-25 00:45:35.00	146.14	9.05	-29.5	-33.7	17.8	6.03e-01	0	44	102	1048576	19	5829
2026-01-25 00:45:36.01	146.27	8.98	-29.5	-33.6	17.9	6.03e-01	0	44	102	1048576	19	5772
2026-01-25 00:45:37.01	146.39	8.91	-29.6	-33.8	17.8	6.02e-01	0	44	102	1048576	19	5877
2026-01-25 00:45:38.01	146.50	8.84	-29.6	-33.8	17.8	6.06e-01	0	44	102	1048576	19	5893
2026-01-25 00:45:39.01	146.62	8.77	-29.6	-33.9	17.7	6.05e-01	0	44	102	1048576	19	5927
2026-01-25 00:45:40.02	146.74	8.69	-29.5	-33.4	17.6	6.03e-01	0	44	102	1048576	20	5620
2026-01-25 00:45:41.02	146.86	8.62	-29.6	-34.1	17.5	6.01e-01	0	44	102	1048576	19	6061
2026-01-25 00:45:42.02	146.98	8.55	-29.5	-33.6	17.3	6.06e-01	0	44	102	1048576	20	5776
2026-01-25 00:45:43.03	147.09	8.48	-29.6	-33.8	17.2	6.05e-01	0	44	102	1048576	20	5877
2026-01-25 00:45:44.03	147.21	8.41	-29.5	-34.0	17.4	6.02e-01	0	44	102	1048576	19	6089
2026-01-25 00:45:45.04	147.33	8.34	-29.5	-34.0	17.5	6.04e-01	0	44	102	1048576	19	6065
2026-01-25 00:45:46.04	147.44	8.27	-29.5	-34.2	17.2	6.05e-01	0	44	102	1048576	19	6190
2026-01-25 00:45:47.04	147.55	8.20	-29.4	-34.4	17.0	6.02e-01	0	44	102	1048576	19	6357
2026-01-25 00:45:48.04	147.67	8.13	-29.4	-34.2	17.2	6.03e-01	0	44	102	1048576	19	6194
2026-01-25 00:45:49.04	147.78	8.06	-29.4	-34.4	16.9	6.04e-01	0	44	102	1048576	19	6391
2026-01-25 00:45:50.04	147.89	7.99	-29.6	-35.1	16.4	6.02e-01	0	44	102	1048576	19	6794
2026-01-25 00:45:51.05	148.01	7.92	-29.5	-34.5	16.3	6.03e-01	0	44	102	1048576	20	6415
2026-01-25 00:45:52.05	148.12	7.85	-29.7	-35.1	15.9	6.02e-01	0	44	102	1048576	20	6719
2026-01-25 00:45:53.06	148.23	7.78	-29.8	-35.0	16.1	6.03e-01	0	44	102	1048576	20	6581
2026-01-25 00:45:54.06	148.34	7.71	-29.8	-35.2	16.0	6.04e-01	0	44	102	1048576	20	6686
2026-01-25 00:45:55.06	148.45	7.64	-30.0	-35.8	15.5	6.05e-01	0	44	102	1048576	20	7039
2026-01-25 00:45:56.06	148.56	7.57	-29.8	-35.4	15.7	6.04e-01	0	44	102	1048576	20	6846
2026-01-25 00:45:57.05	148.66	7.51	-29.9	-35.7	15.5	6.03e-01	0	44	102	1048576	20	7035
2026-01-25 00:45:58.06	148.77	7.44	-30.1	-36.2	14.8	6.03e-01	0	43	102	1048576	21	7262
2026-01-25 00:45:59.06	148.88	7.37	-29.6	-35.6	15.3	6.04e-01	0	44	102	1048576	20	7189
2026-01-25 00:46:00.06	148.99	7.30	-29.1	-35.1	15.8	6.03e-01	0	44	102	1048576	19	7179
2026-01-25 00:46:01.07	149.09	7.23	-28.8	-34.9	16.2	6.06e-01	0	44	102	1048576	18	7292
2026-01-25 00:46:02.08	149.20	7.16	-28.5	-34.6	16.3	6.02e-01	0	44	102	1048576	18	7233
2026-01-25 00:46:03.08	149.31	7.09	-29.0	-36.3	15.4	6.04e-01	0	44	102	1048576	18	8342
2026-01-25 00:46:04.09	149.41	7.03	-32.9	-52.4	4.0	7.46e-01	0	44	104	1048576	26	33858
2026-01-25 00:46:05.10	149.52	6.96	-33.5	-52.8	3.8	7.46e-01	0	44	104	1048576	28	33167
2026-01-25 00:46:06.10	149.62	6.89	-34.0	-53.6	3.8	7.46e-01	0	44	104	1048576	28	34538
2026-01-25 00:46:07.11	149.72	6.82	-34.2	-53.6	3.8	7.44e-01	0	44	104	1048576	29	33465

#Closed at: 2026-01-25 00:46:07
#Recorded file [1 MB]: D:/data/31010_260125_033747.dat