passes_logs/2026/01/25/R2M6_AANII_01/R2M6_AANII_01__20260125_114215_NOAA_20_JPSS-1_rec.log

#Pass ID: 20260125_114215_NOAA 20 (JPSS-1)
#Satellite: NOAA 20 (JPSS-1)
#Configuration: NOAA 20
#almurnet v.1.7.20240730
#Start time: 2026-01-25 11:42:17

#Version: 2.2.20231116
#Station: R2M6_AANII_01
#Location: 30.233357 lon 59.946436 lat
#TLE: 1 43013U 17073A   26024.42258823  .00000183  00000+0  10747-3 0  9990
#TLE: 2 43013  98.7646 325.2629 0001105  25.8644 334.2587 14.19539754424075

#Time	Az	El	Level	Level2	SNR	BER	BlckErr	Temp	State	Recorded	gain1	gain2
2026-01-25 11:42:17.51	204.99	7.11	-31.0	-36.2	5.3	1.19e+00	0	41	0	0	22	6609
2026-01-25 11:42:18.51	205.07	7.17	-31.3	-36.8	5.1	1.22e+00	0	41	104	0	23	6825
2026-01-25 11:42:19.51	205.15	7.24	-31.3	-36.8	8.4	6.06e-02	0	41	0	0	23	6807
2026-01-25 11:42:20.52	205.24	7.31	-31.1	-36.0	9.2	2.41e-02	0	41	102	1048576	23	6279
2026-01-25 11:42:21.52	205.32	7.38	-31.0	-35.2	9.9	1.17e-02	0	41	102	1048576	23	5864
2026-01-25 11:42:22.52	205.41	7.44	-30.9	-34.7	10.4	6.46e-03	0	41	102	1048576	23	5617
2026-01-25 11:42:23.53	205.49	7.51	-30.7	-34.8	10.8	3.77e-03	0	41	102	1048576	22	5713
2026-01-25 11:42:24.53	205.58	7.58	-30.7	-34.5	11.0	1.65e-03	0	41	102	1048576	22	5603
2026-01-25 11:42:25.53	205.66	7.65	-30.6	-34.4	11.1	2.33e-03	0	42	102	1048576	22	5535
2026-01-25 11:42:26.54	205.75	7.72	-30.5	-33.9	11.5	1.14e-03	0	42	102	1048576	22	5325
2026-01-25 11:42:27.53	205.83	7.79	-30.4	-33.6	11.7	6.05e-04	0	42	102	1048576	22	5204
2026-01-25 11:42:28.53	205.92	7.85	-30.4	-33.5	11.8	5.47e-04	0	42	102	1048576	22	5153
2026-01-25 11:42:29.53	206.01	7.92	-30.3	-33.4	11.9	4.31e-04	0	42	102	1048576	22	5116
2026-01-25 11:42:30.54	206.10	7.99	-30.3	-33.3	11.9	4.46e-04	0	42	102	1048576	22	5072
2026-01-25 11:42:31.54	206.18	8.06	-30.2	-33.6	12.0	3.04e-04	0	42	102	1048576	21	5288
2026-01-25 11:42:32.54	206.27	8.13	-30.3	-33.6	12.0	2.92e-04	0	41	102	1048576	21	5320
2026-01-25 11:42:33.54	206.36	8.20	-30.3	-33.7	12.0	2.78e-04	0	42	102	1048576	21	5328
2026-01-25 11:42:34.55	206.45	8.27	-30.2	-33.6	12.0	3.47e-04	0	42	102	1048576	21	5317
2026-01-25 11:42:35.55	206.54	8.34	-30.1	-33.3	12.2	2.77e-04	0	42	102	1048576	21	5188
2026-01-25 11:42:36.56	206.63	8.41	-30.0	-33.0	12.3	1.85e-04	0	42	102	1048576	21	5080
2026-01-25 11:42:37.56	206.72	8.48	-30.0	-32.9	12.4	1.36e-04	0	42	102	1048576	21	5045
2026-01-25 11:42:38.57	206.81	8.55	-30.0	-32.9	12.4	1.33e-04	0	42	102	1048576	21	5037
2026-01-25 11:42:39.57	206.90	8.62	-30.0	-33.0	12.3	1.36e-04	0	42	102	1048576	21	5077
2026-01-25 11:42:40.58	207.00	8.69	-30.0	-32.8	12.5	1.37e-04	0	42	102	1048576	21	4999
2026-01-25 11:42:41.58	207.09	8.76	-30.0	-32.9	12.5	1.25e-04	0	42	102	1048576	21	5019
2026-01-25 11:42:42.59	207.18	8.83	-30.0	-32.8	12.5	1.14e-04	0	42	102	1048576	21	5008
2026-01-25 11:42:43.59	207.27	8.90	-30.0	-33.0	12.4	1.04e-04	0	42	102	1048576	21	5078
2026-01-25 11:42:44.58	207.37	8.97	-30.1	-33.1	12.4	1.87e-04	0	42	102	1048576	21	5105
2026-01-25 11:42:45.58	207.46	9.04	-30.1	-33.2	12.4	1.41e-04	0	42	102	1048576	21	5129
2026-01-25 11:42:46.59	207.55	9.11	-30.0	-32.9	12.6	1.24e-04	0	42	102	1048576	21	5030
2026-01-25 11:42:47.59	207.65	9.19	-30.1	-33.0	12.6	1.03e-04	0	42	102	1048576	21	5056
2026-01-25 11:42:48.60	207.74	9.26	-30.0	-32.9	12.7	9.84e-05	0	42	102	1048576	21	5025
2026-01-25 11:42:49.61	207.84	9.33	-30.1	-33.0	12.6	8.08e-05	0	42	102	1048576	21	5038
2026-01-25 11:42:50.61	207.94	9.40	-30.1	-33.2	12.5	9.23e-05	0	42	102	1048576	21	5136
2026-01-25 11:42:51.62	208.03	9.47	-30.2	-33.4	12.3	1.27e-04	0	42	102	1048576	21	5219
2026-01-25 11:42:52.62	208.13	9.55	-30.2	-33.4	12.4	2.15e-04	0	42	102	1048576	21	5194
2026-01-25 11:42:53.62	208.23	9.62	-30.1	-33.2	12.5	9.15e-05	0	42	102	1048576	21	5114
2026-01-25 11:42:54.62	208.32	9.69	-30.1	-33.1	12.6	1.10e-04	0	42	102	1048576	21	5066
2026-01-25 11:42:55.63	208.42	9.76	-30.2	-33.3	12.4	1.11e-04	0	42	102	1048576	21	5165
2026-01-25 11:42:56.63	208.52	9.84	-30.2	-33.4	12.4	1.35e-04	0	42	102	1048576	21	5186
2026-01-25 11:42:57.63	208.62	9.91	-30.1	-33.0	12.6	9.46e-05	0	42	102	1048576	21	5044
2026-01-25 11:42:58.64	208.72	9.98	-30.0	-32.8	12.7	8.77e-05	0	42	102	1048576	21	4983
2026-01-25 11:42:59.64	208.82	10.05	-30.0	-32.9	12.7	6.79e-05	0	42	102	1048576	21	4995
2026-01-25 11:43:00.64	208.92	10.13	-30.1	-33.1	12.5	7.09e-05	0	42	102	1048576	21	5095
2026-01-25 11:43:01.64	209.02	10.20	-30.1	-33.0	12.6	1.14e-04	0	42	102	1048576	21	5043
2026-01-25 11:43:02.64	209.12	10.27	-30.1	-33.0	12.7	7.17e-05	0	42	102	1048576	21	5036
2026-01-25 11:43:03.65	209.23	10.35	-30.1	-33.0	12.7	5.72e-05	0	42	102	1048576	21	5046
2026-01-25 11:43:04.65	209.33	10.42	-30.2	-33.4	12.5	8.92e-05	0	43	102	1048576	21	5174
2026-01-25 11:43:05.65	209.43	10.49	-30.2	-33.3	12.5	1.36e-04	0	42	102	1048576	21	5141
2026-01-25 11:43:06.65	209.54	10.57	-30.1	-33.0	12.8	8.31e-05	0	42	102	1048576	21	5038
2026-01-25 11:43:07.65	209.64	10.64	-30.2	-33.3	12.6	7.47e-05	0	43	102	1048576	21	5130
2026-01-25 11:43:08.66	209.75	10.72	-30.1	-33.1	12.7	9.46e-05	0	43	102	1048576	21	5063
2026-01-25 11:43:09.67	209.85	10.79	-30.0	-32.9	12.9	7.09e-05	0	42	102	1048576	21	4976
2026-01-25 11:43:10.67	209.96	10.87	-30.0	-32.8	12.9	4.80e-05	0	43	102	1048576	21	4938
2026-01-25 11:43:11.68	210.06	10.94	-30.0	-32.7	13.0	3.12e-05	0	43	102	1048576	21	4911
2026-01-25 11:43:12.69	210.17	11.02	-29.9	-32.3	13.3	3.35e-05	0	43	102	1048576	21	4774
2026-01-25 11:43:13.69	210.28	11.09	-29.8	-32.1	13.4	1.06e-05	0	43	102	1048576	21	4721
2026-01-25 11:43:14.70	210.39	11.17	-29.7	-32.5	13.5	1.06e-05	0	42	102	1048576	20	4949
2026-01-25 11:43:15.70	210.50	11.24	-29.7	-32.5	13.5	1.37e-05	0	43	102	1048576	20	4930
2026-01-25 11:43:16.71	210.60	11.32	-29.8	-32.6	13.4	1.06e-05	0	43	102	1048576	20	4998
2026-01-25 11:43:17.71	210.71	11.39	-29.8	-32.5	13.5	1.60e-05	0	43	102	1048576	20	4949
2026-01-25 11:43:18.72	210.82	11.47	-29.7	-32.4	13.6	7.60e-06	0	43	102	1048576	20	4910
2026-01-25 11:43:19.71	210.93	11.54	-29.8	-32.7	13.4	1.29e-05	0	43	102	1048576	20	5035
2026-01-25 11:43:20.72	211.05	11.62	-29.8	-32.6	13.4	1.75e-05	0	43	102	1048576	20	4990
2026-01-25 11:43:21.72	211.16	11.70	-29.7	-32.3	13.7	9.10e-06	0	43	102	1048576	20	4874
2026-01-25 11:43:22.73	211.27	11.77	-29.8	-32.5	13.5	7.60e-06	0	43	102	1048576	20	4948
2026-01-25 11:43:23.73	211.38	11.85	-29.8	-32.6	13.5	7.60e-06	0	43	102	1048576	20	4980
2026-01-25 11:43:24.73	211.50	11.93	-29.7	-32.5	13.5	5.30e-06	0	43	102	1048576	20	4929
2026-01-25 11:43:25.74	211.61	12.00	-29.7	-32.5	13.5	9.10e-06	0	43	102	1048576	20	4930
2026-01-25 11:43:26.75	211.73	12.08	-29.9	-32.8	13.4	9.10e-06	0	43	102	1048576	20	5041
2026-01-25 11:43:27.75	211.84	12.16	-29.8	-32.7	13.5	1.98e-05	0	43	102	1048576	20	4998
2026-01-25 11:43:28.76	211.96	12.24	-29.8	-32.7	13.4	6.80e-06	0	43	102	1048576	20	5016
2026-01-25 11:43:29.76	212.07	12.31	-30.0	-33.0	13.3	2.13e-05	0	43	102	1048576	20	5134
2026-01-25 11:43:30.76	212.19	12.39	-30.0	-33.0	13.2	3.05e-05	0	43	102	1048576	20	5134
2026-01-25 11:43:31.77	212.31	12.47	-30.0	-33.2	13.1	2.05e-05	0	43	102	1048576	20	5202
2026-01-25 11:43:32.77	212.43	12.55	-30.0	-33.2	13.1	3.05e-05	0	43	102	1048576	20	5182
2026-01-25 11:43:33.77	212.54	12.62	-30.1	-33.5	12.9	3.12e-05	0	43	102	1048576	20	5322
2026-01-25 11:43:34.77	212.66	12.70	-30.1	-33.4	13.0	3.43e-05	0	43	102	1048576	20	5290
2026-01-25 11:43:35.77	212.78	12.78	-30.2	-33.7	12.8	4.88e-05	0	43	102	1048576	20	5389
2026-01-25 11:43:36.78	212.90	12.86	-30.2	-33.6	12.8	5.72e-05	0	43	102	1048576	20	5350
2026-01-25 11:43:37.78	213.02	12.94	-30.0	-33.3	13.1	4.34e-05	0	43	102	1048576	20	5215
2026-01-25 11:43:38.78	213.15	13.01	-30.0	-33.2	13.1	3.20e-05	0	43	102	1048576	20	5192
2026-01-25 11:43:39.79	213.27	13.09	-30.1	-33.3	13.1	2.13e-05	0	43	102	1048576	20	5223
2026-01-25 11:43:40.79	213.39	13.17	-30.1	-33.3	13.1	2.89e-05	0	43	102	1048576	20	5242
2026-01-25 11:43:41.79	213.51	13.25	-30.1	-33.3	13.1	3.58e-05	0	43	102	1048576	20	5210
2026-01-25 11:43:42.80	213.64	13.33	-30.0	-33.1	13.3	2.97e-05	0	43	102	1048576	20	5135
2026-01-25 11:43:43.80	213.76	13.41	-30.0	-33.0	13.3	1.22e-05	0	43	102	1048576	20	5104
2026-01-25 11:43:44.80	213.89	13.49	-30.0	-33.0	13.3	1.90e-05	0	43	102	1048576	20	5126
2026-01-25 11:43:45.81	214.02	13.57	-29.9	-32.9	13.4	1.44e-05	0	43	102	1048576	20	5056
2026-01-25 11:43:46.82	214.14	13.65	-29.9	-32.8	13.5	1.37e-05	0	43	102	1048576	20	5031
2026-01-25 11:43:47.81	214.27	13.73	-29.9	-32.8	13.5	1.52e-05	0	43	102	1048576	20	5024
2026-01-25 11:43:48.82	214.40	13.81	-30.0	-33.0	13.3	1.67e-05	0	43	102	1048576	20	5103
2026-01-25 11:43:49.82	214.53	13.89	-29.9	-32.9	13.5	1.06e-05	0	43	102	1048576	20	5048
2026-01-25 11:43:50.83	214.66	13.97	-30.0	-33.0	13.4	1.37e-05	0	43	102	1048576	20	5091
2026-01-25 11:43:51.83	214.79	14.05	-30.1	-33.3	13.1	2.21e-05	0	43	102	1048576	20	5238
2026-01-25 11:43:52.84	214.92	14.13	-30.1	-33.4	13.1	2.36e-05	0	43	102	1048576	20	5272
2026-01-25 11:43:53.84	215.05	14.21	-30.2	-33.6	13.0	4.11e-05	0	43	102	1048576	20	5319
2026-01-25 11:43:54.85	215.18	14.29	-30.2	-33.5	13.0	3.81e-05	0	43	102	1048576	20	5301
2026-01-25 11:43:55.85	215.32	14.37	-30.2	-33.6	13.0	3.73e-05	0	43	102	1048576	20	5334
2026-01-25 11:43:56.85	215.45	14.45	-30.2	-33.6	13.0	4.19e-05	0	43	102	1048576	20	5339
2026-01-25 11:43:57.86	215.59	14.53	-30.3	-33.9	12.8	5.03e-05	0	43	102	1048576	20	5438
2026-01-25 11:43:58.86	215.72	14.61	-30.2	-33.5	13.1	4.19e-05	0	43	102	1048576	20	5283
2026-01-25 11:43:59.86	215.86	14.69	-30.1	-33.3	13.2	2.05e-05	0	43	102	1048576	20	5198
2026-01-25 11:44:00.87	215.99	14.78	-30.1	-33.2	13.2	1.83e-05	0	43	102	1048576	20	5190
2026-01-25 11:44:01.87	216.13	14.86	-30.0	-33.1	13.4	1.75e-05	0	43	102	1048576	20	5142
2026-01-25 11:44:02.87	216.27	14.94	-30.1	-33.3	13.2	1.90e-05	0	43	102	1048576	20	5211
2026-01-25 11:44:03.87	216.41	15.02	-30.1	-33.2	13.3	2.28e-05	0	43	102	1048576	20	5177
2026-01-25 11:44:04.88	216.55	15.10	-30.2	-33.5	13.1	1.75e-05	0	43	102	1048576	20	5274
2026-01-25 11:44:05.88	216.69	15.18	-30.1	-33.2	13.3	2.05e-05	0	43	102	1048576	20	5175
2026-01-25 11:44:06.89	216.83	15.27	-30.0	-33.0	13.4	1.29e-05	0	43	102	1048576	20	5107
2026-01-25 11:44:07.89	216.97	15.35	-30.0	-32.9	13.5	1.29e-05	0	43	102	1048576	20	5064
2026-01-25 11:44:08.89	217.11	15.43	-30.0	-32.9	13.5	8.30e-06	0	43	102	1048576	20	5056
2026-01-25 11:44:09.90	217.26	15.51	-30.0	-33.1	13.4	2.21e-05	0	43	102	1048576	20	5112
2026-01-25 11:44:10.90	217.40	15.60	-30.0	-33.1	13.4	1.75e-05	0	43	102	1048576	20	5140
2026-01-25 11:44:11.90	217.54	15.68	-30.0	-33.0	13.5	1.29e-05	0	43	102	1048576	20	5102
2026-01-25 11:44:12.90	217.69	15.76	-30.0	-32.9	13.5	1.06e-05	0	43	102	1048576	20	5061
2026-01-25 11:44:13.90	217.83	15.84	-29.9	-32.8	13.7	1.22e-05	0	43	102	1048576	20	4993
2026-01-25 11:44:14.91	217.98	15.93	-30.0	-33.0	13.5	4.50e-06	0	43	102	1048576	20	5065
2026-01-25 11:44:15.91	218.13	16.01	-29.9	-32.8	13.7	2.20e-06	0	43	102	1048576	20	4989
2026-01-25 11:44:16.91	218.28	16.09	-29.9	-32.7	13.7	7.60e-06	0	43	102	1048576	20	4959
2026-01-25 11:44:17.92	218.43	16.18	-29.9	-32.7	13.7	6.80e-06	0	43	102	1048576	20	4969
2026-01-25 11:44:18.93	218.58	16.26	-30.1	-33.2	13.4	7.60e-06	0	43	102	1048576	20	5142
2026-01-25 11:44:19.94	218.73	16.35	-29.9	-32.8	13.7	9.10e-06	0	43	102	1048576	20	5016
2026-01-25 11:44:20.95	218.89	16.43	-29.9	-32.7	13.8	6.10e-06	0	43	102	1048576	20	4964
2026-01-25 11:44:21.95	219.04	16.51	-30.0	-32.9	13.6	9.10e-06	0	43	102	1048576	20	5061
2026-01-25 11:44:22.95	219.19	16.60	-29.9	-32.8	13.7	4.50e-06	0	43	102	1048576	20	5005
2026-01-25 11:44:23.95	219.35	16.68	-29.9	-32.7	13.8	5.30e-06	0	43	102	1048576	20	4950
2026-01-25 11:44:24.95	219.50	16.76	-29.9	-32.6	13.8	3.80e-06	0	43	102	1048576	20	4938
2026-01-25 11:44:25.96	219.66	16.85	-29.9	-32.7	13.8	3.00e-06	0	43	102	1048576	20	4965
2026-01-25 11:44:26.96	219.81	16.93	-29.8	-32.5	13.9	2.20e-06	0	43	102	1048576	20	4896
2026-01-25 11:44:27.96	219.97	17.02	-29.8	-32.4	14.0	2.20e-06	0	43	102	1048576	20	4859
2026-01-25 11:44:28.97	220.13	17.10	-29.8	-32.5	13.9	1.50e-06	0	43	102	1048576	20	4904
2026-01-25 11:44:29.97	220.29	17.19	-29.9	-32.6	13.8	2.20e-06	0	43	102	1048576	20	4933
2026-01-25 11:44:30.98	220.45	17.27	-30.0	-32.9	13.6	3.80e-06	0	43	102	1048576	20	5046
2026-01-25 11:44:31.98	220.61	17.36	-30.0	-32.9	13.7	6.10e-06	0	43	102	1048576	20	5032
2026-01-25 11:44:32.98	220.77	17.44	-30.0	-32.8	13.7	3.80e-06	0	43	102	1048576	20	5006
2026-01-25 11:44:33.98	220.94	17.52	-30.0	-32.9	13.6	3.80e-06	0	43	102	1048576	20	5048
2026-01-25 11:44:34.99	221.10	17.61	-29.9	-32.6	13.8	6.10e-06	0	44	102	1048576	20	4937
2026-01-25 11:44:36.00	221.27	17.70	-29.9	-32.5	13.9	6.10e-06	0	43	102	1048576	20	4897
2026-01-25 11:44:37.00	221.43	17.78	-29.9	-32.6	13.9	0.00e+00	0	43	102	1048576	20	4929
2026-01-25 11:44:38.01	221.60	17.87	-29.8	-32.3	14.1	2.20e-06	0	43	102	1048576	20	4811
2026-01-25 11:44:39.02	221.77	17.95	-29.9	-32.6	13.9	4.50e-06	0	43	102	1048576	20	4915
2026-01-25 11:44:40.02	221.94	18.04	-29.6	-31.8	14.4	7.00e-07	0	43	102	1048576	20	4664
2026-01-25 11:44:41.02	222.11	18.12	-29.4	-31.3	14.7	1.50e-06	0	43	102	1048576	20	4498
2026-01-25 11:44:42.02	222.28	18.21	-29.3	-31.5	15.0	0.00e+00	0	43	102	1048576	19	4657
2026-01-25 11:44:43.03	222.45	18.29	-29.3	-31.6	14.9	0.00e+00	0	43	102	1048576	19	4695
2026-01-25 11:44:44.03	222.62	18.38	-29.4	-31.8	14.8	0.00e+00	0	43	102	1048576	19	4760
2026-01-25 11:44:45.04	222.79	18.46	-29.3	-31.5	15.0	0.00e+00	0	43	102	1048576	19	4659
2026-01-25 11:44:46.04	222.97	18.55	-29.3	-31.4	15.0	7.00e-07	0	43	102	1048576	19	4618
2026-01-25 11:44:47.05	223.14	18.63	-29.4	-31.7	14.9	3.00e-06	0	43	102	1048576	19	4703
2026-01-25 11:44:48.06	223.32	18.72	-29.3	-31.5	15.0	0.00e+00	0	43	102	1048576	19	4658
2026-01-25 11:44:49.06	223.50	18.81	-29.4	-31.8	14.8	0.00e+00	0	43	102	1048576	19	4746
2026-01-25 11:44:50.06	223.68	18.89	-29.3	-31.5	15.0	4.50e-06	0	44	102	1048576	19	4661
2026-01-25 11:44:51.07	223.86	18.98	-29.3	-31.6	15.0	7.00e-07	0	44	102	1048576	19	4670
2026-01-25 11:44:52.06	224.03	19.06	-29.4	-31.8	14.8	0.00e+00	0	43	102	1048576	19	4745
2026-01-25 11:44:53.07	224.22	19.15	-29.3	-31.5	15.0	1.50e-06	0	43	102	1048576	19	4660
2026-01-25 11:44:54.08	224.40	19.23	-29.2	-31.4	15.1	0.00e+00	0	43	102	1048576	19	4614
2026-01-25 11:44:55.08	224.58	19.32	-29.3	-31.5	15.1	0.00e+00	0	43	102	1048576	19	4635
2026-01-25 11:44:56.08	224.76	19.40	-29.3	-31.5	15.0	3.80e-06	0	43	102	1048576	19	4644
2026-01-25 11:44:57.08	224.95	19.49	-29.2	-31.4	15.1	0.00e+00	0	43	102	1048576	19	4596
2026-01-25 11:44:58.08	225.13	19.58	-29.3	-31.5	15.0	0.00e+00	0	43	102	1048576	19	4658
2026-01-25 11:44:59.09	225.32	19.66	-29.2	-31.3	15.2	0.00e+00	0	43	102	1048576	19	4567
2026-01-25 11:45:00.09	225.51	19.75	-29.1	-31.1	15.3	0.00e+00	0	43	102	1048576	19	4511
2026-01-25 11:45:01.09	225.70	19.83	-29.1	-31.0	15.4	0.00e+00	0	43	102	1048576	19	4486
2026-01-25 11:45:02.10	225.89	19.92	-29.2	-31.2	15.2	4.50e-06	0	43	102	1048576	19	4559
2026-01-25 11:45:03.10	226.08	20.00	-29.3	-31.6	15.0	0.00e+00	0	44	102	1048576	19	4673
2026-01-25 11:45:04.10	226.27	20.09	-29.2	-31.1	15.3	0.00e+00	0	44	102	1048576	19	4527
2026-01-25 11:45:05.11	226.47	20.18	-29.0	-30.8	15.5	6.10e-06	0	44	102	1048576	19	4434
2026-01-25 11:45:06.11	226.66	20.26	-29.0	-30.8	15.5	0.00e+00	0	43	102	1048576	19	4416
2026-01-25 11:45:07.12	226.86	20.35	-29.1	-30.9	15.4	0.00e+00	0	44	102	1048576	19	4465
2026-01-25 11:45:08.12	227.05	20.43	-28.9	-30.6	15.6	3.80e-06	0	44	102	1048576	19	4376
2026-01-25 11:45:09.13	227.25	20.52	-28.9	-30.5	15.7	0.00e+00	0	44	102	1048576	19	4339
2026-01-25 11:45:10.13	227.45	20.60	-29.0	-30.7	15.6	0.00e+00	0	43	102	1048576	19	4380
2026-01-25 11:45:11.13	227.65	20.69	-28.8	-30.3	15.9	3.80e-06	0	43	102	1048576	19	4268
2026-01-25 11:45:12.13	227.85	20.77	-28.7	-30.6	16.0	0.00e+00	0	43	102	1048576	18	4454
2026-01-25 11:45:13.14	228.05	20.86	-28.8	-30.7	15.9	0.00e+00	0	43	102	1048576	18	4497
2026-01-25 11:45:14.15	228.25	20.95	-28.8	-30.8	15.8	0.00e+00	0	44	102	1048576	18	4531
2026-01-25 11:45:15.15	228.46	21.03	-28.7	-30.5	16.0	0.00e+00	0	44	102	1048576	18	4423
2026-01-25 11:45:16.16	228.66	21.12	-28.7	-30.5	16.1	0.00e+00	0	44	102	1048576	18	4421
2026-01-25 11:45:17.16	228.87	21.20	-28.7	-30.6	16.0	0.00e+00	0	44	102	1048576	18	4460
2026-01-25 11:45:18.16	229.08	21.29	-28.5	-30.1	16.2	0.00e+00	0	43	102	1048576	18	4327
2026-01-25 11:45:19.16	229.28	21.37	-28.5	-30.1	16.3	0.00e+00	0	43	102	1048576	18	4301
2026-01-25 11:45:20.17	229.49	21.46	-28.5	-30.1	16.3	0.00e+00	0	43	102	1048576	18	4304
2026-01-25 11:45:21.18	229.71	21.54	-28.6	-30.2	16.2	0.00e+00	0	43	102	1048576	18	4347
2026-01-25 11:45:22.18	229.92	21.62	-28.4	-29.9	16.4	0.00e+00	0	43	102	1048576	18	4255
2026-01-25 11:45:23.19	230.13	21.71	-28.4	-29.9	16.4	0.00e+00	0	44	102	1048576	18	4261
2026-01-25 11:45:24.19	230.34	21.79	-28.5	-30.1	16.3	0.00e+00	0	43	102	1048576	18	4322
2026-01-25 11:45:25.20	230.56	21.88	-28.6	-30.3	16.2	0.00e+00	0	43	102	1048576	18	4370
2026-01-25 11:45:26.21	230.78	21.96	-28.7	-30.6	16.0	0.00e+00	0	43	102	1048576	18	4466
2026-01-25 11:45:27.21	230.99	22.05	-28.8	-30.7	15.9	0.00e+00	0	44	102	1048576	18	4503
2026-01-25 11:45:28.22	231.21	22.13	-29.0	-31.2	15.7	0.00e+00	0	43	102	1048576	18	4642
2026-01-25 11:45:29.22	231.43	22.21	-29.2	-31.8	15.3	0.00e+00	0	43	102	1048576	18	4834
2026-01-25 11:45:30.22	231.65	22.30	-29.2	-31.7	15.4	0.00e+00	0	43	102	1048576	18	4792
2026-01-25 11:45:31.22	231.88	22.38	-29.3	-32.0	15.2	0.00e+00	0	44	102	1048576	18	4921
2026-01-25 11:45:32.23	232.10	22.46	-29.2	-31.8	15.3	0.00e+00	0	44	102	1048576	18	4849
2026-01-25 11:45:33.23	232.32	22.55	-29.2	-31.7	15.3	0.00e+00	0	43	102	1048576	18	4821
2026-01-25 11:45:34.24	232.55	22.63	-29.3	-31.9	15.3	0.00e+00	0	44	102	1048576	18	4868
2026-01-25 11:45:35.24	232.78	22.71	-29.2	-31.8	15.3	0.00e+00	0	44	102	1048576	18	4843
2026-01-25 11:45:36.24	233.00	22.79	-29.2	-31.7	15.4	0.00e+00	0	43	102	1048576	18	4807
2026-01-25 11:45:37.24	233.23	22.88	-29.2	-31.8	15.3	0.00e+00	0	44	102	1048576	18	4828
2026-01-25 11:45:38.25	233.46	22.96	-29.3	-31.9	15.3	0.00e+00	0	44	102	1048576	18	4848
2026-01-25 11:45:39.25	233.69	23.04	-29.3	-32.0	15.2	0.00e+00	0	44	102	1048576	18	4881
2026-01-25 11:45:40.26	233.93	23.12	-29.3	-31.8	15.3	0.00e+00	0	43	102	1048576	18	4845
2026-01-25 11:45:41.27	234.16	23.20	-29.4	-32.1	15.2	0.00e+00	0	44	102	1048576	18	4913
2026-01-25 11:45:42.27	234.40	23.28	-29.5	-31.9	15.0	0.00e+00	0	44	102	1048576	19	4764
2026-01-25 11:45:43.28	234.63	23.37	-29.4	-31.8	15.1	3.00e-06	0	43	102	1048576	19	4706
2026-01-25 11:45:44.29	234.87	23.45	-29.5	-31.9	15.0	0.00e+00	0	44	102	1048576	19	4750
2026-01-25 11:45:45.29	235.11	23.53	-29.5	-31.9	15.0	7.00e-07	0	43	102	1048576	19	4739
2026-01-25 11:45:46.30	235.35	23.61	-29.6	-32.2	14.8	0.00e+00	0	44	102	1048576	19	4849
2026-01-25 11:45:47.29	235.59	23.69	-29.7	-32.3	14.7	7.00e-07	0	43	102	1048576	19	4891
2026-01-25 11:45:48.29	235.83	23.77	-29.7	-32.5	14.6	0.00e+00	0	43	102	1048576	19	4962
2026-01-25 11:45:49.29	236.07	23.84	-29.9	-32.9	14.4	7.00e-07	0	44	102	1048576	19	5083
2026-01-25 11:45:50.29	236.32	23.92	-29.7	-32.3	14.7	0.00e+00	0	43	102	1048576	19	4893
2026-01-25 11:45:51.29	236.56	24.00	-29.6	-32.2	14.8	0.00e+00	0	44	102	1048576	19	4862
2026-01-25 11:45:52.29	236.81	24.08	-29.7	-32.3	14.7	0.00e+00	0	44	102	1048576	19	4894
2026-01-25 11:45:53.29	237.06	24.16	-29.8	-32.6	14.6	0.00e+00	0	44	102	1048576	19	4991
2026-01-25 11:45:54.30	237.31	24.24	-29.8	-32.5	14.6	0.00e+00	0	43	102	1048576	19	4966
2026-01-25 11:45:55.30	237.56	24.31	-29.8	-32.5	14.6	2.20e-06	0	43	102	1048576	19	4967
2026-01-25 11:45:56.30	237.81	24.39	-29.8	-32.5	14.6	7.00e-07	0	44	102	1048576	19	4965
2026-01-25 11:45:57.31	238.06	24.47	-29.8	-32.7	14.5	0.00e+00	0	44	102	1048576	19	5033
2026-01-25 11:45:58.32	238.32	24.54	-29.7	-32.3	14.8	3.80e-06	0	44	102	1048576	19	4882
2026-01-25 11:45:59.32	238.57	24.62	-29.7	-32.4	14.7	0.00e+00	0	44	102	1048576	19	4905
2026-01-25 11:46:00.32	238.83	24.70	-29.7	-32.4	14.7	0.00e+00	0	44	102	1048576	19	4918
2026-01-25 11:46:01.32	239.08	24.77	-29.7	-32.4	14.7	4.50e-06	0	44	102	1048576	19	4914
2026-01-25 11:46:02.33	239.34	24.85	-29.7	-32.5	14.7	0.00e+00	0	44	102	1048576	19	4941
2026-01-25 11:46:03.33	239.60	24.92	-29.7	-32.5	14.7	0.00e+00	0	43	102	1048576	19	4951
2026-01-25 11:46:04.34	239.87	24.99	-29.9	-32.9	14.4	6.10e-06	0	44	102	1048576	19	5083
2026-01-25 11:46:05.34	240.13	25.07	-29.9	-32.5	14.2	7.00e-07	0	44	102	1048576	20	4868
2026-01-25 11:46:06.35	240.39	25.14	-29.9	-32.5	14.3	1.50e-06	0	44	102	1048576	20	4855
2026-01-25 11:46:07.35	240.66	25.21	-29.9	-32.5	14.3	1.50e-06	0	44	102	1048576	20	4847
2026-01-25 11:46:08.36	240.93	25.29	-30.0	-32.7	14.2	1.50e-06	0	44	102	1048576	20	4926
2026-01-25 11:46:09.37	241.19	25.36	-30.1	-32.9	14.0	3.80e-06	0	43	102	1048576	20	4992
2026-01-25 11:46:10.37	241.46	25.43	-30.2	-33.2	13.9	1.50e-06	0	44	102	1048576	20	5076
2026-01-25 11:46:11.37	241.73	25.50	-30.3	-33.5	13.7	8.30e-06	0	44	102	1048576	20	5208
2026-01-25 11:46:12.37	242.00	25.57	-30.4	-33.8	13.5	1.14e-05	0	44	102	1048576	20	5308
2026-01-25 11:46:13.38	242.27	25.64	-30.5	-34.0	13.3	1.83e-05	0	44	102	1048576	20	5399
2026-01-25 11:46:14.38	242.55	25.71	-30.6	-33.9	13.1	1.52e-05	0	43	102	1048576	21	5233
2026-01-25 11:46:15.39	242.82	25.78	-30.7	-34.0	13.0	3.50e-05	0	44	102	1048576	21	5287
2026-01-25 11:46:16.39	243.10	25.85	-30.6	-33.8	13.1	4.11e-05	0	43	102	1048576	21	5216
2026-01-25 11:46:17.40	243.38	25.92	-30.7	-34.0	13.1	3.81e-05	0	44	102	1048576	21	5268
2026-01-25 11:46:18.40	243.65	25.98	-30.8	-34.3	12.8	4.57e-05	0	44	102	1048576	21	5410
2026-01-25 11:46:19.41	243.93	26.05	-30.9	-34.7	12.5	8.39e-05	0	44	102	1048576	21	5560
2026-01-25 11:46:20.41	244.21	26.12	-30.9	-34.6	12.6	9.15e-05	0	43	102	1048576	21	5542
2026-01-25 11:46:21.41	244.49	26.18	-30.9	-34.7	12.5	1.01e-04	0	43	102	1048576	21	5578
2026-01-25 11:46:22.42	244.78	26.25	-31.0	-34.8	12.5	1.06e-04	0	43	102	1048576	21	5629
2026-01-25 11:46:23.43	245.06	26.31	-31.0	-34.5	12.4	1.41e-04	0	44	102	1048576	22	5384
2026-01-25 11:46:24.43	245.35	26.38	-31.1	-34.8	12.2	2.04e-04	0	44	102	1048576	22	5513
2026-01-25 11:46:25.44	245.63	26.44	-31.2	-35.0	12.1	3.47e-04	0	44	102	1048576	22	5569
2026-01-25 11:46:26.45	245.92	26.51	-31.1	-34.8	12.2	2.27e-04	0	43	102	1048576	22	5482
2026-01-25 11:46:27.45	246.21	26.57	-31.2	-35.0	12.1	2.86e-04	0	43	102	1048576	22	5602
2026-01-25 11:46:28.46	246.50	26.63	-31.3	-35.2	11.9	3.76e-04	0	44	102	1048576	22	5685
2026-01-25 11:46:29.46	246.79	26.69	-31.3	-35.2	11.9	4.17e-04	0	44	102	1048576	22	5681
2026-01-25 11:46:30.47	247.08	26.75	-31.3	-35.4	11.8	4.52e-04	0	44	102	1048576	22	5772
2026-01-25 11:46:31.47	247.37	26.81	-31.3	-35.3	11.9	5.69e-04	0	43	102	1048576	22	5728
2026-01-25 11:46:32.46	247.66	26.87	-31.2	-34.9	12.1	3.76e-04	0	44	102	1048576	22	5543
2026-01-25 11:46:33.47	247.96	26.93	-31.1	-34.6	12.3	2.12e-04	0	44	102	1048576	22	5408
2026-01-25 11:46:34.48	248.26	26.99	-31.1	-34.7	12.3	1.91e-04	0	44	102	1048576	22	5449
2026-01-25 11:46:35.48	248.55	27.04	-31.1	-34.9	12.1	2.91e-04	0	44	102	1048576	22	5537
2026-01-25 11:46:36.48	248.85	27.10	-31.2	-34.9	12.1	2.37e-04	0	44	102	1048576	22	5550
2026-01-25 11:46:37.48	249.15	27.15	-31.2	-35.0	12.0	3.97e-04	0	43	102	1048576	22	5592
2026-01-25 11:46:38.49	249.45	27.21	-31.0	-34.5	12.4	2.39e-04	0	43	102	1048576	22	5384
2026-01-25 11:46:39.49	249.75	27.26	-31.0	-34.4	12.5	1.30e-04	0	44	102	1048576	22	5339
2026-01-25 11:46:40.49	250.05	27.32	-30.9	-34.2	12.6	8.46e-05	0	44	102	1048576	22	5268
2026-01-25 11:46:41.50	250.35	27.37	-30.9	-34.2	12.6	8.69e-05	0	44	102	1048576	22	5235
2026-01-25 11:46:42.50	250.66	27.42	-31.0	-34.5	12.4	1.01e-04	0	44	102	1048576	22	5388
2026-01-25 11:46:43.50	250.96	27.47	-31.1	-34.7	12.3	1.75e-04	0	44	102	1048576	22	5445
2026-01-25 11:46:44.51	251.27	27.52	-31.1	-34.8	12.2	2.20e-04	0	44	102	1048576	22	5484
2026-01-25 11:46:45.51	251.57	27.57	-31.1	-34.7	12.3	2.04e-04	0	44	102	1048576	22	5455
2026-01-25 11:46:46.52	251.88	27.62	-31.2	-34.9	12.1	2.14e-04	0	44	102	1048576	22	5535
2026-01-25 11:46:47.52	252.19	27.67	-31.2	-34.9	12.1	2.54e-04	0	44	102	1048576	22	5555
2026-01-25 11:46:48.53	252.50	27.72	-31.1	-34.8	12.2	2.35e-04	0	44	102	1048576	22	5494
2026-01-25 11:46:49.53	252.81	27.76	-31.2	-34.9	12.1	2.17e-04	0	43	102	1048576	22	5549
2026-01-25 11:46:50.53	253.12	27.81	-31.2	-35.1	12.0	3.77e-04	0	43	102	1048576	22	5625
2026-01-25 11:46:51.54	253.43	27.86	-31.1	-34.7	12.3	1.92e-04	0	43	102	1048576	22	5449
2026-01-25 11:46:52.54	253.74	27.90	-31.2	-35.1	12.0	2.35e-04	0	44	102	1048576	22	5620
2026-01-25 11:46:53.55	254.06	27.94	-31.4	-35.6	11.7	3.59e-04	0	44	102	1048576	22	5871
2026-01-25 11:46:54.54	254.37	27.98	-31.6	-35.7	11.2	1.17e-03	0	44	102	1048576	23	5775
2026-01-25 11:46:55.55	254.69	28.03	-31.7	-36.1	10.9	1.41e-03	0	44	102	1048576	23	5970
2026-01-25 11:46:56.55	255.00	28.07	-31.9	-36.6	10.6	3.65e-03	0	44	102	1048576	23	6232
2026-01-25 11:46:57.56	255.32	28.11	-31.9	-36.8	10.5	3.48e-03	0	44	102	1048576	23	6301
2026-01-25 11:46:58.56	255.64	28.15	-31.9	-36.8	10.4	5.31e-03	0	44	102	1048576	23	6303
2026-01-25 11:46:59.56	255.95	28.18	-31.7	-36.0	11.0	3.29e-03	0	44	102	1048576	23	5909
2026-01-25 11:47:00.57	256.28	28.22	-31.6	-35.7	11.3	1.29e-03	0	44	102	1048576	23	5761
2026-01-25 11:47:01.57	256.59	28.26	-31.5	-35.3	11.6	9.02e-04	0	44	102	1048576	23	5578
2026-01-25 11:47:02.58	256.92	28.29	-31.5	-35.3	11.5	7.51e-04	0	44	102	1048576	23	5604
2026-01-25 11:47:03.59	257.24	28.33	-31.4	-35.1	11.7	8.68e-04	0	44	102	1048576	23	5500
2026-01-25 11:47:04.59	257.56	28.36	-31.3	-34.7	12.0	3.36e-04	0	44	102	1048576	23	5329
2026-01-25 11:47:05.59	257.88	28.39	-31.2	-34.5	12.1	3.00e-04	0	44	102	1048576	23	5263
2026-01-25 11:47:06.60	258.21	28.43	-31.2	-34.6	12.0	3.55e-04	0	44	102	1048576	23	5308
2026-01-25 11:47:07.61	258.53	28.46	-31.2	-34.6	12.1	2.78e-04	0	44	102	1048576	23	5284
2026-01-25 11:47:08.60	258.85	28.49	-31.2	-34.6	12.0	2.54e-04	0	44	102	1048576	23	5294
2026-01-25 11:47:09.60	259.17	28.51	-31.2	-34.6	12.0	3.44e-04	0	44	102	1048576	23	5284
2026-01-25 11:47:10.61	259.50	28.54	-31.2	-34.6	12.1	3.13e-04	0	44	102	1048576	23	5307
2026-01-25 11:47:11.62	259.83	28.57	-31.3	-34.8	11.9	3.07e-04	0	44	102	1048576	23	5377
2026-01-25 11:47:12.62	260.15	28.60	-31.3	-34.9	11.7	4.67e-04	0	43	102	1048576	23	5441
2026-01-25 11:47:13.63	260.48	28.62	-31.5	-35.3	11.5	6.01e-04	0	44	102	1048576	23	5613
2026-01-25 11:47:14.63	260.81	28.65	-31.6	-35.6	11.3	9.99e-04	0	44	102	1048576	23	5749
2026-01-25 11:47:15.63	261.14	28.67	-31.6	-35.8	11.2	1.39e-03	0	44	102	1048576	23	5824
2026-01-25 11:47:16.64	261.47	28.69	-31.6	-35.9	11.1	1.44e-03	0	44	102	1048576	23	5884
2026-01-25 11:47:17.65	261.80	28.71	-31.7	-36.0	11.0	1.69e-03	0	44	102	1048576	23	5911
2026-01-25 11:47:18.65	262.13	28.73	-31.6	-35.6	11.2	1.72e-03	0	44	102	1048576	23	5742
2026-01-25 11:47:19.66	262.46	28.75	-31.6	-35.7	11.2	1.29e-03	0	44	102	1048576	23	5794
2026-01-25 11:47:20.66	262.79	28.77	-31.5	-35.4	11.4	1.01e-03	0	44	102	1048576	23	5659
2026-01-25 11:47:21.66	263.11	28.79	-31.3	-34.9	11.8	5.86e-04	0	44	102	1048576	23	5407
2026-01-25 11:47:22.67	263.45	28.80	-31.3	-34.8	11.9	4.41e-04	0	44	102	1048576	23	5400
2026-01-25 11:47:23.67	263.78	28.82	-31.4	-35.1	11.7	5.12e-04	0	44	102	1048576	23	5516
2026-01-25 11:47:24.67	264.11	28.83	-31.3	-34.8	11.9	5.44e-04	0	44	102	1048576	23	5378
2026-01-25 11:47:25.68	264.44	28.84	-31.3	-34.9	11.7	3.70e-04	0	44	102	1048576	23	5450
2026-01-25 11:47:26.68	264.77	28.86	-31.2	-34.5	12.1	5.23e-04	0	43	102	1048576	23	5252
2026-01-25 11:47:27.68	265.10	28.87	-31.1	-34.3	12.2	2.04e-04	0	43	102	1048576	23	5173
2026-01-25 11:47:28.69	265.43	28.88	-31.2	-34.4	12.1	2.63e-04	0	44	102	1048576	23	5240
2026-01-25 11:47:29.69	265.77	28.89	-31.3	-34.7	12.0	2.91e-04	0	44	102	1048576	23	5330
2026-01-25 11:47:30.69	266.10	28.89	-31.3	-34.9	11.8	4.29e-04	0	44	102	1048576	23	5439
2026-01-25 11:47:31.69	266.43	28.90	-31.3	-34.9	11.9	5.35e-04	0	44	102	1048576	23	5404
2026-01-25 11:47:32.70	266.76	28.91	-31.0	-33.9	12.5	2.15e-04	0	44	102	1048576	23	5020
2026-01-25 11:47:33.71	267.10	28.91	-30.8	-33.3	12.9	9.00e-05	0	43	102	1048576	23	4819
2026-01-25 11:47:34.72	267.43	28.92	-30.6	-33.2	13.3	1.75e-05	0	44	102	1048576	22	4872
2026-01-25 11:47:35.72	267.76	28.92	-30.6	-33.1	13.3	2.13e-05	0	43	102	1048576	22	4841
2026-01-25 11:47:36.73	268.10	28.92	-30.6	-33.3	13.2	1.90e-05	0	44	102	1048576	22	4916
2026-01-25 11:47:37.73	268.43	28.92	-30.9	-34.1	12.7	7.32e-05	0	44	102	1048576	22	5220
2026-01-25 11:47:38.74	268.77	28.92	-31.2	-35.1	12.0	2.03e-04	0	44	102	1048576	22	5601
2026-01-25 11:47:39.74	269.10	28.92	-31.3	-35.4	11.8	4.30e-04	0	44	102	1048576	22	5732
2026-01-25 11:47:40.75	269.43	28.92	-31.4	-35.6	11.6	6.34e-04	0	44	102	1048576	22	5858
2026-01-25 11:47:41.76	269.77	28.91	-31.4	-35.7	11.6	8.12e-04	0	44	102	1048576	22	5889
2026-01-25 11:47:42.77	270.10	28.91	-31.3	-35.2	11.9	5.03e-04	0	44	102	1048576	22	5659
2026-01-25 11:47:43.76	270.43	28.90	-31.2	-34.9	12.1	3.36e-04	0	44	102	1048576	22	5556
2026-01-25 11:47:44.77	270.76	28.90	-31.1	-34.8	12.1	2.75e-04	0	44	102	1048576	22	5514
2026-01-25 11:47:45.77	271.10	28.89	-31.2	-35.1	12.0	2.60e-04	0	44	102	1048576	22	5614
2026-01-25 11:47:46.77	271.43	28.88	-31.1	-34.7	12.2	3.65e-04	0	44	102	1048576	22	5436
2026-01-25 11:47:47.77	271.76	28.87	-31.1	-34.7	12.3	1.98e-04	0	44	102	1048576	22	5458
2026-01-25 11:47:48.78	272.09	28.86	-31.2	-34.9	12.1	2.42e-04	0	44	102	1048576	22	5528
2026-01-25 11:47:49.79	272.42	28.85	-31.2	-35.0	12.1	2.97e-04	0	44	102	1048576	22	5564
2026-01-25 11:47:50.79	272.75	28.84	-31.3	-35.3	11.9	4.06e-04	0	44	102	1048576	22	5715
2026-01-25 11:47:51.79	273.08	28.82	-31.4	-35.5	11.7	4.62e-04	0	44	102	1048576	22	5786
2026-01-25 11:47:52.79	273.41	28.81	-31.3	-35.3	11.8	6.03e-04	0	43	102	1048576	22	5699
2026-01-25 11:47:53.80	273.75	28.79	-31.1	-34.8	12.2	3.14e-04	0	44	102	1048576	22	5474
2026-01-25 11:47:54.80	274.08	28.78	-30.8	-33.9	12.8	1.03e-04	0	43	102	1048576	22	5147
2026-01-25 11:47:55.80	274.40	28.76	-30.6	-33.3	13.2	3.96e-05	0	44	102	1048576	22	4906
2026-01-25 11:47:56.81	274.73	28.74	-30.6	-33.1	13.3	1.37e-05	0	44	102	1048576	22	4850
2026-01-25 11:47:57.82	275.07	28.72	-30.6	-33.2	13.3	1.52e-05	0	44	102	1048576	22	4860
2026-01-25 11:47:58.82	275.39	28.70	-30.6	-33.4	13.2	2.59e-05	0	44	102	1048576	22	4936
2026-01-25 11:47:59.82	275.72	28.68	-30.8	-33.9	12.8	3.20e-05	0	44	102	1048576	22	5120
2026-01-25 11:48:00.82	276.05	28.66	-31.0	-34.4	12.5	1.27e-04	0	44	102	1048576	22	5346
2026-01-25 11:48:01.82	276.37	28.63	-31.2	-35.1	12.0	2.15e-04	0	44	102	1048576	22	5615
2026-01-25 11:48:02.82	276.70	28.61	-31.3	-35.3	11.8	3.97e-04	0	44	102	1048576	22	5720
2026-01-25 11:48:03.83	277.03	28.58	-31.3	-35.3	11.9	4.70e-04	0	44	102	1048576	22	5697
2026-01-25 11:48:04.83	277.35	28.56	-31.2	-35.1	12.1	3.43e-04	0	43	102	1048576	22	5611
2026-01-25 11:48:05.84	277.68	28.53	-31.1	-34.6	12.3	2.07e-04	0	43	102	1048576	22	5399
2026-01-25 11:48:06.84	278.00	28.50	-30.9	-34.0	12.8	9.38e-05	0	44	102	1048576	22	5169
2026-01-25 11:48:07.85	278.33	28.47	-30.9	-34.2	12.7	6.25e-05	0	44	102	1048576	22	5227
2026-01-25 11:48:08.86	278.65	28.44	-30.9	-34.1	12.7	9.15e-05	0	44	102	1048576	22	5212
2026-01-25 11:48:09.86	278.97	28.41	-31.1	-34.8	12.2	9.84e-05	0	44	102	1048576	22	5511
2026-01-25 11:48:10.87	279.30	28.38	-31.5	-35.5	11.4	7.70e-04	0	44	102	1048576	23	5692
2026-01-25 11:48:11.87	279.62	28.34	-31.8	-36.3	10.8	2.12e-03	0	44	102	1048576	23	6047
2026-01-25 11:48:12.88	279.94	28.31	-32.1	-36.8	10.0	4.61e-03	0	44	102	1048576	24	6233
2026-01-25 11:48:13.88	280.26	28.27	-32.0	-36.7	10.1	9.01e-03	0	44	102	1048576	24	6188
2026-01-25 11:48:14.89	280.58	28.24	-31.9	-36.2	10.5	5.05e-03	0	44	102	1048576	24	5916
2026-01-25 11:48:15.89	280.90	28.20	-31.7	-35.6	11.0	2.82e-03	0	43	102	1048576	24	5630
2026-01-25 11:48:16.90	281.22	28.16	-31.7	-35.5	11.1	1.68e-03	0	44	102	1048576	24	5560
2026-01-25 11:48:17.91	281.54	28.12	-31.8	-35.7	10.8	2.18e-03	0	44	102	1048576	24	5691
2026-01-25 11:48:18.91	281.85	28.09	-31.6	-35.2	11.2	1.78e-03	0	44	102	1048576	24	5468
2026-01-25 11:48:19.92	282.17	28.05	-31.7	-35.7	10.9	1.59e-03	0	44	102	1048576	24	5678
2026-01-25 11:48:20.92	282.48	28.00	-31.6	-35.3	11.1	1.75e-03	0	44	102	1048576	24	5485
2026-01-25 11:48:21.93	282.80	27.96	-31.4	-34.7	11.6	1.12e-03	0	44	102	1048576	24	5237
2026-01-25 11:48:22.93	283.11	27.92	-31.3	-34.4	11.8	8.06e-04	0	44	102	1048576	24	5102
2026-01-25 11:48:23.93	283.42	27.88	-31.3	-34.7	12.0	3.19e-04	0	44	102	1048576	23	5328
2026-01-25 11:48:24.94	283.73	27.83	-31.2	-34.5	12.1	3.50e-04	0	44	102	1048576	23	5271
2026-01-25 11:48:25.94	284.04	27.79	-31.2	-34.5	12.1	2.78e-04	0	44	102	1048576	23	5252
2026-01-25 11:48:26.95	284.36	27.74	-31.3	-34.7	12.0	3.46e-04	0	44	102	1048576	23	5340
2026-01-25 11:48:27.95	284.66	27.69	-31.5	-35.3	11.5	6.96e-04	0	44	102	1048576	23	5613
2026-01-25 11:48:28.96	284.97	27.65	-31.4	-35.1	11.6	6.37e-04	0	44	102	1048576	23	5528
2026-01-25 11:48:29.96	285.28	27.60	-31.2	-34.5	12.1	4.16e-04	0	44	102	1048576	23	5254
2026-01-25 11:48:30.97	285.59	27.55	-31.1	-34.0	12.4	1.52e-04	0	44	102	1048576	23	5072
2026-01-25 11:48:31.96	285.89	27.50	-30.9	-33.5	12.8	6.71e-05	0	44	102	1048576	23	4872
2026-01-25 11:48:32.97	286.19	27.45	-30.7	-33.4	13.2	2.05e-05	0	44	102	1048576	22	4947
2026-01-25 11:48:33.97	286.50	27.40	-30.5	-33.0	13.5	1.98e-05	0	44	102	1048576	22	4781
2026-01-25 11:48:34.98	286.80	27.34	-30.6	-33.2	13.3	1.67e-05	0	44	102	1048576	22	4856
2026-01-25 11:48:35.99	287.10	27.29	-30.4	-32.7	13.6	9.10e-06	0	44	102	1048576	22	4688
2026-01-25 11:48:36.99	287.40	27.24	-30.1	-32.4	14.1	3.00e-06	0	44	102	1048576	21	4704
2026-01-25 11:48:37.99	287.70	27.18	-29.9	-32.0	14.3	1.50e-06	0	44	102	1048576	21	4577
2026-01-25 11:48:39.00	288.00	27.13	-29.9	-31.8	14.5	0.00e+00	0	44	102	1048576	21	4506
2026-01-25 11:48:40.01	288.30	27.07	-30.1	-32.4	14.1	7.00e-07	0	44	102	1048576	21	4691
2026-01-25 11:48:41.02	288.60	27.01	-29.9	-32.0	14.3	1.50e-06	0	44	102	1048576	21	4567
2026-01-25 11:48:42.02	288.89	26.96	-30.1	-32.5	14.0	7.00e-07	0	44	102	1048576	21	4735
2026-01-25 11:48:43.02	289.18	26.90	-30.1	-32.4	14.1	3.00e-06	0	44	102	1048576	21	4696
2026-01-25 11:48:44.02	289.48	26.84	-30.2	-32.7	13.9	6.80e-06	0	43	102	1048576	21	4803
2026-01-25 11:48:45.03	289.77	26.78	-30.1	-32.4	14.1	3.80e-06	0	44	102	1048576	21	4692
2026-01-25 11:48:46.03	290.06	26.72	-30.1	-32.6	14.0	3.80e-06	0	44	102	1048576	21	4762
2026-01-25 11:48:47.04	290.35	26.66	-30.3	-32.8	13.8	5.30e-06	0	44	102	1048576	21	4843
2026-01-25 11:48:48.04	290.64	26.60	-30.3	-32.9	13.7	3.00e-06	0	44	102	1048576	21	4880
2026-01-25 11:48:49.04	290.93	26.54	-30.2	-32.7	13.9	6.10e-06	0	44	102	1048576	21	4810
2026-01-25 11:48:50.04	291.21	26.48	-30.2	-32.6	14.0	4.50e-06	0	44	102	1048576	21	4768
2026-01-25 11:48:51.04	291.50	26.41	-30.2	-32.8	13.9	2.20e-06	0	44	102	1048576	21	4819
2026-01-25 11:48:52.04	291.78	26.35	-30.3	-33.1	13.6	9.10e-06	0	44	102	1048576	21	4944
2026-01-25 11:48:53.05	292.06	26.29	-30.2	-32.8	13.8	2.20e-06	0	44	102	1048576	21	4831
2026-01-25 11:48:54.06	292.35	26.22	-30.4	-33.1	13.6	3.00e-06	0	44	102	1048576	21	4952
2026-01-25 11:48:55.05	292.62	26.16	-30.2	-32.7	13.9	2.20e-06	0	44	102	1048576	21	4811
2026-01-25 11:48:56.06	292.91	26.09	-30.2	-32.6	14.0	2.20e-06	0	44	102	1048576	21	4758
2026-01-25 11:48:57.07	293.19	26.02	-30.1	-32.5	14.0	4.50e-06	0	44	102	1048576	21	4728
2026-01-25 11:48:58.08	293.47	25.96	-30.1	-32.5	14.1	1.50e-06	0	44	102	1048576	21	4743
2026-01-25 11:48:59.08	293.74	25.89	-30.2	-32.6	13.9	4.50e-06	0	44	102	1048576	21	4779
2026-01-25 11:49:00.08	294.01	25.82	-30.3	-33.1	13.6	6.10e-06	0	44	102	1048576	21	4926
2026-01-25 11:49:01.08	294.29	25.75	-30.2	-32.8	13.8	3.80e-06	0	44	102	1048576	21	4845
2026-01-25 11:49:02.09	294.56	25.68	-30.4	-33.2	13.6	7.60e-06	0	44	102	1048576	21	4963
2026-01-25 11:49:03.09	294.83	25.62	-30.4	-33.2	13.5	6.80e-06	0	44	102	1048576	21	4994
2026-01-25 11:49:04.10	295.10	25.54	-30.6	-33.8	13.2	1.67e-05	0	44	102	1048576	21	5202
2026-01-25 11:49:05.10	295.37	25.47	-30.6	-33.7	13.2	2.74e-05	0	44	102	1048576	21	5177
2026-01-25 11:49:06.10	295.64	25.40	-30.7	-34.0	13.0	3.50e-05	0	44	102	1048576	21	5269
2026-01-25 11:49:07.11	295.91	25.33	-30.4	-33.3	13.5	1.37e-05	0	44	102	1048576	21	5016
2026-01-25 11:49:08.12	296.18	25.26	-30.2	-32.7	13.9	6.80e-06	0	44	102	1048576	21	4800
2026-01-25 11:49:09.12	296.44	25.19	-30.1	-32.4	14.1	2.20e-06	0	44	102	1048576	21	4692
2026-01-25 11:49:10.12	296.70	25.12	-30.0	-32.3	14.1	7.00e-07	0	44	102	1048576	21	4653
2026-01-25 11:49:11.13	296.96	25.04	-30.0	-32.2	14.2	3.00e-06	0	44	102	1048576	21	4634
2026-01-25 11:49:12.13	297.22	24.97	-30.2	-32.6	14.0	1.50e-06	0	44	102	1048576	21	4747
2026-01-25 11:49:13.14	297.49	24.90	-30.3	-32.9	13.8	2.20e-06	0	44	102	1048576	21	4874
2026-01-25 11:49:14.14	297.74	24.82	-30.3	-32.9	13.8	3.80e-06	0	44	102	1048576	21	4860
2026-01-25 11:49:15.15	298.00	24.75	-30.4	-33.3	13.5	6.80e-06	0	44	102	1048576	21	5012
2026-01-25 11:49:16.15	298.26	24.67	-30.4	-33.1	13.6	6.10e-06	0	44	102	1048576	21	4943
2026-01-25 11:49:17.16	298.51	24.60	-30.4	-33.1	13.6	5.30e-06	0	44	102	1048576	21	4944
2026-01-25 11:49:18.16	298.77	24.52	-30.4	-33.4	13.4	9.10e-06	0	44	102	1048576	21	5051
2026-01-25 11:49:19.16	299.02	24.44	-30.4	-33.3	13.5	9.10e-06	0	44	102	1048576	21	5025
2026-01-25 11:49:20.17	299.27	24.37	-30.5	-33.5	13.3	1.67e-05	0	44	102	1048576	21	5095
2026-01-25 11:49:21.17	299.52	24.29	-30.4	-33.2	13.6	1.22e-05	0	43	102	1048576	21	4974
2026-01-25 11:49:22.18	299.77	24.21	-30.3	-33.0	13.7	2.20e-06	0	44	102	1048576	21	4902
2026-01-25 11:49:23.18	300.02	24.14	-30.3	-32.9	13.7	8.30e-06	0	44	102	1048576	21	4882
2026-01-25 11:49:24.18	300.26	24.06	-30.3	-32.9	13.7	9.90e-06	0	44	102	1048576	21	4888
2026-01-25 11:49:25.18	300.51	23.98	-30.0	-32.2	14.2	3.00e-06	0	44	102	1048576	21	4625
2026-01-25 11:49:26.18	300.75	23.90	-29.8	-31.7	14.5	7.00e-07	0	44	102	1048576	21	4474
2026-01-25 11:49:27.18	300.99	23.83	-29.8	-32.1	14.5	7.00e-07	0	44	102	1048576	20	4719
2026-01-25 11:49:28.18	301.23	23.75	-29.9	-32.3	14.4	0.00e+00	0	44	102	1048576	20	4780
2026-01-25 11:49:29.18	301.47	23.67	-29.9	-32.3	14.4	7.00e-07	0	44	102	1048576	20	4787
2026-01-25 11:49:30.19	301.71	23.59	-30.0	-32.7	14.1	2.20e-06	0	44	102	1048576	20	4919
2026-01-25 11:49:31.20	301.95	23.51	-29.9	-32.5	14.3	7.00e-07	0	44	102	1048576	20	4837
2026-01-25 11:49:32.20	302.19	23.43	-29.9	-32.5	14.3	7.00e-07	0	44	102	1048576	20	4841
2026-01-25 11:49:33.21	302.43	23.35	-30.2	-33.2	13.8	3.00e-06	0	44	102	1048576	20	5086
2026-01-25 11:49:34.22	302.66	23.27	-30.3	-33.4	13.7	5.30e-06	0	44	102	1048576	20	5178
2026-01-25 11:49:35.22	302.90	23.19	-30.3	-33.5	13.6	9.10e-06	0	44	102	1048576	20	5218
2026-01-25 11:49:36.23	303.13	23.10	-30.2	-33.3	13.7	4.50e-06	0	44	102	1048576	20	5141
2026-01-25 11:49:37.23	303.36	23.02	-30.0	-32.7	14.1	2.20e-06	0	44	102	1048576	20	4909
2026-01-25 11:49:38.24	303.59	22.94	-29.8	-32.3	14.4	0.00e+00	0	44	102	1048576	20	4767
2026-01-25 11:49:39.24	303.82	22.86	-29.8	-32.1	14.5	0.00e+00	0	44	102	1048576	20	4702
2026-01-25 11:49:40.24	304.04	22.78	-29.8	-32.1	14.5	7.00e-07	0	44	102	1048576	20	4693
2026-01-25 11:49:41.23	304.27	22.70	-29.8	-32.1	14.5	0.00e+00	0	44	102	1048576	20	4723
2026-01-25 11:49:42.25	304.50	22.62	-30.0	-32.8	14.1	0.00e+00	0	44	102	1048576	20	4950
2026-01-25 11:49:43.24	304.72	22.53	-30.1	-32.9	14.0	0.00e+00	0	44	102	1048576	20	4995
2026-01-25 11:49:44.25	304.94	22.45	-30.1	-33.0	14.0	7.00e-07	0	44	102	1048576	20	5003
2026-01-25 11:49:45.25	305.16	22.37	-30.2	-33.2	13.8	6.80e-06	0	44	102	1048576	20	5111
2026-01-25 11:49:46.25	305.38	22.29	-29.9	-32.5	14.2	1.50e-06	0	44	102	1048576	20	4862
2026-01-25 11:49:47.26	305.60	22.20	-29.9	-32.5	14.3	7.00e-07	0	44	102	1048576	20	4844
2026-01-25 11:49:48.26	305.82	22.12	-30.1	-33.0	14.0	0.00e+00	0	44	102	1048576	20	5012
2026-01-25 11:49:49.27	306.04	22.04	-30.3	-33.6	13.6	7.60e-06	0	44	102	1048576	20	5230
2026-01-25 11:49:50.28	306.26	21.95	-30.6	-33.8	13.1	1.98e-05	0	44	102	1048576	21	5235
2026-01-25 11:49:51.28	306.47	21.87	-30.8	-34.5	12.6	5.34e-05	0	44	102	1048576	21	5506
2026-01-25 11:49:52.29	306.69	21.79	-30.9	-34.8	12.4	1.30e-04	0	44	102	1048576	21	5632
2026-01-25 11:49:53.29	306.90	21.70	-30.8	-34.5	12.6	9.46e-05	0	44	102	1048576	21	5504
2026-01-25 11:49:54.30	307.11	21.62	-30.7	-34.2	12.7	8.77e-05	0	44	102	1048576	21	5394
2026-01-25 11:49:55.31	307.32	21.53	-30.6	-33.9	12.9	6.25e-05	0	44	102	1048576	21	5271
2026-01-25 11:49:56.31	307.53	21.45	-30.4	-33.4	13.3	8.30e-06	0	44	102	1048576	21	5087
2026-01-25 11:49:57.31	307.74	21.37	-30.6	-33.9	12.9	3.43e-05	0	44	102	1048576	21	5278
2026-01-25 11:49:58.31	307.94	21.28	-30.8	-34.4	12.7	5.03e-05	0	44	102	1048576	21	5448
2026-01-25 11:49:59.31	308.15	21.20	-31.0	-34.6	12.2	2.01e-04	0	44	102	1048576	22	5431
2026-01-25 11:50:00.31	308.35	21.11	-31.1	-34.9	12.0	2.76e-04	0	44	102	1048576	22	5540
2026-01-25 11:50:01.31	308.56	21.03	-31.1	-34.8	12.1	2.84e-04	0	44	102	1048576	22	5509
2026-01-25 11:50:02.31	308.76	20.95	-31.0	-34.6	12.2	2.64e-04	0	44	102	1048576	22	5418
2026-01-25 11:50:03.32	308.96	20.86	-30.7	-33.6	12.9	1.05e-04	0	44	102	1048576	22	5023
2026-01-25 11:50:04.33	309.16	20.78	-30.5	-33.0	13.3	2.74e-05	0	44	102	1048576	22	4805
2026-01-25 11:50:05.33	309.36	20.69	-30.5	-33.0	13.3	2.28e-05	0	44	102	1048576	22	4815
2026-01-25 11:50:06.33	309.56	20.61	-30.5	-33.2	13.1	3.05e-05	0	44	102	1048576	22	4893
2026-01-25 11:50:07.33	309.75	20.52	-30.7	-33.8	12.7	4.50e-05	0	44	102	1048576	22	5107
2026-01-25 11:50:08.34	309.95	20.44	-30.9	-34.1	12.5	1.11e-04	0	44	102	1048576	22	5242
2026-01-25 11:50:09.34	310.15	20.35	-30.9	-34.2	12.5	1.20e-04	0	44	102	1048576	22	5257
2026-01-25 11:50:10.34	310.34	20.27	-30.8	-34.0	12.5	1.59e-04	0	44	102	1048576	22	5213
2026-01-25 11:50:11.34	310.53	20.18	-30.4	-32.9	13.3	5.56e-05	0	44	102	1048576	22	4793
2026-01-25 11:50:12.35	310.73	20.10	-30.1	-32.5	13.9	6.10e-06	0	44	102	1048576	21	4736
2026-01-25 11:50:13.34	310.91	20.01	-29.9	-32.0	14.2	0.00e+00	0	44	102	1048576	21	4586
2026-01-25 11:50:14.35	311.10	19.93	-30.1	-32.4	13.9	7.00e-07	0	44	102	1048576	21	4720
2026-01-25 11:50:15.35	311.29	19.84	-30.0	-32.3	14.0	3.00e-06	0	44	102	1048576	21	4689
2026-01-25 11:50:16.36	311.48	19.76	-30.2	-32.9	13.6	3.80e-06	0	44	102	1048576	21	4905
2026-01-25 11:50:17.36	311.67	19.67	-30.6	-33.9	13.0	1.83e-05	0	44	102	1048576	21	5252
2026-01-25 11:50:18.36	311.85	19.59	-30.8	-34.5	12.5	7.93e-05	0	43	102	1048576	21	5513
2026-01-25 11:50:19.37	312.04	19.50	-30.8	-34.6	12.4	1.44e-04	0	44	102	1048576	21	5570
2026-01-25 11:50:20.37	312.22	19.42	-30.6	-34.0	12.8	9.68e-05	0	44	102	1048576	21	5307
2026-01-25 11:50:21.38	312.41	19.33	-30.3	-33.2	13.4	2.51e-05	0	44	102	1048576	21	5005
2026-01-25 11:50:22.38	312.59	19.25	-30.2	-32.7	13.7	3.00e-06	0	44	102	1048576	21	4820
2026-01-25 11:50:23.39	312.77	19.16	-30.1	-32.5	13.8	3.00e-06	0	44	102	1048576	21	4768
2026-01-25 11:50:24.40	312.95	19.08	-30.2	-32.8	13.6	6.10e-06	0	44	102	1048576	21	4869
2026-01-25 11:50:25.41	313.13	18.99	-30.2	-32.8	13.6	3.80e-06	0	44	102	1048576	21	4868
2026-01-25 11:50:26.41	313.31	18.91	-30.4	-33.3	13.3	1.90e-05	0	44	102	1048576	21	5047
2026-01-25 11:50:27.42	313.49	18.82	-30.6	-33.9	12.9	3.66e-05	0	44	102	1048576	21	5277
2026-01-25 11:50:28.43	313.66	18.74	-30.8	-34.6	12.4	9.30e-05	0	44	102	1048576	21	5548
2026-01-25 11:50:29.43	313.84	18.65	-30.9	-34.8	12.2	1.98e-04	0	44	102	1048576	21	5640
2026-01-25 11:50:30.44	314.01	18.57	-30.8	-34.5	12.4	1.36e-04	0	44	102	1048576	21	5513
2026-01-25 11:50:31.44	314.19	18.48	-30.7	-34.3	12.6	1.07e-04	0	44	102	1048576	21	5443
2026-01-25 11:50:32.45	314.36	18.40	-30.7	-34.2	12.6	8.23e-05	0	44	102	1048576	21	5415
2026-01-25 11:50:33.46	314.53	18.31	-30.8	-34.5	12.4	1.20e-04	0	44	102	1048576	21	5518
2026-01-25 11:50:34.46	314.70	18.23	-30.9	-34.8	12.2	1.87e-04	0	44	102	1048576	21	5648
2026-01-25 11:50:35.46	314.87	18.14	-30.8	-34.7	12.3	2.20e-04	0	44	102	1048576	21	5599
2026-01-25 11:50:36.47	315.04	18.06	-30.9	-34.8	12.2	2.10e-04	0	44	102	1048576	21	5650
2026-01-25 11:50:37.47	315.21	17.98	-31.0	-34.8	11.9	2.69e-04	0	44	102	1048576	22	5522
2026-01-25 11:50:38.47	315.37	17.89	-31.1	-34.9	11.8	3.96e-04	0	44	102	1048576	22	5606
2026-01-25 11:50:39.48	315.54	17.81	-31.2	-35.2	11.6	7.60e-04	0	44	102	1048576	22	5697
2026-01-25 11:50:40.49	315.71	17.72	-31.2	-35.2	11.6	5.23e-04	0	44	102	1048576	22	5723
2026-01-25 11:50:41.49	315.87	17.64	-31.2	-35.3	11.5	1.32e-03	0	44	102	1048576	22	5776
2026-01-25 11:50:42.49	316.03	17.55	-30.9	-34.3	12.2	3.04e-04	0	44	102	1048576	22	5352
2026-01-25 11:50:43.49	316.19	17.47	-30.5	-33.3	12.9	8.46e-05	0	44	102	1048576	22	4950
2026-01-25 11:50:44.50	316.36	17.39	-30.4	-32.9	13.2	4.11e-05	0	44	102	1048576	22	4804
2026-01-25 11:50:45.50	316.52	17.30	-30.3	-32.7	13.3	1.75e-05	0	44	102	1048576	22	4716
2026-01-25 11:50:46.50	316.67	17.22	-30.3	-33.2	13.3	1.06e-05	0	44	102	1048576	21	5015
2026-01-25 11:50:47.51	316.83	17.13	-30.4	-33.5	13.1	2.74e-05	0	44	102	1048576	21	5124
2026-01-25 11:50:48.52	316.99	17.05	-30.6	-33.9	12.8	3.73e-05	0	44	102	1048576	21	5303
2026-01-25 11:50:49.52	317.15	16.97	-30.6	-34.0	12.8	6.71e-05	0	44	102	1048576	21	5309
2026-01-25 11:50:50.52	317.31	16.88	-30.5	-33.6	13.0	4.80e-05	0	44	102	1048576	21	5171
2026-01-25 11:50:51.52	317.46	16.80	-30.3	-33.1	13.3	3.58e-05	0	44	102	1048576	21	4982
2026-01-25 11:50:52.53	317.62	16.72	-30.2	-32.8	13.5	6.10e-06	0	44	102	1048576	21	4868
2026-01-25 11:50:53.53	317.77	16.63	-30.1	-32.6	13.6	6.80e-06	0	44	102	1048576	21	4803
2026-01-25 11:50:54.54	317.92	16.55	-30.1	-32.7	13.6	4.50e-06	0	44	102	1048576	21	4829
2026-01-25 11:50:55.54	318.07	16.47	-30.1	-32.5	13.7	1.14e-05	0	44	102	1048576	21	4771
2026-01-25 11:50:56.54	318.22	16.39	-30.1	-32.5	13.7	5.30e-06	0	44	102	1048576	21	4783
2026-01-25 11:50:57.55	318.38	16.30	-30.1	-32.6	13.6	9.90e-06	0	44	102	1048576	21	4813
2026-01-25 11:50:58.55	318.53	16.22	-30.0	-32.4	13.8	8.30e-06	0	44	102	1048576	21	4725
2026-01-25 11:50:59.54	318.67	16.14	-30.1	-32.6	13.6	6.10e-06	0	44	102	1048576	21	4803
2026-01-25 11:51:00.54	318.82	16.06	-30.1	-32.7	13.5	1.37e-05	0	44	102	1048576	21	4841
2026-01-25 11:51:01.55	318.97	15.97	-30.2	-32.8	13.5	5.30e-06	0	44	102	1048576	21	4859
2026-01-25 11:51:02.55	319.11	15.89	-30.3	-33.1	13.3	1.29e-05	0	44	102	1048576	21	4995
2026-01-25 11:51:03.55	319.26	15.81	-30.2	-32.9	13.4	2.59e-05	0	44	102	1048576	21	4914
2026-01-25 11:51:04.55	319.40	15.73	-30.1	-32.5	13.7	5.30e-06	0	44	102	1048576	21	4768
2026-01-25 11:51:05.56	319.55	15.65	-30.0	-32.5	13.7	7.60e-06	0	44	102	1048576	21	4761
2026-01-25 11:51:06.56	319.69	15.56	-30.0	-32.4	13.8	3.00e-06	0	44	102	1048576	21	4731
2026-01-25 11:51:07.56	319.83	15.48	-30.1	-32.6	13.6	2.20e-06	0	44	102	1048576	21	4789
2026-01-25 11:51:08.57	319.98	15.40	-30.0	-32.4	13.7	5.30e-06	0	44	102	1048576	21	4747
2026-01-25 11:51:09.58	320.12	15.32	-30.0	-32.4	13.7	8.30e-06	0	44	102	1048576	21	4741
2026-01-25 11:51:10.58	320.26	15.24	-30.2	-33.0	13.3	1.37e-05	0	44	102	1048576	21	4944
2026-01-25 11:51:11.59	320.40	15.16	-30.2	-32.8	13.4	2.21e-05	0	44	102	1048576	21	4872
2026-01-25 11:51:12.59	320.54	15.07	-30.0	-32.5	13.7	9.90e-06	0	44	102	1048576	21	4771
2026-01-25 11:51:13.60	320.68	14.99	-30.0	-32.3	13.8	2.20e-06	0	44	102	1048576	21	4711
2026-01-25 11:51:14.60	320.81	14.91	-30.0	-32.2	13.8	8.30e-06	0	44	102	1048576	21	4688
2026-01-25 11:51:15.60	320.95	14.83	-30.0	-32.5	13.6	1.22e-05	0	44	102	1048576	21	4781
2026-01-25 11:51:16.61	321.09	14.75	-30.2	-32.8	13.5	8.30e-06	0	44	102	1048576	21	4872
2026-01-25 11:51:17.61	321.22	14.67	-30.2	-32.9	13.3	1.83e-05	0	44	102	1048576	21	4923
2026-01-25 11:51:18.61	321.36	14.59	-30.2	-32.9	13.4	1.67e-05	0	44	102	1048576	21	4915
2026-01-25 11:51:19.62	321.49	14.51	-30.2	-33.0	13.3	1.98e-05	0	44	102	1048576	21	4947
2026-01-25 11:51:20.62	321.62	14.43	-30.2	-33.1	13.2	1.98e-05	0	44	102	1048576	21	4984
2026-01-25 11:51:21.62	321.76	14.35	-30.3	-33.1	13.2	2.05e-05	0	44	102	1048576	21	4998
2026-01-25 11:51:22.62	321.89	14.27	-30.3	-33.2	13.1	1.67e-05	0	44	102	1048576	21	5036
2026-01-25 11:51:23.63	322.02	14.19	-30.3	-33.2	13.1	3.66e-05	0	44	102	1048576	21	5050
2026-01-25 11:51:24.63	322.15	14.11	-30.3	-33.2	13.1	2.05e-05	0	44	102	1048576	21	5019
2026-01-25 11:51:25.63	322.28	14.03	-30.3	-33.1	13.2	2.44e-05	0	44	102	1048576	21	4999
2026-01-25 11:51:26.63	322.41	13.95	-30.3	-33.3	13.1	2.44e-05	0	44	102	1048576	21	5058
2026-01-25 11:51:27.64	322.54	13.87	-30.3	-33.2	13.1	3.50e-05	0	44	102	1048576	21	5046
2026-01-25 11:51:28.64	322.66	13.79	-30.2	-32.9	13.3	2.74e-05	0	44	102	1048576	21	4937
2026-01-25 11:51:29.65	322.79	13.71	-30.2	-33.1	13.2	2.13e-05	0	44	102	1048576	21	5004
2026-01-25 11:51:30.66	322.92	13.63	-30.3	-33.2	13.1	3.28e-05	0	44	102	1048576	21	5052
2026-01-25 11:51:31.65	323.04	13.56	-30.3	-33.2	13.1	3.58e-05	0	44	102	1048576	21	5043
2026-01-25 11:51:32.66	323.17	13.48	-30.3	-33.3	13.0	2.97e-05	0	44	102	1048576	21	5070
2026-01-25 11:51:33.66	323.29	13.40	-30.3	-33.3	13.0	3.35e-05	0	44	102	1048576	21	5076
2026-01-25 11:51:34.67	323.42	13.32	-30.2	-33.1	13.2	2.51e-05	0	44	102	1048576	21	4977
2026-01-25 11:51:35.67	323.54	13.24	-30.3	-33.2	13.0	2.36e-05	0	44	102	1048576	21	5053
2026-01-25 11:51:36.67	323.66	13.16	-30.2	-33.1	13.1	3.73e-05	0	44	102	1048576	21	4994
2026-01-25 11:51:37.67	323.79	13.09	-30.2	-33.1	13.1	1.22e-05	0	44	102	1048576	21	4995
2026-01-25 11:51:38.67	323.91	13.01	-30.3	-33.3	13.0	3.50e-05	0	44	102	1048576	21	5067
2026-01-25 11:51:39.67	324.03	12.93	-30.3	-33.2	13.1	3.20e-05	0	44	102	1048576	21	5033
2026-01-25 11:51:40.68	324.15	12.85	-30.4	-33.6	12.8	4.11e-05	0	44	102	1048576	21	5180
2026-01-25 11:51:41.67	324.27	12.78	-30.5	-33.9	12.5	9.38e-05	0	44	102	1048576	21	5326
2026-01-25 11:51:42.67	324.39	12.70	-30.6	-34.0	12.5	1.33e-04	0	44	102	1048576	21	5358
2026-01-25 11:51:43.68	324.50	12.62	-30.7	-34.4	12.2	1.96e-04	0	44	102	1048576	21	5505
2026-01-25 11:51:44.69	324.62	12.55	-30.7	-34.4	12.2	2.28e-04	0	44	102	1048576	21	5540
2026-01-25 11:51:45.69	324.74	12.47	-30.8	-34.8	12.0	2.98e-04	0	44	102	1048576	21	5681
2026-01-25 11:51:46.70	324.86	12.39	-30.9	-35.2	11.6	5.09e-04	0	44	102	1048576	21	5870
2026-01-25 11:51:47.70	324.97	12.32	-30.9	-35.2	11.6	6.90e-04	0	44	102	1048576	21	5865
2026-01-25 11:51:48.71	325.09	12.24	-31.0	-35.0	11.4	7.11e-04	0	44	102	1048576	22	5697
2026-01-25 11:51:49.70	325.20	12.16	-31.1	-35.2	11.3	1.18e-03	0	44	102	1048576	22	5780
2026-01-25 11:51:50.71	325.32	12.09	-31.1	-35.3	11.2	1.36e-03	0	44	102	1048576	22	5834
2026-01-25 11:51:51.72	325.43	12.01	-31.2	-35.6	10.9	1.73e-03	0	44	102	1048576	22	5976
2026-01-25 11:51:52.71	325.54	11.94	-31.2	-35.5	11.1	2.07e-03	0	44	102	1048576	22	5910
2026-01-25 11:51:53.72	325.66	11.86	-31.3	-35.7	10.9	1.96e-03	0	44	102	1048576	22	6021
2026-01-25 11:51:54.73	325.77	11.78	-31.2	-35.6	10.9	2.44e-03	0	44	102	1048576	22	5969
2026-01-25 11:51:55.73	325.88	11.71	-31.1	-35.3	11.2	1.64e-03	0	44	102	1048576	22	5811
2026-01-25 11:51:56.74	325.99	11.63	-31.1	-35.2	11.3	1.15e-03	0	44	102	1048576	22	5758
2026-01-25 11:51:57.74	326.10	11.56	-31.1	-35.1	11.3	1.22e-03	0	44	102	1048576	22	5715
2026-01-25 11:51:58.74	326.21	11.48	-31.0	-35.0	11.4	9.67e-04	0	44	102	1048576	22	5690
2026-01-25 11:51:59.75	326.32	11.41	-31.1	-35.1	11.3	1.17e-03	0	44	102	1048576	22	5752
2026-01-25 11:52:00.76	326.43	11.33	-31.0	-35.0	11.4	1.07e-03	0	44	102	1048576	22	5671
2026-01-25 11:52:01.76	326.54	11.26	-31.1	-35.3	11.2	1.15e-03	0	44	102	1048576	22	5817
2026-01-25 11:52:02.77	326.65	11.18	-31.1	-35.2	11.2	1.76e-03	0	44	102	1048576	22	5802
2026-01-25 11:52:03.76	326.76	11.11	-31.1	-35.1	11.3	1.14e-03	0	44	102	1048576	22	5729
2026-01-25 11:52:04.77	326.86	11.03	-31.2	-35.6	10.9	1.76e-03	0	44	102	1048576	22	5978
2026-01-25 11:52:05.76	326.97	10.96	-31.1	-35.3	11.1	2.45e-03	0	44	102	1048576	22	5845
2026-01-25 11:52:06.77	327.07	10.89	-31.0	-34.9	11.4	1.27e-03	0	44	102	1048576	22	5638
2026-01-25 11:52:07.78	327.18	10.81	-31.0	-35.0	11.4	9.55e-04	0	44	102	1048576	22	5671
2026-01-25 11:52:08.78	327.28	10.74	-30.9	-34.7	11.5	8.80e-04	0	44	102	1048576	22	5569
2026-01-25 11:52:09.78	327.39	10.67	-31.0	-35.0	11.4	6.87e-04	0	44	102	1048576	22	5685
2026-01-25 11:52:10.79	327.49	10.59	-31.0	-34.8	11.4	9.94e-04	0	44	102	1048576	22	5609
2026-01-25 11:52:11.79	327.60	10.52	-30.8	-34.5	11.7	6.48e-04	0	44	102	1048576	22	5464
2026-01-25 11:52:12.79	327.70	10.45	-30.9	-34.7	11.5	7.01e-04	0	44	102	1048576	22	5578
2026-01-25 11:52:13.80	327.80	10.37	-30.9	-34.5	11.7	8.21e-04	0	44	102	1048576	22	5473
2026-01-25 11:52:14.80	327.90	10.30	-30.8	-34.5	11.7	6.22e-04	0	44	102	1048576	22	5468
2026-01-25 11:52:15.81	328.00	10.23	-30.9	-34.6	11.5	7.54e-04	0	44	102	1048576	22	5536
2026-01-25 11:52:16.81	328.11	10.16	-30.9	-34.5	11.6	7.94e-04	0	44	102	1048576	22	5484
2026-01-25 11:52:17.81	328.21	10.08	-30.9	-34.8	11.4	9.39e-04	0	44	102	1048576	22	5625
2026-01-25 11:52:18.82	328.31	10.01	-31.0	-34.9	11.3	1.10e-03	0	44	102	1048576	22	5656
2026-01-25 11:52:19.83	328.41	9.94	-31.0	-35.0	11.2	1.19e-03	0	44	102	1048576	22	5724
2026-01-25 11:52:20.84	328.51	9.87	-31.0	-35.2	11.1	1.43e-03	0	44	102	1048576	22	5789
2026-01-25 11:52:21.84	328.60	9.79	-31.1	-35.2	11.1	1.71e-03	0	44	102	1048576	22	5812
2026-01-25 11:52:22.85	328.70	9.72	-31.0	-35.1	11.1	1.57e-03	0	44	102	1048576	22	5773
2026-01-25 11:52:23.85	328.80	9.65	-31.1	-35.4	10.9	1.88e-03	0	44	102	1048576	22	5888
2026-01-25 11:52:24.85	328.90	9.58	-31.0	-35.1	11.1	2.02e-03	0	44	102	1048576	22	5789
2026-01-25 11:52:25.86	328.99	9.51	-31.0	-35.2	11.0	1.75e-03	0	44	102	1048576	22	5824
2026-01-25 11:52:26.86	329.09	9.44	-31.0	-35.2	11.0	1.91e-03	0	44	102	1048576	22	5816
2026-01-25 11:52:27.87	329.19	9.37	-31.0	-35.0	11.2	1.44e-03	0	44	102	1048576	22	5730
2026-01-25 11:52:28.87	329.28	9.30	-31.0	-35.1	11.1	1.48e-03	0	44	102	1048576	22	5767
2026-01-25 11:52:29.87	329.38	9.22	-30.8	-34.6	11.5	1.47e-03	0	44	102	1048576	22	5528
2026-01-25 11:52:30.87	329.47	9.15	-30.7	-34.3	11.7	5.47e-04	0	44	102	1048576	22	5408
2026-01-25 11:52:31.86	329.56	9.08	-30.7	-34.2	11.7	5.83e-04	0	44	102	1048576	22	5366
2026-01-25 11:52:32.86	329.66	9.01	-30.7	-34.0	11.8	5.03e-04	0	44	102	1048576	22	5308
2026-01-25 11:52:33.87	329.75	8.94	-30.9	-34.8	11.2	6.22e-04	0	44	102	1048576	22	5623
2026-01-25 11:52:34.88	329.84	8.87	-30.7	-34.1	11.8	8.78e-04	0	44	102	1048576	22	5340
2026-01-25 11:52:35.88	329.93	8.80	-30.7	-34.1	11.8	4.32e-04	0	44	102	1048576	22	5323
2026-01-25 11:52:36.89	330.03	8.73	-30.6	-33.9	11.9	4.61e-04	0	44	102	1048576	22	5250
2026-01-25 11:52:37.90	330.12	8.66	-30.6	-33.9	11.8	4.49e-04	0	44	102	1048576	22	5284
2026-01-25 11:52:38.90	330.21	8.59	-30.6	-34.0	11.8	4.34e-04	0	44	102	1048576	22	5287
2026-01-25 11:52:39.91	330.30	8.52	-30.7	-34.2	11.6	6.62e-04	0	44	102	1048576	22	5409
2026-01-25 11:52:40.91	330.39	8.46	-30.7	-34.2	11.6	7.21e-04	0	44	102	1048576	22	5381
2026-01-25 11:52:41.91	330.48	8.39	-30.9	-35.0	11.0	1.21e-03	0	44	102	1048576	22	5744
2026-01-25 11:52:42.91	330.57	8.32	-30.8	-34.6	11.3	1.56e-03	0	44	102	1048576	22	5551
2026-01-25 11:52:43.92	330.66	8.25	-30.6	-34.1	11.6	8.46e-04	0	44	102	1048576	22	5355
2026-01-25 11:52:44.93	330.75	8.18	-30.7	-34.2	11.6	7.61e-04	0	44	102	1048576	22	5408
2026-01-25 11:52:45.93	330.84	8.11	-30.7	-34.4	11.4	9.37e-04	0	44	102	1048576	22	5499
2026-01-25 11:52:46.93	330.92	8.04	-30.8	-34.5	11.3	1.03e-03	0	44	102	1048576	22	5533
2026-01-25 11:52:47.94	331.01	7.97	-30.8	-34.5	11.3	1.06e-03	0	44	102	1048576	22	5534
2026-01-25 11:52:48.94	331.10	7.91	-30.8	-34.6	11.3	1.22e-03	0	44	102	1048576	22	5559
2026-01-25 11:52:49.95	331.19	7.84	-30.9	-35.0	10.9	1.38e-03	0	44	102	1048576	22	5762
2026-01-25 11:52:50.96	331.27	7.77	-30.9	-34.9	11.0	1.97e-03	0	44	102	1048576	22	5715
2026-01-25 11:52:51.96	331.36	7.70	-30.9	-34.9	11.0	1.82e-03	0	44	102	1048576	22	5705
2026-01-25 11:52:52.96	331.44	7.63	-31.0	-35.1	10.8	2.14e-03	0	44	102	1048576	22	5820
2026-01-25 11:52:53.97	331.53	7.57	-30.9	-35.0	10.9	2.39e-03	0	44	102	1048576	22	5779
2026-01-25 11:52:54.97	331.61	7.50	-31.0	-35.4	10.6	2.87e-03	0	44	102	1048576	22	5965
2026-01-25 11:52:55.98	331.70	7.43	-30.9	-35.1	10.8	3.27e-03	0	44	102	1048576	22	5826
2026-01-25 11:52:56.98	331.78	7.36	-30.9	-35.1	10.8	2.42e-03	0	44	102	1048576	22	5799
2026-01-25 11:52:57.99	331.87	7.30	-31.0	-35.5	10.4	3.96e-03	0	44	102	1048576	22	6042
2026-01-25 11:52:58.99	331.95	7.23	-30.9	-35.1	10.7	3.47e-03	0	44	102	1048576	22	5824
2026-01-25 11:52:59.99	332.03	7.16	-30.7	-34.5	11.2	1.78e-03	0	44	102	1048576	22	5542
2026-01-25 11:53:00.99	332.12	7.10	-30.8	-34.9	10.9	1.86e-03	0	44	102	1048576	22	5714
2026-01-25 11:53:01.99	332.20	7.03	-33.4	-47.5	3.8	1.46e+00	0	44	104	1048576	26	18359
2026-01-25 11:53:02.99	332.28	6.97	-33.7	-48.1	3.8	1.49e+00	0	44	104	1048576	27	18707
2026-01-25 11:53:03.99	332.36	6.90	-34.0	-48.4	3.8	1.49e+00	0	44	104	1048576	27	19076

#Closed at: 2026-01-25 11:53:04
#Recorded file [1 MB]: D:/data/31010_260125_144219.dat