passes_logs/2026/01/25/R2M6_AANII_01/R2M6_AANII_01__20260125_100054_NOAA_20_JPSS-1_rec.log

#Pass ID: 20260125_100054_NOAA 20 (JPSS-1)
#Satellite: NOAA 20 (JPSS-1)
#Configuration: NOAA 20
#almurnet v.1.7.20240730
#Start time: 2026-01-25 10:00:55

#Version: 2.2.20231116
#Station: R2M6_AANII_01
#Location: 30.233357 lon 59.946436 lat
#TLE: 1 43013U 17073A   26024.42258823  .00000183  00000+0  10747-3 0  9990
#TLE: 2 43013  98.7646 325.2629 0001105  25.8644 334.2587 14.19539754424075

#Time	Az	El	Level	Level2	SNR	BER	BlckErr	Temp	State	Recorded	gain1	gain2
2026-01-25 10:00:55.54	150.60	7.08	-30.7	-37.3	5.0	1.29e+00	0	41	0	0	22	7694
2026-01-25 10:00:56.55	150.58	7.15	-31.1	-38.3	4.9	1.33e+00	0	41	104	0	22	8253
2026-01-25 10:00:57.55	150.57	7.23	-31.2	-38.3	7.2	1.11e-01	0	41	0	0	22	8149
2026-01-25 10:00:58.56	150.56	7.31	-31.3	-38.3	7.3	1.29e-01	0	41	102	1048576	22	8057
2026-01-25 10:00:59.57	150.55	7.39	-31.2	-37.6	7.9	8.49e-02	0	41	102	1048576	22	7493
2026-01-25 10:01:00.57	150.53	7.47	-31.1	-36.9	8.5	5.44e-02	0	41	102	1048576	22	7074
2026-01-25 10:01:01.58	150.52	7.55	-30.9	-36.3	8.9	3.63e-02	0	41	102	1048576	22	6710
2026-01-25 10:01:02.58	150.51	7.63	-30.8	-36.0	9.2	2.14e-02	0	41	102	1048576	22	6547
2026-01-25 10:01:03.58	150.49	7.71	-30.7	-35.7	9.5	1.74e-02	0	42	102	1048576	22	6366
2026-01-25 10:01:04.59	150.48	7.79	-30.7	-35.8	9.3	1.63e-02	0	41	102	1048576	22	6476
2026-01-25 10:01:05.59	150.47	7.87	-30.7	-35.7	9.5	1.56e-02	0	41	102	1048576	22	6365
2026-01-25 10:01:06.60	150.46	7.95	-30.7	-35.6	9.5	1.69e-02	0	42	102	1048576	22	6358
2026-01-25 10:01:07.60	150.44	8.03	-30.5	-35.1	9.9	1.16e-02	0	42	102	1048576	22	6086
2026-01-25 10:01:08.61	150.43	8.11	-30.3	-34.5	10.3	5.69e-03	0	42	102	1048576	22	5816
2026-01-25 10:01:09.62	150.42	8.19	-30.1	-34.5	10.7	3.57e-03	0	42	102	1048576	21	5929
2026-01-25 10:01:10.62	150.40	8.27	-30.1	-34.4	10.8	2.41e-03	0	42	102	1048576	21	5865
2026-01-25 10:01:11.63	150.39	8.35	-30.3	-34.9	10.4	3.08e-03	0	42	102	1048576	21	6105
2026-01-25 10:01:12.63	150.37	8.44	-30.3	-34.8	10.5	4.32e-03	0	42	102	1048576	21	6046
2026-01-25 10:01:13.63	150.36	8.52	-30.2	-34.5	10.8	3.33e-03	0	42	102	1048576	21	5880
2026-01-25 10:01:14.63	150.35	8.60	-30.2	-34.5	10.8	2.30e-03	0	42	102	1048576	21	5893
2026-01-25 10:01:15.64	150.33	8.68	-30.2	-34.5	10.7	2.51e-03	0	42	102	1048576	21	5914
2026-01-25 10:01:16.64	150.32	8.77	-30.3	-34.9	10.4	3.39e-03	0	42	102	1048576	21	6093
2026-01-25 10:01:17.65	150.30	8.85	-30.4	-34.9	10.5	4.53e-03	0	42	102	1048576	21	6062
2026-01-25 10:01:18.66	150.29	8.93	-30.3	-34.4	10.9	2.22e-03	0	42	102	1048576	21	5797
2026-01-25 10:01:19.66	150.28	9.02	-30.2	-34.1	11.2	1.57e-03	0	42	102	1048576	21	5617
2026-01-25 10:01:20.67	150.26	9.10	-30.3	-34.2	11.2	1.41e-03	0	42	102	1048576	21	5649
2026-01-25 10:01:21.67	150.25	9.19	-30.2	-34.1	11.3	1.37e-03	0	42	102	1048576	21	5588
2026-01-25 10:01:22.67	150.23	9.27	-30.2	-34.0	11.3	1.06e-03	0	42	102	1048576	21	5566
2026-01-25 10:01:23.67	150.22	9.36	-30.2	-34.0	11.4	9.04e-04	0	42	102	1048576	21	5559
2026-01-25 10:01:24.67	150.20	9.44	-30.4	-34.4	11.1	1.20e-03	0	42	102	1048576	21	5726
2026-01-25 10:01:25.67	150.19	9.53	-30.4	-34.4	11.1	1.58e-03	0	42	102	1048576	21	5699
2026-01-25 10:01:26.67	150.17	9.61	-30.2	-33.8	11.5	9.84e-04	0	42	102	1048576	21	5473
2026-01-25 10:01:27.68	150.16	9.70	-30.0	-33.3	11.8	6.43e-04	0	42	102	1048576	21	5275
2026-01-25 10:01:28.68	150.14	9.78	-29.8	-32.9	12.1	3.45e-04	0	42	102	1048576	21	5158
2026-01-25 10:01:29.68	150.13	9.87	-29.8	-33.4	12.1	2.79e-04	0	42	102	1048576	20	5458
2026-01-25 10:01:30.69	150.11	9.96	-29.7	-33.3	12.1	2.39e-04	0	42	102	1048576	20	5433
2026-01-25 10:01:31.69	150.09	10.04	-29.7	-33.3	12.2	2.65e-04	0	42	102	1048576	20	5427
2026-01-25 10:01:32.70	150.08	10.13	-29.8	-33.5	12.0	2.49e-04	0	42	102	1048576	20	5511
2026-01-25 10:01:33.70	150.06	10.22	-29.7	-33.3	12.1	2.99e-04	0	42	102	1048576	20	5438
2026-01-25 10:01:34.71	150.05	10.31	-29.6	-33.2	12.2	1.86e-04	0	42	102	1048576	20	5394
2026-01-25 10:01:35.71	150.03	10.40	-29.6	-33.1	12.3	1.81e-04	0	42	102	1048576	20	5352
2026-01-25 10:01:36.71	150.01	10.49	-29.7	-33.2	12.2	1.88e-04	0	42	102	1048576	20	5414
2026-01-25 10:01:37.72	150.00	10.58	-29.6	-33.0	12.4	1.79e-04	0	42	102	1048576	20	5312
2026-01-25 10:01:38.72	149.98	10.67	-29.7	-33.0	12.4	1.14e-04	0	42	102	1048576	20	5318
2026-01-25 10:01:39.73	149.97	10.76	-29.7	-33.0	12.5	1.18e-04	0	42	102	1048576	20	5301
2026-01-25 10:01:40.73	149.95	10.85	-29.7	-33.0	12.5	1.14e-04	0	42	102	1048576	20	5275
2026-01-25 10:01:41.74	149.93	10.94	-29.7	-32.9	12.6	8.31e-05	0	43	102	1048576	20	5230
2026-01-25 10:01:42.73	149.92	11.03	-29.8	-33.1	12.5	9.38e-05	0	42	102	1048576	20	5295
2026-01-25 10:01:43.73	149.90	11.12	-29.8	-33.1	12.6	1.10e-04	0	42	102	1048576	20	5254
2026-01-25 10:01:44.73	149.88	11.21	-29.7	-32.8	12.7	9.53e-05	0	42	102	1048576	20	5157
2026-01-25 10:01:45.74	149.86	11.30	-29.7	-32.7	12.9	5.72e-05	0	42	102	1048576	20	5089
2026-01-25 10:01:46.75	149.85	11.39	-29.7	-32.7	12.9	4.34e-05	0	42	102	1048576	20	5082
2026-01-25 10:01:47.75	149.83	11.49	-29.7	-32.7	12.9	6.10e-05	0	42	102	1048576	20	5093
2026-01-25 10:01:48.76	149.81	11.58	-29.8	-32.9	12.8	4.34e-05	0	42	102	1048576	20	5152
2026-01-25 10:01:49.76	149.79	11.67	-29.7	-32.7	12.9	5.95e-05	0	42	102	1048576	20	5070
2026-01-25 10:01:50.76	149.78	11.77	-29.6	-32.5	13.1	3.43e-05	0	43	102	1048576	20	5005
2026-01-25 10:01:51.77	149.76	11.86	-29.7	-32.6	13.0	2.89e-05	0	43	102	1048576	20	5044
2026-01-25 10:01:52.78	149.74	11.96	-29.7	-32.8	12.9	4.88e-05	0	43	102	1048576	20	5115
2026-01-25 10:01:53.78	149.72	12.05	-29.8	-32.8	12.8	5.64e-05	0	43	102	1048576	20	5136
2026-01-25 10:01:54.79	149.70	12.15	-29.8	-32.9	12.8	4.50e-05	0	43	102	1048576	20	5170
2026-01-25 10:01:55.79	149.68	12.24	-29.8	-32.9	12.8	6.56e-05	0	43	102	1048576	20	5140
2026-01-25 10:01:56.79	149.66	12.34	-29.7	-32.8	12.9	4.65e-05	0	43	102	1048576	20	5099
2026-01-25 10:01:57.80	149.65	12.43	-29.7	-32.8	12.9	2.74e-05	0	43	102	1048576	20	5100
2026-01-25 10:01:58.80	149.63	12.53	-29.8	-32.9	12.8	6.63e-05	0	43	102	1048576	20	5162
2026-01-25 10:01:59.81	149.61	12.63	-29.7	-32.6	13.1	5.11e-05	0	43	102	1048576	20	5017
2026-01-25 10:02:00.80	149.59	12.72	-29.6	-32.3	13.3	2.51e-05	0	43	102	1048576	20	4921
2026-01-25 10:02:01.81	149.57	12.82	-29.6	-32.4	13.2	2.13e-05	0	43	102	1048576	20	4951
2026-01-25 10:02:02.81	149.55	12.92	-29.6	-32.4	13.3	1.83e-05	0	43	102	1048576	20	4964
2026-01-25 10:02:03.82	149.53	13.02	-29.7	-32.5	13.2	2.28e-05	0	43	102	1048576	20	5004
2026-01-25 10:02:04.82	149.51	13.12	-29.8	-32.9	13.0	3.12e-05	0	43	102	1048576	20	5127
2026-01-25 10:02:05.83	149.49	13.22	-29.8	-32.8	13.0	4.57e-05	0	43	102	1048576	20	5105
2026-01-25 10:02:06.84	149.47	13.32	-29.8	-32.8	13.0	2.97e-05	0	43	102	1048576	20	5090
2026-01-25 10:02:07.84	149.45	13.42	-29.7	-32.6	13.1	4.11e-05	0	43	102	1048576	20	5034
2026-01-25 10:02:08.85	149.43	13.52	-29.7	-32.6	13.2	2.74e-05	0	43	102	1048576	20	5011
2026-01-25 10:02:09.85	149.41	13.62	-29.7	-32.6	13.1	2.05e-05	0	43	102	1048576	20	5031
2026-01-25 10:02:10.86	149.39	13.72	-29.8	-32.8	13.0	2.97e-05	0	43	102	1048576	20	5136
2026-01-25 10:02:11.86	149.36	13.82	-29.7	-32.6	13.1	4.19e-05	0	43	102	1048576	20	5064
2026-01-25 10:02:12.86	149.34	13.92	-29.8	-33.1	12.8	4.88e-05	0	43	102	1048576	20	5242
2026-01-25 10:02:13.87	149.32	14.03	-29.6	-32.5	13.2	5.64e-05	0	43	102	1048576	20	5037
2026-01-25 10:02:14.88	149.30	14.13	-29.5	-32.1	13.4	2.28e-05	0	43	102	1048576	20	4886
2026-01-25 10:02:15.88	149.28	14.23	-29.4	-31.9	13.6	8.30e-06	0	43	102	1048576	20	4787
2026-01-25 10:02:16.88	149.26	14.34	-29.4	-31.9	13.7	9.10e-06	0	43	102	1048576	20	4756
2026-01-25 10:02:17.89	149.23	14.44	-29.5	-32.1	13.6	5.30e-06	0	43	102	1048576	20	4809
2026-01-25 10:02:18.89	149.21	14.55	-29.5	-32.0	13.7	9.10e-06	0	43	102	1048576	20	4776
2026-01-25 10:02:19.90	149.19	14.65	-29.5	-31.9	13.7	2.20e-06	0	43	102	1048576	20	4764
2026-01-25 10:02:20.90	149.17	14.76	-29.6	-32.3	13.5	8.30e-06	0	43	102	1048576	20	4888
2026-01-25 10:02:21.91	149.14	14.86	-29.6	-32.1	13.6	9.10e-06	0	43	102	1048576	20	4824
2026-01-25 10:02:22.91	149.12	14.97	-29.6	-32.2	13.6	8.30e-06	0	43	102	1048576	20	4845
2026-01-25 10:02:23.92	149.10	15.08	-29.8	-32.7	13.3	1.75e-05	0	43	102	1048576	20	5009
2026-01-25 10:02:24.93	149.07	15.19	-29.6	-32.2	13.6	2.36e-05	0	43	102	1048576	20	4845
2026-01-25 10:02:25.93	149.05	15.29	-29.6	-32.1	13.6	9.90e-06	0	43	102	1048576	20	4824
2026-01-25 10:02:26.93	149.03	15.40	-29.7	-32.5	13.4	1.37e-05	0	43	102	1048576	20	4949
2026-01-25 10:02:27.93	149.00	15.51	-29.6	-32.2	13.6	9.10e-06	0	43	102	1048576	20	4852
2026-01-25 10:02:28.93	148.98	15.62	-29.6	-32.2	13.6	9.90e-06	0	43	102	1048576	20	4855
2026-01-25 10:02:29.94	148.96	15.73	-29.7	-32.3	13.5	9.10e-06	0	43	102	1048576	20	4894
2026-01-25 10:02:30.94	148.93	15.84	-29.7	-32.5	13.4	6.10e-06	0	43	102	1048576	20	4964
2026-01-25 10:02:31.95	148.91	15.95	-29.8	-32.7	13.2	1.44e-05	0	43	102	1048576	20	5052
2026-01-25 10:02:32.95	148.88	16.06	-29.7	-32.5	13.4	1.67e-05	0	43	102	1048576	20	4964
2026-01-25 10:02:33.95	148.86	16.18	-29.5	-32.1	13.7	9.10e-06	0	43	102	1048576	20	4812
2026-01-25 10:02:34.95	148.83	16.29	-29.4	-31.6	14.0	6.10e-06	0	43	102	1048576	20	4657
2026-01-25 10:02:35.96	148.80	16.40	-29.3	-31.8	14.3	4.50e-06	0	43	102	1048576	19	4814
2026-01-25 10:02:36.97	148.78	16.52	-29.3	-31.8	14.3	7.00e-07	0	43	102	1048576	19	4815
2026-01-25 10:02:37.98	148.75	16.63	-29.3	-31.8	14.3	0.00e+00	0	43	102	1048576	19	4822
2026-01-25 10:02:38.98	148.73	16.74	-29.2	-31.6	14.4	7.00e-07	0	43	102	1048576	19	4744
2026-01-25 10:02:39.98	148.70	16.86	-29.3	-31.9	14.2	3.80e-06	0	43	102	1048576	19	4838
2026-01-25 10:02:40.99	148.67	16.98	-29.2	-31.5	14.5	0.00e+00	0	43	102	1048576	19	4691
2026-01-25 10:02:42.00	148.65	17.09	-29.2	-31.4	14.7	0.00e+00	0	43	102	1048576	19	4642
2026-01-25 10:02:43.00	148.62	17.21	-29.2	-31.4	14.6	0.00e+00	0	43	102	1048576	19	4652
2026-01-25 10:02:44.01	148.59	17.33	-29.2	-31.5	14.7	0.00e+00	0	43	102	1048576	19	4668
2026-01-25 10:02:45.00	148.56	17.44	-29.3	-31.6	14.6	0.00e+00	0	43	102	1048576	19	4706
2026-01-25 10:02:46.01	148.54	17.56	-29.4	-31.9	14.4	4.50e-06	0	43	102	1048576	19	4804
2026-01-25 10:02:47.00	148.51	17.68	-29.3	-31.7	14.5	7.00e-07	0	43	102	1048576	19	4734
2026-01-25 10:02:48.00	148.48	17.80	-29.4	-31.9	14.4	0.00e+00	0	43	102	1048576	19	4807
2026-01-25 10:02:49.01	148.45	17.92	-29.5	-32.2	14.2	0.00e+00	0	43	102	1048576	19	4919
2026-01-25 10:02:50.01	148.42	18.04	-29.3	-31.7	14.5	0.00e+00	0	43	102	1048576	19	4764
2026-01-25 10:02:51.01	148.39	18.16	-29.1	-31.3	14.8	7.00e-07	0	43	102	1048576	19	4608
2026-01-25 10:02:52.02	148.36	18.28	-29.0	-30.9	15.0	0.00e+00	0	43	102	1048576	19	4493
2026-01-25 10:02:53.02	148.34	18.41	-28.9	-30.7	15.2	0.00e+00	0	43	102	1048576	19	4412
2026-01-25 10:02:54.02	148.31	18.53	-28.9	-30.6	15.2	0.00e+00	0	43	102	1048576	19	4405
2026-01-25 10:02:55.03	148.28	18.65	-28.8	-30.5	15.3	0.00e+00	0	43	102	1048576	19	4365
2026-01-25 10:02:56.04	148.24	18.78	-28.9	-30.8	15.1	0.00e+00	0	43	102	1048576	19	4455
2026-01-25 10:02:57.05	148.21	18.90	-28.8	-30.6	15.3	0.00e+00	0	43	102	1048576	19	4385
2026-01-25 10:02:58.05	148.18	19.03	-28.8	-30.4	15.4	2.20e-06	0	43	102	1048576	19	4344
2026-01-25 10:02:59.06	148.15	19.16	-28.8	-30.5	15.3	0.00e+00	0	43	102	1048576	19	4374
2026-01-25 10:03:00.06	148.12	19.28	-28.8	-30.5	15.3	0.00e+00	0	43	102	1048576	19	4365
2026-01-25 10:03:01.07	148.09	19.41	-28.8	-30.5	15.3	5.30e-06	0	43	102	1048576	19	4375
2026-01-25 10:03:02.07	148.06	19.54	-29.0	-30.8	15.1	0.00e+00	0	43	102	1048576	19	4466
2026-01-25 10:03:03.07	148.02	19.67	-29.0	-30.8	15.1	0.00e+00	0	43	102	1048576	19	4467
2026-01-25 10:03:04.08	147.99	19.80	-28.9	-30.7	15.2	3.00e-06	0	43	102	1048576	19	4432
2026-01-25 10:03:05.09	147.96	19.93	-28.8	-30.4	15.4	0.00e+00	0	43	102	1048576	19	4329
2026-01-25 10:03:06.09	147.92	20.06	-28.8	-30.4	15.5	0.00e+00	0	43	102	1048576	19	4314
2026-01-25 10:03:07.09	147.89	20.19	-28.8	-30.4	15.4	2.20e-06	0	43	102	1048576	19	4331
2026-01-25 10:03:08.10	147.86	20.32	-28.7	-30.6	15.6	0.00e+00	0	43	102	1048576	18	4490
2026-01-25 10:03:09.10	147.82	20.45	-28.8	-30.7	15.5	0.00e+00	0	43	102	1048576	18	4522
2026-01-25 10:03:10.10	147.79	20.59	-29.0	-31.3	15.2	2.20e-06	0	43	102	1048576	18	4691
2026-01-25 10:03:11.10	147.75	20.72	-28.7	-30.6	15.6	0.00e+00	0	43	102	1048576	18	4492
2026-01-25 10:03:12.11	147.72	20.86	-28.6	-30.4	15.7	0.00e+00	0	43	102	1048576	18	4425
2026-01-25 10:03:13.12	147.68	20.99	-28.6	-30.3	15.9	0.00e+00	0	43	102	1048576	18	4377
2026-01-25 10:03:14.12	147.65	21.13	-28.7	-30.5	15.7	0.00e+00	0	43	102	1048576	18	4448
2026-01-25 10:03:15.12	147.61	21.27	-28.7	-30.6	15.7	0.00e+00	0	43	102	1048576	18	4479
2026-01-25 10:03:16.12	147.57	21.40	-28.7	-30.5	15.7	0.00e+00	0	43	102	1048576	18	4458
2026-01-25 10:03:17.11	147.54	21.54	-28.6	-30.4	15.8	0.00e+00	0	43	102	1048576	18	4420
2026-01-25 10:03:18.12	147.50	21.68	-28.6	-30.3	15.8	0.00e+00	0	43	102	1048576	18	4409
2026-01-25 10:03:19.12	147.46	21.82	-28.7	-30.5	15.7	0.00e+00	0	43	102	1048576	18	4466
2026-01-25 10:03:20.13	147.42	21.96	-28.6	-30.4	15.9	0.00e+00	0	43	102	1048576	18	4415
2026-01-25 10:03:21.13	147.39	22.10	-28.5	-30.1	16.0	0.00e+00	0	43	102	1048576	18	4342
2026-01-25 10:03:22.13	147.35	22.24	-28.5	-30.1	16.0	0.00e+00	0	43	102	1048576	18	4339
2026-01-25 10:03:23.14	147.31	22.39	-28.5	-30.2	16.0	0.00e+00	0	43	102	1048576	18	4366
2026-01-25 10:03:24.14	147.27	22.53	-28.5	-30.1	16.0	0.00e+00	0	43	102	1048576	18	4337
2026-01-25 10:03:25.15	147.23	22.68	-28.6	-30.3	16.0	0.00e+00	0	43	102	1048576	18	4389
2026-01-25 10:03:26.15	147.19	22.82	-28.6	-30.2	16.0	0.00e+00	0	43	102	1048576	18	4363
2026-01-25 10:03:27.16	147.15	22.97	-28.6	-30.4	15.9	0.00e+00	0	43	102	1048576	18	4430
2026-01-25 10:03:28.17	147.11	23.12	-28.6	-30.4	15.9	0.00e+00	0	43	102	1048576	18	4419
2026-01-25 10:03:29.18	147.06	23.27	-28.7	-30.5	15.8	0.00e+00	0	43	102	1048576	18	4458
2026-01-25 10:03:30.18	147.02	23.41	-28.7	-30.5	15.9	0.00e+00	0	43	102	1048576	18	4451
2026-01-25 10:03:31.19	146.98	23.56	-28.7	-30.6	15.8	0.00e+00	0	43	102	1048576	18	4486
2026-01-25 10:03:32.20	146.94	23.72	-28.7	-30.6	15.9	0.00e+00	0	43	102	1048576	18	4464
2026-01-25 10:03:33.20	146.89	23.87	-28.7	-30.5	15.9	0.00e+00	0	43	102	1048576	18	4445
2026-01-25 10:03:34.21	146.85	24.02	-28.7	-30.7	15.8	0.00e+00	0	43	102	1048576	18	4499
2026-01-25 10:03:35.21	146.80	24.17	-28.8	-30.9	15.7	7.00e-07	0	43	102	1048576	18	4568
2026-01-25 10:03:36.22	146.76	24.33	-28.9	-31.0	15.6	0.00e+00	0	43	102	1048576	18	4611
2026-01-25 10:03:37.22	146.71	24.48	-28.9	-31.2	15.5	0.00e+00	0	43	102	1048576	18	4651
2026-01-25 10:03:38.23	146.67	24.64	-29.1	-31.6	15.3	0.00e+00	0	43	102	1048576	18	4777
2026-01-25 10:03:39.22	146.62	24.79	-29.1	-31.6	15.3	0.00e+00	0	43	102	1048576	18	4776
2026-01-25 10:03:40.22	146.58	24.95	-29.3	-32.0	15.1	0.00e+00	0	43	102	1048576	18	4919
2026-01-25 10:03:41.23	146.53	25.11	-29.4	-32.2	14.9	7.00e-07	0	43	102	1048576	18	4998
2026-01-25 10:03:42.24	146.48	25.27	-29.4	-32.3	14.9	7.00e-07	0	43	102	1048576	18	5008
2026-01-25 10:03:43.24	146.43	25.43	-29.5	-32.0	14.8	0.00e+00	0	43	102	1048576	19	4796
2026-01-25 10:03:44.25	146.38	25.59	-29.6	-32.2	14.7	0.00e+00	0	43	102	1048576	19	4875
2026-01-25 10:03:45.25	146.34	25.76	-29.7	-32.6	14.4	7.00e-07	0	43	102	1048576	19	5009
2026-01-25 10:03:46.26	146.29	25.92	-29.8	-32.7	14.3	7.00e-07	0	43	102	1048576	19	5040
2026-01-25 10:03:47.27	146.24	26.08	-29.8	-32.8	14.3	0.00e+00	0	43	102	1048576	19	5061
2026-01-25 10:03:48.27	146.18	26.25	-29.9	-32.6	14.1	2.20e-06	0	43	102	1048576	20	4908
2026-01-25 10:03:49.28	146.13	26.42	-30.0	-32.8	14.0	3.80e-06	0	43	102	1048576	20	4950
2026-01-25 10:03:50.28	146.08	26.58	-30.1	-33.1	13.8	3.80e-06	0	43	102	1048576	20	5075
2026-01-25 10:03:51.29	146.03	26.75	-30.1	-33.1	13.8	9.90e-06	0	43	102	1048576	20	5073
2026-01-25 10:03:52.29	145.97	26.92	-30.2	-33.3	13.7	7.60e-06	0	43	102	1048576	20	5156
2026-01-25 10:03:53.30	145.92	27.09	-30.3	-33.5	13.6	1.06e-05	0	43	102	1048576	20	5230
2026-01-25 10:03:54.30	145.87	27.26	-30.3	-33.5	13.6	7.60e-06	0	43	102	1048576	20	5205
2026-01-25 10:03:55.30	145.81	27.44	-30.4	-33.7	13.5	1.06e-05	0	43	102	1048576	20	5294
2026-01-25 10:03:56.30	145.76	27.61	-30.5	-33.7	13.1	2.28e-05	0	43	102	1048576	21	5175
2026-01-25 10:03:57.30	145.70	27.78	-30.5	-33.6	13.2	2.67e-05	0	43	102	1048576	21	5133
2026-01-25 10:03:58.30	145.64	27.96	-30.7	-34.1	12.9	3.35e-05	0	43	102	1048576	21	5331
2026-01-25 10:03:59.30	145.59	28.13	-30.7	-34.2	12.8	4.65e-05	0	43	102	1048576	21	5378
2026-01-25 10:04:00.31	145.53	28.31	-30.9	-34.7	12.5	8.01e-05	0	43	102	1048576	21	5566
2026-01-25 10:04:01.31	145.47	28.49	-30.9	-34.9	12.4	1.42e-04	0	43	102	1048576	21	5660
2026-01-25 10:04:02.32	145.41	28.67	-31.1	-34.8	12.1	1.85e-04	0	43	102	1048576	22	5521
2026-01-25 10:04:03.32	145.35	28.85	-31.2	-35.1	11.9	3.17e-04	0	43	102	1048576	22	5652
2026-01-25 10:04:04.33	145.29	29.04	-31.3	-35.4	11.7	5.05e-04	0	43	102	1048576	22	5759
2026-01-25 10:04:05.33	145.23	29.22	-31.3	-35.4	11.7	6.26e-04	0	43	102	1048576	22	5797
2026-01-25 10:04:06.34	145.16	29.40	-31.4	-35.8	11.4	6.83e-04	0	43	102	1048576	22	5980
2026-01-25 10:04:07.34	145.10	29.59	-31.6	-36.0	11.0	1.50e-03	0	43	102	1048576	23	5924
2026-01-25 10:04:08.34	145.04	29.78	-31.8	-36.4	10.6	2.92e-03	0	43	102	1048576	23	6123
2026-01-25 10:04:09.35	144.97	29.97	-31.7	-36.0	11.0	2.16e-03	0	43	102	1048576	23	5944
2026-01-25 10:04:10.35	144.91	30.15	-31.6	-35.7	11.1	1.49e-03	0	43	102	1048576	23	5821
2026-01-25 10:04:11.36	144.84	30.35	-31.6	-35.8	11.1	1.41e-03	0	44	102	1048576	23	5832
2026-01-25 10:04:12.36	144.77	30.54	-31.6	-35.9	11.0	1.50e-03	0	43	102	1048576	23	5892
2026-01-25 10:04:13.37	144.70	30.73	-31.7	-36.1	10.9	1.91e-03	0	43	102	1048576	23	6011
2026-01-25 10:04:14.37	144.63	30.93	-31.7	-36.1	10.9	2.01e-03	0	43	102	1048576	23	6005
2026-01-25 10:04:15.37	144.56	31.12	-31.7	-36.3	10.8	2.50e-03	0	44	102	1048576	23	6071
2026-01-25 10:04:16.37	144.49	31.32	-31.8	-36.3	10.7	2.39e-03	0	43	102	1048576	23	6084
2026-01-25 10:04:17.38	144.42	31.52	-31.8	-36.6	10.7	3.49e-03	0	43	102	1048576	23	6199
2026-01-25 10:04:18.38	144.35	31.71	-31.9	-36.8	10.5	3.11e-03	0	43	102	1048576	23	6301
2026-01-25 10:04:19.38	144.28	31.91	-31.9	-36.3	10.4	4.87e-03	0	44	102	1048576	24	5963
2026-01-25 10:04:20.39	144.20	32.12	-31.9	-36.3	10.5	4.05e-03	0	43	102	1048576	24	5967
2026-01-25 10:04:21.39	144.13	32.32	-31.9	-36.4	10.4	4.27e-03	0	43	102	1048576	24	5998
2026-01-25 10:04:22.39	144.05	32.52	-32.0	-36.6	10.3	4.11e-03	0	43	102	1048576	24	6106
2026-01-25 10:04:23.39	143.97	32.73	-32.1	-36.8	10.2	6.40e-03	0	43	102	1048576	24	6195
2026-01-25 10:04:24.40	143.89	32.94	-32.0	-36.4	10.4	5.42e-03	0	43	102	1048576	24	6018
2026-01-25 10:04:25.40	143.82	33.15	-31.9	-36.2	10.5	4.32e-03	0	43	102	1048576	24	5925
2026-01-25 10:04:26.41	143.73	33.36	-31.9	-36.3	10.6	3.50e-03	0	43	102	1048576	24	5948
2026-01-25 10:04:27.41	143.65	33.57	-31.9	-36.3	10.6	3.87e-03	0	43	102	1048576	24	5960
2026-01-25 10:04:28.42	143.57	33.78	-32.1	-36.9	10.0	6.64e-03	0	44	102	1048576	24	6277
2026-01-25 10:04:29.43	143.49	34.00	-32.1	-37.0	10.0	7.83e-03	0	43	102	1048576	24	6320
2026-01-25 10:04:30.43	143.40	34.21	-32.1	-37.0	9.9	7.12e-03	0	43	102	1048576	24	6310
2026-01-25 10:04:31.44	143.31	34.43	-32.1	-37.0	10.0	9.63e-03	0	44	102	1048576	24	6287
2026-01-25 10:04:32.44	143.23	34.65	-32.0	-36.6	10.3	6.78e-03	0	43	102	1048576	24	6090
2026-01-25 10:04:33.44	143.14	34.87	-32.0	-36.4	10.4	3.65e-03	0	43	102	1048576	24	6006
2026-01-25 10:04:34.45	143.05	35.09	-31.9	-36.1	10.7	3.77e-03	0	43	102	1048576	24	5857
2026-01-25 10:04:35.45	142.96	35.31	-31.8	-35.8	11.0	2.18e-03	0	43	102	1048576	24	5684
2026-01-25 10:04:36.46	142.86	35.54	-31.8	-35.9	10.9	2.01e-03	0	43	102	1048576	24	5732
2026-01-25 10:04:37.47	142.77	35.77	-31.9	-36.2	10.7	2.35e-03	0	43	102	1048576	24	5867
2026-01-25 10:04:38.47	142.68	35.99	-31.9	-35.9	10.9	2.86e-03	0	43	102	1048576	24	5747
2026-01-25 10:04:39.48	142.58	36.22	-31.6	-35.1	11.5	1.44e-03	0	43	102	1048576	24	5372
2026-01-25 10:04:40.48	142.48	36.45	-31.4	-34.6	11.9	4.90e-04	0	43	102	1048576	24	5166
2026-01-25 10:04:41.48	142.38	36.68	-31.4	-34.4	12.0	3.95e-04	0	43	102	1048576	24	5081
2026-01-25 10:04:42.49	142.28	36.92	-31.4	-34.4	12.0	3.39e-04	0	44	102	1048576	24	5100
2026-01-25 10:04:43.49	142.18	37.15	-31.4	-34.5	11.9	3.62e-04	0	43	102	1048576	24	5150
2026-01-25 10:04:44.49	142.07	37.39	-31.4	-34.6	11.9	3.71e-04	0	43	102	1048576	24	5160
2026-01-25 10:04:45.49	141.97	37.63	-31.6	-34.9	11.7	4.69e-04	0	43	102	1048576	24	5309
2026-01-25 10:04:46.49	141.86	37.87	-31.5	-34.9	11.6	8.78e-04	0	43	102	1048576	24	5289
2026-01-25 10:04:47.51	141.75	38.11	-31.4	-34.4	12.0	3.69e-04	0	43	102	1048576	24	5104
2026-01-25 10:04:48.52	141.64	38.36	-31.5	-34.8	11.8	4.01e-04	0	44	102	1048576	24	5237
2026-01-25 10:04:49.52	141.53	38.60	-31.6	-35.1	11.5	6.88e-04	0	43	102	1048576	24	5366
2026-01-25 10:04:50.52	141.42	38.85	-31.8	-35.7	11.2	1.23e-03	0	43	102	1048576	24	5621
2026-01-25 10:04:51.53	141.30	39.10	-31.9	-36.1	10.8	2.46e-03	0	43	102	1048576	24	5842
2026-01-25 10:04:52.54	141.18	39.35	-32.1	-36.6	10.5	3.88e-03	0	44	102	1048576	24	6065
2026-01-25 10:04:53.54	141.06	39.60	-32.0	-36.5	10.5	4.28e-03	0	43	102	1048576	24	6007
2026-01-25 10:04:54.55	140.94	39.85	-31.9	-36.0	10.9	2.79e-03	0	43	102	1048576	24	5774
2026-01-25 10:04:55.55	140.82	40.11	-31.8	-35.7	11.1	2.05e-03	0	43	102	1048576	24	5651
2026-01-25 10:04:56.56	140.69	40.37	-31.7	-35.4	11.3	1.87e-03	0	43	102	1048576	24	5496
2026-01-25 10:04:57.56	140.57	40.62	-31.7	-35.3	11.4	9.70e-04	0	43	102	1048576	24	5446
2026-01-25 10:04:58.57	140.44	40.88	-31.8	-35.8	11.1	1.48e-03	0	44	102	1048576	24	5679
2026-01-25 10:04:59.57	140.30	41.15	-31.8	-35.7	11.1	2.10e-03	0	43	102	1048576	24	5633
2026-01-25 10:05:00.58	140.17	41.41	-31.7	-35.3	11.4	9.73e-04	0	44	102	1048576	24	5477
2026-01-25 10:05:01.57	140.04	41.67	-31.6	-35.1	11.7	6.87e-04	0	43	102	1048576	24	5377
2026-01-25 10:05:02.58	139.90	41.94	-31.7	-35.2	11.5	7.18e-04	0	44	102	1048576	24	5420
2026-01-25 10:05:03.58	139.76	42.21	-31.6	-35.2	11.5	7.77e-04	0	43	102	1048576	24	5401
2026-01-25 10:05:04.58	139.61	42.48	-31.5	-34.8	11.8	5.52e-04	0	44	102	1048576	24	5241
2026-01-25 10:05:05.58	139.47	42.75	-31.5	-34.6	11.9	4.11e-04	0	43	102	1048576	24	5164
2026-01-25 10:05:06.58	139.32	43.02	-31.4	-34.5	12.0	4.00e-04	0	43	102	1048576	24	5144
2026-01-25 10:05:07.58	139.17	43.30	-31.6	-35.0	11.7	4.26e-04	0	43	102	1048576	24	5341
2026-01-25 10:05:08.59	139.02	43.57	-31.5	-34.7	11.9	6.43e-04	0	43	102	1048576	24	5215
2026-01-25 10:05:09.59	138.86	43.85	-31.4	-34.3	12.2	3.18e-04	0	43	102	1048576	24	5033
2026-01-25 10:05:10.59	138.70	44.13	-31.2	-34.2	12.6	9.99e-05	0	43	102	1048576	23	5076
2026-01-25 10:05:11.60	138.54	44.42	-31.0	-33.6	13.0	7.32e-05	0	43	102	1048576	23	4886
2026-01-25 10:05:12.60	138.38	44.70	-30.9	-33.3	13.2	2.28e-05	0	43	102	1048576	23	4779
2026-01-25 10:05:13.61	138.21	44.99	-31.0	-33.6	13.0	2.44e-05	0	43	102	1048576	23	4895
2026-01-25 10:05:14.61	138.04	45.28	-30.9	-33.5	13.1	3.96e-05	0	43	102	1048576	23	4848
2026-01-25 10:05:15.62	137.86	45.57	-30.8	-33.8	13.3	1.44e-05	0	43	102	1048576	22	5049
2026-01-25 10:05:16.62	137.69	45.86	-30.7	-33.3	13.5	2.13e-05	0	43	102	1048576	22	4889
2026-01-25 10:05:17.61	137.51	46.15	-30.5	-32.8	13.9	3.80e-06	0	44	102	1048576	22	4703
2026-01-25 10:05:18.62	137.32	46.44	-30.6	-33.0	13.8	4.50e-06	0	43	102	1048576	22	4769
2026-01-25 10:05:19.62	137.14	46.74	-30.6	-33.1	13.7	3.00e-06	0	44	102	1048576	22	4803
2026-01-25 10:05:20.63	136.94	47.04	-30.7	-33.4	13.5	7.60e-06	0	43	102	1048576	22	4916
2026-01-25 10:05:21.63	136.75	47.34	-30.6	-33.1	13.7	6.10e-06	0	44	102	1048576	22	4794
2026-01-25 10:05:22.64	136.55	47.64	-30.6	-33.2	13.6	9.10e-06	0	43	102	1048576	22	4840
2026-01-25 10:05:23.65	136.35	47.95	-30.6	-33.2	13.6	5.30e-06	0	43	102	1048576	22	4839
2026-01-25 10:05:24.66	136.14	48.26	-30.7	-33.5	13.5	8.30e-06	0	44	102	1048576	22	4940
2026-01-25 10:05:25.66	135.93	48.56	-30.8	-33.6	13.5	1.29e-05	0	43	102	1048576	22	4958
2026-01-25 10:05:26.66	135.71	48.87	-30.7	-33.4	13.5	7.60e-06	0	43	102	1048576	22	4911
2026-01-25 10:05:27.66	135.49	49.18	-30.8	-33.5	13.5	9.90e-06	0	44	102	1048576	22	4935
2026-01-25 10:05:28.67	135.27	49.50	-30.7	-33.5	13.5	1.44e-05	0	44	102	1048576	22	4940
2026-01-25 10:05:29.68	135.04	49.81	-30.9	-34.0	13.2	1.29e-05	0	43	102	1048576	22	5132
2026-01-25 10:05:30.68	134.80	50.13	-30.6	-33.2	13.7	1.90e-05	0	43	102	1048576	22	4848
2026-01-25 10:05:31.69	134.56	50.45	-30.1	-32.4	14.4	1.50e-06	0	43	102	1048576	21	4696
2026-01-25 10:05:32.69	134.32	50.77	-29.7	-31.8	15.1	0.00e+00	0	44	102	1048576	20	4606
2026-01-25 10:05:33.70	134.07	51.09	-29.5	-31.3	15.4	7.00e-07	0	44	102	1048576	20	4442
2026-01-25 10:05:34.70	133.81	51.41	-29.5	-31.2	15.5	0.00e+00	0	44	102	1048576	20	4399
2026-01-25 10:05:35.71	133.55	51.74	-29.5	-31.4	15.4	0.00e+00	0	44	102	1048576	20	4468
2026-01-25 10:05:36.71	133.29	52.06	-29.4	-31.2	15.6	0.00e+00	0	43	102	1048576	20	4392
2026-01-25 10:05:37.72	133.01	52.39	-29.6	-31.6	15.3	0.00e+00	0	43	102	1048576	20	4521
2026-01-25 10:05:38.72	132.73	52.72	-29.6	-31.6	15.3	0.00e+00	0	44	102	1048576	20	4533
2026-01-25 10:05:39.72	132.45	53.05	-29.9	-32.2	15.0	0.00e+00	0	43	102	1048576	20	4714
2026-01-25 10:05:40.73	132.16	53.38	-29.9	-32.2	14.9	0.00e+00	0	43	102	1048576	20	4703
2026-01-25 10:05:41.74	131.86	53.72	-30.0	-32.4	14.9	0.00e+00	0	44	102	1048576	20	4754
2026-01-25 10:05:42.74	131.55	54.05	-29.8	-32.0	15.1	0.00e+00	0	44	102	1048576	20	4624
2026-01-25 10:05:43.74	131.24	54.38	-29.7	-31.7	15.3	0.00e+00	0	44	102	1048576	20	4521
2026-01-25 10:05:44.75	130.92	54.72	-29.8	-31.9	15.2	0.00e+00	0	44	102	1048576	20	4605
2026-01-25 10:05:45.75	130.59	55.06	-29.9	-32.3	15.0	0.00e+00	0	43	102	1048576	20	4718
2026-01-25 10:05:46.76	130.25	55.40	-30.1	-32.6	14.8	0.00e+00	0	44	102	1048576	20	4847
2026-01-25 10:05:47.76	129.91	55.74	-30.2	-32.9	14.6	0.00e+00	0	43	102	1048576	20	4941
2026-01-25 10:05:48.76	129.56	56.08	-30.5	-33.7	14.1	7.00e-07	0	43	102	1048576	20	5234
2026-01-25 10:05:49.77	129.19	56.43	-30.9	-34.4	13.3	9.10e-06	0	43	102	1048576	21	5385
2026-01-25 10:05:50.78	128.82	56.77	-31.0	-34.2	13.1	2.59e-05	0	43	102	1048576	22	5189
2026-01-25 10:05:51.77	128.45	57.11	-31.3	-34.8	12.7	6.48e-05	0	43	102	1048576	22	5430
2026-01-25 10:05:52.77	128.06	57.46	-31.7	-35.5	11.9	2.10e-04	0	43	102	1048576	23	5630
2026-01-25 10:05:53.77	127.66	57.80	-31.8	-35.9	11.6	7.02e-04	0	43	102	1048576	23	5807
2026-01-25 10:05:54.78	127.24	58.15	-31.7	-35.8	11.8	5.86e-04	0	43	102	1048576	23	5730
2026-01-25 10:05:55.79	126.82	58.50	-31.9	-36.3	11.4	5.90e-04	0	43	102	1048576	23	5950
2026-01-25 10:05:56.79	126.39	58.85	-31.8	-35.9	11.7	1.05e-03	0	44	102	1048576	23	5770
2026-01-25 10:05:57.80	125.94	59.20	-31.4	-34.6	12.5	1.76e-04	0	44	102	1048576	23	5227
2026-01-25 10:05:58.81	125.48	59.55	-31.0	-33.5	13.4	3.12e-05	0	44	102	1048576	23	4791
2026-01-25 10:05:59.81	125.01	59.90	-30.9	-33.2	13.5	1.06e-05	0	43	102	1048576	23	4708
2026-01-25 10:06:00.82	124.53	60.25	-31.0	-33.6	13.3	1.29e-05	0	43	102	1048576	23	4826
2026-01-25 10:06:01.82	124.04	60.60	-30.6	-32.9	14.0	6.80e-06	0	43	102	1048576	22	4706
2026-01-25 10:06:02.83	123.52	60.95	-30.0	-32.0	14.8	7.00e-07	0	44	102	1048576	21	4524
2026-01-25 10:06:03.83	123.00	61.29	-29.9	-31.6	15.1	7.00e-07	0	44	102	1048576	21	4390
2026-01-25 10:06:04.83	122.46	61.64	-30.0	-31.9	15.0	0.00e+00	0	44	102	1048576	21	4479
2026-01-25 10:06:05.83	121.91	61.99	-30.0	-32.0	14.9	0.00e+00	0	44	102	1048576	21	4523
2026-01-25 10:06:06.84	121.34	62.34	-30.1	-32.1	14.8	7.00e-07	0	44	102	1048576	21	4550
2026-01-25 10:06:07.84	120.75	62.68	-30.1	-32.2	14.7	0.00e+00	0	43	102	1048576	21	4581
2026-01-25 10:06:08.84	120.15	63.03	-29.7	-31.7	15.4	0.00e+00	0	43	102	1048576	20	4513
2026-01-25 10:06:09.85	119.53	63.38	-29.4	-30.9	15.8	0.00e+00	0	43	102	1048576	20	4294
2026-01-25 10:06:10.85	118.89	63.72	-29.4	-31.0	15.8	0.00e+00	0	43	102	1048576	20	4319
2026-01-25 10:06:11.86	118.22	64.06	-30.0	-32.5	15.0	0.00e+00	0	44	102	1048576	20	4774
2026-01-25 10:06:12.86	117.55	64.40	-30.3	-33.1	14.5	0.00e+00	0	44	102	1048576	20	4997
2026-01-25 10:06:13.87	116.84	64.74	-30.7	-33.8	13.9	2.20e-06	0	43	102	1048576	21	5122
2026-01-25 10:06:14.87	116.12	65.08	-31.2	-34.6	13.0	1.75e-05	0	43	102	1048576	22	5342
2026-01-25 10:06:15.87	115.38	65.41	-31.5	-35.0	12.3	1.50e-04	0	43	102	1048576	23	5403
2026-01-25 10:06:16.88	114.61	65.75	-31.4	-34.8	12.5	1.92e-04	0	43	102	1048576	23	5287
2026-01-25 10:06:17.88	113.83	66.07	-31.6	-35.1	12.2	1.84e-04	0	43	102	1048576	23	5440
2026-01-25 10:06:18.89	113.01	66.40	-31.8	-35.8	11.6	3.21e-04	0	43	102	1048576	23	5735
2026-01-25 10:06:19.89	112.17	66.72	-31.7	-35.2	11.9	8.60e-04	0	44	102	1048576	24	5374
2026-01-25 10:06:20.89	111.31	67.04	-31.8	-35.4	11.7	6.17e-04	0	44	102	1048576	24	5440
2026-01-25 10:06:21.91	110.40	67.36	-32.0	-36.1	11.3	7.63e-04	0	43	102	1048576	24	5724
2026-01-25 10:06:22.91	109.49	67.67	-32.0	-35.9	11.4	8.67e-04	0	44	102	1048576	24	5636
2026-01-25 10:06:23.92	108.53	67.98	-31.8	-35.4	11.7	7.86e-04	0	43	102	1048576	24	5447
2026-01-25 10:06:24.92	107.56	68.29	-31.6	-34.6	12.3	1.89e-04	0	43	102	1048576	24	5124
2026-01-25 10:06:25.92	106.56	68.58	-31.7	-35.0	12.1	2.27e-04	0	44	102	1048576	24	5281
2026-01-25 10:06:26.93	105.51	68.88	-31.5	-34.5	12.4	2.41e-04	0	44	102	1048576	24	5064
2026-01-25 10:06:27.94	104.44	69.17	-31.5	-34.4	12.4	1.61e-04	0	43	102	1048576	24	5032
2026-01-25 10:06:28.94	103.34	69.44	-31.7	-35.1	11.9	3.30e-04	0	43	102	1048576	24	5321
2026-01-25 10:06:29.95	102.20	69.72	-31.4	-34.2	12.6	2.14e-04	0	43	102	1048576	24	4974
2026-01-25 10:06:30.95	101.04	69.99	-31.1	-33.8	13.1	7.85e-05	0	43	102	1048576	23	4906
2026-01-25 10:06:31.96	99.84	70.25	-30.9	-33.2	13.6	7.60e-06	0	44	102	1048576	23	4690
2026-01-25 10:06:32.96	98.61	70.50	-30.9	-33.2	13.6	3.00e-06	0	43	102	1048576	23	4713
2026-01-25 10:06:33.97	97.33	70.75	-30.9	-33.8	13.6	9.90e-06	0	44	102	1048576	22	4996
2026-01-25 10:06:34.97	96.04	70.98	-30.8	-33.6	13.7	6.10e-06	0	43	102	1048576	22	4928
2026-01-25 10:06:35.98	94.69	71.21	-30.9	-33.7	13.6	9.10e-06	0	43	102	1048576	22	4970
2026-01-25 10:06:36.98	93.33	71.42	-30.9	-33.8	13.5	6.10e-06	0	43	102	1048576	22	5005
2026-01-25 10:06:37.99	91.92	71.63	-30.9	-33.8	13.5	9.10e-06	0	44	102	1048576	22	5025
2026-01-25 10:06:38.99	90.49	71.83	-31.4	-35.2	12.7	2.44e-05	0	44	102	1048576	22	5540
2026-01-25 10:06:40.00	89.01	72.02	-31.2	-34.6	13.0	6.86e-05	0	44	102	1048576	22	5305
2026-01-25 10:06:41.00	87.52	72.19	-30.8	-33.4	13.8	1.44e-05	0	44	102	1048576	22	4851
2026-01-25 10:06:42.00	85.99	72.35	-30.7	-33.3	13.8	5.30e-06	0	44	102	1048576	22	4831
2026-01-25 10:06:42.99	84.46	72.50	-31.2	-34.4	13.1	1.60e-05	0	44	102	1048576	22	5257
2026-01-25 10:06:44.00	82.86	72.64	-31.4	-35.2	12.6	3.73e-05	0	43	102	1048576	22	5551
2026-01-25 10:06:44.99	81.27	72.77	-31.8	-35.8	11.7	3.95e-04	0	43	102	1048576	23	5736
2026-01-25 10:06:46.00	79.62	72.88	-31.7	-35.4	12.0	4.82e-04	0	43	102	1048576	23	5556
2026-01-25 10:06:47.00	77.97	72.98	-31.5	-34.9	12.5	1.59e-04	0	44	102	1048576	23	5344
2026-01-25 10:06:48.01	76.29	73.07	-32.0	-36.0	11.4	2.11e-04	0	44	102	1048576	24	5697
2026-01-25 10:06:49.02	74.58	73.14	-32.3	-37.0	10.6	3.20e-03	0	43	102	1048576	24	6178
2026-01-25 10:06:50.02	72.88	73.20	-32.3	-36.7	10.8	3.37e-03	0	43	102	1048576	24	6026
2026-01-25 10:06:51.03	71.15	73.24	-32.3	-36.8	10.9	2.07e-03	0	43	102	1048576	24	6049
2026-01-25 10:06:52.04	69.42	73.27	-32.6	-37.4	10.0	5.53e-03	0	44	102	1048576	25	6242
2026-01-25 10:06:53.04	67.69	73.29	-32.2	-35.9	11.2	3.04e-03	0	43	102	1048576	25	5539
2026-01-25 10:06:54.05	65.95	73.29	-31.9	-35.1	11.6	1.06e-03	0	43	102	1048576	25	5214
2026-01-25 10:06:55.05	64.23	73.27	-31.8	-35.2	11.9	5.06e-04	0	44	102	1048576	24	5358
2026-01-25 10:06:56.06	62.49	73.24	-31.4	-34.1	12.7	1.13e-04	0	43	102	1048576	24	4893
2026-01-25 10:06:57.06	60.78	73.20	-31.4	-34.1	12.7	7.17e-05	0	43	102	1048576	24	4920
2026-01-25 10:06:58.07	59.07	73.14	-31.4	-34.0	12.7	7.32e-05	0	43	102	1048576	24	4868
2026-01-25 10:06:59.07	57.38	73.07	-31.6	-34.7	12.4	1.01e-04	0	43	102	1048576	24	5121
2026-01-25 10:07:00.07	55.71	72.98	-31.1	-33.6	13.4	3.12e-05	0	44	102	1048576	23	4839
2026-01-25 10:07:01.07	54.06	72.88	-30.5	-32.7	14.4	4.50e-06	0	44	102	1048576	22	4614
2026-01-25 10:07:02.08	52.41	72.77	-30.5	-32.7	14.3	0.00e+00	0	44	102	1048576	22	4628
2026-01-25 10:07:03.08	50.81	72.64	-30.4	-32.5	14.4	1.50e-06	0	43	102	1048576	22	4553
2026-01-25 10:07:04.09	49.21	72.50	-30.4	-32.3	14.6	3.00e-06	0	43	102	1048576	22	4499
2026-01-25 10:07:05.10	47.65	72.35	-30.4	-32.9	14.5	7.00e-07	0	43	102	1048576	21	4800
2026-01-25 10:07:06.10	46.12	72.19	-30.4	-32.8	14.4	0.00e+00	0	43	102	1048576	21	4783
2026-01-25 10:07:07.11	44.62	72.01	-30.6	-33.3	14.2	1.50e-06	0	43	102	1048576	21	4950
2026-01-25 10:07:08.11	43.15	71.83	-30.7	-33.8	13.9	1.50e-06	0	44	102	1048576	21	5138
2026-01-25 10:07:09.12	41.71	71.63	-30.9	-34.1	13.6	6.80e-06	0	43	102	1048576	21	5253
2026-01-25 10:07:10.12	40.32	71.42	-30.9	-34.3	13.6	4.50e-06	0	44	102	1048576	21	5292
2026-01-25 10:07:11.12	38.95	71.21	-31.6	-35.2	12.3	4.42e-05	0	44	102	1048576	23	5446
2026-01-25 10:07:12.13	37.61	70.98	-31.5	-34.9	12.4	1.60e-04	0	43	102	1048576	23	5319
2026-01-25 10:07:13.13	36.32	70.74	-31.3	-34.4	12.8	8.54e-05	0	43	102	1048576	23	5145
2026-01-25 10:07:14.14	35.04	70.50	-31.4	-34.6	12.8	5.18e-05	0	44	102	1048576	23	5193
2026-01-25 10:07:15.14	33.82	70.25	-31.3	-34.2	12.9	9.07e-05	0	44	102	1048576	23	5070
2026-01-25 10:07:16.14	32.62	69.99	-31.5	-34.9	12.4	7.01e-05	0	44	102	1048576	23	5326
2026-01-25 10:07:17.15	31.45	69.72	-31.7	-35.4	12.1	1.55e-04	0	43	102	1048576	23	5543
2026-01-25 10:07:18.15	30.33	69.45	-31.8	-35.9	11.8	3.17e-04	0	43	102	1048576	23	5755
2026-01-25 10:07:19.15	29.23	69.17	-32.1	-36.3	11.2	1.02e-03	0	44	102	1048576	24	5820
2026-01-25 10:07:20.16	28.16	68.88	-32.3	-37.1	10.6	2.58e-03	0	44	102	1048576	24	6230
2026-01-25 10:07:21.17	27.11	68.59	-32.3	-37.0	10.6	3.11e-03	0	43	102	1048576	24	6179
2026-01-25 10:07:22.17	26.11	68.29	-32.4	-37.0	10.2	6.22e-03	0	44	102	1048576	25	6064
2026-01-25 10:07:23.18	25.13	67.99	-32.4	-36.7	10.4	4.51e-03	0	43	102	1048576	25	5943
2026-01-25 10:07:24.18	24.19	67.68	-32.4	-36.8	10.3	4.47e-03	0	43	102	1048576	25	5969
2026-01-25 10:07:25.19	23.26	67.37	-32.2	-36.3	10.8	4.26e-03	0	44	102	1048576	25	5730
2026-01-25 10:07:26.19	22.38	67.06	-31.7	-35.0	12.0	7.79e-04	0	44	102	1048576	24	5282
2026-01-25 10:07:27.19	21.52	66.74	-31.6	-34.8	12.1	3.00e-04	0	44	102	1048576	24	5201
2026-01-25 10:07:28.20	20.67	66.41	-31.7	-34.9	12.2	2.84e-04	0	43	102	1048576	24	5243
2026-01-25 10:07:29.20	19.86	66.09	-31.4	-34.1	12.6	1.28e-04	0	44	102	1048576	24	4920
2026-01-25 10:07:30.21	19.07	65.76	-31.6	-34.6	12.4	9.68e-05	0	44	102	1048576	24	5126
2026-01-25 10:07:31.21	18.31	65.43	-31.6	-34.6	12.3	2.10e-04	0	44	102	1048576	24	5112
2026-01-25 10:07:32.22	17.56	65.09	-30.9	-33.2	13.6	5.30e-06	0	43	102	1048576	23	4697
2026-01-25 10:07:33.22	16.84	64.76	-30.9	-33.1	13.6	9.90e-06	0	44	102	1048576	23	4671
2026-01-25 10:07:34.23	16.14	64.42	-30.7	-33.3	13.8	3.00e-06	0	44	102	1048576	22	4854
2026-01-25 10:07:35.23	15.46	64.08	-30.4	-32.3	14.5	3.00e-06	0	44	102	1048576	22	4500
2026-01-25 10:07:36.24	14.80	63.74	-30.3	-32.2	14.6	0.00e+00	0	44	102	1048576	22	4491
2026-01-25 10:07:37.24	14.16	63.39	-30.2	-32.4	14.7	1.50e-06	0	43	102	1048576	21	4639
2026-01-25 10:07:38.25	13.54	63.05	-29.8	-31.4	15.3	0.00e+00	0	44	102	1048576	21	4320
2026-01-25 10:07:39.26	12.93	62.70	-29.5	-31.1	15.8	0.00e+00	0	44	102	1048576	20	4350
2026-01-25 10:07:40.26	12.34	62.36	-29.3	-31.1	16.2	0.00e+00	0	44	102	1048576	19	4439
2026-01-25 10:07:41.26	11.78	62.01	-29.1	-30.8	16.3	0.00e+00	0	43	102	1048576	19	4354
2026-01-25 10:07:42.26	11.23	61.66	-29.0	-30.6	16.4	0.00e+00	0	43	102	1048576	19	4289
2026-01-25 10:07:43.27	10.68	61.32	-29.3	-31.0	16.1	0.00e+00	0	44	102	1048576	19	4423
2026-01-25 10:07:44.28	10.16	60.96	-29.8	-32.4	15.3	0.00e+00	0	43	102	1048576	19	4857
2026-01-25 10:07:45.27	9.66	60.62	-30.6	-33.5	14.0	0.00e+00	0	44	102	1048576	21	5026
2026-01-25 10:07:46.28	9.16	60.27	-31.1	-34.4	13.2	1.29e-05	0	43	102	1048576	22	5233
2026-01-25 10:07:47.29	8.67	59.92	-31.4	-35.2	12.5	7.24e-05	0	44	102	1048576	22	5593
2026-01-25 10:07:48.30	8.20	59.57	-31.8	-35.8	11.8	1.20e-04	0	43	102	1048576	23	5722
2026-01-25 10:07:49.30	7.75	59.22	-32.1	-36.3	11.0	1.50e-03	0	43	102	1048576	24	5858
2026-01-25 10:07:50.31	7.30	58.87	-32.0	-36.0	11.2	1.28e-03	0	43	102	1048576	24	5739
2026-01-25 10:07:51.31	6.87	58.53	-32.3	-37.1	10.4	2.04e-03	0	43	102	1048576	24	6267
2026-01-25 10:07:52.32	6.45	58.18	-32.8	-38.4	9.0	1.53e-02	0	44	102	1048576	25	6837
2026-01-25 10:07:53.32	6.04	57.84	-32.6	-37.5	9.8	1.48e-02	0	43	102	1048576	25	6352
2026-01-25 10:07:54.32	5.64	57.49	-32.2	-36.3	10.6	5.91e-03	0	43	102	1048576	25	5758
2026-01-25 10:07:55.33	5.25	57.15	-31.9	-35.3	11.4	2.00e-03	0	43	102	1048576	25	5332
2026-01-25 10:07:56.33	4.87	56.80	-32.1	-35.9	11.0	1.45e-03	0	43	102	1048576	25	5586
2026-01-25 10:07:57.33	4.50	56.46	-32.3	-36.7	10.3	4.68e-03	0	43	102	1048576	25	5939
2026-01-25 10:07:58.34	4.14	56.12	-32.2	-36.1	10.8	3.81e-03	0	44	102	1048576	25	5688
2026-01-25 10:07:59.34	3.79	55.78	-32.0	-35.5	11.3	2.02e-03	0	44	102	1048576	25	5380
2026-01-25 10:08:00.35	3.44	55.44	-31.3	-33.9	12.7	3.13e-04	0	44	102	1048576	24	4851
2026-01-25 10:08:01.35	3.11	55.10	-30.9	-33.3	13.4	3.35e-05	0	44	102	1048576	23	4744
2026-01-25 10:08:02.36	2.78	54.76	-30.7	-33.3	13.7	6.80e-06	0	44	102	1048576	22	4834
2026-01-25 10:08:03.36	2.46	54.43	-30.6	-33.0	13.9	5.30e-06	0	44	102	1048576	22	4752
2026-01-25 10:08:04.36	2.15	54.09	-30.9	-33.9	13.3	9.10e-06	0	43	102	1048576	22	5071
2026-01-25 10:08:05.36	1.84	53.76	-31.4	-35.2	12.5	5.11e-05	0	44	102	1048576	22	5576
2026-01-25 10:08:06.36	1.55	53.43	-31.1	-34.4	13.0	4.88e-05	0	44	102	1048576	22	5253
2026-01-25 10:08:07.37	1.25	53.10	-30.7	-33.3	13.7	6.10e-06	0	44	102	1048576	22	4844
2026-01-25 10:08:08.37	0.97	52.77	-30.4	-32.6	14.2	2.20e-06	0	44	102	1048576	22	4604
2026-01-25 10:08:09.38	0.69	52.44	-30.2	-32.3	14.6	0.00e+00	0	43	102	1048576	21	4629
2026-01-25 10:08:10.39	0.41	52.11	-30.0	-31.8	14.9	0.00e+00	0	43	102	1048576	21	4464
2026-01-25 10:08:11.39	0.15	51.79	-30.0	-31.9	14.9	0.00e+00	0	44	102	1048576	21	4493
2026-01-25 10:08:12.39	359.89	51.47	-30.4	-33.0	14.2	7.00e-07	0	43	102	1048576	21	4860
2026-01-25 10:08:13.40	359.63	51.14	-30.7	-33.7	13.7	1.50e-06	0	44	102	1048576	21	5119
2026-01-25 10:08:14.40	359.39	50.82	-30.9	-34.3	13.4	6.10e-06	0	43	102	1048576	21	5334
2026-01-25 10:08:15.41	359.14	50.50	-31.1	-34.3	13.0	2.28e-05	0	43	102	1048576	22	5216
2026-01-25 10:08:16.41	358.90	50.19	-31.1	-34.4	13.1	2.36e-05	0	43	102	1048576	22	5255
2026-01-25 10:08:17.41	358.67	49.87	-31.1	-34.3	13.0	3.58e-05	0	44	102	1048576	22	5224
2026-01-25 10:08:18.42	358.44	49.56	-31.2	-34.7	12.7	4.04e-05	0	43	102	1048576	22	5386
2026-01-25 10:08:19.43	358.21	49.25	-31.5	-34.9	12.3	1.87e-04	0	43	102	1048576	23	5350
2026-01-25 10:08:20.44	357.99	48.93	-31.7	-35.5	11.9	2.79e-04	0	43	102	1048576	23	5617
2026-01-25 10:08:21.44	357.78	48.63	-31.7	-35.6	11.8	5.02e-04	0	44	102	1048576	23	5664
2026-01-25 10:08:22.45	357.57	48.32	-31.6	-35.3	12.0	3.65e-04	0	43	102	1048576	23	5516
2026-01-25 10:08:23.45	357.36	48.02	-31.5	-35.0	12.2	2.06e-04	0	44	102	1048576	23	5398
2026-01-25 10:08:24.46	357.16	47.71	-31.6	-35.3	12.0	2.10e-04	0	44	102	1048576	23	5533
2026-01-25 10:08:25.47	356.96	47.41	-31.4	-34.7	12.3	3.75e-04	0	43	102	1048576	23	5284
2026-01-25 10:08:26.48	356.76	47.11	-31.1	-34.0	12.8	5.41e-05	0	43	102	1048576	23	5006
2026-01-25 10:08:27.48	356.57	46.81	-31.1	-33.8	13.0	3.58e-05	0	44	102	1048576	23	4949
2026-01-25 10:08:28.48	356.38	46.51	-31.2	-34.1	12.8	3.58e-05	0	44	102	1048576	23	5038
2026-01-25 10:08:29.49	356.20	46.22	-31.2	-34.1	12.8	5.87e-05	0	44	102	1048576	23	5049
2026-01-25 10:08:30.49	356.02	45.93	-31.2	-34.1	12.8	7.09e-05	0	43	102	1048576	23	5031
2026-01-25 10:08:31.49	355.84	45.64	-31.3	-34.5	12.5	6.63e-05	0	43	102	1048576	23	5197
2026-01-25 10:08:32.50	355.67	45.35	-31.6	-35.4	11.9	2.54e-04	0	44	102	1048576	23	5596
2026-01-25 10:08:33.50	355.50	45.06	-31.7	-35.7	11.7	7.41e-04	0	43	102	1048576	23	5692
2026-01-25 10:08:34.51	355.33	44.77	-31.5	-35.2	12.0	4.80e-04	0	44	102	1048576	23	5510
2026-01-25 10:08:35.51	355.17	44.49	-31.5	-35.1	12.1	3.36e-04	0	44	102	1048576	23	5433
2026-01-25 10:08:36.51	355.01	44.21	-31.5	-35.2	12.0	2.79e-04	0	43	102	1048576	23	5497
2026-01-25 10:08:37.51	354.85	43.93	-31.7	-35.9	11.5	5.26e-04	0	43	102	1048576	23	5794
2026-01-25 10:08:38.52	354.69	43.65	-31.9	-36.2	11.2	6.25e-04	0	43	102	1048576	23	5957
2026-01-25 10:08:39.53	354.54	43.37	-32.1	-36.4	10.7	2.33e-03	0	44	102	1048576	24	5945
2026-01-25 10:08:40.53	354.39	43.10	-32.1	-36.6	10.5	3.16e-03	0	44	102	1048576	24	6057
2026-01-25 10:08:41.54	354.24	42.83	-32.1	-36.5	10.7	4.68e-03	0	44	102	1048576	24	5976
2026-01-25 10:08:42.54	354.10	42.56	-32.0	-36.1	10.9	2.11e-03	0	44	102	1048576	24	5801
2026-01-25 10:08:43.54	353.95	42.29	-32.0	-36.3	10.8	2.33e-03	0	44	102	1048576	24	5880
2026-01-25 10:08:44.55	353.81	42.02	-32.0	-36.1	11.0	2.41e-03	0	43	102	1048576	24	5805
2026-01-25 10:08:45.55	353.68	41.75	-31.8	-35.7	11.2	1.75e-03	0	43	102	1048576	24	5606
2026-01-25 10:08:46.56	353.54	41.49	-31.8	-35.6	11.3	9.44e-04	0	44	102	1048576	24	5559
2026-01-25 10:08:47.56	353.41	41.23	-31.9	-35.8	11.1	1.52e-03	0	44	102	1048576	24	5640
2026-01-25 10:08:48.57	353.28	40.96	-31.8	-35.5	11.4	1.38e-03	0	44	102	1048576	24	5503
2026-01-25 10:08:49.58	353.15	40.70	-31.8	-35.5	11.4	1.17e-03	0	44	102	1048576	24	5536
2026-01-25 10:08:50.58	353.02	40.45	-31.8	-35.7	11.3	1.12e-03	0	44	102	1048576	24	5600
2026-01-25 10:08:51.57	352.90	40.20	-32.0	-36.2	11.0	2.23e-03	0	44	102	1048576	24	5820
2026-01-25 10:08:52.58	352.77	39.94	-32.0	-36.2	10.9	2.32e-03	0	44	102	1048576	24	5840
2026-01-25 10:08:53.58	352.65	39.69	-32.0	-36.3	10.9	2.55e-03	0	43	102	1048576	24	5903
2026-01-25 10:08:54.59	352.53	39.44	-32.0	-36.2	10.8	3.46e-03	0	43	102	1048576	24	5852
2026-01-25 10:08:55.59	352.42	39.19	-32.0	-36.4	10.7	3.00e-03	0	44	102	1048576	24	5921
2026-01-25 10:08:56.60	352.30	38.94	-31.9	-36.0	11.0	2.54e-03	0	44	102	1048576	24	5748
2026-01-25 10:08:57.60	352.19	38.70	-32.1	-36.5	10.6	2.03e-03	0	43	102	1048576	24	6001
2026-01-25 10:08:58.60	352.08	38.45	-32.0	-36.3	10.7	4.29e-03	0	44	102	1048576	24	5897
2026-01-25 10:08:59.60	351.97	38.21	-31.8	-35.5	11.4	1.28e-03	0	44	102	1048576	24	5508
2026-01-25 10:09:00.61	351.86	37.97	-31.5	-34.7	11.9	6.45e-04	0	44	102	1048576	24	5191
2026-01-25 10:09:01.62	351.75	37.73	-31.3	-34.1	12.3	2.82e-04	0	44	102	1048576	24	4972
2026-01-25 10:09:02.62	351.65	37.49	-31.2	-34.3	12.6	1.24e-04	0	44	102	1048576	23	5128
2026-01-25 10:09:03.63	351.54	37.25	-31.1	-33.9	12.8	5.79e-05	0	44	102	1048576	23	4988
2026-01-25 10:09:04.64	351.44	37.02	-31.2	-34.2	12.6	6.86e-05	0	43	102	1048576	23	5095
2026-01-25 10:09:05.64	351.34	36.79	-31.1	-34.1	12.6	8.77e-05	0	44	102	1048576	23	5075
2026-01-25 10:09:06.65	351.24	36.55	-31.1	-34.1	12.7	9.07e-05	0	44	102	1048576	23	5047
2026-01-25 10:09:07.66	351.14	36.32	-31.0	-33.8	12.8	1.01e-04	0	44	102	1048576	23	4950
2026-01-25 10:09:08.66	351.05	36.10	-31.1	-33.9	12.8	5.41e-05	0	44	102	1048576	23	4974
2026-01-25 10:09:09.66	350.95	35.87	-31.1	-33.9	12.8	6.48e-05	0	44	102	1048576	23	4985
2026-01-25 10:09:10.66	350.86	35.64	-31.1	-34.1	12.7	9.07e-05	0	44	102	1048576	23	5052
2026-01-25 10:09:11.67	350.77	35.42	-31.2	-34.2	12.6	9.15e-05	0	44	102	1048576	23	5115
2026-01-25 10:09:12.67	350.68	35.20	-31.3	-34.5	12.3	1.73e-04	0	43	102	1048576	23	5233
2026-01-25 10:09:13.67	350.59	34.98	-31.3	-34.6	12.3	1.88e-04	0	44	102	1048576	23	5275
2026-01-25 10:09:14.67	350.50	34.76	-31.3	-34.6	12.3	1.91e-04	0	44	102	1048576	23	5275
2026-01-25 10:09:15.68	350.41	34.54	-31.3	-34.5	12.3	2.59e-04	0	44	102	1048576	23	5232
2026-01-25 10:09:16.69	350.33	34.32	-31.3	-34.6	12.3	1.72e-04	0	43	102	1048576	23	5268
2026-01-25 10:09:17.70	350.24	34.11	-31.2	-34.4	12.4	1.95e-04	0	43	102	1048576	23	5185
2026-01-25 10:09:18.70	350.16	33.89	-31.1	-34.1	12.6	1.22e-04	0	44	102	1048576	23	5059
2026-01-25 10:09:19.71	350.07	33.68	-31.2	-34.2	12.5	7.62e-05	0	44	102	1048576	23	5101
2026-01-25 10:09:20.71	349.99	33.47	-31.3	-34.4	12.4	1.21e-04	0	44	102	1048576	23	5198
2026-01-25 10:09:21.72	349.91	33.26	-31.4	-34.8	12.1	2.03e-04	0	44	102	1048576	23	5339
2026-01-25 10:09:22.73	349.83	33.05	-31.5	-35.2	11.9	3.74e-04	0	43	102	1048576	23	5500
2026-01-25 10:09:23.73	349.76	32.84	-31.5	-35.3	11.7	4.56e-04	0	43	102	1048576	23	5569
2026-01-25 10:09:24.73	349.68	32.64	-31.6	-35.5	11.6	4.81e-04	0	44	102	1048576	23	5631
2026-01-25 10:09:25.74	349.60	32.44	-31.6	-35.5	11.6	6.87e-04	0	44	102	1048576	23	5637
2026-01-25 10:09:26.74	349.53	32.23	-31.7	-36.0	11.3	1.09e-03	0	44	102	1048576	23	5872
2026-01-25 10:09:27.75	349.45	32.03	-31.8	-36.1	11.2	1.36e-03	0	44	102	1048576	23	5916
2026-01-25 10:09:28.75	349.38	31.83	-31.8	-36.3	11.0	1.51e-03	0	43	102	1048576	23	6011
2026-01-25 10:09:29.75	349.31	31.63	-31.9	-36.6	10.8	2.38e-03	0	44	102	1048576	23	6193
2026-01-25 10:09:30.76	349.24	31.44	-32.0	-36.4	10.6	3.27e-03	0	44	102	1048576	24	5957
2026-01-25 10:09:31.76	349.17	31.24	-32.0	-36.5	10.5	3.49e-03	0	44	102	1048576	24	6002
2026-01-25 10:09:32.77	349.10	31.04	-32.1	-36.6	10.4	5.10e-03	0	43	102	1048576	24	6075
2026-01-25 10:09:33.78	349.03	30.85	-32.0	-36.5	10.5	4.40e-03	0	44	102	1048576	24	6033
2026-01-25 10:09:34.79	348.96	30.66	-32.0	-36.4	10.6	3.78e-03	0	44	102	1048576	24	5959
2026-01-25 10:09:35.80	348.89	30.46	-31.9	-36.0	10.8	2.65e-03	0	44	102	1048576	24	5798
2026-01-25 10:09:36.81	348.83	30.27	-31.9	-35.9	10.9	2.27e-03	0	44	102	1048576	24	5736
2026-01-25 10:09:37.81	348.76	30.08	-31.8	-35.6	11.2	1.96e-03	0	44	102	1048576	24	5615
2026-01-25 10:09:38.82	348.70	29.90	-31.7	-35.4	11.3	1.27e-03	0	44	102	1048576	24	5495
2026-01-25 10:09:39.82	348.63	29.71	-31.8	-35.7	11.0	1.45e-03	0	43	102	1048576	24	5640
2026-01-25 10:09:40.83	348.57	29.52	-31.7	-35.3	11.3	1.31e-03	0	44	102	1048576	24	5471
2026-01-25 10:09:41.84	348.51	29.34	-31.8	-35.6	11.1	1.18e-03	0	44	102	1048576	24	5617
2026-01-25 10:09:42.84	348.45	29.16	-31.8	-35.6	11.1	1.77e-03	0	44	102	1048576	24	5599
2026-01-25 10:09:43.85	348.39	28.97	-31.7	-35.5	11.2	1.50e-03	0	44	102	1048576	24	5577
2026-01-25 10:09:44.85	348.33	28.79	-31.7	-35.3	11.3	1.18e-03	0	44	102	1048576	24	5489
2026-01-25 10:09:45.85	348.27	28.61	-31.6	-35.2	11.4	9.97e-04	0	44	102	1048576	24	5435
2026-01-25 10:09:46.85	348.21	28.44	-31.6	-34.9	11.7	8.39e-04	0	44	102	1048576	24	5297
2026-01-25 10:09:47.86	348.15	28.26	-31.4	-34.4	12.0	4.36e-04	0	44	102	1048576	24	5077
2026-01-25 10:09:48.86	348.10	28.08	-31.3	-34.2	12.1	3.26e-04	0	44	102	1048576	24	5038
2026-01-25 10:09:49.86	348.04	27.91	-31.2	-34.4	12.3	1.88e-04	0	44	102	1048576	23	5191
2026-01-25 10:09:50.87	347.98	27.73	-31.2	-34.3	12.4	1.46e-04	0	44	102	1048576	23	5161
2026-01-25 10:09:51.87	347.93	27.56	-31.2	-34.5	12.3	1.46e-04	0	44	102	1048576	23	5220
2026-01-25 10:09:52.88	347.87	27.39	-31.2	-34.2	12.4	1.46e-04	0	43	102	1048576	23	5142
2026-01-25 10:09:53.89	347.82	27.22	-31.1	-34.1	12.5	1.43e-04	0	44	102	1048576	23	5101
2026-01-25 10:09:54.89	347.77	27.05	-31.3	-34.7	12.1	1.47e-04	0	43	102	1048576	23	5317
2026-01-25 10:09:55.90	347.71	26.88	-31.3	-34.6	12.1	2.50e-04	0	43	102	1048576	23	5301
2026-01-25 10:09:56.90	347.66	26.71	-31.3	-34.6	12.2	2.27e-04	0	43	102	1048576	23	5276
2026-01-25 10:09:57.91	347.61	26.54	-31.3	-34.7	12.1	2.53e-04	0	44	102	1048576	23	5307
2026-01-25 10:09:58.92	347.56	26.38	-31.4	-35.0	11.9	3.31e-04	0	43	102	1048576	23	5444
2026-01-25 10:09:59.92	347.51	26.21	-31.3	-34.8	12.0	3.65e-04	0	43	102	1048576	23	5381
2026-01-25 10:10:00.92	347.46	26.05	-31.3	-34.8	12.0	2.88e-04	0	44	102	1048576	23	5360
2026-01-25 10:10:01.93	347.41	25.89	-31.3	-34.8	12.0	2.75e-04	0	44	102	1048576	23	5366
2026-01-25 10:10:02.93	347.36	25.72	-31.4	-35.0	11.8	4.56e-04	0	44	102	1048576	23	5441
2026-01-25 10:10:03.93	347.31	25.56	-31.3	-34.6	12.1	3.41e-04	0	44	102	1048576	23	5303
2026-01-25 10:10:04.94	347.27	25.40	-31.2	-34.6	12.1	2.97e-04	0	43	102	1048576	23	5281
2026-01-25 10:10:05.94	347.22	25.24	-31.1	-34.2	12.3	2.49e-04	0	44	102	1048576	23	5146
2026-01-25 10:10:06.95	347.17	25.09	-31.2	-34.4	12.2	2.02e-04	0	44	102	1048576	23	5219
2026-01-25 10:10:07.95	347.13	24.93	-31.0	-34.0	12.5	1.72e-04	0	44	102	1048576	23	5061
2026-01-25 10:10:08.95	347.08	24.77	-30.9	-33.5	12.8	7.78e-05	0	43	102	1048576	23	4866
2026-01-25 10:10:09.96	347.04	24.62	-30.8	-33.4	12.9	5.95e-05	0	44	102	1048576	23	4820
2026-01-25 10:10:10.96	346.99	24.46	-30.8	-33.3	12.9	5.64e-05	0	43	102	1048576	23	4817
2026-01-25 10:10:11.97	346.95	24.31	-30.8	-33.9	12.9	5.49e-05	0	44	102	1048576	22	5119
2026-01-25 10:10:12.98	346.90	24.16	-30.7	-33.5	13.1	3.58e-05	0	44	102	1048576	22	4988
2026-01-25 10:10:13.98	346.86	24.00	-30.6	-33.2	13.3	2.05e-05	0	44	102	1048576	22	4860
2026-01-25 10:10:14.99	346.82	23.85	-30.5	-33.0	13.5	1.67e-05	0	44	102	1048576	22	4784
2026-01-25 10:10:16.00	346.77	23.70	-30.5	-33.0	13.5	9.90e-06	0	44	102	1048576	22	4784
2026-01-25 10:10:17.00	346.73	23.55	-30.5	-33.0	13.4	1.75e-05	0	43	102	1048576	22	4797
2026-01-25 10:10:18.01	346.69	23.40	-30.4	-32.8	13.5	1.44e-05	0	44	102	1048576	22	4728
2026-01-25 10:10:19.01	346.65	23.26	-30.6	-33.3	13.2	1.14e-05	0	43	102	1048576	22	4906
2026-01-25 10:10:20.01	346.61	23.11	-30.5	-33.1	13.3	1.60e-05	0	44	102	1048576	22	4849
2026-01-25 10:10:21.01	346.57	22.96	-30.7	-33.4	13.1	2.13e-05	0	44	102	1048576	22	4954
2026-01-25 10:10:22.01	346.53	22.82	-30.6	-33.3	13.1	2.13e-05	0	44	102	1048576	22	4923
2026-01-25 10:10:23.01	346.49	22.68	-30.7	-33.6	13.0	3.05e-05	0	44	102	1048576	22	5004
2026-01-25 10:10:24.02	346.45	22.53	-30.7	-33.6	13.0	3.73e-05	0	44	102	1048576	22	5024
2026-01-25 10:10:25.02	346.41	22.39	-30.7	-33.6	13.0	4.57e-05	0	44	102	1048576	22	5022
2026-01-25 10:10:26.03	346.37	22.25	-30.7	-33.7	12.9	3.50e-05	0	44	102	1048576	22	5062
2026-01-25 10:10:27.04	346.34	22.11	-30.8	-33.8	12.8	5.11e-05	0	44	102	1048576	22	5113
2026-01-25 10:10:28.04	346.30	21.97	-30.8	-33.7	12.9	5.41e-05	0	44	102	1048576	22	5072
2026-01-25 10:10:29.04	346.26	21.83	-30.7	-33.7	12.8	5.72e-05	0	43	102	1048576	22	5073
2026-01-25 10:10:30.04	346.23	21.69	-30.7	-33.6	13.0	2.59e-05	0	44	102	1048576	22	5021
2026-01-25 10:10:31.05	346.19	21.55	-30.8	-34.0	12.7	5.87e-05	0	44	102	1048576	22	5200
2026-01-25 10:10:32.05	346.15	21.41	-30.7	-33.6	12.9	6.10e-05	0	44	102	1048576	22	5031
2026-01-25 10:10:33.06	346.12	21.27	-30.6	-33.4	13.1	2.67e-05	0	44	102	1048576	22	4964
2026-01-25 10:10:34.06	346.08	21.14	-30.7	-33.6	12.9	4.42e-05	0	44	102	1048576	22	5013
2026-01-25 10:10:35.06	346.05	21.00	-30.7	-33.7	12.9	5.26e-05	0	44	102	1048576	22	5051
2026-01-25 10:10:36.06	346.01	20.87	-30.8	-34.0	12.6	6.48e-05	0	44	102	1048576	22	5201
2026-01-25 10:10:37.07	345.98	20.74	-30.9	-34.1	12.6	1.08e-04	0	43	102	1048576	22	5240
2026-01-25 10:10:38.07	345.95	20.60	-30.9	-34.3	12.4	1.07e-04	0	44	102	1048576	22	5300
2026-01-25 10:10:39.07	345.91	20.47	-30.9	-34.3	12.4	1.70e-04	0	44	102	1048576	22	5318
2026-01-25 10:10:40.08	345.88	20.34	-31.0	-34.6	12.2	1.90e-04	0	44	102	1048576	22	5417
2026-01-25 10:10:41.09	345.84	20.21	-31.1	-34.7	12.1	2.33e-04	0	44	102	1048576	22	5482
2026-01-25 10:10:42.10	345.81	20.08	-31.1	-34.8	12.1	2.66e-04	0	44	102	1048576	22	5510
2026-01-25 10:10:43.10	345.78	19.95	-31.1	-34.9	12.0	2.94e-04	0	44	102	1048576	22	5567
2026-01-25 10:10:44.11	345.75	19.82	-31.1	-35.0	11.9	3.58e-04	0	43	102	1048576	22	5606
2026-01-25 10:10:45.12	345.72	19.69	-31.1	-34.8	12.0	3.35e-04	0	44	102	1048576	22	5512
2026-01-25 10:10:46.12	345.68	19.56	-31.1	-35.0	11.9	3.26e-04	0	44	102	1048576	22	5601
2026-01-25 10:10:47.12	345.65	19.43	-31.1	-34.7	12.1	2.95e-04	0	43	102	1048576	22	5492
2026-01-25 10:10:48.13	345.62	19.31	-31.1	-34.9	12.0	3.29e-04	0	44	102	1048576	22	5575
2026-01-25 10:10:49.13	345.59	19.18	-31.3	-35.4	11.6	5.76e-04	0	44	102	1048576	22	5799
2026-01-25 10:10:50.14	345.56	19.06	-31.2	-35.3	11.6	6.16e-04	0	43	102	1048576	22	5757
2026-01-25 10:10:51.14	345.53	18.93	-31.3	-35.4	11.5	7.21e-04	0	44	102	1048576	22	5816
2026-01-25 10:10:52.15	345.50	18.81	-31.3	-35.4	11.5	8.70e-04	0	43	102	1048576	22	5812
2026-01-25 10:10:53.15	345.47	18.68	-31.2	-35.3	11.6	7.12e-04	0	43	102	1048576	22	5731
2026-01-25 10:10:54.16	345.44	18.56	-31.2	-35.2	11.6	6.52e-04	0	43	102	1048576	22	5728
2026-01-25 10:10:55.17	345.41	18.44	-31.2	-35.1	11.7	5.83e-04	0	44	102	1048576	22	5662
2026-01-25 10:10:56.17	345.39	18.32	-31.2	-35.2	11.7	5.77e-04	0	44	102	1048576	22	5703
2026-01-25 10:10:57.18	345.36	18.19	-31.2	-35.1	11.7	5.58e-04	0	44	102	1048576	22	5683
2026-01-25 10:10:58.19	345.33	18.07	-31.4	-35.7	11.2	1.04e-03	0	44	102	1048576	22	5956
2026-01-25 10:10:59.19	345.30	17.95	-31.2	-35.1	11.7	9.02e-04	0	44	102	1048576	22	5675
2026-01-25 10:11:00.19	345.27	17.84	-31.1	-34.9	11.9	4.03e-04	0	44	102	1048576	22	5562
2026-01-25 10:11:01.19	345.25	17.72	-31.1	-34.9	11.9	4.68e-04	0	44	102	1048576	22	5562
2026-01-25 10:11:02.19	345.22	17.60	-31.2	-35.1	11.7	4.32e-04	0	44	102	1048576	22	5691
2026-01-25 10:11:03.20	345.19	17.48	-31.3	-35.7	11.2	1.19e-03	0	44	102	1048576	22	5963
2026-01-25 10:11:04.21	345.16	17.36	-31.4	-35.8	11.1	1.49e-03	0	43	102	1048576	22	5982
2026-01-25 10:11:05.21	345.14	17.25	-31.3	-35.8	11.2	1.37e-03	0	44	102	1048576	22	5986
2026-01-25 10:11:06.21	345.11	17.13	-31.4	-36.0	10.9	1.80e-03	0	44	102	1048576	22	6124
2026-01-25 10:11:07.22	345.09	17.02	-31.4	-36.0	11.0	2.02e-03	0	44	102	1048576	22	6079
2026-01-25 10:11:08.21	345.06	16.90	-31.5	-36.1	10.9	1.89e-03	0	44	102	1048576	22	6156
2026-01-25 10:11:09.22	345.04	16.79	-31.6	-36.0	10.6	2.85e-03	0	44	102	1048576	23	5993
2026-01-25 10:11:10.22	345.01	16.67	-31.7	-36.4	10.3	5.13e-03	0	44	102	1048576	23	6176
2026-01-25 10:11:11.23	344.98	16.56	-31.6	-36.0	10.6	3.94e-03	0	44	102	1048576	23	5989
2026-01-25 10:11:12.24	344.96	16.45	-31.4	-35.6	10.9	2.73e-03	0	44	102	1048576	23	5808
2026-01-25 10:11:13.24	344.94	16.34	-31.4	-35.6	10.8	2.14e-03	0	43	102	1048576	23	5814
2026-01-25 10:11:14.25	344.91	16.22	-31.4	-35.6	10.9	2.30e-03	0	44	102	1048576	23	5796
2026-01-25 10:11:15.26	344.89	16.11	-31.5	-35.7	10.8	2.31e-03	0	44	102	1048576	23	5842
2026-01-25 10:11:16.27	344.86	16.00	-31.4	-35.5	10.9	2.41e-03	0	43	102	1048576	23	5782
2026-01-25 10:11:17.26	344.84	15.89	-31.4	-35.5	10.9	2.24e-03	0	44	102	1048576	23	5786
2026-01-25 10:11:18.27	344.82	15.78	-31.4	-35.6	10.8	2.32e-03	0	44	102	1048576	23	5840
2026-01-25 10:11:19.27	344.79	15.67	-31.5	-35.7	10.8	2.73e-03	0	44	102	1048576	23	5836
2026-01-25 10:11:20.27	344.77	15.56	-31.4	-35.6	10.8	2.45e-03	0	44	102	1048576	23	5832
2026-01-25 10:11:21.27	344.75	15.46	-31.4	-35.5	10.9	2.27e-03	0	44	102	1048576	23	5782
2026-01-25 10:11:22.29	344.72	15.35	-31.4	-35.5	10.9	2.19e-03	0	44	102	1048576	23	5776
2026-01-25 10:11:23.29	344.70	15.24	-31.5	-35.8	10.6	2.46e-03	0	44	102	1048576	23	5929
2026-01-25 10:11:24.28	344.68	15.13	-31.4	-35.6	10.8	2.62e-03	0	44	102	1048576	23	5797
2026-01-25 10:11:25.29	344.66	15.03	-31.5	-35.8	10.6	2.71e-03	0	44	102	1048576	23	5924
2026-01-25 10:11:26.30	344.63	14.92	-31.6	-36.0	10.4	3.82e-03	0	44	102	1048576	23	6032
2026-01-25 10:11:27.31	344.61	14.82	-31.4	-35.6	10.8	2.89e-03	0	44	102	1048576	23	5811
2026-01-25 10:11:28.31	344.59	14.71	-31.4	-35.5	10.9	2.15e-03	0	43	102	1048576	23	5757
2026-01-25 10:11:29.31	344.57	14.61	-31.4	-35.4	10.9	2.30e-03	0	44	102	1048576	23	5752
2026-01-25 10:11:30.32	344.55	14.50	-31.3	-35.4	10.9	2.03e-03	0	44	102	1048576	23	5715
2026-01-25 10:11:31.33	344.53	14.40	-31.4	-35.5	10.8	2.59e-03	0	44	102	1048576	23	5786
2026-01-25 10:11:32.34	344.50	14.29	-31.3	-35.3	10.9	2.60e-03	0	44	102	1048576	23	5709
2026-01-25 10:11:33.34	344.48	14.19	-31.3	-35.3	10.9	2.07e-03	0	44	102	1048576	23	5710
2026-01-25 10:11:34.34	344.46	14.09	-31.4	-35.5	10.8	2.44e-03	0	44	102	1048576	23	5763
2026-01-25 10:11:35.34	344.44	13.99	-31.3	-35.4	10.9	2.38e-03	0	44	102	1048576	23	5726
2026-01-25 10:11:36.35	344.42	13.89	-31.4	-35.5	10.7	2.49e-03	0	44	102	1048576	23	5815
2026-01-25 10:11:37.35	344.40	13.78	-31.4	-35.7	10.6	3.56e-03	0	44	102	1048576	23	5870
2026-01-25 10:11:38.35	344.38	13.68	-31.3	-35.4	10.8	2.43e-03	0	44	102	1048576	23	5733
2026-01-25 10:11:39.36	344.36	13.58	-31.3	-35.2	11.0	1.95e-03	0	44	102	1048576	23	5650
2026-01-25 10:11:40.36	344.34	13.48	-31.3	-35.3	10.9	2.10e-03	0	44	102	1048576	23	5702
2026-01-25 10:11:41.36	344.32	13.39	-31.3	-35.3	10.9	2.35e-03	0	44	102	1048576	23	5730
2026-01-25 10:11:42.37	344.30	13.29	-31.4	-35.5	10.7	2.32e-03	0	44	102	1048576	23	5793
2026-01-25 10:11:43.38	344.29	13.19	-31.3	-35.4	10.8	2.93e-03	0	44	102	1048576	23	5770
2026-01-25 10:11:44.38	344.27	13.09	-31.2	-35.1	11.0	2.21e-03	0	44	102	1048576	23	5596
2026-01-25 10:11:45.37	344.25	12.99	-31.1	-34.8	11.2	1.57e-03	0	44	102	1048576	23	5501
2026-01-25 10:11:46.38	344.23	12.89	-31.1	-34.8	11.2	1.34e-03	0	44	102	1048576	23	5497
2026-01-25 10:11:47.39	344.21	12.80	-31.1	-34.7	11.3	1.13e-03	0	44	102	1048576	23	5457
2026-01-25 10:11:48.40	344.19	12.70	-31.2	-35.0	11.0	1.46e-03	0	44	102	1048576	23	5590
2026-01-25 10:11:49.40	344.17	12.60	-31.2	-35.1	11.0	1.92e-03	0	44	102	1048576	23	5629
2026-01-25 10:11:50.41	344.16	12.51	-31.2	-35.0	11.0	1.73e-03	0	44	102	1048576	23	5598
2026-01-25 10:11:51.41	344.14	12.41	-31.3	-35.2	10.9	2.09e-03	0	44	102	1048576	23	5676
2026-01-25 10:11:52.42	344.12	12.32	-31.3	-35.2	10.9	2.59e-03	0	43	102	1048576	23	5677
2026-01-25 10:11:53.42	344.10	12.22	-31.2	-35.1	10.9	2.03e-03	0	44	102	1048576	23	5650
2026-01-25 10:11:54.42	344.08	12.13	-31.3	-35.2	10.9	2.22e-03	0	44	102	1048576	23	5685
2026-01-25 10:11:55.42	344.07	12.03	-31.3	-35.3	10.8	2.35e-03	0	44	102	1048576	23	5706
2026-01-25 10:11:56.42	344.05	11.94	-31.2	-35.1	10.9	2.17e-03	0	44	102	1048576	23	5633
2026-01-25 10:11:57.43	344.03	11.85	-31.2	-35.1	10.9	2.21e-03	0	44	102	1048576	23	5645
2026-01-25 10:11:58.43	344.02	11.75	-31.2	-35.0	11.0	1.78e-03	0	43	102	1048576	23	5579
2026-01-25 10:11:59.42	344.00	11.66	-31.2	-35.0	10.9	1.99e-03	0	44	102	1048576	23	5610
2026-01-25 10:12:00.43	343.98	11.57	-31.2	-35.0	11.0	2.16e-03	0	44	102	1048576	23	5588
2026-01-25 10:12:01.43	343.97	11.48	-31.2	-35.2	10.8	2.13e-03	0	44	102	1048576	23	5663
2026-01-25 10:12:02.43	343.95	11.39	-31.2	-35.2	10.7	3.22e-03	0	44	102	1048576	23	5705
2026-01-25 10:12:03.44	343.93	11.29	-31.2	-35.2	10.8	2.56e-03	0	44	102	1048576	23	5691
2026-01-25 10:12:04.44	343.92	11.20	-31.2	-35.3	10.8	2.71e-03	0	44	102	1048576	23	5718
2026-01-25 10:12:05.45	343.90	11.11	-31.3	-35.5	10.6	3.26e-03	0	44	102	1048576	23	5810
2026-01-25 10:12:06.45	343.88	11.02	-31.3	-35.4	10.7	2.97e-03	0	44	102	1048576	23	5757
2026-01-25 10:12:07.46	343.87	10.93	-31.3	-35.5	10.6	3.68e-03	0	44	102	1048576	23	5819
2026-01-25 10:12:08.46	343.85	10.84	-31.4	-35.7	10.4	4.56e-03	0	44	102	1048576	23	5902
2026-01-25 10:12:09.47	343.84	10.75	-31.4	-35.7	10.4	4.44e-03	0	44	102	1048576	23	5920
2026-01-25 10:12:10.47	343.82	10.66	-31.4	-35.9	10.2	4.84e-03	0	44	102	1048576	23	6040
2026-01-25 10:12:11.48	343.81	10.57	-31.5	-36.1	10.0	7.52e-03	0	44	102	1048576	23	6149
2026-01-25 10:12:12.48	343.79	10.49	-31.5	-36.1	10.1	7.21e-03	0	44	102	1048576	23	6128
2026-01-25 10:12:13.49	343.78	10.40	-31.5	-36.2	10.0	7.76e-03	0	44	102	1048576	23	6195
2026-01-25 10:12:14.50	343.76	10.31	-31.5	-36.2	10.0	7.18e-03	0	44	102	1048576	23	6184
2026-01-25 10:12:15.50	343.75	10.22	-31.6	-36.5	9.8	8.97e-03	0	44	102	1048576	23	6366
2026-01-25 10:12:16.50	343.73	10.14	-31.6	-36.5	9.8	1.20e-02	0	44	102	1048576	23	6319
2026-01-25 10:12:17.50	343.72	10.05	-31.6	-36.5	9.8	1.01e-02	0	44	102	1048576	23	6328
2026-01-25 10:12:18.50	343.70	9.96	-31.6	-36.6	9.6	1.31e-02	0	44	102	1048576	23	6414
2026-01-25 10:12:19.51	343.69	9.88	-31.6	-36.4	9.8	1.11e-02	0	44	102	1048576	23	6310
2026-01-25 10:12:20.52	343.67	9.79	-31.5	-36.2	10.0	9.36e-03	0	44	102	1048576	23	6182
2026-01-25 10:12:21.53	343.66	9.70	-31.5	-36.3	9.9	8.32e-03	0	44	102	1048576	23	6237
2026-01-25 10:12:22.53	343.65	9.62	-31.6	-36.4	9.8	9.50e-03	0	44	102	1048576	23	6307
2026-01-25 10:12:23.54	343.63	9.53	-31.6	-36.6	9.7	1.14e-02	0	44	102	1048576	23	6378
