passes_logs/2026/01/25/R2M6_AANII_01/R2M6_AANII_01__20260125_115003_AQUA_rec.log

#Pass ID: 20260125_115003_AQUA
#Satellite: AQUA
#Configuration: AQUA
#almurnet v.1.7.20240730
#Start time: 2026-01-25 11:53:10

#Version: 2.2.20231116
#Station: R2M6_AANII_01
#Location: 30.233357 lon 59.946436 lat
#TLE: 1 27424U 02022A   26024.53919639  .00001970  00000+0  40397-3 0  9996
#TLE: 2 27424  98.4098 351.1277 0001915  66.8561 358.4840 14.61855303262281

#Time	Az	El	Level	Level2	SNR	BER	BlckErr	Temp	State	Recorded	gain1	gain2
2026-01-25 11:53:10.76	145.71	32.55	-33.9	-47.9	3.8	1.49e+00	0	44	0	0	28	18002
2026-01-25 11:53:11.75	145.62	32.78	-34.8	-53.7	3.8	7.45e-01	0	44	104	0	31	31654
2026-01-25 11:53:12.75	145.52	33.02	-34.9	-53.8	3.8	7.45e-01	0	44	104	0	31	31760
2026-01-25 11:53:13.75	145.43	33.27	-34.9	-53.9	3.8	7.47e-01	0	44	104	0	31	31947
2026-01-25 11:53:14.76	145.33	33.51	-34.9	-53.9	3.8	7.50e-01	0	44	104	0	31	31972
2026-01-25 11:53:15.77	145.24	33.76	-34.9	-53.9	3.8	7.48e-01	0	44	104	0	31	31929
2026-01-25 11:53:16.77	145.14	34.01	-34.9	-53.8	3.8	7.42e-01	0	44	104	0	31	31882
2026-01-25 11:53:17.77	145.04	34.26	-34.9	-53.8	3.8	7.45e-01	0	44	104	0	31	31824
2026-01-25 11:53:18.77	144.94	34.52	-34.8	-53.7	3.8	7.44e-01	0	44	104	0	31	31806
2026-01-25 11:53:19.77	144.83	34.77	-34.8	-53.7	3.8	7.43e-01	0	44	104	0	31	31620
2026-01-25 11:53:20.78	144.73	35.03	-34.8	-53.6	3.8	7.44e-01	0	44	104	0	31	31515
2026-01-25 11:53:21.79	144.62	35.30	-34.7	-53.6	3.8	7.43e-01	0	44	104	0	31	31442
2026-01-25 11:53:22.79	144.51	35.56	-34.7	-53.5	3.8	7.47e-01	0	44	104	0	31	31415
2026-01-25 11:53:23.80	144.40	35.83	-34.7	-53.5	3.8	7.47e-01	0	44	104	0	31	31382
2026-01-25 11:53:24.80	144.29	36.09	-34.7	-53.5	3.8	7.41e-01	0	44	104	0	31	31334
2026-01-25 11:53:25.79	144.17	36.36	-34.7	-53.5	3.8	7.44e-01	0	44	104	0	31	31318
2026-01-25 11:53:26.80	144.05	36.63	-34.8	-53.7	3.8	7.47e-01	0	44	104	0	31	31653
2026-01-25 11:53:27.80	143.94	36.90	-34.9	-53.9	3.8	7.43e-01	0	44	104	0	31	32074
2026-01-25 11:53:28.81	143.81	37.18	-34.9	-53.8	3.8	7.45e-01	0	44	104	0	31	31929
2026-01-25 11:53:29.81	143.69	37.46	-34.8	-53.7	3.8	7.42e-01	0	44	104	0	31	31657
2026-01-25 11:53:30.82	143.56	37.74	-35.0	-54.1	3.8	7.45e-01	0	44	104	0	31	32412
2026-01-25 11:53:31.81	143.44	38.02	-34.9	-53.9	3.8	7.46e-01	0	44	104	0	31	31977
2026-01-25 11:53:32.81	143.31	38.31	-34.8	-53.7	3.8	7.42e-01	0	44	104	0	31	31798
2026-01-25 11:53:33.82	143.18	38.60	-34.7	-53.5	3.8	7.44e-01	0	44	104	0	31	31461
2026-01-25 11:53:34.82	143.04	38.89	-34.6	-53.2	3.8	7.43e-01	0	44	104	0	31	30694
2026-01-25 11:53:35.83	142.90	39.18	-34.5	-53.6	3.8	7.46e-01	0	44	104	0	30	32590
2026-01-25 11:53:36.82	142.76	39.47	-34.4	-53.4	3.8	7.46e-01	0	44	104	0	30	31820
2026-01-25 11:53:37.83	142.62	39.77	-34.4	-53.3	3.8	7.48e-01	0	44	104	0	30	31676
2026-01-25 11:53:38.83	142.48	40.07	-34.4	-53.3	3.8	7.44e-01	0	44	104	0	30	31614
2026-01-25 11:53:39.83	142.33	40.37	-34.4	-53.3	3.8	7.41e-01	0	44	104	0	30	31584
2026-01-25 11:53:40.84	142.18	40.68	-34.4	-53.4	3.8	7.50e-01	0	44	104	0	30	31832
2026-01-25 11:53:41.85	142.02	40.99	-34.4	-53.3	3.8	7.44e-01	0	44	104	0	30	31660
2026-01-25 11:53:42.85	141.86	41.30	-34.4	-53.3	3.8	7.42e-01	0	44	104	0	30	31700
2026-01-25 11:53:43.86	141.70	41.62	-34.4	-53.1	3.8	7.40e-01	0	44	104	0	30	30879
2026-01-25 11:53:44.86	141.54	41.93	-34.4	-52.7	3.8	7.42e-01	0	44	104	0	30	29558
2026-01-25 11:53:45.85	141.37	42.24	-34.4	-52.5	3.8	7.46e-01	0	44	104	0	30	28822
2026-01-25 11:53:46.86	141.20	42.57	-34.4	-52.2	3.8	7.44e-01	0	44	104	0	30	27888
2026-01-25 11:53:47.87	141.03	42.89	-34.4	-52.2	3.8	7.46e-01	0	44	104	0	30	27749
2026-01-25 11:53:48.87	140.85	43.22	-34.4	-52.3	3.8	7.47e-01	0	44	104	0	30	28122
2026-01-25 11:53:49.88	140.67	43.55	-34.4	-52.7	3.8	7.44e-01	0	44	104	0	30	29354
2026-01-25 11:53:50.89	140.48	43.88	-34.4	-52.4	3.8	7.45e-01	0	44	104	0	30	28360
2026-01-25 11:53:51.89	140.29	44.21	-34.4	-51.6	3.8	7.43e-01	0	44	104	0	30	26142
2026-01-25 11:53:52.89	140.10	44.55	-34.4	-50.6	3.8	7.43e-01	0	44	104	0	30	23368
2026-01-25 11:53:53.89	139.90	44.89	-34.4	-50.9	3.9	7.40e-01	0	44	104	0	30	24005
2026-01-25 11:53:54.89	139.70	45.23	-34.4	-52.0	3.8	7.44e-01	0	44	104	0	30	27245
2026-01-25 11:53:55.89	139.49	45.57	-34.4	-52.7	3.8	7.43e-01	0	44	104	0	30	29804
2026-01-25 11:53:56.90	139.28	45.92	-34.4	-51.4	3.9	7.45e-01	0	44	104	0	30	25688
2026-01-25 11:53:57.90	139.06	46.27	-34.3	-48.9	4.0	7.39e-01	0	44	104	0	30	19348
2026-01-25 11:53:58.91	138.84	46.63	-34.2	-46.3	4.3	7.31e-01	0	44	104	0	30	14542
2026-01-25 11:53:59.91	138.61	46.98	-34.0	-44.0	7.8	6.49e-01	0	44	104	0	30	11344
2026-01-25 11:54:00.91	138.38	47.34	-34.2	-46.1	6.2	6.82e-01	0	44	102	524288	30	14189
2026-01-25 11:54:01.91	138.15	47.70	-34.0	-43.6	7.9	6.48e-01	0	44	102	524288	30	10934
2026-01-25 11:54:02.91	137.90	48.06	-32.6	-37.5	14.5	6.07e-01	0	44	102	524288	27	6262
2026-01-25 11:54:03.91	137.65	48.42	-31.2	-34.2	18.0	6.06e-01	0	44	102	524288	24	5086
2026-01-25 11:54:04.91	137.40	48.79	-31.0	-33.7	18.4	6.04e-01	0	44	102	524288	24	4924
2026-01-25 11:54:05.91	137.14	49.16	-31.2	-34.4	18.0	6.07e-01	0	44	102	524288	24	5184
2026-01-25 11:54:06.91	136.87	49.53	-31.2	-34.3	18.0	6.07e-01	0	44	102	524288	24	5145
2026-01-25 11:54:07.91	136.60	49.91	-31.1	-33.9	18.2	6.07e-01	0	44	102	524288	24	4993
2026-01-25 11:54:08.91	136.32	50.28	-31.0	-33.8	18.4	6.06e-01	0	44	102	524288	24	4958
2026-01-25 11:54:09.92	136.02	50.67	-31.5	-35.0	17.6	6.07e-01	0	44	102	524288	24	5425
2026-01-25 11:54:10.92	135.73	51.05	-31.1	-34.2	18.0	6.05e-01	0	44	102	524288	24	5121
2026-01-25 11:54:11.92	135.42	51.44	-30.7	-33.6	18.7	6.07e-01	0	44	102	524288	23	4980
2026-01-25 11:54:12.93	135.11	51.83	-30.2	-32.6	19.6	6.05e-01	0	44	102	524288	22	4766
2026-01-25 11:54:13.94	134.79	52.22	-30.2	-32.6	19.7	6.07e-01	0	44	102	524288	22	4741
2026-01-25 11:54:14.94	134.46	52.61	-30.3	-32.9	19.4	6.08e-01	0	44	102	524288	22	4867
2026-01-25 11:54:15.95	134.11	53.01	-30.0	-32.1	19.9	6.04e-01	0	44	102	524288	22	4584
2026-01-25 11:54:16.95	133.77	53.41	-30.1	-32.4	19.7	6.06e-01	0	44	102	524288	22	4703
2026-01-25 11:54:17.95	133.41	53.81	-29.9	-32.0	19.9	6.05e-01	0	44	102	524288	22	4576
2026-01-25 11:54:18.96	133.04	54.21	-29.7	-32.0	20.2	6.07e-01	0	44	102	524288	21	4680
2026-01-25 11:54:19.97	132.66	54.62	-30.2	-33.2	19.6	6.08e-01	0	44	102	524288	21	5080
2026-01-25 11:54:20.97	132.27	55.02	-29.7	-31.9	20.3	6.07e-01	0	44	102	524288	21	4622
2026-01-25 11:54:21.98	131.86	55.43	-29.7	-31.9	20.4	6.06e-01	0	44	102	524288	21	4617
2026-01-25 11:54:22.98	131.45	55.84	-29.9	-32.3	20.1	6.09e-01	0	44	102	524288	21	4770
2026-01-25 11:54:23.98	131.02	56.25	-30.0	-32.6	20.0	6.07e-01	0	44	102	524288	21	4845
2026-01-25 11:54:24.99	130.58	56.67	-30.1	-32.7	19.9	6.07e-01	0	44	102	524288	21	4897
2026-01-25 11:54:25.99	130.13	57.08	-30.2	-33.2	19.6	6.04e-01	0	44	102	524288	21	5050
2026-01-25 11:54:26.99	129.66	57.49	-30.3	-33.3	19.6	6.07e-01	0	44	102	524288	21	5088
2026-01-25 11:54:27.99	129.18	57.91	-30.3	-33.3	19.6	6.05e-01	0	44	102	524288	21	5107
2026-01-25 11:54:29.00	128.68	58.33	-30.5	-33.8	19.3	6.05e-01	0	44	102	524288	21	5265
2026-01-25 11:54:30.01	128.16	58.75	-30.2	-33.1	19.7	6.08e-01	0	44	102	524288	21	5016
2026-01-25 11:54:31.01	127.63	59.17	-30.8	-34.1	18.8	6.04e-01	0	44	102	524288	22	5282
2026-01-25 11:54:32.01	127.08	59.59	-30.6	-33.4	19.3	6.06e-01	0	44	102	524288	22	5008
2026-01-25 11:54:33.01	126.52	60.01	-30.3	-32.7	19.7	6.07e-01	0	44	102	524288	22	4748
2026-01-25 11:54:34.02	125.93	60.43	-30.6	-33.6	19.2	6.06e-01	0	44	102	524288	22	5062
2026-01-25 11:54:35.03	125.32	60.86	-30.7	-33.9	19.0	6.06e-01	0	44	102	524288	22	5180
2026-01-25 11:54:36.03	124.70	61.28	-30.6	-33.5	19.3	6.07e-01	0	44	102	524288	22	5026
2026-01-25 11:54:37.04	124.04	61.70	-30.8	-34.1	18.9	6.06e-01	0	44	102	524288	22	5239
2026-01-25 11:54:38.04	123.37	62.12	-31.0	-34.7	18.5	6.07e-01	0	44	102	524288	22	5508
2026-01-25 11:54:39.04	122.68	62.54	-31.0	-34.5	18.6	6.07e-01	0	44	102	524288	22	5440
2026-01-25 11:54:40.05	121.96	62.96	-31.3	-35.1	17.9	6.05e-01	0	44	102	524288	23	5548
2026-01-25 11:54:41.05	121.22	63.38	-31.4	-35.2	17.9	6.06e-01	0	44	102	524288	23	5573
2026-01-25 11:54:42.05	120.45	63.79	-31.4	-35.2	17.9	6.05e-01	0	44	102	524288	23	5564
2026-01-25 11:54:43.06	119.64	64.21	-31.4	-35.2	17.9	6.07e-01	0	44	102	524288	23	5574
2026-01-25 11:54:44.06	118.81	64.62	-31.8	-36.0	17.1	6.04e-01	0	44	102	524288	24	5843
2026-01-25 11:54:45.06	117.96	65.02	-31.9	-36.1	16.9	6.09e-01	0	44	102	524288	24	5882
2026-01-25 11:54:46.07	117.06	65.43	-31.6	-35.3	17.5	6.06e-01	0	44	102	524288	24	5532
2026-01-25 11:54:47.07	116.14	65.83	-32.3	-37.0	16.0	6.09e-01	0	44	102	524288	25	6206
2026-01-25 11:54:48.08	115.17	66.23	-32.2	-36.6	16.3	6.07e-01	0	44	102	524288	25	5985
2026-01-25 11:54:49.08	114.18	66.63	-32.4	-37.2	15.9	6.08e-01	0	44	102	524288	25	6312
2026-01-25 11:54:50.08	113.14	67.02	-32.9	-38.6	14.5	6.08e-01	0	44	102	524288	26	6954
2026-01-25 11:54:51.09	112.06	67.40	-32.8	-38.2	14.8	6.07e-01	0	44	102	524288	26	6699
2026-01-25 11:54:52.09	110.96	67.78	-33.0	-38.8	14.5	6.06e-01	0	44	102	524288	26	7009
2026-01-25 11:54:53.10	109.79	68.15	-33.1	-38.9	14.0	6.09e-01	0	44	102	524288	27	6990
2026-01-25 11:54:54.09	108.61	68.51	-33.2	-39.3	13.7	6.08e-01	0	44	102	524288	27	7266
2026-01-25 11:54:55.10	107.36	68.87	-33.0	-38.3	14.5	6.07e-01	0	44	102	524288	27	6633
2026-01-25 11:54:56.10	106.07	69.22	-33.5	-40.2	12.4	6.13e-01	0	44	102	524288	28	7809
2026-01-25 11:54:57.11	104.73	69.56	-33.0	-38.0	14.2	6.07e-01	0	44	102	524288	28	6396
2026-01-25 11:54:58.12	103.34	69.90	-33.0	-37.9	14.3	6.07e-01	0	44	102	524288	28	6338
2026-01-25 11:54:59.12	101.91	70.22	-32.7	-37.3	15.2	6.05e-01	0	44	102	524288	27	6083
2026-01-25 11:55:00.12	100.43	70.52	-32.9	-37.7	15.0	6.06e-01	0	44	102	524288	27	6289
2026-01-25 11:55:01.12	98.90	70.82	-32.7	-37.0	15.4	6.06e-01	0	44	102	524288	27	5934
2026-01-25 11:55:02.13	97.31	71.11	-32.8	-37.3	15.4	6.05e-01	0	44	102	524288	27	6082
2026-01-25 11:55:03.13	95.68	71.38	-33.1	-38.3	14.5	6.07e-01	0	44	102	524288	27	6619
2026-01-25 11:55:04.14	93.98	71.64	-32.8	-37.2	15.3	6.07e-01	0	44	102	524288	27	6032
2026-01-25 11:55:05.14	92.25	71.88	-32.6	-36.6	15.8	6.06e-01	0	44	102	524288	27	5747
2026-01-25 11:55:06.15	90.46	72.11	-32.6	-36.6	15.8	6.06e-01	0	44	102	524288	27	5734
2026-01-25 11:55:07.15	88.64	72.32	-32.4	-36.4	16.3	6.06e-01	0	44	102	524288	26	5717
2026-01-25 11:55:08.16	86.75	72.51	-32.1	-35.5	17.0	6.09e-01	0	44	102	524288	26	5355
2026-01-25 11:55:09.17	84.82	72.69	-32.6	-37.3	15.6	6.06e-01	0	44	102	524288	26	6206
2026-01-25 11:55:10.17	82.87	72.85	-31.9	-35.4	17.4	6.03e-01	0	44	102	524288	25	5420
2026-01-25 11:55:11.17	80.88	72.99	-32.2	-36.5	16.7	6.05e-01	0	44	102	524288	25	5916
2026-01-25 11:55:12.17	78.87	73.10	-32.2	-36.4	16.6	6.08e-01	0	44	102	524288	25	5839
2026-01-25 11:55:13.18	76.80	73.20	-31.8	-35.1	17.6	6.06e-01	0	44	102	524288	25	5270
2026-01-25 11:55:14.18	74.74	73.28	-32.2	-36.3	16.8	6.06e-01	0	44	102	524288	25	5793
2026-01-25 11:55:15.19	72.63	73.34	-32.0	-35.8	17.1	6.05e-01	0	44	102	524288	25	5579
2026-01-25 11:55:16.20	70.51	73.37	-32.2	-36.4	16.8	6.05e-01	0	44	102	524288	25	5813
2026-01-25 11:55:17.20	68.41	73.38	-32.2	-36.3	16.9	6.07e-01	0	44	102	524288	25	5770
2026-01-25 11:55:18.20	66.31	73.37	-32.3	-36.6	16.7	6.07e-01	0	44	102	524288	25	5943
2026-01-25 11:55:19.20	64.21	73.35	-32.2	-36.3	16.8	6.06e-01	0	44	102	524288	25	5779
2026-01-25 11:55:20.21	62.10	73.29	-32.3	-36.8	16.6	6.06e-01	0	44	102	524288	25	5997
2026-01-25 11:55:21.21	60.03	73.22	-32.4	-37.0	16.4	6.03e-01	0	44	102	524288	25	6094
2026-01-25 11:55:22.22	57.96	73.13	-32.3	-36.7	16.6	6.06e-01	0	44	102	524288	25	5977
2026-01-25 11:55:23.23	55.92	73.01	-32.4	-36.9	16.5	6.04e-01	0	44	102	524288	25	6070
2026-01-25 11:55:24.23	53.93	72.88	-32.7	-37.6	15.6	6.07e-01	0	44	102	524288	26	6294
2026-01-25 11:55:25.23	51.97	72.73	-32.4	-36.4	16.4	6.05e-01	0	44	102	524288	26	5704
2026-01-25 11:55:26.23	50.05	72.56	-32.2	-35.7	16.9	6.06e-01	0	44	102	524288	26	5439
2026-01-25 11:55:27.24	48.16	72.37	-32.4	-36.6	16.3	6.04e-01	0	44	102	524288	26	5815
2026-01-25 11:55:28.24	46.32	72.16	-32.3	-36.0	16.7	6.07e-01	0	44	102	524288	26	5546
2026-01-25 11:55:29.25	44.52	71.93	-32.8	-37.9	15.4	6.09e-01	0	44	102	524288	26	6469
2026-01-25 11:55:30.24	42.80	71.70	-32.8	-37.7	15.5	6.08e-01	0	44	102	524288	26	6381
2026-01-25 11:55:31.25	41.09	71.44	-32.7	-37.4	15.7	6.04e-01	0	44	102	524288	26	6191
2026-01-25 11:55:32.25	39.45	71.18	-33.0	-38.5	15.0	6.08e-01	0	44	102	524288	26	6793
2026-01-25 11:55:33.25	37.86	70.89	-33.0	-38.1	14.9	6.08e-01	0	44	102	524288	27	6452
2026-01-25 11:55:34.26	36.31	70.60	-33.2	-38.7	14.3	6.07e-01	0	44	102	524288	27	6830
2026-01-25 11:55:35.25	34.84	70.30	-33.0	-38.1	14.8	6.08e-01	0	44	102	524288	27	6475
2026-01-25 11:55:36.26	33.38	69.98	-33.2	-39.0	14.2	6.08e-01	0	44	102	524288	27	6962
2026-01-25 11:55:37.26	31.99	69.65	-33.1	-38.5	14.5	6.07e-01	0	44	102	524288	27	6677
2026-01-25 11:55:38.26	30.65	69.31	-33.6	-40.1	12.8	6.10e-01	0	44	102	524288	28	7676
2026-01-25 11:55:39.27	29.34	68.97	-33.0	-37.6	14.6	6.08e-01	0	44	102	524288	28	6144
2026-01-25 11:55:40.27	28.09	68.61	-32.8	-37.3	15.5	6.08e-01	0	44	102	524288	27	6039
2026-01-25 11:55:41.28	26.88	68.25	-33.3	-39.4	13.8	6.07e-01	0	44	102	524288	27	7250
2026-01-25 11:55:42.28	25.72	67.88	-33.1	-38.6	14.5	6.07e-01	0	44	102	524288	27	6725
2026-01-25 11:55:43.28	24.60	67.50	-33.4	-39.7	13.6	6.09e-01	0	44	102	524288	27	7420
2026-01-25 11:55:44.29	23.51	67.12	-33.4	-39.9	13.5	6.09e-01	0	44	102	524288	27	7533
2026-01-25 11:55:45.29	22.47	66.73	-33.6	-40.4	13.0	6.09e-01	0	44	102	524288	27	7900
2026-01-25 11:55:46.29	21.47	66.34	-33.4	-39.7	13.5	6.08e-01	0	44	102	524288	27	7460
2026-01-25 11:55:47.29	20.50	65.95	-33.4	-39.5	13.7	6.10e-01	0	44	102	524288	27	7333
2026-01-25 11:55:48.30	19.56	65.55	-33.4	-39.9	13.5	6.08e-01	0	44	102	524288	27	7571
2026-01-25 11:55:49.30	18.67	65.14	-33.4	-39.9	13.4	6.07e-01	0	44	102	524288	27	7575
2026-01-25 11:55:50.31	17.79	64.73	-32.9	-37.8	14.9	6.07e-01	0	44	102	524288	27	6330
2026-01-25 11:55:51.31	16.96	64.32	-32.3	-36.3	16.3	6.06e-01	0	44	102	524288	26	5697
2026-01-25 11:55:52.32	16.15	63.91	-32.3	-36.1	16.6	6.04e-01	0	44	102	524288	26	5608
2026-01-25 11:55:53.32	15.37	63.50	-31.9	-35.1	17.2	6.07e-01	0	44	102	524288	26	5174
2026-01-25 11:55:54.33	14.62	63.08	-31.8	-35.2	17.5	6.07e-01	0	44	102	524288	25	5323
2026-01-25 11:55:55.33	13.90	62.66	-31.5	-34.4	18.0	6.07e-01	0	44	102	524288	25	5028
2026-01-25 11:55:56.34	13.19	62.24	-31.7	-35.0	17.6	6.07e-01	0	44	102	524288	25	5269
2026-01-25 11:55:57.35	12.51	61.82	-31.5	-34.2	18.1	6.08e-01	0	44	102	524288	25	4952
2026-01-25 11:55:58.35	11.86	61.40	-30.7	-33.1	19.4	6.08e-01	0	44	102	524288	23	4772
2026-01-25 11:55:59.35	11.23	60.98	-30.8	-33.5	19.1	6.06e-01	0	44	102	524288	23	4920
2026-01-25 11:56:00.36	10.62	60.56	-31.0	-34.1	18.8	6.06e-01	0	44	102	524288	23	5109
2026-01-25 11:56:01.37	10.02	60.14	-31.0	-34.1	18.8	6.07e-01	0	44	102	524288	23	5137
2026-01-25 11:56:02.36	9.46	59.72	-30.8	-33.6	19.2	6.06e-01	0	44	102	524288	23	4928
2026-01-25 11:56:03.37	8.91	59.30	-30.9	-33.7	19.0	6.06e-01	0	44	102	524288	23	4967
2026-01-25 11:56:04.37	8.37	58.88	-31.0	-33.9	18.9	6.04e-01	0	44	102	524288	23	5059
2026-01-25 11:56:05.37	7.86	58.47	-31.1	-34.5	18.5	6.07e-01	0	44	102	524288	23	5283
2026-01-25 11:56:06.37	7.36	58.05	-30.8	-33.5	19.1	6.06e-01	0	44	102	524288	23	4904
2026-01-25 11:56:07.38	6.87	57.63	-30.6	-33.0	19.4	6.06e-01	0	44	102	524288	23	4739
2026-01-25 11:56:08.38	6.40	57.22	-30.8	-33.4	19.3	6.05e-01	0	44	102	524288	23	4854
2026-01-25 11:56:09.38	5.94	56.81	-30.5	-32.7	19.6	6.07e-01	0	44	102	524288	23	4626
2026-01-25 11:56:10.39	5.50	56.39	-30.5	-33.1	19.7	6.07e-01	0	44	102	524288	22	4861
2026-01-25 11:56:11.40	5.07	55.98	-30.4	-32.9	19.8	6.08e-01	0	44	102	524288	22	4804
2026-01-25 11:56:12.40	4.65	55.57	-29.9	-31.6	20.5	6.07e-01	0	44	102	524288	22	4395
2026-01-25 11:56:13.41	4.24	55.16	-29.1	-30.8	21.5	6.10e-01	0	44	102	524288	20	4351
2026-01-25 11:56:14.42	3.85	54.75	-29.2	-31.0	21.4	6.06e-01	0	44	102	524288	20	4434
2026-01-25 11:56:15.43	3.46	54.35	-29.2	-31.1	21.3	6.07e-01	0	44	102	524288	20	4454
2026-01-25 11:56:16.43	3.09	53.95	-29.2	-31.1	21.3	6.07e-01	0	44	102	524288	20	4455
2026-01-25 11:56:17.44	2.73	53.55	-29.1	-30.8	21.5	6.05e-01	0	44	102	524288	20	4376
2026-01-25 11:56:18.43	2.38	53.15	-28.9	-30.4	21.7	6.07e-01	0	44	102	524288	20	4241
2026-01-25 11:56:19.44	2.04	52.76	-29.3	-31.1	21.3	6.06e-01	0	44	102	524288	20	4460
2026-01-25 11:56:20.44	1.71	52.37	-29.4	-31.5	21.1	6.07e-01	0	44	102	524288	20	4586
2026-01-25 11:56:21.44	1.39	51.98	-29.7	-32.2	20.6	6.10e-01	0	44	102	524288	20	4806
2026-01-25 11:56:22.44	1.07	51.59	-29.8	-32.5	20.4	6.08e-01	0	44	102	524288	20	4916
2026-01-25 11:56:23.45	0.76	51.20	-29.6	-32.0	20.8	6.05e-01	0	44	102	524288	20	4724
2026-01-25 11:56:24.45	0.47	50.82	-29.8	-32.4	20.6	6.07e-01	0	44	102	524288	20	4852
2026-01-25 11:56:25.46	0.17	50.44	-30.0	-32.9	20.3	6.07e-01	0	44	102	524288	20	5022
2026-01-25 11:56:26.46	359.89	50.06	-29.9	-32.8	20.3	6.06e-01	0	44	102	524288	20	4999
2026-01-25 11:56:27.47	359.61	49.68	-30.0	-33.0	20.2	6.07e-01	0	44	102	524288	20	5064
2026-01-25 11:56:28.48	359.34	49.31	-30.2	-33.0	19.9	6.07e-01	0	44	102	524288	21	4971
2026-01-25 11:56:29.48	359.08	48.94	-30.4	-33.4	19.7	6.06e-01	0	44	102	524288	21	5102
2026-01-25 11:56:30.48	358.82	48.57	-30.2	-33.0	19.9	6.05e-01	0	44	102	524288	21	4955
2026-01-25 11:56:31.49	358.57	48.20	-30.1	-32.6	20.2	6.08e-01	0	44	102	524288	21	4829
2026-01-25 11:56:32.49	358.33	47.84	-29.9	-32.2	20.4	6.03e-01	0	44	102	524288	21	4677
2026-01-25 11:56:33.49	358.09	47.48	-29.6	-31.5	20.8	6.06e-01	0	44	102	524288	21	4456
2026-01-25 11:56:34.49	357.86	47.13	-29.9	-32.2	20.4	6.05e-01	0	44	102	524288	21	4698
2026-01-25 11:56:35.50	357.63	46.77	-30.3	-33.2	19.8	6.04e-01	0	44	102	524288	21	5030
2026-01-25 11:56:36.50	357.41	46.42	-30.1	-32.7	20.1	6.06e-01	0	44	102	524288	21	4870
2026-01-25 11:56:37.50	357.19	46.07	-29.8	-32.0	20.4	6.07e-01	0	44	102	524288	21	4617
2026-01-25 11:56:38.51	356.98	45.72	-29.7	-31.8	20.6	6.06e-01	0	44	102	524288	21	4559
2026-01-25 11:56:39.51	356.77	45.38	-29.7	-31.6	20.7	6.06e-01	0	44	102	524288	21	4504
2026-01-25 11:56:40.52	356.56	45.04	-29.6	-31.5	20.7	6.06e-01	0	44	102	524288	21	4475
2026-01-25 11:56:41.52	356.37	44.70	-29.7	-31.8	20.6	6.07e-01	0	44	102	524288	21	4562
2026-01-25 11:56:42.53	356.17	44.36	-29.9	-32.3	20.4	6.08e-01	0	44	102	524288	21	4724
2026-01-25 11:56:43.54	355.98	44.03	-30.0	-32.6	20.1	6.08e-01	0	44	102	524288	21	4822
2026-01-25 11:56:44.54	355.79	43.70	-30.2	-32.9	20.0	6.05e-01	0	44	102	524288	21	4921
2026-01-25 11:56:45.54	355.61	43.37	-30.2	-32.9	19.9	6.06e-01	0	44	102	524288	21	4929
2026-01-25 11:56:46.54	355.44	43.04	-30.1	-32.6	20.1	6.06e-01	0	44	102	524288	21	4827
2026-01-25 11:56:47.55	355.26	42.72	-30.0	-32.6	20.1	6.06e-01	0	44	102	524288	21	4821
2026-01-25 11:56:48.55	355.09	42.40	-30.0	-32.5	20.1	6.05e-01	0	44	102	524288	21	4811
2026-01-25 11:56:49.55	354.92	42.08	-30.0	-32.4	20.2	6.06e-01	0	44	102	524288	21	4751
2026-01-25 11:56:50.55	354.76	41.77	-30.2	-32.9	19.9	6.06e-01	0	44	102	524288	21	4929
2026-01-25 11:56:51.55	354.60	41.46	-30.3	-33.2	19.7	6.05e-01	0	44	102	524288	21	5026
2026-01-25 11:56:52.56	354.44	41.15	-30.6	-33.6	19.2	6.07e-01	0	44	102	524288	22	5081
2026-01-25 11:56:53.56	354.28	40.84	-30.8	-34.2	18.8	6.05e-01	0	44	102	524288	22	5281
2026-01-25 11:56:54.56	354.13	40.54	-31.0	-34.6	18.6	6.06e-01	0	44	102	524288	22	5440
2026-01-25 11:56:55.56	353.99	40.24	-31.1	-34.3	18.4	6.08e-01	0	44	102	524288	23	5234
2026-01-25 11:56:56.57	353.84	39.93	-31.1	-34.4	18.4	6.07e-01	0	44	102	524288	23	5253
2026-01-25 11:56:57.58	353.69	39.63	-31.1	-34.3	18.4	6.07e-01	0	44	102	524288	23	5219
2026-01-25 11:56:58.58	353.56	39.34	-31.1	-34.4	18.4	6.08e-01	0	44	102	524288	23	5251
2026-01-25 11:56:59.59	353.42	39.05	-31.1	-34.4	18.3	6.07e-01	0	44	102	524288	23	5261
2026-01-25 11:57:00.60	353.28	38.75	-31.1	-34.5	18.2	6.04e-01	0	44	102	524288	23	5296
2026-01-25 11:57:01.60	353.15	38.47	-31.1	-34.3	18.4	6.07e-01	0	44	102	524288	23	5208
2026-01-25 11:57:02.61	353.02	38.18	-31.0	-34.0	18.6	6.05e-01	0	44	102	524288	23	5113
2026-01-25 11:57:03.61	352.89	37.90	-30.8	-33.6	18.7	6.06e-01	0	44	102	524288	23	4980
2026-01-25 11:57:04.62	352.76	37.62	-30.6	-33.1	19.1	6.07e-01	0	44	102	524288	23	4795
2026-01-25 11:57:05.62	352.64	37.34	-30.6	-33.0	19.2	6.04e-01	0	44	102	524288	23	4762
2026-01-25 11:57:06.63	352.52	37.06	-30.5	-32.9	19.2	6.05e-01	0	44	102	524288	23	4701
2026-01-25 11:57:07.63	352.40	36.79	-30.6	-32.9	19.2	6.07e-01	0	44	102	524288	23	4731
2026-01-25 11:57:08.63	352.28	36.52	-30.5	-32.9	19.2	6.07e-01	0	44	102	524288	23	4717
2026-01-25 11:57:09.63	352.17	36.25	-30.5	-32.9	19.2	6.06e-01	0	44	102	524288	23	4719
2026-01-25 11:57:10.63	352.06	35.98	-30.6	-33.1	19.1	6.03e-01	0	44	102	524288	23	4779
2026-01-25 11:57:11.62	351.95	35.72	-30.5	-32.9	19.2	6.05e-01	0	44	102	524288	23	4722
2026-01-25 11:57:12.62	351.84	35.46	-30.2	-32.6	19.6	6.06e-01	0	44	102	524288	22	4718
2026-01-25 11:57:13.62	351.73	35.20	-30.0	-31.9	20.1	6.08e-01	0	44	102	524288	22	4507
2026-01-25 11:57:14.63	351.63	34.94	-29.8	-32.0	20.3	6.04e-01	0	44	102	524288	21	4630
2026-01-25 11:57:15.63	351.52	34.69	-29.7	-31.7	20.5	6.05e-01	0	44	102	524288	21	4529
2026-01-25 11:57:16.63	351.42	34.43	-29.7	-31.7	20.5	6.08e-01	0	44	102	524288	21	4540
2026-01-25 11:57:17.64	351.32	34.18	-29.7	-31.9	20.4	6.08e-01	0	44	102	524288	21	4605
2026-01-25 11:57:18.65	351.22	33.93	-29.7	-31.9	20.4	6.05e-01	0	44	102	524288	21	4617
2026-01-25 11:57:19.65	351.12	33.68	-29.7	-31.8	20.4	6.06e-01	0	44	102	524288	21	4593
2026-01-25 11:57:20.66	351.03	33.44	-29.7	-31.8	20.4	6.05e-01	0	44	102	524288	21	4581
2026-01-25 11:57:21.66	350.93	33.19	-29.5	-31.3	20.7	6.06e-01	0	44	102	524288	21	4417
2026-01-25 11:57:22.67	350.84	32.95	-29.3	-31.3	20.9	6.08e-01	0	44	102	524288	20	4533
2026-01-25 11:57:23.68	350.75	32.71	-29.3	-31.3	20.9	6.07e-01	0	44	102	524288	20	4543
2026-01-25 11:57:24.68	350.66	32.47	-29.2	-31.1	21.0	6.07e-01	0	44	102	524288	20	4481
2026-01-25 11:57:25.69	350.57	32.23	-29.2	-31.1	21.0	6.05e-01	0	44	102	524288	20	4484
2026-01-25 11:57:26.70	350.48	32.00	-29.3	-31.3	20.9	6.06e-01	0	44	102	524288	20	4540
2026-01-25 11:57:27.70	350.40	31.77	-29.3	-31.4	20.8	6.05e-01	0	44	102	524288	20	4572
2026-01-25 11:57:28.70	350.31	31.54	-29.4	-31.6	20.8	6.06e-01	0	44	102	524288	20	4621
2026-01-25 11:57:29.70	350.23	31.31	-29.4	-31.5	20.8	6.07e-01	0	44	102	524288	20	4599
2026-01-25 11:57:30.71	350.15	31.08	-29.3	-31.4	20.9	6.04e-01	0	44	102	524288	20	4576
2026-01-25 11:57:31.71	350.07	30.86	-29.4	-31.5	20.9	6.04e-01	0	44	102	524288	20	4591
2026-01-25 11:57:32.71	349.99	30.64	-29.3	-31.4	20.9	6.06e-01	0	44	102	524288	20	4555
2026-01-25 11:57:33.72	349.91	30.41	-29.2	-31.1	21.1	6.07e-01	0	44	102	524288	20	4476
2026-01-25 11:57:34.72	349.83	30.19	-29.2	-31.1	21.1	6.05e-01	0	44	102	524288	20	4480
2026-01-25 11:57:35.72	349.76	29.98	-29.1	-30.9	21.1	6.06e-01	0	44	102	524288	20	4422
2026-01-25 11:57:36.73	349.68	29.76	-29.2	-31.0	21.1	6.06e-01	0	44	102	524288	20	4440
2026-01-25 11:57:37.73	349.61	29.55	-29.1	-30.9	21.1	6.05e-01	0	44	102	524288	20	4424
2026-01-25 11:57:38.73	349.54	29.34	-29.2	-31.0	21.1	6.05e-01	0	44	102	524288	20	4443
2026-01-25 11:57:39.74	349.47	29.12	-29.2	-31.2	21.0	6.07e-01	0	44	102	524288	20	4493
2026-01-25 11:57:40.75	349.39	28.91	-29.3	-31.3	20.9	6.06e-01	0	44	102	524288	20	4534
2026-01-25 11:57:41.75	349.32	28.71	-29.4	-31.7	20.7	6.08e-01	0	44	102	524288	20	4648
2026-01-25 11:57:42.76	349.26	28.50	-29.4	-31.5	20.7	6.06e-01	0	44	102	524288	20	4587
2026-01-25 11:57:43.76	349.19	28.29	-29.4	-31.5	20.7	6.07e-01	0	44	102	524288	20	4588
2026-01-25 11:57:44.77	349.12	28.09	-29.4	-31.5	20.7	6.05e-01	0	44	102	524288	20	4591
2026-01-25 11:57:45.76	349.06	27.89	-29.5	-31.7	20.6	6.07e-01	0	44	102	524288	20	4674
2026-01-25 11:57:46.76	348.99	27.69	-29.5	-31.8	20.5	6.08e-01	0	44	102	524288	20	4700
2026-01-25 11:57:47.76	348.93	27.49	-29.6	-32.0	20.4	6.05e-01	0	44	102	524288	20	4769
2026-01-25 11:57:48.77	348.86	27.30	-29.6	-32.1	20.3	6.07e-01	0	44	102	524288	20	4790
2026-01-25 11:57:49.77	348.80	27.10	-29.8	-32.5	20.1	6.06e-01	0	44	102	524288	20	4943
2026-01-25 11:57:50.78	348.74	26.91	-29.7	-32.5	20.1	6.05e-01	0	44	102	524288	20	4924
2026-01-25 11:57:51.78	348.68	26.71	-29.9	-32.8	19.9	6.05e-01	0	44	102	524288	20	5055
2026-01-25 11:57:52.79	348.62	26.52	-29.9	-32.8	19.9	6.07e-01	0	44	102	524288	20	5036
2026-01-25 11:57:53.80	348.56	26.33	-29.8	-32.6	20.0	6.07e-01	0	44	102	524288	20	4985
2026-01-25 11:57:54.80	348.50	26.14	-29.9	-32.8	19.8	6.06e-01	0	44	102	524288	20	5053
2026-01-25 11:57:55.81	348.44	25.96	-29.9	-32.8	19.8	6.06e-01	0	44	102	524288	20	5058
2026-01-25 11:57:56.82	348.39	25.77	-29.9	-33.0	19.7	6.09e-01	0	44	102	524288	20	5118
2026-01-25 11:57:57.82	348.33	25.59	-29.9	-32.9	19.7	6.05e-01	0	44	102	524288	20	5097
2026-01-25 11:57:58.82	348.27	25.40	-29.9	-32.9	19.8	6.06e-01	0	44	102	524288	20	5064
2026-01-25 11:57:59.83	348.22	25.22	-29.9	-32.8	19.8	6.06e-01	0	44	102	524288	20	5055
2026-01-25 11:58:00.83	348.17	25.04	-29.9	-33.0	19.7	6.06e-01	0	44	102	524288	20	5100
2026-01-25 11:58:01.83	348.11	24.86	-29.9	-32.8	19.8	6.07e-01	0	44	102	524288	20	5046
2026-01-25 11:58:02.84	348.06	24.69	-30.0	-33.1	19.6	6.07e-01	0	44	102	524288	20	5143
2026-01-25 11:58:03.84	348.01	24.51	-29.9	-32.8	19.7	6.07e-01	0	44	102	524288	20	5047
2026-01-25 11:58:04.84	347.96	24.34	-29.9	-32.7	19.8	6.05e-01	0	44	102	524288	20	5023
2026-01-25 11:58:05.85	347.91	24.16	-29.9	-32.9	19.7	6.08e-01	0	44	102	524288	20	5069
2026-01-25 11:58:06.86	347.86	23.99	-29.9	-32.9	19.7	6.08e-01	0	44	102	524288	20	5086
2026-01-25 11:58:07.86	347.81	23.82	-30.0	-33.1	19.5	6.07e-01	0	44	102	524288	20	5174
2026-01-25 11:58:08.87	347.76	23.65	-30.0	-33.1	19.5	6.06e-01	0	44	102	524288	20	5166
2026-01-25 11:58:09.87	347.71	23.48	-30.0	-33.1	19.6	6.01e-01	0	44	102	524288	20	5154
2026-01-25 11:58:10.88	347.66	23.31	-30.0	-33.2	19.5	6.02e-01	0	44	102	524288	20	5202
2026-01-25 11:58:11.88	347.61	23.14	-30.1	-33.3	19.4	6.04e-01	0	44	102	524288	20	5243
2026-01-25 11:58:12.89	347.57	22.98	-30.1	-33.4	19.4	6.01e-01	0	44	102	524288	20	5264
2026-01-25 11:58:13.89	347.52	22.81	-30.1	-33.3	19.4	6.03e-01	0	44	102	524288	20	5245
2026-01-25 11:58:14.90	347.48	22.65	-30.1	-33.4	19.4	6.03e-01	0	44	102	524288	20	5287
2026-01-25 11:58:15.90	347.43	22.49	-30.0	-32.8	19.5	6.04e-01	0	44	102	524288	21	4932
2026-01-25 11:58:16.90	347.39	22.33	-30.0	-32.8	19.5	6.00e-01	0	44	102	524288	21	4932
2026-01-25 11:58:17.91	347.34	22.16	-30.0	-32.6	19.6	6.03e-01	0	44	102	524288	21	4888
2026-01-25 11:58:18.91	347.30	22.01	-30.0	-32.8	19.5	6.03e-01	0	44	102	524288	21	4941
2026-01-25 11:58:19.91	347.26	21.85	-30.1	-33.0	19.3	6.04e-01	0	44	102	524288	21	5023
2026-01-25 11:58:20.91	347.21	21.69	-30.0	-32.7	19.5	6.02e-01	0	44	102	524288	21	4895
2026-01-25 11:58:21.92	347.17	21.54	-29.9	-32.4	19.7	6.03e-01	0	44	102	524288	21	4813
2026-01-25 11:58:22.92	347.13	21.38	-29.9	-32.5	19.6	6.05e-01	0	44	102	524288	21	4831
2026-01-25 11:58:23.93	347.09	21.23	-29.8	-32.3	19.7	6.04e-01	0	44	102	524288	21	4781
2026-01-25 11:58:24.93	347.05	21.08	-29.8	-32.3	19.7	6.03e-01	0	44	102	524288	21	4774
2026-01-25 11:58:25.94	347.01	20.92	-29.8	-32.3	19.8	6.02e-01	0	44	102	524288	21	4766
2026-01-25 11:58:26.93	346.97	20.77	-29.9	-32.3	19.7	6.00e-01	0	44	102	524288	21	4788
2026-01-25 11:58:27.95	346.93	20.62	-30.0	-32.6	19.6	6.04e-01	0	44	102	524288	21	4870
2026-01-25 11:58:28.95	346.89	20.47	-29.9	-32.4	19.7	6.03e-01	0	44	102	524288	21	4797
2026-01-25 11:58:29.95	346.85	20.33	-29.7	-32.0	19.9	6.05e-01	0	44	102	524288	21	4681
2026-01-25 11:58:30.95	346.82	20.18	-29.7	-32.0	19.9	6.03e-01	0	44	102	524288	21	4665
2026-01-25 11:58:31.96	346.78	20.03	-29.7	-32.1	19.9	6.02e-01	0	44	102	524288	21	4694
2026-01-25 11:58:32.95	346.74	19.89	-29.7	-32.0	19.9	6.01e-01	0	44	102	524288	21	4688
2026-01-25 11:58:33.96	346.71	19.74	-29.8	-32.2	19.8	6.03e-01	0	44	102	524288	21	4761
2026-01-25 11:58:34.96	346.67	19.60	-29.8	-32.2	19.8	6.00e-01	0	44	102	524288	21	4743
2026-01-25 11:58:35.97	346.63	19.46	-29.9	-32.4	19.7	6.03e-01	0	44	102	524288	21	4805
2026-01-25 11:58:36.97	346.60	19.32	-30.0	-32.8	19.4	6.03e-01	0	44	102	524288	21	4956
2026-01-25 11:58:37.97	346.56	19.18	-29.9	-32.5	19.6	6.03e-01	0	44	102	524288	21	4833
2026-01-25 11:58:38.97	346.53	19.04	-29.8	-32.3	19.7	6.03e-01	0	44	102	524288	21	4768
2026-01-25 11:58:39.98	346.49	18.90	-29.8	-32.3	19.7	6.02e-01	0	44	102	524288	21	4784
2026-01-25 11:58:40.98	346.46	18.76	-29.8	-32.3	19.6	6.04e-01	0	44	102	524288	21	4788
2026-01-25 11:58:41.99	346.43	18.62	-29.8	-32.3	19.6	6.04e-01	0	44	102	524288	21	4799
2026-01-25 11:58:42.99	346.39	18.49	-29.9	-32.5	19.4	6.01e-01	0	44	102	524288	21	4862
2026-01-25 11:58:43.99	346.36	18.35	-29.8	-32.4	19.5	6.05e-01	0	44	102	524288	21	4810
2026-01-25 11:58:45.00	346.33	18.22	-29.8	-32.1	19.7	6.04e-01	0	44	102	524288	21	4736
2026-01-25 11:58:46.00	346.30	18.08	-29.7	-32.1	19.7	6.03e-01	0	44	102	524288	21	4724
2026-01-25 11:58:47.01	346.26	17.95	-29.8	-32.2	19.6	6.04e-01	0	44	102	524288	21	4770
2026-01-25 11:58:48.01	346.23	17.82	-29.7	-32.1	19.7	6.04e-01	0	44	102	524288	21	4718
2026-01-25 11:58:49.01	346.20	17.69	-29.8	-32.3	19.5	6.04e-01	0	44	102	524288	21	4795
2026-01-25 11:58:50.02	346.17	17.55	-29.7	-32.0	19.7	6.04e-01	0	44	102	524288	21	4689
2026-01-25 11:58:51.02	346.14	17.42	-29.7	-32.1	19.6	6.03e-01	0	44	102	524288	21	4720
2026-01-25 11:58:52.02	346.11	17.30	-29.7	-32.1	19.6	6.02e-01	0	44	102	524288	21	4721
2026-01-25 11:58:53.03	346.08	17.17	-29.8	-32.3	19.5	6.00e-01	0	44	102	524288	21	4784
2026-01-25 11:58:54.03	346.05	17.04	-29.7	-32.1	19.6	6.04e-01	0	44	102	524288	21	4728
2026-01-25 11:58:55.04	346.02	16.91	-29.7	-32.1	19.5	6.05e-01	0	44	102	524288	21	4717
2026-01-25 11:58:56.04	345.99	16.78	-29.8	-32.2	19.4	6.01e-01	0	44	102	524288	21	4759
2026-01-25 11:58:57.05	345.96	16.66	-29.8	-32.2	19.4	6.06e-01	0	44	102	524288	21	4753
2026-01-25 11:58:58.05	345.94	16.53	-29.8	-32.2	19.3	6.04e-01	0	44	102	524288	21	4756
2026-01-25 11:58:59.06	345.91	16.41	-29.7	-32.0	19.4	6.05e-01	0	44	102	524288	21	4712
2026-01-25 11:59:00.06	345.88	16.29	-29.8	-32.3	19.2	6.03e-01	0	44	102	524288	21	4778
2026-01-25 11:59:01.07	345.85	16.16	-29.9	-32.5	19.0	6.03e-01	0	44	102	524288	21	4863
2026-01-25 11:59:02.08	345.82	16.04	-29.9	-32.4	19.0	6.04e-01	0	44	102	524288	21	4837
2026-01-25 11:59:03.08	345.80	15.92	-29.9	-32.5	18.9	6.03e-01	0	44	102	524288	21	4871
2026-01-25 11:59:04.08	345.77	15.80	-29.8	-32.4	18.9	6.02e-01	0	44	102	524288	21	4832
2026-01-25 11:59:05.08	345.74	15.68	-29.8	-32.3	18.9	6.02e-01	0	44	102	524288	21	4814
2026-01-25 11:59:06.08	345.72	15.56	-29.8	-32.3	18.9	6.04e-01	0	44	102	524288	21	4812
2026-01-25 11:59:07.09	345.69	15.44	-29.9	-32.6	18.8	6.02e-01	0	44	102	524288	21	4889
2026-01-25 11:59:08.10	345.67	15.32	-29.8	-32.4	18.9	6.01e-01	0	44	102	524288	21	4835
2026-01-25 11:59:09.10	345.64	15.20	-29.8	-32.3	19.0	6.03e-01	0	44	102	524288	21	4799
2026-01-25 11:59:10.11	345.62	15.08	-29.8	-32.2	19.0	6.03e-01	0	44	102	524288	21	4781
2026-01-25 11:59:11.11	345.59	14.97	-29.8	-32.2	19.0	6.03e-01	0	44	102	524288	21	4778
2026-01-25 11:59:12.11	345.57	14.85	-29.8	-32.4	19.0	6.03e-01	0	44	102	524288	21	4834
2026-01-25 11:59:13.11	345.54	14.74	-29.8	-32.3	19.1	6.05e-01	0	44	102	524288	21	4802
2026-01-25 11:59:14.12	345.52	14.62	-29.8	-32.4	19.0	6.02e-01	0	44	102	524288	21	4842
2026-01-25 11:59:15.12	345.49	14.51	-29.9	-32.6	18.9	6.05e-01	0	44	102	524288	21	4925
2026-01-25 11:59:16.12	345.47	14.40	-29.9	-32.6	19.0	6.05e-01	0	44	102	524288	21	4899
2026-01-25 11:59:17.13	345.45	14.28	-30.0	-32.8	18.9	6.01e-01	0	44	102	524288	21	4971
2026-01-25 11:59:18.13	345.42	14.17	-29.9	-32.7	18.9	6.04e-01	0	44	102	524288	21	4962
2026-01-25 11:59:19.13	345.40	14.06	-30.0	-32.9	18.8	6.02e-01	0	44	102	524288	21	5015
2026-01-25 11:59:20.14	345.38	13.95	-30.0	-32.8	18.9	6.04e-01	0	44	102	524288	21	5003
2026-01-25 11:59:21.14	345.35	13.84	-30.1	-33.1	18.8	6.05e-01	0	44	102	524288	21	5097
2026-01-25 11:59:22.14	345.33	13.73	-30.0	-32.8	18.9	6.01e-01	0	44	102	524288	21	5004
2026-01-25 11:59:23.14	345.31	13.62	-29.9	-32.7	19.0	6.04e-01	0	44	102	524288	21	4951
2026-01-25 11:59:24.14	345.29	13.51	-29.9	-32.6	19.0	6.05e-01	0	44	102	524288	21	4937
2026-01-25 11:59:25.15	345.26	13.40	-29.9	-32.6	19.0	6.07e-01	0	44	102	524288	21	4930
2026-01-25 11:59:26.16	345.24	13.29	-29.9	-32.6	19.0	6.03e-01	0	44	102	524288	21	4951
2026-01-25 11:59:27.16	345.22	13.18	-29.8	-32.5	19.0	6.02e-01	0	44	102	524288	21	4918
2026-01-25 11:59:28.16	345.20	13.08	-29.8	-32.4	19.1	6.02e-01	0	44	102	524288	21	4871
2026-01-25 11:59:29.16	345.18	12.97	-29.8	-32.4	19.0	6.02e-01	0	44	102	524288	21	4890
2026-01-25 11:59:30.17	345.16	12.86	-29.8	-32.6	19.0	6.04e-01	0	44	102	524288	21	4955
2026-01-25 11:59:31.17	345.14	12.76	-29.8	-32.3	19.1	6.01e-01	0	44	102	524288	21	4851
2026-01-25 11:59:32.18	345.12	12.65	-29.8	-32.4	19.2	6.05e-01	0	44	102	524288	21	4863
2026-01-25 11:59:33.19	345.10	12.55	-29.8	-32.5	19.1	6.02e-01	0	44	102	524288	21	4915
2026-01-25 11:59:34.19	345.08	12.44	-29.8	-32.3	19.3	6.04e-01	0	44	102	524288	21	4818
2026-01-25 11:59:35.19	345.06	12.34	-29.7	-32.3	19.3	6.04e-01	0	44	102	524288	21	4808
2026-01-25 11:59:36.20	345.04	12.24	-29.8	-32.3	19.3	6.02e-01	0	44	102	524288	21	4832
2026-01-25 11:59:37.20	345.02	12.14	-29.9	-32.5	19.2	6.04e-01	0	44	102	524288	21	4900
2026-01-25 11:59:38.21	345.00	12.03	-29.8	-32.4	19.2	6.03e-01	0	44	102	524288	21	4846
2026-01-25 11:59:39.21	344.98	11.93	-29.9	-32.6	19.1	5.99e-01	0	44	102	524288	21	4935
2026-01-25 11:59:40.22	344.96	11.83	-30.0	-32.9	18.9	6.05e-01	0	44	102	524288	21	5051
2026-01-25 11:59:41.22	344.94	11.73	-30.1	-33.2	18.7	6.02e-01	0	44	102	524288	21	5150
2026-01-25 11:59:42.23	344.92	11.63	-30.0	-33.0	18.9	6.05e-01	0	44	102	524288	21	5054
2026-01-25 11:59:43.23	344.90	11.53	-30.0	-33.0	18.8	6.05e-01	0	44	102	524288	21	5080
2026-01-25 11:59:44.23	344.88	11.43	-30.0	-33.2	18.5	6.01e-01	0	44	102	524288	21	5178
2026-01-25 11:59:45.24	344.87	11.33	-30.1	-33.4	18.1	6.04e-01	0	44	102	524288	21	5300
2026-01-25 11:59:46.24	344.85	11.23	-29.9	-33.1	18.3	6.04e-01	0	44	102	524288	21	5173
2026-01-25 11:59:47.25	344.83	11.14	-30.1	-33.5	17.9	6.03e-01	0	44	102	524288	21	5362
2026-01-25 11:59:48.25	344.81	11.04	-30.0	-33.3	18.1	6.04e-01	0	44	102	524288	21	5258
2026-01-25 11:59:49.26	344.79	10.94	-30.0	-33.2	18.4	6.01e-01	0	44	102	524288	21	5174
2026-01-25 11:59:50.26	344.78	10.84	-30.0	-33.0	18.6	6.03e-01	0	44	102	524288	21	5105
2026-01-25 11:59:51.27	344.76	10.75	-30.0	-33.1	18.5	6.04e-01	0	44	102	524288	21	5115
2026-01-25 11:59:52.27	344.74	10.65	-30.1	-33.2	18.4	6.05e-01	0	44	102	524288	21	5178
2026-01-25 11:59:53.28	344.73	10.56	-30.2	-33.5	18.2	6.01e-01	0	44	102	524288	21	5266
2026-01-25 11:59:54.29	344.71	10.46	-30.0	-33.1	18.4	6.05e-01	0	44	102	524288	21	5131
2026-01-25 11:59:55.29	344.69	10.37	-30.0	-32.9	18.5	6.06e-01	0	44	102	524288	21	5061
2026-01-25 11:59:56.30	344.68	10.27	-30.0	-32.9	18.5	6.02e-01	0	44	102	524288	21	5068
2026-01-25 11:59:57.30	344.66	10.18	-30.0	-33.0	18.3	6.03e-01	0	44	102	524288	21	5109
2026-01-25 11:59:58.31	344.64	10.08	-30.0	-33.2	18.1	6.01e-01	0	44	102	524288	21	5176
2026-01-25 11:59:59.31	344.63	9.99	-30.0	-33.1	18.2	6.02e-01	0	44	102	524288	21	5144
2026-01-25 12:00:00.31	344.61	9.90	-30.1	-33.3	17.9	6.05e-01	0	44	102	524288	21	5243
2026-01-25 12:00:01.31	344.60	9.81	-30.0	-33.3	17.9	6.03e-01	0	44	102	524288	21	5231
2026-01-25 12:00:02.31	344.58	9.72	-30.1	-33.5	17.7	6.05e-01	0	44	102	524288	21	5305
2026-01-25 12:00:03.31	344.56	9.62	-30.2	-33.7	17.5	6.03e-01	0	44	102	524288	21	5403
2026-01-25 12:00:04.31	344.55	9.53	-30.1	-33.5	17.6	6.05e-01	0	44	102	524288	21	5318
2026-01-25 12:00:05.31	344.53	9.44	-30.1	-33.4	17.6	6.03e-01	0	44	102	524288	21	5296
2026-01-25 12:00:06.31	344.52	9.35	-30.1	-33.6	17.5	6.03e-01	0	44	102	524288	21	5345
2026-01-25 12:00:07.32	344.50	9.26	-30.3	-33.8	17.2	6.03e-01	0	44	102	524288	21	5445
2026-01-25 12:00:08.32	344.49	9.17	-30.2	-33.6	17.4	6.03e-01	0	44	102	524288	21	5331
2026-01-25 12:00:09.32	344.47	9.08	-30.2	-33.7	17.4	6.01e-01	0	44	102	524288	21	5389
2026-01-25 12:00:10.33	344.46	8.99	-30.2	-33.7	17.3	6.02e-01	0	44	102	524288	21	5362
2026-01-25 12:00:11.33	344.44	8.91	-30.2	-33.7	17.3	6.03e-01	0	44	102	524288	21	5364
2026-01-25 12:00:12.34	344.43	8.82	-30.3	-33.9	17.1	6.03e-01	0	44	102	524288	21	5450
2026-01-25 12:00:13.34	344.42	8.73	-30.4	-34.2	16.9	6.03e-01	0	44	102	524288	21	5571
2026-01-25 12:00:14.35	344.40	8.64	-30.3	-33.8	17.0	6.07e-01	0	44	102	524288	21	5423
2026-01-25 12:00:15.36	344.39	8.55	-30.2	-33.6	17.2	6.01e-01	0	44	102	524288	21	5341
2026-01-25 12:00:16.35	344.37	8.47	-30.2	-33.6	17.1	6.01e-01	0	44	102	524288	21	5353
2026-01-25 12:00:17.36	344.36	8.38	-30.2	-33.7	17.1	6.03e-01	0	44	102	524288	21	5394
2026-01-25 12:00:18.36	344.35	8.30	-30.2	-33.8	17.0	6.03e-01	0	44	102	524288	21	5428
2026-01-25 12:00:19.36	344.33	8.21	-30.2	-33.8	17.0	6.03e-01	0	44	102	524288	21	5434
2026-01-25 12:00:20.37	344.32	8.12	-30.3	-34.1	16.9	6.01e-01	0	44	102	524288	21	5543
2026-01-25 12:00:21.36	344.31	8.04	-30.4	-34.3	16.7	6.04e-01	0	44	102	524288	21	5630
2026-01-25 12:00:22.36	344.29	7.95	-30.3	-33.9	17.0	6.04e-01	0	44	102	524288	21	5457
2026-01-25 12:00:23.37	344.28	7.87	-30.2	-33.7	17.2	6.04e-01	0	44	102	524288	21	5388
2026-01-25 12:00:24.37	344.27	7.79	-30.2	-33.7	17.4	6.00e-01	0	44	102	524288	21	5377
2026-01-25 12:00:25.38	344.25	7.70	-30.2	-33.8	17.4	6.03e-01	0	44	102	524288	21	5430
2026-01-25 12:00:26.38	344.24	7.62	-30.2	-33.7	17.4	6.05e-01	0	44	102	524288	21	5410
2026-01-25 12:00:27.39	344.23	7.53	-30.2	-33.8	17.5	6.02e-01	0	44	102	524288	21	5455
2026-01-25 12:00:28.40	344.21	7.45	-30.2	-33.9	17.4	6.02e-01	0	44	102	524288	21	5477
2026-01-25 12:00:29.40	344.20	7.37	-30.1	-33.6	17.5	6.02e-01	0	44	102	524288	21	5364
2026-01-25 12:00:30.40	344.19	7.29	-30.3	-33.9	17.4	6.04e-01	0	44	102	524288	21	5478
2026-01-25 12:00:31.40	344.18	7.20	-30.4	-34.2	17.3	6.02e-01	0	44	102	524288	21	5614
2026-01-25 12:00:32.41	344.16	7.12	-33.1	-43.2	9.9	6.39e-01	0	44	102	524288	26	11532
2026-01-25 12:00:33.41	344.15	7.04	-33.8	-52.1	3.9	7.43e-01	0	44	104	524288	28	29554
2026-01-25 12:00:34.41	344.14	6.96	-34.1	-53.2	3.8	7.42e-01	0	44	104	524288	29	32223
2026-01-25 12:00:35.42	344.13	6.88	-34.3	-53.7	3.8	7.45e-01	0	44	104	524288	29	33355

#Closed at: 2026-01-25 12:00:35
#Recorded file [0 MB]: D:/data/31010_260125_145400.dat