passes_logs/2026/01/25/R2M6_AANII_01/R2M6_AANII_01__20260125_005810_NOAA_21_JPSS-2_rec.log

#Pass ID: 20260125_005810_NOAA 21 (JPSS-2)
#Satellite: NOAA 21 (JPSS-2)
#Configuration: NOAA 21
#almurnet v.1.7.20240730
#Start time: 2026-01-25 00:58:11

#Version: 2.2.20231116
#Station: R2M6_AANII_01
#Location: 30.233357 lon 59.946436 lat
#TLE: 1 54234U 22150A   26024.45772595  .00000201  00000+0  11607-3 0  9996
#TLE: 2 54234  98.7508 325.2435 0000728 220.7365 139.3757 14.19538765166156

#Time	Az	El	Level	Level2	SNR	BER	BlckErr	Temp	State	Recorded	gain1	gain2
2026-01-25 00:58:11.11	15.12	7.05	-31.4	-37.5	4.4	1.42e+00	0	42	0	0	22	7241
2026-01-25 00:58:12.10	15.09	7.13	-31.8	-38.4	4.3	1.44e+00	0	42	104	0	23	7693
2026-01-25 00:58:13.10	15.06	7.20	-31.6	-36.6	7.1	1.72e-01	0	42	0	0	23	6462
2026-01-25 00:58:14.10	15.03	7.28	-31.7	-37.2	6.6	1.99e-01	0	42	102	1048576	23	6798
2026-01-25 00:58:15.10	15.00	7.35	-31.5	-36.5	7.2	1.43e-01	0	42	102	1048576	23	6357
2026-01-25 00:58:16.11	14.97	7.43	-31.4	-35.9	7.6	1.02e-01	0	42	102	1048576	23	6076
2026-01-25 00:58:17.11	14.94	7.51	-31.2	-35.8	8.1	6.85e-02	0	42	102	1048576	22	6087
2026-01-25 00:58:18.12	14.91	7.59	-31.1	-35.3	8.5	4.60e-02	0	42	102	1048576	22	5821
2026-01-25 00:58:19.12	14.88	7.66	-31.0	-35.0	8.7	3.58e-02	0	42	102	1048576	22	5723
2026-01-25 00:58:20.13	14.84	7.74	-30.9	-35.1	9.0	2.55e-02	0	43	102	1048576	21	5846
2026-01-25 00:58:21.14	14.81	7.82	-30.9	-35.0	9.1	2.54e-02	0	42	102	1048576	21	5827
2026-01-25 00:58:22.14	14.78	7.90	-30.6	-34.2	9.7	1.24e-02	0	42	102	1048576	21	5434
2026-01-25 00:58:23.15	14.75	7.98	-30.2	-33.6	10.5	6.13e-03	0	42	102	1048576	20	5311
2026-01-25 00:58:24.15	14.72	8.06	-29.9	-32.7	11.1	2.20e-03	0	42	102	1048576	20	4968
2026-01-25 00:58:25.16	14.68	8.13	-29.6	-32.4	11.7	7.84e-04	0	42	102	1048576	19	4951
2026-01-25 00:58:26.16	14.65	8.21	-29.4	-31.7	12.1	2.75e-04	0	42	102	1048576	19	4726
2026-01-25 00:58:27.16	14.62	8.29	-29.2	-31.8	12.4	1.46e-04	0	43	102	1048576	18	4869
2026-01-25 00:58:28.16	14.59	8.37	-29.3	-32.2	12.2	2.46e-04	0	43	102	1048576	18	4996
2026-01-25 00:58:29.16	14.55	8.45	-29.3	-31.9	12.4	1.63e-04	0	42	102	1048576	18	4900
2026-01-25 00:58:30.17	14.52	8.53	-29.3	-32.0	12.3	1.77e-04	0	43	102	1048576	18	4918
2026-01-25 00:58:31.17	14.49	8.61	-29.4	-32.2	12.1	2.39e-04	0	43	102	1048576	18	5001
2026-01-25 00:58:32.17	14.45	8.69	-29.2	-31.9	12.4	1.59e-04	0	43	102	1048576	18	4880
2026-01-25 00:58:33.18	14.42	8.77	-29.1	-31.6	12.6	1.03e-04	0	43	102	1048576	18	4776
2026-01-25 00:58:34.18	14.39	8.85	-29.2	-31.7	12.5	1.18e-04	0	43	102	1048576	18	4827
2026-01-25 00:58:35.19	14.35	8.94	-29.1	-31.6	12.6	7.78e-05	0	43	102	1048576	18	4778
2026-01-25 00:58:36.19	14.32	9.02	-29.4	-32.3	12.2	2.15e-04	0	43	102	1048576	18	5011
2026-01-25 00:58:37.19	14.28	9.10	-29.1	-31.5	12.7	1.07e-04	0	43	102	1048576	18	4736
2026-01-25 00:58:38.20	14.25	9.18	-28.9	-31.0	13.0	5.11e-05	0	43	102	1048576	18	4590
2026-01-25 00:58:39.20	14.21	9.26	-28.8	-31.2	13.2	1.83e-05	0	43	102	1048576	17	4764
2026-01-25 00:58:40.20	14.18	9.35	-28.8	-31.4	13.1	2.67e-05	0	43	102	1048576	17	4819
2026-01-25 00:58:41.20	14.14	9.43	-29.0	-31.3	12.8	5.18e-05	0	43	102	1048576	18	4682
2026-01-25 00:58:42.21	14.11	9.51	-28.8	-31.3	13.2	2.89e-05	0	43	102	1048576	17	4781
2026-01-25 00:58:43.21	14.07	9.60	-28.8	-31.2	13.2	1.67e-05	0	43	102	1048576	17	4754
2026-01-25 00:58:44.21	14.03	9.68	-28.8	-31.3	13.1	2.97e-05	0	43	102	1048576	17	4801
2026-01-25 00:58:45.21	14.00	9.76	-28.8	-31.3	13.1	3.35e-05	0	43	102	1048576	17	4800
2026-01-25 00:58:46.22	13.96	9.85	-28.7	-30.9	13.4	1.75e-05	0	43	102	1048576	17	4666
2026-01-25 00:58:47.23	13.92	9.93	-28.5	-30.6	13.6	1.22e-05	0	43	102	1048576	17	4576
2026-01-25 00:58:48.23	13.89	10.02	-28.5	-30.6	13.6	7.60e-06	0	43	102	1048576	17	4583
2026-01-25 00:58:49.23	13.85	10.10	-28.4	-30.3	13.8	6.10e-06	0	43	102	1048576	17	4484
2026-01-25 00:58:50.24	13.81	10.19	-27.7	-29.9	13.9	7.00e-07	0	43	102	1048576	16	4658
2026-01-25 00:58:51.25	13.77	10.27	-28.4	-30.9	13.7	6.10e-06	0	43	102	1048576	16	4762
2026-01-25 00:58:52.25	13.74	10.36	-28.2	-30.4	13.6	1.50e-06	0	43	102	1048576	16	4608
2026-01-25 00:58:53.26	13.70	10.45	-28.2	-30.2	14.1	7.00e-07	0	43	102	1048576	16	4547
2026-01-25 00:58:54.26	13.66	10.53	-28.1	-30.1	14.2	0.00e+00	0	43	102	1048576	16	4518
2026-01-25 00:58:55.27	13.62	10.62	-28.0	-30.3	14.2	1.50e-06	0	43	102	1048576	15	4699
2026-01-25 00:58:56.27	13.58	10.71	-27.9	-30.1	14.3	7.11e-04	0	43	102	1048576	15	4646
2026-01-25 00:58:57.28	13.54	10.79	-27.9	-30.1	14.3	0.00e+00	0	43	102	1048576	15	4635
2026-01-25 00:58:58.29	13.50	10.88	-27.9	-30.1	14.4	0.00e+00	0	43	102	1048576	15	4627
2026-01-25 00:58:59.29	13.46	10.97	-27.8	-29.9	14.5	1.50e-06	0	43	102	1048576	15	4576
2026-01-25 00:59:00.29	13.42	11.06	-27.0	-29.2	14.3	0.00e+00	0	43	102	1048576	15	4628
2026-01-25 00:59:01.30	13.38	11.15	-27.8	-29.9	14.2	8.68e-04	0	43	102	1048576	15	4587
2026-01-25 00:59:02.30	13.34	11.24	-27.8	-29.8	12.8	7.47e-04	0	43	102	1048576	15	4561
2026-01-25 00:59:03.30	13.30	11.33	-27.8	-29.8	14.4	0.00e+00	0	43	102	1048576	15	4563
2026-01-25 00:59:04.31	13.26	11.42	-27.8	-30.0	14.4	0.00e+00	0	43	102	1048576	15	4609
2026-01-25 00:59:05.31	13.22	11.50	-27.7	-29.7	14.6	8.94e-04	0	43	102	1048576	15	4527
2026-01-25 00:59:06.32	13.17	11.60	-27.7	-29.6	14.7	0.00e+00	0	43	102	1048576	15	4495
2026-01-25 00:59:07.32	13.13	11.69	-27.7	-29.6	14.7	1.30e-03	0	43	102	1048576	15	4488
2026-01-25 00:59:08.33	13.09	11.78	-27.8	-29.8	14.6	4.96e-03	0	43	102	1048576	15	4533
2026-01-25 00:59:09.33	13.05	11.87	-27.7	-29.5	14.7	3.64e-03	0	43	102	1048576	15	4473
2026-01-25 00:59:10.33	13.00	11.96	-27.7	-29.6	14.7	1.07e-03	0	43	102	1048576	15	4502
2026-01-25 00:59:11.33	12.96	12.05	-27.7	-29.6	14.7	1.38e-03	0	43	102	1048576	15	4496
2026-01-25 00:59:12.33	12.92	12.14	-27.7	-29.6	14.7	4.80e-05	0	43	102	1048576	15	4480
2026-01-25 00:59:13.34	12.87	12.23	-27.6	-29.4	14.8	1.63e-03	0	43	102	1048576	15	4434
2026-01-25 00:59:14.35	12.83	12.33	-27.6	-29.5	14.8	4.94e-03	0	43	102	1048576	15	4444
2026-01-25 00:59:15.35	12.78	12.42	-27.6	-29.4	14.8	0.00e+00	0	43	102	1048576	15	4437
2026-01-25 00:59:16.36	12.74	12.51	-27.6	-29.3	14.9	9.61e-04	0	43	102	1048576	15	4395
2026-01-25 00:59:17.36	12.69	12.61	-27.6	-29.4	14.8	5.16e-03	0	43	102	1048576	15	4434
2026-01-25 00:59:18.37	12.65	12.70	-27.5	-29.1	15.0	3.72e-03	0	43	102	1048576	15	4351
2026-01-25 00:59:19.37	12.60	12.80	-27.6	-29.3	14.9	1.32e-03	0	43	102	1048576	15	4412
2026-01-25 00:59:20.36	12.56	12.89	-27.6	-29.5	14.8	3.63e-03	0	43	102	1048576	15	4447
2026-01-25 00:59:21.37	12.51	12.99	-27.7	-29.7	14.7	4.00e-03	0	43	102	1048576	15	4509
2026-01-25 00:59:22.37	12.46	13.08	-27.7	-29.6	14.7	1.10e-03	0	43	102	1048576	15	4488
2026-01-25 00:59:23.38	12.42	13.18	-27.7	-29.7	14.7	5.20e-03	0	43	102	1048576	15	4519
2026-01-25 00:59:24.38	12.37	13.27	-27.8	-29.8	14.7	3.84e-03	0	43	102	1048576	15	4539
2026-01-25 00:59:25.38	12.32	13.37	-27.8	-29.8	14.6	2.45e-04	0	43	102	1048576	15	4542
2026-01-25 00:59:26.39	12.27	13.47	-27.7	-29.6	14.8	3.80e-03	0	43	102	1048576	15	4475
2026-01-25 00:59:27.39	12.23	13.56	-27.6	-29.4	14.8	3.48e-03	0	43	102	1048576	15	4435
2026-01-25 00:59:28.40	12.18	13.66	-27.7	-29.7	14.7	9.56e-04	0	43	102	1048576	15	4498
2026-01-25 00:59:29.40	12.13	13.76	-27.6	-29.4	14.9	3.45e-03	0	43	102	1048576	15	4427
2026-01-25 00:59:30.40	12.08	13.86	-27.4	-29.5	15.1	3.85e-03	0	43	102	1048576	14	4557
2026-01-25 00:59:31.40	12.03	13.96	-27.4	-29.4	15.2	0.00e+00	0	44	102	1048576	14	4542
2026-01-25 00:59:32.41	11.98	14.06	-27.5	-29.2	15.0	0.00e+00	0	43	102	1048576	15	4372
2026-01-25 00:59:33.42	11.93	14.16	-27.7	-29.5	14.8	0.00e+00	0	43	102	1048576	15	4462
2026-01-25 00:59:34.41	11.88	14.25	-27.8	-29.8	14.7	2.02e-04	0	44	102	1048576	15	4529
2026-01-25 00:59:35.42	11.83	14.36	-27.5	-29.2	15.0	3.90e-03	0	43	102	1048576	15	4356
2026-01-25 00:59:36.42	11.77	14.46	-27.5	-29.1	15.1	0.00e+00	0	44	102	1048576	15	4325
2026-01-25 00:59:37.43	11.72	14.56	-27.4	-29.5	15.2	0.00e+00	0	43	102	1048576	14	4556
2026-01-25 00:59:38.43	11.67	14.66	-27.4	-29.3	15.2	0.00e+00	0	43	102	1048576	14	4521
2026-01-25 00:59:39.44	11.62	14.76	-27.4	-29.4	15.2	4.02e-03	0	43	102	1048576	14	4525
2026-01-25 00:59:40.44	11.56	14.86	-27.4	-29.4	15.2	1.94e-04	0	43	102	1048576	14	4532
2026-01-25 00:59:41.45	11.51	14.97	-27.5	-29.5	15.1	0.00e+00	0	44	102	1048576	14	4575
2026-01-25 00:59:42.45	11.46	15.07	-27.4	-29.5	15.2	0.00e+00	0	43	102	1048576	14	4570
2026-01-25 00:59:43.45	11.40	15.17	-27.5	-29.2	15.0	0.00e+00	0	44	102	1048576	15	4381
2026-01-25 00:59:44.46	11.35	15.28	-27.8	-29.9	14.6	0.00e+00	0	44	102	1048576	15	4574
2026-01-25 00:59:45.46	11.29	15.38	-27.9	-30.1	14.6	2.44e-03	0	43	102	1048576	15	4621
2026-01-25 00:59:46.46	11.24	15.49	-27.9	-30.1	14.6	2.20e-06	0	43	102	1048576	15	4618
2026-01-25 00:59:47.47	11.18	15.59	-27.9	-30.1	14.6	7.00e-07	0	43	102	1048576	15	4641
2026-01-25 00:59:48.47	11.12	15.70	-27.9	-30.1	14.6	7.00e-07	0	44	102	1048576	15	4626
2026-01-25 00:59:49.47	11.07	15.80	-27.9	-30.1	14.6	0.00e+00	0	43	102	1048576	15	4634
2026-01-25 00:59:50.48	11.01	15.91	-27.9	-30.1	14.6	7.00e-07	0	44	102	1048576	15	4634
2026-01-25 00:59:51.48	10.95	16.02	-27.9	-30.1	14.6	7.00e-07	0	44	102	1048576	15	4629
2026-01-25 00:59:52.48	10.89	16.12	-27.8	-29.9	14.7	0.00e+00	0	44	102	1048576	15	4578
2026-01-25 00:59:53.49	10.83	16.23	-27.6	-29.5	15.0	0.00e+00	0	43	102	1048576	15	4444
2026-01-25 00:59:54.50	10.77	16.34	-27.6	-29.3	15.1	0.00e+00	0	43	102	1048576	15	4388
2026-01-25 00:59:55.50	10.72	16.45	-27.6	-29.3	15.1	0.00e+00	0	44	102	1048576	15	4390
2026-01-25 00:59:56.50	10.66	16.56	-27.6	-29.3	15.1	7.00e-07	0	44	102	1048576	15	4397
2026-01-25 00:59:57.50	10.60	16.67	-27.6	-29.4	15.0	0.00e+00	0	44	102	1048576	15	4430
2026-01-25 00:59:58.51	10.53	16.78	-27.7	-29.6	14.9	0.00e+00	0	44	102	1048576	15	4478
2026-01-25 00:59:59.51	10.47	16.89	-27.8	-29.7	14.9	0.00e+00	0	43	102	1048576	15	4511
2026-01-25 01:00:00.52	10.41	17.00	-27.7	-29.6	14.9	7.00e-07	0	44	102	1048576	15	4490
2026-01-25 01:00:01.53	10.35	17.11	-27.8	-29.9	14.8	0.00e+00	0	44	102	1048576	15	4559
2026-01-25 01:00:02.53	10.29	17.22	-27.8	-29.7	14.9	0.00e+00	0	44	102	1048576	15	4507
2026-01-25 01:00:03.54	10.22	17.34	-27.8	-29.9	14.8	0.00e+00	0	44	102	1048576	15	4567
2026-01-25 01:00:04.55	10.16	17.45	-27.8	-29.9	14.8	0.00e+00	0	44	102	1048576	15	4555
2026-01-25 01:00:05.55	10.09	17.56	-27.8	-29.9	14.8	0.00e+00	0	44	102	1048576	15	4567
2026-01-25 01:00:06.55	10.03	17.68	-27.8	-29.9	14.8	0.00e+00	0	44	102	1048576	15	4560
2026-01-25 01:00:07.56	9.96	17.79	-27.7	-29.6	15.0	0.00e+00	0	44	102	1048576	15	4468
2026-01-25 01:00:08.56	9.90	17.90	-27.7	-29.5	15.0	0.00e+00	0	43	102	1048576	15	4448
2026-01-25 01:00:09.56	9.83	18.02	-27.7	-29.6	15.0	0.00e+00	0	44	102	1048576	15	4460
2026-01-25 01:00:10.56	9.76	18.14	-27.7	-29.5	15.1	0.00e+00	0	43	102	1048576	15	4453
2026-01-25 01:00:11.57	9.70	18.25	-27.7	-29.6	15.0	7.00e-07	0	44	102	1048576	15	4462
2026-01-25 01:00:12.57	9.63	18.37	-27.6	-29.4	15.1	0.00e+00	0	43	102	1048576	15	4417
2026-01-25 01:00:13.57	9.56	18.49	-27.6	-29.4	15.1	0.00e+00	0	44	102	1048576	15	4400
2026-01-25 01:00:14.57	9.49	18.60	-27.6	-29.3	15.2	0.00e+00	0	44	102	1048576	15	4386
2026-01-25 01:00:15.58	9.42	18.72	-27.6	-29.4	15.1	7.00e-07	0	44	102	1048576	15	4405
2026-01-25 01:00:16.58	9.35	18.84	-27.5	-29.2	15.2	0.00e+00	0	44	102	1048576	15	4357
2026-01-25 01:00:17.59	9.28	18.96	-27.6	-29.2	15.2	0.00e+00	0	44	102	1048576	15	4359
2026-01-25 01:00:18.59	9.21	19.08	-27.5	-29.2	15.1	0.00e+00	0	44	102	1048576	15	4345
2026-01-25 01:00:19.59	9.14	19.20	-27.6	-29.2	14.9	0.00e+00	0	44	102	1048576	15	4363
2026-01-25 01:00:20.60	9.06	19.32	-27.6	-29.2	15.2	0.00e+00	0	43	102	1048576	15	4363
2026-01-25 01:00:21.60	8.99	19.44	-27.5	-29.2	15.3	0.00e+00	0	44	102	1048576	15	4347
2026-01-25 01:00:22.60	8.92	19.56	-27.5	-29.1	15.4	0.00e+00	0	44	102	1048576	15	4311
2026-01-25 01:00:23.61	8.84	19.69	-27.5	-29.0	15.4	0.00e+00	0	44	102	1048576	15	4300
2026-01-25 01:00:24.61	8.77	19.81	-27.5	-29.5	15.3	4.95e-04	0	44	102	1048576	14	4565
2026-01-25 01:00:25.61	8.69	19.93	-27.6	-29.4	15.2	4.57e-04	0	44	102	1048576	15	4397
2026-01-25 01:00:26.62	8.61	20.06	-27.6	-29.4	15.2	7.00e-07	0	44	102	1048576	15	4396
2026-01-25 01:00:27.63	8.54	20.19	-27.6	-29.4	15.2	0.00e+00	0	44	102	1048576	15	4406
2026-01-25 01:00:28.63	8.46	20.31	-27.8	-29.8	15.0	0.00e+00	0	44	102	1048576	15	4518
2026-01-25 01:00:29.64	8.38	20.44	-27.7	-29.6	15.1	0.00e+00	0	44	102	1048576	15	4469
2026-01-25 01:00:30.65	8.30	20.56	-27.5	-29.0	15.4	8.64e-04	0	44	102	1048576	15	4301
2026-01-25 01:00:31.65	8.22	20.69	-27.0	-28.9	14.1	7.95e-04	0	44	102	1048576	14	4493
2026-01-25 01:00:32.65	8.14	20.82	-27.3	-29.1	13.3	0.00e+00	0	44	102	1048576	14	4435
2026-01-25 01:00:33.65	8.06	20.95	-27.3	-29.2	15.6	0.00e+00	0	44	102	1048576	14	4454
2026-01-25 01:00:34.65	7.98	21.08	-27.3	-29.1	15.6	4.87e-04	0	44	102	1048576	14	4446
2026-01-25 01:00:35.65	7.89	21.20	-27.2	-28.9	15.8	0.00e+00	0	44	102	1048576	14	4383
2026-01-25 01:00:36.65	7.81	21.33	-27.2	-28.8	15.8	4.34e-05	0	44	102	1048576	14	4355
2026-01-25 01:00:37.66	7.73	21.47	-27.1	-28.6	15.9	3.34e-03	0	44	102	1048576	14	4283
2026-01-25 01:00:38.66	7.64	21.60	-26.9	-28.7	16.1	0.00e+00	0	44	102	1048576	13	4431
2026-01-25 01:00:39.66	7.56	21.73	-26.8	-28.5	16.2	3.89e-05	0	44	102	1048576	13	4387
2026-01-25 01:00:40.67	7.47	21.86	-26.9	-28.7	16.2	1.98e-04	0	44	102	1048576	13	4423
2026-01-25 01:00:41.66	7.38	21.99	-26.8	-28.5	16.3	3.00e-03	0	44	102	1048576	13	4377
2026-01-25 01:00:42.67	7.30	22.13	-26.7	-28.3	16.3	3.26e-04	0	44	102	1048576	13	4334
2026-01-25 01:00:43.67	7.21	22.26	-26.7	-28.3	16.4	2.83e-04	0	44	102	1048576	13	4318
2026-01-25 01:00:44.68	7.12	22.40	-26.6	-28.0	16.5	0.00e+00	0	44	102	1048576	13	4251
2026-01-25 01:00:45.68	7.03	22.53	-26.6	-28.0	16.5	3.56e-04	0	44	102	1048576	13	4257
2026-01-25 01:00:46.69	6.94	22.67	-26.6	-28.2	16.4	3.47e-03	0	44	102	1048576	13	4287
2026-01-25 01:00:47.70	6.84	22.81	-26.6	-28.1	16.5	3.11e-03	0	44	102	1048576	13	4264
2026-01-25 01:00:48.70	6.75	22.95	-26.7	-28.3	16.4	0.00e+00	0	44	102	1048576	13	4317
2026-01-25 01:00:49.71	6.66	23.09	-26.9	-28.7	16.1	3.06e-03	0	44	102	1048576	13	4427
2026-01-25 01:00:50.71	6.56	23.22	-26.8	-28.5	16.2	3.29e-03	0	43	102	1048576	13	4368
2026-01-25 01:00:51.71	6.47	23.36	-26.6	-28.1	16.5	2.75e-04	0	44	102	1048576	13	4285
2026-01-25 01:00:52.71	6.37	23.50	-26.5	-27.9	16.6	2.88e-03	0	44	102	1048576	13	4228
2026-01-25 01:00:53.71	6.27	23.64	-26.7	-28.3	16.4	2.87e-03	0	44	102	1048576	13	4317
2026-01-25 01:00:54.71	6.18	23.78	-26.6	-28.0	16.6	0.00e+00	0	44	102	1048576	13	4235
2026-01-25 01:00:55.72	6.08	23.93	-26.7	-28.3	16.4	3.64e-03	0	44	102	1048576	13	4324
2026-01-25 01:00:56.73	5.97	24.07	-26.6	-28.1	16.5	2.95e-03	0	43	102	1048576	13	4280
2026-01-25 01:00:57.74	5.87	24.22	-26.5	-27.8	16.7	0.00e+00	0	44	102	1048576	13	4191
2026-01-25 01:00:58.74	5.77	24.36	-26.5	-27.8	16.7	3.03e-03	0	44	102	1048576	13	4176
2026-01-25 01:00:59.74	5.67	24.51	-26.5	-27.8	16.7	3.34e-03	0	44	102	1048576	13	4183
2026-01-25 01:01:00.75	5.56	24.65	-26.6	-28.1	16.5	0.00e+00	0	44	102	1048576	13	4256
2026-01-25 01:01:01.75	5.46	24.80	-26.6	-28.0	16.6	3.66e-03	0	44	102	1048576	13	4237
2026-01-25 01:01:02.75	5.35	24.95	-26.5	-27.9	16.6	3.40e-03	0	44	102	1048576	13	4217
2026-01-25 01:01:03.76	5.25	25.09	-26.7	-28.2	16.5	0.00e+00	0	44	102	1048576	13	4291
2026-01-25 01:01:04.76	5.14	25.24	-26.6	-28.1	16.5	3.31e-03	0	44	102	1048576	13	4268
2026-01-25 01:01:05.77	5.03	25.39	-26.8	-28.4	16.4	0.00e+00	0	44	102	1048576	13	4356
2026-01-25 01:01:06.77	4.92	25.54	-26.9	-28.7	16.2	0.00e+00	0	44	102	1048576	13	4431
2026-01-25 01:01:07.77	4.81	25.69	-27.0	-28.9	16.1	3.31e-03	0	44	102	1048576	13	4498
2026-01-25 01:01:08.78	4.69	25.85	-27.1	-28.8	15.9	3.61e-03	0	44	102	1048576	14	4336
2026-01-25 01:01:09.78	4.58	26.00	-27.5	-29.5	15.5	0.00e+00	0	44	102	1048576	14	4557
2026-01-25 01:01:10.79	4.47	26.15	-27.4	-29.3	15.7	0.00e+00	0	44	102	1048576	14	4484
2026-01-25 01:01:11.80	4.35	26.31	-27.5	-29.2	15.5	0.00e+00	0	44	102	1048576	15	4336
2026-01-25 01:01:12.80	4.23	26.46	-27.9	-29.9	15.1	0.00e+00	0	44	102	1048576	15	4543
2026-01-25 01:01:13.80	4.12	26.62	-27.7	-29.5	15.3	3.67e-03	0	44	102	1048576	15	4427
2026-01-25 01:01:14.80	4.00	26.77	-27.8	-29.8	15.2	0.00e+00	0	44	102	1048576	15	4506
2026-01-25 01:01:15.81	3.88	26.93	-27.6	-29.4	15.3	0.00e+00	0	44	102	1048576	15	4397
2026-01-25 01:01:16.81	3.75	27.09	-27.5	-29.1	15.5	0.00e+00	0	44	102	1048576	15	4321
2026-01-25 01:01:17.82	3.63	27.25	-27.6	-29.2	15.5	0.00e+00	0	44	102	1048576	15	4332
2026-01-25 01:01:18.82	3.51	27.40	-27.6	-29.2	15.5	0.00e+00	0	44	102	1048576	15	4346
2026-01-25 01:01:19.82	3.38	27.56	-27.7	-29.4	15.4	0.00e+00	0	44	102	1048576	15	4390
2026-01-25 01:01:20.83	3.25	27.73	-28.0	-30.1	15.0	0.00e+00	0	44	102	1048576	15	4596
2026-01-25 01:01:21.84	3.12	27.89	-28.0	-29.5	15.2	0.00e+00	0	44	102	1048576	16	4319
2026-01-25 01:01:22.84	2.99	28.05	-27.6	-29.1	15.5	0.00e+00	0	44	102	1048576	15	4326
2026-01-25 01:01:23.84	2.86	28.21	-27.4	-28.8	15.7	0.00e+00	0	44	102	1048576	15	4226
2026-01-25 01:01:24.85	2.73	28.38	-27.3	-28.6	15.8	0.00e+00	0	44	102	1048576	15	4177
2026-01-25 01:01:25.86	2.60	28.54	-27.3	-29.1	15.8	0.00e+00	0	44	102	1048576	14	4418
2026-01-25 01:01:26.86	2.46	28.71	-27.3	-29.1	15.8	0.00e+00	0	44	102	1048576	14	4412
2026-01-25 01:01:27.86	2.33	28.87	-27.4	-29.3	15.7	0.00e+00	0	44	102	1048576	14	4475
2026-01-25 01:01:28.86	2.19	29.04	-27.3	-29.1	15.8	0.00e+00	0	44	102	1048576	14	4424
2026-01-25 01:01:29.86	2.05	29.21	-27.2	-29.0	15.9	0.00e+00	0	44	102	1048576	14	4393
2026-01-25 01:01:30.86	1.91	29.38	-27.4	-29.3	15.7	0.00e+00	0	44	102	1048576	14	4486
2026-01-25 01:01:31.86	1.77	29.55	-27.3	-29.1	15.8	0.00e+00	0	44	102	1048576	14	4425
2026-01-25 01:01:32.86	1.62	29.72	-27.4	-29.2	15.8	0.00e+00	0	44	102	1048576	14	4467
2026-01-25 01:01:33.87	1.48	29.89	-27.4	-29.3	15.7	0.00e+00	0	44	102	1048576	14	4489
2026-01-25 01:01:34.86	1.33	30.06	-27.2	-28.8	16.0	0.00e+00	0	44	102	1048576	14	4338
2026-01-25 01:01:35.86	1.18	30.23	-27.1	-28.7	16.0	0.00e+00	0	44	102	1048576	14	4316
2026-01-25 01:01:36.87	1.03	30.41	-27.2	-28.8	16.0	0.00e+00	0	44	102	1048576	14	4340
2026-01-25 01:01:37.88	0.88	30.58	-27.1	-28.6	16.1	0.00e+00	0	44	102	1048576	14	4295
2026-01-25 01:01:38.88	0.73	30.76	-27.2	-28.7	16.0	0.00e+00	0	44	102	1048576	14	4327
2026-01-25 01:01:39.89	0.57	30.93	-27.3	-29.0	15.8	0.00e+00	0	44	102	1048576	14	4395
2026-01-25 01:01:40.89	0.41	31.11	-27.4	-29.2	15.8	0.00e+00	0	44	102	1048576	14	4461
2026-01-25 01:01:41.90	0.25	31.29	-27.6	-29.3	15.4	0.00e+00	0	44	102	1048576	15	4382
2026-01-25 01:01:42.91	0.09	31.47	-27.9	-30.0	15.1	0.00e+00	0	44	102	1048576	15	4561
2026-01-25 01:01:43.91	359.93	31.65	-27.7	-29.6	15.3	0.00e+00	0	44	102	1048576	15	4448
2026-01-25 01:01:44.92	359.76	31.83	-27.9	-30.0	15.0	0.00e+00	0	44	102	1048576	15	4582
2026-01-25 01:01:45.92	359.60	32.01	-27.6	-29.2	15.4	0.00e+00	0	44	102	1048576	15	4356
2026-01-25 01:01:46.92	359.43	32.19	-27.5	-29.0	15.6	0.00e+00	0	44	102	1048576	15	4280
2026-01-25 01:01:47.92	359.26	32.37	-27.3	-29.1	15.8	7.55e-05	0	44	102	1048576	14	4421
2026-01-25 01:01:48.91	359.09	32.55	-27.4	-29.3	15.8	1.50e-06	0	44	102	1048576	14	4469
2026-01-25 01:01:49.92	358.91	32.74	-27.3	-29.2	15.8	0.00e+00	0	44	102	1048576	14	4444
2026-01-25 01:01:50.93	358.74	32.93	-27.4	-29.2	15.8	0.00e+00	0	44	102	1048576	14	4453
2026-01-25 01:01:51.93	358.56	33.11	-27.5	-29.0	15.6	0.00e+00	0	44	102	1048576	15	4296
2026-01-25 01:01:52.93	358.38	33.30	-27.8	-29.6	15.2	0.00e+00	0	44	102	1048576	15	4468
2026-01-25 01:01:53.94	358.19	33.49	-27.7	-29.5	15.3	0.00e+00	0	44	102	1048576	15	4418
2026-01-25 01:01:54.94	358.01	33.68	-27.8	-29.8	15.1	0.00e+00	0	44	102	1048576	15	4516
2026-01-25 01:01:55.95	357.82	33.87	-27.9	-30.1	15.0	0.00e+00	0	44	102	1048576	15	4596
2026-01-25 01:01:56.95	357.63	34.06	-28.3	-30.3	14.8	7.00e-07	0	44	102	1048576	16	4545
2026-01-25 01:01:57.96	357.44	34.25	-28.4	-30.6	14.6	1.59e-04	0	44	102	1048576	16	4622
2026-01-25 01:01:58.96	357.25	34.44	-28.4	-30.6	14.6	7.00e-07	0	44	102	1048576	16	4623
2026-01-25 01:01:59.96	357.05	34.63	-28.4	-30.6	14.6	2.11e-04	0	44	102	1048576	16	4618
2026-01-25 01:02:00.96	356.85	34.82	-28.5	-30.2	14.6	0.00e+00	0	44	102	1048576	17	4398
2026-01-25 01:02:01.97	356.65	35.02	-28.6	-30.4	14.5	7.00e-07	0	44	102	1048576	17	4451
2026-01-25 01:02:02.96	356.45	35.21	-29.0	-31.0	13.8	2.39e-04	0	44	102	1048576	18	4514
2026-01-25 01:02:03.97	356.24	35.41	-28.8	-30.4	14.2	2.82e-04	0	44	102	1048576	18	4347
2026-01-25 01:02:04.97	356.04	35.61	-27.9	-30.2	13.9	1.50e-06	0	44	102	1048576	17	4678
2026-01-25 01:02:05.98	355.82	35.80	-28.9	-31.2	14.0	7.00e-07	0	44	102	1048576	17	4690
2026-01-25 01:02:06.98	355.61	36.00	-28.9	-31.3	13.1	1.93e-04	0	44	102	1048576	17	4715
2026-01-25 01:02:07.99	355.39	36.20	-29.1	-31.2	13.6	3.80e-06	0	44	102	1048576	18	4577
2026-01-25 01:02:09.00	355.17	36.40	-29.3	-31.8	13.3	2.00e-04	0	44	102	1048576	18	4768
2026-01-25 01:02:10.00	354.95	36.60	-29.2	-31.3	13.7	2.10e-04	0	44	102	1048576	18	4612
2026-01-25 01:02:11.01	354.73	36.80	-29.5	-31.7	13.1	1.93e-03	0	44	102	1048576	19	4639
2026-01-25 01:02:12.01	354.50	37.01	-29.0	-30.6	13.8	2.59e-05	0	44	102	1048576	19	4283
2026-01-25 01:02:13.02	354.27	37.21	-28.8	-30.4	14.2	1.59e-04	0	44	102	1048576	18	4330
2026-01-25 01:02:14.03	354.03	37.41	-28.5	-30.3	14.5	0.00e+00	0	44	102	1048576	17	4433
2026-01-25 01:02:15.03	353.80	37.62	-28.5	-30.1	14.6	0.00e+00	0	44	102	1048576	17	4374
2026-01-25 01:02:16.04	353.56	37.82	-28.7	-30.7	14.3	1.40e-03	0	44	102	1048576	17	4529
2026-01-25 01:02:17.04	353.31	38.03	-28.9	-31.2	14.0	1.53e-03	0	44	102	1048576	17	4711
2026-01-25 01:02:18.05	353.07	38.24	-28.8	-31.0	14.1	7.00e-07	0	44	102	1048576	17	4650
2026-01-25 01:02:19.05	352.82	38.44	-29.1	-31.2	13.7	7.00e-07	0	44	102	1048576	18	4571
2026-01-25 01:02:20.05	352.57	38.65	-29.4	-31.9	13.3	2.02e-03	0	44	102	1048576	18	4798
2026-01-25 01:02:21.05	352.31	38.86	-29.2	-31.3	13.7	1.14e-05	0	44	102	1048576	18	4611
2026-01-25 01:02:22.06	352.05	39.07	-29.0	-31.0	13.9	1.91e-03	0	44	102	1048576	18	4515
2026-01-25 01:02:23.06	351.79	39.28	-29.1	-31.1	13.8	1.94e-03	0	44	102	1048576	18	4563
2026-01-25 01:02:24.07	351.53	39.49	-29.2	-31.5	13.6	8.30e-06	0	44	102	1048576	18	4665
2026-01-25 01:02:25.08	351.26	39.70	-29.0	-30.9	13.9	1.82e-03	0	44	102	1048576	18	4501
2026-01-25 01:02:26.09	350.98	39.91	-29.1	-31.2	13.8	2.31e-03	0	44	102	1048576	18	4575
2026-01-25 01:02:27.09	350.71	40.12	-29.0	-30.9	14.0	3.00e-06	0	44	102	1048576	18	4475
2026-01-25 01:02:28.10	350.42	40.33	-29.0	-31.0	13.9	2.58e-03	0	44	102	1048576	18	4513
2026-01-25 01:02:29.10	350.14	40.55	-28.8	-31.0	14.1	2.84e-03	0	44	102	1048576	17	4618
2026-01-25 01:02:30.11	349.85	40.76	-28.8	-31.0	14.1	6.80e-06	0	44	102	1048576	17	4615
2026-01-25 01:02:31.11	349.56	40.97	-29.0	-31.0	13.8	2.50e-03	0	44	102	1048576	18	4525
2026-01-25 01:02:32.11	349.27	41.19	-28.9	-31.3	13.9	2.25e-03	0	44	102	1048576	17	4725
2026-01-25 01:02:33.12	348.97	41.40	-29.3	-31.6	13.5	6.10e-06	0	44	102	1048576	18	4709
2026-01-25 01:02:34.12	348.67	41.62	-29.6	-31.9	13.0	4.97e-04	0	44	102	1048576	19	4684
2026-01-25 01:02:35.12	348.36	41.83	-29.4	-31.4	13.4	1.44e-05	0	44	102	1048576	19	4538
2026-01-25 01:02:36.13	348.05	42.05	-29.3	-31.2	13.4	1.60e-05	0	44	102	1048576	19	4477
2026-01-25 01:02:37.12	347.74	42.26	-29.2	-31.4	13.6	4.64e-04	0	44	102	1048576	18	4655
2026-01-25 01:02:38.13	347.41	42.48	-29.2	-31.5	13.6	7.64e-04	0	44	102	1048576	18	4653
2026-01-25 01:02:39.13	347.09	42.69	-29.3	-31.5	13.6	8.30e-06	0	44	102	1048576	18	4682
2026-01-25 01:02:40.14	346.76	42.91	-29.4	-31.9	13.3	1.44e-05	0	44	102	1048576	18	4789
2026-01-25 01:02:41.14	346.43	43.12	-29.6	-31.9	13.0	3.43e-05	0	44	102	1048576	19	4697
2026-01-25 01:02:42.15	346.09	43.34	-29.6	-31.8	13.1	2.97e-05	0	44	102	1048576	19	4642
2026-01-25 01:02:43.15	345.75	43.56	-29.4	-31.8	13.4	1.96e-03	0	44	102	1048576	18	4764
2026-01-25 01:02:44.16	345.40	43.78	-29.4	-31.4	13.3	1.90e-05	0	44	102	1048576	19	4537
2026-01-25 01:02:45.16	345.05	43.99	-29.5	-31.6	13.2	2.51e-05	0	44	102	1048576	19	4585
2026-01-25 01:02:46.16	344.69	44.21	-29.7	-32.1	12.9	5.87e-05	0	44	102	1048576	19	4753
2026-01-25 01:02:47.16	344.33	44.42	-29.5	-31.7	13.2	2.59e-05	0	44	102	1048576	19	4620
2026-01-25 01:02:48.17	343.96	44.64	-29.6	-31.9	13.0	2.97e-05	0	44	102	1048576	19	4687
2026-01-25 01:02:49.17	343.59	44.86	-29.8	-32.3	12.8	4.50e-05	0	44	102	1048576	19	4828
2026-01-25 01:02:50.17	343.22	45.07	-30.0	-32.4	12.4	1.42e-04	0	44	102	1048576	20	4739
2026-01-25 01:02:51.18	342.83	45.29	-29.9	-32.3	12.4	1.81e-04	0	44	102	1048576	20	4725
2026-01-25 01:02:52.18	342.45	45.50	-29.7	-32.2	12.8	7.01e-05	0	44	102	1048576	19	4792
2026-01-25 01:02:53.19	342.05	45.72	-29.5	-31.6	13.2	1.83e-05	0	44	102	1048576	19	4604
2026-01-25 01:02:54.19	341.65	45.93	-29.6	-31.8	13.2	2.36e-05	0	44	102	1048576	19	4655
2026-01-25 01:02:55.19	341.25	46.15	-29.7	-32.1	12.9	5.26e-05	0	44	102	1048576	19	4762
2026-01-25 01:02:56.20	340.84	46.36	-29.8	-32.4	12.7	7.32e-05	0	44	102	1048576	19	4866
2026-01-25 01:02:57.19	340.43	46.57	-29.8	-32.3	12.8	6.10e-05	0	44	102	1048576	19	4828
2026-01-25 01:02:58.19	340.01	46.79	-29.9	-32.6	12.6	1.02e-04	0	44	102	1048576	19	4932
2026-01-25 01:02:59.20	339.58	47.00	-29.7	-32.2	12.9	5.64e-05	0	44	102	1048576	19	4785
2026-01-25 01:03:00.20	339.15	47.21	-29.6	-31.9	13.0	4.80e-05	0	44	102	1048576	19	4688
2026-01-25 01:03:01.21	338.71	47.42	-29.7	-32.1	13.0	3.50e-05	0	44	102	1048576	19	4753
2026-01-25 01:03:02.21	338.27	47.63	-29.5	-31.7	13.2	2.28e-05	0	44	102	1048576	19	4644
2026-01-25 01:03:03.22	337.82	47.84	-29.4	-31.5	13.2	1.60e-05	0	44	102	1048576	19	4574
2026-01-25 01:03:04.22	337.36	48.05	-29.2	-31.5	13.6	9.90e-06	0	44	102	1048576	18	4681
2026-01-25 01:03:05.22	336.90	48.26	-29.1	-31.2	13.8	7.60e-06	0	44	102	1048576	18	4573
2026-01-25 01:03:06.22	336.43	48.46	-29.1	-31.2	13.8	3.80e-06	0	44	102	1048576	18	4562
2026-01-25 01:03:07.23	335.96	48.67	-29.3	-31.6	13.5	1.44e-05	0	44	102	1048576	18	4712
2026-01-25 01:03:08.24	335.47	48.87	-29.3	-31.6	13.5	1.14e-05	0	44	102	1048576	18	4719
2026-01-25 01:03:09.24	334.98	49.07	-29.3	-31.8	13.4	1.06e-05	0	44	102	1048576	18	4750
2026-01-25 01:03:10.25	334.49	49.28	-29.0	-31.0	13.9	7.60e-06	0	44	102	1048576	18	4531
2026-01-25 01:03:11.26	333.98	49.48	-28.9	-30.7	14.0	1.50e-06	0	44	102	1048576	18	4438
2026-01-25 01:03:12.26	333.48	49.67	-28.9	-30.7	14.1	2.20e-06	0	44	102	1048576	18	4417
2026-01-25 01:03:13.26	332.96	49.87	-29.0	-30.9	13.9	3.80e-06	0	44	102	1048576	18	4505
2026-01-25 01:03:14.27	332.44	50.07	-29.1	-31.1	13.8	6.80e-06	0	44	102	1048576	18	4544
2026-01-25 01:03:15.27	331.91	50.26	-29.0	-31.0	13.8	3.80e-06	0	44	102	1048576	18	4529
2026-01-25 01:03:16.28	331.37	50.45	-29.2	-31.3	13.6	3.00e-06	0	44	102	1048576	18	4616
2026-01-25 01:03:17.28	330.84	50.64	-29.4	-31.9	13.3	1.90e-05	0	44	102	1048576	18	4796
2026-01-25 01:03:18.29	330.28	50.83	-29.3	-31.7	13.4	1.06e-05	0	44	102	1048576	18	4738
2026-01-25 01:03:19.29	329.73	51.01	-29.3	-31.7	13.4	1.37e-05	0	44	102	1048576	18	4731
2026-01-25 01:03:20.30	329.16	51.20	-28.8	-30.6	14.1	5.30e-06	0	44	102	1048576	18	4392
2026-01-25 01:03:21.30	328.60	51.38	-28.5	-29.8	14.6	0.00e+00	0	44	102	1048576	18	4166
2026-01-25 01:03:22.30	328.02	51.56	-28.6	-30.4	14.5	7.00e-07	0	44	102	1048576	17	4459
2026-01-25 01:03:23.31	327.44	51.73	-28.8	-31.0	14.1	3.80e-06	0	44	102	1048576	17	4623
2026-01-25 01:03:24.31	326.85	51.91	-28.8	-31.0	14.1	1.50e-06	0	44	102	1048576	17	4645
2026-01-25 01:03:25.32	326.25	52.08	-28.3	-29.8	14.8	0.00e+00	0	44	102	1048576	17	4286
2026-01-25 01:03:26.32	325.65	52.25	-28.0	-29.5	15.2	0.00e+00	0	44	102	1048576	16	4297
2026-01-25 01:03:27.32	325.04	52.41	-28.0	-29.6	15.2	0.00e+00	0	44	102	1048576	16	4325
2026-01-25 01:03:28.32	324.42	52.58	-28.1	-29.8	15.1	0.00e+00	0	44	102	1048576	16	4385
2026-01-25 01:03:29.33	323.79	52.74	-28.0	-29.6	15.2	0.00e+00	0	44	102	1048576	16	4347
2026-01-25 01:03:30.33	323.16	52.89	-28.0	-29.7	15.1	0.00e+00	0	44	102	1048576	16	4360
2026-01-25 01:03:31.34	322.52	53.05	-28.3	-30.3	14.8	0.00e+00	0	44	102	1048576	16	4524
2026-01-25 01:03:32.34	321.88	53.20	-28.3	-30.3	14.7	0.00e+00	0	44	102	1048576	16	4546
2026-01-25 01:03:33.34	321.23	53.35	-28.6	-30.5	14.4	7.78e-05	0	44	102	1048576	17	4499
2026-01-25 01:03:34.34	320.57	53.49	-28.3	-29.8	14.8	7.00e-07	0	44	102	1048576	17	4273
2026-01-25 01:03:35.34	319.91	53.63	-27.9	-28.8	15.3	1.81e-04	0	44	102	1048576	17	4025
2026-01-25 01:03:36.35	319.24	53.77	-27.6	-28.6	15.7	1.44e-05	0	44	102	1048576	16	4058
2026-01-25 01:03:37.35	318.56	53.90	-27.6	-28.7	15.6	0.00e+00	0	44	102	1048576	16	4079
2026-01-25 01:03:38.36	317.87	54.03	-27.8	-29.1	15.4	3.58e-05	0	44	102	1048576	16	4196
2026-01-25 01:03:39.36	317.19	54.15	-27.7	-29.0	15.5	0.00e+00	0	44	102	1048576	16	4168
2026-01-25 01:03:40.36	316.49	54.28	-27.7	-28.8	15.6	1.84e-04	0	44	102	1048576	16	4126
2026-01-25 01:03:41.37	315.79	54.39	-27.6	-28.7	15.6	0.00e+00	0	44	102	1048576	16	4091
2026-01-25 01:03:42.38	315.07	54.51	-27.5	-29.1	15.6	0.00e+00	0	44	102	1048576	15	4302
2026-01-25 01:03:43.38	314.36	54.62	-27.9	-29.9	15.1	0.00e+00	0	44	102	1048576	15	4533
2026-01-25 01:03:44.39	313.64	54.72	-28.2	-30.2	14.9	8.30e-06	0	44	102	1048576	16	4519
2026-01-25 01:03:45.39	312.92	54.82	-28.1	-29.8	15.0	2.51e-04	0	44	102	1048576	16	4405
2026-01-25 01:03:46.40	312.19	54.92	-28.1	-29.9	15.0	0.00e+00	0	44	102	1048576	16	4429
2026-01-25 01:03:47.41	311.45	55.01	-28.2	-30.1	14.9	5.30e-06	0	44	102	1048576	16	4470
2026-01-25 01:03:48.42	310.70	55.10	-28.2	-30.0	14.9	0.00e+00	0	44	102	1048576	16	4458
2026-01-25 01:03:49.43	309.96	55.18	-27.9	-29.5	15.2	2.70e-04	0	44	102	1048576	16	4299
2026-01-25 01:03:50.43	309.21	55.26	-27.6	-28.8	15.6	2.20e-06	0	44	102	1048576	16	4118
2026-01-25 01:03:51.43	308.46	55.33	-27.4	-28.7	15.8	4.81e-04	0	44	102	1048576	15	4205
2026-01-25 01:03:52.44	307.70	55.40	-27.2	-28.4	15.9	3.47e-04	0	44	102	1048576	15	4134
2026-01-25 01:03:53.44	306.95	55.47	-27.4	-29.3	15.7	5.31e-04	0	44	102	1048576	14	4465
2026-01-25 01:03:54.45	306.18	55.52	-27.4	-29.3	15.7	1.89e-04	0	44	102	1048576	14	4490
2026-01-25 01:03:55.45	305.42	55.58	-27.2	-28.9	15.9	5.18e-05	0	44	102	1048576	14	4366
2026-01-25 01:03:56.45	304.65	55.63	-27.4	-29.3	15.7	0.00e+00	0	44	102	1048576	14	4485
2026-01-25 01:03:57.44	303.89	55.67	-27.4	-28.8	15.7	7.09e-04	0	44	102	1048576	15	4219
2026-01-25 01:03:58.44	303.12	55.71	-27.2	-28.4	15.9	0.00e+00	0	44	102	1048576	15	4115
2026-01-25 01:03:59.44	302.35	55.74	-27.3	-28.6	15.8	2.20e-06	0	44	102	1048576	15	4179
2026-01-25 01:04:00.44	301.58	55.77	-27.4	-28.9	15.7	2.59e-04	0	44	102	1048576	15	4256
2026-01-25 01:04:01.45	300.80	55.79	-27.4	-28.9	15.6	2.73e-04	0	44	102	1048576	15	4262
2026-01-25 01:04:02.46	300.01	55.81	-27.6	-29.3	15.4	0.00e+00	0	44	102	1048576	15	4363
2026-01-25 01:04:03.47	299.23	55.82	-27.6	-29.3	15.4	2.63e-04	0	44	102	1048576	15	4389
2026-01-25 01:04:04.48	298.44	55.83	-27.1	-28.0	16.1	1.20e-04	0	44	102	1048576	15	4034
2026-01-25 01:04:05.48	297.66	55.83	-26.8	-27.9	16.5	0.00e+00	0	44	102	1048576	14	4089
2026-01-25 01:04:06.49	296.88	55.83	-27.0	-28.3	16.3	7.00e-07	0	44	102	1048576	14	4211
2026-01-25 01:04:07.49	296.10	55.82	-27.2	-28.8	16.0	1.40e-04	0	44	102	1048576	14	4339
2026-01-25 01:04:08.50	295.32	55.81	-27.4	-29.3	15.7	0.00e+00	0	44	102	1048576	14	4490
2026-01-25 01:04:09.50	294.54	55.79	-27.7	-29.5	15.3	0.00e+00	0	44	102	1048576	15	4443
2026-01-25 01:04:10.52	293.75	55.77	-27.5	-29.1	15.6	0.00e+00	0	44	102	1048576	15	4308
2026-01-25 01:04:11.52	292.97	55.74	-27.2	-29.0	15.9	0.00e+00	0	44	102	1048576	14	4398
2026-01-25 01:04:12.53	292.20	55.70	-27.0	-28.4	16.2	2.10e-03	0	44	102	1048576	14	4235
2026-01-25 01:04:13.54	291.42	55.66	-27.0	-28.5	16.1	0.00e+00	0	44	102	1048576	14	4251
2026-01-25 01:04:14.54	290.65	55.62	-27.1	-28.6	16.1	0.00e+00	0	44	102	1048576	14	4282
2026-01-25 01:04:15.55	289.88	55.57	-27.1	-28.6	16.0	0.00e+00	0	44	102	1048576	14	4293
2026-01-25 01:04:16.55	289.12	55.51	-27.5	-29.1	15.4	7.82e-04	0	44	102	1048576	15	4319
2026-01-25 01:04:17.56	288.35	55.45	-27.3	-28.6	15.7	0.00e+00	0	44	102	1048576	15	4194
2026-01-25 01:04:18.56	287.59	55.39	-27.3	-29.1	15.7	0.00e+00	0	44	102	1048576	14	4423
2026-01-25 01:04:19.56	286.84	55.32	-27.2	-29.0	15.8	0.00e+00	0	44	102	1048576	14	4396
2026-01-25 01:04:20.56	286.09	55.25	-27.2	-28.8	16.0	0.00e+00	0	44	102	1048576	14	4338
2026-01-25 01:04:21.57	285.34	55.17	-27.4	-29.4	15.6	0.00e+00	0	44	102	1048576	14	4532
2026-01-25 01:04:22.57	284.60	55.09	-27.3	-28.6	15.7	0.00e+00	0	44	102	1048576	15	4186
2026-01-25 01:04:23.58	283.86	55.00	-27.2	-28.5	15.8	0.00e+00	0	44	102	1048576	15	4146
2026-01-25 01:04:24.58	283.13	54.90	-27.2	-28.8	15.9	0.00e+00	0	44	102	1048576	14	4354
2026-01-25 01:04:25.58	282.40	54.81	-27.0	-28.4	16.1	0.00e+00	0	44	102	1048576	14	4236
2026-01-25 01:04:26.59	281.67	54.71	-26.8	-28.0	16.3	0.00e+00	0	44	102	1048576	14	4133
2026-01-25 01:04:27.59	280.96	54.60	-27.0	-28.5	16.0	0.00e+00	0	44	102	1048576	14	4263
2026-01-25 01:04:28.60	280.24	54.49	-27.5	-29.0	15.5	0.00e+00	0	44	102	1048576	15	4305
2026-01-25 01:04:29.60	279.53	54.38	-27.6	-29.2	15.4	0.00e+00	0	44	102	1048576	15	4343
2026-01-25 01:04:30.61	278.83	54.26	-27.3	-28.6	15.7	0.00e+00	0	44	102	1048576	15	4175
2026-01-25 01:04:31.61	278.13	54.13	-27.4	-29.2	15.6	0.00e+00	0	44	102	1048576	14	4461
2026-01-25 01:04:32.62	277.44	54.01	-27.4	-28.8	15.6	0.00e+00	0	44	102	1048576	15	4244
2026-01-25 01:04:33.62	276.76	53.88	-27.6	-29.4	15.2	0.00e+00	0	44	102	1048576	15	4414
2026-01-25 01:04:34.62	276.08	53.74	-28.4	-30.7	14.4	7.00e-07	0	44	102	1048576	16	4672
2026-01-25 01:04:35.62	275.41	53.61	-28.7	-30.9	14.0	1.50e-06	0	44	102	1048576	17	4628
2026-01-25 01:04:36.62	274.75	53.47	-28.4	-30.1	14.4	0.00e+00	0	44	102	1048576	17	4390
2026-01-25 01:04:37.63	274.09	53.32	-27.9	-29.3	15.2	0.00e+00	0	44	102	1048576	16	4262
2026-01-25 01:04:38.63	273.44	53.17	-27.6	-28.8	15.5	0.00e+00	0	44	102	1048576	16	4124
2026-01-25 01:04:39.64	272.79	53.02	-27.5	-29.1	15.5	0.00e+00	0	44	102	1048576	15	4310
2026-01-25 01:04:40.64	272.15	52.87	-27.7	-29.4	15.3	0.00e+00	0	44	102	1048576	15	4399
2026-01-25 01:04:41.64	271.53	52.71	-28.8	-31.0	13.9	0.00e+00	0	44	102	1048576	17	4642
2026-01-25 01:04:42.64	270.90	52.55	-29.2	-31.4	13.3	1.67e-05	0	44	102	1048576	18	4663
2026-01-25 01:04:43.65	270.28	52.38	-28.9	-30.8	13.7	4.50e-06	0	44	102	1048576	18	4483
2026-01-25 01:04:44.65	269.67	52.22	-28.7	-30.2	14.1	3.00e-06	0	44	102	1048576	18	4300
2026-01-25 01:04:45.65	269.07	52.05	-28.9	-31.2	13.8	3.80e-06	0	44	102	1048576	17	4697
2026-01-25 01:04:46.66	268.47	51.88	-29.2	-31.4	13.4	1.60e-05	0	44	102	1048576	18	4662
2026-01-25 01:04:47.66	267.88	51.70	-30.0	-32.9	12.2	7.32e-05	0	44	102	1048576	19	5038
2026-01-25 01:04:48.66	267.30	51.52	-30.5	-33.4	11.2	1.24e-03	0	44	102	1048576	21	5032
2026-01-25 01:04:49.66	266.73	51.35	-30.3	-32.9	11.4	1.24e-03	0	44	102	1048576	21	4839
2026-01-25 01:04:50.66	266.16	51.16	-29.8	-31.6	12.3	5.62e-04	0	44	102	1048576	21	4399
2026-01-25 01:04:51.67	265.59	50.98	-29.6	-31.4	12.7	9.00e-05	0	44	102	1048576	20	4456
2026-01-25 01:04:52.67	265.04	50.79	-29.8	-32.4	12.5	9.30e-05	0	44	102	1048576	19	4875
2026-01-25 01:04:53.68	264.49	50.60	-29.8	-32.5	12.4	1.40e-04	0	44	102	1048576	19	4919
2026-01-25 01:04:54.68	263.95	50.41	-30.0	-32.4	12.1	2.41e-04	0	44	102	1048576	20	4793
2026-01-25 01:04:55.68	263.41	50.22	-30.0	-32.5	12.1	3.17e-03	0	44	102	1048576	20	4805
2026-01-25 01:04:56.69	262.88	50.03	-29.6	-32.1	12.7	3.13e-03	0	44	102	1048576	19	4776
2026-01-25 01:04:57.69	262.36	49.83	-28.9	-30.4	13.7	2.21e-05	0	44	102	1048576	19	4242
2026-01-25 01:04:58.69	261.85	49.64	-28.6	-30.6	14.1	1.44e-05	0	44	102	1048576	17	4516
2026-01-25 01:04:59.69	261.34	49.44	-28.3	-30.3	14.5	1.84e-03	0	44	102	1048576	16	4544
2026-01-25 01:05:00.69	260.84	49.24	-28.0	-29.7	14.8	0.00e+00	0	44	102	1048576	16	4360
2026-01-25 01:05:01.70	260.35	49.03	-28.3	-30.4	14.4	4.98e-04	0	44	102	1048576	16	4594
2026-01-25 01:05:02.70	259.86	48.83	-29.1	-31.2	13.4	2.72e-04	0	44	102	1048576	18	4612
2026-01-25 01:05:03.70	259.38	48.63	-29.9	-32.8	12.1	1.02e-04	0	44	102	1048576	19	5028
2026-01-25 01:05:04.71	258.90	48.42	-29.8	-32.1	12.0	9.94e-04	0	44	102	1048576	20	4687
2026-01-25 01:05:05.71	258.43	48.21	-29.1	-30.8	13.1	5.65e-04	0	44	102	1048576	19	4374
2026-01-25 01:05:06.71	257.97	48.01	-28.5	-29.7	14.2	1.50e-06	0	44	102	1048576	18	4173
2026-01-25 01:05:07.71	257.52	47.80	-28.1	-29.5	14.7	1.85e-04	0	44	102	1048576	17	4207
2026-01-25 01:05:08.71	257.07	47.59	-28.0	-29.7	13.5	4.50e-06	0	44	102	1048576	16	4380
2026-01-25 01:05:09.72	256.62	47.38	-28.0	-30.2	13.6	7.00e-07	0	44	102	1048576	15	4649
2026-01-25 01:05:10.72	256.18	47.17	-28.7	-30.9	13.8	2.76e-04	0	44	102	1048576	17	4630
2026-01-25 01:05:11.73	255.75	46.95	-29.5	-32.2	12.8	4.00e-04	0	44	102	1048576	18	4945
2026-01-25 01:05:12.73	255.32	46.74	-29.9	-32.8	12.2	1.71e-04	0	44	102	1048576	19	5025
2026-01-25 01:05:13.74	254.90	46.53	-29.7	-32.2	12.4	1.85e-04	0	44	102	1048576	19	4821
2026-01-25 01:05:14.75	254.48	46.31	-29.0	-31.1	13.1	4.63e-04	0	44	102	1048576	18	4587
2026-01-25 01:05:15.76	254.07	46.09	-28.6	-30.6	13.9	8.30e-06	0	44	102	1048576	17	4542
2026-01-25 01:05:16.76	253.67	45.88	-28.5	-30.4	14.1	2.69e-04	0	44	102	1048576	17	4479
2026-01-25 01:05:17.76	253.27	45.66	-28.9	-31.3	13.6	2.25e-04	0	44	102	1048576	17	4745
2026-01-25 01:05:18.77	252.87	45.45	-29.1	-31.2	13.3	1.03e-03	0	44	102	1048576	18	4615
2026-01-25 01:05:19.78	252.48	45.23	-29.8	-32.5	12.1	1.27e-04	0	44	102	1048576	19	4940
2026-01-25 01:05:20.78	252.10	45.01	-30.6	-33.6	10.8	2.90e-03	0	44	102	1048576	21	5130
2026-01-25 01:05:21.78	251.73	44.80	-30.8	-34.3	10.3	5.42e-03	0	44	102	1048576	21	5400
2026-01-25 01:05:22.79	251.35	44.58	-30.5	-33.5	10.9	3.93e-03	0	44	102	1048576	21	5075
2026-01-25 01:05:23.80	250.98	44.36	-29.9	-32.4	11.9	1.38e-03	0	44	102	1048576	20	4786
2026-01-25 01:05:24.80	250.62	44.14	-29.5	-31.8	12.7	1.58e-03	0	44	102	1048576	19	4707
2026-01-25 01:05:25.81	250.26	43.92	-29.3	-31.2	13.2	3.50e-05	0	44	102	1048576	19	4480
2026-01-25 01:05:26.81	249.91	43.71	-29.4	-32.0	13.0	2.77e-03	0	44	102	1048576	18	4849
2026-01-25 01:05:27.82	249.56	43.49	-29.1	-31.3	13.3	3.66e-05	0	44	102	1048576	18	4635
2026-01-25 01:05:28.83	249.22	43.27	-29.1	-31.4	13.2	7.47e-05	0	44	102	1048576	18	4677
2026-01-25 01:05:29.83	248.88	43.05	-30.0	-32.6	11.8	4.46e-03	0	44	102	1048576	20	4846
2026-01-25 01:05:30.84	248.55	42.84	-30.4	-33.7	11.1	5.85e-03	0	44	102	1048576	20	5285
2026-01-25 01:05:31.85	248.22	42.62	-30.6	-33.7	10.7	3.49e-03	0	44	102	1048576	21	5176
2026-01-25 01:05:32.85	247.89	42.40	-29.8	-32.2	11.9	4.93e-03	0	44	102	1048576	20	4729
2026-01-25 01:05:33.86	247.57	42.18	-28.9	-30.8	13.5	1.83e-05	0	44	102	1048576	18	4494
2026-01-25 01:05:34.86	247.26	41.97	-28.4	-30.1	14.3	5.26e-05	0	44	102	1048576	17	4387
2026-01-25 01:05:35.86	246.95	41.75	-28.5	-30.4	14.1	3.84e-03	0	44	102	1048576	17	4466
2026-01-25 01:05:36.87	246.64	41.54	-29.0	-31.1	13.4	4.47e-03	0	44	102	1048576	18	4592
2026-01-25 01:05:37.87	246.34	41.32	-29.6	-32.0	12.5	6.17e-05	0	44	102	1048576	19	4778
2026-01-25 01:05:38.87	246.04	41.11	-29.6	-32.0	12.6	1.10e-04	0	44	102	1048576	19	4760
2026-01-25 01:05:39.88	245.74	40.89	-29.4	-32.2	12.8	3.96e-03	0	44	102	1048576	18	4931
2026-01-25 01:05:40.89	245.45	40.67	-29.7	-32.4	12.3	1.13e-04	0	44	102	1048576	19	4900
2026-01-25 01:05:41.89	245.16	40.46	-29.5	-31.9	12.6	3.42e-03	0	44	102	1048576	19	4745
2026-01-25 01:05:42.89	244.88	40.25	-29.3	-31.3	13.0	4.27e-05	0	44	102	1048576	19	4529
2026-01-25 01:05:43.90	244.60	40.04	-28.8	-30.6	13.7	1.22e-05	0	44	102	1048576	18	4438
2026-01-25 01:05:44.91	244.32	39.82	-28.1	-29.5	14.6	3.41e-03	0	44	102	1048576	17	4208
2026-01-25 01:05:45.92	244.04	39.61	-27.6	-28.8	15.3	3.86e-03	0	44	102	1048576	16	4141
2026-01-25 01:05:46.92	243.78	39.40	-27.3	-28.6	15.6	3.19e-04	0	44	102	1048576	15	4183
2026-01-25 01:05:47.93	243.51	39.19	-27.7	-29.6	15.0	0.00e+00	0	44	102	1048576	15	4457
2026-01-25 01:05:48.93	243.25	38.98	-27.8	-29.8	14.9	0.00e+00	0	44	102	1048576	15	4517
2026-01-25 01:05:49.93	242.99	38.77	-28.6	-30.7	13.9	3.00e-06	0	44	102	1048576	17	4557
2026-01-25 01:05:50.93	242.74	38.56	-29.4	-32.1	12.8	3.66e-05	0	44	102	1048576	18	4905
2026-01-25 01:05:51.93	242.48	38.35	-29.7	-32.4	12.3	1.01e-03	0	44	102	1048576	19	4891
2026-01-25 01:05:52.94	242.23	38.14	-29.7	-32.5	12.3	1.50e-04	0	44	102	1048576	19	4929
2026-01-25 01:05:53.95	241.99	37.94	-29.3	-31.9	13.0	6.48e-05	0	44	102	1048576	18	4830
2026-01-25 01:05:54.95	241.75	37.73	-29.1	-31.4	13.3	3.28e-05	0	44	102	1048576	18	4665
2026-01-25 01:05:55.95	241.51	37.53	-29.1	-31.4	13.2	2.13e-05	0	44	102	1048576	18	4694
2026-01-25 01:05:56.95	241.27	37.32	-29.3	-31.8	13.0	2.97e-05	0	44	102	1048576	18	4802
2026-01-25 01:05:57.95	241.04	37.12	-29.8	-32.6	12.2	1.09e-04	0	44	102	1048576	19	4971
2026-01-25 01:05:58.95	240.81	36.91	-29.5	-31.9	12.6	1.50e-04	0	44	102	1048576	19	4752
2026-01-25 01:05:59.95	240.58	36.71	-29.0	-31.1	13.4	2.67e-05	0	44	102	1048576	18	4594
2026-01-25 01:06:00.96	240.36	36.51	-28.2	-29.7	14.4	6.10e-06	0	44	102	1048576	17	4290
2026-01-25 01:06:01.96	240.13	36.31	-27.9	-29.0	14.9	0.00e+00	0	44	102	1048576	17	4086
2026-01-25 01:06:02.97	239.91	36.11	-27.9	-29.6	14.9	0.00e+00	0	44	102	1048576	16	4339
2026-01-25 01:06:03.98	239.69	35.91	-28.3	-30.5	14.2	6.10e-06	0	44	102	1048576	16	4639
2026-01-25 01:06:04.98	239.48	35.71	-28.7	-30.8	13.8	1.50e-06	0	44	102	1048576	17	4611
2026-01-25 01:06:05.98	239.27	35.51	-28.7	-30.9	13.8	4.50e-06	0	44	102	1048576	17	4639
2026-01-25 01:06:06.99	239.06	35.31	-28.6	-30.6	13.9	1.14e-05	0	44	102	1048576	17	4540
2026-01-25 01:06:08.00	238.85	35.11	-28.5	-30.4	14.0	5.30e-06	0	44	102	1048576	17	4495
2026-01-25 01:06:09.00	238.65	34.92	-28.5	-30.4	14.1	5.30e-06	0	44	102	1048576	17	4470
2026-01-25 01:06:10.01	238.45	34.72	-28.6	-30.7	13.9	7.60e-06	0	44	102	1048576	17	4564
2026-01-25 01:06:11.01	238.25	34.53	-28.1	-29.9	14.4	7.00e-07	0	44	102	1048576	16	4453
2026-01-25 01:06:12.02	238.05	34.33	-28.1	-30.0	14.5	7.00e-07	0	44	102	1048576	16	4477
2026-01-25 01:06:13.02	237.86	34.14	-28.0	-29.8	14.7	0.00e+00	0	44	102	1048576	16	4401
2026-01-25 01:06:14.03	237.67	33.95	-28.1	-30.0	14.5	0.00e+00	0	44	102	1048576	16	4477
2026-01-25 01:06:15.03	237.48	33.76	-28.3	-30.4	14.3	0.00e+00	0	44	102	1048576	16	4601
2026-01-25 01:06:16.03	237.29	33.57	-28.3	-30.5	14.3	7.00e-07	0	44	102	1048576	16	4622
2026-01-25 01:06:17.05	237.10	33.38	-28.3	-30.4	14.3	1.50e-06	0	44	102	1048576	16	4613
2026-01-25 01:06:18.05	236.92	33.19	-28.5	-30.8	14.1	4.50e-06	0	44	102	1048576	16	4730
2026-01-25 01:06:19.06	236.74	33.00	-28.0	-29.7	14.7	1.50e-06	0	44	102	1048576	16	4399
2026-01-25 01:06:20.07	236.56	32.81	-27.7	-29.0	15.1	0.00e+00	0	44	102	1048576	16	4190
2026-01-25 01:06:21.07	236.38	32.63	-27.4	-28.4	15.4	0.00e+00	0	44	102	1048576	16	4043
2026-01-25 01:06:22.07	236.21	32.44	-27.1	-28.2	15.6	0.00e+00	0	44	102	1048576	15	4095
2026-01-25 01:06:23.08	236.03	32.26	-27.0	-28.0	15.7	0.00e+00	0	44	102	1048576	15	4050
2026-01-25 01:06:24.08	235.86	32.07	-27.2	-28.4	15.5	0.00e+00	0	44	102	1048576	15	4133
2026-01-25 01:06:25.08	235.70	31.89	-27.0	-28.0	15.7	0.00e+00	0	44	102	1048576	15	4048
2026-01-25 01:06:26.08	235.53	31.71	-27.3	-28.7	15.3	0.00e+00	0	44	102	1048576	15	4225
2026-01-25 01:06:27.09	235.36	31.53	-27.4	-28.9	15.2	0.00e+00	0	44	102	1048576	15	4282
2026-01-25 01:06:28.09	235.20	31.35	-27.6	-29.4	15.0	0.00e+00	0	44	102	1048576	15	4414
2026-01-25 01:06:29.10	235.04	31.17	-27.5	-29.1	15.1	7.60e-06	0	44	102	1048576	15	4346
2026-01-25 01:06:30.11	234.88	30.99	-27.5	-29.1	15.1	0.00e+00	0	44	102	1048576	15	4340
2026-01-25 01:06:31.11	234.72	30.81	-27.5	-29.1	15.1	3.35e-05	0	44	102	1048576	15	4348
2026-01-25 01:06:32.10	234.57	30.64	-27.5	-29.1	15.1	1.14e-05	0	44	102	1048576	15	4336
2026-01-25 01:06:33.11	234.41	30.46	-27.6	-29.3	14.9	0.00e+00	0	44	102	1048576	15	4412
2026-01-25 01:06:34.12	234.26	30.29	-27.4	-29.1	15.1	1.29e-04	0	44	102	1048576	15	4336
2026-01-25 01:06:35.12	234.11	30.11	-27.4	-29.0	15.2	1.82e-04	0	44	102	1048576	15	4312
2026-01-25 01:06:36.12	233.96	29.94	-27.1	-28.8	15.5	0.00e+00	0	44	102	1048576	14	4366
2026-01-25 01:06:37.12	233.81	29.77	-27.0	-28.4	15.7	1.79e-04	0	44	102	1048576	14	4261
2026-01-25 01:06:38.12	233.67	29.60	-26.9	-28.4	15.7	2.82e-05	0	44	102	1048576	14	4243
2026-01-25 01:06:39.13	233.52	29.42	-27.0	-28.5	15.7	0.00e+00	0	44	102	1048576	14	4274
2026-01-25 01:06:40.14	233.38	29.25	-26.8	-28.1	15.9	0.00e+00	0	44	102	1048576	14	4163
2026-01-25 01:06:41.14	233.24	29.08	-27.0	-28.4	15.6	0.00e+00	0	44	102	1048576	14	4258
2026-01-25 01:06:42.15	233.10	28.91	-26.8	-28.1	15.7	0.00e+00	0	44	102	1048576	14	4176
2026-01-25 01:06:43.15	232.96	28.75	-26.8	-28.1	15.9	0.00e+00	0	44	102	1048576	14	4165
2026-01-25 01:06:44.15	232.82	28.58	-26.8	-28.1	15.9	4.91e-04	0	44	102	1048576	14	4189
2026-01-25 01:06:45.16	232.69	28.41	-26.9	-28.3	15.7	6.88e-04	0	44	102	1048576	14	4240
2026-01-25 01:06:46.16	232.55	28.25	-26.7	-27.8	16.0	6.10e-05	0	44	102	1048576	14	4110
2026-01-25 01:06:47.16	232.42	28.08	-26.7	-28.4	16.0	2.62e-04	0	44	102	1048576	13	4358
2026-01-25 01:06:48.16	232.29	27.92	-26.8	-28.7	15.7	0.00e+00	0	44	102	1048576	13	4461
2026-01-25 01:06:49.17	232.16	27.76	-26.7	-28.5	15.9	0.00e+00	0	44	102	1048576	13	4402
2026-01-25 01:06:50.17	232.03	27.60	-26.7	-28.4	15.9	4.15e-04	0	44	102	1048576	13	4385
2026-01-25 01:06:51.17	231.90	27.44	-26.7	-28.5	15.9	0.00e+00	0	44	102	1048576	13	4395
2026-01-25 01:06:52.18	231.78	27.27	-26.6	-28.1	16.0	1.63e-03	0	44	102	1048576	13	4305
2026-01-25 01:06:53.19	231.65	27.11	-26.6	-28.2	16.0	0.00e+00	0	44	102	1048576	13	4335
2026-01-25 01:06:54.19	231.53	26.95	-26.7	-28.4	15.8	3.75e-04	0	44	102	1048576	13	4373
2026-01-25 01:06:55.19	231.41	26.80	-26.6	-28.3	15.9	0.00e+00	0	44	102	1048576	13	4342
2026-01-25 01:06:56.20	231.28	26.64	-26.8	-28.6	15.8	1.59e-03	0	44	102	1048576	13	4432
2026-01-25 01:06:57.20	231.16	26.48	-26.6	-28.3	16.0	0.00e+00	0	44	102	1048576	13	4344
2026-01-25 01:06:58.21	231.05	26.33	-26.6	-28.2	16.0	0.00e+00	0	44	102	1048576	13	4311
2026-01-25 01:06:59.21	230.93	26.17	-26.7	-28.4	15.9	0.00e+00	0	44	102	1048576	13	4368
2026-01-25 01:07:00.21	230.81	26.02	-26.8	-28.5	15.8	1.44e-05	0	44	102	1048576	13	4412
2026-01-25 01:07:01.21	230.70	25.86	-26.6	-28.2	16.0	0.00e+00	0	44	102	1048576	13	4321
2026-01-25 01:07:02.22	230.58	25.71	-26.7	-28.4	15.9	0.00e+00	0	44	102	1048576	13	4369
2026-01-25 01:07:03.23	230.47	25.56	-26.6	-28.3	16.0	0.00e+00	0	44	102	1048576	13	4350
2026-01-25 01:07:04.23	230.36	25.41	-26.7	-28.4	15.9	0.00e+00	0	44	102	1048576	13	4375
2026-01-25 01:07:05.24	230.25	25.25	-26.7	-28.4	15.9	7.00e-07	0	44	102	1048576	13	4382
2026-01-25 01:07:06.24	230.14	25.10	-26.7	-28.4	15.9	1.73e-04	0	44	102	1048576	13	4371
2026-01-25 01:07:07.24	230.03	24.96	-26.7	-28.3	15.9	0.00e+00	0	44	102	1048576	13	4354
2026-01-25 01:07:08.25	229.92	24.81	-26.4	-27.8	16.2	5.53e-04	0	44	102	1048576	13	4223
2026-01-25 01:07:09.25	229.82	24.66	-26.2	-27.9	16.4	6.72e-04	0	44	102	1048576	12	4347
2026-01-25 01:07:10.26	229.71	24.51	-26.2	-27.7	16.5	0.00e+00	0	44	102	1048576	12	4305
2026-01-25 01:07:11.26	229.61	24.37	-26.3	-27.9	16.4	1.59e-03	0	44	102	1048576	12	4363
2026-01-25 01:07:12.27	229.50	24.22	-26.4	-28.1	16.2	2.05e-03	0	44	102	1048576	12	4425
2026-01-25 01:07:13.27	229.40	24.07	-26.2	-27.7	16.5	0.00e+00	0	44	102	1048576	12	4310
2026-01-25 01:07:14.27	229.30	23.93	-26.1	-27.7	16.5	0.00e+00	0	44	102	1048576	12	4286
2026-01-25 01:07:15.27	229.20	23.79	-26.2	-27.8	16.4	2.12e-03	0	44	102	1048576	12	4331
2026-01-25 01:07:16.27	229.10	23.65	-26.3	-27.9	16.3	0.00e+00	0	44	102	1048576	12	4363
2026-01-25 01:07:17.28	229.00	23.50	-26.4	-28.3	16.1	0.00e+00	0	44	102	1048576	12	4468
2026-01-25 01:07:18.28	228.90	23.36	-26.5	-28.1	16.0	0.00e+00	0	44	102	1048576	13	4297
2026-01-25 01:07:19.29	228.80	23.22	-26.8	-28.5	15.7	0.00e+00	0	44	102	1048576	13	4426
2026-01-25 01:07:20.29	228.71	23.08	-26.9	-28.9	15.5	3.04e-04	0	44	102	1048576	13	4527
2026-01-25 01:07:21.29	228.61	22.94	-26.8	-28.7	15.6	6.36e-04	0	44	102	1048576	13	4470
2026-01-25 01:07:22.29	228.52	22.80	-26.9	-28.9	15.5	0.00e+00	0	44	102	1048576	13	4521
2026-01-25 01:07:23.30	228.43	22.66	-27.0	-28.7	15.4	0.00e+00	0	44	102	1048576	14	4352
2026-01-25 01:07:24.30	228.33	22.53	-27.2	-29.1	15.2	0.00e+00	0	44	102	1048576	14	4476
2026-01-25 01:07:25.30	228.24	22.39	-27.3	-29.4	15.0	2.04e-04	0	44	102	1048576	14	4575
2026-01-25 01:07:26.31	228.15	22.25	-27.2	-29.1	15.1	3.78e-03	0	44	102	1048576	14	4488
2026-01-25 01:07:27.31	228.06	22.12	-27.2	-29.1	15.1	0.00e+00	0	44	102	1048576	14	4485
2026-01-25 01:07:28.31	227.97	21.98	-27.2	-29.1	15.1	7.00e-07	0	44	102	1048576	14	4476
2026-01-25 01:07:29.32	227.88	21.85	-27.1	-28.9	15.2	0.00e+00	0	44	102	1048576	14	4416
2026-01-25 01:07:30.33	227.80	21.71	-27.1	-29.0	15.2	0.00e+00	0	44	102	1048576	14	4431
2026-01-25 01:07:31.34	227.71	21.58	-27.0	-28.6	15.4	0.00e+00	0	44	102	1048576	14	4338
2026-01-25 01:07:32.34	227.62	21.45	-26.8	-28.7	15.6	0.00e+00	0	44	102	1048576	13	4477
2026-01-25 01:07:33.34	227.54	21.32	-26.8	-28.6	15.6	0.00e+00	0	44	102	1048576	13	4457
2026-01-25 01:07:34.34	227.45	21.19	-26.7	-28.4	15.7	0.00e+00	0	44	102	1048576	13	4399
2026-01-25 01:07:35.35	227.37	21.06	-26.5	-27.9	16.0	0.00e+00	0	44	102	1048576	13	4245
2026-01-25 01:07:36.35	227.28	20.93	-26.3	-28.0	16.2	0.00e+00	0	44	102	1048576	12	4395
2026-01-25 01:07:37.36	227.20	20.80	-26.2	-27.9	16.3	0.00e+00	0	44	102	1048576	12	4356
2026-01-25 01:07:38.36	227.12	20.67	-26.2	-27.9	16.3	0.00e+00	0	44	102	1048576	12	4347
2026-01-25 01:07:39.37	227.04	20.54	-26.2	-27.8	16.3	0.00e+00	0	44	102	1048576	12	4337
2026-01-25 01:07:40.37	226.96	20.41	-26.0	-27.4	16.5	0.00e+00	0	44	102	1048576	12	4229
2026-01-25 01:07:41.38	226.88	20.28	-26.0	-27.3	16.6	0.00e+00	0	44	102	1048576	12	4181
2026-01-25 01:07:42.38	226.80	20.16	-25.9	-27.1	16.7	0.00e+00	0	44	102	1048576	12	4146
2026-01-25 01:07:43.39	226.72	20.03	-25.9	-27.1	16.7	0.00e+00	0	44	102	1048576	12	4139
2026-01-25 01:07:44.39	226.64	19.91	-25.9	-27.6	16.7	0.00e+00	0	44	102	1048576	11	4391
2026-01-25 01:07:45.40	226.57	19.78	-25.9	-27.7	16.6	0.00e+00	0	44	102	1048576	11	4401
2026-01-25 01:07:46.41	226.49	19.66	-25.9	-27.7	16.7	0.00e+00	0	44	102	1048576	11	4416
2026-01-25 01:07:47.41	226.41	19.53	-26.0	-27.3	16.6	0.00e+00	0	44	102	1048576	12	4191
2026-01-25 01:07:48.41	226.34	19.41	-26.2	-27.8	16.3	3.67e-04	0	44	102	1048576	12	4340
2026-01-25 01:07:49.42	226.26	19.29	-26.3	-28.1	16.2	3.96e-04	0	44	102	1048576	12	4401
2026-01-25 01:07:50.42	226.19	19.17	-26.2	-27.9	16.2	0.00e+00	0	44	102	1048576	12	4366
2026-01-25 01:07:51.42	226.12	19.05	-26.3	-28.1	16.1	0.00e+00	0	44	102	1048576	12	4411
2026-01-25 01:07:52.42	226.04	18.93	-26.4	-28.2	16.0	0.00e+00	0	44	102	1048576	12	4452
2026-01-25 01:07:53.42	225.97	18.81	-26.5	-28.0	15.9	0.00e+00	0	44	102	1048576	13	4281
2026-01-25 01:07:54.42	225.90	18.69	-26.5	-28.0	15.9	4.98e-04	0	44	102	1048576	13	4284
2026-01-25 01:07:55.43	225.83	18.57	-26.6	-28.2	15.8	0.00e+00	0	44	102	1048576	13	4341
2026-01-25 01:07:56.44	225.76	18.45	-26.8	-28.6	15.5	0.00e+00	0	44	102	1048576	13	4456
2026-01-25 01:07:57.43	225.69	18.33	-26.9	-28.8	15.4	0.00e+00	0	44	102	1048576	13	4513
2026-01-25 01:07:58.44	225.62	18.21	-26.8	-28.6	15.5	2.88e-04	0	44	102	1048576	13	4448
2026-01-25 01:07:59.44	225.55	18.10	-26.8	-28.6	15.6	0.00e+00	0	44	102	1048576	13	4437
2026-01-25 01:08:00.45	225.48	17.98	-26.8	-28.7	15.5	1.81e-04	0	44	102	1048576	13	4480
2026-01-25 01:08:01.45	225.42	17.86	-26.9	-28.8	15.4	0.00e+00	0	44	102	1048576	13	4504
2026-01-25 01:08:02.46	225.35	17.75	-27.0	-29.1	15.3	0.00e+00	0	44	102	1048576	13	4593
2026-01-25 01:08:03.47	225.28	17.63	-27.1	-28.9	15.1	2.76e-04	0	44	102	1048576	14	4424
2026-01-25 01:08:04.47	225.22	17.52	-27.2	-29.2	14.9	3.55e-04	0	44	102	1048576	14	4501
2026-01-25 01:08:05.48	225.15	17.40	-27.2	-29.1	15.0	5.30e-06	0	44	102	1048576	14	4483
2026-01-25 01:08:06.48	225.09	17.29	-27.3	-29.3	14.8	4.03e-04	0	44	102	1048576	14	4549
2026-01-25 01:08:07.48	225.02	17.18	-27.2	-29.2	14.9	3.55e-04	0	44	102	1048576	14	4514
2026-01-25 01:08:08.48	224.96	17.06	-27.3	-29.3	14.8	0.00e+00	0	44	102	1048576	14	4555
2026-01-25 01:08:09.49	224.89	16.95	-27.3	-29.4	14.8	4.05e-04	0	44	102	1048576	14	4560
2026-01-25 01:08:10.49	224.83	16.84	-27.4	-29.6	14.6	4.55e-04	0	44	102	1048576	14	4648
2026-01-25 01:08:11.49	224.77	16.73	-27.5	-29.2	14.6	3.80e-06	0	44	102	1048576	15	4406
2026-01-25 01:08:12.50	224.71	16.62	-27.4	-29.5	14.7	0.00e+00	0	44	102	1048576	14	4610
2026-01-25 01:08:13.50	224.65	16.51	-27.4	-29.6	14.7	3.48e-04	0	44	102	1048576	14	4619
2026-01-25 01:08:14.51	224.58	16.40	-27.4	-29.6	14.7	7.60e-06	0	44	102	1048576	14	4618
2026-01-25 01:08:15.51	224.52	16.29	-27.4	-29.5	14.7	3.00e-04	0	44	102	1048576	14	4618
2026-01-25 01:08:16.52	224.46	16.18	-27.4	-29.6	14.7	2.44e-04	0	44	102	1048576	14	4619
2026-01-25 01:08:17.52	224.40	16.07	-27.4	-29.6	14.6	1.22e-05	0	44	102	1048576	14	4630
2026-01-25 01:08:18.53	224.34	15.96	-27.4	-29.2	14.6	0.00e+00	0	44	102	1048576	15	4389
2026-01-25 01:08:19.53	224.29	15.85	-27.3	-28.9	14.7	1.35e-04	0	44	102	1048576	15	4321
2026-01-25 01:08:20.53	224.23	15.75	-27.3	-29.3	14.8	1.14e-05	0	44	102	1048576	14	4532
2026-01-25 01:08:21.53	224.17	15.64	-27.2	-29.1	14.9	0.00e+00	0	44	102	1048576	14	4482
2026-01-25 01:08:22.53	224.11	15.53	-27.2	-29.1	14.9	0.00e+00	0	44	102	1048576	14	4494
2026-01-25 01:08:23.54	224.05	15.43	-27.2	-29.1	14.9	1.92e-03	0	44	102	1048576	14	4490
2026-01-25 01:08:24.54	224.00	15.32	-27.1	-28.9	15.0	2.67e-05	0	44	102	1048576	14	4411
2026-01-25 01:08:25.55	223.94	15.22	-27.1	-28.9	15.0	6.80e-06	0	44	102	1048576	14	4427
2026-01-25 01:08:26.55	223.89	15.11	-27.1	-28.8	15.0	1.06e-05	0	44	102	1048576	14	4412
2026-01-25 01:08:27.56	223.83	15.01	-27.0	-28.7	15.1	0.00e+00	0	44	102	1048576	14	4370
2026-01-25 01:08:28.56	223.78	14.91	-27.0	-28.7	15.1	2.10e-03	0	44	102	1048576	14	4379
2026-01-25 01:08:29.56	223.72	14.80	-27.0	-28.8	15.0	2.06e-03	0	44	102	1048576	14	4394
2026-01-25 01:08:30.57	223.67	14.70	-27.0	-29.1	15.1	0.00e+00	0	44	102	1048576	13	4603
2026-01-25 01:08:31.57	223.61	14.60	-27.2	-29.1	14.8	7.00e-07	0	44	102	1048576	14	4479
2026-01-25 01:08:32.58	223.56	14.49	-27.1	-29.0	14.9	1.84e-03	0	44	102	1048576	14	4444
2026-01-25 01:08:33.59	223.51	14.39	-27.0	-28.7	15.0	0.00e+00	0	44	102	1048576	14	4362
2026-01-25 01:08:34.59	223.45	14.29	-26.9	-28.9	15.2	1.71e-03	0	44	102	1048576	13	4552
2026-01-25 01:08:35.60	223.40	14.19	-27.0	-29.1	15.1	1.54e-03	0	44	102	1048576	13	4588
2026-01-25 01:08:36.60	223.35	14.09	-27.0	-28.7	15.0	0.00e+00	0	44	102	1048576	14	4369
2026-01-25 01:08:37.60	223.30	13.99	-27.2	-29.0	14.8	8.67e-04	0	44	102	1048576	14	4462
2026-01-25 01:08:38.61	223.25	13.89	-27.2	-29.1	14.8	8.47e-04	0	44	102	1048576	14	4470
2026-01-25 01:08:39.61	223.19	13.79	-27.0	-28.7	15.0	0.00e+00	0	44	102	1048576	14	4375
2026-01-25 01:08:40.61	223.14	13.69	-27.0	-28.8	15.0	8.69e-04	0	44	102	1048576	14	4392
2026-01-25 01:08:41.62	223.09	13.59	-27.1	-28.8	14.9	9.22e-04	0	44	102	1048576	14	4404
2026-01-25 01:08:42.62	223.04	13.49	-27.1	-28.9	14.9	0.00e+00	0	44	102	1048576	14	4428
2026-01-25 01:08:43.62	223.00	13.40	-27.2	-29.1	14.8	1.01e-03	0	44	102	1048576	14	4479
2026-01-25 01:08:44.62	222.95	13.30	-27.2	-29.2	14.7	9.76e-04	0	44	102	1048576	14	4522
2026-01-25 01:08:45.63	222.90	13.20	-27.2	-29.2	14.7	0.00e+00	0	44	102	1048576	14	4518
2026-01-25 01:08:46.63	222.85	13.11	-27.3	-29.3	14.6	3.23e-04	0	44	102	1048576	14	4541
2026-01-25 01:08:47.64	222.80	13.01	-27.3	-29.3	14.6	0.00e+00	0	44	102	1048576	14	4544
2026-01-25 01:08:48.65	222.75	12.91	-27.2	-29.3	14.3	3.00e-06	0	44	102	1048576	14	4551
2026-01-25 01:08:49.66	222.70	12.82	-27.3	-29.4	14.3	1.46e-03	0	44	102	1048576	14	4580
2026-01-25 01:08:50.65	222.66	12.72	-27.4	-29.6	14.1	1.69e-03	0	44	102	1048576	14	4637
2026-01-25 01:08:51.65	222.61	12.63	-27.3	-29.4	14.1	3.05e-05	0	44	102	1048576	14	4608
2026-01-25 01:08:52.66	222.56	12.53	-27.2	-29.3	14.3	1.14e-05	0	44	102	1048576	14	4546
2026-01-25 01:08:53.66	222.52	12.44	-27.2	-29.1	14.4	5.30e-06	0	44	102	1048576	14	4518
2026-01-25 01:08:54.67	222.47	12.34	-27.2	-29.3	14.4	1.50e-06	0	44	102	1048576	14	4547
2026-01-25 01:08:55.67	222.43	12.25	-27.3	-29.3	14.5	2.44e-03	0	44	102	1048576	14	4569
2026-01-25 01:08:56.67	222.38	12.16	-27.3	-29.4	14.4	7.00e-07	0	44	102	1048576	14	4573
2026-01-25 01:08:57.67	222.34	12.06	-27.3	-29.4	14.4	7.00e-07	0	44	102	1048576	14	4590
2026-01-25 01:08:58.66	222.29	11.97	-27.3	-29.4	14.4	1.50e-06	0	44	102	1048576	14	4595
2026-01-25 01:08:59.66	222.25	11.88	-27.3	-29.5	14.4	7.00e-07	0	44	102	1048576	14	4630
2026-01-25 01:09:00.67	222.20	11.79	-27.4	-29.6	14.3	7.00e-07	0	44	102	1048576	14	4641
2026-01-25 01:09:01.67	222.16	11.70	-27.5	-29.4	14.0	3.80e-06	0	44	102	1048576	15	4493
2026-01-25 01:09:02.68	222.12	11.61	-27.5	-29.3	14.0	8.30e-06	0	44	102	1048576	15	4465
2026-01-25 01:09:03.69	222.07	11.51	-27.5	-29.8	13.9	6.10e-06	0	44	102	1048576	14	4730
2026-01-25 01:09:04.69	222.03	11.42	-27.5	-29.9	13.9	1.22e-05	0	44	102	1048576	14	4754
2026-01-25 01:09:05.70	221.99	11.33	-27.5	-29.9	13.8	5.30e-06	0	44	102	1048576	14	4761
2026-01-25 01:09:06.70	221.95	11.24	-27.6	-29.6	13.8	2.21e-05	0	44	102	1048576	15	4575
2026-01-25 01:09:07.71	221.90	11.15	-27.5	-29.6	13.7	7.24e-05	0	44	102	1048576	15	4548
2026-01-25 01:09:08.71	221.86	11.06	-27.5	-29.5	13.8	2.51e-05	0	44	102	1048576	15	4519
2026-01-25 01:09:09.71	221.82	10.98	-27.5	-29.6	13.6	1.33e-04	0	44	102	1048576	15	4560
2026-01-25 01:09:10.72	221.78	10.89	-27.6	-29.8	13.6	5.79e-05	0	44	102	1048576	15	4605
2026-01-25 01:09:11.72	221.74	10.80	-27.6	-29.7	13.6	8.08e-05	0	44	102	1048576	15	4590
2026-01-25 01:09:12.73	221.70	10.71	-27.8	-30.0	13.5	1.29e-05	0	44	102	1048576	15	4689
2026-01-25 01:09:13.72	221.66	10.62	-27.7	-29.9	13.7	3.20e-05	0	44	102	1048576	15	4645
2026-01-25 01:09:14.73	221.62	10.53	-27.3	-29.4	13.8	8.30e-06	0	44	102	1048576	15	4584
2026-01-25 01:09:15.73	221.58	10.45	-27.6	-29.8	13.4	4.50e-06	0	44	102	1048576	15	4602
2026-01-25 01:09:16.72	221.54	10.36	-27.6	-29.6	13.9	9.10e-06	0	44	102	1048576	15	4563
2026-01-25 01:09:17.72	221.50	10.28	-27.7	-29.9	13.7	1.50e-06	0	44	102	1048576	15	4625
2026-01-25 01:09:18.72	221.46	10.19	-27.7	-29.9	13.7	8.30e-06	0	44	102	1048576	15	4638
2026-01-25 01:09:19.72	221.42	10.10	-27.7	-29.8	13.7	1.06e-05	0	44	102	1048576	15	4617
2026-01-25 01:09:20.72	221.38	10.02	-27.8	-30.0	13.7	5.30e-06	0	44	102	1048576	15	4667
2026-01-25 01:09:21.73	221.34	9.93	-27.7	-29.9	13.7	3.45e-04	0	44	102	1048576	15	4649
2026-01-25 01:09:22.73	221.31	9.85	-27.7	-29.8	13.8	1.14e-05	0	44	102	1048576	15	4606
2026-01-25 01:09:23.74	221.27	9.76	-27.7	-29.9	13.8	3.00e-06	0	44	102	1048576	15	4618
2026-01-25 01:09:24.74	221.23	9.68	-27.8	-30.1	13.6	1.22e-05	0	44	102	1048576	15	4690
2026-01-25 01:09:25.74	221.19	9.59	-27.8	-30.1	13.7	1.83e-05	0	44	102	1048576	15	4685
2026-01-25 01:09:26.75	221.15	9.51	-27.8	-30.2	13.6	2.88e-04	0	44	102	1048576	15	4722
2026-01-25 01:09:27.76	221.12	9.42	-27.8	-30.2	13.5	3.23e-04	0	44	102	1048576	15	4729
2026-01-25 01:09:28.76	221.08	9.34	-27.8	-30.3	13.5	1.75e-05	0	44	102	1048576	15	4755
2026-01-25 01:09:29.76	221.04	9.26	-28.0	-30.5	13.3	1.29e-05	0	43	102	1048576	15	4842
2026-01-25 01:09:30.76	221.01	9.18	-28.2	-30.5	13.2	2.36e-05	0	44	102	1048576	16	4713
2026-01-25 01:09:31.77	220.97	9.09	-28.2	-30.6	13.1	3.66e-05	0	44	102	1048576	16	4736
2026-01-25 01:09:32.77	220.94	9.01	-28.3	-30.7	13.1	5.80e-04	0	44	102	1048576	16	4775
2026-01-25 01:09:33.77	220.90	8.93	-28.2	-30.7	13.1	7.23e-04	0	44	102	1048576	16	4766
2026-01-25 01:09:34.78	220.86	8.85	-28.3	-30.9	12.9	4.34e-05	0	44	102	1048576	16	4835
2026-01-25 01:09:35.78	220.83	8.76	-28.3	-30.8	12.9	8.00e-04	0	44	102	1048576	16	4823
2026-01-25 01:09:36.79	220.79	8.68	-28.3	-31.0	12.9	7.43e-04	0	44	102	1048576	16	4868
2026-01-25 01:09:37.79	220.76	8.60	-28.2	-30.7	13.0	3.58e-05	0	44	102	1048576	16	4767
2026-01-25 01:09:38.80	220.72	8.52	-28.2	-30.5	13.1	7.03e-04	0	44	102	1048576	16	4724
2026-01-25 01:09:39.80	220.69	8.44	-28.2	-30.6	13.1	7.99e-04	0	44	102	1048576	16	4742
2026-01-25 01:09:40.80	220.66	8.36	-28.2	-30.7	13.0	3.05e-05	0	44	102	1048576	16	4760
