passes_logs/2026/01/25/R2M6_AANII_01/R2M6_AANII_01__20260125_080243_SUOMI_NPP_rec.log

#Pass ID: 20260125_080243_SUOMI NPP
#Satellite: SUOMI NPP
#Configuration: NPP
#almurnet v.1.7.20240730
#Start time: 2026-01-25 08:02:44

#Version: 2.2.20231116
#Station: R2M6_AANII_01
#Location: 30.233357 lon 59.946436 lat
#TLE: 1 37849U 11061A   26024.54906732  .00000185  00000+0  10878-3 0  9990
#TLE: 2 37849  98.7821 326.5159 0002200  47.3746 312.7615 14.19529340738061

#Time	Az	El	Level	Level2	SNR	BER	BlckErr	Temp	State	Recorded	gain1	gain2
2026-01-25 08:02:44.05	86.94	7.06	-32.6	-42.0	3.8	1.49e+00	0	41	0	0	26	10697
2026-01-25 08:02:45.06	86.83	7.12	-32.2	-39.0	4.3	1.40e+00	0	41	104	0	25	7853
2026-01-25 08:02:46.06	86.72	7.18	-32.2	-39.0	4.6	5.90e-01	0	41	104	0	25	7897
2026-01-25 08:02:47.07	86.61	7.23	-32.2	-38.9	4.3	1.39e+00	0	41	104	0	25	7829
2026-01-25 08:02:48.08	86.50	7.29	-32.3	-39.3	4.2	6.77e-01	0	41	104	0	25	8094
2026-01-25 08:02:49.08	86.39	7.35	-32.3	-39.7	4.8	1.42e+00	0	41	104	0	25	8432
2026-01-25 08:02:50.08	86.27	7.41	-32.3	-39.5	4.2	7.70e-01	0	41	104	0	25	8250
2026-01-25 08:02:51.09	86.16	7.46	-32.2	-38.4	5.5	1.23e+00	0	41	104	0	25	7353
2026-01-25 08:02:52.09	86.05	7.52	-31.9	-36.8	6.6	3.24e-01	0	41	0	0	25	6318
2026-01-25 08:02:53.09	85.94	7.58	-31.7	-36.1	7.4	1.64e-01	0	41	102	1048576	24	5981
2026-01-25 08:02:54.10	85.82	7.64	-31.4	-34.8	8.5	5.74e-02	0	41	102	1048576	24	5359
2026-01-25 08:02:55.10	85.71	7.70	-31.2	-34.8	8.8	3.39e-02	0	41	102	1048576	23	5414
2026-01-25 08:02:56.11	85.59	7.75	-31.3	-34.9	8.8	3.09e-02	0	41	102	1048576	23	5473
2026-01-25 08:02:57.11	85.48	7.81	-31.4	-35.6	8.2	4.24e-02	0	41	102	1048576	23	5837
2026-01-25 08:02:58.12	85.36	7.87	-31.5	-35.8	8.0	6.41e-02	0	41	102	1048576	23	5928
2026-01-25 08:02:59.12	85.25	7.93	-31.5	-35.7	8.2	6.63e-02	0	41	102	1048576	23	5851
2026-01-25 08:03:00.12	85.13	7.99	-31.4	-35.3	8.5	4.64e-02	0	41	102	1048576	23	5645
2026-01-25 08:03:01.13	85.01	8.05	-31.3	-35.0	8.7	3.57e-02	0	41	102	1048576	23	5504
2026-01-25 08:03:02.12	84.90	8.10	-31.2	-34.7	9.0	2.61e-02	0	42	102	1048576	23	5350
2026-01-25 08:03:03.13	84.78	8.16	-31.3	-35.0	8.8	2.71e-02	0	42	102	1048576	23	5495
2026-01-25 08:03:04.13	84.66	8.22	-31.4	-35.2	8.6	3.77e-02	0	42	102	1048576	23	5587
2026-01-25 08:03:05.13	84.54	8.28	-31.2	-34.4	9.2	2.25e-02	0	41	102	1048576	23	5243
2026-01-25 08:03:06.14	84.42	8.34	-31.0	-33.8	9.7	1.41e-02	0	42	102	1048576	23	4969
2026-01-25 08:03:07.14	84.30	8.39	-31.0	-33.7	9.8	9.72e-03	0	42	102	1048576	23	4909
2026-01-25 08:03:08.14	84.18	8.45	-30.9	-33.4	10.1	7.72e-03	0	42	102	1048576	23	4784
2026-01-25 08:03:09.14	84.06	8.51	-30.8	-33.1	10.3	5.02e-03	0	42	102	1048576	23	4677
2026-01-25 08:03:10.15	83.94	8.57	-30.9	-33.3	10.2	5.03e-03	0	42	102	1048576	23	4765
2026-01-25 08:03:11.15	83.82	8.63	-30.8	-32.9	10.5	4.80e-03	0	42	102	1048576	23	4598
2026-01-25 08:03:12.16	83.69	8.69	-30.8	-33.4	10.5	4.91e-03	0	42	102	1048576	22	4867
2026-01-25 08:03:13.16	83.57	8.74	-30.7	-33.2	10.6	3.75e-03	0	42	102	1048576	22	4794
2026-01-25 08:03:14.17	83.45	8.80	-30.7	-33.2	10.8	3.28e-03	0	42	102	1048576	22	4760
2026-01-25 08:03:15.17	83.32	8.86	-30.8	-33.2	10.7	3.53e-03	0	42	102	1048576	22	4791
2026-01-25 08:03:16.18	83.20	8.92	-30.7	-33.0	10.9	2.54e-03	0	42	102	1048576	22	4716
2026-01-25 08:03:17.18	83.07	8.98	-30.6	-32.8	11.0	1.87e-03	0	42	102	1048576	22	4621
2026-01-25 08:03:18.18	82.95	9.03	-30.6	-32.8	11.0	1.76e-03	0	42	102	1048576	22	4625
2026-01-25 08:03:19.19	82.82	9.09	-30.7	-33.1	10.8	2.21e-03	0	42	102	1048576	22	4751
2026-01-25 08:03:20.20	82.70	9.15	-30.7	-33.0	10.8	3.00e-03	0	42	102	1048576	22	4713
2026-01-25 08:03:21.20	82.57	9.21	-30.7	-33.1	10.8	2.29e-03	0	42	102	1048576	22	4734
2026-01-25 08:03:22.21	82.44	9.27	-30.7	-32.9	10.9	2.36e-03	0	42	102	1048576	22	4678
2026-01-25 08:03:23.21	82.31	9.33	-30.7	-33.0	10.9	2.23e-03	0	42	102	1048576	22	4680
2026-01-25 08:03:24.23	82.18	9.39	-30.7	-33.1	10.8	2.02e-03	0	42	102	1048576	22	4753
2026-01-25 08:03:25.23	82.05	9.44	-30.8	-33.5	10.5	3.42e-03	0	42	102	1048576	22	4873
2026-01-25 08:03:26.24	81.92	9.50	-31.0	-33.9	10.2	4.76e-03	0	42	102	1048576	22	5051
2026-01-25 08:03:27.24	81.79	9.56	-31.0	-34.2	10.0	5.80e-03	0	42	102	1048576	22	5150
2026-01-25 08:03:28.25	81.66	9.62	-31.1	-34.3	9.9	7.30e-03	0	42	102	1048576	22	5212
2026-01-25 08:03:29.26	81.53	9.68	-31.1	-34.3	9.9	8.48e-03	0	42	102	1048576	22	5231
2026-01-25 08:03:30.26	81.40	9.74	-31.1	-34.2	10.1	6.62e-03	0	42	102	1048576	22	5164
2026-01-25 08:03:31.26	81.27	9.80	-31.1	-34.1	10.1	6.28e-03	0	42	102	1048576	22	5137
2026-01-25 08:03:32.27	81.13	9.85	-31.0	-34.0	10.2	6.71e-03	0	42	102	1048576	22	5077
2026-01-25 08:03:33.27	81.00	9.91	-30.9	-33.6	10.5	4.93e-03	0	42	102	1048576	22	4923
2026-01-25 08:03:34.27	80.87	9.97	-30.9	-33.6	10.6	4.01e-03	0	42	102	1048576	22	4917
2026-01-25 08:03:35.28	80.73	10.03	-31.0	-34.0	10.3	5.32e-03	0	42	102	1048576	22	5066
2026-01-25 08:03:36.28	80.60	10.09	-30.9	-33.6	10.6	4.82e-03	0	42	102	1048576	22	4925
2026-01-25 08:03:37.28	80.46	10.14	-30.9	-33.8	10.4	3.80e-03	0	42	102	1048576	22	4975
2026-01-25 08:03:38.28	80.33	10.20	-30.9	-33.8	10.4	3.77e-03	0	42	102	1048576	22	4988
2026-01-25 08:03:39.29	80.19	10.26	-31.0	-33.9	10.4	3.81e-03	0	42	102	1048576	22	5019
2026-01-25 08:03:40.28	80.05	10.32	-30.7	-33.1	10.9	3.10e-03	0	42	102	1048576	22	4712
2026-01-25 08:03:41.28	79.92	10.38	-30.5	-32.4	11.5	1.48e-03	0	42	102	1048576	22	4456
2026-01-25 08:03:42.29	79.78	10.43	-30.5	-32.4	11.4	1.04e-03	0	42	102	1048576	22	4456
2026-01-25 08:03:43.29	79.64	10.49	-30.7	-32.8	11.2	1.07e-03	0	42	102	1048576	22	4587
2026-01-25 08:03:44.30	79.50	10.55	-30.7	-33.0	11.1	1.60e-03	0	42	102	1048576	22	4660
2026-01-25 08:03:45.30	79.36	10.61	-30.7	-32.9	11.1	1.53e-03	0	42	102	1048576	22	4628
2026-01-25 08:03:46.31	79.22	10.67	-30.8	-33.2	10.9	1.91e-03	0	42	102	1048576	22	4738
2026-01-25 08:03:47.30	79.08	10.72	-30.8	-33.2	10.9	1.91e-03	0	42	102	1048576	22	4746
2026-01-25 08:03:48.30	78.94	10.78	-30.7	-33.0	11.1	1.80e-03	0	42	102	1048576	22	4671
2026-01-25 08:03:49.30	78.80	10.84	-30.8	-33.2	10.9	2.26e-03	0	43	102	1048576	22	4735
2026-01-25 08:03:50.31	78.65	10.90	-30.8	-33.1	11.0	2.12e-03	0	43	102	1048576	22	4707
2026-01-25 08:03:51.31	78.51	10.96	-30.8	-33.2	10.9	2.45e-03	0	43	102	1048576	22	4743
2026-01-25 08:03:52.30	78.37	11.01	-30.9	-33.3	10.9	1.82e-03	0	42	102	1048576	22	4781
2026-01-25 08:03:53.31	78.22	11.07	-31.0	-33.6	10.7	2.67e-03	0	43	102	1048576	22	4893
2026-01-25 08:03:54.32	78.08	11.13	-31.1	-34.2	10.2	3.96e-03	0	42	102	1048576	22	5124
2026-01-25 08:03:55.32	77.93	11.19	-31.1	-34.0	10.4	4.66e-03	0	43	102	1048576	22	5053
2026-01-25 08:03:56.33	77.78	11.24	-31.1	-34.0	10.4	3.88e-03	0	43	102	1048576	22	5056
2026-01-25 08:03:57.33	77.64	11.30	-31.2	-34.4	10.1	4.96e-03	0	43	102	1048576	22	5230
2026-01-25 08:03:58.34	77.49	11.36	-31.3	-34.7	9.9	9.57e-03	0	42	102	1048576	22	5372
2026-01-25 08:03:59.34	77.34	11.42	-31.2	-34.4	10.1	8.17e-03	0	42	102	1048576	22	5209
2026-01-25 08:04:00.34	77.19	11.47	-31.2	-34.4	10.1	7.38e-03	0	43	102	1048576	22	5230
2026-01-25 08:04:01.34	77.05	11.53	-31.2	-34.6	10.0	7.12e-03	0	43	102	1048576	22	5306
2026-01-25 08:04:02.35	76.90	11.59	-31.3	-34.9	9.7	9.39e-03	0	43	102	1048576	22	5440
2026-01-25 08:04:03.35	76.75	11.65	-31.3	-34.7	9.9	7.65e-03	0	43	102	1048576	22	5337
2026-01-25 08:04:04.36	76.59	11.70	-31.3	-35.0	9.7	1.17e-02	0	43	102	1048576	22	5463
2026-01-25 08:04:05.36	76.44	11.76	-31.3	-34.7	10.0	9.83e-03	0	43	102	1048576	22	5342
2026-01-25 08:04:06.37	76.29	11.82	-31.4	-35.0	9.7	8.85e-03	0	43	102	1048576	22	5456
2026-01-25 08:04:07.37	76.14	11.87	-31.3	-34.7	9.9	1.07e-02	0	43	102	1048576	22	5345
2026-01-25 08:04:08.37	75.98	11.93	-31.1	-34.2	10.4	5.05e-03	0	42	102	1048576	22	5096
2026-01-25 08:04:09.37	75.83	11.99	-31.0	-33.6	10.8	3.10e-03	0	43	102	1048576	22	4857
2026-01-25 08:04:10.38	75.68	12.05	-30.9	-33.3	11.0	2.40e-03	0	43	102	1048576	22	4770
2026-01-25 08:04:11.38	75.52	12.10	-30.9	-33.4	11.0	1.92e-03	0	43	102	1048576	22	4782
2026-01-25 08:04:12.39	75.36	12.16	-30.9	-33.5	10.8	2.11e-03	0	43	102	1048576	22	4848
2026-01-25 08:04:13.40	75.21	12.22	-30.9	-33.3	11.0	1.65e-03	0	43	102	1048576	22	4748
2026-01-25 08:04:14.40	75.05	12.27	-30.9	-33.5	10.8	1.80e-03	0	43	102	1048576	22	4838
2026-01-25 08:04:15.40	74.89	12.33	-31.0	-33.5	10.8	2.62e-03	0	43	102	1048576	22	4852
2026-01-25 08:04:16.41	74.73	12.38	-30.8	-32.9	11.3	1.64e-03	0	43	102	1048576	22	4620
2026-01-25 08:04:17.41	74.58	12.44	-30.6	-32.8	11.3	1.11e-03	0	43	102	1048576	22	4616
2026-01-25 08:04:18.41	74.42	12.50	-30.6	-32.7	11.4	1.02e-03	0	43	102	1048576	22	4581
2026-01-25 08:04:19.41	74.26	12.55	-30.5	-32.4	11.5	1.17e-03	0	43	102	1048576	22	4467
2026-01-25 08:04:20.42	74.10	12.61	-30.5	-32.3	11.6	8.09e-04	0	43	102	1048576	22	4459
2026-01-25 08:04:21.43	73.93	12.67	-30.5	-32.4	11.5	7.74e-04	0	43	102	1048576	22	4479
2026-01-25 08:04:22.43	73.77	12.72	-30.6	-32.6	11.3	9.31e-04	0	43	102	1048576	22	4564
2026-01-25 08:04:23.43	73.61	12.78	-30.5	-32.5	11.5	1.17e-03	0	43	102	1048576	22	4510
2026-01-25 08:04:24.44	73.45	12.83	-30.3	-31.9	11.9	8.51e-04	0	43	102	1048576	22	4310
2026-01-25 08:04:25.44	73.28	12.89	-30.1	-31.7	12.3	2.22e-04	0	43	102	1048576	21	4340
2026-01-25 08:04:26.45	73.12	12.94	-30.0	-31.4	12.5	1.46e-04	0	43	102	1048576	21	4242
2026-01-25 08:04:27.46	72.95	13.00	-29.9	-31.2	12.6	9.76e-05	0	43	102	1048576	21	4198
2026-01-25 08:04:28.46	72.79	13.05	-29.9	-31.3	12.6	9.30e-05	0	43	102	1048576	21	4197
2026-01-25 08:04:29.47	72.62	13.11	-30.0	-31.6	12.4	1.44e-04	0	43	102	1048576	21	4305
2026-01-25 08:04:30.47	72.45	13.16	-30.0	-31.4	12.5	1.27e-04	0	43	102	1048576	21	4240
2026-01-25 08:04:31.47	72.29	13.22	-29.9	-31.2	12.7	8.08e-05	0	43	102	1048576	21	4165
2026-01-25 08:04:32.47	72.12	13.27	-29.8	-31.0	12.8	7.55e-05	0	43	102	1048576	21	4112
2026-01-25 08:04:33.47	71.95	13.33	-29.7	-31.1	13.0	3.96e-05	0	43	102	1048576	20	4239
2026-01-25 08:04:34.46	71.78	13.38	-29.9	-31.6	12.7	3.58e-05	0	43	102	1048576	20	4386
2026-01-25 08:04:35.47	71.61	13.44	-29.8	-31.5	12.7	7.85e-05	0	43	102	1048576	20	4367
2026-01-25 08:04:36.47	71.44	13.49	-29.9	-31.6	12.7	7.24e-05	0	43	102	1048576	20	4404
2026-01-25 08:04:37.48	71.27	13.54	-29.8	-31.5	12.8	5.79e-05	0	43	102	1048576	20	4363
2026-01-25 08:04:38.49	71.10	13.60	-29.8	-31.4	12.9	5.34e-05	0	43	102	1048576	20	4327
2026-01-25 08:04:39.49	70.93	13.65	-29.8	-31.3	12.9	3.73e-05	0	43	102	1048576	20	4274
2026-01-25 08:04:40.50	70.75	13.71	-29.9	-31.6	12.8	3.58e-05	0	43	102	1048576	20	4373
2026-01-25 08:04:41.50	70.58	13.76	-29.9	-31.6	12.8	8.39e-05	0	43	102	1048576	20	4366
2026-01-25 08:04:42.51	70.40	13.81	-29.8	-31.5	12.9	6.17e-05	0	43	102	1048576	20	4341
2026-01-25 08:04:43.51	70.23	13.87	-29.9	-31.6	12.8	9.53e-05	0	43	102	1048576	20	4376
2026-01-25 08:04:44.52	70.05	13.92	-30.0	-31.9	12.6	7.47e-05	0	43	102	1048576	20	4474
2026-01-25 08:04:45.52	69.87	13.97	-29.9	-31.8	12.6	8.77e-05	0	43	102	1048576	20	4457
2026-01-25 08:04:46.52	69.70	14.02	-30.0	-32.0	12.5	7.93e-05	0	43	102	1048576	20	4528
2026-01-25 08:04:47.52	69.52	14.08	-30.1	-32.3	12.3	2.20e-04	0	43	102	1048576	20	4614
2026-01-25 08:04:48.53	69.34	14.13	-30.1	-32.1	12.3	1.68e-04	0	43	102	1048576	20	4583
2026-01-25 08:04:49.53	69.16	14.18	-30.0	-32.1	12.3	1.66e-04	0	43	102	1048576	20	4567
2026-01-25 08:04:50.53	68.99	14.23	-30.0	-32.2	12.3	1.85e-04	0	43	102	1048576	20	4605
2026-01-25 08:04:51.54	68.80	14.29	-30.1	-32.4	12.1	3.01e-04	0	43	102	1048576	20	4680
2026-01-25 08:04:52.54	68.62	14.34	-30.0	-32.2	12.2	2.14e-04	0	43	102	1048576	20	4616
2026-01-25 08:04:53.54	68.44	14.39	-30.1	-32.4	12.2	1.91e-04	0	43	102	1048576	20	4669
2026-01-25 08:04:54.54	68.26	14.44	-30.1	-32.2	12.3	1.85e-04	0	43	102	1048576	20	4618
2026-01-25 08:04:55.55	68.08	14.49	-30.2	-32.7	12.0	2.30e-04	0	43	102	1048576	20	4773
2026-01-25 08:04:56.56	67.89	14.54	-30.0	-32.1	12.4	2.01e-04	0	43	102	1048576	20	4573
2026-01-25 08:04:57.56	67.71	14.59	-29.8	-31.3	12.9	8.46e-05	0	43	102	1048576	20	4304
2026-01-25 08:04:58.57	67.52	14.64	-29.6	-30.8	13.2	3.12e-05	0	43	102	1048576	20	4144
2026-01-25 08:04:59.57	67.34	14.69	-29.5	-30.6	13.4	1.60e-05	0	43	102	1048576	20	4079
2026-01-25 08:05:00.58	67.15	14.74	-29.7	-31.0	13.2	1.67e-05	0	43	102	1048576	20	4194
2026-01-25 08:05:01.58	66.97	14.79	-29.7	-31.0	13.2	3.28e-05	0	43	102	1048576	20	4179
2026-01-25 08:05:02.59	66.78	14.84	-29.6	-30.8	13.3	1.60e-05	0	43	102	1048576	20	4122
2026-01-25 08:05:03.60	66.59	14.89	-29.5	-30.5	13.5	1.67e-05	0	43	102	1048576	20	4036
2026-01-25 08:05:04.60	66.40	14.94	-29.7	-30.9	13.3	6.10e-06	0	43	102	1048576	20	4155
2026-01-25 08:05:05.61	66.21	14.99	-29.7	-30.9	13.3	2.13e-05	0	43	102	1048576	20	4138
2026-01-25 08:05:06.61	66.02	15.04	-29.7	-31.1	13.1	2.05e-05	0	43	102	1048576	20	4214
2026-01-25 08:05:07.62	65.83	15.09	-29.8	-31.2	13.1	3.66e-05	0	43	102	1048576	20	4240
2026-01-25 08:05:08.63	65.64	15.14	-29.6	-30.8	13.3	2.36e-05	0	43	102	1048576	20	4129
2026-01-25 08:05:09.63	65.45	15.19	-29.6	-30.6	13.5	1.67e-05	0	43	102	1048576	20	4066
2026-01-25 08:05:10.63	65.26	15.24	-29.7	-30.9	13.3	1.29e-05	0	43	102	1048576	20	4148
2026-01-25 08:05:11.63	65.06	15.28	-29.7	-31.0	13.2	2.13e-05	0	43	102	1048576	20	4182
2026-01-25 08:05:12.63	64.87	15.33	-29.8	-31.3	13.0	4.04e-05	0	43	102	1048576	20	4273
2026-01-25 08:05:13.64	64.68	15.38	-29.8	-31.4	13.0	3.12e-05	0	43	102	1048576	20	4291
2026-01-25 08:05:14.64	64.48	15.43	-29.9	-31.4	13.0	2.74e-05	0	43	102	1048576	20	4304
2026-01-25 08:05:15.65	64.29	15.47	-29.6	-30.8	13.4	1.75e-05	0	43	102	1048576	20	4114
2026-01-25 08:05:16.65	64.09	15.52	-29.4	-30.1	13.8	6.10e-06	0	43	102	1048576	20	3922
2026-01-25 08:05:17.65	63.89	15.57	-29.3	-29.9	14.0	3.80e-06	0	43	102	1048576	20	3843
2026-01-25 08:05:18.65	63.70	15.61	-29.4	-30.6	13.9	3.80e-06	0	43	102	1048576	19	4138
2026-01-25 08:05:19.65	63.50	15.66	-29.4	-30.6	13.9	6.10e-06	0	43	102	1048576	19	4134
2026-01-25 08:05:20.66	63.30	15.70	-29.5	-30.8	13.8	2.20e-06	0	43	102	1048576	19	4187
2026-01-25 08:05:21.67	63.10	15.75	-29.5	-30.8	13.9	8.30e-06	0	43	102	1048576	19	4193
2026-01-25 08:05:22.67	62.90	15.79	-29.4	-30.6	13.9	4.50e-06	0	43	102	1048576	19	4139
2026-01-25 08:05:23.68	62.70	15.84	-29.6	-31.1	13.6	3.00e-06	0	43	102	1048576	19	4290
2026-01-25 08:05:24.68	62.50	15.88	-29.6	-31.1	13.6	8.30e-06	0	43	102	1048576	19	4294
2026-01-25 08:05:25.68	62.30	15.93	-29.4	-30.7	13.9	3.00e-06	0	43	102	1048576	19	4151
2026-01-25 08:05:26.68	62.10	15.97	-29.5	-30.9	13.8	4.50e-06	0	43	102	1048576	19	4230
2026-01-25 08:05:27.69	61.90	16.02	-29.5	-30.8	13.9	3.80e-06	0	43	102	1048576	19	4196
2026-01-25 08:05:28.70	61.69	16.06	-29.4	-30.6	14.0	3.00e-06	0	43	102	1048576	19	4120
2026-01-25 08:05:29.70	61.49	16.10	-29.5	-30.9	13.9	2.20e-06	0	43	102	1048576	19	4205
2026-01-25 08:05:30.71	61.28	16.14	-29.5	-30.8	13.9	3.00e-06	0	43	102	1048576	19	4175
2026-01-25 08:05:31.70	61.08	16.19	-29.4	-30.5	14.1	2.20e-06	0	43	102	1048576	19	4100
2026-01-25 08:05:32.71	60.87	16.23	-29.5	-30.9	13.8	1.50e-06	0	43	102	1048576	19	4216
2026-01-25 08:05:33.72	60.67	16.27	-29.6	-31.1	13.7	4.50e-06	0	43	102	1048576	19	4275
2026-01-25 08:05:34.72	60.46	16.31	-29.6	-31.2	13.6	3.80e-06	0	43	102	1048576	19	4307
2026-01-25 08:05:35.72	60.25	16.35	-29.7	-31.3	13.6	6.80e-06	0	43	102	1048576	19	4353
2026-01-25 08:05:36.73	60.04	16.40	-29.8	-31.6	13.4	1.29e-05	0	43	102	1048576	19	4439
2026-01-25 08:05:37.73	59.84	16.44	-29.7	-31.4	13.5	9.90e-06	0	43	102	1048576	19	4378
2026-01-25 08:05:38.73	59.63	16.48	-29.7	-31.3	13.6	1.06e-05	0	43	102	1048576	19	4329
2026-01-25 08:05:39.74	59.42	16.52	-29.8	-31.6	13.4	1.37e-05	0	43	102	1048576	19	4427
2026-01-25 08:05:40.74	59.21	16.56	-29.7	-31.2	13.6	1.44e-05	0	43	102	1048576	19	4317
2026-01-25 08:05:41.75	59.00	16.60	-29.4	-30.5	14.1	5.30e-06	0	43	102	1048576	19	4082
2026-01-25 08:05:42.75	58.79	16.63	-29.3	-30.3	14.2	1.50e-06	0	43	102	1048576	19	4034
2026-01-25 08:05:43.76	58.57	16.67	-29.4	-30.5	14.1	2.20e-06	0	43	102	1048576	19	4104
2026-01-25 08:05:44.76	58.36	16.71	-29.3	-30.3	14.2	3.00e-06	0	43	102	1048576	19	4031
2026-01-25 08:05:45.77	58.15	16.75	-29.2	-29.9	14.4	0.00e+00	0	43	102	1048576	19	3929
2026-01-25 08:05:46.78	57.93	16.79	-29.1	-29.7	14.6	7.00e-07	0	43	102	1048576	19	3866
2026-01-25 08:05:47.78	57.72	16.83	-29.0	-29.6	14.7	0.00e+00	0	43	102	1048576	19	3830
2026-01-25 08:05:48.78	57.51	16.86	-29.1	-29.8	14.6	0.00e+00	0	43	102	1048576	19	3884
2026-01-25 08:05:49.79	57.29	16.90	-29.0	-29.5	14.8	0.00e+00	0	43	102	1048576	19	3795
2026-01-25 08:05:50.79	57.07	16.94	-28.8	-29.0	15.0	0.00e+00	0	43	102	1048576	19	3687
2026-01-25 08:05:51.80	56.86	16.97	-28.9	-29.2	14.9	0.00e+00	0	43	102	1048576	19	3719
2026-01-25 08:05:52.81	56.64	17.01	-29.1	-29.7	14.7	7.00e-07	0	43	102	1048576	19	3855
2026-01-25 08:05:53.81	56.42	17.04	-29.1	-29.7	14.7	2.20e-06	0	43	102	1048576	19	3842
2026-01-25 08:05:54.82	56.20	17.08	-29.1	-29.8	14.6	0.00e+00	0	43	102	1048576	19	3889
2026-01-25 08:05:55.82	55.99	17.11	-29.3	-30.3	14.3	1.50e-06	0	43	102	1048576	19	4025
2026-01-25 08:05:56.82	55.77	17.15	-29.5	-30.8	13.9	3.00e-06	0	43	102	1048576	19	4167
2026-01-25 08:05:57.82	55.55	17.18	-29.6	-30.9	13.9	4.50e-06	0	43	102	1048576	19	4202
2026-01-25 08:05:58.83	55.33	17.21	-29.7	-31.3	13.7	6.10e-06	0	43	102	1048576	19	4313
2026-01-25 08:05:59.82	55.11	17.25	-29.6	-31.0	13.9	2.20e-06	0	44	102	1048576	19	4235
2026-01-25 08:06:00.83	54.89	17.28	-29.6	-30.9	13.9	2.20e-06	0	43	102	1048576	19	4203
2026-01-25 08:06:01.83	54.67	17.31	-29.5	-30.8	13.9	5.30e-06	0	43	102	1048576	19	4174
2026-01-25 08:06:02.84	54.45	17.34	-29.6	-30.9	13.9	5.30e-06	0	43	102	1048576	19	4216
2026-01-25 08:06:03.84	54.23	17.37	-29.6	-31.0	13.8	4.50e-06	0	43	102	1048576	19	4241
2026-01-25 08:06:04.85	54.00	17.40	-29.5	-30.7	14.1	3.80e-06	0	43	102	1048576	19	4143
2026-01-25 08:06:05.86	53.78	17.43	-29.4	-30.5	14.1	7.00e-07	0	43	102	1048576	19	4087
2026-01-25 08:06:06.86	53.56	17.46	-29.6	-30.9	13.9	1.50e-06	0	43	102	1048576	19	4211
2026-01-25 08:06:07.87	53.33	17.49	-29.6	-31.1	13.8	2.20e-06	0	43	102	1048576	19	4263
2026-01-25 08:06:08.88	53.11	17.52	-29.6	-31.1	13.8	3.00e-06	0	43	102	1048576	19	4277
2026-01-25 08:06:09.88	52.88	17.55	-29.6	-30.9	13.9	7.00e-07	0	43	102	1048576	19	4208
2026-01-25 08:06:10.88	52.66	17.58	-29.6	-31.1	13.8	3.00e-06	0	43	102	1048576	19	4262
2026-01-25 08:06:11.89	52.43	17.61	-29.7	-31.4	13.6	2.20e-06	0	43	102	1048576	19	4348
2026-01-25 08:06:12.89	52.21	17.64	-29.7	-31.3	13.6	8.30e-06	0	43	102	1048576	19	4342
2026-01-25 08:06:13.90	51.98	17.66	-29.7	-31.3	13.7	4.50e-06	0	43	102	1048576	19	4312
2026-01-25 08:06:14.90	51.75	17.69	-29.7	-31.2	13.7	9.10e-06	0	43	102	1048576	19	4311
2026-01-25 08:06:15.90	51.53	17.72	-29.7	-31.3	13.7	8.30e-06	0	43	102	1048576	19	4334
2026-01-25 08:06:16.90	51.30	17.74	-29.6	-31.1	13.8	8.30e-06	0	43	102	1048576	19	4248
2026-01-25 08:06:17.91	51.07	17.77	-29.6	-31.0	13.9	3.80e-06	0	43	102	1048576	19	4225
2026-01-25 08:06:18.92	50.84	17.79	-29.5	-30.8	14.0	7.00e-07	0	43	102	1048576	19	4173
2026-01-25 08:06:19.92	50.61	17.82	-29.7	-31.1	13.8	1.50e-06	0	43	102	1048576	19	4262
2026-01-25 08:06:20.93	50.38	17.84	-29.4	-30.5	14.2	3.00e-06	0	43	102	1048576	19	4089
2026-01-25 08:06:21.93	50.15	17.87	-29.4	-30.6	14.1	0.00e+00	0	43	102	1048576	19	4109
2026-01-25 08:06:22.94	49.92	17.89	-29.7	-31.2	13.8	6.80e-06	0	43	102	1048576	19	4283
2026-01-25 08:06:23.94	49.69	17.91	-29.7	-31.3	13.7	1.83e-05	0	43	102	1048576	19	4338
2026-01-25 08:06:24.95	49.46	17.93	-29.7	-31.4	13.6	9.10e-06	0	43	102	1048576	19	4353
2026-01-25 08:06:25.95	49.23	17.96	-29.6	-31.0	13.8	7.00e-07	0	43	102	1048576	19	4237
2026-01-25 08:06:26.96	49.00	17.98	-29.6	-30.9	14.0	1.50e-06	0	43	102	1048576	19	4208
2026-01-25 08:06:27.96	48.77	18.00	-29.7	-31.4	13.6	7.60e-06	0	43	102	1048576	19	4350
2026-01-25 08:06:28.96	48.54	18.02	-29.7	-31.2	13.7	6.10e-06	0	43	102	1048576	19	4298
2026-01-25 08:06:29.96	48.31	18.04	-29.9	-31.5	13.1	1.60e-05	0	43	102	1048576	20	4313
2026-01-25 08:06:30.97	48.07	18.06	-30.0	-31.7	13.0	2.36e-05	0	43	102	1048576	20	4371
2026-01-25 08:06:31.97	47.84	18.08	-30.0	-31.8	12.9	1.67e-05	0	43	102	1048576	20	4418
2026-01-25 08:06:32.97	47.61	18.10	-30.2	-32.2	12.7	5.11e-05	0	43	102	1048576	20	4534
2026-01-25 08:06:33.98	47.37	18.11	-30.2	-32.4	12.5	9.61e-05	0	43	102	1048576	20	4634
2026-01-25 08:06:34.99	47.14	18.13	-30.4	-33.0	12.1	1.87e-04	0	43	102	1048576	20	4846
2026-01-25 08:06:35.99	46.91	18.15	-30.7	-33.2	11.6	5.93e-04	0	43	102	1048576	21	4835
2026-01-25 08:06:37.00	46.67	18.17	-30.8	-33.5	11.4	1.03e-03	0	43	102	1048576	21	4940
2026-01-25 08:06:38.01	46.44	18.18	-30.7	-33.3	11.5	7.97e-04	0	43	102	1048576	21	4858
2026-01-25 08:06:39.02	46.20	18.20	-30.4	-32.4	12.2	2.69e-04	0	43	102	1048576	21	4526
2026-01-25 08:06:40.02	45.97	18.21	-30.3	-32.0	12.4	1.33e-04	0	44	102	1048576	21	4415
2026-01-25 08:06:41.03	45.73	18.23	-30.2	-32.0	12.4	1.46e-04	0	43	102	1048576	21	4405
2026-01-25 08:06:42.03	45.50	18.24	-30.2	-32.0	12.4	9.76e-05	0	43	102	1048576	21	4401
2026-01-25 08:06:43.03	45.26	18.26	-30.3	-32.3	12.3	1.56e-04	0	43	102	1048576	21	4506
2026-01-25 08:06:44.03	45.03	18.27	-30.1	-31.7	12.6	1.25e-04	0	43	102	1048576	21	4316
2026-01-25 08:06:45.04	44.79	18.28	-30.1	-31.7	12.6	7.24e-05	0	43	102	1048576	21	4301
2026-01-25 08:06:46.04	44.55	18.29	-29.9	-31.1	13.0	3.96e-05	0	43	102	1048576	21	4121
2026-01-25 08:06:47.04	44.32	18.31	-29.9	-31.1	13.0	2.89e-05	0	43	102	1048576	21	4112
2026-01-25 08:06:48.04	44.08	18.32	-29.9	-30.9	13.1	2.67e-05	0	43	102	1048576	21	4064
2026-01-25 08:06:49.05	43.85	18.33	-29.8	-31.2	13.2	1.52e-05	0	43	102	1048576	20	4241
2026-01-25 08:06:50.05	43.61	18.34	-29.7	-30.9	13.5	1.98e-05	0	43	102	1048576	20	4135
2026-01-25 08:06:51.06	43.37	18.35	-29.6	-30.5	13.7	1.06e-05	0	43	102	1048576	20	4028
2026-01-25 08:06:52.07	43.13	18.36	-29.5	-30.3	13.9	3.00e-06	0	43	102	1048576	20	3973
2026-01-25 08:06:53.08	42.89	18.37	-29.4	-30.2	14.0	2.20e-06	0	43	102	1048576	20	3923
2026-01-25 08:06:54.08	42.66	18.37	-29.5	-30.5	13.8	6.10e-06	0	43	102	1048576	20	4009
2026-01-25 08:06:55.09	42.42	18.38	-29.4	-30.2	14.0	3.80e-06	0	43	102	1048576	20	3918
2026-01-25 08:06:56.09	42.18	18.39	-29.4	-30.2	13.9	7.00e-07	0	43	102	1048576	20	3932
2026-01-25 08:06:57.09	41.95	18.40	-29.7	-30.8	13.6	1.06e-05	0	43	102	1048576	20	4095
2026-01-25 08:06:58.10	41.71	18.40	-29.8	-31.1	13.4	9.10e-06	0	43	102	1048576	20	4183
2026-01-25 08:06:59.10	41.47	18.41	-29.9	-31.6	13.1	1.60e-05	0	43	102	1048576	20	4333
2026-01-25 08:07:00.10	41.23	18.41	-30.0	-31.6	13.0	2.28e-05	0	43	102	1048576	20	4351
2026-01-25 08:07:01.11	40.99	18.42	-30.2	-32.1	12.7	4.95e-05	0	43	102	1048576	20	4516
2026-01-25 08:07:02.11	40.76	18.42	-30.2	-32.3	12.6	7.78e-05	0	43	102	1048576	20	4572
2026-01-25 08:07:03.11	40.52	18.43	-30.1	-31.8	12.8	9.00e-05	0	43	102	1048576	20	4418
2026-01-25 08:07:04.12	40.28	18.43	-30.0	-31.8	12.9	5.72e-05	0	43	102	1048576	20	4397
2026-01-25 08:07:05.12	40.04	18.43	-30.0	-31.6	13.0	4.19e-05	0	43	102	1048576	20	4347
2026-01-25 08:07:06.12	39.81	18.43	-29.9	-31.5	13.1	3.05e-05	0	43	102	1048576	20	4332
2026-01-25 08:07:07.12	39.57	18.43	-30.0	-31.7	13.0	4.27e-05	0	44	102	1048576	20	4368
2026-01-25 08:07:08.12	39.33	18.44	-29.8	-31.2	13.2	2.05e-05	0	43	102	1048576	20	4215
2026-01-25 08:07:09.12	39.09	18.44	-29.9	-31.4	13.2	2.51e-05	0	43	102	1048576	20	4286
2026-01-25 08:07:10.13	38.85	18.44	-30.1	-31.9	12.9	4.65e-05	0	43	102	1048576	20	4438
2026-01-25 08:07:11.13	38.62	18.44	-30.0	-31.6	13.0	3.58e-05	0	43	102	1048576	20	4338
2026-01-25 08:07:12.14	38.38	18.43	-30.0	-31.6	13.0	3.81e-05	0	43	102	1048576	20	4367
2026-01-25 08:07:13.15	38.14	18.43	-30.4	-32.8	12.2	1.63e-04	0	44	102	1048576	20	4745
2026-01-25 08:07:14.16	37.90	18.43	-30.4	-33.0	12.1	2.62e-04	0	43	102	1048576	20	4820
2026-01-25 08:07:15.16	37.66	18.43	-30.6	-33.0	11.7	3.86e-04	0	43	102	1048576	21	4746
2026-01-25 08:07:16.17	37.42	18.43	-30.7	-33.4	11.5	9.06e-04	0	43	102	1048576	21	4876
2026-01-25 08:07:17.18	37.18	18.42	-30.5	-32.8	11.8	5.58e-04	0	43	102	1048576	21	4671
2026-01-25 08:07:18.18	36.94	18.42	-30.4	-32.5	12.0	3.18e-04	0	43	102	1048576	21	4556
2026-01-25 08:07:19.18	36.71	18.41	-30.2	-31.9	12.5	2.08e-04	0	43	102	1048576	21	4368
2026-01-25 08:07:20.19	36.47	18.41	-30.1	-31.6	12.6	8.92e-05	0	43	102	1048576	21	4258
2026-01-25 08:07:21.19	36.23	18.40	-30.0	-31.2	12.9	6.94e-05	0	43	102	1048576	21	4132
2026-01-25 08:07:22.20	35.99	18.40	-29.9	-31.0	13.1	3.89e-05	0	44	102	1048576	21	4061
2026-01-25 08:07:23.20	35.76	18.39	-29.8	-30.6	13.3	2.67e-05	0	43	102	1048576	21	3967
2026-01-25 08:07:24.21	35.52	18.38	-29.5	-30.4	13.7	1.29e-05	0	43	102	1048576	20	3991
2026-01-25 08:07:25.21	35.28	18.38	-29.4	-30.1	13.9	3.80e-06	0	43	102	1048576	20	3913
2026-01-25 08:07:26.22	35.04	18.37	-29.5	-30.3	13.9	3.80e-06	0	43	102	1048576	20	3942
2026-01-25 08:07:27.22	34.81	18.36	-29.6	-30.5	13.7	2.20e-06	0	43	102	1048576	20	4002
2026-01-25 08:07:28.23	34.57	18.35	-29.5	-30.4	13.8	4.50e-06	0	43	102	1048576	20	3977
2026-01-25 08:07:29.23	34.33	18.34	-29.5	-30.4	13.8	8.30e-06	0	43	102	1048576	20	3986
2026-01-25 08:07:30.24	34.09	18.33	-29.5	-30.3	13.9	3.00e-06	0	44	102	1048576	20	3950
2026-01-25 08:07:31.24	33.86	18.32	-29.3	-30.2	14.3	0.00e+00	0	43	102	1048576	19	3988
2026-01-25 08:07:32.24	33.62	18.31	-29.3	-30.2	14.3	3.00e-06	0	43	102	1048576	19	3991
2026-01-25 08:07:33.25	33.39	18.30	-29.4	-30.4	14.1	1.50e-06	0	43	102	1048576	19	4071
2026-01-25 08:07:34.25	33.15	18.28	-29.2	-30.0	14.4	1.50e-06	0	43	102	1048576	19	3954
2026-01-25 08:07:35.25	32.92	18.27	-29.1	-29.9	14.5	7.00e-07	0	43	102	1048576	19	3907
2026-01-25 08:07:36.26	32.68	18.26	-29.1	-29.8	14.6	1.50e-06	0	43	102	1048576	19	3890
2026-01-25 08:07:37.26	32.45	18.25	-29.0	-29.5	14.8	0.00e+00	0	43	102	1048576	19	3822
2026-01-25 08:07:38.27	32.21	18.23	-29.1	-29.6	14.7	7.00e-07	0	43	102	1048576	19	3844
2026-01-25 08:07:39.27	31.97	18.22	-29.0	-29.4	14.8	0.00e+00	0	44	102	1048576	19	3770
2026-01-25 08:07:40.28	31.74	18.20	-28.8	-29.0	15.0	0.00e+00	0	44	102	1048576	19	3679
2026-01-25 08:07:41.28	31.51	18.19	-28.9	-29.2	15.0	0.00e+00	0	44	102	1048576	19	3730
2026-01-25 08:07:42.28	31.27	18.17	-29.0	-29.3	14.9	0.00e+00	0	43	102	1048576	19	3751
2026-01-25 08:07:43.29	31.04	18.15	-29.2	-29.8	14.6	0.00e+00	0	44	102	1048576	19	3881
2026-01-25 08:07:44.29	30.80	18.14	-29.1	-29.6	14.7	7.00e-07	0	44	102	1048576	19	3824
2026-01-25 08:07:45.29	30.57	18.12	-29.3	-30.1	14.4	0.00e+00	0	44	102	1048576	19	3961
2026-01-25 08:07:46.29	30.34	18.10	-29.4	-30.4	14.3	0.00e+00	0	43	102	1048576	19	4039
2026-01-25 08:07:47.30	30.11	18.08	-29.4	-30.4	14.2	1.50e-06	0	43	102	1048576	19	4056
2026-01-25 08:07:48.30	29.87	18.06	-29.6	-30.9	13.9	7.00e-07	0	43	102	1048576	19	4204
2026-01-25 08:07:49.31	29.64	18.04	-29.7	-31.2	13.7	4.50e-06	0	43	102	1048576	19	4276
2026-01-25 08:07:50.31	29.41	18.03	-29.7	-31.3	13.7	6.80e-06	0	43	102	1048576	19	4306
2026-01-25 08:07:51.32	29.18	18.00	-29.9	-31.8	13.4	2.13e-05	0	43	102	1048576	19	4459
2026-01-25 08:07:52.31	28.95	17.98	-29.8	-31.6	13.5	1.67e-05	0	43	102	1048576	19	4396
2026-01-25 08:07:53.32	28.72	17.96	-29.6	-30.9	13.9	4.50e-06	0	44	102	1048576	19	4185
2026-01-25 08:07:54.33	28.49	17.94	-29.3	-30.2	14.3	3.80e-06	0	44	102	1048576	19	3986
2026-01-25 08:07:55.33	28.26	17.92	-29.3	-30.2	14.3	0.00e+00	0	44	102	1048576	19	4005
2026-01-25 08:07:56.33	28.03	17.90	-29.3	-30.3	14.3	7.00e-07	0	43	102	1048576	19	4010
2026-01-25 08:07:57.33	27.80	17.87	-29.3	-30.1	14.4	0.00e+00	0	43	102	1048576	19	3969
2026-01-25 08:07:58.34	27.57	17.85	-29.5	-30.8	13.9	2.20e-06	0	43	102	1048576	19	4184
2026-01-25 08:07:59.34	27.34	17.83	-29.5	-30.8	13.9	1.50e-06	0	44	102	1048576	19	4178
2026-01-25 08:08:00.35	27.11	17.80	-29.7	-31.3	13.6	5.30e-06	0	43	102	1048576	19	4319
2026-01-25 08:08:01.35	26.88	17.78	-29.8	-31.4	13.6	6.80e-06	0	43	102	1048576	19	4349
2026-01-25 08:08:02.36	26.65	17.75	-30.0	-31.5	13.1	1.52e-05	0	43	102	1048576	20	4300
2026-01-25 08:08:03.36	26.43	17.73	-29.9	-31.2	13.3	2.44e-05	0	43	102	1048576	20	4219
2026-01-25 08:08:04.37	26.20	17.70	-29.9	-31.3	13.2	3.20e-05	0	44	102	1048576	20	4251
2026-01-25 08:08:05.37	25.97	17.67	-30.0	-31.7	12.9	3.50e-05	0	43	102	1048576	20	4375
2026-01-25 08:08:06.37	25.75	17.65	-30.1	-31.9	12.8	6.10e-05	0	43	102	1048576	20	4433
2026-01-25 08:08:07.38	25.52	17.62	-30.1	-31.8	12.9	2.89e-05	0	43	102	1048576	20	4385
2026-01-25 08:08:08.39	25.30	17.59	-30.0	-31.7	13.0	3.66e-05	0	43	102	1048576	20	4353
2026-01-25 08:08:09.40	25.07	17.56	-30.1	-32.0	12.8	6.17e-05	0	43	102	1048576	20	4452
2026-01-25 08:08:10.40	24.85	17.53	-29.9	-31.3	13.2	3.50e-05	0	43	102	1048576	20	4253
2026-01-25 08:08:11.40	24.62	17.50	-30.0	-31.5	13.1	3.89e-05	0	44	102	1048576	20	4311
2026-01-25 08:08:12.41	24.40	17.47	-30.0	-31.5	13.1	3.28e-05	0	43	102	1048576	20	4305
2026-01-25 08:08:13.42	24.17	17.44	-30.0	-31.7	12.9	3.66e-05	0	43	102	1048576	20	4379
2026-01-25 08:08:14.43	23.95	17.41	-29.9	-31.5	13.1	4.19e-05	0	43	102	1048576	20	4293
2026-01-25 08:08:15.42	23.73	17.38	-29.9	-31.4	13.1	2.51e-05	0	43	102	1048576	20	4263
2026-01-25 08:08:16.43	23.51	17.35	-30.0	-31.7	12.9	3.05e-05	0	43	102	1048576	20	4377
2026-01-25 08:08:17.44	23.29	17.32	-30.2	-32.1	12.7	5.64e-05	0	43	102	1048576	20	4507
2026-01-25 08:08:18.44	23.07	17.29	-30.2	-32.2	12.6	7.24e-05	0	43	102	1048576	20	4541
2026-01-25 08:08:19.44	22.85	17.26	-30.4	-32.7	12.3	1.28e-04	0	43	102	1048576	20	4694
2026-01-25 08:08:20.44	22.63	17.22	-30.3	-32.5	12.4	1.75e-04	0	43	102	1048576	20	4650
2026-01-25 08:08:21.45	22.41	17.19	-30.3	-32.5	12.5	8.23e-05	0	43	102	1048576	20	4623
2026-01-25 08:08:22.45	22.19	17.16	-30.2	-32.1	12.7	6.79e-05	0	43	102	1048576	20	4478
2026-01-25 08:08:23.45	21.97	17.12	-30.0	-31.7	13.0	3.50e-05	0	43	102	1048576	20	4355
2026-01-25 08:08:24.46	21.75	17.09	-29.9	-31.4	13.2	2.74e-05	0	43	102	1048576	20	4269
2026-01-25 08:08:25.46	21.54	17.05	-30.0	-31.6	13.0	3.28e-05	0	43	102	1048576	20	4325
2026-01-25 08:08:26.47	21.32	17.02	-30.0	-31.7	13.0	2.67e-05	0	44	102	1048576	20	4354
2026-01-25 08:08:27.47	21.10	16.98	-30.0	-31.5	13.1	4.27e-05	0	43	102	1048576	20	4315
2026-01-25 08:08:28.47	20.89	16.95	-29.8	-31.0	13.4	2.05e-05	0	43	102	1048576	20	4163
2026-01-25 08:08:29.47	20.67	16.91	-29.7	-30.8	13.5	1.29e-05	0	43	102	1048576	20	4098
2026-01-25 08:08:30.48	20.46	16.88	-29.7	-30.8	13.5	8.30e-06	0	43	102	1048576	20	4090
2026-01-25 08:08:31.48	20.24	16.84	-29.7	-30.7	13.5	1.37e-05	0	43	102	1048576	20	4078
2026-01-25 08:08:32.49	20.03	16.80	-29.7	-31.0	13.4	1.06e-05	0	43	102	1048576	20	4144
2026-01-25 08:08:33.49	19.82	16.76	-29.9	-31.3	13.2	1.52e-05	0	43	102	1048576	20	4241
2026-01-25 08:08:34.50	19.60	16.73	-29.8	-31.1	13.3	3.12e-05	0	43	102	1048576	20	4169
2026-01-25 08:08:35.50	19.39	16.69	-29.5	-30.4	13.7	9.90e-06	0	43	102	1048576	20	3971
2026-01-25 08:08:36.50	19.18	16.65	-29.4	-29.9	14.1	2.20e-06	0	43	102	1048576	20	3838
2026-01-25 08:08:37.51	18.97	16.61	-29.3	-30.1	14.3	0.00e+00	0	43	102	1048576	19	3979
2026-01-25 08:08:38.52	18.76	16.57	-29.2	-29.9	14.5	3.80e-06	0	43	102	1048576	19	3904
2026-01-25 08:08:39.52	18.55	16.53	-29.1	-29.6	14.6	0.00e+00	0	43	102	1048576	19	3825
2026-01-25 08:08:40.53	18.34	16.49	-29.2	-30.1	14.4	0.00e+00	0	43	102	1048576	19	3953
2026-01-25 08:08:41.53	18.13	16.45	-29.3	-30.1	14.3	4.50e-06	0	43	102	1048576	19	3953
2026-01-25 08:08:42.54	17.92	16.41	-29.2	-29.8	14.5	1.50e-06	0	43	102	1048576	19	3896
2026-01-25 08:08:43.55	17.71	16.37	-29.1	-29.6	14.6	1.50e-06	0	43	102	1048576	19	3845
2026-01-25 08:08:44.54	17.51	16.33	-29.2	-30.1	14.3	7.00e-07	0	43	102	1048576	19	3977
2026-01-25 08:08:45.54	17.30	16.29	-29.6	-31.1	13.7	3.80e-06	0	43	102	1048576	19	4276
2026-01-25 08:08:46.55	17.10	16.25	-29.9	-32.0	13.1	1.75e-05	0	43	102	1048576	19	4549
2026-01-25 08:08:47.55	16.89	16.20	-30.1	-32.1	12.7	6.48e-05	0	43	102	1048576	20	4497
2026-01-25 08:08:48.56	16.69	16.16	-30.4	-32.9	12.1	1.95e-04	0	43	102	1048576	20	4799
2026-01-25 08:08:49.56	16.48	16.12	-30.5	-32.7	11.8	2.97e-04	0	44	102	1048576	21	4648
2026-01-25 08:08:50.57	16.28	16.08	-30.6	-32.9	11.7	3.78e-04	0	44	102	1048576	21	4694
2026-01-25 08:08:51.57	16.08	16.03	-30.5	-32.5	11.9	5.13e-04	0	44	102	1048576	21	4557
2026-01-25 08:08:52.57	15.88	15.99	-30.3	-32.1	12.3	2.08e-04	0	43	102	1048576	21	4409
2026-01-25 08:08:53.58	15.67	15.95	-30.4	-32.3	12.1	1.88e-04	0	43	102	1048576	21	4481
2026-01-25 08:08:54.58	15.47	15.90	-30.4	-32.3	12.0	3.56e-04	0	43	102	1048576	21	4492
2026-01-25 08:08:55.58	15.27	15.86	-30.4	-32.4	12.1	2.09e-04	0	43	102	1048576	21	4545
2026-01-25 08:08:56.59	15.07	15.81	-30.3	-32.2	12.1	2.34e-04	0	43	102	1048576	21	4474
2026-01-25 08:08:57.60	14.87	15.77	-30.3	-32.2	12.2	2.04e-04	0	44	102	1048576	21	4447
2026-01-25 08:08:58.60	14.67	15.72	-30.5	-32.8	11.8	3.60e-04	0	43	102	1048576	21	4655
2026-01-25 08:08:59.61	14.48	15.68	-30.7	-33.1	11.5	5.97e-04	0	43	102	1048576	21	4778
2026-01-25 08:09:00.61	14.28	15.63	-30.6	-32.9	11.6	7.28e-04	0	44	102	1048576	21	4715
2026-01-25 08:09:01.61	14.08	15.58	-30.4	-32.2	12.1	2.65e-04	0	43	102	1048576	21	4456
2026-01-25 08:09:02.62	13.89	15.54	-30.2	-31.6	12.5	1.95e-04	0	43	102	1048576	21	4276
2026-01-25 08:09:03.62	13.69	15.49	-29.8	-30.7	13.2	8.08e-05	0	44	102	1048576	21	3985
2026-01-25 08:09:04.63	13.50	15.45	-30.0	-31.2	12.9	3.66e-05	0	44	102	1048576	21	4125
2026-01-25 08:09:05.64	13.30	15.40	-29.9	-30.8	13.1	3.50e-05	0	43	102	1048576	21	4023
2026-01-25 08:09:06.65	13.11	15.35	-29.9	-31.4	13.1	1.90e-05	0	43	102	1048576	20	4276
2026-01-25 08:09:07.65	12.91	15.30	-29.7	-30.8	13.4	1.90e-05	0	43	102	1048576	20	4104
2026-01-25 08:09:08.66	12.72	15.26	-29.5	-30.4	13.6	1.14e-05	0	44	102	1048576	20	3996
2026-01-25 08:09:09.67	12.53	15.21	-29.5	-30.5	13.6	1.60e-05	0	43	102	1048576	20	4013
2026-01-25 08:09:10.67	12.34	15.16	-29.5	-30.5	13.6	1.06e-05	0	43	102	1048576	20	4012
2026-01-25 08:09:11.67	12.15	15.11	-29.6	-30.6	13.4	9.10e-06	0	43	102	1048576	20	4058
2026-01-25 08:09:12.67	11.96	15.06	-29.6	-30.7	13.4	1.52e-05	0	43	102	1048576	20	4083
2026-01-25 08:09:13.67	11.77	15.01	-29.7	-31.0	13.2	9.10e-06	0	43	102	1048576	20	4158
2026-01-25 08:09:14.67	11.58	14.97	-29.8	-31.2	13.1	3.35e-05	0	43	102	1048576	20	4220
2026-01-25 08:09:15.67	11.39	14.92	-30.0	-31.7	12.7	6.17e-05	0	44	102	1048576	20	4408
2026-01-25 08:09:16.67	11.21	14.87	-30.1	-32.1	12.4	1.04e-04	0	43	102	1048576	20	4537
2026-01-25 08:09:17.67	11.02	14.82	-30.0	-31.8	12.6	7.09e-05	0	44	102	1048576	20	4446
2026-01-25 08:09:18.68	10.83	14.77	-30.0	-31.7	12.7	9.53e-05	0	43	102	1048576	20	4400
2026-01-25 08:09:19.68	10.65	14.72	-29.8	-31.3	12.9	7.93e-05	0	44	102	1048576	20	4267
2026-01-25 08:09:20.68	10.47	14.67	-29.7	-31.0	13.2	5.03e-05	0	43	102	1048576	20	4180
2026-01-25 08:09:21.69	10.28	14.62	-29.6	-30.8	13.3	1.67e-05	0	43	102	1048576	20	4103
2026-01-25 08:09:22.69	10.10	14.57	-29.7	-30.9	13.2	1.44e-05	0	43	102	1048576	20	4132
2026-01-25 08:09:23.70	9.91	14.52	-29.7	-30.8	13.3	2.44e-05	0	44	102	1048576	20	4121
2026-01-25 08:09:24.70	9.73	14.46	-29.8	-31.2	13.1	2.74e-05	0	44	102	1048576	20	4225
2026-01-25 08:09:25.70	9.55	14.41	-30.0	-31.7	12.6	9.07e-05	0	43	102	1048576	20	4412
2026-01-25 08:09:26.71	9.37	14.36	-30.2	-32.5	12.2	1.07e-04	0	44	102	1048576	20	4657
2026-01-25 08:09:27.71	9.19	14.31	-30.5	-33.2	11.7	3.72e-04	0	44	102	1048576	20	4925
2026-01-25 08:09:28.72	9.01	14.26	-30.7	-33.5	11.1	6.87e-04	0	44	102	1048576	21	4951
2026-01-25 08:09:29.72	8.83	14.21	-30.9	-34.0	10.6	2.66e-03	0	43	102	1048576	21	5179
2026-01-25 08:09:30.73	8.65	14.15	-31.1	-34.3	10.1	4.70e-03	0	43	102	1048576	22	5215
2026-01-25 08:09:31.74	8.47	14.10	-31.2	-34.6	9.8	8.66e-03	0	43	102	1048576	22	5350
2026-01-25 08:09:32.74	8.30	14.05	-31.3	-34.9	9.6	1.01e-02	0	43	102	1048576	22	5464
2026-01-25 08:09:33.75	8.12	14.00	-31.3	-35.1	9.5	1.28e-02	0	44	102	1048576	22	5543
2026-01-25 08:09:34.75	7.94	13.94	-31.1	-34.4	10.0	8.59e-03	0	43	102	1048576	22	5253
2026-01-25 08:09:35.75	7.77	13.89	-31.1	-34.2	10.1	6.61e-03	0	44	102	1048576	22	5144
2026-01-25 08:09:36.76	7.59	13.84	-31.1	-34.3	10.1	7.48e-03	0	44	102	1048576	22	5189
2026-01-25 08:09:37.75	7.42	13.79	-31.1	-34.2	10.2	5.53e-03	0	43	102	1048576	22	5140
2026-01-25 08:09:38.76	7.25	13.73	-31.2	-34.5	9.9	9.14e-03	0	43	102	1048576	22	5302
2026-01-25 08:09:39.76	7.08	13.68	-31.1	-34.2	10.2	9.18e-03	0	43	102	1048576	22	5150
2026-01-25 08:09:40.77	6.90	13.63	-31.1	-34.3	10.1	6.72e-03	0	44	102	1048576	22	5180
2026-01-25 08:09:41.78	6.73	13.57	-31.3	-34.7	9.8	9.13e-03	0	44	102	1048576	22	5378
2026-01-25 08:09:42.78	6.56	13.52	-31.1	-34.1	10.2	7.90e-03	0	44	102	1048576	22	5107
2026-01-25 08:09:43.78	6.39	13.46	-30.8	-33.1	11.0	4.08e-03	0	43	102	1048576	22	4719
2026-01-25 08:09:44.78	6.22	13.41	-30.6	-32.7	11.2	1.56e-03	0	43	102	1048576	22	4582
2026-01-25 08:09:45.78	6.05	13.36	-30.6	-32.5	11.4	1.05e-03	0	43	102	1048576	22	4492
2026-01-25 08:09:46.78	5.89	13.30	-30.6	-32.6	11.3	8.35e-04	0	43	102	1048576	22	4545
2026-01-25 08:09:47.79	5.72	13.25	-30.6	-32.4	11.5	9.01e-04	0	43	102	1048576	22	4476
2026-01-25 08:09:48.79	5.55	13.19	-30.5	-32.2	11.6	6.61e-04	0	44	102	1048576	22	4390
2026-01-25 08:09:49.80	5.38	13.14	-30.7	-32.8	11.2	9.86e-04	0	44	102	1048576	22	4622
2026-01-25 08:09:50.80	5.22	13.08	-30.7	-32.8	11.1	1.76e-03	0	44	102	1048576	22	4614
2026-01-25 08:09:51.80	5.05	13.03	-30.8	-33.3	10.8	2.02e-03	0	44	102	1048576	22	4805
2026-01-25 08:09:52.81	4.89	12.97	-30.6	-32.7	11.3	2.04e-03	0	44	102	1048576	22	4558
2026-01-25 08:09:53.81	4.73	12.92	-30.3	-31.8	11.9	6.32e-04	0	44	102	1048576	22	4258
2026-01-25 08:09:54.82	4.56	12.86	-30.1	-31.7	12.3	2.55e-04	0	44	102	1048576	21	4318
2026-01-25 08:09:55.82	4.40	12.81	-30.0	-31.4	12.4	1.56e-04	0	44	102	1048576	21	4229
2026-01-25 08:09:56.83	4.24	12.75	-29.9	-31.2	12.5	1.31e-04	0	44	102	1048576	21	4171
2026-01-25 08:09:57.83	4.08	12.70	-30.1	-31.6	12.3	1.53e-04	0	44	102	1048576	21	4278
2026-01-25 08:09:58.83	3.92	12.64	-30.0	-31.5	12.4	1.61e-04	0	44	102	1048576	21	4240
2026-01-25 08:09:59.84	3.75	12.58	-30.1	-31.6	12.3	1.65e-04	0	44	102	1048576	21	4304
2026-01-25 08:10:00.84	3.60	12.53	-30.1	-31.7	12.2	2.18e-04	0	43	102	1048576	21	4314
2026-01-25 08:10:01.84	3.44	12.47	-30.2	-31.8	12.1	2.62e-04	0	44	102	1048576	21	4360
2026-01-25 08:10:02.84	3.28	12.42	-30.3	-32.3	11.7	3.08e-04	0	44	102	1048576	21	4537
2026-01-25 08:10:03.85	3.12	12.36	-30.2	-32.0	11.9	4.12e-04	0	44	102	1048576	21	4440
2026-01-25 08:10:04.86	2.96	12.30	-30.2	-32.1	11.8	3.46e-04	0	43	102	1048576	21	4448
2026-01-25 08:10:05.86	2.81	12.25	-30.3	-32.3	11.7	5.52e-04	0	43	102	1048576	21	4534
2026-01-25 08:10:06.87	2.65	12.19	-30.3	-32.4	11.7	6.38e-04	0	44	102	1048576	21	4566
2026-01-25 08:10:07.86	2.50	12.14	-30.4	-32.7	11.4	7.35e-04	0	44	102	1048576	21	4671
2026-01-25 08:10:08.87	2.34	12.08	-30.4	-32.5	11.6	7.23e-04	0	44	102	1048576	21	4596
2026-01-25 08:10:09.87	2.19	12.02	-30.5	-32.9	11.4	9.25e-04	0	44	102	1048576	21	4727
2026-01-25 08:10:10.87	2.04	11.97	-30.5	-32.8	11.4	1.06e-03	0	44	102	1048576	21	4709
2026-01-25 08:10:11.87	1.88	11.91	-30.4	-32.6	11.6	7.51e-04	0	44	102	1048576	21	4614
2026-01-25 08:10:12.88	1.73	11.85	-30.4	-32.4	11.8	6.09e-04	0	44	102	1048576	21	4561
2026-01-25 08:10:13.88	1.58	11.80	-30.3	-32.1	11.9	4.23e-04	0	44	102	1048576	21	4461
2026-01-25 08:10:14.88	1.43	11.74	-30.2	-31.8	12.1	2.83e-04	0	43	102	1048576	21	4361
2026-01-25 08:10:15.88	1.28	11.68	-30.3	-32.2	11.8	3.59e-04	0	44	102	1048576	21	4492
2026-01-25 08:10:16.89	1.13	11.63	-30.0	-31.4	12.3	2.34e-04	0	44	102	1048576	21	4229
2026-01-25 08:10:17.90	0.98	11.57	-29.8	-30.8	12.8	1.18e-04	0	44	102	1048576	21	4052
2026-01-25 08:10:18.90	0.83	11.51	-29.5	-30.5	13.3	1.90e-05	0	43	102	1048576	20	4036
2026-01-25 08:10:19.91	0.68	11.45	-29.3	-30.4	13.8	1.06e-05	0	44	102	1048576	19	4088
2026-01-25 08:10:20.91	0.54	11.40	-29.2	-30.2	14.0	3.00e-06	0	44	102	1048576	19	4012
2026-01-25 08:10:21.91	0.39	11.34	-29.1	-30.0	14.0	3.00e-06	0	44	102	1048576	19	3954
2026-01-25 08:10:22.92	0.24	11.28	-29.2	-30.0	13.9	1.50e-06	0	44	102	1048576	19	3974
2026-01-25 08:10:23.91	0.10	11.22	-29.1	-29.9	14.0	1.50e-06	0	44	102	1048576	19	3948
2026-01-25 08:10:24.92	359.95	11.17	-29.2	-30.0	13.9	2.20e-06	0	44	102	1048576	19	3980
2026-01-25 08:10:25.92	359.81	11.11	-29.3	-30.4	13.8	4.50e-06	0	43	102	1048576	19	4095
2026-01-25 08:10:26.91	359.67	11.05	-29.4	-30.8	13.5	3.80e-06	0	43	102	1048576	19	4198
2026-01-25 08:10:27.91	359.52	11.00	-29.6	-31.3	13.2	1.83e-05	0	43	102	1048576	19	4344
2026-01-25 08:10:28.92	359.38	10.94	-29.7	-31.4	13.1	3.73e-05	0	44	102	1048576	19	4401
2026-01-25 08:10:29.92	359.24	10.88	-29.8	-31.8	12.8	4.19e-05	0	44	102	1048576	19	4517
2026-01-25 08:10:30.93	359.10	10.82	-30.0	-32.2	12.6	7.17e-05	0	43	102	1048576	19	4680
2026-01-25 08:10:31.94	358.95	10.76	-29.8	-31.4	12.7	9.00e-05	0	44	102	1048576	20	4320
2026-01-25 08:10:32.95	358.81	10.71	-29.7	-31.2	12.9	5.49e-05	0	44	102	1048576	20	4234
2026-01-25 08:10:33.96	358.67	10.65	-29.7	-31.0	13.0	4.57e-05	0	43	102	1048576	20	4170
2026-01-25 08:10:34.97	358.53	10.59	-29.6	-30.7	13.1	2.21e-05	0	44	102	1048576	20	4101
2026-01-25 08:10:35.97	358.39	10.53	-29.7	-30.9	13.0	4.42e-05	0	44	102	1048576	20	4165
2026-01-25 08:10:36.97	358.26	10.47	-29.5	-30.5	13.3	1.75e-05	0	44	102	1048576	20	4036
2026-01-25 08:10:37.98	358.12	10.42	-29.5	-30.5	13.3	2.44e-05	0	44	102	1048576	20	4033
2026-01-25 08:10:38.98	357.98	10.36	-29.4	-30.2	13.5	9.90e-06	0	44	102	1048576	20	3937
2026-01-25 08:10:39.98	357.85	10.30	-29.5	-30.9	13.3	1.52e-05	0	43	102	1048576	19	4241
2026-01-25 08:10:40.98	357.71	10.24	-29.5	-30.8	13.4	1.37e-05	0	44	102	1048576	19	4220
2026-01-25 08:10:41.99	357.57	10.18	-29.5	-30.8	13.4	1.22e-05	0	44	102	1048576	19	4208
2026-01-25 08:10:42.99	357.44	10.13	-29.6	-31.2	13.1	2.74e-05	0	44	102	1048576	19	4338
2026-01-25 08:10:44.00	357.30	10.07	-29.7	-31.6	12.9	3.73e-05	0	44	102	1048576	19	4454
2026-01-25 08:10:44.99	357.17	10.01	-29.8	-31.8	12.7	6.40e-05	0	44	102	1048576	19	4537
2026-01-25 08:10:46.00	357.04	9.95	-29.9	-32.2	12.5	8.54e-05	0	44	102	1048576	19	4670
2026-01-25 08:10:47.01	356.90	9.89	-29.9	-32.0	12.6	1.01e-04	0	44	102	1048576	19	4618
2026-01-25 08:10:48.01	356.77	9.84	-29.9	-31.7	12.4	1.11e-04	0	43	102	1048576	20	4415
2026-01-25 08:10:49.02	356.64	9.78	-30.3	-32.7	11.7	3.84e-04	0	44	102	1048576	20	4763
2026-01-25 08:10:50.03	356.51	9.72	-30.2	-32.5	11.9	4.83e-04	0	44	102	1048576	20	4713
2026-01-25 08:10:51.03	356.38	9.66	-30.2	-32.6	11.8	3.91e-04	0	44	102	1048576	20	4719
2026-01-25 08:10:52.04	356.25	9.60	-30.3	-33.0	11.5	7.72e-04	0	44	102	1048576	20	4891
2026-01-25 08:10:53.04	356.12	9.54	-30.2	-32.7	11.6	8.90e-04	0	44	102	1048576	20	4760
2026-01-25 08:10:54.05	355.99	9.49	-30.4	-33.1	11.4	9.67e-04	0	44	102	1048576	20	4917
2026-01-25 08:10:55.06	355.86	9.43	-31.0	-33.7	11.1	1.42e-03	0	43	102	1048576	21	4904
2026-01-25 08:10:56.06	355.73	9.37	-30.4	-32.7	11.3	9.38e-04	0	44	102	1048576	21	4680
2026-01-25 08:10:57.07	355.60	9.31	-30.1	-31.7	12.0	5.78e-04	0	44	102	1048576	21	4340
2026-01-25 08:10:58.08	355.48	9.25	-29.9	-31.1	12.4	2.91e-04	0	44	102	1048576	21	4162
2026-01-25 08:10:59.08	355.35	9.19	-29.9	-31.1	12.3	1.86e-04	0	44	102	1048576	21	4154
2026-01-25 08:11:00.08	355.23	9.14	-29.7	-31.0	12.7	8.08e-05	0	44	102	1048576	20	4211
2026-01-25 08:11:01.08	355.10	9.08	-29.7	-31.2	12.6	5.64e-05	0	44	102	1048576	20	4283
2026-01-25 08:11:02.09	354.98	9.02	-29.6	-30.9	12.8	7.01e-05	0	44	102	1048576	20	4165
2026-01-25 08:11:03.10	354.85	8.96	-29.4	-30.4	13.2	3.58e-05	0	43	102	1048576	20	4008
2026-01-25 08:11:04.11	354.73	8.90	-29.3	-30.1	13.4	1.98e-05	0	43	102	1048576	20	3936
2026-01-25 08:11:05.12	354.60	8.84	-29.4	-30.4	13.1	2.13e-05	0	44	102	1048576	20	4031
2026-01-25 08:11:06.12	354.48	8.79	-29.6	-30.8	13.0	3.05e-05	0	44	102	1048576	20	4129
2026-01-25 08:11:07.12	354.36	8.73	-29.6	-30.8	12.9	3.20e-05	0	44	102	1048576	20	4161
2026-01-25 08:11:08.12	354.24	8.67	-29.7	-31.2	12.6	8.23e-05	0	43	102	1048576	20	4268
2026-01-25 08:11:09.13	354.12	8.61	-29.8	-31.5	12.4	1.79e-04	0	44	102	1048576	20	4373
2026-01-25 08:11:10.13	353.99	8.55	-30.2	-32.6	11.6	4.05e-04	0	44	102	1048576	20	4755
2026-01-25 08:11:11.14	353.87	8.50	-30.2	-32.7	11.6	6.81e-04	0	44	102	1048576	20	4779
2026-01-25 08:11:12.14	353.75	8.44	-30.3	-33.0	11.4	7.08e-04	0	44	102	1048576	20	4889
2026-01-25 08:11:13.14	353.64	8.38	-30.4	-33.4	11.1	1.58e-03	0	44	102	1048576	20	5050
2026-01-25 08:11:14.15	353.52	8.32	-30.3	-32.8	11.4	1.21e-03	0	44	102	1048576	20	4810
2026-01-25 08:11:15.15	353.40	8.26	-30.2	-32.6	11.6	8.07e-04	0	44	102	1048576	20	4747
2026-01-25 08:11:16.15	353.28	8.21	-30.0	-32.2	11.9	3.13e-04	0	43	102	1048576	20	4593
2026-01-25 08:11:17.15	353.16	8.15	-30.0	-32.2	11.9	3.00e-04	0	43	102	1048576	20	4592
2026-01-25 08:11:18.16	353.05	8.09	-29.8	-31.5	12.3	2.75e-04	0	43	102	1048576	20	4371
2026-01-25 08:11:19.17	352.93	8.03	-29.8	-31.5	12.4	1.56e-04	0	44	102	1048576	20	4375
2026-01-25 08:11:20.17	352.81	7.97	-30.0	-32.0	12.0	2.53e-04	0	44	102	1048576	20	4539
2026-01-25 08:11:21.18	352.70	7.92	-29.8	-31.3	12.5	2.09e-04	0	44	102	1048576	20	4302
2026-01-25 08:11:22.19	352.58	7.86	-29.7	-31.1	12.6	9.91e-05	0	44	102	1048576	20	4243
2026-01-25 08:11:23.19	352.47	7.80	-29.7	-31.2	12.5	8.54e-05	0	44	102	1048576	20	4283
2026-01-25 08:11:24.20	352.35	7.74	-29.8	-31.4	12.3	1.33e-04	0	44	102	1048576	20	4336
2026-01-25 08:11:25.20	352.24	7.68	-29.7	-31.2	12.4	1.31e-04	0	44	102	1048576	20	4288
2026-01-25 08:11:26.21	352.13	7.63	-29.8	-31.5	12.2	1.67e-04	0	44	102	1048576	20	4397
2026-01-25 08:11:27.22	352.01	7.57	-29.9	-31.9	12.0	2.76e-04	0	44	102	1048576	20	4503
2026-01-25 08:11:28.22	351.90	7.51	-29.8	-31.6	12.2	2.47e-04	0	44	102	1048576	20	4418
2026-01-25 08:11:29.22	351.79	7.45	-29.9	-31.9	11.9	3.10e-04	0	44	102	1048576	20	4510
2026-01-25 08:11:30.23	351.68	7.40	-29.9	-32.0	11.9	4.66e-04	0	44	102	1048576	20	4544
2026-01-25 08:11:31.23	351.57	7.34	-30.0	-32.2	11.8	4.25e-04	0	44	102	1048576	20	4617
2026-01-25 08:11:32.23	351.46	7.28	-30.2	-32.6	11.4	7.93e-04	0	43	102	1048576	20	4777
2026-01-25 08:11:33.24	351.35	7.22	-30.1	-32.6	11.4	8.89e-04	0	43	102	1048576	20	4795
2026-01-25 08:11:34.23	351.24	7.17	-30.3	-33.2	10.9	1.62e-03	0	44	102	1048576	20	5002
2026-01-25 08:11:35.24	351.13	7.11	-30.2	-32.9	11.1	1.71e-03	0	44	102	1048576	20	4889
2026-01-25 08:11:36.25	351.02	7.05	-30.7	-34.0	10.2	2.52e-03	0	43	102	1048576	21	5240
2026-01-25 08:11:37.25	350.91	6.99	-33.0	-44.9	3.8	1.49e+00	0	43	104	1048576	26	14135
2026-01-25 08:11:38.26	350.81	6.93	-33.4	-45.9	3.8	1.49e+00	0	44	104	1048576	26	15247

#Closed at: 2026-01-25 08:11:39
#Recorded file [1 MB]: D:/data/31010_260125_110251.dat