passes_logs/2026/01/25/R2M6_AANII_01/R2M6_AANII_01__20260125_105100_NOAA_21_JPSS-2_rec.log

#Pass ID: 20260125_105100_NOAA 21 (JPSS-2)
#Satellite: NOAA 21 (JPSS-2)
#Configuration: NOAA 21
#almurnet v.1.7.20240730
#Start time: 2026-01-25 10:51:02

#Version: 2.2.20231116
#Station: R2M6_AANII_01
#Location: 30.233357 lon 59.946436 lat
#TLE: 1 54234U 22150A   26024.45772595  .00000201  00000+0  11607-3 0  9996
#TLE: 2 54234  98.7508 325.2435 0000728 220.7365 139.3757 14.19538765166156

#Time	Az	El	Level	Level2	SNR	BER	BlckErr	Temp	State	Recorded	gain1	gain2
2026-01-25 10:51:02.51	176.82	7.14	-29.8	-33.7	4.9	1.34e+00	0	43	0	0	19	5687
2026-01-25 10:51:03.50	176.85	7.21	-30.0	-33.6	4.8	1.38e+00	0	43	104	0	21	5400
2026-01-25 10:51:04.51	176.89	7.29	-30.3	-33.7	9.7	8.77e-03	0	43	0	0	21	5276
2026-01-25 10:51:05.51	176.92	7.37	-30.4	-33.8	9.6	1.49e-02	0	43	102	1048576	21	5345
2026-01-25 10:51:06.52	176.96	7.45	-30.0	-32.7	10.4	5.18e-03	0	43	102	1048576	21	4918
2026-01-25 10:51:07.52	176.99	7.52	-29.8	-32.5	10.9	2.64e-03	0	43	102	1048576	20	4930
2026-01-25 10:51:08.53	177.03	7.60	-29.4	-31.6	11.5	1.19e-03	0	43	102	1048576	20	4610
2026-01-25 10:51:09.54	177.06	7.68	-29.3	-31.2	11.8	5.96e-04	0	43	102	1048576	20	4479
2026-01-25 10:51:10.54	177.10	7.76	-29.2	-31.5	12.0	2.93e-04	0	43	102	1048576	19	4669
2026-01-25 10:51:11.55	177.14	7.84	-29.3	-31.8	11.8	4.78e-04	0	43	102	1048576	19	4767
2026-01-25 10:51:12.55	177.17	7.92	-29.4	-31.9	11.8	4.91e-04	0	43	102	1048576	19	4797
2026-01-25 10:51:13.56	177.21	7.99	-29.6	-32.4	11.4	8.98e-04	0	43	102	1048576	19	4985
2026-01-25 10:51:14.56	177.25	8.07	-29.5	-32.2	11.6	5.94e-04	0	43	102	1048576	19	4893
2026-01-25 10:51:15.56	177.28	8.15	-29.5	-32.3	11.6	7.54e-04	0	43	102	1048576	19	4931
2026-01-25 10:51:16.57	177.32	8.23	-29.3	-31.7	11.9	4.07e-04	0	43	102	1048576	19	4731
2026-01-25 10:51:17.57	177.36	8.31	-29.4	-31.8	11.8	3.59e-04	0	43	102	1048576	19	4789
2026-01-25 10:51:18.57	177.39	8.39	-29.3	-31.6	12.0	3.86e-04	0	43	102	1048576	19	4718
2026-01-25 10:51:19.57	177.43	8.47	-29.1	-31.1	12.4	2.10e-04	0	43	102	1048576	19	4523
2026-01-25 10:51:20.58	177.47	8.55	-29.0	-30.8	12.6	1.36e-04	0	43	102	1048576	19	4445
2026-01-25 10:51:21.58	177.51	8.63	-28.9	-30.6	12.7	9.15e-05	0	43	102	1048576	19	4387
2026-01-25 10:51:22.59	177.55	8.72	-28.9	-30.7	12.6	8.16e-05	0	43	102	1048576	19	4413
2026-01-25 10:51:23.59	177.58	8.80	-28.9	-30.6	12.7	9.99e-05	0	43	102	1048576	19	4385
2026-01-25 10:51:24.59	177.62	8.88	-28.7	-30.6	13.0	3.50e-05	0	43	102	1048576	18	4477
2026-01-25 10:51:25.60	177.66	8.96	-28.7	-30.6	13.0	4.50e-05	0	43	102	1048576	18	4496
2026-01-25 10:51:26.61	177.70	9.04	-28.7	-30.7	13.0	3.43e-05	0	43	102	1048576	18	4501
2026-01-25 10:51:27.61	177.74	9.12	-28.6	-30.3	13.2	2.13e-05	0	43	102	1048576	18	4381
2026-01-25 10:51:28.61	177.78	9.21	-28.6	-30.2	13.3	2.21e-05	0	43	102	1048576	18	4369
2026-01-25 10:51:29.61	177.82	9.29	-28.5	-30.1	13.3	1.67e-05	0	43	102	1048576	18	4330
2026-01-25 10:51:30.62	177.86	9.37	-28.5	-30.2	13.3	1.67e-05	0	43	102	1048576	18	4350
2026-01-25 10:51:31.62	177.90	9.46	-28.5	-30.1	13.4	8.30e-06	0	43	102	1048576	18	4336
2026-01-25 10:51:32.63	177.94	9.54	-28.4	-29.9	13.5	5.30e-06	0	43	102	1048576	18	4266
2026-01-25 10:51:33.63	177.98	9.62	-28.4	-30.0	13.5	1.14e-05	0	43	102	1048576	18	4281
2026-01-25 10:51:34.63	178.02	9.71	-28.5	-30.0	13.4	1.29e-05	0	43	102	1048576	18	4289
2026-01-25 10:51:35.64	178.06	9.79	-28.4	-29.7	13.6	8.30e-06	0	43	102	1048576	18	4218
2026-01-25 10:51:36.64	178.10	9.88	-28.4	-29.8	13.6	9.10e-06	0	43	102	1048576	18	4231
2026-01-25 10:51:37.64	178.14	9.96	-28.4	-29.7	13.7	6.10e-06	0	43	102	1048576	18	4217
2026-01-25 10:51:38.65	178.19	10.05	-28.2	-30.0	13.8	6.10e-06	0	43	102	1048576	17	4390
2026-01-25 10:51:39.66	178.23	10.13	-28.3	-30.0	13.8	3.80e-06	0	43	102	1048576	17	4404
2026-01-25 10:51:40.66	178.27	10.22	-28.2	-29.9	13.8	4.50e-06	0	43	102	1048576	17	4368
2026-01-25 10:51:41.66	178.31	10.31	-28.2	-30.0	13.8	4.50e-06	0	43	102	1048576	17	4392
2026-01-25 10:51:42.67	178.35	10.39	-28.2	-29.9	13.8	8.30e-06	0	43	102	1048576	17	4382
2026-01-25 10:51:43.67	178.40	10.48	-28.2	-29.9	13.9	2.20e-06	0	43	102	1048576	17	4360
2026-01-25 10:51:44.67	178.44	10.57	-28.2	-29.9	13.8	9.90e-06	0	43	102	1048576	17	4372
2026-01-25 10:51:45.67	178.48	10.65	-28.2	-29.7	14.0	7.00e-07	0	43	102	1048576	17	4321
2026-01-25 10:51:46.68	178.53	10.74	-28.2	-29.8	13.9	1.50e-06	0	43	102	1048576	17	4346
2026-01-25 10:51:47.68	178.57	10.83	-28.2	-29.9	13.9	3.00e-06	0	43	102	1048576	17	4360
2026-01-25 10:51:48.68	178.61	10.92	-28.1	-29.7	14.0	4.50e-06	0	43	102	1048576	17	4298
2026-01-25 10:51:49.69	178.66	11.01	-28.1	-29.6	14.1	2.20e-06	0	43	102	1048576	17	4277
2026-01-25 10:51:50.70	178.70	11.09	-28.0	-29.5	14.2	7.00e-07	0	43	102	1048576	17	4234
2026-01-25 10:51:51.70	178.75	11.18	-28.1	-29.6	14.1	3.00e-06	0	43	102	1048576	17	4286
2026-01-25 10:51:52.71	178.79	11.27	-28.1	-29.5	14.1	7.00e-07	0	43	102	1048576	17	4257
2026-01-25 10:51:53.72	178.84	11.36	-28.0	-29.4	14.3	0.00e+00	0	43	102	1048576	17	4206
2026-01-25 10:51:54.72	178.88	11.45	-28.1	-29.6	14.1	2.20e-06	0	43	102	1048576	17	4283
2026-01-25 10:51:55.72	178.93	11.54	-28.1	-29.5	14.2	2.20e-06	0	43	102	1048576	17	4261
2026-01-25 10:51:56.71	178.97	11.63	-28.0	-29.2	14.3	7.00e-07	0	43	102	1048576	17	4173
2026-01-25 10:51:57.72	179.02	11.73	-28.0	-29.3	14.3	2.20e-06	0	44	102	1048576	17	4192
2026-01-25 10:51:58.72	179.07	11.82	-28.0	-29.3	14.3	1.98e-05	0	43	102	1048576	17	4192
2026-01-25 10:51:59.73	179.11	11.91	-28.1	-29.5	14.2	1.50e-06	0	43	102	1048576	17	4231
2026-01-25 10:52:00.73	179.16	12.00	-28.0	-29.4	14.3	0.00e+00	0	44	102	1048576	17	4208
2026-01-25 10:52:01.74	179.21	12.09	-28.1	-29.6	14.1	2.20e-06	0	43	102	1048576	17	4281
2026-01-25 10:52:02.73	179.25	12.19	-28.1	-29.5	14.2	1.50e-06	0	43	102	1048576	17	4258
2026-01-25 10:52:03.74	179.30	12.28	-27.9	-29.2	14.4	2.20e-06	0	43	102	1048576	17	4155
2026-01-25 10:52:04.74	179.35	12.37	-27.9	-29.1	14.5	1.29e-05	0	43	102	1048576	17	4125
2026-01-25 10:52:05.74	179.40	12.47	-28.0	-29.2	14.4	7.00e-07	0	43	102	1048576	17	4174
2026-01-25 10:52:06.75	179.45	12.56	-27.8	-28.9	14.6	0.00e+00	0	43	102	1048576	17	4083
2026-01-25 10:52:07.76	179.50	12.65	-27.8	-29.3	14.6	1.37e-05	0	43	102	1048576	16	4287
2026-01-25 10:52:08.76	179.55	12.75	-27.8	-29.3	14.6	0.00e+00	0	43	102	1048576	16	4299
2026-01-25 10:52:09.77	179.60	12.85	-27.8	-29.5	14.5	0.00e+00	0	43	102	1048576	16	4346
2026-01-25 10:52:10.77	179.64	12.94	-27.8	-29.2	14.7	1.22e-05	0	43	102	1048576	16	4274
2026-01-25 10:52:11.76	179.69	13.03	-27.7	-29.1	14.8	0.00e+00	0	43	102	1048576	16	4240
2026-01-25 10:52:12.76	179.74	13.13	-27.6	-29.0	14.8	0.00e+00	0	43	102	1048576	16	4203
2026-01-25 10:52:13.77	179.80	13.23	-27.7	-29.1	14.8	1.22e-05	0	43	102	1048576	16	4227
2026-01-25 10:52:14.77	179.85	13.32	-27.6	-28.9	14.9	0.00e+00	0	43	102	1048576	16	4178
2026-01-25 10:52:15.78	179.90	13.42	-27.6	-28.8	14.9	0.00e+00	0	43	102	1048576	16	4167
2026-01-25 10:52:16.77	179.95	13.52	-27.6	-28.9	14.9	7.00e-07	0	43	102	1048576	16	4187
2026-01-25 10:52:17.78	180.00	13.62	-27.6	-28.9	15.0	0.00e+00	0	43	102	1048576	16	4168
2026-01-25 10:52:18.78	180.05	13.72	-27.5	-28.7	15.1	0.00e+00	0	43	102	1048576	16	4119
2026-01-25 10:52:19.79	180.11	13.82	-27.6	-28.8	15.0	1.22e-05	0	43	102	1048576	16	4146
2026-01-25 10:52:20.79	180.16	13.91	-27.5	-28.7	15.1	0.00e+00	0	44	102	1048576	16	4127
2026-01-25 10:52:21.79	180.21	14.01	-27.5	-28.6	15.1	0.00e+00	0	43	102	1048576	16	4101
2026-01-25 10:52:22.80	180.27	14.11	-27.5	-28.7	15.1	0.00e+00	0	43	102	1048576	16	4115
2026-01-25 10:52:23.81	180.32	14.21	-27.5	-28.6	15.1	0.00e+00	0	43	102	1048576	16	4098
2026-01-25 10:52:24.81	180.37	14.32	-27.5	-28.6	15.1	0.00e+00	0	43	102	1048576	16	4098
2026-01-25 10:52:25.82	180.43	14.42	-27.5	-28.6	15.1	0.00e+00	0	43	102	1048576	16	4103
2026-01-25 10:52:26.82	180.48	14.52	-27.5	-28.7	15.1	0.00e+00	0	44	102	1048576	16	4115
2026-01-25 10:52:27.82	180.54	14.62	-27.5	-28.6	15.1	0.00e+00	0	43	102	1048576	16	4100
2026-01-25 10:52:28.83	180.60	14.72	-27.5	-28.6	15.2	0.00e+00	0	43	102	1048576	16	4082
2026-01-25 10:52:29.83	180.65	14.83	-27.5	-28.6	15.1	0.00e+00	0	44	102	1048576	16	4085
2026-01-25 10:52:30.83	180.71	14.93	-27.6	-28.9	15.0	0.00e+00	0	43	102	1048576	16	4182
2026-01-25 10:52:31.83	180.76	15.03	-27.5	-28.7	15.1	0.00e+00	0	44	102	1048576	16	4132
2026-01-25 10:52:32.83	180.82	15.14	-27.5	-28.6	15.2	7.00e-07	0	43	102	1048576	16	4084
2026-01-25 10:52:33.84	180.88	15.24	-27.5	-28.6	15.2	0.00e+00	0	44	102	1048576	16	4092
2026-01-25 10:52:34.84	180.94	15.34	-27.5	-28.5	15.2	0.00e+00	0	43	102	1048576	16	4073
2026-01-25 10:52:35.85	181.00	15.45	-27.5	-28.6	15.2	0.00e+00	0	43	102	1048576	16	4096
2026-01-25 10:52:36.85	181.05	15.56	-27.5	-28.6	15.2	0.00e+00	0	43	102	1048576	16	4080
2026-01-25 10:52:37.86	181.11	15.66	-27.5	-28.6	15.2	0.00e+00	0	43	102	1048576	16	4077
2026-01-25 10:52:38.87	181.17	15.77	-27.6	-28.8	15.1	0.00e+00	0	43	102	1048576	16	4154
2026-01-25 10:52:39.87	181.23	15.88	-27.5	-28.7	15.1	0.00e+00	0	43	102	1048576	16	4118
2026-01-25 10:52:40.88	181.29	15.99	-27.6	-28.8	15.1	0.00e+00	0	43	102	1048576	16	4148
2026-01-25 10:52:41.88	181.35	16.09	-27.7	-29.1	15.0	0.00e+00	0	44	102	1048576	16	4219
2026-01-25 10:52:42.89	181.42	16.20	-27.7	-29.0	15.0	0.00e+00	0	43	102	1048576	16	4198
2026-01-25 10:52:43.90	181.48	16.31	-27.7	-29.0	15.0	0.00e+00	0	44	102	1048576	16	4204
2026-01-25 10:52:44.90	181.54	16.42	-27.6	-29.0	15.0	0.00e+00	0	43	102	1048576	16	4191
2026-01-25 10:52:45.90	181.60	16.53	-27.6	-28.9	15.0	0.00e+00	0	44	102	1048576	16	4189
2026-01-25 10:52:46.90	181.67	16.64	-27.7	-29.2	14.9	0.00e+00	0	44	102	1048576	16	4243
2026-01-25 10:52:47.91	181.73	16.75	-27.7	-29.1	14.9	0.00e+00	0	44	102	1048576	16	4232
2026-01-25 10:52:48.91	181.79	16.86	-27.8	-29.4	14.8	0.00e+00	0	43	102	1048576	16	4324
2026-01-25 10:52:49.91	181.86	16.97	-27.8	-29.3	14.8	0.00e+00	0	44	102	1048576	16	4289
2026-01-25 10:52:50.91	181.92	17.08	-27.7	-29.0	15.0	0.00e+00	0	43	102	1048576	16	4208
2026-01-25 10:52:51.92	181.99	17.20	-27.6	-29.0	15.0	0.00e+00	0	43	102	1048576	16	4202
2026-01-25 10:52:52.92	182.05	17.31	-27.7	-29.2	14.9	0.00e+00	0	43	102	1048576	16	4259
2026-01-25 10:52:53.93	182.12	17.43	-27.7	-29.0	15.0	0.00e+00	0	43	102	1048576	16	4219
2026-01-25 10:52:54.93	182.18	17.54	-27.7	-29.1	15.0	0.00e+00	0	43	102	1048576	16	4240
2026-01-25 10:52:55.94	182.25	17.65	-27.7	-29.2	14.9	0.00e+00	0	44	102	1048576	16	4268
2026-01-25 10:52:56.94	182.32	17.77	-27.9	-29.5	14.7	7.00e-07	0	44	102	1048576	16	4358
2026-01-25 10:52:57.94	182.39	17.88	-27.8	-29.4	14.8	0.00e+00	0	43	102	1048576	16	4313
2026-01-25 10:52:58.94	182.45	18.00	-27.8	-29.3	14.9	0.00e+00	0	43	102	1048576	16	4297
2026-01-25 10:52:59.95	182.52	18.12	-27.8	-29.3	14.8	0.00e+00	0	43	102	1048576	16	4305
2026-01-25 10:53:00.96	182.59	18.24	-27.8	-29.4	14.8	0.00e+00	0	43	102	1048576	16	4310
2026-01-25 10:53:01.96	182.66	18.35	-27.8	-29.4	14.8	0.00e+00	0	43	102	1048576	16	4311
2026-01-25 10:53:02.96	182.73	18.47	-27.9	-29.5	14.8	0.00e+00	0	43	102	1048576	16	4357
2026-01-25 10:53:03.97	182.81	18.59	-27.8	-29.4	14.8	3.80e-06	0	43	102	1048576	16	4307
2026-01-25 10:53:04.97	182.88	18.71	-27.8	-29.4	14.8	0.00e+00	0	44	102	1048576	16	4330
2026-01-25 10:53:05.98	182.95	18.83	-27.9	-29.6	14.8	7.00e-07	0	44	102	1048576	16	4371
2026-01-25 10:53:06.98	183.02	18.95	-27.8	-29.3	14.9	0.00e+00	0	44	102	1048576	16	4302
2026-01-25 10:53:07.99	183.10	19.07	-27.7	-29.1	15.0	0.00e+00	0	43	102	1048576	16	4238
2026-01-25 10:53:09.00	183.17	19.19	-27.8	-29.3	14.9	0.00e+00	0	44	102	1048576	16	4305
2026-01-25 10:53:10.01	183.24	19.32	-27.7	-29.1	15.0	9.10e-06	0	43	102	1048576	16	4247
2026-01-25 10:53:11.01	183.32	19.44	-27.8	-29.3	14.9	0.00e+00	0	44	102	1048576	16	4305
2026-01-25 10:53:12.01	183.39	19.56	-27.6	-29.0	15.1	0.00e+00	0	43	102	1048576	16	4212
2026-01-25 10:53:13.01	183.47	19.68	-27.6	-28.9	15.2	1.29e-05	0	43	102	1048576	16	4173
2026-01-25 10:53:14.01	183.55	19.81	-27.6	-28.9	15.2	0.00e+00	0	43	102	1048576	16	4186
2026-01-25 10:53:15.02	183.62	19.93	-27.5	-28.7	15.3	0.00e+00	0	43	102	1048576	16	4118
2026-01-25 10:53:16.02	183.70	20.06	-27.4	-28.5	15.4	0.00e+00	0	44	102	1048576	16	4067
2026-01-25 10:53:17.03	183.78	20.18	-27.6	-28.8	15.2	0.00e+00	0	43	102	1048576	16	4154
2026-01-25 10:53:18.03	183.86	20.31	-27.4	-28.3	15.5	0.00e+00	0	43	102	1048576	16	4023
2026-01-25 10:53:19.03	183.94	20.44	-27.3	-28.2	15.6	2.20e-06	0	43	102	1048576	16	3996
2026-01-25 10:53:20.03	184.02	20.57	-27.3	-28.2	15.6	0.00e+00	0	44	102	1048576	16	4002
2026-01-25 10:53:21.04	184.10	20.69	-27.4	-28.4	15.4	0.00e+00	0	44	102	1048576	16	4057
2026-01-25 10:53:22.04	184.18	20.82	-27.0	-28.1	15.7	0.00e+00	0	43	102	1048576	15	4073
2026-01-25 10:53:23.04	184.26	20.95	-26.8	-27.7	16.0	0.00e+00	0	43	102	1048576	15	3958
2026-01-25 10:53:24.04	184.34	21.08	-26.7	-27.9	16.2	0.00e+00	0	44	102	1048576	14	4116
2026-01-25 10:53:25.05	184.43	21.21	-26.7	-27.8	16.2	0.00e+00	0	44	102	1048576	14	4089
2026-01-25 10:53:26.05	184.51	21.34	-26.6	-27.7	16.3	0.00e+00	0	44	102	1048576	14	4070
2026-01-25 10:53:27.06	184.60	21.48	-26.7	-27.8	16.2	0.00e+00	0	44	102	1048576	14	4109
2026-01-25 10:53:28.07	184.68	21.61	-26.5	-27.4	16.4	0.00e+00	0	43	102	1048576	14	4002
2026-01-25 10:53:29.07	184.77	21.74	-26.5	-27.3	16.5	0.00e+00	0	44	102	1048576	14	3982
2026-01-25 10:53:30.07	184.86	21.88	-26.5	-27.4	16.5	0.00e+00	0	44	102	1048576	14	3985
2026-01-25 10:53:31.08	184.95	22.01	-26.6	-27.7	16.3	0.00e+00	0	43	102	1048576	14	4081
2026-01-25 10:53:32.08	185.03	22.15	-26.6	-27.6	16.3	0.00e+00	0	43	102	1048576	14	4052
2026-01-25 10:53:33.08	185.12	22.28	-26.7	-27.9	16.2	0.00e+00	0	43	102	1048576	14	4119
2026-01-25 10:53:34.09	185.21	22.42	-26.6	-27.6	16.4	0.00e+00	0	44	102	1048576	14	4035
2026-01-25 10:53:35.10	185.30	22.56	-26.5	-27.4	16.5	0.00e+00	0	44	102	1048576	14	3987
2026-01-25 10:53:36.10	185.40	22.70	-26.5	-27.4	16.5	0.00e+00	0	44	102	1048576	14	3990
2026-01-25 10:53:37.09	185.49	22.83	-26.6	-27.7	16.3	0.00e+00	0	44	102	1048576	14	4064
2026-01-25 10:53:38.10	185.58	22.97	-26.5	-27.3	16.5	0.00e+00	0	44	102	1048576	14	3972
2026-01-25 10:53:39.10	185.67	23.11	-26.4	-27.1	16.6	0.00e+00	0	44	102	1048576	14	3920
2026-01-25 10:53:40.11	185.77	23.25	-26.4	-27.2	16.6	0.00e+00	0	43	102	1048576	14	3938
2026-01-25 10:53:41.11	185.86	23.39	-26.7	-27.8	16.2	0.00e+00	0	43	102	1048576	14	4102
2026-01-25 10:53:42.11	185.96	23.54	-26.6	-27.5	16.4	0.00e+00	0	44	102	1048576	14	4020
2026-01-25 10:53:43.12	186.06	23.68	-26.5	-27.3	16.6	0.00e+00	0	44	102	1048576	14	3963
2026-01-25 10:53:44.12	186.16	23.82	-26.5	-27.3	16.5	0.00e+00	0	44	102	1048576	14	3956
2026-01-25 10:53:45.13	186.25	23.97	-26.5	-27.3	16.6	0.00e+00	0	44	102	1048576	14	3963
2026-01-25 10:53:46.14	186.36	24.11	-26.7	-27.7	16.4	0.00e+00	0	44	102	1048576	14	4062
2026-01-25 10:53:47.15	186.46	24.26	-26.5	-27.3	16.6	0.00e+00	0	44	102	1048576	14	3950
2026-01-25 10:53:48.15	186.56	24.41	-26.3	-27.0	16.7	0.00e+00	0	44	102	1048576	14	3877
2026-01-25 10:53:49.16	186.66	24.55	-26.3	-26.9	16.8	0.00e+00	0	44	102	1048576	14	3856
2026-01-25 10:53:50.16	186.76	24.70	-26.4	-27.1	16.7	0.00e+00	0	44	102	1048576	14	3902
2026-01-25 10:53:51.16	186.87	24.85	-26.4	-27.1	16.7	0.00e+00	0	44	102	1048576	14	3912
2026-01-25 10:53:52.16	186.97	25.00	-26.5	-27.3	16.6	0.00e+00	0	44	102	1048576	14	3948
2026-01-25 10:53:53.16	187.08	25.15	-26.6	-27.5	16.5	0.00e+00	0	43	102	1048576	14	4005
2026-01-25 10:53:54.16	187.19	25.30	-26.5	-27.4	16.5	0.00e+00	0	44	102	1048576	14	3992
2026-01-25 10:53:55.16	187.29	25.45	-26.7	-27.7	16.4	0.00e+00	0	43	102	1048576	14	4061
2026-01-25 10:53:56.16	187.40	25.60	-26.6	-27.6	16.4	0.00e+00	0	44	102	1048576	14	4040
2026-01-25 10:53:57.16	187.51	25.75	-26.7	-27.8	16.3	0.00e+00	0	43	102	1048576	14	4081
2026-01-25 10:53:58.17	187.62	25.91	-26.7	-27.9	16.3	0.00e+00	0	43	102	1048576	14	4105
2026-01-25 10:53:59.18	187.74	26.06	-26.7	-27.8	16.3	0.00e+00	0	43	102	1048576	14	4085
2026-01-25 10:54:00.18	187.85	26.22	-26.9	-28.1	16.2	0.00e+00	0	44	102	1048576	14	4168
2026-01-25 10:54:01.18	187.96	26.37	-26.9	-28.3	16.1	0.00e+00	0	44	102	1048576	14	4208
2026-01-25 10:54:02.19	188.08	26.53	-27.0	-28.5	15.9	0.00e+00	0	44	102	1048576	14	4271
2026-01-25 10:54:03.19	188.20	26.69	-27.1	-28.7	15.8	6.80e-06	0	43	102	1048576	14	4324
2026-01-25 10:54:04.19	188.31	26.85	-27.3	-29.2	15.6	0.00e+00	0	43	102	1048576	14	4462
2026-01-25 10:54:05.20	188.43	27.01	-27.3	-29.2	15.6	0.00e+00	0	43	102	1048576	14	4463
2026-01-25 10:54:06.20	188.55	27.17	-27.3	-29.1	15.6	0.00e+00	0	44	102	1048576	14	4447
2026-01-25 10:54:07.21	188.68	27.33	-27.3	-29.2	15.5	0.00e+00	0	43	102	1048576	14	4475
2026-01-25 10:54:08.21	188.80	27.49	-27.3	-29.2	15.6	0.00e+00	0	44	102	1048576	14	4458
2026-01-25 10:54:09.21	188.92	27.65	-27.4	-29.3	15.5	1.50e-06	0	44	102	1048576	14	4501
2026-01-25 10:54:10.22	189.05	27.82	-27.4	-29.4	15.5	0.00e+00	0	44	102	1048576	14	4529
2026-01-25 10:54:11.22	189.17	27.98	-27.4	-29.4	15.5	0.00e+00	0	44	102	1048576	14	4514
2026-01-25 10:54:12.22	189.30	28.15	-27.6	-29.2	15.3	9.10e-06	0	44	102	1048576	15	4364
2026-01-25 10:54:13.22	189.43	28.31	-27.4	-28.8	15.5	0.00e+00	0	44	102	1048576	15	4252
2026-01-25 10:54:14.23	189.56	28.48	-27.4	-28.8	15.6	0.00e+00	0	44	102	1048576	15	4243
2026-01-25 10:54:15.23	189.69	28.65	-27.4	-28.9	15.5	1.14e-05	0	44	102	1048576	15	4277
2026-01-25 10:54:16.24	189.82	28.82	-27.3	-28.7	15.6	0.00e+00	0	43	102	1048576	15	4200
2026-01-25 10:54:17.24	189.96	28.98	-27.3	-28.6	15.7	0.00e+00	0	43	102	1048576	15	4185
2026-01-25 10:54:18.24	190.09	29.15	-27.3	-28.6	15.7	1.22e-05	0	44	102	1048576	15	4189
2026-01-25 10:54:19.25	190.23	29.33	-27.3	-28.6	15.7	0.00e+00	0	44	102	1048576	15	4195
2026-01-25 10:54:20.25	190.37	29.50	-27.3	-28.7	15.6	0.00e+00	0	44	102	1048576	15	4214
2026-01-25 10:54:21.26	190.51	29.67	-27.3	-28.7	15.7	0.00e+00	0	43	102	1048576	15	4211
2026-01-25 10:54:22.26	190.65	29.84	-27.4	-28.8	15.5	0.00e+00	0	44	102	1048576	15	4251
2026-01-25 10:54:23.26	190.79	30.02	-27.2	-28.5	15.7	0.00e+00	0	43	102	1048576	15	4151
2026-01-25 10:54:24.26	190.93	30.19	-27.2	-28.4	15.8	0.00e+00	0	43	102	1048576	15	4142
2026-01-25 10:54:25.26	191.08	30.37	-27.2	-28.4	15.8	0.00e+00	0	44	102	1048576	15	4141
2026-01-25 10:54:26.26	191.22	30.55	-27.2	-28.4	15.8	0.00e+00	0	43	102	1048576	15	4133
2026-01-25 10:54:27.27	191.37	30.73	-27.2	-28.4	15.8	0.00e+00	0	44	102	1048576	15	4137
2026-01-25 10:54:28.27	191.52	30.90	-27.1	-28.2	15.9	0.00e+00	0	44	102	1048576	15	4079
2026-01-25 10:54:29.27	191.68	31.08	-27.1	-28.1	16.0	0.00e+00	0	43	102	1048576	15	4044
2026-01-25 10:54:30.28	191.83	31.26	-27.1	-28.2	15.9	0.00e+00	0	43	102	1048576	15	4076
2026-01-25 10:54:31.29	191.99	31.45	-27.0	-28.1	16.0	0.00e+00	0	44	102	1048576	15	4044
2026-01-25 10:54:32.29	192.14	31.63	-27.1	-28.2	16.0	0.00e+00	0	44	102	1048576	15	4080
2026-01-25 10:54:33.30	192.30	31.81	-27.1	-28.2	15.9	0.00e+00	0	43	102	1048576	15	4073
2026-01-25 10:54:34.29	192.46	32.00	-27.2	-28.3	15.9	0.00e+00	0	43	102	1048576	15	4110
2026-01-25 10:54:35.30	192.62	32.18	-27.1	-28.2	15.9	7.00e-07	0	43	102	1048576	15	4071
2026-01-25 10:54:36.30	192.79	32.37	-27.0	-27.9	16.1	0.00e+00	0	43	102	1048576	15	4005
2026-01-25 10:54:37.31	192.96	32.56	-27.1	-28.2	16.0	0.00e+00	0	44	102	1048576	15	4077
2026-01-25 10:54:38.31	193.12	32.74	-27.1	-28.2	16.0	0.00e+00	0	44	102	1048576	15	4077
2026-01-25 10:54:39.31	193.29	32.93	-27.2	-28.4	15.9	0.00e+00	0	43	102	1048576	15	4121
2026-01-25 10:54:40.31	193.46	33.12	-27.3	-28.5	15.8	0.00e+00	0	43	102	1048576	15	4162
2026-01-25 10:54:41.32	193.64	33.31	-27.3	-28.7	15.7	0.00e+00	0	43	102	1048576	15	4212
2026-01-25 10:54:42.32	193.81	33.51	-27.4	-28.8	15.7	0.00e+00	0	44	102	1048576	15	4230
2026-01-25 10:54:43.32	193.99	33.70	-27.5	-29.1	15.5	0.00e+00	0	44	102	1048576	15	4321
2026-01-25 10:54:44.33	194.17	33.89	-27.6	-29.4	15.3	0.00e+00	0	44	102	1048576	15	4396
2026-01-25 10:54:45.32	194.35	34.08	-27.7	-29.5	15.2	0.00e+00	0	43	102	1048576	15	4446
2026-01-25 10:54:46.33	194.54	34.28	-27.9	-29.9	15.0	0.00e+00	0	44	102	1048576	15	4557
2026-01-25 10:54:47.34	194.72	34.48	-27.9	-30.0	14.9	0.00e+00	0	43	102	1048576	15	4592
2026-01-25 10:54:48.34	194.91	34.67	-28.1	-29.9	14.9	0.00e+00	0	44	102	1048576	16	4432
2026-01-25 10:54:49.34	195.10	34.87	-28.2	-30.0	14.9	7.00e-07	0	44	102	1048576	16	4470
2026-01-25 10:54:50.35	195.29	35.07	-28.2	-30.2	14.8	7.00e-07	0	44	102	1048576	16	4522
2026-01-25 10:54:51.35	195.49	35.27	-28.2	-30.1	14.9	0.00e+00	0	44	102	1048576	16	4474
2026-01-25 10:54:52.36	195.69	35.47	-28.1	-29.9	14.9	0.00e+00	0	44	102	1048576	16	4440
2026-01-25 10:54:53.36	195.89	35.68	-28.2	-30.0	14.8	0.00e+00	0	43	102	1048576	16	4463
2026-01-25 10:54:54.36	196.09	35.88	-28.3	-30.2	14.7	7.00e-07	0	43	102	1048576	16	4528
2026-01-25 10:54:55.37	196.29	36.08	-28.3	-30.4	14.7	7.00e-07	0	44	102	1048576	16	4572
2026-01-25 10:54:56.37	196.50	36.29	-28.4	-30.5	14.6	0.00e+00	0	44	102	1048576	16	4596
2026-01-25 10:54:57.38	196.71	36.49	-28.5	-30.3	14.4	1.50e-06	0	44	102	1048576	17	4444
2026-01-25 10:54:58.38	196.92	36.70	-28.6	-30.5	14.4	0.00e+00	0	44	102	1048576	17	4477
2026-01-25 10:54:59.40	197.14	36.91	-28.6	-30.7	14.2	7.00e-07	0	44	102	1048576	17	4540
2026-01-25 10:55:00.40	197.36	37.12	-28.4	-30.0	14.6	0.00e+00	0	44	102	1048576	17	4337
2026-01-25 10:55:01.40	197.58	37.32	-28.2	-29.7	14.8	0.00e+00	0	44	102	1048576	17	4258
2026-01-25 10:55:02.40	197.80	37.53	-28.4	-30.0	14.6	2.20e-06	0	44	102	1048576	17	4332
2026-01-25 10:55:03.41	198.03	37.74	-28.5	-30.2	14.5	7.00e-07	0	44	102	1048576	17	4406
2026-01-25 10:55:04.42	198.26	37.96	-28.6	-30.5	14.4	1.50e-06	0	44	102	1048576	17	4482
2026-01-25 10:55:05.42	198.49	38.17	-28.7	-30.7	14.2	1.50e-06	0	44	102	1048576	17	4554
2026-01-25 10:55:06.42	198.73	38.38	-28.7	-30.7	14.3	7.00e-07	0	44	102	1048576	17	4532
2026-01-25 10:55:07.43	198.97	38.60	-28.8	-30.9	14.1	7.00e-07	0	44	102	1048576	17	4616
2026-01-25 10:55:08.44	199.21	38.81	-28.9	-31.2	13.9	3.80e-06	0	44	102	1048576	17	4706
2026-01-25 10:55:09.44	199.45	39.03	-28.9	-31.4	13.9	2.20e-06	0	43	102	1048576	17	4757
2026-01-25 10:55:10.45	199.70	39.24	-29.0	-31.0	13.8	5.30e-06	0	44	102	1048576	18	4513
2026-01-25 10:55:11.45	199.95	39.46	-29.2	-31.4	13.6	7.60e-06	0	44	102	1048576	18	4643
2026-01-25 10:55:12.46	200.21	39.68	-29.4	-32.0	13.3	1.37e-05	0	44	102	1048576	18	4838
2026-01-25 10:55:13.46	200.47	39.90	-29.5	-31.6	13.1	2.67e-05	0	44	102	1048576	19	4608
2026-01-25 10:55:14.46	200.73	40.12	-29.6	-31.9	13.0	3.58e-05	0	43	102	1048576	19	4715
2026-01-25 10:55:15.47	200.99	40.34	-29.4	-31.4	13.3	2.51e-05	0	44	102	1048576	19	4542
2026-01-25 10:55:16.47	201.26	40.56	-29.3	-31.2	13.4	1.14e-05	0	44	102	1048576	19	4480
2026-01-25 10:55:17.48	201.53	40.78	-29.2	-31.0	13.5	1.44e-05	0	44	102	1048576	19	4426
2026-01-25 10:55:18.48	201.81	41.00	-29.1	-30.6	13.8	9.10e-06	0	44	102	1048576	19	4300
2026-01-25 10:55:19.49	202.09	41.22	-29.0	-30.4	13.9	3.80e-06	0	44	102	1048576	19	4234
2026-01-25 10:55:20.49	202.37	41.45	-29.0	-30.4	13.9	6.80e-06	0	44	102	1048576	19	4252
2026-01-25 10:55:21.49	202.66	41.67	-29.0	-30.5	13.9	3.80e-06	0	44	102	1048576	19	4252
2026-01-25 10:55:22.50	202.95	41.89	-29.3	-31.2	13.4	7.60e-06	0	44	102	1048576	19	4476
2026-01-25 10:55:23.51	203.25	42.12	-29.3	-31.2	13.5	1.67e-05	0	44	102	1048576	19	4468
2026-01-25 10:55:24.51	203.54	42.35	-29.2	-30.8	13.6	6.80e-06	0	44	102	1048576	19	4369
2026-01-25 10:55:25.51	203.85	42.57	-29.4	-31.4	13.3	2.13e-05	0	44	102	1048576	19	4542
2026-01-25 10:55:26.51	204.15	42.80	-29.5	-31.6	13.1	2.82e-05	0	44	102	1048576	19	4612
2026-01-25 10:55:27.52	204.47	43.02	-29.4	-31.3	13.3	1.67e-05	0	44	102	1048576	19	4511
2026-01-25 10:55:28.53	204.78	43.25	-29.2	-31.0	13.6	3.80e-06	0	44	102	1048576	19	4403
2026-01-25 10:55:29.53	205.10	43.48	-29.2	-30.9	13.6	9.10e-06	0	44	102	1048576	19	4397
2026-01-25 10:55:30.54	205.43	43.71	-29.3	-31.1	13.5	1.37e-05	0	43	102	1048576	19	4455
2026-01-25 10:55:31.54	205.76	43.94	-29.5	-31.7	13.1	3.50e-05	0	44	102	1048576	19	4635
2026-01-25 10:55:32.55	206.10	44.17	-29.6	-31.9	13.0	3.05e-05	0	44	102	1048576	19	4701
2026-01-25 10:55:33.56	206.44	44.40	-29.6	-31.9	13.1	2.89e-05	0	44	102	1048576	19	4686
2026-01-25 10:55:34.57	206.78	44.63	-29.6	-31.9	13.0	4.57e-05	0	44	102	1048576	19	4693
2026-01-25 10:55:35.57	207.13	44.86	-29.5	-31.7	13.1	2.21e-05	0	44	102	1048576	19	4642
2026-01-25 10:55:36.57	207.48	45.09	-29.6	-31.9	12.9	3.58e-05	0	44	102	1048576	19	4702
2026-01-25 10:55:37.58	207.84	45.32	-29.6	-32.0	13.0	3.50e-05	0	44	102	1048576	19	4734
2026-01-25 10:55:38.58	208.21	45.55	-29.5	-31.8	13.1	2.05e-05	0	43	102	1048576	19	4659
2026-01-25 10:55:39.58	208.57	45.77	-29.6	-31.9	13.1	3.81e-05	0	44	102	1048576	19	4688
2026-01-25 10:55:40.59	208.95	46.01	-29.5	-31.7	13.1	4.50e-05	0	44	102	1048576	19	4626
2026-01-25 10:55:41.60	209.33	46.24	-29.1	-30.7	13.8	5.30e-06	0	44	102	1048576	19	4327
2026-01-25 10:55:42.60	209.72	46.47	-28.8	-30.5	14.2	1.50e-06	0	44	102	1048576	18	4379
2026-01-25 10:55:43.60	210.11	46.69	-28.8	-30.4	14.3	0.00e+00	0	44	102	1048576	18	4335
2026-01-25 10:55:44.61	210.51	46.93	-28.9	-30.7	14.1	2.20e-06	0	44	102	1048576	18	4440
2026-01-25 10:55:45.60	210.91	47.15	-29.0	-30.9	13.9	3.00e-06	0	44	102	1048576	18	4498
2026-01-25 10:55:46.60	211.31	47.38	-29.1	-31.1	13.8	1.50e-06	0	44	102	1048576	18	4567
2026-01-25 10:55:47.61	211.73	47.61	-29.2	-31.3	13.7	3.00e-06	0	43	102	1048576	18	4633
2026-01-25 10:55:48.61	212.15	47.84	-29.1	-31.3	13.8	7.60e-06	0	44	102	1048576	18	4612
2026-01-25 10:55:49.62	212.58	48.07	-29.0	-31.0	13.9	3.00e-06	0	44	102	1048576	18	4512
2026-01-25 10:55:50.62	213.01	48.29	-28.9	-30.8	14.0	3.80e-06	0	44	102	1048576	18	4460
2026-01-25 10:55:51.63	213.45	48.52	-29.1	-31.1	13.9	1.50e-06	0	44	102	1048576	18	4539
2026-01-25 10:55:52.63	213.90	48.74	-29.0	-31.0	13.9	5.30e-06	0	44	102	1048576	18	4506
2026-01-25 10:55:53.64	214.35	48.97	-28.9	-30.8	14.0	2.20e-06	0	44	102	1048576	18	4458
2026-01-25 10:55:54.65	214.81	49.20	-28.9	-30.7	14.0	2.20e-06	0	44	102	1048576	18	4432
2026-01-25 10:55:55.65	215.28	49.42	-28.9	-30.6	14.1	3.00e-06	0	44	102	1048576	18	4409
2026-01-25 10:55:56.66	215.75	49.64	-28.8	-30.4	14.3	1.50e-06	0	44	102	1048576	18	4336
2026-01-25 10:55:57.67	216.23	49.87	-29.0	-30.8	14.1	7.00e-07	0	44	102	1048576	18	4457
2026-01-25 10:55:58.67	216.72	50.09	-28.9	-30.6	14.2	0.00e+00	0	44	102	1048576	18	4390
2026-01-25 10:55:59.67	217.21	50.31	-28.6	-30.0	14.6	7.00e-07	0	44	102	1048576	18	4213
2026-01-25 10:56:00.67	217.71	50.52	-28.5	-29.8	14.7	0.00e+00	0	44	102	1048576	18	4156
2026-01-25 10:56:01.68	218.22	50.74	-28.5	-29.8	14.7	0.00e+00	0	44	102	1048576	18	4170
2026-01-25 10:56:02.67	218.73	50.96	-28.5	-29.7	14.8	0.00e+00	0	44	102	1048576	18	4130
2026-01-25 10:56:03.68	219.25	51.17	-28.6	-29.9	14.6	7.00e-07	0	44	102	1048576	18	4203
2026-01-25 10:56:04.69	219.79	51.39	-28.5	-29.7	14.7	7.00e-07	0	44	102	1048576	18	4147
2026-01-25 10:56:05.69	220.32	51.60	-28.3	-29.7	15.0	0.00e+00	0	44	102	1048576	17	4249
2026-01-25 10:56:06.70	220.87	51.81	-28.3	-29.7	15.0	0.00e+00	0	44	102	1048576	17	4245
2026-01-25 10:56:07.70	221.42	52.01	-28.5	-30.4	14.6	0.00e+00	0	44	102	1048576	17	4444
2026-01-25 10:56:08.71	221.98	52.22	-28.6	-30.4	14.6	0.00e+00	0	44	102	1048576	17	4462
2026-01-25 10:56:09.71	222.55	52.42	-28.3	-29.7	15.0	0.00e+00	0	44	102	1048576	17	4261
2026-01-25 10:56:10.71	223.12	52.63	-28.2	-29.5	15.1	7.00e-07	0	44	102	1048576	17	4181
2026-01-25 10:56:11.72	223.71	52.83	-28.4	-30.1	14.8	0.00e+00	0	44	102	1048576	17	4359
2026-01-25 10:56:12.72	224.30	53.02	-28.4	-30.1	14.8	3.00e-06	0	44	102	1048576	17	4371
2026-01-25 10:56:13.73	224.90	53.22	-28.4	-30.1	14.8	7.00e-07	0	44	102	1048576	17	4352
2026-01-25 10:56:14.73	225.51	53.41	-28.6	-30.4	14.6	7.00e-07	0	44	102	1048576	17	4467
2026-01-25 10:56:15.73	226.12	53.60	-28.5	-30.4	14.6	7.00e-07	0	44	102	1048576	17	4437
2026-01-25 10:56:16.73	226.74	53.79	-28.6	-30.6	14.6	0.00e+00	0	44	102	1048576	17	4497
2026-01-25 10:56:17.73	227.37	53.97	-28.5	-30.2	14.7	7.00e-07	0	44	102	1048576	17	4392
2026-01-25 10:56:18.73	228.00	54.15	-28.5	-30.2	14.7	0.00e+00	0	44	102	1048576	17	4398
2026-01-25 10:56:19.74	228.66	54.33	-28.6	-30.6	14.5	7.00e-07	0	44	102	1048576	17	4500
2026-01-25 10:56:20.75	229.31	54.51	-28.6	-30.6	14.5	1.50e-06	0	44	102	1048576	17	4516
2026-01-25 10:56:21.75	229.97	54.68	-28.4	-30.1	14.8	0.00e+00	0	44	102	1048576	17	4363
2026-01-25 10:56:22.75	230.64	54.85	-28.2	-29.5	15.1	0.00e+00	0	44	102	1048576	17	4204
2026-01-25 10:56:23.75	231.32	55.02	-28.2	-29.6	15.1	0.00e+00	0	44	102	1048576	17	4220
2026-01-25 10:56:24.75	232.00	55.18	-28.1	-29.4	15.2	0.00e+00	0	44	102	1048576	17	4164
2026-01-25 10:56:25.76	232.70	55.34	-28.2	-29.5	15.1	0.00e+00	0	44	102	1048576	17	4205
2026-01-25 10:56:26.77	233.41	55.50	-28.3	-29.8	15.0	0.00e+00	0	44	102	1048576	17	4275
2026-01-25 10:56:27.77	234.12	55.65	-28.1	-29.4	15.2	0.00e+00	0	43	102	1048576	17	4174
2026-01-25 10:56:28.77	234.83	55.80	-27.8	-29.0	15.7	0.00e+00	0	44	102	1048576	16	4172
2026-01-25 10:56:29.78	235.56	55.94	-27.8	-29.0	15.7	0.00e+00	0	44	102	1048576	16	4164
2026-01-25 10:56:30.79	236.30	56.08	-27.8	-29.2	15.7	0.00e+00	0	44	102	1048576	16	4209
2026-01-25 10:56:31.80	237.04	56.22	-27.8	-29.2	15.6	0.00e+00	0	43	102	1048576	16	4220
2026-01-25 10:56:32.80	237.78	56.35	-28.2	-30.2	15.1	0.00e+00	0	44	102	1048576	16	4494
2026-01-25 10:56:33.81	238.54	56.48	-28.0	-29.7	15.4	0.00e+00	0	44	102	1048576	16	4358
2026-01-25 10:56:34.81	239.30	56.60	-27.7	-28.8	15.9	0.00e+00	0	44	102	1048576	16	4105
2026-01-25 10:56:35.81	240.06	56.72	-27.6	-28.7	15.9	0.00e+00	0	43	102	1048576	16	4081
2026-01-25 10:56:36.81	240.84	56.83	-27.4	-28.3	16.2	0.00e+00	0	44	102	1048576	16	3961
2026-01-25 10:56:37.81	241.61	56.94	-27.3	-28.0	16.3	0.00e+00	0	44	102	1048576	16	3897
2026-01-25 10:56:38.81	242.39	57.04	-26.9	-27.6	16.6	0.00e+00	0	44	102	1048576	15	3902
2026-01-25 10:56:39.81	243.18	57.14	-26.5	-27.3	17.1	0.00e+00	0	44	102	1048576	14	3932
2026-01-25 10:56:40.82	243.98	57.24	-26.4	-27.1	17.1	0.00e+00	0	44	102	1048576	14	3892
2026-01-25 10:56:41.82	244.78	57.32	-26.8	-27.9	16.7	0.00e+00	0	44	102	1048576	14	4098
2026-01-25 10:56:42.82	245.59	57.41	-26.9	-28.1	16.6	0.00e+00	0	44	102	1048576	14	4153
2026-01-25 10:56:43.82	246.40	57.49	-27.2	-28.7	16.3	0.00e+00	0	44	102	1048576	14	4308
2026-01-25 10:56:44.83	247.22	57.56	-27.3	-29.1	16.1	0.00e+00	0	44	102	1048576	14	4424
2026-01-25 10:56:45.83	248.04	57.63	-27.8	-29.6	15.5	0.00e+00	0	44	102	1048576	15	4453
2026-01-25 10:56:46.84	248.86	57.69	-27.6	-29.3	15.7	0.00e+00	0	44	102	1048576	15	4350
2026-01-25 10:56:47.84	249.69	57.75	-27.1	-28.1	16.3	0.00e+00	0	43	102	1048576	15	4030
2026-01-25 10:56:48.85	250.53	57.80	-26.7	-27.7	16.8	0.00e+00	0	44	102	1048576	14	4047
2026-01-25 10:56:49.86	251.37	57.84	-26.9	-28.1	16.6	0.00e+00	0	44	102	1048576	14	4141
2026-01-25 10:56:50.87	252.21	57.88	-26.7	-27.6	16.9	0.00e+00	0	44	102	1048576	14	4025
2026-01-25 10:56:51.87	253.04	57.92	-26.7	-27.7	16.9	0.00e+00	0	44	102	1048576	14	4030
2026-01-25 10:56:52.87	253.88	57.95	-26.9	-28.2	16.6	0.00e+00	0	43	102	1048576	14	4165
2026-01-25 10:56:53.87	254.72	57.97	-27.0	-28.3	16.5	0.00e+00	0	43	102	1048576	14	4206
2026-01-25 10:56:54.88	255.57	57.99	-26.8	-28.0	16.7	0.00e+00	0	44	102	1048576	14	4119
2026-01-25 10:56:55.88	256.41	58.00	-27.0	-28.4	16.4	0.00e+00	0	44	102	1048576	14	4224
2026-01-25 10:56:56.89	257.26	58.00	-26.8	-28.0	16.7	0.00e+00	0	44	102	1048576	14	4103
2026-01-25 10:56:57.89	258.10	58.00	-26.9	-28.0	16.6	0.00e+00	0	44	102	1048576	14	4123
2026-01-25 10:56:58.90	258.96	58.00	-27.1	-28.7	16.3	0.00e+00	0	44	102	1048576	14	4290
2026-01-25 10:56:59.90	259.80	57.98	-27.2	-28.8	16.2	0.00e+00	0	44	102	1048576	14	4320
2026-01-25 10:57:00.90	260.64	57.97	-27.2	-28.8	16.3	3.00e-06	0	44	102	1048576	14	4333
2026-01-25 10:57:01.91	261.48	57.94	-27.2	-28.8	16.2	0.00e+00	0	44	102	1048576	14	4328
2026-01-25 10:57:02.91	262.32	57.91	-27.4	-29.2	16.1	0.00e+00	0	44	102	1048576	14	4428
2026-01-25 10:57:03.92	263.17	57.88	-27.2	-28.8	16.3	0.00e+00	0	44	102	1048576	14	4341
2026-01-25 10:57:04.92	264.00	57.84	-27.2	-28.9	16.2	0.00e+00	0	44	102	1048576	14	4354
2026-01-25 10:57:05.93	264.84	57.79	-27.2	-28.8	16.3	0.00e+00	0	44	102	1048576	14	4334
2026-01-25 10:57:06.93	265.67	57.74	-27.4	-29.3	16.0	7.60e-06	0	44	102	1048576	14	4466
2026-01-25 10:57:07.94	266.50	57.68	-27.4	-29.3	16.0	0.00e+00	0	44	102	1048576	14	4465
2026-01-25 10:57:08.94	267.32	57.62	-27.7	-29.4	15.6	0.00e+00	0	44	102	1048576	15	4400
2026-01-25 10:57:09.95	268.14	57.55	-27.8	-29.7	15.5	7.60e-06	0	44	102	1048576	15	4468
2026-01-25 10:57:10.95	268.96	57.48	-27.4	-28.8	16.0	0.00e+00	0	44	102	1048576	15	4226
2026-01-25 10:57:11.96	269.77	57.40	-27.4	-28.7	16.1	0.00e+00	0	44	102	1048576	15	4182
2026-01-25 10:57:12.96	270.57	57.32	-27.4	-28.7	16.1	6.10e-06	0	44	102	1048576	15	4195
2026-01-25 10:57:13.96	271.37	57.23	-27.4	-28.7	16.1	0.00e+00	0	44	102	1048576	15	4209
2026-01-25 10:57:14.96	272.16	57.13	-27.1	-28.2	16.4	0.00e+00	0	44	102	1048576	15	4052
2026-01-25 10:57:15.96	272.95	57.04	-27.4	-28.7	16.0	1.22e-05	0	44	102	1048576	15	4207
2026-01-25 10:57:16.97	273.74	56.93	-27.6	-29.3	15.7	0.00e+00	0	44	102	1048576	15	4373
2026-01-25 10:57:17.97	274.52	56.82	-27.5	-29.0	15.9	0.00e+00	0	44	102	1048576	15	4284
2026-01-25 10:57:18.97	275.29	56.71	-27.3	-28.6	16.1	0.00e+00	0	44	102	1048576	15	4156
2026-01-25 10:57:19.98	276.06	56.59	-27.3	-28.6	16.0	0.00e+00	0	44	102	1048576	15	4172
2026-01-25 10:57:20.99	276.82	56.47	-27.2	-28.3	16.3	0.00e+00	0	44	102	1048576	15	4075
2026-01-25 10:57:21.99	277.57	56.34	-27.5	-29.0	15.9	7.00e-07	0	43	102	1048576	15	4283
2026-01-25 10:57:23.00	278.32	56.21	-27.5	-29.0	15.9	0.00e+00	0	44	102	1048576	15	4266
2026-01-25 10:57:24.01	279.06	56.07	-27.7	-29.5	15.6	0.00e+00	0	44	102	1048576	15	4411
2026-01-25 10:57:25.01	279.79	55.93	-27.7	-29.3	15.7	0.00e+00	0	44	102	1048576	15	4364
2026-01-25 10:57:26.02	280.52	55.79	-27.8	-29.7	15.6	0.00e+00	0	44	102	1048576	15	4480
2026-01-25 10:57:27.02	281.23	55.64	-27.8	-29.7	15.5	0.00e+00	0	44	102	1048576	15	4461
2026-01-25 10:57:28.02	281.93	55.49	-28.6	-30.4	14.8	7.00e-07	0	44	102	1048576	17	4433
2026-01-25 10:57:29.02	282.63	55.33	-28.8	-30.9	14.4	1.50e-06	0	44	102	1048576	17	4602
2026-01-25 10:57:30.03	283.33	55.17	-28.8	-30.9	14.5	1.50e-06	0	44	102	1048576	17	4579
2026-01-25 10:57:31.03	284.01	55.01	-28.9	-31.2	14.3	7.00e-07	0	44	102	1048576	17	4693
2026-01-25 10:57:32.04	284.69	54.84	-28.5	-30.2	14.9	1.50e-06	0	44	102	1048576	17	4381
2026-01-25 10:57:33.04	285.36	54.67	-28.2	-29.5	15.2	0.00e+00	0	44	102	1048576	17	4198
2026-01-25 10:57:34.04	286.02	54.50	-28.0	-29.1	15.5	0.00e+00	0	44	102	1048576	17	4070
2026-01-25 10:57:35.04	286.67	54.33	-28.1	-29.2	15.4	0.00e+00	0	44	102	1048576	17	4110
2026-01-25 10:57:36.05	287.32	54.15	-28.7	-30.7	14.6	7.00e-07	0	44	102	1048576	17	4519
2026-01-25 10:57:37.06	287.96	53.96	-28.6	-30.4	14.8	0.00e+00	0	44	102	1048576	17	4441
2026-01-25 10:57:38.07	288.59	53.78	-28.6	-30.4	14.8	0.00e+00	0	44	102	1048576	17	4432
2026-01-25 10:57:39.08	289.22	53.59	-28.5	-30.1	14.9	7.00e-07	0	44	102	1048576	17	4345
2026-01-25 10:57:40.08	289.83	53.40	-28.6	-30.5	14.7	7.00e-07	0	43	102	1048576	17	4480
2026-01-25 10:57:41.09	290.44	53.21	-28.8	-30.8	14.5	0.00e+00	0	44	102	1048576	17	4561
2026-01-25 10:57:42.08	291.02	53.01	-28.7	-30.6	14.7	0.00e+00	0	44	102	1048576	17	4482
2026-01-25 10:57:43.09	291.62	52.81	-28.7	-30.6	14.7	0.00e+00	0	44	102	1048576	17	4479
2026-01-25 10:57:44.09	292.20	52.62	-28.8	-30.8	14.5	0.00e+00	0	44	102	1048576	17	4536
2026-01-25 10:57:45.09	292.77	52.42	-29.1	-31.2	14.0	3.80e-06	0	44	102	1048576	18	4560
2026-01-25 10:57:46.09	293.33	52.21	-28.9	-30.5	14.4	0.00e+00	0	44	102	1048576	18	4364
2026-01-25 10:57:47.10	293.89	52.01	-28.6	-30.0	14.7	0.00e+00	0	44	102	1048576	18	4204
2026-01-25 10:57:48.11	294.45	51.80	-28.6	-30.0	14.7	0.00e+00	0	43	102	1048576	18	4199
2026-01-25 10:57:49.11	294.99	51.59	-28.7	-30.2	14.6	7.00e-07	0	44	102	1048576	18	4262
2026-01-25 10:57:50.11	295.52	51.38	-28.3	-29.3	15.1	0.00e+00	0	44	102	1048576	18	4019
2026-01-25 10:57:51.12	296.05	51.17	-28.7	-30.2	14.6	0.00e+00	0	44	102	1048576	18	4276
2026-01-25 10:57:52.12	296.57	50.95	-28.9	-30.7	14.3	1.50e-06	0	44	102	1048576	18	4416
2026-01-25 10:57:53.13	297.09	50.74	-29.3	-31.5	13.8	0.00e+00	0	44	102	1048576	18	4664
2026-01-25 10:57:54.13	297.59	50.52	-29.3	-31.6	13.8	3.80e-06	0	44	102	1048576	18	4701
2026-01-25 10:57:55.14	298.09	50.30	-29.6	-31.7	13.5	7.60e-06	0	44	102	1048576	19	4613
2026-01-25 10:57:56.14	298.58	50.08	-30.0	-32.2	12.7	4.19e-05	0	44	102	1048576	20	4682
2026-01-25 10:57:57.15	299.07	49.86	-29.7	-31.5	13.2	3.96e-05	0	44	102	1048576	20	4446
2026-01-25 10:57:58.15	299.55	49.64	-29.5	-31.1	13.4	1.37e-05	0	44	102	1048576	20	4329
2026-01-25 10:57:59.16	300.02	49.42	-29.6	-31.2	13.4	1.14e-05	0	44	102	1048576	20	4346
2026-01-25 10:58:00.16	300.48	49.20	-29.7	-31.6	13.1	2.97e-05	0	44	102	1048576	20	4474
2026-01-25 10:58:01.16	300.94	48.97	-29.6	-31.3	13.3	2.28e-05	0	44	102	1048576	20	4394
2026-01-25 10:58:02.16	301.39	48.75	-29.7	-31.5	13.2	1.37e-05	0	44	102	1048576	20	4430
2026-01-25 10:58:03.17	301.83	48.52	-29.8	-31.8	13.0	2.36e-05	0	44	102	1048576	20	4531
2026-01-25 10:58:04.17	302.27	48.30	-29.8	-31.9	12.9	4.65e-05	0	44	102	1048576	20	4587
2026-01-25 10:58:05.17	302.70	48.07	-30.0	-32.2	12.8	6.33e-05	0	44	102	1048576	20	4671
2026-01-25 10:58:06.18	303.13	47.85	-29.5	-31.1	13.4	1.90e-05	0	44	102	1048576	20	4322
2026-01-25 10:58:07.19	303.55	47.62	-29.3	-31.0	13.7	9.10e-06	0	44	102	1048576	19	4402
2026-01-25 10:58:08.19	303.96	47.39	-29.1	-30.5	14.1	3.00e-06	0	44	102	1048576	19	4254
2026-01-25 10:58:09.19	304.37	47.16	-28.9	-30.2	14.3	1.50e-06	0	44	102	1048576	19	4163
2026-01-25 10:58:10.20	304.77	46.93	-28.9	-30.1	14.4	7.00e-07	0	44	102	1048576	19	4118
2026-01-25 10:58:11.21	305.17	46.70	-28.6	-30.0	14.7	7.00e-07	0	44	102	1048576	18	4198
2026-01-25 10:58:12.21	305.56	46.48	-29.0	-30.7	14.3	5.30e-06	0	44	102	1048576	18	4416
2026-01-25 10:58:13.22	305.95	46.25	-29.5	-31.6	13.6	8.30e-06	0	44	102	1048576	19	4565
2026-01-25 10:58:14.23	306.33	46.02	-30.0	-32.2	12.7	3.05e-05	0	44	102	1048576	20	4682
2026-01-25 10:58:15.23	306.70	45.79	-30.1	-32.5	12.5	9.99e-05	0	44	102	1048576	20	4761
2026-01-25 10:58:16.24	307.07	45.56	-29.9	-32.1	12.7	6.94e-05	0	44	102	1048576	20	4627
2026-01-25 10:58:17.24	307.43	45.33	-29.8	-31.8	12.9	5.26e-05	0	44	102	1048576	20	4524
2026-01-25 10:58:18.25	307.79	45.10	-29.7	-31.5	13.0	3.66e-05	0	44	102	1048576	20	4439
2026-01-25 10:58:19.24	308.14	44.87	-29.7	-31.5	13.1	4.19e-05	0	44	102	1048576	20	4452
2026-01-25 10:58:20.25	308.49	44.64	-29.4	-30.8	13.5	1.44e-05	0	44	102	1048576	20	4233
2026-01-25 10:58:21.25	308.83	44.42	-29.4	-30.8	13.5	1.14e-05	0	44	102	1048576	20	4239
2026-01-25 10:58:22.25	309.17	44.19	-29.6	-31.3	13.3	1.98e-05	0	44	102	1048576	20	4377
2026-01-25 10:58:23.25	309.50	43.96	-29.7	-31.7	13.0	3.05e-05	0	44	102	1048576	20	4499
2026-01-25 10:58:24.26	309.83	43.74	-30.2	-32.7	12.4	1.65e-04	0	44	102	1048576	20	4841
2026-01-25 10:58:25.26	310.15	43.51	-30.2	-32.8	12.3	1.62e-04	0	44	102	1048576	20	4869
2026-01-25 10:58:26.27	310.48	43.28	-30.2	-32.8	12.4	2.17e-04	0	44	102	1048576	20	4852
2026-01-25 10:58:27.27	310.79	43.06	-29.8	-31.7	13.0	5.95e-05	0	44	102	1048576	20	4519
2026-01-25 10:58:28.28	311.10	42.83	-29.6	-31.4	13.1	2.36e-05	0	44	102	1048576	20	4410
2026-01-25 10:58:29.29	311.41	42.60	-29.5	-31.2	13.2	2.74e-05	0	44	102	1048576	20	4351
2026-01-25 10:58:30.29	311.71	42.38	-29.7	-31.5	13.1	2.44e-05	0	44	102	1048576	20	4430
2026-01-25 10:58:31.29	312.01	42.15	-30.0	-32.4	12.6	7.55e-05	0	44	102	1048576	20	4716
2026-01-25 10:58:32.29	312.30	41.93	-30.0	-32.3	12.6	5.79e-05	0	44	102	1048576	20	4697
2026-01-25 10:58:33.30	312.59	41.71	-30.2	-32.8	12.3	2.34e-04	0	44	102	1048576	20	4869
2026-01-25 10:58:34.30	312.88	41.49	-30.0	-32.2	12.7	1.07e-04	0	44	102	1048576	20	4673
2026-01-25 10:58:35.30	313.16	41.26	-29.8	-31.9	12.9	6.56e-05	0	44	102	1048576	20	4574
2026-01-25 10:58:36.31	313.44	41.04	-29.7	-31.6	13.0	4.88e-05	0	44	102	1048576	20	4486
2026-01-25 10:58:37.32	313.72	40.82	-29.7	-31.6	13.1	3.28e-05	0	44	102	1048576	20	4478
2026-01-25 10:58:38.32	313.99	40.60	-29.8	-32.0	12.8	5.41e-05	0	44	102	1048576	20	4599
2026-01-25 10:58:39.32	314.25	40.38	-29.8	-32.0	12.8	5.64e-05	0	44	102	1048576	20	4606
2026-01-25 10:58:40.32	314.52	40.16	-29.8	-31.9	12.9	6.71e-05	0	44	102	1048576	20	4581
2026-01-25 10:58:41.32	314.78	39.95	-29.4	-30.9	13.5	1.67e-05	0	44	102	1048576	20	4273
2026-01-25 10:58:42.32	315.03	39.73	-29.2	-30.8	13.9	3.00e-06	0	44	102	1048576	19	4351
2026-01-25 10:58:43.33	315.29	39.51	-29.1	-30.5	14.1	1.50e-06	0	44	102	1048576	19	4260
2026-01-25 10:58:44.33	315.54	39.30	-29.0	-30.5	14.1	3.80e-06	0	44	102	1048576	19	4239
2026-01-25 10:58:45.33	315.79	39.08	-29.1	-30.7	13.9	4.50e-06	0	44	102	1048576	19	4308
2026-01-25 10:58:46.34	316.03	38.87	-29.3	-31.1	13.7	4.50e-06	0	44	102	1048576	19	4420
2026-01-25 10:58:47.35	316.27	38.65	-29.4	-31.3	13.6	8.30e-06	0	44	102	1048576	19	4478
2026-01-25 10:58:48.35	316.51	38.44	-29.4	-31.4	13.5	9.90e-06	0	44	102	1048576	19	4519
2026-01-25 10:58:49.36	316.75	38.23	-29.3	-31.1	13.7	9.90e-06	0	44	102	1048576	19	4442
2026-01-25 10:58:50.36	316.98	38.02	-29.1	-30.7	14.0	7.60e-06	0	44	102	1048576	19	4302
2026-01-25 10:58:51.37	317.21	37.80	-29.0	-30.3	14.1	3.00e-06	0	44	102	1048576	19	4208
2026-01-25 10:58:52.37	317.43	37.60	-29.1	-30.6	14.0	1.50e-06	0	44	102	1048576	19	4274
2026-01-25 10:58:53.37	317.66	37.39	-28.9	-30.2	14.2	1.50e-06	0	44	102	1048576	19	4185
2026-01-25 10:58:54.38	317.88	37.18	-28.7	-30.3	14.4	0.00e+00	0	44	102	1048576	18	4297
2026-01-25 10:58:55.38	318.09	36.97	-28.6	-30.0	14.6	0.00e+00	0	44	102	1048576	18	4208
2026-01-25 10:58:56.39	318.31	36.77	-28.6	-29.9	14.6	0.00e+00	0	44	102	1048576	18	4197
2026-01-25 10:58:57.39	318.52	36.56	-28.6	-30.0	14.6	0.00e+00	0	44	102	1048576	18	4219
2026-01-25 10:58:58.39	318.73	36.36	-28.5	-29.8	14.7	2.20e-06	0	44	102	1048576	18	4165
2026-01-25 10:58:59.40	318.94	36.15	-28.6	-29.9	14.6	0.00e+00	0	44	102	1048576	18	4200
2026-01-25 10:59:00.41	319.15	35.95	-28.6	-29.9	14.6	0.00e+00	0	44	102	1048576	18	4199
2026-01-25 10:59:01.41	319.35	35.75	-28.6	-30.0	14.6	7.00e-07	0	44	102	1048576	18	4217
2026-01-25 10:59:02.42	319.55	35.55	-28.4	-29.6	14.8	0.00e+00	0	44	102	1048576	18	4118
2026-01-25 10:59:03.42	319.75	35.35	-28.4	-29.6	14.8	0.00e+00	0	44	102	1048576	18	4107
2026-01-25 10:59:04.43	319.94	35.15	-28.5	-29.8	14.7	0.00e+00	0	44	102	1048576	18	4166
2026-01-25 10:59:05.43	320.13	34.95	-28.6	-30.0	14.5	1.50e-06	0	44	102	1048576	18	4237
2026-01-25 10:59:06.44	320.33	34.75	-28.6	-30.0	14.5	7.00e-07	0	44	102	1048576	18	4239
2026-01-25 10:59:07.45	320.52	34.55	-28.7	-30.2	14.4	7.00e-07	0	44	102	1048576	18	4274
2026-01-25 10:59:08.45	320.70	34.36	-28.4	-29.4	14.9	7.00e-07	0	44	102	1048576	18	4061
2026-01-25 10:59:09.46	320.89	34.16	-28.1	-29.3	15.2	0.00e+00	0	44	102	1048576	17	4140
2026-01-25 10:59:10.45	321.06	33.97	-28.1	-29.3	15.2	0.00e+00	0	44	102	1048576	17	4144
2026-01-25 10:59:11.46	321.25	33.78	-28.2	-29.6	15.0	0.00e+00	0	44	102	1048576	17	4229
2026-01-25 10:59:12.46	321.42	33.59	-28.5	-30.4	14.6	0.00e+00	0	44	102	1048576	17	4436
2026-01-25 10:59:13.46	321.60	33.40	-28.8	-31.0	14.2	7.00e-07	0	44	102	1048576	17	4643
2026-01-25 10:59:14.47	321.77	33.21	-29.0	-31.4	14.0	2.20e-06	0	44	102	1048576	17	4763
2026-01-25 10:59:15.47	321.94	33.02	-29.1	-31.3	13.8	9.10e-06	0	44	102	1048576	18	4616
2026-01-25 10:59:16.47	322.11	32.83	-29.1	-31.3	13.8	1.44e-05	0	44	102	1048576	18	4605
2026-01-25 10:59:17.48	322.28	32.64	-28.6	-30.0	14.6	0.00e+00	0	44	102	1048576	18	4218
2026-01-25 10:59:18.49	322.45	32.46	-28.2	-29.6	15.0	0.00e+00	0	44	102	1048576	17	4219
2026-01-25 10:59:19.49	322.61	32.27	-28.0	-29.0	15.3	0.00e+00	0	44	102	1048576	17	4075
2026-01-25 10:59:20.49	322.77	32.09	-27.8	-28.7	15.5	0.00e+00	0	44	102	1048576	17	3987
2026-01-25 10:59:21.49	322.93	31.90	-27.6	-28.7	15.8	0.00e+00	0	44	102	1048576	16	4086
2026-01-25 10:59:22.50	323.09	31.72	-27.4	-28.1	16.1	0.00e+00	0	44	102	1048576	16	3937
2026-01-25 10:59:23.50	323.25	31.54	-27.1	-28.2	16.2	0.00e+00	0	44	102	1048576	15	4052
2026-01-25 10:59:24.51	323.41	31.36	-27.2	-28.2	16.1	0.00e+00	0	44	102	1048576	15	4071
2026-01-25 10:59:25.51	323.56	31.18	-27.1	-28.1	16.2	0.00e+00	0	44	102	1048576	15	4031
2026-01-25 10:59:26.52	323.71	31.00	-27.1	-28.1	16.2	0.00e+00	0	44	102	1048576	15	4050
2026-01-25 10:59:27.52	323.86	30.82	-27.2	-28.3	16.1	0.00e+00	0	44	102	1048576	15	4091
2026-01-25 10:59:28.52	324.01	30.64	-27.2	-28.3	16.1	0.00e+00	0	44	102	1048576	15	4080
2026-01-25 10:59:29.53	324.16	30.47	-27.3	-28.5	16.0	0.00e+00	0	44	102	1048576	15	4139
2026-01-25 10:59:30.53	324.30	30.29	-27.4	-28.8	15.8	0.00e+00	0	44	102	1048576	15	4216
2026-01-25 10:59:31.53	324.45	30.12	-27.6	-29.1	15.6	0.00e+00	0	44	102	1048576	15	4324
2026-01-25 10:59:32.53	324.59	29.94	-27.5	-29.1	15.7	0.00e+00	0	44	102	1048576	15	4318
2026-01-25 10:59:33.54	324.73	29.77	-27.5	-29.1	15.6	0.00e+00	0	44	102	1048576	15	4311
2026-01-25 10:59:34.54	324.87	29.60	-27.5	-28.9	15.7	0.00e+00	0	44	102	1048576	15	4262
2026-01-25 10:59:35.55	325.01	29.43	-27.4	-28.8	15.8	0.00e+00	0	44	102	1048576	15	4224
2026-01-25 10:59:36.56	325.15	29.26	-27.3	-28.6	15.9	0.00e+00	0	44	102	1048576	15	4184
2026-01-25 10:59:37.56	325.28	29.09	-27.5	-29.0	15.7	0.00e+00	0	44	102	1048576	15	4271
2026-01-25 10:59:38.56	325.42	28.92	-27.5	-29.0	15.6	0.00e+00	0	44	102	1048576	15	4281
2026-01-25 10:59:39.57	325.55	28.75	-27.4	-28.8	15.7	0.00e+00	0	44	102	1048576	15	4226
2026-01-25 10:59:40.58	325.68	28.58	-27.3	-28.6	15.9	0.00e+00	0	44	102	1048576	15	4171
2026-01-25 10:59:41.58	325.81	28.42	-27.2	-28.4	16.0	0.00e+00	0	44	102	1048576	15	4128
2026-01-25 10:59:42.59	325.94	28.25	-27.2	-28.5	16.0	0.00e+00	0	44	102	1048576	15	4136
2026-01-25 10:59:43.59	326.07	28.09	-27.2	-28.3	16.0	0.00e+00	0	44	102	1048576	15	4101
2026-01-25 10:59:44.60	326.20	27.92	-27.2	-28.3	16.0	0.00e+00	0	44	102	1048576	15	4107
2026-01-25 10:59:45.61	326.32	27.76	-27.3	-28.6	15.8	0.00e+00	0	44	102	1048576	15	4188
2026-01-25 10:59:46.61	326.44	27.60	-27.3	-28.5	15.9	0.00e+00	0	44	102	1048576	15	4149
2026-01-25 10:59:47.61	326.57	27.44	-27.2	-28.3	16.0	0.00e+00	0	44	102	1048576	15	4089
2026-01-25 10:59:48.62	326.69	27.28	-27.2	-28.4	15.9	0.00e+00	0	44	102	1048576	15	4135
2026-01-25 10:59:49.62	326.81	27.12	-27.2	-28.3	16.0	0.00e+00	0	44	102	1048576	15	4104
2026-01-25 10:59:50.62	326.93	26.96	-27.2	-28.4	16.0	0.00e+00	0	44	102	1048576	15	4116
2026-01-25 10:59:51.62	327.05	26.80	-27.2	-28.3	16.0	0.00e+00	0	44	102	1048576	15	4111
2026-01-25 10:59:52.63	327.16	26.64	-27.2	-28.4	16.0	7.00e-07	0	44	102	1048576	15	4128
2026-01-25 10:59:53.64	327.28	26.49	-27.1	-28.2	16.1	0.00e+00	0	43	102	1048576	15	4063
2026-01-25 10:59:54.64	327.39	26.33	-27.1	-28.2	16.1	0.00e+00	0	44	102	1048576	15	4081
2026-01-25 10:59:55.65	327.51	26.18	-27.1	-28.0	16.1	0.00e+00	0	44	102	1048576	15	4031
2026-01-25 10:59:56.65	327.62	26.02	-27.1	-28.0	16.2	0.00e+00	0	44	102	1048576	15	4030
2026-01-25 10:59:57.66	327.73	25.87	-27.1	-28.2	16.0	0.00e+00	0	44	102	1048576	15	4080
2026-01-25 10:59:58.66	327.84	25.72	-27.1	-28.1	16.1	0.00e+00	0	44	102	1048576	15	4054
2026-01-25 10:59:59.66	327.95	25.57	-27.0	-27.9	16.2	0.00e+00	0	44	102	1048576	15	3987
2026-01-25 11:00:00.66	328.06	25.42	-26.9	-27.7	16.3	0.00e+00	0	44	102	1048576	15	3947
2026-01-25 11:00:01.66	328.17	25.27	-26.8	-27.5	16.4	0.00e+00	0	44	102	1048576	15	3907
2026-01-25 11:00:02.66	328.27	25.12	-26.8	-27.5	16.4	0.00e+00	0	44	102	1048576	15	3894
2026-01-25 11:00:03.66	328.38	24.97	-26.8	-27.4	16.5	0.00e+00	0	44	102	1048576	15	3877
2026-01-25 11:00:04.67	328.48	24.82	-26.8	-28.0	16.4	7.00e-07	0	44	102	1048576	14	4114
2026-01-25 11:00:05.68	328.59	24.67	-26.8	-28.1	16.4	0.00e+00	0	44	102	1048576	14	4143
2026-01-25 11:00:06.68	328.69	24.53	-26.9	-28.1	16.3	0.00e+00	0	44	102	1048576	14	4162
2026-01-25 11:00:07.69	328.79	24.38	-27.1	-28.6	16.1	3.00e-06	0	44	102	1048576	14	4290
2026-01-25 11:00:08.70	328.89	24.23	-27.2	-28.8	16.0	0.00e+00	0	44	102	1048576	14	4352
2026-01-25 11:00:09.71	328.99	24.09	-27.1	-28.7	16.0	0.00e+00	0	44	102	1048576	14	4307
2026-01-25 11:00:10.71	329.09	23.95	-27.2	-28.8	15.9	0.00e+00	0	44	102	1048576	14	4348
2026-01-25 11:00:11.72	329.19	23.80	-27.1	-28.7	16.0	0.00e+00	0	44	102	1048576	14	4329
2026-01-25 11:00:12.73	329.29	23.66	-27.1	-28.6	16.1	0.00e+00	0	44	102	1048576	14	4285
2026-01-25 11:00:13.73	329.39	23.52	-27.2	-28.8	16.0	0.00e+00	0	44	102	1048576	14	4337
2026-01-25 11:00:14.73	329.48	23.38	-27.2	-28.8	16.0	0.00e+00	0	43	102	1048576	14	4335
2026-01-25 11:00:15.73	329.58	23.24	-27.0	-28.5	16.1	0.00e+00	0	44	102	1048576	14	4267
2026-01-25 11:00:16.73	329.67	23.10	-27.0	-28.4	16.1	0.00e+00	0	44	102	1048576	14	4245
2026-01-25 11:00:17.73	329.76	22.96	-27.1	-28.6	16.0	0.00e+00	0	44	102	1048576	14	4301
2026-01-25 11:00:18.74	329.86	22.82	-27.1	-28.6	16.0	0.00e+00	0	44	102	1048576	14	4299
2026-01-25 11:00:19.74	329.95	22.69	-27.2	-28.8	16.0	0.00e+00	0	44	102	1048576	14	4339
2026-01-25 11:00:20.75	330.04	22.55	-27.2	-28.9	15.9	0.00e+00	0	44	102	1048576	14	4378
2026-01-25 11:00:21.75	330.13	22.41	-27.3	-29.1	15.8	0.00e+00	0	44	102	1048576	14	4425
2026-01-25 11:00:22.76	330.22	22.28	-27.2	-29.0	15.8	0.00e+00	0	44	102	1048576	14	4396
2026-01-25 11:00:23.77	330.31	22.14	-27.2	-28.9	15.9	0.00e+00	0	44	102	1048576	14	4363
2026-01-25 11:00:24.78	330.40	22.01	-27.2	-28.9	15.9	0.00e+00	0	44	102	1048576	14	4375
2026-01-25 11:00:25.78	330.49	21.88	-27.4	-29.3	15.7	0.00e+00	0	44	102	1048576	14	4483
2026-01-25 11:00:26.79	330.57	21.74	-27.3	-29.0	15.8	0.00e+00	0	44	102	1048576	14	4407
2026-01-25 11:00:27.79	330.66	21.61	-27.4	-29.3	15.7	0.00e+00	0	44	102	1048576	14	4479
2026-01-25 11:00:28.80	330.74	21.48	-27.2	-29.0	15.8	0.00e+00	0	44	102	1048576	14	4397
2026-01-25 11:00:29.81	330.83	21.35	-27.0	-28.5	16.0	0.00e+00	0	44	102	1048576	14	4273
2026-01-25 11:00:30.81	330.91	21.22	-27.0	-28.4	16.1	0.00e+00	0	44	102	1048576	14	4236
2026-01-25 11:00:31.82	331.00	21.09	-27.0	-28.5	16.1	0.00e+00	0	44	102	1048576	14	4264
2026-01-25 11:00:32.82	331.08	20.96	-27.0	-28.4	16.1	0.00e+00	0	44	102	1048576	14	4239
2026-01-25 11:00:33.82	331.16	20.83	-27.0	-28.4	16.1	0.00e+00	0	44	102	1048576	14	4231
2026-01-25 11:00:34.81	331.24	20.70	-27.0	-28.5	16.1	0.00e+00	0	44	102	1048576	14	4254
2026-01-25 11:00:35.82	331.32	20.58	-27.0	-28.4	16.1	0.00e+00	0	44	102	1048576	14	4246
2026-01-25 11:00:36.82	331.40	20.45	-27.0	-28.4	16.1	0.00e+00	0	44	102	1048576	14	4249
2026-01-25 11:00:37.82	331.48	20.32	-27.0	-28.4	16.1	0.00e+00	0	44	102	1048576	14	4251
2026-01-25 11:00:38.83	331.56	20.20	-27.0	-28.5	16.0	0.00e+00	0	44	102	1048576	14	4274
2026-01-25 11:00:39.83	331.64	20.07	-27.0	-28.4	16.1	0.00e+00	0	44	102	1048576	14	4244
2026-01-25 11:00:40.84	331.72	19.95	-27.0	-28.5	16.0	0.00e+00	0	44	102	1048576	14	4256
2026-01-25 11:00:41.84	331.79	19.83	-27.0	-28.5	16.1	0.00e+00	0	44	102	1048576	14	4257
2026-01-25 11:00:42.85	331.87	19.70	-27.1	-28.6	16.0	0.00e+00	0	44	102	1048576	14	4284
2026-01-25 11:00:43.85	331.95	19.58	-27.0	-28.5	16.0	0.00e+00	0	44	102	1048576	14	4275
2026-01-25 11:00:44.86	332.02	19.46	-27.1	-28.7	15.9	0.00e+00	0	43	102	1048576	14	4327
2026-01-25 11:00:45.87	332.10	19.33	-27.1	-28.8	15.9	0.00e+00	0	44	102	1048576	14	4340
2026-01-25 11:00:46.87	332.17	19.21	-27.2	-28.9	15.8	0.00e+00	0	44	102	1048576	14	4380
2026-01-25 11:00:47.87	332.24	19.09	-27.2	-28.9	15.8	0.00e+00	0	43	102	1048576	14	4389
2026-01-25 11:00:48.87	332.32	18.98	-27.3	-29.2	15.6	0.00e+00	0	44	102	1048576	14	4450
2026-01-25 11:00:49.87	332.39	18.86	-27.3	-29.1	15.7	0.00e+00	0	44	102	1048576	14	4438
2026-01-25 11:00:50.87	332.46	18.74	-27.4	-29.4	15.5	0.00e+00	0	44	102	1048576	14	4522
2026-01-25 11:00:51.88	332.53	18.62	-27.4	-29.3	15.5	0.00e+00	0	44	102	1048576	14	4497
2026-01-25 11:00:52.88	332.60	18.50	-27.5	-29.5	15.4	0.00e+00	0	43	102	1048576	14	4560
2026-01-25 11:00:53.88	332.67	18.39	-27.5	-29.1	15.4	0.00e+00	0	44	102	1048576	15	4318
2026-01-25 11:00:54.88	332.74	18.27	-27.5	-29.1	15.3	0.00e+00	0	44	102	1048576	15	4331
2026-01-25 11:00:55.89	332.81	18.15	-27.5	-29.2	15.3	0.00e+00	0	44	102	1048576	15	4342
2026-01-25 11:00:56.90	332.88	18.04	-27.6	-29.4	15.2	0.00e+00	0	43	102	1048576	15	4415
2026-01-25 11:00:57.90	332.95	17.92	-27.6	-29.4	15.2	0.00e+00	0	44	102	1048576	15	4400
2026-01-25 11:00:58.90	333.02	17.81	-27.7	-29.6	15.0	0.00e+00	0	44	102	1048576	15	4480
2026-01-25 11:00:59.91	333.09	17.69	-27.7	-29.6	15.1	0.00e+00	0	44	102	1048576	15	4474
2026-01-25 11:01:00.91	333.15	17.58	-27.8	-29.8	14.9	7.00e-07	0	43	102	1048576	15	4535
2026-01-25 11:01:01.92	333.22	17.47	-27.8	-29.8	14.9	0.00e+00	0	44	102	1048576	15	4515
2026-01-25 11:01:02.92	333.29	17.35	-27.9	-30.1	14.8	0.00e+00	0	44	102	1048576	15	4604
2026-01-25 11:01:03.92	333.35	17.24	-27.9	-30.0	14.8	3.00e-06	0	44	102	1048576	15	4576
2026-01-25 11:01:04.93	333.42	17.13	-28.0	-30.2	14.7	0.00e+00	0	44	102	1048576	15	4657
2026-01-25 11:01:05.93	333.48	17.02	-28.2	-30.2	14.6	7.00e-07	0	44	102	1048576	16	4514
2026-01-25 11:01:06.93	333.55	16.91	-28.2	-30.1	14.6	7.00e-07	0	44	102	1048576	16	4497
2026-01-25 11:01:07.94	333.61	16.80	-28.3	-30.4	14.5	7.00e-07	0	44	102	1048576	16	4576
2026-01-25 11:01:08.94	333.67	16.69	-28.2	-30.2	14.6	7.00e-07	0	44	102	1048576	16	4512
2026-01-25 11:01:09.94	333.74	16.58	-28.3	-30.3	14.5	0.00e+00	0	44	102	1048576	16	4563
2026-01-25 11:01:10.95	333.80	16.47	-28.4	-30.7	14.3	0.00e+00	0	44	102	1048576	16	4675
2026-01-25 11:01:11.95	333.86	16.36	-28.3	-30.4	14.4	0.00e+00	0	43	102	1048576	16	4589
2026-01-25 11:01:12.96	333.92	16.25	-28.2	-30.2	14.6	7.00e-07	0	44	102	1048576	16	4521
2026-01-25 11:01:13.96	333.98	16.15	-28.2	-30.1	14.6	1.50e-06	0	44	102	1048576	16	4494
2026-01-25 11:01:14.96	334.05	16.04	-28.3	-30.4	14.4	0.00e+00	0	44	102	1048576	16	4577
2026-01-25 11:01:15.96	334.11	15.93	-28.2	-30.2	14.6	0.00e+00	0	44	102	1048576	16	4517
2026-01-25 11:01:16.97	334.17	15.83	-28.2	-30.2	14.5	7.00e-07	0	44	102	1048576	16	4524
2026-01-25 11:01:17.97	334.23	15.72	-28.4	-30.6	14.3	7.00e-07	0	44	102	1048576	16	4635
2026-01-25 11:01:18.97	334.28	15.62	-28.2	-30.2	14.6	1.50e-06	0	44	102	1048576	16	4517
2026-01-25 11:01:19.98	334.34	15.51	-28.1	-29.9	14.7	0.00e+00	0	44	102	1048576	16	4443
2026-01-25 11:01:20.98	334.40	15.41	-28.0	-29.7	14.8	0.00e+00	0	44	102	1048576	16	4379
2026-01-25 11:01:21.98	334.46	15.30	-28.1	-29.9	14.7	7.00e-07	0	44	102	1048576	16	4429
2026-01-25 11:01:22.99	334.52	15.20	-28.0	-29.8	14.8	0.00e+00	0	44	102	1048576	16	4408
2026-01-25 11:01:23.99	334.58	15.09	-28.1	-30.0	14.6	7.00e-07	0	44	102	1048576	16	4476
2026-01-25 11:01:24.99	334.63	14.99	-28.1	-30.0	14.6	1.50e-06	0	44	102	1048576	16	4461
2026-01-25 11:01:26.00	334.69	14.89	-28.2	-30.1	14.6	7.00e-07	0	44	102	1048576	16	4499
2026-01-25 11:01:27.00	334.75	14.79	-28.2	-30.1	14.5	0.00e+00	0	44	102	1048576	16	4511
2026-01-25 11:01:28.00	334.80	14.69	-28.3	-30.3	14.4	1.50e-06	0	44	102	1048576	16	4573
2026-01-25 11:01:29.01	334.86	14.59	-28.2	-30.3	14.4	7.00e-07	0	44	102	1048576	16	4545
2026-01-25 11:01:30.01	334.91	14.48	-28.3	-30.5	14.3	7.00e-07	0	44	102	1048576	16	4615
2026-01-25 11:01:31.02	334.97	14.38	-28.4	-30.6	14.2	7.00e-07	0	44	102	1048576	16	4669
2026-01-25 11:01:32.02	335.02	14.28	-28.4	-30.6	14.2	7.00e-07	0	44	102	1048576	16	4644
2026-01-25 11:01:33.03	335.08	14.18	-28.4	-30.7	14.2	7.00e-07	0	44	102	1048576	16	4680
2026-01-25 11:01:34.04	335.13	14.08	-28.4	-30.6	14.2	2.20e-06	0	44	102	1048576	16	4666
2026-01-25 11:01:35.04	335.19	13.99	-28.4	-30.8	14.1	7.00e-07	0	44	102	1048576	16	4706
2026-01-25 11:01:36.05	335.24	13.89	-28.4	-30.6	14.2	7.00e-07	0	44	102	1048576	16	4666
2026-01-25 11:01:37.05	335.29	13.79	-28.5	-30.9	14.0	7.00e-07	0	44	102	1048576	16	4744
2026-01-25 11:01:38.05	335.34	13.69	-28.3	-30.6	14.2	7.00e-07	0	44	102	1048576	16	4646
2026-01-25 11:01:39.06	335.40	13.59	-28.3	-30.4	14.3	1.50e-06	0	44	102	1048576	16	4593
2026-01-25 11:01:40.07	335.45	13.50	-28.3	-30.4	14.3	0.00e+00	0	44	102	1048576	16	4598
2026-01-25 11:01:41.07	335.50	13.40	-28.2	-30.3	14.4	0.00e+00	0	44	102	1048576	16	4560
2026-01-25 11:01:42.07	335.55	13.30	-28.2	-30.3	14.4	1.50e-06	0	44	102	1048576	16	4556
2026-01-25 11:01:43.07	335.60	13.21	-28.4	-30.6	14.1	5.30e-06	0	44	102	1048576	16	4661
2026-01-25 11:01:44.07	335.65	13.11	-28.4	-30.8	14.1	7.00e-07	0	44	102	1048576	16	4721
2026-01-25 11:01:45.07	335.70	13.02	-28.3	-30.5	14.2	7.00e-07	0	44	102	1048576	16	4621
2026-01-25 11:01:46.07	335.75	12.92	-28.4	-30.7	14.1	7.00e-07	0	44	102	1048576	16	4689
2026-01-25 11:01:47.08	335.81	12.83	-28.3	-30.6	14.2	0.00e+00	0	44	102	1048576	16	4653
2026-01-25 11:01:48.08	335.85	12.74	-28.4	-30.7	14.0	7.00e-07	0	43	102	1048576	16	4708
2026-01-25 11:01:49.09	335.90	12.64	-28.3	-30.5	14.2	1.50e-06	0	44	102	1048576	16	4638
2026-01-25 11:01:50.09	335.95	12.55	-28.5	-30.9	13.9	7.00e-07	0	44	102	1048576	16	4747
2026-01-25 11:01:51.10	336.00	12.45	-28.4	-30.1	14.1	7.00e-07	0	44	102	1048576	17	4399
2026-01-25 11:01:52.10	336.05	12.36	-28.2	-29.7	14.4	7.00e-07	0	44	102	1048576	17	4270
2026-01-25 11:01:53.10	336.10	12.27	-28.1	-29.6	14.4	7.00e-07	0	44	102	1048576	17	4251
2026-01-25 11:01:54.10	336.15	12.18	-28.2	-29.7	14.3	0.00e+00	0	44	102	1048576	17	4291
2026-01-25 11:01:55.11	336.19	12.09	-28.2	-29.6	14.4	7.00e-07	0	44	102	1048576	17	4256
2026-01-25 11:01:56.12	336.24	11.99	-28.2	-29.8	14.3	1.50e-06	0	44	102	1048576	17	4321
2026-01-25 11:01:57.12	336.29	11.90	-28.3	-30.0	14.1	2.20e-06	0	44	102	1048576	17	4382
2026-01-25 11:01:58.12	336.34	11.81	-28.2	-29.8	14.3	1.50e-06	0	44	102	1048576	17	4310
2026-01-25 11:01:59.13	336.38	11.72	-28.3	-30.0	14.1	2.20e-06	0	44	102	1048576	17	4392
2026-01-25 11:02:00.13	336.43	11.63	-28.3	-30.1	14.1	3.00e-06	0	44	102	1048576	17	4394
2026-01-25 11:02:01.14	336.48	11.54	-28.3	-30.1	14.1	2.20e-06	0	44	102	1048576	17	4396
2026-01-25 11:02:02.14	336.52	11.45	-28.4	-30.2	14.0	3.00e-06	0	44	102	1048576	17	4439
2026-01-25 11:02:03.14	336.57	11.36	-28.3	-30.0	14.1	2.20e-06	0	44	102	1048576	17	4389
2026-01-25 11:02:04.14	336.61	11.28	-28.4	-30.2	14.0	3.80e-06	0	44	102	1048576	17	4441
2026-01-25 11:02:05.15	336.66	11.19	-28.4	-30.2	14.0	1.50e-06	0	44	102	1048576	17	4437
2026-01-25 11:02:06.15	336.70	11.10	-28.4	-30.3	13.9	3.00e-06	0	44	102	1048576	17	4472
2026-01-25 11:02:07.15	336.75	11.01	-28.6	-30.6	13.7	3.80e-06	0	44	102	1048576	17	4581
2026-01-25 11:02:08.15	336.79	10.92	-28.4	-30.3	13.9	4.50e-06	0	44	102	1048576	17	4490
2026-01-25 11:02:09.16	336.84	10.84	-28.5	-30.5	13.7	3.80e-06	0	44	102	1048576	17	4531
2026-01-25 11:02:10.17	336.88	10.75	-28.5	-30.5	13.8	3.80e-06	0	44	102	1048576	17	4528
2026-01-25 11:02:11.17	336.92	10.66	-28.5	-30.6	13.7	3.00e-06	0	44	102	1048576	17	4559
2026-01-25 11:02:12.17	336.97	10.58	-28.5	-30.6	13.7	3.80e-06	0	44	102	1048576	17	4568
2026-01-25 11:02:13.18	337.01	10.49	-28.6	-30.8	13.6	5.30e-06	0	44	102	1048576	17	4619
2026-01-25 11:02:14.18	337.05	10.40	-28.6	-30.6	13.7	8.30e-06	0	44	102	1048576	17	4577
2026-01-25 11:02:15.19	337.10	10.32	-28.5	-30.6	13.7	6.80e-06	0	44	102	1048576	17	4563
2026-01-25 11:02:16.19	337.14	10.23	-28.6	-30.8	13.5	1.67e-05	0	44	102	1048576	17	4645
2026-01-25 11:02:17.19	337.18	10.15	-28.6	-30.8	13.5	7.60e-06	0	44	102	1048576	17	4630
2026-01-25 11:02:18.20	337.22	10.06	-28.7	-31.0	13.4	1.14e-05	0	44	102	1048576	17	4701
2026-01-25 11:02:19.20	337.27	9.98	-28.7	-30.9	13.5	1.06e-05	0	44	102	1048576	17	4670
2026-01-25 11:02:20.21	337.31	9.89	-28.7	-31.1	13.4	1.52e-05	0	44	102	1048576	17	4722
2026-01-25 11:02:21.22	337.35	9.81	-29.0	-31.7	13.0	3.96e-05	0	44	102	1048576	17	4922
2026-01-25 11:02:22.22	337.39	9.73	-29.1	-31.5	12.8	4.34e-05	0	44	102	1048576	18	4738
2026-01-25 11:02:23.22	337.43	9.64	-29.2	-31.7	12.7	9.30e-05	0	44	102	1048576	18	4809
2026-01-25 11:02:24.23	337.47	9.56	-29.1	-31.3	12.9	5.18e-05	0	44	102	1048576	18	4688
2026-01-25 11:02:25.23	337.51	9.48	-29.0	-31.2	13.0	4.34e-05	0	44	102	1048576	18	4655
2026-01-25 11:02:26.23	337.55	9.39	-29.0	-31.3	12.9	6.17e-05	0	44	102	1048576	18	4683
2026-01-25 11:02:27.23	337.59	9.31	-29.1	-31.4	12.8	6.48e-05	0	44	102	1048576	18	4695
2026-01-25 11:02:28.23	337.63	9.23	-28.9	-31.1	13.0	4.34e-05	0	44	102	1048576	18	4601
2026-01-25 11:02:29.24	337.67	9.15	-28.9	-30.9	13.1	2.36e-05	0	43	102	1048576	18	4548
