passes_logs/2026/01/25/R2M6_AANII_01/R2M6_AANII_01__20260125_094034_SUOMI_NPP_rec.log

#Pass ID: 20260125_094034_SUOMI NPP
#Satellite: SUOMI NPP
#Configuration: NPP
#almurnet v.1.7.20240730
#Start time: 2026-01-25 09:40:33

#Version: 2.2.20231116
#Station: R2M6_AANII_01
#Location: 30.233357 lon 59.946436 lat
#TLE: 1 37849U 11061A   26024.54906732  .00000185  00000+0  10878-3 0  9990
#TLE: 2 37849  98.7821 326.5159 0002200  47.3746 312.7615 14.19529340738061

#Time	Az	El	Level	Level2	SNR	BER	BlckErr	Temp	State	Recorded	gain1	gain2
2026-01-25 09:40:33.60	137.91	6.94	-31.0	-35.4	4.9	1.31e+00	0	41	0	0	23	5982
2026-01-25 09:40:34.60	137.87	7.02	-31.1	-35.6	4.9	1.31e+00	0	41	104	0	23	6047
2026-01-25 09:40:35.60	137.84	7.10	-31.1	-35.7	7.5	1.27e-01	0	41	0	0	23	6097
2026-01-25 09:40:36.60	137.80	7.17	-31.0	-35.5	7.6	9.66e-02	0	41	102	1048576	23	5990
2026-01-25 09:40:37.61	137.77	7.25	-31.0	-35.5	7.6	8.44e-02	0	41	102	1048576	23	6031
2026-01-25 09:40:38.61	137.73	7.33	-30.9	-35.2	7.7	9.31e-02	0	41	102	1048576	23	5910
2026-01-25 09:40:39.61	137.70	7.40	-30.8	-34.8	8.0	7.75e-02	0	41	102	1048576	23	5704
2026-01-25 09:40:40.61	137.66	7.48	-30.8	-35.4	7.9	7.18e-02	0	41	102	1048576	22	6139
2026-01-25 09:40:41.61	137.63	7.56	-30.8	-35.5	7.9	6.59e-02	0	41	102	1048576	22	6191
2026-01-25 09:40:42.62	137.59	7.63	-30.9	-36.2	7.2	7.90e-02	0	41	102	1048576	22	6668
2026-01-25 09:40:43.63	137.56	7.71	-30.9	-36.6	7.0	1.72e-01	0	41	102	1048576	22	6880
2026-01-25 09:40:44.63	137.52	7.79	-30.8	-35.8	7.6	1.08e-01	0	42	102	1048576	22	6385
2026-01-25 09:40:45.64	137.48	7.87	-30.7	-35.2	8.1	6.83e-02	0	42	102	1048576	22	6041
2026-01-25 09:40:46.65	137.45	7.95	-30.6	-34.5	8.6	3.91e-02	0	41	102	1048576	22	5677
2026-01-25 09:40:47.65	137.41	8.03	-30.4	-33.5	9.4	2.45e-02	0	41	102	1048576	22	5189
2026-01-25 09:40:48.66	137.37	8.11	-30.3	-33.1	9.9	1.08e-02	0	42	102	1048576	22	4975
2026-01-25 09:40:49.66	137.34	8.19	-30.1	-32.8	10.5	7.94e-03	0	42	102	1048576	21	4913
2026-01-25 09:40:50.66	137.30	8.27	-29.8	-31.8	11.3	1.99e-03	0	42	102	1048576	21	4529
2026-01-25 09:40:51.66	137.26	8.35	-29.7	-31.8	11.7	9.54e-04	0	42	102	1048576	20	4597
2026-01-25 09:40:52.67	137.22	8.43	-29.5	-31.2	12.1	3.70e-04	0	42	102	1048576	20	4370
2026-01-25 09:40:53.67	137.18	8.51	-29.4	-30.9	12.4	1.42e-04	0	42	102	1048576	20	4237
2026-01-25 09:40:54.68	137.15	8.59	-29.4	-30.6	12.6	9.91e-05	0	42	102	1048576	20	4157
2026-01-25 09:40:55.68	137.11	8.67	-29.3	-30.8	13.0	8.23e-05	0	42	102	1048576	19	4282
2026-01-25 09:40:56.69	137.07	8.75	-29.2	-30.7	13.0	3.43e-05	0	42	102	1048576	19	4248
2026-01-25 09:40:57.69	137.03	8.83	-29.2	-30.5	13.2	1.67e-05	0	42	102	1048576	19	4182
2026-01-25 09:40:58.70	136.99	8.91	-29.3	-30.8	13.0	2.28e-05	0	42	102	1048576	19	4272
2026-01-25 09:40:59.70	136.95	8.99	-29.5	-31.4	12.6	9.07e-05	0	42	102	1048576	19	4473
2026-01-25 09:41:00.70	136.91	9.08	-29.6	-31.8	12.3	1.17e-04	0	42	102	1048576	19	4640
2026-01-25 09:41:01.71	136.87	9.16	-29.7	-32.1	12.1	2.34e-04	0	42	102	1048576	19	4741
2026-01-25 09:41:02.71	136.83	9.24	-29.9	-32.8	11.6	3.49e-04	0	42	102	1048576	19	5026
2026-01-25 09:41:03.71	136.79	9.32	-30.0	-32.5	11.3	1.32e-03	0	42	102	1048576	20	4834
2026-01-25 09:41:04.71	136.75	9.41	-30.1	-32.8	11.1	1.42e-03	0	42	102	1048576	20	4947
2026-01-25 09:41:05.71	136.71	9.49	-30.2	-33.3	10.8	1.74e-03	0	42	102	1048576	20	5143
2026-01-25 09:41:06.72	136.67	9.57	-30.2	-33.4	10.8	2.65e-03	0	42	102	1048576	20	5160
2026-01-25 09:41:07.72	136.62	9.66	-30.1	-32.8	11.2	1.70e-03	0	42	102	1048576	20	4927
2026-01-25 09:41:08.73	136.58	9.74	-30.0	-32.5	11.4	9.51e-04	0	42	102	1048576	20	4803
2026-01-25 09:41:09.73	136.54	9.83	-30.0	-32.4	11.6	8.80e-04	0	42	102	1048576	20	4754
2026-01-25 09:41:10.73	136.50	9.91	-29.7	-31.5	12.2	2.75e-04	0	42	102	1048576	20	4418
2026-01-25 09:41:11.73	136.46	10.00	-29.3	-30.4	13.0	7.40e-05	0	42	102	1048576	20	4052
2026-01-25 09:41:12.74	136.41	10.08	-29.3	-30.2	13.1	3.28e-05	0	42	102	1048576	20	3996
2026-01-25 09:41:13.73	136.37	10.17	-29.1	-30.2	13.6	7.60e-06	0	42	102	1048576	19	4075
2026-01-25 09:41:14.72	136.33	10.25	-29.2	-30.3	13.5	3.00e-06	0	42	102	1048576	19	4105
2026-01-25 09:41:15.73	136.28	10.34	-29.3	-30.8	13.2	1.37e-05	0	42	102	1048576	19	4250
2026-01-25 09:41:16.74	136.24	10.42	-29.4	-31.1	13.0	3.28e-05	0	42	102	1048576	19	4352
2026-01-25 09:41:17.75	136.19	10.51	-29.6	-31.6	12.7	6.56e-05	0	42	102	1048576	19	4518
2026-01-25 09:41:18.75	136.15	10.60	-29.9	-32.4	12.1	2.02e-04	0	42	102	1048576	19	4805
2026-01-25 09:41:19.76	136.10	10.69	-30.1	-32.6	11.6	2.89e-04	0	42	102	1048576	20	4800
2026-01-25 09:41:20.76	136.06	10.77	-30.1	-32.7	11.4	9.01e-04	0	42	102	1048576	20	4861
2026-01-25 09:41:21.77	136.01	10.86	-30.0	-32.5	11.6	8.22e-04	0	42	102	1048576	20	4777
2026-01-25 09:41:22.77	135.97	10.95	-30.1	-32.6	11.5	9.31e-04	0	43	102	1048576	20	4807
2026-01-25 09:41:23.78	135.92	11.04	-29.8	-31.9	12.1	3.04e-04	0	42	102	1048576	20	4551
2026-01-25 09:41:24.78	135.88	11.13	-29.5	-31.0	12.6	9.99e-05	0	43	102	1048576	20	4280
2026-01-25 09:41:25.78	135.83	11.22	-29.4	-30.5	13.0	8.01e-05	0	43	102	1048576	20	4110
2026-01-25 09:41:26.79	135.78	11.31	-29.3	-30.3	13.2	2.89e-05	0	42	102	1048576	20	4031
2026-01-25 09:41:27.79	135.74	11.40	-29.1	-30.2	13.7	1.22e-05	0	42	102	1048576	19	4074
2026-01-25 09:41:28.79	135.69	11.49	-28.9	-29.5	14.1	2.20e-06	0	42	102	1048576	19	3886
2026-01-25 09:41:29.79	135.64	11.58	-28.7	-29.7	14.3	2.20e-06	0	43	102	1048576	18	4030
2026-01-25 09:41:30.79	135.59	11.67	-28.9	-30.0	14.2	2.20e-06	0	43	102	1048576	18	4086
2026-01-25 09:41:31.80	135.54	11.76	-29.1	-30.7	13.8	7.00e-07	0	43	102	1048576	18	4298
2026-01-25 09:41:32.80	135.50	11.85	-29.2	-30.8	13.7	9.10e-06	0	42	102	1048576	18	4335
2026-01-25 09:41:33.81	135.45	11.94	-29.4	-31.4	13.2	1.52e-05	0	42	102	1048576	18	4542
2026-01-25 09:41:34.81	135.40	12.03	-29.7	-31.7	12.7	3.96e-05	0	43	102	1048576	19	4548
2026-01-25 09:41:35.82	135.35	12.13	-30.0	-32.6	12.1	1.43e-04	0	43	102	1048576	19	4881
2026-01-25 09:41:36.82	135.30	12.22	-29.9	-32.6	12.1	2.28e-04	0	43	102	1048576	19	4861
2026-01-25 09:41:37.82	135.25	12.31	-29.9	-31.9	12.2	2.49e-04	0	43	102	1048576	20	4543
2026-01-25 09:41:38.83	135.20	12.40	-29.7	-31.5	12.4	2.40e-04	0	43	102	1048576	20	4409
2026-01-25 09:41:39.84	135.15	12.50	-29.7	-31.3	12.6	1.01e-04	0	43	102	1048576	20	4346
2026-01-25 09:41:40.84	135.09	12.59	-29.6	-31.0	12.9	6.02e-05	0	43	102	1048576	20	4224
2026-01-25 09:41:41.84	135.04	12.69	-29.7	-31.2	12.7	6.17e-05	0	43	102	1048576	20	4280
2026-01-25 09:41:42.84	134.99	12.78	-29.4	-30.4	13.3	3.89e-05	0	43	102	1048576	20	4018
2026-01-25 09:41:43.84	134.94	12.87	-29.3	-30.4	13.7	6.80e-06	0	43	102	1048576	19	4112
2026-01-25 09:41:44.84	134.89	12.97	-28.9	-29.6	14.2	7.00e-07	0	43	102	1048576	19	3863
2026-01-25 09:41:45.85	134.83	13.07	-28.9	-29.4	14.3	0.00e+00	0	43	102	1048576	19	3822
2026-01-25 09:41:46.85	134.78	13.16	-29.0	-29.8	14.1	2.20e-06	0	43	102	1048576	19	3931
2026-01-25 09:41:47.86	134.73	13.26	-29.3	-30.4	13.7	3.80e-06	0	43	102	1048576	19	4089
2026-01-25 09:41:48.86	134.67	13.35	-29.4	-30.7	13.5	3.80e-06	0	43	102	1048576	19	4207
2026-01-25 09:41:49.87	134.62	13.45	-29.6	-31.2	13.2	2.82e-05	0	43	102	1048576	19	4370
2026-01-25 09:41:50.87	134.56	13.55	-29.7	-31.6	12.9	4.11e-05	0	43	102	1048576	19	4497
2026-01-25 09:41:51.88	134.51	13.65	-29.9	-32.3	12.4	1.07e-04	0	43	102	1048576	19	4738
2026-01-25 09:41:52.88	134.45	13.75	-29.7	-31.7	12.8	7.01e-05	0	43	102	1048576	19	4540
2026-01-25 09:41:53.88	134.39	13.84	-29.5	-31.2	13.1	6.56e-05	0	43	102	1048576	19	4370
2026-01-25 09:41:54.88	134.34	13.94	-29.4	-30.8	13.4	2.89e-05	0	43	102	1048576	19	4257
2026-01-25 09:41:55.89	134.28	14.04	-29.3	-30.6	13.5	1.14e-05	0	43	102	1048576	19	4176
2026-01-25 09:41:56.89	134.22	14.14	-29.4	-30.9	13.3	1.22e-05	0	43	102	1048576	19	4265
2026-01-25 09:41:57.90	134.17	14.24	-29.2	-30.4	13.6	9.10e-06	0	43	102	1048576	19	4142
2026-01-25 09:41:58.90	134.11	14.34	-29.3	-30.7	13.5	1.14e-05	0	43	102	1048576	19	4224
2026-01-25 09:41:59.91	134.05	14.44	-29.5	-31.3	13.0	6.80e-06	0	43	102	1048576	19	4425
2026-01-25 09:42:00.91	133.99	14.54	-29.6	-31.5	12.9	3.35e-05	0	43	102	1048576	19	4508
2026-01-25 09:42:01.92	133.93	14.65	-29.5	-31.4	13.0	6.40e-05	0	43	102	1048576	19	4474
2026-01-25 09:42:02.92	133.87	14.75	-29.5	-31.2	13.1	5.72e-05	0	43	102	1048576	19	4421
2026-01-25 09:42:03.92	133.81	14.85	-29.6	-31.5	12.9	4.95e-05	0	43	102	1048576	19	4502
2026-01-25 09:42:04.92	133.75	14.95	-29.5	-31.3	13.2	3.58e-05	0	43	102	1048576	19	4414
2026-01-25 09:42:05.93	133.69	15.06	-29.3	-30.6	13.6	1.44e-05	0	43	102	1048576	19	4178
2026-01-25 09:42:06.93	133.63	15.16	-29.3	-30.3	13.9	7.60e-06	0	43	102	1048576	19	4071
2026-01-25 09:42:07.94	133.57	15.26	-29.3	-30.3	14.0	4.50e-06	0	43	102	1048576	19	4051
2026-01-25 09:42:08.95	133.50	15.37	-28.9	-29.2	14.7	0.00e+00	0	43	102	1048576	19	3737
2026-01-25 09:42:09.95	133.44	15.47	-28.9	-29.3	14.6	0.00e+00	0	43	102	1048576	19	3748
2026-01-25 09:42:10.96	133.38	15.58	-29.0	-29.4	14.6	7.00e-07	0	43	102	1048576	19	3786
2026-01-25 09:42:11.96	133.31	15.68	-29.0	-29.5	14.5	0.00e+00	0	43	102	1048576	19	3817
2026-01-25 09:42:12.96	133.25	15.79	-29.3	-30.3	14.1	7.00e-07	0	43	102	1048576	19	4018
2026-01-25 09:42:13.96	133.18	15.90	-29.5	-30.7	13.8	3.80e-06	0	43	102	1048576	19	4141
2026-01-25 09:42:14.97	133.12	16.00	-29.6	-31.0	13.6	6.80e-06	0	43	102	1048576	19	4229
2026-01-25 09:42:15.97	133.05	16.11	-29.7	-31.4	13.4	1.37e-05	0	43	102	1048576	19	4362
2026-01-25 09:42:16.97	132.99	16.22	-29.8	-31.7	13.2	1.83e-05	0	43	102	1048576	19	4458
2026-01-25 09:42:17.97	132.92	16.33	-29.6	-31.2	13.4	1.60e-05	0	43	102	1048576	19	4334
2026-01-25 09:42:18.98	132.85	16.44	-29.5	-31.0	13.6	9.10e-06	0	43	102	1048576	19	4254
2026-01-25 09:42:19.98	132.78	16.54	-29.6	-31.2	13.5	1.90e-05	0	43	102	1048576	19	4325
2026-01-25 09:42:20.99	132.72	16.65	-29.4	-30.6	13.9	1.06e-05	0	43	102	1048576	19	4137
2026-01-25 09:42:22.00	132.65	16.77	-29.2	-30.1	14.3	7.00e-07	0	43	102	1048576	19	3971
2026-01-25 09:42:23.00	132.58	16.88	-29.4	-30.6	13.9	7.00e-07	0	43	102	1048576	19	4119
2026-01-25 09:42:24.01	132.51	16.99	-29.5	-30.8	13.8	2.20e-06	0	43	102	1048576	19	4185
2026-01-25 09:42:25.02	132.44	17.10	-29.7	-31.2	13.6	4.50e-06	0	43	102	1048576	19	4299
2026-01-25 09:42:26.02	132.37	17.21	-29.8	-31.6	13.4	1.22e-05	0	43	102	1048576	19	4402
2026-01-25 09:42:27.03	132.29	17.32	-30.0	-32.0	13.1	2.51e-05	0	43	102	1048576	19	4532
2026-01-25 09:42:28.03	132.22	17.44	-29.9	-31.8	13.2	2.82e-05	0	43	102	1048576	19	4471
2026-01-25 09:42:29.03	132.15	17.55	-29.9	-31.7	13.3	1.60e-05	0	43	102	1048576	19	4456
2026-01-25 09:42:30.03	132.08	17.66	-29.8	-31.5	13.4	2.36e-05	0	43	102	1048576	19	4381
2026-01-25 09:42:31.04	132.00	17.78	-29.8	-31.5	13.4	1.75e-05	0	43	102	1048576	19	4398
2026-01-25 09:42:32.03	131.93	17.89	-29.6	-31.0	13.7	5.30e-06	0	43	102	1048576	19	4249
2026-01-25 09:42:33.03	131.85	18.01	-29.5	-30.8	13.9	3.00e-06	0	43	102	1048576	19	4163
2026-01-25 09:42:34.02	131.78	18.12	-29.7	-31.2	13.7	4.50e-06	0	43	102	1048576	19	4284
2026-01-25 09:42:35.03	131.70	18.24	-29.6	-30.9	13.8	3.80e-06	0	43	102	1048576	19	4208
2026-01-25 09:42:36.02	131.63	18.35	-29.7	-31.2	13.7	4.50e-06	0	43	102	1048576	19	4276
2026-01-25 09:42:37.03	131.55	18.47	-29.8	-31.5	13.5	4.50e-06	0	43	102	1048576	19	4395
2026-01-25 09:42:38.04	131.47	18.59	-29.9	-31.7	13.4	6.80e-06	0	43	102	1048576	19	4432
2026-01-25 09:42:39.04	131.39	18.71	-30.0	-31.6	13.0	3.12e-05	0	43	102	1048576	20	4342
2026-01-25 09:42:40.04	131.31	18.82	-29.8	-31.1	13.4	2.05e-05	0	43	102	1048576	20	4183
2026-01-25 09:42:41.05	131.23	18.94	-29.9	-31.4	13.2	1.83e-05	0	43	102	1048576	20	4276
2026-01-25 09:42:42.05	131.15	19.06	-30.1	-31.9	12.9	3.50e-05	0	43	102	1048576	20	4420
2026-01-25 09:42:43.06	131.07	19.18	-29.7	-30.8	13.6	2.36e-05	0	43	102	1048576	20	4092
2026-01-25 09:42:44.06	130.99	19.30	-29.7	-30.8	13.5	7.60e-06	0	43	102	1048576	20	4097
2026-01-25 09:42:45.06	130.91	19.42	-29.9	-31.5	13.1	1.90e-05	0	43	102	1048576	20	4309
2026-01-25 09:42:46.06	130.83	19.55	-29.6	-30.7	13.7	2.13e-05	0	43	102	1048576	20	4047
2026-01-25 09:42:47.06	130.74	19.67	-29.7	-31.0	13.5	6.80e-06	0	43	102	1048576	20	4143
2026-01-25 09:42:48.07	130.66	19.79	-30.0	-31.6	13.1	7.60e-06	0	43	102	1048576	20	4344
2026-01-25 09:42:49.08	130.57	19.92	-30.2	-32.3	12.7	5.03e-05	0	43	102	1048576	20	4549
2026-01-25 09:42:50.08	130.49	20.04	-30.4	-32.8	12.4	1.01e-04	0	43	102	1048576	20	4714
2026-01-25 09:42:51.08	130.40	20.16	-30.4	-32.6	12.5	8.69e-05	0	43	102	1048576	20	4638
2026-01-25 09:42:52.09	130.31	20.29	-30.2	-32.0	13.0	8.62e-05	0	43	102	1048576	20	4428
2026-01-25 09:42:53.10	130.22	20.42	-30.1	-31.8	13.1	3.81e-05	0	43	102	1048576	20	4367
2026-01-25 09:42:54.10	130.13	20.54	-30.2	-32.1	12.9	4.65e-05	0	43	102	1048576	20	4464
2026-01-25 09:42:55.11	130.04	20.67	-30.2	-31.9	13.0	4.95e-05	0	43	102	1048576	20	4403
2026-01-25 09:42:56.12	129.95	20.80	-29.9	-31.2	13.5	9.10e-06	0	43	102	1048576	20	4182
2026-01-25 09:42:57.12	129.86	20.92	-30.0	-31.4	13.4	8.30e-06	0	43	102	1048576	20	4221
2026-01-25 09:42:58.12	129.77	21.05	-30.0	-31.3	13.5	1.06e-05	0	43	102	1048576	20	4203
2026-01-25 09:42:59.12	129.68	21.18	-30.2	-31.8	13.1	1.83e-05	0	43	102	1048576	20	4376
2026-01-25 09:43:00.13	129.58	21.31	-30.1	-31.6	13.3	1.14e-05	0	43	102	1048576	20	4307
2026-01-25 09:43:01.13	129.49	21.44	-30.0	-31.4	13.5	1.90e-05	0	43	102	1048576	20	4218
2026-01-25 09:43:02.14	129.40	21.57	-30.0	-31.5	13.3	1.83e-05	0	43	102	1048576	20	4277
2026-01-25 09:43:03.14	129.30	21.70	-29.9	-31.2	13.6	6.80e-06	0	43	102	1048576	20	4167
2026-01-25 09:43:04.15	129.20	21.84	-29.9	-31.2	13.6	1.50e-06	0	43	102	1048576	20	4158
2026-01-25 09:43:05.15	129.10	21.97	-29.8	-31.0	13.7	6.80e-06	0	43	102	1048576	20	4103
2026-01-25 09:43:06.15	129.01	22.10	-29.7	-30.7	13.9	6.80e-06	0	43	102	1048576	20	4024
2026-01-25 09:43:07.16	128.91	22.24	-30.0	-31.5	13.4	1.14e-05	0	43	102	1048576	20	4281
2026-01-25 09:43:08.16	128.81	22.37	-30.1	-31.6	13.3	1.75e-05	0	43	102	1048576	20	4305
2026-01-25 09:43:09.16	128.71	22.50	-30.1	-31.6	13.4	1.60e-05	0	43	102	1048576	20	4311
2026-01-25 09:43:10.17	128.60	22.64	-30.2	-31.9	13.1	4.19e-05	0	43	102	1048576	20	4390
2026-01-25 09:43:11.17	128.50	22.78	-30.0	-31.3	13.6	2.13e-05	0	43	102	1048576	20	4209
2026-01-25 09:43:12.18	128.40	22.91	-29.9	-31.1	13.7	3.80e-06	0	43	102	1048576	20	4145
2026-01-25 09:43:13.18	128.29	23.05	-30.0	-31.3	13.6	5.30e-06	0	43	102	1048576	20	4203
2026-01-25 09:43:14.18	128.19	23.19	-30.0	-31.3	13.6	6.80e-06	0	43	102	1048576	20	4180
2026-01-25 09:43:15.19	128.08	23.33	-30.1	-31.6	13.4	1.90e-05	0	43	102	1048576	20	4288
2026-01-25 09:43:16.20	127.97	23.47	-30.3	-32.3	13.0	5.11e-05	0	43	102	1048576	20	4505
2026-01-25 09:43:17.20	127.86	23.61	-30.6	-32.6	12.5	9.38e-05	0	43	102	1048576	21	4506
2026-01-25 09:43:18.20	127.75	23.75	-30.6	-32.4	12.6	1.23e-04	0	43	102	1048576	21	4454
2026-01-25 09:43:19.21	127.64	23.89	-30.9	-33.3	12.0	2.20e-04	0	43	102	1048576	21	4743
2026-01-25 09:43:20.21	127.53	24.03	-30.7	-32.8	12.3	1.66e-04	0	43	102	1048576	21	4579
2026-01-25 09:43:21.22	127.42	24.17	-30.7	-32.9	12.3	1.93e-04	0	43	102	1048576	21	4611
2026-01-25 09:43:22.22	127.30	24.32	-30.9	-33.5	11.8	3.08e-04	0	43	102	1048576	21	4827
2026-01-25 09:43:23.23	127.19	24.46	-30.7	-32.7	12.5	1.47e-04	0	43	102	1048576	21	4535
2026-01-25 09:43:24.23	127.07	24.61	-30.5	-32.3	12.8	9.38e-05	0	43	102	1048576	21	4392
2026-01-25 09:43:25.23	126.95	24.75	-30.4	-31.9	13.0	3.35e-05	0	43	102	1048576	21	4282
2026-01-25 09:43:26.23	126.84	24.90	-30.4	-31.8	13.0	4.27e-05	0	43	102	1048576	21	4270
2026-01-25 09:43:27.24	126.72	25.04	-30.4	-31.9	13.0	4.80e-05	0	44	102	1048576	21	4294
2026-01-25 09:43:28.24	126.60	25.19	-30.3	-31.6	13.1	2.89e-05	0	43	102	1048576	21	4210
2026-01-25 09:43:29.25	126.47	25.34	-30.2	-31.4	13.4	2.05e-05	0	43	102	1048576	21	4137
2026-01-25 09:43:30.25	126.35	25.49	-30.2	-31.4	13.3	1.83e-05	0	43	102	1048576	21	4142
2026-01-25 09:43:31.26	126.23	25.64	-30.5	-32.3	12.8	3.50e-05	0	43	102	1048576	21	4408
2026-01-25 09:43:32.26	126.10	25.79	-30.5	-32.2	12.8	6.33e-05	0	43	102	1048576	21	4389
2026-01-25 09:43:33.26	125.98	25.94	-30.8	-32.9	12.4	1.50e-04	0	43	102	1048576	21	4622
2026-01-25 09:43:34.27	125.85	26.09	-30.9	-32.9	12.1	2.20e-04	0	43	102	1048576	22	4515
2026-01-25 09:43:35.27	125.72	26.24	-31.1	-33.2	11.9	4.75e-04	0	43	102	1048576	22	4623
2026-01-25 09:43:36.27	125.59	26.39	-30.8	-32.3	12.5	1.40e-04	0	43	102	1048576	22	4304
2026-01-25 09:43:37.27	125.46	26.55	-30.6	-31.9	12.8	6.79e-05	0	43	102	1048576	22	4179
2026-01-25 09:43:38.28	125.32	26.70	-30.3	-31.1	13.3	6.79e-05	0	43	102	1048576	22	3932
2026-01-25 09:43:39.28	125.19	26.86	-30.1	-31.1	13.6	1.60e-05	0	43	102	1048576	21	4018
2026-01-25 09:43:40.29	125.05	27.01	-30.0	-30.8	13.9	6.10e-06	0	43	102	1048576	21	3928
2026-01-25 09:43:41.29	124.92	27.17	-30.0	-30.8	13.8	1.14e-05	0	43	102	1048576	21	3928
2026-01-25 09:43:42.29	124.78	27.32	-30.0	-30.7	13.9	9.10e-06	0	43	102	1048576	21	3898
2026-01-25 09:43:43.29	124.64	27.48	-30.0	-30.6	14.0	2.20e-06	0	43	102	1048576	21	3885
2026-01-25 09:43:44.30	124.50	27.64	-30.0	-30.7	13.9	2.20e-06	0	43	102	1048576	21	3906
2026-01-25 09:43:45.30	124.36	27.80	-30.1	-30.8	13.9	1.06e-05	0	43	102	1048576	21	3936
2026-01-25 09:43:46.31	124.21	27.96	-29.8	-30.6	14.3	7.00e-07	0	43	102	1048576	20	3947
2026-01-25 09:43:47.32	124.07	28.12	-30.0	-31.1	14.0	3.00e-06	0	43	102	1048576	20	4106
2026-01-25 09:43:48.32	123.92	28.28	-30.2	-31.6	13.7	2.20e-06	0	43	102	1048576	20	4250
2026-01-25 09:43:49.32	123.77	28.44	-30.2	-31.8	13.6	3.00e-06	0	43	102	1048576	20	4307
2026-01-25 09:43:50.32	123.62	28.61	-30.5	-32.4	13.2	1.44e-05	0	43	102	1048576	20	4518
2026-01-25 09:43:51.33	123.47	28.77	-30.3	-32.1	13.4	2.13e-05	0	43	102	1048576	20	4404
2026-01-25 09:43:52.33	123.32	28.94	-30.5	-32.0	13.1	2.67e-05	0	44	102	1048576	21	4291
2026-01-25 09:43:53.34	123.16	29.10	-30.4	-31.7	13.3	3.58e-05	0	43	102	1048576	21	4200
2026-01-25 09:43:54.34	123.01	29.27	-30.0	-30.6	14.0	1.44e-05	0	44	102	1048576	21	3883
2026-01-25 09:43:55.34	122.85	29.43	-30.3	-31.6	13.5	1.50e-06	0	43	102	1048576	21	4148
2026-01-25 09:43:56.34	122.69	29.60	-30.6	-32.3	13.0	2.21e-05	0	43	102	1048576	21	4383
2026-01-25 09:43:57.35	122.53	29.77	-30.6	-32.4	12.9	4.50e-05	0	44	102	1048576	21	4416
2026-01-25 09:43:58.35	122.37	29.94	-30.9	-33.1	12.4	8.39e-05	0	43	102	1048576	21	4658
2026-01-25 09:43:59.35	122.20	30.10	-31.0	-32.9	12.2	1.52e-04	0	44	102	1048576	22	4500
2026-01-25 09:44:00.36	122.03	30.28	-31.0	-33.0	12.1	1.75e-04	0	43	102	1048576	22	4534
2026-01-25 09:44:01.36	121.87	30.45	-31.0	-32.9	12.3	2.10e-04	0	43	102	1048576	22	4479
2026-01-25 09:44:02.37	121.70	30.62	-30.9	-32.7	12.5	1.71e-04	0	43	102	1048576	22	4416
2026-01-25 09:44:03.37	121.52	30.79	-31.1	-33.4	11.9	4.99e-04	0	43	102	1048576	22	4651
2026-01-25 09:44:04.38	121.35	30.96	-31.0	-33.0	12.2	2.72e-04	0	43	102	1048576	22	4502
2026-01-25 09:44:05.39	121.17	31.14	-30.8	-32.5	12.6	1.52e-04	0	44	102	1048576	22	4337
2026-01-25 09:44:06.39	121.00	31.31	-31.0	-32.9	12.3	1.43e-04	0	44	102	1048576	22	4497
2026-01-25 09:44:07.39	120.82	31.49	-31.1	-33.3	12.0	2.78e-04	0	44	102	1048576	22	4620
2026-01-25 09:44:08.40	120.63	31.66	-31.4	-34.1	11.5	3.39e-04	0	43	102	1048576	22	4924
2026-01-25 09:44:09.41	120.45	31.84	-31.5	-33.9	11.3	1.32e-03	0	43	102	1048576	23	4749
2026-01-25 09:44:10.41	120.26	32.02	-31.6	-34.2	11.1	1.32e-03	0	43	102	1048576	23	4867
2026-01-25 09:44:11.41	120.08	32.20	-31.6	-34.3	10.9	3.44e-03	0	43	102	1048576	23	4919
2026-01-25 09:44:12.41	119.89	32.37	-31.3	-33.3	11.6	9.01e-04	0	43	102	1048576	23	4520
2026-01-25 09:44:13.41	119.70	32.55	-31.2	-33.0	11.9	4.87e-04	0	43	102	1048576	23	4415
2026-01-25 09:44:14.42	119.50	32.74	-31.3	-33.2	11.8	3.89e-04	0	43	102	1048576	23	4504
2026-01-25 09:44:15.43	119.30	32.92	-31.3	-33.2	11.7	5.35e-04	0	44	102	1048576	23	4473
2026-01-25 09:44:16.43	119.11	33.10	-31.3	-33.4	11.6	7.85e-04	0	44	102	1048576	23	4549
2026-01-25 09:44:17.44	118.91	33.28	-31.6	-34.2	11.1	1.46e-03	0	43	102	1048576	23	4864
2026-01-25 09:44:18.44	118.70	33.46	-31.8	-34.9	10.6	1.95e-03	0	43	102	1048576	23	5142
2026-01-25 09:44:19.44	118.50	33.65	-31.6	-34.0	11.2	1.64e-03	0	44	102	1048576	23	4797
2026-01-25 09:44:20.45	118.29	33.83	-31.4	-33.6	11.5	7.84e-04	0	43	102	1048576	23	4640
2026-01-25 09:44:21.46	118.08	34.02	-31.4	-33.4	11.7	9.78e-04	0	43	102	1048576	23	4546
2026-01-25 09:44:22.46	117.87	34.20	-31.3	-33.2	11.8	4.23e-04	0	43	102	1048576	23	4467
2026-01-25 09:44:23.46	117.65	34.39	-31.3	-33.3	11.9	4.00e-04	0	43	102	1048576	23	4506
2026-01-25 09:44:24.47	117.43	34.58	-31.4	-33.6	11.5	6.61e-04	0	44	102	1048576	23	4605
2026-01-25 09:44:25.47	117.21	34.76	-31.5	-33.8	11.5	8.95e-04	0	44	102	1048576	23	4678
2026-01-25 09:44:26.48	116.99	34.95	-31.6	-34.1	11.2	6.03e-04	0	43	102	1048576	23	4815
2026-01-25 09:44:27.48	116.77	35.14	-31.3	-33.1	12.0	3.71e-04	0	43	102	1048576	23	4430
2026-01-25 09:44:28.49	116.54	35.33	-31.4	-33.6	11.6	3.55e-04	0	44	102	1048576	23	4601
2026-01-25 09:44:29.48	116.31	35.52	-31.4	-33.4	11.7	1.37e-03	0	43	102	1048576	23	4550
2026-01-25 09:44:30.49	116.07	35.71	-31.4	-33.5	11.6	5.53e-04	0	43	102	1048576	23	4605
2026-01-25 09:44:31.49	115.84	35.90	-31.3	-33.2	11.9	9.84e-04	0	43	102	1048576	23	4478
2026-01-25 09:44:32.49	115.60	36.09	-31.3	-33.3	11.8	1.07e-03	0	43	102	1048576	23	4502
2026-01-25 09:44:33.50	115.36	36.29	-31.6	-33.9	11.3	1.06e-03	0	43	102	1048576	23	4737
2026-01-25 09:44:34.50	115.11	36.48	-31.8	-34.6	10.8	1.47e-03	0	43	102	1048576	23	4986
2026-01-25 09:44:35.51	114.86	36.67	-31.4	-33.3	11.8	6.46e-04	0	43	102	1048576	23	4499
2026-01-25 09:44:36.52	114.61	36.87	-31.3	-33.2	11.9	3.87e-04	0	43	102	1048576	23	4475
2026-01-25 09:44:37.52	114.36	37.06	-31.2	-33.0	12.0	4.29e-04	0	43	102	1048576	23	4395
2026-01-25 09:44:38.52	114.10	37.26	-31.3	-33.2	11.8	2.26e-04	0	44	102	1048576	23	4470
2026-01-25 09:44:39.53	113.84	37.45	-31.5	-33.6	11.5	7.90e-04	0	43	102	1048576	23	4612
2026-01-25 09:44:40.54	113.58	37.65	-31.7	-34.4	11.0	9.74e-04	0	44	102	1048576	23	4926
2026-01-25 09:44:41.54	113.31	37.85	-31.7	-34.4	11.0	2.40e-03	0	44	102	1048576	23	4913
2026-01-25 09:44:42.54	113.04	38.04	-31.5	-33.6	11.7	2.24e-03	0	43	102	1048576	23	4598
2026-01-25 09:44:43.55	112.77	38.24	-31.2	-32.9	12.1	4.03e-04	0	44	102	1048576	23	4361
2026-01-25 09:44:44.55	112.49	38.44	-31.2	-32.7	12.2	9.30e-05	0	44	102	1048576	23	4284
2026-01-25 09:44:45.56	112.21	38.64	-31.5	-33.6	11.7	2.52e-04	0	43	102	1048576	23	4601
2026-01-25 09:44:46.56	111.93	38.84	-31.8	-34.6	10.9	1.70e-03	0	44	102	1048576	23	4999
2026-01-25 09:44:47.56	111.65	39.03	-31.8	-34.7	10.8	1.93e-03	0	43	102	1048576	23	5046
2026-01-25 09:44:48.56	111.36	39.23	-31.4	-33.6	11.6	2.32e-03	0	44	102	1048576	23	4613
2026-01-25 09:44:49.56	111.06	39.43	-30.9	-31.9	12.8	1.07e-04	0	44	102	1048576	23	4048
2026-01-25 09:44:50.57	110.77	39.63	-31.2	-32.7	12.3	4.73e-05	0	44	102	1048576	23	4312
2026-01-25 09:44:51.57	110.47	39.83	-31.0	-32.3	12.5	1.42e-04	0	43	102	1048576	23	4177
2026-01-25 09:44:52.58	110.16	40.03	-30.8	-32.2	13.0	6.48e-05	0	43	102	1048576	22	4225
2026-01-25 09:44:53.59	109.85	40.23	-30.7	-32.0	13.1	1.98e-05	0	43	102	1048576	22	4159
2026-01-25 09:44:54.59	109.54	40.43	-30.6	-31.5	13.5	1.67e-05	0	44	102	1048576	22	4000
2026-01-25 09:44:55.60	109.22	40.64	-30.7	-31.8	13.2	6.80e-06	0	43	102	1048576	22	4100
2026-01-25 09:44:56.61	108.90	40.84	-30.8	-32.3	12.9	3.35e-05	0	44	102	1048576	22	4239
2026-01-25 09:44:57.61	108.57	41.04	-31.1	-33.0	12.4	8.54e-05	0	43	102	1048576	22	4480
2026-01-25 09:44:58.61	108.25	41.24	-31.2	-33.4	12.1	2.34e-04	0	44	102	1048576	22	4621
2026-01-25 09:44:59.62	107.91	41.44	-31.7	-34.2	11.4	8.20e-04	0	44	102	1048576	23	4831
2026-01-25 09:45:00.62	107.58	41.64	-32.1	-35.0	10.3	3.68e-03	0	44	102	1048576	24	5070
2026-01-25 09:45:01.62	107.24	41.84	-32.0	-34.6	10.5	5.60e-03	0	44	102	1048576	24	4889
2026-01-25 09:45:02.62	106.89	42.04	-31.5	-33.2	11.6	2.23e-03	0	44	102	1048576	24	4374
2026-01-25 09:45:03.63	106.54	42.24	-31.2	-32.6	12.5	2.78e-04	0	43	102	1048576	23	4274
2026-01-25 09:45:04.63	106.19	42.44	-31.2	-32.7	12.3	2.03e-04	0	44	102	1048576	23	4300
2026-01-25 09:45:05.64	105.83	42.64	-31.3	-33.1	12.1	1.74e-04	0	43	102	1048576	23	4414
2026-01-25 09:45:06.64	105.47	42.84	-31.6	-33.9	11.5	6.32e-04	0	44	102	1048576	23	4707
2026-01-25 09:45:07.64	105.10	43.04	-31.7	-34.2	11.3	6.71e-04	0	43	102	1048576	23	4816
2026-01-25 09:45:08.64	104.73	43.24	-31.8	-34.6	11.0	1.58e-03	0	44	102	1048576	23	4992
2026-01-25 09:45:09.65	104.35	43.44	-32.3	-35.9	9.8	3.73e-03	0	44	102	1048576	24	5422
2026-01-25 09:45:10.65	103.97	43.64	-32.4	-35.6	9.5	1.71e-02	0	44	102	1048576	25	5242
2026-01-25 09:45:11.65	103.58	43.84	-32.2	-35.1	9.9	1.08e-02	0	44	102	1048576	25	4987
2026-01-25 09:45:12.66	103.19	44.04	-32.1	-34.7	10.2	5.96e-03	0	44	102	1048576	25	4853
2026-01-25 09:45:13.66	102.80	44.23	-32.4	-35.6	9.5	1.10e-02	0	43	102	1048576	25	5214
2026-01-25 09:45:14.67	102.39	44.43	-32.7	-36.8	8.7	2.06e-02	0	43	102	1048576	25	5780
2026-01-25 09:45:15.67	101.99	44.63	-32.5	-36.1	9.1	3.20e-02	0	43	102	1048576	25	5471
2026-01-25 09:45:16.67	101.58	44.82	-32.5	-36.0	9.2	1.69e-02	0	43	102	1048576	25	5414
2026-01-25 09:45:17.68	101.16	45.02	-32.6	-36.5	8.8	2.56e-02	0	44	102	1048576	25	5639
2026-01-25 09:45:18.68	100.74	45.21	-32.6	-36.5	8.8	3.42e-02	0	43	102	1048576	25	5646
2026-01-25 09:45:19.68	100.31	45.41	-32.4	-35.5	9.7	2.97e-02	0	43	102	1048576	25	5153
2026-01-25 09:45:20.69	99.88	45.60	-32.2	-35.0	10.0	1.22e-02	0	44	102	1048576	25	4979
2026-01-25 09:45:21.68	99.45	45.79	-32.0	-34.1	10.7	4.60e-03	0	43	102	1048576	25	4606
2026-01-25 09:45:22.68	99.01	45.98	-31.5	-33.3	11.7	2.05e-03	0	43	102	1048576	24	4396
2026-01-25 09:45:23.69	98.56	46.17	-31.0	-32.3	12.6	2.14e-04	0	44	102	1048576	23	4159
2026-01-25 09:45:24.69	98.11	46.36	-30.6	-31.6	13.5	2.82e-05	0	43	102	1048576	22	4027
2026-01-25 09:45:25.69	97.65	46.54	-30.2	-31.1	14.1	9.90e-06	0	43	102	1048576	21	3973
2026-01-25 09:45:26.70	97.18	46.73	-30.8	-32.5	13.2	7.60e-06	0	44	102	1048576	21	4400
2026-01-25 09:45:27.70	96.71	46.91	-31.3	-33.7	12.1	1.07e-04	0	44	102	1048576	22	4703
2026-01-25 09:45:28.70	96.24	47.10	-31.7	-34.3	11.3	5.66e-04	0	44	102	1048576	23	4868
2026-01-25 09:45:29.71	95.76	47.28	-31.8	-34.0	11.0	3.04e-03	0	44	102	1048576	24	4664
2026-01-25 09:45:30.71	95.27	47.46	-31.5	-33.1	11.8	5.52e-04	0	44	102	1048576	24	4314
2026-01-25 09:45:31.72	94.78	47.64	-30.9	-31.8	13.0	9.68e-05	0	44	102	1048576	23	4007
2026-01-25 09:45:32.72	94.28	47.82	-30.4	-31.1	13.8	1.14e-05	0	44	102	1048576	22	3886
2026-01-25 09:45:33.73	93.77	47.99	-30.6	-31.6	13.6	3.00e-06	0	43	102	1048576	22	4021
2026-01-25 09:45:34.73	93.27	48.17	-30.9	-32.5	13.0	1.67e-05	0	44	102	1048576	22	4304
2026-01-25 09:45:35.73	92.75	48.34	-31.3	-33.1	12.1	1.38e-04	0	44	102	1048576	23	4419
2026-01-25 09:45:36.74	92.23	48.51	-31.2	-32.9	12.3	2.63e-04	0	44	102	1048576	23	4334
2026-01-25 09:45:37.75	91.70	48.68	-30.7	-31.8	13.4	3.96e-05	0	44	102	1048576	22	4083
2026-01-25 09:45:38.74	91.17	48.85	-30.4	-30.9	14.0	3.00e-06	0	44	102	1048576	22	3837
2026-01-25 09:45:39.75	90.63	49.01	-30.2	-31.1	14.1	1.50e-06	0	43	102	1048576	21	3988
2026-01-25 09:45:40.75	90.09	49.17	-30.4	-31.5	14.0	7.00e-07	0	44	102	1048576	21	4087
2026-01-25 09:45:41.76	89.54	49.33	-30.6	-32.1	13.5	9.10e-06	0	44	102	1048576	21	4268
2026-01-25 09:45:42.76	88.98	49.49	-30.9	-32.4	12.9	5.64e-05	0	44	102	1048576	22	4292
2026-01-25 09:45:43.77	88.42	49.65	-30.9	-32.4	13.0	2.67e-05	0	44	102	1048576	22	4278
2026-01-25 09:45:44.77	87.85	49.80	-30.1	-30.8	14.3	2.20e-06	0	44	102	1048576	21	3891
2026-01-25 09:45:45.78	87.28	49.95	-30.0	-30.9	14.5	0.00e+00	0	44	102	1048576	20	4011
2026-01-25 09:45:46.78	86.70	50.10	-30.5	-32.2	13.8	4.50e-06	0	43	102	1048576	20	4411
2026-01-25 09:45:47.79	86.11	50.24	-30.7	-32.4	13.4	1.60e-05	0	43	102	1048576	21	4350
2026-01-25 09:45:48.79	85.53	50.39	-30.7	-32.4	13.3	2.74e-05	0	44	102	1048576	21	4370
2026-01-25 09:45:49.79	84.93	50.52	-31.3	-33.6	12.2	1.60e-05	0	44	102	1048576	22	4684
2026-01-25 09:45:50.80	84.33	50.66	-31.8	-34.5	11.2	6.39e-04	0	44	102	1048576	23	4925
2026-01-25 09:45:51.80	83.72	50.80	-32.2	-35.4	10.2	4.09e-03	0	43	102	1048576	24	5207
2026-01-25 09:45:52.80	83.12	50.93	-32.4	-36.3	9.6	1.04e-02	0	44	102	1048576	24	5582
2026-01-25 09:45:53.80	82.50	51.05	-31.9	-34.5	10.8	4.59e-03	0	44	102	1048576	24	4823
2026-01-25 09:45:54.80	81.88	51.18	-31.2	-32.7	12.5	4.18e-04	0	43	102	1048576	23	4271
2026-01-25 09:45:55.81	81.25	51.30	-31.2	-32.6	12.5	1.06e-04	0	44	102	1048576	23	4242
2026-01-25 09:45:56.81	80.62	51.42	-32.0	-35.0	11.4	7.16e-04	0	44	102	1048576	23	5102
2026-01-25 09:45:57.82	79.98	51.53	-31.5	-33.1	11.8	6.74e-04	0	43	102	1048576	24	4330
2026-01-25 09:45:58.82	79.34	51.64	-31.1	-32.3	12.8	1.76e-04	0	44	102	1048576	23	4136
2026-01-25 09:45:59.82	78.70	51.75	-30.9	-32.3	13.1	2.67e-05	0	44	102	1048576	22	4233
2026-01-25 09:46:00.82	78.05	51.85	-31.3	-33.6	12.3	8.62e-05	0	44	102	1048576	22	4674
2026-01-25 09:46:01.83	77.39	51.95	-31.3	-33.5	12.3	1.05e-04	0	44	102	1048576	22	4645
2026-01-25 09:46:02.83	76.73	52.05	-30.7	-31.7	13.5	3.58e-05	0	44	102	1048576	22	4044
2026-01-25 09:46:03.84	76.06	52.14	-30.5	-31.2	13.8	7.60e-06	0	44	102	1048576	22	3908
2026-01-25 09:46:04.84	75.40	52.23	-30.0	-30.6	14.6	7.00e-07	0	44	102	1048576	21	3833
2026-01-25 09:46:05.84	74.73	52.31	-29.4	-29.5	15.4	0.00e+00	0	44	102	1048576	20	3644
2026-01-25 09:46:06.85	74.05	52.40	-29.6	-30.0	15.2	0.00e+00	0	44	102	1048576	20	3768
2026-01-25 09:46:07.85	73.37	52.47	-29.3	-29.2	15.6	1.50e-06	0	44	102	1048576	20	3565
2026-01-25 09:46:08.85	72.69	52.54	-29.1	-29.1	16.0	0.00e+00	0	44	102	1048576	19	3631
2026-01-25 09:46:09.86	72.00	52.61	-29.2	-29.4	16.0	0.00e+00	0	44	102	1048576	19	3695
2026-01-25 09:46:10.85	71.32	52.68	-29.4	-29.9	15.6	0.00e+00	0	43	102	1048576	19	3832
2026-01-25 09:46:11.86	70.62	52.74	-29.6	-30.5	15.3	0.00e+00	0	43	102	1048576	19	3970
2026-01-25 09:46:12.86	69.93	52.79	-29.3	-29.8	15.4	0.00e+00	0	44	102	1048576	19	3792
2026-01-25 09:46:13.86	69.24	52.85	-29.2	-29.5	15.9	0.00e+00	0	44	102	1048576	19	3712
2026-01-25 09:46:14.87	68.53	52.89	-28.9	-28.8	16.2	0.00e+00	0	44	102	1048576	19	3545
2026-01-25 09:46:15.88	67.83	52.94	-28.6	-28.6	16.6	0.00e+00	0	44	102	1048576	18	3601
2026-01-25 09:46:16.88	67.13	52.97	-28.7	-28.7	16.6	2.20e-06	0	44	102	1048576	18	3611
2026-01-25 09:46:17.89	66.42	53.01	-28.6	-28.5	16.7	0.00e+00	0	44	102	1048576	18	3562
2026-01-25 09:46:18.89	65.71	53.04	-28.3	-28.3	17.1	0.00e+00	0	44	102	1048576	17	3603
2026-01-25 09:46:19.90	65.00	53.06	-29.0	-29.6	16.1	1.50e-06	0	44	102	1048576	18	3833
2026-01-25 09:46:20.90	64.29	53.08	-29.5	-30.3	15.2	0.00e+00	0	44	102	1048576	19	3932
2026-01-25 09:46:21.90	63.58	53.10	-29.8	-31.0	15.0	0.00e+00	0	43	102	1048576	19	4112
2026-01-25 09:46:22.90	62.87	53.11	-29.9	-31.2	14.8	1.50e-06	0	44	102	1048576	19	4168
2026-01-25 09:46:23.90	62.17	53.12	-30.0	-30.9	14.6	7.00e-07	0	44	102	1048576	20	4000
2026-01-25 09:46:24.91	61.45	53.12	-29.7	-30.1	15.1	0.00e+00	0	43	102	1048576	20	3797
2026-01-25 09:46:25.91	60.74	53.12	-29.6	-29.8	15.3	0.00e+00	0	44	102	1048576	20	3713
2026-01-25 09:46:26.92	60.02	53.11	-30.2	-31.5	14.2	0.00e+00	0	43	102	1048576	20	4190
2026-01-25 09:46:27.92	59.32	53.10	-30.0	-30.9	14.6	0.00e+00	0	44	102	1048576	20	3996
2026-01-25 09:46:28.92	58.61	53.09	-29.7	-30.1	15.2	0.00e+00	0	44	102	1048576	20	3791
2026-01-25 09:46:29.93	57.89	53.07	-29.9	-30.6	14.8	0.00e+00	0	44	102	1048576	20	3928
2026-01-25 09:46:30.93	57.19	53.04	-30.3	-31.8	14.1	0.00e+00	0	43	102	1048576	20	4261
2026-01-25 09:46:31.93	56.48	53.02	-29.9	-30.7	14.8	7.00e-07	0	44	102	1048576	20	3937
2026-01-25 09:46:32.93	55.78	52.98	-29.5	-29.8	15.3	0.00e+00	0	43	102	1048576	20	3709
2026-01-25 09:46:33.94	55.07	52.94	-30.0	-31.0	14.6	0.00e+00	0	44	102	1048576	20	4024
2026-01-25 09:46:34.94	54.37	52.90	-30.0	-31.0	14.7	0.00e+00	0	44	102	1048576	20	4030
2026-01-25 09:46:35.95	53.67	52.86	-29.8	-30.4	14.9	0.00e+00	0	44	102	1048576	20	3869
2026-01-25 09:46:36.94	52.98	52.81	-29.2	-29.4	15.8	0.00e+00	0	43	102	1048576	19	3688
2026-01-25 09:46:37.95	52.28	52.75	-28.6	-28.5	16.7	0.00e+00	0	44	102	1048576	18	3565
2026-01-25 09:46:38.95	51.59	52.69	-27.8	-27.2	17.6	0.00e+00	0	44	102	1048576	17	3367
2026-01-25 09:46:39.95	50.90	52.63	-27.9	-27.9	17.5	0.00e+00	0	44	102	1048576	16	3615
2026-01-25 09:46:40.96	50.21	52.56	-28.3	-28.8	17.1	0.00e+00	0	43	102	1048576	16	3808
2026-01-25 09:46:41.97	49.53	52.49	-28.5	-28.9	16.7	0.00e+00	0	43	102	1048576	17	3743
2026-01-25 09:46:42.96	48.86	52.41	-28.2	-28.2	17.0	0.00e+00	0	44	102	1048576	17	3583
2026-01-25 09:46:43.97	48.18	52.33	-28.9	-29.8	16.3	0.00e+00	0	44	102	1048576	17	3976
2026-01-25 09:46:44.97	47.51	52.25	-29.5	-30.5	16.1	0.00e+00	0	44	102	1048576	18	4020
2026-01-25 09:46:45.97	46.84	52.16	-29.1	-29.8	16.1	0.00e+00	0	44	102	1048576	18	3876
2026-01-25 09:46:46.98	46.17	52.07	-29.1	-29.7	16.1	0.00e+00	0	43	102	1048576	18	3855
2026-01-25 09:46:47.98	45.52	51.97	-29.4	-30.4	15.7	0.00e+00	0	43	102	1048576	18	4038
2026-01-25 09:46:48.99	44.86	51.87	-29.4	-29.9	15.6	0.00e+00	0	43	102	1048576	19	3817
2026-01-25 09:46:49.99	44.21	51.77	-29.2	-29.4	15.9	0.00e+00	0	44	102	1048576	19	3693
2026-01-25 09:46:51.00	43.56	51.66	-29.2	-29.5	15.9	0.00e+00	0	44	102	1048576	19	3713
2026-01-25 09:46:52.01	42.91	51.55	-29.7	-30.7	15.1	0.00e+00	0	44	102	1048576	19	4033
2026-01-25 09:46:53.02	42.27	51.44	-30.2	-31.4	14.3	0.00e+00	0	44	102	1048576	20	4141
2026-01-25 09:46:54.02	41.64	51.32	-30.9	-32.7	13.2	1.50e-06	0	44	102	1048576	21	4466
2026-01-25 09:46:55.03	41.01	51.20	-31.3	-33.3	12.5	1.51e-04	0	44	102	1048576	22	4563
2026-01-25 09:46:56.03	40.39	51.08	-31.1	-32.5	12.7	1.52e-04	0	44	102	1048576	23	4191
2026-01-25 09:46:57.04	39.77	50.95	-31.0	-32.2	12.8	5.79e-05	0	44	102	1048576	23	4106
2026-01-25 09:46:58.04	39.16	50.82	-30.4	-31.0	13.9	9.90e-06	0	43	102	1048576	22	3860
2026-01-25 09:46:59.04	38.56	50.69	-30.6	-31.4	13.8	1.50e-06	0	43	102	1048576	22	3954
2026-01-25 09:47:00.04	37.96	50.55	-31.0	-32.6	13.0	9.10e-06	0	44	102	1048576	22	4322
2026-01-25 09:47:01.04	37.37	50.42	-30.9	-32.3	13.2	4.42e-05	0	44	102	1048576	22	4220
2026-01-25 09:47:02.04	36.78	50.28	-31.5	-34.0	12.0	1.07e-04	0	43	102	1048576	22	4795
2026-01-25 09:47:03.04	36.20	50.13	-31.3	-32.8	12.5	9.38e-05	0	44	102	1048576	23	4303
2026-01-25 09:47:04.04	35.62	49.99	-31.5	-33.7	11.8	9.84e-05	0	44	102	1048576	23	4591
2026-01-25 09:47:05.05	35.04	49.83	-31.4	-33.4	12.1	2.39e-04	0	44	102	1048576	23	4489
2026-01-25 09:47:06.06	34.47	49.68	-31.0	-32.0	13.1	1.06e-04	0	43	102	1048576	23	4065
2026-01-25 09:47:07.07	33.91	49.53	-30.7	-31.7	13.5	6.10e-06	0	44	102	1048576	22	4053
2026-01-25 09:47:08.07	33.36	49.37	-30.9	-32.4	13.2	1.22e-05	0	44	102	1048576	22	4247
2026-01-25 09:47:09.08	32.80	49.21	-31.4	-33.7	12.2	4.65e-05	0	44	102	1048576	22	4681
2026-01-25 09:47:10.08	32.26	49.05	-31.2	-33.1	12.6	1.07e-04	0	44	102	1048576	22	4486
2026-01-25 09:47:11.09	31.72	48.88	-30.8	-32.1	13.2	6.48e-05	0	44	102	1048576	22	4173
2026-01-25 09:47:12.09	31.19	48.72	-30.7	-31.6	13.6	1.06e-05	0	44	102	1048576	22	4033
2026-01-25 09:47:13.09	30.66	48.55	-30.5	-31.3	13.8	6.80e-06	0	44	102	1048576	22	3935
2026-01-25 09:47:14.10	30.14	48.38	-30.3	-31.2	14.1	2.20e-06	0	44	102	1048576	21	3994
2026-01-25 09:47:15.10	29.63	48.21	-30.3	-31.1	14.1	4.50e-06	0	44	102	1048576	21	3963
2026-01-25 09:47:16.10	29.12	48.04	-30.3	-31.1	14.2	1.50e-06	0	44	102	1048576	21	3970
2026-01-25 09:47:17.11	28.61	47.86	-30.6	-32.1	13.6	1.90e-05	0	44	102	1048576	21	4263
2026-01-25 09:47:18.12	28.11	47.68	-31.2	-33.2	12.5	6.40e-05	0	44	102	1048576	22	4526
2026-01-25 09:47:19.12	27.62	47.51	-31.5	-33.6	11.9	3.48e-04	0	44	102	1048576	23	4583
2026-01-25 09:47:20.13	27.13	47.33	-31.4	-33.3	12.0	3.78e-04	0	43	102	1048576	23	4491
2026-01-25 09:47:21.13	26.65	47.14	-30.7	-31.9	13.3	5.95e-05	0	44	102	1048576	22	4112
2026-01-25 09:47:22.14	26.17	46.96	-30.4	-31.5	14.0	6.10e-06	0	43	102	1048576	21	4075
2026-01-25 09:47:23.15	25.70	46.78	-30.3	-31.2	14.2	1.50e-06	0	44	102	1048576	21	4001
2026-01-25 09:47:24.15	25.24	46.59	-30.7	-32.4	13.4	5.30e-06	0	44	102	1048576	21	4358
2026-01-25 09:47:25.15	24.78	46.41	-31.2	-33.3	12.4	4.73e-05	0	44	102	1048576	22	4556
2026-01-25 09:47:26.15	24.33	46.22	-32.5	-36.0	9.4	3.10e-03	0	43	102	1048576	25	5364
2026-01-25 09:47:27.16	23.88	46.03	-32.9	-37.4	8.3	3.42e-02	0	44	102	1048576	25	6047
2026-01-25 09:47:28.16	23.44	45.84	-32.7	-36.6	8.8	3.59e-02	0	44	102	1048576	25	5658
2026-01-25 09:47:29.16	23.00	45.65	-32.4	-35.6	9.6	1.09e-02	0	44	102	1048576	25	5182
2026-01-25 09:47:30.17	22.57	45.46	-32.9	-37.7	8.0	3.49e-02	0	44	102	1048576	25	6206
2026-01-25 09:47:31.16	22.15	45.27	-32.9	-37.6	8.1	5.82e-02	0	44	102	1048576	25	6176
2026-01-25 09:47:32.16	21.73	45.07	-32.5	-35.9	9.3	3.01e-02	0	44	102	1048576	25	5333
2026-01-25 09:47:33.16	21.31	44.88	-32.0	-34.3	10.6	7.58e-03	0	44	102	1048576	25	4658
2026-01-25 09:47:34.17	20.90	44.68	-32.2	-34.8	10.3	4.40e-03	0	44	102	1048576	25	4854
2026-01-25 09:47:35.17	20.50	44.49	-32.2	-34.8	10.2	8.11e-03	0	44	102	1048576	25	4881
2026-01-25 09:47:36.17	20.10	44.29	-32.0	-34.0	10.8	4.33e-03	0	44	102	1048576	25	4565
2026-01-25 09:47:37.17	19.70	44.10	-31.2	-32.9	12.3	1.28e-03	0	44	102	1048576	23	4333
2026-01-25 09:47:38.18	19.31	43.90	-30.7	-31.7	13.3	1.17e-04	0	43	102	1048576	22	4064
2026-01-25 09:47:39.18	18.92	43.70	-29.9	-30.1	14.7	7.00e-07	0	44	102	1048576	21	3716
2026-01-25 09:47:40.19	18.54	43.50	-29.8	-30.0	14.7	1.50e-06	0	44	102	1048576	21	3681
2026-01-25 09:47:41.19	18.17	43.31	-30.2	-31.5	14.1	7.00e-07	0	44	102	1048576	20	4176
2026-01-25 09:47:42.20	17.79	43.11	-31.2	-33.3	12.4	7.24e-05	0	44	102	1048576	22	4577
2026-01-25 09:47:43.20	17.42	42.91	-31.2	-33.3	12.4	2.35e-04	0	44	102	1048576	22	4566
2026-01-25 09:47:44.21	17.06	42.71	-31.3	-33.0	12.1	3.42e-04	0	44	102	1048576	23	4382
2026-01-25 09:47:45.21	16.70	42.51	-31.4	-33.3	11.9	2.57e-04	0	44	102	1048576	23	4486
2026-01-25 09:47:46.21	16.35	42.31	-31.5	-33.8	11.6	9.32e-04	0	44	102	1048576	23	4651
2026-01-25 09:47:47.21	16.00	42.11	-32.0	-34.7	10.6	2.27e-03	0	44	102	1048576	24	4907
2026-01-25 09:47:48.22	15.65	41.91	-32.2	-35.3	10.0	7.72e-03	0	44	102	1048576	24	5172
2026-01-25 09:47:49.23	15.31	41.71	-31.9	-34.3	10.9	4.00e-03	0	44	102	1048576	24	4755
2026-01-25 09:47:50.23	14.98	41.51	-32.0	-34.7	10.6	4.70e-03	0	44	102	1048576	24	4936
2026-01-25 09:47:51.23	14.65	41.31	-32.3	-35.7	9.8	4.21e-03	0	44	102	1048576	24	5336
2026-01-25 09:47:52.23	14.32	41.11	-32.3	-35.9	9.7	9.70e-03	0	44	102	1048576	24	5440
2026-01-25 09:47:53.24	13.99	40.91	-32.1	-35.1	10.3	7.28e-03	0	43	102	1048576	24	5069
2026-01-25 09:47:54.25	13.67	40.71	-31.9	-34.6	10.7	3.67e-03	0	44	102	1048576	24	4871
2026-01-25 09:47:55.26	13.35	40.51	-32.3	-35.7	9.8	7.05e-03	0	44	102	1048576	24	5350
2026-01-25 09:47:56.25	13.04	40.31	-32.2	-35.6	10.0	6.57e-03	0	44	102	1048576	24	5290
2026-01-25 09:47:57.26	12.73	40.11	-32.4	-35.5	9.5	1.61e-02	0	44	102	1048576	25	5177
2026-01-25 09:47:58.26	12.43	39.91	-32.2	-34.9	10.0	8.61e-03	0	44	102	1048576	25	4922
2026-01-25 09:47:59.27	12.13	39.71	-32.0	-34.1	10.5	4.40e-03	0	44	102	1048576	25	4627
2026-01-25 09:48:00.28	11.83	39.51	-32.3	-35.9	9.7	4.78e-03	0	44	102	1048576	24	5449
2026-01-25 09:48:01.27	11.54	39.31	-32.4	-36.2	9.4	1.02e-02	0	44	102	1048576	24	5578
2026-01-25 09:48:02.28	11.25	39.11	-32.1	-35.3	10.1	4.98e-03	0	44	102	1048576	24	5186
2026-01-25 09:48:03.28	10.96	38.92	-31.6	-33.7	11.3	2.47e-03	0	44	102	1048576	24	4547
2026-01-25 09:48:04.29	10.68	38.72	-31.5	-33.2	11.6	4.75e-04	0	44	102	1048576	24	4374
2026-01-25 09:48:05.29	10.40	38.52	-31.3	-33.3	11.9	5.03e-04	0	44	102	1048576	23	4485
2026-01-25 09:48:06.30	10.12	38.32	-31.6	-34.0	11.4	8.93e-04	0	44	102	1048576	23	4747
2026-01-25 09:48:07.30	9.85	38.13	-31.6	-34.0	11.4	8.10e-04	0	44	102	1048576	23	4739
2026-01-25 09:48:08.31	9.58	37.93	-31.7	-34.4	11.1	3.97e-04	0	44	102	1048576	23	4911
2026-01-25 09:48:09.31	9.32	37.74	-31.7	-34.3	11.2	1.64e-03	0	44	102	1048576	23	4864
2026-01-25 09:48:10.32	9.05	37.54	-31.8	-34.8	10.7	1.19e-03	0	44	102	1048576	23	5066
2026-01-25 09:48:11.32	8.79	37.34	-31.8	-34.8	10.9	1.76e-03	0	44	102	1048576	23	5060
2026-01-25 09:48:12.33	8.53	37.15	-31.9	-35.0	10.6	3.68e-03	0	44	102	1048576	23	5142
2026-01-25 09:48:13.33	8.28	36.96	-31.7	-34.4	10.9	2.43e-03	0	44	102	1048576	23	4923
2026-01-25 09:48:14.33	8.03	36.76	-32.0	-34.8	10.4	1.60e-03	0	44	102	1048576	24	4985
2026-01-25 09:48:15.33	7.79	36.57	-32.0	-34.9	10.2	5.38e-03	0	44	102	1048576	24	5036
2026-01-25 09:48:16.34	7.54	36.38	-32.1	-35.1	10.1	4.68e-03	0	44	102	1048576	24	5093
2026-01-25 09:48:17.35	7.30	36.19	-31.6	-33.6	11.2	1.68e-03	0	44	102	1048576	24	4536
2026-01-25 09:48:18.35	7.06	35.99	-31.2	-32.9	12.0	7.58e-04	0	44	102	1048576	23	4360
2026-01-25 09:48:19.35	6.82	35.80	-31.1	-32.5	12.3	1.66e-04	0	44	102	1048576	23	4238
2026-01-25 09:48:20.35	6.59	35.62	-31.1	-32.7	12.2	1.22e-04	0	44	102	1048576	23	4291
2026-01-25 09:48:21.35	6.36	35.43	-31.5	-33.8	11.4	4.78e-04	0	44	102	1048576	23	4699
2026-01-25 09:48:22.35	6.14	35.24	-31.6	-34.1	11.1	1.36e-03	0	44	102	1048576	23	4812
2026-01-25 09:48:23.36	5.91	35.05	-32.0	-35.3	10.3	2.79e-03	0	44	102	1048576	23	5296
2026-01-25 09:48:24.36	5.69	34.86	-32.0	-34.8	10.4	3.28e-03	0	44	102	1048576	24	4995
2026-01-25 09:48:25.36	5.47	34.68	-32.1	-35.3	9.9	1.12e-02	0	44	102	1048576	24	5206
2026-01-25 09:48:26.37	5.25	34.49	-31.6	-33.7	11.1	3.07e-03	0	44	102	1048576	24	4566
2026-01-25 09:48:27.38	5.03	34.30	-31.1	-32.5	12.3	8.48e-04	0	44	102	1048576	23	4237
2026-01-25 09:48:28.39	4.82	34.12	-30.4	-31.3	13.4	4.34e-05	0	44	102	1048576	22	3959
2026-01-25 09:48:29.39	4.61	33.93	-30.5	-31.9	13.3	9.90e-06	0	44	102	1048576	21	4249
2026-01-25 09:48:30.39	4.41	33.75	-30.4	-31.6	13.5	8.30e-06	0	44	102	1048576	21	4140
2026-01-25 09:48:31.40	4.20	33.56	-30.7	-32.6	12.9	2.13e-05	0	44	102	1048576	21	4467
2026-01-25 09:48:32.41	3.99	33.38	-31.0	-33.2	12.5	1.23e-04	0	44	102	1048576	21	4672
2026-01-25 09:48:33.41	3.80	33.20	-31.0	-32.8	12.4	2.42e-04	0	44	102	1048576	22	4422
2026-01-25 09:48:34.42	3.60	33.02	-30.7	-32.1	12.9	1.01e-04	0	44	102	1048576	22	4197
2026-01-25 09:48:35.42	3.40	32.84	-30.6	-31.7	13.1	1.37e-05	0	44	102	1048576	22	4079
2026-01-25 09:48:36.43	3.21	32.66	-30.6	-31.6	13.1	2.13e-05	0	44	102	1048576	22	4066
2026-01-25 09:48:37.43	3.01	32.48	-30.8	-32.3	12.7	6.17e-05	0	44	102	1048576	22	4273
2026-01-25 09:48:38.42	2.83	32.30	-30.9	-32.6	12.5	1.27e-04	0	44	102	1048576	22	4365
2026-01-25 09:48:39.41	2.64	32.13	-31.0	-32.8	12.4	1.51e-04	0	44	102	1048576	22	4432
2026-01-25 09:48:40.42	2.46	31.95	-31.0	-32.9	12.3	3.61e-04	0	44	102	1048576	22	4490
2026-01-25 09:48:41.43	2.27	31.77	-31.2	-33.5	11.9	2.91e-04	0	44	102	1048576	22	4685
2026-01-25 09:48:42.43	2.09	31.60	-31.3	-33.9	11.7	3.65e-04	0	44	102	1048576	22	4825
2026-01-25 09:48:43.43	1.91	31.43	-31.5	-34.0	11.2	8.34e-04	0	44	102	1048576	23	4770
2026-01-25 09:48:44.44	1.73	31.25	-31.6	-34.2	11.0	1.63e-03	0	44	102	1048576	23	4869
2026-01-25 09:48:45.44	1.56	31.08	-31.3	-33.2	11.7	1.24e-03	0	44	102	1048576	23	4474
2026-01-25 09:48:46.45	1.39	30.90	-31.3	-33.1	11.8	5.18e-04	0	44	102	1048576	23	4463
2026-01-25 09:48:47.45	1.21	30.73	-31.1	-32.7	12.0	3.77e-04	0	44	102	1048576	23	4302
2026-01-25 09:48:48.46	1.04	30.56	-31.3	-33.3	11.6	3.48e-04	0	44	102	1048576	23	4519
2026-01-25 09:48:49.46	0.88	30.39	-31.1	-32.8	12.0	5.63e-04	0	44	102	1048576	23	4355
2026-01-25 09:48:50.46	0.71	30.22	-31.3	-33.2	11.7	3.36e-04	0	44	102	1048576	23	4490
2026-01-25 09:48:51.47	0.55	30.05	-31.2	-32.9	11.9	4.53e-04	0	44	102	1048576	23	4388
2026-01-25 09:48:52.47	0.38	29.89	-31.3	-33.3	11.7	6.44e-04	0	44	102	1048576	23	4526
2026-01-25 09:48:53.48	0.22	29.72	-31.3	-33.2	11.6	7.34e-04	0	44	102	1048576	23	4510
2026-01-25 09:48:54.48	0.06	29.55	-31.2	-33.1	11.7	5.51e-04	0	44	102	1048576	23	4469
2026-01-25 09:48:55.48	359.91	29.39	-31.1	-32.8	11.9	2.88e-04	0	44	102	1048576	23	4366
2026-01-25 09:48:56.49	359.75	29.22	-31.3	-33.2	11.7	3.63e-04	0	44	102	1048576	23	4501
2026-01-25 09:48:57.50	359.59	29.05	-31.4	-33.8	11.3	1.10e-03	0	44	102	1048576	23	4698
2026-01-25 09:48:58.50	359.44	28.89	-31.5	-34.0	11.2	1.44e-03	0	44	102	1048576	23	4787
2026-01-25 09:48:59.50	359.29	28.73	-31.6	-34.1	10.9	3.03e-03	0	44	102	1048576	23	4836
2026-01-25 09:49:00.51	359.14	28.56	-31.2	-32.9	11.9	1.00e-03	0	44	102	1048576	23	4392
2026-01-25 09:49:01.50	358.99	28.41	-30.8	-31.8	12.6	1.82e-04	0	44	102	1048576	23	4048
2026-01-25 09:49:02.51	358.85	28.24	-30.1	-30.9	13.8	3.80e-06	0	44	102	1048576	21	3936
2026-01-25 09:49:03.52	358.70	28.08	-29.7	-30.4	14.4	0.00e+00	0	44	102	1048576	20	3891
2026-01-25 09:49:04.52	358.56	27.92	-29.4	-29.8	14.8	0.00e+00	0	44	102	1048576	20	3731
2026-01-25 09:49:05.52	358.42	27.77	-29.5	-29.9	14.7	0.00e+00	0	44	102	1048576	20	3768
2026-01-25 09:49:06.52	358.28	27.61	-29.6	-30.1	14.6	0.00e+00	0	44	102	1048576	20	3822
2026-01-25 09:49:07.52	358.14	27.45	-29.7	-30.5	14.4	0.00e+00	0	44	102	1048576	20	3932
2026-01-25 09:49:08.53	358.00	27.29	-29.8	-30.8	14.2	3.00e-06	0	44	102	1048576	20	4012
2026-01-25 09:49:09.53	357.86	27.14	-29.9	-30.9	14.1	4.50e-06	0	44	102	1048576	20	4048
2026-01-25 09:49:10.54	357.73	26.98	-30.1	-31.5	13.7	9.90e-06	0	44	102	1048576	20	4212
2026-01-25 09:49:11.54	357.59	26.83	-30.2	-31.6	13.7	8.30e-06	0	44	102	1048576	20	4261
2026-01-25 09:49:12.54	357.46	26.68	-30.3	-32.0	13.4	8.30e-06	0	44	102	1048576	20	4388
2026-01-25 09:49:13.55	357.33	26.52	-30.5	-32.5	13.1	2.13e-05	0	44	102	1048576	20	4536
2026-01-25 09:49:14.55	357.20	26.37	-30.8	-33.0	12.5	7.78e-05	0	44	102	1048576	21	4604
2026-01-25 09:49:15.55	357.07	26.22	-31.0	-33.4	12.1	1.88e-04	0	43	102	1048576	21	4753
2026-01-25 09:49:16.55	356.95	26.07	-31.0	-32.9	12.1	2.03e-04	0	44	102	1048576	22	4495
2026-01-25 09:49:17.56	356.82	25.92	-30.8	-32.5	12.4	2.23e-04	0	44	102	1048576	22	4342
2026-01-25 09:49:18.56	356.70	25.77	-30.7	-31.9	12.8	1.04e-04	0	44	102	1048576	22	4180
2026-01-25 09:49:19.57	356.57	25.62	-30.5	-31.7	12.9	3.66e-05	0	44	102	1048576	22	4093
2026-01-25 09:49:20.57	356.45	25.47	-30.6	-31.9	12.9	4.42e-05	0	44	102	1048576	22	4157
2026-01-25 09:49:21.58	356.33	25.32	-30.5	-31.5	13.1	5.49e-05	0	43	102	1048576	22	4050
2026-01-25 09:49:22.59	356.21	25.17	-30.4	-31.7	13.2	1.83e-05	0	44	102	1048576	21	4199
2026-01-25 09:49:23.59	356.09	25.03	-30.5	-32.1	13.0	2.51e-05	0	44	102	1048576	21	4318
2026-01-25 09:49:24.59	355.97	24.88	-30.7	-32.6	12.7	5.34e-05	0	44	102	1048576	21	4473
2026-01-25 09:49:25.59	355.85	24.74	-31.0	-33.5	12.1	1.45e-04	0	44	102	1048576	21	4799
2026-01-25 09:49:26.60	355.74	24.59	-31.2	-33.5	11.7	4.87e-04	0	44	102	1048576	22	4708
2026-01-25 09:49:27.60	355.62	24.45	-31.2	-33.6	11.6	6.42e-04	0	44	102	1048576	22	4747
2026-01-25 09:49:28.60	355.51	24.31	-31.3	-34.0	11.4	7.43e-04	0	44	102	1048576	22	4871
2026-01-25 09:49:29.60	355.40	24.17	-31.3	-34.0	11.4	1.29e-03	0	44	102	1048576	22	4891
2026-01-25 09:49:30.61	355.29	24.03	-31.0	-33.0	12.1	4.99e-04	0	44	102	1048576	22	4520
2026-01-25 09:49:31.60	355.18	23.89	-30.8	-32.5	12.4	1.53e-04	0	44	102	1048576	22	4347
2026-01-25 09:49:32.61	355.07	23.74	-30.9	-32.6	12.3	1.36e-04	0	44	102	1048576	22	4400
2026-01-25 09:49:33.61	354.96	23.61	-30.8	-32.4	12.5	1.46e-04	0	44	102	1048576	22	4338
2026-01-25 09:49:34.62	354.85	23.47	-31.0	-33.1	12.0	3.30e-04	0	43	102	1048576	22	4552
2026-01-25 09:49:35.63	354.74	23.33	-31.3	-33.9	11.4	4.03e-04	0	44	102	1048576	22	4838
2026-01-25 09:49:36.63	354.64	23.19	-31.3	-34.0	11.4	8.77e-04	0	44	102	1048576	22	4883
2026-01-25 09:49:37.64	354.53	23.05	-31.3	-33.8	11.5	9.69e-04	0	44	102	1048576	22	4820
2026-01-25 09:49:38.64	354.43	22.92	-31.2	-33.5	11.7	7.64e-04	0	44	102	1048576	22	4704
2026-01-25 09:49:39.65	354.33	22.78	-31.1	-33.3	11.8	3.81e-04	0	44	102	1048576	22	4650
2026-01-25 09:49:40.66	354.23	22.64	-31.1	-33.3	11.8	4.37e-04	0	44	102	1048576	22	4639
2026-01-25 09:49:41.66	354.13	22.51	-30.9	-32.8	12.1	4.71e-04	0	44	102	1048576	22	4463
2026-01-25 09:49:42.67	354.03	22.37	-30.7	-32.2	12.6	1.57e-04	0	44	102	1048576	22	4267
2026-01-25 09:49:43.67	353.93	22.24	-30.9	-32.8	12.2	1.62e-04	0	44	102	1048576	22	4460
2026-01-25 09:49:44.68	353.83	22.11	-30.9	-32.8	12.2	2.68e-04	0	44	102	1048576	22	4472
2026-01-25 09:49:45.68	353.73	21.98	-31.0	-33.0	12.0	2.10e-04	0	44	102	1048576	22	4552
2026-01-25 09:49:46.68	353.64	21.84	-31.0	-33.1	11.9	3.66e-04	0	44	102	1048576	22	4565
2026-01-25 09:49:47.69	353.54	21.71	-31.0	-33.2	11.8	4.41e-04	0	44	102	1048576	22	4605
2026-01-25 09:49:48.69	353.44	21.58	-31.2	-33.7	11.4	9.72e-04	0	44	102	1048576	22	4794
2026-01-25 09:49:49.69	353.35	21.45	-31.1	-33.4	11.6	1.08e-03	0	44	102	1048576	22	4702
2026-01-25 09:49:50.70	353.26	21.32	-30.9	-32.6	12.2	3.31e-04	0	44	102	1048576	22	4414
2026-01-25 09:49:51.71	353.16	21.19	-30.6	-31.8	12.7	1.07e-04	0	44	102	1048576	22	4154
2026-01-25 09:49:52.71	353.07	21.07	-30.4	-31.4	13.1	5.79e-05	0	44	102	1048576	22	4018
2026-01-25 09:49:53.71	352.98	20.94	-30.2	-31.3	13.4	1.44e-05	0	44	102	1048576	21	4088
2026-01-25 09:49:54.72	352.89	20.81	-30.1	-31.0	13.6	1.06e-05	0	44	102	1048576	21	3987
2026-01-25 09:49:55.72	352.80	20.69	-30.0	-30.8	13.7	5.30e-06	0	44	102	1048576	21	3948
2026-01-25 09:49:56.72	352.72	20.56	-30.2	-31.3	13.4	9.90e-06	0	44	102	1048576	21	4082
2026-01-25 09:49:57.71	352.63	20.44	-30.1	-31.1	13.4	2.21e-05	0	44	102	1048576	21	4038
2026-01-25 09:49:58.72	352.54	20.31	-29.9	-30.6	13.8	5.30e-06	0	44	102	1048576	21	3901
2026-01-25 09:49:59.72	352.46	20.19	-30.0	-30.7	13.7	4.50e-06	0	44	102	1048576	21	3927
2026-01-25 09:50:00.72	352.37	20.06	-30.1	-31.2	13.4	1.22e-05	0	44	102	1048576	21	4057
2026-01-25 09:50:01.73	352.29	19.94	-30.5	-32.1	12.8	3.66e-05	0	44	102	1048576	21	4345
2026-01-25 09:50:02.73	352.20	19.82	-30.7	-32.8	12.4	1.05e-04	0	44	102	1048576	21	4568
2026-01-25 09:50:03.73	352.12	19.70	-30.9	-33.5	11.9	3.22e-04	0	44	102	1048576	21	4820
2026-01-25 09:50:04.73	352.04	19.58	-31.1	-33.6	11.5	7.40e-04	0	44	102	1048576	22	4769
2026-01-25 09:50:05.74	351.95	19.45	-31.4	-34.3	10.9	1.16e-03	0	44	102	1048576	22	5028
2026-01-25 09:50:06.74	351.87	19.33	-31.4	-34.5	10.7	2.60e-03	0	44	102	1048576	22	5145
2026-01-25 09:50:07.75	351.79	19.21	-31.4	-33.9	10.8	3.12e-03	0	44	102	1048576	23	4794
2026-01-25 09:50:08.75	351.71	19.09	-31.5	-34.2	10.6	3.07e-03	0	44	102	1048576	23	4917
2026-01-25 09:50:09.76	351.63	18.97	-31.5	-34.1	10.6	5.55e-03	0	44	102	1048576	23	4893
2026-01-25 09:50:10.76	351.56	18.86	-31.1	-33.1	11.4	1.35e-03	0	44	102	1048576	23	4519
2026-01-25 09:50:11.77	351.48	18.74	-30.9	-32.4	11.8	7.28e-04	0	44	102	1048576	23	4273
2026-01-25 09:50:12.77	351.40	18.62	-30.9	-32.7	12.0	3.78e-04	0	44	102	1048576	22	4470
2026-01-25 09:50:13.78	351.32	18.50	-30.6	-32.1	12.4	1.43e-04	0	44	102	1048576	22	4278
2026-01-25 09:50:14.79	351.25	18.39	-30.5	-31.7	12.7	7.78e-05	0	44	102	1048576	22	4123
2026-01-25 09:50:15.80	351.17	18.27	-30.5	-31.8	12.6	5.34e-05	0	44	102	1048576	22	4152
2026-01-25 09:50:16.81	351.09	18.15	-30.6	-31.9	12.5	1.16e-04	0	44	102	1048576	22	4196
2026-01-25 09:50:17.81	351.02	18.04	-30.4	-31.4	12.9	7.62e-05	0	44	102	1048576	22	4028
2026-01-25 09:50:18.82	350.95	17.92	-30.1	-31.3	13.2	3.50e-05	0	44	102	1048576	21	4092
2026-01-25 09:50:19.82	350.87	17.81	-30.0	-30.9	13.4	1.98e-05	0	44	102	1048576	21	3993
2026-01-25 09:50:20.81	350.80	17.70	-30.0	-30.8	13.5	1.67e-05	0	44	102	1048576	21	3958
2026-01-25 09:50:21.82	350.73	17.59	-30.2	-31.3	13.2	9.10e-06	0	44	102	1048576	21	4114
2026-01-25 09:50:22.82	350.66	17.47	-30.0	-30.9	13.5	1.44e-05	0	44	102	1048576	21	3996
2026-01-25 09:50:23.83	350.59	17.36	-30.3	-31.6	13.0	1.67e-05	0	44	102	1048576	21	4194
2026-01-25 09:50:24.83	350.52	17.25	-30.2	-31.4	13.1	2.97e-05	0	44	102	1048576	21	4122
2026-01-25 09:50:25.84	350.45	17.14	-30.3	-31.6	13.1	2.51e-05	0	44	102	1048576	21	4193
2026-01-25 09:50:26.85	350.38	17.03	-30.3	-31.6	13.0	3.12e-05	0	44	102	1048576	21	4210
2026-01-25 09:50:27.85	350.31	16.92	-30.5	-32.3	12.5	8.01e-05	0	44	102	1048576	21	4428
2026-01-25 09:50:28.85	350.24	16.81	-30.3	-31.8	12.9	1.16e-04	0	44	102	1048576	21	4265
2026-01-25 09:50:29.86	350.17	16.70	-30.6	-32.6	12.4	6.79e-05	0	44	102	1048576	21	4514
2026-01-25 09:50:30.87	350.10	16.59	-30.7	-32.9	12.1	2.29e-04	0	44	102	1048576	21	4624
2026-01-25 09:50:31.87	350.04	16.48	-30.6	-32.5	12.3	1.62e-04	0	44	102	1048576	21	4492
2026-01-25 09:50:32.88	349.97	16.37	-30.7	-32.7	12.2	2.29e-04	0	44	102	1048576	21	4565
2026-01-25 09:50:33.89	349.91	16.26	-30.7	-33.0	12.0	3.10e-04	0	44	102	1048576	21	4663
2026-01-25 09:50:34.89	349.84	16.16	-30.6	-32.6	12.2	2.78e-04	0	44	102	1048576	21	4530
2026-01-25 09:50:35.90	349.78	16.05	-30.7	-33.0	11.9	3.00e-04	0	44	102	1048576	21	4682
2026-01-25 09:50:36.90	349.71	15.94	-30.7	-32.8	12.0	3.41e-04	0	44	102	1048576	21	4617
2026-01-25 09:50:37.90	349.65	15.84	-30.5	-32.4	12.4	2.16e-04	0	44	102	1048576	21	4459
2026-01-25 09:50:38.90	349.59	15.73	-30.6	-32.5	12.4	1.60e-04	0	44	102	1048576	21	4489
2026-01-25 09:50:39.90	349.52	15.63	-30.8	-33.1	11.9	1.59e-04	0	44	102	1048576	21	4710
2026-01-25 09:50:40.91	349.46	15.52	-30.5	-32.3	12.4	1.40e-04	0	44	102	1048576	21	4434
2026-01-25 09:50:41.92	349.40	15.42	-30.4	-32.0	12.6	6.40e-05	0	44	102	1048576	21	4335
2026-01-25 09:50:42.92	349.34	15.31	-30.3	-31.9	12.7	1.20e-04	0	44	102	1048576	21	4285
2026-01-25 09:50:43.92	349.28	15.21	-30.4	-32.0	12.6	8.23e-05	0	44	102	1048576	21	4338
2026-01-25 09:50:44.93	349.22	15.11	-30.4	-32.1	12.5	9.99e-05	0	44	102	1048576	21	4362
2026-01-25 09:50:45.94	349.16	15.00	-30.4	-32.0	12.6	9.46e-05	0	44	102	1048576	21	4349
2026-01-25 09:50:46.94	349.10	14.90	-30.5	-32.5	12.3	1.57e-04	0	44	102	1048576	21	4498
2026-01-25 09:50:47.94	349.04	14.80	-30.5	-32.3	12.4	2.84e-04	0	44	102	1048576	21	4448
2026-01-25 09:50:48.95	348.98	14.70	-30.7	-33.0	11.9	2.81e-04	0	44	102	1048576	21	4678
2026-01-25 09:50:49.95	348.92	14.60	-30.7	-32.8	12.0	3.84e-04	0	44	102	1048576	21	4608
2026-01-25 09:50:50.95	348.86	14.50	-30.6	-32.8	12.1	2.58e-04	0	44	102	1048576	21	4598
2026-01-25 09:50:51.96	348.80	14.40	-30.8	-33.4	11.6	4.97e-04	0	44	102	1048576	21	4840
2026-01-25 09:50:52.96	348.75	14.30	-31.1	-33.6	11.1	9.31e-04	0	44	102	1048576	22	4808
2026-01-25 09:50:53.96	348.69	14.20	-31.0	-33.4	11.2	1.04e-03	0	44	102	1048576	22	4754
2026-01-25 09:50:54.97	348.63	14.10	-31.1	-33.8	11.0	1.61e-03	0	44	102	1048576	22	4877
2026-01-25 09:50:55.97	348.58	14.00	-31.1	-33.8	10.9	1.70e-03	0	44	102	1048576	22	4903
2026-01-25 09:50:56.98	348.52	13.90	-31.1	-33.7	11.0	1.56e-03	0	44	102	1048576	22	4876
2026-01-25 09:50:57.98	348.47	13.80	-31.2	-34.1	10.7	2.50e-03	0	44	102	1048576	22	5020
2026-01-25 09:50:58.98	348.41	13.71	-31.1	-33.7	11.0	2.70e-03	0	44	102	1048576	22	4862
2026-01-25 09:50:59.99	348.36	13.61	-31.3	-34.3	10.5	2.87e-03	0	44	102	1048576	22	5092
2026-01-25 09:51:00.99	348.31	13.51	-31.0	-33.6	11.1	2.37e-03	0	44	102	1048576	22	4823
2026-01-25 09:51:02.00	348.25	13.42	-31.0	-33.5	11.1	1.34e-03	0	44	102	1048576	22	4782
2026-01-25 09:51:03.01	348.20	13.32	-30.9	-33.0	11.4	1.41e-03	0	44	102	1048576	22	4630
2026-01-25 09:51:04.01	348.15	13.22	-30.8	-33.0	11.4	9.08e-04	0	44	102	1048576	22	4616
2026-01-25 09:51:05.02	348.09	13.13	-30.9	-33.3	11.2	1.35e-03	0	44	102	1048576	22	4723
2026-01-25 09:51:06.03	348.04	13.03	-30.7	-32.5	11.7	1.08e-03	0	44	102	1048576	22	4437
2026-01-25 09:51:07.03	347.99	12.94	-30.7	-32.5	11.7	5.57e-04	0	44	102	1048576	22	4426
2026-01-25 09:51:08.04	347.94	12.84	-30.7	-32.7	11.6	5.85e-04	0	44	102	1048576	22	4501
2026-01-25 09:51:09.03	347.89	12.75	-30.6	-32.2	12.0	4.02e-04	0	44	102	1048576	22	4334
2026-01-25 09:51:10.04	347.84	12.66	-30.3	-31.4	12.4	2.16e-04	0	44	102	1048576	22	4085
2026-01-25 09:51:11.05	347.79	12.56	-30.3	-32.0	12.4	1.12e-04	0	44	102	1048576	21	4355
2026-01-25 09:51:12.05	347.74	12.47	-30.4	-32.0	12.4	1.88e-04	0	44	102	1048576	21	4373
2026-01-25 09:51:13.05	347.69	12.38	-30.3	-32.0	12.4	1.93e-04	0	44	102	1048576	21	4360
2026-01-25 09:51:14.05	347.64	12.28	-30.1	-31.5	12.7	8.23e-05	0	44	102	1048576	21	4187
2026-01-25 09:51:15.06	347.59	12.19	-30.2	-31.7	12.5	9.00e-05	0	44	102	1048576	21	4268
2026-01-25 09:51:16.07	347.54	12.10	-30.2	-31.6	12.6	6.94e-05	0	44	102	1048576	21	4244
2026-01-25 09:51:17.07	347.49	12.01	-30.2	-31.5	12.7	6.63e-05	0	44	102	1048576	21	4218
2026-01-25 09:51:18.08	347.44	11.92	-30.2	-31.5	12.7	9.91e-05	0	44	102	1048576	21	4217
2026-01-25 09:51:19.09	347.40	11.83	-30.2	-31.7	12.5	7.55e-05	0	44	102	1048576	21	4281
2026-01-25 09:51:20.09	347.35	11.74	-30.3	-32.0	12.3	1.02e-04	0	44	102	1048576	21	4376
2026-01-25 09:51:21.10	347.30	11.64	-30.4	-32.2	12.2	1.91e-04	0	44	102	1048576	21	4430
2026-01-25 09:51:22.10	347.25	11.56	-30.4	-32.2	12.1	2.23e-04	0	44	102	1048576	21	4447
2026-01-25 09:51:23.11	347.21	11.47	-30.5	-32.4	12.0	2.89e-04	0	44	102	1048576	21	4520
2026-01-25 09:51:24.12	347.16	11.38	-30.5	-32.7	11.8	3.79e-04	0	44	102	1048576	21	4615
2026-01-25 09:51:25.12	347.12	11.29	-30.5	-32.6	11.8	4.95e-04	0	44	102	1048576	21	4571
2026-01-25 09:51:26.13	347.07	11.20	-30.5	-32.7	11.8	5.86e-04	0	44	102	1048576	21	4625
2026-01-25 09:51:27.13	347.03	11.11	-30.7	-33.1	11.6	6.71e-04	0	44	102	1048576	21	4742
2026-01-25 09:51:28.14	346.98	11.02	-30.7	-33.3	11.4	9.57e-04	0	44	102	1048576	21	4830
2026-01-25 09:51:29.14	346.94	10.93	-30.8	-33.4	11.3	1.07e-03	0	44	102	1048576	21	4877
2026-01-25 09:51:30.15	346.89	10.85	-30.7	-33.3	11.2	1.35e-03	0	44	102	1048576	21	4852
2026-01-25 09:51:31.15	346.85	10.76	-30.7	-33.3	11.2	1.05e-03	0	44	102	1048576	21	4868
2026-01-25 09:51:32.17	346.80	10.67	-30.7	-33.3	11.3	1.15e-03	0	44	102	1048576	21	4834
2026-01-25 09:51:33.17	346.76	10.58	-30.8	-33.4	11.2	1.19e-03	0	44	102	1048576	21	4876
2026-01-25 09:51:34.17	346.72	10.50	-30.8	-33.4	11.2	1.31e-03	0	44	102	1048576	21	4894
2026-01-25 09:51:35.17	346.67	10.41	-30.8	-33.5	11.2	1.27e-03	0	44	102	1048576	21	4916
2026-01-25 09:51:36.18	346.63	10.33	-30.8	-33.5	11.1	1.30e-03	0	44	102	1048576	21	4936
2026-01-25 09:51:37.19	346.59	10.24	-31.0	-34.0	10.7	2.06e-03	0	44	102	1048576	21	5134
2026-01-25 09:51:38.19	346.55	10.16	-30.7	-33.1	11.3	1.99e-03	0	44	102	1048576	21	4764
2026-01-25 09:51:39.20	346.50	10.07	-30.8	-33.5	11.2	9.90e-04	0	44	102	1048576	21	4906
2026-01-25 09:51:40.20	346.46	9.99	-30.7	-33.2	11.3	1.37e-03	0	44	102	1048576	21	4822
2026-01-25 09:51:41.20	346.42	9.90	-30.7	-33.2	11.4	1.12e-03	0	44	102	1048576	21	4794
2026-01-25 09:51:42.21	346.38	9.82	-30.8	-33.5	11.1	1.56e-03	0	44	102	1048576	21	4914
2026-01-25 09:51:43.21	346.34	9.73	-30.8	-33.6	11.0	1.74e-03	0	44	102	1048576	21	4974
2026-01-25 09:51:44.22	346.30	9.65	-30.8	-33.4	11.1	1.69e-03	0	44	102	1048576	21	4898
2026-01-25 09:51:45.22	346.26	9.57	-30.9	-33.9	10.8	2.19e-03	0	44	102	1048576	21	5085
2026-01-25 09:51:46.23	346.22	9.48	-31.0	-34.1	10.7	2.41e-03	0	44	102	1048576	21	5178
2026-01-25 09:51:47.23	346.18	9.40	-30.8	-33.6	11.0	2.10e-03	0	44	102	1048576	21	4976
2026-01-25 09:51:48.23	346.14	9.32	-30.8	-33.7	10.9	2.03e-03	0	43	102	1048576	21	5021
2026-01-25 09:51:49.23	346.10	9.24	-30.9	-33.9	10.7	2.20e-03	0	44	102	1048576	21	5095
2026-01-25 09:51:50.24	346.06	9.15	-31.0	-34.2	10.5	3.03e-03	0	44	102	1048576	21	5226
2026-01-25 09:51:51.24	346.02	9.07	-31.1	-34.0	10.3	4.89e-03	0	44	102	1048576	22	5070
2026-01-25 09:51:52.25	345.99	8.99	-31.2	-34.6	9.8	1.09e-02	0	44	102	1048576	22	5295
2026-01-25 09:51:53.26	345.95	8.91	-31.1	-34.2	10.2	8.13e-03	0	44	102	1048576	22	5130
2026-01-25 09:51:54.26	345.91	8.83	-31.2	-34.4	9.9	6.05e-03	0	44	102	1048576	22	5248
2026-01-25 09:51:55.27	345.87	8.75	-31.1	-34.3	10.0	7.96e-03	0	44	102	1048576	22	5189
2026-01-25 09:51:56.27	345.83	8.67	-31.2	-34.5	9.8	8.73e-03	0	44	102	1048576	22	5275
2026-01-25 09:51:57.27	345.80	8.59	-31.2	-34.5	9.8	1.27e-02	0	44	102	1048576	22	5279
2026-01-25 09:51:58.28	345.76	8.51	-31.2	-34.6	9.7	9.27e-03	0	44	102	1048576	22	5331
2026-01-25 09:51:59.29	345.72	8.43	-31.2	-34.5	9.7	1.16e-02	0	44	102	1048576	22	5303
2026-01-25 09:52:00.29	345.69	8.35	-31.3	-34.9	9.5	1.68e-02	0	44	102	1048576	22	5444
2026-01-25 09:52:01.29	345.65	8.27	-31.3	-34.9	9.5	1.70e-02	0	44	102	1048576	22	5445
2026-01-25 09:52:02.29	345.61	8.19	-31.4	-35.2	9.2	1.29e-02	0	44	102	1048576	22	5616
2026-01-25 09:52:03.30	345.58	8.11	-31.2	-34.8	9.6	1.57e-02	0	44	102	1048576	22	5423
2026-01-25 09:52:04.30	345.54	8.03	-31.3	-35.1	9.4	1.46e-02	0	44	102	1048576	22	5545
