passes_logs/2025/01/12/X_MFTI_01/X_MFTI_01__20250112_111529_FENGYUN_3D_rec.log

#Pass ID: 20250112_111529_FENGYUN 3D
#Satellite: FENGYUN 3D
#Configuration: FENGYUN 3D
#Start time: 2025-01-12 11:15:23

#Version: 1.5.20200625
#Station: X_MFTI_01
#Location: 37.5186 lon 55.9291 lat
#TLE: 1 43010U 17072A   23362.50642187  .00000183  00000+0  10870-3 0  9994
#TLE: 2 43010  98.8887 311.3857 0002475  98.0400 262.1057 14.19259665317063

#Time	Az	El	Level	Level2	SNR	BER	Gain	Gain2
2025-01-12 11:15:23.70	143.58	67.83	-74.9	-95.9	3.7	8463294	99	40042
2025-01-12 11:15:23.91	143.50	67.92	-74.9	-95.8	3.8	8462882	99	40022
2025-01-12 11:15:24.12	143.42	68.01	-74.7	-95.6	3.8	8462882	99	40173
2025-01-12 11:15:24.33	143.34	68.11	-74.8	-95.8	3.8	8458934	99	40184
2025-01-12 11:15:24.54	143.26	68.20	-74.8	-95.8	3.8	8462322	99	40214
2025-01-12 11:15:24.75	143.18	68.29	-74.7	-95.7	3.8	8462322	99	40184
2025-01-12 11:15:24.96	143.10	68.38	-74.8	-95.5	3.8	8454025	99	39314
2025-01-12 11:15:25.17	143.02	68.47	-74.7	-95.5	3.8	8467929	99	39493
2025-01-12 11:15:25.37	142.94	68.56	-74.7	-95.7	3.8	8457035	99	40406
2025-01-12 11:15:25.58	142.85	68.65	-74.7	-95.7	3.8	8457035	99	40343
2025-01-12 11:15:25.79	142.77	68.75	-74.7	-95.6	3.8	8459690	99	39774
2025-01-12 11:15:26.00	142.68	68.84	-74.8	-95.8	3.8	8457241	99	40285
2025-01-12 11:15:26.21	142.60	68.93	-74.8	-95.8	3.7	8457241	99	40326
2025-01-12 11:15:26.42	142.51	69.02	-74.7	-95.6	3.8	8464244	99	39750
2025-01-12 11:15:26.63	142.42	69.11	-74.7	-95.6	3.8	8454952	99	39778
2025-01-12 11:15:26.83	142.33	69.20	-74.8	-95.7	3.8	8454952	99	39638
2025-01-12 11:15:27.04	142.24	69.29	-74.8	-95.7	3.8	8457241	99	39983
2025-01-12 11:15:27.25	142.15	69.39	-74.8	-95.7	3.8	8462619	99	39891
2025-01-12 11:15:27.46	142.06	69.48	-74.8	-95.7	3.8	8463832	99	39882
2025-01-12 11:15:27.66	141.97	69.57	-74.8	-95.6	3.7	8463832	99	39828
2025-01-12 11:15:27.87	141.88	69.66	-74.8	-95.4	3.7	8460582	99	38679
2025-01-12 11:15:28.07	141.79	69.75	-74.7	-95.4	3.8	8450408	99	38707
2025-01-12 11:15:28.28	141.70	69.84	-74.8	-95.4	3.8	8450408	99	38802
2025-01-12 11:15:28.49	141.60	69.93	-74.8	-95.7	3.8	8458900	99	39911
2025-01-12 11:15:28.70	141.50	70.03	-74.8	-95.7	3.8	8454803	99	39956
2025-01-12 11:15:28.90	141.41	70.11	-74.7	-95.6	3.8	8461257	99	39819
2025-01-12 11:15:29.11	141.31	70.21	-74.7	-95.6	3.8	8461257	99	39919
2025-01-12 11:15:29.32	141.21	70.30	-74.7	-95.6	3.7	8452136	99	39912
2025-01-12 11:15:29.53	141.11	70.39	-74.7	-95.5	3.8	8451370	99	39436
2025-01-12 11:15:29.74	141.01	70.49	-74.7	-95.5	3.8	8451370	99	39453
2025-01-12 11:15:29.95	140.90	70.58	-74.7	-95.4	3.8	8446105	99	39026
2025-01-12 11:15:30.15	140.80	70.67	-74.8	-95.7	3.8	8453498	99	39936
2025-01-12 11:15:30.36	140.70	70.76	-74.8	-95.7	3.8	8462345	99	39914
2025-01-12 11:15:30.57	140.59	70.85	-74.8	-95.7	3.8	8462345	99	39888
2025-01-12 11:15:30.78	140.48	70.95	-74.7	-95.5	3.8	8456462	99	39854
2025-01-12 11:15:30.99	140.37	71.04	-74.7	-95.3	3.7	8468456	99	38553
2025-01-12 11:15:31.20	140.26	71.13	-74.7	-95.3	3.8	8468456	99	38618
2025-01-12 11:15:31.41	140.15	71.23	-74.8	-95.4	3.8	8459907	99	38593
2025-01-12 11:15:31.61	140.05	71.31	-74.7	-95.6	3.8	8463123	99	39977
2025-01-12 11:15:31.82	139.93	71.41	-74.8	-95.7	3.8	8463615	99	39922
2025-01-12 11:15:32.03	139.82	71.50	-74.7	-95.6	3.8	8463615	99	39890
2025-01-12 11:15:32.24	139.70	71.59	-74.7	-95.6	3.8	8470756	99	39995
2025-01-12 11:15:32.45	139.59	71.69	-74.7	-95.6	3.7	8451610	99	39934
2025-01-12 11:15:32.66	139.47	71.78	-74.7	-95.6	3.8	8472358	99	40206
2025-01-12 11:15:32.87	139.35	71.87	-74.7	-95.6	3.8	8472358	99	40127
2025-01-12 11:15:33.07	139.23	71.96	-74.7	-95.6	3.8	8457538	99	40006
2025-01-12 11:15:33.28	139.11	72.05	-74.7	-95.7	3.8	8462219	99	40523
2025-01-12 11:15:33.49	138.99	72.15	-74.7	-95.7	3.8	8462219	99	40417
2025-01-12 11:15:33.70	138.86	72.24	-74.7	-95.7	3.8	8467002	99	40359
2025-01-12 11:15:33.91	138.74	72.33	-74.7	-95.7	3.8	8446437	99	40348
2025-01-12 11:15:34.11	138.61	72.42	-74.7	-95.6	3.8	8462734	99	39816
2025-01-12 11:15:34.32	138.49	72.52	-74.7	-95.6	3.8	8462734	99	39913
2025-01-12 11:15:34.53	138.35	72.61	-74.7	-95.6	3.8	8452068	99	39907
2025-01-12 11:15:34.74	138.22	72.70	-74.7	-95.7	3.8	8453498	99	40333
2025-01-12 11:15:34.95	138.09	72.79	-74.7	-95.7	3.8	8453498	99	40454
2025-01-12 11:15:35.16	137.95	72.89	-74.7	-95.7	3.8	8466968	99	40432
2025-01-12 11:15:35.36	137.82	72.98	-74.7	-95.7	3.8	8457653	99	40386
2025-01-12 11:15:35.57	137.69	73.07	-74.7	-95.7	3.8	8462791	99	40412
2025-01-12 11:15:35.78	137.55	73.16	-74.7	-95.5	3.8	8462791	99	39406
2025-01-12 11:15:35.99	137.40	73.26	-74.6	-95.4	3.8	8459873	99	39330
2025-01-12 11:15:36.20	137.26	73.35	-74.7	-95.4	3.8	8458419	99	39230
2025-01-12 11:15:36.41	137.12	73.44	-74.7	-95.7	3.8	8458419	99	40432
2025-01-12 11:15:36.62	136.97	73.53	-74.7	-95.8	3.8	8460617	99	40587
2025-01-12 11:15:36.82	136.83	73.62	-74.7	-95.7	3.8	8456073	99	40360
2025-01-12 11:15:37.03	136.68	73.72	-74.6	-95.6	3.8	8459541	99	40352
2025-01-12 11:15:37.24	136.53	73.81	-74.6	-95.5	3.8	8459541	99	40007
2025-01-12 11:15:37.45	136.37	73.90	-74.7	-95.7	3.8	8459518	99	39983
2025-01-12 11:15:37.66	136.22	73.99	-74.7	-95.7	3.8	8447227	99	40039
2025-01-12 11:15:37.87	136.06	74.09	-74.8	-95.8	3.8	8447227	99	40456
2025-01-12 11:15:38.08	135.90	74.18	-74.8	-95.8	3.8	8455284	99	40408
2025-01-12 11:15:38.29	135.74	74.27	-74.8	-95.8	3.8	8447570	99	40435
2025-01-12 11:15:38.50	135.58	74.36	-74.7	-95.7	3.8	8447570	99	40403
2025-01-12 11:15:38.70	135.42	74.45	-74.6	-95.5	3.7	8465858	99	39779
2025-01-12 11:15:38.91	135.25	74.54	-74.7	-95.6	3.8	8455627	99	39841
2025-01-12 11:15:39.12	135.08	74.64	-74.6	-95.5	3.8	8447685	99	39958
2025-01-12 11:15:39.33	134.91	74.73	-74.6	-95.6	3.8	8447685	99	40436
2025-01-12 11:15:39.54	134.74	74.82	-74.7	-95.7	3.8	8467334	99	40410
2025-01-12 11:15:39.75	134.56	74.91	-74.6	-95.6	3.8	8459770	99	40422
2025-01-12 11:15:39.96	134.38	75.01	-74.7	-95.7	3.7	8462779	99	40469
2025-01-12 11:15:40.17	134.20	75.10	-74.6	-95.4	3.7	8462779	99	39515
2025-01-12 11:15:40.38	134.02	75.19	-74.7	-95.5	3.8	8458236	99	39644
2025-01-12 11:15:40.58	133.84	75.28	-74.7	-95.5	3.8	8458900	99	39681
2025-01-12 11:15:40.79	133.66	75.37	-74.8	-95.6	3.8	8458900	99	39716
2025-01-12 11:15:41.00	133.47	75.46	-74.7	-95.6	3.8	8463397	99	40351
2025-01-12 11:15:41.21	133.27	75.55	-74.7	-95.7	3.8	8449150	99	40259
2025-01-12 11:15:41.42	133.08	75.64	-74.7	-95.7	3.8	8469062	99	40186
2025-01-12 11:15:41.63	132.88	75.73	-74.8	-95.7	3.7	8469062	99	40158
2025-01-12 11:15:41.84	132.68	75.83	-74.7	-95.6	3.7	8452297	99	39605
2025-01-12 11:15:42.05	132.48	75.92	-74.7	-95.5	3.8	8463008	99	39653
2025-01-12 11:15:42.25	132.28	76.00	-74.7	-95.6	3.8	8463088	99	39687
2025-01-12 11:15:42.46	132.08	76.09	-74.7	-95.7	3.8	8463088	99	40194
2025-01-12 11:15:42.67	131.86	76.18	-74.7	-95.6	3.8	8462688	99	39949
2025-01-12 11:15:42.88	131.65	76.28	-74.7	-95.6	3.8	8463283	99	39952
2025-01-12 11:15:43.09	131.43	76.37	-74.7	-95.6	3.7	8463283	99	39962
2025-01-12 11:15:43.30	131.21	76.46	-74.7	-95.5	3.7	8451965	99	39607
2025-01-12 11:15:43.51	130.99	76.55	-74.8	-95.5	3.8	8453601	99	39181
2025-01-12 11:15:43.72	130.76	76.64	-74.7	-95.4	3.8	8465263	99	39140
2025-01-12 11:15:43.92	130.55	76.72	-74.7	-95.4	3.8	8465263	99	38868
2025-01-12 11:15:44.13	130.31	76.81	-74.8	-95.7	3.8	8469326	99	40073
2025-01-12 11:15:44.34	130.08	76.90	-74.8	-95.6	3.8	8452926	99	39692
2025-01-12 11:15:44.55	129.84	76.99	-74.6	-95.6	3.8	8452926	99	40102
2025-01-12 11:15:44.76	129.60	77.08	-74.8	-95.6	3.8	8458477	99	39751
2025-01-12 11:15:44.97	129.35	77.17	-74.8	-95.7	3.8	8462928	99	39975
2025-01-12 11:15:45.18	129.10	77.26	-74.7	-95.6	3.8	8462928	99	40046
2025-01-12 11:15:45.38	128.86	77.34	-74.7	-95.6	3.8	8457263	99	40175
2025-01-12 11:15:45.59	128.60	77.43	-74.7	-95.6	3.8	8448074	99	40007
2025-01-12 11:15:45.80	128.34	77.52	-74.7	-95.5	3.8	8459632	99	39899
2025-01-12 11:15:46.01	128.08	77.61	-74.7	-95.6	3.8	8459632	99	39941
2025-01-12 11:15:46.22	127.81	77.70	-74.7	-95.6	3.8	8460971	99	40018
2025-01-12 11:15:46.43	127.54	77.78	-74.7	-95.6	3.8	8447238	99	39940
2025-01-12 11:15:46.64	127.26	77.87	-74.7	-95.4	3.8	8447238	99	39080
2025-01-12 11:15:46.85	126.98	77.96	-74.7	-95.5	3.8	8459461	99	39166
2025-01-12 11:15:47.05	126.71	78.04	-74.7	-95.6	3.8	8456737	99	40002
2025-01-12 11:15:47.26	126.42	78.13	-74.7	-95.6	3.8	8472198	99	39964
2025-01-12 11:15:47.47	126.13	78.21	-74.7	-95.6	3.8	8472198	99	39928
2025-01-12 11:15:47.68	125.84	78.30	-74.7	-95.7	3.8	8467449	99	40229
2025-01-12 11:15:47.89	125.53	78.39	-74.7	-95.7	3.8	8450592	99	40184
2025-01-12 11:15:48.10	125.23	78.47	-74.7	-95.5	3.8	8450592	99	39674
2025-01-12 11:15:48.31	124.92	78.56	-74.7	-95.6	3.8	8459690	99	39757
2025-01-12 11:15:48.51	124.62	78.64	-74.7	-95.6	3.8	8464588	99	39757
2025-01-12 11:15:48.72	124.30	78.72	-74.6	-95.6	3.8	8451599	99	40231
2025-01-12 11:15:48.93	123.97	78.81	-74.6	-95.6	3.8	8451599	99	40226
2025-01-12 11:15:49.14	123.64	78.89	-74.7	-95.7	3.8	8456005	99	40058
2025-01-12 11:15:49.35	123.30	78.98	-74.7	-95.6	3.8	8455101	99	40116
2025-01-12 11:15:49.56	122.96	79.06	-74.7	-95.5	3.6	8461360	99	39553
2025-01-12 11:15:49.77	122.62	79.14	-74.7	-95.5	3.8	8461360	99	39682
2025-01-12 11:15:49.98	122.27	79.23	-74.6	-95.4	3.9	8455821	99	39620
2025-01-12 11:15:50.18	121.93	79.30	-74.6	-95.6	3.8	8461154	99	40155
2025-01-12 11:15:50.39	121.56	79.39	-74.6	-95.6	3.8	8461154	99	40187
2025-01-12 11:15:50.60	121.20	79.47	-74.6	-95.6	3.8	8449378	99	40197
2025-01-12 11:15:50.81	120.82	79.55	-74.6	-95.5	3.7	8451862	99	40053
2025-01-12 11:15:51.02	120.44	79.63	-74.6	-95.6	3.7	8449424	99	40149
2025-01-12 11:15:51.23	120.05	79.71	-74.7	-95.7	3.8	8449424	99	40039
2025-01-12 11:15:51.43	119.68	79.79	-74.7	-95.7	3.8	8459987	99	40235
2025-01-12 11:15:51.64	119.28	79.87	-74.6	-95.6	3.8	8462047	99	40330
2025-01-12 11:15:51.85	118.88	79.95	-74.7	-95.7	3.8	8462047	99	40407
2025-01-12 11:15:52.06	118.47	80.02	-74.8	-95.7	3.8	8459953	99	40124
2025-01-12 11:15:52.27	118.05	80.10	-74.7	-95.7	3.8	8469085	99	40382
2025-01-12 11:15:52.48	117.62	80.18	-74.7	-95.7	3.8	8466304	99	40317
2025-01-12 11:15:52.69	117.19	80.26	-74.7	-95.3	3.8	8466304	99	38595
2025-01-12 11:15:52.90	116.75	80.33	-74.8	-95.4	3.8	8463523	99	38663
2025-01-12 11:15:53.10	116.33	80.41	-74.7	-95.3	3.8	8466075	99	38651
2025-01-12 11:15:53.31	115.88	80.48	-74.7	-95.6	3.8	8466075	99	39897
2025-01-12 11:15:53.52	115.42	80.56	-74.7	-95.4	3.8	8462425	99	39247
2025-01-12 11:15:53.73	114.95	80.63	-74.7	-95.6	3.8	8456668	99	39919
2025-01-12 11:15:53.94	114.47	80.71	-74.7	-95.6	3.8	8449882	99	39946
2025-01-12 11:15:54.15	113.99	80.78	-74.7	-95.6	3.7	8449882	99	39884
2025-01-12 11:15:54.36	113.50	80.85	-74.8	-95.7	3.8	8471042	99	40103
2025-01-12 11:15:54.57	113.00	80.92	-74.7	-95.7	3.8	8459987	99	40073
2025-01-12 11:15:54.77	112.52	80.99	-74.6	-95.6	3.8	8459987	99	40122
2025-01-12 11:15:54.98	112.01	81.06	-74.7	-95.6	3.8	8453567	99	39916
2025-01-12 11:15:55.19	111.48	81.13	-74.7	-95.6	3.8	8444503	99	39924
2025-01-12 11:15:55.40	110.95	81.20	-74.8	-95.7	3.8	8458053	99	39875
2025-01-12 11:15:55.60	110.44	81.27	-74.6	-95.6	3.8	8458053	99	39973
2025-01-12 11:15:55.81	109.89	81.33	-74.8	-95.6	3.8	8457504	99	39458
2025-01-12 11:15:56.02	109.34	81.40	-74.8	-95.6	3.8	8451324	99	39522
2025-01-12 11:15:56.23	108.77	81.47	-74.8	-95.6	3.8	8451324	99	39428
2025-01-12 11:15:56.44	108.20	81.53	-74.7	-95.6	3.8	8456325	99	39899
2025-01-12 11:15:56.64	107.64	81.59	-74.7	-95.6	3.8	8468204	99	39892
2025-01-12 11:15:56.85	107.05	81.66	-74.7	-95.6	3.8	8450855	99	39980
2025-01-12 11:15:57.06	106.45	81.72	-74.7	-95.6	3.8	8450855	99	40052
2025-01-12 11:15:57.27	105.84	81.78	-74.7	-95.6	3.8	8452629	99	39927
2025-01-12 11:15:57.48	105.22	81.84	-74.8	-95.7	3.8	8451850	99	39951
2025-01-12 11:15:57.69	104.59	81.90	-74.7	-95.6	3.8	8451850	99	40038
2025-01-12 11:15:57.90	103.95	81.96	-74.7	-95.7	3.8	8458786	99	40503
2025-01-12 11:15:58.10	103.34	82.02	-74.7	-95.7	3.8	8462917	99	40446
2025-01-12 11:15:58.31	102.68	82.08	-74.6	-95.6	3.8	8464153	99	40423
2025-01-12 11:15:58.52	102.01	82.13	-74.7	-95.7	3.8	8464153	99	40469
2025-01-12 11:15:58.73	101.34	82.19	-74.7	-95.7	3.8	8453578	99	40455
2025-01-12 11:15:58.94	100.65	82.24	-74.7	-95.5	3.8	8460182	99	39655
2025-01-12 11:15:59.15	99.96	82.29	-74.6	-95.3	3.8	8460182	99	39357
2025-01-12 11:15:59.35	99.29	82.34	-74.7	-95.6	3.8	8466556	99	39571
2025-01-12 11:15:59.56	98.57	82.39	-74.7	-95.8	3.8	8452182	99	40470
2025-01-12 11:15:59.77	97.85	82.44	-74.7	-95.7	3.8	8468307	99	40406
2025-01-12 11:15:59.98	97.12	82.49	-74.6	-95.6	3.8	8468307	99	40412
2025-01-12 11:16:00.19	96.37	82.54	-74.6	-95.6	3.8	8466728	99	40440
2025-01-12 11:16:00.40	95.62	82.58	-74.7	-95.7	3.8	8451152	99	40382
2025-01-12 11:16:00.60	94.90	82.63	-74.6	-95.3	3.8	8456600	99	39043
2025-01-12 11:16:00.81	94.13	82.67	-74.7	-95.4	3.8	8456600	99	39022
2025-01-12 11:16:01.02	93.35	82.71	-74.6	-95.6	3.8	8459403	99	40169
2025-01-12 11:16:01.23	92.56	82.75	-74.6	-95.6	3.8	8464794	99	40366
2025-01-12 11:16:01.44	91.76	82.79	-74.6	-95.6	3.8	8464794	99	40400
2025-01-12 11:16:01.65	90.96	82.83	-74.6	-95.7	3.8	8454105	99	40424
2025-01-12 11:16:01.86	90.15	82.87	-74.6	-95.6	3.7	8451084	99	40267
2025-01-12 11:16:02.07	89.32	82.90	-74.7	-95.5	3.8	8470081	99	39454
2025-01-12 11:16:02.28	88.49	82.94	-74.7	-95.5	3.8	8470081	99	39537
2025-01-12 11:16:02.49	87.66	82.97	-74.7	-95.5	3.8	8454654	99	39503
2025-01-12 11:16:02.69	86.85	83.00	-74.7	-95.7	3.8	8463535	99	40214
2025-01-12 11:16:02.90	86.00	83.03	-74.7	-95.6	3.8	8463535	99	40168
2025-01-12 11:16:03.11	85.14	83.05	-74.7	-95.6	3.8	8464794	99	40112
2025-01-12 11:16:03.32	84.27	83.08	-74.6	-95.6	3.7	8457103	99	40142
2025-01-12 11:16:03.53	83.40	83.10	-74.7	-95.4	3.8	8457103	99	38953
2025-01-12 11:16:03.74	82.52	83.13	-74.8	-95.5	3.8	8461589	99	39008
2025-01-12 11:16:03.95	81.64	83.15	-74.7	-95.4	3.8	8445888	99	38884
2025-01-12 11:16:04.15	80.79	83.17	-74.7	-95.6	3.8	8462299	99	40187
2025-01-12 11:16:04.36	79.90	83.18	-74.7	-95.6	3.8	8462299	99	40191
2025-01-12 11:16:04.57	79.00	83.20	-74.7	-95.7	3.8	8450225	99	40234
2025-01-12 11:16:04.78	78.09	83.21	-74.7	-95.6	3.8	8466567	99	40162
2025-01-12 11:16:04.99	77.19	83.23	-74.7	-95.7	3.7	8466567	99	40069
2025-01-12 11:16:05.20	76.28	83.24	-74.8	-95.6	3.8	8453727	99	39750
2025-01-12 11:16:05.41	75.37	83.25	-74.7	-95.7	3.8	8470939	99	40007
2025-01-12 11:16:05.62	74.45	83.26	-74.7	-95.7	3.8	8459003	99	39960
2025-01-12 11:16:05.82	73.58	83.26	-74.8	-95.8	3.8	8459003	99	40169
2025-01-12 11:16:06.03	72.66	83.27	-74.7	-95.6	3.8	8455089	99	40067
2025-01-12 11:16:06.24	71.74	83.27	-74.7	-95.6	3.8	8452651	99	40234
2025-01-12 11:16:06.45	70.82	83.27	-74.7	-95.6	3.8	8452651	99	40125
2025-01-12 11:16:06.66	69.90	83.27	-74.7	-95.5	3.8	8455718	99	39367
2025-01-12 11:16:06.87	68.98	83.27	-74.6	-95.2	3.8	8466213	99	38678
2025-01-12 11:16:07.07	68.10	83.26	-74.8	-95.6	3.8	8467117	99	39421
2025-01-12 11:16:07.28	67.19	83.26	-74.8	-95.8	3.8	8467117	99	40222
2025-01-12 11:16:07.49	66.27	83.25	-74.6	-95.6	3.8	8459117	99	40196
2025-01-12 11:16:07.70	65.36	83.24	-74.6	-95.6	3.8	8461017	99	40066
2025-01-12 11:16:07.91	64.45	83.23	-74.6	-95.5	3.8	8445098	99	40093
2025-01-12 11:16:08.12	63.54	83.22	-74.6	-95.6	3.8	8445098	99	40238
2025-01-12 11:16:08.33	62.64	83.20	-74.6	-95.5	3.8	8462791	99	39867
2025-01-12 11:16:08.54	61.74	83.19	-74.6	-95.5	3.8	8453281	99	40002
2025-01-12 11:16:08.74	60.88	83.17	-74.7	-95.6	3.8	8453281	99	39861
2025-01-12 11:16:08.95	59.99	83.15	-74.7	-95.7	3.8	8471488	99	40243
2025-01-12 11:16:09.16	59.11	83.13	-74.7	-95.7	3.8	8467037	99	40152
2025-01-12 11:16:09.37	58.23	83.11	-74.7	-95.7	3.8	8458889	99	40165
2025-01-12 11:16:09.57	57.39	83.09	-74.6	-95.5	3.8	8458889	99	40224
2025-01-12 11:16:09.78	56.53	83.06	-74.7	-95.6	3.9	8448165	99	40196
2025-01-12 11:16:09.99	55.67	83.03	-74.6	-95.5	3.8	8469875	99	39806
2025-01-12 11:16:10.20	54.81	83.01	-74.7	-95.6	3.8	8469875	99	40183
2025-01-12 11:16:10.41	53.96	82.98	-74.6	-95.5	3.8	8456874	99	40116
2025-01-12 11:16:10.61	53.16	82.95	-74.6	-95.6	3.8	8470012	99	40222
2025-01-12 11:16:10.82	52.33	82.91	-74.6	-95.6	3.8	8467380	99	40193
2025-01-12 11:16:11.03	51.51	82.88	-74.6	-95.6	3.8	8467380	99	40094
2025-01-12 11:16:11.24	50.69	82.84	-74.6	-95.5	3.8	8465618	99	40094
2025-01-12 11:16:11.45	49.88	82.80	-74.6	-95.5	3.8	8458866	99	39988
2025-01-12 11:16:11.66	49.08	82.77	-74.6	-95.6	3.8	8458866	99	40036
2025-01-12 11:16:11.87	48.29	82.73	-74.7	-95.7	3.8	8460067	99	40296
2025-01-12 11:16:12.08	47.51	82.68	-74.7	-95.6	3.8	8456188	99	40188
2025-01-12 11:16:12.29	46.74	82.64	-74.6	-95.6	3.8	8459884	99	40181
2025-01-12 11:16:12.49	46.01	82.60	-74.6	-95.5	3.8	8459884	99	40168
2025-01-12 11:16:12.70	45.26	82.55	-74.6	-95.6	3.7	8458511	99	40317
2025-01-12 11:16:12.91	44.51	82.51	-74.6	-95.4	3.8	8466579	99	39370
2025-01-12 11:16:13.12	43.78	82.46	-74.7	-95.4	3.8	8466579	99	39327
2025-01-12 11:16:13.33	43.05	82.41	-74.7	-95.5	3.8	8452606	99	39317
2025-01-12 11:16:13.54	42.33	82.36	-74.7	-95.8	3.8	8466567	99	40617
2025-01-12 11:16:13.75	41.63	82.31	-74.7	-95.7	3.8	8466567	99	40457
2025-01-12 11:16:13.95	40.96	82.26	-74.6	-95.6	3.8	8457344	99	40452
2025-01-12 11:16:14.16	40.27	82.21	-74.7	-95.6	3.7	8471752	99	40080
2025-01-12 11:16:14.37	39.59	82.15	-74.7	-95.5	3.8	8459987	99	39394
2025-01-12 11:16:14.58	38.93	82.09	-74.7	-95.5	3.8	8459987	99	39454
2025-01-12 11:16:14.79	38.27	82.04	-74.7	-95.5	3.8	8460353	99	39492
2025-01-12 11:16:14.99	37.65	81.98	-74.8	-95.7	3.8	8457069	99	40266
2025-01-12 11:16:15.20	37.01	81.92	-74.7	-95.7	3.8	8461818	99	40294
2025-01-12 11:16:15.41	36.37	81.86	-74.7	-95.7	3.8	8461818	99	40233
2025-01-12 11:16:15.62	35.75	81.80	-74.7	-95.7	3.7	8452823	99	40195
2025-01-12 11:16:15.83	35.14	81.74	-74.7	-95.6	3.6	8456256	99	40146
2025-01-12 11:16:16.04	34.54	81.68	-74.7	-95.4	3.8	8456256	99	39321
2025-01-12 11:16:16.24	33.97	81.62	-74.7	-95.5	3.8	8455387	99	39310
2025-01-12 11:16:16.45	33.38	81.56	-74.7	-95.5	3.8	8455764	99	39415
2025-01-12 11:16:16.66	32.81	81.49	-74.8	-95.8	3.8	8460960	99	40190
2025-01-12 11:16:16.87	32.24	81.42	-74.8	-95.7	3.8	8460960	99	40290
2025-01-12 11:16:17.08	31.68	81.36	-74.7	-95.7	3.7	8455581	99	40124
2025-01-12 11:16:17.29	31.13	81.29	-74.7	-95.7	3.7	8455398	99	40248
2025-01-12 11:16:17.49	30.61	81.23	-74.7	-95.4	3.8	8455398	99	39067
2025-01-12 11:16:17.70	30.08	81.16	-74.7	-95.4	3.8	8457962	99	39202
2025-01-12 11:16:17.91	29.56	81.09	-74.7	-95.4	3.8	8464130	99	39193
2025-01-12 11:16:18.12	29.04	81.02	-74.7	-95.6	3.8	8448863	99	40202
2025-01-12 11:16:18.33	28.53	80.95	-74.7	-95.6	3.8	8448863	99	40182
2025-01-12 11:16:18.54	28.03	80.87	-74.7	-95.7	3.8	8457080	99	40292
2025-01-12 11:16:18.75	27.54	80.80	-74.3	-94.5	4.0	8453968	99	36702
2025-01-12 11:16:18.95	27.08	80.73	-74.7	-95.6	3.8	8452079	99	40336
2025-01-12 11:16:19.16	26.60	80.66	-74.7	-95.4	3.8	8452079	99	39119
2025-01-12 11:16:19.37	26.13	80.58	-74.6	-95.4	3.8	8456645	99	39245
2025-01-12 11:16:19.58	25.67	80.51	-74.8	-95.5	3.8	8461315	99	39109
2025-01-12 11:16:19.79	25.21	80.43	-74.7	-95.7	3.8	8461315	99	40120
2025-01-12 11:16:20.00	24.76	80.36	-74.7	-95.7	3.8	8466213	99	40230
2025-01-12 11:16:20.20	24.34	80.28	-74.7	-95.5	3.8	8442226	99	39741
2025-01-12 11:16:20.41	23.91	80.21	-74.7	-95.7	3.8	8442226	99	40198
2025-01-12 11:16:20.62	23.48	80.13	-74.7	-95.4	3.8	8456817	99	39285
2025-01-12 11:16:20.83	23.06	80.05	-74.7	-95.4	3.8	8458774	99	39334
2025-01-12 11:16:21.04	22.65	79.97	-74.7	-95.5	3.8	8462757	99	39303
2025-01-12 11:16:21.25	22.24	79.90	-74.8	-95.7	3.8	8462757	99	40135
2025-01-12 11:16:21.46	21.84	79.82	-74.7	-95.7	3.8	8450466	99	40251
2025-01-12 11:16:21.66	21.47	79.74	-74.7	-95.6	3.8	8445980	99	40185
2025-01-12 11:16:21.87	21.08	79.66	-74.7	-95.7	3.8	8445980	99	40340
2025-01-12 11:16:22.08	20.70	79.58	-74.6	-95.6	3.8	8464130	99	40005
2025-01-12 11:16:22.29	20.32	79.50	-74.6	-95.1	3.8	8451049	99	38034
2025-01-12 11:16:22.49	19.97	79.42	-74.7	-95.4	3.8	8446849	99	38699
2025-01-12 11:16:22.70	19.61	79.34	-74.7	-95.7	3.8	8446849	99	40269
2025-01-12 11:16:22.91	19.25	79.26	-74.7	-95.7	3.8	8451702	99	40295
2025-01-12 11:16:23.12	18.89	79.17	-74.7	-95.7	3.8	8453945	99	40233
2025-01-12 11:16:23.33	18.55	79.09	-74.6	-95.6	3.8	8453945	99	40124
2025-01-12 11:16:23.54	18.20	79.01	-74.7	-95.7	3.8	8463672	99	40283
2025-01-12 11:16:23.75	17.87	78.92	-74.7	-95.5	3.8	8465858	99	39307
2025-01-12 11:16:23.95	17.55	78.84	-74.7	-95.5	3.8	8468204	99	39342
2025-01-12 11:16:24.16	17.22	78.76	-74.7	-95.4	3.8	8468204	99	39333
2025-01-12 11:16:24.37	16.90	78.67	-74.7	-95.7	3.8	8469303	99	40214
2025-01-12 11:16:24.58	16.58	78.59	-74.8	-95.7	3.8	8457115	99	40285
2025-01-12 11:16:24.79	16.27	78.50	-74.8	-95.8	3.8	8457115	99	40286
2025-01-12 11:16:25.00	15.96	78.42	-74.7	-95.7	3.8	8445522	99	40225
2025-01-12 11:16:25.21	15.66	78.33	-74.7	-95.5	3.8	8461761	99	39479
2025-01-12 11:16:25.42	15.36	78.25	-74.8	-95.6	3.8	8458271	99	39530
2025-01-12 11:16:25.62	15.08	78.16	-74.8	-95.6	3.8	8458271	99	39547
2025-01-12 11:16:25.83	14.79	78.08	-74.7	-95.7	3.8	8469245	99	40215
2025-01-12 11:16:26.04	14.51	77.99	-74.7	-95.6	3.8	8452651	99	40158
2025-01-12 11:16:26.25	14.23	77.90	-74.7	-95.7	3.8	8452651	99	40227
2025-01-12 11:16:26.46	13.95	77.82	-74.8	-95.7	3.8	8468433	99	40169
2025-01-12 11:16:26.67	13.68	77.73	-74.7	-95.7	3.7	8457744	99	40158
2025-01-12 11:16:26.87	13.42	77.65	-74.7	-95.7	3.8	8449115	99	40010
2025-01-12 11:16:27.08	13.15	77.56	-74.7	-95.7	3.8	8449115	99	40053
2025-01-12 11:16:27.29	12.89	77.47	-74.8	-95.7	3.8	8450511	99	40040
2025-01-12 11:16:27.50	12.63	77.38	-74.7	-95.6	3.8	8455524	99	40091
2025-01-12 11:16:27.71	12.38	77.29	-74.7	-95.7	3.8	8459861	99	40196
2025-01-12 11:16:27.92	12.13	77.20	-74.7	-95.6	3.8	8459861	99	40139
2025-01-12 11:16:28.13	11.88	77.11	-74.7	-95.6	3.8	8459987	99	40174
2025-01-12 11:16:28.33	11.65	77.03	-74.6	-95.6	3.7	8458671	99	40327
2025-01-12 11:16:28.54	11.41	76.94	-74.6	-95.6	3.8	8458671	99	40403
2025-01-12 11:16:28.75	11.17	76.85	-74.6	-95.6	3.8	8454139	99	40433
2025-01-12 11:16:28.96	10.94	76.76	-74.7	-95.6	3.8	8448600	99	40155
2025-01-12 11:16:29.17	10.71	76.67	-74.6	-95.6	3.8	8466636	99	40099
2025-01-12 11:16:29.38	10.48	76.58	-74.6	-95.5	3.8	8466636	99	40187
2025-01-12 11:16:29.59	10.26	76.49	-74.6	-95.6	3.8	8450317	99	40187
2025-01-12 11:16:29.80	10.04	76.40	-74.6	-95.6	3.7	8461521	99	40142
2025-01-12 11:16:30.00	9.83	76.32	-74.6	-95.4	3.8	8461521	99	39750
2025-01-12 11:16:30.21	9.62	76.23	-74.6	-95.5	3.8	8458957	99	39755
2025-01-12 11:16:30.42	9.40	76.13	-74.6	-95.5	3.8	8467082	99	39742
2025-01-12 11:16:30.63	9.20	76.04	-74.8	-95.7	3.8	8455387	99	39964
2025-01-12 11:16:30.84	8.99	75.95	-74.7	-95.7	3.8	8455387	99	40016
2025-01-12 11:16:31.05	8.78	75.86	-74.6	-95.6	3.8	8459289	99	39976
2025-01-12 11:16:31.26	8.58	75.77	-74.8	-95.7	3.8	8459186	99	40002
2025-01-12 11:16:31.47	8.39	75.68	-74.7	-95.4	3.8	8459186	99	38883
2025-01-12 11:16:31.67	8.20	75.59	-74.7	-95.4	3.8	8453361	99	38968
2025-01-12 11:16:31.88	8.01	75.50	-74.7	-95.4	3.8	8451107	99	39140
2025-01-12 11:16:32.09	7.82	75.41	-74.7	-95.7	3.8	8451107	99	40407
2025-01-12 11:16:32.30	7.63	75.32	-74.6	-95.5	3.8	8453292	99	40017
2025-01-12 11:16:32.51	7.44	75.23	-74.6	-95.6	3.8	8454105	99	40453
2025-01-12 11:16:32.72	7.26	75.14	-74.7	-95.7	3.8	8457229	99	40264
2025-01-12 11:16:32.93	7.08	75.04	-74.7	-95.6	3.8	8457229	99	40202
2025-01-12 11:16:33.13	6.91	74.96	-74.7	-95.3	3.8	8456588	99	38840
2025-01-12 11:16:33.34	6.73	74.86	-74.7	-95.4	3.8	8451438	99	38849
2025-01-12 11:16:33.55	6.56	74.77	-74.5	-95.3	3.8	8446300	99	39543
2025-01-12 11:16:33.76	6.38	74.68	-74.7	-95.7	3.8	8446300	99	40226
2025-01-12 11:16:33.97	6.21	74.59	-74.8	-95.7	3.8	8469451	99	40201
2025-01-12 11:16:34.17	6.05	74.50	-74.8	-95.8	3.8	8463798	99	40245
2025-01-12 11:16:34.38	5.89	74.41	-74.8	-95.7	3.8	8463798	99	39833
2025-01-12 11:16:34.59	5.72	74.32	-74.6	-95.4	3.8	8444606	99	39380
2025-01-12 11:16:34.80	5.56	74.22	-74.7	-95.5	3.8	8455490	99	39381
2025-01-12 11:16:35.01	5.40	74.13	-74.7	-95.5	3.8	8469005	99	39434
2025-01-12 11:16:35.22	5.24	74.04	-74.6	-95.6	3.8	8469005	99	40270
2025-01-12 11:16:35.43	5.09	73.95	-74.6	-95.6	3.8	8453189	99	40214
2025-01-12 11:16:35.64	4.93	73.85	-74.5	-95.3	3.8	8455844	99	39617
2025-01-12 11:16:35.85	4.78	73.76	-74.6	-95.6	3.8	8455844	99	40213
2025-01-12 11:16:36.05	4.64	73.67	-74.6	-95.5	3.7	8472209	99	39675
2025-01-12 11:16:36.26	4.49	73.58	-74.6	-95.4	3.8	8459220	99	39633
2025-01-12 11:16:36.47	4.34	73.49	-74.6	-95.4	3.8	8466831	99	39745
2025-01-12 11:16:36.68	4.20	73.39	-74.7	-95.6	3.8	8466831	99	40077
2025-01-12 11:16:36.89	4.05	73.30	-74.7	-95.6	3.8	8462516	99	40183
2025-01-12 11:16:37.10	3.91	73.21	-74.7	-95.6	3.8	8458580	99	40192
2025-01-12 11:16:37.31	3.77	73.12	-74.6	-95.3	3.8	8455284	99	38940
2025-01-12 11:16:37.52	3.63	73.02	-74.6	-95.4	3.7	8455284	99	39255
2025-01-12 11:16:37.72	3.50	72.93	-74.7	-95.5	3.8	8453590	99	39364
2025-01-12 11:16:37.93	3.36	72.84	-74.7	-95.5	3.8	8461051	99	39354
2025-01-12 11:16:38.14	3.23	72.75	-74.7	-95.5	3.8	8461051	99	39464
2025-01-12 11:16:38.35	3.10	72.66	-74.7	-95.7	3.8	8459095	99	40121
2025-01-12 11:16:38.56	2.97	72.56	-74.7	-95.7	3.8	8470355	99	40303
2025-01-12 11:16:38.77	2.84	72.47	-74.6	-95.6	3.7	8470355	99	40216
2025-01-12 11:16:38.98	2.71	72.38	-74.8	-95.8	3.7	8468193	99	40234
2025-01-12 11:16:39.18	2.59	72.29	-74.7	-95.6	3.7	8451896	99	39782
2025-01-12 11:16:39.39	2.46	72.20	-74.7	-95.6	3.8	8455696	99	39885
2025-01-12 11:16:39.60	2.34	72.10	-74.7	-95.6	3.7	8455696	99	40032
2025-01-12 11:16:39.81	2.22	72.01	-74.7	-95.6	3.8	8463031	99	40223
2025-01-12 11:16:40.02	2.10	71.92	-74.7	-95.7	3.8	8454082	99	40214
2025-01-12 11:16:40.22	1.98	71.83	-74.8	-95.8	3.8	8454082	99	40268
2025-01-12 11:16:40.43	1.86	71.74	-74.8	-95.7	3.7	8453773	99	40168
2025-01-12 11:16:40.64	1.74	71.64	-74.7	-95.7	3.7	8456623	99	40232
2025-01-12 11:16:40.85	1.63	71.55	-74.8	-95.6	3.8	8461441	99	39290
2025-01-12 11:16:41.06	1.51	71.46	-74.8	-95.6	3.8	8461441	99	39379
2025-01-12 11:16:41.27	1.40	71.36	-74.7	-95.5	3.8	8459529	99	39407
2025-01-12 11:16:41.48	1.29	71.27	-74.7	-95.7	3.8	8449916	99	40188
2025-01-12 11:16:41.69	1.18	71.18	-74.7	-95.7	3.8	8449916	99	40280
2025-01-12 11:16:41.90	1.07	71.09	-74.8	-95.7	3.7	8456508	99	40203
2025-01-12 11:16:42.10	0.96	71.00	-74.7	-95.7	3.8	8468055	99	40264
2025-01-12 11:16:42.31	0.85	70.90	-74.7	-95.6	3.8	8462482	99	39745
2025-01-12 11:16:42.52	0.75	70.81	-74.8	-95.6	3.8	8462482	99	39815
2025-01-12 11:16:42.73	0.64	70.72	-74.6	-95.6	3.8	8458511	99	40023
2025-01-12 11:16:42.94	0.54	70.63	-74.7	-95.7	3.8	8450008	99	40573
2025-01-12 11:16:43.15	0.43	70.53	-74.6	-95.7	3.8	8450008	99	40497
2025-01-12 11:16:43.36	0.33	70.44	-74.6	-95.7	3.8	8466945	99	40553
2025-01-12 11:16:43.57	0.23	70.35	-74.7	-95.7	3.8	8460422	99	40506
2025-01-12 11:16:43.77	0.13	70.26	-74.6	-95.7	3.8	8453567	99	40426
2025-01-12 11:16:43.98	0.03	70.17	-74.7	-95.5	3.8	8453567	99	39560

#Closed at: 2025-01-12 11:16:44