passes_logs/2026/01/15/R2M6_AANII_01/R2M6_AANII_01__20260115_092800_SUOMI_NPP_rec.log

#Pass ID: 20260115_092800_SUOMI NPP
#Satellite: SUOMI NPP
#Configuration: NPP
#almurnet v.1.7.20240730
#Start time: 2026-01-15 09:27:59

#Version: 2.2.20231116
#Station: R2M6_AANII_01
#Location: 30.233357 lon 59.946436 lat
#TLE: 1 37849U 11061A   26014.11719687  .00000048  00000+0  43625-4 0  9998
#TLE: 2 37849  98.7809 316.1734 0002474  65.2440 294.8994 14.19525043736585

#Time	Az	El	Level	Level2	SNR	BER	BlckErr	Temp	State	Recorded	gain1	gain2
2026-01-15 09:27:59.49	131.58	6.95	-31.2	-34.3	5.3	1.24e+00	0	40	0	0	23	5130
2026-01-15 09:28:00.49	131.53	7.03	-31.7	-36.1	5.0	1.28e+00	0	41	104	0	23	6024
2026-01-15 09:28:01.50	131.49	7.10	-31.8	-36.8	7.5	8.85e-02	0	41	0	0	23	6397
2026-01-15 09:28:02.50	131.44	7.18	-31.9	-37.0	7.5	1.08e-01	0	41	0	1048576	23	6471
2026-01-15 09:28:03.50	131.40	7.25	-31.9	-37.3	7.3	1.19e-01	0	41	0	3145728	23	6658
2026-01-15 09:28:04.50	131.35	7.33	-32.1	-37.4	6.8	1.51e-01	0	41	0	5242880	24	6649
2026-01-15 09:28:05.50	131.31	7.40	-32.0	-36.8	7.2	1.71e-01	0	41	0	7340032	24	6309
2026-01-15 09:28:06.50	131.26	7.48	-31.9	-36.6	7.5	1.09e-01	0	41	0	9437184	24	6147
2026-01-15 09:28:07.50	131.21	7.55	-32.0	-36.8	7.3	1.11e-01	0	41	0	10485760	24	6277
2026-01-15 09:28:08.50	131.17	7.63	-31.8	-36.0	7.9	1.02e-01	0	41	0	12582912	24	5831
2026-01-15 09:28:09.51	131.12	7.71	-31.6	-35.2	8.5	4.80e-02	0	41	0	14680064	24	5415
2026-01-15 09:28:10.51	131.07	7.78	-31.3	-33.9	9.6	2.19e-02	0	41	0	16777216	24	4867
2026-01-15 09:28:11.52	131.02	7.86	-31.1	-33.8	10.0	9.84e-03	0	41	0	17825792	23	4899
2026-01-15 09:28:12.51	130.98	7.94	-30.9	-33.2	10.6	5.28e-03	0	41	0	19922944	23	4640
2026-01-15 09:28:13.52	130.93	8.01	-30.8	-32.8	10.8	2.54e-03	0	41	0	22020096	23	4505
2026-01-15 09:28:14.51	130.88	8.09	-30.8	-33.2	10.9	1.95e-03	0	41	0	24117248	22	4751
2026-01-15 09:28:15.51	130.83	8.17	-31.0	-33.7	10.5	2.38e-03	0	41	0	26214400	22	4946
2026-01-15 09:28:16.52	130.78	8.25	-31.2	-34.4	10.1	6.17e-03	0	41	0	27262976	22	5218
2026-01-15 09:28:17.52	130.73	8.33	-31.2	-34.5	9.9	1.08e-02	0	41	0	29360128	22	5276
2026-01-15 09:28:18.52	130.68	8.40	-31.1	-34.3	10.1	9.32e-03	0	41	0	31457280	22	5174
2026-01-15 09:28:19.53	130.63	8.48	-31.1	-34.1	10.3	5.16e-03	0	41	0	33554432	22	5087
2026-01-15 09:28:20.53	130.58	8.56	-30.9	-33.4	10.8	3.22e-03	0	41	0	35651584	22	4800
2026-01-15 09:28:21.53	130.53	8.64	-30.7	-32.7	11.3	1.52e-03	0	41	0	36700160	22	4563
2026-01-15 09:28:22.53	130.48	8.72	-30.8	-33.3	11.0	1.40e-03	0	41	0	38797312	22	4766
2026-01-15 09:28:23.54	130.43	8.80	-30.8	-33.0	11.1	1.68e-03	0	41	0	40894464	22	4659
2026-01-15 09:28:24.54	130.38	8.88	-30.6	-32.5	11.6	7.35e-04	0	41	0	42991616	22	4471
2026-01-15 09:28:25.54	130.33	8.96	-30.6	-32.4	11.6	8.86e-04	0	42	0	45088768	22	4439
2026-01-15 09:28:26.54	130.28	9.04	-30.4	-31.9	12.0	3.58e-04	0	41	0	46137344	22	4279
2026-01-15 09:28:27.54	130.22	9.12	-30.5	-32.3	11.7	4.45e-04	0	41	0	48234496	22	4388
2026-01-15 09:28:28.54	130.17	9.20	-30.5	-32.2	11.8	5.14e-04	0	41	0	50331648	22	4354
2026-01-15 09:28:29.54	130.12	9.28	-30.6	-32.6	11.6	6.55e-04	0	42	0	52428800	22	4505
2026-01-15 09:28:30.55	130.07	9.36	-30.6	-32.6	11.5	7.74e-04	0	42	0	54525952	22	4506
2026-01-15 09:28:31.55	130.01	9.44	-30.6	-32.5	11.6	6.93e-04	0	42	0	55574528	22	4485
2026-01-15 09:28:32.55	129.96	9.53	-30.6	-32.6	11.6	6.34e-04	0	42	0	57671680	22	4506
2026-01-15 09:28:33.55	129.91	9.61	-30.7	-32.6	11.5	7.61e-04	0	42	0	59768832	22	4524
2026-01-15 09:28:34.56	129.85	9.69	-30.6	-32.4	11.7	8.72e-04	0	41	0	61865984	22	4453
2026-01-15 09:28:35.56	129.80	9.77	-30.6	-32.5	11.6	7.20e-04	0	42	0	62914560	22	4476
2026-01-15 09:28:36.56	129.74	9.86	-30.5	-32.1	11.9	4.26e-04	0	42	0	65011712	22	4342
2026-01-15 09:28:37.56	129.69	9.94	-30.4	-31.8	12.2	2.78e-04	0	42	0	67108864	22	4221
2026-01-15 09:28:38.56	129.63	10.02	-30.5	-32.1	11.9	2.64e-04	0	42	0	69206016	22	4335
2026-01-15 09:28:39.56	129.57	10.10	-30.5	-32.1	11.9	4.55e-04	0	42	0	71303168	22	4335
2026-01-15 09:28:40.57	129.52	10.19	-30.6	-32.2	11.9	3.81e-04	0	42	0	72351744	22	4375
2026-01-15 09:28:41.57	129.46	10.27	-30.5	-32.2	11.9	2.89e-04	0	42	0	74448896	22	4359
2026-01-15 09:28:42.57	129.40	10.36	-30.7	-32.8	11.5	5.15e-04	0	42	0	76546048	22	4566
2026-01-15 09:28:43.58	129.35	10.44	-30.8	-32.9	11.5	9.51e-04	0	42	0	78643200	22	4586
2026-01-15 09:28:44.57	129.29	10.53	-30.9	-33.2	11.2	1.20e-03	0	42	0	80740352	22	4704
2026-01-15 09:28:45.57	129.23	10.61	-30.9	-33.4	11.1	1.34e-03	0	42	0	81788928	22	4769
2026-01-15 09:28:46.58	129.17	10.70	-31.0	-33.6	11.0	1.79e-03	0	42	0	83886080	22	4843
2026-01-15 09:28:47.59	129.11	10.78	-30.9	-33.1	11.4	2.02e-03	0	42	0	85983232	22	4640
2026-01-15 09:28:48.59	129.05	10.87	-30.8	-32.8	11.6	7.59e-04	0	42	0	88080384	22	4542
2026-01-15 09:28:49.60	128.99	10.95	-30.7	-32.5	11.8	7.29e-04	0	42	0	90177536	22	4434
2026-01-15 09:28:50.60	128.93	11.04	-30.6	-32.2	12.0	3.22e-04	0	42	0	91226112	22	4333
2026-01-15 09:28:51.60	128.87	11.13	-30.5	-32.0	12.2	2.19e-04	0	42	0	93323264	22	4262
2026-01-15 09:28:52.61	128.81	11.21	-30.5	-32.0	12.2	2.46e-04	0	42	0	95420416	22	4241
2026-01-15 09:28:53.61	128.75	11.30	-30.4	-31.7	12.4	1.81e-04	0	42	0	97517568	22	4172
2026-01-15 09:28:54.61	128.69	11.39	-30.4	-31.6	12.5	1.16e-04	0	42	0	99614720	22	4133
2026-01-15 09:28:55.62	128.63	11.48	-30.6	-32.2	12.0	1.40e-04	0	42	0	100663296	22	4343
2026-01-15 09:28:56.62	128.57	11.57	-30.5	-32.0	12.2	3.29e-04	0	42	0	102760448	22	4257
2026-01-15 09:28:57.63	128.50	11.65	-30.5	-31.9	12.3	2.14e-04	0	42	0	104857600	22	4249
2026-01-15 09:28:58.63	128.44	11.74	-30.6	-32.1	12.1	2.18e-04	0	42	0	106954752	22	4310
2026-01-15 09:28:59.63	128.38	11.83	-30.6	-32.2	12.1	2.78e-04	0	42	0	108003328	22	4337
2026-01-15 09:29:00.62	128.32	11.92	-30.4	-31.8	12.4	2.20e-04	0	42	0	110100480	22	4197
2026-01-15 09:29:01.62	128.25	12.01	-30.5	-31.9	12.3	1.79e-04	0	42	0	112197632	22	4237
2026-01-15 09:29:02.62	128.19	12.10	-30.5	-31.9	12.3	2.69e-04	0	42	0	114294784	22	4239
2026-01-15 09:29:03.61	128.12	12.19	-30.4	-31.6	12.5	1.64e-04	0	42	0	116391936	22	4146
2026-01-15 09:29:04.62	128.06	12.28	-30.2	-31.7	12.7	5.18e-05	0	42	0	117440512	21	4260
2026-01-15 09:29:05.62	127.99	12.37	-30.4	-32.1	12.5	7.47e-05	0	42	0	119537664	21	4393
2026-01-15 09:29:06.63	127.92	12.46	-30.5	-32.6	12.1	1.43e-04	0	42	0	121634816	21	4555
2026-01-15 09:29:07.63	127.86	12.55	-30.5	-32.6	12.1	2.37e-04	0	42	0	123731968	21	4569
2026-01-15 09:29:08.63	127.79	12.64	-30.6	-32.7	12.0	2.63e-04	0	42	0	125829120	21	4612
2026-01-15 09:29:09.63	127.72	12.73	-30.7	-33.0	11.9	6.33e-04	0	42	0	126877696	21	4690
2026-01-15 09:29:10.64	127.66	12.83	-30.8	-33.3	11.7	5.65e-04	0	42	0	128974848	21	4792
2026-01-15 09:29:11.65	127.59	12.92	-30.8	-33.2	11.7	4.60e-04	0	42	0	131072000	21	4779
2026-01-15 09:29:12.65	127.52	13.01	-30.6	-32.7	12.1	3.36e-04	0	42	0	133169152	21	4583
2026-01-15 09:29:13.64	127.45	13.10	-30.7	-32.9	11.9	3.17e-04	0	42	0	135266304	21	4658
2026-01-15 09:29:14.65	127.38	13.20	-30.5	-32.4	12.3	2.78e-04	0	42	0	136314880	21	4473
2026-01-15 09:29:15.64	127.31	13.29	-30.3	-31.9	12.7	7.78e-05	0	42	0	138412032	21	4302
2026-01-15 09:29:16.65	127.24	13.39	-30.1	-31.2	13.2	3.89e-05	0	42	0	140509184	21	4090
2026-01-15 09:29:17.65	127.17	13.48	-30.0	-30.9	13.4	1.75e-05	0	43	0	142606336	21	3994
2026-01-15 09:29:18.66	127.10	13.58	-30.2	-31.5	13.0	1.83e-05	0	42	0	144703488	21	4164
2026-01-15 09:29:19.66	127.02	13.67	-30.5	-32.2	12.6	3.50e-05	0	43	0	145752064	21	4393
2026-01-15 09:29:20.66	126.95	13.77	-30.5	-32.3	12.5	8.69e-05	0	42	0	147849216	21	4433
2026-01-15 09:29:21.67	126.88	13.86	-30.6	-32.5	12.4	1.72e-04	0	42	0	149946368	21	4498
2026-01-15 09:29:22.67	126.80	13.96	-30.7	-33.0	12.0	2.34e-04	0	42	0	152043520	21	4654
2026-01-15 09:29:23.67	126.73	14.05	-30.7	-32.9	12.1	1.87e-04	0	42	0	153092096	21	4634
2026-01-15 09:29:24.67	126.66	14.15	-30.5	-32.4	12.5	1.69e-04	0	43	0	155189248	21	4454
2026-01-15 09:29:25.68	126.58	14.25	-30.2	-31.5	13.0	1.12e-04	0	42	0	157286400	21	4187
2026-01-15 09:29:26.68	126.51	14.34	-30.2	-31.3	13.2	2.51e-05	0	43	0	159383552	21	4125
2026-01-15 09:29:27.69	126.43	14.44	-30.2	-31.6	13.0	2.44e-05	0	42	0	161480704	21	4198
2026-01-15 09:29:28.69	126.35	14.54	-29.9	-30.7	13.6	6.80e-06	0	42	0	163577856	21	3950
2026-01-15 09:29:29.70	126.27	14.64	-30.0	-30.9	13.4	9.90e-06	0	42	0	164626432	21	3999
2026-01-15 09:29:30.70	126.20	14.74	-30.2	-31.4	13.2	1.75e-05	0	43	0	166723584	21	4137
2026-01-15 09:29:31.70	126.12	14.84	-30.3	-31.8	12.9	2.67e-05	0	43	0	168820736	21	4270
2026-01-15 09:29:32.70	126.04	14.94	-30.3	-31.8	12.9	3.81e-05	0	42	0	170917888	21	4283
2026-01-15 09:29:33.71	125.96	15.04	-30.4	-32.0	12.8	1.33e-04	0	42	0	171966464	21	4322
2026-01-15 09:29:34.71	125.88	15.14	-30.5	-32.2	12.6	1.06e-04	0	42	0	174063616	21	4401
2026-01-15 09:29:35.71	125.80	15.24	-30.5	-32.2	12.7	5.87e-05	0	42	0	176160768	21	4399
2026-01-15 09:29:36.72	125.72	15.34	-30.2	-31.6	13.1	3.20e-05	0	42	0	178257920	21	4192
2026-01-15 09:29:37.72	125.64	15.44	-30.4	-31.9	12.8	4.42e-05	0	43	0	180355072	21	4291
2026-01-15 09:29:38.73	125.56	15.54	-30.2	-31.4	13.1	7.17e-05	0	43	0	181403648	21	4130
2026-01-15 09:29:39.73	125.47	15.64	-30.2	-31.3	13.3	1.14e-05	0	42	0	183500800	21	4101
2026-01-15 09:29:40.73	125.39	15.75	-30.2	-31.5	13.2	1.22e-05	0	42	0	185597952	21	4167
2026-01-15 09:29:41.72	125.31	15.85	-30.3	-31.6	13.1	3.35e-05	0	42	0	187695104	21	4183
2026-01-15 09:29:42.72	125.22	15.95	-30.3	-31.7	13.0	3.05e-05	0	42	0	189792256	21	4234
2026-01-15 09:29:43.72	125.14	16.05	-30.7	-32.9	12.3	4.34e-05	0	43	0	190840832	21	4625
2026-01-15 09:29:44.73	125.05	16.16	-30.6	-32.5	12.5	1.01e-04	0	43	0	192937984	21	4482
2026-01-15 09:29:45.72	124.97	16.26	-30.5	-32.3	12.6	8.23e-05	0	43	0	195035136	21	4420
2026-01-15 09:29:46.73	124.88	16.36	-30.6	-32.5	12.5	1.38e-04	0	43	0	197132288	21	4490
2026-01-15 09:29:47.73	124.79	16.47	-30.5	-32.2	12.6	1.22e-04	0	43	0	198180864	21	4395
2026-01-15 09:29:48.73	124.70	16.57	-30.4	-32.0	13.0	4.19e-05	0	43	0	200278016	21	4306
2026-01-15 09:29:49.73	124.62	16.68	-30.4	-32.0	12.9	4.65e-05	0	43	0	202375168	21	4317
2026-01-15 09:29:50.74	124.53	16.79	-30.6	-32.5	12.6	6.33e-05	0	43	0	204472320	21	4488
2026-01-15 09:29:51.74	124.44	16.89	-30.7	-32.8	12.4	1.12e-04	0	43	0	206569472	21	4591
2026-01-15 09:29:52.74	124.35	17.00	-30.6	-32.6	12.5	8.92e-05	0	42	0	208666624	21	4518
2026-01-15 09:29:53.74	124.25	17.11	-30.9	-33.4	11.9	2.20e-04	0	43	0	209715200	21	4810
2026-01-15 09:29:54.75	124.16	17.21	-31.0	-33.3	11.7	7.87e-04	0	43	0	211812352	22	4673
2026-01-15 09:29:55.75	124.07	17.32	-31.0	-33.2	11.7	4.97e-04	0	43	0	213909504	22	4657
2026-01-15 09:29:56.76	123.97	17.43	-30.9	-32.9	11.9	4.02e-04	0	42	0	216006656	22	4560
2026-01-15 09:29:57.76	123.88	17.54	-30.9	-32.9	11.9	7.57e-04	0	43	0	217055232	22	4549
2026-01-15 09:29:58.76	123.79	17.65	-31.0	-33.3	11.7	3.81e-04	0	43	0	219152384	22	4668
2026-01-15 09:29:59.77	123.69	17.76	-30.9	-33.0	11.9	3.60e-04	0	43	0	221249536	22	4596
2026-01-15 09:30:00.77	123.59	17.87	-30.7	-32.3	12.4	1.61e-04	0	43	0	223346688	22	4336
2026-01-15 09:30:01.77	123.50	17.98	-30.9	-33.1	11.9	4.36e-04	0	43	0	225443840	22	4605
2026-01-15 09:30:02.78	123.40	18.09	-30.9	-32.9	12.0	6.82e-04	0	43	0	226492416	22	4529
2026-01-15 09:30:03.78	123.30	18.20	-30.9	-32.9	12.0	2.38e-04	0	43	0	228589568	22	4534
2026-01-15 09:30:04.78	123.20	18.31	-30.9	-32.7	12.1	3.15e-04	0	43	0	230686720	22	4465
2026-01-15 09:30:05.78	123.10	18.43	-31.0	-33.0	12.0	2.60e-04	0	43	0	232783872	22	4557
2026-01-15 09:30:06.79	123.00	18.54	-31.2	-33.6	11.5	3.90e-04	0	43	0	234881024	22	4779
2026-01-15 09:30:07.80	122.90	18.65	-30.9	-32.8	12.1	3.87e-04	0	43	0	235929600	22	4473
2026-01-15 09:30:08.80	122.80	18.77	-30.5	-31.8	12.8	5.72e-05	0	43	0	238026752	22	4145
2026-01-15 09:30:09.79	122.70	18.88	-30.4	-31.4	13.1	3.35e-05	0	43	0	240123904	22	4033
2026-01-15 09:30:10.80	122.59	18.99	-30.4	-31.3	13.2	4.73e-05	0	43	0	242221056	22	4003
2026-01-15 09:30:11.81	122.49	19.11	-30.8	-32.4	12.5	1.01e-04	0	43	0	244318208	22	4335
2026-01-15 09:30:12.81	122.38	19.22	-30.9	-33.0	12.1	2.46e-04	0	43	0	245366784	22	4541
2026-01-15 09:30:13.81	122.27	19.34	-30.7	-32.3	12.4	2.49e-04	0	43	0	247463936	22	4307
2026-01-15 09:30:14.82	122.17	19.45	-30.8	-32.6	12.3	1.46e-04	0	43	0	249561088	22	4401
2026-01-15 09:30:15.82	122.06	19.57	-30.6	-32.1	12.6	1.11e-04	0	43	0	251658240	22	4236
2026-01-15 09:30:16.82	121.95	19.69	-30.4	-31.5	13.1	4.19e-05	0	43	0	253755392	22	4060
2026-01-15 09:30:17.81	121.84	19.80	-30.6	-31.9	12.8	4.19e-05	0	43	0	254803968	22	4176
2026-01-15 09:30:18.82	121.73	19.92	-30.6	-31.9	12.8	7.32e-05	0	43	0	256901120	22	4188
2026-01-15 09:30:19.83	121.62	20.04	-30.9	-32.7	12.3	1.01e-04	0	43	0	258998272	22	4436
2026-01-15 09:30:20.83	121.51	20.16	-31.2	-33.6	11.6	4.12e-04	0	43	0	261095424	22	4755
2026-01-15 09:30:21.84	121.39	20.28	-31.2	-33.6	11.7	5.08e-04	0	43	0	263192576	22	4739
2026-01-15 09:30:22.84	121.28	20.40	-31.3	-34.0	11.4	9.65e-04	0	43	0	264241152	22	4901
2026-01-15 09:30:23.85	121.16	20.52	-31.0	-33.1	12.0	7.77e-04	0	43	0	266338304	22	4556
2026-01-15 09:30:24.85	121.05	20.64	-30.6	-31.8	13.0	1.08e-04	0	43	0	268435456	22	4136
2026-01-15 09:30:25.86	120.93	20.76	-30.3	-30.9	13.5	1.37e-05	0	43	0	270532608	22	3878
2026-01-15 09:30:26.85	120.81	20.88	-30.2	-31.2	13.7	6.80e-06	0	43	0	271581184	21	4030
2026-01-15 09:30:27.86	120.70	21.00	-30.2	-31.1	13.8	5.30e-06	0	43	0	273678336	21	4008
2026-01-15 09:30:28.86	120.58	21.12	-30.3	-31.6	13.3	6.80e-06	0	43	0	275775488	21	4150
2026-01-15 09:30:29.86	120.46	21.25	-30.6	-32.2	13.0	2.13e-05	0	43	0	277872640	21	4352
2026-01-15 09:30:30.86	120.33	21.37	-30.7	-32.5	12.8	5.18e-05	0	43	0	279969792	21	4432
2026-01-15 09:30:31.87	120.21	21.49	-30.7	-32.6	12.7	5.26e-05	0	43	0	281018368	21	4492
2026-01-15 09:30:32.87	120.09	21.62	-30.6	-32.3	13.0	3.96e-05	0	43	0	283115520	21	4390
2026-01-15 09:30:33.87	119.96	21.74	-30.6	-32.4	12.9	4.19e-05	0	43	0	285212672	21	4413
2026-01-15 09:30:34.87	119.84	21.87	-30.6	-32.2	13.0	4.42e-05	0	43	0	287309824	21	4357
2026-01-15 09:30:35.88	119.71	21.99	-30.8	-32.8	12.6	7.32e-05	0	43	0	289406976	21	4554
2026-01-15 09:30:36.88	119.58	22.12	-30.9	-33.2	12.3	1.56e-04	0	43	0	290455552	21	4696
2026-01-15 09:30:37.89	119.45	22.25	-30.9	-33.2	12.4	1.43e-04	0	43	0	292552704	21	4681
2026-01-15 09:30:38.89	119.32	22.37	-31.1	-33.3	12.0	3.62e-04	0	43	0	294649856	22	4645
2026-01-15 09:30:39.89	119.19	22.50	-31.4	-34.1	11.5	8.80e-04	0	43	0	296747008	22	4912
2026-01-15 09:30:40.90	119.06	22.63	-31.2	-33.5	11.8	9.89e-04	0	43	0	298844160	22	4689
2026-01-15 09:30:41.90	118.93	22.76	-31.2	-33.5	11.9	5.99e-04	0	43	0	299892736	22	4700
2026-01-15 09:30:42.91	118.79	22.89	-31.2	-33.4	12.0	2.53e-04	0	43	0	301989888	22	4641
2026-01-15 09:30:43.91	118.66	23.01	-31.1	-33.3	12.0	3.77e-04	0	43	0	304087040	22	4628
2026-01-15 09:30:44.92	118.52	23.15	-31.2	-33.5	11.8	2.90e-04	0	43	0	306184192	22	4691
2026-01-15 09:30:45.92	118.38	23.27	-31.3	-33.9	11.7	6.28e-04	0	43	0	308281344	22	4833
2026-01-15 09:30:46.92	118.25	23.41	-31.3	-33.9	11.6	5.84e-04	0	43	0	309329920	22	4822
2026-01-15 09:30:47.92	118.11	23.54	-31.6	-34.3	10.9	1.01e-03	0	43	0	311427072	23	4917
2026-01-15 09:30:48.93	117.96	23.67	-31.3	-33.4	11.6	1.72e-03	0	43	0	313524224	23	4553
2026-01-15 09:30:49.93	117.82	23.80	-31.1	-32.6	12.1	2.94e-04	0	43	0	315621376	23	4298
2026-01-15 09:30:50.92	117.68	23.93	-31.0	-32.3	12.4	1.30e-04	0	43	0	317718528	23	4180
2026-01-15 09:30:51.93	117.53	24.06	-31.0	-32.3	12.4	1.62e-04	0	43	0	318767104	23	4189
2026-01-15 09:30:52.94	117.39	24.20	-30.8	-32.2	12.8	1.33e-04	0	43	0	320864256	22	4268
2026-01-15 09:30:53.94	117.24	24.33	-31.0	-32.9	12.3	9.99e-05	0	43	0	322961408	22	4476
2026-01-15 09:30:54.94	117.09	24.47	-30.9	-32.6	12.5	1.30e-04	0	43	0	325058560	22	4386
2026-01-15 09:30:55.95	116.94	24.60	-30.9	-32.6	12.5	7.01e-05	0	43	0	327155712	22	4383
2026-01-15 09:30:56.96	116.79	24.74	-30.7	-32.1	12.9	6.56e-05	0	43	0	328204288	22	4216
2026-01-15 09:30:57.96	116.64	24.87	-30.6	-31.9	13.0	4.11e-05	0	43	0	330301440	22	4146
2026-01-15 09:30:58.96	116.48	25.01	-30.7	-32.2	12.8	4.34e-05	0	43	0	332398592	22	4238
2026-01-15 09:30:59.96	116.33	25.15	-30.7	-32.0	12.9	2.97e-05	0	43	0	334495744	22	4197
2026-01-15 09:31:00.95	116.17	25.28	-30.5	-31.5	13.3	3.05e-05	0	43	0	335544320	22	4029
2026-01-15 09:31:01.96	116.01	25.42	-30.9	-32.4	12.7	5.34e-05	0	43	0	337641472	22	4319
2026-01-15 09:31:02.97	115.85	25.56	-30.8	-32.1	12.9	6.25e-05	0	43	0	339738624	22	4224
2026-01-15 09:31:03.97	115.69	25.70	-30.7	-32.1	12.9	3.12e-05	0	43	0	341835776	22	4208
2026-01-15 09:31:04.97	115.53	25.84	-30.7	-31.9	13.1	4.50e-05	0	43	0	343932928	22	4153
2026-01-15 09:31:05.97	115.37	25.98	-30.7	-31.9	13.1	2.05e-05	0	43	0	344981504	22	4130
2026-01-15 09:31:06.97	115.20	26.12	-30.9	-32.6	12.6	1.01e-04	0	43	0	347078656	22	4353
2026-01-15 09:31:07.97	115.04	26.26	-30.7	-31.9	13.1	3.89e-05	0	43	0	349175808	22	4146
2026-01-15 09:31:08.97	114.87	26.40	-30.7	-31.8	13.1	2.51e-05	0	43	0	351272960	22	4127
2026-01-15 09:31:09.98	114.70	26.54	-30.8	-32.3	12.8	5.11e-05	0	43	0	353370112	22	4258
2026-01-15 09:31:10.98	114.53	26.68	-30.7	-32.1	13.1	5.34e-05	0	43	0	354418688	22	4191
2026-01-15 09:31:11.99	114.35	26.83	-30.7	-31.9	13.1	4.19e-05	0	43	0	356515840	22	4142
2026-01-15 09:31:12.98	114.18	26.97	-30.7	-31.9	13.1	3.89e-05	0	43	0	358612992	22	4158
2026-01-15 09:31:13.98	114.00	27.11	-30.6	-31.8	13.1	3.81e-05	0	43	0	360710144	22	4139
2026-01-15 09:31:14.98	113.83	27.25	-30.6	-31.8	13.1	4.42e-05	0	43	0	362807296	22	4166
2026-01-15 09:31:15.99	113.65	27.40	-30.7	-32.3	12.8	3.81e-05	0	43	0	363855872	22	4310
2026-01-15 09:31:16.99	113.47	27.54	-31.1	-33.3	12.1	1.22e-04	0	43	0	365953024	22	4641
2026-01-15 09:31:18.00	113.28	27.69	-31.0	-33.2	12.2	2.12e-04	0	43	0	368050176	22	4603
2026-01-15 09:31:19.00	113.10	27.83	-31.2	-33.7	11.8	3.41e-04	0	43	0	370147328	22	4789
2026-01-15 09:31:20.00	112.91	27.98	-30.9	-32.7	12.4	3.21e-04	0	43	0	372244480	22	4453
2026-01-15 09:31:21.01	112.72	28.13	-31.0	-33.1	12.1	2.17e-04	0	43	0	373293056	22	4599
2026-01-15 09:31:22.01	112.53	28.27	-31.0	-33.0	12.2	2.48e-04	0	43	0	375390208	22	4556
2026-01-15 09:31:23.01	112.34	28.42	-31.1	-33.4	11.9	2.84e-04	0	43	0	377487360	22	4705
2026-01-15 09:31:24.01	112.15	28.57	-31.2	-33.6	11.8	3.52e-04	0	43	0	379584512	22	4782
2026-01-15 09:31:25.00	111.96	28.71	-31.2	-33.8	11.8	3.59e-04	0	43	0	380633088	22	4818
2026-01-15 09:31:26.01	111.76	28.86	-31.0	-33.0	12.4	2.52e-04	0	43	0	382730240	22	4519
2026-01-15 09:31:27.00	111.57	29.01	-31.1	-33.2	12.2	1.81e-04	0	43	0	384827392	22	4604
2026-01-15 09:31:28.00	111.37	29.16	-30.9	-32.7	12.5	2.47e-04	0	43	0	386924544	22	4435
2026-01-15 09:31:29.01	111.16	29.31	-31.2	-33.6	12.0	1.64e-04	0	43	0	389021696	22	4747
2026-01-15 09:31:30.01	110.96	29.46	-31.6	-34.1	11.3	8.84e-04	0	43	0	390070272	23	4825
2026-01-15 09:31:31.02	110.75	29.61	-31.6	-34.2	11.1	1.86e-03	0	43	0	392167424	23	4877
2026-01-15 09:31:32.03	110.54	29.76	-31.5	-33.9	11.3	9.60e-04	0	43	0	394264576	23	4765
2026-01-15 09:31:33.03	110.33	29.91	-31.7	-34.5	11.0	6.59e-04	0	43	0	396361728	23	4987
2026-01-15 09:31:34.03	110.12	30.06	-31.4	-33.5	11.7	6.70e-04	0	43	0	398458880	23	4603
2026-01-15 09:31:35.03	109.91	30.22	-31.5	-33.9	11.4	6.84e-04	0	43	0	399507456	23	4772
2026-01-15 09:31:36.04	109.69	30.37	-31.6	-33.9	11.0	1.32e-03	0	43	0	401604608	24	4680
2026-01-15 09:31:37.05	109.47	30.52	-31.8	-34.4	10.7	3.27e-03	0	43	0	403701760	24	4870
2026-01-15 09:31:38.05	109.25	30.68	-31.5	-33.7	11.1	2.05e-03	0	43	0	405798912	24	4593
2026-01-15 09:31:39.05	109.03	30.83	-31.4	-33.2	11.5	2.01e-03	0	43	0	407896064	24	4429
2026-01-15 09:31:40.05	108.80	30.98	-31.4	-33.1	11.6	7.99e-04	0	43	0	408944640	24	4393
2026-01-15 09:31:41.05	108.58	31.14	-31.9	-34.9	10.3	1.70e-03	0	43	0	411041792	24	5085
2026-01-15 09:31:42.06	108.35	31.29	-31.9	-35.0	10.3	3.81e-03	0	43	0	413138944	24	5133
2026-01-15 09:31:43.06	108.12	31.44	-32.0	-35.1	10.1	5.43e-03	0	43	0	415236096	24	5150
2026-01-15 09:31:44.07	107.88	31.60	-31.7	-34.2	10.7	6.35e-03	0	43	0	417333248	24	4794
2026-01-15 09:31:45.07	107.65	31.76	-31.9	-34.7	10.4	3.30e-03	0	43	0	418381824	24	4970
2026-01-15 09:31:46.06	107.41	31.91	-32.0	-35.2	10.1	4.87e-03	0	43	0	420478976	24	5189
2026-01-15 09:31:47.07	107.17	32.07	-32.0	-35.0	10.2	5.70e-03	0	43	0	422576128	24	5121
2026-01-15 09:31:48.07	106.93	32.22	-32.0	-35.3	10.0	9.02e-03	0	43	0	424673280	24	5234
2026-01-15 09:31:49.07	106.68	32.38	-31.9	-34.7	10.4	6.80e-03	0	43	0	425721856	24	4980
2026-01-15 09:31:50.08	106.44	32.53	-31.9	-34.8	10.4	2.92e-03	0	43	0	427819008	24	5028
2026-01-15 09:31:51.09	106.18	32.69	-32.2	-35.8	9.6	8.48e-03	0	43	0	429916160	24	5461
2026-01-15 09:31:52.09	105.93	32.85	-32.0	-35.1	10.2	9.73e-03	0	43	0	432013312	24	5138
2026-01-15 09:31:53.10	105.68	33.01	-32.2	-35.8	9.6	9.48e-03	0	43	0	434110464	24	5426
2026-01-15 09:31:54.11	105.42	33.16	-32.2	-35.5	9.8	6.50e-03	0	43	0	436207616	24	5309
2026-01-15 09:31:55.10	105.16	33.32	-32.3	-36.0	9.6	9.06e-03	0	43	0	437256192	24	5500
2026-01-15 09:31:56.11	104.90	33.48	-32.3	-36.1	9.5	9.64e-03	0	43	0	439353344	24	5570
2026-01-15 09:31:57.11	104.63	33.63	-32.4	-36.0	9.2	2.80e-02	0	43	0	441450496	25	5426
2026-01-15 09:31:58.12	104.36	33.79	-32.6	-36.6	8.6	4.09e-02	0	43	0	443547648	25	5751
2026-01-15 09:31:59.12	104.10	33.95	-32.4	-35.9	9.2	3.82e-02	0	43	0	444596224	25	5385
2026-01-15 09:32:00.12	103.82	34.11	-32.1	-34.8	10.1	1.51e-02	0	43	0	446693376	25	4902
2026-01-15 09:32:01.13	103.55	34.27	-31.6	-33.6	11.4	1.15e-03	0	43	0	448790528	24	4542
2026-01-15 09:32:02.14	103.27	34.42	-31.5	-33.6	11.8	5.10e-04	0	43	0	450887680	23	4611
2026-01-15 09:32:03.14	102.99	34.58	-31.7	-34.3	11.3	1.02e-03	0	43	0	452984832	23	4858
2026-01-15 09:32:04.14	102.70	34.74	-31.2	-33.0	12.2	2.91e-04	0	43	0	454033408	23	4406
2026-01-15 09:32:05.14	102.42	34.90	-30.8	-31.8	13.0	1.07e-04	0	43	0	456130560	23	4043
2026-01-15 09:32:06.15	102.13	35.05	-30.4	-31.3	13.7	2.51e-05	0	43	0	458227712	22	3962
2026-01-15 09:32:07.14	101.84	35.21	-30.5	-31.4	13.6	9.10e-06	0	43	0	460324864	22	4010
2026-01-15 09:32:08.14	101.55	35.37	-30.8	-32.3	13.0	2.36e-05	0	43	0	462422016	22	4259
2026-01-15 09:32:09.15	101.25	35.53	-31.0	-32.8	12.6	8.46e-05	0	43	0	463470592	22	4459
2026-01-15 09:32:10.15	100.95	35.68	-31.4	-34.1	11.7	1.59e-04	0	43	0	465567744	22	4922
2026-01-15 09:32:11.16	100.64	35.84	-31.7	-34.5	11.2	6.28e-04	0	43	0	467664896	23	4950
2026-01-15 09:32:12.16	100.34	36.00	-32.1	-35.5	10.1	4.87e-03	0	43	0	469762048	24	5281
2026-01-15 09:32:13.16	100.03	36.15	-31.9	-34.7	10.5	5.34e-03	0	43	0	471859200	24	4985
2026-01-15 09:32:14.17	99.71	36.31	-31.5	-33.6	11.3	1.70e-03	0	43	0	472907776	24	4562
2026-01-15 09:32:15.17	99.40	36.47	-31.5	-33.5	11.3	1.33e-03	0	43	0	475004928	24	4521
2026-01-15 09:32:16.17	99.08	36.62	-31.6	-34.0	11.1	1.63e-03	0	43	0	477102080	24	4698
2026-01-15 09:32:17.17	98.76	36.78	-31.7	-34.2	11.0	2.56e-03	0	43	0	479199232	24	4775
2026-01-15 09:32:18.17	98.44	36.93	-31.8	-34.2	10.9	2.63e-03	0	43	0	481296384	24	4786
2026-01-15 09:32:19.18	98.11	37.09	-31.6	-33.6	11.4	1.53e-03	0	43	0	482344960	24	4550
2026-01-15 09:32:20.18	97.78	37.24	-31.2	-33.0	12.1	5.78e-04	0	43	0	484442112	23	4418
2026-01-15 09:32:21.19	97.44	37.40	-31.2	-33.1	12.0	2.56e-04	0	43	0	486539264	23	4457
2026-01-15 09:32:22.19	97.11	37.55	-31.4	-33.4	11.8	2.38e-04	0	43	0	488636416	23	4572
2026-01-15 09:32:23.19	96.77	37.71	-31.5	-34.0	11.5	5.17e-04	0	43	0	490733568	23	4781
2026-01-15 09:32:24.19	96.42	37.86	-31.9	-35.3	10.4	3.11e-03	0	43	0	491782144	23	5320
2026-01-15 09:32:25.19	96.08	38.01	-32.1	-35.6	9.9	7.09e-03	0	43	0	493879296	24	5356
2026-01-15 09:32:26.20	95.73	38.17	-32.3	-36.2	9.5	1.16e-02	0	43	0	495976448	24	5655
2026-01-15 09:32:27.21	95.37	38.32	-32.0	-35.3	10.0	1.08e-02	0	43	0	498073600	24	5265
2026-01-15 09:32:28.20	95.02	38.47	-32.0	-35.2	10.2	7.03e-03	0	43	0	499122176	24	5202
2026-01-15 09:32:29.20	94.66	38.62	-31.8	-34.5	10.7	4.92e-03	0	43	0	501219328	24	4906
2026-01-15 09:32:30.20	94.30	38.77	-31.8	-34.6	10.6	3.70e-03	0	43	0	503316480	24	4960
2026-01-15 09:32:31.21	93.93	38.92	-31.6	-33.9	11.1	1.73e-03	0	43	0	505413632	24	4679
2026-01-15 09:32:32.21	93.56	39.06	-31.3	-33.3	12.0	4.18e-04	0	43	0	507510784	23	4523
2026-01-15 09:32:33.21	93.19	39.21	-31.5	-34.1	11.4	5.45e-04	0	43	0	508559360	23	4818
2026-01-15 09:32:34.22	92.81	39.36	-31.8	-34.9	10.7	1.81e-03	0	43	0	510656512	23	5147
2026-01-15 09:32:35.22	92.43	39.51	-31.7	-34.7	11.0	2.88e-03	0	43	0	512753664	23	5090
2026-01-15 09:32:36.22	92.04	39.65	-31.3	-33.5	11.7	1.09e-03	0	43	0	514850816	23	4619
2026-01-15 09:32:37.22	91.66	39.79	-31.1	-32.9	12.2	3.04e-04	0	43	0	516947968	23	4388
2026-01-15 09:32:38.23	91.26	39.94	-30.9	-32.0	12.9	5.11e-05	0	43	0	517996544	23	4085
2026-01-15 09:32:39.23	90.87	40.08	-31.0	-32.3	12.6	1.09e-04	0	43	0	520093696	23	4202
2026-01-15 09:32:40.23	90.48	40.22	-31.0	-32.3	12.6	1.29e-04	0	43	0	522190848	23	4206
2026-01-15 09:32:41.23	90.08	40.36	-31.3	-33.3	12.0	1.36e-04	0	43	0	524288000	23	4517
2026-01-15 09:32:42.24	89.67	40.50	-31.3	-33.2	12.0	2.26e-04	0	43	0	526385152	23	4508
2026-01-15 09:32:43.23	89.26	40.64	-31.6	-34.1	11.3	6.24e-04	0	43	0	527433728	23	4811
2026-01-15 09:32:44.24	88.85	40.78	-31.8	-34.8	10.9	1.82e-03	0	43	0	529530880	23	5105
2026-01-15 09:32:45.24	88.44	40.91	-31.4	-33.6	11.8	9.05e-04	0	43	0	531628032	23	4625
2026-01-15 09:32:46.24	88.02	41.05	-31.0	-32.4	12.5	2.82e-04	0	43	0	533725184	23	4252
2026-01-15 09:32:47.24	87.60	41.18	-30.6	-31.8	13.3	2.28e-05	0	43	0	535822336	22	4133
2026-01-15 09:32:48.25	87.17	41.31	-30.6	-31.8	13.3	2.05e-05	0	43	0	536870912	22	4122
2026-01-15 09:32:49.25	86.74	41.44	-30.9	-32.7	12.8	3.43e-05	0	43	0	538968064	22	4410
2026-01-15 09:32:50.26	86.31	41.57	-31.1	-33.2	12.3	1.20e-04	0	43	0	541065216	22	4604
2026-01-15 09:32:51.25	85.88	41.70	-31.0	-32.8	12.6	1.90e-04	0	43	0	543162368	22	4459
2026-01-15 09:32:52.26	85.43	41.83	-30.8	-32.3	13.0	9.91e-05	0	43	0	544210944	22	4267
2026-01-15 09:32:53.26	84.99	41.95	-30.2	-31.3	13.9	1.29e-05	0	43	0	546308096	21	4071
2026-01-15 09:32:54.26	84.55	42.08	-29.9	-30.6	14.4	4.50e-06	0	43	0	548405248	21	3887
2026-01-15 09:32:55.27	84.09	42.20	-30.1	-31.1	14.0	2.20e-06	0	43	0	550502400	21	4031
2026-01-15 09:32:56.27	83.64	42.32	-30.4	-32.0	13.4	1.50e-06	0	43	0	552599552	21	4324
2026-01-15 09:32:57.28	83.18	42.44	-30.4	-32.0	13.5	1.60e-05	0	43	0	553648128	21	4298
2026-01-15 09:32:58.27	82.73	42.56	-30.3	-31.5	13.8	9.10e-06	0	43	0	555745280	21	4148
2026-01-15 09:32:59.28	82.26	42.67	-30.8	-32.9	12.9	3.81e-05	0	43	0	557842432	21	4600
2026-01-15 09:33:00.28	81.80	42.78	-30.6	-32.3	13.2	9.10e-06	0	43	0	559939584	21	4409
2026-01-15 09:33:01.29	81.32	42.90	-30.6	-32.4	13.2	4.95e-05	0	43	0	562036736	21	4450
2026-01-15 09:33:02.29	80.85	43.01	-30.4	-31.8	13.5	7.60e-06	0	43	0	563085312	21	4253
2026-01-15 09:33:03.29	80.38	43.11	-30.3	-31.6	13.7	3.00e-06	0	43	0	565182464	21	4188
2026-01-15 09:33:04.29	79.90	43.22	-30.3	-31.7	13.6	7.60e-06	0	43	0	567279616	21	4202
2026-01-15 09:33:05.29	79.42	43.32	-30.3	-31.7	13.6	1.06e-05	0	43	0	569376768	21	4221
2026-01-15 09:33:06.29	78.93	43.43	-30.5	-32.4	13.1	1.90e-05	0	43	0	571473920	21	4443
2026-01-15 09:33:07.30	78.44	43.53	-30.7	-32.7	12.9	4.95e-05	0	43	0	572522496	21	4552
2026-01-15 09:33:08.30	77.95	43.62	-30.7	-32.9	12.8	5.56e-05	0	43	0	574619648	21	4617
2026-01-15 09:33:09.30	77.46	43.72	-30.9	-33.3	12.6	5.79e-05	0	43	0	576716800	21	4740
2026-01-15 09:33:10.31	76.96	43.81	-31.0	-33.0	12.5	1.47e-04	0	43	0	578813952	22	4529
2026-01-15 09:33:11.31	76.46	43.91	-30.6	-31.9	13.2	3.66e-05	0	43	0	580911104	22	4176
2026-01-15 09:33:12.31	75.95	43.99	-30.4	-31.3	13.5	1.29e-05	0	43	0	581959680	22	3997
2026-01-15 09:33:13.31	75.45	44.08	-30.4	-31.4	13.6	1.98e-05	0	43	0	584056832	22	4025
2026-01-15 09:33:14.32	74.94	44.17	-30.7	-32.1	13.1	1.75e-05	0	43	0	586153984	22	4223
2026-01-15 09:33:15.33	74.42	44.25	-30.5	-31.4	13.6	1.06e-05	0	43	0	588251136	22	4006
2026-01-15 09:33:16.33	73.91	44.33	-30.4	-31.3	13.8	1.06e-05	0	43	0	590348288	22	3962
2026-01-15 09:33:17.34	73.39	44.41	-31.0	-32.7	12.7	2.36e-05	0	43	0	591396864	22	4399
2026-01-15 09:33:18.34	72.87	44.48	-31.3	-33.8	12.0	1.90e-04	0	43	0	593494016	22	4804
2026-01-15 09:33:19.34	72.35	44.55	-31.4	-33.7	11.6	9.12e-04	0	43	0	595591168	23	4658
2026-01-15 09:33:20.35	71.82	44.62	-31.4	-33.7	11.7	4.53e-04	0	43	0	597688320	23	4678
2026-01-15 09:33:21.34	71.30	44.69	-31.4	-33.6	11.6	7.13e-04	0	43	0	599785472	23	4647
2026-01-15 09:33:22.34	70.78	44.75	-31.6	-34.3	11.2	1.20e-03	0	43	0	600834048	23	4925
2026-01-15 09:33:23.34	70.25	44.82	-31.0	-32.6	12.4	2.67e-04	0	43	0	602931200	23	4318
2026-01-15 09:33:24.34	69.72	44.88	-30.8	-31.9	12.8	1.31e-04	0	43	0	605028352	23	4109
2026-01-15 09:33:25.35	69.18	44.93	-30.6	-31.8	13.3	3.35e-05	0	43	0	607125504	22	4153
2026-01-15 09:33:26.35	68.64	44.99	-30.4	-31.4	13.6	2.05e-05	0	43	0	608174080	22	4019
2026-01-15 09:33:27.36	68.10	45.04	-30.5	-31.4	13.6	1.14e-05	0	43	0	610271232	22	4029
2026-01-15 09:33:28.35	67.57	45.09	-30.2	-31.4	13.9	3.00e-06	0	43	0	612368384	21	4101
2026-01-15 09:33:29.36	67.02	45.13	-30.5	-32.0	13.4	6.80e-06	0	43	0	614465536	21	4303
2026-01-15 09:33:30.36	66.48	45.18	-31.3	-33.9	11.9	2.04e-04	0	43	0	616562688	22	4887
2026-01-15 09:33:31.36	65.94	45.22	-31.4	-33.7	11.5	6.26e-04	0	43	0	617611264	23	4734
2026-01-15 09:33:32.36	65.39	45.25	-31.4	-34.0	11.4	1.61e-03	0	43	0	619708416	23	4819
2026-01-15 09:33:33.37	64.84	45.29	-32.0	-35.5	9.9	3.87e-03	0	43	0	621805568	24	5380
2026-01-15 09:33:34.37	64.30	45.32	-32.3	-36.2	9.3	1.01e-02	0	43	0	623902720	24	5690
2026-01-15 09:33:35.38	63.74	45.35	-31.8	-34.5	10.7	1.10e-02	0	43	0	625999872	24	4913
2026-01-15 09:33:36.37	63.20	45.37	-31.4	-33.2	11.6	1.16e-03	0	43	0	627048448	24	4448
2026-01-15 09:33:37.38	62.64	45.40	-31.3	-33.6	11.6	3.81e-04	0	43	0	629145600	23	4671
2026-01-15 09:33:38.38	62.09	45.42	-31.3	-33.6	11.7	5.88e-04	0	43	0	631242752	23	4686
2026-01-15 09:33:39.38	61.54	45.43	-31.0	-32.5	12.4	1.04e-04	0	43	0	633339904	23	4320
2026-01-15 09:33:40.39	60.99	45.45	-31.0	-32.6	12.3	1.01e-04	0	43	0	635437056	23	4330
2026-01-15 09:33:41.39	60.44	45.46	-31.6	-34.5	11.0	5.52e-04	0	43	0	636485632	23	5051
2026-01-15 09:33:42.40	59.88	45.47	-31.5	-34.3	11.1	2.41e-03	0	43	0	638582784	23	4946
2026-01-15 09:33:43.40	59.33	45.47	-30.5	-31.8	13.2	2.55e-04	0	43	0	640679936	22	4151
2026-01-15 09:33:44.40	58.77	45.47	-29.9	-31.0	14.4	5.30e-06	0	43	0	642777088	20	4091
2026-01-15 09:33:45.41	58.22	45.47	-30.1	-31.6	14.0	2.20e-06	0	43	0	644874240	20	4291
2026-01-15 09:33:46.41	57.66	45.47	-30.6	-32.5	13.0	1.83e-05	0	43	0	645922816	21	4482
2026-01-15 09:33:47.41	57.11	45.46	-30.7	-32.7	13.0	5.95e-05	0	43	0	648019968	21	4550
2026-01-15 09:33:48.42	56.55	45.45	-31.1	-33.5	12.1	1.24e-04	0	43	0	650117120	22	4747
2026-01-15 09:33:49.42	56.00	45.44	-31.2	-34.0	11.7	6.94e-04	0	43	0	652214272	22	4966
2026-01-15 09:33:50.42	55.45	45.42	-31.1	-33.6	11.8	5.97e-04	0	43	0	653262848	22	4800
2026-01-15 09:33:51.42	54.90	45.40	-30.9	-33.0	12.3	1.99e-04	0	43	0	655360000	22	4582
2026-01-15 09:33:52.43	54.35	45.38	-31.1	-33.6	12.0	1.02e-04	0	43	0	657457152	22	4795
2026-01-15 09:33:53.43	53.80	45.36	-31.0	-33.4	12.1	2.43e-04	0	43	0	659554304	22	4733
2026-01-15 09:33:54.43	53.25	45.33	-30.7	-32.3	12.8	9.99e-05	0	43	0	661651456	22	4337
2026-01-15 09:33:55.43	52.70	45.30	-30.3	-31.7	13.6	1.52e-05	0	43	0	662700032	21	4217
2026-01-15 09:33:56.43	52.16	45.27	-30.6	-32.6	13.0	2.44e-05	0	43	0	664797184	21	4517
2026-01-15 09:33:57.43	51.61	45.23	-31.1	-33.7	11.9	1.72e-04	0	43	0	666894336	22	4807
2026-01-15 09:33:58.44	51.07	45.19	-31.4	-34.5	11.3	2.72e-04	0	43	0	668991488	22	5129
2026-01-15 09:33:59.45	50.52	45.15	-31.2	-33.7	11.9	4.77e-04	0	43	0	671088640	22	4809
2026-01-15 09:34:00.45	49.98	45.11	-31.1	-33.3	12.2	3.02e-04	0	43	0	672137216	22	4675
2026-01-15 09:34:01.46	49.43	45.06	-30.8	-32.5	12.7	1.68e-04	0	43	0	674234368	22	4396
2026-01-15 09:34:02.47	48.89	45.01	-30.4	-31.6	13.3	2.67e-05	0	43	0	676331520	22	4126
2026-01-15 09:34:03.47	48.36	44.96	-30.3	-31.6	13.7	5.30e-06	0	43	0	678428672	21	4199
2026-01-15 09:34:04.47	47.82	44.90	-30.9	-33.3	12.4	3.58e-05	0	43	0	680525824	21	4777
2026-01-15 09:34:05.47	47.29	44.84	-30.9	-33.0	12.4	1.17e-04	0	43	0	681574400	22	4558
2026-01-15 09:34:06.47	46.76	44.78	-30.9	-33.0	12.3	4.16e-04	0	43	0	683671552	22	4585
2026-01-15 09:34:07.48	46.23	44.72	-30.6	-32.0	13.0	8.01e-05	0	43	0	685768704	22	4266
2026-01-15 09:34:08.48	45.70	44.65	-30.4	-31.7	13.2	2.89e-05	0	43	0	687865856	22	4148
2026-01-15 09:34:09.48	45.18	44.58	-30.8	-32.6	12.6	3.73e-05	0	43	0	689963008	22	4453
2026-01-15 09:34:10.48	44.66	44.51	-31.1	-33.5	11.9	1.54e-04	0	43	0	691011584	22	4762
2026-01-15 09:34:11.49	44.14	44.44	-30.9	-33.0	12.3	2.94e-04	0	43	0	693108736	22	4574
2026-01-15 09:34:12.49	43.62	44.36	-30.8	-32.6	12.6	3.31e-04	0	43	0	695205888	22	4433
2026-01-15 09:34:13.49	43.11	44.28	-30.8	-32.6	12.6	4.04e-05	0	43	0	697303040	22	4448
2026-01-15 09:34:14.50	42.59	44.20	-31.2	-33.9	11.7	3.75e-04	0	43	0	699400192	22	4929
2026-01-15 09:34:15.50	42.08	44.12	-31.2	-33.9	12.0	5.97e-04	0	43	0	700448768	22	4909
2026-01-15 09:34:16.50	41.58	44.03	-30.8	-32.7	12.5	2.59e-04	0	43	0	702545920	22	4449
2026-01-15 09:34:17.50	41.08	43.95	-30.7	-32.2	12.9	6.94e-05	0	43	0	704643072	22	4288
2026-01-15 09:34:18.51	40.57	43.86	-31.1	-33.4	12.1	1.80e-04	0	43	0	706740224	22	4708
2026-01-15 09:34:19.52	40.07	43.76	-31.2	-33.9	11.7	8.36e-04	0	43	0	708837376	22	4897
2026-01-15 09:34:20.52	39.58	43.67	-30.6	-32.1	12.9	1.24e-04	0	43	0	709885952	22	4276
2026-01-15 09:34:21.52	39.09	43.57	-29.8	-30.4	14.4	7.00e-07	0	43	0	711983104	21	3838
2026-01-15 09:34:22.53	38.59	43.47	-29.6	-30.3	14.7	7.00e-07	0	43	0	714080256	20	3909
2026-01-15 09:34:23.53	38.11	43.37	-30.0	-31.3	14.3	1.50e-06	0	44	0	716177408	20	4181
2026-01-15 09:34:24.53	37.63	43.27	-30.5	-32.6	13.4	6.10e-06	0	43	0	717225984	20	4603
2026-01-15 09:34:25.53	37.15	43.16	-30.7	-32.8	12.7	7.60e-06	0	43	0	719323136	21	4612
2026-01-15 09:34:26.54	36.67	43.06	-30.9	-32.8	12.4	1.30e-04	0	43	0	721420288	22	4513
2026-01-15 09:34:27.54	36.20	42.95	-30.3	-31.1	13.6	2.51e-05	0	43	0	723517440	22	3957
2026-01-15 09:34:28.54	35.73	42.84	-30.0	-30.8	14.2	3.00e-06	0	43	0	725614592	21	3928
2026-01-15 09:34:29.54	35.26	42.72	-30.1	-31.1	14.0	2.20e-06	0	43	0	726663168	21	4033
2026-01-15 09:34:30.55	34.79	42.61	-30.6	-32.4	13.2	9.10e-06	0	43	0	728760320	21	4435
2026-01-15 09:34:31.55	34.34	42.49	-30.8	-33.0	12.7	7.17e-05	0	43	0	730857472	21	4618
2026-01-15 09:34:32.56	33.88	42.37	-30.2	-31.3	13.9	1.98e-05	0	43	0	732954624	21	4079
2026-01-15 09:34:33.56	33.42	42.26	-30.3	-31.4	13.9	3.80e-06	0	43	0	735051776	21	4082
2026-01-15 09:34:34.56	32.97	42.13	-30.5	-31.9	13.5	6.10e-06	0	43	0	736100352	21	4228
2026-01-15 09:34:35.56	32.53	42.01	-29.8	-30.2	14.5	2.20e-06	0	43	0	738197504	21	3761
2026-01-15 09:34:36.57	32.08	41.89	-29.3	-29.4	15.3	0.00e+00	0	43	0	740294656	20	3625
2026-01-15 09:34:37.57	31.64	41.76	-28.5	-28.5	16.5	0.00e+00	0	43	0	742391808	18	3577
2026-01-15 09:34:38.57	31.21	41.63	-28.6	-28.6	16.4	0.00e+00	0	43	0	744488960	18	3614
2026-01-15 09:34:39.58	30.77	41.51	-28.6	-28.6	16.5	0.00e+00	0	43	0	745537536	18	3602
2026-01-15 09:34:40.58	30.34	41.38	-28.6	-28.7	16.3	0.00e+00	0	43	0	747634688	18	3635
2026-01-15 09:34:41.58	29.92	41.24	-29.0	-29.7	15.8	0.00e+00	0	43	0	749731840	18	3876
2026-01-15 09:34:42.59	29.49	41.11	-29.4	-30.0	15.4	0.00e+00	0	43	0	751828992	19	3857
2026-01-15 09:34:43.60	29.07	40.98	-29.1	-29.3	15.6	0.00e+00	0	43	0	753926144	19	3700
2026-01-15 09:34:44.60	28.66	40.84	-28.6	-28.6	16.4	0.00e+00	0	43	0	754974720	18	3610
2026-01-15 09:34:45.60	28.25	40.71	-28.3	-28.5	16.8	0.00e+00	0	43	0	757071872	17	3674
2026-01-15 09:34:46.61	27.84	40.57	-28.9	-29.8	16.0	0.00e+00	0	43	0	759169024	17	4030
2026-01-15 09:34:47.61	27.43	40.43	-29.4	-30.6	15.3	0.00e+00	0	43	0	761266176	18	4128
2026-01-15 09:34:48.62	27.03	40.29	-29.3	-29.8	15.4	0.00e+00	0	43	0	763363328	19	3824
2026-01-15 09:34:49.63	26.63	40.15	-29.2	-29.8	15.4	0.00e+00	0	43	0	764411904	19	3818
2026-01-15 09:34:50.63	26.23	40.01	-30.0	-31.5	14.5	0.00e+00	0	43	0	766509056	19	4300
2026-01-15 09:34:51.63	25.84	39.86	-30.5	-32.1	13.3	6.80e-06	0	43	0	768606208	21	4307
2026-01-15 09:34:52.64	25.45	39.72	-30.2	-31.3	13.7	1.52e-05	0	43	0	770703360	21	4073
2026-01-15 09:34:53.64	25.07	39.58	-29.9	-30.5	14.4	0.00e+00	0	43	0	772800512	21	3824
2026-01-15 09:34:54.65	24.69	39.43	-29.8	-30.6	14.6	7.00e-07	0	43	0	773849088	20	3956
2026-01-15 09:34:55.65	24.31	39.28	-29.8	-30.7	14.6	7.00e-07	0	43	0	775946240	20	3978
2026-01-15 09:34:56.66	23.94	39.14	-29.9	-30.8	14.5	7.00e-07	0	43	0	778043392	20	4021
2026-01-15 09:34:57.67	23.56	38.99	-29.9	-30.8	14.5	0.00e+00	0	43	0	780140544	20	4007
2026-01-15 09:34:58.66	23.20	38.84	-30.0	-31.1	14.2	1.50e-06	0	43	0	782237696	20	4096
2026-01-15 09:34:59.66	22.84	38.69	-30.5	-32.1	13.4	2.20e-06	0	43	0	783286272	21	4289
2026-01-15 09:35:00.66	22.48	38.54	-30.6	-32.1	13.4	1.98e-05	0	43	0	785383424	21	4299
2026-01-15 09:35:01.67	22.12	38.39	-30.2	-31.2	14.0	3.80e-06	0	43	0	787480576	21	4043
2026-01-15 09:35:02.67	21.77	38.24	-30.1	-30.8	14.2	0.00e+00	0	43	0	789577728	21	3907
2026-01-15 09:35:03.67	21.42	38.09	-30.8	-32.7	13.1	1.37e-05	0	43	0	790626304	21	4498
2026-01-15 09:35:04.67	21.07	37.94	-31.3	-33.6	12.1	2.40e-04	0	43	0	792723456	22	4690
2026-01-15 09:35:05.68	20.73	37.78	-31.5	-33.7	11.7	4.81e-04	0	43	0	794820608	23	4659
2026-01-15 09:35:06.68	20.39	37.63	-31.5	-33.8	11.6	7.83e-04	0	43	0	796917760	23	4679
2026-01-15 09:35:07.68	20.05	37.48	-31.7	-34.2	11.4	9.39e-04	0	43	0	799014912	23	4805
2026-01-15 09:35:08.68	19.72	37.33	-31.4	-33.4	11.9	1.05e-03	0	43	0	800063488	23	4540
2026-01-15 09:35:09.68	19.39	37.17	-31.2	-32.7	12.4	1.94e-04	0	43	0	802160640	23	4295
2026-01-15 09:35:10.68	19.06	37.02	-30.9	-32.0	12.8	6.86e-05	0	43	0	804257792	23	4093
2026-01-15 09:35:11.68	18.74	36.86	-30.9	-32.1	12.8	6.17e-05	0	43	0	806354944	23	4129
2026-01-15 09:35:12.69	18.41	36.71	-31.0	-32.4	12.4	8.92e-05	0	43	0	808452096	23	4213
2026-01-15 09:35:13.69	18.09	36.55	-31.6	-34.3	11.2	3.99e-04	0	43	0	809500672	23	4881
2026-01-15 09:35:14.70	17.78	36.40	-31.7	-34.6	11.0	2.65e-03	0	43	0	811597824	23	4982
2026-01-15 09:35:15.70	17.47	36.24	-31.4	-33.6	11.7	1.75e-03	0	43	0	813694976	23	4622
2026-01-15 09:35:16.70	17.16	36.08	-31.1	-32.7	12.2	2.46e-04	0	43	0	815792128	23	4323
2026-01-15 09:35:17.70	16.85	35.93	-31.3	-33.3	11.8	2.67e-04	0	43	0	817889280	23	4507
2026-01-15 09:35:18.70	16.55	35.77	-31.9	-35.2	10.4	1.30e-03	0	43	0	818937856	23	5262
2026-01-15 09:35:19.71	16.25	35.62	-31.9	-34.6	10.5	5.37e-03	0	43	0	821035008	24	4915
2026-01-15 09:35:20.70	15.95	35.46	-32.0	-35.1	10.2	7.17e-03	0	43	0	823132160	24	5137
2026-01-15 09:35:21.71	15.66	35.30	-32.2	-35.6	9.9	8.62e-03	0	43	0	825229312	24	5328
2026-01-15 09:35:22.71	15.36	35.15	-32.5	-36.5	8.6	1.90e-02	0	43	0	827326464	25	5675
2026-01-15 09:35:23.71	15.08	34.99	-32.6	-36.6	8.6	3.03e-02	0	43	0	828375040	25	5728
2026-01-15 09:35:24.70	14.79	34.83	-32.4	-35.8	9.2	2.77e-02	0	43	0	830472192	25	5364
2026-01-15 09:35:25.71	14.51	34.68	-32.0	-34.5	10.3	1.19e-02	0	43	0	832569344	25	4798
2026-01-15 09:35:26.71	14.23	34.52	-32.3	-35.4	9.7	5.24e-03	0	43	0	834666496	25	5128
2026-01-15 09:35:27.71	13.95	34.36	-32.3	-35.5	9.5	1.47e-02	0	43	0	835715072	25	5186
2026-01-15 09:35:28.72	13.67	34.21	-32.7	-37.3	8.2	3.32e-02	0	43	0	837812224	25	6053
2026-01-15 09:35:29.73	13.40	34.05	-33.2	-38.8	6.7	1.13e-01	0	43	0	839909376	26	6857
2026-01-15 09:35:30.73	13.13	33.89	-33.1	-38.3	6.9	1.75e-01	0	43	0	842006528	26	6576
2026-01-15 09:35:31.73	12.86	33.73	-32.8	-37.0	8.0	8.88e-02	0	43	0	844103680	26	5860
2026-01-15 09:35:32.73	12.60	33.58	-32.7	-36.6	8.3	5.74e-02	0	43	0	845152256	26	5625
2026-01-15 09:35:33.74	12.34	33.42	-32.9	-37.2	7.8	8.27e-02	0	43	0	847249408	26	5947
2026-01-15 09:35:34.74	12.08	33.26	-32.8	-36.8	8.1	6.98e-02	0	43	0	849346560	26	5747
2026-01-15 09:35:35.75	11.82	33.11	-32.6	-36.2	8.6	4.64e-02	0	43	0	851443712	26	5421
2026-01-15 09:35:36.75	11.56	32.95	-32.6	-36.0	8.8	2.97e-02	0	43	0	853540864	26	5367
2026-01-15 09:35:37.76	11.31	32.79	-32.6	-36.3	8.5	4.32e-02	0	43	0	854589440	26	5476
2026-01-15 09:35:38.76	11.06	32.64	-32.7	-36.6	8.3	3.19e-02	0	43	0	856686592	26	5605
2026-01-15 09:35:39.76	10.81	32.48	-32.4	-35.2	9.3	4.10e-02	0	43	0	858783744	26	5005
2026-01-15 09:35:40.77	10.57	32.33	-32.0	-34.3	10.3	1.26e-02	0	43	0	860880896	25	4730
2026-01-15 09:35:41.77	10.33	32.17	-31.5	-33.3	11.4	1.66e-03	0	43	0	862978048	24	4448
2026-01-15 09:35:42.78	10.08	32.02	-31.2	-32.9	12.1	3.78e-04	0	43	0	864026624	23	4365
2026-01-15 09:35:43.78	9.85	31.86	-31.3	-33.4	11.8	5.87e-04	0	43	0	866123776	23	4560
2026-01-15 09:35:44.78	9.61	31.71	-31.7	-34.6	10.8	1.33e-03	0	43	0	868220928	23	5028
2026-01-15 09:35:45.79	9.38	31.55	-32.2	-35.9	9.5	6.26e-03	0	43	0	870318080	24	5483
2026-01-15 09:35:46.79	9.15	31.40	-32.3	-36.1	9.3	2.12e-02	0	43	0	872415232	24	5591
2026-01-15 09:35:47.79	8.92	31.25	-32.3	-36.1	9.3	2.18e-02	0	43	0	873463808	24	5587
2026-01-15 09:35:48.79	8.69	31.09	-31.9	-34.8	10.1	1.12e-02	0	43	0	875560960	24	5034
2026-01-15 09:35:49.79	8.47	30.94	-31.7	-34.0	10.8	5.29e-03	0	43	0	877658112	24	4726
2026-01-15 09:35:50.79	8.25	30.79	-31.4	-33.2	11.3	1.72e-03	0	43	0	879755264	24	4409
2026-01-15 09:35:51.78	8.03	30.64	-31.5	-33.5	11.2	9.20e-04	0	43	0	880803840	24	4538
2026-01-15 09:35:52.79	7.81	30.48	-31.3	-32.9	11.7	7.30e-04	0	43	0	882900992	24	4304
2026-01-15 09:35:53.79	7.59	30.33	-31.3	-33.4	11.7	5.87e-04	0	43	0	884998144	23	4552
2026-01-15 09:35:54.79	7.38	30.18	-30.8	-32.3	12.8	1.62e-04	0	43	0	887095296	22	4275
2026-01-15 09:35:55.79	7.17	30.03	-30.8	-32.2	12.8	7.70e-05	0	43	0	889192448	22	4244
2026-01-15 09:35:56.79	6.96	29.88	-30.4	-31.2	13.4	4.50e-05	0	43	0	890241024	22	3948
2026-01-15 09:35:57.80	6.75	29.73	-30.9	-32.6	12.6	1.37e-05	0	43	0	892338176	22	4374
2026-01-15 09:35:58.80	6.54	29.58	-30.9	-32.7	12.5	1.11e-04	0	43	0	894435328	22	4427
2026-01-15 09:35:59.80	6.34	29.43	-31.3	-33.7	11.8	3.23e-04	0	43	0	896532480	22	4778
2026-01-15 09:36:00.81	6.14	29.28	-31.4	-34.3	11.3	8.01e-04	0	43	0	898629632	22	4987
2026-01-15 09:36:01.80	5.94	29.13	-31.6	-34.3	11.0	2.29e-03	0	43	0	899678208	23	4906
2026-01-15 09:36:02.81	5.74	28.98	-31.6	-34.2	11.0	2.06e-03	0	43	0	901775360	23	4869
2026-01-15 09:36:03.81	5.54	28.84	-31.2	-33.0	11.9	9.18e-04	0	43	0	903872512	23	4425
2026-01-15 09:36:04.81	5.35	28.69	-30.8	-31.7	12.7	3.35e-04	0	43	0	905969664	23	4023
2026-01-15 09:36:05.82	5.15	28.54	-30.7	-32.0	12.9	7.70e-05	0	43	0	908066816	22	4198
2026-01-15 09:36:06.82	4.96	28.39	-30.6	-31.8	13.0	4.27e-05	0	43	0	909115392	22	4123
2026-01-15 09:36:07.82	4.77	28.25	-30.8	-32.3	12.8	5.72e-05	0	43	0	911212544	22	4287
2026-01-15 09:36:08.83	4.59	28.10	-30.8	-32.4	12.6	8.85e-05	0	43	0	913309696	22	4328
2026-01-15 09:36:09.83	4.40	27.96	-31.0	-32.8	12.4	8.77e-05	0	43	0	915406848	22	4449
2026-01-15 09:36:10.83	4.22	27.81	-31.5	-33.8	11.3	5.54e-04	0	44	0	917504000	23	4728
2026-01-15 09:36:11.83	4.03	27.67	-31.8	-35.1	10.4	3.88e-03	0	44	0	918552576	23	5223
2026-01-15 09:36:12.83	3.85	27.52	-32.4	-36.6	8.9	1.43e-02	0	43	0	920649728	24	5813
2026-01-15 09:36:13.83	3.68	27.38	-32.4	-36.3	8.6	3.70e-02	0	43	0	922746880	25	5608
2026-01-15 09:36:14.83	3.50	27.24	-32.2	-35.4	9.3	2.60e-02	0	43	0	924844032	25	5202
2026-01-15 09:36:15.82	3.32	27.10	-31.6	-33.9	10.9	4.43e-03	0	43	0	925892608	24	4672
2026-01-15 09:36:16.83	3.15	26.95	-31.5	-33.6	11.1	2.25e-03	0	43	0	927989760	24	4562
2026-01-15 09:36:17.83	2.98	26.81	-31.4	-33.1	11.5	9.41e-04	0	43	0	930086912	24	4367
2026-01-15 09:36:18.84	2.80	26.67	-31.3	-33.2	11.7	5.42e-04	0	43	0	932184064	23	4504
2026-01-15 09:36:19.83	2.64	26.53	-31.1	-32.8	12.0	4.81e-04	0	43	0	934281216	23	4362
2026-01-15 09:36:20.84	2.47	26.39	-30.9	-32.2	12.5	1.86e-04	0	43	0	935329792	23	4161
2026-01-15 09:36:21.84	2.30	26.25	-30.9	-32.1	12.4	2.27e-04	0	43	0	937426944	23	4155
2026-01-15 09:36:22.84	2.14	26.11	-30.9	-32.2	12.4	1.20e-04	0	43	0	939524096	23	4174
2026-01-15 09:36:23.85	1.97	25.97	-31.3	-33.4	11.5	2.77e-04	0	43	0	941621248	23	4590
2026-01-15 09:36:24.85	1.81	25.83	-31.2	-33.0	11.7	8.19e-04	0	43	0	943718400	23	4464
2026-01-15 09:36:25.86	1.65	25.69	-31.2	-33.2	11.7	6.72e-04	0	43	0	944766976	23	4516
2026-01-15 09:36:26.86	1.49	25.55	-31.2	-33.0	11.8	5.85e-04	0	43	0	946864128	23	4447
2026-01-15 09:36:27.86	1.33	25.42	-31.1	-32.8	11.9	6.07e-04	0	43	0	948961280	23	4392
2026-01-15 09:36:28.87	1.17	25.28	-31.0	-32.4	12.0	3.85e-04	0	43	0	951058432	23	4260
2026-01-15 09:36:29.87	1.02	25.14	-31.0	-32.6	12.0	1.91e-04	0	43	0	953155584	23	4320
2026-01-15 09:36:30.87	0.87	25.01	-31.1	-32.9	11.8	3.90e-04	0	44	0	954204160	23	4433
2026-01-15 09:36:31.88	0.71	24.87	-31.3	-33.4	11.4	6.24e-04	0	43	0	956301312	23	4611
2026-01-15 09:36:32.88	0.56	24.73	-31.6	-34.3	10.9	1.50e-03	0	43	0	958398464	23	4922
2026-01-15 09:36:33.88	0.41	24.60	-31.7	-34.9	10.4	3.51e-03	0	43	0	960495616	23	5162
2026-01-15 09:36:34.89	0.26	24.47	-31.7	-34.7	10.5	4.05e-03	0	43	0	962592768	23	5095
2026-01-15 09:36:35.89	0.12	24.33	-31.4	-33.8	11.2	1.70e-03	0	43	0	963641344	23	4737
2026-01-15 09:36:36.90	359.97	24.20	-31.4	-33.6	11.3	9.54e-04	0	43	0	965738496	23	4658
2026-01-15 09:36:37.90	359.83	24.07	-31.1	-32.7	12.0	5.05e-04	0	43	0	967835648	23	4358
2026-01-15 09:36:38.89	359.68	23.94	-31.1	-32.9	11.9	3.39e-04	0	43	0	969932800	23	4409
2026-01-15 09:36:39.89	359.54	23.80	-30.9	-32.2	12.4	2.39e-04	0	43	0	972029952	23	4167
2026-01-15 09:36:40.89	359.40	23.67	-31.0	-32.4	12.1	1.45e-04	0	43	0	973078528	23	4251
2026-01-15 09:36:41.89	359.26	23.54	-31.0	-32.4	12.2	2.01e-04	0	43	0	975175680	23	4237
2026-01-15 09:36:42.90	359.12	23.41	-30.9	-32.3	12.3	1.59e-04	0	43	0	977272832	23	4215
2026-01-15 09:36:43.90	358.99	23.28	-31.0	-32.6	12.0	3.45e-04	0	43	0	979369984	23	4319
2026-01-15 09:36:44.91	358.85	23.15	-31.0	-32.5	12.1	2.91e-04	0	43	0	981467136	23	4280
2026-01-15 09:36:45.91	358.71	23.02	-31.1	-32.7	11.9	3.87e-04	0	43	0	982515712	23	4360
2026-01-15 09:36:46.92	358.58	22.89	-30.9	-32.3	12.3	2.08e-04	0	43	0	984612864	23	4203
2026-01-15 09:36:47.92	358.45	22.77	-31.0	-32.4	12.1	1.98e-04	0	43	0	986710016	23	4255
2026-01-15 09:36:48.92	358.31	22.64	-31.0	-32.6	12.0	2.44e-04	0	43	0	988807168	23	4307
2026-01-15 09:36:49.93	358.18	22.51	-30.9	-32.4	12.1	3.17e-04	0	43	0	989855744	23	4243
2026-01-15 09:36:50.93	358.05	22.38	-31.0	-32.5	12.0	3.74e-04	0	43	0	991952896	23	4293
2026-01-15 09:36:51.93	357.93	22.26	-31.0	-32.4	12.1	2.88e-04	0	43	0	994050048	23	4266
2026-01-15 09:36:52.93	357.80	22.13	-30.8	-32.6	12.3	2.13e-04	0	43	0	996147200	22	4412
2026-01-15 09:36:53.93	357.67	22.01	-30.9	-32.9	12.2	1.74e-04	0	43	0	998244352	22	4493
2026-01-15 09:36:54.94	357.55	21.88	-30.6	-32.0	12.8	1.14e-04	0	43	0	999292928	22	4210
2026-01-15 09:36:55.94	357.42	21.76	-30.3	-31.6	13.3	1.75e-05	0	43	0	1001390080	21	4176
2026-01-15 09:36:56.95	357.30	21.63	-30.1	-31.0	13.7	1.29e-05	0	43	0	1003487232	21	3993
2026-01-15 09:36:57.95	357.18	21.51	-30.1	-31.0	13.6	8.30e-06	0	43	0	1005584384	21	4016
2026-01-15 09:36:58.94	357.06	21.39	-30.3	-31.7	13.2	1.37e-05	0	43	0	1007681536	21	4214
2026-01-15 09:36:59.95	356.94	21.27	-30.5	-32.2	12.9	4.11e-05	0	43	0	1008730112	21	4387
2026-01-15 09:37:00.95	356.82	21.15	-30.8	-33.0	12.4	1.14e-04	0	43	0	1010827264	21	4640
2026-01-15 09:37:01.95	356.70	21.02	-31.2	-33.8	11.5	5.26e-04	0	43	0	1012924416	22	4842
2026-01-15 09:37:02.95	356.58	20.90	-31.5	-34.3	10.7	1.89e-03	0	43	0	1015021568	23	4955
2026-01-15 09:37:03.95	356.47	20.78	-31.6	-34.6	10.5	4.32e-03	0	43	0	1017118720	23	5083
2026-01-15 09:37:04.95	356.35	20.66	-31.7	-35.1	10.1	6.54e-03	0	43	0	1018167296	23	5274
2026-01-15 09:37:05.95	356.24	20.54	-31.7	-34.9	10.2	6.49e-03	0	43	0	1020264448	23	5207
2026-01-15 09:37:06.95	356.12	20.43	-31.5	-34.3	10.7	4.11e-03	0	43	0	1022361600	23	4951
2026-01-15 09:37:07.95	356.01	20.31	-31.4	-34.0	10.9	2.36e-03	0	43	0	1024458752	23	4851
2026-01-15 09:37:08.95	355.90	20.19	-31.5	-34.1	10.9	1.81e-03	0	43	0	1026555904	23	4862
2026-01-15 09:37:09.95	355.79	20.07	-31.4	-34.0	10.9	2.46e-03	0	43	0	1027604480	23	4853
2026-01-15 09:37:10.95	355.68	19.95	-31.3	-33.4	11.4	1.35e-03	0	43	0	1029701632	23	4586
2026-01-15 09:37:11.95	355.57	19.84	-31.4	-33.8	11.1	1.03e-03	0	43	0	1031798784	23	4750
2026-01-15 09:37:12.95	355.46	19.72	-31.2	-33.1	11.6	9.84e-04	0	44	0	1033895936	23	4485
2026-01-15 09:37:13.94	355.36	19.61	-31.0	-32.7	11.8	4.59e-04	0	43	0	1034944512	23	4377
2026-01-15 09:37:14.95	355.25	19.49	-31.1	-32.9	11.7	4.94e-04	0	43	0	1037041664	23	4435
2026-01-15 09:37:15.95	355.14	19.38	-31.1	-32.8	11.7	5.02e-04	0	43	0	1039138816	23	4404
2026-01-15 09:37:16.95	355.04	19.26	-31.0	-32.5	12.0	5.15e-04	0	43	0	1041235968	23	4298
2026-01-15 09:37:17.95	354.93	19.15	-31.0	-32.7	11.9	4.84e-04	0	43	0	1043333120	23	4346
2026-01-15 09:37:18.95	354.83	19.03	-31.0	-32.5	11.9	4.26e-04	0	43	0	1044381696	23	4304
2026-01-15 09:37:19.96	354.73	18.92	-30.7	-32.3	12.5	2.62e-04	0	43	0	1046478848	22	4303
2026-01-15 09:37:20.97	354.62	18.80	-30.7	-32.3	12.4	1.19e-04	0	43	0	1048576000	22	4320
2026-01-15 09:37:21.97	354.52	18.69	-30.7	-32.2	12.5	9.84e-05	0	43	0	1050673152	22	4277
2026-01-15 09:37:22.98	354.42	18.58	-30.6	-32.1	12.6	1.10e-04	0	43	0	1052770304	22	4242
2026-01-15 09:37:23.98	354.32	18.47	-30.7	-32.1	12.6	1.20e-04	0	43	0	1053818880	22	4247
2026-01-15 09:37:24.98	354.22	18.36	-30.6	-32.0	12.6	8.62e-05	0	43	0	1055916032	22	4218
2026-01-15 09:37:25.99	354.13	18.24	-30.5	-31.7	12.8	6.71e-05	0	43	0	1058013184	22	4136
2026-01-15 09:37:26.99	354.03	18.13	-30.6	-31.9	12.7	7.85e-05	0	43	0	1060110336	22	4176
2026-01-15 09:37:28.00	353.93	18.02	-30.6	-31.9	12.7	8.31e-05	0	43	0	1062207488	22	4186
2026-01-15 09:37:29.00	353.84	17.91	-30.4	-31.6	12.9	7.78e-05	0	43	0	1063256064	22	4087
2026-01-15 09:37:30.00	353.74	17.80	-30.5	-31.7	12.7	5.26e-05	0	44	0	1065353216	22	4148
2026-01-15 09:37:31.00	353.65	17.70	-30.7	-32.2	12.4	1.27e-04	0	43	0	1067450368	22	4307
2026-01-15 09:37:32.00	353.55	17.59	-30.6	-31.9	12.7	8.39e-05	0	43	0	1069547520	22	4193
2026-01-15 09:37:33.00	353.46	17.48	-30.8	-32.4	12.3	1.05e-04	0	43	0	1071644672	22	4367
2026-01-15 09:37:34.01	353.37	17.37	-30.8	-32.5	12.2	1.81e-04	0	43	0	1072693248	22	4392
2026-01-15 09:37:35.01	353.28	17.26	-30.9	-32.8	12.0	3.03e-04	0	43	0	1074790400	22	4480
2026-01-15 09:37:36.02	353.19	17.16	-30.9	-32.9	11.9	4.73e-04	0	43	0	1076887552	22	4531
2026-01-15 09:37:37.02	353.10	17.05	-31.1	-33.6	11.4	7.73e-04	0	43	0	1078984704	22	4782
2026-01-15 09:37:38.02	353.01	16.94	-31.1	-33.5	11.5	8.04e-04	0	43	0	1080033280	22	4743
2026-01-15 09:37:39.02	352.92	16.84	-31.1	-33.5	11.5	7.05e-04	0	43	0	1082130432	22	4742
2026-01-15 09:37:40.02	352.83	16.73	-31.2	-33.9	11.2	1.17e-03	0	43	0	1084227584	22	4911
2026-01-15 09:37:41.02	352.74	16.63	-31.0	-33.3	11.7	9.05e-04	0	43	0	1086324736	22	4669
2026-01-15 09:37:42.03	352.65	16.52	-30.8	-32.6	12.1	3.91e-04	0	43	0	1088421888	22	4442
2026-01-15 09:37:43.03	352.57	16.42	-30.7	-32.2	12.3	2.33e-04	0	43	0	1089470464	22	4301
2026-01-15 09:37:44.04	352.48	16.31	-30.5	-31.6	12.8	9.76e-05	0	43	0	1091567616	22	4111
2026-01-15 09:37:45.04	352.40	16.21	-30.6	-32.1	12.5	1.21e-04	0	43	0	1093664768	22	4262
2026-01-15 09:37:46.04	352.31	16.11	-30.4	-31.4	12.9	6.48e-05	0	43	0	1095761920	22	4036
2026-01-15 09:37:47.04	352.23	16.00	-30.2	-31.5	13.1	2.28e-05	0	43	0	1097859072	21	4177
2026-01-15 09:37:48.04	352.15	15.90	-30.1	-31.1	13.4	2.13e-05	0	43	0	1098907648	21	4037
2026-01-15 09:37:49.04	352.06	15.80	-30.1	-31.2	13.3	1.75e-05	0	43	0	1101004800	21	4085
2026-01-15 09:37:50.05	351.98	15.70	-30.5	-32.2	12.7	8.77e-05	0	43	0	1103101952	21	4370
2026-01-15 09:37:51.05	351.90	15.60	-30.3	-31.7	13.0	3.43e-05	0	43	0	1105199104	21	4209
2026-01-15 09:37:52.06	351.82	15.50	-30.2	-31.4	13.2	2.89e-05	0	43	0	1107296256	21	4121
2026-01-15 09:37:53.06	351.74	15.39	-30.2	-31.3	13.2	1.52e-05	0	44	0	1108344832	21	4108
2026-01-15 09:37:54.06	351.66	15.29	-30.3	-31.6	13.0	2.67e-05	0	43	0	1110441984	21	4206
2026-01-15 09:37:55.06	351.58	15.20	-30.3	-31.8	12.9	5.11e-05	0	44	0	1112539136	21	4262
2026-01-15 09:37:56.06	351.50	15.10	-30.5	-32.3	12.6	6.17e-05	0	43	0	1114636288	21	4420
2026-01-15 09:37:57.07	351.42	15.00	-30.6	-32.7	12.3	1.03e-04	0	43	0	1116733440	21	4564
2026-01-15 09:37:58.07	351.34	14.90	-30.6	-32.6	12.3	1.53e-04	0	43	0	1117782016	21	4535
2026-01-15 09:37:59.07	351.27	14.80	-30.7	-32.9	12.2	2.69e-04	0	43	0	1119879168	21	4629
2026-01-15 09:38:00.08	351.19	14.70	-30.8	-33.3	11.9	2.70e-04	0	44	0	1121976320	21	4765
2026-01-15 09:38:01.08	351.11	14.60	-30.9	-33.5	11.7	5.68e-04	0	43	0	1124073472	21	4859
2026-01-15 09:38:02.08	351.04	14.51	-31.1	-33.5	11.4	7.84e-04	0	43	0	1125122048	22	4750
2026-01-15 09:38:03.08	350.96	14.41	-31.1	-33.5	11.3	1.22e-03	0	43	0	1127219200	22	4772
2026-01-15 09:38:04.09	350.89	14.31	-31.2	-33.8	11.2	1.34e-03	0	43	0	1129316352	22	4860
2026-01-15 09:38:05.09	350.81	14.21	-31.1	-33.5	11.3	1.39e-03	0	43	0	1131413504	22	4774
2026-01-15 09:38:06.09	350.74	14.12	-31.2	-34.0	11.1	1.34e-03	0	43	0	1133510656	22	4942
2026-01-15 09:38:07.10	350.67	14.02	-31.2	-33.9	11.0	2.05e-03	0	43	0	1134559232	22	4920
2026-01-15 09:38:08.10	350.59	13.93	-31.1	-33.7	11.2	1.29e-03	0	43	0	1136656384	22	4839
2026-01-15 09:38:09.10	350.52	13.83	-31.2	-34.0	10.9	1.45e-03	0	43	0	1138753536	22	4974
2026-01-15 09:38:10.10	350.45	13.74	-31.2	-34.1	10.9	1.79e-03	0	43	0	1140850688	22	4985
2026-01-15 09:38:11.11	350.38	13.64	-31.1	-33.6	11.2	1.12e-03	0	43	0	1142947840	22	4822
2026-01-15 09:38:12.11	350.31	13.55	-31.2	-33.9	11.0	1.66e-03	0	44	0	1143996416	22	4922
2026-01-15 09:38:13.11	350.24	13.45	-31.0	-33.5	11.2	1.66e-03	0	43	0	1146093568	22	4777
2026-01-15 09:38:14.11	350.17	13.36	-31.0	-33.5	11.2	1.42e-03	0	43	0	1148190720	22	4783
2026-01-15 09:38:15.12	350.10	13.27	-31.2	-34.2	10.7	2.41e-03	0	43	0	1150287872	22	5049
2026-01-15 09:38:16.12	350.03	13.17	-31.2	-34.0	10.8	2.50e-03	0	44	0	1152385024	22	4978
2026-01-15 09:38:17.12	349.96	13.08	-31.2	-33.9	10.9	2.08e-03	0	43	0	1153433600	22	4952
2026-01-15 09:38:18.12	349.90	12.99	-31.2	-34.1	10.9	2.32e-03	0	43	0	1155530752	22	5015
2026-01-15 09:38:19.12	349.83	12.90	-31.3	-34.4	10.6	3.44e-03	0	43	0	1157627904	22	5123
2026-01-15 09:38:20.12	349.76	12.81	-31.3	-34.3	10.6	2.79e-03	0	43	0	1159725056	22	5109
2026-01-15 09:38:21.12	349.70	12.71	-31.4	-34.6	10.3	3.02e-03	0	43	0	1161822208	22	5229
2026-01-15 09:38:22.12	349.63	12.62	-31.3	-34.4	10.4	5.05e-03	0	43	0	1162870784	22	5164
2026-01-15 09:38:23.13	349.56	12.53	-31.5	-35.0	10.1	4.91e-03	0	43	0	1164967936	22	5403
2026-01-15 09:38:24.12	349.50	12.44	-31.4	-34.8	10.2	6.09e-03	0	43	0	1167065088	22	5338
2026-01-15 09:38:25.13	349.43	12.35	-31.5	-35.0	10.0	6.42e-03	0	44	0	1169162240	22	5407
2026-01-15 09:38:26.14	349.37	12.26	-31.4	-34.7	10.2	5.78e-03	0	43	0	1170210816	22	5254
2026-01-15 09:38:27.14	349.31	12.17	-31.5	-34.5	10.0	7.06e-03	0	43	0	1172307968	23	5099
2026-01-15 09:38:28.15	349.24	12.08	-31.6	-34.8	9.8	9.02e-03	0	43	0	1174405120	23	5252
2026-01-15 09:38:29.15	349.18	11.99	-31.5	-34.6	10.0	6.94e-03	0	43	0	1176502272	23	5149
2026-01-15 09:38:30.16	349.12	11.90	-31.3	-33.9	10.5	5.38e-03	0	43	0	1178599424	23	4856
2026-01-15 09:38:31.16	349.05	11.82	-31.3	-33.9	10.4	5.03e-03	0	43	0	1179648000	23	4854
2026-01-15 09:38:32.16	348.99	11.73	-31.2	-33.6	10.6	3.29e-03	0	44	0	1181745152	23	4758
2026-01-15 09:38:33.17	348.93	11.64	-31.2	-33.7	10.6	3.27e-03	0	43	0	1183842304	23	4786
2026-01-15 09:38:34.16	348.87	11.55	-31.2	-33.6	10.5	3.52e-03	0	43	0	1185939456	23	4739
2026-01-15 09:38:35.17	348.81	11.46	-31.1	-33.4	10.8	2.58e-03	0	43	0	1188036608	23	4693
2026-01-15 09:38:36.18	348.75	11.38	-31.2	-33.7	10.5	3.27e-03	0	43	0	1189085184	23	4806
2026-01-15 09:38:37.17	348.69	11.29	-31.0	-33.0	11.1	2.54e-03	0	43	0	1191182336	23	4542
2026-01-15 09:38:38.17	348.63	11.20	-30.9	-32.7	11.3	1.35e-03	0	43	0	1193279488	23	4412
2026-01-15 09:38:39.17	348.57	11.12	-30.9	-32.6	11.3	1.08e-03	0	43	0	1195376640	23	4386
2026-01-15 09:38:40.17	348.51	11.03	-30.7	-32.7	11.6	8.42e-04	0	43	0	1197473792	22	4516
2026-01-15 09:38:41.17	348.45	10.95	-30.8	-32.9	11.4	9.19e-04	0	43	0	1198522368	22	4584
2026-01-15 09:38:42.17	348.39	10.86	-30.8	-32.8	11.5	1.01e-03	0	43	0	1200619520	22	4554
2026-01-15 09:38:43.17	348.34	10.78	-30.8	-32.9	11.4	8.05e-04	0	44	0	1202716672	22	4597
2026-01-15 09:38:44.17	348.28	10.69	-30.7	-32.7	11.6	8.20e-04	0	43	0	1204813824	22	4521
2026-01-15 09:38:45.18	348.22	10.61	-30.7	-32.7	11.6	6.93e-04	0	43	0	1206910976	22	4527
2026-01-15 09:38:46.18	348.17	10.52	-30.8	-32.9	11.5	7.77e-04	0	43	0	1207959552	22	4574
2026-01-15 09:38:47.18	348.11	10.44	-30.9	-33.2	11.3	9.40e-04	0	43	0	1210056704	22	4694
2026-01-15 09:38:48.18	348.05	10.36	-30.8	-32.9	11.4	1.27e-03	0	44	0	1212153856	22	4600
2026-01-15 09:38:49.19	348.00	10.27	-30.8	-33.1	11.3	1.05e-03	0	43	0	1214251008	22	4657
2026-01-15 09:38:50.19	347.94	10.19	-31.1	-34.0	10.6	1.71e-03	0	44	0	1216348160	22	4996
2026-01-15 09:38:51.20	347.89	10.10	-31.0	-33.6	10.9	2.30e-03	0	43	0	1217396736	22	4855
2026-01-15 09:38:52.19	347.83	10.02	-31.0	-33.7	10.8	2.29e-03	0	43	0	1219493888	22	4903
2026-01-15 09:38:53.19	347.78	9.94	-31.2	-34.3	10.4	4.66e-03	0	43	0	1221591040	22	5120
2026-01-15 09:38:54.20	347.72	9.86	-31.3	-34.5	10.2	6.18e-03	0	43	0	1223688192	22	5212
2026-01-15 09:38:55.20	347.67	9.78	-31.2	-34.4	10.3	5.27e-03	0	43	0	1224736768	22	5165
2026-01-15 09:38:56.20	347.62	9.69	-31.5	-35.2	9.6	9.49e-03	0	43	0	1226833920	22	5559
2026-01-15 09:38:57.20	347.56	9.61	-31.4	-34.4	9.8	1.00e-02	0	43	0	1228931072	23	5093
2026-01-15 09:38:58.21	347.51	9.53	-31.4	-34.4	10.0	8.99e-03	0	43	0	1231028224	23	5099
2026-01-15 09:38:59.21	347.46	9.45	-31.4	-34.5	9.8	1.04e-02	0	43	0	1233125376	23	5145
2026-01-15 09:39:00.21	347.41	9.37	-31.5	-34.9	9.5	1.22e-02	0	43	0	1234173952	23	5332
2026-01-15 09:39:01.21	347.36	9.29	-31.5	-34.8	9.5	1.44e-02	0	43	0	1236271104	23	5292
2026-01-15 09:39:02.22	347.30	9.21	-31.5	-34.7	9.6	1.27e-02	0	44	0	1238368256	23	5239
2026-01-15 09:39:03.21	347.25	9.13	-31.6	-35.1	9.2	1.90e-02	0	43	0	1240465408	23	5416
2026-01-15 09:39:04.22	347.20	9.05	-31.5	-34.9	9.4	1.53e-02	0	43	0	1242562560	23	5339
2026-01-15 09:39:05.22	347.15	8.97	-31.5	-34.8	9.5	1.49e-02	0	43	0	1243611136	23	5267
2026-01-15 09:39:06.23	347.10	8.89	-31.5	-34.8	9.6	1.73e-02	0	43	0	1245708288	23	5279
2026-01-15 09:39:07.23	347.05	8.81	-31.5	-35.0	9.3	1.85e-02	0	43	0	1247805440	23	5362
2026-01-15 09:39:08.23	347.00	8.73	-31.5	-34.8	9.5	1.68e-02	0	43	0	1249902592	23	5310
2026-01-15 09:39:09.24	346.95	8.65	-31.4	-34.6	9.7	1.12e-02	0	43	0	1251999744	23	5194
2026-01-15 09:39:10.23	346.90	8.57	-31.5	-34.9	9.4	1.27e-02	0	43	0	1253048320	23	5325
2026-01-15 09:39:11.24	346.85	8.49	-31.4	-34.8	9.5	1.47e-02	0	43	0	1255145472	23	5276
2026-01-15 09:39:12.24	346.81	8.42	-31.4	-34.4	9.8	1.12e-02	0	43	0	1257242624	23	5120
2026-01-15 09:39:13.24	346.76	8.34	-31.5	-34.8	9.4	1.48e-02	0	43	0	1259339776	23	5299
2026-01-15 09:39:14.24	346.71	8.26	-31.4	-34.4	9.7	1.46e-02	0	43	0	1260388352	23	5125
2026-01-15 09:39:15.24	346.66	8.18	-31.4	-34.7	9.5	1.15e-02	0	43	0	1262485504	23	5244
2026-01-15 09:39:16.24	346.62	8.11	-31.4	-34.5	9.7	1.10e-02	0	43	0	1264582656	23	5150
2026-01-15 09:39:17.24	346.57	8.03	-31.3	-34.3	9.8	1.07e-02	0	43	0	1266679808	23	5076
2026-01-15 09:39:18.25	346.52	7.95	-31.4	-34.5	9.6	1.04e-02	0	43	0	1268776960	23	5179
2026-01-15 09:39:19.25	346.47	7.88	-31.4	-34.6	9.5	1.40e-02	0	43	0	1269825536	23	5233
2026-01-15 09:39:20.26	346.43	7.80	-31.4	-34.6	9.5	1.45e-02	0	43	0	1271922688	23	5229
2026-01-15 09:39:21.26	346.38	7.72	-31.4	-34.9	9.3	1.88e-02	0	43	0	1274019840	23	5364
2026-01-15 09:39:22.26	346.34	7.65	-31.5	-34.9	9.3	1.77e-02	0	43	0	1276116992	23	5355
2026-01-15 09:39:23.26	346.29	7.57	-31.4	-34.7	9.4	1.67e-02	0	43	0	1278214144	23	5254
2026-01-15 09:39:24.27	346.24	7.49	-31.4	-34.8	9.3	1.94e-02	0	43	0	1279262720	23	5324
2026-01-15 09:39:25.27	346.20	7.42	-31.5	-35.2	9.0	2.25e-02	0	43	0	1281359872	23	5493
2026-01-15 09:39:26.28	346.15	7.34	-31.5	-35.0	9.1	2.32e-02	0	43	0	1283457024	23	5424
2026-01-15 09:39:27.29	346.11	7.27	-31.5	-35.3	8.9	2.46e-02	0	43	0	1285554176	23	5575
2026-01-15 09:39:28.29	346.07	7.19	-31.7	-36.0	8.3	4.44e-02	0	43	0	1287651328	23	5936
2026-01-15 09:39:29.29	346.02	7.12	-31.5	-35.4	9.0	2.93e-02	0	43	0	1288699904	23	5581
