passes_logs/2026/01/15/R2M6_AANII_01/R2M6_AANII_01__20260115_224637_NOAA_21_JPSS-2_rec.log

#Pass ID: 20260115_224637_NOAA 21 (JPSS-2)
#Satellite: NOAA 21 (JPSS-2)
#Configuration: NOAA 21
#almurnet v.1.7.20240730
#Start time: 2026-01-15 22:46:39

#Version: 2.2.20231116
#Station: R2M6_AANII_01
#Location: 30.233357 lon 59.946436 lat
#TLE: 1 54234U 22150A   26015.43562254  .00000028  00000+0  34201-4 0  9996
#TLE: 2 54234  98.7498 316.3301 0000635 288.4972  71.6135 14.19534768164873

#Time	Az	El	Level	Level2	SNR	BER	BlckErr	Temp	State	Recorded	gain1	gain2
2026-01-15 22:46:39.07	29.52	7.07	-30.4	-35.3	4.7	1.36e+00	0	41	0	0	20	6321
2026-01-15 22:46:40.08	29.61	7.14	-30.7	-35.5	4.6	1.39e+00	0	41	104	0	21	6314
2026-01-15 22:46:41.08	29.70	7.20	-30.8	-35.3	8.5	4.08e-02	0	41	0	0	21	6018
2026-01-15 22:46:42.08	29.79	7.27	-31.0	-35.4	8.0	5.64e-02	0	41	0	3145728	22	5972
2026-01-15 22:46:43.08	29.89	7.33	-30.7	-34.9	8.7	4.06e-02	0	41	0	6291456	21	5855
2026-01-15 22:46:44.07	29.98	7.39	-30.5	-34.7	9.2	2.19e-02	0	41	0	9437184	20	5876
2026-01-15 22:46:45.07	30.07	7.46	-30.4	-34.6	9.4	1.60e-02	0	41	0	11534336	20	5785
2026-01-15 22:46:46.07	30.17	7.52	-30.6	-34.6	9.0	2.13e-02	0	41	0	14680064	21	5688
2026-01-15 22:46:47.07	30.26	7.58	-30.2	-33.7	10.0	9.23e-03	0	41	0	17825792	20	5389
2026-01-15 22:46:48.07	30.36	7.65	-30.0	-33.3	10.3	4.91e-03	0	41	0	20971520	20	5225
2026-01-15 22:46:49.07	30.45	7.71	-30.2	-33.7	10.0	8.07e-03	0	41	0	24117248	20	5411
2026-01-15 22:46:50.07	30.55	7.78	-29.9	-33.4	10.6	4.73e-03	0	41	0	27262976	19	5400
2026-01-15 22:46:51.06	30.64	7.84	-29.6	-32.5	11.3	1.69e-03	0	42	0	30408704	19	5038
2026-01-15 22:46:52.07	30.74	7.91	-29.5	-32.2	11.5	1.08e-03	0	42	0	33554432	19	4943
2026-01-15 22:46:53.07	30.84	7.97	-29.2	-31.4	12.0	1.42e-03	0	41	0	36700160	19	4650
2026-01-15 22:46:54.06	30.93	8.04	-29.0	-30.9	12.4	1.37e-04	0	42	0	39845888	19	4490
2026-01-15 22:46:55.06	31.03	8.10	-29.2	-31.8	12.2	2.47e-04	0	42	0	42991616	18	4885
2026-01-15 22:46:56.06	31.13	8.17	-29.1	-31.7	12.2	7.57e-04	0	42	0	46137344	18	4842
2026-01-15 22:46:57.07	31.23	8.23	-29.2	-32.1	12.0	2.61e-04	0	42	0	49283072	18	4973
2026-01-15 22:46:58.07	31.33	8.30	-29.1	-31.7	12.3	2.02e-03	0	42	0	52428800	18	4843
2026-01-15 22:46:59.08	31.43	8.36	-28.8	-31.5	12.7	2.26e-03	0	42	0	55574528	17	4899
2026-01-15 22:47:00.07	31.52	8.43	-29.0	-31.8	12.5	7.93e-05	0	42	0	58720256	17	4994
2026-01-15 22:47:01.07	31.62	8.49	-29.3	-32.3	11.9	1.50e-03	0	42	0	61865984	18	5041
2026-01-15 22:47:02.07	31.73	8.56	-29.1	-31.6	12.4	2.47e-03	0	42	0	65011712	18	4803
2026-01-15 22:47:03.07	31.83	8.62	-28.7	-30.7	12.9	7.09e-05	0	42	0	68157440	18	4535
2026-01-15 22:47:04.07	31.93	8.69	-28.7	-31.2	12.8	2.40e-03	0	42	0	71303168	17	4798
2026-01-15 22:47:05.07	32.03	8.76	-28.8	-31.5	12.7	2.17e-03	0	42	0	74448896	17	4879
2026-01-15 22:47:06.07	32.13	8.82	-29.0	-31.5	12.4	8.92e-05	0	42	0	77594624	18	4763
2026-01-15 22:47:07.08	32.24	8.89	-28.8	-31.4	12.8	1.78e-03	0	42	0	80740352	17	4850
2026-01-15 22:47:08.08	32.34	8.95	-28.8	-31.3	12.8	1.86e-03	0	42	0	83886080	17	4829
2026-01-15 22:47:09.08	32.44	9.02	-29.1	-31.5	12.4	1.04e-04	0	42	0	87031808	18	4786
2026-01-15 22:47:10.08	32.55	9.09	-28.9	-31.6	12.7	1.51e-03	0	42	0	90177536	17	4907
2026-01-15 22:47:11.08	32.65	9.15	-28.9	-31.6	12.7	1.17e-03	0	42	0	93323264	17	4910
2026-01-15 22:47:12.09	32.76	9.22	-28.9	-31.5	12.7	5.64e-05	0	42	0	96468992	17	4882
2026-01-15 22:47:13.09	32.86	9.29	-29.2	-31.7	12.3	1.25e-03	0	42	0	99614720	18	4850
2026-01-15 22:47:14.10	32.97	9.36	-29.3	-32.0	12.1	1.39e-03	0	42	0	102760448	18	4942
2026-01-15 22:47:15.10	33.08	9.42	-29.2	-31.9	12.2	1.86e-04	0	42	0	105906176	18	4921
2026-01-15 22:47:16.10	33.18	9.49	-28.8	-31.2	12.9	7.04e-04	0	42	0	109051904	17	4788
2026-01-15 22:47:17.11	33.29	9.56	-28.7	-31.1	13.0	4.65e-05	0	42	0	112197632	17	4761
2026-01-15 22:47:18.11	33.40	9.62	-28.7	-31.0	13.1	3.50e-05	0	42	0	115343360	17	4727
2026-01-15 22:47:19.12	33.51	9.69	-28.7	-31.0	13.1	8.96e-04	0	42	0	118489088	17	4715
2026-01-15 22:47:20.12	33.62	9.76	-28.6	-30.9	13.2	7.40e-04	0	42	0	121634816	17	4695
2026-01-15 22:47:21.12	33.73	9.83	-28.9	-31.6	12.8	5.26e-05	0	42	0	124780544	17	4904
2026-01-15 22:47:22.12	33.84	9.89	-28.7	-31.2	13.0	3.96e-05	0	42	0	127926272	17	4777
2026-01-15 22:47:23.12	33.95	9.96	-28.5	-30.7	13.3	5.68e-04	0	42	0	131072000	17	4623
2026-01-15 22:47:24.12	34.06	10.03	-28.3	-30.0	13.7	3.00e-06	0	42	0	134217728	17	4418
2026-01-15 22:47:25.12	34.17	10.10	-28.3	-30.7	13.6	4.32e-04	0	42	0	137363456	16	4730
2026-01-15 22:47:26.13	34.28	10.17	-28.5	-30.6	13.4	6.10e-06	0	42	0	140509184	17	4581
2026-01-15 22:47:27.12	34.39	10.23	-28.3	-30.1	13.7	5.30e-06	0	42	0	143654912	17	4433
2026-01-15 22:47:28.12	34.51	10.30	-28.6	-30.9	13.2	2.05e-05	0	42	0	146800640	17	4674
2026-01-15 22:47:29.12	34.62	10.37	-28.3	-30.7	13.6	6.61e-04	0	42	0	149946368	16	4726
2026-01-15 22:47:30.12	34.73	10.44	-28.5	-30.7	13.4	2.05e-05	0	42	0	153092096	17	4606
2026-01-15 22:47:31.12	34.85	10.51	-28.8	-31.3	13.0	5.79e-05	0	42	0	156237824	17	4810
2026-01-15 22:47:32.12	34.96	10.58	-28.5	-30.7	13.4	2.67e-05	0	42	0	159383552	17	4609
2026-01-15 22:47:33.12	35.08	10.64	-28.4	-30.3	13.6	6.80e-06	0	42	0	162529280	17	4480
2026-01-15 22:47:34.11	35.19	10.71	-28.2	-29.9	13.8	6.27e-04	0	43	0	165675008	17	4379
2026-01-15 22:47:35.11	35.31	10.78	-28.2	-30.3	13.9	1.22e-05	0	43	0	168820736	16	4609
2026-01-15 22:47:36.11	35.42	10.85	-28.2	-30.3	13.9	7.00e-07	0	42	0	171966464	16	4587
2026-01-15 22:47:37.11	35.54	10.92	-28.2	-30.4	13.9	6.10e-06	0	43	0	175112192	16	4617
2026-01-15 22:47:38.11	35.66	10.99	-28.0	-29.8	14.2	2.20e-06	0	43	0	178257920	16	4458
2026-01-15 22:47:39.11	35.78	11.06	-27.9	-29.7	14.2	3.00e-06	0	42	0	181403648	16	4431
2026-01-15 22:47:40.11	35.90	11.13	-28.1	-30.1	14.0	1.50e-06	0	43	0	183500800	16	4545
2026-01-15 22:47:41.10	36.01	11.19	-27.8	-29.5	14.4	0.00e+00	0	43	0	186646528	16	4368
2026-01-15 22:47:42.10	36.13	11.26	-27.9	-29.5	14.4	0.00e+00	0	43	0	189792256	16	4373
2026-01-15 22:47:43.11	36.26	11.33	-28.0	-29.8	14.2	2.20e-06	0	42	0	192937984	16	4462
2026-01-15 22:47:44.11	36.38	11.40	-27.9	-29.7	14.3	7.00e-07	0	43	0	196083712	16	4427
2026-01-15 22:47:45.11	36.50	11.47	-28.0	-29.9	14.2	2.20e-06	0	42	0	199229440	16	4482
2026-01-15 22:47:46.12	36.62	11.54	-28.1	-30.1	14.1	1.50e-06	0	43	0	202375168	16	4532
2026-01-15 22:47:47.12	36.75	11.61	-28.0	-30.0	14.2	3.00e-06	0	42	0	205520896	16	4506
2026-01-15 22:47:48.12	36.87	11.68	-28.3	-30.6	13.7	1.06e-05	0	43	0	208666624	16	4706
2026-01-15 22:47:49.12	36.99	11.75	-28.0	-29.9	14.2	1.50e-06	0	43	0	211812352	16	4495
2026-01-15 22:47:50.12	37.12	11.82	-28.0	-29.8	14.4	7.00e-07	0	43	0	214958080	16	4451
2026-01-15 22:47:51.12	37.24	11.89	-28.0	-29.8	14.4	2.20e-06	0	43	0	218103808	16	4439
2026-01-15 22:47:52.13	37.37	11.97	-28.0	-29.8	14.4	7.00e-07	0	43	0	221249536	16	4431
2026-01-15 22:47:53.12	37.49	12.04	-28.0	-29.8	14.3	7.00e-07	0	43	0	224395264	16	4445
2026-01-15 22:47:54.12	37.62	12.11	-28.0	-29.8	14.4	7.00e-07	0	43	0	227540992	16	4427
2026-01-15 22:47:55.13	37.75	12.18	-27.9	-29.7	14.4	0.00e+00	0	43	0	230686720	16	4403
2026-01-15 22:47:56.13	37.88	12.25	-28.0	-29.8	14.4	0.00e+00	0	43	0	233832448	16	4446
2026-01-15 22:47:57.13	38.01	12.32	-28.1	-30.2	14.1	1.50e-06	0	43	0	236978176	16	4545
2026-01-15 22:47:58.14	38.14	12.39	-28.0	-29.9	14.3	0.00e+00	0	43	0	240123904	16	4469
2026-01-15 22:47:59.13	38.27	12.46	-28.0	-29.8	14.4	0.00e+00	0	43	0	243269632	16	4433
2026-01-15 22:48:00.13	38.40	12.53	-28.0	-29.8	14.4	0.00e+00	0	43	0	246415360	16	4441
2026-01-15 22:48:01.13	38.53	12.60	-28.0	-29.8	14.4	7.00e-07	0	43	0	249561088	16	4431
2026-01-15 22:48:02.14	38.66	12.67	-28.0	-29.7	14.4	7.00e-07	0	43	0	252706816	16	4416
2026-01-15 22:48:03.15	38.79	12.75	-27.9	-29.7	14.4	2.20e-06	0	43	0	255852544	16	4405
2026-01-15 22:48:04.14	38.93	12.82	-27.8	-29.4	14.7	7.00e-07	0	43	0	258998272	16	4311
2026-01-15 22:48:05.14	39.06	12.89	-27.9	-29.6	14.5	1.50e-06	0	43	0	262144000	16	4379
2026-01-15 22:48:06.14	39.19	12.96	-27.7	-29.2	14.7	0.00e+00	0	43	0	265289728	16	4263
2026-01-15 22:48:07.14	39.33	13.03	-27.5	-28.6	15.1	0.00e+00	0	43	0	268435456	16	4110
2026-01-15 22:48:08.14	39.46	13.10	-27.3	-28.8	15.1	0.00e+00	0	43	0	271581184	15	4278
2026-01-15 22:48:09.14	39.60	13.17	-27.5	-29.2	14.9	0.00e+00	0	43	0	274726912	15	4375
2026-01-15 22:48:10.14	39.74	13.24	-27.4	-29.0	15.0	7.00e-07	0	43	0	277872640	15	4312
2026-01-15 22:48:11.13	39.87	13.32	-27.4	-29.0	15.0	0.00e+00	0	43	0	281018368	15	4309
2026-01-15 22:48:12.13	40.01	13.39	-27.5	-29.1	14.9	0.00e+00	0	43	0	284164096	15	4363
2026-01-15 22:48:13.13	40.15	13.46	-27.5	-29.1	14.9	0.00e+00	0	43	0	287309824	15	4360
2026-01-15 22:48:14.14	40.29	13.53	-27.5	-29.3	14.9	0.00e+00	0	43	0	290455552	15	4403
2026-01-15 22:48:15.14	40.43	13.60	-27.5	-29.2	14.9	0.00e+00	0	43	0	293601280	15	4369
2026-01-15 22:48:16.14	40.57	13.68	-27.5	-29.2	14.9	7.00e-07	0	43	0	296747008	15	4383
2026-01-15 22:48:17.14	40.71	13.75	-27.5	-29.3	14.9	0.00e+00	0	43	0	299892736	15	4410
2026-01-15 22:48:18.15	40.85	13.82	-27.5	-29.2	14.9	1.50e-06	0	43	0	303038464	15	4389
2026-01-15 22:48:19.15	41.00	13.89	-27.6	-29.4	14.9	0.00e+00	0	43	0	306184192	15	4421
2026-01-15 22:48:20.15	41.14	13.97	-27.5	-29.2	15.0	7.00e-07	0	43	0	309329920	15	4364
2026-01-15 22:48:21.15	41.28	14.04	-27.6	-29.3	14.9	0.00e+00	0	43	0	312475648	15	4403
2026-01-15 22:48:22.16	41.43	14.11	-27.5	-29.1	15.0	0.00e+00	0	43	0	315621376	15	4356
2026-01-15 22:48:23.15	41.57	14.18	-27.6	-29.4	14.8	0.00e+00	0	43	0	318767104	15	4436
2026-01-15 22:48:24.16	41.72	14.26	-27.5	-29.1	15.0	7.00e-07	0	43	0	321912832	15	4339
2026-01-15 22:48:25.15	41.87	14.33	-27.5	-29.1	15.0	0.00e+00	0	43	0	325058560	15	4359
2026-01-15 22:48:26.15	42.01	14.40	-27.5	-29.3	14.9	0.00e+00	0	43	0	328204288	15	4395
2026-01-15 22:48:27.15	42.16	14.47	-27.5	-29.3	14.9	0.00e+00	0	43	0	331350016	15	4391
2026-01-15 22:48:28.15	42.31	14.55	-27.7	-29.5	14.8	7.00e-07	0	43	0	334495744	15	4474
2026-01-15 22:48:29.15	42.46	14.62	-27.5	-29.3	14.9	0.00e+00	0	43	0	337641472	15	4399
2026-01-15 22:48:30.15	42.61	14.69	-27.6	-29.4	14.9	0.00e+00	0	43	0	340787200	15	4418
2026-01-15 22:48:31.15	42.76	14.76	-27.6	-29.3	14.9	0.00e+00	0	43	0	343932928	15	4408
2026-01-15 22:48:32.15	42.91	14.84	-27.7	-29.6	14.8	7.00e-07	0	43	0	347078656	15	4476
2026-01-15 22:48:33.15	43.06	14.91	-27.8	-29.8	14.6	0.00e+00	0	43	0	350224384	15	4561
2026-01-15 22:48:34.16	43.22	14.98	-27.7	-29.6	14.8	0.00e+00	0	43	0	353370112	15	4490
2026-01-15 22:48:35.15	43.37	15.05	-27.7	-29.6	14.8	7.00e-07	0	43	0	356515840	15	4496
2026-01-15 22:48:36.16	43.53	15.13	-27.7	-29.6	14.8	0.00e+00	0	43	0	359661568	15	4500
2026-01-15 22:48:37.16	43.68	15.20	-27.6	-29.5	14.9	0.00e+00	0	43	0	362807296	15	4448
2026-01-15 22:48:38.16	43.84	15.27	-27.5	-29.3	14.9	0.00e+00	0	43	0	364904448	15	4390
2026-01-15 22:48:39.15	43.99	15.35	-27.5	-29.1	15.1	0.00e+00	0	43	0	368050176	15	4329
2026-01-15 22:48:40.15	44.15	15.42	-27.5	-29.6	15.1	1.50e-06	0	43	0	371195904	14	4592
2026-01-15 22:48:41.15	44.31	15.49	-27.4	-29.5	15.1	0.00e+00	0	43	0	374341632	14	4566
2026-01-15 22:48:42.15	44.47	15.57	-27.4	-29.4	15.2	0.00e+00	0	43	0	377487360	14	4541
2026-01-15 22:48:43.15	44.63	15.64	-27.5	-29.2	15.0	0.00e+00	0	43	0	380633088	15	4382
2026-01-15 22:48:44.15	44.79	15.71	-27.4	-29.0	15.1	0.00e+00	0	43	0	383778816	15	4328
2026-01-15 22:48:45.15	44.95	15.78	-27.5	-29.1	15.0	0.00e+00	0	43	0	386924544	15	4351
2026-01-15 22:48:46.16	45.11	15.86	-27.6	-29.5	14.9	7.00e-07	0	43	0	390070272	15	4451
2026-01-15 22:48:47.16	45.27	15.93	-27.6	-29.5	14.9	0.00e+00	0	43	0	393216000	15	4444
2026-01-15 22:48:48.16	45.44	16.01	-27.8	-29.8	14.7	0.00e+00	0	43	0	396361728	15	4542
2026-01-15 22:48:49.16	45.60	16.08	-27.7	-29.6	14.8	0.00e+00	0	43	0	399507456	15	4502
2026-01-15 22:48:50.16	45.77	16.15	-27.7	-29.7	14.8	0.00e+00	0	43	0	402653184	15	4511
2026-01-15 22:48:51.17	45.94	16.23	-27.8	-29.9	14.6	7.00e-07	0	43	0	405798912	15	4584
2026-01-15 22:48:52.17	46.10	16.30	-27.9	-30.1	14.5	0.00e+00	0	43	0	408944640	15	4641
2026-01-15 22:48:53.17	46.27	16.37	-27.6	-29.3	15.0	0.00e+00	0	43	0	412090368	15	4394
2026-01-15 22:48:54.17	46.44	16.44	-27.5	-29.2	15.1	0.00e+00	0	43	0	415236096	15	4350
2026-01-15 22:48:55.16	46.61	16.52	-27.4	-29.0	15.2	0.00e+00	0	43	0	418381824	15	4297
2026-01-15 22:48:56.17	46.78	16.59	-27.6	-29.3	15.0	0.00e+00	0	43	0	421527552	15	4405
2026-01-15 22:48:57.17	46.95	16.66	-27.5	-29.3	15.1	0.00e+00	0	43	0	424673280	15	4382
2026-01-15 22:48:58.18	47.12	16.74	-27.8	-29.7	14.8	0.00e+00	0	43	0	427819008	15	4517
2026-01-15 22:48:59.18	47.29	16.81	-27.6	-29.4	15.0	0.00e+00	0	43	0	430964736	15	4415
2026-01-15 22:49:00.18	47.47	16.88	-27.5	-29.1	15.1	0.00e+00	0	43	0	434110464	15	4352
2026-01-15 22:49:01.19	47.64	16.96	-27.4	-29.0	15.2	6.62e-04	0	43	0	437256192	15	4303
2026-01-15 22:49:02.19	47.82	17.03	-27.4	-28.9	15.3	0.00e+00	0	43	0	440401920	15	4278
2026-01-15 22:49:03.19	47.99	17.10	-27.6	-29.3	15.1	0.00e+00	0	43	0	443547648	15	4389
2026-01-15 22:49:04.19	48.17	17.18	-27.3	-28.7	15.4	0.00e+00	0	43	0	446693376	15	4210
2026-01-15 22:49:05.20	48.35	17.25	-27.2	-28.5	15.5	0.00e+00	0	43	0	449839104	15	4177
2026-01-15 22:49:06.20	48.53	17.32	-27.2	-28.4	15.6	1.01e-04	0	43	0	452984832	15	4148
2026-01-15 22:49:07.21	48.71	17.40	-27.1	-28.3	15.6	1.15e-04	0	43	0	456130560	15	4120
2026-01-15 22:49:08.21	48.89	17.47	-27.2	-28.4	15.5	0.00e+00	0	43	0	459276288	15	4154
2026-01-15 22:49:09.21	49.07	17.54	-27.2	-28.4	15.5	0.00e+00	0	43	0	462422016	15	4154
2026-01-15 22:49:10.21	49.25	17.61	-27.3	-28.7	15.4	0.00e+00	0	43	0	465567744	15	4213
2026-01-15 22:49:11.22	49.43	17.69	-27.3	-28.7	15.4	0.00e+00	0	43	0	468713472	15	4212
2026-01-15 22:49:12.22	49.62	17.76	-27.2	-28.5	15.5	1.29e-04	0	43	0	471859200	15	4173
2026-01-15 22:49:13.23	49.80	17.83	-27.2	-28.5	15.5	8.92e-05	0	43	0	475004928	15	4166
2026-01-15 22:49:14.24	49.99	17.91	-27.3	-28.7	15.4	0.00e+00	0	43	0	478150656	15	4222
2026-01-15 22:49:15.24	50.17	17.98	-27.2	-28.3	15.6	4.80e-05	0	43	0	481296384	15	4123
2026-01-15 22:49:16.24	50.36	18.05	-27.2	-28.4	15.6	3.42e-04	0	43	0	484442112	15	4139
2026-01-15 22:49:17.25	50.55	18.12	-27.1	-28.2	15.7	0.00e+00	0	43	0	487587840	15	4098
2026-01-15 22:49:18.25	50.74	18.19	-27.0	-28.5	15.8	6.81e-04	0	43	0	490733568	14	4278
2026-01-15 22:49:19.25	50.93	18.27	-27.1	-28.7	15.7	0.00e+00	0	43	0	493879296	14	4342
2026-01-15 22:49:20.25	51.12	18.34	-27.2	-28.9	15.6	0.00e+00	0	43	0	497025024	14	4375
2026-01-15 22:49:21.26	51.31	18.41	-27.3	-29.2	15.5	1.20e-03	0	43	0	500170752	14	4469
2026-01-15 22:49:22.26	51.50	18.48	-27.5	-29.0	15.2	1.10e-03	0	43	0	503316480	15	4321
2026-01-15 22:49:23.26	51.70	18.55	-27.4	-28.8	15.3	0.00e+00	0	43	0	506462208	15	4253
2026-01-15 22:49:24.27	51.89	18.63	-27.4	-29.3	15.3	1.18e-03	0	43	0	509607936	14	4511
2026-01-15 22:49:25.28	52.09	18.70	-27.4	-29.3	15.4	0.00e+00	0	43	0	512753664	14	4506
2026-01-15 22:49:26.28	52.28	18.77	-27.4	-29.4	15.3	0.00e+00	0	43	0	515899392	14	4529
2026-01-15 22:49:27.28	52.48	18.84	-27.4	-29.4	15.4	2.17e-03	0	43	0	519045120	14	4522
2026-01-15 22:49:28.28	52.68	18.91	-27.3	-29.3	15.4	2.06e-03	0	43	0	522190848	14	4492
2026-01-15 22:49:29.28	52.87	18.98	-27.4	-29.3	15.4	0.00e+00	0	43	0	525336576	14	4501
2026-01-15 22:49:30.28	53.07	19.05	-27.3	-29.1	15.5	0.00e+00	0	43	0	528482304	14	4432
2026-01-15 22:49:31.29	53.28	19.12	-27.3	-29.2	15.4	9.66e-04	0	43	0	531628032	14	4471
2026-01-15 22:49:32.29	53.48	19.20	-27.4	-29.3	15.4	0.00e+00	0	43	0	534773760	14	4502
2026-01-15 22:49:33.28	53.68	19.26	-27.5	-29.5	15.3	1.63e-04	0	43	0	537919488	14	4568
2026-01-15 22:49:34.29	53.88	19.34	-27.4	-29.4	15.3	4.50e-05	0	43	0	541065216	14	4540
2026-01-15 22:49:35.28	54.08	19.40	-27.5	-29.1	15.2	0.00e+00	0	43	0	544210944	15	4337
2026-01-15 22:49:36.28	54.29	19.47	-27.5	-29.2	15.2	7.00e-07	0	43	0	547356672	15	4372
2026-01-15 22:49:37.29	54.49	19.55	-27.6	-29.4	15.0	2.84e-04	0	43	0	550502400	15	4426
2026-01-15 22:49:38.29	54.70	19.61	-27.6	-29.4	15.0	0.00e+00	0	43	0	553648128	15	4433
2026-01-15 22:49:39.30	54.91	19.68	-27.8	-29.8	14.8	0.00e+00	0	43	0	556793856	15	4539
2026-01-15 22:49:40.29	55.12	19.75	-27.6	-29.4	15.1	7.00e-07	0	43	0	559939584	15	4419
2026-01-15 22:49:41.30	55.33	19.82	-27.5	-29.1	15.2	0.00e+00	0	43	0	563085312	15	4321
2026-01-15 22:49:42.31	55.54	19.89	-27.5	-29.2	15.1	0.00e+00	0	43	0	566231040	15	4379
2026-01-15 22:49:43.32	55.75	19.96	-27.6	-29.3	15.1	7.00e-07	0	43	0	569376768	15	4390
2026-01-15 22:49:44.31	55.96	20.03	-27.4	-28.9	15.3	0.00e+00	0	43	0	572522496	15	4279
2026-01-15 22:49:45.31	56.18	20.10	-27.5	-29.0	15.3	0.00e+00	0	43	0	575668224	15	4317
2026-01-15 22:49:46.31	56.39	20.17	-27.4	-28.9	15.3	0.00e+00	0	43	0	578813952	15	4279
2026-01-15 22:49:47.31	56.60	20.23	-27.5	-29.0	15.3	0.00e+00	0	43	0	581959680	15	4308
2026-01-15 22:49:48.31	56.82	20.30	-27.5	-29.1	15.2	7.24e-05	0	43	0	585105408	15	4340
2026-01-15 22:49:49.30	57.03	20.37	-27.4	-28.8	15.4	0.00e+00	0	43	0	588251136	15	4256
2026-01-15 22:49:50.30	57.25	20.44	-27.4	-28.9	15.3	0.00e+00	0	43	0	591396864	15	4287
2026-01-15 22:49:51.30	57.47	20.50	-27.5	-29.2	15.2	0.00e+00	0	43	0	593494016	15	4353
2026-01-15 22:49:52.30	57.69	20.57	-27.5	-29.1	15.2	0.00e+00	0	43	0	596639744	15	4344
2026-01-15 22:49:53.30	57.91	20.64	-27.5	-29.1	15.3	0.00e+00	0	43	0	599785472	15	4339
2026-01-15 22:49:54.30	58.13	20.70	-27.5	-29.2	15.2	0.00e+00	0	43	0	602931200	15	4371
2026-01-15 22:49:55.29	58.35	20.77	-27.5	-29.1	15.2	0.00e+00	0	43	0	606076928	15	4337
2026-01-15 22:49:56.29	58.57	20.83	-27.5	-29.2	15.2	0.00e+00	0	44	0	609222656	15	4363
2026-01-15 22:49:57.29	58.80	20.90	-27.4	-28.8	15.4	0.00e+00	0	43	0	612368384	15	4253
2026-01-15 22:49:58.30	59.03	20.96	-27.4	-28.9	15.4	4.23e-04	0	43	0	615514112	15	4274
2026-01-15 22:49:59.30	59.25	21.03	-27.4	-28.9	15.4	0.00e+00	0	43	0	618659840	15	4276
2026-01-15 22:50:00.30	59.48	21.09	-27.1	-28.3	15.7	0.00e+00	0	43	0	621805568	15	4112
2026-01-15 22:50:01.30	59.71	21.16	-27.0	-28.4	16.0	0.00e+00	0	43	0	624951296	14	4233
2026-01-15 22:50:02.30	59.94	21.22	-27.0	-28.4	16.0	0.00e+00	0	43	0	628097024	14	4248
2026-01-15 22:50:03.30	60.16	21.29	-27.0	-28.5	15.9	0.00e+00	0	43	0	631242752	14	4266
2026-01-15 22:50:04.30	60.40	21.35	-27.0	-28.6	15.9	0.00e+00	0	43	0	634388480	14	4286
2026-01-15 22:50:05.31	60.63	21.41	-27.1	-28.7	15.8	0.00e+00	0	43	0	637534208	14	4330
2026-01-15 22:50:06.31	60.86	21.48	-27.2	-28.9	15.7	0.00e+00	0	43	0	640679936	14	4375
2026-01-15 22:50:07.31	61.09	21.54	-27.2	-28.9	15.7	0.00e+00	0	43	0	643825664	14	4378
2026-01-15 22:50:08.32	61.33	21.60	-27.2	-28.9	15.7	0.00e+00	0	43	0	646971392	14	4389
2026-01-15 22:50:09.32	61.57	21.66	-27.3	-29.2	15.5	0.00e+00	0	43	0	650117120	14	4463
2026-01-15 22:50:10.32	61.80	21.73	-27.3	-29.2	15.6	0.00e+00	0	44	0	653262848	14	4456
2026-01-15 22:50:11.31	62.04	21.79	-27.1	-28.8	15.8	0.00e+00	0	43	0	656408576	14	4346
2026-01-15 22:50:12.31	62.28	21.85	-27.1	-28.6	15.9	0.00e+00	0	43	0	659554304	14	4298
2026-01-15 22:50:13.31	62.51	21.91	-27.1	-28.7	15.8	0.00e+00	0	43	0	662700032	14	4322
2026-01-15 22:50:14.32	62.76	21.97	-27.1	-28.7	15.8	0.00e+00	0	43	0	665845760	14	4321
2026-01-15 22:50:15.32	63.00	22.03	-27.1	-28.7	15.8	0.00e+00	0	43	0	668991488	14	4326
2026-01-15 22:50:16.33	63.24	22.09	-27.3	-29.2	15.5	0.00e+00	0	43	0	672137216	14	4471
2026-01-15 22:50:17.33	63.48	22.15	-27.3	-29.1	15.6	0.00e+00	0	44	0	675282944	14	4442
2026-01-15 22:50:18.33	63.73	22.21	-27.3	-29.2	15.5	0.00e+00	0	43	0	678428672	14	4472
2026-01-15 22:50:19.33	63.97	22.26	-27.1	-28.7	15.8	0.00e+00	0	43	0	681574400	14	4320
2026-01-15 22:50:20.32	64.21	22.32	-27.1	-28.6	15.9	0.00e+00	0	43	0	684720128	14	4307
2026-01-15 22:50:21.32	64.46	22.38	-27.0	-28.5	15.9	0.00e+00	0	44	0	687865856	14	4274
2026-01-15 22:50:22.31	64.71	22.44	-27.0	-28.4	16.0	0.00e+00	0	43	0	691011584	14	4241
2026-01-15 22:50:23.31	64.95	22.49	-27.0	-28.5	15.9	0.00e+00	0	44	0	694157312	14	4275
2026-01-15 22:50:24.31	65.20	22.55	-26.9	-28.3	16.1	0.00e+00	0	43	0	697303040	14	4205
2026-01-15 22:50:25.31	65.45	22.60	-26.8	-28.0	16.2	7.00e-07	0	43	0	700448768	14	4133
2026-01-15 22:50:26.31	65.70	22.66	-26.8	-28.1	16.2	0.00e+00	0	43	0	703594496	14	4155
2026-01-15 22:50:27.32	65.96	22.72	-26.8	-28.6	16.1	0.00e+00	0	43	0	706740224	13	4414
2026-01-15 22:50:28.32	66.21	22.77	-26.8	-28.5	16.2	0.00e+00	0	43	0	709885952	13	4369
2026-01-15 22:50:29.32	66.46	22.82	-26.8	-28.6	16.1	0.00e+00	0	43	0	713031680	13	4415
2026-01-15 22:50:30.31	66.71	22.88	-26.9	-28.7	16.1	0.00e+00	0	43	0	716177408	13	4438
2026-01-15 22:50:31.32	66.97	22.93	-26.9	-28.6	16.1	0.00e+00	0	43	0	719323136	13	4416
2026-01-15 22:50:32.32	67.23	22.98	-26.9	-28.8	16.0	0.00e+00	0	43	0	722468864	13	4455
2026-01-15 22:50:33.33	67.49	23.04	-27.1	-28.6	15.9	0.00e+00	0	43	0	725614592	14	4299
2026-01-15 22:50:34.33	67.74	23.09	-27.0	-28.5	15.9	0.00e+00	0	44	0	728760320	14	4263
2026-01-15 22:50:35.33	68.00	23.14	-27.1	-28.7	15.8	0.00e+00	0	44	0	731906048	14	4338
2026-01-15 22:50:36.34	68.26	23.19	-27.3	-29.2	15.6	0.00e+00	0	43	0	735051776	14	4461
2026-01-15 22:50:37.34	68.52	23.24	-27.3	-29.3	15.5	0.00e+00	0	43	0	738197504	14	4483
2026-01-15 22:50:38.34	68.79	23.29	-27.3	-29.1	15.6	0.00e+00	0	43	0	741343232	14	4436
2026-01-15 22:50:39.34	69.05	23.34	-27.2	-28.9	15.8	0.00e+00	0	43	0	744488960	14	4366
2026-01-15 22:50:40.34	69.31	23.39	-27.2	-29.0	15.7	0.00e+00	0	43	0	747634688	14	4411
2026-01-15 22:50:41.34	69.57	23.44	-27.4	-29.3	15.5	0.00e+00	0	43	0	750780416	14	4493
2026-01-15 22:50:42.35	69.84	23.49	-27.6	-29.3	15.3	0.00e+00	0	43	0	753926144	15	4372
2026-01-15 22:50:43.35	70.10	23.53	-27.3	-28.6	15.6	0.00e+00	0	44	0	757071872	15	4192
2026-01-15 22:50:44.36	70.37	23.58	-27.4	-28.8	15.5	0.00e+00	0	43	0	760217600	15	4229
2026-01-15 22:50:45.36	70.64	23.63	-27.4	-28.9	15.4	0.00e+00	0	44	0	763363328	15	4274
2026-01-15 22:50:46.36	70.91	23.67	-27.4	-28.8	15.5	0.00e+00	0	44	0	766509056	15	4242
2026-01-15 22:50:47.37	71.18	23.72	-27.3	-28.7	15.6	1.50e-06	0	44	0	769654784	15	4204
2026-01-15 22:50:48.37	71.45	23.76	-27.3	-28.7	15.6	0.00e+00	0	43	0	772800512	15	4203
2026-01-15 22:50:49.37	71.72	23.81	-27.4	-28.8	15.5	0.00e+00	0	43	0	775946240	15	4229
2026-01-15 22:50:50.37	71.99	23.85	-27.1	-28.2	15.9	0.00e+00	0	43	0	778043392	15	4089
2026-01-15 22:50:51.37	72.26	23.89	-27.1	-28.1	15.9	0.00e+00	0	43	0	782237696	15	4048
2026-01-15 22:50:52.38	72.53	23.93	-27.1	-28.1	15.9	0.00e+00	0	43	0	785383424	15	4060
2026-01-15 22:50:53.38	72.80	23.98	-27.1	-28.2	15.9	3.00e-06	0	43	0	788529152	15	4080
2026-01-15 22:50:54.38	73.08	24.02	-27.2	-28.5	15.7	0.00e+00	0	44	0	791674880	15	4150
2026-01-15 22:50:55.39	73.35	24.06	-27.2	-28.3	15.8	0.00e+00	0	43	0	794820608	15	4118
2026-01-15 22:50:56.39	73.63	24.10	-27.2	-28.5	15.7	3.00e-06	0	43	0	797966336	15	4153
2026-01-15 22:50:57.40	73.91	24.14	-27.2	-28.3	15.8	0.00e+00	0	43	0	800063488	15	4111
2026-01-15 22:50:58.40	74.18	24.18	-27.2	-28.8	15.8	0.00e+00	0	43	0	803209216	14	4361
2026-01-15 22:50:59.38	74.45	24.21	-27.1	-28.8	15.9	3.80e-06	0	44	0	806354944	14	4345
2026-01-15 22:51:00.38	74.73	24.25	-27.2	-28.9	15.8	0.00e+00	0	43	0	809500672	14	4374
2026-01-15 22:51:01.38	75.01	24.29	-27.2	-29.0	15.7	0.00e+00	0	43	0	812646400	14	4401
2026-01-15 22:51:02.38	75.29	24.32	-26.9	-28.2	16.2	1.50e-06	0	43	0	815792128	14	4176
2026-01-15 22:51:03.39	75.57	24.36	-26.7	-27.7	16.4	0.00e+00	0	43	0	818937856	14	4066
2026-01-15 22:51:04.40	75.85	24.39	-26.7	-27.7	16.5	0.00e+00	0	43	0	822083584	14	4051
2026-01-15 22:51:05.41	76.13	24.43	-26.4	-27.5	16.3	2.20e-06	0	43	0	825229312	14	4083
2026-01-15 22:51:06.41	76.42	24.46	-26.9	-28.1	16.1	0.00e+00	0	44	0	828375040	14	4167
2026-01-15 22:51:07.41	76.70	24.49	-27.0	-28.4	16.0	0.00e+00	0	43	0	831520768	14	4254
2026-01-15 22:51:08.41	76.98	24.52	-27.0	-28.9	15.1	3.00e-06	0	43	0	834666496	13	4497
2026-01-15 22:51:09.41	77.26	24.56	-26.9	-28.7	15.5	0.00e+00	0	43	0	837812224	13	4446
2026-01-15 22:51:10.40	77.54	24.59	-26.9	-28.7	16.1	0.00e+00	0	43	0	840957952	13	4449
2026-01-15 22:51:11.40	77.83	24.62	-27.2	-28.9	15.8	2.20e-06	0	43	0	844103680	14	4375
2026-01-15 22:51:12.40	78.11	24.64	-27.2	-29.0	15.7	0.00e+00	0	43	0	847249408	14	4397
2026-01-15 22:51:13.40	78.40	24.67	-27.0	-28.5	16.0	0.00e+00	0	43	0	850395136	14	4255
2026-01-15 22:51:14.40	78.68	24.70	-27.2	-28.8	15.8	0.00e+00	0	43	0	853540864	14	4355
2026-01-15 22:51:15.40	78.97	24.73	-27.3	-29.0	15.8	2.37e-04	0	43	0	856686592	14	4411
2026-01-15 22:51:16.41	79.26	24.75	-27.0	-28.5	16.0	0.00e+00	0	43	0	859832320	14	4272
2026-01-15 22:51:17.41	79.54	24.78	-26.9	-28.1	16.2	0.00e+00	0	43	0	862978048	14	4166
2026-01-15 22:51:18.41	79.83	24.81	-26.8	-28.0	16.3	0.00e+00	0	44	0	866123776	14	4135
2026-01-15 22:51:19.40	80.11	24.83	-26.9	-28.2	16.2	0.00e+00	0	43	0	869269504	14	4182
2026-01-15 22:51:20.41	80.41	24.85	-27.0	-28.5	16.0	0.00e+00	0	43	0	872415232	14	4269
2026-01-15 22:51:21.41	80.69	24.88	-26.9	-28.2	16.2	0.00e+00	0	43	0	875560960	14	4195
2026-01-15 22:51:22.42	80.99	24.90	-26.7	-27.8	16.4	0.00e+00	0	43	0	878706688	14	4076
2026-01-15 22:51:23.42	81.28	24.92	-26.6	-27.6	16.5	0.00e+00	0	43	0	881852416	14	4026
2026-01-15 22:51:24.43	81.57	24.94	-26.7	-27.8	16.4	0.00e+00	0	43	0	884998144	14	4081
2026-01-15 22:51:25.43	81.86	24.96	-26.6	-27.6	16.5	0.00e+00	0	43	0	888143872	14	4035
2026-01-15 22:51:26.43	82.15	24.98	-26.6	-27.5	16.6	7.00e-07	0	44	0	891289600	14	4010
2026-01-15 22:51:27.44	82.44	25.00	-26.7	-27.7	16.4	0.00e+00	0	43	0	894435328	14	4059
2026-01-15 22:51:28.45	82.74	25.02	-26.9	-28.2	16.1	0.00e+00	0	44	0	897581056	14	4201
2026-01-15 22:51:29.44	83.02	25.03	-27.0	-28.4	16.0	2.44e-05	0	44	0	900726784	14	4256
2026-01-15 22:51:30.44	83.32	25.05	-26.9	-28.2	16.2	3.81e-05	0	43	0	903872512	14	4177
2026-01-15 22:51:31.44	83.61	25.06	-26.8	-28.0	16.3	0.00e+00	0	43	0	907018240	14	4129
2026-01-15 22:51:32.44	83.90	25.08	-26.8	-28.0	16.3	3.35e-05	0	43	0	910163968	14	4122
2026-01-15 22:51:33.43	84.19	25.09	-26.8	-28.0	16.3	0.00e+00	0	44	0	913309696	14	4136
2026-01-15 22:51:34.43	84.48	25.10	-26.8	-28.0	16.3	0.00e+00	0	44	0	916455424	14	4138
2026-01-15 22:51:35.44	84.78	25.12	-26.8	-28.1	16.2	0.00e+00	0	43	0	919601152	14	4161
2026-01-15 22:51:36.44	85.07	25.13	-26.8	-28.1	16.2	0.00e+00	0	43	0	922746880	14	4154
2026-01-15 22:51:37.44	85.37	25.14	-26.8	-28.1	16.3	0.00e+00	0	43	0	925892608	14	4157
2026-01-15 22:51:38.45	85.66	25.15	-26.8	-28.1	16.3	5.87e-05	0	43	0	929038336	14	4163
2026-01-15 22:51:39.44	85.95	25.16	-26.5	-27.4	16.6	1.29e-04	0	44	0	932184064	14	3987
2026-01-15 22:51:40.45	86.25	25.17	-26.5	-27.3	16.7	0.00e+00	0	43	0	935329792	14	3950
2026-01-15 22:51:41.45	86.55	25.17	-26.5	-27.4	16.6	1.59e-04	0	43	0	938475520	14	3967
2026-01-15 22:51:42.45	86.84	25.18	-26.5	-27.4	16.6	1.33e-04	0	43	0	941621248	14	3994
2026-01-15 22:51:43.44	87.13	25.19	-26.6	-27.5	16.5	0.00e+00	0	44	0	944766976	14	4009
2026-01-15 22:51:44.45	87.43	25.19	-26.6	-27.7	16.5	3.81e-05	0	43	0	947912704	14	4052
2026-01-15 22:51:45.45	87.72	25.20	-26.5	-27.4	16.6	1.60e-05	0	43	0	951058432	14	3992
2026-01-15 22:51:46.45	88.02	25.20	-26.5	-27.5	16.6	0.00e+00	0	44	0	954204160	14	3996
2026-01-15 22:51:47.45	88.31	25.20	-26.6	-27.5	16.6	1.63e-04	0	44	0	957349888	14	3997
2026-01-15 22:51:48.46	88.61	25.20	-26.6	-27.5	16.6	0.00e+00	0	43	0	960495616	14	3999
2026-01-15 22:51:49.46	88.91	25.21	-26.6	-27.5	16.6	0.00e+00	0	44	0	963641344	14	4000
2026-01-15 22:51:50.46	89.20	25.21	-26.5	-27.2	16.7	0.00e+00	0	44	0	966787072	14	3939
2026-01-15 22:51:51.46	89.50	25.21	-26.5	-27.3	16.6	0.00e+00	0	44	0	969932800	14	3967
2026-01-15 22:51:52.46	89.79	25.20	-26.5	-27.4	16.6	0.00e+00	0	43	0	973078528	14	3985
2026-01-15 22:51:53.46	90.09	25.20	-26.4	-27.2	16.7	0.00e+00	0	44	0	976224256	14	3937
2026-01-15 22:51:54.47	90.38	25.20	-26.4	-27.2	16.7	0.00e+00	0	43	0	979369984	14	3920
2026-01-15 22:51:55.47	90.68	25.20	-26.4	-27.2	16.7	0.00e+00	0	43	0	981467136	14	3935
2026-01-15 22:51:56.47	90.97	25.19	-26.5	-27.3	16.7	1.61e-04	0	44	0	984612864	14	3945
2026-01-15 22:51:57.47	91.27	25.19	-26.5	-27.3	16.7	1.58e-04	0	43	0	988807168	14	3962
2026-01-15 22:51:58.47	91.56	25.18	-26.5	-27.4	16.6	0.00e+00	0	43	0	991952896	14	3989
2026-01-15 22:51:59.47	91.86	25.17	-26.5	-27.4	16.6	0.00e+00	0	44	0	995098624	14	3984
2026-01-15 22:52:00.47	92.15	25.17	-26.5	-27.2	16.7	1.01e-04	0	44	0	997195776	14	3943
2026-01-15 22:52:01.46	92.44	25.16	-26.4	-27.1	16.7	0.00e+00	0	44	0	1000341504	14	3915
2026-01-15 22:52:02.46	92.74	25.15	-26.5	-27.3	16.7	3.20e-05	0	44	0	1003487232	14	3960
2026-01-15 22:52:03.46	93.03	25.14	-26.5	-27.3	16.6	0.00e+00	0	43	0	1006632960	14	3967
2026-01-15 22:52:04.47	93.33	25.13	-26.5	-27.4	16.6	0.00e+00	0	43	0	1009778688	14	3989
2026-01-15 22:52:05.46	93.62	25.12	-26.5	-27.3	16.7	0.00e+00	0	43	0	1012924416	14	3959
2026-01-15 22:52:06.46	93.91	25.11	-26.5	-27.4	16.6	1.52e-05	0	44	0	1016070144	14	3985
2026-01-15 22:52:07.46	94.21	25.09	-26.6	-27.6	16.5	0.00e+00	0	43	0	1019215872	14	4024
2026-01-15 22:52:08.47	94.50	25.08	-26.6	-27.5	16.5	0.00e+00	0	43	0	1022361600	14	4015
2026-01-15 22:52:09.46	94.79	25.06	-26.5	-27.4	16.6	0.00e+00	0	43	0	1025507328	14	3991
2026-01-15 22:52:10.46	95.08	25.05	-26.6	-27.6	16.5	0.00e+00	0	44	0	1028653056	14	4025
2026-01-15 22:52:11.46	95.38	25.03	-26.5	-27.3	16.7	0.00e+00	0	44	0	1031798784	14	3963
2026-01-15 22:52:12.46	95.67	25.02	-26.5	-27.3	16.7	0.00e+00	0	43	0	1034944512	14	3952
2026-01-15 22:52:13.46	95.96	25.00	-26.5	-27.4	16.6	0.00e+00	0	43	0	1038090240	14	3973
2026-01-15 22:52:14.46	96.25	24.98	-26.4	-27.1	16.8	0.00e+00	0	43	0	1041235968	14	3903
2026-01-15 22:52:15.45	96.54	24.96	-26.4	-27.2	16.7	0.00e+00	0	43	0	1044381696	14	3935
2026-01-15 22:52:16.46	96.83	24.94	-26.4	-27.1	16.8	0.00e+00	0	44	0	1047527424	14	3910
2026-01-15 22:52:17.47	97.12	24.92	-26.4	-27.2	16.7	0.00e+00	0	43	0	1050673152	14	3942
2026-01-15 22:52:18.47	97.41	24.90	-26.6	-27.5	16.6	0.00e+00	0	44	0	1053818880	14	3997
2026-01-15 22:52:19.47	97.70	24.88	-26.6	-27.5	16.5	0.00e+00	0	44	0	1056964608	14	4013
2026-01-15 22:52:20.47	97.99	24.86	-26.7	-27.7	16.4	0.00e+00	0	43	0	1060110336	14	4054
2026-01-15 22:52:21.47	98.28	24.83	-26.5	-27.5	16.6	0.00e+00	0	44	0	1063256064	14	3999
2026-01-15 22:52:22.47	98.57	24.81	-26.6	-27.7	16.5	0.00e+00	0	43	0	1066401792	14	4047
2026-01-15 22:52:23.47	98.86	24.78	-26.7	-27.7	16.4	0.00e+00	0	43	0	1069547520	14	4063
2026-01-15 22:52:24.47	99.14	24.76	-26.5	-27.4	16.6	0.00e+00	0	44	0	1072693248	14	3982
2026-01-15 22:52:25.47	99.43	24.73	-26.4	-27.2	16.7	0.00e+00	0	43	0	1075838976	14	3936
2026-01-15 22:52:26.47	99.72	24.70	-26.5	-27.5	16.6	0.00e+00	0	43	0	1078984704	14	3999
2026-01-15 22:52:27.47	100.00	24.68	-26.6	-27.5	16.6	0.00e+00	0	43	0	1082130432	14	4006
2026-01-15 22:52:28.47	100.29	24.65	-26.6	-27.5	16.5	2.20e-06	0	43	0	1085276160	14	4020
2026-01-15 22:52:29.48	100.58	24.62	-26.7	-27.8	16.4	0.00e+00	0	43	0	1088421888	14	4090
2026-01-15 22:52:30.48	100.86	24.59	-26.8	-28.0	16.3	0.00e+00	0	43	0	1091567616	14	4142
2026-01-15 22:52:31.47	101.14	24.56	-26.8	-28.1	16.2	6.10e-06	0	43	0	1094713344	14	4163
2026-01-15 22:52:32.47	101.43	24.53	-26.8	-28.0	16.3	0.00e+00	0	44	0	1097859072	14	4132
2026-01-15 22:52:33.46	101.71	24.50	-26.9	-28.1	16.2	0.00e+00	0	44	0	1101004800	14	4173
2026-01-15 22:52:34.47	101.99	24.46	-26.9	-28.3	16.1	9.90e-06	0	43	0	1104150528	14	4215
2026-01-15 22:52:35.47	102.27	24.43	-26.9	-28.3	16.1	0.00e+00	0	43	0	1107296256	14	4218
2026-01-15 22:52:36.47	102.55	24.40	-26.9	-28.3	16.1	0.00e+00	0	44	0	1110441984	14	4225
2026-01-15 22:52:37.47	102.83	24.36	-26.9	-28.3	16.1	0.00e+00	0	43	0	1113587712	14	4218
2026-01-15 22:52:38.48	103.12	24.32	-26.9	-28.3	16.1	0.00e+00	0	44	0	1116733440	14	4213
2026-01-15 22:52:39.48	103.40	24.29	-27.0	-28.4	16.0	0.00e+00	0	44	0	1119879168	14	4251
2026-01-15 22:52:40.48	103.68	24.25	-27.1	-28.6	15.9	6.10e-06	0	44	0	1123024896	14	4306
2026-01-15 22:52:41.48	103.95	24.22	-27.1	-28.7	15.9	0.00e+00	0	43	0	1126170624	14	4319
2026-01-15 22:52:42.48	104.23	24.18	-27.0	-28.4	16.0	0.00e+00	0	44	0	1129316352	14	4243
2026-01-15 22:52:43.48	104.51	24.14	-26.9	-28.1	16.2	0.00e+00	0	43	0	1132462080	14	4176
2026-01-15 22:52:44.49	104.79	24.10	-26.9	-28.3	16.1	0.00e+00	0	43	0	1135607808	14	4214
2026-01-15 22:52:45.49	105.06	24.06	-26.8	-28.1	16.2	0.00e+00	0	43	0	1138753536	14	4174
2026-01-15 22:52:46.49	105.34	24.02	-26.8	-28.1	16.2	0.00e+00	0	44	0	1141899264	14	4156
2026-01-15 22:52:47.50	105.61	23.98	-26.8	-28.0	16.3	0.00e+00	0	43	0	1145044992	14	4134
2026-01-15 22:52:48.50	105.89	23.94	-26.6	-28.2	16.4	0.00e+00	0	44	0	1148190720	13	4299
2026-01-15 22:52:49.50	106.16	23.89	-26.7	-28.3	16.3	0.00e+00	0	44	0	1151336448	13	4321
2026-01-15 22:52:50.50	106.43	23.85	-26.8	-28.6	16.2	0.00e+00	0	43	0	1154482176	13	4428
2026-01-15 22:52:51.50	106.70	23.81	-26.9	-28.8	16.1	0.00e+00	0	44	0	1157627904	13	4459
2026-01-15 22:52:52.50	106.97	23.76	-26.8	-28.5	16.2	0.00e+00	0	43	0	1160773632	13	4390
2026-01-15 22:52:53.50	107.24	23.72	-26.8	-28.5	16.2	0.00e+00	0	44	0	1163919360	13	4385
2026-01-15 22:52:54.50	107.51	23.67	-26.8	-28.6	16.2	0.00e+00	0	44	0	1166016512	13	4411
2026-01-15 22:52:55.50	107.78	23.63	-26.8	-28.5	16.3	0.00e+00	0	44	0	1169162240	13	4376
2026-01-15 22:52:56.50	108.05	23.58	-26.9	-28.7	16.1	0.00e+00	0	43	0	1172307968	13	4438
2026-01-15 22:52:57.50	108.31	23.54	-26.9	-28.4	16.0	0.00e+00	0	44	0	1175453696	14	4241
2026-01-15 22:52:58.50	108.58	23.49	-26.8	-28.1	16.2	0.00e+00	0	43	0	1178599424	14	4160
2026-01-15 22:52:59.50	108.84	23.44	-26.8	-28.1	16.2	0.00e+00	0	43	0	1181745152	14	4167
2026-01-15 22:53:00.51	109.11	23.39	-26.8	-28.1	16.1	0.00e+00	0	43	0	1184890880	14	4173
2026-01-15 22:53:01.51	109.37	23.34	-26.8	-28.1	16.2	0.00e+00	0	44	0	1188036608	14	4162
2026-01-15 22:53:02.51	109.64	23.29	-27.0	-28.5	16.0	0.00e+00	0	44	0	1191182336	14	4277
2026-01-15 22:53:03.51	109.90	23.24	-27.0	-28.6	15.9	0.00e+00	0	43	0	1194328064	14	4306
2026-01-15 22:53:04.52	110.16	23.19	-27.1	-28.8	15.8	0.00e+00	0	44	0	1197473792	14	4352
2026-01-15 22:53:05.52	110.42	23.14	-26.9	-28.2	16.1	0.00e+00	0	43	0	1200619520	14	4192
2026-01-15 22:53:06.52	110.68	23.09	-26.8	-28.1	16.1	0.00e+00	0	43	0	1203765248	14	4169
2026-01-15 22:53:07.52	110.94	23.04	-26.8	-28.0	16.2	0.00e+00	0	43	0	1206910976	14	4131
2026-01-15 22:53:08.53	111.20	22.98	-26.8	-28.0	16.2	0.00e+00	0	43	0	1210056704	14	4135
2026-01-15 22:53:09.53	111.46	22.93	-26.8	-28.0	16.2	0.00e+00	0	43	0	1213202432	14	4147
2026-01-15 22:53:10.53	111.71	22.88	-26.8	-28.0	16.2	0.00e+00	0	44	0	1216348160	14	4140
2026-01-15 22:53:11.53	111.97	22.82	-26.7	-27.8	16.3	0.00e+00	0	44	0	1219493888	14	4079
2026-01-15 22:53:12.54	112.23	22.77	-26.7	-27.7	16.4	0.00e+00	0	43	0	1222639616	14	4062
2026-01-15 22:53:13.55	112.48	22.71	-26.7	-27.8	16.3	0.00e+00	0	44	0	1225785344	14	4095
2026-01-15 22:53:14.55	112.73	22.66	-26.8	-28.0	16.2	0.00e+00	0	44	0	1228931072	14	4151
2026-01-15 22:53:15.55	112.99	22.60	-26.8	-28.0	16.2	0.00e+00	0	43	0	1232076800	14	4152
2026-01-15 22:53:16.55	113.24	22.55	-26.8	-28.0	16.2	0.00e+00	0	44	0	1235222528	14	4146
2026-01-15 22:53:17.55	113.49	22.49	-26.8	-28.0	16.2	0.00e+00	0	43	0	1238368256	14	4130
2026-01-15 22:53:18.56	113.74	22.43	-26.9	-28.1	16.1	0.00e+00	0	44	0	1241513984	14	4178
2026-01-15 22:53:19.55	113.98	22.37	-26.9	-28.3	15.7	0.00e+00	0	43	0	1244659712	14	4225
2026-01-15 22:53:20.55	114.23	22.32	-27.0	-28.4	15.8	0.00e+00	0	43	0	1247805440	14	4250
2026-01-15 22:53:21.56	114.48	22.26	-27.0	-28.6	15.8	0.00e+00	0	43	0	1250951168	14	4303
2026-01-15 22:53:22.55	114.72	22.20	-27.1	-28.7	15.8	3.39e-04	0	44	0	1254096896	14	4328
2026-01-15 22:53:23.55	114.97	22.14	-27.1	-28.8	15.7	0.00e+00	0	44	0	1257242624	14	4370
2026-01-15 22:53:24.55	115.21	22.08	-27.2	-29.0	15.6	0.00e+00	0	44	0	1260388352	14	4428
2026-01-15 22:53:25.55	115.45	22.02	-27.2	-29.1	15.5	0.00e+00	0	44	0	1263534080	14	4447
2026-01-15 22:53:26.55	115.70	21.96	-27.2	-28.9	15.6	0.00e+00	0	44	0	1266679808	14	4406
2026-01-15 22:53:27.55	115.94	21.90	-27.2	-28.9	15.6	0.00e+00	0	43	0	1269825536	14	4385
2026-01-15 22:53:28.54	116.17	21.84	-27.1	-28.8	15.7	1.01e-04	0	44	0	1272971264	14	4352
2026-01-15 22:53:29.54	116.41	21.78	-27.0	-28.6	15.8	0.00e+00	0	43	0	1276116992	14	4300
2026-01-15 22:53:30.54	116.65	21.72	-27.2	-29.0	15.6	0.00e+00	0	44	0	1279262720	14	4410
2026-01-15 22:53:31.55	116.89	21.65	-27.2	-29.0	15.6	0.00e+00	0	44	0	1282408448	14	4422
2026-01-15 22:53:32.56	117.13	21.59	-27.1	-28.7	15.7	2.51e-05	0	44	0	1285554176	14	4325
2026-01-15 22:53:33.56	117.36	21.53	-27.0	-28.5	15.8	0.00e+00	0	43	0	1288699904	14	4279
2026-01-15 22:53:34.57	117.60	21.47	-27.0	-28.4	15.9	0.00e+00	0	43	0	1291845632	14	4254
2026-01-15 22:53:35.57	117.83	21.40	-27.0	-28.5	15.9	0.00e+00	0	44	0	1294991360	14	4283
2026-01-15 22:53:36.57	118.07	21.34	-27.1	-28.6	15.8	0.00e+00	0	44	0	1298137088	14	4313
2026-01-15 22:53:37.56	118.30	21.28	-27.1	-28.8	15.7	4.45e-04	0	44	0	1301282816	14	4349
2026-01-15 22:53:38.57	118.53	21.21	-27.1	-28.6	15.8	7.39e-04	0	44	0	1304428544	14	4322
2026-01-15 22:53:39.57	118.76	21.15	-27.1	-28.8	15.7	0.00e+00	0	43	0	1307574272	14	4361
2026-01-15 22:53:40.58	118.99	21.08	-27.1	-28.6	15.8	0.00e+00	0	44	0	1310720000	14	4309
2026-01-15 22:53:41.58	119.22	21.02	-26.8	-28.1	16.1	7.63e-04	0	44	0	1313865728	14	4179
2026-01-15 22:53:42.58	119.45	20.95	-26.8	-28.1	16.1	0.00e+00	0	43	0	1317011456	14	4173
2026-01-15 22:53:43.59	119.67	20.88	-26.8	-28.1	16.1	3.05e-04	0	43	0	1320157184	14	4166
2026-01-15 22:53:44.59	119.90	20.82	-26.8	-28.1	16.1	1.91e-04	0	43	0	1323302912	14	4172
2026-01-15 22:53:45.59	120.12	20.75	-26.8	-28.0	16.2	0.00e+00	0	43	0	1326448640	14	4136
2026-01-15 22:53:46.59	120.35	20.68	-26.7	-27.8	16.2	1.52e-05	0	44	0	1329594368	14	4091
2026-01-15 22:53:47.59	120.57	20.62	-26.8	-28.1	16.1	0.00e+00	0	44	0	1332740096	14	4159
2026-01-15 22:53:48.58	120.79	20.55	-26.8	-28.0	16.2	0.00e+00	0	44	0	1335885824	14	4131
2026-01-15 22:53:49.58	121.01	20.48	-26.8	-27.9	16.2	1.50e-06	0	44	0	1339031552	14	4125
2026-01-15 22:53:50.58	121.23	20.42	-26.8	-28.1	16.1	6.80e-06	0	44	0	1342177280	14	4164
2026-01-15 22:53:51.58	121.45	20.35	-26.9	-28.4	15.9	0.00e+00	0	44	0	1345323008	14	4239
2026-01-15 22:53:52.58	121.66	20.28	-27.0	-28.6	15.8	9.61e-05	0	44	0	1348468736	14	4307
2026-01-15 22:53:53.58	121.88	20.21	-27.0	-28.5	15.8	1.34e-04	0	44	0	1351614464	14	4271
2026-01-15 22:53:54.58	122.10	20.14	-26.9	-28.3	16.0	0.00e+00	0	44	0	1354760192	14	4216
2026-01-15 22:53:55.58	122.31	20.08	-26.9	-28.3	16.0	3.73e-05	0	44	0	1357905920	14	4220
2026-01-15 22:53:56.58	122.52	20.01	-26.8	-28.1	16.0	9.46e-05	0	44	0	1361051648	14	4182
2026-01-15 22:53:57.58	122.74	19.94	-26.9	-28.3	15.9	0.00e+00	0	44	0	1364197376	14	4243
2026-01-15 22:53:58.58	122.95	19.87	-26.9	-28.4	15.8	6.56e-05	0	44	0	1367343104	14	4260
2026-01-15 22:53:59.57	123.16	19.80	-26.8	-28.1	16.0	4.80e-05	0	44	0	1369440256	14	4165
2026-01-15 22:54:00.57	123.37	19.73	-26.9	-28.3	15.9	0.00e+00	0	44	0	1372585984	14	4238
2026-01-15 22:54:01.56	123.57	19.66	-26.9	-28.3	15.9	0.00e+00	0	44	0	1375731712	14	4236
2026-01-15 22:54:02.56	123.78	19.59	-26.9	-28.2	16.0	0.00e+00	0	44	0	1378877440	14	4207
2026-01-15 22:54:03.56	123.99	19.52	-26.8	-28.0	16.0	0.00e+00	0	43	0	1382023168	14	4147
2026-01-15 22:54:04.56	124.20	19.45	-26.8	-28.1	16.0	9.00e-05	0	44	0	1385168896	14	4173
2026-01-15 22:54:05.55	124.40	19.38	-26.8	-28.2	16.0	0.00e+00	0	44	0	1388314624	14	4182
2026-01-15 22:54:06.55	124.61	19.31	-26.9	-28.2	15.9	7.00e-07	0	44	0	1391460352	14	4193
2026-01-15 22:54:07.55	124.81	19.24	-26.9	-28.2	16.0	1.24e-04	0	43	0	1394606080	14	4197
2026-01-15 22:54:08.56	125.01	19.17	-26.9	-28.2	16.0	8.46e-05	0	43	0	1397751808	14	4184
2026-01-15 22:54:09.57	125.22	19.10	-27.0	-28.5	15.8	0.00e+00	0	44	0	1400897536	14	4294
2026-01-15 22:54:10.56	125.42	19.03	-27.2	-28.9	15.5	0.00e+00	0	44	0	1404043264	14	4406
2026-01-15 22:54:11.56	125.62	18.96	-27.2	-29.0	15.4	0.00e+00	0	44	0	1407188992	14	4439
2026-01-15 22:54:12.56	125.82	18.88	-27.3	-29.2	15.4	0.00e+00	0	44	0	1410334720	14	4481
2026-01-15 22:54:13.57	126.02	18.81	-27.2	-29.1	15.4	3.43e-05	0	44	0	1413480448	14	4453
2026-01-15 22:54:14.56	126.21	18.74	-27.3	-29.1	15.4	0.00e+00	0	44	0	1416626176	14	4454
2026-01-15 22:54:15.56	126.41	18.67	-27.3	-29.2	15.4	0.00e+00	0	43	0	1419771904	14	4468
2026-01-15 22:54:16.56	126.60	18.60	-27.3	-29.2	15.4	0.00e+00	0	44	0	1422917632	14	4468
2026-01-15 22:54:17.57	126.80	18.52	-27.3	-29.3	15.3	0.00e+00	0	44	0	1426063360	14	4501
2026-01-15 22:54:18.57	126.99	18.45	-27.3	-29.2	15.3	0.00e+00	0	44	0	1429209088	14	4480
2026-01-15 22:54:19.58	127.19	18.38	-27.1	-28.7	15.6	0.00e+00	0	44	0	1432354816	14	4337
2026-01-15 22:54:20.58	127.38	18.31	-27.0	-28.6	15.3	0.00e+00	0	44	0	1435500544	14	4326
2026-01-15 22:54:21.58	127.57	18.23	-26.9	-28.5	15.4	9.91e-05	0	44	0	1438646272	14	4307
2026-01-15 22:54:22.58	127.76	18.16	-27.0	-28.6	15.4	3.89e-05	0	43	0	1441792000	14	4325
2026-01-15 22:54:23.58	127.95	18.09	-26.9	-28.4	15.4	5.01e-04	0	44	0	1444937728	14	4284
2026-01-15 22:54:24.58	128.14	18.02	-27.0	-28.6	15.2	7.84e-04	0	44	0	1448083456	14	4339
2026-01-15 22:54:25.58	128.33	17.94	-27.0	-28.7	15.0	1.39e-03	0	44	0	1451229184	14	4348
2026-01-15 22:54:26.58	128.51	17.87	-27.1	-28.9	15.0	3.68e-03	0	44	0	1454374912	14	4400
2026-01-15 22:54:27.58	128.70	17.80	-27.3	-29.1	15.4	0.00e+00	0	44	0	1457520640	14	4446
2026-01-15 22:54:28.58	128.88	17.72	-27.4	-29.3	15.3	0.00e+00	0	43	0	1460666368	14	4520
2026-01-15 22:54:29.57	129.07	17.65	-27.2	-29.1	15.4	0.00e+00	0	43	0	1463812096	14	4443
2026-01-15 22:54:30.58	129.25	17.58	-27.4	-29.4	15.2	0.00e+00	0	44	0	1466957824	14	4546
2026-01-15 22:54:31.58	129.43	17.51	-27.4	-29.3	15.2	0.00e+00	0	43	0	1470103552	14	4522
2026-01-15 22:54:32.58	129.61	17.43	-27.3	-29.2	15.3	0.00e+00	0	44	0	1473249280	14	4468
2026-01-15 22:54:33.59	129.80	17.36	-27.4	-29.5	15.1	0.00e+00	0	44	0	1476395008	14	4574
2026-01-15 22:54:34.58	129.97	17.29	-27.6	-29.3	15.0	0.00e+00	0	44	0	1479540736	15	4393
2026-01-15 22:54:35.58	130.15	17.21	-27.8	-29.8	14.6	7.00e-07	0	44	0	1482686464	15	4557
2026-01-15 22:54:36.59	130.33	17.14	-27.7	-29.6	14.8	0.00e+00	0	43	0	1485832192	15	4490
2026-01-15 22:54:37.59	130.51	17.06	-27.7	-29.6	14.8	0.00e+00	0	44	0	1488977920	15	4489
2026-01-15 22:54:38.59	130.69	16.99	-27.6	-29.4	14.9	7.00e-07	0	44	0	1492123648	15	4427
2026-01-15 22:54:39.60	130.86	16.92	-27.6	-29.5	14.8	0.00e+00	0	44	0	1495269376	15	4464
2026-01-15 22:54:40.60	131.04	16.84	-27.7	-29.6	14.8	0.00e+00	0	43	0	1498415104	15	4489
2026-01-15 22:54:41.60	131.21	16.77	-27.7	-29.6	14.7	9.10e-06	0	43	0	1501560832	15	4506
2026-01-15 22:54:42.61	131.39	16.69	-27.8	-30.0	14.5	0.00e+00	0	43	0	1504706560	15	4621
2026-01-15 22:54:43.61	131.56	16.62	-28.1	-30.0	14.4	0.00e+00	0	44	0	1507852288	16	4504
2026-01-15 22:54:44.62	131.73	16.55	-27.9	-29.6	14.6	0.00e+00	0	44	0	1510998016	16	4373
2026-01-15 22:54:45.63	131.90	16.47	-27.8	-29.3	14.8	0.00e+00	0	44	0	1514143744	16	4274
2026-01-15 22:54:46.62	132.07	16.40	-27.7	-29.5	14.8	0.00e+00	0	44	0	1517289472	15	4470
2026-01-15 22:54:47.63	132.24	16.32	-27.7	-29.6	14.7	0.00e+00	0	44	0	1520435200	15	4474
2026-01-15 22:54:48.63	132.41	16.25	-27.7	-29.7	14.7	7.00e-07	0	44	0	1523580928	15	4520
2026-01-15 22:54:49.63	132.58	16.18	-27.7	-29.7	14.6	0.00e+00	0	44	0	1526726656	15	4521
2026-01-15 22:54:50.64	132.75	16.10	-27.7	-29.7	14.6	0.00e+00	0	44	0	1529872384	15	4545
2026-01-15 22:54:51.63	132.91	16.03	-27.6	-29.4	14.8	0.00e+00	0	44	0	1533018112	15	4434
2026-01-15 22:54:52.63	133.08	15.96	-27.6	-29.4	14.8	0.00e+00	0	43	0	1536163840	15	4430
2026-01-15 22:54:53.64	133.24	15.88	-27.5	-29.2	14.9	7.00e-07	0	44	0	1539309568	15	4384
2026-01-15 22:54:54.63	133.40	15.81	-27.5	-29.3	14.9	0.00e+00	0	44	0	1542455296	15	4390
2026-01-15 22:54:55.63	133.57	15.73	-27.5	-29.2	14.9	0.00e+00	0	44	0	1545601024	15	4385
2026-01-15 22:54:56.64	133.73	15.66	-27.7	-29.7	14.6	0.00e+00	0	44	0	1548746752	15	4529
2026-01-15 22:54:57.65	133.89	15.59	-27.8	-29.9	14.4	7.00e-07	0	43	0	1550843904	15	4609
2026-01-15 22:54:58.65	134.05	15.51	-28.0	-30.4	14.1	0.00e+00	0	44	0	1553989632	15	4776
2026-01-15 22:54:59.64	134.21	15.44	-28.0	-30.0	14.2	5.30e-06	0	44	0	1557135360	16	4525
2026-01-15 22:55:00.65	134.37	15.36	-27.9	-29.8	14.3	4.50e-06	0	44	0	1560281088	16	4461
2026-01-15 22:55:01.65	134.53	15.29	-28.1	-30.1	14.1	0.00e+00	0	44	0	1563426816	16	4572
2026-01-15 22:55:02.65	134.69	15.22	-28.0	-30.1	14.1	2.20e-06	0	44	0	1566572544	16	4557
2026-01-15 22:55:03.65	134.84	15.14	-28.1	-30.2	14.1	2.20e-06	0	44	0	1569718272	16	4588
2026-01-15 22:55:04.65	135.00	15.07	-28.1	-30.3	14.0	3.80e-06	0	44	0	1572864000	16	4600
2026-01-15 22:55:05.66	135.16	15.00	-28.3	-30.5	13.9	2.20e-06	0	44	0	1576009728	16	4669
2026-01-15 22:55:06.65	135.31	14.92	-28.2	-30.3	14.0	9.90e-06	0	44	0	1579155456	16	4600
2026-01-15 22:55:07.66	135.46	14.85	-28.1	-30.0	14.2	7.00e-07	0	44	0	1582301184	16	4503
2026-01-15 22:55:08.66	135.62	14.77	-27.9	-29.6	14.4	0.00e+00	0	44	0	1585446912	16	4388
2026-01-15 22:55:09.66	135.77	14.70	-27.9	-29.5	14.5	4.50e-06	0	43	0	1588592640	16	4349
2026-01-15 22:55:10.66	135.92	14.63	-28.0	-29.8	14.3	2.05e-05	0	44	0	1591738368	16	4436
2026-01-15 22:55:11.66	136.07	14.55	-27.9	-29.6	14.4	1.50e-06	0	44	0	1594884096	16	4373
2026-01-15 22:55:12.66	136.22	14.48	-28.0	-29.8	14.3	1.50e-06	0	44	0	1598029824	16	4448
2026-01-15 22:55:13.67	136.37	14.41	-28.0	-29.8	14.3	2.20e-06	0	44	0	1601175552	16	4457
2026-01-15 22:55:14.67	136.52	14.33	-27.9	-29.7	14.3	3.00e-06	0	43	0	1604321280	16	4414
2026-01-15 22:55:15.66	136.67	14.26	-27.9	-29.6	14.4	7.00e-07	0	44	0	1607467008	16	4386
2026-01-15 22:55:16.66	136.81	14.19	-27.9	-29.6	14.4	0.00e+00	0	44	0	1610612736	16	4398
2026-01-15 22:55:17.65	136.96	14.12	-27.9	-29.6	14.4	1.50e-06	0	43	0	1613758464	16	4393
2026-01-15 22:55:18.65	137.10	14.04	-27.9	-29.6	14.4	2.20e-06	0	43	0	1616904192	16	4387
2026-01-15 22:55:19.65	137.25	13.97	-28.1	-30.2	14.0	1.50e-06	0	44	0	1620049920	16	4560
2026-01-15 22:55:20.64	137.39	13.90	-28.1	-30.2	14.0	9.90e-06	0	44	0	1623195648	16	4585
2026-01-15 22:55:21.65	137.54	13.82	-28.3	-30.6	13.7	6.10e-06	0	43	0	1626341376	16	4708
2026-01-15 22:55:22.65	137.68	13.75	-28.2	-30.4	13.8	2.20e-06	0	44	0	1629487104	16	4644
2026-01-15 22:55:23.65	137.82	13.68	-28.2	-30.4	13.9	3.00e-06	0	44	0	1632632832	16	4640
2026-01-15 22:55:24.65	137.96	13.60	-28.3	-30.6	13.7	4.50e-06	0	44	0	1635778560	16	4703
2026-01-15 22:55:25.66	138.10	13.53	-28.2	-30.4	13.9	1.50e-06	0	44	0	1638924288	16	4643
2026-01-15 22:55:26.66	138.25	13.46	-28.2	-30.4	13.8	1.44e-05	0	44	0	1642070016	16	4650
2026-01-15 22:55:27.66	138.38	13.39	-28.2	-30.5	13.8	6.10e-06	0	44	0	1645215744	16	4667
2026-01-15 22:55:28.65	138.52	13.31	-28.2	-30.4	13.8	4.50e-06	0	44	0	1648361472	16	4656
2026-01-15 22:55:29.65	138.66	13.24	-28.1	-30.2	14.0	5.30e-06	0	44	0	1651507200	16	4569
2026-01-15 22:55:30.65	138.80	13.17	-28.1	-30.3	13.9	1.50e-06	0	44	0	1654652928	16	4601
2026-01-15 22:55:31.66	138.94	13.10	-28.2	-30.4	13.8	2.20e-06	0	44	0	1657798656	16	4631
2026-01-15 22:55:32.67	139.07	13.02	-28.2	-30.4	13.8	1.14e-05	0	44	0	1660944384	16	4647
2026-01-15 22:55:33.67	139.21	12.95	-28.2	-30.5	13.7	1.50e-06	0	44	0	1664090112	16	4674
2026-01-15 22:55:34.66	139.34	12.88	-28.1	-30.1	13.9	5.30e-04	0	44	0	1667235840	16	4562
2026-01-15 22:55:35.66	139.48	12.81	-28.2	-30.4	13.8	3.80e-06	0	44	0	1670381568	16	4631
2026-01-15 22:55:36.66	139.61	12.74	-28.3	-30.7	13.7	6.10e-06	0	44	0	1673527296	16	4730
2026-01-15 22:55:37.66	139.74	12.66	-28.3	-30.7	13.6	4.50e-06	0	44	0	1676673024	16	4729
2026-01-15 22:55:38.67	139.88	12.59	-28.2	-30.5	13.7	8.30e-06	0	44	0	1679818752	16	4675
2026-01-15 22:55:39.67	140.01	12.52	-28.4	-30.8	13.5	1.60e-03	0	44	0	1682964480	16	4781
2026-01-15 22:55:40.67	140.14	12.45	-28.3	-30.8	13.5	1.29e-05	0	44	0	1686110208	16	4771
2026-01-15 22:55:41.68	140.27	12.38	-28.3	-30.7	13.5	6.10e-06	0	44	0	1689255936	16	4754
2026-01-15 22:55:42.68	140.40	12.30	-28.3	-30.8	13.5	1.06e-05	0	44	0	1692401664	16	4767
2026-01-15 22:55:43.68	140.53	12.23	-28.3	-30.7	13.6	5.92e-04	0	44	0	1695547392	16	4727
2026-01-15 22:55:44.68	140.66	12.16	-28.2	-30.4	13.7	3.00e-06	0	44	0	1698693120	16	4653
2026-01-15 22:55:45.69	140.79	12.09	-28.3	-30.8	13.5	5.32e-04	0	43	0	1701838848	16	4767
2026-01-15 22:55:46.69	140.92	12.02	-28.3	-30.7	13.5	1.29e-05	0	44	0	1704984576	16	4756
2026-01-15 22:55:47.69	141.05	11.95	-28.4	-31.0	13.3	1.14e-05	0	44	0	1708130304	16	4835
2026-01-15 22:55:48.70	141.17	11.88	-28.3	-30.3	13.4	1.06e-03	0	44	0	1711276032	17	4508
2026-01-15 22:55:49.71	141.30	11.80	-28.4	-30.8	13.4	1.15e-03	0	44	0	1714421760	16	4785
2026-01-15 22:55:50.70	141.42	11.73	-28.5	-31.2	13.1	2.21e-05	0	44	0	1717567488	16	4912
2026-01-15 22:55:51.71	141.55	11.66	-28.6	-30.9	13.0	1.41e-03	0	44	0	1720713216	17	4693
2026-01-15 22:55:52.71	141.67	11.59	-28.6	-31.0	12.9	5.56e-05	0	44	0	1723858944	17	4752
2026-01-15 22:55:53.72	141.80	11.52	-28.5	-30.8	13.0	5.26e-05	0	44	0	1727004672	17	4669
2026-01-15 22:55:54.71	141.92	11.45	-28.4	-31.1	13.1	1.67e-03	0	44	0	1730150400	16	4884
2026-01-15 22:55:55.71	142.04	11.38	-28.5	-30.9	12.9	1.90e-03	0	44	0	1732247552	17	4713
2026-01-15 22:55:56.71	142.17	11.31	-28.5	-30.8	12.9	3.66e-05	0	43	0	1735393280	17	4686
2026-01-15 22:55:57.71	142.29	11.24	-28.6	-31.1	12.7	2.94e-03	0	44	0	1738539008	17	4781
2026-01-15 22:55:58.71	142.41	11.17	-28.7	-31.3	12.6	3.14e-03	0	43	0	1741684736	17	4862
2026-01-15 22:55:59.71	142.53	11.10	-28.7	-31.3	12.6	8.46e-05	0	44	0	1744830464	17	4852
2026-01-15 22:56:00.72	142.65	11.03	-28.7	-31.3	12.5	3.02e-03	0	44	0	1747976192	17	4872
2026-01-15 22:56:01.72	142.77	10.96	-28.5	-30.8	12.8	2.52e-03	0	44	0	1751121920	17	4706
2026-01-15 22:56:02.72	142.89	10.89	-28.5	-30.9	12.9	4.88e-05	0	44	0	1754267648	17	4712
2026-01-15 22:56:03.72	143.00	10.82	-28.6	-31.1	12.7	6.86e-05	0	44	0	1757413376	17	4775
2026-01-15 22:56:04.73	143.12	10.75	-28.6	-31.0	12.8	1.19e-03	0	44	0	1760559104	17	4765
2026-01-15 22:56:05.73	143.24	10.68	-28.8	-31.4	12.5	7.70e-05	0	43	0	1763704832	17	4900
2026-01-15 22:56:06.74	143.36	10.61	-28.9	-31.7	12.3	1.22e-03	0	44	0	1766850560	17	5011
2026-01-15 22:56:07.74	143.47	10.54	-28.7	-31.4	12.5	1.27e-04	0	44	0	1769996288	17	4894
2026-01-15 22:56:08.74	143.59	10.47	-28.6	-31.1	12.7	7.70e-05	0	44	0	1773142016	17	4781
2026-01-15 22:56:09.74	143.70	10.40	-28.5	-30.7	12.9	1.89e-03	0	44	0	1776287744	17	4663
2026-01-15 22:56:10.74	143.82	10.33	-28.6	-31.2	12.6	2.05e-03	0	44	0	1779433472	17	4817
2026-01-15 22:56:11.74	143.93	10.26	-28.6	-31.1	12.7	9.53e-05	0	44	0	1782579200	17	4794
2026-01-15 22:56:12.74	144.04	10.19	-28.5	-30.9	12.8	4.73e-05	0	44	0	1785724928	17	4748
2026-01-15 22:56:13.75	144.16	10.12	-28.5	-30.9	12.8	6.71e-05	0	44	0	1788870656	17	4745
2026-01-15 22:56:14.74	144.27	10.06	-28.5	-30.8	12.9	4.50e-05	0	44	0	1792016384	17	4691
2026-01-15 22:56:15.75	144.38	9.99	-28.6	-31.1	12.7	3.71e-03	0	44	0	1795162112	17	4800
2026-01-15 22:56:16.75	144.49	9.92	-28.5	-30.8	12.8	7.55e-05	0	44	0	1798307840	17	4689
2026-01-15 22:56:17.75	144.60	9.85	-28.4	-30.7	12.9	4.88e-05	0	43	0	1801453568	17	4655
2026-01-15 22:56:18.75	144.71	9.78	-28.4	-31.2	12.9	5.11e-05	0	44	0	1804599296	16	4940
2026-01-15 22:56:19.74	144.82	9.71	-28.6	-31.1	12.7	7.85e-05	0	44	0	1807745024	17	4783
2026-01-15 22:56:20.75	144.93	9.65	-28.6	-31.0	12.7	1.59e-04	0	44	0	1810890752	17	4765
2026-01-15 22:56:21.75	145.04	9.58	-28.6	-31.0	12.7	4.73e-05	0	44	0	1814036480	17	4749
2026-01-15 22:56:22.76	145.15	9.51	-28.8	-31.5	12.4	1.46e-04	0	44	0	1817182208	17	4912
2026-01-15 22:56:23.76	145.26	9.44	-28.7	-31.2	12.7	7.24e-05	0	44	0	1820327936	17	4804
2026-01-15 22:56:24.75	145.36	9.37	-29.0	-31.9	12.1	1.82e-04	0	44	0	1823473664	17	5071
2026-01-15 22:56:25.75	145.47	9.31	-28.7	-31.3	12.5	3.88e-03	0	44	0	1826619392	17	4868
2026-01-15 22:56:26.75	145.58	9.24	-28.8	-31.5	12.5	1.40e-04	0	44	0	1829765120	17	4919
2026-01-15 22:56:27.75	145.68	9.17	-28.7	-31.3	12.5	1.23e-04	0	44	0	1832910848	17	4883
2026-01-15 22:56:28.75	145.79	9.10	-29.1	-31.8	12.0	3.17e-04	0	44	0	1836056576	18	4930
2026-01-15 22:56:29.74	145.89	9.04	-29.0	-31.6	12.0	3.45e-04	0	44	0	1839202304	18	4868
2026-01-15 22:56:30.74	146.00	8.97	-28.7	-31.6	12.3	1.40e-04	0	43	0	1842348032	17	4988
2026-01-15 22:56:31.74	146.10	8.90	-28.9	-32.1	12.0	1.91e-04	0	44	0	1845493760	17	5155
2026-01-15 22:56:32.75	146.20	8.84	-28.9	-31.5	12.1	3.65e-04	0	44	0	1848639488	18	4844
2026-01-15 22:56:33.75	146.31	8.77	-29.0	-31.9	11.8	4.13e-04	0	44	0	1851785216	18	4992
2026-01-15 22:56:34.76	146.41	8.70	-29.1	-32.0	11.7	6.78e-04	0	44	0	1854930944	18	5034
2026-01-15 22:56:35.76	146.51	8.64	-28.7	-31.5	12.4	1.62e-04	0	44	0	1858076672	17	4954
2026-01-15 22:56:36.76	146.62	8.57	-28.9	-32.0	12.0	2.52e-04	0	44	0	1861222400	17	5135
2026-01-15 22:56:37.76	146.72	8.50	-28.9	-31.9	12.0	3.00e-04	0	44	0	1864368128	17	5116
2026-01-15 22:56:38.76	146.82	8.44	-28.8	-31.7	12.2	1.77e-04	0	44	0	1867513856	17	5034
2026-01-15 22:56:39.77	146.92	8.37	-28.8	-31.8	12.1	2.95e-04	0	44	0	1870659584	17	5088
2026-01-15 22:56:40.76	147.02	8.30	-28.6	-31.2	12.4	1.50e-04	0	44	0	1873805312	17	4892
2026-01-15 22:56:41.76	147.12	8.24	-28.7	-31.7	12.1	2.49e-04	0	44	0	1876951040	17	5064
2026-01-15 22:56:42.76	147.22	8.17	-28.7	-31.7	12.1	2.65e-04	0	44	0	1880096768	17	5066
2026-01-15 22:56:43.76	147.31	8.11	-28.8	-32.0	11.8	4.25e-04	0	44	0	1883242496	17	5200
2026-01-15 22:56:44.76	147.41	8.04	-28.6	-31.5	12.1	2.63e-04	0	44	0	1886388224	17	5031
2026-01-15 22:56:45.76	147.51	7.97	-28.5	-31.2	12.4	1.37e-04	0	44	0	1889533952	17	4888
2026-01-15 22:56:46.76	147.61	7.91	-28.8	-31.8	12.0	2.68e-04	0	43	0	1892679680	17	5108
2026-01-15 22:56:47.76	147.70	7.84	-28.9	-32.2	11.8	3.80e-04	0	44	0	1895825408	17	5234
2026-01-15 22:56:48.76	147.80	7.78	-28.7	-31.8	11.9	5.94e-04	0	44	0	1898971136	17	5098
2026-01-15 22:56:49.77	147.90	7.71	-28.7	-31.6	12.1	3.36e-04	0	44	0	1902116864	17	5037
2026-01-15 22:56:50.77	147.99	7.65	-29.1	-32.2	11.4	8.21e-04	0	44	0	1905262592	18	5150
2026-01-15 22:56:51.77	148.09	7.58	-28.9	-31.8	11.7	5.68e-04	0	44	0	1908408320	18	4971
2026-01-15 22:56:52.78	148.19	7.52	-29.1	-32.1	11.5	9.25e-04	0	44	0	1911554048	18	5104
2026-01-15 22:56:53.78	148.28	7.45	-28.8	-31.5	11.8	8.57e-04	0	44	0	1914699776	18	4909
2026-01-15 22:56:54.78	148.37	7.39	-28.9	-32.5	11.4	6.19e-04	0	43	0	1917845504	17	5403
2026-01-15 22:56:55.77	148.47	7.32	-28.7	-31.9	11.8	4.66e-04	0	44	0	1919942656	17	5190
2026-01-15 22:56:56.78	148.56	7.26	-29.0	-32.3	11.2	1.44e-03	0	44	0	1924136960	18	5261
2026-01-15 22:56:57.78	148.65	7.19	-28.6	-31.8	11.7	5.77e-04	0	44	0	1927282688	17	5207
2026-01-15 22:56:58.78	148.75	7.13	-28.8	-32.3	11.4	6.24e-04	0	44	0	1930428416	17	5412
2026-01-15 22:56:59.78	148.84	7.06	-32.1	-44.5	3.8	1.39e+00	0	44	104	1931476992	24	15038
2026-01-15 22:57:00.79	148.93	7.00	-33.4	-45.6	3.8	1.49e+00	0	44	104	1931476992	26	14769

#Closed at: 2026-01-15 22:57:01
#Recorded file [1931 MB]: D:/data/31010_260116_014640.dat