passes_logs/2026/01/15/R2M6_AANII_01/R2M6_AANII_01__20260115_003424_FENGYUN_3D_rec.log

#Pass ID: 20260115_003424_FENGYUN 3D
#Satellite: FENGYUN 3D
#Configuration: FENGYUN 3D
#almurnet v.1.7.20240730
#Start time: 2026-01-15 00:34:24

#Version: 2.2.20231116
#Station: R2M6_AANII_01
#Location: 30.233357 lon 59.946436 lat
#TLE: 1 43010U 17072A   26014.22831475  .00000226  00000+0  12883-3 0  9994
#TLE: 2 43010  98.9934 346.0326 0002309 109.2304 250.9121 14.19696287423146

#Time	Az	El	Level	Level2	SNR	BER	BlckErr	Temp	State	Recorded	gain1	gain2
2026-01-15 00:34:24.97	33.50	7.03	-29.3	-32.1	5.6	7.60e-01	0	41	0	0	18	5001
2026-01-15 00:34:25.97	33.61	7.09	-30.8	-35.1	5.1	7.87e-01	0	41	104	0	21	5895
2026-01-15 00:34:26.97	33.72	7.15	-30.5	-34.1	8.8	3.14e-02	0	41	0	0	21	5454
2026-01-15 00:34:27.97	33.83	7.21	-30.8	-34.9	8.3	3.66e-02	0	41	0	5242880	21	5762
2026-01-15 00:34:28.98	33.94	7.26	-30.5	-33.9	9.0	3.17e-02	0	41	0	11534336	21	5353
2026-01-15 00:34:29.99	34.05	7.32	-30.1	-32.8	9.7	1.16e-02	0	41	0	16777216	21	4926
2026-01-15 00:34:30.99	34.16	7.38	-29.9	-32.8	10.1	5.24e-03	0	41	0	22020096	20	5018
2026-01-15 00:34:31.99	34.27	7.44	-29.5	-31.7	10.8	3.36e-03	0	41	0	28311552	20	4638
2026-01-15 00:34:33.00	34.38	7.49	-29.2	-31.4	11.5	1.07e-03	0	41	0	33554432	19	4640
2026-01-15 00:34:34.01	34.49	7.55	-29.0	-31.4	11.8	3.83e-04	0	41	0	38797312	18	4742
2026-01-15 00:34:35.01	34.61	7.61	-28.9	-31.0	12.1	1.82e-04	0	41	0	45088768	18	4605
2026-01-15 00:34:36.02	34.72	7.67	-28.5	-30.1	12.6	3.02e-04	0	41	0	50331648	18	4340
2026-01-15 00:34:37.02	34.83	7.73	-28.3	-30.2	12.9	2.48e-04	0	41	0	56623104	17	4470
2026-01-15 00:34:38.02	34.95	7.78	-28.4	-30.4	12.8	2.15e-04	0	42	0	61865984	17	4521
2026-01-15 00:34:39.03	35.06	7.84	-28.5	-30.5	12.7	4.06e-04	0	42	0	67108864	17	4569
2026-01-15 00:34:40.03	35.17	7.90	-27.9	-29.3	13.4	1.91e-04	0	42	0	73400320	17	4204
2026-01-15 00:34:41.04	35.29	7.96	-27.7	-29.1	13.9	4.57e-05	0	41	0	78643200	16	4261
2026-01-15 00:34:42.04	35.41	8.02	-27.1	-28.3	14.5	1.44e-04	0	42	0	84934656	15	4142
2026-01-15 00:34:43.05	35.52	8.08	-26.9	-28.0	14.7	0.00e+00	0	42	0	90177536	15	4058
2026-01-15 00:34:44.05	35.64	8.13	-27.0	-28.0	14.6	0.00e+00	0	42	0	95420416	15	4074
2026-01-15 00:34:45.05	35.75	8.19	-27.1	-28.5	14.4	0.00e+00	0	42	0	101711872	15	4192
2026-01-15 00:34:46.05	35.87	8.25	-27.0	-28.1	14.6	0.00e+00	0	42	0	106954752	15	4097
2026-01-15 00:34:47.06	35.99	8.31	-27.0	-28.2	14.5	0.00e+00	0	42	0	112197632	15	4129
2026-01-15 00:34:48.06	36.11	8.37	-27.2	-28.5	14.4	0.00e+00	0	42	0	118489088	15	4194
2026-01-15 00:34:49.06	36.22	8.43	-27.2	-28.5	14.4	9.61e-05	0	42	0	123731968	15	4197
2026-01-15 00:34:50.06	36.34	8.48	-27.2	-28.6	14.3	1.48e-05	0	42	0	128974848	15	4228
2026-01-15 00:34:51.06	36.46	8.54	-27.4	-29.1	14.1	1.34e-04	0	42	0	135266304	15	4375
2026-01-15 00:34:52.05	36.58	8.60	-27.1	-28.3	14.6	0.00e+00	0	42	0	140509184	15	4133
2026-01-15 00:34:53.05	36.70	8.66	-27.3	-28.8	14.2	1.51e-04	0	42	0	146800640	15	4279
2026-01-15 00:34:54.06	36.82	8.72	-27.1	-28.4	14.5	1.23e-04	0	42	0	152043520	15	4159
2026-01-15 00:34:55.06	36.94	8.78	-26.9	-28.0	14.7	0.00e+00	0	42	0	157286400	15	4053
2026-01-15 00:34:56.06	37.06	8.83	-27.2	-28.5	14.5	1.48e-05	0	42	0	163577856	15	4191
2026-01-15 00:34:57.06	37.19	8.89	-27.0	-28.1	14.6	0.00e+00	0	42	0	168820736	15	4095
2026-01-15 00:34:58.06	37.31	8.95	-26.9	-27.9	14.8	0.00e+00	0	42	0	174063616	15	4038
2026-01-15 00:34:59.07	37.43	9.01	-27.0	-28.2	14.6	6.80e-06	0	42	0	180355072	15	4114
2026-01-15 00:35:00.07	37.56	9.07	-27.0	-28.1	14.7	5.37e-05	0	42	0	185597952	15	4094
2026-01-15 00:35:01.07	37.68	9.13	-27.1	-28.4	14.5	0.00e+00	0	42	0	191889408	15	4167
2026-01-15 00:35:02.07	37.80	9.19	-27.2	-28.5	14.4	1.28e-04	0	42	0	197132288	15	4203
2026-01-15 00:35:03.08	37.93	9.24	-27.0	-28.0	14.7	0.00e+00	0	42	0	202375168	15	4066
2026-01-15 00:35:04.08	38.05	9.30	-26.9	-27.8	14.9	0.00e+00	0	42	0	208666624	15	4017
2026-01-15 00:35:05.08	38.18	9.36	-26.8	-28.2	14.9	2.01e-04	0	42	0	213909504	14	4232
2026-01-15 00:35:06.09	38.31	9.42	-26.8	-28.2	14.9	0.00e+00	0	42	0	220200960	14	4220
2026-01-15 00:35:07.10	38.44	9.48	-26.9	-28.4	14.8	0.00e+00	0	42	0	225443840	14	4276
2026-01-15 00:35:08.10	38.56	9.54	-27.0	-28.7	14.6	0.00e+00	0	42	0	230686720	14	4356
2026-01-15 00:35:09.11	38.69	9.60	-26.8	-28.1	15.0	1.49e-04	0	42	0	236978176	14	4205
2026-01-15 00:35:10.11	38.82	9.66	-26.7	-27.9	15.1	0.00e+00	0	42	0	242221056	14	4126
2026-01-15 00:35:11.11	38.95	9.72	-26.6	-27.8	15.2	0.00e+00	0	42	0	247463936	14	4107
2026-01-15 00:35:12.12	39.08	9.78	-27.0	-28.6	14.7	0.00e+00	0	42	0	253755392	14	4337
2026-01-15 00:35:13.12	39.21	9.83	-26.9	-28.4	14.9	0.00e+00	0	42	0	258998272	14	4265
2026-01-15 00:35:14.13	39.34	9.89	-26.8	-28.1	15.0	1.94e-05	0	43	0	265289728	14	4197
2026-01-15 00:35:15.13	39.47	9.95	-26.8	-28.0	15.1	0.00e+00	0	42	0	270532608	14	4172
2026-01-15 00:35:16.14	39.60	10.01	-26.6	-27.8	15.2	0.00e+00	0	42	0	275775488	14	4098
2026-01-15 00:35:17.14	39.73	10.07	-26.6	-27.6	15.3	0.00e+00	0	43	0	282066944	14	4050
2026-01-15 00:35:18.14	39.87	10.13	-26.6	-27.6	15.3	0.00e+00	0	42	0	287309824	14	4068
2026-01-15 00:35:19.14	40.00	10.19	-26.4	-27.2	15.6	0.00e+00	0	42	0	293601280	14	3955
2026-01-15 00:35:20.15	40.13	10.25	-26.3	-27.1	15.6	0.00e+00	0	42	0	298844160	14	3921
2026-01-15 00:35:21.15	40.27	10.31	-26.3	-27.6	15.6	0.00e+00	0	42	0	304087040	13	4170
2026-01-15 00:35:22.15	40.40	10.37	-26.2	-27.2	15.8	0.00e+00	0	42	0	310378496	13	4054
2026-01-15 00:35:23.15	40.54	10.42	-26.1	-27.2	15.8	0.00e+00	0	42	0	315621376	13	4046
2026-01-15 00:35:24.15	40.67	10.48	-26.3	-27.5	15.7	0.00e+00	0	43	0	320864256	13	4135
2026-01-15 00:35:25.16	40.81	10.54	-26.2	-27.3	15.8	0.00e+00	0	43	0	327155712	13	4070
2026-01-15 00:35:26.16	40.95	10.60	-26.2	-27.2	15.8	0.00e+00	0	43	0	332398592	13	4060
2026-01-15 00:35:27.17	41.08	10.66	-26.4	-27.8	15.5	0.00e+00	0	43	0	338690048	13	4211
2026-01-15 00:35:28.18	41.22	10.72	-26.4	-27.7	15.6	0.00e+00	0	43	0	343932928	13	4186
2026-01-15 00:35:29.18	41.36	10.78	-26.3	-27.6	15.6	0.00e+00	0	42	0	349175808	13	4163
2026-01-15 00:35:30.18	41.50	10.84	-26.5	-27.9	15.4	0.00e+00	0	43	0	355467264	13	4258
2026-01-15 00:35:31.19	41.64	10.90	-26.5	-27.9	15.5	0.00e+00	0	43	0	360710144	13	4241
2026-01-15 00:35:32.20	41.78	10.96	-26.5	-28.0	15.5	0.00e+00	0	43	0	367001600	13	4262
2026-01-15 00:35:33.20	41.92	11.02	-26.3	-27.6	15.7	0.00e+00	0	42	0	372244480	13	4150
2026-01-15 00:35:34.20	42.06	11.08	-26.4	-27.8	15.6	0.00e+00	0	43	0	377487360	13	4204
2026-01-15 00:35:35.19	42.20	11.13	-26.5	-27.9	15.5	0.00e+00	0	42	0	383778816	13	4236
2026-01-15 00:35:36.19	42.34	11.19	-26.3	-27.6	15.7	0.00e+00	0	43	0	389021696	13	4153
2026-01-15 00:35:37.20	42.49	11.25	-26.3	-27.6	15.6	0.00e+00	0	43	0	394264576	13	4167
2026-01-15 00:35:38.20	42.63	11.31	-26.3	-27.5	15.7	0.00e+00	0	43	0	400556032	13	4124
2026-01-15 00:35:39.21	42.77	11.37	-26.3	-27.5	15.7	0.00e+00	0	43	0	405798912	13	4133
2026-01-15 00:35:40.21	42.92	11.43	-26.4	-27.7	15.6	0.00e+00	0	43	0	411041792	13	4194
2026-01-15 00:35:41.21	43.06	11.49	-26.5	-28.0	15.4	0.00e+00	0	43	0	417333248	13	4277
2026-01-15 00:35:42.21	43.21	11.55	-26.4	-27.7	15.6	0.00e+00	0	43	0	422576128	13	4193
2026-01-15 00:35:43.21	43.35	11.61	-26.4	-27.7	15.6	0.00e+00	0	43	0	428867584	13	4191
2026-01-15 00:35:44.22	43.50	11.66	-26.3	-27.6	15.7	0.00e+00	0	43	0	434110464	13	4157
2026-01-15 00:35:45.21	43.65	11.72	-26.4	-27.7	15.6	0.00e+00	0	43	0	439353344	13	4194
2026-01-15 00:35:46.21	43.79	11.78	-26.4	-27.8	15.6	0.00e+00	0	43	0	445644800	13	4203
2026-01-15 00:35:47.21	43.94	11.84	-26.4	-27.6	15.7	0.00e+00	0	43	0	450887680	13	4172
2026-01-15 00:35:48.22	44.09	11.90	-26.5	-28.0	15.5	0.00e+00	0	43	0	457179136	13	4264
2026-01-15 00:35:49.22	44.24	11.96	-26.6	-28.3	15.3	0.00e+00	0	43	0	462422016	13	4338
2026-01-15 00:35:50.23	44.39	12.02	-26.4	-27.8	15.6	0.00e+00	0	43	0	467664896	13	4219
2026-01-15 00:35:51.23	44.54	12.08	-26.3	-27.5	15.8	0.00e+00	0	43	0	473956352	13	4126
2026-01-15 00:35:52.23	44.69	12.13	-26.2	-27.3	15.9	0.00e+00	0	43	0	479199232	13	4090
2026-01-15 00:35:53.23	44.84	12.19	-26.2	-27.3	15.9	0.00e+00	0	43	0	484442112	13	4073
2026-01-15 00:35:54.23	45.00	12.25	-26.2	-27.2	16.2	0.00e+00	0	43	0	490733568	13	4037
2026-01-15 00:35:55.23	45.15	12.31	-26.0	-26.9	16.3	0.00e+00	0	43	0	495976448	13	3967
2026-01-15 00:35:56.23	45.30	12.37	-26.0	-26.8	16.3	0.00e+00	0	43	0	502267904	13	3954
2026-01-15 00:35:57.24	45.46	12.43	-26.1	-27.0	16.1	0.00e+00	0	43	0	507510784	13	4009
2026-01-15 00:35:58.24	45.61	12.49	-26.0	-26.8	16.3	0.00e+00	0	43	0	512753664	13	3959
2026-01-15 00:35:59.24	45.77	12.54	-26.0	-26.9	16.3	0.00e+00	0	43	0	519045120	13	3965
2026-01-15 00:36:00.24	45.92	12.60	-26.1	-27.0	16.2	0.00e+00	0	43	0	524288000	13	3990
2026-01-15 00:36:01.25	46.08	12.66	-26.1	-27.0	16.2	0.00e+00	0	43	0	529530880	13	3996
2026-01-15 00:36:02.25	46.24	12.72	-26.1	-27.0	16.2	0.00e+00	0	43	0	535822336	13	3989
2026-01-15 00:36:03.25	46.40	12.78	-26.0	-26.8	16.3	0.00e+00	0	43	0	541065216	13	3943
2026-01-15 00:36:04.26	46.55	12.83	-26.0	-26.9	16.3	0.00e+00	0	43	0	546308096	13	3960
2026-01-15 00:36:05.27	46.71	12.89	-26.0	-26.9	16.1	0.00e+00	0	43	0	552599552	13	3962
2026-01-15 00:36:06.28	46.88	12.95	-26.0	-26.7	16.4	0.00e+00	0	43	0	557842432	13	3920
2026-01-15 00:36:07.28	47.04	13.01	-26.2	-27.2	16.1	0.00e+00	0	43	0	564133888	13	4053
2026-01-15 00:36:08.28	47.20	13.07	-26.1	-27.1	16.2	0.00e+00	0	43	0	569376768	13	4020
2026-01-15 00:36:09.29	47.36	13.13	-26.1	-27.1	16.2	0.00e+00	0	43	0	575668224	13	4021
2026-01-15 00:36:10.29	47.52	13.18	-26.0	-26.9	16.3	0.00e+00	0	43	0	580911104	13	3972
2026-01-15 00:36:11.29	47.68	13.24	-26.0	-26.8	16.3	0.00e+00	0	43	0	586153984	13	3955
2026-01-15 00:36:12.29	47.85	13.30	-26.1	-26.9	16.2	0.00e+00	0	43	0	592445440	13	3982
2026-01-15 00:36:13.29	48.01	13.36	-25.9	-27.1	16.5	2.17e-04	0	43	0	597688320	12	4126
2026-01-15 00:36:14.30	48.17	13.41	-25.8	-26.8	16.6	0.00e+00	0	43	0	602931200	12	4056
2026-01-15 00:36:15.29	48.34	13.47	-25.8	-26.8	16.6	0.00e+00	0	43	0	609222656	12	4057
2026-01-15 00:36:16.30	48.50	13.53	-25.9	-27.2	16.4	0.00e+00	0	43	0	614465536	12	4153
2026-01-15 00:36:17.31	48.67	13.59	-26.1	-27.5	16.2	0.00e+00	0	43	0	619708416	12	4237
2026-01-15 00:36:18.31	48.84	13.64	-25.8	-26.9	16.5	0.00e+00	0	43	0	625999872	12	4090
2026-01-15 00:36:19.31	49.01	13.70	-25.8	-26.8	16.6	0.00e+00	0	43	0	631242752	12	4045
2026-01-15 00:36:20.31	49.17	13.76	-25.7	-26.7	16.7	4.44e-04	0	43	0	637534208	12	4032
2026-01-15 00:36:21.32	49.34	13.81	-25.8	-26.9	16.6	0.00e+00	0	43	0	642777088	12	4068
2026-01-15 00:36:22.32	49.51	13.87	-25.8	-26.8	16.6	4.74e-04	0	43	0	649068544	12	4063
2026-01-15 00:36:23.32	49.68	13.93	-25.8	-26.9	16.6	4.38e-04	0	43	0	654311424	12	4071
2026-01-15 00:36:24.33	49.86	13.98	-25.8	-27.0	16.5	0.00e+00	0	43	0	659554304	12	4094
2026-01-15 00:36:25.33	50.03	14.04	-25.7	-26.7	16.7	3.22e-04	0	43	0	665845760	12	4022
2026-01-15 00:36:26.33	50.20	14.10	-25.7	-27.1	16.8	0.00e+00	0	43	0	671088640	11	4226
2026-01-15 00:36:27.34	50.37	14.15	-25.7	-27.2	16.8	0.00e+00	0	43	0	676331520	11	4258
2026-01-15 00:36:28.34	50.55	14.21	-25.7	-27.1	16.8	0.00e+00	0	43	0	682622976	11	4244
2026-01-15 00:36:29.34	50.72	14.26	-25.8	-27.3	16.7	3.20e-04	0	43	0	687865856	11	4301
2026-01-15 00:36:30.34	50.89	14.32	-25.6	-27.0	16.9	0.00e+00	0	43	0	693108736	11	4214
2026-01-15 00:36:31.35	51.07	14.38	-25.7	-27.1	16.8	3.92e-04	0	43	0	699400192	11	4233
2026-01-15 00:36:32.34	51.24	14.43	-25.8	-27.3	16.7	4.83e-04	0	43	0	704643072	11	4299
2026-01-15 00:36:33.34	51.42	14.49	-25.7	-27.1	16.8	0.00e+00	0	43	0	710934528	11	4233
2026-01-15 00:36:34.35	51.60	14.54	-25.7	-27.1	16.8	4.39e-04	0	43	0	716177408	11	4245
2026-01-15 00:36:35.35	51.78	14.60	-25.7	-27.0	16.9	4.62e-04	0	43	0	721420288	11	4226
2026-01-15 00:36:36.35	51.95	14.65	-25.6	-26.8	17.0	0.00e+00	0	43	0	727711744	11	4166
2026-01-15 00:36:37.36	52.13	14.71	-25.6	-26.9	17.0	5.25e-04	0	43	0	732954624	11	4178
2026-01-15 00:36:38.37	52.32	14.76	-25.6	-27.0	16.9	6.13e-04	0	43	0	739246080	11	4204
2026-01-15 00:36:39.38	52.50	14.82	-25.6	-26.8	17.0	0.00e+00	0	43	0	744488960	11	4167
2026-01-15 00:36:40.38	52.68	14.87	-25.5	-26.7	17.0	0.00e+00	0	43	0	749731840	11	4141
2026-01-15 00:36:41.39	52.86	14.93	-25.5	-26.7	17.1	5.19e-04	0	43	0	756023296	11	4129
2026-01-15 00:36:42.40	53.05	14.98	-25.7	-27.2	16.8	0.00e+00	0	43	0	761266176	11	4275
2026-01-15 00:36:43.40	53.23	15.04	-25.9	-27.6	16.6	4.10e-04	0	43	0	766509056	11	4370
2026-01-15 00:36:44.40	53.41	15.09	-25.8	-27.3	16.7	3.18e-04	0	43	0	772800512	11	4304
2026-01-15 00:36:45.40	53.60	15.15	-25.9	-27.6	16.6	0.00e+00	0	43	0	778043392	11	4368
2026-01-15 00:36:46.40	53.78	15.20	-25.7	-27.2	16.8	3.60e-04	0	43	0	784334848	11	4274
2026-01-15 00:36:47.41	53.97	15.25	-25.8	-27.3	16.7	0.00e+00	0	43	0	789577728	11	4289
2026-01-15 00:36:48.41	54.15	15.31	-25.7	-27.2	16.8	0.00e+00	0	43	0	794820608	11	4259
2026-01-15 00:36:49.41	54.34	15.36	-25.6	-27.0	16.9	0.00e+00	0	43	0	801112064	11	4204
2026-01-15 00:36:50.42	54.53	15.41	-25.7	-27.1	16.8	5.02e-04	0	43	0	806354944	11	4246
2026-01-15 00:36:51.42	54.72	15.47	-25.5	-26.6	17.1	0.00e+00	0	43	0	812646400	11	4104
2026-01-15 00:36:52.42	54.90	15.52	-25.4	-26.4	17.2	0.00e+00	0	43	0	817889280	11	4070
2026-01-15 00:36:53.43	55.10	15.57	-25.4	-26.4	17.3	5.46e-04	0	43	0	823132160	11	4058
2026-01-15 00:36:54.43	55.29	15.62	-25.4	-26.4	17.3	0.00e+00	0	43	0	829423616	11	4046
2026-01-15 00:36:55.44	55.48	15.68	-25.4	-26.5	17.2	5.17e-04	0	43	0	834666496	11	4086
2026-01-15 00:36:56.45	55.67	15.73	-25.6	-26.8	17.0	0.00e+00	0	43	0	839909376	11	4170
2026-01-15 00:36:57.45	55.86	15.78	-25.6	-27.0	16.9	0.00e+00	0	43	0	846200832	11	4205
2026-01-15 00:36:58.46	56.06	15.83	-25.7	-27.0	16.9	0.00e+00	0	43	0	851443712	11	4215
2026-01-15 00:36:59.46	56.25	15.88	-25.7	-27.1	16.9	0.00e+00	0	43	0	857735168	11	4231
2026-01-15 00:37:00.46	56.44	15.94	-25.6	-27.0	16.9	0.00e+00	0	43	0	862978048	11	4210
2026-01-15 00:37:01.46	56.64	15.99	-25.6	-27.0	17.0	0.00e+00	0	43	0	868220928	11	4204
2026-01-15 00:37:02.47	56.84	16.04	-25.5	-26.7	17.1	0.00e+00	0	43	0	874512384	11	4134
2026-01-15 00:37:03.47	57.03	16.09	-25.6	-26.9	16.9	0.00e+00	0	43	0	879755264	11	4187
2026-01-15 00:37:04.47	57.23	16.14	-25.6	-26.9	17.0	0.00e+00	0	43	0	886046720	11	4170
2026-01-15 00:37:05.47	57.42	16.19	-25.6	-26.9	17.0	0.00e+00	0	43	0	891289600	11	4193
2026-01-15 00:37:06.48	57.62	16.24	-25.7	-27.1	16.9	0.00e+00	0	43	0	896532480	11	4230
2026-01-15 00:37:07.49	57.82	16.29	-25.5	-26.6	17.2	0.00e+00	0	43	0	902823936	11	4097
2026-01-15 00:37:08.50	58.03	16.34	-25.3	-26.3	17.3	0.00e+00	0	43	0	908066816	11	4034
2026-01-15 00:37:09.50	58.22	16.39	-25.3	-26.3	17.4	0.00e+00	0	43	0	914358272	11	4028
2026-01-15 00:37:10.50	58.42	16.44	-25.3	-26.8	17.3	0.00e+00	0	43	0	919601152	10	4261
2026-01-15 00:37:11.50	58.63	16.49	-25.3	-26.7	17.4	0.00e+00	0	43	0	924844032	10	4239
2026-01-15 00:37:12.51	58.83	16.54	-25.3	-26.7	17.4	0.00e+00	0	43	0	931135488	10	4245
2026-01-15 00:37:13.51	59.03	16.58	-25.3	-26.8	17.3	0.00e+00	0	43	0	936378368	10	4268
2026-01-15 00:37:14.51	59.23	16.63	-25.3	-26.8	17.3	0.00e+00	0	43	0	941621248	10	4263
2026-01-15 00:37:15.51	59.44	16.68	-25.4	-26.9	17.3	0.00e+00	0	43	0	947912704	10	4304
2026-01-15 00:37:16.51	59.64	16.73	-25.3	-26.8	17.3	0.00e+00	0	43	0	953155584	10	4266
2026-01-15 00:37:17.52	59.85	16.77	-25.2	-26.5	17.5	0.00e+00	0	43	0	959447040	10	4197
2026-01-15 00:37:18.53	60.06	16.82	-25.2	-26.6	17.4	0.00e+00	0	43	0	964689920	10	4225
2026-01-15 00:37:19.52	60.26	16.87	-25.2	-26.6	17.4	0.00e+00	0	43	0	969932800	10	4225
2026-01-15 00:37:20.53	60.47	16.92	-25.1	-26.4	17.6	0.00e+00	0	43	0	976224256	10	4156
2026-01-15 00:37:21.53	60.68	16.96	-25.1	-26.4	17.6	0.00e+00	0	43	0	981467136	10	4164
2026-01-15 00:37:22.53	60.88	17.01	-25.2	-26.6	17.4	0.00e+00	0	43	0	987758592	10	4218
2026-01-15 00:37:23.54	61.09	17.05	-25.3	-26.7	17.4	0.00e+00	0	43	0	993001472	10	4246
2026-01-15 00:37:24.54	61.30	17.10	-25.4	-27.0	17.3	0.00e+00	0	43	0	998244352	10	4318
2026-01-15 00:37:25.54	61.51	17.14	-25.3	-26.7	17.4	0.00e+00	0	43	0	1004535808	10	4245
2026-01-15 00:37:26.55	61.72	17.19	-25.3	-26.7	17.4	0.00e+00	0	43	0	1009778688	10	4234
2026-01-15 00:37:27.55	61.94	17.23	-25.2	-26.6	17.4	0.00e+00	0	43	0	1015021568	10	4222
2026-01-15 00:37:28.56	62.15	17.28	-25.3	-26.8	17.4	0.00e+00	0	43	0	1021313024	10	4262
2026-01-15 00:37:29.57	62.36	17.32	-25.3	-26.7	17.4	0.00e+00	0	43	0	1026555904	10	4251
2026-01-15 00:37:30.57	62.58	17.37	-25.2	-26.6	17.5	0.00e+00	0	43	0	1032847360	10	4214
2026-01-15 00:37:31.57	62.79	17.41	-25.4	-27.0	17.3	0.00e+00	0	43	0	1038090240	10	4321
2026-01-15 00:37:32.58	63.01	17.45	-25.5	-26.6	17.2	0.00e+00	0	43	0	1043333120	11	4109
2026-01-15 00:37:33.58	63.22	17.50	-25.3	-26.3	17.4	0.00e+00	0	43	0	1049624576	11	4023
2026-01-15 00:37:34.58	63.44	17.54	-25.2	-26.0	17.5	0.00e+00	0	43	0	1054867456	11	3966
2026-01-15 00:37:35.58	63.65	17.58	-25.1	-26.4	17.6	0.00e+00	0	43	0	1061158912	10	4169
2026-01-15 00:37:36.58	63.87	17.62	-25.0	-26.1	17.7	0.00e+00	0	43	0	1066401792	10	4081
2026-01-15 00:37:37.59	64.09	17.67	-24.9	-25.8	17.9	0.00e+00	0	43	0	1071644672	10	4013
2026-01-15 00:37:38.59	64.30	17.71	-24.9	-26.0	17.8	0.00e+00	0	43	0	1077936128	10	4054
2026-01-15 00:37:39.59	64.52	17.75	-24.9	-26.0	17.8	0.00e+00	0	43	0	1083179008	10	4054
2026-01-15 00:37:40.60	64.74	17.79	-24.9	-26.0	17.8	0.00e+00	0	43	0	1088421888	10	4062
2026-01-15 00:37:41.60	64.96	17.83	-25.0	-26.2	17.7	0.00e+00	0	43	0	1094713344	10	4112
2026-01-15 00:37:42.61	65.18	17.87	-25.2	-26.5	17.6	0.00e+00	0	43	0	1099956224	10	4179
2026-01-15 00:37:43.61	65.41	17.91	-25.0	-26.2	17.7	0.00e+00	0	43	0	1105199104	10	4112
2026-01-15 00:37:44.62	65.63	17.95	-25.0	-26.1	17.7	0.00e+00	0	43	0	1111490560	10	4098
2026-01-15 00:37:45.63	65.85	17.99	-25.1	-26.2	17.7	0.00e+00	0	43	0	1116733440	10	4122
2026-01-15 00:37:46.63	66.07	18.03	-25.3	-26.7	17.4	0.00e+00	0	43	0	1123024896	10	4247
2026-01-15 00:37:47.63	66.30	18.06	-25.3	-26.7	17.4	0.00e+00	0	43	0	1128267776	10	4232
2026-01-15 00:37:48.63	66.52	18.10	-25.4	-26.9	17.3	0.00e+00	0	43	0	1134559232	10	4295
2026-01-15 00:37:49.63	66.74	18.14	-25.3	-26.3	17.4	0.00e+00	0	43	0	1139802112	11	4021
2026-01-15 00:37:50.63	66.97	18.18	-25.1	-25.8	17.6	0.00e+00	0	43	0	1145044992	11	3922
2026-01-15 00:37:51.63	67.19	18.21	-25.0	-25.6	17.7	0.00e+00	0	43	0	1151336448	11	3871
2026-01-15 00:37:52.63	67.42	18.25	-25.0	-25.7	17.7	2.00e-04	0	43	0	1156579328	11	3877
2026-01-15 00:37:53.64	67.65	18.29	-25.0	-25.6	17.7	0.00e+00	0	43	0	1161822208	11	3869
2026-01-15 00:37:54.64	67.87	18.32	-25.0	-25.5	17.8	1.98e-04	0	43	0	1168113664	11	3845
2026-01-15 00:37:55.64	68.10	18.36	-25.0	-25.7	17.7	0.00e+00	0	43	0	1173356544	11	3887
2026-01-15 00:37:56.64	68.33	18.39	-25.0	-25.7	17.7	0.00e+00	0	43	0	1178599424	11	3874
2026-01-15 00:37:57.65	68.56	18.43	-24.9	-25.3	17.9	1.10e-06	0	43	0	1184890880	11	3787
2026-01-15 00:37:58.65	68.79	18.46	-24.8	-25.2	18.0	0.00e+00	0	43	0	1190133760	11	3763
2026-01-15 00:37:59.65	69.02	18.49	-24.8	-25.6	18.0	0.00e+00	0	43	0	1196425216	10	3963
2026-01-15 00:38:00.65	69.24	18.53	-24.8	-25.6	18.0	0.00e+00	0	43	0	1201668096	10	3967
2026-01-15 00:38:01.67	69.48	18.56	-24.8	-25.8	17.9	9.72e-05	0	43	0	1207959552	10	4008
2026-01-15 00:38:02.67	69.71	18.59	-24.9	-25.8	17.9	0.00e+00	0	43	0	1213202432	10	4010
2026-01-15 00:38:03.68	69.94	18.63	-24.9	-25.8	17.9	1.96e-04	0	44	0	1218445312	10	4014
2026-01-15 00:38:04.67	70.17	18.66	-24.9	-25.9	17.9	1.23e-04	0	43	0	1224736768	10	4036
2026-01-15 00:38:05.67	70.40	18.69	-24.9	-25.9	17.9	0.00e+00	0	43	0	1229979648	10	4048
2026-01-15 00:38:06.68	70.64	18.72	-24.9	-25.9	17.9	2.20e-06	0	43	0	1235222528	10	4043
2026-01-15 00:38:07.68	70.87	18.75	-24.9	-26.0	17.8	0.00e+00	0	44	0	1241513984	10	4056
2026-01-15 00:38:08.69	71.11	18.78	-24.9	-25.9	17.8	0.00e+00	0	44	0	1246756864	10	4050
2026-01-15 00:38:09.69	71.34	18.81	-25.0	-26.1	17.8	4.46e-05	0	43	0	1251999744	10	4099
2026-01-15 00:38:10.70	71.58	18.84	-24.9	-25.8	17.9	5.26e-05	0	43	0	1258291200	10	4020
2026-01-15 00:38:11.71	71.81	18.87	-24.7	-25.4	18.1	0.00e+00	0	43	0	1263534080	10	3926
2026-01-15 00:38:12.71	72.05	18.90	-24.7	-25.4	18.2	1.10e-06	0	43	0	1269825536	10	3911
2026-01-15 00:38:13.72	72.29	18.92	-24.7	-25.5	18.1	1.94e-05	0	43	0	1275068416	10	3932
2026-01-15 00:38:14.72	72.52	18.95	-24.7	-25.4	18.1	0.00e+00	0	44	0	1281359872	10	3927
2026-01-15 00:38:15.72	72.76	18.98	-24.8	-25.7	18.0	0.00e+00	0	43	0	1286602752	10	3999
2026-01-15 00:38:16.72	73.00	19.00	-24.7	-25.6	17.9	0.00e+00	0	43	0	1291845632	10	3975
2026-01-15 00:38:17.73	73.24	19.03	-24.6	-25.4	18.0	0.00e+00	0	43	0	1298137088	10	3936
2026-01-15 00:38:18.74	73.48	19.06	-24.6	-25.4	18.0	7.78e-05	0	43	0	1303379968	10	3944
2026-01-15 00:38:19.74	73.71	19.08	-24.6	-25.3	18.0	9.95e-05	0	43	0	1308622848	10	3922
2026-01-15 00:38:20.75	73.96	19.11	-24.6	-25.4	18.0	0.00e+00	0	43	0	1314914304	10	3928
2026-01-15 00:38:21.75	74.19	19.13	-24.7	-25.5	17.9	0.00e+00	0	43	0	1320157184	10	3959
2026-01-15 00:38:22.74	74.43	19.15	-24.8	-25.8	17.8	1.48e-05	0	43	0	1325400064	10	4023
2026-01-15 00:38:23.74	74.67	19.18	-24.6	-25.3	18.0	0.00e+00	0	43	0	1331691520	10	3912
2026-01-15 00:38:24.74	74.91	19.20	-24.5	-25.1	18.1	3.43e-05	0	43	0	1336934400	10	3866
2026-01-15 00:38:25.74	75.15	19.22	-24.4	-25.0	18.2	3.66e-05	0	43	0	1343225856	10	3839
2026-01-15 00:38:26.75	75.39	19.24	-24.6	-25.3	18.0	0.00e+00	0	43	0	1348468736	10	3908
2026-01-15 00:38:27.76	75.64	19.27	-24.6	-25.3	18.1	2.28e-05	0	43	0	1353711616	10	3904
2026-01-15 00:38:28.76	75.88	19.29	-24.6	-25.5	17.9	0.00e+00	0	43	0	1360003072	10	3950
2026-01-15 00:38:29.77	76.12	19.31	-24.7	-25.5	17.9	0.00e+00	0	43	0	1365245952	10	3958
2026-01-15 00:38:30.77	76.36	19.33	-24.6	-25.4	17.9	0.00e+00	0	43	0	1371537408	10	3945
2026-01-15 00:38:31.77	76.61	19.35	-24.8	-25.7	17.9	0.00e+00	0	43	0	1376780288	10	3998
2026-01-15 00:38:32.78	76.85	19.36	-24.6	-25.4	18.0	0.00e+00	0	44	0	1382023168	10	3938
2026-01-15 00:38:33.78	77.09	19.38	-24.6	-25.3	18.1	0.00e+00	0	43	0	1388314624	10	3901
2026-01-15 00:38:34.78	77.34	19.40	-24.6	-25.3	18.0	5.26e-05	0	43	0	1393557504	10	3907
2026-01-15 00:38:35.79	77.58	19.42	-24.6	-25.3	18.1	0.00e+00	0	43	0	1398800384	10	3902
2026-01-15 00:38:36.79	77.83	19.44	-24.4	-25.0	18.2	1.14e-05	0	44	0	1405091840	10	3836
2026-01-15 00:38:37.80	78.07	19.45	-24.4	-25.0	18.2	0.00e+00	0	43	0	1410334720	10	3826
2026-01-15 00:38:38.80	78.32	19.47	-24.3	-24.8	18.3	0.00e+00	0	43	0	1416626176	10	3786
2026-01-15 00:38:39.81	78.56	19.48	-24.3	-24.8	18.3	0.00e+00	0	43	0	1421869056	10	3785
2026-01-15 00:38:40.81	78.81	19.50	-24.4	-25.0	18.2	0.00e+00	0	43	0	1427111936	10	3835
2026-01-15 00:38:41.82	79.06	19.51	-24.4	-24.9	18.3	0.00e+00	0	43	0	1433403392	10	3814
2026-01-15 00:38:42.81	79.30	19.53	-24.4	-24.9	18.2	0.00e+00	0	43	0	1438646272	10	3820
2026-01-15 00:38:43.81	79.54	19.54	-24.6	-25.3	18.1	0.00e+00	0	43	0	1443889152	10	3899
2026-01-15 00:38:44.82	79.79	19.55	-24.4	-25.0	18.2	0.00e+00	0	43	0	1450180608	10	3838
2026-01-15 00:38:45.82	80.04	19.57	-24.3	-24.8	18.3	0.00e+00	0	43	0	1455423488	10	3789
2026-01-15 00:38:46.82	80.28	19.58	-24.3	-24.7	18.3	0.00e+00	0	44	0	1461714944	10	3765
2026-01-15 00:38:47.82	80.53	19.59	-24.3	-24.7	18.3	0.00e+00	0	44	0	1466957824	10	3772
2026-01-15 00:38:48.83	80.78	19.60	-24.4	-25.4	18.2	0.00e+00	0	43	0	1472200704	9	4048
2026-01-15 00:38:49.83	81.02	19.61	-24.6	-25.8	18.0	0.00e+00	0	43	0	1478492160	9	4132
2026-01-15 00:38:50.84	81.27	19.62	-24.5	-25.7	18.1	0.00e+00	0	43	0	1483735040	9	4112
2026-01-15 00:38:51.84	81.52	19.63	-24.5	-25.7	18.0	0.00e+00	0	43	0	1490026496	9	4122
2026-01-15 00:38:52.84	81.77	19.64	-24.8	-26.3	17.8	0.00e+00	0	44	0	1495269376	9	4280
2026-01-15 00:38:53.84	82.01	19.65	-24.7	-26.0	18.0	0.00e+00	0	44	0	1500512256	9	4187
2026-01-15 00:38:54.84	82.26	19.65	-24.5	-25.7	18.1	0.00e+00	0	43	0	1506803712	9	4108
2026-01-15 00:38:55.84	82.51	19.66	-24.5	-25.7	18.1	0.00e+00	0	43	0	1512046592	9	4116
2026-01-15 00:38:56.84	82.76	19.67	-24.6	-25.7	18.0	0.00e+00	0	43	0	1517289472	9	4127
2026-01-15 00:38:57.83	83.00	19.67	-24.7	-26.1	17.9	0.00e+00	0	43	0	1523580928	9	4207
2026-01-15 00:38:58.84	83.25	19.68	-24.5	-25.7	18.0	0.00e+00	0	43	0	1528823808	9	4125
2026-01-15 00:38:59.84	83.50	19.68	-24.4	-25.5	18.2	0.00e+00	0	43	0	1534066688	9	4073
2026-01-15 00:39:00.84	83.75	19.69	-24.4	-25.4	18.2	0.00e+00	0	43	0	1540358144	9	4039
2026-01-15 00:39:01.84	83.99	19.69	-24.6	-25.8	18.0	0.00e+00	0	43	0	1545601024	9	4145
2026-01-15 00:39:02.85	84.25	19.70	-24.5	-25.7	18.1	0.00e+00	0	43	0	1551892480	9	4108
2026-01-15 00:39:03.85	84.49	19.70	-24.6	-25.9	18.0	0.00e+00	0	43	0	1557135360	9	4161
2026-01-15 00:39:04.85	84.74	19.70	-24.5	-25.6	18.1	0.00e+00	0	44	0	1562378240	9	4105
2026-01-15 00:39:05.85	84.99	19.70	-24.5	-25.5	18.2	0.00e+00	0	43	0	1568669696	9	4076
2026-01-15 00:39:06.85	85.24	19.71	-24.4	-25.5	18.2	0.00e+00	0	43	0	1573912576	9	4056
2026-01-15 00:39:07.86	85.49	19.71	-24.6	-25.7	18.0	0.00e+00	0	43	0	1579155456	9	4124
2026-01-15 00:39:08.87	85.74	19.71	-24.5	-25.5	18.1	0.00e+00	0	43	0	1585446912	9	4078
2026-01-15 00:39:09.87	85.99	19.71	-24.5	-25.5	18.2	0.00e+00	0	43	0	1590689792	9	4072
2026-01-15 00:39:10.87	86.24	19.71	-24.5	-25.6	18.1	0.00e+00	0	43	0	1596981248	9	4090
2026-01-15 00:39:11.87	86.48	19.70	-24.4	-25.5	18.1	0.00e+00	0	43	0	1602224128	9	4064
2026-01-15 00:39:12.87	86.73	19.70	-24.5	-25.6	18.1	0.00e+00	0	43	0	1607467008	9	4090
2026-01-15 00:39:13.88	86.98	19.70	-24.5	-25.7	18.1	0.00e+00	0	43	0	1613758464	9	4111
2026-01-15 00:39:14.87	87.23	19.70	-24.6	-26.0	17.9	0.00e+00	0	43	0	1619001344	9	4187
2026-01-15 00:39:15.88	87.48	19.69	-24.6	-25.9	18.0	0.00e+00	0	43	0	1625292800	9	4164
2026-01-15 00:39:16.88	87.73	19.69	-24.7	-26.0	17.9	0.00e+00	0	44	0	1630535680	9	4190
2026-01-15 00:39:17.88	87.97	19.69	-24.5	-25.7	18.0	0.00e+00	0	43	0	1635778560	9	4116
2026-01-15 00:39:18.88	88.22	19.68	-24.4	-25.4	18.2	0.00e+00	0	43	0	1642070016	9	4045
2026-01-15 00:39:19.89	88.47	19.67	-24.4	-25.5	18.1	0.00e+00	0	44	0	1647312896	9	4061
2026-01-15 00:39:20.89	88.72	19.67	-24.3	-25.3	18.2	0.00e+00	0	43	0	1652555776	9	4015
2026-01-15 00:39:21.89	88.97	19.66	-24.3	-25.1	18.3	0.00e+00	0	43	0	1658847232	9	3982
2026-01-15 00:39:22.89	89.22	19.66	-24.3	-25.2	18.3	0.00e+00	0	43	0	1664090112	9	3997
2026-01-15 00:39:23.90	89.47	19.65	-24.2	-24.9	18.5	0.00e+00	0	43	0	1669332992	9	3920
2026-01-15 00:39:24.90	89.71	19.64	-24.2	-24.9	18.4	0.00e+00	0	43	0	1675624448	9	3929
2026-01-15 00:39:25.90	89.96	19.63	-24.2	-25.0	18.4	0.00e+00	0	43	0	1680867328	9	3948
2026-01-15 00:39:26.90	90.21	19.62	-24.4	-25.4	18.2	0.00e+00	0	44	0	1687158784	9	4032
2026-01-15 00:39:27.90	90.45	19.61	-24.5	-25.6	18.1	0.00e+00	0	43	0	1692401664	9	4087
2026-01-15 00:39:28.90	90.70	19.60	-24.5	-25.7	18.0	0.00e+00	0	43	0	1697644544	9	4115
2026-01-15 00:39:29.89	90.95	19.59	-24.5	-25.6	18.1	0.00e+00	0	43	0	1703936000	9	4097
2026-01-15 00:39:30.90	91.19	19.58	-24.5	-25.7	18.0	0.00e+00	0	43	0	1709178880	9	4110
2026-01-15 00:39:31.91	91.44	19.57	-24.5	-25.7	18.0	0.00e+00	0	43	0	1714421760	9	4127
2026-01-15 00:39:32.92	91.69	19.56	-24.6	-25.8	17.9	0.00e+00	0	43	0	1720713216	9	4150
2026-01-15 00:39:33.92	91.94	19.54	-24.6	-26.0	17.9	0.00e+00	0	44	0	1725956096	9	4193
2026-01-15 00:39:34.92	92.18	19.53	-24.7	-26.1	17.8	0.00e+00	0	43	0	1732247552	9	4236
2026-01-15 00:39:35.92	92.43	19.52	-24.8	-26.4	17.7	0.00e+00	0	43	0	1737490432	9	4294
2026-01-15 00:39:36.93	92.68	19.50	-24.9	-26.4	17.6	0.00e+00	0	43	0	1742733312	9	4310
2026-01-15 00:39:37.94	92.92	19.49	-24.9	-26.4	17.7	0.00e+00	0	44	0	1749024768	9	4313
2026-01-15 00:39:38.94	93.17	19.47	-24.9	-26.5	17.6	1.26e-04	0	43	0	1754267648	9	4342
2026-01-15 00:39:39.94	93.41	19.46	-24.8	-26.3	17.7	0.00e+00	0	43	0	1760559104	9	4271
2026-01-15 00:39:40.94	93.66	19.44	-24.7	-26.2	17.8	0.00e+00	0	43	0	1765801984	9	4237
2026-01-15 00:39:41.95	93.90	19.42	-24.7	-26.1	17.8	0.00e+00	0	44	0	1771044864	9	4217
2026-01-15 00:39:42.96	94.15	19.40	-24.8	-26.2	17.7	0.00e+00	0	43	0	1777336320	9	4259
2026-01-15 00:39:43.97	94.40	19.39	-24.6	-25.9	18.0	0.00e+00	0	43	0	1782579200	9	4159
2026-01-15 00:39:44.97	94.64	19.37	-24.6	-26.0	17.9	0.00e+00	0	43	0	1788870656	9	4183
2026-01-15 00:39:45.97	94.88	19.35	-24.8	-26.4	17.7	0.00e+00	0	44	0	1794113536	9	4288
2026-01-15 00:39:46.98	95.13	19.33	-24.7	-26.1	17.8	0.00e+00	0	43	0	1799356416	9	4214
2026-01-15 00:39:47.98	95.37	19.31	-24.7	-26.0	17.8	0.00e+00	0	44	0	1805647872	9	4208
2026-01-15 00:39:48.99	95.61	19.29	-24.7	-26.0	17.8	0.00e+00	0	44	0	1810890752	9	4195
2026-01-15 00:39:49.98	95.85	19.27	-24.7	-26.2	17.7	0.00e+00	0	43	0	1816133632	9	4248
2026-01-15 00:39:50.99	96.10	19.25	-24.7	-26.1	17.8	0.00e+00	0	44	0	1822425088	9	4229
2026-01-15 00:39:52.00	96.34	19.23	-24.6	-25.9	17.9	0.00e+00	0	44	0	1827667968	9	4162
2026-01-15 00:39:53.00	96.58	19.20	-24.6	-25.8	18.0	0.00e+00	0	44	0	1833959424	9	4141
2026-01-15 00:39:54.00	96.82	19.18	-24.7	-26.1	17.8	0.00e+00	0	44	0	1839202304	9	4208
2026-01-15 00:39:55.01	97.06	19.16	-24.5	-25.7	18.0	0.00e+00	0	43	0	1844445184	9	4117
2026-01-15 00:39:56.01	97.30	19.13	-24.6	-25.8	18.0	0.00e+00	0	43	0	1850736640	9	4138
2026-01-15 00:39:57.01	97.54	19.11	-24.7	-26.1	17.8	4.11e-05	0	43	0	1855979520	9	4223
2026-01-15 00:39:58.02	97.78	19.08	-24.8	-26.2	17.7	1.12e-04	0	44	0	1862270976	9	4249
2026-01-15 00:39:59.02	98.02	19.06	-24.7	-26.1	17.8	0.00e+00	0	44	0	1867513856	9	4214
2026-01-15 00:40:00.03	98.26	19.03	-24.7	-26.1	17.8	1.11e-04	0	43	0	1872756736	9	4226
2026-01-15 00:40:01.03	98.50	19.01	-24.9	-26.4	17.6	7.43e-05	0	44	0	1879048192	9	4307
2026-01-15 00:40:02.04	98.74	18.98	-24.7	-26.0	17.8	0.00e+00	0	44	0	1884291072	9	4203
2026-01-15 00:40:03.04	98.98	18.95	-24.6	-25.8	17.9	2.20e-06	0	44	0	1889533952	9	4156
2026-01-15 00:40:04.04	99.22	18.93	-24.7	-26.0	17.9	1.02e-05	0	44	0	1895825408	9	4185
2026-01-15 00:40:05.05	99.45	18.90	-24.6	-25.9	17.9	0.00e+00	0	44	0	1901068288	9	4177
2026-01-15 00:40:06.04	99.69	18.87	-25.0	-26.7	17.5	1.12e-04	0	44	0	1907359744	9	4380
2026-01-15 00:40:07.05	99.92	18.84	-24.8	-26.3	17.7	1.10e-04	0	43	0	1912602624	9	4276
2026-01-15 00:40:08.05	100.16	18.81	-24.7	-26.1	17.8	0.00e+00	0	44	0	1917845504	9	4213
2026-01-15 00:40:09.05	100.39	18.78	-24.7	-26.0	17.8	1.43e-04	0	44	0	1924136960	9	4209
2026-01-15 00:40:10.06	100.63	18.75	-24.8	-26.4	17.6	1.83e-04	0	44	0	1929379840	9	4290
2026-01-15 00:40:11.06	100.86	18.72	-24.7	-26.1	17.7	2.20e-06	0	44	0	1934622720	9	4229
2026-01-15 00:40:12.06	101.10	18.69	-24.8	-26.2	17.7	2.86e-04	0	44	0	1940914176	9	4257
2026-01-15 00:40:13.06	101.33	18.66	-24.9	-26.5	17.5	0.00e+00	0	44	0	1946157056	9	4339
2026-01-15 00:40:14.07	101.56	18.63	-24.9	-26.5	17.6	0.00e+00	0	43	0	1952448512	9	4327
2026-01-15 00:40:15.07	101.80	18.60	-24.9	-26.5	17.6	0.00e+00	0	44	0	1957691392	9	4321
2026-01-15 00:40:16.07	102.03	18.56	-25.0	-26.7	17.5	1.51e-04	0	44	0	1963982848	9	4378
2026-01-15 00:40:17.08	102.26	18.53	-24.8	-26.3	17.6	0.00e+00	0	44	0	1969225728	9	4284
2026-01-15 00:40:18.08	102.49	18.50	-24.8	-26.3	17.6	0.00e+00	0	44	0	1974468608	9	4272
2026-01-15 00:40:19.09	102.72	18.46	-24.9	-26.5	17.5	1.03e-04	0	44	0	1980760064	9	4342
2026-01-15 00:40:20.09	102.95	18.43	-24.9	-26.6	17.5	0.00e+00	0	44	0	1986002944	9	4348
2026-01-15 00:40:21.09	103.18	18.39	-25.1	-26.4	17.3	1.67e-04	0	44	0	1991245824	10	4204
2026-01-15 00:40:22.10	103.41	18.36	-25.3	-27.0	17.0	0.00e+00	0	44	0	1997537280	10	4344
2026-01-15 00:40:23.10	103.64	18.32	-25.1	-26.4	17.3	0.00e+00	0	44	0	2002780160	10	4191
2026-01-15 00:40:24.11	103.87	18.29	-25.0	-26.2	17.5	0.00e+00	0	44	0	2008023040	10	4127
2026-01-15 00:40:25.11	104.10	18.25	-24.9	-26.1	17.5	0.00e+00	0	43	0	2014314496	10	4116
2026-01-15 00:40:26.12	104.32	18.22	-25.1	-26.4	17.4	0.00e+00	0	44	0	2019557376	10	4177
2026-01-15 00:40:27.12	104.55	18.18	-24.9	-26.1	17.5	0.00e+00	0	43	0	2025848832	10	4107
2026-01-15 00:40:28.13	104.78	18.14	-25.1	-26.4	17.3	0.00e+00	0	43	0	2031091712	10	4183
2026-01-15 00:40:29.13	105.00	18.10	-25.2	-26.7	17.1	0.00e+00	0	44	0	2037383168	10	4273
2026-01-15 00:40:30.14	105.23	18.07	-25.1	-26.5	17.3	0.00e+00	0	44	0	2042626048	10	4229
2026-01-15 00:40:31.14	105.45	18.03	-25.3	-26.8	17.1	0.00e+00	0	44	0	2047868928	10	4303
2026-01-15 00:40:32.14	105.67	17.99	-25.1	-26.4	17.3	0.00e+00	0	44	0	2054160384	10	4202
2026-01-15 00:40:33.15	105.90	17.95	-25.1	-26.4	17.4	0.00e+00	0	44	0	2059403264	10	4180
2026-01-15 00:40:34.16	106.12	17.91	-25.1	-26.4	17.3	0.00e+00	0	44	0	2064646144	10	4181
2026-01-15 00:40:35.16	106.34	17.87	-25.0	-26.2	17.4	0.00e+00	0	43	0	2070937600	10	4136
2026-01-15 00:40:36.16	106.57	17.83	-25.0	-26.2	17.4	0.00e+00	0	43	0	2076180480	10	4144
2026-01-15 00:40:37.16	106.79	17.79	-25.1	-26.5	17.2	0.00e+00	0	44	0	2081423360	10	4225
2026-01-15 00:40:38.17	107.01	17.75	-25.0	-26.3	17.4	0.00e+00	0	43	0	2087714816	10	4164
2026-01-15 00:40:39.17	107.23	17.71	-25.1	-26.4	17.3	0.00e+00	0	43	0	2092957696	10	4184
2026-01-15 00:40:40.17	107.44	17.67	-25.1	-26.4	17.3	0.00e+00	0	44	0	2099249152	10	4189
2026-01-15 00:40:41.18	107.66	17.62	-25.2	-26.5	17.2	0.00e+00	0	43	0	2104492032	10	4222
2026-01-15 00:40:42.18	107.88	17.58	-25.1	-26.4	17.3	0.00e+00	0	44	0	2110783488	10	4181
2026-01-15 00:40:43.18	108.10	17.54	-25.1	-26.5	17.3	0.00e+00	0	43	0	2116026368	10	4206
2026-01-15 00:40:44.18	108.31	17.50	-25.2	-26.6	17.2	0.00e+00	0	43	0	2121269248	10	4241
2026-01-15 00:40:45.19	108.53	17.45	-25.1	-26.4	17.3	0.00e+00	0	44	0	2127560704	10	4182
2026-01-15 00:40:46.19	108.75	17.41	-25.0	-26.3	17.3	0.00e+00	0	44	0	2132803584	10	4169
2026-01-15 00:40:47.19	108.96	17.37	-25.1	-26.5	17.2	0.00e+00	0	43	0	2138046464	10	4215
2026-01-15 00:40:48.18	109.17	17.32	-25.1	-26.5	17.3	0.00e+00	0	44	0	2144337920	10	4206
2026-01-15 00:40:49.19	109.39	17.28	-25.1	-26.4	17.3	0.00e+00	0	44	0	2149580800	10	4180
2026-01-15 00:40:50.19	109.60	17.23	-25.1	-26.5	17.3	0.00e+00	0	44	0	2154823680	10	4206
2026-01-15 00:40:51.19	109.81	17.19	-25.2	-26.6	17.1	0.00e+00	0	44	0	2161115136	10	4253
2026-01-15 00:40:52.20	110.03	17.14	-25.0	-26.3	17.3	0.00e+00	0	44	0	2166358016	10	4166
2026-01-15 00:40:53.20	110.24	17.10	-25.1	-26.4	17.3	0.00e+00	0	43	0	2172649472	10	4180
2026-01-15 00:40:54.20	110.45	17.05	-25.1	-26.4	17.3	0.00e+00	0	44	0	2177892352	10	4181
2026-01-15 00:40:55.20	110.66	17.00	-25.1	-26.3	17.3	0.00e+00	0	44	0	2183135232	10	4175
2026-01-15 00:40:56.21	110.87	16.96	-25.1	-26.5	17.3	0.00e+00	0	44	0	2189426688	10	4204
2026-01-15 00:40:57.22	111.08	16.91	-25.0	-26.1	17.4	0.00e+00	0	44	0	2194669568	10	4116
2026-01-15 00:40:58.22	111.28	16.86	-25.1	-26.3	17.3	0.00e+00	0	44	0	2200961024	10	4172
2026-01-15 00:40:59.22	111.49	16.82	-25.1	-26.5	17.2	0.00e+00	0	43	0	2206203904	10	4226
2026-01-15 00:41:00.23	111.70	16.77	-25.2	-26.7	17.1	0.00e+00	0	43	0	2211446784	10	4260
2026-01-15 00:41:01.23	111.91	16.72	-25.3	-27.0	17.0	0.00e+00	0	43	0	2217738240	10	4341
2026-01-15 00:41:02.24	112.11	16.67	-25.5	-27.3	16.8	0.00e+00	0	44	0	2222981120	10	4421
2026-01-15 00:41:03.24	112.32	16.62	-25.5	-27.3	16.8	0.00e+00	0	43	0	2228224000	10	4431
2026-01-15 00:41:04.24	112.52	16.58	-25.6	-27.0	16.7	0.00e+00	0	44	0	2234515456	11	4236
2026-01-15 00:41:05.25	112.73	16.53	-25.6	-27.0	16.7	0.00e+00	0	43	0	2239758336	11	4244
2026-01-15 00:41:06.25	112.93	16.48	-25.5	-26.8	16.8	0.00e+00	0	44	0	2246049792	11	4184
2026-01-15 00:41:07.26	113.13	16.43	-25.5	-26.9	16.7	1.10e-06	0	44	0	2251292672	11	4199
2026-01-15 00:41:08.26	113.33	16.38	-25.5	-26.9	16.7	0.00e+00	0	43	0	2256535552	11	4203
2026-01-15 00:41:09.27	113.54	16.33	-25.4	-26.7	16.8	0.00e+00	0	44	0	2262827008	11	4152
2026-01-15 00:41:10.27	113.74	16.28	-25.4	-26.5	16.9	0.00e+00	0	44	0	2268069888	11	4115
2026-01-15 00:41:11.27	113.93	16.23	-25.4	-26.5	15.9	0.00e+00	0	43	0	2274361344	11	4110
2026-01-15 00:41:12.28	114.13	16.18	-25.3	-26.5	16.1	0.00e+00	0	44	0	2279604224	11	4097
2026-01-15 00:41:13.28	114.33	16.13	-25.3	-26.5	17.0	0.00e+00	0	44	0	2284847104	11	4097
2026-01-15 00:41:14.28	114.53	16.08	-25.4	-26.7	16.9	0.00e+00	0	44	0	2291138560	11	4145
2026-01-15 00:41:15.29	114.73	16.03	-25.3	-26.4	17.0	0.00e+00	0	44	0	2296381440	11	4083
2026-01-15 00:41:16.29	114.92	15.98	-25.4	-26.7	16.8	1.10e-06	0	43	0	2301624320	11	4152
2026-01-15 00:41:17.30	115.12	15.92	-25.5	-26.9	16.8	0.00e+00	0	44	0	2307915776	11	4197
2026-01-15 00:41:18.29	115.31	15.87	-25.3	-26.4	17.0	0.00e+00	0	43	0	2313158656	11	4075
2026-01-15 00:41:19.30	115.51	15.82	-25.4	-26.6	16.9	0.00e+00	0	43	0	2319450112	11	4120
2026-01-15 00:41:20.30	115.70	15.77	-25.5	-26.8	16.8	1.96e-04	0	44	0	2324692992	11	4174
2026-01-15 00:41:21.31	115.90	15.72	-25.5	-26.9	16.7	0.00e+00	0	44	0	2329935872	11	4214
2026-01-15 00:41:22.31	116.09	15.66	-25.7	-27.1	16.6	2.20e-06	0	44	0	2336227328	11	4270
2026-01-15 00:41:23.31	116.28	15.61	-25.7	-27.3	16.5	0.00e+00	0	43	0	2341470208	11	4310
2026-01-15 00:41:24.32	116.47	15.56	-25.8	-27.5	16.4	0.00e+00	0	44	0	2347761664	11	4371
2026-01-15 00:41:25.33	116.67	15.50	-25.8	-27.5	16.4	0.00e+00	0	44	0	2353004544	11	4365
2026-01-15 00:41:26.33	116.86	15.45	-25.9	-27.6	16.3	0.00e+00	0	43	0	2358247424	11	4408
2026-01-15 00:41:27.33	117.04	15.40	-26.0	-27.3	16.1	1.93e-04	0	44	0	2364538880	12	4209
2026-01-15 00:41:28.34	117.23	15.34	-26.1	-27.6	15.9	0.00e+00	0	44	0	2369781760	12	4290
2026-01-15 00:41:29.34	117.42	15.29	-26.2	-27.8	15.8	1.85e-04	0	44	0	2375024640	12	4356
2026-01-15 00:41:30.35	117.61	15.24	-26.2	-27.8	15.8	1.93e-04	0	43	0	2381316096	12	4353
2026-01-15 00:41:31.35	117.80	15.18	-26.2	-28.0	15.7	0.00e+00	0	43	0	2386558976	12	4389
2026-01-15 00:41:32.35	117.98	15.13	-26.2	-27.9	15.7	2.35e-04	0	44	0	2392850432	12	4382
2026-01-15 00:41:33.35	118.17	15.07	-26.3	-28.0	15.7	0.00e+00	0	44	0	2398093312	12	4409
2026-01-15 00:41:34.35	118.35	15.02	-26.2	-27.9	15.7	0.00e+00	0	44	0	2403336192	12	4382
2026-01-15 00:41:35.36	118.54	14.96	-26.1	-27.7	15.8	0.00e+00	0	44	0	2409627648	12	4327
2026-01-15 00:41:36.36	118.72	14.91	-26.2	-27.9	15.8	5.60e-05	0	44	0	2414870528	12	4372
2026-01-15 00:41:37.37	118.90	14.85	-26.2	-27.9	15.8	0.00e+00	0	43	0	2421161984	12	4353
2026-01-15 00:41:38.38	119.09	14.80	-25.9	-27.2	16.2	2.63e-04	0	44	0	2426404864	12	4185
2026-01-15 00:41:39.39	119.27	14.74	-25.8	-26.9	16.4	4.27e-04	0	44	0	2431647744	12	4095
2026-01-15 00:41:40.39	119.45	14.69	-25.7	-26.7	16.4	0.00e+00	0	44	0	2437939200	12	4053
2026-01-15 00:41:41.39	119.63	14.63	-25.8	-27.4	16.4	5.97e-04	0	44	0	2443182080	11	4351
2026-01-15 00:41:42.40	119.81	14.58	-25.8	-27.5	16.3	5.80e-04	0	43	0	2448424960	11	4381
2026-01-15 00:41:43.40	119.99	14.52	-25.8	-27.5	16.3	0.00e+00	0	44	0	2454716416	11	4369
2026-01-15 00:41:44.40	120.17	14.46	-25.7	-27.2	16.5	3.04e-04	0	44	0	2459959296	11	4299
2026-01-15 00:41:45.40	120.34	14.41	-25.8	-27.5	16.3	2.64e-04	0	44	0	2466250752	11	4380
2026-01-15 00:41:46.40	120.52	14.35	-25.8	-27.5	16.3	0.00e+00	0	44	0	2471493632	11	4371
2026-01-15 00:41:47.41	120.70	14.30	-25.7	-27.2	16.4	4.69e-05	0	44	0	2476736512	11	4288
2026-01-15 00:41:48.41	120.87	14.24	-25.7	-27.3	16.4	2.16e-04	0	44	0	2483027968	11	4318
2026-01-15 00:41:49.41	121.05	14.18	-25.8	-27.5	16.3	0.00e+00	0	44	0	2488270848	11	4376
2026-01-15 00:41:50.41	121.22	14.13	-25.8	-27.5	16.3	1.60e-04	0	44	0	2493513728	11	4378
2026-01-15 00:41:51.41	121.39	14.07	-25.8	-27.6	16.3	1.25e-04	0	44	0	2499805184	11	4384
2026-01-15 00:41:52.40	121.56	14.01	-25.9	-27.6	16.2	0.00e+00	0	43	0	2505048064	11	4407
2026-01-15 00:41:53.41	121.74	13.96	-25.9	-27.7	16.1	3.43e-05	0	44	0	2510290944	11	4433
2026-01-15 00:41:54.41	121.91	13.90	-26.0	-27.8	16.1	0.00e+00	0	44	0	2516582400	11	4459
2026-01-15 00:41:55.41	122.08	13.84	-26.0	-27.4	16.0	1.10e-06	0	43	0	2521825280	12	4230
2026-01-15 00:41:56.41	122.25	13.79	-26.2	-27.9	15.7	0.00e+00	0	44	0	2528116736	12	4365
2026-01-15 00:41:57.41	122.42	13.73	-26.4	-28.3	15.5	1.14e-05	0	43	0	2533359616	12	4476
2026-01-15 00:41:58.42	122.59	13.67	-26.1	-27.7	15.8	0.00e+00	0	44	0	2539651072	12	4324
2026-01-15 00:41:59.42	122.76	13.61	-26.0	-27.5	15.9	0.00e+00	0	44	0	2544893952	12	4261
2026-01-15 00:42:00.43	122.93	13.55	-26.0	-27.5	15.9	1.02e-04	0	43	0	2550136832	12	4260
2026-01-15 00:42:01.43	123.09	13.50	-26.1	-27.6	15.9	9.72e-05	0	44	0	2556428288	12	4289
2026-01-15 00:42:02.44	123.26	13.44	-26.0	-27.5	15.9	1.14e-05	0	44	0	2561671168	12	4266
2026-01-15 00:42:03.44	123.43	13.38	-26.1	-27.6	15.9	0.00e+00	0	44	0	2566914048	12	4294
2026-01-15 00:42:04.44	123.59	13.32	-26.1	-27.8	15.8	4.34e-05	0	44	0	2573205504	12	4340
2026-01-15 00:42:05.44	123.76	13.27	-26.2	-27.8	15.7	0.00e+00	0	43	0	2578448384	12	4338
2026-01-15 00:42:06.44	123.92	13.21	-26.2	-27.9	15.7	0.00e+00	0	44	0	2583691264	12	4365
2026-01-15 00:42:07.44	124.08	13.15	-26.3	-28.0	15.6	1.10e-06	0	43	0	2589982720	12	4406
2026-01-15 00:42:08.45	124.25	13.09	-26.2	-27.9	15.7	0.00e+00	0	43	0	2595225600	12	4363
2026-01-15 00:42:09.45	124.41	13.03	-26.2	-27.9	15.7	3.32e-04	0	43	0	2601517056	12	4362
2026-01-15 00:42:10.46	124.57	12.97	-26.2	-27.8	15.7	0.00e+00	0	44	0	2606759936	12	4331
2026-01-15 00:42:11.46	124.73	12.92	-26.2	-27.9	15.6	0.00e+00	0	43	0	2612002816	12	4382
2026-01-15 00:42:12.47	124.89	12.86	-26.2	-28.0	15.6	1.10e-06	0	44	0	2618294272	12	4387
2026-01-15 00:42:13.47	125.05	12.80	-26.1	-27.6	15.8	0.00e+00	0	44	0	2623537152	12	4297
2026-01-15 00:42:14.46	125.21	12.74	-26.1	-27.6	15.8	3.16e-04	0	44	0	2628780032	12	4294
2026-01-15 00:42:15.46	125.37	12.68	-26.1	-27.8	15.7	1.10e-06	0	44	0	2635071488	12	4342
2026-01-15 00:42:16.47	125.53	12.62	-26.3	-28.2	15.5	0.00e+00	0	43	0	2640314368	12	4450
2026-01-15 00:42:17.46	125.68	12.56	-26.3	-28.0	15.6	0.00e+00	0	44	0	2645557248	12	4408
2026-01-15 00:42:18.46	125.84	12.51	-26.2	-28.0	15.6	0.00e+00	0	44	0	2651848704	12	4406
2026-01-15 00:42:19.47	125.99	12.45	-26.2	-28.0	15.5	0.00e+00	0	44	0	2657091584	12	4401
2026-01-15 00:42:20.47	126.15	12.39	-26.3	-28.2	15.5	0.00e+00	0	44	0	2663383040	12	4450
2026-01-15 00:42:21.48	126.31	12.33	-26.3	-28.1	15.5	0.00e+00	0	44	0	2668625920	12	4425
2026-01-15 00:42:22.48	126.46	12.27	-26.4	-28.4	15.3	0.00e+00	0	43	0	2674917376	12	4521
2026-01-15 00:42:23.49	126.61	12.21	-26.5	-28.1	15.2	0.00e+00	0	44	0	2680160256	13	4335
2026-01-15 00:42:24.49	126.77	12.15	-26.5	-28.1	15.2	0.00e+00	0	44	0	2685403136	13	4328
2026-01-15 00:42:25.49	126.92	12.09	-26.8	-28.8	14.8	0.00e+00	0	44	0	2691694592	13	4509
2026-01-15 00:42:26.49	127.07	12.03	-26.9	-28.5	14.7	0.00e+00	0	44	0	2696937472	14	4301
2026-01-15 00:42:27.49	127.22	11.97	-26.5	-27.6	15.2	2.20e-06	0	44	0	2702180352	14	4062
2026-01-15 00:42:28.49	127.37	11.91	-26.4	-27.3	15.4	0.00e+00	0	44	0	2708471808	14	3985
2026-01-15 00:42:29.49	127.52	11.85	-26.2	-27.4	15.6	0.00e+00	0	43	0	2713714688	13	4132
2026-01-15 00:42:30.50	127.67	11.79	-26.2	-27.4	15.6	0.00e+00	0	43	0	2718957568	13	4121
2026-01-15 00:42:31.50	127.82	11.74	-26.3	-27.6	15.4	0.00e+00	0	44	0	2725249024	13	4190
2026-01-15 00:42:32.49	127.97	11.68	-26.4	-27.8	15.4	0.00e+00	0	44	0	2730491904	13	4236
2026-01-15 00:42:33.49	128.11	11.62	-26.3	-27.7	15.4	0.00e+00	0	44	0	2736783360	13	4213
2026-01-15 00:42:34.49	128.26	11.56	-26.5	-28.2	15.1	0.00e+00	0	44	0	2742026240	13	4341
2026-01-15 00:42:35.50	128.41	11.50	-26.6	-28.4	15.0	0.00e+00	0	44	0	2747269120	13	4404
2026-01-15 00:42:36.50	128.56	11.44	-26.7	-28.4	15.0	0.00e+00	0	44	0	2753560576	13	4418
2026-01-15 00:42:37.50	128.70	11.38	-26.7	-28.6	14.9	0.00e+00	0	44	0	2758803456	13	4448
2026-01-15 00:42:38.50	128.84	11.32	-26.8	-28.7	14.8	0.00e+00	0	44	0	2764046336	13	4480
2026-01-15 00:42:39.51	128.99	11.26	-26.6	-28.3	15.0	3.40e-06	0	44	0	2770337792	13	4388
2026-01-15 00:42:40.51	129.13	11.20	-26.8	-28.7	14.8	0.00e+00	0	44	0	2775580672	13	4476
2026-01-15 00:42:41.52	129.28	11.14	-26.7	-28.5	14.9	0.00e+00	0	44	0	2781872128	13	4440
2026-01-15 00:42:42.52	129.42	11.08	-26.6	-28.4	15.0	0.00e+00	0	44	0	2787115008	13	4401
2026-01-15 00:42:43.53	129.56	11.02	-26.6	-28.3	15.0	0.00e+00	0	43	0	2792357888	13	4380
2026-01-15 00:42:44.54	129.71	10.96	-26.8	-28.7	14.8	0.00e+00	0	44	0	2798649344	13	4483
2026-01-15 00:42:45.55	129.85	10.90	-26.6	-28.2	15.1	0.00e+00	0	44	0	2803892224	13	4342
2026-01-15 00:42:46.55	129.99	10.84	-26.6	-28.2	15.0	0.00e+00	0	44	0	2810183680	13	4350
2026-01-15 00:42:47.55	130.13	10.78	-26.7	-28.4	14.9	0.00e+00	0	43	0	2815426560	13	4414
2026-01-15 00:42:48.56	130.27	10.72	-26.7	-28.6	14.8	0.00e+00	0	44	0	2820669440	13	4462
2026-01-15 00:42:49.56	130.41	10.66	-26.7	-28.4	14.9	0.00e+00	0	44	0	2826960896	13	4402
2026-01-15 00:42:50.57	130.55	10.60	-26.7	-28.5	14.9	0.00e+00	0	43	0	2832203776	13	4420
2026-01-15 00:42:51.57	130.68	10.54	-26.7	-28.5	14.9	0.00e+00	0	44	0	2838495232	13	4421
2026-01-15 00:42:52.58	130.82	10.48	-26.9	-29.1	14.5	0.00e+00	0	43	0	2843738112	13	4607
2026-01-15 00:42:53.58	130.96	10.42	-26.9	-29.0	14.6	0.00e+00	0	44	0	2848980992	13	4583
2026-01-15 00:42:54.58	131.09	10.36	-27.0	-29.2	14.4	0.00e+00	0	44	0	2855272448	13	4640
2026-01-15 00:42:55.58	131.23	10.30	-27.0	-28.7	14.4	0.00e+00	0	44	0	2860515328	14	4386
2026-01-15 00:42:56.59	131.36	10.24	-27.0	-28.8	14.4	0.00e+00	0	44	0	2865758208	14	4427
2026-01-15 00:42:57.60	131.50	10.18	-27.1	-29.0	14.3	0.00e+00	0	44	0	2872049664	14	4474
2026-01-15 00:42:58.60	131.63	10.12	-27.0	-28.7	14.4	1.10e-06	0	44	0	2877292544	14	4399
2026-01-15 00:42:59.61	131.77	10.06	-27.1	-28.9	14.3	0.00e+00	0	43	0	2883584000	14	4451
2026-01-15 00:43:00.61	131.90	10.01	-27.1	-29.1	14.2	1.10e-06	0	44	0	2888826880	14	4495
2026-01-15 00:43:01.61	132.03	9.95	-27.0	-28.8	14.3	0.00e+00	0	44	0	2894069760	14	4431
2026-01-15 00:43:02.62	132.16	9.89	-27.1	-28.8	14.3	0.00e+00	0	44	0	2900361216	14	4427
2026-01-15 00:43:03.62	132.30	9.83	-27.0	-28.8	14.3	1.10e-06	0	44	0	2905604096	14	4418
2026-01-15 00:43:04.63	132.43	9.77	-27.3	-29.4	14.0	2.20e-06	0	44	0	2911895552	14	4598
2026-01-15 00:43:05.63	132.56	9.71	-27.2	-29.3	14.1	3.40e-06	0	44	0	2917138432	14	4539
2026-01-15 00:43:06.63	132.69	9.65	-27.1	-28.9	14.3	3.40e-06	0	43	0	2922381312	14	4447
2026-01-15 00:43:07.63	132.82	9.59	-27.1	-29.0	14.2	0.00e+00	0	44	0	2928672768	14	4459
2026-01-15 00:43:08.63	132.94	9.53	-27.1	-28.9	14.2	8.24e-04	0	44	0	2933915648	14	4456
2026-01-15 00:43:09.63	133.07	9.47	-27.2	-29.1	14.1	0.00e+00	0	44	0	2939158528	14	4512
2026-01-15 00:43:10.63	133.20	9.41	-27.2	-29.2	14.1	1.10e-06	0	44	0	2945449984	14	4525
2026-01-15 00:43:11.63	133.33	9.35	-27.4	-29.6	13.8	5.90e-04	0	44	0	2950692864	14	4667
2026-01-15 00:43:12.64	133.45	9.29	-27.2	-29.1	14.0	3.40e-06	0	44	0	2956984320	14	4515
2026-01-15 00:43:13.64	133.58	9.23	-27.1	-29.0	14.1	3.64e-04	0	44	0	2962227200	14	4479
2026-01-15 00:43:14.65	133.71	9.17	-27.4	-29.6	13.8	1.10e-06	0	44	0	2967470080	14	4657
2026-01-15 00:43:15.65	133.83	9.11	-27.3	-29.5	13.8	4.50e-06	0	44	0	2973761536	14	4616
2026-01-15 00:43:16.65	133.96	9.05	-27.3	-29.5	13.8	1.10e-06	0	44	0	2979004416	14	4639
2026-01-15 00:43:17.66	134.08	8.99	-27.2	-29.1	14.0	2.20e-06	0	44	0	2984247296	14	4512
2026-01-15 00:43:18.66	134.20	8.93	-27.2	-29.2	14.0	2.20e-06	0	44	0	2990538752	14	4543
2026-01-15 00:43:19.67	134.33	8.87	-27.1	-28.9	14.1	0.00e+00	0	44	0	2995781632	14	4441
2026-01-15 00:43:20.67	134.45	8.82	-27.2	-29.3	13.9	4.08e-04	0	44	0	3002073088	14	4564
2026-01-15 00:43:21.66	134.57	8.76	-27.1	-29.1	14.0	1.10e-06	0	43	0	3007315968	14	4503
2026-01-15 00:43:22.67	134.69	8.70	-27.0	-29.2	14.2	3.78e-04	0	44	0	3012558848	13	4664
2026-01-15 00:43:23.66	134.81	8.64	-27.2	-29.2	13.9	3.95e-04	0	44	0	3018850304	14	4546
2026-01-15 00:43:24.66	134.93	8.58	-27.2	-29.3	13.8	1.10e-06	0	44	0	3024093184	14	4568
2026-01-15 00:43:25.67	135.06	8.52	-27.1	-29.0	14.0	4.43e-04	0	44	0	3030384640	14	4494
2026-01-15 00:43:26.68	135.18	8.46	-27.3	-29.5	13.7	4.38e-04	0	44	0	3035627520	14	4647
2026-01-15 00:43:27.68	135.30	8.40	-27.3	-29.5	13.7	3.40e-06	0	44	0	3040870400	14	4655
2026-01-15 00:43:28.68	135.41	8.34	-27.3	-29.5	13.7	4.27e-04	0	43	0	3047161856	14	4640
2026-01-15 00:43:29.69	135.53	8.28	-27.4	-29.7	13.5	3.92e-04	0	44	0	3052404736	14	4713
2026-01-15 00:43:30.69	135.65	8.23	-27.6	-29.7	13.3	6.80e-06	0	44	0	3057647616	15	4588
2026-01-15 00:43:31.70	135.77	8.17	-27.7	-30.1	13.0	4.08e-04	0	44	0	3063939072	15	4709
2026-01-15 00:43:32.70	135.89	8.11	-27.7	-29.9	13.2	3.88e-04	0	44	0	3069181952	15	4642
2026-01-15 00:43:33.69	136.00	8.05	-27.6	-29.7	13.3	1.94e-05	0	44	0	3075473408	15	4579
2026-01-15 00:43:34.69	136.12	7.99	-27.6	-29.6	13.3	2.91e-04	0	44	0	3080716288	15	4571
2026-01-15 00:43:35.69	136.23	7.93	-27.6	-29.7	13.3	3.22e-04	0	44	0	3085959168	15	4579
2026-01-15 00:43:36.69	136.35	7.87	-27.7	-29.8	13.1	4.50e-06	0	44	0	3092250624	15	4632
2026-01-15 00:43:37.70	136.47	7.81	-27.5	-29.4	13.4	3.22e-04	0	44	0	3097493504	15	4508
2026-01-15 00:43:38.70	136.58	7.76	-27.4	-29.3	13.5	3.42e-04	0	44	0	3102736384	15	4471
2026-01-15 00:43:39.70	136.69	7.70	-27.4	-29.2	13.4	4.50e-06	0	44	0	3109027840	15	4458
2026-01-15 00:43:40.71	136.81	7.64	-27.5	-29.5	13.3	1.60e-05	0	44	0	3114270720	15	4549
2026-01-15 00:43:41.71	136.92	7.58	-27.3	-29.1	13.5	4.37e-04	0	44	0	3119513600	15	4439
2026-01-15 00:43:42.71	137.03	7.52	-27.4	-29.4	13.3	8.00e-06	0	44	0	3125805056	15	4516
2026-01-15 00:43:43.72	137.15	7.46	-27.4	-29.9	13.3	4.31e-04	0	44	0	3131047936	14	4792
2026-01-15 00:43:44.72	137.26	7.40	-27.3	-29.6	13.4	4.66e-04	0	44	0	3137339392	14	4714
2026-01-15 00:43:45.72	137.37	7.35	-27.6	-29.8	13.0	2.17e-05	0	44	0	3142582272	15	4663
2026-01-15 00:43:46.73	137.48	7.29	-27.4	-29.4	13.3	4.32e-04	0	44	0	3148873728	15	4540
2026-01-15 00:43:47.73	137.59	7.23	-27.5	-29.5	13.2	6.80e-06	0	44	0	3154116608	15	4565
2026-01-15 00:43:48.73	137.70	7.17	-27.6	-29.9	13.0	2.86e-05	0	44	0	3159359488	15	4672
2026-01-15 00:43:49.74	137.81	7.11	-27.9	-30.5	12.6	5.83e-05	0	44	0	3165650944	15	4867
2026-01-15 00:43:50.74	137.92	7.06	-32.8	-43.9	3.8	8.06e-01	0	44	104	3168796672	25	12860
2026-01-15 00:43:51.74	138.03	7.00	-33.6	-44.7	3.8	8.47e-01	0	44	104	3168796672	27	12960
2026-01-15 00:43:52.75	138.14	6.94	-33.9	-45.4	3.8	8.46e-01	0	44	104	3168796672	27	13512

#Closed at: 2026-01-15 00:43:53
#Recorded file [3168 MB]: D:/data/31010_260115_033426.dat