passes_logs/2026/01/15/R2M6_AANII_01/R2M6_AANII_01__20260115_094821_NOAA_20_JPSS-1_rec.log

#Pass ID: 20260115_094821_NOAA 20 (JPSS-1)
#Satellite: NOAA 20 (JPSS-1)
#Configuration: NOAA 20
#almurnet v.1.7.20240730
#Start time: 2026-01-15 09:48:21

#Version: 2.2.20231116
#Station: R2M6_AANII_01
#Location: 30.233357 lon 59.946436 lat
#TLE: 1 43013U 17073A   26014.13176244  .00000049  00000+0  44136-4 0  9994
#TLE: 2 43013  98.7634 315.0803 0001538  40.6488 319.4803 14.19535812422619

#Time	Az	El	Level	Level2	SNR	BER	BlckErr	Temp	State	Recorded	gain1	gain2
2026-01-15 09:48:21.81	144.23	7.03	-31.1	-36.8	5.1	1.29e+00	0	41	0	0	23	6946
2026-01-15 09:48:22.81	144.21	7.10	-31.3	-37.8	4.9	1.30e+00	0	41	104	0	23	7538
2026-01-15 09:48:23.81	144.18	7.18	-31.2	-37.0	8.1	8.40e-02	0	41	0	0	23	6999
2026-01-15 09:48:24.82	144.16	7.26	-31.2	-37.1	8.0	6.55e-02	0	41	0	1048576	23	7077
2026-01-15 09:48:25.83	144.14	7.34	-31.4	-37.9	7.4	9.47e-02	0	41	0	3145728	23	7599
2026-01-15 09:48:26.83	144.11	7.42	-31.4	-37.6	7.6	1.10e-01	0	41	0	5242880	23	7405
2026-01-15 09:48:27.83	144.09	7.49	-31.3	-37.2	7.9	7.05e-02	0	41	0	7340032	23	7115
2026-01-15 09:48:28.83	144.06	7.57	-31.3	-36.9	8.2	6.35e-02	0	41	0	9437184	23	6897
2026-01-15 09:48:29.84	144.04	7.65	-31.1	-36.1	8.9	3.76e-02	0	41	0	10485760	23	6417
2026-01-15 09:48:30.84	144.01	7.73	-31.1	-35.9	9.1	2.18e-02	0	41	0	12582912	23	6285
2026-01-15 09:48:31.84	143.99	7.81	-31.1	-35.9	9.1	2.00e-02	0	41	0	14680064	23	6303
2026-01-15 09:48:32.84	143.96	7.89	-31.0	-35.6	9.3	1.95e-02	0	41	0	16777216	23	6130
2026-01-15 09:48:33.84	143.94	7.97	-30.9	-35.1	9.8	1.43e-02	0	41	0	17825792	23	5864
2026-01-15 09:48:34.84	143.91	8.05	-30.8	-35.2	10.1	8.67e-03	0	41	0	19922944	22	6004
2026-01-15 09:48:35.84	143.89	8.13	-30.7	-35.0	10.3	4.96e-03	0	41	0	22020096	22	5893
2026-01-15 09:48:36.85	143.86	8.21	-30.9	-35.7	9.7	6.92e-03	0	41	0	24117248	22	6243
2026-01-15 09:48:37.86	143.84	8.29	-30.8	-35.3	10.0	1.39e-02	0	41	0	26214400	22	6068
2026-01-15 09:48:38.86	143.81	8.37	-30.7	-35.0	10.2	6.31e-03	0	41	0	28311552	22	5917
2026-01-15 09:48:39.86	143.79	8.45	-30.5	-34.4	10.7	3.43e-03	0	41	0	29360128	22	5627
2026-01-15 09:48:40.87	143.76	8.53	-30.2	-34.0	11.3	1.67e-03	0	41	0	31457280	21	5579
2026-01-15 09:48:41.87	143.73	8.62	-30.1	-33.7	11.6	8.85e-04	0	41	0	33554432	21	5429
2026-01-15 09:48:42.87	143.71	8.70	-29.9	-33.2	11.9	4.90e-04	0	41	0	35651584	21	5257
2026-01-15 09:48:43.88	143.68	8.78	-29.9	-33.0	12.1	3.84e-04	0	41	0	36700160	21	5173
2026-01-15 09:48:44.89	143.65	8.86	-29.9	-33.0	12.1	2.48e-04	0	41	0	38797312	21	5177
2026-01-15 09:48:45.88	143.63	8.95	-29.8	-32.8	12.3	2.16e-04	0	41	0	40894464	21	5072
2026-01-15 09:48:46.89	143.60	9.03	-29.8	-33.4	12.2	1.83e-04	0	41	0	42991616	20	5418
2026-01-15 09:48:47.89	143.57	9.11	-29.8	-33.4	12.2	2.17e-04	0	41	0	45088768	20	5443
2026-01-15 09:48:48.89	143.54	9.20	-29.7	-33.0	12.5	1.70e-04	0	41	0	46137344	20	5255
2026-01-15 09:48:49.90	143.52	9.28	-29.6	-32.8	12.6	8.01e-05	0	41	0	48234496	20	5181
2026-01-15 09:48:50.91	143.49	9.36	-29.8	-33.1	12.4	1.20e-04	0	41	0	50331648	20	5312
2026-01-15 09:48:51.91	143.46	9.45	-29.8	-33.1	12.4	1.42e-04	0	41	0	52428800	20	5311
2026-01-15 09:48:52.92	143.43	9.53	-29.7	-33.1	12.5	1.52e-04	0	42	0	54525952	20	5283
2026-01-15 09:48:53.92	143.40	9.62	-29.8	-33.2	12.4	1.23e-04	0	42	0	55574528	20	5311
2026-01-15 09:48:54.93	143.37	9.70	-29.7	-33.0	12.6	1.07e-04	0	41	0	57671680	20	5233
2026-01-15 09:48:55.94	143.34	9.79	-29.6	-32.7	12.8	4.95e-05	0	42	0	59768832	20	5099
2026-01-15 09:48:56.94	143.32	9.88	-29.7	-32.8	12.8	5.79e-05	0	42	0	61865984	20	5139
2026-01-15 09:48:57.93	143.29	9.96	-29.6	-32.4	13.1	4.19e-05	0	42	0	63963136	20	4982
2026-01-15 09:48:58.93	143.26	10.05	-29.7	-32.6	13.0	3.81e-05	0	41	0	65011712	20	5033
2026-01-15 09:48:59.94	143.23	10.14	-29.7	-32.5	13.0	3.35e-05	0	42	0	67108864	20	5017
2026-01-15 09:49:00.94	143.20	10.22	-29.7	-32.6	13.0	4.88e-05	0	42	0	69206016	20	5030
2026-01-15 09:49:01.95	143.17	10.31	-29.7	-32.7	12.9	4.11e-05	0	42	0	71303168	20	5077
2026-01-15 09:49:02.95	143.14	10.40	-29.8	-33.1	12.7	6.10e-05	0	42	0	73400320	20	5234
2026-01-15 09:49:03.96	143.11	10.49	-29.8	-33.0	12.7	8.08e-05	0	42	0	74448896	20	5189
2026-01-15 09:49:04.96	143.08	10.57	-29.8	-33.0	12.7	8.01e-05	0	42	0	76546048	20	5198
2026-01-15 09:49:05.96	143.05	10.66	-29.9	-33.2	12.6	8.54e-05	0	42	0	78643200	20	5262
2026-01-15 09:49:06.96	143.02	10.75	-29.9	-33.1	12.7	8.85e-05	0	42	0	80740352	20	5198
2026-01-15 09:49:07.97	142.98	10.84	-29.8	-32.8	12.9	5.79e-05	0	42	0	82837504	20	5110
2026-01-15 09:49:08.98	142.95	10.93	-29.6	-32.4	13.2	2.28e-05	0	42	0	83886080	20	4958
2026-01-15 09:49:09.98	142.92	11.02	-29.8	-32.8	13.0	2.89e-05	0	42	0	85983232	20	5092
2026-01-15 09:49:10.98	142.89	11.11	-29.8	-32.8	13.0	4.27e-05	0	42	0	88080384	20	5103
2026-01-15 09:49:11.99	142.86	11.20	-29.8	-33.0	12.8	5.72e-05	0	42	0	90177536	20	5177
2026-01-15 09:49:12.99	142.83	11.29	-29.8	-32.8	13.0	5.11e-05	0	42	0	91226112	20	5104
2026-01-15 09:49:13.99	142.79	11.38	-29.7	-32.6	13.1	4.11e-05	0	42	0	93323264	20	5037
2026-01-15 09:49:15.00	142.76	11.48	-29.8	-32.8	13.0	2.59e-05	0	42	0	95420416	20	5117
2026-01-15 09:49:16.01	142.73	11.57	-29.8	-32.9	12.9	5.34e-05	0	42	0	97517568	20	5163
2026-01-15 09:49:17.01	142.69	11.66	-29.7	-32.5	13.2	3.20e-05	0	42	0	99614720	20	4985
2026-01-15 09:49:18.02	142.66	11.75	-29.7	-32.6	13.1	2.97e-05	0	42	0	101711872	20	5026
2026-01-15 09:49:19.01	142.63	11.84	-29.7	-32.7	13.1	1.98e-05	0	42	0	102760448	20	5039
2026-01-15 09:49:20.02	142.59	11.94	-29.7	-32.4	13.3	2.05e-05	0	42	0	104857600	20	4947
2026-01-15 09:49:21.02	142.56	12.03	-29.6	-32.3	13.4	1.52e-05	0	42	0	106954752	20	4891
2026-01-15 09:49:22.03	142.53	12.13	-29.7	-32.5	13.3	1.52e-05	0	42	0	109051904	20	4968
2026-01-15 09:49:23.04	142.49	12.22	-29.7	-32.5	13.3	2.59e-05	0	42	0	110100480	20	4952
2026-01-15 09:49:24.04	142.46	12.32	-29.8	-32.7	13.2	2.44e-05	0	42	0	112197632	20	5026
2026-01-15 09:49:25.04	142.42	12.41	-29.9	-33.1	12.9	3.89e-05	0	42	0	114294784	20	5208
2026-01-15 09:49:26.05	142.39	12.51	-29.7	-32.6	13.2	3.43e-05	0	42	0	116391936	20	5037
2026-01-15 09:49:27.05	142.35	12.60	-29.6	-32.3	13.4	1.52e-05	0	42	0	118489088	20	4909
2026-01-15 09:49:28.05	142.31	12.70	-29.6	-32.4	13.4	1.29e-05	0	42	0	119537664	20	4949
2026-01-15 09:49:29.06	142.28	12.79	-29.6	-32.3	13.4	2.13e-05	0	42	0	121634816	20	4928
2026-01-15 09:49:30.06	142.24	12.89	-29.5	-32.2	13.4	1.60e-05	0	42	0	123731968	20	4898
2026-01-15 09:49:31.06	142.21	12.99	-29.6	-32.6	13.2	1.44e-05	0	42	0	125829120	20	5052
2026-01-15 09:49:32.06	142.17	13.08	-29.7	-32.7	13.1	2.36e-05	0	42	0	127926272	20	5077
2026-01-15 09:49:33.07	142.13	13.18	-29.7	-32.7	13.1	3.66e-05	0	42	0	128974848	20	5086
2026-01-15 09:49:34.07	142.09	13.28	-29.7	-32.5	13.3	2.28e-05	0	42	0	131072000	20	4978
2026-01-15 09:49:35.07	142.06	13.38	-29.6	-32.4	13.4	2.13e-05	0	42	0	133169152	20	4942
2026-01-15 09:49:36.07	142.02	13.48	-29.7	-32.4	13.4	1.67e-05	0	42	0	135266304	20	4948
2026-01-15 09:49:37.07	141.98	13.58	-29.6	-32.4	13.4	1.67e-05	0	42	0	137363456	20	4942
2026-01-15 09:49:38.08	141.94	13.68	-29.8	-32.8	13.1	2.13e-05	0	42	0	138412032	20	5093
2026-01-15 09:49:39.07	141.91	13.78	-29.7	-32.4	13.4	1.44e-05	0	42	0	140509184	20	4915
2026-01-15 09:49:40.08	141.87	13.88	-29.5	-32.0	13.7	6.80e-06	0	42	0	142606336	20	4768
2026-01-15 09:49:41.08	141.83	13.98	-29.6	-32.2	13.7	3.00e-06	0	42	0	144703488	20	4826
2026-01-15 09:49:42.09	141.79	14.08	-29.6	-32.0	13.7	9.10e-06	0	42	0	146800640	20	4772
2026-01-15 09:49:43.09	141.75	14.18	-29.6	-32.2	13.6	3.80e-06	0	42	0	147849216	20	4840
2026-01-15 09:49:44.09	141.71	14.28	-29.8	-32.7	13.3	6.80e-06	0	42	0	149946368	20	5037
2026-01-15 09:49:45.09	141.67	14.39	-29.8	-32.8	13.3	2.28e-05	0	43	0	152043520	20	5057
2026-01-15 09:49:46.09	141.63	14.49	-30.0	-33.1	13.0	4.42e-05	0	42	0	154140672	20	5188
2026-01-15 09:49:47.09	141.59	14.59	-29.9	-33.1	13.0	4.50e-05	0	42	0	155189248	20	5180
2026-01-15 09:49:48.09	141.54	14.70	-29.9	-33.0	13.1	2.51e-05	0	42	0	157286400	20	5174
2026-01-15 09:49:49.09	141.50	14.80	-30.0	-33.4	12.8	4.11e-05	0	42	0	159383552	20	5325
2026-01-15 09:49:50.10	141.46	14.91	-29.9	-33.1	13.0	4.50e-05	0	42	0	161480704	20	5185
2026-01-15 09:49:51.10	141.42	15.01	-30.0	-33.5	12.8	4.95e-05	0	42	0	163577856	20	5349
2026-01-15 09:49:52.11	141.38	15.12	-29.8	-32.8	13.3	3.96e-05	0	42	0	164626432	20	5086
2026-01-15 09:49:53.11	141.33	15.22	-29.5	-32.0	13.7	7.60e-06	0	43	0	166723584	20	4806
2026-01-15 09:49:54.12	141.29	15.33	-29.4	-31.7	14.0	2.20e-06	0	42	0	168820736	20	4680
2026-01-15 09:49:55.12	141.25	15.44	-29.5	-31.8	14.0	2.20e-06	0	42	0	170917888	20	4682
2026-01-15 09:49:56.13	141.20	15.55	-29.4	-31.6	14.1	3.00e-06	0	43	0	173015040	20	4640
2026-01-15 09:49:57.13	141.16	15.65	-29.5	-31.9	14.0	2.20e-06	0	43	0	174063616	20	4727
2026-01-15 09:49:58.13	141.11	15.76	-29.5	-31.8	14.0	0.00e+00	0	42	0	176160768	20	4694
2026-01-15 09:49:59.13	141.07	15.87	-29.5	-31.9	14.0	3.00e-06	0	43	0	178257920	20	4730
2026-01-15 09:50:00.13	141.02	15.98	-29.6	-32.0	13.9	4.50e-06	0	42	0	180355072	20	4775
2026-01-15 09:50:01.14	140.98	16.09	-29.6	-32.0	13.9	3.00e-06	0	43	0	182452224	20	4772
2026-01-15 09:50:02.14	140.93	16.20	-29.6	-32.1	13.9	3.00e-06	0	43	0	183500800	20	4798
2026-01-15 09:50:03.14	140.89	16.31	-29.7	-32.3	13.8	6.10e-06	0	43	0	185597952	20	4889
2026-01-15 09:50:04.14	140.84	16.42	-29.6	-32.0	14.0	4.50e-06	0	42	0	187695104	20	4773
2026-01-15 09:50:05.14	140.79	16.53	-29.6	-32.1	13.9	4.50e-06	0	42	0	189792256	20	4803
2026-01-15 09:50:06.15	140.75	16.65	-29.6	-32.2	13.9	5.30e-06	0	43	0	191889408	20	4822
2026-01-15 09:50:07.15	140.70	16.76	-29.8	-32.5	13.7	3.80e-06	0	42	0	192937984	20	4943
2026-01-15 09:50:08.15	140.65	16.87	-29.6	-32.0	14.1	7.00e-07	0	43	0	195035136	20	4748
2026-01-15 09:50:09.16	140.60	16.99	-29.5	-31.8	14.2	0.00e+00	0	42	0	197132288	20	4680
2026-01-15 09:50:10.17	140.55	17.10	-29.5	-31.8	14.2	7.00e-07	0	42	0	199229440	20	4670
2026-01-15 09:50:11.17	140.50	17.21	-29.6	-32.1	14.1	7.00e-07	0	43	0	201326592	20	4759
2026-01-15 09:50:12.17	140.45	17.33	-29.6	-31.8	14.2	2.20e-06	0	43	0	202375168	20	4677
2026-01-15 09:50:13.17	140.40	17.45	-29.6	-32.0	14.2	2.20e-06	0	43	0	204472320	20	4721
2026-01-15 09:50:14.17	140.35	17.56	-29.6	-32.0	14.2	7.00e-07	0	43	0	206569472	20	4741
2026-01-15 09:50:15.17	140.30	17.68	-29.7	-32.1	14.1	2.20e-06	0	43	0	208666624	20	4773
2026-01-15 09:50:16.17	140.25	17.79	-29.7	-32.1	14.2	2.20e-06	0	43	0	209715200	20	4769
2026-01-15 09:50:17.18	140.20	17.91	-29.7	-32.2	14.1	7.00e-07	0	43	0	211812352	20	4803
2026-01-15 09:50:18.19	140.15	18.03	-29.7	-32.2	14.1	1.50e-06	0	43	0	213909504	20	4797
2026-01-15 09:50:19.19	140.09	18.15	-29.6	-32.0	14.2	0.00e+00	0	43	0	216006656	20	4728
2026-01-15 09:50:20.18	140.04	18.27	-29.4	-31.6	14.5	0.00e+00	0	43	0	218103808	20	4599
2026-01-15 09:50:21.19	139.99	18.39	-29.4	-31.6	14.5	7.00e-07	0	43	0	219152384	20	4605
2026-01-15 09:50:22.19	139.93	18.51	-29.4	-31.3	14.7	7.00e-07	0	42	0	221249536	20	4521
2026-01-15 09:50:23.19	139.88	18.63	-29.3	-31.2	14.7	0.00e+00	0	43	0	223346688	20	4496
2026-01-15 09:50:24.20	139.82	18.75	-29.4	-31.4	14.6	0.00e+00	0	43	0	225443840	20	4550
2026-01-15 09:50:25.20	139.77	18.88	-29.4	-31.5	14.7	0.00e+00	0	42	0	227540992	20	4564
2026-01-15 09:50:26.21	139.71	19.00	-29.5	-31.6	14.5	0.00e+00	0	43	0	228589568	20	4609
2026-01-15 09:50:27.21	139.66	19.12	-29.5	-31.7	14.6	0.00e+00	0	43	0	230686720	20	4614
2026-01-15 09:50:28.21	139.60	19.25	-29.6	-31.8	14.4	0.00e+00	0	43	0	232783872	20	4664
2026-01-15 09:50:29.21	139.54	19.37	-29.5	-31.6	14.6	7.00e-07	0	43	0	234881024	20	4579
2026-01-15 09:50:30.22	139.49	19.50	-29.6	-31.9	14.4	0.00e+00	0	43	0	236978176	20	4675
2026-01-15 09:50:31.22	139.43	19.62	-29.5	-31.6	14.6	7.00e-07	0	43	0	238026752	20	4577
2026-01-15 09:50:32.22	139.37	19.75	-29.5	-31.5	14.7	0.00e+00	0	43	0	240123904	20	4564
2026-01-15 09:50:33.22	139.31	19.88	-29.4	-31.3	14.8	0.00e+00	0	43	0	242221056	20	4502
2026-01-15 09:50:34.23	139.25	20.01	-29.4	-31.4	14.7	0.00e+00	0	43	0	244318208	20	4539
2026-01-15 09:50:35.24	139.19	20.13	-29.4	-31.4	14.8	0.00e+00	0	43	0	246415360	20	4515
2026-01-15 09:50:36.24	139.13	20.26	-29.4	-31.3	14.8	0.00e+00	0	43	0	247463936	20	4488
2026-01-15 09:50:37.25	139.07	20.39	-29.4	-31.5	14.7	7.00e-07	0	43	0	249561088	20	4544
2026-01-15 09:50:38.25	139.01	20.52	-29.3	-31.2	14.9	0.00e+00	0	43	0	251658240	20	4445
2026-01-15 09:50:39.25	138.94	20.65	-29.3	-31.2	14.9	7.00e-07	0	43	0	253755392	20	4454
2026-01-15 09:50:40.25	138.88	20.79	-29.4	-31.4	14.8	0.00e+00	0	43	0	254803968	20	4523
2026-01-15 09:50:41.25	138.82	20.92	-29.5	-31.7	14.7	0.00e+00	0	43	0	256901120	20	4599
2026-01-15 09:50:42.25	138.75	21.05	-29.6	-31.8	14.6	0.00e+00	0	43	0	258998272	20	4641
2026-01-15 09:50:43.25	138.69	21.18	-29.5	-31.6	14.7	0.00e+00	0	43	0	261095424	20	4571
2026-01-15 09:50:44.25	138.62	21.32	-29.5	-31.4	14.8	0.00e+00	0	43	0	263192576	20	4511
2026-01-15 09:50:45.26	138.56	21.45	-29.5	-31.6	14.7	0.00e+00	0	43	0	264241152	20	4571
2026-01-15 09:50:46.27	138.49	21.59	-29.6	-31.7	14.7	1.50e-06	0	43	0	266338304	20	4598
2026-01-15 09:50:47.27	138.42	21.73	-29.6	-31.7	14.7	0.00e+00	0	43	0	268435456	20	4587
2026-01-15 09:50:48.27	138.36	21.86	-29.7	-32.0	14.5	1.50e-06	0	43	0	270532608	20	4695
2026-01-15 09:50:49.28	138.29	22.00	-29.5	-31.4	14.9	0.00e+00	0	43	0	272629760	20	4499
2026-01-15 09:50:50.28	138.22	22.14	-29.4	-31.1	15.0	0.00e+00	0	43	0	273678336	20	4423
2026-01-15 09:50:51.28	138.15	22.28	-29.3	-31.1	15.1	0.00e+00	0	43	0	275775488	20	4421
2026-01-15 09:50:52.28	138.08	22.42	-29.3	-31.1	15.1	0.00e+00	0	43	0	277872640	20	4397
2026-01-15 09:50:53.29	138.01	22.56	-29.4	-31.3	15.0	0.00e+00	0	43	0	279969792	20	4458
2026-01-15 09:50:54.29	137.94	22.70	-29.5	-31.4	14.9	0.00e+00	0	43	0	282066944	20	4507
2026-01-15 09:50:55.29	137.86	22.84	-29.4	-31.4	14.9	0.00e+00	0	43	0	283115520	20	4493
2026-01-15 09:50:56.30	137.79	22.98	-29.5	-31.6	14.8	0.00e+00	0	43	0	285212672	20	4567
2026-01-15 09:50:57.30	137.72	23.13	-29.5	-31.5	14.9	0.00e+00	0	43	0	287309824	20	4525
2026-01-15 09:50:58.30	137.64	23.27	-29.5	-31.6	14.9	7.00e-07	0	43	0	289406976	20	4540
2026-01-15 09:50:59.30	137.57	23.42	-29.7	-31.8	14.7	7.00e-07	0	43	0	291504128	20	4631
2026-01-15 09:51:00.30	137.49	23.56	-29.6	-31.7	14.8	0.00e+00	0	43	0	292552704	20	4562
2026-01-15 09:51:01.31	137.42	23.71	-29.6	-31.8	14.8	0.00e+00	0	43	0	294649856	20	4599
2026-01-15 09:51:02.32	137.34	23.86	-29.7	-31.8	14.8	1.50e-06	0	43	0	296747008	20	4613
2026-01-15 09:51:03.32	137.26	24.00	-29.7	-31.9	14.7	0.00e+00	0	43	0	298844160	20	4641
2026-01-15 09:51:04.32	137.18	24.15	-29.7	-32.0	14.6	0.00e+00	0	43	0	300941312	20	4683
2026-01-15 09:51:05.33	137.10	24.30	-29.7	-32.0	14.6	0.00e+00	0	43	0	301989888	20	4689
2026-01-15 09:51:06.33	137.02	24.45	-29.7	-32.0	14.6	7.00e-07	0	43	0	304087040	20	4706
2026-01-15 09:51:07.33	136.94	24.60	-29.8	-32.3	14.4	2.20e-06	0	43	0	306184192	20	4806
2026-01-15 09:51:08.33	136.86	24.76	-29.8	-32.4	14.4	0.00e+00	0	43	0	308281344	20	4823
2026-01-15 09:51:09.33	136.78	24.91	-29.8	-32.4	14.4	1.50e-06	0	43	0	310378496	20	4825
2026-01-15 09:51:10.34	136.69	25.06	-29.9	-32.5	14.4	0.00e+00	0	43	0	311427072	20	4856
2026-01-15 09:51:11.34	136.61	25.22	-30.0	-32.8	14.2	1.50e-06	0	43	0	313524224	20	4965
2026-01-15 09:51:12.34	136.52	25.37	-30.0	-32.8	14.2	0.00e+00	0	43	0	315621376	20	4959
2026-01-15 09:51:13.35	136.44	25.53	-30.1	-33.0	14.1	1.50e-06	0	43	0	317718528	20	5014
2026-01-15 09:51:14.34	136.35	25.68	-30.2	-33.1	14.0	7.00e-07	0	43	0	318767104	20	5065
2026-01-15 09:51:15.35	136.26	25.84	-30.2	-33.3	13.9	3.00e-06	0	43	0	320864256	20	5137
2026-01-15 09:51:16.35	136.17	26.00	-30.3	-33.5	13.8	3.80e-06	0	43	0	322961408	20	5200
2026-01-15 09:51:17.36	136.08	26.16	-30.4	-33.8	13.6	9.90e-06	0	43	0	325058560	20	5322
2026-01-15 09:51:18.37	135.99	26.32	-30.4	-33.9	13.5	1.06e-05	0	43	0	327155712	20	5365
2026-01-15 09:51:19.37	135.90	26.48	-30.6	-33.7	13.3	1.67e-05	0	43	0	329252864	21	5187
2026-01-15 09:51:20.37	135.81	26.65	-30.7	-34.1	13.1	3.05e-05	0	43	0	330301440	21	5323
2026-01-15 09:51:21.37	135.71	26.81	-30.7	-34.2	13.0	3.43e-05	0	43	0	332398592	21	5368
2026-01-15 09:51:22.38	135.62	26.97	-30.9	-34.6	12.7	6.63e-05	0	43	0	334495744	21	5552
2026-01-15 09:51:23.38	135.52	27.14	-30.9	-34.8	12.6	5.79e-05	0	43	0	336592896	21	5637
2026-01-15 09:51:24.38	135.43	27.30	-31.0	-34.5	12.5	1.27e-04	0	43	0	337641472	22	5406
2026-01-15 09:51:25.39	135.33	27.47	-31.1	-34.9	12.3	1.53e-04	0	43	0	339738624	22	5543
2026-01-15 09:51:26.39	135.23	27.64	-31.2	-35.1	12.1	2.09e-04	0	43	0	341835776	22	5637
2026-01-15 09:51:27.39	135.13	27.81	-31.3	-35.2	12.1	3.14e-04	0	43	0	343932928	22	5681
2026-01-15 09:51:28.39	135.03	27.98	-31.3	-35.4	12.0	3.57e-04	0	43	0	346030080	22	5737
2026-01-15 09:51:29.38	134.93	28.14	-31.3	-35.4	11.9	3.54e-04	0	43	0	347078656	22	5775
2026-01-15 09:51:30.38	134.83	28.32	-31.3	-35.4	11.9	3.91e-04	0	43	0	349175808	22	5757
2026-01-15 09:51:31.38	134.72	28.49	-31.3	-35.4	12.0	3.20e-04	0	43	0	351272960	22	5733
2026-01-15 09:51:32.39	134.61	28.66	-31.3	-35.4	11.9	3.70e-04	0	43	0	353370112	22	5778
2026-01-15 09:51:33.39	134.51	28.84	-31.4	-35.5	11.9	4.43e-04	0	43	0	355467264	22	5789
2026-01-15 09:51:34.39	134.40	29.01	-31.4	-35.6	11.9	4.84e-04	0	43	0	356515840	22	5848
2026-01-15 09:51:35.40	134.29	29.19	-31.4	-35.6	11.9	5.11e-04	0	43	0	358612992	22	5827
2026-01-15 09:51:36.41	134.18	29.37	-31.6	-35.7	11.4	6.87e-04	0	43	0	360710144	23	5787
2026-01-15 09:51:37.41	134.07	29.54	-31.6	-35.8	11.3	1.01e-03	0	43	0	362807296	23	5847
2026-01-15 09:51:38.41	133.96	29.72	-31.7	-35.9	11.3	1.16e-03	0	43	0	364904448	23	5876
2026-01-15 09:51:39.41	133.84	29.90	-31.6	-35.7	11.3	1.38e-03	0	43	0	365953024	23	5800
2026-01-15 09:51:40.41	133.73	30.08	-31.7	-36.1	11.1	1.27e-03	0	43	0	368050176	23	5964
2026-01-15 09:51:41.41	133.61	30.26	-31.8	-36.5	10.8	1.98e-03	0	43	0	370147328	23	6158
2026-01-15 09:51:42.41	133.49	30.45	-31.9	-36.7	10.7	3.32e-03	0	43	0	372244480	23	6254
2026-01-15 09:51:43.41	133.37	30.63	-31.9	-36.6	10.8	1.81e-03	0	43	0	374341632	23	6198
2026-01-15 09:51:44.41	133.25	30.82	-31.9	-36.6	10.8	2.64e-03	0	43	0	375390208	23	6208
2026-01-15 09:51:45.41	133.13	31.00	-31.6	-35.8	11.3	1.41e-03	0	43	0	377487360	23	5834
2026-01-15 09:51:46.42	133.01	31.19	-31.5	-35.4	11.6	7.64e-04	0	43	0	379584512	23	5662
2026-01-15 09:51:47.42	132.88	31.38	-31.6	-35.7	11.5	8.19e-04	0	43	0	381681664	23	5769
2026-01-15 09:51:48.42	132.76	31.57	-31.5	-35.6	11.5	9.61e-04	0	43	0	382730240	23	5717
2026-01-15 09:51:49.42	132.63	31.76	-31.5	-35.5	11.6	7.01e-04	0	43	0	384827392	23	5672
2026-01-15 09:51:50.43	132.50	31.95	-31.5	-35.5	11.7	7.85e-04	0	43	0	386924544	23	5651
2026-01-15 09:51:51.43	132.37	32.14	-31.4	-34.9	12.1	5.12e-04	0	43	0	389021696	23	5403
2026-01-15 09:51:52.43	132.23	32.34	-31.3	-34.8	12.2	1.63e-04	0	43	0	391118848	23	5353
2026-01-15 09:51:53.43	132.10	32.53	-31.2	-34.4	12.4	1.44e-04	0	43	0	392167424	23	5196
2026-01-15 09:51:54.43	131.96	32.73	-31.3	-34.5	12.4	1.60e-04	0	43	0	394264576	23	5218
2026-01-15 09:51:55.43	131.83	32.92	-31.3	-34.5	12.4	2.03e-04	0	43	0	396361728	23	5233
2026-01-15 09:51:56.44	131.69	33.12	-31.4	-34.9	12.2	1.89e-04	0	43	0	398458880	23	5373
2026-01-15 09:51:57.44	131.55	33.32	-31.5	-35.2	11.9	3.94e-04	0	43	0	400556032	23	5519
2026-01-15 09:51:58.44	131.40	33.52	-31.5	-35.3	11.8	5.31e-04	0	43	0	401604608	23	5580
2026-01-15 09:51:59.44	131.26	33.72	-31.6	-35.4	11.8	4.68e-04	0	43	0	403701760	23	5608
2026-01-15 09:52:00.44	131.11	33.92	-31.6	-35.5	11.8	6.18e-04	0	43	0	405798912	23	5652
2026-01-15 09:52:01.45	130.96	34.13	-31.5	-35.0	12.0	4.47e-04	0	43	0	407896064	23	5439
2026-01-15 09:52:02.45	130.81	34.33	-31.5	-35.0	12.0	2.94e-04	0	43	0	408944640	23	5433
2026-01-15 09:52:03.46	130.66	34.54	-31.5	-35.3	11.8	3.65e-04	0	43	0	411041792	23	5539
2026-01-15 09:52:04.46	130.50	34.75	-31.5	-35.2	12.0	3.47e-04	0	43	0	413138944	23	5484
2026-01-15 09:52:05.46	130.35	34.95	-31.5	-35.2	11.9	3.14e-04	0	43	0	415236096	23	5481
2026-01-15 09:52:06.47	130.19	35.16	-31.6	-35.4	11.8	4.32e-04	0	43	0	417333248	23	5573
2026-01-15 09:52:07.47	130.03	35.37	-31.7	-35.6	11.7	5.12e-04	0	43	0	419430400	23	5695
2026-01-15 09:52:08.47	129.87	35.58	-31.7	-35.9	11.5	8.48e-04	0	43	0	420478976	23	5797
2026-01-15 09:52:09.47	129.70	35.80	-31.8	-36.0	11.4	7.93e-04	0	43	0	422576128	23	5831
2026-01-15 09:52:10.47	129.53	36.01	-31.8	-36.2	11.3	1.11e-03	0	43	0	424673280	23	5939
2026-01-15 09:52:11.48	129.36	36.23	-31.8	-36.1	11.3	1.25e-03	0	43	0	426770432	23	5914
2026-01-15 09:52:12.48	129.19	36.44	-31.6	-35.5	11.8	6.45e-04	0	43	0	427819008	23	5623
2026-01-15 09:52:13.49	129.02	36.66	-31.5	-35.3	11.9	5.11e-04	0	43	0	429916160	23	5525
2026-01-15 09:52:14.49	128.84	36.88	-31.6	-35.4	11.8	4.54e-04	0	43	0	432013312	23	5587
2026-01-15 09:52:15.49	128.66	37.10	-31.5	-35.3	11.9	4.97e-04	0	43	0	434110464	23	5532
2026-01-15 09:52:16.49	128.48	37.32	-31.5	-35.3	11.9	3.47e-04	0	43	0	436207616	23	5522
2026-01-15 09:52:17.49	128.30	37.54	-31.5	-35.2	11.9	3.48e-04	0	43	0	437256192	23	5513
2026-01-15 09:52:18.50	128.11	37.76	-31.5	-35.1	12.0	3.94e-04	0	43	0	439353344	23	5456
2026-01-15 09:52:19.50	127.92	37.99	-31.5	-35.0	12.1	4.18e-04	0	43	0	441450496	23	5419
2026-01-15 09:52:20.50	127.73	38.21	-31.5	-35.1	12.1	2.70e-04	0	43	0	443547648	23	5442
2026-01-15 09:52:21.50	127.54	38.44	-31.4	-34.9	12.2	2.38e-04	0	43	0	445644800	23	5375
2026-01-15 09:52:22.50	127.34	38.66	-31.4	-34.9	12.2	2.05e-04	0	43	0	446693376	23	5373
2026-01-15 09:52:23.50	127.14	38.89	-31.5	-35.2	12.0	2.66e-04	0	43	0	448790528	23	5508
2026-01-15 09:52:24.51	126.94	39.12	-31.4	-34.9	12.2	3.77e-04	0	43	0	450887680	23	5364
2026-01-15 09:52:25.51	126.73	39.35	-31.4	-34.9	12.2	2.39e-04	0	43	0	452984832	23	5373
2026-01-15 09:52:26.52	126.52	39.59	-31.5	-35.2	12.0	3.81e-04	0	43	0	455081984	23	5504
2026-01-15 09:52:27.53	126.31	39.82	-31.5	-35.2	12.0	2.26e-04	0	43	0	456130560	23	5485
2026-01-15 09:52:28.53	126.10	40.05	-31.6	-35.4	11.9	4.37e-04	0	43	0	458227712	23	5561
2026-01-15 09:52:29.53	125.88	40.29	-31.5	-35.2	12.0	3.40e-04	0	43	0	460324864	23	5481
2026-01-15 09:52:30.53	125.66	40.52	-31.5	-35.2	12.0	2.65e-04	0	43	0	462422016	23	5498
2026-01-15 09:52:31.54	125.43	40.76	-31.6	-35.5	11.8	4.13e-04	0	43	0	464519168	23	5617
2026-01-15 09:52:32.54	125.21	41.00	-31.7	-35.6	11.7	5.28e-04	0	43	0	465567744	23	5679
2026-01-15 09:52:33.54	124.97	41.24	-31.7	-35.8	11.7	7.92e-04	0	43	0	467664896	23	5754
2026-01-15 09:52:34.54	124.74	41.48	-31.8	-36.1	11.4	8.48e-04	0	43	0	469762048	23	5892
2026-01-15 09:52:35.54	124.50	41.72	-31.8	-36.0	11.4	1.20e-03	0	43	0	471859200	23	5853
2026-01-15 09:52:36.55	124.26	41.97	-31.6	-35.5	11.9	5.84e-04	0	43	0	472907776	23	5607
2026-01-15 09:52:37.55	124.01	42.21	-31.7	-35.7	11.7	4.61e-04	0	43	0	475004928	23	5709
2026-01-15 09:52:38.55	123.77	42.45	-31.8	-35.9	11.6	8.96e-04	0	43	0	477102080	23	5792
2026-01-15 09:52:39.55	123.51	42.70	-31.7	-35.7	11.8	6.06e-04	0	43	0	479199232	23	5680
2026-01-15 09:52:40.56	123.25	42.95	-31.7	-35.8	11.7	5.62e-04	0	43	0	481296384	23	5731
2026-01-15 09:52:41.56	122.99	43.19	-31.7	-35.6	11.8	4.24e-04	0	43	0	482344960	23	5635
2026-01-15 09:52:42.56	122.73	43.44	-31.7	-35.7	11.7	5.41e-04	0	43	0	484442112	23	5713
2026-01-15 09:52:43.56	122.46	43.69	-31.7	-35.5	11.8	6.96e-04	0	43	0	486539264	23	5609
2026-01-15 09:52:44.57	122.18	43.94	-31.4	-34.9	12.3	2.38e-04	0	43	0	488636416	23	5347
2026-01-15 09:52:45.57	121.91	44.19	-31.1	-33.9	13.0	7.70e-05	0	43	0	490733568	23	4959
2026-01-15 09:52:46.56	121.63	44.44	-30.8	-33.2	13.5	1.06e-05	0	43	0	491782144	23	4707
2026-01-15 09:52:47.56	121.34	44.69	-30.8	-33.5	13.6	9.90e-06	0	43	0	493879296	22	4920
2026-01-15 09:52:48.57	121.05	44.95	-30.8	-33.5	13.6	6.10e-06	0	43	0	495976448	22	4941
2026-01-15 09:52:49.57	120.75	45.20	-30.9	-33.7	13.4	1.67e-05	0	43	0	498073600	22	5019
2026-01-15 09:52:50.58	120.45	45.46	-30.9	-33.8	13.4	9.90e-06	0	43	0	500170752	22	5042
2026-01-15 09:52:51.58	120.14	45.71	-30.9	-33.8	13.4	1.52e-05	0	43	0	501219328	22	5048
2026-01-15 09:52:52.58	119.83	45.97	-30.9	-33.8	13.4	1.90e-05	0	43	0	503316480	22	5030
2026-01-15 09:52:53.58	119.52	46.22	-31.2	-34.6	12.9	2.97e-05	0	43	0	505413632	22	5339
2026-01-15 09:52:54.59	119.19	46.48	-31.3	-34.9	12.7	9.68e-05	0	43	0	507510784	22	5455
2026-01-15 09:52:55.59	118.87	46.74	-31.3	-34.8	12.7	7.78e-05	0	43	0	509607936	22	5426
2026-01-15 09:52:56.59	118.54	47.00	-31.3	-34.8	12.7	8.92e-05	0	43	0	510656512	22	5426
2026-01-15 09:52:57.59	118.20	47.26	-31.3	-34.9	12.7	9.84e-05	0	43	0	512753664	22	5451
2026-01-15 09:52:58.60	117.85	47.52	-31.3	-35.0	12.6	7.85e-05	0	43	0	514850816	22	5501
2026-01-15 09:52:59.59	117.51	47.78	-31.2	-34.5	13.0	8.85e-05	0	43	0	516947968	22	5296
2026-01-15 09:53:00.59	117.15	48.04	-31.0	-34.1	13.2	2.74e-05	0	43	0	517996544	22	5143
2026-01-15 09:53:01.60	116.79	48.30	-31.0	-34.0	13.4	1.44e-05	0	43	0	520093696	22	5090
2026-01-15 09:53:02.60	116.42	48.56	-30.9	-33.7	13.5	1.14e-05	0	43	0	522190848	22	4995
2026-01-15 09:53:03.60	116.05	48.82	-30.7	-33.2	13.9	3.80e-06	0	43	0	524288000	22	4794
2026-01-15 09:53:04.61	115.66	49.08	-30.7	-33.1	13.9	5.30e-06	0	43	0	526385152	22	4767
2026-01-15 09:53:05.61	115.28	49.34	-30.8	-33.5	13.6	1.50e-06	0	43	0	528482304	22	4912
2026-01-15 09:53:06.61	114.89	49.61	-30.9	-33.9	13.4	1.29e-05	0	43	0	529530880	22	5054
2026-01-15 09:53:07.62	114.48	49.87	-31.1	-34.3	13.1	2.59e-05	0	43	0	531628032	22	5201
2026-01-15 09:53:08.63	114.07	50.13	-30.9	-33.9	13.3	1.67e-05	0	43	0	533725184	22	5064
2026-01-15 09:53:09.63	113.66	50.39	-31.0	-34.1	13.2	1.90e-05	0	43	0	535822336	22	5163
2026-01-15 09:53:10.63	113.24	50.66	-30.9	-34.0	13.3	1.98e-05	0	43	0	536870912	22	5095
2026-01-15 09:53:11.64	112.80	50.92	-30.8	-33.6	13.6	8.30e-06	0	43	0	538968064	22	4936
2026-01-15 09:53:12.64	112.37	51.18	-30.7	-33.2	13.9	3.80e-06	0	43	0	541065216	22	4799
2026-01-15 09:53:13.64	111.92	51.44	-30.6	-33.0	14.0	1.50e-06	0	43	0	543162368	22	4734
2026-01-15 09:53:14.64	111.47	51.70	-30.4	-32.4	14.4	3.00e-06	0	43	0	545259520	22	4527
2026-01-15 09:53:15.65	111.01	51.96	-29.7	-31.6	15.4	0.00e+00	0	43	0	546308096	20	4501
2026-01-15 09:53:16.65	110.54	52.22	-29.3	-30.8	15.9	0.00e+00	0	43	0	548405248	20	4246
2026-01-15 09:53:17.66	110.06	52.48	-29.2	-30.9	16.2	0.00e+00	0	43	0	550502400	19	4388
2026-01-15 09:53:18.66	109.57	52.74	-29.4	-31.4	15.9	0.00e+00	0	43	0	552599552	19	4532
2026-01-15 09:53:19.66	109.08	52.99	-29.5	-31.6	15.8	0.00e+00	0	43	0	554696704	19	4587
2026-01-15 09:53:20.66	108.58	53.25	-29.4	-31.5	15.9	0.00e+00	0	43	0	555745280	19	4561
2026-01-15 09:53:21.66	108.07	53.50	-29.3	-31.3	16.0	0.00e+00	0	43	0	557842432	19	4499
2026-01-15 09:53:22.67	107.54	53.76	-29.5	-31.6	15.9	0.00e+00	0	43	0	559939584	19	4590
2026-01-15 09:53:23.66	107.02	54.01	-29.4	-31.4	15.9	0.00e+00	0	43	0	562036736	19	4535
2026-01-15 09:53:24.66	106.48	54.26	-29.4	-31.4	15.9	0.00e+00	0	43	0	564133888	19	4547
2026-01-15 09:53:25.66	105.93	54.51	-29.5	-31.8	15.8	0.00e+00	0	43	0	565182464	19	4645
2026-01-15 09:53:26.66	105.37	54.76	-29.5	-31.7	15.8	0.00e+00	0	43	0	567279616	19	4620
2026-01-15 09:53:27.67	104.80	55.01	-29.4	-31.3	16.0	0.00e+00	0	43	0	569376768	19	4501
2026-01-15 09:53:28.67	104.22	55.25	-29.6	-31.9	15.7	0.00e+00	0	43	0	571473920	19	4699
2026-01-15 09:53:29.67	103.64	55.49	-29.9	-32.7	15.2	0.00e+00	0	43	0	573571072	19	4967
2026-01-15 09:53:30.67	103.04	55.73	-30.2	-33.0	14.6	0.00e+00	0	43	0	574619648	20	4971
2026-01-15 09:53:31.67	102.43	55.97	-30.4	-33.5	14.3	1.50e-06	0	43	0	576716800	20	5131
2026-01-15 09:53:32.68	101.81	56.21	-30.6	-33.6	13.9	0.00e+00	0	43	0	578813952	21	5051
2026-01-15 09:53:33.68	101.18	56.45	-30.9	-34.4	13.4	1.22e-05	0	43	0	580911104	21	5341
2026-01-15 09:53:34.68	100.54	56.68	-31.0	-34.0	13.4	2.59e-05	0	43	0	581959680	22	5080
2026-01-15 09:53:35.69	99.88	56.91	-31.0	-33.9	13.4	1.29e-05	0	43	0	584056832	22	5055
2026-01-15 09:53:36.69	99.22	57.14	-31.2	-34.6	13.0	1.37e-05	0	43	0	586153984	22	5321
2026-01-15 09:53:37.69	98.55	57.36	-31.5	-35.1	12.3	1.18e-04	0	43	0	588251136	23	5424
2026-01-15 09:53:38.69	97.86	57.58	-31.6	-35.3	12.2	1.83e-04	0	43	0	590348288	23	5482
2026-01-15 09:53:39.69	97.17	57.80	-31.3	-34.3	12.9	1.54e-04	0	43	0	591396864	23	5110
2026-01-15 09:53:40.69	96.46	58.01	-31.4	-34.6	12.7	4.88e-05	0	43	0	593494016	23	5205
2026-01-15 09:53:41.70	95.74	58.22	-31.6	-35.4	12.1	1.33e-04	0	43	0	595591168	23	5527
2026-01-15 09:53:42.70	95.01	58.43	-31.7	-35.5	12.1	1.70e-04	0	43	0	597688320	23	5564
2026-01-15 09:53:43.70	94.27	58.64	-31.5	-34.9	12.5	1.74e-04	0	43	0	599785472	23	5339
2026-01-15 09:53:44.71	93.51	58.84	-31.6	-35.4	12.2	1.59e-04	0	43	0	600834048	23	5526
2026-01-15 09:53:45.70	92.75	59.03	-31.5	-34.9	12.5	1.97e-04	0	43	0	602931200	23	5348
2026-01-15 09:53:46.70	91.98	59.22	-31.3	-34.3	12.9	9.76e-05	0	43	0	605028352	23	5107
2026-01-15 09:53:47.71	91.18	59.41	-31.1	-33.8	13.2	2.05e-05	0	43	0	607125504	23	4907
2026-01-15 09:53:48.72	90.38	59.60	-31.3	-34.5	12.8	3.58e-05	0	43	0	609222656	23	5158
2026-01-15 09:53:49.72	89.57	59.77	-31.3	-34.5	12.8	1.01e-04	0	43	0	610271232	23	5165
2026-01-15 09:53:50.72	88.75	59.95	-31.0	-33.5	13.4	2.82e-05	0	43	0	612368384	23	4803
2026-01-15 09:53:51.73	87.91	60.12	-30.5	-32.7	14.3	2.20e-06	0	43	0	614465536	22	4626
2026-01-15 09:53:52.73	87.07	60.28	-30.3	-32.2	14.6	0.00e+00	0	43	0	616562688	22	4470
2026-01-15 09:53:53.73	86.22	60.44	-30.3	-32.6	14.6	0.00e+00	0	43	0	618659840	21	4699
2026-01-15 09:53:54.74	85.35	60.59	-29.9	-31.6	15.2	0.00e+00	0	43	0	619708416	21	4390
2026-01-15 09:53:55.74	84.47	60.74	-29.5	-31.1	15.8	0.00e+00	0	43	0	621805568	20	4352
2026-01-15 09:53:56.74	83.59	60.88	-29.5	-31.0	15.9	0.00e+00	0	43	0	623902720	20	4318
2026-01-15 09:53:57.74	82.70	61.02	-29.3	-30.8	16.1	0.00e+00	0	43	0	625999872	20	4240
2026-01-15 09:53:58.74	81.80	61.15	-29.4	-31.3	16.1	0.00e+00	0	43	0	627048448	19	4505
2026-01-15 09:53:59.75	80.87	61.27	-29.3	-31.2	16.1	0.00e+00	0	43	0	629145600	19	4459
2026-01-15 09:54:00.75	79.95	61.39	-29.0	-30.5	16.5	0.00e+00	0	43	0	631242752	19	4267
2026-01-15 09:54:01.75	79.03	61.50	-28.9	-30.1	16.8	0.00e+00	0	43	0	633339904	19	4152
2026-01-15 09:54:02.76	78.08	61.61	-29.1	-30.6	16.5	0.00e+00	0	43	0	635437056	19	4284
2026-01-15 09:54:03.76	77.13	61.71	-29.1	-30.7	16.4	0.00e+00	0	43	0	636485632	19	4306
2026-01-15 09:54:04.76	76.18	61.80	-29.0	-30.3	16.7	3.00e-06	0	43	0	638582784	19	4218
2026-01-15 09:54:05.77	75.21	61.88	-28.9	-30.2	16.7	0.00e+00	0	43	0	640679936	19	4184
2026-01-15 09:54:06.77	74.25	61.96	-29.0	-30.5	16.5	0.00e+00	0	43	0	642777088	19	4264
2026-01-15 09:54:07.77	73.28	62.03	-28.7	-30.3	16.9	3.00e-06	0	43	0	644874240	18	4305
2026-01-15 09:54:08.78	72.29	62.10	-28.5	-29.6	17.3	0.00e+00	0	43	0	645922816	18	4127
2026-01-15 09:54:09.77	71.32	62.15	-28.3	-29.8	17.5	0.00e+00	0	43	0	648019968	17	4288
2026-01-15 09:54:10.78	70.32	62.20	-28.0	-29.1	17.9	0.00e+00	0	43	0	650117120	17	4077
2026-01-15 09:54:11.78	69.33	62.24	-27.7	-28.9	18.2	0.00e+00	0	43	0	652214272	16	4148
2026-01-15 09:54:12.78	68.34	62.28	-27.6	-28.8	18.3	0.00e+00	0	43	0	654311424	16	4119
2026-01-15 09:54:13.78	67.35	62.31	-27.7	-29.0	18.2	7.00e-07	0	43	0	655360000	16	4155
2026-01-15 09:54:14.78	66.35	62.33	-27.5	-28.4	18.5	0.00e+00	0	43	0	657457152	16	4007
2026-01-15 09:54:15.78	65.35	62.34	-27.6	-28.6	18.4	0.00e+00	0	43	0	659554304	16	4072
2026-01-15 09:54:16.79	64.34	62.35	-27.4	-28.3	18.6	0.00e+00	0	43	0	661651456	16	3991
2026-01-15 09:54:17.79	63.34	62.34	-27.1	-28.2	18.7	0.00e+00	0	43	0	663748608	15	4060
2026-01-15 09:54:18.80	62.33	62.33	-27.2	-28.4	18.7	0.00e+00	0	43	0	664797184	15	4109
2026-01-15 09:54:19.80	61.34	62.32	-27.5	-29.0	18.4	0.00e+00	0	43	0	666894336	15	4271
2026-01-15 09:54:20.80	60.34	62.29	-27.5	-29.1	18.2	0.00e+00	0	43	0	668991488	15	4312
2026-01-15 09:54:21.80	59.35	62.26	-27.9	-29.8	17.8	0.00e+00	0	43	0	671088640	15	4521
2026-01-15 09:54:22.80	58.36	62.22	-28.0	-29.5	17.9	0.00e+00	0	43	0	672137216	16	4310
2026-01-15 09:54:23.81	57.36	62.17	-27.9	-29.4	18.0	0.00e+00	0	43	0	674234368	16	4267
2026-01-15 09:54:24.81	56.38	62.12	-28.1	-29.9	17.7	0.00e+00	0	43	0	676331520	16	4426
2026-01-15 09:54:25.81	55.40	62.06	-28.2	-30.1	17.6	0.00e+00	0	43	0	678428672	16	4467
2026-01-15 09:54:26.82	54.42	61.99	-28.1	-29.8	17.7	0.00e+00	0	43	0	680525824	16	4369
2026-01-15 09:54:27.82	53.45	61.92	-28.3	-30.2	17.5	0.00e+00	0	43	0	681574400	16	4504
2026-01-15 09:54:28.83	52.48	61.83	-28.4	-30.5	17.4	0.00e+00	0	43	0	683671552	16	4602
2026-01-15 09:54:29.83	51.52	61.75	-28.3	-30.3	17.5	0.00e+00	0	43	0	685768704	16	4531
2026-01-15 09:54:30.83	50.58	61.65	-28.5	-30.3	17.2	0.00e+00	0	43	0	687865856	17	4429
2026-01-15 09:54:31.83	49.64	61.55	-28.5	-30.3	17.2	0.00e+00	0	43	0	689963008	17	4421
2026-01-15 09:54:32.83	48.71	61.44	-28.5	-30.3	17.2	0.00e+00	0	43	0	691011584	17	4419
2026-01-15 09:54:33.84	47.77	61.32	-29.0	-31.4	16.6	0.00e+00	0	43	0	693108736	17	4742
2026-01-15 09:54:34.85	46.85	61.20	-28.9	-30.6	16.6	1.50e-06	0	43	0	695205888	18	4391
2026-01-15 09:54:35.85	45.94	61.08	-28.8	-30.3	17.0	0.00e+00	0	43	0	697303040	18	4314
2026-01-15 09:54:36.85	45.05	60.94	-28.4	-29.6	17.4	0.00e+00	0	43	0	699400192	18	4108
2026-01-15 09:54:37.86	44.15	60.80	-28.6	-30.1	17.0	0.00e+00	0	43	0	700448768	18	4247
2026-01-15 09:54:38.87	43.27	60.66	-28.9	-30.6	16.8	0.00e+00	0	43	0	702545920	18	4411
2026-01-15 09:54:39.86	42.41	60.51	-29.1	-31.3	16.3	0.00e+00	0	43	0	704643072	18	4603
2026-01-15 09:54:40.86	41.56	60.35	-29.4	-31.8	16.1	0.00e+00	0	43	0	706740224	18	4765
2026-01-15 09:54:41.86	40.71	60.19	-29.5	-32.0	15.9	0.00e+00	0	43	0	708837376	18	4843
2026-01-15 09:54:42.86	39.88	60.02	-29.5	-31.6	16.0	0.00e+00	0	43	0	709885952	19	4597
2026-01-15 09:54:43.87	39.04	59.85	-29.7	-32.1	15.6	0.00e+00	0	43	0	711983104	19	4749
2026-01-15 09:54:44.87	38.23	59.68	-30.0	-32.5	14.9	0.00e+00	0	43	0	714080256	20	4786
2026-01-15 09:54:45.87	37.43	59.50	-30.5	-33.2	14.3	0.00e+00	0	43	0	716177408	21	4917
2026-01-15 09:54:46.87	36.64	59.31	-30.9	-34.2	13.5	7.60e-06	0	43	0	718274560	21	5297
2026-01-15 09:54:47.87	35.86	59.12	-31.0	-34.1	13.3	9.90e-06	0	43	0	719323136	22	5124
2026-01-15 09:54:48.88	35.09	58.93	-31.1	-34.4	13.2	2.28e-05	0	43	0	721420288	22	5227
2026-01-15 09:54:49.88	34.33	58.73	-31.1	-34.2	13.1	2.36e-05	0	43	0	723517440	22	5180
2026-01-15 09:54:50.88	33.59	58.53	-31.4	-35.1	12.8	3.96e-05	0	43	0	725614592	22	5508
2026-01-15 09:54:51.88	32.86	58.32	-31.3	-34.8	12.8	6.63e-05	0	43	0	726663168	22	5418
2026-01-15 09:54:52.89	32.13	58.11	-31.1	-34.4	13.1	3.73e-05	0	43	0	728760320	22	5229
2026-01-15 09:54:53.89	31.42	57.90	-31.4	-35.0	12.7	4.50e-05	0	43	0	730857472	22	5477
2026-01-15 09:54:54.90	30.71	57.68	-31.5	-34.9	12.4	1.21e-04	0	43	0	732954624	23	5350
2026-01-15 09:54:55.90	30.02	57.46	-31.4	-34.6	12.6	8.92e-05	0	43	0	735051776	23	5229
2026-01-15 09:54:56.91	29.34	57.24	-31.3	-34.4	12.8	6.79e-05	0	43	0	736100352	23	5147
2026-01-15 09:54:57.91	28.68	57.01	-31.1	-33.9	13.1	3.73e-05	0	43	0	738197504	23	4957
2026-01-15 09:54:58.91	28.02	56.79	-31.1	-33.7	13.2	2.28e-05	0	43	0	740294656	23	4888
2026-01-15 09:54:59.91	27.38	56.56	-31.3	-34.3	12.8	2.51e-05	0	43	0	742391808	23	5116
2026-01-15 09:55:00.91	26.74	56.32	-31.1	-33.8	13.1	4.42e-05	0	43	0	744488960	23	4934
2026-01-15 09:55:01.92	26.12	56.09	-31.2	-34.0	13.0	4.27e-05	0	43	0	745537536	23	5008
2026-01-15 09:55:02.92	25.51	55.85	-31.3	-34.3	12.8	6.25e-05	0	43	0	747634688	23	5099
2026-01-15 09:55:03.93	24.90	55.61	-30.8	-33.0	13.6	1.90e-05	0	43	0	749731840	23	4647
2026-01-15 09:55:04.93	24.31	55.37	-30.4	-32.4	14.4	6.80e-06	0	43	0	751828992	22	4559
2026-01-15 09:55:05.94	23.72	55.12	-30.2	-32.3	14.7	0.00e+00	0	43	0	753926144	21	4637
2026-01-15 09:55:06.94	23.15	54.88	-30.0	-32.0	14.9	7.00e-07	0	43	0	754974720	21	4538
2026-01-15 09:55:07.94	22.59	54.63	-30.0	-31.9	14.9	0.00e+00	0	43	0	757071872	21	4499
2026-01-15 09:55:08.95	22.03	54.38	-30.0	-32.0	14.9	0.00e+00	0	43	0	759169024	21	4503
2026-01-15 09:55:09.95	21.49	54.13	-30.0	-31.9	14.9	0.00e+00	0	43	0	761266176	21	4505
2026-01-15 09:55:10.95	20.96	53.88	-29.9	-31.6	15.1	0.00e+00	0	43	0	763363328	21	4403
2026-01-15 09:55:11.95	20.44	53.63	-29.8	-32.0	15.1	0.00e+00	0	43	0	764411904	20	4643
2026-01-15 09:55:12.96	19.92	53.37	-30.0	-32.4	14.9	0.00e+00	0	43	0	766509056	20	4766
2026-01-15 09:55:13.96	19.41	53.12	-30.1	-32.8	14.7	7.00e-07	0	43	0	768606208	20	4887
2026-01-15 09:55:14.97	18.91	52.86	-30.1	-32.8	14.7	7.00e-07	0	43	0	770703360	20	4885
2026-01-15 09:55:15.98	18.42	52.60	-30.3	-33.3	14.4	1.50e-06	0	43	0	772800512	20	5055
2026-01-15 09:55:16.98	17.94	52.34	-30.5	-33.3	14.1	1.50e-06	0	43	0	773849088	21	4954
2026-01-15 09:55:17.97	17.48	52.09	-30.6	-33.5	13.9	4.50e-06	0	43	0	775946240	21	5034
2026-01-15 09:55:18.98	17.01	51.83	-30.7	-33.8	13.7	3.80e-06	0	43	0	778043392	21	5141
2026-01-15 09:55:19.98	16.56	51.57	-30.8	-34.1	13.5	9.90e-06	0	43	0	780140544	21	5268
2026-01-15 09:55:20.99	16.11	51.31	-30.9	-34.3	13.4	1.67e-05	0	43	0	782237696	21	5309
2026-01-15 09:55:21.99	15.67	51.05	-31.1	-34.3	13.1	2.28e-05	0	43	0	783286272	22	5230
2026-01-15 09:55:22.99	15.24	50.79	-31.4	-35.3	12.4	9.15e-05	0	43	0	785383424	22	5634
2026-01-15 09:55:23.99	14.82	50.53	-31.6	-35.4	12.0	2.60e-04	0	43	0	787480576	23	5550
2026-01-15 09:55:25.00	14.40	50.27	-31.9	-36.2	11.5	5.80e-04	0	43	0	789577728	23	5904
2026-01-15 09:55:26.00	13.99	50.01	-32.0	-36.4	11.3	1.07e-03	0	43	0	790626304	23	6011
2026-01-15 09:55:27.00	13.58	49.75	-32.1	-36.3	11.0	1.53e-03	0	43	0	792723456	24	5840
2026-01-15 09:55:28.01	13.19	49.48	-32.0	-36.2	11.1	1.91e-03	0	43	0	794820608	24	5794
2026-01-15 09:55:29.01	12.80	49.22	-31.7	-35.2	11.8	8.15e-04	0	43	0	796917760	24	5386
2026-01-15 09:55:30.01	12.42	48.96	-31.9	-35.7	11.4	7.36e-04	0	43	0	799014912	24	5586
2026-01-15 09:55:31.01	12.04	48.70	-32.1	-36.3	10.9	1.56e-03	0	43	0	800063488	24	5863
2026-01-15 09:55:32.02	11.67	48.44	-31.7	-35.0	11.9	1.35e-03	0	43	0	802160640	24	5286
2026-01-15 09:55:33.01	11.31	48.18	-31.3	-34.3	12.7	1.17e-04	0	43	0	804257792	23	5121
2026-01-15 09:55:34.01	10.95	47.92	-31.2	-34.1	12.9	6.40e-05	0	43	0	806354944	23	5029
2026-01-15 09:55:35.01	10.60	47.67	-31.3	-34.6	12.5	6.86e-05	0	43	0	808452096	23	5225
2026-01-15 09:55:36.01	10.26	47.41	-31.4	-34.6	12.5	1.15e-04	0	43	0	809500672	23	5215
2026-01-15 09:55:37.01	9.92	47.15	-31.5	-34.9	12.3	1.32e-04	0	43	0	811597824	23	5343
2026-01-15 09:55:38.02	9.58	46.89	-31.3	-34.4	12.6	1.23e-04	0	43	0	813694976	23	5169
2026-01-15 09:55:39.03	9.25	46.63	-31.2	-34.1	12.8	6.33e-05	0	43	0	815792128	23	5031
2026-01-15 09:55:40.02	8.93	46.38	-30.8	-33.2	13.4	2.28e-05	0	43	0	817889280	23	4699
2026-01-15 09:55:41.03	8.61	46.12	-30.8	-33.6	13.5	9.90e-06	0	43	0	818937856	22	4966
2026-01-15 09:55:42.02	8.30	45.87	-31.1	-34.5	12.9	1.60e-05	0	43	0	821035008	22	5284
2026-01-15 09:55:43.02	8.00	45.61	-31.1	-34.3	13.1	3.73e-05	0	43	0	823132160	22	5212
2026-01-15 09:55:44.03	7.69	45.36	-31.1	-34.5	12.9	4.88e-05	0	43	0	825229312	22	5284
2026-01-15 09:55:45.04	7.39	45.10	-31.3	-35.1	12.5	6.33e-05	0	43	0	827326464	22	5539
2026-01-15 09:55:46.04	7.10	44.85	-31.1	-34.4	12.9	5.34e-05	0	43	0	828375040	22	5251
2026-01-15 09:55:47.04	6.81	44.60	-31.0	-34.2	13.1	2.44e-05	0	43	0	830472192	22	5183
2026-01-15 09:55:48.04	6.53	44.35	-31.0	-34.0	13.2	3.89e-05	0	43	0	832569344	22	5109
2026-01-15 09:55:49.04	6.25	44.10	-31.0	-34.0	13.2	1.06e-05	0	43	0	834666496	22	5120
2026-01-15 09:55:50.05	5.97	43.85	-31.3	-35.0	12.5	5.41e-05	0	43	0	835715072	22	5512
2026-01-15 09:55:51.05	5.70	43.60	-31.6	-35.3	12.0	1.62e-04	0	43	0	837812224	23	5550
2026-01-15 09:55:52.06	5.44	43.35	-31.7	-35.6	11.7	4.14e-04	0	43	0	839909376	23	5645
2026-01-15 09:55:53.06	5.17	43.10	-31.7	-35.5	11.8	4.29e-04	0	43	0	842006528	23	5634
2026-01-15 09:55:54.06	4.92	42.86	-31.8	-36.0	11.5	6.62e-04	0	43	0	844103680	23	5818
2026-01-15 09:55:55.07	4.66	42.61	-31.9	-36.2	11.4	7.80e-04	0	43	0	846200832	23	5915
2026-01-15 09:55:56.08	4.41	42.36	-31.9	-36.2	11.2	1.21e-03	0	43	0	847249408	23	5948
2026-01-15 09:55:57.08	4.16	42.12	-31.9	-36.5	11.1	1.41e-03	0	43	0	849346560	23	6051
2026-01-15 09:55:58.08	3.92	41.88	-31.9	-36.3	11.2	1.17e-03	0	43	0	851443712	23	5968
2026-01-15 09:55:59.08	3.68	41.64	-31.9	-36.4	11.1	9.87e-04	0	43	0	853540864	23	6039
2026-01-15 09:56:00.09	3.45	41.40	-32.0	-36.2	11.0	1.79e-03	0	43	0	854589440	24	5846
2026-01-15 09:56:01.09	3.21	41.16	-32.1	-36.5	10.7	1.88e-03	0	43	0	856686592	24	5961
2026-01-15 09:56:02.10	2.98	40.92	-32.3	-37.3	10.2	4.00e-03	0	43	0	858783744	24	6354
2026-01-15 09:56:03.10	2.76	40.69	-32.5	-37.3	9.7	7.89e-03	0	43	0	860880896	25	6295
2026-01-15 09:56:04.10	2.54	40.45	-32.6	-38.0	9.2	1.77e-02	0	43	0	862978048	25	6639
2026-01-15 09:56:05.11	2.32	40.21	-32.8	-38.8	8.6	2.75e-02	0	43	0	864026624	25	7122
2026-01-15 09:56:06.11	2.10	39.98	-32.9	-39.1	8.3	4.52e-02	0	43	0	866123776	25	7334
2026-01-15 09:56:07.12	1.89	39.75	-32.9	-38.9	8.4	4.81e-02	0	43	0	868220928	25	7230
2026-01-15 09:56:08.12	1.68	39.52	-32.8	-38.6	8.7	4.15e-02	0	43	0	870318080	25	7007
2026-01-15 09:56:09.12	1.48	39.29	-32.6	-37.9	9.3	2.29e-02	0	43	0	872415232	25	6584
2026-01-15 09:56:10.12	1.27	39.06	-32.6	-38.0	9.2	2.20e-02	0	43	0	873463808	25	6651
2026-01-15 09:56:11.12	1.07	38.83	-32.4	-37.2	9.8	1.29e-02	0	43	0	875560960	25	6219
2026-01-15 09:56:12.12	0.88	38.60	-32.5	-37.3	9.7	1.05e-02	0	43	0	877658112	25	6280
2026-01-15 09:56:13.12	0.68	38.38	-32.5	-37.5	9.6	1.13e-02	0	43	0	879755264	25	6391
2026-01-15 09:56:14.13	0.49	38.15	-32.5	-37.6	9.4	1.70e-02	0	43	0	881852416	25	6484
2026-01-15 09:56:15.13	0.30	37.93	-32.4	-37.1	9.8	1.23e-02	0	43	0	882900992	25	6162
2026-01-15 09:56:16.14	0.11	37.71	-32.3	-36.8	10.0	8.85e-03	0	43	0	884998144	25	6031
2026-01-15 09:56:17.14	359.93	37.48	-32.2	-36.2	10.5	4.58e-03	0	43	0	887095296	25	5752
2026-01-15 09:56:18.15	359.74	37.26	-32.2	-36.3	10.5	4.19e-03	0	43	0	889192448	25	5785
2026-01-15 09:56:19.15	359.57	37.04	-32.1	-36.2	10.5	4.60e-03	0	43	0	891289600	25	5720
2026-01-15 09:56:20.15	359.39	36.83	-31.9	-35.5	11.0	1.92e-03	0	43	0	892338176	25	5427
2026-01-15 09:56:21.15	359.22	36.61	-31.7	-35.5	11.3	1.27e-03	0	43	0	894435328	24	5539
2026-01-15 09:56:22.15	359.04	36.40	-31.6	-35.1	11.6	9.81e-04	0	43	0	896532480	24	5404
2026-01-15 09:56:23.16	358.87	36.18	-31.4	-34.6	11.9	6.05e-04	0	43	0	898629632	24	5193
2026-01-15 09:56:24.16	358.71	35.97	-31.5	-34.6	12.0	3.56e-04	0	43	0	900726784	24	5175
2026-01-15 09:56:25.16	358.54	35.76	-31.4	-34.2	12.3	2.56e-04	0	43	0	901775360	24	5003
2026-01-15 09:56:26.17	358.38	35.54	-31.4	-34.3	12.3	1.89e-04	0	43	0	903872512	24	5017
2026-01-15 09:56:27.17	358.22	35.33	-31.2	-34.4	12.5	1.52e-04	0	43	0	905969664	23	5172
2026-01-15 09:56:28.17	358.06	35.12	-31.2	-34.6	12.2	1.85e-04	0	43	0	908066816	23	5317
2026-01-15 09:56:29.18	357.90	34.92	-31.4	-35.0	12.0	2.53e-04	0	43	0	909115392	23	5486
2026-01-15 09:56:30.18	357.75	34.71	-31.3	-34.5	12.3	1.88e-04	0	43	0	911212544	23	5241
2026-01-15 09:56:31.18	357.59	34.50	-31.2	-34.3	12.5	1.17e-04	0	43	0	913309696	23	5129
2026-01-15 09:56:32.18	357.44	34.30	-31.1	-34.0	12.8	5.87e-05	0	43	0	915406848	23	5013
2026-01-15 09:56:33.18	357.30	34.10	-31.2	-34.3	12.6	9.38e-05	0	43	0	917504000	23	5127
2026-01-15 09:56:34.19	357.15	33.89	-31.0	-33.6	13.0	3.66e-05	0	43	0	918552576	23	4878
2026-01-15 09:56:35.19	357.00	33.69	-31.1	-34.0	12.7	4.57e-05	0	43	0	920649728	23	5044
2026-01-15 09:56:36.19	356.86	33.49	-31.2	-34.4	12.4	1.17e-04	0	43	0	922746880	23	5186
2026-01-15 09:56:37.20	356.72	33.29	-31.4	-34.8	12.1	1.90e-04	0	43	0	924844032	23	5342
2026-01-15 09:56:38.20	356.58	33.10	-31.6	-35.5	11.7	3.78e-04	0	43	0	926941184	23	5616
2026-01-15 09:56:39.21	356.44	32.90	-31.6	-35.6	11.6	5.22e-04	0	43	0	927989760	23	5698
2026-01-15 09:56:40.20	356.30	32.71	-31.8	-36.2	11.3	9.00e-04	0	43	0	930086912	23	5972
2026-01-15 09:56:41.21	356.17	32.51	-31.8	-36.3	11.1	1.33e-03	0	43	0	932184064	23	6002
2026-01-15 09:56:42.21	356.04	32.32	-31.9	-36.4	11.0	1.81e-03	0	43	0	934281216	23	6047
2026-01-15 09:56:43.21	355.90	32.13	-31.8	-36.3	11.1	1.59e-03	0	43	0	936378368	23	6008
2026-01-15 09:56:44.21	355.78	31.93	-31.9	-36.6	10.9	2.44e-03	0	43	0	937426944	23	6142
2026-01-15 09:56:45.22	355.65	31.74	-31.9	-36.5	11.0	1.99e-03	0	43	0	939524096	23	6085
2026-01-15 09:56:46.22	355.52	31.55	-32.0	-36.7	10.8	2.10e-03	0	43	0	941621248	23	6207
2026-01-15 09:56:47.22	355.39	31.37	-32.1	-36.5	10.5	2.96e-03	0	43	0	943718400	24	6028
2026-01-15 09:56:48.22	355.27	31.18	-32.1	-36.7	10.4	5.13e-03	0	43	0	945815552	24	6105
2026-01-15 09:56:49.22	355.15	30.99	-32.1	-36.7	10.4	4.53e-03	0	43	0	946864128	24	6100
2026-01-15 09:56:50.23	355.03	30.81	-32.1	-36.8	10.3	4.34e-03	0	43	0	948961280	24	6159
2026-01-15 09:56:51.23	354.91	30.62	-32.1	-36.7	10.4	5.19e-03	0	43	0	951058432	24	6115
2026-01-15 09:56:52.23	354.79	30.44	-32.2	-37.0	10.1	5.23e-03	0	43	0	953155584	24	6286
2026-01-15 09:56:53.24	354.67	30.26	-32.2	-37.1	10.0	6.59e-03	0	43	0	954204160	24	6322
2026-01-15 09:56:54.24	354.56	30.08	-32.3	-37.2	10.0	7.41e-03	0	43	0	956301312	24	6377
2026-01-15 09:56:55.24	354.44	29.90	-32.3	-37.3	9.9	9.06e-03	0	43	0	958398464	24	6435
2026-01-15 09:56:56.25	354.33	29.72	-32.3	-37.5	9.8	7.70e-03	0	43	0	960495616	24	6508
2026-01-15 09:56:57.25	354.22	29.54	-32.3	-37.4	9.8	9.01e-03	0	43	0	962592768	24	6471
2026-01-15 09:56:58.24	354.11	29.37	-32.3	-37.4	9.8	9.63e-03	0	43	0	963641344	24	6483
2026-01-15 09:56:59.24	354.00	29.19	-32.3	-37.4	9.8	9.87e-03	0	43	0	965738496	24	6489
2026-01-15 09:57:00.23	353.90	29.02	-32.4	-37.7	9.6	1.01e-02	0	43	0	967835648	24	6617
2026-01-15 09:57:01.24	353.79	28.84	-32.4	-37.9	9.4	1.53e-02	0	43	0	969932800	24	6770
2026-01-15 09:57:02.24	353.68	28.67	-32.3	-37.3	9.9	1.10e-02	0	43	0	972029952	24	6394
2026-01-15 09:57:03.25	353.58	28.50	-32.2	-37.0	10.1	6.95e-03	0	43	0	973078528	24	6277
2026-01-15 09:57:04.25	353.48	28.33	-32.1	-36.6	10.5	5.58e-03	0	43	0	975175680	24	6033
2026-01-15 09:57:05.25	353.37	28.16	-32.1	-36.5	10.5	3.61e-03	0	43	0	977272832	24	6020
2026-01-15 09:57:06.26	353.27	27.99	-32.0	-36.3	10.7	3.59e-03	0	43	0	979369984	24	5913
2026-01-15 09:57:07.27	353.17	27.82	-31.9	-35.9	11.0	2.27e-03	0	43	0	981467136	24	5738
2026-01-15 09:57:08.27	353.07	27.65	-31.9	-35.9	11.0	2.35e-03	0	43	0	982515712	24	5704
2026-01-15 09:57:09.28	352.98	27.48	-31.8	-35.6	11.1	1.48e-03	0	43	0	984612864	24	5608
2026-01-15 09:57:10.28	352.88	27.32	-31.9	-35.9	11.0	1.68e-03	0	43	0	986710016	24	5728
2026-01-15 09:57:11.28	352.78	27.15	-31.9	-35.9	11.0	1.91e-03	0	44	0	988807168	24	5725
2026-01-15 09:57:12.29	352.69	26.99	-31.9	-36.0	10.9	2.17e-03	0	43	0	990904320	24	5795
2026-01-15 09:57:13.28	352.60	26.83	-32.0	-36.2	10.7	2.64e-03	0	43	0	991952896	24	5879
2026-01-15 09:57:14.29	352.50	26.66	-32.0	-36.5	10.5	3.80e-03	0	43	0	994050048	24	6008
2026-01-15 09:57:15.30	352.41	26.50	-31.9	-36.1	10.8	2.77e-03	0	43	0	996147200	24	5836
2026-01-15 09:57:16.30	352.32	26.34	-31.8	-35.9	10.9	2.20e-03	0	43	0	998244352	24	5721
2026-01-15 09:57:17.30	352.23	26.18	-31.8	-35.8	11.0	1.94e-03	0	43	0	999292928	24	5705
2026-01-15 09:57:18.30	352.14	26.03	-31.8	-35.6	11.1	1.66e-03	0	43	0	1001390080	24	5617
2026-01-15 09:57:19.30	352.06	25.87	-31.8	-35.7	11.1	1.37e-03	0	43	0	1003487232	24	5636
2026-01-15 09:57:20.31	351.97	25.71	-31.7	-35.4	11.2	1.50e-03	0	43	0	1005584384	24	5527
2026-01-15 09:57:21.31	351.88	25.55	-31.6	-35.2	11.4	1.02e-03	0	43	0	1007681536	24	5427
2026-01-15 09:57:22.32	351.80	25.40	-31.6	-34.9	11.6	8.03e-04	0	43	0	1009778688	24	5318
2026-01-15 09:57:23.33	351.71	25.24	-31.7	-35.3	11.4	8.64e-04	0	43	0	1010827264	24	5462
2026-01-15 09:57:24.33	351.63	25.09	-31.6	-35.2	11.4	1.31e-03	0	43	0	1012924416	24	5436
2026-01-15 09:57:25.34	351.55	24.94	-31.5	-34.9	11.6	7.26e-04	0	44	0	1015021568	24	5300
2026-01-15 09:57:26.34	351.46	24.79	-31.6	-35.1	11.5	8.22e-04	0	43	0	1017118720	24	5384
2026-01-15 09:57:27.34	351.38	24.63	-31.6	-35.0	11.6	6.82e-04	0	43	0	1018167296	24	5334
2026-01-15 09:57:28.34	351.30	24.49	-31.6	-35.2	11.4	9.47e-04	0	43	0	1020264448	24	5442
2026-01-15 09:57:29.34	351.23	24.34	-31.7	-35.4	11.2	1.39e-03	0	43	0	1022361600	24	5505
2026-01-15 09:57:30.35	351.15	24.19	-31.5	-35.0	11.5	9.36e-04	0	43	0	1024458752	24	5339
2026-01-15 09:57:31.35	351.07	24.04	-31.5	-34.7	11.7	6.98e-04	0	43	0	1026555904	24	5219
2026-01-15 09:57:32.36	350.99	23.89	-31.4	-34.6	11.8	4.74e-04	0	43	0	1027604480	24	5202
2026-01-15 09:57:33.36	350.92	23.75	-31.5	-34.7	11.7	5.22e-04	0	43	0	1029701632	24	5223
2026-01-15 09:57:34.36	350.84	23.60	-31.2	-34.6	12.2	3.33e-04	0	43	0	1031798784	23	5279
2026-01-15 09:57:35.37	350.76	23.45	-31.2	-34.5	12.2	2.06e-04	0	43	0	1033895936	23	5238
2026-01-15 09:57:36.37	350.69	23.31	-31.2	-34.5	12.2	2.26e-04	0	43	0	1035993088	23	5241
2026-01-15 09:57:37.37	350.62	23.17	-31.2	-34.6	12.1	3.04e-04	0	43	0	1037041664	23	5288
2026-01-15 09:57:38.37	350.55	23.03	-31.1	-34.1	12.4	1.50e-04	0	43	0	1039138816	23	5084
2026-01-15 09:57:39.38	350.47	22.88	-31.0	-34.0	12.6	8.46e-05	0	43	0	1041235968	23	5039
2026-01-15 09:57:40.38	350.40	22.74	-31.0	-33.8	12.6	9.91e-05	0	43	0	1043333120	23	4976
2026-01-15 09:57:41.38	350.33	22.60	-30.9	-33.7	12.7	6.33e-05	0	43	0	1045430272	23	4927
2026-01-15 09:57:42.39	350.26	22.46	-31.0	-33.7	12.7	6.33e-05	0	44	0	1046478848	23	4961
2026-01-15 09:57:43.39	350.19	22.32	-30.9	-33.5	12.8	6.56e-05	0	43	0	1048576000	23	4868
2026-01-15 09:57:44.40	350.12	22.18	-30.9	-33.5	12.8	4.27e-05	0	43	0	1050673152	23	4878
2026-01-15 09:57:45.41	350.05	22.05	-30.9	-33.5	12.8	6.17e-05	0	43	0	1052770304	23	4877
2026-01-15 09:57:46.41	349.99	21.91	-31.0	-33.7	12.6	7.24e-05	0	43	0	1054867456	23	4963
2026-01-15 09:57:47.41	349.92	21.77	-31.1	-34.1	12.4	1.14e-04	0	43	0	1055916032	23	5096
2026-01-15 09:57:48.41	349.86	21.64	-31.1	-34.0	12.5	1.49e-04	0	43	0	1058013184	23	5067
2026-01-15 09:57:49.41	349.79	21.50	-31.0	-33.9	12.5	1.23e-04	0	43	0	1060110336	23	5033
2026-01-15 09:57:50.42	349.72	21.37	-31.1	-34.1	12.4	1.03e-04	0	43	0	1062207488	23	5077
2026-01-15 09:57:51.42	349.66	21.24	-31.1	-34.1	12.4	1.59e-04	0	43	0	1064304640	23	5106
2026-01-15 09:57:52.42	349.60	21.10	-30.9	-33.5	12.7	1.14e-04	0	43	0	1065353216	23	4892
2026-01-15 09:57:53.43	349.53	20.97	-30.9	-33.5	12.8	7.09e-05	0	43	0	1067450368	23	4875
2026-01-15 09:57:54.43	349.47	20.84	-30.9	-33.6	12.7	7.32e-05	0	43	0	1069547520	23	4915
2026-01-15 09:57:55.43	349.41	20.71	-30.9	-33.7	12.7	6.71e-05	0	43	0	1071644672	23	4932
2026-01-15 09:57:56.44	349.35	20.58	-31.0	-34.0	12.4	1.68e-04	0	43	0	1072693248	23	5044
2026-01-15 09:57:57.44	349.29	20.45	-30.8	-33.3	12.9	7.85e-05	0	43	0	1074790400	23	4788
2026-01-15 09:57:58.45	349.23	20.32	-30.6	-33.3	13.2	3.28e-05	0	43	0	1076887552	22	4916
2026-01-15 09:57:59.45	349.17	20.19	-30.6	-33.3	13.2	2.59e-05	0	43	0	1078984704	22	4914
2026-01-15 09:58:00.45	349.11	20.06	-30.6	-33.3	13.2	2.36e-05	0	43	0	1081081856	22	4903
2026-01-15 09:58:01.45	349.05	19.94	-30.6	-33.3	13.2	2.97e-05	0	43	0	1082130432	22	4918
2026-01-15 09:58:02.45	348.99	19.81	-30.7	-33.5	13.1	2.67e-05	0	43	0	1084227584	22	4972
2026-01-15 09:58:03.45	348.93	19.69	-30.7	-33.7	12.9	4.11e-05	0	43	0	1086324736	22	5054
2026-01-15 09:58:04.46	348.88	19.56	-30.7	-33.7	13.0	4.80e-05	0	43	0	1088421888	22	5054
2026-01-15 09:58:05.46	348.82	19.44	-30.8	-33.8	12.8	5.64e-05	0	43	0	1090519040	22	5116
2026-01-15 09:58:06.46	348.76	19.31	-30.8	-34.0	12.7	7.32e-05	0	43	0	1091567616	22	5174
2026-01-15 09:58:07.47	348.71	19.19	-30.9	-34.2	12.6	7.93e-05	0	43	0	1093664768	22	5271
2026-01-15 09:58:08.47	348.65	19.07	-31.0	-34.5	12.3	1.17e-04	0	43	0	1095761920	22	5379
2026-01-15 09:58:09.47	348.60	18.94	-31.0	-34.5	12.3	1.89e-04	0	43	0	1097859072	22	5392
2026-01-15 09:58:10.48	348.54	18.82	-31.0	-34.5	12.3	1.81e-04	0	43	0	1099956224	22	5390
2026-01-15 09:58:11.47	348.49	18.70	-31.1	-34.7	12.2	1.80e-04	0	43	0	1101004800	22	5483
2026-01-15 09:58:12.48	348.44	18.58	-31.0	-34.6	12.2	2.37e-04	0	43	0	1103101952	22	5433
2026-01-15 09:58:13.48	348.38	18.46	-31.0	-34.5	12.3	1.79e-04	0	43	0	1105199104	22	5380
2026-01-15 09:58:14.49	348.33	18.34	-31.0	-34.5	12.3	1.59e-04	0	43	0	1107296256	22	5399
2026-01-15 09:58:15.49	348.28	18.22	-31.0	-34.6	12.3	2.08e-04	0	43	0	1109393408	22	5402
2026-01-15 09:58:16.49	348.23	18.10	-31.1	-34.6	12.2	1.91e-04	0	43	0	1110441984	22	5443
2026-01-15 09:58:17.49	348.17	17.99	-31.1	-34.8	12.1	3.41e-04	0	43	0	1112539136	22	5495
2026-01-15 09:58:18.49	348.12	17.87	-30.9	-34.2	12.5	2.04e-04	0	43	0	1114636288	22	5270
2026-01-15 09:58:19.49	348.07	17.75	-30.7	-33.7	12.8	6.10e-05	0	43	0	1116733440	22	5072
2026-01-15 09:58:20.50	348.02	17.64	-30.7	-33.7	12.8	4.19e-05	0	43	0	1117782016	22	5077
2026-01-15 09:58:21.50	347.97	17.52	-30.7	-33.7	12.9	5.64e-05	0	43	0	1119879168	22	5061
2026-01-15 09:58:22.51	347.92	17.40	-30.7	-33.7	12.8	4.42e-05	0	43	0	1121976320	22	5062
2026-01-15 09:58:23.51	347.88	17.29	-30.8	-33.8	12.8	6.10e-05	0	43	0	1124073472	22	5112
2026-01-15 09:58:24.52	347.83	17.18	-30.7	-33.7	12.9	6.10e-05	0	43	0	1126170624	22	5056
2026-01-15 09:58:25.52	347.78	17.06	-30.7	-33.8	12.8	6.02e-05	0	43	0	1128267776	22	5098
2026-01-15 09:58:26.53	347.73	16.95	-30.8	-33.9	12.7	7.78e-05	0	43	0	1129316352	22	5134
2026-01-15 09:58:27.54	347.68	16.84	-30.7	-33.7	12.8	6.48e-05	0	43	0	1131413504	22	5059
2026-01-15 09:58:28.54	347.64	16.72	-30.8	-33.8	12.7	5.64e-05	0	43	0	1133510656	22	5133
2026-01-15 09:58:29.54	347.59	16.61	-30.8	-33.8	12.7	8.08e-05	0	43	0	1135607808	22	5129
2026-01-15 09:58:30.55	347.55	16.50	-30.8	-33.9	12.6	6.86e-05	0	43	0	1136656384	22	5152
2026-01-15 09:58:31.55	347.50	16.39	-30.8	-33.9	12.6	6.71e-05	0	43	0	1138753536	22	5156
2026-01-15 09:58:32.55	347.45	16.28	-30.8	-33.9	12.6	9.38e-05	0	43	0	1140850688	22	5166
2026-01-15 09:58:33.56	347.41	16.17	-30.8	-33.8	12.7	8.46e-05	0	43	0	1142947840	22	5121
2026-01-15 09:58:34.56	347.36	16.06	-30.7	-33.8	12.7	6.71e-05	0	43	0	1145044992	22	5120
2026-01-15 09:58:35.56	347.32	15.95	-30.8	-33.9	12.6	1.07e-04	0	43	0	1146093568	22	5156
2026-01-15 09:58:36.56	347.28	15.84	-30.7	-33.8	12.7	7.40e-05	0	43	0	1148190720	22	5121
2026-01-15 09:58:37.57	347.23	15.74	-30.8	-34.0	12.5	1.01e-04	0	43	0	1150287872	22	5206
2026-01-15 09:58:38.57	347.19	15.63	-30.8	-34.0	12.6	9.30e-05	0	43	0	1152385024	22	5185
2026-01-15 09:58:39.58	347.15	15.52	-30.8	-34.0	12.5	1.09e-04	0	43	0	1154482176	22	5212
2026-01-15 09:58:40.58	347.10	15.41	-31.0	-34.5	12.2	1.88e-04	0	43	0	1155530752	22	5404
2026-01-15 09:58:41.59	347.06	15.31	-31.0	-34.6	12.1	3.17e-04	0	43	0	1157627904	22	5436
2026-01-15 09:58:42.59	347.02	15.20	-30.9	-34.2	12.4	1.52e-04	0	43	0	1159725056	22	5266
2026-01-15 09:58:43.60	346.98	15.10	-31.0	-34.5	12.1	2.07e-04	0	43	0	1161822208	22	5413
2026-01-15 09:58:44.60	346.94	14.99	-31.0	-34.5	12.1	2.63e-04	0	43	0	1163919360	22	5404
2026-01-15 09:58:45.61	346.90	14.89	-31.0	-34.6	12.0	3.26e-04	0	43	0	1164967936	22	5475
2026-01-15 09:58:46.61	346.86	14.78	-31.1	-35.1	11.7	5.19e-04	0	43	0	1167065088	22	5667
2026-01-15 09:58:47.61	346.82	14.68	-31.1	-35.0	11.8	6.48e-04	0	43	0	1169162240	22	5625
2026-01-15 09:58:48.61	346.78	14.58	-31.1	-34.9	11.8	4.78e-04	0	43	0	1171259392	22	5584
2026-01-15 09:58:49.61	346.74	14.48	-31.1	-35.0	11.8	4.66e-04	0	43	0	1173356544	22	5621
2026-01-15 09:58:50.60	346.70	14.38	-31.1	-35.0	11.7	5.21e-04	0	43	0	1174405120	22	5642
2026-01-15 09:58:51.61	346.66	14.27	-31.2	-35.3	11.5	6.03e-04	0	43	0	1176502272	22	5758
2026-01-15 09:58:52.62	346.62	14.17	-31.2	-35.3	11.5	8.77e-04	0	43	0	1178599424	22	5777
2026-01-15 09:58:53.61	346.58	14.07	-31.1	-35.0	11.7	6.52e-04	0	43	0	1180696576	22	5627
2026-01-15 09:58:54.61	346.54	13.97	-31.1	-34.9	11.7	5.30e-04	0	43	0	1182793728	22	5606
2026-01-15 09:58:55.61	346.50	13.87	-31.1	-35.0	11.7	6.23e-04	0	43	0	1183842304	22	5637
2026-01-15 09:58:56.62	346.47	13.77	-31.2	-35.2	11.5	7.22e-04	0	43	0	1185939456	22	5739
2026-01-15 09:58:57.62	346.43	13.67	-31.2	-35.4	11.4	1.08e-03	0	43	0	1188036608	22	5840
2026-01-15 09:58:58.63	346.39	13.57	-31.2	-35.5	11.3	8.85e-04	0	43	0	1190133760	22	5844
2026-01-15 09:58:59.63	346.36	13.47	-31.1	-35.1	11.6	8.29e-04	0	43	0	1192230912	22	5702
2026-01-15 09:59:00.63	346.32	13.38	-31.1	-35.1	11.6	7.13e-04	0	43	0	1193279488	22	5674
2026-01-15 09:59:01.63	346.28	13.28	-31.1	-35.0	11.6	6.89e-04	0	43	0	1195376640	22	5665
2026-01-15 09:59:02.64	346.25	13.18	-31.2	-35.3	11.4	7.99e-04	0	43	0	1197473792	22	5781
2026-01-15 09:59:03.63	346.21	13.08	-31.2	-35.3	11.4	9.73e-04	0	43	0	1199570944	22	5773
2026-01-15 09:59:04.64	346.18	12.99	-31.2	-35.3	11.4	9.70e-04	0	43	0	1200619520	22	5780
2026-01-15 09:59:05.64	346.14	12.89	-31.2	-35.4	11.3	1.15e-03	0	43	0	1202716672	22	5847
2026-01-15 09:59:06.65	346.10	12.79	-31.2	-35.3	11.3	1.09e-03	0	43	0	1204813824	22	5797
2026-01-15 09:59:07.65	346.07	12.70	-31.2	-35.3	11.4	1.08e-03	0	43	0	1206910976	22	5790
2026-01-15 09:59:08.65	346.04	12.60	-31.2	-35.5	11.2	1.37e-03	0	43	0	1209008128	22	5892
2026-01-15 09:59:09.66	346.00	12.51	-31.3	-35.9	10.9	1.19e-03	0	43	0	1210056704	22	6062
2026-01-15 09:59:10.66	345.97	12.42	-31.3	-35.7	11.0	1.96e-03	0	43	0	1212153856	22	5971
2026-01-15 09:59:11.66	345.93	12.32	-31.2	-35.3	11.3	1.34e-03	0	43	0	1214251008	22	5802
2026-01-15 09:59:12.66	345.90	12.23	-31.2	-35.5	11.2	1.14e-03	0	43	0	1216348160	22	5873
2026-01-15 09:59:13.67	345.87	12.13	-31.1	-35.2	11.4	1.19e-03	0	43	0	1218445312	22	5747
2026-01-15 09:59:14.67	345.83	12.04	-31.2	-35.5	11.2	1.21e-03	0	43	0	1219493888	22	5873
2026-01-15 09:59:15.68	345.80	11.95	-31.2	-35.3	11.2	1.68e-03	0	43	0	1221591040	22	5817
2026-01-15 09:59:16.68	345.77	11.86	-31.1	-35.3	11.3	1.21e-03	0	43	0	1223688192	22	5787
2026-01-15 09:59:17.69	345.74	11.76	-31.2	-35.4	11.2	1.32e-03	0	43	0	1225785344	22	5845
2026-01-15 09:59:18.69	345.70	11.67	-31.1	-35.3	11.2	1.47e-03	0	43	0	1227882496	22	5808
2026-01-15 09:59:19.69	345.67	11.58	-31.1	-35.2	11.3	1.22e-03	0	43	0	1228931072	22	5769
2026-01-15 09:59:20.69	345.64	11.49	-31.2	-35.5	11.1	1.49e-03	0	43	0	1231028224	22	5883
2026-01-15 09:59:21.69	345.61	11.40	-31.2	-35.5	11.1	1.46e-03	0	43	0	1233125376	22	5887
2026-01-15 09:59:22.69	345.58	11.31	-31.2	-35.3	11.2	1.39e-03	0	43	0	1235222528	22	5822
2026-01-15 09:59:23.70	345.55	11.22	-31.1	-35.2	11.3	1.13e-03	0	43	0	1237319680	22	5746
2026-01-15 09:59:24.71	345.52	11.13	-31.2	-35.4	11.2	1.12e-03	0	43	0	1238368256	22	5847
2026-01-15 09:59:25.71	345.48	11.04	-31.2	-35.5	11.1	1.58e-03	0	43	0	1240465408	22	5910
2026-01-15 09:59:26.71	345.45	10.95	-31.2	-35.5	11.1	1.76e-03	0	43	0	1242562560	22	5903
2026-01-15 09:59:27.71	345.42	10.86	-31.2	-35.6	11.0	1.77e-03	0	43	0	1244659712	22	5939
2026-01-15 09:59:28.71	345.39	10.77	-31.3	-36.0	10.6	2.50e-03	0	43	0	1246756864	22	6170
2026-01-15 09:59:29.71	345.37	10.69	-31.4	-36.4	10.3	4.87e-03	0	43	0	1247805440	22	6375
2026-01-15 09:59:30.71	345.34	10.60	-31.4	-36.4	10.3	5.15e-03	0	43	0	1249902592	22	6360
2026-01-15 09:59:31.72	345.31	10.51	-31.4	-36.3	10.4	4.72e-03	0	43	0	1251999744	22	6308
2026-01-15 09:59:32.72	345.28	10.42	-31.5	-36.1	10.1	5.17e-03	0	43	0	1254096896	23	6129
2026-01-15 09:59:33.73	345.25	10.33	-31.6	-36.3	10.0	7.44e-03	0	43	0	1255145472	23	6231
2026-01-15 09:59:34.73	345.22	10.25	-31.6	-36.4	9.9	8.74e-03	0	43	0	1257242624	23	6257
2026-01-15 09:59:35.74	345.19	10.16	-31.6	-36.4	9.9	8.40e-03	0	43	0	1259339776	23	6253
2026-01-15 09:59:36.74	345.16	10.08	-31.7	-37.0	9.4	1.07e-02	0	43	0	1261436928	23	6585
2026-01-15 09:59:37.75	345.13	9.99	-31.7	-36.9	9.5	1.80e-02	0	43	0	1263534080	23	6531
2026-01-15 09:59:38.75	345.11	9.90	-31.6	-36.6	9.7	1.33e-02	0	43	0	1264582656	23	6385
2026-01-15 09:59:39.75	345.08	9.82	-31.4	-35.7	10.3	6.97e-03	0	43	0	1266679808	23	5951
2026-01-15 09:59:40.75	345.05	9.73	-31.3	-35.6	10.5	4.41e-03	0	43	0	1268776960	23	5872
2026-01-15 09:59:41.76	345.02	9.65	-31.3	-35.5	10.6	3.74e-03	0	43	0	1270874112	23	5815
2026-01-15 09:59:42.76	345.00	9.56	-31.4	-35.8	10.3	4.04e-03	0	43	0	1272971264	23	5975
2026-01-15 09:59:43.76	344.97	9.48	-31.5	-36.0	10.2	6.65e-03	0	43	0	1274019840	23	6079
2026-01-15 09:59:44.77	344.94	9.40	-31.4	-35.9	10.2	5.85e-03	0	43	0	1276116992	23	6026
2026-01-15 09:59:45.77	344.91	9.31	-31.3	-35.6	10.4	5.27e-03	0	43	0	1278214144	23	5909
2026-01-15 09:59:46.77	344.89	9.23	-31.3	-35.6	10.4	4.47e-03	0	43	0	1280311296	23	5884
2026-01-15 09:59:47.78	344.86	9.15	-31.3	-35.4	10.5	3.98e-03	0	43	0	1282408448	23	5809
2026-01-15 09:59:48.78	344.84	9.06	-31.3	-35.4	10.5	4.63e-03	0	43	0	1283457024	23	5802
