passes_logs/2026/01/15/R2M6_AANII_01/R2M6_AANII_01__20260115_153226_FENGYUN_3E_rec.log

#Pass ID: 20260115_153226_FENGYUN 3E
#Satellite: FENGYUN 3E
#Configuration: FENGYUN 3E
#almurnet v.1.7.20240730
#Start time: 2026-01-15 15:32:27

#Version: 2.2.20231116
#Station: R2M6_AANII_01
#Location: 30.233357 lon 59.946436 lat
#TLE: 1 49008U 21062A   26014.58289545 -.00000120  00000+0 -35876-4 0  9998
#TLE: 2 49008  98.7488  19.7165 0002000 137.1107 223.0226 14.19884293234788

#Time	Az	El	Level	Level2	SNR	BER	BlckErr	Temp	State	Recorded	gain1	gain2
2026-01-15 15:32:27.07	190.04	7.05	-26.8	-28.6	5.7	7.51e-01	0	41	0	0	13	4399
2026-01-15 15:32:28.07	190.09	7.12	-28.3	-30.6	5.5	7.62e-01	0	41	104	0	16	4664
2026-01-15 15:32:29.07	190.15	7.19	-27.7	-29.1	11.9	8.00e-04	0	41	0	0	16	4208
2026-01-15 15:32:30.06	190.21	7.26	-28.2	-30.3	11.1	1.36e-03	0	41	0	6291456	16	4572
2026-01-15 15:32:31.07	190.27	7.34	-27.8	-29.2	11.8	4.55e-04	0	41	0	13631488	16	4230
2026-01-15 15:32:32.07	190.33	7.41	-27.5	-28.6	12.1	2.18e-04	0	42	0	22020096	16	4091
2026-01-15 15:32:33.08	190.39	7.49	-26.9	-28.2	12.8	2.97e-05	0	42	0	28311552	14	4191
2026-01-15 15:32:34.08	190.45	7.56	-26.8	-28.0	12.9	6.40e-05	0	42	0	35651584	14	4124
2026-01-15 15:32:35.08	190.51	7.63	-26.8	-28.1	12.9	4.00e-05	0	42	0	42991616	14	4165
2026-01-15 15:32:36.08	190.57	7.71	-27.2	-28.8	12.5	5.49e-05	0	42	0	50331648	14	4362
2026-01-15 15:32:37.08	190.63	7.78	-26.7	-27.8	13.0	3.54e-05	0	42	0	57671680	14	4084
2026-01-15 15:32:38.08	190.69	7.86	-27.0	-28.4	12.6	1.71e-05	0	42	0	65011712	14	4255
2026-01-15 15:32:39.09	190.75	7.93	-26.5	-27.9	13.3	1.02e-05	0	42	0	72351744	13	4206
2026-01-15 15:32:40.09	190.81	8.01	-26.4	-27.6	13.5	1.25e-05	0	42	0	79691776	13	4139
2026-01-15 15:32:41.10	190.87	8.08	-26.5	-27.8	13.3	1.71e-05	0	42	0	85983232	13	4193
2026-01-15 15:32:42.10	190.93	8.16	-26.4	-27.5	13.5	4.50e-06	0	42	0	93323264	13	4118
2026-01-15 15:32:43.11	191.00	8.24	-26.2	-27.3	13.6	6.80e-06	0	42	0	100663296	13	4060
2026-01-15 15:32:44.11	191.06	8.31	-26.1	-26.9	13.9	1.10e-06	0	42	0	108003328	13	3962
2026-01-15 15:32:45.11	191.12	8.39	-26.3	-27.5	13.5	1.37e-05	0	42	0	115343360	13	4113
2026-01-15 15:32:46.11	191.18	8.46	-26.0	-26.8	13.9	3.40e-06	0	42	0	122683392	13	3943
2026-01-15 15:32:47.11	191.25	8.54	-26.3	-27.3	13.6	6.80e-06	0	42	0	130023424	13	4074
2026-01-15 15:32:48.12	191.31	8.62	-26.2	-27.2	13.7	0.00e+00	0	42	0	137363456	13	4029
2026-01-15 15:32:49.12	191.38	8.69	-26.2	-27.2	13.7	4.50e-06	0	42	0	144703488	13	4050
2026-01-15 15:32:50.12	191.44	8.77	-26.2	-27.2	13.7	8.00e-06	0	42	0	150994944	13	4038
2026-01-15 15:32:51.12	191.50	8.85	-26.3	-27.5	13.5	1.02e-05	0	42	0	158334976	13	4132
2026-01-15 15:32:52.13	191.57	8.93	-26.1	-27.1	13.8	3.40e-06	0	42	0	166723584	13	4015
2026-01-15 15:32:53.13	191.63	9.01	-26.1	-27.0	13.9	1.10e-06	0	42	0	173015040	13	3991
2026-01-15 15:32:54.13	191.70	9.08	-26.1	-27.0	13.9	8.00e-06	0	42	0	180355072	13	3991
2026-01-15 15:32:55.14	191.77	9.16	-26.2	-27.3	13.7	9.10e-06	0	42	0	187695104	13	4067
2026-01-15 15:32:56.14	191.83	9.24	-26.4	-27.6	13.5	8.00e-06	0	42	0	195035136	13	4144
2026-01-15 15:32:57.14	191.90	9.32	-26.3	-27.5	13.6	9.10e-06	0	42	0	202375168	13	4110
2026-01-15 15:32:58.14	191.97	9.40	-26.6	-28.2	13.2	8.00e-06	0	42	0	209715200	13	4304
2026-01-15 15:32:59.15	192.03	9.48	-26.7	-28.3	13.1	4.69e-05	0	42	0	217055232	13	4320
2026-01-15 15:33:00.14	192.10	9.56	-26.7	-28.3	13.1	4.11e-05	0	42	0	224395264	13	4347
2026-01-15 15:33:01.15	192.17	9.64	-26.9	-28.7	12.9	2.05e-05	0	42	0	230686720	13	4445
2026-01-15 15:33:02.16	192.24	9.72	-27.0	-29.0	12.8	5.03e-05	0	42	0	238026752	13	4529
2026-01-15 15:33:03.16	192.31	9.80	-26.8	-28.5	13.1	4.11e-05	0	43	0	245366784	13	4394
2026-01-15 15:33:04.15	192.38	9.88	-26.9	-28.4	12.9	4.11e-05	0	42	0	252706816	14	4257
2026-01-15 15:33:05.15	192.45	9.96	-26.7	-27.9	13.1	2.28e-05	0	42	0	260046848	14	4134
2026-01-15 15:33:06.15	192.51	10.04	-26.8	-28.2	13.0	2.40e-05	0	42	0	267386880	14	4204
2026-01-15 15:33:07.15	192.59	10.12	-27.1	-28.8	12.6	4.69e-05	0	42	0	274726912	14	4360
2026-01-15 15:33:08.15	192.66	10.20	-27.0	-28.5	12.8	4.00e-05	0	43	0	282066944	14	4308
2026-01-15 15:33:09.15	192.73	10.28	-27.0	-28.6	12.7	5.14e-05	0	42	0	289406976	14	4332
2026-01-15 15:33:10.14	192.80	10.36	-26.5	-27.4	13.4	2.28e-05	0	43	0	295698432	14	4005
2026-01-15 15:33:11.15	192.87	10.44	-26.3	-27.5	13.6	9.10e-06	0	42	0	303038464	13	4123
2026-01-15 15:33:12.14	192.94	10.52	-26.5	-27.9	13.4	1.71e-05	0	43	0	310378496	13	4238
2026-01-15 15:33:13.14	193.01	10.61	-26.8	-28.6	13.0	3.08e-05	0	43	0	317718528	13	4438
2026-01-15 15:33:14.16	193.09	10.69	-26.5	-27.9	13.4	1.94e-05	0	42	0	325058560	13	4231
2026-01-15 15:33:15.16	193.16	10.77	-26.0	-26.9	14.0	2.20e-06	0	43	0	332398592	13	3968
2026-01-15 15:33:16.15	193.23	10.86	-25.8	-26.9	14.2	2.20e-06	0	43	0	339738624	12	4082
2026-01-15 15:33:17.15	193.31	10.94	-26.2	-27.7	13.8	0.00e+00	0	43	0	347078656	12	4291
2026-01-15 15:33:18.16	193.38	11.02	-25.7	-26.7	14.3	0.00e+00	0	42	0	354418688	12	4039
2026-01-15 15:33:19.17	193.46	11.11	-25.7	-26.6	14.4	1.10e-06	0	43	0	360710144	12	3994
2026-01-15 15:33:20.17	193.53	11.19	-25.5	-26.2	14.7	2.20e-06	0	43	0	369098752	12	3899
2026-01-15 15:33:21.18	193.61	11.28	-25.8	-26.9	14.2	0.00e+00	0	43	0	376438784	12	4086
2026-01-15 15:33:22.18	193.68	11.36	-25.8	-26.8	14.3	0.00e+00	0	43	0	382730240	12	4061
2026-01-15 15:33:23.18	193.76	11.45	-25.5	-26.3	14.6	1.10e-06	0	43	0	390070272	12	3921
2026-01-15 15:33:24.19	193.84	11.53	-25.4	-26.5	14.8	0.00e+00	0	43	0	397410304	11	4080
2026-01-15 15:33:25.19	193.92	11.62	-25.5	-26.8	14.7	0.00e+00	0	43	0	404750336	11	4137
2026-01-15 15:33:26.18	193.99	11.70	-25.4	-26.4	14.9	0.00e+00	0	43	0	412090368	11	4046
2026-01-15 15:33:27.18	194.07	11.79	-25.1	-26.3	15.2	0.00e+00	0	43	0	419430400	10	4140
2026-01-15 15:33:28.18	194.15	11.87	-25.0	-26.1	15.3	0.00e+00	0	43	0	426770432	10	4097
2026-01-15 15:33:29.19	194.23	11.96	-25.1	-26.3	15.3	0.00e+00	0	43	0	434110464	10	4124
2026-01-15 15:33:30.18	194.31	12.04	-25.3	-26.8	15.0	1.10e-06	0	43	0	440401920	10	4254
2026-01-15 15:33:31.19	194.39	12.13	-25.0	-26.2	15.3	0.00e+00	0	43	0	447741952	10	4102
2026-01-15 15:33:32.19	194.47	12.22	-25.0	-26.1	15.4	9.10e-06	0	43	0	455081984	10	4083
2026-01-15 15:33:33.19	194.55	12.31	-25.2	-26.4	15.2	0.00e+00	0	43	0	462422016	10	4158
2026-01-15 15:33:34.19	194.63	12.39	-25.0	-26.1	15.3	0.00e+00	0	43	0	469762048	10	4075
2026-01-15 15:33:35.20	194.71	12.48	-24.9	-26.0	15.4	4.50e-06	0	43	0	477102080	10	4049
2026-01-15 15:33:36.19	194.79	12.57	-25.1	-26.4	15.2	0.00e+00	0	43	0	484442112	10	4145
2026-01-15 15:33:37.19	194.88	12.66	-25.0	-26.1	15.3	0.00e+00	0	43	0	491782144	10	4094
2026-01-15 15:33:38.19	194.96	12.75	-25.0	-26.0	15.4	6.80e-06	0	43	0	499122176	10	4066
2026-01-15 15:33:39.19	195.04	12.84	-25.0	-26.1	15.4	0.00e+00	0	43	0	505413632	10	4086
2026-01-15 15:33:40.19	195.13	12.92	-24.8	-25.6	15.6	0.00e+00	0	43	0	512753664	10	3972
2026-01-15 15:33:41.19	195.21	13.01	-25.0	-26.1	15.4	9.10e-06	0	43	0	520093696	10	4072
2026-01-15 15:33:42.20	195.30	13.10	-24.9	-25.9	15.5	0.00e+00	0	43	0	527433728	10	4040
2026-01-15 15:33:43.19	195.38	13.19	-25.0	-26.1	15.4	0.00e+00	0	43	0	534773760	10	4077
2026-01-15 15:33:44.19	195.47	13.28	-24.9	-25.9	15.5	4.50e-06	0	43	0	542113792	10	4041
2026-01-15 15:33:45.19	195.56	13.37	-25.1	-26.3	15.3	0.00e+00	0	43	0	549453824	10	4149
2026-01-15 15:33:46.18	195.64	13.46	-25.3	-26.7	15.0	0.00e+00	0	43	0	556793856	10	4252
2026-01-15 15:33:47.18	195.73	13.55	-25.0	-26.2	15.3	0.00e+00	0	43	0	564133888	10	4118
2026-01-15 15:33:48.19	195.82	13.65	-25.1	-26.2	15.3	0.00e+00	0	43	0	570425344	10	4117
2026-01-15 15:33:49.19	195.91	13.74	-25.1	-26.3	15.3	0.00e+00	0	43	0	577765376	10	4151
2026-01-15 15:33:50.18	196.00	13.83	-25.3	-26.8	15.0	0.00e+00	0	43	0	585105408	10	4283
2026-01-15 15:33:51.19	196.09	13.92	-25.4	-27.0	14.9	0.00e+00	0	43	0	592445440	10	4330
2026-01-15 15:33:52.19	196.18	14.01	-25.3	-26.2	15.1	1.10e-06	0	43	0	599785472	11	4015
2026-01-15 15:33:53.19	196.27	14.11	-25.5	-26.7	14.8	0.00e+00	0	43	0	607125504	11	4140
2026-01-15 15:33:54.19	196.36	14.20	-25.2	-26.0	15.2	0.00e+00	0	43	0	614465536	11	3966
2026-01-15 15:33:55.19	196.45	14.29	-25.2	-26.0	15.2	0.00e+00	0	43	0	621805568	11	3952
2026-01-15 15:33:56.19	196.54	14.39	-25.2	-26.1	15.2	0.00e+00	0	43	0	628097024	11	3977
2026-01-15 15:33:57.19	196.64	14.48	-24.9	-25.9	15.5	0.00e+00	0	43	0	635437056	10	4047
2026-01-15 15:33:58.20	196.73	14.58	-24.7	-25.5	15.7	0.00e+00	0	43	0	642777088	10	3936
2026-01-15 15:33:59.19	196.82	14.67	-24.8	-25.7	15.6	0.00e+00	0	43	0	650117120	10	3985
2026-01-15 15:34:00.19	196.92	14.76	-24.9	-26.0	15.5	0.00e+00	0	43	0	657457152	10	4056
2026-01-15 15:34:01.19	197.01	14.86	-24.7	-25.4	15.8	0.00e+00	0	43	0	664797184	10	3905
2026-01-15 15:34:02.19	197.11	14.96	-24.8	-26.1	15.7	0.00e+00	0	43	0	672137216	9	4206
2026-01-15 15:34:03.19	197.21	15.05	-24.7	-26.0	15.7	0.00e+00	0	43	0	679477248	9	4162
2026-01-15 15:34:04.19	197.30	15.15	-24.6	-25.7	15.9	0.00e+00	0	43	0	686817280	9	4096
2026-01-15 15:34:05.20	197.40	15.24	-24.7	-25.8	15.8	0.00e+00	0	43	0	693108736	9	4119
2026-01-15 15:34:06.20	197.50	15.34	-24.5	-25.4	16.1	0.00e+00	0	43	0	700448768	9	4012
2026-01-15 15:34:07.20	197.60	15.44	-24.5	-25.4	16.1	0.00e+00	0	43	0	707788800	9	4021
2026-01-15 15:34:08.20	197.70	15.54	-24.4	-25.4	16.1	0.00e+00	0	43	0	715128832	9	4005
2026-01-15 15:34:09.21	197.80	15.63	-24.5	-25.6	16.0	0.00e+00	0	43	0	722468864	9	4046
2026-01-15 15:34:10.20	197.90	15.73	-24.6	-25.7	15.9	0.00e+00	0	43	0	729808896	9	4068
2026-01-15 15:34:11.20	198.00	15.83	-24.5	-25.5	16.0	0.00e+00	0	43	0	737148928	9	4028
2026-01-15 15:34:12.20	198.10	15.93	-24.4	-25.3	16.1	0.00e+00	0	43	0	744488960	9	3978
2026-01-15 15:34:13.20	198.20	16.03	-24.4	-25.2	16.2	0.00e+00	0	43	0	751828992	9	3939
2026-01-15 15:34:14.19	198.31	16.12	-24.5	-25.3	16.2	0.00e+00	0	43	0	758120448	9	3979
2026-01-15 15:34:15.19	198.41	16.22	-24.3	-24.9	16.4	0.00e+00	0	43	0	765460480	9	3871
2026-01-15 15:34:16.19	198.52	16.32	-24.2	-24.7	16.5	0.00e+00	0	43	0	772800512	9	3833
2026-01-15 15:34:17.19	198.62	16.42	-24.4	-25.1	16.3	0.00e+00	0	43	0	780140544	9	3933
2026-01-15 15:34:18.19	198.73	16.52	-24.2	-24.9	16.4	0.00e+00	0	44	0	787480576	9	3869
2026-01-15 15:34:19.19	198.83	16.62	-24.3	-24.9	16.4	0.00e+00	0	43	0	794820608	9	3874
2026-01-15 15:34:20.19	198.94	16.73	-24.2	-24.9	16.4	0.00e+00	0	43	0	802160640	9	3862
2026-01-15 15:34:21.20	199.05	16.83	-24.3	-25.0	16.4	0.00e+00	0	43	0	809500672	9	3905
2026-01-15 15:34:22.19	199.16	16.93	-24.4	-25.2	16.3	0.00e+00	0	43	0	815792128	9	3942
2026-01-15 15:34:23.19	199.27	17.03	-24.6	-25.5	16.1	0.00e+00	0	43	0	823132160	9	4036
2026-01-15 15:34:24.19	199.38	17.13	-24.2	-24.8	16.5	0.00e+00	0	43	0	830472192	9	3856
2026-01-15 15:34:25.19	199.49	17.24	-24.3	-24.9	16.4	0.00e+00	0	43	0	837812224	9	3869
2026-01-15 15:34:26.19	199.60	17.34	-24.3	-25.0	16.4	0.00e+00	0	44	0	845152256	9	3902
2026-01-15 15:34:27.19	199.71	17.44	-24.1	-24.6	16.6	0.00e+00	0	44	0	852492288	9	3815
2026-01-15 15:34:28.19	199.83	17.55	-24.2	-24.7	16.5	0.00e+00	0	44	0	859832320	9	3827
2026-01-15 15:34:29.20	199.94	17.65	-24.1	-24.6	16.6	0.00e+00	0	44	0	867172352	9	3810
2026-01-15 15:34:30.20	200.06	17.76	-24.2	-24.7	16.6	0.00e+00	0	44	0	874512384	9	3821
2026-01-15 15:34:31.20	200.17	17.86	-24.0	-24.4	16.7	0.00e+00	0	44	0	880803840	9	3771
2026-01-15 15:34:32.20	200.29	17.97	-23.9	-24.6	16.8	0.00e+00	0	43	0	888143872	8	3902
2026-01-15 15:34:33.20	200.40	18.07	-23.8	-24.4	16.9	0.00e+00	0	44	0	895483904	8	3867
2026-01-15 15:34:34.20	200.52	18.18	-23.8	-24.5	16.9	0.00e+00	0	44	0	902823936	8	3888
2026-01-15 15:34:35.21	200.64	18.28	-23.8	-24.4	16.9	0.00e+00	0	44	0	910163968	8	3873
2026-01-15 15:34:36.20	200.76	18.39	-23.7	-24.3	17.0	0.00e+00	0	43	0	917504000	8	3837
2026-01-15 15:34:37.21	200.88	18.50	-23.8	-24.3	17.0	0.00e+00	0	43	0	924844032	8	3843
2026-01-15 15:34:38.21	201.00	18.60	-23.9	-24.7	16.9	0.00e+00	0	43	0	932184064	8	3926
2026-01-15 15:34:39.21	201.12	18.71	-23.6	-24.0	17.2	0.00e+00	0	43	0	939524096	8	3772
2026-01-15 15:34:40.21	201.25	18.82	-23.6	-23.9	17.2	0.00e+00	0	44	0	945815552	8	3756
2026-01-15 15:34:41.21	201.37	18.93	-23.5	-23.8	17.3	0.00e+00	0	44	0	953155584	8	3714
2026-01-15 15:34:42.22	201.50	19.04	-23.5	-23.9	17.3	0.00e+00	0	44	0	961544192	8	3738
2026-01-15 15:34:43.22	201.62	19.15	-23.4	-24.1	17.3	0.00e+00	0	44	0	967835648	7	3903
2026-01-15 15:34:44.22	201.75	19.25	-23.6	-24.6	17.1	0.00e+00	0	44	0	975175680	7	4011
2026-01-15 15:34:45.22	201.87	19.36	-23.5	-24.3	17.3	0.00e+00	0	44	0	982515712	7	3938
2026-01-15 15:34:46.21	202.00	19.47	-23.4	-24.1	17.4	0.00e+00	0	44	0	989855744	7	3891
2026-01-15 15:34:47.21	202.13	19.58	-23.6	-24.5	17.2	0.00e+00	0	43	0	997195776	7	3996
2026-01-15 15:34:48.22	202.26	19.69	-23.6	-24.4	17.2	0.00e+00	0	44	0	1004535808	7	3985
2026-01-15 15:34:49.21	202.39	19.80	-23.6	-24.5	17.2	0.00e+00	0	43	0	1010827264	7	3995
2026-01-15 15:34:50.21	202.52	19.92	-23.4	-24.1	17.4	0.00e+00	0	44	0	1019215872	7	3912
2026-01-15 15:34:51.21	202.65	20.03	-23.7	-24.7	17.1	0.00e+00	0	44	0	1025507328	7	4045
2026-01-15 15:34:52.22	202.79	20.14	-23.6	-24.5	17.2	0.00e+00	0	44	0	1032847360	7	4004
2026-01-15 15:34:53.22	202.92	20.25	-23.6	-24.5	17.2	0.00e+00	0	43	0	1040187392	7	3998
2026-01-15 15:34:54.22	203.06	20.37	-23.6	-24.6	17.1	1.10e-06	0	44	0	1047527424	7	4020
2026-01-15 15:34:55.22	203.19	20.48	-23.7	-24.7	17.1	1.10e-06	0	43	0	1054867456	7	4042
2026-01-15 15:34:56.23	203.33	20.59	-23.5	-24.3	17.3	0.00e+00	0	44	0	1062207488	7	3956
2026-01-15 15:34:57.22	203.47	20.71	-23.4	-24.1	17.4	0.00e+00	0	43	0	1069547520	7	3916
2026-01-15 15:34:58.22	203.61	20.82	-23.4	-24.0	17.4	0.00e+00	0	44	0	1076887552	7	3877
2026-01-15 15:34:59.22	203.75	20.93	-23.4	-24.1	17.4	0.00e+00	0	44	0	1084227584	7	3902
2026-01-15 15:35:00.22	203.89	21.05	-23.2	-23.6	17.6	0.00e+00	0	44	0	1090519040	7	3792
2026-01-15 15:35:01.21	204.03	21.16	-23.3	-23.9	17.5	0.00e+00	0	44	0	1097859072	7	3851
2026-01-15 15:35:02.20	204.17	21.28	-23.2	-23.7	17.6	0.00e+00	0	44	0	1105199104	7	3808
2026-01-15 15:35:03.21	204.32	21.39	-23.1	-23.5	17.7	0.00e+00	0	44	0	1112539136	7	3767
2026-01-15 15:35:04.20	204.46	21.51	-23.2	-23.7	17.6	0.00e+00	0	44	0	1119879168	7	3807
2026-01-15 15:35:05.20	204.61	21.63	-23.0	-23.7	17.8	0.00e+00	0	44	0	1126170624	6	3911
2026-01-15 15:35:06.20	204.76	21.74	-23.0	-23.7	17.9	0.00e+00	0	44	0	1133510656	6	3906
2026-01-15 15:35:07.20	204.90	21.86	-23.1	-23.8	17.8	0.00e+00	0	44	0	1140850688	6	3934
2026-01-15 15:35:08.20	205.05	21.98	-23.0	-23.8	17.9	0.00e+00	0	44	0	1148190720	6	3922
2026-01-15 15:35:09.20	205.20	22.10	-23.1	-23.8	17.8	0.00e+00	0	43	0	1155530752	6	3935
2026-01-15 15:35:10.20	205.36	22.21	-23.2	-24.1	17.7	0.00e+00	0	44	0	1162870784	6	4005
2026-01-15 15:35:11.20	205.51	22.33	-23.3	-24.3	17.6	0.00e+00	0	44	0	1170210816	6	4062
2026-01-15 15:35:12.19	205.66	22.45	-23.5	-24.9	17.3	0.00e+00	0	44	0	1177550848	6	4210
2026-01-15 15:35:13.19	205.82	22.57	-23.3	-24.5	17.5	1.10e-06	0	44	0	1184890880	6	4105
2026-01-15 15:35:14.19	205.97	22.69	-23.7	-24.7	17.2	0.00e+00	0	44	0	1191182336	7	4034
2026-01-15 15:35:15.20	206.13	22.81	-23.7	-24.8	17.1	0.00e+00	0	44	0	1198522368	7	4067
2026-01-15 15:35:16.20	206.29	22.93	-23.6	-24.5	17.2	3.40e-06	0	44	0	1205862400	7	4009
2026-01-15 15:35:17.20	206.45	23.05	-23.5	-24.4	17.3	0.00e+00	0	44	0	1213202432	7	3978
2026-01-15 15:35:18.20	206.61	23.17	-23.6	-24.5	17.2	0.00e+00	0	44	0	1220542464	7	4001
2026-01-15 15:35:19.20	206.78	23.29	-23.5	-24.4	17.3	0.00e+00	0	44	0	1227882496	7	3971
2026-01-15 15:35:20.20	206.94	23.42	-23.6	-24.5	17.3	0.00e+00	0	44	0	1235222528	7	3994
2026-01-15 15:35:21.20	207.10	23.54	-23.6	-24.6	17.2	0.00e+00	0	44	0	1242562560	7	4021
2026-01-15 15:35:22.20	207.27	23.66	-23.7	-24.8	17.1	0.00e+00	0	44	0	1249902592	7	4084
2026-01-15 15:35:23.21	207.44	23.79	-23.4	-24.2	17.4	0.00e+00	0	44	0	1256194048	7	3938
2026-01-15 15:35:24.20	207.61	23.91	-23.2	-23.8	17.6	0.00e+00	0	44	0	1263534080	7	3839
2026-01-15 15:35:25.20	207.78	24.03	-23.1	-23.5	17.7	2.20e-06	0	44	0	1270874112	7	3762
2026-01-15 15:35:26.21	207.95	24.16	-23.3	-24.0	17.5	0.00e+00	0	44	0	1278214144	7	3898
2026-01-15 15:35:27.21	208.12	24.28	-23.2	-23.7	17.6	0.00e+00	0	44	0	1285554176	7	3832
2026-01-15 15:35:28.21	208.30	24.40	-23.2	-23.8	17.6	0.00e+00	0	44	0	1292894208	7	3841
2026-01-15 15:35:29.21	208.47	24.53	-23.4	-24.1	17.5	0.00e+00	0	44	0	1300234240	7	3910
2026-01-15 15:35:30.21	208.65	24.65	-23.1	-23.6	17.7	0.00e+00	0	44	0	1307574272	7	3793
2026-01-15 15:35:31.22	208.83	24.78	-23.1	-23.6	17.7	0.00e+00	0	44	0	1314914304	7	3795
2026-01-15 15:35:32.22	209.01	24.91	-23.2	-23.8	17.6	0.00e+00	0	44	0	1322254336	7	3850
2026-01-15 15:35:33.23	209.19	25.03	-23.4	-24.1	17.5	0.00e+00	0	44	0	1329594368	7	3911
2026-01-15 15:35:34.22	209.37	25.16	-23.5	-24.4	17.4	0.00e+00	0	44	0	1335885824	7	3978
2026-01-15 15:35:35.23	209.56	25.29	-23.3	-23.9	17.6	0.00e+00	0	44	0	1343225856	7	3868
2026-01-15 15:35:36.23	209.74	25.41	-24.0	-24.4	17.8	0.00e+00	0	44	0	1350565888	8	3736
2026-01-15 15:35:37.23	209.93	25.54	-23.8	-23.9	18.0	0.00e+00	0	44	0	1357905920	8	3630
2026-01-15 15:35:38.23	210.12	25.67	-23.4	-23.1	18.4	0.00e+00	0	44	0	1365245952	8	3462
2026-01-15 15:35:39.23	210.31	25.80	-23.3	-23.3	18.5	0.00e+00	0	44	0	1372585984	7	3610
2026-01-15 15:35:40.23	210.50	25.92	-23.4	-23.6	18.4	0.00e+00	0	44	0	1379926016	7	3658
2026-01-15 15:35:41.23	210.69	26.05	-23.3	-23.2	18.6	0.00e+00	0	44	0	1387266048	7	3578
2026-01-15 15:35:42.24	210.89	26.18	-23.1	-22.8	18.8	0.00e+00	0	44	0	1394606080	7	3494
2026-01-15 15:35:43.23	211.08	26.31	-23.1	-22.9	18.8	0.00e+00	0	44	0	1400897536	7	3514
2026-01-15 15:35:44.24	211.28	26.44	-23.2	-23.2	18.6	0.00e+00	0	44	0	1408237568	7	3573
2026-01-15 15:35:45.23	211.48	26.57	-23.3	-23.3	18.6	0.00e+00	0	44	0	1415577600	7	3606
2026-01-15 15:35:46.23	211.68	26.70	-23.5	-23.8	18.3	0.00e+00	0	44	0	1422917632	7	3709
2026-01-15 15:35:47.23	211.88	26.83	-23.4	-23.5	18.5	0.00e+00	0	44	0	1430257664	7	3638
2026-01-15 15:35:48.23	212.08	26.96	-23.5	-23.7	18.4	0.00e+00	0	44	0	1437597696	7	3694
2026-01-15 15:35:49.23	212.29	27.09	-23.5	-23.7	18.4	0.00e+00	0	44	0	1444937728	7	3698
2026-01-15 15:35:50.23	212.49	27.22	-23.6	-23.9	18.3	0.00e+00	0	44	0	1452277760	7	3745
2026-01-15 15:35:51.24	212.71	27.35	-23.5	-23.8	18.4	0.00e+00	0	44	0	1459617792	7	3707
2026-01-15 15:35:52.24	212.92	27.48	-23.5	-23.8	18.3	0.00e+00	0	44	0	1465909248	7	3705
2026-01-15 15:35:53.24	213.13	27.61	-23.7	-24.2	18.1	0.00e+00	0	44	0	1473249280	7	3798
2026-01-15 15:35:54.23	213.34	27.75	-23.5	-23.6	18.4	0.00e+00	0	44	0	1480589312	7	3672
2026-01-15 15:35:55.23	213.55	27.88	-23.6	-24.0	18.2	0.00e+00	0	44	0	1487929344	7	3756
2026-01-15 15:35:56.23	213.77	28.01	-23.5	-23.6	18.4	0.00e+00	0	44	0	1495269376	7	3678
2026-01-15 15:35:57.23	213.99	28.14	-23.2	-23.1	18.7	0.00e+00	0	44	0	1502609408	7	3567
2026-01-15 15:35:58.22	214.21	28.27	-23.3	-23.3	18.6	0.00e+00	0	44	0	1509949440	7	3597
2026-01-15 15:35:59.23	214.43	28.41	-23.6	-23.9	18.3	0.00e+00	0	44	0	1517289472	7	3744
2026-01-15 15:36:00.23	214.66	28.54	-23.6	-24.0	18.2	0.00e+00	0	44	0	1523580928	7	3769
2026-01-15 15:36:01.22	214.88	28.67	-23.8	-24.5	18.0	0.00e+00	0	44	0	1530920960	7	3869
2026-01-15 15:36:02.22	215.11	28.80	-23.5	-23.8	18.3	0.00e+00	0	44	0	1538260992	7	3713
2026-01-15 15:36:03.22	215.34	28.94	-23.4	-23.5	18.5	0.00e+00	0	44	0	1545601024	7	3640
2026-01-15 15:36:04.22	215.57	29.07	-23.3	-23.3	18.6	0.00e+00	0	44	0	1552941056	7	3602
2026-01-15 15:36:05.22	215.80	29.20	-23.4	-23.4	18.6	0.00e+00	0	44	0	1560281088	7	3623
2026-01-15 15:36:06.23	216.04	29.34	-23.3	-23.2	18.6	0.00e+00	0	44	0	1567621120	7	3584
2026-01-15 15:36:07.23	216.28	29.47	-23.4	-23.5	18.5	0.00e+00	0	44	0	1574961152	7	3643
2026-01-15 15:36:08.23	216.52	29.61	-23.6	-23.9	18.3	0.00e+00	0	44	0	1582301184	7	3722
2026-01-15 15:36:09.24	216.76	29.74	-23.4	-23.6	18.5	0.00e+00	0	44	0	1588592640	7	3662
2026-01-15 15:36:10.23	217.00	29.87	-23.4	-23.5	18.6	0.00e+00	0	44	0	1595932672	7	3652
2026-01-15 15:36:11.23	217.25	30.01	-23.5	-23.8	18.4	0.00e+00	0	44	0	1603272704	7	3722
2026-01-15 15:36:12.22	217.49	30.14	-23.6	-24.0	18.3	0.00e+00	0	44	0	1610612736	7	3752
2026-01-15 15:36:13.22	217.74	30.28	-23.6	-24.0	18.3	0.00e+00	0	44	0	1617952768	7	3766
2026-01-15 15:36:14.23	218.00	30.41	-23.8	-24.3	18.1	0.00e+00	0	44	0	1625292800	7	3826
2026-01-15 15:36:15.23	218.25	30.55	-23.6	-24.0	18.3	0.00e+00	0	44	0	1632632832	7	3763
2026-01-15 15:36:16.23	218.51	30.68	-23.7	-24.1	18.3	0.00e+00	0	44	0	1639972864	7	3772
2026-01-15 15:36:17.22	218.76	30.81	-23.6	-23.9	18.4	0.00e+00	0	44	0	1647312896	7	3729
2026-01-15 15:36:18.22	219.02	30.95	-23.6	-23.9	18.4	0.00e+00	0	44	0	1653604352	7	3732
2026-01-15 15:36:19.23	219.28	31.08	-23.5	-23.7	18.5	0.00e+00	0	44	0	1660944384	7	3688
2026-01-15 15:36:20.23	219.55	31.22	-23.7	-24.1	18.2	0.00e+00	0	44	0	1668284416	7	3790
2026-01-15 15:36:21.23	219.81	31.35	-23.5	-23.7	18.5	0.00e+00	0	44	0	1675624448	7	3684
2026-01-15 15:36:22.23	220.08	31.48	-23.4	-23.5	18.6	0.00e+00	0	44	0	1682964480	7	3651
2026-01-15 15:36:23.22	220.35	31.62	-23.4	-23.5	18.5	0.00e+00	0	44	0	1690304512	7	3648
2026-01-15 15:36:24.22	220.62	31.75	-23.6	-24.0	18.3	0.00e+00	0	44	0	1697644544	7	3756
2026-01-15 15:36:25.22	220.90	31.89	-23.5	-23.8	18.4	0.00e+00	0	44	0	1704984576	7	3708
2026-01-15 15:36:26.22	221.17	32.02	-23.7	-24.1	18.3	0.00e+00	0	44	0	1711276032	7	3774
2026-01-15 15:36:27.23	221.46	32.15	-23.5	-23.7	18.5	0.00e+00	0	44	0	1718616064	7	3689
2026-01-15 15:36:28.22	221.74	32.29	-23.4	-23.6	18.5	0.00e+00	0	44	0	1725956096	7	3665
2026-01-15 15:36:29.22	222.02	32.42	-23.4	-23.6	18.5	0.00e+00	0	44	0	1733296128	7	3664
2026-01-15 15:36:30.23	222.31	32.55	-23.5	-23.6	18.5	0.00e+00	0	44	0	1740636160	7	3675
2026-01-15 15:36:31.23	222.60	32.69	-23.3	-23.2	18.7	0.00e+00	0	44	0	1747976192	7	3589
2026-01-15 15:36:32.23	222.89	32.82	-23.3	-23.2	18.7	0.00e+00	0	44	0	1755316224	7	3583
2026-01-15 15:36:33.22	223.18	32.95	-23.4	-23.4	18.6	0.00e+00	0	44	0	1762656256	7	3621
2026-01-15 15:36:34.23	223.48	33.08	-23.3	-23.2	18.7	0.00e+00	0	44	0	1769996288	7	3583
2026-01-15 15:36:35.23	223.77	33.22	-23.2	-23.1	18.8	0.00e+00	0	44	0	1776287744	7	3561
2026-01-15 15:36:36.22	224.07	33.35	-23.2	-23.0	18.8	0.00e+00	0	44	0	1783627776	7	3544
2026-01-15 15:36:37.22	224.37	33.48	-23.3	-23.2	18.7	0.00e+00	0	44	0	1790967808	7	3578
2026-01-15 15:36:38.22	224.68	33.61	-23.1	-22.9	18.9	0.00e+00	0	44	0	1798307840	7	3518
2026-01-15 15:36:39.22	224.99	33.74	-23.0	-22.7	19.0	0.00e+00	0	44	0	1805647872	7	3466
2026-01-15 15:36:40.22	225.30	33.87	-23.2	-23.0	18.9	0.00e+00	0	44	0	1812987904	7	3535
2026-01-15 15:36:41.23	225.61	34.00	-23.2	-23.0	18.8	0.00e+00	0	44	0	1820327936	7	3538
2026-01-15 15:36:42.22	225.92	34.13	-23.3	-23.3	18.7	0.00e+00	0	44	0	1827667968	7	3602
2026-01-15 15:36:43.22	226.24	34.26	-23.5	-23.8	18.5	0.00e+00	0	44	0	1835008000	7	3702
2026-01-15 15:36:44.23	226.56	34.39	-23.4	-23.6	18.5	0.00e+00	0	44	0	1841299456	7	3672
2026-01-15 15:36:45.23	226.89	34.52	-23.5	-23.7	18.5	0.00e+00	0	44	0	1848639488	7	3681
2026-01-15 15:36:46.22	227.21	34.65	-23.3	-23.4	18.7	0.00e+00	0	44	0	1855979520	7	3614
2026-01-15 15:36:47.22	227.53	34.77	-23.3	-23.2	18.7	0.00e+00	0	44	0	1863319552	7	3581
2026-01-15 15:36:48.23	227.87	34.90	-23.4	-23.4	18.6	0.00e+00	0	44	0	1870659584	7	3630
2026-01-15 15:36:49.23	228.20	35.03	-23.4	-23.5	18.6	0.00e+00	0	44	0	1877999616	7	3644
2026-01-15 15:36:50.23	228.53	35.15	-23.2	-23.1	18.8	0.00e+00	0	44	0	1885339648	7	3562
2026-01-15 15:36:51.23	228.87	35.28	-23.3	-23.2	18.8	0.00e+00	0	44	0	1892679680	7	3584
2026-01-15 15:36:52.23	229.21	35.40	-23.2	-23.0	18.9	0.00e+00	0	44	0	1898971136	7	3532
2026-01-15 15:36:53.22	229.55	35.53	-23.1	-22.8	18.9	0.00e+00	0	44	0	1906311168	7	3504
2026-01-15 15:36:54.22	229.90	35.65	-23.2	-23.1	18.8	0.00e+00	0	44	0	1913651200	7	3549
2026-01-15 15:36:55.22	230.24	35.77	-23.1	-22.9	19.0	0.00e+00	0	44	0	1920991232	7	3503
2026-01-15 15:36:56.22	230.59	35.89	-23.2	-23.1	18.8	0.00e+00	0	44	0	1928331264	7	3546
2026-01-15 15:36:57.22	230.95	36.02	-23.4	-23.6	18.6	0.00e+00	0	44	0	1935671296	7	3671
2026-01-15 15:36:58.22	231.30	36.14	-23.6	-23.9	18.4	0.00e+00	0	44	0	1943011328	7	3728
2026-01-15 15:36:59.22	231.66	36.26	-23.3	-23.3	18.7	0.00e+00	0	44	0	1950351360	7	3600
2026-01-15 15:37:00.22	232.02	36.38	-23.3	-23.2	18.8	0.00e+00	0	44	0	1957691392	7	3580
2026-01-15 15:37:01.22	232.38	36.49	-23.3	-23.3	18.7	0.00e+00	0	44	0	1963982848	7	3604
2026-01-15 15:37:02.23	232.75	36.61	-23.1	-22.8	19.0	0.00e+00	0	44	0	1971322880	7	3499
2026-01-15 15:37:03.23	233.12	36.73	-22.9	-22.5	19.1	0.00e+00	0	44	0	1978662912	7	3439
2026-01-15 15:37:04.24	233.49	36.85	-23.1	-22.9	18.9	0.00e+00	0	44	0	1986002944	7	3504
2026-01-15 15:37:05.23	233.86	36.96	-23.1	-22.9	19.0	0.00e+00	0	44	0	1993342976	7	3502
2026-01-15 15:37:06.23	234.24	37.07	-23.2	-23.1	18.8	0.00e+00	0	44	0	2000683008	7	3561
2026-01-15 15:37:07.23	234.62	37.19	-23.4	-23.4	18.7	0.00e+00	0	44	0	2008023040	7	3621
2026-01-15 15:37:08.24	235.00	37.30	-23.5	-23.7	18.5	0.00e+00	0	44	0	2015363072	7	3688
2026-01-15 15:37:09.23	235.38	37.41	-23.5	-23.7	18.5	0.00e+00	0	44	0	2022703104	7	3685
2026-01-15 15:37:10.23	235.77	37.52	-23.4	-23.5	18.6	0.00e+00	0	44	0	2028994560	7	3646
2026-01-15 15:37:11.24	236.16	37.63	-23.2	-23.1	18.8	0.00e+00	0	44	0	2036334592	7	3551
2026-01-15 15:37:12.24	236.55	37.73	-23.2	-23.0	18.9	0.00e+00	0	44	0	2043674624	7	3543
2026-01-15 15:37:13.24	236.95	37.84	-23.3	-23.2	18.8	0.00e+00	0	44	0	2051014656	7	3578
2026-01-15 15:37:14.24	237.34	37.95	-23.1	-22.9	19.0	0.00e+00	0	44	0	2058354688	7	3515
2026-01-15 15:37:15.24	237.74	38.05	-23.2	-23.2	18.9	0.00e+00	0	44	0	2065694720	7	3565
2026-01-15 15:37:16.23	238.14	38.15	-23.3	-23.3	18.8	0.00e+00	0	44	0	2073034752	7	3592
2026-01-15 15:37:17.23	238.54	38.25	-23.3	-23.4	18.7	0.00e+00	0	44	0	2080374784	7	3613
2026-01-15 15:37:18.23	238.95	38.35	-23.1	-22.8	19.0	0.00e+00	0	44	0	2086666240	7	3490
2026-01-15 15:37:19.23	239.36	38.45	-23.1	-22.9	19.0	0.00e+00	0	44	0	2094006272	7	3501
2026-01-15 15:37:20.23	239.77	38.55	-23.1	-22.9	19.0	0.00e+00	0	44	0	2101346304	7	3510
2026-01-15 15:37:21.23	240.18	38.64	-23.3	-23.3	18.7	0.00e+00	0	44	0	2108686336	7	3592
2026-01-15 15:37:22.23	240.60	38.74	-23.2	-23.1	18.9	0.00e+00	0	44	0	2116026368	7	3548
2026-01-15 15:37:23.23	241.02	38.83	-23.3	-23.3	18.8	0.00e+00	0	44	0	2123366400	7	3587
2026-01-15 15:37:24.23	241.44	38.92	-23.1	-22.8	19.0	0.00e+00	0	44	0	2130706432	7	3495
2026-01-15 15:37:25.23	241.86	39.02	-23.1	-22.8	19.0	0.00e+00	0	44	0	2138046464	7	3494
2026-01-15 15:37:26.23	242.29	39.10	-23.3	-23.4	18.8	0.00e+00	0	44	0	2145386496	7	3609
2026-01-15 15:37:27.23	242.72	39.19	-23.3	-23.4	18.8	0.00e+00	0	44	0	2151677952	7	3617
2026-01-15 15:37:28.23	243.15	39.28	-23.3	-23.3	18.8	0.00e+00	0	44	0	2159017984	7	3598
2026-01-15 15:37:29.24	243.58	39.36	-23.4	-23.5	18.7	0.00e+00	0	44	0	2166358016	7	3643
2026-01-15 15:37:30.24	244.02	39.45	-23.4	-23.4	18.7	0.00e+00	0	44	0	2173698048	7	3625
2026-01-15 15:37:31.24	244.45	39.53	-23.6	-23.9	18.5	0.00e+00	0	44	0	2181038080	7	3721
2026-01-15 15:37:32.24	244.89	39.61	-23.5	-23.6	18.6	0.00e+00	0	44	0	2188378112	7	3672
2026-01-15 15:37:33.24	245.33	39.68	-23.5	-23.7	18.6	0.00e+00	0	44	0	2195718144	7	3690
2026-01-15 15:37:34.24	245.78	39.76	-23.6	-23.9	18.5	0.00e+00	0	44	0	2203058176	7	3719
2026-01-15 15:37:35.24	246.22	39.83	-23.7	-24.2	18.3	0.00e+00	0	44	0	2209349632	7	3791
2026-01-15 15:37:36.24	246.67	39.91	-23.6	-23.9	18.5	0.00e+00	0	44	0	2216689664	7	3715
2026-01-15 15:37:37.24	247.12	39.98	-23.3	-23.4	18.7	0.00e+00	0	44	0	2224029696	7	3610
2026-01-15 15:37:38.24	247.57	40.05	-23.6	-23.8	18.5	0.00e+00	0	44	0	2231369728	7	3715
2026-01-15 15:37:39.23	248.01	40.11	-23.8	-24.3	18.2	0.00e+00	0	44	0	2238709760	7	3823
2026-01-15 15:37:40.24	248.47	40.18	-23.7	-24.1	18.4	0.00e+00	0	44	0	2246049792	7	3785
2026-01-15 15:37:41.24	248.93	40.24	-23.8	-24.4	18.2	0.00e+00	0	44	0	2253389824	7	3845
2026-01-15 15:37:42.24	249.39	40.30	-23.9	-24.6	18.2	0.00e+00	0	44	0	2260729856	7	3879
2026-01-15 15:37:43.24	249.85	40.36	-23.4	-23.6	18.6	0.00e+00	0	44	0	2268069888	7	3657
2026-01-15 15:37:44.23	250.30	40.42	-23.1	-22.8	19.0	0.00e+00	0	44	0	2274361344	7	3486
2026-01-15 15:37:45.22	250.76	40.47	-22.9	-22.5	19.2	0.00e+00	0	44	0	2281701376	7	3439
2026-01-15 15:37:46.22	251.23	40.53	-23.1	-22.8	19.1	0.00e+00	0	44	0	2289041408	7	3487
2026-01-15 15:37:47.22	251.69	40.58	-23.1	-22.9	19.0	0.00e+00	0	44	0	2296381440	7	3521
2026-01-15 15:37:48.23	252.16	40.63	-23.1	-22.9	19.0	0.00e+00	0	44	0	2303721472	7	3507
2026-01-15 15:37:49.23	252.63	40.68	-23.3	-23.2	18.8	0.00e+00	0	44	0	2311061504	7	3577
2026-01-15 15:37:50.23	253.10	40.72	-22.9	-22.8	19.3	0.00e+00	0	44	0	2318401536	6	3592
2026-01-15 15:37:51.22	253.57	40.77	-22.8	-22.8	19.3	0.00e+00	0	44	0	2325741568	6	3591
2026-01-15 15:37:52.23	254.04	40.81	-22.7	-22.6	19.4	0.00e+00	0	44	0	2333081600	6	3544
2026-01-15 15:37:53.24	254.52	40.85	-22.9	-22.9	19.2	0.00e+00	0	44	0	2339373056	6	3610
2026-01-15 15:37:54.24	255.00	40.88	-23.0	-23.2	19.1	0.00e+00	0	44	0	2346713088	6	3677
2026-01-15 15:37:55.24	255.47	40.92	-23.0	-23.2	19.1	0.00e+00	0	44	0	2354053120	6	3675
2026-01-15 15:37:56.24	255.95	40.95	-23.1	-23.3	19.0	0.00e+00	0	44	0	2361393152	6	3691
2026-01-15 15:37:57.25	256.43	40.98	-23.1	-23.3	19.1	0.00e+00	0	44	0	2368733184	6	3700
2026-01-15 15:37:58.24	256.91	41.01	-23.2	-23.5	19.0	0.00e+00	0	44	0	2376073216	6	3735
2026-01-15 15:37:59.24	257.38	41.04	-23.5	-24.1	18.6	0.00e+00	0	44	0	2383413248	6	3876
2026-01-15 15:38:00.24	257.86	41.06	-23.5	-23.6	18.6	0.00e+00	0	44	0	2390753280	7	3668
2026-01-15 15:38:01.24	258.35	41.08	-23.6	-23.9	18.5	0.00e+00	0	44	0	2397044736	7	3724
2026-01-15 15:38:02.25	258.83	41.10	-23.6	-23.8	18.5	0.00e+00	0	44	0	2404384768	7	3720
2026-01-15 15:38:03.25	259.31	41.12	-23.7	-24.1	18.5	0.00e+00	0	44	0	2411724800	7	3770
2026-01-15 15:38:04.25	259.80	41.14	-23.5	-23.8	18.6	0.00e+00	0	44	0	2419064832	7	3699
2026-01-15 15:38:05.26	260.28	41.15	-23.5	-23.7	18.6	0.00e+00	0	44	0	2426404864	7	3679
2026-01-15 15:38:06.27	260.77	41.16	-23.5	-23.7	18.6	0.00e+00	0	44	0	2433744896	7	3699
2026-01-15 15:38:07.27	261.25	41.17	-23.4	-23.5	18.7	0.00e+00	0	44	0	2441084928	7	3634
2026-01-15 15:38:08.27	261.74	41.18	-23.3	-23.3	18.8	0.00e+00	0	44	0	2448424960	7	3600
2026-01-15 15:38:09.27	262.22	41.18	-23.3	-23.4	18.8	0.00e+00	0	44	0	2455764992	7	3611
2026-01-15 15:38:10.27	262.70	41.18	-23.2	-23.1	19.0	0.00e+00	0	44	0	2463105024	7	3555
2026-01-15 15:38:11.27	263.19	41.18	-23.1	-23.0	19.0	0.00e+00	0	44	0	2470445056	7	3524
2026-01-15 15:38:12.27	263.67	41.18	-23.2	-23.0	18.9	0.00e+00	0	44	0	2477785088	7	3528
2026-01-15 15:38:13.28	264.16	41.17	-23.1	-22.8	19.0	0.00e+00	0	44	0	2484076544	7	3491
2026-01-15 15:38:14.28	264.64	41.17	-23.2	-23.1	18.9	0.00e+00	0	44	0	2491416576	7	3558
2026-01-15 15:38:15.28	265.13	41.16	-23.3	-23.2	18.8	0.00e+00	0	44	0	2498756608	7	3587
2026-01-15 15:38:16.28	265.61	41.15	-23.2	-23.0	19.0	0.00e+00	0	44	0	2506096640	7	3525
2026-01-15 15:38:17.28	266.09	41.13	-23.2	-23.0	18.9	2.20e-06	0	44	0	2513436672	7	3535
2026-01-15 15:38:18.28	266.57	41.12	-23.2	-23.1	18.9	0.00e+00	0	44	0	2520776704	7	3544
2026-01-15 15:38:19.29	267.06	41.10	-23.2	-23.2	18.9	0.00e+00	0	44	0	2528116736	7	3570
2026-01-15 15:38:20.29	267.54	41.08	-23.2	-23.1	18.9	0.00e+00	0	44	0	2535456768	7	3552
2026-01-15 15:38:21.29	268.02	41.06	-23.4	-23.4	18.7	0.00e+00	0	44	0	2542796800	7	3624
2026-01-15 15:38:22.30	268.50	41.03	-23.6	-23.9	18.5	0.00e+00	0	44	0	2549088256	7	3729
2026-01-15 15:38:23.30	268.98	41.00	-23.5	-23.8	18.5	0.00e+00	0	44	0	2556428288	7	3699
2026-01-15 15:38:24.29	269.46	40.97	-23.5	-23.7	18.6	0.00e+00	0	44	0	2563768320	7	3680
2026-01-15 15:38:25.30	269.94	40.94	-23.7	-24.1	18.4	0.00e+00	0	44	0	2571108352	7	3773
2026-01-15 15:38:26.30	270.41	40.91	-23.5	-23.8	18.6	0.00e+00	0	44	0	2578448384	7	3712
2026-01-15 15:38:27.30	270.89	40.87	-23.5	-23.8	18.6	0.00e+00	0	44	0	2585788416	7	3704
2026-01-15 15:38:28.31	271.37	40.84	-23.4	-23.4	18.7	0.00e+00	0	44	0	2593128448	7	3628
2026-01-15 15:38:29.31	271.84	40.80	-23.4	-23.5	18.7	0.00e+00	0	44	0	2600468480	7	3640
2026-01-15 15:38:30.32	272.32	40.75	-23.2	-23.1	18.9	0.00e+00	0	44	0	2607808512	7	3545
2026-01-15 15:38:31.32	272.79	40.71	-23.3	-23.3	18.7	0.00e+00	0	44	0	2615148544	7	3607
2026-01-15 15:38:32.32	273.25	40.66	-23.3	-23.2	18.8	2.20e-06	0	44	0	2622488576	7	3577
2026-01-15 15:38:33.31	273.72	40.62	-23.3	-23.3	18.8	0.00e+00	0	44	0	2628780032	7	3599
2026-01-15 15:38:34.32	274.19	40.56	-23.3	-23.2	18.9	0.00e+00	0	44	0	2636120064	7	3576
2026-01-15 15:38:35.33	274.66	40.51	-23.1	-22.8	19.0	0.00e+00	0	44	0	2643460096	7	3493
2026-01-15 15:38:36.32	275.12	40.46	-23.0	-22.6	19.2	0.00e+00	0	44	0	2650800128	7	3442
2026-01-15 15:38:37.32	275.58	40.40	-23.1	-22.8	19.0	0.00e+00	0	44	0	2658140160	7	3494
2026-01-15 15:38:38.33	276.04	40.34	-23.2	-23.0	18.9	0.00e+00	0	44	0	2665480192	7	3528
2026-01-15 15:38:39.33	276.50	40.28	-23.2	-23.1	18.9	0.00e+00	0	44	0	2672820224	7	3552
2026-01-15 15:38:40.33	276.96	40.22	-23.1	-22.9	19.0	0.00e+00	0	44	0	2680160256	7	3505
2026-01-15 15:38:41.34	277.42	40.16	-23.0	-22.6	19.2	0.00e+00	0	44	0	2687500288	7	3440
2026-01-15 15:38:42.35	277.87	40.09	-23.0	-23.2	19.1	0.00e+00	0	44	0	2693791744	6	3665
2026-01-15 15:38:43.34	278.32	40.02	-23.0	-23.2	19.1	0.00e+00	0	44	0	2701131776	6	3675
2026-01-15 15:38:44.35	278.77	39.95	-23.1	-23.4	19.0	0.00e+00	0	44	0	2708471808	6	3726
2026-01-15 15:38:45.35	279.22	39.88	-23.3	-23.7	18.8	0.00e+00	0	44	0	2715811840	6	3784
2026-01-15 15:38:46.35	279.67	39.81	-23.5	-24.2	18.6	0.00e+00	0	44	0	2723151872	6	3907
2026-01-15 15:38:47.35	280.11	39.74	-23.6	-24.3	18.5	0.00e+00	0	44	0	2730491904	6	3937
2026-01-15 15:38:48.35	280.55	39.66	-23.6	-23.9	18.5	0.00e+00	0	44	0	2737831936	7	3732
2026-01-15 15:38:49.35	280.99	39.58	-23.5	-23.8	18.5	0.00e+00	0	44	0	2745171968	7	3709
2026-01-15 15:38:50.35	281.43	39.50	-23.2	-23.1	18.9	0.00e+00	0	44	0	2751463424	7	3558
2026-01-15 15:38:51.35	281.86	39.42	-23.1	-22.9	19.0	0.00e+00	0	44	0	2758803456	7	3506
2026-01-15 15:38:52.35	282.30	39.34	-23.2	-23.1	18.9	0.00e+00	0	44	0	2766143488	7	3553
2026-01-15 15:38:53.35	282.73	39.25	-23.4	-23.5	18.7	0.00e+00	0	44	0	2773483520	7	3642
2026-01-15 15:38:54.35	283.16	39.17	-23.4	-23.4	18.7	0.00e+00	0	44	0	2780823552	7	3628
2026-01-15 15:38:55.35	283.58	39.08	-23.4	-23.4	18.7	0.00e+00	0	44	0	2788163584	7	3620
2026-01-15 15:38:56.36	284.01	38.99	-23.4	-23.5	18.6	0.00e+00	0	44	0	2795503616	7	3648
2026-01-15 15:38:57.36	284.43	38.90	-23.4	-23.4	18.7	0.00e+00	0	44	0	2802843648	7	3627
2026-01-15 15:38:58.36	284.85	38.81	-23.2	-23.0	18.9	0.00e+00	0	44	0	2810183680	7	3545
2026-01-15 15:38:59.35	285.26	38.71	-23.2	-23.0	18.9	0.00e+00	0	44	0	2816475136	7	3530
2026-01-15 15:39:00.35	285.68	38.62	-23.3	-23.3	18.8	0.00e+00	0	44	0	2823815168	7	3594
2026-01-15 15:39:01.34	286.08	38.52	-23.3	-23.3	18.8	0.00e+00	0	44	0	2831155200	7	3588
2026-01-15 15:39:02.35	286.50	38.42	-23.5	-23.6	18.6	0.00e+00	0	44	0	2838495232	7	3676
2026-01-15 15:39:03.35	286.91	38.33	-23.4	-23.4	18.7	0.00e+00	0	44	0	2845835264	7	3622
2026-01-15 15:39:04.35	287.31	38.23	-23.5	-23.6	18.6	0.00e+00	0	44	0	2853175296	7	3666
2026-01-15 15:39:05.35	287.71	38.12	-23.6	-24.0	18.4	0.00e+00	0	44	0	2860515328	7	3743
2026-01-15 15:39:06.36	288.12	38.02	-23.7	-24.2	18.4	0.00e+00	0	44	0	2867855360	7	3799
2026-01-15 15:39:07.36	288.51	37.92	-23.5	-23.8	18.5	0.00e+00	0	44	0	2875195392	7	3712
2026-01-15 15:39:08.37	288.91	37.81	-23.4	-23.5	18.7	0.00e+00	0	44	0	2882535424	7	3650
2026-01-15 15:39:09.38	289.31	37.70	-23.4	-23.5	18.7	0.00e+00	0	44	0	2889875456	7	3636
2026-01-15 15:39:10.38	289.70	37.60	-23.3	-23.3	18.8	0.00e+00	0	44	0	2897215488	7	3588
2026-01-15 15:39:11.38	290.08	37.49	-23.0	-22.6	19.1	0.00e+00	0	44	0	2903506944	7	3442
2026-01-15 15:39:12.39	290.47	37.38	-22.9	-22.9	19.2	0.00e+00	0	44	0	2910846976	6	3604
2026-01-15 15:39:13.39	290.85	37.27	-23.0	-23.2	19.0	0.00e+00	0	44	0	2918187008	6	3680
2026-01-15 15:39:14.39	291.23	37.15	-23.0	-23.2	19.1	0.00e+00	0	44	0	2925527040	6	3675
2026-01-15 15:39:15.39	291.61	37.04	-23.3	-23.7	18.8	0.00e+00	0	44	0	2932867072	6	3781
2026-01-15 15:39:16.39	291.98	36.93	-23.2	-23.5	18.9	0.00e+00	0	44	0	2940207104	6	3750
2026-01-15 15:39:17.40	292.36	36.81	-23.2	-23.6	18.9	0.00e+00	0	44	0	2947547136	6	3761
2026-01-15 15:39:18.40	292.73	36.70	-23.2	-23.5	18.9	0.00e+00	0	44	0	2954887168	6	3755
2026-01-15 15:39:19.41	293.10	36.58	-23.3	-23.7	18.8	0.00e+00	0	44	0	2961178624	6	3798
2026-01-15 15:39:20.40	293.46	36.46	-23.4	-24.0	18.7	0.00e+00	0	44	0	2968518656	6	3860
2026-01-15 15:39:21.41	293.82	36.34	-23.3	-23.9	18.7	0.00e+00	0	44	0	2975858688	6	3831
2026-01-15 15:39:22.41	294.18	36.23	-23.3	-23.7	18.8	0.00e+00	0	44	0	2983198720	6	3787
2026-01-15 15:39:23.41	294.54	36.11	-23.5	-24.1	18.6	0.00e+00	0	44	0	2990538752	6	3881
2026-01-15 15:39:24.41	294.89	35.99	-23.5	-23.8	18.5	0.00e+00	0	44	0	2997878784	7	3695
2026-01-15 15:39:25.41	295.24	35.87	-23.2	-23.1	18.9	0.00e+00	0	44	0	3005218816	7	3560
2026-01-15 15:39:26.42	295.59	35.74	-23.3	-23.3	18.8	0.00e+00	0	44	0	3012558848	7	3599
2026-01-15 15:39:27.42	295.94	35.62	-23.3	-23.2	18.8	0.00e+00	0	44	0	3019898880	7	3582
2026-01-15 15:39:28.42	296.28	35.50	-23.4	-23.5	18.7	0.00e+00	0	44	0	3027238912	7	3636
2026-01-15 15:39:29.42	296.62	35.37	-23.5	-23.7	18.6	0.00e+00	0	44	0	3034578944	7	3681
2026-01-15 15:39:30.42	296.96	35.25	-23.4	-23.4	18.7	0.00e+00	0	44	0	3041918976	7	3620
2026-01-15 15:39:31.41	297.29	35.13	-23.4	-23.5	18.7	0.00e+00	0	44	0	3048210432	7	3629
2026-01-15 15:39:32.42	297.63	35.00	-23.3	-23.3	18.7	0.00e+00	0	44	0	3055550464	7	3607
2026-01-15 15:39:33.42	297.96	34.87	-23.4	-23.5	18.6	0.00e+00	0	44	0	3062890496	7	3652
2026-01-15 15:39:34.41	298.28	34.75	-23.5	-23.8	18.5	0.00e+00	0	44	0	3070230528	7	3708
2026-01-15 15:39:35.42	298.61	34.62	-23.4	-23.4	18.7	0.00e+00	0	44	0	3077570560	7	3626
2026-01-15 15:39:36.42	298.94	34.49	-23.2	-23.1	18.9	0.00e+00	0	44	0	3084910592	7	3553
2026-01-15 15:39:37.43	299.26	34.36	-23.1	-22.9	19.0	0.00e+00	0	44	0	3092250624	7	3512
2026-01-15 15:39:38.43	299.58	34.23	-23.1	-22.8	18.9	0.00e+00	0	44	0	3099590656	7	3496
2026-01-15 15:39:39.44	299.90	34.10	-23.1	-22.7	19.0	0.00e+00	0	44	0	3106930688	7	3474
2026-01-15 15:39:40.43	300.21	33.98	-22.9	-22.5	19.2	0.00e+00	0	44	0	3113222144	7	3422
2026-01-15 15:39:41.43	300.52	33.85	-23.1	-22.8	19.0	0.00e+00	0	44	0	3120562176	7	3488
2026-01-15 15:39:42.44	300.83	33.72	-23.2	-23.0	18.9	0.00e+00	0	44	0	3127902208	7	3532
2026-01-15 15:39:43.44	301.13	33.58	-23.4	-23.5	18.6	0.00e+00	0	44	0	3135242240	7	3638
2026-01-15 15:39:44.44	301.44	33.45	-23.4	-23.5	18.6	0.00e+00	0	44	0	3142582272	7	3640
2026-01-15 15:39:45.45	301.74	33.32	-23.6	-24.0	18.4	0.00e+00	0	44	0	3149922304	7	3749
2026-01-15 15:39:46.45	302.04	33.19	-24.1	-25.0	17.9	0.00e+00	0	44	0	3157262336	7	3981
2026-01-15 15:39:47.46	302.34	33.06	-24.3	-24.8	17.7	0.00e+00	0	44	0	3164602368	8	3834
2026-01-15 15:39:48.46	302.63	32.93	-23.9	-24.1	18.1	0.00e+00	0	44	0	3170893824	8	3678
2026-01-15 15:39:49.46	302.92	32.79	-23.8	-23.7	18.3	0.00e+00	0	44	0	3178233856	8	3596
2026-01-15 15:39:50.45	303.21	32.66	-23.7	-23.7	18.3	0.00e+00	0	44	0	3185573888	8	3580
2026-01-15 15:39:51.46	303.50	32.53	-23.9	-24.0	18.1	0.00e+00	0	44	0	3192913920	8	3659
2026-01-15 15:39:52.45	303.78	32.40	-23.9	-24.0	18.2	0.00e+00	0	44	0	3200253952	8	3655
2026-01-15 15:39:53.46	304.06	32.26	-23.9	-24.0	18.1	0.00e+00	0	44	0	3207593984	8	3641
2026-01-15 15:39:54.46	304.34	32.13	-23.7	-23.6	18.2	0.00e+00	0	44	0	3214934016	8	3554
2026-01-15 15:39:55.46	304.62	32.00	-23.5	-23.2	18.6	0.00e+00	0	44	0	3222274048	8	3480
2026-01-15 15:39:56.47	304.90	31.86	-23.5	-23.2	18.6	0.00e+00	0	44	0	3229614080	8	3474
2026-01-15 15:39:57.47	305.17	31.73	-23.4	-23.1	18.6	0.00e+00	0	44	0	3236954112	8	3454
2026-01-15 15:39:58.47	305.44	31.60	-23.3	-23.2	18.7	0.00e+00	0	44	0	3244294144	7	3586
2026-01-15 15:39:59.48	305.72	31.46	-23.4	-23.4	18.6	0.00e+00	0	44	0	3251634176	7	3631
2026-01-15 15:40:00.48	305.98	31.33	-23.4	-23.5	18.6	0.00e+00	0	44	0	3257925632	7	3645
2026-01-15 15:40:01.48	306.25	31.20	-23.7	-24.0	18.3	0.00e+00	0	44	0	3265265664	7	3760
2026-01-15 15:40:02.48	306.51	31.06	-23.8	-24.3	18.2	0.00e+00	0	44	0	3272605696	7	3823
2026-01-15 15:40:03.49	306.77	30.93	-23.6	-23.9	18.4	0.00e+00	0	44	0	3279945728	7	3738
2026-01-15 15:40:04.48	307.03	30.80	-23.6	-23.9	18.4	0.00e+00	0	44	0	3287285760	7	3725
2026-01-15 15:40:05.49	307.29	30.66	-23.7	-24.2	18.2	0.00e+00	0	44	0	3294625792	7	3798
2026-01-15 15:40:06.49	307.54	30.53	-23.9	-24.5	18.1	0.00e+00	0	44	0	3301965824	7	3866
2026-01-15 15:40:07.49	307.79	30.39	-23.8	-24.3	18.2	0.00e+00	0	44	0	3309305856	7	3832
2026-01-15 15:40:08.49	308.04	30.26	-23.7	-24.1	18.3	0.00e+00	0	44	0	3315597312	7	3778
2026-01-15 15:40:09.49	308.29	30.13	-23.9	-24.5	18.1	0.00e+00	0	44	0	3322937344	7	3877
2026-01-15 15:40:10.50	308.54	29.99	-23.9	-24.4	18.1	0.00e+00	0	44	0	3330277376	7	3855
2026-01-15 15:40:11.50	308.78	29.86	-23.8	-24.3	18.2	0.00e+00	0	44	0	3337617408	7	3823
2026-01-15 15:40:12.50	309.02	29.73	-23.7	-24.2	18.3	0.00e+00	0	44	0	3344957440	7	3785
2026-01-15 15:40:13.51	309.26	29.59	-23.7	-24.1	18.3	0.00e+00	0	44	0	3352297472	7	3772
2026-01-15 15:40:14.51	309.50	29.46	-23.6	-24.0	18.3	0.00e+00	0	44	0	3359637504	7	3750
2026-01-15 15:40:15.51	309.74	29.33	-23.8	-24.4	18.1	0.00e+00	0	44	0	3366977536	7	3838
2026-01-15 15:40:16.50	309.97	29.19	-23.8	-24.4	18.1	0.00e+00	0	44	0	3374317568	7	3840
2026-01-15 15:40:17.50	310.20	29.06	-23.8	-24.3	18.2	0.00e+00	0	44	0	3380609024	7	3827
2026-01-15 15:40:18.50	310.43	28.93	-23.6	-24.0	18.4	0.00e+00	0	44	0	3387949056	7	3755
2026-01-15 15:40:19.50	310.66	28.80	-23.6	-23.9	18.4	0.00e+00	0	44	0	3395289088	7	3739
2026-01-15 15:40:20.50	310.89	28.66	-23.8	-24.3	18.2	0.00e+00	0	44	0	3402629120	7	3823
2026-01-15 15:40:21.50	311.11	28.53	-23.8	-24.4	18.1	0.00e+00	0	44	0	3409969152	7	3839
2026-01-15 15:40:22.49	311.33	28.40	-23.7	-24.2	18.2	0.00e+00	0	44	0	3417309184	7	3784
2026-01-15 15:40:23.50	311.56	28.27	-23.7	-24.1	18.3	0.00e+00	0	44	0	3424649216	7	3783
2026-01-15 15:40:24.49	311.77	28.14	-23.6	-24.0	18.4	0.00e+00	0	44	0	3431989248	7	3753
2026-01-15 15:40:25.50	311.99	28.01	-23.6	-24.0	18.3	0.00e+00	0	44	0	3439329280	7	3751
2026-01-15 15:40:26.50	312.21	27.88	-23.6	-23.9	18.3	0.00e+00	0	44	0	3445620736	7	3741
2026-01-15 15:40:27.50	312.42	27.74	-23.5	-23.6	18.5	0.00e+00	0	44	0	3452960768	7	3673
2026-01-15 15:40:28.51	312.64	27.61	-23.5	-23.6	18.5	0.00e+00	0	44	0	3460300800	7	3673
2026-01-15 15:40:29.51	312.85	27.48	-23.7	-24.1	18.2	0.00e+00	0	44	0	3467640832	7	3784
2026-01-15 15:40:30.51	313.06	27.35	-23.8	-24.3	18.2	0.00e+00	0	44	0	3474980864	7	3810
2026-01-15 15:40:31.51	313.27	27.22	-23.5	-23.8	18.4	0.00e+00	0	44	0	3482320896	7	3698
2026-01-15 15:40:32.51	313.47	27.09	-23.5	-23.6	18.5	0.00e+00	0	44	0	3489660928	7	3672
2026-01-15 15:40:33.51	313.68	26.96	-23.4	-23.6	18.5	0.00e+00	0	44	0	3497000960	7	3661
2026-01-15 15:40:34.51	313.88	26.83	-23.5	-23.7	18.4	0.00e+00	0	44	0	3503292416	7	3687
2026-01-15 15:40:35.52	314.08	26.70	-23.6	-23.9	18.4	0.00e+00	0	44	0	3511681024	7	3717
2026-01-15 15:40:36.52	314.28	26.57	-23.7	-24.1	18.2	0.00e+00	0	44	0	3519021056	7	3774
2026-01-15 15:40:37.52	314.48	26.45	-23.6	-23.9	18.3	0.00e+00	0	44	0	3525312512	7	3734
2026-01-15 15:40:38.52	314.68	26.32	-23.5	-23.7	18.4	0.00e+00	0	44	0	3532652544	7	3692
2026-01-15 15:40:39.53	314.87	26.19	-23.6	-23.8	18.4	0.00e+00	0	44	0	3539992576	7	3716
2026-01-15 15:40:40.53	315.07	26.06	-23.6	-24.0	18.3	0.00e+00	0	44	0	3547332608	7	3756
2026-01-15 15:40:41.53	315.26	25.93	-23.6	-24.0	18.3	0.00e+00	0	44	0	3554672640	7	3749
2026-01-15 15:40:42.53	315.45	25.81	-23.6	-23.9	18.3	0.00e+00	0	44	0	3562012672	7	3731
2026-01-15 15:40:43.53	315.64	25.68	-23.6	-23.9	18.3	0.00e+00	0	44	0	3569352704	7	3738
2026-01-15 15:40:44.53	315.82	25.55	-23.7	-24.1	18.2	0.00e+00	0	44	0	3576692736	7	3782
2026-01-15 15:40:45.53	316.01	25.43	-24.0	-24.3	17.8	0.00e+00	0	44	0	3584032768	8	3725
2026-01-15 15:40:46.54	316.19	25.30	-23.9	-24.0	18.0	0.00e+00	0	44	0	3590324224	8	3650
2026-01-15 15:40:47.54	316.38	25.17	-23.8	-23.9	18.1	0.00e+00	0	44	0	3597664256	8	3639
2026-01-15 15:40:48.55	316.56	25.05	-23.9	-24.0	18.0	0.00e+00	0	44	0	3605004288	8	3651
2026-01-15 15:40:49.55	316.74	24.92	-24.0	-24.2	17.9	0.00e+00	0	44	0	3612344320	8	3706
2026-01-15 15:40:50.55	316.92	24.80	-24.1	-24.4	17.8	0.00e+00	0	44	0	3619684352	8	3738
2026-01-15 15:40:51.55	317.10	24.67	-23.9	-24.0	17.9	0.00e+00	0	44	0	3627024384	8	3666
2026-01-15 15:40:52.55	317.27	24.55	-23.8	-23.8	18.1	0.00e+00	0	44	0	3634364416	8	3616
2026-01-15 15:40:53.54	317.45	24.42	-23.8	-23.9	18.0	0.00e+00	0	44	0	3641704448	8	3638
2026-01-15 15:40:54.54	317.62	24.30	-23.8	-23.8	18.1	0.00e+00	0	44	0	3649044480	8	3619
2026-01-15 15:40:55.54	317.79	24.18	-23.7	-23.6	18.2	0.00e+00	0	44	0	3655335936	8	3565
2026-01-15 15:40:56.54	317.96	24.06	-23.9	-24.0	18.0	0.00e+00	0	44	0	3662675968	8	3658
2026-01-15 15:40:57.54	318.13	23.93	-23.9	-24.0	18.0	0.00e+00	0	44	0	3670016000	8	3650
2026-01-15 15:40:58.54	318.30	23.81	-23.8	-23.8	18.1	0.00e+00	0	44	0	3677356032	8	3608
2026-01-15 15:40:59.54	318.47	23.69	-24.0	-24.3	17.8	0.00e+00	0	44	0	3684696064	8	3713
2026-01-15 15:41:00.55	318.63	23.57	-24.0	-24.2	17.9	0.00e+00	0	44	0	3692036096	8	3706
2026-01-15 15:41:01.55	318.80	23.44	-23.9	-24.1	17.9	0.00e+00	0	44	0	3699376128	8	3673
2026-01-15 15:41:02.55	318.96	23.32	-24.0	-24.3	17.8	0.00e+00	0	44	0	3706716160	8	3722
2026-01-15 15:41:03.55	319.12	23.20	-24.3	-24.9	17.5	0.00e+00	0	44	0	3713007616	8	3855
2026-01-15 15:41:04.55	319.28	23.08	-24.4	-25.0	17.4	0.00e+00	0	44	0	3720347648	8	3891
2026-01-15 15:41:05.56	319.44	22.96	-24.3	-24.9	17.5	0.00e+00	0	44	0	3727687680	8	3851
2026-01-15 15:41:06.56	319.60	22.84	-24.3	-25.0	17.4	0.00e+00	0	44	0	3735027712	8	3881
2026-01-15 15:41:07.56	319.76	22.72	-24.4	-25.0	17.4	0.00e+00	0	44	0	3742367744	8	3890
2026-01-15 15:41:08.56	319.91	22.60	-24.3	-24.8	17.5	0.00e+00	0	44	0	3749707776	8	3846
2026-01-15 15:41:09.56	320.07	22.49	-24.4	-25.0	17.4	0.00e+00	0	44	0	3757047808	8	3892
2026-01-15 15:41:10.56	320.22	22.37	-24.3	-24.9	17.5	0.00e+00	0	44	0	3764387840	8	3857
2026-01-15 15:41:11.56	320.38	22.25	-24.2	-24.6	17.6	0.00e+00	0	44	0	3771727872	8	3796
2026-01-15 15:41:12.57	320.53	22.13	-24.2	-24.7	17.6	0.00e+00	0	44	0	3779067904	8	3814
2026-01-15 15:41:13.57	320.68	22.01	-24.1	-24.6	17.7	0.00e+00	0	44	0	3786407936	8	3779
2026-01-15 15:41:14.57	320.83	21.90	-24.2	-24.7	17.6	0.00e+00	0	44	0	3793747968	8	3803
2026-01-15 15:41:15.58	320.98	21.78	-24.2	-24.8	17.5	0.00e+00	0	44	0	3800039424	8	3822
2026-01-15 15:41:16.58	321.12	21.66	-24.3	-24.9	17.5	0.00e+00	0	44	0	3807379456	8	3860
2026-01-15 15:41:17.58	321.27	21.55	-24.6	-25.5	17.2	0.00e+00	0	44	0	3814719488	8	3991
2026-01-15 15:41:18.57	321.41	21.43	-24.5	-24.8	17.2	0.00e+00	0	44	0	3822059520	9	3739
2026-01-15 15:41:19.57	321.56	21.32	-24.5	-24.8	17.3	0.00e+00	0	44	0	3829399552	9	3727
2026-01-15 15:41:20.57	321.70	21.20	-24.5	-24.8	17.3	0.00e+00	0	44	0	3836739584	9	3725
2026-01-15 15:41:21.58	321.84	21.09	-24.5	-24.9	17.2	0.00e+00	0	44	0	3844079616	9	3758
2026-01-15 15:41:22.58	321.98	20.97	-24.6	-25.0	17.1	0.00e+00	0	44	0	3851419648	9	3771
2026-01-15 15:41:23.58	322.12	20.86	-24.6	-25.0	17.1	0.00e+00	0	44	0	3857711104	9	3782
2026-01-15 15:41:24.59	322.26	20.75	-24.5	-24.9	17.2	0.00e+00	0	44	0	3865051136	9	3757
2026-01-15 15:41:25.59	322.40	20.63	-24.6	-25.1	17.1	0.00e+00	0	44	0	3872391168	9	3793
2026-01-15 15:41:26.59	322.54	20.52	-24.6	-25.0	17.1	0.00e+00	0	44	0	3879731200	9	3774
2026-01-15 15:41:27.59	322.67	20.41	-24.6	-25.1	17.0	0.00e+00	0	44	0	3887071232	9	3806
2026-01-15 15:41:28.60	322.81	20.30	-24.6	-25.1	17.1	0.00e+00	0	44	0	3894411264	9	3792
2026-01-15 15:41:29.59	322.94	20.19	-24.6	-25.1	17.1	0.00e+00	0	44	0	3901751296	9	3810
2026-01-15 15:41:30.59	323.08	20.07	-24.8	-25.4	16.9	0.00e+00	0	44	0	3909091328	9	3880
2026-01-15 15:41:31.59	323.21	19.96	-24.7	-25.2	17.0	0.00e+00	0	44	0	3916431360	9	3819
2026-01-15 15:41:32.59	323.34	19.85	-24.5	-24.7	17.3	0.00e+00	0	44	0	3922722816	9	3713
2026-01-15 15:41:33.60	323.47	19.74	-24.4	-24.6	17.4	0.00e+00	0	44	0	3930062848	9	3679
2026-01-15 15:41:34.60	323.60	19.63	-24.4	-24.6	17.3	0.00e+00	0	44	0	3937402880	9	3682
2026-01-15 15:41:35.60	323.73	19.52	-24.4	-24.6	17.3	0.00e+00	0	44	0	3944742912	9	3692
2026-01-15 15:41:36.61	323.86	19.41	-24.3	-24.4	17.4	0.00e+00	0	44	0	3952082944	9	3642
2026-01-15 15:41:37.61	323.98	19.30	-24.3	-24.4	17.4	0.00e+00	0	44	0	3959422976	9	3643
2026-01-15 15:41:38.61	324.11	19.20	-24.3	-24.4	17.4	0.00e+00	0	44	0	3966763008	9	3640
2026-01-15 15:41:39.61	324.23	19.09	-24.4	-24.7	17.3	0.00e+00	0	44	0	3974103040	9	3697
2026-01-15 15:41:40.61	324.36	18.98	-24.4	-24.7	17.3	0.00e+00	0	44	0	3981443072	9	3702
2026-01-15 15:41:41.61	324.48	18.87	-24.4	-24.6	17.3	0.00e+00	0	44	0	3987734528	9	3696
2026-01-15 15:41:42.62	324.61	18.77	-24.5	-24.8	17.2	0.00e+00	0	44	0	3996123136	9	3742
2026-01-15 15:41:43.61	324.73	18.66	-24.7	-25.2	17.0	0.00e+00	0	44	0	4002414592	9	3821
2026-01-15 15:41:44.62	324.85	18.55	-24.6	-25.1	17.0	0.00e+00	0	44	0	4009754624	9	3795
2026-01-15 15:41:45.62	324.97	18.45	-24.6	-25.2	17.0	0.00e+00	0	44	0	4017094656	9	3817
2026-01-15 15:41:46.63	325.09	18.34	-24.9	-25.7	16.7	0.00e+00	0	44	0	4024434688	9	3954
2026-01-15 15:41:47.63	325.21	18.23	-24.8	-25.5	16.8	0.00e+00	0	44	0	4031774720	9	3895
2026-01-15 15:41:48.63	325.32	18.13	-24.9	-25.7	16.7	0.00e+00	0	44	0	4039114752	9	3953
2026-01-15 15:41:49.62	325.44	18.03	-24.9	-25.7	16.7	0.00e+00	0	44	0	4046454784	9	3936
2026-01-15 15:41:50.62	325.56	17.92	-24.9	-25.8	16.7	0.00e+00	0	44	0	4053794816	9	3962
2026-01-15 15:41:51.62	325.67	17.82	-25.0	-26.0	16.6	0.00e+00	0	44	0	4061134848	9	4008
2026-01-15 15:41:52.63	325.79	17.71	-24.9	-25.7	16.7	0.00e+00	0	44	0	4067426304	9	3950
2026-01-15 15:41:53.63	325.90	17.61	-24.9	-25.8	16.6	0.00e+00	0	44	0	4074766336	9	3965
2026-01-15 15:41:54.64	326.02	17.51	-25.0	-25.8	16.6	0.00e+00	0	44	0	4082106368	9	3974
2026-01-15 15:41:55.64	326.13	17.40	-25.1	-25.6	16.5	3.40e-06	0	44	0	4089446400	10	3805
2026-01-15 15:41:56.65	326.24	17.30	-25.1	-25.6	16.5	0.00e+00	0	44	0	4096786432	10	3807
2026-01-15 15:41:57.65	326.35	17.20	-25.1	-25.5	16.5	1.10e-06	0	44	0	4104126464	10	3802
2026-01-15 15:41:58.64	326.46	17.10	-24.9	-25.3	16.5	0.00e+00	0	44	0	4111466496	10	3740
2026-01-15 15:41:59.64	326.57	17.00	-25.1	-25.7	16.4	0.00e+00	0	44	0	4118806528	10	3829
2026-01-15 15:42:00.64	326.68	16.90	-25.0	-25.5	16.5	0.00e+00	0	44	0	4126146560	10	3789
2026-01-15 15:42:01.64	326.79	16.79	-25.1	-25.6	16.4	0.00e+00	0	44	0	4132438016	10	3823
2026-01-15 15:42:02.63	326.89	16.70	-25.1	-25.6	16.5	0.00e+00	0	44	0	4139778048	10	3809
2026-01-15 15:42:03.64	327.00	16.59	-25.1	-25.6	16.4	0.00e+00	0	44	0	4147118080	10	3813
2026-01-15 15:42:04.64	327.11	16.49	-25.1	-25.7	16.4	0.00e+00	0	44	0	4154458112	10	3839
2026-01-15 15:42:05.64	327.21	16.40	-25.1	-25.7	16.4	0.00e+00	0	44	0	4161798144	10	3833
2026-01-15 15:42:06.64	327.32	16.30	-25.1	-25.7	16.4	0.00e+00	0	44	0	4169138176	10	3827
2026-01-15 15:42:07.63	327.42	16.20	-25.3	-26.0	16.2	0.00e+00	0	44	0	4176478208	10	3917
2026-01-15 15:42:08.63	327.52	16.10	-25.3	-26.0	16.2	0.00e+00	0	44	0	4183818240	10	3921
2026-01-15 15:42:09.64	327.63	16.00	-25.2	-25.8	16.3	0.00e+00	0	44	0	4191158272	10	3863
2026-01-15 15:42:10.63	327.73	15.90	-25.2	-25.9	16.3	0.00e+00	0	44	0	4197449728	10	3879
2026-01-15 15:42:11.64	327.83	15.81	-25.0	-25.4	16.5	0.00e+00	0	44	0	4204789760	10	3776
2026-01-15 15:42:12.65	327.93	15.71	-25.3	-26.0	16.2	0.00e+00	0	44	0	4212129792	10	3905
2026-01-15 15:42:13.65	328.03	15.61	-25.3	-26.1	16.1	0.00e+00	0	44	0	4219469824	10	3941
2026-01-15 15:42:14.64	328.13	15.52	-25.3	-26.1	16.1	0.00e+00	0	44	0	4226809856	10	3947
2026-01-15 15:42:15.65	328.23	15.42	-25.4	-26.3	16.1	0.00e+00	0	44	0	4234149888	10	3975
2026-01-15 15:42:16.65	328.33	15.32	-25.3	-26.0	16.2	0.00e+00	0	44	0	4241489920	10	3905
2026-01-15 15:42:17.65	328.43	15.23	-25.7	-26.3	15.8	0.00e+00	0	44	0	4248829952	11	3880
2026-01-15 15:42:18.65	328.52	15.13	-25.4	-25.8	16.0	0.00e+00	0	44	0	4255121408	11	3752
2026-01-15 15:42:19.65	328.62	15.04	-25.6	-26.2	15.8	0.00e+00	0	44	0	4262461440	11	3851
2026-01-15 15:42:20.66	328.72	14.94	-25.5	-25.9	15.9	0.00e+00	0	44	0	4269801472	11	3789
2026-01-15 15:42:21.65	328.81	14.85	-25.5	-26.0	15.9	0.00e+00	0	44	0	4277141504	11	3802
2026-01-15 15:42:22.65	328.91	14.75	-25.6	-26.1	15.8	0.00e+00	0	44	0	4284481536	11	3842
2026-01-15 15:42:23.65	329.00	14.66	-25.6	-26.2	15.7	0.00e+00	0	44	0	4291821568	11	3869
2026-01-15 15:42:24.65	329.09	14.57	-25.8	-26.5	15.6	0.00e+00	0	44	0	4299161600	11	3937
2026-01-15 15:42:25.65	329.19	14.47	-25.4	-25.7	16.0	0.00e+00	0	44	0	4306501632	11	3749
2026-01-15 15:42:26.65	329.28	14.38	-26.0	-27.1	15.3	0.00e+00	0	44	0	4313841664	11	4081
2026-01-15 15:42:27.65	329.37	14.29	-25.7	-26.5	15.6	0.00e+00	0	44	0	4320133120	11	3926
2026-01-15 15:42:28.66	329.46	14.19	-25.8	-26.6	15.5	0.00e+00	0	44	0	4327473152	11	3956
2026-01-15 15:42:29.66	329.56	14.10	-25.8	-26.7	15.5	0.00e+00	0	44	0	4334813184	11	3983
2026-01-15 15:42:30.66	329.65	14.01	-26.0	-27.1	15.2	0.00e+00	0	44	0	4342153216	11	4093
2026-01-15 15:42:31.67	329.74	13.92	-25.8	-26.1	15.4	0.00e+00	0	44	0	4349493248	12	3746
2026-01-15 15:42:32.66	329.82	13.83	-26.0	-26.6	15.2	0.00e+00	0	44	0	4356833280	12	3856
2026-01-15 15:42:33.67	329.91	13.74	-26.0	-26.5	15.2	0.00e+00	0	44	0	4364173312	12	3834
2026-01-15 15:42:34.67	330.00	13.64	-26.0	-26.6	15.2	0.00e+00	0	44	0	4371513344	12	3846
2026-01-15 15:42:35.67	330.09	13.55	-25.9	-26.3	15.3	0.00e+00	0	44	0	4378853376	12	3787
2026-01-15 15:42:36.67	330.18	13.46	-26.0	-26.5	15.2	0.00e+00	0	44	0	4386193408	12	3839
2026-01-15 15:42:37.67	330.26	13.37	-26.0	-26.6	15.1	0.00e+00	0	44	0	4393533440	12	3860
2026-01-15 15:42:38.67	330.35	13.28	-26.0	-26.6	15.1	0.00e+00	0	44	0	4399824896	12	3867
2026-01-15 15:42:39.68	330.44	13.19	-25.8	-26.0	15.4	0.00e+00	0	44	0	4407164928	12	3721
2026-01-15 15:42:40.68	330.52	13.11	-26.0	-26.6	15.1	0.00e+00	0	44	0	4414504960	12	3862
2026-01-15 15:42:41.69	330.61	13.02	-26.1	-26.7	15.0	0.00e+00	0	44	0	4421844992	12	3889
2026-01-15 15:42:42.69	330.69	12.93	-26.0	-26.7	15.1	0.00e+00	0	44	0	4429185024	12	3885
2026-01-15 15:42:43.69	330.78	12.84	-26.3	-27.2	14.7	0.00e+00	0	44	0	4436525056	12	4018
2026-01-15 15:42:44.69	330.86	12.75	-26.4	-27.6	14.5	0.00e+00	0	44	0	4443865088	12	4108
2026-01-15 15:42:45.70	330.94	12.66	-26.6	-27.5	14.3	1.10e-06	0	44	0	4451205120	13	3971
2026-01-15 15:42:46.71	331.03	12.57	-26.4	-27.0	14.6	1.10e-06	0	44	0	4458545152	13	3852
2026-01-15 15:42:47.71	331.11	12.49	-26.4	-27.1	14.6	0.00e+00	0	44	0	4464836608	13	3874
2026-01-15 15:42:48.70	331.19	12.40	-26.5	-27.3	14.4	1.10e-06	0	44	0	4472176640	13	3922
2026-01-15 15:42:49.70	331.27	12.32	-26.5	-27.2	14.4	1.10e-06	0	44	0	4479516672	13	3919
2026-01-15 15:42:50.71	331.35	12.23	-26.7	-27.7	14.2	0.00e+00	0	44	0	4486856704	13	4035
2026-01-15 15:42:51.71	331.43	12.14	-26.6	-27.4	14.3	1.10e-06	0	44	0	4494196736	13	3966
2026-01-15 15:42:52.71	331.51	12.06	-26.5	-27.2	14.5	1.10e-06	0	44	0	4501536768	13	3904
2026-01-15 15:42:53.71	331.59	11.97	-26.3	-26.8	14.7	0.00e+00	0	44	0	4508876800	13	3814
2026-01-15 15:42:54.72	331.67	11.88	-26.5	-27.3	14.4	0.00e+00	0	44	0	4516216832	13	3936
2026-01-15 15:42:55.72	331.75	11.80	-26.4	-27.1	14.5	1.10e-06	0	44	0	4523556864	13	3882
2026-01-15 15:42:56.73	331.83	11.71	-26.2	-26.5	14.8	0.00e+00	0	44	0	4530896896	13	3738
2026-01-15 15:42:57.73	331.91	11.63	-26.5	-27.1	14.5	0.00e+00	0	44	0	4538236928	13	3893
2026-01-15 15:42:58.73	331.98	11.54	-26.5	-27.3	14.4	1.10e-06	0	44	0	4545576960	13	3927
2026-01-15 15:42:59.74	332.06	11.46	-26.3	-26.8	14.6	1.10e-06	0	44	0	4551868416	13	3808
2026-01-15 15:43:00.74	332.14	11.38	-26.3	-26.9	14.6	0.00e+00	0	44	0	4559208448	13	3822
2026-01-15 15:43:01.74	332.21	11.29	-26.2	-26.5	14.8	1.10e-06	0	44	0	4566548480	13	3743
2026-01-15 15:43:02.74	332.29	11.21	-26.5	-27.2	14.4	1.10e-06	0	44	0	4573888512	13	3915
2026-01-15 15:43:03.73	332.36	11.13	-26.5	-27.3	14.3	0.00e+00	0	44	0	4581228544	13	3927
2026-01-15 15:43:04.73	332.44	11.04	-26.7	-27.6	14.2	1.10e-06	0	44	0	4588568576	13	4002
2026-01-15 15:43:05.73	332.51	10.96	-26.6	-27.4	14.3	0.00e+00	0	44	0	4595908608	13	3946
2026-01-15 15:43:06.73	332.59	10.88	-27.0	-28.2	13.8	4.50e-06	0	44	0	4603248640	13	4174
2026-01-15 15:43:07.73	332.66	10.80	-26.7	-27.7	14.1	2.20e-06	0	44	0	4609540096	13	4035
2026-01-15 15:43:08.74	332.73	10.71	-27.0	-28.4	13.7	2.20e-06	0	44	0	4616880128	13	4214
2026-01-15 15:43:09.74	332.81	10.63	-26.9	-28.1	13.9	1.10e-06	0	44	0	4624220160	13	4129
2026-01-15 15:43:10.75	332.88	10.55	-26.7	-27.7	14.1	2.20e-06	0	44	0	4631560192	13	4040
2026-01-15 15:43:11.75	332.95	10.47	-27.2	-28.3	13.5	6.80e-06	0	44	0	4638900224	14	4079
2026-01-15 15:43:12.75	333.02	10.39	-27.1	-28.0	13.6	6.80e-06	0	44	0	4646240256	14	4007
2026-01-15 15:43:13.75	333.10	10.31	-27.4	-28.7	13.3	1.14e-05	0	44	0	4653580288	14	4182
2026-01-15 15:43:14.74	333.17	10.23	-27.5	-28.5	13.0	5.60e-05	0	44	0	4660920320	15	4033
2026-01-15 15:43:15.74	333.24	10.15	-26.7	-27.3	14.0	1.10e-06	0	44	0	4668260352	14	3828
2026-01-15 15:43:16.75	333.31	10.07	-26.9	-27.5	13.8	1.10e-06	0	44	0	4674551808	14	3893
2026-01-15 15:43:17.75	333.38	9.99	-26.7	-27.2	14.0	1.10e-06	0	44	0	4681891840	14	3799
2026-01-15 15:43:18.75	333.45	9.91	-26.5	-27.2	14.3	0.00e+00	0	44	0	4689231872	13	3908
2026-01-15 15:43:19.75	333.52	9.83	-26.9	-28.1	13.8	4.50e-06	0	44	0	4696571904	13	4156
2026-01-15 15:43:20.75	333.58	9.75	-26.6	-27.5	14.1	0.00e+00	0	44	0	4703911936	13	4001
2026-01-15 15:43:21.75	333.65	9.67	-27.2	-28.3	13.4	1.60e-05	0	44	0	4711251968	14	4088
2026-01-15 15:43:22.74	333.72	9.59	-27.0	-27.9	13.6	8.00e-06	0	44	0	4718592000	14	3982
2026-01-15 15:43:23.74	333.79	9.51	-26.9	-27.7	13.7	4.50e-06	0	44	0	4725932032	14	3949
2026-01-15 15:43:24.74	333.86	9.44	-26.9	-27.7	13.7	4.69e-05	0	44	0	4733272064	14	3942
2026-01-15 15:43:25.74	333.92	9.36	-27.7	-28.9	12.7	4.11e-05	0	44	0	4739563520	15	4146
2026-01-15 15:43:26.74	333.99	9.28	-27.8	-29.3	12.4	1.12e-04	0	44	0	4746903552	15	4273
2026-01-15 15:43:27.74	334.06	9.20	-27.7	-28.9	12.6	8.69e-05	0	44	0	4754243584	15	4162
2026-01-15 15:43:28.74	334.12	9.13	-27.4	-28.2	13.1	2.05e-05	0	44	0	4761583616	15	3961
2026-01-15 15:43:29.74	334.19	9.05	-27.3	-28.0	13.2	1.37e-05	0	44	0	4768923648	15	3927
2026-01-15 15:43:30.74	334.25	8.97	-27.6	-28.7	12.8	5.14e-05	0	44	0	4776263680	15	4095
2026-01-15 15:43:31.74	334.32	8.89	-27.7	-29.1	12.6	5.14e-05	0	44	0	4783603712	15	4197
2026-01-15 15:43:32.74	334.38	8.82	-27.7	-28.9	12.6	8.81e-05	0	44	0	4790943744	15	4160
2026-01-15 15:43:33.74	334.45	8.74	-27.3	-28.0	13.2	4.92e-05	0	44	0	4797235200	15	3919
2026-01-15 15:43:34.74	334.51	8.66	-27.4	-28.3	13.0	3.20e-05	0	44	0	4804575232	15	4004
2026-01-15 15:43:35.74	334.58	8.59	-27.1	-27.7	13.4	9.10e-06	0	44	0	4811915264	15	3840
2026-01-15 15:43:36.73	334.64	8.51	-27.5	-28.5	12.9	3.31e-05	0	44	0	4819255296	15	4040
2026-01-15 15:43:37.74	334.70	8.44	-27.5	-28.5	12.8	5.26e-05	0	44	0	4826595328	15	4050
2026-01-15 15:43:38.74	334.77	8.36	-27.3	-28.1	13.1	2.86e-05	0	44	0	4833935360	15	3951
2026-01-15 15:43:39.74	334.83	8.29	-27.5	-28.5	12.8	1.04e-04	0	44	0	4841275392	15	4056
2026-01-15 15:43:40.75	334.89	8.21	-27.0	-27.9	13.5	8.00e-06	0	44	0	4848615424	14	3985
2026-01-15 15:43:41.75	334.95	8.14	-27.3	-28.1	13.0	7.32e-05	0	44	0	4855955456	15	3952
2026-01-15 15:43:42.75	335.01	8.06	-27.4	-28.3	12.9	3.66e-05	0	44	0	4862246912	15	4000
2026-01-15 15:43:43.75	335.08	7.99	-27.7	-29.0	12.5	5.49e-05	0	44	0	4869586944	15	4183
2026-01-15 15:43:44.76	335.14	7.91	-27.9	-29.5	12.2	2.14e-04	0	44	0	4876926976	15	4329
2026-01-15 15:43:45.76	335.20	7.84	-28.3	-30.0	11.8	2.55e-04	0	44	0	4884267008	16	4359
2026-01-15 15:43:46.77	335.26	7.76	-28.0	-29.2	12.2	3.80e-04	0	44	0	4891607040	16	4122
2026-01-15 15:43:47.77	335.32	7.69	-27.5	-28.1	12.9	3.66e-05	0	44	0	4898947072	16	3829
2026-01-15 15:43:48.77	335.38	7.62	-27.4	-27.7	13.1	6.63e-05	0	44	0	4906287104	16	3749
2026-01-15 15:43:49.77	335.44	7.54	-27.5	-28.5	12.8	5.14e-05	0	44	0	4913627136	15	4042
2026-01-15 15:43:50.77	335.50	7.47	-27.2	-27.9	13.1	1.02e-05	0	44	0	4920967168	15	3903
